ncols 200
nrows 82
xllcorner 280000
yllcorner 771200
cellsize 50
559.5 563.6 564.9 563 560.7 557.6 554.8 552 551.3 548.5 545.5 542.1 538.1 535.2 532.9 529.8 529.2 514.5 516.8 529.8 538.5 546.4 552.8 558.1 561 562.9 562.7 562.2 560.2 557.4 554.7 553.1 552.7 551.4 550.9 549.7 547.8 547.9 547.9 545.3 545.4 544.5 542.6 538.4 535.7 532.9 528.7 525.7 522.9 518.5 517.4 515.4 512.3 509.4 504.7 498.9 493.6 486.9 479.8 469.5 459.6 452.7 447.3 434.9 433.4 433.1 436.5 450.4 466 480.3 501.6 517.6 532.9 543 550 556.9 562 569 574.6 582.2 587.6 592.2 598.1 601.1 604 605.9 617.9 631.6 647.4 659.7 672 682 691.4 700.2 707.6 714.3 716.3 712 703.2 692.7 680.9 676.9 666.4 653 642.2 632.9 649 675.1 702.8 729.3 754.7 771.6 781.4 788.1 792.8 795.1 797.9 805.8 811.6 817.9 827.4 835.2 842.9 849.4 856.8 863.4 871.3 878 870 821.9 782.2 751.8 728.9 715.6 701.3 687.3 669.4 645.8 618.5 587.8 564.5 544.4 526.7 522.5 524.4 535.9 558.1 579.1 604.3 636.2 675.4 713.9 751.9 788.6 825 855.9 876.6 885.1 889 886.3 866.1 829.1 790 749.6 707.2 674.8 642.1 613.7 588.2 562.4 528.9 505.1 493.9 483.3 481.1 480 481.4 489.9 509.9 541.3 566 593.6 620.3 655 689.3 718.4 741.5 774.7 801.7 823.2 837.5 844.2 847 851.6 853.1 852.9 851.2 848.8 844.1 841
554.8 558.2 558.5 557.4 555.6 553.5 549.9 548.5 548 545.5 542.3 538.6 535.7 533.7 530.9 528.3 526 513.1 517.6 529 538.4 545.5 550.6 555.1 557.6 559.7 560.3 558.6 556.2 553.9 551.4 550 549.4 549.5 548.4 546.4 546.1 545.8 545.9 545 542.6 543.1 541 536.2 534.1 529.8 527.6 523.6 520.1 516.9 513.2 512.1 510 505.5 501.5 495.4 489.2 482.6 475.7 467.4 458.7 452.8 446.3 432.8 432 432.9 439.1 451.9 466 480.7 497.9 516.2 529.1 538.7 545 551.3 554.7 564.2 569.7 575.9 582.3 587.3 591.2 589.4 599.7 608.4 618.6 631 643.3 653.5 664 672.6 680.9 690.6 695.9 699.2 699.7 693.8 683.9 674.1 659.1 651.1 643.5 630 628.1 646.9 668.7 690.9 717 743.4 767.5 779.3 786.9 793.5 798.5 801.4 802.4 805.7 811.8 818.4 827 834.2 841.1 846.9 854.1 860.9 868.8 875 857.5 815.2 775.7 750.7 730.4 717.1 703.3 688.6 671.1 650.5 624.4 593.2 563.3 538.6 526.9 522 521.1 533.6 552.5 576.6 600.1 632.7 668.3 705.7 744.3 784.6 820.3 854.5 872.4 883 888 882.5 854.9 816.2 779.6 746 710.5 674.9 631.5 607.6 581.7 553.5 523.8 499.8 485.4 477.8 476.8 473.1 477.6 489.2 513.3 540.3 568.4 596.4 626.2 661.3 698.2 723.6 745.7 777.4 806.5 828.1 845.7 851.5 852.8 853.9 854.2 852.6 849.3 846.3 841.5 837.7
550.7 552.3 553 552.4 550.8 549.2 547.2 545.4 543.4 541.2 538.8 535.5 532.5 530.6 528.8 526.1 521.6 510.2 523.8 530.3 538 544.5 549.4 553.2 554.6 555.4 555.4 554.6 552.3 550.3 548.7 546.5 546.6 546.6 545.8 544.8 543.5 544.4 543.9 543.8 542.8 541.1 538.6 535.5 532.3 528.7 523.8 521.9 518.6 513.9 509.7 509.1 507.3 502.8 496.9 490.7 484.6 477.4 471.4 464.5 456.1 451.4 439.8 431.3 431.8 430.9 440.6 452.5 465.2 480.3 499.4 514.1 524.3 534.7 540.5 545.7 552.6 557.6 564 570.8 575.1 578.8 584.1 593.6 602.5 610.3 618.5 628.1 637.5 643.2 651.7 660.3 670.1 677.3 682.4 684.5 682.4 674.3 667 653.5 640.4 627 618.5 629.1 649.3 668.4 689.2 710.4 733.2 758.4 775.4 784.4 792.8 799 803.6 807.2 809.2 809.3 813.5 819.5 826.5 833.4 840 844.9 851.9 859.2 867 873.4 856.1 814 779.6 754.3 738.9 725.3 710.7 695.4 677.9 654.5 626.4 595.8 563.5 537 524.1 520.6 517.9 527.7 546.9 571.2 596.7 628.1 661.2 697.1 732.6 769.8 803.9 833.1 863.9 882.8 888.9 875.5 837.6 803.9 764.5 726.8 696.9 661.2 628.8 600.8 575.8 546.2 521.2 496 481.2 473.9 472.4 471.9 475.1 493.8 517.2 545.7 572.8 601.8 633.4 668.9 706.9 729.6 758.9 781.9 809.3 830 845.2 852.4 855 856.2 855 852.3 848.1 843.5 837.9 833.8
547 547.1 548.5 547.9 546.9 545.1 543.2 540.5 538 537.8 534.9 532.3 529.8 527.1 525.9 518.9 510.8 508.5 525.6 531.1 538.9 544.1 547.9 550.4 550.6 551.8 551 550.2 548.9 547.2 546.2 544.6 543.5 543.6 543 542.5 543.1 542.8 541.8 542.6 542.1 539.6 536.6 533.3 530.7 527 522.9 519.6 515.6 510.5 507.1 505.3 503 498.9 492.9 487.1 481.3 473.8 467.7 460.8 454.9 450.1 433.6 431.5 430.6 431.8 441.4 452.7 465.3 480.5 497.9 509.2 521 529.3 535.3 542.6 547.7 552.3 558.2 564.3 563.7 577.6 586.4 594.3 601.7 608.7 617 623.4 628.8 633.8 642.5 648.7 655.5 663.4 669.6 670.9 665 659.6 647.5 634 620.6 608.1 627.8 652 673.9 693.3 711.2 730.5 750.5 770.2 780.6 790.6 797.8 804.4 808.5 811.6 814.1 814 815.6 821.3 827 833.2 839.8 844.7 851 859 866.7 871.8 867.8 826.2 795.9 772.4 754.8 740.3 723.6 705.8 683.9 660.1 627.5 597.1 564 535.4 521.1 517.5 515.8 525.7 549.3 567.9 592.3 621.5 654.8 689.6 720.6 751.9 784.3 819 856.2 883.1 887.9 868.3 833.3 794.6 758.4 720.7 687.5 650.8 624.3 596.6 569.9 539.1 518.4 495.9 476 469.4 469.7 468.2 473.8 496.6 524.7 551.7 577.5 604.5 639.9 680.1 716.4 746.8 766.3 787.4 807.9 828.7 842.8 849.7 854.7 857.4 857.4 855.2 849.8 842.3 835.5 828.1
542.1 542.3 543.2 543 541.7 539.3 537.6 535.9 534.3 532.4 530.7 529.1 526.3 523.7 522.5 518.5 505.5 519 525 531.8 537.9 543.6 546.4 548 547.9 548.3 547.3 546.3 545.1 544.4 543.7 542.5 540.8 541.5 540.4 540 541.5 541.8 542.5 542.3 540.1 537.7 534.6 532 528.9 523.9 519.7 517.5 512.6 508.7 504.9 501.8 498.4 493.5 489.4 484 478.1 471.1 464.4 458.4 453.7 445.5 432 429.8 428.9 434.6 443.6 453.7 465.3 479.8 494 507 518.2 525.5 532.6 537.5 536.6 540.9 550.6 562.1 569.9 577.1 585.3 592.7 599.5 605.7 611.8 615 617.6 624.6 631.8 639 644.4 648.8 655.9 655.5 651.3 642.9 626.4 611.6 602.1 624.5 648.4 673.3 696.8 714.8 732.6 750.1 765.6 777.4 786.8 795.6 802.8 808.4 812.9 816 818.6 820.1 820.3 822.1 827.8 832.1 840 845.9 852.6 859.6 867.3 872.7 875.9 848.9 818.7 796.6 778.1 763.4 743.3 716.9 691.7 661.8 630.1 596.8 564.2 533.3 518.5 515.3 513.9 523.2 541.9 564.9 590.5 617.5 647.5 681.4 711.2 745.4 780.8 816.5 851.2 879.3 886.7 864.9 830.7 795.6 757.8 722.4 685.6 650.7 619.6 592.3 563.9 531.8 503.5 488.4 474.4 465.3 466.1 466.9 480.6 495.8 525.6 555.8 579.9 606.8 641.9 684.8 724.4 751 771.5 786.7 805.1 823.7 837.7 846.6 854.5 858.8 858.9 856.9 849.5 842.6 836.2 828.8
537.8 537.1 538.2 537.8 536.6 535.1 533 531.5 531 528.1 526.3 525.7 523.7 522.1 518.9 511.5 504 518.3 525.5 533 537.4 541.8 544.2 544.4 544.6 544.2 543.4 541.9 540.9 541.1 541.1 539.5 539.7 539.6 539.1 538.6 539.8 542.1 542.3 541.8 540 536.5 533.7 529.7 526.5 521.6 517.1 512.8 508.5 505.5 503.9 500.1 493.8 489.9 485.7 479.7 474.4 467.8 458.7 454.6 450.8 444.5 431.8 429 428.7 435.4 442.6 447.7 455.4 463.5 484.3 501.2 513.3 521.2 523.7 529.5 540.9 547.5 556.5 564.6 570.9 576.6 582.6 589.4 593.7 599.1 603.8 606.1 609.1 614.6 621.2 627.1 632.4 636.6 637.1 636.8 633.7 622.3 604.8 596.8 621.3 643.2 665.6 689.5 711.9 732.2 750.3 763.1 774.3 784.2 792.9 801 808 813.2 816.8 819.9 822.3 823.8 824.2 827.4 830.7 835.8 841.3 846.9 853.9 861.4 869.6 875.8 881.3 875.8 844.9 821.3 809.8 788.2 759.3 727.1 695.3 660.7 627.4 596.9 566.2 538.3 517 512 514.9 526.6 542.4 564.5 588.6 614 642.6 676.3 710.8 745.2 779.6 815.3 850.9 875.9 882.6 862 827.7 789.9 752.5 717.1 680.6 645.6 616.5 585.8 556.8 532.1 501.8 478.4 466.6 461.1 461.5 467.2 480.9 499.9 526.7 553.5 579.5 608.3 644.6 682.8 722.3 748.4 766.5 783.9 802.1 820 834.2 843.8 851.6 857.4 859.1 857.3 850.4 845.6 837.6 832.3
531.9 531.3 531.3 531.1 530.4 527.4 526.6 527 525.7 523.5 522.3 521.7 521.4 519.4 513.5 500.4 511 519.1 527.3 533.7 537.3 540.7 541.1 541.6 540.9 540.8 540 538.5 537.6 538.2 538.4 537.5 537.7 537 536.6 538.1 539.8 541.3 541.3 540.7 538.2 535.1 530.5 526.4 523.6 519.6 516.3 510.4 505.7 503.4 500.9 497.3 490.8 485.7 480.3 474.5 469.1 460.4 453.4 449.7 446.3 433.9 430.3 426.3 426.5 438.6 447.5 456.4 464.8 475.4 485.3 490.7 501.2 517.6 527.3 534.7 542.3 549.8 556.6 564 569.7 573.4 578 582.6 586.9 591.6 596.4 598.7 601.7 606.1 611.4 615.3 619.7 622.5 620.8 618.3 612.8 601.2 591.6 613.5 637.2 659.6 681.1 702.8 725.4 743.8 756.1 767.1 777.3 787.7 797.4 805.9 812.8 817.3 821.1 824.8 826.2 827.8 828.9 830.8 833.3 837.5 842.3 849.7 856.8 863.6 872.1 878.6 884.7 887.9 870.8 856.5 840.1 806.2 768.6 729 692.6 658.3 625.2 593.9 563 535.8 515.4 509.8 512.1 523 542.9 562.8 585.9 612.3 642.1 672.9 707.5 744.7 780.9 816.3 851 877.6 881.5 859.1 821.6 783.6 746.3 712.1 672.7 640.7 610.1 579.8 553.7 526 493.4 476.2 460.8 457.4 460.1 466 480.4 504 529 556.2 581.6 611.8 646.2 681.8 715.9 745.7 764.6 781.8 803.2 821.2 834.7 843.8 851.9 858.6 861.8 859.4 852.6 847.6 842.3 836.6
525.7 524.7 524.7 524.8 523.8 522 522.7 522 519.6 518.3 518.4 518.5 518 515 498.8 502 514.6 523.6 529.9 535.9 539 539.9 539.7 539.2 538.5 537.8 536.8 535.5 535.2 535.2 535.2 535.1 536.3 534.6 536.2 538.5 540.1 541.2 541 540.1 537.3 534.5 529.9 525.5 521.7 517.8 513.7 509.1 504.5 501.7 498.9 493.1 487.7 483.6 477.6 469.9 458.8 454.4 449.6 446.4 443 430.6 428.6 425.8 429.3 443.3 452.9 461.2 470.6 481.8 490.3 502.7 512.9 520.9 529.3 536.8 543.9 550.2 556.5 562.5 567.1 570.3 574.1 577.4 581.1 586.1 589.9 592.6 595.3 598.4 603.8 606.9 609.4 611.2 609.2 604.1 590.1 583.1 605 627.6 649.2 671.4 692.4 714.5 733.2 746.1 757.4 768.8 779.6 791.4 801.2 809.7 816.5 821.5 825.8 829.5 831.6 832.7 833.6 835.4 837.2 840.7 845.2 851.5 859.2 868.2 875.7 882.3 889.2 894.6 895.2 885.4 848.9 803.7 766.5 729.4 690.3 655.6 624.7 594.5 566.4 537.4 515.6 508.1 508.1 515.9 537.5 559.5 582.6 610.4 640.8 675.7 714 750.8 785.8 819.1 855.2 877.6 877.5 850.1 811.6 770.4 735.5 702.2 669.1 635.8 603.7 573 545.6 520.7 490.4 468.6 458.3 454 457.1 466.8 482.2 506.3 532.2 558.4 584.6 613.6 645.8 679.9 714.5 742.2 762.1 780.5 800.4 820.3 834.2 845.7 854.7 861.4 863.6 862.4 857.6 851 847 842.9
519.1 518.1 518.5 519 518.6 517.2 517.1 515.3 513.1 512.9 513.5 514.2 513.5 508.3 497.7 510.8 519.6 528.7 534.4 539 539.7 539.5 538.3 537.4 536.1 535.1 533.8 532.8 532.9 532.5 532.4 532.4 532.9 533.7 536.7 538.9 540.7 541.2 541 539.6 536.6 533.5 528.8 524.3 519.9 516.8 511.5 507.5 503.8 499.9 495.2 488 483.4 480.5 472.8 463.9 455.7 449.1 445.7 442.5 438.9 428.5 425.7 424.4 437 448.6 457.7 466.3 475.1 484.7 498 508.7 516.4 522.8 530.6 537.5 544.3 550 554.9 559.6 563.7 566.9 570.5 572.7 575.2 578.8 581.4 585.7 588.3 591.6 595.6 599 599.8 599.7 592.1 582 578.5 600.8 618.5 638.4 657.2 678.5 698.1 716.9 731.7 744 755.7 769.1 781.9 794.1 803.4 812.1 819.7 825.7 830.3 834.1 835.8 837 838.2 839.4 841.6 844.9 849.7 856.8 864.3 872.2 879.1 886.7 893.6 898.1 897.9 876.9 846.9 807.9 771 722.9 683.2 651.1 620.1 590.6 562.7 537.8 512.9 505.6 506 514.8 534.8 557 581.2 607.8 641.2 676 713.4 750.6 785.2 820.5 853.4 873.3 868.5 840.4 803.9 764.1 727.3 690.9 657.3 627 598.2 569.4 541 515.5 485.7 462.5 453.9 452.7 454.5 467.2 487.6 510.7 536.1 560.7 586.1 614.4 645.3 675.8 705.7 732.9 755.7 774.7 798.5 818.5 833.9 846.5 855.5 861.6 864.5 864.6 862.3 856.1 852.7 849.6
514 513.5 513.1 513.1 513.4 512.2 511.3 508.7 507.5 506.8 507.5 508.3 501.9 494.4 504.9 515 524.9 533.9 537.9 540.4 540.6 539.4 538.1 535.2 533.9 532.6 530.5 530.3 530.3 530.1 529.8 529.7 530.4 534 536.5 539 540.6 541 540.6 538.5 535.7 531.5 527.7 523.8 519.3 514.8 510.6 506.9 501.8 497.3 490.8 483.7 479.1 475.4 467.8 459.8 451 444.9 441.7 439.1 434.4 425.1 423.6 428.4 443.5 453.5 463 471.3 481.2 493.5 504.4 513 519.4 525.3 531.1 538.1 544.8 550 554.2 557.6 560.2 563.3 565.6 568.3 570.1 572.4 575.3 578.8 581.3 584.6 587.6 588.6 588.4 581.5 570.3 573.8 595.6 614.1 632 646.2 661.9 680.1 698 713.9 727.5 740.7 753.7 769.1 783.1 795.1 805.7 815.4 822.6 828.9 833.9 837.6 839.3 840.6 842.2 843.6 846.1 849.9 854.9 861.8 868.6 876.2 883 889.5 894.5 897.2 894 861.8 829.7 789.2 753.3 714.3 679.4 647.7 617.6 589.1 558.1 537.3 512.8 504.6 503.1 514.1 535.5 555.1 578.8 605.9 639.2 673.8 711.9 747.9 783.4 819.3 850.9 866.7 855.6 827.8 793.4 756.3 719.8 686.3 653.7 622.2 591.5 563.2 538.5 512.4 482.3 458.7 449.9 450.3 454.7 468.1 484.9 510.2 533.8 558.3 585.2 614.6 640.5 670.6 696.3 723.8 749.4 772.4 796.6 817.8 832.4 845.8 854.6 861.2 865.2 867.2 867.3 861.6 857.3 853.4
509.6 509.5 509 508.4 508.1 506 504.4 502.8 502.5 501.8 502.5 502.4 491.3 504.3 512.4 521.5 531.2 537.2 540.1 541.3 542 540.4 537.8 534 532.1 529.8 527.2 527.4 527.1 527.5 527.8 527.3 530.5 532.7 535.8 538.4 540.6 540.6 539.7 537.8 534.3 530.4 526.1 522.4 517.9 513.4 508.7 504 498.9 493.4 486 478.9 473.3 468.4 461.6 453.7 447.4 442.3 437.6 435 431.9 423.5 424.4 437.9 448.9 459.6 472.3 481.9 490.4 498.9 508.7 516.3 521.5 526.9 531.7 538 543.6 548.3 552.8 555.4 556.7 558.3 561.1 563.8 565.6 567.2 568.9 572 575.3 576.8 577.4 574.1 563.9 561.6 574 590.4 607.5 620.8 635.7 647 660.6 678.2 694.8 709.6 723.2 736.1 752.5 769.1 783.7 796.1 807.5 817.3 825.7 831.9 837 840.3 842.8 844.2 845.7 846.9 849.3 853.2 858.6 865.7 872.6 879.3 885.2 890.5 893.9 893.2 888 853.2 813.4 776.2 740.4 705.7 675.1 645.4 616.8 589 562.7 540.8 519.1 505.4 501.9 510.8 531.1 552.2 576 602.9 635.4 669.1 704.1 740.1 776.4 813.7 849.9 856.3 840.4 816.3 783.3 748.6 713.2 680.8 648.4 615.5 585.2 556.1 531.2 507 479.7 457 447.6 447.4 454.1 466.7 489.2 513.3 539.6 562.5 587.3 618.8 645.5 673.2 699 726.2 750.8 774.5 798 816.9 832.9 845.5 853.9 860.6 866.6 870.4 870.1 864.7 858.8 855.5
505.8 504.8 505.2 503.7 501.8 499.6 499.1 498.5 498.1 497.4 496.4 489.2 497.5 507.3 517.8 528.9 535.3 539.4 541.5 542.1 542.1 540.5 537.8 532.8 529.5 526.3 524.4 524.2 524.3 525 525.5 527.1 529.3 531.8 535.4 538.1 540.5 540.2 538.9 536.7 534 529.2 525.3 520.8 516.1 511.2 505.9 501.7 495.4 489.5 481.9 474.7 467.4 460.9 454.9 448.2 444.2 439.5 435.2 430.7 422.9 421.9 432.4 443.9 454.5 467 480.4 490.3 498.5 505.1 512.3 518.6 522.9 528 532.4 537.1 540.8 546 550.5 551.4 552.5 554.1 556.3 558.7 560.9 561.8 564.2 565.9 568.5 567.8 561.3 554.2 560.4 575.6 590.1 599.2 609.1 620.1 633.5 644.6 656.2 673.4 691.2 705.6 719.3 732.4 750.3 767 783.1 795.7 808.2 818.3 826.7 833.6 838.5 841.8 844.2 845.6 847.3 848.4 849.1 853.6 859.1 865.6 872.8 879.7 885.7 890.9 891.4 888.7 880.8 847.4 812.1 775.8 740.7 706.5 675 644.9 617.1 589.5 564.6 542.1 519.9 503.2 500.6 505.9 528.6 551.7 575.1 601.7 634.1 667.8 703.6 740.2 782.2 817.8 846.8 846.2 829.3 805.3 772.8 738.9 705.2 673.8 641.9 610.5 580.2 551.2 525.1 500.6 472.4 453.1 445.1 444.7 450 469.4 490.6 516.8 544.1 572.4 603.8 626.4 647 678.7 706.4 732.2 755.8 780.9 801 818 833.5 845.4 853.6 860.3 866.4 871.8 871.1 864.4 859.4 855.9
502.6 501 500.9 497.7 496.2 495 494.2 494.5 493.6 490.7 485.4 493.5 504.4 514.1 525.5 533.5 537.6 541 541.6 542.2 541.4 539.9 536.6 532 527.7 524.9 523.1 521.6 522 523.1 522.8 524.9 527.8 530.7 534.4 537.7 539.9 540.2 539 536.2 532.9 528.5 524.6 520 514.4 509.2 505.1 499.9 493.2 486.4 477.7 470.6 463.2 455.9 449.1 443.9 440.7 436.9 433.2 426.4 421 422.2 437.8 449.3 460.7 476.1 486.8 496.2 503.3 509.9 515.4 520 523.7 528.1 531.8 535.5 538.7 541.9 544.5 546.4 548.9 550.8 552.4 554.5 555.9 557.2 559.1 560.2 561.2 552 549.6 563.7 578.6 588.6 594.5 601 607.4 616.8 629.5 639.5 651.9 665.3 684.2 699.1 713.9 728.5 746.5 763.7 780.6 794.4 806.7 817.1 826.1 832.6 836.1 839.6 841.9 843.9 845.6 846.6 846.9 851.1 855.7 862.5 869.6 877.1 883.7 888.3 888.8 884.2 874.5 842 806.4 772.1 739.4 706.4 676.4 645.5 616.9 588.9 567.6 543.2 522.4 501.5 499 500.4 521 547.8 570.6 598.1 630.4 666.3 702.2 745.3 782.2 813.8 837.7 835.7 820 794.4 761.8 728.5 695.6 664.1 632.6 603.5 572.3 542.9 519.8 497.1 469.2 451 443.4 442.7 452 467.4 493.7 519.3 549 580 611.7 640.3 668 681.9 708.9 736.6 761 783.9 803.4 818.6 832.5 843 851.8 858.1 864.1 869.8 868.8 863.2 857.8 855.2
498.7 495.3 495.2 492.7 491.5 490.7 491.2 491 485.1 481.5 493.5 501.7 511.6 522.9 531.8 537.1 540.2 542 542.9 542.4 541 539.3 535.8 531.3 526.8 523.8 521.8 520.5 520 520.5 519.6 522.9 526.1 529.8 533.7 537.2 539.5 540.1 538.8 537 533.8 529.3 523.3 518.6 513.3 507.8 503.9 499 490.8 484.7 474.7 466.5 458.8 451.3 444.8 440.7 438.5 434.7 430.3 421.8 420.4 431.2 443 454.4 468.3 481.4 490.8 500.5 506.9 513 518.2 522.7 525.2 528.6 531.4 534 536.8 538.8 540.5 542.8 545.3 546.8 547.4 549 550.5 552.5 553.9 554.4 552.1 541.3 560.4 574.1 582.9 588.3 593.4 599.2 604.4 611.5 623.6 633.9 646 657.6 675 692.4 708.1 724 741.6 759.8 775.9 790.4 803.6 814.3 822.4 828.1 831.7 835.1 837.1 838.8 841.3 842.9 843.5 845.9 850.7 856.9 863.9 871.8 878.8 884 884.5 879.5 870.2 841.4 804.2 769.4 733.7 700 671.8 644.9 617.3 591.9 567.6 541.9 523.2 503.4 496.4 498.1 519.7 544.8 569.9 597.5 628.7 661.7 696 732.6 766.9 802.7 831.4 828.4 812.5 786.3 754.9 722.5 688.7 655.6 624 594.6 563 536.5 513.2 489 462.7 445.7 440.2 440.4 454 470.2 497.1 523.3 554.5 587.4 620.4 652.8 683.3 703.8 720.9 739.3 763.9 787.3 804.3 817.5 829.9 839.4 847.7 854.3 859.9 865 864.9 860.6 855.7 852.9
494.2 491.8 490.1 488.7 487.5 487.9 487.3 482.7 478 486.7 499.5 508.6 520.7 529.8 536.1 540.3 542.4 542.8 543.3 542.4 540.6 538.6 535 530.5 527.2 523.7 520.6 518.7 517.7 517.8 518.6 521 524.3 528.1 532.7 536.8 539.1 540.1 539.8 537.6 534.2 529.1 523.5 518.4 512.8 507.1 501.6 496.1 489.2 479.7 471.8 462.9 454.5 447.7 441.7 436.7 435.5 432 423.1 417.9 426.1 439.4 449 461.6 475 484.9 495.2 503.1 509.8 514.8 519 525.4 527.5 529.2 531.3 532.8 534.8 536.9 538 538.5 539.7 541.6 541.9 543.5 546.2 548.1 547 544.3 537.3 555.6 567.2 575.5 582.7 587.5 592 595.5 600.9 606.9 618.9 628.9 640.7 651.3 667.4 684.2 701.6 719.2 737.1 754.3 770.6 785.6 799.8 810 817 822.1 825.2 828.4 830.8 832.7 834.6 835.5 836 838.1 843.4 848.6 856 864.2 872 878.2 878.4 873.5 864.8 844.1 807.1 769.5 734.3 699.6 672.5 645.4 617.2 590.7 565.8 540.8 521.2 503 495.1 494.8 517.3 542.8 568.6 596.2 627.7 661.7 696.8 731.4 765.8 801.3 828.3 820 803.7 777.3 748 719.1 686.9 650.9 619.5 586.6 558 533.4 507.6 482.6 458.9 443.5 437.4 439.6 453.2 473.9 500.3 527.7 560 593.8 628.2 663.8 694.9 721 741.4 754.4 771 789.5 804.4 816.8 826.9 835.8 843.4 849.5 854.9 859.8 861.2 857.6 852.5 850.4
489.9 487.8 485.2 484.7 483.9 484.6 479.2 474.6 487.9 496.4 506 517.4 527.3 534.7 540 542.5 543.6 543.6 543.6 542.6 540.2 537.3 534.3 529.7 526.7 524.9 521.6 517.4 516.8 516.4 516.3 519.3 521.9 525.9 531.2 535.6 538.3 540.4 540.2 539.2 535 529.4 523.1 517.6 512 506.4 501.1 496.1 487.6 477 468.2 458.6 448.6 441.9 436.7 433.4 430.5 424.6 420 419.1 434.7 445.4 457 468.4 478.2 488.4 497.7 505.5 510.7 515.8 521.3 526.6 527.7 528.7 529.4 530.5 532.2 534.1 533.6 533.8 535 535.8 536.9 538.7 538.4 537 532.1 534 552.3 563.5 571.2 576.8 582.4 586.8 590 592.1 596.4 603.2 614.8 624.1 633.5 646.1 660 676.5 694.4 713.3 731.3 748.1 764.1 779.9 793.4 803.6 810.4 813.9 817.1 820.8 822.2 823.7 825.9 825.4 825.4 828.3 832.1 838.3 845.8 854.7 862.3 867.9 868.9 864.4 854.4 839.2 813 772.3 735.5 702.2 673.8 646.9 619.1 590.3 564.8 541.2 520.3 504.4 492.5 494.2 515.3 536.1 565 593.1 627.3 664.2 699.4 738.6 778.9 812.3 820.6 810.9 794.2 769.2 741.4 708.6 677.1 644.3 614.5 581.4 550.9 523.4 501.2 476.6 454.2 439 434.9 439.7 453 478.6 503.8 532.6 565.2 598.5 639.1 674.5 707.4 735.2 754 766.3 781 794.7 805.9 816.6 825 832.2 838.8 844.8 849.5 854.3 855.4 853.1 848.5 847.1
485.3 483.7 481.7 480.8 481.4 478.8 472.4 483.4 494.2 503.7 512.6 524 531.9 538 542.3 544.2 544.5 544.4 543.5 542.4 539.8 536.5 533.4 529.4 525.9 523.9 521.2 517.5 515.1 515.1 514.1 517.1 520.2 524.3 529.2 534 537.1 539.9 540.9 540.4 536.3 530.1 522.8 517.4 512 506 499.4 491.3 482.7 474.8 465.1 456.6 446.3 437.6 432.9 431.5 426.6 420.5 417.1 429.9 441.2 452.1 462.1 475 482.1 490.8 499.4 505.6 511.4 516.4 522 526 525.8 525.6 526.4 527.5 529.6 529.4 529 529.2 529.7 531.1 531.7 530.7 522 527.1 539.5 549.5 559.1 566.8 572 576.5 581.3 585.8 587.7 588.8 593.9 600.6 610.9 618.8 628.3 640 654.4 670 688 707.1 725.5 741.9 757.5 773.8 786.1 794.9 801.6 805 808 811 811.8 812.6 813.3 813.3 812.1 813.9 818.2 825.9 835 844.6 853 857.8 858.5 854.7 846.2 832.5 811.3 777 736.4 704.4 675.4 646.5 618.6 590.5 564.8 542 520.1 501.7 495.3 491.6 512.1 535.2 564.8 593.3 626.1 659.9 696.1 733.7 777.8 806.7 812.3 801.6 786.3 760.5 730.5 696.5 664.1 631.9 606.4 575.4 547.5 520.5 497.3 474.5 451.7 434.5 432.5 441.9 456.7 482.6 506.3 535.3 568.5 602.2 643.8 684 718.7 747.5 766.6 779.9 791.5 799.9 808.5 815.7 822.4 828.6 833.9 838.6 842.7 845.9 847 846.4 843.7 841.8
481.5 480.2 478.5 477.5 477.2 467.7 478.7 491 500.8 510.5 519.3 528.1 535 540.3 544 544.7 544.9 544.4 543.5 542.1 539.7 535.8 532 527.5 523.9 522.5 519.8 516.4 514.4 513.1 510.2 514.9 518.6 522.9 526.8 532.1 535.6 538.8 542.2 541.3 538.2 531.3 523 517.6 512.6 506.1 498.1 489.2 480.1 471.8 462.6 451.6 443.3 434.8 430.8 428.6 420.1 416.8 425 437 447.9 460 470.3 479 487.1 495 503.7 507.3 511.9 516.3 521.5 524.3 523.4 523.6 523.8 524.9 525.8 524.7 524 523.9 524.4 524.2 520.7 516.1 531.6 542 549 556.5 562.2 566.9 571.6 575.6 579.7 584 584.2 586.9 590.6 596.7 606.1 613.9 623.3 634.2 648.1 663.5 681.6 700.9 718.1 733.8 749.5 766.3 777.5 784.9 790.7 794 795.8 798.5 798.8 798.9 799.1 798.2 797.7 799.3 806.4 813 823.3 832.6 841 846.1 847.4 844.3 837.1 823.5 803.1 773.1 734.1 701.8 673.9 646.9 618.9 590.5 565.6 542.1 518.6 499.2 494.5 484.9 507.3 533.7 562.6 592.5 624.9 658.9 694.7 729.6 769.7 799.5 803.1 793.7 777 748.5 717.4 684.4 652.3 621.5 593.8 569.4 542.1 516.2 493 472.1 447.7 430.8 432.7 441.1 458.2 484.3 509.2 538.5 570.6 602.5 649.4 686.8 726.8 757 776.4 789.3 799.9 806.8 810.6 815.8 820.2 824.2 828.3 830.8 833.4 835.2 836.6 836.7 835.1 835.8
478.2 477.6 475.8 465.6 465.1 475.5 487.2 496.7 506 514.4 523.3 530.1 536.7 541.5 543.9 544.4 544.8 544.2 542.5 540.7 538 533.7 529.7 525.6 522 520.4 517.4 514.4 513.3 511.1 508.6 513.7 516.9 521.4 525.2 530.4 534.7 537 541.9 542 539.6 533.8 523.9 518.7 512.6 505.9 499 489.2 480 470.7 459.3 446.7 439.2 430.7 426.7 425.4 416.4 416.1 432.3 442.4 452.4 465.9 475.6 482.5 489.8 497.6 506.5 508 512.7 516.9 520.2 523.1 521.8 521.5 521.5 521.7 521.4 520.5 519.5 517.6 509.2 509.3 523.8 535.5 542.4 546.9 553 558.9 562.7 567.2 570.5 574.1 577.2 581.4 582.1 584.1 587.2 594.1 602.2 607.6 617.2 628.5 642.4 657.1 675.5 691.7 710 725.1 739.8 753.3 766.7 773.4 778 781.1 781.8 783.1 784 783.5 784.5 784.3 782.7 785.6 792.3 801.5 809.4 818.7 828 833.4 834.5 833.5 824.8 812.1 793.1 768.6 733.1 698.4 671.9 646.4 619 590.1 565.7 541.1 519 498.3 492.3 485.8 505.2 531.7 560.2 590.5 623.6 658.3 691.9 727.5 770 793.9 796.4 787.7 768.6 737.6 706.2 673.9 642.3 611 585.6 564.2 537.3 511.6 488.2 465.4 446.4 428.1 424.5 440.7 459.1 477.8 510.3 541.2 573.2 607.8 653.3 693.1 733.6 765.5 783.6 796.5 804.5 810.9 814.2 816.3 817.9 819.5 820.7 821.6 822.7 824 824 825.7 826 830.4
475.2 474.5 462.1 462.5 471.6 483.3 492.3 501.4 509.8 517.8 525.7 531.2 537.1 541.3 542.8 543.2 543.4 542.9 541 538.8 536.2 532.2 527.7 523.9 520.2 517.4 514.7 512.4 511.3 509.9 506.8 512.5 514.4 518.9 522.8 527.1 532.3 534.8 538.4 540.3 537.6 531.6 523.2 518.3 512 505.7 499.6 488.8 478.7 470.3 459.9 446.6 435.3 426.6 423.7 419.1 414.6 425.7 437.1 445.4 457.6 469.7 478.6 485.5 492.4 499.8 506.3 507.3 511.2 514.1 516.7 520.6 519.2 519.1 518.9 517.9 517.1 516.1 513.6 504.1 516.7 528.2 536.1 541.9 547 550.4 554 559.3 562.5 566.2 569.6 572.8 575.2 578.2 579.5 581.2 584.8 591 599.8 602.8 611.7 624.7 636.8 651.7 670 686.7 702.8 717.8 732.6 742.7 754.5 761 764.1 765.9 766.5 767.9 768.9 769.1 769.5 767.8 767.3 770.4 777.6 787.5 796.1 804.6 813.5 819.4 821.8 820.3 812.5 800.4 782.6 760.4 727 694.2 671.5 646.3 619.8 589.7 563.5 540.8 520 498.3 489.7 484.3 501.4 527.9 557 587.3 622 656.5 691.5 728.1 766.2 785.3 789.2 779.7 758 728.5 695.2 664.1 632.2 602.8 580 560.6 534.4 508.5 483.5 459.1 443.7 426.6 426.5 441.4 455.3 484.9 511.9 540.1 573.4 608.1 653.2 695.2 737.1 769.4 787.8 800.6 808 813.5 815.9 815.3 814.3 812.3 811.4 811.5 811 809.5 811.1 814.5 817.4 823.6
471.8 468.6 460.2 469.5 481 489 496.6 504.8 512.9 519.9 526.9 531.9 536.5 540 541.6 541.7 541.6 541.2 539.6 537.5 534.6 530.7 526.2 522.2 518.5 516.1 512.9 510.2 509.3 508.2 508 510.6 512.2 516.1 520.2 524.4 529.3 532.2 534.8 535.7 532.3 527.3 521.7 516.2 510.9 505.8 500 490.5 478.8 470.1 461.2 440.4 430.5 422.7 420.5 414.6 415.9 430.8 440.9 451.5 462.9 471.3 479 486.5 494.3 502.3 505.5 505.3 507.9 511.2 513.3 516.4 516.4 516.1 514.7 512.8 511.6 510.3 498.6 511.6 523 532.3 540.2 545.7 549.9 552.2 554.7 559 562 564.5 568.7 572.1 573.7 575.2 576.5 579.6 583.8 587.1 594 597.7 607.8 619.3 632.3 646.5 664.2 681.8 694.8 709 722.3 731.5 739.7 745.6 747.3 749.2 752.4 753.1 753.9 753.3 753.7 751.7 750.2 752.5 760.8 770.2 781.1 791 799.4 805.1 807.7 805.5 799 788.7 773.1 751.9 722.6 691.1 668.5 647.1 619.5 589.5 563.6 541.5 518.2 497.5 486.8 481.9 496.8 525 551.9 583.4 619 653 687.6 723.3 756.9 777.2 781.2 766.5 744.1 719.2 687.4 654.7 624.5 597.1 577.6 556.2 531.9 504.6 479.3 456.6 442.7 424.2 421.7 436.2 455.9 484.9 513.1 543.5 577.6 616.3 662.9 699.4 737.9 772 790.1 802.8 811.1 815.6 816.1 812.6 807.8 803.7 799.9 797.7 794.7 792.2 796.4 801.8 809.4 819.3
464.4 456.4 462.5 477.2 485.2 493.4 500.1 507.3 515.1 521.1 527.2 532 536.3 539.5 540.3 539.9 539.9 539.2 538.2 536.3 532.9 528.7 525.3 521.1 517.1 514.5 510.7 508.3 506.2 502.2 505.6 508.7 510.2 512.6 517.3 521.5 527.2 530.8 531.3 530.6 527.7 522.2 518.2 514.7 510.9 505.8 499.9 490.8 479.7 468.6 458.7 441.4 427.5 421.5 416.9 412 423.8 433.4 444.7 453.8 464 473.6 480.9 487.6 495.1 502.3 503.9 503.7 505.3 507.4 509.5 511.9 511.3 509.4 508.8 508.2 506.6 496.5 508.6 517.7 526.1 535.5 543.4 547 550.3 552.6 554.3 557.7 560.2 563 566.9 570 571.6 572.1 574.2 577.2 582.4 585.4 588.7 593.2 604.4 615.4 627.8 640.9 658.5 676.3 689.3 700.7 711.8 717.5 722.7 727.1 730.2 733.2 735.2 734.6 736.6 736.9 737.2 736.8 732.9 738.7 748.2 756.4 763.2 773.6 782.6 789.5 793.2 792.2 786.4 776.6 763.3 743.5 717.8 689.4 670.1 645.3 619 589.3 562.7 541.1 518.5 499.7 482.5 479.9 492.7 519.8 547.3 577.5 613.1 646.7 679 714.9 749.5 766.8 766.1 751.8 734.2 709.2 677.5 646.7 617.7 591 572.5 553.2 528.1 502.3 478.3 451.6 431.6 421.6 418.7 429.6 453.1 479.9 512.3 544.8 579.5 621.4 665.9 705.6 744.7 774.1 792.3 805.3 814.7 816.2 812.9 807.8 800.5 792.6 787 780.8 778.6 778.8 783.3 791.7 804.8 816.4
453.6 458.3 474.4 481.6 489.2 496.2 502.3 508.9 515.6 521.8 527.7 532.4 535.3 538 538.7 539 539.2 539 537.7 534.3 531.2 527.5 523.5 519.5 516.6 513.2 510 507.3 503.1 498.8 504.8 506.3 507.8 509.6 513.6 518.9 523.5 529.2 526.1 524.5 522.9 519.9 518 514.7 511.5 506.5 500.3 490.2 479.8 469.1 458.6 444.4 429.3 420 415 414.3 424.6 434.3 441.9 452.8 463.9 472.3 481.2 488.5 495 501.8 501.5 501.4 502.7 504 505.9 507 505.5 503.7 503.6 503.2 494.3 502.7 516.3 526.3 532.2 538.8 544.4 547.8 550.1 552 553.6 556.2 559.3 561.8 564.7 567.9 568.8 570.5 572.5 575.6 580.6 583.1 586.2 591 601.7 610.7 622.4 635.7 653.8 670.6 683.1 690.9 697.7 702.9 707.1 710.9 712.8 716 719 718.6 720 721.1 720.2 720.2 714.5 723 733 743.3 750.3 757.4 765.3 773.2 778.3 778.5 773.5 763.9 752.3 735.5 709.9 684.1 665.6 643.5 618.1 589.4 562.4 540.5 517.9 497.1 481.2 477.9 491 516.5 542.9 572.4 607.6 642.2 674.6 710.6 738.9 748.7 748.4 739.6 724.9 699.8 667.8 640.1 613.5 587.8 570.1 550.1 524.7 498.4 473.1 450.5 429 419.3 417.8 430.7 451.5 477.6 508.6 543.4 578.8 623 671.3 707 742.5 770.7 790.4 804.3 815.2 813.6 808.6 800.6 791 779.3 768.8 763.6 759.7 761 769.1 787.4 802.8 817.1
460.4 471.6 478.5 485.1 492 498.1 503.9 510 516.3 522.1 527.3 531.6 534.6 536.5 538 538.4 538.5 538.3 536.7 533.1 529.4 525 521.6 518.4 515.6 512.4 509.8 506.3 502.2 497.6 502.5 504.4 505.7 507.1 510.4 515.3 519.6 522.9 521.3 521.5 522.6 521.2 519 515.6 511.7 506.9 500.7 491.7 481.9 473.4 460.5 446.2 429.6 419.4 411.8 415 424.3 433.5 441 451 463.8 471.9 480 486.6 492.6 498.9 499 499 499.4 500.7 502.5 503.1 501.2 499.7 497.9 490.3 501.1 510.7 522.7 531.6 538.9 544.6 547.6 549.3 550.5 551.5 552.7 554.8 556.9 559.7 562.2 565.2 565.1 567.7 570.1 573.2 577.5 580.7 584.1 588.1 598.3 606.3 615.9 631 648.7 659.5 671.8 680.9 686.8 691.2 693.7 695.4 697.6 699.6 700 701.8 702.8 704.7 703.8 702.9 699.6 709.2 717.5 726.6 736.2 744.8 751.2 756.6 761.8 764.6 760 751.2 740.2 723.1 701.7 679.6 656.5 640.6 616.4 588.9 563.9 541.8 519.6 497.4 481.1 476.5 487.2 513.4 538.5 567.9 602.4 637.7 670.7 701.2 722.8 730.6 734.1 729.4 711.8 685.6 658.1 633.8 611 586.4 566.3 546.8 521.8 494 469 445.1 426.8 415.8 414 435.2 455 479.8 509.3 541.1 575.2 613.6 660.1 701.6 736.4 764 786.5 800.2 808.2 807.8 800.4 790.2 777 762.8 749.1 739.9 738.4 738.4 763.8 781.4 799.8 818.8
469.6 475.2 481.5 487.8 493.9 500.1 505.9 510.6 516.9 522.7 527 530.6 533.3 534.9 535.9 537 537 536.8 534.7 530.5 526.4 522.9 519.8 517.2 514.7 511.5 508.3 504.4 500.4 494.7 500.2 502.2 502.7 503.6 507.4 512.3 515.3 517.1 518.3 519.5 521.6 522.2 520.5 516.6 512.4 507.5 500.6 492.8 483.1 472.7 461.9 447.7 430 419 409.5 414.4 423.4 432.9 440.9 450.8 463.3 470.2 477 482.5 490.1 494.8 496.2 496.9 497.5 497.9 498.8 499.5 497.7 495.8 489.3 489.9 504.6 516.4 528.1 538.8 544.8 547.6 549.6 550.1 551 551.8 552.5 554.2 555.7 557.5 559.9 562.1 564.2 566.1 568.4 572.4 576.5 579.6 582.2 584.6 593.4 601 613.1 627.5 639.8 649.1 658.3 670.6 675.7 679.4 682.4 682.8 681.9 682.9 683.9 686.3 686.5 686.7 686.7 686.4 687 696.6 704.2 712.1 720.9 728.8 736.3 741 745 748.4 746.1 738 723.5 710 692.9 670.6 648.3 633 614.4 589.1 563.6 540.8 520.1 498.8 481.5 473.9 485.7 510.4 532.7 561.7 595 629.6 655.2 683.5 699.9 716.1 723.5 719.9 701.3 676.9 650.1 629.3 609.7 583.6 565.3 541.7 516.6 490.6 463.7 442.5 425.7 413 416.3 436 456.7 482 511 542 575.4 606.3 647 695.4 730.3 757.7 780.8 793.1 800.6 797.3 789.3 774.9 757.4 742.7 725.5 716.4 711.2 733.3 754.5 774.7 796.7 819.4
473.5 479.1 484.2 489.9 495.1 501.5 506.6 511.5 516.7 522.3 526.3 529.8 531 533.5 534.8 535.5 535.2 534.2 531.8 527.6 523.9 520.9 518.8 516.8 514.1 511.3 507.1 503 499.3 488 496.5 498.6 499.6 500.4 503.8 508.9 512.2 513.4 515.2 517 518.6 521.5 521.6 517.7 513.7 507.5 500.1 490.1 482.1 472 462.2 449.7 434.2 421.3 409 412.3 421.2 430.2 439.8 447.8 458.8 466 473.3 478.1 486.8 490.9 493.1 494.2 494.3 494.6 495 495.3 494 491.8 480.5 497.3 508.7 522.2 534.9 544.6 550 551.8 552.2 551.9 551.8 551.5 551.6 552.4 553.4 555.8 557.8 559.3 562 564.1 567.7 571.3 575 578.7 581 582.3 589.4 596.6 610.3 621.7 632.2 640.5 644.6 656 664.9 669 669.7 670.8 668 667.4 667.7 668.2 670.6 669.7 670.7 672.1 673.4 682.2 688.9 696.9 705.4 713.6 719.7 725.6 730.1 732.2 730.8 721.4 708.2 697.5 683.3 664.2 645.5 629.6 612.1 589.7 563.5 540.8 522.2 501.2 480.1 471.6 484 504.2 526.7 554.6 586.3 616.7 638 657.2 677.9 703.8 715.2 710.9 692.7 667.4 644.6 626.2 604.9 581 560.6 537 513.1 485.9 460.2 440.3 421.2 412.7 413.2 433.7 454.1 482.2 513.1 546.9 575.1 602.3 644.4 693.5 723.7 747.9 772.3 785.5 790.5 785.1 773.9 755.9 739.2 723.1 706.7 692.1 694.9 723 746.5 770 794.8 817.3
477.4 483.1 487.2 491.9 496.5 501.5 507.3 512.4 516.6 521.7 525.8 528.7 531.8 533.3 534.2 534.1 533.8 532.1 529.4 525.3 522.2 519.4 517.8 515.9 513.7 510.2 505.4 499.6 496.2 492.6 491.7 494.8 496.3 497.4 499.8 504.8 508.3 509.9 511.8 514.4 515.6 518.4 520.5 517.3 513.7 507.2 498.3 491.9 484.3 475.8 464.7 451.4 438.4 423.1 409.2 410.6 419.3 427.3 437.4 444.2 453.9 462.3 468.8 475 481.9 485.9 488.4 489.9 490.5 490.2 490.9 490.5 488.4 482.9 485 499.9 514.6 528.1 541.4 550.2 554.9 555.2 555.1 555.5 554 551.6 551.8 551.9 551.9 553.6 555 556.5 559.6 563.1 566.5 570.5 573.7 577.5 579.9 580.7 584 592.3 603.9 615.3 625.1 631.9 634.4 643.4 652.6 656.8 656.9 654.4 653.8 652.8 653.7 654.3 654.8 653.9 653.5 651.9 658.1 666.4 674.7 682.4 690.7 698.3 702.4 710 713.9 717.1 714.8 706.5 697.1 686.7 674.1 660.4 641.3 626.8 611.9 588.3 562.8 540.9 520.7 500.6 482.3 468.8 478.9 496.1 520.4 546.9 576.4 603.8 622.7 637.8 665.3 689.1 703 698.1 681.6 658.4 639.1 621.7 602.3 577.2 556 532.2 509.2 481.8 456.6 436.1 420.1 410.2 409.9 433.6 455.5 482.5 514.5 549.3 575.7 601.2 636.4 681.8 714.8 741.8 762.3 776.1 780.7 772.4 756.4 737.7 720.4 705.1 686.9 670 686.2 713.5 739.4 763.2 788.8 811.5
481.1 486.6 489.6 493.1 497.6 502.1 508 512.3 517.5 521 525.7 528.7 531.4 533.7 534.7 534.5 532.7 530 527.2 524.6 521.8 518.9 516.5 514.1 511.4 508.4 504.3 498.5 492.3 488.1 487 490.8 492.4 494 496.8 500.2 504 505.7 508.3 511.2 513.1 514.7 516.5 514.1 510.1 505 497.6 490.9 483.8 476.6 465.9 453 438.4 425.1 413.3 410.4 417.7 424.3 434.3 441.4 448.8 457.6 464.7 471.1 478 481.5 483.7 485 485.5 486.3 486.1 485 481.2 474.6 491.7 504.9 520 535.9 547.8 555.8 559.8 557.6 557.1 556.1 553.9 552.4 551.6 551.2 550.1 552 552.2 555.4 557.5 560.4 564.6 569.6 573.1 576.5 579.2 579.2 580.9 586.5 595.7 608.1 617.2 622.7 628.3 632.1 638.9 642.8 644 641.1 637.4 637.2 639.7 640.1 640.4 638.9 638.5 638.3 641.4 648.4 659.2 668.8 675.8 683.3 689.5 693.1 697.4 699.4 700.3 694.4 686.8 675.7 664.5 653.7 637 623.7 610.2 586.1 562.7 538.6 518.8 500.6 482 465.9 476.9 491.4 513.8 540.3 567.8 592.3 607.7 621.9 650.2 676.3 687.4 683.5 668.8 649.8 633.2 619 597 577.3 552.4 528.3 505.5 477.2 451.1 431.4 417.7 406.9 406.8 426.1 448.7 477.6 512 543.9 574.7 602.2 633 670 703.3 732.9 752.9 764.8 766.8 756.4 739.4 722 703.8 685.7 666.7 650 677.4 702.9 729.2 754.7 779 802.3
484.3 488.4 490.6 494.3 498.7 503.2 508.2 512.7 517.4 521.3 524.5 528.1 531.7 534 535.6 535.7 534.3 532.3 529.4 526.9 523.9 521.2 518.1 515.1 512.1 508.7 503.4 496.6 491.9 485.2 474.1 485.4 488.4 491.1 494 496.6 499.6 501.8 504.4 506.9 509.9 512.5 514.1 511.6 509.2 505.3 499.1 493.2 486.8 476.8 466.2 453.3 440.5 427.6 417.9 407.9 414.9 421.6 431.6 438.1 444.1 451.8 460.5 467.2 473.7 476.7 479 480.3 481.3 481.9 480.5 477.9 469 483.3 496.3 510.7 527.4 542.3 553.8 560.7 562.5 560.5 558.7 555.8 553.6 551.8 550.5 550 548.5 549.6 552.6 554.4 556.1 559.1 564.3 569.9 572.7 574.6 578.5 577.9 578 580.8 590.1 600.3 607.6 613.7 617.8 622 630.1 631.7 633.6 632.6 628.7 618.2 624.3 627.6 629.8 630.5 628.7 626.1 630.2 636.5 643.1 650.7 660.5 668.6 675.2 678.8 680.9 684.7 684.7 679.7 671.9 667.1 655.9 648.9 634.4 619.8 607.5 585.8 561.9 539 518.7 500.7 481.4 463.9 471.1 484.8 508.3 533.4 559.1 582.6 598.8 614.3 638 665.6 670.9 669.3 656.5 641.7 629.4 614.1 592.2 573.9 549.3 525.4 500 474.5 447.5 425.9 410.2 404.8 404.8 428.2 447.7 474.2 502.7 534.9 569.1 592.5 624.5 657.8 689.9 719.2 741.1 752.1 751.9 741.8 725.1 706.8 688.6 670.1 651.8 644.3 667.6 692.1 717 741.7 767.5 790.1
485.9 489.2 492.2 495 499.4 503.8 508.1 513.2 517.7 521.4 525 528.9 532.8 535.6 537.4 537.4 536.5 534.6 532.6 529.5 526.8 523.7 520.2 517 512.6 508.2 501.5 494.2 490.3 486.6 479.7 478.2 484.3 487.3 491.2 494 495.6 497.1 499.4 502 505.6 508.7 509.9 510 509.5 505.9 500.5 493.8 486.6 477.7 466.4 456 441.7 430.4 420.4 406.3 412.2 419.3 427.2 433.1 437.8 447.3 455.7 462.6 469.5 471.4 474.4 476.8 477.3 476.5 474.2 467.8 473.6 488.8 500.4 516.8 533.5 548.9 558.9 563 564.1 562.9 559.2 555.4 553.1 551.2 549.9 547.9 547 549.6 551.6 552.3 553.1 558.1 563.8 568.5 571.9 574.3 576.5 577.1 576.6 577.1 582.8 591.8 600.2 607 610.8 612.7 620.6 622.4 623.9 623.2 621.1 611.8 609.6 613.3 617.1 617 616.3 614.6 620.2 628.1 631.9 636.2 643 656 662.2 663.6 666.7 668.5 670.4 667.9 663.3 661.2 649.8 642.8 630.7 618.1 604.7 585 562.5 540.8 520.6 498.9 479.4 461.1 465 479.3 502.3 525.6 550.7 574.3 590.6 606.7 626.7 650.7 657.1 658.5 648.8 636.8 624.7 608.7 588.4 570.6 546.3 522 494.7 470.9 444.9 422 407.6 402.8 406.8 428.4 446.2 473.3 501.5 531.5 563.9 586.7 611.2 644.7 675.7 704.2 726.3 735.4 735.1 727.5 713.1 695.7 677.3 659 637.6 637.6 659.3 679.5 704.8 728 754.4 777
487 489.5 492.7 495.4 499.7 503.8 508 513.2 517.6 522 525.9 529.6 533.5 536.9 538.5 538.5 538.3 537.3 534.4 531.4 528.8 527 523.3 519.4 513.4 507.9 500.9 493.8 488.6 484.7 481 472.1 479.3 482.7 486.1 490.1 491.5 492.4 494.3 497.8 500.7 504 506.6 507.9 506.8 505.2 502 493.9 486.9 479.1 467.7 456.4 444.1 432.7 421.8 407.5 408.7 416.7 422.4 428.3 432 440.5 451.1 458.3 464.3 467.9 470.7 472.3 471.2 470 464.2 463.9 480 491.9 505.6 522 539.4 552.9 561.3 565.1 565.7 563.4 558.8 555 552.3 550 547.9 545.3 547.3 548.4 549.6 550.3 551.3 556 562.1 566.5 570 571.2 571.8 574.2 575.4 575.1 577.9 584.3 593.2 599.1 602.9 606.5 609.2 612.8 613.5 612.6 609.9 605.1 602.5 602.9 604.5 606 605.7 604.8 608.4 615.6 623.8 627.5 630.5 640.7 645.6 648.9 650.9 654 656.6 655.8 654.7 652.4 643.9 635.7 624.9 612 601.5 585.7 563.8 542.2 521 500.2 479.4 462.6 456.7 473.8 497.1 519.4 543.7 566.3 583.6 601 614.3 634.2 646.8 650 642.3 632.5 618.3 603.6 586.8 567.5 542.5 519.5 490.1 467.6 441 419.5 402.4 399.6 404.7 425.4 445.6 470.6 500.3 527.8 557.9 582.7 603 634.9 665.1 690.5 712.9 722.1 722.8 716.9 704.4 687.9 668.2 650 626 631.2 650.5 667.8 690.4 714.4 738.9 763.1
487.2 489.8 492.8 495.9 499.3 503.2 508.4 513.8 517.3 521.8 526.5 530.4 534.5 537.9 539.8 540.4 539.9 539 536.3 533.2 530.4 528.4 526.2 520.7 514.5 507.9 500.5 493.3 488.4 484 477.1 467.7 474.2 478.1 480.9 484.1 486.5 487.1 490.1 492.4 495.8 499.3 502 504.2 505.1 504.3 502.4 495.6 486.8 479.3 470.3 456.8 445.5 434.9 424.9 410.5 406.2 413.9 418.5 423.8 427.1 435.9 446.7 453.3 459.9 463.3 466.5 466.7 465.7 461.6 457.9 470.4 482.6 495.6 510.7 528.4 544.5 555.4 562.6 565.9 567 563.3 559.3 555.1 551.2 548.9 545.7 544.4 546.2 547.5 548.8 549.4 549.8 553.1 559 563.5 567.1 571.2 572.3 572.1 574 573.3 572.5 576.4 582.2 589.6 594 597.8 599.4 602.5 603.2 604.1 601.5 599 595.2 596.1 596.1 596.1 597.6 597 599.9 605.1 611.4 614.7 621.9 627.8 632.2 636.1 635.8 639.2 640 641.2 642.7 640.5 635 627.4 617.8 607.9 598.5 586.5 566.4 544.7 520.6 501.1 481 464.1 456.9 469.2 489.3 512.9 536.2 558.5 577.9 594 603.9 620.9 634 639.5 634.7 625.3 614.2 600.1 583.9 563.7 540.4 516.6 487.1 464.3 439.7 416.8 397.6 397.2 407.3 425.1 446.4 471 497 525.6 553 576.5 598.4 625.2 655.1 679.1 698.4 709 710.3 705.4 694.4 680.2 659.6 639.8 620.4 625.1 641.8 659.9 677.2 700.9 724.2 748.8
487 489.3 491.7 495.7 498.9 503.5 509.2 514 518.8 522.3 526.4 531.5 535.1 537.7 539.9 542.1 541.5 539.6 536.9 534.6 531.9 529.4 527.3 521.5 515.6 508.3 499.1 492 487.1 481.9 476 471.2 463.1 473.2 475.4 477.8 481 483.7 486.7 487.9 490.4 493.6 495.9 498.9 501.5 501.3 499.2 494.4 485.6 476.1 468.3 458.6 448.4 437.2 427.2 418.3 404.4 409.3 416.1 420.1 424.4 432.8 442.9 450.3 456.4 458.4 461.2 462.1 459.9 454.2 460.8 474.9 485.4 499.6 516 533.4 548.3 557.2 562.6 565.2 566.6 564.1 559.5 554.5 550.2 547.1 543.5 543.2 544.8 546.2 547.4 547.1 547.8 550.9 556.5 561 566.3 571.1 574.8 574.7 574.3 574.2 571.3 569.2 570.1 574.7 583.4 589.7 590.5 593.1 594.9 594.6 594.9 592.5 588.8 587.9 588.5 589.6 589.5 589.8 592.6 596.8 603.7 605.7 615.8 619.4 620.8 623.3 623.4 627.3 626.7 623 627.6 626.4 624.6 618.6 610.2 603.8 596.1 588.1 570 546.2 522.4 501.3 481.7 464.8 454.4 463.6 482.9 506.4 529.3 552.9 571.5 586.5 597.4 609 621.9 629.1 625.7 621 610.4 596.4 580.6 560.5 537.8 513.2 485.6 459.6 436.6 417 395.3 394.2 409.2 426.9 445.1 471.6 497.7 521 548.4 573.2 593.5 616 645.8 669.9 686.8 694.8 698.7 694.8 684.9 670.6 653.4 634.1 614.5 621.4 634.6 649.2 667.1 688.9 712 734.8
486 487.6 491.2 494.9 498.7 503.8 509.3 513.8 518.3 522.9 527 531.7 535.9 538.9 541.5 543.1 542.7 541.5 537.9 535.6 533.3 530.2 527.1 522.3 516.1 509.7 501.2 493 488.4 484.3 475.4 470.8 463.2 466.5 469.8 470.4 476.6 480.5 482.7 482.3 484.2 485.6 488.1 492.4 496.2 497.7 496.4 489.8 482.3 474.8 466.6 456.4 445.1 435.8 427.6 420 405.7 404.8 412.4 417 422.6 430.7 440.2 447.5 453.1 455.7 457.2 456.6 450.2 457.8 468.3 477.4 489.4 505.3 521.8 537.8 550.7 558.9 562.7 564.2 565.1 563.2 558.6 553.3 549.5 546.4 542.6 541 544.1 545 544.7 544.1 546.5 549.5 554.5 560.1 565.1 569.9 573.9 577.6 580.5 582.8 582.1 580 574.3 566 571 580.1 582.4 584.4 586.9 586.2 586.2 585.2 581.8 579.5 580.4 581.5 582.8 582.6 585.7 594.1 595.9 600.8 607.6 610.8 610.6 612.9 612.8 615.9 614.9 612.4 616.5 614.5 614 609.2 602.4 596.9 592.7 588.8 574.5 547.6 524.8 503.9 482.9 462.8 450.5 459.6 478.2 499.5 521.6 545.2 565.8 579.6 591.2 599 611.2 618.3 618.4 615.6 605.3 592.4 576.2 558.7 536.6 510.9 483.7 456.3 432.1 412.9 393.4 389.5 408.4 424 445.1 468.9 494.9 517.6 544.6 566.6 587.2 609.9 637.2 661.6 676.8 684.6 687.8 683.6 674 660.3 646.7 628.1 609.9 614.9 628 641.3 654.3 677.4 699.2 722
485.3 487.5 490.5 493.8 498.5 503.8 509.2 513.7 518.6 523.5 528.3 532.9 537.4 540.6 543.2 544 544 542.8 538.5 536.3 534.1 530.8 526.9 522.2 516.5 510.4 500.2 496.6 492.5 486.3 477.7 471.6 466.1 457.5 462.6 466.3 471.4 476.1 477.1 476.9 477 479 481 483.3 487.2 488.8 490 485.4 480.8 471.7 464.5 453.9 442.4 435 428 420.3 409.3 403.1 406.7 415.6 421.1 427.7 437.5 443.8 449.2 452.2 452.9 445.7 459.9 464.3 471.2 480.3 494 510.1 525.8 541.4 554 561.2 563.6 563.6 563.8 561.6 556.5 553.1 548.6 545.1 540.7 539.3 542.5 543.1 542.7 542.1 545.4 550.1 554.2 560 568 572.8 578.6 584.3 587.5 590.7 590.4 587.5 582.2 574.9 564 569.3 575.9 577 578.3 578.2 577.8 578 577.6 574.8 574 575.5 576.3 576.5 579.9 584.2 588.8 594.4 597.6 601.9 602.9 603.7 605.3 606.5 607.2 606.9 604.2 607.5 606.7 604.1 597.7 594 588.4 585.6 575.2 550 526.6 506.5 484.3 465.6 449.3 454.7 473.7 493.4 513.7 538.7 559.7 574.1 584.7 591.9 601 607.9 610.3 607.4 598.2 588.3 572.6 555.3 533.1 510.1 482.4 453.3 426.6 408.6 390 390.1 406.9 421 444.3 467 493.1 515.9 539.9 562.9 583.9 604.1 628.8 652.9 666.6 673.5 675.9 671.7 661.1 649.8 636.1 622 605.4 609 620.1 633.2 645.7 663.8 686.3 707.4
483.6 486.2 489.2 493.5 498.6 503.9 508.1 514.1 519 524.2 529.6 534.2 538.2 542.1 544.2 545.1 544.6 542.8 539.1 536.9 535.1 530.9 527.2 523 517.3 511.5 506.1 500.6 494.9 488.3 481.1 472.8 467.6 460.5 454.8 460 465.7 468.7 471.4 472.9 473.4 473.9 473.8 475.6 478 480.7 482.2 481.5 477.6 470.8 463.7 454 444.6 436.2 428.3 421.3 413.4 402.3 403.1 411.8 418.5 425.3 433 439.9 444.4 442.1 444.3 454.8 460.1 465.8 474 484.7 498.5 513.5 528.7 543.9 555.3 562.3 563.8 563.4 563 559.5 556.2 551.9 547.1 543.6 539.6 535.9 538.8 540.6 539.8 541 545.2 549.6 555.1 560.9 569.9 576.5 583.4 589.4 594.3 597.8 598.8 596 590.8 583.4 570.4 562.6 566.8 570.5 571.9 572.3 570.4 570.5 570.1 569.5 567.6 568.9 570.7 570.2 573.8 578.7 582.2 590.1 590.3 590.4 593.5 594.4 596.4 598.5 599.6 599.1 597.7 599.6 600.4 599.8 592.9 586 580.3 577.9 571.5 550.8 527.8 507.5 487.8 467.6 447 450.1 468 484.8 506.2 530.6 552 567.3 578.7 585.4 591.9 598.4 601.4 598.4 592 582.2 568.3 552.5 531.3 507.1 479.3 451 424.9 406.5 386 388.1 407.3 421.6 441.8 467.8 491.3 512.3 536.8 557.7 579.7 598.1 619.2 641.1 656.2 662.8 663.3 657.6 647.3 639.4 627.3 614.7 601.1 602.9 611.8 622.7 636.7 653.1 675.1 694.1
483.4 485.8 488.5 492.7 498.7 503.7 508.6 514.4 519.8 525 530.5 535.1 538.8 542.5 545.1 545.9 544.8 542 538.8 537.6 535.4 531.8 528.8 524.8 520.5 514.7 509.1 503.3 497.5 490.2 483 475.5 468.3 464.1 458.5 449.3 458.9 463.3 466.3 468.6 469.1 469.9 470.6 472.4 474.2 473.2 474 475.2 473.5 468.8 459.7 452.2 442.4 436.7 429.5 420.8 417.5 402 401 406.8 415.7 421.9 429 431.4 434.2 446.9 451.6 455.6 459.7 466.7 476.5 488.2 501.6 516.2 531.2 545.6 555 561.7 565 565 563.3 559.4 555.2 549.8 546.8 543.2 539.3 536.5 535.4 535.8 538.2 540.4 545.3 550.1 555.9 562.6 570.8 579.7 588.1 596.1 601.4 605.7 606.2 604 600.5 589.7 583.9 572.2 562 563.8 566.7 565.9 564.7 564.7 563.8 563.6 563.4 565.5 566.9 566 568.5 574.5 577.6 582.1 582.8 583.5 585.1 587.8 588.3 590.9 591.5 590.1 591.2 590.8 592.3 594.1 589.8 581.2 577.7 573.3 566.8 550.2 526.9 509.2 489.4 469.1 451 446.6 462.2 479.4 500.1 522 543.1 560 571.5 578.6 584.2 588.9 591.8 589.8 582.8 573.1 561 548.4 526.5 503.3 477.8 448.4 423.2 406.3 386.3 386.6 403.8 422.6 443.2 467.2 490.1 512.1 532.5 554 574.2 592.2 609.9 632.6 644.8 651 651.2 643 634.4 627.2 618 605.8 595 597.7 604.8 615.3 628.4 642.5 663.2 681.5
482.8 485.4 488.6 493.2 499.1 504.1 509.1 514.7 520.3 525.8 531.4 536.1 539.6 543 545.6 546.1 544.1 541 539.2 537.1 534.8 532 530.3 526.6 522.9 517.7 512.2 506.7 500.7 494.1 486.9 478.4 471 466.3 461 453.5 449.6 456.2 460.4 463.6 466.1 466.9 467.7 469.7 470.9 469.9 468.3 467 465.3 464.1 456.6 447.8 441.7 437.5 427.7 419.8 417.8 400 400.8 402.4 412.7 416.2 418.5 431.9 438.9 445.7 450.7 455.6 461.7 468.6 479.1 490.6 503.9 518.7 533.2 545.4 555.4 562.3 566.3 566.4 564.6 562 553.6 549.1 546.9 543.5 538.6 535.6 532.1 533.4 536.7 539.3 544.8 550.2 557 564.3 572.7 582.3 594.4 603.6 610.5 614.2 614.8 611.9 608.2 603.5 594.9 580 568.2 558.7 559.5 559.4 558.7 558.4 558.7 559.7 560.3 561.1 563 562.7 566.1 569.8 574.9 576.1 577.4 578.1 577.9 579.2 579.7 582.3 583.6 583.4 582.3 584.6 582.9 585.8 582 575.8 571.7 569 557.9 546.9 527.2 509.9 490.4 472.9 455 442.5 456.5 474.5 491.8 513.6 534.1 551.6 564.1 571 576.8 579.9 581.7 580.5 574.6 564.4 551.9 539.3 520.6 499.8 474.6 444.8 421.9 405.3 383.9 383.5 404.2 422.9 443.2 466.9 488.6 510 528.1 549.7 568.7 587.2 601.9 622.9 634.8 640.1 638.8 629 620.6 615.5 605.3 596.9 589.8 590.3 595 605.5 619 633.6 647.2 667.6
481.8 484.2 487.7 493.7 499.1 504.3 509.5 515.1 520.8 526.2 531.7 536.8 540.1 542.6 545 544.9 543.1 541.3 539.4 537.3 535.6 533.5 531.1 528 524.8 520.5 514.1 509.3 503.5 498 490.8 482.7 475.1 467.1 463 457.9 446 448.5 452.7 457.7 460.9 462.9 464 466.5 466.7 465 466.6 461.6 460.8 458.5 452.8 445 439.2 434.4 425.8 418.9 416.2 401 399.2 401.4 407.8 417.7 421.9 433 438.7 444.3 450.3 458.3 464.5 471.1 481.4 492.7 504.6 518.7 531.4 543.9 554.9 563.6 567.6 568.2 565.8 559.4 554.7 549.4 545.3 541 537.1 534.6 532.9 532.2 534.5 539.6 544.5 549.1 556.5 565 575 587.5 600.4 611 617.4 621.4 623.7 623.3 619 613.3 604.2 589.8 573.4 565.5 558.2 553.7 551.6 552.2 552.7 554.3 555.1 558.6 558.3 559.7 562.7 566.9 570.2 572 573.7 574 572.9 572.4 571.4 573.5 574.7 575.3 573.6 574.9 574.9 577.4 576.2 569 564.8 561.6 556.4 543.7 528.2 510.3 494.4 476.7 459 440.3 452.2 466.7 483.2 505.3 525.9 543.4 556.2 563.2 568.3 572.3 573.6 572.6 567.8 560.8 551.1 540.1 521.5 499.6 471.9 442.7 419.3 401.5 378.6 382.2 402.8 423.1 443.1 465.4 487.3 506.8 525.4 545.7 563.4 582.1 596.8 613 622.5 628.2 625.3 616.6 610.7 604.4 596 589.3 585.5 584.3 586.2 596 610.5 626.6 641.1 658.3
480.6 483.2 488.3 493.7 499 504.4 509.7 515.2 521.1 526.6 531.7 536.5 540 542.5 543.2 543 542.1 541.2 539.8 537.9 536 533.9 531.9 529.4 525.9 522.8 517.6 511.7 506.2 499.9 494.7 488.3 479.8 472.1 464.8 459.9 452.2 441 446.2 450.2 453.9 456.6 458.4 459.8 460.7 458.7 459.2 457.7 454.4 452.5 448.7 442.2 436.9 433.3 425.6 418.9 417.5 400.2 399.4 398.5 408 416.7 424 431.8 438.4 443.5 451.1 459.6 466.5 474 482.5 493.8 505.2 518 529.3 541 552.6 563 567 568.8 563.3 558.1 555 548.1 542.2 538 535.1 534 530.8 529.2 533.1 538.1 543.1 548.9 556.2 564.5 577.9 592.3 605.1 616.7 624 628.5 631.3 632.5 628.1 620.7 612.8 599.9 583.8 570.7 563.7 556.8 552 548.4 548.9 549.2 550.6 554.6 553.6 557.1 559.5 562.1 564.2 567.4 569.2 568.6 568.7 568.6 566.6 565.4 567.4 569.5 568.1 566.6 569 569 568 564.3 556.2 553.2 549.8 542.5 528.1 511.6 496.9 476.6 457.1 443.2 445.3 459.9 476.5 496.4 518.3 535.3 547 555.9 560 563.5 565.8 566.4 563.7 557.2 548.1 536.7 518.5 497.2 468.8 440.3 417.5 400.1 378.8 382.4 403.3 424.9 443.2 465.4 486.1 504.1 522.2 540.8 559.2 576.6 590.3 603.9 613.7 616.1 612.9 606.8 599.1 593.8 588.3 589.6 586.5 577.8 584.7 593 605.3 619.4 633.2 651
479.2 483 488.5 493.7 499.1 504.5 510 515.5 520.9 525.6 529.9 534.9 538.7 541.3 541.9 542.1 541.8 541.1 538.9 537.5 536 534 532.1 529.5 527.7 524.9 520.4 515.2 509.5 504.1 498.6 493 485.6 476.8 468.7 462.1 455.3 447.6 439.2 443.2 445.2 449.8 451.2 451.9 452.4 452 452.5 451.1 446.8 444.4 441.5 437.7 435.4 431.6 424.5 417.9 417.1 399.2 398.1 396.1 407.4 414.2 422.4 429.9 436.2 444.2 452.9 460.9 468.9 476.5 485.1 495 506.3 517 527.2 538.3 548.9 560.1 565.5 566 561.8 558.6 551.1 545.9 539.6 534.8 532.5 531.9 529.4 525.5 532.1 536.8 542.1 548.5 555.5 566.4 580.1 595.6 608.6 620.8 630.1 635.8 639.4 641.3 636.3 628.1 618.2 604.3 590.8 577.5 567.1 560.9 554.7 549.6 545.1 546.1 547.8 549.7 550.8 554.8 556.9 560.1 561.3 563.2 564.1 563.7 564 563.8 561.9 563.6 562.9 563.6 563.7 560.1 561.5 561.3 561.3 556.8 549.6 545.1 541.7 536.4 524.9 507.4 499.6 481.3 465.7 446.6 436 454.4 469.9 486.1 509.6 526.7 538.3 547.5 551.7 554.3 557.3 560 558.2 553.9 545 532.9 514.5 492.2 467.7 437.2 413.2 392.1 375.4 385.1 404.3 422.4 442.5 463.4 485.5 501.7 521.5 537.7 555 572.3 585.2 595.9 602.5 603.5 602.2 598.4 592.1 587.4 584.9 580.8 577 572.4 582.8 590.1 598.5 609.7 625 641.7
478.6 484 488.5 493.6 499 504.5 509.9 515.2 520.5 525.1 528.9 533.2 537.6 539.9 539.9 539.8 539.5 538.9 537.8 536.3 535.9 534.1 532.1 530.7 528.8 526.1 523.5 519.1 513.7 507.2 501.1 495.5 489.4 483.3 474.3 466.5 459.9 452.5 445.3 436.7 438.2 441.2 443.4 444.5 445.3 446.8 445.9 443.9 440.8 438 436.9 434.8 432.6 428 421.5 417.9 417 397.3 396.9 395.5 404.3 413.6 421.6 429.2 438.4 446.7 454.6 462.4 470.7 478.7 487.4 497.5 507.1 516.8 525.1 535.7 546.3 555 561.5 561.4 560.7 553.8 548.2 542.8 536.6 532.5 530.1 529.7 528.2 526 529 534.7 541.3 548 555 567.3 581.7 596.5 612.2 623.4 634.2 641.5 646.3 650.8 642.5 632.3 618.8 606.4 592.1 581.2 571.5 563.4 559.4 554.3 547.8 543.7 543.5 544.7 547.8 551.3 553.5 556.8 558.7 558.8 560.7 561.3 560.2 559.5 560 560.5 560.4 558.8 558.6 557.9 556 556.7 556.9 556 552.9 544.2 537.1 522.7 518.9 513.7 499.8 486.7 472.5 453.8 432.2 444.2 462.7 477.5 500.7 516.9 529.6 538.6 543.7 546.2 548.8 552.5 552.3 548 539.8 526.2 508.7 488.5 462.1 432.5 405.5 384.1 368.7 385.5 407.2 420.4 443.1 464.1 483 500.5 519.9 535.2 551.6 569.1 579.9 589.2 593.8 595.7 594.2 589.9 583.3 579.2 578.3 578 573.6 567.6 576.5 587.1 595.1 605 618.4 635.7
479 483.5 487.7 493.5 499.1 504.7 509.9 515.1 520 524 527.4 531.4 535 537.3 537.7 537.5 536.9 536.4 535.6 535.1 534.6 534 532.2 531.1 529.6 528 525.7 522 516.5 509.7 503.5 497 491.1 485.7 480.5 472.9 466.6 456.7 449.4 441.9 431.5 433.6 436.8 438.3 439 440.1 440 439.2 436.5 433.8 432.7 432.5 429.2 424.4 418.9 417.1 412.2 396.2 396.3 393.8 404 413.7 422 431.8 440.2 449 456.7 464.3 472.6 480.8 490.1 499 508.2 516.6 524.2 533.4 543.9 550.8 556.2 557.2 556.5 550.2 544.3 538.8 533.5 529.2 528.1 527.9 526.8 525.1 527.8 532.6 538.3 545.4 556.1 567.5 583 596 611.8 623.7 634.6 645 651.2 654.2 645.8 632.8 619.4 605.5 592 582.3 574.9 568.4 561.6 558.3 554.4 548.4 543.7 539.6 542.4 546.3 550.1 553.3 555.8 555.9 557 557.7 557 557.3 557.7 559.8 559.2 558.1 557.6 557 553.4 551.6 552.6 552.7 549.1 542.6 543.3 537.6 529 517 505.3 489.9 471.9 456.2 439.5 432.1 452.4 470.5 492.3 506.3 520 529.7 533.5 537.6 541.3 544.1 544.4 541.3 532.6 520.8 502.7 482.5 459.2 428.9 403.5 381.1 368 387 404.9 420.4 440.1 463.7 483.9 500.5 518.4 533.6 550.7 566.3 573.9 580.2 583.5 586.2 584.8 579.8 574.8 572.9 572.4 572.1 567.3 559 573.9 582.7 588.9 601.5 615.8 631.9
477.7 482.3 486.9 493 499.5 504.8 509.9 514.5 519.1 522.4 525.7 529.4 531.7 534.4 535.4 535.3 534.9 534.2 533.6 533.7 533.2 532.9 532.5 531.8 530.3 528.8 527.2 525.4 519.1 512 505.4 499 493.4 488.3 483.3 477.9 471 463.2 454.1 446.9 437.9 430.8 426.6 433 433.6 433.9 435.2 435 433.4 430.8 428.2 427.1 426.1 420 416.8 416.4 414.8 395.8 395 395.5 403.5 416.7 425.8 434.1 442.9 450.7 457.9 466.1 474.7 483.2 492.3 500.6 508.6 516.1 524 531.5 541.4 547.3 550.7 552.1 551.4 546.6 541.1 535.6 529.4 526.7 526.4 526.4 526 523.1 527.7 530.7 536 543.7 554.8 566.5 583.1 595.6 608.9 620.7 631.3 642.6 648.4 647.4 642.1 629.5 617.4 605 592.6 583.6 576.3 570.6 563 560.2 558.1 551.9 545.2 541.4 536.5 540.6 545.5 549.4 551.8 552.8 553.3 554 553.9 554.2 555 556.9 559.2 559.1 558.5 558.1 555.2 552.4 550.1 548.5 547.4 552.5 549.8 542.5 531.3 519.8 506.2 492.1 474.4 458.1 443.2 425.9 441.5 461.7 480.5 496.6 508.5 518.3 524 526.9 530.9 534.3 536.5 533.5 525.1 512.9 499.1 477.6 454.3 425.7 405.6 379.7 364.1 386.1 401.3 420.7 441.9 464.6 483.8 500.7 516.3 534.2 551 564.4 571 573.8 574 575.2 572.5 567.6 565.3 563.9 563.4 559.6 553.5 553.5 570.4 577.3 587.5 598 611.2 625.7
476.4 481.5 487 493.6 499.7 505 510.2 514.4 518.2 520.9 524 526.7 529.3 531.1 532.3 532.5 532.2 532 532 532.2 532 532 532 531.4 530.9 529.4 527.4 525.6 520.9 513.7 507 501.4 495.8 489.1 485 479.3 473.2 466.5 458.5 449.3 442.6 433.2 426.5 427.8 428.9 429.6 430.1 430 429 427.3 424.7 423.4 422.1 417.3 416.5 415.1 413.9 396.6 394.6 397 411.6 422 428.4 436.6 445.4 452.9 460.1 468.8 477.8 486.2 493.7 501.8 509.4 516.6 524.2 529.3 538.5 545.8 547.3 548.9 547.1 543.7 538 531.5 526.5 525.1 524.6 525.2 524.5 523.7 527 529.5 534.9 542.3 551.2 566.5 582.2 595.2 607.2 617.8 626.8 634.8 640.7 639.3 635.3 626 614.6 603 591.9 582.5 576.6 570.7 565 560.4 558.1 554.8 547.2 540.8 537.4 534.2 539.1 545.5 547.7 548 549.1 549.9 550.3 550.7 552.2 552.9 554.5 557.1 557.6 556.8 557.7 554.2 551 555 557.6 556.5 552.1 544.1 533.4 520.9 506.7 494.5 477.6 462 447 425 431.3 451.1 469.1 484.9 496.8 505.2 512.1 515.8 520 524.2 527.6 524.3 517.7 507.7 490.9 474.3 447.4 420.6 400.1 376.1 365.5 383.4 400.1 421.3 444.2 464.8 483 498.6 516.8 536.1 551.9 562.6 565.6 567.9 566.8 563.6 560.4 551.7 549.6 548.6 549.4 548 545.1 548.6 560.5 572.7 585.8 595.9 607 617.8
474.6 480.2 486.3 493.2 499.5 504.8 510.1 514.4 517.9 520.2 523.2 526.3 527.7 528 528.9 529.3 529.3 529.3 529.2 529.7 530.5 531 530.8 530.7 530.3 528.5 525.9 523.4 520.4 513.9 506.7 501.1 495.2 489.3 484.2 479.2 473.9 468.3 461.5 452.5 444.6 436.5 428.1 420.8 424.5 425.6 425.6 424.8 424.2 422.9 421.9 418.7 417.4 417 416.4 414.8 411.6 395.6 392.9 398.1 416.4 424.8 432.2 440.3 447.9 455.3 462.7 471.4 480.6 488.4 495.1 502.1 510.4 517.7 521.5 527.2 535.3 544.7 545.4 544.2 544.5 541.4 536 530.2 525.8 523.9 523.6 523 522 522 525.2 527.8 533 541.4 549.4 564.8 579.4 592.3 602.3 611.1 618.6 625.4 630.9 630.1 628.1 621.5 612.4 601.1 590.3 581 575.3 570.6 566.2 560.3 556.4 554.4 549.9 542.8 536.5 530.6 533.2 539.5 543.1 543.3 544.4 544.9 544.7 546.9 549.2 550.5 553.3 553.3 553.5 554.8 555.3 553 554.1 559.4 560.9 558.5 552.9 544.8 535.4 523.6 509.2 494.4 480.8 466.5 450.5 431.8 422.2 441.1 461.6 473.6 483.7 490.6 498.6 504.1 508.7 513.7 517.6 515.8 510.1 500.4 483 463.2 440.8 417.4 395.9 375.9 364.5 382.2 401 423 445.9 465 484.9 499.9 520 538.6 553.8 560.2 560.9 561.8 559.8 556 548.1 544.2 541.6 538.4 537.4 539.1 541 542.6 558.3 572.4 583.9 590.9 598.4 608.6
473.1 479.7 485.5 492.8 499.3 504.4 510 514 517.4 520.2 522.4 525.5 525.3 525 525.8 525.5 526.8 526.8 527.2 527.4 528 528.7 528.9 528.8 528.2 526.6 523.4 520.5 517.7 511.6 504.6 498.6 493.2 488.4 483.1 477.4 472.8 467.4 461.9 452.6 446.7 437.9 429.2 423.1 417.5 421 421.7 421.3 420.6 418.6 417.5 416.5 416.6 416.2 415.9 414.4 405.1 393.3 391.2 405 419.6 426.9 435.8 444.1 452 459 466.5 475.3 483.5 490.1 496.6 503.3 510.4 515.8 519.7 524.7 529.1 538.6 541.4 540.8 541 538.2 533.6 529 525.7 523 521.5 521.1 520.5 519.8 524.6 527.1 531.1 539.7 548.6 562.7 575.2 585 595.5 603.2 611.1 618.7 624 623.9 621 615.2 606.9 598.2 588.9 580.5 575.4 570.6 566.2 562.1 555.1 550.7 549.1 544.5 536 531.1 528.1 532.7 537.3 539.4 539.7 540 541.1 542.6 544.5 545.4 550.8 550.9 549.2 552.1 551.9 552.3 555.9 561.1 562.5 559.4 555.5 548.3 539.2 526.7 509.6 494.6 485.4 470.5 454.1 436.1 417.2 430 449.8 457.7 469 475.3 482.9 490.7 496.2 502.9 508.6 505.8 501.6 491 473.3 456.1 437 415.3 392.7 363.6 365.3 381.4 402.1 425.5 445.2 467.4 485.5 503.4 523.4 542.6 553.4 556.5 556.4 553.6 551.4 547.1 542.7 539.9 536 535.5 537.3 539.3 537.7 536.8 555.5 568.3 579.3 586.6 592.6 598.6
471.8 478.2 485.5 493.1 499.8 504 508.8 512.4 516 519.1 521.3 522.8 522.8 522.4 522.5 523.6 524.3 523.8 524.5 524.1 525.1 525.4 526 526.2 525.8 524.6 521.7 518.3 513.5 507.1 500.4 493.3 488.9 485.7 481.1 475.9 470.2 465.2 460 453.7 447 439.4 431.9 423.6 418 417.6 418.4 418 416.7 415.4 414.7 415.7 415.7 415.4 414.5 406.3 394.4 390.6 392.6 414 422.2 429.8 439.7 447.6 455.1 462.8 471.1 479.6 486.2 492.2 498.4 504.8 510.9 514 518.4 522.3 526.3 530.7 536 537.4 537.9 536.2 532.9 529.3 525.5 523 520.3 518.1 516.7 521 524.2 526 528.3 537.1 547.4 559.7 571.5 579.1 586.9 596.4 604.4 613.4 619.1 620.3 615.7 608.7 602.3 595.3 586.6 580 575.2 570.1 567 562.6 557.5 549.4 543.2 542.9 537.4 529.5 526.5 528 532.2 534.5 535.4 536.4 537.5 538.3 539.4 541.3 546.2 546.8 545.4 547.5 549.5 552.9 557 561.5 563.6 564.1 562.1 555.5 544.6 532.4 520 499.8 487.7 477.2 461.1 440.6 415.1 421.6 437.6 445.5 451.9 459.1 464.5 474.5 484.7 491.7 497.8 496.9 492.4 483.1 465 448.4 431.4 410.8 388.3 361.5 364.4 382.4 403.3 426 446 471.3 488.5 507.6 529 543.2 550.4 551.4 550.3 547.7 543.8 540.6 537.2 534 532.4 535.2 538.8 542.2 537.3 535.7 553.1 563.7 573.5 580.6 584.9 589.9
470.5 476.9 484.9 492.9 498.5 502.5 507.6 511.4 514.9 518.3 520.9 520.8 519.8 519.2 519.5 520.7 521.6 521.6 521.4 521.5 521.3 521.3 522.3 522.9 522.5 521.7 519.4 515.6 510.8 503.9 497.7 490.4 484.5 482 476.1 471.5 467.2 462.3 458.5 451.5 446.3 439.1 431.1 423.8 419.7 411.9 415.4 414.3 413.4 413.3 413.2 414.2 414.7 402.1 388.1 387.5 389.9 391.1 400.3 419.2 426.6 433.9 443.9 452.6 460.2 468.5 477 484.1 491 496.1 501.2 506.3 510.6 513.4 516.6 519.4 523.5 525.8 530.4 533.4 534 533.9 531.8 529 525.6 522.4 519.6 516.8 516.8 521.3 523.6 523.9 525.7 533.6 545.1 556.4 567.9 575.6 582.9 590 599.4 609.8 616.1 616.8 613.1 606 599.5 592.7 585.7 579.5 574.2 570.1 567.4 563.3 558.3 554.1 542.8 538.5 537.3 528.9 525 524.1 525.9 527.3 529.2 531.8 533.4 534.2 535 536.5 539.9 542.4 543 545.2 548.8 553.3 558.5 562.1 564.8 566.5 565.4 560.1 550.6 538.9 525 507.8 493.1 482.4 469.4 451.1 429.6 409.1 425.6 434.8 440.4 444.2 449.2 457.4 470.1 478.8 486 487.4 483.1 472.9 455.9 440.6 424.6 406.4 383.7 365 363.2 380.9 405.6 427.4 448.5 472.3 491.8 512.6 531.6 541.9 545.9 544.8 543.1 540.9 536.7 534.8 531.1 527.6 528.5 536 534.1 534.7 533.6 531.4 546.7 555.5 563.2 570.2 574.6 582.1
469.5 475.9 484.3 491.7 496.3 501.3 506 510.2 513.9 517.9 520.5 519.7 516.8 515.3 516.3 517.5 518.6 519.3 518.3 516.7 517.3 517.2 517.3 517.9 517.9 516.8 515.7 512.2 507.9 501.4 494.3 487.9 481.5 474.8 470.4 466.3 462.3 458.4 454.1 449.3 444.8 437.4 429.4 422.7 419.2 415.1 409.1 412.8 411.3 410.8 405.8 410.2 394.2 386.3 388.2 388.6 391.7 401.2 415.6 423.6 430.7 438.6 447.8 456.9 465.7 474.4 482.3 489.1 495.2 501.3 506.3 509.3 511.7 512.6 514.6 516.5 520.3 522.4 525.3 528.9 531.5 532.8 531.9 529.1 525.8 522.6 519.2 514.6 514.8 520 522.4 522.1 524.3 531.2 541.5 552.5 563 571.4 579.5 585.2 595.3 606.5 613.9 614.6 613 606.8 599.9 592.8 585.3 579.7 574.2 571.2 567.6 564.1 559.5 555.4 549 538.4 533.8 529.1 523.7 521.7 522.8 522.8 522.6 525.5 528.6 530.2 531.7 532.6 534.8 537.4 538.9 542.5 548.1 554 559.4 562.4 567.3 569.3 568.3 564.6 556.9 545.2 530.8 515.8 501.4 487 476.1 461.3 444.1 422 416.3 422.9 428.9 432.7 436.4 444.4 456.1 463.3 472 473.6 470.8 462.6 447.3 435 418.4 400.6 383.3 354.1 362.8 382.1 405.9 428.6 452.6 476.5 497.3 516.6 531.9 538.4 540.9 538.9 536.8 534.3 529.6 525 524.5 522.2 520.4 525.1 528.9 528.7 527.4 528.1 537.8 548.4 554.7 555.9 560.8 567.6
468.7 475.6 482.4 489.4 495.4 501.1 505.6 508.6 512 517.2 518.8 518.3 514.4 512.7 513.1 513.5 514.7 515.3 515.3 514.7 513.8 513.9 513.6 513.3 512.4 512 509.6 506.4 501.6 498.4 491 484.1 478.3 470.1 464.9 461.4 457.5 453.6 450.4 446.3 441.2 435.1 426.7 421.7 418 415.3 408.9 406.2 408.8 404.2 399.7 393.2 385.2 387.2 388.9 396.4 411.8 417.3 422.5 428.8 436 444.5 453.9 463.1 472.4 481.5 488.5 495.4 501.8 507.1 511.6 514.5 515.9 514.1 512.3 511.9 515.8 518.9 521.2 524.1 528 531.1 531.6 528.7 525 521.8 518.4 515.1 510.1 517 520.4 520.7 523.2 527.6 537.6 547.8 557.6 566.8 575.6 582.7 593.5 602.8 610.6 612 610 605.7 600.4 593.1 586.2 580.3 575.1 571.2 567.7 564 560.5 556.3 551.7 543.6 535.3 530.7 523.9 519.1 521.1 521 520 521.2 522.5 525.3 527.7 528.9 530.6 532.5 534 541.6 547.2 554.1 559.2 565.2 569.5 572.3 572.2 569.3 562.3 551.6 542.2 527.4 514.1 499.5 487.7 475.1 457.5 436 406.1 408 414 419.3 423.2 429.9 437.9 448.7 458.1 461.6 459.4 452.8 439 425.7 411 394.9 378.1 348.7 361.8 384.6 408.7 433 455.5 481.1 503.1 520.4 530.3 533.4 534.8 533.7 528.6 526.3 521.1 515.3 513.9 513.5 512 512.3 518 519.6 521.6 525.6 531.3 537.8 543.8 545.7 548.5 547.2
468.6 474.8 481.7 489.2 495.4 500.7 504.5 507.1 510.2 515.2 518.1 515.3 512.4 510.6 510.5 510.6 510.9 511.2 511.1 511 510.2 510.8 510.9 510.2 508.8 507.7 504.7 501.1 497.1 492.7 486.8 479.4 472.3 466.2 460.3 456.7 453.5 449.8 446.6 442.2 436.4 431.2 423.9 419.8 417.1 414.3 410.8 394.8 398 394.4 393.5 383.4 386 387.4 394.6 410.2 416.8 421 427.5 434.8 442.4 451.3 460.7 470.3 479.3 488.6 496.3 502.5 508.6 513.2 517.3 519.1 519.8 518.8 513.2 508.6 508.9 514.1 517 520.3 524.9 527.9 529.6 528 524.3 520.5 517.5 513 507.5 512.8 517.3 520.7 522.5 525.1 533.5 544.5 554.2 563.2 573.6 582.6 592.1 600.6 606.2 607.6 606.7 603 597.7 591.3 586.8 583 578 572.1 568.2 564.5 560.6 556.2 552.6 547.1 539.6 531.4 525.6 519.3 517.6 520.2 518.2 517.9 517.4 518.9 522.5 525.2 528.1 530 532.3 539.7 545.4 551.1 559.2 566.2 572.9 576 576.4 575 570.8 562.9 553.3 541.4 527.5 513.2 501 487.9 472.5 455.7 436.9 420.2 404 391.6 403.4 414.5 421.2 431.9 443.7 448.5 449.1 442 430.2 414.8 404.1 386.9 366.6 346.6 362.4 388.5 414 439.1 462.1 486.7 508.7 522.5 527.9 529.1 529.2 525.9 521.4 517.6 515.3 511.1 507.6 505.9 504.6 502.6 506.5 511.6 517.7 521.4 523 528.5 533.3 537 538.9 537.6
468.4 474.7 480.7 487.4 493.6 499.1 502.2 504.5 507.6 511.8 512.4 512.3 510 508.6 507.6 508.2 507.4 507.4 507.5 507.6 506.7 507.7 507.4 506.9 506.3 504.6 501.8 497.6 492.9 486.4 480.2 472.4 466.5 461 455.9 452.2 449 445.7 442.5 437.2 431.7 426.1 420.6 417.5 415.5 412.8 407.3 391.3 389.2 386.1 382.5 384.6 385.8 394.9 411 415.1 420 425.2 433.5 441.5 449.9 460.3 469.6 478.9 487.8 496.9 504.7 509.8 514.7 519.3 522.1 524.2 523.6 522.1 518.8 510.7 505.8 507.7 511.7 516.2 520.8 524.4 526.2 526.4 522.5 518.7 515.3 511.3 505.8 510 515.3 518.6 519.5 523 532.6 542.2 552.2 560 570.5 581.6 590.8 598.3 601.6 602.5 601.8 598.2 593.2 589.1 587.4 585.4 578.3 571.9 567 563.9 560 555 551.4 546.2 541 533.6 525.9 520.4 515.9 515.4 517 515.3 513.3 513.4 515.9 521.1 523.3 526.1 530.3 537.3 543.5 549.8 559.4 568 576.3 582.3 586.1 587 585.1 577 567.5 555.7 542.2 527.3 514.3 502 489.2 475.4 460.9 444.9 429.5 414.6 401 387 403.6 417.3 429.1 433.9 435.3 431.8 422.3 410 397.5 378 356 342.3 362.8 390.7 417.2 444 467.6 491.8 510.1 521.1 523.6 522.7 522.2 516.7 512.8 509.7 507.1 504.5 500.3 500.6 499.8 498.9 501.1 505.3 512.5 514.6 519.7 520 522.2 529.1 529.5 528.4
469.2 474.8 480.7 486.9 491.6 496.6 500.4 503.1 504.7 507.4 507.9 507.7 507 505.2 505.8 505.1 504.1 504 504 504.5 504.5 504.2 503.9 503.3 502.8 501.9 499.5 495.2 490.2 483.5 475.2 468.6 461.8 457.1 452.1 447.7 445.1 441.8 438.5 433.2 427.2 420.2 416.9 414.6 413.3 409.6 392.9 386 381.5 381.3 383 385.2 391.3 410.3 414 418.5 423.9 432.6 440.2 448.6 458.8 469.4 479.1 488.6 497 505.6 512.1 517.6 521.9 525.2 527.6 529.1 528.4 526 522.7 515.6 506.5 503.3 505.8 509.5 515.2 518.7 521.8 522.3 520.4 516.8 512.7 508.2 503.6 507.7 512.6 516.3 517.2 520.9 531.5 541.1 551 558.5 569.1 581.1 588.8 594.1 597.8 598.2 596.7 593.1 589.7 587.8 586.2 581.3 576.1 570.3 565.5 562.8 558.3 552.9 547.4 543 538.2 532.5 527.5 521.9 517 511.1 513.1 514.4 512.7 509.8 510.8 515 518.2 525.8 529.8 534.7 541.4 549.5 560.1 570.5 579.8 588.2 596.7 599.9 598.3 592.5 583.1 571.5 556.8 540.2 528.2 515.8 503.2 490.2 476.1 461.4 445.7 431.8 417.9 399.6 379.7 403.8 415.2 419.4 423.4 422.6 417.6 403.6 390 372.5 347.7 340.7 367.9 394.5 421.3 449.7 472.1 495.3 509.5 517 518.4 517.6 513.2 512.6 507.8 504.9 499.6 497.2 493.2 495.2 495.1 495.7 497.7 500.6 504.6 505.9 512.7 517.2 516.6 516.3 518.3 519.4
469.4 474.6 480.2 485.7 490.6 494.8 499.9 503.3 502.5 504.2 504 503.2 503.1 502.7 503.3 501.8 500.6 500.5 500.6 500.5 500.7 500.9 500.5 500 499.5 498.6 496.4 493.5 488.2 481.3 472.7 465.7 458.9 452.7 447.6 443.7 440.1 437.3 433.5 429 420.6 414.8 412.6 411.6 410.7 400.6 385.4 378.9 380.1 381.6 385.1 392.3 405.6 411.9 416.3 423.1 430.6 439.8 448.4 458.4 468.8 479 488.6 498.6 505.6 512.4 519.2 524.1 528.8 532.1 533.7 534.2 533.4 530 526.2 519.1 510.3 502.4 502 504.6 508.8 513.8 517.1 517.5 517.1 514 510.3 506.6 503.7 503.4 509.9 512.6 516.4 519.2 530.1 539.7 550.3 557.8 568.1 579.5 585.9 590.3 592.9 593.5 591.5 588.3 586 584.1 580.2 576.2 571.5 566.9 562.7 559.3 552.5 544.4 538.2 535.8 532.4 529 526 522 517.9 513.5 508.9 512.2 511.7 509.3 506.6 508.6 513.3 521.2 527.1 532.1 538.8 549.6 561.9 572.7 585.5 595.3 603.8 609 609.4 604.1 595.9 584 570.1 551.6 537 525.7 512.5 500.6 487.4 474.3 459.4 445.4 431.2 412.7 382.3 381.9 399.8 408.3 412 412.3 410.7 396.8 381.3 365.7 337.2 350 370.6 397.7 424.6 452.7 474.7 495.3 506.6 511.6 511.7 508.8 507.6 505.2 502 497.6 494.4 489.9 487.2 487.6 489.7 489.3 492.3 493.1 496.4 499.6 502 504.7 506.1 503.2 501.4 504.8
468.5 474 478.7 484.5 489.4 492.7 496.9 499.5 500.3 501.2 500.8 500.2 500 500.5 498.4 497.3 496 496.6 496.7 496.6 496.9 497.5 497.2 496.9 496.3 495.2 493.2 490.1 485.9 478.7 471.5 462 455.7 449.8 444.7 439.6 436.5 432.7 428.3 422.9 414.6 411.1 410 409.2 407.1 390 378.9 379.9 380.2 384.4 399.5 406.4 410.8 414.5 420.9 429.8 438.6 447.6 458.1 467.5 479 489.7 499.9 505.9 513.6 521 526.7 531.5 536 538.8 540.1 540.3 538.4 535.1 529.9 521.8 513.5 504.5 499 500.2 501.8 506.8 511.6 513.3 512.7 510.7 508 504.3 501.3 500.8 507.4 510.8 513.9 518.1 528.7 538.2 549.8 557.4 567.5 576.4 581.7 585.1 587.1 587.4 585.4 582.8 581.1 578.8 575.8 572.1 568.2 563.1 557.5 550.4 544.7 542.1 538.6 534.8 531.1 528.7 525.9 522.7 518.3 514.1 508.5 509 510.6 509.1 506.4 503.8 508.9 518 523.2 530.9 538.7 550.1 562 575.2 587.6 596.4 605 611.7 614.8 612.2 603.1 589.5 573.2 556 543 532.1 519.8 507.3 496.3 485.1 472.9 459.2 445.1 429 406.4 385 370.4 389.1 397.8 403.1 398.9 386.6 371.1 357.5 336.4 347 373.3 400.3 426.4 453.3 474.8 490.8 501.3 505.3 506.1 503.6 500.3 497.5 495.6 492.6 487.9 484.1 481.1 479.5 485 482.7 487 488.7 489.5 494.2 495.9 496.6 493.2 496.6 494.4 494
467.4 473.2 478 482.3 486.7 491.2 494.6 497.1 498.3 497.8 497.4 497.7 497.1 495.9 494.3 492.8 491.3 491.9 492.6 492.4 493.6 494.1 494.2 493.9 493.3 492.4 489.7 485.6 481.8 477 469.7 460.8 453.2 446.7 441.2 436.7 433 428.9 424.1 416.4 410.4 409 407.6 406.6 392.7 377.1 381.5 381.9 384.1 388 403.4 407.7 412.4 418 427.6 436.5 446.8 457.5 468.5 478.9 490.9 499.9 506.3 513.5 521.6 529 534.8 539.1 542.3 544.5 546.4 546.1 544 539.8 532.9 524.6 515.3 507.2 500.1 495.7 497.1 499.5 504.7 508.1 508.5 507.5 505.7 502.1 499.6 499.4 505 508.4 511.9 516.4 528 538.4 548.8 557 565.9 572.7 576.8 579.7 580.9 580 578.4 577 575.2 573.3 571 568 565 559.3 554 554 553.7 550.3 546.7 542.2 536.9 532.8 529.9 526 520.6 515.6 509.1 504.9 507 507.4 504.7 501.8 503.7 512.5 518.6 526.1 535.5 547.5 559.6 573.5 585.3 594 603.1 611.2 616.4 615.6 599.3 584.1 572.8 556.9 544.5 535.7 524.8 512.5 502.5 493.9 484.2 471.9 457.6 441.8 423.5 403.8 383.4 359 379.7 388.1 386.8 374.9 359.9 348.9 333.7 344.5 375 400.5 427.4 452.7 472.8 485.5 494.4 498 498.9 496.6 493.4 491.9 490.5 488.9 484.7 479.2 474 471.9 476.3 477.3 481 481.8 484.7 486.4 490.5 488.6 485.3 485.9 484.9 485.7
465.5 471.5 477.3 481.6 485.4 489.3 492.8 495.5 497.8 497.5 495.4 494.8 494.8 493.2 491.3 489.1 487.5 487.6 488.3 488.2 489.4 489.9 490.5 490.9 490.3 489.5 486.7 482.2 477.4 474.2 467.9 460 451 443.3 437 431.9 428.3 424.1 418.8 411.6 407.6 405.1 403.6 394.5 376.5 380.5 381.4 383.5 392.1 401 406 410.8 416.2 423.9 434.2 444.8 456.4 467.6 478.6 490 500.5 507.6 514 521.9 529.7 537.9 542.4 545.7 549.2 551.5 553.8 552.4 549 543.1 535.1 526 516.9 509 502.7 497.4 493.2 495 498 502.1 504.5 503.9 502.6 500.4 498 496.2 502.9 506 509.7 517.5 528.6 538.9 548.8 556.3 564.1 569.3 572.5 574.1 575.5 573.9 572.4 570.7 569.6 568.5 567 564.6 560.4 555.7 559.1 562.8 561.9 558.4 553.3 548.1 543.2 537.9 534 529.2 523.5 518.3 513.3 506.8 501.6 503.1 502.3 500.4 502 509.3 514.5 520.9 532.6 543.9 555.5 569.3 578.8 588.7 598.7 607.8 608.4 598.2 589.2 579.7 569.6 556.4 544.7 537 526.3 517.1 507.4 499.2 491.6 481.2 468.6 452.9 435.9 417.2 398.4 376.5 348.2 373.7 378.4 370.5 354.7 345.5 328.7 353 376.1 397.9 427.2 449.5 468.5 481.7 489.2 493.8 494.3 493.1 490.7 486.1 483.7 482.7 478.6 474.8 467.8 463.9 465.1 472 473 474.1 477.4 481.9 482.6 481.6 477.4 476.6 472.8 470.8
464.5 470.3 476.2 480.8 484.5 487.6 491 494.8 496.6 496 493.6 491.9 492.9 490.3 489.8 486.7 484.2 483.8 484.4 485 485.5 486.2 486.9 487 487.3 486.7 483.7 479.9 474 468.7 463.9 458.4 449.2 440.5 433.5 428.7 424 417.3 412.7 408.2 404.9 402.9 396 376.2 374.4 377.6 380.1 384.9 394.1 402.2 408.7 415 423.3 431.7 443.4 454.6 466.3 478.1 488.3 499.6 507.4 514.3 521.9 529.1 537.2 543.9 547.8 552.2 556.6 559 560.1 558.2 553 545.4 536.8 527.2 518.4 510.7 504.3 499.8 494.1 490.9 493.7 496.2 499.3 500.4 499.5 498.1 494.9 495.6 501.3 503.5 507.9 517.8 529.3 538.9 547.8 555.2 562.2 565.9 568.5 571 571.9 568.7 567.5 566.1 565.4 564.3 562.7 560.6 557.6 560.8 566.9 569.7 568.4 564.6 559.6 553.7 547.8 542.4 537 532 526.6 521.2 515.8 509.5 500.4 500 500.3 498.4 499.3 504.7 511.1 516.7 528 539.2 549.9 561.4 571.2 580.9 591.5 594.2 591.1 587.5 582.5 575.1 565.3 555.8 545.4 536.7 526.8 519 511.9 503.9 496.5 488.2 475.3 460.5 444.1 428 411.1 390.8 368.6 342.5 365.7 365.4 329.8 321.3 342.9 359.1 374.4 396.3 424.9 445 463.8 476.4 485.7 488.8 490.7 489.3 486.1 481.3 478.2 475.7 472.9 469.2 462.5 456.4 459.6 466.9 465.8 466.7 470.6 478.4 479.4 471.2 469.4 459 457.3 455.7
463.7 469.9 475.3 480.2 483.5 486.4 489.1 492.8 494.1 493.8 492.1 490.8 489.7 487.1 486.1 484.7 482.2 480.1 480.3 481.1 481.8 482.5 483.1 483.2 484 482.8 480 476.1 470.9 464.9 458.8 453 447.1 437.8 430.7 424.1 418.3 412.2 408.4 404.9 401.9 392.3 377.1 373.6 372.7 375.9 377.8 386.4 399 408.2 413.6 421.4 431.8 441.6 452.3 464.6 476.6 488.3 497 506.7 514 520.9 528.3 536.1 543 549.1 553.2 558.5 562.4 564.3 563.3 561 555.9 547.7 538.4 527.6 521.5 513.2 506.5 501.7 496.2 490.8 489.8 491.9 494.1 496.1 496.6 495.5 492.7 493.9 499.2 503 509.7 518.5 530.7 539.5 546.8 553.8 558.9 562.8 564.9 567 565.7 564.2 563.3 562.2 561.4 560.7 559.4 558.2 560.1 566.3 572.8 576.1 576.4 573.3 567.1 560.6 552.9 546.8 540.2 534.6 529.3 524.1 518 511.6 503.9 496 496.5 496.8 496.3 499.3 507.2 513.1 524 533.5 541.7 552.3 561.5 571.7 581.8 579.3 579.9 580.9 573.8 566.6 560.3 553.8 543.9 535.9 529.2 520.8 514.1 506.9 499.4 491.6 479.1 465.9 451.7 435.6 418.8 401.9 382.3 360.4 339.9 354.5 326.5 345.4 354.4 360.7 372.1 395 420.5 440.1 458.9 470.5 480.2 483.5 484.1 483.1 480.9 477.3 472.6 470 467 463.1 457.2 448.6 452.4 460.5 460.6 460.9 462.9 470.5 464.2 457.4 455.7 448.1 444.3 443.8
464 469.1 474.6 479.2 482 484.7 487.3 490.8 491.6 491.3 490.5 490.1 488 485.4 483.3 481.6 480.6 477.6 475.7 477.6 478.7 479.4 479.9 480.3 480 479 476.5 473.9 468.9 463 455.9 449.3 442.2 434.7 427.5 421.2 413.3 408.3 405 401.7 397.8 376 373.9 372.7 374.7 375.1 380.7 392 402.3 411.5 422.5 434.2 442.3 452.1 463.5 475.1 486.8 496.8 504.9 513.9 521.2 527.7 534.3 540.7 547.1 552.6 559 562.4 565.4 566.7 565.1 561.5 556.6 548.7 538.9 530.3 523.1 514.8 507.6 503.3 499 492.8 486.4 487.4 489.5 491.8 492.8 492.4 490.2 492.2 497 503.2 511.1 520.9 531.1 539.5 545.6 550.2 555.7 558.9 560.3 559.4 559.1 558.9 559.2 558.2 557.3 557.3 556.8 558 562.3 569.5 576.8 582 583.2 581.7 576.2 566.7 557 550 543.6 537.8 531.5 526.6 520.5 513.4 506.3 497.7 493.3 494.9 493.4 495.8 501.8 508.9 517.7 526.7 534.5 543 551.4 563.9 567 569.8 571.2 569.8 566.2 562.5 556.2 549.5 541.8 534.7 528.4 522 515.1 508.1 500.2 492.7 482.1 470.4 456.8 443.3 426 411.2 389.9 370.4 349.2 342.8 336 311.1 332.8 358.7 371.5 393.1 416.7 433.8 452.5 463.6 474.7 478.5 477.4 477.8 475.3 471.8 467.9 464 461.2 456.8 450.5 444.1 443.2 449.9 456.7 454 452.9 452.7 449.7 444.2 437.7 432.9 429.5 430.6
462.8 467.4 473.4 477.6 480.8 483.1 485.7 487.6 488.2 488.4 488.6 489.3 487.2 483.7 480.5 478.2 476.8 475.4 472.7 473.9 475.6 476.3 476.6 477.5 476.8 474.4 471.7 469.7 466.1 460.6 454.1 445.7 438.2 430.7 423.6 416.5 409 404.1 401.2 398.1 393.6 375.9 373 371 373.4 374.6 386.6 399.1 407.5 420.9 435.8 445.5 453.5 463.3 474.1 485.6 496.7 505.2 513.1 522.5 528.3 533.6 539 543.4 549.4 555.1 561.6 563 564.1 564.9 564.5 560.5 555.5 549.1 541.2 534 524.1 515.5 508.3 503.3 500.5 495.2 488.5 483.2 485.7 488 489 488.6 486.6 491.8 496.2 503.9 512.5 521.9 531.9 539.4 544.5 549.7 551.9 553.1 554.4 553.9 553.8 553.8 553.9 553.8 554.7 555.3 554.1 558.1 564.1 571.6 578.5 584.1 587.6 587.2 580.4 571.2 561.4 552.5 545.7 540.7 533.2 527.3 520.4 514.2 508.8 500.9 492.9 491.5 492.1 492.6 496 503.5 510.1 519.3 526.6 535.2 542.6 552.2 556.5 558.8 561.2 561.4 560.8 557.5 551.9 546 540.5 533.2 526.8 521.7 514 508.3 501.2 494.4 485.5 473.5 459.7 448.7 433.5 417.5 396.4 374.5 352.1 319.6 338.5 311.7 327.1 351.6 367.6 388.2 411.9 427.4 446.3 456.7 463.8 469.6 471.5 472.3 469.4 466.6 462.2 457.7 453.3 448.9 442.6 437.8 432.5 441.3 445.3 445 441 440 436.5 430.7 426.1 420.8 414.7 416.6
462.1 466.9 471.6 476.1 480.5 482 484.1 485.5 486.2 485.8 485.8 486.1 485.3 481.6 477.4 475.3 473.5 471.4 469.9 470.3 472.2 472.5 472.6 473 474.5 470.5 467.2 465.3 460.5 457.1 451.8 443.1 435 427.1 419.2 411.6 404.3 399.6 397.2 394.2 392.6 372.2 372.4 370 369.8 379.1 393.3 405.6 417.1 433.9 446.6 456.4 465.1 474.9 484.8 494.9 504.4 512.3 519.7 529.1 533.7 536.6 540.7 544.3 550.6 556.1 560.5 561.1 562.4 562.4 561.4 558.8 554.1 548.1 541.9 535.3 525.5 515.5 508.8 503.8 501 497.7 490.8 484.3 483.4 485.3 485.7 485.6 487.1 491 495.5 505.3 513.1 523.8 532.5 539.5 543.9 546.7 547.9 548.3 548.7 549.2 549.2 549 549 550 551.2 552.1 554.1 557.4 563.8 572 578.4 585.1 589.1 588.2 582.3 576.1 565.9 555.1 547.3 540.5 533.6 528.6 522.7 516.3 511.3 504.4 495.7 487.6 489.5 489.2 491.5 497.5 503.9 511.8 519.5 528.8 535.5 540.3 546.6 551.2 552.5 554.7 555.3 551.7 546.9 542.9 538.5 531.2 523.5 518.6 512.8 508 501.9 493.9 487.6 476.4 463.1 451.2 438.2 423.8 403.6 379.6 359 325 317.6 306.5 336.2 344.2 362.7 382.3 404 419.9 439 450.9 458.4 463.6 465.3 465.6 464.1 460.2 454.9 450.3 445.7 440.8 436.1 430.4 426 432.9 436 434.3 429.5 427.2 423 419.5 415.4 409.2 400.3 396
461.7 466.5 470.7 474.9 479 480.7 482.6 483.8 485.1 484.8 483.8 483.3 481.6 479.6 475.6 472.5 471.3 468.9 466.6 466.1 466.6 468 468.1 468.6 470.5 467.3 463.9 460.6 455.7 451.2 446 439.6 431.3 423.7 414.4 405 398.4 395.1 392.3 390.9 386.6 376 372.6 369.3 376.6 391.3 404 417.8 430.8 444.4 457.7 467.9 477.3 486.8 495.2 503.5 510.8 518.1 525.4 533.4 536.4 539.5 541.3 545.2 549.9 553.9 557.7 558.3 559.4 559.5 558.5 555.9 552 546.7 540.7 534.1 525.9 517.5 509.4 504.4 501.1 497.8 493.3 486.2 480 482.8 481.8 483.7 486.4 489.8 494.8 506.3 514.7 525.8 533.8 540 544.2 547.1 545.6 544.8 544.5 545.4 545.8 545.7 545.9 546.4 547.1 548.6 552.3 556.1 562.2 571.3 578.4 584.8 586.5 585.1 581.4 574.5 565.9 556.4 547.8 540.8 535.4 530.4 525.8 520.4 512.8 507.5 500.1 491.6 484 486 487.9 492 498.4 505 512.6 521.2 530 533.2 539.1 543.7 546.6 549.2 550.4 546.9 542.7 539.7 534.5 528.9 522.1 516.6 512 507.2 501.1 494.3 487.2 479.5 468.1 455.2 443.2 429.9 413 388.3 367 345.7 315.7 303.5 328.2 338.8 357.3 377 394.2 413.4 430.4 443.3 450.4 455.9 459.9 460.6 458.2 453.9 447.8 442.4 438.1 434.4 427.7 421.9 417.6 424.7 423.9 423.8 419.7 415.2 412.4 408.6 402.8 393.5 384.6 376.2
461.3 465.5 469.8 473.5 477.5 480.5 482.4 482.9 483.2 482.4 481.8 482.5 478.2 476 473 469.5 468.3 465.2 463.6 462.7 462.4 463 463 463.4 463.1 461.7 458.9 454.6 450.5 446.4 440.3 435.5 427.6 419.9 409.4 399.4 395 391.6 388.1 385.2 375.7 370.5 367.9 374 390.2 403.9 418.3 429.3 441.9 455.3 468.4 479.4 489.8 498.4 505.9 513.1 518.4 523.5 531.2 536 539.2 540.3 541.8 546.6 548.3 551.3 553.4 554.5 555.1 555.6 555.8 553.1 549.3 544.7 538.8 532.7 525.9 519.3 511.3 505.1 501.3 498.1 494 488.7 481.2 480.6 482.7 484 485.9 488.1 494.7 505.5 517.1 527.4 534.8 539.6 544.6 547.2 544.2 542.6 541.8 541.4 541.8 541.5 542 542.7 544.4 546.3 550.4 554.6 560.8 569.2 577.7 582.5 582.4 581.3 577.9 572.1 564.8 555.2 546.3 539.8 536 531.6 527.2 521.4 514.9 508.9 503.3 495.4 488.3 482.3 483.5 487 492.3 499.1 505.8 513.8 521.7 527.2 531.6 536.6 539.8 543.1 543.8 542.5 538.6 534.6 530.8 526.7 521.8 515.9 509.4 504.6 498.9 495.4 489 481 472 460.9 448.1 436.5 421.5 398.3 374.6 355.7 327 301.6 322.7 334.1 350 369.3 387.8 407.6 423.1 435.4 441.8 447.9 452.2 455.1 451.8 445.8 439.6 433.5 429.7 425.5 420.4 414.8 410.1 414.9 414.1 413.4 408.6 399.7 398.8 391.6 382.3 371.7 358.9 352.1
461.2 464.6 469.8 473.5 477.3 480.5 482 482.2 481.9 479.8 478.7 479.7 478.1 473.2 469.6 467.5 463.5 462.2 460.2 459 458.6 458.2 457.9 458.2 457.7 455 453.4 449.7 445.7 441.4 434.8 429.6 422.3 414.1 403.8 396.5 392.3 388.8 379.2 370.3 368.5 365.3 368.8 385.6 402.6 417.6 430.4 441.9 452 467.2 480.2 491.1 502.3 511.2 517.4 521.9 525.7 530 534.2 537.3 540.8 540.7 542.3 547.1 546.2 547 548.9 548.9 550.4 551.2 552 550.5 546.4 541.8 536.1 531.9 526.8 519.8 511.9 506.3 502.9 499.5 495 489.9 484.5 479.7 481.8 483 484.3 486.7 494.5 506.2 517.8 527.1 534.6 539.7 541.2 543 542.8 539.9 537.8 538.7 538.4 538.1 538.5 539.8 541.3 544.3 548.3 553.2 559.4 566.8 575.3 578.6 578.7 577.7 574.4 569.1 561.6 552.4 544.6 538.8 534.8 531.8 527.6 521.3 515.9 511.5 505 498 490.2 485.4 479.3 480.8 486.5 493.8 500.2 508 516.7 520.4 525.4 529.8 533.6 537 536.5 536 533 530.9 528.7 525.9 521.5 515.3 508.5 503.2 498.4 495.4 490.3 482.8 474.6 466.4 453.6 441.8 427 407.5 382.5 363.5 334.5 297.4 316.8 327.4 342.9 362.8 380.7 399.2 414.7 425.7 431.5 437.9 444.9 447.5 443.4 435.2 429.1 423.9 419.9 416.3 410.8 406 399.8 404.2 400.7 401.7 393.5 381.5 383.1 373.6 358.2 348.5 338 326.2
460.5 464.5 469.3 473.1 476.7 479.9 482 482.2 481.6 480 476.2 474.9 474.4 471.6 467.7 463.9 460.8 458.9 457.7 455.9 454.1 453.9 452.9 451.9 450.4 449.5 447.5 444.2 440.4 436.2 429.7 421.6 415.4 405.7 397.9 393.3 389.7 386.2 371.4 366.2 363.7 368.4 379 399.2 414.8 429.8 441.9 453.4 463 478.6 490.9 503.5 514.9 525.4 528.6 530.4 531.7 534.1 536.6 538.9 539.5 540.3 543.7 544.2 543.2 543.5 543.7 544.3 545.6 547.7 548.3 546.9 543.1 539.2 534.9 530.6 526.2 519.8 512.4 507.1 504.1 501.1 496.1 491.5 486.1 482 477.8 481.4 482.2 485.1 493.9 506.3 517 525.9 533 535.7 538.5 540.1 540.2 537.9 535 535.5 535.5 534.9 536.4 537.3 538.2 541.9 545.8 552.4 558.9 565.5 572.4 575.5 576.2 574.3 571.5 565.8 558.9 550.8 543.9 537.9 533.1 529.9 527 521.2 517 512.6 507.5 500.1 492.8 487.1 481.7 476.2 481.5 486.8 495.2 502.8 510.8 516.7 521 524.1 528 530.1 529.9 529.3 529.8 528.7 527.9 525.7 521.1 515.7 509.9 502.8 498.1 495.8 491.4 484 476.8 468.9 458.1 446.5 432.7 415.8 391.3 369.4 349.6 321.1 293.2 320.6 334.2 353.4 371.2 387.3 404.1 417.2 421.9 428 435.1 432.9 429.6 423.6 418.4 413.4 409 404.1 398.6 390.2 383 384.7 389.1 384.6 376 366.7 363.7 352.1 338.7 327 315.8 304.2
459.8 463.9 468.3 472.5 476.1 479.1 481.6 482.3 481.9 480.9 475.9 472.3 470.8 468.8 465.5 461.7 458.3 455.6 454 452.9 450.6 450.3 449.4 447.7 445.8 444.5 442.4 439.4 435.4 430.9 424 415.2 407.4 398.6 393.6 389.6 386.3 370.3 365.3 364.9 366.7 376.7 392 409.6 425.8 441.7 453.9 464.3 474.3 489.2 502.3 515.5 527 534 537.5 536.4 536.8 537.5 537.6 538.4 539 540.5 543.4 541.7 540.1 540 540.3 541.2 542.7 545.1 546.9 543.9 540.9 537.5 533.5 529.2 525.1 519.8 513.3 508.3 504.6 501.9 497.8 492.8 488 484.1 481.7 477.1 482 484.3 493.5 505.8 516.4 524.5 529.7 533 536 538.3 535.9 533.2 531.4 531.7 532.1 532.5 534.1 535.3 535.9 539.3 545.1 552 558.2 564.4 569.9 573.9 574.1 571.7 568.1 563.3 557 549.3 542.4 535.9 530.2 526.4 523.8 520.5 516.7 513.3 508.4 501.6 495.8 491 484.6 477.3 475.6 481.2 488.3 496.3 505.2 511.2 517.3 520.5 523.1 525.2 525.4 525.8 524.9 526.4 526.3 525.1 521.5 516.6 510.4 503.6 498.3 496 491.2 485.4 479.3 470.8 462 451.6 438.5 422.8 402.3 376.9 359 338.8 316.8 294.5 322.5 342.9 361.4 375 389.2 401.8 410 417.6 419.7 416.1 412.3 407.2 401 396.2 392.7 386.2 378.5 372.9 361.6 361.2 369.4 363.2 356.4 345.7 340.8 330.6 318 301.9 294 285.7
458.9 463.5 467.9 471.9 475.4 478.4 481 482.3 481.8 480 476.6 472.9 468.9 464 461.1 459.4 455.9 452.6 450.2 449.3 447 446.9 445.7 444.2 442.8 440.3 436.9 434.7 430.7 425.9 419.7 412 400.6 393.4 389.2 385.6 374.9 363.8 363.4 364.3 369.9 386.4 403.8 421.5 437.6 451.8 462.9 474 485.7 499.4 513.8 524 533.3 540.9 544.2 542.6 542.2 539 537.8 538.2 538.9 541.3 540.8 538.5 537 536.4 537.9 539 540.6 542.2 543.3 541.2 538.8 536.2 532.2 528.5 524.5 519.7 514.5 509.3 504.5 501.1 498.4 493.4 488.4 485.6 482.9 479 480.4 484 491.6 505.5 515.2 522 527.7 530.8 533 533.8 531.4 529.3 528.4 527.8 528.7 529.4 530.4 532.5 534.9 539.5 544.8 551.4 557.6 563.5 568.2 571.6 571.7 568.8 564.3 560.4 554.8 547.4 539.8 533.8 527.6 523.9 520.8 517.9 515.6 513.3 508.7 502 497.4 492.6 485.7 477.8 468.2 475.1 481.9 491.5 499.6 506.1 512.2 517 520.4 521.1 522 521.8 521.2 522.6 524.2 522.9 520.6 517.1 511.3 504.6 499.5 495.3 493.4 489.7 482.5 474.6 466 455.5 443 427.8 412.4 388.5 367.2 348.9 329.8 301.7 310.3 331.7 350 363.6 377.6 386.4 399 401.7 403 397.7 394.1 389 383.5 376.7 369.6 364 357.8 348.1 338.6 335.1 344.3 344.1 333 327.4 312 308.5 295.8 283.5 274.5 270.6
458 463 467.6 471.4 474.7 478 480.4 482.1 482.1 480.1 476.3 472.6 469 464.9 459.5 455 452.6 449.9 448 444.1 443.4 442.7 441.6 439.7 437.8 436 433.3 429.3 425.7 420.9 414.5 409.3 396.9 389.4 385.3 381.5 365.3 362.2 362.2 364.6 379.7 393.8 414.5 432.1 447.7 460.1 473.2 486.7 499.8 507.9 521.2 529.7 538.7 546.8 549.5 547.6 544.4 539.2 538.1 537.4 538.5 540.8 538.4 534.9 534 533.6 535.1 536.3 537.9 539.6 539.7 538.9 537.7 535.2 531.9 528.1 523.7 518.6 514.4 509 504.6 500.5 497.3 493.3 488.5 485.2 482.8 479.9 479.1 483.7 493.1 504.9 513.8 520.2 524.9 528.2 529.3 528.4 527 525.2 525.3 524.3 525.3 526.6 527 530.5 534.2 538.6 544.5 549.9 557.5 563.6 568.5 568.9 568.6 565.2 560.8 556.9 551.7 544.9 537.2 531.2 525.3 520.9 517.3 514.3 512.5 511.8 508.6 502.1 496.5 492.4 485.6 477.2 470.9 466.2 474.3 484.6 494.3 500.7 507.4 513.1 516 517.6 517.3 518.1 518.2 517.8 520.9 520.6 518.6 516.7 511.5 506.4 500.7 496.1 495.8 492 484.1 477.3 468.4 457.7 445.3 431.3 416.7 398.5 375.8 356.4 338.9 312.2 302.3 324.7 338.1 350.2 368.8 377.4 383.6 387.2 385.8 382.8 376.3 369.1 360.4 354.1 346.3 337.7 332.9 324.4 314.9 308.1 315.2 320.3 309.7 305.8 288.7 281.5 272.3 264.8 258.6 255.6
456.9 461.9 467.2 470.5 473.6 476.7 479.4 481.7 482.5 479.5 475.9 472.3 469.3 465.7 460.5 456 450.4 447.6 444.9 442.2 438.8 437.7 436.8 435.5 431.7 430 428.8 424.8 420.5 415.7 410.7 404.1 394.3 386.9 382.7 370.4 361.6 361.9 362.1 368.5 387 403.4 422.4 441.9 456.5 468.5 482.5 496 508.6 518.1 530.8 534.5 540 548.5 552 550.2 543.9 539.1 537.2 536.1 538.1 538.7 534.3 532 531.3 530.9 532.3 533.4 534.5 536.2 537.7 536.4 535.5 533.5 530.4 527.1 522.3 517.3 512.7 508 503.7 500 496.1 492.3 488.1 484.6 482.1 478.5 478.4 483.5 493.8 504.7 512 518.2 522.5 526 527.6 524.9 523.5 522.1 521.5 522.1 522.8 523.1 526.5 529.4 532.9 537.7 543.8 549.5 557.4 563.5 568.2 567.7 565.8 562.8 557.9 552.5 547 541 534.4 528.8 522.9 519 514 510.4 508.8 508.3 505.8 500.1 495.4 491.1 485.1 477.3 471.7 463.4 468.5 477.1 488.7 495.3 502.8 509 512.2 513.3 513.6 514.4 515.3 515.4 516.5 518.1 516.5 514.5 509.7 505.6 500.5 494.2 494.9 491.1 484.7 477.2 468.7 458.9 447.4 435.4 421.8 404.8 382.4 361.8 344.2 316.4 293.1 317.6 327.6 342.3 357 367.1 374.7 376.7 372.3 365 354.1 347.7 337.1 327.6 319 309.2 304.3 299.4 291.4 282.6 286.6 292.6 288.4 286.6 272.4 259.2 250.4 245.6 247.3 250.8
456.8 461 465.7 469.2 472.5 475.4 478.7 480.8 481.6 478.3 475.9 472.1 468.2 464.4 459.3 454.4 450 444.9 441.7 439 436.2 433.7 431.1 430.7 426.6 424.4 423.3 420.2 414.5 411.3 407.3 400.2 389.8 384.7 379.2 367.4 360.8 360.3 362.2 379 392.1 411.2 430.4 450.4 466 477.9 490.7 502.9 514.9 524.9 537.2 537.9 539.7 548.1 552.1 549 541.5 537.4 536.4 534.3 535 533.9 530.4 529.6 528.4 528.7 529.2 529.9 530.8 532.6 536 534.3 532.9 531.1 528.3 525 520.8 515.5 510.9 506.5 502.5 498.8 495 491.2 486.3 483.1 480.6 477.1 478.4 482.9 494.8 505 511 515.6 519.9 523.6 523.8 521.7 520 518.9 519.2 519.5 519.4 521.3 524.1 527.3 531.8 536.4 541.9 548.6 556.8 562.9 567 567.1 562.7 559.2 554.1 547.7 542 536.5 530.2 524.1 517.9 514.2 509.2 507.9 504.4 502.7 501.7 498.4 494.2 489.6 484 476.9 472.1 465.9 460.3 468.8 481.3 490.3 497.4 504.8 508.5 509.3 510 511.3 512.4 513.1 512.8 511.8 512.3 509.2 505.4 502.1 497.7 492.6 491.3 487.1 480.3 474.5 468.1 458.1 448.3 436.7 424.6 410 389 366.5 348.3 324.8 288.5 311.5 319.7 332.2 345.1 352.1 360.1 358.4 354.5 345.6 333 322.8 311.1 300.8 290 284 279.9 276.8 273.5 261.1 265.8 272.9 271.2 265.7 252.8 244.3 251.6 251.8 256.2 261.7
454.9 459.9 464.2 467.8 471.1 475 477.5 479.4 480.6 477.4 474.6 470.6 467 462.4 458 453.2 448.4 444.4 440.6 437.3 431.7 428.7 426.4 424.7 422.2 419.5 418.3 415 409.5 406.9 403.7 395.5 385.4 380.6 370.7 366 361.1 359.2 365.6 383.1 400.5 418.9 440.5 456.5 471.4 483.5 495.7 507.6 518.4 527.7 536.6 539.4 538.9 542.5 547.3 544.4 539.9 535.7 535.6 533 529.2 527.9 526.9 526.3 526.4 526.5 527 527.1 527.3 528.7 531.3 531 530 528.5 525.7 522.5 518.5 513.7 508.9 504.8 501.1 497.1 493.7 490.1 484.7 481.6 478.8 474.2 478.3 483.9 496.2 505.9 511.5 516.2 517.9 520.1 520.4 518.8 517.1 516.1 516.3 515.6 515.1 519.2 522 525.7 530.1 534.9 540.9 547.5 555.8 560.9 564.4 563.1 560.3 555.6 549.6 543.7 536 530.8 525.1 518.3 513.3 509.1 504.8 503.5 500.9 498.3 497.1 494.5 490.6 486.6 481 476.8 472.1 467.7 458.3 463.9 473.8 485.4 491.7 498.7 504 506.3 507.8 509.2 511.1 511.9 512.5 512.5 507 504.1 498.6 496.8 488.1 488.2 484.6 481.8 477 472.7 466.1 456.4 448.3 437.2 425.9 412.6 395.6 372.5 354.6 331.4 301.2 296.9 313.3 325.8 335.4 337.1 341.6 337.4 334.6 326.3 309.4 298.3 286.9 274.8 266.2 263.4 262.2 258.8 249 245.3 257.4 255.8 254.5 248 244.5 251.5 255.4 262.1 269.8 279.4
453.2 458.4 462.8 466.3 469.6 472.9 475.4 477.6 478.7 476.3 473.5 469.2 464.9 460.9 457.3 452 446 441.3 438.2 435 432.1 425.8 422.6 420.4 417.4 413.7 412.7 408.6 403.6 401.6 396.9 387.6 381.3 379.4 366.2 364.4 360.4 360 372.3 388.7 405.1 424.6 444.6 460.6 476.3 488.9 500 510.2 518.8 528 532.3 536.8 538 534.9 539.2 540.8 536.1 533 530.4 527.4 524.6 521.9 522.5 525.3 525.1 524.3 524.6 524.7 525.3 526.1 528.4 528.4 527.3 525.8 522.9 519.8 516.2 512 507.7 502.7 499 495.5 491.8 487.3 482.6 479.8 477 470.8 478.4 484.7 497.4 506.7 511.7 515.1 515.9 517 517.3 516.1 514.5 513.4 512.9 512.6 514.1 517.1 520 523.2 528.7 533.4 539.2 546.3 555 558.8 561 560.1 557.6 552.6 545.1 538.3 530.6 524.3 519.2 514.4 508.7 504.9 501.4 499.2 496.5 494.1 492.9 490.7 488.6 485.5 481.6 476.7 471.7 467.5 459.3 458.9 467.1 478 486.7 492.5 499.2 503.7 506.2 508.3 509.7 510.7 509.8 508.4 503.3 500.4 495.3 490.7 486.8 481.5 478.6 478.1 473.1 470.9 468.9 457.5 447.5 436.9 426.8 414.4 399.4 378.2 359.2 338.5 309.2 285 307.4 317.7 326.9 328.4 325.3 319.4 320.2 308.2 288.9 272.8 263 254.7 249.8 247.9 246.5 239.2 241.1 244.8 242.1 242.5 243.9 244 255.9 261.4 268.2 276.7 288.5 300.9
451.5 457 461.3 464.8 468.2 472.1 474.7 476.2 476.5 475.8 471.8 466.8 463 459.2 455.5 448.7 444.4 439.7 435.1 432.1 428.8 425.3 421.4 415.1 414.2 408.6 404.3 400.2 396.4 393.4 388.3 382.5 379.1 376.4 363.6 363.3 359.7 357.4 377.4 396.3 411.6 427.7 447.4 463.9 476.5 488.3 499.7 508.4 516.8 522.7 531.1 531.6 534.9 531.3 532.2 531.7 530.2 528 525.1 522.7 518 517.4 519.8 522.6 522.6 522 522.2 522.7 523.4 524.2 526 525.8 524.6 523.2 520.5 517.1 512.7 508.7 504.8 500 496.6 493.2 489.7 485.3 480.7 478.1 475.4 472.4 478.8 486 499 506.4 512.1 512.9 513.9 514.6 514.3 513 511.5 510.5 509.9 509 512.5 514.8 518.4 521.8 526.1 530.9 537.5 546.5 554.7 559.4 561.5 560.3 557 550.7 544.6 536.6 530.1 522.3 516 510.3 505.4 500.8 497.4 494.5 492.2 490.4 488.6 487.1 485.9 483.4 479.9 475.6 470.6 466.5 463.6 453 461.1 471.1 480.5 486.9 493.8 499.4 504.7 506.8 508.4 509.2 508 505.7 502.9 499.5 492.3 485 482.9 478.2 476.5 474.1 470.3 467.3 463.6 461.6 446 438.3 428.5 417.2 402.1 383 361.4 344.7 318 278.7 295.4 310.3 315.1 319.3 315.3 306.5 301.9 284.3 267.5 254.6 246.2 240.8 237.6 237.1 239.4 247.3 248.6 252.7 256.6 260.4 263.9 266.5 272.9 280 288.9 298.7 312.5 325.7
449.3 454.8 459.6 463.3 467 470.7 472.7 475 475.6 474.1 471.1 465.1 460.6 456.5 451.9 446.1 441.9 437.7 433.2 429.7 427.4 423.1 419 414.1 408.2 403.8 398.4 395.1 390.4 386.1 381.9 378.3 377 374 362.5 358.1 358.6 366.3 383.8 399.8 414.7 431.3 449.9 464.5 473.3 483.6 495.5 503.3 509.9 518 523.6 527.3 528.8 526 524.1 523.6 522.9 523.1 519.6 516.1 515.1 515 516 519.3 519.3 519.6 519.7 520.7 522 523.4 524.5 523.4 522 520.5 518.2 514.4 510.4 505.9 501.7 497 494.1 491 487.8 483.7 479.2 476.6 473.2 472.5 479.1 489.4 500.9 506.7 511 512.9 512.9 512.1 511.5 509.9 508.4 507.1 506.7 506.9 510 512.7 516.6 520.5 524.3 528.9 535.6 545.1 554.5 560 563.2 563 558.6 551.8 545 537.4 530.8 525.6 516.3 508.7 503.4 497.5 494 490.9 488.9 487.3 485.5 483.9 483 480.9 477.7 474.2 469.5 465.1 461.2 456.3 451.5 464.2 474 482.3 487.7 494.1 500.3 504.2 507.5 509.3 509.4 505.8 501.3 496.8 491.2 484.4 479 475 473.6 471.2 466 461.3 458.6 456.8 445.5 437.6 429.7 417.8 403.7 385.2 365.2 349.9 327.3 301.3 275.6 301.6 304.1 307.7 303.9 292.3 281.9 264.6 247.3 236.7 236.2 241.2 247.7 258.2 266.2 267.6 270.8 276.1 283.1 286.9 288.7 290.7 295.1 307.1 316.4 328 339.7 350.7
448.7 453 457.4 461.5 464.8 467.5 470.6 473.1 477.3 471.5 467.5 462.9 458.7 454.1 449.5 443.4 439 434.9 430.5 427.4 424.1 418.5 415.7 410.5 406.9 401 390.4 389.2 386.4 381 378.3 376.4 375.8 371.4 361.7 357.8 355.6 372 387.9 402 416.6 430.6 451.8 465.3 470.8 480.1 490.2 496.8 504.9 511.4 516 519.1 520.9 519.8 518.5 518.9 519.8 518.3 514.7 513.5 512.4 511.9 512.4 515.1 515.4 516.6 517.4 518.7 520.6 522.2 522.8 521.7 519.6 518.3 515.3 511.2 506.9 503 498.8 494.4 491.7 488.6 485.5 481.4 477.5 474.9 469.3 471.5 479.1 492.4 501.6 507.2 511 513.8 512.8 511.7 509.7 507.6 505 504.3 503.4 504.5 507 510 514.1 517.7 521.3 525.9 532.9 542.7 553.5 559.6 563.9 563.6 561.5 557.8 553.2 545 534.4 525.3 517 508.3 501.8 496.8 492.3 489.4 486.6 484.8 482.9 481.1 479.8 478 474.8 471.4 467.2 463.2 459.5 452.3 452.2 458.9 467.6 475.8 482.3 487.5 494.8 499.5 504.9 508.6 508.7 506.5 502 498.1 493.1 489.5 483.4 475.2 469.2 466.2 461 457.1 453.3 449.1 442.9 436.6 432.5 417.1 402.6 385 365.4 352 333.1 309.5 278.3 287.9 296 299.7 291.5 277.8 258.6 240.1 232.8 240.1 243.8 252.9 267.3 284.6 290.2 293.4 296.8 304.5 311.2 313.6 314.8 316.8 322.2 331.9 342.2 353.6 367.3 383.2
448.6 451.9 455 458.9 461.6 464.2 468.4 467.7 476 470.8 464.8 460.1 455.4 450.9 444.7 439.8 435.4 431.1 426.5 426 422.4 415.1 410.6 406.8 402.6 397.2 392.3 385 378.3 377 374.4 373.8 373.8 361.7 360.1 356.6 356.5 373.7 389.6 403.2 416 431.8 451.6 464.1 471.1 477.3 482.1 489.2 498.4 502.9 509.2 510.9 513.4 513.5 515.6 518.2 518.7 516.7 514.4 513.1 511.5 510.3 510.3 511.2 512.2 513.5 515 516.2 517.2 520.2 521.8 520.6 518 514.9 512 508.6 504.3 500.4 496.1 492.1 488.7 485.6 482.6 479.2 475.5 471.9 465 471.6 478.7 494.2 502.2 508.3 511.8 513.7 514.2 511.8 507.8 504.9 503 501.8 500.5 502.4 504.4 507.2 511 514.7 517.7 522.8 530.2 540.1 551.5 558.2 562.3 564.6 569.7 566.8 554.9 545.2 535.6 525.4 516.1 507.8 501 495.7 492 488.7 485.5 483.3 481 478.9 477.6 474.1 470.9 467.7 463.6 460.9 458.2 454.2 440.6 454.3 461.9 469.4 476 482.6 487.1 495.2 502.2 506.5 508.3 508.5 507.1 503.8 496.9 492 484.9 475.9 467.9 461.2 457.2 454 448.7 444.5 440.9 435.4 432.1 417.6 399.6 381.6 363.3 351.9 337.4 316.8 289.9 275.7 286.8 287.9 280.6 268.6 244.6 234.4 241.5 248.5 256.7 271.5 291.7 305 311.2 314.6 321.4 327.8 334.1 337.9 342 345.9 351.8 360.3 369.5 386 395.9 409.6
447.7 451.2 453.8 455.9 458.9 461.4 463.1 463.1 470.1 469.6 464.3 457.7 451.4 446.3 440.9 435.6 431.1 428.2 424.3 422.3 418.9 411.6 407.7 400.4 398.3 394.8 389.1 385.2 381.4 376.2 371 371.2 371.8 359.7 359.3 355.3 358.2 376.1 391.2 404.3 418.2 433.1 451.1 461 469.9 472.6 477 482.7 489.8 494.9 499 503.2 507.2 510.2 513.8 517.6 519.8 519 516.6 513.2 510.7 508.5 508.5 509.6 510.1 511.6 512.8 514 515.7 518.4 520.8 519.9 516.4 513.3 509.6 505.9 502 498.1 493.5 489.6 485.9 481.9 478.9 475.8 472 468.4 463.2 471 481.3 495.1 503.1 509.4 512.8 514.1 512.9 510.8 507.4 502.8 501.3 499.3 498.3 500.3 502.3 504.6 508 511.6 514.7 520.6 527.5 537.3 548.1 555 560.8 563.5 566.4 562.2 554.6 545.8 535.7 525.1 515 506.7 500.5 495.4 491.9 488.5 485.2 482.5 479 476.7 474.3 471.2 468 464.7 461.6 458.8 456.1 453.1 441.2 448.3 454.9 462.5 468.6 476.5 481.6 488.4 499 504.5 509.9 512.7 511 505.8 498.6 491.2 485.2 476.9 467.5 458.3 451.9 447.7 445.1 443.4 439.5 438.1 428.7 414.8 397.2 377.7 360.2 349.7 337.5 322.5 301.2 280.5 261.7 277.6 270.9 266.3 242.4 231 244.8 253.5 269 284.9 301.8 314.1 321.1 330.9 340.7 350.1 357.1 365.2 372.5 377.9 385.8 393.8 401.4 413.1 422.4 422.8
447.2 450.6 453.1 455.5 456.2 459.4 460.9 460.5 465.9 467.7 462.9 454.3 447.9 442.7 437.9 432.4 427.2 423.3 422.4 416.7 411.6 405.2 402.7 398.8 395.1 391.5 388.9 384.5 382.3 376.5 369.6 364.4 364.5 358.2 354.3 353.2 362.8 379.1 393.1 404.9 419.7 435 448.2 459.5 468.1 468.6 472.4 476.6 481 487.3 492.5 498.6 504.9 510.2 514.1 518.5 521.6 521.7 518.8 514 510.5 508.6 506.6 507.2 508.5 509.7 510.5 511.7 513.9 516.8 519.6 519.1 514.7 510.7 507.5 503.8 499.9 495.7 490.9 486.7 483.1 479.2 474.9 472 468.7 465.7 465.3 472.2 483.5 495.9 504.2 510.3 513.1 513.8 512.1 509.9 507.4 502.6 499.6 497.1 496 498.5 500.2 502.5 504.8 508.4 512.2 517 524.4 533.3 543.9 551.2 557.6 560.3 560.6 558.9 553.7 544.7 535.2 524.6 515.3 506.1 500.1 495.5 492.1 488.9 485.8 483 479.5 475.8 471.3 469 466 463.1 459.7 456.9 454.2 451.6 447 439.9 447.3 454.9 462.1 469.2 476.1 483.6 494.5 502.5 510.2 515.1 511.6 506.7 498.9 490.8 484.5 475.7 464.2 459.3 449.4 446.2 444.2 441.2 437.9 434 428.1 412.9 394 374.1 354.5 343.4 333.8 321 303.8 286.3 271.4 267.3 264.6 260.7 246 229.4 242.6 258.2 274.7 289.3 305 317.3 333.4 350.7 363.9 374.6 385.8 397.5 403.9 409.1 411.9 416 426.2 429.7 434.6 438.1
446.8 449.7 452.9 455.1 455.8 457.6 459.3 458.2 458.6 461.4 459.3 453.9 446.5 441.7 435 430.4 424.2 421.2 414.9 410.2 406.6 399.7 400.3 395.8 389.9 390.4 386.2 384.3 379.9 375.4 367.5 362.9 360.4 354.1 352.9 352.9 369.6 380 393.8 406 417.5 430.3 445.3 454.9 462.9 465 466.9 469.6 475.1 482.7 489 496.9 502.7 510.1 514.4 518.8 523 523.2 520 515 510.3 506.5 503.2 505.9 506.6 508 508.6 509.2 512.2 515.9 518.6 517.7 514.1 510.1 505.7 501.8 497.8 492.6 488.2 483.7 480.1 475.9 471.1 468.5 466.3 461.7 463.7 474.1 484.2 496.3 503.7 509.1 512.2 513.2 512.4 509.5 506.6 502.7 498.2 495.5 494.2 496 498 500 502.3 506.3 509.5 514.5 521.6 529.7 539.4 546.2 551.4 554.9 557.1 556.3 552 544.1 534.4 524.3 515.1 506.4 500.1 495.9 492.6 489.5 486.6 483.4 479.8 476 472.3 468.1 464.2 457.2 454.5 455.1 452.2 448.6 446.4 436.7 426.9 447.2 453.4 462.9 471.3 479.8 489.6 499.3 510.3 513 511.2 506.9 499.1 490.2 482.2 475.9 467.1 456.4 449.1 445.2 442.9 438.2 431.9 426.8 421.3 404.4 384.7 367.2 349 336 324.6 315.9 305.8 291.9 278.5 261.7 262.3 259.5 250 230 238.7 255.7 274.2 290.3 307.4 326.4 347.6 365.6 384.6 401.1 416.2 424.9 428.5 428.4 429.3 435 434.7 438.6 450.5 462.6
446.6 450 453.3 455.2 455.3 454.6 455.8 456 452.8 454.1 455.1 450.1 441.9 441.2 433.9 427 420.9 415.2 408.1 405.8 399.9 397.7 399.6 392 387.9 387.3 382.8 381.1 378.8 372.2 366.1 362 358 353 352.7 352.8 373.8 380.7 392.6 405.4 416.9 427.6 441.2 450.7 456.2 460.5 463.3 464.6 472.8 480.2 484 496.4 503.2 509.5 514.3 518.9 522.9 525.7 524 516.5 510.4 506.6 501.8 503.8 504.5 505.6 507 507.6 509.6 513.5 516.8 516 512.6 508.9 505.7 500.5 495.2 489.7 485.1 480.5 477.2 472.5 468.2 465.8 463.5 458.1 467.4 475.1 484.8 494.3 500.5 507.6 511.5 512.9 512.1 509.2 506 502.1 497.9 494.5 492.8 493.8 495.5 497.4 500.1 503.7 506.6 512.2 518.7 525 534.2 541.9 547.1 550.1 551.8 552.2 550 543.9 533.8 523.8 515.1 507.2 500.4 496.5 493.3 490.5 487.7 484.4 480.9 477.2 473.1 469.6 466.4 462.7 458.3 448.1 450.4 447.1 442.2 440.5 428 437.8 446.9 456.8 466.2 474.9 484.3 496.4 507.5 510.8 510.1 505.6 497.2 488.6 481.1 474.2 466.3 453.7 449.9 444.5 438.1 434 426 419.2 410.1 391.7 372 354.9 339.6 326.5 316 307.8 299.3 292.6 276.6 271.6 250.7 254 249 235.9 231.7 249.4 270.3 287.4 308.6 334 357.3 380.7 405 425.9 438.5 447.8 448.2 445.2 443.4 441.3 442.7 454.9 461.2 455
