ncols 200
nrows 82
xllcorner 210000
yllcorner 791150
cellsize 50
432.3 434.7 439.4 440.8 447.6 445.6 452.3 457.5 465.6 470.2 468.8 470.9 472.6 470 470.8 470.3 466.4 463.3 462.9 455.8 450.5 449.6 448.9 447.9 450.9 457.1 461.8 469 473.8 481.1 489.2 502.4 518.7 529.4 539.6 550.7 564.7 571.8 579.2 588.4 592.6 602.5 614.4 622 626.6 635.9 643.9 647.3 652.4 649 649 631.2 610.4 595.4 587 576.2 574 565.9 559.9 568.3 571.9 582.6 597.5 610.2 620.9 608 586.4 572.4 555.8 535.6 523.7 511.4 500.6 493.1 487 480.8 478.9 472.8 467.6 466 461.6 459.7 458.7 459.7 461.8 461.6 457.7 462.7 465.7 467.7 471.7 479.4 487.7 497.4 507.6 517.3 525.7 532.5 540 545.6 549.8 555.4 557.7 561.5 562.8 564.1 564.4 565.4 560 556 557.9 558.6 556.9 553.9 549.6 552 551.6 553.9 560.2 558.8 555.1 551.6 551.2 544.3 544 542.2 545.3 551.8 557 562.4 567.6 569.2 573.8 580.3 584.4 592.4 616.9 633.4 654.4 676.4 694.8 718.4 736.7 749.3 765.3 777.6 789.5 799.3 809.6 808.1 790.4 773.1 761.8 768.9 760.2 748.8 739.4 735.5 720.1 711.1 705.5 702.1 692.6 677.9 675.5 668.7 672 676.4 684.2 689 702.7 718.3 728.8 715.8 689.6 660 634.6 599 581.7 560.8 547.8 535.6 521.5 509.6 498.4 488.2 480 463.2 449.7 439.2 427.2 419.1 410 403.7 399.5 396 394.4 390.2 388.9 387.4
434.5 436 441.2 441.9 450.9 450.3 453 460.2 463.9 467.8 470.8 472.3 471.3 470.2 472.9 467.9 465.1 463 457.9 453.9 452.4 451.3 451.1 450.1 455.3 461.3 470.4 475.5 485 493.8 500.8 511.3 526.8 535.8 545.9 554.4 565.2 575.2 580.7 589.5 601.7 611.6 622.2 629.4 635.3 643.5 649.6 658.4 662.9 663.9 657.3 642.4 628 616.2 615.3 616 607.7 599.1 597 597.5 599.8 609.9 632.8 644.9 626.5 609.6 581.8 565.3 546.4 527.2 515.9 508.7 497.2 488.8 483.4 477.1 475.4 473.1 465.9 463.9 464.2 461.7 461.6 463.6 463 464.6 462.8 468.8 472.5 474.8 480.9 488.2 497.6 506.1 511.5 521.4 528.4 538.5 544.9 550.9 554.2 557.9 562.8 568.2 569 570.5 571 571.3 569.1 563.3 563.7 564.9 561.7 555.8 557.1 562.4 562.9 563.2 568.9 570.3 562.6 560.4 562.6 555.8 553.6 553.5 554.5 562.6 567.1 573.8 579.9 583.8 587.3 594.7 606.4 617.2 632.4 652.2 669.9 684.1 706 728.9 747.8 759.7 774.7 791.1 806.4 816.8 820 818.1 818.3 811.5 798.8 799.5 792.6 778.1 765.4 754.7 740.6 730.1 727.8 716.9 698.1 685.2 683.1 677.6 679.2 685 685 696.1 712.7 732.8 735.1 710.8 686.9 665.1 630.7 598.9 577.7 564 549.5 540.5 528.2 518.7 505.9 486.7 473.3 460.8 452.6 439.5 429.5 419.6 413 403.7 399.4 394.6 392.1 389.4 387.6 386.6
436.4 437.8 440.1 445.4 449.9 453 457 460 463.1 465.6 471.3 473.7 470.9 472.6 471.7 466.1 466.7 459.1 456.5 454.3 453 454.3 451.6 455.3 464.1 471.6 477 485.9 497.9 505.7 514.5 527.7 536.8 543.5 551.9 558.2 565.8 576.8 584.3 594.2 608 617.4 627.9 636.8 640.7 653.1 658.7 668.6 673 676.5 676.9 671.2 656.4 649.1 657.7 649.6 643.5 637.4 641.9 637.1 628.7 652.9 665.9 647.6 629.8 598.5 571.8 554.6 532.5 516.6 508.1 502.1 493.2 486.3 479.6 476.8 469.6 468.4 464.7 463.4 462.4 462.6 466.4 466.1 464.9 469.3 468.9 472 478.4 484.8 490.4 501.1 505.3 515.4 522.2 529.5 537.3 542.7 551.6 555.7 560.7 564.3 567.4 572 572.3 574.3 576.8 576.5 576.6 569.7 574.2 572 567.1 562.3 568.1 571.8 570 569.3 570 573.4 569.2 571 568.6 566.5 564.6 567 570.9 574.2 579.9 585.9 590.6 595.5 603.7 617.3 625.4 641.1 649.7 660.6 674.4 692.8 711.2 731.8 750 761.4 780.6 797 812.4 820.4 823.9 824.5 820.4 810.2 803 805.6 800.4 795.2 790 784.1 774 759.7 750.8 733.3 715.1 705.8 697.1 687.4 688.7 687.1 693.1 716.1 728.1 744.3 732.6 704.3 681.3 661.3 631.6 609.6 584.1 570.5 562.1 562.9 548.5 520.3 506.5 486 468.7 454.6 449.1 437.6 429.2 419.1 412 405.3 399.8 394.7 391.1 389.9 387 386.4
437.6 441.1 445.3 449.8 451.6 456 460.6 461.6 463.8 466.5 471.2 473.7 472.8 472.1 468.5 464 460.7 459.5 456.9 455.7 453.7 452.8 455.1 463.6 471.4 477.4 484.1 493.5 507.1 514.6 526 536.4 547.9 550.3 551.7 558 565.2 577.8 589.4 598.2 611.9 623.1 631.9 640.8 648.4 660.5 669.6 679 686.5 692.9 696.2 698.7 692.5 689.3 690.9 689.9 683.7 690.4 694.5 676.8 664 680 663.6 640 614.3 582.8 556.1 539.8 522.3 513.1 499.8 494.9 485.4 479.5 474.5 470.8 467.8 467.5 468.8 468.9 465.7 465.3 468.8 471.4 473.2 473 476.3 479.9 484.2 493.6 499.5 509.5 517 522.1 531.5 538.7 544 549.6 554.9 560.2 565.5 571.5 572.5 576.2 575.3 578.1 580.8 584.3 586.4 582.8 585 581.8 574.5 571.1 574.7 577.3 578.8 577.2 580.7 584.1 575.4 577.7 578.6 574.4 580.6 581.1 580.4 584.3 586.7 591.5 600.4 611.5 620.4 635.3 640.6 652.3 661.8 678.3 693 703.9 714 734.9 751.1 760.4 775.8 792 802.3 809.7 814.1 809.4 807.7 802.7 801.4 803 803.3 799.8 794.7 788.7 778 771.5 757.6 744.3 732.1 718.4 703.4 693.5 694.7 704.2 718.6 736 742.5 750.5 728.2 698.4 673.9 655.2 639.6 621.8 597 575.3 568.5 568.6 560.6 541 512.9 487.8 464.9 453.3 445.3 440.3 429.4 422.4 412.9 404.9 399.6 394.9 392.9 389.8 389.2 387.8
439.1 441.2 446.3 452.2 453.7 461.9 464.1 463.1 464.1 467.5 468.4 470.4 469.9 470.6 468.1 461.9 459.4 460.3 458.5 455.5 455.4 454.4 458.6 466.8 472.7 481.2 491.2 506.2 516.2 522.4 528.9 538.4 547.2 553.4 556 562.4 568.3 579.4 591.3 603 616.2 626.7 634.7 647.9 654.3 663.7 680 690 699.9 710.3 717.9 719.2 725.5 715.2 723.5 729.1 731.5 725.9 715.3 700.7 686.3 673.7 649.3 623.5 596.3 563.3 540.8 526 510.2 501.5 491.2 483.4 480.5 475.5 473.9 468.6 468.3 468.8 474.5 473.9 471.4 471.1 471.9 475.9 479.4 479.5 483.8 486.2 490.6 498.7 508.2 516.5 525.3 532.6 537.9 544.3 550.5 556.2 560.3 565.1 571.1 576.1 576.7 580 581 580.6 585.2 590.1 591.1 592 593.4 589.2 582.8 581.1 585.4 585.8 583.6 586.6 589.1 588.8 585.1 582.2 585.9 585.5 594.2 595.5 592.2 592.4 596.4 603.2 610.9 623 635.5 646.2 654.5 666.5 674.3 688.1 702.2 714.6 729.8 739.7 753.5 764.1 773.1 786.8 792.5 797.5 796 790 792 791.6 788.9 789.8 789.1 788.6 785.2 777 770.2 760.5 752.1 745.1 731.7 717.5 706.2 701.4 709.7 721.6 738 753.9 769.1 764.8 742.6 714.1 688.8 667.9 644.4 617.1 595 579.3 572.8 558.6 548.1 525.3 503.8 487.1 471.1 451.5 444.9 436.7 427.2 421.2 410.7 403.7 399.8 395.7 394 391.5 389.3 387.9
441.6 444.6 449.8 454.3 455.9 461.7 463.2 464.8 463.3 467.7 467.8 467.6 468 466.8 466.9 462.1 456.7 456.4 456 456.1 456.1 456.9 462.1 468.1 475.8 488.4 498.2 510 520.4 524.9 530.7 538.3 547.6 553.6 561.6 567.1 573 581.6 593.1 605.6 617.2 629.3 638.9 652.1 659.2 671.1 688.8 701.4 716.2 726.6 734.7 736 736.1 734 743.5 746.7 739.7 729.6 721.1 703.3 666.7 643.5 620.9 597.6 572.1 542.9 527.9 515.4 503.9 493.1 486.3 481.3 476 471.2 470.1 469.3 470.1 473.3 476.8 481.5 479.6 479.2 482.6 483.8 484.5 488.9 492.1 494.5 498.7 507.8 512 523.4 530.5 539 544.2 550 556.8 561 566.1 572.1 574.8 579.2 581.2 583.7 588.1 588.7 590.9 594.5 597 598.7 603 599.1 592.6 589.4 593.1 590.5 601.2 609.6 604.8 593.7 592.8 595 594.4 594.2 600.7 603 599.7 597.9 604.3 613 621.3 634.5 644.1 653.5 664.2 675.8 688.7 697 712.6 728.5 739.4 747.1 761.6 769.8 778.6 785.3 789.7 792.2 785.1 781.8 781.3 778.1 775.1 774.9 772.2 771.5 770.2 765.7 760.8 752.8 746.9 737.9 724.1 716.8 716.9 722.1 729.2 738.2 750.7 766.5 781.4 775.6 755.2 728.3 703.3 682.6 658.7 627.6 600 579.7 560.1 543.7 530.2 513.5 495.2 481.7 465.6 452.8 443.2 432.8 421.5 415.8 409.2 402.4 399 397 394.2 391.3 388.9 387.5
444.8 446.3 450 453.2 456 460.1 461.4 464.3 464 466.5 466.6 465.7 465.1 463.1 461.4 459.6 458 457.8 458.4 457.1 457.4 461.6 466.6 471.5 479.4 489.5 503.5 514.7 521.5 529.3 533.2 541 550.6 557.4 560.6 570.1 580.2 587.9 597.3 608.3 620.1 632.6 644.4 654.6 664.4 681.3 697.4 714 727.7 735 740 741.3 739.7 740.5 743.1 741.5 735.4 722.3 711.7 691.4 656.9 621.9 596.1 573.8 553.3 527.9 514.3 507.7 495.4 485.3 475.6 474.8 471.7 470.2 470.2 472.6 475.5 481.3 485.6 489.2 490.6 491.6 495.5 496.2 497 499.4 501 502.4 507.4 515.5 522.4 531.7 539.3 545.6 551.5 558.1 562.5 567.3 572.2 578.6 582 588.5 590.5 590.6 593.8 596.3 599.3 604.3 603.9 606.1 607.6 605.7 603 603.3 605.3 602.5 613 622.6 617.2 613.8 607.4 608.7 603.8 601.5 606 610.4 612.8 611.5 610.2 620.5 631.4 644.5 654.4 659.8 673 682.5 698 707.1 724.7 737.8 743.6 755.6 762 768.9 776.9 779 782.3 780.4 774 772.3 770.3 767.7 762 761.4 759.7 757.2 755.1 751.9 746.1 741.8 735.9 725.3 722.8 723.3 727.8 738.7 744.7 755.7 770.1 784.8 795.9 787.6 772.6 744.8 714.9 694 669.2 638.2 605.3 584.2 557.2 534.8 515.9 500 487.4 473.2 463.4 451.6 440.1 426 416.9 412 407.3 405.8 400.1 396 393.8 393.2 390.5 387.3
446 448.3 450.5 452.4 455.7 460.8 462.8 463.9 464.1 465.7 463.9 464.6 460.8 460.6 460.8 458.1 459.4 460.4 461.6 460.6 461.4 467.3 471.6 475.6 483.4 498.2 509.3 518.5 524.1 528 534.2 540.8 549.5 554.3 564.5 573.4 582.5 592.6 602.8 614.3 623.7 636.5 648.5 657.2 671.3 688.9 704.5 719.5 728.7 735.6 739 737.7 735.6 733.8 734.8 730.2 722 709 694.2 670.6 641.5 604.7 580.1 556.8 535.6 520.3 505.1 498.5 487.6 481.7 474.7 469.3 470.3 469.6 471.8 477.1 481 489.9 492.3 501.7 507.3 508.4 508.6 513.3 509.3 511.8 517.4 515.9 514 525.7 530.9 536.8 545.8 553.6 559.4 564.8 569.7 574.5 578.9 584.9 591.1 595.8 600.9 597.2 599.8 598.9 606.4 607.5 608.4 609 611.3 613.9 618.7 615.6 613.7 620.3 625.5 625.9 623 615.5 619.7 620.9 618.1 614 617.6 617.9 620.4 620.9 629.3 639.6 646.8 654.3 663 669 677.1 690.8 704.6 717.1 731.8 741 749.4 755.5 760.5 764.1 768.2 771.8 769.2 766.5 760.9 758.4 756.5 752.5 750.2 747.8 746.4 743.5 740.1 734.8 732.1 729 719.3 719.5 721.2 725.1 730.9 741.8 750 767.4 781.8 793.9 801.3 794.6 783 760.9 728.3 698.2 667.3 639.6 614.9 587.1 553.6 527.4 508.2 494.4 481.7 469.7 460.2 450.3 439 433.5 424.5 415.4 412.7 411.6 405.9 399.6 396.3 396.6 394.2 390.7
443.1 446.6 451 452.4 457.4 461.1 463.4 463.8 463.6 464.3 461.4 461.5 459 456.1 457.7 458.4 463.5 464.9 466.4 463.5 465.6 470.2 472.9 477.7 487.1 498.5 508.3 514.2 522.2 528.3 535.2 540.9 546.6 552.4 565.4 572.9 586.3 594.9 606.8 618.9 627 638.5 649.7 661.4 677.2 693.1 706.5 717.1 725.2 730.3 730.9 728.9 726.3 723.6 722.6 715.5 703.9 690.8 673 648.1 617.6 583 560.5 539.6 524.2 511.6 498.7 488.3 481.5 472.1 470.7 468 470 471 478.1 482.2 489.4 496.6 503.4 517 523.5 524.3 523.4 522.7 520.5 522.8 530.5 529.5 525.2 530.6 537.6 545.3 551.9 559.4 565.7 571.4 577.6 583.4 587.1 592 598.8 604.5 608.2 607.3 609.8 610.8 611.8 612.8 615.1 616.7 620 623.5 624 623.9 625 634.4 632 627.5 624.8 628 627.4 630.2 628.2 628.2 630.6 634 633 642.5 642.9 647.3 652.2 661.2 667 677.1 684 691.7 704.2 718 729.9 739.6 749.3 752 752.2 755.9 760.3 760.4 757.8 752.6 747.6 744.7 741.3 737.1 735.7 733.9 732.8 729.4 725.8 722.7 715.7 717.1 715.5 714.6 714.5 719.1 730.6 740.5 752.5 771.1 790.1 807.1 813.7 803.7 798.3 772.3 740.5 707.3 681.1 649.5 619.5 595.9 568.4 530 500 491.7 482.8 473.9 460 455.5 454 443.1 436.1 431.1 422.3 417.3 408.6 402.9 401.7 400.1 397.7 394.1
440.5 442.8 449.4 452.8 455.2 458.3 460 462 459.6 461.6 457.6 456.9 456 454 456.3 459.5 465.8 467.8 469.4 467.5 469.3 471.5 474 481 489.5 496.8 506.2 513.9 520.6 525.7 533.7 539.5 545.2 556 565 575.3 585.4 594.7 607.2 620.2 630.3 638.4 651.1 662.7 681.4 694.7 703.7 710.9 716.8 721.1 720.7 719.1 714.8 711.6 706.3 700.3 688.3 671 647.4 623.8 592.9 565.7 544.8 526.5 514 502.3 492.6 481.8 475.2 469.7 469 467.2 470.4 473.5 481.8 487.6 499.6 505.7 515.6 529.6 541.3 540.2 539.6 536.1 536.4 536.6 539.8 541.4 538.7 537.5 543.2 550 558.1 564.7 571.2 578.5 585.1 590.8 593.6 598.2 605.8 610.6 613.4 615.8 617.5 618.9 621.5 627 627.1 625.6 629 632.9 633 634.7 639.9 643.2 639.1 636.8 635.4 633.9 639.1 639.5 639.5 639.3 648.4 649.9 649.8 648.9 651.3 650.1 658.2 670 672.5 679.6 682.8 697.2 702.8 711.6 723.4 735 744.2 742.3 741.7 745.7 747.6 748.9 740.7 735 731 728.3 725 722.8 720.5 719.3 718.2 715 712.9 713.7 714.7 710.8 710.6 713.1 711.4 713.8 724.6 736.7 753 775.8 798 817.3 817.5 814.1 805.3 782.1 746.9 715.6 687.2 650 619.4 587.6 559.1 540 513.6 498 489 475.7 471.2 467.7 465.4 460.1 451.6 450.1 436 424.7 420.9 411.3 408.9 405.9 400.6 397.5
438.2 445.6 448.6 451.1 451.7 453.3 454.5 457 455.8 455.5 453.7 453.5 453.1 453.4 454.4 458.5 463.9 469.5 471 469.1 468.1 474.7 477.6 482.4 489.8 499.4 505.3 512.2 516.5 525.4 534.3 540.4 547.9 556.1 566.6 575.4 585.5 599.1 610.1 622.2 631.3 639.5 651.6 668.3 683.8 690.8 698.5 703.1 707.5 709.8 710.2 708 704.2 698.1 692 682.6 670.4 645.2 622.9 601.6 573.2 550.3 534.9 518.1 506.1 493.7 485.1 477 467.9 466.4 466.1 469.2 473.4 482.9 490.7 499.1 509.6 515.5 528.6 541.7 552.4 554 548.8 553.1 553.7 552.7 549.2 551.8 549.8 544.4 550.2 555.9 563.5 570.5 576.9 582.6 589.3 595.8 603.3 609.8 614.5 617.2 620.9 622.4 624.7 626.4 630.5 638.3 642.7 637.6 640.5 650 654.1 650.5 649.2 650.9 650.6 647.7 644.1 643.6 638.3 642.6 643.5 644.7 652.8 667.2 658.4 658.5 658.5 660.4 661.5 668.8 674.1 677.1 690.7 701.8 706.9 709 720.2 729.1 733.1 731.4 732.9 732.3 728.3 727 725.1 719.7 715.7 712.5 709.4 709.6 706.6 707.4 705.4 702.7 701.5 703 704.1 705.5 704.5 702.4 702.6 707.7 721.3 732.5 751.5 778.3 806.4 819.7 824.9 826.7 809.7 764.5 730.7 698 680.6 653.6 616.2 591 560.7 538.7 517.4 503.8 494.8 489.6 485.7 480.9 483.1 478.7 475.2 466.6 454.5 440.5 428.6 421.3 417.5 412.8 405.9 399.9
440.2 442.8 445.5 449.5 448.7 450 451.7 452 452.1 451.5 450 451.7 451.1 452.8 454.6 458.9 464.7 470.6 470.6 469.6 470.2 475.3 479 483.8 490.2 498 502.9 508 517.3 525.4 533.9 542.5 547.5 556.3 570.3 575.2 585.8 598.1 608.5 622.5 627.7 638.9 653.9 668.9 681.7 688.4 692.1 694.2 697 698.5 697.8 694.9 691.1 685 676.3 664.5 647.3 624.1 602.2 577.4 554.5 538.6 525 512.9 499.2 488 479.1 469.7 466 466 466.5 470.6 481.5 491.5 498.5 514.6 518.4 530.6 540.9 561.6 566.9 566.8 562.9 575.2 571.3 566.2 559.3 557.2 556.7 551.9 553.6 560.8 567 573.6 581.8 588.9 593.8 602.9 610.7 617.4 624.3 629.1 628.3 632.5 634.4 639.2 650.7 652.1 654.3 654 658.3 667 676 682.2 662.1 656 654.7 652.8 651.1 648.1 650.7 645.1 643 643.6 654.4 666.2 661.1 662.7 659.7 661.4 664.6 668.8 670.4 676.4 688.7 699.8 703.7 705.7 711.9 718.6 719.7 721.1 719.9 715.9 712.5 708.7 708.1 704.1 700.5 696.9 695.4 693.8 693.5 694.6 694 691.7 691 694.3 693.4 695.4 697.1 698.6 701.1 705.7 719 740.7 759.6 782.4 804.5 821.1 832.3 831.3 799.6 757.1 723.5 694.6 662.3 642.1 615.6 594.5 570.6 545.4 527.6 516 505.9 502.2 503.4 503.6 503.1 503.1 501.8 492.9 478.9 460.9 449.1 438.9 424.6 415.9 407.7 405.7
437.1 441.4 443.1 445.8 445.6 445.5 447 448.1 445.7 446.1 449.3 452 450 450.8 453.4 459.5 466.9 470.6 470.9 470.7 473.2 475 480.2 485.2 489.8 495.9 501.4 503.9 516 523.2 532 542.9 548.7 557.1 569.1 575.2 586.5 598.7 609 618.9 628 639.2 655.7 667.3 677.5 683.7 685.8 686.7 687 686.6 685.2 681.7 677.8 671.2 658.8 643.8 624.6 601.1 576.6 557.3 539 526.9 514.7 504.3 492.3 480 472 466 463.9 464.4 468.1 475.5 488.6 499.3 509.5 524.1 535.4 543.8 554.9 573.9 582.9 581.3 586.8 587.2 580.2 577 567.9 558.4 555.4 555.4 556.2 563.2 571.2 577.7 585.9 591.7 598.2 604.6 614.5 624.4 632 635.4 638.3 641.8 645.5 656 673.8 667.5 669.5 667.7 670.9 683.4 689.7 689.7 678 670.5 663.8 657 656.1 650.5 654 654.6 649.9 649.8 648.9 655.1 660 659.5 657.4 658.5 661.5 666.4 671.7 675.8 684.2 693.3 696.6 700.1 703.4 707.9 707.2 706.4 703.2 701 697.3 696.2 692 688.8 685.9 684.2 682.9 683.1 684.2 685.1 683.7 681.6 681.7 690.5 692.5 696 695.6 700.5 707.3 710.1 728.3 748.7 769.2 787.3 803 822.7 834.3 834.3 809 768.3 740.7 699.9 662.5 633.7 616.7 593.4 571.3 553.4 536.8 526.8 518.5 520 521.2 526.5 546.1 546.8 543.4 531.7 515.4 486.7 466.6 454.5 433.5 424.3 415.6 407.2
435.9 438.2 439 442.6 442.8 443.5 443.8 444.4 444.5 443.7 451.4 449.8 450.3 452.6 454.9 458.8 467.4 469.9 469.8 469.5 471.4 474.1 480.2 485.5 493.2 497.9 501.2 504.8 513.3 521.4 527 538.2 545.9 557.9 569.2 577.9 587.7 600.2 611.6 621.3 629.7 641.3 654.2 662.9 672.5 677.7 679 679.1 678.1 676.6 672.9 669.1 663.7 653.7 638.9 621.1 601.3 578.6 556.6 541.6 526.5 515.7 506.8 491.9 483.5 475.2 468.7 465.1 463.9 465.3 471.2 484.7 495.2 506.5 521.8 531.5 548.7 557 574.6 584.6 593.2 592.4 601.6 598.2 591 581.6 571.8 558.4 556.4 555.7 557.2 564.8 572.3 583.1 588.8 596.6 603.4 609.9 621.4 633.7 641.3 645.4 647.6 652.5 658.6 677.4 689.8 693.4 691 685.2 686.5 701.9 709.2 700.4 693.9 683.8 679.2 668.7 657.4 653.5 653.3 654.4 653.5 652.3 647.7 649.3 652.6 650.9 652.7 654.5 658.1 661.8 667.7 674.5 680.4 684.8 687.9 692.9 695.1 696.8 696.2 693.1 688 685 680 680.6 677.8 675.5 672.5 669.6 670.7 672.2 674.7 675.6 672.4 672.6 678 687.6 692.5 697.3 700.5 702.8 706.5 718.8 731.4 753.1 777.7 792 808.6 820.5 827.9 826.9 807.7 771.8 741.2 715.5 677.8 644.1 627.2 613.1 589.8 570.3 554.6 544.2 535.1 532.6 539.9 550.1 566.1 574.1 583.5 576.2 554.4 510.2 489.4 472.5 455.4 433.5 420.5 407.2
431.6 434.2 437.7 438.4 437.9 440.9 440.2 441.9 440.8 439.4 447.7 447.7 452.1 453.9 454.8 459.5 466.1 471.1 467.9 470.4 475.1 476 483.1 490 493.9 498.7 503 508.1 510 521.1 522.9 533.3 544.7 557.2 568.7 579.2 588 601.6 610.2 619.8 629.4 640.3 650.6 656.9 664.8 670.2 671.2 671.8 669.7 665.8 661.5 656.2 647.7 636.1 621.9 604.6 582 562.8 544.6 529.6 517.4 505.3 496.3 485.8 475.9 469.2 466 463.6 464.1 467.5 477.7 491.4 505.3 513.5 528.8 544.1 559.8 569.9 585.6 597.2 598.9 598 598.1 593.7 588.9 577.6 567.8 556.5 555.1 556.1 558.2 565.6 574.3 584.5 593.7 600.7 610.8 618.2 629.6 643.6 657.3 652.7 660.3 667.7 678.8 698.3 708.4 715.4 716.1 714.3 711.6 729.3 737.7 729.6 716.6 696.2 690.7 682 667.4 656.7 656.4 657.1 652.1 652.2 644.3 642.4 641.4 641.2 643.8 648.5 653.7 658.8 661.8 666.8 672.3 678.8 680.1 682.5 685.1 686.3 683.9 680.3 674.3 669.7 668.6 665.2 663.2 661.4 658.7 655.9 658.6 663.9 665 664.7 667.1 670.4 678.9 682 692.8 698.3 701 705.3 710.4 725 742.8 759.1 777.7 799 810.9 821.4 825.3 820.3 815.5 796.7 755.1 724.7 694.4 667 638.3 620.1 609.1 590.6 570.9 556.6 543.6 546.9 555.2 568.9 580.2 600.4 605.2 600.5 577.8 561.2 534.6 490.7 461.3 435.5 419.1 408.6
426.8 428.5 430.9 431.5 434.3 436.5 434.8 434.7 435 440.9 447.1 451.1 453.8 455.2 456.4 457.4 462.6 467.6 468.5 468 472.9 475.3 481.3 489.8 495.7 500 505.8 511.1 512.4 517.6 522.6 533.6 543.2 554.8 566.6 575.9 584.2 599.9 608.4 618.2 627.5 638.5 647.2 654.1 660.4 663.9 665.9 665.2 662 658.5 652.1 643.9 632.8 620 603.4 587.3 568 549.8 534.8 520.5 510.1 498.3 488.1 479.6 472.2 465.7 463.3 463.2 464.5 469.8 480.9 495.8 509.9 520.1 537.3 552.8 569.8 579.2 591.3 599 603.6 602.7 594.6 588.8 577.7 569.2 561.9 556.9 555.3 556.5 559.3 566.3 577.7 588.5 598.9 607.3 620.5 629.2 643.4 653.8 660.8 664.1 675.6 686.7 701.4 714 721.6 732.5 733 735.5 732.7 746.3 749.6 746.7 738.1 718.4 705.6 695.6 690.2 668.2 657 651.2 646.7 645.4 639.3 629.8 629.2 628.3 630.5 635.9 641.7 645.8 648.9 654.9 662.3 666.7 670.6 672.2 673.7 673.4 668.7 663.6 658.1 655.1 654.8 653.4 649.3 647.9 644.3 644.3 650.2 655.2 655.8 656.5 662.8 670.8 680.9 681.1 689.3 697.5 706.7 706.7 714.7 729.9 745.8 763.6 780.2 799.1 808 814 815.9 814.8 809.6 798.2 773.7 734.7 710.5 690.8 669.9 635.6 611.5 596.6 581.7 564.9 555 564.4 573.9 585.2 601.3 620.3 621.9 606.3 598.3 575.2 545.7 502.2 470.1 441.4 420.4 408.9
422.9 424.1 423.8 427.8 429.5 432.1 433 428.3 437.1 441.7 446.8 449.9 454.1 455.8 457.4 460.1 459.5 463.1 467.7 466.8 471.9 474.2 481.2 489.6 496.6 500.8 508.5 513.5 516.2 518.6 524.1 533.8 543 551.9 563.9 571.1 581.6 594.1 602.9 613.8 623.9 634.2 642.3 650.8 655.3 658.1 658.1 656.8 652.2 648.1 639.8 631.2 620.1 605.6 590 573.2 554 540.2 525 513.6 501.9 491.3 480.3 474.3 470.8 464.5 461.3 461.6 464.4 473.7 486 503.2 512.9 528.1 539.8 560.4 575.6 586.4 596.1 600.2 600 597.8 592.1 583.7 574.2 566.2 561.6 557.1 556.9 555.3 560.2 568.8 579 590.5 599.3 610 626.2 637.6 650 661.6 667.2 675.9 693.4 704.8 712.7 727.1 736.7 748.6 751.3 757.3 754.8 767.2 771.1 762.2 751.4 739.4 725.1 712.1 701.3 687.9 663.9 645.9 638 630.7 625.8 617.9 616.4 615.9 617 619.4 627.1 633.6 638.5 643.3 650.6 656.3 659.2 661.1 663.1 659.6 653.7 648.3 641.1 638.1 637.2 637.7 632.9 630.1 630.2 637.5 642.2 646.6 648.9 654.8 660.3 670.5 679.6 685.9 689.6 698.6 710.2 710 720.1 735.8 752 766.4 782.9 794.1 802.1 806 806.1 804 799.2 790.7 770.3 741.7 709.7 699.8 674.8 646.3 621.7 602.5 583.5 569.3 570.6 581.1 598.9 612.1 626.5 633.5 642.9 624.3 597 581.3 557.8 525 490.9 459.6 427.6 410.7
416.5 418.6 419.2 423.5 427.1 427.4 428.4 428 436.1 442.2 447.9 449.8 455.2 458.1 457.7 458.8 461 464.6 464.6 469.4 471 474.4 482.3 489.5 495.7 502.7 506.2 513.9 518.5 522 524.3 533 542.2 550.5 561.1 568.6 578.1 589.7 598.3 607.5 621.2 629.2 636.4 644.6 649.9 651.8 649.3 646.2 641.5 633.2 623.8 616.9 604.1 587.3 576.3 562 544.1 530.6 517.8 505.1 494.7 485.2 476.5 472.8 466.3 462.4 460.5 463.2 468.9 477.9 489 501.1 518.2 534.9 545.1 561.5 577.2 586.2 590.5 594.7 591.9 587.9 582.3 575.3 568.8 564.3 563.1 555.7 555.4 557.6 563.8 571.9 580.6 590.6 602.1 615.7 627.8 638.8 651.5 664.2 675.1 685.5 703.5 717.5 726.3 735.2 743.3 755.8 762 766.5 769.2 780.8 784.8 779.1 766.8 749 729.6 716.1 702.2 686.9 663.5 640.8 628.3 620.6 613.3 608.3 604.2 605.7 605.6 610.9 615 619.8 626.1 633.3 637.7 646.2 648.3 649 650.1 644.8 638.9 633.1 626.5 623.8 624.6 620.6 618.1 615.6 625.7 636.6 641.6 643.1 648 652 659.1 671.3 682.4 688 691.3 703.8 710.2 721.6 725.7 732.9 752.5 770.6 782 790.6 796.2 798.8 797.1 794.8 792.1 786.1 769.8 745.4 715.1 690.9 677.1 646.6 625.1 608.7 591.6 581.8 586.5 598.9 616 640.7 654.4 657.1 664.9 640.2 610.6 580.2 559.8 531.5 501 467 431.4 411
411 413.1 414.7 420.1 421.2 420.1 419.9 428.1 433.8 440.5 446.3 450.2 455.3 457.9 457.9 460.6 461.7 463.1 463.9 469.1 472.7 478.4 482.9 490.7 491.1 499.3 507.9 514.5 518.7 522.5 525.8 530.2 540.9 549.3 558.1 566.8 578 586.3 592.7 602.6 614.9 624.2 632.4 638.3 642.8 643.6 639.8 634.9 628.2 620.6 612.4 601.3 589.3 576.1 560 550.7 535.8 521.7 511.3 499 488.8 479.2 473 467.9 461.2 457.2 460.9 464.7 472 482.7 490.9 507.8 523.1 536.2 546.8 559.1 571 576.8 579.9 582.3 585.3 581.4 576.3 568.8 566.3 562.4 560.4 555.1 554.6 556.4 562.7 572.7 581.3 592.2 602.9 619.4 639.6 650 666.3 674.9 683.7 694.5 712 725.9 734.3 744.7 754 763.6 772.8 779.2 779 787.8 794.7 788.7 775.4 752 729.4 719.2 701.7 679.7 651.4 634.3 621.8 610.4 605.2 601.1 598.7 597.8 598.9 602.1 608.8 610.9 616.8 625.4 629.4 635.9 637.9 639.9 637.1 631.2 625.5 619.2 615.8 613 608.3 602.4 597.5 613.5 624 633.7 644.2 643.2 646.3 650.4 656.1 670.6 677.8 684.4 688.3 699.4 710.3 723.1 728.7 736.2 751.1 765.8 774.6 781 786.7 788 787.4 785.8 782.4 775.3 772 753.1 716.4 686.4 670.1 654.8 624.4 609 594.7 593.7 606 622.7 637.3 663.3 681.7 685.9 682.5 665.7 627 588.7 559.9 533.4 504.6 471.6 445.5 415.9
406.9 408.6 412.1 415.8 414 412.4 420.6 428.1 436.2 439.8 447.3 451.9 457 458.1 459.2 459.6 461.5 461.4 462 464.9 470.1 475.2 482.1 488.1 490.8 496.3 507 514.9 519.2 520.2 522.9 526.5 535.7 544.4 557 564.6 572.9 582.8 591.1 598.4 608.1 618.1 626.8 631.5 633.4 633.1 629 623.3 616.9 610.4 601.8 588.8 573.9 560.5 547.8 536.8 525.7 515.2 502.3 493.8 484.8 477.7 470.4 462.8 456.4 454 459.6 465.3 473.4 482.3 490 507.8 524.7 535.4 546.4 555.9 564.7 568.4 573.5 575.7 576.3 572.3 569.3 565.2 561.5 556.9 553.7 553.4 552.8 556.5 564.3 574.2 582.7 595.6 608.1 627.5 642.2 660.8 675.6 682 693.9 702.7 719.7 732.1 745.3 754.7 761.5 771.5 780.9 785.5 788 794.3 803.9 792.2 781.2 752.3 726.3 717.7 696.6 671.7 641.4 623.6 611.8 604.9 598.8 595.3 594.8 592.4 592 596.4 600.7 604.4 609.4 615.3 619.9 622.4 624.9 625 624.5 621.8 616.1 609.6 606.5 599.3 595.9 588.9 599.2 614.5 625.6 636.4 644.2 646.6 645.8 648.8 658.9 665.9 672.5 679.5 689.3 699.2 710.4 722.5 726.7 731.6 741.6 754.6 763.4 769.7 773.4 775.4 775.3 775.7 770.7 766.7 760.4 751.5 725.7 687.9 663 651.6 627.3 610.7 604.9 612.3 627.7 649.2 663 686.8 708.8 710.6 701.5 680.5 650.2 605.3 573.2 540.8 504.8 477.8 453.2 426.6
403.8 404.3 407.8 410.6 409.9 415.1 421.5 427.5 433.2 440.3 447.4 453.1 460.3 457.6 457.1 456.6 459.8 460.9 463.7 465.3 467.5 472 479.9 484.9 489.2 495.9 505.8 509.6 514.9 517.9 520.6 527.1 532.1 541.4 552.3 563 569.4 579.6 587.7 592.7 602.7 611.2 618.8 621.4 623.3 622.8 618.5 612.5 606.7 598.7 586.7 574.9 560.6 550.3 536.6 525 515 505.7 495 487 480.5 475.4 467.2 460.2 453 450.7 456.9 463.7 472.2 482.4 490.1 504 516 529.2 539.6 548.8 553.5 559.8 566.8 566.8 567.9 565.2 561.4 556.7 553.9 548.8 550 550.8 550.8 555.1 564 574.9 583 596.6 611.7 627.5 647.3 661.3 675 686.4 697.8 708.5 723.9 735.9 748.6 757.5 764.2 770.3 778.2 786.1 794 800.3 799.1 791.2 775.5 753.8 729.4 715.4 696.2 660.7 635.2 617.6 604.9 597 595.8 592.3 590.5 590.4 586.7 588.2 590.3 596.7 601.1 604.6 610.2 615.8 614.2 616 614.1 613.1 608.4 602.9 596.9 596 585.8 587.3 600.8 617 633.6 648.8 652.2 653.5 648.9 650.6 658.7 663.4 667.7 675.7 683.9 698.5 704 713.4 719.2 727.6 732 740.6 751.4 755.9 760.2 761.9 765 765.5 760.8 756 749 742.9 726.9 701.8 664.4 647.7 627.9 613.3 622 642.2 656.4 673.2 692.2 720.5 742.2 736.4 720.9 697.6 670.9 626.2 584.4 552.2 523.6 482.6 452.8 430.9
397.3 400.3 403.4 406.7 407.7 413.5 422.9 425.2 432.2 438.6 445.1 453.9 458.8 457.4 456.1 455.7 462 462.7 464.6 468.4 471.9 473.7 481 483.9 489.6 496.6 506.5 508.7 512.1 513.2 520.3 526.7 532 537.4 549.3 558.5 564.2 575.7 583.7 587.5 595.5 603.9 608.6 611.7 613.7 612.4 609.6 604.6 596.9 587.7 577.5 564 550.1 540.1 528.8 518.4 507.6 497.9 489.6 482 475.4 471.7 465.6 457.5 451.8 448.9 452.5 460.8 468.8 480.5 486.3 498.9 509.7 521.6 532.6 540.4 544.1 549.6 554.3 557.4 557.9 555.3 551.2 548.9 545 543.4 546.8 547.8 550.4 554.4 564.3 573.5 584.2 595 611.8 628.4 644.6 659.7 674.4 686.2 695.6 708.5 721.5 733.5 745 754.3 760.4 766.6 773.1 779.4 785.4 784.8 786.8 779.4 765.9 751.4 729.3 707 686.1 663.1 631.7 614.6 600.8 592.1 589.6 588.9 591.3 587.6 584.7 583.2 584.1 587.9 593.7 599.1 603.3 606.7 604.4 605.1 604.3 603.7 601.6 596.6 592.4 586 572.5 589.4 606.4 624.8 643.3 656.8 664.1 663.3 656.2 653.4 658.1 665.3 667.9 670.7 677.8 688.6 691.7 699 707.3 716.6 720.7 728.1 737.4 741.7 746.1 750.5 753.5 753.7 746.1 739.9 734.2 726.4 714.1 696.3 676 642.4 625.5 621.8 638 660.2 672.6 696 716.8 740.2 749.6 755.2 738.1 712.5 674.5 637.9 599.4 570.1 535.5 496 461 434.3
393.4 397.4 400.8 401 404.9 412.1 417.2 422.9 429.8 435 446.1 453.1 460 461 455 456.8 462.1 464.9 466.8 472.1 476.1 479 477.8 483.1 489.3 495.8 499.3 505.1 508 514 519.2 526.4 531.9 534.5 545 551.9 560.4 568.7 576.9 581.2 587.5 595.2 600.4 602.4 604.3 603.8 599.9 595.4 586.5 575.4 563.1 550.7 541.3 529.1 521.5 512.4 503.9 492 486.1 478.1 472.7 468 463.1 456.3 449.2 445.8 448.8 456.9 463.4 474.8 481.4 490.4 505.2 516.9 525.7 530.9 536.7 542.9 545.5 548.6 547.9 545.7 544.8 540.6 540 542.3 542.8 546 550.6 554.4 564.3 573.6 585.3 596.3 612 629.4 644.5 657.3 669.3 680.1 690.8 701.4 714.5 725.9 735.3 744.2 752.6 759.4 766.3 771.2 773.9 772.6 769.6 762.7 754 746 727.4 703.2 684.6 652.8 631.6 614.1 598.8 589.1 585.4 586 586.8 587.7 585.1 580.3 579.4 581.5 586.5 590.9 593.6 599.9 598.2 596.4 594.2 595.7 593.5 589.7 586.6 579.4 565.9 589.9 610.5 631.6 653.7 671.9 675.7 671 661 658.8 657.7 660 661.2 665.4 671.2 677.1 683.7 691 693.3 703.5 710.5 714.7 721.6 726 731.4 735.8 738.6 736.4 728.2 721.9 717 706.5 696.6 681.3 666.9 643.9 623.9 630.7 646.7 669.7 685 703.4 718.3 739.6 750.2 751.2 738.3 713.2 678.2 643.5 604.8 575.6 536.8 503.2 467.9 437
392.5 393.4 396.9 399.7 402.5 408.1 418.3 422.5 426.4 433.5 442.1 448.5 457.8 459.2 455.4 454.2 461.4 464.1 466.5 473 476.5 479.1 480.6 482.2 490.6 493.9 497 500.6 506.7 511.8 518.1 524.1 528.7 531.3 537.8 545.2 552.6 561.3 570.1 577.4 582.2 585.8 592.3 593.8 593.8 594.8 591.1 585.2 578 564.3 552.2 542.7 532.7 522.8 513.9 506.9 493.8 486.2 479.6 472.4 467.1 463.9 458.8 454.2 447.1 440.3 441 449.6 457.1 466.3 475 482.1 498.6 509 517.3 522 529.8 535.3 540.6 539.2 538.2 538.3 537.7 534.8 534.5 537.7 540.1 543.2 547.1 553.4 562.3 574.1 586 598.3 613 625.6 639.8 650.9 662.7 672.9 683.3 693.6 705.2 714.6 724.4 733.1 741.1 747.6 753.8 757.8 760.3 761.2 757 752.4 743.7 735.3 723.3 700 678.9 652.7 631.8 616.4 605.2 589.8 584.4 584.9 586.7 585.7 585.2 581 577.2 575.9 577.9 582.3 583.6 589.2 590.9 591.7 589 586.6 586.6 582.8 576.7 569.5 567.4 587.8 613.9 641.4 665.2 673.7 678.7 673.2 661.9 663.1 659.2 656.4 655.8 656.4 663.3 665 667.8 675.7 682.2 687.2 698.1 704.6 705.6 710.3 716.4 720.2 722.4 722.2 711.4 704.3 696 685 675.7 661.1 653.4 633.2 627.1 635.4 647.7 672.4 690.5 710.2 727.4 740 754.4 754.6 729.5 702.9 673.5 639.6 607.7 574.2 539.1 505.3 468.6 437.3
389.8 390.8 393.5 394.3 401.8 408.3 417 420.7 425 430.8 437.8 445 452.6 453.9 454.1 451.8 460.1 462.3 465.2 469.8 476.4 480.6 482.3 480.7 483 488 493.8 499.5 503.3 509.2 515.1 519.1 522.2 524.4 535 541.2 548.2 555 564.3 569.5 573.5 578 581.9 584.4 586.1 585.4 583 577.3 568.8 556.9 543.6 533.6 524.5 515.4 506.9 499.5 485.1 480.2 474.4 468.1 464.7 460.2 454.7 452.2 447 437 429.7 436.9 445.7 453.7 464.2 475.8 490.3 500 507.2 515.7 523.2 529.2 532.7 532.6 530.8 534.4 534.4 531.5 533.2 533.7 536.5 540.4 544.6 551.8 562.3 574.4 586.2 597.7 610.8 624.4 636.6 645.1 657.1 668.1 677.4 687 696.3 704.6 712.4 718.9 727 735.8 740.6 744.6 749 748.4 744.6 741.3 735.2 729.6 720.8 703.1 680.4 654.1 636.5 624.4 613.1 594.3 584.4 584.5 585.4 585.7 581.3 579.3 577.4 569.8 571.1 575.1 578.4 580.6 583.6 585.1 583.7 583.1 580.7 574.9 569.6 563.2 564.6 586.4 614.2 642.5 663.1 671.5 678.6 670.9 660.7 664.7 656.4 645.6 645.8 650.3 651.2 654.1 654 659.1 668.9 675.3 681.9 692 690.3 693.1 699 705.1 704.1 701.3 697.5 688.6 676.1 664.9 655.2 640.4 628.7 618.6 622.6 635.2 652.2 671 688.2 704.4 720.8 735.1 742.8 747.8 720.2 684.3 653.4 631.6 601.4 568.4 531.7 496.8 461.4 432.1
388.6 389.6 390.1 393.2 403.3 407.2 415.2 418.3 423.3 426.4 435.8 440.4 449.4 451.3 450.9 447.9 454.5 460.2 462.9 465.3 469.1 475.7 480.2 481.7 484.3 485.1 489.4 497.2 503 504.5 508.3 510 516.3 520.6 529.5 537.3 544.9 549.3 556.6 561.4 566.4 569.4 573.1 576.7 577 575.7 573.6 568.3 558.6 548.8 534.5 526.8 517.7 506.4 500.8 490.9 482 469.1 466.5 462.3 459.3 455.8 451.3 447.3 443.9 434.7 419.3 425.9 433 437.1 447.2 465.1 482.3 492.2 501.5 507.2 514 520.4 524.4 525.3 526.2 532.9 530.8 530 530.1 534.6 536 538.9 543.9 554.3 564.9 575.2 587.8 598.5 611.1 621.9 633.8 643 653.2 662.2 671.7 679.4 687.6 694.6 701.4 708.9 717.3 723.5 729.5 733.9 736.6 735 733.1 730.4 727.8 724.2 719 712.1 688.3 663.1 645.3 634.4 615.1 594.5 583.3 581.7 580.7 578.9 576.6 571.8 570.2 562.2 562.7 568.3 572 574.8 573.7 578.5 575 575.6 571.9 566.4 558.1 551.8 560.1 585.5 616.3 642.3 658.7 666.8 669.3 661.4 657.6 653.9 641.2 629.4 632.6 636.7 637.5 637.4 640.2 642.9 651.3 661.2 667.1 674.4 674.4 675.1 679.7 685.4 683.7 681.8 678.7 668.2 656.6 646.2 634.6 620.1 608.9 607.4 617.2 632.7 646.2 664 681.1 695 708.5 721.4 726.8 722.3 702.5 670.7 638.7 598.2 587.7 553.8 517.2 487.2 449.9 423
386.4 389.1 387.3 392.7 401.4 409.2 417.2 416.8 423.8 423.5 428.5 436.1 445.4 447.1 448 446.5 449 456.5 462 465.6 469.1 471.3 477.9 479.8 482.3 483.4 489.9 494.4 502.4 501.5 503.8 507.1 512 518.4 524.8 532.9 539.1 543.2 546.9 552.9 556.7 561.7 565.5 569.1 568.8 568.4 565.3 560.4 550.8 541.5 527 521.3 510.6 501.2 493.6 485.4 476.6 464.6 456.7 456.2 453.5 451.6 448.4 442.6 437.5 429.8 418 407.5 416.2 415.8 433.2 452.5 471.9 484.7 494 502.7 509.8 514.4 518.6 518.6 523.2 526.7 529.3 527.6 531.6 535.2 536.3 538.7 546.7 556.4 568.3 576.2 589.3 598.9 609.2 620.5 630.9 640.1 649.8 657 664.8 673 678.4 684.2 689.4 699.4 706.7 712.3 717.3 720.6 723.4 723.4 723.3 720.1 717.7 715.4 711.5 706.5 692.4 671.4 654.9 643.5 624 599.9 583.3 574.7 572.5 569 568.6 564.1 558.5 554 555.4 559.9 562.6 570.3 569 567.8 566.3 564 563.7 559.9 549.8 535.8 558.1 584.5 615.4 643.3 654.2 660.7 662.9 660.8 652.6 640 632.7 617.7 618.9 618 619.2 619.9 623.6 625.9 631.8 635.6 646.4 653.6 656.7 656 658.4 665.1 665.9 664.1 661.3 647.9 636.1 626.4 614.9 603.9 597.1 601.4 614.4 625.4 637 654 667.1 679.3 693.6 701.6 703 690.2 676.2 654 624.3 596.2 561.4 524 496.6 470.6 437.7 414.8
381.6 387.5 386.1 392.7 403.4 409.6 414.8 414.5 417.1 418.1 422.6 433 440.1 442.5 444.9 445.2 443.8 454 458 463.7 466.5 470.2 473.3 477.2 478.8 482.2 485.3 490.7 494.1 495.6 496.9 504.6 510.5 514.1 521.2 528 533.9 536.1 540.2 546.2 549.7 554.4 560.2 562.1 561.3 560.4 557.3 551.7 543.6 532.8 523.9 512.5 504.2 495.2 487.1 479.7 471.3 460.8 449.2 449.5 447.8 445.8 442.6 436.7 427.2 423.2 412 396.2 400.9 409.4 436.1 455.9 471.6 482.9 490.3 500.7 508 513.3 515.3 518.1 521.1 522.5 526.1 528.5 531.2 535.7 537.2 537.6 548.2 559.8 568.8 576.2 586.9 598.2 608.2 619.5 627.7 637.3 644.3 651.9 658.6 665.2 669.6 673.2 678.8 688.2 694.3 701.2 704.5 708.5 711.1 711.8 711.5 710.8 707.7 707.3 702.5 698.7 689.7 672.4 661.8 649.6 627.2 606.3 587.1 572.3 568.6 561.9 556.2 553.1 553.5 544.7 547 549.8 553.5 562.7 564.3 560 557.7 554.6 554 551.7 537.6 529.4 556.6 584.5 614.5 637.9 648.4 655.6 659.1 657.4 641.8 621.8 607.1 592.3 599.8 591.6 592.6 596.2 599.1 600.8 609.8 611.7 615.4 622.3 629.8 629.9 633.3 639.9 643 642.1 639.2 629.6 618.2 606.9 595.8 584.8 584.6 597.3 608.6 619.8 630.4 643.7 654 664.7 671.9 674.9 666.6 653.6 638.4 621.2 599.4 574.8 549.2 511.2 470.1 448.4 424.3 403.3
380.4 384 385.7 393.5 402.9 406.2 412.9 413.2 412.2 415.6 420.5 429.5 435.4 439.8 445.5 442.3 441.7 449.4 457.6 459.1 463.3 466.2 471.6 473.8 475.2 479.7 482.2 483.5 488.1 490 494 498.8 504.8 510.6 517.8 522.2 528.3 533.5 535 539.7 543.1 548.3 553.3 554.6 554 553.1 550.3 544.7 536.3 524.7 515.3 506.8 496.7 489.3 482.1 477.2 463 454.9 443.7 441.1 438.4 437 432.1 427.3 419.9 411.7 401.9 387.7 387.2 411.6 436.9 440.1 468.4 479.5 485.8 498.2 507 514.3 519.5 522.1 526.1 527.7 527.3 528.2 532.6 534.7 537.3 540.8 551.4 561.9 568.3 575.4 584.1 596.3 607.3 615.7 623.8 632.2 639.7 646.4 652.5 656.8 661 661.4 668.9 675.5 681.5 687.8 692.1 695.6 699.7 702.1 701.2 700.5 698.9 699.2 697.1 693.8 683.5 672 658.6 643.6 627.9 601.8 584.3 570.5 555.7 551.1 546.6 542 539.4 533 538.6 545.1 548.7 552 554.3 553.4 551.5 547 544.2 540.2 530.8 528.6 555.7 584.4 613.8 637.6 646.7 651.7 653.5 650.3 621.4 595.6 578.4 556.9 564.3 567.7 560.2 562 565.5 567.3 569.2 577.5 583.1 591.3 597 599.1 609.2 614.2 618 619.6 615.5 608.8 599.9 588.1 573.9 557.4 581.6 592.7 605.4 615.9 625.2 633.5 638.7 639.6 642.3 641.6 631.8 617.6 601.7 580.4 566.4 543.6 505.5 481 453.2 432.4 413.9 396.5
379.6 379.4 384.5 391.7 399.2 402.2 404.6 408.6 409.9 412.5 417.2 424.6 432.2 437.2 437.9 436.7 440.4 444 451.6 456.1 457.6 460.9 468.6 469.9 470.5 473.7 477.1 479.8 481.1 481.6 485.9 495.4 499.2 505.5 511.9 516.3 520.5 527.5 530.6 533.7 538.2 543.2 547.4 548.4 548.1 547.3 542.5 536.4 528.4 518.4 509.8 499.6 493 483.5 478.5 469.5 458.6 448.1 439.9 427.5 426.9 423.9 421.5 415.2 408.1 397.8 386.6 373.7 388.4 415.9 442.4 459.1 473.2 483.4 493 504.4 513 517.1 525.2 528.5 531 529.6 529.9 530.7 533.2 535.3 539.8 544.5 554 561.3 572.2 578.1 585.8 596 604.1 614.3 620.8 628 635.5 641.3 645.1 649.3 651.6 654.6 661.4 667.2 670.4 675.1 679.6 683.7 687.1 689 690.7 691.8 690.6 693.5 694.1 690.5 685.5 682.3 661.4 633.1 616.5 593.8 576.8 568.4 552.6 543.7 540.6 530.7 527 523.9 531.2 535.4 539.7 544.2 545.6 546.2 543.7 540.9 538.3 533.4 520.2 526.5 554.6 581.8 607 627.7 637.4 640.9 646.2 630.9 603.1 568.9 554.2 531.9 531.3 529.3 524.8 525.4 529 528.9 539.5 545.5 551.3 559.6 566.2 570.3 584.4 591.7 596.5 600.1 594.9 593.3 584 566.5 550.1 551.9 571.3 584.7 594 605.1 613.4 617.6 615.9 605.1 602.4 600.2 588.4 577.2 566.9 546.1 533.7 504.6 476.8 455.5 434 414.2 399.4 387.7
376.7 379.3 382.4 389 395.6 400.7 402.9 404.4 408.2 410.5 416.3 420.5 425 431.9 433.1 434.1 435.7 439.6 447.3 451.2 453.5 456.4 462 466.2 466.8 467.6 470.6 476.1 477.3 479.7 479.5 484.6 495 499.3 505.2 510.4 514.5 520.9 526.2 528 532.3 536.7 538.3 539.9 540.5 539.6 535.2 529.6 520.4 511.7 503.4 493.2 485.9 477.4 469.2 461.3 450.9 440.9 430 419.3 415 410.9 408.7 403.2 396.1 383.6 367.7 364.3 392.1 419.6 445.5 462.3 478.6 488.8 499.3 510.5 517.6 523.8 532.4 536.1 536.4 531.5 533 533.9 536.3 540.2 543.9 548 556.4 564.9 570.8 579.8 587.7 594.7 602.1 610.7 618.1 624 630 634.9 638 641.4 641.6 648.4 653.7 656 661.5 663.4 666.8 670.8 673.4 676.3 679.1 680.4 682.5 686.3 688.4 685.8 685.9 683.4 664.9 643 619.6 591.9 574.1 564 547.2 542.4 535.7 525.1 520.1 519 524.3 527.1 530.9 537.8 541.2 534.8 535.5 534.7 532.6 526.2 510.9 527.4 552.7 577.7 599.3 616.1 623.5 619.6 607.2 596.6 562.3 538 518.8 508.2 495.4 493.3 489.3 489.4 490.5 493.6 505.2 511.8 521.2 531.4 534.5 540.4 557 563.7 570.6 574.1 573.8 574 562.6 544.3 522.1 539.8 557.1 568 579.8 586.8 590.7 589 581.6 571.9 562.5 559.8 549.4 539.1 525.2 514 490 472.7 450.1 430.8 413.7 397.8 385.5 376.5
375.6 380.7 382.2 388.3 393.3 398.9 401.6 399.9 404.3 406.8 409.1 412 422.6 425.7 430.6 430.4 431.5 435.6 441.9 446.4 449 452.5 455.1 460 461.2 463 465 472.2 475 477.7 478.6 480.6 487 493.3 498.6 505.3 511 514.8 517.4 520.9 523.8 527.7 531.2 534 534.6 533.7 529.5 522.7 513.7 506.6 497.1 486.7 481.7 471.9 461.5 451 442.8 433.6 422.3 411.3 404.2 399.6 398.4 390.7 379.4 367 349 363 394 422 447.7 466.1 484.2 494.7 509 522.7 527.2 527.2 535.9 536.1 539.1 536.1 539.4 539.6 543.2 546.3 551.9 556.1 559.1 564.2 572.2 577.1 585.1 592.1 601.3 608.9 614.6 619.8 625.8 629.4 630.2 632.9 634.7 640.6 645.2 647.8 651.5 652.6 655.8 657.9 658.6 662.9 666.1 670.2 673.2 676.9 679.3 678.4 681.2 675.7 663.2 645.2 614.9 593.3 573.5 555.7 541.5 534.5 530.8 527.6 519.6 514.8 515.8 519 519.7 527.8 529.1 530 528.9 526.8 525.3 517.9 498.4 525.1 549.4 570.5 589.5 602.4 603.9 601 567 554.7 531.2 514 493.8 480.2 469.5 463.7 459.1 457.8 460 467.3 474.4 480.8 489.2 498.8 502.3 511.3 519.5 528.8 536.5 540.6 546.6 548.3 540 524.6 500.2 521.1 534.2 547.5 553.5 555.8 557.4 555.9 548.3 538.4 527.3 522 514.5 501.6 490.2 477.1 460.6 443.9 426 411.9 395.1 383 376.8 367.5
381.2 376.7 380.3 387.8 391.5 391.8 394.9 393.5 397.2 403.4 403 406.9 417.3 420.9 424.7 426.6 427.4 430 436.1 442 444.3 448.2 450.2 453.5 457.4 462.3 464.1 466.1 472.1 471.9 474 476 479.4 486.2 493.6 499.5 502.9 507.6 510.4 514.6 518.3 520.3 523 526.1 526.3 525.6 522.4 516.2 506.7 499.4 490.4 481.2 474.9 464.4 453.8 443.8 435.3 426.6 414.5 403.5 392.9 387.9 384.7 377.9 365.1 347.9 342.5 368.4 396.6 428 456.1 473.6 487.6 501.8 514.1 528.5 533.8 533.7 540.8 540.9 540 539.2 544.1 544.7 548 551.5 556.4 562.1 563.2 570.3 575.8 580.6 585.6 593.1 598.5 605.4 610.2 615.5 619.6 622.2 623.7 624.6 628 634.1 638.3 639.6 642.7 643.7 646.3 648.8 647.6 650 652.4 657.1 662.1 665 667.4 669.8 669.6 664.3 654.1 638.3 619.6 599.2 572.1 549.8 538 531 524.4 520.7 515.4 510.9 512.9 512 514.9 516.5 522.5 521.5 522.3 522 521.5 511 492.3 520.8 546.5 563.4 576.4 578.2 569.9 560.6 531.9 519.5 503.1 482.1 468.8 457.7 447.5 443.7 436.9 435 435.9 440.6 451.2 453.5 461.9 473.2 473.7 481.1 489.5 495.5 501.9 506.4 509.8 516.4 516.6 502.2 479.5 497.3 508.3 513.6 517.7 521 522 517.3 509.8 502.9 495.4 482.9 477.1 467 455.1 445.4 431.4 418.1 403.8 389.3 378.3 371.7 366.3 358.5
387.2 381.1 372.8 382.1 388.2 387.2 390 392.5 392.9 396.8 397.3 403.5 408.7 416.2 418.2 419.9 421.5 426.4 431.9 438.8 440.1 443.3 447.2 450.8 454.6 458.2 462.1 459.8 465 465.8 465.1 467.4 471.6 480.1 487.2 492.4 496.4 500.6 502.1 507.9 510.6 514.2 515.1 515.9 519.7 518 516.6 508.2 497.8 492.6 482.4 473.2 466.4 459.1 442.6 430.7 424.4 415.4 403.7 392.1 379.3 372.5 368.5 360.8 346.9 327.9 350.2 376.8 403.3 434.6 464.5 481 491.4 511.9 521.5 532.6 538 540.5 543.9 545.5 544.6 543.7 554.6 552.3 549.9 554.9 560.5 565.9 567.3 575.1 579.1 581.3 584.4 590.6 595.7 600.5 604.8 610.9 613.7 616.1 617.5 618.3 623.2 628.1 629.4 630.1 633.3 632.8 636.3 638.1 636.8 638.4 640.8 645.7 651.4 654.7 657.3 658.7 658.9 657 643.5 632.1 617.4 592.3 572.5 550.2 534.6 528.1 523.4 519.3 505.6 503.3 504.9 507.1 507.3 505.1 508.5 511.1 510.5 513 512.3 502.8 490.3 521.3 539.4 552 556.1 552.4 536.6 514.5 500.5 486.2 476 459.4 442.1 435.5 431.4 426.2 419.7 413.6 416.3 419.4 423.5 428.9 436.5 444.1 448.8 454.3 462 467.2 469.9 471.5 479.2 482.5 485.3 474.4 460.6 473.3 480.4 482.5 485.2 484.9 483.5 480.1 473.2 464.3 459.1 449.1 441.3 434.8 426.1 414 403.3 394.3 379.8 370.6 361.9 357.1 353.2 352.6
389.8 386 379.5 370.1 379.1 383.5 385.8 388.1 389.6 393.2 395 399 403.9 412.5 414.6 418.2 419 421.9 429.2 429.3 437.4 441.8 445.5 449.6 452.9 457.7 461.6 459.2 456.7 461.5 459.5 460.6 466 475.2 480.9 484.5 488.2 493.7 499.6 500.8 504.8 507.9 509.4 512.5 513.2 510.4 508 502.3 492.4 482.7 472.7 462 457.2 447.3 433 420.7 410.1 402.4 391.2 377.2 365.1 352.3 350.7 340 326.2 327.9 356.7 382.1 410.4 446.2 468.5 481.9 493.7 514.2 522.2 533.7 539.9 543.7 549.6 549.3 548.7 550.9 556.1 555.8 554.7 558.5 560.8 567.4 568.5 573.7 577.5 580.7 582.4 587.2 592 597.4 602.6 605.2 607 610.2 611.1 611.7 615.1 617.5 619.4 620.5 621.8 621.7 625.5 626.5 626.4 628.3 631.3 635.5 639.5 641.5 645 646 646.9 643.3 636 626.6 610.3 594 566.4 545.7 530.2 522.9 517.8 513.7 503.3 495.6 493.7 498.1 496.8 496.1 497.4 500.2 501.8 503 500.7 484.8 492.4 516.6 532.5 532.5 521.4 518.8 511.8 481.1 474.6 462.6 449.5 436.9 420.8 415.3 411.4 407.6 403 401.2 399.1 400.9 399.7 406.6 414.1 419.7 420.7 427 434 440.5 444.4 446.1 446.4 450.6 451.5 447.3 437.4 449.4 454.5 456.7 454.1 450.9 447.5 445.4 438.8 432.5 425.8 418.5 409.2 403.6 395.5 386.3 376.3 369 361.3 354.1 351.1 348 347 346.3
387.1 384.3 382.8 378.6 365.3 375.4 382.7 387 385.7 388.5 391.5 396.2 397.6 405.5 411.9 415.7 417.5 420.2 423.2 425.7 432.7 438.3 439.3 445.6 448.7 453.6 456 456.1 451.8 454.5 456.5 458.2 462 470.4 476 479.8 483.3 489.2 492.3 495.2 498.9 502.3 504 506.1 503.8 502.1 500.2 492.9 483.9 472.7 464.4 453.3 442 434 420.7 408.1 397.4 386.8 375 360.9 348.8 337.7 331.8 320.3 308.9 334.3 360 387.8 415.4 447.9 471.5 484.2 495.9 512.6 525.5 537.3 538.8 548 552.2 552.9 553.5 555.2 556.8 557 557.8 559.2 561.1 566.6 568.5 571.8 576.5 579.2 582.3 585.4 588.7 593.4 597.5 599.1 602.8 604.9 606.3 605.9 607.1 609.6 612.1 610.8 611.8 609.3 614.2 615.5 615.5 617 621.4 626.4 629.7 630.6 633.3 634.3 633.8 631.8 629.1 619.3 606.7 586.8 556.7 536.4 525.2 512.5 507.2 500.7 496.5 485.9 480.5 481 482.5 487.9 489.3 487.7 488 487.4 487.5 470.8 489.7 504.2 511.7 504.7 490.1 475.3 468.9 455.2 445.2 436.8 426.3 415.9 405.8 398.2 393.8 393.4 393.2 390.6 389.2 387.8 387.9 391.1 395.9 400.2 402.5 407.5 413.5 414.3 420.4 421.3 425.5 422.5 422.2 421.5 424.3 427.2 429.5 430.9 426.7 421.9 419.7 413.1 408.5 402.1 395.8 391.8 384.7 378 373.1 366.1 357.6 352.2 348 344.3 342.8 342.7 342.5 348.1
383.1 379.8 380.8 386.9 375.5 359.2 374.6 381.6 381 382.6 387.4 390.9 395.7 399 407.2 414.4 415.4 416.5 421.2 422.7 428.1 430.4 433 436.4 442.5 447.1 449.7 450 446.8 450.2 453.6 452.8 457.7 463.4 467.4 475.7 478.7 483.4 487.7 491.3 493 495.1 497.4 497.9 498.5 496.8 491.9 484.4 471.9 460.5 450.3 440 428.2 413.5 404 394.7 382.1 365.8 355.7 343.9 332.4 319.7 313.7 301.7 314.6 335 362.1 387.8 414.7 442.1 463.4 479.4 493.6 509.4 524.3 532.7 539.6 545.3 550.8 551.2 555.6 557.8 556.2 556.9 557.2 559.1 562.6 566.4 568.8 571.2 574.5 577.7 580.1 583.9 587.3 589.5 591.9 595.1 597.3 601.5 601.4 601.1 600.7 601.2 602.6 601.9 602.2 600 604.8 605.5 604.6 607.1 611.7 617.6 620.8 620.2 622.9 621.6 620.4 619.9 615.9 610.6 600.4 579.4 548.9 526.1 517.8 504.8 494.1 483.2 479.5 472.1 470.7 470.3 471.6 477.2 474.8 474.5 476.9 474.2 470.7 465.6 483.3 488.5 486.3 477.8 461.2 446.3 436.9 429.9 419.8 414.9 407.8 401 396.9 388.1 383.5 382.3 381.9 381.3 380.7 377.3 379.4 376.8 378.9 380.7 384.9 389 389.7 394.6 399.1 404.2 401.4 403.3 404.4 402.7 403.8 408.7 408.3 407 401.4 401.6 390.3 390.2 379.5 375.5 370.9 369.5 360.7 356.5 351.5 347.1 342.7 340.1 339.2 338.1 337.3 338.8 340 348.9
379.4 377.5 375.3 374.2 376.1 369 361.8 371.9 373.8 374.5 377 387.2 391.3 393.3 399.2 408.1 412.6 412.5 418.2 418.6 419.6 423.6 427.2 429.9 433.7 437.8 442.8 442.2 441 444.6 447 447.8 450.2 455 461.8 468.5 473.2 477.5 479.4 483.7 486.1 488.3 491.4 492.3 491.4 486.7 479.8 472 459.3 451.3 439.9 427.8 404.4 397.2 389.7 377.7 364.2 348.5 337.4 325.6 313.8 307.3 297 300.9 314.1 333.4 354.9 378.5 407.2 431.4 451.9 473 489.9 503.6 517.2 527.2 533.9 541.8 546.8 549.5 552.9 557 556.5 556.6 558.5 560.6 563.4 565.3 569.8 571.5 574.5 575.5 581.6 582.3 584.7 586.6 589.6 592.4 594.7 596.1 596.5 595.5 596.3 594.3 593.4 593.2 593.6 591.6 595.5 595.6 593.6 597.9 602.9 607.8 610.2 610.6 611.6 609.3 607.9 605 600 594.7 580.2 559.2 532.6 512.6 500.9 490.8 480.5 467.8 463 460.6 456.1 458.9 461 465.2 464.4 462.6 463.9 465.1 461.5 459.1 470 464.2 462 450.1 435.9 425.2 415.6 406.8 401.5 397.9 395.3 388.3 386.8 386.8 386.3 384 381.9 379.6 377.1 377.5 374.9 372.8 371.3 371.2 373.9 374.3 373.7 373.9 378.1 378.2 377.5 383.7 384.2 388.1 386.3 395.2 390.9 385 384 376.2 368.5 364.1 357.7 358.4 353.8 350.9 347.1 340.7 337.1 334.5 335.3 335.4 333.4 333.7 333.6 335.2 343.8 344.7
368.8 368.7 370.3 366.6 367 366.7 353.9 360.3 367.2 364.4 370.4 379.6 387.7 388.5 392.9 405.3 409.4 409.8 413 413 415.9 418.2 423.7 424.8 425.6 434.6 434.3 434.2 436 441.3 441.9 441.2 445.7 450.1 455.8 459.2 469.9 473.3 475.3 476.4 480.1 483 483 485.4 486 480 473.1 464.4 452 439 426.8 413.6 399.2 381.1 371.8 357.5 347.3 336.4 318.2 310.3 302.8 292.9 288.6 308.9 324.9 336.5 347.2 377.7 405.4 430.3 451.8 472 487.8 499.4 510.8 522.9 534.2 539.2 541.3 545.5 549.8 554.1 555.7 556.9 558.5 559.2 561.4 564 567.9 568.2 571 574.3 578.9 582.5 583 584.7 587.4 589.2 589.7 591.2 590.9 589.5 590 586.8 584.6 584.2 584.8 584.1 586.9 585.7 586.4 590.3 594.9 597.7 598.1 599.5 599.1 597.9 595.5 591.8 583.7 571 553.9 531.3 513.9 504.4 489.4 477.7 468 461.5 454.3 451.3 446.3 446.1 451.5 454.9 455.4 455.8 455.2 453.2 449 449.5 454.9 441.9 436.2 427.4 415.2 408.9 405.5 398 394.2 393.9 394.2 395.9 394.9 396.8 397.5 396.9 395.1 391 390.6 385.4 380 375 373.2 370.5 370.8 369.4 365 363.3 367.2 364.3 367.1 371.9 374.1 375.6 373.9 376.6 374.3 366.8 363.4 359.9 353.4 349.1 343.7 341.2 340.9 339.5 336.4 331.6 327.5 328.4 328.6 328 331.6 330.5 334.1 339.1 342.7 347.1
365.6 364.6 365.9 366 363.4 360.8 356.9 349.8 357.5 356.9 367.9 370.5 378.3 383.5 388.5 397.6 403.1 404.1 408.7 409.5 409.7 410.8 414.8 418.6 421.4 425 426.7 425.3 429.5 434 435.7 439.1 441 445.7 450.6 456.8 463.4 467.1 470 471.1 478.1 480 480.9 482.1 477.8 474.2 464.2 453.7 446.2 429.9 415.7 398.9 387.5 373.4 353.8 344 331.9 323.5 310 294 285.5 276 297.9 312.1 329.1 346.9 365.8 383.5 392.6 424.9 448.8 468.5 483.6 496.1 504.5 517.2 529.6 536.7 539.1 542.8 547.2 551.7 554 556.4 558.5 558.3 563.9 564.7 565.3 566.4 568.8 570.9 575.5 578.5 580.1 582 583.5 585.4 585.1 586.4 585.9 584.4 583.6 582.8 579.9 577.7 575.7 577.2 578.5 576.8 574.7 581.7 585.1 586.9 586.5 586.7 585.9 586.1 583 579.3 568.2 552.3 534 516.5 502.4 492.5 474.2 463.8 454.5 448 446.1 442.1 440 439.4 443 444.5 446 446.4 447.7 447.7 436 431.8 435.1 429.3 423.1 415.2 406.1 401.6 400.6 397.1 401.5 403.7 405.7 407.3 408.3 409.7 408.1 406.5 404 400.5 397.2 391.7 386.3 382 376.3 372.4 368.3 366.6 366 367 362.2 356.7 355.8 359.1 364.5 365.7 357.5 355.9 358.8 354.1 347.4 343.5 342.3 335.6 333.1 332.5 332.7 331.3 331 324.9 326.6 328.2 331.7 333.1 334.9 338.6 343.6 347.4 352.2 358
365.4 363 368.3 368.7 359.9 355.5 350.7 343.9 345.8 352.5 358.4 363.8 368.6 376.1 381 386.2 392.6 397.9 397 399.9 399 402.1 408.5 412 411 414.5 413.4 419.4 422.9 427.6 428.5 433.2 437.8 437.2 441.6 449 456.4 461.4 464.6 466.7 472.2 473.4 476.2 476.7 472.9 463.1 455.3 442.7 429.8 417 405 389.1 375.5 360.6 347 328.3 319.4 312.2 300.4 287.1 273.8 285.6 301.4 318.5 336.3 354.8 375.3 395.6 416.3 430.8 437.8 457.6 473.5 489.2 499.1 508.4 521.7 530.5 535.4 540.9 545.8 549.2 552.5 555.7 557.9 560 563.7 565.6 565.9 568 570 574.6 576.9 576.3 578 578.6 581.8 582.3 583.8 582.8 582.4 580.5 579.9 576.1 572.2 570.7 564.6 569 570.6 567.9 568.5 572.8 574.8 575.9 575.3 573.9 574 570.6 568.2 562.1 554.1 537.6 519.7 504.5 490.9 477.2 463.2 450.8 443.7 439.2 436.2 435.7 435.9 435.9 438.7 439.9 440.1 443.2 439.9 442.6 431.8 426.3 420.9 418 413.9 408.4 408.4 410 410.5 412.7 413 415.9 420.3 419.7 421.3 425.2 421.2 417.7 415 409.5 404.6 400.2 394.1 386.8 382.4 378.9 371.7 370.5 370.4 365.9 363.6 350.1 347.3 349.3 354.7 356.3 346.6 343.2 340.3 340.1 338.9 336 333.1 327.5 326.6 325.4 328 329.7 328.7 324.7 326.6 329.2 333.7 335.7 339.1 342 347.7 353 360 366.7
359.1 358.8 358.4 357.9 355.1 350.9 347.7 343.7 343.5 354 354.6 358.9 363.4 370.6 379 384.4 392.2 392.4 394 394.7 396 393.8 394.1 398.8 401.6 403.1 405.4 409.2 416.9 421.8 422.6 426.6 428.7 430.5 437.2 443.2 449.1 452 454.6 460.4 465.6 468.8 467.1 465.8 458.8 451.9 443.5 429.1 417.7 404.8 392.2 379.1 361.9 350.8 333.9 319.2 306.7 297.5 287.4 275 270.5 291.6 310.7 326.5 340.6 363.5 383.9 404 424.9 441.3 454.5 459.8 457 478.7 491.2 502.4 513.5 521.3 526.7 535.7 543.9 549.2 551.5 554 558.4 560.5 564.4 564.9 565.4 568.1 571.4 575.3 576.5 575.7 575.6 577.5 578.7 580.4 579.9 578.8 578.7 574.6 573.4 570.1 569.2 563 559.1 563.7 563.5 560.6 557.3 562.7 564.3 565.5 565.5 562.9 561.3 556.9 552.9 543.9 541.7 524.2 511.5 496.3 483.3 467.6 456.1 445.3 438.6 436 433.6 432.5 432.8 434.2 436.1 436.8 438.7 440.9 440.1 434.8 430.6 426.8 422.3 417.9 417 422.2 424.6 422.5 423.7 425.4 426.7 431.4 435.9 438.2 439.4 442.6 439.6 435.1 428.6 422.6 415.5 408.6 400.8 395.3 387.9 383.7 378.6 379.4 375.3 368.2 364 357.4 350.7 341.3 347.9 347.4 337.5 332.3 337.7 337.3 334.5 329.8 320.6 320 315.5 320.9 321.9 322.7 323.1 325.8 329.2 334.4 336.8 340.4 342.3 350.1 354.2 360.7 366.2 373
354.5 353.6 350.3 348.8 347.2 346.9 341.3 337 344.7 349.7 352 355.3 365.8 369.9 373.7 379.2 388.4 388.7 389.6 389.5 390.7 390 388.2 389.3 389.2 392.4 397 403.2 406.4 411.1 412.5 415.9 420.9 422.2 427.3 434.8 440 443.7 450.3 455.6 456.5 456.5 457.1 454.8 451.5 445.3 432.4 417.9 404.3 391.7 374.4 362 350.9 337.8 322.5 304.2 294.9 286.8 276.8 265.9 282.8 299.6 314.5 332.2 350.9 372.2 390.8 412.4 432.3 449 460.8 469.4 479 480 490.2 496 512.1 522 530.6 537.3 542.5 548.3 553.6 556 557.9 559.1 561.9 565 567.1 568.5 571.5 573.1 574.6 575.7 574.7 577.5 579.2 578.1 578.1 577 573.8 571 567.6 563.3 560.8 559.3 555.9 556.5 558.9 557.6 550.3 554.3 557.6 557.6 556.8 554.1 549.2 543.4 537.4 530.4 524.8 514.7 501.8 490.2 476.3 463.9 450.4 442.2 435.1 431.9 429.7 431 432.2 432.6 437.5 440.7 444.3 447.4 446.9 442.8 442.2 441.2 438.2 435 439.3 439.4 441.1 441.1 442.9 441.1 447.7 449.1 454.7 463.5 468.9 466.8 468.6 459.8 450.6 441.1 428.1 417.8 408.7 399.2 391 385.6 380.5 380.4 375.8 370.2 364.8 352.9 341.9 334.4 334.6 336 328.9 322.9 325.1 327.2 325.5 319.1 312.6 318.3 322.7 321.9 325 328.5 332.4 336.2 338.1 341.6 344.2 348 352 360.2 364.4 370.8 379.1 387.9
352.3 350.4 347 344.6 345 346.4 335.8 341.3 344.3 347.2 350 356.7 366.7 367.7 369.3 370.3 375.7 381.4 380.5 385.6 386.1 386.5 383.6 385.2 383.5 385.5 392 393.6 396.9 402.8 402.9 405.4 410.6 410.3 420.7 429.5 429.3 434.3 441.5 446.9 448.1 446.4 446.6 445.7 440.9 431.8 420 405.2 393.8 380.4 368.8 352.8 331.2 325.6 308.8 297.3 287.4 275.5 266.8 272.1 289.1 306 325.4 343.4 363.8 382.8 402 420.6 437.3 456.3 467.6 475.2 483.3 491.3 500.3 507.8 515.2 522.9 531.6 539.1 544.2 548.5 554.8 560.3 561.1 563 564.2 564.8 566 568.2 571.5 573 574.7 574.4 575.1 574.2 576.7 575.4 574.6 573.3 573.2 570.2 565.1 559.5 555.4 553.9 552 548.8 553.9 552.1 547 549 551.6 552.7 551.5 549.5 544.6 537.3 527.4 519.9 512.8 506.4 494.6 483.3 469.5 454.3 447.6 441.1 432.1 429.8 427.3 430.2 430.7 434.4 441.1 447.5 452.7 455.4 459.1 460.1 458.7 460.8 461.5 461.1 460 459.8 465.8 468.2 465.2 465.8 472.4 477.7 478.9 488.8 496.9 494.4 491.8 488.4 475.9 468.8 444.7 428.6 412.2 399.7 389.8 385 381.3 378.5 373.7 365.5 352.1 343.8 336.2 327.6 318.3 322.7 319.5 316.6 317.4 325.2 317.3 311.3 315.5 320.7 325.7 328.4 331.6 336.8 341.7 344.8 349 353.5 356.1 361.3 368.2 370.5 375.2 379.9 390.7 395
350.6 349.2 349.3 345 342.4 339.5 337.2 334.5 339 342.4 349.1 351.7 355.5 361.5 364.8 366.9 368.9 373.7 375.8 378 381.1 383 380.6 378 382.1 383.8 384.7 386.6 393.4 393.7 398.9 400.8 401.5 408.8 417.6 421.5 423.3 428.7 434.6 436.4 435.7 437.6 440.4 436.7 430 421.2 411.9 399.8 385.4 371.5 357.1 342.9 328.2 308.4 298.5 280.6 278.2 264.8 263.5 281.2 297.3 318.6 335.7 355.1 377.3 398.5 419.7 435.2 451.6 464.9 479.4 485.2 491.6 499.3 509.7 515.5 519.4 526.2 533.2 540.6 550.3 556.3 562.6 567.1 568.7 570.5 569.7 566 564.8 566.3 571.1 571.4 573.7 573.7 574.8 574.5 574.2 573.4 572.6 571.3 569.5 567.5 562.7 555.3 551.4 549.4 547.7 548 542.4 546.6 544.2 544.3 545.7 546.6 547.3 543.2 536.5 528.4 522.2 512.8 504 497.3 490 478.6 465.2 454 443.5 437.3 431.5 428.9 426.7 428.4 435 443.5 449.3 457.1 463.1 469.8 471.7 477.8 480.7 481.3 486 488 484.7 482.3 487.9 491.8 494.3 494.6 495.4 500.8 507.7 509.4 514.7 513.1 513.5 508.9 498.6 481 456.4 428 410.6 395.5 387.6 383.9 380.4 377.9 372.4 362.8 346 336.5 330.4 323.1 313.9 315.8 312 311.4 308.4 308.4 313.8 316.7 324.1 324.6 331.7 337.1 342.1 347 352.4 356.6 362.1 365.6 370.4 374.7 378 381 386.8 391.2 399.7 409.1
348.1 346.1 346.3 344.4 342.8 342.9 339.7 334.4 330.1 338.6 346.7 349.6 353.8 356.7 358.3 363.6 364.5 366.3 370.2 372.5 374.8 376 376 372.7 376.9 378.9 381.2 383.7 388.8 387 391.7 389.2 396.2 404.9 410.8 413.7 417.2 418 422 430.3 428.5 427.8 425.7 423.6 418.4 411.2 401 387.2 376.1 361.8 346.9 331.2 315.9 300.2 288.5 279.4 262.5 258.6 272.4 288.5 306.6 328.8 347.5 369.6 391.7 415.8 436.2 452.7 464.8 483.2 490.4 497.2 504 508.9 519 525.5 532 536.1 545.2 550.6 558.6 565.1 570.9 576.6 577.4 579.1 575.6 570.1 570 568.9 572.6 571.8 572.6 573.4 573.6 574.1 573.3 571.8 570.6 567.2 567.1 562 556.8 551.5 547.7 542.7 544.4 544.5 543 539 538.7 538.7 539.8 542.1 542.9 538.6 532.6 526 517.9 509.2 499 490.1 485.9 476 464.8 451.6 441.8 434.1 428.2 423.3 430.8 434.5 439.7 449.2 458 465.2 472.4 481.2 487.6 496.1 498.8 501.6 507.2 512.3 511.1 507.5 507.3 513.7 512.1 514.7 519.2 522.4 526.9 529.1 533.5 533 522.2 515.4 507.7 486.7 453.4 426.2 405.2 392.5 387.8 384.1 381 375.9 370.3 357.2 344 333.4 323.1 317.7 307.8 311.5 304.4 301.6 309.4 315.8 316.7 324.3 332.2 337.3 342.7 350.1 357 362 368.4 371.4 374.4 379.9 383.7 389.2 393.1 399.2 404.6 408.4 419.3 433.1
346.3 344.4 344.6 343.2 341.4 342.2 340.2 338.9 329.2 332.4 340.3 342.7 349.1 350.1 354 362.3 361.1 364.2 365.9 366.9 368.7 368.6 368.5 371 370.9 372.2 376.8 379 379.6 379.9 380.2 380.8 390.1 395.3 400.6 408.2 412.3 414 417.4 418.3 416.5 416.7 417.5 411.2 407 399.9 387.8 377.5 366.7 353.3 337.5 321.1 304.9 288.7 278.5 267.7 252.6 264 280.4 298 320 338.7 357.3 381.2 406.5 432.8 447.5 463.6 478.2 494.6 499.5 504.2 512.8 517.8 530.4 540.3 547.2 552.4 556.3 563.1 569.2 578.3 582.6 586.2 585.5 584.3 579.4 574.3 574.7 575.1 576.1 574.1 573.9 573.5 574 573.6 573 571.5 569.2 565.6 561.7 558.6 552.8 548 544.4 538.2 538.4 538.6 537.5 532.8 535 533.8 537.7 540.3 541.5 540 535.9 530.5 523.1 512.7 501.9 492.1 481 466.8 462.7 447.5 436.8 428.6 424.4 420.8 430.5 434.4 444.6 457.2 466 474 483.1 493 504.5 509.8 515.5 519.6 523.7 531 531.9 527.8 529.1 531.9 532.9 534.1 539.8 542.8 543.1 544.5 548.7 546.7 536.7 520.3 497.9 478.3 451.1 423.9 407.6 395.6 389.1 384.6 378.9 367.6 361.8 351.5 338 326.3 318.7 309.8 304.8 302.1 295.7 305 312.6 318.7 322.8 331.2 343.9 353.3 364.1 367.6 374.6 379.4 383 386 389.2 394.7 400.8 405.9 412.3 419 428.1 432.3 446.8 460.3
337.9 338.6 342.1 339.7 338.6 337.8 337.4 336.3 329.9 327.3 332.1 335.6 345.1 347.7 353.1 359.3 357.2 362.2 363.9 363.7 363.6 365.8 361.9 364.3 363.3 367.1 370.3 372.1 373.4 371.4 375.1 377.3 380.1 389.4 394.1 403.6 404 403.5 409.8 410.2 406.8 406.1 404 399.7 395.8 388.6 377.1 365.4 352.9 342.8 325.5 309.5 292.2 276.4 268.5 257.4 258.6 274.3 290.4 310.7 329 345.4 367.7 390.1 419.8 443.6 457.2 473.6 489.7 502.2 507.3 512.5 521.6 532.7 547 557 561.5 566.7 571.7 577.8 582.2 588.2 592.5 592.5 588.6 587.7 584.6 580.9 577.8 578.6 576.7 575.3 573.2 573.4 573.5 573 570.4 566.7 566.5 563.1 557.7 553.8 549.4 542.7 539.5 536.6 536 534.2 531.8 529 531.1 532.3 535.3 539.9 542.7 542.2 540 534.3 527 515.6 502.7 490 477.7 466.9 455.2 444.1 430.6 423.4 423 421.7 428.1 436.9 452 464.4 478.7 490.7 499.9 511.4 516.5 525.6 533.9 539.7 544.6 550.2 551 554.6 555.2 555.5 553.2 554.5 556 559.9 564.1 564 554.8 552.6 539.1 522.7 502.1 475.1 447.6 422.6 411.6 397.9 391 384.9 377.4 364.6 355.2 345.5 332.5 321.2 313.2 304 294.6 296.4 299.4 309.6 319.3 324.2 332.7 343.8 355.5 368.2 379.9 386.6 384.5 395.6 398.5 403.9 407.2 412.7 420.9 426.8 434.6 443.6 451.6 461.7 484.5 501.2
330 334.9 335 335.5 338 332.6 333.7 332.9 330.7 320.6 323.3 327.4 337.5 337.9 344.9 351.5 353.7 354.9 357.6 359.5 356.7 356 358.3 357.8 361.1 363.4 366.1 368.7 366 362.2 365.4 370.1 375.7 381 384.7 388.6 390.4 393.4 396.4 397.1 396.8 393.7 392.7 388.2 385.5 374.6 365.3 353.9 341.4 326.3 310.1 297 279.6 268.3 259.7 252.9 269 283.8 303 322.3 342.3 359.8 379.9 401.8 431.5 451.5 466.3 481.5 496.9 506.5 518.9 524.5 536.7 548 563 571.5 577.8 577.6 583.2 588.6 592.2 596.7 599.7 597 596.7 594 590.6 585.7 581.9 580.4 580.7 578.2 573.3 573.7 573.8 573.1 570.2 564.1 563.2 559.7 555.7 551.4 546.1 540.7 536.2 533.8 529.7 528.5 525.4 522.9 525.5 529.1 533.8 539.9 544.9 545.2 543.2 538 529.8 516.4 504.2 491.9 475.8 464.3 451.4 437.5 425 418.8 415 418.8 427.5 441.3 460 474.9 494.2 509.6 523.4 535.3 539.5 548.6 552.8 561.3 567.1 571.5 574.8 574.6 578.9 576.1 577.8 581.4 580.2 587.5 587.5 582.4 573.1 550.4 533.5 514.8 497.8 469 440.8 425.1 411.7 401.6 390.7 383.3 371.4 359.3 349.4 337.3 324.8 315.5 306.3 297 288.5 294.1 306.7 315.8 326.6 334.5 344.1 354.4 366.9 384.1 391.6 399.3 404.3 409.6 415.3 419.9 427.8 434.6 440.4 451.9 461.1 470.6 480.6 497.4 518.9 539.8
322.7 327.6 325.9 326.8 328 328.2 329.3 329.7 326.2 322.3 318.5 321.5 325.7 329.9 338.2 345.8 350.7 353.5 354 353.2 352.9 351.5 357.3 354.5 356.4 355.6 354.9 358.2 356.8 355.8 358.7 361.7 364.4 373.5 377.3 382.7 385.9 384 387.4 386.6 380 381.2 381.6 374.5 369.5 363.6 351.8 342 329.5 315.1 302.3 283.6 268.8 260.8 249.8 260.1 279.1 298.3 315.1 335.5 354.6 372.6 392.6 415.5 439.7 459.7 470.9 486.5 501.6 514.4 526.4 537.4 547.8 557.6 571.9 579.7 584.4 585.1 591.1 598.6 599.3 603.6 603.9 605.7 600.5 600.2 600.6 591.5 588.6 585.9 583.4 578.2 573.5 574.2 572.6 572.8 568.4 562.9 560.7 556.7 553.2 548.4 542.2 538.6 532.1 529.3 529 523.9 520.6 520 524.2 529.6 535.5 540.9 547.1 548.2 546.3 539.5 529.8 517.1 503.3 490.3 475.5 460.6 447.6 435.9 422.4 416.1 410.3 417.6 430.5 449.8 467.2 489.1 510.6 530 545.3 554.2 560.4 565.4 573.8 586.4 597.1 602.4 602.3 602.4 601.4 600 602 599.1 595.5 600.3 603.8 594.5 579.1 561.4 526.5 500.8 482.5 460.3 438.2 426 413.9 401.9 388.8 376.5 365.5 356.6 346.1 334.2 321.3 309.6 301.1 288.3 291.5 297.8 309.2 320.2 336.6 344.7 358.4 370.3 382 395.3 402.8 411 418.2 423.2 430.7 440.5 448.3 455.3 465.4 480.4 489 502.9 517.8 538.7 559 585.4
319.1 318.7 320.9 323.3 322.1 325.8 326.4 325.7 321.9 318.9 316.1 312.8 318.4 324.4 333.1 343.1 343.2 346.2 348.7 348.9 346.9 345.6 348.3 349.4 342 344.5 345.9 348.8 348.7 348.3 352.6 351 350.6 359.1 367.2 370.9 372.3 371.5 373 373.8 368.8 372.8 369.2 363.4 356.1 351.3 338.6 327.9 317 305.7 284.1 271.6 255.9 244.1 253.3 273.8 290.7 310.7 329.9 350.4 370 390.8 408.2 429.5 448.6 467.1 478.9 490.4 505.3 519.4 529.2 542.2 552.5 560.7 571 580.9 586 591.7 596.8 603.4 603.5 606 607.9 609.5 608.7 605.3 607.3 599.4 595.5 592.1 586.1 578.5 572.9 573.4 573.9 572.2 566.1 560.9 555.7 552.7 548.8 544.7 537.8 531.4 527 525.2 523.1 520.8 515.8 517.1 523.8 530.9 536.8 544 549.1 551.4 551.2 542.8 532.5 520.3 502.8 488.8 473.4 458.7 447.9 433.9 421.4 412.8 409.6 418 434.9 453.2 479.4 506.1 532.5 548.5 564.4 575.3 578.6 585.4 596.1 607.5 618.5 626.2 631.6 632.1 626 613.3 603.4 594.7 587.8 587.8 589 585.7 574.2 553.5 524 492 468.3 450.9 439 426.2 411.8 397.8 389.7 373.4 362 354.2 344.6 331.7 316.2 301.6 290 287.2 292.7 304.6 317 329.7 344.6 361.6 368 389.9 395.2 404 415.1 421.6 432 441.8 451.6 461.1 471.4 483.5 492.4 508.7 528.8 544.1 558.1 581.9 605 636.1
312.3 314.2 318.3 315.6 316.5 319.8 320.5 319.3 314.9 311.4 309.4 304.8 311 318.8 325.7 334.4 339.4 340.5 341.9 343.4 341.4 338.7 340 339.5 337.7 337.3 339.4 342 340.3 342.1 344.8 343.6 343 348.2 354.7 357.1 359.8 360.3 360 359.1 359.3 360 350.2 350 341.6 333.1 325.4 314.8 302.3 294.4 275.7 260.8 245.5 239.7 262.6 283.2 302.4 321.2 342.5 367.4 389.2 407.3 424.9 440.2 461.1 474.4 485.5 494.5 509.2 523.8 534.4 543.9 556.2 561.6 571.1 579.6 585.8 594.5 600.1 603 604.9 608.8 610.2 611.6 611.5 609.5 610.2 604.6 599.1 592.7 587.9 581 573.8 573.3 572.3 569.1 563.2 559.8 555.2 549.1 546.3 540.2 535.2 529 523 518.4 516.1 513.3 507.8 515.8 524.5 531.7 538.2 545.6 552.1 556.3 554.4 542.5 533.7 523.5 504.4 486.8 475.2 454.6 444.6 429.1 415.8 411.5 409.3 417.5 436.5 459.5 488.1 516.5 549.9 566.1 582.2 592.4 599.3 605.7 614.8 625.8 635.6 642.8 647.6 647.6 633.4 606.6 588.6 579.5 570.9 567.6 564.9 564.6 554.3 537.6 512.2 484.6 464.5 449.4 435.8 423.4 411.9 396.7 382.1 371.9 360.9 349.6 340.4 326.3 313 297.9 286.8 291.5 301.7 310.5 325.3 340.6 354.3 375.1 392.2 397.9 409.5 419.6 431.5 439.4 448.5 462.3 476.2 487 502.9 516.2 526.8 539.9 556.6 587.5 602.3 623.1 644.6 671.4
305 306.8 310.1 310.6 309 311 314.1 309.5 307.6 308.2 303.1 301.1 303.1 307.8 317.2 325.4 330.1 335.1 335.8 334 336.3 333.2 332.7 333.3 333.1 332.3 330 331.9 332 333.1 337.1 335.6 334.9 337.5 344.2 345.3 352.1 345.9 350.5 344.8 348.6 341.4 338.6 336.8 330.4 319.9 310.7 302.7 293.9 273.8 265 252.6 233.8 253.7 276.6 292.9 313.1 334.6 354.9 386.3 402 418.7 432.4 449.1 466.4 478.6 485 495 511.4 527.4 537.3 544.1 552.1 561.3 569.8 580.1 587.5 594.3 599 604 607.4 610.4 613.1 613.6 611.3 608.9 606.6 604.1 598.9 594.3 587.5 580.9 574.1 572.2 569.7 567.1 563.4 560.5 552.9 546.6 544 537.1 532.6 524.5 517.4 512.6 507.9 506.7 504.8 514.2 524.1 531.8 540.1 548.1 556 559 554.3 540.6 531.4 518.9 495.5 480.4 466.9 450.2 438.4 422.9 414.2 407.7 405.4 416.8 439.6 465 496.4 530.7 559.8 578.5 596.6 608.4 613.5 621.8 631.6 642.2 650 655.4 660 653.9 632.9 605.9 583.5 566.5 556.8 550.9 543.2 542.6 535.8 523.8 503.1 477.8 462.2 448.4 432.4 422.9 405.3 392.5 378.9 367.1 350.1 342.6 330.3 319 307 298.2 285 294.5 308.1 319 327.9 343.8 364.1 387.4 408.3 414 424.1 436.6 452.3 457.7 472 492.7 504.3 515.8 532.1 547.8 561.3 569.7 593.6 617.2 639.4 657.3 683.4 712
300.7 300.5 304.3 302.1 301.4 301.9 303.6 308.5 299.6 300.5 300.8 295.7 296.2 298.7 305 313.2 321.4 326.1 326.7 325.7 325.8 326.1 326.4 327.1 327.5 323.6 322.9 324 324.6 326.3 327.8 329.5 324.7 329.3 329 332.6 336.1 337 343.4 335.9 332.4 330.5 327.2 326 315.7 308.4 297.2 289.7 280.2 261.3 250.6 240.8 237.6 263.8 286.3 305.3 324.3 345.4 363.2 388.2 407 422.1 435.9 452.5 466.3 470.1 484.5 494.6 506.2 523.6 534.1 540.8 550 557.5 565.1 573.7 580.9 592.1 594.3 598 604.3 610.2 611 613.8 607.4 605.8 602.4 600.5 594.3 592.5 587.2 580.1 574.6 569.7 566.9 565.9 561.3 559 551.3 546.3 540.6 531 526.1 518.3 512.3 507.4 503.9 500.2 501.2 514 524.1 532.5 541.6 550.6 557.1 557.9 551.4 537.5 523.5 508.6 489.6 475.5 459.2 443.9 431 416.8 409.2 405.8 406.1 419.9 442.5 470 507.4 540.6 568.7 583.2 602.3 617.5 626.6 636.2 646.3 656 663.7 669.4 668.4 650.7 624.7 597.9 578.2 560.9 545.8 537.2 530.4 524.3 517.2 505.7 486.3 470.7 459.3 443.5 431.2 415.9 401.1 389.7 375.3 363.9 350.4 331.7 318 304.4 295.2 287.3 284.3 297.1 313.6 323.3 341 353.5 375.1 393.4 418.2 429.1 443.4 453.4 464.6 477.6 496.8 515.5 527.4 541.9 560.2 576.6 587.8 602.5 629.7 652.4 673.9 699.8 721.3 749.3
289.2 291.4 294.8 291.6 292.3 296.3 296.8 300 298.4 295.7 292 285.8 287.4 292.5 298.7 303.2 308.7 312.8 316.5 315.8 316.7 317.3 318.2 317.2 319.6 317.2 311.5 314.2 315.6 317 321.7 321 313.8 316.5 319.5 321.7 323.5 323.9 328.9 328.7 323.3 313.6 316 312 303.1 294.9 285.3 270.4 262.3 251.2 236.8 226.3 248.1 272.4 293.3 314.6 332.7 349.6 364.2 382.1 405.9 420.7 432.7 443.6 454.8 464.9 476.5 491.9 499.9 513.9 527.3 536.3 545.2 549.5 561.2 573.5 578.7 583.7 588.7 592.5 600.4 604.3 605.1 604.3 603.3 602.3 602.6 597.4 592.9 588.2 583.6 576.7 573 566.1 563.3 560.8 556.1 555.3 545.9 542.5 535.2 524.9 520.1 511.6 507.7 502.7 496.7 493.1 502.3 514 524.7 533.4 544.6 553.6 557.1 555.7 546.8 533.9 517 501.3 489.1 472.4 456.7 443.2 426.6 414.7 404.6 397.8 406.8 420 445.9 473.2 506 542.9 570.6 589.9 605.8 622 634.1 645.3 657.2 668.6 676.8 680.2 671.8 642 618 588.1 567.4 550.8 543.1 520.4 514 508.9 499.9 491.4 478.3 465.5 453.9 439.5 424.1 410.2 398.4 383.8 371.4 358.7 342.8 328 314.2 299.4 287.5 285.4 283.2 294.2 313.2 330.8 345.2 364.4 384.9 411.2 426.3 440.5 452.9 466.9 478.5 492.7 511.1 529.8 542.4 558.7 577.5 603.5 614.7 632.1 655.6 676.4 703.2 732.8 755.2 777.4
279 282.8 282.9 282.6 283.7 285.9 288.8 288.3 287.3 282.5 281.9 265.6 280.5 284.3 288.9 290.8 297.6 301.5 307.9 304.6 305.6 303.9 305.8 307 306.9 305.7 302 309.6 308.9 307.7 312 312.1 306.7 305.7 309 312.7 309.2 315.9 313.3 310.6 303.5 301.2 299.3 294 287.7 282.6 270.1 258.8 246.1 231.4 215.4 236.5 261.4 280.2 296.9 317.9 331.8 347 359.1 375.7 394.4 411.8 422.7 432.5 444.6 456.6 467.1 483 491.7 503.2 515.1 525.1 535.5 544.3 556.5 567.6 575.9 579.8 581.2 584.9 591 596.3 597.1 599.1 599.8 595.2 596.1 595.3 588.6 583.8 578.5 573.8 566.8 562.6 559.8 555.9 551 547 542.2 537.2 532.1 522.1 511.6 508.6 500.8 495.3 492.5 492.5 503 514.3 525.3 534.6 546.4 555.2 557.9 554 542.9 525.9 511.3 497.8 481.6 467.8 452.5 437.7 422.1 405.9 398.2 395.6 406.1 426 451.4 473.1 508.8 544.4 572.9 594.3 609.8 625.1 638.7 651.7 664.1 676.5 684.9 686.4 666.4 640.5 615.8 585 563.5 542.8 527 512.1 496.5 490.5 487.9 479.9 469.3 458.2 448.5 436.5 419.1 407.2 395.5 382.9 366.1 355 342.7 326.4 307.2 290.7 282.7 283.4 289.3 299.6 315.3 332.2 353 373.7 395.9 422.3 441.3 450.3 466.8 477.9 490.8 506.4 524 541.1 555.7 572.4 595.1 616.7 630.5 648.3 670.6 694.1 721.6 745.5 770.7 794.3
267.9 269.8 270.9 271.9 270.9 275 277.5 277.2 273.6 271 263.8 264.3 268.7 273.8 277.9 279.5 285.4 288.6 299.9 293.6 298.1 296.2 295.9 298.9 296.7 296.1 294.6 297 295.2 295.8 297.4 298.4 296.9 294.2 298 300.2 296.3 300.9 302.7 300 298.5 293.2 285.8 280.3 274.6 267 259.8 245.8 232.6 215.9 219.9 248.3 265.3 283.2 291.2 310.4 324.7 338.7 353.1 366.9 383.3 397.9 410.5 421.9 435.3 441.1 451.9 467.8 476.8 489.5 497.7 511.1 519.3 532 545.7 557.3 566.2 571.7 571.2 577.3 581.5 587.5 589.5 592.9 590.9 589.2 590.1 589.7 583.1 578.3 573.7 567.2 563 556.2 553.9 550.1 542.9 540.4 537.1 531 524.5 517.2 506.8 502.8 494.5 490.5 484.3 491.4 503.6 516 525.1 536.4 546.5 556 556.4 550.1 538.7 522.5 506.2 493.6 478.7 465 449.4 433.6 416.5 402.3 393.5 393.7 407.6 428.2 450.9 475.8 506.5 545.6 573.9 596.5 613.1 629.1 644.4 656.6 668.5 681 688.7 669.8 653 632.7 605.2 574.1 556 532.6 516 503 486.5 477.9 474.9 470.3 462.5 454.4 445.2 433.6 419.8 402.6 388.7 377.4 363.8 353.5 335.5 322.2 306.2 288 283.3 289.5 296.7 306.8 320.2 340.1 359.5 381.3 413.6 431.5 451.8 469.5 476.8 486.2 501.8 518.7 534.7 550 567.7 586.3 606.7 626.2 645.2 663.8 683.2 706.9 729 752.5 775.5 795.5
257.1 258.5 259.5 259.7 260 265.3 269.8 268.7 262.5 247.5 226.2 244.7 253.5 260.5 268.4 266.5 269.7 275.7 280.7 277.4 287.8 285.5 288.2 286 287.5 288 282.3 286.9 285.6 284.2 286.7 286.1 283.7 286.1 286.6 284.8 285.8 286.4 289 290.9 286.1 278.8 274.1 264.2 258.3 252.3 243.4 233.4 210.5 205.9 232.6 247.9 256.8 274.8 285.1 300.8 315.1 328.2 342.2 353.1 366.8 381.3 394.5 402.3 413.1 426.7 432.8 444.7 455.8 467.5 479 488.9 503.4 514.5 526.9 537.6 551 559 562.2 567.8 573.3 578.5 582.4 584.8 582.6 582.6 583.6 579.8 575.2 574.9 569.2 560.3 555.3 550.4 545.4 542 536.9 531.8 529.1 523.9 517.7 508.2 504.3 495.6 488 481.7 480.7 490 504.3 515.2 528.2 536.5 545.7 553.4 553.1 546 535 518.3 500.8 489.8 472.5 458.8 445.1 427.2 414 398.7 388.9 392.7 409.5 430.7 452.8 479 506.6 543.8 574.6 598.3 616.8 632 648 661.8 674 687 679.8 643.2 625.6 611.7 594.3 564.6 550.7 526.9 509.3 497.2 480.1 471 469.1 465.3 459.5 452 443 435.6 421.9 408.8 389.8 368.5 360.9 345.8 327 316.6 301.6 286.9 283 289.9 300.6 306.9 332.2 349.7 367.1 385.6 415.5 435.4 450.5 474.2 488.7 496.8 510.4 526.4 542.1 559.5 576.4 594.7 614.2 631.9 651.7 670.9 690.4 711.2 731.9 753.5 773.7 792.6
245.3 246.9 247.3 249.6 250.4 251.5 257.2 253.7 248.9 245.7 210.2 237.8 240.4 246.4 252.2 252.3 252.9 261.9 262.1 264.3 271 272.3 274.7 281.7 276.2 275.1 274 271.8 274.1 273.4 276 274.4 272.6 276.8 276.9 273.4 272.2 271.6 272.6 272.2 269.3 264.2 258.8 252.5 243.1 236.9 225.7 212.5 193.2 218.9 234.7 244.9 249.3 260.3 271.6 282.6 297.2 314.4 326 335.2 350.4 357.6 367.4 377.7 387.9 400.8 410.5 419.7 431.3 443.1 453.8 468.3 483 497.6 509.9 519.8 530.5 540.7 548.6 554.8 562.8 569.2 573.5 575.3 575.4 570.9 570.7 569.1 566.3 562.5 555.6 550.9 545.9 543.1 538.7 535.1 530.7 527.2 521.8 518.4 509.6 504.6 495.4 490.7 483.1 474.6 477.6 490 504.7 517.5 529 537.6 543.9 552.1 551.9 545.4 530.8 513 496.8 482.4 464.8 451.3 439.5 423.7 404.9 393.7 386.3 395.6 413.6 431.9 456.5 480.7 507.2 544.5 576.7 600.3 620 635.4 651.9 667.1 680.7 693.3 682.2 644.5 605.6 592.7 579.7 558.3 552.2 535.7 514 497.2 480 469.2 460.4 460.9 459.2 450 441.5 433.9 419.2 399.1 382.7 364 349.5 339.2 325.6 313.9 299.5 283 283.1 293.6 308.5 319.2 319.9 351.6 373.7 392.4 415.4 425.9 440.5 467.5 485.1 504.4 521.6 533.1 546.2 564.3 580.8 598.5 615.9 634.4 653.7 671.4 690.9 709.4 730 750.3 769.1 788.7
236.1 235.1 235 237.4 237.6 237.7 240.8 243.1 236.9 234.8 218.2 213.8 225.7 231.2 238.5 239.4 239.6 243.2 251.2 249.8 253.7 255.8 259.6 263.9 266 266 263.9 260.8 257.2 259.6 261.7 258.4 262.8 259.2 261 262.7 259.7 262.1 258.1 261.1 256.2 252 244.4 239.8 235.6 226.3 217 196.2 204.1 220.7 230.2 234.6 242.7 247.5 255.2 266.1 282.6 296.4 311.1 317.4 326.9 332.6 345.2 353 360.8 371.6 382.9 394.7 402.5 413.7 428.5 445.9 458.3 472.8 486.6 497.6 506.4 517.9 525.1 535.8 540.6 549.2 556.1 557.4 559.2 554 557.7 555.3 552.7 548.1 547.8 542.9 540.9 534.8 530.9 529.7 522 518.5 515.4 512.7 504.7 498.3 493.2 488 478.9 459 472.6 489 504.2 517.4 528.4 535.8 541.9 548.9 549.2 540.9 524.6 507 490.9 477.7 457.1 444.2 431.5 415.3 398.6 387.3 386.1 398.5 417.3 438.7 460 484.2 513.9 548 580.2 602.6 622.1 639.3 655.8 671 685.8 697.7 692.6 655.7 616 587.1 569.2 551.5 539.1 527.6 511.5 493.7 481.4 470.4 459.8 454.9 453.9 438.8 435.9 425.2 414.7 395.8 377.5 361.5 347.6 331.5 312.7 299.8 289 276.9 286.2 296.7 311 327.6 344.4 356.7 370 388.4 401.6 426 450.2 467.7 484.9 508 526.4 538.8 552.3 564.7 581.8 599.7 618.6 635 653.3 672.5 690 707.7 726.4 744.4 763.7 782.6
222 224.6 224.2 226.2 225.7 225.7 226.2 225.7 225.5 223.5 213.3 209.7 211.9 220.5 223.2 226.7 226.9 229.6 239.7 235.5 238 241.3 243.9 246.7 250.6 249.6 250.2 250.7 244.3 245.9 251.8 249.5 250.5 247.5 249.3 247.2 247.2 246.1 244.1 244.3 242.6 238.5 234.5 230.2 224.8 217.7 201.7 175.6 207 217.7 225.3 228.1 233.1 239.9 246.9 253 264.7 276 288.5 299.7 309.8 316.2 325.5 332.5 342 348 358 366.5 376.5 387.2 401.4 415.6 431.4 446.1 457.5 468.8 479.6 492.7 496.8 508.9 515.3 523 526.2 531.4 537.3 536.9 537.2 536.9 536.6 533.5 534.6 531.7 526.6 525.8 523.7 520.4 518.7 518.6 510.2 508 498.8 494.9 488 482.9 471.7 451.6 470.7 488.2 504.9 516.7 526.4 533.6 538.5 541.7 539.7 531.4 515.4 498.9 483.7 467.7 450.6 438.1 422.7 408 394 382.6 387 400.6 419.6 440.8 465.3 490.1 518.6 554.2 583.6 606.1 625.7 642.6 659 674.8 689.6 701.9 707.1 677.7 643.6 613.3 584.1 568.7 548.3 527.7 512.3 493.3 475.2 464.6 460.4 456.8 453.5 444.6 432.4 417.4 398.7 388.3 374.4 357.3 343.5 322.1 306.8 290 283.5 279.3 286.8 298.1 313.1 330.6 354.3 372.6 391.1 411.2 429 448.5 468.4 488.8 505 515.9 517.4 527.1 547.2 562.2 580.5 597.5 616.2 635.7 654.8 671.3 687.2 704 719 738.5 758.8 778.3
207.2 210.3 212 212.4 213 212.6 214.1 214 215.2 211.7 208.6 186.1 202.9 207.9 213.8 213.7 215.2 216.9 222.9 226.9 226.1 227.3 231.2 233.9 232.2 233.9 235.1 234.3 225.8 229.3 233.7 236.3 238.5 233.6 234.4 234.8 233.4 233.2 229.9 228.9 230.4 226.7 222.1 218.7 213.8 207.2 194.8 175.6 205.8 214.4 215.5 219.9 226.2 232.1 238.1 246.2 254.2 262 271 284.3 293.3 300.8 311.8 315.5 325.4 329.6 336.3 346.3 355.1 363.6 376.3 386.6 402.1 416.8 427.1 437.1 451.9 458.3 466.6 479 488.2 493.2 500.8 509.2 512.2 513.3 516.1 516.5 517.4 521.9 520.2 516 514.9 513.3 511.6 509.3 508.1 507.2 504.9 503.5 494.4 486.6 483.6 476 461.2 445.6 468.5 486.8 507.4 515.7 524.2 531.3 533.5 534.6 532.9 520.5 504.2 487.9 471 457.3 445.3 432 414.6 400.3 388.7 380.4 387.5 401.3 421.7 445.7 468.4 493.7 524.5 558.9 587.7 610.2 629.9 646 665.4 681.1 695.3 707.1 715.2 695.7 661.3 636.2 605.3 576.6 556.3 540.8 521.8 500.1 476.8 468.2 462.9 459.3 452.4 444.6 432.9 419.3 396.1 368 367.6 355.4 337 317.3 299.8 289.5 275.9 280.8 289.7 304.1 317.2 336.4 354.5 375.8 399.8 420.2 440.5 459.1 475.5 495.1 514.6 528.9 538.4 547 541.5 563.5 580.1 587.3 605 624.6 645.5 662.7 681.9 698.5 714.6 731 751.9 771.5
193.5 194.7 198.9 198.9 197.4 200.8 200.4 200 200.7 201.3 199.8 191.7 188.5 199.5 202 205.5 209.2 210.7 213.1 214.2 213.7 213.4 215.7 217.3 217.6 219.2 220.6 218 210.4 218.1 223.5 224.6 223.2 221.8 221.9 223.3 222.9 219.9 215.7 213.8 215.6 213 210.8 208.2 205.6 198.8 182.5 178.6 199.4 203.5 208.5 214 216.7 222.8 229.2 239 249 249 258.4 266 275.6 282.3 291 299.7 306.3 313.7 318.9 328.3 334.6 342.9 355.8 366.1 374.1 384.8 395 404.4 417.3 425.9 436.8 448.2 458.1 464.9 473.4 482.6 487.2 488.7 494.7 499 499.2 503.2 500.6 504.8 501.8 502.1 503.4 501.8 500.8 498.7 498.1 492.6 484.5 479.2 476.7 467.5 453.4 441 464.1 480.2 498.1 509.1 517.2 525.5 528.2 529.5 526.5 512.6 496.8 477.4 462.8 451.4 433.8 419.6 408.3 398.2 385.4 374.9 387.2 402.9 426.3 449.1 472.8 499.7 533.7 566.3 591.4 614.5 634.4 653.2 670.7 686.8 699.5 709.9 717.4 708.9 680.3 649.6 623.6 584.1 565.8 547.3 526 503.4 484.9 472.1 463 460.4 452.6 442.8 428.7 415.2 394.6 373.3 351.6 341.1 330.1 311.7 292.4 278.6 273.4 281.4 291.7 307.9 326.6 340.6 360.8 385.9 410.4 428 448.1 466.8 483.3 501 519.9 534.9 547.4 558.5 563.9 567.7 591.9 606.9 616.9 633.4 643.4 659.6 675.7 689.5 706.3 724.7 746.9 766.9
181.1 181 182.8 185.2 185 185.1 187.8 184.5 186.6 184.2 184.2 175.2 188.1 190.4 193.3 195.7 199.6 203.1 204.8 206.5 205.6 204.4 203.7 203.7 203.5 204.2 204.8 209.4 198.1 206.1 210.4 210.7 211.8 210.4 209.1 211.3 211.6 208.1 204.7 201.7 199.8 202.1 198.5 198.5 195 186.6 164.5 185.6 189.6 195.9 200.3 203.1 206.4 212.4 216.8 222.9 233.4 236.8 242.8 249.4 256.3 267.9 274 282.7 288.2 295.6 304.2 311.5 318.1 327.7 334.7 344 354.1 360.9 368.5 378.4 388.5 397.8 409.1 420.3 431.2 439.7 447.7 455.5 459.9 464.9 469.9 475.1 479.1 483.2 486.4 489.3 486 487 487.1 489 488.8 490.6 485.9 480.9 476.1 472.7 467.9 453.9 441.7 440.2 459.6 470.7 485.9 498.2 507.1 515.1 518.3 518.6 515.7 504.2 488.5 471.3 456.6 445.6 428.8 414.9 399.7 389.8 379.3 376.2 386.5 408 431.7 453.8 477.8 505.8 540.8 570.9 596.7 620.1 641.2 659.2 675.2 690 702.7 714.6 721.1 714.5 684.5 651.2 623.7 590.8 565.7 554.2 525.4 503.8 489.9 475.9 466.7 459 450.1 438.4 426.5 411.3 391.9 369.8 350.8 333.7 309.7 298.8 287.2 273.6 275.2 284.4 297 312.7 333.1 346.9 370.9 394.8 419.2 437.8 455.7 473.7 487.9 508.1 525.5 540.3 553.2 565.2 577.4 569.6 594.4 610.8 627.8 643.5 658.8 671.1 681.4 696.1 712.4 729.2 748.9 766.9
170.1 168.5 171.1 171.7 173 173.3 174.1 175.6 172.9 172.8 172.3 159.6 176.7 180.5 183.5 186 192.9 192.2 195.6 197.2 197.3 195.8 197.9 194.6 192.8 192.6 195.1 196.6 196.4 193.7 199.4 197.4 199.7 196.5 197.7 199.1 199.2 199 195.8 191.2 190.4 190.5 188 187.3 183.4 171.7 165.6 180.8 183.2 190.6 194 198.9 199.9 205.2 209.5 214 222.6 229.3 232.3 240.1 247.2 253.2 262.8 270.2 274.9 281.9 285.8 293.1 299.8 308.9 314.3 324.9 333.3 340.6 346.2 355.1 362.9 372.8 384.1 392.3 402.3 409.9 418.7 427.2 432.9 438.8 442.9 450.3 453.6 458.4 464.3 468.5 471.4 470.5 476.4 476.2 477.8 477.7 476.2 471.1 465.3 460.7 456.7 447.2 426.9 434.8 450.2 465.6 476.3 488.6 498.1 503.7 506.7 506 500.6 493.9 476.6 459.8 450.1 440 428.4 410.4 395.3 384 374.2 374.8 386.7 408.1 431.6 458.8 481.8 512.6 547.2 575.3 600.8 624.1 646.2 662.6 676.6 690.3 704.5 716.4 720.3 714.9 688.3 652.8 622.2 593.3 571.5 554.9 528.8 503.8 489.4 475.7 463.9 457.8 447.6 434.7 420.1 402.2 381.6 363.8 345.8 324.8 313.6 304.2 280.6 272.7 276.7 286.5 299.4 316.7 332.8 356.5 376.6 403.2 419.4 445.6 465.8 485.8 501.7 516.5 530.3 544.5 559.1 571.8 583 596.5 601.1 601.2 628.1 645.1 663.5 682.6 696.4 708.5 721.1 730.8 747.2 765.2
156 157.5 158 160.7 161.1 162.5 162.5 162.6 162.1 162.9 162.5 153.2 164.9 169.8 174.1 177.1 183.3 186.4 185.5 188.9 189.4 185.7 185.2 185.1 182.6 181.5 181.2 183.2 181 179.9 184.9 183.8 186.2 185.4 189.6 185.4 186.8 184.7 184.6 183.9 181.1 180 177.1 178.2 174.4 160.4 172.8 174.8 179.4 183.9 187.2 190 195.8 197 203 204.7 210.7 219.6 224.8 232.5 239.4 243.6 250.5 255.3 262.6 269.4 273 278.7 284.4 291.6 298.4 307.8 316.5 322.2 328.1 334.2 342.4 348.3 360.5 365.7 374 382.9 390.5 399.8 406.3 413.2 418.7 423.4 430.9 436.2 441.9 446 450.9 455.2 456.9 459 463 463 462.1 460.4 455.2 452.7 448.5 436.2 409.7 427.9 443.9 459.4 467.6 479.3 487.9 491.8 493.6 492.1 486.7 479 464.2 452.7 439 431.4 423.3 407.9 391 379.4 368.5 372.3 387.7 409.6 434.8 463.6 486.8 521.5 553.1 580.3 604.4 627.1 647.6 664.8 680 691.7 705 719.8 724.1 723.4 699.9 668.1 634.9 604.1 576.1 551.2 530.7 500.2 489.2 478 463.1 453.5 442.5 429.1 414.3 393.9 376.8 360.6 342.1 325 306.4 300.7 284.2 273.6 279.4 291.2 305.2 324.4 340.3 362.6 386.8 412.3 436.1 455 472.9 493.1 511 526.8 540.1 553.1 563.9 580.7 595.8 606.7 618.8 624.6 634.4 645.8 666.5 687.5 702.8 715.6 728.6 737.4 746.3 759.1
143.6 143.7 146.8 148.7 148.6 150 149.9 149.9 150.6 150.6 152 148.2 152.5 159.3 161.8 166.2 169.6 173.9 176.4 178 177.5 176.4 177 176.3 173.8 172.1 173.6 177.1 170.9 169.5 173.5 172.8 173.8 172.7 174.6 176.7 177.5 179.8 175.8 173.8 170.6 169.7 168.4 168.3 166.2 148.1 164.3 168.6 170.5 174.2 179.8 182.3 186.8 189.9 190.3 198.7 203 208.2 214.4 217.6 228.2 235.2 238.8 241.9 247.7 256.4 264.4 267.2 270.8 275.2 283.5 294 301.4 304.6 312.8 318.1 324 330 334.2 342.3 351.4 361.2 371.3 376.6 382.2 386.4 392.8 400.8 405.9 412.8 418.5 424.1 428.4 433.8 441.5 443.9 446.5 448.8 450.5 447.8 443.7 441.8 439.8 427.2 401.9 423.3 439.5 453.2 461.2 471.8 478.8 480.2 482.3 480.2 473.7 466.8 456.1 444.4 434 427 419.3 408 387.4 372.8 364.1 372.2 390 411.3 435.5 464.6 493 527.9 557.7 583.4 606 626.9 646.8 664.3 682.3 694.5 707.5 722.9 730.1 728.4 717.5 678.9 642.6 603.4 575.3 547 524 498.4 487.4 478.3 462 450.4 437.6 425.8 412.6 391.9 369.7 352.6 335.7 317 301.3 290.6 279.9 272.1 280 296.2 309.8 328.3 349.7 368.9 394.4 422 444.8 467.6 486.3 502.3 519.4 535.7 548.7 562.3 576.2 589.5 606 619.7 632.7 644.1 648.6 658.3 668.9 690.2 711 722.8 731.7 738 743.9 751
131.6 130.6 134.5 135.9 134.8 135.7 137.6 137.3 138.8 137.6 139 135.5 141.1 147.1 149.7 155 158.5 163.2 165.9 166.4 167.5 168 165.6 168.6 166.4 164.1 163 163.2 160.8 160.3 159.6 162.7 162.7 160.1 167.5 166.4 165.7 165.2 164.6 166.9 160.5 160.9 159.3 158.2 157.4 143 158.4 160.5 162.7 166.5 169.9 172.2 179.3 186.1 181.8 190.7 195.2 197.3 202.5 208.4 215.9 222.9 227.3 232 235.3 241.8 252.5 256.1 260.1 264.4 274.3 276.2 282.7 287.6 293.7 301.7 307 312.1 319.2 326.6 332.1 340.1 347 353.3 360.1 369 372.6 379.9 384 389.3 396.4 403.3 405.7 416 423.8 427 433.1 436.4 439 433.2 431.4 432.3 426.7 417.3 394.5 416 429.5 444.2 450 462.5 468.4 471.4 472.8 469 463.1 456.3 445.2 436.4 427.4 418.9 413.3 402.3 383.2 370.4 360 372.1 391.8 411.7 434.9 467.2 498.1 531.9 560.1 584.1 606.2 626.2 645.2 661.4 679 693.3 705.9 719.7 728.1 727.9 721 690.1 645 605 572.7 543 517.1 497.5 484.2 475.4 461.4 447.8 433.8 421.5 405.7 388.7 368.4 351.8 334.9 311.7 298.2 286.6 274.4 269 278.9 295.9 313 335 352.5 380.5 402.9 428 452.6 475.2 495.6 511.3 527.9 544.6 559.2 574.3 587.3 603.4 617.3 629.9 642.6 654.8 665.9 670.7 688.9 702 715.8 726.9 733.5 736.3 741 745.5
122.1 122.2 123.2 123.4 123.7 123.2 124.9 125.9 126.9 128.6 120.9 113.6 129.8 135.1 138.2 140.6 145.4 150 153.2 153.4 156.4 156.7 155.7 158.8 158.4 153.9 156.4 153.8 155.2 151.7 150.5 149.7 152.7 146.7 152.3 152.7 153.5 154.2 153.8 154.5 150.8 149.8 150 152.1 151.2 142.2 149.9 153.4 155.5 156.4 160.5 164.4 170.9 176.5 175.3 183.2 186 189.5 193.6 198.9 205.5 211.3 216.3 221.3 225.2 230.5 239 243.9 248.9 253.7 263.2 265.5 270.2 273.6 277.1 286 291.3 297.6 305 312.2 314.4 320 329.4 334.2 341.7 347.1 353.2 358.9 362.3 366.3 373.4 380 387.6 396.6 405.6 410 414 419.2 418.4 417.6 419.6 419.8 417.3 409.1 385.6 405.7 417.4 432 441 448.6 458.6 460.9 460.4 457.2 452 443.3 434.9 425.5 417.6 411.8 405.6 399.5 380.8 363.2 356.5 371.1 393.6 413.4 435.3 464.8 499.6 533.5 561.3 584.2 604.3 622.5 641.2 657.3 673.6 688.6 699.9 712.4 721 722.1 718.9 690.6 644.7 606.8 569.6 541.4 512.2 492.9 484 471.7 457.2 442.5 430.7 416.9 399.4 385.6 366.4 349 325.6 304.4 293.4 285.2 272 272.7 282.1 298.4 315.7 336.2 356.3 383 412.2 439.7 461.1 482 501.3 519.5 535.4 550.5 567.6 582.6 596.7 612.7 625.6 639.6 650.9 660.6 674.4 687.7 700.4 709.9 721.5 729.5 733.4 734.7 737 739.7
112.6 114 113.1 114.2 113 112.8 113.5 116.1 116 117.7 114.4 92.6 116.4 123 126.1 129 131.9 136.5 139.2 140.9 144.1 144.3 140.8 147.2 147.2 145 145.2 144.4 142.5 141.5 142.3 140.1 139.6 137.7 141.2 141.8 142.5 143.5 143.2 142 143.8 141.4 143.1 147.6 141.7 136.9 142.1 144.7 147.5 148.5 150.9 154.5 160.7 167.7 165.3 171.9 176.6 180.6 185.6 190.2 193.7 200 205.5 210.5 215.1 219.6 225.3 230.1 236.6 244.1 249.8 253.5 255.6 260.4 264.2 271.6 277.9 284.2 292 294.9 301.7 304.8 310.5 317.7 322.8 330.6 335.7 341.5 344.2 348 353 360.5 369.2 375.9 383.3 390.6 393.1 398.4 401.2 403 405.6 405.2 404.4 398.5 380 392.9 409.9 421.7 431.1 440.1 449.6 448.8 451 445.7 441.6 432.9 423.6 419.9 413.5 407.7 401.5 392.3 380.9 358.5 361.2 375.3 394.4 416 436.7 465 501.6 531.6 558.5 581 599.9 617.5 634.5 650.8 666.2 680.7 694.2 705.5 711.7 714.9 714.5 682.5 644.1 599.7 570.1 541 509 491.5 480.6 470.4 455.7 441.4 425.7 408.6 397.5 378.1 359.3 340.1 318.9 298.9 288.5 276.5 270.9 267.1 285.2 299.2 319.9 340.7 360.5 388.2 419.5 443.3 467.1 488.1 506.9 525.6 542.3 558 573.8 589.1 604.7 619.6 633.5 647.2 658.1 666.1 678.7 692.2 706.1 716.6 724.4 729.5 732.7 733.1 732.9 735.3
101.7 103.4 103.5 103.8 101.5 102.3 103.7 105.7 106.4 107 104.5 96.3 104.2 111.3 114.1 116.8 119.9 123.6 125.6 128.1 131.2 132.7 133 136.8 136.6 135.2 135.5 135.9 134.4 132.1 130.9 131.9 130.8 130.7 132.1 131 131.6 133.5 134.6 131.2 139.2 132.4 136 137.4 131.6 129.5 135.7 136.1 137.9 138.7 140.4 145.2 153.1 156.8 157.9 163.8 168 172.4 177.3 181 184.4 188.3 194.3 199.6 204.5 208.7 212 217.5 225.1 232.5 238.2 241.6 244.2 248 252.1 256.9 261.4 270 275.2 281.2 284.4 293.6 296 300.9 304.7 311.8 318.6 321.4 327.5 331.1 336.7 344 352.4 355.9 362.4 370.2 375.8 381 384.6 385 390.6 390.2 388.7 382.3 366.8 383.8 399.4 409.1 420.9 428.7 435.2 441.2 443.1 438.2 430.9 423.5 416.3 414 404.1 401.4 394.2 387.5 375 352 358.9 374.3 393.8 415.1 438.3 466.6 502.5 528.5 553 573.9 593.2 610.1 626.2 642.6 658.1 671.6 685 694.6 701.9 707.7 710.9 694.2 649.8 603.3 571.5 541 509.5 488.4 477.4 466.4 454.5 437.3 420.4 407.5 394.2 373 353.3 330.5 312.9 293.4 283.2 273.7 265.9 270.9 286.1 304.1 323.9 346.5 368.6 394 424.7 447.7 469 489.5 511.5 532.7 547.6 565.1 580.1 596 611.8 627.3 640.5 651.9 663.4 672.5 681.5 693.4 707.9 717.9 724.4 727 729.7 729.9 730.2 729.1
94.7 93.7 93.6 94.3 92.5 94.8 95.4 96.1 96.3 96.3 94.8 83.1 97.4 100.8 102.3 104.9 108 111.7 111.3 116.9 119.7 119.5 121.7 124.4 124.1 125.2 125.3 126.4 126 120.4 122.5 121.9 122.2 118.7 121.7 121.5 122.2 124.2 125.9 127 125.6 125.4 128.1 127.5 124.7 124.9 129.3 127.6 127.6 129 132 133.9 145.5 143.5 149.3 155.2 159.3 164.2 168.8 171.8 175 178.9 182.8 188.5 192.9 196.7 199.8 206.2 213.4 220 225.6 228.8 232.6 236.7 240.8 245.2 250.6 256 262.1 267.2 276.7 279.3 280.2 283.7 289 291.5 296.1 302.2 311 315.3 320.5 327.9 335 338.7 343.7 350.6 356.5 361 366.6 369.4 372.5 375.8 377.2 370 362.6 378.6 391.2 399.4 410.1 418.2 427.1 432 434.9 433.5 424.8 417 402.9 402.7 397.8 394.8 388.9 382.1 369.6 350.3 355.5 370.4 391.3 415.7 439.2 467.6 499.3 524.8 547.5 567 585.3 601.7 617.2 634.4 649.2 663.6 676.1 686.4 694.4 700.3 706.1 693.9 667.2 614.2 572.2 535.6 505.8 488.3 475.2 462 447 428.9 412.2 398.3 383.3 369 347.4 328.7 311.6 288.8 275.8 268 261.9 273.9 292.7 309.8 329.2 353 371.9 401 430.1 451.2 473.3 495.6 517.7 535.8 554 569.9 584.3 600.8 616.7 631.2 644.7 656.7 667.7 677.5 686.4 695.6 707.6 715.2 721.2 723.2 723.6 723.8 723.6 719.8
90.4 87.1 84.4 85.1 84.9 84.4 85.3 85.7 85.9 85.7 82.9 84.7 88.2 90 90.8 93.4 96.4 98.9 100.6 103.4 107.6 106.9 109.1 112.8 112.4 113.4 114.1 116 116.4 114.7 110 113.1 111.7 111.4 112.4 112.2 113.1 115.3 117 117.6 117.9 119.7 119.3 118.6 115.1 119.8 121.4 120.5 120.8 119.5 122 126.5 134.6 134.3 139.8 146.5 151.1 155.7 159.6 162.6 165.7 169.5 173.4 177.3 181.8 185.5 189.2 195.4 201.9 207.9 213.2 216.8 221.1 225 229.5 234.4 238.5 243.9 249.1 253.4 259 263.7 267.3 269.2 273 277.8 280.6 284.6 291.8 295.7 302 306.4 315.1 320.7 326.7 334.8 338.5 345.1 351.8 352.6 356.9 360.1 365.5 356.5 357.4 371.2 379.1 389.9 401.8 409.9 416.5 423.6 426.9 423.6 418.7 410.4 398.7 392 391.6 386.6 384 378.7 364.7 348.1 349.9 367.1 387.4 414.2 443.8 469.4 497.3 520.6 540.5 559.8 577.2 594.5 609.2 624.8 640.8 655.5 668.2 679.1 688.5 693.6 699.2 693.7 669.1 606 569.1 533.1 511.2 493.4 474.6 457 437.9 422.8 406.4 392.3 376.2 363.1 336.2 320 303.3 287.6 272.9 265 267.3 280.2 296.3 313.2 335.4 357.5 382.4 409.6 434.9 456.9 476.5 499.2 522 542.3 559.9 576.1 589 605.4 619.8 634.7 647.8 660.7 671.5 681.1 689.8 697.9 705.9 711 715.7 717.4 714 708.1 709.4 708.2
85 82.3 78.7 80 76.5 74.9 75.6 74.5 75 75.8 69.2 76.4 77.7 81 79.9 82.4 85.7 87.1 86.7 91 92.5 93.7 99.3 102 100.1 102.8 102.6 104.3 104.6 104.4 103.1 103.2 102.5 103.9 105.5 105.2 104 103.5 105.9 107.7 109.6 110 112 109.8 106.4 114.3 116.4 115.8 116.7 117.7 117.3 120.4 126.6 125.9 132.3 138 142.6 147.2 150.5 153.5 156.5 160.2 164.1 167.9 171.4 174.5 179.6 185.6 190.9 196.3 200.8 204.8 209.4 213.9 219.2 223.9 227.7 231.9 237 242.2 244.8 246.2 251.1 254 257.5 260.8 267 271.5 275.4 278.5 286.2 291.1 302 306 311.9 317.7 324.5 329.3 333.1 338.2 341.8 348.4 352.6 336.8 347.7 360.8 373.6 383.2 391.9 400.3 408.2 415.2 416.8 416 409.8 402.3 395.2 388.2 382.2 379.1 378.1 372.6 357.6 346.1 347 363.5 385.6 411.5 440.7 468.8 492.4 514.8 533.8 552.7 570.7 585.4 601 617 631.9 647.1 659.4 671.2 681.8 686.7 689.7 686.2 656.2 604.9 569.2 541.1 517.1 501.3 475.7 448.9 434 416.8 406.2 391.5 372 350.2 329.7 315 295.4 276.1 270.5 256.6 268.6 284.4 303.9 322.6 339.7 361.5 385.5 412.9 438.4 463 484.1 503.9 526.6 547 564.2 580.5 595.4 609.5 622.7 636.8 649.4 662.4 672.9 682.5 691.3 699.7 705.5 708.6 710.7 710.6 705.5 693.9 693.7 694.4
76.3 74.1 74.5 69.5 67.7 66.4 66.8 66.8 66.4 68.1 60 69.5 70.4 70.4 71.1 73.2 75.3 74.5 74.3 77.9 78.8 80.9 86 89.7 88.1 89.4 91.6 91.6 92.7 92.1 94.5 91.5 88.9 95.3 95.7 96.5 95.5 94.5 97.8 99.4 100.2 102.6 101.7 105.1 102.1 108.1 110.3 111.7 111.1 111.1 110.6 113.5 117.3 122.2 124.9 129.6 134 138.3 141.3 144.3 147.3 150.9 156.3 160.1 162.8 167.1 171.1 175.4 180 184.5 188.5 192.6 197.5 203.1 208.8 213.4 217.1 220.9 225.2 229.8 231.1 232.5 235.6 241.1 245.2 250.3 253.7 257.3 262.3 266.6 273 278.5 285 291.1 297.9 302.4 310.7 315.4 319.9 322.9 328.9 332.6 336.3 309.4 339 353.3 362.2 374.9 383.5 391.3 399.1 404.3 410.8 408.8 402.3 395.8 388.7 384.4 380.3 372.9 372.1 365.7 352.4 339.3 345.2 363.1 385.2 407.8 437.2 466.6 488.9 508.7 527.7 544.6 562.1 576.5 592.4 608.3 624.2 637.9 649.5 660.2 668.3 674 676.2 673.6 657 617.9 582.9 553.6 531 511.1 472.3 450.4 423.7 414.5 396.1 384.5 370 348.8 324.9 305.8 281.9 270.6 257.8 262.2 269.4 285.2 302.9 321.9 342.7 366.8 391.8 417.1 441.5 465.6 487.6 508.9 528.9 549.9 567.2 583.7 597.3 612 625.3 638.3 650.4 662.6 672.7 682.2 690.9 698.4 702.2 703.8 704 701.1 693.8 678 681.1 681.5
68.5 67.3 65.9 62.2 60.8 56.8 58.2 58.3 58.8 56.9 54.8 61.4 59.9 58.9 61.8 63.5 63.6 62.8 63.8 66.1 66.5 66.1 73.7 75.8 74.7 76.3 78.7 80.7 80.9 82.8 85.2 84.1 81.4 86 87.7 88.3 88.5 88 87.3 89 90.8 92.1 94.3 92.4 99.9 101.2 105 108.6 107.3 106.1 105.5 107 111.5 114.9 117 120.9 125.1 129.1 132.5 135.4 138.6 142.5 147.4 150.3 154.5 158.2 162.2 165.9 169.8 174.1 176.7 177.6 185 191.1 197.5 202.4 206.2 210.1 214 218.4 219.9 222.4 224.3 228.2 235.1 236.4 237.7 242.1 247 253.2 257.3 263.8 271.3 277.1 284.7 290.5 296.9 303.2 306.1 312 315.2 318.9 314.9 311.4 333.5 344.3 353.5 364.7 374 382.2 388.9 395.3 400.9 399.4 393.2 386.4 380.8 379.8 377.6 370.4 365.3 360.6 344.8 331.1 342.8 362.2 379.7 400.9 429.5 460.5 481.7 502.2 520 536.6 553 566.7 582.7 598.7 613.9 627.1 637.6 647.8 654.4 659.5 660.5 658.4 647.8 626.7 599.8 574.5 545.8 501.9 473.4 445 421.6 406.1 389.2 376.1 362.1 346.1 322.2 301 279.6 265.4 254.3 263.5 274.2 292.5 306.6 326.8 348.5 371.5 396.9 421.9 442.6 465.6 487.8 511.8 530.3 549.9 567.5 583.8 598.7 612.4 624.9 637.8 649.1 662.2 673.1 681.4 689.1 694.9 698.4 698.7 695.9 687 676.5 666.9 664.7 666.7
62.8 61.8 59.8 56.8 54.2 50.9 50.1 49.2 48.9 46.8 46.9 48.8 49.9 49.1 48 49 51.1 50.3 50.3 52.7 53.3 56.3 63 61.2 62.5 64.7 68 71 72.6 71.2 73.5 71.6 71.8 74.5 76.8 78.6 79.4 80.1 76.9 81.6 83.9 85.8 89.5 87.4 90.6 95.2 98.3 99.2 99.9 101.3 100.8 102.7 105.9 107.9 111 113.6 115.1 118.9 123.5 126.8 130.1 133.8 139.3 143.7 146.3 150.3 153.7 156.7 159.9 163.8 166.4 168.4 174.3 179.9 186.1 190.9 195.1 198.5 201.8 204.9 206.7 211.7 212.9 217.3 221 221.7 225.9 230.4 232.2 239.8 245.2 250.7 256.4 264.7 270.6 276.9 284.2 289.5 295.1 300.4 303.3 309.3 289.7 314.6 325.5 336.5 344.8 353.5 366.9 373.7 380.8 385 389.7 387.5 383.5 379.1 372.6 370 369 365.3 359.6 353.8 339.1 325.1 340.8 360.4 380.5 397.3 421.4 453.1 475.3 493.1 509.7 526.7 542.2 556.7 571.4 587.3 602.7 615.8 626.6 636.2 643.7 648.5 648.8 644.5 636.4 622.6 606.9 586.5 544 502.4 475.6 449.7 425.1 407.7 393.3 376.8 356.9 337.1 315.3 293.6 274.2 263.5 252.8 263.7 276.3 296.1 313.5 333.5 351 374.6 405.3 427.6 447.2 464.8 487.7 512.1 530.9 549.6 565.8 580.5 597.2 609.8 623.6 635.3 646 659.5 670.2 679.3 685.7 690 692.6 691.4 684.3 671 663.4 654.5 648.9 654.1
56.4 56.2 54.7 50.3 48.5 43.8 41.8 41.8 42.8 43.5 43.7 42 41.8 41.8 41.8 41.8 41.8 41.8 41.8 41.8 46.1 46.8 43.3 44.2 47.6 49.9 54.7 58.4 65.8 61.2 58.4 60.2 63 67.7 69 71.8 73.7 74.4 71.1 74.5 75.8 75.2 68.4 79.2 84.1 88.3 91.3 91.8 95.2 94.7 95.9 97.3 99.3 100.6 104.6 104.7 108.3 113.8 115.2 118.1 121.9 125.7 131.4 135.7 138.5 141.4 144.3 147.4 150.7 153.6 155.5 159 164.1 169.8 175.3 179.7 184.5 187.9 191.2 193 195.8 198.3 205.9 207.5 207 209.5 212.5 216.7 223.3 225.7 231.2 239.2 241.9 249.8 258.1 263.1 270.3 275.4 282.7 288.4 292 299 291.3 306.9 320 328.3 336.1 345.5 353.3 362.1 369.3 374.7 373.4 373.9 373.4 372 365.1 360 360.1 361.3 355.6 346.2 334.3 317.7 337.9 354.4 374.3 393.9 416.9 441.7 463.8 484.6 501.2 517.3 532.4 547.4 561.1 576.4 590.2 603.4 615 625.7 633 637.4 635.7 631.3 621 611.7 599.3 579.5 544.3 511.7 483.2 456 428.3 408.8 391 374.1 355.8 336.1 314.7 297.9 274.5 263.2 254.1 263.6 277.5 293.9 312.9 332.3 355.7 378.7 402.5 425 447.3 465.5 488.4 509.6 530.4 548.5 564.5 580.4 592.7 608.1 620.8 631.8 644 655.8 666.3 675.3 681.8 684.5 684.9 682.7 676.1 662.8 651.7 641.3 636.1 641.9
58.2 55.8 52.1 47.3 41.8 41.8 41.8 41.8 41.8 41.8 41.8 41.8 41.8 41.8 41.8 41.8 41.8 41.8 41.8 41.8 41.8 41.8 41.8 41.8 41.8 41.8 41.8 41.8 43.5 52 48.6 47.1 53.9 53.8 58.2 63.8 69.1 66.2 65.6 65.1 67.7 61.2 59.2 75 77.2 81.6 83.6 86.1 86.2 89.3 91.1 92.1 93.1 93.8 97.4 97.3 100.4 107.1 110 110.9 113.8 118.5 122.8 126.2 129.6 132.7 135.5 138.8 141.7 144.5 145.7 150.5 155.5 159.8 165.3 169.1 173.3 177.2 179.6 182.2 185.6 187.6 192.4 195.4 196.5 196.5 197.7 205.1 212.6 214.5 222.6 224.9 230.6 239.3 244.5 249.1 256 262 271 276.5 282.8 279.3 286.6 301.7 310.8 317.4 329.2 336.9 343.9 353.6 355.9 362.5 361.7 359.7 362.5 358.8 353.5 349.2 350.2 352.1 347.9 341.1 336.5 316.3 327.3 344.2 367.6 387 407.5 429.2 451 473 491.8 507.3 522.9 537.2 551.8 565.4 580.2 593.3 606.5 615.5 624 626.4 617.1 612.5 606.2 599 590 578.3 552.2 523.9 498 460.1 434.1 414.4 392.8 369.9 355.5 333.7 315.2 290.9 272.9 255.8 254.6 262 277.5 295 313.3 333.1 358.1 383.4 406 429.1 449 468.7 485.2 507.4 528 545.9 561.6 577.5 589.4 603.5 615.8 626.6 638.9 651.4 661.6 670.9 676.6 678.7 677.4 673.8 668.2 659.5 645.2 634 621.7 628.7
41.8 61.4 55.2 42.9 41.8 41.8 41.8 41.8 41.8 41.8 41.8 41.8 41.8 41.8 41.8 41.8 41.8 41.8 41.8 41.8 41.8 41.8 41.8 41.8 41.8 41.8 41.8 41.8 41.8 41.8 41.8 41.9 41.8 41.8 42.8 47.9 55.6 58.8 60.2 58.4 52.1 57.7 67.8 68.7 69.7 72.8 75.7 78 80.9 82.9 85.1 86.8 87.7 86.8 89.2 93.4 96.2 100.2 105.3 102.3 106.3 107.5 114.8 117.6 120.8 124 127.2 130.9 133.4 136.1 137.4 142.4 147.3 151.3 155.3 159.1 162.9 166.5 169.3 172.8 174.9 178.4 179.2 183 182.8 186 187.2 195.6 202.9 201.8 211.5 211.3 219.4 222.3 229.5 239.8 247.8 252.1 258.6 264.8 271.4 262.8 281.7 293.7 301.1 310.1 319.3 328.1 334.1 339 347.4 351.5 346.6 344.3 346.6 344.5 341.3 339.5 339.5 343.2 339.4 336.5 331.8 319.1 323 334.5 351.6 374.5 395.2 413.8 435.2 454.8 470.6 489.4 507.9 518.9 533.6 549.7 562.3 578 594.3 605 608.8 603.6 595.6 595.5 591.5 586.3 578.5 568.7 552.3 530.2 501.3 469.3 443.5 419.1 384.5 367.5 351.4 331.7 310.2 291.8 273.9 254.6 254.3 260.8 276.5 294.9 313.4 335.3 361.6 386.7 409.6 432.1 452.3 473.4 496.5 515.7 532.9 545.3 562.9 578 591.4 604.4 614.5 625.7 637.6 649.7 658.8 666.7 670.4 672.1 670.5 664.4 656.9 650.1 639.7 626.7 605.2 611.9
41.8 41.8 41.8 41.8 41.8 41.8 41.8 41.8 41.8 41.8 41.8 41.8 41.8 41.8 41.8 41.8 41.8 41.8 41.8 41.8 41.8 41.8 41.8 41.8 41.8 41.8 41.8 41.8 41.8 41.8 41.8 41.8 41.8 41.8 41.8 41.8 41.8 47.5 50 50.2 45.2 54.1 61 61.4 61.5 65.1 67.5 71.4 74 76.4 78.7 80.6 81.8 80.3 83.5 86.7 89.2 92.3 98.7 97.7 98.5 97.2 108.4 109.6 112.8 116.2 118.5 122.1 125.4 124.9 129.8 134.3 138.6 142.5 146.3 148.3 151.5 155.1 158.7 160.9 164.4 168 167.8 170.9 174.1 176.6 180.1 186.5 188.6 189.3 197.9 202.1 207.2 214.7 221 233.1 228.4 236.4 247.2 251.4 259 261 273.1 284.6 291.2 302.1 308.8 315.4 321.7 329.9 335.7 336.1 334 331.6 335.2 330.7 328.7 329.5 329 329.3 327.9 325.1 325.2 320.8 319.6 330.5 344.5 363.5 384.3 400.6 415.8 437.6 451.9 468 482.2 498.8 512.6 526.8 543.3 557 566.9 574.7 577.6 579.2 580.8 580.6 577.7 573.3 567.9 560.1 548.9 534.5 508.4 480.3 448.1 407.1 382.9 362.3 347.6 331.4 308.5 291.5 271.8 256.3 250.9 263.5 276.4 293.3 314.7 334.3 360.7 390.1 412.9 433.3 458.4 479.3 500.3 519.2 537.4 554.6 568.3 580.9 592.1 605.5 616.9 626.5 636.6 645.5 654 660.8 663.5 664.5 660.3 649.6 640.9 634.4 628.7 619.7 609.6 591.3
41.8 41.8 41.8 41.8 41.8 41.8 41.8 41.8 41.8 41.8 41.8 41.8 41.8 41.8 41.8 41.8 41.8 41.8 41.8 41.8 41.8 41.8 41.8 41.8 41.8 41.8 41.8 41.8 41.8 41.8 41.8 41.8 41.8 41.8 41.8 41.8 41.8 42.3 44.8 44.6 43.7 50.6 54.1 56.2 54.8 55.7 61.2 63.9 66.2 68.5 70.1 71.8 74.1 74.1 75.4 77.8 79.7 83 86.6 95.2 99.1 88.9 98.8 101.7 105.4 107.1 109.9 113.2 115.9 120.4 122.7 125.7 127.9 134.9 137.4 138.3 141.3 145.4 147.6 147.7 154.9 157.2 159.4 163.1 169.1 171.3 172.4 175.2 178.6 181.3 188.9 193.7 195.7 201.7 208 218 221.9 227.4 239 240.8 244 257.1 265.8 273.1 284.1 294.2 296.8 304.8 311 313.1 316.1 318.9 320.4 318.3 318.4 321.7 320.6 318.5 319 319.1 317.7 318.8 318.7 311.9 316.7 322 336.3 357.9 369.6 385.2 404.2 419.4 434.7 444.6 461.6 476.3 492.9 506.6 521.9 535.2 545.4 554.8 560.9 564.6 565.5 565.2 563.8 561.3 556.6 550.7 541.5 533.1 519.1 483.3 439.9 404.7 384 361.4 342.8 322.8 298.6 285.6 270.3 253.1 252.6 262.2 277 291.2 313.7 338 363.7 395.3 416.2 437.5 460.4 482.1 503.2 522.2 539.1 555.3 570.9 583.7 594.8 606.8 618.6 627.9 635 642.5 648.5 653.7 655.6 655.7 651.5 643.5 629.3 620 615.9 609.8 600.2 591.4
