ncols 200
nrows 82
xllcorner 280000
yllcorner 113600
cellsize 50
201.4 198.4 197.2 195.2 192.8 189.8 183.7 187.9 190.6 188.8 188.8 189 188.9 184.1 186.2 185.6 184.9 183.7 180.8 179.4 177.2 174.4 169.9 162.5 153.6 154 162.6 163.8 164.4 165.8 168.7 169.9 176.9 181.9 186.7 190.1 192.4 196.8 201.6 207.1 209.7 208.4 204.3 200.3 195.1 190.9 187.1 178.9 179.6 184.6 187.2 189.4 191.3 192.7 194.8 198.8 202.8 205.4 206.4 206.4 204.9 203 200.5 196 192.1 188 186.1 183.4 179.6 172 170.9 177.6 181.7 185.1 187.4 188.4 192.6 196.2 199.8 202.6 205.9 207.6 210.4 214.1 217.7 221 223 225.1 226.4 226.9 226.8 226.2 224.1 221.8 219.6 217.1 214.8 210.6 204.2 196.8 189.8 186.1 180.4 179.2 189.2 194.6 198.6 202.1 205.2 208.7 213.4 217.6 221 223.8 225.8 227 227.4 227.2 224.9 222.6 220.5 219.3 218.1 217.4 216.9 216.9 216.8 216.7 216.5 217 218.4 219.1 220 221.5 223.2 225 225.5 229.4 231.8 234.4 236 237.6 238.6 241.4 244.9 248 249.5 251.9 253.3 256.5 259.6 262.7 264.9 265.5 266 266.3 266 266.2 265.9 265 262.7 258.7 255.8 254.6 252.3 249.9 247.4 244.5 239 240.7 239.9 238.5 236.8 233.5 227.2 221.1 216.6 219.5 222.6 223.3 222.9 222 232.1 237.9 242.3 246.1 249.2 250.2 249.8 249 247.3 246 245.3 243.4 240.4 235.7 229.8 225.1 221.1 217.5
206.7 204.3 201.9 199.7 198.2 194.2 189.3 185.4 179.3 180 181.3 182 180.1 180.2 180.6 180.6 179.8 176.9 174.6 174.2 173.2 170.3 167 160.8 154 152.7 156.7 161 165.5 168.7 170.6 171.6 173.6 179.7 182.5 185.8 192.2 198.7 204.1 207.9 208.6 207.4 203.8 198.9 194.3 188.1 183.6 177.7 176.5 181.9 183.7 185 186.5 189.8 193.9 197.7 202 203.7 205.2 204.8 204 201.3 198.4 195 191.2 186.6 182.3 179.2 176.7 170.8 170.2 177.3 180.8 184.3 187.5 190 193 197.1 201 205 208.4 211.5 214.1 216.7 219.4 221.4 223 223.9 224.5 224.5 224 222 219.5 217.6 215.6 213.5 211.6 207.3 200.5 194.1 187.8 182.8 179.7 181.1 187.3 192.1 197.2 201.1 205.6 210.5 215.3 218.9 222.4 225.4 227.7 229 229.2 228.2 226 222.9 219.9 217.9 216.1 215.6 215 213.4 213.5 213.7 215.2 217 218.3 220.8 222.1 223.6 225 226.9 229.1 231.8 234.8 238 240 242 242.6 244.4 247.5 250.2 251.9 254 255.7 257.7 259.6 261.5 263.1 263.6 264.2 265 265 265 265.2 265.1 264.8 263.1 262.2 260.7 256.7 254 248.8 244.7 243.8 241.4 238.5 234.4 234.7 228.4 222 234.4 236.8 238.7 239.9 238.7 237.3 236.5 238.9 244.2 247.3 249.7 250.8 250.7 249.2 246.8 244.8 243 242.7 241 238.7 234.4 228.8 224.1 217.8 212.6
211 208.7 206.1 203.5 201.7 199.9 196.1 192.8 189.2 185.8 181.8 177.3 174.6 170.6 170.5 172.6 171 169.1 165.5 166.9 166.5 165.3 162.5 158.3 152.7 153.1 161.1 167.2 172.8 176.9 178.4 178.9 180 181.9 184 190 197.4 203.9 207.9 208.8 207.9 206.1 202.8 199 193.7 188.1 183.3 177.7 174.6 178.4 179 185.2 188.1 191.5 194.6 198.5 200.7 202.4 203.3 202.9 202 199.5 196.9 193.2 189.4 186.1 182.4 178.2 172.8 170.2 170.2 174.8 178.1 180.8 184.7 188.8 192.5 196 200.6 205.3 209.8 213.3 215.8 218.1 219.6 220.5 221.4 221.9 221.3 220.6 220.1 218.5 215.8 212.8 210.4 207.8 206.6 204.7 201.1 194.2 186.8 180.6 178.5 182.2 184.4 188.9 193.2 197.9 203.3 209.2 213.4 217.5 221.7 225.1 228.4 230.2 230.4 229.2 226.7 223.3 220.4 218.3 216.4 213.6 213 211.6 214.2 215.6 217.1 218.8 221 222.8 225.5 227 229 231.6 233.5 235.8 238.9 241.6 243.9 245.7 246.2 246.6 248.6 251.4 253.6 255.2 256.5 258.3 259.6 260.8 261.6 262.3 262.6 263.5 263.8 264.7 265.4 266.3 267 267 265.8 263.7 260.3 256.5 250.8 250 248.6 246.3 243.3 240.5 235.9 228.3 233.8 242.8 246.4 249.5 250.7 250.8 249.2 247.5 249 250.7 251.8 252.1 251.3 249.8 248.1 246 243.4 240.9 239.6 238.7 236.4 233.8 228.9 223.6 214.9 207.4
213 210.8 208.5 205.9 204.7 202.6 200.4 198 195.5 193.3 190.4 187.7 183.7 179.8 176.8 173.9 172 168.9 166.2 163.9 159.6 156.1 154.8 152.3 150.9 153.6 164 173.6 179.7 183.2 185.5 187.2 188.2 189 189.1 193.7 199.8 204.7 207.8 207.8 206.9 204.7 201.8 197.8 193.8 188.5 183.5 178.9 172.7 174.3 180.3 184.3 188.4 191.9 195.8 198.5 199.6 200.2 200.3 200 198.4 196.1 192.7 190.4 187.5 184.9 182.2 178.7 174.6 168.2 168.6 173.5 178.9 182.7 185.9 189.5 194.7 197.4 201.2 206.6 210.9 214.1 216.4 217.8 218.7 219.2 219.1 218.5 217.9 217.2 215.9 213.9 211.6 206.9 203.9 201.7 201 198.9 197.3 192.5 183.2 178.8 181.6 187.3 191.6 193.5 197.4 200.7 203.7 208.6 213.6 215.7 218.3 223.1 227.1 229.3 229.5 228.3 225 221.4 218.4 215.8 213.4 211.3 209.7 212.9 215.3 216.7 218.2 219.7 221.9 224.1 227.1 230.3 233.4 235.7 237.2 239.3 242.3 244.6 247 248.1 248.8 249.2 250.3 251.8 253.8 255.3 256.1 258.1 258.4 259.1 259.8 260.4 261.2 262.1 263.5 264.4 265.9 267 267.9 267.9 266.8 265.2 261.3 258.7 256.5 254.5 252.6 250 247.9 244.1 238.4 225.7 237.6 245.6 250.1 253.9 256.7 258 257.6 256.4 255.4 255.2 254.5 253.3 250.9 248.4 246 243.4 240.9 238.4 236.8 236.6 235.1 232.5 227.9 221.9 211 222.2
213.6 211.1 208.8 207.2 205.5 203.9 201.6 199.5 198 196.6 194.6 192.3 189.8 187.4 184.7 182.3 179.9 177.3 174.7 171.2 168.2 164.5 161.3 154.8 152.2 156.8 167.6 176.6 182.9 186.7 189.8 192 193.2 194.1 195.3 197 200.7 203.9 205.9 206.3 205.4 202.7 199.3 195.6 191.6 188 184.4 179.8 174 175.8 180.9 185.4 189.3 192.6 195.9 197 197.7 196.7 196.1 195.7 194.2 191.5 188.7 185.3 182.3 179.8 177.8 176.4 172.9 167.7 169 175.4 182 188.2 193.9 197.2 200 202.1 206.4 209.4 211.8 214.1 215.8 216.7 217.3 216.6 215.9 215.3 214.7 213.4 212.1 210.5 207.5 203 198.4 194.8 193.5 193.2 190.6 187.6 180.6 177.3 187.9 192.7 197.1 199.2 201 205.7 210.3 214.7 218.1 221.1 223.6 225.7 228.4 229.1 229.2 227.2 223.3 219.2 215.6 213.2 209.7 209 212.7 214.9 217.1 219.7 221.6 223.2 224.2 227 230.3 234 236.6 238.5 240.4 242.5 244.8 247 249.2 250.6 251.3 251.9 252.5 253.2 254.2 254.8 255.4 256.5 256.8 257.3 258.1 258.8 259.7 261.2 262.8 264.3 265.8 267 266.5 267.5 267.4 266.1 264.1 262.4 259.7 257.4 254.7 251 247.1 241.3 235 230.3 238.4 245.7 251.1 255.8 259.5 261.3 261.2 260.1 259.1 257.6 255.3 253.1 250.4 247.7 244.1 240.2 237.7 235.3 233.6 232.9 231.7 228.9 223.6 216.7 210.3 226.2
211.4 209.4 207.1 205.4 204.1 202.2 200.5 199.3 198.1 197.2 195.4 194.5 192.7 190.5 188.3 186.2 183.2 180.7 176.8 173.4 169.4 164.4 159.6 153.7 151.2 159.9 169.4 178.1 184.8 189 192.1 194.3 195.6 196.4 197.2 197.9 200.3 202.8 204.7 204.5 203.6 200 194.4 191.6 188.2 186 182.3 178.7 173 175 180.4 184.9 189.4 193.5 195.1 195.5 194.7 192.9 191.2 191.2 189.3 186.9 183.5 179.7 176.8 174.9 172.9 171.1 168 167.1 170.7 178.1 184.5 190.3 196.7 201.3 204.5 206.6 209.4 211.1 212.7 213.8 214.5 214.7 214.7 214.2 213.5 212.7 211.7 210.1 208.4 207.2 204.8 202.9 200.2 196.6 192.8 186.4 185.3 183.1 176.5 180.4 189.2 193.8 199.1 203.5 206.8 211.2 214.7 218 221.4 224.4 226.5 228.7 230.2 230.6 229.1 226.2 221.8 216.8 212.9 207.8 208.2 213.3 216.1 217.2 220.2 223.4 225.6 227.3 229.1 231 234.6 237.5 239.5 241.1 243.5 246.1 247.8 249.5 250.3 251.5 252.6 253.2 253.3 253.2 253.5 254 254.6 255 255 255.4 255.8 256.5 257.5 259.4 261.4 263.4 265 266.5 267.5 266.6 268.3 267.4 265.9 263.6 261.3 258.7 255.1 250.4 245.9 240 233.9 239.6 235.8 243.6 250 255.9 260.9 262.3 262.2 261.1 259.2 257.3 255 252.3 248.8 245 241.1 237.4 234.1 231.4 229.4 228.9 227.9 225.6 221.2 210.8 222 230
208.3 205.9 203.7 201.7 199.8 197.9 197.5 196.7 196.1 195.4 194.9 192.7 193.6 192 190.4 188.8 185.7 182.1 178.4 174.1 168.6 161.7 156.7 152.2 151.9 162.5 173.1 180.7 186 189.8 193.2 194.8 195.4 195.3 196 198.1 200 202.2 204.2 204.4 203.3 199.9 195.3 190.8 185.8 181.8 178.3 174.6 170.1 174.8 181.8 186.3 190.4 193.6 195 194.2 191.6 189.4 187.8 186.7 184.7 181.7 177.5 174.4 172.2 171.1 169.9 168 164.9 168 173.3 178.3 183.7 190.3 197.3 202.5 206.1 208.1 209.6 210.7 211.8 212.3 212.3 212.2 211.8 211.5 211.3 210.5 208.3 206.1 204.4 203.2 202.2 200.7 198.5 195.3 191.6 187.5 182.2 178.2 175.6 182.9 188.3 193.4 198.7 202.7 208.4 212 215.9 219.7 222.9 225.5 227.4 229.1 230.6 231 229.6 228 222 215.9 207.8 207.7 213.7 216.8 219.2 220.3 222.6 226.6 228.6 230.4 232.7 235.1 237.8 240.2 242.6 244.1 245.9 247.5 248.8 250.3 251.1 252.1 252 252.1 251.9 251.9 252 252.5 252.8 253.1 253.1 252.8 252.4 252.9 255.5 257.8 260 261.9 263.9 265.9 267.3 267.5 268.8 268.6 267.3 264.5 262.4 258.6 253.2 247.7 244.2 238.4 243.2 245.2 241.7 247.5 253 258.1 262 263.3 262.9 260.8 258 255.4 252.5 249.7 246.9 243.1 239.1 235.7 232.4 229.4 226.7 224.7 223.4 222.1 220.2 209.9 223.8 231.3
204.7 201.4 198.7 196.1 194.8 193.7 193.5 192.6 192.1 191.4 190.4 189.9 191.1 190.9 190 187.8 184.7 180.7 176.6 171.3 165.7 158.6 152.9 150.4 156.8 166.3 174.6 181.5 186.3 189.9 192.3 193.4 193.5 193.5 195.2 197.5 199.9 202.2 204 204.4 203.5 201 198 193.8 188.2 182.2 179.5 175.2 169.5 180.1 185.8 188.7 192.9 194.6 194.5 192.7 189.7 186 184.3 183 180 175.6 172.5 169.9 167.7 166.6 163.8 164.2 165.3 172.7 177.4 182.5 188 193.5 198.6 203.3 206.1 208.1 209.1 209.8 210.1 210 209.5 209.1 208.4 208 207.9 207.5 205.9 203.6 201.7 199.2 198.7 198.2 196.6 193.4 189.7 185.3 180.7 176.3 175.8 181.9 186.5 191.4 195.7 199.7 205.9 211.5 214.9 219 222.2 224.5 226.7 228.6 229.7 230.7 229.5 227.1 222.4 214.3 205.5 213 217.9 221.3 224 225.8 226.6 229.3 231.9 234.3 236.2 237.8 239.6 241.7 243.3 245.1 246.5 247.7 249.1 250.3 250.5 250.3 250.1 249.8 249.6 249.6 250.1 250.6 250.7 250.7 249.3 249.6 252.8 255.4 256.9 258.1 259.5 261.2 263.9 265.9 267.4 269.3 266.5 269.6 268.6 266 263.1 259.2 254.8 250.3 245.8 242.7 247.3 248.8 248.4 246.1 253.8 259.2 262.7 263.9 263.2 261.2 257.2 252.9 248.8 245.4 242.3 239.7 236.8 233.9 231.8 229.7 227.6 225.3 222.6 218.4 216.9 212.2 225.2 231.3
200.8 197.4 195.6 193.3 191.8 190.5 189.2 188 187.3 186.7 186.5 187.1 188.3 188.6 187.9 185.8 181.9 177.4 172.6 167.2 161.3 156 150.7 153.1 161.7 169.4 175.2 181.3 185.4 188.6 190.3 191.5 191 192.2 194.7 197.2 199.5 201.5 203.2 203.8 203.3 200.9 198.2 193.1 187 180.7 175.8 169.2 172.4 181.6 187.3 190.9 193.3 193.9 193.8 191.5 188 184.2 178.9 177 176.4 171.5 167.4 163.9 161.9 164.6 167.4 171.9 175.7 178.6 183.9 188.4 193.7 198.5 202 204.9 206.1 206.8 206.8 207.2 206.9 206.7 206.2 205.3 204.7 203.5 203.3 203.5 202.7 199.5 197.6 195.1 195 195.7 193.8 191.4 187 182 177.4 172.4 177.3 181.1 185.7 189.5 193.4 197.1 202.7 208.4 213.6 216.6 220.5 222.8 224.8 226.8 228.5 229.1 228.5 226.2 220.6 207.7 209.4 218.2 222.7 226.1 227.9 229.5 230.7 231.3 233.5 235.6 237.7 239.3 240.7 242.6 243.9 245.3 246.6 247.8 248.5 249 249 247.9 246.8 246.2 246 244.2 244.9 245.2 244.3 246.1 249 251.9 255 257.6 259.3 260.3 261.7 263.4 265.7 266.9 268.8 271 271 266.6 268.6 266.3 262.9 258.9 255 252.2 249.4 246.7 250.4 252.7 250.7 252.4 253.4 259.3 263.2 264.8 264.1 261.9 257.8 253.5 250.1 247.1 242.9 238.3 234.1 231 226.7 226.9 226.2 224.4 221.8 219.5 215.8 216.9 223.4 229.6
198.6 195.3 193.2 191 189.4 186.8 184.4 183.8 182.8 181.5 181.7 181.6 184.8 185.6 185.4 183.6 179.3 173.9 169 163.6 157.6 153.3 149.1 155.6 162.3 169.2 174.8 180.4 184.4 186.7 188.1 188.7 187.8 189.8 192.5 194.8 197.7 199.8 202.3 203.6 203.4 201.7 198.7 192.8 187.4 182.3 176.1 166.4 174.5 181.5 186.7 190.3 192.5 192.9 192.2 189.8 187 183.3 180.2 172.8 171.5 166.1 160.6 164.9 169.9 173 177.8 182.5 185.1 184.7 191.4 195.1 199.2 202.3 203.7 205.7 206.4 206.1 205.6 204.3 203.1 202.6 202.1 201.5 200.3 198.6 198.5 198.7 198.2 196.4 192.8 191.5 190.2 192.3 191.7 188.4 184.4 179.8 175.1 174.1 175.6 178.3 182.2 187.3 191.7 195.2 199.8 204.6 209.5 213.4 218 220.4 223.1 225 226.7 227.2 225.9 223.6 216.3 209.3 215.2 221.8 225.5 228 230.1 231.5 232.6 233.6 234.8 236.8 238.8 240.4 241.4 243.5 244.6 245.4 246.3 247.2 247.7 247.6 246.6 243.5 240.3 238.5 239.4 242.5 245.4 247.6 249.1 250.6 252.1 253.8 256.9 259.3 261.5 262.9 264.1 264.9 266.9 268.8 269.5 272 272.1 271.2 267.2 265.9 260.2 256.4 255.9 255 252.6 251.3 253.6 255.8 254.8 257 258.2 260.2 264.6 266.2 265.6 263.4 260.5 256.7 252.3 248.6 244.6 237.2 235.1 233.2 231.1 228.4 225 221.2 218.3 216.6 218.9 223.3 225.6 226.3
196.8 194 191.1 188.5 183.9 181 180.8 179.4 177.1 174.3 175.7 177.5 179.8 181.5 181.9 181.3 179.1 174.8 169.3 163.5 157.5 151.3 148.9 156.9 164.8 169.8 174.7 178.7 181.7 184 185.1 185.6 184.8 187.3 189.8 192.1 195.7 199.2 201.7 202.9 203.1 202.2 199.8 195.9 191.6 184.9 175.2 165.1 178.4 183.2 187.1 189.8 191.2 191.2 190 188 185.3 182.5 179.1 170.3 164 159.5 165 172.6 176.6 180.9 185.4 188.8 190.9 191.2 195.1 199.5 202.3 204.3 205.4 205.8 205.5 204.7 203.8 202.4 200.6 199.7 198.7 197.8 197.1 195.6 194.4 194.4 193.6 191.7 189.7 187.5 186.6 189.2 188.9 185.9 182.3 178 174.4 174.4 179.1 182.2 182.8 183.2 188.5 193 195.7 199.6 204.8 209.6 214.3 218.8 221.8 223.6 224.4 224.5 222.6 219.4 210.4 203 216.7 221.4 224.8 227 228.8 230.5 232.9 234.7 236.4 238.4 239.8 240.9 241.9 243.3 244.1 245.2 245.5 246.2 245.6 245 243.8 239 234.8 242.7 246.1 248.9 251 252.3 252.4 254 255.6 257.1 259.1 262.2 264.9 265.7 266.7 267.6 268.5 269.7 270.9 272.2 273.1 271.9 270.3 267.5 263.7 261.8 260.4 259 257.2 256.5 259.1 259.4 259.4 261.3 263.4 263.5 266.5 268 267.7 265.7 263.1 259.3 254.4 249.4 243.2 240.6 239.4 235.3 232.2 229.4 226.4 222.9 216.8 221.4 222.7 226.1 229.6 232.3
198 194.3 192.8 190.1 188.3 187.3 185.5 184.2 182.8 180.1 175.7 170.6 169.5 173.1 177.3 177.4 176.8 174.2 170.5 164.3 158.1 151.4 150.1 157.9 163.6 168.1 172 174.4 176.6 178.5 179.9 180.5 179.4 183 186.2 190.8 194.9 198.8 200.6 201.5 201.6 201.4 200.5 197.9 193.4 186.7 171.7 165.7 179.3 183 187.4 188.9 189.8 188.7 187 184.2 180.9 178.5 175.1 167.5 158.6 166.8 176.4 180.6 182.8 187.3 191.3 193.8 195.9 197.9 198.8 201.6 203.7 205.2 205.8 205.1 204.4 202.6 201.6 200.2 198.6 196.7 195.5 194.7 193.6 192.2 189.2 189.9 189.3 188.3 186.3 182.6 182.1 185.9 186 184 181 176 172.8 175.5 182.1 186.7 188.9 189.1 190.9 191.5 193.5 200.2 205.3 209.5 215.3 218.2 221 222.1 222.5 221.9 219.1 214.7 205.9 207 215.3 218.9 221.7 223.5 225.7 229.3 232.6 235.7 238.2 240 241.1 242 242.5 243.5 244.4 244.5 244.6 243.9 242.7 241.1 237.7 232.9 241 246 249.3 251.7 253 254 255.3 256.6 258.2 259.9 262 264.8 266.4 267.8 268.5 269.4 270.6 271.9 273.1 273.5 273.5 273.2 271.9 271.1 269.7 268.1 266.2 263.9 262.5 262.3 263.2 264.1 263.6 265.2 267 267.7 268.8 269.8 269.2 267.6 264.8 261.2 255.5 248.7 247.1 245.6 242.4 237.4 233.4 230.5 226.2 222.4 224.6 226.6 227.5 225.8 232.2 236.9
201 197.9 195.7 193.5 191.5 191 189.4 188.3 186.8 184.1 180.1 177.5 172.7 165 167.4 171.7 172.7 172.3 169.9 165.4 157.8 150.5 148.5 157.4 161.9 165.5 168.2 169.7 172 172.8 173.3 176.1 180.3 184 187.9 191.5 195.2 198 199.6 199.7 200 200.1 199 197.2 193.3 185.2 170.8 166.6 179.4 184.1 186.1 186.7 186.2 184.9 182.5 179.4 175.7 172.9 169.8 160.6 165.3 176.7 182.5 186.2 189.1 192.9 195.7 198.1 200.2 201.4 202.6 203.6 204.6 205.7 205.8 204.8 203.4 201.3 199.3 197.4 195.4 192.7 192 192 190.4 187.8 184.9 185.2 185.2 184 182.4 180.7 178.1 181.5 182.2 180.8 178.4 173.7 172.7 177 182.5 188 192.3 193.6 195.2 197.2 199.5 200.7 206.9 211.4 215.6 218.6 220 220.5 220 218.6 217 213.5 204.4 203.9 211.7 213.9 216 218.9 223.9 229.5 233.7 236.9 239.4 241 242.1 242.4 242.7 242.5 242.7 241.9 241.6 240.8 239.4 234.9 231 238 244 247.2 249.9 251.8 252.8 253.9 255.6 256.9 259 261.3 263.3 266.1 268 269.1 270 270.9 271 272.1 273.4 273.3 273.4 273.6 273 272.9 272.4 272 271.5 269.7 268.7 267.7 268.1 267.7 268.3 269 270.2 269.9 270.1 270.7 270.1 268.4 265.6 261 254.5 252.8 252.7 250.2 245.2 240.7 235.3 231.7 228.1 228.9 229.1 229.7 230.7 231.2 235.6 241.5
202.3 200.7 198.7 197 195.3 193.8 192.1 190.3 188.7 186.8 184.3 182.2 178.1 171.9 166.3 161.6 165.4 167.2 166.4 162.9 157.5 149.7 148.7 155 157.5 158 161.2 162.7 164.3 170.3 175.2 179.7 183.3 186.3 189.4 192.7 195.8 197.2 197.8 197.4 197.3 197.3 196.6 194.9 191.4 185.4 173.1 162.1 179.2 180.7 181.6 181.4 180.2 178.1 175.5 171.7 169.9 168 163 158.4 169.4 179 184.6 188.2 191.4 194.1 197.1 199.4 201.8 203.2 204.3 205 205.4 206 206.4 205.2 203.8 200.6 198.7 195.5 192.5 188.9 186.5 186.6 185.1 182.5 180.2 181.5 181.2 179.4 178.6 177.4 174.9 176.2 177.7 177 174.7 170.9 174 179.9 185.9 189.6 193.3 195.8 197.9 200.3 203.3 206.1 209.7 211.9 215.2 217 217.2 215.9 213.9 212.4 209.7 208.3 203.6 201.5 206.2 208.1 212.9 218.9 224.2 229.4 233.4 236.5 239.5 241 241.6 241.6 241.3 240.5 240.8 240.1 239 237.6 232.8 228.4 234.6 240.1 244.6 246.8 248.5 249.6 250.9 252.2 254.3 256.6 259.5 261.9 264.8 267.1 268.9 269.7 270.6 270.8 270.9 270.9 272 272.5 272.1 273.1 273 273.2 273.2 273.2 272.8 272.1 271.8 271.6 271.6 269.7 269.1 271 271.4 271.5 271.5 271.4 270.3 268.1 264.7 259.8 257.9 258.4 257.5 254.8 250.4 243.9 237.8 234.6 233.2 233.5 234.5 235.3 237.2 238.7 240 247.5
202.2 201.1 199.3 197.5 195.5 193.8 192.1 190 188.1 186.1 184.1 182.3 179.7 176.2 172.7 167.1 161.3 158 160.4 158 154.9 149.5 147.3 150.6 156.3 160.7 165.7 168.6 169.6 171.1 176.9 181.3 184.2 186.8 190.3 193 194.5 195.2 195.3 194.1 193.6 193.6 193.7 191.8 190 184.3 174.8 163.1 162.4 173.3 174.5 175.1 172.9 170.2 167.7 166 164.3 161.7 157.2 164.5 174.7 179.3 183.2 186.5 189.7 192.3 194.8 197.8 200.7 202.3 203.5 204.3 205.2 205.6 205.5 205 203.6 201.7 199.2 197.2 194.1 190.7 187 183.7 179.3 176.6 176.1 177.7 177.2 175 174.9 173.5 171.3 171.3 170.6 170.8 170.7 173.1 179.7 187.1 192.3 195.8 198 199.3 200.9 203.2 206.4 209.6 211.5 213.6 215.1 215.3 215.1 212.3 208.9 206.8 205 202 197.7 199.4 203.4 206.9 211.4 215.7 222.5 229 231.9 235 237.7 239.4 240.1 240 239.3 238.6 237.9 236.3 232.9 228.2 227.2 232.8 238.3 241.7 243.6 245.4 246.8 247.8 249 250.7 252.9 255.9 259.1 261.8 264.7 266.8 268.3 268.8 268.4 268.4 268.7 269 269.7 270.6 271.6 271.2 272.1 272.3 272.4 272.6 272.8 273.1 272.2 272.3 272.5 272.7 273.2 273.3 271.6 268.9 267.8 269.5 269.6 268.3 265.4 264 264.3 263.7 262.1 259.3 255.5 247.6 242.1 238.9 239.8 242.5 244.5 245.5 246.7 248.4 250.5 254
200.4 199.4 197.8 196 193.6 191.4 189.7 187.6 185.9 184.1 181.9 180.6 179.2 177.5 175.2 171 166.4 161.6 158.1 154.4 151.1 147.8 146.9 152.5 158.1 162.7 167.7 170.7 173.9 176.3 179.2 181.4 184.1 186.7 189.4 191.5 193.2 193.5 193.1 192.3 191.4 191.6 191.6 190.6 187.9 183.7 177.2 167.2 156.9 164.3 166.4 167.8 166.8 164.7 162 160.1 157.3 155.6 163.4 171.7 175.4 177.1 179.5 181.9 184.8 186.6 190 194.5 197.6 199.1 199.9 201.2 202.4 203 203.1 202.4 201.6 200.8 200 197.9 195.2 192.5 189.6 185.8 182.9 178.8 171.6 171.8 171.2 170.2 168.6 168.1 170.2 172.2 172.3 173.1 176 179.8 184.6 192.3 198.1 201.7 204.2 205.8 206.2 207.1 209.2 211.6 212.8 213.7 214.1 213.7 212.3 209.3 206.4 202.4 200.8 197.7 195.8 199.2 203.4 205.6 209.8 215.6 222 228.1 231 233.6 235.3 236.6 237.3 237 236.3 235.2 233.9 232.2 226.7 224.4 230.8 234.6 238.7 240.4 242.4 243.3 244.1 244.7 246.5 249.1 252.3 255.4 258.5 261.2 263.8 265.4 266.4 266.3 265.6 265.6 266 266.5 267.1 268.4 270 271 271.2 271.3 271.3 271.7 272 271.9 272.5 271.9 272 272.4 273.1 273 272.7 272.2 271.4 271 270.4 267.9 266 265.6 267.6 268.7 266.1 263.2 260.1 254.7 248.8 245.5 246.2 248.8 250.5 251.7 252.6 254.2 256.1 258.6
197.9 196.7 195.1 193.5 190.3 188.4 186.7 184.8 183.3 180.6 178.2 177.8 176.9 176.5 176 173.7 170.7 166.6 164.7 162.2 157.8 151.3 146.8 150.9 157.2 163.8 168.3 171.5 173.8 177.7 180.2 182.6 184.9 187.5 189.7 191.3 192.1 191.8 191.2 190.3 189.4 188.9 188.6 187.8 184.7 182.6 178.3 172.2 163.3 156 161.7 163.2 162.2 158.5 153.3 156 162 167 169.8 170.9 172.4 173.4 174.6 176.7 179.5 181.5 185.6 190.7 193.6 194.9 195.9 196.9 198.5 199.2 199.8 199.4 199.4 199.5 199.1 197.1 194.9 192.2 188.4 183.6 180.3 175.8 170.6 167.3 166.4 169.9 173.5 177.4 178.5 178.5 179.7 181.1 184.2 188.5 192.4 196.4 201.8 205.3 207.4 209.4 210.2 211.2 211.9 212.4 212.6 212.5 211.9 211.1 209.4 206.4 203.1 199.7 195.8 194 199.1 202.2 207.5 211.7 214.9 217 221.6 227.1 229.7 231.2 232.5 233 233.6 233.7 232.5 231 230.4 227.5 220.2 228.6 232.2 233.6 235.7 236.7 237.8 238.8 240 240.2 242.7 246.7 250.5 254.3 257.8 260.4 262.7 263.7 263.8 263.7 262.5 261.7 261.4 262.3 263.1 266.5 269.1 270.4 270.6 270.4 270.2 270 270.1 269.9 270.7 270 270.4 270.8 271.6 271.8 271.6 271.4 270.6 269.7 268.8 268.1 268 266.9 267.5 267.4 265.3 262.2 260.8 259.1 254.9 253.1 253 253.5 253.8 254.6 254.4 255.4 257.2 259.1
195.6 194 191.9 189.9 187.3 185.4 183.6 182.2 180.6 178.7 175.8 174.1 174 174.9 175.6 174.4 172.9 171.5 169.3 166.1 160.1 153.2 147.1 148.3 155.2 162.7 167.4 170.6 174.2 176.2 179.6 183.7 185.8 188 189.9 191 190.8 190.3 189 186.6 184.1 185.7 185.4 183.5 181.3 179.8 177.9 176.8 172.4 163.8 153.6 156 154.8 154.3 162.7 167.5 167 166.7 167.2 167.4 167.6 168.7 169.5 171.4 174.6 177.8 181.5 185.4 188.1 188.7 189.9 190.7 191.7 193.4 194.6 194.9 196.3 196.1 195.9 194.4 192.2 189 184.6 178.8 173 168.1 165.3 170.2 176.9 180.2 183.6 186.4 189.2 190.4 191.2 193.2 195.3 196.9 201 203.5 206.1 208.9 210.7 211.9 212.9 213.5 213.1 213.2 211.3 209.8 209.1 208.3 206 202.3 198.1 193.5 193.2 199.6 203.8 208.3 211.8 216.5 219.4 221.9 224.3 225.5 227.8 228.3 228.9 230 228.8 229.5 227.9 226.3 224.3 220.3 224.9 229.2 230.3 231 232 232.8 233.9 235 235.5 237.6 240.9 244.2 247.5 251.4 255.6 258.8 260.9 261.7 261.3 260.3 258.3 257 257.1 257.8 262.7 266.5 268.7 270 269.8 269.4 268.6 268.2 269.2 269.2 269 267.7 267.8 268.2 268.8 269.1 269.3 269 268.3 267.5 266.6 266 265.6 265.9 266.4 266.5 265.9 264.1 262.3 260 257.9 256.1 255.7 255.4 254.9 254.8 256.4 258.9 260.2 261.2
193.8 192 189 186.2 184 182.1 180.7 179.1 176.7 175.7 173.6 170.8 170.6 172.7 173.6 173.4 173.5 172.7 171.1 168.3 163.3 153.2 146.3 147.5 153.3 160.2 164.8 169 173.7 176.8 180.4 183.5 186.2 187.9 188.7 188.9 188.6 187.6 185.5 181.7 178.9 180.3 179.9 178.7 177.7 176.1 177.3 176.6 174.6 170.3 164.2 157 151.3 161.6 164.2 164 163 162.7 162.3 162.3 162.8 163.1 164.4 166.4 169.3 174 177.5 179.6 181.3 182.2 182.5 184.6 186.1 186.9 189.1 190.5 190.7 191.4 191.2 190.2 186.8 183.3 176.9 170.4 165.1 168.3 175 181.3 185.1 187.9 189.6 191.6 193.8 195.4 197.2 198.6 200.1 202.4 204.5 207 209 211.3 212.6 213.8 215 215.4 215 214 211.6 208.6 204.9 203.5 201.5 197.7 193.5 194.3 198.9 204.4 207.3 211.3 214.9 218.2 221 222.8 223.8 224.7 225.3 225.1 225 225.6 225.6 225.4 224.6 223.5 218.5 218.1 225 227.2 228.2 228.6 229 229.8 230.6 230.3 232.7 235.4 239.8 243.8 247.6 251.1 254.6 257.1 258.6 258.7 258 256.1 253.5 252.5 255.7 259.9 263.3 266.7 268.5 269.6 269.5 268.7 267.2 266.7 267.6 267.9 267.4 266.2 264.5 265.3 266.1 266.6 266.6 266.2 265.5 264.8 263.8 263.3 263 263.8 264.4 264.6 263.7 262.7 260.9 258.8 256.8 255.5 254.3 253.5 252.7 251.8 251.3 251.4 251.8 252.5
192.2 190.9 187.6 184.4 181.7 179.6 177.8 175.3 172.8 170.5 168 167.2 167.2 168.7 169.9 170.8 171.2 171 170.5 168.6 164.8 154.1 144.5 148.4 158.8 165.6 169.1 173.2 176.5 179.6 182.2 184 185.4 185.7 186.2 186.3 185.9 184.4 179.9 177.8 174.8 176.3 176.4 175.3 174.8 173.7 174.7 174.3 173.3 171.2 167.7 158 150 156.2 159.4 159.3 158.1 158.1 157.2 155.6 154.3 155.3 156.7 157.5 161.2 165.2 168.8 171.7 173.2 174.8 176.7 178.8 179.7 181.5 183.1 184.5 185.2 185.9 186.3 185.5 182.2 176.2 167.3 162.7 169.9 176.5 183 185.9 188.3 190.5 192.2 194.1 196.2 197.6 198.4 199.7 201 202.5 204.4 207.2 210 211.9 213.7 214.9 216 216.4 215.8 214.5 213.1 210.6 206.8 201.6 196.8 193.7 193.2 200.5 203.9 206.2 208.4 211.6 215.6 218.5 220.5 221.6 222.3 222.1 222.2 221.3 220.7 221.3 221.7 221.4 220.9 219.8 214.5 220.8 223.7 225.4 225.7 225.6 225.6 226.5 230.3 232.9 234.8 238.6 242.2 245.5 248.8 251.9 254 255.8 256.6 256.1 255.2 253.3 249.3 255.4 257.9 260.4 263.4 266.1 268.3 269.4 269.4 268.3 266.4 265.3 266.2 266.4 266.1 264.6 262.7 262.2 262.9 263.1 263.1 262.5 262.1 261.7 261.2 260.6 260.3 260.8 261.6 261.4 261 259.4 257.7 254.7 252.9 251.6 250.6 249.7 248.3 247.1 246.3 245.4 244.9 244.7
191.3 189.8 186.5 183.2 180.5 177.5 174.1 173 172.6 169.8 169.2 168.1 162 160 162.7 165.2 165.8 165.5 165.2 164.7 162.7 152.9 145.3 147 161.2 166.7 171.6 175.2 178.3 180.6 182.4 183.5 183.6 183.6 183.3 183.4 182.9 181.5 179.1 174.3 170.9 173.4 173.8 172.7 171.6 171.8 171.2 170.7 168.8 167.4 164.5 156 150.5 153.7 155.1 154.7 152.2 152 151.9 155.3 156.7 156.8 152.2 156.1 154.7 156.8 160.5 162.4 165 166.6 170.5 173.1 173.6 175.8 177.6 178.2 178.9 178.9 180.5 180.1 177.2 170.4 162.8 168.9 176.9 180.7 184 186.1 187.4 188.6 189.7 192.2 194.4 195.5 196.5 197.4 199 200.9 203.6 206.4 209.5 211.9 213.5 214.7 215.4 215.6 214.9 214.6 213.1 210.4 207.1 201.7 195.3 190 196.1 201.3 204.9 207 209.2 212.7 215.9 218 219.4 220.2 221 219.8 218.5 217.2 217.4 218 218.2 217.7 216.9 214.5 218 220.2 222.2 222 220.3 221.1 226.4 228.8 231 233.8 236.7 240.2 243.8 246.9 249.7 252.2 253.3 254.7 254.2 253.2 252.4 247.8 249.2 253.8 257 259.7 263.2 266 268.4 269.4 269.2 267.9 266 263.1 265.1 265.8 265.1 263.6 262.1 259.4 259.8 260 260.1 259.6 259.3 259 258.2 257.4 257.4 259.1 259.7 258.4 257.4 254.5 251.7 248.9 247.1 245.3 244 243.8 242.7 241.6 240.1 239 238.6 238.9
190.9 189.2 186.4 183 179.7 177.1 173.7 175.3 175.5 174.4 171.4 170.5 168.5 166.7 163 161.1 157.3 153.8 151.4 152.5 152.3 148.3 144.3 146.4 157.1 164 169.2 173.6 176.8 178.8 180.4 181.3 181.3 180.7 180.7 181.1 180.7 179.5 177.8 174.7 170.2 170.4 168.8 169.4 166.7 165.8 165.9 165 162.7 159.4 157.4 153.2 149.9 149.5 150.8 151.2 155.2 157.5 161.5 165.7 168.9 170.7 170.3 165.1 160.6 155.2 154 156 157.2 158.3 163 166.7 168.1 169.7 171 170.7 171 171.5 173.3 173.3 171.2 163.4 165.3 173.1 176 178.6 180.1 182.3 183.7 184.1 186.5 189.2 191.1 192.5 192.6 194.5 197.8 200.3 202.7 205.1 208 210.9 212.5 213.4 213.8 213.9 212.8 213 211.9 209.1 205.6 200 192.4 189.1 194.7 199 201.8 205.1 208.6 212.8 215.9 217.3 217.5 217.7 217.7 217.1 216 213.4 214.4 215.8 215.9 215.2 214 211.2 215.3 218.2 219 215.6 221.3 223.8 226.2 228.8 231.4 234.7 237.5 241.3 244.6 247.6 250.3 252.4 253.1 252.6 251.3 249.9 248.1 242.4 247.4 249.9 253.5 257.8 262 265.3 267.6 268.7 268.4 267.3 264.4 260.5 263.2 263.7 263.4 262 260.3 257.4 254.8 256.9 257.1 257 256.7 256.4 256 253.8 255 257.5 258.5 256.6 253.2 249.6 247.1 243.7 241.4 239.1 237.7 237 235.1 233.4 232.1 231.2 230.6 229
190.8 188.9 186.6 183.8 180.4 178.5 178.2 177.7 176.9 175.5 174.7 173.1 171.5 170.6 169.8 168.8 166.8 164.2 160.9 158.8 156.2 148.4 144.8 144.7 150.8 155.8 164.6 169.9 173.8 175.5 177.2 177.6 177.3 175.9 175.6 177 177.3 176.6 174.8 171.7 166.7 162.9 164.2 162.8 161.9 160.2 159 157.6 150.8 150.2 149.8 149.8 148.4 153.4 155.6 158.1 161.5 165.5 169.9 172.6 174.4 175.2 174.8 170.8 166.2 161.6 163.7 163.3 161.8 157.7 156.4 158 159.2 160.1 160.5 161.5 164.1 164.8 166.5 167 163.8 159.3 162.9 165 167.4 169.8 171.8 175.7 178.7 181 183 184.7 185.6 187.8 192.1 195.8 198.4 200.4 202.4 204.4 206.7 208.3 210.2 211 211.2 210.1 209.7 210.4 209.8 206.6 202.9 195.8 189.9 190.9 195.3 199.8 203.5 207.1 210.2 213.4 215.4 216.1 215.9 214.5 213.9 213.2 211.5 210.6 210.7 212 212.3 211.2 209.6 209.6 212.3 213.1 214.1 218.2 220.2 222.5 225.1 228.2 231.8 235.5 238.7 241.4 244.8 247.4 249.7 250.8 251.3 250.4 248.2 245.6 244.1 240.2 243.1 246.3 250 254.7 259.3 262.9 265.9 267.1 266.9 265.9 263.5 258.9 259.1 260.3 260.4 259.8 258.4 256.5 252.7 252.8 252.8 252.7 253.3 253.3 252.4 249.6 254.5 256.4 257.3 256.2 253.2 249 244.3 241.3 237.2 232.4 227.3 227.9 226.7 225.6 224.4 223.4 221.4 219.1
191 189 186.7 184 182.4 181.4 180.5 179.8 178.9 180.4 178.9 177.3 175.5 175.3 174.6 174 173.2 170.5 168.2 164.9 160.3 153.7 145.4 144.4 144 152.2 159.4 166.6 170.3 172.2 173.3 173.8 172.4 170.9 170.3 172.6 173.1 172.5 170.5 167.1 162.7 155.9 158.3 157.1 155.4 153.4 149 147.7 146.2 148.5 148.8 149.9 155.1 161.8 165.4 169.4 173.7 176.3 178.5 180.1 180.7 180.5 178.9 175.4 168.1 169.8 171.5 173.1 173.1 170.5 163.4 160.2 159.7 158.5 160.1 162.3 160.8 159.7 159.1 160.7 161.1 161.4 165.2 166.3 166.1 163 164.2 166.7 173.9 176.4 179.7 178.1 184.9 189.7 193.5 196.4 198.5 200.5 202.2 203.6 204.7 205 206.1 205.2 206.2 204.4 206.5 207 206.1 203.7 198.3 191.4 189.4 199 203.2 206.5 208 210.9 212.7 213.6 214.7 214 212.4 210.2 208.7 207.8 206.8 205 205.7 207 207.5 207.5 206.8 210 212.3 214.9 216.7 218.2 220.2 222.1 225.2 228.2 231.6 235.3 239 242.2 244.7 246.9 248.2 248.5 248.3 247.1 245.4 242.6 240 237.8 239 242.8 246.3 251.4 257.4 261.1 263.5 264.4 264.6 263.7 261.7 259 253.7 255.9 257.1 256.8 256.2 254.4 251.7 246.6 247.7 247.6 248.2 248.5 246.5 249.8 253.1 255.1 256 255.1 253.3 250.1 246.4 244 241.1 236.3 233.1 229 221.6 214.7 215.4 215.6 213.9 212.7
191.4 189.9 187.6 185.7 184.1 183.4 183.1 183.9 183.3 185.4 185.8 184.9 182.8 180.7 179.3 178.4 177 174.8 171.9 168.7 164.3 158.9 150.6 142.5 143 150.6 157.4 164.4 167 168.6 169.3 169.9 168.6 167.3 165.3 167.5 168.3 167 164.3 160.4 155.9 150.2 152.2 150.2 149 147.3 147.2 149.9 154 154.5 153.6 157.3 165.1 172.8 176.5 181.1 183.6 185.2 186.2 186.2 186.8 185.5 183.2 177.1 166.8 175.6 179.1 180.6 179.4 175.6 166.4 170.6 168.4 163 167.9 172 174.2 173.2 171.2 171.6 175.4 177.1 178 178.9 176.8 175.4 172.3 164.3 166.8 169.3 176.4 182.3 187 190.5 193.7 195.8 197.7 199.1 200.5 202 202.8 203 202.5 201.4 200.6 198.7 200.6 200.7 202.1 199.3 191.8 188.1 197.4 205 209.2 211.1 212.4 214.1 214.4 214.2 212.5 211.8 209.1 206.3 202 201.4 203.3 205.9 206.6 208.3 209.2 211.4 212.9 214.3 216.6 218.9 220.6 222 224.1 224.8 226.6 228.6 231.8 235.1 238.8 242.2 244.9 246.5 247.2 246.6 245.8 244.3 242.4 239.7 237 234 239.6 242.4 246.8 251.4 256.5 259.2 261.2 261.9 262 261.1 258.5 255.5 251.1 251.6 253.6 254.5 254.2 252.4 248.9 245.3 243.5 243.8 244 243.3 239.1 246.7 250.3 253.2 253.9 252.9 251.5 249.1 245.9 243.2 240 238 235.4 231.5 226.8 220.5 212.8 203.9 204.4 203.9
190.9 190.7 190.3 190.2 189.7 190.1 190.4 190.5 189.8 189.4 189.4 188.3 187.2 184.8 183 181.4 180 178.3 175.4 172.4 168.4 163.2 154 146.8 143.5 147.5 154.3 160.8 163.9 164.7 164.6 164.1 162.2 161.4 160.7 162.5 162.4 160.7 156.7 150.6 148.3 147 145.6 146.3 146.6 151.5 157.1 161.1 163.2 162.5 163.8 162 169.3 177.4 181.9 186 188.8 190.3 190.5 189.9 186.9 186 181.7 172.6 175.9 181.2 184.5 185.2 183.5 179.6 168.3 175.4 173.6 167.7 166.9 176 180.2 182.6 183.2 184.5 185.9 187.1 187.6 186 184.4 183.1 181.2 176.2 166.8 169.1 176.2 182.2 186.4 189.9 192 194 195.6 196.9 198.1 199.4 200 200 199.3 197.3 196.8 193.8 192.4 193 194.3 193 186 193.6 203 208.1 211.1 213.4 215.2 215.8 215.2 213.9 211.4 208.9 205.6 201.6 201.8 207.6 209.8 210.8 213 214.4 215.7 217.7 219.2 219.4 220.6 223.1 224.9 226.4 227.8 228.6 230 231.7 233.9 237.1 240.2 241.4 244.3 245.8 245.9 245.1 242.5 239.9 238 235.9 232.1 235.1 240.2 244.2 248.7 252.1 255.6 257.6 258.8 259.3 259.3 258.1 255.3 251.8 247.9 249.2 251 252.2 252.3 250.3 246.8 243.6 239.7 239 239.3 238.3 242.1 245.4 248.8 251.1 251.8 250.4 249 246.9 244.4 241.7 239.3 236.7 232.2 229.3 224.8 218.6 211.8 208.2 205.6 199.9
189.1 190.8 192.1 193.5 194.5 194.8 195.2 195.4 194.7 193.7 192.7 191 189.1 186.3 183.8 181.5 179.6 177.7 175.6 173.1 170.2 165.1 155.7 147.8 142.9 144.3 150.7 155.7 160.6 161.5 161.7 160.7 159.2 157.3 156.3 155.9 155.7 154.3 150.6 146.8 145.4 144.7 144.6 147.7 153 158.3 163.3 166.7 168.6 170.2 171 170.2 169.5 177.9 183.9 188.5 191 192.6 192.3 190.8 187.4 185.4 179.6 176.1 184 186.3 187.2 188 186.6 182.6 172.7 179.7 178 172.8 165.3 175.1 182.2 186.4 189.1 191.4 192.3 192.8 193.3 193.1 191.7 189 185.5 180.5 171.2 167.7 171.9 178.7 183.3 187.1 189.2 190.8 191.9 192.9 194.1 195.5 196.3 196.2 195.6 193.7 191.5 189 188.3 187.7 188.9 184.7 185.3 197.2 205.8 209.6 212.3 214.2 215.4 215.1 213.4 210.9 208.6 204.3 199.4 201.8 207 212.5 214.3 216.2 217.8 219.7 221.9 223.3 225 224.9 225.8 226.8 227.9 229.5 230.4 231.1 232 234.5 237.8 240.1 242.1 243.5 244.6 244.7 244.6 243.5 241.1 237.4 232.7 229.9 231.2 237.9 242.5 246.2 249.2 252.2 254.5 256.2 257 257.7 257.4 255.7 252.7 249.3 245.8 247.2 250.5 251.4 250.9 249.8 247.7 245.3 241.5 240 234.8 234.9 239.9 243.2 246.7 250.1 250.5 247.9 244.9 242.1 240.8 238.3 235.8 233.4 230.6 226.3 223.2 220.2 217.2 213.6 209.4 205.9
185.4 188.1 191.7 193.4 195.3 196.6 197.7 197.8 197.7 196 193.9 191.4 188.6 185 181 178.6 177 174.6 172.4 170.1 168.2 165 156.1 149.5 143.3 142.7 148.5 152.3 156.3 158.5 158.5 157.3 155.3 153.7 151.9 151.9 150.8 149 145.1 144.5 144.8 146 149.8 150.3 150.3 159.3 165.3 169.5 171.8 173.6 174.9 175.7 176 176.1 183.7 188.3 190.9 192.3 191.5 189.2 187.3 189.6 186.1 180.5 185.9 188.5 189.6 190.3 188.7 184.1 179.9 185.9 184.8 179.5 169.4 170.7 180.1 185.5 191.3 193.8 195.7 196.7 197.4 196.8 195.4 192.6 188.9 184.7 178.2 169 169.4 172.3 177.5 180.4 183.6 186 187.2 188.2 189.8 191.1 191.2 191.9 191.6 189.5 187.8 183.9 183.8 182.4 182.1 183.5 193.7 200.6 206.4 209.9 212.3 213.4 213.8 212.8 210.3 207.4 203.7 199 201.4 208.6 213.3 216.6 218.2 218.8 221.5 223 225.4 226.7 227.6 228.2 229 229.8 231.1 232.1 233.3 234.3 234.9 236.7 239.5 241.3 242.7 243.4 243.8 243.8 243.6 241.5 239.6 235.7 229.6 228.6 237 240.9 243.8 247.5 250 251.9 253.4 254.7 255.8 256.4 255.6 253.6 250.8 247.3 240.8 246.9 249.9 250.5 250.1 249.2 247.9 246 244 242.1 239.1 230.8 234.7 241.4 245.9 249.1 249.8 246.9 243.7 239.3 236.4 233.8 231.1 228.4 227.3 225.3 221.8 220.1 217.7 215.3 212.5 209.9
182.7 184.9 188.8 191.8 194.3 195.8 197.7 198.5 198.1 196.7 193.8 190 186.7 181.9 178.3 175.8 171.7 171 168.9 165.7 163.6 162.4 159.1 150.2 144.4 142.1 147.1 149.6 153.3 155.2 154.6 153.1 151.9 150.1 148.2 148.1 145.4 143.7 143.7 144.5 147.2 151 153.2 157.1 159 154.8 161.6 168 171.8 174 176.2 179 180.3 181.5 184.6 188.8 191.3 192.6 191.9 191.5 191.7 189.5 189.8 186.2 185.4 190.1 191.9 192.3 190.3 185.5 182.9 188.9 188 184.4 178.8 167.4 174.4 184.2 189.5 192.7 195.6 197.6 198.7 199.1 198.7 196.7 192.9 188.8 181 176 171.1 168.9 170.3 173.6 176.6 179 180.6 182.2 184.6 186.4 186.7 187.4 187.5 186.4 181.1 178.7 179.7 182.2 184 188.1 194.1 200.6 205.5 209.3 210.9 212 210.8 208.8 206.4 203.8 198 198.8 208 213.4 217.3 220.3 222 223 224.8 226.2 228.6 229.5 230.2 231.1 231.6 232.7 233.9 236.6 237.1 238 238.6 240.8 241.4 242.1 242.4 242 242 242.2 240.4 237.9 233.2 226.4 224.8 231.6 237.5 240.9 243.8 246.5 249.1 251.1 251.9 253.3 254.3 254.5 253.4 251.1 247.5 242.2 243.4 247.4 249.3 249.5 248.7 247.8 246.2 245.2 244.1 242.5 240.3 230.7 236.3 243.1 247 249.4 250.1 247.7 243.9 239.1 235.5 232.1 227.2 223.9 221.6 220.5 219.7 217.6 215.6 213.8 212.2 209.7
178.7 181.3 185.8 188.8 191.7 194 196.7 197.5 197.5 196.3 193.3 189.2 184.4 180 176.2 170.8 166.2 163.2 159.8 157 154 152.6 150.6 147.3 143.7 142 143.1 147.5 149.3 151.2 151 150.1 148.9 148 145.6 143.5 143.5 144.2 143.4 146.4 152.1 153.7 157.3 162.1 163.7 163.6 157.9 164.8 169.1 172.3 175.4 179.4 182.3 184.5 186.8 189.7 192.5 194.3 194.8 195.5 195.5 195 192.4 190.5 189.2 191.4 193.7 194.4 193.1 189.2 184.8 189.8 189.9 188.1 184.6 177.3 170.3 180.6 185.6 190.4 194 197.2 199 200.9 201.4 200.9 198.7 193.4 186.8 186.5 183.1 178.4 173.4 171 169.7 169.6 172.3 176.2 177.7 180.4 181.5 181.8 181.5 177.7 179.6 182.4 185 188.2 190 194.7 198.2 201.1 204.8 207.6 208.7 208.5 207.3 205.9 203.1 200 195.7 204.1 210.2 214.3 218 221.1 223.4 224.9 227.5 229.4 230.8 231 231.6 232.1 232.9 233.6 235.9 238.2 238.8 240.3 241.4 242.6 242.3 242.3 241.8 240.6 240 239.4 237.7 233.1 226.8 222 229.2 235.3 237.9 240 242.5 244.9 247.1 249.3 249.4 251.9 252.7 252.7 250.6 248 243.1 238.6 246.8 249 249 248.3 247 245 243.4 242 241.3 240.2 238.5 226.2 238.5 244.1 247.6 250.3 251.7 251 248.7 245.1 241.2 236.6 231.9 226.2 221.1 212.4 212.9 212.8 209.8 208 207.9 206.8
175.8 178.6 182.9 185.7 188.5 191.5 194 195.8 196.2 195.5 193.9 190.9 187.2 183 177.6 174.2 171.7 169.7 167.5 165.8 162.4 159.9 156.2 152.3 146.2 141.5 141.4 146 147.3 147.7 147.7 146.6 144.5 143.5 143.5 143.9 143.5 142.6 150.9 152 154 155.6 159.8 165.8 168.1 168.4 165.2 160.9 166.9 170.2 172.6 176.8 180.5 184.3 187 190.1 193.2 196.7 198.2 199.2 199.5 198.7 196.2 194.5 194 194.4 196.3 196.5 195 191.8 187.4 192.2 192.2 190.2 186.7 180.8 172.3 174.8 182.3 187.3 191.3 195.6 198.8 201 202.8 203.2 201.3 198.6 195.8 194.4 191.2 187.4 182.9 179.9 178.7 177 174.2 170.5 171.7 172.2 174.1 173.2 178.1 183.1 186.3 188.7 189.8 191.2 193.5 196.3 199.2 201.7 204.3 205.5 205.8 204.9 203.6 201.9 199.4 192.3 199.4 206.3 211.1 214.6 217.2 220.6 222.8 224.9 227.9 230.3 230.9 230.7 231.3 232.3 233.4 234.5 236 238.3 240 241.6 242.9 243.4 243.2 242.3 241 239 235.8 236.5 235.1 230.5 221.9 226.1 232.3 234.4 235.5 238 240.1 241.8 243.5 244.1 247.7 250.7 251.2 250.8 247.5 244 234.7 240.3 246.9 247.7 247 245.7 243.3 239.5 237.6 235.2 233.2 232.8 230.9 229.7 238.5 243.5 247.9 251 253.5 253.5 251.6 248.4 244 239.2 234.3 228.9 224.9 220.5 215.6 212.2 211.9 209.1 202.4 199.6
174.1 177.3 181.3 184.1 186.5 189.4 192 194.3 194.9 194.4 193.6 192.2 189.9 186.4 182.5 179.8 176.8 173.9 171.5 169.2 166.4 163.1 159.4 154 148.7 143.5 141 143.7 145.6 145 143.5 143.9 142.4 142.6 142.7 141.4 149.3 151.3 152.7 154.4 156.3 159.8 165.6 170.3 172.5 172.2 169.8 166.6 165 166.2 169.8 173.7 178.2 182 186.1 189.4 194.6 198.6 201 202.4 202.4 202.5 200.9 199.5 199.2 199.5 198.9 198.5 196.4 192.5 191.2 193.9 193.5 190.7 187.7 183.4 178.2 171 178.9 184.2 188.5 192.6 196.1 199.2 201.8 203.6 204.2 202.2 201 200.4 198.7 195.8 191.9 188.2 186.5 184.4 179.9 180 180.1 179.7 176.8 174.7 180.9 184.6 187.3 190.7 192.8 194.3 195.6 197.7 199.5 201.4 202.7 202.7 203 201.9 200.6 198.8 194.5 193.9 201.2 206.3 210.3 213.7 216.2 219.1 221.7 223.6 225.2 227.6 227.8 228.9 230 231.2 232.9 234.6 236.5 238.8 240.7 242.2 243.6 243.7 243.4 241.5 239.4 236.8 233.3 232 230.7 226.9 217.8 225.3 228.5 230.2 231.9 234.1 235.8 238.7 240 242 246 248.7 250.5 249.2 246.1 240.8 230.5 240.2 244.6 244.4 242.4 240.6 238.7 234.9 231.3 228.4 224.6 221.4 224.6 234.4 237.7 241.6 247.4 251.3 254.8 255.1 253.4 250.2 246.2 242 237.9 234.3 231.6 227.7 224.2 219.8 217.2 214.1 211.1 208.2
173.6 176.4 179.1 182.7 185.8 188.8 190.8 193.3 194.2 194.1 193.5 193 192 190 187.5 184.1 181.5 178.5 174.8 171.4 167.8 163.9 159.5 154.2 148.2 143.9 138.8 141.6 143.1 142.3 141.9 141.6 141.8 140.7 147.1 149.9 151.4 154.2 155.5 157 159.7 165.1 172.7 175.7 177.1 176.2 173.2 171.4 170.8 172.2 174.2 175.3 177 179 184.7 190.1 195.5 199.3 202.3 204.2 205.6 205.9 205.2 204.2 202.7 202.1 201 199.9 197.9 195 193.5 194.7 194.8 192.4 189 183.8 177.3 178.1 175.1 178.4 185.7 189.1 192.4 197.7 201.1 204.8 206.3 206.6 206.2 205.3 204.3 201.8 197.5 194.4 191.5 187.8 180.2 186.6 186.3 184.3 181.9 177.8 176.5 180.8 185.3 190.2 193.2 195.5 197.1 197.2 198.9 200.7 201.7 201.7 201.4 200.3 198.4 195.4 190.6 196 201 204.3 207.8 210.3 214.2 216.7 219.1 220.7 222.5 224.4 224.8 225.7 227.2 229.1 231.2 233.9 236.5 239.1 241.2 243 244.2 244 243.5 242.2 239.1 234.9 230.2 225.7 224.4 221.5 214.3 217.9 220.7 224.7 227.1 229.1 232.8 236.5 239.4 243.4 246.5 249.5 250.6 249.3 245.6 238.7 228.7 238.1 241.3 240.4 237.5 234.1 231.6 229.2 223.1 217.6 229.7 235.9 239.3 238.2 241.2 245.7 248.7 252.9 255.8 256.4 254.3 251.2 247.9 243.9 240.5 236.9 233.4 230 227 224.2 221 217.2 213.5 211.2
170.6 173.6 177.3 180.9 184.2 186.7 189 191.8 193.2 193.3 193.4 193 192.4 191.2 189.7 186.5 182.9 180.2 175.4 171.5 167 162.6 158.2 152.4 146.5 141.7 140.5 140.5 140.7 140.9 140.8 141.4 146 148.6 150.2 155 158.4 158.8 160.6 163.9 169.1 173.1 178.6 181.2 182.4 181.5 177.8 176 175.3 177.1 179 180 181.7 182.9 183.8 190.7 195.2 199.9 202.9 205 206.6 207.2 207.1 206.7 205.8 204.9 203.9 202.9 201 197.6 196.7 197.5 196.1 193.4 189.9 183.2 182.9 184.1 182.3 176.6 185.3 190.5 194.4 198.4 202 205.6 208.3 209.5 209.4 208.9 207.6 205.5 201.1 197.5 193.9 189.6 186.2 190.6 190.7 188.7 185.9 181.3 177.4 179.4 185 190.4 193.5 195.3 196.4 196.5 197.8 199.1 199.8 199.9 199.5 198.2 195.6 190.9 190.2 194.1 199 201.5 204.8 207.1 209.6 212.4 216.1 217.6 218.2 220 221 221.7 223.7 226.6 229 232.1 235.3 238.4 241 243.2 245.1 245.6 244.7 243.1 241.2 237.6 233.5 229.7 221.1 213.9 216.6 227.2 231.4 234 236.9 238.4 240.3 242 244.2 246.3 248.5 249.7 251.2 250.2 247.2 242.9 232.6 228 235.8 236.3 233.9 229.4 225.1 221.9 214 226.4 235.7 241 244 245.9 247.5 249.7 253.1 255.5 257.1 256.6 253.6 250.2 246.9 243.5 239.5 236.4 232.7 228.8 226.6 223.6 220.6 217.1 213.4 211
171.8 175 177.5 179.5 182.8 185.3 187.4 189.7 191.4 192.1 192.5 192 191.6 190.8 189.5 186.7 182.8 178.4 173.5 168.5 163.5 159 154.8 149.5 145.3 140.6 140.5 140.1 140.1 139.6 144.9 147.8 150.2 157 162.3 166.5 169.9 171.4 171.8 173 177.7 180.8 183.5 187 188.5 188.6 186.6 184.8 184.6 185.5 187.5 188.4 189.3 190.3 191.9 190.5 196.7 201.8 204.7 206.8 207.8 208.4 208.7 208.6 207.9 207.5 206.7 205.4 203.3 200.4 199.5 199.1 197.2 192.4 187.9 186.9 188.7 188.8 187.6 183.5 184.1 189.5 193.8 198.1 202 205.2 208.2 210.7 211.6 211.6 210.5 208.4 205.4 201.1 196.5 188.5 191.7 194.8 194.8 193.5 191 187.8 183.1 178.3 181.5 188.9 192 193.2 193.5 194.7 195.3 196.1 196.8 196.5 196.6 194.8 191.2 189.6 192.4 194.7 196.1 198.1 200.2 204.1 206.9 209.1 211.7 212.7 214.2 215.2 216.1 218.9 221.9 224.9 227.7 230.3 233.6 236.4 239.4 242.2 244.5 244.8 244.5 242.8 240.8 237.9 234.6 230.9 222.7 210.8 223.5 231.8 235.9 238.2 240.6 241.3 241.9 243.4 245.2 246.7 247.9 249 249.4 248.2 246 242.3 235 222.1 229 231.9 230.5 226.9 221.5 216.7 212.6 222.3 228.9 235.6 242.8 246.1 248.9 253 255.5 256.8 257.4 255.3 251.4 247.5 243.9 240 235.7 232.9 229.8 227.1 224.3 221.1 218.2 215 211.3 208.5
173 177.5 180.1 181 181.8 184.7 186.8 188 189.7 190.4 190.6 190.7 190.4 190.1 188.5 185.7 181.7 176.2 169.9 164.1 158.2 153.2 149.5 146 142.5 138.4 139.6 139.5 143.9 148.2 152.3 158.8 163.7 166.8 169.8 173.1 176.1 178.8 180.5 182.5 185.1 187 189.6 191.9 193.4 194 194.6 194.3 193.9 195.6 196.3 197.2 197.9 198.9 199.8 199.9 197.3 201.6 204.5 206.6 207.5 208.2 208.8 208.6 208.6 208.4 208.1 206.3 204.7 203.5 202.7 201.3 199.9 196 193 192.5 193.5 192.7 191.1 187.3 179 188.4 192.1 196 199 202.9 206.5 209.9 211.7 212.8 212.1 210.6 207.3 203.5 199.3 189.3 197.3 199.5 199.3 198.2 194.9 191.2 187.7 183.6 178.7 184.3 188.7 190.7 191.5 192.9 193.3 193.5 193 192.7 192.3 190.4 187.3 193.3 196.5 198.5 200.8 202.7 203.3 203.7 203.1 205.2 207.6 210.7 213.4 214.9 216.3 218 219.9 222.3 226.2 229.7 233.3 236.4 238.9 241.7 242.7 243 241.7 239.4 236.8 233.5 229.7 225.8 218.2 208.6 221 227.9 233.3 236.9 238.7 239.4 240.6 241.8 243 244 245.1 245.5 246.8 245.3 242.6 238.5 231.4 224.4 223.3 228.1 227.4 224.8 221.9 216.8 210.4 215.8 222.2 230.6 234.6 242.5 250.7 254.3 256.8 257.6 256.2 254 249 243.5 239.4 234.9 229.6 228.6 220.8 221.3 218.6 217.8 214.7 211.1 208.7 205.2
174.7 178.9 181.7 182.8 183.6 184.3 186 186.8 188 188.3 188 188 189 188.7 187.6 184.5 180.6 173.3 165 159.6 153.3 148.3 145.8 143.1 139.7 139.6 140.1 144.2 148 153 159.2 163.1 166.9 170 172.8 176.9 180.2 182.7 184.5 186.7 188.9 190.8 192.5 194.2 195.7 197.4 198.8 199.5 201.3 202.4 201.4 203.1 205 205.6 205.7 205.6 204.5 203.8 205 206.2 206.9 207.1 208 208.3 208.1 209.3 209.1 208.7 208.3 207.7 206.8 204.6 203.2 200.1 198.5 197.1 196.3 195.4 192.4 189.2 187.2 182.4 188.7 193.6 196.8 201.4 205.1 208.2 211.2 212.5 212.8 211.7 209 205.4 201.7 194.4 200.4 203.4 204.4 203.3 200.6 196.1 191.5 188.3 181.8 181 183.6 187.2 188.3 188.1 188.3 188 187.2 187.6 184.8 188 191.6 195.8 198.5 200.9 203.5 204.9 205.9 207.3 208.2 209 211.5 214.4 216.4 218.4 219.9 221.7 223.5 225.2 227 230.6 233.6 236.4 239.7 241.7 242.1 242.3 240.6 237.6 232.8 227.6 222.3 217.1 212.5 204.3 215 221.5 227.7 232.4 235.3 236.8 238 239.3 240.6 241.6 242.8 244 244.6 243.2 239 233.9 228.6 223.5 216.6 221.5 223.9 222.4 219.7 215.1 209.6 211.4 219.8 225.8 234.2 241.7 250.2 254.8 257.2 258.1 256.9 255.5 250.9 245.9 242.6 239.4 236.1 231.9 226.7 218.5 212.5 209.9 206.2 203.2 199.6 197.2
179 180.5 182.5 183.5 183.8 184.4 185.1 185.5 186.1 185.9 185.2 185.4 186.1 187.2 186.4 183.6 179.5 173.2 165.5 157.7 150.6 144 140.4 137.9 138.4 139.6 140.8 144.8 149.8 154.9 158.8 162.8 166.6 170 174.5 178.1 181.4 183.5 185.2 186.9 188.6 189.2 191.2 193 194.6 196.2 198.3 200 202.4 204 205.5 206.4 207.3 207.8 207.7 207.1 206.5 205.9 204.9 206.2 206.4 206.6 206.8 207.6 208.4 209.7 210.9 211.3 211.3 210.7 210.2 208.6 206.6 204.7 203 201.2 199.4 198.3 196.8 191.9 193 190.9 188.5 187.6 195 198.4 203.3 206.5 209.7 211.5 212.4 212 209.9 206.9 203.6 201 201.2 205.8 207.5 206.9 204.3 199.5 195.4 189 184.8 182.3 181 181.1 182 182.6 182.8 182.8 183.6 185.3 188.2 193.5 196.5 198.7 201.2 203.4 205.5 206.9 208.2 209.8 211 212.4 214.1 216.1 219.2 220.7 222.5 223.4 224.8 227 229.1 232.1 234.3 236.8 239.3 241.3 242.6 242.7 242 239.9 236.6 231.3 225.3 221.5 215 202.1 212.6 217.2 224.1 228.8 232 234.2 235.5 236.9 238.2 239.6 241.1 243 243.3 241.7 238 232.1 227 221.6 215.7 217.2 220.2 219.8 217.3 213.4 206 214.5 223 231.6 238.4 244.8 249.7 252.9 255.8 258.4 260 259.5 256.5 251.6 246.2 242.4 238.7 235.2 230.9 225.9 224 220.6 216 211.5 208.3 205.8
182.2 182.9 182.7 183.1 183.6 184.1 184 184.2 184.3 183.9 182.4 182.2 183.2 184.4 184 182 178.5 172.7 167.3 158.7 149.9 142.3 138.4 138.1 138.8 142.1 143.5 144.2 146.3 151.6 155.2 157.8 161 164.2 170.1 177.3 180.6 182.1 183.7 185.3 186.7 187 188.5 190.4 193.1 194.9 196.6 199.2 201.9 204.3 205.8 206.7 207.4 207.5 207.4 207 206.1 205.4 204.9 204.2 204.2 204.2 204.9 207.1 209.1 210.8 212.1 213 213.3 213.2 212.8 212.1 210 207.9 207.5 205.3 203.3 202 200.7 198.8 197.8 196.7 192.7 196.1 193.5 196.8 200.6 203.8 207.3 210.3 211.6 211.8 210.7 208.9 207.4 205.3 202.8 206.4 209 209 205.9 202 198 193.8 190.2 185.4 185.2 187.7 187.1 188.3 188.2 189.4 189.4 185.7 189.3 195.7 198.8 201.2 203.3 205.6 206.9 209.1 210.6 211.7 213.2 214.4 215.9 217.6 219.7 222.3 223.4 225.3 225.6 229.1 230.8 233.3 235.5 237.2 239 240.7 242 241.8 241.2 238.9 236.7 232.5 227.1 221.4 214.4 203.5 210.1 216.7 222.8 227 229.7 231.5 232.9 233.9 234.6 236.4 239.3 241.2 242.3 241.8 238.9 233.6 228 222.5 216.9 212.1 217.6 217.2 214.6 210.3 204.4 217.5 226.2 237 242.1 246.5 249 250.4 252.6 258 260.8 262.5 261.3 257.8 253.1 249.1 245.3 242 237.2 232.8 229.7 226.4 222.8 219.2 217.2 216
183.8 183.6 183.4 183.3 183.6 184.2 183.8 183.3 182.7 181.2 179.5 177.5 179.9 180.5 180.1 179.4 176.5 171.4 165.4 156 146.9 139.6 138.5 137 142.4 147.1 152.2 154.5 155.2 157.4 159.7 162.3 165 168.1 167.9 165.3 169.6 177.4 181.1 183 184.3 184.4 185.7 187.4 190.3 191.9 194.5 196.9 200.2 203.3 205 205.9 206.1 206.3 205.8 205.1 204.5 203.9 202.8 202.1 201.8 201.4 203.5 205.6 208.1 210.2 211.8 212.9 213.6 214.3 214.2 215.2 213.8 212.7 211.6 210.1 208.7 208 206.9 203.4 202.4 200 197.5 199.6 197.5 197.6 197.4 200.7 204 207.4 210.2 211 211.9 211.3 211.1 210.5 209.2 210.1 210.7 211 208.7 206.2 202.6 198.2 194.4 189.7 191.1 196.5 196.4 196.8 197 195.9 195.3 192.5 187.1 195.5 200.1 202.8 204.9 206.6 208 209.9 211.5 212.6 213.7 215 217.1 218.2 220.6 222.8 223.6 226.4 226.3 229.9 231.6 233.2 235.4 237.2 238.9 239.9 240.9 240.5 239.5 237.9 235.7 231.6 227.2 222.3 215.3 203.9 209.1 217.5 221.8 225.4 226.7 227.9 230.1 230.9 230.4 233 236.2 239.4 241.2 240.5 238.1 232.6 227.3 220.5 216.2 209.1 212.4 213.7 211.1 205 212.6 218.8 225.3 235.7 240.6 243.9 245.2 246.1 249.9 256.6 262.3 266.1 265.8 263.5 259.3 254.8 250.4 245.9 241.5 238 234.8 231.6 228.7 226 223.6 221.6
181.2 182 182.3 182.2 182.7 183.9 183.7 183.3 182.4 181.2 179.7 176.1 174.7 176.2 175.9 175 173.7 170.7 164.9 149.4 140.2 137.9 138.1 142.3 152 159.4 161.3 162.6 164.2 165.7 168.9 173.9 177 178.2 177.8 176.2 173.3 170.7 173.2 177.5 178.6 178.9 180.3 182.3 185.6 186.8 190.7 195 198.8 201.4 203.1 204 204.2 203.7 203.5 203 202.4 201.6 200.7 200 199.7 200.6 202.5 204.3 206.7 209 211 212.4 213.5 214.1 214.3 214.4 215.1 215 214.6 214.7 214.2 213.1 212.3 210.5 208.9 206.6 202.8 204.4 203.2 202.4 202 202.3 203.5 205 208.4 210.9 212.7 213.6 213.7 213.4 213.1 212.9 213.8 212.8 211.7 209.1 205.9 201 199.3 195 195.9 202.8 202.9 202.9 202.2 200.9 200.2 198.7 194.1 191.3 198.7 201.8 205 205.9 207.9 210.1 210.8 210.4 211.9 213.3 215.7 217.5 219.7 222.1 222.9 224.8 227.1 228.9 230.1 232.6 234.9 236.6 238.4 239.4 239.6 239.2 238 236.5 234.7 232 228.4 223.4 215.9 203 211.7 219.3 222.6 223 222.9 224.6 226.8 227.2 227.2 231.1 234.9 239.2 241.2 241 238.8 234.2 229.3 224.3 217.2 211.5 205.2 206.3 206.3 201.5 208.1 214.7 221.6 228.8 233.3 237.1 239.7 242.7 247.6 255.8 263.4 268.3 269.3 264.8 258.9 254.4 250.2 246.3 243 240 237.1 234.5 231.5 229.5 227 224.9
176.9 177.8 178.5 179 181.1 183 183.2 182.5 181.3 180.4 179.6 177.3 170.6 170.6 170.9 168.5 166 164.2 155.6 142.8 137.7 137.7 143.6 155 164.7 167.3 168.4 168.1 168.8 171.2 175.7 180.3 182.8 185.1 185.4 183.7 180.2 178.5 178.3 179.1 180.6 181.8 185.4 187.8 190 191.9 194.1 195.6 199 200.8 201.7 201.8 202 201.3 200.8 200.1 199.4 198.9 197.9 197 197.1 199.7 201.7 203.6 206.2 208 210 211.4 212.4 213.3 213.9 214.5 215.3 215.9 216.2 216.4 217.5 217.6 216.8 215 213.2 210.4 209.3 208.6 207.9 207 206.9 207 207.7 208.7 210.1 211.9 214 215.2 216.2 216.3 216.6 216.6 216.4 215.8 214.4 212 208.9 205.3 203.4 202 202.4 205.8 207.3 207.1 205.9 205 204 201.2 197.9 194.7 192.9 199 203 205.8 207.2 208.7 209.6 209.2 209.7 211.4 212.3 214.5 216.3 218.4 220.4 222.3 224.1 226.8 229.2 231.8 234 235.9 237.7 238.4 238.1 237.4 236 234.8 232.6 229.9 226.4 221.8 213.2 198.8 208.8 216.5 219.5 219.6 218.6 221.8 223.9 220.9 227.7 231.3 235.5 239.5 241.2 241.5 240.4 237 233.2 228.5 222 215.1 210.3 202.3 199.2 204.4 214 214.3 216.4 222.7 228.4 235.6 240.1 244.4 250.9 257.8 264.3 268.9 269.2 264.5 257.6 251.7 247.6 244.2 241 237.5 235.6 233.6 231.7 229.7 227.7 225.5
170.5 170 173.2 174.8 177.3 179.7 180.3 179.8 177.6 176.2 175 173.8 169.3 161.3 164 161.5 157.1 154.5 146.4 136.7 137 143 155.9 166 171.7 174.2 175.2 175.1 176.7 178.8 182.3 186 187.6 188.5 188.6 187 186.6 184.8 182.3 182.8 183.8 186.1 188.2 191 192.8 195.2 196.9 198.2 199.6 200.3 200 199.6 199.8 199.1 197.7 197 196.4 195.7 194.9 194 195.7 198 200.4 203.9 204.4 207 209 210 211 212.2 213.3 214.5 215.3 216.1 217.2 217.6 218.7 219.6 219.6 218.9 216.7 214.1 213.7 213.3 213.4 213 212.3 211.7 212 213.2 213.8 214.8 216.1 217.4 218.6 219.6 218.8 218.9 218.8 218.2 217 214.7 211 211.1 209 208 207.1 208.3 209.8 210.2 209.3 208.4 207.5 205.9 203 201.7 198.7 193.8 196.8 201.3 203.2 202.5 205 208.4 211.1 213 214.8 216.7 218.6 220.2 222.1 224.9 226.7 227.5 229.2 231.6 233.7 235.3 237 237.6 236.4 235.5 233.8 231.4 228.1 224.7 221.5 218.2 212.1 200.7 203.2 210.7 213.9 214.4 213.6 216.9 217.2 219 224.6 228.9 234.5 238.5 240.7 240.8 240 236.8 232.9 227.1 221.2 214.6 209.9 203.8 197.6 211.2 220 223.5 220.1 225.2 235.1 242.4 246.2 248.3 253.7 258.7 263.6 268.9 269.5 264.8 256.8 250.2 245.6 242.3 238 234.7 232.1 230.2 227.3 227.3 225.5 222.7
162.5 164.5 167.7 172.6 174.1 175.5 176.8 176.7 174.4 171.5 170.3 170.1 168.7 164.1 156.9 150 145.5 145.4 138.5 135 141.9 150.7 164.9 170.8 176.7 179.4 181.5 181.9 183 184.9 188.3 190.7 191.6 191.7 191.7 191.3 191.6 191.4 190 190 190.5 190.1 191.9 193.5 195.7 198 199.2 199.8 200.2 200.2 199.6 199.1 198 196.8 195.7 194.3 193.9 192.3 191.4 191.8 194.4 196.4 199.5 202.1 204.2 205.8 207.2 208.1 209.9 211.6 212.6 214.5 215.5 216.7 217.8 218.9 219.8 220.7 221.2 220.3 219.5 218.7 218.4 217.7 217.4 217.4 217.3 217.2 218 217.7 218 218.6 219 219.6 220.1 220.7 220.8 220.9 221.1 220.7 219.8 217.3 215.7 214.8 214.2 213.4 212.1 211.7 213.1 213.2 211.5 210.2 209.9 208.4 207.4 206.1 204.7 202.4 200.6 202.8 202.4 205.9 208.9 210.7 212.7 214.8 217.1 219.9 221.8 223.4 224.9 227.6 229.8 230.9 231.8 233.6 234.7 236 237.7 237.5 235.7 233.5 231 226.6 222.2 215.4 212.5 210 207 200.7 195.9 204 208 208.3 209.3 210.6 211 218.5 222.6 227.7 233.6 237 239 239.1 238.2 235.7 231.3 224.1 218.2 210.7 204.4 197.3 202 215.5 225.7 229.6 229.9 224.8 237.6 243.6 246.3 250 254.9 259.6 265 270 270.7 266.4 260.5 253.6 248.2 243.5 239.6 235.2 231.1 226.6 219.8 222 221.5 219
156.4 165.9 168.9 170.7 171.5 172.4 172.6 172 169.8 166.9 165.7 166.1 166.4 166.1 164.8 159.8 149.6 139.4 136.4 135.9 147.8 163.1 171.5 177 182 185.2 187.1 187.3 187.1 189.9 191.1 192.1 192.7 192.3 192.2 192.5 193 193.3 193.6 193.9 193.5 193.5 193.8 196 197.8 199 199.7 200 199.9 199.6 199.1 198.3 196.9 195.4 193.7 191.1 190.6 187.9 190.3 192.2 193 194.9 197.9 200.4 202.1 203.7 205.1 205.5 207.2 209.8 212.2 214.1 215.4 216.8 218.1 219.1 220.2 221 221.3 221.4 220.6 220.4 220.1 219.5 219.6 219.7 219.3 219.2 219.4 219.9 220.3 220.7 220.9 221.4 221.8 222.1 222.2 222.4 222.3 222.2 221.5 220.9 219.5 218.6 217.7 216.4 215.2 215 216.2 216.6 214.9 213.6 213.2 211.3 210.7 209.1 207.5 205.1 204.1 206.5 207.8 207.1 211.9 213.8 215.8 217.4 219.6 221.8 224.2 226.3 228.1 229.9 232 233.1 234.1 235.1 236.2 237.6 238.2 237.2 234.2 229.7 227.1 225.6 224.2 220.8 216.1 209.5 204.5 199.6 193.7 195.6 200.2 200.6 201.5 208.6 215.7 221.1 224.5 229.1 233.3 235.4 237 236.8 235.5 232.8 229.3 220.9 213.9 206.7 194.9 200 212.7 221.1 227.7 231.6 234 235.7 232.8 239.5 246 250.6 255.6 261.9 267.5 271.2 271.7 269.5 265.9 260 256 251.7 247.1 241.9 236 231.3 225 218.8 211.2 207.6
145.3 161.7 165.6 165.4 163.8 163.5 162.1 161.3 157.4 154.6 153.6 156.1 158.7 158.9 158 151.4 139.3 135.7 137.5 143.3 157.3 168 174.6 180 184.1 187.1 189.2 189.8 190.5 190.9 191 191.1 191.2 191.3 191.4 192.3 193.6 193.6 194.5 195.1 195.5 195.9 196.4 197.9 199.2 199.7 199.7 199.5 198.9 198.4 197.9 197 195.6 194.1 192.4 189.3 185.6 190 193.1 194.8 195.9 196.7 196.9 198.3 199.2 201.6 203.7 206.2 206.9 210 212.1 213.7 215.1 216.3 218 219 220 220.9 221.4 221.6 221.7 221.4 221.3 221.1 220.6 220.3 220.3 220.3 220.3 220.8 221.2 221.7 222.3 222.4 222.3 222.3 222.4 222.5 222.9 222.7 222.6 222.3 222 221.3 220.8 220.2 219.8 219 219.2 219.2 219.2 218.8 216 214.3 214.3 213 210.9 208.2 207.4 208.7 210.9 211.8 213.7 217 218.5 220.1 221.6 223.8 226.7 228.8 230.5 232.3 233.9 234.8 235.5 236.3 237.9 239.2 239.5 239 237.7 235.9 233.7 231.7 229.7 227.5 223.7 220.6 216.1 209.6 201.5 189.5 192.6 203.1 210.1 215.7 219.7 223.5 227.3 230.7 232.8 234.2 234.6 234 232.7 230.2 226.6 220.2 210.8 200.5 191.8 205.5 215 220.5 225 227.7 228.9 233.8 241.2 244.9 247.9 251.5 256.8 263.5 269.2 271.6 271.7 270.6 268.2 264.8 261.3 257.4 252.8 247.9 242.3 237.2 231.6 225.4 220.5 214
137.3 149.3 157.8 156.9 153.3 150.8 145.5 141.8 139.7 140.3 141.3 143.1 145.5 147.8 144.3 137.2 135.7 136.6 141.7 151.7 162.3 170.3 175.2 180.2 183.4 186.5 187.9 189.3 190.1 190.3 190.1 189.6 189.1 188.8 190.5 192.1 193 193.6 194.6 195.7 196.2 197.3 197.8 198.8 199 199.4 199.1 198.3 197.7 197.1 196.6 195 193.8 192.1 191 188.9 185.7 190.7 193.2 194.4 196.5 197.8 199.1 200.1 201.2 203.1 205.3 207.2 208.9 210.3 212 213.6 214.9 216.4 217.4 218.3 219.2 219.8 220.5 221 221.2 221.2 220.9 220.6 220.7 220.4 220.2 220.3 220.4 220.9 221.2 221.5 221.8 221.7 221.9 221.9 221.9 221.7 221.9 222.4 222.7 222.7 223 222.7 223 222.9 222.5 222.2 222.2 221.9 222.3 222 220.6 218.4 216.8 215.5 215.4 212.3 212.6 213.7 215.3 217.1 217.8 218.8 220.8 222.7 224.2 226.8 229.4 231.2 232.8 234.4 235.8 236.9 237.6 239.1 239.9 241.1 241.1 240.8 239.8 238.5 236.6 234 231.4 229.1 226.4 223.3 219.6 215.1 207.3 194.3 189.6 201.5 210 215 219.7 223.4 226.9 230 231.5 232.4 231.9 230.7 228.9 226.9 223.6 217.8 208.3 195.6 195 206.9 211.9 212 217.8 222.8 232.2 239.6 244.4 247.7 250.4 253.3 259.8 265.8 270.2 271.2 270.3 268.2 266.1 264.2 261.9 259.1 255.6 251.6 247.5 243.2 238.6 233.9 228.6 223.2
140.5 136.5 146.7 145.4 140.7 136.7 134.8 134.6 134.2 134.8 135.9 136.9 137.7 135.9 135.7 135.1 135.5 139.6 148 156.1 164.6 170.6 175.5 178.5 181.5 183.4 184.8 185.1 186.9 188.2 186.3 186.3 185.4 184.8 187.9 189.9 191.6 193.5 194.7 195.9 196.9 197.4 197.8 198 198.3 198.5 197.8 197 196.4 195.8 194.1 192.4 191.1 189.5 187.5 184.5 184.8 189.1 191.6 194 196.3 198.4 199.8 200.8 202.4 204.3 205.9 207.4 208.8 209.7 210.8 212.4 213.6 215 216.1 217 217.8 218.2 218.9 219.5 220.1 220.1 219.8 219.6 219.8 219.8 220 220.2 220.3 220.6 221 221.3 221.1 220.7 221.2 221 220.9 220.8 221 221.7 222.2 222.5 223 223.4 223.7 224.1 224.5 224.5 223.9 224.4 224.6 224.1 223.6 223.2 221.7 221.3 218.9 217.6 218.3 219.4 220.6 220.7 221.7 222.7 224.7 226.7 228.2 229.9 231.7 233.3 234.9 236.1 237.3 238.2 239.1 239.7 240.6 241.3 241.5 241.1 240.4 239.1 237.1 235 232.3 229.4 226.4 223.4 220.2 216.6 209.6 198.4 187.3 195.9 210 215.3 218.5 222.5 226.5 228.7 229.4 229.8 228.3 225.2 223.3 220.9 219.2 215.4 207.5 193.8 191.1 197 207 215 223.9 230.9 236.7 241 246.1 249.4 252.6 257.5 264.5 269.3 271.2 269.2 267.5 265 263.3 261.7 260.1 258.1 255.5 252.3 248.7 245.2 241.8 237.7 233.8 229.8
139.9 133.3 134.5 133.1 130 132.6 132.6 133.4 133.3 133.2 133.3 131.7 132.9 135.3 139 133.9 136.6 147.3 154.9 160.3 164.7 169.8 173.3 175.9 177.6 178.5 179.4 178.3 178 177.8 179.1 180.3 184.7 187.8 190.1 191.6 192.9 194 194.6 195.7 197.5 198.2 198.7 198.9 198.7 197.6 196 194.9 194.6 193.7 191.7 189.8 186.9 184.2 182.5 182.5 187 190.2 192 193.7 195.9 197.5 199 200.7 202.4 203.7 204.8 206.5 207.4 208.4 209.3 210.8 212.2 213.4 214.5 215.2 215.9 216.6 217.3 218 218.5 218.5 218.2 218.3 218.3 218.4 218.7 218.8 219.1 219.3 219.9 220.2 219.9 220.2 220 219.8 219.7 219.4 219.9 220.4 221 221.6 222.2 222.9 224.1 225.4 225.5 226.1 226.7 225.6 226.2 226.8 226.4 225.4 225.5 225 223.3 222.8 223.5 224.3 224.6 224.3 225.1 226.3 227.4 228.9 230.2 231.4 232.5 233.8 235.1 236 236.7 237.6 238.6 239.2 240 240.6 240.9 240.6 239.9 238.3 236.3 233.7 230.6 226.7 223.6 220.2 216 210.8 205.6 195.4 184.4 191.4 208.9 212.8 214.8 221.1 225.7 227.6 228.5 228.3 226.8 223.8 219.6 216.5 211.9 207.6 202.5 192.1 192.6 204.9 212.7 220.4 226.8 233.3 239.9 245.3 250.2 253.9 258.6 264.1 268.9 271.9 271.7 268.6 265.6 261.7 259.2 258.5 257.2 255.1 252.9 250.1 247.4 244 240.8 237.7 234.6 231.1
137.9 132.5 131.1 130 132.6 133.8 135.2 138 139.6 142.5 145.6 148.4 150.5 153.2 150.1 142.5 136.6 144 153.8 160.1 164.3 167.7 170 171.4 173.1 173.6 173.4 172 169.8 173.3 179.9 184 187.4 190.3 192 193.4 194.5 195.6 196.3 197.2 197.8 198.6 199.2 199.4 198.8 197.7 196.1 193.1 191.2 190.3 190.4 190 187.6 183.3 180.2 186.4 188.8 190.6 191.7 193.1 194.1 195.3 196.8 199.1 201 202.6 203.5 204.8 205.9 206.8 207.8 209.2 210.7 211.8 212.9 213.6 213.9 214.8 215.4 215.9 216.4 216.5 216.5 216.4 216.3 216.2 216.5 216.9 217.4 218.5 219.1 219.2 218.7 218.9 218.7 218.5 218.1 218.2 218.5 218.8 219.4 220.1 220.7 221.6 222.9 224.1 224.9 226.1 227.3 227.7 228.7 228.3 228.5 228.4 227.3 227.4 226.8 226.9 227.2 228 227.9 227.8 228.3 228.4 229.3 230.6 231.7 232.6 233.3 234 234.6 235.1 235.8 236.8 237.8 238.7 239.4 239.8 239.9 239.3 238.7 237.3 234.4 230.6 227.3 222.9 218.5 213.6 210.2 205.7 199.8 195.9 186.7 186.7 199.4 208.5 216.5 221.6 225.7 227.7 228.3 228 226.8 224.7 222.5 219.9 215.7 211.1 203.6 190.9 195.7 206 214 221.7 228.4 234.8 241.3 247.1 253 257.8 263.7 269.1 272.4 273.5 270.9 267.9 264 260.3 254.8 253.7 253.4 251.7 249.1 246.3 243.3 239.9 236.7 233.9 231.7 229.5
134.5 131.8 131.8 132.6 134.1 143.1 150.7 153.7 154.8 159.4 165.8 167.1 165.7 161.7 156.2 148.7 139.3 138 149.2 157.5 161 163.4 164.3 164.9 166.6 168.7 165.4 163.3 170.2 177.8 184.3 187.6 189.8 191.1 193.4 194.6 195 195.2 195.9 197 198 198.2 198.4 197.5 198.1 196.7 195.1 193.1 190.6 186.9 187.2 187.6 185.5 179.2 180 185.9 187.7 189.1 190.3 190.9 191.5 192.2 194.6 196.8 198.8 200.5 202.3 203.3 204.5 205.4 206.5 207.8 209.1 210.1 210.8 211.1 211.5 211.1 211.8 212.7 213.4 213.6 213.6 213.6 213.7 214 214.3 214.9 215.8 217.2 218.5 218.9 218 217.4 216.9 216.6 216.4 216.7 217.1 217.5 218 218.7 219.1 220 221.3 222.7 224.1 225.2 226.3 227.4 228.3 229.2 230.6 229.6 229.5 229.6 229.1 229.1 229.5 230.1 230.2 230.4 230.4 230.4 230.8 231.6 232.1 232.4 232.6 233.4 234.2 234.9 235.7 236.4 237.3 238.4 239 239.1 239.2 238.7 238.2 237.1 235.3 233.5 229.9 226.5 223.4 220.3 217.5 214 207.9 199.9 188.5 183 199.9 211.6 217.9 221.6 225.4 227.1 227.1 226.4 225.3 223.2 221.9 219.4 216.2 210.7 198.1 186.4 197.6 206.5 214.1 222 227.1 232.4 239.1 245.8 253.2 260.6 266.3 271 273.4 273.4 270.7 267.2 262.9 258.6 253.7 247 247.3 245.6 243.3 240.1 237.2 234.1 231.1 228.5 226.4 225.5
131.3 131.4 134.8 140.6 146.3 156.6 160.5 164.1 167.1 169 170.7 172 171 167.8 163.1 155.9 146.3 139.4 142.6 151.9 155.6 155.3 155 155.9 158.5 158.8 160 170.7 176.7 181.2 184.8 187.8 189.2 190.4 191.6 192.4 192.8 193.3 194.3 195.7 196.9 197.4 197.3 196.9 196.4 195.7 193.4 191 188.1 185.4 182.3 182 180.9 176.4 180.2 184.3 185.7 187 187.9 188.5 188.7 189.8 191.9 193.7 195.7 197.5 199.2 200.4 201.5 201.5 203.1 204.8 206.9 207.5 207.4 207.6 207.7 206.8 207.3 209 209.8 210.4 210.8 210.7 210.9 211.6 212.2 213 214.3 215.9 217.5 217.5 216.8 215.6 215 214.8 214.6 214.7 215.1 215.5 216.3 216.8 217.6 218.4 219.5 221 222.6 223.8 225.1 226.1 227 228.1 229.1 229.4 229.9 230.2 230.8 230.6 231 231.1 231 231.2 231.2 231.4 231.6 231.5 231.4 231.8 232.2 233 234 234.8 235.7 236.7 237.6 238.6 238.5 238 238 237.6 237 236.8 235.6 234.5 232.3 229.6 226.7 223.7 220.6 216.1 209.5 203 190 182.6 199.4 211.8 216 220.3 223.7 224.5 225.1 224 221.9 220 217.5 215.7 211.9 205.8 191.7 183.9 195.8 206.5 213.2 219.8 229.1 235.8 241.2 247 253.4 262.1 268.1 270.6 271.9 271.1 268.4 264 259.5 255.2 250.4 245.4 239.8 239.4 237.1 233.8 231.1 228 225.1 222.3 218.9 219.6
130.2 138.2 138.4 140.7 146.6 155.5 161 165 168.7 170.9 174.4 175.9 176.2 173.4 169.5 164.7 157.6 143.9 139.7 143.7 146.6 146.4 146.7 148.2 149.9 157.8 167.5 174.3 179.3 183.2 184.7 185.2 186.3 187.5 188.8 189.4 190 190.9 191.9 193 194.4 195.6 195.4 194.4 193.4 191.5 189.6 187.5 185.3 184.6 181.9 177.2 176.2 174.9 179.2 181.2 183.5 184.8 185.3 185.8 185.3 188.2 189.6 190.8 191.7 193 193.9 195.6 196.6 197.3 199 200.7 202.3 203.1 202.9 202 201.5 199.7 201.3 203.9 205.2 206.1 207 207.4 208.3 209.2 210.4 211.9 213.9 215.7 217.1 216.7 215.9 214.7 213.5 212.9 212.8 212.7 212.8 213.7 214.4 215 215.8 216.7 217.9 219.5 221 222.1 223 224.2 225.2 226.2 227.1 227.7 229 229.8 230.2 230.6 230.7 230.4 230.3 230.5 230.6 230.9 230.9 230.9 230.8 231 231.7 232.9 233.9 234.8 235.7 236.7 237.2 237.6 237.8 237 235.9 235.5 235.4 235.2 235.1 234.5 233.4 231.6 228.6 225.6 221.8 217.8 212.4 204.1 190.9 178.3 191.3 205.6 211.4 217.9 221.6 222.4 222.6 220.2 217.7 214.2 208.8 203.1 195.6 189.1 182.4 191 194.2 202.9 216.8 226.4 233.5 239.3 245.3 250.1 255 259.3 263.8 266.7 268.4 267.1 264 260.1 255.2 250.6 245.7 241.7 236.3 233.8 231.6 228.7 225.3 222.2 218.6 216.1 213.1 213.5
139.6 148.7 150.9 151.4 150.8 147.3 158.3 164.3 167.9 171.4 174.7 177.1 178.3 177.4 174.1 169.3 164.6 157 144.7 143.1 143.5 144.2 144.5 145.1 145.4 155.3 168.3 174.1 178.4 181.6 181.7 181.3 181.8 182.7 183.3 184.3 184.6 186.5 188.4 190.7 192.8 193.9 194.4 193.9 192.3 190.1 187.4 183.8 181.3 180.2 177.1 173.6 170.6 171.7 173.6 174.1 176.7 175.9 179.2 181.3 182 184.4 185 185.9 186.9 188 189.4 190.8 191.8 192.6 194 194.7 193.9 193.4 195.8 198 200.1 202.6 202.8 202.7 202.5 204 205.5 207.2 208.6 210.5 211.8 212.8 214.7 217 217.9 217.4 216.5 214.9 213.1 211.7 210.8 210.7 211 211.8 212.4 212.9 213.9 214.9 216.3 217.7 219.1 220.1 220.8 221.9 223.3 224.3 225.2 226.1 227 227.9 228.7 229.1 229.1 228.8 229.4 229.7 229.7 230.1 230.3 230.2 229.8 230 231.5 232.8 233.8 234.9 235.9 237.1 237.9 237.6 237.4 235.9 234.4 232.1 232.7 232.5 232.3 231.8 231.1 229.8 227 224.7 222.1 218 212.8 206.6 196.7 179.4 180.4 198 207.4 214.2 219.7 221 219.7 216.4 209.8 197.6 188.9 183.6 180.5 183.6 192.1 201.3 209.6 206.3 209.2 225.1 234.4 239.6 244.6 247.9 250.6 255.5 258.1 260.6 263.6 261.6 258.6 254 249.7 245.2 241.1 237.4 232.9 227.6 226.3 223.4 219.9 216.6 213 210.1 209 205.5
153.6 158.5 159.5 159.9 160.2 159 153 159.6 165 169.2 172.9 175.3 177 177.7 176.7 174.2 170 162.5 156.3 152.7 152 155.2 158.3 157.3 146.8 146.1 159.7 171.9 175.1 178.7 178.1 176.4 175.7 176.1 176.6 176.9 178.4 179.9 185.3 187.4 190.2 191.6 193.4 193.6 192 190.1 187.4 182.5 177.9 172.8 169.8 172.4 176.6 180.3 181.2 181.6 180.7 183.1 183.6 182.7 182 182.5 184.1 183.9 184.8 185.6 186.5 187.8 190.2 191.9 193.7 196 197 200.2 202 203.5 205.2 207.1 207.7 206.9 206 206.9 208.2 209.9 211.5 213.1 214.1 215 216.5 218.3 218.6 218.4 217.4 216 213.9 212.3 210.6 208.5 208.7 209.8 210.6 211.3 212.4 213.7 215 216.3 217 217.9 218.6 219.8 221.2 222.4 223.2 223.8 224.5 225.6 226.3 226.3 226.7 227.1 227.8 228.3 228.7 229.1 229.2 228.7 228.8 230.1 231.6 233.1 234.3 235.5 236.5 237.9 238.6 238.4 238 236.4 234.2 232 226.9 226.6 226.9 226.3 223.7 223.7 223.2 221.9 221.1 218.8 215.2 210.9 205.2 189.8 175.6 191.5 207 214.6 218.8 220.4 219.4 215.7 207.5 190.7 177.8 183.7 191.6 199.1 206.6 214.3 219.5 219.4 211.3 215.4 224.7 229.6 235.5 240.8 245 252.2 256.7 257.9 258.6 255.6 250.8 247.1 243.9 239.8 235.6 232.4 229.4 225.1 220.2 217.1 214.7 211.7 208 204.3 201.8 200.1
161.6 165.8 165.8 166.5 165.6 164.6 161.4 160.4 159.5 165.8 170.3 172.6 174.9 176.9 177 176.9 174.4 171.4 166.9 165.3 165 167.1 167.9 165.2 156 147.2 149.7 160.8 166.3 168.6 167.9 166 165.3 165.9 166.7 167.4 170.9 175.8 179.6 184.6 187.9 190.4 192.9 193.4 191.8 190 187.7 184.3 179.5 168.2 176.1 181.4 184.7 186.2 186.9 186.6 186.7 187.6 188.1 188.4 188.7 190.4 191.1 188.5 189.2 190.6 190.7 192.2 194.9 197 198.5 200.1 202 204.3 206.2 207.6 208.8 209.7 210.4 210.3 209.7 210 211.2 212.4 213.8 215 216.1 216.9 217.9 218.3 218.3 218.1 217.4 216 213.1 211.1 209.6 207.7 206.7 208 208.7 209.6 211.2 212.8 214 215 215.2 215.8 216.8 218.1 219.4 220.1 221.1 221.8 222.8 223.3 223.8 224.1 224.4 224.3 225.6 226.3 226.9 227.4 227.5 227.6 228.7 230 231.5 233.3 234.9 236.2 237.1 238.9 239.2 238.8 238.4 237 235.5 233.9 231.8 228.7 224.6 218.3 214.9 213.6 215.7 216.1 216.3 215.5 212.4 208.4 203 192.5 178.9 188.2 206.5 213.4 217.9 219.2 218.3 214.4 203.7 180.1 180.1 192.2 202.1 210.5 217.1 220.6 223.6 225.8 223.8 221.6 224.5 229.9 235.2 239.8 245.7 252.4 255.7 255.8 253.9 249.3 245.8 240.6 237.9 234.4 231.3 228 225.1 221.7 218.2 211 210.3 208.4 204.7 200.1 195.4 192.6
167.5 170.6 171.8 173 172.2 170.1 165 167.1 170.6 171.3 172.1 174.1 176.3 178.2 178.6 178.2 176.7 174.2 173 171.6 170.5 169.4 167.5 164.4 157.5 150.3 146.4 151 155.1 156 154.9 152.3 151.1 151.7 153.4 154.9 158.2 167.6 173.2 178.3 184.4 188.5 191.1 191.8 190.6 188.6 186.2 182.8 173 171.1 181.3 185.2 187.2 187.7 188.8 189 189.6 190.4 191.2 192.3 193.3 193.9 194.4 194 194.2 195.7 195.3 195.9 198.9 200.3 201.5 202.6 204.3 206.1 207.2 208.5 209.8 211.1 211.6 211.7 211.6 212 212.8 213.7 214.7 215.4 216.3 217.1 217.8 217.7 217.6 217.4 216.8 215.4 213 210.6 208.3 206.7 204.8 206 207.3 209.3 210.9 212.2 213.1 213.5 213.5 214 215.1 216.3 217.2 217.3 218.8 220.1 221.6 221.7 221.9 220.9 221.8 221 222.4 223.6 224.6 226.2 226.6 227.9 228.8 229.9 231.1 233.3 235.1 236.4 237.5 238.2 238.7 238.5 238.2 237.6 236.6 234.9 233.6 231.6 229.6 227.6 219.7 211.1 204.5 209.5 210.6 209.8 207.2 202.9 196.2 186.4 175.6 187 203.9 211.1 214.4 215.3 213.2 208.4 192.9 176.4 187.1 198.4 207 213.4 218.9 222.5 225.8 229 231.1 234.1 237 241.1 245.2 248.7 251.3 253.5 255.6 253.5 249.3 244.1 239 235.8 232.9 230.1 227 223.7 220.4 217.4 214.1 210.1 203.5 202.4 201 198.4 194.3 189.1
167.1 171.1 173.3 174.8 174.4 171.8 168.1 171.2 173.8 175 176 177.4 178.7 180 179.8 179.4 178.5 176.9 174.9 173.7 172.1 170.3 168.4 165.9 163.4 158.8 148.8 150 150.2 152.3 155.8 160.8 162.1 163.3 161.6 157.1 154 157.2 163.1 170 175.5 181.4 184.9 185.1 185.3 182 176.9 170.5 168.4 175.9 181.8 186 187.9 188.5 189.7 190.4 191 191.8 192.8 193.7 195 195.9 195.7 196.8 197.4 197.8 198.5 199.4 200.2 201.6 202.9 204 205.2 206.4 207.6 208.5 209.4 210.5 211 211.2 211.6 212.3 213.2 214.1 215 215.1 215.8 216.2 216.5 216.7 216.5 216.2 215.5 214.1 211.7 209.4 207.5 206.4 204.4 204.7 206.7 208.8 210.4 211.6 211.7 211.6 211.3 212.4 213.7 214.5 214.8 215.6 217.6 218.5 219.3 218.9 218.1 219.3 222.5 223.8 224.5 224.1 225.4 226.3 227.3 228.2 228.9 229.9 231.6 233.3 234.5 235.5 236.3 237.1 237.7 237.5 237.3 236.8 235.4 233.4 231.4 230 228.1 224.1 219.2 213.7 204.8 199.8 204 203.6 202.7 198.6 191.6 181.5 172 190.1 202.6 208.5 209.9 209.1 206.5 200.7 184.9 176.9 188.5 197.6 205.9 214.3 220.1 223.4 226.1 229.3 233.2 235.8 240 244.2 248.3 251.7 254.2 255.3 255 251.7 246.9 240.9 236 231.9 227.7 223.5 221.4 219.5 215.7 212.6 209.5 205.9 201.2 195.8 193.5 192.6 189.8 186.6
171.7 174 176.3 175.5 177.2 176.6 173.2 172.9 176.3 177.5 178.3 179.4 180.2 181 181.1 180.8 179.8 178.8 177.1 175.2 173.4 171.6 169.2 167.3 165.3 159.8 151.4 161.6 162.2 162.1 166 168.6 168.6 168.6 167.5 163.9 158.3 155.1 157.3 159.9 167.1 172.3 176.5 178.2 176.7 172.8 165.4 169.7 179 184 185.4 186.3 188.6 190 190.3 190.7 191.4 192.6 193.4 193.9 194.9 194.8 195.3 195.7 196.9 198.1 199.1 198.8 200.1 201 202 202.9 204.6 205.4 206.2 207 207.9 209.1 209.5 210.1 210.5 211.5 212.5 213.3 213.8 213.9 214.4 214.7 214.9 214.9 214.8 214.7 213.5 211.6 209.9 208.3 206.6 205.6 203.7 203.1 205.6 207.9 209 209.6 210 209.3 209.1 210.8 212 212.3 212.6 214.4 216.2 217.3 217.6 217.1 217.3 220.9 223.2 224.9 225.7 226.5 226.7 227.3 228.1 228.7 229 229.8 231.1 232.5 233.5 234.3 235.1 235.9 236.3 236.7 236.5 235.9 234.5 232.3 228 225.5 223.3 219.7 215.7 209.1 201.8 193.2 195.4 196.4 198.1 195.9 189.8 177.5 175.1 191.2 199.7 204 204.6 202.3 199 192.8 178.4 176.7 180.5 193.1 204.5 212.5 219.4 222 223.4 225.9 230.4 234.3 238.1 244 248.4 252.3 255.2 255.9 254.2 250.2 244.9 239.1 234.3 232.5 228.8 225.6 220 212.7 209.4 206.1 203.4 200.1 196.7 192 187.8 185.4 179 174.5
175.1 176.5 177.6 178.7 179.7 179.3 177.8 175 174.7 176.7 178.3 179.4 181.2 182.1 182.4 182 180.4 178.7 176.7 174.3 171.6 168.7 166.8 163.5 161.7 157.8 159.5 166.8 169.4 170.8 171.5 173.7 174.7 173.9 172.3 169.3 164.7 162.8 158.2 156.2 157.4 162.4 167.9 169.3 166.5 162.7 173.6 181.9 185.3 186.5 188.2 188 189.7 189.7 189.4 188.5 190 192.1 193 193.5 194.1 193.6 193.6 194.4 195.4 196.5 197.6 198.6 198.9 200 201 201.9 203.3 203.8 204.2 205 206.1 206.7 207.3 207.9 209.2 210.7 211.5 211.9 212.2 212.1 212.6 212.7 213 213.1 212.6 212 210.5 209.2 207.6 206.1 205.3 204.7 202.8 201.3 204.6 206.5 208 208.6 209.2 208.3 207.4 208.5 209.6 210.2 212 213.8 215.2 216.1 215.6 215 217 220.3 222.5 223.6 225.6 226.9 227.9 228.1 228.2 228 228.4 229.1 230.1 231.4 231.9 232.5 233.5 234 234.9 235.3 235.6 235 234 232.1 228.1 220.1 215.7 212.9 207.2 202.1 196.2 197.2 187.8 186.8 190.8 190.8 187.1 175 176.4 187.8 195.2 199.5 198.4 195.3 190.7 186.4 175.1 178.2 190.9 188.3 200.6 208.1 213 216.4 217.1 219 226.9 234.4 239.6 245.7 250.8 254.6 258.5 259.7 256.9 252.9 248 242.8 239.1 236 232.1 228.1 223.9 217.9 210 204.8 199.4 195.2 190.8 190.9 186.9 186.4 183.4 181.3
176.3 177.9 179.4 180.3 179.8 180.8 179.7 178.9 178.5 179.3 179.8 181 182.5 183.4 183.8 183.2 181.6 180.4 178.6 176.4 175.8 174.2 173.1 171.4 166.8 155.6 166.3 170.7 173.3 175.3 176.7 177.3 177.6 176.2 175 173.1 174.4 172.5 170.7 166.2 161.6 157.5 158.5 159.6 165.5 174.9 181.9 185.2 188.4 190.6 191.2 191.2 191 189.5 187.5 186.3 189.9 191.4 192.9 193.1 193.2 192.6 192.1 192 192.7 194 195.4 196.2 197.2 198.2 199.4 200.6 201.5 201.8 202.2 203 203.3 203.3 205.4 207.2 208.8 209.9 210.5 210.4 210.5 210.3 210.4 210.5 210.6 210.8 210.2 209 208 206.9 205.4 204.5 203.7 203.1 201.6 200.4 202.8 205.6 206.9 207.7 208.5 206.3 205.8 206.3 207.3 208.9 210.5 212 213 213.4 213.6 214.1 215.9 218.4 220.9 222.8 224.7 226.4 227.8 228.5 227.9 227.5 227.8 228.3 228.4 230.8 231.1 230.6 231.7 232.6 233.2 233.6 234.2 233.9 232.7 231.1 226.3 218.5 212.7 210.1 208.4 207.4 208.3 203.9 195.3 188 178.6 179.8 178.9 173.3 168.9 179.4 187.4 192.3 191.9 187.7 183.6 180.4 171.6 182.2 196 196.8 194.7 197.2 203.9 206.6 209.1 219.5 227.1 235.5 242.5 247.5 252.8 256.8 260.9 263.6 264 261.1 257.1 252.6 246.2 242.3 238.1 234 229.7 224.5 213.1 206.6 206.9 209.2 206.4 200.5 195 193.3 190.2 187.3
176.5 178.4 179.9 181.1 181.9 182.2 181.7 181.5 181.4 182.2 182.7 183.5 184.2 185 185.5 184.1 184.3 182.5 180.7 179.7 178.1 176.8 175.5 173.9 167.6 160.1 170.8 173.6 175.6 177.3 178.7 179 179.2 178.4 177.4 177.9 178.7 179 178 176.2 172.9 171.5 165.9 160.2 168.9 178.9 183.1 186.3 190.1 192.9 193.8 193.2 192 189.8 187.2 181.9 188.4 191.3 192.8 192.8 192.2 191.4 189.9 188.9 190.2 191.5 192.7 193.5 194.6 195.5 196.6 198.2 198.9 199.3 199.8 200.2 200.5 201.7 205 206.5 208.3 208.5 207.9 208.6 208.3 208 208.2 208.4 208.4 208.2 207.3 206.2 205.1 204.2 203.1 202.4 201.9 201.4 200 201 203.5 205 206.4 207.5 208 204.8 207.1 208.7 208.9 209.2 209.1 210.2 210.8 211.6 212.2 214.1 215.5 217.3 220 222.3 224.6 226.1 227.1 227.2 226.8 225.9 226.3 226.3 226.8 227.7 228.3 229.1 230.1 231.2 231.6 231.7 232.2 232.1 231.5 229.5 226.6 225 222.7 221.1 219.7 216.2 210.8 205.6 200.3 194.2 187 182.1 178.4 174.2 166.6 169.3 181.2 183.4 181.9 180.2 177.7 174 172.9 186.9 195 200.3 203.4 204.9 205.7 211.7 217.3 221.5 227.3 234.2 242.7 249.3 253.6 257.3 261.6 264.5 265 263.2 259.5 255.7 251 246.8 242.6 238.2 233 227.7 215.9 208.2 217.1 216.2 212.6 207 206.4 204.1 200 195.4
173.7 176.1 177.4 179.4 181.4 182.7 183.1 183.5 184 184.6 185.5 185.6 186.4 187.3 187.7 187.3 186.6 185.8 183.8 182.9 181.3 179.5 178.2 176.3 171.1 161.5 173.2 175.4 177 177.9 178.9 179.6 180.1 179.9 180.3 181.2 181.9 182.1 181.5 180.3 178.5 177.3 174.8 165.4 162.7 176.4 180 183.2 187.9 191.4 193.6 193.6 191.6 189.1 184.8 179 181.1 185.2 189.1 189.9 189.9 188.4 185.9 186.2 187.4 188.7 189.5 189.6 191.1 191.7 194 195.7 196.4 196.8 197.1 197.5 198.3 200.9 203 205.1 206.1 206.8 206.1 205.7 205.5 205.5 205.6 205.6 205.3 205.1 204.5 203.1 202.2 201 200.5 200.3 199.9 199.4 198 200.3 201.7 203 204.1 204.9 204.5 204.8 209.6 211.2 211.3 211.7 210.2 210.3 210.7 211.3 213.6 214.2 215.6 216.5 219.6 222.2 224.4 225.1 225.3 225 224 223.2 223.1 223.8 224.4 225.1 225.8 227.4 228.8 229.5 230.1 229.8 229.6 229.6 229.7 229.7 229.5 229.1 228 225.6 221.5 216.6 210.2 205 200.5 194.4 189.9 185.4 181.5 177.7 170.8 165.2 173.8 180 177.8 174.9 172.1 168.6 177.5 184.6 192.5 198.1 201.6 204.8 211.2 218.4 224.1 229.6 235.1 240.5 245.3 250.1 253.8 258.1 261.5 263.6 264.1 262.3 259.4 255.8 251.7 247.5 242.9 238.5 233 227.7 219.4 211.1 224.2 223 218.8 214.1 215.5 213.4 207 204.2
167.2 170.4 173 177.2 180.3 182.1 182.9 184.2 184.9 186.3 187.1 187.9 188.4 189.3 189.1 189 187.6 186.5 185.5 183.6 181.6 179.6 178.7 176.2 173.4 165 169.3 175 176.1 176.3 176.8 178.2 180 180.8 182.6 183.5 184.1 184.6 184.1 183.3 181.4 180.3 176.1 171.4 163.3 166.7 170.5 178.7 183.1 186.4 187 188 186.1 179.8 176.5 179.8 181.9 180.7 179.2 181 181.8 181.3 185.2 186.4 186.2 186.1 186.5 187.3 187.6 189 191.3 193.3 194 194.5 194.8 195.3 197.6 200.3 202.8 204.2 204.9 205.3 204.5 203.7 203.1 202.6 202.4 202.4 202.1 202 201.7 200 198.8 197.9 197.3 197.5 197.4 196.8 196.7 198 199.2 199.3 200 200.8 202.3 206.3 210.1 212.3 213.3 213.2 211.6 211.5 212.3 213.2 214.5 214.8 215.9 216.8 219.4 222.1 223.8 224 223.2 222.3 221.3 220.6 220.5 220.5 221.1 221.7 222.9 224.9 226.8 228 228.4 228.5 227.7 227.4 227.3 228.1 229 229.5 228.2 225.8 222.7 217.3 209.1 203.2 197.6 191.8 186.8 182.5 179.5 175.5 170.6 164.7 168.7 173.2 172.1 170.3 166.6 169.5 176.3 178.8 182.2 187.9 195.8 205.9 214.3 222.6 229.1 235.1 240.7 245.7 249.9 254.1 257.6 259.5 262 262.5 262.7 261.2 258.8 255.1 248.7 245.9 237.1 233.2 228.6 221.6 216.5 220.7 227.7 227.4 223.4 221.6 221.3 217.2 214.5 212.6
168.3 168.7 169.7 174.7 178.1 178.9 182.6 184.8 185.8 187 186.7 188.9 189.7 189.9 190.2 189.1 189 187.8 186.1 184.1 181.6 179.6 177.9 175.5 171.9 166 167.5 171.7 171.2 176.1 178.7 180.6 181.3 182.2 184 185 185.8 186.2 185.9 184.7 183.9 181.9 179 173.6 164.7 168.8 166.1 169 177.1 180 177.1 174.5 172.2 178 183.5 189.1 189.5 188.8 185.3 184.8 186.6 187.2 190 190.1 189.6 189.4 189.7 189.3 188.5 188.6 188.6 191 191.5 192.2 193.3 195.5 197.3 199.9 202.3 203.6 204.5 204.1 203.1 201.8 200.8 200.1 200 200.1 199.7 199.4 198.8 197 195.2 194.6 194.3 194.6 194.9 195.5 196.5 198.1 199.8 202.6 205.2 206.5 207.8 209.5 211.2 213 213.6 213.4 212.7 212.8 213.7 214.9 216.1 216.5 217.1 218.8 220.5 222.6 223.1 223.1 221.1 219.8 218.9 218.1 217.8 218.1 218.7 219 221.2 223.6 225.5 226.4 226.6 225.5 225.6 225.5 225.5 227 227.7 228.1 227.6 225.9 222.8 218.5 213.1 209.7 202.6 197.6 193.1 190.4 184.2 178.6 173.5 165.9 165.2 167.7 166.6 164.1 171.1 178.7 182 186.3 191.6 199.4 204.5 212.5 218.7 225.2 232.1 240.3 246.3 250.1 254.2 257.9 260.4 260.9 261.1 260.9 260.4 259.7 257.7 254.4 249.4 246.2 242.2 234.1 231.2 224.6 225.5 229.1 233.9 233 228.7 227.3 226 222.9 222.6 221.5
174.8 175.8 173.6 174.6 177.7 179.4 182.2 184.9 185.7 186.7 187.1 189.9 190.8 190.6 190.9 189.9 188.9 187.3 185.3 183.4 180.8 176.9 173.8 168.9 168.6 168.2 168.9 172.7 176.8 179.8 181.6 183.2 183.7 183.8 184.4 185.5 186.9 187 186.7 185.9 184.6 182.3 179.7 173.6 167.3 176 176 171.6 167.4 169.7 173 180.3 182.7 185.5 189.3 190.6 191 190 185.9 188.2 189.9 191.8 193.3 193.2 192.8 192.5 192.6 192.3 191.7 191.1 190.6 189.9 190.1 191.6 193.3 195.8 197.5 200.6 202.4 203.4 204 203.6 202.1 200.8 198.6 197.6 197.6 197.9 196.2 195.5 193.9 191.8 192.2 193.4 194.4 195.3 196 197 198 198.9 200.2 204.8 207 208.6 210.2 211.3 212.3 213.1 213.6 213.2 213.5 214.1 216 216.4 216.4 217 218.2 219.9 221.5 222.9 223.2 222.9 222.2 220.3 218.2 215.4 214 214.9 216.4 217 220.6 223.1 224.4 224.8 224.9 224 221.6 223.1 223.2 224.4 225.1 226.2 226.8 225.9 224.1 221.3 219 215.5 209.8 204.5 200.7 195.6 189.7 183.7 173.7 164.8 161.3 162 173.5 181.1 191.1 197.4 200.4 205.6 210.7 214.1 213.2 215.7 223.4 231.2 239.2 245 249.6 253.4 256.4 259 260.2 259.4 259.5 259 257.7 257.1 256.6 254.6 253.4 251 245.2 243.8 239.8 233.4 237.8 242.1 243.4 242.4 239.8 237.4 233.4 232.1 233.9 232.6
179.5 179.6 177.8 178.4 178.5 179.1 180.1 181.2 183.9 185.3 186.9 188.2 189.5 190.2 190.7 189.9 188.5 186.8 184.1 181.7 176.5 174.1 174.5 176.2 176.2 175 172.2 177.9 180.6 182.7 184.6 185.5 186 185.9 186 186.7 187.3 187.1 186.9 185.7 183.8 181.2 178.3 171.4 173.1 178.8 179.6 178.7 175.4 178.1 182.6 186.3 188.5 190.5 191.6 192.2 191.9 190.4 187.2 188.3 191.6 193.2 194.2 195.4 195.7 195.3 195 194.6 194 193.2 192.6 191.6 190.9 191.7 193.5 195.9 198.8 201.3 203 203.7 203.3 202.6 201.8 200.7 199 195.8 195.6 195.7 193.3 189.5 191.8 194.4 197.5 198 199.5 200.3 200.1 200.4 200.9 201.5 202.7 202.4 206.2 208.4 209.7 210.9 212.3 213 213.7 213.6 215.2 215.7 216.1 216.5 216.5 217.3 219.3 220.7 222.3 223.2 223.4 223.2 222.5 220.9 219.2 217.8 216.8 214.5 212.1 216.3 218.9 221.5 222.6 223.2 223 221.9 218.9 218.5 219.6 220.2 220.8 223 224.2 224.4 223.9 221.4 220.2 217.7 213.7 210.8 206.7 202 196.2 188.2 168.8 160.5 171.5 180.9 190.1 196.4 204.9 210.6 214.7 220.5 225.7 228.7 230.2 231.2 232.9 238.1 243.2 247.9 251.5 253.9 256.2 258 258.6 258.2 257.6 256.5 255.7 255.3 255.2 254.9 254.8 255 251.9 250.7 248.2 243.9 248 249.8 250 250.2 249.3 247.7 245 245.2 245.2 243
181.8 181.8 182.6 183.6 183.6 182.9 183.8 183.8 183.6 183.4 187.3 188 189.7 190.8 190.7 190.3 188.7 186.9 184.6 178.9 177.9 180.3 181.1 181.3 180.6 179 174.8 181.1 183.7 185.8 186.8 187.7 188.1 188 187.7 187.9 188.3 187.9 187 185.5 183.8 181.4 178.9 169.3 178.3 181.2 182 182.2 182.7 183.9 186.2 189 191.5 193.2 194 194.1 193.4 191.9 189.4 187.1 191.3 193.7 194.9 196.4 197.2 197 196.8 196.2 194.6 194.7 194 193 191.6 192.5 193.9 196.1 199.3 202 203.5 203.6 202.9 201.5 200.4 198.9 196.9 195.3 192.7 193.1 190.7 193.1 196.8 199.3 201 202.5 203.5 203.9 203.7 203.4 204.2 204.9 205.7 206.2 206.5 206.1 206.6 210.2 212 212.2 212.6 213.4 214.5 214.9 215.4 216.2 216.3 217.8 219.4 220.9 222.6 223.4 223.5 223.5 222.8 221.9 220.8 219.3 218.2 216.2 212 213.9 217.9 220 220.8 221 220.9 219.3 216.6 211.8 214.7 215.3 216.1 217.7 219.6 220.7 221.1 221 220.1 219.4 217.5 215.3 211.2 205.1 192.7 170.6 159.2 166.6 181.3 190 197.9 204.6 212.6 217.5 221.5 225.6 230.2 232.9 236.2 237.7 239.8 242.8 245.8 248.4 251.2 253.3 255.2 256.5 256.8 256.5 255.2 254 253.2 253.8 254.4 254.7 256.4 257.8 257.6 256.8 254.5 254.1 254.9 256.1 257.3 257.7 256.5 255.3 254.1 254.1 253.1 249.8
183.2 184.5 185.7 185.8 185.7 185.9 187 186.4 185.7 184.8 185.8 188.3 189.5 190.8 190.9 190.4 189.4 188.2 185.3 181.1 184.7 186 186.1 185.9 185.4 183.8 181.3 182.9 186.5 188.3 189.3 189.7 190.1 189.8 189.5 188.9 189.4 188.5 187.5 185.9 184 182 175.3 171.2 175.1 180.5 182 182.7 183.5 184.7 186.7 189.6 192.6 194.7 195.9 195.9 195.1 193.2 190.7 189.7 189.5 193.3 195.5 196.9 197.4 198.3 198.1 197.9 196.8 196 195.3 194 192.5 193.5 195.4 198.2 200.7 202.9 203.9 203.9 202.5 201 198.3 196 194.1 192.5 190.4 189.3 190.7 196.2 199.4 201.6 203.1 204.4 205.5 205.7 205.8 205.9 206.2 206.9 207.8 208.8 209.7 210 209.8 209.1 210.2 211.6 212.7 213.3 214.4 215.1 216 216.2 216.9 217.8 219.5 221 222.5 223.4 223.6 223.8 223.5 222.6 221.6 220.3 218.6 216.6 213.7 210.7 216.6 218.4 219 219 218.6 216.7 214.4 208.1 209.5 210.1 210.7 212.2 213.6 215.4 216.7 217.4 217.7 215.2 217.4 216 212.1 201.8 179 158.6 163 176.8 186 195.9 205.3 212.9 218.3 222.1 226 229.1 232 234.6 237 239 240.9 242.7 245 247.3 249.7 251.8 253.4 254.6 254.9 254 252.7 250.1 248.5 251.2 253.4 255.6 256.7 259.2 259.9 259.9 259.8 259.8 261.6 263.1 263.3 262.7 261.7 260.9 258.9 258.8 257.5 254.8
182.5 186.8 186.2 186.5 187.5 188.3 188.7 188.4 188 187.1 188.2 188.8 189.6 190.7 191 190.3 189.2 187.6 183.6 186.9 189.9 190.2 189.6 190.3 190.4 188.9 185.6 185.3 189.3 191.1 191.6 191.9 191.7 191.4 190.6 190.3 189.8 188.6 187.1 185.3 182.9 177 175.2 180.5 179.1 174.6 179.2 179.7 181.9 183.6 185.5 188.5 192.2 195.7 197.6 197.7 197 194.6 193.7 193.5 192.8 190 194.3 196.1 197.1 198.3 198.8 198.3 197.9 197.2 196.1 194.8 193.4 194.3 197.1 200 202.1 203.6 204 203.8 203 201.5 199.4 197.1 195.1 193.2 189.2 188.9 194.8 198.7 201.7 202.7 204 205.8 206.6 206.9 207.2 207.3 207.5 208 208.7 209.6 210.6 211.3 211.5 211.5 211.5 212.2 212.5 213 214.6 215.2 216.2 217.1 217.5 218.3 219.1 220.4 221.9 222.6 223.3 223.7 223.7 223.1 221.7 220.1 218.1 215.9 213 208 215.1 216.2 217 217.3 216 213.7 211.1 203.8 204.1 204.6 205 206.9 208 208.3 211 211.5 213.7 213.3 213.7 212.8 208.7 187.5 162.9 157.3 168.5 184.1 196.1 203.9 210.7 216 220.1 224 227.2 229.8 232 234 235.7 237.3 239 240.6 242 245 247.4 250 251.5 252.9 252.2 251.9 249.4 245.5 247.4 250.6 253.3 255 256.6 257.9 258.6 259.7 260.4 262 262.8 262.4 262 261.8 261.5 261 260.5 259.6 258.8 257.1
181.5 183.2 185.2 186.6 187.7 188.8 189.4 189.8 189.5 189.4 189.6 190.5 191 191.6 191.4 190.5 187.7 188 189 189.5 192.5 194.1 194.8 194.8 194.1 193.1 191.7 191.6 192.7 193.3 193 193 192.4 191.9 191.1 190.3 189.4 188.3 186.6 184.6 181.7 174.7 182.4 183.9 182.5 179.7 179.3 182.8 183.9 186 187.1 190.3 192.4 196 198.6 199.8 199.9 198.9 197.5 196.8 196 194.9 194 195 196.6 198 198.6 198.7 198 197.8 196.5 195.1 194.4 195.4 197.9 200.5 202.4 203.5 204 203.7 203.1 201.6 198.7 196 193.9 191.1 187.4 190.5 196 199.2 201.5 203.3 204.6 206.5 207.3 207.9 208.1 208 208.4 208.9 208.9 209.9 210.6 211.3 211.6 211.5 211.3 211.7 212.2 213.2 213.2 215.1 215.5 216 216.2 216.7 217.7 219.3 220.7 221.8 222.5 223.2 223.2 222.2 220.8 219.2 217.1 214.8 211.2 204.7 212.7 214.1 214.8 214.9 214.3 212.6 209 202.1 196.5 196.8 198.7 201.1 202.3 203 202.2 202.1 205 207.7 207.8 207.8 201.8 176.5 158.1 159.5 179.8 195.2 202.6 208 212.8 216.3 219.4 223.5 225.6 228 230.2 232.3 233.8 235 236.1 237.3 238.2 241 244.4 247.5 249 250.6 250.1 249 244.2 241.2 246.6 250.4 252.9 253.6 253 254.5 255 256 257 258.3 259 259.5 259.4 259.2 259 258.8 258.8 258.6 257.3 254.9
180.8 181.8 183.5 185.8 187.3 188.8 189.8 190.8 191.1 191 191.3 192.1 192.8 192.3 192.3 190.2 190.4 191.5 193.4 194.3 194.8 196.4 197.3 197.2 197.1 196.4 196.2 195.6 195.1 194.6 194.1 193.5 192.4 191.3 190 189.2 187.5 186.3 184.3 183.7 179.1 178.7 185.8 185.7 184.1 180.1 180.2 183.7 186.4 189.3 191.4 193.9 196.2 197.9 200 201.3 201.7 201.8 201.2 200.3 199 197.9 197.1 197.2 197.5 198.5 199.7 199.8 199.1 198.1 196.9 195.9 195.8 197.1 198.6 200.5 202.5 203.6 203.9 203.6 202.6 200.7 197.4 195 192.2 189.3 186 191.6 196.7 198.9 201 203 205.1 206.3 207.1 207.7 207.7 207.8 207.7 207.7 208.1 209.1 209.9 210.6 210.9 210.5 210.6 210.9 211.6 212.1 213.3 213.7 214.2 214.6 214.7 215.3 216.3 217.8 219.2 220.2 221.5 222 221.7 221 219.6 217.9 215.7 212.5 209 202.4 209 211.1 212.2 211.9 211.9 211.7 208.6 205.9 200.4 195.2 188.9 193 194.7 195.7 196.1 197 196.8 197 198.4 198.5 193.2 171.4 156.3 164.7 187.3 197.4 202.4 206.7 209.7 213.2 216.4 219.2 222.4 225.2 227.9 229.8 231.2 232.3 233.3 233.5 234.3 237.1 241.3 243.6 245 246.1 246.9 244.4 236.1 242.8 245.8 248.7 249.4 248.8 249.8 249.5 250.4 251.6 252.4 253.3 254.2 254.9 255.9 255.8 255.1 255.1 255.5 255.9 255 253.6
178.9 179.7 183.1 185.8 187.6 189.3 190.7 191.7 192.9 193.2 193.8 194.5 194.7 194.7 195 194.7 194.4 196.1 196.4 197.5 198.8 200 200.8 201.3 200.8 199.6 198.9 197.8 196.7 195.6 194.2 192.3 191.1 189.8 188.1 185.1 182.3 179.9 181.1 180.8 177.8 184.2 186.3 185.8 184.2 184.3 185.8 185 187.8 190.5 193.7 196.5 198.5 199.8 201 202.5 203.1 203.4 203 202.7 201.8 200.9 200.4 200.4 200.4 200.8 201.4 201.1 200.6 199 197.8 197.6 197.8 198.8 200.2 202.1 203.1 203.4 203.6 202.9 201.2 199.4 196.9 194.5 191.6 188.7 187.2 191.8 194.4 196.8 199.5 201.7 203.7 205.3 206.1 206.9 206.4 205.4 204.8 205.8 206.7 207.6 208.5 208.8 209.1 209.1 208.7 209.7 210.7 211.5 212.2 212.2 212.7 213.1 213.4 214.1 215.2 216.6 217.8 219.1 220.3 220 219.7 219.1 217.8 216 214.2 211.6 208.2 202.5 205 208.4 209 208.4 208.4 209.3 208.1 204.8 201 194.1 186.9 182.3 184.8 187.4 191.1 194.6 190.6 185.4 183.6 183 183.7 170.6 154.1 171 185.4 193 198.7 202 205.2 208.6 211.3 213.6 217.9 221.5 223.9 226.5 228.2 229.2 229.3 228 231.5 234.8 238.3 240.8 240.6 240.5 239.3 237.2 227.5 238.9 240.7 241.1 242.8 243.2 243.6 243.9 244.7 246.3 247.8 248.9 249.4 250.8 251.5 251.5 251.2 252.6 253.4 253.5 252.6 250.9
175.4 177.2 180.6 184.8 187 189 190.8 192.5 193.9 195.1 196 196.7 196.9 196.7 197.8 197.5 197.8 198.8 200.6 201.1 202.1 203.3 204.2 203.9 202.8 201.7 200.5 199.2 197.5 195.7 193.7 191.4 188.2 186.4 186.8 184.3 186.4 187.5 187.3 186.3 182.1 186.2 187.8 188 187.1 186.5 188.6 188.9 188.3 190.6 194.1 197 199.1 200.7 202.2 203.5 204.2 204.5 204.8 204.3 204.5 204 203.7 203.5 203.5 202.6 203.3 202.8 202.1 200.5 200 199.9 200.2 201 202 203.2 203.3 203 203.3 201.9 200.5 199 197.3 194.6 192.2 188.8 185.8 188.5 191.4 194.1 197.4 200.5 202.5 204.2 205.4 205.8 205 203.6 201.4 202.5 204.2 204.7 204.9 205.7 206 206.6 206.6 207.7 208.7 209.9 210.6 210.7 211.2 211.7 212.4 213.7 214.3 215.4 217.1 218.3 218.8 217.7 217.6 216.6 215.3 213.8 211.2 207 205 202 201.5 205.1 204.7 202.8 204.7 207.3 207.3 205.6 203.2 199.7 195.1 188.3 178 175.3 177.3 176.8 172.7 168.7 163.1 165.7 167.7 168 153.9 156.7 167.6 181.5 188.5 190.8 194.1 196.8 200 205.3 211.4 215.3 218.6 221.6 222.8 224.2 223.3 220.2 228.4 232.7 236.6 238.5 238.1 234 231.7 227.6 222.5 230.7 232.7 234.6 235.6 236.8 238.4 237.7 238.6 240.5 243.6 244.1 245.2 245.8 246.8 247.6 248.9 250.8 251.6 251.7 250.7 248.4
171.9 174.5 178.1 182.3 185.2 187.6 190.6 193.2 194.9 196.2 197.3 198.3 199.7 199.8 200.4 201.1 201 202.6 203.8 204.3 204.7 205.7 205.5 204.7 203.5 202.2 200.5 199.4 197.3 195.3 192.9 190.1 188.3 190.5 190 185.5 190.3 190.5 189.7 188.3 186.1 187.8 189.5 190 189.5 189.4 191.1 192.2 193 193.8 194.6 196.5 199.1 200.9 202.5 203.5 204.1 204.6 205.2 205.6 205.7 205.8 205.8 205.9 205.7 205.3 204.9 204.3 203.6 202.8 203 203 202.7 203.1 203.3 204.2 204.5 204.2 203 201.6 199.8 198.3 197 195.5 193.5 189.3 184.9 188.8 193.4 195.6 198 200.4 202.5 204.3 204.5 203.5 202.8 201.2 201.8 201.4 201.7 202.7 203.2 204.2 204.8 206 206.3 207.2 207.9 208.2 209 210.4 211.5 212.3 212.9 213.6 214.1 215 216 217 217.6 216.9 213.6 211.9 211 209.7 205.2 200.6 199.1 196.9 196.6 200 198.4 195.8 198.8 203.3 204.6 204.5 203.1 200.6 197.3 192.8 188.9 182.7 171.4 167.1 162.2 168.5 166.5 163.8 159.5 156.3 153.6 150.4 151.7 166.6 173.5 172.4 176.9 180.2 182 187.4 197.2 205.2 211.1 214.3 215.6 215.1 216.7 224 227.5 232.1 235.9 236.4 235.4 231.4 227.3 222.7 213.2 222.2 225.9 227.7 229.4 231.2 232.8 233.5 234.5 235.6 237.6 238.6 239.9 241.9 242.6 244.1 247.5 249.4 250.3 250.2 249.2 246.7
171.3 174.6 179.1 182.3 184.8 188 191.2 193.7 195.4 197.3 198.5 199.7 200.9 201.8 202.3 203 203.7 204.4 204.9 205.4 206 205.6 205.1 204.1 202.8 201.2 199.6 197.5 196.3 193.6 189.9 191.1 192.9 193 192 188.9 191.5 192.3 191.7 190.5 190 189.7 191.8 192.8 192.7 193 193.9 195.1 195.8 196.7 197.2 198.2 199.8 200.9 202 202.8 203.4 203.9 204.5 205 205.4 205.9 206.4 206.9 206.8 206.6 206.1 205.5 205.1 204.8 204.8 204.9 205 204.8 204.5 204.3 204 203.2 202 200.6 198.9 197.5 195.7 193.9 192.6 188.5 185.3 191.7 195.5 197.2 199 201 202.6 203.3 203.1 201.5 200.1 198.9 199.9 201.9 204.5 206.2 207.4 208 208.8 208.9 209.1 209.6 210.3 211 211.6 212.6 213.7 214.4 214.9 214.9 215.2 215.6 216.5 217.4 217.9 217 214.8 212.7 211.7 209 206.6 207.2 206.3 206.1 202.2 199.9 200.6 198.4 190.4 190.6 196.7 199.7 199.7 198.4 194.7 188.8 180.9 171.2 167.4 176.4 182.9 190.8 188.5 183.9 180.6 174.9 169.1 157.4 151.4 151.2 157.6 167.1 170.6 174.5 180.6 182.3 182.9 194 203.1 205.8 204.5 212.5 223 227.8 231.6 233.4 236.1 236.7 235 231.2 225.3 219.6 212.3 204.4 210.1 213 219.1 223.6 225.7 230.3 231.1 231.5 231.6 231.8 234.2 236.5 235.5 243.1 246.1 248.2 249 248.6 246.9 243.8
173.8 177.9 181.4 183.2 184.8 187.7 190.7 193.1 194.4 196.1 197.9 199.7 201 201.9 201.6 203.6 204.4 205.3 206 206.2 205.6 205.1 204.3 203.5 201.7 199.7 197.8 196.5 193.1 193.4 193.7 194.8 195.5 195.2 194.4 192.4 193.3 194.4 194.1 193.6 193.1 193.7 194.9 195.5 196 196.2 196.6 197.5 198.4 198.8 199.3 199.8 200.1 200.9 201.8 201.8 202.3 202.8 203.1 203.5 204.2 205.1 206.1 206.6 207 207.1 206.9 206.3 206.2 206 205.8 205.8 205.5 204.9 204.3 203.1 202 200.9 200.1 198.8 196.9 195.5 194 191.1 188.8 183.8 191 194.9 196.3 197.8 199.7 201.1 201.9 201.2 200.5 197.5 198.6 202.5 204.3 205.4 207.2 210.4 211.2 211.4 212 212 212.2 212.6 212.8 213.6 213.2 214.2 215.5 216.5 216.7 216.6 216.7 217 217.5 218.4 219.1 219.1 217.7 216.7 215.1 211.9 211.5 211.9 211.9 211.1 209.7 208.5 207.3 204.2 200.9 195.9 187.2 187.2 186 188.7 185.3 179.2 170.8 178.2 186 197.2 199.1 197.5 195.9 192.1 186.6 179 171.2 164.4 153.7 148.5 154.8 170.4 184.3 192.7 199.5 203.2 202.2 198.6 199.4 205.2 212.8 220.3 226.4 230.1 232.8 234.9 236 236.6 235.3 232.4 228.6 224.3 219.2 209.1 196.3 201.1 214.2 221.7 225.6 227 227.9 228.1 225.7 225.8 230.4 234.1 239.8 243.6 245.1 245.5 246.2 244.7 242.3 239.1
170.2 177.9 180.7 181.3 182.1 184.4 187.5 190.1 191.3 192.3 194.7 196.6 198.5 199.5 200.7 202.5 203.4 204.6 205.6 206.2 206.3 204.4 203.5 202.6 200.6 199.7 197.9 197.2 196.7 196.7 197.3 198.1 197.8 197.4 196.2 195.4 195.5 195.7 196 196.2 196.1 196.9 197.1 197.7 198.4 199 199.7 199.7 200.4 200.1 200.5 200.3 200.4 200.8 200.9 200.6 200.9 201.3 201.3 201.6 202.3 203.2 204.3 205.6 206 206.5 206.3 206.1 205.9 206.2 206 205.5 204.2 203.4 203.2 201.8 199.7 198.3 196.6 195.9 194 193 192 189.3 184.3 184.8 191.9 194.4 196 197.8 199 199.8 199.7 196.3 195.5 198.9 201.6 205.5 208.9 210.4 212 213.9 214.7 214.8 215 214.9 215.1 215.3 215.7 215.7 216.5 216.5 217.1 218.4 218.6 218.4 218.5 218.7 219.1 219.8 220.5 220.7 220.7 219.7 218.3 215.8 216.2 216.1 215.5 214.9 213.7 212.2 209.4 208.2 206.6 203.9 197.5 193.8 189.1 183.1 180.6 185 188.6 196.5 206.5 206.4 205.1 203.8 201.5 197 190.3 180.8 173.7 163.4 154.3 149.1 150 160 178.3 191.1 199.7 204.8 207.2 208.5 210.5 213 217.8 223.1 226.8 230 232.8 233.8 233.9 233.4 232.4 230.5 228.8 226 222.5 215.3 192.2 204.8 218.8 222.4 223.3 222.5 222.3 218.5 220.5 232 236.7 238.6 241.5 244.1 243.6 241.6 240.2 238.9 236.3 233.3
173.7 169.9 176.5 177.8 178.3 178.8 179.7 183.2 185.7 188.4 190.3 193.7 196.5 197.5 200.1 201.6 203.1 204.4 205.6 206.4 206.5 206.3 205.1 203.2 201.3 199.9 200.5 200.7 201.2 200.6 200.4 200.3 200 198.3 196.6 195.2 196.6 197.2 198.2 198.6 199.1 199.8 200.3 200.7 201.2 201.8 202.1 202.2 201.9 201.3 201.3 201.2 200.9 201 199.9 199.3 199.5 199.6 199.6 199.7 200.3 201.2 202.4 203.7 205 205.7 205.6 205.4 205.3 205.3 205.2 204.8 203.5 202 199.2 198.3 196.2 194.5 193 191.8 191.1 189.9 188.5 185.5 182.6 186.6 192.3 193 192.4 193.6 193.4 192 192.6 196.1 201.7 203.8 203.7 207.9 211.8 214.1 215.5 216.9 217.3 217.2 217 216.9 217.2 217.8 218.4 219.1 220.2 219.6 220.1 220.9 220.4 220.3 220.7 220.9 221.2 221.5 222.1 222.7 223 222.6 221.6 220.1 219.6 219.6 219.5 219.3 218.1 215.8 214.3 212.7 211.8 213.4 211.7 207.5 203.9 203.3 203.9 206.8 210.7 212.8 213.5 212 208.8 206.6 204.1 200.6 194.3 187.8 179.5 165.7 154.9 148.9 148.5 156.8 169.5 182.4 191.8 199.7 204.3 207.1 209.7 213.3 218.1 222.6 226.1 228.4 230.1 230.8 230.3 229.1 227.5 225.5 224.4 223.1 221 207.1 188 201.8 213.9 215.9 214.8 211.2 208.8 215.4 228.1 237.6 241.2 243.2 243.9 243.6 240.5 236.8 234.3 231.8 228.9 224.9
180.2 177.5 176.6 178.2 180.9 185.3 187 189 191.3 193.8 194.8 195 196.7 198.4 200.9 202 203.4 204.7 205.7 206.6 206.8 206.8 206.1 205.2 203 202.3 203.4 203.6 203.6 203.4 203.1 203.3 202.2 200.8 198.4 197.8 198.2 199.3 201 201.9 201.8 201.5 201.9 202 202.3 202.6 202.8 202.8 202 201.6 201.7 201.7 201.5 200.2 198.5 196.9 197.1 196.9 196.6 197.2 198.2 199.2 200.4 201.8 203.2 204.5 204.3 203.9 203.4 203.5 203.6 203 202.1 200.4 198 194.3 192.5 190.8 189.8 189 188.2 186.5 183.3 180.7 182.9 183.1 183.4 186 189.5 191.9 194.5 197 199.3 202.5 204.8 207.2 208.9 211.4 214.3 216.7 218.3 219.3 219.4 219.2 219.2 218.7 219 219.6 220.6 221.6 221.8 220.8 222.7 222.5 222.6 222.7 222.9 222.8 223 223.3 223.8 224.6 224.6 224.6 224.2 223.9 223.7 223.5 223.6 223.1 222.2 220.8 219.7 219.4 219.7 218.9 218.7 218 216.9 216.1 216.3 216.3 215.7 214.9 214.5 212.3 209.6 206.8 204.4 200.6 195.9 189 178.7 169 156.6 149.6 147.4 155.2 165.9 178.1 187.2 193.3 198.4 202.1 205 208.6 214.4 220.5 224.2 226.7 226.8 226.1 224.2 223 220.5 218 216.5 215.7 215 201.7 183.5 189.9 200.4 204.3 202.9 201.8 212.8 224.5 235.3 239.9 242.3 243.8 242.9 242 238.4 233.8 229.7 225.7 220.6 212.6
186.6 183.5 181.3 184.5 188.5 192 193.2 192.6 194.5 196.8 197.6 198.2 199 200.5 201.7 203 204 204.7 206.1 207 207.2 207.2 207.1 206.6 204.1 204.7 205.6 205.5 205.5 205.5 205.4 204.9 203.8 202 200.8 200.3 200.2 201.5 202.5 202.7 202.4 201.8 201.4 201.5 201.7 202 202.1 202 201.4 201 200.8 200.3 199.1 197.7 196 192.6 193.7 193.9 193.9 197.3 196.8 197.6 199 199.6 201.1 202.3 202.2 202.2 201.3 201.1 201.3 201.1 200.2 198.8 196.3 193.2 188.6 186.6 185.8 185 183.8 181.1 181 186.4 188.2 190.1 192.1 193.8 196.6 198.1 200.5 202.9 205.3 207.4 209.1 211.4 213.4 215.5 217.1 219 220.6 221.1 221.4 221 220.6 220.7 221 221.6 222.7 222.8 222.3 223.1 223.8 223.7 223.6 223.6 223.7 223.6 224.1 225.1 225.9 226.1 226.2 226.1 226.1 226 225.7 225.4 225.6 225.2 224.7 224.1 223.4 222.3 221.7 221.3 220.8 220.4 219.8 219 218.3 217.4 216.2 214.6 213.1 210.5 208.2 205.5 203.3 201.1 197.5 191.9 184.6 170.8 159 148.6 146.7 155.2 168.2 176.6 183.3 189.2 192.4 195.9 199.5 204.5 210.7 218.7 222.7 224.6 224.2 223 220 215.6 210.8 206.5 204.6 207.1 205.8 189.1 176.2 177.3 184.2 191.7 199.3 210 222.7 231.5 236.1 239.3 241 242.3 241.7 240.5 238.1 235.9 233.1 230 226.2 221.5
191.8 190.6 190.2 191.9 194.4 196.7 197.5 197.4 198.3 199.2 200.1 200.5 200.8 201.6 202.8 203.8 204.5 204.4 206.5 207.3 207.2 207.3 207.3 207 205.6 205.8 206.7 206.7 206.8 206.8 206.3 205.4 204.4 202.8 202.7 202.2 202.2 202.6 202.9 202.9 202.7 202.3 201.4 200.4 200.5 200.6 200.6 200.6 200.3 199.8 198.8 198.4 196 194.3 192.8 189.6 190.3 190.9 190 192.4 194 195.5 195.3 194.9 198.3 199.3 200.1 198.9 198.9 198.7 198.9 199.1 198.2 196.9 194.3 190.7 187.6 185.3 181.4 180.7 179.6 182.2 188.5 191.3 192.9 195 197 198.8 199.8 202.3 205.2 206.3 208.1 209.3 211.5 213.8 215.8 217.6 219.5 220.5 221.2 221.7 221.8 221.2 220.7 220.5 220.8 221.4 223 223.4 222.8 223.6 224.3 224.3 223.8 223.3 223.1 223.2 224.5 225.8 226.6 226.9 226.4 226.4 226.5 226.6 226.2 225.7 225.9 225.9 225.7 224.6 223.4 222.1 221.1 220.9 220.5 220 219.4 219.2 218.4 217.1 215.6 213.8 211.5 208.7 205.8 203.2 200.4 199.3 196.6 192.6 186.9 179.7 165 147.3 144.7 152.1 160.4 167 171.8 180.3 184.8 192.5 201.1 209.2 215.3 219.6 222.2 222.5 221.8 221 218.5 211.4 202.9 196.3 191.6 195.5 189.8 173.7 178.5 196.4 204.6 207 212.8 221 226.1 231.7 234.4 237.1 239.2 240.5 240.3 237.7 238.1 236.2 233.3 229.7 224.3 209.8
