ncols 200
nrows 82
xllcorner 390000
yllcorner 365700
cellsize 50
165.7 165.2 165.5 165.3 164.9 164.5 164.6 163.2 163.6 164.1 164.5 165.8 166.4 166 158.1 167.9 165 166 166.3 166.4 166.2 166.5 166.7 165.7 165.2 160.9 158.6 158.1 154.3 154 155.2 160.6 170.5 176.4 180.3 180.2 182 185.7 189.4 190.9 190.8 187.9 193.3 201.1 207.8 216.9 222.5 219.2 219.4 229 240.7 252.9 256.6 253.3 252.1 252.3 254.9 256.9 253.6 254.8 256.8 262.1 273.4 276.6 274.1 270.3 264.6 259.4 253.6 246.1 238.6 230.4 222.1 217.1 212.2 208 200 201.9 211.5 212.6 213.1 212.9 213 213.8 214.7 216.2 218.4 221.8 223.6 228.9 234 238.8 242.7 247.3 251.9 257.6 265.5 273.8 282.2 286.4 288.7 291.6 297.7 309.3 320.8 331.3 336.5 342.8 349.8 354.6 359.7 368.4 384.9 390 390 387.6 385.2 382.5 377.6 375.2 377.3 378.6 381 385.5 392.1 397.7 400.5 399.2 393.1 387.7 375.6 366.5 362.7 360.5 359.9 372.4 368.4 358.1 365.9 372.3 378.4 384.8 391 403.4 427 435.8 441 443.2 444.1 446.7 451.8 455.9 460.4 467.1 466.6 454.8 436.5 422.5 413.3 406.8 400.4 393.3 384.2 374.4 363.4 352.7 341 328.2 323.5 318.9 313.7 308 291.5 297.6 300.5 302.5 302.8 306.1 309 315.6 318.3 323.2 334.6 344 351.1 352.5 357.7 366 374.3 384.6 393.7 412.3 422.2 414.6 399.8 415.1 423 428.9 434.4 440.8
164.5 164.6 165.9 166.5 166.7 165.4 164.5 163.9 164.5 165.5 166.1 165.9 166 166.2 156.1 168.8 166.2 166.9 167.1 167.4 167.6 168 168.9 168.6 167.3 164.1 164.4 165.2 159 153.4 153.7 154.4 160.5 174.7 177.4 178.1 180.9 186.1 189.7 182.9 181.5 189 197 204 210.9 217.8 227 221.4 221.4 231.5 245 257.7 261.8 257.4 258.4 258.9 261.6 262.2 264.4 267.9 261.9 265.4 270.9 280.3 277.9 274.6 269.6 265.9 257.2 246.3 236.6 229.8 223 217.2 222.4 215.5 204.7 200.4 212.4 214.7 215.3 215.6 215.7 216.3 217.2 218 220.9 226 231.1 235.5 241.3 245.4 250.8 254.2 256.2 262.3 270.7 277.6 285.5 289.1 291.7 294.6 300.1 308.6 323.4 330.7 337.1 342.9 349.7 354.9 360.2 367.4 381.5 384.4 386.1 384.5 382.6 380.2 376.3 371.9 374.5 376.5 378.6 383.3 389.5 394 395.6 394.9 390.1 383.5 370.8 361.1 356.6 354.5 361.6 364 357.1 360.9 366.5 371.3 376.5 383 390.4 410.4 423.8 430.9 436.2 437.9 439.3 445.8 452.9 458.8 463.8 470.1 465.6 454.4 433.2 421 414.2 406.1 400.9 395.7 389.6 381.7 372.3 358.4 345.8 333.4 321.4 308.1 306.8 299.4 292.8 297.6 302 307.5 311.8 318.1 323.2 323.6 328.1 337.1 342.9 354.8 361.9 364.5 367.5 375.5 383.2 393.3 403.7 427.6 434.7 428.2 419.4 407.4 417 425 432.9 440.4
163.4 164.3 166 166.8 168.1 167.4 164.8 165.2 165.8 166.1 166.8 166.5 166.1 165.6 159.5 166.8 167 167.3 168.8 168.1 168.7 168.6 169 170.4 169.8 167.9 169.1 170.4 166.5 158 153.7 153.4 157.4 164.8 174.9 179 179.9 185.3 187.1 176.1 189.7 192.4 197.4 204.8 211.4 217.5 219.8 218.3 226 237.7 248.6 259.8 265.9 261.2 262.6 266.8 273.2 274.4 273.3 274.2 277.1 273.6 271.1 271.9 272.8 272.7 271.9 264.4 257 253.2 242.6 230.8 223.8 221.1 213.5 203.6 203.3 206.3 202.4 207.2 213.7 216.9 215.7 216.8 219.4 222.4 227.1 231.1 237.2 242.4 246.5 250.9 255.7 259.6 261.7 268.3 276.3 282.8 289.1 290.5 290.1 291.8 295.5 303.5 315.1 329.2 337.1 342.7 349.1 355.1 360.7 366.6 373.5 379.1 380.6 380.3 378.8 376.6 373.3 370.5 369.7 373.6 376.1 380.2 386.3 390.3 391.8 389.7 387.2 380.1 368.9 356.2 349.6 358.6 362.4 359 352.2 360.6 365.9 370.8 375.6 382.4 391.8 410.2 419.1 426.2 430.5 433.1 437.6 445.9 454.1 461.3 469.9 474.5 464.3 452.9 440.6 423.9 412.3 405.3 399.2 393.9 387.9 381.4 374.5 365.1 353.7 339.3 324.7 314.7 304.3 292.7 292.4 298.6 305.8 310.7 314.1 324.6 330.4 331.4 334.7 339.3 346.4 358.3 367.5 372.5 376 384.5 390.7 400.7 412.5 439.5 442.7 436.5 428.8 420.5 412.9 426.1 434.3 442.3
164.9 165.5 163.3 166.3 167.5 167.8 166.3 164.3 164.9 165.8 164.6 165.8 166.1 164.5 166.9 166.8 167 167.6 169.9 170.2 169.1 169.5 169.9 171 171 170.2 172.3 173.1 171.4 166.2 159.3 154.1 153.9 159.9 171.8 176.3 179.1 182.7 180.5 180.4 190.3 196.9 200.8 207 210.5 212.1 215.3 219.8 230.4 241 250.8 261.3 268.3 263.2 268.2 278.9 279.7 280.3 279.6 281.6 283.5 279.6 274.6 271.9 274.8 272.4 271 270.5 269.4 260.5 247.3 232.4 224 217.1 205.2 208 212.1 211.3 204.8 205.7 207.5 208.2 209.7 216.4 220.3 221.2 226 231.5 238.2 245.2 251.8 255.8 258.5 263.1 265.5 270.8 278.4 284.7 290.7 286.4 283.6 284.3 287.8 296.9 314.3 328.5 336.2 342.7 348.6 355.5 361.3 367.2 372.4 377.7 377.2 376.2 375 372.5 370.7 368.1 364.8 369.3 372.9 377.1 382.9 385.7 387.5 385.9 383.2 375.1 366.3 351.8 348 359.2 362.8 356.4 351.2 356 362.8 366.8 371.9 377.1 390.4 404.2 414 421.5 426.2 430.6 438.4 448.2 455.6 467.9 488.8 486.7 464.9 450.8 440.7 424 409.7 401.1 395.8 391.1 385.4 379.1 371.8 363.3 354.2 345 333.9 320.1 306.2 288.5 291.6 300 306.3 312.1 317.5 327 332.6 336.4 338.6 345.3 349.6 360.4 372.2 378.9 382.4 389.8 396.4 407.5 421.2 448.9 448.6 443 436.5 429.4 425.2 422 435.6 445.1
166.6 167.9 165.5 167.7 167.9 167.4 165.4 163.6 165.5 164.5 165.3 165.5 165.6 157.9 169.3 165.9 165.8 167.6 170.3 170.9 169.5 169.6 170.7 171.5 172 174.6 174.9 173.8 173.5 171.6 167.4 155.4 153.7 157.9 173.2 174.5 175.4 178.1 171.1 186.7 190.7 198.4 202.6 210.1 216.2 218.3 215.7 221.2 231.2 246.7 255.6 263.8 270.9 264.9 273.5 280.9 281.8 281.9 284 285.4 284.4 281.8 275 275.8 281.6 283.6 284.2 281.9 278.1 267.5 251.5 235 224.7 212.4 207.6 217.1 214.2 212 210.9 207.5 216 216.7 213.5 213.8 219.7 222.1 223.5 229.2 237.1 246.5 253.9 259 260.8 264.5 263.5 263.8 271.7 278.5 281.9 278.2 270.7 275.7 286.3 295.4 309.9 325.9 335 342.6 348.8 355.4 362.4 368.7 373 377.3 377.5 374.6 372.9 372 371 369.6 366.3 362.6 368.2 375.1 379.8 382.6 383.6 383.2 380.1 372.3 356.9 344.6 349.6 361.6 359.7 346.3 358.1 366.7 368.4 376 381.9 388 401 409.2 408.2 416.6 425.2 431 440.2 447 455.1 475.6 497.7 487.2 462.6 447.8 436.9 425.5 407.5 399.2 392.1 387.5 382.2 375.9 369 361 352.2 343.3 332.6 321.7 308.8 288.7 291.1 298.9 306.2 311.8 318.8 328.7 334.2 338.3 344 348.5 358.9 365 378.2 384.4 388.1 395.8 402 413.2 429.1 455.2 454 449.1 442.6 436.9 432.2 425.5 436.9 446.8
167.4 168.6 168.4 169.8 169.1 166.9 165.6 164 165.3 164.8 165 164.9 165.5 155.4 168.4 165.6 166.4 168.8 171 170.8 170.1 170.6 171.4 172 172.3 175 175.8 174.4 173.6 171.1 167.5 156.5 153.2 159.2 166.5 168.1 168.4 168 172.2 180.6 188.3 195.8 202.7 209.5 215.8 220.9 219.7 222.6 235.1 252.1 259.3 265.5 270.5 268.5 273.6 275.2 283 285.3 286.4 288.4 281.8 277.5 276.4 284.9 292.3 296.6 296 289.6 272.4 254.1 244.4 229.2 221.7 209.9 214 219.5 218 215.8 212.8 208 216.9 217.7 218.8 214.5 211.5 221.2 222.6 225.8 231.7 236.5 243.1 257.6 255.6 252.4 251.5 255.1 257.5 261.6 264.3 262.3 274.2 281.2 287.9 296.5 310.2 326.2 334.5 343.9 349.4 356.4 363.6 369.6 373.6 376.8 378 376.2 373.9 373.2 373.8 373.6 368.5 358.2 363.7 370.8 375.7 379.2 381 381.9 379 368.3 350.2 336.7 340.3 343.1 344.2 357.2 363.3 370.3 375 379.9 385.5 393.9 404.9 419.5 421.8 424.6 427.4 434.1 439.1 445.6 455.5 474.4 498.9 483.1 458.4 442 431.4 420.7 403.9 396.3 389.4 382.5 377.7 371.7 365.1 358 350 341.1 332.8 323.8 312.9 286.2 289.9 301.4 305.6 310.5 325.1 333.6 337 341.6 347.4 356.8 371.5 377.9 383 390.2 394.6 400.1 407.9 418.3 436.5 459.3 458.7 454.7 448.7 441.9 437 424.2 438.4 447.5
168.2 169 169.3 170.6 169.7 169.3 167 164.2 164.4 163.6 163.7 164 165 157.6 164.3 164.7 166.4 168.9 170.4 169.8 170.4 171.3 172.1 172.4 172.8 174.5 177 176.1 174.6 169.5 167.1 157.5 154 159 159.3 159.8 162 165 167.6 170.8 184.1 190.5 203.3 211 215.8 220.7 220.5 221.6 234.8 254.2 261.2 266.2 268.9 271.6 273.2 286.9 285.1 286.4 289.6 291 281.1 280.7 288 296.1 302.4 303.2 297.1 288.2 277.3 260.5 240.9 227.9 217.8 211 220.8 220.1 221.1 219.2 215.6 216.5 213.1 220 223.5 222.2 217.9 214.6 218.5 222.5 225.8 238 239.5 242.4 246.9 252.3 253.1 250.3 250.6 252.3 256.4 266.2 270.3 281.5 290.2 299.1 311.8 327.7 337.6 346.1 351.6 358.8 365.2 370.7 374.4 377 377.8 377.1 375.3 375.2 377.5 375.3 369.6 359.2 353.7 364.1 369.5 374.5 377.1 377.8 372.8 353.6 341.1 333.5 341.9 358.2 369.4 369 369.4 373.6 379.7 383.8 391.2 402.7 414.9 423.4 426.5 427.5 429.6 433.8 438.3 444.1 451.6 471 492.9 478.7 454.5 437.3 425.4 415.4 400 391.5 385.1 378.2 371.7 366.8 360.4 353.4 346.3 337.6 330.3 322.7 314.5 291.9 291.5 301.6 306 311.5 327 336.4 340.2 345.2 352.1 360.9 379.3 384.2 389.1 394.8 399.1 407.1 412.9 423 439.1 461 461.8 458.9 453.5 446.8 441.8 433.8 442 446.7
168.3 168.5 169 169.4 168.1 170.8 168.1 164.1 162.6 162.7 162.8 162.8 163.6 164.8 164.3 165.1 166.4 168.5 169.4 169.1 170.4 171.2 172.2 172.9 173.3 174.8 177.1 177.2 175.4 174.6 171.7 156 154.8 158.3 159.6 161.4 163.8 166 169.4 173 177.3 191.4 206.7 212.6 214.2 216.5 221.1 221.8 229.4 252.1 261.1 264.7 264.4 269.7 281.2 285.3 285.8 289 292.3 282.2 284 284.9 299.3 303.9 307.1 307.7 305 298.2 285.5 245.9 235.6 234.2 228.5 213.8 224.8 223.4 223.2 222.4 220.1 219.7 216 214 223.5 224.9 222.5 218.9 218.6 224.8 229.6 231.2 241.9 249.5 252.7 246.2 245.9 245.7 250 255.4 264.3 273 279.9 278.6 289.8 300 312.3 329.5 341.7 349.8 354.7 361.4 366.9 372.4 375.7 377.7 377.8 376.9 375.3 375.6 376 373.6 369.2 358.8 348.1 357.2 364.1 369.3 371.7 371.3 360.4 343.6 329.5 337.3 346.7 361.4 372.6 377.9 376.3 379.4 383.8 389.5 398.5 410.3 418.5 422.3 424.3 426.1 428.3 431.2 436 442 447.1 461.9 470.8 469.6 449.6 433 418.4 408.7 397.4 385.2 379.2 372.3 367.5 360.6 355.6 348.8 340.9 333.6 326.5 320.3 309.9 290.8 291.1 302.1 306.8 313.7 325.4 336 342.4 349.1 355 366.5 381.9 391.3 394.6 404 405 412.5 418.7 426.7 440.7 460.9 463.6 461.4 457.5 451.4 445.4 436.8 444.2 448.3
167.7 167.4 166.7 167.2 165.7 169.5 168.7 165.2 161.7 161.9 162.1 162.1 157.4 164.7 163.9 164.7 166.2 167.9 168.4 168.6 169.8 171.3 172.2 173.1 173.6 174.9 176.1 177.4 176.9 174.9 171.1 154.1 153.7 154.9 159.8 172.1 176.8 172.5 175.8 180.1 180.8 188.3 202.5 204.2 212.9 222 223.7 222.8 230.8 246 256.7 260.6 262 270.8 280 285 285.6 288 292.3 274.2 287.9 286.6 301.5 310.2 310.9 312.6 312.5 304.4 285.4 261.5 240.3 233.1 218.9 217 227.7 226.3 227 225.8 224.5 222.4 224.2 213.9 219.9 224.9 225.7 222.4 218.4 223.3 228 234.6 237 239.4 240.5 243.6 245.1 250.1 251.8 260.2 269.6 277.7 284 285.7 291.2 299.9 312.4 329.9 345.7 353.4 357.8 363.7 368.6 374.1 377 377.9 377.8 376.6 374.4 373.2 372.9 370.6 364.5 352.8 343.2 354.4 359.9 363.6 365.7 361.2 346.1 331.2 327.2 337.3 350.9 363.6 370.7 380.1 388.7 392 390.1 398.5 408 412.5 415.5 417.7 419 421.8 424.8 427.4 432 436.7 441.2 449.8 457.7 457.2 442 426.6 411.9 399.9 389.3 381.7 373.8 367.2 361.6 355.4 349.4 343.2 336.4 329.2 322.1 311.1 295.3 284.2 298.3 305.3 309.7 317.1 324.7 335.3 342.9 350 356.1 372.4 391.8 396.7 402.3 414.1 408 417.8 423 429.6 439.7 461.3 465.1 463.4 460.4 455.7 449.3 445.6 445.2 449.5
167.7 167.7 166.8 164.2 164.1 167.5 167.8 163.1 161 160.8 161 161.9 153.6 163 163.2 164.6 165.8 167.3 167.6 168.4 169.8 170.5 171.9 173.1 173.7 175.4 176.3 177.4 177.6 175.2 168.3 157.9 151.9 152.3 159.4 166.7 178.1 176 177.4 185.9 182.5 183.5 186.9 197.6 217.8 225.9 222.5 222.9 230.3 242.7 255 258.6 259.3 268.2 280.7 284 284.9 286 284.2 273.4 280.6 291.2 301.2 313.2 317 320.4 304.1 289.5 277.8 264.2 247.3 231.7 216.9 226.8 230.2 229 228.1 230 227.8 226.1 226.1 224.1 216.9 225.9 227.3 226.3 221.2 224.6 228.3 232.4 238.7 242 242.3 243.2 246 250.3 252.7 256.3 266.5 274.3 281.6 286 291.3 299.2 310.4 327.7 348.3 356.2 360.4 365.9 370.2 375.4 378.4 378.6 377.8 375.9 373.6 372 368.2 366.4 359.2 347.4 340.5 351.6 357 358.6 357.4 345.5 330.9 324.5 341.4 339.6 340.7 354.2 367.5 378.8 386.5 386.3 389.6 397.8 403.1 406.7 410.2 411.8 413.7 416.6 420.1 421.8 424.6 429.4 434.1 438.9 442.5 439.3 428.2 412.4 405.3 396.4 386.6 374.9 369.8 360.3 355.6 350.5 345 338.2 331.3 324.4 311.7 294 282.8 294.1 302.9 308.2 314.5 320 326.3 334.7 344.9 352.9 359.2 377.7 395 400.2 406 418.8 421.2 422.1 427.1 432.6 439.3 458.4 465.6 465.1 462.9 459.1 453 448.8 446.3 449.1
166.8 165.9 165.2 163.4 162.7 166.2 165.6 162.4 160.1 159.8 159.2 161.7 156.3 162.1 163 164 165 166.3 166.7 167.5 169.2 170.6 171.5 172.8 173.9 175.1 176.3 177.5 178 178.2 175.9 171.5 156.3 151 150.8 158 168.2 175.6 182.2 195.1 188.8 196.9 186.4 189.9 209.6 212.4 211.5 219.1 232.2 242.5 251.4 256 255.5 263.2 277.6 281.9 282.5 282.7 286.9 286.7 285.1 291.2 301.9 317.4 324.2 319.5 302.9 286.3 270.8 258.1 245.8 230.3 218.6 225 230.7 230.1 230.3 233.7 232.1 230.1 231.2 228.2 227.5 222.5 227.1 228.2 226.5 225.1 232.3 233.9 233.4 237.9 241.1 243.6 244 246.2 249.7 252.8 259.3 266 274.6 283.6 290.9 297.2 307.9 324.8 349.1 357.1 362.5 367 372 376.7 379.7 379.3 378.2 376.4 373.6 371.3 368.1 363.7 356.7 348.8 336.6 346.5 352.1 353 350.2 333 323.3 331 348.8 347.4 342.9 350.7 362.2 373 379.1 380.6 386.2 392.4 398.4 403 405.4 406.5 407.1 409.8 413.3 415.6 416.8 422.1 427 430.3 431 428.5 417.3 402.3 396.4 389.2 383.7 377.3 368.9 360 351.8 342 339.1 333.2 326.8 314.5 295.7 281.9 291 302.8 307.1 311.2 317 322.6 327.8 336.3 347.7 355.9 362.7 381.6 397.2 404.1 409.1 422.9 428.5 429.1 430.3 434.8 439.5 449.6 463.7 464.7 463.2 460.6 455.2 450.6 448.1 447.9
165.6 164.2 161.4 160.2 161.9 163.9 162.3 159.6 158.7 158.9 159 159.9 160.6 161.7 162.1 162.9 163.9 164.9 165.3 167.1 167.7 169.8 171.2 172.6 173.5 174.2 175.4 177.5 178.5 181.6 180.2 177.6 171.7 155.1 150.1 152.2 165.9 175.7 189.5 199.4 196.2 209.6 214 204.8 197.4 196.3 203.6 217.7 229.7 239.6 243.9 248.6 252.5 259 269.3 276.4 279.7 280.4 281.4 278.4 288.4 291.9 317.2 327.2 324.7 309.9 300.6 291.3 277.9 261 245.3 228.7 220.3 230.2 229.6 228.2 233.5 237.1 236.4 234.9 234.6 233.5 231.1 223.3 228.8 232 229.6 223.9 231.7 238 240.7 246.3 250.2 249.5 248 249 250.3 252.1 257.1 262.1 267.3 278.2 287.6 296.3 305.7 319.8 348 359.6 364.2 368.6 373.7 377.9 381.1 380.5 379 377.2 374.2 372.2 368.9 365.8 362 354.8 338.8 335.3 344.8 347.5 344.2 323.6 319.7 342.8 347.5 348.9 349.5 343.2 354.5 365.3 370.8 377.7 385.3 393.8 399.5 401.7 401.6 401.1 402.1 403.4 407 411 414.3 417.6 422.2 423.2 423.4 419.9 412.5 401 387.6 384.1 379.2 373.7 367.8 361.2 352.6 343.1 332.3 326.2 319.8 305.6 279.2 288.8 300.5 305.3 308.7 314.6 320.2 324.5 329.9 340 350.5 358.2 365.7 383.6 399.6 406.4 412.5 426.5 432 432.1 433.4 436.6 440.4 445.8 461.1 464 463.1 461.3 456.7 451.6 448.2 446.5
164.2 161.6 160.1 158.6 159.4 161.2 159.1 157.1 157.5 159.3 158.8 156.9 159.7 160.4 160.7 161.8 163.1 163.8 164.8 166.3 167 169.4 170.7 171.3 171.9 172 174.1 176.7 178.9 180.8 180.3 176.8 172 160.5 149.9 151.1 167 182.9 199.3 198.8 199.5 211.8 220.8 223.8 220 215.5 205.1 201.5 215.4 231.1 237.4 245 249.4 253.7 261.1 269.9 277.4 278.7 277.8 276.2 290.9 310.7 324.7 332.6 324.9 300.6 288.4 280 277 265.5 250.3 233.1 224.6 232.6 236.7 237.1 238.5 241.1 240.9 239.6 239.6 236.7 237.1 229.9 229.4 234.1 233.1 224.8 231.5 238.6 245 250.5 251.4 252.4 251.1 252.5 253.9 254.9 262.9 271.6 277.8 285.1 292.5 298.4 307.2 319.7 344.6 359.6 366.5 371.1 375.3 379.5 382.6 381.7 380.2 378.3 376.3 374.7 372.8 369.3 363.8 356.6 342.3 326.1 332.7 340.6 334.1 316.5 340.4 344.6 346.5 350 355.4 351 349.9 352.8 363.9 374.9 385 393.6 399.4 398.1 396.4 395.9 395 401.2 408.9 416.8 425.8 430.1 426.4 417.9 416.1 413.8 408 394.6 382.2 375.6 372.7 368.2 362.5 357 351.1 343.4 332.9 320.5 309.2 290.8 282.3 295.6 302.3 306.3 309.9 317.6 321.4 326.8 333.6 343 352 360.6 368.4 386.7 401.2 408.5 414.7 427.5 434.3 435 435.2 437.3 439.5 442.8 459.5 464 463.4 461.3 457.1 451.9 447.8 444.6
161.7 159.1 156.9 154.3 156.8 157.9 156.4 156.5 156.1 157.2 157.9 152.5 158.8 159.5 161 161.8 163 163.6 165.2 165.5 166.2 168.3 169.9 169.6 168.7 170.5 173.5 176.4 178.8 180.8 178.8 172.9 170.7 156.4 148.9 157.8 169.4 194.1 205.1 199.9 202.6 214.5 233.2 241.1 237 232 228.3 221 210.7 215.3 234.5 244.3 248.2 251.2 256.4 266.7 273.7 275.6 273.4 276.9 283.5 307.1 323.7 334 321.1 301.8 284.4 271.8 261.2 260.7 250.8 227.3 227 235 240.9 240.5 244.6 246 245.7 244 243.1 241.4 240.3 234.5 227.7 236.5 235.3 232.8 226 238.1 243.5 247.8 246.6 245.1 248.7 251.2 253.1 253.9 257.6 268 277.5 288.4 294 299.7 308.7 320.6 343.9 362.3 369 372.5 376.8 381.3 384.6 383.1 381.2 379 378 376.8 375.4 372.4 365.7 355.8 346.2 336.1 319.5 326.1 319.9 326 336.5 341.2 346.4 351.9 359.6 359.5 356.6 356.8 355.8 366.4 377.7 387.7 393.7 392.1 390.1 393.4 398.6 407.8 416.6 426 431.7 436.4 430.7 419.2 409.6 406.8 402 390 376.9 370 365.9 360 357.4 352.4 346.9 340.7 332.2 323.2 302.8 279.4 285 297.9 302.7 306.6 311.7 318.2 322.8 329.3 337.3 344.5 353.7 361.9 371.6 390.6 401.6 408.2 415.3 427.4 434.9 436.2 436 436.4 437.8 441.1 451.1 462.7 464.4 461.3 457.5 451.7 447.3 444.1
160.7 158.7 155.7 152.4 153.6 154.6 154.7 154.6 155.4 155.9 156.8 154.9 158.3 159.2 159.6 160.9 162.6 163.9 164.8 164.9 165.2 167.2 168.9 168 163.6 170.8 174.2 176.2 177.6 177.8 173.8 164.2 156.8 150 152.4 161.1 179.8 199.1 204.8 202.3 206 216.9 234.7 250 250.9 245.9 239.3 229.3 232.2 215.9 234.2 239.9 246.2 250.1 252.9 265.7 271.7 266.7 267.4 272.1 282.1 304.5 321.8 328.6 317.7 299 282.9 272.7 257.3 250.3 243.4 225.2 230.2 237.9 243.6 245.2 247.8 250.8 251.3 248.1 246.6 245.9 245.2 242.8 227.5 238.8 237.7 233.8 228.7 234.2 239.8 240 242.8 244.8 246.2 247.2 250.4 252 257.1 261.4 269.3 281.3 292.1 301.7 310.1 320.2 341.7 366.2 370.6 374.2 378.9 383.2 385.7 383.9 381.2 378.4 377.4 376.2 374.6 371.4 364.9 357.5 352.2 345 334.4 316 311 330.6 340 343.8 347.2 353.8 363.5 366.3 364.8 363.1 364.1 360.4 365.6 373.3 380.7 380.1 390 397.8 405.2 410 416.7 426.3 433.5 433.9 426.1 415.6 402.9 398.8 394.7 384.4 376.3 364.7 361.4 353 351.8 347.7 342.6 337.3 328.9 317.8 297.3 273.7 289.6 298.6 302.8 306.5 312 317.7 323.3 331 339 345.9 355 365.4 374.6 392.3 400.1 404.8 411.5 426.4 433.7 435.2 433.7 434 435 437.6 442.9 461.3 464.2 461.4 457.4 453.4 447.6 443.7
158.2 158 154.6 151.6 153 153.5 153.6 153.1 154.3 154.7 155.6 156.5 157.3 158.6 158.6 159.2 162.1 163.9 164.3 162.9 163.3 166.1 167.2 165.2 163.1 168.9 173.2 174.1 172.6 170.1 161.7 151.4 147.8 149.2 158 175 190.1 198.4 205.9 204.3 208.4 217.5 233.2 247.7 254.6 252.6 247.7 247.2 241.2 223.7 219.4 226.3 242.4 241.9 252.1 259 268.2 264.6 274 277.2 288.9 303.3 320.5 328.4 318.9 300.1 283.8 268 261.8 256.1 247.1 227.6 232.4 240.9 248.6 251.5 254.1 255.6 256.3 253.2 250.1 249.7 249.9 247.8 236.5 235.9 240.7 237.8 233 233.3 236.7 241.1 245.2 249.9 251.3 254 256.4 258.3 261.8 267.1 267.4 280.1 290.8 302 312.2 321.7 338.1 365.4 370.9 374.9 380.1 384.3 385.7 382.2 379 376.4 375 373.4 368.7 363.7 359.7 357.9 355.4 347.9 327.4 312.5 308 332 341.9 345.4 348.2 354.6 363.1 369.8 373.3 372.8 371.5 372.1 370.6 377.9 384.5 389.4 395 402.1 408.8 415.8 422.6 429.7 431 427.3 417.6 408.1 395.1 389 386.9 378.8 371.8 362.3 353.6 346.5 345.7 343 338.3 334.2 327.9 317 290 276.9 292 298.3 302.7 306.9 312.8 318.2 324 331.1 339.3 346.1 355.5 369.6 377.5 391.3 396.1 400.7 408.4 423.9 430.3 432.4 430.5 431 431.5 434 438.5 449.7 461.3 461.7 458.4 454.4 449.1 444.9
157.7 157.5 152.8 150.2 152.2 152 152.1 152.3 153.9 154.8 154.9 156 156.8 157.5 157.6 156.8 159.8 161.1 160.6 160.9 162.2 165.1 166.1 162.6 158.2 165.7 169.6 166.1 163.2 155.4 148.1 146.5 147.6 157.6 176.7 190.7 196.2 203.9 210.9 206.8 210.6 220.1 231.2 241.3 252.8 253.7 251.1 250.1 241.3 239.8 240.9 232.8 233 244.4 253.1 262.2 270.8 264.5 276.8 295.6 306.1 313.6 321.2 329.9 325.8 304.8 291.6 279.5 283.1 277.3 257.5 233.6 230.8 242.4 251 256 259.1 260.9 260.9 258.3 257.2 258.2 258.4 254.8 249.2 233.9 243.6 240 236.2 236.5 238 242.8 248.1 255.1 258.9 262 265.1 265.9 276.4 285.1 278.5 276.7 288.7 302.9 312.9 321.8 333.3 363.4 372.3 376.1 380.2 383.9 384 379.8 375.2 372.5 370.7 369 362.4 357.7 354.3 355.7 356.2 339.2 321.1 304.4 316.6 332.6 345.7 349 349.9 354.8 360.4 369.7 374.9 379.9 379.6 378.5 379.7 378.4 385.6 392.3 396 403.9 413.7 424.9 430.9 431.6 426 416.1 409.2 402.3 389.7 381.3 380.7 375.3 365.6 356.8 347.8 339 338.4 338 333.7 330.2 325.4 315.5 286.1 280.3 291.7 297.3 302 307.9 313.9 317.8 323.6 332.7 340 348.6 363.8 373.4 379.6 389.1 392.8 396.9 404 420.4 426.3 428.2 426.3 426.8 428.2 430 434.5 440.1 455.5 460.6 457.9 454.1 450.4 446.6
155.6 155.4 151 150.9 150.5 149.4 150.8 150.6 151.1 154 150.6 156.8 156.6 156.7 156.5 152.8 156.8 156.9 160.4 162.4 163.5 164.3 165.2 163.3 154.6 158 159.6 154.6 148.6 145.1 145.7 148.5 158.1 167.9 180.7 193.2 202.7 213 216.9 209.2 214.1 224.8 236.9 247.8 252.8 255.2 254.7 252.9 246.3 249.2 249.7 244.2 231.3 240.4 254.2 262.3 270.6 263.2 274.2 295.2 304 312.8 320.4 329.4 335.5 321.5 306.1 300.6 295.4 277.9 259.8 243.6 229 239.5 249.8 256.2 261.5 264.6 264.6 264.6 264.7 266.3 266.4 262.6 247.9 238.4 246.9 242.9 239 241.1 240.1 241.6 249.8 259.6 265.3 268.5 272.5 274 284.5 294 297 298.4 290.6 301.8 314.4 322.7 333.2 358.4 373.9 375.5 379.2 382.8 382.3 377.6 372.6 368.1 362.8 360.6 356.4 351.7 347.3 347.9 349.7 329.3 316.5 304.7 317.6 333 346.4 350.2 351.9 353.6 358.2 367.2 373.2 379.2 383.8 385.6 385.5 386.9 386.7 390.1 396 404.3 414.1 419.2 421.3 423.7 418.2 408.4 400.5 396.1 386.1 375.9 374.6 371 363.9 352.5 341.5 334 330.2 331.7 328.3 325.3 320.6 307.3 278.9 283.7 291.7 297.2 300.8 306.9 312.5 317.5 323.4 332.5 339.1 350 373.4 374.4 378.4 384.8 388.4 391.5 398.9 414.3 422.8 423.4 423 423.4 424.8 427 430.3 435.1 440.4 447.5 456.8 455 452 448.5
155.4 152.8 149.1 149.1 148.7 146.7 148.3 150.8 152.8 154.6 153.2 155.6 156 155.5 153.1 153.5 153.5 156.7 159.5 161.4 161.1 162 163.5 162.3 154.7 148.6 147.8 145.3 144.5 145.3 149.3 158.9 170.7 175.3 182.6 197.3 209.7 220.8 222.6 211.4 216.9 227.6 243.5 251.5 253.4 254.4 254.6 253.5 253.2 253.4 253.9 253.6 236.9 242.3 256.2 263.5 266 264.9 280.1 291.8 301.6 309.8 317.1 329.3 339.1 328.9 311.6 301.7 293.7 278.1 262.4 254 242 232 239.4 251.3 258.9 263.9 265.2 265.8 269 271.2 272.5 269.3 254.7 237.3 249.9 246.3 243.3 243.7 243.9 243.2 249.1 259.7 267.3 273.2 278.1 280.4 290.8 299.7 303.7 309.1 306.3 302 313.9 324 333 354.3 373.6 374.7 377.8 380 380.1 375.3 370.1 364 358.1 352.9 347.6 345 340.9 337.6 335.4 324.3 312.4 302.8 315.2 330.8 344.8 348.4 350.1 351.9 355 363.4 370.2 376.6 383.1 389.2 392.4 393.3 393.5 391.9 391.3 399.4 405.5 409.6 412.5 414.5 413.2 402.6 393 389.8 382.5 373.2 366.1 365.5 360.1 349 338.6 328.8 318.6 323.3 321.4 318.9 314.6 294.2 271.1 284.4 291.7 296.4 299.8 304.7 309.7 314.5 321.6 330 339.1 350.1 370.3 373 376 379.5 383.7 386.6 393.4 409.5 418.8 419.7 418.6 420.2 421.8 424.1 426.7 431.6 436.5 441.2 445.6 453.7 452.9 450.4
150.4 145.8 147.3 147 145.1 148.5 150 151.3 152.6 154.8 155.6 154.4 154.5 152.9 146.6 149.1 152 154.4 154.7 156.3 157.2 157.1 157.4 155.5 147.9 144.4 143.2 144 146.8 152.8 162.4 175.5 180 180 186.4 200.5 213.1 221.9 222.4 214.8 219.6 230.2 243 249.7 251.2 253.4 254.6 254.8 254.9 255.2 255.4 253.7 239 241.5 245.4 249.6 255.3 263.4 274 291.4 300.3 307.4 315.4 326 331.4 324.9 317.4 314 303.5 285.5 271.7 264.3 256.7 246.6 239.2 234.9 249.8 257.6 261 263.3 268.8 273.8 276.1 274.8 259.7 240.1 250.3 249.5 247.3 246.1 247.1 249.2 248.7 257.2 265.2 273.7 281.4 286.5 295.2 305 310.5 317.1 315.1 308.4 315.9 325.7 334.8 353.3 373.6 373.9 376.1 377.3 377.9 373.1 368 360.8 355.4 350 344.9 340.2 337 332.8 327.8 321.3 309.8 298.9 313.4 324.5 340.7 345.5 347.5 349.4 352.9 358.3 367.2 372.4 378.9 387.4 394 398.7 399.3 399.2 393 388.1 398.3 399.6 404 407.7 405 397.4 390.7 379.3 376.9 370.5 362.2 359.8 355.7 348 335.1 325.3 316 313.8 313 311.5 306.9 283.3 273.2 286.2 291 293.2 296.3 301.8 309 314 321.6 329.3 337.3 347.6 370.2 368.3 371.6 374.5 379 381.7 388.7 404.5 415 416.2 415.4 416.4 418.5 421.1 424.1 427.6 432.9 437.4 441.8 450.6 452.6 451.5
144.9 146 145.8 145 146.3 147.9 148.9 150.9 152.5 153.6 153.9 152.8 151.8 148.7 149.1 153.9 152 146.3 149.1 149.3 150.9 149.3 146.3 142.4 142.3 142.9 144.5 152.1 158.1 170.6 176.3 179.6 180.9 182.4 187.9 201.9 212.1 218.9 213.6 212.2 220.1 233 242.6 247.4 252.5 254.6 256.6 257.4 259.1 259.2 258 253.4 242.3 252.2 258.4 265 266.4 266.4 276.4 286 295 306.2 313 322.8 327.8 326.1 326.9 323.3 310.5 292.2 281.3 275.3 269.4 257.7 246.9 242.3 239.5 249.2 256.4 261.9 270.2 275.7 278.9 276.3 253.1 244.5 254.1 252.9 251 249.5 251.5 256.2 256.9 253.1 261.5 272.7 283.4 288.6 296.4 307.6 313.9 323.1 321.2 315.5 320.5 329.4 337.3 352.7 371.4 373.3 374.1 374.8 374.2 371 365 359.1 353.9 348.2 343.3 338.7 332.5 325.8 321.4 316.2 311.4 297.7 309 318.8 335 342.2 344.8 347.3 351 354.9 362.6 370.1 375.7 383.2 391.5 398.7 402.2 401.4 394.7 378.2 385.9 388.8 398.4 402 398.8 391.9 386.7 381.2 374 364 360.7 353.2 349.2 343.5 333.1 322.9 311.8 298.4 306.9 304.5 299.1 275.4 275.4 285 288.5 290.9 292.5 297 306.6 311.5 318.9 326 332.3 341.5 364.7 363.7 366 370.5 374.6 377.3 384.4 400.8 411.9 413 411.4 413.6 415.7 418.4 421.4 425.1 430.1 434.5 438.8 442.8 449.3 450.2
142.2 144.8 145.2 144.8 145.3 145.8 145.9 147.2 148.7 149.4 151.7 149.6 147.7 146.9 143.8 147.5 144.5 142.2 141.1 141.9 142.1 141.1 141.8 142.5 145 152.5 157.7 168 177 178.3 179.2 181.3 182.1 184.3 191.3 202.1 210.1 209.9 206.2 216.4 224.3 233.3 242.9 246.6 255.3 259.6 262.5 264 265.5 266.2 263.9 255.7 245.6 255.1 267.2 274.8 270.1 273 277.9 284.6 293.3 301.2 309.5 319.2 327 330.6 333.4 328.6 317.6 298.9 287.6 282.9 273.3 260.2 257.9 254 241.3 242.9 249.4 261.1 270 277.2 279.9 276.3 250.9 246.4 255 257.1 256.3 255.2 256.4 264.3 267.8 264.9 260.9 267.1 278.6 285.7 294.6 306 315.3 324.4 326.1 321.5 327.8 334.4 341.9 353.8 371.8 372.8 372.2 372.4 372.2 368.6 365.5 358.2 353 347.8 343.9 339.4 334.1 327.9 318.3 312.8 305.5 297 302.8 313.6 329.4 337.6 342 345.5 348.4 352.6 358 367.1 373.7 380.1 387.4 394 398.7 397.2 390.3 373.9 374.5 378.3 386.7 390.8 390.8 386.3 379.8 373.7 367.7 360.3 358.6 354.8 346.6 335.1 330.3 320.6 311.2 297.7 297.3 299 291.6 269.6 275 279.3 282.2 285.6 288 294.6 299.2 303.4 310.9 321.1 326.4 331.9 346.5 356.6 359.6 365.7 369.7 373.8 380.8 394.8 407.6 410.2 408.2 411.4 412.4 415.5 419.2 423.3 428.1 432 437 439.2 442.1 447.9
141.1 143.5 143.8 141.6 140.9 141.8 142.5 144.7 147.7 149.5 148.8 145.5 142.9 142.5 139.6 141 138.3 138.9 139.4 140.4 141.7 142.7 146.4 153.5 157.6 165.5 173.5 176.2 177.8 178.1 179 181.9 183.1 185.2 193.5 212.9 205.3 203.1 213.8 223.9 236.2 243.9 248 254.1 260.8 263.7 267.2 269.7 270.4 270.6 265.7 260.6 246.6 256.2 267.3 272.6 268.1 273 277.6 283.9 292 300.7 308.3 316.6 325.9 332.4 336.7 332.5 322.6 306.2 292.2 277.3 265.5 267.7 266.6 262.3 251.7 243.2 245.8 255.5 266.8 273.6 277.4 276.2 261.1 247.6 252.8 260.9 261.7 260.6 262.2 270.1 276.3 276.9 275.5 271.5 269.1 284 294 305.4 315.1 323.6 329.2 329 334 340.4 347.5 356.9 373.5 373.5 371.1 370.9 369.9 367 361.9 357.2 352.3 347.9 344.4 340.7 335.8 331.3 326 322 316.1 305.8 295.6 309.7 323 333.4 340.2 343.6 346.6 350.3 355.5 363.8 370.7 377.1 383.8 389.1 394.5 392.1 384.3 366.3 365.3 368.8 375.5 379.3 379.7 378.9 371.8 365 359.9 353.2 351.3 352.6 346.3 336.7 322.1 316.2 309.6 297.8 284.6 290.8 285.1 266.7 276.4 281.2 287.2 289 293.6 297.1 302.5 307.9 313.7 319.3 326.5 333.7 339 344.2 353.4 361.1 366.6 372.2 378.8 389.5 403.1 406.4 405.1 407.7 410.5 414 418.6 422.6 426.8 430.5 434.2 436.1 438.1 444.3
139.1 140.3 139.1 137.9 138.5 141.1 143.3 144.2 146.4 147.6 146.6 142.5 138.6 137.9 138.6 138 138.9 140.7 142.8 143.2 143.3 145.7 153.7 157.6 164.5 170.1 176.2 176.8 176.6 176.2 178.3 182.6 182.5 186.1 197.4 201.8 197.7 216.2 229.7 232 243.6 251.4 260.2 265.6 266.8 269.9 272.1 273.8 274.8 275.1 268.2 264.5 255.7 255.8 267.2 268.2 265.8 272.3 281.1 287.1 292.8 300.3 308.5 317.4 328.3 335 336.9 331.9 320.4 298.5 299.8 293.2 283.6 278.2 277.6 270.5 257.7 252 244.5 250 261.1 269.9 273.7 274 271.8 247.7 252.8 263.3 268.2 266.2 266.9 274.6 281.4 285.8 285.4 281.3 277.1 279.9 293.6 304.9 314.5 324 334.1 335.4 340.8 345.8 352.4 360.7 374.4 374.1 370.3 369.6 368.4 365.5 360.8 355.9 351.6 348.1 344.3 341.1 337 332.4 327.1 322.4 316.9 306.5 291 304.9 320.7 331 336.7 341.9 345.2 348.3 352.9 359.3 367 373.1 379.3 385.1 390.1 390.4 379.4 362.3 357.3 359 362 365.5 368.8 369.2 363.8 358.5 353.8 348.4 344.7 346.6 341.8 334.9 323.3 309.5 303.4 295.2 283.7 282.6 278.4 265.9 278.8 283.9 287.1 291 295.3 300.2 305.1 310.1 316.7 322.8 330.9 344 351.8 352.7 356.9 356.1 364.5 370.2 377.3 385.4 398.2 401.7 402.3 405.7 408.3 411.6 417.5 422.9 425.9 427.6 429.6 432.3 435.4 441.9
135.9 135.5 135.7 137.2 139.7 141.8 143.1 143.8 145.1 144.8 143.1 137.8 136.6 138.8 138.9 139.8 142.7 146 150.2 150.4 148.3 145.4 156.7 160.4 167 172.3 174.8 174.8 174.4 174.7 177.6 181.2 181.5 185.6 194.7 194.4 207.6 229.5 243.8 234.9 247.9 257.4 265.9 273.4 275 278.8 280.1 280.8 281.8 281.7 273.2 268.1 260.2 259.2 264.5 263.4 267.4 276.7 286.3 293.1 297.6 305.6 314.2 323.9 336.7 339.4 337.2 329 313.1 314.4 312.8 303.2 293.7 289.9 285.8 275.1 262.1 256.6 252 247.3 256.2 264.8 269.8 270.5 262.9 250 255.5 266.2 274.3 271.9 272.9 277.4 284.7 289.7 292.8 289.6 287.9 291.1 293 304 316.9 325.6 337 340.7 345.4 351.3 357.4 364.9 375.8 374.1 370.5 368.8 367.3 365.2 360.1 355 350 346.3 342.3 338.8 335.5 332.3 327.9 323.1 315.5 306.2 289.8 302.6 317.6 326.7 334 340.6 344.7 348 351.8 356.6 362.3 368.8 374.5 381.7 387.3 388.7 375.6 360.3 347.3 348.3 351.5 355.8 359.1 358.3 354.9 352.4 348.1 343.5 336.8 340 336.1 330.3 323.5 313 297.8 288.3 281 271.9 269.8 267.4 279.4 284.2 287.8 292.6 296.8 301.7 306.6 311.7 318.9 327.3 341.1 363.8 365 361.4 362.8 365.2 361.2 369.3 375.2 383.2 391 395.8 400.7 402 405.6 408.9 412.8 418.1 422.3 423.7 425.8 427.6 432 442.4
134 133.6 135.9 137.9 139.5 139.7 142.2 142.9 148.5 141.6 138.6 136.3 139.2 141.3 142.7 143.6 145.4 149.7 153 154.7 154.5 151.8 155.1 157.1 167.3 171.8 173.7 174 174.6 176.4 176.5 177.5 180.5 188.9 208.4 196.9 206.4 222.9 234.6 239.1 257.5 265.8 273.4 281.3 284.1 288.2 288.4 290.1 292.1 292.9 279 275.1 263.9 257.8 259.9 263.7 275 286.2 295.7 303.2 309.4 318.1 327.5 338 344.5 344.1 337.4 328.6 317.6 323.4 320.9 312.7 304.1 299.8 291.7 280.1 267.3 261.2 256.3 250.7 250.1 257.4 264.6 263.7 255.3 254.4 260 270.1 274.9 274.9 276.3 277.3 283.1 288.6 293.8 294.8 295 298.1 299 307.1 319.2 327.6 338.5 343.1 348.5 354.3 360 367.2 377.1 374.3 370.2 368.5 366.8 364.8 359.7 354.8 347.8 341.8 336.6 332.2 329.3 327.7 324.3 319.9 313.7 304.3 282.8 298.5 306.3 326.2 335.5 341 345 348.4 351 354.6 360.4 365.8 371.6 376.8 381.9 384.2 368.3 356.4 341.9 340.2 342.1 347.3 349.2 347.7 346.2 345.9 342.5 337.7 330 332.7 329.1 323.6 318.5 312.5 300.3 284.2 272.8 267.9 261.9 270.9 279.7 284.4 288.9 294.5 299.8 304.6 309.5 316 323 334.7 359.2 371.1 369.9 366.6 364.4 368.5 370.3 367.5 376.3 381.8 386.6 392.3 395.9 400.3 402.1 405.2 410.6 414.5 417 418.1 421 424.9 428.9 439.4
132.1 133 134.8 136 137.3 139.9 141.2 141.9 147 140.7 137 136 140.6 144.6 145.8 147.8 146.4 151.3 154.5 156.9 158.6 158.1 149.6 156 165.9 169.9 171.6 174.1 177.8 182 177.6 172.6 181.1 194.5 207.7 208.7 205.1 212.2 221.8 238.4 257.2 276.1 284.1 290.7 295.5 298.3 297.8 298.5 299.2 303.3 294.1 281.8 269.7 261.4 262.7 270.5 285 296.7 304.4 309.6 315.6 323.5 334.2 345.6 350.9 348.2 342.6 332.5 331.8 330.7 327.8 322.2 315.4 306.9 296.2 283.3 272.5 264.1 261.6 258.8 251.1 253.8 261.4 262 256.5 253.8 265.5 268.7 273.1 273.7 276 279.8 282.5 286.5 290.9 296.1 296.9 302.2 305.4 311.3 322.4 330.5 339.8 345.2 350.9 357.1 362.8 368.6 376.5 374.8 370.7 368.9 367.3 365.4 360.7 356.2 351.8 347 340.4 334.2 325.3 319.2 319.5 315.8 310.4 303.7 287.8 293.2 300.2 315.3 330.3 337.7 343.6 347.1 350.4 353 357.3 362.9 368.5 371.7 375.8 372.5 356.5 346.3 334.2 331.2 333.1 336.8 337.7 337.8 337.4 337.8 335.3 331.3 325.2 324 320.9 315.5 310.5 305.3 297 282.4 270 259.8 263.8 274.9 280.5 284.7 291.5 298.3 302.9 307.1 313.9 320.5 329.2 350.9 372.7 373.8 372.1 369.4 366.5 370.9 373.6 376.2 377.6 378.2 385.8 387.3 397.6 402.9 407.4 407.1 408 410.5 413 416.9 420.9 423.3 426.5 432.9
131.4 132.2 131.3 131.8 132.3 135.3 138.1 138.7 140.8 136.3 135.3 137.7 143.8 148.2 149.7 149.7 149.1 153.1 156.6 159.2 157.4 165.7 157.2 151.2 160.6 165.9 168.1 171.6 179.4 187.1 175.9 177 187 202.2 207.8 216 215.2 214.3 223.3 240 255.3 280.7 291.4 298.8 304.8 307.4 308.1 306.3 299 290.7 290.9 282.6 269.4 264.2 268.3 285.1 295.6 306 311.8 316.2 321.1 328.1 338.7 351.9 357.1 353.1 347 342.5 340.8 339.1 335.3 328.2 320.7 310.4 298.2 281.7 276.7 274.3 270.3 265.5 260 251.8 258.3 262.1 258.1 260.2 257.7 264.6 269.7 273.9 276.3 277.9 280.6 284.5 289.5 292.9 295.2 299.9 305.1 314.4 324.9 332.3 339.8 346.3 351.9 359.9 365.4 371 380 376.9 371.7 369.7 367.9 365.9 362.7 360.3 357.1 350.5 344.5 338.9 333.1 325.7 313.6 307 304.7 298.8 288.7 279.7 294.3 302.2 314.7 326 338.2 346 350.1 352.2 353.6 358.2 363.6 366.4 369.2 359.1 344.4 335.6 324.8 319.6 324.8 326 328 329.1 329.1 329.4 327.3 324 318.5 314 310.9 306.5 302.4 297.8 292.3 282 261.7 262.6 271.7 276.7 282.9 288.6 293.9 299.8 305.7 311.5 317.2 325.8 342.4 364.6 375.5 375.5 373.8 371.3 370.6 370.9 376.5 379 381.8 384.8 389 394.9 400.3 406.5 411.2 411.5 411.8 413.3 415.4 418.5 420.3 422.5 426.2 429.6
130 131.1 132 134.2 132.9 132.8 133.1 142.6 135.5 134.1 137.9 142.1 145.1 143.2 150.4 151.9 151.7 153.5 157.5 160 162.3 165.7 166.3 163.5 154.3 154.7 158.7 163 169.8 175.5 166.9 179.1 196.9 208.9 205.3 206.9 210.2 218.3 231.4 247.1 267.2 290.7 298.9 304.5 309.9 312.8 302.6 290.2 287.1 286.1 292.5 273.7 266.3 267.9 278.1 289.9 301.5 307.7 314.1 319.3 325.6 330.5 340.2 355.1 362.3 358.7 353.9 351.3 351.3 349.5 340.3 330.2 323 312 291.1 296.2 288.3 282.1 278.3 271.6 264.8 255.4 256.6 259.2 259.9 261.6 263.3 264.6 271.8 277.4 278 279.1 280.9 282.8 285.6 288 291.1 297.6 305.1 314.7 325.3 332.7 340 346.5 353.6 362.8 367.6 373.4 380.4 378.3 373 370.4 369.3 368.1 367.2 364.8 360 354.1 348.6 343 336.8 330.2 322 313.6 302.6 297.9 295 280.9 286.9 296.9 304.3 313.8 329.6 343.4 349.8 351.4 350.1 353.5 357.9 361.6 360.4 346.9 333.4 324.6 316.1 310.7 316.8 318.6 320.5 321.7 321.7 321.1 319.1 315.4 309.8 305 302.5 299.1 296.5 292.4 287.2 278 258 268.4 273 278.2 284.6 291 297.3 301.3 306.9 313.7 321.6 333.3 358.4 374.3 376.8 377.6 376.8 375.3 375.2 376.5 379.7 381.9 385 387.1 391.5 398.9 408.8 415.5 417.7 416.2 415.3 414.8 415.7 417 419.4 422.3 423.3 424.4
130 132.7 135.7 136.8 137.7 138 134.8 147.5 138.8 136.7 140.5 144.3 147.3 148.9 149 152.3 154 155.4 157.4 159.1 163.9 166.6 166.5 164.7 164.2 166 166.7 163.6 161.1 164 174.2 183.2 200 198.5 199.8 206.9 215.6 230 244.4 263.2 284.2 295.6 300.9 307.3 313.3 301.1 292.8 286.1 282.3 273.7 280.8 270.2 267.8 274.5 280.7 289.5 297.3 306 313.9 321.4 326.5 332.7 342 356.9 366.1 364.4 361.8 360.9 362.9 356.4 343.2 331.5 321.4 311 308.9 303.9 296.9 291.4 287.1 278.3 269.3 257.6 257.7 260.3 262.3 264 266.4 261.7 272.6 277 277.6 278.5 279.5 280.4 283.5 286.4 289.9 294.2 302.7 312.9 323.9 331.6 340.1 346.8 354.2 362.1 369.2 375.6 382.1 378.4 374.1 371.5 371.2 370 368.6 367 364.2 357.6 352.8 347.1 340.8 334.4 327.5 319.7 316.3 311.2 300 281.7 280.5 292.6 299.6 307.6 316.7 334.2 346.9 350.4 347.5 347.4 351.3 354.4 350.2 337 323.7 316.1 308.3 304.4 309.1 311 313.5 314 313.4 313 310.3 308 304.6 300.3 295.4 292.7 290.2 286.1 281.2 271.2 260.2 269.3 273 280.3 286.5 294 298.4 304.5 310.8 319.2 332.2 353.6 369.7 375.7 377.8 379 378.5 377.4 379.5 381.3 383.7 386.3 389.1 390.7 397.1 409.5 425.4 425.9 425.5 421.9 418.3 416.8 415.7 415.9 416.5 416.4 415.5 416.4
130.5 133 135.4 137.2 138 138.7 139.3 146.1 142.8 141.8 139.4 144 147.6 149.7 151 152 154.4 156.5 158.4 157.4 163.8 166 166.2 168.3 172.7 177.9 180 172.5 167.1 167.3 171.3 184.3 193.1 190.9 198.9 214.8 230.1 247 265.3 283.1 289.7 295.3 301.7 309.2 301.5 300.6 298.3 297.4 286.6 281.5 269.5 266.4 270.5 277.1 282.2 289.4 297.2 305.4 313.9 321.8 327.1 333.7 344 359.6 369.5 370.1 368.9 371 370.5 361.6 349 333.8 329.4 324.6 316.4 310.9 304.8 300.3 294.2 286.4 274.4 261.4 256.7 264.4 266.1 267.9 270.5 271.2 265.2 270.4 275.8 278.8 279.2 280.8 284 286.8 290.3 295.3 302.4 311.2 323 332 339.2 346.6 353.5 362.5 370.1 378 383.5 379 374.7 372 371.4 370.6 369.8 368 365.5 360.3 355.2 350.5 344.9 339.1 331.9 327.5 322.9 318.4 308.3 285.2 272.5 287.2 295 301.7 309.7 319.2 332.8 346.1 347.4 339.5 347.4 346.6 338.5 326 315.9 307.9 301.3 297.4 301 303.8 305.8 306.2 306.1 305.8 304.5 302.5 299.6 295.2 287.4 285.4 282.7 279.3 274.2 260.3 262.1 270.7 276.1 282.1 288.3 296 301.8 310.1 319 333.6 353.5 370.1 374.3 376.3 377.9 378.8 378.6 380.2 383 385.3 388 391.4 394.3 398.1 405.2 419.7 434 434.4 431.2 427.3 422.9 417.7 414.2 412.4 411.6 410.5 410.1 410.1
131.1 132.4 134.3 136.4 138.4 139.3 140.8 143.7 144.3 143.8 140.6 145.8 148.9 151 151.9 152.5 154.4 157.2 159 163.5 166.1 167.2 170.8 174.2 179 183.7 184.3 177.9 171 174.8 171.8 174.4 182.1 188.7 202.2 219.9 240 267.7 275.4 281.7 286.8 293 301.5 296 297.5 295.8 299.3 289.8 277.3 267 263.7 266.2 272.7 277.8 283.9 290.8 298.5 306.2 313.5 321.1 327.8 334.3 345.2 362.1 373.3 375.8 378 380.1 374.9 364.7 351.8 351.6 344.9 335.5 323.8 316.5 309.9 303.6 299 289.8 277.9 268 259.2 267.2 269.5 271 273.6 276.8 277.1 270.2 272.6 279.3 281.2 283.3 284.4 287.6 290.8 295.6 302.2 312.6 323 331.7 338.8 346 352.3 361.4 370.6 379.7 383.1 379.8 375 372 371.3 371 370.5 369.2 367.1 364 357.8 352.5 347.4 342.7 337.9 334 328.8 323.5 315.4 288.5 271.2 282.6 290.6 295.3 301 309.3 317.1 322 333.8 330 339.6 335.6 323.8 314.3 308 301.8 293.1 290.7 294.9 296.9 297.9 298.6 297.9 298.7 297.8 295.9 293.4 288.9 283.5 276.9 275.5 271.7 263.7 255.6 263.8 272.2 278.8 284.1 291.6 298.6 308 319.6 337.5 356.5 368.6 372.7 375.4 376.5 377.3 378.2 380.8 384.2 386.7 389.3 394.6 398.1 400.4 404.5 414.3 431.8 440.1 439.4 435.1 431.2 426.7 419.3 414.5 408.8 405.6 405.2 404.6 403.9
131 130.4 133.8 136.4 139 140.6 141.5 143.5 145.4 145.3 142.8 147.8 150.4 152.2 153.1 154.4 156 157.3 159.9 164.5 167.3 170.6 174.6 178 182.7 185.9 185.8 176.5 177.6 180.5 184.8 182.6 186.9 187.9 200.8 213.2 236.5 259.6 267 274.5 283 289.5 289.5 291.8 290.3 294.4 284.7 273.6 261.6 259.5 260.7 267.4 272.7 278.3 284 291.3 298.5 305.7 313.1 320.6 328.3 336.1 348.4 364.6 377 382.1 386.5 385.1 377.9 368.5 365.8 363.2 355.2 342.5 329.9 321.3 314.3 307.3 300.9 292.8 282.3 274 261.1 264.4 271 272.9 275.9 279.7 281.6 277.2 281 279.8 283.3 285.4 286.7 289.4 292.4 296.5 303.8 311.9 324 332 337.8 343.3 351.3 360.5 369.7 379.8 387.5 381.7 374.9 371.5 370.6 371 371.3 371 369.4 367.4 359.7 354.9 350.5 346.1 341.9 337.7 332.7 328 318.8 289.3 273.2 277.8 285.4 289.5 293.8 298.7 304.4 312.1 316.1 318 322.2 325.7 313.2 304.8 300.7 295.6 289.1 283.1 287.6 289.7 290.6 289.9 289.2 289.7 289.8 287.9 285.8 282.4 277.9 272.6 269 262 257.2 256.2 264.6 272 282.4 290.7 299.1 309.4 324.3 344 360.6 368 371.6 373.5 374 374.9 376.3 379 383.4 386.8 390.2 396.7 403.1 404.1 407.7 413.8 423.7 441.1 445.2 444.3 438.2 434.2 429.5 424 417.4 408.1 404.1 397.3 398.9 399.3
130.7 131.4 132.8 135.4 138.5 140.4 145.7 144.9 145.9 146.4 143.3 148.2 151.5 153.7 155.1 156.6 158.5 159.4 161 163.7 166.9 170.8 176.1 180.5 184.1 186.7 182.8 178.7 182.7 191.9 196.6 196.1 190.7 189.5 201.3 208.9 227.2 248.7 258.2 272.7 277.8 278.8 281.3 290 285.7 283.1 270.5 260.1 255.1 255.2 261.9 266.7 272.8 277.9 283 291 298.6 305.3 312.2 320.6 328.2 337.7 350.5 367.9 379.3 387.4 391.3 387.1 381.4 375.7 373.5 370.7 363.8 352.5 342.8 330.7 318.9 310.3 303.4 297.2 287.7 276.9 268.7 262.1 271.6 276.3 278.9 282.7 284.5 281.5 282.5 278.4 281.3 285.7 288.4 291 294.1 298.9 304.2 311.1 322.9 330.2 336 342.3 349.4 359 368.2 378.1 383.8 381.9 374.6 370.2 369.7 370 371.4 374.6 374.5 368.6 363 359.3 355.1 351.1 346.7 341.4 336.2 329.9 317.2 296.3 277.1 269.1 276.7 281.3 285.8 290.3 293.9 297.9 302.6 304.4 311.9 316.4 304.4 297.1 292.8 286.9 287 274.8 278.4 281.4 281.7 280.8 279.3 279.5 279.1 277.7 276.1 274.1 271.1 266.7 262.7 258.4 255.6 259.7 268.9 279.5 294.4 307.7 318.3 329.8 345 357.7 364 368.1 369.3 369.2 369.9 373.6 377.6 381 385.3 390.3 396.5 408.7 415.1 413.8 416.6 423.3 431.9 447.3 450.4 449 443.1 437.2 432.1 426.2 420.3 413.2 402.2 396.5 393.4 393.6
129.7 130.7 132.3 134.5 137.4 140.1 145.7 143.3 146.3 146.6 147 148.8 150.9 154.3 156.7 158.7 160 161.7 163.4 165.5 168.7 172.7 175.2 180.6 184.8 185.1 182.2 182.3 188.2 201.5 215.4 215.9 207.2 193.5 191.2 203.7 218.3 235.6 254.4 267.5 266.9 267 274.6 278.4 271.6 271.9 256.2 250.2 250.3 255.2 259.9 265.8 272.4 277.8 283.1 290.8 298 304.7 311.8 320.8 328.1 337.4 353.2 368.9 381.7 389.1 392.7 389 384 381.6 380.5 376.3 370.6 363.3 352.8 342.2 327.7 315.5 306.5 300.8 292.8 280.7 273.1 269 272.5 278.6 280.4 284.6 287.2 284.8 283.8 283 283.9 284.3 287.9 291.7 295.7 300.9 306.3 312.7 322.9 328.3 334 340.9 348.9 356.4 365.7 375.1 381.6 379.8 374.4 368.8 367.9 368.4 371 378.2 374.9 371.4 368.8 365.7 361.5 357.5 352.7 347.6 341.9 335.9 321 295.3 283.4 271.1 264.5 272.2 276.6 282 284.8 287.6 290.3 293.1 299.5 301.7 297.1 289.1 282.5 275.5 279.7 266.2 267.6 272.1 272.6 271 268.6 267.3 266.4 265.9 265.7 264.7 260.4 257.9 256.4 253.6 256.7 263.5 275.8 289.8 310.6 326.1 335 343.8 349 354.7 361.7 365.8 366 366.5 368.4 372.4 377.7 382.6 387.1 394.7 410 417.5 423.6 420.8 424.9 429.2 441.6 453 455.4 452.7 447.1 439.6 434.2 427.7 421.3 412.1 403.8 397.2 388.2 387.8
130.4 130.7 131.7 133.6 135 136.9 146.7 146.7 146.5 147.5 149.4 152 153.4 155.4 157.4 159.8 162.1 164.9 166.6 169 172.5 174.9 178.8 181.6 184.1 182.9 183.2 186.5 198.4 212 226.9 233.3 226.4 207.9 193.1 198.2 209.1 229.5 248.2 259.2 253.9 264.4 261.1 261.1 259 253.6 247.9 245.8 251.6 255.9 258.4 265.9 273.1 277.4 281.7 289.3 297.1 305.3 313.4 320.3 328.1 339.1 351.1 369.8 382.1 389.9 393.6 390.7 387.7 386.8 386.1 382.6 376.3 368.9 359.9 348.1 334.9 320.1 309.3 303.4 297.8 288.4 277.8 272.1 269.9 275.7 280.5 285.5 288.5 287.8 286.2 287 286.2 291.4 291 293.2 296.7 301.5 308.1 315.7 323.6 325.8 332.3 341 348.3 355.5 363.1 372.9 380.4 377.7 372.6 367.4 366.6 367.5 372.4 375.6 373.7 375.9 372.6 369.7 366.2 362 358 353.2 348.1 342.2 324.1 303.7 289 281.2 274.6 261.8 268.5 273.4 277.3 279.6 279.8 282.7 286 286.7 282.4 281.6 275.2 262.2 269.1 261.5 255.9 261.6 262.5 260.7 256.8 255.6 254 253.6 252.3 251.8 251.1 249.5 252.4 256.5 262.7 266.2 275.9 287 302.1 318.7 331 338.1 342 347.6 357.2 363.1 363.8 364.9 368.4 373 378.2 384.3 392 404 418.3 427.1 428.7 427.2 429.1 431.9 442.7 456.4 457.1 455.1 449.9 442.1 436 428.7 421 409.9 403.3 396.6 390.6 375.1
130.6 131.7 133.2 137.1 140.6 144.8 147.3 147.9 147 149.7 150.1 149.7 152.4 154.8 157.6 161.7 164.8 167.1 169 172.3 175.2 178.3 182 184.4 183.4 182 183.9 195.6 210.1 221 229.8 245.3 243.2 221.9 200.2 193.5 205.7 226.6 247.6 250.8 247.7 249.5 250.7 253.1 250 246 242.6 246.4 251.6 256.3 258.3 264 270.8 275.7 279.3 287.6 296.4 304.6 312.7 319 326.5 337 354 370.6 381.9 389.4 393.9 393.6 391.9 392.5 391 386.9 380.4 372.3 362.8 351 336.6 324.9 312.4 304.3 297.2 288.8 281.9 273.2 278.1 270.9 281.3 285.1 288.4 290.3 288.9 289.3 290.9 291.5 295.5 299.6 299.8 303.2 307.8 316.1 322.7 329.1 335.1 341.5 347.9 355.1 362.4 371.4 375.7 376.2 370.6 366.5 365.6 367.5 377.8 369.9 370.6 374.5 374.9 372.9 369.6 365.8 361.8 357.5 352.8 347.7 334.6 313 297.6 287.7 279.3 265.9 252.7 264.8 269.6 270.5 272.5 274.7 275 274.7 271.7 266.7 266.3 255.6 256.8 252.6 248.5 250.1 247.5 243 242.1 248.3 251.8 255.7 258.2 258.7 258.8 259.2 263.7 268.7 273.3 275.2 270.9 280.1 289.3 303.5 315.6 327.6 335.1 340.6 350.9 359.8 360.4 362.7 369.1 374.6 381.1 389 400.5 418.7 428.8 432.2 432.3 430.7 432.7 435 444.4 457.3 458.2 456 451.3 444.6 436.1 428.5 416.7 407.7 400.1 393.8 387.8 381.4
133.9 133.3 137.1 141.2 143.5 145.8 146.9 148.1 148.3 150.1 151.8 152.6 152.6 156.9 159.8 163.3 165.7 168.4 171.4 174.2 176.7 180.1 183.9 185.5 182.2 183.2 189.5 203.8 218.4 221.4 223.7 229.5 246.8 228.2 204.9 191.2 206.3 225.5 240.6 245.2 246.2 245 243.7 241.5 242.3 241 242.1 248.3 255.9 258.3 257.3 261.2 265.3 269.6 275.8 285 294.2 303.2 311.8 318.8 326 336.1 352.2 367.7 379 387 393 394.1 395.2 397.2 394.3 389.9 383.1 373.1 363.3 349.8 337.6 326.3 313 302.9 295.3 292.9 286.7 284 284.5 282.7 279 280.3 286.7 287.6 287.4 288.5 291.3 295.7 300.5 301.1 302.8 306.3 311.4 317.1 324 330.9 336.9 343.9 349.7 356 363.5 370.6 373.6 372.7 369.1 365.3 364.3 366.3 371.5 365.4 366.9 371.8 375.8 375.5 372.6 369.5 366.2 361.3 356.9 352.5 343.9 320.4 303.9 292.6 281.2 273 258.2 248.9 260.1 261.2 262.7 266.1 267.2 266.8 264.1 258.3 252.4 246.3 241.3 240.1 239.1 240.9 244.7 250.3 253.8 258.9 259.3 261.6 263.8 266.8 264.8 267 275.9 284.2 285.6 283.8 281.6 288.8 292.8 291 306.8 321.7 330 335.8 343 351.9 356.2 362 370.3 376.9 385 395.2 413 429.4 434.5 435.5 434.6 431.6 434.8 437.8 446.4 457.1 457.9 455.6 451.8 446.6 438.6 428.6 416.9 407.6 397.5 388.9 382.9 376.9
140.3 141.5 141.8 143.9 144.8 146.3 147.3 148.5 149.5 151.1 152.7 152.3 154 157.9 160.6 163.9 166.6 168.7 170.5 174.1 177 180.9 184.9 185.4 182.1 183.4 195 208.5 221.4 225.1 224.9 231 242.7 223.3 202.3 190.9 202.3 224.5 239 243.5 244.5 243.7 240.6 236.5 235.5 239 244.6 251.1 258 258.9 256.6 253.9 257.6 266.1 275.5 283 292.7 302.5 311 318.1 326 336.8 350.3 364.7 375.3 386.7 393.5 396.1 397.8 398.6 395.2 389.6 382.4 372.9 361.6 350.7 339.5 327.8 316.5 307.5 308.3 303.1 285.4 288.1 289.3 289 286.4 282.9 283.5 284.6 284.6 284.3 289.4 295.6 302.9 307.4 310.9 308.4 311 318.5 326.8 335 340.4 347.3 353 358.6 364.7 371.3 374.8 372.2 367.5 364.6 363.2 364.8 363.5 361.7 361.9 366.8 373 376.6 375.3 373.3 370.4 367 362.7 357.4 351 331.3 314.2 299 287.2 277.5 267.3 260.1 249.4 246.7 243 246 259.7 259.9 258 249.9 236.9 237.6 238.8 247.6 246.6 247 251.4 259.6 265.6 269.5 270.9 272.9 275.4 274.9 277.5 277.2 286.9 290.6 292.3 291.5 291.5 299.1 312.3 314.5 307.1 311.7 326.3 333 339.8 349.3 354.3 361.4 370.9 380.4 391.7 409.9 429.3 436.7 438.7 438.1 436.8 436.1 436.8 439.9 444.3 454.6 456.3 455.3 452.8 448.2 441.7 431.4 418 408.4 395.4 388.4 383 377.3
141.3 142.6 144.1 145 146.1 146.8 147.9 148.7 150.2 152.1 154 154.7 154.6 158 161.7 164.7 165.2 165.7 167.6 171.5 174.9 181.8 186.3 184.8 182.2 185.4 193.4 210 221.7 235.8 236 232.4 228.9 218.9 198 190.9 203 220.6 238.1 246.5 247.3 246.6 240.5 234.4 235.5 240.1 246.5 252.7 261.3 259.4 253 246 260.6 274.3 280.7 285.2 292.3 302.8 310.2 317.3 325.7 335.3 349.7 362.9 375.8 387.7 395.7 398.2 399.1 398.5 393.7 388.6 380.2 370.3 359.6 351.2 340.5 328.5 317.9 317.3 314.4 305.9 286.7 297 295.4 293.2 292.7 288.2 287.7 289.4 290.8 292.8 285.8 295.1 303.7 310.9 315 314.6 312.9 322 332.3 339.6 344.7 351.4 357 362.5 369.4 375.6 378.2 376.5 369.6 365.2 362.9 361.3 359.8 358.5 359.5 361.9 367.5 374.2 376.9 376.6 374.6 374.3 370 363.4 357.4 343.7 324.8 310.2 298.6 288.4 277.5 268.4 263.9 259.7 252.8 242.2 239.9 247.4 251.8 242.3 235.8 236.2 246.4 249.4 250.1 262.3 277 284 285.4 286.9 285.6 285.5 283.7 284.6 285.5 286.7 290.9 294.9 298.1 301.2 305.1 302.9 324.6 336.9 332.7 322.9 328.3 331.8 341.7 348 353.1 362.2 374.4 388.6 403.2 425.3 437.3 441.7 442.2 441.2 439.6 439.6 440.2 441.6 444.8 449.1 455.3 457.5 454 449.8 444.2 435.4 421.4 410 397.1 390.4 385.3 380.7
140.7 142.7 144.1 145.5 146.2 147.3 147.9 148.7 149.7 151.6 153.7 156 155.7 155.9 159.3 161.5 161.8 163.5 166.7 171.5 176 182.8 187.3 184.7 183.1 187.3 197.1 207.4 218 231.7 237.5 234.3 217.3 215.3 192 189.5 200.2 215.3 227.5 233.6 246.1 244.5 234 231 235.8 240.7 247.1 252.4 259.4 255.3 243.5 247 262.9 276.6 282.4 289.1 295.3 301.9 309.3 316.3 324.2 333.7 347.3 360.9 375.2 389.3 397.1 401.3 400.9 397 391.8 386 378.1 368.9 360.3 349.7 338.8 331.1 328.9 324.6 317.7 307.8 288.8 302.1 303.1 301.1 296.3 292.6 291.6 292.6 293.6 293.8 290.4 295.7 304.3 312.8 317.1 317.7 313.4 319.5 333.7 343.1 348.7 355 360.1 365.2 373 380.1 382.7 380.3 372.8 367.9 363.1 359.8 356.6 355.8 357.6 358.3 361 368.1 374.6 377.8 378.1 378.1 374.9 370.7 363.2 354.1 336.7 322.8 309.1 298.3 289.3 280.5 273.7 267.8 260.1 255.2 247.6 237.1 240.4 233.7 234.7 243.4 248.4 250.9 254.5 270.3 286.7 294.6 298.8 300.1 301.1 299.4 295.6 292.2 292.1 293.1 295.7 301.1 308.6 318.1 322.7 318.5 327.5 338.8 340.5 334.7 336.2 341.8 345.8 350.5 355.6 366.7 378.8 394.4 411.4 434.2 441.6 444.9 445.7 445.5 444.6 443.1 442.8 443.2 445 447.3 456.5 457.4 454.7 450.5 446 438.4 427.2 415 401.4 393.4 388.8 384.6
141.3 142.6 143.9 145.5 146.4 147.3 148 148.9 149.7 150.9 153.2 155.6 157.7 159.2 161.2 158.7 160.3 162.8 167.5 172.9 179.4 184.3 188.5 186.3 184.1 187.6 196.3 205.3 213.6 225 236.4 230.7 215.7 204.1 190.3 188.4 195.4 206.7 217.4 226.8 242.5 240.3 229.4 229.6 234.3 240.8 247.8 252.4 257.3 246.7 238.7 255.8 261.6 275 275.9 283.4 288.5 297.7 308.2 315.4 322.9 333.6 345.7 361.9 376.9 390.6 399.3 403.2 400.7 394.5 389.1 382.8 376.8 368.8 361.6 351.6 341 336.4 331.2 326.3 319.1 308.7 296.4 305.1 306.9 305.1 300.3 296.9 296.6 296.1 295.6 294.4 292.2 296.1 304.4 313.2 317.8 319.7 321.2 318.3 326.2 343.3 351.1 357.2 362.2 367.8 374.9 382 385.5 381.6 373.2 370.2 365.8 361.1 358.2 355.4 352.8 353.4 355 359.4 366.8 375.6 378.9 380.4 378.9 375.2 369.2 361.7 347.3 335.6 322.1 308.3 297.8 289.4 281.5 273.7 263.1 255.6 251.8 249.7 244.8 232.9 233.9 244.9 248.8 251.9 254.5 265.6 286.4 294.7 300 304 305.6 305.9 305.4 302.7 300.1 300.5 303.6 312.9 321.9 330.7 338.9 332 332.6 339.8 344.2 342.4 343.6 351.8 358 360.4 366.6 375.3 381.6 403.6 421.4 439.3 446.4 448.3 449.2 448.7 446.5 445 444.3 444.1 444.1 445.1 451 456 454.6 450.4 446.3 439.8 432 420.9 406.8 397.7 392.7 389
141.6 141.2 142.7 143.4 145.6 147.3 148.1 148.9 149.8 151.3 152.6 154.2 156.3 157.9 159.9 161.3 161.6 162.5 170.4 176 181.1 186 189.2 186.4 185.2 187.6 193.5 202.3 209.8 218.3 228.1 226.7 212.8 197.8 189.1 187.9 194.8 201 206.5 220.5 238.3 236.5 228.2 226.1 231 241.2 251.8 257.2 254.6 240.9 237.4 246.7 254.4 270.5 267.4 264.9 280.3 295.3 305 313.9 321.9 332.2 346.5 364.2 378.8 392.4 400.1 401.5 399.9 393.1 386.5 380 374.3 367.6 360.3 351.6 343.2 335.5 330.3 323.7 318 300.6 309.2 310.8 310.8 307.7 304.6 303.6 301.8 298.6 296.8 294 292.6 296.5 304.3 312.3 317.1 318.5 317.7 317.7 327.3 344.3 351.5 357.7 363.5 369 376 382.6 386.3 381.4 374.4 374.1 374 365.4 359.8 356.7 354.7 352.9 348 351.8 357.7 367.3 376.1 379.8 380.8 379.7 377.4 368.9 358.3 347.2 332.3 317.6 304.5 294.4 285.6 277.6 267.7 259.7 252.4 247.9 245.4 234.6 234.5 243.5 248 252.1 256.3 267.5 282.7 292.4 298.2 302.4 306.9 309.5 310.7 310.7 310.8 311.2 314.3 320 329.6 339 343.4 339.5 338 343.3 346.6 348.8 354 364.6 372.1 379.9 383.7 387 397.7 414.6 431.2 444.3 448.2 449.7 450 448.4 446.3 445.5 445.2 443.6 442.8 443 444.4 453.4 453.8 450.2 446 440.5 433.8 424.7 411.7 401.2 396.1 392.7
143.7 143.2 144 144.6 146.2 147.4 148.1 148.9 149.9 151.4 153.2 154.1 155.8 157.4 158.1 161.2 162.6 163.8 170.6 175.4 180.7 187.8 189.2 186.2 184.3 186.7 192.5 200.4 204.5 215.1 220.6 216.9 206.1 194.2 188.3 188.5 192.5 196.3 200.9 214.8 230.6 235.3 227.9 220.4 225.6 237.9 248.1 253.2 248.1 244.6 229.1 235.2 244.6 251.9 251.8 263.6 278.2 290.6 303.1 313 321.7 333.3 349.9 366.1 380.6 391.7 399.3 402 397.8 390.1 383.7 377.2 370.9 364 357.1 350.6 341.9 333.6 327.3 321.8 316 309.1 314.9 315.7 315.2 312.8 309.6 306.5 304.5 301.9 298.7 296.1 293.7 298.2 303.6 310.1 314.5 315.8 315.4 319.5 334.1 343.6 351.2 357.6 363.4 369.3 375.8 381.3 384.7 380.4 376.4 379.4 374.9 367.9 361.2 356.9 353.9 352.6 352.7 346.1 351.1 359.7 368.1 376.7 380.4 381.8 380.1 373.1 366.1 352.6 340.4 323.1 309.7 299 289 279.4 268 261.2 253.4 246.5 243.4 234.1 232.8 242.4 245.2 254.1 265.1 273.6 280.9 287.9 295.7 302.9 307.7 312.2 316.3 318.5 320 322.6 324.7 328.6 333.2 341.3 346.3 344.7 343.1 346.2 349.5 356.3 365.5 381.7 396.4 401.6 402.8 406.8 419.5 427.6 438.1 444.6 447.7 449 448.5 446.6 445.5 444.9 444.3 442.6 441.1 440.7 441.2 447.1 451.7 450.3 446.1 441.2 435 427.3 415.4 404.3 399.1 395.9
144.4 145 145.2 146.1 147.6 147.5 148.1 149.6 150.5 151.2 152.6 153.7 155.1 156.9 158.9 160.3 162.5 165.5 170 174.5 179.9 186.8 188.2 185.2 184.9 186.7 191.4 198.8 202.2 205.4 212.2 211.8 200.1 190.2 187.3 187.1 190 191.6 194.5 202.8 215.8 229.8 236.6 216.5 219.7 229 241.1 241.4 236.2 239.6 229.5 226.5 230.8 241.4 252.1 261.9 278.4 292.7 303.1 313.7 322.9 334.1 352 367.2 378.9 390.8 397.8 399.1 394.3 387.5 381.5 375.5 369.5 362.8 357.1 348.8 341.4 335.5 328.4 320.8 319.7 318.4 321.2 319.9 318.6 317.3 315.2 311.8 307.2 304.4 301.4 299.5 296.9 300.4 306 309.6 312.3 314 313.7 318.5 331 341.5 349.8 356.4 364.4 368.7 374.6 379.9 383.3 379.9 377.7 376 370.1 365 358.2 353.3 349.6 348.8 350.3 350.4 346.5 353.8 359.7 368.4 377.5 381.1 382.5 378.8 372.4 358.4 344.9 328.1 313 302.1 288.9 281.7 269.3 260.6 253.5 246.3 241.4 231.8 231.9 239.3 250.7 262.4 271.2 279.5 287.3 292.6 300.1 304.9 313 319 322.9 325.7 328.1 329.9 332.1 334.4 338.6 343.7 348.8 349.8 350.2 354.6 356.3 363.6 373.1 388.9 399 405.3 411.6 419 427.5 432.8 437.6 442.9 445.5 446.8 446.3 444.6 443.8 443.4 443.7 442.1 439.8 438.5 438.6 439.6 448 448.5 445.3 441.2 436 428.8 418.8 408.2 402.6 399.1
144.9 145.5 145.9 145.6 148.3 149.8 149.3 150.5 150.9 151.2 152.2 153.2 154.5 156 158.2 161.4 163.3 166.4 170.3 175.1 179.4 184.7 187.1 183.5 182.7 186 190 195.9 199.3 201.7 208 207.7 195.9 189.7 187 185.9 187.3 188.5 190.8 197.8 207.9 220.7 234.5 222.3 213.4 220.9 233.3 229.4 226.6 218.6 221.5 232.6 239.2 245.5 253.5 269 281.9 294.9 304.5 314.2 323.7 336.1 352.9 367.7 379 390.1 396 396.1 391.7 386.1 381.1 375.7 369.6 363.8 358.3 352.1 345.5 339.7 334 328.4 322.1 324.3 325.2 323.8 322.6 321.3 320.2 315.4 313 308.7 304.3 304 302.4 302.7 307.5 311.8 312.9 312.7 313.7 313.7 322 335.3 345.1 352 360.2 365.5 372.5 378.1 382.9 379.6 374.3 370.1 365.3 361.8 356 350.8 346.3 344.7 345.9 348.3 342.4 350.4 355.2 362.2 369.7 378.9 382.1 381.4 376.9 366.3 347.2 328.6 314.1 302.9 291.3 281 267.7 257.4 250.2 243.8 237.7 231.1 231.6 238.6 253.9 267 279.7 285.2 290.8 297.6 302 312.1 318.2 323.2 326.9 330.4 332.4 335 338.4 340.6 344.1 347.5 353.1 356.9 357.2 358.6 362.8 368.8 380.9 391.5 399.9 405.5 411 420.3 426 430.2 433.4 438.9 442 443.7 443.7 442.6 442.2 441.9 442.1 441.7 438.4 436.5 436.3 436.5 443.2 446.7 444.6 440.6 436.4 430.3 421 411.4 405.8 402.6
145.6 146.1 146.7 144.7 148.6 149.4 150.5 151.1 151.4 151.9 152.2 153.2 154.3 155.5 157.5 161.3 164.8 166.5 170.7 175.2 178.1 182.7 184.3 181.8 182.5 184.5 188.1 191.1 194.4 197.2 203.1 207.8 200.1 190.3 187.2 185.9 185.9 186.6 187.3 190.8 199.4 211.3 229.5 228 208.8 213.3 214 217.2 215.7 226.1 234.9 230 240.5 254.3 265.5 275.9 286 297.6 306.5 315.3 324.6 336.8 353.2 369.3 380 389.1 393.9 394.1 390.6 386.7 382.1 376.3 370.3 364.5 358.3 352.5 346.7 340.8 335.8 329.4 329.1 331 331.8 329.2 328.3 330 325.4 319.1 315.2 311.4 309.1 308 307.5 307.2 308.9 310.6 309.4 309.2 311.1 313 319.1 329.4 339.5 350.7 358.3 363.5 369.2 376.9 381.7 379.3 374.4 365 360.6 357.2 354.6 351.6 346.7 342.1 340.8 340.5 341.9 348.6 352.5 356.5 362.1 371.9 381.5 382.8 379.8 364.4 343.7 326.4 313.5 301.9 290.7 275.5 264.5 255.5 247 242.1 233.1 228.9 233.2 241 257.4 271.8 281.8 287.6 296.1 300 307.4 314.7 321.2 326.1 330.7 335.2 337.5 340.7 344.3 347.8 351 356.8 362.4 365 364.3 364.1 366.7 371.1 381.8 393.5 401.2 406.8 411.4 418.9 423.4 426.6 429.3 433.8 436.9 440.1 441.6 441 440.7 440.5 440.6 441.2 437.1 434.5 433.9 433.8 436.6 443.1 443 439.7 435.6 431.1 424.6 415.2 408.8 404.9
145.7 146.9 147.3 148.4 149.2 150.2 151.5 151.3 150.8 151.9 152.2 153.5 154.8 156 158.3 160.2 164.5 168.4 171.7 175.2 178.3 181.4 182.6 179.6 180.7 181.9 185.1 190.6 193.9 198.3 199.1 204.9 205.6 194.3 189.2 187.4 186 185.4 186 187.2 193.3 204.4 221.7 228.8 208.1 204.2 210 221.9 232.3 243.6 244 241.2 240.3 258.7 272.7 280.4 285.4 296.7 307.1 316.6 328.1 338.7 354.7 369.1 379.6 387.5 391.1 391 389 385.7 381.6 376.3 370.7 364.3 357 352 346.5 341.1 337.4 333.7 335.6 337.5 340.2 336.7 336.2 336.2 330.1 321.7 318.6 314.8 313.5 311.3 310.4 308.8 309.4 308 306.8 305.5 306.4 310.6 320.9 334.6 344.5 356.4 363.5 362.5 366.5 371.5 378.7 376.1 371.1 360.1 356 353.5 350 346 341.4 339.5 338.1 337.1 346 348.9 351.1 353.1 356 362.5 375 383.2 369.5 352.2 337.5 324.5 312 299.6 288.1 274.2 263.9 254.3 246.5 238.4 229.6 228.8 239 244.8 260.1 275.9 289.9 292.4 297.8 306.1 313 318.6 325.4 331.4 336 340.8 344.5 348 352.1 358.5 367.1 379.1 376.2 371.9 370.1 369 369.3 371.5 379.7 394.7 404.2 408.6 413.1 417 420 422.9 425.5 428.2 431.8 435.2 438.1 439 438.9 438.7 439 439.5 436.3 432.2 431.4 430.8 430.7 437.8 440.4 438.8 435 430.8 425.3 418.1 410.8 406.3
146.6 147.1 149.3 150.5 149.9 151.2 152.4 152.4 152 152.1 153.1 154.2 155.3 156.6 158.1 160.4 164.3 168.1 172.2 175 177.8 179.6 180.2 177 179.3 180.7 183.7 185.6 186.6 189.6 196.2 202.5 207.5 205.6 197.4 192.2 188.1 186.4 185.1 186.4 188.6 200.6 217 226.9 206.7 204.5 217.8 235.9 249 250.2 250.1 247.3 240.4 254.6 267.4 275.2 289.1 300.2 310.5 318.1 327.8 338.8 355.7 367.8 379 385.2 387.2 386 383.8 381.8 378.8 375.2 370 363.6 354.3 350 344.6 341 338.2 339.3 341.5 344.8 347.6 345.6 347.4 344 335.5 327.2 321.4 316.9 314.1 313.6 311.6 310.2 309.7 308 306.3 303.7 303.2 315.2 326.5 335.3 346.1 355.6 359.9 360.3 362.4 369.8 378.4 368.9 361.4 355.5 351.4 348.6 346 343.9 339.4 337.2 335.4 339.4 344.5 347.2 348.1 349.5 351.7 356.4 362.9 368.7 357.1 344.4 331.5 320.8 310.7 299 284.8 273.8 263.6 253.8 245.9 230.6 229.2 234.9 239.3 249 260.5 273.9 292.5 299.4 306.1 315.5 320.8 326.1 331.1 337 342.4 347.6 353.2 361.7 374.9 385.8 393.8 392.6 387.5 378.8 375.3 373.5 372.5 374.7 381 393.1 404 408.2 411.7 415.1 417.2 419.8 422.9 425.7 428 430.4 433.4 435.4 437 436.1 437.6 438.4 435.6 431.4 427 427.4 426.3 429.5 435.3 436.5 433.5 429.4 423.5 417.5 411.8 407.5
146.7 147.5 147.7 149.9 150.5 152.1 153.2 154.2 153.3 152.9 152.9 154 155.4 156.9 158.9 162.1 164.7 167.8 169.2 172.5 174.9 175 177.7 178.5 180.9 181.8 182.4 186 191.5 190 190.6 198.2 205.9 209.3 207.4 206.9 198.7 190.4 185.8 185.3 187 198 212 221.4 208.9 202.8 219.6 240.5 252.6 255.1 255 256.7 243.5 250 265 277.3 291.8 302.9 311.9 319.2 329.5 339.9 356 368.1 378.8 382.7 382 379.1 375.7 376.2 375.5 371.9 367.3 361.9 351.7 347.2 342 339.5 339.8 343 346.2 351 354.5 355.7 355.6 351.4 342.9 331 324.7 320 316.2 314.2 312.6 313.2 311.3 309.5 307.4 307.6 297.6 307.4 322.1 332.5 337.8 344.5 352.1 357.8 360.8 366.6 368.7 363.5 358.6 352.3 347.8 343.4 341 340.5 337.4 333.5 330.4 337.3 340.5 343.5 344.2 345.8 349.1 351.4 352.4 351.6 346.2 337.8 327.1 317.8 308.6 292.1 282.6 274.6 264.1 255.2 246.2 230.6 229.7 237 239.7 250.6 260.3 272.9 290.3 303.6 315.2 327.6 339.8 344.6 343.5 346.9 354.2 364.3 378.8 391.8 398.6 398.3 396.8 394.2 390.2 384.1 379.7 377.4 376.4 377.2 382.9 390.1 401.9 407.6 410.3 412.7 414.8 416.9 420.6 424.2 426.5 427.6 429.7 431.6 434.5 434.4 434.7 436.4 434.5 429.8 427.6 423.1 422.4 421.7 425 431.3 429.8 426.4 421.7 417.6 412.8 408.5
146.8 148 143.8 149.5 150.6 152.2 153.6 154.1 154.3 153.9 154 154.6 155.6 158.1 159.9 162.7 165 167.9 170.5 172.6 174.5 176.4 179.2 180.5 182.2 183 182.8 186.9 192.2 194 191.6 193.3 202.6 207.6 209.4 212.2 206.6 194 187.9 184.9 186.7 196.5 207.7 208.1 200.6 204.5 220.2 235.6 251.8 254.6 257.7 259.3 253.1 248 266.8 280.4 295.8 304 311.5 320.4 329.7 342.9 354.9 366.7 377.7 378.9 374.3 369.9 369.3 369.9 371.3 367.2 363.9 357.1 348 344.3 339.1 337.9 339.4 343.5 349.8 355.7 359.4 361.3 362.1 356.4 345.8 333.9 327.8 322.7 318.3 315.6 314.8 315 317 310.9 305.8 301.5 294.9 310.1 321.4 328.2 334.6 339.9 346.4 355.3 357.9 359.9 360.4 359.4 357 351.7 347.2 339.6 336 336.5 335.3 328.3 330 335.4 337.5 338.3 339.7 343 345.5 347.4 347.2 343.3 338.6 331.4 322.6 313.4 299.3 287.8 280.3 272.4 263.8 255.5 245.7 233.1 229.3 236.4 239.3 252 260.5 271.6 287.4 305.7 317.5 332.4 348.7 360.7 366.2 369.5 381.1 390.2 395.6 397.2 397.5 398.5 397.7 395.9 390.9 386.7 382.4 380.5 379.2 379.4 382.5 387.4 395.3 403.9 407.2 409.9 412.3 414 418.2 421.8 425 426 426.9 428 428.7 432.9 432.8 432.8 433.7 429.9 426.5 423.3 418.6 417.9 415 417.4 422.2 421.7 419.9 417.3 412.3 408.1
144.4 147.4 142.8 149.4 150.8 152.3 153.4 154 155.2 155.2 155.9 156.5 157.7 159.5 161.5 164.1 166.9 167.1 169.7 172.4 173.7 176.2 177.9 180.5 182.7 183.3 182.9 186.3 191.7 194 196.5 192.2 197.6 204.9 208.3 211.6 210.6 203.3 192.1 185.4 187.7 190.8 196.6 194.8 194.9 204 222.4 233.9 247.2 251.5 255.6 257.7 255.5 251.7 264.5 281.9 291.3 302.1 311.3 320.4 330.4 343 354 366.5 376.9 374.2 367.3 363.2 361.1 360.9 365.3 361.9 358.2 352.1 343 339.7 335.7 335.2 338 343.3 350.9 357.9 360.9 363.5 362.9 357.6 348.3 338.6 332.9 327 321.5 317.2 315.3 314.3 313.3 308.2 303.9 298.7 295.8 299.2 298.6 324.5 333 338.2 345 352.6 353.7 354.7 356.8 356.2 354.1 350.7 345.2 338.4 332.3 331.6 330.8 327.3 329 332.9 334.8 334.9 335.9 337.6 340.6 341.1 340 334.8 330.3 323.6 313.5 300.9 292.1 284.1 276.2 269.6 262.4 255.1 243.4 234.3 228.4 235.2 241.4 252.6 260.5 270.7 287.4 304.7 317.8 333 349.4 361.6 370.5 377 382.5 388.9 393 396.2 397.2 397.5 396.6 394.6 392.5 389.6 386.1 384.7 383.7 381.1 382.3 385.3 390.4 397.9 402.8 405.6 408.2 411.4 414.4 418.4 421.3 422.9 424.7 426.3 426.2 428.6 431 430.3 428.7 429.1 425.2 421.5 418.5 412.8 410.7 409.3 412.6 416.8 414.7 407.8 409.4 405.2
145.9 147.3 146.8 149.4 150.6 151.9 152.4 154.2 155.7 156.6 157.6 158.4 159.3 161 163.3 164.9 167.1 168.4 170.2 172.5 175.2 176.5 178.2 180.1 182 183.1 183 184.8 190.2 192.8 196.7 193.1 193.3 201.6 206.6 209.2 209 202.6 191.9 185.4 187.7 189.9 190.1 196.2 209.1 205.1 220.3 235.7 241.9 246.8 251.5 254.5 254 250.6 261.9 280.4 294.3 303.3 311.5 319.2 329.8 343 351.8 366.7 372.9 368.2 360.2 355.1 350.9 353.3 357.7 355.6 351.6 346.5 337 334.2 331.2 331.1 335.2 343.3 350.6 358.2 362.7 364 363 359.2 350.4 342.7 336.8 330.9 324.4 318.2 315.7 311.9 312.4 306.5 302.6 301.9 301.1 283.7 299.7 322.5 332.6 337.5 341.9 349.3 350.4 350.5 352.6 352.9 351.1 347.5 341.7 335.7 328.8 327.8 329.1 324.2 327.3 328.8 332.7 332.1 333.1 332.6 328.8 328.3 324.7 322 318 311.7 303.8 298.6 291.7 283.9 276.4 268.9 262.8 253.8 241.6 233.5 227.9 235.1 242.8 251.4 260.4 271.5 286.6 302.6 317.5 330 345.8 357.9 367.1 374.8 379.9 384.5 389.3 395.2 396.6 395.6 394.2 392.2 390.1 387.4 383.1 382.2 382.2 382 381.6 383.3 387.4 392 397.4 400 403.9 408.1 411.8 414.4 418.7 423 423.4 424.4 423.3 424.4 429.5 427.9 425.8 424 423.9 420.5 415.4 411.6 405.9 403.6 401 399.3 396.7 394.3 390.8 390.8
145.6 146.5 148.4 149.2 150.2 152.4 153.4 154.4 155.7 156.4 158 158 160.7 162 165.2 167.1 168.4 169.2 171.2 173.3 175.5 177.5 179.6 181.1 181.6 182.5 182 182.5 188.1 191.8 195.1 190.5 190.2 198.4 203.4 206.5 207.2 204.1 190.9 186 187 187.9 191.3 201.8 219 210.5 222.6 231.1 237.8 241.8 250.8 257.4 259 251.6 259.3 274.4 291.3 302.2 310.2 318.9 329.1 340.2 350.7 364.5 366.9 362 353.4 347 342.2 342.5 346.1 347.4 344.2 339.8 330.8 327.8 325.7 327.9 332.6 340.6 349 358.4 365 367 366.3 363.3 357.1 347.2 341 333.9 327.3 321.7 318.1 315.9 314.8 308 293.8 294.9 304 286.3 294.2 318.2 332.5 336.6 340.1 345.6 346.7 347.3 348 349.1 347.6 343.9 339.2 333.7 326.8 324.2 326.6 317.8 327.2 325.7 330 330.2 326.4 326.5 326.3 322.3 318.9 314.9 312 308 303.4 297.7 292.3 285.1 276.7 269 262.5 252.6 240.6 233.5 229.9 236.4 243.9 251.3 260.9 269.3 284.2 301.7 318.2 327.1 340.4 354.2 364.1 371.2 375.3 380 387 393.6 393.9 393.1 391.7 389.7 387.7 384.9 381.6 380.9 381 380.9 380.7 381.6 384.6 387.5 390.7 394.1 397.7 402.3 407.6 411.7 415.5 421.5 420.7 421.3 420.8 420 424.8 425.7 423.6 420.8 417.4 417.2 413.9 409.2 404.4 397.7 396.6 394.5 392.8 386.4 388.3 382.1
145.4 145.4 147.9 148.5 149.5 151.9 153.6 154.7 155.8 156.2 158.2 160.5 161.5 162.7 164.2 166.2 168.5 169.9 171.1 172.4 174.8 177.1 178.9 180.7 181.6 180.8 181 181.5 186.5 190.1 190 187.4 186.9 195.5 199 203.4 204.2 202.2 194 184.4 186.3 186.3 189.1 199.3 212.6 215.4 219.9 225.1 235.6 246.3 253.2 259.2 260.3 254.6 255.4 277.4 290.5 299.8 308.4 315.8 325.9 338.7 348.8 358.9 359.9 354.9 346 338.7 329.6 333 336.4 337.5 336.1 332.7 325.1 322.2 317.9 323.8 330.2 337.9 348.9 358.8 364.4 369.5 369 365.9 360.1 351.5 344.5 334.4 328.9 324.4 321.2 319.8 318.1 315.3 300 287.7 300.5 284.6 291.2 312 331 335.8 339.8 343.6 344.4 344.8 344.9 345.4 343.7 340.4 335.3 328.6 324.2 317 321.7 313.6 327.2 327.5 326.1 327.7 326.5 323 322.2 321.8 316.7 312.4 306.6 302.3 299.1 295.6 292.2 286.4 276 268.4 261.3 251.1 238.3 230.8 225 236.5 244.6 251.3 260.6 267.5 279.4 301.7 322.5 328.3 338.9 349.1 358.6 365.4 371.2 376.1 382.3 389.1 390.1 390 389 387.2 385.2 382.7 380.2 379.7 380 379.7 379.7 380.6 381.5 383.5 386.3 389.1 392.1 396.3 401.7 406.9 412.2 420.2 418.9 417.9 417.8 416.5 417.4 422 421.6 418.7 414.9 411 408.7 406.9 401.2 394.3 385.6 384.5 382.8 379.5 377.8 373.4
147 141.7 147.3 148.5 150 151.4 152.9 154.4 155.6 156.9 159.1 160.4 162 163.4 164.8 166 167.9 169.3 170.8 172.2 174.4 176.1 177.8 179.8 180.8 180.4 180.2 180.6 184.1 187.7 186.5 184.8 185.1 191.3 196.4 199.5 200.1 198.6 192.1 182.9 184.6 184.7 188.1 198.1 213.7 222.9 219.2 224 230.2 238.4 251.8 258.4 259.8 254.5 250.4 270.7 285.6 297.2 304.2 312.6 321.1 334.4 344.8 352.1 352.3 346.7 337.2 329.1 322.9 322.8 325.8 328 327.5 324.6 319 309.5 314.8 321.2 327.7 336.6 351.2 361.1 366.6 370.3 371.2 367.9 361.6 354.6 347.1 337.8 330.1 326.9 324.6 323.4 321.8 317.7 300.6 285.7 289.5 279.3 290.4 310.9 328.5 336.2 339.4 342.2 342.2 342 341.9 342 339.8 336.1 331.5 324 319.9 311.1 310 322.1 327 327.4 323.4 321.5 322.1 322.3 319.9 316.7 314.6 312.2 308 302.8 297.2 291.8 289.8 286.1 275.7 268.5 257.5 245.8 235.3 229 224.7 237.4 244.4 251.7 259.4 265.7 274.4 295.3 320.4 329.6 337.7 345.2 353.1 360 366.5 371.3 378.3 383 386.5 387 385.9 383.9 382 379.8 378.3 378.1 378.5 378.5 379 378.7 379.8 381 382.6 384.6 387.8 391.8 395.8 401.1 410.8 415.7 416.8 415.5 415.2 413.9 412.7 415.5 418.8 416.7 412.8 407.4 404 400.2 395.9 391.3 384.4 377.9 373.4 374.4 372.8 366.2
146.8 142.4 147.3 148.3 151.1 152.8 154.4 154.7 156.4 157.4 159.3 160.2 162 163.2 164.5 165.7 167.5 169.1 171.1 172.1 173.8 175.2 176 179.9 180.4 180.4 180.3 180.2 182 184.7 185.2 183.4 183.8 188 193.3 195.6 196.4 193.2 191.7 183.8 183.6 183.1 189.7 197.4 209.9 229.7 228.6 230.6 229.4 236.4 249 257.9 260.1 255.1 249.6 260.1 273.4 286.2 298.5 310.7 317.2 329 339.3 344.4 342.9 336.9 326.4 319.4 314.5 313.1 317.7 319.7 318.5 316.9 311.3 302.6 312.7 319.9 326.5 338 355.5 365.7 370.6 373.1 374.2 370.6 362.5 355.9 347.1 337.8 331.9 328.4 327 326.3 323.9 317.3 298.3 285.1 272.8 273.1 285.9 317 334.3 337.7 339.8 341.3 340.9 339.3 338.9 338.2 335 331.3 327.9 322.1 315.2 304 314.8 323.8 325.6 325.6 324.2 323.6 322.2 318.3 312.1 314.2 310.4 309.2 305.3 301.6 298.1 292.1 287.3 284.3 278.1 269.4 252.4 244.6 236.3 229.3 224 234 239.8 249.7 256.2 263.8 270.7 288.8 313.5 330.5 341.2 343.5 349.2 354.9 358.6 364.3 368.6 374.6 379 382.5 381.7 379.7 378.2 377.2 376.4 375.6 376.6 377.4 377.7 375.7 378.1 379.4 380.2 381.7 384.4 387.8 391 394.7 400.9 412.9 415.6 413.5 413.2 411.8 409.9 409.3 412.9 413.6 411 406.9 401 396.2 391 386.2 379.9 375 369.8 360.9 355.8 357.1
147.2 147.1 146.5 148.4 151 153.7 155.6 156.3 157.5 159 158.6 159.4 160.3 162.3 164.2 165.6 167.5 169.5 170.9 172.2 173.7 174.4 175.5 178.4 179.6 178.9 180.2 179.7 180.7 184.1 185.5 182.9 182.1 186.4 190.7 192.9 194.4 191.6 194.4 186 182.3 182.3 187.1 195.9 209.8 225.9 229.5 233.4 234.1 233.4 244.9 257.8 261.7 257.8 250.2 250.8 260.5 273.7 294.3 307.1 313.3 321.6 330.5 334.2 331.5 325.3 315.7 311.3 308.9 304.8 311 311.5 311 307.7 303.1 301.5 311.1 318.2 327.8 344.4 360.3 370.5 374.5 377.1 376.7 370.6 362.2 355.4 345.3 335.9 331 328.3 327.5 326.6 324.3 309.5 290.4 278.1 269 275.7 298.5 324 337.3 339.8 341.6 342.8 341.8 339.5 337.8 335.1 331.4 328.1 324.6 319.4 313.4 300 310.7 320.1 322.4 323 322.8 322.8 321.9 320.1 316.3 312.3 304.6 301.3 299.4 293.5 290 283.4 278.2 278.2 266.8 262.2 262.6 251 236.9 234.9 224.6 222.5 232.2 239.1 251 260.6 267.7 282.4 305.3 327.4 340.7 337.9 333.3 332.3 334.8 336.5 340.2 355.2 365.1 372.5 375.1 374.7 373.6 373.9 373.2 371.4 372.6 374.6 374.7 374.6 376.6 377.9 378.5 378.8 380.8 382.6 386.9 389.3 394.3 403.3 413.8 413.8 411.4 410.5 407.8 405.1 405.3 407.7 408 405.2 400.7 394.6 388.5 384.1 376.5 370.3 365.6 361.2 352.9 346
145.8 146.9 146.8 147.3 150.3 153.2 154.5 155.8 157.3 157.5 158.7 159.4 160 161.5 163 164.6 166.5 169.6 171.1 171.9 172.4 173 174.6 177.6 179.5 178.6 179.6 178.9 180.4 182.5 182.8 182.6 180.4 183.8 187.9 191.3 195.1 193.9 190.9 187.2 181.1 180.6 184.3 194.3 217.2 226.6 230.6 234.6 235.8 232.5 241 254.7 263.1 259.8 253.4 250.4 251.7 263.9 285.1 301 308 313.8 321.6 322.6 320.9 313.6 306.6 302.7 293.3 304.8 303.7 303 302.3 299 290.6 303.1 310.5 321 333.4 353.4 366.3 375.6 378.7 380.3 378.6 372 359.5 350.6 341.4 331.9 326.5 324.1 324.2 323 324.3 305.7 289.9 275.8 263.8 293 316.9 334.7 339.2 340.6 342.4 344.8 343.3 341.4 340.3 339.3 335.7 330.2 326.3 321.6 312.9 304.2 303.9 312.1 316.7 320.3 321.4 320.9 320.7 319.5 316.8 312.7 308.5 305.2 302.2 298.1 295.6 294 287 280.4 276.6 272.7 265.3 254 238.1 236.5 234.9 225.8 219.2 219.5 238 257.6 265.7 277 292.5 311.2 322.9 320.5 312.6 312.1 314.2 317.7 322.9 325.8 334.2 345.1 356.5 364.3 366.9 367.1 365.9 363.9 365.2 368.5 372.4 372.2 374.9 376.1 376.4 376.9 378.1 377.9 381.3 385.5 388.2 394.4 404.4 413.9 412.4 409.1 405.1 402.4 401 400.2 401.8 401.4 398.7 394.3 388.1 382.1 375.8 367 362.1 356.1 352 346.1
145.5 146.8 146.9 147.4 149.8 152 153.6 154 156.5 155.3 158.4 159.4 159.7 161 161.7 163.2 165.1 168.3 170.4 171.7 173.2 173.9 174.5 176.4 178.8 179.1 178.8 178.5 181.7 182.3 183.2 182.2 179.9 180.9 185.2 188.9 194.3 195.7 189.1 182.1 180.4 179.3 181.8 192.9 214.7 228 234.6 237.5 236.2 231.7 235.2 244.1 251.8 252.6 246.4 253.1 251.2 256.8 277 295.1 301.4 304.9 311 308.5 308.1 301.1 296.9 291.1 294.4 299.5 297.2 295.9 295 288 292.8 302.7 316.9 330.2 345.9 356.4 370 379.7 382.2 383.6 380.7 371 356.6 347.2 335.9 327.2 320.3 316.9 320.3 314.5 320.9 309.9 293.1 276.7 266.1 288.6 313.9 335 340.6 340.3 342.5 346.1 346 342.7 342.5 341.8 337.1 330.4 325.4 319.8 312.4 305.5 293.5 306.6 312.2 318.2 319.8 319.6 319 318.1 315.9 312.8 308.6 304.1 300.7 295.4 291.7 289.1 285.6 280.4 275.8 271.4 265.9 255.5 240.6 238.7 238.1 238.6 233.2 219.2 226.7 253.2 264.1 271.5 278.8 291 298.3 297.3 298.1 298.9 300.8 304.1 307.7 311.8 315.7 321.3 327.1 339.3 348.3 353.6 355.3 355.2 357.3 360.9 364.2 368.2 371.9 374.2 374.8 374.6 374.7 373.4 379.4 382.9 384.6 386.4 393.2 402.5 408.3 408.6 405.8 400.2 395 394.2 393.3 394 393.7 390.7 386.8 381.3 374 366.3 360.6 355.3 350.2 344.7
140.3 146.9 146.6 147.9 149.6 151 150.9 153.5 155.7 157.1 157.8 158.9 159.9 160.7 161.5 162.8 164.2 166.4 169.6 171.2 172.9 174.4 175.7 175.6 177.7 179.5 178.9 178.8 179.8 181.9 181.4 182.4 179.3 179 181 185.4 191.1 192.9 186.8 186.1 179.1 178.8 181.4 193.6 213.5 230 237.2 239.3 237.9 229.7 230.5 234.3 237.3 239.8 239 253.4 251 249.7 270.7 286.3 294.2 295.7 295.6 295.8 291.5 290.2 286.3 275.5 294 289.5 287.8 285.6 283.7 278.6 295.7 304.5 318.7 331.3 339.7 361.5 375.8 381.5 384 385.5 381.5 368 351.5 342.6 331.5 323.8 314.4 305 314.6 304 304.7 297.2 287.8 276.2 267 288.6 315 335.5 341.5 339.2 339.6 345 348.4 347.6 343.1 342.3 337.5 329.4 323.8 318.8 312.9 305.1 293.4 302.7 308.6 315.1 317.9 318.8 317.9 316.2 314.9 312.3 308.8 304.3 300.4 295.6 289.8 283.6 278.8 275.2 270.2 265.8 259.1 251.7 244 241.1 239.9 240.5 236.9 221.5 225 253 261.6 267.8 272.8 277.8 282.7 283.1 285.4 289.2 291.5 294.7 296.8 299.9 302.9 306.6 309.2 313.9 322.9 329.6 337.7 342.4 347.3 351.5 356 363.8 368.5 372.4 374.3 373.5 371.5 370.9 371.3 372.6 379.1 382.4 384.8 389.2 393.5 400.8 402.9 399.9 396.2 388 386.7 384.8 384.4 383.6 382 379 374.1 366.5 358.8 352.9 347.1 342.2
143 147.3 147.8 148.6 149.4 149.5 151.9 154.2 156.1 156.5 157.4 158.1 159.6 160.5 161.7 163 164.4 166.3 169.2 171.1 172.9 174.3 175.6 176.7 178.1 179.5 178.9 178.2 178.3 179.2 179.8 179.8 178.8 178.2 178.7 179.2 181.5 183.4 183.1 184.7 177.8 178 181.5 197.6 214.8 228.9 233.7 237 237.5 230.9 226.4 227 228.7 233.2 244.9 252.8 244.2 246.3 263.5 277.1 284.6 279.7 284.9 282.7 282.3 279.6 268.7 282.4 282.4 282.7 275.6 271.7 270.2 283.9 293.4 303.8 315.1 337.1 351.8 368.8 377.4 382 384.2 385.8 380.5 361.7 347.1 337.5 327.7 320.8 310 294.6 303 291 295.8 285.4 274.4 256.5 273.6 294.1 321.9 335.9 341.4 337 334.8 339.3 341.3 341.5 341 339.9 336.5 328.9 322.1 317.1 310.7 302.9 294.3 296.9 305.2 311 315.6 317.5 317.7 315.8 313.6 311 307.4 304.1 299.3 295.6 292.2 289.2 284.8 279.9 274.7 269.1 264 254.9 248.4 242.8 240.8 240.8 242.2 222.4 235.5 253.3 259.8 264.4 268.1 271.8 274.9 276.6 280.4 282.7 285.3 288 289.4 291.4 294.4 295.8 298.6 299.7 303.2 308.9 315.8 323.1 333.4 338.1 350.1 358.4 365.7 370.5 373.9 374.3 373.4 369.8 367.2 364.8 369 376.1 378.4 379.9 381.5 383.6 385.2 391.4 392 389 383.6 373.7 374.2 374.6 374.3 373.2 370.7 365.9 358.1 350.9 345.2 339.4
146.3 147.3 147.8 148.4 148.1 149.4 151.6 153.9 155.3 156.5 157.7 158.7 159.7 161 161.5 163.1 164.6 166.7 169 170.8 172.6 173.6 174.5 176 177.8 179.4 179.5 178.6 177.7 177.6 178.2 178.3 178.5 178.1 178.9 181.8 178.5 176.6 178.2 184.6 176.6 176.4 182.1 199.1 217.1 223.5 227.8 232.3 235.6 237.6 230.7 223.7 224.2 230.6 240.3 246.6 242.3 238.2 248.1 263.4 275 265 271 267.3 268 267.7 271.2 280 275.6 271.8 267.1 267.3 278.8 286.6 294.5 303.9 318.8 340.5 360.4 369.9 377.1 381.7 384.2 384.9 377.1 355.8 342.8 333.5 323.6 318.4 310.3 299.2 283 278.7 292.4 279 262.1 266 294.5 310.4 327.6 331.8 336.7 332.5 330.3 332.5 334.9 333.7 336.4 335.3 334.2 327.9 319.3 314 308.1 299.5 291.2 291.3 299.9 305.6 313.2 316.6 317.7 315.8 313.6 311.2 308 304.2 300.5 296.8 293.3 290.4 285.8 281 275.7 270.1 264.1 258.8 252.5 245.1 240.5 239.1 236.3 214.4 236.6 237.7 250.2 260.4 263.7 266.9 268.8 271 274.1 276.3 278.4 281.6 283.3 284.4 287.1 289.3 290.5 292.3 294.5 296.6 301.4 307.4 315.5 329.1 342.8 355.2 363.3 367.8 373.5 375 374.2 372.7 371.3 368.1 361.5 365 368.3 372.1 372.5 371.7 371.1 370.5 369.7 371.7 372.8 364.5 359.6 362.7 364.9 364.9 364.5 362.2 357.2 350.5 344.3 338
146.2 147 147.5 147.5 146.3 148.6 151 153.4 155.9 155.5 157.1 158.7 159.8 160.4 160.7 161.9 163.9 165.9 167.7 170.3 171.9 172.9 173.3 174.8 176.6 179.2 179.3 178.5 177.4 176.8 177 177.5 178 179.7 181.5 182.8 186.8 184.4 175.8 175.8 175.8 176.3 185.4 204 221.6 222.1 223.9 228.4 233.3 241.9 239 230.5 220.4 225.9 236.1 242.4 244.3 236.6 233.9 242.5 255.7 253 258.3 259.5 259.1 254.2 269 268.2 268.6 260.2 263.5 272.4 280.9 288.8 296.1 306.7 325 346.6 361.8 370.8 377.8 381.9 384.5 383.5 372.7 350.6 338 329.1 320.2 314.7 310.1 306.9 287.4 270.2 279.5 273.5 254.6 272.3 296.8 311.1 323.8 324.8 329.2 329.4 326.3 326.5 329.5 327.2 329 331 331.5 326 317.6 311.1 306 297.9 289 283.4 294.7 302.3 310.3 316.1 317.3 316.5 314.5 311.1 308.2 304 301 297.5 293.8 290.3 285.6 281.6 276.2 270.3 264.8 259.4 253.9 248.2 239.4 237.8 238 217.4 214.7 216.8 239.2 251.8 260.4 264 266.3 267.3 269.6 270.7 273 274.2 275.9 279.1 280.8 282.3 283.5 285.3 287.2 289.8 293.2 297.2 303.1 311.5 326.6 346.5 358.6 364.2 372.4 375.7 375.6 374.3 372.2 370 365.9 355.7 348.9 361.4 363.1 363.6 362.1 360.1 356.7 353.9 351.7 350.2 344.7 351.3 353.3 354.5 357.4 355.8 353 348.5 342.6 336.3
145.5 146.5 147.1 146.5 144.4 147.7 150.2 153 153.7 154.5 156.4 157.6 159.7 159.9 160.1 161.1 162.4 164.5 166.6 169.9 170.8 171.8 171.9 173.4 175.5 177.9 178.5 178.5 177.1 177.4 177.5 177.7 178.1 179 181.4 183.2 187.3 190.8 177.8 175.8 175.8 179.8 191.8 213.3 220.5 221.2 221.4 224.6 231.5 238.4 239.6 233.6 220.9 221.2 229.4 237.2 241.5 243.7 237.5 232.4 238.2 238.7 247.2 252.7 249 252.3 256.2 254.9 253.6 255.8 267.7 275.5 282 290.6 297.9 310.6 331 351.2 364.3 372.7 378.5 382.4 385.5 382 368.6 346.7 332.7 324.3 316.2 309.2 305.9 303 287.9 268.8 264.3 270.6 249.4 265.3 280.5 302.5 308.8 314.7 321.4 326.3 322.2 320.9 323.3 321.8 321.4 323.7 327.8 323.7 316.2 308.5 303 297.3 289 280.4 289.8 297.6 304.5 313.2 316.6 316.3 314.7 312.3 308.6 305.2 302.1 298.4 294.6 290.8 286.8 282.7 277.1 272 266.2 259.3 251.9 243.5 237.3 236.8 244.7 249.2 246.8 212.1 242.4 253.3 258.7 261.4 263.4 262.9 264.7 266.2 268.5 269.7 270.9 272.8 275 276.2 277.5 279.7 278.7 283.7 286.4 290.1 294.3 299.8 308.5 318.3 331.4 345.8 364.4 374.7 377.1 376.1 372.5 370.3 366.5 360.6 349.5 342.4 342 350.7 352.3 350.1 347.3 344.8 340.1 337.9 330.9 337.8 345.6 346.2 348.6 348.7 346.9 344.2 339.3 326.6
141.1 145.2 145.5 145.5 143.4 146.8 149.5 152.5 152.5 153.4 154.8 157 159.1 159.9 159.6 160.3 161.3 163 165.1 166.7 169 169.9 170.5 171.7 174.4 177.4 177.6 177.4 177.3 177.6 177.4 177.7 179.1 178.8 179.9 182 184.8 186.8 180.3 175.8 175.8 186.5 205.3 214 217.5 218.6 219.8 222.4 230.5 236.5 239.1 234.7 222.5 216.6 223.6 234.4 237.2 239.7 236.8 232.3 233.6 246.9 246.8 240 238 239.2 239.2 240 250.8 262.8 271 277.1 283.4 291.1 299.6 312.9 335.7 353.8 365.7 372.6 379.1 383.1 384.9 379.7 363.9 342.8 329.4 320.5 313.3 305.7 299.8 296.9 292.6 279.7 262.8 259.1 250.5 258.6 270.2 293.6 300.3 307 310.6 318.9 320.3 316.2 317.4 317.4 316.4 318 321 321.2 314.4 306.7 299.9 294.8 287.3 275.4 283.6 288.8 296.3 309.8 316.1 316.1 315 312.8 309.4 306 303 298.8 294.6 289.6 285.9 281.4 276.7 272.1 265.4 256.2 245.8 236.5 234 236 246.8 242.7 225.4 217.5 250.3 254.7 256.5 257 258.4 254.7 258.2 261.2 263.8 266 266 266.2 267.3 270.9 270.9 274.4 275 277.7 278.7 283.6 287.9 292.2 299.1 305.2 313 322.4 336.3 351.9 369.2 376.5 375.5 371.7 368.6 361.9 355.7 347.9 341.6 335.3 337.5 339.3 335.5 334.2 331.6 327 319.1 323.6 325.9 333 335.9 336.8 337.3 334.7 330 315.3
140.6 143.9 143.9 143.7 141.2 145.5 148.5 150.9 151.9 152.6 152.7 154.9 157.6 159.2 159.1 159.5 160.2 161.4 164.2 165.4 166.6 167.7 168.5 169.6 173 176.9 177.2 177.7 177.3 176.5 176.9 177.1 178 178.1 178.4 179.6 181.8 181.8 175.8 175.8 175.8 186.7 202.7 208.3 213.4 215.9 219.3 220.4 227.2 234.6 237.4 235.3 225.3 213.4 218.5 227.2 234.5 233.1 232.2 240.1 245.6 253.4 242.4 230.8 224.2 238.8 246.9 252.4 261.9 268.3 272.5 278.4 284.6 292.4 301.7 317.5 338.2 355.7 366.5 373.7 378.8 382.8 384 376.5 357.3 337.8 326.4 316.7 310.4 301.6 287.8 284.3 293.3 285.5 274.8 261.6 246.5 259.6 275.3 294.8 301 303.9 304.3 307.1 316.2 308.8 309.2 313.6 312.7 312.4 315.3 317.6 312 305 297 292.1 285.8 278.5 276.3 281.8 287.5 299.1 311 315.1 314.5 313 310.2 307 303.7 299.6 294.4 289.9 284.2 278.9 274 269.1 262.3 258.9 252 231.7 230.5 235.8 245.7 210 218.2 245.5 253.3 253.4 253.3 252.8 253.2 250.6 247.5 255.4 258.7 258.6 257.9 257.9 259.5 263 265.1 265.2 268.7 271 273.4 278.5 282.4 286.5 291 297.2 303.5 310.2 318.7 327.2 344.9 364.3 374.6 374.4 370.7 364.1 354.9 349.5 345.2 339.6 334.9 328 327.3 324.1 320.5 317.3 310.4 309.6 310.4 313.5 318.6 318.9 316.2 314.8 315 307
142.2 140.4 142.5 142.4 142.3 145.5 147.7 148.7 151 151.4 152.2 153.3 155.6 157.5 156.6 157.8 158.9 161.1 162.5 164.3 163.8 163.7 164.5 167.5 171.3 175.6 177 177.3 176.6 175.6 176.3 176.5 176.7 175.8 175.8 175.8 175.8 175.8 175.8 175.8 175.8 183.1 197.7 206.4 211.6 215.9 218.3 220.4 223.7 232.2 235.5 234.8 227 212.4 213.9 223.1 229.7 224.8 232.6 237 239.3 245.1 237.4 225.9 222.7 237.8 246.2 256.3 265.4 270.2 273 278.2 286.3 293.5 303.3 320.4 340.3 356.5 367.1 373.8 378.2 381.3 380.3 371.2 350.8 336.5 327.1 314 307.3 295 281.9 269.3 278.6 285.5 277.1 259.4 243.8 263.6 281.4 291.4 295.9 299.2 300.1 302 307.3 304.1 303.2 307.6 306 306.1 309.2 312.3 309.1 302.1 295.4 289.3 282.9 276.2 268.7 278 282.5 287.5 299.8 311.6 312.7 312 310.8 307.8 304.4 300.2 295.3 290.7 286 280.4 277.1 273.5 270.6 266 253 229.9 225.1 230.9 224.9 213.6 243.3 251.6 251.8 250.8 248.8 248.2 248 246.1 241.4 248.4 252.2 251.8 251.1 252.2 253.8 257 258.6 258.8 260.8 261.2 269.9 274 277.5 282 287.6 292.2 297.4 303.6 309.8 317.6 326.4 335.9 354.8 366.5 369.2 358.1 350.4 349.7 347.3 343.2 337.8 332.5 327.5 322.1 317.1 310.6 304.2 297.8 298.1 300.9 303.7 308.2 302.9 308.6 301.5 292.4
140.8 141.8 141.1 140.4 142.5 144.4 146 148.7 147.8 150.1 151 152.2 153.7 155.2 155.8 156.4 157 157.8 159.1 161.2 160.9 159.6 162.4 165.3 168.8 174.3 176.7 176.6 175.5 175.1 175.9 176.4 178.8 175.8 175.8 175.8 175.8 175.8 175.8 175.8 175.8 181.2 194.5 204.7 212.6 216.6 218.1 218.6 218.6 227.4 232.7 233.2 228 216.1 210.2 217.4 221.9 220 228.4 232.9 234 236.8 230.3 221.4 225.1 227.1 235 251.2 262.9 271.7 277.1 282 287.7 295 305.4 322.7 342.9 356.7 365.9 373.2 377.2 378.4 375.5 363.7 343.8 329.5 321.1 310.2 304.4 297 283 267.9 258.8 266.4 272.9 251.9 248.3 259.8 268.7 282.6 290.8 293.9 294.3 300.1 301.4 299.2 298.1 297.2 300.2 300.2 302.7 305.9 305.5 299.8 293.3 286.9 281.1 273.2 267.7 275.5 279.2 281.8 288.1 301.3 309.5 310.5 309.8 308.3 305.5 301.8 297.2 292.6 289.2 285.3 281.6 279.3 275.4 270.2 258.7 234.1 205.4 207.5 207.8 230.1 245.9 247.1 246.8 246.1 244.1 243 243.2 242.7 236.7 243.9 247 247.3 247.3 243.3 248.7 248.7 250.4 250 249.8 258.8 264.5 269.6 273.7 278.4 282.9 287.1 292.3 297.7 304.2 311.4 317.3 325.2 334.6 345.6 350.9 346.5 343.3 342.2 345.2 344.3 340.8 335 331 325 321.4 314.2 307.5 299.2 285.6 278.6 289.3 291.6 291.9 287.6 285.9 276.2
139.3 140.6 141.3 141.7 142.2 141.8 144.8 146 148.6 149.2 150.5 151.8 152.4 153.7 154.2 153.9 154.6 156.3 156.4 157.7 158.8 158.4 159.2 162.3 168.2 172.7 175.4 175.4 173.5 174.7 174.8 176.9 177 175.8 175.8 178.4 176.1 175.8 175.8 175.8 175.8 175.8 187.7 204.8 215.4 219.3 217.9 216.7 217.5 221.9 229.3 230.7 226.5 218.4 206.9 211.8 212.6 217.7 224.8 227.8 227.3 229 217.8 223.7 228.2 226.6 228.6 246.1 257.9 269.2 277.4 282.8 289 296.4 306.7 323.3 343.2 355 363.5 370.6 372.9 374 372.6 356.2 336.8 327.3 316 306.7 299.1 295.1 291.2 272.1 261.7 254.8 253 243.6 249.6 256 260.2 272.1 281.8 283.6 289.7 296.3 303.9 298.2 293.5 292.3 294.7 293.3 295.8 301.1 300.5 297 290.3 284.3 279.3 272.5 265.7 272.6 275.5 277.9 283.3 293.8 304.9 308.1 308 307.4 305.9 303.4 299.5 295.4 292.2 288.3 285.4 282.7 278 271.4 261 239.3 205.1 217.2 227.5 231.3 233.4 234.5 235.3 236.3 236.9 235.9 233.7 222.3 231.9 236.2 239.4 239.5 240.9 236.6 237 237.5 240.5 243 245.7 253.7 260.4 266.7 269.9 273.8 278.2 283.9 288 292.1 297.3 303.8 311.1 318.1 322.9 328.5 333.8 337.2 336.4 334 334.5 339.3 340.8 337.5 333.1 327.8 320.8 315.4 307 297.3 290.2 280.1 273.4 278.6 277.6 278.6 274.6 271.7
137.5 138.8 138.5 139.6 139.1 142.5 143.3 144.9 145.2 148.4 150 151.5 152.1 152.3 149.8 151.1 152.6 154.4 154.3 156 157.5 156.9 160.3 164.4 168 170.6 173.2 173.4 172.3 173.8 174.3 176.6 177.2 178.2 178 177.4 176 175.8 175.8 175.8 175.8 175.8 181.1 201.5 215.3 219.7 217.3 215.2 215.7 216.3 222.9 226.2 222.5 216.6 205.7 206.6 211.6 215.9 219.8 217.2 214.3 213.9 212.2 222.8 222.1 220.5 232.4 247.7 261.5 273 278 283 289.7 297.5 307.6 321.8 339.3 348.4 356.3 363 368.3 370.6 366.9 346.6 329.8 319 310.8 302 292.7 286.9 288.1 277.9 268.9 259.4 245.1 238.4 246 252.7 256.6 263.7 275.8 279 285.1 293 302.5 297.4 291.9 288.4 287.2 286.5 290.1 293.3 297.5 293.6 287.3 281 276.2 269.8 260.3 268.6 272.2 273.5 276.4 286.9 297.6 303.9 305.3 306.1 305.3 303.9 300.9 297.6 294.6 290.6 286.8 281.6 267.9 254.4 242.2 225.3 209.2 214.7 224.2 225.8 225.5 224.7 224.5 226.2 227.1 210.3 213.4 214 215.2 218 225.4 222.5 218.7 220.8 221.7 222.8 226.6 233.6 239.8 244.3 252.5 259.8 264.6 269.1 272.5 278.2 282.9 287.2 293.4 298.4 303.2 308.8 314.9 320.2 324.4 327.7 325.2 323.5 321.2 321.9 328 333.9 329.7 323.3 311.6 304.3 296.3 289.7 281.8 276.4 265.5 261.5 262.7 263.1 264.8 265.4
136.8 137.2 136.2 137.1 140.1 141.5 142.2 144.1 145.1 147.2 149 150.6 150.8 150.5 150.5 150.9 151.7 152.2 152.4 153.7 154.2 157.6 158.9 161.9 164.8 167.2 170.7 170.3 171.8 172.2 173.6 176.1 177.4 177.2 177.6 178.5 178 175.8 177.4 179.2 175.8 175.8 175.8 194 210.9 217.1 215.5 213.7 213.5 212.6 216.2 218.7 218.7 215.7 205.8 205.7 210.7 214.6 214.8 206.5 205.8 218.5 211.3 214.7 218.4 235.5 250.6 260.9 266.8 273.5 278.3 282 289.4 297.5 306.8 321.9 333.6 341 350.1 359.6 363.9 364.1 358 340.7 323.9 313.4 306.3 296.5 286.1 272.5 268 280.1 279.3 257.4 239.7 240 251.7 255.3 258.4 255 268.9 275.7 282.7 292.3 300.7 295.9 289.3 286.8 286.9 283.1 283.3 288.5 288 288.6 283.1 278.2 273.2 267 258 264.7 268.3 268.5 269.2 275.7 289.8 298.2 302.5 304.5 304.9 303.5 301.5 298.6 295 289.9 280.8 267.4 251.6 239.7 230.6 215.3 201.4 210.1 221.8 222.9 217.2 209 210.9 212.6 210.9 212.1 215.3 228.4 216.9 216.1 220.3 220.6 226.2 228.3 233 228.9 229.7 230.6 234.7 235.3 234.5 233.4 251.1 259.5 265.8 272.4 279.3 284.6 289.2 293.5 298 302 305.6 312 316.1 318.1 315.2 313.8 311.5 309 307.7 307.5 304.7 298.2 287.3 278.3 272.5 269.4 266 264 261.4 262 262.8 263.6 262.6 265.5
135.7 135.9 131.5 139.1 142.3 139.9 141.5 142.9 144.2 145.7 147.2 149 150.2 148 144.9 150.1 150.9 151 150.8 152.9 155.7 156.8 157.4 158.4 160.8 162.9 167.4 167.9 169.2 171.8 172.9 174.9 177.5 176.6 177.1 178.2 179.1 177.5 177.8 179.8 176.8 175.8 175.8 187.8 204.4 214.8 213.2 212 210.5 210.8 211 212.8 213.9 213.2 204.8 205.3 210.4 212.9 209 199.5 220 224 213.5 216.4 226.5 249.5 259.2 261.7 262.3 262.7 272.5 282.6 288.5 295.8 310.3 325.9 337.5 343.3 353.2 360.5 364 359.9 349.6 332.5 320.6 309.2 302.5 292.9 279.7 265 252.2 253.4 257.8 241.7 231.3 243.8 258.5 265.8 264.4 252.7 264.7 275 283.2 291.6 298.6 292.5 287.3 285.4 285.1 278.5 277.6 278.8 278.5 278.4 277.6 274.5 269.8 264.4 255 259.4 266.6 263.3 265.2 267.8 276.2 291.9 298.7 302.7 303.3 303.2 301.5 298.3 291.7 278.1 262.5 249.3 237.2 225.3 212.8 199.4 203.6 207.7 204 205.2 218.2 210.5 208.6 210 211.6 214.8 227.7 230.8 231 225.7 231.3 235.3 245 243.5 247.7 250 242.6 244.8 246.1 245 247.1 243.5 229.8 240.6 254.3 266.2 272.1 277.9 285.6 289.4 293.2 297.3 300.4 305.1 308 308.7 307.9 305.7 303.4 300.3 296.2 292.7 287.4 279.2 254 256 257.7 257.1 258.8 260.5 269.1 273.2 275.2 273.4 265.9 267.5
134.5 131.7 137.4 140.8 137.3 139.1 139.8 141.1 143.3 144.6 146 147.8 149.3 149.5 147.9 148.1 149.1 147.1 152.1 153.8 155.5 156.7 155.4 156 157.6 161.4 164.5 166.8 169.8 171.2 172 173.8 175.6 176.4 176.6 177.8 179.2 179.1 176 179.3 177.1 175.8 175.8 180.3 199.4 210.5 210.3 209.4 208.6 208.6 208.2 208.4 208.9 208.9 200.2 203.1 208.4 206.7 200.4 202.4 220.3 226.8 215.9 218.8 229.6 245.9 252.7 254.2 252.6 267 273.2 279.5 287.1 297.5 312.7 325.3 332.4 339.5 350 359.2 363.6 356.3 338 326.5 315.8 305.4 299.2 291 280.1 263 250.8 240.3 244.9 231.7 235.5 248.7 261 266.2 265 247.7 255.4 278.7 290.2 298.8 295.5 292 286.3 284.4 282.5 278 272.6 274.3 272.8 271.4 270.4 269.4 267 260.2 251.4 257.2 255.8 257.1 258.5 263.2 275 287.1 294.1 299.6 302.1 302 300 293.7 277 262 248.5 236.3 220.9 197.8 200.6 204.8 212.7 219.6 219.4 221.8 224.1 222 220.9 220.5 225.4 231.5 223.1 230.3 234.7 236.4 238.8 246 252.4 254.7 257.4 260.5 255 253 253.7 251.5 257.3 256.5 250.9 237.4 232.8 251.8 267.7 275.9 281.5 286.5 290.2 293.3 296.2 299.4 300.9 302 300.1 298.6 295.2 292.3 287.4 278.6 272.8 253.2 255.3 264.3 271.5 273.4 275.6 277 285 284.2 284.9 285.3 285.2 289.1
132.2 130.9 138.2 139.2 138.6 136.4 138.2 139.8 141.5 144.6 144.6 146.3 147.6 148.3 147.9 141.5 145.1 148.8 151.5 153 154.5 157.4 156.4 155.4 159.7 162.7 165.5 168.2 169.2 170.9 171.4 173 174.6 175.7 175.9 176.9 178.6 178.3 175.8 176.6 176.6 175.8 175.8 175.8 191.1 202.2 204.9 206.7 205.7 206.9 206.4 204.9 203.5 203 195.3 202.8 203.2 197.9 195.6 209.1 213.4 218.7 225.1 215.7 226.8 237.5 243 243.3 249.4 258 259.1 272.1 284.7 297.9 309.1 321.5 328.8 336.7 344.3 354.2 358.7 351 334.8 322.7 311.7 301.2 293.8 286.7 274.8 264.3 252.9 244.1 231.2 226.3 240.8 248.9 259.6 261.2 257.8 244.3 254 283.1 293.2 300.9 297.4 291.7 284.7 282.3 283.4 280.9 274.1 270 272 267.3 265.1 264.3 260.2 257.6 249.9 247 248.3 249.4 253.1 259 271.4 283.3 292.8 294.9 300.8 300.5 296.1 282.9 263.7 250.2 238.1 222.1 203.8 198.6 201.4 212.8 219.6 225.9 229.3 230.6 231.7 231.9 239.6 239.5 239.8 237.4 240 240.1 239.4 242.8 247.1 248.9 251.9 257.2 264.4 269.8 267.8 261.9 263.5 265 264.8 267.7 264.7 259.5 244.8 232.9 253.8 271.2 277.6 283.5 287.2 290.2 292.6 295 297.2 297 294.2 291.7 287.9 282.5 276 267.7 256.1 254.9 263 277.8 280.9 284.8 293.4 300.8 300.8 297.4 294 291.2 294.5 300.3
132.5 137.4 138.9 138.6 138.1 136.1 136.8 138.7 140.5 142.7 143.5 145.2 146 146.5 146.2 138.6 144.5 147.9 150.9 152.8 155.3 157.4 156.7 153 157.9 161.2 163.9 168.1 169.6 169.5 170.7 170.9 173.1 174.8 175.4 177.3 179.1 178.1 175.8 175.8 175.8 175.8 175.8 175.8 181.3 193.7 201.4 203.6 203.5 203.7 203.9 202.9 200.8 195.9 197.8 201.9 195.2 192.9 195.9 200.4 202.3 207 212.3 214.1 219 221.8 225.8 230.1 241.5 251.6 262 275.6 287.6 300.3 315.4 326.1 330.8 335.8 343.4 354.3 355.3 347.5 331.7 319.1 308.2 297.7 289.7 274.2 259.5 253.6 253.5 249.6 236.4 227.4 239.7 248.1 255.4 253.2 243 245.5 274.2 289.3 292.7 299 298.8 294.2 287.8 280.8 278.2 276.4 272.2 266.5 267 265 259.5 257.3 255.4 254.1 252.7 250.8 243.7 241.2 246.5 253.7 268.3 281.7 289.4 293.5 296.1 296.1 287.9 269 254.6 248.6 220.1 202 198.4 199.2 203.9 218.5 226.7 234.7 240.3 240.9 239.2 247.3 248.9 247.9 248.6 246.6 245.5 248.1 244.8 250.3 255.6 258.1 259.9 263.3 268 277.6 278.7 275.6 273.2 273.5 274.4 273.3 274.6 275 265.3 248.4 234.4 257.6 272.4 278.9 283.1 286.7 288.7 290.7 292.8 292.4 289.3 285.4 282.3 272.3 260.5 251.3 253.7 254.8 277.4 287.4 292 303 317.7 318.1 315 309 305.8 303 305.2 311.3
135.1 137 138.1 138.1 137.6 131.6 134.6 138.2 139.2 141.9 142.9 144.3 144.9 145.4 145.5 140.1 140.9 144.7 149.2 151.4 154.7 155.9 155.1 154.8 155.4 158.4 161.6 166.6 169 167 169.9 172 172.5 174.3 175.7 176.6 177.7 175.8 175.8 176 175.8 175.8 175.8 175.8 175.8 183 191.6 201 202.1 200 201.4 201.1 199.9 190.7 198 199.7 188.3 191.5 200.1 207.3 214.8 215.4 218.2 217.7 215.6 218.9 222.9 227.4 238.5 250.5 266.9 279.7 291.3 304.6 317.1 321.1 326.2 334.4 345.9 355.3 354 344.1 329.4 314.2 303.3 294.5 286.6 276.8 264.7 255.1 239 241.9 239.5 222.6 237.5 245.5 252.2 241.4 235.5 253.3 277.1 288.4 291.2 296.2 297 293 288 282.6 282.9 280 275.5 269.8 268.5 265.2 264.9 264.2 264.9 262.3 260.1 255.6 251.7 246.9 241 250.2 260.1 273.5 283.9 289.5 287.9 283.1 269 258.1 251.5 239.3 212.2 197.6 196.3 202.3 216.6 226.5 237.2 241.2 246 249.8 253.2 258.3 257 255 256.8 253.9 250.7 249.8 252.8 257.7 263.7 267.8 270 272.3 274.6 283.7 289.5 287.4 283.5 282.8 282.6 282.3 284.9 287.1 279.5 263.4 251.2 238.2 260.4 272.9 278 282.2 284.5 286.2 287.3 286.9 284.8 278.6 271.5 254.9 250.9 258.7 267.8 270.3 283.9 292.6 305.7 324.5 329 327.7 324 317.7 312.1 310.5 312.3 316.1
132.7 134.1 135.5 135.8 135.7 131 136.1 136.7 138.5 140.5 143.7 143.3 143.9 144.4 144 133.3 146 147.9 148.8 150.6 153 155.3 156.2 155.7 151 155.5 158.3 162.6 165.5 166.7 170.6 171.6 172.1 173.4 175.7 175.7 176.2 176.2 178.5 175.8 177 175.8 175.8 175.8 175.8 175.8 183 196 198.7 196.8 198.5 199.2 197.7 187.3 196.9 195.4 185.9 197.1 208 214.4 219.3 223.3 227.4 227.6 219.3 220.5 221.8 226.4 235 256.5 274 281.1 287.7 302.6 306.7 319.2 325.2 333.7 346.7 357.2 351.1 338.9 322.1 309.7 300.1 290.2 284.7 279.7 274.8 263.9 250.9 237.2 225.8 221.4 234.7 240.8 245.5 234.5 236.1 261.3 275.6 285.1 287.6 293.2 296.6 293.7 289.2 286.2 288.2 284.8 279.4 278.3 277.4 273.4 273.2 270.8 268 264.1 261.4 257.8 253.3 246.3 236.4 247 253.9 265.5 272.7 275.1 268.6 259.8 254.8 248.7 240.5 229.3 207.6 194.3 203.7 214.9 223.6 236.8 243.9 249.2 254.6 260 264.3 267.1 265.9 265.4 264.5 260.2 259.1 259.5 260.5 263.4 270.4 276.4 280.3 282.2 284.6 289.6 296.5 298 292.1 288.9 291.4 293.9 296.8 296.6 291.1 273.5 265.7 248.8 240.3 259.1 269.3 276.2 278.3 280.2 280.8 280.9 280.2 274.8 253.1 250.5 260.8 267.6 273.9 280.4 286.9 302.2 316.8 334 336.2 334.3 331.3 325.1 318.6 316.5 317.6 319.8
128.6 129.6 130.7 131.7 131.8 130.4 135.5 137.1 138 139.9 141.4 142.2 142.9 142.8 138.8 128.7 145.2 146.8 147.8 149.8 151.9 155.2 157.1 156.4 154.1 151 154.1 154.5 160.7 167.3 169.7 170.9 172.6 173.9 175.7 175.7 175.5 175.3 175.1 177.1 179.3 178.3 175.8 175.8 175.8 175.8 175.8 188.8 195.7 188.4 196.7 197.9 196.1 185.5 189.4 189.8 184.6 193.7 206.2 214.6 220.4 224.8 228.6 229.1 227.6 220.7 220.2 221.7 241.5 267.3 278.7 288.5 299.4 309.2 314.4 322.2 328.9 337.9 347.2 351.3 342.6 328.2 314.6 305 295.2 287.5 282.1 277.3 274.1 268.3 260.1 244.3 234.5 222 225.8 231 239.8 229.8 241.1 264 273.4 282.3 284.5 289.3 294.8 293.6 290 290.8 293.2 287.8 283.4 285.6 284.2 280.3 277.6 271.8 268.6 265.3 261.2 258.1 253.4 245.7 235.6 243.7 250.4 256.5 261.6 259.2 254.9 250.6 246.9 236.4 227.1 214.1 196 200.4 212.8 227.2 235.2 239.3 248.6 255.3 261.7 267 271.9 274.3 275.2 274.4 271.7 268.8 265.9 266.7 265 273.4 277.6 284.9 288.6 291.7 296 299.1 303.9 307.8 301.8 300.3 297.8 304.3 308.3 306.5 299 286.8 279.5 270.6 255.9 241.4 253.7 261.3 267 270.2 271.9 272.2 273 256.4 249.5 259 266.3 274.2 280.1 285.5 292.4 306.9 322.3 339.1 344.1 342 339 333.4 327.4 325.6 323.6 327.3
122.5 125 126.4 127.3 126.8 130.6 133.5 135.4 136.5 138.6 139.4 140.7 140.5 140.6 134.9 132.2 143.1 144.1 146.7 148.6 151.1 152.9 155.4 155.4 153 146.8 153.8 157 161.3 166.6 168.8 171 172.2 173.5 174.9 175 174.8 174.2 174.4 175.3 178.5 179.8 178.6 175.8 175.8 175.8 175.8 177.6 191.2 182.4 191 197.1 196.3 189.6 183.3 180.2 183.5 192.2 203.2 211.9 218.6 223.3 227.3 229.2 230.8 219.1 218.9 225.1 248.4 266.3 279.2 289.8 302.7 311.5 317.5 324.4 332.3 338 343.5 343 332.8 318.3 307.9 298.1 290.3 284.2 278.7 275 270.5 261.5 264.2 262.2 250.3 232 219.3 221.7 233.3 227.4 242 262.4 270.9 277.9 279.5 284.9 290.9 292.3 290.3 292 294.9 291.7 289.8 291.6 288.7 285.8 279.8 273.4 268.7 264.8 260.8 256.6 251.2 245.6 232.6 242.3 248.6 253 255.9 251.7 247.6 243 236.2 228.7 219 196.4 195.7 209.8 226.4 232 240.7 249.8 255.1 261.5 267.3 273.4 278.4 280.9 282.1 281.9 277.9 276.3 274.4 275.4 272.6 281 286.5 293.4 298 301.6 304.7 309.5 313 315.5 313.6 312.6 311.1 310.3 315.4 315.1 307.2 300.1 296.7 287.6 274.4 255.9 245.7 243.5 250.9 254.3 255.4 257.7 251.9 248.5 256.6 265 271.7 279.7 285.1 292.6 298.3 308.4 324.4 342.5 350.8 349.6 346.6 341.9 336.3 333.3 330.8 334.4
116 116.9 120.3 123 121.7 128.1 130.5 133 133.5 138.1 138.2 139.3 139.1 139.3 132 134.7 140.9 143.9 145.5 147.1 148.7 151.5 154 153.5 150.9 143 150.2 158.4 162.7 165.6 168.5 170.6 171.7 173 174.1 174.2 173.2 173.5 173.6 174 175.5 178.1 179.7 178.8 179.1 175.8 175.8 175.8 178.3 183.1 191.3 196.9 195.9 194 188.2 178.1 183 190.5 197.1 206.9 213.7 220.3 225.6 229.2 230.8 218.4 218.7 226.4 252.8 269.7 279.9 291.4 304.5 311.7 316.8 325 331.3 335.8 338.8 333.8 322.9 312 301.9 292.6 286.1 280.9 276.6 273 269.7 261.1 251.4 258.3 254.4 240.8 233.7 217.5 228.6 223.6 242.7 261 268.2 273.2 275.3 280.6 286.5 290.5 289.1 290.7 295.3 295.2 296.4 297.7 293.8 291.4 280.9 272.8 267.9 263.9 259.5 254.7 249 245 234.7 242.2 248.7 252.5 253 244 235.1 232.5 228.8 224.1 214.9 192.5 201.7 223.4 235.6 239.6 244.8 253.4 261.7 266.1 272.7 279.7 284.5 286.4 288 287.9 284.6 284.6 283.2 283.8 283.1 287.3 295.2 300.4 306.9 312.3 315.5 319.6 323.5 326 326 325.2 324 323.1 321.6 319.1 320.5 310 307.3 301.7 290.1 281 270.2 260 254.2 245 247.5 246.9 250.6 252.5 261.6 270.1 277.5 285.9 290.3 297.2 300.8 311 323.9 341.4 356 355.3 353.7 349.7 344.5 340.8 339 342.2
114.7 115.5 117.2 118.2 119.6 123.4 126.1 128.8 131.3 134.7 134.5 136.3 138.4 136.4 128.9 136.7 139.6 142 143.6 144.7 145.2 149 152.2 152 148.8 141.6 150.3 155.4 158.8 162.7 166.3 169.4 171 172.1 172.8 172.6 172.3 172.9 173 173.4 174.3 174.8 177.9 177.8 179.4 175.8 175.8 175.8 175.8 177 186.8 189.8 193 191.9 183 175.8 186.2 198.5 200.8 203.8 212.3 218.6 223.4 229 228.9 217.3 219.6 228.6 249.2 265 278.1 291.7 302.1 309.7 317 325.4 331.4 334.1 332.6 325.1 314.5 305.5 296.1 287.5 282.7 277.5 273.9 270.7 267.5 264 255.5 239.1 250.6 237.8 229.8 216.9 229.8 225.6 235.8 258.4 265.8 268.5 271.2 276.9 282.7 285.6 285.7 287.1 291.7 295 298.5 301.7 298.3 296.5 283.5 273.2 267.4 263 258.5 253.3 246.8 242.4 228.6 240.9 247.8 250.3 248.8 236.1 226.5 224 221.5 216 200 196.8 211.2 231.5 242.3 248.4 253.3 258.4 266 273.1 276.3 282.3 288.5 291.6 293.8 294.2 291.8 292.4 291.2 291.3 291.4 297 302 309.3 315.7 321.7 326 329.9 333.7 335.5 335.2 335.6 334.1 334.3 333.2 331.9 328.8 324.1 318.6 314.2 312.6 305.8 294 284.4 279.4 278.7 274.7 269.9 265.4 252.1 267.5 282.8 286.5 290.5 295.6 301.7 306.4 314 324 337 356 361.5 359.7 356.1 352 346.2 345.9 346.4
