ncols 200
nrows 82
xllcorner 300000
yllcorner 352750
cellsize 50
448.9 447.4 444.4 443.9 443.8 441.8 445 447.4 448 450.4 452.9 455.3 457.6 459.6 459.5 458.5 457.1 455.7 454.5 454 454.2 454.4 454.6 454 450.1 444.2 439.3 433.2 426.5 420.5 414.9 411.2 407.4 401.1 395.9 396.9 397.8 399.5 402.2 401.8 397.7 389.1 381.6 378.8 377.2 377.9 377.9 377.8 377 376.4 378.5 382.3 384.2 384 384.6 387.7 391 391.9 390.9 390.4 391.8 391.7 390.8 388.6 385.1 380.9 374.5 367.1 358.9 352.5 347.3 342.6 336.9 330 322.9 316.1 308.7 301.5 293.6 283.6 270 255.6 245.4 235.4 229.2 214 208.4 212.2 214.8 218.2 220.3 224.9 227.7 232.1 237.4 244.5 249.3 257.4 269.1 276 277.4 279.8 277.4 274.2 266 256.4 247.8 239.6 229.2 223.9 218 207.9 214.3 223 231.7 246.5 263.8 276.3 280 279.2 277 270.5 263.6 259.1 252.4 243.5 238.3 240 249.6 261.8 273.7 279.1 283.3 283.9 281 278.7 278.6 278 278.5 281 283.3 277.8 270.4 261.6 251.7 244.3 236.4 225.5 216.8 209.5 212.8 215.6 206.4 197.8 193.6 186 179 173.6 166.4 157.7 151.5 146.9 143.3 136.4 132.2 142.7 166.4 182.7 205.2 227.1 239.6 227.8 233.9 240.6 236.8 235.6 222 215.3 216.3 215.3 214.9 216.6 218.9 220.6 220.4 218 214.6 213.1 210.3 209.4 208.2 208 204.4 197.1 181.8 190.4 190.1 187.1 190.4 193.8
448.6 448.4 447.2 446 444.8 445.7 449.8 451.9 452.8 457.1 459.4 461.7 463.6 463.3 462.2 462 460.6 459.4 458.4 456.8 456 456.3 456 452.9 448.1 442.7 436.4 430.9 424.2 418.4 415.1 410.2 405.7 401.4 399.5 399.9 401 403.5 403.7 401.3 397.5 391.9 384.6 380.4 381.5 381.6 381.7 382.5 381.8 379.9 382.1 388.6 389.4 388.1 390.3 389.5 391.9 392.7 391.8 391.6 392 392.9 389.6 385.2 379.3 372.6 366.7 359.9 353.9 348.6 342.6 338.2 331 323.4 316.2 310 303.9 296.9 289.8 281.1 268.3 250.4 238.7 228.2 215.4 210.2 214.7 218.9 222.9 229.3 228.5 230.5 233.1 238.2 244.1 256.3 263.7 272.7 279.9 283.2 287.1 289.2 289.1 279.8 271.5 258.8 249.2 241.8 233.1 224.6 219.6 208.6 213.9 220.7 228 238.8 259.1 275.6 280.2 281.1 278.1 271.8 267.8 262 253.2 245 243.1 246.7 256.9 269.6 280.8 288.7 292.6 291.5 290.4 288.4 287.5 286.5 284.4 282.5 278.4 271.4 261.9 251.6 244 233.4 223.5 217.4 221.2 223.4 223.3 221.7 212.8 204.8 197.1 189.7 180 173.8 165.1 157.3 151.5 147.3 142.3 136.7 133 147.7 163.5 179 200.4 219.6 237.2 230.8 223.2 228.1 229.6 228.5 215.4 211.9 213.6 208.8 208.4 211.1 213.3 214 213.4 209.7 209.1 208.6 206.6 206.1 205.1 204.9 200.8 195.3 185.8 194.1 191.5 190.7 192.1 192.5
450.9 450.1 448.8 446.4 445.6 447 451.2 455.1 459.4 464.7 466.8 468.6 468.3 466.5 465 465 464 462.4 461 459.6 458 457.6 455 450.7 445.6 440.3 433.8 428.1 421.3 414.2 417.8 413.5 408.3 403.7 400.7 400 401 401.9 401.6 400 396.5 392.2 385.7 382.3 384.4 385.9 386.6 386.8 385.9 384.2 385.8 391.8 391.5 393.5 394.6 390.4 392.8 394 393 390.8 390.4 388 384.1 377.9 372 365.1 360.2 355.3 348.7 342.4 337.5 332 324.5 317.1 310.5 303.8 297.9 290.3 281.8 271.9 256.9 243.4 228.5 215.5 214.9 224.9 228.3 232.6 238.4 236.7 234.6 236.9 240.6 245.9 252.5 265.5 277.4 284.5 288.2 291.5 294.9 298.6 294.3 285 274.6 261.2 250.9 241.3 231.5 224.6 220.2 210 214.3 219.2 224.6 233.1 255.4 274.8 277.6 277.1 273 269.8 268 260.2 253.9 249.1 248.4 256.7 267.3 281.1 291.2 295.5 298.8 299.6 298.2 294.9 292.5 289.9 285.6 279 271.2 262.8 253.6 242.6 239.6 235.6 229.8 225.6 226.8 228.9 232.1 225.6 217.1 209.3 196.2 189.6 182.7 175.9 165.4 158.2 153.1 149.9 142.7 143.2 135.2 148.7 162.5 178.4 195.3 220.6 231.2 230.1 217.7 220 220.1 219.9 210 208.6 207.8 203.9 204 205.4 207.2 207.6 206.9 203.7 205 204.7 203.6 202.2 199.7 198.2 195.9 192.3 193.4 196.7 192.2 191.4 190.9 189.6
450.9 450.8 447.3 446.1 446.1 447.8 454 461.4 467.1 471.2 473.2 473.6 472.6 470.8 470.2 468.8 466.6 464.2 463.6 462.2 460.7 457.5 453.1 448.3 442.6 437 431.3 426.2 424.4 423.6 421 416 410.7 404.8 400.1 399 399.6 400.6 400.3 397.5 393.4 390.2 384.9 385.8 387.4 388.9 390.5 390.7 390.2 389 390.1 394.8 396.4 395.6 395.9 391.7 390.9 392.5 389.4 387 383.5 380.5 375.7 370.2 364.5 358.8 353.7 347.7 342 336.9 330.6 323.8 316.4 310.9 303.7 296.5 286.7 275.6 263 251.3 239.5 230 214.7 217.8 228.5 239.3 244.9 246.9 244.4 242.3 241.8 244 248.5 256.1 267.1 279 287.6 294.2 296.1 297.6 299.3 299 294.7 285.8 275.4 264.6 254.7 242.9 232 224.1 217.6 211.6 212.9 218.3 222.5 229.6 250.2 267.7 281.1 278.8 274.7 271.5 267.9 262.8 257.3 254 258.8 267.9 276.3 288.3 297.9 301 305.6 306.7 302.1 298.3 294.1 285.9 279.4 273.2 266.9 254.2 257.5 257.4 256.1 251.3 243.7 238.1 232.9 235.6 241 230.9 221.1 211.6 204 194.1 186.7 176.5 171.7 162.5 155.7 151.1 145.4 148.5 136.2 151.7 164.8 176.6 197.7 215.8 223 218 211.5 213.7 211.7 209.2 206.2 205 203.5 201.7 201.4 202.3 203.2 202.2 201.2 201.1 200.5 200.3 199.1 197.1 194.9 192.6 190.2 191.1 195.5 197.1 192.3 190.9 189.2 186.1
448.6 447.2 446.4 447.3 448.8 452.9 463.3 470.1 474.2 476.5 478 477.6 476.8 474.9 473.6 471.5 468.7 465.8 465.4 463.5 460.4 456.1 450.3 444.2 438.3 432.3 432.7 431.6 430.5 427.1 422.5 417.4 410.6 402.7 399.3 399 399.3 398.9 396.6 394.1 390 387.7 386.6 389.3 391.2 392.9 393.8 393.2 394 393.3 394 397.5 397.8 396.9 395.2 390.2 388 386.4 383.9 382.2 379.4 373.9 369.4 364 358.1 352.1 346.3 338.9 333.6 327.4 322.2 314.2 307.1 298.8 286.6 274.6 263.1 252.2 240.1 232.7 224.4 215.7 224.2 234.7 241.8 253.4 251 248.5 247.3 247.6 249.1 252.4 258.7 271.8 281.3 292.3 296.8 301.1 301.4 301.9 300.4 299 293.8 285.3 276.2 266.4 255.2 246 231.8 221.5 214.7 214.3 214.8 217.1 221.3 229 243.8 262.7 274.5 279 277.8 273.7 269.2 264.9 262.3 264.5 270.5 278.3 286.1 292.4 298.9 303.6 305.9 304.3 300.8 296.3 288.6 281.5 275.5 269.9 262.6 261.3 264.2 268 263.4 257.5 251.6 247.4 240 242.1 243.1 232.5 222.3 213.6 203.1 196.2 189 181.7 177.3 170.7 160.3 152.2 150.3 149.9 136.6 150.1 162.6 173 195.7 211.8 219.3 214.9 209.2 207.2 206.8 205.6 204.4 204.3 202.9 201.9 201 201 202.2 202.5 199.3 198.4 198 196.7 194.4 192.4 191 190 191.5 192.8 197.2 196.4 193.3 189.5 189.7 188.2
441.9 444.2 447.4 449.8 454.3 461.5 470.5 476.5 478.5 480.1 481.3 480.4 479.3 477.9 476 473.5 470.8 468 465.9 463.3 459 453.6 446.2 440.6 436.1 437.4 437.1 435.8 433.3 429.2 423.1 416.1 407.4 403.5 399.5 396.4 396.5 394.7 391.9 389.6 387.8 386.6 387.4 390.7 393.5 395.6 396 394.6 395.7 395.8 397.4 400.6 398.3 395.6 389 387 386.5 384.4 380.6 377.7 373.8 367.8 362.5 356.8 350.1 344.5 336.2 330.2 324.4 315.4 307.5 293.8 284.6 273.3 263 252.8 241.5 229.5 225.7 221.6 223.4 229.8 237.2 244.1 251.2 253.8 253 252.8 253.5 253.3 256.8 262 271.7 285.4 295 301.7 303.4 302.9 305 305.1 303.2 297 290.3 283.4 274.6 264.8 256.2 246 233.5 221.8 217.5 220.8 221.2 219.9 221 227.7 236.9 258.9 268.5 273.2 275.6 272 270 270.1 271.7 274.9 279.6 289.3 294.2 298.2 299.8 301.3 301 299.5 296.5 291.8 286.1 278.5 273.1 267.8 263.2 268.2 269.7 275.4 268.4 264.7 259.7 255.1 246.6 248.1 241.2 233.8 224.6 213.1 203.8 197.3 191.2 185.5 180.3 174.4 166.5 155.1 156.4 149.9 138.9 150.5 162.6 172.1 198.4 212.1 209 210.6 207.7 206.3 207.3 208.6 208.3 207.1 204.8 202.2 202.5 204 205.8 202 198.9 197.9 195 195.4 192.1 190.9 189.8 192.5 193.6 193.4 195.7 194.1 193.3 192.5 191.2 190.3
439.3 443.7 449.7 454.8 461.9 469.6 477.2 480.3 482.3 482.9 482.5 481.5 480.6 479.1 476.5 474 471.1 468.1 465.1 462.5 457.1 449.9 444.5 441.2 442 440.6 438.7 436.5 433.5 427.1 421.1 414.3 406.6 403.9 399.3 394.8 392.3 390.9 388.4 387.1 386.7 386.2 388.5 391.7 395.6 397 395.9 395.4 398.9 398.6 399.2 400.7 397.3 390.2 384.1 386.3 385.7 379.1 373.6 368.2 365.3 360.1 353.9 347.6 340.8 333 326.5 318.6 308 297.1 283.1 271.5 260.8 251.8 245 234.5 224.9 225.1 223 224.8 235.7 239.2 244.8 250 254.3 256.1 256.9 259.9 263.1 260.3 265.8 273.3 284.1 296.9 301.2 303.4 304.9 303.8 306 304.4 299.5 293.1 286.8 279.5 272.3 264.2 255.4 244.1 231.2 220.3 227.7 227.8 231.2 231.7 225.2 226.6 231.8 248.4 260.8 266.4 270.5 272.7 275.1 277.8 280.2 284.4 289.8 295.9 301.7 304.6 304.4 303.1 301.1 298.1 293.6 289.3 281.4 275 271 263.1 269.2 273.9 280 279.6 275 273 265.8 260.7 253 246.7 241.3 233.2 224.6 215.2 203.7 196.5 190.3 184.9 181.1 171 161.7 161.8 161.8 152.1 139 150.3 161.9 171.9 197.6 208.6 208.5 208.3 208.2 210.7 214.4 215.9 215.9 213.3 208.8 205.1 205.3 208.9 206.5 199.5 196.2 195.9 194.4 194.4 192.9 192.7 193.7 196.2 195.3 194.6 195 195.5 194.9 194.4 194 192.5
443.1 450.5 455 458.7 468.5 476.6 482.4 483.9 485.5 485.2 483.9 482.7 481 478.5 476.1 473.5 470.2 467.3 464.2 459.4 453.9 448.2 446.3 446.8 447.4 446.9 439.6 438.3 432.2 425.1 418.1 411.8 407.8 403 397.9 394.3 392.9 390.6 388.1 386.3 385.3 385.7 388.9 392.4 395.4 396.2 393.8 396.3 399.2 400.1 394.3 397.8 391.3 380.4 379.5 380.1 378.4 369 362.2 357.4 355.2 349.4 342.4 334.5 327.4 320.9 311.4 300.1 284.6 273.4 260.9 251.3 242.4 236.1 229.1 227 229.1 236.1 235.3 237.3 241.4 244.9 248.3 252.6 257.5 260.9 265.6 272.8 271 269.8 278.7 286.3 299.1 303.1 305.5 306.9 307.4 308.6 308.1 303.2 296.7 289.9 283.2 276.6 267.6 260.8 249 239.4 228.6 228.3 235.1 238.3 240.9 244 240 234.9 234.9 241.5 253.6 261.3 271.3 275.9 281.5 282.8 286.3 289.4 294.2 301.7 309.2 308.9 307.6 305.4 300.9 296.6 292.5 285.2 278.2 272.6 268.4 267.3 271.9 279.5 287.9 286.6 284.8 277 271.6 265.5 258.4 248.6 239.5 231.3 224.8 216.2 202.1 195.2 188.3 178.6 169.7 169.4 170.2 167.1 162.2 155.1 140.6 145.6 159.2 165.9 191.3 205.2 208.1 213.5 215.5 218.8 220.6 221.8 220 217.9 211.9 206.7 204.6 203 202.5 198.2 195.3 195.7 197.7 198.8 195.9 194.9 198.1 199.1 196.7 195.9 196.8 198.2 197 196.6 195.4 194
450.9 456.9 460.3 464.5 475.3 482.9 486 487.4 488.2 487 485.4 482.4 479.9 477.9 475.7 472.5 469 466.2 462.9 457.3 450.5 449.7 449.8 449.7 449.7 448.6 442.7 436.6 430.5 423.1 417 412.9 408.1 402.9 399.1 397.2 396.9 394.4 391.2 388 385.2 384.1 386.1 390.4 393.5 392.5 389.9 389.7 391.6 395.5 389.1 391.7 378.4 371.1 369.6 373.1 367.3 357.5 350.3 348 343.7 336.6 328.9 321.5 313.5 304 288.8 274.2 264.6 254.9 246 233.1 231.1 231.8 237.6 240.6 243.7 246.1 247.6 246.9 248.3 250.1 253.4 258.2 264.5 268.6 276.9 285 279.5 287.3 296.3 300.3 306.5 309.3 309.5 310.9 312.4 313.6 309.4 301.1 293.6 286.8 281.3 275.5 266.4 254.7 244.3 231.9 226 235.5 238.5 242.6 247.9 251.6 251.6 245.5 243.8 240.5 253 261.3 270.3 277.5 282.6 288.4 291.7 295.9 299.2 303.4 306.9 307.6 307.4 303 300.1 295.3 289.7 283.6 275.4 271.1 266.7 268.8 274.9 282.8 289.1 291.4 288.1 282.4 273.6 266.8 258.3 247.9 236.9 227.2 220.1 214 199.6 193.3 181.5 176.7 180.4 181.9 182.5 174.6 165.2 156.7 141.4 143.7 153.7 163.1 184.6 202.2 219.8 222.5 219.6 222.3 222.7 222.6 222.1 218.6 214.1 209.7 205.2 201.6 199.2 197.1 196.3 200.3 202.6 201.9 197.5 197.5 201.2 200.4 198.1 198.4 200 201.2 200.3 199.5 198 196.3
458.1 460.8 463.5 471.1 481.1 486.4 488.7 490.3 490.1 487.9 485.9 481.6 478.6 475.6 473.4 470.2 467 464 459.7 454.2 453.6 451.3 450.9 450.9 449.9 446.2 440.4 434.4 428.3 422.6 418 414.1 408.3 404.3 401.8 400.6 399.8 397.3 393.3 389.8 386.3 381.6 383 386.4 388.1 386.7 385.4 385.5 387.5 386 381.3 379.9 375.3 365.3 360.5 354.5 351.6 344 340.6 335.9 330.6 321.5 314.3 305.6 294.8 280.9 268 257.8 250 236.3 235.7 235 241.2 244.5 246.5 248.8 253.2 257.1 259.9 260.1 258.1 259.1 261.9 265.4 272.8 282 291.6 295.6 290 297.3 304.8 308.3 312.4 313.7 314.5 316.4 317 313.1 303.7 297.7 289.4 282.7 276.7 267.4 257.6 244.9 236.5 229.8 230.8 237.9 243.9 248.3 252.6 260.1 263.9 263.7 261.3 244.2 253.7 262.6 272.5 280.4 287.9 294.7 297.8 301.9 307.3 311.8 310.4 308.1 305.1 303 298 292.1 286.1 280.7 274.4 274.4 271.2 270.4 275.6 281.3 289.8 291.3 289.3 281.3 274.1 266.1 255.9 246.5 231.7 223.8 215.3 206.8 196.2 187.9 189.3 188.7 187.6 186.1 186 178.6 167.7 161.3 147.5 143.7 153.5 161.9 179 204.6 217.5 217.8 222.2 225.2 224.6 223.2 220.3 215.1 212.9 211.1 208.6 204.1 199.8 197.9 198.8 205.6 206.2 202.5 200.5 200.7 202.6 200.9 200.9 201 202 204.3 202.5 201.6 200.3 198.7
457.5 460.7 467.6 475.1 484.6 490.3 491.1 492.1 492.7 488.5 486.3 480.9 477.4 472.9 470.1 467.5 464.6 461.9 458.3 459.2 458.4 454.6 452.2 450.8 446.7 443.2 438.4 432.9 427.7 423.2 418.7 413.5 408.5 406.7 405.2 404.1 402.8 399.4 395.5 391.5 388.3 385.1 379.7 381.1 380.9 379.6 378.5 380.3 379.6 377.3 372.4 369.1 367.3 355.9 350.8 345.1 341.7 336.1 327.2 320.5 314.2 306.8 295.8 282.6 271.5 261.4 252.1 244 238.1 236.7 237.7 245.4 249.4 253.7 257.8 263 266.4 268.2 271.3 273.2 271.9 271.5 273.6 276.8 281 290 300.8 302.6 295.9 305.8 314.5 316.1 317.8 319.4 320.6 320.4 312.4 306.2 302.2 293.8 285.6 277.3 266.3 259.2 248.2 238.6 231.3 231.8 235.8 240.9 250 254.2 259.3 271.1 274.4 273.8 266.8 250.3 256.3 268.5 278.2 291.1 297.9 303.9 309.9 314.6 316.1 313.2 311.5 307.8 303.9 300.7 294.4 289.1 284.5 284 283.7 280.5 274.3 273.6 277.6 284 288.6 287.4 286.8 280.3 272.4 265.6 253.3 241.3 230 218.8 207.3 196.9 193.6 192.9 194.3 193.4 191.7 189.7 189.2 182.7 172.6 167 154.4 142.9 152.8 162.3 173.4 187.9 209.8 212.5 218.5 225.6 225.5 222.2 218 213.1 210.7 208.1 206.9 205.7 200.4 199.9 201.8 207.1 209.6 202.2 201.4 202.4 203.2 202.3 202.8 203 207.5 207.3 205 203.4 201.5 199.9
456.1 461.6 468.9 477.2 485.9 494.3 494.2 494.8 494.5 490.5 485.5 480.1 475.5 470.2 466.3 465.1 463.1 461.2 460.5 460.9 459.8 455.5 451.2 447.5 443.7 440.2 435.8 431.2 427.2 422.6 419.7 415 413.1 411.2 410.3 408.7 404.2 399.9 396.1 392.4 390.2 388.3 386 377.2 374.1 373.6 372.8 372.4 370.8 366.4 363.2 359.1 356.3 352.5 343.2 335.2 327.3 321.5 310.3 305.9 296 285.6 274.7 266.4 256.6 248.4 242.2 240 237.8 246.7 251.2 255.1 262.2 270.8 275.1 277.6 278.3 280.1 282.6 282.7 282.1 283.4 286.3 291.3 293.7 298.3 305.7 303.2 304.7 314.7 321.5 323 323.9 324 325.1 318.8 310.2 304.2 295.6 288.4 278.4 268.4 260.6 252.2 239.8 237.6 240.6 240.8 240.6 251.9 255.8 260 268.1 284.2 284.8 277.3 270.6 252.8 262.4 278.9 294.9 304.5 309.3 312.5 320.3 321.4 320.4 316.4 312.6 309.5 302.8 298.3 294 290 293 294.1 290.5 284.9 279.1 276.9 281.3 284.1 285.8 282.7 279.9 274.8 267.6 258.2 248.3 236.5 220.2 207.7 204.1 202.4 199 198.3 200.5 196.9 193.4 189.8 187.4 182.5 177.4 171.7 159.6 143.7 150.2 160.7 170.2 178.4 201.4 208.1 219.9 224.3 225.4 223.5 218.5 213.6 211.7 205.9 203.6 202.9 202.8 201.7 201.7 204.3 205.4 204.8 204.5 205.6 205.5 205.1 205.2 206.7 211.8 210.2 207.7 206.1 200.3 194.6
457.6 465.6 474.1 481.6 489.5 496.4 497.1 497.8 495.7 491.5 485 479.2 473.4 467.9 465.4 464.6 463 462.9 462.4 460.3 457.4 452.3 446.8 443.6 441.3 438 434.9 430.9 427.3 424.5 421.8 417.9 416.3 415.3 414.8 408.4 403.7 399.3 396.6 392.2 390.6 387.4 383 375.9 369.1 364.4 364.1 361.4 357.2 355.5 353.7 352.4 353.4 350.2 337.9 326.2 317.4 311 302.5 288.6 279.7 271.7 264.6 257.9 249.6 243 241.4 241.6 249.6 256 261.5 269.8 281.3 284.5 285.6 287.8 289.8 292.9 295 294.2 295.7 297.3 299.1 301.2 305.5 308 307.8 304.4 313 316.5 323.8 325.6 327.7 327.1 323.4 315.3 305.9 299.3 293 282.7 275.2 264.4 256.5 247.3 241.4 245.4 248 252.4 243.9 255.1 260.1 267.4 275.1 289.6 287.8 278.9 271.9 258.3 271.1 289.3 303.2 309 314.3 317.8 321 322.9 322.2 319.6 317.1 307.9 302 299 296.1 299.2 302 300.2 294.1 287 284.1 285.5 286.4 286 284.5 280.7 274.4 268.9 261.7 250.5 239.5 223.9 216.7 215.2 211.2 206.5 204 201.7 203.1 199.5 194.5 190.6 186.7 181.2 176.5 170.4 158.2 144.6 146.1 158.1 169 177.8 195.5 203.3 213.7 223.5 225 224.5 220.3 219.3 214.2 207.1 206.9 208.3 208.3 208 206.1 206.6 209.6 209.4 209.2 209.4 208.8 209.1 209.4 210.2 211.6 212.7 211.4 209.1 202.9 195.5
462.6 470.3 479.3 486.5 494.7 497.9 498.5 499.3 496.4 491.3 483.2 476.3 471.6 467.3 466.2 466 464.2 464.1 461.2 457.9 453.3 446.9 443.2 441.1 440 438 434.3 430.3 427.6 424.8 422.3 420.1 418.3 417.4 411.9 406.1 402.5 399.1 396.7 391.9 389 385.9 378.3 373.2 367.7 363.2 358.3 356.7 353.3 351 349 349.4 348.7 343.6 331.4 321.4 312 303.1 292.6 280.7 273.5 266.1 261 255.8 245.6 244.2 247.1 253.1 259.1 268.9 277.7 289.7 296.5 297.4 298.7 301.4 303.7 304.2 305 305.2 307.3 309.2 309.7 311.1 314 315.8 311.1 309.5 314.7 319.2 324.6 328.7 328.8 325.4 319.5 312.3 303.2 294.7 288.8 278.5 269.5 262 253.8 243.7 250.8 255.1 260.3 262 250.3 260 263.8 270.9 280.4 296 289.7 281.4 270.3 260.8 278.2 293.8 307.4 311.8 324 329.1 328 328.8 328.9 322.2 315 308 303.7 301.4 301.8 306.3 306.3 300.8 294.1 292.9 292.5 292.6 291.5 289.1 284.6 280.6 272.5 264.5 256.7 242.3 230.2 225.9 230.4 226.5 220.5 212 207.7 204.7 202.9 199.4 193.7 190.3 186.5 181.4 179.2 171.9 166.4 152.4 146 156.6 166.1 177.8 190.5 195 207.1 218.9 225.9 223.8 224.4 218 214.8 211.6 211.9 215 215.7 214.4 213 209.9 213.9 215 215.8 214.8 213 213 212.9 215.3 216.4 216 214 211.8 207.3 198.7
468.7 476.3 485.6 492.8 497.6 498.2 497.8 496.5 493.4 486.9 481.4 476.3 471.6 470.1 468.7 467.7 464.2 463 458.4 453.7 447.7 443.5 441.6 441.4 440.3 436.6 433.4 430 426.9 424.9 422.3 420.9 419.8 414.8 410.7 406.4 401.3 397.7 395 389.4 386.2 380.9 375 365.1 360.7 349.7 350.9 350.2 350.1 348.5 347.1 345 342.9 337.4 330 318.1 310.1 292.5 281.7 276.7 272.4 267.4 261.2 254.1 246.6 248.3 256.7 267.6 273.1 282.1 293.5 301.7 308.2 309.6 312.4 313.7 314.8 315.9 317.4 320.3 321.7 321.8 322.7 323.3 323.3 319.5 313.6 313.1 316 321.7 327 328.7 326.5 321.7 315.3 308.2 299.4 290.6 283.9 273.4 263.5 258.9 250.7 247.9 256.8 261.1 269 264 253.4 264 267.5 273.5 283.4 296.4 292.1 283.3 268.9 269.1 285.5 300 307.2 317 327.3 336.6 333.3 335.4 331.9 323.1 315.8 309.4 306 304 306.8 307.7 305 300.4 298 298.1 297.8 296.8 295.2 291.7 287.3 280.8 266.5 255.7 241.8 231.3 236 237.1 238.5 237.7 234.6 223.5 213.2 206.2 201.5 197.4 194.8 192.6 188.2 183.2 182.3 174 167.3 154 146.3 150.5 164.2 176.1 184.1 188.6 204.5 214.9 222.8 222.7 223.5 222.4 219.5 216.2 215.9 218.3 222.2 221 218.4 215.5 218.9 221 220.9 218.2 218.3 219.2 221.7 222.1 223.1 221.1 216.7 214.9 210.2 201.4
474.2 484.6 490.3 496.5 499.8 500.6 499.2 496.9 492.1 487.2 482.5 477.8 475.2 473.8 471.8 468.8 464.1 461.1 456.1 450.6 445.7 442.9 442.1 441.3 439 435.3 432.1 428.7 425.9 424 422.6 419.6 417.4 411.9 408.3 403.6 399 395.5 391.5 385.7 380.6 375.5 364.5 355 352.1 345.1 341 345.1 346.4 347.5 346.3 342.2 337.2 330 326 316.1 300.2 285.2 278.1 275.4 271.8 266.5 257.3 248 250.6 258.1 266 282.3 287.5 294.6 302.9 311.3 314.5 318.1 320.5 322.3 323.4 324.4 327 330.2 332.3 332.4 333 334.2 329 321.8 320.5 321 321.4 324.6 325.5 326 324.2 320.8 312.5 303.9 296.4 286.3 276.5 266.6 261 256.2 248.1 254.5 261.8 268.6 270.2 269.5 262.2 265.8 270.2 275.1 284 297.1 292.6 284.1 270.1 271.3 288.6 310.5 319.5 321.6 325.5 336.2 333.7 334.1 330.4 326.5 320 313 309 308.7 308.7 307.4 305.2 304.6 304.6 305.3 305.8 302.3 298.2 294 285.4 274.3 259.9 247.4 245.9 247 248.9 250 252.8 253.2 245.5 237.3 225.1 213.1 203.5 197.1 194.9 192.9 186.5 181.9 179.7 173.2 165.6 158.6 148.6 147.9 162.6 171.5 180.2 186.1 199.7 212.7 222.9 225.4 226.6 225.7 224.7 221.9 221.9 224.1 226.7 227.2 223.9 223.6 226.6 226.2 224.2 221.2 223.5 227.1 228.6 229.8 229.2 225.4 220.9 215.1 207.5 203.2
482.7 490.8 496.2 499.9 502.1 502.8 499.7 496.8 489.9 486 482.9 479.8 477.5 476.2 473.1 469.4 463.5 458.9 453.2 447.6 444.6 443.7 442.4 440.7 437 433.2 430.5 427.5 425.3 423 421.9 418.2 414.1 410.2 404.8 400 396.7 392.3 388.6 381.7 375.1 366.9 357.7 347.2 344.2 329.8 320.5 333.1 338 343 342 337.5 329.2 322.8 317.5 305.3 292.2 279.5 275.6 273.5 268.6 262.6 250.8 253.4 262.5 273.8 285.7 293.7 301.5 308.3 313.3 317.5 322 324 327 329.4 331.6 332.9 336.5 339 341.7 343.2 340.7 336 332 331.9 331.9 331.4 329 326.1 324.7 323.1 321.2 316.3 309.3 299.4 287.8 275.9 267.8 262.2 257.3 252.5 251.6 259.3 265.2 271.9 277 275.5 270.9 268.7 273.2 277.9 288.4 296.8 293.1 286.5 272.3 270.1 289.6 314.6 325.3 331.8 330.3 331.1 330.5 330.9 329.1 328.2 323.8 317.4 314.5 313.4 311.9 310.3 310.1 311.9 312.4 311.7 309.7 306.8 301.4 288.2 287.1 268.6 254.3 247.1 259.1 262.6 263.4 264.4 266.4 267.5 255.4 245.3 235.1 221.5 209.3 197.8 190.6 190.8 185.7 180.4 176.4 172.7 166.2 158.8 153.1 149.9 160.8 171.5 183.2 186.4 198.2 211.3 224.3 228.9 232.6 230.4 229.7 227.8 229.4 230.6 232.7 232 230.5 231.5 231.9 230.8 225 225.5 228.8 232.8 235.9 237.7 234.8 230 225.2 218.5 213.4 208.6
488.8 496.1 501 502.9 503.3 503.8 501.8 494.8 490 487.6 485.1 483.5 480.9 478.2 474.5 470.7 463.7 456 450.5 447 445.3 444 442.4 438.1 434.2 430.6 427 424.9 423.3 422.1 419.1 416.4 412.9 408 400.3 397.7 395.7 390.8 385.3 376.7 368.4 359.7 350.1 341.8 340.7 327.5 309.7 320.3 325.6 329.5 331.1 326.7 322 315.7 302.3 294 283.1 273.7 272.5 270 263.3 252.8 252.1 264.1 275.8 287.2 296.4 306.9 312.7 316.8 321.8 325.6 328.4 331.4 333.3 336.9 338.6 339.4 341.4 343.5 345 343.6 340.7 338.4 337.5 337.8 339.6 339.7 336.7 330.7 327.3 321.7 315.7 311.4 302.9 290.5 278.7 270.2 263.6 259.1 254.9 253.9 257.8 263.4 270.8 276.8 280.8 279.8 276 268.7 277.1 281.2 291.4 296.3 296.2 290.3 276.6 274.5 284.1 308.9 323.1 332.9 335.6 334.9 334.8 333.8 331.7 330 328 324.9 320.8 318.5 317.2 319.2 321.4 320.6 319.6 316.6 312.3 308.7 300.8 288.8 277 264 255 254.7 266.3 276.6 277.9 278.9 279.7 275.8 265.7 255.3 243 229.8 214.5 199.7 190.6 186.3 182.9 179.3 175.6 171 162.6 159.6 156.9 150.1 164.8 174.8 183.2 190.7 199.7 214 227.4 234.6 240.3 237 238.1 234.6 237.7 237.9 238.4 237.1 237.3 235.3 234.1 230.6 228 229.9 232.6 238.7 242.1 242.9 239.1 234.4 228.8 222.8 217.8 211
496.6 500.2 506.7 507.7 506.3 505.2 500.3 494.5 492.4 488.5 487.3 484.1 481.6 478.8 474.6 469.6 461.1 453.4 450.5 447.8 446 443.6 440.7 436.5 431.7 427.4 424.8 423.5 422.1 420.1 417.4 412.9 410.4 407 399.8 396.8 394.7 390.2 383.3 371.8 360.5 351.2 342 333.1 324.8 315.9 306.7 298.2 307.2 313.8 309.7 309.4 306.4 299 291.8 280.8 269.2 264.1 263.4 262.2 255.1 253.3 266.4 280.4 290.1 309.7 317.7 321.2 326.6 331 329.9 332 334.9 337.8 340.5 343.2 343.6 343.7 345.2 345.5 345.2 343.5 342 341.8 342.4 344.4 345.1 345.9 342.1 337.7 332.8 325.3 315 304.4 296.6 288.5 277.6 269.3 260 255.2 252.6 256.3 261.7 268.2 276.8 283.5 284.3 282.9 273.1 281.3 285 287.9 292.1 298 299.8 295.3 284.5 280.3 281 301.6 317.5 329 332.6 337.2 339.5 339.7 340.1 339.5 337.1 331.8 327.6 326.8 328.3 330.3 330.1 329.3 324.3 319.1 312.9 305.9 297.3 284.1 276.5 266.6 267.4 261.4 270.2 278.9 282.5 284.9 287.5 283.6 276.5 264.4 253.8 236.6 219 203.2 191.8 185.2 179.1 175 172.5 167.6 164.3 162 157 154.4 168.5 180.8 191.8 201.9 214 228.6 235.1 242.1 243.3 244.6 244.3 245.1 243.9 239.9 242.5 241.9 238.6 235.6 233.5 229.3 228.8 232.5 236 242.5 245.7 245.3 241.3 237.2 229.7 224.1 218.3 209.7
502.5 506.4 511.4 510.9 509.7 505.9 496.8 491.9 490.7 486.8 485.9 483.8 479.9 475.7 471.4 467 460.2 453.6 450.6 447.4 445.4 441.8 438.4 434.4 430.3 427.1 424.2 422.7 420.8 417.6 414.7 412.1 409.7 406.6 402.3 398 390.3 386.3 378.1 363.4 353.7 343.4 333.4 323.9 311.7 305.4 297.6 287 290 289.8 289.5 291.2 291 284.5 278.8 268.1 263.9 261.5 259.9 257.1 255.1 269 279.9 295.2 309.8 328 341 337.4 339.9 342.8 342.3 338.7 341.2 343.4 344.8 346.7 348.4 348 347.5 346.6 345.8 345.2 344.9 345.5 347.3 348.6 348.5 346.4 343.5 340.2 335.2 328.1 320.2 310.8 303.4 291.8 280.2 272.5 264.2 255.6 256.5 260.3 267.2 275.4 284.2 287 288 283.8 282 290.4 291.4 293.3 297.2 302.4 306.6 299 290.7 285.9 282.2 293.1 309.3 323.7 333.5 340.7 344 344.5 351.3 350.5 345.3 340.6 337.1 338.1 338.9 340.8 341.7 337.4 328.7 321.3 313.6 304.9 292 293.2 285.3 273.8 273.2 272 275.8 280.9 285.9 289.7 293 291.2 283.1 273.6 261.5 243.2 223.2 207.2 195.6 187 180.8 175.7 170.3 166.2 162.1 158.6 152.3 157.6 175.7 194.6 208.7 217.5 221.4 234.2 243.3 246.2 247.8 250.1 248.5 251.5 246.3 244.8 246.1 246.6 242.5 239.2 235.4 231.4 231.3 235.4 238.8 243.7 246.9 243.2 238.7 233.7 227.7 222.7 214.6 208.6
506.2 509.4 511.2 511 505.9 497.5 493.1 489.9 486.2 485.8 486.4 482.6 477.4 471.6 467 463 458.1 453.3 449.3 446.8 443.5 439.6 436.2 432.3 428.7 425.8 422.8 421.3 417.8 415.1 413.4 409.9 408 405.4 401.8 397.2 390.6 381.9 372.3 357.8 344.3 335 324.5 315.1 299.9 304.9 304.3 297.7 291.2 281.7 276.9 275.7 272 271.9 275.1 274.5 271 266.3 257.9 258.8 266.6 277.2 294 311.8 329.4 345.9 361.3 355.3 353.3 354.2 354.2 350 347.3 348.9 350.7 352.1 352.4 351.4 349.9 348.5 347.8 347.9 348.4 349.3 350.4 349.3 347.2 344.5 342.1 339.5 335.2 328.9 322.4 313.3 302 291.1 282 272 264.9 256.8 258.5 262.7 271.8 280.1 286.4 288.4 288.3 283.9 294.3 294.9 297.1 297.7 302 305.5 310.5 304.3 298.6 288.7 286.7 290.6 303.8 321.2 334.6 342.5 348.1 348.8 355.1 355.4 351.1 347.2 342.1 343.2 343.6 344.6 342 336.6 330.4 321.6 314.4 306.3 306.9 297.9 288.7 282.9 280.2 281.3 284.3 289.3 293.5 296.5 299.1 296.2 286.2 278.1 265 247 228.7 214.8 201.1 191.1 186.2 179.3 171.9 168.1 164.7 157 152 166.9 187.1 201.3 216.5 227.9 231.3 240.8 251.1 254.9 253.5 254.5 253.2 253.7 249 248.1 249.7 248.2 245.9 243.1 238.9 237.4 238.3 239.9 242 244.3 244.2 239.4 235.4 231.1 225.7 219 211.9 202.8
510.1 510.9 508.9 506.1 500.7 496.7 492.2 486.5 483.4 484.1 483.5 479.9 473.1 469.1 464.7 460.8 456.7 452.7 448.6 444.7 441 436.9 433.3 429.2 425.8 423.4 421.1 417.7 414.3 413.4 411.1 409.2 407.1 404.8 399.4 393.1 385.8 377.1 366.6 352 337.4 323.1 311.1 302.8 311.5 315.2 312.4 307.8 304.1 297.5 296.8 292.1 289.7 288.5 288.4 279.5 272.4 260.3 262.5 265.3 276.5 295.3 311.8 329.2 346.7 363.2 365.7 362.1 364.7 363.8 361.4 358.5 356 354.4 356.4 355.9 355.4 354.3 352.1 350.7 350.6 351.1 351.7 352.3 350.4 346.7 344 341.5 339.5 336.6 333 329.9 325.2 315.5 306.3 294.3 283 272.9 264.8 257.8 259.8 264.2 275.3 284.9 290.4 291.2 288.3 292.4 296.7 299.4 301.5 306.8 310.3 312.1 317.1 309.8 304.4 292.1 291.8 294.5 304.1 318.8 332.6 344.9 347.8 351.1 359.8 358.7 356.9 352.7 349.5 348.3 345.8 343.4 339.6 334 327.4 321.3 315.4 316 308.2 299 291.7 289.7 289.8 290.5 293.9 298 299.9 301.9 302.7 298 289.9 279.8 267.2 243.7 230.8 220.5 207.9 194.7 189 183 174.1 169.2 164.4 153.2 157.7 175.2 194.5 211.4 226.8 238.7 246.8 248.6 258.3 261.5 259.5 262.6 259.3 255.9 251.8 251.4 252.6 251.1 249.1 245.9 243.7 242.9 243.6 244.2 243.8 245.6 242.2 238 233.6 228.5 223.2 214.8 209.4 190.6
514.9 511.5 506.9 501.7 498 494.5 489.7 484.1 480.5 480.2 477.5 473.4 470 466.6 462.8 459 454.4 449 446.2 442.1 437.8 433.6 429.7 425.7 423.2 420.3 418.5 416.2 413.8 409.8 408.9 408.1 405.4 401.3 394.2 385.4 377.9 370.3 359 340.6 322.6 311 317.8 319.7 322.1 324.9 321.4 316.6 313.4 308.7 310.1 307.7 304.9 300.2 291.4 280.4 272.7 261.8 267.2 275.7 292.6 310.5 328.7 345.5 363.2 367 369.3 370.3 371.4 372.8 369.7 366.8 363.1 362.2 359.9 359.3 358.4 355.3 354.1 353.3 353.7 353.9 354.4 351.9 348.5 345.8 342.3 338.6 334.2 332.4 329.6 324.9 321.3 312.4 304.5 293.9 284.2 272.2 260.9 263.7 266.9 274.3 281.7 283.4 290.4 291.6 289.7 295.3 300.4 303.4 307.5 313.7 319.1 326.5 321.1 315.8 306.7 304.1 302.5 301.3 308.4 319.3 329.8 341 348.2 352.9 358 361.8 361.9 358.1 353.9 351.9 348 344.8 340.1 334.5 327.4 322.9 322.3 318.3 309.7 301.8 298.9 298 297.5 296.7 302.5 304.1 304.4 305.1 304 296.4 289 279 266.4 249.9 238.7 223.5 209.9 198.6 190.8 185.5 177 168.6 162.1 155.9 162 176.6 197.5 218.6 239.6 248.2 254.4 258.6 264.5 264.6 266.5 267.9 264.5 258.8 253.5 252.9 253.6 252.7 251.3 249 248.4 247.8 248.5 248.6 246.9 246.2 242.5 239.5 234.8 229.5 225.4 212.6 208 200.7
515.3 511.7 506.5 500.8 495.2 490.8 484.7 480.1 476.9 473.7 472.1 469.9 467.4 464.7 460.8 456.2 451.1 447.6 442.4 438.6 434.5 430.4 426.1 422.6 419.5 417.1 415.8 413.4 412.3 409.1 407.1 405.3 401.8 396.1 389 380.2 371.8 362.3 346.7 323.2 319.6 327.6 331.1 333.7 336.8 335.3 331.5 325 320.3 315.2 317.5 313.9 308.5 299.8 288.8 279.5 265.8 266.9 274.2 287.9 306.1 324.2 345.3 360.4 371.7 376.5 377.7 377.6 378.6 379.4 375.5 372.5 368 364.5 361.8 360.7 359.1 358 356.8 356 356.3 356.6 354.7 351.7 348.3 344.1 339.9 335.7 330.2 326.2 323.4 318.3 314.7 308 301.3 292.7 281.9 270.9 264.5 270.1 275.4 281.5 288.2 290.4 292.4 293 293 298.8 303.1 307.2 312.6 320.3 328 336.5 329.1 322.1 310.6 315.1 313.7 315.9 321 325.3 334.8 344.7 349.9 355 359.3 362.7 362.5 361.1 358.5 352.3 348.2 343.5 339.9 336 327.9 325.4 324.5 319 313.8 309.5 305.4 302.9 303.5 304.5 307.4 309.1 308.5 307.5 301.4 295.6 289.6 280.4 264 246.6 236.2 223.5 207.5 197.3 191.2 186.1 177.6 166.5 157.9 158.5 166.3 179.9 202.1 224.5 248.5 263.3 258.9 268 273.1 268.4 270.8 268.6 268.1 261.6 256.7 256.9 255 253.4 253.8 252.4 252.1 252.1 253.7 252.3 251.6 248.3 245.2 243.5 238.2 231.7 225.1 213.3 211 208.6
514.3 511.5 505.1 498.6 493.8 488.1 482.5 477.5 473.3 470 469.4 466.8 464.4 461.3 455 452 447.2 443.4 439.2 434.7 430.6 426.8 422.1 419.3 416 412.3 410.9 410.2 409.5 407.7 405.7 401.5 396.8 390.4 384.6 376.5 366.8 347.9 330.9 339.6 341.9 346.1 351.5 353 348.8 348 342.4 335.4 329.4 324.7 319.2 312.9 306.8 301.1 289.7 278.1 267.2 272.3 288.6 305.4 323.1 341.2 357.2 372.3 378.8 384.2 384.4 384.9 385.2 383.5 380.7 375.9 372.1 367.7 364.6 363.2 361.5 360.5 359.3 359.3 359 356.5 353.6 350.5 345.8 342.2 337.3 332.6 326.6 319.8 318.4 312.3 308.3 301.3 293.7 287.6 276.8 266.9 272.4 277.8 283.4 291.8 297.4 299.3 295.1 296 296.2 301.6 307.6 313.7 318.9 326.6 335.1 337.4 330.8 324.2 324.7 326.1 326.1 327.9 331.9 333.5 340.9 349.4 353.6 358 363.3 364.9 364.5 363.1 360.1 355.1 351.9 347.2 341.9 335.3 329.9 328 325.9 322.7 320 320 316.3 311.9 311.7 315.2 316.4 316.1 313.6 309.7 305.1 298.4 287.8 275.7 260.4 241.4 230.2 216.8 203.6 196.6 190 183.3 174.3 166 157.9 161.5 168.8 183.9 209.1 232.5 252.5 265.2 262.4 271.6 276.3 272 272.9 267.5 267 262.6 260.3 260.4 257.3 257.1 257.3 258.3 256.7 257.3 258.4 254.1 253.6 248.4 245.8 244.8 239.3 234.5 222.3 215.3 213.9 206.1
513.9 507.1 501.5 495.3 489.9 483.8 479.8 476.1 472.1 467.8 467.2 463.7 460.8 457.3 452.2 447.2 443.5 438.6 435.2 431.3 426.8 422.9 418.7 416.1 413.2 410.9 410 407.4 406.5 403.6 400.6 397 391.2 384.7 376.4 366.6 350.3 347.2 363 369.2 369.9 369 366.3 361.5 359.1 356.1 352.7 343.9 339.5 332 323.3 317.9 312.1 304.9 290 275.5 268.6 286.2 302.7 322.9 341.1 359.2 374.6 383.6 387.5 391.2 391.8 392.2 390.7 388.4 384.5 380.4 376.5 371.3 369.5 366.5 364 363 361.8 361 359 356.8 353.1 348.3 343.5 339.5 334.5 328.4 322.2 314.5 310.5 307 302.7 298.4 292.5 284.6 272.7 277.9 283.9 289 292.8 298.6 306.9 303.9 299.8 301 303.2 305.2 315.8 320.7 327.2 335.1 340 335 333 335.1 335 334.9 338.3 339.4 339.7 342.1 350 354.2 358.5 364.2 365.1 366.2 366 364.8 363.2 359.3 355.3 351.2 344.7 339.4 335.5 330.9 332 332.5 333.2 331.7 328 324 325.2 326.4 325.4 324.6 321.1 315.1 307.1 297.5 285.3 275 260 237.1 224.7 211.9 201.6 194.8 184.1 176.2 173.2 165.6 157.8 163.8 171.4 187.6 214 235.9 252.7 267.9 267.8 273.5 276.1 273 270.2 266.8 267.2 265.3 261.3 260 261.9 261.4 262.4 262.1 260.2 259.9 258.8 253.1 249.9 247.8 243 242.1 236.3 229.8 218.2 221 215.5 206.5
510.5 502.3 495.4 489.4 485.5 481.9 477.4 473 469.4 465.6 461.9 459.2 455.6 451.1 446.1 442.8 438.5 433.8 430.4 426.2 423.3 419.5 415.9 413.8 411.7 409.5 406.9 404.5 402.9 398.6 393.7 389.3 382.1 367.2 361 356.8 362.2 374.6 379.2 378.6 376.9 374.2 371.3 368.6 365.8 362.2 357.5 353.5 349.7 340.1 332 324.7 315.4 306.2 288.5 271.4 275.1 297.7 318.5 338.5 358.5 377 389.1 390.6 395 396.3 398.2 397.9 397.4 392.7 388.9 385 381 376.2 373.2 370.6 367.6 364.9 362.7 359.9 357.6 355.2 351 346.4 341.6 337.2 332.7 325.6 319.4 312.6 305.8 298.9 298.5 295.5 290.7 277.5 279.2 284.3 289.4 295.4 301.3 307.9 314.6 311.3 306.6 310.3 315.4 313.9 318.9 323.7 329.5 337.9 337.5 339.4 341.3 342.7 341.2 341.7 344.7 346.3 349.4 351 356.1 362.8 364.9 365.8 366.8 367.2 367.4 366.1 364.7 362.4 358.6 353.8 349.3 345.3 342 341.1 339.4 342.1 343.5 342.7 338.9 337.2 335.3 333.2 332.3 328.4 323.2 315.2 307.4 295.3 283 272.3 258.9 236.3 218.5 205.3 198.5 191.3 185.5 180.2 174.9 167.7 159.3 164.6 172.6 187.3 218.2 239.4 255.3 274.2 271.3 274.5 273.7 269.9 268.6 267.7 267.6 265.4 261.3 260.9 263.7 262.7 264 261.7 259 256.8 253.7 248.9 245.9 242.5 238.4 235.4 227.7 220.1 215.1 214.6 210.8 212.3
507.8 500.3 491.8 487.1 483 478.9 474.7 471 467 462.9 457.2 453.2 450.7 445.3 440.6 436.4 434 427.7 424.8 420.7 417.4 415.2 412.4 410.2 408.2 406.9 402.8 399.9 397.4 392.9 386.4 381.2 378.3 379.4 388.1 386.5 383.3 383.7 385.2 384.9 383 379.8 376.1 374.5 372.1 368.6 363.9 360.8 356.1 349.9 341.9 330.3 315.2 306.9 284.6 271.8 288.2 307.6 329.3 350.9 372.3 386.7 393.5 397.2 396.9 399.5 400.5 401.5 400.7 397.9 393.1 389.3 385.3 381.7 377.6 374.1 371.5 367.1 362.7 359.4 355.8 352.8 348 343.9 339.6 335.4 329.6 323.8 318.1 312.7 307.1 300 294.3 288 280.4 279.3 284.5 289.5 296.9 303.6 309.5 316.8 320.6 317.2 319.2 322.1 324.8 320.9 323.1 327.1 331.1 335.8 339.7 343.5 346.1 347.3 347.7 349.2 351.3 353.6 355 357.4 361.9 364.8 366.1 367 368.8 369.3 368.9 368.1 366.7 365.7 362.6 360.1 356 353.2 350 347.6 348.9 349.2 349.2 350.8 350.5 346.6 338.9 332.8 330.2 324.7 318 310 301.5 289.7 276.8 263.1 248 231.2 216.4 205.5 197.8 192.5 185.3 179.3 171.1 167.5 160.2 164.2 173.7 183.8 210.8 236.7 255.7 266.9 275.7 273.1 270.5 267.1 265.7 264.9 265.9 263.8 260.1 258.9 261.2 261.1 260.1 257.4 253.8 250.4 247.5 245.2 240.6 236.3 230.4 224.4 217.8 213.8 210.1 207.4 210.3 217.4
507.5 495.5 490.5 485.4 480.3 475.7 471.9 468.4 464.3 459.8 455.1 450 446 440.1 435.6 430.4 428 422.4 418.8 417 413.2 411.3 409.8 408 405.4 402 397.8 393.3 391.7 385.6 380.5 378.2 387 390.8 392.6 391.1 389.1 388.7 389.7 390.5 389 385 383.5 381.7 377.6 373.1 369.8 366.9 361.2 353.5 343.3 329.7 316.4 301.3 280 283.4 300.5 319.5 341.6 363 377.5 386.5 392.9 395.4 396.5 398.4 400.7 403.1 403 400.5 395.7 392.2 388.3 385.5 381.1 377.5 372.9 368.6 364.3 360.4 354.5 350.4 346.5 342.8 338.6 332.7 328.3 322.8 317.7 312 306.6 300.2 294.4 284.7 281.7 286.5 292.1 295.9 302.7 312.1 318 326.2 325.5 325.6 327.8 331.6 330.1 327 328.9 329.3 332.8 338.3 342.6 347.1 349.9 351.8 353.5 354.8 356.8 360.7 360.9 363.8 364.8 366.9 367.7 368.5 370.5 371.6 371.8 372.3 372.3 370.1 366.8 364.4 361.6 360.1 357.2 358.9 358.1 357.2 357.4 356.1 353.4 344.5 336.3 327.8 323.3 313 308 299.3 287.8 275.1 260.4 248.6 234.2 220.2 209.1 200.4 194.9 188.1 183.7 178.7 175.8 174.9 160.9 163.1 171.2 181.8 200.8 231.1 250 258.6 265.2 265.5 263.2 258 251.8 261.7 262.9 261.8 258.1 254.4 254.2 255.2 254.5 250.8 247.8 245.6 245 243.6 238.5 233.3 227.2 218.3 213 209.2 206.6 206.5 210 217.8
500.6 494.1 489.4 484.7 480.5 475.9 470.6 466.6 462.7 455.3 450.3 445.9 441.5 434.7 429.7 424.7 420.5 417.9 414.7 412.8 410.9 408.1 406.3 403.4 399.3 393.1 389.3 385.6 383.1 384.5 388.1 389 390.6 397.6 396.2 396.6 395.3 395.8 394.9 395.7 394.8 392.6 390.4 387.1 380.8 376.9 375.1 371.2 363.2 355.2 345.8 329.2 307.8 285.3 288.5 301.4 312.9 330.3 353.4 367 378.1 385.6 392.6 395.3 396.2 398.6 401.8 403.5 404 401.1 398.5 394.5 390.4 387.5 383.5 379 374.6 370.3 364.8 358.6 353.3 349.1 345.4 341.5 337 331.8 325.6 320.3 315.4 310.2 304.6 299 286.6 285.7 288.8 293.3 296.6 304 314.6 323.9 325.7 332.9 331.7 334 337.1 336 333 335.1 336 337.3 339.8 344.5 349.2 352.6 355.6 357.3 358.4 360.3 361.7 364.8 365.7 366.3 368.3 369.2 369.9 370.2 371.9 375.3 376.6 377.6 378 375.4 373.8 370 367.5 367.2 369.5 366.8 363.4 358.8 355.2 348.1 341.5 332.2 323.2 315 307.5 302.2 292.6 284.2 272.6 260.3 244.8 226.6 220.3 214.2 210.9 207 200.7 191.4 186.1 181.8 178.7 176.5 164.4 162.5 172.4 182.8 194 215.9 235.8 243.2 249.5 250.1 246.3 242.8 243.2 256.1 257.6 257 255.5 249.2 250.3 248.6 247.1 243.9 242.4 242.1 243.5 240.5 235.7 230.7 222.7 214.1 208.5 207.1 206.3 207.5 211 217.1
497.5 492.4 488 483.8 479.7 474.9 470.2 467 461 453.2 447.5 441.7 437.1 432.1 424 420.4 416.4 413.2 411.3 408.2 405.8 405 402.2 397.9 393.2 391 391.3 390.8 392.6 392.3 395.5 395.2 395.5 402.2 401.3 402 402.7 402.7 401.1 401.7 399.6 398.7 395.1 389.1 383.4 380.3 378.9 372.4 364.1 356.1 344.6 327.6 298.2 288.8 305.7 315 325.3 339.3 357.3 370.5 378.7 384.3 389.8 393 396.4 400.2 403.7 405.1 404.7 403.9 401 396.5 392.4 388.9 386.3 381.6 377 371.1 363.3 357.9 352.9 348.7 343.8 339.3 333.9 327.4 322.3 315.7 311.2 307.5 301.6 290.1 289.7 294 297.7 302.6 304.2 310.5 321.2 327.9 333.8 335.7 337.2 340.3 341.7 339.8 337.8 340.9 343 345.6 348.1 352.1 356.8 360.8 362.5 364.3 365.1 366 367.3 368.8 368.8 369.4 370.7 371.9 372.2 375.1 379 384 385 386.5 387 385.6 382.7 379.7 374.9 372.7 370.4 365.8 359.8 354.6 346.9 338.4 329.2 319.7 312 307.4 296.9 288.8 278.7 266.3 252.9 241.3 236.4 231.6 226.6 220.8 216 210.3 202 195.3 188.9 184 179.2 176.8 170.1 163.2 172.1 181.8 192 209.3 223.3 228 234.3 233.2 231.4 233.1 240.8 249.3 249.4 249.3 248.6 244.2 243 240.1 237.7 237.5 238.3 239.7 239.9 237 232.2 226 217.9 209.9 207.6 207.3 207.9 209.7 213.2 218.8
498 492.4 487.4 483.2 478.5 474.5 470.1 464.1 457.6 449.8 444.4 436 432.9 427.5 422.6 416.6 412.4 408.8 406.5 404.3 402.3 400.3 397.3 395.3 395.7 396.1 397.6 397.7 397.3 396.7 400.8 401.1 400 405.9 406.4 407.4 408.3 408.4 405.8 404.1 404.6 401.1 396 389.9 385.4 384 379.7 371.2 362.9 353.2 344 324.2 296.5 305.7 317 325.1 336.4 345 358.8 370.3 379.7 384.2 388.7 393.6 397.2 400.9 403.3 404.5 405.4 404.3 403.4 398.9 394.5 392 389.6 384.4 379.2 369.6 362.1 357.8 354 348.5 342.2 335.5 327.5 322 315.9 312.1 308.2 303.7 293.1 291.6 294.4 300.8 307.4 313 317 322 326.4 333.6 338.4 339.5 341.3 344.5 345 343.4 344.5 345.3 350.4 354.3 359.2 362.7 366.1 368 369.8 370.5 372.1 371.7 371.3 371.6 372 373.2 373.9 374.4 379.1 386.1 392.2 394 397.6 398.7 397 394.5 390.2 385.6 379.1 375 372 366 359.7 352.9 343.8 333.2 322.5 314.8 306.3 300.8 295 286.1 276.6 269.4 262.1 253.5 248.1 235.4 229.3 223.9 214.6 206.2 199.8 194.1 189 184.4 180.7 178.1 174.1 164.8 173 179.2 189.1 202.5 212.7 216.7 218 219.5 223.1 229.7 237.1 241.3 243.3 243.1 242.8 237.6 234.8 233 232.3 231.3 233.1 234.9 233 231.2 227.1 220.2 211.3 208.4 207 208 209.8 212.1 216.1 219.2
496.9 493 486.9 483.2 479 473.9 467.7 460.7 452.6 446 441.5 434.8 429.4 423.8 417.7 411.5 409.1 406.8 404.2 402.8 400.4 398.5 399.7 400.9 400.6 401.8 402.6 402.2 402 401 403.9 404.4 402.4 407.5 411.2 409.8 410.9 410.6 407.8 406.1 402.9 399.9 395.1 390.2 387.7 386.9 379.6 371.5 364.8 354.6 343.8 333.6 307.2 310.9 329 333.8 343.6 351.4 359.6 371.9 380.1 384.7 389.4 393.2 397 398.7 400.5 403.3 404.9 403.9 402.2 398.5 395.7 395 390.3 383.8 376.5 369.2 364.3 360 353.2 347 340.1 333 324.2 315.5 311.1 308.1 304.5 297.5 296.7 299.8 305.9 310.4 315.5 320.5 325.4 329.7 334.8 340 343.3 343.3 345.6 348.7 349.4 350.8 351 354.6 360.3 363.4 365.8 370 372.6 374.9 376.1 376.2 375.8 376 375.6 375.5 376.1 377.4 377.5 383.4 389 395.3 398.4 403.7 406.9 406.5 405.1 402.5 396.4 392.3 384.9 378.5 373.1 366.5 360 352.3 339.9 332.9 318 309.5 306.2 300.7 297.5 289.7 282.2 273.6 264.7 257.2 249.8 239 234.9 232.3 221.3 214.3 206.7 200.2 192.1 186.9 182.8 180.7 177.5 165 169.7 176.6 185.4 193.7 199.8 203 210.6 216 220.8 229.3 232.7 234.9 236.1 238.4 237.6 234.1 231.3 228.5 227.9 228.1 228.3 228.2 226.7 223.7 220.9 213.8 209.1 207.3 208.2 209 211.3 213.7 217.4 218.6
494.9 490.4 486.3 484 477.9 471 463.6 454.3 448 443.4 437.7 432.3 426 420.5 414.9 411.4 406.4 405.2 402.6 402 402.2 404.6 406.6 406 405.7 406 407.7 409.1 409.1 406.7 406.5 406 403.8 407.8 412.9 410.8 411 409.8 407 402 398 393.6 390.9 389.4 389.4 385.6 379.2 372.3 365 354.9 344.8 340.1 305.5 318.1 337.1 342.1 349.7 357.8 365.8 373.3 379.9 385 388.4 391.2 393.4 394.8 397.1 400 402.7 402.7 401.1 397.4 396.3 395.3 390.4 382.6 375.8 368.6 363.8 358.1 352.4 344.1 335.5 327.5 319.5 313.7 307.7 305.2 301.1 301.8 307.5 308.7 314.5 319.4 322.8 328 332.5 335.3 341.6 345.3 346.6 349.6 350.1 352.4 355.4 357 359.2 363 367.2 369.6 373.6 377.1 379.9 380.6 380.5 379.9 379.3 379.4 379.5 379.8 379.7 379.3 381.8 386.5 392.1 397.2 400.9 405.8 410.9 412.2 411.3 406.5 402 397 388.5 380.3 373.4 367.4 359.4 352.8 341.6 332.3 317.7 311.3 307.1 305.7 301.6 293.6 286.3 278.3 270.9 263.8 252.4 248.1 247.5 239.5 231.1 223.2 212.6 203.8 195.3 189.2 184.8 181.7 175 166.6 167.7 173.6 181.6 188.8 194.7 200.9 210.1 215.8 221.1 228.2 231.9 235 238.4 238.6 235.9 233.1 230.1 227.6 224.5 224.1 224.2 222.7 221.4 218.8 215.3 209.7 208.9 208.5 209.7 210.9 214.2 217 218.7 219.7
492.4 488.8 485 480.5 472.7 465.2 456.8 450.6 444.3 439.3 434.7 429.2 423.2 416.4 412.3 409.3 406.5 406.4 405.1 407 409 412.4 414.4 412.9 412.4 411.8 412.2 413.6 414.3 412 409.2 408.4 408.2 409.3 408.8 409.6 409.1 406.3 401.7 395.9 391.2 387.7 384.3 385.8 384.9 384.1 376.8 370.4 362.8 353.3 345.7 340.5 311.1 325.8 340.8 346.5 352.4 360.1 366.8 374.7 379.4 384.6 385.9 387.1 388.6 390 393.2 396.3 398.7 398.4 397.8 396.2 394.2 392.5 388.9 381.2 374.2 368.5 362.3 354.3 347.8 340.8 331.5 321 314.3 309.1 305.5 304.4 305.8 312 317.3 320.6 322.3 325.9 328.1 332.9 337.7 341.5 343.8 348.2 350.3 351.9 355.6 356.8 359.8 362.2 366 369.1 373.6 376.8 380.5 383 384.9 385.1 384.7 383.6 383 382.4 382.2 381.9 380.7 380.5 383.6 388.1 391.4 396.2 399.8 404.7 410.3 411.1 409.4 405.3 404 401.6 393.5 384.2 377.1 369.3 358.6 350.2 343 333.2 323.7 315.2 311.4 309 305.4 293.3 285.5 280.5 274.8 265.5 262.4 259.9 258.7 249.4 240.4 226.5 214.8 205.3 197.1 190.4 184.8 181.4 176.3 167.6 168.2 176.5 181.7 188.5 199.4 206.1 212.5 218.6 224.7 231.3 236.6 239.9 242.8 238.4 237.7 234.9 231.5 228.2 224.9 221.1 218.6 216.9 215.1 213.3 210.5 208.4 210.1 211.8 215.5 218.1 219.6 221.6 222.1 222.8
492.1 487.1 482.1 475.5 465.1 457.9 451.7 447 441.6 435.9 430.9 427.2 421.4 416.3 411.2 409.6 412.5 412.3 413.9 414.7 415.6 417.5 420.3 419.4 419.1 418.2 418.5 418.7 418.4 415 412.4 411.9 411 411.8 410.2 408.6 406.2 402.1 395.9 388.7 384.7 381.3 378.5 378.9 378.3 376.5 371.6 366.3 359.9 352.5 344.9 336.9 332 336.9 344.9 350.5 356 362.5 367.8 374 377.5 380.5 382.2 382.6 384.9 386.4 388.8 392.4 393.5 394.1 394.7 394.6 393.2 390.4 384.9 378.5 372 366.1 360.2 352.1 344.4 335.5 325.5 317 310.8 310.7 309.7 310.7 315.5 318 325.2 326.9 327.4 331.1 332.9 336.3 340.5 344.3 347.1 350 351.9 357.4 360.9 363.3 365.6 367.7 371.6 375.5 379.9 383.4 386.4 388.2 388.6 388.5 387.7 385.7 384.8 383.5 383.2 380 379.9 380.1 380.6 382 382.7 385.8 388.7 390.8 394.9 396.9 399.4 399.4 399.9 399.5 395.2 387.7 380.7 372 361.9 352.5 344.6 339 331.5 324.9 316.2 310.9 305.4 296.1 289.6 283.2 280.4 276.1 272.4 269.6 264.4 256.9 246.1 232.3 216.9 207.3 197.7 190.2 185.5 181.9 176 168.1 170.3 179.6 187.5 194 204.5 210.5 216.9 223.6 228.6 234.8 238.1 239.5 239.7 238.9 238.2 235.5 231.9 228.5 224.7 220.8 217.1 214.1 211.2 210.7 209.9 211.2 216.1 220.2 224.1 226.7 227.7 229 228.9 228.1
487.6 482.5 477 468 459.8 452.4 445.5 443.2 438.7 433.4 431.3 425.2 421.8 418.2 413.2 416.3 418.2 420.8 422.4 422.1 421.9 424.5 425.3 425.2 425 424.9 423.9 422.5 419.7 417.4 416 414.3 413.9 412.9 410.3 407.6 403.1 398 392.7 383.3 379.2 376.3 372.9 372.8 371.8 370 365.7 360.5 356.5 351.3 341.8 336.3 328.7 341.6 348.6 354.4 359.8 365 369.1 372.2 374.2 376.4 379 380 381.8 382.7 385.2 388.5 389.6 390.9 391.7 392.3 391.7 386.2 380.7 374.9 369.6 363.6 355.8 348.2 339.7 329.7 319.2 314 312.8 314.5 316.3 317.3 322.2 325.3 329 332.2 334 335.4 336.3 340.3 343.6 346.3 349.8 353.8 357.9 363.1 366.5 368.9 369.6 373.3 377.2 381.1 385.7 388.4 389 391.2 391.3 390.2 388.4 387.7 386 384.5 383 379.1 378.2 377.9 377.4 377.5 377.2 377.3 375.8 377.2 378.5 378.9 382.8 383 386.4 391.1 392.6 387.7 386.7 375.6 364.2 358.1 351.5 346.9 342.7 336.4 327.1 318.3 309.6 303.8 299.6 293.6 290.2 286.1 281.1 276.4 270.9 264.2 251.1 235.3 218.8 208.2 200.1 191.4 186.3 181.1 173.7 169.1 173.9 182.8 192.7 201.5 209.8 215.7 221.3 227.3 232.1 235.9 238.7 240.3 240.3 240.6 239.5 236.3 232.7 228.1 223.5 219.7 216.3 213.2 211.4 211.9 212.9 219.4 224.6 228.4 231.6 233.2 234.8 234 234 234.5
481.6 475.2 468.5 460.8 452.6 445.9 441.6 436.5 434 431.5 427.8 424.1 422.6 419.2 419.7 422.5 426.1 428.7 430.8 428.4 429.3 429.7 429.5 429.6 429.8 428.8 427.4 425 422.3 419.6 417.8 416.2 414 411.9 409.2 405.2 400.1 394.5 386.8 377.5 374.3 371.9 369.8 368.8 365.6 363.8 360.5 356.5 353.4 346.5 341.1 337.2 320 345.4 350.4 355.1 359.4 363.6 367.3 370.4 372.4 374.4 376.3 377.7 378.2 379.5 382.4 385.9 387.3 388.6 389.4 389 386 381 375.1 370.1 366.4 360.3 350.8 341.7 332.2 324.1 316.3 318.1 316.3 321.3 323.5 323.7 328.5 333 334.9 338.2 340.2 339.1 342.4 344.1 348.2 351.1 353.8 359.3 365.7 368.1 370.9 372 375.5 378.8 382 385.5 388.8 390.9 391.6 391.9 391.4 390.5 389.9 387.5 385.8 383.8 382.1 378.4 377.8 376.7 375.1 374.1 372.1 370.3 370.4 367.4 362.3 359.1 358 360.5 365.4 370.9 371.8 374.1 373.3 369.8 367.1 363.6 358.6 354.9 351.5 346.4 337.5 329 323.4 316.6 309.1 305.5 300.9 295.6 289.3 284.5 277.1 270.4 256.6 239.5 220.8 211.2 203.7 194.6 190.1 182.6 178.5 170.3 178 185.5 195 207.4 216.6 220.3 222 229.8 234.6 238 241.5 242.7 243.4 242.5 238.6 237 232.9 226.8 222.7 219.4 215.9 212.9 215.2 214.7 218.6 228.2 231.4 235.7 237.7 238.6 238.8 237.5 238.1 239.1
474.1 467.8 461.1 453.4 443.6 438.1 436.8 433.4 431.5 429.8 426.8 423 420.2 418.7 422 424.5 429.2 433.8 433.7 433.3 433.5 433.6 433.7 432.6 432.5 432.2 430.1 427.5 424.8 421.7 417.9 415.1 413.2 411.2 406.9 401.8 396.5 388.2 379.2 373.7 371.6 369.9 367.5 366.5 364.9 359.8 355.9 351.1 348.9 344.1 343 336.8 329.4 348.3 350.3 353.2 357.7 361.8 365.9 368.3 370.1 372 374.1 375.6 376.1 377.3 379.9 383.3 384.6 385.6 386 383.2 379 375 368.9 367.4 362.2 353 344.8 337.1 326.9 319.8 319.6 320.3 320.9 327.6 332.5 330.3 333 337.2 338 341.9 347 347.2 347.3 349.7 352.4 355.8 360.1 362.3 367.7 372.3 374.8 377.3 380.9 384.1 385.9 387.9 391.4 392.8 392.2 392.4 391.7 390.2 389.4 387.5 385.6 383.5 381.3 378.9 377.3 374.7 373.8 371 368.4 366.2 365.5 362 356.1 350.4 346.4 343.8 344.5 344.2 350.4 350.9 354.8 358.7 359.4 361.5 363.1 360.4 357.7 354.5 344.9 335.8 329.6 326.2 323.1 318.4 314.1 306.6 296.4 287.3 279.9 272.6 262.7 243.1 226.2 214.5 206.4 199.3 191.5 184.6 177 171.8 178.1 188.8 198.3 207.8 218.7 221.4 224.5 232.9 236.3 239.9 245.1 246.5 246 243.4 237.9 237.7 231 227 223.1 219.8 215.2 221.1 221.6 218.6 222.3 233.2 238.3 241.9 244 244.4 241.5 239.6 241.2 241.7
462.6 457.7 452.2 444.1 437.7 430.2 429.3 428 429.4 429.3 427.5 421.6 420.9 420 421.5 427.4 432 434.7 437.8 438.4 437.6 437.2 436.5 435.2 436.6 435 432.6 428.5 424.6 420.5 416.3 413.8 411.6 407.7 403.1 398.8 392 381 373.7 373.1 373.6 374.3 373.4 372 367.7 362 358.2 356.6 353 348.7 344.5 340.5 335.4 348.9 349.3 352.6 355.9 360.2 363.8 365.8 367.6 369.5 371.8 373.5 374.1 376.1 377.5 380.6 381.8 380.8 380.1 377.4 374.6 369.4 367.3 362.7 354.5 347.6 342.3 333.1 328.2 327.1 327.5 328 329.8 334.7 338.5 337.1 338.5 341.2 341.8 343 347.9 351.2 351.9 355.3 358.5 361.8 365.6 370 373.1 376 379.8 381.2 384.6 387.7 389.1 392 393.1 394.4 393.7 391.9 391.4 390 388.9 386.5 384.8 382.8 380.9 379.4 376.6 373.2 372 369.3 366.1 362.6 358.6 354.5 352.7 345.9 340.3 333.8 329 325.8 327.4 331.4 337.5 341.8 347.6 353.1 358.3 360.2 360.8 356 349.2 342 335.5 333.1 329.4 327.3 321.1 313.7 304.1 294.8 285.3 275.8 264.6 246.6 230.3 220.1 209.4 201.1 193.1 185.6 175.8 172.6 178.8 192.1 201.6 212 221.7 221.8 226.2 233.9 238.1 241.5 247.8 247.9 247.3 242.4 239.2 238.2 230.1 227.5 223.5 216.8 221.5 226.9 225.8 224.8 229.2 237.3 243.7 247.1 248.9 246 243.3 242.2 243.7 241.3
455.9 450.9 444.3 437.3 430.5 425.2 423.1 422.3 424.4 425 426.6 427.1 422.5 423.8 425.4 430.2 433.7 437.3 440.5 440.5 440.4 439.7 438.2 438.3 437.3 434.4 431.5 427.5 423.5 419.2 415 412 408.7 403.1 396.7 391.4 381.4 376.4 378.3 379.3 380.9 382.5 384.1 378.5 371.1 366.2 362.7 359.7 355.5 349.2 345.7 340.5 329.7 345.7 347.6 350.1 353.7 358.1 361.1 363.8 365.2 367.4 369.7 371.5 372.7 374.8 377.1 379.9 379.8 377.8 375.8 372.8 368.8 367.6 366.6 359.5 353.2 347.5 343.2 336.3 335.9 336.1 335.6 336.1 338.3 340.2 342.2 342.2 343.9 347.3 348.4 350 352.3 355.8 358.9 361.6 366 369.7 370.8 374.6 377.3 379.8 384.6 386.5 389.5 392.7 392.9 394.6 394.8 395.9 394.9 392.6 390.4 390.4 388.3 386.2 384.4 382.7 380.6 378.6 376.2 373.9 370.8 368.3 366.2 366 365.4 359.8 355.3 349.6 344 340.9 334.8 328.5 321.7 322 324.9 328.9 331.1 335.6 340.5 343 347.2 350.4 347.5 345.8 341.5 336 331.9 329 326 321.3 312.2 301.2 289.1 276.5 264.5 252 235.9 225.3 212.8 202.5 193.7 184.4 177.5 178.3 180.3 193.2 201.9 214.3 222.2 219.7 228.8 235.1 239.5 242.8 248.2 248.4 246.6 242.5 241.3 236.2 230.2 227.5 223.6 220.8 228.1 230.8 229.8 230.5 236.7 244.3 248.6 250.3 249.4 247.1 244.7 244.9 245.4 241.6
449.5 443.8 436.6 432.4 426.6 422.4 419.8 420 420.8 421.2 422.6 424.2 423.3 426.8 428 430.7 434.8 438.4 441.7 441.7 442.3 441 439.7 438.2 434.9 432 429 425.9 422.1 417.8 413.5 408.3 402.5 395.7 389.3 384.1 385.1 385 386.4 387.8 388.9 388.3 389.7 383 375 370 366 362 356.4 351.4 346.3 344.2 341.9 331.4 343.1 346.5 350.5 354.7 358.6 360.1 363.5 367.4 369.1 369.6 371.1 372.7 373.7 376.4 376.7 374.4 371.8 369.1 367.6 365.3 361.4 358 354.8 350.8 343.9 346.8 347.4 345.7 344.8 346.1 346.4 346.2 348.5 350.7 353 354.7 356.3 358.2 358 363.8 366.8 369 373 376.4 377.7 379.3 382.8 386.1 389.9 393.1 396.3 398.2 397.8 397.4 396.5 397.3 394.7 393.6 393.2 390.5 388.8 386.7 383.4 381.6 378.8 378 375.6 372.7 370.7 369.6 369 371.1 370.4 367.6 360.5 353.5 348.2 343.5 337.7 331.4 325 311.3 318.6 319.3 318.8 317.3 319.7 327.3 330.7 334.7 334.6 334.6 333 328.5 327.6 324.2 321.4 322.1 313.1 300.2 286.8 273.2 262.4 251.8 242 229.4 215.6 204.5 194 180.9 182 175.9 182 191.6 201.8 212.5 214.9 218.6 229.4 236.9 243.2 244.4 245.9 246.3 245.6 243.4 239.3 234.3 230.4 225.9 224.2 228.2 233.3 234.7 234.8 238.3 245.6 251.2 252.3 251.2 250.3 247.8 246.6 247.7 246.1 241.6
443 437.2 432.9 429 424.3 422.1 421.6 419.5 416.8 419.4 425.6 424.3 423.8 427.8 430.4 432.3 435.6 439.1 441.5 441.8 443.2 439.9 436.9 434.6 431.7 428.6 425.6 422.2 418.7 414.6 410 400.6 401.2 400 398.8 396.2 396.5 394.5 393.1 395.3 395.6 395.1 394.6 386.7 379.1 372.6 367.3 362.7 357.6 352.9 348.5 344.7 342.7 336.2 338.5 343.3 347.3 351.2 355.3 359.2 362.8 366.8 368.3 368.6 369.4 372.7 367.7 372.8 371.6 369.1 367.1 366.8 364.6 362.5 360.3 358.4 356.3 351.1 351.1 356 356.7 356.3 355.1 353.1 353.1 354.3 357.3 360.9 363 364.6 366.8 368.1 366.3 371.4 375.1 377.6 381.7 384.1 385.4 388 389.7 392.1 396.5 399.6 401.4 402.5 402.8 400.8 400.4 399.8 397 396.1 394.7 391 388.7 387.2 384.4 382.3 379.2 376.9 375.7 373.5 371.7 370.1 370 370 368.8 365.8 363.7 357.9 351.2 344 336.3 330.1 323.4 314.4 307.7 310.4 310.7 310.2 309.7 304.9 311 315.7 319.9 320.3 319.5 316.4 313.8 311.8 312 307.2 300.6 290.9 278.7 268.9 259.2 251.6 242.6 230.2 214.4 199.2 191 181.2 188.6 177.7 181 188.8 197 203.4 207 219.5 228.3 237.5 243.5 244.7 245.3 244.6 244.2 243.2 239.2 235 228.9 223.1 224.5 231.9 237.8 238.8 240.2 247.1 253.9 256.3 254.2 252.1 250.6 248.5 248.1 249.1 246.2 242.1
436.9 434 429.9 428.9 426.3 424.4 423.5 421.8 415.9 413.6 418.3 423.4 424.8 428.6 431.7 434.1 436.9 440.5 440.6 441.3 442.8 436.5 433.5 430.5 428.1 425.2 421.9 418.4 415.4 410.6 407 407.7 408.1 408.5 407.3 404.5 402.3 400.5 399.1 398.5 398 398 396.6 389.1 381.1 373.7 369.5 364.3 359.6 354 348.5 343.4 340 337.4 337.2 339.9 344 348.7 352.7 356.7 360.1 366.1 366.7 366.9 366.5 364.2 361.8 362.7 370 365.3 365.4 363.9 362.6 362.3 360.3 357.9 356 355.8 358.1 363.3 364.8 365.6 365.4 366.1 362.4 364.9 367 370.1 372.1 374.3 375.1 373.6 374 377.8 383 386.3 388.5 390.9 392.4 393.4 395.2 398.4 401.3 404 406 406.5 405.4 404.2 404 400.7 399.1 398.3 397.5 394.9 392.1 389.6 386 383.9 380.7 378 377.1 375.2 372.3 371.2 369.6 368.1 365.9 364.3 360.6 356 351 344.5 337.7 329.9 324.9 318 311.8 304.1 296.2 299.2 299 295.2 291.1 291.9 294.1 300.3 299.2 298.5 296.1 294.4 294.4 290.7 285.2 277.7 271.7 262.4 255.1 248.6 238.8 223.7 207.8 194.5 186.1 187.6 189.9 180.3 179.8 183.3 189.5 196.1 202.5 210.4 217.5 231.9 239.9 242.4 244 244.7 247 243 238 235.4 228.3 223.5 228 235.9 241.9 243.7 246.2 254.7 257.1 257.5 255.3 254 250.8 249.2 249.1 248.1 245.6 241.9
432 430 428.5 428.9 427.5 425.4 424.7 417.7 410.2 409.8 415.5 419.5 422.4 428.6 433.1 436 438.7 439.9 439.8 438.5 440.5 433.6 431.2 426.4 423.7 420.9 416.7 413.9 411.7 411.9 412.8 413.7 414.2 413.1 410 407.1 404.6 402.7 400.7 400.1 399.9 399.7 396.2 390 383.7 378.9 373.4 367.2 362.3 356 347.9 341.2 337.5 335.3 336.6 337.5 341.7 346.2 350 353.6 357.8 362.3 365.4 365.3 364.5 364.6 362.1 366.7 365 363.4 363.6 361.5 361.6 361.3 360.1 358.9 360.1 363.4 365.7 370.2 373.1 373.5 374.8 376.9 375.9 377.5 377.9 379.3 381.6 381.6 382 381.5 382 385.6 390.7 393.2 395.4 397.6 399.3 400.1 401.5 403.9 406.1 408 409.8 409.3 408.7 407.6 405.7 404.3 402.4 400.6 399.5 396.1 393.8 391.1 388.9 387.4 384.2 381.1 378.9 376.7 375.2 373.5 372.2 370.2 367.4 366.2 363.6 357.5 350.9 346.5 340.7 333.5 328.8 324 318.3 311.9 304.5 297.4 286.5 279.1 274.8 271.8 274 275 275.4 274.9 272.7 272.6 271.4 274.6 268 262.4 259.9 256.6 249.5 241 231.4 213.5 202.5 190.9 187.1 194.3 192.1 191.3 190.6 179.5 180.3 184.8 195.8 202.3 208.3 224.6 231 238.1 243.5 245.7 244.5 241.4 235.8 231.9 227 225.1 232.1 239.5 244.7 247.2 250.9 256.2 258.7 258.3 256.8 254.2 250.8 249.1 248.3 246.6 244.6 243.3
426.5 426.1 427.7 427.3 424.8 420.6 418 412.5 406.9 409.3 413.5 418.7 423.2 429.1 433.3 435.6 437.7 438 437.6 435.8 434 429.9 426.6 422.9 419.1 414.3 413.6 412.9 413.8 414.4 416.4 419 418.7 414.9 412.5 409.7 407 404.5 401.6 400.7 400.2 398.2 394.1 389.6 386.2 381.7 376.2 371.1 364.2 357.5 350.3 342.2 338.5 335.9 335.3 337.4 341.1 344.3 348.4 351 354.1 359 363.7 363.6 362.6 360.8 359 359.7 360.7 359.5 359.5 359 359 360.6 360.9 362.1 363.9 367.8 370.7 374.6 377.3 380.8 382.1 384.2 386.4 387.2 387.7 389.2 389.5 388.4 388.4 389.3 390.8 394.4 396.4 398.7 400.6 402.8 404.6 405.8 407.7 409 409.7 412.5 411.8 413.1 411.9 410.7 409.2 407.8 406.2 404.8 404.1 401 398.8 398.4 394.3 391.5 388.9 385.1 382 380.6 379.2 376.7 374.4 371.9 369.6 368.5 365.1 361 355.4 350 346.1 339.9 334.1 329.4 324.8 320 315.8 310.7 299.4 288 278.5 272.2 258.5 258.3 258.6 257.7 257.6 259.1 253.1 247.5 243.4 241.2 239.9 238.2 232.4 228.3 217.1 204.6 194.1 190.7 194.1 193.2 194.6 190.7 197.1 198.5 192.7 183.3 188.7 197.3 203.9 213.2 223.6 236.9 243.4 243.4 242.7 240.2 236.4 232.2 226.8 225.8 232.8 239.5 245.9 250.4 253.1 257.8 260.1 259 257.3 254 251.9 249.2 247 245.5 243.9 244
421.3 420.2 420.4 420.4 418.1 414.4 412.2 408.6 404.4 408.8 414.1 418.9 424.5 428.9 431.9 434.3 435.8 436.1 435.5 433.1 432.7 425.5 422.7 420.6 415.9 415.3 414 414.5 415.7 417.1 419.4 420.6 419.9 416.9 413.7 410.8 408.1 405.2 403.4 402.7 400.6 397.7 395.6 392.9 389.4 383.4 379.5 374.6 369 360.3 350.9 343.9 340.7 337.9 336 335.8 338.8 344.3 346.8 347.4 351.8 354.8 359.8 359.5 358.5 359.4 358.1 357.4 356.8 356.8 356.7 358.5 360 360.5 360.4 363.6 367.8 371.5 375.2 379.1 382.3 386 388.9 391 393.2 392.4 393.3 395.7 394.9 393.9 396.1 395 397.5 400.7 401.6 404.4 405.9 408.3 409.7 410.2 411.5 412 412.8 416.2 418 415.6 415.7 414 411.5 410.3 410 408.7 407.4 404.2 403.9 399.7 397.5 396.9 392.4 388.2 386.2 384.6 382.4 379.4 376.4 373.5 372.1 370.9 368.1 364.4 359.3 354.1 348.9 343.2 337.8 333.5 328.5 324.5 320.6 316.1 308.1 293.9 284.9 277 268 254 248.6 245 245.8 244.6 241.8 239.4 236.3 232.5 229.2 227.3 220.3 217.1 210 198.7 194.6 196.2 197.9 194.9 193.6 192.7 194.1 196.9 197.5 186.1 184 190.3 198.8 208.3 219.3 234.3 239.9 241.7 241.8 238.9 236.2 232.6 226 227.2 232.7 237.9 244.1 252.8 253.7 257.1 260 259.2 255.6 253.8 252.4 249.7 247.9 246 245 244.5
414.7 413.8 413.2 412.7 411.2 409.5 407.8 405.2 405.9 409.1 414.1 420.7 424.9 428.1 431.2 433 435 433.5 432 429.1 426.5 424.5 420.2 417.2 416.2 415.8 415.9 416.9 417.6 419.3 420.9 421.4 419.2 417 413.6 410.8 408.4 406.5 407.3 405.1 403 400.8 397.7 395.3 392.4 387.4 383.9 378.2 372.6 366 354.6 345.8 342.6 340 336.8 336.4 336.3 337 341.7 341.9 343.8 346.6 351 353.4 353.5 357.8 355.9 355.5 356.3 356.8 356.4 358.1 359.2 360.9 361.3 365.7 371 376.2 381 384.9 388.2 391.5 396 398.4 398.3 397.5 399.3 400.3 399 399.1 401.3 400.1 403 405.8 407.3 408.7 410.5 411.9 413.6 413.1 415 416.1 418.4 419.5 418.6 417.3 417.6 415.8 413.8 412.3 412.1 410 409.7 407.5 405.5 402 401.3 399.4 394.9 391 388.3 385.7 382.6 380.8 377.7 375.9 375.2 373.4 371.1 367.6 363 358 352.9 346.9 340.8 335.5 331.5 327.8 324.3 319.9 312.3 303.3 293.5 288.5 277.2 266.4 256.1 246.7 238.1 234.9 232.6 230.7 227.1 224.5 220.1 216.7 211.5 205.9 204 199.1 197.9 197.7 197.8 196.8 196.5 194.3 195.4 197.3 196.4 193.3 186.7 186.4 195.5 204.3 213.7 228.7 233.5 238.8 238.7 239.3 237 231.7 225.7 226.3 232.7 238.4 246.2 254.9 255.5 256.7 258.8 257.5 255.9 254.6 252.7 251.5 249.8 247.9 246.5 244.7
409 408.6 406.8 407.4 406.5 405.4 403.6 400.9 405.5 409.7 414.8 421.6 425.3 428.3 431 432.7 432.4 431.5 430 427.4 426 424 420.3 419.2 417.9 416.4 416.1 417.4 419.6 420.4 420.8 419.6 418 416.3 413.9 412.3 409.8 409.3 408.7 407.5 405.3 403.1 400.1 397.2 394.2 391 387.2 382.4 376.7 368.7 358.2 348.6 345.9 343.4 341 338.9 339.1 337.8 338.4 338.9 341.2 343.7 347.5 349.8 351.4 353.4 353.4 356.3 357.3 358 357.4 357.7 358 358.8 364.3 368 374.7 380.1 384.9 388.6 393.1 396.8 399.7 401.5 402.7 403.1 402.9 403.9 402.3 403.2 405.2 405.5 405.9 408.8 410.8 411.1 413.3 415.3 416.9 417.7 418.6 419.3 419.5 418.7 418.4 418.2 418.2 416.4 414.3 413.1 412.7 412.2 410.7 408.4 406.6 404.3 401.5 398.4 396.4 393.4 390.1 385.4 381.1 380.3 378.8 378.6 377.7 375.7 373.8 369.4 365 360.5 355.9 350.5 342.8 337.2 333.7 329.9 326.2 321.3 314.3 307.9 301.8 294.4 286.4 276.5 263.7 256.1 250.7 243.2 239.1 231.8 232.4 227.3 224 221.5 215.2 212.9 207.2 204.7 200.9 200 198.4 198.9 198.5 197.7 199.5 199.4 197.8 193.9 191 185.6 193.6 201.3 208.9 217.1 226.2 232.6 235.3 237 234.4 230.2 227 227.3 232.4 239.1 245.3 255.7 256.9 257.7 259 258.5 257.8 256.5 254.7 253.3 251.6 249.5 247.2 245.2
404.4 401.7 402.3 402.9 402.8 401.5 400.6 400.6 402.2 408.9 414.9 421.4 427.2 429.2 430.3 431.1 431.2 431.9 429.8 427.7 426.1 426.6 424.5 422.9 420.6 419.2 417.9 419.6 421.3 421.6 420.9 419.5 417.2 415.3 416.7 415.5 413.4 411.3 410.7 409.9 407.7 405 403.1 399.6 397.1 394.7 391 386.1 379.9 372.7 361.4 351.3 349.7 347.7 345.4 343.9 340.7 339.5 339.5 338.8 340.3 342.1 344.1 346.6 348.4 352.9 356.7 360.9 362.6 362.8 361.2 359.1 359.2 358 364 369.7 375.2 381.3 386.1 390.8 395.2 398.9 401.3 403.9 405.6 407.1 406.5 406.3 404 406.7 410.1 409.8 410.7 411.4 413.8 414.5 415.1 417 418.2 419.8 420.7 420.4 419.7 420 417.7 417.1 416.1 415.5 413.9 413.6 413.1 412.3 411.2 409.8 406 403.8 400.8 399.7 395.9 392.9 388 382.9 379.4 379 379.9 380.7 379.9 377.9 375 370.5 366.1 361.7 357.2 352.4 345.7 339.1 335.6 330.9 326.3 320.9 315 309.2 303.4 296.7 288.5 278 270.6 264 259 253.6 245.4 241.9 238.7 235 229.3 225.3 221.9 217.1 212.6 212.5 208.3 203.9 203.8 203.6 201.3 200.7 202.3 199.5 195.8 194.1 189.2 188.2 191.2 197.4 206.2 214.1 220.3 228.6 230.8 230.7 234.2 228.5 227.9 227.6 232.6 239.7 246.1 254.4 258.8 258.7 260.4 261 260.2 258.4 256.9 255.3 253.4 251.6 248.6 245.3
399.6 395.9 396.7 398.9 399.2 399.3 398.1 399.7 401.6 407.7 413.8 419.4 421.6 426.5 428.8 431 431.4 431.7 431.2 429.9 428.7 430.1 428.8 426.6 425.3 423.5 423.4 423.6 424.3 424.3 423.8 423.7 423 422.2 420.1 418.7 416.9 415 413.5 412.2 409.1 406.8 403.9 401.2 398.8 397.2 394.5 388.8 382.6 376.3 365.4 354.3 352 351 350.6 349.3 344.1 341.8 340.2 339.5 340 341.2 344.6 349 352.9 356.8 360.7 364.9 368.9 366.1 359 355.6 357.4 359.5 363.2 369.7 375.5 381.4 387.7 392 395.8 399 402.6 404 405.8 409.1 408.8 406.8 404.1 406.7 409.8 410.9 411.3 411.7 413.6 414.1 417.2 417.9 419.4 419.7 420.7 420.6 419.3 417 415.7 414.7 412.9 414.2 414.1 413.8 413.4 412.5 411.5 409 407 403.5 401.3 398.6 395.5 391 386.1 381.4 377.8 377.5 377.8 379.8 380.7 378.2 375.3 371.8 367.3 362.9 358.4 354.6 348.2 342.2 335.3 331 325.6 319.9 314 308.3 302.8 295 287.5 280.2 273.9 267.8 261.7 256.7 250.4 246.1 243.2 238.9 235.1 230.5 228.1 222.9 218.2 215.2 213.9 210.7 213.4 209.4 203.8 202.2 201.2 197.5 195.9 193.6 188.4 192.5 196.2 198.2 201.6 208.8 214 222.3 230.7 232.5 231.5 228.3 229.8 229.9 232.6 239.6 245.2 251.8 258.5 262.1 263.8 264.1 261.9 259.9 258.3 256.2 254.8 252.4 250.9 246.3
395 393.3 392.3 394.4 396.5 398.1 394.8 396 400 404.7 410.9 413.1 420.6 425.8 429.2 431.7 432.4 432.3 432.8 434 434.2 434 432.3 430.8 430.2 428.8 428.3 428.5 428.8 428 426.2 427.3 427 425.9 423.2 421.4 420.2 418.7 414.7 412.3 409.4 407.7 404.3 401.5 399.1 397 396 390.5 384.3 378.1 369.2 356.5 356.2 356.2 355.7 353.9 349.8 344.5 341.7 342.8 341 341.2 346.9 350.3 354.4 360.7 364.3 364.1 363.5 360.5 354.9 351.1 354.5 358.2 364.2 370.5 376.7 380.9 386.6 391.2 395.4 398.7 402 404 406.1 409.3 408.8 406.1 405.9 406.6 409.1 411.5 411.1 411.6 413.1 413.4 415.9 417.8 418.2 418.1 418.4 417 416.2 414.7 412.9 410.4 410.8 412.7 413.4 412.9 411.8 411.7 409.9 407.4 405.6 404.2 402.2 399.2 394.1 390.3 385.3 380.3 377.5 375.7 377.5 378.1 377.8 374.9 373.3 372.7 368 363.9 359.8 356.2 349.8 342.9 335.2 329.8 323.1 317.2 312.1 306.8 301.4 293.2 287.5 282.1 276.2 268.8 263.8 259.1 253.6 249.9 246.7 243.2 238.9 236.1 232 230.8 226.7 220.6 218.6 212.9 212.8 210.1 206.4 202.9 200.4 197.2 195 190.1 192.4 196.4 199.8 204.2 205.2 207.5 215 230.5 236.8 237.5 235 236.7 234.1 230.1 236.3 237.8 244.7 252.9 260.9 264.9 267.3 265.8 262.3 260.9 258.8 257.8 255.9 253.1 250 247.8
391.9 390.6 389.3 391.3 391.9 395.4 396.6 392.8 397.3 402.3 408.2 411.4 418.8 423.4 427.4 429.7 432 432.2 433.1 435.9 437.2 437.5 436.7 435.8 436.1 434.5 434.2 434 433.2 431.6 428.6 429.4 430.5 429.2 426.4 424 422.2 420.4 417.3 413.2 409.5 407.3 404.4 401.3 399.4 397 396.7 391.5 385.2 377.7 369.1 360.4 360.8 361.9 362.5 361.1 357.5 352.7 348.2 344.2 342.8 341.7 346.5 350.5 356.3 361.5 358.7 357.2 356.5 354.4 349.6 349.3 352.2 356.2 361.4 369.7 376.4 379.3 383.7 389.4 393.9 398.1 401.2 404.6 406.9 406.7 405.2 404.8 405.1 406.3 407.9 410.3 413.2 410.7 411.5 412.7 414.3 415.1 416.1 415.3 413.2 412.8 411.7 410.3 409 407.5 409.9 410.5 411 409.4 409.8 408.3 407.1 404.9 402.7 401.2 397.8 395.8 390.2 386.6 380.6 376.3 373.4 373.7 374.8 374.7 374 371.2 369.6 369.8 368.1 364.1 360.4 355.4 348.7 341.3 334.1 327.2 321.5 316.6 310.7 304.8 299 292.2 286.7 283.5 278 271 266 261.6 257.3 254.6 251.7 247.9 244.4 240.9 239.7 238 233.4 223.9 221.4 214.5 215.9 213.2 207.2 202.3 199.7 196.6 192.8 190.5 196.7 201.9 205.7 209.5 209.6 212.5 217.3 232.6 236.6 238 239.6 240.3 237.5 231.4 237.6 241 246.9 253.4 261.5 267.3 268.1 266.2 262.7 262.2 259.6 257.5 256.2 253.7 250.5 248
392.1 389.6 384 384.4 387.2 388.8 389.3 391.9 396.6 400.7 405.3 410.1 415.1 420.9 425.7 428.1 430.7 432.1 434.2 437.1 438.2 439 439.4 441.2 441.8 440.6 439.2 437.8 437.5 435.2 432.3 431.5 432.2 429.4 427.1 424.9 422.8 418.7 415.3 413 409.9 407 403.5 400.6 399.3 398.6 396.3 392.5 386.2 379 370.8 365.8 365.6 367.4 370 368.4 364.8 360.5 356.4 349 344.9 342.2 345.8 350.9 355.1 358.3 356.8 354.4 352 349 346.6 347.3 350.7 354.6 360.3 365.7 369.8 374.8 378.9 386.5 391.6 397.7 402.3 406 408.6 406.5 403.8 402.9 402.8 404.4 405.7 406.9 407 408.8 409.1 410.1 412.5 412.6 412.8 412.4 409.5 407.2 407 404.4 404.1 404.1 404.6 406 405.3 403.8 402.6 402.1 400.6 398.6 396.8 395.4 393.9 390.3 386.5 381.2 374.6 371.9 369.6 368.5 370.8 370.4 368.6 366.8 365.9 366.6 365.2 362.1 357.6 353.3 345.6 338.2 330.9 324.6 319.1 312.9 306.6 300.9 297.1 292.1 287.5 283.5 277.9 273 268.4 264.4 261.9 258.5 254.7 253.5 250.9 249.7 246.6 244 237.3 225.8 222.3 218.4 217.8 215.7 206.6 201.5 198.7 194.4 192.7 194.2 202.3 207.3 212.3 216.6 216.8 223.1 221.5 233.8 239.8 242.4 243.9 242.7 240.3 233.7 238.6 244.4 250.5 256.3 262.2 266.5 266.7 264.8 262.5 262.3 260.5 258.6 257.4 253.8 253 251.6
391.3 389 382.8 381.6 383 383.1 386.7 391.8 398.1 401.5 404.9 407.6 412.4 419.3 424.5 426.9 429 431.5 434.5 437 438.3 440.2 443.3 446 446.7 445.6 444.4 442.5 440.5 438.8 435.9 433.7 432.8 429.9 427.1 424.1 421.1 418.1 415.1 411.5 408.8 405.9 402.9 400.6 400.1 398.2 394.8 391.8 386.7 379.7 372.6 368.7 370.8 372.9 376.1 374.2 368.9 364.5 358.9 350.6 345.8 343.7 345.4 348.9 351.5 353.5 352.6 351.1 349.3 346.4 347.8 348 350.3 354.7 357.3 362.6 366.9 370.1 375.1 383.3 389.8 395.8 400.3 401.7 404.3 404.1 402.7 401.3 401.4 401.8 402.2 404 404.4 406 405.6 407.8 408.7 408.2 409.4 407.9 405.5 402.2 401.3 399.3 398 398 399.4 400 399.2 397.3 395.6 392.9 393.5 391.8 388.9 387 385.5 382.7 378.1 374.3 369.1 366.1 361.3 361 362.4 363.2 361.1 359.4 360.1 361.2 358.2 356.3 351.2 345.7 339.6 333.3 326.3 319 311.8 306.4 302.7 298.5 294.6 290.3 286.4 281.3 277.3 273.6 270.9 267 264.8 263.2 259.7 257.6 255.9 254.6 251.6 247.5 239.4 228.8 225.1 224 218.1 212.7 204.8 199.9 197.3 194 193.7 200.5 206.4 212 217.4 221.8 227.5 226.3 228 242.5 246.7 248.9 247.4 245 243.2 234.8 236.8 245.2 251.3 257.1 261.5 264.5 265.4 263.8 263.4 263.1 261.5 260.3 258.9 256.5 254.7 253.9
389.4 385.9 382.9 381.1 381.5 383.7 389 395.3 401.4 404 405 406.6 411.5 415.9 420.5 423.9 429.1 431.9 434.8 437.8 440.3 443.5 445.8 449.2 451.7 451 449.2 447.4 444.7 441.5 437.2 433.7 432.1 428.6 425.3 422.2 419.7 416.9 413.3 410 407.8 405 402.5 401 400.3 397 393.7 390.2 384.9 377.2 370.5 369.7 373.6 377.9 383.6 381.2 374.7 368.6 359.4 349 345.2 344 344.8 346.4 347.8 349.4 348.5 347.9 347.6 348.6 352.1 350.9 353 355.2 357.5 361.4 365.7 369.1 375 383.5 389.6 394 398.3 399.7 401.1 400.8 400.4 399.9 399.5 400.3 399.9 401.1 402 400.4 402.1 403.9 405.3 404 403.2 402.5 400.9 398.2 395.3 390.9 390.3 392.1 392.7 393.8 392.9 391 389.3 387.5 385.5 382.9 379.9 377.5 375.1 372.7 369.6 366.7 363.2 357.6 344.1 347.8 352.9 353.6 351.4 350.2 351.5 348.8 346.4 345.1 340.2 336 327 318.3 313.2 305.4 300.3 296.6 294.1 291.2 288.1 286.2 284.2 280.1 276.6 274.6 272.7 270.1 267.6 265.6 263.4 260.8 260.3 257.8 252.8 246.3 237.5 233.2 231.3 227.6 220.6 214.3 201 199.7 201 196 197.8 203.1 210 217.9 220.9 225.4 233 235.4 237 249.5 252.1 252.6 251.3 248.3 244.2 238.3 237.5 243 249.6 257.3 261.5 264 264.8 264.3 265.2 264.2 262.8 262 259.7 257.5 256.6 255.5
386.8 383.6 380.5 379.5 381.8 384.6 393.7 397 403.2 405.2 405.1 406.2 409 412.6 416.7 422.7 428.7 432.7 436.8 440 442.2 446.2 448.7 451.1 452 451.9 450.8 448.4 445.1 440.8 435.6 431.3 429.3 426.1 423 419.9 417.1 414.1 410.9 407.9 405.6 403 401.9 401 398.1 394.8 391.5 387.3 379.1 370.9 367.9 370 372.4 377.2 385.2 381.8 374.9 367.9 359.2 348.5 345.2 344.5 344.5 345 345.7 345.4 345.6 345.9 348 352.5 356 355.4 354.8 356.7 358.2 361.6 365.6 370.5 375.6 382.8 390.5 394.7 397.4 398.4 398.3 397.1 398.1 398.2 396.9 397.2 397.7 398.3 399 399.1 398 400.4 399.4 398.1 398.4 397.4 396.4 391.7 388.4 384.3 385.5 387.6 387.9 387 386.2 383.6 382.9 380.3 377.9 375.6 373.7 372 370.2 367.1 363.4 359.7 355.4 349.1 333.1 339.8 344.4 343 340.5 338.1 337 335.7 332.7 328.5 321.2 313.7 306.4 303.6 297.4 291.5 286.7 284.5 280.9 277.6 275.5 275.4 275.3 274.2 274.3 271 271 268.9 267.8 266.8 264.7 261.7 259.2 256.6 252.6 245.3 238.1 234.5 231.9 224.5 216.6 202.5 202.9 204.2 202.1 198 200.7 207.4 213.9 219.3 222.8 226.7 233.5 236.7 240.8 250.5 251.6 250.4 250.7 250.4 248.2 241.6 243.5 242.8 251.1 257.7 260.9 263.6 266 264.7 265.3 264.6 264 262.3 260 260.2 259.5 256.6
384.7 381.5 378.6 381.1 386.7 392.1 398.8 401.9 405 406.6 406.6 407.2 408 410 416 423.7 430.8 435.5 439 442.1 444.9 446.7 449.8 450.6 450.8 449.9 448.3 445 443.3 439.1 433 429.2 427 424.2 420.9 417.2 414.9 411.6 408.6 406 403.6 401.7 401.2 398.8 395.3 392 388.4 382.4 373.9 368.4 366.6 369.7 373 376.3 378.7 376.1 369.9 364 358.1 350.1 345.4 344.6 344.6 345.1 344.5 345.9 347.5 347.5 350.3 354.8 360.3 359.8 359 358.9 360.1 362.6 367.3 371.6 378.4 383.3 391 395 396.3 396.8 396.5 395.8 395.9 396.1 397.4 395.5 394 395.1 395.8 396.2 393.4 394.8 395.5 394.9 394.7 393.7 391.3 388.9 383.9 380.2 379.7 381.9 381.5 382.9 382.9 381.3 380.2 377.8 376 373.5 370.4 368.8 366.3 362 356.9 352.7 346.6 341.3 324.4 328.5 332.1 330.5 327.1 323.7 317.2 319.1 317 311.2 304.4 297.2 290.7 281.4 277.9 275.7 269.5 265 261.7 260.2 256.3 257.2 258.8 258.8 259.3 259.3 259.8 258.5 260.5 260 258.8 256.3 255.4 251.5 248.4 242.5 237.9 231.1 226.1 216.6 204.2 205.6 207.1 205.8 202 200.3 204.3 212.2 216.3 218.9 226.1 230.7 237 240.2 242.3 247.2 248.9 247.8 249.2 249.8 249.3 245.3 245.4 243.8 255.2 258.2 261.4 265.2 266.1 265.5 265.7 264.7 262.6 261.4 260.9 262.3 261.7 258.5
382.5 378.8 380.3 383.7 388.6 394.5 399.7 402.2 404.8 407.2 408.1 408.1 409.5 411.3 417.1 425.8 432.5 437.5 440.3 443.5 446.4 448.7 449.7 450.2 449 448 445.6 442.3 439.1 434.6 430.1 427.5 424.5 421.9 418.4 415.3 411.7 409 406.2 404.1 402.1 400.9 398.4 395.8 392.6 389.1 383.8 376.8 369.9 365.8 365.9 367.7 370.1 372.2 372.2 369.6 365.3 360.8 355.9 348 345.1 344.8 344.9 345.4 346.1 347.8 348.6 350.6 352.8 357.9 364.7 363.6 362.3 361.9 362 365.9 368.5 372.9 378.2 383.7 390.4 393.5 394.9 394.7 394.3 393.9 393.2 393.3 393.8 392.5 390.7 391.7 392.1 392.2 389.5 390.3 390.6 390.9 390.5 388.2 387.8 385.5 380.8 377.7 376.2 376.3 378.4 381.2 381.3 379.7 377.9 376.1 373.6 369.6 366.1 362.5 357.8 352.5 347.3 342.8 338 334.5 328.8 315.7 318.6 318.3 314.1 308 299.4 301.9 297.7 293.3 287.3 280.9 270.9 264.4 261.2 254.5 252.8 250.5 248.3 246 245.5 243.4 242.5 242.5 243.6 240.3 238.2 234.6 232.4 232.8 228.2 230.9 229.2 233 234.1 233.5 231.2 225 210.6 208.3 211.8 212.5 210 206.4 203.3 204 211.1 217.8 221.7 223.8 228.4 234.8 242.1 245.3 245.3 243.6 246.2 245.9 245.3 246.4 248.6 247.5 245.5 246.7 259 261 263.3 263.6 265.6 266.6 265.1 263.5 261.5 260.3 261 264.3 261.2 258.2
378.6 378.6 380.3 384.6 389.4 395.2 399.5 402.4 404.8 407 408.4 410.3 412.5 414.5 423.2 428.2 433.2 437.9 440.8 443.9 447.1 449 449.5 449 447.8 445.9 442.8 439.4 435.5 431.2 426.6 424.9 423.2 419.5 416 412.4 408.8 405.3 403.3 401.8 399.9 397.4 394.8 392.2 389.7 384.6 379.3 373.1 368 364.2 363.4 363.5 366 367.7 366.4 364.6 361.1 355.8 350 346.6 345.8 345 344.9 344.9 348.5 350.5 351.7 353.8 357.4 362.3 368.9 367.5 366.1 364.7 364.8 368.4 371.9 374 377.5 382.1 388.3 389.4 390.9 391.7 391.9 391.8 392.2 391.2 391.7 391.2 385.9 386.6 387.5 387.9 386 386.4 386.2 386.4 386 385.3 384.1 382.1 379.4 376.8 374.3 368.5 374.4 375.7 375.4 375.2 372.7 370.2 367.3 364.3 359.6 351.7 346.8 341.5 338.2 335.4 331.7 325.6 320.3 302.9 305.8 305.9 299.2 292.7 284 278.9 273.2 267.3 263.8 260.9 258.7 256.5 253.5 249.4 247.4 245.7 244.7 241.7 239.7 237.4 236.4 233.3 233.2 231.4 234.5 234.1 232.1 232.9 233.3 232.5 224.9 218.9 214.9 213 211.8 209.5 213.3 219.8 218.5 215.2 211.3 208.1 204.5 213.4 220.8 225.3 227.4 228.2 231.8 234.4 238.4 241.5 239.6 236.5 243.3 244.3 245.5 249.3 250.7 250 248.9 252.3 259.8 264.3 265.3 265.8 267.8 267.1 264.5 263.9 263.2 261.8 263.1 262.5 258.1 257
377.9 378.8 382.8 386.1 390.5 395.7 399.3 402.5 405.3 406.8 409.4 413.5 416.4 419.7 424 429.1 434 438.1 441.1 443.3 444 445.9 448 447.3 445.8 443.5 439.6 436.2 432.1 428.2 423.6 421.4 418.8 416.2 413 409.4 405.7 402.1 399.9 398.6 396.2 393.4 390.9 388.8 386.5 381.8 376.1 371.9 367.1 364.8 362.7 362.3 362 362.3 361 361.1 357.8 357.5 353 349.3 347.1 345.9 345.8 346.3 349.2 351.7 354.4 358.3 363.1 367.9 371.3 371.3 370.6 367.2 367.5 370.8 372.6 374.1 376.8 380.1 385.4 386 387.1 387.7 387.7 387.7 387.9 386.9 385.7 384.3 382.3 381.7 381.9 384.1 383.5 382.6 382.1 381.8 382 381.4 380.8 379.7 378.6 376.6 374.8 373.2 369.4 372.2 372.2 368.2 365.3 364.1 360.6 354 347.6 340.7 334.5 332.4 331.8 327.8 323.1 319.4 316.2 306.2 293.1 289.8 284.2 282.1 281.8 280.7 277.5 276.7 272.8 271.1 266.2 264.2 260.2 254.8 251.3 250.8 249 247.7 246.8 245.1 237.7 240 240.8 242.7 244.6 247.5 249.3 250.7 246.7 245.2 242.1 237.8 231.8 221.5 220.8 222.8 225 226.1 221.5 216 214 209.5 206.5 219 226.9 230.8 234.8 235 235 235.6 235 233.9 232.6 233.1 239.9 245.9 250.9 251.2 251.8 251.7 251.3 254.3 260.2 264.4 265.4 267.6 267.5 266 264.4 264.6 264.8 264.7 263.8 258.3 255.8 254.3
378.4 381.9 385.3 388.2 391.4 396.2 398.9 402.6 405.7 408.6 412.4 416.6 421.2 424.1 427.7 431.1 435.4 438.9 441.2 442.1 441.9 443.6 444.9 445 442.7 439.5 435.9 432.2 429.1 425 420.2 417 415.5 412.4 409.5 406.1 402.7 399 395.7 393.9 391.3 389.1 387.6 385.6 383.3 378.4 374.4 371 366.8 363.8 361.9 363.9 363.9 365.3 364.5 365.6 363.4 360.7 353.6 353.3 354.1 351.2 349.4 350.7 351.6 352.7 356.5 361.3 366.5 371.7 373.3 373 372.9 370.5 369 371.6 372.6 374 374.8 380.7 384.5 382.5 382.9 383.2 383.4 383.9 384.3 382.9 381.2 379.5 378.8 378 378.4 379.4 379.6 379.5 378.9 377.8 378.1 377.5 377.1 376.6 376.3 376.1 372.9 370.9 368.2 366.6 365.1 362 359.1 354.4 350 343.7 336.6 330.3 327 326.1 323.4 320.4 316.8 314.8 311.7 307.3 294.9 290.3 294.3 296.4 294.9 290.7 284.4 282.4 280.2 278.8 273.8 272.4 270.8 268.4 264.5 263.2 260.6 257.8 245.9 243.7 247.6 251.9 257.9 258.5 259.6 260.2 260.6 259.3 258.4 257.6 249.2 240.8 227.9 228.1 229.2 232 234.4 229.9 222.4 217.9 214.2 207.9 209.7 226.3 233 239.2 241.9 241 236.8 233.7 230.8 227.1 228 233 240.4 246.1 253.4 253 254.5 253.9 254.9 259.8 261 262.9 264.8 266.8 267.1 264.3 265 265.1 265.3 265.4 259.8 255.9 253.4 250.7
378.3 382 385.3 388.4 391.4 394.8 398.2 401.2 407.5 411 414.9 419.1 424.1 429.3 431.7 433.4 437.4 438.9 440.3 440.5 441.7 442.5 443.1 441.1 438.3 434.9 431.5 428.5 425.8 422.4 416.5 413.9 411.3 409 405.7 402.6 399.1 395.4 390.8 388.3 386.7 385.2 383.8 381.7 380.9 377 373.5 370.1 366.6 363.7 365 366.5 368.5 369.1 370.2 369.4 365.3 357.4 356.6 358.3 358.1 358.7 357.8 356 354.4 354.3 358.4 364.6 370 375.5 374.9 374.7 374.3 372.4 370.1 369.8 370.6 371.5 374.4 378 381.7 379.7 379.6 379.3 379.5 379.7 380.5 379.3 377.2 375.3 374.3 375.2 376 376.5 376.5 376.3 374.9 375.1 375.4 375.3 375 373.9 372.5 371.6 367 366.3 364.9 362.9 358.5 355.4 349.1 344.5 337.5 329.7 324.5 321 318.6 317.4 315.7 312.7 309.3 307.2 304.4 297.5 295.7 299.4 303 303.3 301.3 297.2 291.9 291.6 292 292 288.8 283.9 278.3 274.2 270 266 259.5 251.8 253 255.6 260.6 264.9 265.2 265.4 265.9 266.8 267.7 264.5 260.1 254 244.6 238.7 238.3 237.8 238.7 239.7 239.1 229 223.6 221.1 213.5 210.5 215.3 231 236 241 243.5 241.3 235.9 231.4 226.2 225.8 228.4 235 244.1 249.5 251.7 254 258.4 259.4 259 261.3 261.2 263.2 265.6 267.4 264.4 263.9 263.7 264.3 266 261.2 255.9 252.9 249.5 247.7
380.2 382.3 385.1 388 390.9 394.4 398.6 403.2 408.3 412.9 416.8 422.2 428.2 432.6 435.1 436.7 436.7 437.2 438.1 440 441.1 440.2 439.6 437.5 434.5 430.6 425.7 422.9 420.2 417.3 412.8 410.5 407.7 405.1 402 399.1 395.6 392.1 387.5 385.3 382.7 380.8 379.6 379.1 378.5 375.8 372.8 369.7 366.5 368.7 371.6 372.3 374.2 375.2 374.1 369.6 361.9 360 360.2 361.6 362.3 363.9 363.1 357.6 356 355.9 359.4 367.4 373.6 377.2 376.1 375.4 374.3 371.9 370.5 368.4 367.7 369.9 374.2 376.5 377.5 375.6 375.5 375.5 376.3 375.6 376.3 375.6 374 372.2 372 372.2 372 373.5 373.1 372.8 373.1 372.8 373 373.1 371.5 369.8 369.2 367 364 359.9 359.5 358.5 353.7 345.6 337 330 325 321.1 316.6 313.4 311.4 309.6 307.8 306 304.5 298.7 301.2 301.3 303.6 306.4 311.3 311.4 310.5 308.5 304.4 303.9 302.9 296.2 290.9 284.4 278.5 273 268.5 261.4 260 264 264.6 267 267.3 269.5 269.5 268.3 267.6 267.8 265.7 260.6 255.2 246.3 245.8 247.5 246.5 245.9 247.2 246.7 240 229.8 227.8 221.8 217.8 213.6 217.2 225.7 229.6 233.9 237.6 236.9 233.1 228.6 225.1 227.9 231.8 238.1 247.3 251.3 255.5 258.9 259.3 261.8 263.1 262.6 261.8 264.4 266.7 265.1 262.4 261.9 261.2 262.3 260 255.6 251.8 248.1 245.5 243.3
381.5 384.3 385.6 388.3 391.7 395.3 400 405.2 410.3 413.7 419.9 425.6 430.8 434.5 435.8 436.6 437 436.4 436.2 437.8 440.1 439 435.8 432.1 428.5 425.2 420.4 419.1 416.5 413.6 410.3 406.9 402.8 400.8 397.1 393.6 391.2 389.3 384.8 381.8 380.4 378.9 378 377 377 374.8 371.4 371.2 373.5 376.3 376.8 378.3 379.1 377.5 372.2 366.6 362.6 362.1 363.8 365.6 367.3 371.7 367.7 360.8 357.9 356.6 361.2 369.9 377 377.5 375.4 374.9 371.2 368 367.3 365.4 366.5 368.2 370.9 372.4 373.3 371.3 370.7 373.5 372.9 371.6 371.6 372.6 372.3 370.1 370.3 370.6 371.2 369.6 369.7 369.5 369.5 370.7 370.6 370.5 368.7 367.1 365.5 364.2 361 354.3 353 349.5 344.2 337.5 332 324.2 320.5 315.4 312.3 309.4 307.9 306.1 304.1 301.7 300.2 304.4 311.1 314.2 313.2 315.9 321.6 324.2 321.5 315.5 311.7 306.3 300.2 292.6 286.6 280.9 275.3 268.6 264.1 266 269.1 270.5 271.2 273.2 272.7 273.3 272.2 269.6 267.7 264.8 260.4 255 251.5 252.8 255.4 257.8 254.8 255.1 256.9 251.8 238.6 235.9 230.6 222.3 224.9 223.3 217 216.8 224.3 228.5 231.3 231.3 228.8 225.3 228.2 234.3 240.5 243.3 250.8 256.8 261.3 262.5 261.5 264.7 264.6 263.3 264.3 263 263.4 262.3 259.9 257.5 258 256.7 254.5 251.4 249 244.9 242.2 239.6
382.9 385.5 386.7 389.4 392.9 396.3 401.1 406.1 411.8 416.5 423.1 428.8 434.6 435.4 436 436.8 436.2 435.1 434.2 434.3 435.6 433 431.1 427.8 423.6 420.2 416.1 416.4 415 412.4 408.2 403.7 398.5 395.6 391.6 389 386.7 384.5 381.7 379.6 378.2 378 377.5 377 375.8 373.7 373 375 378.5 381.9 382.2 381.7 378.8 375.5 371.5 367.9 365.9 365.6 366.1 370.1 373.6 377.6 370.7 364.5 359.7 356.7 363.6 373.7 375.5 373.9 372.2 369.7 366.6 362.2 361.3 363.3 364.8 364.5 365.3 366.6 367 368.4 368.1 369.4 368.1 366.8 366.8 367.7 369.6 367.6 369.5 372.4 372.9 371.7 369.1 364.4 365.3 366.6 367.7 367.4 366.1 362.8 361.2 359.7 357.7 353.5 346.6 344.2 340.5 334.1 327.7 322.7 317.7 313.5 310.8 308.5 305.5 303.8 302.1 302.1 304.7 309.1 313.9 316.9 318 320.1 320 318.1 314.4 309.9 303.8 298.9 293.3 286 280.7 275.8 269.1 269.1 271.9 273.2 275.5 276.8 276.2 277.2 276 275 273.8 270.1 265.6 261.1 256.9 260 260.7 262.9 266.3 265 263 261.9 264.2 255.5 244.8 238.9 231.6 226 233.4 235 231.5 215.9 224.7 222.1 225.6 225.4 224.8 229.3 237.6 243.4 249.7 249.9 255.7 259.9 265.5 264.2 263.1 264.2 264.6 265.5 263.4 261.3 259.9 259 259.8 259.3 255.7 253.1 250.9 248.3 245.5 242.9 240.2 237.6
385.9 388 390.4 393.1 395.6 400.2 403.6 408.1 413.7 420.4 425.2 429.9 434.3 435.2 436.2 434 433.9 432.5 431.2 430.8 429.6 427.4 425.9 423.5 419.7 416 413.7 414.4 413.8 411.1 406.3 400.3 394.7 391.3 387.6 385 382 379.8 379.1 378.3 377.5 377.1 376.8 376.9 378.4 378.6 378.6 379.2 382.5 384 382.9 381.1 378.5 375.2 373.3 371.8 369.2 369.5 371.3 370.5 370.7 372.4 368.1 364 359.9 360.7 365 368.7 370.6 370 367.1 362.8 360.2 360.1 357.6 360.2 360.3 358 357 358.6 361.8 364 365.6 364.6 363.7 361.4 361.6 364.1 365.3 367 372.2 374.5 374.8 372.1 368.3 363.6 361.2 362.1 362.2 363.3 362 360 355.8 352 352.8 350.7 344.4 338.9 336.3 331.1 328.7 325 318.9 312.4 309.3 306.1 304.3 303.4 302.7 304.8 310.5 314.4 314.7 316.1 317.1 315.9 314.2 311.1 307.3 303.2 298.2 292.8 288 281.4 276.3 272.4 272.8 275.5 277.7 278.9 280.3 280.5 280.2 280.4 277.6 275.1 272.1 269 263.8 262.6 262.9 264.8 267.6 271.2 273.2 270.8 268 267.2 261 251.3 243.3 241.3 234.3 233.4 241.4 240.5 234.8 221.9 225.6 227.7 223.8 224.8 228.4 236.3 240.7 246.7 252.9 253.1 257.3 261.4 264.2 263.9 264.1 263.9 264.2 263 260.4 258.3 257.6 259.6 261.2 258.1 254.3 251.8 249.5 245.6 244.5 241.5 239.1 236.9
389.6 390.8 394.8 398.4 401.4 404.6 408.2 412 418.1 422.4 426.2 428.5 429.9 432.2 433.4 432.4 431.9 430.2 427.7 426.1 423.3 423.2 421.5 419.8 416.1 414.1 412.7 412.4 411.1 407.6 402.7 398.4 395.4 391 387.2 383.3 381.1 380.1 378.3 378.2 378.1 377.8 378.1 377.9 379.5 381 381.7 384.1 384.2 384.4 383.8 381.4 379.8 379.7 378.3 374.9 370.1 372.1 373 368.3 365.1 364 362.1 358.6 355.8 358 360.9 362 363.4 362.5 359.4 357.2 355.1 355 353.5 354.5 353.7 351.9 349.7 351.8 357.7 360.9 361.3 359.6 359.3 359 358.2 359.9 363.5 368.7 374.1 376 375.1 371.5 367 362.2 358.2 358 359.4 359.4 357.8 356.3 355.3 353.1 348.1 348.6 341.3 337.7 332.6 327.6 324 317.6 314.6 311.6 309 308 306.5 305.7 305.2 305 309.4 316.2 317.4 316.8 313.4 311 308.8 306.2 301.7 297.7 292.7 286.8 283.4 275.7 273.1 275.5 277.6 280.9 282.9 284.4 283.1 284.8 283.7 282.1 279.2 276.3 271.6 267.8 267.8 268.7 270.8 272.9 274.7 277.7 278.1 274.6 270.9 266.8 256.5 251 247.2 241.9 235.6 241.3 242.6 241 237.8 224.5 229 231.5 226.7 226.2 230.5 242.5 246.2 249.4 253.5 256 260.4 263.1 263.7 262.3 264.7 264.2 262.5 260.2 258 256.4 256.4 260.2 261.5 257.8 253.5 251 248.1 245.4 243.9 242 240.3 239.3
391.2 394.1 398.8 402.5 406.3 409.7 413.6 417.2 421.9 425.5 428.2 428.8 429.5 431.1 431.1 430.3 429 426.9 424.4 422.4 418.7 418.5 418.4 415.5 414 412 410.7 409.5 407.8 404.2 399.6 397.3 393.9 390.6 386 382.2 378.9 378.3 378.8 380.3 380.2 379.3 379.2 378.9 381.7 383.5 386 388.1 388.4 388.6 386.6 386.2 385 384.1 382.3 375.7 371.5 373.4 371.5 366.6 362.5 359.6 355.2 353.6 351.9 353.3 355.1 356.2 356.2 354.7 352.9 352.3 352.2 351.1 347.5 346.6 347.3 346.6 344.8 348.3 355.7 356.5 356.4 355.1 355.4 355.5 355.5 357.8 362.5 366.9 370.2 370.9 370.5 367 363.5 358.8 356.4 354.8 356.2 355.7 355.1 354.2 353.2 351.9 350.1 347.1 342.1 335.1 333 332.3 329 328.1 323 318.2 315.1 313.8 312.5 310.2 308.7 309.4 308.8 313.3 315.2 312.8 308.3 306.7 303.7 299.7 296.5 293.2 287.8 280 277 276.5 277.4 279.6 282.8 287 287.7 286.7 286.1 286.3 287.7 286 282.4 280.2 273.7 273.2 273.9 275.8 277.3 279 279.8 281.8 282.1 277.8 273.1 266.5 256.2 253.6 249.7 243 242.2 244.7 243.3 239.8 230.4 223.8 233.1 235.7 232.1 228.5 230.4 242.8 248.8 252.2 258.5 262 261.4 262.7 262.4 264 263.4 262.7 260.4 257.8 256.4 254.7 255.2 260.1 261.6 257.6 255.2 251.3 248.6 246.4 244.6 243.3 241.8 237.9
396.2 399.4 402.6 405.5 409.9 414.1 417.8 422.3 426.2 427.9 429.9 429.5 429.5 430 428.8 426.9 425.4 423.4 421.8 420.5 416.1 414.7 413 413.1 411.9 409.9 409 406 404.7 401.3 398.1 394.9 392 388.7 384.8 381 380.9 380.3 379.9 382 381.9 381.6 382.6 385.5 389 391.3 393.5 394.2 395.9 394.9 394.1 393.2 393 390.3 385.1 377.9 370.8 370.7 369.4 364.8 360.7 357.3 353.3 349.2 347.2 348.3 350.4 348.9 348.4 348.4 348.4 348.5 347.8 346.8 344.1 342.3 341.7 339.8 342.3 346.3 350.9 350.6 352.6 354.1 353.8 352.8 351.3 355.5 358.7 362.1 364.3 364.1 364.4 362.6 359.6 355.4 353.9 353.8 353.2 353.3 352.8 351.1 351.2 351.5 352 346.6 341.6 338.7 341.6 338.5 334.1 326.9 325.3 324.5 324.6 324.5 323.1 317.4 315.1 313.8 312.7 312.6 311.4 307.1 304.8 301.8 299.5 294.9 290 284.5 281 280.3 279.6 279.2 281.2 287.3 289.8 290.9 290.3 290.1 290.8 290.8 289.8 290.9 287.1 283.5 278.9 278.9 280.9 281.9 283.2 284.1 284.5 283.5 281.3 277.1 272.3 266.6 258.1 254.1 248.7 241.6 244.6 244.5 242.5 232.3 233.6 236.1 241.3 240.4 238 234.4 231.4 241.2 249.9 253.5 258.8 263.3 263.3 262.5 263.6 262.1 260.4 259.3 258.2 256.5 254.2 251.2 254.5 259.3 263.9 258.9 256 253.6 251.2 248.3 245 243.9 241.7 235.3
400.9 404.5 406.2 408.7 412.4 416.7 420.9 426.2 430.1 431.2 430.3 428.1 428.3 428.2 427.1 424.4 422.4 420.8 419.4 416.8 414.3 411.8 410.4 411.5 410.8 409 406.4 404.4 402.7 400.4 396.6 395.5 391.1 385.6 383.2 382 380.8 382.5 381.4 384 385.7 386.4 390.1 393.8 396.7 399 400.4 401.6 401.8 401.3 400.6 399.6 397.8 394.9 389.9 382.1 370.3 369.3 366.6 363.9 359.8 355.4 349.8 345.4 343 343.4 342.5 343 343.7 343.4 343.8 344.2 344.8 342 340.5 339.3 338 338.5 342 343.4 344.1 347.8 351.4 350.9 349.3 345 348.1 352.4 354.3 356.5 359 358.8 359.3 357.3 353.8 351.3 350 351.1 350.9 350.4 349.8 348.3 348 348.8 346.9 345.2 343.2 343.7 342.2 334.6 334.2 336 336.2 337 336.9 335.9 333.3 328.6 327 322 316.3 318.1 317.4 312.8 308.5 308.6 300.5 291.3 287.5 284.3 286.4 282.7 283.9 284 290.8 295.5 295.3 295.4 296.6 298.1 296.9 297.9 296.9 294.4 291 284 285 285.7 286.1 287 287.2 288.1 288.4 284.9 280.9 276.5 272.6 267.6 261.7 253.5 251 249.3 247.6 244.6 235.2 236.4 240.1 246.7 248.6 247.4 246.4 243 234.7 240.8 245 253.6 261.9 263.8 263.7 262.4 261.1 260 259.8 258.4 256.8 254.4 250.6 248.5 253.2 259.5 265.1 261.4 259.4 256.5 253.1 248.1 245.6 244.2 237.4 232.9
406.6 409.5 411 412.9 416.2 419.5 422.7 427.7 430.4 430.6 428.2 427.7 427 426 424.4 421.6 420.3 418.7 416.3 413.7 410.5 408.7 407.8 410 409.3 407.8 405.8 402.6 400.2 398.3 395.6 390.3 389.4 383.6 382.8 382.3 383.4 384.1 385.9 388.5 392.5 396.3 398.9 401.5 404.1 405.6 407.1 408.6 407.1 406.1 403.3 401.6 398.8 395.4 390.2 381.4 373.9 370.9 368.2 365.4 359.9 354.3 347.4 342.2 339.8 339.3 339.6 340.1 340.6 339 338.3 339.9 339.2 337.9 336.8 336.5 337.9 338.4 340.7 340.6 343.3 347.6 348.2 345.2 341.2 340.1 344 347.9 350.5 351.2 351.7 351.5 353.5 350.7 347.2 345.5 347 348.5 346.5 347.8 347.5 347.5 348 351.4 355.4 353 349.2 345.1 341.4 342.4 344.6 345.4 346.1 346.3 345.9 344 341.5 339.1 335.3 329.3 322.3 322.5 321.4 318.8 314.4 305.4 304.5 296.2 289.8 293 288.9 288.7 289.6 295.6 301.5 302 301 300.5 300.5 304.5 303.4 304 302.4 299.1 293.9 289.3 290.3 291.7 292.8 292.2 292.3 291.7 288.6 286 282.6 279.4 273.8 268.9 261.9 254.6 254.2 253 249 244.5 233.1 242.9 249.8 254 255.5 257.1 254.9 251.3 244.2 240.2 243.6 248.6 257.8 262 262.7 260.9 260.7 260.3 259.7 258.7 255.2 251.9 249.6 244.2 250.3 258.7 264.5 264.4 261.4 257.1 250.9 246.5 244.4 239.8 234 231
409.2 412.4 414 416.4 418.8 421.2 423.2 426.4 428.5 430.6 427.8 426 425.2 424.1 422.5 420.5 418.4 415.7 413.4 411.1 410.4 408.7 406 405.9 407 405.2 403.4 402.3 401.2 397.4 391.4 387.3 385.1 384 383 384.5 386.7 391.7 395.6 399.1 400.5 404.2 407.5 408.2 410.9 412.7 413.8 413.7 412.2 409.5 405.8 402.3 398.1 393.9 389.7 388.1 383.5 378 374 371 366.1 357.7 349.4 342.5 339.7 339.3 337.8 337.7 338.2 336.2 336 336.7 334.8 334.6 334.7 336.7 338.1 337.7 338.6 338.8 342 344.1 343.2 341.9 341.1 339.1 336.5 340.5 342.9 342 342.8 343.4 345.8 344.5 341.6 338.9 342 343.4 344.6 343.5 345 346.7 348.2 352.3 357.3 356.7 351.9 347.2 347.9 351 353.6 353.4 351.7 351.5 350.5 349.2 348.2 347.3 343.6 334.9 327.6 325.9 325.3 320.4 314.5 314 309.3 301.2 291.7 292 290.4 294.8 297.8 304.8 306.8 308.2 308.9 308.7 305.5 304.9 307.1 306.3 302.5 297.2 296.6 294.9 296.3 297.7 298.8 298.5 298.2 296.6 293.2 289.4 287.4 281.5 276.3 270 262.7 258.2 257.8 254.6 249 243 234.2 242.1 249 254.5 260.2 263.1 260.8 256.8 252.3 250 245.3 250.8 260.8 263.8 263 262.7 262 260.4 259.7 256.7 253.7 251 246.8 243.3 247.9 253.4 261.6 257.9 254.4 250.5 247.4 243.6 238.1 232.6 227 224.5
411.6 415.3 417 418.8 421.3 423.6 424.4 426.8 428.4 428.6 425.3 423 422.7 422.2 419.2 417.5 415.1 411.4 410.7 409.6 408 405.3 404.5 403 404.6 404 403.3 401.3 397.7 392.7 388.8 385.5 386.2 386.3 388.5 392.3 397.1 401.3 406.4 408.1 408.7 411 412.4 414.8 417.2 418.9 418.8 417.1 414.3 409.9 405.6 402.1 399.1 395.9 394.7 393.7 391.5 385.1 379.1 375.2 370.7 361.1 353.2 346.4 340.8 338.5 337.7 337.5 337.4 335.8 335.3 334.7 334.6 335.2 334.8 336.7 336.5 334.4 337.4 336.7 338.1 338.7 336.3 336.1 336 336.1 333.6 332.1 336 332.5 337.4 336.5 336 335.9 335.8 335.5 338.7 339.3 341.1 340.7 340.2 344.5 346.9 351.3 355.6 356.2 351.3 351.1 352.4 355.3 357.6 358.8 356.1 354.7 352.2 353.3 352.1 348.1 343 334.8 330.2 327.1 327 321.9 321.8 316.8 312.1 303.8 293.6 292 297 302.8 305.9 311 314.1 313.3 311.6 311.2 309.4 308.8 307.8 306.4 304.3 301.3 301.8 300.3 301.2 302 303.1 303.2 302.5 299.2 293.9 290.7 285.6 280 275.1 266.9 265 260.6 257.8 253.3 249 242.6 234.4 242.6 248 255.4 263.3 265.7 264.2 260.4 257.5 254.4 250.6 256 260.1 263.9 264.3 264.3 261.9 260.5 258.7 255.1 251.6 248.6 244.8 241.2 243.3 247.6 251.5 249.4 245.5 242.9 241.3 237.2 230.4 224.8 219.9 217.4
414.4 417.7 419.5 421.2 423.5 425.4 425.4 425.6 426.7 425.3 423.4 422.5 421.8 419.7 416.3 412.9 409.1 408.8 407.3 406.2 404.6 403.5 402.4 401.9 401.7 400.9 399 396.6 393.2 391.4 391.3 390.5 391.1 394 396.9 402.6 407.3 409.2 411.7 414.3 415.3 417.2 418.6 420 421.5 422.5 422 419.2 414.9 410.2 405.5 402.8 400.6 399.7 397.9 396.1 393.7 389.8 384.1 378.1 373.2 364.7 357.9 349.9 342.2 340.9 339.1 338.5 341.2 335.5 334.4 334 334.1 333.9 333.8 335.1 333.3 332.6 336.4 334.6 334.8 333.6 331.4 327.3 329.1 329.8 329.8 328.4 328.3 328.9 329.4 329.5 327.6 331.3 332.3 335.3 335 335.6 337 336.6 340 342.5 344.8 349.5 352.5 353 353.8 354 356.2 358 358.3 359 358 356 356.2 356.1 351.8 346.1 340.5 334.6 329.7 326.5 328.8 327.4 324.3 317.1 311.1 300.2 294.1 293.9 300.1 301.6 307.5 308.9 311.4 314.6 314.4 316.5 315.2 311 309.4 311 309 305.2 307.2 306.4 306.1 305.8 306.5 305 300.1 296.4 291.5 286.5 282 277.2 275.3 272.1 266.3 259 255.1 251.5 247.6 241.3 236.5 243.6 250.1 257 264.8 268.5 266.4 262.6 260 256.7 255.4 261 264.4 266.6 265.9 263.8 263.1 261.2 258.3 254.2 249.5 246 242.3 237.6 236.3 239.5 242.5 241.3 238.3 235.1 233.3 227.8 220.3 216.3 214.6 211.5
418.1 420.9 420.8 422.1 424.7 425.9 425.4 425.2 424.1 422.9 422.3 422 419.1 415.3 411 408.5 403.7 402.6 402.2 403.1 402.5 403 402.4 401.7 400.7 400.1 398.3 397.7 397.1 398.1 398.4 398.5 399.8 402.9 406.6 412.3 415.7 416.5 417.8 420 421.8 422.4 423 424.1 424 425.3 423.1 419.5 413.8 410.6 406 403.1 403.4 402.8 399.3 397.9 395.8 391.6 384.9 379.9 375.5 369.8 360.6 351.6 345.9 343.8 343.3 344.3 339.7 336.5 335.7 334.1 333.9 333.4 333.3 334.7 335.8 333.1 331.3 331.7 332.2 331.3 327.3 325.5 324.8 324.6 325.3 326.1 326.1 327.5 325.9 326.2 325.7 326.9 329.1 331.6 331.5 332.9 334.8 335.1 337.9 340.3 342.3 346.2 349.7 352.7 355.8 358.1 358.2 358.7 359.4 359.3 358.9 359.1 359.3 357.3 351.7 344.2 339.2 334.5 331.2 331.5 328.8 328.9 324.2 319 308.5 299.3 295.7 295.6 299.2 303 308.4 314.4 317.7 321 318.4 319.1 317.3 314.2 312.4 311.3 308.8 307.4 310.3 311.5 310.6 309.3 309 304.7 299.8 295.1 289.8 284.6 279.5 280 280.3 275.6 266.3 258.7 251.4 246.7 243.2 239.6 238.7 245.4 252.5 258.9 266.6 270.3 267.3 264.7 261.6 259.3 261.5 264.7 265.1 265.1 264.7 264.7 264 260.7 257.3 253.3 248.8 244.3 239.7 234.9 232.4 233.7 233.5 232.6 228.6 227.6 220.8 217.3 211 210.6 210.7 208.1
422 421.6 423.6 424.8 423.2 423.1 422.5 422.1 420.7 418.3 418.6 418.6 416.1 411.1 408.7 405.2 403.1 402.6 402.1 402.2 401.8 402.8 402.7 403 400.7 399.7 399.5 400 399.7 400.4 402.9 405.5 409.3 411.9 414.8 418.6 421.9 423.6 424.8 426.3 426.5 426.7 427.3 426.4 426 424.8 422.6 418.5 413.2 409.9 406.5 403.8 403 400.9 399.5 397.5 394.9 389.9 385.4 380.5 375.5 370 360 351.1 346.5 351.3 350 344.1 339.2 335.7 334.7 334.4 333.6 333.8 334.5 336.8 338 335.3 332 332.8 331.9 331.8 328.5 325.8 324.6 323.7 323.6 323.5 324.8 326.4 324.8 324.5 325 325.3 326.4 327.3 328.8 329.8 333.1 335.4 336.3 338.4 339.9 344.1 348.4 353 356.5 359.8 361.1 360.9 361.4 361.2 361.2 361 359.8 355.8 349.6 344.5 339.4 335.6 337.7 341.7 334 330.4 323.7 318.2 309.9 303.9 298 298.4 302.9 308.7 312.3 320.6 323.3 324.9 324.6 323.1 321.3 317.4 315.8 315.3 313.9 312.7 310.3 312.3 312.6 312 308.3 303 298.7 293.3 286 282.1 284.7 287 286.9 279.9 270 259.7 252.2 246.4 242.2 240.1 240.2 246.9 254.1 260.5 270.1 270.7 267.5 264.5 262.1 262.5 263.1 264.7 265.2 265.7 264.6 263.6 263.1 259.9 255.2 251.3 247.2 242.9 237 233.3 228.9 227.7 226.7 222.5 219.3 215.4 212.7 211.4 211.7 210 204 202.6
423 422.5 423 421.8 419.6 419.2 418.6 416.3 414.4 411.1 412.1 413.3 412 405.3 402.1 402.4 400.7 401.6 400.8 400.2 402.3 402.1 402 401.7 400.9 401 401.4 402.3 403.7 404.5 407.2 412.6 417.2 420.7 423.3 424.8 427.4 430.2 431.3 430.5 430.1 430 429.1 428.3 427.2 425.3 422.7 416.4 413.5 410.5 406.7 403.4 401.5 399.2 397.1 395 391.3 387.4 382.6 378 374 366.3 358.8 356.2 357.6 356.4 350.6 343.5 336.6 336 335 334.8 335.1 337.7 340.4 341.9 339.7 336.9 333.6 334.7 332.6 332.3 333.6 329.2 323.1 323.1 325.6 324.7 324 323.7 323.9 324.2 325.1 325.3 325.3 326 326.9 328.3 331.8 334.2 336.2 338.9 340.5 344 349.4 353.6 358.6 360.7 362.6 364 363.6 363.6 363.3 361.5 358.5 355.5 351.4 347 340.6 335.8 338.6 341.4 336.9 333.2 328.1 321 315.6 315.1 309.8 304.3 312 314.4 321.5 329.1 331.3 331.3 329.4 328.2 328.5 321.7 319.4 318.1 315.5 312.5 311.7 315 313.7 311.2 306.3 300.6 295.8 288.8 283.9 287.8 290 295.8 292.1 283.7 276.3 269 258.7 249.4 244.5 241.6 239.2 247.7 255.2 263.4 270.7 268.7 265.8 264.6 263.7 263.2 263.3 264.7 265.3 264.8 264 262.9 261.8 258.1 252.4 249 245.4 240.1 234.3 231.3 228.4 226.5 223.8 222 223.5 222.1 221 219.1 216.1 211.8 206.5 202.3
420.6 423 424.3 420.5 416.9 415.4 413.2 408.7 406.7 402.9 400.9 405.4 404.8 400.2 398.3 398.7 400.2 400.1 400.4 400.4 401.3 401.9 401.8 402.2 401.5 403.1 403.8 404.5 406 409.1 413.5 418.9 424.6 429.2 430.3 431.7 433.7 435.6 435.4 433.7 433.2 432.1 431.2 430 428.1 425.8 420.8 416.1 413.7 411.2 406.8 402.6 399.8 396.9 394.6 391.6 388.3 384.2 379.2 374.4 368.6 362 361.9 363.7 362.3 356.7 349.8 342.6 336.9 336.8 336.1 337.2 338.3 341 344.8 344.5 340.2 338.5 337.7 335.4 333.7 332.9 333.3 329.2 324.8 329.9 329.7 326.6 324.8 325.2 326.8 325.1 325.2 325.3 325.2 325.5 326.2 329.8 333.8 334.9 336.4 339.4 341.2 344.6 349.7 357.9 361.2 362.2 364.1 365.6 366.5 366 364.4 361.6 358.4 357.1 354.3 346.9 339.3 338 338.5 338.9 338.9 338.3 331.8 326.7 323.8 322.4 322.9 313.7 317.5 320.4 326.4 332.1 333.4 332.5 331.3 329.8 329 323.5 320.7 320.7 316.7 315.4 315.2 315.8 312.8 308.3 303.1 297.8 291.3 285.2 288.4 292.2 296.7 301.9 295.4 286.8 279.2 273 265.6 254.4 247.6 244.9 242.2 247.4 255.6 265.1 266.2 265.7 264.9 264.7 264 262.8 263.7 264.7 264.9 264.2 263.4 262.2 259.3 253.4 249.9 246.7 242.1 236.4 231.4 229.8 228.3 226.6 223.5 226.3 225.7 226.6 225.8 221.7 214.6 209 204.1 199.1
417.6 425.8 421.3 417.2 414 411.7 407.9 401.4 399.2 397.3 395.8 396.1 394.9 395 396.8 398.4 398.6 397.9 397.8 399.3 400.8 402 401.1 401.7 403.1 403.8 405.9 407.1 407.7 413.2 419.4 424.9 430.6 434.3 436.4 437.6 439.3 440.7 440.4 438.5 436.4 435 433.2 431.8 430 423.3 421.2 419.8 416.1 410.7 406.4 403.6 398.6 394.4 391.6 386.8 384.3 380.9 375.1 371.5 366.5 364.5 367.8 369.8 365.6 355.4 347.2 340.9 338.9 338.6 339.7 341.5 343.2 345.6 345.6 341.8 341.5 339.9 338.8 337.7 336.7 335 330.4 322.3 328.7 337.1 338.4 329.9 328.3 328.5 330.1 328.5 326.5 325.4 325.4 326 327.4 331.4 336.4 338.7 339.5 340.4 341.5 345.7 348.9 353.3 358.5 362.5 367.5 367.5 367.9 366.7 365.7 360.5 360.2 357.6 351.6 344 343 349.4 346.2 342 341.1 339.9 336.6 333.3 328.6 327.1 326 322 327.9 329.7 330 333.7 333.9 336.7 334 331.2 331.4 329.5 324 322.5 321.3 318.2 317.7 314.5 310.6 305.4 299.8 293.5 288 287.2 292.1 296.1 305.7 302.8 297 289.9 282.8 275.7 267.4 258.9 251.9 249.4 246.1 246.9 253.8 259.5 262.2 264.3 264.4 264.4 262.4 262.2 265.2 265 263 262 260.9 257.3 253.4 248.9 245.1 242.5 238 232.3 230.2 229.2 227.5 226.1 228.8 227.4 227.5 225 222.6 215.4 210 205.9 200 201.7
414.6 414.5 415.9 414.7 409 403 401 396.5 394 391.7 389.9 389.6 389.2 390.2 393.3 393.4 396.5 396 396 397.2 402.4 399.7 399.7 401.9 402.5 404.3 406.7 408.6 411.9 417.5 424 430.4 434.1 437.3 439.9 442 444.2 445.7 445.8 443.4 441 437.7 435.6 432.9 425.9 424.6 423.6 423 416.7 410.2 406.3 401.9 396.8 392.3 387.2 384.5 382.4 376.9 373.7 370 365 368.8 370.1 366.9 361.2 354.7 344 341.4 339.8 341.2 343.6 344.3 343 341.7 340.7 338.8 338.9 338.4 337.8 338.1 336.5 333.4 324.7 328.6 337.4 341 340.5 338.9 337.4 335.5 333.9 331.9 328.9 326.3 326.2 326.8 328.8 334.8 338.6 341.5 341.7 343.6 346.2 348.2 350.8 353.6 360.1 367.9 371.1 368.9 369.8 368.5 367.1 363.7 359.8 355.8 350.8 345.6 344.9 354.2 352.2 349.4 346.3 342.9 339.4 334.7 330.2 328.7 325.4 328.6 333.1 336 336.1 335.2 335.9 338.4 335.9 332.8 332.5 330.2 325.5 321.8 321.5 319.1 315.7 312.6 308.2 303 297 291.1 287.9 291.1 296.3 305.6 303.2 297.6 290.1 284.5 279 274.6 269 262.4 254.2 250.4 247 245.9 251.9 256.4 261.8 265 264.9 262.1 260.5 260.6 262 261.5 261.1 258.6 256.6 252.1 247.8 243.9 240.6 238.9 235.5 232.5 231.3 228.7 226.5 228 227.7 225.2 222 217.8 213.4 208.5 205.6 205 207.3 205.7
412.2 410.8 410.1 410.6 404 399.8 395.6 392.9 389.7 387.1 385.9 386.1 385.8 387.3 388.1 389.1 393.8 395.7 395.1 395.9 396.8 398.3 400 402.4 404.3 405.5 409 411.3 415.4 421.5 428.1 433.4 437.6 440.9 443.6 446.7 449 449.8 448.9 447.6 442.9 438.7 434.9 429.1 426.8 424.4 424.9 421 415.3 409.2 404.5 399.9 394.4 388.6 385.8 384.4 383.1 381.7 381.3 374.6 368.9 369.4 367 363 358.8 354.3 345 341.8 340.6 342.6 343.7 341.1 338.5 336.2 335.3 333.9 334.3 334.9 335.6 333.9 332.5 328.7 322.6 331 340.1 345.6 346.9 347.2 344.9 341.6 340.3 334.7 331.8 329.2 327.8 331.5 335.5 336.9 340.7 344.8 345.7 347.9 351.2 354.1 356.6 358.7 363.5 368.4 369.4 370.9 370.7 370.1 368.1 365.6 362.5 359 353.4 349.4 348.2 354.5 353.3 350.5 347.5 344.9 341.7 336.4 331.9 329.7 328.9 334.4 338.6 339.7 339.4 339.5 340.3 340.8 337.6 333.9 331.5 330.5 326.6 321.4 319.4 316.2 313.9 309.8 305.1 300.5 295.5 289.9 288.2 294.3 301.2 299.5 294.4 288.8 284.2 280.8 275.1 271.4 266.6 260.5 250.8 247.2 247.3 247.5 251.7 256.6 262.2 263.9 261.8 259.9 259.1 258.8 259.1 257.7 257.9 254.9 250.4 246.7 243.6 239.4 237 235.8 234.2 233.5 231.2 229.6 228.2 228.3 225.2 217.9 212.4 212.5 211.1 213.5 212.4 211.8 211.7 205.7
