ncols 200
nrows 90
xllcorner 220000
yllcorner 951200
cellsize 50
12.6 18.5 -1.8 -1.8 -1.8 -1.8 -1.8 -1.8 -1.8 -1.8 -1.8 -1.8 -1.8 -1.8 -1.8 -1.8 -1.8 -1.8 -1.8 -1.8 -1.8 -1.8 -1.8 -1.8 -1.8 -1.8 -1.8 -1.8 -1.8 -1.8 -1.8 -1.8 -1.8 -1.8 -1.8 -1.8 -1.8 -1.8 -1.8 -1.8 -1.8 -1.8 -1.8 -1.8 -1.8 -1.8 -1.8 -1.8 -1.8 -1.8 -1.8 -1.8 -1.8 -1.8 -1.8 -1.8 -1.8 -1.8 -1.8 -1.8 -1.8 -1.8 -1.8 39.3 39.4 32.7 29.6 24.1 24.7 25.1 29.8 35.6 37.3 40.7 39.8 35.1 31.9 32.1 31.2 30.4 25.5 28.5 34.2 39.8 54.7 66.1 76.7 87.5 96.6 95.6 97.6 98.7 95.2 95.8 98.7 101.6 116 117 117.4 116.3 118 114.9 114.6 115.3 114.8 116 119.3 122.7 125.5 131.2 142.7 150.1 151 150.8 149.8 149.4 151.5 155.6 157.9 159.7 162.2 164.6 165.4 166.3 167 167.7 167.6 166.7 164.2 161.7 161 159.6 158.7 159.4 160.7 162.9 165 166.9 168.6 169.5 170.6 169.4 169.7 166.9 170.6 170.4 170.1 169.9 168.9 166.8 165.1 164.9 163.8 162.4 162.1 160.1 162.7 163.7 164.3 164.7 165.1 167.2 168.9 170.3 170.8 171.7 174.3 176.3 179 181.5 182.8 184.2 185.9 187.6 188.1 188.4 188.5 186.3 185.8 184.4 183.3 181.6 177.9 171.6 167.5 163.5 159.3 154.3 150.8 148.8 148.8 148.8 148.8 148.8 148.8 150.6 158.5 160.4 160.5 163.2
0.4 2.4 -1.8 -1.8 -1.8 -1.8 -1.8 -1.8 -1.8 -1.8 -1.8 -1.8 -1.8 -1.5 -1.8 -1.8 -1.8 -1.8 -1.8 -1.8 -1.8 -1.8 -1.8 -1.8 -1.8 0.6 -1.3 -1.8 -1.8 -1.8 -1.8 -1.8 -1.8 -1.8 -1.8 -1.8 -1.8 -1.8 -1.8 -1.8 -1.8 -1.8 -1.8 -1.8 -1.8 -1.8 -1.8 -1.8 -1.8 -1.8 -1.8 -1.8 -1.8 -1.8 -1.8 -1.8 -1.8 -1.8 -1.8 -1.8 -1.8 -1.8 -1.8 -1.8 21.5 17.6 19 12.6 -1.8 -1.8 -1.8 14.6 15.2 18.3 19.6 18.2 18.2 17.4 19.2 19.9 16.4 19.9 22.6 37.4 48.7 61.5 70.4 88.6 95.3 89.4 90 90 91 99.9 96.4 102.5 111.9 111.9 113.9 112 108.7 107.8 107.4 109.4 112 117.3 121 126.7 131.1 136.5 143.2 146.4 148.5 147.1 147.6 147.5 149 151.6 155 158.5 162.1 163.9 165 165.7 165.7 165.7 165.1 163.9 161.6 159.1 158.1 157.2 156.9 157.4 158.3 160.3 162.5 164.9 167.2 169.4 170.3 171.3 171.6 172.4 172.4 172.4 172.1 171.8 171.2 168.6 166.6 164.9 163.7 162.3 161.3 158.6 160.9 162.1 163.4 164.2 164.8 167.4 168.6 169.6 170 172.1 174.5 176.8 179.7 181.1 182 183.1 184.1 185.4 186.5 186.5 185.2 183.7 183.1 182.1 181.6 179.6 175.1 169 161.2 153.6 148.8 148.8 148.8 148.8 148.8 148.8 148.9 154.2 159.3 164.2 168.5 167.4 165.2 165.1
5.4 2.6 -1.8 -1.8 -1.8 -1.8 -1.8 -1.2 1.1 -1.8 -1.8 -1.8 -1.8 22.9 10.5 17 -1.8 -1.8 -1.8 -1.8 -1.8 -1.8 -1.8 -1.8 2.3 13.9 10.7 0.8 -1.8 -1.8 -1.8 -1.8 -1.8 -1.8 -1.8 -1.8 -1.8 -1.8 -1.8 -1.8 -1.8 -1.8 -1.8 -1.8 -1.8 -1.8 -1.8 -1.8 -1.8 -1.8 -1.8 -1.8 -1.8 -1.8 -1.8 -1.8 -1.8 -1.8 -1.8 -1.8 -1.8 -1.8 -1.8 -1.8 -1.8 -1.8 -1.8 -1.8 -1.8 -1.8 -1.8 -1.8 -1.8 -1.8 -1.8 -1.8 -1.8 -1.8 3.7 7.2 9.5 8.3 18.4 28.8 45 55.1 66.4 78.1 83 79.7 79.1 88.8 101.9 98.5 92.7 92.7 96.7 101.8 104.2 101.2 101.4 100.9 104 106.9 113.3 115.7 119.8 125.1 130.8 134.8 140 143.4 144.2 144.7 146.4 148.3 147.9 148 150.3 154.3 159.6 162.6 166.3 166.5 165.7 165.4 163.7 161.5 158.3 156.7 155.2 155 154.9 155 156 157.7 160 162.5 164.9 167.5 169.5 171.1 172.1 173.3 173.3 173.4 173.7 173.6 172.7 169.9 167.7 165.5 163.2 161.8 160.4 156.3 158.6 160.3 161.6 162.4 163.5 164.9 166.4 167.4 168.9 170.4 173 175.8 178 180.3 180.8 181.5 182.8 183.2 183.9 183.4 182.5 181.3 180.5 179.7 178.4 174.7 169.1 159.7 155.8 148.9 148.8 148.8 148.8 148.8 148.8 150.5 156.4 161.5 166.3 169.8 170.7 169.4 167.4 166.2
16.1 -1.8 -1.8 -1.8 -1.8 -1.8 20.1 21.7 25.4 -1.8 -1.8 20.8 25.4 22.5 22.6 15.5 2.4 -1.8 -1.8 -1.8 -1.8 -1.8 -1.8 -1.8 5.1 6.2 3.9 1.1 -1.8 -1.8 -1.8 -1.8 -1.8 -1.8 -1.8 -1.8 -1.8 -1.8 -1.8 -1.8 -1.8 -1.8 -1.8 -1.8 -1.8 -1.8 -1.8 -1.8 -1.8 -1.8 -1.8 -1.8 -1.8 -1.8 -1.8 -1.8 -1.8 -1.8 -1.8 -1.8 -1.8 -1.8 -1.8 -1.8 -1.8 -1.8 -1.8 -1.8 -1.8 -1.8 -1.8 -1.8 -1.8 -1.8 -1.8 -1.8 -1.8 -1.8 -1.8 -1.8 -1.8 -1.8 2.2 10.8 27.4 37.9 45 57.8 63.6 69.1 78.2 82.8 92.7 93.4 85.2 83.2 88.3 95 95.5 94.7 94.7 98.1 102.5 108.8 111.3 115 118.4 126.1 130.9 134.2 137.4 140.2 142.2 144.6 148.5 148.3 146.8 147 146.9 147.9 152.7 157.2 161.4 168.3 171 164.6 161.3 157.8 155.2 153.4 152.3 151.6 151.5 152.6 153.8 155.3 157.5 160 162.4 165.1 167.8 169.4 170.7 171.9 173.2 174.4 174.7 175 173.2 171.1 168.5 166 162.9 161.2 159.6 157.6 154.5 158.3 159.9 161.4 162.3 163.5 164.8 165.9 167.1 168.7 171.4 174.4 176.6 177.6 177.7 178.5 179.2 179.5 179.7 178.4 176.6 175.6 174.5 173.3 171.7 168.3 161.1 156.4 153.3 148.8 148.8 148.8 148.8 148.8 152.2 156.5 161.8 167.5 170.4 172.1 173.1 171.8 169.4 169.4
-1.8 -1.8 -1.8 -1.8 -1.8 7 14.7 -1.8 10.9 11.6 14 12.9 21 22.5 29.2 26.5 31.2 16.3 -1.8 -1.8 2.1 2.1 -1.8 15.2 9.9 8.9 4.5 2.9 0.7 0.3 3.7 -1.8 -1.8 -1.8 -1.8 -1.8 -1.8 -1.8 -1.8 -1.8 -1.8 -1.8 -1.8 -1.1 -1.8 -1.8 -1.8 -1.8 -1.8 -1.8 -1.8 -1.8 -1.8 -1.8 -1.8 -1.8 -1.8 -1.8 -1.8 -1.8 -1.8 -1.8 -1.8 -1.8 -1.8 -1.8 -1.8 -1.8 -1.8 -1.8 -1.8 -1.8 -1.8 -1.8 -1.8 -1.8 -1.8 -1.8 -1.8 -1.8 -1.8 -1.8 -1.8 -1.8 5.2 17.1 26.1 39.9 46.1 58.5 71 75.6 79.1 78.7 78.2 77.9 81.1 87.8 89.1 89.2 94.4 97.1 103 108.9 111.4 115.2 119.7 127.9 132.1 137.6 140.4 141.7 143.2 144 143.6 144.9 144.7 144.6 146.3 146.9 148.8 152.9 156.1 157.8 161.1 161.4 159 155.2 152 150.7 149.5 148.3 148.3 149.2 151.1 152.8 154.9 157.3 159.5 162 164.6 166.4 168.2 169.3 170.6 172.1 172.8 172.7 172.1 171.4 170.3 165.7 162.7 160.6 158.6 156.5 154.5 156.6 158.2 159.2 160.6 162 163.4 164.4 165.3 166.9 169.7 172.6 175 175.8 175.7 176.4 175.9 176.1 175.3 174.3 171.6 167.4 165.5 164.2 163.4 161.6 156.8 153.2 150.1 148.8 148.8 148.8 148.8 153.5 156.8 161.6 166.6 171.4 172.6 174.6 177.1 177.3 173.4 172.8
-1.8 -1.8 -1.8 -1.8 -1.8 16.7 -1.8 -1.8 -1.8 -1.8 2.6 14.9 32.4 44.3 47.8 42.4 47.5 30.4 0.8 1.6 6.8 23.1 44.7 29.8 17.1 12.3 14.1 8.9 4.9 4.3 18.2 -1.8 -1.8 -1.8 -1.8 -1.8 -1.8 -1.8 -1.8 -1.8 -1.8 -1.8 -1.8 27.1 19.1 -1.8 -1.8 -1.8 -1.8 -1.8 -1.8 -1.8 -1.8 -1.8 -1.8 -1.8 -1.8 -1.8 -1.8 -1.8 -1.8 -1.8 -1.8 -1.8 -1.8 -1.8 -1.8 -1.8 -1.8 -1.8 -1.8 -1.8 -1.8 -1.8 -1.8 -1.8 -1.8 -1.8 -1.8 -1.8 -1.8 -1.8 -1.8 -1.8 -1.8 1.5 11.9 22.1 31.2 42.5 55.3 65 67.3 69.5 71.5 72.6 75.4 79.1 78.8 88.7 92.5 99.5 112.5 111.3 110.4 112.4 120.8 128.7 136.5 139 144.6 150.2 152.1 144.6 141.4 140 142 144.5 145.2 146.2 148.3 153.4 154.4 150.9 150.6 151.6 151.8 151 148.8 147.1 146.2 145.3 144.6 145.9 148.2 150.4 152.3 154.6 156.9 159.3 161.5 163.5 165.3 166.7 168 169.1 169.3 169.4 169 168 166.1 163.8 161.6 159.7 157.6 155.5 152.1 154.7 155.6 156.8 158.2 159.6 161.1 161.7 163.2 165.2 167.9 170 172.5 173.6 173.5 174.2 174.1 173.3 173 171.8 168.3 162.8 158.6 158.1 157.4 156.8 153.7 150.9 148.8 148.8 148.8 148.8 152.5 154.8 159 165 170 173.3 174.4 176.1 178.2 178.1 175.9 173.3
-1.8 -1.8 -1.8 -1.8 -1.8 -1.8 -1.8 -1.8 -1.8 -1.8 17.9 25.3 29.3 46.1 54 43.1 36 23.6 18.7 32 17.1 25.1 42.1 27.2 19.7 21.2 22 26 22.7 14.2 13.4 12.3 -1.8 -1.8 -1.8 -1.8 -1.8 -1.8 3.5 17.6 21.3 29.1 45.4 46.7 30.5 17.3 13.6 -1.8 -1.8 -1.8 -1.8 -1.8 -1.8 -1.8 -1.8 -1.8 -1.8 -1.8 -1.8 -1.8 -1.8 -1.8 -1.8 -1.8 -1.8 -1.8 -1.8 -1.8 -1.8 -1.8 -1.8 -1.8 -1.8 -1.8 -1.8 -1.8 -1.8 -1.8 0.9 2.9 -0.2 -1.8 -1.8 -1.8 -1.8 -1.8 -1.8 9.4 19.5 27.4 39.9 54.8 57.1 58.1 61 62.1 69.3 73.3 74.4 82.7 88.8 105.7 111.5 111.7 110.1 109.9 111.9 135 132.6 135.7 139.5 156.4 150.8 141.6 137.6 136.9 137.8 140.2 141.6 149.4 150 152.7 147.9 144.8 145.2 145.8 146.6 145.7 143.2 141.7 142.1 141.8 141.6 143.6 145.9 148 149.9 152 154.3 156.4 158.2 159.4 160.9 162.5 164 165 165.6 166 164.7 164 162.3 160.1 158.9 157.5 155.8 154.1 152.5 151.7 152.9 154.5 155.9 157.2 158.5 158.6 160.8 163.1 165.3 167.3 169.5 171 170.9 170.8 170.1 169.5 169.2 167.5 163.2 157.1 154.1 153.3 152.7 153.2 151.1 150.7 149.1 150.1 152 153.7 155.2 157.8 163.2 168.1 172.6 174.6 174.7 174.7 174.7 177.5 176.4 172
-1.8 -1.8 -1.8 -1.8 -1.8 -1.8 -1.8 -1.8 -1.8 -1.8 6.4 28.4 44 41.1 34.3 26.1 24.7 28.2 37 31.2 17.4 15.1 27 28.9 33.2 24.1 18.1 23 23.3 17.7 9.1 -1.8 -1.8 -1.8 -1.8 -1.8 -1.8 21.1 53.1 46.3 34.2 36.6 60.8 51.5 36.6 26.7 24.6 16.8 -1.8 -1.8 -1.8 -1.8 -1.8 -1.8 -1.8 -1.8 -1.8 -1.8 -1.8 -1.8 -1.8 -1.8 -1.8 -1.8 -1.8 -1.8 -1.8 -1.8 -1.8 -1.8 -1.8 -1.8 -1.8 -1.8 -1.8 -1.8 -1.8 -1.8 22.4 21.6 17.4 -1.8 -1.8 -1.8 -1.8 -1.8 -1.8 -1.8 3.6 15.7 25.3 37.7 44.1 48.8 50.9 54 61.2 63.4 70.6 74.5 83.1 96.6 105 107.6 109.8 108.2 108.5 114.6 119.7 123.1 133.3 138.3 136.6 133.4 132 130.8 131.9 134.2 137.7 145.1 156.8 151.7 141.1 141.2 140.3 140.5 140.3 139.9 138.2 136.3 136.8 137.4 138.6 141.4 143.7 146.2 148.4 149.4 150.4 152.5 153.9 155 156.2 157.7 159.6 160.4 160.6 160.4 159.8 159 158.3 157.4 156.2 154.9 153.8 153.1 152.4 151.6 151 152 153.2 154.9 155.9 156.7 158.4 160.2 162.3 164.6 166.3 167.4 167.6 167 166.2 165.7 164.6 162 157.4 152 148.7 148.6 148.4 149.4 148.6 149.1 150.1 152.2 154.6 156.3 157.8 161.9 167 171 174.1 174.8 174.7 174.7 174.7 175.1 173.9 172.3
-1.8 -1.8 -1.8 -1.8 -1.8 -1.8 -1.8 -1.8 -1.8 -1.8 -1.8 -1.8 16 12.9 12.6 20.8 18.3 21 24 17.5 18.3 13.9 20.5 42 32.8 25.7 11.9 7.1 11.2 11.2 7.9 3.9 -1.8 -1.8 -1.8 -1.8 4.8 48.6 61 52.3 42.1 42.3 74 63 50.7 35.2 25.4 32.9 23.6 18.1 -1.8 -1.8 -1.8 -1.8 -1.8 -1.8 -1.8 -1.8 -1.8 -1.8 -1.8 -1.8 -1.8 -1.8 -1.8 -1.8 -1.8 -1.8 -1.8 -1.8 -1.8 -1.8 -1.8 -1.8 -1.8 -1.8 -1.8 -1.8 -1.8 41.4 30 14.5 9.5 5.1 -1.8 -1.8 -1.8 -1.8 1 8.2 17.6 23.5 32.4 39.8 41.4 43.7 50.1 53.4 59.2 68.4 83.3 94.8 96.2 99.4 107.5 103.4 102.3 103.8 105.5 113 117.9 118.2 121.2 119.3 120.9 128.1 129.5 131.7 136.8 146.5 148.2 138.4 135.2 134.8 135.8 137.6 137.9 136.2 135 133.4 131.5 130.7 134.6 138.1 140.7 143.6 146.7 147.7 148.2 148.2 149.6 150.7 151.6 152.9 154.5 155.2 155.8 155.7 155.7 154.5 153.8 153 152.9 152.2 151.7 151.3 150.8 149 149.3 150.9 148.9 152.7 153.9 154.6 156.6 158.3 159.5 161.4 162.6 163.2 163.1 161.7 160.7 159 156.2 154 150.8 149.4 146.7 145.1 143.8 143.8 143.8 146.1 150.2 151.3 153.9 156.8 160.5 165.2 171 174.3 174.9 174.8 175.1 175.5 176.1 174 172.6 173.1
-1.8 -1.8 -1.8 -1.8 -1.8 -1.8 -1.8 -1.8 -1.8 -1.8 -1.8 -1.8 -1.8 -1.8 3.1 10.2 6 5.8 5.9 5.8 6.2 12.9 19.4 32.5 27.1 16.2 2.4 2.4 2.4 7.8 29.4 21 8.7 -1.8 3.4 7.5 21.1 51.9 62.9 57.1 50.1 61.9 78.5 61.6 61.2 53.5 36.4 39.9 39.1 50.7 43.4 63.2 48.3 86.4 88.9 69.8 49.8 18.9 -1.8 -1.8 -1.8 -1.8 -1.8 -1.8 -1.8 -1.8 -1.8 -1.8 -1.8 -1.8 -1.8 -1.8 -1.8 -1.8 -1.8 -1.8 -1.8 -1.8 -1.8 17.3 20.6 17.1 13 10.4 8.1 -1.8 -1.8 -1.6 -0.7 0.2 4.4 13.5 21 26.1 30.1 34.1 40.5 48 52.1 58.4 73.1 80.4 85.6 90.3 90.8 90.2 91.3 91.1 91.8 100.8 105.7 106.2 111.4 110.3 120.4 126.9 127.5 127.9 131.2 133.4 129.1 125.8 127 136.9 137 135.6 133.6 132.2 131.2 129.2 126.7 127.9 130.8 133.4 136.1 138.7 141.2 143.5 144.7 145 145.3 146.4 147.4 148.3 149.3 150.1 151.1 151.3 151.3 151.1 150.4 149.6 149.2 148.9 148.6 148.3 148.8 149.1 149.3 148.9 146.9 151.2 152.9 153.6 154 155.5 157 158 158.9 159.2 157.9 155.7 152.1 150.3 149.3 148.5 147.5 146.5 146.1 145.4 145.6 145.4 143.2 144.3 147.6 150 151.9 155.9 160.5 165.7 171 173 174 174.2 174.9 174.8 173.7 178.8 178.8 170.8
-1.8 -1.8 -1.8 -1.8 -1.8 -0.3 -0.9 -1.8 -1.8 -1.8 -1.8 -1.8 -1.8 -1.8 -1.8 -0.9 -1.8 -1.8 -1.8 -1.8 -1.8 -1.8 23.3 24.1 15.8 2.4 2.4 11.3 13 21.7 39.9 38.7 21.9 13.9 26.3 20.2 20.6 39.4 60.3 69.2 64.2 64.6 82.6 71.6 75.7 66 56.7 53.9 61.5 103.1 95.9 96.3 81.1 91.7 94.6 83.1 64.6 40.6 38.3 6.8 28.7 -1.8 -1.8 -1.8 -1.8 -1.8 -1.8 -1.8 -1.8 -1.8 -1.8 -1.8 -1.8 -1.8 -1.8 -1.8 -1.8 -1.8 -1.8 -1.8 12.6 15.7 15.9 14.9 13.7 13.6 1.2 0.3 -0.3 -0.7 -1.8 4.5 10.1 17.5 21.6 27.4 33.3 42.6 48.2 52.3 63 69.7 75.1 78.6 78.5 79 80.6 85.8 84.7 91.4 94.1 96.9 98 101.4 112.7 117 119.4 120.1 120.7 119.6 118.6 123.6 131.3 131.4 131.8 132.1 131 130.7 130 125.8 124.7 124.9 125.7 129.2 130.4 131.9 134.2 137.5 139.2 141.4 141.6 143 144.3 144.2 144.1 145 146.1 146.8 146.9 147.7 147 146.3 145.9 145.9 145.8 146.3 145.9 145.8 147 147.3 144.1 149.8 151.5 152.3 152.8 153.2 153.5 154.5 154.9 154.7 153.9 148.9 147.6 146.9 145.9 145 144.4 143.4 144.6 145.3 147.2 144.4 141.5 142.5 145.2 147.6 150 154.9 158.7 164.2 168.8 171.1 172.1 173.2 172.5 172.2 178.8 178.8 178.8 175.1
-1.8 -1.8 -1.8 -1.8 -1.8 20.5 11.8 -1.8 -1.8 -1.8 -1.8 -1.8 -1.8 -1.8 2 1.8 -1.8 -1.8 -1.8 -1.8 -1.8 -1.8 -1.8 -1.8 -1.8 -1.8 11.3 14.9 17.8 27 54.6 51.9 35 48.5 52 41.8 26.9 30.9 81.1 75.8 76.8 81.4 91.5 82.5 91.2 85.2 87.7 74.4 92.2 109.2 98.8 98.8 89.1 88.4 97.9 93.4 66.9 55.3 61.8 68.7 49.3 33.3 -1.8 -1.8 -1.8 -1.8 -1.8 -1.8 -1.8 -1.8 -1.8 -1.8 -1.8 -1.8 -1.8 -1.8 -1.8 -1.8 -1.8 -1.8 -1.8 8.6 14.2 12.8 14 14.8 7.1 2.2 2.9 5.1 -1.8 3.6 5.8 11.2 16.3 23.1 31.3 37.4 46.8 49.9 56.3 62.9 64 65.5 67.3 69.1 73.3 80.7 80.7 81.2 84.9 89.5 93.4 99.3 103.1 106.2 108 110.1 109.9 110.4 118.9 126.8 129.4 129.6 129.7 129.3 127.5 126 121.8 119.4 123.9 120.6 120.2 121.1 124.7 127.1 128.3 130.9 133.9 137.2 139.3 140.4 140.1 140.1 141 141.6 142 142 142.5 143.2 143.5 143 142.6 142.9 142.8 143.5 144.2 143.3 145.1 145 145.2 148.6 149.9 150.7 150.7 150.6 150 149.8 149.8 150.9 148.2 145.2 145 143.9 143.4 142.5 142 142.2 142.6 142.9 141.9 141.7 142.2 143.8 145 147.8 150.6 152.5 157.4 162.7 167.1 168.4 171.6 172.5 172.3 171.1 178.8 178.8 172.4 175.5
-1.8 -1.8 -1.8 -1.8 15.9 32.2 22.9 7.3 -1.8 2.1 7.5 15.4 33.9 35.1 31.4 17.9 14 16.1 6.3 -1.8 -1.8 -1.8 -1.8 -1.8 -1.8 -1.8 19.9 26.7 27.2 37.6 61.3 57.9 47.2 57.6 56.8 50.5 37 40.6 58.9 70.4 90.4 89.1 101.5 92.7 94.3 92 102.5 90.4 107 119.3 110.2 105.5 103.6 109.8 102.5 103.8 92 67.9 69.9 92.9 74.3 53.2 42.4 37.2 -1.8 -1.8 -1.8 -1.8 -1.8 -1.8 -1.8 -1.8 -1.8 -1.8 -1.8 -1.8 -1.8 -1.8 -1.8 -1.8 -1.8 2.1 7.6 13.1 25 29.3 22.4 18.6 14.4 13.7 12.1 8.7 5.4 7.8 13.4 21.4 29.5 37.4 41.4 48.1 57.3 59.8 61.3 64.4 66.3 70 73.4 75.5 76.4 79.5 84.3 88.2 92.9 99.3 100.9 103.5 103.5 104.5 106.6 115.5 125.4 131.6 131 127.8 126.5 124.3 122 120 115.2 115.3 120.7 116.1 116.6 115.4 115.5 119.9 123.4 124.7 128.7 133.1 134.1 135 135.9 136.9 137.8 138.6 139.1 139.1 139.1 139 139.4 139 139 139.6 139.8 140.4 140.4 141.5 142.8 139.6 145.3 146.9 147 147.7 147.9 147.5 145.9 145.6 146.2 147.1 146.2 143.9 143.1 142.2 141.3 140.2 139 139.2 140.3 140.5 139.9 139 142.8 145.2 146.8 149.9 153.5 155.1 159.7 161.5 165.2 168.3 169.9 170.9 171.3 173.6 174.8 171.6 173.5 178.4
-1.8 -1.8 -1.8 -1.8 17.8 28.8 27.3 9.9 16.6 14.8 43.5 55.9 55.1 47.1 53.2 37.8 54.3 48.6 22.3 12.9 -1.8 -1.8 -1.8 -1.8 -1.8 19.8 25.5 26.2 42.2 52.1 70.4 70.6 52.2 56.7 66.5 62.8 57.6 56.3 68.1 71.5 83.6 95.7 98.2 96.3 96.6 98.2 103.6 93.9 118.7 116.9 112.5 111.1 112.6 117.2 114.2 105.3 97.5 77.8 85.7 94.5 81.2 57.1 49.8 51.4 44.2 -1.8 -1.8 -1.8 -1.8 -1.8 -1.8 -1.8 -1.8 -1.8 -1.8 -1.8 -1.8 -1.8 -1.8 -1.8 -1.8 4.8 6.8 13 23.9 27.9 33.8 33.5 21 25.6 23.5 24.6 17.8 11.3 9.3 17.6 25.9 33.3 38.7 47.2 49.9 60.9 69.8 72.2 69.5 70.5 73.2 73.9 77.7 79 82.7 89.7 93.8 93.2 95.1 97.1 98.8 101.2 113.2 124.9 129.8 130.4 129 126.7 124.3 120.3 118.4 114.8 111.3 110.6 113.2 111.6 110.8 112.4 113.2 113.6 115.3 119.2 123.3 127.5 129.4 131.1 132.5 133.6 134.7 135.5 136 136.3 136.2 136.2 136.2 135.7 135.5 136.1 136.6 136.4 136.4 138.4 138.8 140.4 142.7 144.4 145.6 145.5 145.4 144.1 143.1 142.8 143.7 144.1 143.3 141.7 141.6 141.4 140.2 138.7 137.7 139 139.3 138.7 139.5 141.7 142.6 144.7 148.6 153.4 157 158.7 162.8 163.7 164.4 166.7 168.8 170.8 171.4 172.1 172.5 178.8 178.8 175.1
17.8 6.4 2.4 21.5 31.8 40.5 33.2 26.3 38 57.9 58.7 62.1 62.5 64.3 71 59.6 68.6 57.7 42.1 29 14.8 3.8 6.3 1.6 2.2 18.8 27 32.2 43 54.4 70.2 63.8 48 69.1 81.3 72.9 70.8 66.7 67.2 79.5 83.1 98.1 100.6 98 96.2 98.5 101.7 96 108.4 111.9 111.1 108.8 110.6 110.9 109.3 109.1 98.5 85.4 81.4 82.5 85.1 65.1 55.4 47.5 43.7 36.8 -1.8 -1.8 -1.8 -1.8 -1.8 -1.8 -1.8 -1.8 -1.8 -1.8 -1.8 -1.8 -1.8 3.8 19.2 35.4 29.6 17.6 21.1 25.3 26.3 29.5 36.9 32.7 27.4 28 28.6 24.2 20.5 14 24.6 31.6 40.7 48.3 52.7 62 67.5 70.7 69.8 73.1 72.2 73.1 79.1 82.6 87.8 88.2 89.6 91.5 93.4 95.1 101.5 103.1 119.4 131.5 127.7 127.5 130.1 126.8 120.7 119.5 113.6 109.3 109.4 109.6 109.4 110 110 112.1 112.6 111.7 113.9 116.2 120.3 123.4 126 127.8 129.4 130.6 131.8 132.5 133 133.8 134 134.1 133.8 133.3 132.5 132.7 132.9 131.9 133 134.8 133.8 136.3 138.6 139.6 141.3 141.9 141.1 140.4 140.4 140.7 140.4 140.4 138.9 139.7 139 139.3 139 137.5 138.4 138.3 139.4 139.4 140.1 141.4 144.8 147.7 150.5 155.9 158.2 160.7 163.4 164.7 165.4 167.5 169.5 171.5 173.4 173.4 174.7 178.8 177.9 176.8
8.5 7.7 13 46.4 51.9 45.4 57.1 50.1 55.5 60.1 59.7 79.2 73.9 81.3 78.7 65 67.7 52.2 41.3 38 19.9 14.5 7.2 3.7 3.4 15.7 31 38.4 40.4 48.5 55.1 47.7 44.1 74.5 82.3 71.4 69.6 68 74.9 91.8 89.6 104.9 105.6 97.7 95.2 93.3 93.3 95.8 107 108.8 110.2 113.3 112.4 111.5 111.2 115.7 102.6 103.3 105.3 94.7 88.7 66.8 63.9 62.2 60.5 53.4 38.8 -1.8 -1.8 -1.8 -1.8 -1.8 -1.8 -1.8 -1.8 -1.8 -1.8 -1.8 -1.8 -1.8 18.9 36 46.5 40.9 23.4 23.7 24.2 27.3 36.8 45 39.7 31.5 33.7 38.2 38.4 33.3 20.7 30 39.4 45.4 52.1 59.7 62.7 65 70.6 69.6 74.7 80.5 78.1 83.3 89 94 89.1 89.4 92.1 94.5 99.9 112.2 124.5 122.8 124.6 123.7 124.1 120.5 118.9 115.7 109 108.3 108.6 108.8 109.1 110.9 112.4 111.3 110.7 111.2 113 114.9 117.1 119 122.2 124.4 125.8 128.5 129.4 129.7 129.9 130.8 131.8 131.9 131.8 131 130.5 129.8 130.7 130.4 130.8 132.5 131.1 131.7 134.2 135.4 136.5 138 138.7 137.8 137.9 137.9 139.5 138.2 137.8 137 135.8 137.7 137.3 139 139.2 138.4 139.8 140.8 142.4 143.7 144.7 148.3 152.5 157.1 160.2 163.8 165.3 165.3 166.7 168.7 171 172.9 173.5 173.4 175.2 178.3 178.4 179.7
13.7 11.9 42.5 53.7 56.4 63.3 62 66 67.6 73.8 90.8 88.9 83.1 87.6 81.1 74 57.1 50 58.8 42.2 42 30 19.4 8 13.7 14.2 21.7 26.2 30.7 38.8 39.7 42.9 41.8 72.6 77.8 70.2 68.7 68.4 71.8 76.4 84.2 91.3 94 89.4 83.5 83.5 91.2 101.1 104.6 101.8 101.8 106.5 107.5 109 107.5 106.9 100.9 109.6 108.5 105.3 88.5 72.2 76.3 76 62.7 65.6 49.2 31.8 -1.8 -1.8 -1.8 -1.8 -1.8 -1.8 -1.8 -1.8 -1.8 -1.8 -1.8 -1.8 -1.8 23.1 32.5 34.1 28.1 24.7 27 29.1 30 34.6 37 34.5 33.8 38.3 42.4 40.9 43.4 41.4 37.8 40.8 45.4 52.7 57.3 58.3 64.4 68.7 81.4 82.9 82.7 85.6 84.6 86.5 87.3 88.4 90.6 96.4 97.3 113.8 119.1 126.2 125.6 120.6 115.7 113.8 112.9 109.5 107.7 108.1 108 108 108.9 109.4 109.3 109.3 109.2 109.3 110.9 112.5 113.8 115.8 117.1 120.9 122.8 126.5 126.9 126.8 126.9 126.9 127.5 129 129.3 129.5 128.8 127.6 128.6 128.5 128.4 130 130.4 128.2 130.2 131.5 132.6 133.1 131.8 133.9 132.8 132.9 132.7 136.2 135 137.7 138.8 139.6 139.6 138.5 138.9 138.8 139.6 141.7 144.3 145.7 148.6 151.4 152.9 156 160.8 164.1 165.3 166 168.8 169.9 172.3 173.5 173.7 175.6 177.7 181.5 182.8 183.3
33 44.4 53.8 56.8 61.3 57.7 71.2 68.8 76.5 88.6 95.8 85.8 83.9 86 83.7 76.8 60.8 63.7 55.2 50.2 50.7 38.2 22.9 27.1 32.6 46.8 57.3 36.2 27.1 33.3 33.4 38.3 41.6 62.7 71 64.2 66.4 69.6 65.6 67.7 77.5 82.7 86.3 81.9 81.5 83.7 91.9 98.6 100.3 103.4 109.4 107.9 105.3 107.3 111.7 104.7 98.7 98.7 107.1 98.7 84.2 80.9 87.8 80.3 64.6 64.3 65.8 55.6 -1.8 -1.8 -1.8 -1.8 -1.8 -1.8 -1.8 -1.8 -1.8 -1.8 -1.8 -1.8 -1.8 -1.8 21.9 28.5 29.5 25.7 28.5 30.2 30.4 30.8 31.6 31.9 34.3 46 50.6 69.9 73.9 69.8 61.8 46.1 43.5 47.2 54 59.1 64.9 71.1 77.9 80 81.4 88.5 93.3 88.5 86.7 87.9 87.4 92.5 103.6 107.9 109.9 115.9 115.7 115.2 112.7 109.4 106.9 106.8 108 108.7 108.8 108.6 108.3 108.5 108.4 108.2 109.4 111.8 112.3 112.5 114.1 115.3 116.7 118.7 121.4 122.3 124.8 124.3 124.1 124 124.7 126.4 126.8 126.7 126.2 125.4 126 126.1 123.9 124.8 125.8 123.1 126.4 127.7 128 126.8 131.6 133.1 134.4 135.5 135.9 137.5 139.6 139.8 140.9 141.2 141.6 140.9 140.1 141.4 140.1 141.7 144 147.4 150.4 153.1 156.5 158.8 161.4 163.9 166 168 170 171.6 173.3 174 174.6 177.5 180.2 181.8 183.5 184
65.9 66.7 58.2 54.9 56.9 62 69.3 80.7 83.5 92 86.2 82.2 85.1 97.4 100.2 83.7 83.1 87.1 62.6 68.7 62.6 43.3 32.7 48.1 58.5 69.8 71.6 52.8 33.3 29 28.4 29.2 33.9 48.6 58.6 54 54.8 59.6 64.7 62.8 68.1 75.9 69.9 72.3 84 88.6 92.9 101.4 104.9 105.6 107 107 108.8 105.5 108.3 106.3 106.9 100.1 98.4 94.1 83.2 80.9 78.7 77.5 83.3 83.9 84.7 63.2 42.3 -1.8 -1.8 -1.8 -1.8 -1.8 -1.8 -1.8 -1.8 -1.8 -1.8 -1.8 -1.8 -1.8 26.2 23.3 24.6 23.2 30.7 28.8 34.5 30.9 30.9 30 50.5 58.2 61.7 71.9 80.6 74.3 64.3 55 47.7 48.6 54.4 64.4 73.9 80.6 75.6 80.4 83 90.8 94.3 88.9 85.6 83.5 83.5 92.7 101.6 107.9 110.9 109.9 107.6 104.5 104.6 103.2 110.4 116.2 113.4 113.8 110.9 108.8 108.2 106.9 107 108.7 109.9 112.4 113.6 114.9 118.5 115.4 116.8 119.2 120.2 120.4 120.6 122.2 122.3 122.1 122.6 124.1 124.4 123.7 123.2 121.6 122.6 123.1 120.3 121.2 121.1 121.8 123.3 124.7 126.5 123.3 126.8 130.4 134.2 138.1 139 142 142 142 142.4 142.9 143.4 143.1 142.7 144.1 143.4 142.3 144 145.9 151.3 155.3 157.6 161 163.1 165.3 167.4 169 169.8 172 173.5 174.6 176.4 178.6 181 182.7 181.7 183.2
66.7 61.7 67.5 65.5 58.1 53.8 63.8 70.5 70.7 69.6 80 99 100.7 104.6 97.4 84.3 82.6 72.8 67.6 62.8 54.7 44 41.9 50.9 68.9 81.9 77.4 64.2 50.4 49.6 52.8 33.6 31.4 32 36 35.8 38.5 49 53.6 52.5 60.6 59.2 65.7 73.6 82.1 88.6 88.8 91.3 100.6 105.5 107.9 105.4 105.1 105.5 100.7 103.2 108.3 105.9 103 92.8 81.4 76 80.2 86.3 83.2 86.4 88.9 75.5 50.6 34.3 -1.8 -1.8 -1.8 -1.8 -1.8 -1.8 -1.8 -1.8 -1.8 -1.8 -1.8 -1.8 19.8 22.2 17.6 18.6 18.9 27.1 29 29.3 29.8 27.2 44.1 60.1 66.1 66.2 67 66.9 64.5 58.7 60.3 52.5 58.4 61.5 70.6 82.8 90.9 87.2 83.2 82.5 83 84.1 83.4 80.8 83.4 88.1 100 98.2 104.1 97.6 95.6 101.4 117.6 115.5 116.1 118.3 124.5 117.3 113.1 107.8 105.9 106 108.2 110.2 112.8 114.3 116 117.9 117.7 118.9 119.8 119.2 118.6 120.1 121.2 121.1 120.4 119.9 121.6 121.9 119.5 119 118.8 116.7 116.5 116 115.8 117.2 118 114.1 120.8 122.4 114.7 114.1 124.5 129.1 132.5 137 140.9 141.7 142.3 143 144.3 145.4 146.2 147.2 146.4 146.4 147 148.2 149.7 150.7 153.8 154.3 158.4 161.6 164.4 167.2 169.1 170.3 172.1 173.2 174.1 174.8 176.5 178.6 180.6 181.5 181.9 182.9
55.4 62.6 62.6 57.2 48.1 48.1 48.5 61.2 67.4 71.8 78.3 84.2 91.1 89.3 78.6 65.3 64.3 71.6 76.2 68.1 53.4 43.3 42 48.5 59.1 67.2 71.2 67.6 70.3 66.4 70.8 57.9 44.2 40.8 32 32 32 32 33.8 36.6 41.9 50.3 60 61.6 66.5 71.6 82.9 86.9 86.9 97.4 103.6 103.6 99.7 95.4 95.6 97.1 99.1 100.1 96.4 85.6 77.8 72.7 76.4 78.8 81.9 87.7 89.1 80.6 74.6 46.1 29.5 -1.8 -1.8 -1.8 -1.8 -1.8 -1.8 -1.8 -1.8 -1.8 -1.8 -1.8 -1.8 -1.8 11.6 15.5 16.7 17.4 19.3 20.6 23 21.5 32.9 47.3 52.3 58.8 58.8 59.1 58.3 65.9 90.8 77.2 58.5 59.7 62.4 79.3 91.3 86.3 82.7 82 81.7 78.2 80.4 75.8 76.3 80.6 83.2 82.7 83.1 86.7 96.6 103.6 105.9 110 113.3 113.1 116.3 117 110.6 105.7 102.6 104.3 107 110 112.4 114.1 122.9 121.2 117.6 116.4 116.9 116.7 116.6 117.2 116.9 117.3 115.1 112.9 114.7 113.2 113.1 114.8 114.1 113.9 111.4 110.7 109.9 112.5 113.1 114.3 117.1 106.6 110.1 123.6 126.2 129.1 132.6 137.5 140.7 142.5 143.6 144.8 147.4 150.7 151.9 152.4 152.1 152.5 152.4 153.3 153.8 155.9 157.8 159.4 161.1 162.1 165.9 168.8 171.4 173.1 175.1 175.7 175.8 175.7 175.5 178.1 179.3 180.6 182.1 183.6
60.8 57.7 56.4 53.6 48.1 48.1 54.7 60.4 62 61.6 75 86.3 77.8 68.6 56.7 50.5 55.6 66.7 69.4 61.1 52.3 41.5 41.1 63.9 74.6 71.6 85.4 80.1 80.4 77.2 72.8 65.9 56.3 42.8 32 32 32 32 32 33.6 33.4 37.7 43 43.2 49.2 60.1 68 70.9 76.2 82.3 93.6 93.9 89.8 90.6 90.9 91.5 88.9 87.5 83.7 78.1 75.2 70.8 74.2 83.8 82 81.7 83.4 90.1 81.1 56.9 49.9 31.5 -1.8 -1.8 -1.8 -1.8 -1.8 -1.8 -1.8 -1.8 -1.8 -1.8 -1.8 -1.8 -1.8 -1.8 11.3 10.5 9.9 13.2 16.9 18.5 38.6 55.6 68.7 72.4 63.8 58.1 65.2 71.8 78.5 77.1 72.4 58.7 59.1 68 74.9 76.6 74.4 77.7 76.5 77.4 75.5 73.2 73.8 74.7 76.7 80.3 82.2 87.4 97.6 95.4 102 106.7 113 109 110.3 110.2 108 101.9 102.4 102.6 104.1 107 108.3 112.1 121.6 119.5 117.8 116.1 116.1 115.6 112.5 111.9 113.4 112.7 110.1 110.2 110.4 110.3 110.1 110.6 109.9 107.9 107.3 107 105.7 108.4 108.6 106.3 95.4 108.5 121.5 123.8 127.1 132.8 134.7 136.5 140.5 143.1 146.3 147.3 152.1 155.6 157.9 158.5 158.7 158.2 157.7 157.4 157.9 159.6 159.9 162.2 164 164.9 165.9 169.8 172.6 175.2 177.4 178 178.6 178.6 179.2 179.8 180.7 182 182.9 184.4
46.7 39 47.7 55.4 62.5 66.1 66.6 67.3 69.8 69 69.6 75.3 63.9 56.7 47.9 41.3 53.5 64.1 59.8 57.7 48.7 42.5 48.7 78 73.3 72.7 84.4 89.4 88.3 80.3 69.6 60.4 56.7 43 34.3 32 32 32 32.3 35.8 34.8 32.3 32 32.7 37.1 40.1 44.9 48.2 59 63.2 67 74.7 77 83.6 84.7 88.5 77.7 74.9 69.1 68.2 68.7 66.9 73.2 77.9 79.4 76.9 85 79.7 70.1 63.6 50.5 42.2 25.1 -1.8 -1.8 -1.8 -1.8 -1.8 -1.8 -1.8 -1.8 -1.8 -1.8 -1.8 -1.8 -1.8 -1.8 -1.8 -1.8 6.1 8.4 27.4 45.8 60 71.4 77.1 59.3 57.8 60.4 66.1 81.4 84.2 74.1 62.1 57.4 52.7 57.1 60.6 63.3 64.7 66.4 67.1 68.1 71.6 80.6 83.9 89.8 93.9 93.4 94.8 95.7 94.3 94.5 97.3 99.7 101.2 100.7 100.4 99.2 98 98.5 97.4 100.3 104.2 107.9 109 113.8 115.3 115.8 115.9 115.8 116.1 116.3 109.4 105.7 106.2 107.5 108.9 109.4 109.5 109.1 107.5 106.5 103.3 104 105.9 102.8 103.8 93.9 94.9 114.6 118 121 125.1 129.2 133.9 137.1 139.5 143 148 152.9 156.5 158.9 161.2 164.2 164.8 164.7 163.4 162.9 162.4 162.5 161.6 163.1 165.3 166.8 168.3 168.8 171 174.1 177.2 179.1 180.5 181.6 182.5 182.3 182.2 182.8 183.7 185.1 186.9
39 39 39 47.7 59.2 75 80.9 79.4 77.1 72.7 69.6 57 46.2 45.1 36.2 39.9 52.5 64.1 60.7 53.8 48.1 49.3 66 85.6 83.6 79 89.1 101.9 97.2 84.4 67.1 54.8 48.5 39.4 37.7 32 32 32 32 32 33.2 32 32 32 32 32 31.1 34.2 38.7 43 43.3 47.8 57.2 64.9 58.4 59.5 58.4 61.8 58.3 54.7 53.8 58.1 61.7 68.4 69.9 73.2 79.8 72.7 66.5 60.1 50.3 43.2 32.2 15.7 -1.8 -1.8 -1.8 -1.8 -1.8 -1.8 -1.8 -1.8 -1.8 -1.8 -1.8 -1.8 -1.8 -1.8 -1.8 -1.8 -1.8 20.8 38.5 49.5 59.1 57.3 56.9 51.3 55.4 56.7 60.3 71.3 66.7 60.8 57.7 51.6 42.7 40.7 44.2 46.2 42.4 58.9 71.6 88.2 98.7 97.3 94.1 101.9 103.9 103.9 102.9 98.2 97.9 97.9 98.8 98.2 97.4 96.2 95.2 93.9 93.1 92.9 93.5 97.5 99 102.8 105.7 107.9 113.3 114.3 113.7 115.6 114.4 108.1 105.6 104.9 105.9 107.7 108.3 108.6 108.3 106.7 102.5 99.9 97.6 99.8 99.3 89.9 92.3 108.2 114.3 117.3 120.8 126.4 130.8 135 139.4 143.3 147.1 153.4 158.3 160.6 162.8 166.4 168.3 168.9 169.1 169.1 169.1 168.6 166.9 166.1 167.2 169.1 170.9 172.4 173.1 173.3 174.5 178.3 180.3 182.6 184.6 185.3 185.3 185.2 185.5 188.1 191 193.3
39 39 47 64 63.9 69.3 69.6 72.5 73.7 62.4 50.1 44 35.1 28.2 28.6 38.8 47.7 53.1 57.5 62.8 55.9 57.9 84 95.3 91.9 83.6 95.8 104.3 98.4 90.6 71.7 60.7 64.4 58.6 43.6 33.3 32 32 32 32 32 32 32 32 32 32 32 32 32 32 32 33.6 37.2 42.5 45.2 47.8 48.1 45.3 44.6 44 44 46.6 50.6 53.5 57.3 60.9 69.5 65 59.2 55.5 51.1 44.5 40.4 26.5 -1.8 -1.8 -1.8 -1.8 -1.8 -1.8 -1.8 -1.8 -1.8 -1.8 -1.8 -1.8 -1.8 -1.8 -1.8 -1.8 -1.8 -1.8 20.6 34.7 45 48.3 50.8 43.2 47.7 51.8 54.7 55.2 61.5 52.7 51.9 45.1 40.3 32.5 37.7 40.7 40.4 51.7 65.3 79.8 82.7 84.3 93.7 94.8 94.3 101.3 108 115.7 119.1 106.5 100.5 99.3 100.7 97.7 95.2 93.5 91.6 91.5 92.3 92.4 95.5 97.6 98.6 101.9 104.3 109.6 109.2 109.2 107.7 107.1 105.7 104.4 106.1 108.3 108.2 107.8 107.6 104 101.1 96 92.9 90.8 88 97 105.9 111.6 116.8 121.7 124.3 129.2 133.5 137.3 141.3 146 151.6 156.3 159.6 162.5 165.8 169 171.9 173.1 173.2 173.1 173.2 172.3 171.1 168.7 170.3 171.6 174.3 175.6 176 176.7 176.5 179.6 182.1 184.2 185.7 187.7 188.5 189.1 190.8 193.7 196.4 197.4
57.7 43.5 54 60.2 62 70.8 69.7 67.5 53.3 50.9 46 30.7 28.7 24.9 30 39.1 43 51.2 63.4 61.7 62.5 66.5 97.4 96.7 95.3 89.6 96.8 97.5 87.7 82.6 82.7 80.7 67.2 58.7 47.8 37.7 33.1 32 32 32 32 32 32 32 32 32 32 32 32 32 32 32 39.2 43.6 46.7 48.1 48.1 48.1 46 45.5 47.7 47.3 49.2 60.2 54.7 55.6 59.7 59.4 56.5 54.4 53.2 47.1 44.8 33.7 20 -1.8 -1.8 -1.8 -1.8 -1.8 -1.8 -1.8 -1.8 -1.8 -1.8 -1.8 -1.8 -1.8 -1.8 -1.8 -1.8 -1.8 -1.8 22.6 27.5 33.2 36.4 34.9 36.1 36.5 45.4 49.4 48.3 46.6 45.4 43 35.3 31.7 29.1 32.1 39.4 45.6 51.4 59.8 67.7 72.8 74.6 77.2 81.5 93 97.7 110.3 107.6 106.1 106.6 103.4 103.4 100.5 96.6 92.8 89.5 90.7 89.8 91.3 89.9 92 97.1 99.1 100.2 102.7 104.2 104.6 104.5 103.7 104.3 103.3 105.1 109.1 106.9 105.3 103 99.6 96.6 95.2 96.9 85.9 86.4 99.2 108.9 119.8 126.6 133.3 135.1 136 138.5 141 143.4 148 153.5 159.1 162.4 164.4 167.7 171.2 172.7 173.9 174.4 175.6 175.6 175.3 174.8 174 174 173.6 176.8 178.4 179.1 179.8 180.4 180.9 183.5 185.5 186.8 189.5 191.4 195.3 196.8 199.5 200.8 204.1
50.2 41.9 49.8 49.6 52.3 65.5 57.6 47.6 45.6 45.6 41.6 25.8 25.9 24.3 36.2 41.1 43.6 45.4 47.2 51.2 57.2 64.8 77.8 95.1 98 89.2 90.1 82.8 82.8 84.2 86.7 77.9 63.9 60.1 53 43.2 37.6 37.4 32 32 32 32 32 32 32 37.3 36.2 37.1 35.5 34.7 45.1 48.2 42.7 43.6 50.1 50.7 57.9 46.8 46.9 47.2 50.6 51.8 60 66.8 61.9 68.9 71.1 68.1 58.8 54.7 53 51.6 46.9 35.1 25.9 -1.8 -1.8 -1.8 -1.8 -1.8 -1.8 -1.8 -1.8 -1.8 -1.8 -1.8 -1.8 -1.8 -1.8 -1.8 -1.8 -1.8 -1.8 -1.8 -1.8 14.7 17.6 19.7 20.3 22.2 27.1 29.3 33.4 35 35.8 36.2 30.3 28.5 24.1 26.2 34.2 43.8 49.6 51 53.4 62.4 67.5 67.9 73 80.1 88.2 93.5 99.9 103.3 106.5 104.1 105.2 98.6 93.4 88 84.2 84.5 91.6 90.9 87.3 87.7 90.7 94.9 96 99.3 101.2 102.3 100.7 100.5 99.1 97.8 96.8 98.7 100.3 98.4 94.6 93.8 89.5 89.1 87.6 82.9 89.3 100.2 110.3 125.8 132.4 137.1 138.8 140.1 141.6 144.2 145.7 149.3 157.1 160.6 164.1 165.9 169.4 171.5 172.9 174.6 175.5 176 176.7 176 176.7 176 176.6 177.2 179.2 180.8 181.4 181.9 182.6 182.1 183.9 186 188.6 190.6 194.6 197.9 199.5 203.9 205.6 207.6
40.4 37.1 45 50.7 42 37.5 39.9 38.9 32.2 26 26.1 25.9 26.6 26.2 37.4 50.8 55.5 47.6 48.6 49.8 53.3 55.6 63 74.2 76.2 83.1 83.9 85.5 91.7 88.6 82.7 73.8 63.3 55.6 52.9 66.6 66.6 57.2 42.9 33 31.3 34.8 40.1 38 45.8 50.8 48.2 48.4 47.4 50.9 48 45.7 48 50.1 52.6 61 60.1 49 48.2 45.8 53.8 64.3 61.6 63.8 63.1 72.1 70.2 68.1 70 59 54.9 53.9 48.8 37 28.7 18 -1.8 -1.8 -1.8 -1.8 -1.8 -1.8 -1.8 -1.8 -1.8 -1.8 -1.8 -1.8 -1.8 -1.8 -1.8 -1.8 -1.8 -1.8 -1.8 -1.8 -1.8 -1.8 11.7 10.5 11.5 12.8 17.2 24.1 26.9 32.2 26.4 20.6 21.8 25.3 29.4 32.8 46 51 55.5 53.2 53.5 60.7 73 72.5 78.4 85.4 89.1 103.3 110.3 101.8 96 89.7 84.2 82.9 82 83.3 86.6 88.4 85 84 84.2 89.7 93.1 95.7 99.5 98.7 96.6 95.4 93.3 88.7 92.3 94.8 95.5 92.5 89.1 87.9 84 81.6 79.4 87.1 94.6 103 115.3 124.1 133.1 137 139.1 141.1 142.4 143.7 146.8 150 157.2 161.7 165 167.6 170.1 171.5 173.4 174.9 176.2 176.4 176.5 176.5 177 177.7 178.6 179.6 181.3 182.4 183.2 183.8 184.8 184.8 184.9 186.4 188.8 190.7 193.9 197.9 200.1 204.5 207.2 210.3
18.2 20.9 31 27.4 28.8 28.6 43.4 28.9 24.2 22 21.8 24.4 31.7 31.5 43.2 52.5 53.1 51.2 60.9 67.1 67.5 61.3 72.7 72.3 70 82.2 93.1 91.9 91.6 85.3 77 76 73.4 65.1 72.3 76 72.6 66.6 56.5 44.8 44 48.5 56.7 60.1 72.3 73.7 73.7 67.3 67.8 69.2 65.2 54.6 45.5 48.8 60.5 66.4 63.7 50 48.2 48.2 55.5 64.7 66.1 65.8 66.4 68.7 64.2 63.3 64.7 64.3 75.2 71.8 58.9 36.9 28.4 22.8 -1.8 -1.8 -1.8 -1.8 -1.8 -1.8 -1.8 -1.8 -1.8 -1.8 -1.8 -1.8 -1.8 -1.8 -1.8 -1.8 -1.8 -1.8 -1.8 -1.8 -1.8 -1.8 -1.8 -1.8 -1.8 8 9 11.3 16.6 24.9 20.7 16.2 20 21.9 23.8 27.7 39.5 53.8 53.1 50.5 50.7 51.3 59.3 63.9 66.8 69.5 76.6 83 92.6 91 87.1 81.1 80.2 76.4 76.9 78.5 78.6 77.7 75.9 77.8 80.7 82.9 84.3 90.4 93.8 94.3 90.8 86.8 84.2 82.9 84.5 86.2 87 87.1 83.8 81.4 76.1 77.5 86.7 96.5 110.2 115.7 122.6 125 129.7 132.9 139 141.8 144.3 144.6 148.8 151.4 155.2 160.2 165.2 168.6 171.7 172.8 174.3 175.9 177 177.6 177.9 178.1 179 179.1 180.3 181.5 182.7 183.9 184.7 185.3 186.3 186.6 186.1 189.1 190.3 191.9 193.9 196.9 200.1 204.2 209.3 211.2
-1.8 -1.8 10.2 15 23.2 25.6 23.2 18.5 18.2 19.8 19.2 21 26.2 31.4 54.8 61.2 68.9 70.3 73.7 75.2 69.9 63.4 72.7 72 70.3 84.8 85.7 76.7 72.3 73.2 79.8 86.8 81.8 79.1 84.4 85.3 92.4 87 72.5 61.4 60.4 78.4 76.6 72 78.8 84.7 90.6 84 79.3 76.5 68.1 57.5 54 52.9 62.6 56.4 49.9 48.1 48.2 48.2 47.3 62.5 88.4 78 72 62.2 62.2 66.7 66.2 65.4 70.3 72 60.5 39.8 26.9 21.9 15.1 -1.8 -1.8 -1.8 -1.8 -1.8 -1.8 -1.8 -1.8 -1.8 -1.8 -1.8 -1.8 -1.8 -1.8 -1.8 -1.8 -1.8 -1.8 -1.8 -1.8 -1.8 -1.8 -1.8 -1.8 8.3 16.2 2.4 2.3 10.2 8.6 13 18.2 17.4 18.4 21.3 25.3 33.2 44.8 46.9 50.4 50.1 47.3 50.6 55.4 61.2 64.6 72.1 78.5 78.4 74.6 72.8 69.9 66.5 64.9 69.6 68.8 69.9 71.5 73.6 73.4 74.8 77 83.9 85.5 81.1 82.8 81.2 77.6 76.3 79.2 78.4 80.2 81.3 78.7 76.9 79.9 92.1 99.1 103.6 113.6 120 127.8 130.5 134.5 132.5 133.6 136.2 141.2 147 152.2 155.8 158.6 162 165.7 170.5 172.4 173.2 174.7 175.7 176.8 177.8 177.6 178.7 180.4 181 181.8 183.4 184.3 185.5 186.2 186.9 187.8 188.3 188.3 189.5 191.6 194.4 195.8 197.2 199.3 203.6 207.1 211.5
-1.8 -1.8 -1.8 9.3 27.2 36.1 20.4 18 17.3 17.3 21.6 40.3 39.2 42.6 60.3 67.1 64 69.2 79.8 75.7 62.7 55.9 55.2 58.3 64.4 69.3 69.9 69.6 74.7 73.1 76.2 78.8 80.6 85.7 88.5 90.5 97.7 96.2 92.9 94.2 96 86.9 78.7 75.2 84.9 84.8 82.6 81.4 77.2 67.6 60.2 57.4 53.8 52.6 51.8 49.3 48.2 48.2 48.2 48.2 48.2 52.5 73.7 67.5 63.5 59.3 59.6 64.8 58.6 54.9 58.1 58.7 50.5 41 25.8 20.8 17.2 11.3 -1.8 -1.8 -1.8 -1.8 -1.8 -1.8 -1.8 -1.8 -1.8 -1.8 -1.8 -1.8 -1.8 -1.8 -1.8 -1.8 -1.8 -1.8 -1.8 -1.8 -1.8 -1.8 -1.8 -1.8 -1.8 -1.8 -1.8 -1.8 10.4 7.3 13.3 11.9 12 14.9 19.2 24 33.9 37.7 45.7 51.2 46.1 47.3 48.6 50.3 52.5 63 63.3 62.1 63.5 61.7 56.9 54.4 53.5 56.2 55.6 55.6 61.5 64.2 63.9 67.5 67.1 70.2 72.8 76.8 72.8 70.7 67 65.6 69.3 72.4 77.1 71.2 71.8 78.8 87.6 100.6 111.2 112 121.3 131.1 135.5 140 144.4 143.4 135.3 137.5 136.7 139.2 151.8 166.4 162.7 163.3 165.7 169.2 171 173 174.6 175.6 176.4 178.4 178.8 180 182.3 182.7 183.9 185.1 186.2 187 187.8 188.5 189.3 190 191.6 193.1 194.2 196.1 197.2 200.2 203.6 203.9 207.3 212
-1.8 -1.8 -1.8 14.3 16.9 20.1 17 16.1 15.6 21 32.7 36.9 36.3 47.4 52.1 46.2 51.9 56.5 63.1 54.1 50 50.6 51.9 54.6 65.1 66.7 66.4 69.4 77.6 85.6 92.1 91.1 92.9 96.5 95 95.2 87.1 81.5 84.5 86.3 88.4 81.7 77.4 77.6 76.1 74.2 73.4 69 64.7 63.3 58 56.9 56.7 60.2 66.1 55.3 48.2 48.2 48.2 48.2 48.2 47.9 58.1 59.7 59.7 59.6 59.1 54.6 51.9 48.7 47.1 47.5 43.5 37 26 19.5 17.1 14.4 21.3 -1.8 -1.8 -1.8 -1.8 -1.8 -1.8 -1.8 -1.8 -1.8 -1.8 -1.8 -1.8 -1.8 -1.8 -1.8 -1.8 -1.8 -1.8 -1.8 -1.8 -1.8 -1.8 -1.8 -1.8 -1.8 -1.8 -1.8 -1.8 -1.8 2.4 3.8 -1.8 6.5 16.2 14.3 19.4 25.9 35.3 37.6 42.5 56 57.1 49.9 38.7 41 44.2 47 47 47.4 44.7 44.2 41.8 44.1 42.1 45.6 51.5 52.6 53.3 54 56.1 60.2 60.6 63.8 64.8 60 59.3 56.8 60.4 66 65.4 69.2 79.6 87.6 103 107.9 109.7 121.1 129.2 138.5 144.8 153.7 155.6 148.5 144.9 143.7 143.3 143.8 144.4 154 162.1 164.4 168.1 169.4 171 172.9 174.4 175.4 176.3 178.2 180.2 182.1 184.1 184.5 186 187.2 188.4 188.6 189.3 190.1 190.9 192.5 194.4 195.9 197.1 199.3 200.7 204.1 206 206.1 207.8 212.3
-1.8 -1.8 -1.8 5.2 8.9 9.4 12 13.5 15.3 22.2 25.3 28 28.8 28.5 28.4 30.7 35.6 36.9 39.2 41.8 44.6 48.6 54.7 64.7 59.6 59.6 62.9 73.8 107.5 104.3 99.7 97.3 96.3 97.6 104 97.5 93.7 86.7 88.3 88.3 79.4 77 77 75.2 72.5 72.1 82.9 80.8 72.1 66.4 66.5 62.2 72.9 76.8 67.3 52.3 48.1 48.2 50.7 44.9 48.2 49.2 62.1 77.4 74.2 61 73.7 67.2 57.4 49.6 46.1 48.1 44.6 37.2 30 20.4 21 26.4 29.9 47.4 28.3 -1.8 -1.8 -1.8 -1.8 -1.8 -1.8 -1.8 -1.8 -1.8 -1.8 -1.8 -1.8 -1.8 -1.8 -1.8 -1.8 -1.8 -1.8 -1.8 -1.8 -1.8 -1.8 -1.8 -1.8 -1.8 -1.8 -1.8 -1.8 -1.8 -1.8 11.1 9.3 9.9 11.5 13.5 18.2 28.3 36.5 51.9 60.7 53.3 41.1 33.8 33.4 33.4 33.4 34.3 35.5 37 38.4 37 37.6 38.9 43.7 44.1 46.7 47.5 48.5 51.9 50.4 52.9 54.1 52.9 52.3 51.7 50.4 57.6 68.6 78.7 92.2 116.1 130.4 136.2 131.7 131.3 137 141.9 152.5 154 152.6 149.9 149.6 151.7 150.3 148.7 154.3 156.2 155.2 163.3 166.6 168.6 170.8 172.3 174.7 175.6 176.4 178.1 180.6 183.1 185.1 186.7 187.6 188.7 188.2 189.5 190.1 191.1 192 193.6 196 197.7 200.1 202.8 204.5 206.3 208.2 208.8 210.4 213
-1.8 -1.8 7.1 17 9.6 7.6 9.7 14.6 16.1 29.8 32.9 30.4 28.7 23.2 22.3 24.6 27.8 31.3 33.7 38.1 47.6 64.2 70 64.5 59 59 69.3 93.8 103 104.9 99.3 97.3 94.9 99.4 92.1 89.4 83 88.3 88.3 87.5 87.2 91.9 88.7 85.8 77.6 79.7 81.7 80 76.6 76.7 75 84 90.5 82.6 77.2 53.8 45.1 58.1 64.8 47.8 47.5 58.9 74.5 79.8 74.9 65.7 80.7 66.5 55.3 49.5 45.4 48.9 44.7 39.7 33.4 28.5 26.1 30.4 40 46.4 46 22.5 -1.8 -1.8 -1.8 -1.8 -1.8 -1.8 -1.8 -1.8 -1.8 -1.8 -1.8 -1.8 -1.8 -1.8 -1.8 -1.8 -1.8 -1.8 -1.8 -1.8 -1.8 -1.8 -1.8 -1.8 -1.8 -1.8 -1.8 9.4 14 19.3 17 14.4 13.7 12.6 14.1 18.9 27.6 32.5 42.3 41.7 32.4 32.7 34 33.2 33.4 33.5 33.7 33.4 33.7 33.4 35.5 37.3 37.8 42.4 40.2 46.5 43.3 45.5 43.3 42.5 45.7 46.8 45.5 43.4 48 59.7 73.7 89.8 106.1 124.7 131.1 140.1 139.6 141.2 140.5 149.9 157.7 153 150.4 153.7 154.2 156.3 154.5 153.2 155.9 157.6 157.6 158.6 162.8 165.5 168.8 172.3 174.6 175.8 176.2 177.3 180.1 182.5 185.1 186.5 187.4 187.8 188.9 190 189.9 191.9 194.1 195.4 197.8 200 203.4 205 206.6 208.7 210.9 211.9 212.5 215.5
14.3 20.2 19.6 19.7 28.5 13.5 10.7 15.5 18.6 23.5 28.2 24.1 20.4 27.3 28.5 23.3 23 25 36.8 51.6 71.7 71.7 71.6 59.2 59 58 73.9 86.5 102.7 102.1 104.1 99 90.1 84.5 82.8 82.2 82.3 82.9 87.7 92.8 94.5 93 99.8 112.6 110.9 89.9 82.6 79.6 86.2 93.8 87.4 96.3 90.7 84.6 75.2 57.5 51.1 62.9 59 54 59.3 79.1 78.4 77 76 66.9 73.7 65.7 62.4 51.7 45 43.8 43.3 41.3 45.5 49.1 34.9 32.5 35.2 36.9 35.9 34.7 -1.8 -1.8 -1.8 -1.8 -1.8 -1.8 -1.8 -1.8 -1.8 -1.8 -1.8 -1.8 -1.8 -1.8 -1.8 -1.8 -1.8 -1.8 -1.8 -1.8 -1.8 -1.8 -1.8 -1.8 -1.8 -1.8 5.3 16.3 26.6 31 32.8 32.4 27.1 28.2 29.7 26.8 20.5 20.3 22.7 25.8 35.8 41.9 42.3 38.3 34.3 33.4 33.4 33.5 33.6 34.6 34 34.7 35.6 35.6 36.5 37.3 38.4 38 38.4 39.2 39.3 38.6 39.5 41.5 52.7 71.8 94.3 116.2 123.4 126.6 134.8 138.8 147.7 154.4 148.1 157.8 154 149.5 151.6 158.7 159 158.5 156.9 156.3 158.2 157.3 158.7 160.2 161.3 163.3 167.4 171.6 173 174.4 175.5 176.6 179.6 181.8 183.8 185 186.9 188.5 188.8 189.3 190.1 193.2 194.2 197 199.5 201.9 204.9 207.1 209.2 211.7 214.1 216.1 217.7 220.3
17.9 16.2 15.1 15.1 19.4 16.3 15.4 16.4 20.7 19 19.2 23 23 26 30.9 23.8 23 26.5 50.4 67.4 80.3 77.4 69.8 59 59 59 66.7 72.6 85.4 93.9 92.5 92.9 86.5 81.4 86.3 93.7 91.5 89.9 91.1 92.4 98 95.9 109.2 113.2 114.1 108.7 99.2 96.3 89 88.6 93.7 97.2 89.1 86.4 76.5 59.6 54.8 57.9 60.3 64.8 83 81.1 86.1 77.6 72.2 67.5 67 56.4 60.7 52.7 50.1 48.1 51.1 49 57.1 52.1 50.1 41.4 36.6 37.4 36.6 30.5 -1.8 -1.8 -1.8 -1.8 -1.8 -1.8 -1.8 -1.8 -1.8 -1.8 -1.8 -1.8 -1.8 -1.8 -1.8 -1.8 -1.8 -1.8 -1.8 -1.8 -1.8 -1.8 -1.8 -1.8 -1.8 15.4 19.6 28.3 34.2 42.7 49.5 45 37.7 49 51.9 46.6 43.8 37.3 36.7 42.9 49.8 55 60.8 46.8 41.2 38.4 37.3 35.1 38.2 43.3 42.8 38.6 35.2 34.5 35.4 37.1 37.8 37.9 37.6 37.6 37.7 38.5 40.4 52 69 102.4 113.1 133 134.4 136.4 135.7 136.8 149.5 156.4 152.1 152.4 150 149.5 152.6 153.2 157.5 156.3 155.9 158.2 156 156.6 158.4 161.2 162.8 166.3 167.7 166.3 167.3 169.6 172.5 175.1 178.1 182.2 182.9 183.6 185.2 186.9 188.8 189.8 191 192.8 196.2 198.5 201.1 203.8 206.8 209.8 212.1 214.5 216.6 220 221.9 224.9
18.8 22 19.2 24.7 26.9 29.4 28 37.7 39.8 21.3 19.5 19.5 20.2 23.7 25 24.4 24.5 31.9 40.2 47.7 54.9 61.2 65.1 58.2 59.1 61.7 56.6 56.5 68.3 77.2 89.6 85.1 82.2 80.6 88.9 93 98.8 98.1 100.2 94.6 98 93.5 102 113.5 117.6 107.1 115.9 114.9 93.6 88.6 95.4 95.9 90 79 67.8 60.1 56 58.1 63.3 66.4 74.6 92.8 93.9 87.7 79.3 66.7 58.4 58.2 58.3 58.8 59.1 56.4 51.7 52 55.9 54.8 56.5 70 52.6 47.3 44.5 33.5 24.6 -1.8 -1.8 -1.8 -1.8 -1.8 -1.8 -1.8 -1.8 -1.8 -1.8 -1.8 -1.8 -1.8 -1.8 -1.8 -1.8 -1.8 -1.8 -1.8 -1.8 -1.8 -1.8 11.9 16.9 25 32.2 45.5 48.3 54.6 57.6 57.8 106.3 100.3 69.5 62.9 56 52.7 49 50.6 58.1 64.9 64 54.3 50.2 48.2 47.6 46.4 45.7 51.1 55.2 49.2 45.3 36 35.1 36.4 37.3 37.8 37.3 36.7 37.1 39.1 49.3 68.3 90.9 106.6 119.9 137.9 138.4 137.1 137 135.9 140.8 152.8 153.9 159.5 149.8 150 150.7 152.1 152.4 152.6 150.8 157.4 154.8 157.8 160.1 160.9 161.1 164.5 165.4 166.5 163.7 163.6 167.9 172.8 177.5 180.3 182.9 183.6 183.8 185.3 187.2 188.7 190.6 193.6 196.5 199.6 202.3 205.6 208.8 211.8 214.8 217.5 220.4 222.7 225.8 230.1
24.5 23.5 24.8 27.8 43 42.6 37.3 30.3 27.3 27.8 24.2 25 28.1 24.5 23.9 24.1 25.9 30.5 38.2 44.2 50.8 64.8 74.7 63.1 50 48.4 49.1 49.5 60.3 80.1 76 78.3 81.1 85 89.6 97.3 103.7 97.9 92.7 98 98 96.9 102.3 108 107.7 111.8 120.8 110 95.5 95.8 109.9 104.6 87.3 70.7 68.5 60.5 63.9 65.8 69.1 83.7 80.7 108.2 101.3 85.5 74.1 58.2 58.3 58.3 58.3 58.3 59.1 57 52 51.9 53.9 65 71.1 76.1 75.5 63.6 53.5 49.2 34.3 20 -1.8 -1.8 -1.8 -1.8 -1.8 -1.8 -1.8 -1.8 -1.8 -1.8 -1.8 -1.8 -1.8 -1.8 -1.8 -1.8 -1.8 -1.8 17.4 23.4 13.9 20.5 42.8 38.3 42.8 54.2 54.2 58 59.6 94.5 121 108.4 94.8 88 69.5 59.9 58.7 59.1 65.9 62.9 60.8 59.6 58.3 57.8 55.6 54.4 58.1 53.7 54.7 55.7 51.5 39.3 34.3 35.6 36.8 36.4 36.3 36.9 37 46.8 63.1 79 98.3 109.4 128 134.1 138.9 138.3 137.1 137.9 140.1 146.4 157.9 156.1 150.5 146.5 146.3 149 151.6 149.9 151.4 152.3 153.9 157.4 160 159.9 158.9 160.7 161.2 161.1 161.6 162.9 164.2 167.8 173.3 178.1 184.6 184 183.8 184 184.7 185.7 189.7 193.1 196.4 199.6 202.8 206.7 210.8 214.1 217.3 220.7 223.9 226.4 230 234.8
29.6 32.5 30.9 33.8 37 29.3 26.7 26.7 28.2 34.3 30 28.3 29.3 28 25.7 24.8 28.2 32.1 40.1 41.8 55.9 68.1 75.4 66.6 53 48.9 48.9 48.5 63.5 68.5 70.8 72.6 91.1 94.9 91.3 96.2 97.6 98 98 94.8 93.5 103.9 101.9 102.3 105.1 109.3 109.6 102.8 109.3 104.5 112.9 107.6 81.8 71.1 62.8 61.3 62.2 64.7 71.5 83.8 83.6 102.9 96.9 84 65.2 57.6 58.3 58.3 58.3 58.3 57.9 58.2 54.1 53.6 61.2 62.1 67.6 81.3 85.9 89.1 76 51 46.9 48.6 37.2 -1.8 -1.8 -1.8 -1.8 -1.8 -1.8 -1.8 -1.8 -1.8 -1.8 -1.8 -1.8 -1.8 -1.8 7.5 19.4 17.5 35.2 32.3 27.5 44.3 46 45.6 51.1 52.7 54.5 56.8 64.8 110.9 121.8 103.7 97.5 90.7 81.1 74.3 68.6 65.5 63.4 62.9 64.7 64 67.1 64 61.6 65.4 65.9 65.6 59 56 52 44.1 38.1 34.9 35.4 35.6 36.1 36.7 41.9 59.4 72.8 94.2 121.9 141.7 148.4 138 138.6 138 137.9 141.2 145.4 150.8 152.7 149 147.8 143.7 143.8 147.8 151.6 149.9 150.1 152.7 154 155.9 154.8 154.8 156.7 155.9 156.3 155.7 158 160.5 161.7 163.7 169.3 178.4 184.8 183.8 183.2 184.3 185.1 187.8 189.6 192.2 196 199.5 203.5 208.3 212.1 215.8 220 223.7 227.1 231.2 235.1 240.6
23 25.8 25.2 27.1 27.3 27.6 37.9 28.2 28.4 35 35.8 38.1 35.8 30.4 28.1 26.4 35 45.9 40.7 40.9 51.7 85.2 88.2 69.7 56.8 48.9 48.9 48.9 52.2 56.8 65.7 75.8 82.3 90.1 106 111 96.7 98 98 98 100.9 104.8 99 96.2 96 99.8 108.9 106.5 111.8 109.2 109.2 94.5 78.7 68.1 63.9 63.3 68.1 74.4 92.9 99.9 103.7 88.9 89.1 80 73 58.3 58.2 58.3 58.3 60.5 62.5 64.1 65.3 60.6 64.1 65.3 69 74.9 77.1 89.3 91 77.3 70.4 70.6 56 -1.8 -1.8 -1.8 -1.8 -1.8 -1.8 -1.8 -1.8 -1.8 -1.8 -1.8 -1.8 -1.8 -1.8 16.8 41.8 47 37.9 39.7 40.5 45.4 44.9 47.2 52.7 53.3 53.9 62.8 79.7 99.9 106.1 111.4 125 114.9 91.7 93 85.8 73.1 68.4 63.8 65.2 70.6 84.3 74.1 75.6 76.6 71.9 71.9 67.1 61.2 53.4 47.2 40 34.3 35.9 36.5 38.3 47.8 61.7 74.9 99.9 113.6 131.6 143.9 152.4 148.8 138.6 137.8 137.8 144.6 156.3 158.1 149.9 145.3 142.9 139.1 139.1 150.2 147.3 150 150 153.7 153.7 153.1 152.3 153.8 154.7 154.4 153.5 153 154.1 157.6 157.7 163.3 167.3 171.3 174.5 178.4 180.5 184.4 187 189.3 191.5 192.9 196 200.1 204.3 208.7 212.9 217.1 222.3 227.3 230.9 234.9 239.7 245.6
23.8 23.4 27.4 46.3 46.6 44 49 43.7 51.3 47.3 40.2 43.9 43.8 40.4 31.3 35.9 61.4 58.8 43.1 42.6 70.5 73.4 69.3 60.6 53.8 48.9 48.9 51.5 50.7 55.2 69.6 77.6 86.2 99.4 105.3 99.5 97.7 94.6 98 98.3 102 99.9 98.4 92.5 89.6 94.3 99.4 104 109.3 106.8 98.6 80.5 74.5 74.1 74.2 78.6 86 98.2 115.5 112.6 108.3 95.4 82.7 82.5 79.6 59.7 58.3 64.5 61 62.6 79.6 81.6 74.9 66.1 72.8 71.4 69.5 71 77.1 88 91.5 89.3 78.6 71.8 73.5 62.4 35.1 -1.8 -1.8 -1.8 -1.8 -1.8 -1.8 -1.8 -1.8 -1.8 -1.8 -1.8 -1.8 20.1 39.4 41.9 38.7 41.4 42.2 43.1 45.1 52.7 55 53.6 54.3 68.6 76.6 96.7 117.3 138.2 137.5 119.7 101.7 102.7 91.9 82.1 73.8 66.8 65.9 75.7 95.3 85.9 84.1 86.7 82.2 77.8 71.4 60.8 55 44.8 39.5 34.7 34.6 35.8 51.1 62.9 79.2 100.6 108.9 121.5 133.5 142.4 148.4 145.7 138.8 137.8 137.8 139.9 144.8 147.8 142.3 139.9 136.4 135.1 136.4 141.2 142 144.3 143.4 147.4 152.1 153.7 152.8 152.6 153.1 152.2 152.1 151.5 150.7 155.3 156.9 162.5 164.1 167.2 171.1 174.6 178.2 182.9 186.9 189.2 191.6 195.1 198.4 202.2 205.9 209.7 214 218.7 224.2 229.4 234.5 237.9 242.9 250.1
23.4 33 53 52.8 48.7 47.1 46.5 41.4 43.6 44 50.6 52.3 58.1 59.6 41.1 48.5 63.1 55.1 44.6 42.4 50 58.4 60.8 58.4 51.1 48.8 48.9 50.1 72.6 85.4 95.1 99.8 107.1 108.9 99.8 101.9 96.9 98 97.3 100.6 108.2 118.6 110.3 96.9 89 90.4 93.2 95.9 97.4 98 82.9 75.8 75 76.5 83.4 96.2 100.9 119.4 122.3 125 114 88.2 81.2 76.1 70.9 65.9 69 71.3 67.4 76.9 83 90.9 92.5 77.4 78 74.6 76 81 85 90.6 92.9 96.2 84.3 74.9 69.6 67.5 49.2 -1.8 -1.8 -1.8 -1.8 -1.8 -1.8 -1.8 -1.8 -1.8 -1.8 -1.8 4.4 7.6 31.2 39.2 39.6 45.2 43.1 43.8 54.2 54.7 53.6 53.5 57.6 68.3 93.6 118.2 119.7 130.6 132 117.9 101.7 98.8 93 87.4 79.7 71.2 69.4 76.5 85.4 93.7 97.3 97.3 95.1 86.5 76 62.3 53.2 45.7 39.3 35.5 34.5 46.4 63 78 99.2 108.6 125.7 122.5 130.7 136 141.1 140.6 138.7 137.8 137.8 144.6 140.1 136.5 134.9 133.3 131.8 134.8 133.1 136.9 139.4 140.8 141.2 146.4 149.6 150.3 151.3 153.3 149 149 148.7 150 151.9 155.7 158 160.6 163.7 170.8 172.2 175.8 177.1 180.5 185 187 190.2 195.7 199.1 203.4 205.9 209.5 214.6 220.2 226.1 231.6 236.9 241.6 247 251.9
29.5 40.1 49.5 62.2 53.7 48.6 53.6 45.4 42.6 49.8 54.7 66.2 68.1 58.6 49.8 66.8 53.3 46.2 44.7 44.6 59.8 62.5 59.2 56.7 49 48.9 48.9 66 78.6 91.3 104.8 109.2 107 98.9 105.4 107.4 97.6 96.3 93.6 91.4 93.4 93.6 92.1 89.2 91.8 89 89 90.5 89.6 85.7 79.1 77.4 77 95.9 97.4 117.7 114.8 124.9 125.8 127 106.7 89.1 79.6 71.4 68.2 67 67.7 75.5 88.9 90.5 100.5 93.6 97.2 85.3 92 96.1 91.3 86.1 88.7 93.5 97.7 92.1 84.9 72.1 62 59.7 49.1 -1.8 -1.8 -1.8 -1.8 -1.8 -1.8 -1.8 -1.8 -1.8 -1.8 -1.8 -1.8 17.8 28 31.1 37.1 42.6 49 50.2 58.2 54.5 53.5 54.6 65.4 87.4 103.7 115.2 120.2 121.2 116 113 109.8 108.6 106.9 98 97.1 82.3 78.3 80.4 89.6 97.4 106.2 106.9 104.5 87.3 75.5 64.9 54.7 47.2 40 44.2 51.1 62.5 79.5 89.4 106.5 125.5 131.7 131.8 126.7 131.1 140.6 137.1 137.8 137.8 150.1 141.2 136.6 133.3 134.8 134.8 134.8 134.8 134.8 137.8 136.1 137 141.5 146 146.9 148.4 149.9 149.9 149 149 149 150.8 153 155.9 159.6 164.2 165.4 169 172.3 175.5 176.3 177.6 183 184.7 188.5 192.5 198.4 203.3 206.9 210.9 215.5 221.5 227.3 233.3 239.6 246.8 251.8 256.4
70.7 61.2 58.2 51.9 49.4 59 90.1 83 64.7 61.5 69.2 71.4 64.5 59 48.8 45.4 48 41.8 45.9 43.2 50.2 51 51 50.1 48.9 48.9 48.8 64.6 73.7 99.5 103.6 96.4 94.3 104.5 109.2 103.9 106.5 97.5 90.6 87.8 85.6 85.6 90 96.9 95.3 94.1 97.7 97 84.6 81.5 80.7 80.8 80.4 88 91.6 102.4 109.3 114.6 115.1 105.5 94.3 84.4 77.6 69.4 68.2 68.3 70 93.9 96.9 92.8 99.6 87.4 84.6 95.7 105.4 102.4 99.8 98.2 95.2 91.2 81.2 74.4 71.7 71.2 71.7 72.9 54.4 44.6 -1.8 -1.8 -1.8 -1.8 -1.8 -1.8 -1.8 -1.8 -1.8 -1.8 -1.8 12.4 25.7 28.5 35.9 47.4 54 54.8 55.8 54.9 56.9 71.9 80.9 88.6 109.8 112.6 117.9 120.3 118.1 122.2 121.7 123.6 119.4 123.4 101.4 92.6 88 90.7 91.4 95.7 99.7 103.9 95.3 89.8 80.8 66.6 56.5 49.1 44 53.1 63.6 76.7 83.2 99.2 124.7 155.8 143.1 133.5 133.2 131.7 132.2 133.4 139.9 143.6 150.3 146.1 139 134.4 134.8 134.8 134.8 134.8 134.8 134.8 131.2 139.7 143.1 146.2 149.7 150.2 151.3 149 149 148.9 150.2 152 154.3 156.5 160.1 167.9 166.3 168.6 172.1 175.8 176.9 177.8 180.4 182.6 184.9 188.9 195.7 201.5 206.3 211.1 216.3 223.2 229.1 236.6 242.7 248.2 253.4 258.9
85.9 75.7 67.3 51.4 49.3 82.8 99.7 90.4 74 79.4 74.9 73.3 64.4 48.5 48 48 48 42.8 48 48 42.8 50.8 48.9 48.9 48.8 48.8 57.9 60.3 68.3 79.6 77.5 87.8 94.9 94.9 104.9 111.4 107.6 105.7 106.2 89 85.6 88 92.5 91.5 97.6 104.6 107.3 104.1 84.5 80.7 80.4 82.8 88.4 85.9 86.5 82.9 87.8 84.4 79.4 83.3 81.7 83.6 79.3 71.8 68.6 68.2 69.9 77.8 83.7 87.4 82.7 81 82.5 88.7 98 98.4 99.5 97.4 92 84 82.1 82.7 82.7 79.5 74.8 78.9 75.8 49.4 31 -1.8 -1.8 -1.8 -1.8 -1.8 -1.8 -1.8 -1.8 -1.8 -1.8 -1.8 15.5 23.6 38.1 60.1 66.4 62.6 57.5 60.8 77.1 87.4 89.1 95.1 102.4 110.2 148 150.5 136.8 140.5 131.5 136.4 128.6 120.3 107.3 100.2 107.1 108.3 92.9 94.9 98 91.8 87.7 83.8 74.9 65.8 57.2 49.1 50.3 65.7 85.7 91.2 100.6 115 159.1 163.7 154.4 143.9 138 132.8 135.2 139.9 140.3 143.3 148.1 145.5 143.1 138 134.8 134.8 133.9 134.8 134.8 134.8 130.5 137.1 146.7 150.8 151.3 153.4 154.2 150.6 149 152.4 152.6 152.5 155.6 156.2 159 163.3 165.4 169 171.9 176.1 177.5 178.4 179.1 180.9 183.5 187.3 192.6 198.2 204.2 208.7 215 222.4 228.3 236.1 242.9 249 254.2 260.3
92.8 82 71.1 75.6 58.3 87.7 99.5 104 92.6 83 81.2 81.4 69.3 48.1 48 48 48 48 48 50.3 55 48.9 48.9 48.9 48.9 48.9 47.3 49.7 58.3 65.7 76.5 82.4 86.4 88.6 96.2 93.9 98.5 97.7 95.1 88.4 84.9 86.5 87.9 89.6 92.8 112.3 104.8 101.3 82.2 80.5 87.9 94.5 90 85.7 87.5 81.8 76.6 69.3 70.4 70.8 74.4 75.2 72.1 72.3 65.4 67.7 69.2 62.7 72.3 71.9 77.4 80.3 87.2 90.2 103.9 106.9 99.9 103.6 109.2 111.6 105.7 104.5 95.6 94.3 83.4 79.6 87.5 74.1 39.2 -1.8 -1.8 -1.8 -1.8 -1.8 -1.8 -1.8 -1.8 -1.8 -1.8 -1.8 -1.8 29.3 36.6 54.1 62.2 63.3 57.7 66.2 73.8 75.5 78.9 79.9 96 118.1 150.4 150 149.2 150.6 150.4 148.8 143.2 134.9 114.5 118.2 119.7 114.3 95.5 91.1 92.5 89.5 84.8 80.8 71.7 63.8 57.4 51 65.8 79.6 106.1 107.3 123.2 155.5 161.4 157.6 157.5 145.5 136.7 137.2 144.5 151.4 159.9 155 148.6 145.6 147.8 133.9 134.8 134.8 134.8 134.8 134.8 134.4 131.3 138.4 150.4 160 153.4 154.6 156.1 155.2 150.9 152.7 153.1 153.1 154.1 155.5 158 161.3 165.2 169.3 171.5 175 177.9 177.9 178 179.1 184 190.5 195.1 197.5 200.9 206.8 214.2 221.9 227.2 233.9 240.9 248.4 255.1 261.2
89.2 90.5 99.2 99.9 93.1 85.4 102.7 102.1 96.7 84.8 87 94.3 72.8 52.2 42.6 48 48 48 46.5 50.4 53.7 62.6 58.5 48.9 48.6 48.8 48.9 48.9 63.6 73.6 75.4 78.8 85.6 88 87.4 76.7 80.5 80.8 87.3 88.3 85.2 83.6 84.1 90.1 93 96.7 104.2 85.8 79.4 79.6 89.1 96 100 85 75.3 68 65.9 66.2 65.1 64.1 65.3 64.3 60.5 58.4 58.1 60.7 61.7 58.1 60.3 66.3 70.9 81.7 97.6 109.2 107.7 101.1 99.2 106.6 111.1 117.5 114.5 106.2 100.3 105.8 99.5 94.6 86.4 83.2 59.6 27.1 -1.8 -1.8 -1.8 -1.8 -1.8 -1.8 -1.8 -1.8 -1.8 -1.8 -1.8 13.4 28.9 36.8 44 49.3 52.9 54.6 62.4 68.8 77.1 91.3 99.9 122.8 140.3 142.9 144.8 146 146.6 151 143.3 136.6 127.2 135.5 114.7 103.2 92.6 89.3 87.4 85.3 80.3 76.1 69.3 63 57.2 66.6 90.8 116.8 131.6 129.9 143.2 154.7 158.3 157.9 151.8 140.7 137.1 141.6 149.1 160.5 160.2 150.7 145.9 145.9 151.6 139.5 134.1 134.8 134.8 134.8 133.3 131.4 132.8 140.1 149.2 156.7 155.7 158 160.4 157.8 151.8 152.7 153.4 154 155.8 157.6 160.3 163.4 167.7 169.6 170.8 173.2 174.2 175.1 175.3 177.9 182 188.9 194.2 198.3 201.1 206.2 213 220.4 227.3 233.8 241.3 248.8 255.6 262
92 113.9 110.5 111.5 116.1 113.3 99.4 108 100.4 84.4 88.3 88.4 68.3 62.6 49.6 48 48 50.2 47.3 47.3 63.2 57.3 49.2 48.9 52 55.7 48.8 48.9 51.2 57.7 63.2 68.5 90.5 86.7 74.5 65.7 65.4 83 93.1 86.4 82.6 81.9 77.2 84.1 94.5 88.6 85.3 84.1 76.9 77.1 82.3 94.7 86.5 79.7 62.2 59.3 61.3 66.3 62.2 60.8 58.4 58.1 58.1 58.1 58.1 58.1 58.1 58.1 58.1 69.9 77.3 84.7 92.1 96 97.1 92.4 90.8 99.7 105.4 104.8 105.1 104.1 102.1 97.1 95.3 86 79.9 79.9 71.5 44.9 -1.8 -1.8 -1.8 -1.8 -1.8 -1.8 -1.8 -1.8 -1.8 -1.8 -1.8 -1.8 24.2 27.5 37 35.3 35.4 38.4 59.6 95.2 101.6 110 114.4 122.1 142.9 139.8 138.9 138.8 136.3 134.2 130.4 125.4 117.6 111 104.6 102.9 92.1 88 88 81.4 75.9 70.4 66.9 63.4 64.2 92.2 114 138 155.9 145.1 149.1 149.3 148 145.1 144.4 137.9 137.9 144.7 154.6 154.3 149 146 149 149 143.2 138.4 134.4 134.8 131.1 131 131.6 134.8 130.1 144.2 152.2 150.6 156 161.4 167 160.3 150.3 152.2 153 157 159.2 161.3 163.1 166.1 167.9 169.9 170.5 174.5 171.6 172 173 176.3 180.9 184.5 190.4 196.4 202.3 205.2 211.5 219.4 228.4 235.2 242.2 248.6 255.6 262.9
109.6 118.1 119.2 119.4 112.8 111.5 112.7 103.9 99.1 90.9 94.8 77.4 69.9 62.6 49.3 47.5 44.6 49.8 47.3 66.2 58.6 49.5 48.9 60 60.3 58.6 61.9 49.9 48.8 48.9 50.2 49.8 61.4 62.7 63.7 63.3 63.9 65.6 75.4 72 70.4 69.6 74.8 77.3 81 79.7 81.9 83.4 75.6 70.3 78.9 80.9 70.3 66.3 54.3 52.7 54 55.9 57.7 58.3 59.4 61.8 63.4 66.7 64.1 57.8 58.1 59.8 69.7 74.8 77.5 76.2 73.5 77.3 85 91.6 86.6 95.9 101.6 101.8 103.7 99.1 94.4 93.1 88.7 84.4 77.2 78.2 75 69.5 31.1 -1.8 -1.8 -1.8 -1.8 -1.8 -1.8 -1.8 -1.8 -1.8 -1.8 -1.8 -1.8 18 19.3 21.7 29.8 51.8 77.3 99.3 106.6 107.5 115 123.5 125.1 135.4 128.3 128.5 122.7 115.2 108.2 101 97.5 97.6 94.2 98.5 91.5 85.3 84 77.5 73 68.7 65.9 65.9 72.4 103.9 120.5 147.6 158.6 148.9 154 144.1 142.5 139.2 138.8 138.2 148 152.3 152 149.3 143.4 142.4 147.8 146.5 143.8 138.3 134.5 130.5 133.6 134.8 134.8 134.8 134.8 138.8 151.5 150.2 155.8 164.7 165.5 162.9 150.2 150.9 151.5 154.2 159.3 160.5 165.6 167.1 166.7 167 166.7 166.9 167.2 167.3 168.4 174 179.8 184.1 189 193.7 198.9 202.3 209.3 217.5 228.3 234.2 240.6 247.2 254.6 261.8
112 107.2 117.8 113.8 113.2 106.9 97.2 99.4 97.9 91.5 76.5 72.7 66.3 72.1 67.9 64 60.8 71 75.8 71.2 57.3 60.3 57.7 59 59.1 75.2 66 50.4 48.9 48.9 50.3 50.5 53.5 58.6 62.1 69 69.2 67.3 61.9 63.5 61.3 66.2 66.2 65.5 65.2 65.1 68.4 73.9 72.3 60.3 60.2 58.1 55.1 51.5 48 48 48 52.3 58.3 66.5 65.7 65.1 68.6 71.3 69.9 63.3 62.3 61.9 62.1 64.6 69 69.5 71.7 73 78 85.2 87.1 78.4 87.5 96.2 96.9 92.6 88 86.1 82.7 79.7 76.5 75.4 84 73.5 49.3 23.7 -1.8 -1.8 -1.8 -1.8 -1.8 -1.8 -1.8 -1.8 -1.8 -1.8 -1.8 -1.8 5.2 23.9 40 79.1 97.5 100.8 99.8 101 99.6 104.3 107.9 118.8 117.8 109.3 104.9 98.2 93.3 90 85.4 82.3 83.4 84.5 81.4 78.8 75.6 78.4 70.9 67.4 67.5 70.2 80.6 109.1 135.4 152.7 151.6 148.7 150.2 143.3 140.9 140.3 150.2 143.9 138 146 151.7 145.5 142 142.5 152.2 152.3 152.1 143.4 136.6 131.4 134.8 134.8 134.8 134.8 134.8 133.6 141.6 147 156 158.8 160.6 158.8 149 150.4 152.1 154.6 156.6 158.5 159.7 166.6 165.1 164 163.2 163.1 163.7 161.2 165.4 169.7 174.2 179 183 190 193.7 198.3 208.8 217.1 225 230.3 236 242.6 250.9 259.7
117.4 115.4 116.7 116.5 113.1 114.3 108.6 91.3 81.8 74 73.9 87.7 94.3 88.7 86.5 97.8 94 95.9 89.2 79.6 67.4 67.2 59 59.5 73.3 71.4 59.5 48.9 54.6 48.6 48.9 47.6 50.5 54.5 70.6 71.6 63.8 58.7 63.4 63.9 63.4 64.1 57.5 52.6 51.1 53.3 56 58.4 58.3 58.2 55.2 52.1 51.4 48.3 48 48 48 56.9 69.6 72.1 66.6 66 69.6 71.5 72.8 71.5 65.8 67 63.9 65.9 70.6 74.9 77.2 76.8 77.9 79.7 77.4 73.2 81.9 85.8 85.8 85.1 86.4 90 84.1 78.8 78.3 73.5 79.4 80.3 76.6 43.7 21.3 -1.8 -1.8 -1.8 -1.8 -1.8 -1.8 -1.8 -1.8 -1.8 -1.8 -1.8 -1.8 16.1 37 64.3 74.8 82.4 83.5 84 87.9 95.1 90.2 92.9 94.4 89.7 89.5 91.8 84.9 83.9 79.6 76.9 74 75.4 74.5 71.6 69.7 69.6 69.9 68.5 70 74.3 86.2 109.5 143.1 153.1 157.9 148.5 148.8 146.4 157.3 160.6 153.2 138.5 133.5 134.2 141.6 140.1 145.7 145.9 153.5 152.4 149.9 144.6 137.9 133.1 134.8 134.8 130.6 134.8 131.5 134.7 138.8 147.6 152.6 159.5 162.1 161.1 147 151.1 154.3 155.2 155.7 156.8 157.2 162.1 165.7 161.7 160.5 159.6 159.5 161.1 162.9 164.5 169.9 178 179.6 183.2 188 194 202.2 208.3 218.3 226.4 232.1 241.1 247.3 254.6
108.3 112.5 115.8 111.5 112.7 111.3 105.3 88.2 74.5 73.5 83.4 100.3 100.8 100.2 103.6 104.1 104.1 99.3 97.1 88.2 73.1 59.5 61.3 70.9 79.3 67.6 65.8 48.9 48.9 48.9 48.9 58.9 51 55.9 61.2 59.1 59.4 63.4 63.4 65.1 59.7 58.2 48.2 48 48 48 48 53.3 64.3 59.5 51.7 49.5 48.1 48 48.3 50.1 57.7 65.7 68.2 71.7 69.6 71.3 72.5 75.3 75.4 83.2 82.8 73.5 71.6 80.2 90.5 87.3 86.5 90.2 84.9 80.9 82.5 73.5 78.2 76.6 77.9 79 85.7 92.3 90.7 80.6 75.1 71.8 80 83.1 77.5 67.4 38.8 -1.8 -1.8 -1.8 -1.8 -1.8 -1.8 -1.8 -1.8 -1.8 -1.8 -1.8 -1.8 -1.8 20.2 45.8 51.6 63.9 67 72 77 70.4 65.4 68.4 77.1 76 78 77.2 79.1 75.4 72.9 69 68 67.1 68.7 68 67.8 69.5 72.2 70.3 72.6 77.4 93 121.5 140.1 150.6 147 146.7 144.6 151.2 162.6 158.5 148.4 143.9 129.9 129.9 132.4 143.2 143.5 150 145.9 144.9 148.8 140.8 134.4 131.8 134.8 133.9 131 130.5 133.8 137.8 142.8 150.3 154.9 161.8 165.5 155.8 144.1 147.9 155.4 155.2 153.6 154.6 154.4 156.7 155.1 156.4 154.2 154.7 154.7 157.6 159.6 160.1 164.1 167.3 172 180.4 189 192.4 197.7 200.9 210.2 219.4 227 236.8 244.6 252.2
106.1 105.8 103.9 111.9 107.7 101.6 86.9 85.9 94.5 82.3 86.1 108.3 113.9 114.1 109 113.3 112.7 98 98.3 87.3 73.4 66.8 66.9 67.4 74.5 82.5 66.3 50.1 48.9 47.5 59.6 54.9 53.5 55.2 55.6 51.2 48.6 56.9 58.1 55 48 48 48 48 48 48 48.4 53.4 61 55 50.6 48.2 48 48 50.1 63.5 65.4 66.3 67.3 69.6 82.2 81.5 80.7 81.8 77.5 76.8 78.2 79.8 77.9 76.7 89.4 87.8 84.5 84.8 93.3 86 79.4 76.6 78.2 78.2 78.2 71.3 76.9 80.5 78.3 81 77.3 69.2 79.9 84.1 74.2 62.9 50.6 32.3 -1.8 -1.8 -1.8 -1.8 -1.8 -1.8 -1.8 -1.8 -1.8 -1.8 -1.8 -1.8 17.9 20.8 30 38.5 49.3 53.8 56.2 52.4 55.2 62.4 64.5 68.6 74.5 76.6 76.5 72.4 67.9 68 68 68 68 68 66.6 72 73.1 71.4 74.8 82.9 104.2 121.2 132.5 139.5 141.6 140.9 142.7 158.4 157.9 154.9 149.6 141.5 132.6 129.9 129.9 132.9 136.4 140.1 139.8 142.5 142.8 138.9 133.5 130.5 134.8 133 136.9 134 138.2 143.2 147 153.7 160.5 163.8 157.4 152.9 148.1 145.6 151.5 151.2 149.5 146.4 146.7 144.9 145.5 148.2 146.2 147.1 148.7 152.4 156.9 158.7 161.8 168.9 173.3 175.8 180.8 186.6 194.1 200.9 205.1 212.4 219.6 230.4 241 248.5
94.1 90.7 91.8 93.2 85.9 86.8 92.3 107.6 123.3 114.1 102.8 108.7 117 120 115.7 113.4 108.2 106.7 96.9 79.1 77.7 78.9 74.8 67.2 70.2 70.2 55.7 47.9 56.9 65.7 57.2 48 48 48 48 48 49.2 48 48.1 48 48 48 48 48 48 48 51.3 52.2 52.8 48 48 48 48 52.6 64.1 69.2 68.3 68.1 68.2 74.2 85.9 94.7 88 78.9 74.9 81.3 75.7 77.9 77.9 86.6 91 84.8 83.7 83 81.6 78.6 76.6 78.2 78.2 78.2 76.7 78.2 78.2 78.2 72.2 91.5 87.8 69.4 75.2 82.7 73.1 66.4 50.8 36.8 23.4 -1.8 -1.8 -1.8 -1.8 -1.8 -1.8 -1.8 -1.8 -1.8 -1.8 -1.8 -1.8 -1.8 14.4 21.5 26.5 36.4 42.7 43.2 43.6 51.6 64.7 81.9 89.4 99.8 90 84.4 70.9 68 68 68 67.5 67.3 72.9 76.4 72.6 72 79.1 92.8 114 123.4 126.1 137 140.1 137.1 145.9 143.8 145.4 149 144.4 139.7 130.3 129.5 131 133.8 137.9 137.2 139.5 140 138.9 137.6 136.2 133.5 134.8 134.2 138 142.2 149 156.1 154.7 156.4 163.7 160.6 153.5 148.7 144.3 140.3 141.4 141.7 138.9 139.2 133.7 132.4 141 143.7 144.2 147.8 152.3 153.5 155.8 158.5 163.1 165.9 169.1 170.9 175 179.4 187.6 195.2 200.9 209.8 218.3 229.9 237.7 245.9
96.8 97.2 88.7 88 88 99.7 113.8 126.5 128 123.1 118.3 114 115.5 113.3 108.8 101.8 100.1 88.1 79.3 83 95.5 93.5 85.1 79.8 77.8 62.2 51.8 51.9 53.3 58.7 70.7 52.8 48 48 48 48 48 48 48.4 51.3 52.7 48 48 52.8 48 51.3 48 48 48 48 48 48 58.2 61.4 65.3 66.9 66.1 70.4 69.6 71.1 72.6 78.5 81.2 77.1 74.9 84.7 86.7 77 77.9 80.9 96.7 95.9 88.4 84.8 79.7 72.4 74.4 78.2 78.2 76.7 75 78.2 78.2 78.2 73.3 77.9 87.8 80.1 68.7 74.7 68.5 63.6 58.1 53.1 37.2 23.2 -1.8 -1.8 -1.8 -1.8 -1.8 -1.8 -1.8 -1.8 -1.8 -1.8 -1.8 -1.8 -1.8 8.4 15 22 31.3 38 42.1 56 74.1 86.1 91.7 93.3 86.2 82.5 70.6 68 67.7 71.5 72.8 80.9 86.1 87.5 74.9 72.1 77.7 88.8 107.9 113.3 117.7 140.1 136.6 132 139.2 137.3 137.4 137.5 135 132.6 126.4 128 132.6 131.5 139.7 147.1 145.1 141.4 135.5 135.3 135.6 135.2 129.5 133.1 139.6 147.9 147.2 152.5 151 152.4 157.9 148.4 143.3 140 132.6 129 127.9 126.9 127.2 129.2 130.5 138.3 146.7 150.6 145.7 145 147.2 150.1 153.3 157.3 159 161.2 164.5 166.7 170.5 175.5 183.7 191.1 197.6 205.8 214.8 222.1 229.3 241.1
95.6 87.6 88 88.9 103.1 111.6 117.7 119.8 123.3 118.5 118.8 118 111.3 108.7 96.3 88.4 81.2 78.9 82.1 90.6 99.6 99.3 99.4 91.1 79.4 68.6 55.1 54.3 50.8 54.9 54 48.1 48 48 48 48 48 52.3 48 57.5 48.2 48 53.7 51.9 48 50.1 48 48 48 48 48 66 72.1 66.3 63.2 65.5 65.8 66.6 77.1 79.7 75.9 74.4 77.3 76.8 77.4 80.3 78 74.5 75.9 77.2 89.1 100.5 106.8 93.2 85.9 74.6 75.1 73 78.2 78.2 73.5 76.6 73.8 78.2 78.2 70.3 77.6 79.5 68.7 68.7 69.8 68.3 69.9 69.4 53.6 32.6 14.5 -1.8 -1.8 -1.8 -1.8 -1.8 -1.8 -1.8 -1.8 -1.8 -1.8 -1.8 -1.8 5.6 13.3 15.2 32.5 52.1 53.8 60.1 71.3 77.1 79.6 84.8 83.5 76.4 68.5 68.3 76.9 79.1 83.5 81.6 79.3 79.1 74.6 73.7 74.3 83.5 92.7 106.3 110 124 122.8 124.4 125.5 123.3 126 126.3 125.7 122.9 120.5 122.6 127.9 129.8 131.8 134.7 135.3 133 132 131.2 130.9 128.1 127.5 131.1 135.6 139.4 135.2 138.6 136.6 138.6 136.4 133.5 129.1 128.9 129.7 128.2 128.1 127.6 132 134.8 133.7 134.6 136.1 145.6 146.7 145.7 145.7 150.3 154.3 157 157.8 158 160.1 162.5 169.8 174.5 182.9 187.4 192.6 201.5 209.5 217.9 227.2 237.6
85.9 86.6 88.4 103.9 109.6 123.2 119.5 117.2 118.7 115.4 109 104.2 100.4 95.2 85.6 81.9 79.8 86 99.6 95.5 108.7 94.2 92.2 76.9 84.4 80.1 57.4 57.3 64.7 53.6 48 48 48 48 48 48 48 48 48 48 48 53.7 61.6 49.8 48 48 48 48 48 52.1 57.4 65 79.3 72.9 64.2 60.1 64.3 79.4 82.7 85.1 89.1 76.2 75.8 77.8 83 84.9 83.1 83.5 87.1 86.4 79.5 91.6 92.9 93 86.7 79.3 77.1 78.2 74.3 73.4 75.2 76.7 77.5 78.7 77.2 82.6 76.9 69.4 67.7 68.5 68.3 68.2 76.2 68.8 61.3 37.7 22.1 -1.8 -1.8 -1.8 -1.8 -1.8 -1.8 -1.8 -1.8 -1.8 -1.8 -1.8 -1.8 2.1 9.9 18.2 50.5 72.5 62.7 56.1 58.6 66 73.8 76.3 68.8 66.3 69 69.9 74.3 76.5 74.6 77.2 72.9 71.3 71.2 72.1 76.6 89.5 102.1 100.8 103 110.4 112.9 110.6 110.2 112.7 117.1 117.2 118.5 119.1 119.5 121.8 129.5 134.6 132.4 134.2 132.8 128.9 128.7 127.7 128.2 128.2 128.2 128.2 128.2 128.2 128.2 128.2 127.1 128.2 129.6 125.2 128.2 128.2 128.2 128.2 128.5 127.8 127.8 136 139.7 145.1 136.5 141.4 145.3 145 146.7 153 154.9 154.2 156 157 158.4 160.2 168.5 173 179.9 186.5 191.4 197.9 203.3 214.7 223.6 233.8
81.8 97.3 116.1 108.1 113.5 116.7 116.4 113.7 106.5 106.2 101.2 98.6 98.3 98 104.4 94.9 102 105.2 101.1 104.1 99.8 97.5 88.4 87 89.2 82.5 55.9 51.2 50.1 48 48 53.7 63.3 54.4 57.6 50.5 48 48 48 48 55.5 64.3 60.7 52.2 48 48 48 48 48 48 49.4 53 54 56.3 55.8 58.6 66.3 74.3 83.1 91.4 88.9 82.5 81.7 79.8 86.4 98.2 101.6 95.6 95.7 90 93.8 82.4 83.5 85.1 82.8 73.8 78.2 75.8 81.1 85.4 79.8 82.5 83.2 92.5 86.2 83.4 80.2 74.9 70.8 67.2 70.9 86.4 75.4 75.4 54.5 38.4 26.8 11.7 -1.8 -1.8 -1.8 -1.8 -1.8 -1.8 -1.8 -1.8 -1.8 -1.8 -1.8 -1.8 4.3 17.5 33.7 55.4 58.9 59.5 50.4 57.4 60.7 55.2 54.6 62.5 68.3 62.9 64 67.3 67.6 70.4 69.6 69.9 70.3 73.2 80.3 92.7 116.5 126.4 112.1 116.3 110 110 110 110 110 123.9 129.6 129.7 128.9 132 137.2 139.7 142.2 140.5 134.4 132.1 130.3 128.3 128.2 128.2 128.2 128.2 128.2 128.2 128.2 128.2 128.2 128.2 128.2 128.2 128.2 128.2 128.2 128.2 128.2 127.8 129.6 133.6 137.7 143.5 141.2 140.2 139.7 140.9 144.7 147.4 151.6 154.2 156.4 157.7 159.4 163.9 171.2 177.8 181.5 186.1 192.9 198 205.2 212.3 221.8 230.6
88.4 105.6 102.7 105.4 104.8 104.8 111.5 113.1 119.1 102.1 96.7 98.3 96.1 98 112.6 114.1 106.2 103.4 100.7 96.8 90.5 84.5 82 78.1 74.9 62.6 48 48 48 50.1 66.3 70 78.5 66.7 70.5 70.2 60.3 48 48 48.1 48 48 48 48 48 48 48 48 48 48 49 54.4 49.6 49.6 51.7 53.8 59.1 64.1 73.4 83.3 85 82.3 86.5 84.2 82.5 90.6 95.4 98.6 99.4 91 89 81.8 75.5 84.8 85 75.4 78.2 73.6 92.6 92.6 86.5 89.2 91.5 96.9 86.7 79.6 79.5 81.8 92.1 78.1 69.1 87.7 73.6 70.2 55.1 41.5 29.4 19.3 -1.8 -1.8 -1.8 -1.8 -1.8 -1.8 -1.8 -1.8 -1.8 -1.8 -1.8 -1.8 3.9 16.6 33.6 39 49.5 48.7 44.7 41.9 40.5 42.6 48.3 53.6 55 56.4 58.1 59.9 63.6 72.6 70.7 70.8 73.9 81.2 84.5 106 139.7 143.8 122.6 118.4 110 110 110 110 119.8 126 130.4 132 137.5 139.9 140.5 141.2 145.2 150.1 139.1 134.5 137.4 128.2 128.2 128.2 128.2 128.2 128.2 128.2 128.2 128.2 128.2 128.2 128.2 128.2 128.2 128.2 128.2 128.2 128.2 128 126.9 132.6 139.6 143.4 140.8 139.6 138.5 138.7 142.7 145.3 153.3 157.9 160.3 166.4 166.1 170.5 178.4 183.4 187.1 192 196.4 200.5 205.7 213.9 221.8 230.8
88.9 88.5 93.4 105.4 110.6 110.7 111.7 107.8 102.7 97.5 97 98.3 98.9 106.2 115.2 127.1 125.7 106 102.2 93.6 77.4 68 67.3 65.5 58.8 49.1 48 48 48 79.1 82.8 76.1 79.1 74.4 80.5 63 56.8 50.3 48 48.5 51.2 53 48 48 48 48 48 48 48 57.7 68 72 62.3 56 49.6 52.2 54.1 54.9 58.8 61.8 62.9 71.1 74.4 77.2 77 81.7 88.4 95.7 104.7 103.5 91.7 87.4 77.4 69.1 69.5 74.1 71.6 78.3 83.8 91.1 90.4 90 93.4 102.1 90 90.6 89.7 95.6 93 82.3 75.6 69.5 68.8 59.6 48.8 38.2 32.5 23.7 13 -1.8 -1.8 -1.8 -1.8 -1.8 -1.8 -1.8 -1.8 -1.8 -1.8 -1.8 8.9 17.5 28.1 29.2 34.2 35.8 36.9 38.3 38.8 41.8 52.9 56.1 56.3 55.9 55.8 57.7 62.8 75.4 71.2 73.5 77.6 85.2 92.7 124.8 148.5 142.9 133.7 119.3 110 110 110 110 126.5 128.5 131.5 135.9 136.3 142.9 144.7 147 151.8 151.4 138.2 135.5 127.2 128.2 128.2 128.2 128.2 128.2 128.2 128.2 128.2 128.2 128.2 128.2 128.2 128.2 128.2 128.2 128.2 128.2 128.2 128.8 129.9 129.6 134.2 142.6 144.7 143.6 144.2 143.3 148 148.8 154.5 159.3 169 174.3 179.1 180.9 188.8 193.3 192.4 196.2 202.4 210 214.3 217.4 222.7 232
86.7 84 93.6 102.9 101.4 95.5 94.8 93.2 93.2 98.3 98.3 100 103.5 105.4 114 118.8 118.5 114.9 97.1 89.1 76.5 68.6 63.9 62.1 55.5 48 48 49.5 68.3 85.4 88.6 85.3 81.3 77.3 68.4 62 64.4 59.6 61.7 66.6 73.5 58.7 54.9 48 48 48 48 48 52.6 65.1 66 63.8 58.5 53.6 51.5 53.4 57.5 54.7 54.2 54.7 60.3 61.1 65.8 70.7 66.9 70 76.6 87.9 93.8 94.3 89.5 79 72.7 66.4 63.5 71.5 80.2 88.5 92.3 83.9 94.3 102.2 98.8 101.7 103.1 91.9 94.2 96.2 94.9 90.7 83.4 69 57.1 48.7 44.3 39.3 32.6 27.3 17.9 9.3 -1.8 -1.8 -1.8 -1.8 -1.8 -1.8 -1.8 -1.8 -1.8 -1.8 5.7 14.1 21.6 26.5 24.4 22.7 32.5 37.9 41.6 42.8 56.5 63.7 59.7 58.9 58.2 60.9 70.8 81.7 75.9 78.5 80.4 90.5 118.4 144.1 149.6 142.8 128 117.2 110 110 110 110 119.7 123.1 129.7 130.9 131.4 132.7 142 146.6 143.4 136.8 133.8 133.4 128.2 128.2 128.2 128.2 128.2 128.2 128.2 128.2 128.2 128.2 128.2 128.2 128.2 128.2 128.2 128.2 128.2 128.2 129.2 130.5 130.5 127.2 132.4 140.7 147.9 149.4 153.9 155.3 156.9 167.1 168.9 168.3 177.8 184.1 190.9 197.8 201 202.8 203.1 207.7 211.8 217.2 221.5 226.4 231.3 237.5
78.6 96.1 98.2 93 90 82.8 86.5 98.9 97.2 98.3 104.3 107.2 99.7 97 107.5 110.5 109.8 103.4 90.7 87.5 91.5 79.7 75.4 75.1 73.4 62.3 64.2 58.8 67.1 77.9 84.2 87.2 82.8 81.1 74.8 64.3 65.9 65.3 80.1 81.8 75.9 64.4 57.7 48 48 48 48 61.5 73.8 70.9 71.5 71.1 64.5 53.1 52.7 51.7 55.2 55.8 55.6 66.3 62.4 59.1 57.3 57.6 57.1 55 58.2 63.3 72.6 78.5 74.4 72.2 68.1 63.8 61.8 68.6 87.2 85.2 82.8 78.3 85.5 95.7 103.9 101.8 93.4 96.3 101.3 102 98.2 99.7 93.1 74.2 53.3 49.9 42 39.2 31.6 27.6 21.6 16.9 8.7 -1.8 -1.8 -1.8 -1.8 -1.8 -1.8 -1.8 -1.8 -1.8 0.1 4.3 14.3 19.6 15.8 25 35.3 63.4 62.8 46.9 59.3 59.6 60.9 63 66.6 82.5 82.7 86.5 88.2 85.7 85.5 111.2 130.8 140.8 140.8 137.9 127.9 118.1 110 114.5 116.5 111.5 110.3 116.5 121.2 122.4 132.5 133.7 132.6 138.4 135.7 138.4 133.2 132.6 128.2 128.2 128.2 128.2 128.2 128.2 128.2 128.2 128.2 128.2 128.2 128.2 128.2 128.2 128.2 128.2 128.2 128.2 131.2 135.1 132.2 131.1 130.2 139.7 151.1 159.2 171 180.6 178.5 178.9 192.6 195.3 205.5 204.9 207 216.6 219.3 221.4 219.8 219.2 224.3 229.8 233.7 236.9 241 244.7
70.7 75.7 86.7 81.4 76.3 70.8 84.9 94.2 86.2 95.5 95 99.7 94.9 84.4 90.3 99.7 87.5 90.7 107.8 96 87.4 81.4 88.7 99.1 89.7 76.7 71 89.5 111.2 95.6 106.2 107.7 106.8 92.7 77 69.2 74.9 76 87.1 81 77.1 68.4 50.7 48 48 48 50.1 63.1 74.9 73.9 85.2 74.6 70.9 56.6 55.7 57.5 59.5 59.6 65.2 69.2 70.2 79.1 60.6 55.6 58 58 58 51.7 56.4 56.9 57 58.1 62.4 60.5 60.1 66.9 78 88.7 83.9 77 82.5 91 95.1 93.3 94 99.3 101.8 105.5 104.3 99.7 85.3 70.6 59.2 47.1 40.9 38.4 29.8 28 24.5 21 12.6 -1.8 -1.8 -1.8 -1.8 -1.8 -1.8 -1.8 -1.8 -1.8 -0.7 -0.8 6.2 9.7 13.4 26.2 37.4 59.2 59.6 52.4 57.8 60.3 60.6 68.4 88.1 89.9 104.1 102.6 108.3 93.8 96.9 126.6 126.6 134.2 134.1 130.9 123.1 116.3 114.1 115.9 120.9 131.9 119.9 115.4 117.2 119.3 131.2 141.3 146.9 138.2 138.4 138.4 136.4 137.5 128.2 128.2 128.2 128.2 128.2 128.2 128.2 126.7 128.2 128.2 127.9 130.9 129.6 128.2 128.2 128.2 128.2 130 139.1 137.2 135.2 133.2 131.6 138.5 150.4 163.3 184.5 199.4 213.7 215.3 216.9 230.4 235.8 229.6 241.2 237.4 237.7 237.4 238.6 238.5 240.6 243.8 246.6 249.5 251.8 257
50.8 55.1 62.6 67.8 62.5 62 70.8 71.4 78 80.7 78.7 83.4 86.9 71.1 72.7 74.6 81.5 108.4 106 96.2 89.3 87.7 89.8 90.2 83.1 71.4 90.2 104.6 97.5 98.8 108.5 103.9 91.8 81.1 78.1 71 85.6 78.6 85.9 93.9 85.4 59.3 48 48 48 49.8 56.9 63.5 70.4 79.1 80.1 84.4 76.7 75.8 95.2 87.6 65.6 70.3 71.6 69.3 72.5 79.8 78.1 60.6 56.3 58 58 54.6 58 58 58 50.5 53.6 56.8 60.1 60.4 66.7 83.5 86.2 77.9 73.7 76.5 83.4 89.7 91.7 93.8 95.3 100.9 93.8 79.3 70.9 67.3 63.8 64.7 45.3 39.8 32.2 29.7 26.5 22.1 15.4 13 -1.8 -1.8 -1.8 -1.8 -0.7 -0.5 0.2 0.2 0.7 1.9 2.8 5.9 10.8 19 30.6 43.2 57.3 64.7 54.4 54.3 57.3 71.7 87.9 103.6 109.8 117.3 112.9 98.8 122.8 130.5 127.7 131 125 123.5 114.6 114.2 110 110.6 135.5 133.1 125 120.5 119.2 124.4 128.5 140 152.5 149.8 143.5 136.6 142.1 137.1 135 128.2 128.2 128.2 128.2 128.2 128.2 128.2 128.2 128.2 128.8 145.1 145.3 134.6 132.7 128.7 130.7 137.6 142 139.2 134.7 131.3 132.3 136.2 143.6 165.5 183.7 203.8 223.1 233.8 239.1 248.5 254.1 262 266.1 264.4 259.9 258.2 259 257.3 260.6 260.9 262.4 265.4 265.8 268.9
41.2 43 45 47.9 65.1 68.5 75.9 71.6 72.2 73.6 79.8 70.1 62.4 57 58.6 74.1 101.3 96.1 93.3 104.7 94.7 100.2 85.3 81.6 79.5 71.9 82.3 89.5 99 103.8 98.9 87.1 85.4 91.6 90.5 76.7 85.6 81.4 83 81.4 68.5 52.3 48.2 48 48.3 51.7 57.5 72.4 81.2 80.5 92.2 96.3 86.1 103.3 106.3 102.2 89 71 75 69.5 71.4 69.5 64.5 62.2 55.4 58 58 61.4 51.7 58 54.1 58 52.8 56.8 59.3 58.7 60.1 60.7 66.7 70.1 69 71.5 76.4 78.4 80.4 87.7 82.2 77.8 78.3 75.2 70.7 67.5 66.7 71 63.2 39.8 31.3 28.7 30.3 27.7 20.4 28 -1.8 -1.8 -1.8 -0.9 0.6 0.9 1.7 2.4 2.1 2.4 4.7 8.5 12.2 16.6 26.5 37.4 53.8 60.6 59.8 59.6 62.5 79.4 101 111.9 115.7 123.2 109 106.2 118.9 129 123.5 123.3 120.4 110 110 110 122.1 125 131.2 128.4 134.2 125.3 123.8 126.8 127.8 135.8 138.1 148.5 146.7 136.6 137.9 139.9 143.1 128.2 128.2 128.2 128.2 128.2 128.2 128.2 128.2 128.1 140.6 151.2 157 155.6 148.1 140.3 139.4 144 149.7 146 138 134.2 131.9 133.2 141.7 156.4 180.3 206.7 229.8 238.8 249.4 263 269.1 278.9 282.7 288.1 292.8 292.1 288.6 288.2 283.2 277.7 277.3 281.9 283.1 284.1
38.1 40.2 45 66.3 58.6 62.9 65 68.2 77 81.7 68.7 58.3 54.1 61.9 62 71 86.7 86.3 96 101.8 99.9 88.4 86.9 77 74.3 76 75.2 90.1 98.8 95.4 87.1 87.1 88.5 95 96.2 87.2 95.2 84.9 79.9 69.3 54.3 48 48 48 49.6 57.3 73 89.3 89.3 84.1 92.6 86 94.3 110.7 116.8 116.3 109.9 90.3 89.3 69.1 76.6 68.7 57.7 52.5 58 58 51.4 64.9 58 58 50.8 55.5 57.9 57.9 56.5 55.7 58 56.2 56.9 60.8 62.1 67.7 66.2 65.8 65 67.2 71.3 67.5 74.4 74 75.2 77.7 76.8 72 68.1 49.7 29.3 28.3 28.3 29.5 36.5 36.4 18.4 -1.8 -1.8 -1.8 1.7 2.4 2.4 7.1 10.9 11 9.3 11.6 14.9 16.6 23.4 30.7 39.9 46.3 59.3 58.2 66.3 86 105.1 122.9 126.2 115.5 105.9 108.5 120.4 121.5 119.7 113.7 110 110 110 110 115.1 121 122.3 124.2 124.9 122.5 117.7 121.1 125.8 138 140.2 135.5 141 136 134.7 139.8 140.4 131.1 128.2 128.2 128.2 128.2 128.2 128.2 131.3 137 150.5 161.6 166.6 168.6 156.1 149.4 152.3 154.1 157.4 147.2 140.4 136.1 134.2 135.7 144.2 158.6 178.5 210.1 233.3 244.3 261.4 277.3 278.5 286.3 292.9 298.2 305.4 315.9 321.9 317.9 306.5 302.2 306.7 303.9 306.3 305.1
25.8 41.7 60.1 62.3 69.7 73.1 70.6 80.4 82 73.6 59.1 52.9 59.1 69.6 71.8 73.9 73.4 84.2 84.4 80 84.4 92.4 86.3 78.2 83.5 75.2 79 90.6 85.1 86.2 87.9 103.8 95.1 94.6 91.7 96.5 91.5 84.5 72.2 56.1 48 48 48 50.8 71.7 83.4 99.1 100.5 91.1 88.3 90.3 84.8 101.7 115.5 122.8 116.7 119.1 108.2 86 74.5 74.5 66.6 53.4 58 58 58 50 61.8 55.6 62.5 61.7 60 58.5 62.7 60.7 54.4 54.3 65.6 52.7 53.5 58.7 59.5 62.8 61.1 60.3 60.6 64 68 70.3 77.3 75.4 71.6 70.5 67.8 57.2 49.3 33.8 29.6 27.3 29 39.7 38.2 18.6 -1.8 -1.8 -1.8 2.7 3.1 2.4 9.9 17.9 19.1 19.9 17.6 19 24.2 28.6 34.7 37.4 42.8 50.3 49.8 65.4 85.1 106.4 121.3 116.2 110.2 105.1 115.2 120.4 123.5 120.1 110 110 110 110 110 110 110 114.2 117.4 117.2 116.7 118.1 117.8 123.2 126.6 130.3 132.1 138.3 134.2 131.4 136.2 135.5 127.6 128.2 128.2 128.2 128.2 129 129.8 140.1 144.7 154.2 170.8 175.7 167.4 160.9 163.6 160.9 159.1 155.5 147.9 138.6 135.6 135.8 138.4 145.6 161.9 179.2 199.8 228.5 241 256 269.8 280.3 290.3 297.6 310.5 319.8 338.1 348.2 340.3 332.3 330.7 333 341.3 332.3 330.1
35.5 49.9 55.5 65.8 68.8 65.5 72.1 71.9 75.3 66.6 51.6 52.2 62 64.3 79.6 82.3 81.3 70.9 70.7 72.2 84.8 80.4 75.5 84.2 85.9 73.7 68.5 71.5 82.2 84.2 102.1 102.7 104.4 94.8 89 101.2 96.3 82.1 69.5 48 48 48 48 72.9 81.5 94 100.2 94.6 90.8 94.3 96.5 86.4 109.8 119.9 122.5 122.2 122.8 117.8 94.6 90 73.8 63.7 58 58 58 58 58 58 80.2 87.6 77.9 77.9 78 68.1 57.2 55.5 52.6 53.4 50.2 45.7 48.5 55.6 61.2 60.1 61.3 62.8 60.3 59.4 61.3 62.3 60.9 62.3 60.1 58.6 57 49.2 44.8 28.9 30.9 26.2 30.7 21.9 15.6 5 -1.8 -1.8 2.4 3 2.5 12 18.3 25.9 29.2 27.2 23.5 29 35.5 40.8 48.9 52.5 53.5 65 61.7 80.7 97.7 110.7 107.8 102.9 101.5 125.8 123.7 116.3 118.9 110 110 119.5 116.7 110 110 110 125.2 118 118 119.1 119.1 121.5 124.3 131.7 128.2 128 132.9 128.6 128.2 128.2 128.2 128.2 128.2 128.2 128.2 128.3 127.3 136.7 150.4 154.4 167.5 180.1 176.3 165.1 157.4 159 155.2 150 143.5 140.3 138.6 135.6 136.1 138.7 146.4 164.9 183.9 196.3 219.4 232.3 255.9 275.5 282.6 292.4 304.4 323.2 331.2 346.9 353 352.3 353.6 352.6 359.8 362.2 355.5 356.5
29.1 39.4 53.6 57.3 52.5 60.9 61 60.8 58.5 46.7 52.7 56.4 67 86.8 93.9 83.1 82.4 71.8 65.1 67.3 67.7 69.9 69 69.6 70.8 68.5 68.5 68.5 78.8 94.9 102.6 100.8 104.2 95.7 91.8 97.7 96.9 95.4 65.1 48.5 48 48 53.8 82.7 102.4 106.3 100 96.6 94.3 93.1 93.7 88.8 111.8 118.8 118.7 121.7 126.3 122.2 97.5 106.4 75.1 54.9 58 55.8 58 58 58 58 65.5 84.7 87 79.8 66.7 64.5 60.4 59.3 53 47.3 41.8 40.4 41.7 43.5 56.9 56.4 62.5 55.6 58.2 47.6 45.4 45.7 49.6 51.1 52.8 53.8 51.2 50.3 46.9 29.9 33.8 32.4 23.6 18.5 11.5 5.9 -1.8 -1.8 -1.8 2 4.7 8.3 18.3 30.6 39.1 33.9 32.2 36.9 43.8 51.8 59.4 68.7 69.7 82.1 69.5 74.3 91.7 95.3 97.9 96.9 115.5 128.1 118.3 116.2 121.9 110 120.8 125.5 117.9 110 120.9 127.5 132 124.7 123.4 119.1 119 127.8 126 126.6 128.2 126.9 125.4 128.2 128.2 128.2 128.2 128.2 128.2 128.2 134.4 140.2 140.9 139 149.7 159.6 169.4 175.1 167.7 158.2 149.6 152.2 143.7 139.7 140.8 140.7 140.3 137.1 137.5 142 152.4 169.2 188.1 203.7 220.1 240.3 260.3 271.3 280 288.6 304.2 320.6 331.8 345.9 354.2 358 365.7 366.8 375.6 377.2 376.7 375.9
34.2 40.2 42.5 44 45.7 50.1 56.9 48.1 43.2 42.6 47.5 63 74.6 79.8 78.9 81.2 79.6 88.5 79 65.7 64.4 64.4 74.3 69.2 70.4 68.5 68.5 68.5 74.4 93.8 103.9 103.6 106.1 104.4 99.7 93.3 93.2 78.4 62.9 49.6 48 51.5 78.9 109.6 110.4 110.8 104.5 100.5 98.1 96.6 89.5 95.6 110.6 118.4 115.1 119.6 121.9 119.5 99.6 105.9 80.1 59 60.6 60.8 53.1 58 55.5 50.3 49.9 63.7 74.5 79.8 64.7 55.7 61 65.8 59.8 48.4 33.8 35.8 33.6 34.5 41.3 47 43 42.3 41.1 41 36.7 35.4 35.6 38 41 45.8 49.4 44.4 44.3 37.3 22.6 24.4 22.1 17.3 16.4 14 -1.8 -1.8 2.4 4.5 4.5 6.9 19 33.6 49.2 47 49.7 49.6 53.2 62.8 71.6 75.5 102.2 98.3 82.5 74.4 76.6 87.9 88.4 97.7 113.7 113 114.3 127.7 134 121.3 124.5 125.1 114.6 110 124.6 132.9 130 123.3 122.9 123 126.4 132 134.4 128.2 128.2 128.2 128.2 128.2 128.2 128.2 128.2 128.2 128.2 128.2 140.8 155.1 149.4 148.6 159.2 161.5 166.3 164.8 159.3 153.3 145 144.6 141.2 138.4 137.4 137.3 140.1 136.2 138.2 144.1 152.6 171.2 186.6 200.7 216.1 242.2 253.6 259.5 268.4 285.5 299.9 312.8 327.9 340.9 348.7 357.1 367.4 372.8 379.8 382.9 386.8 387.9
28.5 38 34.4 29.6 33 33.1 26.4 25.6 34.6 45.7 40.8 50.3 58.4 58.7 74.2 78.4 68.9 72.6 69.6 64.4 66.5 71.2 79.2 81.6 70.2 74.6 75.7 84.4 93.5 87.9 102.1 110.2 105.5 114.6 106.2 96.5 77.6 61.9 51.7 48 48 68.1 93.6 112.8 112.4 114.6 111.8 109.8 105.9 90.2 93.5 104.2 114.4 110.1 112.5 113.4 115.2 109.4 94 86.7 77 74.5 59.4 58.6 58 63.5 66.7 51.4 49.6 49.3 62.2 66.3 64.7 53.8 51.6 65.7 59.1 49.3 35.3 35.3 35.3 35.3 34.9 34.7 34.2 32.4 32.9 33 32.2 32.5 35.3 32.4 31.6 35 37.2 33.6 33.6 29.6 23.9 21.6 19.9 21.1 21.2 19.4 11 10.7 8.8 5.5 4.6 8.2 19.6 36.6 60.2 81.4 72 77.6 63.3 66.4 78.2 85.1 92.9 93.5 88.2 86.3 70.7 77.2 80.6 99.9 100.1 101.8 118.9 123.9 123.8 119.2 123.3 117.1 110 123.5 129.8 132 134 126.3 128.8 129.4 124.9 132.1 138.4 132.3 128.2 128.2 128.2 128.2 128.2 128.2 128.2 128.2 128.2 128.2 135 147.3 153 157.3 156.3 164.9 173 168.4 161.3 152.7 153.3 146.8 140.9 138.3 137.6 137.4 136.1 137.8 139 143.3 154.3 172.4 193.4 206.7 224.1 234.8 246.7 256.6 263.5 282.9 293.7 309.9 324.4 334.9 343 352.3 364.2 373.4 378.3 386.3 391.8 393.7
11.4 -1.8 -1.8 -1.8 -1.8 -1.8 10.3 13.2 26.6 34.6 40.4 40.6 40.6 46.2 53.3 57.6 55.3 55.7 54.9 63.9 67.7 78.8 87.2 85 81 78.7 74.8 87.1 99 100.2 98.6 107.2 106.6 111.5 104.5 88.2 66.4 62.5 48 48 54.4 86 102.9 112.4 118.2 119.2 120.6 124.2 107.1 89.5 90.3 101.9 106.9 103.8 108 102.2 103.7 95.4 87.5 74 65.8 62.1 56.3 58 58 58.5 73.6 55.6 52.6 49.8 48.6 49.8 52.8 47.5 45.2 49.3 51.1 46.9 36.8 35.3 35.3 35.3 35.3 33.4 30.2 28.2 28.2 30.1 29.2 29.7 30.4 31.5 30.8 30.5 30.1 29.1 26 23.6 23.3 23.5 22 20.3 19.1 23.3 20 15.5 16 12.1 11 7.5 14.9 39.1 64.1 77 82.7 79.4 72.8 69.8 73.4 79.2 84.1 85.8 83.1 79.9 77.4 71.9 81.6 86.4 90.2 95 103.3 111.9 119.5 118.3 115 115.9 124.5 135.6 129 129 134.8 134 134.5 132.9 129.2 129 137.9 139.8 128.2 128.2 128.2 128.2 128.2 128.2 128.2 128.2 128.2 128.2 128.2 137.7 153.6 164.9 159.7 171.3 173.7 168 155.5 158.7 155.3 154.9 146.5 143.7 142.2 140.7 141.7 141.6 143.3 145.7 161.7 184.5 193.3 200 213.1 224.7 237.4 249.3 263.2 277.9 293.2 303.6 317.2 326.7 335 345.4 360 369.5 376.6 387.6 393.5 395.5
-1.8 -1.8 -1.8 -1.8 -1.8 -1.8 9.1 14.9 26.6 33.1 43.9 44.5 49.1 42.7 39.1 40.3 41.5 38.2 57 69.9 74.7 84.2 89.8 83.9 83.7 78 74.8 82.5 92.3 101.4 109 101.2 104.4 100.4 92.6 65.8 60.9 51.7 48 49.4 65.5 87.2 105.9 111.3 108.3 119.2 124.2 118.1 104.9 90.9 92.2 100.9 113.9 101.6 100.6 96.7 87.3 78.1 75.1 72.6 67.3 61.3 58 58 57.3 53.1 71.4 62.6 65.3 55.2 52.2 48.1 43.3 43.1 42.7 43.8 42.5 41 34.1 31.4 35.3 35.3 34 29.3 28.2 28.2 28.2 28.2 28.2 28.2 28.3 30.4 31.1 31.5 30.8 29.1 29.6 29 27.5 26.2 21.2 24 28.8 30.5 29.4 27 24.4 23 17.5 13.5 9 26.6 52 72.5 89.5 83.8 76.8 77.4 73.7 77.8 76.8 79.5 80.2 81.3 79.8 78.5 74.6 80.7 86.2 93.1 103.8 109.3 107.7 106.3 113.5 119.6 134.2 136.2 137.1 139.8 136.2 143.9 150.2 137.6 133.5 139.2 141.6 143.5 128.2 128.2 128.2 128.2 128.2 128.2 128.2 128.2 128.2 128.2 128.2 128.2 139.5 163.4 167.4 171.5 166.5 159.1 156 163.9 161.7 163.8 161.5 160.3 151.3 144.6 143.1 144.3 145.8 145.8 160.9 172.3 183.7 193.1 203.8 215.4 234.8 246.1 256.1 277.2 295.5 300.7 308.8 321.5 327.7 341.9 353.6 365.8 375.5 387.5 394.5 395.5
-1.8 -1.8 -1.8 -1.8 -1.8 -1.8 -1.8 30.7 35.6 32.7 38.3 48.6 45.8 39.5 43.2 39.2 34.2 41.9 65.6 80.6 72.7 75.6 92.2 100.5 100 89.8 89.8 78.6 90 98.5 104 104 89.4 86.6 66.6 51.1 48 48 48 49.6 73.6 87.8 98.6 100 104 113.5 118.5 113.6 102.5 101.6 101.2 110.7 119.8 120.5 106.4 92.9 76.6 69.3 63.5 61.1 60.5 54 58 58 57 52.4 52.6 56.8 61.6 64.3 78 77.7 64.6 51.1 46.3 45.5 45.8 48.3 47.9 54.2 35.2 35.3 32.8 29.3 28.7 28.2 29.6 28.2 28.2 28.2 34.8 39.2 39.3 37.2 35.9 33.2 36.3 33.1 27.5 23.7 23.2 27.9 29.7 32.5 35.4 42.3 40.4 40.6 31.3 24.6 14.7 12.5 35.9 59.5 81.1 85.9 80.7 82.3 85.2 89.2 85.8 86.9 80.2 81.1 77.2 78.5 73.3 76.5 81.7 88.1 95.1 97.5 99.7 100.1 106 122.9 131.1 137.9 149.4 144.4 143.1 144.7 148.6 142.2 146.9 159.6 144.8 137 128.2 128.2 128.2 128.2 128.2 127.8 128.2 128.2 128.2 128.2 128.2 128.2 135.6 142.6 168.5 168.7 159.5 154.9 169 177 181.2 181.4 172.7 163.7 156.3 148.7 143.2 147.6 148.8 146 155.9 169.9 181 185.6 199 212.6 224.1 240.6 252.7 275.5 285.2 295.1 301.8 316.5 327.1 339.1 350.1 362.7 372.5 386.2 392.5 393.6
-1.8 -1.8 -1.8 -1.8 -1.8 -1.8 -1.8 25.1 32.8 46.3 49.7 49.9 44.6 35.9 31.9 33.6 36.8 43.9 66.3 73.1 82.4 75.6 80.1 93.2 104.9 106.8 97.3 91.9 99.2 95.9 98.4 94.9 84.1 62.4 50.3 48 48 48 48 54 68.2 83.7 95.3 106.1 113 119.3 114.5 108.5 90.9 92.3 106.5 113.2 111.8 111.8 98.2 77.3 68 59.8 58.2 58 57.5 53.7 58 58 55.9 64.9 54.8 60.1 71.4 79.7 85.5 90.3 78.7 69.2 53.8 62.2 56 47.3 50.7 57.8 52.3 33.1 31.8 36 42 36.6 34.9 28.1 28.2 28.4 37.6 48.6 48.4 37.8 34.4 38.3 41.2 41.5 39.1 32.3 28.3 27.1 29.3 31.7 38.1 52.2 51.5 45.1 38.8 38 28.2 13.3 19.2 42.1 60 71.6 93 98.1 108.3 94.1 93.1 91 89 87.2 75.8 78.5 76.3 83.1 92.5 88.6 91.3 100.9 109.1 101.5 105.3 116.9 124.8 144 148 150.4 150.8 147.7 148.1 146.7 160.4 160.1 150.7 137.8 128.2 128.2 126.8 128.2 129.8 128.2 128.2 128.2 128.2 128.2 128.2 128.2 130.8 135.6 146.1 156.6 155.4 162.3 173.9 183.1 190 186.9 176.3 176.6 167.4 150.3 144.1 155 151.9 146.6 160.1 172.5 174.7 187.1 203.3 210.3 223.3 235.1 248.5 264.2 274.5 289 302.6 310.9 326 330.3 347.7 359.3 369.2 381.9 389.9 393
-1.8 -1.8 -1.8 -1.8 -1.8 16.6 22.2 32 33.9 35 38.2 39.9 41 29.3 29.1 33.8 37.7 51.3 68.3 74.4 84.8 84.9 88.3 93.1 97.4 103.9 96.4 92 93.8 95.6 87.4 75 59.7 50.1 48 48 48 48 48 55.4 62.8 83.3 87 96.7 108 110.3 106.9 95.7 93.3 98.9 103 104.7 99.7 93 96.3 70.6 59.8 58.7 61 68.7 91.5 79.9 56.9 58 56.8 59.3 64 74.2 88 89.5 89 80.8 72.9 66 60.1 64 67 53.6 46.8 51 58.4 43.6 33 38.2 43.8 43.1 39.3 27.9 28.2 30.1 36.3 42.7 49 34.9 40.7 40.6 51.7 51.7 56.5 43.9 36 31.2 28.7 33.6 39.8 51.5 60.5 57.7 44.1 45.8 41.5 26.5 15.9 28.4 48.2 64.1 108.7 112.2 107.4 98.6 96.5 90.2 89.5 84.8 75.1 76.6 78.8 85.5 94.9 91.3 93.5 97.3 108.5 103 101 115.4 129.9 128.2 144.1 149.8 151.4 150.4 150.1 159.1 162.3 157.1 148.7 131.7 134.2 134.1 129.1 128.2 128.2 128.2 128.2 129.6 128.2 128.2 128.2 128.2 127.9 131.1 136.8 143.3 148.2 164 176.1 186.1 191.6 189.6 190.1 184 170.3 154.6 143.2 147.1 150.7 146.4 154.9 164.2 179.4 197.5 204.2 208 220.2 226.4 238.4 250.3 263.1 275.5 288.8 304.5 318.8 323.8 344.1 356.4 363.2 379.6 386.8 391.1
-1.8 -1.8 -1.8 -1.8 -1.8 7 13.2 19.5 20.9 28.9 28.9 25 28.2 29.4 34.8 40.7 46.9 50.6 68.1 70.4 81.2 89.3 93.6 102.7 102.5 100 97.6 85.9 82.5 80.6 65.1 55.8 50.5 45.1 48 48 48 48.4 58.1 61.2 71.9 79.9 85.2 93.9 92.9 93.5 93.5 92.9 92.5 93.4 91.2 90.3 90.6 87.7 78.5 62.8 59.6 62 83.5 106.9 103.7 90.9 66.5 53 58 61.9 83.6 79.2 81.2 86.4 86 81.6 76.4 71.1 69.3 64 67.5 56.8 50 50.9 54.1 51.9 36.2 34.7 40.7 44.7 41.1 29.4 27.9 32.7 33.3 37.2 39.3 36.2 47.5 49.6 53.8 56.5 56.7 50.4 40.5 35.7 28.5 31.3 34.3 47.2 84.1 77.6 50.4 49 55.5 43.4 22.6 20.4 33.3 59 99.3 115.1 106.2 99.6 91.2 89.4 86.4 82.1 78 74.1 73.4 84.1 93.5 101.6 105.2 111.8 105.8 104.5 103.7 109.3 116.7 125.8 133.5 141.4 147 150.3 149.8 159 159.2 155.1 142 129 131.9 136.5 128.2 128.2 127.2 130 139.8 137.9 128.2 128.2 127.6 130.6 130.5 129.7 134.9 146.9 152.5 166.3 175.2 183.1 188.8 194.5 193.6 186.7 169.7 154.3 143.4 145.7 149 147.7 149.4 165.7 169.6 186.2 198.8 204.6 211.9 222.4 230.1 244.2 254.3 268.1 282.2 294.4 306.6 318.9 335 345.7 357.4 373.2 382.8 389.3
-1.8 -1.8 -1.8 -1.8 -1.8 15.7 18.8 18.3 20.1 30.3 40.9 29 28.9 31.3 42.7 47.7 38.9 47.8 61.2 72.1 69.7 81.1 86.1 93.1 100.6 99.4 98 86.8 78 60.1 54.1 49.4 42.1 43 49.5 59.4 60.8 66.9 63.4 79.3 87.9 85.1 88.8 95.6 95.3 92.4 92.7 93.3 93.3 90.5 91.8 92 84.8 81.1 63.5 58.5 56.2 81.4 102.4 105.1 98.5 90.6 77.9 60.4 64.6 85.4 91.8 88.3 83 89.1 93 93.1 78.3 77.7 70.7 60.1 63.6 57.5 59.7 46.8 50.1 52.1 50.1 35.6 35.5 41.7 40 31 27.9 31.9 34 35.1 35.2 40.7 47.6 59.4 64.9 60.5 61 72.1 49.3 39.1 32.1 31.6 37.7 47 84.7 79.7 59.8 53.5 56.6 50 28.1 20 24.5 46.8 75.9 105.8 109.9 107.8 95.7 91.6 82.5 77.2 75.6 74.1 74.1 87 93.5 108.5 113.5 111.3 105.6 104.6 104.7 106.1 107.8 119.4 118.3 124.3 130 137.7 139.3 148.7 152.8 147.9 135 130.2 135.7 129.9 126.7 127.5 128.1 135.5 136.9 133 128.7 130.3 139.3 156.4 152.3 138 133.8 139.8 156.4 169.4 175.1 178 190.4 193 187.8 179.2 167.2 152 144 145.3 145.4 145.7 152.7 169 177.2 183 192.6 200.4 205.9 215.4 224.5 234.9 249.3 261 275.8 289.7 302.2 314.3 329.5 339.8 346.7 362.7 376.2 382.5
-1.8 -1.8 -1.8 -1.8 -1.8 -1.8 17 13.7 -1.8 -1.8 25.4 26.8 22.7 32.4 37.8 38.5 31.8 38 64.7 81.3 85.7 76.1 82.4 82.7 98.2 109.3 104.5 91.8 70.5 52.4 45.9 41.3 41.5 51.7 53 54.1 55 57.4 66.8 69.7 75.8 82.1 96.4 108.7 108.5 99.5 91.1 91.1 90.6 97.2 96.4 90.5 81.9 60 51.8 50 66.7 82.8 84.8 86.1 81.6 73.3 68.4 65.7 81.4 80.7 85 86.2 80.9 79.2 78.2 78.5 72.4 68.1 66.4 59.9 52.9 50.8 49.5 44.5 40 42.5 42.6 39.2 34.1 39.6 34.7 30.4 24.4 24.7 28.8 32.5 33.2 37.4 50.4 59.1 69.3 60 64.5 71 55.7 47.9 38.7 38 46.5 44.5 66.9 70.6 67.2 69.2 53.6 48.7 34.9 20.8 23.9 34.3 57.5 84.2 100.7 101.9 96.2 89.4 82.3 77.1 74.9 75 81 94.5 99.5 103.1 106.7 109.4 115.4 105.2 104.8 108.7 110 117.8 121.4 121.4 126.6 129.5 126.9 140 141.5 132.1 124.7 128.2 136.1 127 125.8 129.4 138.4 136.9 136.5 141.7 141.7 146.2 153.5 162.2 177.2 172 158.3 150.2 146.8 158 167.6 177.5 189.1 197.7 190.9 180.1 170 154.2 150.7 149.8 148.1 155.8 159.9 182.6 195.9 209.4 219.2 215.1 214.5 215.6 221.9 240.7 256.6 267.1 275.6 286.2 293.6 306.4 317.5 327.7 337.9 353.2 366 375.8
-1.8 -1.8 -1.8 -1.8 -1.8 -1.8 2.4 2.4 -1.8 -1.8 7.8 15.8 23.7 24.9 25.4 30.7 30.9 34.2 47.9 71.6 80.5 89.3 77.8 79.6 88.8 93.9 97.5 84.7 60.9 49.2 40.9 42.1 48.8 53.9 67.9 64.7 57.5 59.9 60.3 62 78.2 82.5 77 86.6 92.4 88.2 78.1 83.9 90.6 97.1 91.3 73.4 62.7 53.8 47 45.4 63.3 67 70.4 71.4 64.2 60.5 60.2 67.8 71.9 71.3 75.1 81 91.4 73.7 72.6 77 78.3 77.3 71.9 57.6 52.4 46.8 39.3 36.1 35.3 34.6 34.8 32.4 30.7 28.1 24.2 22 21.7 22.2 22.9 27.2 31.5 32.7 42.4 50.2 52.3 55.2 59.1 56.5 54.4 50.7 47.7 45.1 47.2 48.3 50 63.1 69.1 68.7 56.3 48.2 42.1 35.5 23.8 24 38.1 60.8 80.9 91.7 93.1 88 83.1 79.6 75.3 77.5 84.7 98.7 102.3 106 110.6 113.3 123 109.7 107.5 107.3 108.3 111 115 115.7 117.1 123 127.2 142.4 138 124.4 125 123.2 124.8 122.9 132.4 133.3 136.1 137.1 144.4 150.8 158.2 163.5 166 181 186.9 192.6 190.3 170.6 160.5 156.2 161.3 174.6 183.1 194.2 193.1 183.5 170.1 167 161.5 159 156.8 157.8 178.9 203 215 230.2 238.5 234 222 217.6 238.6 252.5 261 272.2 282.3 285.9 292.6 299.1 310.6 320.5 333.6 345.7 359.4 371.1
68 55.4 33 -1.8 -1.8 -1.8 -1.8 -1.8 -1.8 -1.8 -1.8 21.8 34.9 40.9 34.6 30.9 46 49.8 37.8 55.7 69.4 78.8 89.2 81.8 77.6 83.7 82.9 68.3 53.4 42.2 41.1 49.8 67.8 84.9 81.9 70.4 65.8 77.5 64 53.4 56 62.6 62.9 61.6 63.1 67.9 65.9 70.7 78.2 79.2 65.8 54.5 49.5 43.9 36.3 37.8 41.4 49.1 56.7 62.9 54.8 54.2 58.2 70.3 69.6 68.2 75.8 103.1 110.4 92 86.3 86.5 82.2 79.3 70.7 61.5 52.9 46.3 37 32.8 31.2 30.6 28.3 27.6 26.2 23 21.8 21.2 21.1 21.4 22 22.9 29.8 28.6 33.1 41.3 46.8 50.7 51.1 49.9 51 51.1 53.1 54.1 58.5 50.4 48.2 57.4 69.6 64 59 51.9 48.6 45.6 35.3 27.8 25.6 42.5 63.7 79.3 82.9 84.8 83 81.1 78.2 80.6 89.6 96.4 106.9 115.6 120.9 132.1 129.9 114.7 111.2 111.2 111 109.8 113.5 114.1 114.1 114.4 121.7 135.6 125.1 125.9 129.2 129.2 129.2 129.7 140.7 134.1 134.8 147.6 152.9 161.4 182.7 188.8 182.2 181.3 183 184.9 182.4 178 175.2 172.9 167.5 166.8 180 191.5 194.1 188.3 187 183 175.6 166.8 157 165.1 194.5 213.4 227.7 226.7 231.5 229.6 222 223.3 238.2 247.2 257.5 277.1 281.3 282.6 286.6 297.2 303.6 317.5 330.9 342.7 350.8 362.8
53.2 50.8 45.2 25 -1.8 -1.8 -1.8 -1.8 -1.8 -1.8 -1.8 -1.8 24.9 33.9 33 26.5 39.4 47.5 41.6 40.1 46.9 63.4 74.5 79.9 80.5 67.7 63.1 47.8 44.3 39.2 44.6 62.9 78 85.1 80.8 70.7 87.8 83.2 66.3 52.5 45.4 46.9 46.4 48.3 45.8 43.2 46.4 44.7 46.8 46 39.8 37.3 30.8 28 30.7 29 31.3 31.6 48.1 46.9 44.6 60 67.2 66.9 69.4 68.2 83.5 100 99.1 93.4 87.4 83.3 73.6 70.5 67.2 53.8 44.6 37.6 31.1 30.2 29.2 27 24.6 23.2 21.9 21.8 20.8 20.6 21 20.7 21.5 22.2 27.6 24.6 28.8 33.9 42.7 48.1 48.8 48.8 49.2 50.2 52.7 55.6 58.2 56.9 48.3 48.2 53.3 59.5 59.5 60.2 55.2 52.8 47.9 44 27.8 26.8 43.4 60.5 74.3 77.6 81.9 83.3 84.4 88.9 91.9 98.4 108 124.8 134.8 134.7 126.8 116.8 121.9 130.2 133.8 128 118.9 121.9 126.6 115.7 116.7 122.5 129.2 129.2 129.2 129.2 129.2 127.9 139 133.6 136.9 145.3 150.4 167.2 180.7 191 184.3 187.5 189.7 186.5 182.6 180.8 189.8 184.8 173.8 169.7 170.4 187.2 187.9 200.8 193.3 184.6 171.5 163 164.6 180 193.6 211.5 230 229.7 223.4 225.6 224.7 227.2 235.9 250.1 258.2 269.4 272.2 279 289.4 293.8 297.4 306.4 321.9 326.6 337.4 360.3
52.9 49.8 50.3 47.8 32.9 25.5 18.3 -1.8 -1.8 -1.8 -1.8 -1.8 7.7 13.8 20.8 27.2 31.7 29.3 29.3 32.1 31 37.7 52.7 66.4 66.7 58.7 42.6 37.3 32.4 30.8 47.9 66.4 95.5 97.4 82.2 83.3 86.3 69.4 51 42.2 34.8 34.4 30 32.2 34.2 27.6 28.1 24.9 25.9 23.3 22.4 19.9 20.6 30.9 27.2 24.3 23.7 24.3 32.7 34.4 41 59 60 69.3 70.3 78.6 91 89.1 88.1 85.1 81.8 73.6 63.6 58.5 50 42.5 36 29.1 24.7 25.4 29 24.5 22.1 20.8 20.5 20.6 21.5 25.6 28.4 23.4 21.7 24.2 27.6 26.4 29.9 37 36.3 49.5 48.8 49.5 49.9 50.8 59.1 56.6 55.7 56 48 48.2 48.2 51.6 60.2 59.4 60 61.9 59.2 49.3 36.7 29.3 28.6 39.9 57.9 64.7 73.9 80.7 87.2 92.2 105.3 97 107.3 130.4 133.6 126.5 120.5 121 136.3 136.9 133.3 136.5 131.9 142 143.8 132 121.7 121.4 125.8 126.9 124.3 129.2 129.2 124.6 131.2 125.8 130.6 134.5 141.9 174 181.4 181.2 180.9 190.2 189.8 196.1 193.5 194.2 196.7 188.9 174.8 169.7 170.9 168.6 176.6 188.7 183.5 175.6 175.8 172.6 174.6 194 198.2 210.8 223.3 228.5 222.1 226.2 233.2 233.5 233 244.1 253.6 256 267.9 277.4 284.7 288.6 293.1 303.5 315.5 323.7 332.5 354.2
52.9 52.9 52.9 50.4 52.3 51 45.6 44.5 51.2 59.5 50.8 45.2 28.3 10 8.4 11.9 12.5 14.9 18.7 16 17.5 27.6 40.7 54.5 60.9 42.3 30.9 26.8 24.2 31.8 68.5 85.3 96.6 90.1 68 65.2 54.7 39.2 35.7 32.2 31.2 19.6 15.6 20.7 19.9 18.8 19.4 19.6 21.3 20.3 17.2 17.9 20.5 23.3 23.3 24.1 25 25 28.6 32.9 42.4 42.3 44.6 53.1 55.9 63.3 72.5 70.7 74.2 75.1 69.8 64.6 56.3 48.6 42.1 33.8 28.8 24.7 22.1 19.1 22.5 21.1 20.4 21.7 23 23.4 40.2 48.1 42.1 31 25 24.8 29.1 35.4 34.4 44.2 37.2 41.4 46.4 60.6 54.1 60.6 60.6 57.3 56.5 57.2 58.6 50.1 48.2 45 57.1 58.9 59.6 74.4 82.8 64 48.4 40.7 28.8 33.6 48.5 62.3 64.5 75.1 80.5 89.4 109.3 100.6 104.4 128.2 129.4 126.6 135.3 130.8 133.6 136.1 135.4 141.8 140.8 139.6 137.5 133.4 138.3 128 143.2 128.2 126.6 131.3 124.1 126.9 124.9 125.7 126.8 126.2 149.6 171.5 181 180.5 177.5 181.8 187.8 194.9 202.2 200.1 196.7 191.5 181.1 164 165.4 168.7 162.4 166.9 172.7 177.2 176.3 174.4 178.7 198.7 199.5 202.2 215.3 220.2 217.3 231.3 249.8 236 243.2 258.9 262.1 259.8 277.8 282.2 284.5 286.1 290.7 300.3 308.9 317.9 325.2 348.8
61 70.4 77.2 76.5 64.8 61 57.1 53.8 51.4 54.1 64.2 61.1 51.8 49 38.3 20.3 9.3 6.7 8.2 -1.8 -1.8 5.2 23.4 27.3 38.4 24.3 17.6 15 17.9 40.3 69.8 69.7 75.2 71.7 57.6 38.4 29 26.2 25 16.4 12.4 6.2 3.4 5.8 10.6 12.2 19.1 17.4 18 18 18 22.9 41.2 37.2 39.7 42.3 28.6 45.4 32.2 31.4 38.7 36 37.7 40.7 41.4 47.6 50.3 54.8 58.3 58.5 52.2 46.4 42.6 35.9 31.2 26.1 23.4 19.6 17.8 15.7 16.5 18.4 22.3 24.5 28.6 43 72.6 66.7 60 46.7 32.5 26.1 30.9 42.7 40.9 43.9 38.6 38.6 46.6 59.1 54.4 59.4 64.9 62.4 59.9 77.7 75.7 60.3 48.2 45.7 52.2 58.3 59.3 69.5 81.4 78.4 57.4 46 31.9 31 39.3 59 63.5 65.9 73.8 84.8 110 103.1 102 125.1 127.1 140.6 137.3 132 133 135.4 140.2 140.6 139.9 137 135.5 137.3 147.4 146.7 154.2 136.9 129.1 127.5 122.6 128.9 126.5 125 127.5 130 135.9 154.4 176.1 175.7 175.4 184.8 186.4 192.4 201.8 202.5 193.3 190.5 185.5 172.5 163.4 163.2 157.7 152.6 158.9 168.7 170.4 175.3 179 188.6 188.8 190.2 204.1 209.7 214.4 236.1 249.4 246.4 248 263 275.9 280 278.2 290.3 282.6 285 291 295.9 305.9 315.7 323 344
98.6 97.6 93.4 90 86.9 83.3 80.1 73.8 61.5 53.9 51.2 55.2 55.7 55.4 51.9 48.5 36.5 24.6 1.6 -1.8 -1.8 -1.8 -1.8 -1.8 -1.8 -1.8 -1.8 -1.8 12.7 28.5 39.4 47.9 47.5 42.6 30.9 23.8 15.3 14 8.3 -1.8 -1.8 0.6 2.4 6.4 12 16.4 20.7 18 18 18 18 22.1 32 36.8 43 48.4 45 41 31.3 36.4 32.7 31.2 30.7 28.3 28.7 35.4 35.3 43 40.3 39.6 37.6 32.4 32.5 27.4 24.5 21.7 19.7 12.1 11.3 12.2 16.3 24.6 28.7 47.7 71.1 85.9 86.4 77.8 70.8 63.8 43.2 33.1 32.2 47.2 47.6 41.8 38.6 38.6 37.3 50.8 53.2 61.4 64.2 61.6 62.6 74.8 75.3 64.6 55.9 55 52.8 58.3 59.8 78.8 97.7 99.7 71.5 49.9 34.8 29.6 32.9 46.8 60.9 71.3 74.8 97.5 104.7 100.6 101.4 112.7 137.4 143.6 137 132.9 133.9 138.7 141.9 147.8 140.7 144.1 135.5 144.3 155.6 153.5 148.2 136.9 129 122.6 127.4 142.6 128.6 125.6 129.6 137.4 135.3 145.6 166.4 170.9 176 178.8 184.7 192.9 200.3 199.3 198 187.9 179.8 174.6 167.2 156.7 149.8 148.7 154.7 154.3 158.5 169.1 176.2 179.3 182.7 189.6 197.1 198.9 206.8 233.1 239.2 248 251.3 261.7 281.9 288.5 283.1 282.8 288.4 305.9 306.8 300.3 302.9 316.9 320.7 333.2
94.9 94.8 95.6 94.2 96.5 90.3 88.7 93.5 87.7 79.9 73.9 64.5 68.1 66 58.5 49.6 43.4 44.8 29.6 -1.8 -1.8 -1.8 -1.8 -1.8 -1.8 -1.8 -1.8 -1.8 -1.8 -1.8 -1.8 -1.8 12.1 10.2 10.1 -1.8 -1.8 -1.8 -1.8 -1.8 -1.8 2 4.7 9.8 8.6 15.6 20.9 29 20.4 19.8 25.3 34.2 42.6 38.8 48.4 51.4 44 33.6 30.5 35.9 36.8 27.4 20.6 14.6 22.6 21.8 26.7 25.8 26.3 29.3 27.5 24 21.9 16.1 11.5 10.1 8 7 8.2 14.3 20.2 34.1 63.5 90.4 86.1 90.5 97.3 87.6 82.5 72.6 52.8 41 32.2 36.9 41 38.3 38.6 38.6 40.3 46.1 47.6 57.2 59.1 59.6 61.4 64.3 67.4 64.2 61.9 62.5 56.5 58.7 61.9 68.8 87.6 88.1 75.3 54.6 37.6 30.4 31.4 41.9 63 75.8 78.7 93.1 103.9 98.2 96.1 114.4 128.4 135.6 137.6 136.7 141 147.1 144.2 145.4 140.5 143.9 154.6 148 154.1 157.4 146.6 148.4 140.1 127 134.2 151.5 136.1 129.6 132.5 132.1 132 134.2 152.3 160.5 169.1 172.7 179.5 189.4 193.1 192.6 190.4 182.2 171 163.2 157.1 149.8 145.2 151.3 154.7 158.9 158.9 162.8 174.3 177.4 183.8 190.5 198.1 194.5 201.8 228.3 244.6 252.1 263.2 257.3 295.5 296.8 288.1 288.4 299.8 304.2 314.4 323.6 310.8 314.5 326.6 329.2
89 91.2 91.6 95.4 96.4 96 100.9 97.2 88.4 80.1 77.6 76.2 76 77 74.9 53.9 42.8 33 27.1 15.9 -1.8 -1.8 -1.8 -1.8 -1.8 -1.8 -1.8 -1.8 -1.8 -1.8 -1.8 -1.8 -1.8 -1.8 -1.8 -1.8 -1.8 -1.8 -1.8 -1.8 -1.8 -1.8 -1.8 -1.8 5.4 26.3 31.6 28 23.9 28.5 38 60.8 71.8 57.3 49.1 41.4 38 33.2 30.8 33 31.3 25.3 21 19 19 14.5 14.6 19.6 23.1 25 17.2 12.7 10.5 6.1 7.2 8 5.6 7.7 11.8 19.6 39.3 69.6 80.9 80.2 89.3 92.6 93.2 89.9 83.3 72.8 58.5 44.5 33.9 30.6 35.5 39.1 39.6 39.5 40.4 43.1 37 42.4 51.8 57.1 59.3 61.1 61.5 61.9 63.1 70.9 66.6 62.5 62.8 66.5 72.3 77.7 71 60.6 42.3 32.8 30.5 35.3 58 77.7 80.1 86.7 96.6 95.5 91.9 108.3 123.9 132 136.7 144.6 145.1 144 144.5 139.5 138 158.4 160.3 155.5 147.4 152.2 149.4 144.4 136.9 126.9 130.9 141.9 140.9 135.7 139.4 137.8 130 130 139.5 148.1 156.4 164.1 178 177 179.3 180.5 177.1 169.6 159.3 153.2 146.9 142.6 146.6 163.2 158.9 158.9 158.9 154 163.4 173.2 182 192.8 197.6 192.6 205.2 224.5 238.5 257 268.3 266 286.9 301.3 308 298 301.2 308.2 313.2 329.6 329.1 321 320.8 328.9
77.4 86.8 87.5 89.2 90.1 97.8 95.5 93.2 94.6 92.4 86.8 83.1 83.9 81.8 73.7 61.9 50.8 38.1 22.9 6.3 -1.8 -1.8 -1.8 -1.8 -1.8 -1.8 -1.8 -1.8 -1.8 -1.8 -1.8 -1.8 -1.8 -1.8 -1.8 -1.8 -1.8 -1.8 -1.8 -1.8 -1.8 -1.8 -1.8 -1.8 14 16 16.2 17.1 24.8 31.2 45.4 70.6 73.5 68.7 66.9 58.1 56.5 54.3 52.7 35.6 25.9 20.7 15.6 19 19 19 19 19.6 22.7 17.1 10.1 4.9 8 8 8 6.2 9.6 14.1 19.6 23.9 50.5 59 64 69.8 79.9 87.8 89 85.5 80.3 73.9 61.1 47.5 38.5 30.4 33.6 39.8 41 40.4 37 37 37 38.6 47.6 50.1 53.1 56.8 58.8 60.5 67.2 74.8 75.5 70.4 64.4 66.7 69.5 70.1 71.2 71.9 50.2 36.4 31.9 35.7 47.9 67 83.9 86.7 93.4 88.1 89.3 106.3 116.4 129.9 134.4 143.3 145.4 142.5 138.5 142.5 153.8 158 157.6 150.8 147.1 141.2 143.7 138.7 133.1 126.9 138.6 131.7 141 143.1 147.8 157 149.1 133.6 132.7 134.6 140.8 150.4 160 168.5 162.5 164.3 163.4 158 151.3 149 146.2 142.3 150.2 155.2 151.9 158.9 152 158.9 152.1 166.6 174.5 188.4 196.2 194.5 214.7 222.5 239.4 251.4 262.6 269.8 282.4 299.5 310.7 301.9 304.1 311.3 326.4 329.1 337.4 332.2 322.9 325.7
75.1 73 79.4 78.4 88.7 94.9 96.8 101.2 98.8 102 102.1 93.1 89.6 82.9 68.9 69.1 68.9 48.4 27.8 -1.8 -1.8 -1.8 -1.8 -1.8 -1.8 -1.8 -1.8 -1.8 -1.8 -1.8 -1.8 -1.8 -1.8 -1.8 -1.8 -1.8 -1.8 -1.8 -1.8 -1.8 -1.8 -1.8 -1.8 0.9 5.2 7.2 11.8 14.4 14.3 20.7 42.6 59.4 62.4 67.4 61.2 66.6 67.9 63 59.5 51.8 38.1 25.4 19 19 19 19 19 15.9 15.4 6.3 8 8 8 5.9 16.2 27.5 25.8 23 27.6 28.2 37.8 44.1 56.3 68.3 94.6 94.4 99.8 92.7 91.4 75.8 63.9 52.4 43.8 34.6 33.3 36.9 41.7 46 37 37 37 37 42.4 45.6 46.7 52.6 57.2 63.6 70.3 77.3 95.3 77.7 72.5 70.6 68 66.9 66.6 71.6 58.6 45.7 33.6 34.8 45.8 61 84.3 87.4 85.2 83.8 87.3 119.1 125.6 134.6 139 137.5 138.3 136.5 136.6 143.2 146.5 150.7 152.2 150.4 146.7 141.2 144.1 139.9 131.5 136.7 139 139.2 141.7 143.5 146.8 160.4 153.8 147.9 133.5 137.8 136.4 136.9 141 148.5 153 149.4 146.7 146.7 142.1 142.7 140.5 143.6 143.2 153.4 162.7 158.3 151.9 158.9 158.9 158.6 172.7 186 189.8 205.4 213 229.2 235.5 245.7 255.5 260.7 273.2 289.9 307.7 316.4 316.7 315.3 328.1 335.6 338.9 338.5 327.6 325.2
