ncols 200
nrows 83
xllcorner 190000
yllcorner 855150
cellsize 50
259.4 266.3 271.2 275 278.6 284.2 293.1 294.2 297.9 302.9 309.1 312.7 313.7 318.3 322.5 324 323 324.7 329.2 332.4 333 340.3 342.1 339.7 338.3 338.8 343.5 348.5 354.1 375.2 396.8 399.3 401 402.6 403.1 402 403.1 405.4 412 424.6 440.2 447.3 450.3 454 457.3 461.5 463.1 464.6 470.8 471.2 468.4 463.3 458.3 464.4 466.8 455.2 444.1 436.7 432.7 428.3 424 422.5 416.4 409.1 403.1 396 392.1 388.9 381.8 378.5 375.6 380.4 384.2 387.8 387.6 386.5 386 387.8 386.9 390.6 394.8 395.5 396.6 398.4 397.8 394.7 396.8 395.8 395 394.2 395.9 401.6 406.4 400.8 405.5 411.6 420 424.3 432.7 440.1 447.7 456.3 465.7 472.7 485.5 503.5 520.9 540.1 563.1 582.7 600.3 622.2 643.5 662.8 684 701.3 722.1 739.2 756.9 764.6 770.8 774.5 774.1 775.1 779.6 774.7 775.9 778.6 785.1 794.5 802.1 822.3 852.4 829.6 784.7 754.7 734.4 714.3 701.3 688.5 671.5 646.7 617.9 595.7 575.2 548.7 533.2 521.1 508.6 507.1 504.6 502.6 492.3 462.4 449.3 450.2 449.3 442.1 440.4 440.1 448.9 454.8 452.2 454.5 454.5 453.1 448.5 440.9 434.6 424 413.4 405.1 406.5 401.9 395.7 391.4 384.2 370.3 359.9 354.9 355.8 349 335.7 326.1 323.1 314.9 314.8 311.5 309.8 306.4 304.3 301 297.7 293.5 288.9 285.3 279.6 276.4 273.1 267.5
270 275.8 284.2 291.6 295.9 300.2 301.4 306 312.6 320.3 327.8 327.7 333 336.6 338.2 338.9 337.7 342 343.9 341.7 343.4 347.2 350.4 348.5 347.6 350.3 356.5 371.3 384.3 393.3 407.5 409.3 410.5 409.2 406.3 403.4 406.9 412.3 423.1 441.6 455.9 457.6 461.5 466.5 473.9 478 478.6 477.5 482.1 486.7 487.5 480.6 480.1 481.5 475.9 471.2 464.6 456.2 443.1 438.5 440 431.5 425.7 418.4 410.7 403.7 397.1 391.7 386.7 380.3 376 372.3 375.7 376.3 376 376.4 375.2 377.2 378 381.1 386.8 387.6 388.6 388.1 387.3 384.3 381.2 378.8 376.4 375.9 376.3 382.9 386.3 382 385.3 392.3 398.9 402.6 407.5 414 421.1 425.5 436.3 445.9 458.8 473.3 489.2 508.4 530.3 551.7 568.9 591.7 608.8 629.5 652.1 673.2 693.5 708.5 728.4 737 744.5 754.4 758.5 761.5 762.8 762.1 760.2 758 760.8 763.7 770.2 790.6 834.8 856.5 822.6 792 773.2 745.8 713.5 690.6 668.1 640.6 611.5 591.4 571.6 548 521 508.7 503.1 502.8 502 494.2 474.9 453.8 440.8 438.4 436.4 430.5 426.9 425.6 428.5 430.6 429.3 430.8 428.8 425.7 421.8 418 410.2 396.8 391.7 386.3 386.3 382.8 376.3 370.5 359.6 356.3 345.4 341.3 340.7 333.3 318.6 315.7 312 305.6 303.8 302.5 304.1 301.8 300.7 295 292.1 289.3 287.1 287.3 279.9 276.4 273.4 267.8
290.5 297.2 307.8 314.3 316.1 314.9 314.6 316.5 322.2 328.5 337 343.1 345.6 348.3 350.1 352.5 354.2 357.5 360.4 360 359.7 362.6 367.1 366 364.9 365.4 387.5 396.5 403.9 413.1 419.9 421.5 424.2 423.2 414.1 408.4 409.8 415.3 432.3 452 457.3 463.4 473.1 480.8 487.9 500 503.1 502.8 502.2 501.4 496.8 491.9 493.3 487.6 482.2 479.3 471.5 465 458.6 453.6 448.9 441.8 435.9 431 425.8 414.7 403.5 397.8 392.1 385.5 378.8 373.9 371.5 373.4 375 373.4 369.7 371.2 370.8 372.6 373.3 377.6 377.5 373.8 372.8 372.4 369.5 367.5 364.1 362.9 363.2 366.2 369 367.9 370.6 373.7 379.9 384.8 388.2 392.2 395.7 402.6 414 418.6 430.4 445.1 461 479.5 500 518.9 541.2 563 578.5 599.3 620.1 645.7 662 680.5 700 713.2 724.5 738.4 744.4 747.7 750.3 744.6 736.3 731.1 729.6 729.7 739.3 760.8 801.7 820.3 807.9 785.1 759.4 735.2 703.9 674.3 650.3 625.3 601.5 585.6 565.5 536.8 511.8 496 494.9 500.5 499.6 480.6 459.8 444.3 435.5 427.9 424.5 420.2 412.8 410.9 409.5 407.9 406.6 405.1 405.8 398.5 398 394 386.1 377 373.8 371.1 367.5 365.4 361.1 355.3 350 346.2 336.2 331.6 326.6 319 310.9 305.6 301.3 296.9 297.7 296.2 302.2 298.6 296.3 293.1 290.9 288.1 286.7 283.6 281.4 279.1 275.2 276.2
313.6 320.4 331.6 333.8 330.2 327.6 327.9 333.6 339 345.7 354.6 361.9 364.1 365.2 364.7 367.9 369.6 368.6 372.6 375.3 378.3 381.5 384.2 385 386.1 397.3 410 419.3 432.8 437.9 437.7 431.7 432.9 427.8 420.9 414.2 414.8 422 435.8 452.2 463.8 480.7 486.7 495.6 512.6 519.4 518.4 514.6 510.4 507.4 502.1 499.5 497 490.9 487.2 485.3 476.6 471.1 466.9 462.1 455 446.9 441.4 438.1 432.8 427.5 418.5 410 406.9 398.9 390.2 380.6 376.5 374.3 373.3 373.2 377 378.2 374.7 368.8 370 372 373.6 370.6 366 362 361.4 359.6 356.9 355.2 354.8 355.1 355.3 356.7 360.3 362.4 365.6 369.2 374.1 376.9 376 380.8 390.3 397.6 405.9 418.3 434 451.7 468.3 488.7 512.3 530.2 550.4 567.9 592.4 612.2 635.5 652.6 670.6 687.9 702 717.6 730.4 729.8 720.5 711.2 703.6 699.4 697.1 696.5 709.4 732.5 760.9 777.6 772.6 752.1 723.8 701.5 677.5 650.6 622.5 601.7 583.5 566.5 545.7 524.2 497.7 488.2 488.4 495.2 482 464.4 444.7 432 421.7 419.7 413.9 407.8 400.9 396.3 394.1 389.7 386.7 383.3 383.8 380 379.4 371.3 364 360.3 360.2 359.6 355.8 353.9 347.3 344 339.3 337 334.8 330.5 326.9 314.4 305.2 299.8 293 288.2 287.5 292.1 299.2 296.1 294.3 292.3 290 286.7 286 285 283.3 281.1 282.1 283.4
339.3 347.9 354.4 354.9 350.9 351 352.2 360.5 366.4 370.9 373.4 375.9 378.8 381.2 383.7 385.9 387.5 386.9 385.6 387.8 390.1 397.1 407 418.4 424.5 438.7 447.3 452 453.9 460.3 450.8 435.7 435.3 431.1 426.5 421.1 421.9 429.3 437.2 453.2 477.3 496.8 504.7 513.7 526.9 530.1 528.7 523.6 520.1 514.9 511.8 503.6 503.4 502.6 494.1 490.5 484.2 476.6 472.3 466.1 463.2 454.2 449.1 443.6 437.4 430.6 426 420.4 416.2 405.7 397.6 391 384.2 380.1 377.1 380.8 379.9 381.3 378.3 374.2 369 365 364 364.8 362.8 359.8 359 356.6 354.2 352 351.6 350.5 349.9 348.6 350.3 353.2 355.1 356.1 357.3 359.6 359.6 361.4 369.5 377.5 384.7 396 409.3 423.7 440.3 458.6 478.6 499 519.1 541.1 561 587.6 608.2 623.5 640.8 663 677.1 696.6 711.7 700.8 684.4 675.9 669.9 671 665 665.2 680 707.9 733.6 740.1 732.9 712.5 692.1 670 646.7 621.9 599.8 580.1 560.8 544.9 528.5 509.7 489.9 481.7 482.6 484.8 464.6 447.9 429.9 415.2 409.9 407.8 402 398 389.9 384.5 378.9 373.7 369.9 363.8 361.5 361 361.7 355.3 346.7 347.8 350.5 351 342.9 338.3 333.3 335.1 338 335.2 330.7 327.1 323.3 309.4 299.7 294.1 286.6 281 281.9 288.7 294.5 294.2 293 292.4 290.9 287.9 286.9 286.8 286.1 284 285.2 280.8
357.2 364.4 373 376.7 374.9 376.9 381.2 383.8 385.6 385.6 387.6 390.3 392.9 396.7 397.3 398.3 405.5 410 413.3 411 418.7 428.5 439.6 445.8 464.1 478.2 482.7 483.1 478.4 471 456 445.6 444.3 436.8 431.6 426.4 425.3 430.2 437.9 463.8 490.3 507.2 516.7 523.9 533.3 535.6 533.8 532 527.9 523.4 521.9 513.8 512.9 511.7 506.4 503.3 495.7 486 480.5 477.3 475.3 468.1 458.9 453.5 448.5 438.9 431.4 426.6 422.6 418.6 412.3 402.9 397 386.9 382.4 383.7 382.2 383.3 380 377.2 374 371.1 366.5 364.1 362.6 358.4 354.5 353.6 354.8 351.3 350.2 348.5 348.2 345.5 343.8 347.9 346 346.6 346.4 346.1 346.5 348.9 355.3 360.5 366.7 375.4 387 402.3 413.9 430.6 448.3 469.1 488.8 511.3 533 560.4 578.5 593.1 610.1 630.8 647.7 670.4 681.5 677 661.4 647.3 636.3 637.8 638.1 636.2 651.4 684.3 713.8 707.7 692 674.1 658.5 635.6 612.9 590.1 567.8 546.8 531.1 521 508.7 494.6 482.3 474.7 477.7 465.9 447.8 431.1 412.5 399 398 395.7 392.4 393.6 382.6 372.6 364.9 358.7 354.1 352.4 345.9 344.8 341 340.2 336.5 340.1 339.8 336 327.8 326.8 325.6 334.8 330.9 327.2 324.3 319.3 315.9 306.4 297.4 290.2 282.1 278.3 278.2 285.9 294.1 292.5 291.1 292.4 291.5 288 288.1 288.3 288.5 287.5 286.5 278.4
374.6 383.5 390.7 393.4 396.9 400.8 401.4 404.9 405.4 405.7 406.9 409.6 409.8 411.9 414.6 420.7 426.9 431.6 436.3 437.8 441 452.4 462.3 477.1 485.3 492.8 499.3 497.6 484.2 469.2 460.4 451 454.7 449.5 439.3 438.4 434.1 435.5 448 472.4 488.5 511.9 523.3 533 537.4 539.8 537.7 535.5 530.7 527.5 525.5 525.3 524.1 520.1 520 514.2 509.4 501.1 488.5 484.7 500.2 494.8 481.6 468.1 460.9 453.3 448.2 443.5 438.1 429.9 423.7 416.8 407.6 400.7 398.3 390.9 387 385.6 383.6 380.8 378.4 379.1 374 366.4 363.1 363.2 360.2 356.5 352.1 351.8 349.1 348 347.9 343.3 344.1 338.6 340.1 340.4 339.7 340.1 337.7 340.5 344.6 348.9 352.1 359.7 368.9 382.6 392.8 407.5 422.6 440.3 460.9 481.6 503.3 525 543 562 581.2 601.6 616.3 633 648.7 649.4 642.2 627.1 611.3 605.5 609.8 606 623.5 655.5 677.1 675.5 664.6 643.4 625.4 604.1 584.9 563.7 543.7 526.9 510.2 497.3 479.3 471.8 472.4 462.4 473.3 451 432.2 414.9 397.4 381.4 379.9 382.7 382.3 393 384.3 367.5 351.3 345.6 340.6 338.4 337.7 331.2 323.8 327.5 320.9 327.1 327.3 324.5 317.3 322.3 324 324.8 323.2 322 319 312.9 309.9 300.5 293.1 288.3 280.3 273.1 275.4 287.7 295.4 289.9 289.9 290.1 288.7 286.9 287.2 288.2 288.4 296.3 285.7 275.9
396.8 407 410.9 408.3 408.1 412.5 414.1 416.6 418.2 421.2 420.1 425.9 433.9 436.8 438.3 443.2 448.3 460.5 465.9 466.8 472.1 472 485.1 494.9 495.1 498.1 503 500.2 484.8 472.4 463.2 463 461.8 463.4 459.5 475.2 465.3 467.8 468.5 478.2 491.9 508.6 522.7 538.8 547.4 547.7 544.9 540.7 537.3 536.6 537.3 533.7 531.1 531.9 528.1 524.2 518.1 513.9 505.2 506.9 537 525.3 505.4 490.7 478.4 470.5 472.9 464.9 457.1 448.9 442 434.2 425.6 414.4 409.6 403 397.7 392.6 388.4 385.4 383.4 381.8 379.8 376.7 374.8 372 369.4 367.3 366 360.3 357.4 352.5 349.6 346.8 345.4 341.5 336.2 334 333.6 330.9 330.9 333.5 336.8 339.1 343.3 350.2 357.6 365.3 374.3 386.5 397.7 413.9 433.1 453.8 475.1 494.4 511.3 532.1 555.2 570.9 585.9 602.5 612.9 619.2 619.3 607.6 593.7 580.2 575.2 576.8 596.1 626.6 634.7 640.1 635.4 617.5 600 578.6 560.6 542.8 522.4 508.2 491.1 478.6 461.6 462.8 470.1 447.6 458.9 438.8 413.6 393.2 385.5 364.9 360.6 369.3 373.7 385.4 378.9 356.9 337.8 326.8 328.6 327.7 329.3 316.3 311.8 314.4 308.3 314.1 313.4 312 315.6 323.8 321.6 319.8 316.4 315.8 312.9 307.9 303.8 294.4 290.2 286.1 278.6 270.9 273.6 288.2 292.7 288.6 287 286.4 286.6 287.3 288.1 288.4 289.8 294.2 283.5 272.7
414.3 419.3 422.6 423.9 430.6 431.9 431.4 431.5 432 432.6 439.5 447.2 450 452.2 457.1 460.8 464.3 475.2 483.4 483.9 486.3 492.8 496.7 503.7 509.2 514.6 517.4 505.7 483.6 475.4 471.2 471.7 467.5 469.2 474.1 482.2 487.1 481.5 479.4 483.1 497 508.3 517.8 540.2 553.1 554.7 552 547.8 543.6 548.6 543.9 544.9 544.7 540.4 536.6 533.7 529.3 527.5 520.9 531.2 548.7 545.2 528.2 513 503.1 499.1 503.4 494.2 488.6 476.4 466.6 455.8 447.9 437.1 429.1 427.8 418.4 414.8 410 404.4 400.7 396.8 395.7 393.6 393.7 387.9 385.7 385.3 384.1 379.6 376.2 371.2 364.7 358.5 353.6 348.6 341.5 335.8 330.6 327.3 327.5 329.1 331 332.2 337.1 341.9 347.5 353.4 358.4 367.2 379.2 389.7 406.8 427.8 447.5 466.5 485.9 503.5 524.3 540.2 555.1 571.9 583.2 585.5 589.6 584.5 568.8 556.5 547.4 548.8 569.6 592.6 601.2 604 598 586.7 578.8 558.4 537.1 517.1 498 484.7 473 460.3 440.4 445.5 446.2 423.8 426 416.8 394.9 377.6 361.8 348 344.1 353.8 362.6 371.7 366.8 346 326.3 309.9 313.2 315.2 312.7 306 304 298 297.8 300.8 304.7 306.5 320.1 319.9 318.4 315.8 310.7 311 304.7 302.1 294.4 287.4 283.3 281.3 277.6 269.1 270.5 284.1 287.7 286.7 283.9 283.8 284.3 292.2 287 286 284 282.6 275.8 270.3
424.1 426.3 434.6 439.2 444.3 446.6 447 449.1 448.1 447.6 448.4 452.5 457.1 460.2 465.3 467.8 473 485.2 495 496.8 495.8 507.8 514.8 516.7 525.6 531.9 520.3 497.9 481.1 476.6 476.9 478.2 479.9 483.6 490.4 496.6 499.5 495.8 489.6 489.1 503 512.4 523.2 540.3 549.8 552.2 551 550.1 548 548.6 553.1 550.8 549.5 544.1 543.6 546.5 547.1 539.5 538.9 543.4 552.3 550.6 541.8 529.9 530.3 527.3 517.5 514.9 511.1 499.7 485.9 475.8 466.5 457.7 446.9 442.7 439.4 438.3 435.7 430.4 430.5 426.2 422.9 416.3 415.6 413 415.5 418.8 414.4 409.5 402.9 392.9 382.2 373.5 363.1 356.9 348.3 340 330.9 325.6 325.4 325.4 325.5 327.9 332.3 335.6 339.3 345.2 345.3 351.6 362.5 370.6 384.5 404.8 423.2 443.1 461.8 478.3 494.3 510.9 528.1 540.6 551.7 558.8 559.7 556.3 547.3 535.9 519.1 509.3 533.2 547 555.1 562.5 560.2 545.6 530.9 522.4 521 502.1 482.7 466 452.4 436.8 420.3 426.4 417 407.1 393.8 386.6 374.7 362.1 348.6 334.1 324.8 326.5 347.1 356.7 351.9 338.2 321 303.6 303.1 298.8 297.1 289.4 287.7 284.7 289 289.9 291.5 314.9 318.1 317.6 312.8 308.6 306.2 300.2 296.9 291.8 285.2 279.6 278.5 274.2 271.5 265.1 264 277.5 285.4 285.5 281.8 279.9 283.5 291 287.9 284.2 282.1 279.8 274.8 269.1
433 436.3 447.1 453 454.6 456.7 459.9 463 463.6 464.9 461 462.9 466.7 467.4 471.6 474 481.4 493.4 499.3 505.5 515.1 523.1 529.6 528.2 533.7 533.4 514.3 498.1 484.5 481.2 479.7 483.2 492.7 495.8 501.7 505.6 507.9 508.6 499.9 497.4 503.2 511.9 531.9 538.8 544.9 546.9 548.1 550.5 550.4 552.3 553.9 554.2 549.7 551.8 550.3 558 556.5 553.3 555.5 552.6 549.5 547.1 547.5 540.5 537.7 537.9 538.8 542 531.6 516.5 505.8 505.5 501.4 484.2 472.5 462.9 460.8 463.8 463.1 461.6 462.8 461.4 465.6 466 452.5 448.5 457.8 455.3 460.2 461.4 453.7 437.3 413.5 397.8 383.6 371.1 359.9 344.6 333.3 328 326.7 323.2 322.3 324 326.2 327.8 333.8 337.6 336.6 340.5 348 355.3 368.3 386 402.3 423 438.5 454.1 467.4 483.9 500.6 512.3 526.5 537.5 534.2 526.1 516.9 506.1 487.8 481.5 487.6 495.3 506.8 512.6 515.3 509.4 492.3 479.5 483.5 474 460.3 445 433.1 416.1 402.7 406.2 392.1 379.8 360.3 361.2 354.4 345.3 333.5 316.1 306.8 317.5 326.6 333.3 330.4 321.9 310.8 294.3 293.3 285.6 282.2 274.5 274.3 274.5 282.6 279.9 296 312.1 311.6 312.5 306.5 304.6 298 292 287.9 283.1 278.9 271.5 267.2 266.9 265 256.1 260.6 273.3 279.3 282.6 277.4 278.6 285.9 293 287.1 283.7 286.3 285.9 274.9 267.2
440.1 444.3 449.2 462.2 473.3 483.1 487.6 486.1 484.5 482.8 484.1 480.8 480.4 483.2 489.7 493.1 503.1 510 515.3 523.6 530.1 533.7 536.4 539.2 541.5 530 512.7 499.4 490.7 487.8 491 497.2 505.1 508.5 507.2 511.3 518.2 517 515.6 503 508.9 523.7 530.1 532.9 539.6 541.7 550 553.6 556.1 556.8 560 561.1 561.8 564.5 564.3 564.5 564.2 564.3 558.6 555.7 557.4 565.4 559.9 553.3 554.2 554 559.1 556.1 546.3 534.3 526.3 533.1 529.8 508.8 495.1 487.9 483.3 495.9 499.5 494.3 493.7 495.9 495.1 492.3 489.8 490.2 492.7 500.3 505 513.3 505.3 479.8 453.5 436.1 412.5 382.5 362.3 345.9 335.7 331.7 328.2 325.1 322.7 321.8 320.3 322.2 324.3 326.8 329.9 329.4 335.9 344.1 356 372.9 386.6 402.6 417.7 433.2 445.8 458.8 473.9 486.1 499.1 511.2 513.1 501.9 489 473.7 458.3 451.9 451.5 452.3 461.9 464.6 467.2 464.1 456.8 451.7 450 442.2 430 416.4 406 390.4 386 384.7 371.6 355.6 340.6 336 336.2 330 319.8 305.7 292 297.6 306.9 311 314.3 306.1 296.3 285.7 282.2 272.6 272.3 264.2 263.2 267.7 272.1 280.5 295.4 301.4 302.9 304.8 297.8 293.8 287 283.3 280 277 275 265.6 260.5 258 255.5 247.1 256.9 266.7 273 275.9 270.9 280.5 291.6 293.6 284.3 283.5 287.9 284.9 271.6 261.1
449.9 449.7 466.2 475.6 490.1 496.5 499.4 500.4 505.1 516 521.7 519.4 517.2 514.3 516.1 517.9 520.3 522.2 527 534 541.3 542.6 546.7 549 541.3 523.8 510.2 502.4 497 491.7 496.7 501.5 511.2 519.3 521 520.2 517.9 517.7 518.7 510.5 518.6 521.4 523.4 524.2 532 536.3 551.4 558.4 565.8 568 571 572.8 575.3 575.5 575.9 573.2 576.8 582.7 580.4 577.2 575.2 575.2 573.6 584.9 577.2 574.2 572.7 567.9 565.5 556.5 546.8 541.4 534.4 530.4 521.2 510.9 505.9 510.7 515.1 526.2 538.3 535.4 536.8 539.1 529.6 540.5 550 568.6 583 580.6 581.5 588.1 536.4 502.9 464 413.4 375.7 354.6 342.3 338 331.7 327.6 323.9 317.7 317 315.7 316.5 317.7 318.7 319.1 326.2 335.7 348.6 364 374.7 384.2 397.5 410.9 425.1 437.5 448.1 458.2 471.1 477.1 482.8 477.3 462.2 449 430.2 429.3 422.4 419.5 429.3 438.1 439.4 433.2 430.7 429.3 426.2 419.1 405.5 393.1 380.3 362.2 356.1 355.2 346.4 333.7 319.5 316.4 309.8 311 305.4 294.9 278.9 284.2 291.1 295.6 298.5 287.9 274.2 269.5 265.8 259 254 256.1 250.7 255.7 260.1 277.4 290 294.8 293.1 294 284.9 279.6 275 272.8 274.6 270.4 267.5 264.2 256.9 253.8 250.6 244.7 248.7 255.7 263.3 266.5 270.9 283.6 299.7 286.7 278.7 277.4 279.4 278 264.6 254.3
462.3 464.5 470 484.2 495.3 497.4 502.3 508.1 519.1 532.7 539.5 543.2 542.4 537.7 535 533.6 532.7 532.2 534.6 542.5 547.6 548.4 553 550.2 539.5 520.7 513.6 508.7 503.2 502.4 502.1 508.1 518.5 530.8 536 536.7 530.8 521.8 517.3 517.3 513.7 514.7 515.6 519.9 527.3 533.6 553 563.5 572.3 582.6 586.8 585.9 592.1 591.3 590.1 592.7 595.4 604.7 605.5 595.9 598 600.9 597.9 598.6 593.1 588.2 588.6 590 583.5 574.2 570 559.5 550.7 544.8 543 533.8 528.1 537.4 549.7 565.3 578 582.6 584.3 583.2 585.7 602.8 607.7 614.3 620.7 630.5 631.9 620.2 610.7 582.9 515.8 446 392 366.9 353.5 343.5 334.9 330.4 325 320.4 318 312.1 312 312.7 310.5 311.2 320.4 331.3 344.2 357.4 369.3 373.1 380.4 391.7 407.6 418.2 426.2 433.8 443.6 451.7 443.2 444.1 440.6 429 407.2 407.6 404.3 396.8 396.5 401.5 407.3 408 402.1 398.5 395.2 392.1 382 365.6 356.2 340.8 327.1 323.1 322.6 315.7 307.4 299.3 294.1 292.9 287.2 278.7 266 273.9 275 279 282.7 272.8 261.5 255.5 248.3 244.8 238.8 239.7 240.4 246.6 258.8 270.9 280.9 284.7 285.8 282.8 275.8 274.7 268.4 274.4 278.6 269.8 264.4 259.3 257.9 250.5 245.7 238.5 240.8 247.2 253.3 257.1 264.2 273.3 285.3 278.1 272.5 271.1 269.9 265.8 255.1 245.8
471 473.2 479.9 493.2 495.1 501.3 526.3 530.2 533 538.2 553.8 558.3 561 558.5 554.1 551.4 547.1 543.7 551.7 553.4 556.5 556.8 553.9 546.1 531.4 526.4 522.2 519.1 515.6 512.9 514.2 514.6 523.9 533 540 540.4 540.2 530.3 521.8 518.7 515.2 513.2 517.3 521 523.4 532.2 552.4 562 576.2 590.9 606.8 615.8 615.6 616.5 616 621.3 624.7 626 622.4 610.9 607.7 606.3 607.3 604.9 608.7 607.3 610.5 624.6 620.2 605.9 599.2 581.6 575.8 573.6 570.8 562.6 554 567.9 582.7 595.2 609.7 616.3 623.6 626 630.6 643.8 655.4 660.1 663.2 667.6 669.2 655 635.1 601 554.6 477.3 414.9 387.7 371 357.7 346.2 336.5 330.9 324.9 319.2 315.5 310.4 304.3 302.2 303.5 314.7 325.5 334.8 341.6 350.5 358.6 364.3 374.7 381.8 393.3 397 400.1 405.7 412.9 405.4 404.2 408 397.8 377.4 380.2 380.3 373 364.6 366 374.2 376.5 377.1 369.4 359 353.2 349.9 341.1 329.8 316.5 303.9 302.7 305.1 300.1 294 287.8 281.9 275.5 269.1 263.5 252.2 258.7 256.2 267.2 269.2 258.6 247.8 243.2 237.5 229.1 225.2 225.6 228.1 240.4 255.1 263.5 271.9 273.8 275.1 273.7 270.4 269.5 262.8 276 272.6 260.9 255.2 259.2 254.9 245.8 240.3 234.8 232.1 237.7 247.1 246.6 253.3 260.1 268.9 269.8 264.7 261.7 258.2 252.6 244.9 235.9
477.3 478.6 484.3 496.5 497.1 507.4 533.1 542.9 550 558.2 564.9 568.6 569.4 572 576.6 580.3 573.8 567.2 566.9 569 566.4 561.8 555.1 546.2 539 534.6 532.3 525.7 521.3 520.5 516.8 518.6 524 530.6 535.4 538.7 537.1 534.6 526.4 518.4 514.8 513.2 513.2 521.4 535.1 536.2 546.8 555.9 571.1 588.9 613.7 622.9 627.6 633.2 645.8 661.6 662.5 659 635.3 631.4 626.4 627.6 622.8 619 631.3 636.3 649.9 666.4 661.9 647.5 632 613.9 606.5 598.1 590 586 582.5 591.8 604 615.7 623.4 645.8 660.9 673 685.2 705.7 724.8 731.1 723.6 722.5 719.9 688.8 650.4 606.3 566.1 499 440.4 409.3 387.4 368.9 356.1 346.2 336.5 329 323 316.6 309.3 303.7 298.7 298.4 309.5 319.9 325.8 332.7 338.5 345.2 352 359.4 363.8 374.1 377.6 377.5 378.9 382.4 382.1 380.1 379.5 369.6 351.7 356.6 355.8 349.5 341.6 336.2 340.4 350.4 352 347.4 336.8 324 323.3 311.7 300.2 295.8 288.2 287 291.6 289.1 284.2 274.2 267.5 257 249.4 247.1 235 247.4 245.1 252.1 255.5 246.4 235.7 231.4 225.5 222.6 210.8 216.5 223 235.7 248.4 257.2 259.6 263.1 266.6 264.8 264.3 258.7 256.2 261.4 258.9 253.1 251.8 247.7 241.3 242.9 237.4 229.5 224.1 226 233 235.7 242.8 251 257.5 261.2 255.1 249.9 247 240.3 233.9 227.6
480.3 482.7 486 494.2 508.6 525 542.9 547.8 561.1 568.6 572.1 576.6 586.9 588.7 592.5 593.1 590.2 592.2 597.8 589.1 583.6 568.1 557.5 550.5 547.1 542.7 539 535.2 536.8 532.6 525.5 524.2 527.8 530.2 534.3 539.5 539.1 535 530 520.6 516.6 516.2 527.1 527.4 534.1 536.1 542.8 550.4 565.9 587.5 611.7 634.5 648.5 666.3 677.7 686.7 692.4 688.1 659.2 648.5 646.7 640.9 640.1 645.6 656.4 679 692.9 702.9 707 699.5 690.2 667.3 631.7 612.3 608.6 603.8 597.7 611.2 621.8 627.4 657.7 684.1 712.9 737.9 757.5 787.2 792.1 788 780.6 777.3 732.9 688.4 651.3 603.8 565.8 505.8 454.5 430.7 403.1 382.3 366.8 353.3 342.8 334 327.7 319.5 310.8 302.9 296.5 290.1 305.7 314.2 320.2 323.9 327 331.9 338 342.4 348.9 354.6 358.7 358.6 359 362 359.9 357.4 353.4 345.8 329.1 326.9 328.2 329.3 321.4 317.9 316.5 322.8 338.1 332.8 321.9 308.4 295.9 288.8 281.2 274.7 267.2 267.4 269.7 272.2 264.6 255.7 251.5 241.6 234 229 223 226.3 229.9 235 238.2 229.4 225.1 222.9 212.2 208.3 201.7 214.5 214.2 227.1 236.7 240.1 244.8 248.5 253.4 257.8 250.6 247.6 246.8 250.4 250.1 243.9 243.9 237.6 233 234.2 229.7 222.2 217.6 212.9 218.6 229.4 237.2 242 249.3 251.4 245 239.1 236.5 230.9 225.5 219.4
484.1 485.8 492.4 511.2 534.4 547.2 550.4 557.7 564.4 576.2 584.8 601.5 606.9 604.2 606 611 615.4 617 610.6 600.5 581.4 565.9 561.7 559.6 557.3 552.8 546.4 545.7 548.8 549.9 545.6 538.8 537.6 538.6 540.3 544.3 548.7 544.1 539.2 529.1 528.2 532 530.1 527.8 531.3 532.7 539.1 544.5 566.8 588.3 616.7 647.2 684.7 703.3 711.9 716.9 712 696.7 676.4 671.3 665.1 659.5 664.9 670.7 678.2 701.5 731.8 746 749.6 754.3 738.5 741.2 665.2 636.1 622.8 618.7 613.5 616.7 627.2 668.7 703.3 738.1 759.9 791.8 798.3 816.8 818.2 815.9 807.8 769 712.5 673.1 637 595.6 556 506.3 466.7 447.7 424.5 398 376.8 363.4 350.9 341.9 333 323.3 311.9 303 295.1 290.3 299 304.4 309.5 314.4 317.1 319.3 324 327.6 332.9 337.2 338.2 338 340 343.6 342 333.3 326 315.6 303.2 305 302.4 306.9 307.7 313.1 306.4 297.8 307.4 305.2 298 286.7 276.2 266.6 259.8 254.1 249.8 250.6 252.4 254.5 247.3 242.3 236.4 226.1 220.5 214.8 209.9 210.2 216.9 221.5 225.4 218.6 214.4 210.7 201.3 197 196.1 201.8 205.3 218.3 224.4 224.3 232.5 232.4 241.3 245.1 239.6 235.1 237.2 243.5 239.4 234.6 233.8 226.2 219.8 217.1 219.4 214.8 205.4 203.6 207.6 223.9 229.3 231.9 237.2 242.7 233.7 227 224.8 220.1 212.1 207.4
492.5 505.7 516.8 531.5 549.3 556.4 556.2 563.1 572.1 578.3 592.2 602.8 610.2 611.8 617.3 629.6 639.9 638.6 621.8 599.1 583.3 572.3 571.1 572.6 569.8 561.5 555.5 562.5 566.9 570.6 566.5 563.5 562.4 562.5 556.8 553.1 556.1 556.8 547.7 538.5 531.9 536.3 532.1 527.8 527.8 532.2 539.9 545.4 568.8 595 623.4 666.5 710.2 738.8 755.2 756.2 739.9 705.4 678.5 671.5 675 677.1 677.3 684.4 702.8 741.4 772 787.7 795.5 798 788.5 798.8 730.9 656.8 635 623.3 618.1 625.9 651.3 705.6 759.3 795.2 804.9 814.4 832.9 846.7 852.7 849.9 814 745.8 697.3 658.5 622.9 586.2 545.9 503.3 470.4 453.6 432.8 414.6 394.4 375.5 360.5 350.7 338 324.4 313.5 303.6 293.4 287.9 290.9 296.3 301.7 305.1 306.7 306.8 310.4 313.1 315.7 320 322.6 319.8 322.2 324.8 321.7 311.1 301.8 290.3 285.5 286.7 288.5 293.5 291.3 300.6 290.8 280.2 279.3 279.5 276.4 268 262.1 256.1 243.6 235.1 236.1 241.8 241.5 239.7 234.4 229.7 223.4 215.9 208.1 201.8 196.8 198.9 206.2 209.7 216.2 210.5 202.7 194.1 191.7 190.2 189.9 191.4 195 208.7 210.2 211 214.5 216.5 221.6 229.6 229.3 226.7 229.4 232.7 227.6 223.1 220.8 214.9 207.2 208 208.3 203.7 192.3 194.7 197.4 210.3 215.8 221.5 227.6 233.1 223.4 218 214.8 208.3 202.9 196.2
517.5 521.8 531.9 542.1 550.4 556.9 559.3 565.3 571.4 581.7 595.6 607.3 613.6 619.1 630.4 646.8 651 649.5 631.2 615 600.6 593.9 582.9 588.5 589.8 588.3 588.3 593.3 597.5 601.5 605.3 605 595 593.1 584.7 575.6 575.6 570.5 558.2 553.6 533.7 530.2 528.1 528.1 528.3 534.8 536.9 549.1 573.4 608.8 629.7 680.6 730.4 765.2 791.7 794.1 755.4 727.8 690.5 684.8 686.6 685.1 695.5 708.7 749.5 799.3 802.6 834.3 841 841 835 838.8 778.1 700.1 659 637.3 631.6 644 676.7 732.1 781.6 817.3 839.4 848.3 865.3 882.5 870.7 841.3 810 742.6 691.7 650 613.6 579 537.3 501.1 472.1 452.9 434.8 412.1 394.4 376.5 361.5 348.1 335.2 322.7 312.4 301.5 293.3 289.4 285.1 288.8 293.5 295.2 293.9 296.4 296.2 296.8 298 301.1 302 300.1 303.9 302.7 300.9 288.2 282.9 278.6 272.4 271.7 277.9 278.1 281.6 286.8 278.1 268.9 262.7 262.8 257.5 256.5 253.6 242 230.8 223.3 224 226 229.6 224.5 219.4 213.7 207.6 204.4 197.1 189.8 185.4 192 197.3 209.8 213 200.2 186.9 182.6 184.8 181.5 178.5 184.7 190.2 197.3 196.7 198.8 201.7 203.6 207.9 215.4 218.9 217.8 220.8 217.6 213.5 210.2 211.1 205.4 200.5 199.5 196.4 190.1 182.3 185 186.2 189.9 200 210.3 210.8 218.8 213.4 207.6 197.8 196.4 191.8 179.9
541.1 549.8 550.6 553.9 553.5 556.8 558.4 566.7 574.3 584 600.9 613 621 636.9 644 652.1 660.8 659.5 657.3 646.2 628.7 616.5 606.9 605.3 619 643.9 653 645.1 646 657.6 668.6 691.9 695 672.2 645.2 611.6 602.1 599.2 578 567.1 544.4 532.4 528.1 529.6 531.1 535.6 538.1 552 582.8 613.6 637.7 701.3 750.5 790.9 826.1 823.5 780.2 746.9 714.4 705.8 704.5 700.6 720.6 751.5 805.3 841.6 852.4 870.3 897.4 901.7 877 867.1 824.1 753.2 686.2 660.2 655.7 674.8 703.1 768.9 820.5 841.5 860.9 878 899.8 885.9 845.8 803.1 779.3 723.7 681.2 643.3 605.7 569.7 530.9 495.7 468.1 449.1 431.9 408.5 389.7 370.4 355.2 341.4 329.9 320.8 312 301.2 293.7 287.4 285.6 280.5 284.3 285.5 283 286.7 283.9 282.9 282.2 284.4 283.2 283.3 282.8 282.3 277.9 271.2 268.7 268.6 260.5 259.4 267.1 266.6 267.9 266.8 260 256.8 249.9 249.1 244.9 244.4 241.6 231.5 219.6 211.8 210.6 206 214.6 209.7 205 198.4 194.4 187.4 184.2 180.9 174 178.4 189.9 204.7 204 191.5 176.1 169.3 171.6 171 170.8 174.5 176.7 185.9 186.8 186.3 192.6 192.1 191.5 197.8 203 206.5 209.2 206.1 201.4 196 200.1 194 191.3 185.2 182 177.8 170.9 176.1 176.4 176.5 187.4 189.4 188.9 196.5 201.7 191.5 182.1 182.7 178.9 170.3
582.7 584.3 589.8 596.9 593.9 575 571.5 577.5 582.4 592.4 607.8 616.7 628.4 641.7 650.1 663.4 674.2 682.4 691.2 686.8 667.8 646.6 640.4 653.7 655.9 679.6 711 709.3 739.5 729.8 735.3 771.1 771.1 726.8 707.9 665.8 645.4 634.5 598.9 578.8 559.5 538.4 528.1 528.1 528.1 531.7 536.4 563.5 585.1 614 656 719.5 767.9 806 840.9 842.2 804.4 777.4 746 735.9 735.6 741.5 761.3 794.9 863.2 896.4 898.2 900.7 927.1 936.3 922.8 889.3 852.8 804.1 735.7 690.4 680.4 699.7 748.2 811.7 846.8 866.2 882.1 898.4 909.8 872 830 792 773.1 695.7 655 630.8 596.3 562.6 529.8 489.8 461.1 441.8 423.9 404.3 383.6 368.6 349.2 334.8 324.7 317.9 309.1 300.8 294.8 287.9 281.3 276.7 273.3 274.9 274.4 272.7 270.5 270.1 268 268.7 267.7 270.4 264 264 260.6 258.5 264.3 260.2 250.1 249.7 252.1 254.7 252.9 252.5 251.2 244.3 239.2 240.6 238.6 231.2 223.2 215.2 208.5 203.9 202.6 194.1 196.6 194.4 190.7 183.9 180.9 177.3 174 168.7 156.1 165 183.5 188.8 187.8 174.7 161.3 165 171.9 164.6 165.8 164.5 165.7 172.4 174.7 176.7 183.7 184.6 181.3 183.4 185.9 194 200.3 196.6 187.5 184.8 190 180.9 178.3 174.3 171.8 163.7 158.9 165.3 163.8 167.4 177.9 180.9 177.8 177.1 187.7 180.8 171.4 168.4 165.3 158.5
651.4 646.9 647.6 647 638.3 623.7 605.5 602.5 607.5 611.1 616.6 620.3 632.1 641.4 654.2 670.6 690.9 709.4 724.9 733.8 717.8 708.5 700.6 699.8 689.7 715.9 754.6 773.3 795.8 809.4 804.4 796.6 812.6 784.7 786 734.6 733.4 659.7 615.4 591.1 569.8 545.3 530 528.1 528.1 528.1 537.1 565.5 589.7 621.3 668.7 727.1 777 816.4 855.9 897.1 849 833.1 782.5 770.4 782.6 799.6 815 820.8 909.9 948.4 938.2 937.8 947.1 948 943.9 910.9 876.9 853.8 803.2 762.6 747.1 737.1 783.6 832 855.4 883.5 879 880.1 864.5 853 819.9 773.2 718.6 670.8 633.3 604.8 580.2 550.6 516.5 480.5 453.7 434.5 416.3 396.5 380.3 362.5 346.3 330.8 320.9 314.1 306.7 299 294.6 288.8 279.5 273.8 262.5 264.4 264.7 262.2 260 258.9 255.1 254 255.7 251.8 252 247.6 246.1 253.6 256.3 246.9 241.1 239.2 238.2 244.7 248.4 247.8 241.4 233.5 227 224.2 226.1 215.8 205.6 200.8 196.4 194 185.2 182 179.8 179.8 176.2 171.3 166.9 164.4 157.7 157.5 146.1 152.7 163.1 164.9 164.3 158.4 157.9 164.2 160.4 160.9 160.1 154.6 156.4 159.3 163.7 168.3 173.3 176.6 171 172.7 171.5 177.9 186.2 184.4 175.4 174.1 175.7 167.6 164.4 165.4 161.2 155.4 142.4 151.6 153 154.6 160.5 161.5 159 163.9 173.2 169.6 159.5 153.7 151.8 147.2
697.8 696.8 698.3 696.4 680.9 667.1 651.5 635.7 628.6 624.5 626 631.4 638.9 645.3 662.8 683.1 711.5 734.4 755.4 772.8 778.2 744.9 728.2 714.5 718.7 761.7 796.9 816.7 835.3 864.6 857.2 850.3 856.9 840.6 841.1 795.9 757.8 672.8 635.2 603.1 578 552 539.1 534.6 528.1 528.1 545.1 572.5 602.8 635.6 671.6 726.1 773 816.8 865.2 910 910.9 919.6 864.9 847.2 865.9 884.9 895.1 846 931.6 968.3 971.1 950.3 917.9 910.5 911.4 897 862 835.1 848.8 828.7 803.6 801.1 812.7 852.4 882 862.6 841.4 848.4 829.4 815.1 786.4 745.6 689.6 644.9 607.3 577.3 555.9 527.8 497.6 467.5 448.2 430.1 410.3 390.4 372.4 355 340.1 327 316 308.4 302.8 297.5 291.7 286.1 278.8 268.7 259.6 251.3 256.7 253.4 250.1 246.9 245.5 245.5 244.8 239.4 240.7 236.8 237.8 246.1 242.1 230.2 233 232 232.4 245.4 252.9 247 240 227.8 218.5 212.1 208.1 198.6 188.1 184.9 185.2 178.1 169.7 166.3 163.9 164.5 158.3 155.3 154.2 153.2 145.5 144.6 137.3 140.3 144.7 150.9 151.1 149 152.1 154.4 149.3 155.4 152.6 148.4 150.6 150.7 151.8 161.6 165.7 164.2 161 162.3 156.9 162.1 171 169.3 162.5 160.6 157.7 152.8 153.8 156.1 153.5 147.4 138.3 147.4 141.2 139.7 141.8 140.8 143.3 150.8 159.2 156.6 144.7 140.9 138.2 134.3
709.3 709.6 712.5 718.8 719.6 707.6 694.6 681.4 668.1 658 653.1 654.4 656.2 668.5 674.7 691.7 723.7 755 781.1 804.4 815.1 771.3 744 738 751.9 809.2 836.5 862.7 873.4 896.7 904.6 880.1 845.8 815.7 801.1 778.2 733.5 672.7 637.5 608.3 587.7 561.4 542.8 536.8 532 533.8 552 579.8 610.1 643.2 679.5 718.3 761.5 818.3 866.2 918.9 958.9 985.4 978.5 957.2 947.1 938.3 924.9 910.3 940.9 972.8 946.1 921.3 903.8 868.9 874.1 864.6 847 790.1 834.3 849.6 839.6 842.7 833 846.5 857 842.1 808.3 818 807 768.7 730.6 692.3 643.7 609.8 579.2 555 533.5 513.4 487.4 461.5 441.1 422.6 404.1 382.7 366.3 349.1 336 323 310.8 304.1 300.9 295.9 288.4 281.7 276.7 267.2 257.6 249.8 245.3 243.4 241.9 238.9 236.4 236.9 233.8 229.4 228.2 227.3 226.9 230.1 224.3 220.6 227.9 227.7 236 248.1 247.2 241.5 234.6 223.5 211.1 202.4 191.3 182.9 175.1 176.6 172.4 166.7 160.2 152.8 150.8 151.2 145.8 147.1 145.4 143.9 137.4 135.4 130.2 130.2 135.1 140.7 142.5 144.1 146.6 146.9 150 145.8 143.5 141 140.9 140 146.8 154.3 157.7 157.9 153.1 148.4 150.1 152.3 154.8 151.2 147.1 145.6 146.8 145.1 143.1 146.9 144.5 136.3 130.3 137.3 129.3 128.7 128.5 127.5 130.1 135.8 142 143 133.8 132.3 129.5 124
711.9 714.4 720.8 724.9 731.2 735 737.4 731.5 717.6 704.2 686 681.6 686.1 683 685.8 706.3 738.4 772.1 802.8 830.4 849.2 799 766.8 763.8 778.7 830.5 867.7 900.3 921.7 915.8 870.7 834.7 785.6 750.2 724.5 713.3 695.6 662 635.1 615.8 597.7 580.8 561.6 542.2 537.5 547.4 566.3 589.7 616.6 647.3 682.5 725.1 777.7 826.4 879.6 927.2 969.6 1007.2 1022.3 998.8 983.5 966.2 952.4 942.6 932.5 940.7 927.9 897.1 875.4 828.9 828.1 822.4 806.3 745.5 791.5 796.9 793.5 807.3 806.6 816.8 819.2 801.7 765.1 756.8 746.1 728.2 677.7 643 609.5 583.3 558.6 530.7 511.1 493.5 474.3 449.8 429.7 412.3 394.1 375 358 342.9 327.1 316.5 304.9 300.3 302.5 296.1 287.3 279.1 271 262 256.2 248.6 237.4 235.2 233.8 231.3 229 228.2 225.6 220.4 218.9 218.6 217.3 217.5 216.5 227.2 225.3 236.2 259.1 252.2 242.8 233.2 226.2 217 206.4 195.8 184.8 173.5 163.8 162.4 159.1 161.2 153.3 143.8 141.9 141 139.4 138.3 135.2 132 127.6 123.9 123.9 122.9 128.4 131.8 137.1 139.5 140.8 141.8 146.4 139.3 137.8 136.1 134.4 136.3 145 145.8 148.8 151.5 143.8 140.3 143 144.5 142.3 139.8 135.9 137 139.8 137.2 134.7 136.6 132.8 123.5 122.5 127.2 122.7 119.9 119.3 117.8 125.4 128.6 133 132.8 126.3 124.9 120 113.6
715.9 721.5 727.6 733.5 739.1 745.6 754.4 762.4 757.8 727.8 702.6 695.5 693.9 692 706.2 723.6 761.1 794.8 825.1 855.5 860.2 814.8 792.6 792.7 804.2 844.5 896.3 930.9 936.2 875.1 821.2 787.8 737.2 709.5 694.9 684.5 678.2 651.3 635.6 618.8 612.9 588.2 585.9 563.8 548.5 559.5 575.6 599.9 626.7 653.3 685.6 727.3 784.3 828.2 877.5 937.2 974.8 1013.9 1052.6 1021.3 986.1 956.6 936.1 911 895.6 908.4 897.8 853 830.2 799.7 772.8 766.1 713.5 695.5 736.7 733.2 744.3 761.9 767.2 774.9 777.5 747.7 710 703.1 689.1 668.9 639.3 614.1 589.4 562.9 538.4 504.2 486.5 474.8 456 437.5 421.3 399.6 383.5 364.5 349.4 335.3 321.7 309.4 298.1 302 302.6 293 285 275.6 269.9 257.5 248.5 242.8 235.7 226.7 227.2 223.7 220.8 214.8 214.8 212.7 212.5 212.5 211.9 211.8 223.9 227.3 226 252.2 254.7 246.2 237.4 226.6 218.8 209 199.5 189.2 180 170.7 162.6 153.5 150.2 148.9 143.5 136.9 136.4 137.1 129.3 125.2 123.3 124.6 120.9 117.8 117.9 117.3 124.9 131.8 136 131.1 128.4 136.3 138.8 132.1 132.2 129.3 130.1 128.5 136.2 137.6 140.1 141.3 136.6 132.2 134.8 138.3 133.1 129.2 129.9 130 130.5 129.1 127.8 129.3 124.5 113.9 114.4 117.1 116.1 112.7 110.4 109.1 114.3 118.3 120.6 121.3 115 114.6 112.1 107.4
718.8 725.4 731.9 738.4 745.3 752.1 760.9 769.7 777.3 753.1 726.1 712.6 704.7 710.3 729.3 753.2 787.8 820.7 852.8 880.8 863.8 832.4 819.7 823.6 834.2 865.2 923.4 939.6 890 830.3 786.2 750.5 720.8 695.6 676.4 675.2 673.6 650.5 633.2 623.8 622.2 615.4 608.1 597 569.2 574.4 591.4 610.8 636.6 665.7 694.8 729.8 778 816.6 874.9 928.8 969 1006.3 1046.1 1005.8 970.3 938.1 916.9 888.9 872.2 840.5 828.2 814.3 778 755.6 703 680.5 661.7 653.7 671.3 686.6 697.4 717.3 720.7 741.1 738.2 700.8 674.6 659.9 643.6 622.5 606.8 588.3 570.6 549 516.3 486.4 474.4 460 446.4 429.5 408.2 390.6 372.3 354.2 342.8 330.2 315.7 301.5 289.7 301.3 300.3 291.1 281.7 271.4 264.6 255 246.8 240.4 234.5 224.7 213.9 213.9 207 203.2 204.7 205.6 206.5 209.5 210.4 216.2 222.4 222 231.5 244.3 240.8 237.5 231.6 216.3 207.3 201.9 192.6 184.6 177.9 167.1 156.1 149.4 145.5 139.7 134.8 131.6 134.5 133 124.3 113.8 111.8 113 115.9 113.5 113.1 112.9 118.6 120.5 122.8 122.1 130.2 130.9 127.7 123.2 123.6 121.9 122.3 125 130 123.7 132.9 134.6 128.2 121.7 124 125.9 124.9 124.2 124.4 125.3 124.3 121.8 121 120.9 117.3 107 108.3 108.8 108.3 106.4 104 103.8 107.8 110.8 113.7 114.4 112.1 109.6 107.7 105.1
720.8 728.6 734.6 741.6 748.7 756.2 765 774.4 783.1 767.5 752.4 736.3 732.4 742.4 765.4 785.5 817.7 856.3 886.1 907.2 889.9 860.5 851.3 859.3 871.8 913.9 910.1 880.3 842.6 798.9 770.6 745 719.5 692.9 676 671.3 670.1 654.8 636.9 629.2 631.7 635.5 617.2 607.7 588.7 598.2 615.4 628.8 647.5 679.7 709.3 737.9 771.2 811 864 916 961.8 998.5 1019.6 994.5 957.8 923.9 905.4 881.3 853.7 813.7 793.9 773.1 743.9 705.6 676.4 645.3 626.6 620.7 639.1 649.8 661.3 674.1 677.6 684.7 678.6 660.8 642.8 626.8 611.7 593.5 578.8 561.6 542.8 523.3 489.7 477.4 468.8 452.6 439.5 418.2 398.8 383 364.9 346.3 329.8 320.9 308.3 296 286 298.1 298.7 288.4 277.9 268.8 261.2 253.7 247.3 241.5 235.7 221.3 208.5 199.7 197.4 196.7 199.6 200.3 203.8 205.8 213 217.7 216 217.7 227.6 233.5 230.1 227.3 222.8 207.6 196.8 193.6 186 180.8 171.6 160.5 149.4 146.5 139.9 132.5 129.7 127.6 127.5 126.9 119.9 112.8 106.6 109.3 111.7 110.3 109.3 108.9 108.4 110.7 111.4 119.6 122.8 122.4 117.6 113.9 113 115.6 117.3 124 122.9 117.3 120.7 120.5 117.4 115.1 115.4 116.4 119.5 121.9 118.7 120.6 119 114.5 112.2 108.7 107.6 100.3 103.4 101.7 104 101.3 98.8 100 104 107.4 109 109.8 109.2 108.4 106.3 104
723.9 731.2 736.8 743.7 750.8 759.1 768.3 778.2 787.7 792.4 781.2 776.3 779 785.7 801.7 825.3 848.2 885.8 914.9 932.5 919.5 895.2 895.2 905.9 930.4 922.7 870 838.3 811.5 787.2 779 763.3 737.1 703.8 679.4 675.1 671.3 650.8 638.1 643 655.6 659.1 651.4 613.9 606 615.8 625 634 655.4 688.3 716.5 747.2 777.2 815.5 870.6 899.2 954.1 976.1 993.2 988 956.1 930 910 877.4 835 788.8 761.3 747.1 733 697.9 654.6 615.4 596.1 588.1 597.3 615.3 629.9 638.1 644 645.1 636.3 624.7 612.9 594.9 585.2 574.9 552.4 529.5 505.1 485.5 466 461.9 459.9 443 426.7 407 389.3 373.7 355.8 336.4 321.2 309.9 298.8 288.2 283.4 292.4 295.7 284.8 276.5 268.9 263.6 255.9 248.3 240.4 230.6 215.9 204.6 190.9 187.8 191.2 195.8 197.4 201.9 204.3 216.2 214.1 202.6 207.3 217 223.2 218.7 215.1 208.7 200.1 194 189.9 181.1 174.1 164.5 155.8 146.4 140.6 131.8 130.4 129.4 124.5 124.7 122.6 117.5 110.5 105.5 106.7 108.1 107.3 106.6 106.5 105.6 108.1 110.5 113.7 115.4 115 111.6 109.3 108.2 109.4 115.2 118.5 117.5 115.4 113.2 110.5 110.8 111.5 112.7 115.3 117.7 113.9 110.1 111.2 112.2 107.8 106.3 104.4 100.8 98.8 99 98.4 100.8 97.4 99.2 100.7 100.5 102.7 105.6 106.9 107.2 107.9 107.3 104
725.4 732.4 737.5 744.4 753.2 762.9 772.9 782.9 791.7 801.6 813 822.4 826.7 834.1 851 866.6 874.7 908.6 928 944.1 946.4 937.7 925.6 964.1 987.8 920.4 864.6 834.3 810.7 797.2 793 785 770.9 740.1 704 687.9 674.8 661.3 650.9 654.4 669 686.4 673.2 627.1 617.4 614.9 626.7 642 667.6 697.6 729.4 761 790.5 837 901.1 952.2 939.9 942 957.5 969.4 970.1 956.4 933.7 896.6 839.5 782.3 750.6 739.5 734.9 702 653.8 599.8 573.9 556.9 569.1 582.1 593.8 604.6 616.9 616.1 601.2 584.6 580.5 559.8 544.4 531 518.5 501 475 456.8 449.1 448.5 445.2 438.6 422.3 401.2 384.3 362.5 342.2 327.9 314.8 303.4 289.9 282.2 281.4 287.9 285.8 279.7 274.8 268.8 264.4 261.4 251.6 238.2 224.3 215.2 208.2 194.1 181.5 185.9 191.5 196 198.9 203.5 204.4 197.4 194.7 198.7 209.5 213.3 209.6 208.4 201.5 193.2 185.6 184.8 176.2 167.7 157.2 149.3 144 140.2 131.9 130.1 129.8 122.6 112.3 118.9 112.6 105.7 104.1 105.5 106.6 106.5 103.9 103.8 103.6 104.1 105.4 106.9 111.9 111.8 107.3 103.3 104 105 110.6 114.1 115.7 116.8 113 112.2 110.8 111 111.7 110.4 110 106.7 103.6 104.5 104.4 103.9 101.1 99.8 96.5 96.2 95.7 90.1 90.1 90.1 95 96.2 100.5 100.4 101.8 103.1 104.8 108.3 112.1 107
725.6 732.2 738 746.1 755.3 765.7 778.2 789.1 797.6 806.5 818.7 831.2 842.6 853.6 865.4 878 893.9 912.8 929.7 946.6 965.1 974.2 963.1 996.2 991.3 924 880.2 852.3 829.9 819.9 821.2 823.6 824.6 783.5 738.4 717.6 693.4 677.3 670.5 675.5 699.9 710 693.3 649.2 637 628.1 633.5 649.7 673.5 706.7 744.7 779.9 812.9 859.6 930.9 924.2 905.8 904.6 919.4 935 945.3 961.5 957.9 935.7 868.7 796.3 763.3 743.1 737 701.8 640.2 590.1 559.1 530.1 520.7 531.1 553.1 559.4 580 572.7 559.9 548.6 537.4 525.9 520.3 505.5 492.7 478.2 450.7 439.3 427.6 425.7 424.9 424.8 412 391.7 369.6 349.9 333.9 318.8 307.1 295 283.5 276.5 281.5 284.9 282.8 281.3 274.9 270.1 274.3 267.2 252.2 239.6 228.5 214 203.3 191.6 179.9 176.7 184.5 186.3 190.1 191.7 193.6 193 192.6 191.3 199.1 202.6 203.6 203.1 191.8 182.6 175.3 174.1 168.1 161.9 151.2 142.1 139.6 134.9 130.9 135.1 127.6 118.4 110.8 115.7 103.9 102.1 102.8 104.2 108.8 105.6 100.1 101.7 100.2 101.1 102 104.8 106 107.2 102.9 101.1 102 103.7 103 108.8 113.5 115.6 113.2 114.3 110.8 109.6 111.9 104.8 104.8 101.2 100.6 103 103.1 99.2 92 90.1 90.1 93.7 91.9 90.1 90.1 90.1 90.1 90.1 92.5 98.5 99.9 100.5 103.8 106.8 107.6 104.6
723.6 729.9 736.3 746.4 756.4 768.3 782.3 784.2 799.2 813 821.9 833.3 844.2 854.7 866.2 878.5 894.2 909.6 926 944.7 970.3 993.4 1004.4 1014.7 1003.7 950.7 905.1 877.8 859.2 850.1 855.9 896.9 911.3 861.8 826.1 792.8 762.5 726.4 703.4 706.2 728.7 765 734.9 680.5 661 658.2 663.9 678.3 698.4 744.2 771 826.3 853 902.8 914.9 894.5 871.8 866.6 881 895.4 912.6 933.2 928.6 885.1 848.5 808.1 774.1 748.7 717.4 692.1 641.8 586.2 542.9 506.5 500.2 490.7 501.4 526.4 550.1 539.2 526.5 518.8 512.6 505.5 498.6 485 469.8 448.1 427.3 426 416.1 401.6 400.1 406.3 394.5 375.5 358.1 340.6 326.9 312.3 298.1 285.6 275.5 271.5 283.2 286.5 287.6 284.2 278.5 274.1 275.1 264.9 251.9 240 226.8 211.6 201.2 192.9 180.9 168.9 173.9 178.7 182.4 183.4 189.6 191.9 191 185.1 186.4 186.6 189.2 185.1 176.6 172.5 163.4 157.6 150.5 144.6 143 135.7 133.6 130.2 129.8 128.5 117.4 110.2 108.2 110.8 101.3 101.9 103.1 104.2 106.7 101.4 100 99.8 99.9 99.4 100.9 99.4 100.7 100.2 98.2 98.6 99.1 98.5 97.4 100.5 109.2 113.9 111.5 109 104.1 107.2 106.3 103.7 101.8 97.5 100.1 101.5 93.8 90.1 90.1 90.1 90.1 90.1 95.4 90.1 90.1 90.1 90.1 90.1 90.1 93.5 100.4 97.3 97.7 102.2 101 104.8
718.5 725.5 733 744.1 753.9 766.6 768 751.5 770.9 803.4 811.4 828.9 841.5 851.6 863.7 876.5 890.1 898.6 912.7 935.1 958.9 976.1 976.3 982.7 991.3 972.8 942.1 912.2 892.2 884.5 896.8 935.6 940.3 901.2 890.6 856.4 828.1 782.6 768.6 740.7 763.8 836.1 779.3 708.2 695.3 693.7 709.3 736.7 750.1 777.4 842.5 871 923.7 925.5 889.6 861.7 842.3 826.5 841.7 863.3 873.9 843.5 825.2 805.1 781.4 767.6 744.1 724.9 695.5 657 627.5 585.9 531 491.9 480.3 474.3 472.9 483.7 497.4 492.1 491.3 490.9 485.7 484.3 477.7 462.3 444.4 426.4 413.4 408.3 404.6 389.4 375.3 378.8 373.1 357.6 333.9 316.6 308.2 300.9 289.2 275.1 265.8 275 294.6 289.6 290.2 286.3 280.4 281.3 272.7 267.1 254.6 237.2 225.1 212.2 199 189.9 177.1 164.5 161.6 167.2 174.2 182.6 190.3 192.8 185.5 177.4 175 174.2 175.7 170.2 163 160.2 158.1 151.9 150.7 145.8 139.6 135.1 131.6 132.5 125.9 117.7 113.5 104.8 106.4 104 99.3 101.5 104.6 103.1 100.2 99.1 98.7 98.3 98.8 98.4 96.9 93.5 93.4 96.5 97 97.4 97.4 97.1 96.6 95.8 99.6 101.2 101.5 98.6 98.8 103.3 103.7 101.8 96.6 92.9 94 93 90.1 90.1 90.1 93.1 90.1 90.1 90.1 90.1 90.1 90.1 90.1 90.1 90.1 90.1 90.1 91.8 90.1 90.1 96.8 102.2
706.5 716.9 722.3 736.2 746.7 750.6 732.9 716.6 731.6 765.4 783 807.6 820.2 840.4 854.9 868.8 870.3 868.5 895.4 921.5 943.6 954.1 941.7 943 960.6 963.8 982.9 961.2 931.3 929.1 945.6 958.7 953.6 947 934.9 902.3 872.7 851.2 829.3 782.6 806.1 874.3 796.5 744.2 743.7 748 786.1 813.4 818.6 832.4 879.4 897.8 894.3 888.4 861.3 818.4 806.1 785 809.1 818.6 793.1 775.4 766.6 751.3 733.9 716.4 699.2 667 650.3 630.9 600.6 568.5 530.2 479.3 465.3 459.6 450.8 460.1 466.6 459.5 461.3 464 454.2 446.4 438.3 429.8 426.8 416.4 401.7 385.5 380.1 370.4 362.6 346.5 344.9 331.3 314.5 297.4 286.3 280.9 272.9 264.7 262.9 291.7 289.2 289.4 289.5 292.5 285.5 281.2 276.6 268.2 247.2 232 221 209.6 196.2 184.4 170.2 159.9 152.6 155.9 168.7 175.4 189.3 180 169.5 166.7 163.8 160.7 159.5 158.2 158.2 155.7 154 153.4 151.5 147.6 139.3 135.7 126.2 127.8 118.5 113.2 107.1 101.6 101.9 101.3 99.6 100 103.6 101.9 98.8 97.5 96.7 97 97.3 97.1 94.8 93.4 93.4 96.8 95.1 95.8 93.9 97 95.7 95.3 96.5 95.8 95.5 95.5 98.2 100.9 100 94.6 90.1 90.1 90.1 95.5 99.3 98.5 100 99.6 90.1 90.1 90.1 90.1 90.1 90.1 90.1 90.1 90.1 90.1 90.1 90.1 90.1 90.1 90.1 96.7
690.6 701.2 709.5 722.4 731.5 722.3 698.2 680.5 700.8 729.9 749.8 758.1 800.1 813.9 837.4 849.7 839.7 853.3 883.7 910.3 926.3 934.4 912 907.6 923.3 930.4 954.4 966.9 957.4 946.2 941.9 931.5 926 926 926.7 922.7 917.5 911.6 890.1 835.2 856.9 890 838.5 790 823.8 827.1 886.5 895.7 900.9 901.9 855.7 853.5 895.5 830.8 821.4 790.7 762.2 750.2 771.6 765 742.8 728.4 716.9 705.9 690.6 667.4 648.4 629.3 620 599.1 569.5 542.1 517.2 476.1 447.5 430.7 427.9 431.5 446.5 443.3 438 442.7 439.1 421.9 416.7 407.2 399.1 394.6 388 373.5 356.3 346.7 341.3 329.4 310.9 309.3 296.7 280.7 268.3 259.5 252.2 251.7 271 286.8 284.2 282.3 283.7 285.9 282.4 273.1 276.3 259.5 242.7 229.1 215.5 204.2 190.8 179.2 167 153.6 140.1 150.5 159.3 164.1 182.8 167.3 153.7 156.4 152.2 155 155.6 151.9 147.9 149.5 149.2 144.3 142 140.6 133.2 130.7 119.8 116.6 111 105.1 100.1 99.7 100.3 100.5 98.6 99.8 100.5 101 99.1 95.5 93.4 93.4 95.5 96.2 93.4 93.4 96.3 98.6 98.8 96.9 93.4 101.4 95.4 94.8 94.4 94.2 94.4 93.9 94.3 94.1 92.3 94 94.5 94.6 100.2 107.9 108 107.4 102.8 100 90.1 90.1 90.1 90.1 90.1 90.1 90.1 90.1 90.1 90.1 90.1 90.1 90.1 90.1 90.1 90.7
680.4 693.5 702.6 711.4 714.4 691.2 669.6 645.3 658.2 690.1 695.1 750.1 761.9 785.7 815.8 817.4 815.8 846.8 877.9 901.4 911.9 911.1 889.3 872.9 881 904.6 932.3 936.3 934.1 910.5 912.6 899.3 893.1 898.1 902.8 898.8 894.7 890.5 888.2 883.9 886.6 888.2 862 834.1 879.8 877 920.1 886.7 881.5 855 825.2 800.8 819.7 789.6 780.2 749.9 714.8 714.3 724.3 714.7 700.8 685.5 671.9 655.8 639.7 624.3 610.2 591.1 577.3 563.5 542.6 509.4 491.7 468 433.7 421.4 409.9 409.1 420.7 422.6 416.7 429.5 422.6 401.4 386.9 382.7 382.3 367.6 355 348.9 338.5 326 314.5 301 285.5 273.8 264.9 258.8 252.3 241 231.8 245.3 270.2 277.4 277.8 273.4 276.3 277 274.2 269 270.8 252.7 237.3 223.8 211.1 196.9 186.2 173.2 160.4 149.2 133 144.7 145.3 151.8 173.3 157.6 144.6 150.5 148.2 152.8 146.4 143.3 139.7 140.1 141.5 143.5 135.8 132.8 130.3 123.2 112 106.1 99.2 98.4 98.5 98.6 99.8 101.2 99.8 99.8 100.5 101.4 98 93.4 93.4 93.4 93.4 93.4 93.4 93.4 99.9 101.9 102.4 97 92.9 95 95.5 94.2 93.9 94 93.8 94.2 94.5 93.9 95.8 102.2 99.2 100.3 110.3 113.5 112.4 108.7 111.3 104.3 97.1 95.7 92.3 90.1 90.1 90.1 90.1 90.1 90.1 90.1 90.1 90.1 90.1 90.1 90.1 90.1
690.8 700.6 704.3 701.1 683.3 659.4 638.4 611.2 617.1 636.9 686 729.5 727.5 763.4 782.8 780.7 804.7 843.5 876.8 892.6 892.5 882.7 860.9 838.8 848.2 880.7 892.4 895.3 899.7 873.8 875.2 866.6 858.9 866.5 872.7 868.9 864.2 861.6 860.6 862.4 867.8 874.8 884.8 872 880.3 867.9 889.5 844.4 858.8 805.7 787.3 769.2 772.3 752.6 727.9 692.5 672.4 677.2 685.1 670.7 654.9 645.9 633.1 618.4 603.4 590 574.4 558.6 542.8 525.4 502.8 485.4 465.6 443.7 422.3 400.9 392.9 394.4 414.2 418.9 405.1 399.9 388.3 375.6 361.3 361.9 358.9 356.8 331 319.8 307.9 301.3 293 286.3 269.9 255.8 246.1 239.9 233.3 222.8 227.3 237.3 263.7 269.5 268.1 267.1 270 272.9 269.6 267 261.1 248.4 229.6 221.1 207.1 192.8 178.3 164.1 152.4 141.8 130.7 124.8 135.7 136.8 139.6 142.4 138.4 143.8 142.3 141.2 135.9 131.7 129.9 134.3 135.4 136.7 130.8 122.1 121.3 115 109.4 99.2 96.9 96.2 97.3 97.3 97.3 97.6 98.1 99.5 102 101 99.9 94.1 93.4 93.4 93.4 93.4 93.4 93.4 96.1 98 101.1 99.2 94.7 94.5 93.9 94.2 94.3 96.9 98.2 99.1 98.4 101.8 108.4 110.5 107.3 106.9 120.3 117.5 112.2 111.5 113.7 109.1 106.2 103 105.4 104.5 98 97.8 100.6 98.5 90.1 90.1 90.1 90.1 90.1 90.1 90.1 90.1
688.5 691.9 687.7 671.9 651 624 601 577.3 588.7 612.2 643.1 685.2 714.6 741.6 742.6 765.6 805.7 848.2 873.6 879.1 861.7 851.9 833.1 809.3 816 841.1 847.3 848.4 860.6 843.4 838.5 831.3 822.1 836 839.9 839.2 834.8 834.6 838.3 845.1 853.6 863 875.8 887.5 883.7 824 827.4 804.5 805.3 774 742.2 736.4 724.7 706.6 676 641 633.5 640.3 645.8 627.2 612 603.5 592.2 583.8 571.1 558.9 537.9 519.7 505.1 492 479.7 453.5 432.3 417.9 405.9 383.1 378.3 388.9 398.4 400.8 392.5 380.1 369.5 355.7 341.9 335 336.9 326.6 313.5 297.8 278.8 272.6 263.6 265.1 257 248.9 232.7 226.7 216.8 210.2 221.1 232.7 252.8 259.7 256.5 261.6 266.6 274.4 264.1 266.5 253.5 238.8 223.3 216.3 202.9 188.2 171 155 143.6 134.3 123.8 116.2 126.5 129.5 127.6 130.7 134.9 136.3 134.5 134.7 126.8 122 123 128.5 129.6 126.2 120 116.3 112.1 104.4 101 95.9 96.1 96.1 96.2 96.5 95.6 97 97.9 101.1 101.9 98.8 99.3 93.4 93.4 93.4 93.4 93.4 93.4 93.4 93.4 95.6 105 100 95.5 95.2 95.4 97.6 95.2 97 103.4 104.2 111.2 119.8 120.5 125.4 126.4 116.2 128.6 136.4 132.8 121 125.2 125.1 119.7 115.4 117.5 113.4 106.7 116.1 127.4 124.4 115 92.8 90.1 90.1 90.1 90.1 90.1 90.1
649.6 659.9 656.1 638.2 618.6 590.9 561.6 545 560 581.9 609.1 631.7 680.9 693 716.8 760.1 799.9 845.7 858.4 863.6 829.9 813.1 802.5 782 782.8 799.8 802.4 804.1 812.7 799.8 796.2 792.4 785.3 800 805 809 810 813 821.8 831.6 840.3 850.3 847.5 870.8 848.6 818 761 780.3 750.6 741.2 709.6 684 669.2 658.8 634.6 574.8 589.2 588.2 591.6 581.5 569.2 561.8 556.3 539 527.5 512.6 500.9 487.1 470.3 451.4 435.2 425.5 406.1 389.5 380.2 363.1 370.8 372.5 369.7 364.5 364.7 358.5 351.9 341.2 329.4 313.2 306.4 302.8 291.5 273.3 255.3 244.5 237.1 235.2 232.3 231.5 222 208.5 198.6 204.6 216.4 229.9 246 250.7 254.8 253.6 257.4 265.7 262.3 260.6 248.6 231.7 216 208.3 196.5 182.5 165.4 148.8 133.9 126.3 117 101.4 119.3 121.3 119 120 130.3 133.7 124.9 126 120.8 120.5 121.6 125.6 119 117.9 116 108.8 102.5 99.9 97.4 96.5 99.7 98.2 99.5 99.5 97.1 97.3 98.1 98.9 98.8 98 96.4 93.4 93.4 93.4 93.4 93.4 93.4 93.4 93.4 98.7 102.9 101.4 97.5 100 99.8 100.7 99.6 103.3 108.3 116.4 123.6 128.6 130.1 137.2 139.6 129.7 148.8 155.8 142.4 141.8 144 136.6 130.8 127.3 128.6 120.1 118.3 133.3 134.6 128 124.9 107.5 90.1 90.1 90.1 90.1 90.1 90.1
611.9 629 628.7 602.9 590.1 564.7 525.4 517.2 528.9 550.1 576.4 622.6 650.2 658 710.8 749.3 787.8 814.9 861.1 825.3 793.4 773.8 764.3 756.1 742.9 758.7 762.4 760.6 757 751.7 754.3 752 749.9 763 767.8 777.5 784.1 791 804.4 817.9 809.6 802.3 832.3 820.3 785 803.7 749.3 726.2 698.5 687.6 664.1 639.7 618.2 606.8 583.2 550.5 543 544.6 546.8 538.9 530.7 515.5 507.5 493.2 482.6 468.9 454.2 442.8 433.1 412.3 396.5 381.7 366.6 351.7 344.7 334.9 342.5 344.3 338.7 332.7 335.5 327.8 323.3 317.8 309.9 298 268.2 276.4 268 254.9 239.5 225.9 220.1 217.2 214.2 211 203.7 192.4 193.4 208.2 219 231.2 239.5 246.5 248.9 243.8 249.1 257 260 252.6 236.2 222.2 209.2 201.3 190.7 176.1 159.3 142.3 128.4 119.1 108.1 102 115.2 114.9 112.9 109.3 114 128.2 121.7 118.3 119.5 121.6 118.2 114.5 115.6 114.7 109.6 102.1 98 96.8 94.6 98.3 100.8 103.4 106.4 103.1 100.7 101.1 102.7 102.4 99.9 98.9 98.7 98 96.9 94.4 93.4 93.4 95.8 100.8 99.4 100.7 101.2 100 101.3 105.6 107.7 108.3 110.4 113.3 119.3 131.9 142.9 150.5 156.7 159.2 160.8 142.8 156.6 162.4 168 168.4 165.9 150.5 140.4 135.6 134.5 130.8 128.7 135 132.6 133.4 125.2 114.3 101.4 90.1 90.1 90.1 90.1 90.1
568.6 594.3 600.5 571.3 561 534.6 498.9 488.5 498.8 520 554 582.9 606.6 655.7 701.4 743.1 776.7 763.8 833.2 786.8 751.3 731.5 724.3 720.9 711.7 720.1 721.8 720.7 714.8 709.2 713.1 711.7 715 724.9 729.9 739.3 749.4 767.6 783.5 784.6 759.7 771.7 791.3 792.2 736.7 744.7 705.7 661.8 653.3 641.6 622.3 592.5 578.6 559.9 534.6 513.8 500.2 509.7 519.3 508.1 489.3 468.2 460.7 452.2 436.5 422.7 411.3 397.2 389.5 375.2 364.1 346.4 332.4 317.1 315.7 302 320 317.7 312.4 305 309.9 306.8 297.4 285 273.3 258.1 245.4 235.9 238.6 236.6 227.9 215.7 206.7 199.4 194.4 189 182.9 180.6 192.8 206.3 217.9 228.5 231.5 237.2 240.3 235.8 240 245.2 251.8 242.4 228.6 214 199.4 188.9 180.5 169.7 153.3 136.9 122.4 111.9 104.2 96.7 102.1 109.8 100 96.4 101.6 110.6 118.4 116.7 118.5 120.3 118.8 113.1 108.6 106.1 99.6 95.7 94.5 93.1 97.1 101.5 104.9 107.9 107.9 105.8 105.7 109.1 106.1 105.7 103.9 102.4 104.3 101.8 99.3 97.8 96.5 98.3 100.1 103.8 103.2 101.4 101.6 105.1 106.7 109.5 113.3 112.9 125.2 127.8 135.2 150.7 160.5 166 177.6 177.2 167.9 151.2 163.9 176.4 190.2 192 187.4 170.8 160.5 146.3 142.5 142.3 135.9 142.8 139.2 136.8 128.7 121.1 106.2 90.1 90.1 90.1 90.1 90.1
522.1 541.9 549.3 547.7 521.3 505.3 469.6 458.9 470.8 494.5 522.1 570.5 586.7 631.2 681.2 723.5 738.3 730.7 797.9 758.2 716.8 698.4 688.2 684 682 681.3 679.6 678 675.6 670.3 673.6 674 680.5 687.1 693.3 701.1 712 730.2 748.1 741.1 707.3 730.4 734.2 736 709 669.5 653.8 632.2 605.6 598.1 573.1 553.8 542.2 520.7 501.3 481.4 461.2 463.7 476.3 472.4 446.2 436.5 421.9 406.6 382.5 356.7 348.5 343.2 335.8 338 331.7 308.6 292.7 285.2 290.5 278.1 298.5 297.2 290.4 282.5 280.9 276 275.7 265.3 253 241.6 224.4 209.8 208.2 208.6 205 204.1 195.8 187.5 180 172.5 167.4 177 191.4 204 211.8 217.5 227.8 227 231.4 227.7 223 226.2 240.4 228.7 218.6 203.4 189.2 178.2 168.7 162.5 147.2 131.3 117.7 106.8 99.3 97.1 96.5 96.4 90.7 91.1 95.7 108.3 111.9 117.4 120.7 119.8 111.7 106.3 101.4 96.7 93.2 94.3 96.9 98.1 100.1 107.1 106.3 107.5 108 106.5 110.2 113.5 111.4 112.2 109.8 113.2 113.1 105.2 102.6 101.9 100.8 103.9 105.1 106.5 108.8 106.4 105 107.7 108.9 114.6 121.3 130.2 144.4 156.6 167.8 178.6 181.6 184.8 184 180.8 174.4 170.3 178.9 193 203.1 205.4 205.5 189.9 172.7 162.2 153 147.3 142.9 149.9 154.1 144.5 136.6 126.2 108.4 90.4 90.1 90.1 90.1 90.1
485.4 491 501.3 511.6 480.2 471.3 438.6 429 441.5 465.5 501.2 533.4 578.9 629.4 661.3 683.6 688.1 709.4 750.7 745.7 697.7 674.3 660.4 648.1 648.9 643.8 639.3 637 634.4 629.4 628.2 627.2 635.4 643.1 650.7 659.3 669.5 688.2 706.5 680.6 677.1 672.7 659.4 658.8 645.2 627.8 607.7 593.4 564.8 557.1 536.8 524 505.3 488.3 472.8 454.7 419.7 425.7 427.7 427.3 409.4 389.6 365.8 346.6 330.8 320.2 317.8 316.8 308 295.6 283 271.6 256.6 258.9 254.3 247.7 254 270.8 268.6 261.9 252.8 244.7 240.2 241.9 231.4 224.8 210.3 194.7 181.9 181.5 181.5 182.8 185.4 177 167.7 155.7 163.7 178 189.7 194.3 198.1 209.9 216.2 209.8 216.6 214.3 206.4 212.2 215.6 215.6 200 186.7 175.8 168.5 158.5 154.9 142.4 127.5 114.8 102.9 96.7 94.9 93.9 92.1 90 90.5 93.7 100.4 108.6 119 115.6 112 105.2 97.9 94.7 93.2 94.5 98.3 100.7 101.6 102.2 108.6 110.4 111.2 109.7 111.7 118.6 120.7 124.1 127.7 130.1 125 119.1 115.9 111.6 111.1 112.2 119.4 126.6 127.2 127.8 129 130.2 128.1 133.9 140.6 145.6 152.7 161.7 178 188.1 193.3 194.1 194 194.8 194.6 182.6 182.8 186.6 201.8 225.1 228 217.9 208.1 188.9 171.2 162.9 158 148.9 152.9 162.2 150.2 141.6 127.6 110.7 94.8 90.1 90.1 90.1 90.1
451.6 457.9 463.8 468.5 448.9 430.6 403.7 401 418.6 450.2 480.6 523.1 555.4 598.2 621.1 635.9 632.2 696.6 710.4 723.5 698.4 663.6 640.7 626 624.8 617.6 607 601.9 596.4 599.5 593.8 598.9 604.6 610.4 616 622.3 630 640.2 644.1 627.6 625.5 620.9 615.7 604.7 595.2 585.8 567 554.5 538.3 509.2 500.4 482.4 471.8 463.1 448 423.8 375.2 388.9 397.3 387.7 356.5 339.8 329.9 312 294.8 286 272.6 270.6 263.2 259.2 254.5 235.7 222.5 235.7 218.3 218.7 219.9 218.7 238.3 243.1 233 223.3 215.7 208.5 210.1 203 193.1 181.8 168.6 159.8 158.8 158.4 162.5 156.6 149 146.5 161.8 175.5 179.9 177.3 182.9 196.7 203.2 193.8 194.7 198 192.5 193.8 201.9 199 185.5 173.9 162.3 158 149.8 144.3 136.3 123.8 110.9 99.2 94.8 92.2 92 90.7 89.6 90.8 92 93.8 101.3 107.8 106.9 104.1 102.3 94.7 91.9 93.9 94.7 98.9 100.5 101.2 103.9 113.7 115.9 115 114.6 126 128.8 131.8 141.2 144.4 141.8 132.9 132.5 128.3 127 128.9 136.4 142.7 146.3 150.4 152.7 152.1 151.1 154.1 165.5 177.6 191.4 197.5 217.1 230.2 223 223.2 220.8 212.4 211.4 207.1 195.2 195.2 202.9 212.8 226.8 229.2 226.6 215.6 195.8 176.5 171.2 167.5 154.3 155.8 162 153.8 144.1 130.1 111.1 96.3 90.1 90.1 90.1 90.1
420.7 431.2 442.1 438.1 422.8 393 370.5 377.1 400.2 426.2 458.5 502.2 528.3 551.1 573.7 592.4 609.3 640.1 666.4 684.8 695.9 668.5 630.5 611.3 605 595.6 583.5 575.3 574.8 574.5 570.1 561.3 569 571.7 574.6 576.7 584.4 591.4 593 593.5 585.7 579 572 563.3 553.8 539.6 526.6 519.5 506.5 487.8 469.7 450.7 448.8 435.5 418.6 393.3 347.3 347 342 329.9 315.6 299.6 290.1 274.7 265.1 253.2 242.2 230.1 222.9 210.9 195.9 185 187.8 196.5 185.7 191.3 196.2 192.8 192.6 206.1 206.8 198.7 195.3 181.5 176.7 176 170.3 159.1 148.1 142.1 135.8 135.5 138.2 135 131.6 140.1 155.7 165.3 164.6 163.8 169.9 179.5 185.9 179.7 176.1 170.3 168.2 178.5 183.9 175.3 170 165.4 153.9 146 141.2 130.6 118.3 108.7 99.2 93.4 91.7 90.8 90.5 90 89.6 90 90.6 92.3 96.1 104.6 103 97.5 93.3 91.9 93.1 94.7 94.7 96.3 100.1 102.4 108.5 118.9 123 125.2 130.9 136.9 142.9 146.6 154.2 153.7 151.5 146.7 145.9 145 143.3 145.3 158.1 165.4 172.1 175.7 176.3 172.8 177.8 186.9 209.7 227.6 238.7 261.2 267.5 253.3 241.2 244.2 233.2 226.8 223.6 217.5 214.5 214.7 216.8 219.5 233.7 232.4 230.3 219 200.7 182.2 175.3 168.1 159 155.1 154.3 150.3 142.5 129.8 114.1 101.7 90.1 90.1 90.1 90.1
379.4 387.7 396.9 403.3 382.1 360.4 340.7 351.9 376.4 397.4 431.6 477.9 501.8 518.8 540.9 552.8 577.6 595.1 616.9 636 665.7 663 632.9 604.8 592.2 582.8 571.3 560.8 560.4 550.7 543.8 541.1 538.8 540.2 544.2 552.6 549.1 548.8 549.4 548 545.3 542.5 531.9 527.8 518.8 506 492.3 485.4 475.3 456.5 446.7 432 419.8 402 382.2 363.6 327.2 316.2 311.8 294.5 281.1 271.4 257.8 244.5 226.7 209.5 195.2 185.7 180.8 173.2 162.4 155.5 154.3 163 165.8 168.7 173.3 167.1 167.8 173.7 171 171.1 173.9 162.5 152.3 147.4 140.3 137.2 130.9 125.4 120.9 120.5 117 118 121.5 134.1 145.5 148.3 148.7 150.9 156.9 164.6 171.4 163.4 158.3 155.2 147.5 156.7 166.9 163.7 159.3 157.1 148.6 136.8 129.8 120.6 104.7 96.5 90.9 90 87.9 89.8 89.5 89 88.6 89.1 89.8 91.4 92.7 95.2 95.5 92 90.6 91.6 93.7 92.7 93.4 97.2 100.6 103.6 111.4 120.2 129.3 136.7 147.4 153.1 160.2 161.4 166.4 166.9 162.1 159.5 159.7 159.7 159.5 167.2 178.6 183.5 188.9 194.8 192.9 202.6 215.4 253.2 283.7 287.2 280.1 279.5 276.3 261.1 257 254.9 249.3 241.4 234.3 225.9 226.8 227.2 221.9 218.4 225.6 233.6 231.9 220.5 204.7 187.8 179.1 168 160.6 155 152.4 148.7 140.2 128.7 115.1 105.7 95.3 90.1 90.1 90.1
360.7 368.5 371.2 374.7 343.4 324.3 313.6 325.2 350.8 373 405.3 450.5 470.3 489.8 511 527.4 542.9 564.7 585.5 594.6 610.2 626.9 614.8 604.3 592.1 573.4 562.9 552.6 542.7 532 521 523.6 519.2 517 514.3 516.3 513.6 509.2 513 516.2 505.8 502.2 496.9 493.8 484.9 478.4 459.8 450.7 434.3 429.7 418.2 400.8 382.4 363.7 341.3 316.1 301.6 278.7 282.4 270.5 251.4 238.3 223.1 203.5 186 178 169.1 157.6 153.3 147.9 139.1 133.2 133.7 135.6 145.1 142.7 150.6 141.9 141 143.7 147 153.3 155.9 148.4 135.9 126.7 121.4 117.3 117 115.3 111.4 108.9 107.9 109.9 115.3 121.6 130.4 130.8 131.4 140 142.2 146.1 152.3 146.3 142.1 140.3 132.1 137.9 148.8 151.1 144.4 143.7 139.5 131.6 118.2 105.4 94.4 88.9 87.3 87.4 88.2 88.9 88.7 88.6 88.4 88.5 88.7 89.5 89.5 89.4 88.9 92.6 92.6 92.5 92.2 93.4 95.8 98.7 101.5 109 120.2 129.4 140.1 156.1 167 179.3 176 175.1 181.9 181.2 170.9 173.9 176.4 177.1 179.1 192.3 202.8 208.8 218.1 216.7 222 241.9 264.3 306 318.5 311.5 302.8 299.5 288.6 274.7 272.5 272.6 263.5 252.4 242 235.4 234.4 230.1 225 218 223.7 237.9 236.4 219.3 206.1 195.1 184.5 172.7 164.7 156.8 151.3 145.6 138.9 125.7 114 105.9 101 90.1 90.1 90.1
330.9 337.4 336.5 331.9 303.4 297 290.8 297 325.7 348 387.5 418.8 435.9 461.5 478.5 507.2 523.9 536.3 557.2 563.9 577 589.4 593.5 600.5 596.6 580.3 558 546.4 532 514.6 506.7 501.4 500.2 494.8 495.4 489.4 480.4 483 488.9 491.2 483.2 473.8 467.7 462 447.6 436.6 427.2 417.2 413.7 401.1 387.7 365.3 344.7 322 305.5 295.4 276.2 243.6 248.3 243.8 226.6 211.1 194 171.4 160 153 140.6 131.9 131.4 122.1 116.5 109.5 114.9 118.6 121.1 116.6 119.4 120.2 121.8 122.4 130.7 139.3 141.5 136.5 124.5 117.3 108.9 102.9 102.8 106.7 106.9 99.1 98.3 96.6 102.2 107.3 115.1 115.5 116.9 125.9 129.7 132.3 137.3 134.9 126.2 122.6 119.8 119.2 131.6 138.7 131.8 123.9 120 107.6 93.5 89.9 88.4 85.9 86.9 87.1 87.2 87.9 88.1 88.4 88.7 88.4 88.9 89.8 90.8 92.3 96.2 95.3 94.4 92.9 92.4 94.8 100.4 106.4 114.1 128.2 140.4 148.2 160.8 172.7 186.9 193.5 192.7 194.7 191.6 188.6 175.1 185.5 191.8 196.4 203.9 222.4 229.1 229.8 232.2 236.6 261.8 280.3 303.1 331.9 335 320.2 319.6 307.8 303.7 291.6 280.2 280.5 270.6 260.7 251.6 243 239 233.3 226.9 218.5 220.6 227.1 226.3 219.3 211.2 201 189.5 175.9 168 157.9 147.8 140.9 135.3 126.7 114.4 106.1 97.9 95.2 91.5 90.1
288 303.6 301.1 286.4 269.1 274.6 273.8 266.8 297.3 328.8 360.5 383 404.3 433 465 491.2 505.9 524.1 538.7 550.4 556.2 580.4 590.3 589.6 594.2 594.9 572.3 552.5 528.9 501.9 485.4 480.3 481.6 481.1 470.5 461.9 454.1 461.5 469.2 466.2 458 441.4 436.2 423.6 416.7 402.9 402.8 390.4 382.3 367.8 346.2 326 304 289 282 262 246.6 222.9 214.4 208.5 197.5 179.1 163.8 147.6 137.4 126.9 118.6 114.3 103.3 96.3 92.5 89.9 97.1 100.2 98.2 98.5 97.7 101.3 104.2 107.4 119.8 126 124.1 122.6 114.9 105 97.3 92.6 97.5 96.5 92 90.1 87.4 85.9 87.2 93.3 99.3 100.1 103.1 113.6 115.1 119.7 123.4 115.2 109 106.6 101.9 111 116.7 121.9 120.5 111.5 103.9 92.3 88.6 89 87.4 83.8 84.9 86.3 86.5 87.7 87.7 88.4 89.3 89.7 90.8 94.8 95.9 97.9 98.3 97.6 96.8 93.8 99.6 105.4 114.3 125.7 133.9 142.4 155.2 166.2 176.9 189.5 196 202.2 208.1 204.7 203.5 194.4 186.1 195.3 201.6 211.9 236.3 251.8 243.9 248.5 246.1 262.4 293.2 312.2 321 347.1 340.9 344 340.1 321 307.1 291.4 279.4 274.1 265.3 262.1 253.9 244.8 239.1 237.8 233.3 222.1 218.5 222.1 224.3 220.6 213.1 201 190.3 177.7 168.4 159.2 148.9 141 134.8 126.4 112 104.6 99.7 97 94.3 94.5
255.4 268.2 271.4 251.4 245.8 252.6 242.4 245.6 280 313 334.8 353.9 379 404.6 445.2 481.2 496.8 506.9 529.5 542.7 543.7 568.1 579.4 587 594.4 597.4 594.2 573.7 541.2 500.7 473.9 462.7 456.4 451.1 442.4 436.2 437.6 442 445.8 445.2 433.8 401.2 404 397.4 382.2 375.6 368.5 362.2 338.5 325.6 299.8 287.2 276.4 259.3 240.1 229.6 220.8 204.4 188.7 181.6 167 151 137.9 125.2 105.9 93.3 85.7 83 79 74.4 76.6 77.1 81.1 82.6 82.1 85.5 85.5 89.4 93.7 96.7 104.6 109.2 106.1 107.8 100.8 93.5 85 83 86.2 83.6 84.9 83.2 80 77.3 77.9 80.3 84.6 86.4 91.8 96.8 107 109.3 110.4 102.4 94.2 90.8 90.5 101.3 106.4 114.8 111.7 104 89.3 84.6 85.9 86.8 85.1 87.2 87.3 87.5 89.2 90 90 90 90.6 91.9 95.6 107.4 111.9 108 103.5 102.7 103.7 106.7 115.8 123.6 135.5 141.6 147.9 155.6 170.1 181.2 190.5 200.6 206.4 212.1 213.1 214.4 209 198.6 196.8 205.7 217.9 240.2 262.3 262.2 267.5 281.9 304.4 312 324 343.6 353.5 368.9 381.8 370.5 351.2 320.6 299.6 284.6 277.3 273.8 266.7 262.8 252.2 250 246.3 246.7 244 226.8 220.9 225.2 227.4 223.7 216.5 203.1 195.5 178.9 167.5 159 148.6 138.5 133.7 121.7 110.8 103.7 100.9 97.7 98 98.1
243.4 250.7 249 227.2 224.7 233.7 216.9 225.3 258.8 283.6 305.3 329.9 350.9 381.2 422.3 454.9 470.9 480.2 497.5 509.2 522.1 529.7 563.7 578.5 585.5 589.5 589.3 574.9 551.3 511.1 472.5 448.9 432.4 422.5 419.1 417.2 421.9 426.1 423.9 409.6 392.3 375.3 363.3 361.9 343.7 344.4 330.1 323.1 306.2 284.9 271.4 257.7 241.4 231.4 217.9 208.1 196.3 176.7 162.9 155.5 142 124.3 115.7 91.4 72.3 65.3 62 61.4 62.6 62.8 64.5 66.7 69.9 69.9 71 73.9 76.4 81.5 83.4 85.1 83.3 88.4 89 89.5 84.2 79.8 72.1 72.5 74.5 74.4 76.1 77.2 74.2 74.2 75.5 75 73.8 77.3 81.9 84.5 95.8 99.1 98.1 90 79.9 79.8 83.4 91.5 99.3 110.2 99.2 88.7 83.5 83.8 85.7 84 85.1 98.7 97.4 90.9 90.4 89.8 90 90 90.8 94 99.9 112 116 108.3 111.2 115.8 127.3 129.6 138 147.8 156.5 157.3 165.1 178.9 198.9 204.6 208 213.5 213.3 215.3 217.7 219.8 211.6 203.2 208.1 222.2 243.3 269.7 276.7 280.4 300.8 351.3 353.5 347 346.3 351.1 354.6 360.7 351.7 345.6 331.4 314.2 302.9 293.7 293.7 291.3 287 271.8 268.3 263.6 254.8 256.6 249.8 230.3 229.8 231.7 229.7 221 211.6 204.3 196.4 180.4 166.7 157.6 148.5 136.9 128.9 119.1 114.5 104.6 102 99.7 100.1 99.9
223.6 234.7 229.2 206.5 202.2 211.2 198.4 207.2 235.2 258.8 278.4 299.8 333.8 362 388.7 410.8 429.9 450 462.1 477.5 490.1 495.7 512.6 542.5 557.9 558.9 558.8 548.6 536.7 520 473.2 441 412.7 404.8 400.7 408.6 410.2 403.4 392.4 369.9 359.3 344.7 329.3 314.1 304.6 309.2 295.1 272.2 267.9 260.2 244.2 229.2 220.2 210.6 199 184.2 173.7 154 136.1 133.7 118.6 106.7 88 68.5 60.1 59.4 57.8 56.6 56.2 57.5 59 61.4 62.7 61.8 62.4 64.2 66.1 71.9 72.2 72.7 69.7 69.8 74.2 73.2 70.7 68.7 67.9 67.2 69 70.7 70.6 69.2 71 71.7 71.7 70.9 72.7 73.7 75.6 76.5 86.3 87.1 83.3 78.5 77.8 78.9 79.8 83.3 84.9 93.4 90.4 83.2 90.1 95 85.1 82.9 79.2 103.5 105.1 99.9 90.7 90 89.8 90.7 94.6 111.8 119.4 114.4 115 112.7 119.7 141.3 146.3 152 156.9 158.2 162.5 171 184.8 211 220.7 217.5 216.7 216.2 215.4 218.6 223.6 220.1 206.3 207.3 222.4 248.1 270.4 285.2 294.5 299.1 321.2 349.8 353.5 355.5 352.5 347.3 340.9 341.1 344.1 342 335 325.6 321.5 311.7 307.4 302.1 299.2 284.1 274 266.8 259.4 254.6 248.7 232.7 228.5 229.7 222.9 215.2 205.3 200.3 191.9 178 168.2 157.8 148.5 137.5 126.7 118 112.8 107.1 102.3 104 100.8 98.7
186 192.3 202.3 187 181 186.3 185 184.1 212.4 234 253.4 271 305.3 339.2 362.1 380.1 399.2 418.4 437.5 452.2 463.2 472.2 484.5 516 534.2 538.3 535.6 529 527.2 504.4 465.6 426.1 397.2 384.2 387.6 388.1 381.9 362.6 349.3 342.1 325 314.8 297.5 273 272.4 267.7 257.6 247.4 243.1 230.1 219.8 210.6 199.7 189.1 178.4 161.9 144 125.4 124.7 117.9 103.7 85.4 67.8 59.5 56.1 56.9 55.5 55.2 55.3 56 57.3 58.1 58.6 57.9 59.2 60.3 61.8 63.7 63.4 63.8 63.9 64.2 64.7 64.5 62.6 64.6 66.7 66.6 67.3 68.3 68.9 68.6 69.4 69.1 66.2 64.1 68.7 71.7 73 74 74.6 74.5 73.5 77 77.4 78.4 79.3 83.6 82.2 81 81.5 85.7 85.1 90.2 83.2 81.2 81.7 94.6 100 101 91.8 89.7 90.5 94.3 120.5 128.3 128.9 120.4 115 114.9 140.1 156.7 165.3 160.6 162.3 165 174.7 186.8 199.9 216.6 217.6 220.4 220.1 219.1 219.8 223.7 221.6 209.2 210.9 223.7 247.5 276.3 286.4 297.1 302.1 314.1 341.6 370.8 364.7 363.1 355.9 347.2 341.2 346.1 351.8 349.9 347.8 337.7 321.4 315.2 308.7 302 298.6 286.7 279.3 280.4 271.8 259.6 248.1 233.1 226.9 228.1 218.4 210.5 202.5 192.9 186.2 177.6 166.3 154.1 147.2 138 129.2 121.3 116.3 108 105.2 105.1 103.6 101.1
146.3 157.6 172.7 171.4 160 161.2 162.4 169 191.4 209.7 226.4 240.9 272.2 310.8 332.7 358.2 380.7 396.7 418.1 433.9 449.1 452 463.8 493 514.1 521.2 520 516.5 508.1 486.7 448.3 407.8 380.2 362 375.1 362.1 343.2 331.9 325.3 312.9 301.9 285.7 270.3 247.6 246.8 243.5 236.4 230.3 215.2 202.3 196.9 189 175.5 166.7 153.1 135.2 121.6 106.9 107.2 101.1 86.2 69.8 59.2 56.2 55.1 55.3 54.8 54.6 54.7 55 55.6 55.8 56.7 57.1 57.6 58.1 59.5 60.5 61 61.7 62.4 60.9 60.7 56.2 59.7 60.2 59.3 64.1 65.8 67.6 65.6 67.7 65.1 61.9 66.1 67.6 67.2 65.6 68.8 71.4 75.4 76.7 76.3 74.8 77.1 78.1 79 79.3 79.5 79.9 80.1 80.4 81.9 85.9 80.9 80.5 80.1 82 88.6 94.7 88.3 90 104.1 121.3 132.1 136.1 130.3 123.1 120 129.8 153.1 163.9 164.9 165 168.5 177.9 184.4 192.7 204.6 213.4 221.9 226.3 225 224.8 223.4 224.6 212.1 221.9 232.5 249.6 278.6 290.5 295.7 298.8 306.2 331.5 368.3 380 371.6 373.2 373.5 365.1 358.9 366 368 364.7 353.2 337.7 323.7 320.4 314.1 315.7 317.2 306.1 293.9 281.5 271.1 262.4 249.2 231.6 222.4 219.1 213.2 203.1 192.4 187.8 184.5 176.5 168 158.4 150.7 142.9 134 125.6 119.4 111.1 106.8 105.8 106.8 108.6
116.8 131.8 142.9 141.9 138.2 140.4 147 151 168.2 186.4 199.9 219.7 245.6 273.7 304.6 332.6 361.5 379.8 394.2 412.1 426.7 434.3 443.4 454.5 487.8 496.1 497.8 491.6 477.8 455.9 421.4 383.8 358.4 350.2 356.4 338.6 316.4 306.8 300.4 288.1 273.9 261.8 235.5 222.9 230.1 227.8 222.7 209.4 192.9 180.1 172.6 160.4 154.3 140.6 127.2 113 100.3 90.3 89.6 85.4 76.3 65.4 58 55 54.2 55 53.5 53.9 53.4 54 54.9 55.3 56.4 56 56.4 56.7 57.4 58.2 59.5 59 58.3 58.2 58 58.9 60.1 59.7 60.6 61.7 62.6 63.4 61.2 61.1 63.6 65.7 67.2 68.4 69.3 68.9 73.9 76.6 80.5 78.4 79.2 79.5 75.4 77.7 78.6 78.6 79.4 79.9 80.3 80.4 78.8 78.3 80.3 79.2 78.4 78.4 81.6 87.2 89.1 108.7 120.9 132.8 141.4 139.7 130.2 126.5 135.7 150.7 159.5 163.4 167.6 173.6 180.7 186.3 187.6 192 208.7 223.2 230.2 230.9 228.9 228.5 225.8 221.8 233.1 246.6 260.3 282.1 296.4 298.3 299.4 303.3 315.3 339 368.5 379.1 388.2 392.7 397.5 392.5 392.1 392.4 388.3 383.8 367.7 342.7 324.2 321.1 316.9 314.7 312.5 305 293.5 280.5 272.9 266.9 248.6 230.8 221 219.5 219.3 207.8 197.2 194.7 194.7 185.2 175.5 164.4 155.8 147.4 137.9 131.7 122.5 114.2 108.2 108.5 109 110.1
101.3 111.1 112.1 114.6 118 121.4 131.1 131.7 146 163.2 178.8 203.4 227.7 246.9 276.1 317.6 338.3 362.1 376.9 389.4 407.6 419.3 425.3 429.2 438.3 453.4 463.8 462 447.4 416 388.3 351.9 339.9 333.4 330.6 310.5 293.6 282.8 271.5 266.8 256.9 237.6 220.1 204.1 207.3 203.6 195.3 187.8 173.8 154.3 138 131.3 124.2 114.4 105.2 94.4 83.5 72.5 74.5 73.3 67.2 61.7 56.5 54.4 54.1 55.3 51.9 51.1 52.4 53.1 54.3 54.9 55.1 53.6 53.7 55.9 56.4 56.9 55.1 55.8 57.3 57.4 55.8 59.2 60.7 59.6 61.1 61.3 59.6 61.8 62.8 64.3 65.5 67.4 67.6 68.7 74 77.2 80.5 89.6 94.5 93 90 90.1 82.2 77.9 78.8 79.6 80.3 80.9 81.9 82 81.3 80.9 79.1 78.4 78.4 78.4 78.4 87.1 96.9 120.3 127.4 144.5 146 134.2 131.2 136.7 152.7 161.5 168.5 171.9 177.5 184.8 199.6 204.2 201.5 206 232.9 237.8 238.7 232.1 230.8 229 230.6 243.3 258.5 278.8 300.7 297.7 308.2 308.5 310.4 322.9 344.2 375 399.5 417.7 419.3 418.8 421.4 423.6 419.4 413.3 403.5 398.2 383.3 350.7 330.4 329.2 329.7 324.5 315 307.6 292.9 281 284 282.2 255.6 235.7 223.5 229.9 220.6 214 209.8 208.9 207.3 195.7 182.7 171.9 162.2 152.4 144 138.1 125.6 118.5 110.8 110 110.5 111.4
80.4 85.9 85.8 95.2 102.4 111.3 117.9 117.4 127.5 143.9 158.1 186.1 209.5 231.4 251.2 277.9 312.4 339.5 353.9 362.3 372.3 387.2 394.1 401 406.2 409.7 419.2 409.6 390.6 368.2 343.9 331.5 329.3 311.1 305.2 287.2 277 262.2 247.3 242 231.7 216.2 208.2 194.4 182.3 181.8 176.6 168.7 147.4 126.5 116.9 111 101.9 90.8 84.6 77.4 70.8 63.1 65.6 64.6 62.5 60.1 55.5 53.3 52.4 51.3 51.4 52.2 52.8 52.7 54 54.5 55 54.2 55.2 55.9 54.6 55.7 56.4 56.6 57.2 57.7 58.7 60.1 60.7 61.1 61.7 62.8 63.2 63.5 64.6 65.8 67.7 67.3 70.4 78 88.8 95.1 98.4 111 111.3 107.2 101.2 96.1 84.1 80.4 79.7 80.1 80.9 82.3 83.6 83.4 82.1 81.3 80.2 79.8 78.4 78.4 79.3 88.2 106.5 120.1 135.7 151.2 139.9 132.2 132.4 143.6 157.4 173 183.3 190.9 197.3 207.1 216.6 226.7 235.8 241.9 250 246.7 238.3 234.2 234.1 243.6 253.4 275.2 292.3 308 304.6 314.3 320.8 326.7 354.3 374.2 383.5 415.2 426.2 430.9 436 445.4 445.6 440.7 429.2 421.3 414.4 403 386.2 353.9 339.1 340.8 349 341.1 333.7 328.3 305.1 286.3 285.1 277.5 260.8 240.8 229 230.9 232 223.7 225.8 225.8 219.2 202.1 190.3 178.9 169.2 158.7 151.6 144.5 130.7 122.2 115.2 111.4 112 112.7
55.1 62.1 70.9 83.2 91.5 100.9 105.7 105.4 113.5 127.8 154.2 167.8 184.7 213.8 237.4 252.5 277.3 306.8 327.6 333.9 334.1 345.7 356.7 355.4 359.6 367.5 362.6 354.7 341.2 329.9 316.8 304.1 315.7 300.6 286 273.2 255.8 239.8 227.7 221.3 206.6 204.6 195 184.8 159.9 151.8 151.5 143.7 124.1 104.3 100.2 94.9 86.9 77.9 70.2 66.6 62 60 61.1 61.1 62.4 62.1 55.2 51.5 52.2 53.1 53.1 53.6 52.6 52.7 53.4 54.3 54.4 52.3 55.2 56.1 56.4 57.3 57.5 57.6 57.9 58.2 59.5 60 60.1 60.7 61.9 62.7 63.3 64.5 65.9 66.2 66.6 72.1 82.2 95.3 115.3 122.2 125.9 129.3 126.7 124.6 115.6 101.6 88.1 83 80.7 81.7 86.7 91.2 88.8 85.3 83 81.5 80.2 80.3 78.4 78.4 84.8 95.9 113.9 125.9 140 139.6 133.4 132.2 142.9 161.9 174.6 185.7 201 209.1 222.8 223.9 239.9 246.5 258.1 258 254.9 247 240.1 240.9 259.8 268.5 280.8 300.5 315.2 321 326.3 334.7 354 383.5 405.6 418.9 419.9 438.2 443.7 443.3 457.4 473.8 471.4 457.1 441.1 427.4 417.8 397.8 375.6 356.2 347.4 350.5 358.9 359 348.1 332.4 308.4 292 285.8 277.5 260.1 243.6 234.3 233 233.9 227.9 231.6 235 225.5 210.2 200.2 190.7 174.9 167.2 160.4 150.2 139.4 126.9 119.4 114.8 114.5 114.7
48.7 56.7 65.2 74.9 84 90.8 94.3 95.5 102.1 118.3 145 157 172.7 189 222.5 239.7 255.9 273.6 286.7 295 299.4 308.8 316.7 321.4 325.6 330.9 327.4 323.7 311 296.7 283.3 292.2 297.3 283.5 256.2 249.3 235.7 222.8 212.8 193.9 193.8 195.2 177.5 160.2 145.8 134.6 132 119.7 103.7 89.1 87.4 80.6 74.6 68 61.3 59.2 58.7 58.6 59.1 59.7 60.5 57.9 49.8 52 53.2 53.8 54.3 54.8 51.4 52.8 53.3 53.6 51.8 55.3 55.4 56.3 56.7 57.4 57.7 57.8 58.1 58.6 59.2 59.7 61 62.2 63.6 64.5 65.2 67.6 72.8 77.4 76.8 83.4 98.3 134.5 154.3 156 150.1 148.2 143.7 133.9 123.2 113.1 97.8 86.5 85.4 88.8 92.1 96.7 93.7 85.7 82.6 81.9 79.4 80.9 80.1 78.4 86.6 106.3 121.3 127.6 129.2 131.8 134.6 141.2 163 182.4 189.8 202.1 210.8 224.5 232.6 242.7 255.9 268.7 278.7 266.4 254.2 250.3 250.2 267.9 294.2 293.1 316 321.4 329 339.1 359.8 374 399.2 425.3 441 447.7 457.1 458.1 461.2 462.2 476.9 488.9 485 470 449.8 441.9 425 396 376.9 364.4 358.3 360.8 364.8 360.5 350.1 332.4 310.3 297 292.6 285.7 264.3 250.1 240.6 236.1 237.4 232.6 234.1 235.7 230.2 219.7 206.1 196.4 182.8 174.5 170 159.8 145.9 131.5 123.4 118.2 117.1 116.8
47.8 54.3 60.7 69.2 76.5 81.2 84.9 87.4 92.1 110.6 132 148.9 161.7 181.6 197.4 225.1 245 260.1 268.4 275.4 279 284.6 297 300.1 301.2 303.5 300 294.8 286.8 270.9 274.4 280.7 276.3 268.3 248 210.1 206.1 200.7 187.9 175.6 179.9 174.8 155.9 144.4 129 118 109.2 98.8 83.3 79.7 73.8 68.6 66.2 62.1 56.6 56.4 56.8 57.3 57.7 58.1 58.7 55.5 51.1 51.6 52.4 53.1 53.4 54.1 53.7 54.3 53.6 54.2 54.8 56.5 56.5 56.5 56.8 57.2 57.6 58.2 58.9 59.6 60.1 61.5 62.5 64.2 66.2 66.5 70.7 78.7 85.6 88.3 90.6 100 120.3 160.3 174.1 168.3 164.8 158.5 149.4 142.4 135.3 128.3 113.6 90.5 90.2 94.3 96.6 98.9 96.9 91.6 83.8 81.5 79.6 83 83.7 84.8 93.5 112.5 126.3 128.5 129.7 136.6 141.7 159.3 179.7 202 215.3 220.7 231.5 232.1 246.1 263.6 270.3 285.9 276.3 266.2 263.6 262.5 281 310.2 322 327.6 331.1 340.1 348.2 363.7 397.6 404.3 426.9 456.1 468.1 477.1 483.7 484.1 485.8 485 497.4 507.2 496.3 485.9 461.8 455.9 424.7 403.5 385.5 374.5 374.2 374.6 386.4 375.3 357.1 342 318.4 307.5 301.3 302.4 286 264.6 250.2 247.6 248 243.3 250.3 245 238.4 224.7 218.3 207.6 190.3 181.8 179.8 171.9 152.9 136.5 127.1 122.2 120.8 120.1
44 50.8 57.1 61.7 67.9 73.8 76.9 80.3 93.7 109.4 123.1 145.7 156.2 167.8 188.7 196.7 220.5 250.4 262.6 257.4 264.5 271.5 278.2 279.5 279.7 277.4 276.1 274.8 263.5 261.8 260 258.2 259.4 251.4 238.2 206 175.3 170 167.3 163.6 163.3 154.6 139.5 129 118.3 101.9 93.8 83 76.7 72.1 67.3 61.9 61.4 57.4 54.5 55 55.4 55.9 56.4 56.2 56 50 51.5 54 53.6 54.2 55.8 56.4 55.9 56 57.7 58.1 60.6 64.1 63.2 63.2 61.4 60.4 60.5 60.8 61.3 62.8 64.3 65.3 66.2 67.8 72.1 80 85 92.3 96.5 102.8 110.7 120.7 143 167.8 185.7 178 169.8 163.2 154.9 144.9 134.9 125.8 116.2 101.5 98.8 103.5 101.2 100.8 102.6 97.9 84.5 83.1 83.2 83.5 84.3 86.6 100.9 117.5 126.1 132.2 137.8 143.9 164.5 175.7 195.9 221.8 230.8 237 233.4 247.8 268.6 275.6 281.1 285.2 276.3 276.3 278.1 288.4 313.5 329.8 334.1 342.4 351.2 361 373 400.4 428.1 441.1 462.6 484.4 493.4 503.6 514.3 511.9 509.6 508.9 519.3 516.2 511.4 495.8 476.5 457.3 429.6 412.4 395.7 395.6 392.3 392.4 408.4 387.3 379.2 360.3 333.8 317.2 313.9 315.6 295.8 275.3 263.4 261.6 258.6 260 265.9 257.8 243.7 235.2 233.4 222 199.2 190.8 187.6 180.3 161.3 141.5 131 127.2 125 121.1
40.8 47.1 49.9 54.6 60.4 65.3 68.2 76.3 99.4 101.5 111.5 137.5 148.3 158.9 170 182.4 196.6 216.2 232.1 241.5 248.3 251.9 252.4 255.6 254.8 249.3 250.1 244.8 235.5 252 244 244.3 240.4 232.7 216.3 191.4 168.6 151.7 154.2 152.7 145.7 137 128.8 114.3 104.1 88.4 79.4 73.5 64.6 63.3 56.6 55.5 55.5 52.4 52.9 53.7 54.1 53.6 55.6 54.7 54.1 48.3 53.8 57.3 58.8 61.2 66.4 63.4 66 70.2 76.6 79.4 93.2 94.1 84.3 79.7 71.5 71.6 68.9 66.1 69 73.5 83.2 87.2 84 87.8 94.4 97.9 104.9 114.7 120.6 125.2 131.5 147.6 166.2 185.8 193.2 187.9 181.4 169.8 158.6 149.3 136.9 127.9 114.4 107.7 109 110.9 104.6 110 108.9 100 84.5 81.1 83.5 83.7 84.7 91.2 106.9 125.4 144 142.2 143.5 167.5 178.2 189.3 210.1 233.8 240.2 241.6 262.1 273.9 282.1 290 293 289.7 289 290.3 296.7 319.9 334.8 345.1 358.1 367 379 392 403.4 428.2 455.8 476.9 501.1 515.3 519.4 534.6 542.6 540.2 543.6 539.4 540.6 543.5 532.9 514.6 488.9 471 447.7 429.7 410.3 415.4 411 406.2 411.6 402.3 387.2 369.8 344.2 328 335 342.1 311.8 289.1 281.7 277.2 265.7 270 268.6 259.9 248.7 241.5 237.7 228 205.2 201 200.1 189.7 171 149.8 137.5 132.5 128.1 119.9
37.2 41.3 44.3 49 52.8 56.3 58.8 62.4 76.1 87 104.8 127.4 137.5 144.7 154.8 164.7 176.4 188.7 204.9 214 224.9 227.5 227.1 226.6 227.7 221 217.2 210.3 218.1 226.4 226.4 232.4 223.4 210.1 191.6 171.9 154.8 142.2 146.9 139.2 127.5 123.6 116.5 104.1 86.7 77.7 69.5 62.5 54.6 53.4 49.2 49 49.9 50.8 51.4 52.1 49.4 46 43.5 46.3 46.6 51.5 56.5 62 68.8 77.9 87.3 93.7 91.3 103.1 106.1 109.2 116.5 118.8 108.5 101.9 99.3 100.9 97.2 95.6 95.5 102.6 111.8 111.1 109.9 109.3 118 124.6 132.8 142.8 150.3 155.6 161.4 172.4 188.9 198.7 199.1 193.8 188.2 179 168.7 153.9 137.6 124.3 118.6 113 114.7 109.3 114.3 116.6 108.2 91.5 84.9 91 88.6 91.1 90.5 107.3 125.3 139.5 144.4 145.5 163.4 179 193.3 202.7 224.1 236.8 246.1 266.3 277.8 288.1 301.7 300.1 301 295.7 301.7 308.5 322.5 340.7 354.8 371.5 386.5 399.2 413.1 424.1 432.3 459.7 494 519 535 544.1 558.4 572.2 575.2 576.9 573.9 564.7 570.5 566.9 544.6 524.3 498.8 485.4 472 451.8 428 435.4 425.6 416.1 415.5 406.4 396.9 375.7 352.8 342.8 351.1 358.8 329.3 307.1 295.2 280.4 272.4 275 271.6 265.5 254.3 245.2 239.8 230.9 214.8 211 210.1 197.1 180.4 159.2 143.9 137.8 129.4 122.6
32.9 35.6 38.4 42.3 46.3 48.6 51.9 57.4 60.9 74.2 95.8 112.2 119.1 123.5 136.7 145.6 150.4 161 173.8 180.9 192 196.1 193.1 191.8 195.1 192.8 189.8 193.6 202.2 210.5 203.7 214.5 205.4 192 172.3 151.5 141.8 138.2 121.7 124.7 116 109.2 103.4 84.6 77.3 65.5 58.1 53.3 48.1 46.5 46.3 47.8 48.8 49.6 50.2 50.9 43.8 46.7 50.4 53.9 68.5 79.4 86.1 94.7 100.5 113.1 112.5 127.1 126.5 132.8 131.3 144.9 153.8 150.8 132.9 132.1 129.7 130.8 131.6 136.2 132.4 135.7 133.9 133.8 135.4 130.3 134.1 153.3 166.3 175.7 183 189.4 196 204.9 207.1 206.1 206.9 198.8 189.4 179.8 170.8 156.2 136.8 129.1 128.3 120.1 113.4 121 124.3 117.3 102.3 88.4 100.7 107.3 107.3 100 113.3 125 138.6 146.9 145.1 158.2 186.2 195.6 206.7 214.1 229.1 250.1 261.2 281.6 283.5 300.4 310.8 306.4 297.6 305.7 318.4 333.8 346.5 360.4 379.3 397.3 414.1 429.6 443.1 451.8 465.2 494.2 530.7 549.8 567.7 579 609.4 618.6 617.9 608.4 603 598.9 593.3 587.2 568.6 541.6 521.9 505.9 493.2 468 444.2 443.2 428.8 428.9 425.2 418.5 405.5 386.4 364.6 360.4 368.2 360.1 344.3 316.9 300.9 288.1 286.2 283.6 275.2 268.7 257.6 246.3 239.2 234 224.5 220.9 217.2 211.3 193 169.4 153 143.2 136 125.9
28.4 30.3 33.2 37.4 40.3 41.9 44.6 47.4 53.2 62.1 78.1 90.6 98 104.5 112.5 120.3 128.2 135.3 143.5 152.2 156.7 159.5 163.8 163.9 167.3 163.3 162.7 173.4 176.8 181.6 182.8 194.3 186.2 174.4 155.3 135 133.3 123.8 108.9 107.2 100.3 94.2 81.5 70.1 64.5 57.3 52 47 44 44.1 44.2 45.6 47.1 48 49.1 48.4 41.6 50 65.4 80.8 104.9 124.9 142.3 147.8 151.2 159.5 144.5 160.5 157.3 157.6 174.2 188 182.2 172 160.1 160.8 162.7 169.1 170.5 165.5 160.1 154.5 153.3 157.7 153.9 155.3 162.8 185.9 200.5 211 218.4 225.8 235.2 238.6 230.5 216.5 209.9 206.1 195.4 176 165.4 151.6 136.7 134.1 125.4 116.2 120.5 123.4 126.7 116.5 106 109.9 119.5 123.8 118.6 116.4 131.1 134.9 141 141 149.7 173.8 202.3 209.4 221.3 221.8 242.6 261.4 278.5 281 289.5 308.9 309.4 302.5 306 320.3 341.6 358.1 362 380.9 401.5 421.4 439 455.8 470.4 484.5 505.4 542.4 567.3 585.3 610.1 624 646.3 658.7 653.7 640.9 633.2 630.4 621.3 611.1 591.4 565.6 544.8 520.9 506.2 479.9 457.7 452.4 438.7 432.9 431.3 424.6 409.4 391.3 373.9 377.2 382.9 370.4 348.9 322.9 305.6 292.9 291.8 285.7 277.6 268.2 257.5 248.3 243.6 238.5 232.8 227.2 224.4 220 207.4 178.2 160.1 146.5 136.7 133.4
23.9 25.8 28.6 32 33.3 35 36.4 37.4 38.7 60.2 72.4 79.7 81.4 86.2 91.5 98.6 106.3 111.8 118 123.1 127.6 132.9 138.1 134.4 130.2 131.6 139.8 149.6 149.9 155 156.3 168.6 164.1 159.5 136.6 124.8 112.2 103.6 101.8 85.8 83.7 77 65.7 61.7 54.2 49.4 43.7 42 41.6 42.3 40.6 40.6 42.3 42 40.2 42.3 53.9 67.7 87.1 116.1 154.5 181 193.8 202.9 190.9 187.6 180.6 202 199.7 201.6 211 217.9 215.3 207.2 188.3 198.5 202.8 204.2 217.4 214.9 199.9 183.8 183.9 181.4 174.4 174.3 203 226.3 239.6 245.4 245.9 252.9 254.4 248.5 239.1 224.6 213.7 207.7 197.2 181.8 158.4 148.2 139.3 131.9 124.6 119 121.9 123.2 123.5 113.9 110.6 118.3 127.6 131.4 122.9 129.6 139.2 140.5 139.7 143.9 165.1 197.3 213.4 225.6 222.5 237.3 250.1 272.8 282.7 282.3 295.9 300.3 297.7 316.6 321.6 347.4 363.7 370.2 376.5 399.6 421.6 444.6 463.8 482.3 502.6 519.3 546 579.5 593.7 623.3 644.6 655.8 687.2 706.9 688.2 672.2 666.5 661.2 655.1 639.8 614.9 593.9 567.1 538.6 524.9 493.8 472.9 459.3 446.8 439.8 438 437.3 418.9 398.4 392.7 393.7 388.1 371.9 348.1 326.6 305.3 297.3 294.1 286.4 277.9 267.9 257.9 251 250.5 242.1 234.1 233.8 230.8 223.1 208.3 184 164.4 151.6 137 139.3
20.9 23 24.4 27 27.7 28.7 29.2 27.3 26 42.5 52.5 59.7 64.6 68.1 73.6 76.2 86.6 90.1 88.9 90.4 90.7 93.1 98.5 104.4 101.8 106.4 122.8 130.3 128.2 132.3 136.8 148.5 151.5 148.1 126.1 109.9 92.8 89.6 84.6 73.3 67.8 58.9 53.8 48.7 47.1 40.3 39.3 39.6 39 38.2 36.5 36.9 37.7 46.9 52.1 61.1 80.1 91.6 118.5 156.2 187.3 222.2 233.8 239.2 228.6 222.5 220.7 235.7 227.9 232 244.6 254.3 251.7 239.5 234.2 249.7 250.8 249.3 241.9 235 227.2 215.5 208.3 201.2 200.3 202.6 232.1 258.6 264.2 263.3 268.3 268.8 260.2 250.1 239.3 228.2 215.2 203.9 190.9 182.8 158.6 148.8 142.2 132.6 124.6 122.9 124.7 124.8 118.3 116.5 116 125.3 132.2 138.4 132 137.8 142.7 143.9 150.3 160.6 181.2 209.6 214.6 230.3 231.7 247.8 254.7 277.2 281.9 283 285.3 305.9 316.4 329 353.1 367.9 378.3 381 390.9 420.3 443.5 466.7 486.7 506.4 530.3 557.3 587.7 601 622.5 644.5 658.5 674.2 715.5 731 715.5 709.5 707.6 700.5 695.4 672.5 644.5 619.1 591.7 563.3 544.2 506 486.4 468.9 456.4 450.6 456 446.6 433.8 417 413.4 405.4 383.9 365.1 353.1 329 308.8 299.6 293.7 286.8 278 266.8 257.8 249.8 244.5 238.9 234 235.4 228.6 217.4 201.3 182.4 165.7 151 145 147
17.6 19.7 20.1 21.4 22.9 22.9 22.8 21.9 20.3 25.4 33.2 34 38.6 41.3 46.4 54.6 66.9 70.3 68 74.7 76.1 81.5 80.5 73.5 77.4 80.8 101 108.5 114.1 115.6 118.3 131.1 132 118 104.6 93.2 81.4 72.9 63.2 57.6 55.9 50.3 45 39.9 38 33.2 36.1 37.3 38.3 40 42.3 44.2 45.7 49.6 63.3 92.9 106.5 123.3 159 195 227.7 249.6 263.7 271.9 267 256.4 252.5 265.8 273.4 279.1 284.4 283.8 278.7 265.2 258.6 274.8 274.1 275.9 271.1 255.7 244.4 233.1 233.1 234.7 235.1 235.4 257.4 272.1 276.9 280.5 280.2 274.3 264.3 246.1 233.8 221.2 210.2 198 185.6 176.5 157.9 149.3 140.5 133.6 132.8 125.1 126.9 125.5 115.8 119.2 120.5 131.7 135.2 139.2 137 143.2 143.5 146.1 164.9 174.2 186.1 207.4 221.7 228.3 241.1 249.2 263.7 278.5 280.6 283.8 305.9 315.9 327.3 347.7 369.9 385.8 382.4 385.5 409 441.1 463.5 484.1 506 530.9 561.2 588.2 604 621.5 637.8 654.2 664.6 688.2 726.1 734.2 735.9 740.5 743.6 742.9 739.2 709.3 680 646.2 613.5 580.7 558.6 520.6 496 484.5 473.8 468.3 468.6 452.3 445.5 423.8 410.2 399.2 375.5 364 348.8 324.2 310.5 298.6 291.5 286.1 274.9 265.3 251.8 243.9 238.2 232.9 228.1 226.2 217 205.8 192.8 175.1 161.2 147.3 154.5 157.9
14.5 16.5 17.1 17.5 18.9 18.7 18.5 16.3 14.5 14.3 14.1 14.4 18.3 22.2 28.3 35.1 41.7 50.6 59.9 66.6 73.1 73.3 69.5 56.6 58.7 67.7 72 81.4 88.1 95.6 102.8 108 103.5 98.5 89 72.7 61.4 48.7 43.5 44.9 46.3 43.9 39.5 36.9 35 36 37.9 38.9 40.1 41.6 42.8 44.1 48.6 62.2 90.6 107.1 136.8 154 195 232.5 260.2 277 288.4 301.7 295.2 283.3 283.6 295.2 302.5 316 319.4 314.4 307.6 299.2 287.6 299.7 297.9 292.8 288.6 281.7 271.1 281.1 292.4 290 292.1 286.3 287.3 288.7 288 288.7 285.3 271.6 256.2 245.4 233.7 222.3 205.5 192.2 179.7 170.1 162 153.4 143.5 138 132.1 127.2 127.6 121 113.7 121.1 127.1 132.4 139.5 142.3 149.8 150.2 150 158.1 178.7 179.6 190 207.2 231.4 232.1 242.9 247.9 272 273.7 277.6 303.1 311.4 321.9 332.4 364.5 383.7 392.9 392.2 413.1 437.6 456.4 481 507.6 534.6 554.2 581.8 595.7 620.1 636.1 647.2 663.6 670.3 690.2 704.1 725.3 736.1 751.4 760.2 767.4 766.1 743.6 710 671.8 633.4 597 570.7 538.2 507.4 500 491.1 490.7 476.3 466.1 452.3 422.3 406.4 383.9 372 359.6 345.4 321.3 306.8 296.4 289.8 283.4 271 261 248.4 238 232.7 225.1 219.2 213.5 204.2 193.1 180.4 160.4 158.9 161.4 164.8 170.5
13.3 13 13.1 13.1 13.4 12.8 12.7 12 11.8 12.5 13.1 13.1 13.6 16.3 21.5 24.9 30.4 43.5 51.6 57.2 58.4 55.4 52.7 43.7 53.1 68.8 69.6 75.7 73.4 75.7 78 78.1 79.4 75.9 70.1 57.5 49.5 39.8 37.4 39.5 40.7 41 37.1 34.9 34.4 37.2 37.8 38.4 40.1 41.6 42.4 46.7 60.4 77.1 105.2 136.3 155 183.7 229.6 263.4 292.8 310.3 326.2 329.3 315.3 305.5 309.7 317.3 328.9 343.5 344.7 340.5 333.4 321 315.4 317 318 316.8 313.7 306.3 307.4 328.7 329.3 327.5 319 312.7 311.2 306.2 301.6 291 276.4 264.6 255.7 242.7 230.5 217.9 204.5 187.2 174.6 175.7 167.9 156 145.4 136.9 130.5 128.7 125.6 117.8 115.8 121.4 132.3 137.6 148.6 146.9 152.2 153.3 156.8 166.1 179.6 185 200.9 213.3 226.8 242 246.4 261.2 263.8 273.9 290 310.8 318.6 326.7 349.4 374.1 397.4 397.6 405.9 433.8 451.5 472.7 500.6 534.3 559.3 575.4 588.1 608.1 630.9 640.1 651.8 668.8 674.4 689.7 705.6 716.8 724.1 751.1 767.9 775.5 776.8 764.2 740.8 695.8 652.8 615 578.3 560 531.8 517.5 511.7 507.9 491.3 480.6 452.1 415.8 394.6 384.6 372.4 366.8 340.2 317.9 303.1 293.1 285.9 278.3 265.7 254.3 244.1 234.3 226.9 219.9 209.8 200.3 192.1 180.2 168.2 161.1 166.7 170.8 176.7 185.1
9.4 9.5 9.5 9.9 10.4 10.7 10.8 10.7 10.9 11.7 12.5 13.3 14.3 15.2 16.3 17 22 24.3 28 26.2 30 39.8 35.9 33.7 51.3 61.3 64.2 72.2 68 73.6 80.4 79.7 81 76.2 64.9 57.8 48.5 37.1 34.1 35.4 36.4 38.2 35 33.9 35.8 37 37.6 38.4 40 41.2 50.3 66.7 77.1 93.6 126.8 151.1 180 214.9 254.6 295.2 317.8 330.4 343.7 345.7 331 321.7 330.5 345.6 358.8 363.7 360.5 356.7 354 350.9 341.9 344.3 341 336.6 332.4 338.1 350.6 356.1 352.5 350.1 341.2 328 322.4 314.1 299.5 288.3 274.6 266 252.4 243.1 230 217.1 201.1 184.1 176.4 175.3 164.4 150.6 143.1 135.2 127.6 125.7 121 117.9 118.9 125.4 136.3 149.7 150.3 149.6 151.6 156.8 160.5 175.9 186.6 191.9 206 224 230.6 244.6 247.6 258.1 271.3 283.3 301.6 317.1 319.2 334.2 358.8 394.5 403.4 401.3 424.2 447.6 469.3 492.1 518.1 548.1 570.5 589.8 603.7 615.2 633.5 638.3 655.3 679.3 684.2 692.5 704.7 711.9 721.8 748 764.5 765 767.9 758.2 740.3 709.6 681.3 636.7 594.8 567.9 549.3 536.3 527.6 520.8 504.7 479 443.8 408.1 392.2 387.3 382.3 362.5 332.8 311.5 298.9 289.6 280.9 270.7 258.9 249.4 239.1 230.5 223.6 214.3 202.1 193.3 182.2 166.9 170.8 177.2 177.3 184.6 191.5 201.8
9.2 9.2 9.2 9.1 9.3 10.2 10.7 11 11.3 12.3 12.8 13.4 14 14.7 15.3 15.8 16.4 17.6 18.1 19.7 21.2 22.4 23.7 26.4 39.1 45.2 47.4 46.8 60.6 71.7 74.9 71.6 67.6 68.8 58.1 51.3 41 30.4 31.8 32.5 33.5 34.8 31.7 33.6 35.2 36.9 37.9 38.8 43.2 55.6 69 83.8 100.4 120.2 145.2 178.3 211 245 279.5 311.6 331.4 343.7 358 357.7 347.1 334.5 350.9 370.9 383.9 388.8 380.3 374 369.9 365.5 356.4 354.7 352.4 352.5 365 368.8 373.8 375.7 370.1 360.1 349.6 341.1 327.1 313 299.5 290.2 276.5 266.7 253.9 242.2 228.7 215.5 199.7 179.3 173.8 170.6 159.9 154.4 142.4 138.3 129.5 123 119.2 117.9 120.5 130.8 144.8 152.6 151.8 150.6 157.6 158.4 166.4 185.7 192.2 198.4 216.7 223.7 238.6 238.2 250.8 259.8 271.7 293.4 304 312.3 326.6 347.6 373.7 395.8 401.1 413 440.9 461.9 485.2 510.6 539.8 563.4 585.7 605.7 620 624.3 632.9 639.2 654.7 678.9 679.6 687.7 711 722.6 724.9 743.5 755.5 755 758.3 748.3 731.2 714.5 690.6 654.4 610.1 581.4 566.7 552.7 544.2 530.8 502.1 466.2 432 400.9 393.8 383.4 367 346.3 321.2 305.8 296 283.3 272.5 262.9 252.8 243.9 232.1 224 216.3 206.4 197.1 186 178.1 178.5 185.5 193.1 194.3 202.7 212.7 217.9
9 8.9 8.9 9 9.3 9.7 10.2 10.7 11.4 12.2 12.8 13.4 13.9 14.3 14.9 15.6 16.3 16.8 17.6 18.4 18.9 19.3 20.3 22.2 28.4 32.5 39.4 44 57 67.2 67.2 54.9 59.2 52.5 49.1 40.9 30.1 29.2 29.8 30 31.2 30.9 31.8 30.9 35 36.4 37.4 40.7 55.8 69.8 89.8 113.4 132.2 156.6 179.1 221.4 244.8 270.8 299.3 332.7 352.3 363.3 372.6 367.1 354.2 349.9 366.4 388.8 399.1 397.9 394.4 385 381.6 375.8 365.3 376.4 378.4 383.2 390 394.2 393 386 374.4 363.6 353.3 338.8 325.1 310.9 297.2 286.4 275.7 264.2 253.1 240.1 225.5 208.6 191.1 174.5 175 169.5 165.9 150.6 142 135.3 124.5 120 117.3 119.5 129.8 143.2 149 152.1 153.5 153.9 161.6 164.8 180.1 192.7 197.1 206 225.2 223.4 231.6 236.7 253.4 263.5 284.2 297.6 310.4 313.7 329.9 353.3 389.3 395.8 398.9 431 451.9 473.7 499.9 526.4 556.4 585 601 614.5 629.1 627.2 627.9 633.1 636.4 660.3 663.2 671 715.7 728.8 728.9 741.7 748.9 746.8 748.4 737.6 717.1 697.5 678.4 653.5 621.5 597.1 575.9 563 549.5 519.5 484.3 448 417.4 398.4 385.3 368.3 349 331 311 300.4 288.6 275 261.7 251.1 242.1 233.2 222 211.2 206.7 200.3 187.2 185.1 182.4 189.8 200 208 216.1 222.7 231.8 235.7
8.8 8.8 8.8 9 9.4 9.7 10.2 10.8 11.3 12 12.7 13.4 14 14.6 15.3 15.7 16.3 16.9 17.3 18 18.5 19 20 21.5 22.1 27.8 31.2 39.8 48.1 54.3 50.5 47 39.7 42.5 37.2 27.3 27.9 28.4 29.1 28.6 26.5 29 30.6 34.1 35.7 37 39.5 52.1 70 88.9 117.1 143.8 169.6 199.9 224.1 251.9 274 296.7 328.4 354.4 368.7 377.9 380.7 371.8 359.5 351.2 372.7 396.3 401.9 401.2 400.2 389.8 383.3 381.8 378.7 386.9 392.3 400.6 417 415.2 406.6 393.7 379.8 369.9 361.1 337.3 321.6 308.4 293.8 278.7 269.5 258.9 246 233 223.6 202.9 181.5 181.7 176.2 172.3 161.4 147.7 141.1 129.1 121.6 119.6 119.2 126.2 138.9 144 154.4 154.8 155.9 159.2 169.6 181.3 185.9 190.6 198.1 209.8 217.4 228.9 234.8 245.2 250 266.3 284.7 297.5 307.5 326.4 346.3 367.4 389.4 393 405 442.2 461.6 485.1 513.6 538.4 567.7 590 602.7 610.7 620.5 622.8 616.6 622.2 623.6 641.2 642.3 656.5 704.6 724.8 725.7 734.9 740.9 739.4 737.7 724.5 697.2 676.7 655 633.8 609.8 588.1 566.7 545.6 528.5 492.3 462.7 434.5 409.4 389.9 373.6 355.4 337 318.3 302.9 289.7 277.9 263.1 246 235.9 228.7 223.6 227.4 227.3 221.7 214.9 203.6 191.7 197.4 203.7 213 225.5 235.7 243.5 250.2 257.6
8.6 8.7 8.7 9.1 9.4 9.8 10.3 10.8 11.4 12 12.6 13.3 14.2 15.3 15.6 16.2 16.5 17.3 17.6 18 18.9 19.1 19.7 20.8 21.6 23.3 29.8 36 37.7 33.4 38.2 34.6 31.6 30.8 26.8 27.1 27.3 27.2 27.5 27 29 30.3 33 34.9 37.9 46.8 51.3 58.9 85.3 114 156.2 192.9 220.7 256.1 266.2 282.7 307.2 332.8 353.1 364.5 378.5 390.2 385.6 372.3 360.8 354.7 378.8 397.1 405.1 404.1 400.2 394.3 385.7 388.8 386.4 389.2 403.6 417.4 423.9 423.2 413.9 399.9 384.1 374.7 359.7 333.2 320.4 307.1 286.8 273.7 262.2 251.3 239.8 225.9 211.7 195.4 182.2 182.1 176.2 168.2 155.8 146.3 140.5 127.2 120.7 119.8 120.9 131.1 142.5 151.7 157.8 158.6 161.9 173.8 183.9 186.9 187.8 195.1 198.3 206.2 220.8 228.8 240 246.6 251.4 268.7 282.7 298.4 315.1 335.4 356.3 381.3 389.3 398.2 418.7 449.6 467.1 497 526.9 550.3 572.7 583.6 594.3 602 611.1 612.4 608.4 616.7 616.8 621.7 629.1 640.2 682.1 718 713.9 712.2 716.4 718.1 719.3 705.7 675.9 653.1 631.7 610.6 590.1 567.2 545.2 523.7 504 472.2 444.1 419.9 396.6 376.5 356.2 340.7 324.2 304.6 289.5 274.7 261.3 245.5 245.9 247.9 252.7 254 245.3 238.3 229.6 218.6 207.5 202.6 212 218.1 227 240.3 253.4 262.2 271.3 279.9
8.3 8.5 8.8 9.1 9.5 9.9 10.3 10.7 11.3 12 12.7 15.1 15.9 17.6 18.6 18.4 17.2 17.6 18.2 18.9 19 20.6 22.3 20.5 21.4 22.2 23.6 29.9 28.5 28.3 30.2 24.6 24.4 24.8 25.6 26.2 26 24.4 27 30.9 32.5 34.6 39.5 47.1 47.4 57.5 64 71.7 104.5 143.1 199.7 241.3 271.7 289.6 297.9 311.4 338.4 356.9 364.9 375.6 391.3 393.4 381.6 369.8 362.3 366.4 386 401.5 406.3 401.9 398.7 391.5 391.4 392.8 389 395.3 407.7 418.9 424.2 424.6 414.5 397.2 383 370.3 353.6 328.6 318.7 299.1 281.3 269.5 257.5 244.8 234.9 223.7 206.4 191.8 183.9 183.3 180.5 164.5 150.2 146.7 140.1 125.8 120.1 120.8 125.6 137.7 146 152.6 154.5 161.6 169.3 180.1 189.5 188.1 194.1 200.3 200.7 208.9 224.4 229.5 237.8 245.9 252.7 272.8 285.5 301.7 323.5 344.6 366.5 383.2 393.4 408.7 435.7 456.7 477.5 514.6 531.5 549.1 562.3 572.6 587.5 594.2 599.7 600.6 596.9 607.9 611.7 624.3 622 628.1 658.4 691.9 689.6 688.5 692.5 693 696.5 681 654.6 626 603.3 586.6 560.7 542.8 522.5 499.6 472.7 448.8 427.2 401.1 379.5 359.9 339.9 325.7 308.8 293.6 271.5 257.9 255.3 259.4 267.6 267.5 269.7 266.8 259.3 250.9 236.7 222.1 216.2 212.8 224.6 232.9 242.7 254.2 271.8 279.8 291.3 303.2
7.9 8.8 8.9 9.1 9.4 9.8 10.1 10.4 11.5 12.9 15.4 17.2 19.4 19.1 19.3 18.7 19.3 20.3 18.9 18.4 19.1 20.6 20 20.3 20.3 21.4 22.7 23.2 23.8 23.6 22.8 23.6 24.6 25.4 25.8 25 26 29.3 31 32.4 35.2 40.3 42.7 52.8 58.2 71.2 78.2 96.5 129.6 182.2 249.6 271.5 288.9 319.3 326.7 332.5 356.8 364.2 375.6 387.9 395.9 394.8 385.5 376.6 372 380.1 408.5 408.8 402.6 402.2 394.2 393.8 397.7 395.7 391.6 388.9 401.7 415.9 420.4 420.4 410.4 392.9 379.8 360.5 343.4 319.2 309.4 294.7 277.1 265.3 252.5 240.4 231.2 219.3 200.9 195.5 190 189.3 176.3 160.2 153.5 148.5 138 125.4 122.9 122.5 129.3 141.4 144.6 149.8 157.6 166.5 175 182 188.8 190.3 199.4 203.8 209.6 216.2 223.5 231.3 235.9 247.7 263.4 277.6 289.8 308.9 332.9 354 382.6 393.9 407.5 424.7 447.2 466.7 490.1 520.5 528.7 542 554.5 558.6 575.4 584.1 587.5 590.5 586.1 612.9 614.1 625.7 622 622 643.3 676.1 673.9 674.4 675.6 670 659.3 647.5 628.6 600.3 579.9 560.9 533.6 513.3 493 470.9 448.3 428.6 405.1 383.9 365.4 344.9 326 312.4 296.7 280.1 266.1 271.4 278.8 282.9 282.4 282.6 283.4 276 269 256 246.4 236.2 225.8 219.8 237.6 248.2 259 275.5 287.5 298.1 310.5 322.6
8 8.8 8.6 8.7 9.3 9.7 10 10.4 13.6 16.5 18.2 17.5 18.3 19.9 21.2 24 20 17 16.4 14.6 16.8 15.9 18.2 18.8 18.3 19.6 20.3 18.3 19.5 19.5 22.6 23.7 24.1 25 25.4 24.4 29.1 31 33 35.9 43.7 59 60 62.7 72.4 91.7 111.4 121.4 152.5 225.6 269.2 293.4 318.6 332.6 344.7 353.3 367.2 368 393.5 406.4 409 408.1 396.4 383 377.4 392 410.6 405.6 404.5 399.2 392.3 391.4 398.1 390 390 383.3 394.2 408.4 419.6 415.5 405.9 388.6 366.1 349.7 333.3 315.1 302 293.4 272.4 261 248.4 237.9 228.2 214.3 200 198.2 194.9 185.8 171.4 159 162.3 148.6 140.2 126 123.7 125 132.1 138.5 145.1 150.6 161.6 169.4 178.1 187.2 197.2 203 202.2 207 220.9 224.3 224.1 232 243.8 251.8 262.6 281.1 296.3 322.9 348 375.6 395.2 395.2 419.8 437.2 456.3 473.8 503 527.9 535.9 545.7 549.3 553.5 565.4 574.1 576 585.8 593.9 621.9 611 621.5 631.4 626.8 636.8 676.5 674 664.2 659.5 647.2 628.9 610.3 594.6 574.7 556.2 538.3 509 481.6 460.7 440.9 425.8 409.1 384.6 365.8 350.8 334.7 317.5 300.9 284.6 270.5 288.2 295.8 295.9 297.5 295.9 295.4 291.5 286.4 276 267.7 253.4 249.1 238.4 230.8 246.3 261.2 273.5 291.2 305.7 321.3 337.3 344.9
8 8.3 8.3 8.3 9.1 9.5 9.9 11.6 12.3 16.3 17 17.1 18.4 18.7 17.7 14.8 14.9 15.5 14.5 16.5 19.4 17.6 18.1 16.5 16.5 18.8 19.9 20.8 22.2 22.6 22.5 23.1 23.5 21.5 24.7 25.5 29.6 32.9 44.7 53.8 63.6 77.9 82.8 83.7 91.8 114.9 142 145 169.9 245.8 292 318.8 332.3 349.1 354.4 359.1 372.9 398.9 406.5 414 422.6 408 396.6 388.5 381.3 391.7 400.3 407.5 402.3 397.1 389 395.6 392.5 380.8 382.1 384.2 390.2 399.5 408.4 408.5 399.4 383.8 360 341.2 327.2 310.4 297.5 286.2 268.4 257.7 248 235.1 221.9 208.3 201.3 199.6 192.7 179.5 174 168.9 159.4 147.8 143.8 132.7 126.9 128.8 134.3 134.6 146.1 153.2 165.3 177.9 182.5 190.9 201.5 203.4 203.5 214.2 226.7 226.5 231 237.2 244.7 254 266.1 286.4 304.1 334.2 370.7 389.7 391 414.5 426.6 448.5 467 489.5 521 528.9 535.6 542.8 546.6 552 557.3 562.6 577.8 592 598.8 595.1 603.1 629.3 649.1 628 637.8 668.9 661.9 645.3 631.1 620.4 606.9 575.8 560.7 551.4 531.3 510.6 477.6 455 435.7 421.5 408.4 389.1 373 354.3 338.4 324.4 306.5 292.2 284.6 292.4 310.9 311.5 313.2 310.4 311 308 301.5 298.7 287 278.1 267.4 264.4 248 242 254 276 288.8 305.8 324.5 344.2 359.9 364.5
8.1 7.8 8.5 8.5 8.8 9.7 10.3 13.6 15.2 16.4 16.8 18.3 17.1 14.6 12.4 12.8 13.7 19.1 22.1 22.7 23.6 24.7 26.4 27 24.1 23 21.5 22.5 23 23.5 23.7 24.7 28.4 28.4 23.9 29.8 35.2 43.1 59.1 71.2 86.9 98.4 104.8 110.4 115.8 135.5 152 166.4 195.1 258.4 315.1 330.2 345.9 356.9 360.5 364.8 394.8 414.6 426.9 423.6 421.6 417.5 404.8 385.9 384.8 393.5 390.4 399 397 389 383.9 391.3 383.3 371.9 378.8 386 388.4 396.4 402.8 401.1 391 377.4 355.2 330.5 320.1 307.6 294.2 281 267.7 254.5 245 230.8 215.8 206.9 201.9 201.1 188.4 178.9 174.7 168.4 156.6 151.1 143.2 139.8 133.3 143.8 144 143.1 144.7 157.8 173.9 190 194.1 195.6 204.1 206.5 211.7 220.1 221.8 223.6 233.4 237.1 243.3 255.5 269.9 283.4 313.6 350 379.8 388.2 395.8 418.2 435.7 460.9 489 507 524 526.7 533.3 538 542 546.8 558.6 562.8 569.9 567.5 573.1 583.8 608.9 656 653.3 624.6 623.6 639 640.7 625.6 603.8 591 575.3 549.3 529.6 517.3 499.4 483 458.2 436 421.7 406.5 389.1 374.4 356.2 340.6 325.3 311.5 297 298.3 307.6 320.8 326.2 331.7 329.1 325.3 321.2 316.3 313.8 305.7 295.1 289.8 279.7 270.4 255.5 259.7 272.9 289.6 306.7 323.8 341.8 361.3 374.8 382.7
7.9 8.8 9.1 9.3 9.5 9.8 10.7 15 16.9 16.3 18 16.7 11.5 11.2 16 20.2 22.1 24.5 26.5 24.2 21.7 22.8 26 27.6 27.7 25.2 23.5 24.2 24.2 24.5 24.8 26.2 28.3 30.4 37.1 48.5 55.7 63.1 72.3 93.5 112.3 123.8 136.7 148.1 152.5 162.6 178.1 197.2 218.9 266.3 322.5 338.6 356.4 364 363.4 370.1 408.7 428.6 427.2 427.6 429.9 415.2 396.6 380.4 384.7 390.7 386.8 391.1 392.6 383.7 381.2 381.4 375.5 359.8 365.6 381.2 383.3 381.2 392.9 387.1 383.5 370 352.3 329.5 312.7 302.3 290.7 279.5 262.5 249.6 237.9 224.5 213.3 204.2 204.4 197.7 189.4 181.3 179 167.4 156.8 156.9 152 149.5 148.5 151.9 153.2 164.8 165.6 167.6 186.4 197.6 204.5 202 207.1 217.1 221 221.3 228.5 229.3 237.4 241.4 246 257.7 275.1 292.9 326.4 362.8 375.7 387.3 401.4 415.6 430 462.1 492.5 509.4 521.9 527.8 532.8 541.7 545.8 549.6 563.9 567.6 566.2 564.9 573.9 588 614.8 642.8 644.3 618.8 609.7 627 624.8 599.6 577 562.2 544.3 520.5 499.9 481.7 468.9 457.7 435.5 416.7 402.3 385.6 371.5 357.3 342.3 327 313.3 310.5 315 320.5 336.6 339.4 346.5 350 342.8 336.5 330.6 326.6 321.5 305.9 307.3 301.3 291.1 287 263.2 266.1 292.1 303.6 322.4 340.5 360.3 377.8 390.8 397
9.4 9.1 9.3 9.9 10 10.1 11.2 16 16.4 16.5 18.2 11.5 13.1 18.9 23.4 29.3 28.3 23.1 22.1 20.5 19.9 21.5 22.5 22.7 23 23.3 23.3 24.8 25 25.8 31.6 30.2 29 34.3 49.1 66.3 70.9 83.9 99.3 114.9 136.9 151.7 170.2 186.2 193.6 204.9 211.2 223.2 245.7 287.9 329.4 351.3 362.8 363.2 367.9 401.3 423.1 430.1 427 431.1 424.5 407.4 389.8 380.4 385.5 386.9 382.6 387.5 386.1 383.7 378.2 369.9 366.1 355.1 345.3 352.2 362.8 377.7 378 376.2 368.8 359 344.5 326.5 311.2 298.7 288.1 273.6 257.5 244.7 232.4 219.5 209.9 204.3 203.2 199.4 190.2 181.1 173.9 162.2 161.5 167.3 165.6 163 159.2 156.8 170.2 173.4 174.8 175.2 192.2 205.4 210.5 210.8 212.5 230.1 229 228.5 230.6 237.8 246.3 246.5 256.3 265.5 278.6 304.6 341.2 354 369.4 403 419.5 435.1 461.1 488.2 502 516.4 524.7 530.1 533.9 542 547 553.4 565.3 567.3 561.3 566.9 577.1 595.9 617.3 632.6 636.9 608.5 591 605.9 592.2 563 543.4 527.7 512.6 492.7 471.5 454.5 440.9 431.9 414.8 401.1 386 371 356.1 340.4 328.1 320.9 324.6 335.8 334.8 341.6 353.8 357.9 364.5 361.1 354.7 347.3 340.9 333.9 327.9 323.9 321.5 314.4 306.5 302.6 275.6 273.8 303.5 318.1 335.4 352.7 370.1 389.2 401.5 411.7
