ncols 200
nrows 84
xllcorner 350000
yllcorner 444900
cellsize 50
25 26.5 26.4 29.1 31.4 34.1 37.7 37.2 38 48.7 56.1 61.3 64.5 67.9 70 71.3 70.5 66.6 62.9 65.1 71.7 75.4 77.9 79.8 81.6 82.9 87.6 101.1 108.7 118.5 127.6 141.8 154 164 172.1 175.1 174.2 170.5 165.8 161.9 152.6 155.8 155.5 155.1 150.3 144.8 144.7 145.6 144.3 142 137.3 128.3 122.8 122.3 132.1 147.1 153.8 161.9 170 173.8 176.5 173.5 168.6 166.8 164 161.1 154.9 154.6 153 155.8 157.6 160.4 161.2 163.1 169 176.1 184.5 189 192.5 197.9 206.9 211.9 218.8 226.4 235.2 242.1 248.2 252.1 257.5 265.1 277 288.5 295.6 300.9 303.6 300.9 298.7 294.2 277.4 264.9 250 243.1 237.8 233.7 227.8 226.2 227.5 225.1 226.5 229.2 231.2 231.9 233.9 249.8 252.5 251.2 247.2 255.9 261.6 272 283.2 292.8 298.2 301.4 302 296.4 280.6 263.4 267.7 282.4 287 292.2 296.9 301.7 306.5 313 320.5 328.4 338.1 345 352.9 358.4 362.6 365.8 368.8 372.1 376.3 380.5 383.8 388.7 392.7 396.3 400.8 402.7 403.6 403.5 402.5 401.5 399.2 397.6 394.2 391.1 386.8 384.9 377.3 379 382.2 378.7 385.3 391.9 396.1 401 405.6 406.6 412.4 416.6 420.2 422.9 424.1 423.7 424.3 421.7 411.3 371.7 397.1 410.4 415.1 417.2 419.7 422.2 423.2 422.6 421.9 420.5 417.6 415.1 411.4 405.3 398.6 393.8
25.7 26.7 27 27.2 31.4 35 35.3 37.5 39.6 50.3 54.9 60.4 63.5 66.9 68.6 69.2 65.5 62.8 62.8 67.9 74.3 78.4 82.1 84.8 86.9 89.9 98.8 112.8 127.3 141.4 148.6 160 169.1 175.5 177.5 176.8 173.4 168.7 165.5 162.5 160.8 160.8 161.8 165 164.7 156.1 152.5 150.5 149.2 145.7 140.2 134.6 128.4 123.6 124.6 143.8 155.5 164.2 173.6 178.7 181 182.3 178.3 175.8 171.9 166.4 158.2 152.9 151.7 152.4 155.2 156.3 158.5 165.5 170 175.9 184.8 191 194.2 199.3 208.5 213.1 218.1 229.3 238 243.2 246.8 250.9 255.7 264.8 276.1 285.3 290.6 295.5 294.8 290.6 287.2 277.8 258.5 243.8 235.6 229.3 224.1 219.9 221.9 223.8 224.1 230.3 232 235.3 240.2 242.9 246.5 255.8 263.2 262.6 268.3 276 283.7 290.8 297.5 302.9 307.3 309.3 311.3 309.4 305.3 294.6 284.7 282.7 277.4 279.4 282.6 287.7 293.3 304 308.4 321.9 333 342.2 349.5 354.9 359.5 361.5 366.9 371.4 376.4 381 385.6 390.1 393.7 398.6 401.6 404.2 405 404.7 404.2 403.3 401 399.1 396.5 393.8 391.9 388.9 384.9 382.3 387.8 384.1 388.4 396.2 401.7 406.6 411.9 415.5 417.4 422.7 425 426.1 427.6 427.4 424.8 420.1 401.4 390.2 398.5 414.8 419.2 421 423 424.9 425.3 425.4 424.6 423.5 421.5 418.8 417.6 415.3 410.9 408.6
25.9 25.6 26.5 28.8 29.3 31.3 35.4 37.2 41.2 50.4 55.6 59.5 63.3 66.2 67.2 66.5 64.2 62.2 65.4 73.3 76.4 82 85.1 90.2 95 99.5 112.5 129 143.4 151.4 157.8 168.8 174.6 178.2 178.7 176.3 171.9 168.5 165.4 162.8 162.7 164.3 167.4 172.9 174.7 167.9 161 159.2 155 149.8 144.5 141.4 136.1 124.2 124.6 145.2 156.4 164.9 173.2 179 182.1 185.3 182.6 178.9 175.7 170.7 161.4 150.4 147.8 151.2 153.1 157.9 161.7 167.6 172.6 179.9 186.8 192.3 196.4 202.4 208.4 211.3 216.3 228.5 239.7 243.1 245.3 250.1 256.3 267.6 277.2 280.7 284.4 287.8 284.5 278.4 268.6 259.5 243 231.3 220.7 218.2 217.1 219 221 231.5 237.7 244 249.2 254.1 254.8 260.8 266.3 267.9 276.5 280.5 287.3 294.4 299.7 303.7 308.5 311.5 313.8 314.6 316.6 317.8 313.8 311.9 306.8 299.1 297.7 300.8 292.4 304.6 301.3 297.8 302.2 314.5 326 334.1 343.2 348 352.1 358.8 363.4 368.2 372.5 377.9 383.8 388.5 394.1 398.2 401.4 404.2 406.7 407.7 406.8 405.5 403.5 401.2 398.1 396.6 393.2 390.7 387.6 386.7 390.6 391.2 396.9 402.3 407.9 413 416.7 419.9 421.4 423.8 426.9 429 429.8 428.2 423.8 412.2 400.6 412.4 402 404.5 418.1 421.9 424.8 424.6 427.5 428.5 427.8 427.5 425.9 423.6 423.6 421.2 419 418
25.4 24.9 27.2 27.3 29.3 33.8 35 37.9 44.3 50.6 56.7 59.5 63.2 65.6 65.6 64.6 58 61.7 71.4 77.1 82.4 87 91.3 96.1 103.7 113.9 126.4 139.2 152.5 157.2 163.1 173.4 178.3 178.8 177.9 175.6 171.9 168.4 166.7 165.4 166.3 169.7 177.5 179.8 179.9 177.8 174.3 167 162 155 151.1 147.2 141.1 125.5 124.6 147.6 158.9 165.7 171.8 178 182.2 187.8 187.4 180.5 176.7 169.7 160.5 146.2 152.3 157.7 158.1 161.4 166.2 170.3 177.4 185.2 190.7 195.4 201.2 205.3 207.2 209.3 215.4 225.1 237.5 240.6 243.5 249.1 257.8 268.3 272.5 275.3 278.7 279.5 275.9 263.8 251.1 241.3 228.3 216.1 215 215.3 220.9 229.2 240 245.6 253 257.6 261 266.3 271 276.1 279.8 283.2 292.8 296.9 300.5 304.1 310.1 313.2 315.7 317.9 321.3 324.5 324.2 323.5 321.7 320.8 319.4 313.1 308.9 309.3 311 316 318 314.5 316.9 313.4 304.9 318 330.2 338 343.6 351.5 359.3 363.6 369.7 375.8 380.2 385 392.5 397.4 401.4 404.4 406.7 407.4 408.2 407.3 405.8 403.5 401.1 399.5 395.8 392.8 385.3 393.1 395 399.5 405.8 410.1 414.1 418.7 421 424.6 425.6 426.4 427.8 429.4 429.7 429.3 424.3 405.8 413.9 418.4 418.8 402.7 408.4 421.4 425.7 428.3 429.8 431 431.4 431.3 430.1 430.6 429.7 428.3 426 424.2
24.6 24.8 27.1 26.6 28.5 31.1 36.8 38.6 46.1 52.8 58 60.4 63.8 65.6 64.9 61.5 57.7 65.5 76.5 83.6 87.3 91.2 96.8 104.1 113.4 118.8 135.6 144.6 155.3 161.9 168.9 178.6 179.6 178.8 178.1 176.1 173.9 171.3 170 169.6 171.5 177.8 184.4 186.7 184.9 182.4 180.4 176.3 170.5 161.2 154.8 150.7 143.8 128.6 124.8 148.7 159.7 166 172.1 177.2 179.8 185.7 188.2 179.5 172.9 164.1 151.1 142 157.2 162.2 165.4 168.6 172 176.7 183.6 189.9 194 199.7 204 207.3 207.3 209.3 215.5 224.2 238.4 239.5 241.1 247.2 258.6 265.2 265.5 271 272.6 271.2 265.5 251.4 237.3 227.3 211.3 210.1 216 218.4 223.4 238.2 251.8 260.8 267 272 275.9 280.5 279.5 293.4 297.5 299.8 302.6 307.9 309.2 313.5 317.3 320.8 323.5 325.5 328.9 330.3 331.2 330.9 331.8 332.1 331.4 324.5 322.2 319.8 322.4 324 327.5 330 332.8 332.8 331.1 325.1 321.9 317.9 328 338.4 350.4 359 364.2 370.3 377 382.8 390.2 393.6 399.8 404.5 407.8 408.4 408.4 408.2 406.6 405.8 403.6 400.5 396.9 393.8 393.1 398 401.6 406.2 411.4 416.5 419.9 423.5 425.3 427.9 430.2 429.9 429.3 430.5 430.2 428.5 423 413.1 415.8 423.1 424.1 421.3 404.5 420.3 428.1 431.2 433 433.8 434.6 434.2 434.9 435.5 434.4 434.2 433 430.3
25 25.2 26.3 26.7 26.8 31.4 40.4 38.8 48.7 54.5 60.1 62 64.5 65 62.4 53.5 58.3 71.6 81 87.7 92.2 98.2 105.5 115.1 125.3 134.9 139.6 147.1 156.9 164.3 172.2 180.5 179.4 178.1 178.1 179.6 180.3 176.7 174.5 174.2 177.9 185.4 193.4 193.7 189.9 186.4 184.3 181.7 175.5 168.1 159.4 153.4 146.5 132.4 124.2 148 159.9 165.1 172.1 175.3 176.6 180.9 183.8 179.1 171.6 153.4 141.3 147.8 163.4 166.9 172.2 176.6 180.1 182.9 188.8 194 199.6 203.1 204.4 208.1 207.7 210.5 218.2 227.7 237.6 239.7 239.1 243.3 251.5 258.7 259 264.3 269.8 263.6 250.2 240.9 226.4 212.1 208.1 213 222.3 226 236.1 254 265.2 271.9 278.5 282.7 287.8 290.7 296.7 300.2 305.1 309.2 310.9 315.4 316.7 321.3 325.3 328.2 331.9 334 335.2 335.9 337.7 338.6 338.6 340.1 340.3 339.2 338.1 335.8 334.9 331.9 342.7 345.6 345.7 344.6 344.4 345.5 345.5 340.7 338.9 335.6 335.4 345.5 348.5 360.8 372 378.6 383.8 392.4 399.7 404.5 407.9 409.2 408.7 408.3 408 407.7 405.8 402.7 400.2 396.8 397.7 400.9 405.3 410.2 416.2 420.6 424.5 427.9 429.5 432.3 432.2 432.2 432.2 432.4 430.6 431 423.6 423.5 425 425.6 427.2 428.1 425.4 419.9 430.6 433 434 435.8 437 436.2 437.1 438.1 438.6 438 437.4 434.8
24.5 24.8 25.1 26.8 27.5 32.3 40.2 39 51.6 56.7 62.2 63.3 64.4 62.5 52.3 53.4 63.5 75.3 85.1 92.7 99 106.6 116 127.1 139.3 146.7 148.8 149.9 155.8 163.7 172.5 177.9 178.7 178.1 178.4 180.5 182.6 182.9 182.5 184.7 188.9 194.1 198.3 200 194.5 191.3 191.3 186 179.5 173.6 166.6 156 148.6 133.8 121.4 147.1 159.7 163.3 168.7 171.4 174 177.7 182.3 180.3 173.9 157.5 139.6 155.4 167.2 171.4 177.1 180.4 183.6 186.1 190.3 195.7 199.9 201.5 205.4 207.5 210.9 214.6 223.1 231.7 236.4 236.2 235.3 238.5 246.1 250.7 252.9 256.7 264.8 251.8 239.8 227.9 218.6 206.3 211 215 225.3 237.4 253.5 264.8 272.9 279.7 286.7 292.3 297.5 300.2 303.8 307.5 312.9 316.1 317 320 323.7 328.3 332.5 335.4 336.8 339.5 341.4 345 346.2 347.5 347.1 347.8 348.2 348.5 349.7 349.2 349.1 348.9 352.4 354.2 354.2 354.9 357 359.3 359.3 355.8 351.8 347.5 339.9 356.3 361.8 364.2 358 372.2 381.4 387.9 393.9 398.6 402.8 404.8 406.5 407.4 408.7 409.1 407.8 405.8 403.5 400.5 402.4 403.3 410.8 414.9 419.3 423.6 427.2 429.5 431.9 433.7 435.8 435.5 436.7 435 431.9 429.6 423.7 427.2 428.5 425.6 429.5 430.7 429.3 418 432.1 435 436.7 438.5 439.3 439.6 440.1 441.2 440.3 441.1 439.9 438.6
24.5 24.5 24.1 27.4 28.2 34.5 42.5 39.4 53.6 58.4 62.9 63.7 62.6 53.6 49.7 58 69.1 78.2 88.7 100.1 106.7 115.3 124.2 135.9 149.2 158.1 162.2 157.4 159.4 165.6 175.7 182.7 181.4 179.7 180.2 182.1 184.3 185.7 186.5 190.2 196.5 198.9 205.3 204.5 198.4 195.2 196.9 192.3 181.9 174.1 168.8 164 150.8 128.6 122.8 148.8 158.7 161 164.2 167.4 170.6 176.5 179.8 179.2 173.5 157.3 140.9 165.6 171.5 176.1 183.4 184.7 186.6 188.5 190.9 194.6 197.8 201.6 205.3 207.8 209.8 213.1 216.7 225.1 229.5 233 231.4 234.2 239.9 245.1 247 251.1 254.8 240 227.4 213.2 205.8 207.1 217.7 227.9 239.4 251.6 261.8 271.5 279.3 287.1 293.8 299 302.6 306.9 310.2 314.3 316.8 320.8 321.2 325.4 329.9 333.9 339.2 341.9 344.5 347.5 349.8 354 355.8 356.8 356.1 355.9 356.6 356.5 357.4 358.9 359.4 358.7 358.9 361.1 364 368.3 372.9 376.7 375.2 372.7 369.2 366.1 356.8 366.7 372.3 375.4 380 381.6 372.9 383.3 389.2 389.1 394 397.5 400.9 404.7 408.6 409.5 410 408.5 406.6 403.2 406 408.9 414.5 418.1 422.6 427 429.4 433.7 435.5 436.7 437.9 438.4 437.6 438.5 436.3 431.1 426.1 428.4 430.4 431.3 431.5 432.4 431.6 419.2 433.3 435.6 439.1 440.7 442 442.2 443.5 444.1 443.5 443.8 442.4 441.1
24.5 24.2 24.1 25.5 29.3 35.3 41.5 39.8 53 57.7 61.8 63.4 59.1 51 63.7 66.5 71.9 81.6 90.8 102.3 114.4 122.3 129.4 138.3 150.5 160.8 167.7 169.6 165.4 170.2 184.9 191.9 190.6 188.8 184.5 185.2 187.1 188.7 189.7 193.3 200 202.6 204.8 205.7 200.1 197.3 199 194.8 185.1 173.4 167.4 161.8 142.4 121.6 127.5 148.2 154.1 157.3 160.2 163.5 167.3 173.5 171.6 167.2 164.3 151.1 152.4 174.9 179.4 184.5 185.3 187.3 188.1 189.5 191.2 194.4 198.1 202.8 205.8 208.4 209.8 211 211.6 217.9 222.5 232.2 229.3 231.1 236 240.3 244.5 244.7 229.9 225.2 210.4 202.3 206.5 214.4 230.7 244.9 255 260 266.1 275.7 284.4 292 297 303.4 306.3 310.7 314 319.6 322.8 324.7 326.3 329.6 335.1 339.9 344.9 349.7 352.9 354.3 358.1 358.9 362.5 364.4 363.8 365.5 366.8 365.9 365.6 367.4 368.7 366.6 367.8 373.4 378.2 383 385 385.8 384.8 383.4 382.6 379.9 375.6 375.2 381.3 384.6 387.8 391.5 391.9 391.7 392.6 396.6 399.8 401.5 404.9 406.1 408.8 409.9 410.6 410.9 409.6 409.9 410.2 413.1 417.2 422.6 426 428.9 433.6 435.9 438.1 437.2 439.9 439.9 440 439.2 435.8 431.3 431.1 430.2 431.9 432.8 433.2 433 432.9 422.5 434.6 438.7 441.4 442.8 444 443.5 445.9 446.4 446.6 445.5 445.2 442.5
23.9 23.6 24.7 25.2 30.9 35.7 40.1 40.4 50.6 54.9 58.8 58.3 46.8 58.3 63.3 69.5 73.9 84.3 93.6 102.5 116.3 125.9 131.5 139.8 148.6 160.8 167.4 178.1 176 180.8 189.5 189.4 193.5 197.2 199.9 196.2 193 192.5 195.6 200.2 204.5 206.6 203.7 202.1 199 198.5 196.6 194.8 181.6 172.7 162.5 153.7 134.1 120.2 131.3 147.7 152.2 155.4 157.7 160 161.5 160.1 154.8 146.6 142.5 133.5 161.7 177.4 183.4 185.3 186.7 187.7 188.3 189.3 191.2 194.3 198.6 203.4 208.5 210.8 212.6 211.9 210 212.7 218.8 226.8 222.6 226.5 231.6 234.6 237.5 225.8 214.9 209.9 201 205.4 221.5 233.3 244.4 254.5 262.5 269.7 276.4 281.9 287.8 295.4 302.4 306.7 310.7 314.4 320 323.1 327.5 330.1 333.3 335.5 340 343.6 350.8 356.8 361.1 362.5 366 367.7 370.8 370.4 371.3 371 372 373.6 375.8 377.3 377 374.9 377.9 383.6 390.1 392.6 393.4 393.2 391.8 391.1 390.6 387.8 383.6 381.6 389.2 393.4 397 399.1 400.3 401.2 402.4 402.9 405.6 407.1 407.4 409.3 410.1 412.8 413.4 414.7 414.8 415.9 415.6 419.3 422.1 426.7 430.7 434.1 435.6 438.2 440.5 441.5 441.9 442 441.7 438.6 438.5 436.8 433.2 430.9 432.3 433.6 434.6 433.2 434.3 426.2 434.9 438.8 443.4 445.8 447 447.8 449 450.3 449.9 449 446.8 444.2
23.9 23.9 24.8 26.3 33.2 37 39.7 42.9 48.4 51.3 56.1 48.4 59.3 63.8 67 72.8 79.6 86 96.6 102.6 115 126.2 130.7 138.8 148.2 159.8 168.1 181.2 184 186.8 185.2 186.2 189.7 198.2 201.3 205.2 206.2 203.7 209.2 212.7 211.4 209 204 200 196.4 195.6 194.1 185.8 171.1 163.7 155.3 149 128.3 120.2 134.9 150.3 153.3 153.1 152.1 149.1 148.6 146.8 136 130.7 133.9 160.8 161.3 176.4 182.6 185.1 186.4 186.5 188.5 190.1 192.8 195.1 199.1 203.4 208.2 211.6 213 211.8 210.8 208.1 215.5 217.3 215.9 221.1 226 227.7 221.9 216.1 204.6 200.8 200.8 221.2 235.6 247.9 252.9 260.3 270.2 276.9 284.6 288.8 294.6 300.5 306.6 311.3 314.5 320.2 323.9 328.9 331.7 334.8 337.7 342.5 344.5 351.5 358.1 362.7 367.5 370.7 374 376.3 376.8 377.1 377.3 377.8 378.8 380.8 382.5 383.1 382.9 383 384.3 389.8 396.8 399.9 400.8 399.7 398.3 397.7 397 395.1 390.6 391.6 395.1 399.9 402.6 406.1 406.8 409.6 409.8 411 412.3 412.4 414.1 415.7 418.6 421.5 422.6 422.3 422.1 421.6 420.1 424.1 427.5 430.2 434.2 436.9 438.9 440 442.5 443.2 443.7 443.6 443.1 441.5 440.6 438.2 436.3 435.5 436.7 436.9 436.3 436.7 433.6 433.8 438.3 440.8 444 447 449.3 451 452.4 453.7 452.7 451.7 448 444.9
23.6 23.9 24.8 26.5 26.8 31.4 40.1 41.4 45.9 49.2 49.5 43.7 59.7 66 70 75.2 83 88.1 95.6 103.4 112.5 124.9 130.1 137.4 145.8 157.4 167.2 182.6 187 187.2 184.8 186.1 186.4 191.4 196.7 200.5 205.4 209 211.2 213.5 212.6 209.8 207.5 202.6 197.5 192.9 180.9 174.4 165.5 152.5 147.4 146.2 127.7 120.2 138 147.9 139.5 136.4 130.7 129.5 129.8 127.1 131.2 141.7 157 170 172.8 175.1 178.1 183 186.2 188.1 190.1 192.2 194.2 197.3 201.1 204.3 207.4 210.1 211.5 210 209.1 205.9 212 213.1 210.5 216.1 214.4 213.4 212.3 207 199.7 203.8 223.6 235.4 247.6 258.4 264.1 270 275.6 283.8 291.5 297.1 301.5 306.1 311 315.1 319.4 324.3 330.6 334.1 337.9 340.8 344.6 348.9 353 359.1 364.9 369.4 375 379.3 381.1 382.8 383.5 382.8 383.4 385.1 385.5 387.4 389.2 389.3 390.3 389.3 392.8 396.6 402.6 405.9 408 407.4 406.7 406.4 403.5 401.1 395.8 399 402.1 405.1 408.8 411.8 413.5 415.6 416.7 417.7 417.7 420.1 420.5 423.7 425.2 428.6 430.5 431.1 429.8 428 428.3 429 431.9 434.9 437.3 440.5 441.7 443.7 445.3 445.9 446.1 445.4 444.7 443.2 442.2 440.1 439.1 438.8 439.9 438.7 438.3 440.3 439.2 439.5 443.3 443.2 446.2 448.1 450.3 453 454.3 456 455 454.3 449.6 447.6
23.2 23.7 25.2 28.9 32.3 36.6 40.1 36.1 38.6 42.4 46.1 57.1 62.4 66.6 72.1 76.6 81.2 86.9 95.7 103.2 114.2 124.2 131.1 137.1 146.4 158.6 169.2 179.4 183.3 182.5 180.9 184.3 186.9 188.8 192.1 196.5 200.7 207.5 206.8 206.1 203.6 200.9 198.8 197.5 193.9 178.6 168.4 153.1 145.8 139 135.6 137.1 122 120.2 124.4 125.7 120.2 120.3 126.2 136.8 138.5 131.5 153.9 166 173.1 180.1 188.5 186.6 186.6 185 187.4 189.4 192 194.2 196.7 199.5 203.7 206 207 208 208.4 207.8 207.1 204.8 207.7 209.7 206.4 211.7 206.7 205.7 202.8 196.8 201.9 222.1 235.2 245.5 256.9 266 271.2 276.6 282.2 288.5 295.4 300.5 305.5 311 314.9 318.9 325 331.4 335.1 339.6 343.2 347.7 351.1 355 361.3 367.9 370.2 377.3 381.7 384.6 387.4 388.8 389.1 389.3 389 391.1 392 393.5 395.5 395.8 397.9 398.7 398.6 403.3 408.2 412.2 413.7 414.6 413.4 411.5 407.5 405 403.3 402.9 406.6 410.8 413.9 415.6 417.8 420.2 421.8 424 424.4 426.2 426 428.8 431.6 433.4 436 437.4 436.6 434.2 433.3 432.1 435.9 438.3 441.1 442.6 445.1 447.1 447.5 448.4 447.8 446.8 445.8 443.4 443.2 441.8 441.5 441.1 442.5 442.7 441.8 441.8 443.9 444.4 444.4 445.3 448.5 450.6 453.2 456.2 455.7 458 457.1 454.6 453.2 450.2
23.6 23 24.9 27.8 31.9 37.6 40.1 42.5 45.4 48.9 53.4 59.2 63.8 67.7 71.1 77 81.1 87 96.2 105 115 123.4 131.4 137.8 149.1 159.6 166.4 172.4 176.7 177.8 176.3 180.2 179.1 180 190.8 189.6 198.3 200.3 194.2 188 183.9 178.4 175.5 173.8 175.9 165 148.2 140.9 128.5 121.2 120.1 119.8 120.2 120.2 120.2 120.3 140.3 154 157 162.1 165.1 162.2 167.5 180 187.9 186.6 186.6 186.6 186.6 188.3 188 191.7 195.6 196.9 199.4 201.5 206.6 207 205 204 203.7 203.2 202 201.6 205.4 205.3 204.3 202.6 201.2 197.4 195.5 203.8 219.4 233.6 245 253.8 262.1 270.2 275.8 279.6 286.4 293 299.3 304.4 308 314.8 318.6 324.2 328.9 336.3 341.1 344.4 349 353.7 357.6 363.3 369.3 375.1 378.5 382.5 386.5 390.1 392.5 394.1 394.4 395.2 395.6 397.4 399.3 400 402.1 402.9 403.4 405.1 405.4 411.5 415.2 417.4 419.7 420.1 418.9 414.7 412.5 409.8 408.6 409.1 411.5 414.3 416.7 419.8 421.6 423.9 426.5 427.7 428.5 431.4 433.9 435.6 437.7 439.7 441.8 443.2 442.2 440 436.5 438.7 439 440.8 443.2 445.1 447.9 448.9 449.9 448.9 448.3 447.7 445 443.7 444 443.3 442.3 442.7 444.1 444.9 445.2 445.6 445.9 446.5 448 449.8 451.7 451.3 456 458.8 459.8 460.8 460.9 458.9 454.7 451.4
28.1 23.4 24.8 29 32.7 37.6 39.7 44.2 47.3 48.8 53.2 58.6 63.4 67 71.2 76.5 81.1 87.1 95.7 104.8 115.4 122.7 131.2 138.5 148.9 155.9 161.6 164.9 168.8 172.9 167.3 168.2 168.2 164.4 162.9 165.4 186 181.8 172.1 162.3 154.8 152.9 154 157 154.2 150.1 126.3 121.9 120.2 120.2 120.2 120.2 120.2 130.2 149.1 160.1 165 162.8 164.2 166.3 171.8 171.9 174.7 187.4 186.6 186.6 186.6 186.6 186.6 186.6 187.3 194.6 199.1 199.4 199.7 200.1 205.2 205.1 201.2 198.3 196.3 194.3 199 204.2 203.4 200.8 198.8 194 192.4 195 204.6 216.6 229.3 239.6 249.2 257.3 266.2 271.6 277.6 283.4 289.2 296.3 301.9 306.4 312.3 317.6 324.6 328.9 335.2 339.8 345 350.6 355.9 359.2 364.8 371.2 375.6 380.1 383.2 386.5 390.7 394.2 396 398.6 400.2 400.7 401.5 402.7 404.6 405.8 407.5 408.8 410.5 412 412.6 416.7 421.1 423.6 424.6 424.8 422.2 419.4 417.2 414.3 414 413.9 415.6 418.5 421.5 422.5 426.4 428.4 431.4 433.7 435 436.7 439 440.3 443.8 445.8 447.4 449.1 447.3 446.3 444.8 442.7 442.6 443.8 445.4 447.2 449 449.2 449.9 449.1 445.8 445.8 445.1 442.1 439.9 441.6 441.8 444.3 444.3 446.4 446.6 446.4 445.8 448.6 449.9 452.2 451.6 456.1 455.4 459.8 461.2 461.6 462.2 459.6 457.2 453.6
23 22.8 27.6 28.3 32.5 37.5 40.2 44.3 47.6 51.2 54.9 58.8 63.7 67.1 71.1 75.8 79.9 85.8 95.1 105.4 114.8 121.4 130 138.1 146.8 152.1 156.9 157.1 158.9 164.2 150.5 147.8 146 135.3 130.7 143.4 155.5 150.2 146.3 142.8 144.8 139.6 142.9 137.1 135.7 130.5 119.2 120.2 120.2 120.2 120.2 121.6 137.5 157.1 171.2 170.4 170.5 173.2 176.1 179.5 185.4 188.4 186.6 186.6 186.6 186.6 186.6 186.6 186.6 186.6 187.7 190.7 196.1 197.7 196.1 198.8 200.1 199.9 196.3 192.8 191.1 192.1 193.6 199.1 190.1 187.3 189 187.7 200 202.7 215 223.1 232.2 241.6 249.7 258.8 267.5 273.5 278.5 285.8 292.2 299.3 303.3 309.8 316.8 321.8 327.6 333.3 339.3 343.3 349.6 355.4 359.7 365 372 377.1 381.2 384.4 388.6 392.5 395.2 397.7 400.7 402.6 405.5 406.4 406.9 409.4 409.2 411 412.4 415 416.6 416.3 415.2 420.3 424.1 426.1 427.5 427 424.7 421.8 419.8 417.9 417 418.1 419.5 421.9 424.1 426.5 429.7 432.9 436.7 438.6 440.3 442.6 444.4 445 448.7 452.2 453 451.5 453.2 451.4 450.1 448.4 446.7 445.9 446.7 447.4 447.8 448 447 444 440.5 442.7 440.6 439.6 436.7 437.1 441.2 443.1 444.7 447.1 448.5 449.5 449.2 448.4 451.7 454.1 455.6 457.6 459.7 461.1 462.9 463.6 464.5 462.8 460.7 455.8
23.2 28.5 28.1 27.4 35.6 39.6 39.8 43.6 46.8 48.8 54.5 57.9 61.5 65.8 70.1 74.1 78.2 84.5 95.7 105.1 113.6 122.3 129.9 137.6 146.4 149.8 150.6 144.1 149 143.3 129.3 123.2 117.6 110.5 110.5 121.2 129.6 126.7 125.8 129.9 132.8 126.9 120.4 114.1 111 107.1 101.9 121.8 120.2 137.6 154.2 157.2 160.6 166.8 169 180.1 188.5 186.6 186.6 186.6 186.6 186.6 186.6 186.6 186.6 186.6 186.6 186.6 186.6 186.4 185.8 188.1 192.5 194.4 193.6 194.9 195.9 195.1 191.2 188 185.9 186.1 182 182.3 186.1 188.2 189.4 204.4 208.1 212 217.7 224.9 234.3 243.2 251.7 260.5 268.5 274.6 279.2 288.4 295.6 301.3 305.2 311.9 317.4 324.1 329.2 336.3 341.5 347.3 353.6 358.1 362 369.1 377.5 382.3 385.6 390 393.2 396.1 399.6 401.9 404.1 407.2 409.3 411.5 412.5 413.7 415.2 416.1 418.1 420.7 421.4 422.6 421.9 423.4 425.2 426.4 427.5 426.7 424.6 422.4 421 419.1 418.4 420 421.2 422.9 425.6 429 432.7 434.6 439.4 442.8 444.8 446.1 448.2 450.9 451.9 453.4 453.9 453.8 454 452.4 449.9 447.8 445.5 445.8 445 444.1 444.3 443.2 440.3 438.2 436.3 434.8 433.1 433.3 431.1 434.5 438.9 441.8 445.1 447.9 449.4 450.6 451.8 450.8 454.6 455.8 458.2 459 461.4 463.5 465.2 465.8 465.7 463.3 460.9 454.9
22.8 23.4 23.3 34.7 37.1 39.2 41.7 44.7 48.1 51.2 53.5 57.5 60.5 64.1 69.4 73 78.4 83.9 93.8 103.6 113.1 122.8 130.8 138.6 145.3 146.8 142.4 132.2 126.6 116.5 105.8 101.4 97.4 99.6 96.8 99.6 110.1 110.9 113.2 112 104.7 100.9 95.8 95.2 97.5 108.1 116.2 126.1 134.6 153.4 161.9 168.6 168.3 168.6 174.7 187.7 186.6 186.6 186.6 186.6 186.6 186.6 186.6 186.6 186.6 186.6 186.7 190.7 189.2 188.1 185.5 183.4 188 191.2 192.6 190.3 190.8 189.1 186.2 184 184.7 179.9 182.5 188.6 191.6 195.6 199.2 202.8 205.4 214.5 221.2 229.2 236.7 244.9 251.9 260 268.2 275.2 279.4 288.9 296.3 301.9 307.2 313.1 319.8 327.3 333 339.6 344.4 349.3 355 360.1 364.5 372.1 381.6 387.3 390.4 393.5 396.9 399.8 402.9 405.9 408.5 411.5 414.6 416.1 417.2 418.7 420 420.9 423.2 424 425.5 426.3 425.1 424.9 423.6 423.2 423.6 423.5 422.1 420.9 420.2 416.6 418.4 419.6 421.1 423.5 429.6 433.2 437.9 442.2 447.1 450.1 452.4 453.9 454.5 453.8 453 451.9 449.7 450 449 447.3 445 443.5 441.3 439.9 437.7 437.4 436.1 434.5 431.1 430.1 429.1 428.1 427.6 427.4 423.4 430.5 435.1 439 441.9 447 450.6 452 453.4 455.2 457.8 460.1 460.4 464.1 465.6 464.3 467 467.1 465.4 464.4 460.4 456.3
22.4 22.6 28.9 31.4 37.6 38.9 42.1 45.2 48.3 52.4 57.2 58.1 58.9 63.6 68.8 72.1 77.5 85.5 91.7 101.1 112.8 122.7 130.6 138.2 143.2 144.4 134.9 128.7 114.2 105.8 101.2 97.7 93.6 86.8 84 84.4 86.9 89.4 90.6 89.4 88.8 93.4 109.4 123.5 128.1 137.8 146.7 132.3 143.6 157.8 169.1 177.7 173.7 174.3 176.6 181.7 186.6 186.6 186.6 186.6 186.6 186.6 186.6 186.6 186.6 191.4 192.3 193.1 195.5 191.5 187.6 182.3 184.5 188 189.5 188.7 185.7 184 182.1 181.9 177.8 180.8 185.6 189.2 193.3 197.2 201 205 211.7 219.2 224.4 231.9 238.1 246 253.9 261 269.2 276.5 281.8 288.6 296.3 301.6 308.4 314.1 320.8 331.3 334.5 341.1 346.4 351.7 357 361.6 366.1 372.2 384.4 389.4 393.7 396.7 399.2 403.9 407.5 410.5 413.2 416 418.2 421 422.6 424 425 426 426.2 426.9 427.7 427.9 426.8 424.8 421.8 419.4 418.7 417.3 416.7 417.6 416.3 414.2 418.8 421.5 421.8 424.8 432.8 437.7 442.3 446.2 449.9 452.9 456.1 457.7 458.6 457 453.8 450.3 444.8 441.5 438.7 437.4 433.8 431 428.2 426.9 425.9 423.7 422.9 422.5 423 423.2 422.7 421.4 422 420.9 422 426.7 430.4 434.6 441.6 446.7 448.5 453.3 456.5 458.3 459.2 462.3 465 466.5 466.1 468.5 467.8 467.8 466.8 464.4 461.3 457.3
23.1 23 22.7 28.8 37 38.9 41.9 44.7 48.5 54 58.6 59.6 60.8 64 67.7 72.2 77.4 85.7 89.4 98.3 109.6 119.2 126.7 133.9 131.1 122.2 115.5 105.4 97.3 90.4 85.4 82.7 76.4 77.8 79.5 80.7 82.7 85.2 87.4 96.4 111.8 125.3 137.7 149.3 150.4 156.9 161.5 155.9 154.1 168.1 170.4 179.7 183.6 185.2 184 186.3 187.1 186.6 188.3 190.4 190.3 186.5 186.6 187.8 192.5 198.1 200.5 204.1 202.4 196.8 189.3 182 182 184.9 185.4 185.5 182.9 179.7 176.5 175.4 177.1 182.8 187.8 192.7 196.8 200.3 203.4 207 213.2 222.8 230.3 235 240.7 247 252 260.1 268.5 275.7 281.4 290.5 296.4 302.4 310.2 317.2 325.6 330.5 335.9 341.1 347.5 353.3 357.7 362.2 368.7 380.3 387.5 392.5 396.3 398.7 402.4 406.4 410.5 412.6 415.4 418.1 420.5 423.6 424.5 426.7 427.1 429 429.5 429.3 428.4 426.8 425.2 422.4 418.2 414.9 412.8 413 412.5 412 412.6 411.4 418.5 419.4 422.3 424.9 432.1 436.2 440.6 442.9 445.9 448.8 451.8 454.3 455.2 453.8 450.5 445.4 439.2 433.8 430.1 425.2 421 417.4 415.4 413.9 414.1 412.8 412.9 414.9 415.2 415.1 415.5 415.6 414.7 414.2 419.1 423.7 428.8 433.5 438.7 445.9 449.5 454.6 455.9 460.7 464.1 465 468.1 468.9 469.8 470.3 469.1 469.4 466.9 465 463 457.5
22.6 22.1 22.9 23.9 36.2 38.8 41.1 44.6 48.7 54.1 58.1 59.4 60.5 63.6 67 72 75.8 83.2 88.5 96.7 105 113.1 118.1 116 98.1 87.7 77.9 74.5 81.4 73.4 75.7 85.9 91.5 96.2 96.7 97.7 96.7 93.2 100.6 117.5 137.1 148.4 158.8 162.8 163.8 165.1 167.8 171.5 171.4 173.5 175.6 185.4 188.2 188.7 188.6 189.6 192.2 192.2 192.1 193.9 192.6 191.8 191.5 192.8 198.2 204.4 208.8 209.7 207.9 202.1 193.1 184.1 180.3 181.6 182.3 181.3 178.7 175.2 174.7 174.6 177.9 185.4 191 195.8 201.1 203.9 206.2 209.7 214.8 228.2 237.4 240.6 244.9 249 254.2 259.8 267 273.4 282.5 292.6 297.8 303.4 313.2 323 328.1 333.2 338.6 342.8 348.5 353.9 359 363 370.2 381.4 387.1 392.4 397.1 400.4 400.9 406 409.8 414.2 418 420.5 424.3 426.5 427.7 428 429.5 430.1 428.7 428.4 426.2 421.9 418 414.7 412.5 409.5 406.4 408.3 408.8 408.6 408.3 411.5 415.7 418.3 417.7 426 430.8 434 437.2 438.8 441 443.5 444.1 443.6 443.6 441.3 438.5 435.4 431.2 425.7 420.4 413.4 407.3 405.4 404.1 403.9 404.1 402.1 401.8 404.1 405.3 406.8 407 406.7 401.6 408.9 416.4 421.5 425.9 431.8 437.9 444 451 453 456.7 461.1 467.1 468.9 469.6 471.9 472 470.7 472 471.5 470 466.8 463 458.9
22.3 22.7 23.1 29.3 34.9 38.7 40.5 43.8 47.5 54.7 56.7 59.4 60.6 63.7 66.2 71.8 76 81.6 86.1 93.5 101.7 107.9 111.8 104.3 81.4 70.7 68.8 70.4 71.3 83.6 97.6 106 110.3 116.8 120.1 123.3 126.5 122.9 131.1 140.3 153.9 163 166.5 169.3 172.3 175.6 177.3 179.4 178.2 179.2 181.9 190.2 188.2 188.2 188.2 189.9 194.5 197.4 199.7 197.9 198.9 195.9 196.9 204 207.7 211 212.4 213.6 211.4 206.4 197.9 184.8 179.1 177.8 178.8 177.6 174.6 172.7 173.1 178.6 182.7 186.5 191.4 198.2 204.2 207.1 209.7 212.4 217.2 227 236.7 239.1 245.6 251.7 254.2 259.4 265.6 272.9 283.9 293.9 299.9 306.3 313.6 321.5 326.9 333.5 338.8 343.9 349.3 354.3 360.6 365.3 372.1 380.5 384.5 392 396.7 400.2 403.5 406.4 411 414.7 418.7 421.3 424.4 427.3 428.5 429.6 429 427.3 425.8 424.3 421.2 415.7 409.3 404.5 400.3 398.2 397.2 400.5 402.9 403.8 404.4 409.2 411.3 414.1 414.5 423.2 426.9 430.6 431.8 433 433.8 435 434.7 432.5 430.2 429.6 427.7 424 419.5 413.5 406.2 397.2 392.2 389.9 388.5 387 385.5 384.4 387.7 390 392.2 394.9 394.9 391.7 377.4 400.5 408.8 419.1 424.6 431.7 437.2 443.7 448.8 454 459 463.7 469.2 471.4 471.8 474 473.8 472.1 473.7 473.7 471.7 468.6 466.5 462.2
22.6 23 22.7 25.4 35 38.4 39.8 43.4 48.5 53.7 57.3 59.8 60.8 62.4 65.5 70.4 76.2 79.9 81.9 89.9 96.6 104.5 103.9 86.5 68.3 66.8 68.4 75 90 105.3 118 123.8 129.1 135.1 139.2 142.5 146.8 148.9 154.3 158.8 162.3 164.8 169.1 174.5 177.9 180.4 181.9 182.8 183.5 183.9 188.2 188.2 188.2 188.2 188.2 188.5 195.9 202.3 204.4 204.6 202.4 201.6 202.3 205.7 212.7 214.3 213.7 215.4 215 209.8 199.3 187.2 179 176.3 176 171.3 168.6 172 178.5 180 182.2 187.4 193.6 199.2 204.6 209.2 211.5 213.7 218.3 227.1 236.9 238.7 243.2 249.2 253 260.7 266.7 271.8 283.5 293.4 300.1 307.4 313.6 319.5 325.7 332.9 337.7 344.3 349.5 354.5 362 365.5 372.4 380.1 387.1 392 395.7 401.1 404.9 408.3 412.3 415.8 418.9 421.9 425.1 427.2 427.8 427.9 426.9 424.1 421.7 418.3 414.7 408.8 401.9 396.5 390.8 391 390.8 392.5 395.6 398.6 402.8 407.3 410.3 412 413.4 419.8 422.8 423.7 424.3 426.3 425.1 424 422.8 420.2 418.9 416.6 414.2 411.3 406 398.8 390 381 376.2 373.2 369.5 365.1 364 365.1 368.4 372.5 375.4 378 378.8 368.4 374.5 377.7 397.6 415.7 424.9 430.3 436.9 441.6 448.8 453.8 459.6 466.7 471.7 474.5 475.1 475.5 475 476.4 476.8 476.2 475.6 471.9 468.4 463.3
22.7 22.4 22.4 27.7 32.9 37.9 38.4 41.9 48.1 53.3 57.5 59.9 60.5 62.1 64.3 68.9 73.5 78.6 81.8 86.7 90.7 92.7 81.6 69.2 64.8 67.1 82.7 94.2 109.9 117.5 124.8 130.6 135.1 141.7 144.5 147.7 151.8 154.3 156.3 161 164.7 166.6 169.9 175.8 179.9 182.8 183.5 186 188.2 188.2 188.2 188.2 188.2 188.2 188.2 188.2 195 204.2 206.2 206.4 204.3 202.7 203 207.3 213.8 217.3 215.4 216.1 215.5 211 200.9 183.1 176.7 174 172.9 166.9 170.2 176 177.5 179.5 181.4 187.6 194.2 199.8 204 209.1 212 214.5 218.4 226.7 234.1 237.7 242.4 247.4 253.4 261 265.5 271.3 283.2 293.7 300.9 306.3 312 319.3 326.4 332 337.9 342.9 349.1 354.4 360.4 365.6 373.1 378.4 387.1 392.4 397.1 402.5 406.1 409.4 412.8 415.9 418.9 422.4 425.1 426.4 425.5 425.6 424 420.5 417 412.5 407.5 401.3 393.6 386.2 382.3 383.2 383 384.2 379.6 390.6 398.7 403.7 407.9 410.4 410.7 412.9 415.4 416.6 416.2 415.5 413.9 410.7 408.1 403.9 400.5 397.6 394.8 389.6 383.5 376.4 367.4 359.3 351.4 346.4 342.9 338.4 336.6 338.8 344.8 353 358.8 364.8 364.2 351.2 354.1 360.1 393 417 426.5 431.8 438.8 444.8 450.1 453.8 462.4 469.2 473.6 476.6 477.8 477 478.6 479.7 480.7 479 477.7 474.7 472 468.7
22.5 22.2 23.3 25.2 30.4 37.6 38 42.2 47.2 52.7 56.4 58.9 60.3 60.7 63.1 66.8 71.3 74.6 77.8 76.7 79.4 77 62.7 62.3 66.9 86.2 98.3 105.6 113.3 119.4 125.9 132.5 133.8 140.3 143.1 147.9 152.5 155.1 157 161.4 165 167.3 170.1 175.1 179.7 182 188.2 188.2 188.2 188.2 188.2 188.2 188.2 188.2 188.2 188.2 192.8 202.5 205.4 206 206 203.8 204 208.3 215.7 216.7 214.7 215.3 213.6 209.2 200.2 180.9 175.3 171.3 171.2 167.7 170.2 174.9 176.9 178.2 182.1 186 193.3 198.9 203.7 207.4 211.1 213.7 217.7 226.1 232.9 236.5 240.3 246.5 254.1 260.4 265.6 271.7 282.2 292.1 299.1 304.5 311.4 318.1 325.7 330.9 337.4 342.6 350.1 355.4 359.7 367.1 374.3 378.4 387 393.2 398.4 403.9 407.6 410.6 413.8 416.7 419.3 421.9 422.8 423.2 420.9 420.1 417.2 413.3 408.7 402.5 394.2 384.3 376.7 371.7 369.3 368.8 372.2 368.5 381.9 389.7 395.8 400.3 402.8 404 402.6 401.5 405.3 405.2 401.5 394 389.4 384.6 379.8 376.6 373.7 371.7 367.1 363.2 358.9 352.1 342.6 333.1 323.3 315.1 312.5 308.1 307.9 305.7 314.8 323.3 335.4 344.5 338.8 325.1 339.1 372.6 400.5 417.8 428.4 434.2 439.8 447 452.1 457.2 464.3 470.5 474.8 478 481 482.3 483.4 483.5 484.6 482.2 479.8 478.4 473.6 471.7
22 22.2 22.6 23.7 29.3 37 40 40.9 47.2 51.5 55.5 58 58.9 59.8 62.1 66.1 70.5 74.1 72.1 65.1 61.4 60.1 60.7 66.3 86.1 105.4 109.2 112.4 115.9 122.6 129.3 134.1 130.9 136.5 142.2 148.3 152 154 157 161.6 165.8 168 170.1 175 178.5 181.7 189 188.2 188.2 188.2 188.2 188.2 188.2 188.2 188.2 188.2 191.6 200.9 204.9 206.4 209.2 207.4 204.8 208.8 214.3 213.9 213.2 212.7 211.3 205.6 194 178.8 172.7 169.8 166 164.3 172.2 173.8 176.1 177.4 181.5 184.8 190.9 196.2 200.5 205.4 208.9 212.3 217.2 223.5 230.8 234.3 239.2 244.2 253.2 259.1 265.1 271.2 279.6 288.1 296.4 303.3 310.8 317 323.6 330.5 336 342.8 349.4 353.9 359.7 367.2 374.1 381 387.7 392.2 398.5 404.1 407.5 411.5 414.4 417.8 418.4 418.1 417.5 414.9 414 411 407.8 402.2 391.6 380.9 371.5 365.5 360 356.2 351 346.6 349.2 358.9 379.7 386.8 392.2 396.5 398.6 398.8 396.2 388.7 388.2 379.5 371.4 365.3 361.1 357.3 353.3 349.9 347 343.4 338.3 333.3 327.6 321.1 313.1 304.4 295.3 286.9 283.3 278.1 278.8 279 286 294.1 309.8 320.9 310.2 323.1 357.2 381.6 401.6 418.3 429.4 437.6 443.5 448.6 455.1 460 466.2 471.3 478.1 481.5 484.4 487.5 488.4 488.1 486.3 485.8 484.8 482 478.2 475
22 21.8 22 28.4 29.2 36.6 37.9 43.7 48.1 51.9 54.8 57.5 58.7 60 63.2 67.4 70.6 74.8 70.5 65.1 58.2 58.7 61.6 78.6 99.3 108.5 114.9 119 122.3 127 130.6 129 128.1 135.6 140.9 146.8 150.1 152 155.9 160.9 166.4 168.8 169.7 172.8 176.8 180.8 184.3 188.2 188.2 188.2 188.2 188.2 188.2 188.2 188.2 188.2 192.4 200.1 205.4 206.7 211.5 210.9 208.3 209.4 212.9 212.9 211.9 212.5 211.2 202.5 187.4 176 170.6 168.4 164.5 167.5 171.2 172.7 175.5 177.5 180.5 183 188 192 197.9 202.7 206.2 209.9 215.4 221.5 227.1 232 236.5 242.4 249.5 257.6 263.1 268.8 278.2 286 295.1 301.7 309.1 316.2 322.6 329.4 334.1 341.6 347.3 352.3 357.9 366.7 374.3 380 387.5 392.3 397.9 402.7 407.5 410.6 412.7 414.6 414.1 411.4 409.9 407.2 405.5 401.7 396.3 383.7 368.2 356.9 350.5 342.8 337.7 332.1 327.4 320.8 340.9 362.9 376.3 383.5 388.9 392.2 393.3 392.7 387.9 378.8 361.9 351.5 343.8 337 331.1 327.7 325.3 321.4 317.2 315.7 311.5 306.9 300.9 293 286.7 277.4 269.9 262.5 258 257.2 257.2 261.9 265.4 272.3 286.6 290.9 295.9 331.9 365.4 382.4 398.1 415.6 428.3 438.6 445.5 449.5 456.7 464 469 474.7 480 484.9 489 490 491.5 491.7 489.2 487.3 487.7 483.6 481.8 478.3
22 21.3 22.5 31.4 33.7 37.6 36.6 44.9 49.3 52.7 55.3 56.8 58.7 60.7 64.6 68 72.1 75.8 67.9 57.8 57.5 57.3 61.7 83.1 100.9 107.5 114.9 120 123.5 126.8 126.2 124.6 128.8 134.4 139.5 144.7 148.1 149.7 154.2 159.6 165.6 168.6 168.5 170 174.3 177.7 179.7 186.6 188 188 188 188 188 188 189.9 188.7 193.5 199.4 204.7 207.2 209.1 213.3 211 212.7 213.4 212.7 212.9 213.2 212.5 200 182.5 172.6 162.6 162.1 163.9 167.5 170.1 172.2 175.5 177.7 180 182.8 186 190.1 194.5 199.5 203 207.9 212.9 217.6 223 228.2 233.9 243.7 251.6 255.7 261.6 267.4 275.4 285.4 293.5 301.5 308.4 315.2 319.9 326.8 333.3 338 344.7 350.7 357.6 365.6 372.9 380.4 385.3 391.5 396.7 401.2 405.6 408.3 409.9 409.2 406.8 403.5 399.9 397.9 394 385.9 372.5 360.3 346.2 334.8 326.9 318.4 311.4 307.6 298.7 326.6 348.6 364.3 373.4 379.3 383 384.8 384.6 381 373.6 361.2 331.1 325.8 318.6 309.3 303.7 301.9 298.9 296.6 292.6 287.7 282.6 276.4 271.3 265.9 260.6 256.9 253.3 249.9 247 250.9 254.1 256.5 262.4 268.5 273.8 283.6 310.1 342.9 367.1 380.4 394.3 410.3 424.9 438.2 446.5 453.4 458.5 463.1 469.4 475.8 481.8 486.6 491 492.6 493.9 495.6 493.4 492.6 488.9 488.5 485.8 483.9
21.6 21.2 23.6 32.6 35.1 33.8 36 45.6 49.6 51.9 53.8 56.1 58.5 61.5 65.1 68 72 75.5 66.9 56.7 55.6 56.2 63.4 78.7 96.3 104.9 111.3 116.4 119.6 123.3 122.1 122.9 127.2 132.2 136.8 141.5 144.8 147.2 151.7 156.8 164 167.4 167.3 168.2 170.8 172.7 174.2 177.4 188 188 188 188 188 188 189.6 191.8 194.6 199.1 203.1 206.1 207.6 211.7 212.5 214.3 215.6 214.5 217 215.6 211.3 199.1 180.5 168.8 159.6 161.9 167.5 167.5 168.7 173 176.8 179 180.1 181.5 184.3 187.8 192.2 195.9 199.5 204.2 208.6 216.7 224.2 229.3 236.2 243.8 250.4 254.3 259 267.1 272.2 282.6 292.3 299.4 305.6 310 316.5 322.7 330.5 334.7 342.5 347.2 354.8 362.1 370.8 377.9 383.6 389.1 394.4 398.8 402.9 405.5 404.9 402.9 400.4 396.1 391.3 381.7 369.3 358.5 348.2 337.4 325.5 314.1 305 296.7 290 286.7 307.1 333.6 351.3 363.7 369.8 373.1 373.8 374.2 371.4 364.2 353.3 337.7 320.8 299.4 295.6 288 283.3 281.4 279.9 277.7 274.3 268.4 262.8 258.4 256.4 253.7 251.8 247.7 243.1 242.4 245.7 247.7 253 257.3 269 274.5 278.7 282 304.7 331.3 359.5 377.6 392.6 405.8 421 434.5 445.3 453.6 461.3 465.7 472.4 478.5 483.4 486.9 493.5 496.2 498.5 498.4 497.2 495.5 495 493.4 491.2 489.1
21.4 21.8 26.7 31.8 33.8 35.3 35.6 44 48.8 51.6 54.2 55.6 58.8 61.9 64.7 67.4 71.1 72.9 66.8 53.8 54.7 54.7 60.6 77.1 93.8 103.1 108.3 112.4 117.5 121.7 120.5 122.5 126.3 131.3 135.4 139 141.6 145.6 151 156.7 162.4 166.1 166.9 167.6 169.3 175 179.8 181.6 184 188 188 188 188 188 190.8 193.8 197 199.8 202.1 204.9 207 210.5 214.1 214.6 215.5 215.7 218.2 217.1 209.5 197.2 179.8 170 161.2 159.9 160.8 168.4 168.5 173.1 175.5 175.7 177.2 179.1 183.2 185.9 188.3 192.4 197.4 202.4 206.7 215.4 221.6 225.2 233.6 242.3 248.7 254.2 259.4 264.2 270.2 277.1 289.1 296.1 302.1 306.7 313.3 321.8 326.5 331.5 338.5 346.1 352.4 357.9 366.9 374.5 381.4 386.3 392.9 396.7 398.4 400 398.6 395.4 392.6 387.5 371.7 355.4 343.8 333.3 322.3 314 305 294.8 284.8 276.3 274.2 290.2 313.4 335.5 350.1 358.4 363.8 364.2 361.2 353.7 345.6 336.7 327.7 315.3 302.2 286.2 277.3 271.2 267 266.6 264.2 262.4 258.8 255.3 253.6 249.7 248.4 247.7 243.5 239.4 238 242 247.6 253.6 261.4 273.7 285.5 290.3 292.6 295.2 294.2 310 340.6 372.5 392.7 405.8 419.5 434.3 444.7 453 460.1 467.2 473.2 479.4 485.1 488.6 494.2 499.8 500.7 501.7 502.4 501.9 499.1 497.2 496.1 492.2
21.4 21.1 25.1 29.5 33 32.7 35.3 41 47.3 50.5 53.3 55 58.4 60.7 63.4 66.3 69.6 72.2 71.1 53.8 52.7 53.5 60 76.5 93.9 101.8 105.6 111.2 116.7 120.1 118.8 123.1 126.3 131.2 134.8 137.7 140.3 144.5 150.8 156.3 161.6 164.3 165.4 166.2 167.8 173.4 179.6 183.4 183.1 188.1 188 188 188 188 192.4 195.3 197.7 199.2 202 204.4 205.9 211.2 215.3 214.5 214.8 215.3 216.4 217.2 209.7 194.4 178.8 170.1 163.7 155.6 160.3 165.8 168.8 170.4 174.1 175.7 178.9 180.4 178.4 182.6 183.2 191.5 197.1 201.5 205.8 212.8 212.2 222.3 228.3 239 244 253.1 258.6 262.5 268.5 273.9 283.6 292.1 297.6 303.4 308.9 317.3 322.2 327.9 333.8 340.7 348.2 354.5 363.6 372.8 378.3 383.8 388.7 391.2 392.1 392 391.7 389 382.5 365.7 348.1 333.1 320.4 310.8 301.1 294.1 287.6 277.5 268.1 263.6 272.8 294.2 313.8 325.9 335.1 341.5 342.9 340.9 337.7 329.6 320.9 312.7 304 293.2 282 272.1 266.2 260.4 256.4 254 253.9 252.5 250 248.1 246.5 242.8 242 239.8 236.8 233.4 239.5 246 252.3 259 271 286 299.1 306.6 309 311.3 315.5 314 332 367.3 391.5 405.3 418.8 432.2 443 452.9 459.6 467.7 473.6 480.5 486.2 491.9 496.6 502.7 503.4 505.2 506.2 504.7 503.2 502.5 499.9 496.1
21.2 22.1 30.9 30.7 31.5 29.7 35.3 37.9 45.7 49.6 52.4 54.9 57.5 59.8 62.3 65.2 68.8 69.6 68.6 51.7 51.3 54.5 68 80 91.9 98.3 101.1 105.7 112.4 114.6 119.8 125.6 125.4 129.4 131.7 133.8 138 141.2 147.5 152.6 160 163.9 164.9 165.1 165.8 171.2 176.9 180.2 182.7 183.2 188 188 188 188 191.8 194.3 196.6 198.8 202.8 204.3 206.4 209.3 216.3 215.8 215.5 215.6 215.6 216 209.3 193.1 178 169.6 163.9 157.2 163.5 166.7 171.2 173.3 175.3 176.9 180.3 183.3 186 187.5 190.5 192.8 190.2 196.6 202.8 208 213.1 220.3 228.4 235.8 240.9 249.5 256.6 260.4 267.1 270.6 278.3 286.9 293.7 299 304.2 311.8 318.7 324.9 330.7 336.9 343.9 349.3 358.3 367.8 373.5 378.8 383.1 385.5 387.1 385.8 384.3 377.4 363.2 342.5 325.5 312.4 300.7 292.4 286.7 278.7 271.2 263.4 258.4 258.8 270.4 291.4 304.3 313.5 318.8 321.8 320.8 317.6 312 305 291.5 290.2 281.3 272.9 266.3 257.4 254.7 252 248.3 245.9 245.6 242.9 242.6 240.8 238.2 236.2 234.9 231.8 230.9 234.1 245.6 251.1 254.6 263.2 281.3 297.4 311.3 321 327.1 328.6 327.6 332.5 328.1 359.4 375.3 397.6 414.5 428.6 442.2 451.3 461.2 469.7 476.2 481.1 486.7 493.1 498.8 502.7 505.9 510.5 510.9 510.8 508.2 507.2 503.5 502.6
20.6 25 31.1 33.4 32.8 29.5 35.7 34.7 44.5 48.6 51.5 54.5 56 57.9 60.5 62.7 64.1 62.7 58.7 49.9 50.2 58.2 75.3 75.2 83.5 87.9 95.8 99.6 100 113.3 118.5 121 123.7 126.7 128.4 131.5 137.2 143.5 149.3 155.6 162 163.8 165.4 164 163.8 168.9 172.9 177.1 179.3 181.7 189.6 188 188 190 190.6 193.8 197.4 198.8 201.6 204.5 206.5 209.2 215 217.3 216.5 214.9 214.1 214.3 207.8 192.4 176.7 166.8 159.1 156.7 163.5 168.7 170.6 173.3 176.3 178.1 181.4 185.8 188.6 190.4 193.1 195.8 198.7 200.4 200.7 199.4 206.5 214.3 226.3 233 237.6 247.6 254.1 258.4 264.1 268.4 273.3 282.1 288.3 295.2 300.4 306.9 314.4 321.1 327 332.6 338 343.4 353.7 362.4 367.7 372.8 377.6 379.9 380.6 379.4 371.4 358.7 339.2 320.4 305.4 294.8 286.2 279.4 269.2 266.2 261.3 252.8 251 257.1 268.3 283.9 292.4 298.8 303.1 305.3 303 298.7 289.1 284.9 276.5 271.7 264.9 260.1 255.1 248.6 247.4 243.9 241.8 239.2 237.1 234.4 233 232.1 231.3 230.4 229.5 227 231.2 243.2 249.5 256.6 262.2 270.4 286.6 306.2 322.6 333.6 338.8 339.7 340.3 340.7 343.3 361.3 375.1 403.9 423.9 435.6 445.7 453.9 461.8 469.9 477.4 482.8 488.1 496.2 502.2 505.2 509.1 513.3 514.1 515.2 511.6 509.1 508.2 504.8
24 25.7 30.5 32.3 31.9 31.3 32.7 34.4 43.1 47.4 50.3 52.7 53.2 55.1 56.4 55.2 53.9 50 47.8 48 48.9 65.3 77.2 83.3 83.5 82.5 85.6 95.2 106.7 113.1 117 118.9 121.1 124 127.3 131.6 137.4 143.7 149.1 156.5 163.7 166.4 166.6 164.7 163 166.4 170.3 175.1 178 180 182.7 184.7 186.6 187.4 189.2 192.9 198.5 199.6 199.1 202 205.1 208.9 212.3 216.7 215.6 213.4 212 211.2 205.4 192.5 176.4 163.9 155.8 155.6 166 170.6 173.4 176.7 178.3 179.6 183 187.3 190.9 193 198.4 202.1 203 203.4 205.7 210.1 212.7 209.3 217.2 229.1 235.3 242.2 248.8 254.1 261.6 266.5 269.6 277.2 283.3 290.8 297.5 303 309.6 318.7 325.2 329.4 333.5 339.2 347.7 357.3 364.2 366.2 370.2 371.9 372.3 367 354.9 334.1 317.2 300.5 288.9 281.6 275.2 267.8 259.9 255 253.6 248.4 246 252.2 261.5 274.7 283.9 288.2 290 288.1 283.2 278.1 269.1 264.9 261.3 255.8 252.7 251.9 246.4 241.6 239.3 237.1 233.6 230.3 229.9 226.3 226.3 226.3 226.3 226.5 223.5 228.2 235.7 243.6 249.1 259 265.4 275.5 295.2 314.1 332.6 344.9 349.9 348.8 356.4 357.3 362.2 366 384.6 405.9 426 439.4 448.2 458 464.9 470.4 478.8 486.6 492.2 498.1 504.4 507.4 512.1 516 516.4 516.4 516.3 514.1 510.5 509.9
20.5 21.4 29.2 31.3 30 29.6 32.3 34.1 42.3 46.3 50.2 50.6 50.3 48.5 44.3 44.1 44 46.1 46.6 47.3 52.8 69.9 78.6 84.2 88 82.7 82.7 96.2 107.4 112.5 114 115.7 119.8 123.2 127 131.3 137.3 143.1 148.9 156.8 166.7 170.5 169.4 166.7 163.3 164 168.8 173.5 176.9 179 181.8 183.7 185.8 187.1 187.9 189.8 192.9 195.7 196.5 199.1 201.9 207.4 211.7 214.8 214.5 211.9 210.5 209.3 203.1 191.7 175.4 159.9 151.5 160.9 169.7 172.2 175.3 179 180.4 181.5 184.2 188.8 192.7 196 202.7 205.7 205.9 205.7 208.2 210.2 215.6 219.5 217.1 221.3 233.2 238.5 246.5 253.2 258.3 261.6 265.4 271.9 280 286.5 293.5 299.8 306.2 315.4 322.8 326.8 331.6 334.8 340.8 348.9 355.9 359.8 361.6 356.1 360.4 349.5 329.1 313.5 296.9 285.4 276.8 270 264.5 259.7 254.8 250.1 245 243 243.1 249.2 254.6 265.3 272.3 274.3 274.6 271.4 267.3 259.6 254.4 251.3 250 247.1 243.7 242.4 240.2 235.9 232.3 230 226.2 224.8 220.1 219.5 219.8 219.9 220.8 221 224 232.6 237.6 244.6 253.1 261.4 271.1 283.3 298.4 322.6 340.6 355.1 365.3 371.9 377 376.7 371.7 369.8 391.8 410.9 429.8 443.6 452.8 459.5 468.5 474.1 481.7 489.9 495.5 499.1 505.2 509.8 514 517.6 518 517.6 517.1 515.8 514.8 512.3
21 23.7 26.7 30.5 31.3 32.4 31.5 33.9 40 44.9 48 46.3 40.6 40.1 41.3 42.5 43.1 43.9 44.6 50.6 64.2 73.4 79.7 83.3 86 75.8 83.2 92.1 97.3 106.9 113.4 116.7 118.8 123 125.7 131 136.5 141.9 148 156.2 167.9 172.7 171.9 168.3 165.4 161.7 166.9 171.3 175.2 178.1 181 182.5 183.8 186.4 186.7 187 188.6 190.8 194.2 196.1 199.6 203.7 209.7 212.4 212.5 209.7 208.7 207.3 201.9 188.7 174.4 159.4 152.6 153.7 168.6 171.6 175.5 179.4 182.3 183.3 185.8 190 193.6 197.9 202.5 204.7 205.9 206.1 209.4 212.8 217.5 221.9 226.1 226.1 226.5 238.4 244.3 251 255.1 256.9 262.8 269 277.5 283.6 290.9 298.2 304.6 312.9 319.7 324.4 329.8 332.4 333 335.8 346.3 353.2 354.3 333.3 333.7 325.1 309.5 293.4 284.1 275.7 268.5 260.9 255.8 253.5 248.9 242.8 238.2 236.4 239.8 244.3 250 257.8 263.4 265 264.7 262.1 254.3 248.4 244.1 240.8 238.6 237 235.3 232.4 230 229.1 228.2 226.3 222.5 217.5 215.5 215.3 211.6 214.9 216.6 224.7 230.3 234.4 239.4 247.1 255.4 263.2 274.3 291.5 306.3 325.4 349.7 365.9 380.6 388.9 390 386.6 381.6 384.9 393.1 412.3 432.2 445.3 457.6 465.9 473 477.9 484.6 493.4 499 502.6 506.2 510.9 516.2 519.8 518.6 518.5 517.9 516 514.3 513.6
20.7 22.5 28.6 31 31.2 32.3 30.5 33.4 37.3 39.4 41.3 37.8 38.9 38.1 38.8 50.7 47 43.5 46.7 52.2 65.8 74.7 78.7 76.8 72.9 77.2 88.4 98.3 104.5 110.3 112.2 115.7 118.3 122 125.5 130.4 135.5 141.2 147.1 155.6 167.5 171.2 172.4 169.7 166.8 161.4 162.3 169.2 173.5 175.6 179.5 181.7 183.7 185.7 187.3 186.1 185.4 188.3 191.7 194.2 197.2 201.4 207 210.2 209.9 206.8 207.4 209.8 203.1 188.9 171.8 157.8 152 153.9 167.9 170.2 174.8 178.1 181.1 184 186.7 191.5 195.5 197.9 201 202.7 203.9 206.1 210.9 215.1 220.3 226.1 230.8 235.5 230 231.2 234.5 243.4 253 255.9 259.3 265.1 271.5 280 289.8 296.8 303.7 310.1 316.5 323.7 328.9 331.8 334.4 331.5 328.8 328.2 337.5 333 312.3 305.1 292.2 282.8 275.3 267.8 260.4 253.5 249.3 245.2 241.7 236.8 232.7 233.3 237.5 243.3 247.9 253.5 256.4 257.9 256.6 252 245.5 240.7 234.8 231.6 232.2 229.1 226.1 223.8 224.4 224.6 224.5 223.2 219.6 212.3 211.4 209.5 215.1 222.9 226.8 229.7 233.9 238.7 246 251.3 258.6 269.4 280.1 297.3 315 338.6 357.4 375.6 393.9 407.4 406.3 400.3 401.1 405.7 412.9 417.1 428.7 446.5 459.3 469.9 477.2 482.1 488.4 495.6 502.5 505.8 510.1 512.5 515.3 520 520.2 519.1 519.3 515.9 516.7 514.7
20.7 22.4 28.7 31 31.5 31.4 29.6 32.4 34.8 36.5 36.2 37.3 37.5 45.8 52.3 56 59.7 55.9 47.7 52.9 61.9 72 77.1 66.7 76.5 88.5 96.5 102 106.2 110.6 112.8 115.2 118 121.5 124.8 130.2 134.2 140.3 146 154.6 164.9 169.4 170.6 169.1 166.7 161.6 160 164.7 173.4 177.9 179.6 181 182.7 184.4 185.9 184.9 184.5 186.9 190.4 193.6 196 200.3 203.7 206.8 206.5 204.4 204.6 208.3 202.5 187 170.7 156.4 151 154.6 166.7 168.8 173.1 176.6 179.3 182.6 185.9 191 195.3 200.1 201.8 202.5 203.9 206.1 212.8 217.7 224.6 230.9 236.4 239.2 237.3 237.7 243 243.5 246.8 250.5 255.4 262.5 274.7 284.5 292.4 299 305.4 309.7 317.1 323.7 328.7 332.6 334.6 340.1 334.3 325.7 314.9 314.3 302.9 292.6 286.1 275.8 268 259.5 251.6 246.9 243.2 239.3 235 230.2 226.3 229 236.4 240.8 245.1 248.4 250.8 250.6 247.5 244.8 239.8 233.2 229 225.2 224.4 221.5 219.9 219.2 219.9 220.3 219.8 220.4 218.5 208.9 206.9 218.6 223.5 227.4 231 233.5 238.3 244.2 249.2 256.1 268.2 276.7 289 305 321.7 340.6 362.1 382.1 402.7 419.3 421.4 418.1 418.8 423.1 424.2 431.4 440.8 449.1 458.4 473.2 479.1 487.1 490.8 499.3 502.8 507.4 512.8 513.9 516.1 517.9 520.4 521.4 517.1 515.5 514 514.2
21.5 22.1 26.5 30.9 31.7 31.9 29.4 33 33 34.9 36.1 35 45.8 50.7 53.7 58 60.6 60 52.7 51.6 57.3 69.7 73.3 64.9 78.9 92.1 98.4 103.2 105.6 109.7 112.1 114.5 117.3 120.5 125.3 129.8 135.3 140.5 145.4 153 162.9 166.2 168.3 166.9 164.3 159.8 158.2 163.5 172 177.3 178.9 179.9 181.3 182.8 184.1 183.4 184.1 186.5 190.1 193.5 196.2 198.7 201.1 203.8 203.2 202 200.9 204.6 197.8 188.7 172.6 155.7 147.6 157.5 166.3 168 171.9 174.8 178.1 180.3 185.2 189.5 194 199.1 201.8 202.5 204.6 208.4 213.9 220.5 227.7 235.7 240.1 241.7 241.5 242.1 245.3 248.4 251.8 253.6 257.3 265.2 273.9 285.7 294.1 300.2 305.8 310.9 317.7 325.4 329.9 333.8 334.1 333.2 331.4 324.5 310.5 294 283.5 279.1 273.3 269.2 262.3 254.3 244.2 238.7 236.7 232.4 228.8 223.7 224.2 229.2 234.2 238 239.8 241.5 242 241.3 240.9 237.7 232.7 228.5 225 220.2 217.7 213.6 215 214.2 214.9 215.7 215.2 216.8 217.3 210.1 206.6 212.9 222.5 227.2 231.2 235.4 240.7 247.2 254 263.7 273.3 282.5 291.4 306.9 323.4 341.9 364.2 386.4 407.9 427.2 431.3 428.8 432 434.2 437.4 443.3 455.2 463.6 472.3 477.2 485.7 489.8 494.8 501.2 504.9 508.8 513 515.4 516.3 517.5 518.7 519.6 517.4 514.7 512.6 513.3
22.2 22.4 26.4 30.9 31.2 31.5 31.4 32.4 32.6 32.8 34.7 43.6 46.8 49.9 54.3 57.3 59.9 61.5 59 53.3 55.2 58.9 61.7 67.1 79 90.2 98.6 102.9 105.1 108.6 111.1 113.5 116.6 120.1 124.8 129.1 134.4 140 145.5 152.3 161.1 163.6 165.6 165.2 162 157.9 156.7 162.2 170.3 174.8 175.2 176.6 179.1 179.5 182.7 184.9 185.3 186.8 190.4 193.7 195.8 196.9 198.5 201.2 201.4 200 199.4 200.2 194.8 187.3 173.9 159.9 148.4 156.5 167.6 167.5 169.7 172 177 179.7 184.4 187.8 190.6 193 197.4 201.6 206 209.6 213.7 223.5 232.9 239 243.1 244.2 245.6 246.2 247.8 251.9 255.5 257.5 262.1 268.2 276.8 288.3 297.5 301.8 306.1 312 319.7 326.1 330.8 332.5 330.5 326.4 319.1 310.3 297.4 284.8 274.5 263 261.6 254.6 247.4 244.9 239.7 233.6 230.8 226.7 222.9 217.5 223.9 228 231.3 234 235.4 230.9 230.5 231.3 229.7 228.7 225.9 223.3 218.5 213.1 209.5 210.2 209.8 209.8 210.8 211.4 212.2 212.6 212.5 215.3 204.7 209.9 217.3 225.4 230 234 240 247.5 255.9 264.1 273.1 283.3 293.3 306.4 323.6 341.6 363.1 387.5 411.4 433.2 440.2 441 442.9 445.4 451 457.7 468.5 475.6 481.5 483.1 488.1 493 497.1 500.8 506 510.4 513.2 517.4 519.2 517.3 518 516.6 514.8 513.3 512.3 510.5
23 23.3 24.1 30.8 31.4 29.8 30.6 31.7 32.6 40.4 41.1 45.4 47.4 49.5 53.4 56.8 59.9 62.4 60 53.8 55.3 62.7 66.5 67.9 80.2 89.1 96 101.5 104.5 107.8 110.3 112.9 115.8 119.1 123.7 128.4 133.4 139 143.3 150.5 157.2 160.8 162.3 161.9 159.7 156.2 155.5 159.6 166.5 170.9 172.2 173.3 175.5 179.9 183.2 185.6 187.2 188.4 191 194 195.3 195.9 197.1 198.5 199.7 199.5 197.2 196.8 192.8 186.7 174.2 165.2 145.2 159.4 166.8 166.1 168.7 171.7 176.8 179.3 184 186.3 189.5 191.5 195.6 200.6 206.4 209.8 214.6 223.1 233.3 240.4 244.1 245.5 249.5 251.7 252.9 255 260.3 263.7 267.3 274.1 281.2 291.8 299.2 306.2 308.8 314.2 321.5 325.8 328.7 329.1 324.3 317.3 304.6 294.4 284.3 272 266.6 259.8 252.5 247.3 240.1 237 234.7 231.4 222.4 218.1 216.1 217.5 223.2 228.5 232.5 234.3 231.8 229.5 227.9 224.5 220.1 222 220.3 218.1 213.2 206.6 204.1 205 205.2 206.1 207 207.8 208 209.2 210 208.4 203.4 207.8 216 220.1 227 231.7 237 244.4 253.8 262.2 268.8 280 292.7 304.8 321.1 338.3 359.1 383.7 409.8 433.8 446.3 449.4 452.5 456.4 464.2 471.4 478.3 484.6 488.5 490.6 492.6 496.9 500.3 503.3 506.3 510.9 513.4 515.8 516.7 515.7 514.9 514.3 513.8 511.9 510.7 509.6
23.3 23.9 25.1 28.5 29.1 32.2 29.8 30.7 32.4 35.1 40.3 44.8 47.6 50.3 53.2 56.6 60 61 56.6 52 57.5 68.8 62.7 68 81.2 88.4 95.8 100.6 104.4 107.5 110.6 111.5 114.5 118 122.7 127.4 132.4 136.7 140.9 148.1 153.1 157.2 158.6 158.4 156.1 153.2 153.2 158 162.1 165.6 165.9 171.7 175.3 178.6 182.6 186.1 187.9 188.9 192.4 194.4 195.1 194.8 195.8 196.5 197.4 198.1 195.7 193.4 190.6 185 176 155.6 146.8 154.3 166.9 166.6 168.4 171.2 175.5 179.2 183 185 187.8 190.6 194.5 199.1 206.8 210.4 214.4 221.7 232.7 238.8 242.3 246.5 249.8 254.1 256.1 260 266.3 270.2 275.2 282 289.4 296 302.7 309.2 312.7 316.3 320.2 322.7 324.3 322.3 315.8 304.5 293.2 278.9 272.2 264.4 259.5 254.4 248.3 242.5 240.5 235.3 233.2 228.8 219.7 214.1 214 217.4 222.3 228.3 231.9 233 230.6 226.8 223.4 219.4 215.1 214.6 211.6 209.1 205.2 200.5 199.6 201.2 201 203.7 203.9 204.5 205.3 206.2 206 198.7 202.7 206.5 213.4 217 220.9 228.3 234.1 239.9 248.2 256.6 264.4 277.5 291.4 303.8 317.5 333.5 353.9 376.4 402.9 430.1 450 456.9 462.2 467.9 476 481.3 487.4 491.3 493.7 496.4 497 502.3 503.1 505.2 509.2 513 515.7 515.6 514.7 513.5 512.3 511.5 510.7 509.8 508.6 507.4
23.8 24.7 25.3 26.2 27.9 28.1 29 30.3 32.7 33.7 39 43.6 47.6 49.8 52.6 56.6 59.1 57.9 51.5 52.3 61.7 64.9 59.2 65.4 81.1 89 93.9 98.7 103.4 106 111.1 110.3 112.6 116.2 121.3 126.8 130.5 134.4 138.4 143.6 147.6 152.8 155.4 155.4 153.9 151.2 153 155.7 159.6 161.2 164.2 171 175.1 177.9 181.9 185.8 187.4 189.1 191.7 193.7 195 194.8 194.2 194.1 194.4 195 194 190.3 187.3 183.1 175.3 153.9 145.7 147.7 166.1 166.1 167.6 169.7 175 179.6 183.3 184.7 187.2 191 194.8 199.6 206.5 210.9 215.3 222.4 231 237.5 242.2 247.3 249.7 255.5 260.3 264.9 268 272.1 279.2 285.7 293.6 300.2 306.2 311.9 316.3 317.7 319.4 320.5 318.7 313.6 305.1 291.5 280.2 269.3 264.1 257.3 251.7 246.5 240.2 232.4 230.2 230.2 230.1 220.1 212.9 210.1 213.6 216.3 220.8 225.9 228.6 228.2 225.5 222 216.8 211.8 207.8 207.7 205 202 199.2 197.6 196.2 197.8 198.3 200.1 200.9 200.2 201.4 202.5 201.4 199.8 201.7 206 212 214.2 218.1 222.3 230.5 235.4 241.6 250.4 258.5 271.6 284.9 297.1 310.9 326.3 344.3 366.8 391 416.8 443.6 463.1 469.3 476 483.9 490.8 495.3 498.1 500.7 500.6 500 504.1 507.9 508.5 510.8 512 513.2 513.1 512.4 510.6 509.2 507.5 507.1 506.5 505.5 504.7
23.2 24.1 25.1 27.5 27.2 28.2 30.3 30.2 31.3 32.3 38.5 42.9 46.5 49.5 52.2 55.4 57.7 53.5 49.3 53 56.8 56.2 56.7 68.4 80.8 87.4 92.6 96.3 101.7 105.7 109.7 108.5 111.3 115 119.9 124.8 129 132.3 136 138.8 142.5 147.6 151.5 152.2 151.8 149.9 151 152.9 156.6 158.9 164.3 170.3 172.6 176 180.1 185.1 187.1 187.8 189.3 192.8 194.2 194.4 192.8 191.7 191.6 192.2 192.3 189.8 186 178.4 173.7 156.9 145.4 144.1 161.4 166.2 163.5 168.3 172.8 175.2 182 185.4 188.7 192.3 195.8 200.8 206.8 211.3 217.4 223.7 230.9 235.7 242.1 246.2 252.1 256.2 262.8 266.2 269 272.1 277.9 286.9 297.9 303.3 308 314.6 318.4 319.7 319.2 317.1 312.8 294.2 288.2 278.4 268.8 261.4 256 250.7 245.4 240.1 234.4 227.5 221.7 223 220.3 215.1 209.1 209.3 212.6 215.5 219.9 223.4 223.9 223 220 216.5 211.7 207.5 204.3 201.6 198.6 196.7 195.6 194.2 194.2 194.5 195.3 194.8 196.5 196.2 197.2 198.3 194.7 198.4 202.5 204.9 207.9 211.8 214.6 219.1 226 230.8 236.2 243.1 251.1 262.2 272.7 284.6 303.3 319 336.3 356.4 378.5 403.6 431 459 473.3 480.7 489.1 497.1 501.8 504.4 505.3 505.4 504.9 508.8 510.1 512.8 511.9 511.7 511.5 510.8 509.5 507.8 505.3 503.6 504.2 503.1 502.9 501.8
22.8 23.5 24.6 26.8 27.4 28.6 29.2 30.3 31 32.3 37.8 41.9 44.8 47.9 52.4 55.4 55.6 51 48.4 52.7 53 54.3 59.2 71.3 80.5 85.9 90.6 94.6 100.1 105.2 106.7 106.4 110.4 114.1 118.2 122.1 126.1 130 133.2 136.3 139.3 142.8 146.8 148.5 148.9 144.6 151.2 152.8 153.8 158.8 164 168 171.1 173.7 178.1 183.4 185.3 186.4 187 189.7 191.8 192.4 190.3 188.2 188.5 189.1 190.8 189.1 183.9 179 173.8 166 144 142.8 154.8 163.8 161.8 164 171.3 175.6 181.8 186.8 189.5 192.8 196.7 201.8 206.4 213.3 219.9 225.2 230.9 238 241.5 246.9 251.6 258.8 265.3 269.4 271.9 272.9 275.2 286.6 298.7 305.2 311.2 315.7 319.1 319.4 318.8 316.7 310.6 297.7 283 270 260.7 253.3 250.2 246.1 240.4 236.7 230.8 227.7 219.8 215.1 209.7 209.4 203.6 208.2 212 215.1 217.7 219.3 219.1 217.7 214.9 211.5 207.7 204.1 198.3 195.9 194.1 193.1 191.7 190.9 190.9 191.1 191.6 191.9 191.4 193.4 194.2 195.9 195.2 197.1 199.8 202.3 204.1 207.4 211.6 216.4 220.8 227.1 230.4 238.8 247.6 256.8 266.1 279.7 293.3 311.6 328.9 346.1 367.3 391.5 417.3 444.9 471.8 482.1 491.7 499.7 505.3 507.8 509.7 509.2 509.5 509.6 510.8 513.4 511.6 511.9 510.3 508.8 506.7 503.8 501.7 500.1 501.3 499.1 499.9 498.9
22.1 22.8 23.8 25.3 26.1 27.8 29 29.4 31 32.5 37 40.9 44.4 48.1 51.6 54.7 56.5 51.4 48.1 49.6 51.7 60.1 66.8 73.4 80.1 85.9 90.3 93.5 98.9 104.2 103.9 105.1 109.1 113.4 117.5 120.5 124 128.1 131.1 133.9 136.1 139.3 142.5 144.5 143 146.9 150.8 149.8 152.6 158 162.8 166.9 170.2 171.9 176.1 179.3 182.9 184.2 184.3 185.5 188.1 188.3 187.2 185.8 185.4 186.3 188 188.6 183.3 177.3 173.3 168.4 154 141.9 142.1 153.7 161.4 165.1 170.7 176.9 181.3 186.1 190 192.6 195.6 202.1 208.3 214 220.9 226.1 232 238.1 243.3 247.3 252 259.9 266.8 273 275.4 275.8 278.1 290.1 299.8 304.9 311.2 314.2 317.3 313.7 310.3 305.9 301 293 280.3 270.9 258.8 252.1 245.4 239.6 236.4 229.3 222.4 218.9 217.4 215.3 212.3 201.4 203 209.6 212.5 214.7 215 214.3 213.7 212.1 210.1 206.9 201.8 198.2 194.4 191.5 190.5 189.4 188.1 187.7 187.7 187.7 187.9 188.8 190.1 191.5 191.4 193.2 195 195.9 196.8 199.7 201.7 205.2 209.5 213.5 217 223.5 231.7 238 245.8 255.5 264.4 275 289.5 306 321.6 337.9 356.5 379.5 402.7 427.3 455.1 478.6 489.3 497.9 506.5 510 510.9 510.6 510.1 510.2 510.1 510.4 511.4 508.6 508.1 506.5 503.1 500.4 496.7 495.9 494.3 493.5 493.1 491.1
21.5 22 23.5 24.3 25.1 27.3 27.2 28.6 30.8 32.8 36.2 39.4 43.5 47.1 50.5 55.6 58.1 54.7 47 48.8 53.7 58.2 67.3 74 80.5 85.9 91 93 96 103.5 102.2 104.5 108.9 112.5 115.4 118.8 122.4 125.8 128.7 130.8 133.2 136.2 136.4 136.1 140.5 146.7 149.1 151 151.7 156.6 161.5 166 169.3 170.8 174 176.7 179.5 180.7 183.4 183.8 185.3 185.2 184.1 183.4 182.2 182.5 184.4 186.1 181.5 176.1 172.5 168.6 164.1 148.3 140.3 148.8 154.9 162.3 169.2 175.6 181.6 186.5 189.8 192.4 196.6 201.8 208.6 215.7 221.4 226.5 231.1 235.9 241.5 247.4 253.9 262 269.3 275.9 282 281.1 283.9 292.3 298 300.4 306.1 309.5 306.5 302.4 297.2 289.2 282.5 276.1 269.5 263.8 257.8 251.7 244.5 237.8 233.1 229.7 226.8 220.6 211.8 211.9 206.5 196.9 208.2 211.2 213 212.4 210.7 209.8 208.6 207.1 203.4 200.9 196.4 192.9 190.6 189.4 187.9 186.6 185.5 185.5 185.5 185.7 185.7 187.4 188.7 189.6 191.3 192.5 192.8 193.9 195 197.9 200.7 204.2 207.1 208.5 213.1 221 227.3 234.3 244.2 251.6 260.9 272.5 283.4 298.2 313.9 329.6 346.9 366.2 388.6 410.4 432.5 457.3 481.6 490.7 500.2 507.4 509.3 508.1 507.8 507.5 507.6 508.1 509.3 507 505.7 505.1 502 498.6 495.2 491.9 489.2 486.3 485.7 485.1
20.6 21.2 22.7 23.5 26.1 27 26.7 28.9 30.2 33.7 35.4 38.9 42.6 46.2 51.3 56.2 59.4 54.2 46.5 46.8 52.7 54.5 64.5 72.7 80.8 86.6 91.5 93 92.9 100.1 100.9 103.8 107.3 111.1 114 117.3 120.7 123.9 126.2 123.1 126.3 132.8 137.1 141.3 143.4 146.9 147.7 150.2 151.7 156.1 160.3 164.5 168.3 169.8 172.7 174.4 176.5 179.4 182.4 184.5 184 183.6 182.4 181.3 178.5 178.6 180.2 182.3 180.4 174.8 171 167.7 166.3 157.7 141.1 144.2 155.2 165.2 171.5 176.8 181.4 186.8 190 192.9 196.6 201.2 208.3 215.3 220.4 227 230.2 234.7 240.2 248.5 257.9 263.5 271.5 279 283.8 284.9 291.1 292.6 295.1 295.7 293.7 293.7 292 287.6 279.9 272.1 267.6 264.1 260.6 257.2 253 247.7 242 236.1 230.5 225.3 225.5 221.2 214 208.7 201.4 197.3 203.5 209 209.3 209.1 207.3 206.3 203.8 201.3 198.5 195.1 191.8 189.8 187.6 186.2 185.2 184.5 183.5 182.9 183.4 184.1 185.3 185.9 187 188.9 190.2 190.9 191.3 192.8 195.1 196.8 200 201.6 205.4 208.7 213.9 218 227.1 233.6 238.6 249.4 259.7 269 278.1 290.4 306.4 322.7 342.3 356.1 374.7 390.6 411.2 435 457.5 476.2 486.2 495.3 500.9 502.6 501.9 501.4 502 503.5 505.1 504.1 503.5 502.3 499.8 495.8 491.4 486.6 482.6 478.2 479.3 478.2
19.9 21 21.8 24.4 27 27.2 27.4 28.9 30.7 32.1 34.4 38.5 42.6 46.4 50.3 55.7 58.2 49.7 45 45.5 49.1 52.6 64.2 72.2 80.1 87.1 91.6 92 91.8 98.7 100.3 103.4 105.8 109.8 112.7 115.3 119.2 122.4 114.2 126 129.7 133.7 137.3 140.5 141.5 144 147.2 148.9 151.3 154.7 158.2 161.7 166.4 167.9 171.4 172.7 175.3 179.6 183.9 187.3 186.3 184.3 183.9 181.1 176.7 173.7 175.5 178.4 178.2 173 169.4 166.9 159.7 150.6 139.7 143.4 157.7 165.9 172.8 178.3 183.1 187.5 190.8 193.6 196.7 201 207.3 215.3 221.5 225.7 228.4 231.8 237.6 249.9 256 262.7 268.9 276.5 281.6 286.6 291.4 291.1 292.8 287.9 282 279.5 274.4 270.3 264.1 259.5 256.9 255.2 253.5 251.2 248 243.4 237.3 231.5 226.7 223.4 216.9 214.9 213.1 210.6 206.9 202 192.2 203.4 206.2 205.2 203.3 201.6 199.6 197.1 194.6 192 188.2 186.4 184 183.7 182.5 181.7 181.2 180.8 182.8 183.2 183.9 186.1 186.8 188.3 188.7 190.2 191.9 193.6 195.5 196.6 198.8 201 204.8 209.7 212.8 220.3 224.5 231.3 236.7 247 256.5 265.3 273.9 284.7 296.8 315.2 331.7 352.2 363.6 378 392.8 413.7 435 450 465 478 482.9 487.7 491.9 493.7 496.5 497.9 499.2 500.5 500.4 500.3 497.8 494.5 490.1 484.1 479 471.8 470.2 469.4
19.8 20.3 22.1 26.3 26.3 27 26.6 28.4 30 32.7 34.4 37.8 41.8 45.6 50.2 52 52.4 47.2 44.2 44.6 51.1 58.7 68 72.6 79.3 85.4 89.8 89.5 92.9 98.3 99.2 100.5 104.6 108.1 111.3 114 117.7 118.6 120.4 126 129.2 132.7 135.3 138.6 140.7 144 146.3 148 149.7 152.7 156.2 159.2 163.3 166.3 169.2 171.4 175 179.3 184.3 188.8 189.1 187.5 187.1 182.8 179.3 173.7 171.9 173.6 175 171.3 167.7 164 156.1 144.3 136.6 149.3 162.1 168.4 173.3 180.8 185 188.6 192 194.9 198 201 206.7 215.3 220.2 224.5 227.8 230.7 237 245 253.8 260.5 268.2 273.6 283.4 289.5 289 282.7 280 275.9 268.9 262 256.9 254.8 250.9 250.1 249.5 248.7 247.6 244.9 242.4 238.1 233.1 227.9 223.4 219.3 215.6 211.3 208.1 206.4 205 203 190.1 200.2 202.3 201.5 200.2 198.6 195.9 193.4 190.3 188 185.3 181.3 181.4 179.1 179.4 178.7 179.4 180.3 181.4 182.9 183.5 184.7 186 186.7 188.5 189.1 190.5 192.3 194.9 195.6 197 199.8 204.3 209.6 213.5 219.5 225.1 230.1 234.2 238 252.9 261 269.5 282.1 294.1 310.3 324.6 340 355.5 368.9 382.1 400.1 416.6 429.2 440.7 451.8 462.7 468.4 473.9 479.6 486.3 491.3 493.8 495.4 497.3 497.5 495.5 492.8 488.2 482.9 477.1 456.8 460.7 459.1
19.4 20.2 20.7 24.6 25.7 26.3 27.1 27.7 29.9 33.1 34.7 36.9 41.3 45.4 48.8 51.5 50.5 45.8 43.1 45.7 56.9 67.3 70.8 73.8 78.9 83.3 86.4 88 91.7 98 97.3 97.2 101.4 105.3 108.6 110.8 112.4 110.3 119.4 124.5 127.7 131 134.7 137.3 140.1 143.2 144.8 145.3 148.6 151 154.5 157 160.4 164.9 168.2 172 176.3 180.8 184.8 189 192.2 188.2 187.3 184.6 179.3 173.7 168.8 170 171.8 169.8 164.8 158 151.5 141.7 136.7 153.3 164.5 169.3 174.9 181.8 186.4 189.8 192.8 196.3 198.9 201.5 207.5 215.1 219.5 223.8 227.3 230.3 234.1 240.1 252.4 254.9 262.2 266.3 273.4 278.6 280 273.1 263.5 260.5 254.7 248.4 245.3 242.5 242.1 242.5 243.1 242.7 242.3 240 237.5 233.4 229.9 224.4 220.1 216.9 213.4 208.4 205 202.4 201 199.6 191.4 196.7 197.4 197.4 196.2 194.6 192.6 189.5 187.3 184.6 181.2 177.5 177 174.7 175.8 178.5 178.9 183 181 184.5 185.7 186.5 187 186.1 187.4 189 190.1 191.5 194.2 195.6 197.1 200 202.5 209 213.4 219.3 223.3 228.5 233.7 241.5 249.4 256.9 266.1 277.4 288.1 301.7 316.1 328.9 341.4 355.5 371.7 385.9 398.6 409.8 420.1 428.4 435.8 444.1 452 462.2 467 477 485.4 490.2 492.5 494.1 493 490.8 486.7 480.9 475.3 458.4 446.8 448.1
19.2 19.9 19.8 22.1 25 26.6 27.5 28.4 31.2 32.9 34.8 36.5 40.6 43.8 47.9 49.7 48 43.7 43.1 46.5 57.3 67.8 71 73.3 77.1 81.9 85.6 89.2 88.4 95.5 90.7 86.8 89.4 94.8 100.1 104.5 110.3 117.2 120.1 123.8 127 129.5 133.5 136.2 139.2 141 143.1 143.3 147.6 150.3 153.4 157 160.1 163.4 168.1 172.7 177 181.8 186.4 189.4 192.2 192 188.6 182.3 178.2 172.8 166.9 167.4 168.5 168.1 159.7 152.6 148.7 143.1 135.6 152.5 165.2 168.9 174.5 181.6 186.4 190.4 194 196.5 199.6 202.7 208.3 214.1 219.2 223.4 226.9 229.3 231.8 237 246.3 247.7 255.1 257.8 263.2 265.8 264.8 261 253.3 241 241.7 237.8 234.1 233.6 235.1 236.2 236.9 237 236.2 234.5 231.2 227.9 223.7 219.7 216.2 212 208.8 205.1 201.4 198.1 196.9 195.2 190.3 192.6 193.3 192.9 191.9 190 188 186.2 183.9 182.4 176 174.3 173.7 179.2 183.1 183 183.8 183.9 184.7 185 185.4 187.1 188.3 189.1 188.1 189.2 190.4 192.1 193.4 195.6 197.7 199.9 204.7 207.5 213 217.9 221.8 226.8 232.9 237.7 246.9 252.1 262.2 272.4 281 293.2 305.3 316.5 329.9 344.7 359.5 372.1 380.9 389.5 397.6 404.9 411.3 417.6 423.2 430.4 442 457.1 467.9 481.5 486.9 489 489.7 488.4 485.1 479.8 473 463.1 447.5 430.1
18.7 18.7 19.4 22.2 25 26.3 27.3 28.3 31.1 33.5 34.6 36.2 39.2 43.1 46.4 47.9 47.1 43.1 42.5 46.9 58.9 66.8 69.4 72.7 76.1 80.4 83.7 87.5 82.6 87.7 81.6 96 100.6 103.8 107.7 111.1 114 116.4 116.9 119.6 121.6 127.5 132.7 135.9 137.3 139 142 144.5 146.9 149.7 152.9 156.1 159.1 162.2 166.4 171.9 176.8 181.4 186.5 189.4 191.2 190.6 187.2 182.6 176.1 171 165.1 166.2 166.6 163.4 159.7 150.2 145 138.1 133.9 150.9 164.2 168.3 174.3 180.6 186.3 191 193.9 196.7 200.3 203.2 208.9 212.8 217.7 224.1 227.2 228 229.7 229.3 235 241 245.2 249.7 251.9 254 252.4 248 242 236.3 229.5 229.9 229 229 228.5 229.2 230.2 231.8 230.6 227.2 225.2 221.4 217.6 214.8 211.5 206.6 203.9 200.7 198.3 194.3 192.6 190.7 187.7 188.4 189.3 189 187.8 186.2 184.5 182.5 181.6 175.9 172.4 172.5 181.4 182.9 183.5 183.3 183.8 183.9 184.6 184.9 185.5 186.5 187.9 189.8 190.6 190.5 190.2 191.4 193 196.4 198.4 201.3 204.6 208.1 212.8 217.3 221.4 226.2 231.1 236.7 242.1 252.1 260.1 266.8 275.9 284.2 294.6 304.7 321.1 337.3 348.1 356.8 363.5 369.8 376.7 381.4 387 389.5 395.3 405.3 413.9 431.8 450.6 465.2 475.8 483.5 484.9 485.5 482.7 478.3 472 464.2 453.3 441.1
19 18.3 20.5 22.7 24.6 25.5 26.3 28.2 30.9 32.5 33.3 35.7 38.5 40.6 43.9 46.8 46.6 45 42.4 45.8 55.2 64.9 69.5 72.8 75.4 78.9 82 84.9 76.3 76.9 91.1 94.4 98.9 101.8 105.5 108.7 109.3 115.3 119.4 122.4 125.4 129.2 132.6 136.1 137.9 140.3 141.7 144.3 146.2 149 152.1 154.9 157.6 160.5 164.7 169.6 175.7 180.2 185.3 188.4 189.2 187.6 184.5 180 174.2 168.8 163.6 164.2 164.2 159 152.1 144.9 136.5 132.2 134.7 142.7 155.6 166.8 173.9 181 186.6 190.5 193.3 197.3 200.4 207.5 209.2 212.7 219.8 226.1 229.7 228.9 223.4 223.3 225.8 231 235.4 239.7 242.2 243.9 242.5 240.5 233.5 229.6 226.3 222.6 224.3 223.6 223.5 224.4 224.7 224.4 224.3 221.4 219.5 215.8 212.5 208.6 205.4 201.5 199.8 197.1 195.1 192.3 190 188.7 184.7 184.2 186.6 186.5 184.8 183.3 181.4 179.6 175.7 172.3 177.6 179.1 180 181.3 182.5 182.2 182.4 183.7 184.4 184.7 185.3 186.4 187.9 190.1 191.8 192 191.8 193.5 195.2 197 198.6 202.4 205 209.4 212.5 216 219.4 225.7 229.8 234.9 241 247.5 255.8 263.3 269.7 277.8 288.1 298.8 310.8 325 334.4 342.5 347.6 352.5 357.3 362 365 370.9 378.6 384.1 394.9 410 429.9 448.7 464.5 474.9 479.5 481.2 480.5 477.5 471.2 462.3 453.2 444.1
17.8 18.8 20.6 23.6 25.2 24.9 25.8 27.7 30.2 32 30.9 34.7 37.8 40.3 42.5 44.7 46.8 46.8 41.8 43.7 55.4 65.4 70.6 73.2 75.3 77.1 80 82.5 74.7 80.3 85.9 89.3 91.9 96.5 100.3 107.5 110.9 114.3 118.5 121.4 124.6 128.3 130.9 136 138.1 139.8 141.8 144.4 145.7 148.2 150.5 153.1 156.4 158.9 161.3 166.6 172.6 176.2 183.5 186.2 185.4 183 180.3 176 172.1 166.6 161.4 157.2 159.8 151.5 145.7 138 130.1 134 152.2 164.5 164.8 168.7 175.1 181.3 186.4 190.1 193.2 196.9 202.2 207.5 209.5 213.2 223.1 229.4 230.7 230.3 224 219 222.1 223.3 226.5 230.5 233.6 231.2 229.8 229.5 227.2 225.9 223.7 219.6 219 218.5 218.4 218.9 219.2 218.5 216.8 215.5 212.5 208.5 205.5 202.7 200.5 198.2 196.5 196.2 194.5 191.8 190 186.7 184.2 181.5 182.2 182.7 182.3 180.6 178.6 177.6 169.5 175.1 177.7 178.2 178.8 180 180.3 180 181.3 183 183.4 183.5 184.3 185.5 188.4 189.3 192 193.4 193 194.6 196.9 198.9 201.6 204.1 207 209.5 211.3 215 218.5 222.5 228.6 235.1 240.2 245.2 251.8 258.3 266.2 273.7 281.6 292.2 302.1 311.2 318.6 325.6 331 335.3 338.5 340.9 345.4 351.6 356.3 362.4 367 391.6 410.9 432.6 453.9 467.4 474.3 477 477 473.4 468.3 460.1 452.1 442.5
17.4 17.6 20.5 24.4 25.8 26.3 26 27.3 28.7 29.6 32.9 34.4 37.3 39.3 41.4 42.8 45.5 46.8 41 43.3 55.5 64.3 70.1 72.4 74 75.3 77.7 77.3 72.7 82.9 88.6 92.4 96.9 100.9 104.6 108.1 110.8 113.4 117 120.6 124.5 128.4 132.4 136.8 139.1 141.1 143 145 146.8 148.5 149.6 151.9 154.4 156.9 159.2 163.7 168.9 172.8 178 180.1 178.2 175.9 173.4 171.8 169.1 165.5 160.4 157.7 153.4 146.6 137.9 131.5 130.6 148.1 163.4 165 166.6 170.3 176 181.9 186.4 191 193.4 197.3 202 207.5 209.9 215.7 222.8 229.8 229.6 228 223.8 215.2 223.1 222.6 218.8 216.6 220.1 221.2 215.3 214.6 216.8 217.9 219.7 217.2 214.3 213.6 212.4 212.9 212.8 212.6 211.5 209.1 207.5 204.7 201.7 199.1 198.3 197.7 196.7 195 192.1 190 188.7 185.2 182.5 178.6 178.5 180.2 179.1 177.6 175.9 169.9 169.2 175.7 176.4 177.2 177.6 178.1 178.6 179.1 181.2 182.5 182.8 183.7 184.3 187.5 190.1 192.7 194 194.4 194.3 196 198.8 199.8 202.7 206.3 207.5 208.9 210.6 213.6 217.5 221.9 227.3 233 237.7 244.1 250.1 256.2 263 269.7 277.2 284.9 293.3 299.2 305.8 310 312 314.9 318.9 321.5 323.9 333.4 343 346 353.1 372.2 392.5 414.4 435.7 457.5 468.4 472.1 473 470.5 465 457.1 449 436.4
17 17.7 20.6 23.7 25.7 25.9 26.5 28 28.8 30.5 33.9 34.1 36.1 37.9 39.6 42.8 44.3 45.7 40.6 43.9 53.8 62.1 68.2 70.9 71.6 73.3 75.6 72.5 75.6 80.4 85.2 89.8 95.4 99.8 104.5 108.1 110.8 113.1 116.2 120.3 125.1 129.2 133.8 137.5 140.1 142 144.1 145.8 148.1 149.4 149.5 150.5 153.2 155.8 158.4 160.4 164.5 166.9 169.4 171.9 169.6 167.6 166.4 165.3 164.7 163.5 161.3 158 155.6 135.5 127.4 131 141.6 157.2 163 165.9 169.1 170.8 176.3 182.5 186.9 191.9 193.7 198.4 202.6 208 210.7 216.4 221.6 226.4 226.9 225.3 219.5 212.7 218.7 220.4 220.9 217.7 209.1 203 201.6 201 205.5 209.8 210.1 211.8 211.3 211.6 209.8 208.8 208.6 208.3 207.4 205.6 204.4 201.5 199.5 199.5 198 196.4 194.5 191.6 189.5 187.9 187.1 184.1 181.1 178.9 175.8 176.7 176.6 175.1 173.2 168.2 172.6 174.1 175 176 176.7 178.1 177.7 179.2 181.1 181.9 182.4 183.7 185.6 188.2 191.5 194 196.4 195.3 195.5 197.3 201.3 203.9 205.8 205.8 206.6 208.2 210.3 212.9 215.4 220.4 225.4 230.8 236 240.5 245.8 251.8 259 265 271.5 279.4 285.8 290.8 296.2 299.1 298.2 297.4 299 301.1 305 310.1 323.5 333.3 343.4 355.8 376.5 397.4 416.4 435.9 455.8 467 467.5 465.9 460.8 452.9 439.4 424.9
17.7 17.3 19.9 22.9 24.7 25.9 26.6 27.4 28.8 28.7 34.3 34.1 35.5 36.8 38.7 39.8 43.9 45 40.6 43.9 52.4 61.5 67 68.7 70.7 72.5 73.7 67.6 74.6 82.3 85.6 90.3 95.5 100.4 104.6 107.3 110 112.4 115.5 120.2 126.3 128 133.8 138 140.8 143.4 144.7 146.5 148.6 149.4 148.4 149.1 151.4 154.3 156.8 158.2 160.6 161.6 163.3 164.9 164.1 161.4 159.9 160.4 160.3 160.3 159.8 158.3 145.7 127.6 129.1 133.4 144.9 153.6 163.3 167.8 170.2 171.5 177.8 183 188.5 192.8 194.9 199.2 203.5 209 211.4 215.3 220.4 223.3 223.3 223.1 212.3 208.5 212.9 214.3 215 213.9 210.1 205.1 201.9 201.6 196.5 200 200.7 200.1 200.8 204.5 202.2 204.7 204.8 204.2 204.1 201.5 200.4 198.3 195.5 195.8 193.5 191.2 190.3 189.1 187 184.9 184.8 183.1 181 178.7 173 172.3 173.6 172.4 170.2 167 172.6 173 173.8 174.7 175.5 176.8 178.2 179.3 180.4 181.3 183 185.2 186.6 188.1 191.8 195.1 197.1 196.5 197.3 199.7 203.6 205.8 207.6 207.7 208.2 208.2 209.7 211.7 215 220.2 223.9 228 232.7 237 242.3 249 256.3 261.5 266.2 271.3 277.4 283.9 285.3 288 285.6 284.2 284.7 285.1 287.1 292 304.4 311.7 326.4 343.3 359.8 379.1 399.4 417.5 434.3 453.7 459.8 459.5 456.2 446.7 430.1 410.8
17.6 17.7 18.5 19.7 22.5 23.7 25.8 27.8 27.4 31.8 32.6 33.7 34.8 36.3 37.8 41.2 42.8 42.9 40.3 47.2 58.7 64 65.1 66.6 68.4 71.1 72.3 66.2 73.6 78.9 83.6 87.6 93.3 99.5 103.7 106.2 108.3 111.2 114.5 120.5 126.4 132.6 136.6 139.2 141.3 142.6 143.8 145.7 147.1 148.5 147.3 147.7 149.7 153.1 155.5 156.7 157.2 157.4 158.8 159.3 158.3 155.2 154.2 154.9 156.5 157.4 157.6 145.9 127.1 124.6 131.6 142.3 148.6 156.1 164.4 169.1 172.2 175.5 178.1 183.5 188.1 192.5 196.3 200 204.8 209.7 211.3 213.7 218.3 222.3 223.3 222.4 215.4 208.2 199.6 207.9 205.6 207 205.2 203.1 201 199.9 198.5 194.2 193.9 193.2 193.3 194.6 193.2 198.2 198.8 199.3 198.5 197.7 196.2 195 191.2 190.2 188.6 187.5 185.8 185.2 184.2 181.1 182.3 180.7 178.8 178.2 175.3 171.9 169 170.5 167.8 165.5 171.7 172.7 173.4 174 174.9 177.2 178 178.8 179.5 181.4 184.3 186.1 187.7 189.9 192.7 196.2 197.6 199 200.2 202.3 205.7 207 208 208.7 208.8 208.4 208.9 209.8 213 218.2 221.8 225.6 229.5 233.3 239.2 246.2 252.9 259.7 264.7 265.5 268.4 275.1 275.3 274.7 273.8 273.1 272.5 272 274.5 278.9 288.4 302.7 314.6 329.7 350.8 365.9 382.8 400.6 417 433.6 449.3 453.8 449.7 442.5 425.5 409.5
16.7 17.5 18.5 22.4 23.4 25.2 25.2 25.2 26.2 30.9 30.2 31.9 33.4 34.3 35.9 39.1 41.7 39.8 39.5 52.2 62.8 64 63.9 64.9 67.4 69.1 64.5 68.3 72.5 76.4 80.3 85.6 90.8 97.2 102.4 105.2 107 109.9 114.5 119.7 127.1 133.1 137.8 140.4 141.2 141.9 142.5 144 145.7 146.7 146.6 146.4 148.8 150.1 153.9 155.1 153.6 155.1 154.4 154.9 154.4 153 152.5 152.5 152.7 154.5 154.2 127.6 123.9 125.2 136.5 152.5 160.5 162.7 165.6 170.3 173.9 176.6 179.7 183.2 187.4 191.9 195.9 200.8 205.3 209 210.5 212.1 216.7 221.3 223.9 223.2 219.1 206.9 195.5 197.1 201.6 200.4 199.8 198.9 198.1 198.2 197.6 197.6 196.5 193.5 188.3 185.4 187.5 190.9 192 192.7 192.2 191 190.2 187.3 186.2 184.5 183.6 182.7 182.1 181.3 181.2 179.9 178.8 177.4 175.6 173.8 173 171.9 170.8 167.1 165.8 165.9 170.3 171.7 172.5 173.5 175.2 176.8 177.1 177.6 180.2 182.3 184.1 186.3 188.9 192.7 195.3 197.6 198.7 200.9 203 204.6 206.8 207.5 207.7 208.2 207.9 207.5 207.9 207.7 211.5 216.1 218.7 223.6 227.4 230.2 235.1 241.9 248.4 254.2 258 261.2 263.1 264 265.7 264.8 263 264.1 263.5 267.3 264.6 271 278.8 291.3 304.3 322.3 338.3 353.4 368.7 382.2 399.8 417.2 435.2 449.3 446.1 436.3 423 406.4
17.3 16.9 17.6 22.4 23.4 25 26.1 25.9 25.4 29.3 29.1 31.2 33.3 33 35 37.8 38.5 38.3 40.3 53.5 61.3 59.4 62.8 63.4 64.6 60.9 64.7 69 71.1 75.2 78.8 83.1 88.2 95.4 98.5 103.7 105.6 109.1 114 119.7 127.7 134.5 139.9 142.4 141.5 141.4 141.9 143 144.7 145.5 145.6 144.9 146.6 149.1 151.7 153.6 151.9 152.7 152.2 153.2 153.3 152.5 150.5 150.4 151.2 152.9 139.5 119.9 123.9 124.3 145.8 159.9 162.9 165.6 167.3 171.2 174.5 178.2 180.7 183.4 186.2 190.5 194.3 198.1 201.9 206.6 208.2 212 217 220.6 223.6 221.6 218.1 212.1 199.3 191.9 194.4 192.3 194.5 195.5 195.7 195.1 196 195.9 195.5 194.7 192.6 188.4 183.9 185.9 186.1 185.4 185.2 184.6 183 182 181.4 180.1 179.6 179.3 178.6 179 178.2 177.2 174 173.8 172.5 171.4 170.8 170.5 169.2 167 164 169.7 171.1 172.1 173.1 174.2 174.7 175.7 176.6 177.6 179.5 180.8 183.5 185.7 190.8 195.2 196.9 198.2 200.1 202.7 204.1 206 207.4 207.9 207.4 206.9 206.4 205.7 205.9 205.4 207.6 211.8 214.9 219.8 223.8 226.4 230.5 237.7 242.5 245.9 247.6 249.7 256.1 255.4 255.5 252.2 253.9 254.3 256.9 258.3 256.9 264.7 272.8 284.4 297.9 314.5 327.5 338.9 352.2 369.6 387.2 404.3 423.1 443.7 441.4 430.9 413.9 401.1
16.6 17.5 17.6 19.7 23.5 23.4 25.2 25.5 25.1 30 31.1 32.3 33.2 34.2 35.7 37.4 38.6 39.7 43.8 54.5 52.9 59.7 60.1 57.4 61.6 64.5 67.2 67.9 69.9 72.6 76.4 81.2 86.4 92.7 98.5 102.6 104.8 108.2 114.2 120.1 126.8 134.8 141.9 144.9 143.9 141.5 141.9 142.7 143.7 144.2 143.8 144.3 144.7 146.9 149.6 151.1 150.5 151.3 151.1 152.2 153 151.5 149.9 149.1 149.4 138.9 125.4 119.8 123.9 139.5 155.7 161 164.2 166.8 169.1 172.4 176.8 180.7 180.9 183.3 185.6 188.5 190.7 194 198.2 202.1 205.6 211 218.8 222.1 223.4 221.7 218.4 213.4 205 197.6 190.4 186.4 185.3 192.5 192.6 195 195.8 194.1 193.7 193.1 191.4 189.6 184.3 180.3 181.3 182.4 181.7 180.7 179.2 178 177.1 176.9 176.1 176 175.5 175.8 175.3 173.5 172.4 171 170.2 170.1 169.7 169.2 168.5 165.4 163.4 169.2 170.5 172 172.8 173.1 173.6 174.5 175.5 177.5 179.5 181.2 183.3 187.3 193.8 196.6 197.7 197.9 201.3 203.9 205.1 207 207 207 206 205.2 203.8 203.5 203.9 203.5 204.4 206.4 210.3 214 216.8 223.3 226.7 230.8 235.4 238.3 240.6 241.6 246.5 253.7 256.2 244.9 248.4 246.5 251.6 247.4 250.3 260.1 266.3 276.6 288 304.3 316.3 327.9 341.8 360.9 378 395.3 415.1 437.8 435.5 424.4 411.3 400.4
17.2 19.8 18.4 18.9 19.6 21.5 22.5 25.2 24.4 28.1 31.4 31.1 33.1 33.5 37 38.8 40.5 41.9 47.4 52 50.6 53.8 54 61 62.4 65.4 66.8 66.6 68.4 71.6 75.5 80.3 85.3 91.5 97.2 101.5 104.2 108.2 114.4 119.4 127.4 135.2 143.5 147.1 145.7 142.8 141.6 141.6 142.5 143.3 142.6 143.3 142.9 144.4 147 149.5 148.8 148.9 149.5 151.3 151.7 151.7 149.7 149.5 144.3 134.5 117.2 124.2 134.1 147.7 154.4 159.7 164.3 168 171 173.3 178.3 183.3 181.8 182.1 183.9 185.4 187.2 191.3 194.2 199 204.1 210 217.5 221.1 221.7 220.9 218.1 212.9 205 199.3 194.9 190.5 182.8 189.7 191.4 194 195.2 193.8 191.9 191.3 190 188.2 185.5 182.5 175.9 179.3 179.4 178.2 177 176.3 175 174.9 174.1 173.8 173.1 172.9 171.4 170.4 169.7 169.4 169.1 168.6 168.3 168 167.6 163.5 163.2 167.4 169.5 171.2 171.5 172.1 173.3 174.6 176.6 179.4 181.2 182.8 185.5 190.1 193.1 196.6 197.9 198.1 201.9 204.2 205.2 206.9 207.4 205.9 205.3 203.6 203.2 202.3 202 201.9 200.7 202.4 207.5 208.4 213.8 216.9 221.8 224.8 228.5 231.5 231.2 231.8 234.8 237.9 238.6 236.3 240.3 243.5 233.5 251.5 262 264 267 272.6 283.4 295.8 304.9 318.6 335.9 353.4 371.2 388.5 408 427.1 427.6 413 404.4 401.9
17 19.6 19.9 21.4 22.1 24.6 22.7 23.2 24 26.6 31.2 34.6 32.9 34.9 35.9 37.6 39.9 41.4 45.8 48.5 51.1 55.9 58.3 60.1 61.8 64.5 65.9 64.6 67.2 70.1 74.7 78.9 84.6 90.6 95.7 100.3 103.9 108.2 114.3 119.8 128.1 136.1 142.9 148 148 144 142.7 142.9 143.5 144.4 143.3 142.8 141.5 142.7 145 146.3 146.5 147.1 147.5 149.3 150.5 151 150.3 148.6 139.8 131.2 117.6 123.3 140.4 149.1 155.2 159 162.9 167.4 171.4 174.6 176.6 183.5 182.2 180.5 181.1 182.7 185.3 188.9 193.3 197.9 202.2 208.7 214.5 218.6 218.5 218.6 217.7 212.3 204.3 199.2 195.3 190.1 181.4 187.4 188.6 191.7 192.5 192.1 190.3 189 188.2 186.2 183.9 181.2 176.9 176.5 176.9 176.5 175.6 174.5 173.7 173.3 172.9 171.5 170.8 169.5 167.9 167.6 168 167.9 168 168.1 166.7 166.9 167 163 162.2 167.1 167.6 168.8 170.1 171.7 172.8 174.8 177.4 179.9 181.7 183.8 186.7 191.7 195.4 197.7 197.3 197.8 201.2 202.3 203.4 204.5 205 204.3 203.7 203 202.5 201.4 201.3 199.5 197.6 198.1 201.1 205.1 207.8 210.7 215.3 219.4 222.8 223.9 224.5 225.3 225 223.3 226.7 229.9 230.6 227.7 240.1 253.8 263.8 264.8 268.7 272.1 283.5 289.8 298.2 312 325.7 345.6 364.9 385.2 405.4 426.5 421.5 406.1 405.2 393.5
16.9 18.2 19.7 20.1 21.9 24.4 25.2 23.5 27.1 29.6 30.1 29.3 31.5 33.2 35.5 36.7 38.5 42.3 47.7 51.2 54.1 56.2 57.3 59.1 61 62.7 63.7 63.6 66.1 69.4 74.4 78.3 83.5 88.2 93.7 99.5 103.9 108.3 115.6 120.6 126.9 135.4 142 147.9 149.1 145.8 142.9 143.7 145.1 145.9 145.8 144.9 142.4 141 141.7 143.4 144.7 145.7 145.6 146 147.6 149 149.1 147.6 135.2 121.1 117.2 124.7 140.2 150.8 154.1 157.9 161.5 166.2 170.4 174.8 176.4 179.3 179.9 178.7 178.4 179 181.9 185.3 192.6 196.7 202.1 208 211.8 216.3 218 217.9 216.6 210.5 203.8 198.7 194.9 190.7 182.4 184.2 186 188.2 189.1 189.2 188.3 185.8 185.6 183.6 181 178.7 176.9 173.9 174.2 174.6 173.8 173.1 172.8 172.1 171.5 170.4 169.1 167.8 167 166.7 167.1 167.3 167.4 166.9 166.7 165.5 164.6 160.5 161.3 168.3 169.1 169.9 169.9 171.1 172.3 174.9 177 178.9 181.5 184.2 187.1 191.5 194.7 195.4 195.6 197.2 200.2 200.5 199.8 201.1 201.3 201 200.7 200.5 200.5 200.7 200 198.9 197 195.1 197.2 199.8 202.5 203.9 207.6 211.4 214.8 215.2 215.6 214.8 216.2 216.8 219.4 223.3 219.7 229.2 235.7 245.2 258.7 264.7 264.9 272.1 277.8 285 293.7 307.5 325.7 345.8 365.6 385 405.5 421.9 411.3 399.2 398.7 388.1
16.9 17.3 18.2 19 21.8 25.5 26.5 24.3 26.6 27.6 27.6 28.9 29.9 31.9 35.2 35 38.1 42.4 47.2 50.6 53.4 54.5 56.6 54.1 58.9 59.5 61.5 63.3 67.5 72.2 75.1 77.9 82.8 87.4 93.4 98.4 102.8 107.8 115 120.6 126.4 134.2 141.3 147.4 148.9 146.3 143.7 144.5 145.8 147.5 148 146.8 143.5 141.1 138.7 140.9 142.3 144.7 144 144.4 145.5 146.2 147.1 146 135.5 120.6 115.5 125 142.2 150.2 154.5 158.4 160.6 164.9 169.5 174 174.7 175.5 175.9 175.6 176.1 177.8 179.6 184.7 193 196.3 200.9 205.8 209.8 214.2 217.1 217.7 215.5 210.5 202.7 197.8 194.3 191.5 186 178.2 182.9 184.4 185.1 185.1 185 182.6 182.2 180 177.8 175.9 174.9 173.5 171.6 170.8 171.3 171.2 170.9 170.8 170.2 169 167.5 166.4 166.2 166.2 166.7 167.3 167.3 166 165 162.2 159.7 160.3 158.4 170 170.3 170 170.2 171.6 172.4 173.6 175.4 177.8 181.1 185 188 191 193.6 194.3 195 195 198.9 200.4 200.5 198.2 196.7 197.5 197.4 197.4 197.4 198 198 197.6 196.3 194.2 193.8 195.7 198 200.4 203.1 206.1 207.6 210.5 210.4 209.6 209.3 211.5 214.6 212.2 221.3 226.5 232.6 238.1 247.7 255.4 255.5 268.9 275.9 281 290.8 305.3 321.6 340.6 359.7 385.7 407 415.8 400.5 390.7 393.6 389.1
15.9 15.8 15.4 17.2 23.8 27 28 25.9 25.7 27.4 28.8 30.1 30.9 31.9 33.3 34.1 37.5 44.2 48 50.4 52.8 55 55.8 56.8 58.5 59.5 60.4 64.1 67.6 71.7 75.1 78 82.2 87.2 93.1 97.9 102.7 109 114.3 118.6 125.6 132.7 140.4 146.1 148 146.1 143.7 141.9 144.7 148 148.9 147.8 144.7 141.6 137.2 137.8 140.1 143.2 142.8 142 143.4 143.3 143.9 143.9 128.4 119.9 114.8 126 141.7 150.1 154.3 158.5 161.3 165.6 169.4 172.2 173.2 172.8 172.1 173 174.5 175.4 179.1 184.3 190.8 195.2 200 204.3 207 213.1 214.2 215.6 214.9 210.2 202 195.9 192.3 189.8 187 181.3 176.6 180.9 180.5 180.9 180.3 179.3 177.8 176.5 174.9 173.3 173.1 172.5 172.1 170 169.7 170.3 169.7 168.6 167.9 167 165.7 164.6 164.8 165.8 166.9 167.8 167.8 167.1 163.4 156.3 159.6 162 168.7 171.3 171.6 170.5 170.1 170.6 171.5 172.6 174.8 178 182.3 185.8 188.3 190.9 193.3 196.1 197.3 195.8 194.6 196.9 197.9 196.4 195 193.5 192.9 193.7 193.2 194.8 194.8 194.3 194.2 193.7 190.4 192.1 194.7 197 198.9 201.5 203 205.3 205.1 205.7 205.6 207.2 208 213 218.3 223.4 228.3 233.4 239.6 247.3 258.3 271.6 277.7 281.8 291.7 305.2 322.8 341.1 363.1 389.4 405.4 411.3 394.3 390.1 390.2 384.6
15.7 15.5 15.8 16.2 24.5 26.2 27 28.1 27 27.3 28.9 30.1 30.4 31.8 34.3 37.9 41.2 45.4 48.6 51.7 53 55 56.1 57.4 58.3 59.1 59.9 63.3 67.3 70 73.2 76.6 81.6 86.7 92.1 98 103.3 108.4 115.2 120.5 124.7 131.9 139 143.9 145.5 144 142.1 140.2 142.8 146.5 148.5 147.5 144.8 141.6 136.7 135.1 137.8 140.6 141.5 140.6 140.5 140.7 140.8 138.2 125.2 112.9 112.9 130.6 144.4 150.4 153.6 158.4 161.3 166.3 170 171.3 171.5 171.4 170.8 171.9 172.1 174.5 177.5 182.8 189.2 193.7 198.6 201.4 204.2 209.1 213.5 213.8 213.6 209.4 199.7 193 189.3 187.8 184.9 181.3 177.6 175.8 177.8 178 177 176.4 175.3 174.7 173.2 172.5 171.6 170.8 171.2 169.7 167 168.4 168.1 166.7 165.9 164.5 164.4 163.5 163.2 164.5 165.7 167.6 168.5 167.4 160.4 157.9 164.8 168.2 170.3 171.8 171.5 170.1 169.4 169.4 170.4 172.4 174.8 180.2 184 186.6 188.6 190.6 192.6 195.9 198.7 198.5 195 192 191.6 193.4 192.1 191.8 191.3 192 191.4 190.5 190.7 190.4 191.3 191.3 189.9 189.7 191.8 194.8 196 196.9 199.5 200.9 201.7 202.5 201.8 202.3 206.3 209.8 213.7 219.2 223.2 230.7 239.4 244.6 253.1 261.6 268.2 276.6 290.2 309.7 330.2 349.3 372.6 392.8 404.8 406.5 396.5 390.7 381.2 375.9
15.8 15.6 15.6 19.3 22.8 24.4 23.8 27.2 28 28.9 29.9 30.7 33.1 31.6 35.5 39.1 42.3 45.5 50.7 52 53.4 54.5 55.1 57.5 57.4 57.7 59 61.8 65.5 68.6 71.9 76.5 81.3 86.9 91.9 97.4 101.7 109.2 115.8 119.1 125.8 130.5 137.3 141.2 142.3 141.1 139.2 139.8 140.9 144.4 146.7 146.1 143.6 140.6 136.3 132.5 134.3 136.8 139.4 138.8 139.4 139.2 138.3 132.2 118.9 110.9 120.5 135.1 145.4 149.8 153.3 157.3 161.8 166.5 171.4 172.5 170.7 169.9 170 170.4 171.1 173.7 176.8 181.7 187.1 192.1 196.7 198.9 200.9 205.4 210.3 212.9 211.4 207 196.7 189.1 186.7 184.3 181.5 178.4 175.8 173.3 176.4 175.9 174.8 173.6 173.3 173.2 173.3 170.6 167.1 170.9 170.2 168.2 166 165.8 165.9 165.3 164.8 163.5 162.9 163 162.6 162.5 162.5 165.6 167.2 164.6 157.2 158.2 165 168.1 169.9 170.9 170.3 169.3 168.5 168.7 169.7 172.1 175 180.9 183.8 186.4 188.2 190.2 192.4 194.3 196.5 196.3 195 192.3 189.3 189.2 189 190.1 189.8 190.3 190.9 190 187 187.3 188.3 188.6 187.9 187.5 188.3 190 192.4 194.5 196.2 197.9 199.2 199.6 198.5 199.9 203.2 206.2 211.2 215.8 221.4 228.3 234.1 238.2 244.1 256 269.9 278.7 292.2 312.1 332.7 354.1 375.2 391 402.2 401.5 390.9 383.3 381.5 380.4
16.7 16.8 16.7 16.7 23.6 22.8 23.4 25.3 27.8 30 31.4 34.2 31.2 33.1 33.4 38 41.6 46.5 48.9 47.1 52.8 53.6 55.1 56.3 56.7 57.2 59 61.5 64 67.5 72 76.7 81.3 85.7 90.9 96.1 101 109.7 114.5 119 124.4 130 135.1 137.7 138.3 136.9 135.8 137.2 139.1 141.5 144.1 143.8 141.9 138.6 133.9 130.3 130.6 135.2 137 136.9 137.3 137.5 136.6 129.2 109.6 109.2 125.3 139.4 144.7 148.9 152.4 156.3 160.6 167.1 172.7 173.6 171.2 169.4 168.7 169 170.9 172.8 175.7 180.6 185.5 192.1 196.6 198.5 199.2 201.8 207.8 209.9 207.3 201.6 191.2 186.1 187.5 187.1 184.5 180.1 176.5 172.5 171.9 172.9 171.2 171 170.7 171.9 169.8 167.1 168.8 167.2 165.4 165.8 164.6 163.7 163.4 163.5 162.7 162.7 162.3 162.1 162.4 162.1 162.9 164.9 166.2 159.1 155.9 157 164.5 166.7 168.8 169.5 169 168 167.9 168.3 169.5 172 175 179.9 182.2 184.6 187 188.8 191.2 192.5 193.8 193.8 191.9 189.8 187.7 186 186.9 187.5 187 187.7 188.2 186.1 185.3 185.5 185 185 184.5 185.8 186.9 187.5 188.3 190.9 193 195.1 196.5 195.7 195.3 197.2 200.2 204.5 208.4 213.5 218.8 224.8 227.3 239.6 249.8 260.1 273 286.5 298.2 312.5 335.1 356.8 375.1 391.2 398.3 397.4 384.9 383.5 381.5 378.1
16.5 16.5 16.7 17.7 19.7 21.7 23.5 25.7 28.2 31.2 31.9 35.3 28.2 34.8 31 37.4 41 44.4 48.2 51 52.7 53.6 54.5 55.4 55 56.2 57.9 60.6 63.3 67.6 71.7 76.3 80.4 84.7 89.7 94.9 100.5 107.4 112.3 116.5 121.8 126.6 131.5 134.1 134.7 133.6 132.9 134.6 136.5 139.3 141.5 141.7 140 136.4 130.9 129.3 128.6 131.3 134.2 135.4 135.3 136.1 134.7 115.9 106.7 111.7 127.3 140.4 144.8 147.9 151.8 155.5 160.1 165.8 172 174.9 172.4 170.1 167.7 168.6 169.9 171.7 174.6 179.4 184.7 191.1 197.7 200.4 200.2 199.8 203.1 206.3 202.8 194.9 188.3 185.6 186.5 187.4 185.1 180.5 176.7 171.6 170.1 169.5 170.4 168.9 169.1 168.9 167.4 166 165.3 164.9 164.6 164.2 163.5 163.3 161.8 162.4 161.8 161.6 161.6 161.1 162 162.6 163.6 165.4 165.8 166.2 158.3 156.1 162.2 164.6 165.9 166.9 167.1 167.1 165.6 167.5 169.8 172.9 176.3 178.9 180.6 182.7 184.6 186.8 188.2 191.1 192 188.1 189.2 186.8 184.7 182.9 183.7 183.8 183.7 184.2 184.7 184.2 183.7 182.5 182.5 181.4 179.2 184.9 185.4 185.2 187 188 190.1 192.9 193 193.1 191.6 193.4 197.3 201.5 206 206.9 215.9 223.6 231.6 240.1 251.1 264.8 279.8 295.8 311.2 329.3 345 361.6 378.8 392.2 392.1 387.4 384 378.4 376.1 368.9
16.9 17 17 17.5 19 22.3 23.9 26 29.2 31.2 32.5 33.5 33 37.1 30.6 37.7 41.8 44.5 48.6 51.6 52.8 53.4 53.4 53.6 53.6 55.6 57.3 60.5 63 65.9 70.3 74.9 79.5 85.2 89.6 94.3 99 105.7 110.1 113.9 118.4 122.1 126.5 129.7 130.9 130.8 129.9 131.9 134.2 137.1 139.6 139.9 137.7 133.4 128.9 127.7 127.4 128.9 131.4 132.3 133.8 134.9 129.5 107.1 104.8 119.5 130.7 139.7 144.2 146.1 149.5 153.2 157.4 162.7 169.3 173.8 172.9 169.5 167.8 168.8 169.8 171 173.2 178.9 183.3 190.4 196.7 201.3 202.5 199.3 195.3 201.7 198.6 192.4 186.3 185 185.2 187.5 185 181.4 176.4 172.6 169.6 168.5 168.5 167.8 167.2 166.7 167.1 165.9 165.1 164.1 163.3 163 162.5 162.1 160.6 161.3 160.9 160.7 160.9 160.7 162.3 163.5 164.5 165.2 165.4 166.5 164.4 156.3 152.9 161.5 163.4 164.5 165 164.4 163.4 167.2 169.6 172.7 175.3 177.2 178.9 180.4 181.9 184.2 187.2 188.9 188.8 187.6 185.6 182.6 181 180.3 180.5 181.5 181.5 181.1 181.1 180.2 179.1 179 180.8 180.3 179.4 182 182.6 183.4 186 186.2 186.8 188.1 190.2 188.6 188.8 190.8 193.7 195.4 197.5 207.6 214.8 221.6 230.7 239.9 251.8 265.4 284.5 303.3 323.3 341.7 357 367.6 378.3 395.3 396.8 394.1 387.9 374.5 355.2 358.5
19.2 17.4 21.4 22.5 20.9 22.7 24.8 27.2 28.6 30.6 32.3 33.1 33.9 35 30.4 37.2 40.6 43.8 47.7 50.2 51.1 51.9 52.1 52 53.1 54.4 55.9 57.6 60.4 64 68.2 73.5 80.1 86.1 90.1 93.5 98 103.9 107.8 112.5 115.6 118.5 121.5 124.6 127 127 127.9 129.5 131.4 134.7 137.4 138.7 135.8 132.2 125.9 126.5 126.6 127.3 128.6 129.5 132.3 133.4 123.8 106.7 112.6 122.9 134.3 138.8 142 144.5 147.1 150.3 154.3 159.3 165 171.3 173 170.2 167.5 168.2 169.3 170.3 172.6 178.1 182.6 188.8 195.3 199.5 200.6 200 195.8 195.4 193.8 187.7 184.1 183.3 185.7 186.3 184.3 180.7 175.4 172.5 169.8 168.2 167 166 165.9 165.3 165.6 165.5 165.2 163.7 162.5 162 161.4 160.7 160.3 160.5 159.9 159.6 159.5 160.4 161.9 163.1 164.6 165.6 167.7 167.4 166.6 164.8 153.3 153.6 159.9 161.7 162.8 163.2 163.3 166.4 169 171.1 172.3 174.1 176.2 178.3 180.1 182.1 184.2 185.3 185.7 183.9 181.2 179.9 178.1 177.5 178.2 178.2 177.9 178.8 178.4 176.5 176 176.1 177.6 177.7 176.2 177.9 179.1 181.8 183.2 184.3 185.2 185.5 187.1 185.4 185.7 187.6 193.2 194.8 198.5 206 213.8 220.4 228.9 239.2 250.7 264.2 282.6 306.2 328.4 348 366.9 383.7 391.4 391 392.9 393.3 388.9 376.7 354.6 326.2
21.5 17.8 16.2 17.2 18.9 18.6 24.1 25.2 29.2 31.8 34.1 34.8 35.6 33.8 30.3 36.6 39.1 42.7 45.7 48.3 49.8 50 50 50.7 51.5 52.5 54.3 56 58.4 62 66.5 71.8 78.7 84.9 90 93.5 97.6 102.7 106.3 109.3 112.6 114.8 117.6 120.3 122.6 123.7 126.2 127.7 128.7 132.5 135.8 137.9 135.8 132.3 127.9 126.1 125.6 126.6 126.8 127.9 131.2 132.3 108.8 105.2 112.7 128 135.3 137.5 140.7 142.7 145.9 148.2 151.3 157.3 161.8 167 170.7 170.3 168.5 167.4 168.6 170.1 172.8 177.9 184 189.5 191.9 195.4 195.9 196.6 195.2 187.9 187.8 184.8 183.1 183.8 185.4 185.8 183.3 179.6 173.4 170.2 168.9 167.4 166.6 165.3 164.3 163.9 164 163.6 163.1 162.3 161.6 161.1 160.6 159.8 159.1 159.2 159.6 158.9 158.6 160.1 162.1 164.7 166.7 167.4 168.2 168.6 167.3 165.6 162.9 149.2 151 149.9 159.8 162.2 162.3 166 168.5 169.6 169.7 170.4 173 175.6 177.3 179.3 180.9 182.1 182.3 180.9 178.9 177.5 176.1 174.7 175.6 175.3 175.3 175.1 175.7 174 173.2 172.6 174.3 172.8 172.6 177.4 178.6 179.3 180.4 181.7 182.1 182.8 182.2 182 183.6 189.7 194.7 199.7 205.5 211.2 214.3 222.1 230.8 241.9 254.1 266 286.4 311.8 333.2 353.9 373.9 392.4 398.1 392.5 396 396.6 389.9 375.5 351.2 321.1
21.5 19.1 17 17.9 20.7 18.6 24.9 26.7 29.3 29.4 30.9 35.5 35.7 29.2 31.5 33.6 37.3 40.9 43.8 46.4 47.4 48.4 48.3 49.6 50 51.4 53.6 54.7 57 60.9 64.7 69.6 75.8 82 89.1 92.7 97.3 101.5 104.6 108.1 110.3 112.5 114.6 116.9 118.8 121.9 125.2 125.8 127.1 130.5 134.8 136.8 135.1 131.8 128.1 126.8 125.3 125.8 127.5 128.2 129.8 129.6 105.8 106.8 113.7 128.4 134.2 136.9 140.6 141.8 144.3 146.1 148.5 156.8 158.8 163 167.7 169.7 167.8 167.1 168.6 170.1 173.7 179.4 187.7 192.8 187.2 190.6 191.6 192.4 192 186.1 178.3 181.4 180.8 183.3 184.1 184.8 181.7 177.9 172.7 168.8 167.3 166.5 166 165.1 164.3 163 162.7 161.7 161.2 161.2 160.4 160.1 159.9 159.2 158.1 157.1 158.9 158.7 159 160 162.6 165.3 165.9 167.2 168.1 168.5 167.4 164.9 161.7 157.1 147.6 147.9 160 161.6 162.2 165.7 168.7 169.4 168.7 168.3 170.2 173.5 175.5 177.2 177.9 178.4 177.6 177.4 175.5 174.1 172.9 171 171.7 171.1 170.2 171.2 172 171.8 170.4 169.1 170.4 167.7 172.8 175.1 176.5 177.7 177.2 178.1 179.5 178.3 179.1 178.8 184.5 190 196 202 207.4 216.4 221.6 225.8 236.3 247.4 258.3 273.9 286.3 314.4 337.5 360 383.7 398 402.2 403 400.9 397 388.5 373.7 348.3 315
20.9 20.3 17.2 17.5 19.2 18.7 25.1 26 29.1 31.9 32.4 33.4 32.8 28 32.8 30.9 35.4 38.5 42.3 44.5 44.9 46.1 46.6 47.9 48.9 50.8 52.7 55.1 56.4 60 62.8 67.9 72.8 79.3 85.9 89.7 94.4 98.8 102.7 105.7 108 110.2 112.5 114.4 116.9 120.2 123.8 125 126.4 130 133 135.7 134.6 131.9 128.9 126.6 121.3 123.4 126.3 126.8 128.5 129.4 106.8 107.3 114.7 131 133.6 137.4 140.3 142.4 143.6 145 147.7 154.9 156.7 160.6 164.2 167 163.3 168.1 169.8 171.4 175 181 190 195.1 185.9 184.4 187.1 188.3 186.7 182.6 177.7 174.7 178.7 180.7 181.8 181.1 178.8 175.8 172.1 167.7 166.1 165.4 165 164.3 163.7 162.5 161.8 160.9 159.9 158.8 158.3 159.2 159.1 158.4 157.6 154 158.9 159 158.7 160.9 162.2 164 165 166 167 167.5 166 164.1 160 152.4 145.5 146.8 160.9 162.1 163.7 165.1 168.7 169.1 167.9 165.7 168.1 170.5 172.8 174.2 174.5 175.1 174.3 172.7 171.6 169.7 169 167.5 167.6 167.1 165.7 168.2 169.3 169.1 168.2 166.4 165.4 166 170.2 171.3 172.5 174.9 173.6 174.8 174.7 174.7 177.5 181.2 183.9 191.4 198.2 204.6 210.7 221.6 228 235.7 241.5 255.3 269.3 288.1 305.6 319.4 345 367.6 393.7 402.8 406.2 405.9 403.2 398.9 388.1 373.3 347.8 315.6
19.5 21 19.6 17.9 19 21.1 25.2 26.5 28.6 31.1 32.3 33.4 33 28.8 32.8 30 34.2 35.9 39.5 41.2 44.5 45.9 46.4 47.4 48.9 50.3 53.7 55.6 56.5 58.6 62.8 66.1 69.6 75 82.5 86.6 89.8 95.6 99.3 102.6 105 107.3 110.2 111.9 115.7 118.1 122.9 123.5 126.7 127.8 131.7 134.5 134.6 132 129.6 127.1 125.7 121.7 125.3 125.9 126.8 114.8 104.6 105.7 119.4 131 132.9 137.7 139.4 140.6 142.8 143.7 146.6 149.9 155 158.2 161.6 163.6 166.8 168.8 169.9 171.9 175.4 181.5 188.7 192.5 186.7 179.4 181.7 182.9 182.7 179.1 176.2 171.7 175 177 177.9 177 174.8 173.9 171 169.2 166 165.5 164.4 163.7 162.9 162.1 161.3 160.4 159.1 158.2 157.4 158.1 157 157 157 153.2 157.8 159 159.2 159.2 160.9 163.1 164.8 165.5 166.3 166.2 164.6 163.3 159.7 146.6 145 152 160.1 161.5 162.7 164.8 166 167 165.3 163.9 164.5 168.1 169.2 170.2 171.3 171.5 171.3 169.9 169.2 167.7 166.3 165.1 164.4 163.6 164.7 165.8 165.4 166.6 165.4 163.9 164.1 165.5 165.8 167 168.3 170.3 170.8 172.2 173.6 175.9 178 180.5 185.2 193.4 200.2 210.3 219.8 229.3 237.8 244.9 253.5 260.8 277.7 297.1 316.6 335.4 356.6 380.2 400 408.2 410.6 408.9 405.9 400.2 390.1 373.3 346.9 316.6
21.9 23.6 23.4 21.3 22.3 23.2 23.1 25.9 28.3 30.4 32 32.7 32.2 30.9 31.3 29.9 33.5 34.8 38.8 43.2 45.3 46.3 47.6 48 49 50.3 52.9 55.6 55.7 57.5 61.8 64.8 67.7 71.8 77.9 82.8 87.2 90.9 95.9 99.1 102 104.3 105.7 110.5 113.3 116.4 120.9 122.7 124 126.7 129.4 132.1 133.6 131.9 128.4 126.3 125.6 120.4 116.8 121.3 116.2 103.2 101.5 107.9 124.7 131 133.2 136.6 138.3 138.1 141.1 143.9 146.7 149.6 153 153 156.4 161.3 167.4 169.6 170.5 172.8 176.8 181.5 184.6 184.5 180.5 176.8 176.2 179.3 178.2 175.5 172.1 169 172.2 173.5 174.2 173.2 172.6 171.2 169.2 166.9 166.4 166.2 165.2 163 162.2 161.3 160.4 159.7 159.1 157.1 156.5 156.8 156.3 156.3 155.8 153.8 156.4 156.9 157.5 159.4 160.8 162.4 163.7 164.2 165.1 164.8 163.3 162.2 159.9 152.5 141.6 151.8 158.6 159.9 161.5 162.8 164.6 164.7 163.9 162.6 162.9 165.7 166.5 167.5 167.7 169 169.1 169.5 167.3 166.7 165.1 163.2 161.6 161.4 162 162.7 163.7 164.1 162.9 161.3 161.5 161.3 163.9 165.5 166.8 168.2 169.7 171.3 170.4 175.1 176.5 180.7 187.1 196.4 204.1 217.1 226.4 237.9 248.2 258.6 267.4 274.5 286.9 303.9 325.1 345.3 369.5 392.4 406.4 414.1 415.2 413.2 409.7 402 392.6 377.3 350.4 319.7
25.9 25.4 25.3 22.6 21.9 23 22.6 24.6 28.1 30.2 31.4 31.3 30.8 30.7 30.7 29.5 32.1 34.4 38.4 42.9 45.3 45.3 47.7 48.4 49.2 51.2 53.4 54.2 55.1 57.8 60.2 63.6 65.9 69.5 74 78.9 83.3 87.8 91.7 95.1 96.4 102.1 105.2 109.3 112.1 115.3 118.3 120.3 122.8 125.4 127.7 129.6 130.4 128.3 126.7 126.2 125.8 126.1 125.2 120.6 104 101.9 98.5 116.4 128.3 131.4 133.3 135.9 137.8 137.7 140.9 143.5 147.9 151.9 156.8 159.6 161 165.2 167.6 171 172.4 174 177.2 182.2 182.8 180.2 177.2 175.1 173.9 176.6 176.3 172.4 170.3 167.4 168.8 170.2 170.5 169.6 168.8 168.4 166.6 165.5 165.2 165.5 164.2 162.6 161.5 160.6 159.9 159.3 158.7 157.8 155.2 156.1 155.3 155.4 155.2 152.8 156.1 156.2 157.2 158.8 160 161.4 163.8 164.8 164.8 163.6 161.4 160.7 159.3 148 143.6 151.8 156.9 158.6 160.5 161.7 162.8 163.7 162.8 161.8 161.8 164.5 164.9 165.4 166.2 167.5 167.6 165.5 165.5 164.1 162.7 161.4 160 159.6 159.7 160.2 160.9 160.5 160.5 160 160 161 162.1 163.7 165.8 167.4 168.7 169.1 172.2 174.5 176.2 181.1 188.2 198.6 206.7 218.8 232.7 243.5 258 266.3 281.5 291.9 304.2 318.9 336.5 357.8 382.4 401.2 413.4 419.4 419.9 417.7 413.2 406.4 397.7 383.7 356.5 329.7
32.1 31.2 25.7 23.9 20.5 23.9 25.3 26.7 29.6 30.1 30.3 30.3 30.4 30.1 28 29.3 31.5 33.8 37.4 41.2 44.1 45.8 46.8 48.7 50 51.2 52.6 53.2 54.4 57.8 60.2 62 64.1 66.7 71.1 75 79.7 83 87.1 92 95.8 99.7 103.5 107.3 111.8 114.3 116.3 118.9 121.4 124 126.8 127.6 127.7 130.5 130.7 129.1 127.3 126.9 125.8 121.3 102.3 96.7 100 120.1 127.8 129.2 131.9 136 137.4 137.8 140.8 144.4 148.9 153.6 157.9 161 163.8 167.2 170.4 172.8 174.9 176 178.5 186.6 184.3 180.7 178.6 178.1 176.4 171.6 172.6 170.7 168.5 165.7 165.3 166.9 167.8 166.9 166.3 166 163.9 163.4 162.9 162.5 163.1 163.4 163.3 160.2 159.3 158.8 158.2 157.1 155.8 153.9 154.1 154.5 154.8 153.1 155.6 156.1 157.1 158.1 159.3 160.8 162.3 162.9 163.3 162.4 160.7 157 156.6 143.3 143.7 150.2 157.5 158.2 159.6 160.9 161.6 162 161.7 161.1 161.1 163.7 164.4 165.3 165.7 166 165.8 163.7 162.8 161.1 160.4 159.5 158.4 156.3 157.3 157.7 158.3 158.1 158 158.5 158.3 160.2 161.3 163.4 164.6 166.4 167.1 168.4 171.3 173.1 178.1 182.8 190.1 197.7 206.1 215.4 234.9 246 260.6 273.6 287.7 304.4 318.1 332.6 349.1 368.9 391.9 409.1 419.8 424 423.8 420.9 416.8 410.6 401.9 391.9 366.7 339.1
30.7 31.8 25 24.1 23.5 25.8 26.7 27.2 28.6 28.9 29.5 29.6 29.4 29.3 27.9 29 30.1 33.3 36.5 40.1 43.3 46.1 47.6 49.5 50.2 50.5 51.2 52.5 53.7 56.5 58.8 61.3 63.2 65.5 68.1 71.1 75.6 80.2 84.4 88.9 92.8 97.4 101.7 105.8 109.8 111.9 113.9 116.9 120.3 123.6 126.5 128.3 131.5 133.7 133.5 131.5 129.1 128.2 127 113.9 95.9 96.5 106.7 123.4 126 128.7 132.6 135.5 131.9 138.4 142.9 147 151.6 154.7 158.5 162 168.6 173.6 174.4 175.9 177.6 179.3 182.9 191.5 189.1 183.9 184.6 186.2 183.1 176.3 166.4 166 165.6 163.4 164.4 164 164.3 165.2 165.2 163.4 162.3 160.1 160.5 159.7 161.4 162.6 161.5 160.9 159.3 158.1 157.1 156.8 155.8 154.6 153.1 152.3 146.3 154.2 155.8 155.7 156.4 157.3 158.5 159.3 160.4 160.8 160.8 160.5 159.3 152.9 144.7 143.2 146.1 154 159.4 159.1 158.7 159 159.9 159.6 158.6 158.5 159.1 162.1 163.4 164 164.4 164.8 164 161.4 160.9 159.1 157.9 156.9 156.5 155.6 155 155 155.5 156.3 157 156.8 158.4 158.4 160.9 162.3 163.8 164.1 166.3 168.5 171.8 175 178.5 184.1 190.6 197.9 206.3 216.6 231.1 241.5 257.7 268.5 287.8 309.2 325.2 341.6 359.1 376.3 397.2 415.4 425.4 429 426.4 423.1 418.9 411.9 403.5 395.9 376.1 348.2
27.8 28.1 22.4 24.1 27.3 27.7 27.2 26.6 26.4 27.6 28.4 29 29.1 28.5 28.8 28 29 33 35.2 38.5 42.4 45.1 47.2 48.1 49.6 49.8 50.7 51.8 52.9 54.9 57.9 60.1 61.5 63.2 65.9 69.6 73.3 77.9 82.2 86.6 91 93.9 100.5 104.3 107 109 112 115.3 118.2 121.3 125.2 128.9 133.2 136.1 135.6 133.3 131.5 130.6 128.3 121.2 94 94.8 109 123.7 124.7 128.6 131.8 134.1 132.6 139.1 143.2 148.2 152.6 155.4 158 165.1 173.5 183.1 182.1 180.9 181.8 184.2 185.4 191 191.7 190.3 191.3 187.9 183.2 175.3 163.1 162.6 162.5 163 163.1 162.5 162.2 162.5 162.3 161.6 160.7 158.9 158.3 158.4 159.2 160.8 160.6 160.6 159.8 159.8 157.6 156.6 155.2 154.1 151.1 150.4 152 154.2 154.8 155.1 155.8 156.7 157.3 157.7 158.1 158.5 158.7 158.2 156 143.9 137.7 142.2 155 159.8 161.1 160.3 158.8 157.5 157.2 157.2 156.1 156.1 156.7 159.8 161 162 162 162.2 161 159.6 158.8 157.6 156.2 155.9 154.1 153.2 153.1 153.6 154.5 155.3 155.4 156.2 158 158.4 160.3 161.2 161.6 164 166.3 169.1 172.2 175.5 179.6 184.3 190.9 196.1 205.1 219.4 235.7 251 263.6 272.4 278.9 306.7 328.3 345.6 363.8 379.7 398.1 417.8 426.4 431.1 427.8 423.5 418 409.8 402.6 396.5 384.8 357.8
23.7 23.5 22.4 20.4 26 26.4 26.1 25.6 26.2 26.9 28 28.4 28 27.7 28.6 30.9 29 34.1 34.8 38.4 41.2 44.5 46.9 47.8 49 49.9 49.8 51 52.6 54 56.1 58.2 59.3 61.4 64.2 67.7 72.5 76.4 80.8 85.6 90.5 93.9 98.5 102.2 105.3 107.9 111.2 114.8 117.3 120.7 125.2 131.7 135.5 138.1 138 135.8 134.7 132.4 130.3 127.1 95.5 91.9 111.9 123.5 123.6 126 128.8 131.2 131.6 138.8 142.9 148.7 153.3 154.7 157.4 165 172.3 181.9 187 191.1 191.4 188.5 182 182.7 188.7 188.5 186.5 182.3 177.6 169.2 158 159.1 159.6 161.8 162.5 161.4 160.3 160 158.7 159.3 159.1 157.9 156.7 156.9 157.9 158 159.1 159.3 159.1 159.2 158.4 156.3 155.5 154.5 152.6 140.8 151.6 153.4 154.4 154.5 155.2 155.5 155.9 155.5 155.9 156.5 156.5 156.6 149.1 137.7 145.9 155.3 156.3 159.3 161.6 162.7 162 159.1 156.7 154.8 154.6 154.5 155.3 157.1 158.2 158 159.3 158.5 158 157.6 156.6 155.9 155.5 154.2 153.1 152.6 152.2 152.6 153.1 154.1 154.6 156.1 157.2 157.8 159.8 160.9 161.9 164.4 165.8 169.3 171 173.5 178.4 186.1 193 202 210.6 223.6 249.3 266.3 279.4 293.6 294.3 317 322.5 344 364.5 379 396 412.8 423.4 425.7 422.6 417.4 410.8 399.6 390.8 383.9 374.5 361.5
20.2 23.9 22 19.2 23 23.8 24.3 25.2 26 26.5 27.4 27.1 27.3 26.9 28.2 29.4 28.8 32.9 35.5 38.2 40.7 43.8 45.9 47.4 48.2 49.5 49.5 50 51.4 52.6 54.9 56.8 59 60.5 64.1 67.6 71.2 75 79 83.3 87.8 92.5 93.9 99.3 103.3 106.9 111.6 114.4 117.2 121.3 127.1 134.6 138.4 141.4 140.2 138.8 137.7 134.9 132.4 128.7 102.6 90.9 103.2 123.1 123.4 124.3 126 124.1 131.2 136.8 142.3 145.7 150.3 153.3 157.1 161.6 166.1 173.5 183.5 190.8 194.6 188.4 179.2 175.1 177.8 182.3 181.6 177.4 170.5 161.9 155.9 156.6 159.9 160.5 161.9 159.7 158 157.2 156.7 155.9 155.7 157.2 156.5 155.6 156.7 157.3 158.3 157.8 158.3 159 158.7 155.8 154 153.6 149 138.6 150.5 153.8 154.1 154.4 154.7 154.9 154.5 154.3 154.2 154.8 154.7 154.6 151.2 137.5 146.1 155.1 156.9 159.3 160.9 163.8 164.2 161.8 158.4 155.8 153.6 153.2 153.9 154.1 155 156.3 155.9 155.8 155.6 155.3 155.1 154.9 154.4 153.9 153.2 150.9 150.7 151.9 152.3 153.4 154.3 155.4 156.2 157.4 158 159.6 162.1 163.9 166.3 170.2 172.1 174.8 180 186.8 196.5 205.6 222.9 236.1 256.7 273 289.1 293.7 302.9 324.4 337.4 351.4 362.8 374.9 387.1 397.6 410.1 408.8 405.3 399.6 393.7 386.4 380.7 371.1 363 351.5
