ncols 200
nrows 87
xllcorner 260000
yllcorner 335400
cellsize 50
2.2 2.4 2.5 2.6 3 3.1 3.5 7.8 14.3 21.2 29.9 33.2 44.8 51.8 53.8 54.5 45.5 40.7 47.2 45.4 51.9 60.6 72.1 78 73.6 68.4 59.6 55.9 54.2 50.1 55.4 53.6 46.2 37.3 30.7 26.8 20.2 13.1 12 11.9 11.9 13.2 16.7 23.8 35.5 50.8 52.1 46.7 37.7 35 37.6 39.1 36.8 33.3 31.7 37.9 40.4 48.4 48.5 34 15.2 2.3 2.4 1.2 1.2 1.2 1.2 1.2 1.2 1.2 2.1 1.2 2.5 3.1 3 3 3 1.2 1.2 1.2 1.2 1.2 1.2 1.2 2.3 3 2.1 2 2.1 2.4 2 2.4 2.5 2.5 2.6 2.8 2.8 2.7 2.9 4.6 3.1 2.8 2.7 2.6 2.4 1.2 1.2 1.2 1.2 1.2 15.5 32.3 47.7 68.3 93.7 129.1 149.6 166.5 176 196.6 190.3 189.6 198.5 198.1 191.8 190 184.4 182.4 189.3 189.6 188.5 187.5 184.6 183.7 187.3 189 189.8 190.9 194.5 190.5 176.4 160.3 153 149.2 145.8 148 152.9 153.3 154.2 153.2 154.6 160.7 166.5 170.2 173.2 175.5 180.3 185.5 188.8 189.8 192 193 190.7 185.6 182.7 174.3 166.3 161 157.7 151.8 150.7 153.4 147 147.5 145.1 151.6 159.4 163 165.9 167.8 169.7 174.2 174.5 176.8 181.6 181.9 185.3 186.6 189.1 191.9 196 200.9 205.3 212.6 217.5 223.1 229 233.1 235.7 238
2 1.7 2 2.5 3.1 3.2 4.3 11.1 19.3 29.7 34.6 49 58.3 56.2 51.5 45.3 41 42.5 46.4 47.7 64.7 78.6 81.5 76.7 72.6 65 64.3 57.9 50.1 34.2 35.1 37.9 28.5 25.2 20.7 12.8 11.2 11.6 11.5 12.6 15.4 18.9 28.5 34.6 48.1 42.3 46.7 38 33.7 29.3 40.7 38.5 39 37.7 49 46.3 46.3 49.3 42.8 23.5 8.1 2.6 1.2 1.2 1.2 1.2 1.2 1.2 1.2 1.2 1.2 1.2 1.2 1.9 2 1.9 1.8 1.2 1.2 1.8 1.2 1.2 2.3 2.5 3 2.8 2.1 1.9 2 2.5 2.3 2.1 2.4 1.9 2 2.2 4.9 7.9 14.4 8 6.4 3.4 2.9 2.6 2.5 1.2 2.4 2.7 6.1 20.6 35.5 51.8 70.1 92.4 123.5 157.4 171.3 183.6 196.6 195.7 200.1 200.3 202.8 201.9 199.1 189.4 186.5 176.4 180.3 179 183.8 184.8 190.9 194.9 195.9 193.9 195.3 199.7 195.9 195.2 186.3 168.3 157.7 155 156.8 161.1 161.8 155.9 156 155.8 160.1 166.6 171.1 175 177.6 180.4 182.1 183.7 187.3 189.5 191.8 192.9 191.8 188.1 180.8 173.4 168.2 163.6 160.9 157.7 153.6 150.1 148.7 147.4 143.3 151.3 158.5 160.5 162.6 165 166.4 170.7 172.4 176.1 176.5 181.4 183.9 184.6 185.3 187.4 192.1 197.3 202.6 207.8 213.6 220 225.4 231.4 235.5 238.8
2.3 2.1 2.1 2.4 2.6 9.1 14.7 22.8 32 38.8 47.7 55.6 60.3 55.2 53.4 47.7 43.6 45.8 48.1 67.7 85.8 79.9 79.8 70.9 63.2 66.1 65.1 59.9 36 20.6 21.8 16.7 18.3 14.8 12.4 10.9 11.1 11.5 14.4 17.3 21.4 33.2 39.6 35.1 35.4 46.6 44 35.6 26.6 25.6 36.8 40.8 40.5 45 51.3 54 43.2 39.3 32.8 24.3 1.2 1.2 1.2 1.2 1.2 1.2 1.2 1.2 1.2 1.2 1.2 1.2 1.3 1.2 1.2 1.2 1.2 1.2 1.2 12.5 1.2 2.5 2.9 3.2 4 2 2.3 2.4 2.4 2.3 2.3 2.3 2.4 2.9 3.2 9.8 20.7 32.9 42.2 31.8 21.5 11.5 8.7 3.8 2.9 1.2 1.2 3 11.6 32.4 51.6 73.8 93.1 125.7 151.8 163.2 170.2 180.3 189.6 197.4 199.3 206.7 206.4 205.1 196.5 188.7 176.9 171.6 170.3 166.8 166.8 172 178.5 189.7 197.5 197.9 198.8 203.7 208.2 204.8 188.6 179.8 168.2 170.5 169.4 167.8 164.2 158.7 155.9 158.4 163.9 168.5 172.3 174.1 176.1 177.9 179.4 181.4 184 187.2 191.8 189.8 189.7 183.8 173.4 169.8 165.8 162.7 161 159 153.8 152.1 150.8 143.4 147.3 150.9 157.6 159.3 162.1 167.8 169.8 170.7 172.1 175.4 175 175.7 179.2 182.3 186.7 191.1 190.6 191.8 196.6 201.2 208.3 218.4 223.1 228.1 231.7 235.5
2.2 2.6 2.4 2.9 10.9 21 29.5 37.4 44.7 52.2 55.3 58.2 56.8 54.2 50.4 48.3 48.9 56.3 67.2 77.6 76.1 74.6 69.1 66 62.9 62.6 60.7 48.8 32.3 14.3 14.2 11.8 11 11.6 10.7 11.2 12.8 17.1 24.2 27.3 38.2 40.3 27.9 25.4 35.5 42.2 37.3 31.2 24.2 26.7 43.2 42.5 46.1 49.6 54.5 49.6 49.5 38.6 37.8 1.2 1.2 1.2 1.3 1.4 1.5 1.5 1.5 1.2 1.2 1.2 1.2 1.2 1.2 1.2 1.2 1.2 15.6 23.5 23.5 28.2 25.3 13.1 5.4 6.3 6.3 2.6 2.2 2.1 5.3 9.1 12.4 14 16.3 17.8 22.5 29.7 52.1 65.7 70.6 58.9 56.2 33.9 22.8 14.4 9.3 7 1.2 4.7 8.9 30.5 63.6 94.6 116.6 141.1 154.6 164.7 177.5 178.7 182.2 183.6 194.4 199.5 200.9 203.9 191 178.8 168.8 176.6 175.5 166.4 164.1 165.7 168.9 181.3 184.2 196.4 200.7 205.3 204.5 194.2 186.8 179.1 184.6 184.3 182.4 176 164.8 160.7 159.8 160.5 165.4 168.7 170.7 175.8 180 174.8 175.8 177.7 178.4 179.3 182.4 178.4 177 170.6 166.3 165.1 164.4 160.2 158.1 156 154.1 152.5 147.7 144.9 150.7 149.8 157 159.4 162.7 164.8 163.8 168.7 171.1 172.3 175.3 178.7 180.5 184.8 190.5 193.8 196.3 196.4 204.2 210.1 213.1 217.8 219.4 222.5 225.1 229.4
3.8 12 10.8 16.8 24.4 31.8 42.9 53 59.1 64.2 64.6 58.5 51.5 47.6 43.7 52.4 51.2 61.4 70.2 70.4 71.5 61.3 64.6 64.8 56.2 54.4 46.3 38.2 21.1 12.6 14.3 10.4 10.6 10.8 11.4 15.2 17.2 29.9 34.2 45.3 44.3 24.2 21.5 33.8 35.2 37.7 28 23.8 37.5 35.7 42.9 51.1 61 64.5 61.7 54.1 52.9 45.8 23.5 1.2 1.2 1.4 1.5 1.7 1.7 1.8 2.9 2 1.9 2.1 1.2 10.7 21.7 27 26 30 41.9 51 46.7 42.9 36.1 29.9 21.9 23.8 9.9 3.9 2.1 7.2 12.1 24 27.7 31 41.1 41.7 44 56.7 78.2 93.3 83.5 89.3 74.2 50.4 45.1 36.3 21.3 16.4 1.2 1.2 6.2 25.2 52.3 65.3 78.3 110.6 141.7 165.4 171 173.3 176.5 183.3 183 189.1 190.7 184.4 174.7 160.3 155.9 161.2 168.9 165.4 164.4 165.8 173.5 181.5 188.3 192.4 197 198.1 201.1 196.9 189.9 188.1 185.5 189.9 192.7 180.3 168.2 165.1 162.7 165.1 168.8 172.3 173.8 179.2 179.4 178 170.8 174.4 169.7 169.7 168.7 165.3 162.3 161.2 162.5 161.1 158.8 157.5 155.8 155.6 154.1 151.8 148.3 147.1 150.8 150.8 156 158.6 159.1 160.7 163.4 168.7 169.1 172.5 176.6 179 182.1 185.6 190.8 195.7 200.1 201 206.3 210.8 216.1 218.7 221.8 224.6 227.8 233.7
29.5 28.8 29.2 29.8 37.5 56.4 67.2 73.6 72.7 66.9 58.7 54.2 44.7 42.4 44 47.8 49.3 61.5 61.2 65 60.6 60.8 63.9 55.6 49 44.9 38.9 22.3 13.4 12.6 11.3 10.6 10.4 10.8 14.9 18.3 29.5 39.5 52.2 53.5 25.2 21 22.4 29.6 30.2 23.6 24.3 28.8 46 39 46.9 68.5 74.7 69.7 60.8 58.9 49.2 28 1.2 1.2 1.2 1.6 1.7 1.9 2.3 3.5 5.9 5.3 9.9 16 20.1 27 44.2 48.3 47.6 41.6 58.5 70.2 57.3 47.3 48.5 45.3 48.5 38.1 15.4 8.1 12.6 18.7 30.3 39.9 44.4 52 61.9 62 68.3 81.8 106.7 106.3 106.9 100.6 82.9 74.8 69.4 56 38.2 26.4 16.3 1.2 6.6 14 23.9 40.1 59.2 83.6 103.9 118.4 131.8 150.1 162.8 173.1 177.9 184.5 189.9 185.9 169.6 150.7 147.7 151.3 151.7 157.5 170.2 175 179.8 193.5 195.8 194.1 196.2 196 197.7 198.6 192.6 189.8 188.8 188.7 187.5 181.6 172.2 176.5 168.7 172.6 176.3 178.2 184.5 179.9 179.4 175.9 169 168.6 167.7 170.2 168.2 166 161.1 159 159.3 158.4 158.3 159.4 160.5 157.7 156 153.6 147.9 149.6 150.4 152.5 154.1 158.2 157 158.8 162.5 169.5 172.8 173.2 175.4 178.5 180.2 186.9 190.6 195.8 200.2 206.5 211 213.8 217.9 222.7 226.4 227.4 229.7 235.5
44.9 42.6 39.4 39.8 46.5 60 59.6 59.4 55.5 52.6 53.4 46.9 42.8 42.2 45.4 47.9 50.6 56 55.8 58.9 56.1 57.7 57 42.8 38.5 36.6 23 14.6 10.8 10.3 10.8 11 11.6 12.2 18 28.7 38.5 57.3 59.7 35.8 20.6 20.6 21.3 23.7 19.5 27.5 30.4 35.4 44.6 38.6 55.7 73.3 72.1 65.8 62.2 52.8 36.9 8.4 1.2 1.2 1.2 2.1 9.3 19 25.4 29.9 25.5 24.1 38.8 38.6 42.6 51.6 62.6 67.2 68.3 61.5 57 67.7 62.9 66 64.7 61.2 62 36.4 22.1 20.6 27.2 36.5 47.8 55.9 62.7 71.4 77.4 82.6 89.7 107.8 116.8 114.1 112.9 95.9 85.8 83 75.8 61.4 46.8 37.3 25.8 18.3 1.8 15.3 20.7 26.9 46.3 65 81.4 94.9 103.4 122.4 143.7 159.4 169.2 177.3 175.3 171.9 151.5 145 145.9 152.6 150.8 156.5 165.1 171.3 172.1 183.8 190.5 197.4 200.8 197.6 195.8 201.5 189.3 185.7 187 183 178.1 175.7 182.2 176.7 175.6 178.3 179.2 186.9 185.2 182.9 178.1 169.2 168.4 167.8 168.1 168.7 167.1 163.5 163.9 166.4 159.8 162 163.8 166.3 163 162 157.3 151 148.8 150.2 151 152.5 153.4 155.3 155.9 158.4 162.5 165.9 168.2 170.1 170.4 173.8 183.9 185.4 192.9 197.5 202.5 207.4 212.1 217.7 223.2 227.4 229.7 233.6 235.1 240.5
47.8 49.6 49.2 42.6 52.3 53.2 55.7 56.1 50 48.4 47.1 44.4 42.6 41.3 41.8 49.9 49.2 55.9 53.3 49.4 52.3 51.9 43.3 38.4 35.9 21.5 16.5 10.4 9.9 10 11.3 11.4 11.9 15.9 26.6 34.9 50.9 59.6 44.4 23.7 22.5 19.7 19.2 16.9 21.1 28 31.7 43.1 48 38.5 63.3 70.1 70 58.2 52.1 50.5 19.5 1.2 1.2 1.2 2.2 17.9 37.4 45 50.1 52.4 46.3 47 65 60.7 63.2 74.7 80.5 84.7 82.2 79 67.9 66.7 68.7 83.5 80.5 74.3 63.9 42.7 34.5 32.7 45.9 54.6 65.1 72.7 81.2 86.2 91 102.7 114.6 115.5 114.8 120.7 112.2 97.2 98.1 93.7 83.9 75.8 64.9 50.9 41.2 34 18.3 4.3 21.5 24.7 36.5 54.1 66 73.3 80.4 97.3 119.6 136 139.2 145.9 151.5 154.2 142.6 147.3 140.9 136.7 138.7 150 155.6 156.8 158.6 171 182.5 187.4 191 199.5 200.1 190.6 188.3 196 195.5 186.6 178.6 179.1 181.5 179.8 182.5 183.2 187.6 192 186.9 174.9 170.9 168.9 168.5 169.6 172.3 169.9 166 166.5 169.9 166.2 166.2 167.7 168.8 167.5 162.7 159.4 157.1 151.1 149.5 149.7 150.8 151.7 152.9 154.8 155.8 158.6 161 165.4 164.1 165.7 168.4 174.1 181 187 192.5 199.9 205.7 209.3 214.1 219.3 225.3 230.1 234.2 238.8 243.5 244.9
52.4 59.1 44.8 38.1 48 47.3 49.4 47.9 45.7 38.4 38.6 36.9 41.3 41 40.6 45.3 49.5 48.9 45.8 45.7 46.5 40.2 40.5 33.2 17.4 13.3 11.1 12.9 10 10 12.6 11.6 14.4 15.6 33.8 51.1 53.6 46.4 33.6 23.3 18.7 17.8 16.4 17.2 29.6 36.4 45.4 55.1 41.5 44.5 70.6 68.2 62.5 53.1 52.1 34 11.5 1.2 1.2 2.4 18.6 42.6 61.3 75.3 79.5 72.4 69.3 75.7 93.4 82.9 87.7 94.2 95.3 95.4 96.7 90 81.5 74.9 84.7 89.5 87.8 82 64.8 53.5 51.4 52.4 63.1 69.9 77.3 84.5 97.1 98.6 103.9 128.4 124.4 121.1 124.4 126.2 116.1 122.6 118.9 105.4 94.3 97.4 90.1 71.1 59.2 47.4 30.7 13.6 2.4 27.9 37.4 51.4 55.8 60.6 65.1 85.3 100.2 106.6 109.4 118.2 125.6 132.5 126.9 151.2 135.4 133.4 137.2 140.5 146 149.7 161.8 163.3 167.6 172.2 186.3 194.4 195.5 187.3 185.9 194.6 197.6 188.1 183 183.5 183.7 185.3 189.6 193.1 198.7 189.7 182.7 175.3 171.8 172.6 172.2 170.7 169.7 168.2 166.6 169.9 170.1 170.6 167.9 168.4 167 164.3 160.7 159.7 156.7 149.3 149.3 149.7 150.4 152 153.4 154.6 156.3 157 159.1 160.9 163.8 167.8 175.1 180.4 185.4 190 194.2 196.8 204.8 210.4 215.1 220.1 226.8 232.9 239 245.7 250.3 252.2
49.3 44.7 35.1 42 40.3 41.2 39.9 37.8 37.4 36.9 34.9 38.3 42 43.3 38 35 39.6 41.5 42 41.7 36.8 36.4 30.8 15.5 11 9.9 12.9 12.8 12.4 11.9 11.6 18.2 21.8 24.9 42 49.8 52.8 36.9 30.6 21.4 18.2 17.1 16 31.4 44.3 55.1 57.5 50.8 41.8 44.1 68.1 62.5 60.9 56.6 37.7 17.6 1.2 1.2 1.7 12.4 43.3 71.5 84.4 93.4 93.6 89.6 92.7 107.9 110.9 100.6 102.6 106 106.3 104.2 102.3 98.4 100.2 88.9 84.2 92.7 96.2 85 72.2 69.2 68.3 70.8 82.8 82.4 90.3 99.1 103 116.9 126.9 134.4 130.8 120.9 129.5 125.9 124.1 123.1 120.9 110.2 106.4 107.5 105.2 92.7 74.2 61 35.8 31.8 20.9 3.6 39.8 46.7 52.7 53.7 57.3 72 88.4 93.4 97.2 98.5 101.1 107.3 106.6 116.3 123.3 129.7 132.4 134.9 136 145.3 152.4 164.2 165.4 164.6 170.4 173.6 173.1 180.2 187.4 185.1 190.1 187.9 188.9 187.1 188.3 193.5 199.9 205 200.8 196.6 187.4 182.2 177.6 177.4 181.8 171.2 168.7 169.5 171.1 172.3 174.4 169.1 167.8 166.5 165.3 162.7 161.6 159.2 151.7 149.6 150 149.8 151.4 152.6 155.1 156.1 157.1 161.4 165.6 162.2 166.3 176.5 181.8 185 186.7 189.6 192.4 197.7 204.1 208.5 213.7 220.1 227 236.3 244.6 253.5 258.2 261.3
37.2 31.6 34.3 33.7 33.3 33.6 34.4 34.4 34.7 32.4 35.3 37.3 37.6 37.4 39 35.1 30.9 39.1 31.4 33.7 31.6 27.7 19.5 11.3 10.5 13.5 14.2 13 13.9 14.4 17.5 26.3 30 32.6 46 55.8 39.6 32.6 26.7 26.5 17.5 16.2 23.4 38.9 63 66.4 64.3 44.5 43.2 46.9 57.1 61.2 61.3 52.4 29.3 17.3 1.7 1.2 2.3 30.2 66.7 89.3 99.6 105.7 106 105 120.1 133.2 123.8 118.7 112.9 121.2 125 125.5 117.2 111.3 109.8 105.4 101 101.3 104 90.4 82.6 84.3 83.3 94.4 91.3 91.8 97.7 110.9 121.4 141.6 142 136.1 124.6 127.6 126.9 119.7 115.5 113 111.5 106.1 106.5 108.6 110 104.6 86.6 67.9 53.7 45.3 39.3 17.6 22.1 39.9 44.8 49.7 53 60.6 68.2 77.7 83.7 90 94 91.5 93 102 114 129.1 133.1 131.6 131.1 130.9 137.1 149.3 154.3 157.5 162.7 167 170 180.7 192 182.7 182.9 189.4 189.7 203.2 207.3 204.2 210 206.3 209.4 205.1 197.7 186.1 180 183.5 183.2 173.9 171 173.2 172.2 171.9 171.5 172.9 169.2 164.3 162.5 161.7 159.1 151.3 150.2 150.3 150.1 151.6 151.9 155 156.9 158.2 159.1 162.7 164.4 170.6 178.1 180.3 184.4 187.5 190.6 191.4 193.9 197.6 202.5 207.1 212.7 220.3 228.6 238.9 248.9 258.3 266.7 270.3
20.6 26.9 27.1 28.9 30.4 31.1 35.7 33.9 30.8 33.1 34.6 37.4 36.4 38.7 37.3 26.1 24.8 29.3 32.1 25.1 28.8 17.9 11.3 10.3 10.8 14.1 13.5 13.6 15 19.6 28.3 32.8 37 39.8 53.1 38.9 38.1 22.1 26.4 19.8 15.5 15.7 36.1 59.2 64.6 67.5 51.1 42.6 42.8 46.2 56.4 56.3 56 36.6 21.3 19.2 1.6 1.2 6.9 36.2 71.9 105.8 111.3 112.3 116.8 121.4 139.3 130.9 119.8 119.1 130.5 135.8 137.4 129.5 127.6 123.5 116.8 120.4 122.6 119.8 115 100.8 91.1 91.3 104.8 101.6 102.5 101.5 117.1 126.7 145.6 151.4 147.8 132.1 122.6 121.5 122.5 128.4 116.4 112.8 116.1 119 121.7 121.7 120.9 113.7 97.3 76.8 73.4 67.2 55.5 41.9 13.9 33.3 42.5 49.1 56 58 54.2 61 72 79.4 86.4 82.6 85 88.8 110.9 119.1 119.1 124 123.1 126.5 140.4 141.9 148.8 152.9 155.8 155.6 164.9 170.2 163.4 165.3 170 182.6 195 201.1 211 216 212.1 214.8 208.7 208.9 199.7 196.9 190.6 186.7 182.5 178.2 181.2 178.8 175.5 173.8 175.3 177.3 168.9 166.9 162.1 156.2 151.3 150.7 150.2 151.2 152.7 153.4 153.9 155.6 159.9 160.3 160.5 164.8 172 177 182.6 186.8 190.5 193.7 190.5 192.2 193.5 196.8 201.3 204.7 210.4 218.3 227.7 237.8 248.9 257.3 265.3 273.7
17.7 18.3 23.6 24.9 29.1 33.4 30.8 30.2 32.9 33.9 34.9 33.6 32.3 34.3 32 24.9 21.9 24.1 22 21.9 15 12.4 11.4 11.5 11.1 13.4 15.6 17.3 13.2 24.3 36.9 36.2 39.6 32.4 33.1 33.7 16.7 18.7 14.9 15.2 17 29.9 47.1 62 65.9 63.5 47.7 46.6 49.3 55.2 57.6 60.5 54 35.9 29.4 2.8 1.5 1.2 12.6 40.4 79.2 111.5 114.9 120.3 119.2 134.2 134.7 137.4 130.9 137.7 143.7 152.3 144.6 144.7 142 133.6 126 133.8 135.6 126 125 113.3 100.8 102.7 113.6 120 114.9 120.8 132.9 146.7 156.5 158.1 145.1 133 124.7 122 124.1 123 119 122.9 127.5 127.8 126.4 122.8 120.2 110.4 96.3 92.7 92.1 83.5 72.5 61.7 41.8 22.9 10.7 11.1 13.2 15.6 16 19.6 49.3 64 70.6 61.7 67.4 73.8 96.9 112.1 109.7 110.9 117.1 119.2 132.8 138.9 147.9 147.4 153.1 145.7 149.1 153.2 157.3 161.1 174.3 180 188.9 194.1 201 213 218.1 220.3 210.9 209.6 204.9 197.4 194.5 191.3 182.6 184.9 182.4 179.7 177.4 175 172.3 171.2 166.9 161 156.6 155.9 153.7 153.3 157.2 156.2 155.4 155.3 155.7 155.7 158 161.3 162 169 171.8 177.8 185.9 188.6 188.6 188.8 190.4 191.3 192.2 196.3 199.8 202.9 208.6 215.3 222.7 232.2 240.5 248.3 257.8 264
15.4 17.7 18.2 24.3 27.9 28 29.6 30.2 32.6 34.2 30.3 31.8 30.9 31.5 30.9 25.5 22.6 18.8 18.4 11.5 11 10.6 12.3 11.2 11.8 16.6 22 26.5 19.8 27.3 36.4 38.3 26.6 24.4 29.8 19.9 6.3 8 11.7 19.7 25.2 49.1 49.7 59.8 64.1 61.8 49 49.7 52.4 57.2 61.6 62.3 56.6 37.5 18.2 1.5 1.3 1.2 22.9 55.4 87 110.3 114.8 120.9 118 137.1 147.6 141.8 141.2 153.6 158.5 159.4 154.9 150 150.2 135.2 136.1 147.2 144.4 134 127.4 120.2 119.4 124.7 125.8 127.5 122.4 133.3 137.4 143.8 156.3 154.6 137.1 134.4 126.5 127.8 131.6 127.4 132.2 135.4 136.7 137.2 134.7 130.7 126 113.9 110.3 106.3 104.1 95.9 92.2 86.1 79.5 63.1 46.9 42.7 47.8 47 45.7 49.5 25.8 36.8 45 27.8 35.9 34 67.8 78 85.8 90.2 93.9 97.7 116.7 129.8 132.5 132.8 134.3 136.8 146 150.2 158.8 166.7 178.4 180.6 184.5 192.8 202.1 211.7 211.3 217.5 217.9 209.8 202.1 199 196.2 189.7 189.6 190 181.8 179.7 180.1 171.1 167.6 165.3 163 160.9 161.8 160.8 160.2 163 163.5 161.4 159 158.2 157 156.4 159.6 167 163.7 167.7 172.6 178 181.4 184.6 185.8 188.6 187.3 188 190 193.5 197.9 202.1 207.1 212 219.1 228.1 234.1 241.9 248.7 252.4
12.2 16.4 19.6 24.2 24.5 28.1 30.3 30.5 32 27.9 30.2 31.6 32 32.7 29.8 23.4 16.9 13.3 13.4 10.7 10.3 14.1 12 11.4 11.8 16.7 23.3 28 21.4 29.6 33.4 19.6 23.3 22.3 19.3 4.1 3.5 7.1 22.3 29.7 43.8 44.2 57 61 64.1 52.5 54.9 49.9 55.2 61.2 50.4 53.3 41.8 39.9 6.9 1.2 1.2 1.2 28.1 62.1 89.3 103.5 109.5 121.5 133.8 152.4 153.6 144.2 159.8 168.1 172 159.8 158.7 161.8 148.9 152.4 153.5 165.8 153.1 146 135.3 130.1 135.2 138.3 134.1 128.3 129.9 134.2 144.3 154.9 158.2 149.7 138.1 135.4 132.9 140.1 137.9 138.4 140.9 144.1 142.2 145.5 141.6 136.7 131.4 120.7 121.3 116.4 110.6 103.8 103.2 100.7 101.5 97.6 85.4 74.5 80.1 81.9 84.1 83.2 70.8 56.5 48.4 51.5 61.5 68.9 52.2 54.2 62.9 62.1 66.6 84 86.3 112 132 135.5 132.6 141.7 157.1 157.5 165.1 169.9 176.3 178.5 181.8 190.7 199.2 203.7 200.8 201.8 201.9 199.3 197.7 193.4 190.7 189.7 192.5 186.4 180.3 177.2 173.9 172.7 165.9 167.9 171.8 172.3 169.1 165.4 165.5 166 166.7 166.4 164.3 162.2 160.3 157.3 160.7 164 165.8 169.3 176.4 181.2 183.5 187.1 188.2 184.3 185.3 186.8 189.9 192.8 198.6 200.3 206.9 210.5 213.6 223.4 225.4 234.8 240.2 244.8
14.2 20.8 23.7 24.7 26.3 26.8 29.2 28.5 28.6 31.5 33.7 32.4 32.8 31.2 28.7 20.3 15.6 12.8 11.5 10.5 12.8 11.4 12.2 12.4 12.4 16.5 21.2 21.5 21.2 19.8 15 19.1 18.2 16.8 11.3 3.8 5.5 15.8 24 28.9 36.7 54 60.8 64.5 53.8 31.8 45.3 55.3 62.9 63.7 34.5 40.8 46.7 25.4 6.7 1.2 1.2 1.2 40.1 61.9 89.4 115.8 126.1 129.3 144.7 152 147.1 156.8 168 178.8 172.8 167.8 168.4 163.8 157.7 159 173.9 168.2 160.8 157.2 142.2 140.3 145.9 147.9 140.9 136.6 135.7 143.4 154.4 158.3 158.9 146.9 141.5 137.2 145.8 145.6 141.9 143.7 147.9 149.5 149.8 153.2 146.8 141.6 131.1 127.2 123.1 119.5 113.1 108 108.3 112.7 118.1 118.5 115.7 110.8 112.3 114.4 111.4 109.8 98 86.9 78.4 76.7 77.8 82.4 87.9 83 77.9 77.4 78.5 66.4 63.6 98 116.6 124.8 138.1 147.8 158.3 164.8 165.3 172.3 174.4 174.4 176.4 182 191.4 196.3 198.2 197.8 198 196.1 194.6 191 189.2 190.3 188.9 179.3 174.5 177.1 179.7 177.5 174.6 175.4 177.9 180.5 173.8 170.8 168.3 168.2 168.8 168.9 167.1 165.6 164.6 162.8 161 163.6 168.5 170.6 177.9 182.7 186.5 181.4 182.1 183.6 184.9 186.3 187.8 191.7 196.6 200.6 207.2 210.3 213.3 218.5 223.6 230 233.8 236.6
21.5 23.2 23.8 23.4 25.6 26.3 27.3 30 30.3 30.1 32.6 30.9 31.6 28.2 20.3 17.7 14.7 12.9 11.7 12.7 11.2 13.6 12.2 12.1 12 18 14.7 5.6 3.9 4.6 13.6 14 13.2 11.7 3.5 3.6 12.5 13.7 12.8 19.4 45.2 55.8 62.1 63 42.9 29 53.7 52.7 61.9 52 30.4 35.2 33.4 15.8 1.6 1.2 1.2 1.2 41.4 80.3 109.4 124.2 136.1 129.9 141.2 150.4 159.9 169.8 182.5 186 178.4 176.6 174.8 168.1 163.1 169.7 176.3 180.9 166.6 158.1 155.1 147.2 154.8 162.3 155.8 146.8 150.1 156.9 165.2 163.9 151.7 149.5 137.4 146.6 150.5 151.2 154.9 160.7 163 165.2 160.7 157.8 157.7 144.8 134.7 133.5 132 128.2 118.7 119.9 119.4 125.7 126.8 129.7 131.8 131.2 134.5 134.1 132.5 127.2 119.7 99.6 96.7 95 96 94.1 98.1 103 106.4 98.5 89.3 81.2 74.5 69.9 92.7 113.6 143.9 161.1 167.4 172.1 168.2 169 169.9 169.9 171.2 179 187.3 191 194.1 194.7 194.3 189.5 189.3 189.1 185.2 182.1 176.9 175.5 177.1 185.3 186.9 183.2 183.7 184.6 180 181.2 181.4 175.2 170.1 170.1 169.3 169.2 168.1 167.4 167.3 166.5 163.1 163.7 167.2 173.3 181.5 176.6 176.5 177.7 179.4 183.7 185.4 186.6 188.1 190.6 193.2 199.3 203.6 208 211.8 215.2 219.4 224.4 229.2 232.8
21 21 22.6 26.5 28.2 27.1 29.6 27.3 32.7 28.2 30.4 30.6 28.5 22.3 18.4 16 15.4 13.2 13.4 14.9 13.4 13.9 13 14.4 12.2 11.9 3.6 3.3 3.7 7.2 7 6.6 8.8 4.4 3.4 4.7 16.7 8.4 8.9 29.9 46.7 58.6 55.6 56.7 25.5 41.3 49.2 56.7 54.8 40.3 23 27.2 25 1.8 1.2 1.2 1.2 25.9 51.3 93.5 120.8 132.4 129.9 135.8 147.8 158.7 165.7 181.6 198.6 190.1 192.5 187.3 181.9 176.8 171 176.7 187 182.9 175 166.9 165.3 159.8 160.6 166.1 164.8 156.9 160.3 161.3 163.8 154.1 152.5 137.9 137.6 151.4 156.3 153.2 157 162.7 161.4 163.4 165.9 164.8 157.6 146.9 156.5 145.9 141.5 137 134.9 136.2 140 141.3 135 138.2 137.5 146 156.2 160.8 152.1 145.8 121.5 116 110.8 114 116.3 114.1 107.5 119.3 120.8 114.7 102.4 95.7 87.4 64.4 75.4 107.4 138.1 169 176.9 168.9 172.2 170.7 168.8 169.2 176.5 184.8 187.3 187.1 188.1 189.5 188.8 191.5 189 183.3 178.6 176.8 179.8 179 186 189.1 189.7 187.5 189.9 191.1 192.3 187.8 183.8 179.2 178.2 177.4 174.4 171.9 169.9 172.5 168.3 168.1 165.4 166.2 166.1 171.7 173.9 174.7 175.2 176.1 178.3 182.3 186.2 186.4 188 189.9 193 198.1 202.4 205.1 209.2 210.8 215.3 221 226 229.3
19.8 21.3 24.2 23.8 28.2 29 26.8 29.4 27.5 27.2 28 27.6 25.1 18.9 17.6 17.8 16.3 13.6 15.9 15.5 15.3 13.6 12.1 12.9 5.2 3.4 3.6 4.5 4.4 4.6 4.8 5.8 5.3 3.4 7 13.5 19.5 4 5 29.5 42.7 52.7 55.6 37.4 14.5 38.8 44.8 44.1 41.7 27.9 20.2 24.6 3.4 1.6 1.2 1.2 18.1 26 51.8 82.2 117.7 125.2 124.6 136.9 154.5 162.7 164.3 188.5 193 183.7 192.3 195 193.7 181.4 184.5 183.6 186.2 188.3 186.1 179.8 180.8 166.9 171.7 174.6 177.9 173.1 170 160 151.6 148.2 139.4 138.6 151.9 158.7 160 157.4 161 159.3 162.1 175.4 175.3 168.5 152.6 156.7 158.7 157 153.5 150.4 147.5 152.5 159.3 156.2 154.3 154.3 157.1 161.2 159.1 159.3 159.2 150.3 130.5 128.8 126.2 125.1 126.7 127.3 127.2 126.2 128.5 123.7 105.9 103.8 95.9 79.1 98.9 110.3 125.3 155.4 162 169.9 171.3 172.3 170.7 174.8 180.3 183.6 184.9 185.5 186.1 188.4 189.1 186.1 184.6 178.4 178 178.2 181.3 180.6 183.1 186.9 190.2 194.6 195.5 199.6 198.2 191.9 187.9 185.8 187.7 186 180.7 176.9 177.1 174.7 171 170.8 169.2 168.8 167.4 170.1 174.1 174 175 177 179 183.1 184.4 185.7 187.8 191.1 193.8 198.8 202.1 204 206 209.9 214.7 221.4 226.6 228.6
22.9 22.7 25.7 26.9 28.7 28.5 28 25.5 25.8 25.1 26.9 25.5 22.7 20.3 20.9 19.7 19.6 16.7 17.3 18.6 18 14.6 9 5.4 3.1 2.8 2.5 2.6 2.9 3.3 2.2 3.8 3.5 5.3 7.9 15.1 7 4.1 9.8 40.5 46.6 51.3 47.2 14.7 17 24.8 31.5 36.8 32.9 11.8 4.8 3.9 2.2 1.5 1.2 1.2 21.8 40.3 71.1 95.2 103.2 115.7 109.6 135.8 151.4 142.7 142.2 163.1 160.2 174.9 186.2 196.2 197.1 189.8 188.3 190.6 191.2 201.2 201.2 194.5 182.2 171.5 181.1 184.5 182.8 181 178 171.3 153.7 142.6 140.3 151.8 156.2 166.5 161.3 160.5 163.2 166.1 172.7 171.4 169.6 162.5 159.5 165.2 166.1 165 163.3 163.6 165.7 166.9 168 172.2 171.3 172.1 173.2 173.6 163.3 159 156.8 150.4 146.5 140.7 137.5 140.7 142.4 146.7 139.6 139.1 140.1 134.4 121.3 114.7 105.5 95.3 108.9 119.9 126.9 129.5 142.2 164.9 171.9 171.7 168.1 167.5 172.1 181.9 186.6 180.2 181.7 181.4 183.4 184 178 177.6 178 180.8 181.3 182.1 185.6 187.9 193.6 194 199.5 201.5 200.9 201.4 199.6 198.6 199.7 192.1 188 184.2 180.4 174.5 176.2 173.6 175.1 170 170.4 170.5 172.4 173.4 174 176 179 181.2 183.1 185.1 187.7 191.2 195.7 197.9 202.5 205.2 205.7 211.9 217.8 223.3 230.6 235
18 26.3 28.1 29.4 29.9 28.2 29.8 25.9 25.5 26 24.2 22.9 24.5 22.8 23.9 25.5 25.7 22.5 22.1 21 17.2 11.5 2.6 4.1 3 3.1 3.2 3 3.2 2.5 3.3 3.6 2.3 3.3 5.8 5.6 5 4.7 30.5 56.1 42 38.2 8.8 3.9 5 21.4 30 28.2 10.7 3.6 2.9 2.2 1.7 1.4 1.2 8.7 23.3 43.7 77.1 89 97.5 104.5 101.4 114.1 122.7 121.1 120.5 140.5 157.5 177.9 190.2 199.7 199.8 201.9 198.3 194.6 203.4 212.2 205.2 196 184.1 180.1 191.7 198.1 188 196.1 189.8 168.8 153.7 144.6 144.6 149.5 159.4 161.8 160 159.9 161.4 162.8 163.3 162.1 161.7 163.8 170.8 173.8 173.7 174.4 171.7 173.3 179.8 179 178 185 182.9 181.2 178 172.1 162.3 155.9 157.8 153.2 152.6 154.9 151.1 155.9 159.2 157.4 152.6 149.5 146.4 137.7 125.7 115.7 99.5 95.3 115.2 122.1 126.4 124.4 131.5 149.3 152.6 158 165.2 173.4 173.5 176 177.3 178.8 180.3 183 184.2 177.2 177.8 178.2 183.8 182.9 184.1 189.3 191.5 192.4 194.6 198.8 201.6 208.1 210.4 209.9 209 209.8 209.4 200.7 195.6 192.5 185.4 182.9 181.5 177.5 175.8 172.8 171 172.7 172.2 173.4 174.4 175.3 177.4 180.1 182.9 186.2 192.1 194.6 198.5 201.4 204.3 205.9 205.7 212.7 218.9 224.5 231.2 236.9
26.3 21.7 25.1 28.5 27.5 27.7 27.2 25.4 25 24.5 23.2 24.2 24.9 26.9 28 29.3 29.6 27.6 20.4 19.7 11.1 3.6 2.4 2.2 2.6 3.2 3.1 2.8 2.6 2.7 2.5 1.2 2.8 2.4 3.3 5.8 7.2 11.9 44.9 36.1 30.8 12.9 2.3 2 4 16.3 28 14.2 2.6 2.3 1.8 1.7 1.5 1.3 1.2 18.4 33.7 47.6 69.8 79.2 85 94.6 99.2 103.6 103.7 108.3 118.9 138.6 165.8 182.5 196.4 203.2 206.9 212 198.1 203.6 211.5 216.8 211.2 198.8 192.5 186.2 192.3 194.7 196.1 197.4 194.4 169 157.8 152.1 154.8 167 179.2 175.9 182.3 180.8 179.2 183.1 186 174.1 168.5 173.9 180.7 183.2 181.6 180.5 184.8 186.3 191.5 202.5 197.3 191.4 189.5 181.6 180 175.5 170.4 158.7 155.1 155.5 159.1 161.9 166.2 165.5 172.6 170.2 166.8 161.1 158.8 147.5 128.5 124.4 107.1 96.1 113.1 119.7 117.1 122.5 130.3 142.1 151.3 155.2 160.6 167 170.8 173.7 177.9 181.4 182.2 185 177.6 177.2 180.2 180.8 185.2 187.7 191.6 194.9 196.1 197.4 200.8 203.5 212.6 219.6 220.7 216.7 220.9 219.8 220 212.5 207.5 202.5 195.4 187.9 183.8 180.9 177.4 173.1 172.3 172 172.6 173.5 174.4 174.5 176.2 177 181.1 185 194.4 199.5 202.8 205 209.4 210.9 205.6 209.9 215.4 224.5 233 238.1
26.9 26.9 28.1 24.9 26.5 25.2 24.7 23.8 22.8 22.9 23.9 26 31.7 31.6 32 33.2 34.8 28.6 24 8.8 3.5 2.7 2.3 2.4 2.6 2.7 2.7 2.8 2.7 1.2 2.2 1.2 1.2 1.2 2.5 4.1 8.3 24.1 25.3 25 24.7 1.7 1.7 1.7 1.7 1.8 10.3 1.7 1.7 1.6 1.6 1.4 1.2 1.2 1.2 24.1 37.7 60.4 70.1 82.8 94.7 100.7 108 110.9 104.7 113.7 130.2 144.5 162.6 180.5 194.4 204.7 206.1 201.8 211 225.8 230 223 216.3 205 195.9 191.7 209 213.6 212.1 198.9 185.1 183.8 165.4 163.9 167.5 180.2 188.2 186.7 191.5 191.6 191.1 192.3 191.9 187 188 193.7 193 187.9 189.6 186.6 192.1 197.5 199.4 207.5 203.2 192.6 184.7 181.7 180.9 173.7 177.5 167.1 155.2 161.6 165.7 171.2 172.4 178.7 177.3 174.1 172.6 170.7 155.3 143.5 138.2 134.8 127.6 111.2 97.7 109.5 118 128.9 137.7 150.6 157.3 160.3 167.8 169.5 171.7 178.8 179.7 183 182.4 176.8 176.7 178.3 182.9 182.1 188.3 193.3 195.7 198.7 198.5 204.2 209.1 210.4 223.1 232.1 230.1 226.7 230.5 233.2 227.6 222.9 217.4 217.1 203.2 197.5 191 182.5 180.9 175.8 172.5 172.5 172.5 173.5 174.2 174.5 175.8 176.5 178.8 183.4 193.2 200.5 205 206.3 207.7 206.4 205.4 208.8 218.1 223.4 229.7 235
26.1 27.1 26.5 25 24.3 24.5 24.3 22.2 23.4 24.7 28.5 31.4 33.9 33 34.8 36.4 32.8 23.1 5.4 3.3 2.9 2.3 2.2 4.2 2.5 2.8 2.7 2.2 2.1 1.2 2.3 2.4 2.3 1.2 2.8 9.6 6.9 14.4 20.7 14.9 1.2 1.2 1.4 1.5 1.5 1.6 1.7 1.6 1.5 1.4 1.2 1.2 1.2 1.2 1.2 30.5 53.1 69.7 83.5 87.3 91.8 110.4 109.9 105.5 105.6 123.2 137.6 149.2 162.7 176 190.8 188.8 202.2 220 226.2 234.8 239.5 230.1 220.6 207.6 207.7 214.6 226.7 231.5 222.9 203.9 191.7 175.8 165.7 165.1 176.1 189 188.7 194.3 201.8 205.3 203.2 202.4 195.3 189.4 196.8 200 199.2 200 204.2 203.7 212.7 210 216 212.2 205.1 202 187 182.2 182.3 181 178.8 165.1 170.8 186.7 190.4 184.2 183.2 185.6 185.2 178.1 174.9 168.5 154.3 156.2 147.1 145.4 140.8 129.9 106.5 103 119.5 132.5 138.7 144.5 157.4 164.8 170.3 171.9 174 176.8 180.8 182.8 177.3 177.2 176.4 178.9 183.9 185.6 190.6 193 197.2 203.1 208.1 213.7 215.8 216.8 227.8 236.6 238.3 237.8 241.4 238.1 238.9 230.9 226.8 221.5 207.4 203.1 196.1 186.8 182.4 179.5 174.3 172.7 173.2 176.7 178.8 177.7 175.8 176.7 177.8 181 186.3 189.9 193.9 197.9 198 200.4 200.2 208.4 213.8 220.4 225 231.5
26.9 26.3 24.4 23.4 23.6 23.6 24.4 23.5 26 30 33.5 36.6 35.3 34 35.4 32.9 23.4 4.2 3.2 3 3 2.7 1.2 1.2 1.2 2.7 1.8 2.6 1.9 1.2 1.2 2.3 2.5 2.4 3.2 9.8 5.7 10.9 12.5 1.2 1.2 1.2 1.2 1.3 1.4 1.4 1.5 1.4 1.3 1.2 1.2 1.2 1.2 1.2 17.1 41.6 64.2 78.8 74.8 84 103.5 109.8 105.9 105.8 106.6 137.4 149.8 152.3 160.8 172 176 188.9 201.6 204.2 217.4 233 238.6 235.8 227.5 205 211.4 231.1 238.8 238.9 229.5 210.6 186.2 170.4 166.8 172.4 182.4 195.4 198.7 202.3 208.6 214.4 211.9 204.6 196.4 194.2 195.3 196.2 196.9 200.9 206.6 216.7 223.8 224.5 227.8 214 203.4 186.2 180.1 182 182.8 181.4 177.1 182.5 190.3 197.2 193.7 187.8 190.1 192.4 189.5 174.1 172.2 164.8 165.3 166.8 159.7 154.6 147.1 139.3 122.6 101.1 121.1 127.8 135.7 144.7 154.4 166.1 168.7 170.9 175 178.8 179.7 177.6 176.8 177 177.2 184.3 184.4 184.5 188.8 194.9 203.5 210.2 217.3 222.4 224.6 224.8 228.3 238.5 244.6 249 256.1 248.4 245.8 240.4 234.4 224.4 214.6 210 199.9 189.8 185.7 183.5 175.6 173.8 174.3 178.9 178.9 180.4 177.6 181.3 180.8 179.6 184.2 186.9 189.9 193.5 194.7 195.7 200.2 206.5 210.1 214.5 219.7 228.1
25.6 23.3 20.8 21.9 21.3 21.1 23.9 24.9 30.1 34.6 38.8 41.6 39.7 34.4 29.4 21.5 3.6 3.2 3 2.8 2.7 5.3 1.2 1.2 1.2 2 1.9 2.3 2.3 2.5 1.2 2.7 2 2.5 1.2 1.2 3.4 7.7 1.2 1.2 1.3 1.3 1.2 1.2 1.2 1.3 1.3 1.2 1.2 1.2 1.2 1.2 2.6 12 24.9 51.9 61.9 57.2 73.3 98.9 111.2 107.5 105.8 106.1 116.9 150.1 151.5 153.6 158.8 168.5 176.2 185 199.9 206.1 216.1 223 237.3 241.1 223.7 206.7 208.9 238.9 248.4 233 206.6 188.4 172.2 176.9 176 178.5 188.2 196.4 208.8 211 215.7 219.2 215.2 206.5 197 195.6 197.7 200.5 206.9 208.6 215.5 224.9 224.1 236 233.8 208.9 191.5 188.8 186.9 186 186.3 182.5 185.9 192.4 193.1 190.2 181.2 190.2 191.2 188.7 179.1 182.6 173.7 173.5 172.2 167.3 164.2 165.6 156.5 148.3 128.9 106.4 105.3 112.2 127.8 147.3 155.4 163.7 171.3 177.5 181 177.3 173.4 174.3 174.3 175.8 178.5 185.7 183.8 188.7 195.1 201.9 210.2 217.4 222.9 228.5 228 231.4 236.6 244.7 250 255.5 260.3 254.8 250.2 246.8 238.9 226.5 222.1 216.9 205.3 194 188.3 186.6 179.3 178 175.1 179.3 180.2 180.6 181.6 185.3 186.4 181.4 185.8 189.8 190.7 192.2 194.5 192.9 197.9 205.2 208.1 212.9 219 223.4
21.7 22.9 21.2 20.9 21.3 24.2 27.5 29.3 35.2 38.5 43.8 42 34.8 30.7 16.6 2.5 2.6 2.3 2.8 2.5 3.2 4.9 1.2 1.2 2.1 2.1 2.3 2.4 2.1 2.4 2.1 2.4 2.5 2.2 1.2 1.2 1.2 1.2 1.2 1.3 1.5 1.5 1.5 1.6 1.2 1.2 1.2 1.2 1.2 3.5 5.1 2.9 2.8 24.8 34.1 40.7 42.2 59.5 85.6 109.4 110.5 107.1 106 107.1 127.9 154.9 149.9 154.5 163.7 167.5 174.8 188.1 203.1 219.4 228.5 229.6 230.3 222.8 205.8 197.5 191 202.2 195.1 182.9 165.9 154.2 158.7 168.1 177.4 183.3 191.7 194.3 207.5 210.7 212.4 213.5 218.3 200.4 197.6 199.2 202.6 210.9 213.7 219.8 218.2 211.8 208.3 206.5 199.9 201.2 196.7 193.9 197.6 205.3 200.2 187 194.5 191.9 191.3 185.3 176.8 175.3 172.8 171.9 171.7 172.7 176.2 171.8 170.2 170.3 174.5 180.3 178.7 161.1 135.4 124.8 123.5 130.1 114.9 145.7 159.9 172.8 173.7 179.9 170 169.8 172.1 173.1 173.7 178 184.3 187.3 191.4 196.8 202.8 207.5 213.8 219.7 224.5 228.8 231.7 234.3 240.4 245.9 251.4 257 262.7 259.1 257 254.9 243.5 231.3 227 219.5 210.6 199.6 191.8 187.8 191.2 182.5 179.6 180 181.6 181.8 182.4 182.9 187.5 183.5 184 186 188.6 189.8 193.1 194.9 197.9 200.5 206.6 209.9 214.9 217.9
21.2 21.5 21 21.7 27.5 30.6 32.8 32.6 36.6 41.4 40.1 35.9 32.3 14.7 2.9 3.7 2.5 2.7 2.4 1.2 2.9 1.2 1.2 1.2 2.4 2.4 2.5 2 2.6 2.6 2.4 2.7 2.4 2.6 1.2 1.8 1.2 1.2 1.2 1.2 1.5 1.7 1.8 2.9 8 11.9 9.5 10.7 10.2 10.7 3.1 3.3 6 31.6 28.4 30.8 53.1 75.9 99.6 108.4 108 110 107.1 121.7 144.9 155.7 141.3 146.5 155.4 167.2 187.1 194.7 210.2 218.8 225.7 237.1 241.1 219.7 198.5 187.7 177.3 164.9 161.2 154.2 154.2 154.2 154.2 168.2 178.4 184.9 191.5 194.3 198.1 203.1 209.8 215 211.9 202.3 202.7 201.6 199.6 201.3 212.4 200.1 189.7 188 192.6 199.8 205.2 194.9 191.5 193.6 192 198.3 192.6 185.7 191.2 189.1 177.5 175.8 173.3 173.1 172.7 172.5 175.1 182.2 187.9 182.1 179.2 182.4 185.7 189.6 190.3 175.9 152.1 133.8 128.8 141 133.9 135.9 163.8 173.1 165.7 159.4 162.3 170.9 173.5 174.1 181.5 187.2 190.8 194.3 198.4 204.9 209.5 212.1 214.9 220.9 226.1 229.9 234.3 238.6 242.4 247 252.7 258.3 263.9 264.5 261.4 257.4 246.9 237.7 229.6 221.7 212.5 202.2 193.9 196.7 197.1 194.1 187 185.9 181.9 182.4 182.9 183.8 185.6 185.4 188.7 191.1 194.4 191.9 192.9 195.1 197.9 202.9 206.2 207.4 210.5 213.7
21.8 21.4 22 27.7 31.2 31.6 33.4 32.8 37.9 36.2 33 27.9 11.2 2.7 2.3 2.5 2.5 2.6 1.2 1.2 2.1 2.4 1.2 2.4 2.2 2.3 1.9 2.1 2.5 2.1 2.3 2.3 2.6 2.5 1.2 1.2 1.2 1.2 1.2 1.2 1.6 4.5 10.2 11.2 18.3 20.9 19 25.1 16.6 22.2 3.5 3.2 22.1 22.6 22.8 45.8 70.8 89.7 105.2 109.2 112.5 108.2 112.4 129.4 130.1 140 147.8 145.1 155.4 165.1 178.6 191.9 195.3 220.9 235.4 243.5 241.3 210.2 186.1 172.4 154.4 154.2 154.2 154.2 154.2 154.2 168.5 175.7 186.8 191.9 196.1 196 205.2 207.8 200.4 204.6 205.9 211.1 212.1 207.7 195.1 193.8 188.4 187.4 191.9 188.7 189 187.1 184.6 184.9 184.8 186.9 189.4 187 184.7 185.3 183.5 182.3 187.6 188.1 177.5 174.5 173.8 177.3 188 190.3 190.4 189.3 193 194.8 196 199 191.6 178.5 155.1 136.1 133.5 139.7 148.9 121.6 162.8 158.4 153.8 164.7 170.3 177.4 175.9 185.7 191.5 192.6 192.7 198.2 201.8 208.7 216.5 217.6 216.4 223.8 231.1 234.2 240.8 243.5 245.2 245.1 253.4 259.6 263.2 263.2 266.3 259.3 247.4 241.5 231.4 220.6 212.6 202.7 198.2 196.9 196.2 196.6 194.5 195.2 193.1 183.1 183.9 184.8 185.2 185.5 188.8 194.8 197.8 195.9 195.2 198.5 199.5 199.8 202.5 204.7 207.4 211.1
21.6 21.9 23.1 27.2 30.5 33.2 34.4 32.9 31.7 28.8 17.3 6.9 2.4 2.1 1.2 1.2 1.2 2.4 1.2 2.3 2.2 1.9 1.2 2 2.1 2.4 2.3 2.1 2.5 2.2 2.3 2.5 2.5 1.2 1.2 1.2 1.2 1.2 1.2 1.5 1.8 13.3 15.8 27.9 26.4 26.3 28.2 23.6 25 30.2 8.7 11.7 5.8 23.7 29.4 63.5 92.2 110.6 115.4 114.6 116.8 108 103.8 118.5 133.8 146 143.7 145.5 151.1 162.5 177.4 186.2 200.6 221 234.2 241.8 207.9 182.6 161.4 154.2 154.2 154.2 154.2 154.2 154.2 166.3 171 181.8 194.9 198.4 201.2 208.2 200.4 197.5 196.5 195.7 196.2 214.9 214.4 204.5 196.5 182.9 187.7 191.6 186.8 183.9 183.8 183.4 183.6 185.5 184.5 185.2 185.2 184.6 185.3 189.3 187.1 186.1 192 189.9 190.5 187.2 188.6 193.4 194 195.2 196.7 197.5 201.7 204.3 203.8 196.8 190 179.4 164.7 145.1 137.2 141.1 150 142.2 123.5 139.6 153.6 170.7 181.2 182.9 183.5 199.8 200.2 195.5 194.6 201.5 204.1 210.5 219.8 224.5 221.8 224.5 230.8 236.6 241.2 244.1 245.7 245.1 251.4 258.3 264.2 272.4 267.6 259.2 248.7 239.2 227.6 220.4 213.4 204.6 202.9 197.8 196 196.3 196.2 195.6 196.1 195.8 188.7 185.7 186.1 189.7 193.4 197.5 199.7 197.1 196 196 196 196 196.6 198.9 204.1 206.7
19.7 22.9 25.9 29.9 34.2 37.7 39.1 27.4 20.5 17.4 5.4 2.4 2.1 1.2 1.2 1.2 1.2 1.2 1.2 1.2 1.2 1.2 1.2 1.2 1.6 1.2 1.2 1.2 2.1 2.4 2.6 2.3 1.2 1.2 1.2 1.2 1.2 1.2 1.2 2.2 19.9 24.5 24.8 37.8 33 36.3 36.5 30.7 31.4 28.2 12.4 4.3 11.4 26.4 45.3 81.2 113.1 117.5 122.1 122.9 113.4 103.5 114.7 129.4 144.2 145.4 138 142.2 148 154.6 168.7 180.8 192.7 202.7 206.4 181.9 165.4 154.2 154.2 154.2 154.2 154.2 154.2 154.2 154.2 171.8 171.3 184.4 191.7 195.4 201.6 200.3 197.7 196 195.4 190.9 201.3 199.9 196 189.5 183 182.9 182.5 183 185.1 186.4 188 183 183.4 184.5 184.3 185.2 185.1 187.9 186.7 194.5 193.6 197 195.4 199.7 194.4 194.3 195.5 197.9 195.8 197 198.1 199.4 199.5 200.3 197.6 194.2 185.1 176.8 175.1 159.8 145.1 140.6 142.5 132.5 127.2 138 159.4 175.8 183 186.6 186.8 197.8 194.3 197 197.6 199.4 203 210.9 219.7 229.1 226.5 226.2 231.5 235 240.5 241.6 244.4 246.6 246.8 262 272.4 272.1 264.2 260.6 253 241.4 225.9 220.5 212.5 207.3 205.8 202.3 195.5 196 195.7 196 196.7 196.7 198 191 190.6 194 194.4 201.1 200.5 198.2 196 196 196 196 196 197.7 201.9 204.7
21 23.9 27 33.3 38.2 39.9 23.9 17.9 14.9 7.3 1.8 2.4 1.2 1.2 1.7 1.5 1.8 1.8 1.4 2.1 1.6 1.6 1.9 1.2 1.2 1.2 1.2 1.2 1.5 1 2.1 1.5 1.2 1.2 1.2 1.2 1.2 1.2 1.2 14.6 34.9 30.2 32.5 40.7 43.5 42.6 43.8 42.4 44.1 39.7 7.3 4.1 23.3 35.5 65.4 101.1 108.2 129.4 130.6 115.8 106 100.4 130.4 147.7 149.3 145.1 135.8 138 140.4 143.7 151.4 155.8 159.7 164.6 162.2 154.2 154.2 154.2 154.2 154.2 154.2 154.2 154.2 154.2 154.2 173.8 180.3 183.7 185.4 191.1 190.8 196.2 187.7 187.4 189.1 188.4 186 180.5 182.1 182.4 182.5 181.7 183.3 182.6 183.1 182.8 182.6 183.5 185.4 189.3 194.1 196.7 200.4 188.9 197.7 198 200.6 203.6 207.8 199.5 197.3 197.9 200.8 200.2 199.6 198.7 198.3 198.5 198.1 195.2 193.7 192 181.7 177 176.3 170.4 153.8 141 136.6 143.4 145 129.4 167.9 184.4 190 190 190.1 192.4 195.5 194.5 197.2 199 203.1 208.9 215.6 222.2 229.4 232.5 232.7 234.4 237.1 244.3 256.2 249 249.1 265.9 271.4 269.5 270.8 266.4 255.5 238.8 225.7 223.3 213.6 209.9 208.9 204.8 195.2 195.8 195.8 196.1 196.1 196.1 195.8 193.2 192.7 192.6 193.3 203.3 205.5 196.1 196 196 196 196 196 196 200.8 204.7
17.9 23 26.4 29.6 24.1 21.2 15.5 10.3 1.2 1.2 1.2 1.2 1.2 1.4 1.6 1.7 1.7 1.7 1.7 1.2 1.2 1.2 1.2 1.4 1.2 1.7 1.8 1.2 1.7 1.4 2 1.2 1.2 1.2 1.2 1.2 1.2 1.2 4.1 28.5 37.3 33.7 41.2 48.8 55.7 60.3 55 52 47.3 29.1 3.9 3.7 26.5 51.4 85.7 99.3 110.4 124.5 108.5 103.3 94.6 103.6 141.3 156.1 145.2 131.1 132.4 119.5 117.4 122.8 134.6 138.9 149.6 155.4 158.1 154.2 154.2 154.2 154.2 154.2 154.2 154.2 154.2 154.2 165.3 175.8 181 184.5 191 194.9 194.6 192.2 182.4 181.2 178.6 179.4 180 185.7 185.7 183.5 188 183.3 183 183.1 183.2 195.4 203.1 199.2 199.9 204.2 206.1 207.8 193.7 189.4 197.7 201.1 208.7 208.2 201.7 201.2 203.3 204.4 205.1 204.1 208.9 202.4 202.6 202.4 200.4 195.5 190.4 183.1 179.4 180 176.5 169.8 154.6 142.3 144.9 155.7 164.2 151.7 156.5 183.1 189.8 191.4 193.2 195.3 196.9 198.9 201.3 202.1 203.6 209.1 217.9 219.7 222 229.1 231.1 233.4 241.3 254.5 257.7 251.1 251 263.4 269.3 267.4 269.9 267.1 251.1 234.8 226.7 221.4 213.7 211 209.2 208.3 203.5 195.5 195.5 195.5 195.5 195.5 196.1 194.3 191.1 196.9 196 196 196 196 196 196 196 196 196 201.6 200.6 202.8
11 17.1 23.5 26.3 22.9 12.5 7.5 1.2 1.2 1.2 1.2 1.2 1.2 1.2 1.3 1.5 1.5 1.4 1.2 1.2 1.2 1.2 1.2 1.2 1.2 1.2 1.2 1.2 1.2 1.2 1.6 1.2 1.2 1.2 1.2 1.2 1.2 1.2 19.9 38.7 39.5 42.3 51.8 54.8 64.4 69.2 64.1 52.9 47.5 5.5 3.4 4 23 67.2 87.4 100.3 110.9 84.5 86 79.3 81.2 95.5 128.4 133.5 123.5 105.2 108.2 109.1 121.9 132.5 141.1 152.1 163.3 168 174.8 170.4 154.5 156 154.2 154.2 154.2 154.2 154.2 154.2 171.9 184.9 187.2 189.6 186 179.2 190.9 185.3 195.1 177.2 181.7 182.5 191.7 192.5 189 185.1 185.2 192.4 189.3 193.8 200 203.4 202.8 205 206.7 206.1 205.4 202.3 194.4 198.6 202.1 204.5 202.5 202 204.3 205.1 209.9 211.9 213.1 216.1 214.6 206.3 206.6 202.2 198.8 195.1 189.4 179.3 179.6 178.5 173.8 157.1 146.5 151 162.1 166.5 174.6 176.3 139.7 179.7 187.8 193.4 195.8 197.9 199.4 200.2 202.9 204.4 208.1 214.6 217.7 219.1 220.9 225.9 230.4 236.2 250.8 250 245.8 246.8 247.4 247.1 255.7 262.6 266.7 259.6 243.2 232.1 225.7 219.8 215.3 213.1 211.5 210.4 204.9 195.9 195.3 195.2 195.2 195.1 197.5 199.6 196 196 196 196 196 196 196 196 196 196 203 199.2 199.5 204.3
12.6 14.5 22.7 18.9 8.6 1.2 1.2 1.2 1.2 1.2 1.2 1.2 1.2 1.2 1.2 1.2 1.3 1.2 1.2 1.2 1.2 1.3 1.3 1.3 1.2 1.2 1.2 1.2 1.2 1.2 1.2 1.2 1.2 1.2 1.2 1.2 1.2 4.5 33.1 42.3 42.4 48 57.9 66.4 71.5 70.4 56.5 57.9 25.5 3.3 3.1 4.1 17.6 44 64.7 71.1 68.8 67.8 62.4 65.8 73.2 80.9 96 95.5 96.6 101.3 108.5 120.1 132.2 139.6 154.3 167.3 174.5 185.3 191.2 183.9 172.9 165 157.8 154.2 158.4 159.8 154.5 157.6 179 190.3 181 183.8 181.5 177.5 175.6 181.2 173.7 181.5 188.8 189.9 187.4 195.7 197.2 191.7 191.1 195.6 202.3 204.3 208.8 211.5 212.1 212.3 210.7 208.1 205.7 203.4 197.7 201.3 203.7 204.5 206.3 209.6 212.1 210.8 216.3 218.1 222.1 224.3 218.8 212.4 208 203 197.7 194.6 189.7 184.2 184.2 180.2 161.6 150.2 157.7 166.2 177.6 178 175.5 172.3 161.9 148.6 182.6 193 199.1 199.9 199.1 201.4 203.6 204.6 208.3 216.6 215.2 216.9 218.1 223.1 228 233 230.8 234.6 239 244.7 238.5 236.7 246.3 251.2 255.4 251 232.4 224.4 222 218.7 214 212.8 212.7 211.1 205.2 201.7 195.7 195.3 199.6 199.8 198.8 196 196 196 196 196 196 196 196 196 201 202.4 196 196 196 202.8
10.2 14.8 13.1 1.2 1.2 1.2 1.2 1.2 1.2 1.2 1.2 1.2 1.2 1.2 1.2 1.2 1.2 1.2 1.2 1.2 1.3 1.3 1.4 1.4 1.3 1.3 1.2 1.2 1.2 1.2 1.2 1.2 1.2 1.2 1.2 1.2 1.2 22.1 40.9 48.5 45 52.5 59.2 72.8 68.7 70.3 58.8 47 9.6 2.6 3.3 6.4 19.3 32.9 37.2 44.4 43.2 53.4 69.6 78.8 83.3 90.3 106.2 111.1 116.4 115.5 121.4 132.3 144.9 154 169.2 182.7 188 197.3 200.9 190.2 179.4 168 163.9 161.3 167.7 176 168 160.9 168.3 177.9 180.8 171.9 160.2 155.2 155.9 161.9 175.4 186.3 187 182.9 194.3 197.3 196.8 197.7 206.9 206.1 208.1 216.6 217.6 219.4 218.8 217.1 212.9 209.5 204.1 201.7 197.7 204.8 207.3 208.7 212.8 214.6 214.2 216.5 220.6 221.4 226.8 227.7 222.2 217.5 210 204 199.8 193.3 187.5 183.3 180.6 163 162.9 169.6 174.9 182.4 185.4 186 179.9 174.5 172.9 168.6 152.7 185.1 198.2 201.1 199.3 200.1 202.1 204 205.6 211.3 212.1 212.4 214.8 216.7 220.3 224.6 224.3 227.2 230.5 227.7 228.1 227.4 226.2 236.3 239.1 234 228.1 218.6 218.8 215.1 214 213.1 212.3 209.4 204.8 201.4 200.9 202.6 203.3 201.7 196.9 196 196 196 196 196 196 196 196 196 200.1 196 196 196 196 197.4
7.3 1.2 1.2 1.2 1.2 1.2 1.2 1.2 1.2 1.2 1.2 1.2 1.2 1.2 1.2 1.2 1.2 1.2 1.2 1.3 1.3 1.4 1.4 1.5 1.4 1.4 1.3 1.2 1.2 1.2 1.2 1.2 1.2 1.2 1.2 1.2 1.2 13 45.4 34.9 49.2 57.1 69.7 53.5 62 53.3 29.2 17.2 3 3.6 3.6 7.9 19.6 20.4 25.9 35 49.8 70.5 82.1 83.5 98.8 117.7 132.1 132.7 138.6 136.7 140.5 153 165.5 169.1 175.8 185.7 195.4 205.6 203.2 192.8 173.6 176.7 166.4 167.8 175.9 171.8 165.2 166.9 162.8 159.7 156.9 146.8 149 151.4 164.3 181.5 184 192.7 200 204.6 209.2 209.6 207.9 208.8 210.9 215 214.6 217.1 219.6 218.6 219.1 217.7 211.8 207.1 201.7 198.4 201.3 209.4 208.3 213.2 214.6 215.5 221.4 224.5 224.9 228.4 227 223.6 219.3 215.6 211.7 201.9 198.6 192.7 185.5 182.2 167.8 176.1 178.1 179.5 182.6 186.5 187.3 186.9 187.2 182.3 176.9 180.5 172.9 157 187.4 201.1 202.8 200.2 203 202.8 203.1 205.8 207.5 208 211 210.8 212.9 216.4 213.9 218.6 220 220.2 218 217.9 220.5 221.3 225.2 224.5 217.9 215.9 217.3 214.5 214 212.4 209.2 207.5 202 202.2 202.7 205.4 205.3 202.3 196 196 196 196 196 196 196 196 196 196 196 196 196 196 196 196
1.2 1.2 1.2 1.2 1.2 1.2 1.2 1.2 1.2 1.2 1.2 1.2 1.2 1.2 1.2 1.2 1.2 1.2 1.3 1.3 1.4 1.4 1.5 1.5 1.5 1.5 1.4 1.4 1.2 1.2 1.2 1.2 1.2 1.2 1.2 1.2 1.2 3.3 19.2 19.8 42.4 42.8 36 47.9 58.3 21 3.4 2.7 2.7 3.3 5 8.1 16.8 25.6 34.1 41.3 61.8 78.7 85.2 95.8 112.7 133.7 141.8 145.4 149.1 146.6 156.2 170.5 179.4 180.1 184.5 194.5 210.4 209.3 206.6 187.5 171.2 168.6 156.5 151.1 154.2 163.1 159.4 156.2 155.7 154.5 144.2 145.6 153.1 169.6 183.4 196.8 198.8 207.7 215.6 216.8 215 211.9 216.3 219.1 218.6 218.6 217.1 216.8 217.5 215.8 217.7 213.9 213.9 211.4 206.7 201.3 202.8 214.1 219.6 219.6 217.2 219.7 222.5 225.4 226.2 226 225.2 223.4 216.2 211.7 206.1 203.5 203 194.3 187.3 175.5 178 185.2 183.9 183.5 185.1 187.8 189 189 187.7 186.2 182.6 180.8 179.1 175.5 169.8 199.8 204.5 202.9 200.8 201.1 203.1 204.3 203.3 207.4 207.2 206.7 206.7 208.9 208 208.6 209.5 208.7 209.6 208.8 208.6 213.8 218.1 216.6 211.6 213.4 212.7 211.9 213.8 211.8 208.3 205.7 203.3 205 203.1 204.5 205.1 200.5 196 196 196 196 196 196 196 196 196 196 196 196 196 196 196 196
1.2 1.2 1.2 1.2 1.2 1.2 1.2 1.2 1.2 1.2 1.2 1.2 1.2 1.2 1.2 1.2 1.2 1.2 1.3 1.4 1.4 1.5 1.5 1.6 1.6 1.6 1.6 1.5 1.2 1.2 1.2 1.2 1.2 1.7 1.8 1.2 1.5 2.6 3.1 4 1.9 2.6 3.9 4 3.4 2.4 2.5 2.7 2.8 6.6 21.6 29.4 41 51.4 56.2 61.7 77 87.4 98.7 111.8 126.6 140.5 144.3 151.3 151.5 152.6 164.4 176.2 178.8 178.5 188.1 204.9 204.5 210.7 199.7 174.7 163.4 156 147.9 147.6 149 159.8 156.6 138 137.8 144.1 158.3 164.9 173.6 187.3 200.3 202.8 207.8 219 223.2 220.2 216.2 222.8 223.3 221.5 220.4 218.4 216.7 217.3 218.6 217.4 216.2 217.8 217.7 218.1 212.7 206.2 209.9 221.6 222.8 218.6 222 222.1 226.1 226.1 222.7 224 221.4 218.1 212.2 208.8 207.5 207.2 197.5 187.1 176.8 179.2 186.3 185.5 185 185.2 189.4 190 194.9 193.1 191.2 187.9 187.9 182 182.1 182.7 179 181.2 203.9 200.1 196 199.8 206.6 200.7 202.6 204.4 205 201.6 201.7 199.2 200.5 196.5 196.5 196.5 196.9 196.5 196.5 203.8 205.8 206.9 207.3 207.8 208.2 209.9 211.9 209 207.9 204 203.5 202.8 202.3 202.6 201.4 196.5 196 196 196 196 196 196 196 196 196 196 196 196 196 196 196 196
1.2 1.2 1.2 1.2 1.2 1.2 1.2 1.2 1.2 1.2 1.2 1.2 1.2 1.2 1.2 1.2 1.2 1.2 1.2 1.3 1.4 1.5 1.6 1.6 1.7 1.7 1.7 1.5 1.2 1.3 1.4 1.5 1.6 1.9 2.1 2.5 1.6 2.3 3 4.3 3.4 2.3 2.4 3.1 2.1 2.8 3.2 3.1 7.1 25.7 39 56.1 62.8 67.8 71.9 74.9 87.4 96.5 108.5 115.4 135 141.9 147.9 151.7 151.3 158.6 163.6 168.9 171.5 178.2 193 188.5 199.8 199.1 175.5 169.9 157.7 147.5 147.6 148.4 155.3 161.2 134.4 135.3 149.9 164.8 176.3 182.5 190.8 198.4 203.1 208.5 216 219.3 218.6 216.9 224.9 225.2 223.2 223.2 223.3 218.9 218.7 220 219.3 221.4 222 225.9 223.9 219.4 211.2 211 211.8 213.6 212.9 215 218.2 220.4 219.3 216 216.6 215.6 213.7 213.4 209.6 209.6 206.5 202.3 194.6 182 185.1 192 192.7 189.5 189.1 193.1 195.1 197.2 200.9 196.9 195.5 193.4 190.6 186.4 183.4 183 182.5 170 179.3 196 198.5 197.6 196 203.1 204.5 205.3 201.6 203.8 202.9 196.5 196.5 196.5 196.5 196.5 196.4 196.5 196.5 196.5 196.5 196.5 196.5 199.4 203.6 208.3 209.1 207.2 202.9 203.7 202.2 200.6 196.5 196.5 196.5 196.5 196 196 196 196 196 196 196 196 196 196 196 196 196 196 196 196
1.2 1.2 1.2 1.2 1.2 1.2 1.2 1.2 1.2 1.2 1.2 1.2 1.2 1.2 1.2 1.2 1.2 1.2 1.2 1.2 1.3 1.4 1.5 1.7 1.7 1.8 1.8 1.5 1.2 1.4 1.6 1.7 1.8 2 2.1 4.5 2.3 2.5 2.8 3 4.1 2.4 3.8 3.2 2.9 4.1 3.6 4 20.7 38.7 54.3 67.6 72.3 86.1 86.3 90.1 94.7 104.4 114 125.3 135.9 144.2 149 149.9 149.3 155.4 159.7 165.4 168.4 179.5 170.9 189 192.4 175.8 168.3 162.4 147.1 146.6 149.4 155.1 146.1 127.6 134.6 150.9 156.5 167.4 186.5 185.2 199 198.4 203.8 205.4 206.5 211.6 215.7 222.9 231 229.2 226.3 225.1 223.4 220.6 221.3 221.9 223.6 223.6 223.9 224.8 226.1 212.9 209.7 209.7 213.1 213.9 212.9 213.1 215.3 217.8 213.4 210.9 209 210.5 208 206.3 205 205.6 201.7 198.2 178.4 185.8 191.2 194.5 193.8 192.7 193.6 199.2 199.2 202.5 200 200.2 197.6 194.8 191.6 191.8 187.1 183.7 183.1 188.4 196 196 196 196 196 203.2 202 203.3 201.7 203.5 197 196.5 196 196 196 196 196 196 196 196 196 199.3 196.5 196.5 196.5 202.3 203 198 197 201.3 198.5 196.5 196.5 196.5 196.5 196.5 196 196 196 196 196 196 196 196 196 196 196 196 196 196 196 196
1.2 1.2 1.2 1.2 1.2 1.2 1.2 1.2 1.2 1.2 1.2 1.2 1.2 1.2 1.2 1.2 1.2 1.2 1.2 1.2 1.3 1.4 1.5 1.6 1.7 1.8 1.8 1.8 1.2 1.2 1.7 1.6 2.1 2 2.1 2.2 2.5 2.4 2.6 2.9 3 3 3.1 5.5 7.2 8.2 7.5 21.6 40.6 54.8 65.5 70.5 80.9 97.5 104.8 100.8 102.3 116.4 115.3 127.3 134.3 141.5 144.4 144 150 156.6 160 163.8 159.1 162.8 169.3 176.1 166.2 162.5 162.6 153.3 152.9 138.7 130.4 127.3 121 130.8 132.1 145.6 158.9 176.4 181.3 190.9 192.6 193.8 188.5 204.2 212.9 218.7 222.7 230.1 230.8 228.8 225.1 224.3 223.9 221.9 223.5 226.4 227.1 225 220.4 218.4 210.6 209.7 209.7 210.3 215.8 216.1 216.5 216.3 216.8 216.8 213.2 213.7 208.9 206 206.6 205 207.2 205.2 199.4 181.8 184.7 190.2 194.1 195.2 194.1 193.4 194.6 199.8 202.6 204.5 204 203.6 201.2 197.1 197.9 193.1 193.6 185.3 185.6 190.6 196 196 196 196 197.4 203.1 202.2 198.9 199.2 196.5 196.5 196 196 196 196 196 196 196 196 196 196 196 196 196 196.5 196.5 196.5 196.5 197.4 196.6 196.5 196.5 196.5 196.5 196 196 198.2 196 196 196 196 196 196 196 196 196 196 196 196 196 196 196
1.2 1.2 1.2 1.2 1.2 1.2 1.2 1.2 1.2 1.2 1.2 1.2 1.2 1.2 1.2 1.2 1.2 1.2 1.2 1.2 1.2 1.3 1.4 1.5 1.6 1.8 1.8 1.2 1.2 1.2 1.2 1.2 1.2 1.2 2.1 2.2 2.2 3.2 2.8 8.9 8.4 5.1 6.4 8.7 11.8 19.1 17.7 39.4 57.5 61.5 72.8 80.4 93.9 110.6 114.5 103.8 105.9 115.7 116.7 125.3 130.6 135.8 140 145.1 153.9 157.8 160.8 155.2 151.9 158.2 163.8 158.9 160.9 153.3 154 140.9 143 118.8 118.5 124.4 118.7 117.8 125.3 137.8 151.3 160.9 177.6 177.6 185.1 189.2 198.8 206.8 209.8 220 227.1 229 232.3 232.4 229.7 227.1 224.2 225.7 226.5 226.8 225.9 221.6 218.2 215.6 209.4 209.7 209.7 209.7 213.2 216.4 216.1 219.3 221.6 221.7 218.8 214.3 209 205.4 202.5 203.3 203.3 199.7 184.1 186.5 188.3 190.5 193.1 197.8 195.8 196.7 198.4 200.6 205.6 208.6 204.9 203.4 202.9 203.9 198.7 198.1 194.8 192 192.7 201.3 196 196 196 196 197 201.5 196 195.9 196 196.5 196 196 196 196 196 196 196 196 196 196 196 196 196 196 196 196 196.5 196.5 196.5 196.5 198.3 196 196 196 196 196 196 196 196 196 196 196 196 196 196 196 196 196 196 196 196 196
1.2 1.2 1.2 1.2 1.2 1.2 1.2 1.2 1.2 1.2 1.2 1.2 1.2 1.2 1.2 1.2 1.2 1.2 1.2 1.2 1.2 1.2 1.3 1.4 1.6 2 1.8 1.2 1.2 1.2 2.3 1.8 1.2 1.2 3.2 2.2 2.4 9.3 20.3 19.8 12.5 7.5 8.8 13.1 13.3 20.5 33.4 41.4 50.3 64.3 79.2 88.9 102.2 110.1 109.9 100.7 106.2 109.8 115 119.8 126.2 132.4 137.8 145.9 151.7 157.4 153.3 149.5 147.1 151.4 151.8 155 149.8 153.6 132.8 117.3 115.3 119.1 122.8 115 111.6 116.8 130.4 152.3 153.1 160 169.6 178.5 188.4 195.2 202.4 208 218.6 226.7 229.5 237.5 235.3 234.9 232.8 230 225.6 227.4 227.5 228.6 225.9 220.6 217.6 214.2 210.9 212.8 209.7 209.7 209.7 219.2 220.9 223 221.7 219.2 219.7 215.8 209 207.9 207.3 198.6 200.1 193.6 188.5 192.7 191.6 192.9 197.5 200.8 200.2 199.9 200.2 201.5 208.1 209.8 207.5 204.6 205.2 205.1 201.5 198.1 196.7 197.6 198.6 196 196 196 196 196 196 196 196 196 196 196 196 196 196 196 196 196 196 196 196 196 196 196 196 196 196 196 196 196 196 196 196 196 196 196 196 196 196 196 196 196 196 196 196 196 196 196 196 196 196 196 196 196
1.2 1.2 1.2 1.2 1.2 1.2 1.2 1.2 1.2 1.2 1.2 1.2 1.2 1.2 1.2 1.2 1.2 1.2 1.2 1.2 1.2 1.2 1.2 1.2 1.7 1.8 1.9 1.2 1.8 2.1 1.2 1.9 2 1.2 4.4 2.5 12.1 21.5 28.5 5.6 13 12.3 12.1 12.1 19.4 28.4 45.3 56.7 58.7 65.8 80 92.5 97.2 101.4 97.9 99.1 105 98.4 111.5 115.4 123.4 129.2 136.2 142.7 146.4 149.9 146 143.6 140.4 144.7 142.9 134.9 146.6 134.3 119.2 119.4 104.2 100.5 101.5 106.4 114.6 131.8 140.3 149.7 155 169.9 184 198.5 205.2 205.8 209.2 215.3 224.2 233.4 240.8 237.7 235.9 235.4 234.3 231.3 228.5 228.6 230.1 229 224.3 219.3 217.5 212.2 216.2 215.8 217.2 215 211.3 220.5 220.8 219.6 219.8 217.3 217.6 217.1 213.3 209.2 208.8 201.6 191.8 187.5 190.2 193.3 195.2 196.7 198.3 201.5 201.7 201.6 200.8 202 203.6 207.8 206 205.7 208 206 204.8 202.8 201 202 201.7 204.1 199.7 196 196 196 196 196 196 196 196 196 196 196 196 196 196 196 196 196 196 196 196 196 196 196 196 196 196 196 196 196 196 196 196 196 196 196 196 196 196 196 196 196 196 196 196 196 196 196 196 196 196 196
1.2 1.2 1.2 1.2 1.2 1.2 1.2 1.2 1.2 1.2 1.2 1.2 1.2 1.2 1.2 1.2 1.2 1.2 1.2 1.2 1.2 1.2 1.2 1.2 1.8 1.8 2.4 1.2 2.2 2.5 2.4 2.4 2.3 1.2 2.5 3.5 19 26.5 18.2 2.7 14.5 10 10.8 12.4 25.4 33.3 51.5 55 61.3 71.1 81.1 84.7 90 92.3 93.6 93.9 95 96.8 106.1 112.8 120.6 124.8 131.7 138.1 143.2 140.6 139.8 131.9 135.5 129.1 124.5 126.7 123.9 113.5 112 97.1 95.9 108.1 113.7 116.2 131.6 149.8 152.1 155 163.9 185.6 201.5 212.9 219.5 220.7 221.1 229.1 235.2 240.5 239.7 239.8 240.3 239.5 237 236.4 236.5 234.7 233.6 229.2 224.8 220.2 212.9 212.8 221.2 218.1 225 223.9 217.8 218 222.5 222.4 218.6 215.4 212.9 210.1 206.8 205.8 204.2 199.4 192.1 192.1 194.6 197.5 199.2 202.1 202.5 203.5 203.9 202.6 202 202.4 202.9 203.5 205.7 207.1 208.5 206.3 206.4 207.7 206.1 203.7 202.9 198.8 197.5 197.7 196 196 196 196 196 196 196 196 196 196 196 196 196 196 196 196 196 196 196 196 196 196 196 196 196 196 196 196 196 196 196 196 196 196 196 196 196 196 196 196 196 196 196 196 199.5 204.8 203.3 201.9 197.2 196
1.2 1.2 1.2 1.2 1.2 1.2 1.2 1.2 1.2 1.2 1.2 1.2 1.2 1.2 1.2 1.2 1.2 1.2 1.2 1.2 1.2 1.2 1.8 1.2 2.3 2.1 2.6 1.2 1.8 1.9 1.9 2.6 1.9 1.2 1.8 21 23.1 19.2 2.5 2.6 10.2 7.6 9.7 15.5 27.4 31 50.5 56.6 62 70.9 72.7 77.4 84.2 84.8 87.1 87.3 87.3 99.6 105.4 112.3 116.6 121.5 126 132.4 131.2 136.9 129.3 125.4 129.5 116.4 108.1 105.7 94.2 111 89.9 95 116 127.4 125 128.7 142.1 160.3 158.7 159.1 178.4 204.2 218.1 228.7 237.7 236.5 231.1 236.4 238.3 239.9 240.8 241.9 242.7 241 240.2 240 239.8 238.1 233 228.5 222.1 217.1 213.3 223.2 223.5 224.6 225.8 222.8 221.5 217.9 221.3 219.8 216.1 210.6 209.8 207.3 203.3 201.8 198.1 193.4 194.5 198.4 201.6 203.1 205.8 209.2 211.5 207.5 208.5 207.4 206.7 203.5 203.3 206.2 206.4 207.3 207.9 207.2 213.1 211.1 210.9 205.5 205.1 208.6 201.8 199.6 196 196 196 196 196 196 196 196 196 196 196 196 196 196 196 196 196 196 196 196 196 196 196 196 196 196 196 196 196 196 196 196 196 196 196 196 196 196 196 196 196 196 202.3 206 210.8 206.2 203.1 196 196 196
1.3 1.3 1.3 1.3 1.3 1.3 1.2 1.2 1.2 1.2 1.2 1.2 1.2 1.2 1.2 1.2 1.2 1.2 1.2 1.2 2.2 2.4 1.2 1.2 2.4 2 2.1 2.4 2.5 2.4 1.9 2.3 2 3.5 3.2 22.5 7.7 3.6 2.5 4.6 4.1 4.5 8.3 18 20.8 35 49.4 55.7 56.1 56.2 69 74.1 75.3 76.9 75.3 76.4 79.7 86.9 104.4 109.7 112.1 116.6 118.9 120 123.6 129.1 116.8 115.3 118.6 108.5 96.7 85.6 83.2 88.6 93.8 113 129.7 132.9 133.2 138.1 150.2 155.2 163.4 170.1 195.7 221.9 232.6 240.5 246.9 240.2 242.1 244 243 243.9 244.3 245.6 247.9 245.4 245.2 241.9 239.2 236.9 232.7 228 217.3 212.4 219.3 224.4 225.8 224.3 222.3 221 220.9 220.5 217.1 216.9 211.8 209.8 208.2 203.3 205 196.4 193.9 194.8 200.5 205.1 209.2 210.1 216.8 213 213.6 210.3 212.2 214 213.4 208.3 207.5 208.2 207.4 207.6 208.8 211.4 213.9 209.7 207.7 208.7 209.5 209 202.7 201.4 196 196 196 196 196 196 196 196 196 196 196 196 196 196 196 196 196 196 196 196 196 196 196 196 196 196 196 196 196 196 196 196 196 196 196 196 196 196 196 196 196 196 196 199.6 196.3 196 197.4 196 196 196
1.5 1.5 1.5 1.5 1.4 1.4 1.2 1.2 1.2 1.2 1.2 1.2 1.2 1.2 1.2 2.2 2.9 2.7 1.2 1.2 2.5 1.2 1.2 2.5 2.6 2.4 2.1 2.2 2.3 2 2.1 2.6 2.9 4.4 7.2 13.2 2.7 2.2 1.7 2.2 2 2 9 17.3 22.4 36.1 43.8 48.9 46 54.4 61.7 65.1 61.3 60.8 61.8 67.7 80.8 85.2 106.1 108.2 107.2 112.9 113.9 108.4 115.1 109.6 109.4 109.4 104.3 88.5 79.3 78.5 91.7 102.7 105.6 131.3 134.2 140.4 140.2 147.5 154.9 167.9 168.8 185.3 214.4 233.9 240.9 252.2 254.1 247.7 250.9 248.7 246.5 247 249.9 250.4 250.8 248.6 248 243.1 238.8 236.6 233.5 223.4 212.1 213 220.4 225.1 224.4 221.4 221.5 221.9 223.3 222.3 218 215.3 210.9 210.7 204.9 201.4 198 195.1 197.3 207.6 210.9 210.7 213.3 218.9 222.5 220.7 216.6 217.9 216 216.7 213.9 215.2 215.2 210.9 210.8 211 212.8 216.8 216.5 209.3 209.3 211.4 211.4 207.2 206.6 206 196 196 196 196 196 196 196 196 196 196 196 196 196 196 196 196 196 196 196 196 196 196 196 196 196 196 196 196 196 196 196 196 196 196 196 196 196 196 196 196 196 196 196 196 196 196 196 196 196 196
1.6 1.6 1.6 1.6 1.6 1.4 1.2 1.2 1.2 1.2 1.2 1.2 1.2 1.2 2.5 2.7 1.9 2.2 1.2 1.2 2.6 1.2 1.2 2.2 2.7 2 2.3 2 2.3 2.8 2.3 3.6 2.3 2.4 9.8 3.6 2.2 2.5 2.5 2.3 2.2 2.2 9.9 17.6 23.1 33.3 34.8 40.8 40.8 52.2 51.5 53.8 53.8 56.8 60.9 72.1 82.9 87.1 98.2 99.8 105.3 106.1 99.3 99.6 99.4 106.2 111.7 97.4 83.2 83.7 74.3 78.3 97.4 111.6 118.1 126.3 136.8 133.3 131.9 146.1 164.5 176 188.6 204.7 225.2 238.1 246.8 260.6 259.4 255.5 255.7 249.8 249.4 248.7 252.6 253.4 253.8 251.6 245.5 242.4 238 236.5 229.5 219.9 213.9 215.7 222.5 223.3 223.3 223.7 225.7 223.1 220.4 219.8 216.4 210.3 208 205.6 201.9 198.6 196.7 197.8 209.9 219 221 221.5 221 222.8 231 232.3 222 221.2 221.1 219.4 218.5 216.8 214.5 212.9 215 215 216.3 220 214.4 212.2 212.2 214.2 213.6 210 212.7 207.7 196 196 196 196 196 196 196 196 196 196 196 196 196 196 196 196 196 196 196 196 196 196 196 196 196 196 196 196 196 196 196 196 196 196 196 196 196 196 196 196 196 196 196 196 196 196 196 196 196 196
1.7 1.8 1.8 1.8 1.7 1.5 1.2 1.2 1.2 1.2 1.2 1.2 2.1 2.4 2.4 2.6 2.3 2.3 2.1 1.2 1.2 2 1.2 2.6 1.2 1.9 2 2.6 4.2 4.4 1.9 2.6 3.1 2.5 2.3 2.4 2.4 2.3 2.5 2.4 2.2 2.3 16.5 19.7 18.6 24.8 31.4 32.1 33 41 41.3 42.9 50.5 58 66.3 74.2 82 80.9 93.1 98.1 104.9 99.4 97.2 93.2 98.9 103.9 105.1 78.7 74.4 70.9 72.2 91.4 103.6 116.7 121.3 125.7 132.9 129.2 129.2 155.2 184.6 186.1 196.7 213.3 228.1 241.2 254 258.1 257.2 256.9 253.8 250.8 255.2 251.8 253.6 256 255.8 252.4 245.1 239.5 238.5 236.2 227.2 211.2 213.7 219.8 222.5 224.6 225.9 223.5 223.2 222.3 222.3 219.1 214.7 213.7 212.1 208.3 203.8 198.6 197.4 205.4 223.2 230.2 234.3 232.9 231.4 232.4 235.8 246.3 232.1 224.3 220.8 219.6 222.1 222.1 217.4 217.1 220.7 220.6 229.3 222.9 216.8 217.2 217.6 217.9 217.6 215.7 219.1 209.8 196 196 196 196 196 196 196 196 196 196 196 196 196 196 196 196 196 196 196 196 196 196 196 196 196 196 196 196 196 196 196 196 196 196 196 196 196 196 196 196 196 196 196 196 196 196 196 196 196 196
9.5 21 21.8 14.4 1.7 1.5 1.2 1.2 1.2 1.2 1.8 2.2 2.4 2.4 2.4 2.2 2.3 2.5 1.2 1.2 1.2 2.5 1.2 1.2 1.2 2.5 2.2 1.6 1.8 2.3 2.4 3 3.6 2.7 2.6 2.5 2.3 1.9 2.2 2.5 2.2 2.7 15.2 13.3 13.4 20.7 24.8 21.7 34.1 31.3 36.6 43 57.5 58.1 67.4 74.4 78.3 80.4 88.4 98 95.4 92.9 93.5 93.6 98.7 105.4 99.1 68.3 68.4 77.7 86.1 81.4 93 109.2 115.8 124.1 125 128.1 144.4 164.3 179.3 183.2 203.1 225.5 242.9 251.5 261.2 263 262.4 264.5 257.1 254.2 260 259.3 257.7 257 257.3 248.8 242.1 238.1 236.2 229.9 210.8 210.7 216.5 219.5 220.7 220.7 222.1 221.7 223.7 223.3 221.5 219 215.2 214.3 214.7 207.5 200.2 197.9 203.5 214.1 231 237.2 242.8 241.5 239.9 238.7 246 256 239.8 228.6 223.2 221.7 228.1 227.7 225.1 226.1 226.3 226.2 224 224.6 221.6 221.4 220.9 221 222.4 220.6 220.6 213.8 200.5 196 196 196 196 196 196.3 196.2 196 196 196 196 196 196 195.8 196 196 196 196 196 196 196 196 196 196 196 196 196 196 196 196 196 196 196 196 196 196 196 196 196 196 196 196 196 196 196 196 196 196 200
22.9 35.7 31.5 18.6 1.8 1.5 1.2 1.2 1.2 1.2 1.8 1.8 2.1 2.5 2.5 2.7 2.6 2.6 1.2 2.8 1.2 1.2 1.9 2.1 2.4 2.4 3.2 1.9 2.1 2.4 2.2 2.7 2.3 2.4 2.1 1.9 1.9 2.4 1.9 2.1 2.4 2.7 8.5 4.5 8.4 13.1 9.7 19.5 26.5 30.3 43.5 56.9 61.6 67.4 70.5 78.8 78.8 80.9 78.1 77.7 79.2 88.9 88.5 92 94.8 92.3 74.2 66.7 76.6 94.8 99.7 105.5 104.9 90.3 111.1 116.8 118.6 111.8 110 144.4 167.4 177.3 198.6 226.7 248.4 254.3 258.1 263 265.5 267.9 262.4 259.3 261.8 265.5 261.8 260.8 256.3 246.1 241.4 240.4 233.5 214.5 207.2 213.7 215.6 215.6 215.2 218.7 224.1 223.7 222.1 221.6 217 214.6 213.5 211.2 208.8 198.6 197.8 200.8 207.4 218.8 225.9 230.8 235.2 247.6 252.8 249.8 252.8 258.9 249.2 237.5 231.9 224.7 231 237 236.1 234.2 226.2 226.5 230.1 230.2 225.3 228.2 225.8 227.1 229.3 226.9 224.1 223.6 212.1 199.5 198.3 196.6 197.6 199.7 201.6 199.7 196.2 195.8 197.4 200.2 203.5 200.7 203.5 198.8 196 196 196 196 196 196 196 196 196 196 196 196 196 196 196 196 196 196 196 196 196 196 196 196 196 196 196 196 196 196 196 196 196 197.4
27.4 36.9 31.8 15.6 1.9 1.2 1.2 1.2 1.2 1.2 1.8 1.9 2 2.2 2.5 2.6 2.4 2.6 2.6 2.2 2.4 1.2 2.2 2 1.8 2.9 1.7 2.1 2.3 2.4 2.3 3.2 2.3 2.5 2.2 2.1 2.4 2.4 2.4 2.1 1.9 2.7 2.9 3.5 5.3 5.9 7.9 22.3 30.9 42 55 63.6 68.2 73.4 78.1 79.3 79.4 78.1 76.4 76.4 78 89.8 91 89 87.5 73.7 64.9 72.6 93.8 101.3 112.8 116.7 116.9 114.1 112.5 107.6 113.9 121.7 131.2 126.1 132.9 163.2 184.2 215 238.7 247.1 257 264.1 271.9 276.7 272.9 265.6 264.3 266.4 263.7 260 250.4 241.7 238.9 235.4 214.5 203.3 212 214.1 212.6 211.9 215.5 217.7 221.1 219.4 220.3 217.5 215.3 211.4 209.8 211.3 204.1 201.2 198.9 211.3 214.1 219.3 225 228.4 243.1 257.4 256.5 261.5 268.3 266.5 254.9 244.9 236.7 230.1 234.8 238.8 235.4 228.6 226.3 227.9 234 233.8 231.7 233.8 231.6 232.1 240 234.7 233.5 229.2 223.4 210.1 205.1 204.5 201.5 206.2 207.6 204.6 203.7 203.7 201.6 210.1 214.3 216.8 211.9 213.4 204.8 196 196 196 196 196 196 196 196 196 196 196 196 196 196 196 196 196 196 196 196 196 196 196 196 196 196 196 196 196 196 196.5 199.5 196
27 35.3 23.6 10 1.9 1.2 1.2 1.2 1.2 1.2 1.9 1.9 2 1.2 1.9 2.2 2.3 2.7 2.5 2.4 2.5 3.4 3.6 1.7 1.8 2 2.4 2.2 2.5 2.6 2.4 3 2.2 2 1.3 2.4 1.9 2.4 2.5 2.4 2.3 2.7 3 3.5 5.2 7.4 24.4 40.6 46.9 58.9 66.6 73.7 76.7 83.1 85.4 87.7 78.2 76.9 77.2 76.4 83.2 90.5 90.3 85.6 78.6 63.4 63.5 80.3 95.9 110.7 118.8 122.5 127.5 130.7 131.9 137.5 136.7 139.6 146.9 144.5 128.9 140.1 163.3 204.3 226.3 239.4 252.6 265.3 272.2 271.6 271 270.4 270.7 268.2 261.1 253.2 245 235.6 234.9 223.2 203.3 203.5 208.3 208.7 210.1 211.3 214.7 216.2 217.4 220.2 214.9 211.6 211.1 212.2 213.7 213.5 210 209.3 215.3 224.4 223.4 222.2 224.4 228.3 240.1 248.5 251 271.7 279 273.9 257.1 251.7 246.2 236.3 235.3 236.5 237.7 231.3 232.8 239.7 238.5 234.6 235.1 242.4 241.6 242.9 249 249.7 240.7 233.4 235.3 224.7 218.4 215.8 211.5 212.3 215.2 213.6 214.1 214.9 211.4 219.1 225.3 221.5 226.7 224.6 219.7 208.9 196 196 196 196 196 196 196 196 196 196 196 196 196 196 196 196 196 196 196 196 196 196 196 196 196 196 196 196 196 196 196 196
17.8 25.6 20.2 7.8 1.2 1.2 1.2 1.2 1.2 1.2 1.2 1.9 1.2 1.2 2.3 2.5 2.5 2.5 2.5 2.4 1.2 3.4 2.4 2.4 2.3 2.2 2 1.8 2.5 3 3.3 2.1 2.5 2.4 2.2 2.2 2.2 2.5 2.5 2.4 2.3 3.5 2.8 3.7 9.8 20.1 37.1 51.1 59.6 66.6 76.5 79.8 87 91.7 84.3 81.3 80.7 78.7 76.4 76.4 83.8 81.3 89.6 81.6 69.5 62.4 69.8 84.3 98.8 111.4 121.7 128.2 138 141.5 146.4 148.3 148.4 156.3 158.4 156 145.5 132.3 148.9 178 211.6 231.9 240.8 251.5 257.2 259.9 264.2 268.7 266.4 264.2 256.4 247.2 238.1 230.2 221 203.4 203 207.4 206.8 208.6 210.1 213.3 213.4 216.6 215.8 213.2 212.4 212.3 213.1 220 222 216.5 216.2 215.6 235.3 242.7 231.4 231.8 230 228.1 233.9 243 252.7 253.6 258.6 265.8 260.6 255.6 250.5 243.2 236.3 235.7 235.2 242.5 243.7 247.5 248.2 245.7 245.2 252.2 255.3 258.2 266.3 275.3 261 253.3 249.3 240.8 233.7 229.2 223.8 223.1 222.1 224 224 222.6 227.3 229.6 235 235.4 239.9 236.3 233.8 230.7 208.9 196 196 196 196 196 196 196 196 196 196 196 196 196 196 196 196 196 196 196 196 196 196 196 196 196 196 196 196 196 196 196
1.2 18.9 10.5 2.2 1.2 1.2 1.2 1.2 1.2 1.7 1.2 1.2 1.2 2.5 2.5 2.4 2.4 2.1 2.2 2 1.2 2.8 2 2.6 2.4 2.2 1.8 2.3 1.7 2.1 2 1.9 2.2 2 2.5 2.5 2.2 2.3 2.4 2.4 2.3 3.2 3.2 8.4 13.3 39.2 51.1 59.7 65.4 76.5 83.9 89 95.7 98.2 85.7 90.8 81.7 76.4 76.4 76.4 81.2 78.3 80.8 72.4 61.3 65.7 77 85.7 98.4 117.1 128.6 140.6 147.9 149.9 156.2 157.8 157.4 160.9 167.8 159.4 152.3 138.7 137.1 160.9 188.3 204.5 216.7 225.6 244.5 252.8 261.7 264 263.6 261.1 251.3 238.4 229.8 220.4 202.7 206.8 203.2 205.6 206.2 210.1 212.1 212.7 214.2 214.5 212.6 212.4 213 213.9 213.9 214 215 216 216 224 248.5 250 247.6 241.3 239.1 235 235.9 249.4 251.7 255.9 259.8 262.5 260.4 254.7 253.2 251 238 236.5 244.1 253.2 255.2 256.3 257.9 260.4 262.8 263.5 269.3 271.3 281.1 292.5 278.7 267.9 266.1 257.2 253 243.9 235.1 235.4 235.1 236.3 234.5 232 235.3 233.2 240 249.2 252.4 246.2 251.2 238.5 216.2 205.7 196 196 196 196 196 196 196 196 196 196 196 196 196 196 196 196 196 196 196 196 196 196 196 196 196 196 196 196 196 196
1.2 8.7 2.4 1.2 1.2 1.2 1.2 1.2 1.7 1.6 1.2 1.2 1.2 2.1 2.2 1.2 1.2 2.3 2 1.2 1.2 1.8 1.9 1.9 2.5 2.4 2.1 2.2 2.3 2.1 1.9 2 2.2 2.2 2.1 2.6 2.4 2 2.2 2.3 2.4 3.2 5.6 10.3 28.7 47.8 58 65.3 75.8 84.9 91.3 98.1 101.8 93.5 97.3 96.8 81 76.7 76.4 77.7 77.2 78.2 77 72.5 59.3 79 81.7 82.9 105.6 124.4 134.7 149.6 158.3 159.9 162 163.1 166.3 171.6 171.4 167.6 159.6 150.5 142.1 140 160.6 181.1 198.8 212.9 235.3 250.6 258.3 263.6 266.2 259.8 249.9 233.2 223.6 203.8 203.6 206.7 212.9 211.7 208.4 213.3 214.7 215.8 213.9 213.1 212.9 212.9 212.8 212.3 213 213.7 214.6 215.9 221.9 244.7 257.9 261.7 258.9 246.7 247.8 242 236.1 239.4 250.4 254.7 264.2 261.8 258.4 259 254.8 253.1 238.6 237.1 250.2 263.3 263.9 271.3 275.3 278.3 278.4 282.5 285 288.4 292.4 301.7 300.4 288.5 269.9 278.4 274.5 259.4 252.1 245.4 246.3 248.9 250.6 246.2 241 243.3 247 257.6 259.8 255.4 252.4 241.1 222.1 217.3 199.4 195.8 196 196 196 196 196 196 196 196 196 196 196 196 196 196 196 196 196 196 196 196 196 196 196 196 196 196 196 196
1.2 1.2 1.2 1.2 1.2 1.2 1.2 1.9 2.1 2.3 1.2 1.2 1.2 2.1 2.1 1.2 1.2 1.9 2.3 1.2 1.2 2 2 2 2.2 2.3 1.8 2.2 2.4 1.8 1.9 2.2 2.2 2.2 2.4 2.5 2.3 2 2.2 2.4 2.6 4.4 17.1 15.8 37.1 52.2 63.2 73.3 84 93.2 97.6 101.5 105 95 101.4 103.5 83.8 79.5 77.3 77.9 77.6 89.1 86.6 59.5 72.3 78.4 80.4 95.2 103.2 125.4 139 157.1 164.3 164.3 170.3 170.3 178.4 181.9 179.4 178.9 169.5 163.7 163.5 150.6 147.4 165.4 181.4 203 229.5 244.4 258.4 265.5 260.9 252.5 241.9 225.4 209 198.6 208.8 205.8 212.3 214.7 214.6 211.7 216 213.5 213.3 213 213.1 213.7 216.9 214.8 212.6 214.1 216 220.3 238.1 256.6 267.5 266.5 269.2 265.4 249.7 248.7 241.4 241.9 247.1 254.1 259.8 253.7 253.3 251.7 249.1 246.9 241.5 246.1 257.4 271.7 284.1 299 309.3 301.1 301.9 303.9 304.8 305.6 304.2 311.9 312.9 309 292 292.1 291.8 277.4 259.8 264.3 254.2 258 256.7 255.2 253 253 251.7 261.4 265.3 264.7 254 243.7 234.3 226.1 206.8 204.2 202.2 196 196 196 196 196 196 196 196 196 196 196 196 196 196 196 196 196 196 196 196 196 196 196 196 196 196 196
1.2 1.2 1.2 1.2 1.2 1.2 1.8 1.9 2.4 2.1 1.2 1.2 1.2 1.2 1.2 1.2 2 2 2.2 1.2 1.2 1.6 1.9 2.1 2 1.7 1.9 2.1 2.8 2.1 2.1 2.2 2.2 2.3 2.3 2.4 2.3 2.3 2.6 2.7 6.1 23.6 16.8 27.3 46.6 61 73.9 83.5 92.1 97.5 100.6 109.1 104.4 99.7 110.3 104.5 87.3 83.3 80.7 78 85.6 93.3 69.2 60.8 76.5 77.2 82.4 99.7 109.5 128.6 143.9 160 175.8 181.1 180.2 182.3 188 188.9 185.8 186 186.8 179.7 178.9 167.2 163 161.3 169 192.7 226.2 242.2 254.3 260.2 255.9 243.9 228.7 209.9 193.7 210.2 209.3 208.5 213.3 215.1 217.2 214.2 212.4 212 212.3 217.1 214.8 215.2 218.9 212.8 213.2 216.8 220.3 228.1 251.3 268.8 278.3 277.2 271.2 265.9 256.5 254 253 245.6 250.5 253.2 256.9 257.4 258.5 253.8 252.8 253.5 254.6 251.3 274.3 288.1 311.4 319.2 322.8 328.1 323.2 322.9 320.5 322.3 321.4 317.1 323 323 306.1 295.8 299.7 286.9 278.5 273.3 272 267 263.9 262.6 262.8 262.1 259.3 265.3 267.6 268.3 257.6 247.4 240.1 231.1 216.3 207.4 204.5 196 196 196 196 196 196 196 196 196 196 196 196 196 196 196 196 196 196 196 196 196 196 196 196 196 196 196
1.2 1.2 1.2 1.2 1.2 1.2 1.2 1.7 2.3 1.9 1.2 1.2 2.5 2.4 2.1 2.2 2.2 2.1 2.2 2 4.6 2.4 2.4 2.3 2.3 1.7 1.9 3.4 2.1 2.5 2.2 2.2 2.2 2.3 2.3 2.3 2.2 2.4 2.9 5 14.8 27.8 19.4 38.9 58.6 71.6 81.6 90.1 97.2 102.5 106.7 113.9 107.6 97.3 113.1 98.9 89.4 86.1 81.1 89.1 81 83.5 55 68.8 76.5 79 88.2 106.7 123.1 132.3 146.6 169.7 181.2 184.6 185.9 190.6 197.1 189.8 189 192 196.7 192.5 199.3 184.4 173.9 182.7 170.9 166.9 201 227 240.1 253.8 244.3 229.5 212.8 191.3 192.3 214.1 211.6 211.7 215.5 215.9 213.1 212.1 211.7 212 215.7 216.1 219.7 216 218 213.6 214 217.7 228.5 236.5 262.8 278.5 289.6 287.6 283.7 276.4 267 260.8 267.6 256.1 258.8 261.4 260.5 258.7 257 258.8 266 266.7 268.6 268.7 295.1 311.2 329.5 331.9 333.9 338.4 336.9 341.9 337.1 339.1 337.1 325.3 333.5 339.7 322.1 311.4 306.9 300.1 292.5 284.2 284.1 274.9 278.6 273.4 273.8 271.3 261.7 265.8 272 265.2 257.7 251.3 242.6 235 219.7 207.1 203.7 199.5 196 196 196 196 196 196 196 196 196 196 196 196 196 196 196 196 196 196 196 196 196 196 196 196 196 196
1.2 1.2 1.2 1.2 1.2 1.2 1.2 1.2 1.2 1.2 1.2 2.2 2.1 2.2 2.4 2.2 2.2 1.7 2.5 1.2 4.2 2.2 2.4 2.4 2.3 2.3 2.2 2.3 2 1.8 1.9 2.6 2.2 2.3 2.3 2.3 1.5 3 3.9 16.3 23.1 29.2 27.6 53.7 69.9 79.4 85.8 93.8 101 107.9 116.1 117.8 113.4 95.1 101.7 99 91.4 87.2 84.5 88.7 77.3 55.2 61.1 73.1 78.9 81.7 92.7 110.3 131.1 141.7 156.2 173.4 180.1 184.5 189.7 190.6 190.6 190.6 192.6 195.9 198.9 201.3 206.9 202.9 204.9 202.2 196.2 182.7 172.3 197.1 216.1 229 229 208.9 188.3 186 191 210 210.5 208.4 209 211.6 210.7 210.9 212.8 219 223.9 219.6 223.2 221.4 213.4 213.4 216.8 223.8 235.2 250.6 274.3 285 294.3 292.9 288.2 287.8 284.4 271.9 273.6 271.4 264 263.9 263.9 261.6 265.5 269.6 274.5 279.8 283.4 285 297.9 325 340.2 343.5 344.1 349.7 358.5 365.1 357.2 356.5 361.8 346.4 343 351.6 343.6 324.7 320.1 313.8 312 303.5 291.4 289.3 285.3 283.7 279.1 281.3 263.8 261.2 270.1 265.4 258 251.8 245.2 236.4 224.2 209.8 205.2 199.3 196 196 196 196 196 196 196 196 196 196 196 196 196 196 196 196 196 196 196 196 196 196 196 196 196 196
1.2 1.2 1.2 1.2 1.5 1.5 2.2 1.2 1.2 1.2 2.1 2.1 2.5 2.2 1.8 2.3 2 1.8 2.2 1.9 1.2 2.1 2.2 2.3 2.3 2.2 2.4 2.3 2 1.8 1.9 2 2.1 2.3 2.3 2.6 2.9 4.9 14 26.5 21.3 23.8 38.3 65.9 76 82.7 87.2 96.7 105.6 114.6 120.7 119.1 112.5 92.3 91.6 96.1 92.2 82.8 85.3 89.6 71.4 54.3 70.7 78.6 86.4 85.5 94.7 117.9 138.5 152 167.3 181.3 184 186.6 188.3 192.1 198.6 199.2 199.4 202.5 203.4 204.4 210.1 214.9 218.1 221.1 215.8 203.7 194.8 178 184.5 193.6 194.8 186 182.5 183.4 195.1 201.9 207.2 212.8 208.3 211.1 209.6 210.6 219.4 219.1 221.7 223.2 226.1 215.8 214.1 215.8 219.9 233.3 241.1 266.2 284.4 295.9 300.8 298.3 296.5 299.1 295 286.5 280.2 280.8 269 266.3 272.1 277.8 281.8 285.3 286.8 292.2 296.6 304.1 312.3 334.7 351.4 353.6 358.6 361.1 368.2 374 370.3 375.7 376 368.3 354.3 360.8 357.3 338.7 329.5 329.4 326 319.2 302.8 292.9 296 290.9 283.3 282.2 274.1 262 261.2 257.9 255.4 249.9 243.9 235.8 227.8 214.2 204.1 201.6 196 197.9 196 196 196 196 196 196 196 196 196 196 196 196 196 196 196 196 196 196 196 196 196 196 196 196
1.2 1.2 1.2 1.2 1.8 1.7 1.9 2.3 1.9 1.8 1.9 1.9 2 2.3 2 2.3 2.1 2.2 2.2 1.2 1.2 1.4 2 2.4 1.8 2.7 2 2.2 1.7 1.8 1.8 2 2.1 2.2 2.7 3.1 2.8 17.8 30.4 36.5 30.4 28.9 51.3 72.8 79.1 84 91.2 103.6 115.2 123.2 122.9 114.4 95.4 85.8 89.5 92.4 86.5 85.3 83.7 81.1 53 67.5 73.9 81.5 82.8 87.8 103.4 126.5 147.9 166.2 179.1 183.9 186.4 193.8 197.1 203.4 206.5 207.4 211.9 214 214.3 216.4 223.7 227.6 233.3 233.8 229.1 223.8 217.8 205.5 186.7 180.2 182.4 181.4 181.7 187.2 203.8 199.9 204.6 207.7 207.5 208.6 209.2 214.9 219.1 222.2 223.3 228.1 219.7 214.8 216.6 223.1 220.9 228.8 254.7 274.8 295.8 305.3 305.8 307.1 309.4 307.6 306.5 303.8 288.8 277 271.6 269.7 281.6 289.1 293.6 294.8 300.4 305.1 311 314.3 321.7 346 363 366.9 373.3 370.8 376.5 384.7 378.8 385.8 395.6 388.4 366.1 366.8 367.1 349.2 333.9 334.5 330.9 324.8 311.2 297.5 296 291.9 285.4 283.6 277.8 260.9 252.7 253.3 248.9 244 238.8 232.2 225.3 216 204.6 200.4 200.1 196 196 196 196 196 196 196 196 196 196 196 196 196 196 196 196 196 196 196 196 196 196 196 196 196
1.2 1.2 1.2 1.8 1.7 1.2 1.2 2.2 2.3 2.2 2.2 2.3 2 1.9 1.2 2.2 2.5 2.4 1.9 1.2 4.5 1.9 1.9 2.1 2.4 1.9 1.6 2.2 1.7 1.8 1.8 1.9 2 2.4 2.5 2.8 4.9 20.1 36.7 41.9 30.1 35.4 58.8 74.6 80.2 86.1 97.5 113.7 122.2 127.9 117.6 102.4 88.1 86.7 83.6 84 87.3 87.8 78.4 50.5 64 74 77.5 79.2 84.7 97.9 107.5 131.4 154.4 167.3 175 183.5 193.7 199.9 205.4 208.9 215.3 217.8 225.7 228.9 232.1 231.8 235.9 248.9 250.4 254.2 246.6 245.5 241.7 233.3 215.5 200.2 181.9 181.8 182.4 193.8 194.2 200.2 202.9 204.6 206.3 207.5 213.7 216.3 216 219.1 231.8 229.8 217.9 217.3 228.7 231.5 224.6 231.6 251.1 279.7 301.1 309 310.4 316.2 316 315.7 312.1 307.8 308.9 286.2 273.3 272.8 279.2 296.8 304.7 303.3 307 313.8 319.4 329.8 335.3 351.7 368.2 380.2 382.2 381.3 387.1 395 389.1 394.5 404.4 398.8 386.3 376 371.1 353.6 339.6 340.6 334.8 325.3 316.2 302.8 293.1 292.3 287.6 279.7 267.2 259.4 250.3 245.9 243.8 238.1 231.5 225 220 214.1 203.7 200.2 197.7 196 196 196 196 196 196 196 196 196 196 196 196 196 196 196 196 196 196 196 196 196 196 196 196 196
1.2 1.2 1.2 1.8 1.2 1.2 1.2 1.9 1.9 2.2 2.2 2 1.9 1.2 1.2 1.2 1.8 2.4 1.2 1.2 2.3 1.9 2 2.5 2.1 2.3 2.1 1.8 1.7 1.8 1.9 2 2.2 2.2 2.7 5.6 14.2 29.5 38.5 34.1 33.1 40 67.6 76.8 80.7 90.9 107.6 120.8 131.1 130 114.2 94.8 90.7 83.1 80.5 81.4 83.4 77.7 51.3 53.1 70.8 75.3 77.3 81.6 93.2 105 111 142.6 159.4 161.5 175.4 188.3 201.5 205.2 213.3 221.1 222 226.9 238.3 244.3 243.4 249.9 251.3 268.7 270.7 262.9 268.7 270.3 264 251.9 227.5 214 198.3 195.4 188.2 192 193.9 203 204.2 206.6 208.8 208.5 211.6 212.6 217.7 228.5 226.6 220.5 218.2 227.1 233 232.9 232.1 244.7 258.6 282.3 295.4 305.7 315.2 320 319.3 316.2 312.1 314.5 316.3 296.8 284.6 278.5 282.3 303.2 312.4 313 312.2 320.9 331.1 341.6 352.5 350 367.9 392.2 394.2 391.7 396.4 404.1 396.9 402.8 408.7 406.4 393.1 381.4 380.9 362.5 342.2 336.4 335.8 323.6 312.9 305.5 296.8 288.2 283.7 273.1 267.7 261.8 246 238.3 234.8 232.1 225.6 223 216.6 208.8 201.8 197.8 196 196 196 196 196 196 196 196 196 196 196 196 196 196 196 196 196 196 196 196 196 196 196 196 196 202.7
1.2 1.2 1.2 1.2 1.2 2.3 2.4 1.2 2.2 1.2 2 2.1 1.2 1.2 1.2 1.2 1.2 1.2 1.2 2.1 2.2 1.8 2.4 2.8 2.4 2 1.9 1.6 1.7 2.4 2.5 2.7 2.3 2.1 5.2 10.1 19.6 37.7 39.1 31.3 44.2 49.6 64.8 74.7 82.1 96.9 112.8 130 138.8 121.4 107.1 90 86.6 82.1 81.1 76.4 72 55.2 48.9 61.6 69 70.5 80.9 85 102.8 107.3 118.2 148.3 159.8 164 177.5 193.7 211.7 214.8 220.8 229.8 234 243 252.5 258.5 261.9 267.3 273.2 286.8 289.5 283.4 283.7 288 276.6 258.2 233.2 217.3 215.3 212.8 203.9 194.3 204.2 207.8 208.3 213 211.6 212.3 212.8 215.9 223.6 234 222.5 219.5 223.9 234.5 236.5 239.7 243.4 259.8 275 282.1 291.4 297.5 307.3 315.7 318.1 317.5 320 316.9 323.3 304.6 292.8 285.3 283.7 297.6 319.1 319.2 322.1 329.4 338.1 346.2 357 357.1 365.1 395.9 405.1 403 407.3 411.4 403.3 406.6 409.9 411.7 401.1 397.2 381.8 368.2 339.3 328.9 329.5 317.6 307.1 302.7 297 289.3 274.1 269.8 264.7 258.5 243.4 236.6 229.7 224.9 221.6 217.5 211.4 203.1 202.3 198.2 196 196 196 196 196 196 196 196 196 196 196 196 196 196 196 196 196 196 196 196 196 196 196 196 196 206.4
1.2 1.2 1.9 2.2 2.3 1.8 1.2 1.2 1.2 1.2 2.4 2 1.2 2.2 1.9 2.2 1.2 1.2 1.7 1.8 2.3 2.2 2.7 2.3 2.3 2 1.8 1.9 2.4 2.1 2.7 2.8 2.2 3.5 17.4 21.3 32.1 40.4 38.4 47 53.9 54.1 56.4 65.8 76.7 99.1 118.7 118.3 120.9 118.2 100.7 86.7 82.7 83.1 71 65.1 63.8 48 60.4 67.2 70.2 77.8 85.7 98.2 106.9 109.6 124.3 152.9 160.1 171.5 189.2 201.9 216 223.3 229.5 238.1 247.7 262.4 270.1 275.6 287.6 291.7 304.8 306.8 311.4 297.7 296.8 298.5 275.4 257.9 236.8 228.4 225.9 224.8 217.7 212.3 208.2 217.6 216.4 220.6 218 216.5 216.4 219.9 226.9 223.5 220.5 220.8 229 238.5 243.8 254.6 266.5 278.4 289.5 294.1 298.5 306.9 316 323 324.3 323.4 321.5 324.4 322.1 313.5 300 290.2 287.9 295.7 308.5 325.4 333.8 338.1 343.1 348.7 355.4 370.7 367.7 382.1 409.3 414.8 416 413.6 411.8 415 415.1 419.8 410.4 402.6 378.2 353.9 333.7 323.8 314.8 306.4 302 299 297.8 285.9 272.4 266.6 259.7 252.3 246.3 233.6 225.5 221.4 219.1 213 209.9 201.6 199.7 196 196 196 196 196 196 196 196 196 196 196 196 196 196 196 196 196 196 196 196 196 196 196 196 196 196 196
1.2 1.2 2.1 1.7 1.8 2.1 1.2 2.2 1.8 1.9 1.9 2.1 1.2 2.3 2.4 1.8 3.5 2.5 2.2 2.3 2.3 2.5 2.4 1.8 2 2.4 2.3 2.2 2.3 1.9 1.9 2.3 2.7 8.4 28.7 27.2 32.9 38.9 51.9 60.6 54.8 55.1 61.3 71.1 84.7 104.6 115.5 122.8 131.4 117.5 92.4 78.9 71.2 70.2 68.3 60.6 46.7 62.3 69.7 73 78.3 92.4 97.2 108.4 119.6 119.2 136.8 151.4 159.1 173.3 197.6 208.9 216.5 230.1 232.8 243.1 264.6 278.8 290.4 294.6 306.5 311.6 319 322.2 320.5 305.9 297.8 291.3 271.8 254.4 234.7 240.3 235.4 232.6 226.8 224.3 222.2 218.9 221.9 229.6 224.7 223.2 225 229.4 223.2 222.1 222.5 225.4 235.1 249.4 263.7 276.3 289.3 291.7 299.8 304.8 309.8 319.1 328.3 332.3 333.6 332 332.3 331 326.3 319 312.7 299.9 294.3 295.5 302 316.9 340.7 345.8 352 356.5 360.4 377 374.9 382.7 396.9 408.4 416 413.6 417.2 425.6 423.9 418.2 412.1 388.2 366.8 345.7 331.3 317.8 310.9 303 298.8 296.1 289.6 282.1 274.7 265.4 257 251.6 243.5 231.4 221.5 218.3 215.7 212.6 206.3 201.2 196.7 196 196 196 196 196 196 196 196 196 196 196 196 196 196 196 196 196 196 196 196 196 196 196 196 196 196 196
1.2 1.2 2.3 2.2 1.9 1.2 1.2 1.7 1.2 1.2 1.2 1.2 1.2 2.6 1.8 4.8 2.4 2.3 2.5 2.6 2 2.6 2.4 2.4 2.3 2.2 2 2.1 2.3 2.4 2.9 2.9 8.9 19.4 34.2 36.4 38.2 54 62.5 55.9 55.9 61.2 68.4 77.2 95.3 113.6 124.9 132.2 135.6 103.6 83.8 69.6 62.6 68.8 65.4 49.5 55 66.2 73.5 80.6 94.4 101.6 115.1 122.8 130.7 127.6 142.6 155.4 163.6 181.9 198.3 217 224.8 232.6 235.2 258.2 278.6 295.1 308.9 308.5 316.3 321.8 329.2 325.7 314.6 311.1 300.7 293.3 270.9 257.5 240.7 246.8 243.7 235 236.3 237.8 234.8 236.8 231.3 240.5 232.3 233.4 236.2 234.6 224.5 223.7 226.6 235.9 252.6 269.5 280.4 291.1 303.5 306 310.5 318.6 325.2 334.6 343.8 345.3 343.8 347.7 342.6 335.6 335.2 327 316.8 309.9 302.8 297.7 301.4 307.9 326.5 341.4 350.2 361.5 368.6 384.6 389.6 379.9 388.3 401.9 411.4 417.3 425.1 427.9 425.3 412.9 400.7 379.7 359.1 341.7 323.3 311.5 306 300.3 292.7 290.6 285.4 279.1 273.1 264.7 257.1 247.7 240.1 230.9 222.3 218.5 214.9 210.8 204.9 200.5 196 196 196 196 196 196 196 196 196 196 196 196 196 196 196 196 196 196 196 196 196 196 196 196 196 196 196 196
1.2 1.2 1.2 2 1.2 1.2 1.8 2.2 1.2 1.8 1.2 1.2 2.1 2 3.1 2 2.3 1.9 2.2 2.2 2.2 2.2 2.4 2.4 2.4 2.2 1.9 2.3 2.6 2.5 3.4 4.8 15.9 32.1 39.1 47.8 49.7 56.1 56.8 61.2 62.3 66.7 73.4 84.1 102.8 120.7 134.7 140.4 125 91.7 77.4 61.8 69.3 70 59.1 44.8 60.3 70.6 83.1 90.4 114.9 110 122.9 134.7 140.6 134 146.6 158.5 167.5 185.7 199.4 217.6 228.2 230.6 247.6 273.2 291.1 306.5 321.1 322.2 325.6 329.9 329.4 324.1 316.8 316.9 301.3 286.2 273.1 262.7 249.6 253.1 250.7 240.5 249.6 251.2 248.4 250.6 253.4 240.8 243.9 248.2 246.7 233.5 231.4 236 242.9 246.8 258.6 279.1 294.1 306.8 315.9 318.9 324.5 336.1 346.9 353.2 362.5 361.6 362.3 364.2 360.2 342.7 345.3 332.9 322.6 314.5 309.5 302.9 299.7 302.1 319.7 334.6 347.9 365.9 375.9 388 391 383.7 389.6 409.9 418.3 425.8 424.5 426.6 418.1 405.7 388.2 369.6 354.4 334.8 318.2 308.7 304.5 298.6 292.4 289.1 288.2 282.9 274.4 263.4 254 244.3 236.4 231.2 222.3 218.4 213.2 206.7 202.3 198.1 196 196 196 196 196 196 196 196 196 196 196 196 196 196 196 196 196 196 196 196 196 196 196 196 196 196 196 196
2 1.8 1.2 1.2 1.2 1.8 2 1.9 1.2 1.2 1.8 1.8 2.8 2.1 2.1 2.4 1.7 1.9 2.4 2.1 3 2.2 2.5 2.5 2.5 2.2 2.4 2.3 2.3 4 11.6 15.6 27.3 41.6 45.7 50.2 60.9 58.9 62.8 64.3 66.1 72.3 81.6 94.8 112 133.2 141.9 146 104.6 85.7 62.7 63.6 71.4 62.4 41.3 52.6 67 75.9 89.3 104.1 117.4 119.5 131.8 142.9 144.3 141.1 152.7 159.2 172.5 187.1 197.7 212.1 225.9 234.3 249 280.2 302.3 319.9 330.6 331 333.2 332.5 331.4 326.4 324.1 322 305.3 288.9 275.1 262.7 258.8 257 255.3 255.8 258.8 263 265.1 267.4 275.3 265.7 254.1 261.3 252.3 248.2 244.8 252.3 256.9 261.9 263 281 289.9 311.7 325 324.8 334.2 347.1 364.5 372.2 383.6 380.8 380 381.5 373.8 361.2 353 338.1 328.6 321.4 311 302.3 300.4 299.3 312.4 329.6 338.3 356.8 369.1 384.3 388 390.3 390.4 403.2 418.6 420.2 422.3 419.7 408.5 392.5 373.8 361.1 346 329.3 317.3 309.7 303.3 299 291.7 288.3 286 284.8 279.4 273 262.4 252.6 240.9 230.6 223.1 216.4 210.2 204.2 202.2 197.1 196 196 196 196 196 196 196 196 196 196 196 196 196 196 196 196 196 196 196 196 196 196 196 196 196 196 196 196
2.2 2 2.1 2.1 1.8 1.8 1.8 1.2 1.2 1.2 2.4 2.4 2.4 2.2 2.4 2.3 2.3 2.2 2.4 2.1 3.3 3 2.5 2.5 2.5 2.1 2.3 2.3 5.1 15.2 22.6 26.3 35.7 49.7 55.7 60.2 61.2 62.6 63.2 64.9 68.9 79.3 88.5 101.1 124.9 143.1 148.5 118.8 88.9 71.2 57.2 65.9 65.2 43 43.9 64 75.5 89.6 104.1 110.1 119.9 130.7 141.5 150.3 147.6 146.1 162.5 163 177.5 187.4 200.9 212.8 228.2 243.9 265.5 277.2 309.3 326.6 337.6 334.1 332.5 332.2 335.8 330.1 328.4 320.8 309.2 289.2 279.1 267.7 266.1 260.4 263.9 263.4 269.4 273 275 281.3 293.4 285.2 274.7 262.9 260.6 263.2 259.4 264.1 269.5 274.6 277.3 279.9 291.6 305.5 321.2 331.2 343.1 356.1 374.7 382.6 390.6 388.3 387.9 389.3 385.2 374.9 358.3 345.5 336.9 327.1 317 305.7 302.9 300.9 302.8 322.8 330.4 343.9 359.6 373.1 383 393.4 395.9 398.4 404.6 411.6 412.8 410.9 394.5 379.3 367 351.3 337.3 326.3 319.6 308.4 303.1 297.9 293.3 291 286.3 285.7 282.8 276.3 263.9 256.7 244.6 234.2 226.5 215.5 209.4 203.5 202.3 197.4 196 196 196 196 196 196 196 196 196 196 196 196 196 196 196 196 196 196 196 196 196 196 196 196 196 196 196 196
2.1 2.2 2.1 1.2 1.2 1.2 1.2 1.2 2 4.2 2 2.1 1.4 2.2 2 2.4 2.5 2.2 2.3 4.4 2.6 2.8 2.9 2.4 2.4 2.4 4.3 8.7 21.9 26 30.5 33.4 43.4 59.4 62.5 65.3 67.3 64.8 64.7 67.5 73.1 84.2 96 124.4 133.2 142 127.4 95.4 72.1 49.5 60.4 57.9 45.7 44 59.9 68.9 83.5 99.2 106.7 117.8 132 140.2 153.1 159.8 157.3 154.1 168.3 169.3 185.1 195.2 209.4 218.6 231.2 244.2 257.6 293.1 311.7 326.3 336.7 340 332.9 332.5 340.8 335.9 333 322.1 302.5 289.9 278.5 274.6 271.9 261.4 269.3 274.7 277.2 280.5 286.3 291.4 303.7 300.9 290.1 279.1 281.2 281.4 277.4 275.9 286 292.8 292.8 289.4 294.6 317.2 325.5 337.9 347.8 363.9 378.1 389.2 398.2 395.7 395.5 395.5 392.2 377.8 360.3 350.1 343.4 335.1 324.1 313.6 308.1 304.6 304.6 311.8 327.9 333.5 343.9 360.8 372.7 385 390.8 390.3 391.3 395.4 397.9 396.6 379.9 371.2 367.1 353.8 341.2 331 321.4 312.1 301.5 299.3 297.9 293.9 288.1 285.8 284.3 279.5 271.1 257.1 250 237.4 227.8 217.6 208.5 202.6 200.2 197.4 196 196 196 196 196 196 196 196 196 196 196 196 196 196 196 196 196 196 196 196 196 196 196 196 196 196 196 196
2.1 2.2 1.5 1.2 2 1.8 1.7 1.8 3.3 2.2 1.8 2.2 2.1 2.3 2.3 1.8 2 2.4 2.3 2.6 2 2.4 3 3 3.1 6.4 14.4 18.1 26.9 33.3 38.7 44.4 55.6 65.4 70.5 71.2 68.5 67.6 68.7 74.8 81.3 94.6 103.1 135.9 136.2 124.9 96.6 69 47 49.8 58.6 46 39.6 57.1 69.9 81.5 94.3 111.9 116.6 132.2 141.9 153.6 162.5 168.6 166.8 164.1 178.7 180.4 193.1 206.3 215.5 224.9 229.7 242.4 254.4 283.1 307.5 320.9 340.1 337.8 332.1 332.3 342.2 341 331.8 319.8 306.1 299.5 284.9 278.9 278.2 269.9 277.8 282.6 284.8 290.4 295.2 301.7 307.6 308.1 288.4 304.9 304.1 297.9 291.3 295.7 306.3 309.1 309.5 303.3 316.1 334.6 338 345.8 359.7 378.6 385.5 396.6 399.9 403.6 401.7 402.8 399.7 380 362.3 357 348.8 343.4 336.9 323.1 313 309.8 307.3 307.2 318.8 325.5 336.5 353.8 364.5 374.6 384.1 385.6 386.5 389.3 393.9 391.4 380.9 373.7 366.5 356.5 342.9 335 324.3 311.9 301.9 304.2 300.1 298.6 290.6 286.1 283.9 280.7 276 259 249.3 242.7 227 217.1 209.1 203.6 199.8 196.5 196 196 196 196 196 196 196 196 196 196 196 196 196 196 196 196 196 196 196 196 196 196 196 196 196 196 196 196
1.2 1.8 1.8 1.2 1.2 2 2.3 2.1 1.6 1.8 1.7 2 2.7 2.6 2.3 1.9 2.2 2.6 2.1 2.2 2.9 2.7 2.8 3 4.8 19.1 26 28.1 36.6 43.4 49.5 54.7 65.2 70.7 76.8 74.9 73 71.7 75.6 81.4 87 102.8 118.1 130 129 104.1 76.1 49.4 38.6 45.2 47 36.6 54.5 62.8 80.3 100.1 115.4 127 135.6 148.2 153.1 166.8 171.4 178.3 175.4 176.7 186.4 193.7 204 215.1 225 232.9 236.2 244.9 260.8 269.5 283.7 304.8 322.3 323 322.4 327.4 341.7 347.9 335.6 320.4 323.6 311 298.5 287.7 281.1 283.4 287.1 289.5 293.1 299.1 303.7 312.7 316.6 303.7 302 314.1 317 311.1 306.6 307.4 324.5 326.3 319.3 324 333.6 350.8 355.6 364.7 389.8 396.7 399.4 405 415.5 418.2 413.3 410.2 408.1 382.7 369.8 363.6 363.9 355.3 346.2 333.9 320.1 313.7 313.8 309.1 312.8 321.6 326.5 338.1 354.6 364.4 374.2 383.7 388.4 388.7 393.3 387.7 380.6 374.7 367 356.9 344.1 335.7 325.1 314.7 302.9 311.1 302.9 304 303.3 289.9 285.2 279 271.7 263.9 251.2 240.6 230.1 215.3 208.7 203.2 200.1 196.5 196 196 196 196 196 196 196 196 196 196 196 196 196 196 196 196 196 196 196 196 196 196 196 196 196 196 196 196
1.2 2 1.5 1.7 1.2 1.7 1.8 3.3 1.9 2.3 2.2 1.8 2.9 2.2 2.2 2.1 2.5 2.8 2.7 2.5 2.2 2.4 2.8 3.3 8.3 25.1 35 41.6 48.9 53.7 58.2 62.6 71.6 74 80.5 79.3 77.5 76.9 80.5 86.2 103.5 108.5 141.9 121.8 96.8 71.1 46 34.1 37.6 39.5 34.8 52.6 63.1 75.1 95.6 117.8 133.5 144.3 151.7 162.8 166 173.8 177.9 183.9 181.3 187.9 192.2 202.6 211.2 228.2 234.7 239.9 244.2 252 268.7 278.6 290.5 298.9 305.5 307.8 311.7 317.2 326.1 334.7 332.3 331.8 330.4 317.4 303.4 300.2 290.4 294.5 296.9 296.6 301.9 306.2 309.7 323.5 321.5 309.4 314.8 322.2 323.7 322.3 323.7 319.1 337.6 331 331.4 338.4 350.8 361.6 367.5 392.6 411.1 414.8 411.9 412.3 421.9 424.9 421.8 419.3 410.7 391.6 381.4 383.1 372.4 363.8 352.7 338.1 324.3 320.8 320.8 320.4 318.4 315 316.9 330.7 343.3 358 373.7 390.1 397.5 394.7 393.8 390 383.2 377 367.7 355.4 342.5 334.1 328.8 320.6 308.1 312.7 311.3 309 304.9 293.5 286.5 278.1 270.7 259 252.1 239.4 229.8 220.1 210.6 204 200 196.2 196 196 196 196 196 196 196 196 196 196 196 196 196 196 196 196 196 196 196 196 196 196 196 196 196 196 196 196
1.2 1.9 1.8 1.7 1.2 1.2 2.7 1.8 1.5 2.4 2.2 4.6 5.2 2.2 2.2 2.3 2.7 2.7 2.7 2.6 2.3 1.7 3.4 2.9 4 28.5 42.6 51.8 53.3 57.3 63.2 68.5 75 79 82.5 80.3 80.6 81 88 100.1 113.8 132.4 128.3 92.1 65.6 43.4 31.1 33 33.5 34.8 52.1 69.7 73.3 86.2 111.9 135.7 151.5 162.2 171.8 174.2 176 184 189.1 190.9 187.6 193.1 196.3 209.5 221.4 236.1 245 247.5 249.2 259 274 287.2 299.8 306.4 312.6 316.6 317.9 321.1 322.9 328.3 324.9 334.7 333.8 317.1 305.7 302.3 302 303.3 308.3 306.5 311.6 311.9 316 323.1 309.6 333.3 336 337.6 333.4 359.8 352.2 335.3 334.5 336.5 343.9 356.3 361.3 370.9 377.3 400.5 430 435.6 433.2 424.2 427.1 431.3 433 428.8 416.8 405.6 400.1 393 387.6 374.5 361.4 347.4 334.9 328.4 324.5 326.9 322.2 323.1 329.2 327 340.4 363 375.6 389.3 406.2 405.3 400.1 391.1 383.4 378.3 371.3 354 342.6 335.8 329.5 325.7 319.1 314.9 314.9 312 303.6 298.4 286.7 277.3 269.8 260.3 251.5 244.3 233.5 224.1 213.4 204.5 199.6 196 196 196 196 196.4 196 199.6 196 196 196 196 196 196 196 196 196 196 196 196 196 196 196 196 196 196 196 196 196 196
1.2 1.2 1.2 1.2 1.2 2.1 2.9 2.2 2.3 2.1 3.1 7.6 4.8 2.3 2.3 2.6 2.1 2.3 2.1 2.2 2.6 2.2 3.5 3.2 8.2 34.3 45.9 53.4 56.2 62.5 68.8 73.6 76 81.9 83.2 83.5 83.9 91.8 93.2 116.7 120.1 121.6 103.4 66.4 43.4 29.9 31.2 32.3 39.4 58 66.6 83.3 84.5 96.5 125.7 151.4 167.1 175.7 184.3 183.4 186 189.3 196.7 191.3 192.7 199.5 202.3 216.9 228.2 239.5 247.1 252.4 258 267.6 282.5 292.9 309 316 324.8 327.6 325.6 323.2 327.8 324.6 326.7 336.6 334.6 319.4 315.8 310.4 310.5 311.4 315 313.4 316.9 320 322.4 311 327.5 341.3 347.8 346.6 352.2 360.8 353.2 345.5 342.5 344.2 354 366 373.3 381.1 394.1 410.2 430.5 440.1 439.7 438.4 435.3 438.4 441.5 432.5 430.6 427 419.4 408.9 398.4 389.9 373.5 359.2 339.6 335.9 332.7 330.1 331 330.2 333.6 330.2 337.2 358.8 381.6 396.6 408.2 410.3 403.9 394.3 386.9 380.8 360.6 349.6 340 333.7 330.3 330.4 328.4 319.5 322.6 320.1 310 304 291.1 275.7 266.9 257.1 249.3 243 234.7 226.7 217.9 211 204.3 196 196 196 196 196 196 196.9 196 196 196 196 196 196 196 196 196 196 196 196 196 196 196 196 196 196 196 196 196 196
1.2 1.2 1.2 1.7 2.3 2.6 1.6 2.2 2 3.4 7.9 6.7 2.5 2.3 2.1 2.8 2.5 2.1 2 2.3 2.6 2.4 2.6 5.2 20.4 32.8 45 56.6 53.7 56 72.9 75.4 74.3 85.5 85.8 87 86 88 115.4 111.5 107.7 102.1 58.6 37.8 28.1 28.9 29.3 34.9 54.9 67.5 83.3 93.8 97.2 103.2 138.4 166.7 180.1 186.3 193.2 189.2 195 194.7 200.5 192.6 198.4 204.3 206.4 221.4 232.1 238.9 247 256.6 264.2 272.6 289.4 299.4 313.6 328.9 332.2 330.3 328.5 334.5 326.9 325.4 327.1 335.7 329.8 325.1 322.8 316.5 319.8 322.8 331.6 326.4 324.3 327.9 322.5 327.4 339.5 351.7 358 356.4 358.2 359.1 359.3 359.1 352.9 352.1 365.7 374.7 387.4 388.8 405.5 425.5 431.3 443.8 444.8 447 447.9 443.4 445.6 455.1 453.7 446.3 443.8 427.5 415.7 401.1 388.5 366 354.9 344.6 338.6 336.9 337 332.9 338.2 339 340.2 373 390.4 401.9 413.5 419.5 412.1 396.1 387.7 366.1 357.1 352.9 349.9 341.4 346.6 343.7 337.1 336.4 329.4 330.8 315.4 308.4 296.2 276.6 264.9 256.3 246.7 241.1 234.5 228.3 216.8 209.3 199.5 196 196 196 196 196 196 197.8 197.6 196 196 196 196 196 196 196 196 196 196 196 196 196 196 196 196 196 196 196 196 196
1.2 1.9 1.2 1.8 2.6 1.7 2.3 2.3 2.3 4.4 6.7 2.7 2.3 2.2 2.2 2.8 2.6 2.4 2 2.2 2.5 2.5 2.5 16.7 32.1 36.3 42.4 49.7 51.6 52.2 55.5 62.5 74.2 85.2 85.9 87 89.2 94.2 100.2 93.8 77.6 53.7 33.9 26.3 27.2 30.1 34.1 52.9 62.1 76.4 97 109.4 107.9 110.4 139.6 169.5 189.1 195.2 200.2 199.8 199 202.8 202.6 200.8 201.2 211.5 212 226.6 235.5 241.2 249.3 261.4 274.5 280.6 294.2 308.7 321.2 336.2 337.8 338.9 330 327.9 328 326.5 327.8 329.5 329.6 333.4 334.8 326.8 326.4 330.8 338 335.6 333.8 330.6 324.4 341.7 352.8 364.2 361.8 363.3 364 367.1 370.5 368.4 369.6 358 373.1 388.4 397.2 395.6 413.8 433.3 436.2 444.8 452.5 454.3 452.5 456.5 458.7 467.4 469.6 469.8 458.5 443.7 429.8 414.7 403 384.9 368.2 357.5 347.4 345 341.2 341.6 339.4 347.2 352.4 377.3 386.6 393.6 403 409.2 409.8 399.7 386.2 379.9 380.7 384.3 379.5 367.3 358.9 360.6 352.7 353.1 335.3 331 317.9 311.2 292.7 278.6 263.8 255.7 247.9 239.5 233.7 224.2 213.2 207.2 200.2 201.5 196 196 196 196 197.9 200.2 197.6 196.1 196 196 196 196 196 196 196 196 196 196 196 196 196 196 196 196 196 196 196 196
2.2 2.2 1.9 2.1 2.8 2.5 1.7 1.5 2.4 3.3 2.3 2.3 2.2 2.7 2.8 2.9 2.9 2.7 2.4 2 2.3 2.6 5.6 25.6 39.5 51.5 52.1 55.1 52.4 51.5 51.9 57 61.6 80.2 89.5 88.7 94.9 101.1 105.2 92.4 53.6 31.1 25 26.1 26.4 30.6 49.5 59.8 75.2 95.6 116.3 120 115.5 119.4 132.4 161.1 191.4 203 196.7 200.9 199.2 209.6 208.4 208.9 208.2 218.7 218.3 231 239.5 245.2 254 264.7 280.4 289.6 299.3 320.7 329.4 341.2 347.4 345.2 331.8 327.6 327.3 326.8 336.6 331.4 329.8 344 344.7 336.1 335.2 341.4 344.7 345.2 345.3 336.3 337.8 351.5 363.5 364.5 366 369.1 366.6 377.4 380.1 385 384.1 384.2 377.8 394.9 403.3 411 424.1 437.1 439.7 447 456.2 458.7 464.6 458.9 462.9 472.9 478.8 479.4 472.6 455.1 443.8 428.3 417.9 393.6 382 373 360.5 349 345.5 347 342.2 351.6 360.4 370.3 375.5 381.2 388.3 400.9 414.4 408.5 409.9 419.3 415.2 400.7 400 385 378.4 374.4 363.9 365.7 343.9 329.9 317.7 313.9 294.6 283.4 271.1 255.8 246.4 239.6 228.7 220.2 215.6 207.3 203.6 200.2 196 196 197.3 200.8 201.6 201.8 199.1 198.3 198.8 199.2 199.3 196 196 196 196 196 196 196 196 196 196 196 196 196 196 196 196 196
1.2 1.2 2.5 2.8 2.7 2.3 2.4 3.2 3.6 2 2.1 2.1 2.2 2.7 2.1 2.5 2.9 2.9 2.7 2.3 2.9 9.4 15.8 35.5 49.5 63.1 66.1 56.5 51.5 52.5 51.1 51.2 63.6 79.1 88.5 93.2 99.1 106.6 91.7 50.1 27.6 22.7 23.7 24.7 26.3 39.6 58.8 69 88.3 108.7 124.2 128.7 122.2 128.5 142.1 159.8 190.7 196.7 195.7 200.6 200 211.8 216.8 216.6 217.9 222.4 222.3 237.3 242 247.3 258.8 269.3 281.8 296.6 304.7 317.9 331.9 348.6 354.9 350.7 344.9 330.6 327.4 332 339.4 341.6 341.2 354.3 355.9 349.8 344.6 350.8 350.7 350.7 350.9 341.5 358.5 360.7 371.2 368.6 370.7 371.6 371.5 380.6 390.2 397.6 402.9 399.4 392.1 395.1 407.3 423.4 429.8 443.3 443.8 450.9 460.3 465.4 468.6 470.6 482.3 482.6 488.3 487.7 481.7 467.5 454.3 436.6 424.9 403.5 391.4 379.8 367.7 359.1 351.9 347.3 351.1 356.9 360.2 364.7 371.2 379.5 392.9 416 425 426.6 424.5 447.4 437.4 429.5 415.3 407 393.9 384.5 380.3 369.9 348.4 336.2 322.2 313.9 297.7 294 285.4 259.1 248.7 238.5 231.5 224.3 218.9 212.5 205.7 202.8 200.8 198.9 200 203.2 202.8 203.7 201.1 200.6 203.8 202.3 198.9 196 196 196 196 196 196 196 196 196 196 196 196 196 196 196 196 196
1.2 1.2 1.2 2.8 2 4 1.5 8.4 1.5 2.2 2.1 2.2 2.3 2.4 2.2 2.2 2.1 2.7 3 2.5 10.2 17.3 29.9 48.6 57.3 63.7 70.2 62.5 54.3 57.5 51.4 51.2 64.2 74.6 79.1 88.7 100.2 86.4 43.8 23.7 21.3 22.3 22.2 26.2 32.1 48.2 64.6 75.1 90.4 116.8 124.6 134.5 129.7 141.1 152.3 169.6 176.6 182.9 195.7 201.6 207.6 216 221.5 226.5 224.9 233.8 229.3 242.7 246.7 252.9 264.2 274.9 285.5 300.8 306.4 319.1 333.2 348.6 353.9 359 364.5 351.7 334.1 337.6 337.9 350.3 359.4 372.9 364.8 358.7 351.4 360.1 353.9 357.6 354.5 352.5 371.9 375 370.7 374.8 374.2 377.3 378.3 381.4 394.6 406.7 415 415.3 411.7 403.6 417.2 427.9 445.3 446 448.5 456.5 462.7 468 468.7 488 494.3 492.8 491.7 497.3 493.9 482.1 468.6 450.1 434.2 416.2 399.8 389 382 371.2 365 357.8 360 359 358.4 367.2 377.7 385.8 402.9 423.4 439.9 445.1 429.6 450.1 453.8 438 427.6 421.4 406.1 391.3 382.1 365.9 353.3 335.7 327.1 314.6 307.5 304.1 296.5 268.1 252.5 243.2 235.9 229.7 222.6 216.6 213 208.5 204.1 202.2 202.5 205.2 205.6 205.7 206.5 203.5 205.4 201.6 198.8 196 196 196 196 196 196 196 196 196 196 196 196 196 196 196 196 196
2.2 1.2 1.2 1.2 3 1.2 3.1 3.4 1.9 2 2.2 2.3 3.6 2.3 2.1 2.1 2.2 2.2 2.1 5 18 21.2 38.9 57.2 61.9 66.1 71.1 64.6 64.8 62.2 52.3 51.5 53.9 66.5 76.5 85.4 81.3 41.4 22.5 20.5 21.2 22 26.2 30 40.1 58.6 71.4 83.4 95.9 110.6 122.1 133.1 137.7 153.3 166.4 177.7 188.4 192.6 200.5 202.7 215.9 220.2 229.2 234.6 233.9 237.8 240.6 249.4 254.7 263.7 270.1 280.3 296.2 304.4 307.6 317.4 331 343.5 356.9 370.1 374.8 367.3 349.1 338.3 345.2 362.8 369.6 383.1 378 368.9 360.4 365.8 358.9 356 355 368.4 374.3 375.1 372.9 379.8 378.4 384.2 386.2 390.3 394.4 416.2 424.7 428.5 422.9 417.4 423.7 432.9 447 450 454.2 457 463.7 459.9 482.2 498.2 504 502.1 498.4 502.6 500 497.6 484.3 462.3 449.3 430.5 413.5 404.8 397.8 386.5 377.6 374.6 366.1 361.3 364.1 371.9 383.7 396.8 432.3 446.4 463.7 459.4 444.5 440.5 451.2 442 435.3 430.8 416.3 398 381.6 378.4 371.7 347.6 344.9 325.5 318 314.5 295.2 271.2 255.8 246.7 241.7 238.9 230.4 222.2 217.1 213.1 208.4 205.3 204.6 207.7 210.4 207.9 206.5 206.1 205.3 206.4 203.8 201 196 196 196 196 196 196 196 196 196 196 196 196 196 196 196 196
2.2 2.3 1.2 1.2 1.2 1.2 3.3 2.3 2.2 2.3 2.3 3.1 2.6 2.4 2.1 2 2.2 2 1.6 8.5 18.7 28.9 51.9 62.9 65.2 70 71.3 70.1 75.5 62.9 65.3 55.6 51 57 70.1 66.7 33.8 19.2 19.7 19.7 20.5 21.7 34.5 34.6 52 69.8 85.1 93.3 107.1 114.7 126.1 131.8 147.3 163.2 177 188.7 199.9 204.4 209.7 205.8 217.5 227.9 237.1 242 239.6 247.8 253 258.9 264.6 276.6 279.5 288.7 300.6 305.7 311 320.1 328.3 346.9 364.4 380.8 383.6 376.1 357.5 346.3 360.5 373.2 373.6 384.1 379.3 380.6 369.8 372.7 364.1 357.9 362 376.4 379.6 375 375.1 385.8 388 392.5 393.8 400.5 406.7 421.4 432.4 437.2 437.9 431.4 426.4 432.7 444.6 454.9 458.2 462.7 457.2 465.4 494.1 505.7 507.6 509 506.1 512.3 512.7 503.2 492.2 480.4 467.3 457.4 448.2 435.9 419.7 402.1 394.3 387.6 386.4 380.1 378 382.7 400.6 417.6 453.1 480.7 494.3 485.1 463.3 446.6 452.7 446.3 441.5 434.6 422.4 408.1 393.5 387.4 380.8 372 357.6 354.2 330 319 294.7 275.6 268.4 254.7 246.9 245.4 238.1 227.2 223.3 218.1 212.5 207.6 209.6 210.9 210.5 210.4 208.6 210.9 210.2 209 207.8 206.6 200.8 196 196 196 196 196 196 196 196 196 196 196 196 196 196 196
0.1 2.8 2 2.2 1.2 1.2 2 2.3 2.2 2 2.1 2.4 2 2.1 2.2 2.2 2.4 2.2 3.3 13.1 23.6 37.4 61.4 70.5 71.1 70.3 73.9 80.7 74 61.6 70.1 61.2 51.2 52.2 40.7 26.3 17.9 18.3 18.8 19.8 20.7 25.5 33.1 46.5 67.4 79 94.5 104.3 116.5 126.2 134.1 138.1 154.3 173 183.7 193.6 204.5 213.9 217.1 216.6 224.5 238.9 248.4 249.5 244.4 257.5 264 266.4 273.2 279.6 285.8 294.7 303.3 306.8 315.6 321.6 336.1 356.1 374.1 393.7 389.4 383.4 366.1 366.6 379.9 382.5 382.6 386.9 386.8 380.7 372.4 372.4 370.7 362.9 376.6 380.3 385.1 383.3 377 390.5 392.3 400.7 405.7 411.8 417.3 428.2 437.5 448.1 450.6 444 439 436.1 444.4 455.8 456.6 454.3 465.9 478.5 503.2 510.4 514 512.1 511.4 516.2 520.3 513.8 498.2 495.7 484.2 473.2 465.1 461.9 447.9 448 439.2 446 425.2 418.2 411.8 402.9 436.8 453.6 490.4 509.1 512.7 511.9 483 465.5 454.1 450.1 446.6 437.1 427.1 423.4 410.2 406 404.5 389.4 359.4 357.7 334.3 315.9 304.5 287 278.6 261.7 255.5 252.1 242.5 236.9 232.5 224.1 217.3 211.7 212.3 211.8 211.4 210.6 215.2 214.8 214 212.1 213 207.2 201.8 197.4 196 196.5 196.5 196 196 197.2 196 196 196 196 196 196 196 196
