ncols 200
nrows 82
xllcorner 390000
yllcorner 455050
cellsize 50
185.6 183.8 181.3 177 175.9 173.7 169.4 158.9 154.1 173.6 181.3 182.3 185.1 186.3 187.5 192 192.5 192.3 192.2 192.1 196 199.1 200.1 200.1 197.7 198.5 201 202.6 204.4 207.4 211.4 214.8 217.5 219.4 220.4 219.8 213.7 206.7 207.6 212.8 219.1 224.7 223.1 219.7 217.5 216.5 214.6 214.1 212.6 211.5 211 212.1 215.8 220.3 222.3 221 216.4 213.6 216.1 217.7 213 206.5 201.9 200.2 197.9 194.8 193.1 192.6 189.8 169.3 158.2 156.6 161.5 187.3 200.8 210.2 217.7 224.2 227.6 231.2 233.9 234.1 231.4 228 227 227.9 228.6 226.3 225.6 224.3 219 213.1 209.4 207.7 203.6 195.5 200 202.1 202 204 205.3 203 201.5 197.5 187.5 184.5 186.2 186 186 187.2 187.9 187.7 187.8 189.6 189.3 190.5 193.4 198.2 200.6 200.4 197.5 193.8 188.4 185.1 182.8 174 173 180.5 183.7 185.9 186.6 187.1 187 190 192.5 195.1 197.5 199.7 203 206.2 208.5 209.2 210.4 212.8 214.1 214.7 216.3 218.3 221.4 224.7 227.8 231.5 234.6 236.3 237.1 237.6 239.1 240.5 244.3 255.2 264.4 272.1 274.9 276.7 278.3 282.4 287.3 291.7 297.5 303.7 310.9 318 323.5 327.7 331.3 335.5 338.5 339 346 355.9 357.7 366.4 378.8 401.9 427.3 442.9 454.3 460.3 469.4 476.3 482.2 484.1 486.2 486.1 484.1 483.7 482.1 480.2 477.4 475.8
183.6 182 180.8 183 182.8 175.4 164.3 157.3 155.4 167.9 182.3 179.8 178.2 180 185.3 189.7 188.3 187.3 186.9 186.5 189.4 193.2 194.8 196.7 195.7 194.1 198 200.1 202.5 204.4 207.2 210.6 214 216.3 217.8 215.3 210.7 205.5 199.3 206.4 210.5 215.4 218.3 215.5 211.7 210.6 209.6 209.7 207.4 205.9 205.7 207 208.8 211.8 214.2 214.7 213.1 210.6 208.9 211.7 209.7 204.6 200.6 198.2 195.8 193.1 190 188.2 183.6 161.9 156.1 157.4 170.9 187.9 200.4 209.9 216 223 225.9 229.2 231.5 231.2 226.8 225.6 227.1 228 229.9 229.8 227.3 224.9 221.5 217.6 214.1 210.9 207.3 202.1 193.6 199 199.7 201.6 201.5 198.8 194.9 190.8 183.7 184.1 187.5 185.2 187.2 189.4 189.3 187.8 187.8 189.9 193 198.1 204.1 206.5 204.7 203.7 199.4 195.9 190.6 185.9 182.8 178.6 171.9 177.1 180.8 181.7 183.2 182.9 186 188.3 190.4 192.6 195.5 199 201.7 204.9 206.3 209.3 213.2 215.1 215.4 216.3 217.5 218.2 223 225.8 228.7 231 233.3 234.9 236.4 237.9 239.5 241.3 248.8 257.6 264.9 272.1 273.6 277.1 280.9 284.9 290.2 295.6 301.8 310.6 319.8 329.2 338.2 339.2 340.5 342.3 344.5 346.2 350.5 360.8 365.1 371.9 381.8 404.4 431.9 449 457.1 471.7 478.4 484 486.5 487.8 487.8 486.5 486.2 484 481.5 478.6 475.3 473.1
182.5 181.3 181.8 186.8 186.7 178.3 161.2 156.7 155.2 164.1 178.4 175.1 176.9 182.6 185.8 187.9 187.4 184 181.7 181.5 183.6 186.8 190.2 192.1 193.3 191.3 193.6 196.3 200.7 202.4 204 207.1 209.6 212.4 213.5 211.7 208 204.8 198.8 199.5 205.4 209.3 211.8 211.8 210 207.9 207 205.7 206.6 206.3 201.7 201.7 202.8 204.8 206.4 206.8 206.8 205.5 202.9 203.3 204.2 201.9 197.6 197.7 194.8 189.9 186.9 184.1 178.2 159.7 156.4 161.3 176.7 187.7 199.5 207.5 214.5 219.7 223.2 227.7 230.9 230 229.4 231.6 230.9 229.2 228 228.5 229 226.9 222.9 219.9 215.2 211.4 207.7 204 194.7 193.1 198.1 199.6 198.2 194.3 190.7 188.5 183.5 184 184.8 184.7 185.8 189.1 189.1 187.1 189.5 194.2 200.2 204.7 210.7 211.7 209.9 207.8 203.5 199 195 190 184.7 179.4 171.5 173.3 175.8 178.4 177.4 180.7 183.7 186.1 188.7 190.8 194.3 197.5 200.3 204.1 207.3 213.7 216.1 219.7 217.3 215.6 217.3 218.4 221.2 224.7 227.1 229.2 231.1 233.2 235.2 237.1 239.9 243.6 250.2 257.8 264.8 273.1 276.7 279.3 282.9 286.6 293.1 300.2 307.3 321.2 333.2 344.3 354.4 357.2 351.4 351.9 351.6 354.4 358 365 373.7 378 388.5 418 440.3 453.8 465.9 481 486.3 488.5 488.6 488.7 487.1 486.4 485.7 483.5 480.8 476.9 472.8 471.3
181.6 180.6 183 187.2 187.4 181.7 159.8 155.2 154.3 164.9 172.5 168.1 178 184.3 186.5 185.9 184.4 181.6 176.9 176.5 178.6 181.7 184.7 187.6 190.7 191.3 188.1 192.1 196.6 199.4 200.2 202.8 204.2 206.1 207.3 206.2 204 202.4 199.7 191.7 200.9 205.4 206.8 207 207.3 206.7 210.3 207.6 209.1 211.4 208.1 201.5 197.7 198.2 199.1 199.4 199.2 199.1 197.7 196.8 196.8 196.7 194.7 193.5 193.9 191.2 182.8 178.4 174 153.5 155.5 168.4 177.9 187.1 196.6 203.8 210.7 215.8 219.1 226.7 232.1 234 234.1 233.3 231.8 229.2 227.6 228 228.9 228.4 224.7 220.6 215.3 210.2 205.3 202.8 199 192.1 193 197.2 194.7 190.6 187.5 185.4 184 183.9 183.8 183.9 184.8 188.7 189.6 187.9 192.8 198.9 204.6 209.3 212.4 213.2 212.7 209.7 203.6 198 193.2 190.3 184.9 179.9 173.5 170.4 172.6 173.3 176.1 179.2 181 184.3 188.2 189.8 193 196.9 199.7 203.5 209.1 213.7 218 220.5 220.7 217.9 216.6 217.3 219.2 222.2 225.8 228.1 230.5 232.1 234.8 237.7 241.3 245.5 250.4 257.3 263.4 272.3 277.1 281.2 285.9 290.7 297.5 308.8 320.2 335.1 351.6 363.3 366 367.5 362.9 359.7 360.7 364.7 366.4 372.5 380.4 390.5 397.7 431.1 448.7 460.2 472.6 486 490.9 491.3 489.6 488.2 487.1 485.5 484.5 482 478.7 474.1 471.6 467.9
181.8 181.2 183.1 186 186.8 181 161.2 154.4 152.7 167.5 170.3 164.9 172.3 182.2 185.2 184.2 182.2 178.7 174.2 172.3 173.5 177 180.3 183.2 186.2 188.6 187.4 188.5 194.9 196.1 195.8 197.1 196.4 197.9 199.7 200.3 201 200.1 198.7 190.1 195.3 202.2 205.2 205.6 205 206.2 210.6 215 212.9 209 208.9 206.4 199.2 192.5 192.3 192.2 192 192 192 190.8 190 189.6 189.9 188.9 188.5 187.8 183.7 173.2 166.2 154 155.1 158.2 176.5 183.1 189.2 198.5 205 211.6 216.1 224.8 230 234.4 234.5 232.5 230.2 229.2 227.4 226.1 227.6 225.6 224.4 220.2 213.8 206.6 203.7 201.7 198.7 193 188.9 192.9 192.3 187.9 186.5 185.2 184.7 183.7 183.1 183.1 184.3 189 188.4 188.8 195.7 200.8 205.8 208.4 210.4 211.4 210.4 208.1 203.2 198.8 193.9 191.1 186.8 182 176.5 170.8 169.4 169.8 174.4 178 180.1 182.8 185.8 188.3 191.2 194.7 199.4 205.3 211 211.5 217.9 218.3 216.7 215.5 216.8 217.2 218.4 220.6 223.8 226.3 228.8 232.2 235.1 238.2 241.8 246.5 251.4 256 262.9 270.9 276.6 281.5 287.4 293.2 303.4 317.3 331.7 348.5 362 373.5 379.5 376.9 373.8 368.5 368 370.2 373.6 380.1 389 399.8 419 444 455.3 470.2 481.6 492.5 492.6 491.3 490.4 487.6 485.6 484.2 482.2 479.2 476.2 472.5 468.4 464.6
183.3 182.2 182.3 183.7 185.3 182.3 165.9 154.4 152.6 161.8 168.3 164 163.1 175.8 180.5 182.1 179.7 176.3 172.8 169.7 169 172.7 177.2 181.8 184.3 185.8 185.4 183.2 190.9 192.9 189.9 187.1 189.6 192.6 194.8 196.7 199.5 199 197.1 190.3 189.8 199 203.2 204.5 206.2 206 206 211.4 212.2 207.6 202.4 201.7 199.8 193.5 183.2 184.8 184.7 185.4 185.7 185 184.6 183.2 183.3 184.3 182.7 181.2 177.1 169.7 159.9 152.4 154.4 161.7 172.6 178.5 183.7 192.3 200.9 204.4 211.4 220.3 227 230 230 229.9 227.8 226.4 225.3 223.4 222.8 221.9 221 216.6 211.3 203.3 202.4 200.2 197.3 192.2 188.5 189.4 191.2 187.9 186 186.5 184 182.2 183 182.1 182.9 186.5 185.7 189.9 195.7 200.8 203.3 204.5 205.3 206.6 206.6 205.4 201.7 197.8 195.2 189.6 187.6 184.8 178.2 173.3 169.5 168.1 172.2 176.6 178.5 181.1 185.1 187.4 190.4 194.1 200 205.1 208.5 212.6 214.5 217.8 215 215.5 216.6 217.6 218.8 221.1 223 225.4 229 231.9 235.3 238.7 243 246.8 251.4 257 264.2 270.8 276.1 282.6 287.5 296.2 310.5 325.4 351.2 361.4 366.6 372.6 384.9 388.3 383.9 378.1 378.8 380.4 384.3 390.8 399.1 411.6 434.5 454.9 463.9 482.2 497.9 497.5 494.4 491.8 489.5 486.8 487.2 484.2 481.2 477.4 473.7 469.4 465.2 460.6
187.5 183.4 181.1 181.4 181.7 180.7 173.6 154.5 151.7 154 162.5 163.1 159.5 162.9 172.5 175.9 175.9 174.3 171.9 169.4 165.9 167.3 173.3 179.5 182.8 184.2 183.7 180.6 182.4 186.9 183.9 180.2 184.6 189.9 193.9 196 197.6 196.3 194 189.2 184.2 195.1 199.5 201.1 204.2 205.7 203.7 209.7 211.4 207.5 200.4 193.3 192.6 189.1 183.8 174.7 177 179.1 179.9 179.1 178 177.3 176.4 178.3 177.8 175 170.5 164.2 155.6 151.8 153.8 163.4 168.6 174.9 179.1 183.8 194 197 204.1 216.7 216.8 220.5 226.3 224.8 222.9 221.2 220.8 220.5 219 216.9 215.3 212.4 206 201.1 200.1 198.2 195 190.3 188 187.4 186.6 187.6 186.7 184.3 182.1 182.2 184.1 183.4 181.3 183.2 185 190.8 195.5 199.4 201.2 200.8 201.8 201.7 201.6 200.8 198.6 196 192 190 188.2 183.9 178.5 174.6 169.7 167.4 173.9 177.7 179.6 182 186 185.7 188.1 193.1 198.5 201.4 205.6 208.1 210.8 213.5 210.3 215.4 216.6 217.4 218.8 223.3 226.4 229.1 232 234.4 237 239.9 243.2 247.1 253.1 261.9 266.3 270.2 276.6 281.6 288.9 298.8 314.4 341.5 363.9 370.6 371.9 374.8 386.3 399.3 400.4 395.9 394.5 397.8 401.9 407.9 416.5 430.2 446.7 461.1 477.8 499.2 503 499.7 495.4 491.2 488.8 485.4 486.3 482.9 479 474.7 470.6 465.8 460.9 456.6
189.6 187.1 181.6 179.4 177.1 176.3 174.2 162.4 151.9 152.6 154.2 157.1 160 157 161.3 167.6 170.2 170.3 169.2 167.1 165.2 163.6 167.8 175.5 179.7 182.6 182.1 180 174.8 179.3 177.1 175.9 183.2 190.2 196 198 197.9 197.6 192.1 185.4 180.8 189.9 195.3 196.3 199.9 203.9 201.7 205.4 212.5 212.7 202.3 191.8 184.4 182.6 179 174.8 168 174.2 175.8 172.8 171.3 170.4 169.2 170.4 172 169 164.1 157.5 152.4 152.7 153.5 159.6 162.4 167.2 171.5 175.7 184.6 191.6 195.4 199.4 208.6 216.1 216.6 219 218.4 216.6 215.8 215.7 216.4 214.5 211 211.3 207.8 203.3 199.1 193.8 191.6 187.3 186.7 186.1 185.3 184.9 184.2 182.5 181.1 180.9 182.7 183 180.1 180.9 183.5 189.7 194.5 196.7 198.3 197.9 196.8 196.4 195.8 196.1 194.3 192.4 189.4 189.5 185.3 183.2 177.4 174.3 167.3 168 176.1 178.4 178.1 181.2 183.3 183.8 186.5 192.6 196.2 199.7 202 204.9 208.3 208.5 212 215.1 216.1 216.9 220.2 223.3 226.4 229.7 232.8 235.4 238.6 241.2 245.3 249.2 255.9 261.6 265.3 269.9 276.1 281.7 289.6 301.3 317.2 347.5 369.5 374.8 375.5 375.5 384.2 401 407.4 411.8 416.4 418 410.6 429.5 436.4 446.7 455.7 476.3 491.3 498.8 501.1 500.2 495.1 490 487.7 485.3 482.2 480.2 476.1 472.2 466.8 462.2 457.5 453.7
185 186.7 183.3 179.3 172.5 171.3 173.5 169.4 157.7 152 152.5 153.2 156 156.5 155 160 163 164.9 165.5 163.8 161.9 161.5 162.9 169.7 175 178.6 180.1 179.4 177.2 171.9 170.5 170.9 179.6 189.5 196.9 202.1 203.3 204.8 199.5 188.3 180.1 182.5 186.9 188.1 193.9 198 198.8 199.8 204.9 209.5 206.9 194.4 182 176.4 173.2 169.8 163.4 165.3 170.7 169.5 165.2 163.6 163 163.1 163.3 163 158.3 154.8 150.7 151.8 153.2 156.5 160.4 164.9 168.1 171 177.8 189.9 194.7 193.7 201.6 206.7 209.7 212.6 214.8 213.1 212.7 214.2 213.9 213.2 209 209 208 201.1 195.7 189.9 187.7 186.5 186.6 185.7 185.1 184.6 183.6 183.1 182.7 181.8 180 179 179.2 179.3 181.4 187.3 192.5 194.9 195.2 194.5 193.3 192 189.7 189.2 187.3 187.9 186.3 185.5 183.1 179.6 175.4 172.8 167.2 171.4 175.2 175.7 174.9 177.8 181.9 184.3 186.6 192.5 195.9 197.6 199.9 201.4 204.2 207.8 210.8 212.9 215.8 217.6 220.7 223.9 226.6 229.8 232.4 235.5 239 243.1 246.2 250.9 259.5 263.8 266.5 272 276.4 279.7 290.5 301.6 315.2 343.4 364.9 372.8 374.7 376.7 382.4 397.5 406.8 416.2 423.4 429.5 435.7 439.5 444.8 454.4 467.8 482.6 492.4 496.8 495.7 492.7 490.5 489.2 487.8 486.5 484 478.3 472.6 467.5 463.5 458 453.6 450.3
180.7 182.6 181.6 177.9 168.7 168.7 171.4 171 165 152.4 151.7 151.9 152.7 153.6 153 154.2 157.2 160.3 162.3 162 160.7 161.3 162 163.6 167.4 172.8 175.2 176.3 176.2 171.1 166 165.9 174.6 186.1 196 201.9 203.9 204.4 202.1 196.1 186.3 178.2 177.5 180.1 187.1 191.6 196.1 193 194.4 198.7 200.9 194.3 184.2 172.9 166.3 163.1 159 157 159.7 161.9 159 157.9 157.6 156.9 156.4 155.1 154 150.9 151 151 152.6 157.5 161.3 164.6 165.7 164.5 169.8 182.4 186.6 189.7 193.5 199.2 204.2 206.3 210.3 210 212.2 215.1 215.3 213.1 209.7 208.5 209 205.4 196.7 191.6 188.5 186.5 187.1 186.8 186.3 186.2 187.8 188.3 186.9 183.4 181.2 178.7 178 178 179.5 184.4 189.8 192.2 191.6 189.3 188.3 186.3 185.6 186.1 182.9 181.9 181.8 182 180 177.1 172.3 168.8 166 171.2 170.9 173.2 177 180.3 182.4 184.6 186.1 189.9 192.3 195.7 198 196.4 203.1 207.2 211 215.2 216.8 217.4 220.2 223.2 226.8 229.7 232.5 235.3 239.3 243.7 247.6 252.7 259.4 265.9 269.4 272.2 275.3 279.2 287.8 299.2 311.2 334.6 358 367 370.7 375 382.3 392.5 405 415.7 424.1 431.7 438.4 443 455.7 466 475.3 483.8 489.1 493.2 491.3 488.7 487.1 486 485.9 486.3 481.9 476.1 470 464.3 459 454.2 450.6 446.1
179.5 179.4 178 173.7 166.4 165.1 169.9 168.4 165.1 157 151.5 151.6 151.8 151.8 152.6 152.4 153 159.8 164.3 162.4 161 161.2 161.6 162.5 164.2 167.1 171.8 173.5 172.7 166.1 164.2 165 170 179.5 190.9 197.8 200.1 199.5 197.3 193.5 188.7 183.3 173.7 171.8 178.7 184.4 191.1 189.7 185.8 187.2 190.9 189.5 180.2 172.8 161.9 156.2 153.2 152.5 150.8 151.1 151.4 152 152.2 152.4 151.9 151.6 150.4 149.8 150.2 150.4 153.2 159.4 159.9 161.3 159.7 158.4 162.9 176 181.9 189.8 193.1 195.1 198.9 201.7 206 206.4 210.5 214.6 216.1 215.1 213.3 208.5 206.3 204.1 196.5 192.7 190.7 187.7 187.5 187.7 187.2 187.5 189.4 189.3 187.8 182.1 181.2 180.7 177.2 176.2 178.5 182 186.2 188.6 188 184.1 182.7 182 180.3 179.6 179.2 179.5 179.2 178.1 177.2 174.5 170.2 165.9 166.7 169.6 172 175.9 178.7 182.5 184.9 186.7 188.4 190.7 192.7 194.8 197 200.2 203.5 207.1 211.1 215.3 215.7 217.1 220.5 222.9 226 229.2 232.1 236.4 241.1 245.8 249.5 253.8 260.9 266.2 268.5 271.2 274.9 279.4 285.2 295.3 305.1 322.6 352.4 364.2 366.8 371.8 379.4 389.2 400.4 413.1 424 432.6 438.8 447.9 462.6 470.6 476 482.9 486.3 486.7 485.5 484.7 483.3 482.2 482 480.4 477.6 473.8 467.6 462.2 456.7 451.6 448 444.7
181.4 177.4 174.3 169.9 162.8 159.3 164.6 166.7 162.5 157 152.7 150.6 151.2 151.3 151.3 151.3 152 156.7 164.4 163.9 162.3 161.5 161.8 163 164.9 167.9 171 173.1 171.1 164.8 163.1 164 166.8 174.2 182.3 190.5 194.7 193.4 189.7 186.3 181.3 177.9 173.1 161.2 171.8 177.6 185 187.7 183.7 180.5 181.6 181.5 176.2 169.2 160.4 153 148.5 148 147.3 145.8 146.3 147.3 148.9 149.6 149.8 149.6 149.1 149.4 149.6 150.4 153.5 156.7 158.1 155.3 155.6 156.2 167.1 176.9 182.2 188 190.6 190.8 195.6 200.3 201.8 203.8 209.6 214.2 217.7 213.9 211.4 208.2 202.1 200 194.2 190.1 188.2 187.8 188.6 189.3 188.4 189.2 189 187.9 185.3 182.2 181.7 181.6 178.8 176.5 178.7 183.6 185.3 185.5 182.9 178.2 177.5 178.7 176.8 174.3 174.1 175.6 175.3 175 173.7 171.3 164.7 165.7 166.6 171.3 175.7 179.1 181.8 185.5 188.8 189.8 190.9 193 195.6 197.9 198.8 199.7 202.7 205.4 209.1 212.7 214.4 217.2 221.8 224.2 226.9 229.9 234.1 239.6 243.8 248.1 251.6 256.2 262.2 264.6 265.9 269.3 274.5 278.9 285.6 291.9 299.1 314 339.9 358.8 361.9 362.7 370.2 384.3 397.1 411.7 423.1 433.1 438.8 454.3 468.3 472.8 476.7 479.8 481.8 482 481.2 480.5 478.5 477.8 478 476.7 472.6 469 463.8 458.6 454.2 450.2 445.4 440.3
183.9 177.6 171.8 166.3 161.2 157.1 158.5 163.1 163 156.2 152.3 150.6 150.3 150.5 150.9 151.2 152.5 157.7 164 166.2 164.2 162.4 162.3 167.1 168.7 169.2 171.1 171.1 170.3 164.6 162.6 163 165.2 171 177.2 183 186.5 186.4 182.1 176.3 171.5 168.3 165.3 160.7 164.7 171.1 178.9 184.2 185.8 179.6 175.3 173.9 169.7 164.2 155.9 150.8 146.3 145.8 145.2 145.3 145.1 146.5 147.5 148.2 148.1 148.4 149.3 148.4 149.2 150.1 150.7 152.1 151.8 152.3 154.2 156.6 172.9 178.8 185.5 188.2 188.3 187.7 192.9 197.3 197.9 201.4 205.9 212.2 214.1 208.7 211 210.4 206.1 198.7 192.9 190.7 190.4 189.6 191.4 190.7 190.1 189.7 188.5 188.1 188 187 184.3 183.3 182.4 179.8 175.9 184.5 184.9 183.7 180.6 177.1 175.4 175.3 173.7 172.2 172.3 172.2 172.5 171.2 168.5 165.5 164.8 165.6 169.5 175.4 182 183.8 185.4 188.4 191.5 191.7 193.9 195.5 197.7 198.6 200.5 200.9 202.9 205.3 208.7 211.7 215.3 218.8 222 225.5 228.3 232 236.6 241.6 246.7 251.5 255.6 258.2 261.9 262.9 264 267.5 273.6 280.5 286.8 290.8 298.3 310.2 321.6 332.6 341.2 351.2 359.1 370.2 386 408.8 424.7 434.1 441.3 452.4 466.9 471.4 479.1 478.7 478.8 477.7 476.5 475 473.3 473.9 473 470.2 468 465 461 456.4 452.3 448.4 443.2 439.4
183.7 176.9 170.8 164.7 158.5 156.1 154.6 157.4 159.1 156.5 151.6 150.6 150.3 149.9 150.5 151.4 156.2 159.7 162.9 163.1 163.3 164.1 166.6 169.6 172.6 172.6 173.2 173.2 170.6 166.7 162.7 162 164 169.8 172.3 176.2 178 176.6 173 167.8 162.9 160.4 156.5 156.9 159.1 165.8 174.9 180.3 184 185.1 175.2 166.9 160.8 157 150 146.2 144.8 145.1 144.1 144.2 144.7 146.5 147.1 146.7 147.2 147.6 147.9 148.5 149.2 149.5 149.7 150.7 151.4 153 155.8 160.9 168.7 173.5 183.4 183.7 183.4 185.2 189 192.8 198.2 201 200.1 203.7 206.9 205.3 207 205.7 201.2 197.5 199.7 193.6 191.7 191 192.1 191.9 191.8 190.7 190.5 191 191.6 191.4 189.3 186.5 185.3 185.1 174.9 180.2 183.5 182.5 180.1 176.7 175.3 173.3 171.5 170.3 169.1 168.4 165.4 165.2 163.7 163.7 166.3 170.9 176.8 178.9 182.9 186.1 187.9 190.9 193.6 195.5 195.8 197.7 199.3 200.9 202.5 203.1 204.8 207 210.2 213.1 217.2 220.2 223 226.4 230 235.1 239.6 245.4 250.2 253.8 256.6 258.5 259.8 259.4 262.4 268.6 273.7 280.7 286.9 290.2 295.4 307.8 316.6 327.7 336.1 344.6 355.1 364.4 379.3 403.4 421.7 433.2 441.8 449.5 463.5 469.9 480.9 476.5 476 474.1 472.6 470.1 470.4 468.5 467 465.3 463.5 461.8 458.2 454.9 450.7 447.1 442.5 438
180.6 174.9 168.6 162.9 157.2 154.3 153.4 153.9 154.6 154.8 151.3 150.4 150.1 149.7 148.6 150.3 155.4 158.1 159.8 162.3 163.6 166.7 169.5 171.6 174 176.8 177.1 176 174.4 170.8 166.1 162.3 163.5 168 171.5 170.5 169.4 167.6 163.5 160.2 153.3 151.8 153 153.7 156.1 164.1 172.9 177 179.8 180.8 180.9 170.7 157.9 150.7 146 144.6 143.4 144 144.6 144.6 144.7 145.1 145.6 146.4 146.8 147.5 147.1 147.9 148 149 150.4 152.8 155 158.9 163.7 167.5 166.5 174.3 179.8 178.9 180.3 183.2 185 195.1 200.2 199.8 196.9 196.8 201.2 203 204.3 199.8 196.1 195.9 198 195.8 195.4 193.6 192.2 193.6 193.2 194 194.3 193.3 193.7 193.5 191.8 188.8 187.8 186.2 182.2 174.5 181.3 180.7 180.4 178.9 176.3 174.7 174 172.1 168 162.1 160.8 162.7 163.7 169 174.6 176.6 180.6 181.9 184 187.3 190.4 192.9 195.6 196 197.3 199.2 201.2 202.9 203.8 205.8 206.6 208.3 211 214.4 218.4 221.2 224.6 228.9 234.4 238.8 242.8 247.2 251.1 254.1 256.6 257.8 257.3 259 263.8 269.6 275.2 281.8 285.8 279.6 294.1 305.3 314.6 323.7 333.1 339.9 348.9 359.6 372.6 398 418.7 430 442.3 449.6 459.8 466.6 475.9 475.2 472.6 470.5 467.9 467.7 465 464 462.6 461.1 460.2 458.2 455.4 451.4 448.2 444.1 440.8 436.8
175.4 170.3 166 161.3 156.5 153.3 153.2 152.7 153 153.3 151 150.2 150 148.9 148.5 149.4 151.5 156.2 158.9 161.8 164 167.9 171.3 172.7 175.2 178.4 180.1 178.1 175.9 173.1 167.9 165.3 160.2 163 167.8 171 168.9 163.2 155.7 150.6 149.5 149.4 150.7 151.4 154.2 162.8 171 175.4 175.6 173.8 173.1 169.7 160.1 149 143.2 142.8 142.9 143.5 144 143.9 144.6 145.1 146.6 146.6 146.6 146.5 147.3 147.5 147.7 148.7 151.8 155.9 162.4 168.6 170.2 170.7 169.9 174.3 175.2 177.1 181 181.6 184.1 190.5 196.2 195.6 193.2 193.6 196.6 199.5 199 196.4 190.7 193.6 194.6 195.1 193.1 193.1 193.2 194.9 195.8 194.8 195 195 196.1 195.4 192.7 190 187.3 183.9 178.1 174.9 180.7 179.8 179.5 178.7 175.5 175.5 175.5 172.8 164.9 160.7 164.5 174.3 176.9 178.2 179.4 180.8 181.6 182.9 186 188.7 192.4 194.3 196.5 197.5 198.3 202.6 203.1 204.5 205.9 206.7 208.1 209.4 210.4 214.3 218.4 223.1 226.5 231.8 235.5 239.4 243.6 247.9 250.5 252.7 254.6 255.2 253.8 259.7 265.1 270.6 276.1 281.3 272.5 286.5 296.1 304.2 313.1 320.1 329.8 338.4 347.2 356.6 368.2 382.8 408.4 427.5 440.3 448.6 459.2 467.9 473.2 473.2 470.2 467.7 465.9 463.1 461.3 458.8 458.5 458 456.8 454.8 452.7 449.4 446.2 442.4 439.4 436.6
171.1 167 162.8 158.3 153.4 152 152 152.6 153.7 154.5 150.6 149.8 149.4 149.6 148.7 148.9 150.6 151.4 155.4 162.1 167.7 170.3 171.8 172.2 176.1 179.5 181.1 180.3 177.3 174.1 170.3 165.4 160.2 157.5 162.1 166.6 166.8 161.4 153.6 148.5 148.7 148.9 150.2 150.7 154.1 161.7 168.7 173.8 173.4 168.7 165.2 163.6 159.7 149.3 142.5 143.4 142 142.7 143.3 144 144.1 144.5 144.9 145.2 145.7 146.4 146.1 147.3 148.6 150.6 153.1 163.5 169.4 172.1 175.2 175.9 175.4 176.6 180.3 184.2 182.3 180.1 181.2 185.9 189.3 194.5 191.3 190.8 193.1 195 194.2 191.1 189.1 192.3 192.3 191.5 190.9 190.9 192.6 194.3 195.3 195.4 195.4 195.1 197.1 195.8 192.4 189.2 186.7 174.7 167.8 176.6 181.9 180.1 178.7 177.4 175.5 176.2 176.4 173.5 165.1 159.3 170.1 177.5 181.2 183.6 184.5 183.8 185.6 184.9 186.9 189.5 193.8 196.4 198.4 201 204.3 206.3 205.8 205.8 206.9 208.2 209.4 209.9 211.4 214.4 218.9 223.4 227.6 231.3 235.3 239.9 243.6 246.6 249.5 250.1 250.7 250 254.3 259.8 265.3 271.1 268.9 263.8 279.8 282.7 293.5 303.4 312.8 320.9 329.3 338.1 346.6 355.7 367.3 380.1 397.2 422.2 437 450.3 461 469.9 471.4 470.7 467.6 465.2 462 459.5 457 455.6 454.9 454.5 453.4 452.1 449.8 446.1 443.8 441.5 439 436.4
170.1 165.5 160.5 155 152 151.5 151.3 151.8 153.7 154.5 151.8 149.3 149.2 148.9 148.7 148.3 149 149.5 150.9 164 170.4 170.4 170.8 169 173 177.1 180.3 179.9 178.8 175.7 171.3 164.8 155.6 152.9 157 162.6 163.7 158.1 150.4 147.2 147.5 147.9 148.9 150.8 154.9 160.3 166.2 172.6 172.6 167.1 161.2 159.2 156.6 149.8 142.1 141.8 142.2 142.6 143.1 143.7 143.6 143.9 144.3 144.9 145.8 145.7 146.6 148.7 152.2 156.2 158.8 162.9 171.4 178.4 180.6 181.7 180.3 184.1 185.7 189.7 187.3 181.9 181.4 184.8 186.9 189.7 188.8 185.3 186.6 188.4 187.5 186.8 190.2 191.7 188.9 188.3 190.3 188.6 190.2 192.3 193.8 194.7 194.5 194.8 195.4 193.2 189.1 185 182 167.8 168.6 176.9 180.3 179.6 178.1 178.1 177.2 178.5 176.4 173.5 164.1 159.3 173.9 179 184.5 187.7 188.1 188.7 187.8 189.1 190.9 192.4 196.6 199.8 201.1 203.5 207 209.2 209.6 208.7 208.6 209 210.6 210.9 213.1 215.8 220.1 224.2 228.2 231.9 235.2 239 243 245.2 246.3 245.6 245.4 248 254.6 259.5 266 269.9 262.8 279.9 286.2 291.6 297.6 304.2 312.6 320.6 328.8 338.8 346.6 354.9 366.3 379.7 394.6 420.5 438.6 454.5 462.5 467.4 469.1 467.7 464.3 461.3 457.5 454.8 452.8 451.4 452.1 451.7 450 448.5 446.2 444.2 443 440 437.4 434.3
164.1 163.2 157.1 153.1 152.2 151.2 150.8 150.6 151 152.3 151.2 149.1 149.1 148.4 148.4 147.8 148.4 148.6 149.3 162.2 170.2 171.6 167.2 166.4 168 170.3 173.9 175.6 175.3 174.2 171.5 164.2 153.3 149.5 153.6 158.3 159.9 155.1 147.9 146.3 146.3 146.7 147.9 149.7 154.4 159.1 163.7 171 171.5 165.4 158.6 156.9 155.7 145.6 142.1 141.3 141.4 141.6 142.3 143.4 143.5 143.7 144.5 144.7 145.1 145.5 148.2 152.3 156.7 166.2 174 177.6 178.2 183.2 187.7 189.2 186.8 188.8 194.6 196.1 198.1 188.9 185.7 186.4 186.1 184.6 184.3 183.7 183.6 184.5 183.8 183.9 187.3 188.9 186.2 187 188.7 186.1 185.2 188.2 190.9 192.9 192.8 192.4 191 187.4 182 178.5 177.1 168.8 165.9 174.2 178.1 177.9 176.2 176.2 176.3 176 175.6 172.1 160.9 163.7 175.8 180.9 185.8 189.6 191.5 192.6 193.7 196.3 197 199.7 201.5 203.6 204.6 207.2 208.8 210.8 212.4 212.2 210.3 210 210.9 212 214.6 216.4 221.5 225.5 229 232.2 235.1 238.3 241.2 242.4 242.5 241.9 242.9 249.9 254.1 259.8 262.9 258.7 260.7 270.5 284.9 293.2 299.5 306 314.7 322.3 328.8 336.8 346.2 357.4 368.5 382.7 402.9 424.5 442.1 455.6 464.5 466.1 465.5 463 461.7 457.7 454.5 451 449.8 448.9 448.2 447.5 446.6 445.6 442.9 442.3 441.2 438.7 436.9 433.8
156.7 155.3 154.9 154.1 153.2 152.1 150.4 150 150 149.8 150 148.9 148.8 147.6 146.8 147.7 148 148.5 148.5 156.9 167.1 167.3 166.2 164.7 163 165.2 165.1 165.9 167.2 166.7 165.7 163.1 153.8 149 149.1 153 155.5 152.1 146.9 145.7 145.7 146.2 147.6 149.1 153 158.3 162 166.5 168.2 163.2 157 156 154.6 149.6 141.5 140.7 140.7 141.6 142.1 143 143.5 143.7 144.2 144.7 144.7 148.7 151.7 153.7 158.9 169 179.2 184.1 184.4 186.8 191 194.7 192.4 198.1 201.4 202.7 198.7 195.1 191.7 189.1 189.3 186.4 181.8 181.3 181.9 181.5 180.8 180.3 182.2 183.8 184.7 186.5 186.8 184.6 180.4 182.8 186.5 190.4 191 189.4 186 180.7 175.4 172.6 169.5 167.1 163.6 172.4 176.9 176 173.7 172.5 173 172.6 173.8 167.9 157.6 171.6 178.6 183.9 187.4 189.6 193.2 195.9 197.9 201.5 204.3 204.8 205.4 207 208.6 210.5 211.1 212.8 214.1 214 212.3 211.6 212.8 214.4 215.8 217.9 222.1 225.9 229.5 232.5 233.9 236.5 237.7 238.7 238.7 239.2 242.6 246.3 241.9 243.9 246.9 254.6 270.9 278.2 288 295.7 302.1 308.7 316.6 322.6 329.3 337.6 347 360 373.9 386.9 404 424.7 443.4 455.6 464.6 465.1 462.8 459.1 457 453.2 450.1 447.9 445.2 444.3 444.8 443.8 443.6 441.1 440.7 440.5 439.6 437.9 435.4 432
163.5 166 164.4 160.3 156.4 153.8 151.1 149.7 149.9 149.4 149.4 149.1 148.4 147.6 146.3 147.2 147 147.9 148.1 155.5 162.6 164.6 164.1 163 161.1 160.3 159.3 157.8 157.7 158.9 160 161.7 155.6 148.1 147.5 149 151.8 149.8 145.4 145 145.2 145.6 147.3 149.2 152.5 157.3 161.1 162.7 162.9 160.1 155.4 156.5 155.8 148.3 139.4 140.8 140.7 141.3 142.2 142.6 142.8 143.1 143.6 143.8 148.3 152.4 154.9 157.9 163.3 171.5 180.6 185.5 187.3 188.9 191.5 195.5 195.9 202.5 207.2 205 198.8 199.4 197.8 194.9 192.8 189.4 181.3 180.1 181.4 181.4 177.7 177 177.6 178.9 181.8 184.9 186.1 181.9 177.1 178.2 181.9 186.2 188.2 185.9 180.6 173.7 169 165.2 162.7 159.3 165 173.6 176.6 174.9 171.7 169.9 169.7 169.8 171.6 162.7 156.5 174.4 178.9 182.4 187.3 189 191.1 197.9 201.8 205.7 207.7 208.9 210.3 211.8 213.9 214.5 213.3 213.5 214 214.5 214 213.2 214 215.5 215.8 218.4 220.1 225.3 229.6 232.4 233.8 234.5 235 234.5 234.6 234.2 242.7 246.1 255.3 259.1 267 263.3 274.2 284 290.6 297.7 305.2 311.5 318.9 326.1 332.5 341.4 351.7 365.5 379.6 393.8 404.7 426.3 439.9 459.3 462.4 465.5 459.6 456.6 452.7 449.4 446 443.6 441.9 440.7 440.3 440.4 439.7 439.4 438.5 438.3 438 436.6 433.8 431.5
167.3 171.7 173.7 170.7 164 160.5 157.8 153.5 150.5 150 151.1 150.1 148.3 147.7 146 147 146.7 146.5 147.3 152.9 158.5 160.3 160.6 159.4 157.5 156.3 154.8 153.2 151.9 151.6 155.1 159.2 153.6 147.7 147.1 146.7 148.8 148.4 145.5 144.6 144.7 144.9 146.5 149.4 153.2 156.6 160 161.3 159.1 155.2 153.9 156.8 157.5 150.1 142.2 139.7 140.2 141.2 142.1 142 142.6 143.1 144.1 145.4 148.5 152.9 158.8 162.9 167.1 172.2 181.8 184.1 188 191.9 196 200 201.3 203.5 207.3 206.6 200.4 203.7 200.2 194.8 191.5 187.1 182.6 180.4 179.4 178.4 175.8 173.7 172.5 174.2 176.3 181.3 183.2 180.7 173.8 174.2 178 181.4 183.6 181.7 174.6 168.4 162.4 158.2 157.1 160.4 169.5 173.8 174.7 173.4 170.4 167.9 167.2 167.3 169.7 157.8 163.8 174 177.6 182.1 186.9 189.8 195 198.8 205.6 210 213.7 213.7 215.2 216.7 217.8 217.9 215.9 213.7 213.8 214.8 215 215.3 215.1 215.8 216.3 217.6 219.2 222.5 228.8 231.8 232.2 231.6 231.8 231.6 232.8 240 246.9 254.4 256.7 263.4 272.9 270.8 271.9 286.7 294.2 300.5 308.4 316 322.7 330.5 338.9 347.5 359 371.8 386.9 395 403.8 423.5 454.6 457.6 460.1 460.6 457.3 453.1 448.3 445.2 441.8 439.4 438.8 437.5 436.8 436.9 437.3 436.9 436 436.7 436.7 435.4 433.7 429.9
168.9 176.5 179.4 178.1 174.3 171.5 169.8 166.4 159.6 156 156.3 158.2 155.6 149.7 146.8 145.9 146.5 146.3 146.2 148 153.6 155.4 155.6 155.3 152.3 150.8 150.5 149.2 147.9 148.6 152.7 157.8 152.8 147.1 146.6 146.5 147.9 146.9 145 144.2 144.5 144.9 148.7 153.5 155.1 157.5 159.5 159 156.6 153.1 152.1 155.4 157.4 152 142.8 138.1 139.4 140.6 141.5 141.9 142.3 142.8 144.4 149.1 152.1 154.3 160.1 166 168.9 176.2 184.3 186.2 190.7 198.5 202 205 206.3 207.4 206.7 204.8 202.9 203.2 198.6 195 193.5 190.2 187.7 184.8 184.2 181.3 176.6 175.3 172.4 168.3 171.2 174.4 177.9 177.3 173.1 171.5 175.8 178.7 179.3 176.8 169.8 162.6 155.9 155.6 158.4 165 170.2 172.5 172.3 171.3 169.3 167.4 167.6 167.1 169.2 155.1 163.3 172.6 176.3 180.2 185.3 190 193.1 199.9 207.4 213.2 214.9 216.5 218 218.8 219 219.1 218.3 216.3 212.9 216 215.5 215.2 214.7 215.7 216.3 217.1 219.7 221.9 226.7 230 229.9 229.1 228.2 230.9 236.8 243.4 249.5 253.8 262.9 268.2 275.1 280.8 287 290.8 297.5 303.2 311.8 318.5 325.9 334.6 342.6 351.9 365 375.8 386.7 393.8 405.4 423.7 446.8 453.1 456.2 458.7 453.2 448.5 444.6 440.5 437 434.4 433.1 432 434.2 435.1 435.1 434.1 434.2 435.3 434.6 433.5 430.4 426
169.4 176.4 183.6 183.7 180.3 177.7 176.4 174.5 171.4 165.5 161.2 161.6 159.2 156.5 153 145 144.7 144.8 145 145.3 148.7 149.9 150.6 150.6 147.4 146.6 145.5 145.5 145.7 146.5 152.4 157.1 155.5 147.1 145.6 145.8 146.6 145.9 144.6 144.6 144.7 145.3 149.1 154.8 156.7 159.6 160.3 156 152.5 150.4 150.9 153.1 154.9 151.3 140.9 138.2 138.5 140 140.7 140.8 141.6 142.8 148 153.8 157.3 160 163.8 168.7 173.3 182.9 188.3 191 197.2 202.7 206.6 208.4 209.2 210.5 209.1 205.2 205.4 201.7 198.3 197.6 194.8 195 190.9 187.9 187.4 183.2 177.7 176.4 174.9 171.1 165.7 167 170.1 171.9 170 168.3 173.9 176.6 175.4 171.1 164.6 157.6 154.1 157.8 164.9 167.4 169.2 170.3 172.1 171.3 169.3 165.8 166.4 164.8 165.8 155 166.6 172.7 176.3 179.7 183.2 187.7 191.5 197.7 205.5 210.6 214.4 216.2 217.3 218 218.4 218.7 218.6 216.8 213.1 214.3 215 213.2 213.4 214.6 216.3 216.4 219.5 221.7 223.6 226.9 227.4 226 228.7 235.1 242 246.9 251.9 258.3 265.8 272.9 278.6 285.1 289.4 294.4 300.5 306.8 313.7 323.4 328.5 339.8 348.1 360.5 369.9 376.4 384.3 395.4 411.4 430.3 442.5 446.6 448.3 447 445.3 442 438.8 435.9 431.8 429.8 428.4 428.8 430.5 431.4 431.1 430.9 432.4 432.9 432 429.6 425.1 421.3
170.1 172.5 181.4 186.5 184.8 181.7 179.5 177 173.7 169.9 166.4 163.5 161.8 159.5 157.9 157.5 152.3 145.2 143.7 144.5 144.7 145.3 145.7 145.6 145.2 144.3 143.9 143.6 143.8 145.8 151.7 156.5 155.5 149 144.6 144.6 144.3 144.2 143.9 143.2 143.5 143.7 146.3 152.1 154.8 157.8 158.9 153.6 152.4 150.2 149.6 151.4 151.3 147.4 138.5 138.7 139.6 140 140.4 140.5 141.2 142.7 148.2 155.2 159.5 163.4 166.6 172.6 179.9 186.3 191.4 196.8 202 205.6 208.1 208.6 208.6 210.7 211.3 207.6 202.5 200.4 199.8 201.8 198.2 194.6 190 187.4 185.2 182.1 178.4 177.1 174.9 173.3 169.4 162.8 163.9 165.7 165.9 165.3 170 173.6 172.6 166.8 159.8 152.9 155.2 162.3 166.2 167.7 168 169.5 170.9 170.8 168.3 164.1 160.2 154.3 149.1 164.9 172.9 174.8 177.4 179.2 181.4 186.9 190.1 195.8 202.2 207.5 210.7 213.7 214.7 215.1 216.1 216.8 216 215.1 213 211.4 213 210.6 211.2 213.8 215.9 215.3 217.1 221 222.8 223.6 223 228.4 233.4 239.3 244.1 249.2 254.9 260.8 270.7 279.2 284.3 288.9 292.7 298.3 303.1 310.4 318.6 325.9 337.1 345.7 357.1 365.3 372.9 380.2 389.5 404.1 423 435.9 440 441 441.2 440.5 437.5 435.8 432.5 429.4 426 425.1 424.4 425.6 427.5 428.4 428.4 429.4 430.6 430.1 428.3 424.5 420.5 417.2
166.3 167.1 174 183.4 186.2 183.9 180.3 175.5 171.6 167.4 165.4 163.6 161.7 159.5 157.1 156.4 155.3 153.5 143.4 144.3 144.9 144.5 144.6 144.2 143.1 142.8 143.8 143.8 143.6 146.3 151.5 156.1 155 150.6 144.5 144.1 143.6 143.3 143.6 142.9 142.9 144 146.7 150.1 150.8 154 157.8 154.6 154.2 151.2 149.5 152.9 150.5 147.5 137.9 137.5 142.8 144.2 141.4 138.6 139.3 143.8 148.2 154.3 160.1 165.2 171.8 179.3 181.4 188.4 194.1 200.9 204.5 207.8 208.2 206.9 206.5 208.1 208.5 205.4 202.7 202.2 201.5 199.6 197.3 193.9 190.8 187.5 183.5 180.1 178.1 176.9 175.4 173 169.7 162.9 160.2 161.6 163.1 163.3 164.5 169 168.7 162.4 155 150.5 155.3 161.9 165.2 165.4 165.6 166.4 168 168.6 166.2 160.8 153 150.5 159.1 169.4 173.7 176.2 178.5 179 179.5 183.4 188.2 191.9 197.7 203.8 207.5 209.6 211.1 211.6 212.6 212.5 211.6 211.6 211.4 209 209.7 206.7 210.2 205.2 213.6 213 217 220 220.6 219.7 225.7 230.4 235.4 239.5 245.2 252.6 259.1 267.5 276.6 283.9 288.2 291.4 296.1 301.8 308.7 316 324.4 333.4 343.1 358 365.5 373 381.8 391 400.2 422.6 433.6 435.1 434.7 435.2 434.7 434 432.6 428 425.3 422 420.9 419.6 419 423.2 424.9 425.4 425.1 427.6 427.5 425.9 423.2 419.1 416.8 414.1
162 161.8 167.7 177 183.4 183.5 179.4 173.7 168.2 163.6 160.9 159.1 158.3 156.7 154.6 153.7 153.5 153.6 151.9 142.8 143.7 144.3 144 143.8 143.6 142.4 143 143.6 143.7 146.9 151.3 153.5 153.4 149 144 143.9 143.3 143.5 143.2 143.2 143 143.4 149.3 150.4 149.3 148.9 149.4 153 154.4 152.6 148.2 151.3 151.3 148.7 137.4 137 143.4 147.5 146.5 140.7 138.6 140.4 148.1 154.7 161.3 167.7 173.7 179.1 181.8 188.3 194.8 200.9 204.2 205.8 205.5 203.5 203.2 203.8 203 202.2 202.3 200.6 198.8 197.5 195.2 191.6 188.9 186.4 182.5 179.1 178.1 176.4 174.7 172.4 166.7 160.3 156.7 161.8 162.6 162.2 161.5 163.5 165.6 161 153.6 148.8 151.9 158.6 162.3 163.7 163 163.1 163.7 164.3 161.7 156.3 148.9 153.1 161.8 167.5 171.5 174.2 177.1 178.1 179.4 180.7 183.9 188.2 194 198.5 202.9 206.6 208.7 209 208.4 208.1 208.9 208.6 208.3 207.1 203.9 203.2 213.3 216.4 217.4 217.3 215.7 215.8 218.6 221.5 226.5 230.4 232.2 236.4 243.4 253 263.1 272.8 278.3 284.7 290.3 293.8 299.3 306.7 313 322 333.6 344.5 356 368.3 383.8 394.7 405.8 419.5 427.1 431.6 433 429.4 428.9 429.1 428.1 427.2 424.2 420.7 417.6 416.4 415.6 414.8 418.5 420.8 422.1 421.2 423.7 424.7 423.5 421.2 417.3 415.9 414.2 412.1
160.6 159.8 162.9 171.2 177.8 179.4 177 170.1 163.5 158.9 155.6 153.2 151.4 150.4 149.7 149.1 149.8 149.5 149.8 149.5 142.7 143.8 143.8 143.5 143.2 142.7 142.6 142.8 145.8 150.2 151.9 151.4 150.4 146.3 143.6 143 143.1 143 143 143.2 144 145.5 151.5 154.1 156.2 157.3 149.7 147.1 149 151.5 147.4 146.9 149.8 149 138.4 136.6 141.2 146 146.7 139.8 137.8 138.4 145.2 155.1 162.4 168.9 173.2 176 181.1 186.3 191.5 196 199.3 200.1 199.7 199.8 200.8 200.8 199.7 199.2 200.9 199.6 197.3 194.3 190.6 187.8 185.9 183.5 180.4 176.9 176 174.9 173.3 171.2 163.3 156.3 156.1 162.4 163.3 162.5 160.6 160.9 161.9 158.9 152.2 147.7 150.7 156.5 160.2 161.4 159.3 158.8 158.5 158.1 156 146.5 147.5 149.3 152.1 160.9 167.5 171.2 174.5 176.7 178.2 177.5 180.1 183.8 189.2 193.2 197.9 203.9 207.1 208 208.1 206 205.5 207.1 207.1 203.9 200.1 210 214.2 218.3 220.1 220.5 219.5 218.5 218.1 219.6 224.6 227.3 235.8 243.4 249.7 258.8 266.4 273.4 279.3 283.9 290.5 297.7 305.8 311.1 319.6 334.6 346.8 357.5 371.9 386.8 411.1 434.1 436.1 432.3 430.6 429 427.1 425.3 424.3 423.2 421.9 420.4 417.2 414.3 412.8 410.7 410.6 413.5 415.1 417.2 416.6 419.4 422 421.2 419.4 415.6 414.5 412.5 410.8 407.8
160.6 159.2 160.7 166.1 172 174.2 173.1 165.6 158.5 153.6 150.2 147.2 144.4 142.3 142 142.2 142.8 143.6 145.1 145.3 142.8 143.5 143.7 143.4 142.6 142.4 142.2 143.7 147.8 151 151.3 150.3 147.2 143.5 142.8 142.6 142.6 142.3 142.9 143.3 148 153.1 152 153.1 156.3 159.2 157.5 154.2 147.4 145.3 144.3 143.2 146.4 150.9 145.8 136.8 136.8 142.8 144.2 138.6 137 137.5 140.4 149.9 161.2 167.2 166.9 172.8 178.9 183.6 188 190.5 192.6 193.5 194.6 196.7 198.5 198 196.5 193.7 194.4 195.3 194.6 190.9 187.4 183.4 180.3 178.6 177.4 174.8 173.1 172.3 171.4 168.7 160.5 152.6 155.5 162.5 163.5 162.6 162 161.5 158.7 155.4 149.8 146.7 150.6 156.3 159.4 158.9 156.8 151.4 149.3 146.9 145.7 150.1 154.4 157.2 159.1 158.5 154 166.2 170.4 173.6 175 174 175.9 181.2 186.2 189.5 192.9 200.6 203.9 206.2 206.2 206 203.6 204.3 206.5 200.6 205.3 211.6 217.4 221.9 223.4 223.7 222.7 222 221.3 223.8 225.3 227.3 242.2 250.4 254.8 260.1 267.1 275.2 279.4 285.1 292.6 301.8 309.2 316.2 332.7 353.7 368.5 372.2 381.9 403.5 431.7 431.6 430.5 429 426.9 424.8 422.5 420.6 419 418.6 416.6 415.1 412.3 409.5 407.6 406.8 408.2 410.2 412 412.2 414.6 416.9 418.2 417.2 413.4 412.4 410.1 408.2 406.9 405.2
160.3 157.7 162.1 167.1 169.5 169.6 168.1 162.3 155.5 149 146.1 142.5 140.7 141.4 141.6 141.6 141.5 141.7 142.1 142.5 142.7 142.9 143.2 143.1 142.4 142.2 142.3 143 145.2 150.1 151.1 149.7 144.9 142.8 142.5 141.6 142.4 142.7 142 143.8 150 152.6 154.3 155.8 158.5 160.5 162.1 159.3 150.8 146.2 142.8 141.2 141.1 147.5 148.2 135.1 136.1 137.4 141.4 137.8 136.5 137.4 138.8 146.8 156.1 159.7 163.6 170.7 175.8 180.6 183.9 188.1 190.5 192.1 194.3 195.8 196.2 195.8 194.2 191.9 189.9 190.5 190.6 189 185.4 180.4 175.7 172.6 172.5 172 170.9 170 168.6 165.7 156.8 151.4 155.1 162.3 164.8 163 162.4 162.7 160.3 154.8 147.8 145.4 149.9 156.4 158.9 154 144.9 144.8 145.2 147.1 152.9 163.9 168 169.8 170.8 170.4 165.5 156.5 164 168.9 170.6 169.8 171 176.3 182.3 186.2 190.1 195.3 200.3 202.7 202.1 201.5 201.6 200.8 203.8 193.3 208.4 214.9 220.6 224.9 226.2 226.8 224.8 223.8 224.5 226.9 228.7 232.3 245 246.6 250.7 257.9 268.7 275.4 280.7 289.2 297.3 305.2 315.8 329.6 355.4 371.7 386.1 393.7 400.7 415.5 424 424.7 425.7 423.5 420.9 419.7 417.9 416.1 415.5 414.1 413.2 411.3 409.7 407.5 404.6 403.2 405.4 406.3 406.8 409.5 411.8 412.7 413.3 411.9 410.6 407.7 405.4 404.2 403 399
159.1 155.7 162 168.2 171.5 168.7 164.1 158.5 152.7 146.5 142.6 140.6 141 140.6 141.1 140.7 140.8 141.7 142.2 142.5 142.4 142.8 143.3 142.8 142.4 142.2 142.5 142.4 144.3 148.6 150.3 148.9 143.5 142.2 141.6 141.6 141.6 143.3 143 145.5 148.1 152.9 156.4 158.8 159.7 164.7 166.7 162.1 151.7 145.6 145.1 144.4 139.4 139.2 143.7 134.6 136.2 135.8 141.2 136.9 135.9 138.1 138.4 143 149.3 156.8 164.2 171.6 177.9 181.2 186.1 189.5 191.1 192.2 193.3 194.2 194.5 193.9 191.6 190.1 186 185.8 186.9 186.8 185 180.2 173.1 168.4 166.7 166.2 167 167.5 167.3 162.5 154 150.1 151.7 160.1 164.2 163.6 162.1 160.3 158.6 154.4 148.9 144.1 150.1 155.8 152 143.4 145.6 154.3 162.1 167.4 173.4 176.2 176.5 175.4 175.9 174.7 170.1 164.2 166.1 161.6 162.3 165.2 166.6 169.8 178.3 183.4 186.5 190.3 193.5 196.8 197.4 196.8 197.6 190.9 191.5 204.6 212.5 218.3 222.7 226.6 227 225.5 225.5 227.7 227.6 228.3 232.1 236.6 240.7 246.2 257 266.7 274.5 277.7 283.1 289.8 300 309.2 323.7 348.3 375.1 401.3 412.5 414.8 413.6 417.3 418.5 419.5 418.7 417.4 417.3 413.7 412.5 411.8 411.3 410.1 409.8 408.5 407.1 403 401.8 400.3 401 402.8 403.9 405.1 407.4 408.6 410.2 409.7 407.4 404.4 400.7 398.8 395.5 395.5
156.7 152.4 157.5 163.1 168.4 170.4 165.2 157.3 150.8 145.4 140.6 140.5 140.8 140.8 140 141.2 140.8 140.1 141.2 141.5 141.8 142.1 140.5 141.8 141.8 142.2 142.6 142.5 142.2 144.6 148.8 147.7 143 142.9 142 141.6 141.7 142.7 143 144.3 148.9 152 153.8 158.2 161.6 163.5 165.3 163.5 150.4 145.7 146.8 147.7 140.2 137.4 137.1 136 134.6 135 135.9 135.9 135.9 135.6 138.2 141.2 146.5 154.5 164.5 172.2 177.8 182.2 187.2 191.5 192.2 193.8 195 195.6 195.6 194 191.7 187.1 183.4 180.8 182.3 182.5 182.2 179.3 172.8 165.7 160.9 160 161.4 163.9 164.5 158.3 151.3 148.9 148.5 154.7 161.7 163.6 160.6 157 154.7 151 147.5 142.8 150.2 154.3 145 145.3 157.3 164.8 169.7 174.2 177.4 180.6 182.3 182.6 180.6 178.5 174.5 171.8 175.4 170.8 165.8 164.3 165.1 166.5 171.6 179 182.5 181.7 185.1 193 198.1 197.1 191.5 197.1 205.1 210.3 215.9 221.4 224 226.7 226.2 227.1 231.7 234.8 236.5 231.5 234.4 242.4 251.6 256.4 257 266.4 274.9 282 286.1 295.4 303.5 313 331.3 360.7 393.3 407.8 410.7 413.1 414.3 414.4 413.5 413.6 413.3 413.5 410.9 408.9 408.2 408 407.7 407.8 406.9 403.3 400.4 399.7 398.5 396.3 397 398.4 399.1 400.8 403.7 405.1 406.4 405.2 402.3 400.7 399.7 398.2 397 392.8
152.9 148.8 153.4 155.8 160.1 164.5 163.5 158.2 150.1 143.5 140.1 140 140.6 140.5 140.4 140.5 146.3 153.2 151.4 151.1 151.6 153.2 154.4 148.9 146.5 145.9 147.3 146.1 144.2 141.5 143.7 143.3 142.7 142.8 140.5 141.8 142 142.9 142.5 144.4 148.8 151.1 153.3 156.2 160.1 161.5 163.3 164.2 152.6 148.1 149.2 149.6 149.9 137.2 136.4 135.4 135.5 133.9 135.1 135.9 135 134.4 135.5 140.5 141.6 154.5 168 176.7 182.4 187.2 188.9 191.8 194.3 197.3 198.8 199.4 199.2 197.1 193.3 188.2 182.9 177.4 176.9 177.8 178.6 177 172 165.1 157.6 154.8 155.6 158.7 160.2 155.7 149.3 147.1 147.4 149.5 155.7 160 157 154 151.7 148.3 144.8 142.1 148.4 142.1 142 155.7 164.2 168.2 171.6 175.6 179.3 183.8 187.7 189.1 187.1 183.4 180.9 181.3 182.1 179.5 173.2 169.4 166.7 165.7 166.1 170.5 175.4 175.7 179.8 195 199.8 194.9 191.8 203.1 209.9 213.8 218 222.2 224.1 225.3 225.6 229.3 235.1 240.5 240.2 233.4 237.2 241.4 251.6 260.3 265.9 270.3 277.7 284.4 291.8 301.1 309.7 319.6 335 356.4 388.1 403.7 409.5 411.1 411.5 411.8 410.9 408.4 408.1 407.2 405.6 405.2 404.6 404 403.5 402.8 398.6 397.8 397.1 396.6 395 392.7 390.9 393.5 394.1 397.6 399.2 400.8 401.1 399.4 398.7 398.5 397.4 396.8 393.3 392.6
149.1 148.2 149.6 150.4 151.6 155 158.1 156.3 150.7 144.6 140.1 139.8 140.2 139.9 140 139.6 152.6 157.9 161.6 161.8 160.9 158.2 156.2 155.8 156.4 152.6 150.1 149.6 150 144.1 144 143.6 144.2 143.4 143.2 143.1 142.8 143.5 143.9 144.9 147.8 150.5 152.2 155.8 158.8 159.9 162.7 164.5 158.6 151.4 153.4 151.1 150.6 139.9 135.2 135.1 134.8 133.8 134.4 134.5 134.4 134.2 134.2 135.7 138.1 151 166.8 178 182.5 189.3 191.5 194.8 197.2 200.3 202.1 202.7 203.1 202.3 199.2 193 185.8 176.1 172.7 172.2 173.3 173.1 169.6 163.7 153.7 151 151.3 155 157.1 153.3 147.1 145.9 146.9 148.5 151.3 154.2 154.3 151.4 149.2 145.1 140.7 139.6 138.2 143.1 155.4 161.6 166.2 169.9 173 175.6 178.3 183.6 190.5 194.5 193.9 191.2 187.6 187.1 187.5 185.4 182.2 177.9 174.2 175.2 169.4 167.8 169 170.2 173.3 180.2 192.3 192.5 185.5 204 212.7 216.7 220 222.6 222.9 223.7 225.7 232.2 238.6 243.1 239.7 235.7 247.2 248.1 256.3 264 270.3 277.5 284 291.3 296.8 306.7 312.9 321.5 334.3 354 386.4 399.7 404.8 408.2 407.6 407.8 406.7 403.3 403 401.2 401.4 401.6 401 399.8 397.7 396.4 395.5 395.7 394 392.7 391.2 388.9 387.4 389.6 390.9 394.3 395 395.8 395.6 395.4 395.5 394.9 395 394.1 393.7 394.5
147.1 145.9 145.5 145.8 145.7 146.6 151.3 153.6 154.8 153.3 149.1 141.1 139.8 139.4 139.9 143.5 155.6 161.5 163.7 162.3 162 158.7 158.1 156.1 156.2 154.3 152.3 152.5 151.9 150.2 148.4 146.9 147.6 149.9 149.5 147.6 147.6 146.1 146.8 146.4 147.4 148.1 150.2 154 156.2 157.8 161.5 163.4 158.8 153.8 154.5 152 147.7 141.5 135.5 135.1 134.8 133.8 134.1 133.8 134.2 133.9 132.9 133.7 137.1 149.2 163.7 173.9 181 188.1 192.3 196.2 198.9 201.7 203.8 204.9 205.6 204.9 201.8 196.8 191.4 183 172.6 168.4 168.1 168.2 165.9 160.5 150.4 148.3 150.1 155.3 156.6 151.4 145.5 145.9 148.4 152.2 152.6 151.4 150.4 148.1 146.1 139 138.4 141.4 147.4 155.3 160.6 163.6 167.3 170.3 172.6 176.2 179.2 183.9 191.6 197.5 199.6 198.5 195 191.4 190.6 189.5 187.2 185.5 181.1 183 180.3 175.7 171.2 170.6 172.4 174.5 179.6 180.4 185.8 206.4 213.6 217.9 220 220.8 221.2 222.2 227 236.3 240.1 242 238.8 236.5 249 256.2 261.5 267.7 275.2 283.1 291.8 296.4 302.4 310.3 317.6 325.7 338.5 355 390.4 396.8 401.5 404.2 404.4 403.7 401 398.8 397.8 397.1 397.4 397.4 396.8 394.9 393.8 392.7 392.3 391.4 390.3 389.5 387.6 385.5 381.6 385.5 388 390.3 390.9 390.6 392.1 392.7 392.2 392.6 393.7 394.2 394.2 401.8
148.4 145.3 143.1 142.4 142.2 142.6 145.3 149.9 155.4 160.2 157.6 152.1 140 139.5 138.8 148.8 158.7 165 169.4 168.8 164.7 164.5 159.8 155.3 154.6 154.4 154.6 156.3 156.4 155.4 154.3 154.6 153 153.4 152.4 151.6 150.3 149.7 148.4 150.8 149 148.9 150.1 153 155 156.9 159.9 163.9 162.1 156.2 155 155.7 148.4 143.3 141.2 143 140.9 134.4 132.9 132.6 133.4 132.6 133.2 133 136 146.3 157.9 169.2 179.1 186.5 191.6 196.4 199.7 202 203.5 203.7 203.6 201.8 199.1 196.3 194.5 191.6 182.2 171.1 163.5 162.5 162.1 158.5 149.2 147.4 149.9 155.3 157.2 151.4 145.4 145.6 150 153.9 154.9 152 149.4 144.8 141.2 138.5 140.1 148.2 149.7 155.8 160.8 164.3 167.3 171 173.4 176.6 178.9 184.8 193.3 199.3 202 203.2 200.8 196.6 194 191.3 188.5 189.8 186.7 187.5 185.9 182.6 178.2 173 172.8 174.2 175 180.4 190.4 201.4 212.6 217.7 219.2 219.7 218.4 220.6 226.7 234.2 237.4 236.2 236.5 237 248.9 258.2 263.9 270.5 279 288.6 297.5 301.5 307.3 313.3 322 331.1 341.2 354.1 386.1 395.4 400 401.2 401.2 399 395.6 394.5 393.5 393.2 394.2 394 393.4 390.5 390.1 390.1 389.6 388 386.4 384.6 384.5 382.5 379.4 381.3 384.4 386.3 387.5 387.9 389 389.5 390.1 391.1 393.7 398.3 405.2 412
151.3 144.8 142.6 141.5 140.2 139.7 139.4 142.6 149.4 155.7 156.9 155 148.8 138.8 138.5 147.3 157.8 166.6 170.9 173.4 172.1 168.5 161.4 156.9 156.9 158.2 161.9 163.1 161.9 163.7 163.9 163.7 162.2 159.4 157.1 154.8 153.4 152.2 150.9 152.3 151 152 151.5 151.9 154 155.7 157.9 161.7 164 158.8 156.1 158.8 157.3 153.4 151.5 151.9 147.2 136.6 132.7 131.9 133.3 132.8 132.8 133 135.6 143.9 156.1 169.5 179.9 186.9 191.3 195.1 197.8 200.1 201.2 201.3 200.1 198.7 197.4 196.3 195.6 193.7 188.1 176.9 168.6 160.1 157.2 154.8 149.8 147.8 147.7 151.2 154.8 151.8 146.5 145.6 150.6 154.4 156.2 154.6 150.2 142.2 138.6 138.3 151.7 156.1 156.8 158.9 161.7 166.3 169.6 172.7 174.5 176.4 178.7 184.1 192.9 200 203.7 205 203 200.1 196.5 193.3 190.1 192.7 192.3 191.7 190.8 186.4 181.7 176.4 175.9 174.1 175.4 178.6 185.8 198.4 210.1 214.8 217.1 217.5 216.5 220 222.5 229.9 232.9 230.6 232.1 248.3 255 259.4 266.7 273.5 284.5 297.2 302 306.6 311.8 318 323.6 332.6 343.4 354 381.8 394.1 398.9 398.7 396.9 393.8 390.9 390.5 390 390 389.9 389.4 388.4 387.2 386.6 386.8 386.1 384.2 382.7 381.6 380.5 378.9 375.2 378.3 380.9 382.6 383.6 385.3 387 387.9 389.5 392.7 401 405.7 410.1 413.8
150.9 146.2 142.4 140.8 139.3 138 137.5 137.8 138.9 145.2 148.7 150.3 149.5 138.6 138.6 144.7 155.8 167.3 171.7 173.8 173.1 168.2 161.4 160.7 163.1 164.4 166.5 168.7 168.9 169.2 170.4 169.1 168.2 164.8 159.7 157.9 156.1 156.5 156.1 153.2 151.9 153.1 153.8 153.9 154.7 155.4 157.4 161 162.1 160.2 156.4 157 156.3 154.9 152.9 154 151.9 137.8 133.4 132.9 132.7 132.2 132.5 132.6 134.5 142.4 154.5 170.3 182.9 186 187.6 190.6 194.5 196.1 197.2 195.9 193.7 193.2 193.4 194.8 195.3 193.9 189.9 185.9 174.1 163.7 157.4 153 150.6 149 148.3 147.5 149.4 149.8 146.3 146.3 150.7 154.4 156.3 155.8 151.6 141 136.9 148 158.5 161 161.6 161.2 163.9 166.5 170.1 174.2 177.2 179.8 179.1 183 191.3 199.6 203.8 204.6 203.2 201.2 199.3 195.3 191.8 191.1 195.7 196.8 196.5 191.9 184.8 179.7 182.1 180.3 177.4 176.2 183.1 193 204.3 211.2 213.7 214.5 214 218.4 220.4 226.5 229.4 231.3 231.7 243.1 253.9 261 269.2 279.7 293.5 306.8 309 311.8 317 322.8 327.7 336.8 343.3 356.3 376.9 399 401 396.4 392 389.4 386.7 386.2 385.4 385.5 386.1 386.6 384.8 384.5 383.5 383.3 381.5 380.3 379.7 378 377.5 375.8 374 376.3 377.6 379.5 381 382.3 385.1 387.9 391.5 398.6 403.8 407.7 411.2 413.3
149.8 145.5 141.6 139.8 138.4 137 137.2 137.4 137.5 138 141.4 145.8 143.5 138.4 138.3 142.7 153.4 165.2 170.2 172.9 172.4 168 164.7 166.3 168.1 169.6 170.2 172.4 174.7 175.1 173.9 173 172.5 170.6 165.2 160.4 158.2 158.1 159.5 158.5 154.6 154.6 154.8 156.6 156.5 156.8 157.1 158.8 159.9 159.3 156.4 154.2 150.9 151.1 151.9 151.4 151 141.1 135.8 132.7 131.4 131.7 131.4 132 133 139.9 150.9 167.1 179.2 180.2 180.4 185.2 188.5 190.5 189.3 187.9 185.9 186.3 188.6 192.2 195 194 190.4 187.9 183.7 170.5 160.8 156.1 153.8 153 152.3 151.5 147.7 145.6 145.3 146.9 152.3 155.6 156.4 155.9 152.4 140.2 137.1 154.2 159.8 163.5 163.9 164 163.2 166.8 170.9 175.4 178.5 181.8 182.1 183.2 190 197.7 202 203.1 202.7 200.5 199.3 197.4 194.1 197.1 196.6 196.9 199.2 196.4 191.3 184.8 184.3 184 179.6 176.4 180.9 188 200.2 207.1 208.6 210 212.2 217.1 220.7 224.5 230.4 236.3 236.5 236.5 249.1 263.4 272.1 283.1 298.6 312.8 316.8 316 319.6 326 331.7 338.4 348 358.6 373.6 388 394 390.5 387.9 385.1 383.2 382.1 381.9 382.9 383.3 382.4 380.8 380.9 380 379.1 378.3 377.1 376.2 375.1 373.9 373 371 373.9 376.2 377.8 378.9 381.8 385.3 390.8 396.3 400.6 403.9 407.6 409.5 410
146.6 142.9 137.8 136.6 137 136.8 136.9 137.4 137.1 137.4 137.7 138.5 138.7 138.3 137.6 139.1 150.7 161.7 169 173 173.6 171.9 170.5 171.4 172 172.2 173.4 174.2 177.8 178.1 176.7 175.2 173.9 172.1 169 163.1 159.2 160.6 163.2 162.6 159.6 157.9 157.6 159 160.2 161.1 161.7 159.6 158.4 155.3 153.5 150.8 149.3 148.4 150.3 150.9 149.4 148.5 139.9 135.1 131.6 131.6 131.6 130.9 130.7 135.4 144.5 156.1 164.9 170.1 173.4 175.9 180.7 182.1 181.2 178.6 179 182 186.5 191 193.5 193.8 190.7 187.5 184.7 180.7 172 166 161.9 159.7 158.5 156.5 150.9 145.3 144.2 147 152.8 156.5 157.4 155.7 152.7 138.9 138 152.5 159 163.5 165.5 166.5 166.2 166.2 171 175.4 179 183.4 186.4 186.3 188.6 194.8 198.4 199.3 198.9 198.4 197.4 196.2 198.4 200.3 199.2 196.8 196 194.6 193.8 191.6 185.3 184.2 180.7 177.9 179.4 183.7 194.7 200.9 204.1 207.5 210.4 214.6 219.8 223.5 228.4 233.1 235.2 239.9 248.8 261 270.6 283.5 299.3 311.5 320.1 319.1 323 329.2 337.9 345.4 354.6 366.2 368.7 373.9 384.4 384 382 380 379.3 377.6 378.7 380 380.6 379.5 378.5 378.2 377.2 376.3 374.8 374 372.5 372.1 371.4 368.5 368.1 372.8 375.3 375.9 377.3 383.1 389 394.5 398.6 401.5 402.8 404.6 405.7 405.9
143.4 142.5 138.4 136.3 136 137 136.8 136.6 137.2 137.2 137.8 140.3 139.5 137.9 137.6 137.5 147.3 160 169.9 176.5 178.1 178.7 174.9 176.5 175.8 175.2 176.5 176.9 178.4 179.7 179.1 177.5 175.9 174.2 171.6 166.8 162.5 164.4 167.1 167.7 166.1 163.9 163.9 163.5 162.3 164.1 165 164.1 160.7 158.4 155.3 149.9 148.1 147.1 148 149.8 146.8 146.7 138.8 135.3 133.1 130.7 131.2 130.5 130.5 130.3 135.7 141.9 147.6 153.3 161.5 167.8 172.2 171.3 171.5 173.2 175.3 180.7 185.9 188.5 190.5 192.2 190.4 188.2 185.4 185.8 184 179.3 172.4 166.1 164 161.1 154.3 147.4 145.4 145.2 152.9 156.1 157.4 155.9 152.3 136.9 136.4 151.2 157.3 162.9 166 167.5 167.7 166.7 170.9 174.7 178.2 183.5 186.4 185.9 187.9 189.8 193.4 195.3 195.7 196.1 196 197.7 203.7 204.7 204.1 202 198.4 195.4 194.7 193.2 190.1 186.5 182.4 178.8 179.2 183 187.7 196.5 204.2 205.8 209.2 213.1 217.3 220.7 226.1 228.9 233 238.1 252.7 259.5 272.4 287.7 299.6 306.7 317.1 319.7 323.8 335.1 342.9 349.1 366.1 364.4 362.7 365.9 372.9 377.9 377.2 374.7 373.9 374.5 374.5 375.2 377.9 377.1 376.1 374.9 373.7 373.2 371.8 370.6 369.8 369 368.4 364.9 367.4 372.9 372 374.4 376.9 384.4 390.1 393.9 397.4 398.7 400.6 401.9 401.6 402.4
138.5 138.8 136.5 135.9 135.8 140.2 141.8 142.1 142.4 142.5 141.2 143.6 144.4 137.7 136.9 137.2 141.1 154.7 165.5 175.4 180.8 183.3 182 181.3 179.3 178.3 178.8 178.9 178.8 179.6 179.8 179 178.1 176.1 174.5 172.2 170.2 170.5 169.8 170.5 171.4 169.3 169.8 168.5 168.1 167.3 167.7 168.1 162.6 160.6 157.8 152.4 149.3 146.8 146.8 148.4 146.9 142.8 137.7 136.3 135.7 134.7 130.5 130.2 129.8 129.8 132.5 131.6 135.8 146.2 153.3 158.6 160.3 163.7 166.3 169.1 172.4 177.7 181.9 184.4 187 189.3 188.9 187 184.6 186.1 190.1 188.8 181.6 173 168.5 165.1 159.1 151.8 148.1 143.9 151.9 154.5 155 154.1 151.6 143.5 135.2 144.5 156.7 161.9 165.2 165.6 165.2 169 171.6 174.2 176.5 180.6 183.9 184.3 185.8 187.1 191.5 196.2 199.3 201.9 201.8 203.3 211.6 212.2 210.1 208 204.8 201.5 195.2 193.6 190.4 186.1 183.5 180.6 179 181.6 189.5 197.9 206.5 207.6 208 212.1 215.4 217.8 222.3 224.3 225.2 233.8 261.6 280.2 282.4 291.2 299.5 302.8 309.1 316.4 326.1 343.5 341.4 342.1 355.2 356.1 354.3 359.9 371.5 373.7 372.8 370.4 370.3 370.2 370.4 372.8 374.1 374.9 373.7 372.9 371.3 370.1 368.7 367.7 366.6 366.1 365.1 364.1 367 369.3 369.2 372.2 377.2 384.5 388.7 391.5 394.1 396.2 398.3 398.7 398.4 399.6
137.3 137.1 136.3 136.1 135.7 140.1 145.9 150.5 152.4 150.6 146.7 144.6 143.7 138.5 137.2 137 137 150.6 157.9 170.6 179.7 185 186.6 186.4 183.2 181 182.6 181.4 180.5 179.2 179.4 180.4 180.1 178.4 176.1 175 175 176.9 174.2 171.2 172.4 171.1 169.4 168.1 166.5 166.5 168.8 168.2 166.1 164 163 159.3 155 149.6 147.7 145.7 147.8 141.8 139.2 137 136.8 134.8 133.1 130 129.5 129.3 128.7 131.3 139.2 145.9 150.6 151.1 154.6 162.8 166.6 168.3 170.8 174.5 178.2 181 182.7 185.5 185.9 184.2 184.6 182.8 187.5 192.5 189.1 179.4 171.6 167 161.3 156 151.6 144 148.2 151.7 150.9 149.5 148.4 140.8 134.4 145.8 156 160.5 160.9 164.8 168.9 174 175.4 174.1 174.6 177.6 179.4 182.4 187.1 191.6 197.2 200.5 206.4 210.9 213.9 213.2 213.3 214.2 209.7 209.1 207.1 204.3 201.6 196.7 193.5 190.5 186.2 182 180.2 179.9 187 196.1 206.5 209.6 208 212.2 216.2 216.6 219.3 220.7 222.6 234.6 261.3 285 289.3 291 294.9 297.7 303.9 311.9 324.8 332.5 337 332.2 338.3 346.1 344.9 350.9 360.9 370.4 369.4 368 366.9 367.3 367.4 369.6 373.3 372.9 371.7 370.6 369.1 367.1 365.4 364.8 363.6 362 361.8 362.6 366.5 366.4 367.7 371.5 376.2 382 386 388.5 391.1 392.4 393.2 394.2 396.5 397.7
137.1 136.2 136.2 136.6 136 136.9 144.6 152.9 158.4 159.4 154.5 146.3 141.9 137.4 137.4 136.9 136.5 148.9 155.3 163.6 176.2 182.2 186.2 188.4 188.4 186.7 186.4 186 183.8 180.7 179.6 181.1 181.3 179.7 177.9 176 174.7 176.7 177.4 175.9 173.5 170.4 168.6 167.8 165.9 164.7 165.3 166 165.1 162.6 161.7 160.1 158.7 155.5 152.6 148.1 143.8 142 140.6 138.8 138.1 138.4 135.5 131.3 129.7 128.9 127.8 128.5 139.3 144.2 146.6 149.8 157 163.8 167.5 169.2 170.3 172.5 174.7 177.2 179 180.2 180.4 179.9 181.3 183.9 180.5 185.9 187.5 182.5 175.2 167.1 161.3 156.6 152.5 148.4 138.6 148 145.7 139.9 135.4 133 133.4 145.1 149.8 154.2 163.3 167.2 171.1 174.6 176.2 176.4 176.3 177.3 181.6 187.1 191.9 196.6 205.8 214 221.3 226.9 230.9 231.3 226.9 223.8 218.5 212.7 207.5 201 198.6 198.2 194.3 191.1 185.4 182.2 181.7 180.9 184 195.2 206.5 209.8 208.6 212.2 216.3 216.1 216 217.8 220.6 232.9 261.2 280 286.7 288.4 290.2 291.4 296.1 305 314.8 320.9 323.7 321.9 321.5 332.8 333.5 335.4 346.5 357.8 365.9 364.6 362.9 363.6 365.2 369.9 372.3 370.5 369.1 366.9 365.9 363.8 362.4 361.3 360.2 358.9 358.5 360.8 362.6 363.7 365.7 369.8 374.1 378.6 381.9 384.6 387.1 388.6 390.2 392.8 394.6 396.1
136 135.9 136.7 136.4 136 135.5 139.7 149.5 158.6 161.6 158 149.2 141.7 136.8 136.9 136.6 136.3 145.2 153.2 160.7 175 182.3 186.1 187.8 189 188.4 189.1 189.8 186.6 184.1 181.6 182.5 182.4 180.7 178.5 177.4 174.5 174 175.7 175.2 169.9 174.5 168 166.9 165.2 163.7 162.7 162.3 162 160.6 159 159 157.4 155 152.7 150 146.4 144.4 143.5 141.1 139.6 135.4 132 131.4 136.9 132.8 129 128.2 136.8 143.6 148.2 155.4 159.6 163.8 167 168.9 170.2 170.3 171.1 173 174.4 175.7 175.6 174.4 177.1 178.7 177.3 176.7 178.9 179.5 175.3 167.2 159.9 155.1 152 147.6 137 142.3 138.6 132.5 132.4 134.3 146.7 154.1 157.9 161.6 164.6 168.3 171.6 173.7 174.8 176.4 177.1 178.7 185.3 191.8 200 211.3 224.9 238.3 245.2 253.8 260.3 255.2 248.5 244.3 238.2 229.7 218.7 206.1 198.2 194.7 189.5 187.5 191.8 187.2 182 181.1 183.6 191.7 203.5 208.7 208 209.7 212.8 216.2 215.7 216.1 219.5 235.5 260.3 273 281.8 284.8 286.4 286.4 289.4 297.6 301.6 304.8 308 310.6 307.9 311.5 314 320.7 326.4 337.8 351.3 360.7 359.2 359.6 365 369.1 369.4 367.6 365.7 363.9 362.4 360 358.1 357 355.8 359.5 362.9 364.7 365.6 366.5 365.2 366 369.5 373.5 374.7 377.3 380.8 385.1 388.1 390 393.4 395.7
135.8 136 135.8 135.2 135 135.1 136.6 144.6 155.1 159.3 157 149.3 142.2 136.3 136.2 136.8 136.4 145.1 151.6 159.9 168.7 182.8 187.1 188.4 188.2 188.2 189.4 193.7 194.7 191.6 187.8 185.7 183.6 180.6 179.2 178.7 176.2 173.3 172.5 169.6 169.7 169 166.2 164.3 163.1 162 161.3 160.6 157.1 156.8 155.2 153 153.2 153.3 151.7 150.2 147.9 145.5 144.2 142.7 139 133.9 131.5 132.9 134 135.5 129.1 127.8 134.8 143.5 151.5 158.8 163.3 165.2 166.8 167.7 168.3 168.7 167.9 168.1 169.4 170.5 170.6 169.3 170.3 172 172.3 171.6 170.3 170.2 169.8 163.9 157.1 153.4 149 144.8 139.8 135.7 131.2 131.1 141.3 150.5 155.8 160 162 164.6 168.2 170.3 171.1 173 174.1 174.7 177.3 181.7 187.3 195.3 206.2 228 241.6 250 260.1 261.8 261.9 263.7 263 262.6 254.6 246.3 234.3 219.8 207.2 200.3 195.2 192.7 190.6 186.7 186.6 182 183.5 189.4 200.5 208.5 206.8 210.3 212.8 215.8 216.7 215.7 220.2 242.4 253.7 265.9 273.2 281 283.5 282.2 284 288.2 293.3 295.1 294.8 297.1 294.5 297.9 302.9 307.8 313.2 323.5 332.1 348 353.9 353.8 363.1 366.5 366.7 364.6 363.2 360.2 355.6 353 352.2 358.1 360.5 363.4 365.1 366.2 368.1 370 370.4 371.7 372.2 374.7 377.6 378.5 380.5 385.1 389 391.4 394 396.1
136.8 136.5 135.4 135.2 135.7 134.8 135.6 139.9 150.3 154.9 153.9 148.2 141.5 136 136.2 136.6 138.8 146.2 151.6 158.6 166.9 179.7 187.5 189.9 188.6 188.6 192.4 198 195.8 192.9 189.5 187.4 185.2 182.6 180.9 179.1 176.8 174.2 170.6 168.3 169.4 167.6 164.7 163.1 161.8 160.7 158.5 155.9 152.3 151.9 150.9 150.1 152 152.1 151.7 149.5 147.1 145.1 142 140.5 135.1 133.1 135.8 134.2 135.6 141 135.3 127.9 129.3 142 153.4 161.4 166.1 168.4 168.5 167.1 166.8 165.6 163.9 163.9 164.2 165.9 165.3 165.1 165.5 165.2 166.1 166.4 163 162.1 160.7 158.9 153.9 149.4 144.8 140.2 134.8 130.3 138.2 147.9 153.6 156.7 158.7 161.2 163.5 167 169.5 169.2 170.3 172.4 173.5 176.2 179.3 183.1 190.2 198.4 211.3 229 245.2 253.5 259.3 260.3 262.5 266.5 270.9 274.7 272 262.6 244.8 229.2 218.1 212 205 196.6 192.9 189.7 187.6 183.7 185.6 187.3 198.5 203.5 208.6 212.3 216 216.4 217.6 215.9 223.8 238.3 248.8 257.5 266.4 276.4 280.2 278.2 276.7 280.1 284.8 286.9 283.6 285.7 286.2 289.2 292.9 297.9 301.8 305.3 313.1 326.4 338.9 348.9 358.4 362.3 362.7 361.9 360.1 356.2 348.2 351.4 358.4 361.3 364.2 366.6 367.5 368.9 370.6 371.5 372.7 375.1 378.2 380.8 383.7 385.5 387.2 388 391.1 393.8 395.6 397.8
136.7 136.6 136.6 136.2 135.8 136.5 135 136.8 146.1 150.3 149 144.8 136.3 136 135.9 136.4 140.4 146.6 151.9 158.3 167 175.1 186.5 190.6 189.6 190.4 194.7 194 192.5 191.1 188.3 188.1 190.7 187.7 183.4 180.7 176.8 174.2 170.7 166.4 163.8 163 163.3 162.4 161 158.6 155.6 151.4 148.1 145.9 147.2 148.6 151.2 153.4 155 153.6 150.5 145.8 144.1 139.8 136.9 138.8 136.3 135.4 137 139.4 139.6 133.5 126.2 130.5 152.6 162.5 168.6 171.8 172.1 170 167 163.8 161.5 159.6 159.6 160.4 160.9 159.9 161.2 159.4 157.7 157.3 156.8 155.6 154.5 152.5 149.9 145.8 140.6 136.1 130.7 129.4 136.6 147.8 151.7 156.6 160 162.5 164.8 166.9 167.5 170.3 173.5 175 176 178.8 184.4 186.1 192.3 201.9 211.9 227.1 248.5 254.5 257.2 256.4 261.4 269.4 278.6 278.6 273.9 266.4 254.2 237 225.2 219.9 214.8 208.9 201.3 195.4 189.3 186.5 185.2 188 198.5 206.7 210.4 214.7 217.3 215.6 216.7 215.7 222.4 230.9 241.3 250.2 255.6 267.2 274.2 274.4 271.4 272.6 276 277.5 274.4 276.8 277.1 280.4 279.1 279.1 274.7 281.5 294.1 300.1 308.8 333.1 348 358.4 359.5 357.5 354.6 346.4 351.2 358.4 362.4 365 367.9 368.4 370 371.4 372.3 373.7 376.3 380 382.9 386.4 388.4 390.2 390.8 392.1 394.1 396.5 398.1 399.5
137.5 136.1 136.1 135.9 136.1 136.4 135.3 135.2 143 148.2 145.5 139.3 135.8 136.1 136 135.4 141.7 146.8 152 157.7 165 172.4 181.8 189.6 190.5 192.1 195.3 192 190.2 188.1 187.6 190.5 190.5 189.7 188 183.9 178.5 174.6 171.1 167.5 163.4 160.5 159.7 161.5 160.6 157.4 154 152.3 151.1 147.3 144.6 145.4 151.7 156.5 158.5 157.1 152.5 148.3 143.3 139.6 139.8 145.6 141.4 137.5 137.9 138.3 138.9 137.9 126.8 126.9 136.2 159.2 168.4 174 174.9 172.9 169.1 164.7 159.6 156.9 156.3 155.7 156 155 156.1 155.3 153 151.4 150.9 150.4 148.1 146.3 145.4 141.9 137.1 132.9 129.1 130.1 138.5 145.3 152.8 158.6 157.9 161.5 162.7 164.7 168.6 171.9 174.7 177.1 179.2 183 189.3 192.9 197.8 207.6 214.4 225.5 246.4 251.7 250.5 253.3 260.8 269.8 273.9 280.5 268.9 260.7 254.2 243.7 231.9 224.6 219.4 214.3 208.4 202.1 195.2 189.2 186.3 188.6 197.5 208.4 214.1 215.8 216.4 216.5 219.6 218.2 215.4 218.9 230.2 242.8 249 253.4 265.6 267.2 264.5 264.5 267.6 266.3 264.8 266.5 266.4 257.5 263.8 279.7 299 311.3 320.3 331 333.5 335 330.7 344.8 353.8 351.3 346.3 349.7 359.1 363.3 366.3 369.6 371.9 372.5 373.1 373.3 374.4 377 380.9 385.2 388.6 390.6 391.8 394 394.3 396.7 398.3 398.8 399.9 401.4
139.8 137.6 138.4 140.4 135.8 135.3 135.3 135 140 146.2 143.1 136.3 135.4 136.2 135.3 136.3 143.3 147.4 150.9 156.3 163.5 169.6 176.5 187.5 190.4 192.4 195.5 192.5 190 193 193.5 192.3 192.7 191.7 190.9 189.5 185.4 177.8 174.2 170.3 165.2 161.7 158.2 157.7 159.5 156.9 150.7 151.3 152.4 151.8 148 144.4 148.7 156.5 158.4 157.1 151.5 147 143.7 140.2 138.7 145.2 144.6 142.4 139.4 137.6 137.1 136.3 135.4 127.9 124.9 140.3 164.7 173.3 176.4 175.3 172.1 166.5 159.3 154.7 153.9 152.8 151.4 152 150.8 149.8 149.6 148.8 148.9 146.9 144.2 142.3 139.6 136.7 134.2 129.3 128.4 134.7 142.6 148.4 153.8 160.2 163.8 164.3 165.7 167.6 169.9 172.8 175.2 178.5 181.4 185.9 193.2 199.9 206.7 211.6 216.7 224.7 236 243 247.1 253.1 262.3 265.2 261.5 259.5 257.4 256.2 248 239.4 233.8 230.2 223.6 218.2 212.9 206.1 200.4 195.2 187.7 188.8 198.5 206.5 214.6 215.1 214.8 218.6 219.9 221 218.5 213.2 217.2 236.3 243.6 246.6 252 256.1 256.5 257.6 254.8 255.4 255.7 250.4 252.8 269 288.3 302.6 318.8 334.9 343.6 348.7 362.3 364.2 358.1 346.8 338.4 347.6 351.4 357.9 364.5 367.2 371.1 374 375.1 377.4 376.7 376.2 377.8 382 386.4 390.4 393 395.2 395.5 396.7 398.7 400.8 400.9 401.9 402.9 403.8
143.2 141.1 141.2 139.6 135.9 135.1 134.3 134.3 136.6 142.2 138 134.9 135.2 135.7 135.5 137.7 141.6 146.4 149.8 155 161.7 167.8 172.9 180.9 188.2 191.4 193.7 192 190.9 195.9 197.1 197.3 196.3 193.8 193.5 192.9 190.3 186.9 181.3 175.5 169.5 164.6 160.9 156.1 154.7 154.6 148.8 146.8 150.6 152.1 150.4 146 143.6 149.8 155.6 155.5 149.5 146.8 144.5 137.8 139.8 144.3 146.6 144.5 141.4 138 136.1 134.2 131.7 126.4 125.4 138.9 161.1 168.9 172.4 174.6 173.7 169.3 162.1 154.1 150.8 151 151.6 151.9 150 148.4 148.9 150.3 151.4 150.1 148.5 145.7 140.4 132.6 129.4 127.8 131.3 138.2 144.8 149.6 153.7 158.6 162.2 164.2 166.1 167.8 170.7 173 175.5 178.6 181.8 186.8 194 203.3 210 215.8 219.3 223.1 229.9 236.7 242.8 253.9 262.1 261 256.8 253.6 249.2 245.8 240 233.2 229.9 229.8 227.1 221.2 215.8 208.7 203.4 195.8 190.1 188.4 197.2 201.9 208.2 213.5 215.3 216.9 215.8 216.2 220.6 220.4 212.3 227 236.7 241.3 243.5 246.8 250 246.7 242 240.6 236.9 240.4 265.6 280.1 297.8 319.7 340.4 357.1 362.7 377.8 374.3 370.4 366.1 362.2 357.6 359.1 360.7 363.1 367.3 371.3 375.2 376.6 379.8 379.5 379 378.9 382.5 387.8 392.5 396 398.5 398.9 398.8 401.6 403.2 403.2 403.6 404.7 405.8 406.4
146.7 147.5 146 141.6 136.2 134.7 134.2 134.3 134.7 135 134.5 135 134.9 134.8 134.7 140.8 142.8 145.3 148.6 153.5 160.2 166 171.1 176.4 180.9 186.4 196.6 190.1 190.8 196.9 201.8 200.6 198.3 196.7 196.6 195.7 195.8 193.1 188.5 183.7 176.9 169.8 163.4 157.3 151.9 149.2 146.4 144.7 145.8 149.2 148.3 144.8 141.2 141.1 145 150 148.6 144.6 140 136.9 140.8 144.1 148.1 146.9 143.8 140.7 138 134.5 133.3 125.9 125.3 140.6 155.9 161.6 166.7 169.9 172.3 171.1 165.4 153.4 149.3 154.4 155.8 154.6 151.4 148.8 150.4 155 154.9 151.3 148.4 145.7 140 130.5 127.4 129.2 132.6 136.6 140.5 148.6 156 159 160 163.3 165.8 167.2 169 172.1 174.7 178.3 182.4 188.8 194.1 204.1 211.9 218.2 222.6 224.7 227.9 231.9 239.2 245.5 250.1 257.6 252.2 249.9 245.2 239.4 233.1 227.1 222.5 222.8 225.2 223.2 218 213 204.2 197.1 191.8 187.9 194.1 199.1 203.5 211.8 216.9 215.8 212.3 213.5 217.8 218.2 210.4 221.6 230.3 235.7 237.3 240.6 241.2 229.3 229.9 230.7 241.4 246.3 274.1 287.8 312.3 337.8 353.3 365.6 374.5 378 376.3 373.4 368.9 365.5 364.9 364.7 365.6 367.4 369.6 374 377.6 382.1 383.1 382.6 382.7 384.6 389.9 394.2 398.5 401.8 402.1 401.5 403.9 405.4 405.3 405.7 406.6 408.2 409 409.4
152.9 151.6 148.1 143.5 137.5 134.2 134.3 135 134.3 134.9 134.8 134.7 134.2 134.5 141 143.6 146 147.1 149.1 153.1 158.8 164 169 173.6 178.6 185.2 197 195.9 191.6 197.7 201.9 202.4 199.4 199.1 199.4 199 197.9 196.6 193.5 190.8 184.3 177.1 168.3 159.4 152.5 149.2 146.9 145.4 143.8 143.5 144.2 141.3 139.8 138.9 139 141.3 144.6 143.7 138.6 136.6 139.3 143.1 147.6 148.5 146 142.7 139.1 135 134.1 124.5 124.4 138.4 149 155.4 161 163.8 166.2 168.1 166.6 154.9 146.9 153.1 156.3 155.4 152.3 150.5 151.6 156.2 158.5 155.7 149.7 143.4 136.7 126.7 127.3 133.4 140.4 142.2 147.8 151 156.9 161.7 164.1 163.8 164.2 165.5 167.5 171.9 174.6 177.5 180.7 187.2 195 204.8 212.3 219.1 223.5 225.6 226.9 229.5 234.3 239.5 241.4 243.2 243.3 244.3 242.9 236.4 228.2 221.6 215.6 214.7 218.8 220.4 220 213.4 205.5 197.2 192.5 187.9 190 196.5 201.8 208.7 215.9 213.6 208.6 211.7 213.9 216 210.8 213.5 222.9 228.5 233.8 235.5 229.8 228.5 237.8 248.6 262.2 273.6 279.5 293.8 317.2 347.1 357.8 370.6 373.7 377.2 377.9 375.3 372.3 370.2 370 369.6 369.6 370.8 375.2 382.7 384 385.7 386.4 386 387.4 390.4 395.6 400.3 403.9 404.8 405.2 406.6 407.5 407.5 407.4 408.6 410.3 411.1 412.2 413.6
162.2 159.9 148.3 141.8 139.2 134.2 134 134 134 134 134.4 134.1 133.9 136.5 139.1 142.9 145.5 148.8 151.8 155.2 159.3 164.1 168.7 173.1 177.7 183.3 204.5 200.5 193.7 197.3 202.1 201.4 202.2 201.8 202.8 202.5 200.1 198.3 197 197.3 189.2 182.5 172.9 166.6 158.4 155.2 152.7 149.3 146.4 143.7 141.7 140.6 139.5 138.8 137.9 137.9 139.5 141.3 139.9 137.5 137.3 139.7 144 148 147.2 144 139.1 137.2 135.4 124.1 122.9 132.5 144.1 149.2 155.8 158.8 160.7 162.5 163.4 158.8 144.5 145.6 150.7 153.1 152.7 153.5 154.4 154 155 153.9 149.3 143 135.3 126.4 127.5 138.7 146.7 148.9 150.8 154.6 158.7 162.2 165.7 166.6 166.5 168.7 169.1 171.6 175.7 179 181.9 187.7 196.4 203.9 212.1 219 223.4 223.9 225.1 228.9 234.8 248.4 252.1 249.5 244 237.6 233 231 222.4 217.6 210.4 206.8 208.9 213.7 218.1 213.8 206.6 199.4 193.3 189.6 188.5 191 200.2 206 211.4 208.8 206.5 206.9 209.9 212.5 211.9 209.4 214.6 220 226.9 219.5 220.1 239.7 253.7 264.9 272 280.6 284.8 294.2 313.7 336.9 355.8 358.6 368.7 374 377.4 376.2 374.4 374.9 374.4 373.8 373.8 375.2 384.1 387.1 388.7 390.7 390.9 391.1 393.9 397.7 400.3 404.8 407 407.8 409.6 410.2 409.8 409.7 410.3 412.1 413.9 414.2 415.6 417.5
165.4 163.2 154.5 141.5 134.7 133.9 134.1 134.1 134.5 134.1 133.9 133.4 134.2 134.8 138.3 144.2 148.2 152 154.9 157.5 160 164 167.7 172.2 177 181.8 193.9 199.1 195.8 195.7 201.6 202.7 204.2 205.4 206 205.4 202.4 199.7 197.4 195.6 191.4 184.4 177.6 170.8 164.6 160.8 157.7 154.8 151.9 147.9 144.7 140.3 139.7 139.3 138.2 137.4 137.1 136.8 138.9 137.9 136.3 138.3 142.1 147 148.3 146 146.3 145.1 139 125.1 122.6 124.3 133.4 144.8 149.9 154.4 156.2 157.5 158.7 156 148.1 140.3 142.9 146.7 147.5 150.6 153.6 151.1 149.1 147.1 145.9 143.5 137.1 125.1 128.5 140.9 145.9 150.5 154 157.6 161.3 165.5 167.3 167.9 167.6 170.6 173.4 174.4 174.8 178.9 182.1 186.3 193.4 202.2 210.8 217.3 222.3 223.5 225.1 229.8 237.9 255.3 266.6 262.3 255.3 245.2 239.5 235.1 230.3 224.6 218.1 209.1 204.9 204.3 211.5 214.7 207 199.2 192.7 189.9 187.2 188.8 196.9 204 205.7 204.1 204 204.3 205.6 209.4 210.3 206.6 210.9 214.8 214.5 216.4 234 252.3 265.8 275.7 275 280 285.9 293.5 304 321.8 342.6 348.5 360.8 367.5 374.3 375.5 376.7 378.3 377.3 377.4 377.9 384 389.9 391.2 392.6 394.9 394.8 395.6 399.8 402.2 404.6 407.4 409.1 411.2 412 411.6 411.7 412.7 414.3 415.3 416.3 416.9 418.8 420.8
160.5 159.6 153.5 145.7 140.3 133.2 133.5 133.8 133.3 133.5 133.3 134.3 135.3 135.1 138.7 144.8 150.5 154.4 156.8 159.1 160.8 163.3 166.9 171.1 175.7 181.5 185.3 185 195.4 196.5 200 203 204.1 206 206.8 205.3 203.7 201.2 198.5 196.4 192.5 187.3 181.1 175.8 170 165.5 159.7 155 152.9 150.9 147 142.3 140.8 140.4 140 137.6 136.8 136.4 137.6 136.8 136.3 137 140.6 145.2 148.6 148.9 148.6 148.9 148.3 133.1 122.6 123.8 123.1 133 144.3 149.3 152.5 153.8 154.1 151.8 147.2 140.8 135.3 136.8 139.1 140.4 145.4 147.3 145.1 141.9 140.4 140.2 137.8 125.5 127.6 140.3 146.4 150.9 154.7 158.1 163.7 168.7 172.2 173.1 170.9 170.6 174.8 177.5 177.5 177.6 181.4 185.1 191.8 200.1 209.1 216.7 220.7 220.6 224.7 231.3 241.8 258.9 274.6 275.5 266.5 256.9 246 238.8 234 229.9 225 216.6 209.1 203.6 201.5 203.8 205.7 199.7 191.7 187.2 185.7 187.7 190.3 199.5 200.6 201.6 202 203.2 204.1 207.2 208.2 204.7 208.3 208.8 212.9 226.6 245.3 261.3 275.4 277 275.7 281.1 285.6 292.2 300 309.3 324.2 339.2 348.6 362.7 372.5 374.4 376.5 379 378.8 380.1 383.1 391 393.9 395.3 398.2 399.8 399.3 400.3 405.9 407.6 407.5 409.1 411.4 412.7 413.3 413.6 414.7 415.9 416.8 417.4 418.1 419.4 422.4 420.4
155 150.6 146.4 141.6 134.5 133.9 133.4 133.5 133.6 133 135.2 133.5 134.4 136.3 141 145.9 150.5 154.3 157.2 159.7 161.7 163.7 166.5 169.6 174.5 179.7 184.1 192.8 194.9 196.2 198.1 200.9 202.6 203.9 205.2 205.5 204.1 202.2 199.7 196.4 192.9 189.1 183.8 178.4 172.9 166.6 160.7 155.6 154 151.4 148.1 144.9 143.1 141.6 140.6 138.7 137.3 136.8 136.6 136.3 137.1 136.6 139.6 143 147.2 149 148.7 149.8 151.1 148.9 131.4 122.8 122.3 122.4 132.1 142.7 149.1 152 152.4 150.2 145.5 139.5 133.6 130.9 130.2 130.4 138.7 144 141.2 138.1 135.6 135.4 136.4 129.3 127.2 139.7 144.9 149.7 154.2 158 162 168.5 173.2 176 175.5 173.8 174.2 176.9 178.3 178.3 180.4 183.3 187.7 196.2 206.1 214.6 217.9 218.1 223.1 231.4 244.4 271.9 285.2 280.3 272.3 264.4 255.7 245.4 238.9 235.3 230.5 228.8 223 216 207.1 201.9 199.4 197 192.9 187.5 185.4 184.1 186.4 192.1 199.2 202.3 203.7 202.8 202 203.6 204.3 204.6 206.2 207.2 218.4 235.5 250.6 267.2 278.7 278 276.2 278.3 285.4 290.7 296.6 304.4 314.7 325.2 339.5 355.3 368.4 370.9 372.6 376 380.3 383.2 391.9 395.3 397.7 398.8 402.7 404.1 403.6 405.1 409.4 411.8 411.8 412.3 412.8 413.8 414.8 416.4 417.6 418.2 418 419 420.1 421.1 420.6 418.8
148.6 141.8 137.9 135.6 133.7 137.6 133.6 133.5 133.5 133.4 134.1 133.3 134.2 136.9 141.7 145.1 150 154.3 157.5 160.2 162.5 164.7 167 169.5 173.3 178.2 184.3 189.8 193.6 195.6 197.5 199.7 201.4 202.5 203.3 205 204.3 202.6 200.4 198.1 194.4 190.5 185.4 179.7 174.7 170.1 164.4 158.4 154.7 150.6 147.5 144.9 143.1 142.3 143.1 142 139.9 137.1 136.8 136.7 137.1 137.2 139.9 142.1 145.8 147.9 148.3 147.8 148.6 148.9 147.2 139.2 123.2 121.8 120.4 129.7 142.5 146.3 149 149.3 146.3 139.7 133.1 128.8 124.9 124.8 128.5 135.6 135.2 132.9 130.9 130.2 128.1 123.4 129.1 136.7 141.7 147.8 153.6 156.9 159.1 164.9 171.1 174.8 176.9 176.3 174.9 175.3 176.6 177.4 178.6 177.4 185.4 187.9 196.9 210.7 207.2 219 224.8 231.7 244 264.5 286.4 285.7 276.6 266.8 261.2 252.6 245.4 240.4 238 235.9 232.2 226.6 220 210.5 204.9 200.6 197.8 189.9 185.7 183.5 184.3 188.1 195 201 203.8 203.2 202.3 200.3 200.9 203.3 202.9 208 221.8 235.8 253.3 270.9 278.9 277.7 275.2 274.7 282.8 289.8 295.4 302.4 308.7 317.5 327.1 344.9 358 365 370.2 375 380.6 385.6 396.6 398.4 399.9 401.9 405.1 406.9 407.4 408.3 411.2 414.6 415.3 415 416.4 416.8 417.7 418.4 418.8 418.5 418.7 419.4 420.1 419.3 418.1 417.1
143.7 137.7 134.8 133.7 133.2 132.7 137.6 133.2 133.6 133.5 132.9 133.7 133.6 135.7 139.5 142.8 148.6 152.9 156.5 159.9 162.5 164.9 166.8 169.6 171.2 179.1 183 188 191.2 194 195.9 197.5 200.2 200.7 201.9 203.1 203.4 202.3 200.7 198.6 196 192.8 187 180.6 175.4 171 168.3 165.3 158.6 152 147.7 145.2 144.5 144.4 144.2 142.5 140.7 138.3 137.2 137.3 137.7 139.7 141.2 143.7 145.8 146.8 147.8 146.5 144.3 144.4 145.4 147.5 138 124 120.3 120.8 127.4 138.3 143.8 146.9 147.1 141.2 134.1 126.8 123.6 122.8 122.5 125 127 128.1 124.4 122.1 122.2 125.2 136.3 141.4 144.5 148 153.9 155.2 156.3 157.7 167.5 172.3 174.9 175.7 175.4 175.1 175.1 170.1 176 185.1 194.8 200 200.7 203.5 206.7 217.4 226.6 235 248.8 262.1 279.3 286.2 279.7 268.9 262.6 258.1 252.1 247.3 242.9 240.2 237.5 233.1 226.7 218.5 211.7 204.3 200.2 195.1 186.2 182.8 182.2 182.8 190.3 196.9 202.5 202.8 200.3 199 200.3 200.3 200.3 211.1 222.7 238.9 254.1 272.8 277.6 276.2 271.7 273.2 280 286.4 293 297.9 304.2 311.9 321.1 334 345.6 354.7 369 375.7 384.4 395.2 399.5 401 401.9 404.4 406.8 409 410.1 411.5 413.1 417.4 418.3 417 417.5 419 420.2 419.6 419.3 417.5 419.2 419.5 418.5 416.9 415.4 415.2
141.2 136.8 133.9 132.9 132.8 132.4 132.7 133.3 132.9 133 132.8 133.4 133.7 135 138.7 142 145.4 152 155.4 158.9 162.3 165 166.9 169 171.1 173.4 178.6 185.7 189.3 191.7 193.5 194.9 196.9 198.9 199.9 200.5 200.7 200.4 200.4 198.8 197.4 195.2 191.4 184.2 175.6 170.1 167.1 167.8 164.5 157 150.6 146.2 148 147.7 144.9 142.2 140.6 139.2 139.8 141.3 141.8 142 143 145.2 147.6 148.8 148.7 146.1 143.3 142.1 142.7 145.2 142.9 139 122.6 119.6 120.5 123.6 135.8 140.7 143.4 139.5 134.1 123.3 121.7 120.6 121 121.6 121 121 122.1 122.7 126.6 135.1 141.1 145.9 150.7 153.4 153.5 154.6 155.4 158.2 162.3 167.8 171.5 173.5 174.4 167.7 168.7 173.5 179.7 185.5 191.4 200.2 206.1 213.1 218.5 224.5 230.6 238.1 250.6 263 272.8 279.8 278.2 273.1 268.1 259.3 254.6 252.1 248.6 243.8 239.5 235.7 230.8 224.6 218.3 211.3 204.2 198.4 189.6 184.1 182.1 182.4 185.6 194.6 200.7 201.1 199.1 198.2 197.9 198.9 199.6 208.1 220.8 237.2 252.9 274.7 276.6 274.6 270.6 268.6 277 283.3 289.9 295.4 300.6 309.4 319.5 330.4 341.1 352.7 368.3 377.2 395.5 399.2 401 403.2 403.6 405.9 408.7 410.5 411.9 412.8 415.1 419.4 420.9 418.6 418.3 418.8 421.2 420.8 420.2 418 415.7 416.1 414.7 413.5 412.4 412.3
140.7 135.4 133.6 133.1 132.6 132.1 132.4 133.3 132.8 132.7 133.1 133.2 133.6 134.9 138.5 141.5 145.7 149.3 153.7 158.3 161.4 164.2 166.6 168.7 170.5 172.6 175.8 180.5 185.9 189 190.8 191.8 192.8 194.3 196.8 198.4 198.4 198.5 197.5 197.6 198.4 197 194.1 187.8 178.3 169 165.1 165.5 167.6 161.9 155.7 148.8 152.3 151.2 147.4 142.2 139.5 139.7 141.6 144.1 144.3 144.2 144.3 146.8 148.8 150.7 151.3 148.1 144.8 143 143.3 143.4 144.1 145 136.2 123.2 119.9 119.8 122.8 132.3 138.1 137.6 133.7 123 120.2 120.1 126.9 134.1 139.2 139.1 131.3 129.9 136.1 140.7 142.8 149.2 153.9 156.4 156.5 155.3 156.4 156.3 158.5 162.4 166.6 167.5 163.6 168.2 173.1 176.1 178.8 182.6 186.7 190.7 195.7 207.9 219.1 229 236.3 243.9 252.3 266.3 274.3 278 280.8 277.4 273.3 268.1 262.8 256.6 252.8 247.9 242.2 236.4 231.4 226.6 221.4 215.5 208.7 199.7 191.1 186.3 182.3 181 181.6 190.4 197 200 198.7 196.7 196.5 195.8 198.8 208.7 218.2 235.4 252.4 272.7 275.5 272.8 267.9 266.2 273.2 281.2 285.5 291.1 298.7 304.9 315.6 327.4 338.7 350.6 362.3 376.6 398.8 400.5 401.8 404.2 405.7 408.1 410 411.5 412.3 413.7 416.1 421.3 422.8 420.8 418.6 418.4 421.2 421.9 421.3 420.4 418.4 414.2 411.9 410.9 409.4 409
140.3 135 133.2 132.9 132.5 132.6 131.8 132.8 132.2 132.5 133 133.3 134.1 136.3 139.8 142.8 146.2 149.3 153.6 156.9 160 163.5 166 167.6 169.4 171.5 174.3 177 180.5 184.7 187.1 188.7 189.6 190.4 192.6 195.1 196.1 196.5 197 196.7 197.7 197.3 195.1 190.3 181 170.2 162.9 160.6 164.6 164.7 158.5 151.5 154.2 156.5 150.5 143.7 141.6 142.4 144.2 145.8 146.7 147.3 147.2 148.2 149.8 151.3 152.5 150.5 146.4 146.3 144.2 142.5 142 144.8 142.5 133.9 121.5 117.9 119.1 124.9 130.1 134.4 132.6 123.5 119.4 121.3 135.8 141.7 144.6 143.3 140.5 135.8 140.5 146 148.7 151.7 154.1 156.3 156.6 155.9 155.4 154.4 154.7 154.3 159.1 169.4 174.6 175.8 173.3 173.3 180.1 185.3 191 196.3 202.1 200.4 217.7 229.7 241.1 248.6 257.1 268.8 277.3 282.3 285.7 287.3 284.1 277.2 270.6 263.4 256.6 250.4 245.2 239 231.2 226.3 221.8 216.7 211 205.4 196.6 188.2 182.9 180.9 181.3 185.7 192.5 196.6 198.5 196.7 194.8 195.3 196.3 209.3 220.9 232.3 249.7 267.7 272.7 270.1 265.4 262 269 272.7 282.5 290.9 297.3 303.8 312.2 323.4 333.8 347.7 362.3 379.7 397.1 401.2 403.1 405.5 407.3 409.8 411 411.5 412.5 413.9 416.4 422.3 423.5 423 418.3 416.3 417.5 420.7 421.7 421.1 419.7 416.3 413.4 409.8 408.5 406.5
141.4 135.1 132.3 132.5 132.5 136.2 131.7 131.5 132.2 132.5 133 134.4 138.4 143.6 144.1 142.9 145.7 149.8 152.7 155.7 159 161.6 164.8 167.3 168.8 170.2 172.2 175.2 177.6 180.4 183.4 185.4 186.3 187.4 188.2 190.6 192.8 193.9 194.7 196.4 196.8 196.4 194.6 189.9 180.5 170 161.3 157.9 158.7 162.2 159.9 154.4 152.2 157 155.1 146.9 143.7 144.5 145.6 147.4 148.6 149 148.7 148.8 150 151.6 153.3 152.9 148.9 146.5 146 144.5 139.3 139.5 138 132.9 129.6 120.4 117.8 118.2 125.4 128.4 129.4 124.2 119.4 122.7 137.5 143.5 146.9 146.9 146.2 143.8 142.1 148.1 152.6 154 153.5 154.2 154.7 154.7 155.2 149.6 155.1 161.4 168.5 174.7 180.1 182 179.2 177.5 179.7 188.3 195.7 203 210.3 213.8 213 233.7 243.5 252.2 258.9 271 282 289.4 294 308.3 305.6 294.8 279.6 271.1 262 255.3 246.7 240 233.7 226.7 221.6 217.2 212.7 206.3 199.4 192 184.4 181.2 180.2 181.8 188 192.5 195.3 197.7 193.3 193.7 194.8 206.5 217.1 230.2 246.8 265 270 268.7 263.9 257.3 264.1 273.7 280.6 288.7 295.4 300 307.8 318.4 330.4 346 362.1 377.3 394.8 401.1 404.7 407.7 408.8 410 410.8 410.9 410.9 412.6 415.2 420.9 422.2 423.1 420.4 413.7 412.9 414.1 418.9 418.9 420.5 418.3 415.1 412.9 409 405.4
142.7 135.1 133.3 132.4 132.2 134 132.6 131.3 132.3 134.4 134.4 138.9 145.5 148.4 147.9 146.3 143.2 147.3 150.9 153.1 157.1 160.4 163.7 165.9 168.2 169.6 170.9 173.7 176.7 178.7 180 182.1 183.1 184.3 185.3 186.4 188.6 189.8 192.1 194.9 196.3 195 192 187.5 179.6 167.5 160.1 156.7 156 156.4 157 154.1 151.1 153.3 155.4 151.9 147.5 145.7 146.2 147.8 149.8 150.9 150.3 149.8 148.9 151 153.4 152.4 150.3 147.5 145.8 144.2 141.2 134.9 133.4 131.5 127.2 121.2 118.6 116.8 118 123.9 123.4 119.3 118.5 126.4 136.1 143.2 148.6 149.8 148.7 147.7 142.7 144.7 151.8 154.4 152.8 152 151.9 151.8 147.6 152.9 158.7 163.2 171 175.9 181.9 185.3 183.6 183.7 188.2 189.2 196.6 210.6 218 222.6 221.7 234.1 249.2 256.5 263 271.5 287.9 298.5 312.9 318.1 316.9 305.4 295.2 277.7 269.7 267.2 255.7 245.5 238.3 232.5 223 218.3 213.5 208.6 201.7 192.9 185 182.3 180.8 180.8 182.9 188.6 193 197.1 197.6 190.9 193.8 203.9 214.6 228.5 243.1 257.4 267.5 266.1 261.8 254.2 256.9 268 276.5 283.2 290.1 297.3 303.1 315.3 329 343.2 359.2 378 396.8 401.8 405.7 407.6 408 408.6 409.9 410.3 409.6 410.2 411.8 415.8 414 413.8 412.4 409.5 407.9 408.7 411.4 413 414.5 414.9 415.3 414.7 412.9 409.3
144.6 137 133.4 132.1 131.9 132.7 131.2 131.7 131.7 133 139.3 145.7 150.3 150.5 149.3 146.7 142.9 140.7 143.1 148.4 154.7 158.8 162.2 165.1 167.5 169.1 170.6 172.4 175.2 178.4 178.8 179 180.1 181.5 182.5 183.1 184.2 185.9 189 192.9 194.9 193.3 189.7 184.3 175.6 164.5 157.7 156 155.2 154.3 153.1 152.4 151.3 151.3 152.9 152.5 150.1 148.2 147.7 147.3 149.2 151.7 151.8 150.7 148.6 149.4 152 153.4 151.6 150.9 150.6 148.3 143.8 137.5 128.2 127.7 122.4 120.2 118.2 117.9 117.2 116.1 117.1 116.6 122 127.1 132.9 139.5 146.2 150.2 149.9 148.4 145.2 142.5 145.6 150.2 151 150.1 149.2 145.7 149.2 154.6 160.7 167.3 173.9 181.7 186.8 189.8 190.5 191.1 197 200 202.6 206.9 222.5 231.4 236.9 234.2 252.3 260.8 266.8 274.2 289 305.9 319.5 326.5 324.2 317.2 305.1 290.7 275.6 272.4 266.1 250.6 241.6 236.8 229.2 219.7 214.8 210.1 204.3 196.1 188.1 183.5 181.8 180 181 186.1 191.2 195.2 197.3 190.2 193.2 201.3 210.2 222.3 233.3 252.1 262.8 263.9 258.9 252.3 252.6 264.7 270.7 279.1 285.6 294.7 301.1 313 325.2 338.9 356 379.2 406.9 405.8 405.8 406.1 406.1 406.4 406.7 408.2 407.8 407.8 407.8 408.5 408.4 408.4 407.7 406.6 405.6 405.9 406.4 409.5 411.5 413.5 414 414.7 413.8 411.9
145.1 138.4 134.5 132.4 132.2 131.9 131 131.9 131.4 138.5 138.9 151.1 151 150.3 148.3 145.1 140.7 137.7 138.7 142.8 148.4 155.5 161.3 164.8 167 169.3 170.9 171.7 173.4 176.2 177.5 178 177.5 177.8 178.8 179.3 180.6 183.2 186.7 191.2 193.4 191.9 187.8 180.9 170.7 159.7 156.8 157.7 157.8 157.1 155.7 154.2 151.9 151.7 152.9 152 150.1 148.9 149 147 146.2 148.8 150.9 150.9 147.2 147 150 154.4 153.3 152.1 152 151.9 146.5 140 133.3 125.4 120.9 119.3 118.4 117.8 117.3 117.6 116.5 121.5 127.6 129.5 132.7 137.9 142.6 146.6 148.7 147.3 144.3 141.1 141.1 143.1 144.6 145.4 145.2 147.1 150.5 156.2 163.5 173.7 182 187.9 193.5 196.7 199.7 200.7 203.6 209 206.8 209.7 218.5 234.1 243.5 246 252.4 262.2 270.8 277.2 288.5 307.1 324.6 332.2 337.4 334.4 322.8 299.5 283.3 276.2 271 258.3 247.9 238.6 232.1 223.3 216.7 211.9 206.8 199.1 191.8 187.3 182.8 180.1 180.4 183.3 188.6 191.4 195.1 189.7 193.4 198.1 205.3 217.2 230.6 244.7 258.2 262.3 256 249.3 247.9 258.1 266.1 273.3 280.9 290.3 299.3 307.8 319.4 335 349 370.5 400.8 413.1 404.3 402.8 400.7 401 402.5 404.1 405.5 405.4 404.7 404.2 404.1 405.3 405.2 404.9 403.6 403.4 403.4 404.7 408.1 410.8 412.3 412.6 411.9 410.7
145.4 139.4 135.2 133.3 131.7 131.6 131.4 131.4 131.3 136.1 142.6 144.8 150.3 148.9 146 141.7 135.4 134.8 139.8 144.8 152.5 156.4 161.2 165.5 169.1 171.5 171.7 171.8 172.4 172.8 174.5 176 175.9 174.6 174.4 175.3 177 181 185.1 189.7 192.7 190.5 185.9 178.4 164.3 155.8 159.3 164.8 167.9 165.6 161.7 158.8 156.3 154 153.4 151.6 148.9 148.9 149.4 147.4 144.4 144.3 146.5 148.1 146.1 145.8 148.5 153.1 155 153.1 152.5 152.1 146.9 139.2 131.1 121.9 119.6 118.5 116.8 117 117 117.2 116.7 122.2 128.6 132 133.5 137.4 141.6 143.9 145.9 145.2 141.9 138.7 139.3 140 141.1 142.2 148.5 150.3 153.9 158.6 166.5 180.4 191.7 196.2 202.4 206.5 210.5 211.2 211.3 215 218.2 217.9 225.2 229.3 239.9 254.7 260.2 264.8 272.8 278.7 290.1 303.7 322.7 331.7 337.6 337.5 329.8 310.1 291.2 276.5 274.9 268.5 258.9 244.9 237.7 230.5 219.9 213.7 208.7 201.4 198.3 193.9 187.3 182.3 179.8 181.1 185.2 187.9 192.8 194.9 187.1 193.6 199.6 211.4 226.3 237.8 249.8 262.8 253.3 248.9 244.5 249.3 259.9 267.2 277.4 285 295.1 305.9 317.7 331.5 346.3 362.6 383.6 409.3 405.1 400.2 397.8 396.1 397.5 398 399.5 402.1 401.6 400.5 400 400.7 402.1 402.1 401.4 401.1 401.8 402.1 403.2 406.2 408.4 409.6 409.5 407.3
144.8 138.7 135.8 135.3 132.2 131 131.1 131.3 131.2 130.6 131.6 139.4 144.5 146.4 143.9 137.4 132.8 133.3 137.8 147.3 154.1 158 161.4 165.7 170.7 174.3 175.5 173.6 171.4 170.2 170.1 171.7 173.3 172.5 169 168.8 173.8 178.6 183.4 190.5 192 189.3 183.3 174.3 160 154.6 160.7 171.3 177.7 176.2 170.4 165.4 160.6 156.9 153.2 149.1 147 146.5 147.2 145.2 142.9 141.4 142.1 144.6 145.3 145.3 147.6 152.6 153.9 153.2 153.2 150.6 146.1 138.8 128.3 120.7 118.4 117.9 116.6 116.6 116.4 116.1 115.3 116.8 126.6 131.1 134.2 136.6 139.7 143.8 145.3 144.8 140.1 137.8 138.1 137.8 143.3 147.4 150.3 152.7 159.2 163 173.2 187.6 199.1 205.4 213.3 220.1 225.8 225.7 221.2 222.5 229.2 226.5 236.8 242.8 240.9 257.3 265.6 270.7 275.5 282.7 289.1 298.9 310.5 329.2 328.4 323.8 326.1 313.6 297 283 271.9 269.7 263.2 250.5 240.6 234.3 226.1 218.7 212.3 205.2 203.1 199.8 194.5 186.6 181.2 180.2 181.5 185.5 188.8 194.7 194.2 184.6 194.6 205.6 220.7 235.1 247.3 258.3 253.6 248.1 235.8 246.8 255.9 263.5 271.3 280.7 289.9 301.1 313 326.8 340.2 355.2 370.2 395.2 404.9 399.2 395.3 393.2 392.3 393.2 394.1 395 398.5 397.7 397.1 396.2 397.6 398.5 398.1 398 399.1 399.2 399.8 401.6 404 404.8 404.4 403.1
145.4 138.6 136.1 135 133.5 130.6 130.9 131.1 130.7 130.3 130.1 130 136.7 140.5 140.6 136.7 131.6 131.9 137.1 148.3 155.9 161.1 164.3 166.5 171.6 176.5 179.1 179.1 175.4 170.7 167.7 166.8 168 168.9 165.6 163.7 168 176.4 184 191.4 193.1 187.8 181.2 170.6 158.3 154.1 159 171.4 180.6 182.7 176.7 169.9 162 155.3 150.9 146.8 143.8 142.7 143.2 141.5 140.6 140.5 143.2 147 148 147.3 150.5 153.3 155.1 152.2 151.9 149.7 145.8 137.7 126.2 119.9 118.2 117.4 116.5 115.9 116 115.5 113.9 115.7 123.5 128.6 132.8 135.4 137.8 141.5 146.3 146.1 139.9 135.1 138.8 143.4 146.6 150.9 153.8 157.8 164.3 170 179.5 192.8 205.3 212.2 223.6 231.2 239.6 242.9 237.6 232.7 233.5 236.5 245.3 247.8 248.7 258.6 268 275.6 279.5 285.3 289 295.2 301.3 311.8 315.1 311.1 306.5 304.4 299.2 286.8 273.8 265.1 260.8 255.5 243.7 236 230.5 224.7 216.6 212.1 206.4 203.3 198.5 192 180.8 180.6 180.9 181.6 185.9 191.5 195.2 184.7 184.6 197.1 214.6 231 244.2 253 249.6 246.5 239.2 240.4 251.4 256.9 266.7 274.9 280.6 294.1 306.9 319.8 333.2 344.1 357.5 385 398.9 399.9 394.7 390.2 389.3 389.3 389.5 390.3 391.3 392.8 393.3 392.4 392.9 393.3 393.7 393.8 394.6 395.6 396.9 397.7 400.3 401.3 401 400.3
144.7 139.3 136.5 134.6 132.5 130.6 129.9 129.8 130.3 130.5 129.7 129.6 129 134.5 136.6 135.1 130.9 130.6 136.1 146.9 156.7 163.8 168.6 171.2 172.9 176.9 180.6 183 181.4 176.6 169.9 165.5 163.7 164.4 162.3 161.2 162.1 172 182.6 190.8 192.9 188.6 179.9 168 157.2 152.9 156 165.1 175.7 182.4 178.9 171.4 161.6 153.6 148.5 144.1 141.1 139 138.6 139.2 141.6 142.7 147.3 152 153.5 151.1 150 151.9 152.8 151.3 150 148.3 144.1 135.8 124.5 118.8 117.4 117.6 117.1 116.5 115.7 115.3 113.6 115.1 122.8 127.6 130.5 133.8 136.2 139.8 145.4 146.9 141 134.1 144.8 150.4 151.8 151.5 153.7 159.5 166.9 174.8 184.9 191.2 210.3 218.5 234 243.5 252.3 255 246.4 242.5 242.6 247.8 255 257.4 257.1 269.6 276.3 280.4 286.6 289.8 291.7 293 296.7 301.9 306.6 309.2 301.4 300.3 297.5 292.9 281.1 266.9 256.8 251.8 245.6 237.8 232.9 227.3 223.1 216.3 209.4 203.9 199.2 192.7 187.8 182.4 179.1 178.8 182.9 187.2 191.8 191.3 183.3 186.3 205.8 226.8 236.4 243.8 246.8 243.8 240.3 231.4 241.4 251.6 260.1 268 274.8 285.2 299.1 311.6 322.7 333.9 346 363.5 391.6 398.4 395.1 388.4 386.3 386.4 386.1 386.3 387.3 387.8 388.2 389 388.4 389 389.9 389.9 390.2 390.3 391.4 393.1 395.9 398.8 398.9 398.1
146.8 141.2 136.3 133.1 132.8 132.5 132.8 131.2 129.2 129.7 129.8 129.7 129 128.8 132.2 133.9 130.7 130.4 135.7 145.3 155.1 164.4 170.2 173.5 175 175.8 178.7 181.9 184 182 177.5 171.2 164.9 161.6 159.8 159.4 160.2 166.1 178 188.4 191.9 188.2 179.6 168 157.3 150.5 152.9 158.8 168.3 175.7 175.7 169.6 160.3 153.6 147.1 141.8 139.1 137 139.5 142.6 146.9 148.9 151.6 153.6 154.8 151.3 148.9 148 148 148.3 147.8 144.8 138.5 132.5 122.3 118.1 116.8 117 115.9 115.1 114.8 115.6 117.3 113.9 114.7 122.4 129.9 133 136.1 139.7 144.2 147.5 143.4 131.9 142.7 150.8 153.7 151.9 151.8 160.3 166.3 177.3 187.4 194 202.9 225.9 241.7 258.8 262.1 266.7 258.2 251.9 249.1 256.9 261.9 263.9 264.1 268.3 279.4 286.6 293.8 297 296.8 294.4 294 296 299.2 300.6 302.4 298.8 297.2 291.9 286.6 271.9 258.2 249.2 243.9 238.4 234.8 232.4 227.7 220.5 212.2 205 199.7 194 190 183.8 181.9 179.8 177.9 183.6 186.7 189 182.6 183.8 197.3 221 232.5 237.1 239 239.5 238.2 223.5 238.7 245.5 253.1 261.4 269.2 276.6 289.6 302.6 312.1 323.5 338.3 352.7 372.9 395.6 395.1 392.1 383.7 382.8 383.2 383.1 383.4 384 384.5 384.3 385 384.6 384.6 385.5 385.8 385.6 383.4 383.8 385.2 395 393.5 392.4
146.5 140.7 134.5 134.2 134.3 137.1 144.3 144.9 144.3 142.9 140 133.3 129.4 129.2 128.4 129.4 129.9 131.1 137.2 146 153.7 161.8 169.6 173 174 172.9 173.5 176.3 179.6 181.8 180.9 177.5 172.8 166.2 160.8 159 159.4 163.6 173.6 184.3 189.3 187.1 180 169.3 157.2 151.2 147.1 153 160.7 167.2 169.6 166.4 158.6 152 146.7 142 137.2 138.1 142.2 148.3 155.2 158.9 158.4 155 152.9 149.6 146.3 144.4 144.2 145.7 144.5 140.7 136.1 129.2 119.8 116.8 115.6 115.3 114.8 114.3 115.8 119.9 123.3 122.1 113.2 114.5 129 133.3 137.6 140.5 143.8 146.4 144.8 137.4 136.7 145.9 151 150 147.5 156.3 165.1 176.6 186.3 199.9 213.8 226.9 238.3 258.5 268.7 270.3 278.6 274 261.2 265.4 267.9 279.6 276.1 286.4 291.5 294.6 303.2 305.8 303.5 300.2 294.7 291.2 293.4 294.6 294.3 289.6 288.5 284.8 279.5 273.1 263.8 250.7 243.2 239 236.5 234.2 230.1 223.9 216.1 208 200.6 196.5 190.8 186.2 178.1 181.2 177.6 180 182 181.4 181.1 181.5 197.1 215.6 229 233.6 234.1 236.2 236.9 220.4 234.6 240.5 247.7 255 262.7 270.9 276.8 291.4 300.7 312.5 324.5 348 366.4 391 394.3 392.6 385.2 380.4 379.8 379.8 379.8 380 380.3 381.1 381.3 380.5 379.9 380.4 379.5 378.3 377.3 374.6 373.6 373.8 373.9 374.7
135.8 135.9 135.8 138.8 138 142.3 149.2 151.9 151.2 146.6 142.9 139.7 134.6 128.7 128.7 128.6 129.5 132 138.3 144.7 150.9 157.2 162.9 169.7 172 170.3 168.9 169.1 171.8 174.9 178 177.6 174.4 169.8 164.9 161.2 157.7 162.3 169.6 178.5 184.5 184.4 178.6 170.7 161.7 152.2 145.5 147.8 154.6 159.8 161.7 160.3 155.5 149.8 144.6 140.6 134.9 136.3 143.3 150.7 157.6 162.3 162.5 158.5 152.8 147.6 143.5 141.1 140.5 141.9 141.6 136.5 131.6 125.2 119 115.5 114.4 114.2 113.5 114.8 116.2 122.3 125.7 126.8 126.1 112.4 122.5 131 135.7 140 142.5 144.1 143.8 140.2 131.7 136.7 144.2 146.5 145.4 155.4 166.9 176.5 188.6 203.3 214.7 226 237 254 274.7 277.5 276.1 275.1 271.4 278.7 277.3 292.4 294.8 305.5 303.9 304.2 312.9 313.1 310 303.8 299.6 293.6 288.6 289.6 289.8 286.4 282.3 279.2 275.8 270.7 265.2 257 245.9 240.4 237 234.6 231.3 226.9 220.3 212.1 203.4 196.9 191.3 186.7 183.9 181.2 178.5 178.7 179.8 179.3 178.8 185.2 196.4 210.2 222.4 230.4 230.5 230.5 228.7 220.8 231 235.2 241.3 248.9 256.2 263.8 271.5 279.5 290.2 302.9 311.1 325.9 351.5 375.3 391.6 391.8 387.7 381.2 376.7 375.6 376.2 376.3 376.9 376.9 376.7 375.9 373.5 371.1 369 367 366 364.1 363.3 361.9 365.2 365.6
145 142.3 143.1 141.7 141.4 143.9 150.7 154.5 152.9 148.6 143 138 133.8 128.2 128.2 128.4 128 135.4 137.2 144.1 149 153.2 157.4 161.5 166.9 169 165.8 163.9 163.8 165.7 169 171.4 169.9 165.5 161.3 159.3 156.2 160.7 164.7 171.6 178.5 179.8 175.5 169.6 162.8 153.9 144.4 143.8 147.9 153.5 155.7 153.9 150.3 145.1 141.3 138.3 133.3 134.2 138.9 146.7 155.2 161.3 162.5 159.3 151.5 146.1 139.5 136.4 134.4 135.3 135.5 132.3 128.2 122.7 117.3 114.4 113.3 112.9 113.5 114 116.4 121.7 127.3 129.8 129.9 121.1 111.7 124 130.1 133.8 137.5 139.7 140.5 138.6 136.2 130 135.2 141.4 145.5 155 165.2 176.7 188.5 201.2 212.9 222.9 235.5 249.4 270.1 283.9 287.8 284.1 279.8 288.9 293.8 302 309.7 314.7 314.6 314.2 318.6 316.7 315.5 309 301.4 296.5 290.1 283.9 284.4 283.8 280.9 277.5 273.8 269.3 265.4 259.7 252.1 243.7 239.6 235.3 232.3 228.1 222.9 216.3 207.3 200.9 191.7 186.7 184.8 182.4 179 177.3 178.4 178.6 183.9 193.3 196.6 200.2 213.6 225.1 226.4 224.3 216.2 229.2 231.4 233.7 238.5 242.4 249.3 257 265.2 272.9 279.6 293.9 304.7 314.7 332.5 355.7 385.3 388.7 386.8 382.7 373.8 370.8 371.8 370.6 370.2 371.4 370 368.3 366.4 363.4 360.9 359.8 357.3 355.6 355.7 355.6 355.5 355
149.7 144.8 144.5 143.5 144.6 145.6 149.3 153.1 153.6 148.9 141.8 135 130.3 127.7 127.8 127.2 127.4 128.2 136.5 145.5 149.2 151 153.6 155.7 158 163.4 164.9 161.8 158.4 158.2 159 161.5 162.1 159.5 155.8 153.8 154.5 156.1 159.3 164.3 171.8 175.5 172.2 166.6 160.3 154.1 144.4 141.3 144 147.7 149.9 149.1 145.3 139.9 137 134.6 132.2 133.2 136.2 141.1 149 156.9 160 157 149.9 143.7 138.7 133.2 127.4 126.8 127.7 126.6 124.1 119.4 116.1 113.1 112.9 113.1 113.3 114.7 116.4 121.4 126.9 131 131.1 126.1 111.6 112.7 122.1 126.5 129.6 133.9 137 137.4 135.5 132.7 130 137.9 144.9 154.1 162 171.1 180.1 196.4 207.6 221.7 233.9 248.4 264.9 283.9 290.3 292 285.3 292.6 301.6 309.7 320.3 325.9 325.8 323.3 323.1 319.2 316.8 313.3 306.3 297.2 292.3 287.2 279.8 277.4 278.9 274.9 269.7 265.5 262.7 259.6 254.9 248.6 242.3 237.6 233.2 229.5 224.8 219.1 209.7 203.7 194.4 187.9 184 180.8 177.8 176.3 176.7 177.5 184.3 192.3 195.1 196.2 204.2 215.8 213.7 215.2 224 227.8 228.3 230.8 234.1 239.5 245.2 250.8 256 266.5 274.4 280.1 290.3 302.1 320.2 337 362.4 385.9 383.1 379.1 374.7 367 366.3 362.8 359.3 356.4 355.8 355.5 355.6 354.6 353.6 352.6 350.9 349 349.1 349 348.8 349.4
154.6 147.6 145.4 144.3 146 148.2 148.6 150.1 149.7 144.8 137.6 130.2 128 127.6 127.4 127.4 127.9 127.4 132.3 143.7 150 151.5 151.3 152 153.8 156.1 159.8 161.7 158.9 154.7 153.8 153.6 154.7 154.5 152.8 150.8 152.3 154.2 157 160.7 165.2 170.1 169.4 165 158.4 151.6 144.2 139.9 141.7 143.7 144.7 143.4 140 135.4 131.4 131.6 134 137.5 139.5 138.6 142.6 151.1 154.7 152.4 147.1 141.3 136.8 131.8 125 119.6 119.4 119.8 118.5 116.5 113.3 112.9 112.8 112.5 113.3 114.4 116 120.3 127.3 131.2 131.7 128.1 121.2 112.4 113.5 120.7 124 129.2 134.9 135.4 133.3 131.9 127.8 137.6 144.5 152.3 159 168.9 176.3 187.7 200.2 214.7 233.8 249 261.8 274.5 285 292.5 293.5 300.4 303.6 312.9 324.6 338.6 338.9 333.7 328.2 322.2 317.3 313.6 309.2 302.2 294.7 288.9 284.4 280.2 272.5 270.8 270.9 264.9 258.2 255.6 253.4 249.8 244.4 239.8 235.6 230.4 226.2 221.2 214.3 207.7 198.3 190.5 184.8 180.1 175.6 175.4 176.8 178.3 181.8 187.2 191.3 194.1 198.8 206.7 212.6 218.9 221.8 224.6 224.9 228.9 231.3 235.7 239.6 244.6 251.8 259.6 265.8 273 279.9 291.9 311 322.5 346 379.1 379.1 375 370.1 367.2 356.4 353.5 349.3 347.6 345.6 345.6 344.6 344.7 344.7 342.8 341.6 340.9 339.8 340.3 341.7 341.9
159.3 153.2 150.9 147.7 145.7 146.2 147.3 146.1 144.5 139.6 134.7 129.5 128.6 127.7 126.4 127.1 128.4 128.1 130.7 137.5 147.7 152.4 152.9 150.6 150.5 153.3 155.9 157.6 159 156.5 152.5 151.4 151.4 151.9 150.6 150.5 156.5 160.9 160.4 161.9 164.5 164.3 164 161.1 155.8 148.2 143.3 140.3 137.8 140 140.8 139 134.5 131.4 131.3 133.4 140.6 148.2 147.2 141.4 140.1 143.4 147 147.3 143.4 138.3 135.1 131 125.3 118.7 115.6 115.4 115.3 114.2 112.6 112.4 112.4 112.8 113.8 115.1 116.7 119.4 127.4 131.8 132.6 128 121.9 111.7 112.5 114.2 119.6 124.2 130.3 132.7 126.7 123.3 128.6 137.1 143.9 151 156.8 166.6 173.8 185.3 198.7 212.8 226.7 244.1 261.7 269.9 279.6 293 297.7 300.1 304.9 312.7 321.9 337.7 350.1 341.4 333.5 326.9 318.6 313.2 308.2 303 296.3 291.4 286.6 281.9 278.8 274.8 262.4 262 255.4 252.7 248.9 247.5 245.8 242.1 237.1 232.7 227.2 222.3 217 210 201.8 191.8 185.6 179.1 173.9 175.1 176.9 178.4 180.4 182.9 184.5 189.3 194.1 200.5 208.3 213.6 217.5 219.2 223.8 226.8 229 231.6 234.4 239.9 246.1 252.1 258.9 265.4 273 280.6 293.8 309.4 328.5 360.2 372.5 369.2 367.3 363.5 357.6 342.7 340.5 338.2 338.7 337.6 337.1 336.9 336 334 333.1 331.3 331.8 333 333.7 335.3
161.5 159.5 154.9 151.9 147.3 145.7 145.2 145.7 144.5 143.5 141.3 141.1 139.5 131.2 127.3 128.2 127.5 127.6 128.8 137.4 144.1 150 153.3 152.7 149.1 149.8 152.6 156.2 156.4 156.5 154.2 150.3 150.8 152.1 152.4 148.4 155.8 166.3 170.6 168.1 166.1 164.9 163.3 158 153.8 147.8 142.7 141.8 140.3 137.7 134.6 133.7 131.9 129.4 130.6 135.2 143.3 153 153.2 146.4 141.7 141.3 141.3 140.9 138.9 137.4 136.2 132.6 126.5 119.3 116.1 114.2 113.2 112.3 111.7 111.8 112.9 114.6 117.9 116.8 117.5 119.7 125.3 131.1 132.9 128.9 121 114.5 111.5 112.3 115.5 117.8 123.7 123.7 122.1 127.8 132.8 135.4 143.4 147.3 154.8 162.7 173.3 184 197.5 207.2 221.6 237.5 254 268 275.5 286.6 299.8 305.1 306.1 312.6 321.7 332.5 349.6 345.7 336.6 329.7 321.7 314.3 308.2 304.5 299.7 294.6 289.9 285.1 281.5 276.6 273.1 270.4 265.9 256.8 249 243.4 242 241.7 238.7 234.6 229.9 223.9 216.8 210.1 202.2 194.5 187.2 178.5 173.5 174.5 175.3 177.5 178.7 181.3 186.1 191.6 198.3 201.2 205.2 209.2 212 216.3 220.4 223.8 226.2 228.9 231.1 232.7 240.1 245.1 250.4 257.2 265.7 271.7 284.7 296.7 313 338.1 348.2 345.2 347.1 342.9 339.4 339.1 328.2 326.3 329.6 329.8 328.3 325.9 325.7 324.4 323.7 324.1 325.1 326.1 328.2 328.1
159.9 159.5 156.3 155.3 152 147.2 144.9 146.8 149.4 152.7 153.9 153 151.1 145.7 132.4 126.2 127.3 127 127.8 136.3 139.7 144.6 148.9 150.9 150.9 147.8 149.1 154.4 156.7 156.2 154.7 150.7 148.5 151.6 150.8 147.8 153.5 162.8 172.4 178.9 175.3 170.2 166.8 161.9 154.1 146.2 142.1 144.4 144.4 142.7 139.8 133.8 131.1 129 131 135.7 145.9 152.8 154.2 151 146.2 142.3 140.6 138.4 136 134.7 133.4 130.3 124.7 120.1 115.1 113.6 112.4 111.8 111.4 112.3 117.9 121.6 124.3 124 121.6 120.2 124 128 130.1 127.9 120.3 111.1 110.4 111.1 115 117.1 116.3 119.2 128.8 131.5 134.6 134.4 141.6 151.7 157.8 167.8 178.5 185.9 194.4 203.5 215.5 229.9 245 256.2 271.2 289 290.7 298.4 303.6 310.1 320.1 328 335.6 342.1 338.4 329.6 323.6 316.3 309 303.9 300.5 296.6 293.5 287.7 283.7 280.9 277.1 272.6 267.9 263.4 253.9 243.8 238.9 236.7 235.9 235.2 231.6 226.4 218.4 209.9 203 196.7 189 180.7 174 172.4 173.8 174.9 176.1 177.8 183.8 188.8 195.6 198.4 201 206.2 209 212.9 216.8 220 223.2 225.8 228.7 231 234.9 240.1 244.2 250.5 258.3 266.3 274.3 283.9 298.3 317 333.4 336.2 337.7 346.6 337.4 327.7 322.2 312.3 318.5 318.4 317.2 316.7 316.9 316 313.4 313.8 318.2 321.3 320.9 317
158.1 156 153.8 153.6 151.8 146.8 143.8 143.9 148.3 154.8 158.6 158.1 155.4 150.3 144.9 127.7 126.4 127.2 126.6 132.5 135.6 138.1 142.1 145.2 147.3 147.7 146.7 152.5 156.5 158.3 156.8 153.2 148.6 146.8 148.5 145.7 151.8 157.3 167.6 175.3 180 180.2 170.9 162.3 154.7 145.8 141 145.5 150.2 150.3 143.9 135.7 130.8 128.9 131.2 135.5 144.8 150.5 152.8 150.9 148.4 145.7 142.1 137.9 134 130.7 128 124.6 121.6 117 114.8 114.3 111.4 111.4 111.4 113.6 120.8 124.1 126.4 127.2 126.5 124.8 123.3 124 125.1 122.7 116.7 111.1 111.3 111.1 124.4 129 128.7 129.9 133 134.3 136.8 140.4 139.7 146 154.1 167.2 177.8 185.1 192.7 198.4 208.1 222.2 234.6 248 263.6 281.7 296.1 297.5 307.5 312 310.3 321.7 324.3 329 330.3 329.9 324 318.4 310.9 305.8 300.7 296.5 294.2 290.2 287.1 284 280.2 275.6 270.6 265.6 260.4 250.6 239.7 233.8 231.9 230 229.3 227.7 222.3 213.1 203 197.2 190.9 184.7 176.6 172 171.8 173.5 174.4 175.4 179.7 185.8 191.4 194.2 198.5 202.9 208.1 210 212.8 215.7 218.6 222.5 225.2 228 231.5 235.1 240.4 244.9 251.7 258.1 266 271.4 286.2 301.7 307.4 320.2 328.1 334.5 330.2 321.1 314.7 307.7 307.3 310.5 307.2 306 305.8 304.4 302.7 301.4 300.5 303.8 301.5 301.2
155.9 152.6 150.5 149.3 149.7 145.6 143.8 142.7 145.2 151.6 155.6 156.8 155.9 152.7 148.6 137.9 126.3 127.1 126.6 126.9 131.4 132 135.9 139.4 142.6 145.7 148.2 149.8 154.3 157.7 158.1 154.9 151.7 150.5 146.1 141.6 148.4 151.8 159.4 167.1 174.3 181.4 177.2 167.5 155 143.8 138.6 141.4 150.5 154.9 150.1 140.7 133 129.9 129.4 133.7 140.1 146.3 149.7 149.2 146.6 143.4 141.3 137.7 133 128.3 123.5 119.9 117.7 115.8 114.8 114.1 111.2 110.9 111.1 114.2 123 127.3 128.9 128.8 127.5 126.2 124.6 120.8 119 118.2 111.4 110.7 110.3 111.8 125 132.2 134.8 135.2 133.6 134.9 140.7 145.5 148.6 152.5 152 163.2 174 182.8 188.2 196.3 205.1 217.9 229.8 238.9 253.2 270.2 292.7 300.2 316 319 310.9 309 315.5 318.9 322.4 319.3 320.7 316.8 312.5 305.6 301.1 296.8 293.4 290 287.7 285.6 281.8 277.4 272.8 267.4 260.7 254.6 244.6 235.9 229.9 227.5 225.6 223.8 222.6 218.4 207.4 197 191.2 186.2 179 173.4 170.8 170.2 171.6 173 176.1 181.8 186.4 190.2 195 199.3 204.7 207 210.1 212.7 216.2 219.7 223.3 225.7 227.5 230.7 235.1 240.8 245.5 252.6 258.9 265.2 281.6 289.7 296.9 310.4 317.5 318.6 319 312.5 306.6 300.7 288.9 297.1 298.1 297.8 296.8 294.5 289.1 285.3 284 283.6 284.1 285.2
159.5 154.5 150.1 146.7 147.3 145.7 142.4 138.4 138.8 144.6 150 151.5 150.9 149.2 145.4 139.8 129.6 125.9 126.6 126.3 127.4 130.8 136 140.8 144.9 147.6 151.7 157.5 159.7 158.8 158.1 155.8 153.6 151.3 148.8 143.4 141.4 146.7 151.7 158.4 165.9 173.9 175.9 169.4 157.9 144.7 136.2 137.2 145.3 152.3 151.9 145 137.5 130.6 127.7 129.8 135.9 141.3 144.9 145.6 143.8 140.2 136.4 134.9 132.6 128.2 121.6 116.8 115.3 114.5 114.6 114 111.6 111 111.1 113.3 125.7 133.1 133.7 131.3 127.5 123.9 121.3 118.7 116 112.5 110.9 110.2 110.3 110.7 121 128.3 135.4 137.4 134.6 135.2 143.3 150.2 154 156.9 159.2 163.3 170.5 179.1 186.2 194.2 201.8 212.3 225.5 235.9 245.2 258.7 277.5 294.7 302.1 313 316.5 307.5 306.5 311.7 312.6 314.6 312.4 311.4 310.3 305.8 300.9 296.4 293.4 289.9 287 284.6 281.8 278.2 273.8 268.6 262.3 256.6 248.6 241 233.5 228.8 221.5 220.6 218.9 217 213 201.9 191.3 186.8 181.3 176.2 172.4 168.8 169.8 170.5 173.3 177.8 181.5 187.4 191.5 195.3 200.1 204.4 207.5 210.9 213.3 217.2 220.3 222.5 224.7 227.6 230.8 235.7 241 245.7 252.2 258.1 265.9 284.2 290.3 295.9 296.8 302.5 313.3 305.5 299.5 290 287.4 285.6 284.8 284.6 285.6 281.4 274.3 267.8 263.9 265.2 266 264.9
