ncols 200
nrows 82
xllcorner 280000
yllcorner 812750
cellsize 50
444.6 439.1 431.9 432.6 435 432.6 429.6 427.4 425.5 419.9 421.7 427.2 426.5 424.7 424.6 424.1 422.7 422.5 423.6 426.3 423.9 431.9 437.4 437.8 438.1 438.9 441.1 440.6 437.5 436.6 439.5 440.9 439.2 435.2 432 424.5 412.5 408 401.3 394.9 388 375.2 372 363.1 359.1 358.4 357.7 357.2 359.4 366.3 376.7 389.7 392.1 394.4 399.6 409.3 417.8 425.9 432.2 437.4 444.5 450.9 460.1 472.5 482.1 489.9 497 500.7 504.3 508.3 512.6 518.8 524.7 528.9 529.8 530.8 533.7 534.7 534.2 532.6 527.7 521.7 518.6 517.8 515.4 512.3 508.2 505.4 502.7 500.4 497.5 497.7 502.4 506.5 512 517.2 523.8 529.6 536.1 543.9 553.1 559.4 565.8 569.8 573 577.7 581.9 584.2 585.6 586.9 590.2 594.4 599.4 602.9 606 611.3 613.7 615 614.2 610.2 605.3 600.4 594.8 588.4 579.1 580.3 583.6 588.5 592 593.9 591.4 582.7 570.6 559.5 548.2 536.7 527.2 520.9 516.2 511.4 506.5 501.8 496.6 490.9 482.9 474.3 466 458.6 450.7 445.3 444.4 441.6 444.1 452.5 451.4 452.5 457.3 460.1 465.9 471.2 481.4 488.2 493.7 497.4 501.3 504.8 508.6 512.8 510.2 503 495.2 491.2 491.4 487.2 479.6 477.8 476.5 474.7 466.9 457.1 453.3 450.8 450.5 444.5 442 436.2 428.8 423.1 418.2 409.2 400.9 389.9 380.8 370.1 359.6 347.9 338.8 327 320.8 313.7
442 438.9 432.2 417.1 432.5 430.8 427.4 425.1 423.5 417.4 419.2 425.7 424 423.1 419.9 419.9 418.3 418.9 421.5 424.3 420.4 424.7 429.7 429.9 432.1 430.2 427.1 429.9 428.3 425.8 428.5 430.4 428.9 432.4 427.6 419 413.8 402.1 393.5 385.6 376.6 372.9 366.3 360.2 359.4 358.8 359.9 379.7 372.9 362.3 368.7 384.7 393 395.6 403 411.7 420.8 427.3 433.2 438.5 445.8 452.8 464.4 476.1 485.5 495 499.8 504.3 507.5 510.1 515.2 522.7 528.7 530.1 528.5 528.9 530.6 530.8 530.3 526.4 521.4 517.1 516.1 514.6 511.3 507.9 505.1 503 500.5 498.6 498.8 500.9 504.8 508.7 514.1 521 526.7 532 538.4 544.3 553.1 561.5 570.7 576.4 581.9 586.9 589.8 592.8 594.2 596.1 597.1 601.4 606.8 610.5 613.4 617.2 620.7 621.6 618.9 614.3 609.2 604.6 599.4 594.1 588 589.7 593.4 596.2 597.4 596.8 591 581.2 569.1 557.4 546.2 532.8 526.5 520 516 512.1 507.5 501.6 494.6 487.8 479.8 469.8 463.2 456.4 451.2 444.8 446.8 449.9 456.6 458.4 458.9 459.9 464.5 467.9 473.3 481.9 489.4 495.3 501.3 504.8 507.6 510.2 514.2 514.6 514.5 506.2 496.5 489.3 487.7 483.5 479.3 478.1 483.7 480 466.8 458.9 452.3 448.5 444.3 444 440.6 432 424.3 421.3 411.9 408.4 396.3 382.8 370.9 361.7 351.2 341.2 331.1 322.1 316.4 311.2
439.6 436.6 430.3 414.6 426.6 428.4 425.1 423.1 420.6 414.6 423.8 422.8 420.6 420.1 417.7 414.2 415.5 413.9 417.8 420.3 422.9 417.4 416.2 418.3 420.4 417.8 416.1 415.4 415.1 411.2 413.9 416.2 421 426.5 420.2 410.7 401.2 392 379.4 373.9 367.9 364.5 362.6 360.5 358.9 364.5 379.1 393 396.9 387.3 369.1 377 393.1 396 404.4 413.2 422.1 429.4 434.2 441.1 446.7 454.8 466.5 478.3 488.7 498.6 503.3 507.9 508.8 512.1 518.9 527.7 533.1 528.2 526.6 526.9 527.3 526.9 524.4 520.2 516 514 512.9 510.4 507.3 504.4 503.1 501.2 499.4 499.5 500.5 502.5 506.7 511.1 515.6 523.2 529.3 534.6 540.7 547.5 557.3 567.4 577.6 585.5 591.8 596.3 599.7 601.9 602.4 601.7 604.2 608.9 614.5 617.8 620.6 623.6 626.7 627.3 622.6 616.7 612.5 608.2 603.3 598.1 594.7 597.1 599.9 599.9 598.2 594.9 588 578.7 566.6 554.6 542 531.2 524.9 519.8 516 513 507.2 498.6 491.8 486.1 478.1 471.1 459.3 453.2 447.3 451.9 454.1 458.7 462.7 465.3 465.8 469.8 474.3 477.3 483.1 487.9 495.9 501.8 507.9 511.4 514.9 516.9 517.7 517.8 513.6 502 495.8 491.4 490.1 485.6 480.8 482.9 484.6 477.5 465.3 457.6 450.9 441.5 441.1 441.2 437.8 429.5 412.7 410.6 404.9 401.8 387.4 373.9 363 354.8 347.6 338.2 328.3 319.4 313.8 308.5
438.4 432.5 426.6 419.3 412.8 425.3 423.1 421.2 417.7 420.6 422.4 418.4 415.2 414.9 413.7 412.5 409.8 411.5 412.4 415 419.5 420.3 417 417.1 406 407.7 410.8 409.6 403.1 400.9 400.5 405.5 409.9 413.4 404 393.7 385.6 377.4 374.6 371.1 364.8 362.7 361.5 361.1 364.2 381.4 393.8 398.7 400.5 400.3 380.8 372.6 391.1 396.6 405.5 415 424.2 430 434.6 442.5 449.1 456.9 469.4 480.6 492.2 499.8 506.1 508 510.4 516.4 524.4 533 531.2 526.2 523.8 523.5 523 521.5 518.1 515.2 513 511.1 509.4 507 504.3 503.1 501.3 499.8 499.7 500.7 502.4 505.1 510 515.1 519.5 525.8 531.6 537.8 544.4 553 561.9 574.2 585.9 592.9 600.3 604.1 608.4 609.9 609.3 608.2 612.1 616.6 622.1 625.2 627.1 629 631.4 630.9 625.4 619.3 614.9 611 606 601.5 600 601.3 601 598.4 595 590 584 574.5 564.3 552.1 538.8 530.4 522.7 518.4 515.9 512.4 503.6 496.1 490.5 484.7 476.1 465.8 455.5 449.4 458.8 459.9 461.4 465 467.8 471.1 473.6 477.2 481.4 487.2 491.5 493.6 501 506.6 513 516.7 519.6 520.7 520.6 519.4 512.6 504.6 501.2 497.2 494 486.2 480.9 485.3 482.4 474.6 461.9 455.2 445.9 440.1 436.9 435.4 430.2 419.7 410.3 401.1 394.3 388.4 378.4 370.6 358.8 354 342.9 332.2 324.8 317.1 311.6 304.5
438 433.6 432.7 423.5 414.2 412.9 418.4 419 416 419.2 417.8 413.5 409.8 409.4 407.7 406.7 405.6 407.9 406.5 407.8 412.3 411 408.4 408 404.9 387.5 399.9 393.2 398.3 395.5 388.5 383.4 389.2 392 386.8 379.3 379.1 376 372.4 364.1 363 362.5 358.8 367.5 384.7 395.6 399.7 402.1 403 402.9 386.5 368.9 385.9 396.4 406.2 414.9 423.4 429.3 436.2 442.8 450.7 458.8 470.9 482.5 492.9 500.4 505.8 509.9 514.3 521.4 529.4 533.9 528.5 523.6 521.1 519.9 517.6 515.4 513.3 511.7 510.1 508.1 505.8 504.3 503.2 501.9 500.9 500.8 500.2 502.2 504.4 507.1 513.1 518.3 523.5 529.3 535 542.4 549.1 557.4 570.2 582.3 592.3 600 607.7 612.6 616.1 617.3 616.8 616.3 619.7 625.6 630.1 632.3 633 633.9 634.7 632.5 626.6 620.4 616.5 612.1 607.8 604.5 602.3 601.3 598.1 593.9 590.2 585.2 578.6 570 560.6 548.9 536.8 528.5 520.7 517.2 514.8 509 501 494.1 489.3 481.7 470.9 461.2 452.1 459.2 467.1 465.2 467.3 470.4 474.3 476.4 479 484.2 489.7 494.4 497.4 500.7 503 509.1 515.7 518.8 519.1 520.6 520.3 517.9 514.3 507.2 502.6 499.1 497 489.5 482.3 480.6 477 469.6 459.4 451 442.4 436.8 433.4 428.2 421.4 414.3 404.3 395.6 389.5 381.3 371.9 363.3 354.6 349.1 338.3 327.8 322.8 316.4 311.1 301.8
438.6 437.2 433.3 428.7 422.9 407.3 408.1 416.3 404.2 416.8 412.7 408.9 406.7 404 403.8 402.5 403 402.2 404.9 400.5 405.3 391.3 377.6 376.9 374.8 374.9 373.1 373.2 382.3 382.4 379.5 375.6 376.1 377.9 375.9 369 366.9 366 364.7 363.7 359.8 368 376.8 383.6 397.3 401.1 402.9 405.5 406.3 405.7 400.4 388.3 380.9 396.5 408.3 417.2 425 430.4 435.9 443.1 452.4 460 470.7 481.8 493.2 501 505.6 510.7 518.9 526 533.6 531.5 525.6 520.8 518.4 515.2 512.3 510.7 509.4 508.4 506.8 505 504.1 503 501.9 502.1 502 501.3 500.3 503.9 506.6 511.2 518 522.7 528 534.3 540.2 546.7 555.1 565.7 577.8 588.9 598.6 606.9 614.3 620 623.8 624.9 624 625.5 629.2 634.1 637.1 637.5 637.5 637.1 635.3 631.4 626.1 621.1 616.8 612.9 609.4 606.9 603.1 598.7 593.9 588.6 584.1 579.5 572.8 565.5 556.6 545.4 534.1 526.5 519.3 516.1 512.9 506.6 498.6 493.3 488 480.6 466.6 454.7 461.8 476.3 472.8 470.8 473.2 476.3 480.9 484.5 487.3 492 496.8 501 503.4 503.7 507 512.1 517 517.8 517.9 519.2 518.3 516.3 517 510.1 503.1 498.5 496.3 486.6 479.8 476 471.8 467 455.3 447.5 438.3 433.7 429 419.8 413.2 407.6 399.4 389.2 383.2 376.7 367.4 358.5 350.7 344.8 333.9 324.8 319.7 314.3 312.2 301
439.6 436.7 432.1 426.9 421.6 417.4 410.4 403.4 403.3 411.2 407.1 404.6 402.4 400.8 398.9 397.4 397.7 399.3 399.9 398.5 382.8 377.2 375.7 373.2 372.8 370.6 373.3 374.6 367.7 366.8 367.1 364 373.7 369.1 368.4 363.1 363.9 361.4 367.1 371.8 379.7 386.1 396.7 401.3 404.3 406 407.6 408.9 408.9 405.4 400.8 387.4 379.9 396.2 409.8 418.8 425 431.1 437 445.1 453 460.9 469.2 480.7 493.1 500.8 507.2 516 522.9 528.2 532.5 526.3 520.8 516.8 513.3 509.9 507.9 507.4 506.3 505.2 504.3 503.8 503.3 502.6 502.6 502.5 502.3 502.2 502.6 505.1 510.5 514.7 522.7 527.1 532.5 540.3 546.9 553.1 561.8 572.4 583.5 594.3 604.3 612.7 620.3 627.4 630.5 632.4 633 635.5 638.1 641.1 642.5 641.3 640.6 638.7 634.9 630.3 625.8 620.9 616.6 613.4 610.4 606.7 601.7 595.6 589.7 582.6 577.1 572.5 567.1 559.8 551.7 540.9 531.6 523.5 517.1 514.3 510.6 504.8 497.3 492.2 486.4 477.8 462.9 454.9 472 480.9 482.2 480.7 479.4 481 487.1 493.5 496 499.4 503.8 506.7 507.4 508.5 512.7 516.3 517.3 517.2 516.8 516.5 515 515.5 521.7 513.3 500.2 497.9 494.2 494.7 482.8 474.5 468 463.1 449.3 441.9 436.7 430.9 423.1 413.7 403.8 399.6 395 386.7 377.1 369.2 361.5 353.9 347 338.3 328.2 322.5 317.5 311.6 306.9 295
440.6 436.4 431.1 425.2 419.1 415.1 411.2 404.4 402.9 396.8 400.8 400.1 397.5 396.6 395.5 394 393.5 394.1 388.9 379.1 376.6 374.5 373 373.4 372.3 383.4 386.2 385.9 383.9 382.9 380.2 380 377.3 373 373 371.5 380.7 387.1 394.2 396.2 397.6 399.9 407.6 410 409.5 410.2 411.1 411.3 409.6 405.4 399.8 392.3 379.5 398.3 411.2 419 425.7 432.6 436.7 445.3 454.3 461 469.7 480 492.5 500.3 508.6 518.8 522.3 523.8 523.1 518.8 514.7 510.9 507.8 505.7 504.4 504.3 503.1 503.6 503.2 503.5 502.9 502.9 502.9 502.8 502.6 502.4 504.9 508.7 514.4 521.2 526.1 532.2 539.5 548 553.8 559.4 569.9 580.4 590.4 599.7 609.4 619.1 627.8 634.2 637.4 639.4 642 644.1 645.8 647.1 646.7 644.7 641.5 638.2 634.1 629.1 624.3 619.7 615.5 612.8 609.2 605 599 591.8 584.4 576.7 571.6 566.6 561.1 554.2 545.6 536.4 528.3 520.2 514.5 511.3 508 501.9 495.8 490.3 483.9 471.6 460.2 457.9 476.1 482.2 483 483.9 484.2 488.8 496.2 498.7 501.5 504.4 509.4 510.1 511.5 514.1 516.3 517.7 518.3 515.9 511.9 510.1 510.7 515.6 521.3 510.8 498.6 496.8 500.7 501.9 489.7 477 465.1 456.4 448.2 440.2 437.8 430.7 423.8 412.3 402.1 397.1 390.6 383.3 373.5 368.1 360.9 348.7 339.8 330.6 323.8 320.2 316.7 309.4 304.2 293.6
441.3 436.1 430 422.5 416.2 412.1 408.6 403.8 398.7 391.2 396.1 394.5 393.5 392 392 391.3 388.3 382.4 379.5 375.4 374.3 374.3 373.9 381.9 391 390.8 390.2 388.9 386.8 386.7 386 383.7 382 381.2 380.8 388.8 396.1 399.8 401.8 403.7 406.5 413.1 414.9 413.8 413 413.2 413.1 412.7 410.3 405.6 400.4 391 381.3 400.6 411.6 419.5 425.5 431.9 438.6 445.6 453.4 461 470.5 479.9 490.4 499.2 508.1 513.4 515.3 515.5 513.6 510.5 508.2 505.1 502.7 501.7 501.3 500.9 501.6 502.1 502.4 503 502.6 502.9 503.1 503 502.9 504.2 506.8 511.9 518 524.7 531.8 539.4 548.4 554.7 558.6 567.1 579.2 587.8 596 605.9 615.3 625.2 634.9 640.9 644 646.3 648.2 651.1 652.1 651.6 650.4 646.4 642.5 637.7 633.6 628.1 622.7 618.3 613.9 610.9 606.9 602.2 595.4 588.5 579.6 571.8 566.3 561 556.8 550 541.4 531.2 524.4 516.5 511.4 508.5 505.3 499.8 494.9 489.1 481.9 470.7 458.3 465.1 473.9 479 482.8 486.8 489.8 495.3 499.8 504.9 507.8 510.2 514.6 515 514.8 516.7 517.7 518.9 521.2 515.6 510.5 505.8 505.6 509.5 507.9 501 495.4 497 505.4 501.6 492.9 480.7 464.2 456.9 450 444.9 440.9 432.7 421.3 413 404.7 398.5 387.5 381.6 376.4 371.4 356.9 344.7 332.6 328.3 324.2 322.1 316.4 312 305.1 294.9
442.1 435.2 427.7 419.9 413.5 409.8 406.1 401.9 399 385.6 387.4 385.4 388.5 390.3 387.1 385.1 383.3 380.6 378 374.8 375.2 376.5 390.7 393.2 391.4 390.9 390.3 390.8 390.3 391.6 390.8 389.2 390.1 388.8 394.9 402.8 406.4 405.2 407.8 410 416.3 419.4 418.9 417.7 416.8 415.6 415.8 414.1 410.4 406.1 401.1 382.8 387 405.9 414.1 421.5 427.9 433.9 438.9 444.9 452.2 460.4 469.3 478.5 487.3 494.3 500.8 504.5 505.8 505.6 504.7 502.7 501 499.4 498.4 499.1 499.2 498.4 500.8 501.3 501.8 502.2 502.4 502.8 503.1 503.2 503.6 506 511 516.6 524.4 533.9 541.1 550 558.2 562.5 567.9 579.8 587.8 594.4 602.2 611.4 619.6 631.5 641.3 647.7 650.4 652.2 654.2 656.8 656.7 655.3 652.1 647.9 643 638.1 633.1 627.3 621.4 617.1 612.5 608.1 604 598.3 592.5 585.1 574.7 567.8 562.2 556.8 552.7 545.3 535.8 526.5 519.3 512.7 509.4 506.8 503.4 498.9 493.8 487.8 481.5 470.4 459.3 471 477.8 482.6 486.9 489.4 494.2 500 504.7 510.6 513.7 515.5 517.5 516.6 516.7 518 520.2 521.9 524.6 518.8 509.7 501.4 500.4 499.9 498.2 493.6 493.5 501.6 504.9 506.3 497.7 483.6 465.6 462 454.4 447.7 440.4 436.7 423.7 417 406.6 399.1 391.9 385.7 381.5 373.4 355.6 343.9 337.7 330.5 325.2 322.4 317.5 314.1 303.1 291.6
441.8 433.7 425.4 415.8 410.8 407.3 402.9 399.9 396.8 386.9 384.3 383.1 381.1 381.5 382.8 385.3 381.7 378.4 375.9 376.6 393 396.3 394 392.9 392.5 391.3 394.7 399.1 401.7 402.5 402.3 400.9 401.5 405.5 408.5 410.6 412 411.8 414.9 419.6 423.5 422.8 421.9 420.6 419.5 418.3 417.7 414.9 410.3 406.1 393.9 384.3 396.5 409 416.6 423.2 427.5 432.9 438.2 444.5 450 458.3 466.1 473.6 480.9 485.7 489.8 494.1 495.4 495.3 495.2 495 494.8 495.3 496.4 496.9 497.3 498.4 500.1 501 501.8 501.6 501.4 502.2 503.1 503.6 505.7 511.1 518.4 524.2 535.1 542.6 550.6 558.2 565 573.1 582.4 589.8 595.1 601.5 609 616.7 626.9 638.3 647.2 652.7 655.4 657.2 659.4 661.2 659.5 656.3 653.2 649 643.7 638.5 632.7 626.5 621.1 615.9 610.7 606.2 601.8 596.6 590.4 581.7 572.1 566 559.4 554.4 547.3 540.3 531.4 523.3 515.4 510.9 508.5 505.6 502.6 498.5 492 487.3 478.9 463.6 464.8 476.7 481.9 486.9 489.9 493.5 501.4 506.4 510.6 515.7 517.7 518.4 519.7 519.7 521 526.2 527.7 529.4 527.6 518.3 507.1 497.4 494.5 491.1 488.9 489.2 495.7 500.3 507.5 506.5 495.9 486.3 472.6 465.6 460.7 454.9 449.8 442.7 430.8 424.4 412.9 401.5 397.2 391.3 382.4 368.1 362 354.6 345 333.1 326.5 318.8 313.8 310.4 299.4 290.8
440.3 432 421.8 412.8 407.7 404.3 399.4 396.7 393.9 392.9 390.4 388.8 384.6 379.4 379.4 378.6 377.6 375.8 390.7 390.5 392.9 394 395.6 396 396.9 401.2 407.8 411.7 413.2 414.2 416.1 414.3 413.1 415.2 417.6 420.1 419 420 424.7 428.8 429.3 426.7 425 423.6 421.9 420.3 417.8 414.5 410.5 406.3 393.8 387.1 391.7 408.7 417.3 423.4 427.6 431.2 437.8 443.4 448.9 454 460.3 467.6 472.6 475.6 479.1 482.3 484.9 485.6 486.8 489.3 490.5 492.4 493.5 493.6 495.1 497.4 499 500.3 501 501.9 502 502.7 504.2 506.5 510.7 519.2 525 533.3 544 551.5 560.2 566.2 574.4 586 594.2 597.9 603.7 608.6 615.8 623.3 633.7 643.6 651.6 657.1 659.6 662.3 664.2 663.7 661.3 657 653.5 649.6 644.3 638.8 632.2 625.2 619.7 614.8 609.3 604.7 599.6 594.3 588.7 577.7 570.5 563 556.6 550.1 543.8 536.8 528.5 520.9 514.5 509.7 506.6 504.4 500.9 494.7 489.1 480.9 470 462.7 473.9 480 486.9 490.3 493.9 499.6 505.5 512.4 516.4 518.8 519 520.6 522.6 526.3 530.4 536.7 537.2 532.2 526.8 517.1 504.3 491.1 488.6 485.8 484.2 486.9 491.8 498.3 504.4 503.1 494.1 481.2 478.2 466.9 463.6 458.4 453.9 443.5 436.3 430 415.3 406.8 406.6 398.2 382.5 373.6 370.2 362.6 350.3 339.2 329.9 318.3 310.3 304.8 297.4 290.5
437.6 428.9 418.6 411.2 405.4 399.8 395.5 392.9 391.4 390.7 389.7 388.2 377.7 377.8 377 376 385.3 394.2 396.7 396.4 397.1 399.7 402.9 405.9 410.2 415.2 420.3 424 425.5 424.6 426.5 424.3 424.2 426.6 428 429.4 427.8 430 434.6 436.7 433.2 430.2 427.9 425.9 424.1 421.2 417.9 414.2 409.8 406.2 391.6 389.2 402.5 397.4 410.2 419.1 425.6 430.4 436.8 442.2 446.3 451.2 457 460.7 464.2 468 470.5 472.7 476 479.1 482 484.9 487 490.1 490.9 492.7 495 497.3 499.8 500.9 501.6 502.1 502.6 503.8 506.6 510.8 517.2 524.7 532.2 540 549.8 561.5 567.7 574.3 583.7 596.4 603.9 607.4 610.8 615.7 622.4 630.1 639.7 648 655.8 660.6 663.6 666.5 667.8 666.6 662.9 657.6 654 650.1 644.8 639 631.4 623.9 618.5 613.9 608.2 603.5 598.6 592.9 586.7 578.1 569.5 561.6 554.9 548.7 542.5 535.4 526.4 518.1 512.1 508.9 506.5 504.1 500 495 487.5 480.1 466.4 464.5 478.3 486.6 488.8 493.4 498.9 504.5 511.1 515.8 518.9 520.7 522.9 527.2 532.2 536.8 542.4 543.8 542 534.1 524.5 512.5 498.7 486.8 482.8 480.8 481.2 483 488.3 495.2 500.5 495.4 484.5 483.3 484.2 469.3 460.7 458.2 452.4 451.9 442.4 430.1 420 418 417.8 399.7 391.8 389.4 383.5 373.3 358.8 346.9 337.4 323.9 310.4 306 296.5 287.4
435.5 426.2 414.8 407.3 401.2 394.5 392.3 392 390.8 388.7 387.9 378.5 379.6 379.2 378.6 392.5 397.5 400.4 406.8 409.7 409.5 411.2 417.6 420 423.1 427.6 431.1 435.3 435.2 435.5 436 435.1 435.4 437.7 438.9 438.6 438.2 440.9 443.9 441.6 436.2 431.9 429.6 426.9 424.3 421.6 418.1 414.3 410 400.9 391.2 393 411.6 414.2 409.8 406.3 411.5 418.9 432.7 439.1 443.9 449.1 450.5 453.7 461.6 462.4 464.9 467.1 470.5 472.5 477.2 477.5 485 488.5 490.4 492.7 495.6 498.2 500.6 501.5 502.3 502.8 504.1 506 510.3 516 523.4 530.4 539.2 547.4 558 568.3 575.1 581.8 596.1 606.1 611.4 614.8 618.3 623.4 629.9 636.7 644.2 651.8 659.5 663.8 667.5 670.6 671.3 668.2 664 659.5 655.9 650.4 644.7 637 629.6 622.7 617.6 613.3 608 602.7 597.6 591.2 583.8 577.2 568.9 560.1 554.7 548.6 541.9 534.3 526.6 518.8 513.5 510.4 508 505.3 501.6 495.4 489 477.7 464.9 472.3 482 488.4 492.7 497.7 502.8 509.3 513.9 519 522.7 526.5 532.8 538.5 544 547.3 552.2 552.7 545.1 532.8 522.3 509.1 495.2 483.9 479.9 477.5 477.7 479.5 485.8 490.8 494.5 485.7 482.3 480.6 480.7 469.8 458.8 456.7 457.1 452.2 442.3 432.8 425.7 428.9 419.8 413.3 408.8 400.9 390.3 385.1 367.2 352.3 340.9 324.7 314 304.9 294.7 284
431.5 421.5 410.7 402.4 396 392.2 391.3 387.3 387.4 387 380 380.2 380.8 382.5 393.3 400.2 407.7 413.3 417.1 422.4 426.7 430.5 430.5 430.9 434.4 439 442.3 444.1 444.6 445.3 445.2 446.1 448.1 449.1 449.1 449.1 449.9 451.6 449.7 444.2 437.7 433.5 430.6 427.1 424.3 421.4 417.8 413.5 404.9 394.2 396.4 405.6 415.1 419.3 422.8 424.2 423.4 421.8 416.6 420.4 428.4 428.3 434.9 444.4 451 454.6 457 456.8 465.9 472.3 478 482.8 486.5 488.7 490.7 493.8 496.9 499.4 501.2 502 503 505.1 508 511.2 516.9 523.9 530.1 539.6 547.6 555 564.6 573.4 580.7 591.4 605.3 614.1 618 621.4 626.7 631.1 636.6 642.5 648.6 656 662.5 667 671.1 674.5 673.2 669.1 665 661.2 656.9 651.2 644.1 634.2 627.8 621.8 617.4 613.1 608 603.1 596.1 589.3 582.3 576 569.1 560.4 554.9 548.4 541.3 533.1 525 518.7 514.4 511.6 508.8 505.4 501.6 496 486.6 472.6 467.2 481 489 490.4 496 500.4 506.2 512.3 517 522.2 527.5 534.9 544.1 551.4 554.7 558 559.8 556.1 548.3 534.3 520.7 507 493.6 482.3 476.7 475.9 474.3 475.2 481.1 482.8 482 478.6 479.9 475.7 470.8 469 461.3 457.5 457.4 452.7 441.8 434.7 430.9 424.7 424.9 429.5 424.8 411.2 411.8 400.8 376.5 360.5 339.2 321 314.5 301.2 291.3 281.6
426.8 416.7 405.9 398.1 392.7 391.5 387.7 387.3 384.2 380.6 380.7 380.2 386.7 395.2 404.5 410.8 415.8 422.1 430.9 434.9 438.2 439.3 438.7 441.9 446.6 449.4 451 452.7 453.9 454.2 454.5 456.1 458.4 458 459.8 459.4 461.4 459 452.4 444.8 438.5 434.8 431 427.3 424.3 420.9 417.4 410.1 397.8 399.8 410.6 412.5 418.1 421.7 425.2 428.1 430.7 432.9 434.9 436.4 436.6 439.9 442.8 436.1 444.5 456.9 461.5 465.7 469.9 474.3 479.8 484.1 486.8 489.3 492.3 495.5 498.9 500.9 502.2 503.2 504.9 507.8 512.6 516.2 523.4 531.6 538.6 547.2 555.5 562.5 571 581.3 588.1 600.1 611.8 619.8 623.4 627.9 633.1 637.3 642 647.7 653.4 659.5 664.5 668.7 673.7 675.8 673.1 668.9 665.6 662.3 657.6 651.6 643.3 632.6 626.3 621.4 617.2 612.9 608.4 603.8 595.8 588.3 581.3 575.2 569 561.1 555.4 548.6 540.8 532.4 525.9 519.1 515.6 512.5 510.4 507.3 502.1 495.7 487.7 471.4 472.5 485.9 490.6 495.6 499.6 504.1 510.6 516.7 521.7 526.6 534 544.8 554.9 561.4 565.3 567.5 563.8 557.7 548 529.6 519.3 504.9 490.3 478.7 475.4 473.1 470.9 471.3 472.9 472.7 473.9 475.1 473.6 470 467.2 466.4 459.7 456.6 452.1 449.6 440.4 433.5 426.9 425 435.2 435.3 432.8 432 426.1 406.7 382.3 359.2 341.1 322.6 309.8 297 287.7 277.9
422.6 411.1 400.5 394.5 390.6 387.9 385.1 385.9 382 379.9 380.9 388.2 396.5 404.3 411.8 417.6 427.2 438.4 440.1 442.2 446.4 446.3 445.9 449.3 454.3 456.7 459.2 460.6 461.3 461.4 461 463.9 466.7 469.8 470 469.5 467.9 462.1 453.6 445.1 439 435.3 431.2 427.4 424.2 420.6 414.8 400.2 404.2 406.9 413.1 417 420.3 423.4 426.8 429.7 432.2 434.7 437.2 439.9 442.6 445.7 448.7 451.1 442.3 452.2 462.2 467.7 471.5 476.1 481.7 485.1 487.6 490.5 493.8 497.1 500.6 502.5 503.7 505 508.5 512.4 517.2 523.6 530.4 536.7 547.8 556.9 562.8 569.4 578.4 586.7 596.4 605.7 614.3 622.9 626.8 632.2 636.9 641.1 646.1 650.7 656.8 662.6 665.9 668.8 673.2 674.2 671.5 667.9 665.5 662.3 657.8 650.8 642.6 633.1 625.8 621.3 617.1 611.8 606.2 601.2 594.8 587.9 580.5 574.7 569.1 562.1 556 548.6 540.4 532.3 525.4 520.5 516.8 513.8 512.3 507.5 502.6 496.3 488.7 471.5 481.8 489.5 494.9 499.7 503.5 508 514.2 519.9 525.8 534.5 542.3 553 565.1 570.7 572.4 571.3 566.4 556.8 543.7 528.8 517.2 502.9 489.5 477.9 473.5 469.9 467.3 467.4 465.9 465.9 467.4 467 466.7 462.3 459.5 458.7 455.6 451.8 444.8 445.3 439.3 429.7 425 435.8 440.1 438.9 435.6 432.3 422 404.6 383.4 362.2 340.6 321 307.4 295.9 285.3 273
415.6 405.2 396.6 389.8 387.4 386.2 385.7 382 382.6 380.4 384.3 398.2 406 413.7 421.7 430.3 440.3 445.6 446.1 449.7 452.5 451.8 452.2 455.5 460.6 463.6 464.5 466.7 467.5 467.8 468.2 473.4 478.3 481.1 480.7 477.1 473.1 463 453.1 445.1 439.4 435.5 431.2 427.2 423.8 420 400.2 405.8 413.6 412 416.5 419.4 422.5 425.3 427.8 430.7 433.6 436.4 439.1 441.9 444.7 447.6 450.7 453.8 456.5 446.8 462.8 469 472.6 476.7 481.6 485.3 489.2 493.1 495.6 498.5 501.2 503.5 505.5 507.9 512.8 518 522.9 530.5 536.6 546.2 557.3 566 570 576.3 583.8 591.2 597.3 605.5 613.4 622 628.7 634.7 639 643.3 647.2 652.1 658 662.4 664.1 667.3 671.1 671.1 669.2 666.5 664.4 662 657.3 650 640.9 632.1 625.3 620.1 615.2 609 604.2 599.5 592.4 586.3 580.2 574.5 569.4 563.4 556.1 549.3 540.8 532.4 526.2 521.5 518.1 516.1 514.2 508.2 503.1 496.9 489.4 474.5 483.4 495.8 499.2 503.9 507.5 511.9 518.5 524.6 531.3 541.3 552.4 564.2 572.3 576.7 576.5 572.8 566.4 553.2 537.7 528 518.1 499 486.4 476.7 471.8 467.7 463.6 459.1 460.1 458 459.2 460.5 459.9 456.7 453.1 447.6 445.2 441.2 435.1 439.9 433.9 427.9 429.6 435.6 436.4 432.1 426.2 420.5 411 392.5 383.3 366.1 336.8 318.6 304.8 294.1 284 270.4
409.6 400.1 391.1 388.4 385.5 383.6 383.2 382.9 382.6 381.8 397.8 407.6 413.7 423.9 432.2 441.2 448.1 450.4 452.4 457.3 458.3 457.2 458.6 461.1 464.4 468.6 470.9 472 473.4 475.8 477 487 488.7 488.6 487.9 483 474.3 463.3 451.8 444.6 439.4 435.2 430.8 427.1 424.2 418.3 401.6 416.1 417.5 417.6 418.3 421.4 424.1 426.9 429.2 431.8 434.6 437.5 441 444 446.9 449.6 452.7 456 459.1 460.3 457.6 469.1 473.8 477.4 481.5 486.6 491.3 494.9 496.7 498.9 501.7 504.1 506.5 511.9 518.4 524.1 529 536.4 543.6 554.6 565.1 572.9 576.8 581.4 587.6 593.2 597.4 603.1 611.3 620.2 628.1 634.9 639.1 643.1 646.7 651 655.1 658.1 661 664.3 668.1 668.2 666.7 665.1 663.5 661.4 656.1 648.3 639.2 631.4 624.3 618.7 612.6 606.6 601.9 596.7 590 583.9 579.2 574.3 569.9 565.4 558.6 550.2 541.1 533 527.3 522.5 520.1 518.1 514.6 509.8 504.1 497.7 490.8 475.5 487.4 498.2 502.6 506.7 510.8 515.9 523.6 531.5 539.1 549.8 562.2 570.9 578 580.7 577.8 571 560.5 545.7 530.6 523.7 509.5 494.1 482 474.8 468.2 464.9 458.3 455.2 453.7 453 452.3 453.4 450.6 448 443.1 438.4 434.1 428.8 427.7 428.7 425.4 425 428.3 430.5 425.7 420.1 414 408.4 399.3 384.4 372.6 353.7 331.4 313.2 302.8 295.8 284.4 264.9
404 393.1 388 384.6 384.2 384 383.7 383.5 382.5 394.5 405.8 415.5 427.4 437.3 444.6 448.9 451.1 454.2 459.3 462.8 464.5 464.2 465.9 468.1 469.4 473.1 475.7 477.4 479.2 484.2 493.7 499.2 496.9 494.2 492.4 485.8 474.8 463 450.8 444.5 439.5 434.9 430.5 427.3 424.2 416.9 404.3 404.7 419.8 420.7 421.8 423.6 425.7 428.4 430.7 432.8 435.8 438.7 442.3 445.7 448.8 451.8 455 458.2 461.3 464.1 457.2 469 474.6 477.9 481.9 487.5 493.4 496.1 497.2 499.2 502.3 504.7 508.5 518 525.6 527.2 535.3 541.1 551.7 565 571.2 577.5 581.2 584.8 589.7 594.6 598.5 602.7 608.5 617.5 626 632.9 637.1 640.3 643.4 646.6 649.8 653.4 656.7 661.5 665.2 665.2 664.4 663.3 661.7 659.7 654.1 645.7 637.6 632.1 623.5 616.7 610 604.6 598.8 594.1 587.3 582.7 578.6 574.4 571.4 567.1 560.2 549.9 541.3 533.6 529.1 524.7 522.3 518.7 514.1 510 504.5 499 491 477.6 493 502 505.2 509.7 514.6 520.2 529.6 538.9 548.2 560.1 569.4 575.9 580.9 578.7 573.2 564.7 551.1 536.7 527 516.2 502.6 490.8 480.8 474.5 465.8 460.6 456.7 447.8 448.5 443.7 445 445.7 445.4 442.7 437.7 432.1 425.3 422.7 422.7 420.7 424 421.8 419.6 418.1 412.8 406.7 399.6 390.8 380.7 371 357.2 342.5 325.5 309.6 300.1 293.6 278.9 264.1
396.9 390.2 385.2 384.5 384.6 384.2 383 382.4 388.4 400.8 413.1 427.8 439.6 448 451.5 455.4 458.1 462 465.2 468.8 471.3 472.2 474.6 476.8 478 479.7 481.8 483.2 486.1 498.9 509.5 505.9 502.1 500 496.1 487 474.8 460 450.9 444.5 439.5 434.8 430.9 427.9 424.7 420.8 408.4 405.6 420 422.3 423.7 425.2 427.5 429.9 431.9 434 437 440 443.5 447.2 450.5 453.4 456.4 459.7 463.1 463.7 461.1 469.6 475.2 478.3 481.7 487.2 494 495.6 496.2 499.6 502.5 506 512.2 523.7 528.4 531.6 539.1 547.1 560 572.8 576.6 580.9 583.7 586.4 591.2 596.1 599.5 603.1 608.6 614.5 622 628.7 633.1 636.1 639.3 642.3 645.4 648.9 653.3 658.7 662.1 663 662.4 661 659.3 656.4 650.7 642.3 636.1 630.6 621.2 614.2 607.7 601.7 595.7 590.9 585 581.6 578.8 575 572.5 568.3 559.5 550.4 540.9 533.9 529.7 526.3 522.8 519.3 514.6 510.1 504.2 498.7 491.8 479.5 492.7 502 506.5 511.2 517.1 524.1 533.8 545.8 556.3 568.1 574.1 579.6 578.4 572.4 565.7 557.5 545.2 530.4 519.1 505.7 497.2 487.9 479 472.4 465.3 460 451.6 446.5 439.8 439.4 441.6 440.7 439.5 435.1 430.9 425.6 419.2 419.4 418.7 415.3 415.6 412.9 406.7 405.5 397.2 389.9 383.7 374.9 366.3 355.4 345.1 334 320.4 304.5 292.3 283.6 273.1 260.9
391.7 387.7 386 385 385 384.5 383.4 384.2 396.1 409.6 423.6 440.4 449.9 457.8 460.3 462.7 465.4 468.6 471.8 476.5 477.5 479.2 482.7 484.8 486.4 488.1 488.9 490.8 499.1 513.5 517.4 511.1 505 504.5 498.4 485.5 471.2 458.1 450.4 444.4 438.8 434.5 430.7 428.2 425.4 421.3 410 405.9 411.1 423 425.3 426.6 428.7 430.9 433 435.3 438 441.3 444.7 448.5 451.9 454.7 457.9 461.2 464.3 465.4 461.6 470.4 474.8 478.1 480.9 486.2 490.5 493.5 494.9 498 502.2 507.1 515 525.6 528.2 534.2 541.5 551.1 564.7 573.5 578.2 581.4 584.1 587.6 592.8 596.3 599.9 603.4 607.6 612.2 618.3 624.3 629.2 632.3 635.5 638.5 641.6 645.3 650.1 656.3 658.8 660.1 660 658.6 656.7 652.4 646.1 639.6 634.4 626.1 618.7 611.8 605.4 598.2 592.3 587.4 584 581.1 578.4 575.9 573 568.1 559 551.1 542 534.8 530.4 527.7 523.7 518.9 515.5 509.4 504.3 498.2 493.5 483.4 493 503.9 508.4 512.6 518.5 526.8 537.6 550.3 561.9 572.6 577.3 577.2 572.8 567.1 561.9 555.5 541.6 525.9 512.7 500.2 494.2 487.5 481.7 471.3 463.1 456.9 450.1 443.9 437.9 427.8 436.8 435.2 432.6 428.3 425.7 420.7 417 409.9 408.2 406.3 403.8 403.6 395.9 390.3 383.4 377.6 368.9 357.8 349.5 343.1 329.7 321.8 309.3 293.4 282.1 276.3 268.3 258.1
388.3 386.2 385.8 385.4 385.4 383.7 384.4 388.2 406 424.2 438.7 450.2 462.6 466.3 469.3 470.2 472.9 474.5 476.8 481.6 485.2 489.2 490.8 492.1 495.5 496.2 497.3 501.1 512.9 521.1 519.8 515.1 509.2 508.2 499.2 481.1 466.9 456.8 449.7 444 438.4 434.1 430.6 428.7 426.4 423 413.6 407.6 412.2 421.6 425.9 427.9 429.9 432.1 434.6 437.1 439.9 442.9 446 449.3 453 456.2 459.8 463.2 465.9 467.6 466.2 470.4 474.2 477.3 479.4 482.5 486.4 490.3 493.4 496.3 501.2 507.5 514.6 523.3 528.3 533.8 542.1 552 563.2 570.6 576.4 580.9 584.1 588 593 596.2 599.5 603.2 607.3 611.8 615.7 620.8 626 629.6 632.6 635.6 638.9 643.2 648.3 653 656.1 657 656.9 655.1 652.7 648.3 643.5 639.4 631 623.1 615.7 609.2 602.4 595.6 589.8 585.4 581.7 579.5 578 576 573 566.2 558.4 550.3 541.1 535.6 531.6 528.1 523.3 519.7 515 509.4 503.4 498.7 494.9 484.4 497 505.3 509.8 513.7 520.3 528.6 539.8 553.7 565.7 574.2 575.8 571.3 565.4 562.5 559.2 550.7 536.5 525.1 511.9 499.9 494.3 488.6 479.5 469.6 462.3 455.4 446.8 440.4 436.8 428.7 428.2 429.9 426.6 423.9 420.9 420.2 416.9 410.6 401.1 397.6 392.5 392.5 385.4 377.3 372.1 365.2 354.7 347.4 338.1 330.5 321.5 310.3 298.8 286.3 278.1 270.7 259.7 255
386.9 386.5 386.1 385.8 384.2 384.8 386.4 399.9 418.7 437.2 453.4 467.3 472.3 474.3 477.3 477 478.7 478.8 481.9 486.7 491.8 493.1 497.4 500.5 503 504.6 505.1 511.6 521.7 525.8 521.2 514.9 513 508.9 495.4 475.6 463.4 455.8 449.2 443.3 438 434 431.6 429.6 427.6 424.6 421.6 409.2 413.3 422 426.4 428.5 430.8 433.4 435.8 438.7 441.6 444.9 448 451.2 454.2 457.1 461.2 464.3 467.5 469.5 469.9 469 473.2 476 478.1 480.1 483.2 486.7 490.4 494.7 500.3 507 512.9 520.3 526.1 532.7 539.2 548.6 559.2 567 573 578.1 583.7 587.8 592.1 595.6 598.5 602.4 606.8 610.1 613.7 617.7 623 627.4 630.8 633.6 637.2 641.3 645.9 650.7 653 653.7 653.3 652 649.4 645.3 643.1 636.6 628 620.4 612.8 605.9 599 592.5 587.9 583.9 580.4 577 576.4 574.9 572.4 565.2 558.4 548.8 540.5 536.7 531.8 527.8 522.9 519.5 513.9 509.1 502.5 499.3 494.5 488.4 500.4 507 510.8 514.5 520.5 529.6 541.2 554.6 566.2 572.3 570.4 563 558.8 557.3 553.8 544.7 533.5 522.5 512.7 499.6 494.9 489.5 480.2 468.9 458.5 451.7 443.9 437.3 432.4 425.2 416.1 424.8 421.9 419 417.2 415 412.6 405 398.5 392.8 383.9 381.6 377.2 369.7 361.3 354.9 348.5 341.7 329.4 323.1 312.7 301.3 288.8 280.9 271.1 264 255.3 255.4
386.9 386.6 386.4 385.1 385.9 384.7 398.3 414.1 432.4 451.6 469.3 477.9 480.7 485.6 486.3 483.9 483.4 483.5 485.9 493.2 495.8 501.1 504.5 506.1 507.9 509.3 512.8 517 522.2 523.6 520.3 515.7 514.3 501.2 484.7 469.7 460.6 453.7 447.9 442.6 438.2 435.2 433 431.1 429.1 426.4 425.7 418.4 412.9 423.7 427.4 429.6 431.9 434.5 437.5 440.5 443.5 446.8 450 453 455.5 458.6 462.4 465.3 468.5 471.1 472.2 472.5 470.8 474.8 476.9 478.9 481.1 484.1 487.8 492.7 499.7 505 510.6 516.9 522.6 529.4 535.7 545.2 554.8 562.3 567.5 574.5 581.1 585.8 589.5 593 596.8 601.6 605.9 608.6 611.6 615.8 620.8 625.1 629.5 632.3 635.9 639.7 644.1 647.7 650.4 650.6 650.1 648.6 645.7 643.8 641.5 632.5 625.6 617.8 609 602.3 595.6 590 586.3 582.4 578.4 575.5 574.7 573.1 570.5 566.1 559.9 548.1 541.1 537.1 531.1 526.6 522.5 518.8 513.2 507.6 502.3 498.6 493.4 496 501.9 507.7 511.8 515.2 520.5 530.1 541.1 553.8 563.7 566.5 560.8 555.8 551.2 549.9 545.8 538.8 529 516.5 509.2 499.1 496.4 490.2 480.7 470.3 458.1 450.3 439.7 435.3 428.9 423.7 415.9 416 415 411.5 410.3 409 408.6 399.8 397.6 391.3 381 375 369.9 363.5 355.3 349.6 343.8 336.3 324.1 313.1 302.3 292.3 283.1 273.1 264.5 256.1 254.7 248
387.1 386.4 386.5 386.5 385.7 395.2 410.3 429.1 448.1 466.2 481.4 489.1 492.7 496.9 494.5 490.9 490.1 488.9 491.8 498.3 501.9 505.8 508 510.6 511.9 513.1 515.7 519.1 521.7 521.4 518.2 514.3 506.5 491.6 475.7 466.6 457.9 452.1 446.6 442.2 438.6 436.3 434.3 432.6 430.6 425.1 427.2 421.4 413.3 423.3 428.7 430.8 433 436.2 439.3 442.3 445.5 448.7 451.8 454.3 456.8 460.1 464.1 467.6 470.7 471.6 473.4 474.4 474.4 474.7 475.9 477.4 480.1 483 485.1 489.9 496 501.2 507.1 513.2 519.1 524.4 530.9 539.8 548.8 554.8 561.7 569.1 576.3 581.8 586.3 590.7 595.3 599.3 602.9 606 610.1 614.8 620 624.5 628.1 631.3 634.6 638.5 642.7 646.4 648.8 648.9 648.6 645.6 643.1 642.8 637.2 629.4 622.3 613.7 606.3 600 593.4 588 584.4 580.7 576.1 573.5 572.9 571.6 569.8 567.5 559.2 547.1 541.9 536.6 531.3 525.9 521.7 518.1 512.5 506.5 501.7 501.1 494.5 500.1 504.3 508.6 512.9 516.2 521.2 529.1 538.9 550.4 557.2 558 553.3 550.1 544.2 540.7 538.9 533.7 523.5 513 504.1 502.1 498.4 490.6 478.6 468.9 457.1 446.4 438 432.8 425.8 420.8 417.4 410 406.1 407.1 403.7 402.6 400.7 395 394.5 387 378 367.8 362.5 358.8 353.5 340.2 329 321.9 312.3 304.3 292.9 283.5 274.6 265.8 257.4 257.3 250 241
387.1 386.9 386.4 386.5 394 408.1 422.4 441.8 461.5 482.6 496.9 503.8 505.9 507.4 501.7 498.6 497.9 496.1 496.3 503.1 505.9 508.9 512.6 514.8 516.2 515.9 518.2 520.6 521 519.1 514.8 506.7 496 482.5 470.9 462.9 456 451.2 447.2 443.3 440.2 437.9 435.6 433.6 431.3 430.3 428.6 424.2 415.2 417.1 429.9 431.7 434.9 438.3 440.9 444 447.1 450.3 453.1 455.5 458.2 461.6 465.8 469.9 472.5 473.3 474.3 475.3 475.7 476.5 476.4 477.5 479.5 481.7 484.5 487.6 492.3 498.3 503.9 509.7 514.9 520.3 525.9 534.1 541.3 547.4 555.1 562.2 569.8 576.8 583.2 589 593.9 597.7 601.6 605 610.3 615.2 620.4 624.9 628.9 631.9 634.8 638.8 642.9 645.8 647.8 647.3 646 643.5 638.8 639.8 632.9 626.4 619.2 610.9 604.6 597.9 591.6 586.7 583.2 578.6 573.8 572.1 570.8 569.5 568.3 568.4 558 547.6 541.7 536.1 531.1 525.5 521.1 516.9 511.2 505.5 504.1 503.1 495 501.3 506.2 510.3 513.5 517.7 521.9 527.3 536.6 543.7 549.4 552.3 548.4 543.9 534.8 533 529.4 525.4 516.3 510.4 503.1 501.5 496.2 486.7 477 464.6 455.7 443.6 435.1 428.5 421.5 416.3 413.3 409.3 405.9 402.5 399.5 400.7 395.7 392.4 391 383.5 373.6 366.5 359.1 353.4 338.5 327.3 316.7 309.7 302.7 293.7 284.2 276.2 268.7 259.8 256.8 252.5 243.3 243.1
387.3 387.4 386.7 387.6 402.6 419.1 436.9 458.8 482.1 505.7 518.4 523.9 521 520.5 515.9 511.5 505.6 503.6 504.8 510.5 511.8 514.5 517.3 519.4 519.5 518.4 519.5 520.3 519.2 515.2 509 498.1 487.1 476.9 466.2 461.7 456.6 451.9 448 444.6 441.5 439 436.6 433.7 433.4 432.3 430 421.7 416.7 427.4 422 430.8 436.9 440.7 442.8 445.3 448.7 451.7 454.3 456.8 459.8 463.5 467.6 471.6 473.6 474.3 474.9 476.3 476.8 477.6 478.3 478.4 479.3 482.1 484.8 487 490.2 494.7 499.3 505.3 511.5 515.9 521.5 528.2 534.1 538 548 556.5 565.1 573.1 580 584.9 592.3 596.6 600.3 604.9 611.2 616.7 621.3 625.9 629.7 633.1 636.7 640.8 643.9 646.4 648.8 648 645.4 644 643.3 635.9 630 621.6 615.8 610 602.5 595.9 590.1 585.9 581.8 576.3 571.8 570.3 568.8 567.2 566.1 563.1 554.7 546.9 540.7 535.1 530 524.6 520.2 515.4 509.5 506.7 505.3 503.3 495.5 503.5 507.2 511.7 515.4 519.3 522.7 526.9 532 538.1 546 547 541.6 536.3 528.7 523.9 519.9 516.5 513 504.4 502.4 501 492.2 481.7 470.6 463.8 453.5 442.5 433.3 424.4 418.8 412.6 406.3 403.9 401.1 395.8 394.2 394.9 392.5 391.1 394.1 386.6 373.2 362.5 356.6 345.4 330.6 320.9 309.7 302.9 295.9 286.1 277.7 271.4 263 259 256.1 244.7 246.8 244.1
388.4 388.4 387.9 397.8 416.1 433.7 451.8 475.9 502.4 526 537 544.2 542.8 535.8 528.5 520.1 514.3 512.4 513.2 517.7 520.1 522.4 523.2 524 521.2 520.7 519.7 518 514.6 508.2 499.3 490 481.3 472.5 465.4 460.7 455.9 451.6 448.1 445 442 439.4 437 436.9 435.7 433.6 430.7 422.7 419.8 431.8 432.4 428.9 431.3 436.1 444.6 446.7 450 453.1 455.3 457.8 460.9 465.4 469.6 472.6 474.5 474.8 475.1 477.1 477.8 478.6 479.6 480.7 481.2 482.6 484 487.2 490.1 493.8 498.1 502.9 509.7 516.1 522.2 528.3 535.7 544.4 552.4 560 567.9 575 582 587.6 592.6 597 601.4 606.9 614.1 619.4 623.1 626.9 631.1 635.6 639.8 642.9 646 647.7 648.9 648.1 646.6 643.7 639.3 633.9 628.3 621.7 614.5 606.1 600 594.4 589.4 585.2 579.5 573.4 569 567.4 566.2 564.5 562.6 558.3 550.8 544.9 537.9 534.3 527.8 524.2 518.8 513.1 509.3 507.9 505.1 502.6 504.1 504.2 508.4 511.6 515.3 519.4 523.2 526.8 530.7 534.5 541.3 540.4 535 529.8 521 516.7 513.2 510.3 508.7 499.4 500.4 499.5 491.1 480.2 469.1 458.5 449.5 440.2 432 424.2 415.9 407.9 403 398.2 395.4 395 391.8 391.6 391.2 391.8 394.2 386.8 372.2 361.7 350.4 339.7 328 318.5 309.8 298.3 291.5 281.7 277.4 269.9 260.8 257.5 247.1 248.2 247.8 241.9
389.3 389.3 395.3 410.7 429.4 446.9 467.4 491.4 519.8 540.6 553.7 563.5 561.6 552.6 544.6 534.7 526.9 524.4 523.3 525.4 528.3 529.2 528.1 526.4 523.4 522.5 518.4 515.2 510.2 502.3 492 485 477.4 469.6 463.6 460 455.7 452.9 449.5 446.5 443 440.7 439.4 438.9 436.9 434.9 431.4 421.5 429 433.8 435.6 438.1 439.9 438 436.7 446.8 451.1 454.1 456.6 459 462.9 467.4 470.4 473.3 475.3 476.1 476.4 477 478.7 479.6 481 482.7 484.1 485.5 486.6 487.9 489.7 492.7 498 503.3 510.3 517 524 531.5 538.8 547.2 554.3 560.9 568.8 575.5 582.6 588.5 593.8 598.4 603.5 610 617.2 622.2 626.1 629.9 634.2 639.2 642.3 644.9 647.4 649.2 649.5 648.1 645.5 642 637.2 632.7 626.1 619.3 611.5 601.9 597.9 593.1 589.1 583 576.1 570.7 566.6 563.7 562.5 560.7 558.3 552.6 545.7 541.6 536.1 531.5 527.7 522.8 517.7 512.1 509.9 507.6 504.4 501.7 506.1 507.8 510.5 513.8 516.1 519.7 523.9 527.7 529.6 531.3 533.5 532.2 526.9 522.1 516.2 509.9 506.4 505.2 501.7 498.6 497.2 496.8 489 477.8 468.4 457.7 447.1 436.6 429.2 421.8 413.3 405.6 399.8 395.9 392.8 389.5 391 388.9 390.1 392.6 391.3 379.6 372 356.4 352.7 348.3 336.4 318.4 305.9 296.9 289.1 280.1 272.4 264.9 260 253.3 246.7 246.4 241.8 242.8
389.6 390 408 425.3 443.2 461.5 483.5 510 536 559 577.1 583.9 582.1 573.3 560.7 549.3 541.3 535.5 532.9 534 533.4 535.2 532.5 529 526 522 517.5 511.1 505.9 497.2 489.1 481.6 474.8 469.2 463.6 460.2 457.5 454.7 451.1 447.3 444.4 443.4 441.6 439.9 437.9 435.8 430.2 424.5 433.6 435.9 437.9 440.6 443.4 445.8 440.1 445.3 452.3 455.3 459 461.5 464.6 468.5 471.6 474 475.5 476.7 477.5 477.9 479 480.7 482.6 484.5 486.2 487.5 488.6 489.6 491.7 494.4 499.3 504.5 510.9 518.3 525.9 533.5 540.8 548 554.6 562.7 570.2 576.7 583.3 589.6 595.7 601.1 606.4 613.9 620.3 625.5 629.3 633.6 639 642.8 645.4 647.6 649.6 651.1 650.4 648.1 644.6 640.5 635.8 630.3 623.7 617 608.1 601.4 596.2 592.1 587 580.7 573.9 568.8 565 561.1 558.9 556.3 553 548.2 543.1 539.3 534.7 529.9 526.2 521.3 515.7 511.2 509.6 507.6 504 503.4 507.5 510.6 512.9 515.3 517.7 520.1 524.2 528 528.8 528.6 527.6 525.7 520.2 516.3 509.8 502.6 498.4 498 495.8 496.6 493.9 496.4 489.4 475.7 467.7 455.7 443.5 434.3 427.4 418.1 409.2 402.8 396.8 393.2 390.1 379.9 387.9 385.8 387.6 393.6 387.4 377.5 369.8 359.5 367.9 361.2 344.2 321.6 304 293 285.3 277.7 268.7 262.3 260 246.6 249.2 243.9 238.6 243.6
390.5 402 420.3 438.7 456.6 476.2 498.4 523.3 553 579.8 598.9 606.6 605.1 590.3 576.5 565.7 555.2 544.7 542.1 542.1 541.9 539.9 536.4 532.1 528 520.9 515.9 509 502.2 494.3 487.6 480.3 474.5 469.7 464.7 460.6 457.8 455 451.8 449.2 447.1 444.6 442.8 440.7 438.7 436.5 430.9 425.6 436.4 437.9 440 442.8 445.6 448 442.3 448.3 453.5 455.9 459.7 462.9 465.8 469.9 473.4 475.5 477 478.2 478.6 479.2 480.5 481.7 484.3 486.1 488 489.5 490.7 492.1 494.6 497.8 502.2 507.3 512.8 520.7 527.7 534.1 542.5 549.1 555.8 564.9 571.3 578.9 585.8 592.7 599.6 604.8 611.1 618.8 624.6 629.6 634.3 640.2 643.3 646.7 648.3 650.3 651.7 653 651 648.3 644.5 639.7 635 628.5 621.6 613.8 606 599.3 593.8 589.9 584.6 577.3 571.9 567.7 563.2 559.5 555.9 552.4 548.1 544 541.4 537.9 531.8 528.3 524 518.9 514.6 510.9 509.4 507.7 504.6 503.9 508.5 511.4 513.8 516 517.8 521 524.2 526.9 526.8 524.7 522.8 519.4 514 508.8 501.3 496.1 491.1 492.1 494.5 492.5 491.7 491.4 485.3 476.3 464.1 451.5 442.5 433 424.1 415.5 405.9 396.5 393.7 387.6 384.6 374.7 383.3 381.6 385.5 389.8 385.3 379.7 371.8 361.1 375.7 365.6 345.7 323.8 304.6 291 281.9 275.8 268.1 261.1 252.3 247.5 250.3 246.9 245.1 236.5
399 412.8 430.7 450.9 468.9 488.6 514.4 541.8 571 599.4 618.1 628.2 621.6 606.9 591.7 579.8 566.6 556.4 551.5 548.5 547.9 543.8 538.4 534.4 528.4 521.1 514.5 506.6 500.8 494.6 487.8 480.5 474.5 469.2 465.4 461.8 458.9 455.8 453.7 451.2 448.5 445.9 443.8 441.6 439.6 437.7 432.2 429.3 438 439.8 442.3 445 447.6 449.7 446 451.9 457 458.8 460 463.2 466.7 472.3 475.6 477.4 478.4 479.3 479.2 480 481.9 483.4 485.4 487.7 489.7 491.7 493 494.5 497.2 500.4 505.3 510.9 514.9 522.5 528.4 535.4 544.4 551 558.6 566.8 573.8 581.9 589.5 596.9 604 609.9 616.6 623.2 629.7 634.7 641.2 645.3 649 651 652 653.8 654.9 654.2 652.5 649.4 644.9 639.3 634.3 626.8 619.6 611.4 604.1 598.2 592.6 587.4 580.7 574.1 569.5 565.6 560.8 557.1 553.7 548.8 544.6 541.4 540.1 534.6 529.2 525.1 520.7 517.1 513.4 511.1 509.7 508.5 506.4 503.6 507.7 510.8 513.5 514.9 517.1 519.7 522.5 524.4 523.1 520.8 517.1 512 506.4 500.3 494.2 489.4 486.5 487.9 489.9 487.9 489.1 486.5 481 473.9 460.2 448.2 440.3 429.3 420 411.7 405.6 396.6 392 386.3 378.2 371 379.3 378.2 381 387.1 381.9 377 372.9 361.2 373.2 367.7 347.2 323 307.8 291.8 281.9 274.8 266 260.5 248.9 248.9 246.2 242.7 242.4 239.4
405 421.4 443 461 478.3 503 530.2 556.6 587.4 616.2 634.1 641.8 635.7 623.3 605.7 590.7 576.7 566.9 559 554.2 551.5 546.9 540.4 534.5 527.7 522.1 515.4 505.6 500.4 495.2 487.5 481.5 475.5 470.5 466.5 463.1 460.2 457.2 454.9 453.2 450.6 447.7 444.7 442.2 440.4 438.7 430.1 435 440.5 442.1 444.2 446.7 449.4 451.7 450.4 454.1 459.1 460.6 461.4 464.2 469.2 474.4 477 478.4 479.5 480.3 480.8 481.5 483.1 484.8 487.2 489.3 491.4 493.8 495.4 496.9 499.5 503.3 508 513.6 518 523.7 529.3 536.3 545.8 553.8 562.2 569.1 576.5 585.6 594.3 601.8 609.2 615.1 622.5 629.2 635.2 641.1 646.6 651.4 654.1 655.1 656.1 657.9 658 656.9 654.3 650.5 645.2 639.3 632.9 625 617.6 608.3 602.1 596.2 590.1 584.5 578.2 572.5 567.8 562.5 557.8 554.2 550 545.5 541.8 537.7 535.6 529.8 526.4 522.9 518.8 515.2 513.2 511.9 510.1 509 507.2 503.4 506.7 510.2 511.7 514.2 516.5 518.6 521 521.3 519.5 515.5 511.5 504.5 498.5 492.9 488.4 484.5 481.9 481.1 483.6 485.1 485 481.4 477.2 469.4 456.5 444.3 435.7 425.9 416.4 409.3 402.4 394.6 388.7 383.9 376.4 369.3 376.1 374.3 379.6 374.5 372.3 369.7 366.7 361.2 373.5 362.5 340.4 321 302.8 288.8 280.5 270.4 261.6 250.8 248.8 248.6 245 243.3 242.1 238.6
414.3 434 453.5 471.1 488.6 515.2 541.7 571.5 600.1 627.4 646.7 654.2 649 639.5 620.7 605.3 587.3 574.3 566 560.1 554.6 550 540.7 534.6 528.6 523.9 516 508 501.7 496.6 490.5 482.8 477 471 467.1 463.8 461.3 458.7 456.7 455.2 452.6 449.6 446.2 443.6 441.7 438.5 431.8 439.4 441.5 444.4 447.3 449 451.3 453.7 455 451.4 458.9 461.5 462.8 465.5 470.4 475.9 478.4 479.1 480.7 481.1 481.9 483 484.3 485.7 490.1 491.3 493.5 496.1 498.2 499.5 501.9 505.8 510.6 515.8 520.5 524.9 530.2 538.5 547.7 557.2 564.3 571.1 579.8 589.3 598.8 606.6 614.4 620.8 628.5 635.4 641.7 648.2 652.8 657.1 658.7 659.8 661.5 662.2 661.5 659.5 656.4 651.4 645.6 639.7 631.9 623.1 615.5 606.2 600.8 594.6 588.2 582.5 576 571.2 565.7 558.9 554.7 550.7 546.2 542.1 538.5 534.4 530.6 527.3 523.4 520.5 516.7 513.7 513.1 512.8 511 508.7 504.9 504.8 507.5 510.9 512.3 513.5 515.2 517.3 518.5 516.5 513.4 509.6 505.5 500.4 491.8 487.4 482.8 479 476.4 475.6 477.3 479.1 479.4 475.3 469.7 462.5 446.8 438.5 431.5 422.2 412.3 405.8 397.9 390.6 384.3 381.4 375.9 365.4 372 370.6 372 370.5 368.5 368.5 364.6 358.3 368.9 354.9 337.4 317.1 298.7 284.4 277.2 265.9 255.6 248.8 247.7 245.4 243 242.1 240.1 237.8
424.4 443.7 460.6 480.1 499.1 526.1 555.1 582.6 610.9 637 656.3 663.4 661.1 655.9 637.1 616.9 599.5 581.9 574.4 563.8 558.5 551.3 543.2 535.4 530.9 526 519.1 510.5 504.1 498.8 493.6 485.8 479.3 473.1 468.6 464.8 461.8 460.8 458.7 456.6 453.7 451 447.4 444.9 442.8 437.8 435.8 441.8 443.3 445.9 448.8 451.9 453.7 455.6 457.6 452.1 455.4 462.2 464.4 465.7 471.9 475.8 477.6 479.6 481.6 482.3 483.1 484.8 486.7 489 493.3 494.6 495.9 498.3 500.6 502.2 504.6 508.8 513.8 518.5 522.3 526.8 532.5 540.7 550.3 559 566.3 574 584.1 594 603.5 612 619.4 626.6 635.7 643.9 650.3 655.2 659.7 663.8 664.8 666.2 666.4 666.4 664.5 661.9 657.9 652.4 646.9 640.1 631.4 621.7 613.7 606.3 600 593.3 587.3 581.3 574.7 570.6 563.2 557.3 550.9 546.4 542.1 538.3 535.3 531.5 527.8 524.5 521.6 516.6 514.6 513.3 511.6 510.6 509.8 507.2 504.7 505.9 508.3 511.1 511.8 512.3 512.9 514.5 514.9 510.9 507.9 504.6 499.4 493.9 487.3 481 478 474.4 470.2 469.7 470.3 472 472.1 468.2 462.3 454.1 441.5 434.1 424.3 417.7 409.3 401.1 392.6 385.3 379.5 375.1 371.6 359.9 364.6 366.5 367.5 363.9 363.2 365.4 359.9 353.8 356 345.9 329.9 311.8 294.4 281 275 262.2 257.1 249.2 246.1 243.5 242.5 241.9 239.2 238.5
433.2 452 471.3 488.4 508.5 535.4 564.9 591.4 620.6 645.8 664.6 673.5 675.4 668.5 651.5 627.8 608.4 591.7 580.5 570 562.2 553 547.5 540.5 535.4 527.8 522.8 515.3 508.1 502.7 497.2 489.8 482.1 475.6 470.5 466.5 464.6 462.8 460.2 457.7 454.6 451.9 448.8 446.3 443.2 436.1 441.1 443.4 445.3 447.5 450.6 453 455.1 458 460.3 460.8 458.7 459 465.1 466.9 471.6 475.5 478.3 480.9 482.4 483.4 484.8 486.7 489 491.9 495.4 497.4 498.9 500.5 502.5 504.5 507.9 511.3 516.2 520.5 524.4 529.2 536.4 544.6 553 560.8 569.3 578.7 588.3 599.1 608.4 616.4 626.5 635.3 644.7 652.1 658.9 664.1 668.4 671 672 672.6 671.7 670.7 667.7 664.1 659.4 653.8 647.3 639.7 631.2 620.7 613.7 606.9 599 592.5 586.8 580 573.3 567 560.3 554 548.1 542.8 538.3 534.2 530.5 528 526.9 522.1 517.9 515.2 516.2 516.6 512.9 509.7 508.3 507.1 507.4 506.7 508.6 510.4 510.2 510.3 510.6 510.8 509.4 506.2 501.2 496.6 492.7 487 480.7 475.4 471.7 468.6 464.2 464 462.8 463.3 463.8 459.8 453.7 444.5 435.2 427.1 419.9 413.1 405 395.4 388.7 382.1 376 372.9 367.9 362.9 354.3 361.5 361.2 359.3 359.3 358 350.4 341.1 341.6 333 324.4 303.7 289.9 277.4 270.2 262.8 260.2 249.4 241.2 241.9 241.7 241.6 239.2 237.8
439.6 459.5 478.9 496 519.1 546.2 572.6 601.7 628.7 654.1 673.3 683.5 686.9 675.2 658.6 634.3 613.1 598.5 583.9 574.2 563.2 557.3 551.3 545.9 539.2 532.3 528.6 522.1 515.2 507.7 500.5 492.9 484.9 478.1 472.8 470.2 467.2 464.7 461.9 458.9 455.8 453.1 450.7 447.3 442.4 438.2 443.8 445.5 447.4 449.6 452.4 454.7 457.3 460 462.4 463.6 464.1 458.2 462.3 468.8 471.3 476.2 479.4 482.4 484.3 484.8 486.5 489 491.2 494.2 497.4 499.6 501.2 502.9 504.1 507 510.5 514.2 518.5 522.5 527.2 533.4 540.8 548.9 556.2 564.2 574.2 585.4 594.8 605.2 613.7 624 633.4 643.6 652.1 660.5 668.1 673.3 676.2 678.4 679.4 679.1 677 674.9 670.9 666.3 661.1 655.3 648.5 638.1 629.8 621 614 606.9 599 591.9 585.8 578.8 571.5 565.5 558.1 551.9 546.1 540.4 534.9 529.5 524.5 522.9 520.7 518.3 520.8 521.9 520.6 518.7 516.4 513.3 510.8 509.6 508.8 508.1 507.8 508.1 508.2 508.3 506.8 505.7 503.6 498.3 493 487.8 484 480.3 473.4 469.1 466.6 462.4 458.5 456 457.1 456.5 454.5 449.8 444.7 437 428.4 420.4 414.2 408.1 398.7 391.7 383.5 377.9 373.2 369 364.5 360.9 356.3 354.8 352.7 348.5 350.7 345.6 341.4 335.6 327.3 323.1 312.5 298.2 285.6 273.6 263.7 259.1 257.3 252.1 242.6 242.8 241.4 239.7 237.5 237.9
452.4 470.8 488 503.4 529 556.2 581.1 609.5 635.3 659.3 677.1 690.5 689.5 675.8 657.4 634.4 614.5 599 587.2 575.9 567.2 561.9 558 550.3 543.3 538.6 535 529.5 520.6 512.1 503.2 495.1 487.5 481 475.7 472.5 469.9 467 463.6 460.2 457.3 454.5 451.8 448.8 442.4 442.5 446.1 448.2 449.9 452.6 454.8 457.1 459.4 462.1 464.2 465.6 466.1 466.3 463.4 467.2 472.2 477.3 481.2 483.5 485.6 486.4 488.2 491.1 493.2 496 498.4 501.2 503.8 505.5 506.6 509.1 513 516.3 520.3 524.9 529.9 536.4 544.7 552.4 560.6 569.8 582.1 592.9 601.8 611.4 620.4 631.6 640.7 648.8 659.4 668.8 675.5 679.9 684.5 685.6 687 685.6 682.8 679.3 674.1 668.4 663.1 656.5 647.7 638.5 629.6 620.6 614.7 607.1 598.7 591.5 585.3 577.3 570.8 564.4 556.5 550.8 544 535.8 528.2 525.5 525.5 523.4 524.8 525 525.5 524.6 522.8 519.5 517.3 514.7 511.9 510.3 510.1 509.3 508 506.4 505.9 505.3 503.7 501.2 497 493.3 489.6 484.2 479.2 474.8 469 463.4 462 456.9 452.4 449.4 448.8 448.1 447.1 442.4 436.5 429.6 421 414.2 408.2 401.8 394.5 388.4 381.3 374 371.4 366.2 361.6 357.3 354.4 348 348.2 346.5 342.1 336.9 332.6 327.8 320.7 315.6 300.8 291.2 280.7 269.8 260.9 260.3 257.2 246 241.6 241.4 237.9 236.7 236.1 233.5
461.8 479.1 496.2 510.8 539.4 563.8 589 616.3 639.6 661.7 679.5 690.1 688 673.2 653.7 631.1 613.9 603.8 594.9 585 577.2 570.9 563.5 555.9 549.4 545.2 540.5 534.9 525.4 513.7 504.7 497.3 490.5 484.9 479.7 475.8 472.4 469.1 465.8 462.4 458.5 455.7 453.1 450.1 444.8 444.2 447.5 450.1 452.5 455.4 457.8 459.1 461.8 464.4 466.1 467.5 467.9 468.6 467.7 466.1 472.4 477.4 480.7 483.9 485.9 487.3 489.8 493.5 495.3 497.8 499.5 502 506.4 508.3 509.3 512.1 515.5 518.7 522.5 526.9 533.2 539.9 548.5 556.7 565.2 575.9 587.8 598.7 608 617.5 627 638.3 647.5 655.1 666.4 676.5 683.3 688.1 690.9 693 693.1 691.4 688 683.2 677.4 670.4 663.6 656 647.1 638.6 630.3 621.9 615.5 607 597.9 591.2 584.9 577.1 570.1 562.7 555.9 550.2 543.1 530 528.7 525.3 527.6 526.2 528.3 527.8 528.1 526.6 524.4 521.5 518.3 516.1 513.3 511.1 510.6 509.4 508.2 506.4 504.4 503 500.4 496.8 494.1 489.9 486.4 481.9 477 470.9 464 458.9 455.2 451.4 446.9 443.7 441.4 442 440.1 435 427.3 421.8 415.3 409.7 401.6 396.8 390.5 384.1 376.6 372 367.2 362.6 358.6 355.6 353.5 350.3 345 339.1 336 332 322.9 318.8 305 299.8 298.2 287.2 275.4 264.1 261.2 259.1 256.1 243.8 242 238.3 236.8 233.4 234.1 231
470.2 487.7 500.4 520.8 548.7 570.7 593.4 619.1 640.9 661.2 676.8 687.9 683.9 667.5 649.6 631.8 622 613.8 604.4 594.9 588.1 579.8 569.2 562.1 555.9 551.9 545.7 538 527.8 514.9 506.6 499.4 493.9 488.4 483.3 479.5 475.1 471.4 468 464.2 460.3 456.8 454.1 451.1 444.8 445.5 449.8 452.9 454.8 457.9 460.9 462.2 464.4 466.8 468.8 470.1 470.7 471.3 468.8 470.5 468.6 476 480.8 483.7 486.2 488.4 490.7 493.7 497.1 499.1 500.8 502.6 506.9 509 511.2 514.9 517.8 521.1 524.7 529.1 535.1 543.1 551.6 560 569.3 580.8 592.5 603.4 614.1 623.4 633.4 643.9 653.8 662.5 672.5 682.2 688.2 694.2 696.6 698.1 697.5 696.2 692.2 686.9 681 672.1 663.8 655.7 646.9 640.1 631 623.2 616.8 607.8 598.8 591.6 584.7 577 569.3 561.5 555.6 549.4 544.3 534.9 528.8 530.4 530.6 529.3 531.3 531 529.9 527.4 525 521.9 519.3 516.8 513.8 511.7 510.8 509.5 508.4 505.7 503.9 502.1 498.5 494.9 490.3 486.4 482.1 478.3 473.8 466 459 453.8 449.1 444.5 441.5 439.4 436.7 433.5 431.1 425.8 419.6 413.7 410.7 405.5 398.3 392.3 384.2 377.1 373.9 368.3 363.5 359.6 356.8 353 349.3 347 342.4 328.7 332.6 327.8 320.3 307.2 296.9 290.7 289.9 281.2 270.1 262.8 261.3 263.1 248.7 243.9 240.5 238.3 237.3 233.7 233.4 227.6
478.7 494.2 508 529.7 555.2 575.2 597.2 618.3 638.7 660.2 674.4 683.4 680.5 665.6 648.9 638.5 631.4 623.1 613.9 606.6 599.4 587.5 575.8 569.1 562.8 557 548.4 539.9 528.9 516.7 509.8 502.6 496.9 492 486.7 482.7 477.8 474.2 469.3 465.5 461.8 458.2 455.4 451.6 449.9 450.3 450.2 455.2 458 460.3 463.2 465 465.9 469.8 471.5 472.3 473.3 473.4 473.7 474.3 475 473.1 474.6 480.6 485.1 488.6 491.5 494.5 497.2 499.9 502.3 504.2 507.2 510.1 513.7 517.3 520.3 523.5 526.5 531.1 538.1 546.1 554.8 564.8 573.9 585 595.6 606.6 618.8 628.6 639.4 650 661 670.5 679.5 687.3 693.6 698.9 701 702.2 701.9 700.2 696.6 690.9 684.3 674.5 665.4 656.4 648.7 642.4 633.4 625.8 618.6 609.3 599.2 591.5 584.2 575.5 567.3 560.3 553 547.1 542 534.2 530.1 533.7 532.8 531.6 534.7 533.7 531.3 528.8 526.3 523.3 520.1 517.7 514.8 512.5 510.5 509.7 508.5 505.6 502.8 500.9 496.8 491.4 488.7 483.7 477.5 472.7 468.3 462.2 455.4 449.6 441.7 437.4 435.6 434.6 430 427.1 424.2 418.8 414.2 408.7 403.5 398.4 393.2 386.1 379 375.5 371 365.2 361.2 357.9 354.9 350.7 345.9 341.5 335.7 329 323 318.3 307.4 298.1 289.5 286.3 281.8 273.2 267.7 264.1 261.2 254 245.9 245 238.3 241.4 237.1 232.1 228.4 222.2
484.6 499.6 514.4 536.3 559.6 579.5 599.3 618.1 636.4 656.9 673 683.2 688.1 674.4 660.5 648.9 641.4 633.2 625.6 619.7 610.7 598.2 584.7 578 569.5 559.2 550.2 539.3 528.4 518.2 512.3 505 499.4 495.5 491.1 486.1 480.3 476.2 470.9 466.2 462.9 459.6 456 451.5 452.4 453.7 450.4 456.7 460.4 462.6 465.5 467.6 469.1 472 474.1 474.9 474.4 476 476.6 477.2 478.5 479.8 479.4 477.8 478.8 487.3 490.9 494.4 497.6 500.9 503.5 505.6 508.2 511.1 515.5 519.2 523 525.5 528.4 533 540.1 547.9 557.4 566.9 580.1 589.7 599.4 611.8 623.7 634.5 646 657 669 678 685.3 694.4 700 704.1 705.5 706.7 706.8 703.9 700.4 695.7 687.8 677.7 667.6 657.9 650.3 643.5 635.9 628.9 621.1 611.8 602.8 594.2 585.4 575.8 567.7 560.7 553.3 548 541.7 533.7 533 537.1 536.3 537.2 538.1 537.3 534.8 532 528.6 525.4 522.3 519.1 516.3 513.7 511.8 510.1 508.5 505.9 502.8 499.4 494.2 489.7 485.6 481.6 475.8 469.7 462.8 455.7 450.4 444 438.2 433.6 429.7 427.5 424.8 420.6 418.9 412.6 408.8 402.4 399.9 393.2 388 381.8 376.1 372.9 367.5 363 359.1 355.8 351.5 347.5 342.8 335.7 329.2 320.3 315.2 311.5 300.8 294.2 288.4 285.1 279.3 272.5 267.6 263.2 256 250 240.7 240 240 238.6 230.6 226 224.1 227.3
494.4 506.9 521.1 541.4 564.2 582.9 600.9 616.5 633.9 657 677.7 685.8 693.7 687.4 671.9 661.5 653.9 645.2 641.1 634.2 624.5 609.6 598.1 587.4 574.3 561.2 549.5 538.1 529 521.6 513.9 508.3 503.1 499 494.8 489.3 482.7 477.7 472.5 467.6 463.7 460.2 456.6 451.9 455.4 457 456.3 455 462.9 465 466.2 469.5 471.3 473.6 475.2 475.7 475.8 477.6 478.8 480.3 481.7 482.5 483.6 484.4 483.9 483.1 490 494.1 497.9 501 504.4 507.2 509.6 512.3 517.2 521.2 524.2 527.1 530.5 535.5 543.2 550.1 560.1 570.7 584.2 593.7 604 617.4 628.5 640.9 654.7 665.9 677.2 686.4 695.8 702.9 707.5 710.6 712.1 713.4 710.8 708 704.3 699.7 691.4 680.4 670.2 659.4 651.9 644.8 638.5 632.3 623.6 615.3 608.1 599.1 588.6 578.2 568 561.1 553.1 548.3 542.5 534.3 537.6 539.4 539.7 541.8 542 541.4 538.3 534.3 530.4 527.4 523.4 520.5 517.6 514.6 512.4 510.5 508.8 505.8 502.9 497.1 492.2 488.1 482.8 478.3 471.2 464.9 458.1 452.8 447.8 440.2 434.6 431.4 427.5 422 419.3 415.5 413.1 407.6 402.3 399.4 393.9 388.7 383.5 377.5 374.4 369.8 366.9 359.1 355.7 353.1 348.5 344.6 338.9 332.7 321.9 321 316 307.3 296.7 291.8 287.6 280 276.6 271.4 270.7 264.4 257.5 249.4 244.9 234.8 234.6 232.2 223.2 221.7 223.8 225.3
499.5 514 528.3 550.3 569.2 586.7 603.6 618.7 639 658.8 678.6 691.8 702.3 700.5 687.4 675.7 668 665.1 662.6 655.8 640 621.8 610 596.4 579.3 562.2 548.3 538.6 530.8 523.3 515.9 510.5 506.6 502.2 497.5 490.7 485 478.4 473 469 464.7 461 457.4 456.6 458.6 460.3 461.8 459 464.6 467.7 469.3 471.1 473 474.8 475.5 477.5 477.3 479.5 481.2 482.7 484.1 485 485.9 486.8 487.8 488.5 488.5 494.2 498.1 500.5 505.4 508.7 511.2 514.2 518.8 522.1 525.3 528.6 531.7 537.4 545 552.2 561.9 574.7 586.6 597.3 608.5 623.6 635.8 650.2 662.7 674.8 686.8 697 704.9 711.9 715.1 717.7 719.1 718.8 715.9 712.5 708.3 702.8 693.6 683.3 673 661.6 654.6 648.1 642 635.1 626.8 620.6 612.9 603.3 592.4 580 569.2 561.1 553.5 548.8 543.6 536 541.8 545.3 546.3 546.9 546.6 546.2 542.1 536.8 532.1 529 524.5 521.5 518.2 515.5 513.2 511.1 508.3 504.7 500 495.6 490.4 485 480.8 473.9 467 460.1 454.5 449.5 443.9 438.2 434 428.6 423.5 418.1 414.1 411.1 407.3 403.2 400.5 395.5 389.5 384.5 379.4 374.7 372 366.7 361.9 358.5 353 349.8 346.4 339.9 334.2 328.3 322.9 320.6 312.2 304.1 294.7 288.5 284.8 280.1 275.6 275.7 273 264.7 256.1 247.3 240 238.4 229.3 224.5 222.9 221.9 225.6 226.4
504.1 517.5 537.2 559.9 576.6 592.9 609.4 627.2 648.2 666.9 687.9 701.5 710.2 713.5 703.5 693.2 686.7 684.5 683.2 682.6 658.5 636.6 621.3 603.7 581.5 564.2 550.7 540.3 532.4 524.2 518.3 512.6 508.5 504.9 498.6 491.8 487.1 479.8 474.5 470.1 465.7 462.1 457.3 459.9 461.7 463.4 465.1 465.1 461.4 469 471.5 472.9 474.3 475.7 477.2 479.1 480.5 481.9 483.3 484.8 486.1 487.1 488.1 489.3 490.5 490.8 489.2 494.8 498.8 501.6 505.8 509.5 511.8 515.3 518.9 522.2 525.4 528.9 533.3 538.7 545.9 553.9 564.1 578.1 588.9 601.8 615.2 630.3 643.5 657.8 670.1 684.6 696.1 706.1 713.6 718.7 722.1 724.7 725.9 724.1 721 717.3 712.5 705.2 696.7 686.5 675.3 664.3 657.7 651.1 645.1 637.9 631.2 625.4 618.1 607.9 597.8 582.8 571 561.9 554.7 549.1 541.5 544.1 549.9 553.3 553.8 552.4 551 549.4 545.1 539 533.6 528.9 525.3 522 519.1 516.3 514.1 512 509.8 504.9 499.1 494.3 489.4 483.8 476.4 470.2 463.8 457.1 450.8 447.4 441.4 438.2 434.2 429.6 426.3 420.2 414.9 409.7 401.6 396.9 394.4 391 385.4 381.2 376.2 373.4 370.6 365 359.1 354.6 350.5 349.3 342.2 336.4 333.1 325.3 322.1 312.7 303.7 295.3 286.9 285.9 284.7 279.8 278.5 276.6 270.8 267 253.3 246.2 241.3 236.7 229.1 225.3 221.7 221.1 220.2 220.4
510.3 524.5 545.3 569.1 587.9 605 624.8 647 666.2 683 695.1 709.2 721.1 726.2 718.4 708.2 704 701.8 699.7 688.9 666.2 644.3 630.9 608 587.1 567.7 553.5 541.4 533.2 525.8 519.9 514.2 510 506.1 500 493.2 487.1 481 475.9 470.9 467 462.8 462.1 463.6 465.1 466.8 468.1 468.8 460.2 468.9 473.5 474.5 475.4 477.2 478.9 480.5 481.7 483.6 484.6 486.6 488.3 489.4 490.4 491.5 493.1 493.8 491.6 495.3 498.9 502.1 506.3 509.8 512.4 515.5 518.5 522 525.6 529.7 534.2 540.1 546.9 555.1 567 581 592.8 606.1 620.3 636.7 652 666.3 680.3 693.1 703.2 713.6 720.1 726 728.9 730.7 730.2 727.9 725.1 721.7 716.3 708 700.3 689.9 678 668.5 661.6 655.8 648.4 641.2 636.5 630.8 622.8 612.6 599.4 585.2 572.7 563.5 555.8 548.6 544.1 551 559.5 561.6 561.5 559.8 556.6 552.6 548.4 542.2 535.3 530.3 526.6 522.9 519.7 517.4 514.9 512.4 509.4 503.8 496.6 492.3 488 482.7 474.2 466.8 460.3 453.7 449.1 444.2 438.8 435.4 432.5 429.6 425.1 417.3 411.6 406.6 402.4 395.8 386.9 384.7 378 374.4 374.6 372.1 367.9 362.4 356.7 352.1 347.7 345.3 339.3 333.6 327.5 325.8 316.9 305.7 301.2 292.8 286.8 284.8 282.4 280.2 278.6 275.9 272.6 264.5 250.9 240.2 245 237.6 231.8 222.3 220 219.7 218.8 218.6
517.8 533 555.9 578.5 596.3 618 643.2 666 682.7 696.8 708.3 721.4 730.5 736.9 728.8 721 718 715.7 706.9 689 666.3 649.5 628.7 610 590.6 572 555.2 543.3 533.6 526.5 519.8 514.4 510.3 505.7 498.3 493.3 487.2 481.5 477 471.9 468.3 463.4 465.7 466.9 468.8 470.3 471.1 471.4 466.6 469.5 474.7 476.6 476.9 477.9 480 480.9 483.6 485.3 486.8 488.3 489.8 491.5 493.1 493.7 494.5 495.6 496.4 495.9 500.1 503.2 506.2 509.4 512.4 515.5 518.7 522.5 525.9 530.2 535.3 541.1 548.2 557.7 568.8 582.5 595.9 610 625.8 643 657.8 673.2 688.2 699.4 712 720.8 728.5 733.4 734.4 734.7 733.3 730.9 728.1 725.8 718.6 711.6 703.3 692.3 680.6 673.3 666.4 660.4 653.4 646.4 641.8 634.4 626.1 614.5 601.5 586.3 574.8 563.7 555.7 550.3 551.8 561.3 569.2 572.1 571.8 568.6 564.3 557.6 551.1 543.2 535.9 531.2 527.8 524 520.2 517.9 515.7 512.7 509 503.1 494.9 490.8 486.1 481.5 471.8 464.6 457.4 451.9 446.6 441.3 437.5 432.3 427.7 425.4 421.2 415.7 407.1 403.3 398 393.1 387.7 382.9 379.5 374.8 369.4 367 365.6 359.3 354.4 349.4 346 341.2 337.4 330.2 326.3 321.8 307.5 304.2 299.1 289.6 284.5 282.7 279.2 279 275.3 269.6 267.2 258.3 249.8 240.9 237.7 236.5 232.4 226.2 220.8 218.6 217.9 217.8
526.6 542.4 565.6 586.3 607.7 631.4 656.9 679.5 695 707.5 722.8 734.3 741 742.3 736.4 730.5 726.2 720.7 705.6 685 662.9 643.7 626.5 607.8 592.8 573.5 556.4 544.2 534.2 526.4 519 513.6 509.1 503.2 497.6 492.6 488.1 483.1 477.3 473.1 468.8 469 470 471.3 472.5 473.5 473.7 474.4 471.4 469.4 475.7 477.5 478.5 479.4 480.9 482.7 485.1 486.7 488.2 490 491.2 492.9 494.4 496.4 497.4 498 498.9 498.1 499.1 504 506.7 509.7 512.3 515.5 518.9 522.7 526 530.8 536.1 542.9 549.9 560.3 570.3 585.2 598.4 613 630.6 647.6 662.9 678.9 693.5 706.2 717 726.2 734.5 738.3 738.1 735.2 732.6 730.8 729.9 726.8 720.8 714.1 703.9 691.7 683.1 676 670.4 664.3 657.9 651.1 645.2 637.2 627.5 615.3 602.3 588.3 575.2 563.5 555.5 548.5 562 572.3 579.4 582.6 581.6 577.3 570.5 562.4 553.9 544.3 538 533 529.1 525.3 521.5 519.3 516.3 512.1 507.8 502.2 494 487.9 482.4 476.8 468.7 462.8 456.5 450.9 444.8 440.6 436.4 432.3 427.7 419.4 413.1 412.4 404.1 399.6 395.1 389.5 384.5 379 376.3 373.9 371.4 364.8 358.6 355.5 350.7 347.9 344 338.1 332.7 327.9 319.7 311.4 305.9 299 291.6 286.3 278.9 274.2 274.6 273.8 270 258.7 256.4 252.7 242.4 240.8 240.7 230.4 230.8 226.7 222 218.1 217.2 217.8
534.9 552 573.6 595.6 619.2 642.1 667.5 688.7 702.1 716.6 730.8 740.7 745.2 742.7 736.1 730 725.5 715.3 697.8 675.5 654.5 638 623 606.7 590 572.7 555.9 543.8 533.5 524.9 517.2 511.6 506.4 502.5 497.8 492.6 487.8 482.8 478.4 473.4 469.4 472.3 473.3 474.6 475.2 475.8 475.9 475.7 474.1 469.2 476.8 478.5 479.7 481.1 482.6 484.3 486.3 488.1 489.8 491.5 493.2 494.6 495.9 498.2 501.4 501 501.3 501.6 502.9 504.2 506 510.6 513.2 515.7 519.1 522.4 526.9 531.8 537.4 544.3 552.4 562.8 573.4 586.8 600.7 614.6 632.6 651.6 667 682.8 697.2 710.1 719.1 727.8 735.6 739.1 738.2 734.9 729.9 727.3 726.9 724.3 720.8 713.6 700.9 692 684.2 678.3 672.9 667.1 660.3 654.1 646.8 637.4 629.2 617.8 605.6 590.8 576.8 563.4 553.5 561.1 575.8 584 590.9 592.4 589.8 583.3 573.9 565.5 555.1 546 541.2 535.1 530.8 525.7 522.8 520.7 516.7 511.7 506.9 500.6 493.2 485.9 479.4 471.3 466.3 462.2 455.4 447.7 442.9 439.2 435 431.2 428.2 422 416.5 405.6 400.3 394.9 390.6 386 380 377 374.7 371.9 369.1 364.2 359.5 351.4 348.4 343.1 340.9 335.6 329.4 322.7 311.3 306.3 298.2 291.5 288.5 281.8 272.3 265.7 265.2 265.4 260.7 252.8 248.7 247.2 238.6 240.4 232.7 223.5 226.9 222 220.8 219.9 217.7 217
543.6 559.5 580.6 603.6 628 649.1 673.6 693.3 711 721.9 736.6 740.4 739.8 736.8 729.4 721.5 716.4 705 685.8 666.8 652.2 636 617.7 601.6 585.4 568.7 553.7 542.5 532.7 522.3 514.6 509.1 505.7 501.3 496.6 491.8 487.1 482.4 478.3 475.1 475.9 477.8 478.1 477.3 477.6 477.6 477.6 476.8 474.2 471.7 477.5 479.3 481.4 482.9 484.4 486.4 488.1 489.6 491.6 493.4 495.2 497.1 498.9 499.8 502.2 504.5 504.8 504.6 504.9 506.4 508.8 511.5 513.3 516.6 519.6 523.3 528.5 533.4 538.5 545.9 555 565.4 577.9 588.8 602.8 616.2 635.3 653.8 669.1 684.7 697.3 710.1 718.5 726.1 732.6 735.5 734.7 730 724.6 722.5 721.8 719.3 716.7 708 696.5 691.7 685.2 679.7 674.3 667.9 661.5 655.9 648.6 639.5 631.1 620.1 607.8 591.3 576.7 562.1 559.1 574.5 587 598.1 603.3 601.6 595.3 586 577.5 566.8 556 548.6 543.7 537 532.6 527.5 524.3 522 518.1 510.9 505 499.1 492 483.1 475.3 469.8 464.8 459.9 452.7 445.6 440.4 437.3 433.9 429.9 426.3 419.6 414 405.4 396.7 391.3 388 382.6 379.1 377.4 371.8 370.3 366.8 362.1 356 351.4 347.4 342.3 337 334.1 329.6 317.7 314.8 302.9 294.4 294.4 284.3 274.3 261.8 259.1 258.7 255.9 251.8 245.2 243.8 241.7 241.1 235.4 230.6 224.4 223.5 219.1 222.2 219.2 219.5 216.6
547.5 566 587 609.8 634.1 653.9 675.1 696.7 709.6 724 736.5 735.9 731.9 729.1 720.6 709.7 702.3 691.4 675.9 661.3 647.7 630.7 612.3 594.9 580.8 566 552.1 540.3 529.5 519.9 511.6 508 504.5 499.1 494.5 490.3 485.5 482.6 481.6 480.5 481.9 482.9 482.5 480.8 479.9 480.1 479.7 479.2 476.8 474.4 478.6 480 482.1 484.6 486.5 488.2 489.8 491.5 493.2 494.9 498 501.1 502.4 502.9 503.8 506.6 508 507.9 507.8 508 510.2 512.9 515.4 517.3 520.7 524.2 529.3 534.3 540.3 546.7 555.5 567.6 579.6 591.2 604.7 618.5 637.7 654.3 669.8 685.1 696 706.3 715.3 721 727.1 730.5 728.8 722.5 719.4 716.9 714.4 713.4 709.5 700.5 695.5 690.7 685.1 680.7 674.1 668.1 662.3 657.6 651.1 642.1 631.8 621.5 609.4 591.8 573.4 559.6 570.2 585.8 601.3 612 613 607.3 598.5 587 578.8 567.9 556.4 550.9 545.7 538.4 533.5 528.9 525.8 521.1 517.1 509.5 502.8 497.3 488.2 480.7 474.2 468.7 464.3 458.4 448.7 444.1 439.2 435.3 430.3 425.8 422.1 415.4 407.9 400.9 393.2 389.5 384.5 380.8 378.6 375.9 371.6 368.5 362.7 358.1 354.1 349.5 345.3 339.8 336 328.7 321.8 317.3 311.6 303 297.1 287.4 280.5 265.1 256.9 256 253.7 251.1 247 240.8 241.8 238.4 236.1 232.8 227.3 223.7 220.4 218.9 219.2 217.2 217 216.7
551.8 570.1 591.9 614.9 636.2 654.9 677.2 696.1 709.9 722.9 732.4 729.9 727.2 720.2 710.6 697.1 688.1 678.7 668.4 655.5 640.7 623 605.8 587.8 575.2 562.5 548.7 535.7 526.4 516.2 510.3 507.4 503.7 498.3 493 489.7 488.6 487.1 486.6 486 487 486.6 486.7 485.9 483.2 482.1 481.4 480.9 477.3 475 479.9 481.7 483.6 486.1 488.5 490.2 491.3 493.3 495.1 497.8 502.6 505.9 507.9 507.9 507.9 509.2 510.2 511.2 511 511.3 512 514.4 517.5 519 522.2 525.8 530.7 535.3 541.8 548.3 556 567.9 581 591.9 606.7 620.2 638.1 653 668.8 682.3 692.5 701 708.6 714.8 720.6 724 720.9 716.9 713.8 711.6 710.1 707.3 702.5 698.6 694.7 688.9 683.8 680.4 674 667.6 663.1 658.6 651.7 643.3 633.7 623.4 608.7 591.4 571 564.1 579.6 598.2 615 621.1 618.9 612 600.4 586.3 578 569.2 558.3 551.4 546.6 540.2 535.6 529.9 525.7 519.9 513.9 506.5 500.9 494.2 484.6 478 472 466.3 461.4 455 446.5 442 438.4 432.7 428 422.1 418.2 410.1 403.1 394.3 390.9 386.9 381.3 378.6 375.9 373.2 370.1 365.7 359.1 355 351.7 347.3 342.6 337.1 333.2 328.4 319.6 312.5 303 302.2 295 283 272.8 264.1 257.7 253.5 251.3 247.1 241.4 239.2 237.9 235.5 234 228.5 222.1 219.2 219.2 221.6 221.5 220.8 220.7 221
554.6 573.6 593.6 614.9 633.4 653.7 675.6 690 707.5 717.6 721.9 721.5 718.3 711.8 698.9 687.1 677.3 668.7 661 646.2 632.1 614.9 599.8 583.6 568.3 556.2 543.1 532.4 522.9 514.7 510 506.7 501.9 496.2 496.1 495 493.4 491.9 491 492.1 493.1 492.7 491.6 489.4 485.6 484.3 483.5 482 479.5 475.4 481.4 483.2 485 487.5 490.1 491.7 493 494.9 497.5 501.8 506.9 510.8 513.8 514 513.1 512.9 513.2 514.2 514.2 515.6 515.7 517.4 519.8 522.2 524.1 527.9 532 536.4 543 550 556.8 567.2 579.7 592.1 605.4 619.5 636.7 649.8 664.9 678.3 687.8 695.6 701.1 707.5 713.6 716.3 714.5 711.3 709.3 708 706.3 702.7 699.6 696.6 690.5 686.2 682.3 677.9 673.3 668.4 663.4 660 652.3 646.2 636.8 624.9 610.8 596 568.8 570.1 590 611.5 624.9 625.8 622.4 613.5 600.5 585.8 579.1 569.6 560.4 552.3 547.3 541.8 536.8 530.3 524.7 517.4 511 504.6 497.7 490.3 482.4 476 470.5 464.3 458 448.9 443.5 438.1 433 430.2 425.2 422.8 413.6 406.9 398.6 393.2 388 383.1 377.7 375.7 371.8 370.4 367.2 359.5 356.8 352.5 349.5 345 339 332.8 332 325.7 318.4 312.5 302.2 295.8 284.7 276.1 266.4 262.2 256.6 252.5 248.2 243.8 240.5 236.3 235.4 229.7 229.9 225.7 220.7 220.8 219.8 221.5 220.8 220.7 221 221.3
558 576 594.6 614.6 632.7 652.7 671.4 684.2 700 707.5 712.2 714 711 697.9 684.9 676.8 668.2 661.3 649.5 637.4 621.4 606.1 596.1 578.3 563.5 549.6 537.5 528.2 518.9 514.2 510.2 505.7 500.3 502.3 501.1 500 498.3 496.5 497.9 499 498.6 497.6 495.4 492 487.8 486.1 485 482.9 481.2 479.6 483 485.3 485.9 489.4 491.2 493 494.7 497.1 500.6 505.9 511 516 519.1 520 518.5 516.6 516.2 516.7 516.9 518.6 519.4 520.9 522.6 524.4 525.7 528.9 533.6 538 544 550.1 557.2 566.5 578.8 590.9 603.6 618.1 634.4 645.5 658.7 673.2 682.1 689.3 694.5 699.7 705 708.5 708.8 706 704.9 704 702.5 698.3 695.9 692.8 686.7 682.8 679.5 677.3 673.4 669.7 666.3 662.7 656.2 647.6 637.2 625.3 610.6 597.5 572.9 580.3 601.6 620.7 630.2 628.7 624.1 612 599.1 587.3 580.6 570.2 560.4 553.9 547.7 542.9 536.1 530.3 523.5 514.9 506.7 501.1 494.5 485.7 480.2 473.6 466.9 460.7 454.4 444.9 440.2 433.7 431 428.4 426.5 417.2 409.2 403.3 394.2 391.1 386.2 380 374.3 372.7 370.9 368.4 363 358.9 352.6 350.4 347.2 341.6 335.3 330.9 328.6 321.3 314.1 305.5 297.6 289.2 278.7 269.3 261.8 259.1 254.4 251.6 247.4 241.9 238.4 234.7 237.2 227.1 225.9 222.7 226 220.2 220.4 221.8 221.3 220.7 221.2 221.4
560.8 578.1 595.3 612.6 630.8 647.9 664.8 679.8 690.4 698.9 703.4 705.4 700 685.7 675.2 668.4 662.3 654.3 641.8 626.7 611.6 603.2 589.7 575.7 561 544.3 533.9 525.2 520.3 515.1 510.3 506.5 507.1 505.1 505.6 504.3 503.8 504.3 505.3 504.8 503.6 501.8 498.6 494.6 489.4 488 486.7 484.8 480.6 481.8 483.8 486.9 488.6 490.3 492.2 494 496.2 500.1 504.9 510.3 515.2 521.2 524.5 525.5 524 522.2 520.2 519.4 520.2 521.1 523.1 524.3 525.7 527.3 530.1 530.9 535 537.6 545.1 550.6 557 564.9 575.6 588.9 602 616.7 631.4 641.1 652.1 665.7 675.8 683 688.3 692.7 696.1 700.6 701.6 701.2 701.3 700.2 698.2 694.5 691.9 688.8 684.2 680.4 678.1 676.4 673.9 672.6 669.3 664.7 658.3 647.9 638 624.9 613.7 595.6 572.5 591.2 612.1 629.2 633.5 629.7 622.9 611.4 601.6 588.1 581.8 572.2 560.9 554.5 548.6 543.5 536.6 529.4 520.9 511.6 503.9 496.7 489.4 481.7 477.3 468.7 464.2 458 450.4 442 436.3 433.1 430.4 426.7 419.8 412.6 405.3 400.7 392.5 387.6 382.9 377.6 371.6 370.7 369.3 366.9 361.9 358.2 352.8 346.3 342.8 336.9 331.6 329.2 325.1 317.7 309.9 301.2 290.3 282.2 270.8 263.1 260.3 256 251.7 248.2 243.8 241.6 237.5 231.6 232 226.4 224.1 227.3 221.9 220.2 221.1 221.3 220.6 219.9 220 220.9
562.1 579 593.5 609 625.4 640.4 656.3 671.9 681.5 687.6 692.7 696 688.1 676.1 668.7 663.6 657.8 649.2 635.5 620.7 609.3 600.7 587.4 570.7 554.2 541.3 533.4 525.9 521 516 511 512.1 512.7 512 511.5 510.9 510.4 511.1 513 510.6 508.5 505.4 501.4 496 491.7 489.3 487.5 485.5 480.1 484.1 486.3 488.2 490.1 491.9 493.5 495.6 498.7 503.8 509.8 514.7 520.1 526.9 529.6 531.3 529.8 526.1 523.5 523.4 523.8 524.3 526.3 527.4 529.3 531.3 533.3 535.6 538.7 542.5 546.2 551.3 557.4 563.9 575.5 587.8 600.7 616.5 629.2 635.6 647.5 659.8 669.9 677 682 686.9 691 693.6 695.3 697.2 697.3 695.1 693.1 690.6 688 685 681.1 677.7 677.1 675.4 674.6 674.1 670.8 668.9 660.7 647.7 637.1 626.1 614.3 591.1 580.2 601.8 621.6 633.9 634.7 630.6 622.4 610.2 600.8 589.1 583.3 572.7 561.1 554.1 549.5 543.3 535.3 528.9 518.6 509.3 500 490.8 484.3 477.2 471.2 465.4 459.8 454.4 448 441.6 434.2 430.3 427.6 420.2 414 406.7 397 388.5 385.6 383.2 376 371 367.8 367.6 367.5 363.5 357.8 355.2 351.1 345.5 338.6 333.1 329.2 325.9 320.8 313.2 305.4 296.6 287.1 277.1 267.4 258.9 258 254.8 251.3 247.8 243.3 241.2 236.8 236.4 229.4 227.1 225.6 223.6 224.6 224.7 223.1 221 220.1 219.7 220.1 220.7
561.6 576.4 590.1 603.4 616.6 631 644.6 659.9 670.5 676.3 683.5 687.7 681.5 669.7 664.5 660.7 655.5 644.9 630.9 617.1 607.7 597.6 582.9 563.6 550.4 541.5 533.2 526.5 522.2 517.9 515.9 518.4 519.2 518.5 517.9 517.8 517.3 519 520.2 516 513.1 508.8 502.9 497.1 493.3 490.4 488.2 486 485.5 483.7 487.8 489.6 491.5 493.2 495.1 497.5 501.1 507.5 513.5 519 526.8 532.7 535.6 537.8 535.6 531.7 528.1 527.9 528.3 527.8 528.7 530.3 531.7 534.6 537 540.1 540.4 545.1 549.2 550.1 557 564.4 575.5 586.6 598.5 616.2 625.1 631.8 643.7 655.2 664.9 671.4 678.1 683.1 687.1 689.6 691.7 694 693.5 690.9 688.3 686.2 684.4 681.5 678.6 678.5 679.8 676.9 675.3 674.9 674.7 672.1 660 647 638.9 625.7 611.1 589.1 587 610.6 629.4 636.1 635 631 624.8 613.8 601.1 589.3 583 572.6 560.6 553.6 549.2 543.1 535.7 529.9 522.1 512.7 499.4 487.9 478.6 471.1 465.5 458.9 453 449.3 444.8 440.7 431.2 422.8 416.3 411.5 404.1 401.3 397.8 394.4 384.6 373.7 370.9 368.1 366.4 366.4 363.3 359.7 357 353.5 348.2 341.1 334.3 329 325.8 322.3 315.8 307.2 300.8 290.4 281.6 271.8 258.6 257.8 256.8 254.7 250.8 246.5 241.4 236.8 236.7 235.6 230.8 226.9 225.9 225.5 225.4 224.9 223.9 221.4 220.4 220.2 220.6 220.8
561.4 573.5 585.8 597.4 608.7 621.4 634.8 646.9 656.4 665.1 674.2 676.7 671 663.9 660.7 658.2 651.3 638.9 626 616.3 606.7 592.4 573.9 557.4 547.8 540.2 534 527.1 523 516.8 522.5 524.8 525 525.7 524.5 525.1 525.1 525.9 526.4 521 516.8 511 504.2 498.4 495.1 492.5 489.8 487.4 487.8 483.4 489.2 491.1 492.9 494.7 496.8 499.3 505.5 511.6 518.7 524.5 532.2 538.9 542.5 544.9 542.8 538.3 533.2 533.9 533.1 532.7 532.8 534 535.1 537.6 540.9 544.4 545.7 548.2 552.7 553.4 558 565 574.5 585.2 595.1 613.4 621.1 628.3 640.8 651 660.8 667.8 674.4 680.3 684.6 687 688.5 690.5 689.5 686.9 685.7 684.8 682.1 680.2 679.6 680.6 681.1 679.3 677.9 678.5 677.9 671.7 655.9 647.8 639 623.6 606.9 583.3 598.5 621.2 635.1 636.9 635.8 634 625.9 614.7 601.5 588.1 582.5 572.2 559.2 554.4 548.5 542.4 536.6 531.7 525.6 514.6 502 490.4 479 472.8 467.7 462.2 457.2 449.4 441.4 435 428.1 427.9 427.2 419.6 407.1 404.7 400.7 388.7 384.2 378.5 372.2 360.4 365 361.5 359.3 357.6 355.5 350.5 343.9 335.8 330.7 325.5 319.7 315.4 309 300.4 290.5 282.9 275.1 266 261 259.9 257.4 247.6 243.7 242.9 237.7 237 233.5 231.1 228.5 227.3 227 226.4 225.7 224.8 223.4 221.1 221 220.3 219.3 219.5
560 570.3 580.2 591.8 602.6 613.1 625 636.2 644.1 654.1 661.9 663.1 659.2 657 656.8 653.3 644.2 633.4 624.1 616.1 603.9 584.8 565.8 552.2 544.9 540.6 533.4 528.2 523.8 525.5 528.7 530.9 532.5 535.1 532.6 534.2 534.6 532.7 531.4 526.4 520.4 514 506.5 500 496.4 492.8 490.6 488.3 490.6 488.7 490.8 492.8 494.6 497.2 499.7 503 508.6 515.4 524 530.1 537.7 545.3 549.6 552.4 549.7 544 540.1 540.4 539.2 538.4 538.1 538.6 539.5 541.3 544.9 548.9 550.4 550.3 555 555.6 558.6 564.4 573.3 582.4 593.1 613 618.6 624.9 637.8 648 657 663.9 670.9 677.5 682.6 683.9 684.8 685.7 684.9 684.3 684.2 683.2 679.9 679.7 680.4 681.4 681.5 681.8 681.7 682.3 678.3 666.5 654.6 647.2 636.1 620.9 599.9 591.5 611.3 629.9 638.3 637.9 638 637.9 628.4 616.9 601.8 586.1 581.2 571.2 558.2 555.1 548.5 540.5 536.2 533.7 530.2 519.6 507.7 493.7 482.1 473.9 468.7 463.5 457.8 451.7 442.2 435.8 433.1 432.1 426.9 416.9 407.6 407.5 400 389.5 383.8 374.3 370.6 362.4 357.2 356 355.9 354.4 351.4 345.9 338.5 330.3 324.4 320.5 315.4 310 303 295.8 282.8 273.6 265.5 260.5 253.6 251.8 250.7 250.1 245.2 238.1 237.3 235.9 234.9 230 226.5 225.2 227 226.2 225.4 224.1 223 221.5 220.8 219.9 218.9 218.4
558.7 566.9 576.2 586 595.4 605.5 615.2 623.2 631.6 639.6 644.3 647.2 647.9 649.3 650.4 647.5 639.4 631.3 623.3 610.5 595.4 577.9 563.2 550.3 544.2 540 533.8 529.8 527.3 530.7 534.7 537.2 540.9 542.3 541.5 543.6 542.4 540.5 536.3 531.4 524.2 516.4 510.7 504.8 497.8 493.9 491.9 490.9 492.9 492.1 492.7 495.3 496.8 499.4 502.2 507.3 511.9 520.5 528.4 534.9 544.3 552.6 558.6 560.7 556.9 551.3 546.7 546.4 544.7 542.7 542.5 543.1 544.1 545.7 549.8 552.6 553.7 553.5 556.9 558 561.4 565.3 569.2 578 587.3 606.8 615.9 621.9 635.1 645.4 652.9 659.6 666.7 673.1 677.7 679.7 680.5 681.4 682.2 682.5 682.3 679.8 679.6 681.1 681.1 682.1 683.6 685.2 684.3 685.1 675.9 663.4 654.8 645.2 633.5 618.4 598.8 598.7 621.5 637.6 643.7 641.8 643 642.8 633.8 620.9 603.6 587.6 579.5 571.3 562.6 555.9 548.4 540.3 538.1 539.7 530.7 524.1 512.9 497 483.3 476.1 471.7 465.8 459.4 453.9 444.5 436.6 435.4 430.2 420.3 413.5 412.4 408.7 396.4 388.6 378.5 371.1 365.4 358.7 353.3 351.5 351.9 349.6 345.8 339.5 332.3 323.3 316.4 313.3 309.3 304.2 297.5 291.6 276.6 266.5 262.6 261.7 261.7 261.3 258.6 253.8 242 237.1 237 235 234.9 229.6 226.4 224.7 224.9 225.2 222.1 222 221.6 221.4 219.9 219.9 219.3 218.5
557.5 565.3 573.9 581.2 589.3 598 605.5 612.8 621 625.7 631.2 634.1 635.6 639.9 642.9 642.3 639 632.5 620.5 603.4 587.3 575.2 560.9 549.7 543.9 539 534.3 529.3 532.8 536 543.2 545.4 548.1 550.8 549.5 551.8 549.6 544.5 541.7 537 526.9 519.8 513.5 507.4 501.3 496.6 493.3 494 494.5 494.4 494.2 497 498.8 501.4 506.2 511.2 516.8 524.8 532.4 540.5 549.4 558.8 567.9 568.7 563.3 557.9 553.7 552.7 550.3 548.8 548 548.2 549.8 551.2 554.6 556.4 556.8 557.4 558 562.3 565.6 570.4 573.5 575.6 581 601.3 613 619.8 631.6 642.8 649.7 656.3 662.4 668.1 672.7 675.4 676.9 678.4 679.1 680.7 678.6 679.2 680.2 681.6 682.7 683.9 687.1 689.1 686.6 683.4 672.5 663.9 654.3 643.8 632.6 617.9 598.1 605.7 629.3 644.6 650.8 648.7 650.5 648.5 641.5 626 607.6 589.3 581.6 573.4 563.8 558.1 550.4 544.5 545 545.4 537.8 533.7 520.4 502.5 487.3 479.3 473.2 468.7 460.9 455.3 446.7 438.7 437.7 429.2 420 420.6 417.3 407 392.7 384.6 377.8 369.1 362.1 356.8 354.9 349.4 345.9 342.5 338.4 329.9 319.9 312.1 307.9 302.8 299.3 294.9 288.8 281.3 269.9 271.2 266.3 270.2 267 263.5 259.2 250.9 241.5 236.8 236.2 233.4 230.8 227.4 225.8 221.7 222.1 219.5 218.1 219.8 220.8 220.6 220 219.8 219.7 219.2
557 563.8 571.3 577.2 583.4 591.6 597.8 603.4 611.4 617.5 622.9 625.4 628.6 632.9 636.5 638.4 638.5 632.1 615.7 599.1 585.5 571.4 560.6 549.3 545 540.9 536.2 534.4 538.4 543.3 548.5 551.5 558 559.6 556.4 560.2 557.8 549.5 546.7 541.1 530.9 523.1 516.3 508.9 503 499 496.3 496.6 497.1 497 495.8 498.8 501 504.7 510.2 516.3 522.2 529.6 536.4 546.4 555.8 567.8 577 574.1 568.8 564.3 560.7 559.7 555.6 553.4 553.3 554 555.8 556.8 559.8 560.1 559.7 560.8 561.9 565.2 568.4 575.1 582.3 586.7 582.7 600.6 609.7 617.5 627.6 639 647.7 653.8 659.1 663.8 668 671.3 673.3 675.1 675.8 677.5 676.5 678.9 680 683 684.2 686.2 689 691 687.1 681.3 673.8 664.7 653.2 643.2 629.3 611.5 597.3 616.5 636.9 649.9 657.3 656.8 658.6 656.8 648.9 631.1 612.6 594 584.5 576.4 568.9 561.9 555.4 550.9 554.5 552.7 545.2 539.9 528 509.7 495.6 486.8 480.8 474.5 466.6 457.4 450.2 442.3 439.8 430.9 425.8 423.1 416.2 406 395 387.1 378.4 368.6 358.8 355.8 353.7 349 335.8 332.8 323.5 318.3 308.7 303.5 297.3 293.5 291 284.9 283.2 282.4 282.3 272.5 272.1 272.6 270.5 264 258.5 250.4 243.7 237.4 234.7 233.1 230.1 223.6 221.1 219.6 219.8 217.7 217.3 219.2 219.5 220 219.7 219.8 219.9 220.6
557.1 562.3 569 574.2 579.8 587 591.9 597.9 604.2 609.5 614.5 619.1 622.7 628.6 632.2 634.3 631.2 623.4 612.1 595 583.4 569.8 559 550.3 546.3 542.7 539.2 540.3 543.2 550 555.4 561.8 566.7 566.3 564 565.2 561.3 553.9 550.6 545.5 535.3 526.7 518.9 510.8 505.9 503 501.3 499 499.8 499.7 497.8 500.9 503.9 508.3 514.4 521.3 526.6 533.1 542.6 552.3 562.7 574.7 581.1 579.9 575.7 571.9 569.8 567.1 563 560.3 559.6 560.1 561.3 562.7 563.9 564.6 563.8 563.5 565.5 569.2 572.1 580 587.3 593 599.7 590.6 601.3 614.6 621.7 633.2 643.7 651.2 656.1 659.8 663.9 667.2 669.6 669.7 672.7 675.2 677.4 678.5 680.2 684.2 685.1 687.3 691.9 693 687 681.6 674.8 664.6 652.5 642.8 615.4 600.2 610.9 629.5 644.8 655.6 664.6 665.7 668.3 665.1 659.3 642.4 619.2 598.3 590.3 581.5 573.6 565.4 559.9 557.7 558.7 561.6 554.4 543.7 535.3 519.6 505.8 495.4 490.6 484.6 474.3 460.7 455.2 449.6 442.4 436.5 433.6 425.2 420 408 396.8 389.8 378.8 365.7 358.7 355.5 352.5 345.4 337.4 327.9 317.8 309.9 304.8 306.6 306.1 302.5 301.1 295.7 290.7 288.2 279.6 275.9 276.3 279.2 275.9 264 256.2 248.3 240.4 238.1 235.7 234.2 226.8 220.3 219.5 218 218.9 217.7 216.6 216.9 219.6 218.9 219.3 219.4 219.8 221.1
557.5 561.4 566.5 570.4 576.9 583.1 587.9 593.6 597.6 602.8 609.2 613.8 618.6 624.8 628.9 630.8 626.8 618.2 607.7 593.2 582.1 565.7 557.6 551.8 548.7 545.5 542.4 544.5 550.7 556.7 562.5 568.8 573.8 572.4 570.7 572 563.5 558.4 553.9 547.4 537.8 530 522.7 513.2 510.8 507.9 506.1 504 502.8 502.4 499.9 504 506.8 512.4 518.3 524.3 530.3 538.7 549.7 560 573.4 584.7 589 588.1 585.5 582.8 579.6 577 573.1 569.9 567.8 567.3 567.8 567.7 568.2 568.8 569 570.6 569.6 574.4 577.1 584.7 592 599.1 605.4 609.4 603.9 616.5 624.9 636.2 646.6 651.4 654.6 655.1 658.6 660.6 665.9 668.5 671.7 675.7 677.4 677.5 680.5 683.6 685.4 688.2 694 692.3 685.6 680.1 673 662.5 651 641.7 611.8 620.8 628.5 639.8 652.9 665.3 674.1 674.9 677.6 672.5 666.1 646.3 625.9 602.3 595.6 587.7 577.7 568.9 565.4 564.5 568.7 567.1 566.9 557.3 547.2 538.5 519.7 511.7 503.8 496.8 482.2 472.3 462.8 456 449.8 446 438.4 430.4 423.8 407.8 398.9 389.9 379.6 366.5 358.2 355.9 350.9 344.6 333 324 313.6 313.1 311.8 310.2 307.8 303.6 300.9 297.3 293.9 289.6 286.7 282.9 284.4 288.3 276.9 264.9 255.8 245.6 240.3 235.9 234.4 231.2 225.7 219.7 218.4 216.8 217.1 217.7 216.2 215.9 216.5 219.7 219.1 219 218.9 220.5
556.4 560.5 564.2 570.4 574.4 579.2 585.4 591.3 594.6 599.1 604.7 609.8 614.4 620 624.8 625.4 620.4 614.3 604.3 593.2 578.3 566.6 558.8 554.2 551.4 548.8 544.1 550.1 557 563.5 568.8 576.1 577.6 577.5 576.1 573.8 567.9 562.4 557.3 549 540.1 532.4 524.4 517.9 515.9 512.2 509.6 507.7 505.9 504.7 503.2 506.3 509.4 515.8 521.5 528.6 536.1 545.5 556.4 570.2 586 593.3 597.2 597.2 598.2 595.9 592.6 590.1 586.8 582.2 578 575.4 572.8 573.7 574 574.1 574.9 576.1 573.3 579.8 582.3 589.5 595.3 602.4 610.1 614.9 613.1 618.4 628 639.9 647.1 652.7 657.7 660.2 661.7 664 666.8 668.5 674 675.7 676.1 675.8 679.8 682.8 684.7 686.9 690.7 687.4 682.5 677.2 668.2 656.5 647.3 637.5 619.9 632 637.6 649.4 664.1 674 681.3 682.8 683.8 679.6 671.1 649.8 629 605.3 600.8 593.2 580.8 570.9 568 568.4 577.9 569.9 574.8 571.6 562.8 559.3 538 528.7 518.5 504.6 493.3 479.7 470.3 461 458.9 454.3 443.7 434.5 423.6 416.3 403 390.3 376 365.5 358.3 354.6 348 337 327.6 318.2 312 322.7 317.8 313.7 309.3 304.2 299.5 297.5 294.8 293.2 290.5 288.4 288.9 289.4 274.2 264.1 256.7 246.3 240.1 236.8 233.3 230.9 226.5 218.1 216.6 216.7 216.8 216.3 215.6 215.6 215.1 215.1 215.3 217.3 219 218.7
555.3 559.2 563.5 568.3 573 578 583.2 588.1 592.5 597.2 601.5 605.8 610.4 616.3 620.7 620.2 616.6 610.9 602 590 578.5 569.7 562.7 557.4 554.2 552.5 549.2 555.4 563.7 569.3 574.8 580.1 582.8 581.3 580.7 576.6 571.6 565.2 559.3 550.2 541.9 534.1 526.6 521.8 519.9 516.3 512.3 510.5 508.5 507.1 506.1 507.7 511.4 519 525.6 533.3 541.6 552.6 565.7 581.4 596.9 604.4 608.5 611.1 613.9 612 608.4 607.6 602.4 595.1 588.7 585.3 581.1 583.1 582.4 581.2 581.6 581.8 579.8 585.6 589.4 594.8 600.3 607 615.1 620 622 618.1 630.8 642.9 648.9 655.5 661.1 662.9 663.9 667 669.7 672 673.3 675.1 674.9 675.3 676.8 680.2 681.9 683.1 683.6 681.5 677.3 672.3 661.9 650.7 641.8 627.4 631.4 637.7 645.5 658.7 672 679.9 684.5 686.9 690.6 684.3 676.3 657 627.7 611.4 606.4 597.3 583.1 573.3 570.9 574.7 578.3 575.6 582 582.2 574 571.9 556.2 543.2 528.2 522.2 499.2 491.7 476.9 470.2 468.3 459.4 445.7 434 429.6 418.9 408.8 392.9 376.8 365.3 359 352.1 341.4 329.6 319.7 316.1 317.7 323.8 318.7 318.3 314.4 305.8 304.5 300.9 296.1 294.5 290.2 292.1 292.6 282.1 272.6 265.7 256.7 247.9 241.5 235.8 233.1 230.3 225.3 218 215.5 216 215.5 215.2 215.9 216.3 215.4 214.5 213.6 213.6 213.7 213.1
554.5 559.2 563.4 566.9 571.5 576.5 581.4 586.3 590 593.7 598.3 602.7 607.6 613.3 615.5 614.6 612.6 607.4 600.3 591.1 581.9 575.1 568.4 561.8 558.6 556.2 554.2 561.5 567.3 573.3 578.5 584.3 586.6 585.4 584.3 580.7 575.2 566.6 559.3 551.3 542.9 535.5 530.2 528 524.5 520.4 516.4 514.1 511.7 509.8 508.6 510 513.6 522 529.5 537.8 547.3 560.9 574.8 591.4 604.9 616.7 622 628.2 633.5 631.5 633.6 629.8 621.5 607.9 599.7 596.3 590.8 592.5 590.4 588.5 588.6 588.4 584.5 590.6 594.4 601.2 607.4 615.4 622.5 626.5 629.9 633 630.6 643.2 651.3 656.2 661.9 664.3 667 669.6 672.8 673.9 675.2 675.2 674.2 674.2 674.5 676.4 678.3 677.9 676.8 674.7 669.4 664 652.4 643.5 632.3 625.8 638.4 641.3 651.8 664.5 675.5 684.6 689.2 691.8 692.2 689.2 682.5 664.9 632.9 616.6 610 601.8 590.8 578.7 574.9 578.4 585.5 586.4 588.3 587.7 578.3 571.4 562.1 552.7 533.1 527.2 507.7 498.8 483.2 476.1 474.9 464 447.7 442.6 433.7 421.2 413.2 392.5 377 365.8 357.1 348.2 337.8 328.5 318.2 317.3 319.2 322.4 323.9 323.4 319.9 311.4 308.5 306.2 300.5 297.9 302.5 300.9 292.6 281.8 273.9 266.1 255.4 247.1 239.7 235.7 232.5 229.4 223.9 216.8 215.1 215.5 215.3 215.8 217.6 217.1 213.6 212.9 213.7 213.9 214.3 214.3
552.7 557.7 562.2 566.9 571.7 576 580.5 585.1 589 592.8 596 600.6 606.2 611.9 613.2 613.6 610.2 607.6 601.8 595.7 588 579.6 572.3 566.1 563.7 560.4 560 566.7 571.4 577.1 582 587.3 589.4 588.4 589 583.6 576.4 566.3 558.5 550.8 542.6 537.6 534.9 533.1 529.3 524.8 520.9 517.9 515.4 511.9 510.1 512.3 515.6 524.1 532.6 542.1 553.6 567.7 584 600.6 616.2 629.4 638.3 647 652.5 654.8 655.8 651.2 639.1 622.3 611.8 606.8 603.8 602.3 599.2 597.1 596.2 593.8 591.1 597.3 599.4 607.8 616.1 622.7 631 635.4 637.9 641.1 645 648.1 652.4 655.8 661.6 665.8 669 672.4 675.3 676.2 676.5 675.3 673.7 672.6 672.5 672.9 673.2 671.4 669.1 665.7 658.5 653.2 644.3 635.9 628.2 628 639.1 643.4 654 666.7 678 688.5 692.5 695.2 697 695 688.8 670 640.3 623.4 615.3 601.2 595.2 584.5 580.7 585 589.6 596.1 595.1 589.8 580.2 573 563.1 550.6 537.5 526.9 510.9 501 485.5 482.4 478.5 467 453.7 447.7 440.1 424.7 411.4 393.2 376.4 363.5 353.2 342.4 335.3 326.8 319.1 318.5 323.5 330.1 335.5 329.1 331.1 324.7 317.1 309.9 305.4 306.6 314.6 306.3 292.7 284.5 271.7 260.4 259.8 248.4 240.9 234.3 231.9 231.3 221.8 217.8 215.5 215.3 216 217.1 217.2 216.6 213.8 214 214.8 215.2 214.6 214.4
553.6 558.2 562.8 568 570.9 575.7 579.6 584.1 588.4 592.5 596.8 600.3 607.1 612.2 615.7 618.2 614.4 609.5 605.2 600.5 592.4 584.6 576.1 571.5 568.2 566.3 564.9 570 575.5 580.5 585.8 591 592.4 591.9 592.1 585 575.7 564.8 557.6 550.5 545.6 542.1 540.4 538.1 533.8 529.3 525.2 521.5 518.6 515.4 513.6 514.5 518.7 526.5 536.3 546.1 560 575.2 591.3 609.4 626.7 641.6 653.2 661.4 667.4 674 677.1 671.7 657.9 640.3 626 618.8 615.2 612.3 608.9 606.7 605 602.4 599.8 605 608.5 616.7 624.6 632.1 640 644.4 645.8 648.2 650.9 651.4 653.9 656.3 661.3 666.5 671.2 675.7 679.4 679.1 678.5 675.2 672.6 670.9 670.7 669.5 666.9 662.9 660 655.2 649.5 644.1 636 629.6 626.4 632.3 638.2 642.7 654.7 665.2 678.7 689.4 692.4 700.2 700.2 698.1 693.1 673.9 647.4 627.2 621.8 602.8 597.5 590.7 589.7 591.3 595.2 602.2 601.2 589 586.3 571 561.9 546.3 537.3 523.3 510.8 499.4 483.7 489.6 481.1 473.3 456.8 452.9 444.2 426.2 411 392 375 362.5 348.5 338 330.2 322.8 319.8 320.1 325.7 333.5 341.2 334.5 347.1 347.5 332.2 311.6 311.2 315.1 320.5 307.5 291.7 281.3 268.5 263.4 261.2 244.8 242.7 234.6 232 229.1 226.7 215.3 214.7 214.3 214.8 215.5 217.3 216.6 214.1 213.8 214 214.3 214.8 214.5
553.7 558.9 564 568.2 572.4 576 580.4 584.8 589.2 593.7 598 603.3 609.4 617 623.5 628.2 622.1 616.9 610.9 605.6 597.2 587.5 581.5 577.8 573 571.4 567.1 572.4 578 583.8 589.9 595.2 594.7 594.5 594 585.9 573.4 564.1 557.5 552.9 550.3 547.5 546.7 543.5 539 534.8 528.6 523.5 520.6 518.1 515.5 517.4 521.3 529.1 539.4 550.2 565.4 580.9 598 617 635.8 652.8 664.7 673.9 683.8 695.7 700.8 692.3 676.2 657 641.8 632.5 626.5 622.5 620.2 617.7 615.3 610.5 608.1 613.6 618 626.2 633.8 641.8 648.8 651.7 653.5 654.4 655.1 655.2 654.8 657.5 662.5 668.5 675.4 680.2 682.5 682.2 680.5 676.9 672.9 670 667.4 665.6 661.5 656 650.9 646.1 642.9 636.3 631 626.8 626.4 629.9 635.1 642.1 652.3 663.5 677.1 688.3 695.7 702.5 698.8 700.3 696.6 674.8 653.5 634.8 624.3 607 599.1 593.2 596.3 594.8 600.6 603.3 597.9 591.2 586.9 569.9 561.7 544 536.6 523.8 507.2 495.5 488.8 490.1 481.5 474.1 458 454 443.2 427.5 409.7 389.4 372.6 359.5 341.2 336.7 332.8 323.7 321.9 322.1 329.6 338.4 346.4 348.1 374.3 360.3 345.7 319.7 317.4 322.5 325.9 310.8 292.7 279.5 267.7 265 255 251.2 243.6 233 233.7 230.3 221 214.3 213.8 213.8 215 215.7 216.8 213.6 213.8 213.9 214 215.2 214.6 214.5
555.8 560.9 566.1 571.3 575.3 578 580.9 585.7 590.7 595.3 600.2 606.7 614.8 622.2 628.4 633 633.3 627.5 619.1 612.1 602.6 592.3 591.3 582 577 575.1 571.1 575.2 580.4 586.8 593.7 596.7 596 596.4 594.3 584.3 571.9 564.7 561.5 558.9 555.8 554.1 554.5 551.1 545.6 540.2 531.7 526.2 522.7 520.3 518.4 519.9 525 531.4 541.8 554.1 569.3 585.2 604.3 624 643.9 660.7 675.7 687.4 701.9 717.7 720.6 710.3 692 673.2 658.5 646.8 639.7 634.1 631 628.1 624 618.5 617.8 624 629.8 636.1 643.4 652 657.8 658.9 660.1 660.5 660 657.4 655.9 659.2 662.6 670.6 678.3 683.4 684.6 685.1 682.9 678.4 672.5 668 664.6 660.8 655.2 647.9 642.9 639.5 636.3 632 627.7 624.6 625.8 627.9 632.2 639.5 649.3 661.2 675.2 687.2 697.5 699.1 695.6 702.2 697.9 678.2 654.1 639 626.5 614.4 603.1 597 596.5 599.2 599.3 601.1 593.4 586.6 575.5 566.7 558.6 547.5 536.1 520.1 505.2 494.7 495.1 489.7 481.3 473.2 459.4 450.8 440.2 426.8 406.9 386.5 367.2 347.3 344.6 342.2 332.5 325.7 322 324.8 333.3 340.9 346.4 358.5 380.4 376.4 352.4 333.1 320.3 321.7 327.7 312.4 294.8 279.1 270.7 263.8 258.5 248.5 239.8 231 234.2 231.3 218.5 213.8 213.4 213.6 215 216.3 215.6 214.2 213.8 213.9 214.6 215.8 214.7 215.3
559.1 564.7 570.1 573.9 577 579.3 582.8 587.7 593.2 597.7 603 610.4 617.9 625.3 632.1 641.3 644.9 634.9 625.2 617.1 607.2 603.1 595.3 586.8 581.9 579 575.5 577.6 583.9 591.1 596.2 597.4 597.2 596.9 592.8 581.6 572.3 569.2 567.1 564.8 563.1 562.3 560.4 557.3 552.4 545.3 534.8 529.7 526.1 523.4 520.4 523 528.1 534.7 544.2 556.9 571.7 587.9 607.3 628.2 648.3 667 684 700.5 719.6 733.4 736.3 725.7 708.1 689.6 673.4 662.8 654.2 648.4 643 638 633.2 626.7 627.6 632.6 638.6 646.1 653.5 661.1 666 666.8 665.5 665.9 664.3 660.8 659.5 661.5 666 671.6 680.1 685.5 686.7 687.1 683.6 678.6 672.1 665 658.4 653.8 648.3 644.1 639.3 635.9 633.2 629.9 624.9 623.3 623.3 625.1 630.9 636.6 646.5 657.2 672.4 686.9 697.7 696.4 701.1 708.2 700.2 677.2 657.6 642.3 633 621.8 614.5 603.8 599.8 598.6 592.6 591.1 583.5 577.2 568.1 561.5 549.3 540.3 529 515.3 501 495.7 495.1 488 479.4 466.3 452 445.7 434 423.3 402.7 380.6 362.6 347.1 349.9 346.3 333.5 328.9 325.9 328.8 337.6 345.5 349.5 361.2 381.7 376.2 360.2 339.9 321.2 326.3 328.5 313.6 296.4 283.3 271 262.4 258.5 248.5 238.2 234.6 234.2 226.2 213.9 213.8 213.5 213.6 214.2 216.7 216.1 214.4 213.9 214.1 214.6 215.1 214.6 215.5
564.4 569.9 574.1 576.7 579.4 580.1 584.9 589.4 594.5 599.2 604.7 611.2 619.5 626.8 633.6 647.3 648.1 639.9 629.7 620.7 611.8 606.2 595.7 589.8 586.2 583.7 581.7 579.8 589.4 593.9 597.7 598.1 597.7 596.4 589.4 581 575.9 574.9 574.2 573 571.3 568.9 566.7 562.8 558.5 548.2 538.3 533.9 529.5 525.8 522.4 526.1 530.8 537.6 546.4 558.6 573.5 589.8 609.6 630.6 651.4 670.8 689.1 707.8 727.9 743.8 746.3 737.4 724.1 706.8 689.8 679.7 667.9 660.2 654.6 648.8 643.3 636.6 638.3 643.2 649.1 656.9 663.4 668.8 673.6 674.7 673.3 670.9 668.9 664.8 662.9 665.5 672.2 671.7 681.7 687.7 688.9 688.3 683.4 678 671.2 661.8 655.1 651.3 646.4 641.6 636.8 633.5 630.8 627.8 621.3 620.3 621.5 622.1 629.1 635.7 643.8 655.4 669.4 685.2 694.1 699.6 709.2 712 705 685.2 659.7 647 638.4 632.8 624.8 612.6 608.6 602.4 585.9 581.3 575.6 569.5 559.7 551.9 540.8 533.7 522.3 507.7 498.4 499.1 495.2 483.6 469.8 460.4 446.1 437.8 429.7 410.3 396.3 374 357 354.6 360.1 351.4 343.7 338.4 335.7 335.9 338.7 344.3 355.1 368.3 376.5 373.5 362.3 341.8 329 332.7 328.7 317 295.6 281.8 271.6 265.6 257.1 246.4 236.4 234.6 231.8 223.9 214 213.8 213.9 213.9 216.5 217 214.7 214.5 215.2 214.1 214.7 214.4 214.5 214.6
569.9 575.4 578.3 579.7 581.8 583.7 586.8 590.1 595.8 601.5 606.7 613.2 620.8 627.6 636.1 646.3 648.5 642.2 634.1 625 615.7 606.2 597.6 592.9 590.8 587.9 587.9 587.5 591.4 595.5 598.4 598.2 597.8 595.7 589 583.2 581.8 582.5 582.4 581.2 579.9 577.1 574.3 569.5 563.4 552.3 541.9 536.3 532.4 528.4 525 529.7 533.6 540.3 548.5 559.6 575.7 592.6 611.6 632.4 653.1 672.7 691.5 711.1 730.6 745.6 751.8 745.4 738.8 726.7 710.1 695.8 682.8 672.5 664 659.3 653.9 646.6 650.2 656.2 662.4 670.2 674.6 675.2 681.5 682.9 680.9 677.3 677.3 670.7 667.9 671.5 676.3 680.4 681.9 688.9 690.7 688.7 683.2 675.9 667.7 659.6 653.3 648.6 644.3 640.1 635.8 631.4 627.3 624 616.6 616.5 618.4 620.6 627.7 635.4 644.1 653.5 667.4 681.6 688.7 701.5 711 712.6 706.5 683.9 666.7 656.7 644.5 639.4 632.1 617.9 615 605.3 583.3 573.9 568.3 560.8 549.6 540.7 531.5 523 513 502.7 498.1 499.5 491.9 479.2 466.1 456.4 442.3 428.9 427 408.3 390.3 371 359.2 368.2 368.1 358.9 351.2 350.9 346.1 344 341 346.7 357.9 369.4 372.7 370.7 360.7 340.7 333.1 340.3 331.9 320.6 295 279.6 270.6 264.9 254 244.8 233.5 230.8 226.2 218.4 214.7 213.6 213.4 213.4 217.3 216.3 215.6 214.5 215.1 214.8 215.1 214.5 214.5 214
574.8 579.4 581.9 583 583.5 585 587.6 591.8 597 602.2 607.5 613.7 620.9 629.1 638.4 645.7 645.9 644.5 639.1 628.7 616.6 606.3 600.7 597.6 595.5 593.8 593.7 592.7 592 596.6 598.4 598.2 598 596.3 591.5 587.9 589.2 592.5 593.6 591.9 589.3 586.1 583.4 576.2 568.6 554.7 545.6 540.1 535.4 530.3 527.4 531.9 536.1 541.9 550.7 561.3 577.5 595.9 614.2 633.6 653.6 672.8 691.9 712.2 730.5 744 752.1 753.8 750.6 743.4 728.2 712.8 697.1 685.3 676 670 664.9 659 664.3 669.7 676.8 682.9 686.5 686.6 689.1 690.6 689.1 685 684 678.6 676.7 678.3 682.2 685 684.6 689.5 691.6 688.2 679.3 672.3 665.1 658.1 652.3 647.3 642.9 638.3 633.3 628.9 624.6 618.6 612.6 614.1 616 620.5 626.5 635.5 644.7 653.5 667.7 675.1 689.5 698.8 707.6 709.4 700.8 678.1 668.8 667.9 654.4 652.3 637.2 622.3 620.9 610 583.1 570.3 561.6 553.3 546 530.2 516.6 512 503.7 499.1 492.8 498.7 489.7 470.5 461 449.9 434 433.4 430.9 412.9 395 373 365.7 376.2 381.4 369.1 364.1 361.6 359.2 350.7 346.3 352.1 354 359.2 364.9 363.6 355 342.5 336.9 340.7 336 314.9 290.9 282.9 271.2 261.5 249.8 240.7 229.8 230.1 223.8 217.4 214.6 211.5 214.8 216.5 216.1 216.3 215.9 214.8 215 214.3 214.3 214.6 214.6 213.5
577.8 583.9 586.1 585 584 585.6 588.2 592.6 597.6 602.6 607.6 613.3 621.1 630.6 638.6 644.9 646.7 647.6 642.3 630.8 616.3 608.7 605.2 602.9 600.1 599.2 598.2 595.4 593.9 595.9 597.3 597.2 597.8 596.9 593.4 593.6 598.2 601.9 603.3 603.9 600 595.2 592.1 581.5 571.2 557.2 549.5 542.8 537.4 533 529.8 534.1 539.1 544.3 552.9 565.8 580.4 597.7 616.1 634.1 651.9 670.5 690 709.8 726.8 741.3 752.5 759.3 761.2 757.6 745 728.4 711.4 699.1 689.6 683.7 676.9 673.1 677 683 690.6 696 698.4 697.9 697.2 697.7 696.1 692.2 689.9 686.2 682.6 685.5 687.1 688.6 689 690.2 690.6 685.6 675.1 669.1 662.6 656.4 652.5 648 642.5 637 631.3 626.5 621.4 613.7 608.7 608.9 613.6 618.7 626.9 636.9 646.4 654.3 666.4 674.7 684 692.9 702 703.3 695.2 674.5 680.8 675.5 661.4 652.3 644.8 624.4 617.1 611.5 588.2 564 556.4 541.1 538.8 522.2 510.3 502.8 500.2 495.5 490.9 494.8 484.7 463.4 454.3 444.9 433 436.2 433.2 413.4 394 376.6 379.3 382.6 390.2 381.6 380.5 375.9 370 360.3 347.5 356.3 358.2 353.6 353.9 355.7 349.2 339 338.4 340 335.6 307.8 288.8 283 274 259.4 247.1 238.3 229.6 227.7 222.6 217.4 213.9 212.8 215.1 216.1 215.7 216.1 216.4 215.4 215.1 213.5 213.7 214.2 214.1 212.9
581.2 586.4 589 585.1 584.4 585.8 588.2 592.7 597.4 601.8 606.4 611.7 619.4 630.2 638 644.9 649.1 648.5 643.5 628.5 619.8 611.8 608.1 606.6 602.9 602.5 601 598.3 596.4 595.1 595.8 596.6 597.6 597.4 596.8 599.2 606.3 610.9 612.9 614.5 607.6 604.9 601.2 587.2 573.7 561.9 552.8 545.7 539.3 535.1 533.4 536.9 542.2 548.1 556 567.9 583.6 600.3 617.5 634.5 651.2 667.7 686.7 705.7 723.8 738.5 752.4 762.3 767.8 767.9 758.1 744.6 727.9 713.4 703.3 696.1 689.1 686.5 690.5 696.9 704 709.4 711.1 708.4 705 705.2 702.3 698.7 695.5 693 690.4 691.2 691 690.8 690.4 689.9 686.3 680 671.7 665.9 660.1 655.7 652.7 647.7 642.7 636.1 629.8 623.6 617.3 608.9 604.5 606.5 610.6 617.4 626.7 637.3 645.2 654.8 666.1 674.9 679.3 684.7 690.9 693.4 685 671 682.9 679.5 663.5 649.8 645.9 626.5 617.9 614.4 590.8 565.6 554.8 534.5 532.4 515.6 507.9 503.7 495 492.2 489.1 491.7 478.8 456.7 445.3 436.6 434.3 439 431.9 414 400.5 383.6 386.4 387.8 399 401.4 397.6 391.4 384.4 369.9 352.9 360.5 360.2 359.4 346.9 345 340 332.9 329.8 330.4 321.8 300.3 291 280.7 270.1 257.3 244.9 237.1 229.8 225.8 220.2 217.3 215.6 213.5 214.4 215.6 215.9 216.6 217 216.1 215.3 213.5 213.7 212.3 213.2 208.5
585.4 586.3 588.6 583.4 583.3 585.1 587.6 591.8 596.4 600.1 604 609.5 616.6 625.9 636.3 644.5 649.1 648.9 641.5 628 617.7 611.7 609.1 606.6 604.2 602.4 601.1 599.7 597.7 594.4 595.6 595.5 597.4 598.3 599.1 604.9 614.8 618.7 621.4 621 614.6 613.5 605.8 592.2 578 566.3 557.1 548.4 542.2 537 536.7 540 545 549 559.5 575.3 589 603 618.3 633.9 650.3 666.6 683.8 702.9 721.2 736.5 751.9 764.5 773.3 775 768.1 758.1 742.4 728.2 715.5 707.8 701.8 699.5 703.6 709.1 717 722.7 722.8 718.6 713.4 711.4 709.1 705.2 701.8 699 696 695.1 694 692.4 690.5 688.5 684.4 677.4 670.8 663.6 658.8 655.8 652.1 647.7 642.6 636 628.5 620.8 613.6 605.1 601.1 602.4 607.2 613.9 624.6 636 644.7 653.8 665.5 671.8 676.3 681.2 684.1 684.8 671.7 668.2 682.2 673.6 665.2 652.4 647.2 631.3 619.1 609.5 591.7 572.1 554.3 535.9 529.3 513.1 504.6 500.8 493.9 489.7 486.2 484 479.2 458.3 446.6 441.4 435.3 443.3 438.2 421.1 397.1 396.2 389.8 397.8 405.7 421.7 417 407.7 398.9 379.9 365.2 357.3 358.5 358.2 344.1 334.6 330.1 323.5 323.7 317.9 302.6 296.7 290 280.1 268 251.7 240.3 232.6 228.1 222.9 218.8 217.9 216.5 215.3 213.9 215.6 216.3 217.1 216.9 215.3 213.3 213 212.2 211.7 207.6 206
582.7 584.5 581.6 580.7 581.9 584.1 586.4 590.2 594.6 598.2 601.7 607.6 613.7 622.4 635.4 642.5 645.5 641.9 631.2 623.7 614.2 612 609.3 606.5 604.4 601.8 601.1 599.3 596.1 595.9 595.3 596.7 597.5 598.7 602.5 612.2 620.8 625 628.1 631.2 621.1 620.1 608.9 595.8 580.7 570.7 560.5 550.7 544.6 538.6 539.8 542.9 547 550.6 565 581.4 596.2 610.2 622.3 636.4 650.7 665.2 681.7 700 718.9 735.4 751.8 765.4 775.8 780.2 775.9 768.7 753.9 742.6 728.1 719.1 713 712.6 717 722.8 730.2 734.8 734.3 729 721.1 717.3 715.1 712.2 708.8 705.8 702.9 700 697.7 695 691.5 686.8 682.4 676.5 669.6 663.2 658.3 655.2 650.5 647.1 642.8 635.6 626.9 618.5 610.7 602.4 598 597.7 602.2 609.7 620.9 633.2 642.9 653.4 664.1 668.6 674.2 676.5 679.6 676.8 665.9 664 675.5 666.2 663.4 657.4 645.4 630.7 617.6 610.7 595.2 577.9 555.6 536.6 532.8 518.1 500.8 495.8 493.9 490.6 487.2 485.5 485.1 459 449 445.1 440.6 443.6 434.7 417 398.6 409 403.7 411.3 430.5 430.1 430.2 418.2 408.7 394.3 380.2 368.7 359.4 360.8 342.5 333.7 331.2 324.5 318.8 306.4 296.3 291.2 283.9 275.6 262.4 250.1 237.6 230.6 225.8 219.2 218.4 218.3 217.2 215.1 213.4 213.4 217.6 217.5 216.4 214.3 213.4 212.7 212.7 205.5 205.5 205.1
578.7 579.1 576.9 577.7 581.9 583.8 585.6 588.9 591.8 595.2 599.8 604.5 611.1 620.3 631.2 637.2 638.6 630.7 621 615.7 613.2 612.3 608.8 605.8 603.7 601.9 599.9 598.3 597.9 596.6 596.6 598.2 598.8 600.1 606.6 615.1 624.3 629.6 635.4 635.2 629.1 624.7 612.9 598.6 583.3 574 563.3 552.3 546.1 541.4 542.3 545.8 549.5 555.9 570.4 587.3 602.2 615.5 627.2 640.2 651.7 665.4 680.7 698.2 717 734.6 750.8 765 776.1 783.3 782.6 774.8 763.6 753.9 738.1 728.9 724.4 725.5 730.4 735.6 742.3 745.1 745.4 738.1 728.6 723.7 720.5 719.3 715.9 713.9 710.2 706.5 702.9 699.2 692.9 685.4 678.2 673.9 667.9 660.9 656.2 653.3 648.8 645.6 641.5 634.7 626.5 616.6 608.1 599 594.8 592.6 596.5 604.7 615.5 627.7 639.1 651.2 660.4 664.5 672.3 673.1 670.9 667.9 657.6 658.3 662.3 659.3 661.2 659.3 636.1 631.4 618 609 591.7 579.6 561.6 547.8 533 519.2 500.7 495.3 493.6 493.4 487.7 493.3 484.6 458.9 450.2 444.9 447 444 429.5 418.9 407.2 418.4 419 435.6 442.9 442.6 447.3 432 414.6 404.7 389.1 394.1 367.5 350.9 340 331 329.7 320.5 315.2 303.3 290 287.9 280.5 269.7 259.6 247.4 236.7 229.6 223.4 219.6 218.4 217.5 216.2 214.6 213.6 214.5 217.5 217.2 215.4 213.6 213 206.7 205.7 205.8 205.7 205.7
574 574.2 574.4 575.9 581.9 583.2 584.6 587.5 590 592.8 597.2 601.6 607.3 616.5 623.9 629.7 626.4 618.6 614.8 612.7 612.3 611 607.7 605.3 602.9 602.1 600.1 599.1 598.7 599 598.3 600.1 600.5 603.4 609.8 618 624.9 630 636.7 634.2 632.1 626.1 613.9 598.3 584.5 575.6 565.4 553.7 548.2 543.8 544.7 547.5 551.1 560.5 576.4 592.2 607.2 620.6 631.8 642.6 652.9 665.5 680.3 697.6 715.3 732.8 749.3 763.4 775.2 784.2 787.6 780.3 771.2 761.5 747.7 739.3 736.1 737.8 743 748.6 752.8 755.4 754.9 746.6 737.8 732 728.9 726.2 723.9 720.8 716.8 711.8 707.8 702.2 695.3 684.3 676.7 670.6 663.5 658.5 654.2 650.6 646.2 643.2 639.2 632.9 625 615.8 605 596.8 592.7 588.2 591.3 599 609.2 622.5 635.7 647.6 654.8 663.3 669.5 670.6 665 659.1 646.4 645.1 645.4 651 652.4 648.2 629.6 631.1 618.7 601 586.4 575.1 566.9 549.9 532.7 520.2 502.7 494.5 492.2 490.7 489.1 492.3 479.1 459.6 450.7 445 445.7 443.2 428.8 421.1 415.1 423.8 431.4 443.8 461.3 454.8 459 447 434.6 417.2 410.3 397 380.1 350.5 338.3 332.9 327.7 322.8 315.6 298.4 289.2 282.8 276.6 267.2 255.4 244 234.9 226.7 222.4 220.1 218.4 218.9 216.8 215.2 214.5 214.9 214.9 216.7 213.3 213.6 211.8 205.9 206.3 206.2 207.7 208.5
