ncols 200
nrows 82
xllcorner 310000
yllcorner 781300
cellsize 50
454.4 457.5 467.6 474.7 478.5 483.5 490.7 497.5 512 526.6 541.7 560.4 578.2 593.7 605.6 612.6 612.8 610.9 605.9 600.7 592.3 584 576.9 573.9 571.1 569.3 575.1 579.7 586 591.1 597.3 603.6 606.3 615.1 620.2 621.1 628.9 637.8 645.5 654.1 658.6 659.8 663.5 669.7 676.5 683 687.2 694.4 702.3 710.2 717.8 723.5 725.6 724.1 718.1 707.3 693.5 674.9 658.4 638.1 626.6 618.7 611.2 603.8 596.9 592.4 587.8 582.5 577.5 573.4 568.4 558.4 546.1 533.6 514.9 493.5 475.1 459.8 444.1 431.7 433 429.4 417.3 405.7 393.7 392.2 388.2 389.6 395.8 395 403.6 408.9 427.2 443.7 461 485.6 509.1 529.5 544 557.3 574.3 590.2 605.9 623.8 641.4 658.4 674.7 693.8 709.6 720.3 725.3 725.1 720.3 706.8 692.4 676.3 658.9 642.7 624.9 607.5 587.4 566 545.5 526.8 512.7 500.6 489.8 476 467.6 465.8 466.4 467.9 470.8 472.9 478.5 480.2 486 490.1 493.1 500.2 508 516.8 525 534 543.3 552.4 556.5 561.5 567.4 571.2 574.3 575.7 589.3 601.7 615.1 627.1 636.9 647.6 657.6 667.4 676.2 678.2 679.1 679.9 680.8 680.9 685.6 690.7 696.8 704 708.9 714.1 719.3 724.8 731.9 740.6 750.4 762.7 778.2 794.1 804 808.7 802.2 786.1 774.4 757.2 745.7 734.6 723.1 710.4 694.2 683.1 681 674.7 673.8 670.9 673.2 677.1 682.7 691.3
454.7 455.9 462.7 469.6 475.9 481.9 488.7 495.7 506.2 519 533.6 549.1 566.3 578.7 587.2 593.1 594.4 592.4 590.9 584.7 574.3 565.9 561.3 560.5 569.6 581.4 588.9 587.3 590.1 593.6 596.1 603.6 610.7 619.2 623 627.3 630.8 634.7 643.9 652.2 656.6 657.9 661 666.1 675.9 681.9 687.4 692.1 701.1 709.9 716.8 720.3 719.4 713 703.9 689.6 673.6 659.9 644.6 621.4 613.8 607.1 596 587.6 582.3 573 566 559.5 555.8 551.5 544.4 537.1 528.8 513.9 497.1 479.5 463.6 449.4 440.5 447.6 454.1 431.9 418.9 402.8 392.8 394.3 389.1 388.6 399.6 396.5 399.3 411.2 426 445.8 464.1 480.6 499 516.3 533 546.4 561.8 577.6 592.6 607.7 626.2 646 666.7 686.7 704.5 717.4 723.7 725.4 719.6 705.4 693.7 680.1 665.9 651.6 636.8 620.4 597.6 573.6 553.3 531.1 515.1 502.9 494.1 484.1 472.8 467.1 468.3 467.1 471.2 471.9 472.4 476.7 484.5 486.4 489.1 496 503.9 510.3 515 520.9 530 537.2 542.1 549.7 557.4 559.6 570 577.1 584.9 597.5 611.4 622.6 634.1 645.9 655.8 663.7 668.3 670.5 670.8 671.3 673.4 675.4 680.9 686.2 692.5 697.8 702.2 707.8 713.3 717.6 723.6 733.8 743.6 757.5 773.6 789.8 804.9 810.8 810.1 792.3 780.7 760.1 746.5 734.8 719.9 708 695 684.1 678.6 676.4 677.1 673.1 673.2 677.8 682.8 691.6
456 456.9 458.2 466.3 474.1 480.1 485.6 493.7 502.9 513.5 524.8 541.6 559.4 565.2 573.3 577.8 574.7 574.4 572 565.1 556.2 551.5 553.6 567.8 581.1 591 597.2 596.9 598.5 600.9 601 603.8 608.9 616.6 621.3 633.2 640.2 639.1 647 655.6 659.9 661.3 663.9 666.1 674.7 682.3 687.6 692.3 701 708.7 711.7 712.4 706.7 697.8 685.6 670 654.1 639.2 624.4 609.6 602.9 593.3 581.6 570.4 564.1 556.3 548.5 539.6 532.9 528.6 523.6 516.7 509.8 498.8 482.7 467.7 456 453.9 455.2 468 460.3 440.7 421.7 406.3 391.8 390.6 389.3 388.6 389.3 394.7 399 411.7 423.3 444.1 461.6 475.5 492.1 508.1 522.9 536.5 551.3 565.8 581.6 596.1 611.9 630.8 652.3 675 694 708.2 718 720.4 715.5 706.5 696.8 688.3 675.4 661.4 645.1 624.6 602.1 575.9 556.2 532.9 512.2 502.4 495.8 488.9 478.4 469.7 468.6 469 468.1 469.5 471.3 471.6 474.8 478 484.5 491.5 496.7 502.8 511.6 518.3 523 528.9 533.7 540.7 546.3 557.1 565.7 574.2 580.2 593.5 609.5 621.1 633.3 642.8 649.9 657.1 659.4 660.7 661.6 662.6 665.4 669 674.8 681.1 687.3 692.9 698.3 703.7 707.4 712.9 719.3 728 739.6 752.8 768.4 785.7 804.5 815.1 816.9 809.1 788.8 765.3 747.4 732.8 718 704.2 694.9 687.3 678.2 676.9 675 674.2 677.8 679.5 687.4 694.7
457.7 457.6 459.8 463.9 466.9 475.9 481.9 489 497.8 506.9 520.6 532.7 540.1 551.2 558.6 557.2 553.9 556.8 551.9 546.2 544.3 547.8 560.8 577.1 591.4 600.1 604.5 609.6 611.7 610.9 608.9 608.2 610.1 616.4 626 640.1 647.5 648.2 653.4 660.4 663.8 664.6 668.5 671.4 673.8 681.8 689 695.9 702.9 706.6 704.8 698.9 691.5 681.5 667 651.2 636.9 622.3 610.5 599.4 587.2 577.8 567.1 559.1 550.5 542.9 535.4 526.5 519.3 514.7 509.6 504.1 495.2 483.4 469.2 469.7 469.3 475.2 480.5 480.7 464.8 440.4 421.6 405.6 394.7 393.2 389.3 389 389.7 391.4 401.9 406.9 418.5 442.2 458.7 471.2 485.6 498.9 512.2 525.8 540.5 557 573.2 584.9 601.1 617.6 639.4 658 677.9 694.7 707.9 714.6 714.4 709.6 705.1 697.3 686.1 671.8 650.3 628.1 606.1 577 544.3 529.9 515.9 505.2 501.6 494.4 483.8 480.3 477.9 470.3 470 470.5 470.1 471.2 472.7 473.7 478.7 484.5 490.4 496.9 502.9 509.8 516.4 523.1 525 534.2 543.1 553.7 562.2 572.8 582 593.5 606.9 617.8 626 634.2 640.5 646.5 647.8 649.2 648.8 653.8 659.4 664.6 671.3 677.3 682.6 688.7 694.2 699.4 704.1 709.8 715.7 723.9 735.5 748.5 763.9 784.2 801.2 815.9 817.9 809.5 790.6 769.2 746.7 729.7 716.1 705.9 696.4 690.9 677.9 677.3 677 680 680.5 690.1 698 702.7
458 459.3 459.7 462.6 470.9 478.8 476 481.8 487.2 495.2 508.2 517.1 522.8 528.4 533.7 535.4 533.2 532.7 533.3 534.4 544.6 558.9 572.3 585.4 600.1 608.8 616.1 621.1 621.5 619.7 616.8 611.7 615.5 622.5 633.5 643.1 650 653 659.5 665.9 668.4 668.2 672.4 677.2 676.9 684 691.3 699.4 702.7 703.2 694.8 687.7 675.8 661.6 647.3 631.5 617.7 602.8 590.5 581.1 569.1 558.9 551.8 546.6 540.9 534.5 528.7 526.4 520.9 513.3 509.6 502.2 491.9 484.6 483.8 485.1 489.6 494 496.4 485 464.6 440.4 418.3 405.1 394 390.2 389.7 389.2 389.7 390.6 394.8 405 417.8 439.4 455.7 468.1 480.3 493.2 505.5 519.5 532.9 547.5 562.2 576.6 589.1 607.2 627.3 646.3 663.5 681.7 698 709.2 717.3 716.6 712 704.8 696.7 681 657.1 633.6 603.8 577.5 554.1 530 516.2 510.6 505.9 500.7 495.4 487 484.7 477.7 472.3 471.1 471.9 472.6 472.7 473.4 475.4 478.3 482 488.7 497.3 503.3 509.8 511.3 520.9 531.3 536.8 548.1 559.8 573.8 585.5 592.7 603.2 610.9 618.3 623.6 629.8 633.5 635.4 638.2 642.3 647.7 652.8 659.8 666.6 673 679.3 685.8 691.2 696.4 702.3 707.7 713 720.5 732.4 744.8 762.4 779.2 799.5 811.2 814.5 816.3 802.6 777 747.4 730.8 718.3 704.8 697.1 692.7 681.5 683.6 683 689 690.5 697.7 705.5 715.9
458.3 459.1 460.1 461.2 470 475.7 483.9 489.7 494.4 494 498.8 503.1 503.8 509.9 513.1 516.5 520.8 523.3 532.1 544.6 559.1 575.4 586.7 598.8 608.5 618.9 627.9 632.2 632.2 629.4 624.2 617.7 626.3 638.2 645.2 650.5 655.8 661.6 664.5 671.6 675.6 673.3 678.7 682.5 684.2 687.9 699.9 703.8 705.1 700.3 683.7 664.9 646.1 642.3 624.6 613.1 597.6 581.9 571.5 561.3 552.6 546.7 543.2 538.6 538.9 539.6 540.2 536.4 528.5 523.7 518.4 510.7 506.5 503.6 503 504 505.1 508.2 504.4 491.5 465.1 444 422.9 406 394.1 390.3 390.3 389.3 389.8 391.8 395.7 405.2 419.7 435.9 449.9 464.7 478.4 490.5 502.2 514.4 528.1 541.7 555.5 569 582.5 598.1 617.7 635.7 651.1 669 687 707.4 718.9 722.4 721.9 714.1 702.9 685.3 661.3 634.2 605.9 584.3 563.5 545.7 528.3 517.2 511 506.4 500.8 495.1 487.7 484.3 483 477.4 473.7 473.5 474.5 473.7 474.9 478.8 479.9 482.1 487.7 495.1 498.8 509.9 518.8 525.7 534.2 546.1 563.7 574.4 583.9 591.8 600.1 605 610.2 614.6 618.4 622.4 626.9 631 637.3 643.1 648.6 653.6 661.7 669 675.8 682.6 688.6 693.9 699.2 704.3 710.2 718.7 729.7 744 758.7 777.5 796.7 805.1 811 819 810.4 785.3 748.8 726.6 716.8 705.4 695.6 693.5 689.5 688.4 688.6 693.2 698.4 705.3 715 728.6
459.6 460 461.6 461.6 466.2 475.1 483.8 491.2 497.3 502.5 508.9 514.6 522.2 526.1 528.7 529.9 536.2 538.2 547 557.7 575.1 587.7 599 608.7 620.8 631.9 639.8 642.5 640.2 636.5 626.6 626.1 641 651.6 655.9 659.5 667.4 672.1 674.4 679.4 683.1 682.7 688.9 692.3 697.6 701.5 706.7 708.8 711.2 705.3 693.4 671.8 649.7 630.6 613.6 592.4 578.3 568.5 562.8 556.7 554.6 552.3 553.5 554 555.5 556.2 553.1 548.3 543.6 541.7 537.3 530.9 525.9 524.1 522.7 524.1 525.2 528.3 514.4 490.9 466.6 447.1 421.5 405.2 392.7 391.1 390.6 389.4 391.9 394.4 400.2 412.4 421.4 438.3 453 465.1 477.5 489.4 500.3 511.9 524.4 537.4 551.2 563.2 577.2 591.2 609.6 625.8 642.2 662.3 683.6 703.9 718.8 731.4 730.7 721.4 700.9 682 658 630.8 607.5 593.3 577.1 555.9 535.3 523.9 515.1 510.7 505.2 499.8 494.8 490.5 485.9 478.7 475.4 474.7 475.2 474.7 475.4 476.8 479.5 481.5 484.8 489 491.9 504.3 515 522.9 529.8 539.9 555.5 570.8 580.1 589.4 595.7 599.7 602.4 605.4 606.5 613.2 620.5 626.5 632.9 638.1 642.9 648.3 657.5 665.3 672 679.5 686.3 691.7 695.9 701.4 708.5 719.6 730.5 743.9 757.5 775.1 791.7 803 810.5 816.8 812.1 783.5 749 728.7 714.6 706.2 702.6 695.6 692.8 693.6 693.5 698.7 706.4 709 727.2 740.1
460.1 459.9 462.3 462.3 463.1 475 485.9 492.2 499.9 507.8 515.6 522.2 531.7 538.9 542.4 543.4 542.9 552.3 560.6 574.5 588.9 601.2 615.4 625.7 636.8 645.7 649.5 650.1 646.6 640.3 629.1 642.1 654.5 660.9 666.1 674.2 678.9 683.9 689 693.6 695.4 697.8 703.5 704 707.2 711.8 711.8 711.4 709.6 702.2 692.4 679.7 666.3 648.4 626.6 610.4 595.3 580.9 574.4 571.8 571.6 568.8 569.6 570.5 571.4 570.6 567.7 566.1 564.3 561.1 556.5 551.9 547.1 543.7 543.1 542.4 543.9 538.3 511 489.4 465.7 442.4 422.8 406 392.3 390.8 391.3 390.1 390.4 395.3 401.3 412.1 417.9 434.2 447 463.1 475.2 487.6 498.1 509.3 521.4 536.6 548.6 561.3 572.6 587.1 603.1 621.2 637.8 657.7 680.6 700.5 719.3 727.3 727.8 719.4 704 683.6 661.7 638.9 624.2 608 591.8 570.9 551 535 524.3 516.7 512 509.2 501.1 498.2 489 481.6 477.4 476.5 477.3 478.1 475.7 476.1 478 481.9 483.4 486.1 487.2 499.1 507.4 516.2 526.7 535.4 547.3 559.6 574.1 584.2 589.3 595.2 596.7 596.5 598.7 606.2 614.1 621.5 627.7 634.3 639.8 644.5 654.5 662.1 670.5 676.9 685.5 689.6 694 699.9 708.8 718.8 728.6 743.4 757.4 772.8 787.1 802.7 812 814.2 810.6 781.4 756.1 732.9 716.6 707.9 707.5 697 695.9 697.1 698.7 706.2 712.6 723.6 737.8 754.1
459.5 463.1 462 463.8 463.6 476.9 486.1 494 502.5 510.3 520.6 529.7 539.1 546.2 550.8 551.4 556.7 566.8 575.7 589.5 602.4 616.7 629.8 639.3 648 653.9 657.4 656.5 648.4 634.5 644.2 656.3 664.2 674.3 682.1 686.5 690.3 696.2 702 708.2 713.3 716 716.9 716.9 716.5 717.9 718.3 718 715.6 710.6 701.4 687.1 671 655.1 638.5 626.8 610.7 602.3 596 589.5 585.8 583.8 582.6 584 585.4 586.4 585.6 581.1 582 577.3 572.3 567.9 564.4 563.7 561.6 557.4 555.7 540.2 510.3 485 460.6 436.5 418.2 398.4 391.7 391.2 391 390.7 389.8 393.8 400.5 411.7 425.5 438.2 446.2 456.7 470.9 485.9 499.1 509 522.3 536.4 548.1 561.3 573.4 585.7 601.2 619.7 634 660.8 681.3 702.4 723 728.7 727.2 720.8 711.1 692.9 671.2 654 638.4 624.8 606.1 586.7 566.6 547.2 536.2 525.5 520 512.6 508.1 498.4 491.4 486 483.8 480 484.1 482.3 477.3 477.9 477.7 479.6 481.9 484 486.8 488.7 504.6 508.7 519.3 530.5 541.1 552.5 564.9 578.4 583.4 588.8 589.9 589.9 592.7 600.1 608.2 615.5 622.1 628.5 635.4 642.6 649.7 658.6 669.3 675.9 682.6 685.6 691.1 697.7 707.7 716.1 728.4 742.2 756.2 772 785.7 802.1 813.8 815.3 810.2 797.4 763.1 742.8 726.4 710.8 706 699.9 700.4 702 706.2 714 724.5 737.2 756.9 772.9
461.8 464.6 464.6 465.4 464.4 477.4 486.6 495.7 503.8 513.5 523.1 532.3 542.9 552.2 557.4 560.9 569.4 577.8 591.8 606.1 621.7 635.7 647.2 656.8 662.3 662.6 662.9 659.5 642.8 649.4 658.3 669.7 676.9 685.3 690.8 695.7 701.5 707.8 715.8 721.5 725.2 728.5 729.2 727.9 725.7 725.6 725.8 724.2 720.5 712.4 704.9 690.8 675.5 661.7 646.8 631.5 624 618.2 610.3 606.3 603.2 602.3 601.1 602 601.9 604.3 602.1 599.8 596.1 592.3 590 585.3 580.9 577.4 575.2 571.4 568.8 544 513.5 482.3 462.1 438 412.1 394 391.8 391.3 390.9 390.3 389.9 393.7 405.2 416.2 426.4 439.2 449.9 463.9 476.3 488.6 498.4 509.6 523 537 550.1 561.1 573.1 585.9 602.1 618.2 639.1 662.1 682.9 699.9 724.2 733.6 735.4 736.6 724.2 706.8 692.2 672.8 652.2 636.8 620.2 601.6 580.8 561.5 547.5 536.7 525.6 518 511.6 505.7 499.7 494.1 492.1 489.4 487 486.7 485.1 481 479.5 478.2 479.9 480.4 485.7 488.1 497.4 506.1 511.6 521 532.6 548.3 563.4 572.3 578.4 581.5 583.3 582.6 589.7 595 602.2 608.8 614.7 621.5 628.6 638 645.7 655.6 667.3 673.4 679.6 683.6 690 697.5 705.7 714.1 729.1 743.5 757 771.8 789.1 801.3 811.9 816.5 819.6 805.3 781.4 748.4 727.4 714.4 708.1 704.7 705 709.4 713.4 724.6 738.4 758.1 769.8 780
462.9 464.7 467.9 466.2 466.9 476.8 487.3 499.1 507.1 517.1 527.4 537.6 546.7 557.5 564.9 570.7 577.8 591.6 608.8 625 641.9 655.1 668.2 673.2 674.7 670.8 664.7 656 650.1 660.7 675 683.7 690.7 697 701.4 706.8 713.2 720.6 727.9 731.6 735.3 738.8 738.3 737.3 736.9 737.2 736 731.2 726 718.9 707.3 696.3 683.6 666 652.8 644.2 638.7 632.7 628.4 623.9 620.6 618.4 619.3 619.3 619.3 620.2 618.4 615.7 612.7 608.4 607.2 602.3 595.8 592.2 586.9 582.7 581.6 557.3 530.9 496.6 463.7 440.3 419 397.5 392 391.7 391.2 390.8 390.3 396.4 406.6 417.1 428.2 439.1 451.9 467.1 478.9 493.2 503.4 514.5 525.3 536.5 547.9 563.7 576.1 586.9 601.8 618.9 641.3 663 684 701.6 723.1 737.5 743.9 747.1 739.1 728.9 717 702.5 675.1 654.7 638.3 613.4 591.8 570.8 556.2 544.2 533 527.4 518.9 514.5 507.9 505.3 502.7 502.8 495.3 490.9 489 489 480.9 481.2 482 482.2 482.1 488.5 491.7 499.8 509.7 517 533.5 546.6 559.5 564.4 572.4 574.5 576.7 578.2 585.1 589.8 596.2 601.6 607.9 614.3 622.7 633.6 645.1 655.8 663.7 668 674.8 683.2 691.8 697.9 706.1 715.6 729.1 742.7 759 773.7 789 801.5 812.2 820.1 827.7 815.1 784.4 758.8 736.8 721.4 712.2 708.7 710.1 716.5 725.7 736.4 755.7 773.9 784.2 795.2
464.1 466 467.5 467.5 467.3 476.8 488.9 499 510.8 520.2 532.9 545.2 554.9 565.1 572.9 580.8 592.1 606.2 624.9 644.2 663 676.4 682.7 684.5 682.1 675.3 666.9 654.8 660.1 674.6 687.2 696.9 705 710.8 713.3 718.9 725.5 732.1 737.8 742 746.2 748.5 748.6 752.1 752 750.2 745.9 740.2 734.7 724.9 714.3 703 689.4 673.2 664.5 657.4 651.3 646.3 641.6 637.9 634.5 632.1 635.9 636.7 637.8 637.7 633.9 631.1 628.3 625 618.9 613.2 609.8 604.9 605.4 599.5 591.1 555.4 520.8 488.5 460.9 437.3 415.9 394.7 392.2 392.1 391.6 391.1 390.7 397.4 406.3 417.6 430.6 442.3 453.7 468.6 481.3 494.3 505.9 518.7 531.2 543.2 554.1 565.5 578.5 588.5 603.4 620.1 643.1 664.3 683.4 702.3 726.4 743.6 749.9 751.1 748.6 740.2 728.1 710.9 693.1 678.1 653.3 627.9 604.7 588.6 567.5 554.5 544.7 540.6 530.9 523.2 518.9 517 514.7 512.7 511.2 499.5 494.4 489.5 485.1 481.3 485.1 484.4 484.3 484.1 489 495.6 509.9 519.3 541.2 553.8 555.9 557 563.6 564.8 568 574.4 577.1 584.4 590.6 596 602 611.6 619.3 631 644.5 653.4 660.2 664.3 673.3 687.5 693.8 697.9 704.4 716.4 728.8 742.8 758.3 773.8 787.8 801 814.9 825.9 833.8 823.5 794.1 773.3 746.6 726.4 714.9 716.5 718.3 724 733.9 748.2 769.7 782.7 791.5 806.7
462.5 467.4 468.3 469.2 469 478.2 489.8 500.9 511.6 524.6 538.8 552 563.6 572.8 580.9 591 603.4 620.2 639.8 661.5 680.5 691.8 694.8 694.7 690.6 679.6 667.6 654.6 666.3 684.5 698.8 709.4 717.7 722.9 727.7 732.6 739.9 744 747.8 752.5 755.5 758.9 765.2 767.4 767.9 764.4 759.9 755.7 749.3 742.1 729.8 713.3 696.2 684.1 675 668.5 662.5 656.9 653 649.9 647.8 650.2 653.6 655.4 656.3 654 649.3 645.1 641.4 636 627.5 624.6 621 620.3 622.4 614.2 589 549.7 511.2 478.2 451.3 429.4 408.1 394.2 392.5 392.5 391.8 391.5 391.2 398.6 408 417.1 431.2 444.8 458.9 472.1 481.9 497.3 508 522.6 536.4 547.8 560.3 574.7 584.5 593.4 608 626.3 643.9 664.7 684.8 703.3 726.6 744.5 753.4 757.3 755.9 748.8 737.3 721.2 705.7 686.2 658.7 636.7 617.1 596.8 576.2 563.5 559.6 553.9 554.9 541.7 531.3 527 526.8 522.2 517.6 511.7 503.4 492.8 487.8 490.8 483.9 485.1 489.8 486.5 484 493.5 502.8 522.7 538.4 547.1 550.2 550.5 553.4 555.6 560.2 563.5 567.4 572.6 580.8 586 600.1 610.3 618.1 629.9 642.1 650.4 655.5 663.5 674.3 685.7 692.6 696.9 703.9 715.7 728 743.4 757 771.1 784.6 800.6 814 828.3 832.3 826.1 809.6 780.8 748 731.2 721.5 721.1 722.7 728 742.8 759.4 773.2 786.3 800.1 815.3
467.4 468 469.4 471 471.7 478.5 491.8 502.9 516.9 530.8 545.9 559.8 571.5 581.8 593.6 603.8 617.7 635.2 655.7 679.3 695.9 704.9 708.5 707.9 696.9 683.2 671.6 658.4 671 690.7 707.3 720.1 728.7 735.3 742.7 747.9 751.6 753.8 756.5 761.3 766.2 770.6 775.5 778.4 779.4 776.6 773.1 769.5 764.6 755.8 743.8 725.8 708.5 695.3 687.6 680.8 674 668.4 665.1 663.6 665.8 668.4 672 672.9 670.3 665.4 660.7 656.1 650.3 644.7 640.5 636.6 635.4 637.4 629.2 610.4 579.2 532.9 495.6 467.4 441.2 421 403.7 393.1 392.6 392.3 392.5 392.5 391.2 402.5 409 419.4 430.8 447.5 462.4 475.2 484.9 500.6 513.1 528.1 543.6 557.3 571.2 583.4 594.8 603.5 614.1 628.9 645.1 664.1 684.7 703.4 725.4 746.1 756.8 762.2 761.6 754.1 742.6 725.9 711.1 688.8 660.9 641.6 625 602.2 583.9 574.6 571.3 569.3 566 568 556.9 542.3 536.4 533.2 524.7 518.5 512.5 506 494.8 491.4 488.4 485.2 486.2 488.1 486.9 490.8 497.7 508.9 527.4 537.1 539.2 541.8 543.9 546.1 549.9 554 554.2 560.7 569.9 582.3 593.3 605.3 617.4 629.4 639.9 644.6 650.4 663.1 677.6 691.6 693.7 695.3 703.6 713.9 729.1 741.5 752.9 767.3 781.4 795 813.7 825.2 828.2 827.4 813.9 783.6 750.7 736.9 727.9 724.6 726.8 733.9 751.5 763.1 779.5 791.4 804 816.7
469.3 470.2 470.4 473.4 473.5 479.1 492.2 506 521.2 536.3 553.6 569.4 584.1 595.4 606.9 618.6 634.6 655 672.5 692 706 715.3 718.2 712.6 702.3 689.7 678.2 665.2 674.2 693.7 713.4 727.9 737.4 746.5 753.7 757.6 760.4 761.8 765.1 768.6 773 777 781.6 784.9 787.5 788.7 788.8 786.8 778.1 767.2 753.8 742.1 728.4 715.2 706.1 696.9 688.3 684.8 681.6 681.1 683.7 683.8 686.3 685.3 681.2 674.6 668.1 663.1 660.2 655.2 648.7 643.5 645.2 638.8 619.1 587.5 549.5 515.8 481.4 457.8 439.3 414.5 397.6 392.8 392.9 392.8 392.8 392.8 391.4 400.1 407.3 420 436.8 452.4 465.7 479.4 491.1 504.3 518.5 533.4 548 563.8 582.7 596.7 606.7 617.1 627.5 634.7 647.9 665.2 684.9 703.4 723.4 744.7 757.3 763.2 763 757 745.5 729.5 710.1 685.7 662.5 644.3 626.8 606.7 595.6 591.7 587.2 585.6 579.6 576.7 569.3 556 546.1 538.7 531.2 524.2 514.3 509.6 500.3 495 492.6 490.5 488.3 487.4 488.9 487.4 493.6 502.1 512.8 522 531.9 533.9 534.1 539.6 543.7 544.4 545.7 553.5 561.1 572.2 585 597.7 612.6 622.7 630.7 637.5 645.8 663.4 677.8 689.1 687.6 691.1 699.4 713.7 726.7 737.5 747.6 761.3 776.4 790.8 802.8 815.4 824.3 826.5 812.5 777.7 756.9 741.7 728.3 728.2 733 741.1 749.1 766.9 779.9 790.9 804.9 816.5
469.5 473.1 479.5 477 476 478.8 491.6 507.5 525.5 544.1 565.1 582.6 596.9 609.7 624.2 640.5 656.2 673.3 688.2 703.1 717.3 725.7 726 720.3 710.7 697.5 684 671.7 675.6 693.5 711.5 728 741.7 751.5 758.8 763.5 766 768.7 772.1 774.5 778 781.3 785.1 789.3 793.1 796.8 798.3 796.4 788.6 777.5 766.1 754.9 745.6 735.2 724.4 709.6 705 702.9 699.1 699.9 699.3 698.2 695.5 692.5 687.8 681.7 672.1 669.6 666 660.2 655 647.8 643.1 624.5 594.2 561 529.2 497.3 470.5 449.5 429.7 407.6 393.5 393.5 393.3 393.1 393.1 392.1 391.6 402.5 410.2 424.6 441.9 462.7 476.9 486.1 495.6 510.4 524.1 539.3 553.2 573.9 591.9 604.5 616.5 627.3 640.2 649.2 658.2 672.1 688 704.7 724.6 742.3 756.8 762.2 761.6 755.8 745.5 729.5 708.1 684.2 666.1 647.2 633.1 617.5 608.3 606.1 603.2 598.2 594 588 577.6 568.6 557.3 545.4 537.9 529.5 521.9 513.2 506.2 501.4 496.4 492.9 489.4 490.9 488.9 489.3 489.2 497.5 505.4 514.5 523.6 525.9 525.9 535.4 537.8 535.8 542.1 544 551.7 562 573.3 584.5 598.2 611.5 617.4 631.2 643.8 655.7 670.2 678.7 680.1 684.8 695 709.4 722.2 733.1 744 756.6 771.2 784.2 795.7 804.5 816.4 819.8 804.7 773.9 753.6 743.4 728.4 728 737.7 743.5 751.6 764.2 780.7 790.6 803 812.4
473.3 479.2 483 484 477.5 479.5 488.8 508.4 531.5 555.4 579.2 597.2 612.6 626.8 647.2 663.6 677.8 690.3 701.4 715.2 727.2 735.3 736.8 731.9 720.1 704 689.4 678.9 676.3 689.6 707.1 723.3 738 749.8 758 764.6 769.8 773.6 775.2 777.6 780.5 783.7 788 792.2 796.3 800.3 802.7 801.9 796.5 786.7 775.3 763.8 754.6 746.4 735.2 724.1 717.5 714.3 712.3 711.7 708.9 705.5 701.6 696.9 690.9 682.4 677.9 676 672.8 666.7 657.2 646.7 628 602.1 576.4 544.1 512 480.6 457.1 434.8 418.1 399.5 394.3 394.1 393.8 393.3 392.8 392.7 395.9 405.4 417.8 429.7 446.1 462.8 482.2 495.2 502.6 518.7 531.6 546.3 561.1 581.2 597.8 612.4 628.3 640.6 651.5 660.8 672.5 684 695.3 709.7 728.1 745.3 757.5 763.9 765.4 758.8 747.9 733.7 714.5 692.4 672.6 657.4 642.6 628.8 619.9 620.5 617.8 616.5 615.1 606.8 595.8 584.3 568.8 559.2 546 537.7 531.2 524 512.2 504 501 497 491.1 493.1 496.5 491.2 491.8 491.2 497.8 505.4 511.5 514.5 517.3 524 524.6 531.3 535.4 540.9 544.5 551.8 560.7 570.9 582.6 593.3 607.8 622 637.3 647.4 657.9 666 669.4 679.2 689.6 703.2 716.3 726.4 738.4 749.9 762.4 775 786.5 797.6 805.3 806.1 793.6 769.4 753.7 744 734 736.5 737.2 741.7 752.4 762.2 777.1 787 798.3 808.2
474.8 476.2 482.9 482.8 479.8 482.6 488.3 507.9 535.7 563.8 591.3 609.9 629.2 649.6 667.6 682.9 696.2 707.4 717.7 728 738.8 746.1 747 739.6 727.3 712.1 697.5 685.8 675.3 687.5 702.2 716.6 730.9 743.3 753.2 761.4 767.6 771.3 774 777.7 782.1 785.6 789.9 794.2 797.8 801.6 802.9 800.9 794.6 784.6 774.7 767.1 759.4 752.1 742.7 732.5 726.9 725.2 722.8 719.6 715.4 709.6 704.3 699 690.8 684.4 680.5 679.9 676.2 664.6 650.8 629.2 605.5 577.2 552.7 523.1 493.3 467.5 445 424.2 408.5 396.4 394.8 394.4 394.2 393.5 393.1 393 397.8 409 421 438.9 456.8 468.9 489.6 503.4 512.5 528.8 539.5 552.9 568.6 588.1 610.2 632.4 642.8 658.5 666.6 674.5 684.1 692.4 704.5 718.9 738.1 753.3 764.4 775.3 774.8 767.8 754.3 738.5 721.4 698.4 681.1 667 653.4 640.4 634.4 631.1 638.2 634.6 630.1 622.9 609.4 596.2 583.2 568.7 555.3 547.2 538 529.4 519.1 511.7 507 498.6 492.3 494.8 497.4 496.4 493.8 494 492.3 499.4 501.3 504.4 507.2 511.9 518.6 524.4 530.3 534.5 536.7 543.5 551.1 558.7 571.3 582.8 596.7 613.6 626.9 636.3 645.4 650.9 659.8 670.4 682.3 695.2 708.6 718.8 730.2 740.7 749.8 765.5 778.2 788.9 794.1 792.2 778 759.8 749.1 736.1 735.6 729.3 735.1 742 747.7 759.2 773 780.3 793.7 802.5
477.2 478.7 481.7 482.4 482.4 485 490.2 509.3 539.3 568.2 594.9 617.6 640.4 665 684.8 702 714.2 724.9 731.6 740.3 749.1 755.1 755.8 747.8 735.1 718.8 703.1 691.9 684.8 684 696 709.6 721.5 734.4 744.7 753.7 759.5 764.5 770.2 775.6 781.7 787.2 791.6 795.8 798.7 800.9 799.6 794.5 785.1 773.2 763.2 757.2 752.6 747.5 741.7 736.2 731.2 728.5 724.5 720.1 716.2 710.3 704.3 699.1 692.6 686.6 680 676 667.5 648.3 624.8 601.6 580.8 554.1 528.9 501.5 475.3 453.5 433.6 415.8 401.5 395.2 394.9 394.4 394.4 393.8 393.1 394.2 401.1 411.6 423.8 441.6 461.7 482.5 497.2 516.2 524.5 538.9 548.5 561.6 581.3 600.7 623.7 641.3 655.5 673.7 683.8 693.1 701.2 710.2 721.5 733.7 748.6 764.9 779.6 785.1 781.8 774.3 762.4 745.5 727 704.4 686.6 674.3 661.7 654.5 648.7 646.3 648.5 646.8 642.1 632.5 617.1 605.8 594.7 582.2 566.1 556 546.3 535.7 526.8 517.9 510.6 505.4 499.6 494.6 497.4 496 495.6 496 494.2 495.6 498.4 500.4 501.4 505 507.4 516.9 522 521 526.7 532.6 540.4 547.1 558.4 570.2 579.9 594.9 609.7 622.3 633.9 639.9 648.3 659.7 674.1 691.4 701.2 711 720.6 731.1 740.2 753.6 767.8 777.5 782 779 766.1 752.4 742.2 731.8 733.3 726.3 730.6 736.8 745.1 752.1 763.2 775.6 785.9 797.2
476.6 480.3 480.2 485.1 484.6 488.4 492.5 511.5 539.2 566.2 591.3 615.2 639.5 665.5 691.2 712.3 728.3 738.5 747.9 753.6 760.4 766.5 767 756.6 743 726.8 711.3 698.3 690.4 685.7 691.3 701.6 712.8 723.6 733.6 742.3 749.8 757.2 764.5 772.8 780.8 787.6 792.5 797 799.7 798.9 794.5 784.9 772.7 757.2 746.5 740.8 736.8 734 730.3 728.7 725.3 721.2 719.3 716.7 712.1 706.2 700.7 698.1 693.6 688 681.9 674.3 660.1 633 609.5 580.4 555 533.3 509.4 482.5 460.9 442.5 422.9 405.5 395.8 395.6 395.5 395.3 397.7 393.4 393.9 398.3 404.2 420.9 429.3 446.1 465.9 489.4 511.7 528.6 538 550 558.2 575.7 596 614.2 634.3 654.5 670.1 684.9 696.9 709.8 720.2 728.3 737.3 751.3 768.7 782.9 790.1 792.5 788.7 780.1 767.2 748.9 729.6 707.5 689.9 681.9 673.1 665.4 659 659.5 659.8 655.4 649.8 639.8 630.7 619.2 605.5 591.8 578.9 566.3 555.9 545 534.2 527 521.1 510.9 503 501.7 498.8 499.9 499.3 498 497.1 493.6 496.5 498.5 500.3 501.9 502.7 507.5 511 511.2 515.8 521.8 526.6 535.5 546.1 556.4 564 576.9 589.4 600.9 614.5 628.9 639.6 651.3 665.2 681.6 691.4 701.5 711.5 720.5 731.4 743.3 756.7 766.5 771.2 767.2 752.6 742.6 734.8 726.1 721.4 720.5 723.4 729.6 737 745.4 754.2 765.9 777.8 791.8
480.6 480.8 482.4 485.3 484.6 493.9 495.6 510.2 535 560.6 584.5 610.1 633 660 687.6 713.9 736.1 748.5 757.9 765.9 773.3 777.2 775.7 766.3 752.4 736.2 718.7 706.4 696.4 691.6 688.2 696.6 705.8 715.3 724.6 733.4 741.7 751.5 761.3 770.2 779.3 786.6 793.3 797.8 799.2 795.5 787.7 774.8 758.1 739.2 727.3 720.7 716.1 714.4 714.2 712.6 708.5 709 708.5 706.9 703.2 698.5 696.3 694.5 691.5 688.1 681 671.3 650 617.7 590.3 561.8 536.7 508.1 487.6 465.3 447 430.6 413.5 398.3 396.2 395.9 395.6 395.4 395.3 394.4 396.5 402 413.8 430.4 440.5 459.7 481.2 504.7 528.7 544.7 550.9 559.7 571.7 588.8 611.4 630.1 650.8 668.1 681.2 694.7 710.1 726.1 737.7 744.6 758.3 772.6 786.8 795.7 798.8 799.2 795.1 788 773.9 754.6 734.6 712.8 694.6 688 680.1 673.7 669.4 670.3 669.3 667 660.9 648.6 638.6 627 615.2 601.2 590.4 577.7 567.3 554 544.6 537 525.8 517 509.2 504.4 504 503.3 503.3 499.8 501.7 498.7 496.6 495.6 502.1 499.4 500.2 500.9 505.9 498.4 502 511 517.8 523.5 534.3 542.4 550.6 561.1 571.2 581.5 591.2 605.3 619.3 635.8 652.3 666.9 680.4 690.6 700.6 710.9 721.3 732.7 744 755.9 758.6 753.3 741.1 731 722.8 715.8 710.2 711.8 716.5 722.4 726.5 734.8 744.6 753.3 769.2 788
477.3 480 484.8 485 489.9 500.4 510.4 503.7 526.4 550.1 575.4 600.8 624.4 652.8 681.6 705.6 729 748.5 762.2 773 782.2 785.4 781.2 771.7 759.9 739.7 724.1 713.7 703.1 698.2 694.5 696.2 700 709.9 718.5 727.8 737.3 747.7 758.1 767.9 777.8 786.2 793.1 798 797.7 791.9 780.9 762.4 741.3 723.1 710.7 702.6 698.2 695.8 693.1 691.5 691.7 693.2 691.9 691.6 689.6 688.1 687.5 686.6 686.3 683.8 676.9 662.7 634.8 603.9 572.8 544.2 516.3 492.4 472.1 453.6 435 420.5 406.9 396.4 396.2 396 395.8 395.6 395.4 395.2 399.2 404.2 417.8 433.8 453.4 475.4 497.1 521.5 546.5 557.1 563.1 571.1 585 604 624.9 647.8 665.4 682.8 696.9 711.7 726.8 742.8 752.9 768.8 780.3 789.8 798.2 801.6 803.4 804.4 800 792.4 780 763.4 741.1 716.2 702.8 693.8 683.6 681.9 679.7 681.5 679.3 676 668.2 658.3 645.5 636.1 626.8 613.6 600.4 589.4 574.1 565.6 554.1 545.2 536.7 527.6 517.8 510.7 507.4 505.3 505.1 505 503 500.4 499.5 498.7 502.9 497.9 497.9 497.9 497.9 497.9 497.9 499.2 503.8 517.3 523.1 526.7 535.5 545.3 553.4 562.7 577.2 583.8 595.3 612.2 631.8 649.8 663.5 676 688.3 697.3 709.4 722.3 732.8 743.6 743.1 738.3 727.6 717.5 711.2 704 702.5 702.5 707.2 711.4 717.3 722.1 734.9 746.9 764.6 786.3
480 480.8 488 496.1 502.9 517.6 525.1 526.5 513.6 540 563.7 590 615.6 643.9 672.5 698.5 723.2 744.2 763.5 776.8 786.1 791.7 787.1 774.6 760.7 744.1 728.6 717.6 707.3 703.1 700.4 701.2 701.8 708.4 716.6 725.9 735.9 745.5 755.9 766.6 776.7 785.4 792.5 796.9 795.5 788.7 772.6 746.4 726.5 711.4 696.4 685.8 680.9 676.7 673.4 672.6 673.6 674.4 674.4 674.3 674 673.1 673.8 675.7 678.1 676.8 671.4 649.8 618.9 582.8 555.9 529.2 504.7 479.1 461.3 444.4 428.7 410.7 398.9 396.9 396.5 396.2 396 395.8 395.7 395.3 398.2 406 421.4 443.3 466.2 492.1 515.3 538.9 560.1 570 573.6 583.9 600.7 618.2 635.6 656.7 678.4 696.2 715.3 733.5 750.5 762.3 773.1 786.1 795.6 803.4 807.8 811.2 810.8 811.3 806.6 798.8 786.4 770.5 745.7 722.6 707.6 699 692.9 690 689.3 688.7 686.7 683.7 673.3 665 655.1 645.2 635.2 622.4 610.8 595.8 584.3 573.7 562.6 553.5 545.2 537.2 528.2 517.9 515 509.6 507.6 507.8 505.9 502.8 503.1 501.9 500.2 497.9 497.9 497.9 497.9 497.9 497.9 497.9 499.2 502.5 512.3 516.8 521.4 530.5 537.9 545.1 554 568.9 575.4 589.9 606.2 624.7 642.3 656.9 672.5 684.2 697.7 711.6 724.9 728.7 728.5 722.1 713.3 705.9 699.1 694.1 694 695.4 697 702.7 706.4 716.2 727.7 743.1 760.2 778.6
481.1 489.9 507.5 518.7 526.9 540 546.3 544.6 524.6 530.4 554.5 579.6 607 632.5 661.7 688.5 713.5 737.5 758.6 772.7 784.2 788.9 785.2 774.1 760.5 746.3 732 721.1 713.4 708.6 707.9 707.6 707.9 708.5 717.5 726.2 735 745 755.4 766.3 776.6 784.9 792.2 795.6 793.5 784.3 760.7 737 716.8 699.9 682.1 669.1 662.9 657.8 655.5 653.3 653 652.4 653.7 654.7 653.9 651.9 656.5 663.2 666 666 658.7 636.1 606.9 575.3 542 514.6 490.3 467.3 451.7 435.9 422.8 407.9 397.4 397.3 397.1 396.6 396.3 396 395.9 396.1 401.5 412.7 430.9 451.8 477.4 512.2 537.2 556.5 579.5 584.9 584.6 595.5 609.4 628.3 649.3 671.1 690.4 711 733.5 756.3 777.5 794.5 803.4 811.7 813.6 816.3 818.4 817.7 815.7 812.6 806.5 800 788.8 772.1 748.7 726.6 715.1 707 699.9 696.8 696.1 692.5 691.6 689 679.3 673 663.3 653.2 640.4 630.1 616.7 607.2 592.1 581.9 572.5 561.8 553.5 544.8 536.2 525.8 520 514.8 513.5 511.5 509.6 507.2 507 505.8 506.8 503.2 497.9 497.9 497.9 497.9 497.9 497.9 497.9 497.9 501.2 503.8 508.4 516.4 519.8 526.7 537.4 543.7 551 564.4 579 600.6 615.4 635.1 652.5 669.2 683.6 700.2 711.4 710.4 710.5 705.7 699.1 694.3 687.8 685.5 686.7 687.2 688.2 693.1 701.5 710.4 723.2 740.3 757.8 774.7
496.6 514.6 528.4 541.9 553 560.8 563.3 555.3 536.3 524.8 546 569.4 598.7 623.3 651.1 678.1 701.6 726.5 749.8 767.2 777.5 782.7 780.1 771.4 759.2 745.2 734.1 724.6 717.9 714.3 713 713.8 714.4 710.2 718.5 726.7 735.2 745.1 755.3 766 775.8 784.5 791.2 795 791.3 778.6 756.6 729.1 708.2 688.2 669.8 653.9 644 638.9 637.4 634.9 632.8 631.9 632.7 632.7 632.1 634.4 638.7 646.6 651.4 651.8 643.2 619.5 590.4 560.7 530.2 501.2 476 460.5 442.8 427.7 415.1 402.7 397.9 397.9 397.5 397.2 396.8 396.4 396 396.6 404.2 415.9 439.9 470.5 497.1 527.3 555.4 581.9 594.5 596.7 597.8 607.2 622.5 642.5 663.3 684.5 705.4 729.4 754.3 778.6 800.1 811.1 821.8 826.6 826.5 828 829.4 825 819.8 816 806.8 795.1 785.4 772 748.5 727.3 717.6 711.8 708.1 702 700 698 696.9 694.1 685.7 680.2 672.2 661 647.4 636.3 627.1 617.5 605.4 589.8 579.8 568.2 560.5 552 543.3 533.1 526.5 520.6 516.6 515.7 514.8 508.5 511.4 509 509.5 508.2 505.4 499.9 497.9 497.9 497.9 497.9 497.9 497.9 497.9 497.9 497.9 501.4 505.3 514.5 521.5 530.4 543.5 550.4 561.6 577.3 589.6 609.7 625.9 646.7 667 683.4 695 696.6 694.1 688.5 685.4 682.4 678.8 677.9 677.4 678.3 680.7 689.5 696.1 709.2 722.2 740.2 756.7 772.8
522.6 536.5 551.7 567.6 580 583 573.4 561.8 547.1 524.6 538.9 562.9 586.7 612.6 639.6 667 692.5 718 738 757.9 770 774.6 773.7 766 756.8 745.7 736.3 728.7 723.2 720.4 719.8 719.8 718.5 716.7 719.4 727 736.1 745.2 755.1 765.6 776.1 784.4 791.3 793.9 788.2 774.6 752.1 721.9 700.8 678.9 656.7 644.1 632.3 625.8 622.3 618.1 615.8 615.3 615.4 613.9 614 618 622.8 630 634.9 637.9 627.8 603.1 574.5 543 513.3 482.4 465.6 449.4 435.7 417.6 405.7 398.5 398.8 398.4 398.1 397.8 397.4 396.7 397.2 400.7 410.1 421 445.9 489.4 514.3 549.9 577.3 612.7 611.3 610 616 622.9 639.1 655.8 678.9 700.2 723.9 750.2 778.9 801.1 814 824.9 832 833.6 831.4 830 828.2 823.4 819 812.8 803.5 792.1 782.2 769.4 743.4 730.8 721.6 716.1 710 705.2 704.6 702.8 703 698.1 692.7 687.4 679.4 669 658.8 648.6 641.1 633 615.4 596.3 586.3 577 566.8 558.6 551.8 543.1 533.7 528.4 522.8 524.7 516.9 512.4 512.6 515.9 516 509.6 506.9 504.7 501.8 497.9 497.9 497.9 497.9 497.9 497.9 497.9 497.9 497.9 498 512.7 517.8 523.1 531.4 544.1 545.2 554.1 566.9 583.6 600.3 620.2 641.2 658.4 674 678.8 675.7 673.5 672.3 672.3 670.8 669.7 670 671.8 679.1 682.9 696.8 709.2 724.4 739 757.1 775.1
547 566.1 581.2 594.7 606.5 600.8 583.1 569 555.2 531.5 536.7 555 578.4 603.9 630.6 657.1 683.7 708.2 729.1 745.3 757.4 764.3 764.7 762.4 755.9 746.2 738.6 731.2 729.1 728.5 727.4 725.9 724.9 721.6 722.3 729 737.3 745.9 755 765.7 775.4 784 791 790.6 785 772.7 745.5 717.4 694.1 672.9 653.7 634.7 623.7 615.3 611.7 605.9 601.9 600.7 599.1 597.9 599.5 602.7 604.9 610.6 618.2 621.9 611.9 589.1 557.3 526.5 499.1 473.7 455.2 440.5 424.1 409.4 401.2 399.2 399.4 399 398.8 398.4 397.4 398.5 398.7 406.5 417.1 441.3 477.4 509.8 544.1 595.3 623.1 628 625.8 626 633.5 641.8 656.6 675.1 696.9 719.9 743.2 770.7 797.8 813.5 825.8 831.5 831.4 832.2 833.5 830 824.8 816.9 811.9 801.4 793.5 785 774.2 756.1 740.8 732.8 726.5 718.4 713.4 709.8 709.2 708.1 706.7 702.6 698.4 693.7 686.1 676.4 666.1 655.5 650 638.3 621.1 603.8 594.2 582.3 572.2 567.1 559 550.4 542.1 536.4 527.7 532.2 528.6 526.7 517.5 516.8 519.3 515.3 511.9 508.9 514.5 508.6 502.1 497.9 497.9 497.9 497.9 497.9 497.9 497.9 497.9 497.9 504.2 511.9 520.1 528.7 532.5 537.2 548.6 562.7 579.8 595.7 615 629.9 646.9 659.1 660.2 660.4 661.4 662.4 662.5 662.8 663.7 669.8 674.7 682.1 696.5 710.6 723.6 740.1 757.4 775.9
568.5 594.9 610.8 626.6 628.8 612.5 595.1 577.5 563.1 538.3 536.2 553.2 574.6 598 622.3 649.3 674.2 695.4 715.1 732.3 745.4 753.6 757.2 757.4 752.9 745.8 740.4 738.9 737.4 736.4 734.9 732.7 730.4 727 727 731.1 739.1 747.8 755.9 766.6 775.4 783.3 788.4 788.9 782.5 769.9 741.2 713.2 689.3 669.9 651.5 632.9 620.1 607.2 603.1 598.9 593.9 590 587.9 587 585 586.7 588.3 589.3 596.1 599.8 598.4 572 541.8 514.5 487 465 447.5 429.9 414 404.8 399.9 399.8 399.7 399.6 399.3 399 397.6 398.9 401.1 410.5 433.3 459.4 491.7 522 563.6 610.4 643 637.1 641.3 644.6 653.6 663.5 678.6 698.1 718 741.5 767.2 791.5 808.1 820.8 828.4 829.7 828.5 826.4 824.8 817.4 811.4 803.1 794.2 786.4 778.4 769.2 757.3 746.9 739.3 732.8 727.6 723 716.3 713.4 712 713.3 711 707.7 703.9 698.8 691.5 682.7 672.7 664.5 656.3 642.6 625.6 611.5 600.5 590.5 580.2 575 567.4 558.9 549 545.8 536.1 539.7 538.8 536.8 534.9 531 525.9 523.9 516.7 515.2 519.9 513.9 513.9 506.5 501.5 497.9 497.9 497.9 497.9 497.9 497.9 497.9 497.9 502.6 509.8 519.7 522 525.7 534 543.4 556.4 571.4 585.3 604.4 619.7 634.4 641.6 647.1 651.2 652.9 654.3 653.4 662.7 667.9 674.7 685.6 695.8 708 724.3 742.1 760 778.8
593.3 616.7 646.4 658.6 644.1 623.1 604 586.3 569.1 547.5 535.9 552.1 569.8 590.6 614.9 638.3 662.3 682.5 702.1 718.7 733.9 743.7 749.6 751.5 748.4 744.7 746.8 747.8 746.6 743.3 740.8 738.4 735.5 732.1 731.2 735.4 741.8 750.5 758.4 767.2 775.1 781.2 785.4 785.8 781.6 769.2 741.1 711.9 687.5 669.8 648.8 631.2 617.3 604.3 595.6 590.2 585.2 580.6 578.1 576.4 573.5 570.3 570.9 572.5 576.1 579 575.2 556.4 528.9 501.4 474.4 457.3 437.8 423.7 409.5 401.4 400.6 400.6 400.5 400 399.2 399 400.2 399.8 405.5 418.7 443.9 471 502.8 542 586.6 627.5 652 658.4 662.9 669.8 680.8 688.7 699.8 725.8 745.1 765.1 786.1 800.8 810.7 821.2 822.9 818.2 815.6 811 806.5 798 790.7 782.2 770.7 764.4 758.9 752.9 741.8 738.7 736.4 730.5 724 720.8 720.9 718.4 716.3 719.2 714.9 710.6 707 702 695.7 686.1 678.4 670.1 656.6 644.8 630.2 616.5 604.4 597 589.3 581.4 571.9 562.4 557 550.3 549.5 550.7 546.7 545 547.3 544 542 535 528.7 523.5 524.4 522.6 526.8 516.6 506.7 501.9 499.8 497.9 497.9 497.9 497.9 497.9 497.9 497.9 501.7 512.8 510.7 513.4 520.1 528.5 539.6 552.4 570.8 580.3 596.1 612.3 621.6 631.9 640.6 644.3 646.5 655 660 665.3 674.5 685.9 696.5 706.7 723.8 742.9 762.5 786.6
623.9 646.3 669.4 682.9 662.7 638.8 613.2 592.2 572.9 552.7 539.5 548.7 564.7 583 603.7 625.4 647.5 670.1 689 708 724 737 744.5 747.4 748.1 752.6 755.6 756.2 754 750.5 746.5 743.8 740.4 738.1 737.5 740.4 746.4 754.6 760.7 768.6 775.4 781.6 786 787.4 784.5 772.4 747 718.1 690.4 671.3 651 632.3 618.8 607.5 594.4 584 577.3 573.1 568.3 564.6 562.2 558.1 555.4 556.5 557.2 556.2 551.6 537.6 514.4 488.7 471.2 451.1 433.4 419.2 407.6 402.5 401.4 401.4 401.1 400.4 399.8 399.4 401.8 401.3 410.5 429.2 455.4 485.3 527 569.1 604 653.8 677.8 682.7 694.2 702 710.2 721.3 733.8 743 766.5 782.3 792.5 801.2 807.1 811.5 810.6 806.1 801.1 793.5 784.6 775.2 768.2 762.2 756 750.3 744.5 739 734.2 731.8 729.7 725.7 722.7 722.4 722.5 722.4 723.9 724.5 718.3 711.4 708.2 703 696.8 689.1 678.2 666 655.7 645.9 634.2 621.6 610.2 602.8 595.1 586.7 574.2 569 565 557.7 548.7 556.1 555.1 553.5 555.8 553.4 550.8 545.7 539.8 536.1 535.1 533.9 531 524.4 517.1 507.2 503 499.3 497.9 497.9 497.9 497.9 497.9 497.9 497.9 498.1 505.7 509.6 513.8 520.7 529.4 539.2 550.4 560.6 574.5 590 603.1 615.8 625.8 629.3 643.5 651.4 657.2 664 675.3 686 695.5 708.4 725.7 749.8 768.4 792.6
660 682.2 700.9 701.5 673.9 647.7 622.8 598.2 576.1 557.2 543.1 552.7 568.5 580.4 592.5 611.9 635.7 657.9 679.8 699.1 716.9 730.7 741 746.6 753.6 758.8 761.8 762.5 760.5 757.3 753.2 749.4 745.8 743.7 743 745.4 750.1 756.7 762.5 771.1 778.6 783.7 788.2 789.8 786 774.5 754.6 725.1 698.5 678.8 658.1 640.4 627.4 614.7 601.7 588.7 576 564.6 555.4 549.9 547.1 545.6 542.5 540.7 537.9 536.7 534 522.1 501.4 481.1 463.4 447.6 430.6 415.8 409.7 403.7 401.8 402 401.5 400.7 400.1 402 403.2 404.7 417.9 439.6 465.7 495.2 536.6 579.1 621 665.1 689.4 699.2 713.4 728.3 732.8 744.7 753.6 764.6 774 782.1 789.2 795.7 798.5 797.2 793 788.3 779.3 768.1 761.9 754.6 748.5 744.6 742 738.7 732.9 727.7 726.2 724.2 724.9 724.6 723.4 725.4 727.4 729.9 731.6 726.7 719.4 712 707.1 702.5 695.3 686.3 673.5 663.2 653.9 645.8 636.7 627.2 616.8 608.7 600.2 592.1 579.5 574 570.5 562.4 562.2 561.2 560.8 561.2 562.4 559.9 558.9 553.8 548.3 547.9 546.6 541.8 534.6 528.6 522.8 510.9 510.4 500.6 497.9 497.9 497.9 497.9 497.9 497.9 497.9 497.9 501.6 503.7 509.7 519.2 528 537 543.2 554.7 563 575.5 589 599.9 610.6 629.2 637.5 648.1 656.2 664.4 674.1 684.8 695.2 710.6 729.7 752.2 772.5 799.3
698.9 721.5 733 713.6 684.1 653.6 625.9 600.5 580.6 561 545.5 558.4 575.2 589.4 603.9 613.3 629.7 654 673.4 693.4 709.4 724.1 737.7 747.4 755.9 763.1 767.4 768.4 766.6 763.7 758.8 755.3 752 749.6 748.5 750.5 753.4 759.8 767.1 775.7 782.1 787.2 791.4 792.8 787.4 777.5 763.1 736.1 710.6 689.1 669.5 650.8 636 620.6 609.6 596.8 585 575.3 566.7 558.6 544.4 535.1 522.8 523.2 524.4 518.7 514.2 505 489.7 474.2 458.9 442.8 428.5 417.5 410.2 404.3 402.7 402.6 401.9 401.2 400.4 405.5 404.8 408.8 422.8 446.7 475.3 505.9 548.1 590.4 636.4 669.7 694.5 711.7 724.5 734.4 748.2 753.5 762.2 770.7 778.4 780.7 784.2 784.3 781.9 779.2 773.6 768.9 756.4 751.6 743.9 736.7 734.2 729.8 727.9 725.1 719.5 716.2 716.3 718.1 719.3 721.7 723.6 728.4 730.5 733 733.4 727 718.5 710.6 704 698.2 689.8 680.1 670.6 662.3 653.6 645.4 636.1 628.7 621 613 604.6 594.9 587.1 579.6 569.9 566.7 571.2 568.6 569.2 569.3 571.1 565.6 566.4 559.8 558.1 557.4 560.1 549 540.4 536.5 525.6 524.9 519 509.7 497.9 497.9 497.9 497.9 497.9 497.9 497.9 497.9 497.9 504.2 506.4 510.1 517.9 526.3 534.2 542.3 549.9 560.7 571.7 593.2 607.2 621.1 634.7 645.4 653.2 663.5 673.7 683.8 695.5 710.3 729.2 751.6 776 800.4
750.9 762 755.6 725.7 692.8 658.4 628.5 602.8 582.7 565 549.3 562.6 581 599.1 615.6 629.5 640.4 652.3 669.1 688.1 705.2 720.7 735 748.1 759.6 768.3 773.3 774.2 772.5 769.4 765.9 762.5 759.2 757.1 755.4 755.5 759.7 765.9 772.5 779.8 786.4 792 794.9 794.7 789.8 781.5 769.3 750.4 726.4 704.4 684.2 665 643.6 629.1 616.8 603.9 590.9 581.1 571.5 562.4 553.1 544 534.4 522.2 508.9 498.1 490.2 484.6 478.8 467.9 454.8 437.5 426.3 416.7 408.8 405.9 403.9 403 402.3 401.6 401.1 405.2 406.6 411.3 428.8 451.8 481.2 515.2 552 598.8 632.7 660.6 687.5 707.9 723.7 737 747.8 752.9 763 767.8 768.6 771.3 770.8 766.3 762.4 756.2 752 745.8 739.7 735.3 728 721.8 719 715.4 711.5 707.4 705.4 705.7 705.9 708.4 712.7 718.5 722.9 728 732.6 737 735.5 724.3 717.2 709.2 700.8 691.5 684.1 675.4 667.6 661 653.1 644.3 636.4 630.6 622.4 615.3 605.8 597.8 589.5 575.9 578 577.2 576.6 577.6 577.7 575 577.3 575.2 573.2 572.9 569.7 564.8 566 557.5 551.3 539.6 537.6 533.6 534.5 525.3 512.5 501.1 497.9 497.9 497.9 497.9 497.9 497.9 499.5 504 506.2 509.5 516.8 528.8 530 534.6 541.5 551.8 561 578.2 595.3 616.5 627.5 642.5 650.5 660.5 672.6 683.8 696 710.6 727.6 748.9 773.9 798.5
777 778.9 762.2 729 695.9 661.7 632.7 607.9 587.2 564.4 552.3 566 587.1 607.9 626.2 645.6 657.3 666.7 677.7 691.4 707.1 723.7 737.5 751.8 766.8 775.3 778.9 779.6 778.4 776 773.2 770.2 768.6 765.3 762.8 762.5 765.3 770.7 777.8 784.8 791.4 795.1 796.3 795.2 791.4 784.3 773.5 760.6 742.6 721.5 699.9 680.1 660.4 638.9 625.2 611.2 599.5 585.5 574.5 565.5 557.2 548.5 538.9 529 519.7 508.9 497.1 483.6 466.2 457.9 447.7 434.4 423.8 416.9 410.4 407.4 405.4 403.5 402.8 402.5 402.7 406.3 408.4 413.3 430.7 455.2 486.1 518.9 557.3 595.8 623.5 647.9 673.6 698.9 718.1 732.8 740.9 745.6 750.5 752.8 754.7 753.9 748.1 744.3 738.6 732.7 729 725.4 722.9 717.9 712.7 706.8 704.6 701.8 698.2 696 692.9 692.5 695.9 700.2 706.4 713.5 720.6 727.4 733 736.3 732.4 725.9 716.3 706.9 697.2 688 680 672 665.4 659.2 651.3 644.6 638.8 630.3 622.7 614 606.7 598.8 587.9 579.3 585.7 583.3 582.8 584.6 586.4 585.7 585.8 584.8 582.6 579.7 578.8 572.2 567.6 564.7 558.4 552 554.4 552.9 542.4 535.4 525.8 518.2 503.7 497.9 497.9 497.9 497.9 497.9 497.9 501.3 507.5 508.6 516.7 527.5 528.7 531.9 535.1 539.8 552.1 564.1 582.9 601.2 619.5 636.2 647.9 659.5 671 682.6 695.3 708.5 723.6 741.1 764.2 787.4
788.8 784 767.6 734.8 700.6 667.5 636.4 612.7 589.7 569.6 556.5 569.7 594.1 617.2 641.4 660.1 675.1 683.9 694.6 704.6 718.2 731.8 750.7 767 776.9 783.6 788.1 788.8 788.8 785 780.2 779.7 778.5 774.8 770.6 769.8 770.8 777.3 782.9 788.8 793.2 794.8 794 792.7 790.3 784.8 776.7 764.8 751.1 734.7 714.9 695.4 676.7 655.3 634.5 618.8 607.6 592.7 579.8 569.7 560.1 551.1 541.6 530.5 518.8 506.9 494.6 480.7 466.2 454 442.3 431.9 425 419 414.8 412.5 409.7 403.4 402.8 403.4 403.9 409.2 408 417.5 433.8 459.5 487 523.2 560.4 591 616.2 638.1 664 688.9 709.4 724.4 731.4 731.8 731.4 734.9 734.6 732.3 726.1 721.3 717.2 712.7 708.7 706.3 704.4 701.9 697.7 694.2 692.7 689.4 686 683.9 679.9 679.1 684.4 690.6 697.7 706.7 714.8 723.9 729.7 731.7 728.3 720.8 710.6 701.9 693.5 685.2 677.1 670.1 663.2 656.3 650.1 644.3 635.8 628.5 622.5 616.8 608.1 598 584.5 589.7 591.8 591 590.7 592.7 595.5 595.7 596.2 595.4 594 589.6 585 581.2 575.8 572.8 566.3 563.7 562.9 560.4 557.3 548.3 542 534 518.7 509.6 497.9 497.9 497.9 497.9 497.9 497.9 498.7 507.7 510.1 521.4 525 520.6 526.9 531.4 540.9 553.5 565.8 586.7 607.2 627.9 642.4 655.3 669.2 680.6 692.4 703.3 714.8 732.7 750.2 770.6
796.2 785.4 764.9 735 702.4 670 637.9 613.5 592.7 572.7 558.6 574.2 600 626.7 653.1 675.3 692.4 705.9 713.7 724.4 737.2 754.3 767.7 778.2 785.4 791.3 794.3 795.5 795.2 792.3 791 791.9 788.8 784 778.5 776.4 780.5 784.9 787.7 790.5 791.9 789.8 788.6 787.1 784.4 781 774.4 766.2 755.8 743.7 730.7 715.6 691.1 667.1 645.9 629.5 616.2 600.4 588.3 575 563 552.7 541.3 530.1 515.7 503.2 491.3 476.7 466 450.5 438.6 431.5 425.2 419.8 416.2 412.9 405.8 404.1 403.2 404.2 404.7 412.7 409 416.7 432.1 460.3 488.1 520.8 555.8 586.8 609.1 628.9 654.9 678.9 696.9 709.3 714.1 715.3 717 713.2 711 703.8 703.6 701.4 697.9 694.4 687.7 686 685.2 685.1 683 681.1 679.7 675.5 673.6 671.1 668.6 673 676.8 682.9 691.7 700.4 708.3 716.9 723.7 725.2 722.1 714 705.1 697.2 689.7 681.9 673.6 667.1 659 652.7 647.1 641.3 634.3 628.9 624.1 617.4 608.6 593.8 588.2 597.3 599.8 597.9 598.4 601.7 604.8 605.5 605.5 607.1 604.6 600 594.7 590 585 586.4 577.1 570.9 571.5 567.6 563.7 558.8 553.1 544.2 531.7 517.1 508.9 497.9 497.9 497.9 497.9 497.9 497.9 500 508.5 511 513.2 521.5 530.3 534.2 539.1 552.4 566.4 588.4 603.8 626.4 645.5 655.7 667 678.4 689.6 698.7 706.7 721.2 736.9 755.5
798 784.6 763.3 735.4 703.1 670.9 640 615.9 595.1 574.7 562.6 579.1 602.9 632.4 659.5 683.1 701.7 717.3 733.7 747.4 760.1 769.7 778.5 786.2 793.4 797.7 802.1 804 804.9 806.6 806.1 802.6 797.7 791.2 785.1 785.5 788.6 790.6 791.4 789.5 786.9 782.9 780 776.8 772.9 769.3 766.3 760.6 752.6 744.3 735.4 720.2 702.2 683.9 662.1 643.1 624.1 609.4 594.4 580.6 567.4 554.4 541.3 526.4 512 497.7 484.2 472.4 463 449.6 439.1 430.1 424.8 420.1 415.8 407.4 405.8 405.7 404 404.1 406.6 411.4 412.8 416.1 432.7 457.9 485.2 515.4 548.7 582.6 604.5 621.3 641.6 665.4 681.1 688.5 693 691.3 688.2 686.9 681.3 681.7 684.3 683.1 681.1 677.7 671 666.7 666.9 667.8 667.9 666 663.4 661.4 659.9 655.7 662.4 666.5 669.5 677.9 687.1 695.1 702.7 710 714.3 714.4 712.2 705.6 699.5 692.7 685.2 676.2 668.6 662.2 655.1 649.3 645.5 640.5 635 629.3 624.3 617.3 607 595.9 601.5 604.1 605.8 605.6 606.7 610.2 612.8 614.4 615.5 619.9 619.5 614.1 608.6 601.7 594.8 592 585.6 582.9 580.4 577.8 571.8 566.7 562.6 554.2 543.9 532.6 521.8 508 497.9 497.9 497.9 497.9 497.9 499 501.5 504.5 510.4 513.5 520 528.7 532.8 546.9 566.4 585.4 607.7 633.2 648.5 661.6 670.7 676.7 687.5 695 703.6 712.1 723.5 736.8
804.9 787.6 763.6 734.9 704.9 672.4 642.3 619.2 597.4 579.6 564.7 581.4 604.1 633.5 660.4 684.2 704.3 724 744.4 760.7 772.3 778.8 786.6 795.2 800.9 806.8 813.6 817.2 819.3 819.1 816 810.3 803.3 797.4 794.5 793.7 794.4 795.1 791.9 786.3 780.1 773.1 766.7 761.8 757.9 754.4 752.3 748.7 744.4 739.3 731.8 722 710.8 693.8 678.5 662.3 639.6 620.2 601.7 584.2 571 555.7 539.7 523.5 507.5 492.2 477.3 466.2 455.6 444.9 436 427.9 424 419.1 414.1 407.1 406.2 405.5 404.9 406.9 408.4 411.5 416.6 419.9 434.6 455.3 480.8 512.7 544.9 577.3 597.1 612.9 624.8 642 654.9 663.3 666.4 663.5 661.9 662.1 662.3 666 666.9 664.1 662 659.8 654.5 648 649.4 650.9 651.3 650.3 647.9 646 646.3 649.5 656.1 660.7 666.3 675.1 683 689.3 695.5 701.5 703.5 702.8 699.3 697.1 693.3 686.3 678.1 668.3 663.3 658.2 652.3 648.9 644.7 639 634.5 629.2 623.9 616.5 607.8 602.2 609.5 610.5 611.6 612.3 614.6 617.8 620.9 623 628.1 633.3 634.1 630 622.1 615.7 604.4 596.8 592.7 590.9 588.5 587.4 583.4 579.2 572 567 554.4 543.9 533 523.5 506.5 497.9 497.9 498.3 498.6 498.8 499.7 500.7 503.3 509.7 514.4 521 536.8 549.9 559 583 598 625.1 642.5 661.8 675.1 685 688 694.9 700.1 707.3 714.8 723.4
806.4 790.8 764.8 736.8 707.3 676.1 649.3 624.6 602.3 583.1 567.5 581.7 605.2 632.3 659.1 682.5 705.6 728.4 750.9 768 778.2 785.8 794.2 799.9 810.8 819.6 825 828.1 829.4 827.4 822 814.9 809.1 804 801.9 801.5 799.7 797.2 790.8 782.2 773 763.4 753.4 742.5 736.9 732.4 732.3 733.5 732.9 730.8 727.5 722.4 712.9 699.6 687.6 673.9 653 630.9 609.1 590 571.5 553.3 531.9 514.9 499.9 486.8 473.2 459.1 450.7 440 431 421.3 418.1 415 408.3 407.1 407.9 407.8 408.4 409.3 410.3 414.1 418.6 422.7 432.1 451.7 479.4 511.7 540.2 570.2 587.1 598.6 605.8 614.4 624.8 631.5 635.7 639.7 644.5 643.9 645 646.1 646.7 645.8 642.7 642 637.6 630.2 632.1 633.4 633.7 634.1 635.2 635.3 636.1 643.1 649 654.4 662.7 669 676.1 681.9 685.8 688.7 689.7 689.1 687 687.3 683.5 676.2 670.7 664.6 658.9 654.3 651.2 647.2 642.5 637.9 633.6 628.6 622.8 616.6 609.1 612.8 613.2 616.2 617.5 619 621.8 626.3 628.8 633.7 640 643.5 648.4 646.8 637.7 627.6 617.3 603.2 599.7 599.4 598.2 598.6 597.6 600.4 592.5 583.2 568 556.1 544.3 534.9 519.6 507.5 498 498 498.2 498.9 498.9 499.9 501.6 504.7 511.6 519 534.2 543.7 556.2 570.6 594.1 611.8 630.7 654.2 675.3 687.2 693.5 698.6 701.6 708.7 714.4 718.9
809.7 794.5 769 741.3 714.1 683 654.4 629.7 603.5 586.6 571.1 583.1 606 632.6 658.4 682.8 706.5 731.4 754.2 769.5 781.6 792.1 801 811.8 820.6 828.3 833.1 835.8 835.8 832.4 826.3 821.1 815.5 810.7 808.5 807.6 803.9 798.2 790.3 779 767.6 754.2 736.7 725.5 714.2 711.4 711.9 715.4 718 720.2 720.2 716.9 709 700.1 690.3 680.3 662.7 638.6 616.6 592.2 568.3 543.2 524.6 506.3 489.6 476 462.6 450.7 442.4 434.3 425.8 421.4 411.9 408.1 408.5 409.9 409.3 408.8 409.2 412 413 415.2 420.5 426.6 435 451 476.8 507 534.8 551.6 567.2 575.8 581.9 589.4 597.8 606.2 612.4 617.5 620.8 622.2 624.5 625.6 626.6 628.8 625.3 624.5 621.9 616 614.4 616.1 618.5 620.3 622.5 624.3 629.7 636.6 644 650.6 656.3 661.7 667.4 672.9 675.3 675.9 676.6 670.1 668.9 674.7 674 671 667.1 662.1 657.8 653.4 649.1 645.2 641.1 636.5 632.4 627.5 623.3 617.4 614.1 620.3 620.4 622.7 624.3 626 628.4 632.6 637 644.1 648.2 656.5 660.5 659 654.5 641.7 628.9 610.1 611.9 607.9 607 610.9 618.2 620.4 611.7 603.4 590.1 571.9 558.4 547.7 535.3 518.4 501.3 501.4 498.8 499.1 499.2 499 500.1 501 503.8 509.7 524.5 537.1 550.3 564.1 582.6 605.4 626.8 651.9 670.7 688 698.1 705 711.2 713.4 716.6 719.3
816.5 802.4 776.7 748.4 718.9 687.9 657.2 631.4 608.5 588.3 574.8 585.1 607.3 633.9 658.8 684.6 708.5 732.8 753.8 769.3 784.2 796.8 809 819.6 827 833.2 838.2 839.2 837.2 834.5 831.4 826.9 821.3 816.1 813.7 811.7 807.7 799.9 789 775.3 759.3 743 725.5 707.9 696.4 693.8 693.8 697.1 702.4 706.6 707.6 705.9 702.1 695.4 688.1 677.5 663.3 641.3 616 593 561.9 535.4 512.8 494.1 479.5 465.6 454 442.6 435.8 428.5 422 415 410.9 409.2 411.3 412.7 411.2 409.6 408.5 414.4 419.9 418 420.9 430.7 437.7 447.1 468.6 493.4 513.7 525.8 535.4 546.4 554.1 560.6 566.4 576.1 585.6 592.2 596.2 599.7 602.8 603.6 602.7 604.9 605 605.9 602.7 600.4 601.6 602.1 604.5 608.8 611.7 610.4 622.3 628.9 637.6 644.3 651.1 655.2 660.1 661.8 663.4 663.2 661.4 658.4 660.9 665.5 666.6 665.9 664.3 660.9 657.3 653.1 647.8 643.6 639.7 635.7 635.2 630.5 625.2 613.4 624.3 625.5 624 627.6 630.7 632.6 634.3 638.1 645.5 655.2 660.2 665.4 669.5 668.6 663 652 636.6 625.8 622.8 619.1 617.1 624.1 636.4 644 633.2 621.2 608.1 588.7 576.9 561.8 543.7 531.9 515.2 515.9 499.8 499.3 499.4 499 499.8 500.4 501.1 505 510.8 525.1 539.5 556.3 576 597.3 616.5 643.8 670.3 687.5 700.3 707 714.5 724 726.6 728
823.6 806.3 780.6 752.6 723.3 693.1 661.3 635.7 613.2 590.5 578.2 587.3 610.1 634.6 659.3 686.7 711.7 732.1 752.7 770.8 786.6 799.9 811.3 821.1 828.8 835 839.1 839.9 839.7 838.6 835.8 831.7 826.6 821.1 818.3 814.3 809.6 802.3 789.4 771.4 753.3 734.4 718 700.3 681.9 673.5 675 679.3 684.8 689.7 692.8 694.2 691.3 686.5 680.4 669.6 656.2 636.6 612 583.4 551.4 522.3 499.5 480.6 467.3 454.8 442.6 435.3 431.3 423.5 417.2 412.7 409 409.2 408.7 412.5 410.8 411.3 408.7 420.2 420.7 420.7 422.1 425.1 430.4 442.2 457 476.6 488.6 496.2 504.9 510.7 518.6 527.2 535.4 545.7 556.5 570.8 574 575.3 575.7 576 577.1 581.7 584.6 586.6 587.1 585.7 587.3 591 593.7 597.7 598.3 603.7 613.1 622.7 629.5 637.5 643.9 648.2 648.1 644.7 645.7 649.4 649.5 651.7 647.7 652.2 659.6 660.4 659.9 658 655 651.2 646.2 642.5 640.1 639.2 637.9 631.8 622.2 628.5 630.1 629.9 629 632.3 635.9 638.7 641.2 643.1 653.8 663.9 669.6 675.1 675.6 676.2 669.2 656.8 644.8 639.1 634.5 632.5 632.2 638.5 649.2 661.4 661.2 645.9 627.8 608.1 594.6 576.7 557.4 536.7 536.1 527.3 509.8 500.7 499.8 499.1 499.6 500.1 500.5 500.2 506.4 517.5 533.9 547.7 567.7 589.3 606.6 636.4 662.5 688.2 701.7 716.7 724.6 730.3 737 737.1
828.5 813.2 785.3 756.8 727.5 697.3 666.8 640.7 618 595.6 583.2 588.2 610.3 634.7 659.8 687.7 713.2 733.2 752.4 769.9 785.1 798.5 809 818.2 826.1 832.8 838 840.8 841.5 842 839.7 835.3 830.2 824.7 820 815.4 809.4 801.2 788 769.6 748.9 730.4 714.3 697.4 679.2 655.4 654.1 661.2 665.8 671.7 678.1 680.3 678.6 674.4 669.3 658.4 641.8 621.7 592.6 563.4 534.5 503.8 484.4 465.9 454.1 444.3 436.9 429.1 424 419.5 413.7 412.9 411.4 410.6 409.7 413.2 414 414.7 410 421.2 423 423.8 425 430.9 439.9 444.1 443.7 445.8 455.3 467.3 473.6 477.7 488.8 499.8 506.9 515.2 524.8 536.5 543.5 546.3 546.3 549.8 552.3 560.2 567.4 571.2 574.6 568.3 570.8 578.1 585.4 587.9 591.5 598.4 604.2 615.3 623.2 628.8 635.3 637.5 633 630.8 634.5 636.6 635.8 644.2 639.8 643.1 652.7 653.9 654.4 653.5 651.9 648.7 645.7 643.5 641.2 640 639.2 632.9 631.6 634.5 635.7 634.4 634 636.3 640 643.2 645.1 648.4 658.8 669 677.6 680.9 683.1 682 674.5 663.5 649.3 654.2 650.1 647.6 648.3 652.4 659.4 670.2 670.5 662.1 649.4 636.6 611.5 591 571.2 551.2 541.4 533.2 524.1 515.8 501.6 499.6 499.3 499.6 500.6 501.7 505.3 508.8 522.9 538.2 555 577.8 600.8 627.9 658.6 688.3 708.2 732.8 740.9 747.7 751.8 748.4
833.3 818.4 787.6 758.6 729.9 700 670.9 644.4 620.5 599.9 587.5 590.6 610.4 634.4 660.3 687.5 712.9 734.7 751 765.8 779.3 792.2 802.3 811.7 821.1 830.1 836.2 840.7 843.4 844.4 842.4 838.7 833.7 827.8 821.5 814.6 807 796.1 782.9 764.7 744.9 725.8 708.4 692.8 675.9 654.3 629.7 639.3 647.6 654.9 659.8 662.9 663.5 662.4 654.2 642.2 624.6 601.5 573.2 544.6 515.1 488.2 467.5 452.8 441.8 436.2 430.9 425.3 420.4 415.4 412.5 413.7 412.9 412.7 411 415.4 416.6 417.3 411.7 421.3 423.5 425.4 424.9 430.8 443.8 451.7 474.1 480.2 482 483.3 483.2 486.1 485.1 476.4 484.8 483.9 497.1 506.7 513.3 518.2 516.8 523.9 535.6 542 552.5 556.4 553.8 554 561.4 567.5 574.7 578 585.1 583.8 591 603.7 610.2 613.1 624.6 622.5 623.6 627.3 635.1 635.3 637.1 640.8 651.4 649.4 656 657 654.3 651.9 649.3 647.8 646.6 644 641.8 640.5 636.2 631.3 637.8 640.4 640.3 638.3 638.3 640.1 643.3 646.1 649 653.1 664 675.6 684.6 687.4 689.2 687.6 679.7 669.7 661.1 664.3 663.5 661.4 662.9 665.3 670.7 677.7 681.6 683.6 668.7 649.4 632.4 618 602.5 573.3 555.5 547.2 532.9 525.3 511.2 500.6 499.7 499.8 499.9 500.4 501.3 503 510.8 523.2 541.5 562.3 589.6 618.4 650.3 691.3 720.7 751.9 755.5 762.7 762 770.8
837.9 825.3 797.5 766.3 736.3 706.1 675.9 649.9 625.2 604.9 591 592.6 611.3 634.9 660.6 688.2 712.9 732 747 760 771.6 782.3 791.5 803.4 814.8 825.2 833.9 840 844.9 846.9 845.2 841.1 836 829.2 821.6 813.3 803.3 791.7 773.6 752 735.3 718.4 701.1 684.9 667.4 647.2 626 616.6 627.4 633.8 639.9 641.6 641.9 641.1 635.6 623.6 603.6 578.1 553 525 499.2 472.5 451.4 434.8 427.9 425.8 424.7 417.5 414.5 413.6 415.9 415.3 418.7 413.4 411.1 415.4 416.4 413.4 414.2 417.4 423.2 424.6 427.5 438 453.2 469.4 488.1 501.1 508.4 513.5 515.2 515.5 514.7 512.5 513.1 512.9 510.4 509.6 512.9 512.9 517.8 520.1 523.1 534.3 539.4 537 540.4 544.5 553.6 564.6 563.8 569.3 581.4 586.7 595.9 608 614 620.2 624.9 625.9 627.6 636.2 641.4 648.1 653.6 653.5 657.8 659.9 660.1 658.6 655.5 653.2 650 649.4 647.7 645.3 642.8 638.3 637.6 640.9 642.9 644.8 644.5 642.5 642.2 644.5 646.6 650.5 654.7 661.3 671.7 684.6 691.4 694.2 697.5 691.2 683.4 677.1 665.1 674.6 674.1 675.1 677.9 678 680.6 686.4 696.3 692.8 683.5 665.7 654.1 635.1 617 601.3 576 562.5 547.2 533 520.4 503.9 500.1 501.6 500.3 500 500.3 500.4 502.1 516.9 530.8 549.1 572.9 600.7 641.2 672 723.9 753.2 771.1 778.7 787.3 795.5
843.1 830.5 804.4 774.2 743.7 712.6 681.1 654.5 629.5 609.3 595.1 595.4 612.1 633 658.3 687.3 711.4 727.1 740.3 750.9 759.2 766.6 779.6 794.1 807.8 820.2 830.3 838.8 845.9 849.4 849.4 844.3 836.6 828.7 819.1 809.8 799.4 781.9 759.5 741.2 725.7 709.5 691.4 672.9 654.3 636.5 617.2 591.8 603.2 610 615.9 617.6 618.3 612 610.4 598.9 579.7 556.6 530.9 506.3 482.9 457.9 433.8 424.5 420 419.3 416.9 417 416.3 420 427.5 426.8 421.1 418.9 413.5 418.6 416 413.7 419.3 417.2 424.4 426.2 435.1 448.6 466.2 488 507.1 525 534.4 540.1 543.2 544.3 542 542 541.7 541.2 539.8 538.9 536.9 535.1 535 537 538.6 536.8 538.6 545.3 546.2 559.5 566.9 572.8 574.9 580.3 583.9 591.7 602.9 608.5 618.4 621 625.2 630.3 634 642.8 650.8 656.4 659.6 661 662.1 662.7 661.3 659.4 655.9 653.1 651.5 650 647.9 644.1 641.3 638.9 641.8 644.7 646.8 648.2 647.6 646.7 646.6 648.9 651.1 655.9 661.2 671.2 679.6 691.1 698.6 703.2 702.7 696.2 689.5 684.6 677.6 683.8 685.2 687.8 690.5 692.3 692.6 701.7 705.6 700.8 691.5 679 666.9 648.5 633 617.2 597.5 581.1 562.7 545.7 533.1 518.2 504.1 500.6 500.7 500.5 500.5 501.9 503.5 509.4 522.2 540.5 563.8 595.9 629.9 665.6 695.9 735.6 787.7 805.4 813.9 819.1
845.9 833.8 806.9 778.7 748 717.1 685.7 658.6 633.2 614.9 600.5 598.7 610.7 631.7 654.5 681.4 704.1 717.8 726.4 733.7 740.4 751.2 769.2 785.2 800.2 814 826.5 838.5 846.4 851.3 850.4 844.5 835.8 826.6 815.8 803.1 785.9 765 746.6 729.7 712.8 694.9 676.5 659.8 644.2 628.7 610.7 595 574 582.1 589.7 590.9 583.8 576.6 575.8 569.2 552.6 533.1 508.9 488.8 467.2 446.1 431.8 422.9 419.8 418.7 418.1 420.5 422.8 427.9 437.5 433.1 424.3 420.7 415.2 415 416.4 415 421.2 421.6 425.1 427.6 439.6 460.3 483.6 504.6 523.5 539.8 550.9 559.7 567.4 571.8 572.2 569.8 568.5 565.6 561.1 558.3 558.3 556.2 553.5 550 552.5 554.4 553.1 548.8 558.9 566.6 573.7 579.6 584 587.9 594.6 595.5 604.4 613.4 618.7 623.4 624.5 626.5 635.9 640.8 649.6 654.3 660.8 662.6 663.6 663.8 662.8 660.2 657.2 652.8 650.8 649.5 645.7 640.6 638.9 643.4 644.2 646.6 649.9 651.3 650.6 649.4 650 651.8 654.3 661.1 670.8 679.1 689.4 700.7 707.1 711.5 708 701.7 695 694.6 687.8 692.2 696.1 698.8 700.8 704 707.5 718 714 707.9 702.4 690.1 673.6 661 645.4 627.9 609.5 592.5 573.4 557.1 544.8 529.7 515.2 500.8 500.9 500.4 500.6 501.6 501.3 509.1 517.9 529.7 556.1 586.1 622.2 651.1 683.4 732.5 787.2 822.2 836 838.7
846.5 832.9 812.4 785 752.8 720.6 688.8 660.7 636.7 617.8 605.4 601.3 610.5 628.4 649.5 669.4 685.7 697.9 706.9 713.1 720.6 739.3 761.6 778.2 793.9 809.2 824.2 836.8 845.3 850.7 849.6 843.5 834.8 823 810.9 793.3 768.2 748.7 731.8 715.2 698.9 682.4 665.2 648.8 632.9 620.5 604.9 592 576.8 553.2 560.5 556.8 550 540.7 540 536.6 523.9 506.3 488.9 470 452.9 445.2 434 422 420.7 418.6 422.8 424.6 431.2 443.1 442.5 440.1 427.4 420.8 417.9 416 417.5 416.5 421.7 422.1 423.5 433.5 447.5 468.3 496.1 518.7 536 555.7 569 577.6 589.8 596 597.4 595.5 590.8 587.6 584.2 580.4 576.9 574 571.8 570.4 569.9 568.4 566 560.9 564.1 571.6 580.3 587.7 596.2 600 599.2 606.9 610.5 614.9 618.3 623.4 628.6 637.7 645.5 652.1 654.3 660 662.3 663.8 665.4 665 663.4 661.3 658 653 649.8 647.7 645.1 640.4 644.1 645.1 646.1 649 651.4 654.2 652.4 651.8 652.1 655.2 659.9 671.6 679.6 692.9 703.3 712.1 718.3 719.2 715 708 703.1 701.2 696.6 697.7 705.6 707.4 711.2 714.7 717.7 724.1 724 718.4 710.8 701.3 684.3 668.3 655.6 635.8 618.5 601.1 585.8 568.2 552.3 538.4 526.5 505 502 500.8 500.9 501.4 501.3 504.2 515.1 530.7 555.7 576.6 606.3 639 676.6 727.9 798.3 835.8 843.9 845.8
843.5 835 815.6 787.5 754.4 721 688.5 661.6 638.9 622.3 609.6 604.7 611.4 622.4 642 653.6 662.1 675.2 686.5 689.7 712 735.2 755.9 773.7 789.5 805.3 821.4 834.7 845.1 849.3 848.3 842.9 833.1 821.3 805.9 776.3 752.4 733.4 718.2 702 685.3 669.5 653.3 636.9 621.6 607.5 593.4 578.7 562.3 544.6 533.6 522.9 515.1 511.2 504.4 502.8 497.1 479.6 464.3 451.7 442.4 437.9 430.2 423.3 420.2 424.8 426 436.7 448.4 458 460.8 444.2 428.1 422 416.5 416.6 419.8 417.1 423 423.5 427.7 438.2 453.5 480.6 506.9 532.7 552.7 573.4 585.4 596.1 608.1 614.5 616.4 615 611.6 607.7 604.2 599.9 596.4 592.8 588.8 583.9 581 578.9 578.8 573.4 574.9 584.5 587.9 597.8 603.7 609.3 612.7 613.7 614.1 614.7 616.6 622.1 631.8 643.4 651.8 656.8 661.3 663.7 664.9 667.2 668.6 668.1 663.9 660.9 657.8 652.7 648.6 645.7 643.7 641.3 645 646.4 646.8 651.3 654.8 655.7 655.1 652.8 655.9 660 666.3 676.9 688.5 702 713.9 724.6 727.2 726.2 721.9 715.8 710.6 708.8 707.8 702.9 712.2 715.2 718.9 722.9 726.5 734 734.6 730.5 724.1 713.8 692.5 676.8 660.8 644.3 626.3 608.6 595.5 579.8 562.3 546.4 532.1 521.6 510.6 502 502.6 502.1 502 502.7 505 519.3 541.8 562.8 591.8 626.9 668.4 720.1 794.5 821.7 836.4 839.3
840.6 834.2 814.9 785.6 751.4 718.4 686.5 663.1 644 628 614.2 609.9 617.7 622.7 629.1 634.4 640.6 652.7 660.1 680.5 709.4 732.8 751.8 768.8 785.8 802.3 818.5 832.7 843.5 847.3 846.6 841.7 832.2 818.5 791.2 763.2 740.5 722.7 706.7 689.4 673.9 657.7 641.9 623.2 606.5 592.7 579.7 575.3 570.9 564.2 553.5 542.7 532 518 503 485.3 467.7 458.3 450.5 443.4 433.2 430 424 421.7 426.8 426.2 434.7 451.7 469.2 467.7 462.9 445.5 432.7 424.4 417.2 418.8 421.4 420.4 422.6 423.8 429.6 444.2 464.7 489.9 519.3 547.8 570 592.4 606.5 619.7 628.6 633.5 633.3 633.8 633 629.4 626.9 621.8 616.7 610.2 603.2 595.8 591.4 589.7 588.9 588 587.2 594.2 599.1 606.7 613.5 619.9 623.6 621 619.3 622.5 620.9 621.3 631.9 649.7 656.4 660.1 663.8 666.9 668.9 668.7 669.6 668 662.4 660.1 657.1 653.6 648.7 647 642.9 646.5 646.2 647.9 650 654 658 658.9 658.6 657.4 659.8 665.5 674.5 682.7 694.7 707.5 719.7 731.9 734.6 733.4 728 721.7 717.9 717.1 716.4 708.8 718.7 723.2 727.3 732.1 736.3 742.5 745.8 742.2 735 727.5 707.2 687.6 666.5 651.2 634.3 618.2 602.8 586.8 571.4 553.1 537.1 534.5 516.3 503.5 502.1 501.9 502.5 502.9 504.9 518.6 538.2 561.7 585.3 617 653.1 725.4 774.1 816.5 824.7 831.1
837.8 828.8 801.8 771.2 741.2 714.9 691.6 670.7 650.7 633.4 618.5 617.2 625.4 634.2 647.2 652.4 654.3 656.5 666.8 686 708 729.9 748 764.7 781.2 798.5 815.5 830.7 840.4 845.3 845.6 841.4 831.8 810.5 778.8 752.9 733.1 717 700.2 684.3 666.2 648.6 631.4 618.4 612.7 606.6 599.5 594.8 588.4 579.5 570.1 560.6 549.7 539.8 517.7 492.3 471.5 452.2 446.4 438.9 432.7 425.2 423 428.4 428.4 431.5 446.7 473.4 483.9 474.4 463.9 444.3 433.2 425.6 418.6 419.5 421.8 422 422.1 425.5 431 450.5 473.4 502 530.6 560.7 587.8 608.5 622.6 634.1 642.7 649.9 654.5 654.3 655.8 653.7 651.1 645 636.9 629.7 620.9 610.4 604.1 602.4 599.7 600.3 599.9 606.2 612.2 618.1 625.2 629.9 632.1 631.6 633 628 624.3 627.4 636.6 647.2 653.9 660.9 664.9 669.3 671.2 671.9 671 667.9 663.5 660.8 658.8 654 649.1 646.4 644.9 647.2 647.7 649.4 652.8 656.9 663.2 665.1 662.3 662.1 664 670.6 678.1 690.9 700.9 714.1 733.1 741.5 742.1 740.8 734.2 729.4 727.2 726.3 722.7 715.1 722.9 729.5 734.9 739.7 745.3 751.1 754.8 750.7 746.6 741.7 725.5 699.2 677.3 658.1 643.8 627.4 610.7 594.2 579.5 561 545.5 536.4 523.9 504.4 503 502.6 503 503.3 505.8 515.5 530.5 556.2 578.6 608.2 642.5 715.7 773.2 798.8 806.9 820
832.5 828.9 809.1 779.6 756.5 730.4 704 679.1 659.2 640.1 624.5 624.6 636.1 651.1 661.8 672.3 675.5 675.4 668.6 688.3 707.5 726.6 742.2 758.7 776.5 794.9 811.3 827.1 837.1 843.8 846.2 844 834.1 802.9 775.4 752.3 732 714.8 699.5 686.3 672 657.3 645.4 635.8 629.8 624.5 617.5 610.4 602.4 592.5 584.6 573.6 562.1 537.2 508.9 480.8 463.6 447.6 441.1 437.6 427.6 424.8 424.1 430 430.6 440.1 456.9 491.6 492 483.4 462.9 445.5 435 426.4 419.9 420.3 424.6 423.8 422.6 425.6 435.7 455.5 480.5 510.7 541.5 574.1 600 618.8 632 642.7 652 660.7 667 670 670.5 670.3 668.2 661.6 653.2 644.8 636.4 626.4 618.3 615.3 614.2 613.2 614.1 619.7 625.6 631.2 635.2 638.7 641 643.5 641.8 634.6 630.2 636.6 645.9 652.7 661.7 669.8 674.8 679.2 679.5 677 670.4 669.2 665.2 661.6 658.8 652.6 649.7 648.9 647.6 649 649.8 652.5 656.3 663 668.5 669.7 668.5 666.4 668.2 674.3 681.4 692.1 706.7 721.3 742.3 751.5 749.3 747.5 741.8 736 733.5 730.3 726.3 719.7 728.4 734 741.2 746.4 751.2 758.7 762.5 759.8 759.6 754.2 742.3 713.4 685.7 668.3 652.6 635.4 617.5 602.2 586.3 569.9 552.9 540.5 529.7 515.7 503.2 503.1 503.3 503.9 505.3 510.7 533.6 552.3 575.4 607.1 640.6 695.7 748 763 770.3 806.7
830.9 831 819.7 794.8 767.8 741.2 713.6 688 665.1 646.3 631 631.9 647.6 664.4 677.8 688.4 694.5 697.9 692.8 689 703 718.7 733.7 751.3 772.5 790.7 809.7 825.4 836.9 846.5 850.9 850.6 839.5 805.4 780.5 758.9 737.2 717.5 702.5 689.9 678.8 667.3 657.7 654.1 646.9 639.9 631.2 623.6 615.5 604.9 597 583.5 556.6 521.9 497.6 477.6 457.7 441.9 435.4 432.2 425.7 425.6 434.6 432.9 432.1 447.9 466.4 492.7 495.6 483.1 465.8 448.3 436.3 428.5 423.5 421.5 426.8 426.7 425.1 428.2 443.6 462.5 491.7 518.3 551.2 583.9 608.6 624.6 637.1 647.5 657.5 665.4 670.8 674.6 676.6 678.4 677.7 674 666.8 657.4 648.5 641.8 636.3 632.8 630.4 630.1 629.3 634.4 637.9 643.3 646.3 649.2 652.5 653.2 649.3 645.9 644.2 649.8 652.8 663.5 676.7 685.3 690 690.1 687 680.5 674.7 670.8 665.9 661.7 656.9 653.3 652.1 650.2 647.9 650.2 651.9 655.3 659.8 667.5 671.4 674.4 672.9 671 672.5 678.5 686.3 696.6 712.9 728.1 749 757.2 758 753.4 747.5 740.9 736.3 731.3 723.6 727.8 734.9 739 744.9 750.1 757.6 765.7 769.3 768.8 770.6 769.2 756.9 729.8 701.8 681.3 665 645.5 626.2 608.3 591.8 575.7 558.3 543.8 535.4 519.8 504.4 504.1 503.6 504.3 506.5 517.3 530.2 548.3 570.4 601.8 633.7 681.6 699.2 738.1 771.4 802.3
831.7 833.8 824.2 804.9 777.1 747 718.6 693.7 671.9 652.8 637.1 640.7 659.7 675.5 692.6 707.5 715.7 717 716.4 713.4 715.1 727.4 739.7 754.2 770.8 790.2 811.7 827.5 840.2 851.4 857.5 857.3 851 821.6 794.5 770.9 750.3 723.9 707.6 697.6 687.1 679.9 675.1 669.4 662.1 654.7 648.3 641.5 635.4 623 610.1 582.5 545.2 516.9 494.8 472.8 454 439.6 431.7 426.9 426.9 426.5 438.8 436.1 436.3 456.8 472.4 490.3 498 482.8 464.5 446.8 436.1 430.2 426.7 422.8 428.3 430.2 426.9 430.8 448.7 468 495.2 527.1 559 589.8 611.9 624.6 637.7 647.1 656.9 663.3 667.6 672.6 676.5 680.8 681.2 678.8 674.3 667.3 660.8 656.2 651.9 648.7 645.6 645.6 647.8 651.6 655.6 658.9 663.1 665.7 666.8 665.3 662.1 658.5 658.5 661.2 670.4 681.9 690 696.3 698.7 697.5 693.9 688.4 680.4 674.1 667.9 663.3 658.9 660.1 655.4 653.1 649.8 652 654.4 657 662.7 668.2 674 676.6 676.2 674.7 676.3 681.9 691.1 701.3 716.8 735.8 752.9 761 762.9 758.4 750.7 743.7 737.8 731.9 733.5 735.7 739 744 749.1 754.6 762.1 769.7 775.8 778.5 783 781.3 770.3 743.5 719.9 696.8 678.1 657 634.5 615.1 598.5 582 564.9 547.5 539.7 526.4 512.9 504.5 504.9 505.5 506.4 516.9 534.8 548 567.6 594 619.2 657.5 698.4 736.8 770 791.5
831.2 835 827 807.4 779 748.6 722 698.5 678.9 658.5 639.5 650.5 670.1 689.5 707.4 722.3 733.1 738.1 738.3 734.4 733.4 738.8 753.8 772.1 788.2 803.8 819.3 835.4 847.9 859.5 866 865.7 860.1 834.1 803.6 780.1 754 729.5 716.6 705.7 699.6 695.6 692.5 686.8 682.4 676 672.3 665.2 658.3 639.7 615.8 573.7 542.9 518.5 496.5 473.3 454.5 439.6 429.6 427 427.6 432.2 437.5 437.1 441.9 461.9 476.6 493.1 494.7 479.7 461.6 444 434.5 431 424.8 422.5 428.7 430.1 427 430.8 448.9 470.8 499.3 533 566.8 593.3 610.6 622.9 634.1 643.4 651.7 658.3 663.7 668.7 674.2 679.6 682.3 683 680.6 677.2 674.7 671.9 669.4 665.9 664.9 664.6 664.3 666.2 668.4 671.9 675.9 678.7 679.3 678.7 673.4 674.2 674.9 676.1 688 697.3 703.4 705.7 706.8 704.1 698.8 691.9 684 675.9 671.4 669.9 669.5 669 662.3 655 652.1 652.1 656.1 658.8 663.3 670.3 674.5 676.9 677.6 676.5 679.5 687.1 695 704.4 720.3 739.6 755.8 765.6 766.4 761 753.6 745.5 739.7 735.4 738.4 740.6 744.3 746.6 752 758.4 767.3 773.7 781.5 788.1 791.7 791.4 782 759.3 737.6 711.9 695.1 667.9 643 621.6 604.8 589.7 571.9 553.5 542.7 533.9 520.7 505.7 505.9 505.7 508.7 515.8 529.5 547.9 565.4 585.6 614.7 651.8 685.5 726.6 759.9 784.7
831.7 835.2 826.5 808.2 782.4 753.4 727.4 704.1 684.6 664.6 646.1 659.1 679.9 700.6 720.4 734.2 742.9 747.8 751.7 752.7 756.4 759.5 774 791.2 806.3 821.4 836.2 845.5 857.8 869.6 875.2 875.2 868.6 850.1 817 792.2 769.1 748.3 730.9 721.5 718.6 716.5 715.2 713.1 710.2 705 701.5 690.3 673.6 655 615.7 578.7 546.7 522.1 499.1 475.9 455.5 441.5 430.6 427.8 430.8 436.5 439.5 438.4 449.1 466.6 481.6 494.3 493.9 476 453.7 439.9 432.6 428.8 425.1 424.1 428.7 427.5 428.1 432.6 452.1 474.2 504 535.7 571.2 592.4 607.4 618.6 627.8 637.1 646.6 654.2 661.1 666.5 672.5 679.2 683.8 687.9 689.1 689.4 689.3 687.1 683.7 681.2 681 680.7 679.2 680.1 682 685.6 688 692.1 694.4 696.2 690.5 697.4 699.9 696.1 706.5 713.5 715.2 714.8 712 709.2 703 692.7 683.8 679.4 680.5 680.4 680 677.3 670.3 662.1 657.5 656.7 656 660 664 669.7 674.4 675.9 678.1 679.1 683 690.7 698.1 708.2 721.8 743.4 759.4 767 767.6 762.4 754.5 746.8 740.8 737.9 740.3 743.9 747.8 751.9 755.4 763.2 770.5 778.4 786.1 793.2 797.5 797 793.2 776.3 758.5 731.2 706 680.1 650.7 629 611.1 594 577.3 559 549 540.5 527.9 508.5 506.9 506.7 509.1 515.4 526.1 539 556.3 583.7 607.9 637.4 677.2 711.8 746.1 773
832.1 834.8 825.2 808.6 784.6 755.9 731.7 709.4 688.7 667.3 655.6 668.2 689.6 710.4 730.9 742.6 751.1 757.9 764.3 772.5 778.2 783.5 796.5 810.7 827.5 839.9 851.3 860 869.2 877.8 882.7 882.9 877.5 862.9 837.9 811 783.6 765.3 750.5 742.6 742.3 742.4 744.2 743.4 738.8 736.3 732.4 708.7 687.4 670.9 627.4 590.4 556.4 523.5 498.4 476.4 456.4 442.8 431.1 428.6 432.9 435.5 436.8 445.1 457.8 473.5 486.3 497.5 492.6 479.9 461.4 444.1 433.6 430.1 426 424.8 426.2 428.9 431.1 437.2 454.3 477.5 507.6 539.9 573 589.3 601.7 612.4 620.1 631.9 641.9 651.6 659.6 665.8 672.1 680.3 688.6 694.1 695.7 698 698.2 696.7 693.2 693.2 693 692.5 691.9 691.4 692.9 696.8 701.1 706.3 710.4 712.5 714.2 714.6 717.3 719.6 723 726.9 727.1 722.8 717.4 711.5 702.6 691.9 688.7 689.1 691.3 691.8 689.3 686 680.8 671.3 662.2 660.6 661.6 662.6 666 669.4 672.2 675.9 678.7 681.3 686.4 693 699.5 711.8 726.9 743.6 757.4 764.2 765.8 762.6 754.8 746.5 740.4 740.4 743.1 747.1 751.9 757.1 761.6 767.2 772.9 782.7 790.7 799.3 804.4 811.6 807.4 795.9 778.1 745.9 718.3 687.5 658.2 635.1 616.2 600.4 584.1 569.8 555.2 544.2 530.4 520.2 511.3 508.2 508.2 514 522.5 538.4 555.9 578.9 601.1 625.8 657.1 697.6 731.5 757.8
831.1 832.6 823.4 809.4 783.1 757.9 735.7 712.5 692.4 672.2 662.2 678.1 697.7 719.1 738.3 749.2 758.8 768.8 780.7 791.1 800 806.2 815.1 829.8 840.1 850.3 860.5 868.5 875.5 881.2 885.8 885.9 882.2 872.6 857.1 830.5 809.8 789.6 775.6 770.5 772.8 771.6 771.3 769.6 766.1 761.6 752.5 726.2 703.8 689.9 648.2 613.1 576.3 531.2 500.5 482.1 464 444.2 429.6 430.5 433.6 434.2 442.9 444.8 462.9 471.7 485.9 496.4 494.5 483.2 465.6 453.4 439.9 430.3 427.7 426.2 428 431 433.5 439.8 457.1 479.7 508.4 536.2 560.1 579.1 591.7 601.9 616.6 629 640.6 651.3 660.5 667 674 681.9 689.8 694.9 697.3 698.8 699.5 700 701.2 702.3 702.6 701.8 701.6 703.2 705.2 708.8 713 718.2 723.1 726.2 727.5 728.6 731.5 734.5 736.7 738 735.7 731.2 722.5 713.4 701.6 701 702.6 702.1 704.6 702.7 698.5 694.5 690 679.2 669.1 665.1 665.5 661.9 667 667.5 671.4 674.6 678.2 682 687.4 693.1 702.4 714.6 727.1 742.9 755.1 762.2 763.9 762 755 746.7 741.1 741.9 746.9 752.5 758.4 760.9 765.8 772.9 777.5 785.9 794.2 802.9 813.4 821.5 819.3 810.2 791.1 758.2 724.8 693.6 666.4 643.5 623.3 607.6 590.9 578.3 563 551.2 539.1 530.4 524.5 509.9 509.5 510.7 526.8 540 553.9 577.9 592.3 613.7 645.9 681.8 714.8 740.5
829.2 830.4 822.3 808.8 784.6 761.7 738.9 718.1 696.3 679.4 673.4 686.3 705.5 726 743.4 755.7 766.9 778.9 792.4 801.9 810 816.9 826.3 838.1 846.9 855.1 863 869.2 875.9 880.8 882.6 882.3 880.3 875.7 869.5 854.2 833 815.4 805.7 802 801.7 800.3 796.9 791.9 781.9 773.5 760.7 742.9 723.6 700.2 670 637.8 588.8 540.5 513.1 487.8 463.8 445.9 429.7 431.6 433.8 436.4 446.6 456.9 470.5 481.2 493.5 498.3 495.5 485.7 469.4 458.5 447.1 431.1 429 427.8 432 433.4 435.8 440.5 454 476 505 528 551.4 566 585.5 601.4 615.2 629.7 640.4 652.1 662 669.7 676.6 683.3 689.8 694.4 696 697.3 699.5 701.3 704.7 707.7 709.1 708.6 710.2 712.8 716.2 720.7 726.9 732 735.3 737.5 740.8 744.2 746.6 748.9 749.2 747 743.8 737.4 726.7 714.9 706.9 712.9 714.8 714.5 716.5 712.6 709.1 704.4 699.2 688.2 675.5 671.8 669.4 667.4 669.2 672.1 674.2 676.4 680 684.3 686.7 694.8 704.7 714.9 727.3 740 751.4 757.9 761.3 761.4 755.6 748.5 744.1 748.7 755.6 762.1 765.7 767.5 773.8 778.7 784.7 792.3 802.2 812.2 820 827.1 826.9 820.6 799.6 764.1 731.1 700.1 674.1 650.9 627.4 611.6 596.2 583.9 571.6 557.1 547.2 543.6 532.3 513.8 510.6 511.1 520.9 534.9 549.4 567.1 585 605.2 625.7 665.7 700.3 724.8
827.1 828 821.1 807.2 788.7 764.5 743 720.7 700.3 684.8 682.6 692.3 712.8 733.1 750.4 762.2 774.1 787.4 799.6 808.8 816.2 823.1 833 843.8 850.4 858.4 863 865.7 869.8 873.2 874.9 876.6 876 874.5 871.2 863.8 852.9 840.4 830.3 823 817.6 809.8 800.8 790.6 777.7 770 754.9 737.5 721.2 702.2 663.1 619.3 581.5 546.7 516.7 488.4 463.7 442.7 431.2 433.3 435.6 437.8 447.9 462.4 475.1 485.4 497.4 500.7 498.6 490.6 473.8 462.2 450.4 438.5 429.3 428.6 435 434.8 435.7 437.1 454.7 477 502.3 529.1 551.6 573.8 592.1 606.7 619.3 632.6 644.4 654.6 663.7 671.7 678.8 684.7 689.7 692.6 693.9 695 697.4 701.6 705.5 709 711.7 713.5 716.4 721 725.5 729.5 737.6 741.9 746.3 750.4 754.5 759.3 760.7 760.1 757.9 754.8 749.4 739.3 726.9 715.7 719.5 720.7 724.5 726 724.9 722.1 720.2 715.3 707.1 694.7 681.3 676.7 672.9 669.9 670.6 673.3 677.1 678.5 681.9 687.5 692 694.7 699.5 716.1 726.7 737.2 746.6 753.4 758.3 758.8 755.5 749.3 750.7 756.5 762.5 770.3 773.9 776.9 781.5 787.7 793.4 800 812.1 820.9 829.5 834.5 833.1 823.9 803.8 766 733 703.7 680.1 654.3 636 615.7 599.8 585.7 574 561.5 551.1 552.8 531.3 524.7 511.4 514.2 521.2 534.8 549.1 560.5 578.4 598.4 618.7 652.8 686.2 710.5
824.2 826.1 820.7 808.4 792.5 768.9 743.1 720.4 706 697.8 694.8 700.5 719.7 738.9 755.9 767.2 778.6 791.9 802.4 811.6 818.5 826.7 836.1 846.9 852.4 856.3 856.2 856.3 858.3 862.2 866.7 869.7 869.1 869.1 866.2 860.6 852.4 842.2 833.6 824.4 813.6 799.9 790.5 782.7 770.5 757.6 742.2 725.3 709.2 691 660.8 623.1 586 547.3 513.6 485.2 461.7 442.7 431.5 434 435 440.2 450.3 467.2 480.1 491 501.7 506.2 511.8 493.8 481.5 466.1 452.6 442.6 433 431 430.3 438.9 437.2 437.4 450.6 472.4 497.2 526.3 551 574.5 596.2 611.4 624.2 636.9 648.6 658.7 666.7 673.5 679.5 684.8 688 690 691.4 693.1 696.7 700.6 704.6 708.8 712.7 716.4 721.8 727.5 732.6 739 746.2 751.3 757.9 764 769.2 772.8 772.7 769.9 765.4 760.5 752.5 742.3 727.7 731.2 729.7 731.2 734.4 735.7 734.2 730.7 727.1 720.7 712.1 700.9 687.6 680.4 676.4 674.5 672.5 677.2 680.4 681.5 685.7 690.4 696.3 701.5 707.9 711.4 725 733.8 741.3 749.9 756 758.3 756.8 752 761.1 765.4 769.8 776.7 782.7 785.7 792 796.2 801.1 812 822 831.1 839.3 844.1 845.6 831.6 806.2 768.9 733.5 704.8 683.7 661.6 643.6 622 606 591.2 579.6 566.8 556.1 554.4 545.9 529.5 521.7 519.7 523.5 534.3 541.6 556.1 572 593.3 610.7 635 670.2 696.9
822.4 824.2 819.7 810.2 791 767.6 743.4 731.9 717.7 711.1 712.5 715.4 727 745.7 758.7 768.9 779.4 791 801.8 810.7 819.3 827.2 834.9 845.1 848 846.8 844.9 844.3 845.7 852.1 855.9 858.4 861.1 860.7 859.1 853.9 846 836.8 827.4 814 801.5 790.1 781.7 772.5 756.2 740.8 725.9 714.5 697.8 678.7 654.4 622.4 583 546.5 508.3 484 460.4 439.5 431.7 437.1 437.8 441.3 455.6 470.9 482.2 492.6 503.8 511.8 512.8 504.9 489.8 471.3 457.3 446.2 438 435.1 432.1 432.4 439 440 447.3 470.9 494.6 525.7 552.3 576.2 599.1 615.6 628.1 641.8 652.8 662 668.9 676.7 680.9 683.1 685.2 686.6 688.3 691.3 694.7 699.1 703.7 708.1 713.7 719.4 724.9 731.6 738 745.6 752.7 760.2 769.7 775.7 780.2 782.2 781.1 776.5 770.7 765 755.6 742.8 743 741.8 741.2 742.1 743.4 742.7 742.2 738.2 731.4 723.9 715.9 703.4 691.7 685 680.7 678.4 678.7 680.5 682.9 685 689.4 694.2 700.2 705.7 714.4 720.8 718.8 732.8 741.5 748.7 754.1 756.3 757.8 762.1 767.3 771.3 778.4 785.9 793.3 797.7 805.7 808.7 816 824.3 835.6 844 850.1 854.7 855.2 840 804.9 762.7 732.2 705.1 685.6 665.8 647.5 629.9 612.7 598.4 584.1 573.7 561.5 558.6 546.5 535.2 530.1 514.9 517.8 527.9 540 548.5 566.1 585.7 602 622.7 653.5 681
821.4 820.9 817.4 805.9 789.7 775.9 761.7 742.6 733.9 728.6 729.6 732.2 731.8 750.2 760 767.5 777.1 786.6 797.2 807.1 816.5 824.5 832.3 839.3 838.1 835.2 834.4 835.5 837 841.6 846.9 848.8 851.2 852.2 850.9 846.2 838.7 828.5 817.9 799.9 790.2 778.4 768.9 754.7 737.9 724.8 713.2 699.4 679.2 663.4 642.4 604.7 570.4 539.7 502.8 479.6 458.7 440.9 434 434.6 437.6 443.8 460 472.2 484 498.5 511.5 518 520.4 514.3 494.3 475.7 459.9 448.1 443.1 437.7 434.2 432.8 434.9 440.3 444.6 464.5 491.1 522.3 550.4 576.8 601.1 617.7 631.7 644.7 655.8 663.6 670.8 677.1 678.7 678.9 680.5 682.8 683.5 685.9 689.2 694.6 701.1 707.7 714.4 720.6 727.5 734.5 742.2 751.2 758.8 769.5 780.3 784.9 788.2 788.7 786 781.1 775.3 768.2 760.1 750.9 752.9 751.9 751.5 752.3 750.9 749.7 749.2 744.1 735.4 729.6 718.4 706 695.3 689.5 683.9 682.3 682.6 681.5 684.6 687.8 693.3 698 704.4 710 719.5 726.8 729.7 729.8 738.2 747.3 753.4 756.3 761 767.9 773.8 779.2 786.9 795.8 804.5 811.1 815.3 822.1 829.5 839.5 848.4 856.1 862.6 866.2 865.6 846.3 804.3 764.2 730.3 705.6 688.6 673.4 654.1 635.7 618.3 603.7 589.9 578.3 567.8 561 550.5 547.8 540.1 524.3 516.9 523.3 536.7 552.5 559.8 578.9 596.2 617.4 640.7 667.7
822.7 822.6 820.2 808.9 801.7 789.2 774.4 760.3 753.5 754 750.5 751.4 750.7 752.1 759.3 766 773.4 781.2 788.9 799.7 808.9 816.9 825.3 830.6 829.1 827.9 825.9 825.6 827.3 830.6 837.3 840.9 843.4 843.8 841.1 835.3 826.3 814.8 803.5 788.6 776.6 764 750.1 738.9 722.8 707.7 695.1 679.4 661.6 646.4 624 591 559.1 528.5 498.4 475.4 454.6 441.3 436.7 434.4 433.8 444.7 463 477.8 492.9 507 515.8 526.5 527.2 519.9 499.2 479.4 463.8 452.1 445.2 440.9 435.4 435.3 436 439.9 444.1 457.2 485.1 515.5 544.6 572.8 598.3 617 631.6 643.6 654.6 662.4 669.2 673.7 674.2 672.9 672.6 675.4 675.8 678.7 682.3 690.1 697.1 705.2 713.9 721.5 728.5 737.1 746.4 755.8 766.6 777.1 785.9 791.6 795.1 794.2 790.7 786.1 779.8 772.2 764.8 759.7 762.6 763.7 762.4 761.5 759 756.8 753.7 747.7 741 731.3 720.2 706.9 698.6 693 687.3 685.7 686.6 685.8 685.8 689.4 696.3 706.2 712.2 718.4 727.3 732.7 735.3 738.8 744.6 747.3 753.6 758.3 764.6 771.9 778.5 786.3 793.9 804 813.2 820.4 826.9 833.2 840.3 849.7 858.7 867 872.3 875 875.4 853.5 814.4 774 740.2 710.9 692.7 679.2 660.5 639.2 621.9 609.4 593.4 582 574 569.7 562 552.6 540.5 532.9 524.9 521.7 532.3 547.2 559.4 570.7 591.5 612.2 630.9 655.8
824.9 824.1 819.6 817.8 813.7 803.3 791.9 786.9 779.8 771.1 765.6 761.9 758.3 758 758.5 761.8 767.9 773.8 781 790.4 798.7 805.9 812.7 819.8 821.8 818.9 814.1 811.5 813.9 820.2 827.7 832.1 833.9 832.6 828.8 818.7 805.4 792.3 783 774.8 757.5 742.6 733.3 721.6 704.7 689 675.2 664.1 654 638.9 607.7 575.4 549 519.1 495.5 471.9 449.1 442.4 438.2 436.4 434.3 446.2 464.7 480.8 497.6 512 527.9 535.9 534.4 525.1 506.3 489.1 471.9 460.8 450.8 445 437.8 435.7 436.9 437.8 443.7 450.2 475 505 535.3 565.8 591.1 614.8 628 636.4 646 654 660.3 664.4 663.6 660.6 661.8 661.2 661.6 665 672.2 681.7 692 702.3 711.9 721.5 729 737.5 747.5 759.5 770.6 781.4 791 797.9 800.2 799.3 795.5 791.3 785 777.6 770.5 769.1 774.1 775.7 775.1 772.6 767.8 763.7 757.9 750.9 742.6 732.2 718.7 708.3 700.8 695.8 692.5 689.8 689.4 687.8 687.9 692.8 701.7 710 718.2 726 733.7 738 744.3 749.8 750.1 747 755 760.5 767.1 775.1 783.8 792.2 801 812.1 820.4 828.1 836 842.8 850.6 860.2 869.6 875.3 879.5 883 884.7 867.6 836.6 792.6 756.2 728 695.3 684.1 668.3 647.7 631.1 614.7 599.7 588.8 578.9 573.4 565.4 558.2 546.9 539.2 530.6 525.3 531.9 541.6 547.8 561.6 580 600 622.5 643.5
827.4 826.6 826.5 825.1 822.7 818.9 811.1 803.3 792.7 781.4 774.1 768.5 763.5 759.8 757.1 753.6 761.3 765.7 769.4 778.4 785.3 793 801.2 809.5 810.4 805.2 800.9 794.4 798.4 808 817.9 821.5 820.6 817.3 811 798.1 782.2 771.4 765.5 752.7 739.6 727.2 716.6 700.3 681.5 672.9 664.6 655.9 644.1 628.5 595.7 563.6 539.1 512.7 487.7 465.6 448.5 439.7 437.1 435.8 435 448.2 466.2 486.4 502.4 519.9 534.7 543.5 539.3 526.4 512.8 496.8 480.9 468.5 457.1 451 443.2 437.9 438.6 438.5 444.1 450.3 464.7 491.9 521.7 552.7 579.3 604 615.2 620.9 629.9 638.1 642.8 645.9 644.1 644.7 642.1 641.2 639.6 643.6 651.5 666.1 681.8 696.5 707 717.2 726.1 736.2 747.2 759.6 773.3 786.2 795.7 802 804.6 803.2 800.1 796 791.2 785 778.2 778 784.5 788.5 788.1 782.9 776 771.1 764.3 755.9 745.4 730.9 718.1 711.1 703.6 699.2 694.8 693.5 692.3 690.2 691.7 698.3 706.8 712.9 722.6 732.7 742.4 747.4 750.5 756.1 756.1 755.2 756.4 761.9 768.7 776.5 786.5 795.6 805.2 815.8 825.3 834 842.5 851.5 860.1 869.9 876.6 881.4 885.5 889.6 891.7 889.2 858.7 820.1 783.6 748.3 713.1 694.1 673.7 658.1 640.1 623.1 606.4 593 584.5 575.5 569.8 561.8 548.3 544.5 533.8 531.3 532.6 547 558.9 568.4 570.7 592.4 610.6 633.9
829.8 831.2 832 831.8 830.8 829.9 824 815.3 802.4 791.2 781.1 773.8 767.4 762 755.4 751.8 752.2 756.2 758.6 762.6 771.1 778.8 789.7 798.3 799.5 794 788 780.3 785.4 795.7 803.3 805.6 801.8 796.8 789 775.9 761.3 753.3 745.6 737.2 724.5 708.2 698.6 679.4 672.2 664.8 655.8 644.4 631.2 614.3 585.6 554.1 529.2 504.7 481.2 457.3 445.9 439 437.2 435.6 435.4 450.3 470.9 490.9 507.9 524.1 540.6 549.3 544.7 535.1 519.5 505.6 490.8 475.5 463.7 457.3 450.7 447 439.4 439.1 441 452.1 460.9 481.8 507.2 535.1 565.5 584.3 591.8 596 605.5 615.9 620.1 621.2 625.7 625.4 618.7 612.2 614.1 621.2 635.9 651.1 670 684.9 698.5 711.1 721.9 734.8 747 760.3 775.4 788.2 798.4 803.7 805.9 805.6 803.4 800.2 796.3 790.8 786.9 785.1 795 798.4 799 795.1 788.4 778.7 770.7 759.2 746.8 732.7 722.4 714.6 706.9 701.3 698 697.5 695.4 693.1 696.3 703.1 710.7 719.5 727.6 738.5 749.2 755.3 759.1 762 761.2 760.7 757.7 763.5 768.1 777.3 787.6 798.4 807.8 817.9 828.7 837.1 847.1 857.8 866.4 874.2 880.4 885.9 890.7 894.8 897.8 898 887.6 848.6 820.4 778.6 733.2 709.4 688.6 667.2 645.8 624.6 609.5 600.7 589.8 582.3 575.2 562.9 549.9 543.9 539.2 536.3 532 540.4 557.6 567.2 580.9 582.5 599 618.6
833 835.3 836.5 837.9 838.7 837.7 832.5 822.2 808.9 798 787.5 778.7 771.1 764.8 757.6 751.2 742.6 744.4 747.6 751.3 757.2 765.3 775.7 785.6 786.3 784.5 777.8 766.2 770.1 781.1 786.3 786.6 782.4 772.8 763.9 752.7 741.9 731 725.3 719.6 704.1 693.4 681.1 669.7 664.8 657 648.8 633.4 614.4 596.2 565.9 540.6 516.1 489.8 469.3 451 440.4 440.6 437.1 435.5 437.6 458.5 477.2 495.9 512.2 533.6 550.7 555.9 554.1 544.7 527.8 514.2 497.7 484.1 473 463.4 457.4 452.7 442.3 440.9 440.8 447.8 457.5 472 494.3 519.4 543.8 556.7 559.1 567.1 579.1 590.4 599.3 604.4 605.9 600.3 594.6 604.6 615.8 625.5 633.8 638.3 655.2 675.3 693.9 708.4 720.3 733.5 748.4 763.2 776.9 789.3 798.4 803.5 806.6 806.4 805 802.8 799.8 797.2 795.9 797.9 804.1 808.5 808.6 805.5 798.3 788.4 775.7 759.6 746.4 737.9 728.9 720.1 714.2 706.3 703.7 701.5 698.8 698.8 701 705.7 714.8 723.7 733.1 744.3 754 763 768.2 769.1 767.5 765.5 759.4 763.6 768 775.7 786.5 799 809.5 821.3 831.3 840 851.1 861.4 869 877.1 883.7 888.9 893.6 897.8 901.6 904 900.7 885.6 851.7 809.6 754.1 727.4 701.3 672 652.9 633.6 615.3 601.1 592.2 584 582.1 570.2 555.2 551.5 547.5 541.5 532.4 540 552.1 562.1 575.9 585.2 596.1 610.4
835.7 838.2 840.8 843.8 845.2 843.7 837.1 826.5 813.8 803.1 792.8 785.2 777.6 768.9 759.5 750.6 741.2 731 732.4 735.6 743.8 750.5 760.9 771 774.8 772.5 765.8 755.8 751.4 762.5 766 766.4 766.6 753.5 742.2 729.6 720.7 710.5 700.9 696 684.1 680.1 669.4 660.4 657 649.6 638.4 618.6 596.3 573.1 549.2 526.8 500.7 481.5 459.1 446.3 437.9 438 436 435.7 446 467.2 485.3 501.3 519.9 540.6 556.8 565.4 566.4 556.9 539.1 523.6 509.1 494 482.6 472.5 463.6 455.8 450.5 442.9 442.3 446.5 454.8 464.4 482.4 501 516.5 520.8 526.2 539.3 551.2 566.5 577.7 584.6 586.2 585.4 603.5 618.5 629.4 641.7 650.2 658.3 664.5 677.7 691.1 706 718.7 732.9 747.5 764.2 776.8 787.9 796.9 802.8 806 806.8 806.4 804.8 803.7 802.8 803.1 807.2 812 818.2 817.3 810.9 803 793.1 777.2 757 747.5 740.3 732.4 726.7 721.3 714.3 708.8 705 702.2 703.2 705.5 710.9 719 728.2 739.1 748.4 759.4 770.3 774.1 775.4 773.8 769.9 763.4 764.4 768.6 776.5 786.7 798.8 810.3 821.9 833.1 842.6 852.7 863.6 871.9 880 885.2 890.8 895.9 900.9 904.8 906.9 905.6 901 878.7 827.6 778.7 758.7 716.9 686.5 661.1 639.6 616.9 603.3 595 591.4 586.1 577.3 563.4 558.3 550.1 542.7 536.7 536.7 549.7 561.3 575.4 587.8 601.4 619.6
836.8 840.6 844.3 848.2 849.9 846.8 838.2 828.7 817.3 807 797.4 789.6 782 774.1 762.8 751.7 739.7 726.4 717.2 723.9 728.4 733.4 744.4 754.5 758.8 760 753 745 730.9 740.1 745.8 744.8 742.1 735.2 721.8 709.3 703.1 692.8 679.8 670 666.2 663.3 656 651.1 648.7 641.4 624.7 599.1 577.1 551.1 533.8 512.9 493.7 474.2 453.4 442.9 439.2 436.9 436 436.7 448.9 472.2 490.5 506.5 525.7 548 564.7 575.1 576.9 571.8 548.5 532.6 518.8 507.9 494 482.2 470.9 461.9 452.7 447.3 443.5 443.9 453.6 464.3 476 483 501.5 520.3 533.3 539.8 542.4 543.5 557.8 566.3 575.8 596.1 615.1 632.8 645.3 655.1 664 672.6 680.5 689.6 699.3 709.1 717.8 730.2 750.5 764.9 776.1 786.7 794.9 801 805.3 806.9 807.7 807.9 807.4 808.1 810.2 813.4 817.7 820.4 819.1 815.6 807.9 796.6 775.6 759.5 751.6 743.7 737.8 734.1 725.8 718.5 712.7 709 704.4 708.5 710.5 715.9 724.7 738.5 746.8 753.5 767.3 779 783.7 784.5 780.2 772.6 766.7 766.2 767.4 773.3 786.9 798.3 811 822.5 832.4 843.8 854.8 865.7 873.2 880.2 887 893.2 898.7 903.9 907 909.1 909.1 905 886.9 855.8 816 785.5 742 706.8 675.1 646.2 622.7 604 593.6 591.6 588.5 578 567.2 559.2 553.6 550 543.5 537.7 547.6 557.2 571.3 584.4 607.5 615.8
836.3 841.6 847.2 851.8 852.8 847.4 838.8 829.6 818.9 808.5 800.2 792.8 785.6 778.2 768.6 755.3 740.9 728.5 716.1 710.2 711.6 715.8 725.2 732.8 738 741.7 741.9 734 720 715.2 719 723.8 720 712.5 698.8 688.4 680 670.9 658.7 651.2 646.6 644.1 641.1 640.7 638.3 629.2 608.4 582.1 559.8 538.8 521.3 504.6 482 463.4 448.6 442.2 438.5 436.3 437 442.4 455.8 477.7 495.8 512.1 532.6 555.7 573 583.9 586.1 582.6 564.2 544.3 529.2 520.8 507.9 493.9 482.7 472.1 460.5 452.5 446.4 445.6 452.8 460.3 472.7 488.8 507.4 530.9 551.7 567.5 575.2 575.1 574.8 583.7 596.5 611.6 631.7 646.6 658.7 671.4 679.8 689.8 693.2 700.6 707.6 716.1 725.1 735.3 752.6 766.5 776.6 784.9 792.7 799.4 805.2 807.9 809.3 810 810.8 812.8 815.6 818.1 819.1 820.7 820.6 818.1 808.6 794.3 777.7 766.6 756.7 749.8 745 740.9 728.5 723.1 717.2 714 709.1 712.5 713.4 720.2 731.2 744.6 750.7 760.1 777.5 790 794.4 791.2 785.9 774.4 770.4 770.3 774.8 775.2 788.7 800.3 810.1 822 832.6 844.3 855.8 867.5 875.4 882.1 889.7 896.6 901.9 906.2 909.3 911.7 911.5 908.2 898.8 882 840.7 816.9 770.8 731.8 694.4 658 632.8 608.6 594.4 591.3 590.1 580.3 568.5 561.1 554.6 549.6 544.6 542.9 545.4 554.5 569.6 587.6 600.6 604.7
835.9 843 849.2 853.9 853 845.8 837.6 827.1 817.1 808.5 800.8 794.4 787.6 780.1 771.8 761.7 748.1 734.2 720.5 704 697.2 697.9 702.7 707.7 714.7 720 721.9 716 706.5 686.9 691.5 697.7 694.4 685.1 671.4 667 656.5 645.3 636.9 635.4 631.8 629.5 629.3 629 625 615.2 588.4 567.1 546 528 508.7 489.4 472.6 455.3 445.2 442.7 436.7 437.1 437.5 446.7 468.4 484.9 501.7 517.4 541.3 564.2 580.5 592.1 596.6 593.5 576.3 558.6 544.9 535 523.3 509.7 495.7 481.2 469.5 459.8 447.3 446.9 451.1 457 467.7 486.5 507.1 533.5 557.5 580.6 593.9 603 605.9 611.9 620.2 632.3 647.8 660.3 680.1 693.8 697.4 703.7 705.5 712.4 716.4 726.1 736.5 752.1 761.5 769.6 777.3 784.4 793.4 800.1 805.9 809.1 811 812.7 814.3 817.3 820.4 820.9 820.5 820.9 820.3 814.7 802.4 787.2 779.4 771.8 764.3 758.3 752.4 745.3 733 725.8 719.8 717.4 714.1 717.3 718.1 724.8 737.2 750.9 760.8 770.5 790.6 802.4 804.5 798.4 789.7 780.2 773.5 777 781.3 783.5 788.1 800.1 809.7 820.4 832.1 843.6 856.9 869.3 878.2 885.1 892.5 900.1 904.8 909.5 912.4 913.9 913.6 910 903.3 890.1 866.3 837.3 803 756.7 709.1 679.5 648 615.1 604.1 596.8 592.6 582.2 573 567.3 558 550.9 550.5 558.1 545.9 552.9 559.3 575.8 586.9 591.6
835.6 843.3 850.2 854 851.3 842.6 833.7 822.5 812.7 806.1 800.4 793.7 787 779.6 772.6 766 758.5 747.6 730.8 716.4 700.8 685.4 678.6 681.8 690.9 696.4 697.8 693.5 684.8 674.7 664.6 671.7 670.1 657.1 648.1 645.7 639.4 627.3 625.7 623.1 620.9 618.5 616.7 613.4 609.4 598.8 577.2 553.6 535.9 514.5 495.5 478 459.2 448.4 438.6 438 436.8 437.6 441.8 454 475.4 490.2 506.2 523.4 547.3 569.5 586.3 599.7 607.2 605 591.5 575.1 565.1 552.2 539.2 522.9 507.6 492.5 477.3 461.9 453.6 447.6 448.8 454.7 462.8 479.7 499.8 527.9 558 587.2 611 623.1 630.3 636.3 641.1 651.9 664.4 679.7 700.4 710.6 712.2 715 720.7 724.7 737.7 746.3 753.7 760.1 766.5 772.8 780.9 789.7 797.6 803.4 808.1 811 812.9 814.6 817 819.4 821.3 821 820.5 819.3 816.1 804.6 792.8 786.8 780.9 774.6 770 766.3 759.8 751.6 737.9 725 720.2 718.6 719.3 718.8 724 730.3 747.2 760.9 770.8 790.7 805.7 814 811.9 807.1 794.2 788.5 787.5 785.3 787.9 790.2 792.8 798.5 810.7 821 832.3 843.9 856.1 870.9 880.7 888.2 895 902.6 907.6 911.8 915.1 917.4 916.4 912.5 906.6 895 879.7 854.2 812.8 771.8 734.3 711.1 668.5 636.4 616.4 599.5 595.8 584.8 579.3 570.9 567.7 561.2 554.2 552.4 551.5 551.8 557.3 563.9 571.6 575.4
836.9 844.2 850.6 852.1 847.1 837.3 827.1 815.6 807.8 802.6 795.8 790.3 782.8 776.8 771.8 766.1 760.7 754.4 744.2 730.2 716.7 702.9 686.7 668.7 662.8 672.6 675.5 671.1 661.8 653.5 641.1 648.8 644.6 634.3 633.4 628.6 624 614.3 612.1 611.5 607.8 605.2 602.9 601.2 596 587.5 560.8 543.9 523.9 502.9 484.4 464.7 447.3 439.1 438.2 437.9 437.4 442.6 451.2 468.1 483 496.5 512.5 532.6 554.3 574.2 591.6 605.3 614.9 618.3 607.5 600.2 585.7 571.2 556.1 535.7 518.4 504.9 495.8 472 459 449.5 449.6 454.4 461 474.8 494.5 525 555.6 588.2 621.2 644.9 652.1 657.9 666.6 672.3 682.8 699.4 714.9 718.9 721.1 729.6 732.2 744.6 749.7 756.2 761.3 765.4 770.7 778.1 786.6 795.1 801.5 806.5 810.1 812.3 814.1 815.4 816.8 817.9 818.4 818 817.3 815.2 804.1 796.2 790.2 785.6 780.6 777 773.3 769.7 763.3 756.2 743.8 725.2 721.4 722 722 723.3 727.6 740.8 754.7 771.5 782.4 800 811.5 819 816.5 812 801.4 794.5 794.8 791.6 795.2 799.1 803 804.5 813.4 820.2 831.8 843.9 856.5 870 881.1 890.6 896.9 904.4 909.3 914.1 918 919.9 919.9 915.5 908.2 899.3 886.9 864.1 829.3 804.8 772.2 731.3 686.8 650 625.2 604.6 596.8 590.6 582.4 576.1 574.7 553.3 552.2 551.6 555.2 553.5 565.2 557.9 570.7 566.4
837.7 844.7 849.7 848 841.7 830 819.3 809.9 801.6 795 788.3 782 775.3 770.5 766.7 760.5 755.8 751.3 746.3 738.7 728.1 712.9 695.1 676.7 654.8 646.7 648.5 645.9 639.6 633.7 628 627.1 620.7 620 615.3 612 605.1 605.1 601.4 600.5 598.3 594.8 593.1 590 585.9 572.9 553.5 533.5 508.1 491.5 471 454.2 439.3 439.1 438.1 438.2 438.6 443.4 459.7 475.4 491.1 503.6 518.6 539.6 558.6 577 594.8 609.2 622.2 629.3 627.3 619.8 603.2 593.5 573.5 554.1 536.9 524.9 505.7 486.8 466.6 455.4 450.4 455.6 460.7 470.9 490.5 519.4 550.9 584.8 618.9 648.1 667.8 680.2 688 693.8 704.8 716.4 725.6 731.5 739.8 744.9 750.2 752.4 756.9 761.6 764.7 769 776 783.1 791.6 800.5 805.5 809.2 811.9 813.3 814 814.7 815.1 815.2 814.7 814.4 811.8 804.6 794.9 792.1 788 783.4 780.6 778.8 775.2 772 766 758.3 748.9 730.6 723.3 725.1 724.5 724.4 736.5 752.3 761.3 778.9 791.2 804.4 813.2 819.1 818.7 815.6 808.4 806.9 803.4 802.1 803.3 808.7 813.2 815.8 819.6 831.8 838.6 847 856 870.7 881.4 890.5 897.8 905.3 911.9 917 920.8 922.5 922.8 919.2 912.3 902.1 888.6 870.8 851.9 834.1 787.6 746.2 708 661 631.1 610.2 599.6 593.1 585.9 582 576.4 555.9 553.7 555.7 558.4 564.5 565.7 560.9 563 573.6
837.9 844.3 845 841 832.7 821.6 811.9 801 790.6 781.6 776.6 769.9 763.9 759.4 755.3 748.9 742 737.9 735.5 732.1 724.6 711.2 696.5 675.6 656.5 639.7 624.7 620.9 620.4 618.3 613.2 608.8 607.4 603.8 600.5 597.8 597.2 593.9 592.8 592 589.4 586.6 583.9 580.9 576.8 565.4 544.5 521.6 498.3 476 456.1 442 440.2 439 438.5 439.3 443.7 448 465.5 484 497.4 509.4 527 543.7 562.2 579.6 596.5 613.1 628.2 639.5 643.4 639.4 628.5 612.2 598.1 579.6 558.3 538 518.3 495.5 474.4 460.3 450.6 453 460.4 469.3 488.3 517.4 547.9 576.7 611.3 645.5 672.2 690 701.3 711.1 717.7 726 737.3 742.1 746.8 751.3 754 756.1 760 763.9 766.9 773.2 779.7 786.3 794.7 803.5 807.3 810.8 812 812.5 813.1 812.9 812.5 812.1 811.5 807.8 797.5 793.4 790.1 787.6 784.4 780.2 778.5 777.6 775.1 772 766.3 759.1 748.9 739 735.1 731.1 725.8 733 747.5 761.5 773.2 784 793.7 804.8 813.7 818.9 818.9 814.5 811.1 813.5 814 813.2 813.4 819.2 824.7 828.2 828 841.4 849 857.3 863.6 874.4 883.1 890.9 899.2 906.9 914.1 919.6 923.6 926.3 925.9 923.1 916.3 905.3 892.2 875.9 858.6 822.2 784.7 748.8 710.8 666.1 636.6 616.7 606.4 597.8 593.6 588.8 578.6 556.7 560.4 560.2 565.7 571.1 564.6 565.2 563.3 585.6
838.8 842.1 838.8 832.6 824.5 812.1 800.7 789.7 777.6 769.8 761 755.1 749.5 743.5 738.7 732 723.6 719.5 717.7 714.2 710.5 700.2 681.9 662.8 647.9 636.4 625.4 613.6 604 603.9 600.7 594.2 593.2 591.7 588.4 589 587.2 584.5 583.2 581.9 580.6 578 576.8 573.1 568.8 560.8 539.9 517.2 488.9 467.2 448.9 440.4 440.1 439.4 440.1 444.3 448.7 458.1 474.5 489.7 503.4 516.2 532.2 548.7 566.4 583.4 600.7 618.7 634.3 648.6 658 656.8 646.5 630.7 614.8 598.1 574.4 548.4 526.1 501.8 482.3 463.8 452 453.9 459 467 485.8 510.7 539.4 568.6 606.5 642.3 676.9 695.9 710.4 720.7 728 733.5 738.9 743.7 748 751.2 754 756.9 761 765.7 770.1 775 782.1 788.1 797.4 803.7 806.7 809.2 811.1 811.3 811.4 810.2 809.1 806.1 800.1 790.1 788.2 786.2 784.4 782.8 780.5 777.4 775.8 774.7 773 768 763.1 754.7 748.2 747.4 743.6 736.9 735.1 743.6 759.6 771 782.6 792.6 796.1 806.4 813.1 816.8 816.6 817.5 818.3 822.1 823 823.9 825.4 830 834.7 841.3 842.9 847.2 857.2 865.6 874.8 883.1 888.1 893.8 902.1 910.6 916.9 922.9 926.6 929 928.3 925.1 919.3 906.7 891.9 876.7 857.2 819.2 777 737.5 703.5 669.2 643.4 624 613.5 604.1 598.5 596 573.6 559.6 560.8 562.3 562.9 571 569 569.2 566 571.5
839 838.2 832.7 823 810 797.7 786.7 775.6 766 755.1 746.5 738.8 732.3 725.5 718.1 712.1 705.6 699.3 696 694.4 686.1 675.8 658.8 648.1 639.2 629.2 620.2 609.5 598.3 588.7 588.6 583.5 583.3 580.1 577.9 578.2 576.7 577 576 574.3 573.4 572.5 571 567.8 559.2 547.7 527.4 500.7 475.8 456.9 441.4 441.5 440.7 440.8 441.3 447.8 457.8 471.5 481.9 496.4 508.9 524.6 538.3 554 569.1 586.8 604.8 624.9 642.9 661.4 671.1 669.4 655.5 640 623.7 604.6 579.1 553 529.1 507.1 487.3 465.9 453.5 455.5 459.6 466.1 483.1 508.3 538 570 606.3 643.2 677.1 698.4 716.7 727.8 731.8 734.6 738.7 742.8 745.2 747.7 751.7 755.8 759.7 766.3 770.9 775.9 782.6 789.2 796.3 801.2 804.1 805.9 807.1 806.8 806.2 802.3 799.7 789.2 782.1 781.3 781.4 780.4 779 777.3 775.1 773.2 771.5 771 767.7 764 757.8 749.8 749.1 750.4 748.4 748.2 750.5 759.1 771.3 782.3 792.7 801.3 806.3 806.8 810.1 812.5 816.6 821.1 825 828.7 831.3 833.3 835.7 839.1 848.5 853.2 855.8 856.2 866.5 875.6 882.3 891.5 895.6 898.9 905 914.4 921.9 926.5 929.4 930.1 929.4 925.5 918.2 907.6 889.1 872.3 844.7 814.3 772.2 734.9 701 672 648.8 632.9 615 610.7 605.1 595.5 574.6 570 566.2 566.5 563 569.1 576.7 574.7 571.3 571.9
836.7 833.6 826.9 815 799.6 785 772.7 761.5 752.3 742 733.4 723.9 715.9 708.5 701.7 692.5 686.8 683.8 676.7 671.5 663.8 655.6 646.7 638 630.1 619.8 610.1 599.5 591.9 586.1 576.7 573.7 572.6 569.9 569.6 567.8 568 567.5 565.2 565.6 568.7 569.2 568.2 562.9 551.2 535.9 512.4 490.3 470.2 451.7 442.6 442.5 441.8 441.8 448.3 453 467.7 478.7 489.2 503.2 516.5 530.8 545 558.5 575.9 593 613.2 634 654.9 671.7 678.3 669.3 653.5 637 617.4 595.5 573.6 551.7 527.4 509.6 490.8 471.8 456.6 454.9 458.6 464.7 479.5 504.3 535.2 570.8 603.8 643.4 676.7 702.7 720.9 729.7 732.6 735.4 738.3 739.3 740.7 743.3 747.7 753 758.2 765 769.9 775.7 782.8 788.9 793.4 796.7 799 800.7 800.8 800.2 797.2 788.9 779.9 773.2 773.5 774 774.4 773.6 772.7 770.3 769.1 767.1 765.9 764.5 761.6 757.9 753.2 748.7 753.3 753.3 754 756.2 759.7 769.9 780.7 792 800.1 808.1 812.3 813.2 810.8 812.6 818.5 824.5 830.7 835.1 839.7 843.7 846.3 852.7 859.5 865 867.4 865.3 874.6 884.6 894.2 903.8 905.1 908.6 915.2 920 925.1 929.2 931.3 931.6 929.5 923.6 916 901.2 881.1 858.7 832.4 806.3 770.2 729.6 696.4 672.2 651.7 633.3 617.9 611.8 609.8 594.8 590 580 575.7 576.3 580.1 578.8 580.9 581.8 575.2 588.6
831.6 826.7 817.6 802.5 785.6 771.1 759.3 750.6 740.3 730 718.7 708.6 702.7 695.3 686.8 682 677.5 668.7 659.3 652 644.2 639 632.3 623.6 612.9 603.7 596.3 589.4 582.5 576.4 569.9 564.9 563.4 565.3 563.1 562.7 560.1 558.5 556.3 556.1 559 563.6 562 552.8 539.1 520.5 500.3 482.8 466.6 448.6 442.8 443.2 442.9 442.8 450.5 461.1 473.5 484.7 497.2 511.8 523.5 536.2 549.8 566.1 581.8 602.4 625.2 648 667.6 677.9 682.4 670.8 652.1 633.8 612.5 590.3 568.9 551 527.9 510 492.9 473.2 457.2 456.7 457.9 464.4 477.9 503.6 536.7 572.9 606.9 644.4 676 703.4 725.8 729.9 731.6 734.6 733.2 731.5 734.8 739.4 743.7 749.2 755.2 762.3 768.3 774.1 780.8 786.3 788.4 790.8 792.6 792.7 791.4 789.5 784.2 775.9 768.9 765.5 764.8 765.1 765.9 765.7 764.7 764.3 763.1 761.4 759.7 756.7 753.3 750 747.3 749.7 754.3 756.8 758.8 762.6 769 780.5 792.2 800 806.8 813.3 817 818.1 816.4 815.4 818.3 830.4 838 846 850.6 855.1 859.7 866 871.8 875.4 877.2 877.8 884.2 894.7 904.1 910.9 916.8 920.5 923.2 926.7 929.9 932.1 933.7 932 929.4 922.5 907.1 889.3 868.5 845.2 817.6 791.9 759 719.3 693.3 672.2 651.9 633.7 622.3 611.7 609.7 600.7 603.7 598.5 585.2 585.4 597.3 601.3 601.7 587.6 584.6 593.9
826.2 817.7 806.4 788.7 773.2 760.6 750.8 739.7 728.3 719.2 710.8 699.9 691.8 684.6 676.2 670.9 663.7 652.2 643.4 637.1 629.4 622.9 611 605.2 600.9 592.9 586.4 577.9 573.2 569.3 564.1 558.8 557.5 556 555.4 554.1 552.7 550 548.6 548.4 548.6 550.4 548.3 539.1 523.1 508.7 488.6 476.1 454.6 444 444.4 444.2 444 449.6 455.8 470.4 480.8 493.8 506.4 518.1 530.3 542.1 555.2 572.5 594.9 617.8 640 659.3 677.5 689.2 688.9 675.3 654.2 634.5 612.9 593.7 568.6 551.2 531.5 514.6 496 474.1 462.1 458.6 458.4 464.9 475.7 500.7 534.1 571.6 605.7 638 670.9 704.3 722.4 725.2 727 725.3 721.5 723.8 728.5 733.3 738.8 744.8 750.8 758.4 764.3 770.8 775.2 778.6 780.2 779.9 779 779.5 779.5 774.3 768.7 761 757.9 755.7 754.3 754.8 755 756.3 758.1 757.4 756.3 754.5 750.2 746.5 743.2 742.6 745.1 749.3 752.4 756.2 761 766.4 775.3 787.4 796.7 801.3 811.2 817.2 822.3 822.5 820.5 822.8 831.1 841.6 850.8 858 866.1 869.3 873.4 878.1 882.5 885.8 889.3 890.5 893.2 903.4 909.5 918.3 924 929.6 929.9 931.4 933.5 934.7 934.3 931.8 926.5 916.2 893 873.2 854 829.8 805.2 779.4 748.1 713.4 689.7 666.6 648.3 630.9 618.3 612.3 610.8 618.7 621.2 617.4 615.3 608.6 611.2 623 622.6 605.8 598.7 604.2
820.7 809.4 794.4 778.7 765.4 752.6 738.7 727.8 719.2 710.1 702.6 693.1 684.7 675.8 669.2 661.7 651.7 646.2 642.5 637 628.8 621.1 613.5 606.3 600 593.3 585.6 577.9 570.2 563.1 560.5 556.9 550.1 543.4 540 539.2 539.9 539.2 538.9 538.1 536.4 537.4 533.9 525.2 512.2 494.3 477.7 461.9 446.4 445 445.3 445.3 447.8 456.5 465 479.9 488.8 502.5 514.4 525.5 536.9 549.4 563.9 584.6 609.9 634.2 654 673.5 692.4 702.3 700.9 683 660.5 639.8 616.9 596.9 572.8 554.2 533 516.6 497.7 478.9 464.3 459.2 459.7 464.4 474.2 500.5 529.9 566.7 598 634.2 670 703.7 716.3 716.4 715.4 708.8 707.9 712.1 719.6 727.2 732.8 738.5 744.5 750.4 757.2 765.5 769.5 768.6 768.9 768 767.2 768.2 769.1 766.3 758 751.1 750.1 747.9 745.4 745.8 747.2 750.1 752.4 751.4 747.2 744.2 740.3 734.8 733.7 735.5 740.6 745.2 748.1 753.7 757.8 763.6 776.6 790.7 798.6 801.7 811.6 821 826 827.1 827.4 834.2 844.2 855 862.3 873.6 884.2 887.4 890 892.5 897.6 903.7 904.1 903.3 901.3 909 918.2 926 930.5 934.8 934.9 936 936.9 937 934.8 928.3 905.4 893.8 876.5 856.4 837.6 814 792.6 765.7 735.8 705.5 686.1 663.6 645.7 629.3 621.9 614.8 615.6 622 625.1 639 651.2 646.5 644 645.9 642.8 638.6 622.7 617.4
