ncols 200
nrows 86
xllcorner 210000
yllcorner 92350
cellsize 50
-2.1 -2.1 -2.1 -2.1 -2.1 -2.1 -2.1 -2.1 -2.1 -2.1 -2.1 -2.1 -2.1 -2.1 -2.1 -2.1 -2.1 -2.1 -2.1 -2.1 -2.1 -2.1 -2.1 -2.1 -2.1 -2.1 -2.1 -2.1 -2.1 -2.1 -2.1 -2.1 -2.1 -2.1 -2.1 -2.1 -2.1 -2.1 -2.1 -2.1 -2.1 -2.1 -2.1 -2.1 -2.1 -2.1 -2.1 -2.1 -2.1 -2.1 -2.1 -2.1 -2.1 -2.1 -2.1 -2.1 -2.1 56.4 59.1 33 29.8 24.9 32.3 32.8 39.3 41.4 22.2 2.1 0.4 -0.3 -0.7 -0.7 -1 -1.1 -0.7 0.5 1.3 2.2 8.6 30.4 59.3 60.9 49.6 29.3 18.9 17.1 29.1 42.1 37.4 30.2 20.9 17.7 16.8 16.1 17.1 18.8 21.9 22.2 22.4 24.3 26.1 27.5 39 52.3 62.2 69.9 78.8 86.8 89.2 89.6 85.1 84.4 105.2 115.3 119.7 121.6 122.6 123.4 123.5 123.3 120 117.8 121 122.4 125.1 126.1 128.2 131.1 133.3 134.2 135.8 137.4 138.2 138.3 139.5 141.9 144.5 147 149.1 150.2 151.9 153 153.6 153.8 155.8 158.4 159.9 160.4 161.5 162.4 163.1 162.7 161.9 159.3 155.1 150.3 146 141.6 137.1 131.6 117.2 101.6 113.5 129.7 139.6 145.5 149.9 150.3 149.1 147.1 141.9 139.9 140.2 138.6 134.6 131.5 138.4 140.4 140.5 140.6 139.7 136.8 133 128.9 127.2 128.8 130.7 130.2 131.4 131.3 129.9 127.3 125.9 123.5 120.7 116.9 111.5 105.5 106.9 109
-2.1 -2.1 -2.1 -2.1 -2.1 -2.1 -2.1 -2.1 -2.1 -2.1 -2.1 -2.1 -2.1 -2.1 -2.1 -2.1 -2.1 -2.1 -2.1 -2.1 -2.1 -2.1 -2.1 -2.1 -2.1 -2.1 -2.1 -2.1 -2.1 -2.1 -2.1 -2.1 -2.1 -2.1 -2.1 -2.1 -2.1 -2.1 -2.1 -2.1 -2.1 -2.1 -2.1 -2.1 -2.1 -2.1 -2.1 -2.1 -2.1 -2.1 -2.1 -2.1 -2.1 -2.1 -2.1 -2.1 -2.1 -2.1 -2.1 22 64.5 69.1 71.3 74.2 79.1 58.9 36.7 28.4 4 1.9 1.1 0.9 0.6 0.5 0.6 1.4 2.6 19.7 43.4 53.4 61.9 63.7 53.2 32.8 20.7 18.4 27.5 46.7 51.7 51.5 45.5 40 33.8 25.4 20 17.5 20.1 23.3 26.7 25.2 22.5 25.3 25.6 29.3 37.4 47.4 57.1 62.5 65.9 62.4 74.1 90 103.9 112.5 118.3 121.9 123.2 123.9 123.5 120.1 114.1 111.7 112.1 112.3 115.7 119.5 123.9 129 130.9 133 134.6 134.7 135.5 134.2 134.2 138.2 143.3 145.5 149.7 152.9 154.6 155.9 156.4 156.6 157.7 160.1 161.1 162.4 162.7 163.5 164.2 164.2 163.3 161.7 158.8 153.8 148.9 143.6 138.8 132.5 116.6 106.2 107.6 124 137.7 145.6 150.9 152.7 153.9 151.1 148.8 145.7 144.1 141.7 139.4 134 143 145.6 146.8 147.1 145.9 142.5 138 135 134.8 133.5 134.3 135.2 135.8 134.8 133.2 130.5 128 124.6 120.5 115.5 110.6 105.1 100.7 101.5
-2.1 -2.1 -2.1 -2.1 -2.1 -2.1 -2.1 -2.1 -2.1 -2.1 -2.1 -2.1 -2.1 -2.1 -2.1 -2.1 -2.1 -2.1 -2.1 -2.1 -2.1 -2.1 -2.1 -2.1 -2.1 -2.1 -2.1 -2.1 -2.1 -2.1 -2.1 -2.1 -2.1 -2.1 -2.1 -2.1 -2.1 -2.1 -2.1 -2.1 -2.1 -2.1 -2.1 -2.1 -2.1 -2.1 -2.1 -2.1 -2.1 -2.1 -2.1 -2.1 -2.1 -2.1 -2.1 -2.1 -2.1 -2.1 -2.1 1.4 2.7 53 97.6 91.8 80.5 64 41 36.8 50.4 36.8 3.5 2.5 2.2 2.1 2 2.5 23.8 57.4 62.4 63.8 59.5 47.7 39 30.5 22.8 20.8 25.7 30.6 51.6 56.7 54.8 51.8 49.6 44.3 38.4 32.4 34.5 36.8 38.8 40.2 35.9 30.9 28.6 27.9 28.4 32.9 39.2 43.4 51.6 66.1 81.7 96.8 103.3 109.8 114.7 118.9 121.4 122.2 121.6 117.9 111.3 101.8 100 102.5 106.2 110.3 114.3 117.7 121.4 125.1 126.9 128.1 127.1 121.6 126.1 132.4 140 146.1 150.8 154.9 157.6 158.6 159.2 159.4 159.8 161.1 162.3 163.6 164 164.5 164.5 163.9 163.3 161.5 159 154.9 149.9 143.7 138.2 127.8 112.6 115.5 107 116.9 131.4 143.6 149.6 153.8 154.6 154.9 152.9 150 147.5 144.3 143.8 138.9 146.7 150.4 151.6 152.6 151.6 148.8 144.9 144 142.8 141 139.7 140.1 139.5 139.1 137 133.5 127.3 122.3 116.4 110.8 105.7 102.7 99.5 98.2
-2.1 -2.1 -2.1 -2.1 -2.1 -2.1 -2.1 -2.1 -2.1 -2.1 -2.1 -2.1 -2.1 -2.1 -2.1 -2.1 -2.1 -2.1 -2.1 -2.1 -2.1 -2.1 -2.1 -2.1 -2.1 -2.1 -2.1 -2.1 -2.1 -2.1 -2.1 -2.1 -2.1 -2.1 -2.1 -2.1 -2.1 -2.1 -2.1 -2.1 -2.1 -2.1 -2.1 -2.1 -2.1 -2.1 -2.1 -2.1 -2.1 -2.1 -2.1 -2.1 -2.1 -2.1 -2.1 -2.1 -2.1 -2.1 -2.1 -2.1 1.9 16.5 62.6 82.6 71.8 56.3 42.9 52.8 58.9 56.2 40.8 37.9 37.6 27.7 28.9 36.4 48.2 63.6 67.1 67 60.3 52.3 48.9 39.4 26.1 23.3 23.5 39.2 56.3 63.8 64.2 62.3 60 57.4 55.3 53 50.4 51.5 50.1 51.7 49.8 45.9 37.7 33.1 28.7 29.6 33.2 35.9 43.1 61.5 81.9 93.4 100 104.9 108.8 112.2 116 119 118.2 113.6 106 94.7 89.3 92.3 94.1 97.9 100.3 102.3 104.5 109.6 114 117.8 117.5 110.6 120.9 129.7 138.1 144.7 150 155.1 158.9 161.1 161.1 161 161.1 162.6 163.2 164.3 164.9 164.2 164.1 163.6 162.9 161.4 157.1 151.4 147.3 142.1 135.5 123 124.8 123.7 115.3 110.1 124.5 138 146.7 152.8 155.8 156.8 155.8 154.8 150.7 149.3 144.5 141.6 148.7 152.9 155.4 156.4 156 154.4 151.7 150.4 149 146.5 147.3 147.1 145.7 142.7 140.7 136.5 130.2 124.7 119.3 115.1 110.6 104.3 101.7 103.9
-2.1 -2.1 -2.1 -2.1 -2.1 -2.1 -2.1 -2.1 -2.1 -2.1 -2.1 -2.1 -2.1 -2.1 -2.1 -2.1 -2.1 -2.1 -2.1 -2.1 -2.1 -2.1 -2.1 -2.1 -2.1 -2.1 -2.1 -2.1 -2.1 -2.1 -2.1 -2.1 -2.1 -2.1 -2.1 -2.1 -2.1 -2.1 -2.1 -2.1 -2.1 -2.1 -2.1 -2.1 -2.1 -2.1 -2.1 -2.1 -2.1 -2.1 -2.1 -2.1 -2.1 -2.1 -2.1 -2.1 -2.1 -2.1 -2.1 -2.1 0.5 2.7 17.6 72.3 66.4 62.6 53.3 64.3 66.2 61.9 55.3 45.4 45.3 50.4 47.6 53.6 66.9 74.6 75.4 74.6 73.8 70.5 64.4 57.1 34.7 24.4 25.2 43.6 59.7 69.3 73.5 74.1 71.1 69.3 69.4 68 67.5 64.4 63.4 62.5 61.3 59.7 55.3 46.8 37.6 33.1 30.9 32.9 34.4 42.7 62.5 79.8 90.5 96.2 100 107.4 113.5 117.1 117 112.7 104.8 94.6 79.4 81.6 81.3 81.6 81.2 83.5 86.8 91 96.8 101.6 99.6 105.7 119.6 127.7 135.8 142.8 148.8 154.2 158 160.2 161.1 160.7 160.2 161.2 162.3 162.9 164.8 164.1 163.1 161.8 161.4 160.6 157.1 151.6 145.8 134.7 129.3 126.4 130.4 128.5 122.5 113.5 116.1 130.9 142.3 150.5 155.2 157.7 157.5 156.5 155.5 153 146.8 144.1 151.7 156.1 158.6 159.7 159.9 158.6 157.6 157.6 154.5 153.2 153.4 152.9 151.7 149.8 146.4 141.9 136 129.8 124.1 117.8 110.7 107.3 106.3 108.9
-2.1 -2.1 -2.1 -2.1 -2.1 -2.1 -2.1 -2.1 -2.1 -2.1 -2.1 -2.1 -2.1 -2.1 -2.1 -2.1 -2.1 -2.1 -2.1 -2.1 -2.1 -2.1 -2.1 -2.1 -2.1 -2.1 -2.1 -2.1 -2.1 -2.1 -2.1 -2.1 -2.1 -2.1 -2.1 -2.1 -2.1 -2.1 -2.1 -2.1 -2.1 -2.1 -2.1 -2.1 -2.1 -2.1 -2.1 -2.1 -2.1 -2.1 -2.1 -2.1 -2.1 -2.1 -2.1 -2.1 -2.1 -2.1 -2.1 1.3 1.9 8.1 42.8 78.4 78.3 70.9 61.2 72 73 70.3 65.1 54.9 54.4 61 58.5 57.3 71.5 82.1 85.8 85.6 87.5 90.7 89.3 70.6 45.8 26.3 27.3 48 64 73 79 81 80.9 80.5 81.5 80.7 78.3 77.3 75.9 74.6 72 67.9 65.1 60.8 52.2 43.4 37.9 35.5 33 34.1 36.1 54.7 67.9 77.2 89 101.6 111.8 118.3 119.3 115.4 105.3 90 72.3 69.3 68.8 71.5 73.8 74.6 75 76.2 78.6 85.5 86.5 96.7 106.4 118.9 129 137.1 143.9 150.1 155.2 158.3 160.2 159.5 158.8 159.3 161 161.8 162 161.5 160 159.4 158.8 158.7 157.5 154.4 148.9 143.9 139.5 134.6 134.2 133 128 120.5 113.7 124.2 135.9 145.1 152.2 157.3 158.8 158.6 157.9 156.4 153 147.3 154.4 157.5 160.6 161.8 162.2 162.3 161.4 160.3 158.5 157.3 156.6 155.8 154.5 152.9 150.4 147.4 142.5 136.1 128.5 121.4 113.3 109.8 110.2 112.4
-2.1 -2.1 -2.1 -2.1 -2.1 -2.1 -2.1 -2.1 -2.1 -2.1 -2.1 -2.1 -2.1 -2.1 -2.1 -2.1 -2.1 -2.1 -2.1 -2.1 -2.1 -2.1 -2.1 -2.1 -2.1 -2.1 -2.1 -2.1 -2.1 -2.1 -2.1 -2.1 -2.1 -2.1 -2.1 -2.1 -2.1 -2.1 -2.1 -2.1 -2.1 -2.1 -2.1 -2.1 -2.1 -2.1 -2.1 -2.1 -2.1 -2.1 -2.1 -2.1 -2.1 -2.1 -2.1 -2.1 -2.1 -2.1 -2.1 2.6 15.7 37.9 60.3 78 88.8 84.7 74.8 81.9 81.3 79.7 74.3 55.7 68.9 72.4 71.6 69.2 76.2 87.1 94.3 96.6 99.4 100.9 100.8 79.9 54.1 28.2 28.6 52 67.3 76.3 80.2 81.9 83.5 85.6 87.9 89.8 89.4 89.4 86 83.9 82.1 78.3 75.5 70.1 61.8 54.5 51.6 47.5 40.6 40 35.5 38 41.9 53.5 70.2 86 97.4 107.1 115.5 112.8 99.5 82.5 67.8 70.7 76.3 79.8 81.2 82 82.8 82.4 83.6 84.4 82.4 82.3 87.5 100.6 116.3 128.1 136.7 144.1 149.5 154.1 157.2 157.4 153.6 151.9 155.6 157.2 158.4 158 156.4 155.3 156 157.4 157.7 156.2 153 149 145.2 139.5 139.7 138.9 134.1 126.9 116.5 120.7 131.9 141.3 147.8 154.3 157.8 159.7 159.9 159.2 156.7 152.1 155.8 159.6 162.4 164 164.3 164.2 163.5 162.4 160.7 158.5 156.5 154.7 154.4 153.9 152.5 149.9 146.1 140.4 132.9 125 118.8 113.5 112.9 116.1
-2.1 -2.1 -2.1 -2.1 -2.1 -2.1 -2.1 -2.1 -2.1 -2.1 -2.1 -2.1 -2.1 -2.1 -2.1 -2.1 -2.1 -2.1 -2.1 -2.1 -2.1 -2.1 -2.1 -2.1 -2.1 -2.1 -2.1 -2.1 -2.1 -2.1 -2.1 -2.1 -2.1 -2.1 -2.1 -2.1 -2.1 -2.1 -2.1 -2.1 -2.1 -2.1 -2.1 -2.1 -2.1 -2.1 -2.1 -2.1 -2.1 -2.1 -2.1 -2.1 -2.1 -2.1 -2.1 -2.1 -2.1 -2.1 -2.1 4.7 33.8 56.6 69.5 88.6 97.4 93.2 87.3 90.4 90.5 88.2 80.7 71.8 79 82.7 84.3 83.6 84.7 94.5 102.6 104.6 109.2 110.9 109.3 89.1 62.6 34.1 31.4 46.1 59.9 67 73.9 74.7 79.1 85.1 91.3 93.2 96.7 96.2 94.7 94.5 92.4 91 89.4 85.7 81.3 74.4 67.4 60.6 56.6 50.9 48.2 43.4 40.3 40.8 50.6 67.9 84.5 99.3 106.4 104.8 88.8 67.4 66.4 83 89.9 89.5 90.5 92.1 96.5 98.3 94.8 92.5 91.2 88.5 86.3 89.4 106.1 121.2 130.4 138.1 144.6 149.9 153.5 153.7 149.3 143.3 149.4 150.2 150 150.3 149.2 147.9 152.3 155.9 158 159 157.1 153.2 148.9 145.1 145.3 143.6 140.7 135.1 121.2 119.4 129.4 139 146.7 152.4 157.2 160.3 161.8 162.4 161.7 160.2 158.6 162.2 164.1 165.7 166.1 165.3 163.1 161 158.7 155.9 153.9 152.3 151.5 151.6 150.5 150 147.8 143.5 136.7 128.8 123.6 118.7 117.8 119.4
-2.1 -2.1 -2.1 -2.1 -2.1 -2.1 -2.1 -2.1 -2.1 -2.1 -2.1 -2.1 -2.1 -2.1 -2.1 -2.1 -2.1 -2.1 -2.1 -2.1 -2.1 -2.1 -2.1 -2.1 -2.1 -2.1 -2.1 -2.1 -2.1 -2.1 -2.1 -2.1 -2.1 -2.1 -2.1 -2.1 -2.1 -2.1 -2.1 -2.1 -2.1 -2.1 -2.1 -2.1 -2.1 -2.1 -2.1 -2.1 -2.1 -2.1 -2.1 -2.1 -2.1 -2.1 -2.1 -2.1 -2.1 -2.1 -2.1 2.3 13.1 55.5 80.1 96.9 97.5 101.4 99.4 98.7 99.4 95.6 87.7 85.1 90.5 94.3 95.7 93.7 93.6 101.5 107.5 111.7 115.3 118 114.4 98 68.5 41.4 33.7 37.1 42.8 49.2 53.8 59.7 64.5 73.4 85.2 94.3 98.9 101.2 101.9 102.5 100.9 98.4 96.8 93.4 91.9 87.8 84.5 77.9 72.1 68.2 65 64.1 56.4 44.8 42.5 51.6 68.4 81.9 89 86.7 73.9 59.9 75.3 94.3 105.5 105.4 102.9 106.4 108.7 108.3 107.3 105.4 104 101.2 95.9 87.2 94.5 110.2 122.4 130.5 138.3 145.2 148.8 148 143.4 135 141.3 140 138 137.8 138.3 144.2 152.7 155.5 158.5 160.6 160.4 158.4 154.8 153 151.5 150 145.6 140.8 121.1 121.9 130.7 137.1 143.4 149.2 154.7 160 163 164.8 164.8 163.9 162.2 163.8 165.5 165.7 165.4 163.5 159.9 156.5 153.7 151.3 149.2 147.7 147.9 147.7 147.5 147.5 147.5 145.2 138.5 132.8 127.6 123.9 122.7 123.9
-2.1 -2.1 -2.1 -2.1 -2.1 -2.1 -2.1 -2.1 -2.1 -2.1 -2.1 -2.1 -2.1 -2.1 -2.1 -2.1 -2.1 -2.1 -2.1 -2.1 -2.1 -2.1 -2.1 -2.1 -2.1 -2.1 -2.1 -2.1 -2.1 -2.1 -2.1 -2.1 -2.1 -2.1 -2.1 -2.1 -2.1 -2.1 -2.1 -2.1 -2.1 -2.1 -2.1 -2.1 -2.1 -2.1 -2.1 -2.1 -2.1 -2.1 -2.1 -2.1 -2.1 -2.1 -2.1 -2.1 -2.1 -2.1 -2.1 1.7 19.6 57.8 88.6 102.2 105.5 108.2 108.3 107.2 105.5 102.7 97.2 98.5 101.4 103.1 103.9 103.5 103.3 106.5 111.1 115.5 119.2 123 119.9 99 69.6 44.2 37.7 46.7 57.3 63.1 64.8 60.4 53.9 60.7 76.9 93.7 100.2 104.3 107.2 108.5 108.2 106.5 103.3 102.5 99.5 96.6 94.7 91.4 86.3 79.2 77.8 76.5 75.3 61.3 45.4 43.6 51.3 63.1 67.9 67.3 57 68 83.4 103.9 110.6 112 113.4 114.4 116 116.1 114.2 113.7 113.7 111.9 106.6 95.2 90.5 107 117 123 131.4 137.8 140.9 139.8 133.7 127.4 130.5 130.3 128.3 129.7 136 146.2 152 155.6 159 160.8 162 161.8 160 158.7 156.5 153.6 147.2 134 121 121.5 129.3 139 145.1 150.9 156.7 161.2 164.6 167 167.8 167.2 166 165.5 166.2 165.9 164.9 161 155.8 151.2 145.4 144.3 142.9 142.2 142.6 143.2 143.9 144.3 144.7 144.5 140 136.6 132 128.9 127.4 126.8
-2.1 -2.1 -2.1 -2.1 -2.1 -2.1 -2.1 -2.1 -2.1 -2.1 -2.1 -2.1 -2.1 -2.1 -2.1 -2.1 -2.1 -2.1 -2.1 -2.1 -2.1 -2.1 -2.1 -2.1 -2.1 -2.1 -2.1 -2.1 -2.1 -2.1 -2.1 -2.1 -2.1 -2.1 -2.1 -2.1 -2.1 -2.1 -2.1 -2.1 -2.1 -2.1 -2.1 -2.1 -2.1 -2.1 -2.1 -2.1 -2.1 -2.1 -2.1 -2.1 -2.1 -2.1 -2.1 -2.1 -2.1 -2.1 -2.1 1 3.2 77 99 109 110.3 115.9 115.8 114.3 112.3 108.8 105.6 105.2 107.1 108.9 109.8 110.4 110.7 111.4 114.2 117.5 120.5 120.9 113.4 89 64.5 43.7 46.8 64 76.4 82.9 84.6 81.9 68.9 52 68.9 91.1 100.5 105.9 110.2 112.4 113.8 114.1 112.7 110 107.7 105 103.3 100.6 96.6 91 87.6 87.4 86.7 82.7 63.9 46.5 45.3 49.3 52.5 52.9 67.4 82.5 98.6 110.5 113.7 115.6 116.9 118.1 120.9 123 121.1 119.9 118.6 117.3 112.7 102.7 93.6 95.7 106.5 114.4 122.4 126.9 130.7 130.4 124.8 116.2 117.4 119.3 123 130.1 137.9 144.7 150.7 155.3 159.4 161.6 162.9 163.6 163.3 161.2 155.4 148.5 139 127 124.6 129.4 128.7 134.3 142.6 149.9 156.3 162.1 166.2 168.6 170.1 170 169.1 168.2 167.8 167 165.1 160.7 155.6 151.2 146.8 140.7 135 133.3 133.5 136.7 138.7 140.7 141.8 141.2 140.1 137.6 133.1 130.5 128.6 127.5
-2.1 -2.1 -2.1 -2.1 -2.1 -2.1 -2.1 -2.1 -2.1 -2.1 -2.1 -2.1 -2.1 -2.1 -2.1 -2.1 -2.1 -2.1 -2.1 -2.1 -2.1 -2.1 -2.1 -2.1 -2.1 -2.1 -2.1 -2.1 -2.1 -2.1 -2.1 -2.1 -2.1 -2.1 -2.1 -2.1 -2.1 -2.1 -2.1 -2.1 -2.1 -2.1 -2.1 -2.1 -2.1 -2.1 -2.1 -2.1 -2.1 -2.1 -2.1 -2.1 -2.1 -2.1 -2.1 -2.1 -2.1 -2.1 -2.1 0.6 24.8 108.8 116.4 120.8 121.8 122.5 121.4 119.1 116.5 112.6 109.6 109.8 111 112.8 114.2 115 115.1 115.5 117.3 119.3 120.4 118 103.4 80.1 59.5 44.4 60.8 78.3 91.7 96.5 97.5 97.6 88.1 72 62.1 81.3 98 107.4 113.7 116.9 118.1 119.6 119.3 117.6 115.1 113.1 112 109.7 107.6 105.1 103.4 100.5 99 97.4 81.5 56.2 52 65.2 70.9 75.9 86.1 96.9 104.9 111.4 113.3 114 115.1 118.4 122.6 125.6 126.7 126.6 125.5 123.2 119.1 111.7 103.7 97.3 96.3 98.8 101.7 104.4 109.2 113.8 110.8 112.5 116.2 119.8 122.1 128.8 136.9 143.7 149.4 154.1 157.6 160.8 162.6 163.5 162.3 158.7 151.8 142.4 135 125.3 129.5 133.7 138 139.1 142.1 148.7 156.8 163.2 167.6 170.2 171.7 171.5 171 170.2 169.2 167.9 165.6 162 157.8 154 149.6 146 140 136.2 132.9 128.1 133.4 135 136.6 136.3 133.2 132.4 131.1 128.9 126.9 123.3
-2.1 -2.1 -2.1 -2.1 -2.1 -2.1 -2.1 -2.1 -2.1 -2.1 -2.1 -2.1 -2.1 -2.1 -2.1 -2.1 -2.1 -2.1 -2.1 -2.1 -2.1 -2.1 -2.1 -2.1 -2.1 -2.1 -2.1 -2.1 -2.1 -2.1 -2.1 -2.1 -2.1 -2.1 -2.1 -2.1 -2.1 -2.1 -2.1 -2.1 -2.1 -2.1 -2.1 -2.1 -2.1 -2.1 -2.1 -2.1 -2.1 -2.1 -2.1 -2.1 -2.1 -2.1 -2.1 -2.1 -2.1 -2.1 -2.1 0.1 2.2 78.6 121.2 126.6 127 126.7 125.5 123.7 120.6 117.7 116.2 116.4 117.5 118.7 119.9 120.8 121.1 121 121.3 121.1 119.4 113 89 66.7 46.9 60.5 78.4 96.1 107.2 109.4 111.3 109.3 102.4 89.2 77.9 71 90.2 103.5 113.5 119.4 121.7 122.6 122.5 121 119.8 118.5 117.6 116.3 114.5 112.6 111.8 111.5 110.9 108.2 92.2 67.4 50.8 68.6 85 93 98.6 102.6 106.8 109.2 110 110.1 111.5 115 120.6 125.8 129.4 130.4 130.1 129.1 129.1 122.1 115.3 108.5 107.5 105.5 104.7 105.2 106 105.2 114.6 119.2 122.4 127.3 130.1 132.6 134.5 137.3 144.4 150.7 156.8 160.4 161.4 161.7 160.9 158.2 153.8 148.8 139.5 128.5 135 141.5 144 147.6 151.1 155.4 160.3 165.5 169.5 172.2 174.3 174.3 173.1 172 170.6 169.1 166.8 163.4 159.6 156.2 152.7 148.3 143.2 137.3 132.9 126.2 123.2 127.2 129.5 131 129.6 128.5 127.3 124.6 121.5 119.2
-2.1 -2.1 -2.1 -2.1 -2.1 -2.1 -2.1 -2.1 -2.1 -2.1 -2.1 -2.1 -2.1 -2.1 -2.1 -2.1 -2.1 -2.1 -2.1 -2.1 -2.1 -2.1 -2.1 -2.1 -2.1 -2.1 -2.1 -2.1 -2.1 -2.1 -2.1 -2.1 -2.1 -2.1 -2.1 -2.1 -2.1 -2.1 -2.1 -2.1 -2.1 -2.1 -2.1 -2.1 -2.1 -2.1 -2.1 -2.1 -2.1 -2.1 -2.1 -2.1 -2.1 -2.1 -2.1 -2.1 -2.1 -2.1 -2.1 0.3 1.9 44.2 110.5 120.2 126.4 128.8 129 127.7 126.1 125.3 124.3 123.5 122.9 124.1 125.2 127 127.3 126.9 126 122 114.6 95.1 71.3 49.4 61.5 78.3 97.8 115.2 120.2 121 121.4 118.9 112.4 99.8 88.7 79 77.2 90.2 97.8 105.2 115.7 120.9 122.8 122.5 122.2 120.8 121.1 119.9 119.3 117.8 117.6 116.3 114.2 109.9 98.5 76.2 53.8 58.9 74 85.5 91.2 95.9 99.8 102.9 104.7 104.2 105.8 109.5 115 121.5 127.1 131.1 132.2 133.2 131.1 127.2 122.2 119.4 120 118.4 117.1 115.7 115.6 109.7 117.1 123.8 128.3 133.2 137.7 141.8 145.3 148.4 151.3 153.3 156.9 160 161.2 160.3 158.9 157.6 155.4 149.1 135.4 135.9 142.3 146.6 152.9 157.1 160.6 163.7 166.4 170.3 172.8 175.1 176.3 176.6 175.1 172.8 171.8 169.8 167.1 163.7 159.6 155.9 152.8 148.5 142.9 136.9 130.9 127.6 124.7 118.4 122.4 127.4 127 124 122 118.5 115.5 115
-2.1 -2.1 -2.1 -2.1 -2.1 -2.1 -2.1 -2.1 -2.1 -2.1 -2.1 -2.1 -2.1 -2.1 -2.1 -2.1 -2.1 -2.1 -2.1 -2.1 -2.1 -2.1 -2.1 -2.1 -2.1 -2.1 -2.1 -2.1 -2.1 -2.1 -2.1 -2.1 -2.1 -2.1 -2.1 -2.1 -2.1 -2.1 -2.1 -2.1 -2.1 -2.1 -2.1 -2.1 -2.1 -2.1 -2.1 -2.1 -2.1 -2.1 -2.1 -2.1 -2.1 -2.1 -2.1 -2.1 -2.1 -2.1 -1.1 0.2 1.5 4.3 64.6 104.6 120.7 126.6 129.7 130.1 129.7 130.1 129.5 129.2 128.3 128.9 129.7 130.4 130.5 129.6 127.1 119.1 103.7 78.7 54 60 74.3 94.5 115.5 127.8 129.4 129.8 128 126 119.8 104.9 102.2 93.5 86.3 82.5 83.5 83.6 98.5 108.9 118.5 121.7 123 122.9 122.7 123.1 122.1 121.2 119.3 117.3 114.9 109.6 100.5 81.3 63.1 55.3 57.5 65.4 78.5 84 88 92.2 95.6 96.8 98.9 102.2 109 114.4 121.3 127.9 132.2 135 135 133.9 130 128.7 128.2 126.4 126.9 126.2 125.7 119.3 115 124.3 129.6 135.4 140.6 145.4 149.7 153.7 156.9 159.7 161.6 162.5 161.3 159.7 155.6 152.3 151.5 146.4 134.5 142.4 149.5 153.3 157.4 161 164.9 168.7 171.8 174.3 175.8 176.9 177.4 176.9 175.7 174 171.8 169.3 166.2 161.1 157.3 152.3 149.6 144.4 140.5 137.2 135.2 132.1 130.1 128 120.8 121.1 122.7 117.1 115.8 114.9 111.7 109.4
-2.1 -2.1 -2.1 -2.1 -2.1 -2.1 -2.1 -2.1 -2.1 -2.1 -2.1 -2.1 -2.1 -2.1 -2.1 -2.1 -2.1 -2.1 -2.1 -2.1 -2.1 -2.1 -2.1 -2.1 -2.1 -2.1 -2.1 -2.1 -2.1 -2.1 -2.1 -2.1 -2.1 -2.1 -2.1 -2.1 -2.1 -2.1 -2.1 -2.1 -2.1 -2.1 -2.1 -2.1 -2.1 -2.1 -2.1 -2.1 -2.1 -2.1 -2.1 -2.1 -2.1 -2.1 -2.1 -2.1 -2.1 -2.1 -1.2 0 1.1 2.1 23.6 77.2 111.9 122.4 127.1 130.6 132.8 133.1 133 132.8 132.2 131.7 131.8 130.7 130.6 129.1 125.7 116.7 94.2 67.1 57.1 74.7 90.5 109.5 127.3 134.2 135.9 136.2 134.9 131.8 126.2 114.8 109.9 106.6 100.5 98.8 100.1 98.7 93.7 95.3 108.8 116.9 121.1 122.7 123.2 123.5 123.7 122.8 120.8 118.5 113.1 107.8 96.4 79.3 78.1 69.1 55.2 53.5 59.6 71.2 77.1 80 83.6 88.2 94 97.2 103.5 111.7 118.1 124.8 130.6 135.1 138.1 138.8 137.4 136.4 135.2 134.8 132.7 131.9 129.9 120.3 116.9 122.1 129.5 135.6 141.9 148.1 152.9 157.5 160.6 163.4 164.7 164.3 163.4 160.6 156.9 152.6 147 140.3 137.5 145.9 152.1 156.4 160.8 163.7 167.1 170.7 173.7 175.4 177.7 178.6 177.9 177 175.8 174.5 172 168.4 164.8 160 155.8 152.7 149.8 146.9 143.5 139.4 136.6 134 132.7 131.4 126.6 114.6 110.7 107.1 104.2 106.2 103.6 102.2
-2.1 -2.1 -2.1 -2.1 -2.1 -2.1 -2.1 -2.1 -2.1 -2.1 -2.1 -2.1 -2.1 -2.1 -2.1 -2.1 -2.1 -2.1 -2.1 -2.1 -2.1 -2.1 -2.1 -2.1 -2.1 -2.1 -2.1 -2.1 -2.1 -2.1 -2.1 -2.1 -2.1 -2.1 -2.1 -2.1 -2.1 -2.1 -2.1 -2.1 -2.1 -2.1 -2.1 -2.1 -2.1 -2.1 -2.1 -2.1 -2.1 -2.1 -2.1 -2.1 -2.1 -2.1 -2.1 -2.1 -2.1 -2.1 -1.5 -0.4 0.7 1.8 4.5 97.5 106.9 114.5 122.6 128.4 133.7 135.8 136.4 135.9 134.6 133.2 131.2 129.1 126.6 125.7 122.6 110.9 82.8 56.7 67.9 86.7 104.7 119.3 131.5 137.1 139.8 140.5 139.5 137.5 132.4 129 124.8 118.6 112.5 111.9 116.3 114.6 104.6 100.2 98.7 103.9 113.5 119.9 124.5 125.4 125.6 124.8 122.7 118.5 114.2 107.8 102.3 91.1 89.5 83.7 70.1 63.8 59.4 58.1 57.7 64.4 71.1 77.6 87.5 93.8 99.7 108.6 116.7 124.6 131.1 135.7 139.1 142.6 143 142.6 141.1 139.8 139.3 136.7 133.4 124.8 122.2 127.3 131.3 138.1 144.6 150.6 155.2 160.2 163.5 165.7 167.1 166.4 164.5 161 156.9 152.6 148.8 142.5 144.4 147.3 153.6 158.1 162.4 165.2 168.7 171.2 173.5 176.3 178 180.8 178 177.3 176.5 174.8 172.5 169.5 164.6 161.5 157.4 153.3 149.4 146.4 143.2 139.1 135.3 133.8 132.2 130.6 127.2 122.1 114.8 108.1 104.1 103.2 100.4 97.2
-2.1 -2.1 -2.1 -2.1 -2.1 -2.1 -2.1 -2.1 -2.1 -2.1 -2.1 -2.1 -2.1 -2.1 -2.1 -2.1 -2.1 -2.1 -2.1 -2.1 -2.1 -2.1 -2.1 -2.1 -2.1 -2.1 -2.1 -2.1 -2.1 -2.1 -2.1 -2.1 -2.1 -2.1 -2.1 -2.1 -2.1 -2.1 -2.1 -2.1 -2.1 -2.1 -2.1 -2.1 -2.1 -2.1 -2.1 -2.1 -2.1 -2.1 -2.1 -2.1 -2.1 -2.1 -2.1 -2.1 -2.1 -2.1 -2.1 -0.5 0.6 1.7 25.7 117.6 117.7 116.9 116.6 123.8 129.7 135.2 138 138 135.6 132.8 129.3 123.8 121.8 119.6 109.9 90.9 67.7 59.3 74.6 94.9 114.1 124.3 131.6 137.8 140.9 142.9 143.3 142.7 140.3 137.1 133.7 127.8 119.1 120 124.8 122.9 114.7 115.7 113.4 108 104.3 113.9 122.7 126.4 127.9 127.4 125.4 121.2 116 111.2 105.7 99.9 93.6 87.6 77.5 74.9 68.2 63.8 62.3 59.7 60.2 68 77.3 87.5 96.4 106.7 115.3 123.3 130.6 135.3 140.3 144.6 146 146.6 146.7 145 144.1 141.2 136.8 130.6 122.5 132.4 134.8 139.4 145.7 151.6 156.7 161 164.3 166.5 168 167.8 165 163 158.1 153.5 149.2 145.2 147.5 149.3 152.5 157.3 161.1 164.7 167.7 171.5 173.9 176.2 177.4 178 178.4 177.7 176.4 174.6 171.8 169.3 164.4 161.5 156.3 152.1 148 144.3 141.3 138.1 133.8 132 130.2 128.2 125.8 119.1 112.5 108.7 108 106.6 103.5 103.1
-2.1 -2.1 -2.1 -2.1 -2.1 -2.1 -2.1 -2.1 -2.1 -2.1 -2.1 -2.1 -2.1 -2.1 -2.1 -2.1 -2.1 -2.1 -2.1 -2.1 -2.1 -2.1 -2.1 -2.1 -2.1 -2.1 -2.1 -2.1 -2.1 -2.1 -2.1 -2.1 -2.1 -2.1 -2.1 -2.1 -2.1 -2.1 -2.1 -2.1 -2.1 -2.1 -2.1 -2.1 -2.1 -2.1 -2.1 -2.1 -2.1 -2.1 -2.1 -2.1 -2.1 -2.1 -2.1 -2.1 -2.1 -2.1 -2.1 -0.2 1.2 2.3 38.6 121 123.3 122.1 120.4 121.1 126.5 132.9 137.1 137.3 134.1 129.9 124 118.7 110.5 100.9 87 68.6 58.6 70.3 85.5 103 115.5 125 130.9 137 140.4 143.2 145.8 145.7 144.6 141.8 137.8 132.3 126 127.2 130.8 130.3 123.4 125.2 127.8 124.9 112 107 116.4 124.3 126.1 127.8 125.8 121.9 117.7 113.3 109.9 103.3 96.4 88.6 84.4 79.2 73.7 71.5 70.1 66.5 60.8 62.1 71.2 80.7 89.9 102.2 111.9 120.8 128 132.9 137.5 143.5 147.3 150.8 150.8 149.3 147 144.4 140.3 135.6 125.8 134.5 140 143.6 147.2 152.1 156.6 161.2 164.6 167.2 167.8 167.8 166.5 164 161.7 157 152.2 151.2 152.6 154.4 155.9 158.9 161.7 164.5 167.1 171.2 173.9 175.8 177.2 177.8 178.2 177.5 176.1 173.8 171.5 168.5 164.5 160.2 155.2 148.6 145.9 143.3 140.3 136.9 133.1 129.6 126.4 119.3 118.5 117.2 115.7 113.9 110.7 107.9 105.6 106.6
-2.1 -2.1 -2.1 -2.1 -2.1 -2.1 -2.1 -2.1 -2.1 -2.1 -2.1 -2.1 -2.1 -2.1 -2.1 -2.1 -2.1 -2.1 -2.1 -2.1 -2.1 -2.1 -2.1 -2.1 -2.1 -2.1 -2.1 -2.1 -2.1 -2.1 -2.1 -2.1 -2.1 -2.1 -2.1 -2.1 -2.1 -2.1 -2.1 -2.1 -2.1 -2.1 -2.1 -2.1 -2.1 -2.1 -2.1 -2.1 -2.1 -2.1 -2.1 -2.1 -2.1 -2.1 -2.1 -2.1 -2.1 -2.1 -2.1 0.5 2.2 8 47.4 97 126.8 126.4 125.2 124.7 126.3 131.1 133.9 136.2 126.5 123 115.6 107.3 94.7 80 67.4 56.9 63.5 71.2 84.8 98.8 109.3 119 127.7 133.2 138.4 141.8 145 147.1 146 140.6 138.5 134.7 131.6 133.3 137.2 137.1 130.3 130.9 135.4 135 125.1 112.4 109 117.1 122.3 124.7 126.1 123.8 119.7 116.3 111.3 105.4 100.2 96.7 91.2 86.2 79.5 81.5 79.2 73.7 69 63.5 67.1 75.6 84.1 95.3 102.9 112.7 121.3 127.7 134 142.2 148.2 153 153.4 151.8 150 148.1 144.6 139.8 131.2 139.1 144.6 148.5 152 155.1 157.8 162.2 165 167 167.7 167.8 167 165 162.9 160 156 157.5 159.1 160.7 162 163.4 164.6 166.6 168 170.7 173.2 174.8 175.8 176.4 176.4 176.3 175.1 173.6 171.3 167.8 164.1 159.2 153 146.8 143.3 141.3 138.3 134.5 130.1 126 121.8 125.6 125.5 123.3 120.7 115.9 112.4 110.2 109.5 110
-2.1 -2.1 -2.1 -2.1 -2.1 -2.1 -2.1 -2.1 -2.1 -2.1 -2.1 -2.1 -2.1 -2.1 -2.1 -2.1 -2.1 -2.1 -2.1 -2.1 -2.1 -2.1 -2.1 -2.1 -2.1 -2.1 -2.1 -2.1 -2.1 -2.1 -2.1 -2.1 -2.1 -2.1 -2.1 -2.1 -2.1 -2.1 -2.1 -2.1 -2.1 -2.1 -2.1 -2.1 -2.1 -2.1 -2.1 -2.1 -2.1 -2.1 -2.1 -2.1 -2.1 -2.1 -2.1 -2.1 -2.1 -2.1 -0.9 0.5 1.7 2.7 50.4 73.4 110.7 131.7 129.9 128.7 128.5 130.8 133.5 135.8 126.3 117.7 103.1 90.8 81.9 75.7 64 64.4 72.5 66.3 78.1 87.6 97.2 108.2 118.7 126.3 132.9 138.5 143.4 146.2 145.7 143 139.4 135.7 135.2 136.1 139.3 140.1 134.9 134.8 139.6 140 135 126.3 118.1 111.5 118.3 123.1 124.9 124.4 121.9 118.8 114.4 110.3 107.1 104 98.6 92.5 89.8 88.6 89.1 87.6 81.7 71.8 65.4 70.8 79.5 88.7 95 101.4 110.2 118.7 128.7 139.2 146.7 150.3 153.6 153.2 152.5 151.1 148.8 143.8 135.5 141.6 147.4 151.5 155.1 158 160.7 163.5 165.2 167 167.8 167.5 167.6 166.5 164.9 163.3 159.9 161.5 162.4 163.7 164.7 166 166.3 168.1 169.5 170.7 172.5 173.1 173.6 174.1 174 174 172.7 170.9 169.3 166.4 162.4 156.7 150.2 143.9 139.8 136.9 135 130.5 126.5 123.5 127.3 128.5 127.8 123.9 122.2 118.3 115.8 113.7 113.1 113.3
-2.1 -2.1 -2.1 -2.1 -2.1 -2.1 -2.1 -2.1 -2.1 -2.1 -2.1 -2.1 -2.1 -2.1 -2.1 -2.1 -2.1 -2.1 -2.1 -2.1 -2.1 -2.1 -2.1 -2.1 -2.1 -2.1 -2.1 -2.1 -2.1 -2.1 -2.1 -2.1 -2.1 -2.1 -2.1 -2.1 -2.1 -2.1 -2.1 -2.1 -2.1 -2.1 -2.1 -2.1 -2.1 -2.1 -2.1 -2.1 -2.1 -2.1 -2.1 -2.1 -2.1 -2.1 -2.1 -2.1 -2.1 -2.1 -1.1 0.1 1.2 2.3 39.5 52.4 85.2 104.1 135.4 133.3 132.7 133.5 134.4 133.5 128.7 119.5 113.3 110.3 101.8 85.5 59.6 71.6 80.5 82.1 73.7 78.5 87.4 96.4 103.6 111.2 119.4 129 136.8 140.3 141.6 140.8 139.7 138.4 138.4 138.9 139.8 139.4 137.3 136.9 138.5 139 136.8 131.7 127.1 116.1 116.1 123 125.8 126.9 125 121.6 119.3 117.3 114.7 112.1 108 101.1 99.2 98.1 98.1 96.4 92.9 83 71.3 67.9 73.9 79.1 85 93.7 101.9 110.6 121.7 132.1 140.4 147.4 150.6 152 152.8 153.2 152.6 149 141.4 141.9 149.5 153.8 156.8 159.5 161.8 164.6 166 166.5 167.4 167.4 167 167 165.3 164.6 163.9 163.8 164.3 164.9 166.4 166.3 168.1 169.7 170.2 171.2 172 172 172.2 172.3 171.5 170.5 168.9 168.1 165.8 163.2 159.7 154 147 141.2 135.3 130.3 132.4 131.7 130.1 130.4 130.8 131 130.3 128 125.1 122 120.1 118.3 117.5 117.9
-2.1 -2.1 -2.1 -2.1 -2.1 -2.1 -2.1 -2.1 -2.1 -2.1 -2.1 -2.1 -2.1 -2.1 -2.1 -2.1 -2.1 -2.1 -2.1 -2.1 -2.1 -2.1 -2.1 -2.1 -2.1 -2.1 -2.1 -2.1 -2.1 -2.1 -2.1 -2.1 -2.1 -2.1 -2.1 -2.1 -2.1 -2.1 -2.1 -2.1 -2.1 -2.1 -2.1 -2.1 -2.1 -2.1 -2.1 -2.1 -2.1 -2.1 -2.1 -2.1 -2.1 -2.1 -2.1 -2.1 -2.1 -2.1 -1 0 1 2 18.3 53.5 72 105.9 137.8 136.8 136.1 136.5 136.7 136.5 133.8 130.2 127.2 123.7 113.4 88.7 64.4 68.7 80.9 90.9 93 85.7 78.8 86.2 94.4 102 108.7 116.8 125.7 131.3 134.8 135.3 137.1 138.3 139.8 139.9 139.8 139.1 138.2 137.9 138.8 138.3 137.2 133.7 128.8 121.4 116 126.3 131.1 131 129.9 126.7 123.2 121.9 119.9 114 113.2 115.1 108.9 107.2 107.5 106 101.6 93.9 81.1 69.7 74.3 84.1 93.4 97.3 99.5 105.4 112.5 123.2 132.6 139.9 145 149 152.4 155.2 155.8 154.2 148.6 141.5 149.2 154.1 157.5 160.8 163.1 165.1 166.3 166.4 167.1 167.4 167.3 166.9 166 165.3 165 165.1 164.5 164.9 166 167.5 168.5 169 170.1 170.7 171.3 171.4 171.3 170.5 169.5 168.6 167 165.5 163.1 160.2 156.2 150.2 142.3 141.7 140.1 138.8 139.3 137.9 135.7 134.4 134.3 133.7 132.5 130.6 128.2 125.2 123.2 121.1 120.1 118.6
-2.1 -2.1 -2.1 -2.1 -2.1 -2.1 -2.1 -2.1 -2.1 -2.1 -2.1 -2.1 -2.1 -2.1 -2.1 -2.1 -2.1 -2.1 -2.1 -2.1 -2.1 -2.1 -2.1 -2.1 -2.1 -2.1 -2.1 -2.1 -2.1 -2.1 -2.1 -2.1 -2.1 -2.1 -2.1 -2.1 -2.1 -2.1 -2.1 -2.1 -2.1 -2.1 -2.1 -2.1 -2.1 -2.1 -2.1 -2.1 -2.1 -2.1 -2.1 -2.1 -2.1 -2.1 -2.1 -2.1 -2.1 -2.1 -1 0 1 2 19.1 47.2 63.4 117.2 139.4 139.3 139.2 139.5 139.4 139.7 139.7 139.1 137.3 130 118.3 93.5 71 63.7 74.7 92.2 100.6 103 100.5 95.1 92.7 92.5 98.7 104.3 113.2 118.8 125 129.4 133.9 137.3 140 140.1 140 139.6 139.1 139.1 139.1 139 138 135.2 131.9 124.6 115.7 125.2 132 133.5 133.2 131.2 128.3 126.3 124.6 121.6 118.9 117.3 116.4 116 113.9 111.7 107.7 101.3 88.4 71.9 75.4 87.8 97.5 104.6 109.4 115.3 119.2 124.6 130.2 135.5 142.1 147.1 152.8 156.2 157.8 158.5 156.3 151.2 146.9 152.9 157.8 161.5 163.7 165.8 166.4 167.2 167.7 167.5 167.2 166.7 166 165.2 165.1 165.8 164.3 164.6 166.2 167.9 168.5 169 168.8 169.9 170.5 170.6 170.3 169.7 168.4 166.9 165.8 163.1 160.2 156.6 148.7 145.5 145.8 146.5 145.4 145.5 144.6 143.3 140.4 139.2 137.1 135.7 134.2 132.3 130.4 128.3 126 123.3 119.9 116.2
-2.1 -2.1 -2.1 -2.1 -2.1 -2.1 -2.1 -2.1 -2.1 -2.1 -2.1 -2.1 -2.1 -2.1 -2.1 -2.1 -2.1 -2.1 -2.1 -2.1 -2.1 -2.1 -2.1 -2.1 -2.1 -2.1 -2.1 -2.1 -2.1 -2.1 -2.1 -2.1 -2.1 -2.1 -2.1 -2.1 -2.1 -2.1 -2.1 -2.1 -2.1 -2.1 -2.1 -2.1 -2.1 -2.1 -2.1 -2.1 -2.1 -2.1 -2.1 -2.1 -2.1 -2.1 -2.1 -2.1 -2.1 -2.1 -0.8 0.2 1.1 2.1 23.4 53.9 62.8 107 141.1 141.7 141.8 141.9 142.3 143 143.7 143.2 142.3 134.3 121 99.6 80.1 61 68 87.7 101.9 107.9 109.4 108.3 106.8 102.1 105.1 115.1 115.8 118.1 121 126.3 133.3 137.4 140 140.3 140 139.7 139.3 139.2 139.3 139 137.8 135 132 129.1 120.4 125.7 133.5 136.8 137.5 135.3 132.9 130.1 127.7 126 125.8 124.9 123.3 122.6 120.6 117.6 112.5 105 97.7 76.8 74.7 88.2 99.8 109 115.8 120.8 126.3 131.9 137.8 142.7 147 150.3 154.4 157.6 160.2 161.4 160.9 159.2 156.4 152.5 159.7 163.5 165.2 167.4 167.4 167.7 167.7 167.4 166.9 166.6 165.5 164.7 163.6 163.9 164 164.2 164.5 165.2 166.8 167.3 167.7 168.6 169.2 169.5 169.1 168.5 167.4 166.2 164.7 162.6 159 155.6 151.3 151.6 153.2 151.6 149.8 148.6 147.8 145.5 143.1 141.1 138.8 136.6 133.8 133.1 132.2 129.5 126.5 123.4 118.9 114.9
-2.1 -2.1 -2.1 -2.1 -2.1 -2.1 -2.1 -2.1 -2.1 -2.1 -2.1 -2.1 -2.1 -2.1 -2.1 -2.1 -2.1 -2.1 -2.1 -2.1 -2.1 -2.1 -2.1 -2.1 -2.1 -2.1 -2.1 -2.1 -2.1 -2.1 -2.1 -2.1 -2.1 -2.1 -2.1 -2.1 -2.1 -2.1 -2.1 -2.1 -2.1 -2.1 -2.1 -2.1 -2.1 -2.1 -2.1 -2.1 -2.1 -2.1 -2.1 -2.1 -2.1 -2.1 -2.1 -2.1 -2.1 -2.1 -0.7 0.3 1.3 2.3 30.1 56.7 65.8 98.8 140.3 143.3 144.4 144.6 145.2 146.1 147.1 146.6 144.4 137 124.6 105.7 87.8 72.5 66.6 80.7 99 108.9 113.1 116.4 112.5 107.7 112.3 124.4 130.3 132 131.1 129.9 133.5 138.6 140.9 141.3 140.7 140.4 139.9 139.6 139.8 139.1 138.6 138 136.3 134.2 126.3 124.1 135.9 139.5 142 140.3 136.3 133.2 131.2 130.4 130.2 129.8 128.6 126.6 124.6 121.8 118 113.8 109.6 88.3 74.8 85 99 111.3 118.5 124.1 130.5 136.8 142.9 147.6 151.5 154.9 158.1 159.5 161.7 163.3 163.7 163.1 161.7 158.4 162.1 164.5 166.2 167.7 168.1 167.8 167.6 166.8 166.6 165.6 164.7 164 163.5 163.9 162.5 162.5 162.7 163.1 164.4 165.5 166.1 166.8 167.4 167.7 167.8 167.1 166.3 165.5 164.6 161.5 159.6 156.5 155.5 155.5 154.5 153 151.5 149.7 146.4 144.6 142.2 139.3 135 136 133.6 132.5 130.7 128 124.2 121.4 118 112.1
-2.1 -2.1 -2.1 -2.1 -2.1 -2.1 -2.1 -2.1 -2.1 -2.1 -2.1 -2.1 -2.1 -2.1 -2.1 -2.1 -2.1 -2.1 -2.1 -2.1 -2.1 -2.1 -2.1 -2.1 -2.1 -2.1 -2.1 -2.1 -2.1 -2.1 -2.1 -2.1 -2.1 -2.1 -2.1 -2.1 -2.1 -2.1 -2.1 -2.1 -2.1 -2.1 -2.1 -2.1 -2.1 -2.1 -2.1 -2.1 -2.1 -2.1 -2.1 -2.1 -2.1 -2.1 -2.1 -2.1 -2.1 -2.1 -0.6 0.4 1.4 2.4 35.6 67.2 70.1 100.5 143.3 145.4 147.4 147.8 148 148.9 150.2 149.2 146.4 140.7 129.1 113.3 96.1 80.3 63.6 74.3 94.5 108.7 116.9 117.2 115.9 113.7 116.2 126.7 134.4 138 137.8 135.8 139 140.6 141.9 142.6 141.9 141.3 140.9 140.2 140.2 139.6 138.9 139.2 138.9 137.6 131.1 124.7 138.6 143.3 146.2 146.2 140.9 137.2 135.5 134.6 133.8 133.5 133 132.1 129.9 127.1 123.3 119.1 115.1 99.5 77.8 80.4 96.7 110.7 119.7 125.5 133.2 139.8 145.5 152 156 159.6 163.2 164.8 165.2 165.3 164.9 165 163.9 163.4 164.1 166.3 167.3 168.3 168.5 168 167.7 167 166.3 165.6 164.7 163.6 162.7 163 162.5 160.8 160.9 161.8 162.5 163.1 164.2 165.2 165.8 166 166.2 166.1 165.7 165 164.2 163 161.2 158.8 158 156.9 155.8 153.8 152.5 150.3 146.8 142.9 138.8 135.8 131.1 130.8 130.5 130.1 127.7 125.3 122.3 119 114.7 105.8
-2.1 -2.1 -2.1 -2.1 -2.1 -2.1 -2.1 -2.1 -2.1 -2.1 -2.1 -2.1 -2.1 -2.1 -2.1 -2.1 -2.1 -2.1 -2.1 -2.1 -2.1 -2.1 -2.1 -2.1 -2.1 -2.1 -2.1 -2.1 -2.1 -2.1 -2.1 -2.1 -2.1 -2.1 -2.1 -2.1 -2.1 -2.1 -2.1 -2.1 -2.1 -2.1 -2.1 -2.1 -2.1 -2.1 -2.1 -2.1 -2.1 -2.1 -2.1 -2.1 -2.1 -2.1 -2.1 -2.1 -2.1 -1.3 -0.2 0.8 1.7 2.7 39.2 76.8 74.2 106.6 143.8 145.5 150.2 150.5 150.3 151 152 152.1 149.6 145 133.3 118.5 103.6 89.4 73.6 71.8 89.2 105.5 115 122.2 120.4 121.7 117.1 126 135.2 141 141.8 139.8 140.1 142.8 143.7 143.7 143.2 142.6 142.1 141.3 140.9 140 138.9 138 137.2 134.5 124.2 130.3 140.1 145 148.6 149.2 146.7 141.7 139.2 137.9 137.3 137.1 137 136.4 134.6 131.8 128.3 124.2 117.9 108.4 89.1 79.9 91.5 109.3 119.1 126.8 134.7 140.5 148.2 155.4 159.5 162.9 165.6 168.5 169.6 169.9 168.7 167.7 165.9 165.6 166.1 167.7 169.3 169.1 169.4 168.8 168.3 167.7 167 166.3 165.2 164.9 163.3 161.9 160.7 159.5 159.5 159 159.3 160.3 161.9 162.9 163.8 164.6 164.7 164.6 164.4 164.2 163.4 162.7 161.7 160.2 159.3 157.9 156.7 155.5 154.3 152 149 146.6 143.2 139.8 132.9 127 122.2 123.8 122.7 120.8 119.2 116.8 110.5 101.3
-2.1 -2.1 -2.1 -2.1 -2.1 -2.1 -2.1 -2.1 -2.1 -2.1 -2.1 -2.1 -2.1 -2.1 -2.1 -2.1 -2.1 -2.1 -2.1 -2.1 -2.1 -2.1 -2.1 -2.1 -2.1 -2.1 -2.1 -2.1 -2.1 -2.1 -2.1 -2.1 -2.1 -2.1 -2.1 -2.1 -2.1 -2.1 -2.1 -2.1 -2.1 -2.1 -2.1 -2.1 -2.1 -2.1 -2.1 -2.1 -2.1 -2.1 -2.1 -2.1 -2.1 -2.1 -2.1 -2.1 -2.1 -0.7 0.4 1.3 2.3 27.3 53.9 70.8 77.5 106.6 142.4 148.4 152.2 152.1 151.8 151.3 151.7 152.5 151.2 145.6 136.2 122.1 108.3 95 82.8 70.8 85.4 103.5 114.1 122.1 122.4 123.5 124.4 124.9 132.5 139.2 142.7 143.5 143 145 145.6 144.9 144.2 143.5 142.5 141.5 140 138.1 137.2 134.9 132.1 128 128.6 132 137.9 143.3 147.3 149.6 149.5 146.9 143.8 141.2 140.9 140.7 140.7 139.6 138.3 135.7 132.3 128.4 121.9 112.7 96.3 79.4 88.6 106 119.6 126.6 135 143 150.5 157.3 161.7 164.4 167.1 169.5 171.4 172.6 172.7 171.2 169.8 168.1 168.1 169 170.1 170.4 169.8 169.4 169.3 168.3 167.6 167 165.9 164.5 164.2 162.8 161.1 159.4 157.7 157.6 157.2 158 158.8 160.1 161.2 162 162.9 163 163.1 163.2 162.9 162.3 161.4 160.5 159.2 158.5 157.1 155.5 153.8 152.7 150.5 147.5 143.8 139.3 134.1 128.5 124.2 118.6 115.2 112.5 107.7 105.4 103.4 106.6
-2.1 -2.1 -2.1 -2.1 -2.1 -2.1 -2.1 -2.1 -2.1 -2.1 -2.1 -2.1 -2.1 -2.1 -2.1 -2.1 -2.1 -2.1 -2.1 -2.1 -2.1 -2.1 -2.1 -2.1 -2.1 -2.1 -2.1 -2.1 -2.1 -2.1 -2.1 -2.1 -2.1 -2.1 -2.1 -2.1 -2.1 -2.1 -2.1 -2.1 -2.1 -2.1 -2.1 -2.1 -2.1 -2.1 -2.1 -2.1 -2.1 -2.1 -2.1 -2.1 -2.1 -2.1 -2.1 -2.1 -0.7 0.2 1.2 2.2 11.3 44.7 51.2 66.4 88.8 115.1 136 145.8 150.7 151.4 151.3 150.4 146.8 146.1 146.2 143.2 134.9 123.3 110.7 99.4 87.4 71.6 87.1 104.6 116.6 123.7 129.2 130.3 133.4 134 135.7 141.7 146 147.3 148.7 149 148.9 148.1 146.9 145.8 143.8 141.3 138.8 135.9 133.5 132.2 129.5 126.1 130.2 132.5 136.2 140.6 145.8 149.3 151.3 149.8 148.2 145.6 145 144.1 144.1 142.7 140.9 138.8 135.8 131.4 124.9 115.6 105.2 85.6 88.5 104.5 116.9 126.1 134.7 143.5 151 158.1 162.9 165.6 168.5 170.7 173.1 175.1 175.5 174.7 172.7 170.8 170.7 170.7 171.7 170.8 170 169.5 169.1 169.6 169.4 168.6 167.4 165.7 165.8 163.9 162.1 160.5 159.1 157.6 155.2 155.2 155.9 157.1 158.7 159.6 160.6 161.2 161.4 161.7 161.9 161.6 161.2 160.1 159.7 157.9 156.8 154.7 152.6 151.7 148.6 145.7 143.4 140.3 135.7 130.2 125.3 118.3 113.3 109 110.4 110.2 106.9 110.8
-2.1 -2.1 -2.1 -2.1 -2.1 -2.1 -2.1 -2.1 -2.1 -2.1 -2.1 -2.1 -2.1 -2.1 -2.1 -2.1 -2.1 -2.1 -2.1 -2.1 -2.1 -2.1 -2.1 -2.1 -2.1 -2.1 -2.1 -2.1 -2.1 -2.1 -2.1 -2.1 -2.1 -2.1 -2.1 -2.1 -2.1 -2.1 -2.1 -2.1 -2.1 -2.1 -2.1 -2.1 -2.1 -2.1 -2.1 -2.1 -2.1 -2.1 -2.1 -2.1 -2.1 -2.1 -2.1 -0.4 0.5 1.2 2.2 4.8 42.6 48.6 52.8 69.4 111.2 124.9 131.8 143.4 145.4 144.8 143.7 144.3 138.1 135.4 133 128.1 121.1 114.3 105.9 94.6 77.2 74.6 87.9 103.4 118.8 129.2 135.6 140.3 142.4 143.2 143.3 147.5 150.6 152.5 153.3 153.2 152.8 151.3 150.2 148.5 145.7 143.8 141.3 138.7 136.1 133.5 130.4 127.6 131 132.8 135.9 140.2 145.2 149.6 152.4 152.9 152.3 150.8 150 149.4 147.9 146.3 143.8 140.7 137.4 132.9 127 120.5 112 93 88.8 106 116.8 126 134.3 142.7 151.5 158.2 163.3 166.2 168.7 171.2 173.4 175.7 176.8 176.2 174.6 172.8 172 171.6 171.5 170.6 170.3 169.6 169 169.3 169 168.9 168.4 167.2 166.5 165.4 163.3 161.8 160.2 158.8 156.6 155 154.2 154.1 155.3 156.9 158.4 159.2 159.6 160 160.8 160.7 160.7 159.6 158.9 157.2 154.8 152.4 149.5 147.4 143 139.7 139.1 136.5 133.1 128 122.3 114.7 111 113.9 113.7 110.8 106.7 110
-2.1 -2.1 -2.1 -2.1 -2.1 -2.1 -2.1 -2.1 -2.1 -2.1 -2.1 -2.1 -2.1 -2.1 -2.1 -2.1 -2.1 -2.1 -2.1 -2.1 -2.1 -2.1 -2.1 -2.1 -2.1 -2.1 -2.1 -2.1 -2.1 -2.1 -2.1 -2.1 -2.1 -2.1 -2.1 -2.1 -2.1 -2.1 -2.1 -2.1 -2.1 -2.1 -2.1 -2.1 -2.1 -2.1 -2.1 -2.1 -2.1 -2.1 -2.1 -2.1 -2.1 -2.1 -2.1 0.7 1.8 2.5 2.4 23.3 50.3 54.2 65.3 86.5 117.2 123.1 134.6 145.3 144.3 142.2 136.2 130.7 124.9 119.7 113.9 107.1 99.8 89.4 82 82.1 84.3 75.2 86.7 102.9 117 129.3 137.3 143.6 147.5 149.7 151 153 154.7 156.6 157 156.8 156.3 154.9 153.1 151.3 149.7 147 144.4 141.4 138.8 136.9 133.6 129.4 129 133.4 138.6 143.1 148.6 152.4 155.2 157.1 156.6 155.1 154.2 152.2 150.5 148.5 145.4 141.3 137 133.4 128.1 121.2 110.4 85.5 90 106.2 116 124.1 134 142.5 149.6 158.2 162.5 166 168.1 170.7 172.9 175.1 176.7 176.4 174.8 173.9 173 171.5 170.6 169.9 169 168.3 168.3 168.3 168 168.2 167.9 167.2 166.5 165.2 164 162.8 161.4 159.3 157.5 155.3 153.5 151.8 153 154.1 155.8 157 158 158.5 159.3 159.8 159.9 159.5 159.1 157.3 155.1 151.7 147.4 142.2 138.4 134.3 134.8 133.2 130.5 121.6 116.2 115.6 118.3 118.2 115.6 112.8 108.3 110.8
-2.1 -2.1 -2.1 -2.1 -2.1 -2.1 -2.1 -2.1 -2.1 -2.1 -2.1 -2.1 -2.1 -2.1 -2.1 -2.1 -2.1 -2.1 -2.1 -2.1 -2.1 -2.1 -2.1 -2.1 -2.1 -2.1 -2.1 -2.1 -2.1 -2.1 -2.1 -2.1 -2.1 -2.1 -2.1 -2.1 -2.1 -2.1 -2.1 -2.1 -2.1 -2.1 -2.1 -2.1 -2.1 -2.1 -2.1 -2.1 -2.1 -2.1 -2.1 -2.1 -2.1 -2.1 -2.1 0.5 2.7 26.2 26.8 43.4 60.2 71.4 90.8 104.7 117.3 125.7 141.1 147.1 147.9 145.7 139.8 130.1 117.4 106.7 99.2 98.8 100.2 98.8 96.2 95.7 92.8 75.8 87.1 101.9 114.7 126.9 136.6 144.5 150.3 153.2 154.9 156.3 157.7 158.5 159.2 159.5 159 157.6 155.6 153.5 152.2 150.1 147.3 144.8 142.7 140 136.4 131.7 130 133.7 139.5 145.2 151 155.2 158.3 160.8 162 160.5 158.3 155.8 152.8 148.9 144.9 134.9 130.7 127 121.5 111.8 91.4 85.7 89 99 110 121.1 132.4 141.6 149.1 156.6 160.7 164 166.8 168.8 171.2 173 174.9 175.3 174.8 173.1 172.1 171.6 170.5 169.3 168.7 168.1 167.9 167.8 167.3 167.6 167.6 167.1 166.5 165.6 164.3 162.9 161.9 160 157.8 155.6 153.5 151.5 151.4 152.3 153.3 154.8 156.4 157.3 158.3 159.2 159.5 159.7 159.5 157.8 155.3 152.5 148.7 144.5 140.1 135.6 131.6 126.7 123.1 118.7 121.2 123 123.4 120.9 117.5 114.6 108.8 113
-2.1 -2.1 -2.1 -2.1 -2.1 -2.1 -2.1 -2.1 -2.1 -2.1 -2.1 -2.1 -2.1 -2.1 -2.1 -2.1 -2.1 -2.1 -2.1 -2.1 -2.1 -2.1 -2.1 -2.1 -2.1 -2.1 -2.1 -2.1 -2.1 -2.1 -2.1 -2.1 -2.1 -2.1 -2.1 -2.1 -2.1 -2.1 -2.1 -2.1 -2.1 -2.1 -2.1 -2.1 -2.1 -2.1 -2.1 -2.1 -2.1 -2.1 -2.1 -2.1 -2.1 -2.1 -0.8 0.2 2.7 20.8 63.4 70.5 82 88.1 100.9 114.7 125.6 130.1 149.8 151.9 152.4 150 142 127.7 110.1 106.9 109.3 113.6 116.3 112.1 107.8 105.3 99.2 76.7 84.5 96.5 106.9 118 127.9 136.6 144.2 150.2 155.3 157.5 158.5 160 160.9 161.7 161.9 160.3 158.1 155.5 153.6 152.1 150.1 147.2 145.4 142.3 138.4 133.8 131.2 134.3 140 146.1 153.4 157.7 161.1 164.2 165.2 164.1 161.6 158.9 154.8 150.4 145.2 133.5 119.5 113.6 99.2 91.8 90.4 98.7 92.4 88.2 100.5 112.6 128.3 139.8 147.2 153.9 157.4 159.8 162.8 165.9 168.2 170.4 171.5 172.4 172.9 172.7 172.2 171.6 171.4 170.1 168.8 167.9 168.1 167.6 167 167.1 166.4 166.5 166.1 165.2 163.6 162.5 161.1 159.5 157.6 155.6 153.6 151.5 150 150.4 151.4 153.3 155 156.2 157.5 158.8 159.5 159.4 156.6 157.8 155.1 152.4 149.4 144.4 140.5 137.4 133.8 129.5 123.5 125.6 127.6 128 126.1 122.6 117.6 113.9 110.1 114.6
-2.1 -2.1 -2.1 -2.1 -2.1 -2.1 -2.1 -2.1 -2.1 -2.1 -2.1 -2.1 -2.1 -2.1 -2.1 -2.1 -2.1 -2.1 -2.1 -2.1 -2.1 -2.1 -2.1 -2.1 -2.1 -2.1 -2.1 -2.1 -2.1 -2.1 -2.1 -2.1 -2.1 -2.1 -2.1 -2.1 -2.1 -2.1 -2.1 -2.1 -2.1 -2.1 -2.1 -2.1 -2.1 -2.1 -2.1 -2.1 -2.1 -2.1 -2.1 -2.1 -2.1 -2.1 2.7 2.7 15.3 45.9 62.9 71.5 100.1 106.3 102.6 115.4 134.1 145.2 151.1 154.8 157 154 141.5 122 118 124.8 127.7 131.6 128.2 124.3 119.2 116.5 102.6 77 82.1 86.9 94.6 105.5 114.6 123.7 132 138.8 144.1 148.6 152.7 156.7 160 162.7 163.5 162.2 159.3 156.8 155.3 153.7 151.8 148.8 146.6 143.6 140 135.3 132.4 135.8 140.8 146.8 154.9 159.6 163.9 166.8 167.4 166.6 163.5 160.1 155.3 149.4 139 126.9 111.2 97.5 95.3 99.6 108.7 111.4 106.1 95.6 90.8 103.3 119.8 134.7 143.5 149.7 153.2 155.3 156.8 157.8 160.8 164.5 167.1 169.1 169.9 170.6 171.4 171.6 171 169.5 168.2 167.9 167.4 166.7 166.9 164.7 165.5 165.3 164.7 163.7 162.2 160.8 159.5 158 156.4 155 153.3 151.5 150.4 148.3 149.7 151.4 153.4 155.1 156.7 158.2 159.4 159.7 160.3 158.1 154.9 152.6 149.4 146 141.7 138 134 128 132 132.6 132.3 131.6 129.1 125.2 120.1 114.8 111.1 116.1
-2.1 -2.1 -2.1 -2.1 -2.1 -2.1 -2.1 -2.1 -2.1 -2.1 -2.1 -2.1 -2.1 -2.1 -2.1 -2.1 -2.1 -2.1 -2.1 -2.1 -2.1 -2.1 -2.1 -2.1 -2.1 -2.1 -2.1 -2.1 -2.1 -2.1 -2.1 -2.1 -2.1 -2.1 -2.1 -2.1 -2.1 -2.1 -2.1 -2.1 -2.1 -2.1 -2.1 -2.1 -2.1 -2.1 -2.1 -2.1 -2.1 -2.1 -2.1 -2.1 -2.1 -2.1 19.4 26.5 46.3 56.9 70.9 75.2 87.6 125.9 126 122.1 136.3 144.5 150.5 154.3 155.7 150.4 135.8 115.9 130.6 137.1 143.4 144.1 138.9 134 129.1 122.1 109 86.7 82.6 97 106.7 107.8 108.5 112.1 119.9 127.2 133.8 139.4 144.6 150.1 155.2 159.1 161.6 160.6 158.2 157.2 155.6 153.9 152.3 149.9 147.5 144.2 140.4 135.9 133.3 137.6 141.6 146.4 155.7 160.9 165.1 168 169.4 168.3 165.6 161 154.4 143.5 133.5 118.8 102.3 97.7 107.2 110.8 119.5 120.5 117.1 110.7 96.4 97.8 112.3 127.3 138.3 144.7 148.1 150.3 151.4 151.8 152 154.7 157.8 161.6 165.1 167.2 168.8 170.1 170.1 169 168 166.7 166.7 166.5 165.4 165 164.6 163.9 163.1 162.2 161.2 159.8 158.3 156.7 155.6 153.7 152 150.7 149.3 147.8 148 149.8 152 153.8 155.5 157.3 158.6 158.8 158.9 156.9 154.9 152.4 148.5 144.1 140.8 136.1 131.9 135.1 136.7 136.4 135 134.3 131.5 127 122.9 117.9 112.9 114.8
-2.1 -2.1 -2.1 -2.1 -2.1 -2.1 -2.1 -2.1 -2.1 -2.1 -2.1 -2.1 -2.1 -2.1 -2.1 -2.1 -2.1 -2.1 -2.1 -2.1 -2.1 -2.1 -2.1 -2.1 -2.1 -2.1 -2.1 -2.1 -2.1 -2.1 -2.1 -2.1 -2.1 -2.1 -2.1 -2.1 -2.1 -2.1 -2.1 -2.1 -2.1 -2.1 -2.1 -2.1 -2.1 -2.1 -2.1 -2.1 -2.1 -2.1 -2.1 -2.1 -2.1 -2.1 -2.1 2.7 34.5 62.2 79 87.7 101.3 123.6 142 127.6 133.9 142.5 149.9 154.6 156.4 149.6 133.3 124.9 139.9 144.5 153.6 153.1 147.2 139.7 132 120.2 101 86.5 80.6 93.5 107.8 117.6 122.2 124.3 124.5 126 129.2 134.8 138.8 143.9 149.9 155.5 158.7 159.3 157.7 154.9 153 151.5 149.6 147.1 144.3 142.3 139.4 134.5 136.2 141.7 144.3 148.3 155.3 160.5 165.7 169.4 171 170.2 167.4 161.7 147.2 131.6 117.5 107.3 106.1 117.4 122.7 122.6 125.7 126 124.4 120.2 106.3 97.6 105.6 117.8 130.6 137 141.6 145 145.6 146.3 146.4 147.7 149.5 153.1 158.3 162 164.9 167.2 167.3 167.3 167.2 166.2 166.2 165.9 164.8 164.5 164.9 164.4 163.2 162.2 161 159.5 158.1 156.3 154.8 153 151.5 150.1 148.7 147.4 147.1 149 150.7 152.5 154.3 156.2 157.6 157.8 157.7 156.9 155 152.7 148.1 143.9 139.9 138.4 137.5 139.4 140.1 138.9 137.9 136.7 133.9 128.5 124.5 117.5 116.3 117.2
-2.1 -2.1 -2.1 -2.1 -2.1 -2.1 -2.1 -2.1 -2.1 -2.1 -2.1 -2.1 -2.1 -2.1 -2.1 -2.1 -2.1 -2.1 -2.1 -2.1 -2.1 -2.1 -2.1 -2.1 -2.1 -2.1 -2.1 -2.1 -2.1 -2.1 -2.1 -2.1 -2.1 -2.1 -2.1 -2.1 -2.1 -2.1 -2.1 -2.1 -2.1 -2.1 -2.1 -2.1 -2.1 -2.1 -2.1 -2.1 -2.1 -2.1 -2.1 -2.1 -2.1 -2.1 -2.1 1.5 30.3 55.5 81.6 92 102.1 123.6 147.9 139.1 133.7 141.8 149.2 154.5 156.3 150.3 133.8 131.7 146.6 151.2 158.2 158.6 152.8 141.5 125 108.1 93.9 102.5 87.4 86.4 101.9 115.4 124.4 130.1 132.7 137.6 141.6 144 144.6 147.3 150.6 156.9 158.9 159.1 158.3 155.5 152 149.3 146.3 143.3 141.2 137.6 138.3 139.1 138.1 141.4 145.1 148.9 155.1 160.6 166.3 170.2 172.5 172.3 169.3 162 140.7 119.3 108.7 117 127.8 132.5 134.2 131.9 131.8 131.4 128.3 122 103.4 105.8 106.3 107.1 120 129.6 134.4 137.7 140.3 141 140.9 141.1 143.3 147 150.8 157.3 160.7 164.2 165.8 166.1 166.1 165.6 165.1 164.9 164.7 165.1 165.2 164.2 163.3 162.1 160.3 159.1 157.9 156.4 154.6 152.8 151.4 149.9 148 146.6 146.1 148 149.5 151.3 153.2 155.1 156.6 157.4 157.4 157.1 156.2 154.2 151.8 147.8 144.5 145 144.2 144.3 144.5 143.1 141.5 139.7 136 130.6 125 118.5 119.4 120.4
-2.1 -2.1 -2.1 -2.1 -2.1 -2.1 -2.1 -2.1 -2.1 -2.1 -2.1 -2.1 -2.1 -2.1 -2.1 -2.1 -2.1 -2.1 -2.1 -2.1 -2.1 -2.1 -2.1 -2.1 -2.1 -2.1 -2.1 -2.1 -2.1 -2.1 -2.1 -2.1 -2.1 -2.1 -2.1 -2.1 -2.1 -2.1 -2.1 -2.1 -2.1 -2.1 -2.1 -2.1 -2.1 -2.1 -2.1 -2.1 -2.1 -2.1 -2.1 -2.1 -2.1 -2.1 -2.1 1.4 12.9 40.3 71.8 96.7 107.8 128.2 152.3 150 140.3 141.9 147.8 153.4 156.1 150.1 135.3 137 149.6 156.2 161.8 160.9 152.4 134.9 112.9 101.2 108 113.7 99.2 85.7 91.9 106.3 120 129.9 138.5 143.2 147.2 148.9 150.5 152.9 155.9 159.7 161.1 160 159.5 156.5 152.5 149.6 146.9 143 140.4 140.8 140.7 140.7 140.2 141.4 144.4 149.7 154 159.7 165.3 170.1 172.9 173.3 169.6 159.1 135.3 113 118.9 135.8 143.5 143.8 140.8 138.2 136.8 135.2 130 120.8 104.5 112.1 115.4 111.4 108.1 117.5 126.2 129.7 132 133.7 135.6 135.8 137.6 141.7 145.7 151.2 157.3 161.5 164.1 164.2 164.5 163.7 163.8 164 163.2 164.9 164.3 163.1 162 160.9 159.3 157.4 156.2 155 153.9 152 151.1 149.1 147.7 146.2 145 146.4 147.9 149.4 151.6 153.8 155.6 156.7 157.1 157.4 157.3 156.4 155.1 153.2 152.2 150.9 149.5 148.6 147.3 145.4 143.3 140.8 137 130.5 124.4 121.4 123 122.8
-2.1 -2.1 -2.1 -2.1 -2.1 -2.1 -2.1 -2.1 -2.1 -2.1 -2.1 -2.1 -2.1 -2.1 -2.1 -2.1 -2.1 -2.1 -2.1 -2.1 -2.1 -2.1 -2.1 -2.1 -2.1 -2.1 -2.1 -2.1 -2.1 -2.1 -2.1 -2.1 -2.1 -2.1 -2.1 -2.1 -2.1 -2.1 -2.1 -2.1 -2.1 -2.1 -2.1 -2.1 -2.1 -2.1 -2.1 -2.1 -2.1 -2.1 -2.1 -2.1 -2.1 -2.1 -0.4 1.3 2.7 31.5 68 97.2 120.3 126.4 151.6 157.9 150.4 145.5 149.2 153.3 155 150.7 140.7 141 152.1 158.7 161.5 157.6 145.5 124.4 109.1 115.3 127.9 128.2 113.6 97.9 85.1 96.5 111.6 125.7 139.1 148.3 153.9 152.3 154.5 157.1 160.2 162.2 163.5 162.8 161.4 158.7 155 151.1 147.8 143.9 140.6 144.7 144.2 143.3 142.8 143.5 145 148.5 153.4 158.2 162.9 166.8 171.5 173 167.1 151.6 128.9 115.7 131.2 142.1 149.8 149.5 145.2 143.1 140.8 138.5 133.4 124.7 107.8 114.3 121.7 120.1 118 113.3 115 123.6 125.9 128.9 131.8 133.2 135.3 138 142.5 147.6 152.9 158 161.6 162.9 163.1 162.6 162.7 162.6 162.7 163 162.3 161.3 160.4 159.4 157.3 155.9 154.6 153.2 152 150.7 149.1 148.1 146.8 145.5 144.5 144.8 146.3 147.8 149.3 152 154.2 155.7 157 157.8 158.5 158.7 157.6 157 155.9 154.4 152.6 150.9 149.3 146.4 144.8 141.9 139.2 133 124.7 125.5 126.8 126.5
-2.1 -2.1 -2.1 -2.1 -2.1 -2.1 -2.1 -2.1 -2.1 -2.1 -2.1 -2.1 -2.1 -2.1 -2.1 -2.1 -2.1 -2.1 -2.1 -2.1 -2.1 -2.1 -2.1 -2.1 -2.1 -2.1 -2.1 -2.1 -2.1 -2.1 -2.1 -2.1 -2.1 -2.1 -2.1 -2.1 -2.1 -2.1 -2.1 -2.1 -2.1 -2.1 -2.1 -2.1 -2.1 -2.1 -2.1 -2.1 -2.1 -2.1 -2.1 -2.1 -2.1 -2.1 -0.3 1.3 6.1 35.1 60.4 94.4 115.3 120.4 149.7 166.8 158.2 151.2 153.8 156.7 156.8 153.9 144.7 142.1 155.2 163.2 165.5 159.3 139.3 118.9 123.4 136 143.9 140.8 127.2 111.8 96.1 88.6 101.5 115.3 129.4 141.7 149.4 153 156.5 159.9 162.2 164.3 164.8 163.3 162.4 158.9 155.3 151.9 147.6 144.8 144.1 147.2 147.1 146.2 144.9 143.6 145 146.8 151.4 155.5 160.9 164.2 166.9 167.6 161.3 146.1 119.6 123.5 138.2 146.1 153.5 154.3 150.3 147.1 144.1 140.8 135.5 124.9 112.7 108.4 116.9 123 125.2 123.7 120.8 117.6 119 123.6 126.9 130.3 133.4 136.3 138.6 143.6 149.9 154.3 159.5 161.2 161.9 161.6 161.4 160.7 161.7 161.3 160.5 159.7 158.6 157.6 155.7 154.2 152.8 151.5 150.2 148.9 148 146.8 145.5 144.7 143.7 143.7 145.3 146.3 147.6 149.6 152 154.6 156.5 158 159.3 160.3 160.3 159.1 158 156.3 154.5 152 149.7 146.8 144.7 141.6 137.6 130.9 128.3 130.1 129.9 128.8
-2.1 -2.1 -2.1 -2.1 -2.1 -2.1 -2.1 -2.1 -2.1 -2.1 -2.1 -2.1 -2.1 -2.1 -2.1 -2.1 -2.1 -2.1 -2.1 -2.1 -2.1 -2.1 -2.1 -2.1 -2.1 -2.1 -2.1 -2.1 -2.1 -2.1 -2.1 -2.1 -2.1 -2.1 -2.1 -2.1 -2.1 -2.1 -2.1 -2.1 -2.1 -2.1 -2.1 -2.1 -2.1 -2.1 -2.1 -2.1 -2.1 -2.1 -2.1 -2.1 -2.1 -0.1 0.9 2 26.7 51.5 71.3 96.5 122.2 147.2 163.5 177.4 168.5 158.6 159.7 160.5 160.3 157 150.4 145.4 157.4 164.9 167.9 161.1 139.1 125.9 142.6 154.3 156.2 152.2 142.6 124.6 109.7 95.4 89.7 101.4 116.7 133.2 143.8 149.5 154.4 158.9 162.2 164.7 166.5 165.4 163.9 160.8 156.7 153.4 148.7 145.5 146.7 149.3 149.8 148.4 147.1 145.7 145.9 147.3 150.1 152.9 157.5 161.2 163 160.9 148.9 126.9 118.8 131.5 144.6 151.4 157.3 158.8 154.7 149.7 147.1 142.4 134.2 127.9 124.8 118.1 111.9 118.4 125.9 127.8 127.1 126.6 125.5 125.6 125.7 125.1 128.4 134.1 137.5 140.9 147.8 152.3 156.6 159.3 160.5 160.4 160.1 159.5 159.5 159.6 158.9 158.2 156.8 155.6 153.8 152.3 150.9 149.8 148.8 147.8 146.8 145.9 145 144 143.1 142.9 143.8 144.8 146.4 148.6 151.1 153.6 155.8 158.1 159.6 161.1 161.3 161.2 159.4 157.9 155.5 151.9 149.2 145.8 142.4 138.3 133.7 132.5 133.5 135.4 133.8 130.9
-2.1 -2.1 -2.1 -2.1 -2.1 -2.1 -2.1 -2.1 -2.1 -2.1 -2.1 -2.1 -2.1 -2.1 -2.1 -2.1 -2.1 -2.1 -2.1 -2.1 -2.1 -2.1 -2.1 -2.1 -2.1 -2.1 -2.1 -2.1 -2.1 -2.1 -2.1 -2.1 -2.1 -2.1 -2.1 -2.1 -2.1 -2.1 -2.1 -2.1 -2.1 -2.1 -2.1 -2.1 -2.1 -2.1 -2.1 -2.1 -2.1 -2.1 -2.1 -2.1 -0.9 0.9 2.4 28.9 47.9 65.9 98.7 114.5 122.5 148.3 171.1 184.3 175.1 166.6 164.5 165.2 164.5 160.8 154.7 147.3 158.5 165.9 169.7 164.2 144.4 139.8 157.6 164 164.8 161.6 153.9 140.3 125.7 111.2 96.2 90.9 103.4 120.6 134.5 140 152.4 159.1 163.1 166.7 169.2 166.7 166.4 163.7 159.6 155.8 151.8 147 150.1 152.1 152.3 151 149.1 148.1 147.6 148.7 149.9 151.1 154.2 156.1 156.7 154.2 141.5 121.5 124.7 134.3 147.5 154.9 161 162 159.2 154.6 149.3 144.9 140.7 139.9 135.5 130.1 122.9 114.6 115.2 118.6 124.3 128.5 129.2 130.3 130.4 131.5 133.1 133.4 136.1 140.5 145.3 151.3 154.9 157.9 159.6 159.5 159.4 159.1 158.3 157.8 157 155.8 154.6 153.5 152.2 150.9 149.9 149 147.7 146.9 147.2 145 144.2 143.3 142.6 142.3 142.6 143.8 146 149.1 151.4 153.7 155.2 158.8 160.1 161.1 161.6 161.4 159.7 158.5 156 152.2 146 143.8 140.3 139.9 140.1 140.2 139.4 138.7 136.6 133.4
-2.1 -2.1 -2.1 -2.1 -2.1 -2.1 -2.1 -2.1 -2.1 -2.1 -2.1 -2.1 -2.1 -2.1 -2.1 -2.1 -2.1 -2.1 -2.1 -2.1 -2.1 -2.1 -2.1 -2.1 -2.1 -2.1 -2.1 -2.1 -2.1 -2.1 -2.1 -2.1 -2.1 -2.1 -2.1 -2.1 -2.1 -2.1 -2.1 -2.1 -2.1 -2.1 -2.1 -2.1 -2.1 -2.1 -2.1 -2.1 -2.1 -2.1 -2.1 -2.1 -1 0.8 2.7 54.9 57 76.1 114.6 136.9 143.4 157.7 198.3 191.1 182.7 173.8 172.4 171.3 168.6 163.8 158.4 151.8 159.4 166.7 171 167.3 148 150.5 164.8 171.1 170.8 167.9 161.8 154.4 141.2 123.4 108.6 96.7 93.4 108.4 121.1 137.5 147.6 154.1 161 166.2 169.4 169.5 168 165 161.2 157.1 152.6 150.1 153.9 154.5 154.1 153.1 151.3 150.2 149.4 149.7 150.7 150.7 150.4 149.7 148.3 145.1 139.3 121.5 130.8 141.4 149.8 157 164.5 164.8 161.8 158.3 153.7 150.5 149.2 145.9 141.4 137 131.7 118.6 123.6 124.7 121 122.4 129.9 132.4 133.6 135.5 136.4 137.4 137.5 139.4 144.8 149.1 153.8 156.7 158.8 159 159.1 158.7 158 157.3 156.1 154.9 153.9 152.7 151.5 151 150.4 149.6 148.7 147.8 147.6 147 146.5 145.2 143.7 142.1 141.3 143.2 145.7 149.2 151.6 154.3 156.3 158.7 160.4 161.3 161.7 161.5 160.5 158.9 155.8 151.5 150.6 148.9 147.9 146.1 145.1 144.3 143.2 141.5 138.8 136.4
-2.1 -2.1 -2.1 -2.1 -2.1 -2.1 -2.1 -2.1 -2.1 -2.1 -2.1 -2.1 -2.1 -2.1 -2.1 -2.1 -2.1 -2.1 -2.1 -2.1 -2.1 -2.1 -2.1 -2.1 -2.1 -2.1 -2.1 -2.1 -2.1 -2.1 -2.1 -2.1 -2.1 -2.1 -2.1 -2.1 -2.1 -2.1 -2.1 -2.1 -2.1 -2.1 -2.1 -2.1 -2.1 -2.1 -2.1 -2.1 -2.1 -2.1 -2.1 -2.1 -0.5 1.3 9.9 62.2 72.6 81.8 116.9 149.4 152.7 167.7 199.8 196.9 190 182.6 181 177.2 173.5 167.5 161.3 156.3 161.7 168.2 172.4 170.4 158 158.5 170.6 175 174.7 172 167.1 161.2 150.9 135.6 119.1 106.7 94.6 98.8 115.2 122.1 137.6 151.2 159.9 166.5 169.9 170.6 170.1 166.6 162.4 158.6 153.9 152.8 156.5 157 156.4 154.9 153.1 151.9 151.4 150.9 150.6 149.5 146.6 143.6 141.4 137 124.2 124.2 138.4 148.4 153.7 161.3 166.4 167.7 165.7 162.9 158.6 154.8 152.8 149.5 146.3 141.6 134.9 119.9 129.1 130.8 129.7 126.3 124.2 131.7 135.1 137.7 139.8 141.3 142.3 142.3 142.5 147.9 152.4 156.5 157.9 158.7 159.4 158.6 157.9 157 156.1 155.2 154.2 152.8 152.3 152.1 151.5 150.8 150 149.4 149 149.2 148.6 147.2 144.8 142.1 140.5 142.4 146.3 149 151.7 154.2 156.9 158.8 160.9 161.3 161.8 161.3 160.3 159.1 157.3 155.3 153.3 152.1 150.5 149.4 148.3 146.2 145 142 139.8 138.9
-2.1 -2.1 -2.1 -2.1 -2.1 -2.1 -2.1 -2.1 -2.1 -2.1 -2.1 -2.1 -2.1 -2.1 -2.1 -2.1 -2.1 -2.1 -2.1 -2.1 -2.1 -2.1 -2.1 -2.1 -2.1 -2.1 -2.1 -2.1 -2.1 -2.1 -2.1 -2.1 -2.1 -2.1 -2.1 -2.1 -2.1 -2.1 -2.1 -2.1 -2.1 -2.1 -2.1 -2.1 -2.1 -2.1 -2.1 -2.1 -2.1 -2.1 -2.1 -1.1 0.3 2 39.5 50.8 68 80.5 132.4 164.4 167.3 174.1 209.2 202.9 197.1 192.4 188.2 183.4 178.1 169 161.2 163.4 167.8 172.6 176.2 176.8 167.6 169.2 176.5 179.4 178.3 174.9 169.6 162.5 152.9 138 122.6 107.5 107.8 94.2 106 123 139.8 150.9 159.7 166.5 171.1 172.5 171.8 169.2 164.4 160 157 156.7 158.8 160.1 158.8 156.8 155.2 154.2 153.4 152.3 151.9 149.6 145.1 137.4 132 126.3 124.2 128.8 141.7 149.6 155.9 162.9 168.3 169.9 168.2 166.2 163.1 159.7 156.5 153.9 149.6 144.7 136.9 124.5 134.2 135.8 134.5 132.2 125.9 127.9 134.7 137.9 140.8 143.6 145.7 146.7 146.5 147.3 151.6 155.8 158.2 159.2 158.9 158 157.2 156.8 156.1 154.8 154.4 153.8 153.5 153.1 152.5 151.8 151 150.6 150.1 150.1 149.7 148 145 142.4 141.1 141.8 145.7 148.5 151.1 153.7 156.8 159.1 160.7 161.3 162 161.3 161 160.5 158.1 156.9 155.3 153.9 152.7 151 149.1 146.6 145.2 142.8 140.5 139.4
-2.1 -2.1 -2.1 -2.1 -2.1 -2.1 -2.1 -2.1 -2.1 -2.1 -2.1 -2.1 -2.1 -2.1 -2.1 -2.1 -2.1 -2.1 -2.1 -2.1 -2.1 -2.1 -2.1 -2.1 -2.1 -2.1 -2.1 -2.1 -2.1 -2.1 -2.1 -2.1 -2.1 -2.1 -2.1 -2.1 -2.1 -2.1 -2.1 -2.1 -2.1 -2.1 -2.1 -2.1 -2.1 -2.1 -2.1 -2.1 -2.1 -2.1 -2.1 -0.3 1 2.3 31.8 50.1 63.9 85.3 149.1 187.2 186.2 196.1 214.1 209.1 205 200.5 195.2 187.5 179.9 172.8 168.8 171 175.7 179 182.5 182.7 177.3 176 181.9 183.5 181.6 177.6 171 165 155.4 142.8 120.7 121.6 118.3 97.9 99.6 115.2 130.3 151.3 160.4 166.6 171.6 173.7 173.6 170.9 166.9 162.3 159 157.2 161.1 161.2 160.4 158.9 157.6 156.6 155.3 154.6 151.5 148.8 144.8 137 128.8 130.4 130.3 128.6 140.9 149 154.6 163.2 169.2 171.6 171.2 169.6 167 164.6 161.2 156.1 152.1 146.8 138.9 129.6 138.9 140.3 139.8 137.4 133.6 126.8 131.9 135.9 140.9 145 147.8 149.7 150.8 151.5 153.5 156 158.5 159.1 159.4 158.1 157.3 156.7 156.2 155.5 155.3 154.9 154.5 154.2 153.6 152.7 151.8 151.6 151.4 151.4 150.5 149.1 146 143 140.7 141.1 144.7 147.6 150.4 153 156.2 158.9 160.2 161.4 162 162.3 161 159.7 158.6 157.3 155.6 154.2 152.7 150 148.1 146.9 145.2 142.2 140.3 139.1
-2.1 -2.1 -2.1 -2.1 -2.1 -2.1 -2.1 -2.1 -2.1 -2.1 -2.1 -2.1 -2.1 -2.1 -2.1 -2.1 -2.1 -2.1 -2.1 -2.1 -2.1 -2.1 -2.1 -2.1 -2.1 -2.1 -2.1 -2.1 -2.1 -2.1 -2.1 -2.1 -2.1 -2.1 -2.1 -2.1 -2.1 -2.1 -2.1 -2.1 -2.1 -2.1 -2.1 -2.1 -2.1 -2.1 -2.1 -2.1 -2.1 -2.1 -2.1 -0.6 0.8 2.2 35.6 52.5 68.3 89.6 152 213.9 216.3 221.5 217.5 213.9 210.9 206.4 198.7 187.9 181.1 179 182.4 183.2 185.2 187.4 190.4 190.3 186.5 184.6 189.2 187.7 184.8 179.6 173.2 163.8 153 136.5 129.9 135 128.9 105.9 94.9 108.8 127.6 148.6 162.1 169.3 173.7 175 175.2 172.5 168.7 165.7 161.2 161.8 163.8 164.1 163.4 162.6 160.7 158 157.2 155 152.1 147.3 138 136.2 137.2 140 137.5 128.8 138.7 147.5 153.8 161.2 168.2 172.1 173.5 172.4 170.4 167.3 164 160 153.7 148.8 141 136.3 142.9 143.9 142.9 140.6 137.1 129.5 131.1 135 140.2 145.9 149.9 152.6 154.7 156.1 156.9 157.7 158.9 160 159.8 159 158.1 157.5 157 156.6 156.2 155.7 155.4 155.1 154.4 153.5 153 152.9 152.6 151.9 151 149.7 146.7 143.9 141.2 139.1 142.9 146.8 149.9 152.7 156.5 158.2 159.8 161.2 161.1 161.4 161.1 160.1 158.4 158 155.9 153.9 152.1 149.9 147.9 146.5 143.3 141.1 139.6 138
-2.1 -2.1 -2.1 -2.1 -2.1 -2.1 -2.1 -2.1 -2.1 -2.1 -2.1 -2.1 -2.1 -2.1 -2.1 -2.1 -2.1 -2.1 -2.1 -2.1 -2.1 -2.1 -2.1 -2.1 -2.1 -2.1 -2.1 -2.1 -2.1 -2.1 -2.1 -2.1 -2.1 -2.1 -2.1 -2.1 -2.1 -2.1 -2.1 -2.1 -2.1 -2.1 -2.1 -2.1 -2.1 -2.1 -2.1 -2.1 -2.1 -2.1 -2.1 -0.7 0.7 2.1 36.4 49.3 61.5 91.7 154.7 199.3 220.2 219 217.6 214.9 210.4 205.6 195.6 188.7 188.4 190.1 193.1 192.9 193.7 196.3 198 197.9 195.5 195.2 196.5 194.2 188.4 182.8 175.7 164.4 149.7 143 145 147.3 138.4 117.2 94.8 103.3 121.9 142.3 160.4 170.8 176.3 176.9 177 175.1 172.1 168.1 164.4 162.7 166.1 166.8 166.3 164.9 163.9 162.1 159.1 156 151.8 144 138 141.3 142 143.8 141.6 136 135.3 145.6 153.8 160 166 173.1 175.1 175 173 169.2 165.8 162.6 157.2 150 141.6 141 147.1 147.9 146 144.2 140 135 131.5 136.4 139.5 143.3 149.5 154 156.6 158.2 159.4 160.1 160.3 160.4 160.2 159.6 158.9 158.4 157.8 157.4 157 156.6 156.2 155.7 155.1 154.3 154 153.8 153.1 152.4 151.4 150.3 147.8 145.7 142.2 139.5 141.3 145.2 148.2 152.1 156.1 157.9 159.1 160.2 160.1 160.4 160.8 160 159 157.3 155.4 153.7 151.5 149.2 147.4 145.1 142.2 140.6 138.7 137.4
-2.1 -2.1 -2.1 -2.1 -2.1 -2.1 -2.1 -2.1 -2.1 -2.1 -2.1 -2.1 -2.1 -2.1 -2.1 -2.1 -2.1 -2.1 -2.1 -2.1 -2.1 -2.1 -2.1 -2.1 -2.1 -2.1 -2.1 -2.1 -2.1 -2.1 -2.1 -2.1 -2.1 -2.1 -2.1 -2.1 -2.1 -2.1 -2.1 -2.1 -2.1 -2.1 -2.1 -2.1 -2.1 -2.1 -2.1 -2.1 -2.1 -2.1 -2.1 -0.4 1.1 2.5 38.1 40.7 56.4 99.7 149.5 187.9 213.9 215.3 215.4 212.9 208.2 202.7 197.3 197.8 199.3 201.1 201.2 200.5 200.6 202.4 203.5 203.6 203.1 202.4 201.3 199.1 194.2 187.7 179.5 166 154.6 161.2 162.4 160.1 147.5 126.8 105.4 99.3 114.5 135.1 154.4 167.5 176 180.2 180 178.1 175.4 171.3 167.2 165.5 167.6 169.7 169.8 168.5 167.3 164.8 159.8 154.8 151.3 143.8 145.9 146 145.7 146.2 142.2 137.5 132.9 142.7 152 159.2 165.1 173.6 176.8 176.8 174.3 170.4 166.8 163.6 158.9 153.1 142.2 149.3 151.7 151.3 149.9 147.5 144.9 138.2 132.7 140.2 139.3 143.8 149 154.3 157.8 159.5 160.7 161.1 161.4 161.3 161.1 160.7 159.9 159.2 158.6 158 157.7 157.4 156.9 156.4 155.8 155.1 154.4 153.7 153.2 152.7 151.4 149.6 147 144.1 141.8 139.7 139.4 142.5 145.4 149.2 153.5 156.1 157.7 158.9 159.1 160.1 160.6 159.9 159.2 157.7 156 154.3 152.2 150.3 148 145.6 142.6 140.4 138.4 136.6
-2.1 -2.1 -2.1 -2.1 -2.1 -2.1 -2.1 -2.1 -2.1 -2.1 -2.1 -2.1 -2.1 -2.1 -2.1 -2.1 -2.1 -2.1 -2.1 -2.1 -2.1 -2.1 -2.1 -2.1 -2.1 -2.1 -2.1 -2.1 -2.1 -2.1 -2.1 -2.1 -2.1 -2.1 -2.1 -2.1 -2.1 -2.1 -2.1 -2.1 -2.1 -2.1 -2.1 -2.1 -2.1 -2.1 -2.1 -2.1 -2.1 -2.1 -2.1 -0.5 1.3 3.4 44 49.2 66.9 100.4 156.9 198.6 204.4 211.8 213.8 212.6 210.7 205.7 205.7 207.4 208 206.5 206.1 206.1 205.5 206.7 207.8 206.9 205.9 205.7 204.9 202.6 198 191 178.9 167.7 167.6 172.7 174.4 170.9 158.8 135.9 116.3 96.6 109.9 127.9 146.3 164.4 175 181.1 182 180.6 177.5 174.2 171.3 169.5 169.7 171.6 173.8 172.2 171.3 167.2 162.8 161.7 156.3 149.9 153.6 152.1 149.8 149.7 147.4 141.6 135.1 140.4 150.4 158 165.4 173.4 178.2 178.6 175.7 171.2 167.2 163 158.9 153.8 144.3 151.9 154.5 154.5 153.7 151.9 148.2 144.2 134.2 143.3 147.3 149.7 148.8 154.8 158.7 160.3 161.2 161.9 162 162.8 162.3 161.8 161 160.2 159.6 159.3 158.6 158.4 157.7 157.1 156.3 155.4 154.6 154.1 153 152.4 151.3 149.6 147.9 146.8 145 142 138.4 138.8 141.9 145.1 149.6 153.4 155.5 156.3 158.3 160.2 160.7 160.3 159.6 158.6 157.1 155.4 153.1 151 148.7 146 143.1 140.3 138.2 136.6
-2.1 -2.1 -2.1 -2.1 -2.1 -2.1 -2.1 -2.1 -2.1 -2.1 -2.1 -2.1 -2.1 -2.1 -2.1 -2.1 -2.1 -2.1 -2.1 -2.1 -2.1 -2.1 -2.1 -2.1 -2.1 -2.1 -2.1 -2.1 -2.1 -2.1 -2.1 -2.1 -2.1 -2.1 -2.1 -2.1 -2.1 -2.1 -2.1 -2.1 -2.1 -2.1 -2.1 -2.1 -2.1 -2.1 -2.1 -2.1 -2.1 -2.1 -2.1 -0.5 1.2 32.6 61.4 66.9 75.2 106.1 156.8 181.9 193.9 205.7 210.4 213.2 214.1 210.8 210.3 211.2 209.3 207.7 207.3 207.6 207.7 208.7 209.5 209.3 209 207.7 205.6 202.9 198.4 191.6 181.6 178.2 179.1 182.3 182.4 179.1 170.8 144.1 123.6 105.8 109.5 123.8 142.2 161.8 177.1 182.3 183.4 182.7 180.2 176.8 175.4 174.3 174.1 175.9 175.9 176.6 175.7 172 169.8 165 159.2 156 158.5 157.6 155.2 154 150.8 145.8 139.5 137.8 147.2 156.2 164.4 173.6 179.2 180.5 176.6 172.1 167 163.4 159.5 155.4 147.9 149.2 154.8 156.5 157.1 156.4 154 149.9 139 141.8 149 152.4 154.1 153.8 158.6 161.2 161.6 162 162.1 163.4 163.4 162.8 162.1 161.4 160.6 159.5 158.8 158.6 158.2 157.6 156.7 156.1 154.9 154.1 153.2 152.2 151.5 150.2 149.7 148.5 146.5 143.7 140.5 137.4 137.7 141.5 145.7 147.7 151.5 155.4 158.8 160.5 161.2 161 160.1 159.2 158 156.5 154.6 151.8 148.8 146 143.3 140.4 138.1 136.4
-2.1 -2.1 -2.1 -2.1 -2.1 -2.1 -2.1 -2.1 -2.1 -2.1 -2.1 -2.1 -2.1 -2.1 -2.1 -2.1 -2.1 -2.1 -2.1 -2.1 -2.1 -2.1 -2.1 -2.1 -2.1 -2.1 -2.1 -2.1 -2.1 -2.1 -2.1 -2.1 -2.1 -2.1 -2.1 -2.1 -2.1 -2.1 -2.1 -2.1 -2.1 -2.1 -2.1 -2.1 -2.1 -2.1 -2.1 -2.1 -2.1 -2.1 -2.1 0.4 1.8 39.6 69.7 83 82.7 102.8 151.8 167.5 181.5 190.7 199.7 209.6 214 212.6 211.9 210.1 206.9 204.1 202.5 203.8 207 209 210.2 210 209.5 208.3 205.6 203.5 199 194.8 190.9 188.1 188.1 188.4 187.5 183.7 176.3 157.4 132.8 110.8 113.4 131.8 148.6 168.9 179.1 184.2 186.3 185.1 183.1 178.1 179.7 178.6 177.8 177.9 181.4 182.1 181.1 178.9 175.8 169.3 161.9 162 163.9 163.1 161.6 159 155.7 150.4 145.8 143.3 142 152.7 163.3 172.6 179.5 180.6 178.4 175 169.2 164.9 161.5 158.3 154.3 151 155.4 156.6 157.7 157.6 156.7 153.3 142.5 140.9 149.4 154.1 156.8 158.2 159.6 161 161.9 161.7 161.9 163.4 163.1 162.7 162.1 161.6 160.7 159.5 159 158.7 158.3 157.7 156.8 156.3 155 154.2 153.2 152.1 151.1 150.6 150.2 149.6 147.9 145.4 142.3 140 136.8 135.8 139.6 144.3 149.2 154.1 157.4 159.5 160.8 161.1 160.6 159.7 158.4 156.7 154.7 151.4 148.4 145.4 142.6 140.3 137.9 135.9
-2.1 -2.1 -2.1 -2.1 -2.1 -2.1 -2.1 -2.1 -2.1 -2.1 -2.1 -2.1 -2.1 -2.1 -2.1 -2.1 -2.1 -2.1 -2.1 -2.1 -2.1 -2.1 -2.1 -2.1 -2.1 -2.1 -2.1 -2.1 -2.1 -2.1 -2.1 -2.1 -2.1 -2.1 -2.1 -2.1 -2.1 -2.1 -2.1 -2.1 -2.1 -2.1 -2.1 -2.1 -2.1 -2.1 1 0.8 1.4 2.1 2.7 2.4 20.9 45.7 73 85.7 105.8 121.3 134.1 150.5 163 174 187.6 199.6 208.5 213.3 212 209.9 205.8 201.8 196.9 197.1 201.9 206.1 207.4 206.8 206 204.1 202.1 199.6 199.1 198 194.1 191.3 191.1 188.2 184.8 180.4 171.8 156.8 133 110.4 119 137.1 155.1 171.3 180.7 187.4 189 187.9 186 184.6 184 183.1 181 183.9 185.6 187.1 186.5 184.9 181.6 176.5 169.4 171.2 171 168.9 167.3 165.7 160.9 155.4 151.9 148.5 146 147.5 160.2 170.2 178.8 181.3 179.1 176.1 171.6 167.3 164.6 159.9 156.1 155.3 158 158.4 158.8 157.6 155.1 151.3 143.5 144.5 146 154.5 158.3 160.2 161.1 161.6 161.9 161.2 162 163.3 163.2 162.7 162.1 161.6 160.5 159.6 159.2 158.7 158.5 157.6 156.8 155.7 154.6 153.5 152.2 151.4 151 150.5 150.1 149.5 148.9 146.9 144.8 143.3 139.6 136.1 135.6 140.7 146.8 152 154.1 155.8 158.1 159.6 159.6 158.8 157.5 156 153.3 150.9 147.8 144.8 141.9 139.5 137.7 135.6
-2.1 -2.1 -2.1 -2.1 -2.1 -2.1 -2.1 -2.1 -2.1 -2.1 -2.1 -2.1 -2.1 -2.1 -2.1 -2.1 -2.1 -2.1 -2.1 -2.1 -2.1 -2.1 -2.1 -2.1 -2.1 -2.1 -2.1 -2.1 -2.1 -2.1 -2.1 -2.1 -2.1 -2.1 -2.1 -2.1 -2.1 -2.1 -2.1 -2.1 -2.1 -2.1 -2.1 -2.1 -2.1 -0.2 22.3 21.2 30.2 43.8 37 37.6 59.5 84.4 89.8 105.5 118.9 127.9 136.7 145.4 161.2 178.2 190.3 199.8 207.3 212.6 213.4 211 206.4 201.7 196.5 188.4 193.4 198.7 200.9 199.2 196.9 196.4 193.2 186.8 185.6 180.5 174.2 171.6 170.2 165.5 162.3 157.2 152.4 141.1 125.3 114.7 126.5 143.2 161.2 171.2 184 189.8 191.5 191.2 189.7 189 189.4 188 188.2 188.5 190.7 191.8 191.5 189.3 186.8 183 180.3 180.2 179.2 176.8 175 172.1 166.9 163.4 157.8 154.5 151.1 149.9 152.8 164.8 174.3 180 179.4 177 173.1 169.9 166.2 162.9 159.8 159.5 160.4 160.4 160.3 159 155 150.9 148.9 151.4 147.7 150.7 157.4 160.3 161.5 162 162.6 161.3 163.1 162.9 162.2 162.4 162.1 161.1 160 158.9 158.5 158.6 158.5 157.4 156.5 155.4 154.3 153.1 151.7 150.7 150.1 149.5 149.9 149.9 149.5 148.5 147.2 145.6 143 138.6 134.8 135.6 142.6 146.5 148.9 151.9 154.9 157 157.5 156.7 155.8 154.2 152.4 150.4 148 144.8 141.9 139.2 137.1 135.6
-2.1 -2.1 -2.1 -2.1 -2.1 -2.1 -2.1 -2.1 -2.1 -2.1 -2.1 -2.1 -2.1 -2.1 -2.1 -2.1 -2.1 -2.1 -2.1 -2.1 -2.1 -2.1 -2.1 -2.1 -2.1 -2.1 -2.1 -2.1 -2.1 -2.1 -2.1 -2.1 -2.1 -2.1 -2.1 -2.1 -2.1 -2.1 -2.1 -2.1 -2.1 -2.1 -2.1 -2.1 -2.1 -2.1 1.6 17.7 62.4 68.2 65.5 61.7 74.5 97.7 120.2 129.1 139.8 143.7 152.5 160.4 171.1 182.5 194.8 204.5 210 211.7 210.2 206.7 203.1 199.2 193.3 186.1 184.9 185.8 183.5 178.4 174.1 168.5 164.9 159.7 157.7 151.8 147 145 145.4 141.8 136.3 132.8 128.6 120.9 116.9 119.4 133.6 152.2 165.7 172.9 187.2 192.3 194.3 194.1 193.6 194.3 193.9 195.1 195.6 195.9 196 197.1 197.2 194.7 192.3 190.5 189.2 186.9 186.6 183.8 181.6 177.9 175.1 170.7 165.1 160.6 157.4 155.8 156 157.4 169.3 177.5 180.1 178.8 176.4 172.9 169.1 165.6 164.6 163.5 163 162.6 162.2 161 159.1 157.2 155.2 155.4 154.6 149.5 153.5 158.6 161.1 161.9 162.6 161.3 162.6 162.1 162 161.7 161.2 160.3 159.2 158 157.5 157.5 157.4 157.1 156.1 155.2 153.9 152.9 150.9 149.4 148.3 148.3 149 149.7 149.8 149.6 148.4 147.4 144.3 141.4 136.5 135.4 134.2 136.2 141 146.4 151.1 153 154.4 153.9 153.3 152.4 150.8 149.2 147.6 144.8 141.9 139 136.8 134.3
-2.1 -2.1 -2.1 -2.1 -2.1 -2.1 -2.1 -2.1 -2.1 -2.1 -2.1 -2.1 -2.1 -2.1 -2.1 -2.1 -2.1 -2.1 -2.1 -2.1 -2.1 -2.1 -2.1 -2.1 -2.1 -2.1 -2.1 -2.1 -2.1 -2.1 -2.1 -2.1 -2.1 -2.1 -2.1 -2.1 -2.1 -2.1 -2.1 -2.1 -2.1 -2.1 -2.1 -2.1 -2.1 -2.1 1.9 2.7 47.6 88.1 86.3 83.2 102.4 121 136.3 147.3 160.4 166.2 173.4 178.9 183.9 190.6 201.3 208.2 210.7 209.7 206 201.8 197.4 193 185.7 180.7 171.6 168.3 161.3 154.3 150.8 146 140.7 137.7 135.9 133.1 131.8 126.4 125.7 123.3 121.2 122 122.1 122 120.2 121.8 142.7 156.3 167.9 178.5 191.6 196.4 197.8 197 196.8 197.8 200.3 201.8 202.4 203.3 203.4 203.8 203.2 202.1 200.3 200.1 199.7 197 193.4 190.5 188.9 186.4 183.6 179.2 174.3 169.5 164.2 162.7 163.1 163 166.1 176.4 180.5 180.4 178.3 175.1 171.9 170.2 168.8 166.7 166.5 166.2 165.4 163.7 162.3 160.5 159.8 160.5 159.2 156.7 157.4 158.2 159.7 161.9 162 163 162.2 161.3 160.9 160.8 160.2 158.9 156.9 156.1 155.9 156 156.2 156.1 155.6 154.2 153.1 151.8 150.3 148.6 147.2 146.6 147.9 148.6 149.4 149.8 149.5 148.7 147.6 144.5 141.5 138.4 135 133 134 139.5 144.6 147.8 149.6 151.2 151.4 150.6 149.4 149.1 147.1 145.5 142.8 139.3 137 135.2
-2.1 -2.1 -2.1 -2.1 -2.1 -2.1 -2.1 -2.1 -2.1 -2.1 -2.1 -2.1 -2.1 -2.1 -2.1 -2.1 -2.1 -2.1 -2.1 -2.1 -2.1 -2.1 -2.1 -2.1 -2.1 -2.1 -2.1 -2.1 -2.1 -2.1 -2.1 -2.1 -2.1 -2.1 -2.1 -2.1 -2.1 -2.1 -2.1 -2.1 -2.1 -2.1 -1.9 -0.9 1.4 26.7 29.3 51.3 43 77 117.9 115.7 124.2 140.5 154.4 167.4 182.1 188 190.6 196.2 198.4 202.8 210.8 213.9 212.6 209 202.5 195.2 191.7 185.9 183.5 181 183 182.7 176.7 168.1 158.6 156.9 153.3 149.4 146.7 140.9 142.2 137.7 134.3 131.1 130.8 130.9 129.5 130.6 129.7 122.4 146.5 164.8 174.2 185.5 193.4 198 200 201.4 201.7 202.4 204.8 205.9 206.6 207.1 208.2 209.5 209.2 208 207.1 207.2 206.8 206.8 203.2 199.3 198 194.2 192.2 187.5 183.5 178.7 174.9 171.5 170.5 170.1 168.3 176 181 182 180.2 177.7 175.1 174.4 173.2 172.2 170.6 170 168.6 167 165.5 164.8 164.4 164.4 164.3 162.3 162.2 160.8 161 161.8 162.3 162.8 161.9 160.6 159.4 158.6 158.3 156.2 154.5 154 153.5 153.5 153.6 153.7 153.3 152.5 151.5 150.2 149.1 147.9 146.4 144.8 146 147.5 148.3 149.3 149.6 149.1 148.8 147.5 145.8 143.6 139.8 136.6 133 133 138 141.3 143.4 145.5 148.6 149.2 149.1 148.4 147.7 146.2 144 141.4 138.1 136
-2.1 -2.1 -2.1 -2.1 -2.1 -2.1 -2.1 -2.1 -2.1 -2.1 -2.1 -2.1 -2.1 -2.1 -2.1 -2.1 -2.1 -2.1 -2.1 -2.1 -2.1 -2.1 -2.1 -2.1 -2.1 -2.1 -2.1 -2.1 -2.1 -2.1 -2.1 -2.1 -2.1 -2.1 -2.1 -2.1 -2.1 -2.1 -2.1 -2.1 -2.1 -2.1 0.1 1 2.3 12.9 57.5 51.5 54.3 84.8 138.3 135.1 140.7 153.6 169.4 192.1 201.6 207.3 207.3 210.6 213.9 216.4 219.9 221.1 217.4 211.9 204.7 200 193.6 191.7 189.4 190.4 190.2 184.2 174.2 171.1 174.7 174.1 165.9 158.7 156.9 150.6 151.5 151.9 145.9 145.3 143.8 140.9 139.7 142.5 145.6 140.9 144.8 168.3 179.6 187.3 194.3 198.8 200.9 203.4 204.2 205.5 207.3 208.2 209.4 210 211.2 212.6 213 212.4 212.8 213.3 213.4 214.5 213.4 210.3 210 205.4 202.7 197.1 192.4 187.6 181.9 179.2 178.2 177.4 173.2 179.1 182.5 183.5 183.3 181.2 179.2 177.5 176.7 175.9 175.2 174.2 172.2 171.3 169 168.2 168.5 167.9 167.4 166.9 165.7 165.3 164.4 163.1 162.6 163.7 163.2 162.1 160.5 157.8 155.8 153.7 151.9 149.8 149.7 150.8 150.5 150.4 150.2 150.4 149.8 149 147.9 147 145.5 143.4 143.3 144.6 146.6 148 149.2 149.1 148.8 148 148.1 146.4 144.2 140.6 137.6 132.9 131.3 134.4 137.2 140.1 144.7 147.8 147.9 148.4 147.7 146.7 144.7 142.3 138.4 136.9
-2.1 -2.1 -2.1 -2.1 -2.1 -2.1 -2.1 -2.1 -2.1 -2.1 -2.1 -2.1 -2.1 -2.1 -2.1 -2.1 -2.1 -2.1 -2.1 -2.1 -2.1 -2.1 -2.1 -2.1 -2.1 -2.1 -2.1 -2.1 -2.1 -2.1 -2.1 -2.1 -2.1 -2.1 -2.1 -2.1 -2.1 -2.1 -2.1 -2.1 -2.1 -2.1 2.7 6.9 15.5 31.1 62.9 64.3 75.5 95 151.7 145.2 156.1 164.6 189 215.4 221.9 224.7 226.1 227.7 228.6 230.4 228.9 227.3 223.5 217.7 211.8 205.9 203.8 200.3 198.2 200.2 196.6 186.8 187.8 188.7 194.4 191.3 180.1 170.2 173.1 160.9 168.3 168.2 162.8 163.1 156.2 155.5 154 159.9 170.2 168.7 154.2 159.3 177.2 189 196.4 199.8 201.9 203.8 205.2 207.5 209.1 210.6 211.6 212.5 213.2 213.9 214.6 214.5 214.2 215.5 216.8 218.2 218.6 218.7 218 215.2 210 206.2 201.5 195.9 189 186.1 184.1 182.2 179.5 181.4 184.9 187.2 187.6 186.9 185.3 182.6 181.3 179.9 178.8 177.6 176.7 174.8 172.8 172.7 172.7 172.1 170.9 169.7 168.1 166.8 165.9 164.9 165.3 165.1 164.5 162.5 160.9 159 157.2 155.6 153.2 151.3 148.5 146.4 146.5 147.5 148.3 147.8 147.8 147.3 146.5 146 144.7 143 140.8 142.5 144.1 146.4 147.3 148.6 149.1 148.5 148.5 147.6 145.9 143.3 140.7 136.9 131.2 131.2 133.1 135.8 140.8 143.9 146.4 147.9 148.3 147.7 146 144 141.4 139.3
-2.1 -2.1 -2.1 -2.1 -2.1 -2.1 -2.1 -2.1 -2.1 -2.1 -2.1 -2.1 -2.1 -2.1 -2.1 -2.1 -2.1 -2.1 -2.1 -2.1 -2.1 -2.1 -2.1 -2.1 -2.1 -2.1 -2.1 -2.1 -2.1 -2.1 -2.1 -2.1 -2.1 -2.1 -2.1 -2.1 -2.1 -2.1 34.8 48.5 53.3 46.2 42.6 37.6 48 66.2 77.9 93.9 90.7 105.6 154.9 179.8 179.3 181.6 204.2 229.2 236.6 238.7 239.7 241.1 241.2 239.5 238.5 234.3 227.1 220.2 220 218 216.6 211.3 210.3 210.2 203.7 196.8 200.9 204.8 206 202 192.9 187.4 186.8 177.9 187.8 187.8 185.9 181.1 177.9 174.8 176.2 179 190.8 190.2 178.6 163 168.1 182.1 192.1 197.8 201.5 203.8 206.6 208.9 210.2 211.4 212.4 212.8 213.4 213.6 214.3 215.2 215.6 217.6 219.4 219.8 221.1 222.6 221.1 219 214.1 210.7 208 204.1 197.5 193.4 189 184.5 183.2 183.8 186.3 189.7 192.2 192.1 190.1 189 187.4 185.3 185.3 183.3 182.1 179.5 178.1 177.5 176.6 174.8 173.4 172 170.2 168.9 167.7 167.7 166.9 166.3 164.6 162.9 160.8 158.8 156.5 154.3 152.3 150.9 149.3 147.3 144.6 144.2 145.8 146.2 146.6 146.2 145.8 145 144.2 142.6 140.8 139.9 141.9 145.1 147.2 147.6 148.3 148.5 148.3 147.5 146.6 144.7 142.5 139.3 133.2 130 131.2 134.3 137.3 141.9 145.7 148.7 149.3 148.7 148 146.4 144.4 142.8
-2.1 -2.1 -2.1 -2.1 -2.1 -2.1 -2.1 -2.1 -2.1 -2.1 -2.1 -2.1 -2.1 -2.1 -2.1 -2.1 -2.1 -2.1 -2.1 -2.1 -2.1 -2.1 -2.1 -2.1 -2.1 -2.1 -2.1 -2.1 -2.1 -2.1 -2.1 -2.1 -2.1 -2.1 -2.1 -2.1 -2.1 69.8 80.9 89.9 87.4 76.3 64.3 67.6 75.8 89.2 101.4 109 112.7 130.1 167.1 210.5 208.7 210.1 227.5 235.5 241.8 245.3 247.2 248.3 247.9 245.9 241.8 237.4 231.4 229.9 228.9 227.5 225.3 221.6 221.5 218.4 211.5 205.9 211.4 214.1 214.1 211.2 203.3 204.6 196.9 187.5 197.6 206.1 207.2 204.7 203 203.2 201.1 201.7 201 199.7 193 180.9 180.9 176.6 184.7 194.1 199.3 202.5 206.2 208.5 209.7 210.6 211.5 212.2 212.2 212.2 213.6 214.9 216.1 217.9 219.3 220.8 221.3 221.1 219.6 218 215.2 212.3 209.4 205.8 202.4 197.7 194 189.7 186.3 186.5 188.7 192.9 195.6 196.6 195.6 194.4 193.5 192.5 192.5 191 188.5 185.7 183.7 181.4 180.1 177.6 175.6 174.4 172.3 171.1 169.9 169.9 167.8 167.4 165.4 163.2 160.8 158.4 156 154 151.9 149.8 148.4 146 144.1 142.1 142.5 144.3 144.7 145.1 144.8 144.7 143.7 142.7 141.3 139.2 138.7 143.4 144.9 145.4 146.8 146.8 147.5 146.9 145.9 144.9 142.7 139.9 136 129.9 129.9 133.2 138.2 143.2 146.8 149.4 150.6 150.2 149.6 148.4 146.8 145
-2.1 -2.1 -2.1 -2.1 -2.1 -2.1 -2.1 -2.1 -2.1 -2.1 -2.1 -2.1 -2.1 -2.1 -2.1 -2.1 -2.1 -2.1 -2.1 -2.1 -2.1 -2.1 -2.1 -2.1 -2.1 -2.1 -2.1 -2.1 -2.1 -2.1 -2.1 -2.1 -2.1 -2.1 -2.1 -2.1 74.4 92.8 103 111.4 117.1 107.1 104.1 98.7 102.6 108.1 131.4 134.9 137.8 162.5 193 209.8 218.3 224.5 230 237.6 244.7 248.7 251.2 252 252.1 249.9 246 240.9 236 236.4 238.2 236.5 233.9 232 228.6 225 218 211 217.4 220.5 219.4 217.5 215.1 213.4 207.1 196.5 208.5 214 215.6 217.6 217.2 216.6 214.5 212.5 210.2 208.3 204.4 200.3 198.5 191.3 192.9 196 199.5 202.9 205.2 207.2 209.3 210.8 210.8 210.8 210.9 211.3 211.9 212.8 214.3 215.9 217.5 217.7 217.5 217.5 216.6 215.4 213.2 210.4 207.3 204.2 201.2 198.7 196.8 194.4 191.4 190.3 192.8 196.8 199.2 199.9 199.6 198.5 197.5 197 197 195.8 194.1 192.2 189.1 186.1 183.5 182.2 179.3 176.8 175.4 173.5 171.7 171.3 170.1 168.6 166.3 164.1 161 158.4 156.3 154.4 152.3 150.7 148.8 146.6 145.3 143 141 141.3 143 143.9 144 144 143.8 142.8 141.9 140.2 137.6 140.4 142.5 144 145 144.8 144.8 144.1 143.6 143.5 142.3 141 136.7 130 129.1 133.9 140.6 144.7 147.6 150.1 151.3 151.6 151.1 150 148.6 146.9
-2.1 -2.1 -2.1 -2.1 -2.1 -2.1 -2.1 -2.1 -2.1 -2.1 -2.1 -2.1 -2.1 -2.1 -2.1 -2.1 -2.1 -2.1 -2.1 -2.1 -2.1 -2.1 -2.1 -2.1 -2.1 -2.1 -2.1 -2.1 -2.1 -2.1 -2.1 -2.1 -2.1 -2.1 -2.1 -2.1 94.2 111.6 122.9 130.8 139.3 146.3 148.1 141.7 138.6 146 170.6 178.2 172.3 196.4 199.8 204.9 214.8 223.8 228.7 234.5 241.4 247.8 251.4 253.2 253.7 252.6 249.8 247 243.1 242.2 241.4 243.1 242.1 239.2 235.6 231.9 226 216.1 224.1 225.5 224.3 223 221.7 220.7 216.8 209.9 218.1 221.4 223.2 224 223.8 223.1 221.5 219.5 217 214 210.1 206 203.4 202.6 201.4 200.9 202 203.9 205.7 207.6 209.2 210.3 210.7 210.3 210.1 209.5 209.9 211 212.2 213.9 214.3 213.7 213.8 212.1 211.3 210.4 208.1 204.1 201.1 199 197.2 195.7 195.8 195.5 195 195.5 199.4 201.6 202.8 203.4 203 202.1 200.5 199.6 199.8 199.5 197.8 195.5 193.4 191.2 189.6 186.6 183.3 180.5 178.6 175.6 174.7 172 170.5 169.1 166.8 164.8 161.8 158.7 157 154.3 152.6 150.8 149 147.1 145.2 142.6 140.9 139 140.9 142.9 143.4 143.7 143.5 143.3 142.3 140.8 138.6 137.2 140.2 141.5 139.7 142 140.7 138.4 141.2 141.1 140.9 139.5 137.3 130.4 128.6 136.2 141.1 145 148.3 150.8 151.9 152.4 152.4 151.3 150.2 148.3
-2.1 -2.1 -2.1 -2.1 -2.1 -2.1 -2.1 -2.1 -2.1 -2.1 -2.1 -2.1 -2.1 -2.1 -2.1 -2.1 -2.1 -2.1 -2.1 -2.1 -2.1 -2.1 -2.1 -2.1 -2.1 -2.1 -2.1 -2.1 -2.1 -2.1 -2.1 -2.1 -2.1 -2.1 -2.1 -2.1 104.4 125.1 140.5 150.1 158.6 163.8 169.3 174.9 179.3 184.1 189.1 194.8 200 204.9 209.8 213.7 217.8 222.7 232.3 236.8 240.8 244.1 247.8 249.9 253.3 253.4 251.1 250 249.4 247.9 247.1 247.3 246.1 244.3 241.3 238.1 233.3 222.6 229.8 230.9 230 228.6 227.5 226.2 224.2 220.4 225.2 227.8 228.7 229.3 229.3 228 226.5 224.3 221.7 218.6 214.8 211 207.9 205.9 204.7 203.6 203.6 204.2 205.4 206.8 208 209.1 209.7 209.4 208.9 208.2 208.1 208.9 209.8 210.7 210.4 209.3 208.5 206.5 204.4 203.5 200.7 195.4 193.8 193.8 193.3 192.6 192.6 193.7 195.4 197.4 200.7 203.4 205 206.2 206.1 205.3 204 202.7 202.5 201.5 200 198.2 196.8 194.2 191.9 189.2 185.9 182.6 179.6 177.2 175.5 172.7 170.9 168.8 167.2 164.8 162.6 159.4 157 154.6 152.6 151.1 148.9 147 144.9 142.5 140.3 138.6 139.1 141.4 142.6 142.8 143.5 143.4 142.1 139.5 137.9 133.1 136.7 136.7 137.7 138.7 137.5 137.9 139 138.6 138.6 137.8 136.3 130.6 128.2 136 140.1 143.8 147 149.7 151.4 152.5 152.6 152.3 151.5 149.4
-2.1 -2.1 -2.1 -2.1 -2.1 -2.1 -2.1 -2.1 -2.1 -2.1 -2.1 -2.1 -2.1 -2.1 -2.1 -2.1 -2.1 -2.1 -2.1 -2.1 -2.1 -2.1 -2.1 -2.1 -2.1 -2.1 -2.1 -2.1 -2.1 -2.1 -2.1 -2.1 -2.1 -2.1 -2.1 40.1 2.7 8.7 144.3 158.2 167.9 174 177.4 181.5 185.4 188.3 191.4 195.9 201.1 206.3 210.8 215 220.5 222.9 230.7 236 240.7 244.1 246.8 248.2 249.9 251.5 251.4 251.4 251.9 252.2 251.3 251.7 251 249.5 247.2 243.7 239.9 233.8 237.1 236.8 235.2 233.5 231.9 231.1 229.5 228.2 230.8 232.1 233 233 232.8 232.5 230.6 228.2 225.1 222.1 217.8 213.8 210.6 207.8 205.9 204.7 204.1 204 204.5 204.7 206 207.4 207.7 207.6 207.2 206.3 206.1 206.4 207.1 207.3 206.5 205.3 202 200.6 198.4 196.6 193.5 190.4 188.1 188.3 188.3 188.1 188.2 189.2 192.6 195.8 198.3 201.2 202.8 204.7 206 205.8 205.5 205.3 204 202.6 201.3 199.9 197.8 195 192.1 189.4 186.5 183.2 178.8 178.6 175.6 173.4 169.7 168 165.5 163.5 161.4 159.3 157.6 155.3 153 150.7 148.8 146.5 144.3 142.7 140.5 138.1 138.3 140.8 141.4 141.9 142.4 141.5 139.5 137.3 135.1 132.6 132 133.9 132.7 135 134.2 136.8 134.7 134 135.8 135.4 134.2 130.1 127.9 134.6 138.2 141.8 144.7 147.2 149.1 150.8 152 152.5 151.5 150.4
-2.1 -2.1 -2.1 -2.1 -2.1 -2.1 -2.1 -2.1 -2.1 -2.1 -2.1 -2.1 -2.1 -2.1 -2.1 -2.1 -2.1 -2.1 -2.1 -2.1 -2.1 -2.1 -2.1 -2.1 -2.1 -2.1 -2.1 -2.1 -2.1 -2.1 -2.1 -2.1 -2.1 -2.1 -2.1 -2.1 2.7 2.7 106.3 164.5 173.9 177.3 178.9 180.8 183.8 186.9 190.5 195.1 199.9 205.9 210.1 215.3 221.3 227.1 231.3 235.8 240 242.8 245.9 247.8 249.1 250.4 251.8 252.3 252.9 254.3 255.3 255.2 255.3 254.2 252 248.7 245.9 242.8 243 242.4 240.6 238.1 235.6 234.6 232.6 233.8 235.2 236.2 236.5 237 236.8 235.6 234 231.3 227.6 224.5 220.3 215.9 212.4 209.2 206.5 204.6 203.6 202.9 202.4 202.3 202.9 204.3 205.5 205.3 204.9 204.3 204.5 205.4 204.5 205.1 203.5 201.7 199.1 195.9 192.8 190.6 187.4 186.2 184.2 184 183.9 183.7 183.8 185.7 189.1 192.3 196.2 198.8 199.9 202.3 204 205.1 205.6 205.4 204.5 203.6 202.3 200.5 197.8 194.7 191.8 188.2 185.7 182.6 179.9 177.3 174.8 172.2 168.7 166.8 163.4 161.8 159.3 158.4 157.1 154.5 152.8 150.3 148.3 145.8 143.3 141.7 139.9 138 137.4 138.9 140 140.3 140.3 138.7 135.3 131.7 130.8 131.1 130.1 129.9 129.9 130.4 130.1 129.7 129.6 129.4 130.8 131.7 131.3 128.7 127.4 132.4 135.5 138.7 141.3 143.5 145.9 147.7 149.7 150.8 151.1 150.3
-2.1 -2.1 -2.1 -2.1 -2.1 -2.1 -2.1 -2.1 -2.1 -2.1 -2.1 -2.1 -2.1 -2.1 -2.1 -2.1 -2.1 -2.1 -2.1 -2.1 -2.1 -2.1 -2.1 -2.1 -2.1 -2.1 -2.1 -2.1 -2.1 -2.1 -2.1 -2.1 -2.1 -2.1 -2.1 1.2 9.7 25.8 52.1 163.8 166.1 171 172.9 174.8 178.8 183.5 187.6 192.8 198.7 204 208.8 213.7 219.2 224.3 229.4 234.7 239.8 242.9 245.4 247.5 248.8 250.1 251.3 252.6 254.4 255 256.2 258.6 258.1 257.3 256 253.6 250.9 249.4 247.5 247.1 245.6 244.1 240.1 238.1 236.2 236.6 238.7 239.7 240.4 240.4 240.3 239.1 237.2 234 230.6 225.7 221.8 217.3 213.2 209.3 206.5 204.2 202.2 200.9 199.6 199.5 200.6 200.3 201 201.9 201.9 201.9 201.4 202.5 203 203.4 203 200.9 196.6 192.1 189.2 186.3 183.5 181.7 181.4 181.3 181.2 179.9 180.2 184.1 185.5 188.9 191.2 193.6 196.3 198.5 202.1 204.4 205.9 205.8 205.3 204.3 202.8 200.1 197.1 193.8 189.8 186.7 183.4 181.7 177.8 176.3 173.2 170.8 167 164.2 162 159.7 158.1 157.2 155.6 153.5 151.6 149.5 147.8 144.9 142.5 140.5 138.6 136.6 136 135.6 135.8 137.7 136.5 132.9 131.8 131.3 130.2 131.3 130.2 129.4 128.4 128.3 129.1 129.3 128.7 128.3 128 128 127.6 127.4 127.7 127.1 130.7 134.1 136.7 138.9 140.6 144.5 146.7 148.6 149.6 150
-2.1 -2.1 -2.1 -2.1 -2.1 -2.1 -2.1 -2.1 -2.1 -2.1 -2.1 -2.1 -2.1 -2.1 -2.1 -2.1 -2.1 -2.1 -2.1 -2.1 -2.1 -2.1 -2.1 -2.1 -2.1 -2.1 -2.1 -2.1 -2.1 -2.1 -2.1 -2.1 -2.1 -2.1 -2.1 0.5 59.9 65.1 82.5 139.3 143.9 151.2 158.1 166.4 175 181.2 186.8 192.4 198.2 203.2 207.9 212.7 217.2 221.7 226.6 231.3 236.3 240.4 244.3 247.6 248.7 249.6 250.3 250.8 253.7 255.8 257.1 259.4 260.9 259.7 258.6 256.3 254.2 253.1 252 251 250 248.4 245.6 242 239.5 239.6 241.3 242.5 243.4 243.8 243.2 242.2 240.5 237.1 232.5 227.2 222.7 217.8 213.6 209.4 205.6 203.3 201.1 199.3 198 197.9 197.8 197.4 198.1 198.6 198.6 198.2 198.2 199.8 200.9 201.9 202 200.6 196.6 189.6 184.1 181.5 180.1 179.1 178 177.4 176.8 176.2 177.3 180.6 183.2 184.3 185.9 187.8 190.5 193.7 200.2 205.4 206.6 206.1 204.9 203.5 201.5 199.6 196.4 192.9 188.8 185.1 181.4 178.3 176.1 173.3 171.4 168.2 164.2 162.6 161 158.8 156.7 155 153.4 152.6 151 148.7 146.6 144.2 141.5 138.9 137.6 135.8 135.4 134.6 134.6 132.9 132.7 132.3 132.2 131.3 131.4 131.6 131.4 131 130.6 129.7 128.6 128.4 128.2 128.1 127.7 127.3 127 127 126.9 126.6 126.4 128.1 132.1 134 137.2 139.6 143.5 145.9 147.3 148.5
-2.1 -2.1 -2.1 -2.1 -2.1 -2.1 -2.1 -2.1 -2.1 -2.1 -2.1 -2.1 -2.1 -2.1 -2.1 -2.1 -2.1 -2.1 -2.1 -2.1 -2.1 -2.1 -2.1 -2.1 -2.1 -2.1 -2.1 -2.1 -2.1 -2.1 -2.1 -2.1 -2.1 -2.1 0.7 41.6 67.2 94.4 119 130.3 146.2 154.5 165.3 172.8 178.5 183.5 188.6 193.7 198.8 203.4 207.6 211.8 216 220 224.1 228.1 232.5 235.3 238.8 243.3 247.5 248.8 249.3 249.9 251 252.3 255.7 257.8 259.8 259.6 259.1 257.8 256.3 255.5 255.2 254.7 253.2 251.6 249.7 246 242.7 241.2 243.8 245.3 246.6 246.4 245.9 244.6 243.2 239.4 235 229 223.8 218.7 214.4 207.8 204.3 201.9 200 198 196.6 195.6 195 194.3 194.5 194.8 195.1 194.7 194.5 195.4 197 197.6 198.8 198.1 194.8 187.3 181.7 177.9 175.8 175.3 174.1 173.9 173.1 172.8 174.1 175.8 177.3 179.7 182.2 184.3 186.3 189.2 201.1 199.7 206.3 206.3 204.6 202.3 200.2 198 195.5 191.9 188 183.5 178.9 174.5 171.9 169.2 167.7 164.6 162.9 161.6 160 157.7 155.5 153.2 151.1 151.2 150.4 148.2 145.5 143.2 140.9 138.3 136.7 135.8 135.1 134.4 133.9 133.7 133.3 133.4 133 132.5 132.5 132.5 132.4 131.9 131.7 131 130.2 129.7 128.4 127.6 127 126.8 126.6 126.6 126.3 125.9 125.8 125.4 126.4 130.7 132.3 136.4 139.7 142.5 145.5 146.7
-2.1 -2.1 -2.1 -2.1 -2.1 -2.1 -2.1 -2.1 -2.1 -2.1 -2.1 -2.1 -2.1 -2.1 -2.1 -2.1 -2.1 -2.1 -2.1 -2.1 -2.1 -2.1 -2.1 -2.1 -2.1 -2.1 -2.1 -2.1 -2.1 -2.1 -2.1 -2.1 -2.1 -0.2 1.5 25.4 95.4 132.4 145.4 152.9 155.9 161 167.5 174.2 180 185.8 190.7 195.4 199.4 203.7 208.1 211.7 215.2 218.8 221.9 225.6 229 232 235.1 238.4 241.7 245 248.3 249.2 250.3 251 251.7 253.5 256.7 258.3 257.8 257.6 257.3 256.7 256.2 256.5 255.8 254.2 252.1 250 246.2 245.1 245.7 247.7 249.2 249.2 248.6 246.7 245 241.3 236.5 231.7 226.6 220.6 214.9 209.8 204.1 201.1 198.7 195.9 195.2 194.2 193.3 192.5 192.5 192.5 192.1 191.3 190.7 191.1 191.9 193.3 194 193 189.1 184.8 179.9 176.2 172.7 171.1 170.5 169.3 169.9 168.9 170.4 170.6 173.9 175.4 178 179.9 183.3 188.2 200.4 183.6 183.2 193.5 189.9 192.6 197.8 194.9 193 190.7 187.3 184.8 179.2 174.3 170.3 165.6 163.6 161.3 160 159.2 158.1 157.1 155.5 153.1 150.2 148.8 148.4 147.2 144.9 142.2 140.1 137.8 136.5 135.9 135.2 134.9 134.5 134.4 134.1 134 133.9 133.2 133.3 133.6 133.3 132.5 132.8 132.3 131.9 131.5 131 130.6 129.1 128.4 126.2 124.8 125.5 126 124.9 125.2 124.5 125.3 129.8 133.4 136.7 139.9 142.5 144.7
-2.1 -2.1 -2.1 -2.1 -2.1 -2.1 -2.1 -2.1 -2.1 -2.1 -2.1 -2.1 -2.1 -2.1 -2.1 -2.1 -2.1 -2.1 -2.1 -1.5 -0.2 1.2 5.6 2.4 22.8 38 52 50.9 2.7 2.7 10.9 2 2.6 3 4.6 66.1 124.9 148 162.5 166.5 168.5 168.9 172.2 177.1 182.7 188.3 192.5 196.3 200.1 204 208.1 211.5 214.9 218.1 220.7 223.3 225.8 228.9 232.1 235.1 237.4 239.8 243.6 247.1 249.1 250.1 251 251.7 252.8 254 255.5 255.7 256.1 255.7 255.8 256.2 256.2 254.8 253.1 251.1 249.6 247.9 247.4 249 250.4 251.7 249.9 248 245.7 242.3 237.9 233.3 228.4 222.2 216.6 211 206 201.1 198 194.7 192.4 192 191.2 190.5 189.9 189.5 189.2 188.1 186.7 186.6 187.6 189.3 189.7 186.5 183.7 179.2 174.7 171.4 169.9 168.2 167.5 166.2 165.9 165.9 166.9 168.4 170.1 171.2 173.1 175.9 178.8 181 184.7 193.3 183.6 177.9 178 177.7 183.7 193.4 190 188.6 184.9 184.1 180.3 176.1 171.1 165.2 160.8 158.7 157.8 156.7 155.8 156.7 155.2 153.7 152.1 149.2 145.1 144.7 142.5 140.6 138.6 137.4 136.6 136.2 135.5 135.6 135.1 135 134.9 134.3 134.2 133.9 134.7 134.6 134.3 133.3 134.2 134.5 134 133.6 133 132.5 131.6 130.3 129.2 128 125.7 124.5 125 124.9 124.3 124.1 124.6 128.8 132.6 136.5 139.2 142.1
-2.1 -2.1 -2.1 -2.1 -2.1 -2.1 -2.1 -2.1 -2.1 -2.1 -2.1 -2.1 -2.1 -2.1 -2.1 -2.1 -2.1 -2.1 -2.1 0.1 2.1 24.3 52.8 55.8 58.3 66.3 80.4 77.2 9.6 58.8 2.7 20.4 40.6 33.8 77.4 105.7 148 161.7 167.1 171.7 175.1 176.8 178.9 183.2 187.5 191.1 194.7 197.8 200.9 204.2 207.9 210.9 214.4 217.1 219.4 221.7 224 226.4 229.2 231.6 233.9 236.1 238.8 241.9 244.9 246.8 248.6 250.1 251.3 252.9 252.9 253.1 253.1 253.2 253.6 253.4 253.6 253.6 252.4 250.9 249.4 248.6 248 249 250 250.2 248.8 246.9 244.2 241.3 237.8 233.4 229 224.1 218.6 213.3 207.7 203.1 198.2 194.6 192.4 190.4 189.4 188.2 187.5 186.8 186.4 184.7 182.3 181.8 182.1 183.7 183.2 180.9 176.4 171.8 170.3 169.5 168.8 168.1 167.1 166.4 165.5 164 164.2 164.5 166.6 167.4 169.5 170.9 173 175.6 178.4 180.7 186.2 185.4 179.6 178.9 177 196 190.1 184.3 186.1 183.3 179.4 175.6 171.1 164.1 160 157.2 154.8 154.3 153.9 155.1 155.6 154.4 152.5 150.2 147.8 144.7 141.8 139.8 138.5 137.2 136.8 135.8 135.4 135.6 135.9 137.1 138.4 138.4 139.3 139.7 139.3 137.4 135.2 135.2 138.2 139.8 139.8 139.4 137.5 135.8 134 132.8 131.2 130.8 130.6 128.3 126.3 125.5 124.9 123.8 123.3 123.8 128.2 132.3 135.3 138.2
-2.1 -2.1 -2.1 -2.1 -2.1 -2.1 -2.1 -2.1 -2.1 -2.1 -2.1 -2.1 -2.1 -2.1 -2.1 -2.1 -2.1 -2.1 2.1 28.8 34.8 78.8 72.2 79 84.1 94.1 111.2 109 58.9 93.3 60.2 60.9 65.8 94.3 116.9 135.8 162.6 168.1 172.6 175.6 178.7 182.1 185.2 188 191.3 193.6 196.1 198.9 202.3 205.4 208 210.7 213.5 215.5 217.7 220.1 221.9 223.3 225.7 228.2 230.4 233 235.5 237.9 240.4 243 244.8 245.8 247.6 249.4 250.7 251.7 251.5 251.8 252.5 252.5 252.8 251.5 250.5 249.6 248.2 247.4 247.2 247.2 248.2 247.9 246.4 244.1 240.8 237.5 235.5 232.1 228.5 224.2 219.7 214.8 210.4 206.2 199.6 194.5 191.9 189.7 188 186.6 185.7 184.6 183.6 182 179.6 178.4 176.8 175.6 174.3 173.2 173 172.4 171.5 170.9 170.7 169.3 168.4 167.6 166.6 165.4 163.2 163.1 162.8 162.7 164.9 166.5 168.2 170.3 172.1 174 177.1 189.8 181.2 179.5 176.8 188 181.1 186.2 185.2 183.1 179.5 173.8 169.7 163.3 158.1 155.3 152.8 150.8 151.6 153.2 153.9 153.8 153.2 150.2 148.1 145.3 141.7 139.3 138 137.1 136.7 136.4 136.8 137.2 141.8 143.5 143.1 143.3 143.5 143 141.2 139.8 136.4 137 141.3 143.9 145.8 146 144.4 141.6 138.4 136.5 134.1 133.9 133.8 131.9 130.2 128.8 126.2 124.9 123.9 123.5 124.8 129.2 132 134.5
-2.1 -2.1 -2.1 -2.1 -2.1 -2.1 -2.1 -2.1 -2.1 -2.1 -2.1 -2.1 -2.1 -2.1 -2.1 -2.1 -2.1 -2.1 47.3 59.8 93.1 113 102.3 106.4 112.7 114.4 123.8 127 127.5 132.2 111.8 120 132.4 132.5 158.8 162 168.4 172.6 177.2 179.1 181.6 185.1 188.2 190.9 193.1 194.9 197.7 200.3 203 205.6 208.1 210.6 212.5 214.5 216.5 218.4 219.6 221.3 222.9 224.6 226.7 229.8 232.1 234.2 236.3 238.3 240.6 242.7 244.3 246.2 247.9 249.5 250.1 250.3 250.6 249.9 250 249.5 248.7 248.1 246.6 246 245 245 244.8 244.1 242.4 239.9 237.2 233.7 232 229.8 227.3 223.2 219.8 214.4 210.8 204.6 200.3 200.6 192.8 190.7 188.5 186.6 184.8 183.6 181.6 179.9 178.8 177.5 176.9 177.2 176.8 176.9 176 176 175.9 174.1 173 172.2 171 168.8 168 166.3 164.6 163.7 162.1 161.4 160.8 161.4 163.7 165.8 167.7 169.1 170.4 179.7 172.8 180.5 176.7 178.1 179.2 183 184 182 177.5 171.6 166.8 161.7 156.4 153.4 150.8 149.1 148.4 150 150.5 150.8 150.2 149.2 146.5 143.4 140.3 138.8 138.5 137.8 137.6 137.8 142.3 145.1 147.2 148.5 148.8 148.2 147.6 146.4 144.2 141.5 136.9 138.6 145.2 147.8 149.2 149.5 147.8 144.8 140.8 139.2 137.2 137.2 135.5 133.5 133 131.9 130 126.6 123.6 122.7 122.5 125.2 129 131.3
-2.1 -2.1 -2.1 -2.1 -2.1 -2.1 -2.1 -2.1 -2.1 -2.1 -2.1 -2.1 -2.1 -2.1 -2.1 -2.1 -2.1 -2.1 85 93.9 140.8 141.1 133.4 140.7 140.1 140.9 139.1 138.4 138.6 144.4 150.1 156.1 159.7 157.6 164.6 167.2 170.2 174.3 178.6 181.3 183.5 186.5 189.3 192 193.7 196 198.3 200.3 202.8 205.6 207.6 209.5 211.4 213 214.8 216.5 217.6 218.5 220 221.3 223.7 226.3 228.3 230.3 232.4 234.5 236.2 237.8 240.5 242.7 244.6 246.7 247.7 248 248.5 248.2 247.5 247.1 246.6 245.7 245 244.1 243 242 241.3 239.4 237.3 234.8 232.6 229.6 228 226.6 224.3 221.3 218.5 214.1 209.5 205.7 201.9 194.9 190.8 188.5 187.9 186.3 184.7 182.9 179.8 178.4 178.9 178.5 179.5 179.2 180.6 181.3 182.1 181.7 181.1 180.1 178.4 177 175.3 172.5 169.1 166.8 165.5 164.3 163.1 161.9 160.9 159 159.9 158.8 160.9 162.7 164.3 165.9 168.5 172.2 168 168.9 174.5 179.1 181.2 179.8 175 169.6 163.9 158.6 154.4 150.5 148.7 146.8 145.7 145.5 146 147.1 146.9 145.5 143.6 140.7 139.8 139.1 138 138.4 140.1 146.9 148.6 150.4 151.1 152.3 153.4 153 151.8 150.2 147.4 144 137.9 142.1 148.2 150.3 151.6 151.1 149.7 146.7 142.9 141.1 140 138.9 137 136.3 135.4 133.7 131 128.9 127 124.6 122.8 122 125.2 128.1
-2.1 -2.1 -2.1 -2.1 -2.1 -2.1 -2.1 -2.1 -2.1 -2.1 -2.1 -2.1 -2.1 -2.1 -2.1 -2.1 71.6 94.1 117.4 142.2 143.2 142.8 142.6 143 143.9 144.9 144.2 145.9 147.5 150.5 155.4 159.8 162.8 164 166.4 169.5 171.7 174.3 177.5 180.9 183.7 185.8 189 191.6 194.1 196 197.5 200 202 205.4 206.6 208.7 210.6 211.7 213 214.2 215.1 216.4 217.2 218.7 220.6 222.8 224.9 226.7 228.6 230.3 231.9 233.6 236.2 238.9 241.3 243.4 244.8 245.5 245.7 245.6 244.9 244.2 243.5 243.6 241.9 241 240 239 238.3 237.1 234.8 232.3 229.4 226.7 224.1 222.3 220.6 218.6 215.6 212.4 208.5 204.7 200.9 195.3 190.7 188.7 187.1 185 183.9 181.1 180.9 180 179.7 180 181 182.5 184.2 185.4 185.4 185.1 184.1 182.6 180.6 179.2 176.5 174 171.6 167.7 166.9 165.9 164.8 163.4 162.5 161.5 160.4 158 157.6 161.7 162.1 168.7 161.1 160.9 160.6 161.9 164.4 169.2 173.3 173.6 171.8 166.9 160.8 154.4 151.2 147.6 146.1 145.2 144.5 144 143.1 142.3 141.2 140.7 140.8 139 139.8 139 139.9 144.1 149.2 152.2 154.2 154.9 155.7 156.3 156.6 156.4 154.5 153.7 150.9 146.8 140.7 144.9 150.7 152.2 152.9 151.7 150.2 147.2 145.1 142.6 141.4 140.5 139.8 138.3 136.7 134.9 132.8 130.2 128.2 125.3 123.4 122.4 122.2 123.4
-2.1 -2.1 -2.1 -2.1 -2.1 -2.1 -2.1 -2.1 -2.1 -2.1 -2.1 -2.1 -2.1 -2.1 -2.1 -2.1 75 94.7 114.5 130.9 141.1 142.5 142.5 143.8 144.3 145.4 146.8 149.1 151.5 154.5 158.2 161.7 163.3 164.5 166.1 169.2 171.6 173.6 176 178.6 182.6 185.6 188.1 190.7 193.3 195.3 197.2 199.1 200.8 203 204.6 206.8 208 209.7 210.7 210.9 211.8 212.1 212.2 214.1 217.1 219.7 221.9 222.7 224.3 226.1 228 230.4 233.2 236.2 238.9 241.2 242.5 243 243 242.6 241.7 240.7 239.9 239.1 238.4 237.2 235.4 235.2 234.9 234 232.5 229.9 227.2 224.4 221.8 219.9 218.3 215.7 212.3 208.8 206 202.9 200 195.2 191.1 189.2 187.4 184.9 182.3 182.2 181.4 181.6 181.3 182.1 183.9 185.7 187.4 188.5 188.3 187.7 186.3 184.1 182.4 180.2 176.9 174.5 171.7 168.3 171.1 171.2 170.2 168.1 165.3 164.2 162.4 160.4 159.2 164.1 163 154.7 155.1 155.7 158 158.1 157.7 159.7 161.7 161.3 163.3 161.8 157.5 152.3 147.8 146 145.2 144.2 143.9 143.6 142.8 143 141.8 141.2 140.6 140.3 139.2 138.3 142.4 150.3 153.4 156.4 158.4 159.3 159.7 160.2 159.9 159.1 157 154.7 151.8 148.9 141.7 145.2 151 153.4 153.2 152.2 150.5 147.9 146.2 144.2 142.5 141.7 141 140 137.9 135.9 133.7 131.2 129.7 126.4 124.5 123.1 122.2 121.7
-2.1 -2.1 -2.1 -2.1 -2.1 -2.1 -2.1 -2.1 -2.1 -2.1 -2.1 -2.1 -2.1 -2.1 -2.1 58.5 78 95.9 112.6 125.4 135.2 140.4 141.9 143.3 144.3 145.2 147.1 149.3 151.7 154.5 157.3 161.1 163 163.4 164.9 167.8 170.1 171.3 174.2 177.1 180.9 184.2 186.8 189.3 192 194.3 196.2 197.7 199.5 201.9 204.1 205.9 207.7 208.6 208.8 206.2 208.3 208.5 207.1 209.3 212.3 215 217.1 218.1 219.3 221.8 225.4 227.9 231 234.1 237.1 239.3 240.6 241 240.9 240.5 239.3 238.2 236.8 235.1 234.3 233.2 231.6 230.7 230.6 230 228.7 227 224.6 222.3 219.6 217.6 216 213.3 210.5 207.3 203.3 200.9 198.7 195.5 191.4 189.4 187.2 184.7 184.1 185.5 185.8 184.9 184.8 185.3 186.7 188.4 190.2 191.1 191.4 190 188.4 185.8 183.5 180.5 177.5 174.5 171.9 171.3 173.7 174.6 174.4 173.2 171.4 168.5 165.3 164 166.1 161.1 158.1 157.1 155.9 154.8 153.8 152.8 153.2 152.3 153.2 153.4 153.7 150.9 148.8 147.2 146.6 146.9 146.2 146 145 144.2 143.7 143.1 141.8 141.6 140.7 140.6 140.7 140.8 148.1 153.3 157.2 160.2 161.7 162.2 162.8 162.2 161.7 159.9 157.8 155.2 151.2 146.5 141.4 143.7 149.9 152.4 152.8 152.7 151.6 148.8 147.5 145.7 144.1 143 142.4 141.2 139.4 137.5 135 132.7 130.8 128.9 125.9 123.9 121.7 121.7
-2.1 -2.1 -2.1 -2.1 -2.1 -2.1 -2.1 -2.1 -2.1 -2.1 -2.1 -2.1 -2.1 -2.1 -2.1 56.9 77 93.4 108.6 121.4 129.7 136.1 140.2 142.1 144.1 145.5 147.2 148.8 150.4 152.4 154.7 158.9 161.1 161.8 162.5 163.7 168.2 170.1 171.5 173.8 177.6 182 185.4 188.3 191.3 193.3 194.9 196.4 198.1 199.7 201.7 203.6 205 204.9 205.2 205.9 205.6 202.7 202.4 203.8 207.3 209.5 212.8 215.1 216.5 218.9 223 226.5 229.6 232.7 235.5 237.6 239.1 239.4 239.2 238.3 237 235.7 233.8 231.9 230.8 229.2 228.2 227.5 226.6 225.7 224.7 222.9 221.3 219.3 217.3 215.2 213.5 211 208 205.6 202.2 199.9 197.4 195.2 192.5 190.2 187.7 185.4 187.3 189.8 189.8 189.7 189.7 189.7 190.6 191.7 192.9 194.1 194 192.4 190.3 187.5 184.3 181.5 178.4 175.2 172.4 173.6 175.1 176.8 177.1 177 175.6 174.8 172.3 170.4 169 165.1 159.7 158.7 157.6 157.2 155.8 154.8 154 151.6 150.7 149.5 149 148.5 148.6 149.4 149.7 148.8 148.2 146.8 145.8 144.7 144 143.5 142.4 141.8 141 140.8 141.3 144.6 149.5 155.4 160.4 163.2 164.5 166.2 165.3 164.6 162.3 160.7 158 154.7 150.6 147.5 143.9 142.7 148.4 151.5 152.9 153.5 152.7 150.7 148.6 146.7 145.4 144.6 143.8 142.9 140.4 137.9 135.4 132.7 130.9 128.5 126.3 124.4 123 121.7
-2.1 -2.1 -2.1 -2.1 -2.1 -2.1 -2.1 -2.1 -2.1 -2.1 -2.1 -2.1 -2.1 -2.1 -2.1 61 80.4 97.6 110 121 129.4 135.1 138.8 141.8 143.6 145.4 146.4 147.3 148.3 149.6 151.3 154.8 157.2 158.7 159.4 159.2 161.3 164 167 170.2 175.3 179.7 183.4 187.4 190.5 192.4 193.3 194.1 195.5 198.4 200.1 201.7 202.6 202 199.4 197.3 196.2 197.1 199.1 200.4 202.8 205.1 208.1 211.9 215 218.4 222.3 225.3 228.4 231.2 233.9 236.1 237.4 237.6 237.1 236.3 235.2 233.5 231.3 229.7 227.7 226.4 225.3 224.1 222.9 221.7 220.6 219.1 217.7 216 214 212.4 210.6 208.6 206.4 204.4 202.1 199.2 196.7 194.5 192.5 190.8 188.5 187.7 189.6 192.1 192.5 193.1 193.4 193.6 194.2 195.2 196.9 197.1 196.6 194.2 192.3 189.1 185.7 182.6 179.5 176 175.1 175.2 177.1 177.9 178.9 178.9 178.2 177 174.9 171.4 171 165.6 161.2 161.4 161.6 160.8 157.9 156.6 155.5 154.1 152.6 151.5 150.3 150.9 153.2 154 153.4 153.6 152.4 149.8 147.5 145.1 144.6 143.9 143 142 141.5 141.3 143.6 146.9 151.9 157.4 162.9 166.7 169 169 168.6 166.8 163.6 161.7 159.3 156.3 154.2 150.3 145.7 142.8 147.7 151.5 153.4 154.4 154.9 152.7 150.8 149.2 147.6 146.4 145.5 144.5 142 139.7 138.1 135 131.6 129.1 126.8 125.2 123.8 122.6
-2.1 -2.1 -2.1 -2.1 -2.1 -2.1 -2.1 -2.1 -2.1 -2.1 -2.1 -2.1 -2.1 50.3 59.8 73.6 87.5 104.3 116.3 125.2 131.6 135.6 137.8 140.3 141.9 143.7 144.8 145.4 146.2 146.9 149.2 151.6 153.1 153.8 154.6 154.9 155.2 156 159 164.4 170.6 175.8 179.5 183.8 187.5 190 190.7 190 190 194.4 197.7 201.3 201.9 199.6 196.4 192.9 190.3 193 197.1 200 202.7 205.3 208.9 212.6 216 219.2 222 224.1 227.8 230.1 232.8 234.7 235.7 236.1 235.6 234.7 233 231.4 229.1 226.8 225.1 223.5 222.3 221 219.6 218.5 217.2 215.9 214.3 212.8 211.3 209.7 207.9 206 204.1 202.4 200.6 198.5 196.2 193.8 192.3 190.7 188.2 189.4 191.7 193.3 194.8 195.4 196.7 197.1 197.5 199 200.1 200 198.9 197 194.2 190.6 186.9 184 179.8 178.9 177.9 178 178.4 179.7 181 181.2 180.5 179.3 173.9 175.4 172.7 165.3 166.3 167.2 165.6 163 160.7 159.6 157.8 156.8 155.3 153.8 151.1 154 156.4 157.7 157.8 157.3 156.3 154 150.6 147.3 144.9 143.7 142.3 142.4 142.2 142.5 145 149.7 156.9 162.1 166.6 169.7 172.2 172.8 172 169.1 165.8 162.3 161.5 158.5 156.5 152.4 147.3 143.5 147.5 152.4 155.3 156.4 157.6 157.3 155.6 154.2 152.6 150.8 149.1 148.6 147.1 144.3 141.5 137.6 133.3 130 127.5 125.9 124.6 124.7
-2.1 -2.1 -2.1 -2.1 -2.1 -2.1 -2.1 -2.1 -2.1 -2.1 -2.1 -2.1 60.2 70.5 74.8 86.1 97.4 109.7 120.5 127.8 132.4 134.8 135.9 138.5 139.6 141.3 142.4 143.1 143.4 143.6 146.8 149.4 151 150 148.5 148.7 148.4 149.5 152.3 156.5 163.2 167.6 171.6 175.5 179 181.7 183 183.9 185.2 188.2 193.7 199.2 199.2 196.5 192.5 186.6 190.9 193.6 196.5 200 203.4 206.2 209.6 212.9 216.6 219.7 222.5 225.3 227.4 229.5 231.4 233.2 234.1 234.6 234.2 233.3 231.4 229.5 227.2 224.9 223.1 221.5 219.8 218.4 217 215.9 214.5 213.1 211.7 210.3 208.8 207.1 205.4 203.7 202.2 200.8 199.4 197.5 195.2 193.1 191.4 191.6 189.3 190 192.2 194.8 196.5 197.6 199.1 200 200.7 202.1 202.3 202.6 201.7 199.8 196.9 192.2 188.2 185.1 182.4 181.1 180.9 180.9 181.3 181.9 182.6 183 182.7 181.6 179.8 177.6 172.7 167.4 171.6 170 168.1 166.2 164.3 162.7 161 159.5 157.6 154.7 153.3 155.3 157.5 159 159.8 160.5 158.8 155.7 151.5 148.6 145.1 143.9 143.5 143.1 142.6 145.6 147.2 153 158.9 164.4 169.5 173 175.3 176.4 175.4 172.1 169.2 167.5 164.5 161.7 159 154.1 149.2 144.8 147.6 153 156.4 158.6 160.8 160.8 160.5 160.2 159 157.6 156.3 155 152.6 148.8 145.1 140.4 133.8 131.1 128.3 126.8 126.3 126
-2.1 -2.1 -2.1 -2.1 -2.1 -2.1 -2.1 -2.1 -2.1 -2.1 -2.1 49.5 73 86.2 88.3 96.5 106 114.7 122.8 128.1 131.4 133.7 134.8 136 136.9 137.5 138.3 139.1 139.6 140.3 142.9 144.9 147.2 146.9 144 143.9 143.2 144.8 148 152.8 157.8 160.4 163.4 167 169.7 170.5 171.8 171.8 175.6 182.7 188.3 195 192.1 188.2 181.8 185.1 190.3 193.2 196.3 199.9 202.7 206.7 209.9 212.8 216.3 219.5 222.3 224.7 226.9 228.6 230.3 232 232.7 233.2 232.9 231.9 229.9 227.9 225.7 223.5 221.7 219.9 218.1 216.6 215.1 213.8 212.5 211.1 209.7 208.4 207 205.5 203.8 202.3 201.2 199.9 198.2 196.5 194.4 192.8 192.5 190.9 190.4 191.1 193.1 195.3 197.5 199.1 201 202.6 204 205.4 205.3 204.8 204.4 202.2 199.1 194.5 190.3 186.9 185 184 183.4 183.9 184.2 183.9 184.2 184 183.7 179.6 180.6 178.4 170.2 173.4 174.3 172 169.4 167.5 166.7 165.4 162.9 161 158.8 154.9 155.5 157.3 159.1 159.8 160.4 160.7 159.8 156.5 152.7 148.9 145.3 144.4 144 143.4 143.7 148.7 151.6 152.2 158.2 164.2 169.9 175.1 177.8 178.8 178.2 175.8 173.8 171.8 168.5 165.6 161.5 157.1 151.5 145.8 149 154.5 157.3 160.8 162.6 163.7 163.4 163.5 163.7 163.6 162.1 159.4 156.7 153.2 148.7 141 135.4 131.7 129.3 127.6 128.7 129.6
-2.1 -2.1 -2.1 -2.1 -2.1 -2.1 -2.1 -2.1 -2.1 -2.1 -2.1 -2.1 79.9 94.7 99.1 104.5 112.2 118.8 123.9 126.8 129.9 132.2 133.5 133.9 133.5 133.7 134.4 134.5 135.1 135.4 137.3 139.8 141.4 141.7 139.7 138.2 137.2 139.3 143.5 147.7 152.3 154.5 156 156.7 159 161 163.2 165.1 167.3 170.7 175.2 179.6 181.2 178.3 178.9 185.2 188.6 192.7 195.7 199.3 203.1 205.2 209.5 212.5 215.1 218.9 221.5 223.7 225.6 227.5 229.1 230.7 231.5 232 231.6 230.7 229.1 227.2 224.8 222.5 220.5 218.7 216.9 215.4 214 212.6 211.2 209.8 208.1 206.8 205.6 204.1 202.7 201.4 200.3 199.1 197.5 195.8 194.4 192.3 192.2 192.4 191.2 192.6 194.3 195.7 198.3 200.1 203 205.1 206.6 208 208.2 207.3 206.7 204.7 200.9 196.2 191.7 189.2 187.7 187.1 186.5 186.5 186.5 186.2 186.1 185.5 184.4 182.3 180.5 175.6 172.4 175.5 176 174.9 172.3 169.6 168.4 166.3 163.7 161 157.9 157.4 157.5 159.8 160.8 161 160.5 160.5 158.6 155.8 152 147.1 145.6 145 144.5 144.5 144.6 149.8 153.7 156.5 159.8 162.4 170 175.9 179.1 180.1 179.7 178.4 177.2 175 172.7 168.5 164.6 159.9 153.7 146.3 151 156.9 159.8 162.6 164.7 165.9 166.6 166.8 166.8 166.7 165.5 163.2 160.1 155.7 150.9 145.2 139.1 134.6 129.6 130.8 131.9 133.4
-2.1 -2.1 -2.1 -2.1 -2.1 -2.1 -2.1 -2.1 -2.1 -2.1 -2.1 65.2 84.7 99.3 106.6 110.4 114.6 119.5 123.1 126 128.7 130.8 131.3 130.7 129.3 129 128.8 129.4 130.6 130.8 132.4 133.7 134.4 136 135.4 131.8 130.8 132.6 135.9 139.6 144.6 147.1 147.9 150.2 152.7 156 159.2 161.1 162.6 165.3 166 170 171 175.2 180.4 185 188.3 191.2 194.7 197.8 201.9 205 208.1 211.8 214.7 217.8 220.4 222.4 224.2 226.3 228 229.4 230.1 230.8 230.5 229.3 228.1 226.4 224 221.7 219.8 218 216.2 214.6 213.2 211.9 210.6 208.8 207.1 205.8 204.6 203.1 201.7 200.5 199.4 198.1 196.7 195.5 194.4 193.5 193.3 192.9 192.7 193.4 195.7 197.2 199.4 202 204 206.7 208.7 210.2 210.9 210.3 208.5 207.5 204.3 199.4 195.2 192.7 191.6 190.9 190.6 190.4 189.7 189.4 188.9 187.5 186.4 183.8 179.2 178.1 175.6 177.7 177.6 176.8 175.3 172.8 170 166.6 163.9 161.4 159.1 160 160.1 161.3 162.6 162.6 162 159.7 157.7 154.4 148.7 147.4 146 144.8 144.9 145.3 150.4 153.1 154.3 159.6 164 168.8 174.3 178.1 180.7 181.3 181.3 180.3 179.2 177.3 174.8 171.9 167.9 162.9 155.3 147 153.8 159.3 162.5 164.4 166 168.1 170.3 171 169.4 168.2 166.2 163.8 160.6 156.4 150.8 144.9 138.4 131.7 133.7 135.5 136.2 136
