ncols 200
nrows 82
xllcorner 290000
yllcorner 302900
cellsize 50
440.8 433.4 426.1 423.8 421.7 416.8 411.4 411 412.2 415.9 418.3 420.9 421.8 422 422.9 425.3 429.7 433.1 439 447.1 452.4 450.9 449.3 446.3 437.6 407.4 380.1 359.2 341.8 326.3 317.2 309.9 303.4 293.7 285.5 279.2 270 264.8 259 253.9 247.9 231.5 232.7 243.7 254.2 273.8 285.4 295.8 299.2 299.2 301.2 302.8 306.2 311.2 317 318.8 321 326.4 337.4 352.7 371.5 391.7 401.6 406.1 416.3 426.3 431.9 438.9 438.7 437.3 437.5 435.6 433.1 431.4 427.8 425.7 425.4 425.8 426.2 425.4 424 423.2 419.3 418.8 417.1 417.4 417.8 416.4 413.3 409.6 405.8 401.1 396 392 390.2 388.7 387.4 385.4 383.7 381 378.4 375.4 371.8 367.5 361.2 356.1 351.1 344.4 333.3 325.1 316.4 311.7 307.9 304.6 301 296.3 291 286 278.8 271 265.4 261.3 256.8 252.5 246.7 242.7 244.5 244.3 244.2 245.7 247.6 249.1 250.3 250 249.3 248.6 247.6 245.8 243.1 241.4 236.5 224.7 224.7 224.4 223.7 221.2 220.7 221.3 222.1 232.4 237 240.5 244.2 251.5 259.4 263.7 271.1 275.5 283.2 294.7 306.3 314.9 321.2 323.9 335 344.1 348.6 345.7 335.4 323.8 315.7 310.7 308.9 305.7 297.6 285.8 272.9 264.8 257.9 250.3 243.8 238.5 234 236.3 233.8 234.9 230.3 234.1 243.1 248.2 252.9 255.1 259.8 264.9 266 264.8 258.8 254.7 251.6 246.5
429.1 420.8 420.2 419.5 413.4 405.5 404.7 406.4 408.6 411.6 414 417.2 418.7 419.8 423 425.9 430.3 435.8 443.8 450.8 456.8 455.7 452.3 447.2 420.7 392.7 368.6 348.3 332.1 323.7 314.7 307.8 300.5 292.7 282.1 275.5 269.4 265.4 260.4 254.7 247.5 238.2 229.2 242.3 256.4 265.3 277.1 284.7 287.7 288.6 289.1 289.5 293.3 298.7 303 306.4 314.4 326.8 342.5 356.3 370 382.9 397.3 401.5 409 421.1 430.5 433.8 435.4 434.3 436.4 433 428.2 425.4 422.4 421.1 418.8 417.1 415.7 414.4 413.9 413.2 412.1 412 414.3 414.9 415.7 414.4 412.4 409.3 405.4 401.7 397.7 392.2 389.2 387.5 385.7 384.2 382.5 380.4 377.4 373.9 371.4 368 362.2 355.5 349.9 344.4 334.6 322.4 314.6 311.4 308.4 304.5 300.2 295.2 291 286.3 279.8 273.7 268.2 263.7 257.9 252.9 248.9 244.9 241.1 242 243 244.8 246.6 247.7 249.4 249.7 248.5 246.9 246.2 244.3 242.6 241.4 226.4 224.8 225.3 224.6 224 223.3 222.9 222.6 223.3 231.3 240.8 243.9 249.2 256.1 262.2 271.3 276.8 282.6 286.7 299.7 310.5 318.5 323.6 334 342.4 345.7 345.2 335.8 326.2 321.4 316.5 313.3 313.4 310.6 302.4 292.2 280.2 273 264.8 256.6 251.1 246.3 244.1 242.1 239.6 238.6 234.5 239.8 247.8 252.1 255 255.5 259.2 262.2 262.5 258 252 250.7 246.1 232.7
420.5 418.8 416.7 409.9 402.6 399.6 401.9 404.5 405.2 409.9 412.8 414.7 417.4 420.7 424.6 428.9 433.8 441.4 447.8 456.1 460.3 457.7 449.1 427.7 401.3 377.4 355.8 337.7 326.9 319.9 312.7 305.3 299.2 289 280.2 274.6 269.5 266.1 261.7 257.1 246.7 237.2 229.3 233.5 254.3 265.7 271.6 274.6 277.1 279.6 280.8 284.4 287.2 290.7 291 300.5 310.8 326 342 356.8 367.8 377 385.5 393 400.5 407.7 414.2 416 422.7 429.4 431.4 428.2 423.9 419.9 417.9 415.3 413.1 411.8 410.3 410.3 410 409.2 408.3 408.8 411.4 413.4 414.9 415.1 414.3 412.5 410.7 409.1 405.1 399.9 393.8 388.1 385.3 382.3 381 379 376.6 372.1 369.1 366.1 362.8 355.6 349.8 343.3 331.8 321.5 314.4 310.5 308.5 303.9 300 295.6 291.1 286.3 280.8 272.9 269 263.9 257 251.7 248.2 244.9 241.8 239.7 241.1 243.6 245 246.3 247.1 246.3 245.2 244.4 243.6 242.4 241.3 233.5 225.5 225.5 226.1 224.7 224.5 225.5 227.9 229.4 237.6 240.4 246 250.7 256.4 263.5 270.5 275.1 282.9 287.8 292.6 297.8 308.7 316.7 325 334.9 339.4 339.2 333.7 326.6 323.3 318.7 313.9 309.1 309.7 310.2 303.7 294.5 286.2 276.8 268.9 262 256.1 254 250 243.9 242.8 241.8 237.3 242.1 249.3 250.5 250.7 250.5 254.4 255.3 255.6 248.4 241.5 240.1 234.1 216.9
416 418.4 411.9 406.1 396.1 396.1 400.6 400.7 406.3 410.3 414.7 416.9 420.4 424.5 430.1 433.5 439.6 445.2 452 458.8 459.1 453.4 430 403.7 379.9 358.8 341.2 329.6 322.7 316.4 309.9 303.5 298.1 286.6 277.9 271.1 267.2 264.2 261 255.6 249.4 233.8 226.3 236.5 250.8 257.8 262.7 266.7 269.9 273 276.2 279.9 284.1 286.9 292.6 298.5 305.6 319.2 334.5 348.7 360.8 369.4 378.8 386.8 392.3 397.6 402.4 406.7 411.1 418.1 422.9 421.6 418.4 415.2 413.2 410.6 409.6 407.7 405.4 405.9 406.1 405.7 405.2 406.1 408.4 413.1 414.9 415.7 415.3 414.2 412.2 410.2 407.5 402.7 397.5 390.7 385.4 382.3 380 377.8 375.3 372.9 367.1 362.7 355.2 355.4 349.6 340.5 328.6 321.1 312 308.6 306.1 301.6 298.2 294.9 290.1 283.2 278.4 272.7 267.7 263.4 255.7 250.3 246.6 243.7 242.3 239.3 239 241.8 244.1 244.4 244.5 243.6 242.9 242.5 242 240.6 239.3 227.2 226.3 226.5 226.5 235.2 235.6 233 233.9 236.3 241.6 245.1 250.4 256.8 262.7 270 277.1 281.9 287.2 290.4 295.3 298.4 314 323.4 332 336.5 335.1 334.5 335.7 332.7 324.2 318.6 316.4 312.5 308.6 306.2 300.6 291.2 283.1 275.8 268.2 261.5 260.3 258.6 250.2 246.9 245.5 244 242 240.7 242.3 241.4 240.2 241.4 245.4 246 245.8 238.9 233.6 230 217.3 217.2
414.3 410.2 403.7 394.4 391.5 392.9 396 401.6 406.7 411.9 416.5 420.7 427.8 432.9 435.5 439.8 444.9 450.5 455.3 457.3 455.3 440.1 411.3 375.7 357.2 336.8 321.8 315.5 311.5 306.7 300.9 294.9 292.6 287 273.2 267.6 263 260.7 256.7 241.5 233.6 225.9 228 243.8 255.4 260.1 263.2 265.2 266.7 270.4 274.4 272.7 279.8 285.8 290.2 295.9 300.4 311.5 324.5 336.7 351.8 365.8 377.3 385.7 392.5 397.6 400.7 403.5 406.8 409.7 411.2 412.7 412.8 411.1 409.9 407.4 404.3 402.7 402.3 403.2 403.9 403.9 403 402.3 403.3 409.2 415.4 415.5 415.2 415 413.6 411.4 409.1 405 399.4 393.4 385.5 381.5 379.7 377.7 375.6 373 368.4 364.2 360.7 353.6 341.2 339.6 328.8 317.6 311.2 306.7 304.5 301 298.1 288.5 282 278 273.2 269.1 265.2 260 251.8 249.9 247.3 244.9 241.8 239.4 237.9 238.3 241.7 242.3 242.6 242 241.3 240.7 239.9 238.1 229.5 227.4 227.8 228 228.5 236.1 236.8 237.5 237.7 240.2 244.4 251.2 255.6 259.8 268 275.1 281.5 286.2 290.7 293 298.3 300.8 317.5 334 340.9 340.7 336.8 334.8 335.2 340.1 333.4 324.8 319.6 315.3 310.1 302.4 293.7 287.4 281.2 273.7 270.4 266 263.8 258.5 258.5 251.8 248.9 246.1 243.3 239.9 239 237.1 233.2 230.6 231 235.3 236.8 230.2 222.1 218.8 218.1 218.2
409.2 400 390.2 388.2 388.7 391.6 396.3 402.4 409.3 415.6 426.2 431.4 436.1 439.2 442.4 447.1 451 455.4 457.8 457.1 445.1 417.2 390.4 364 337.6 316.6 303 293.7 294.6 292.2 288.4 285.6 284.8 280.4 272.8 263 259.5 255.1 242.6 230.8 222.4 228.1 231.6 240.7 253.9 254.4 249.8 252.2 258.1 264.3 270.8 273.2 277.6 286.2 291.6 295.2 300.7 306.7 316.1 331.8 349.8 365.3 377.3 389.2 398 402.3 404 406.6 408.6 409.3 410.7 411.1 411.5 411 406.6 403.3 401.7 402.4 401.2 400.8 401.4 402 400.8 400.2 400.8 407.9 412.7 413.4 413.3 414.4 412.9 410.3 407.8 404.5 398.6 392.8 385.6 381 378.3 377.1 375.2 372.5 369.2 364 359.2 354.3 342.3 329.7 322.4 315.8 310.5 304.6 302.9 299.7 294.5 287.7 281.6 275.1 270.9 266.6 262.3 257.2 254.3 250.8 247.3 244.4 242 239.4 237.2 235.7 237.4 239.7 236.3 239 238.7 236.9 235 230.8 228.8 227.6 227.8 236 238.2 239 239.1 240.1 242.6 246.7 250.2 253.9 257.8 265.8 273.9 279.2 281.6 288.5 293.4 298 301.3 315.1 331.6 344.9 351.1 348.6 344.2 342.2 342.7 343.3 341.2 331.3 322.3 315.3 307.7 302 296.4 289 284.3 279.2 271.1 268 265.6 263.9 261.3 257.6 250.8 246.1 243 238.8 236.5 234.5 230.4 228 226.9 228 229 222.9 221.1 219 218.8 219.1
400.4 388.6 385.8 385.5 387.8 393.1 397.9 404 413.5 421.9 431.7 436.9 440.2 443.9 448.2 452.2 455.7 457 455.2 441.6 417 391.8 366.6 345.3 322.4 296.2 287.5 278.5 276.4 275.7 274.6 272.8 272.9 270 266.1 259.2 253.5 247.9 235.7 225.4 220.4 228.8 242.5 243.8 244.8 248.7 261.2 263.8 265.5 269.2 274.9 279.4 283.3 284.2 293.8 298.3 303.7 309.5 315.8 329.7 349.2 365.9 379.9 395.6 405.2 408.8 410.4 409.4 408.7 409.7 411.2 411.4 411.6 411.3 409.6 406.6 404.4 400.4 399.9 398.9 398.6 398.8 398.4 398.5 398.2 404.3 409.1 411.9 411.1 413.4 412.5 410.7 406.8 403.3 398.1 391.8 385.2 380.1 376.7 375.4 373.8 371.6 368.1 363.2 358.2 351.1 342 336.9 326.2 317 310.4 306.2 298.5 293.5 290.8 281.7 277.2 272.7 267.8 264.4 264.1 261.4 259.1 255.3 248.3 246.8 244.8 239.2 237.2 235.5 233.4 234 232.2 231.5 230.8 230.2 229.2 229.4 227.5 228.1 236.5 235.9 239.8 241.4 242.8 243.3 246.1 250.1 252.8 256.3 262.3 268.8 272.6 275.7 283.7 294 303 304.9 319.3 335.7 346.3 354 353.9 354 351.8 349.4 344.8 339.4 333.7 328.9 325.2 319 313.8 307 300.4 294.9 289.6 280.3 272.5 270.5 269.4 267.6 262.9 260.7 254.9 246.7 242.9 241 238.3 233 229.3 227.5 225.9 224.8 223.4 223.2 219.1 219.5 219.8 226.6
386.6 379 379.4 382.7 391 395.8 402.8 412.1 419.6 427.9 435.4 440.6 444.8 449.3 451.7 452.8 453.7 452.6 436.2 411.3 389.1 365.8 344.2 324.3 304.5 286.1 272.4 268.8 267.6 267.1 266 262.5 259.5 256.4 254 253 247.3 237.1 222 219.7 219.5 233.8 247.5 252 256.5 260 262.1 264.6 266.4 270.5 276 283.6 286.9 290 290.3 300.4 305 310.5 315.5 325.7 348.6 367.6 385.2 398.7 405.3 410.9 413.6 412.7 410.3 410.6 411.7 419.3 419.6 418 415.1 413.3 410.3 405.2 401.4 394.8 397 395.3 395 395.3 397.1 401.5 405.4 410.6 409.7 411.8 410.7 407.7 404.6 401.6 396.8 391 384.3 378.9 375.7 373.7 372.5 371 367.3 361.1 354.6 349.6 344.1 338.3 324.1 315.6 310.5 306.4 302.7 298.8 295.5 290.3 283.4 275.3 271.4 267.5 264.4 260.7 258 255.3 252.3 248.9 246.4 239.7 237.2 235.5 233.9 232.9 230.5 230.8 231.2 231.3 230 229.8 230.7 234.5 240.3 238.8 241.1 243.1 245.6 248.1 250.6 253.1 256 258.9 263.1 268.2 273.4 285.3 294.2 301.1 306.8 319.2 332.1 344.7 352.4 356.1 360 364.2 364.8 356 347 343.1 338.5 335.4 329.2 322.5 315.8 308.8 303.2 296.7 291.9 280.8 275.6 275.6 274.6 271.4 268 261.4 258 251.3 245.1 241.9 239.2 232.7 228.4 227.6 226 224.9 224.8 223.8 221.6 220.9 220.7 232.1
355.3 365.5 376 384.4 391.4 396.9 405.3 418.3 426.5 432.9 438.6 442.8 450.6 452.8 451.6 450 447.5 428.1 404.3 381.7 359.9 340.1 321.2 303.1 283.6 270.7 263.9 260 261 259.9 257 254.1 251.1 247.2 244.3 242 240 218.5 216.1 219.9 231.2 244.8 249.9 254.9 258.7 261.2 263.4 265.3 271 278.1 285.1 294.3 294.5 295.6 297.9 298.1 304.7 309.7 315.1 325.7 353.3 370.2 386.6 399.7 411.4 418 418.9 417.6 415 412.2 416.6 424 424.5 422.2 421.3 420.7 416.7 410.2 403.7 395.6 392.8 393 391 390.8 395.3 400.8 403.6 410.8 408.2 410 409.1 406.7 403.8 399.9 395.6 389.6 383.1 377.7 374.1 372.5 371.5 369.9 366.6 361.3 353.1 348.1 343.6 339.1 327.7 317.3 311.7 307.8 303.5 298.3 295.1 289.9 281.1 276.2 272.1 269.9 265.1 260.4 256.3 253.1 250.4 248.7 247 238.4 235.9 234.5 233.5 232.6 232.8 232 232 235.4 240.3 242.3 242.7 242.2 242.3 239.6 242.1 245.3 248.3 250.8 253.3 256.5 259.7 261.7 267.1 272.1 277.6 288.2 299.9 308.7 320.5 334.5 343.7 348 359.4 367.4 371.2 370.3 363.8 353.1 347.7 343.7 338.1 339.4 331.7 322.2 316.6 311.5 305.7 299.4 293.6 283.3 280.4 279.5 278.3 276.9 270.9 264.1 260.2 251.2 245.4 242.3 237.8 234.3 229.1 227.6 226.5 226.2 225.8 220.1 221.7 221.9 226.8 221.9
349.7 370.9 376.9 385.2 392.9 399.3 409.1 423.1 429.7 435.6 439.8 444.6 453.3 451.4 443.1 425.9 409.7 391.3 372.1 351.7 331.9 314.2 295.4 281.5 267.9 256.7 256.9 254.6 253.3 252.8 249.4 246.6 244.4 239.7 236.2 232.5 217.6 213.2 220.2 226.3 238.4 248.9 252.7 256.7 259.7 261.9 264.7 269.4 278 288.4 298.9 303.4 303.6 300.6 302.8 303.9 300.8 309.9 315.7 327.6 352.9 374.5 391.6 404.5 414.3 417.5 423.9 427.9 426 419.6 423.4 426.2 428.2 427.5 425.1 423.3 417.4 410 403.2 394.6 387.7 388 384.7 387.6 394.3 400.2 402.7 404.4 404.2 404.7 404.9 405.8 402.9 399.9 395.8 390.5 383.2 375.9 373.3 371.2 370.1 367.9 364.4 360.8 353.5 348.3 343.2 338.7 328.5 319.3 311.6 304.8 300 294.7 289 285.1 283.3 279.6 275.2 271.3 267.9 264.6 257.4 252.5 249.7 248.2 246.2 240.2 234.1 233.4 234.8 234 233.4 240.1 242.4 243.2 244.3 245.4 245 242.3 244 243.6 244.8 246.9 250.2 253.2 257 260 261.8 265.4 272.4 274.9 286.4 300.2 311.2 325.1 337.5 354.5 357.3 359.6 366.5 371.3 371.4 367.1 357.4 350.8 345.2 339.8 334.4 339.8 329.1 323.6 314.8 308.8 304.5 298.6 293.2 286.1 283.8 282.5 281 278.8 273.3 267.6 263.9 258.4 248.9 242.2 237.4 233.2 229.6 227.8 227.3 227 223.6 223.7 227.5 230.6 233.7 227.5
357.5 369.8 377.6 387.3 396.3 404.8 418 428 433.6 438.6 442.7 448.5 447.4 428 407.8 389 373.7 358 340.3 322.9 305.3 288.7 275.2 261.5 251.4 247.2 247.5 248 245.3 245.5 241.7 239.7 237.6 229.2 216.8 215.4 210.9 218.4 223.3 227.8 238.6 245.1 253.3 256.4 259.3 262.5 267 276.9 287.6 300.2 309.3 313.4 309.8 306.1 306.4 307 309.3 307.3 317.1 327.5 352.9 378.3 395.7 408.9 415.6 417.6 426.9 435.1 438.1 434.3 435.9 431.6 431.9 431.1 426.9 423 415.9 407.5 397 387.8 386.2 383.3 382.4 385.1 390.2 396.8 400.4 398 398.5 397.9 398.1 399.7 401 398.5 394.5 389.2 381.7 374.3 370.3 369.5 367.8 366.1 363 360.2 352 347.4 342.7 335.8 329.4 317.7 315.4 311.2 307.6 306.1 300.9 296.6 293.3 286.9 279.5 273.3 269.7 264.4 258.7 252.1 247 246.2 241.3 236.8 235.8 236.2 236.8 238.2 238.8 241.4 243.7 245.8 246.8 246.8 246.4 245.7 246.4 246.8 250 250.6 252.6 255.6 260.5 263.4 266 270.4 274.7 281.5 294.2 308.6 324.7 340.3 354.5 363.3 366.2 368.9 369.4 365.8 361.2 357.8 352 345.8 338.6 333.8 328.8 329.7 322.5 318.2 311.1 306.2 301.7 296.7 293 289.2 287.2 285.2 282.9 280.1 274.1 269 264.9 260.8 255 243.4 238.3 232.7 229.9 228.6 228.2 224.8 224.5 224.8 230.3 235.7 238.1 235
359.7 367.9 376.7 391.6 398.4 413.2 422.6 430.8 436.3 441.2 444.4 434.4 411.1 391.7 373.5 355.9 340.3 326 310.6 296.3 279.6 263.5 253.5 244.1 242 240.8 240.7 241.4 238.5 237.9 234.3 232.3 228.3 211.6 210.1 209.9 219 222.4 229.6 240.4 247.7 251.4 251.5 257.7 263.2 266.7 272.5 284.1 296.5 305.2 314.2 321.2 317.5 312.8 310.3 310.4 312.3 314 313 324.2 352.2 373.7 394.9 405 411.2 416.5 428 435.5 445 443.3 443.6 440 440.2 435.3 427.4 422.5 414.2 401.5 390.9 384.4 381.4 380.3 380 381.5 383.7 387.3 397.3 390.8 388.9 386.9 390.2 392.7 392.8 389.1 385.8 381.4 375.8 370 366.7 366.2 365.8 363.6 361.9 358.3 350.4 345.9 341.7 334 330.4 323.1 317.7 313.7 311.1 309.4 305.1 299.6 295.2 288 281.6 276.3 273.5 264.7 256.9 252 247.9 242.8 241.2 238.1 236.2 236.9 244.7 245.1 242.8 243.4 245.4 247.5 248.5 249.1 248 247.5 248.5 250.6 253.5 254.7 256.5 258.6 263.4 265.5 268.6 273.8 278.1 287.1 302.6 322.4 341.3 354 362.4 368.5 371.7 368.8 361.3 355.1 352.9 345.9 339.8 334 330.8 328.7 326.8 323.4 318.2 314.7 311.5 307 301.3 296 292.1 290.1 287.9 285.3 283.2 279.9 274.3 269.4 265.5 261.2 255 247 238.9 232.4 230.4 229.5 226.3 226.3 225.4 231.4 232.9 235 239.8 243.6
358.7 367.4 378 389.6 402.7 415.7 423.8 430.6 436.3 438.1 421.6 399.5 377.3 359 342.4 325.9 310.3 296.6 282.7 267.7 254.4 244.7 235.5 234.3 233.5 235.1 234.3 234.2 233.2 231.2 227.6 218.4 208.3 205.9 213 223.9 234 232 240.1 246.8 250.4 254.9 258.5 261.3 266.1 272.5 281.5 291.2 300.4 307.6 315 320.2 323.8 324.6 324.1 318.7 317 318.8 317.7 324.2 344 369.1 391.8 402.6 410.9 418.5 427.2 437.1 441.1 443.8 444.3 446.7 441.6 435.9 429 419.4 408.8 394.4 385.9 382.3 378.4 377.4 376.3 376 376 381.2 383.4 376.5 376.4 377.3 379.1 384.6 385.2 383 380 375.4 370.4 367.1 364.8 364.1 363.1 362.3 360.5 355.7 347.7 346.7 343.6 340.3 333.2 326.1 320.3 316.4 315.2 312.4 308.6 301.8 296.5 289.4 283.1 278.6 270 264 257.2 251.5 245.9 241.5 241.3 240.6 237.5 236.1 240.8 248.7 249.4 249.9 248.9 249.1 250.4 252 250.6 251.2 252.6 255.4 255.5 260.1 261.8 267.3 269.3 268.8 271.4 276.4 283.1 296.2 314.9 329.4 344.6 359.8 364.2 364.2 362.4 353.6 346.2 342.9 340.4 333.5 333.4 333.7 331.7 331.4 325 320.8 313.8 312.8 307.7 302.1 296.9 292 290.9 289 286.7 284.4 281.5 277.8 274.4 267.6 263.9 261 254.1 250.3 242 237.2 231.2 229.7 228 230.1 235.2 234.9 234 238.5 240.2 241.4
358.5 368.3 377 388.7 405.5 417.1 423 428.3 416.2 403.3 385.7 365.3 346.3 328.7 312.7 297.6 283.3 269.1 254.8 242.9 230.3 227.6 225.5 223.2 226.4 227 225.2 226.2 225.4 218 209.9 208.7 208.9 222.8 230.2 238.2 243.2 246.2 250 253.7 257.2 260.1 264 266.5 269.9 273.9 281.9 291.3 298.5 303.9 312.8 318.7 324.3 328.5 332.4 334.2 329.6 322 322.7 325.5 343 366.1 387 401.9 408.8 415.6 430.3 439.5 444.1 444.4 446.4 446.5 442.2 435.9 425.3 415.1 401.8 388.9 382.6 379 377.7 375.5 375.8 374.8 370 352.7 360.3 362.9 369.1 372.1 378.3 383.4 384.3 383.9 380.3 375.5 370.9 368.7 367.3 367.1 365.7 363.5 360.3 357.7 356 353.5 351 346.7 338.4 330.7 325 319.3 316.3 314 310.2 306.3 303.4 293.4 285.5 279.6 268.7 262.7 257.7 252.9 247.2 242.2 241.9 241.5 238.7 238.5 238.6 250.7 252.4 253.7 253.2 252.1 252.8 254.4 255.6 256.5 256.3 260 257.8 262.6 266.7 269.5 270.9 272.7 274 279 290.9 309.9 321.3 334.7 348.4 359.6 358.2 352.4 342.6 331.7 330.7 332.4 331.2 329.3 330.2 329.5 329.1 322.7 319.2 314.2 308 307.2 300 294.5 290.6 288.5 288 286.9 285.4 281.9 279.3 276.4 273 266.2 261.4 258.5 253.7 247.7 242.5 238.5 232 229.5 228.6 234.3 240.2 241.4 238.6 243 245.3 244.2
347.8 364.9 378.2 390.9 403.7 413.3 418.1 399.3 380.7 366.1 350.3 333.9 316.9 301.1 285.6 271.3 256.7 243.8 231.3 222.1 219.5 216.1 217.2 217.6 219.3 219.5 218.8 219.3 207.5 198.1 208.4 220 232.5 240.2 246.3 249.2 251.6 253.8 256.7 261.4 264.1 264.3 270.4 273.6 273.9 279.2 284.3 289 296.9 305.4 312.7 321.9 328.9 338.2 349.2 352.7 345.2 336.6 340.9 344.4 355.4 370.6 387 404.3 412.3 421.3 431.4 444.7 448.1 445.3 445.6 443.6 439.6 431.7 419.9 408.5 394.1 385 379.9 378.4 378.1 379.1 382.1 383.1 381 371.2 354.2 348.1 356.6 365.9 375.3 381.5 382 381.7 379.9 376.8 373.4 373 372.6 374 373.7 371.3 367.8 364.2 362.3 359.2 356.3 350.4 341.2 332.9 325.8 319.8 317.1 314.2 311.2 308.6 303.8 297.5 288.9 277.2 268 261.6 257.1 248.5 246.5 244 242.6 242.5 241.8 239.9 239.5 250.9 254.1 256.2 255.3 254.5 255.6 257.6 259.9 261 258.9 263.1 263.4 262.9 267.2 269.7 272.5 277.3 279.5 285.2 297.2 314.6 325.7 339.8 349.9 348.1 337.8 329.9 328.4 327.2 327.9 331.7 328.3 327 326.1 325.9 324.4 320.1 314.6 308.7 303.9 298.1 292 287.6 286.4 285.8 285.3 284.5 282.7 278.1 276.6 274.3 271.4 265.2 260.4 256.8 252.6 245.9 242.3 237 231.9 229.5 235.9 241.5 244 247.3 247.1 248.9 251.1 249.6
344.4 364 380.8 394.1 402.4 402.8 384.1 365.2 347.1 330.6 317.2 304 289.8 274.1 258.8 245.3 231.2 222.3 211.2 210.9 210 209.3 210.4 211.2 212.2 212 210.7 198.5 205.7 217.4 224.7 239.2 251 255.2 258.1 260.2 262.1 265.1 268.2 271.4 272.1 272 276.4 280.7 284.6 288.6 292.7 298.5 304.7 310.8 318.5 326.9 339.3 351.7 363.1 372.1 371 366 358.2 361.3 363.4 381.1 397 404 415.8 419.9 435.1 443.2 442.6 445.4 442.6 439.4 434.3 425 414.2 400.2 386.5 381.3 378.7 378.7 380.2 383.9 387.6 389.4 386.8 375.3 354.9 338.7 347.8 355.1 363.7 369.9 372.2 373.1 372.8 371.6 371.6 373.6 375.9 377.4 378 375.9 372.8 368.7 366.4 362.8 359.8 352 341.5 331.7 323.5 318.4 315 313.2 311 307.8 303.5 297.4 289.2 277.4 270.2 261.7 254.5 251.5 248.1 245.1 243.7 243.4 242.7 239.1 240.3 249.1 255.6 257.3 257.5 258.4 260.3 262.4 263.2 264.3 264.8 264.6 266.4 267.3 268.5 272.8 278.5 284.4 288.5 293.4 300.5 311.5 328.8 339 339.7 330.5 323.8 324.9 326.1 327.2 330.9 325.4 322.5 322.3 320.9 325.5 318.4 312.6 306.3 298.9 294.3 289.9 286 284.7 283.3 282.6 282.6 281.8 280.2 275.2 273.6 272 268.7 263.3 259.3 253.7 246.8 244.1 241.1 234 232.3 230.2 243.3 247.6 248.6 251.4 253.4 253.9 255.3 259
359.1 372.6 386.2 394.6 384.1 366.7 350.1 331.5 315 300.1 288.1 276.4 262.8 247.9 235.3 222 212.7 206.3 203.4 204.1 202.8 201.4 203.7 204.1 202.8 202.1 196.2 212 222.2 232.5 246.7 255 261.3 266.5 270.4 273.5 276.2 277.8 280.1 281.6 281.2 280.1 285.4 291.6 295.5 299.4 303.2 310.5 315.2 323.2 334.6 344.9 355.3 369.1 381 388.1 392 386.8 370.1 378.7 386.7 388.2 401.5 411.8 417.1 424.4 438.9 443.1 441.9 440.1 438.8 435.3 428.6 417.6 404.2 392.1 384.7 380.1 379.7 381.4 384.2 387.7 389.2 389.3 389.4 375.8 357.6 339.6 340.7 345.9 348.7 353.7 358.7 362.3 363.9 365.3 368.2 372.9 377.2 380.2 381 379 375.6 371.8 368.8 365.1 360 348.8 338.5 327.5 320.5 315.8 313.4 311.3 309.3 305.7 300.7 294.8 288.7 278.1 271.3 262.3 255.5 252.7 249.7 247.8 247.3 243.6 241.5 239.4 243.9 251.7 255.9 257.3 258.8 260.3 262.1 264.2 265.1 266.2 266.7 266.9 269.1 272 273.1 278.9 283 284.2 288 293.4 303.9 317.6 326 327.3 321.3 316.1 317.2 323.7 327.3 325 318.1 313.3 311.8 309.7 311.3 316.4 304.2 300.3 296.1 291.9 289 285.2 284.5 283.2 282.4 281.4 280.5 278.1 276 273.6 270.7 267.7 263.8 261.4 258 250.8 245.6 241.1 232.9 232.4 231 237.6 247.9 252.5 256.9 256.6 256.5 258 260.8 261.8
368.9 381.4 387 385.3 361.8 330.2 317.2 301.6 287.3 273.7 259.5 248.1 238 229.3 215.4 206.9 204.4 200.4 199.9 197.5 195.6 195.1 196.1 196.7 194.4 205.9 213 227.5 235 244.8 258 264 271.6 277.1 280.9 283.8 286.8 289.5 292.6 290.3 288.8 289.4 293.5 298.8 305.6 312.2 324.3 330.5 336.5 348.2 355.6 365.9 377.7 388.8 397.8 402.4 407.6 404 400.7 400.3 401.2 399 401.5 409.5 412.9 423.8 435.6 440.1 440.7 439.2 436.4 429.2 420.3 408.4 394.2 386.3 382 380.4 381.8 384 387.5 389.5 389.4 388 389.3 377.1 365.8 350.2 334.2 334.3 335 337.5 344.1 350.1 354.8 357.6 364.3 372 376.6 381.4 382 380 376.7 372.6 369.1 364 357.2 346.4 333.7 322.3 317.2 313.2 312.5 310 306.5 302.7 296.5 291.3 287.1 277.7 270.7 263 260.2 256.5 253.4 252.2 250.9 248.5 242.5 242.7 241.9 244.8 255.6 257.3 259.5 260.8 262.8 265 266.4 267.5 268.9 270.7 271.8 272.7 275.7 276.8 279.5 281.3 284.8 290.9 299 313.7 317.4 317.5 313.8 310.4 310.4 319.9 318 311.9 305.1 304.7 303.9 305.3 300.1 298.8 296.1 294.2 291.2 288.5 286.4 283.9 283.3 282.2 281.7 281.3 281.7 280.8 277.5 274.6 271.5 267.9 264.2 259.5 256.2 251.1 240 234.9 233.6 231.3 232.9 245.5 254.6 259.7 263.3 264.8 262.4 258 265.3 266.8
370.4 383.3 378.8 357.1 333.9 308.7 285.8 274.4 258.6 245.8 236.2 225.9 218.1 209.1 204.1 201.5 199 193.8 193.5 190.6 191.1 192.9 193.1 189.5 202.7 226.6 232.8 238.5 247.1 256.4 266.5 276.3 283.3 288.1 293.1 296.3 302.5 302 298.4 298.4 300.3 300.8 303 309.4 321.4 337.3 346.1 350.7 358.5 368.2 376.4 387.8 393.9 402.3 413.6 419.6 419.3 422 420.4 414 412.4 409.1 410.6 413.3 414 419.3 430.9 437.7 439.2 437.2 431.3 420.1 407.4 393.8 387.9 383.9 381.9 380.6 383.3 387.3 390.8 392.4 391.4 390.7 386 377.6 368.6 359.6 343.3 328.7 324.8 328.1 331.4 335 341 349.1 358.4 367.4 374.1 379 379.9 379.2 374.8 371.2 366 359.8 352.3 340.6 326.2 316.3 312.4 310.4 309.8 307.5 303 299.2 292.6 288.4 284.6 278.5 270.4 264.6 261.9 259.8 256.7 254.6 252.7 249.2 243.7 243.6 243.7 247.2 255.3 257.5 259.5 261.4 263.2 265.5 267.8 270 272.2 272.8 274.2 275.6 277.2 278.1 280 282.2 286.9 296.7 298 303.2 303.6 303.3 303.7 304.7 306.2 310.4 305 304.1 302.9 300.7 299.2 302.4 296.3 294.1 291.3 288.8 286.3 284.8 283.4 282.8 282.8 282.3 282.9 283.7 283.4 280.7 276.9 273.4 270.5 268.3 265.3 260.3 253.6 245.3 237.3 236.1 236.9 238.9 243 255.1 265.6 267.5 269.4 270.1 267.2 267.6 260.1 271
371.9 372.7 351.1 328.9 304.2 283.2 263.9 249.5 236.6 225.4 215.9 206.2 203.9 201.7 198 197.1 195.2 189.1 180.4 183.2 188 191.8 187.2 202.9 227.9 234.3 242 255.7 261.8 270.1 279.9 289.4 293.7 300.2 307.9 313.2 315.2 313.7 311.3 312.8 317.2 315.5 315.6 327.8 348.5 361.7 368.5 373.7 383.3 391.1 400.1 410.6 415.6 421 428.6 432.3 434.7 432.3 428.7 421.9 418.6 415.2 414.8 415.3 416.1 419.7 424.6 430.3 432.8 430 421.3 412.6 395.9 389.1 385.5 383.3 382.3 383.3 386 389.8 393.3 392.8 393.7 394.7 385.2 378.4 369.3 360.9 353.5 336.7 323.8 317.3 321 325 330.3 338.9 347.5 358.3 371.1 376.7 377.6 376.1 372.9 368 361.9 354.7 347.1 334.1 318.4 312.6 308.7 308.5 306.7 303.5 296.7 295 290.5 285.6 282.9 278.8 272.3 267.1 264.6 261.8 257.1 254.6 252.5 250.6 246 244.8 242.4 248.6 255.3 257.2 260 262.5 264.8 266.8 269.1 271 273.1 275.3 277.6 279.3 279.9 281.3 282.5 285.1 291 293.9 294.9 296.4 297.3 298.7 300.4 301.9 303.5 304.1 304.3 306.8 307.8 303.1 297.5 293.3 290.9 288.1 286 283.6 282.8 282.8 282.9 283.8 288.4 290.4 289.3 287.4 283.4 278.5 273.8 270.6 268.1 267.4 263.6 259 253.5 240.4 237.8 238.8 238.8 244.3 254.8 269.8 273.9 275.5 276.8 277.7 272.6 272.4 265.4 270.6
365.7 348.5 323.2 298.9 277.9 259.8 243.2 232.6 219.6 209.4 201 197.2 197.7 195.4 194.9 191.3 188.4 180.6 181.5 188.4 194.4 206.6 214.9 226.7 235.4 243.9 257.5 269.3 279.2 286.7 292.8 298.5 306.3 313 320.1 325.6 327.9 326.5 326.9 329.6 332.5 332 340.1 353.1 367 382 387 398.1 402.8 407.8 416.9 425.6 431 434.3 435.4 436.3 436.8 435.3 432.7 428 423 419.4 418.1 416.9 417 418.8 420.4 421.1 420.8 416.7 410.2 397.4 389.6 384.9 383.6 384.1 384.7 387.4 389.6 393.6 395 394.4 397.7 397.4 386.7 378.5 370.8 363 353.8 345.6 333.9 320.7 311.4 313.6 321.7 326.5 334.6 352.7 368.3 373.7 374.5 373.2 369.2 364 357.5 350.4 341.2 325.6 315.4 309.2 306.3 305.7 301.8 298.5 292 288.9 287.9 281.8 279.9 277.8 275.3 270.1 266.9 263.4 257.3 254.4 252.6 251.2 249.1 246.1 243.5 250.3 253 257.7 260.4 263.2 265.6 267.7 269.2 271.6 274 276.4 278.2 280 281.9 284.5 286.7 286.4 290.2 292.6 295 296.2 297.5 298.8 300.7 302.9 303.8 303.9 303.1 302.7 299 294.3 291 288.8 286.6 284.6 283.3 282 281.2 282.5 283.2 285.2 287 287.6 284.1 280.1 277 274.9 270.1 267.1 265.8 263.5 260.2 253.9 249.1 239.9 239.1 238.8 248.3 260.2 269.9 279.7 282.2 283.6 284.8 283.3 279.3 275.8 273.2 277.4
351.1 322.8 297.7 273.3 254.2 237.4 225.4 217.4 209.8 200.5 194.2 192 191.1 193.6 187.1 183 181.3 184.9 204.9 202 215.9 216.9 225.9 238.6 245.5 256.5 276.6 282.9 292.7 301.6 309.3 311.8 320.7 327.4 334.6 338.3 339.8 342.8 342.6 344.8 351.8 356.7 364.5 374 388 399 406.1 414.9 419.2 426.1 430.3 432.6 434.1 435.1 436 436.3 436.7 435.9 435.2 431.7 426 421.6 419.3 418.6 418.8 419 417.7 416.6 409.8 403.6 396.4 390.4 387.3 385.2 384.7 385.9 388.1 390.4 393.2 396.1 396.1 399.9 405.2 396.3 389.1 382 374.9 365.8 358 351.8 342.8 327.2 316.4 310.3 308.5 316.6 328.6 342.7 354.3 360.7 364.9 361.8 358.8 357 353.5 341.2 334.5 319.5 309.8 304.9 303.3 302.5 298.8 294.2 287.1 284.7 281.5 279.3 277.5 276.5 273.4 269 265.9 262.6 260.5 257.7 256.5 253.5 250.2 246.5 244.3 253.7 256.5 258.8 259.5 263.6 265.6 268.2 270.2 271.6 275.2 277.9 280.2 282.9 283.6 286.1 288.4 289.8 291.4 291.2 295.3 297.4 298.8 300.4 302.1 303.7 303.6 302.9 300.7 296.9 293.4 290.5 288.7 286.4 284.7 282.1 281.3 278.3 278.5 279.1 278.7 276.1 276.6 276.9 277.8 274.5 271.3 268 265.5 264.2 262.7 259.7 255.2 249.8 241.4 240.3 238.9 245.6 262.5 275.6 282.6 288 290 291.1 290.6 287.7 281.3 274.6 278.4 280.5
322.5 294.5 272 251.6 234.6 223.2 211.5 204.5 196.6 194.3 190 184.3 187.4 175 171.1 187 195.5 212.8 220.8 219.7 226.9 231.1 237.7 244.5 258 271.8 292.7 298 305.7 316.1 321.2 325.2 336.3 342.9 347.2 350.4 353.1 354.9 356.9 361.2 367.3 372.8 381.5 390.6 402.8 410.6 418.6 423 430.5 431.8 434.4 434.6 434.3 433.7 435.1 437.6 437 435.8 434.8 433.6 431.1 426.5 422.3 422.3 423.3 424.2 421 414.8 411.6 401.5 391.5 387.6 387 386.2 386.6 389.1 392.8 395.7 398.2 400.1 403.7 411.7 405.8 400.5 392.9 386.2 379.3 372.1 362.9 354.8 344.4 329.2 319.6 312.3 303.3 310.3 316.3 326 332.7 339 342.7 344.9 351.1 348.9 344.7 337.1 323.4 310.3 302 300.2 300.5 298.3 291.5 290.7 285.9 281.6 279.7 277 275.7 274.7 271.6 266.1 264.3 264 262.1 259.9 257.5 254.7 246.8 246.7 247.9 255.9 257.8 260.4 261.1 265.5 268.1 269 271.3 273.7 275.9 279.9 282.4 284 285.4 287.5 289.3 291.1 293.2 295.7 297.4 299 301.1 301.9 303.3 304.2 304.1 302.4 300 297.2 294.1 291.9 290.1 288.4 285.9 284.3 281.3 277.8 272.3 272.2 272.9 274.1 274.2 274.6 273.1 266.3 264.4 262.9 261.9 258.9 257.8 254.6 248.5 244.3 242 243.9 245.4 259.3 276.3 287.5 291.5 294.9 295.2 294.4 291 287.8 281.7 280.6 282.1 285.1
293.6 269.7 249.8 231.2 218.7 211.4 199.2 191.2 182.3 189.3 177.1 176.4 167.8 191 207.6 211.8 223.6 231.2 233.8 232.8 237.9 244.1 251.1 261.8 275.9 293.2 303.8 313.8 322.8 327.9 330.8 342.2 348.8 352.6 356.1 359.1 362.2 365.5 368.1 373.5 379.2 386.2 396.1 405 410.6 418.1 422.9 425.9 430.3 430.8 430.4 430.1 431 431.3 433.6 434.8 435.4 437.1 437.3 436.5 434.3 430.8 427.5 429.4 429.1 428.7 422.1 415 407.3 398.4 390.2 388.5 388 387.4 389.4 394.4 397.5 401.4 405.5 411.3 412.3 411.6 405.1 400.6 392.5 386.1 380.5 374.4 364.9 355.3 340 333.6 323.4 311.6 302 300.3 300.5 303.4 307.8 312.5 317.6 328.3 331.5 328.5 329 321.6 310.3 300.8 297.2 297 295.9 293.3 290.2 286 284.6 279.1 277.6 275.1 273.8 273 270.2 265.5 264.3 264.1 257.7 257.2 257 248.8 247.6 245.1 254.8 257.2 259.9 262.8 264.3 267.2 268.9 270.9 272.4 275.1 277.7 278.8 280.9 283.9 286.4 288.1 289.9 292.5 294.7 297.5 299.5 301.5 303.4 304.9 305.9 306.4 305.5 304 302.1 299.5 296.8 295.3 295.1 292 288.7 285.8 283.1 277.4 274.2 270.3 266.5 267.4 270 268.2 261.3 259.1 258.6 255.7 253.6 251.1 250.2 254.1 252.4 242.6 244.1 245.5 257.8 270.8 286 294.7 297.6 299.7 299 295.6 291.7 286.2 282.4 286.7 287.8 290.8
267.1 247.7 230.7 216 208.6 199.7 178.7 173.6 169.5 164.5 171.1 176.3 192.5 205.4 222.3 226.2 237.3 245.7 245.7 246.2 249.4 260.6 272.2 280.8 292.7 306.8 317.8 326.2 335.3 338.2 344.6 351.2 351.9 348.1 351.7 357.9 363.2 370.6 377 384 392.7 401.1 410.8 417 422.3 425.7 428.6 428.1 427.3 425.6 424.2 423.1 424.3 425.9 428.9 432.2 435.2 437.7 438.4 436.8 434.3 431.5 430.4 429.5 428.9 424 417.2 410 401.7 394.6 391.4 389.4 389.4 390.1 394.1 398.6 402.9 407.2 413.6 418 420.6 412.2 405.9 398.6 394.6 387.5 381 372 361.3 349.8 340.1 331.5 321 309.3 304.1 296.8 294.4 293.8 292.8 295.4 306 310.5 312.3 313.9 313.5 306.6 299.6 296 294.4 293 291 288.4 286.4 282.1 281.4 277.4 274.8 273 272.2 270.9 268.5 264.7 264.3 262.3 249 248.6 247.5 247.7 245.7 252.3 256.7 259.1 263.3 266 266.1 268.3 270.5 272.1 273.7 275.3 276.9 280.3 282.3 284.3 286.3 288.2 290 292.8 295.9 298.5 300.9 302.5 304.9 307.6 308.8 309.1 308.3 306.8 305 302.5 307.2 304.5 300 294.7 291.5 288.5 285.6 282.4 277.7 274.2 269.4 265.1 263.1 262.3 265.1 265.7 266.8 266.5 265.4 262.1 263 261.7 257.4 244.8 246.8 249.9 268 280.5 293 299.4 303.7 302.6 300.3 296.5 290.2 282.3 287.7 289.7 291.8 294.4
245.9 229.6 213.4 202.2 196.7 187 172.7 167.3 161.2 170 174.5 193.6 211.9 232.3 237.4 249.3 258.8 261 261.1 261.6 262.4 276.5 285.7 292.2 302.3 311.7 327.4 338.4 343.1 346.6 343.4 337.7 334.6 334.6 338.6 347.1 363.7 377.6 387.1 394.6 402.1 409.3 416.5 422.3 424.6 427.3 427.9 425.2 421.9 418.3 419 420.8 422.5 425 426.9 431.5 435.7 438.8 439.2 437.3 434.8 433 431.7 428.9 422.1 416.6 409.5 403.4 397.6 394.7 393 391.8 391.5 392.7 398.3 402.3 408.1 415.7 422.4 421.2 416.6 411.4 405.3 398.3 390.4 385.3 377.1 368.3 357.5 345.8 334.1 329.1 324.3 319.6 309.6 300.7 296.5 293.8 294.8 288.9 287.5 285.9 291.2 298.6 297.5 294.2 294.4 293.1 291.7 289.9 286.6 282.9 281.3 278.7 277.7 276.2 272.5 271.1 269.5 267.3 263.5 262.9 262.5 257.9 249.9 253.1 257.4 255.7 259 256.5 258.3 261.5 266 268.4 269.2 271.2 272.7 275.2 276.9 277.1 278.7 281.2 283.1 285 286.8 288.7 290.3 292.8 296.3 298.9 301.5 303.5 306 308.5 311.1 311.8 311.8 310.8 310.1 315 311.5 305.9 300.9 296.3 292.9 288.9 285.7 282.6 278.9 274.6 271.7 267.5 264.7 265.4 266.6 267.1 267.7 267.4 266.8 265.3 265.3 264.5 261.6 247.1 249 260.7 278.5 288.1 300 303.8 306.3 302.9 300.1 295.4 291.5 288.4 290.8 291.5 294.3 296.9
226.5 212.5 198.6 190.9 183.8 173.9 165.1 165.8 162 173.2 187 213.1 231.1 246.9 255.1 267.9 274.6 275.8 277.1 275.2 279.5 289.3 299.3 302 307.3 310.8 329.9 333.4 331.4 326.6 319.6 320.7 320.1 319.6 325.6 349.4 370 386.4 395 399.7 403.3 408.8 415.6 418.4 422.4 420.1 417.3 414 411.5 413.2 415.1 419.1 421.8 424.4 427.7 432.2 435.1 437 437.3 437.3 436.8 434 429.3 422.3 418.3 412.6 404.9 401.4 397.4 395.3 394.3 394.4 393.3 398.6 401.8 408.3 415.7 420.9 421.8 417.9 416.5 412.7 407.1 399.4 392.8 384.9 374 357.5 355.2 349.4 340.3 334.5 328.1 326 320.3 310.5 300.9 300.4 300.7 299.3 298.2 297.3 284.7 281.9 283 286.9 288.4 288.6 287.9 285.4 282.5 279.1 278 276.1 274.5 273.9 270.3 264.1 264.3 263.5 260.5 260.8 259.1 251.1 254.2 257 260.6 261.3 261.3 262.6 264.2 262.6 267 269.1 271.5 272.9 275 277.3 279.1 280.7 281.6 281.5 283.9 285.7 287.4 289.1 290.9 294.1 297 299.3 301.7 304.7 310.2 316.4 321.2 323.3 321 316.9 320.2 316.9 311 305.5 300.4 296.6 294 289.6 286.1 283 280.2 275.6 272.4 268.4 267.2 268.6 269 269.1 268.7 268.3 268.3 267.6 267.5 265.9 266.3 266.3 255.6 265.2 286.4 295.5 304.4 305.9 304.9 301.7 297.4 294.3 289.9 290.2 292.4 293.9 296.1 298.6
212.7 195.7 187.9 180.6 174.4 163.3 164.2 159.6 172.8 186.1 206.1 229.2 240.8 257.5 270.4 283 288.1 287.9 290.2 288.9 290.1 287 296 298.3 302.7 302.8 308 305.5 298.6 301.9 307.7 308.3 305.6 308.2 326.8 358.3 380.7 397 399.6 399.1 400.8 406.3 411.6 410.8 408.6 404.7 404.3 403.7 406.5 407.5 411.8 416.5 420 424.3 429.4 431.5 433.1 435.2 435.3 434.7 431.5 425.5 420.3 417.5 412.6 407.3 401.7 398.9 397.2 395.7 395.2 395 398.6 401.6 404.9 412.1 422.7 424 421.6 421.4 419.4 413.6 408.4 403.2 397.1 387.5 376.2 368.1 366.2 362.9 359.2 354.8 346.6 339.2 336.5 327.3 314 314.4 311.4 303.7 301.5 299.5 297.5 294.8 286.7 278.9 281.7 279.5 280.8 279 279.1 276.5 274.8 273 271.5 270.2 266.7 258.5 258.3 255.8 254.4 256.2 253.4 250.7 258.3 261.6 261.4 262.9 263.1 264.5 266.1 267.1 268.5 270.1 272.6 274.5 276.5 278.5 280.5 282.2 283.2 283.8 284.8 286.1 287.7 289.4 292.4 295.6 298.3 302.1 307.8 317.6 326.3 329.8 334.2 337.6 332.8 330.1 322.9 314.3 308.8 302.3 299.2 297.1 295.4 290.6 287.1 283.8 280.4 277.3 273.3 269 270.4 270.9 270.8 271.1 270.9 271.2 270.8 270.1 270.4 269.7 270.6 271.8 252 272.8 289.3 299.1 303 301.9 300.4 297.3 295.8 292.8 291.3 291.8 294.1 296.1 298 300.2
199 185.9 179.6 173.2 163 161.2 159 172.6 185.3 200.2 216.8 230 244 261.5 280 295.4 298 299.1 299.8 297.1 280 281.4 284.2 283.5 284 282.9 282.6 279.8 282 289.9 294.1 290.1 298.5 310.4 342.3 371.4 392.9 398.1 399.2 397.3 396.3 397.4 394.6 393.5 393.4 393.9 395.8 399 401.9 408.6 415.8 419.8 422.8 426 428.9 429.5 430.8 428.9 426.1 421.9 418.3 415.4 412.6 408.9 404.7 401 398.2 397.1 396.9 396.5 396.6 398.5 401.5 404.1 407.6 413.7 425.6 430.1 429.1 424.9 420.2 416.9 411.1 408.2 400.6 393.7 388.5 383.2 380.8 375 369.7 363.4 351 352.8 348.7 336.7 325.2 320 317.3 314.6 308.4 305 302.8 301.2 300.2 296.4 289.1 281.9 273.1 272.8 275.3 273.4 271.6 269.8 267.8 265.5 263.3 256.4 254.2 252.6 251.8 251.1 255.4 260.4 262.2 263.2 263.2 264.2 264.9 265 267.4 268.6 270.6 272.2 273.5 276.2 277.8 279.8 281.8 283.3 284 285.2 285.5 286.3 287.8 289.9 294.2 298.7 302.4 308.4 320.4 331.6 335.9 340.2 344.1 340.2 334.9 327.6 319.3 310.2 305.1 301.8 299.3 297 296.6 294 287.8 284.6 280.1 275.3 271.8 271.5 273 273.6 273.8 274.7 277.7 275.3 277.2 277.8 275.3 275.3 276.4 276.8 270.7 254.4 286.3 291.7 297.6 299.4 296.4 296.8 294.9 291.7 292.6 293.8 296 298 300.2 302.8
187.9 177.6 173.7 166.8 157.7 154.2 168.7 181.6 195.2 211 226.9 235.1 245.5 262.2 283.4 300.1 302.1 303.8 304.8 281.8 266.5 269.2 270 269.5 269.2 266.5 265.9 267.8 274.6 277.2 277.1 288.9 305.2 329.2 359.4 387.4 398.9 398.4 395.7 393.1 391.4 390.1 390.5 391 392.2 393.3 395 400.1 406.1 413.1 421 422.2 424.3 427 425.4 421.6 418.2 415.1 411.9 409.1 404.5 400.2 397.7 395.4 394.8 397 396.5 396.3 397.3 398.2 399.6 401.5 403.9 407.1 411.3 416.8 425.6 429.4 429 425.1 422.4 417.5 415.2 408.9 403.8 399.3 391.7 388.7 382.2 376.2 369.5 361.8 359.3 357.5 352.1 342.9 332.7 324.8 321.6 319.8 317 313.9 313.6 311.5 307.3 304.2 298 290.3 279.3 271.7 268.7 268.4 265.5 263.5 263.2 256 256.4 254.7 253.1 252.9 252.2 255 261.8 262.2 263.2 264.7 265.6 265.9 266.4 267.1 270 270.6 272 273.9 275.6 276.9 279.1 281.1 282.7 284.3 284.9 285.7 286.1 287.2 287.8 292.7 298.2 302 310.4 315.8 324.5 332.3 340.4 344.1 344.5 339.6 330.3 320.5 312.5 308.6 304.3 302.1 300.4 298.7 296.9 294.4 288.8 284.3 280.7 279.3 274.3 274.2 275.4 277.4 279.1 279.5 281.9 281.9 281.8 282.2 282.1 280.1 281 281.1 277.9 256.9 281.7 290.5 292.5 294.1 294.9 295.3 293.3 291.7 293.6 295.5 297.7 300.2 302.5 305
184.4 172.7 167 158.9 155.5 168 182.6 198.7 210.7 217.5 227.2 235.6 243.4 262.2 285.4 295.9 298 299.2 282.5 265.6 254 253.9 250.1 246.9 245.9 251.7 256.1 259.4 263.7 268.5 279.4 298 322.5 348 372.2 393.5 400.2 397.9 395.3 392.9 391.1 390.6 390.7 391.5 392.4 393.1 397.2 404.9 412.2 417.6 418.8 421.8 424.8 417.6 410.9 407.4 404.5 401.7 395.7 388.4 386 387 388.4 389.2 390.7 393.1 395.3 397.3 398.8 401 402.4 404.2 407.7 412.8 417.3 421.7 428.1 430.1 428.8 426.8 423.1 418.3 414.4 409.9 404.3 400.4 395.1 389.4 383.5 379 374 369.8 365.6 361.1 354.6 347 335.1 328.4 324.4 322.9 321.2 318.9 315 309.8 305.3 300.6 295.7 290.6 280.5 272.4 265.2 265 263 261.3 258.6 256.1 255.5 254.9 254 253.8 261.3 262.6 263.3 263.7 266 267.1 267.6 267.8 268.3 269.5 271.3 273.4 274.3 276.2 277.4 279.5 280.4 282 283.7 285.5 286.1 286.4 286.8 287.8 292.8 302.2 305.7 305.1 311.9 319.8 332.6 342 344.7 344 338.5 331.4 322.3 317 314.9 312.4 307.8 303.2 300.8 299.1 296.6 294.8 289.2 285 284.1 282.2 279.1 278.2 280.2 284 288.1 287.7 286.6 285.8 286.1 285.2 284.8 285 283.8 283.6 279.6 264.4 261.2 285.3 288.4 294.9 296.6 294.7 294.7 293 295.4 297.6 299.7 303.2 306.9 309.1
179.6 165.9 163 157.5 155.2 155.2 185.8 201 210.5 222 227.8 230.9 237.5 254.9 267.2 270.9 271.5 268.3 259 249.9 241.6 237.1 235.4 236.9 238.2 243.1 249 252.6 260.1 270.6 289 315.3 340.6 362.2 382.3 398.3 402.9 398.7 394.7 392.9 391.2 390.9 390.6 391.5 392.4 394.7 399.2 406.8 414.1 417.2 413.3 416.3 411.3 404.7 399.2 394.9 391.3 385.9 382.9 383.1 383.7 384.8 386.5 388.4 391.3 393.6 395.4 397.4 399.8 402.4 405.1 407.9 413.1 418.2 424 431.2 432.5 433.4 431.5 424.2 420.2 418.3 414.9 409.9 406.2 403.1 397.7 391.4 385.4 381.6 377.2 373 368 360.9 355.1 346.6 337.8 330.9 326.9 324.5 321 317.1 311.9 306.9 303.1 297.1 292.5 287.2 278.9 270.8 266.3 262.5 261.4 259.9 258.4 256.7 256 255.3 254.6 254.3 261.4 263.7 264.9 266.9 268.7 269.3 269.6 270.1 270.4 271.9 273.5 275.3 276.5 278.1 279.7 281.3 282.8 284 285.5 286.5 287.4 287.9 288.1 293.4 302.4 305.8 309.4 310.7 316.5 322.4 336.4 339.9 341.2 338.6 332.1 324.3 320.2 317.8 316.4 314.4 309.7 307 301.9 299.7 297.6 293 289.9 288.5 287.1 285.8 285.1 290.3 295.7 295.2 293.8 291.6 291.6 290.2 290.3 289.3 288 287 285.7 281.8 277.5 273.5 259.7 266.7 288.3 299.3 299 296.2 294.5 296.4 298.9 300.8 306.5 310.4 313.2 314.4
173.1 160.1 155.5 153.2 153.8 150.9 169.7 195.8 210 221.8 226.7 226.5 228.9 235.8 241.1 244.7 243 242.7 239.1 236 228.6 225.8 226.7 228.2 233 237.5 243.8 253.2 263.3 277.2 306.5 332.5 348.2 367.4 389.8 397.3 397.9 396.2 393.7 391.8 390.9 390.5 390.2 389.9 391.7 393.5 398.3 403.6 410.1 409 405.5 403.7 398.8 394.3 389.9 385.2 382.8 382.5 383.1 383.5 383.5 385.1 387.3 389.4 392 393.8 395.7 398.7 401.9 404.2 407.6 412.8 418.8 426.2 431.8 436.2 434.4 432.4 423.8 420.9 420.3 418.8 414.5 409.6 405.5 400.8 394.4 389.6 387 382.3 378.6 373.4 366.8 359.9 350.6 342.6 336.4 330.5 326.6 322.9 317.6 312.3 307.9 304.6 299.3 294.1 289.5 282.5 276.6 267.6 262.5 262.6 261 259.5 258.2 257.3 256.1 255.6 255.3 254.8 263.2 263.7 266.8 268.5 270.5 271.4 271.9 273 274.8 275.1 275.8 277.2 278.5 279.9 281.5 282.8 284.6 285.6 287.1 288.1 289 289.4 293 302.8 308.2 310.5 311.5 316.5 322.2 328.4 338.6 342.4 342.2 336 328.7 322.6 320.5 319.6 317.8 315.5 312.5 307.4 303.7 301.3 298.8 293.8 292.8 291.9 293.5 298.7 301.8 305.4 300.2 297.4 296.5 294.7 294.6 293.5 292.8 292.8 291.4 288.5 284.3 280.3 273.4 264.4 259.9 263.2 277.1 291.5 293.9 293.5 297.3 300.2 303.5 309.2 314.4 316.7 318.6 320.7
161.5 155.3 151.5 152.2 150.7 168.2 180.2 192.1 200.8 211.7 218.5 220.7 223.4 226.9 228.1 229.4 227.5 225.2 224 223.4 219.4 220.5 222.7 224.8 226.6 232.9 243.2 254.5 266.3 293.3 321.8 341.9 355.6 374.3 393.4 400.6 396.9 393.8 391 390.6 390.2 389.9 389.7 389.5 389.9 392.5 396.4 399.4 400.1 398.8 396.2 394.1 390.6 387.2 383.2 382.5 382.3 381.8 383.1 383.9 385.8 387.7 389.8 391.6 394.6 396.4 398.6 401.7 404.4 407.4 410.6 418.9 424.9 429 430.8 432.7 428.7 422.5 421.6 421.8 418.6 414.3 412.6 407.2 401.7 396.5 392 387.7 384.4 381.5 376.5 370.1 362.9 352.8 345.3 339.2 334 329.1 323.8 320.8 313.7 307.6 303.5 299.2 293.7 289.8 284.8 279.1 275.3 271.3 262 261.2 260 259.8 258.6 257.2 256.1 255.4 257.2 260.8 264 267.1 268.2 269 272 273.5 273.8 274.9 276.7 278.7 279.4 279.8 280.8 282.2 283.4 284.2 286.4 287.4 288.7 289.7 290.7 291.5 302.4 310.5 310.5 311.5 315.2 320.2 329 337.2 342.6 344.7 340.7 333.2 326.6 323.4 321.7 320.4 318.8 316.6 313.3 309.4 305.8 302.9 298.7 296.7 299.3 304.1 309.7 316.2 315.6 309.8 303 299.9 298.6 298.4 297.7 297.9 295.8 294.8 292 287.7 282.4 276.3 270.4 263.9 261.5 264.3 269.1 275.6 289.1 295.9 301 305.4 310.4 314.7 317.6 320.1 322.2 324.3
156.1 152.8 149.4 148.2 149.1 161.5 172.8 180.9 191 198.4 204.8 210 213.3 216.5 216.5 217.3 215.5 214 213.8 213.2 214.1 215.9 217.8 220.4 223.5 232.4 244 257.1 279.1 307.7 335.8 348.1 360.1 374.3 385.4 395.5 395.9 392.8 391.3 390.4 390.2 390 389.6 389.2 387.3 389.7 392.2 392.2 390.8 391.2 388.6 385.2 383.4 381.9 381.8 382 381.4 382 382.8 383.5 385.2 388.4 392.2 395.2 397.9 400.4 402.2 405.6 407 409.2 412.1 414.6 415.5 417.3 418.1 418.8 420.5 424.5 422.3 419 416.2 412.1 406.4 401.8 397.5 392.5 388.1 383.9 379.5 375.6 369.6 362 352.1 345.8 340.5 334.2 327.9 324.2 321.2 311.8 307.5 302.1 299.2 295.7 288.7 286 283.1 278.4 273.2 267 262.9 261.7 260.6 260.2 259.5 257.9 257.4 256.6 262.2 263.3 267.2 269.6 271 272.3 274 274.5 276 276.9 278.6 280 281.3 282.8 283.1 284.5 286.3 287.3 288.2 289.2 290.7 291.4 293.1 294.8 302.7 307.7 311.7 317 322.9 332 337.3 342.4 349.4 346 338.4 332.6 328.2 324.5 322.6 321.1 319.5 317.5 314.8 311.8 309.8 304.9 309.7 314.9 316.5 317.8 327.7 326.7 318.3 311 306.4 304.9 305.2 305.4 304.2 303.8 301 294.8 289.4 284.8 281.1 273.4 264.3 262.2 260.9 269.9 273.2 273.5 286 293.9 301 308.1 311.4 314.7 318.5 321.8 325.5 327.7
151.7 147.7 149.1 152 154.2 163.2 170 176.1 180.4 185.5 190.3 195.1 201.1 203.5 204.1 206.5 205.5 205.8 206.8 206.4 208.3 211.4 214.4 215.3 221.8 231.3 242.6 261.3 287 320.8 344 351.9 362.7 377.1 389.1 395.7 399.5 396.1 392.1 391.1 390.5 390.1 389.7 389.7 387.2 381.3 385.5 384.8 383.5 380.5 380.1 379.7 380 379.4 379.8 379.6 380.3 382.1 383.4 385.1 387.5 389.8 392.5 394.2 396 398.4 400.2 400.9 403.5 406.5 409.5 411 412.8 415.2 418.1 420.7 421.4 422.1 420.9 417.5 414 409.6 402.9 396.4 389.8 384.2 380.8 376.1 368.3 361.5 352.5 350.2 347.5 343.5 341.4 337.2 332.6 325.5 319 310.9 303.8 298.4 293 289.3 287.1 284.7 281.9 277.8 273.5 265.8 263.9 262.5 261.4 260.7 257.9 257.8 257.5 259.6 265.6 267.1 270.1 271.6 273.1 275.3 276.6 277.2 277 278.8 279.8 281.2 282.9 284.4 286 286.9 288.7 289.6 290 291.4 292.9 293.6 295.6 299.1 307.2 315.3 322.5 329.7 343.6 348.3 352 352.8 353.3 349.2 341.4 336.7 330.7 326.7 324.6 322.2 320.4 318.9 317.7 316.7 321.5 323.8 323.7 322.6 322.4 329.7 328.9 323.4 314.6 312.8 312.5 312.5 312.7 312.3 311.5 307.5 302.5 292.6 287.5 282.6 279.4 267 264.3 267 271.5 278.3 281 284.6 284.2 290.7 297.6 305.7 310.7 315.4 319.4 324.2 327.3 331.4
150.1 142.7 148.7 151.2 159.4 165.5 168.2 170.3 172 174.5 178.6 185.6 189.3 192.2 196.1 198.7 199.2 199.2 200.3 201.3 202.8 206.1 207.6 211.6 219.7 230.2 244.3 267.8 298.1 327.6 345 353.9 368.3 385.8 398 398.9 397.3 396.1 394.3 393.2 391.4 390.5 389.6 389.4 388.6 381.8 381.7 380.8 379.4 377.6 378 377.5 377.6 377.5 375.9 377.2 380.2 381.4 382.5 386 388.4 391 394 397.1 399.4 401.5 403.2 404.1 404.5 405.7 408.1 411.3 416.1 418.9 421.1 420.9 420.8 420.3 417.5 413.3 408.1 400.8 394.9 382.5 379.2 375.1 370.6 364 361 360.9 359.8 357.3 354.8 351 343.4 337.6 330.9 322.9 316.9 309.8 304.2 299 293.6 289.2 286 282.3 279.1 276 270.5 266.8 265.6 263.3 262.5 261.4 259.1 258.8 259.4 257.2 266.5 268.8 271 272.9 274.5 276.5 277.7 279.1 279.8 279.5 281.4 283.2 284.7 286.3 287.7 289 290.5 291.5 292.1 293.5 295.2 296.8 299.2 306.3 321.4 332.2 339.2 346.8 349.8 352.5 353.1 356.1 356.1 351.6 344.7 339.6 334.8 330.4 330.5 330.2 328.8 329.2 331.9 333.7 330.7 325 319.8 317.4 320.3 323.6 323.1 318.2 311.7 308.7 310.4 312.8 314.4 314 311.3 306.9 300 292.2 285.9 279.2 272.4 266.2 266.3 272.2 279.3 285.4 291.4 291.9 292.5 293.7 297.9 305.8 310.8 315.7 319.9 325 329.8 335
142.2 145.6 149.6 150.9 160.6 163.8 165 165.5 167.2 169.8 173.4 178.9 181.1 183.6 187.7 190.4 192.5 192.6 194 194.8 199.1 198.5 202.9 207.9 217.2 230.2 245 272.3 307.4 329.8 344.1 356.6 371.9 388.8 397.9 396.7 395.3 396.1 395.5 392.8 392.2 389.4 388.1 385.8 382.2 380.4 376.6 375.6 375.2 374.9 374.8 374.6 375.2 377 378.8 379.6 381 382.6 384.1 386.5 389.8 393.8 397.8 400.3 401.6 403.9 406.4 407.6 410.6 413.3 417.3 420.1 422 422.3 421.8 421.2 419.1 416.1 411.2 405 399.7 388.9 382.8 377.2 372.9 367.8 367.3 367.7 368.3 366.6 365.3 362.2 357.1 351.8 343.6 337.4 332.2 322.6 315.6 309.3 304.5 299.8 292.7 288.5 284.3 279.7 275.6 273.2 269.7 267.8 266.7 265 264.3 261.7 259.6 259.4 265.7 262.9 267.3 270 272.2 273.2 275.1 276.8 278.5 280.3 281.8 282.9 283.2 285.6 286.7 287.7 288.8 290.4 291.8 293.3 294 295.2 297.9 299.6 308.2 324.2 335.8 346.2 350.6 351 350.6 351.9 352.8 353.2 353 349 343.7 338.5 336.4 337.6 336.4 333.6 332.5 335.5 334 329.2 324.3 317.5 315.1 313.8 314.1 317.3 316.3 313.5 307.9 304.4 306.9 310 312 312.5 309.7 306.7 302.9 293.5 285.7 277.9 267.4 269 275.7 279.1 283.7 291.8 295.8 299.6 301.8 297.1 306.6 310.9 314.3 317.1 321.3 329.4 335.1 341.7
139.6 143.5 148.4 150.3 159.5 160.7 162.2 162.8 164.3 166.1 170.5 173.5 174.6 177.3 181.3 184.4 186.9 187.3 189 188.8 190.7 196.4 198.7 201.8 214.8 227.5 246.3 276.3 307.8 327.7 342.4 364.7 378.5 385.8 393.9 393.7 395.4 399.1 395.3 390.6 387.3 383.7 381.4 380.2 377.1 373 371.2 371.6 371.6 371.5 372.8 374.3 376.3 377.3 378.4 379.6 381.4 383.1 385.3 388.6 392.6 399.2 403.1 407.2 411 413.3 414.9 416.1 417.6 419.1 420.2 421.4 422.1 421.5 417.4 414.8 412.1 408.1 404.4 396.6 390.6 383.7 379.1 375.5 371.9 371.3 372.7 373.1 371.2 368.5 366.1 362.4 355.3 350 342.9 336.9 328.9 322.2 317.4 310 304.9 299.3 293.1 289.6 285 278.6 274.8 272.4 270.5 268.5 267.3 266.1 265.3 260.8 260.4 259.6 263.8 264 265.9 271.1 273 274.2 275.4 277.1 278.8 280.7 282.5 284.6 285.7 286.4 287.4 288.6 290.1 291.9 293.1 294.9 295.9 299.7 303.8 304.6 315.7 331.4 346.1 352.2 352 351 349.3 347.9 346.3 345.6 345.6 343.9 339.7 338.8 338.7 341.4 340.3 338.6 338.3 334.5 329.6 326.5 323.4 319.5 314.3 311 311.9 313.4 314 303.3 301.5 301.5 304.4 307.6 308.7 307.9 305.7 304 301.5 297.8 287.8 277.9 269.1 274.8 280.8 284 288.5 295.8 301.2 303.7 305.2 296.8 308.8 312.2 315.6 319.3 325.5 331.6 340.8 346.8
138.7 143.6 147.6 148.9 155.8 157.7 159.4 160.5 162 163.7 166.4 168.4 169.9 173.7 177.6 179.9 181.9 180.8 182.2 184.1 188.7 192.9 195.7 197.7 212.4 226.6 249.3 279.1 304 322.7 343.4 360.2 375.8 381.8 394.6 394.7 397.3 398.7 393.3 387.2 382.4 376.5 373.7 370.8 369.4 368.1 368 369.4 369.6 370.3 372.5 374.5 375.5 377.7 380.4 383.1 384.5 390.3 396.3 401 405.2 408.7 411.2 412.7 414.1 415.6 416.1 417.4 418.2 418.3 417.7 416.8 416.6 416.3 416.5 414.4 411.1 404.3 397.5 390.8 385.6 382.2 378.2 375.9 374.5 374.3 373.8 374.1 369.9 367.4 364.9 360.4 357 348.4 342.5 334.2 326.7 322.1 317.3 310.6 303.9 297.5 293.5 289.4 284.4 281.5 275 272.1 270.1 267.9 264.6 265.2 263.6 261.6 261.2 260.4 267.8 269.4 263.7 271.3 273.7 275.1 276.1 277.6 279.4 281 282.8 285.2 287.1 288.4 289.4 290.6 291.9 293.7 295.2 296.4 299.8 303.2 309.8 312.6 321.4 337.7 347 348.1 348.2 348.2 347.6 346.9 345.3 345 343.5 341.5 347.6 352.2 349.3 347 343.3 340.5 333.8 332.2 331.1 328.1 323.8 317 311.2 307.2 306.9 306.5 301.1 298.2 298.3 299.7 303 304.9 305.9 305.6 304 302.3 299.8 297 283.1 274.9 270.1 286 286 287.8 292.5 298.9 302.7 305.2 304.9 292.8 305.9 313.6 320 326.3 334.8 341.9 346.9 354.6
138.9 141.2 145.3 147.8 153.8 155.6 157.4 158.5 159.9 161.5 163.6 165 167.9 171.1 174.2 176.4 177.9 175.4 176.8 181.3 186.8 190 191.5 194.7 207.8 224.7 247.7 274.9 299.6 318.9 340.9 354.3 367.2 377.4 388.9 397.3 402.1 397.2 392 386.4 379.8 373.6 370.3 368.4 367.4 367.1 368.4 369.4 370.3 370.9 373.4 376 378.4 381.3 386.5 390.4 394.3 400.7 406.6 410.7 413.1 414.4 415.3 415.7 414.6 413.9 413.8 414.6 414.3 414.7 415.2 413.9 412.9 411.8 409.8 409 406.6 403.1 396.8 388 383.4 379 376.8 375.1 373.6 372.3 371.2 370.8 368.8 366.4 363.3 359.2 355.2 346.1 339.6 333.7 327.3 321.5 316.7 308.5 300.5 296 291.5 287.5 282.2 279.9 273.8 271.6 269.3 264.9 264 263.3 262.3 262 261.3 269 269.5 270.6 267.3 268.3 273.8 275.9 277.4 278.7 280 281.6 283.2 285.2 288 289.9 292.8 295.1 295.3 295.9 298.1 301.2 313.9 318.4 317.9 319.8 325.8 335.3 340.5 343.5 344.8 346 345.7 345.6 344 347.1 347.5 354.8 361.3 356.9 350.1 345.5 340.7 337.2 334.3 331.5 326.7 322.7 317 311.1 305 301.4 300.7 299 297.7 297 295.9 298.5 301.8 303.6 303.9 303.4 302.1 300.5 297.7 292.9 277.6 271.7 284.6 288.8 291.2 292.5 295 298.4 302.1 297 294.8 293.8 302.2 311.3 321.7 332.1 339.3 347 355.7 361.6
140.2 140.2 142.8 145.1 146.5 153.3 155.1 156.8 158.3 159.7 161.5 163.2 165.8 168.9 171.1 172.2 171.8 172.9 176.7 180.1 184 186.4 188.2 190.8 201 222.3 244.2 266 289.1 314.5 334.4 350.7 360.6 371.9 385.5 395.4 397.6 393.7 388.4 382.4 376.9 372.2 370.2 370.6 368.8 367.2 369.6 370.5 371.4 372.6 377.1 382.1 386.2 390.8 396.1 400.7 405 409.1 412.4 414.2 414 414 412.2 410.9 411 411.8 411.6 411.6 410.9 409.7 408.9 407.5 409.3 410.8 408.8 406.5 402.2 396.6 391.9 385.1 380.4 379.4 377.4 375.7 373.8 372.3 369.9 367.2 364.2 362.5 359.1 355.7 348.2 347.1 337.4 331.9 327 321.7 314.6 308.2 297.7 294 289.6 285.3 279.5 276 273.2 270.7 265.9 264.4 263.4 262.7 262.8 263.4 268.1 269.9 271.3 272.5 271.9 268.4 273.5 276.8 278.5 279.8 281.1 282.5 284.1 286 288.9 292.7 298.6 299.7 298.9 301.2 305 309 319.1 323 324.1 328.1 330.3 335.1 339 341.6 343.1 343.6 343.2 341.9 342.9 345.4 357.4 366.3 359.7 352.2 346.7 338.5 336.8 335.3 330 325.4 320.5 314.1 306.1 304.9 303.3 301.6 299.8 298.3 296.4 295.3 294.2 297.2 299.6 300.8 301.1 301.2 300.3 298.6 296 279.5 279.8 288.5 290.8 292.9 294.4 297.3 298.7 299.7 297.2 294.4 292.1 293.8 301 315.1 328 336.8 343 354.6 367.4 374.3
140.1 139 141.6 142.5 143.8 145.4 152.3 154.6 156.7 157.9 159.4 162 163.7 165.4 166.9 168.3 168.4 171 174.5 177.9 179.6 183.2 185.4 188.8 199.4 214.7 240.9 258.3 285.7 311.6 329.2 348.5 358.7 371 382.8 389.9 392.5 389.3 384.8 379.8 376.9 375.2 372.5 370.6 368.8 369.2 371.3 372.1 371.7 374.6 380.3 388 393.6 398.4 403 407.1 410.6 412.8 411.8 409.7 409.3 409.4 409.8 408.5 408.5 407.9 407.2 406.9 408.1 408.3 404.6 403.6 403.8 403.3 403.3 400.8 398.6 395.2 389.1 386.1 386.2 385.3 383.3 381.1 379 376.4 373.6 371.5 368.4 364.9 360.6 356.5 348.9 330.9 334 328.7 324.2 319 310.6 304.6 295.5 291.5 288.5 284.3 277.9 274.9 272.3 268.5 266.6 266.3 266.3 265.2 266.1 268.1 269.9 271.1 272.4 273.5 274.6 274.9 272.1 277 279.5 280.7 281.9 283.4 285.1 287 290.1 294 298.9 300.9 304.2 306.5 310.9 315.1 319.8 325.5 327.4 330.3 332.7 335.2 338 340.2 341.2 340.8 339.9 338.4 340.4 356.1 357.1 354.3 347.3 338.8 334.3 336.1 332.5 326.9 323.3 311.4 315.2 314.1 311.2 308.5 306.6 304.1 302.7 298.9 297.2 295.2 294.4 292.9 297.6 298.5 298.7 298.7 297.6 296.3 281.5 275.3 291.4 292.5 294.6 296.2 298.8 299.5 300.2 300.1 296.7 293.7 293.4 293.5 307.2 323.2 333.1 338.3 349.9 366.3 377.3 381.4
139.5 136.6 138.5 140.5 141.6 141.8 146.9 151.7 153.4 154.8 156.1 160.8 163.1 163.8 164.6 165.8 168 169.7 172 176 178.1 180.7 184.3 192.7 210.4 230.7 249.2 260.7 288.2 312.7 329.1 345.1 361.3 369.6 378.5 383.9 388.2 387.3 385.4 382.5 378.5 376.8 370.6 367.9 365.1 366.2 367.8 369.4 371.3 372.6 374.4 382 390.2 396.7 399.6 404.5 408.1 409.3 408.8 407.8 407.2 407 406.8 406.3 406.2 405.1 403.1 402 401.9 401.4 401.5 402 402.4 402.4 401.5 400.3 398.3 395.4 394.6 395 393.3 391.9 389.6 387.4 385 381.5 378.3 375.9 372 367.4 361.7 354.6 345.1 336.6 321.4 324.5 321.1 314.3 305.4 297.4 292.7 289.3 286.4 282 276.8 273.4 270.3 268.1 266.3 267.9 267 266.3 267.5 269.9 271.4 272.5 273 274.9 276.1 277.8 273 276.7 280.6 282.2 283 284.2 286.1 288.1 291.6 296.5 299.2 301.9 304.8 308.8 312.7 319.6 324 326.4 329.8 332.1 334.6 336.8 338.1 339.1 338.6 337.6 335.4 334.7 335.8 339.9 336.8 335.6 327.7 329.3 331.5 331.1 322.6 319.7 321.6 320.2 320 316.2 315.2 313.3 310 307.5 304.7 303.1 301.2 296.9 294.5 293 292.1 296.4 296.1 295.1 283.2 282.2 288 295.6 295.2 296.1 299.2 301.3 302.4 301.9 301.2 298.3 296.9 294.3 294 296.7 313.4 324.6 333.5 346.3 364.2 376.6 382.9 388.2
148.6 134.2 137.1 136.4 136 139.4 140.9 147.5 147 153.2 155.1 159.7 162.2 163 162.9 161.7 165.1 166.9 167.9 172.3 175 178.2 184.4 198.1 214.4 237.2 251.6 265.5 294.5 314.8 331 341.6 354.4 369.7 376.5 385.9 391.3 389.2 386.2 384.3 379.5 374.5 369.4 366.3 363.1 364.7 364.9 365.4 367 369.2 372 375.6 380.6 387.4 394 398.8 403.5 406.5 408.9 408.2 406.9 406 405.2 403.7 401.7 400.7 399.8 399.9 400 399.5 400.3 401.8 402.2 402.7 401.9 400.7 399.7 400.4 400.3 398.8 397.2 395.8 393.9 391.6 388.5 385.3 383.6 378.8 372.3 362.7 356 346.2 334.8 329.3 325.5 320 308.9 303.9 300.2 295.2 291.4 288.5 285.2 280.9 276.4 270.6 268.1 267.2 268.9 268.5 269.5 268.5 268.3 270.4 272.5 273.7 275.3 277.1 278.6 279 276.4 276.2 277.8 282.6 284 284.9 287.1 291.4 293.6 297.6 300.4 303.4 308.3 313.5 319.6 325.8 329.1 331.3 332.8 334.3 336.9 339 338.9 336.8 335.7 334.3 331.4 330.8 328.6 327 325.9 324 322.3 322.4 321.7 320.4 324.9 325.4 323 324.5 325 324.3 321.1 322.2 317.9 314.7 310.6 306.5 304.4 302.6 296.2 295.3 292.4 288.8 287.8 287.7 294.8 297.1 299.3 301.4 301.9 300.4 301.6 304.2 305.1 304.9 301.4 297.9 294.7 294.4 294.8 300.6 313.3 330.1 344 360.7 374.1 384.3 387.9 393.3
152.3 145.3 132.8 135 135.2 135.4 138.4 140.7 148.2 151.3 153.2 158.4 161.1 162.4 161.5 160.5 162.8 164 166.5 170.1 173 177.1 183 198.2 217.7 239.2 256.9 273.1 292.7 311.1 328.4 340.5 353.7 367.5 380.5 391.1 392.6 391.1 387.4 385.8 382.1 375.7 370 365.7 361.9 363.1 363 363.8 364.9 367 370.8 375.7 380.9 387.5 393.7 399.7 404.2 408.2 410.2 411.4 409.3 406.2 403.4 400.3 399.5 398.3 398.1 398.2 398.2 399 400.1 401.3 402 402.8 402.7 403.3 404.4 403.6 402.2 400.6 398.6 397.5 395.9 393.6 390.6 388.1 382.8 375.8 368 358 343.4 333.1 327.4 323.5 318 311.5 303.7 297.9 297 293.3 290.5 287.5 284.6 280.7 275.8 270.6 271.9 273.4 271.1 270.2 273.2 272 269.1 271.5 274.5 275.8 276.5 278.4 279.8 280.7 280.7 280.9 277.5 283.5 285.6 286.4 288.7 292 294 297.7 301.5 308.9 315 322.8 328.1 332.7 335.9 337.4 337.6 339.6 342.1 341.1 338.8 334.7 331.6 330.2 329.2 328.2 326.5 324.7 323.6 322.4 324.2 324.1 323.1 325.1 327.3 328.9 328.5 327.5 328.2 328 327.4 326.5 323.7 319.7 313.8 310.7 307.7 302.4 299.3 299.2 297.5 296.3 295.6 289.6 294.9 299.2 301.5 303.7 305 305.6 305.4 306.8 307.4 306.9 300.7 298.6 296.6 294.7 295.8 306.1 318.8 335.1 355 371.3 381.2 387.9 398 403.2
155.8 152.4 142.2 133.6 133.7 133.9 136.5 138.4 142.7 148.7 151 155.4 158.6 160.4 160.6 158.2 158.8 163.7 165.8 169.1 171.8 176.2 184.4 199.9 219.7 242 261.1 278 291.5 307.1 324.3 337.1 353.3 370.6 383.1 391.7 392.6 391.6 390 388 383.6 377.6 371.2 365.1 361.1 362.6 362.3 361.9 363.7 366.1 371.2 377.3 382 388.4 395.6 402.4 407.8 413.9 415.2 413.2 409.9 405.1 401.1 399.1 398.7 398.4 397.8 397.6 397.2 397.3 398.3 400.3 402.2 404.7 404.8 404.7 404.2 403.3 402 400.3 398.8 397.9 396.8 393.2 388 381.3 374.1 366.2 357.8 343.4 329.4 322.3 319.9 315.5 309.4 302.7 298 292.4 292.3 291 288.3 284.2 282.5 274.7 271.8 269.6 276.2 276.1 274.1 274.7 274.3 275.3 270.8 274.5 275.2 278.2 278.9 279.6 281.1 282.1 283 282.8 280 283.4 287 287.9 289.6 292.6 294.9 301.8 311.6 319.6 326.4 331.1 334.2 338.9 344.3 344.8 344 343.5 342.9 338.9 334.7 330.9 328.2 327.7 327.2 326 324.8 324 322.8 324 324.6 324.4 324.8 326.6 329.5 330.1 330.7 331 331.3 331.3 330.8 329.9 326.7 323.2 317.1 313.1 307.9 307.6 308.6 307 304.4 303.2 300.4 288.2 295.5 301.4 302.9 305.3 306.7 307.9 308.8 309.4 309 308.6 301.7 299.1 296.5 296.1 303.4 316.1 334.8 348.2 365.2 371.5 383.6 394.9 403.1 405.9
158.1 152.4 149.8 140 132.5 132.8 134.9 136.2 138.6 145.9 149.8 153.5 156.1 157.9 151 158 160.1 162.5 163.9 166.9 169.4 173.6 184 199.9 220.1 242.9 261.5 279.5 292.6 305.9 318.9 338.6 355.3 369.6 380.9 389.9 391.9 395.7 392.5 390 385.3 379.9 373.6 367.6 363.4 360.8 361 361.1 366.1 369.9 376.9 383 389.2 395.5 402.8 407.6 411.3 416.9 414.7 410.2 406.9 402.3 399.1 399.1 399.2 398.8 397.8 397 396.4 395.8 397.5 399.3 401.1 401.2 401.9 402.4 402.5 401.5 400.2 399.1 398 396 391.3 385.2 379.1 371.5 364.5 352.2 339 325.7 318.1 315.8 310.8 306.4 301.2 297.4 294.8 291.4 286.1 288.4 286.2 282.7 278.3 273.7 271.5 277.9 277.8 277.4 276.5 276.7 276.8 276.7 272.5 274.2 277.3 279.8 280.8 281.6 282.6 283.3 284 284.4 280.6 285 288.8 290.5 292.9 294.8 298.5 307.3 313 326 330.5 335.8 342.7 349.5 349.7 348.4 346.8 345.4 342 335.8 329.4 326.8 326.5 325.9 325.3 324.9 324.6 324.4 323.9 324.3 325 325.6 326.8 329.3 330.4 331.9 333.3 334.3 334.5 334.4 333.9 332.6 329.8 325.5 320.2 314.7 312.2 313.4 314.3 311.3 307.3 303.6 289.6 292.9 300.5 304.2 304.8 306.6 308.2 309.6 310.8 312 312.8 310.5 304 299.7 297.5 303.2 315.3 331.6 340 351.3 365.4 381.1 393.5 403.1 407.2 408.9
160.3 154.9 149.4 147.9 132 131.4 133.4 133.3 134.7 143.2 147.7 151.3 152.6 145 156.6 157.9 158.9 160.7 163.1 164.7 166.7 171.8 181.4 195.1 211.6 232.6 255.8 272.9 284.1 296.9 320.3 338.9 352.1 365.3 376.6 385.9 391.9 395.6 394.8 389.6 384.5 381.4 376.6 371.5 366.4 363.3 361.7 359.5 362 365.5 377.8 387 395 403.9 410.2 412.5 413.1 411.7 409.6 405.9 402.2 399.6 398.6 398.9 399.3 398.4 397.8 397.2 395.9 393.5 395.7 396 395.8 396 395.8 395.2 393.7 393.7 395.6 395.1 389.5 381.9 375.8 368.9 362.9 355 344.8 332.5 319.8 310.4 308.7 304.9 301.6 298.6 296.2 294.2 290.8 288.8 288 285.1 280.3 278.1 278.2 274.5 273.3 279.4 278.9 278.5 278.2 277.4 277.8 277.3 276.2 274 276.9 278.9 280.8 283.2 284.5 285.5 286.5 287.5 287.7 283.3 288.1 292 294.6 298 302.5 313.4 320.4 326.2 334.8 343 348.2 349 347.9 347.1 345.8 343.9 337.6 331.5 326.3 326.2 325.2 325.2 325.2 324.5 324.4 324.5 324.4 324.7 325.6 327.1 328.9 331.5 332.1 334 335.7 336.6 337.8 337.6 337.3 335.9 333.1 329.5 322.6 315.1 315 315.7 311.9 309.7 306.4 302.7 289.5 293.1 302.5 304.9 306.6 308 309.5 311.2 312.7 316.4 317.7 312.5 309 303.3 302.6 313.2 324.7 331.3 339.4 358.2 380.9 396.1 404.6 409.8 412.8 411.2
162.7 159.5 154.8 147.7 145.3 130.2 131.4 130.4 131.6 136 146 147.7 141.8 154.2 155.9 157.3 157.6 159.2 161 163.6 164.8 170.9 177.2 189.3 202.4 217.7 236.5 252.5 269.7 295.3 327.3 346.3 354.3 363.5 375.1 383.6 389.9 392.2 392.7 392.9 387.2 382 379.2 375.1 368.3 366 363.4 360 360.1 363.5 373.7 384.7 392 398.7 402.2 405.4 407.8 409.1 406.1 402.3 399.8 398.1 397.5 397.8 397.7 397.9 397.4 396.5 394.8 392.7 394 394 393.1 391.7 391.3 388.8 386.9 386.3 385.8 383.9 375.7 365 355.1 348.2 339.2 330.7 321.1 310.3 304.5 304 299.6 297.2 295.2 293.8 292.1 290.5 287.9 286.7 285.4 280.4 277.7 276.7 275.1 279.2 281.3 281 280.6 280 279.7 279.4 279.5 279 279 275.6 278.3 280.7 281.9 283.9 285.6 286.7 287.9 289.1 289.9 290.8 286.4 292.5 295 297.7 301.9 308.8 317.2 329.3 336.4 342.7 346.1 345.7 345.8 345.7 342.5 334.2 329.3 326.9 326.3 326 325.8 325.5 325.4 325.4 325.1 325.2 325.3 325.9 327.4 328.2 331.4 333.3 334.4 336.6 338.1 339.1 340.5 340.9 340.7 339.8 336.6 331.3 324.3 317.4 317.4 317.7 314 308.9 305.7 302.8 299.7 293.3 300.9 304.7 306.6 308.8 310.7 313.1 314.9 319.1 318.5 314.9 313.2 307.8 306.1 315.2 323.3 334.7 355.8 375.8 397.1 404.6 412.2 416.3 415 409.3
165.4 162.2 158.9 154.3 148.5 135.4 127.6 129.6 129.2 132.4 137.8 141 149.9 153 154.7 155.9 156.5 158 159.6 161.6 165 168.6 174.6 184.7 196.7 210.8 227.1 250.1 272.7 299.4 334.6 355.1 362.5 367.1 376 383.7 389.3 391 392.2 392.5 389.9 385.9 381.3 375.9 370.1 367.8 364.7 362.6 356.5 362.1 370 380 390.8 397.1 400.9 402.7 403.1 403 401.4 398.6 397 396.3 396.5 397.9 398.9 398.6 397.3 396 394.2 392 392 392 390.9 389.7 386.5 381 379.5 377.9 373.3 366.4 356.1 344.7 332.7 323.3 313.1 305.5 300.3 296 295.5 294.6 294.5 292.8 291.6 290.2 286.5 282.4 285.1 283.2 279.3 279.4 285.2 285.3 285.3 284.7 284 283.3 283.1 282.2 282.1 281.8 281.3 281 277.8 276.6 279.4 281 282.5 284.1 286.3 287.8 289.1 291 292.4 292.6 290.1 292.4 296.2 298.8 301.9 306.4 320.2 327.2 334.7 342.9 342.5 340.9 343.1 338.7 333.1 328.1 327.5 327.1 326.5 326.1 325.9 325.7 325.9 326 325.7 326.1 326.3 327.2 328.7 330.6 332.8 334.3 336.6 337.9 339.2 340.8 342.4 343.5 344 341.8 338.5 331.7 323.2 319.3 319.4 319 316.5 316.2 315.9 312.5 307.4 294.8 296.9 303.2 306.6 309.3 312.4 314.6 316.1 318.7 319.4 318.7 317.6 317.6 314.4 315.3 332.5 352.8 372.8 392.5 403.8 410.8 416.3 413.9 414.7 412.9
168.8 165 160.9 156.6 150.2 144.6 135.4 126.9 128.5 130.1 138.8 145.6 149.1 151.3 152.8 153.8 155.1 155.6 158.3 160.3 164.1 168.8 174.6 185.1 196.2 215.4 238.1 263.5 282.9 305.9 338.3 360.4 369.6 371.5 377.2 383.6 388 390 390.4 391.6 388.3 384.6 379.8 376.2 372.7 369.4 365.5 363.1 360.9 359.3 364.4 373.4 381.6 389.5 394.5 397.1 397.4 396.9 395.3 393.9 392.9 393.8 396.6 398.3 399.1 398.2 396.9 395.6 394.3 392.5 388.8 389.8 388.9 387 381.3 376.4 372.8 370.5 364.8 355.1 347.3 333.4 322.6 311.7 303.1 297.7 294.2 292 290.3 289.7 289.6 289 288 286.4 282.7 282.1 281.2 279.9 285.7 287.1 287.7 287.5 287.3 287.1 285.8 285.5 285.3 285.3 284.7 284.1 282.7 281.7 281.1 278.2 280.4 282.8 284.6 286.2 287 288.7 291.1 293.2 294.5 294.9 292.8 294.7 296.2 299.6 302.7 307.2 316.3 325.6 333.7 338.3 333.8 334.2 333.2 332.8 329.3 328.2 327.9 327.7 327.4 326.9 326.1 326 326.4 326.4 326.3 326.2 327.3 328.7 330.1 331.9 333.5 335.7 338 339.9 341.8 344.1 345.8 346.7 346.8 344.8 341.1 333.1 327.3 321.5 322.1 324.3 324.8 323.1 319.6 315.2 308.8 299.9 294 301 306.1 308.9 311.3 312.9 314.5 316.7 318 319.9 322.1 324 324.3 332.8 349.5 370.7 389.5 401.7 411.3 415.2 412.1 412.9 412.4 410.9
171.4 166.8 162.3 157.5 150.4 146.3 135.9 126.1 127.6 128.8 134.6 145.1 147.9 150.3 150.6 151.4 152.5 153.1 156.3 159.5 163 167 174.5 180.2 201.7 220.1 247.6 272.6 291.1 308.5 335 364.1 375.7 374.9 375.6 378.6 384 386 385.3 387.7 383.7 382.4 380.6 376.7 372.4 368.3 365 362.7 360.2 354.8 361.4 366.2 372.2 379.4 385.2 387.1 388.4 388.7 388.6 388.6 389.2 391 393.1 396 398.6 398.6 397.4 395.8 394.2 392 388.6 384.7 385.5 383.5 378.1 373.3 370.5 367.1 359.1 353.3 347.1 337.1 326.4 315.7 303.9 298.4 295 291.6 289.4 287.9 286.8 286 285.1 284.6 283.5 282.5 281.2 285.1 286.7 287.8 288.6 289.1 288.9 288.5 287.7 287.4 287.1 287 286.3 285.3 284.1 282.5 281.7 281.5 283.3 284.8 286.4 287.4 288.8 290.3 292.7 294.9 296.5 296.4 296.9 296.4 298.9 298.5 304.3 307.8 314.3 323.7 330.1 330.6 329.1 330.8 330.1 329.4 328.7 328.6 328.5 328.2 327.9 327.5 326.7 326.3 326.8 326.8 326.7 326.7 328.1 330.5 332.3 333.9 335.7 338.7 342.4 346.4 349.7 351 351 351 350.4 347.5 343.9 338.9 331.5 324.9 325.3 326.8 326.6 324.1 319.3 314.4 307.7 301.5 295 300.1 303.6 305.9 308 310.8 312.7 315.2 317.6 320.1 324.3 328.9 336.2 349.7 364.8 383 398 407.2 409.8 407.9 410.3 409.4 410.9 408.6
173.2 167.9 164 158.9 152 148 136.8 127.1 126.9 128.6 131.8 142.9 145.1 147.8 148.4 148.1 151.6 153.3 157.1 160 163.7 167.9 174 181.8 205.9 228 251 275.8 297.2 309.2 327.7 355.8 369.4 375.2 373.5 373.7 375.5 378.2 376.2 378.7 378.4 375.9 374.8 371.4 367.8 364.5 361.5 359.7 358.1 355.4 360.8 363.7 367.5 371.1 374.8 379 381.9 383.2 383.4 383.8 386 388 390.2 394.9 396.8 397 396.2 394.4 392.4 390.2 387.5 380.9 382.1 380.9 374.4 371.5 368.7 365.3 358.8 350.1 344.5 340.9 324.8 317.2 306.4 303.3 301.3 296.8 290.1 289 287.6 286.5 285.9 285.4 283.9 282.8 286.2 285.9 286.4 288.6 290 290.6 290.5 290 289.5 288.9 288.8 288.5 287.7 286.5 284.1 284.2 282.5 284.7 285.7 286.7 288.1 289.2 290.7 292.3 294.2 296.8 298.7 299.2 299.3 295.8 301.8 302.3 304.7 308.3 313.5 321.4 325.8 324 326.3 327.8 328 327.9 328.4 328.7 329.2 329 328.8 328.5 327.6 326.4 326.6 326.8 328.1 330.3 331.8 335 337.7 339.2 341.8 346.6 350.7 353.2 354.4 355.1 355 354.5 352.7 349 345 340.1 334 330 327.1 327.1 326.6 321.6 315.1 306.8 302.9 299.2 296.5 296.9 300 302.8 304.7 307.7 310.3 313 316 320.2 326.9 338.8 356.1 372.3 386.4 393.8 401.2 406.5 406.1 406.6 406.7 407.4 407.5 405.5
174.3 170.7 165.4 160 153.6 149.2 144.1 123.7 126.2 129.2 130.8 139.7 142.9 142.4 145.5 148.5 151.1 153.4 156.8 159.4 162.5 167.3 175 180.4 204 229.4 251.2 273.7 294.6 308.5 321.7 343.5 362.1 366.8 370.4 370 369.8 368.7 368.4 367.6 368.9 366.9 366.9 364.9 362.4 359.9 358.7 358 355.6 354.1 359 361.6 365.2 368 370.6 372.8 375.6 376.9 377.9 380.8 383.1 385.3 387.6 390.1 394.2 393.7 393.3 392.5 391.2 389.6 386.6 382.1 376.3 376.2 372.2 369.5 366.8 363.1 359.2 349.2 344.2 338.1 322.7 316.3 310.5 306.8 304.2 296.7 291.7 289.7 288.1 287.3 286.7 287.1 284.2 283.3 286.5 286.5 287 289.9 291.6 291.9 291.6 291.5 291.4 290.9 290.2 290 289.2 287.2 285.9 285.1 285.6 287.2 288.2 289.3 290.5 291.5 292.4 294.6 296.1 299.1 300.8 301.3 302.1 299.6 302.6 305.6 303.9 307.6 313 315.8 319 320.9 324.3 325.6 326.7 327.4 328.5 329.4 330 329.9 329.8 329.5 328.5 327.3 326.7 332 336.4 337.8 341.4 343.4 346 349.4 352 355.2 357.3 357.3 357.9 357.6 357.3 356.6 354.4 349.5 345 340.2 335.7 331.6 326.1 323.8 320.9 316.5 313.7 310.8 302.3 299.8 297.6 297.1 301 303 303.7 306.3 307.5 310.7 315.3 321.5 336.8 359 375.3 384.6 396.2 402.6 405.3 404.9 406.1 405.5 405.4 404.7 404.9 404
178.2 173.4 167.7 161.9 154.6 149.7 145.4 140.8 122.9 127.2 128.7 134.1 140.6 144.5 147.3 149.2 151.1 153.4 155.8 158.8 163.3 166.6 173.2 180.3 203.5 228.6 247.9 266.2 282.8 298.8 308.9 335.2 355 366.6 367.9 370.7 369.9 366 363.1 360.7 359.3 358.3 357.9 356.9 355.7 355.4 355.1 354.4 353.7 353.8 357 359.3 362 365.3 367.4 370 371.4 372.5 376.5 379.5 382.3 385.1 387.8 390.1 391.7 393.6 393.1 392.4 391.2 389 386.6 382.8 377.8 373.2 366.9 364.3 363.9 360.9 352.9 347 341.9 337.1 331.9 319.4 313.4 309.5 304.4 294.7 293.3 290.8 288.7 288.2 287.6 286 284.8 287.1 285.4 288 289.8 291.3 292.8 293.4 293.5 293.3 293.2 293.2 292.3 291.5 290 287.9 288.1 288.3 289 289.6 290 291 292.9 294.7 295.3 297.5 297.3 300.3 302.3 303.3 304.2 304.7 301.9 307.2 309.1 310.3 311.4 312.2 315.3 319.5 322.1 324.5 327.1 328.5 329.9 330.7 330.8 330.8 330.7 331.1 331.6 333 337.3 343.5 347.6 347.9 350.8 352.7 355.1 357.9 360.7 361.9 361.9 360.9 360.1 359.6 357.9 357.2 354.3 350.5 345.3 340.8 337.9 334.3 327.4 323.2 320.4 317.6 314.7 311.3 304.4 301.4 299.3 300.4 301.2 302.5 304.7 306.8 308.7 313.1 323.2 337.2 359.1 368.6 379.6 390.8 403.1 404.9 402.7 404.3 404 403.5 403.9 404.2 402.2 395.9
181.4 175.5 169 163.1 156.7 149.5 145.6 141.8 124.2 126.3 129.2 138.5 142.4 145.6 147.7 149.9 151.9 154.6 156.5 159.3 163.3 168.3 174.8 183.7 203.3 224.4 240.3 250.1 282 300.5 313 336.2 354.5 369.1 371.6 369.8 372.6 372 365.2 362.4 358.8 356.3 354.4 353.3 352.6 352.6 351.1 351.1 352.3 353.5 355.4 358 360.4 362.4 363.9 364.7 367.7 372.7 376 379.8 383.3 385.9 388.5 390.6 392.1 393.3 393.1 392.2 390.4 388.3 385.8 383 378.2 373.8 369.2 364 356.5 356.9 350.7 345.8 341.3 336.7 331.5 325.7 317.9 311.9 302.2 297.4 299.5 292.3 290.1 289 287.9 286.7 286.2 287.3 286.8 290 291.1 293 294.2 295.3 295.7 294.8 295 295 295.4 294.3 292.3 289.2 290.4 291.9 291.8 292 292.7 295.1 297.5 299.3 301 302.1 302 302.8 304.2 305.6 306.7 307 304.1 309.3 311.8 313.4 315.3 316.7 317.8 318.7 326.1 326.6 328.7 331 331.9 331.9 332.4 331.6 332.3 335.4 337.4 343.7 349.4 354.3 357.9 358.4 359.9 361.6 363.4 365.3 365.7 365.9 363.9 362.4 360.1 357.3 355.8 355.3 353.2 349.9 344.5 340.4 337.3 331.4 327.2 323.4 320.4 317 314.4 311.6 306.4 301.9 299.1 301.7 302.6 304.1 305.9 308.2 314.4 328.3 343.8 359.2 364.4 375.6 387.5 396.3 396.7 398.3 403 403.9 403.1 402.2 401.7 399.6 395.2 391.7
180 174.1 168.9 163.6 157.2 149.9 145.3 141.2 127.9 125.2 128.8 138.3 142 144.8 147.4 150 152.5 154.7 157.4 159.9 163.7 168.7 175.2 188 209.6 229.8 247.6 266.7 290.4 309.3 319.8 338.5 363.2 370.2 376.3 374.9 371.5 371.6 370.3 366.6 361 357.8 354.5 353.4 352.6 351.8 350.6 351.4 351.9 352.6 353.8 355.3 356.8 358.7 360.7 364.7 368 371.1 374.7 378.8 383.8 387.4 389.7 391.3 392.7 392.3 390.7 390 388.3 386.7 385.2 382.7 378.9 373.4 367.7 362.6 357.3 350.4 349.2 344.6 339.7 334.1 328.4 324.4 319.1 314.6 308.6 301.5 299.9 297.7 291.6 289.4 288.9 287.3 285.5 288.3 288.1 290.3 292.9 294.9 296.3 297.6 297.7 297.4 298.8 299.4 298.4 296.7 295.3 292.2 292.9 293.6 293.7 294.4 297.1 300.5 304.1 307.4 305.9 308.8 308.8 307.5 308 308.6 309.2 309.9 308.2 310.8 313.9 316 318.1 319.5 322.1 324.8 325.4 329 332 333.9 334.2 334.1 334.1 334.1 337.7 341.7 346.8 353.2 361.4 365.1 366.2 365.9 366.7 367.8 369.1 369.6 369.8 366.5 363.5 358.5 355.4 353.4 353.2 353.2 351 346 341.8 339 335.2 330.2 326.9 322.6 320 316.1 313.6 311.3 305.9 301 300.6 303.4 305.6 307.3 309.9 317 328.8 345.6 361.7 369 370.6 380.9 388.1 392 393.2 403.4 404.8 402.8 401.4 397.2 396.1 392.4 390 389
177.8 172.7 167.3 161 155.4 150.2 142.6 138.9 125.5 123.3 127 135.3 140.8 143.8 147.5 150.9 152.9 155.2 157.7 160.4 163.3 168.5 177.1 194.6 212.4 229.9 247.6 269.1 294.8 316.8 328.1 338.7 360.8 374.9 378.4 380.1 376 372.7 372 371.7 370.4 364.9 361 354.9 353.6 351.9 350.6 350.9 351.4 351 351.9 353.4 354.8 357.6 359.6 362.3 365.6 369.7 375 379.7 383.7 385.8 387.1 387 386.2 383.6 384.5 385 385.1 384.6 383.7 381.7 378.1 373.3 367.7 362.3 357.3 350.6 342.5 341.5 336.2 329.6 325.5 323 319.4 315.5 306.9 307.1 305.2 306.3 296.8 292 290.2 289.4 286.4 289.6 289.3 290.2 293.2 296.1 297.5 299.1 300.2 302.5 303.4 302.1 300.6 298.8 296.5 294.3 295 295.6 296.9 298.4 303.7 308.5 313 314.2 313.1 314.3 313.5 313.4 313 313 312.9 313.2 311.9 311.6 318.1 319.8 322 323.6 326.6 329 328.8 329.9 334.5 336.2 336.6 336.5 337.2 339.7 344.6 349.4 353.9 362 368.3 371.4 373 372.5 371.8 371.9 370.9 369.8 368.7 364.2 358.1 354.3 351.9 350.4 350.5 350.8 348 343 339.5 336.6 332.3 328.8 325.7 321.9 318.6 315.3 312.6 310.6 304.1 302.2 305.9 308.3 310.2 315.4 328.2 339.5 351.3 361.7 370.1 376.4 381.5 385.7 388.9 396 399.1 402.5 403.1 401.1 397.3 396 395 392.6 391.2 389.1
176.5 169.8 164.6 159.2 153.8 147.8 141.6 134.7 124.2 121.4 125.7 136.3 140.7 145.2 146.8 151 153.9 155.9 159 161.7 164.9 170.5 180.1 195.2 212.1 229 246.3 268 296.3 319.5 332.9 341.5 354.4 375.4 383.9 382.6 379.8 375.6 374.1 372.3 370.7 366.7 360.9 357.6 354.3 352.2 350 350.5 350.4 350.5 351.3 352.4 353.7 354.9 357.5 361.3 365.3 370 374.6 378.8 378.7 378.9 378.6 377 375 374.7 378.2 380.4 381.6 381.3 379.6 377.8 374.5 371.1 366.4 362.2 357.2 351.9 346.5 336.3 330.2 327 322.2 322.1 316.6 312 314.1 311.8 309.1 307.4 303.3 296.7 291.2 289 289.7 290.3 290.8 291.4 294.3 297.4 298.7 300.7 302.2 303.8 305.2 303.8 301.8 299.5 297.2 296.6 297.9 299.1 302.4 305.9 310.5 320.5 320.6 316.7 319.8 321.2 321.6 320.9 320.2 320.8 317.6 316.5 316.4 315.3 322.5 326.6 326.8 328.5 331.3 333.8 334 334 336 339.1 339.1 340.1 342 345.7 349.6 356 363.9 368.4 372.4 374.9 376.4 374.8 372.9 371.5 370 367.9 364.1 358.7 353.7 350.6 349.1 347.8 348.3 348.3 345.6 339.8 336.9 333.3 328.7 326.6 324.4 321.6 317.6 314.2 309.5 303.2 305.3 307.1 310 312.4 319.5 332.2 348 360.7 371.3 380.9 382.9 384.4 389.8 391.2 392.3 395.1 398.9 401 401.3 400.2 398.3 397.4 397 395.9 395 393
172.2 166.8 161.4 155.5 152.7 147.1 141.4 132.5 123.3 122.1 129.5 136.3 140 144 147.2 151 153.3 156.3 159.3 161.8 166.8 172.7 183.2 195.3 210.9 225.2 242.8 262.2 281.9 301.3 325.4 341.8 350.2 365.5 385.1 391.7 385.9 382.3 378 373.9 372.6 369.7 368.8 365 358.3 354.6 352.2 349.8 350.3 350 350.9 351.9 354.1 356.2 358.7 361.7 366.7 370.7 371.7 372 371 370.3 369.3 367.2 368.9 371.5 371.6 372.8 375.9 375.4 374.1 371.8 370.8 368.3 365.3 361 355.1 350.6 344.2 336.5 332 329.4 327.1 323.1 320.1 319.5 317.5 315.4 312.6 309.3 305.4 298.4 290.1 291.7 292.4 292.1 294.1 295 297.1 298.1 299.6 302 303.9 304.8 305.9 305.4 303.3 301.3 299.7 300.6 303.3 306.4 309.7 316.1 324.5 326.4 326.5 326.8 326.9 327.5 327.6 326.3 324.6 322.9 322.3 320.6 320.5 316.4 324.8 328.2 330.6 334.9 338.5 340 339.8 340.8 339 342.1 342.4 345.7 349.2 353.1 356.5 363.3 369.9 375.4 377 378.9 379.4 374.5 370.3 367.6 368.2 363.5 357.4 354.2 349.8 347.3 345.6 345.6 345.7 345.3 341.9 337.1 335 331.4 326 324.1 322.3 320.2 314.9 308.9 310.2 314.5 312 314.4 316.7 325.3 337 353.5 365.5 375.4 382.9 387.9 391.1 394.5 393.8 393.4 395.3 398.5 402.7 401.9 404.9 404.7 403.6 401.8 399.4 398.3 396.9 395.2
167.7 163.2 157.3 152.4 148.9 144.7 140.3 131.7 121.6 121.7 129.2 136.1 140 143.5 147 150.4 153.4 155.8 159 162.3 167.9 174.5 184.5 196.4 209.2 220.5 237.6 251.8 266.3 287.6 309.9 330.7 342.8 355.4 375.4 391.1 394.2 388.8 383.8 379.3 374.9 372.4 372.8 374 365.8 361 356.9 353.1 351 349.2 350.8 352.7 354.9 357.2 359.5 362.7 363.8 365.8 366.6 364.7 363.2 361.1 359.6 361.2 364 364.7 363.5 366.4 367.7 367 367.3 366 366.4 365.9 363 359.6 353.8 350.4 344.7 338.5 334.3 331.3 327.5 324.2 321.5 320 318 316.4 312.8 307.2 304.3 294.1 292.9 296 295.7 297.4 299.1 297.6 299.9 301.1 303 305.2 306 306.4 307 307.1 305.1 304 303.5 305 311.2 315.6 319.3 330 332.9 332.2 329.7 333 332 332.2 331.5 332.2 327.6 325.4 325.1 323.4 319.8 324.1 335 337.7 346 350.1 350.7 350.5 348.6 348 345.5 345.4 346.2 349.9 356.6 361.6 369.2 375.1 378.2 381 382.2 383.7 383.1 376.6 367.6 363.6 362.8 356.4 351.4 348.7 346.3 344.2 343.2 343.7 343.1 341.7 336.3 334.2 331.8 327.6 323.7 321.9 320.2 318.9 313.7 311.2 315.9 317.8 319.7 322.5 331.3 343.1 353.3 364.3 374.2 384.5 390.4 398.9 397.2 398.2 399.5 399.9 400.8 400.6 401.7 403.1 403.9 404.5 404.4 403.1 402.4 402.8 399.3 395.1
165 157.5 153.5 148.9 145 137.7 135.9 120.3 120.6 121.6 131.3 136.5 139.9 143.6 146.7 150 152.4 155 159.4 163.4 168.4 177.3 186.5 200 215.4 228.1 243.3 257.9 279 298.3 321.9 337.3 344.3 358.2 375 384.1 390 391.4 387 383.4 377 374.8 373.9 376.8 378.9 371.3 364.8 358.4 355 351.1 349.6 353.2 355.2 357.5 359 360.6 360.3 361.1 362.4 363.7 360.1 357.4 356.2 358.4 357.4 355.6 357.1 361.5 360.5 359.7 359.7 359.4 359.8 354.9 357.1 356.9 354.5 351.4 347.6 343.6 337.1 331.1 327.1 324.5 319.4 317.4 315.3 312.3 308.8 305.2 296.8 294.6 297.4 297 298 300 301.5 302.4 303.2 304 305 307.3 308 307.9 308.6 308.1 307.5 307.5 308.3 310 318.3 322 330.8 335.6 334.9 332.4 335.4 336 336.1 336.9 337.3 336.6 333.8 333 328.8 326.1 320.8 332.2 341.1 345.3 359.5 361 359.9 357.8 355.5 352.5 348.4 349.1 351.8 355.5 364.1 371 376.6 380.8 384.8 385.9 386.8 387 387 382 369.5 360.3 351.1 347.2 344.8 343.2 342.3 341.6 341.1 340.8 340.1 338.2 333.2 330.2 326.3 324.2 322 321.2 320.8 315 314.3 319.1 323 326.4 332.3 339.1 348.4 354.7 363.4 378 387.5 393.6 397.1 399.1 400.1 400.5 402.7 405 403.5 402.7 403.1 404.1 406.8 408.6 407 405.5 404.3 402.4 399.6 395
165.4 158.6 152 144.8 137.7 137.5 124.5 117.6 121.2 125.6 131.9 137.4 141.9 144.1 146.7 149.8 152.7 155.5 159.9 164.9 170.7 178.1 188.6 202.5 218.3 233.4 244.9 263.5 283.1 308.4 333.5 345.2 352.1 369.2 380.6 384.3 383.9 385.7 390.6 386.6 381.1 377.9 378.4 381.2 382.8 377.8 372.2 364.9 359.8 353.8 349.6 353.4 354.9 356.4 356 356.9 357.9 358.5 360 361.6 358.3 354.6 353.2 351 349.1 351.2 354.2 354 352.3 353.4 352.3 350.9 348.6 354.8 356.9 355.3 353.4 352.3 349.4 344.8 336 328.4 323.4 321.4 316.7 313.5 311.2 307.9 298.1 295.5 297.7 297.4 299.7 298.6 300.2 302.5 303.1 304.1 305 306 306.9 307.8 309.7 310.3 310.3 309.9 309.5 311.5 313.4 315 319.6 326.6 336.7 337.9 336.1 334.9 338.5 339 339.8 341.9 342.5 342.5 340.8 335.4 330.8 325.1 325.8 335.9 349.2 362 367.6 367.5 365.5 362.8 359.7 355.1 351.5 355.9 360.8 364.8 367.4 375.8 380.8 384.9 388.6 389.3 389.2 389.1 389.8 385.5 375.8 362.7 351.3 345.3 342.7 341.2 339.9 339.2 338.5 337.9 337 334.8 328.1 322.8 322 321.9 321.7 321.4 314.5 318.3 331.4 334.6 337.6 342.7 347.3 351.1 355.5 362.8 374.5 388.4 398.2 398.7 399.2 400.1 401 404.1 406.6 406.7 407.7 407.3 407.2 407.9 408.4 405.9 404.6 403.9 401.8 398.4 393.8 391.1
160.1 153 148.7 144.9 138.5 131.7 119.1 119.5 121.6 127.4 135.5 138.5 141.9 144.4 147 149.4 153.7 156.5 160.4 166.8 171.1 178.2 187.3 197.6 217.7 232.6 243.8 259.6 277.1 297 325.1 348.1 357.4 370.1 385.5 387.5 384.5 381.5 381.2 387.5 385.9 380.2 384.1 385.3 390.7 386.8 379.1 370.1 364.3 355.8 350.7 352 354.1 353.9 354.4 355.2 356 356.6 357.7 358.4 355.5 351.5 350.1 347 347 348.6 349.1 346.8 345.6 345.4 344.1 341.9 345.2 349.1 345.8 348.4 350.7 351.6 349.3 343.4 336.1 324.6 319.7 317.2 313.2 308.2 305.1 299.2 301.6 304.3 304.7 303.5 303.1 303 302.8 304.7 304.9 305.2 308 307.9 308.7 310 310.9 311.8 312.3 313 312.9 313.5 315.9 318.9 322.6 332.1 337 340.1 341.7 339 342.5 342.9 344.1 345.7 347.2 346.9 343.9 336.2 332.2 325.3 334 343.8 355.1 368.1 370.3 369.6 367.5 364.8 360.5 357.3 359.4 364.3 370.2 373 377.6 380.4 385.4 389.6 390.9 391 390.9 390.8 390.8 385.3 375.4 363.8 352.7 343.5 341.3 340 338.1 337.1 336.7 336.1 334.9 329.5 324.6 322.2 320.8 320.5 320.6 319.9 317.2 329.9 334 341.8 351.5 357 359.6 361.8 367.8 374.8 388 394.3 397 398.2 400.1 405.4 408.9 408.2 408.3 408 408.9 408.7 407.7 405.8 404.8 405.2 403.3 401.2 397 391.5 387.7 386.6
155.5 149.5 145.3 141.7 139.5 126.2 117.6 119.6 123.8 132.8 137.4 140.9 143.8 146.6 148.9 151.1 154.2 157.2 160.7 165 171.3 181.6 193.7 201.9 216.1 225.1 239.7 249.2 261.5 290.8 315.6 346.5 362.3 371.1 381.1 383.4 382.2 378.4 374.8 375 384.3 388 384.6 388.9 394.8 392.8 385.5 377.6 368 359.1 352.3 349.3 352.7 352.5 352.8 353.5 354.2 354.5 355.4 355.1 352.2 347 344.9 341 340.3 341.1 339 337 335.2 330.4 331.1 331.4 334.4 335.4 335.7 344.2 350.4 350.8 345.7 335.9 330.8 322.5 317.5 314.6 311.1 304.9 300.5 303.8 306.1 306.7 307.9 307.3 307.2 307.6 302.3 306.9 306.8 308.3 308.6 309.9 310.6 312.3 311.5 313.7 314.6 315.6 316.3 316.3 320.2 324 334 338.3 343 345.5 345.9 343.5 345.6 345.9 347.3 350 351.3 349.2 345.6 337.5 332.7 327.7 339.6 346 358.5 365.5 369.3 372.5 370.9 369.7 363.9 362 368.8 374.1 376.6 380.1 385.4 389.4 390.3 392 392.9 392.5 392 391.5 389 385.5 377.2 364.9 355.1 343.9 341.4 339 336.4 335 334.4 333.7 333 327.7 323.7 321.2 319.9 318.8 318 317.3 327 333.6 341.2 355.1 363.3 366.6 369.3 372.6 377.8 387.2 388.6 394 402.4 405.3 408.5 408.2 408.1 408.6 408.5 408.8 409.6 408 404.8 402.8 400 399 396.2 392.5 387.7 384 383.5 383.2
150.9 146.1 142 139.6 123.6 121.3 117.9 118.8 129.2 135.8 139.3 141.9 144.8 147.7 150 152.2 154.9 157.7 160.6 166 177.9 196.1 202.8 213.5 222 232.1 245.4 252.6 269.5 291.5 313.8 335.6 363.2 375.3 379.7 379.5 377.7 374 369.5 366.6 374.2 387.6 387.2 390.4 393.3 393.7 388 379.4 371.3 359.5 353.3 347.6 350.7 350.2 350.1 350.5 351.4 351.2 352.7 351.2 347.3 343.5 338.4 335.3 330.7 331.1 329.4 327.3 325 324.5 324.7 325.6 326.5 326.8 328.8 332.5 337.5 335.5 332.6 326.9 323 319 315.7 310 308 302.6 301.5 308.6 309.2 309.9 310.6 311.1 311.5 310.7 307.9 309.4 309.8 310.7 310.9 311 312.3 313.9 314.7 314.8 316.7 318.3 319.3 320.5 329.9 332.3 343.5 345.4 347.2 348.9 350.3 351 351 350.9 352 353.8 353.1 348.4 345.3 339.6 330.6 340.3 345.3 351.8 365.2 374.1 380.9 380.1 376.6 371.7 369.3 370 376.5 380.5 383.3 386.9 390.5 393.8 395.5 396.2 395.5 394.6 393.4 391.3 388.5 384.2 380.4 367.9 359.2 349.2 343.1 338.7 334.4 333.5 333.4 333 332.1 327.1 322.2 321.8 319.7 320 319.3 325.4 341 347.5 350.5 361.5 367.8 371.6 374.3 379.5 383.7 389.6 395 397.9 401.4 404.2 406.4 407.6 408.1 408.5 408.4 409 405.7 403.9 401.8 397.5 394.9 391.2 389.2 383.9 382.1 380.3 380 377.8
144.8 142.1 138.1 128.2 120.5 119.6 116.9 121.2 136 138.8 140.5 142.1 144.8 148 150.3 152.8 155.1 157.5 162.3 168.7 183.3 204.1 217.2 228.4 238.7 245.5 254.2 265.9 286.7 297.6 315.6 331.3 348.5 360.4 367.9 370.3 371.7 369.3 365 362.7 367.4 383.9 388.4 389.1 393.4 391.7 388.2 380.8 372.4 360.4 353.5 349.8 344.7 347.8 347.4 347.5 347.7 347.8 348.8 344.2 339.7 337.1 334.1 330.6 327.3 325.7 323.5 322.7 322.3 321.7 321.8 322.2 322.6 324.7 327.4 330.1 331.7 328.7 325.1 322 319.4 315.1 312.5 305.1 303.4 307.1 309.2 311.5 311.6 312 312.6 313.1 313.4 311.8 311.7 312.7 313.8 313.4 313.3 314.1 315.3 315.7 316.7 317.4 320.9 323.2 323.3 329.9 343.8 346.9 347.5 352.9 353.8 354.9 354.4 354.8 355.7 355 355.3 354.7 352 350.2 347 337.2 345.6 349.4 353.3 362.4 372.6 379.9 385.2 382.9 379.1 375.9 375.5 380.6 384.5 386.4 389.8 392.1 395 398.6 398.8 398.9 398.3 396.8 394.8 392 388 383.2 378.7 366.8 361 355.2 347.1 341 335.5 330.9 332.1 332.2 331.6 324.1 322.6 323.7 321.9 321.9 326.2 340.7 349.1 352.1 355.5 364 368.2 373.1 376.9 383 389.6 395.7 397.8 402.2 404.6 405.3 407 407.6 408.1 408.2 407.6 405.2 403.2 401.4 397.9 392.4 390.2 388.4 382.6 380.3 378.8 377.6 376 374
139.8 136.5 132.1 121.4 119.6 118.6 113.6 117.2 137.8 139.3 140.6 142.4 145.1 147.7 150.2 152.5 155 159 164.2 170.8 189.7 209.4 223 239.8 250.9 262.2 276.2 285.5 299.3 310.4 321.8 330 332.1 331 337 354.2 362.2 364.9 362.7 359.4 363.1 379.6 386.8 384.7 389 389.5 387.7 380.7 371.2 359.7 353.7 348.4 339.7 345.7 345.2 344.9 345.5 345.1 342.1 338.2 335.4 332.7 329.5 326.8 324.7 322 321.2 321.3 320.6 320.5 320.6 320.6 322.2 325 327.5 329.8 329 325.6 321.7 319 315.2 307.7 305.1 307.3 305.4 308.8 310.4 313.5 314.1 314.5 314.7 314.7 315.3 314.6 314.8 315.9 316 316.8 317.7 318.2 318.5 318.9 319.9 323.8 326.8 328.1 335.2 348.8 355.2 353.6 351.4 360.2 361 358.3 356.1 356.1 356.6 356.5 355.8 355 353.4 352 342.4 350.3 355.6 355.8 361.7 375 383.4 388.3 389.8 386 381.7 382.5 383.1 387.8 390.5 393.4 399.9 403.8 404.7 403.6 401.6 401.1 400.8 401 396.7 393 387.8 382 377.7 366.9 361.6 355 349.8 344.9 336.9 330.8 328.8 327.6 326.2 326.2 328.3 327.7 324.2 333.2 340.9 346 351.8 356.1 363.1 369.2 380.5 387.7 389.5 388.1 391.9 398.4 402.4 403.8 404.8 405.9 406.9 407.7 407.6 405.6 403.5 401.2 399.5 395.3 392 389.1 387.2 382.8 379.2 377.7 377.4 377.2 376.5 375.2
136.4 131 120.5 119 118 115.1 116 118.6 137.8 139.3 140.7 142.4 144.8 147.4 149.9 152 155.3 158.8 164.6 176.4 193.2 211.4 227.3 245.8 260.8 277 296.4 308.9 308.4 319.1 326.9 320.9 306.4 300.9 310.7 325.1 346.1 359.8 359.2 356.5 357.1 374.2 382 381 383.5 384.7 383.7 376.8 369 358 350.3 344 338.4 342.7 342.5 342.5 342.3 341.3 336.2 334 332.2 329.4 325.8 322.4 322.5 322.2 321.3 321 320.6 320.1 319.7 320.1 319.2 324.4 326.7 326.9 324.9 321.5 318 314.6 311.9 307.3 306.4 308.2 307.4 310 312.7 315.1 316.8 317.9 318 317.9 317.2 316.3 316.9 317.8 318.5 319.7 320.2 321.1 321.9 322.8 327.3 332.8 333.9 339.1 348 359.7 361.8 358.5 363.7 367.4 364.6 359.4 358.2 357.8 357.3 356.7 355.4 354.4 353.4 346.5 349.5 356.3 358.7 362.7 375.8 389.2 392.1 391.6 390.7 387.5 386.3 387.7 393.1 395.3 399.3 405.9 411.1 411.3 410.7 406.8 404.2 403 402.5 400.5 396.6 390 385.8 380.8 375.2 368.7 363.4 360.7 351 346.6 340.9 334.6 328.8 328.3 329.7 331.5 331.3 330.1 335.2 344.8 349.7 352.6 361.2 371.5 379.4 386.3 389.1 390.4 391.7 392.9 394.6 401.1 403.6 404.1 404.5 405.2 405.8 404.1 402.5 400 398.8 397.5 393.2 391.2 391 386.8 383.6 380.3 378.4 377.4 377.8 377.3 377.6 379.9
129.2 121 118.5 117.3 114.1 114.4 115.6 123.1 137.8 139.1 140.5 142.5 144.5 146.8 149.7 152.5 155.9 159.4 171 190.4 206.4 219.7 233.2 250.1 269.6 288.9 315.7 327.4 327.8 326.6 325.4 307.3 288.5 281.9 288.3 303.2 328.1 346.4 351.9 350.6 351.4 365.5 374.5 375.6 377.4 378 376.1 370 362.9 353.6 346.1 338.5 335.8 340.7 340.9 340.4 339.8 338.9 334.3 330.4 328.3 324.1 324.3 324 323.5 323.4 322.4 322.3 321.9 322.1 322.8 323.5 321.8 317.8 320.8 321.7 319.3 313.2 310.9 309.6 308.5 308.3 309 308.1 308.8 311.2 314.7 317.5 319.4 321.1 322.1 321 319.6 317.4 319.2 319.7 320.8 321.5 322.8 325.4 326.1 331.3 338.6 337.4 345 352.2 360.8 366.3 367.8 366.9 369.4 368.5 364.3 361.8 360.5 359.4 358 356.2 354.8 351.1 350.4 352.3 352.5 359.7 365 375.9 387.3 396.5 397.8 397.2 396 393.4 391.1 395.5 400.5 402.9 410 415.1 417.5 416.7 414.6 409.2 405.6 404.2 402.1 399.3 396.2 388.1 384.3 381.4 375.3 369.6 364.1 360.3 351.6 346.8 343 339.3 329.9 329.8 331.8 333.5 334.6 334.9 342.6 349.4 352.4 358.8 375.8 385.6 387.9 389.4 390.6 394 396.6 399.9 400.4 400.9 402.8 403.5 404.5 401.9 400.6 399.5 398.4 396.8 394.6 392.1 392 391.6 388 384.2 381.5 377.7 376.1 376.7 377.4 377.6 384.2 385.7
118.9 117.3 116.7 112.6 111.9 114.2 119.6 136.7 137.6 138.8 140.2 142.3 144.2 147.1 150 153.5 157.4 164.1 174.7 193.6 212.4 229.5 243 260.3 278 301.8 325.7 340.5 346.2 336.3 325.3 300.8 276.5 269.9 272.2 287.6 311.6 332.5 340.7 341.6 345.9 361.9 369.7 371.5 373 373 369.4 363.6 356.8 348.3 340.3 334 336.8 339.4 339.4 338.8 338.3 337.6 334.9 326.7 325.6 327.8 330.7 333.2 332.4 332.2 327.5 326.4 324.6 324.8 325.3 326.1 326.3 325 320.1 315.5 314 318.9 320.5 320.1 318 313.7 311.5 309.5 310.7 314.2 317.1 319.5 321.6 323.5 324.1 322.7 319.9 320.2 320.2 322.6 323.7 325.5 326.9 330.1 336.5 340.8 342.2 348.6 354.1 363.8 369 371.2 371.6 369.8 368.6 366.9 364.7 363.3 361.9 359.7 357.2 354.5 354 354.7 355.6 357.7 360.2 367.6 377.1 384.9 395.7 402.4 403 403.6 402.7 398.8 397.4 402.4 405.1 411.1 416.5 419.5 419.7 419 416.2 411.1 407 404.5 402.1 399.2 392 386.2 383.4 381.7 377.9 374.9 365.5 360.5 352.7 346.5 342.3 338.1 330.9 332.5 334 334.5 336 338.9 342.6 347.3 352.7 361.5 374.3 382.4 386.6 388.1 392 396.8 397.6 399.2 399.7 399.3 396.5 398.6 398.7 398.8 398.2 398 396.9 392.3 390.6 392.5 389.8 385.8 384.3 381 376.6 374.3 374.9 376.3 378.4 383.2 387.9 389.8
116.2 116 111.5 112.6 113.5 125.4 135 136.7 136.8 138 139.8 142.9 144.1 146.7 149.9 153.3 158.9 166.5 174.6 192.7 213.9 233.6 250.2 272.5 288.5 310.9 334.4 349.4 350.8 339.8 321.7 296.5 272.8 264.2 265.2 274.8 298.6 320.2 330.2 337.1 342.6 355 364.8 364.5 365.3 368.7 363.8 356.8 349.7 342.1 335.1 332.6 333.7 338 338 337.7 337.6 335.4 327 330.3 334.6 344.3 344.8 343.4 340.8 337.4 333.5 330 327.3 327.2 327.3 328 328 326.3 323.7 318.1 320.7 322.8 323.5 323.7 322.7 318.1 312.8 312.5 315.4 317.1 320.4 322.7 324.1 325.3 325.1 321 321.6 322.4 323.9 324.9 327.5 329.9 333.1 339.7 345.5 346.2 348.8 357.2 367.5 371.3 372.2 372.4 372.6 370.6 368 366.5 365.1 363.7 362.4 359.7 356.4 355 356.2 357.3 358.2 363 370.9 376.2 386.1 390.4 400.9 406.2 407.3 411.6 407.2 402.9 402.3 406.3 409.8 416.1 421.5 422 421.3 420.2 417.6 412.7 408.4 405.1 401.9 397.4 388.2 385.1 383.4 381.6 378.8 375.4 366.8 361.3 351.6 345.9 340.2 334.3 332.6 335.2 336.1 336 337.6 340.5 344.7 349.4 356.9 365.1 376.6 381.9 384.6 386.8 389.3 393 394.5 392.7 393.6 392.6 391.6 392.1 393.7 396.2 395.4 392.4 388.2 388.2 391.5 385.9 381.9 380.4 379 375.1 371.3 373.9 375.8 377.4 383.6 389.2 391.4 393.9
115.4 111.6 111.2 112.5 115.9 126.7 135.1 135.4 136.4 137.4 139.2 142.6 144.4 148.3 152 155.6 161.1 167.2 175.8 189.1 212.7 238.4 259.2 278.8 296.5 317.1 334.4 347.3 346.6 333.9 315.5 290.5 268.8 260.9 259.6 267.2 287.1 308.6 319.6 328.9 334.8 350.6 362.6 360.5 360.1 360.1 355.1 348.2 343.1 337.2 333.1 331.5 331.8 333.5 336.7 334 328.4 333.2 339.2 344.4 349.9 350.7 349.3 346.1 342.5 338.7 334.2 330.5 328 326.9 326.3 326.8 326 324.5 320.2 323.4 324.9 325.9 326.3 326.5 324.9 320.7 315 317.3 322.1 325 326.2 327 327.1 326.6 325 323.3 323.7 325.3 327 330.3 331.1 335.2 341.3 346.2 350.5 350 360.6 371.2 375.7 375.1 373.9 372.8 371.4 369.5 367.7 366.3 365.2 364.1 362.7 361.5 356.5 356.1 358 359.1 362.5 375.8 384.2 385.2 388.2 390.9 402.6 408.3 410.3 415.4 410.8 404.9 406.8 411.6 416.2 422.1 423.9 423.3 422.1 420.4 417.6 413.9 411.2 405.9 401.4 393.4 387.6 384.5 383.2 381.4 378.7 375 367.2 362 351.6 345.3 339.7 334.5 335.4 336.4 337.9 338 339.6 342.6 345 348.9 356.2 366.2 372.4 374.5 379.5 384.9 387.1 388.9 388.4 387.5 388.2 389 388 385.8 391.7 391.6 389 387.8 386.7 383.1 376.5 375.6 375.3 374.5 373.1 370.1 371.6 372.8 375.8 380.3 387.6 391.9 395.6 397.7
110.2 108.6 110.9 114 118.2 124.9 134.2 135.5 136.2 137.6 139.3 141.4 145.2 148.9 153.7 158.5 163.3 170.4 176.2 186.2 205.2 232.5 262.6 276.9 293.3 309.5 327.1 340.5 336.9 326.1 305 280.9 264.9 258.5 258.2 262.6 280.5 291.7 312.4 318.6 324.4 333.3 355.6 355.2 357.2 355.3 351.1 344.6 339.1 335.2 332.6 331.1 330.8 329.4 328.6 334.7 339.6 345.4 351.3 355.4 354.9 352.8 349.5 345.9 342.1 338 332.7 329.7 328.1 327.2 326 324.4 323.6 323.7 324.2 325.8 327.7 328.6 329.1 329.3 329.4 322.7 320.5 323.3 326.2 328.1 329.3 328.7 327.2 325.4 325 326.3 327.2 328.4 331.5 333.3 336.6 340.6 346.1 353.5 357 358.1 368.8 378.1 378.4 376.3 374.2 372.4 370.8 369.1 367.4 366.2 365 364.6 363 361.4 357.1 358.7 360.4 363.6 376.8 388.3 391.4 391.1 392.1 393.8 406.3 412.5 413.3 415.7 411.6 409.2 412.5 414.9 421 424.6 424.1 422.8 420.6 418.7 417.5 414.8 411.3 405.4 399.9 392.7 386.9 383.2 382.2 381 378.2 375.5 367.9 362.7 359.1 349.9 340.4 337.4 337.5 339.1 340 339.5 340.9 343.5 346.4 350.5 356.2 362.2 367.2 371.5 376.7 376.6 374 377.8 380.5 382.5 383.2 384.4 384.3 380.1 376.4 376.4 379.6 378 373.9 374 371.2 370 370.9 369.5 368.1 369.8 371.2 374.9 379.6 384.4 389.7 392.6 395.3 397.1
109.2 108.9 111.1 115.3 123.7 132.2 133.2 134.5 135.3 137.1 138.5 141.2 145.6 149.8 154.9 159.8 166.9 173.2 181.6 186.7 206 225.3 250.3 270.9 289.5 304.5 320 334.7 331.1 318.8 294.6 272.8 260 256.6 255.6 259.1 265.4 284.6 293.5 299.7 310.4 321.9 338.3 351.7 355.4 355.2 350.8 346.2 338.2 334.5 332.7 331.1 330.5 333.2 338.6 343.7 348.3 353.6 355.8 355.2 352.9 349.5 346.9 343.1 337.8 334.8 332.7 331 329.8 328.8 328.6 327.9 326.6 326.8 327.6 329.4 330.2 331.2 332.9 334.8 332.7 328.2 328.5 327.8 329.1 330.3 329.4 327.4 326.5 325.1 326.9 328.2 329.2 331.8 334.8 338.3 343.1 347.6 354.9 357.7 362.8 366.2 376.5 380.4 377.9 375.9 374.1 372.1 370.4 368.8 367.3 366.1 364.9 364.1 361.7 362 362.9 363 365.9 371.2 387.1 395.6 391.7 397.4 398.9 403.2 411.8 416.9 417.2 417.5 414.3 412.4 415.1 419.4 423.6 423.3 422 420.2 418.4 416.6 415.4 412.8 409.2 403.4 396.7 390 385 381.9 380.8 379.4 377.3 375.2 368.6 364.2 360.2 357.6 344.3 340.2 339.8 342.1 342.6 343.5 344.4 345.8 350 354.1 358.1 361.2 366.6 369.6 370.9 372.1 367.9 368.1 371 374.1 377.6 378.7 377.2 372.3 372.9 370 366.9 363.6 366.8 367.3 365.7 366.8 366.9 366.7 368.5 370.1 373.6 378.5 384.4 388.4 391.1 391.5 393.1 395.5
109 109.8 110.6 122.7 127.4 131.3 133.2 133.4 134.4 136.2 137.4 141.4 147 152.4 157.4 162.9 169.4 175.5 183.2 188 202.3 227.2 244.7 259.7 281.5 298.7 317.6 332.9 329.3 313.3 287.9 267.6 257 253.2 253 255.1 260.2 267.8 278.5 289.3 303.9 318.9 330.3 347.8 351.9 354.5 350 344.9 338.1 334.5 333.4 333 335.8 340 345.6 351.5 355.7 355.7 354.1 350.6 348.6 347.2 345.6 341.7 337.6 336.4 334.8 333.2 333 333.1 332.8 333.2 333 333.2 333.2 334.8 335.4 337.5 338.9 339.1 338.3 336.9 335.5 333 332.2 331.1 328 326.3 326 326.6 328.1 329.7 332.5 335.5 339.3 343.9 347.5 353.1 357.6 361.5 370 374 379.8 379.6 377.1 375.7 374.1 372.2 370.2 368.3 367 365.7 364.6 365 365.6 366.3 366.4 366.7 370.2 383.6 394.7 401.5 401 402.7 409.5 413.2 420.3 421.9 421.1 418.5 415.2 414.2 416.9 421 422.2 420.4 418.6 416 414.6 413.1 411.8 409.3 404.6 398.7 391.6 386.3 382.3 380.8 379.5 378.4 376.7 374.6 369 364.7 361 355.2 341.1 346.6 347 348.3 346.3 346.4 348 349.4 352.3 355.1 359.4 363.3 365.8 367.2 368.2 368 364 362.4 365.4 368.7 366.3 370.9 372 365.6 364 362.1 361 361.4 361.5 362.3 364.5 364.6 364.6 367.5 369.1 371.3 375.1 382.9 387.4 390 391.3 391.6 392 395.5
107.3 110 111.1 122 125.4 129.7 132.8 133.3 134 135.4 138.5 142.4 147.2 153.5 158.7 165.3 170.9 175.9 182.9 189.3 201.2 225.5 238.4 253.3 275.4 289.5 314.7 327 327 308.6 281.2 262.2 253.6 250.8 249.7 252.5 255.3 262.2 272.7 287 305.2 317.5 325.4 343.8 345.3 347.1 346.9 341.2 336.6 331.5 332.4 336 340.2 343.5 347.4 349.3 348.7 347.2 346.9 346.4 347.5 347.3 345.6 344.1 342.4 341.3 340 338.6 339 339.4 340.5 339.8 339.1 339.3 339.7 341.6 342.6 343.9 345.2 345.3 344.1 340.7 339.7 336.6 333.3 328.4 326.6 326.3 325.8 327.6 329.3 332.7 336.2 339.1 343.9 348.6 354.1 359.1 363.2 371.9 376.9 379.5 380.7 378.4 376.9 375.5 374.1 372.2 369.4 367.7 366.5 366 366 366.9 368.1 369 369.1 371.4 379.3 395.8 402.4 403.6 400.7 407.2 412.4 416.7 419.9 419.6 418.6 417.1 414 414.8 417.3 418 417.5 416.1 414 410.7 409.7 409 407.5 403.9 398.8 392.7 387.2 383.9 380.9 379.2 377.9 376.8 375.3 373.9 367.7 363.8 360.1 344.4 355 356.6 358.2 358.9 357.4 355.8 352.8 352 354.2 357.8 362 364.2 365.4 365.9 366.1 365.1 360.9 359.6 359.4 360.5 359.4 360 359 360.2 359.7 359.8 359.3 359.5 359.7 360.4 361.7 362.5 365 367.8 370 373.3 377.8 382.7 387.4 390 390.8 391.7 392.7 395.2
107.8 108.4 112.1 124.9 128.2 131.1 132.7 133.2 134.1 135.6 138 141.3 147.9 154.5 160.5 165.2 171.8 176.2 181.4 188.8 200.1 220.5 236.4 255.3 278.5 299 323.5 330.7 324.3 302.9 272.5 258.4 250.4 247.7 247.7 249.2 251.9 258 275 290.1 300.3 314.7 321.9 329.2 338.7 338.3 335.4 332.2 329.5 327.5 328.9 331.2 334.9 336.6 337.9 338.8 341.9 343 344.1 346.2 347.1 347.9 347.7 347.6 346.5 345.5 344.5 345.5 346.7 346.8 346.5 345.2 344.2 344.8 345.3 346 347.4 349.6 350.9 350.6 347 345 342.7 338.4 332.4 328.3 326.8 326.5 328.1 328.7 331 335.1 339.1 343.7 348.4 354.3 360.4 365.4 370.9 375.9 377.5 380 379.6 377.7 376.5 375.2 373.7 371.9 369.3 367.2 366.7 366.8 368 369.2 369.4 371 372 375.6 388.5 402.9 405.8 404.8 401.9 409.7 412.9 412.5 415.1 415.8 416.8 417.1 412.2 415.8 416.2 415.5 413.7 411.5 409.5 406.5 404.5 403.6 400.7 396.9 391.8 386.6 384.4 382.6 380.1 378.2 376.5 374.8 372.9 369.7 366.6 361.6 349.1 355.9 364.1 366.9 367.1 365.7 363.9 363.1 362.1 359.2 358.3 361 362.6 363.6 364.2 364.1 363.5 362.3 359.7 357.9 357.7 357.6 357.6 357.4 358.2 358.5 358.1 358.3 358.3 358.5 359 359.8 360.6 362.6 365.1 368.4 371.6 374.7 378.4 384 389 391.3 391.6 392.9 393.6 395.8
108.5 109.8 121.4 127.2 128.8 131.5 132.6 133 134 135 137 141.2 146.4 152.7 160.6 167 172.6 177.7 183.3 191.4 201.8 217.1 241.7 263.8 279.3 303.6 328.4 333.8 325.5 299.2 269 253.1 247.9 244.4 244.3 245.5 247.2 255.2 276.6 292.4 299.4 310.6 317.5 319.9 320.6 323.7 322.5 317.8 316.6 319.2 323.6 325.6 327.6 330.5 332.9 334.1 336.6 339.1 341.4 344.7 346.8 348.4 348.6 348.6 348.3 349.2 351.1 351.6 351.3 350.8 349.8 349.4 348.9 348.6 348.9 349.1 350.4 352.4 354.4 354.2 352.3 349.5 345.4 336.5 331.2 329.9 328.2 328.2 329 330.2 333.3 337.2 341.9 346.8 351.8 358.8 366.8 372.6 374.6 377.9 378.9 379.2 377.6 376.9 375.8 374.7 372.8 371.1 368.9 367.1 367.2 368.4 369.8 371 372.7 374.7 375.7 385.1 401.4 409.2 408.8 405.9 403.9 405.5 410.8 408.5 409.1 413.1 415 413.7 409.1 414 413.6 411.7 409.5 407 404.8 402.5 399.8 397.1 393.7 389.3 384.2 382.9 381.8 379.9 377.6 376 374.6 373.3 371 368.9 365.7 354.1 360.8 362.5 368.9 372.2 372 372.4 372.9 372.4 370.7 367.2 364.1 363.2 362.6 362.3 362.3 361.8 360.7 359.2 356.7 356.7 356.5 356.1 356.1 356.3 357 356.8 356.7 357.3 357.9 358.3 358.9 359.6 361.1 363.2 367.6 371.8 373.8 376.2 379.6 384.7 390.3 392.9 393.2 394.7 397.5 396.9
107 118 120.6 127.4 128.2 128.7 131.6 132.2 132.9 133.9 135.8 138.2 144.4 152.4 159.4 166.3 172.3 177.7 183.3 190.2 200.8 214.1 236.6 259.7 278.2 300.7 323.3 333.5 320.4 290.9 262.3 249.5 245 241.1 242.8 242.2 243.9 251.9 276.7 294.5 300.8 307.5 312 312.3 309.5 304.7 302.8 302.5 305.5 313.3 317.2 320.3 323.2 324.2 326.1 328.5 331.7 334.8 338.8 342.2 343.5 345.3 346.6 348.6 351 353.6 355.6 355.1 354.4 353.3 352.6 352.7 352.4 352 350.9 350.8 351.6 354 356 357.7 355.1 350.4 344.6 336.3 331.2 329.3 328.7 330 330 331.5 335.2 339.9 344.7 350.1 356 366.3 373.9 378.4 379.7 379 378.7 377.2 375.9 375.3 374.7 373.6 371.5 369.5 367.9 367.3 368.1 370.1 372.2 374.3 378 379.5 381.3 398.2 408.1 410.8 408 406.2 405 406.8 408.4 407.1 407.6 408.7 408 407.1 407.6 410.2 409.6 407.7 404.7 401.9 399.6 396.8 393.7 388.9 385.8 381.4 379.4 378.9 377.6 376.2 374.9 373.3 371.1 369.9 369.4 368.8 368 355.2 369 372.3 375.8 380.9 380.4 379 377.2 375.8 373.5 369.8 366.4 363.4 361.5 360.9 360.1 359.3 358 356.8 355.7 355.3 355.4 354.8 354.1 354.9 355.4 355.6 356.4 357 358 358.5 359.4 360.5 362.4 365.3 369.7 373.1 375.5 380.9 384.3 388.6 391 392.9 395.1 398.9 399.2 396.3
117.4 123.7 124.8 126.3 126.5 124.9 129.4 130.7 131.5 132.5 133.7 136.7 142.4 149.5 156.8 162 166.4 173 180.3 190.5 201.7 221.7 242.4 263.1 280.5 304.6 328.5 330.1 317.9 290.6 261.2 246.4 240.9 238.1 239.5 239.8 240 246.5 270.9 292.9 298.3 301.4 301 304.8 301.7 292.4 291.8 292.3 295.1 301.5 307.7 312.7 314.7 316.7 319.7 322.3 327.1 332 336.3 340.8 343.9 345.9 348.6 351.2 353 354.6 355.3 355.4 355 354.4 354.1 354.6 355.5 352.6 351.2 351.2 351.8 352.3 354 354.7 352 347.5 342.6 336.7 331.7 330.3 330.8 330.9 330.9 334.3 340.8 346.5 350.2 354.7 364.9 374.2 377.9 378.6 379.7 378.4 376 374.6 373.3 372.9 372.7 371.3 369.4 369.2 368.7 368.7 369.6 371.9 374.5 381.6 383.8 384.7 391.1 407.2 409.8 409.2 408.1 407.6 406.4 406.6 407.6 406 404.3 403.6 402.6 401.8 401.1 402.1 402.8 400.5 398.9 396.1 393.7 390.4 386.5 380.8 377.2 375.7 375.5 374.8 373.7 372.7 371.8 370.4 369.1 368.3 367.4 367.3 363.5 371.7 374.6 378.9 382.5 383.4 381.4 379.2 377.1 374.4 371.9 368.4 363.7 360.8 359.5 359.1 358.4 357.5 355.7 354.5 354.9 354.9 355.1 354.8 355.4 356.7 355.5 355.9 356.8 357.7 358.2 358.7 359.6 361.4 362.9 365.6 369.9 373.2 378.7 382.4 385.3 389.5 391.6 397.4 399.2 399 396.9 393
