ncols 200
nrows 99
xllcorner 270000
yllcorner 883700
cellsize 50
2.1 11.8 19.2 21.1 20.5 19.5 19.7 19.6 19.2 18.6 18.5 17.9 17.1 15.3 10.6 9.8 8 2.2 2 2.1 2.5 5.6 7 8 9 10.1 10.7 11.3 11.7 11.7 12 11 10.1 9.5 9.3 9.1 9.3 9.7 9.3 8.3 7.5 6.8 6.5 6.6 6.6 7.1 8.4 12 9.2 6.6 6 5.7 5.8 5.8 5.4 4.8 4.3 3.9 3.6 3.3 2.9 2.6 2.6 2.5 1.7 0.6 -1.5 -1.5 -1.5 1.1 5.1 5.9 6.2 6.3 6.1 6 5.8 5.7 5 4.3 4.7 4.2 4.7 4.9 4.8 4.6 3.6 3.2 4.2 5.2 7.2 7.7 5.6 5.8 12.2 15.6 15.2 15.6 16.5 16.1 15.4 5.9 7.3 7.1 11.9 15.2 16.8 18.3 20.5 23.4 24.3 22.5 21.5 23.4 22.9 23.5 22.6 18.4 15.3 15.1 14.7 14.5 16.3 14.6 13.4 12.6 12.4 13 16.7 17.5 16.5 18.9 20.5 18.6 15.2 9.6 5.9 4.4 3.3 2.3 3.2 3.9 3.9 3.9 3.9 4 4.3 4.6 4.9 5 5 5 5.1 5.3 5.3 5.4 5.5 5.4 5.7 5.8 5.4 5.4 5.4 5.3 5.5 5.2 5.2 5.1 4.6 4.4 4.4 4.4 4.3 4.4 4.5 4.5 4.4 4.4 4.3 4.1 4 4.4 4.7 4.4 4.2 4.4 4.6 3.5 3.4 3.4 3.4 3 3.5 3.6 3.6 3.6 3.7 3.4 3.3 3.6
-1.5 -1.5 2.5 6.1 7.5 12.8 19.6 19.6 19.2 19.1 19.1 18.2 17.8 10.2 8.7 5.5 1.9 1.4 1.2 1.3 1.6 2 4.2 6 7.4 7.5 8.2 9.3 11.1 11 10.6 10.1 9 8.5 8.3 8.1 8 7.9 7.8 7.5 7 6.6 6.6 6.7 6.7 7.4 10.2 16.3 16.9 12.6 7.4 5.9 5.8 5.6 5 4.4 3.9 3.6 3.3 3 2.6 2.8 2.1 1.9 1.1 0.3 -0.3 -0.9 -1.5 -1.5 2.3 4.9 6 6.1 6.1 5.9 5.7 5.4 4.5 4.7 3.1 2.9 3.7 3.8 3.7 3.8 3.3 2.9 4.3 4.4 4.6 3.9 5.1 7.1 13.9 15.4 15.3 16.5 15.9 15.4 14.1 5.6 7 6.8 7.1 12.9 15.5 18.2 21.5 23.1 21.1 21.4 23.5 23.6 23.5 21.8 18.3 14.7 13.7 13.7 14.2 14.7 21.9 17.5 14.1 12.6 12.3 12.4 13.2 13.6 15.8 17.5 15.7 10.9 7.4 5 4.1 3.4 3.3 2.6 3.3 3.8 3.9 3.9 4 4 4.2 4.6 5 5.3 5.5 5.5 5.6 5.3 5 5 5.1 5 4.9 4.9 4.9 4.9 4.9 5 4.9 4.9 4.9 4.8 4.3 4.2 4.4 4.4 4.4 4.3 4.3 4.3 4.3 4.3 4.2 3.7 3.8 4 4.3 4.6 4.5 4.4 3.9 3.6 3.6 3.8 3.8 3.3 3.4 3.5 3.7 3.7 3.7 3.4 3.3 2.7
-1.5 -1.5 -1.5 -1.5 1.6 3 6.1 7.2 9.3 13.1 11.9 8 5.4 6.5 5.7 1.9 0.9 0.6 0.4 0.6 0.9 1.4 2.1 4.8 6.5 7.3 7.1 7.9 10.6 12.3 13.2 11.3 9 8.3 8.1 7.9 7.7 7.6 7.3 7.1 6.8 6.6 6.6 6.6 6.6 7.1 10.9 17.9 18.9 18.6 16.9 12 6.5 5.2 4.6 4.1 3.6 3.3 2.9 2.7 2.7 2.5 2.2 1.8 1.2 0.6 0 -0.6 -1.2 -1.5 -1.5 3.5 5.8 5.9 6.1 5.8 5.5 5.3 4.5 3.6 1.7 2.1 3.5 3.9 3.9 3.8 3.5 4.5 3.9 2.6 3.5 5.4 7.2 10.1 15.4 15.5 16.1 16.6 15 14.4 13.2 9.2 6.1 6.8 6.6 6.7 6.9 10.6 18.1 19.8 18.1 21.1 23.7 23.1 22.4 19.3 15.3 13.7 13.3 15 13.8 16.1 20.6 17.4 14.6 13.3 13.3 12.5 14.3 16 16.7 12.8 8.8 5.8 4.6 4.4 3.9 3.4 2.4 2.5 3.3 3.8 3.9 4 4 4 4.2 4.5 4.9 5.2 5.6 5.7 5.6 5.4 4.8 4.2 3.5 4.3 4.1 4.6 4.5 4.5 4.5 4.5 4.7 4.6 4.6 4.5 4.1 4.2 4.3 4.4 4.4 4.3 4.3 4.2 4.3 4.5 4.3 3.7 3.9 4.1 4.3 4.4 4.3 4 3.6 3.4 3.4 3.5 3.7 3.5 3.4 3.5 3.6 3.8 3.7 3.4 3.1 3
-1.5 -1.5 -1.5 -1.5 -1.5 -1.5 -1.5 1.2 -1.5 -1.5 -1.5 -1.5 -1.5 -1.5 -1.5 0.5 -0.2 -0.3 -0.4 -0.1 0.3 0.9 1.7 4.4 5.9 7 7.4 8.6 11.8 16.5 18 16.7 10.5 8.3 7.9 7.6 7.4 7.2 7 6.8 6.7 6.7 6.7 6.7 6.7 6.8 9.5 16.9 19.3 19.1 18.2 17.5 15.5 7.2 5 4.2 3.5 2.9 2.7 2.7 2.2 2.1 1.9 1.6 1.4 0.9 0.3 -0.3 -0.9 -1.5 -1.5 2.9 5.5 6 6.1 5.9 5.2 4.1 3.1 2.1 1.9 3 4.2 4.4 4.4 4.4 5.1 5.9 6.1 6.2 7.3 8 9.1 11.5 16.3 16.4 15.8 16.2 14.3 13.6 11.8 6.8 5.7 6.5 6.4 6.4 6.2 6 10.6 15.5 17.1 21.5 23.6 22.4 20.6 18.3 18.2 13.6 13.2 13.1 13.8 17.9 19.1 18.3 14.8 13.9 13.7 13.2 16.6 15.2 10.5 7 4.6 4.1 4 3.8 3.6 3.4 3.5 2.5 3.3 3.8 3.9 4 4 4 4.1 4.6 4.7 5 5.4 5.2 5.1 5.1 4.6 3.9 3.2 2.9 3.6 4.3 4.2 4.1 4.1 4.2 4.4 4.3 4.3 4.2 4 4.2 4 4.5 4.4 4.4 4.1 4.1 4.2 4.4 4.5 4.2 4.3 4.2 3.9 3.6 3.6 3.6 3.6 3.3 3.2 3.3 3.5 3.6 3.4 3.4 3.5 3.6 3.6 3.2 3 3
-1.5 -1.5 -1.5 -1.5 -1.5 -1.5 -1.5 -1.5 -1.5 -1.5 -1.5 -1.5 -1.5 -1.5 -1.5 -1.5 -1.5 -1.5 -1.5 -0.7 -0.2 0.5 1.3 2.1 5.7 7.3 8.4 12.5 16.2 19.1 18.2 17.6 16.2 10.2 8.4 7.7 7.1 6.9 6.7 6.9 6.8 6.8 6.8 6.7 6.7 7 9.6 16.9 19.4 18.9 14.2 12.6 17.9 16.2 7.3 4.7 3.5 2.3 2 2.9 2.1 1.8 1.6 1.4 1.1 0.8 0.5 -0.1 -0.7 -1.3 -1.5 -1.5 5 6.1 6 5.2 4.3 3.5 1.9 1.6 2.8 3.9 7.6 8.3 6.9 5.9 6.5 8.5 9.4 10.9 13.8 10.7 11.5 11.8 15.5 14.8 14 12.9 11 9.2 6 5.8 5.7 6.2 6.1 6 5.8 7.7 13.9 15.2 18.1 22.5 23.2 22.1 18.1 18 21.3 16.2 13.5 12.9 15.8 19.4 19 19.2 17.4 17.1 15 16.5 11.3 9.7 5.2 4.2 4 4 4 3.8 3.5 3.3 2.4 2.5 3.3 3.7 3.9 4 4.1 4 4.1 4.8 4.6 4.9 4.6 4.2 4 4.1 4.2 3.6 3 2.5 3.2 3.9 4.1 3.9 3.8 3.8 4.2 4.3 4 3.9 3.9 4.1 3.9 4.1 4.3 3.9 3.8 4 4.1 4.2 4.3 4.3 4.2 4.2 3.9 3.7 3.2 3.2 3.2 3.1 3 3.2 3 3.1 3.4 3.3 3.3 3.2 3.2 3.2 3.2 3.2
-1.5 -1.5 -1.5 -1.5 -1.5 -1.5 -1.5 -1.5 -1.5 -1.5 -1.5 -1.5 -1.5 -1.5 -1.5 -1.5 -1.5 -1.5 -1.5 -1.5 -0.7 0.1 0.9 1.8 5.6 7.5 10.9 18 18.7 18.3 18.1 17.7 16.9 13 8.8 7.8 6.9 6.7 7 7 6.9 6.8 6.8 6.8 6.8 7.4 10.7 16.2 18.8 18.4 14 15 17.9 18.2 15.5 6.3 3.8 2.6 3.1 2.1 1.8 1.5 1.3 1.1 0.9 0.6 0.3 0 -0.5 -1.1 -1.5 -1.5 5.1 6.1 5.7 4.5 3.8 2.6 1.5 2.5 3.5 5.1 12.6 13.8 11.1 8.4 9.4 13.9 15.5 14.5 13.9 12.6 14.2 13.3 13.8 8.4 5.8 5.5 5.5 5.1 5.3 5.6 5.6 5.9 5.8 5.8 6.2 11.1 14.5 15.6 19.4 22.7 22.8 20.8 17.8 18.2 21.3 16.6 13.7 13.3 17.9 19.8 19.4 21.3 20.6 17.7 16.1 11.7 7.7 4.7 4.1 3.9 3.8 3.9 4 3.7 3.5 3.3 2.7 2.4 3.3 3.7 3.8 4 4.1 4.1 4.1 4.9 4.4 3.5 3.4 3.3 4 4.1 3.9 3.8 3.6 2.6 3.2 3.4 4 3.7 3.5 3.7 4 4.1 4.1 3.6 3.8 4.1 3.7 4.1 4.1 3.5 3.5 3.4 3.6 3.7 3.9 4 4 4 3.8 3.7 3.3 3 2.9 2.8 2.9 2.7 2.4 2.4 3.3 3.3 3.5 3.4 3.3 3.4 3.3 3.3
-1.5 -1.5 -1.5 -1.5 -1.5 -1.5 -1.5 -1.5 -1.5 -1.5 -1.5 -1.5 -1.5 -1.5 -1.5 -1.5 -1.5 -1.5 -1.5 -1.5 -1.5 -0.4 0.6 1.6 3.6 7.1 12.9 19.9 14.9 12.8 14.1 14.2 14.1 13.9 10.1 7.9 6.9 7.1 7.1 7 6.9 6.9 6.9 6.9 6.9 7.2 10.8 16.1 18.4 19 11.9 17.6 17.7 17.3 17.9 14.3 5.9 3 2.3 1.8 1.4 1.2 1 0.8 0.6 0.4 0.1 -0.2 -0.5 -0.9 -1.5 -1.5 5.2 5 4.4 3.8 3.1 1.4 2.3 3 4.5 7.9 13.8 17.4 17.3 13.9 12.9 14.4 14.3 13.8 13.9 14.2 16 16.1 13.7 6.3 4.9 4.9 4.9 5 5.1 5.4 9.1 10.5 10.7 16.5 18.3 18 14.6 16 21.1 22.6 22.4 20 18.1 19.2 20.1 16.9 14.5 14.2 19.3 19.7 19.5 20.3 21.2 18 11.2 6.8 4.5 4.4 4.1 3.8 3.6 3.8 3.9 3.7 3.5 3.3 2.8 2.4 3.3 3.7 3.8 3.8 3.8 3.7 3.8 2.3 2.3 2.3 2.3 2.3 2.3 2.4 2.8 3 4.2 4.1 2.8 4.4 3.5 3.2 2.1 2.8 3 3 3 2.1 2.8 2.7 2.8 2.5 2.6 2.3 2.7 2.6 2.9 2.9 2.6 2.8 3.1 2.9 3.4 3.3 3 3 3.4 3.2 2.6 2.2 1.8 1.8 3.2 3.4 3.7 3.7 3.9 4.4 3.5 3.4
-1.5 -1.5 -1.5 -1.5 -1.5 -1.5 -1.5 -1.5 -1.5 -1.5 -1.5 -1.5 -1.5 -1.5 -1.5 -1.5 -1.5 -1.5 -1.5 -1.5 -1.5 -0.7 0.4 1.5 4 6.6 15 17.2 11.5 10.5 10.8 10.2 10.9 13.9 12.7 8.4 6.9 7 7 7 6.9 6.9 6.9 6.9 6.9 7.1 8.6 11.3 15.1 11.3 9.9 17.2 17.6 15.7 15.2 14.1 8.3 3.3 2.3 1.5 1.1 0.8 0.7 0.5 0.3 0.1 -0.1 -0.4 -0.7 -1 -1.5 -1.5 4.3 3.8 3.3 3.1 1.5 2.9 3.8 5.2 6.9 9.8 15.1 19.8 21.2 16.7 15.2 14.8 14.3 14.3 14.8 16.5 18.7 17.5 9.7 5.8 4.7 4.5 4.6 4.9 5.1 6.1 14.8 12.8 10.1 10.3 14.8 16.9 15.2 18.6 22.1 22.4 21.8 20.8 18.3 20.4 18.6 15.5 15.8 16 19.9 20 19.2 19.8 17.3 9.2 5.5 4.4 4.2 4.4 4.1 3.8 3.5 3.6 3.8 3.7 3.6 3.5 2.7 2.8 2.9 1.9 2.3 2.3 2.3 2.2 2.2 2.2 2.2 2.2 2.2 2.2 2.2 2.2 2.2 2.2 2.2 2.2 2.3 2.3 2.3 2.2 2.2 2.2 2.2 2.1 2.1 2.1 2.1 2.1 2.1 2.1 2.1 2.1 2.1 2.2 2.2 2.2 2.3 2.3 2.3 2.3 2.8 2.4 2.3 2.7 3.9 4.3 2.9 2.8 2.9 2.1 2.6 2.8 3.4 4.1 4.6 5 3.8 3.6
-1.5 -1.5 -1.5 -1.5 -1.5 -1.5 -1.5 -1.5 -1.5 -1.5 -1.5 -1.5 -1.5 -1.5 -1.5 -1.5 -1.5 -1.5 -1.5 -1.5 -1.5 -1.5 -0.1 1.4 4.1 9.6 20 17.8 12.2 15 16.4 17.7 16.4 16.7 17 9 6.8 6.8 6.9 6.9 6.9 6.9 6.9 6.9 6.9 7 7.9 11.1 12.7 9.2 9.1 11.7 11.9 8.9 8.6 9.4 7.7 2.9 2.2 1.4 0.8 0.4 0.3 0.2 0 -0.2 -0.4 -0.6 -0.9 -1.2 -1.5 1.9 1.6 3.5 3.4 1.5 2.8 5.7 9 8.4 8.1 11.4 16.7 21.1 18.9 18 16.6 15.9 14.8 15.5 17.5 19.3 20.5 12.6 5.8 5.7 4.7 4.5 4.7 5 5.2 8.3 14.1 14.1 11.4 9.7 16 17.7 16.8 20.4 21.6 21.7 21.6 20.3 18.8 20.6 19 15.4 16.9 20.3 20.3 21.2 20.4 10.4 7.8 4.8 4.5 4.1 3.9 4.2 4.2 3.9 3.5 3.5 3.7 3.5 3.1 2.6 2.4 2.3 2.3 2.2 2.2 2.2 2.1 2.1 2.1 2.1 2 2 2 2 2 2 2 2.1 2.1 2.1 2.1 2.1 2.1 2.1 2.1 2 2 2 2 2 2 2 2 2 2 2 2 2 2.1 2.1 2.1 2.1 2.1 2.1 2.2 1.8 1.9 2 2.3 2.6 2.5 2.8 2 1.2 2.3 2.9 3.3 4 4.8 5.2 3.9 3.7
-1.5 -1.5 -1.5 -1.5 -1.5 -1.5 -1.5 -1.5 -1.5 -1.5 -1.5 -1.5 -1.5 -1.5 -1.5 -1.5 -1.5 -1.5 -1.5 -1.5 -1.5 -1.5 0.2 1.8 9.8 17.7 19.8 18.5 12.1 8.8 10.3 12.4 14.3 15.2 16.7 7.5 6.8 6.7 6.7 6.8 6.9 6.9 6.9 6.9 6.9 6.9 10.7 14.7 10.9 7.3 6.7 7.4 7 6.7 7.2 8.4 9.2 3.5 2.1 1.3 0.6 0.1 -0.1 -0.2 -0.4 -0.5 -0.7 -0.9 -1.1 -1.5 -1.5 1.8 1.2 3.2 3.4 1.2 6.5 11.3 13 11.9 11.6 14.3 19.4 18.9 16.1 15.8 15.7 15.8 17.5 17.8 19.8 21.4 16.4 6.8 5.9 6.5 4.8 4.5 4.8 5.1 4.9 5.7 12.5 17.9 17.3 15 17.1 17.1 17.9 20.6 21.1 21.1 21.1 19.8 19.5 20.8 21 17.9 16.5 19.7 17.9 10.8 8.9 6.9 4.9 4.6 4.3 3.9 4 4 4.1 3.5 3.4 3.3 3.1 2.6 2.6 2.3 2.2 2.2 2.1 2.1 2 2 2 2 1.9 1.9 1.9 1.9 1.9 1.9 1.9 1.9 1.9 1.9 1.9 1.9 2 2 2 1.9 1.9 1.9 1.9 1.8 1.8 1.8 1.8 1.8 1.8 1.8 1.8 1.8 1.8 1.9 1.9 1.9 1.9 1.9 2 2 2 1.6 1.3 1 1.1 1.4 2.1 2.5 1.7 1.6 2.8 3.2 3.5 3.8 4.4 4.6 3.7 3.6
-1.5 -1.5 -1.5 -1.5 -1.5 -1.5 -1.5 -1.5 -1.5 -1.5 -1.5 -1.5 -1.5 -1.5 -1.5 -1.5 -1.5 -1.5 -1.5 -1.5 -1.5 -1.5 0.3 4 15.9 12.4 12.8 13.4 10 7.4 8.1 9.9 14.3 14 8.8 7.3 6.8 6.7 6.9 7 7 6.9 6.8 6.9 6.9 7 8.4 8.6 7.4 6.9 6.5 6.9 7.1 7.2 7.3 9.6 9.3 5.9 2 1.2 0.5 -0.2 -0.6 -0.6 -0.7 -0.9 -1 -1.2 -1.5 -1.5 0.6 2.2 1.2 1.2 1.2 6.3 11.6 15.6 15.2 14.2 16.3 18.8 21.2 18.7 16.1 16 18 18.7 19.5 20.1 21.5 19 8.7 5.6 5.1 7.9 4.9 4.2 4.6 5 3.6 3.6 6.2 9 12.7 17.9 17.9 17.8 19.4 20.6 21.1 20.9 20.6 19.7 20.6 20.9 19.1 14.6 12.2 10.1 8.4 7.4 6.5 6 4.7 4.5 4.3 4.4 4.9 4.5 3.7 3.1 2.5 2.3 2.3 2.2 2.2 2.1 2.1 2 2 1.9 1.9 1.9 1.9 1.8 1.8 1.8 1.8 1.8 1.7 1.7 1.7 1.7 1.7 1.8 1.8 1.8 1.8 1.8 1.8 1.8 1.8 1.7 1.7 1.7 1.7 1.7 1.7 1.6 1.7 1.6 1.6 1.6 1.7 1.7 1.7 1.7 1.7 1.8 1.8 1.8 1.8 1.5 1.1 0.7 0.3 0.2 0.5 1.4 2.3 1.5 2.8 3 3.3 3.4 3.6 4.1 3.6 3.4
-1.5 -1.5 -1.5 -1.5 -1.5 -1.5 -1.5 -1.5 -1.5 -1.5 -1.5 -1.5 -1.5 -1.5 -1.5 -1.5 -1.5 -1.5 -1.5 -1.5 -1.5 -1.5 0.7 10.7 16.6 10.9 9 8.6 7.2 7.1 7.7 8.4 11.8 8.2 7.8 7.5 7.6 9 7.1 7.1 7 6.9 6.8 6.9 6.9 7 7 7.1 7.2 7.8 7.3 7.3 7.7 8.3 9.4 10.4 9.2 7.2 2.1 1.2 0.4 -0.4 -1 -1.1 -1.1 -1.2 -1.5 -1.5 -1.5 0 1.4 2.6 2.5 6.9 9.9 15 19.1 18.4 16.6 18.3 19.4 21.2 21.1 18.5 16.9 18.4 19.8 20.1 20.3 21.3 17.6 9.2 6 5.7 5.4 8.7 5.1 4 4.3 4.5 4 3.7 5 6.3 6.5 7.4 9.8 12.6 14 17.5 21.3 22.3 22.2 21.7 22.1 19.2 17.9 9.8 7.8 7.7 6.5 5.9 5.4 5.4 4.6 4.6 4.4 4.7 4.6 3.9 2.6 2.3 2.2 2.2 2.2 2.1 2.1 2 2 1.9 1.9 1.8 1.8 1.7 1.7 1.7 1.7 1.6 1.6 1.6 1.6 1.6 1.6 1.6 1.6 1.6 1.6 1.7 1.7 1.7 1.7 1.6 1.6 1.6 1.5 1.5 1.5 1.5 1.5 1.5 1.5 1.5 1.5 1.5 1.5 1.5 1.6 1.6 1.6 1.6 1.6 1.6 1.6 1.3 0.9 0.5 0.1 -0.2 -0.6 -0.4 -1.5 -1.5 2.3 2.8 3.2 3 3.2 3.5 3.5 3.3
0.2 -0.2 -0.3 -1.5 -1.5 -1.5 -1.5 -1.5 -1.5 -1.5 -1.5 -1.5 -1.5 -1.5 -1.5 -1.5 -1.5 -1.5 -1.5 -1.5 -1.5 -1.5 1.5 11.1 14.4 11.5 9.1 8.8 10.2 11.6 13.5 12.5 9.7 7.4 7.6 7.4 8.7 10.3 7.2 7 6.9 6.9 6.8 6.9 7 7 7.1 7.5 9.8 13.7 14.2 11.3 9.7 11.1 11.7 11.3 9.7 6.8 1.9 1.1 0.3 -0.6 -1.5 -1.5 -1.5 -1.5 -1.5 -0.7 -0.1 1 2.1 3.3 6.3 10.7 17.2 20.6 20.7 20.4 20.2 20.3 20.9 20.8 20.3 18.7 19.5 19.4 19.6 20.1 19.9 13.7 6.9 6 5.9 5.9 5.9 9.6 4.6 3.8 4.2 4.4 4.4 4.8 5.2 5.6 6.1 6.5 6.6 6.5 6.9 7.5 8.2 10.3 15.5 15.3 13.1 9.3 8.7 8.2 7.2 7.5 6.2 5.4 4.7 4.6 4.4 4.5 4.5 3.7 2.3 2.2 2.2 2.2 2.1 2.1 2 2 1.9 1.9 1.8 1.8 1.7 1.7 1.6 1.6 1.6 1.6 1.5 1.5 1.5 1.5 1.5 1.5 1.4 1.4 1.5 1.5 1.5 1.5 1.5 1.5 1.5 1.5 1.4 1.4 1.4 1.4 1.3 1.3 1.3 1.3 1.3 1.3 1.3 1.3 1.3 1.4 1.4 1.4 1.4 1.4 1.4 1.5 1.5 1.1 0.7 0.3 0 -0.4 -0.8 -1.2 -1.5 -1.5 0.8 1.8 2.6 2.7 2.8 3.1 3.3 3.1
1.9 1.8 1.1 -0.2 -1.5 -1.5 -1.5 -1.5 -1.5 -1.5 -1.5 -1.5 -1.5 -1.5 -1.5 -1.5 -1.5 -1.5 -1.5 -1.5 -1.5 -1.5 3.6 11.6 14.7 13.9 12.3 12.9 14.9 17.3 16 13.7 8.8 7.3 7.4 8.5 10 8.9 7.7 7.4 6.9 6.8 6.7 6.8 6.9 7 7.3 9.9 18 21.7 22 20.3 17.5 16 14.2 13 9.4 3.7 1.6 0.8 0 -0.8 -1.5 -0.8 -0.3 -0.1 0.2 0.4 0.8 1.9 2.3 2.8 7 12.4 16.7 19.2 19.6 19.4 19.1 19.5 19.7 20.6 19.4 18.9 18 15.7 13.6 10.5 6.7 6.4 6.1 5.6 5.7 5.9 5 9.3 4.3 3.7 4.5 4.8 4.8 5.1 5.3 5.4 5.9 6.3 6.7 6.6 6.7 6.8 6.8 7.5 9 9.5 8.9 8.1 7.2 6.1 6.2 6.1 5.9 5.1 4.3 3.7 3 2.3 2.2 2.2 2.2 2.1 2.1 2.1 2 1.9 1.9 1.8 1.8 1.7 1.7 1.6 1.6 1.6 1.5 1.5 1.4 1.4 1.4 1.4 1.3 1.3 1.3 1.3 1.3 1.3 1.3 1.3 1.3 1.4 1.4 1.4 1.4 1.3 1.3 1.3 1.2 1.2 1.2 1.2 1.2 1.2 1.2 1.2 1.2 1.2 1.2 1.2 1.2 1.2 1.2 1.3 1.3 1.3 1.3 0.9 0.5 0.2 -0.2 -0.6 -1 -1.4 -1.5 -1.2 -0.6 0.1 1.1 2 2.8 2.6 3.1 2.9
5.3 2.6 1 -0.1 -1 -1.5 -1.5 -1.5 -1.5 -1.5 -1.5 -1.5 -1.5 -1.5 -1.5 -1.5 -1.5 -1.5 -1.5 -1.5 -1.5 -1.5 5.1 13.3 15.1 14.8 14.4 14.6 15.7 17.4 13.4 9.5 7.6 7.3 7 8.2 14.1 16.4 12.8 12.1 9.6 7.8 6.9 6.9 7 7.3 8.2 15.2 21.8 23.3 22.6 21.4 20.3 18.6 16.6 13.3 7 1.9 0.6 0.1 -0.5 -1.5 -1.5 0.7 1.3 1.1 1.3 1.5 1.8 2.3 2.3 1.8 3.6 9.5 13.9 16.7 17.7 17.7 17.8 17.2 16.7 18.5 12.9 11.6 10.3 7.9 5.9 5.4 5.5 5.6 5.4 5.3 5.5 5.8 4.9 8.7 4.4 4 4.8 5.1 5.2 5.5 5.7 5.7 6 6.2 6.5 6.7 6.7 7.3 8 8.7 9.3 8.7 7 5.5 5.8 5.4 5.6 5.3 4.7 4 2.8 2.2 2.2 2.2 2.1 2.1 2 2 2 1.9 1.9 1.8 1.8 1.7 1.7 1.6 1.6 1.5 1.5 1.4 1.4 1.3 1.3 1.3 1.3 1.2 1.2 1.2 1.2 1.2 1.2 1.2 1.2 1.2 1.2 1.2 1.2 1.2 1.2 1.2 1.1 1.1 1.1 1.1 1 1 1 1 1 1 1 1 1 1 1.1 1.1 1.1 1.1 1.1 1.1 1.1 0.7 0.4 0 -0.4 -0.8 -1.2 -1.5 -1.5 -1.1 -0.6 -0.1 0.4 1 1.7 2.3 2.8 2.7
5 2.1 1.3 0.4 -0.5 -1.5 -1.5 -1.5 -1.5 -1.5 -1.5 -1.5 -1.5 -1.5 -1.5 -1.5 -1.5 -1.5 -1.5 -1.5 -1.5 -1.5 7.9 15.3 16 16.3 16.7 18.2 18.4 12.7 8.3 7 6.8 6.8 6.8 6.9 7.7 17.7 17.9 17.4 15.6 13.5 11.3 8.8 8.1 9.9 14.6 20.3 23.2 22.6 21.9 21.1 21 19.5 16.2 12 4.6 1.1 -0.4 -1 -1.5 -1.5 0.3 2 4.5 3.2 3.6 4.3 2.3 2.3 2.1 1.8 1.8 5.6 9.6 13.8 14.7 15 13.9 12.1 10.2 7.8 6.1 5 5.2 5.4 5.1 5 5.2 5.3 5.1 5.1 5.8 6.3 5.5 8.6 4.2 4 5.1 6 6.1 5.7 5.9 5.9 6.4 6.6 6.8 7.6 8.1 8.4 8.8 9 9 6.6 5.6 5.9 5.4 5 5.3 4.5 2.3 2.2 2.2 2.1 2.1 2 2 2 1.9 1.9 1.8 1.8 1.8 1.7 1.6 1.6 1.5 1.5 1.4 1.4 1.3 1.3 1.2 1.2 1.2 1.1 1.1 1.1 1.1 1 1 1 1 1 1 1.1 1 1.1 1.1 1.1 1.1 1 1 1 0.9 0.9 0.9 0.9 0.9 0.8 0.8 0.8 0.8 0.8 0.8 0.9 0.9 0.9 0.9 0.9 0.9 0.9 0.9 0.6 0.2 -0.2 -0.6 -1 -1.4 -1.5 -1.5 -1.1 -0.6 -0.1 0.5 1 1.5 2 2.2 2.4
8 2.1 1.3 0.5 -0.3 -1.5 -1.5 -1.5 -1.5 -1.5 -1.5 -1.5 -1.5 -1.5 -1.5 -1.5 -1.5 -1.5 -1.5 -1.5 -1.5 -1.5 8.3 11.7 15.2 16.5 15.4 13.6 10.3 7.3 7 7 6.8 6.7 6.6 6.9 7.5 8.2 18.2 18.8 19 18.4 17.2 16.2 16.8 18.6 20.5 22.5 22.2 21.6 21.8 22.1 21.8 18.5 14 6.5 1.8 -1.5 -1.5 -1.5 -1.5 -1.5 0.8 3.2 6.6 6 5.9 6 5.1 4.4 3.3 4.3 4.4 4.3 5.7 7.8 8 8 7 5.7 5.5 5.1 4.8 4.4 4.9 5.1 4.8 4.7 4.9 5 4.9 5 5.2 5.2 4.3 4.5 4.3 4.6 5.1 5.1 5.2 5.5 6 6.4 6.9 7.8 8.3 8.5 8.6 8.7 8.9 9.1 7.4 5.5 5.1 5.2 5.2 5 2.5 2.2 2.2 2.1 2.1 2 2 1.9 1.9 1.8 1.8 1.8 1.7 1.7 1.7 1.6 1.5 1.5 1.4 1.4 1.3 1.3 1.2 1.2 1.1 1.1 1 1 1 1 0.9 0.9 0.9 0.9 0.9 0.9 0.9 0.9 0.9 0.9 0.9 0.9 0.9 0.9 0.8 0.8 0.8 0.7 0.7 0.7 0.7 0.7 0.7 0.7 0.7 0.7 0.7 0.7 0.7 0.7 0.7 0.7 0.8 0.8 0.8 0.4 0 -0.4 -0.8 -1.2 -1.5 -1.5 -1.5 -1.1 -0.6 -0.1 0.5 1 1.5 2 2 2.2
13.4 2.2 1.4 0.6 -0.1 -0.8 -1.5 -1.5 -1.5 -1.5 -1.5 -1.5 -1.5 -1.5 -1.5 -1.5 -1.5 -1.5 -1.5 -1.5 -1.5 -1.5 8.8 8.4 8.7 8.5 7.9 7 6.5 5.7 5.3 6.6 7 7.1 7.2 6.4 7 7.6 8.6 16.8 19.5 19.5 19.4 19.3 19.8 20.6 21.6 22.1 21.7 22.2 22.5 22.3 20.5 16.4 7 2 0 -1.5 -1.5 -1.5 -1.5 -0.8 0.5 1.8 4.1 6.3 6 6.1 5.5 4.8 3.7 4.7 4.7 4.4 4.4 4.8 4.6 4.6 4.8 4.6 4.4 4 4.2 1.4 1.3 1.3 1.3 4.4 4.6 4.7 4.6 4.5 4.5 4.3 3.1 6.7 5.1 4.9 4.9 5.5 6.2 6.3 6.9 7.7 8.4 8.3 8.5 8.7 8.9 9.2 9.2 8.4 5.8 5.2 4.8 4.8 4.7 2.3 2.2 2.1 2.1 2 1.9 1.9 1.9 1.8 1.8 1.7 1.7 1.6 1.6 1.6 1.5 1.5 1.4 1.3 1.3 1.2 1.2 1.1 1.1 1 1 0.9 0.9 0.9 0.9 0.8 0.8 0.8 0.8 0.7 0.7 0.7 0.7 0.8 0.8 0.8 0.8 0.8 0.8 0.7 0.7 0.6 0.6 0.6 0.6 0.5 0.5 0.5 0.5 0.5 0.5 0.5 0.5 0.6 0.6 0.6 0.6 0.6 0.6 0.6 0.6 0.2 -0.2 -0.6 -1 -1.3 -1.5 -1.5 -1.5 -1.1 -0.6 0 0.5 1 1.5 1.7 1.8 2
19.1 2.5 1.6 0.9 0.2 -0.5 -1.5 -1.5 -1.5 -1.5 -1.5 -1.5 -1.5 -1.5 -1.5 -1.5 -1.5 -1.5 -1.5 -1.5 -1.5 -1.5 4.1 5.5 4.8 3.9 3.5 3 3.6 3.7 3.7 4.8 5.4 5.7 5.9 5.6 6 6.6 6.8 8.1 13 20 20.2 20.7 21 21.4 22.1 22 22.2 22.7 22.5 21.7 14.6 6.1 2 -1.5 -1.5 -1.5 -1.5 -1.5 -1.5 -1.4 0 0.9 1.4 1.9 2.2 3.8 4.5 4.4 3.9 1.3 1.3 1.9 1.3 1.3 3.1 3.1 4.2 3.9 3.6 3.1 3.5 1.3 1.3 1.3 1.3 1.3 2.1 3.4 4.3 3.2 4.1 4.4 6.1 6.5 5.1 5.5 5.9 6.6 7.4 7.8 8.4 8.6 8.8 8.7 8.7 8.9 9.2 9.3 8.2 6.1 5.1 4.9 4.6 4.4 2.2 2.1 2.1 2 2 1.9 1.8 1.8 1.7 1.7 1.6 1.6 1.6 1.5 1.5 1.5 1.4 1.4 1.3 1.2 1.1 1.1 1 1 1 0.9 0.9 0.8 0.8 0.7 0.7 0.7 0.7 0.6 0.6 0.6 0.6 0.6 0.6 0.6 0.6 0.6 0.6 0.6 0.6 0.6 0.5 0.5 0.5 0.4 0.4 0.4 0.4 0.4 0.4 0.4 0.3 0.3 0.4 0.4 0.4 0.4 0.4 0.4 0.4 0.4 0.4 0 -0.4 -0.8 -1.1 -1.5 -1.5 -1.5 -1.5 -1.1 -0.6 0 0.5 1 1.4 1.5 1.6 1.9
19.5 2.4 1.6 0.9 0.2 -0.4 -1.1 -1.5 -1.5 -1.5 -1.5 -1.5 -1.5 -1.5 -1.5 -1.5 -1.5 -1.5 -1.5 -1.5 -1.5 -1.5 -1.5 -1.5 0.6 1 1.1 1.2 1.5 1.7 2 2.9 3.9 4.5 4.6 4.9 5 5.2 5.2 5.3 6.2 7.7 13.2 19.1 21.9 22.6 22.8 23 23 23.3 15.9 7.6 5.1 -1.5 -1.5 -1.5 -1.5 -1.5 -1.5 -1.5 -1.5 -1.5 -0.5 -0.2 0.1 0.5 0.6 1 2.3 1.3 1.3 1.3 1.3 1.3 1.3 1.3 1.3 1.3 1.3 3.2 2.3 2.2 3.6 2.2 1.3 1.3 1.3 1.3 1.4 2.2 3.9 3.8 4.3 5.9 6.9 7.3 7.2 7.5 7.6 8.1 8.5 8.3 8.1 8.9 9 8.6 8.9 9.3 9.7 7.2 5.9 5.4 5.8 5.6 3.8 2.2 2.1 2 2 1.9 1.8 1.8 1.7 1.7 1.6 1.6 1.5 1.5 1.4 1.4 1.4 1.3 1.3 1.3 1.2 1.1 1 1 0.9 0.9 0.8 0.8 0.7 0.7 0.6 0.6 0.6 0.6 0.5 0.5 0.5 0.5 0.5 0.5 0.5 0.5 0.5 0.5 0.5 0.5 0.5 0.4 0.4 0.3 0.3 0.3 0.2 0.2 0.2 0.2 0.2 0.2 0.2 0.2 0.2 0.2 0.2 0.2 0.2 0.2 0.3 0.2 0.2 -0.2 -0.6 -0.9 -1.3 -1.5 -1.5 -1.5 -1.5 -1.1 -0.5 0 0.5 1 1.2 1.3 1.4 1.8
20.1 2.2 1.6 0.9 0.1 -0.6 -1.4 -1.5 -1.5 -1.5 -1.5 -1.5 -1.5 -1.5 -1.5 -1.5 -1.5 -1.5 -1.5 -1.5 -1.5 -1.5 -1.5 -1.5 -1.5 -1.5 -0.3 0.1 0.4 0.8 0.7 0.7 1.9 3.3 3.3 3.7 3.8 3.3 3.3 3.6 3.8 3.9 4.8 6.2 7.5 8.6 9.6 9.6 7.6 6 3.2 -1.5 -1.5 -1.5 -1.5 -1.5 -1.5 -1.5 -1.5 -1.5 -1.5 -1.5 -1.5 -1.5 -1.5 -0.9 -1.5 -1.5 0.8 1.3 1.3 1.3 1.3 1.3 1.3 1.3 1.3 1.3 1.3 1.3 1.3 1.3 1.3 1.3 1.3 1.3 1.7 1.3 1.3 3.9 3.6 5.2 6.9 7.4 7.6 7.8 7.8 8.3 8 7.5 7.8 8.4 8.6 8.8 8.2 8.3 9.1 9.9 8.7 5.6 5.4 5.6 6.7 3.4 2.2 2.1 2 1.9 1.9 1.8 1.7 1.7 1.6 1.5 1.5 1.5 1.4 1.4 1.3 1.3 1.2 1.2 1.2 1.1 1.1 1 0.9 0.8 0.8 0.7 0.7 0.6 0.6 0.5 0.5 0.5 0.4 0.4 0.4 0.4 0.3 0.3 0.3 0.3 0.3 0.3 0.3 0.3 0.3 0.3 0.3 0.3 0.2 0.2 0.2 0.1 0.1 0.1 0 0 0 0 0 0 0 0.1 0.1 0.1 0.1 0.1 0.1 0.1 0 -0.4 -0.7 -1.1 -1.5 -1.5 -1.5 -1.5 -1.5 -1.1 -0.5 0 0.5 0.9 1 1.1 1.3 1.7
19.4 2.2 1.4 0.6 -0.2 -0.9 -1.5 -1.5 -1.5 -1.5 -1.5 -1.5 -1.5 -1.5 -1.5 -1.5 -1.5 -1.5 -1.5 -1.5 -1.5 -1.5 -1.5 -1.5 -1.5 -1.5 -1.5 -1.5 -0.5 -0.3 -0.8 -1.5 -1.5 -1.5 0.8 1.2 1.4 1.2 1.3 1.7 2.1 2 2 2 2 2 1.7 -1.5 -1.5 -1.5 -1.5 -1.1 0.1 -1.5 -1.5 -1.5 -1.5 -1.5 -1.5 -1.5 -1.4 -1 -0.8 -0.9 -1.2 -1.5 -1.5 -1.5 -1.5 1.3 1.3 1.3 1.3 1.3 1.3 1.3 1.3 1.3 1.3 1.3 1.3 1.3 1.3 1.3 1.4 6.9 6.5 7.1 4.9 2.4 7.1 7.1 7.8 8.6 9.2 8.4 8.2 7.8 7.8 7.9 8.1 8.4 8.3 8.1 8.4 8.3 8.9 9.5 6.2 5.8 5.8 5.9 3 2.2 2.1 2 1.9 1.8 1.7 1.7 1.6 1.6 1.5 1.4 1.4 1.3 1.3 1.3 1.2 1.2 1.1 1.1 1.1 1 1 0.9 0.8 0.7 0.7 0.6 0.6 0.5 0.5 0.4 0.4 0.3 0.3 0.3 0.3 0.2 0.2 0.2 0.2 0.2 0.2 0.2 0.2 0.2 0.2 0.2 0.1 0.1 0.1 0 0 0 -0.1 -0.1 -0.1 -0.1 -0.1 -0.1 -0.1 -0.1 -0.1 -0.1 -0.1 -0.1 -0.1 -0.1 -0.1 -0.1 -0.2 -0.5 -0.9 -1.3 -1.5 -1.5 -1.5 -1.5 -1.5 -1 -0.5 0 0.5 0.7 0.8 0.8 1.2 1.5
16.2 2.2 1.1 0.3 -0.5 -1.2 -1.5 -1.5 -1.5 -1.5 -1.5 -1.5 -1.5 -1.5 -1.5 -1.5 -1.5 -1.5 -1.5 -1.5 -1.5 -1.5 -1.5 -1.5 -1.5 -1.5 -1.5 -1.5 -1.5 -1.5 -1.5 -1.5 -1.5 -1.5 -1.5 -1.5 -1.5 -0.4 0.5 1.4 1.6 1.5 1.3 0.9 0.7 0.2 -1.5 -1.5 -1.5 -1.5 -0.1 1.1 2.3 -1.5 -1.5 -1.5 -1.5 -1.5 -1.5 -1.5 0.5 0.6 0.9 0.8 0.5 0.4 -1.5 -1.5 -1.5 1.3 1.3 1.3 4.7 5 6.5 5.6 1.3 1.3 1.3 1.3 1.3 1.7 6.2 6.9 7.4 7.3 7.4 7.9 7.9 7.9 8 8.1 7.9 8.5 9.2 8.7 8.4 8.5 8.4 8.3 8.5 8.5 8 8.5 8.6 8.4 8.9 7.1 5.6 5.7 5.9 2.3 2.2 2.1 2 1.9 1.8 1.7 1.6 1.6 1.5 1.4 1.4 1.3 1.3 1.2 1.2 1.1 1.1 1 1 1 0.9 0.9 0.9 0.8 0.7 0.6 0.5 0.5 0.4 0.4 0.3 0.3 0.2 0.2 0.2 0.1 0.1 0.1 0.1 0 0 0 0 0 0 0 0 0 0 0 0 -0.1 -0.2 -0.2 -0.2 -0.2 -0.3 -0.3 -0.3 -0.3 -0.3 -0.3 -0.3 -0.3 -0.3 -0.3 -0.3 -0.3 -0.3 -0.3 -0.3 -0.7 -1.1 -1.5 -1.5 -1.5 -1.5 -1.5 -1.5 -1 -0.5 0 0.4 0.5 0.6 0.7 1 1.4
13.4 2.2 1 0 -0.8 -1.5 -1.5 -1.5 -1.5 -1.5 -1.5 -1.5 -1.5 -1.5 -1.5 -1.5 -1.5 -1.5 -1.5 -1.5 -1.5 -1.5 -1.5 -1.5 -1.5 -1.5 -1.5 -1.5 -1.5 -1.5 -1.5 -1.5 -1.5 -1.5 -1.5 -1.5 -1.5 -0.6 0.3 1.2 1.2 1 0.8 0.5 -0.1 -1.5 -1.5 -1.5 -1.5 -0.5 0.5 1.6 2.3 1.5 -1.5 -1.5 -1.5 -1.5 -1.5 0.7 2.6 2.2 3.8 2.7 2.3 3.3 4.7 4.7 5 5.4 5 5.6 5.6 6.1 7.1 7.7 7.7 7.8 8.2 7.7 7.6 7.4 7.7 7.6 8 8.2 8.2 7.5 8.1 8.1 7.9 7.5 7.8 8.1 8.8 8.2 8.4 8.7 9.2 8.7 8.3 7.5 8.2 8.3 8.5 8.5 9.5 6.4 6.3 5.9 2.3 2.2 2.1 2 1.9 1.8 1.7 1.6 1.5 1.5 1.4 1.3 1.3 1.2 1.1 1.1 1.1 1 1 0.9 0.9 0.9 0.8 0.8 0.7 0.7 0.6 0.5 0.4 0.4 0.3 0.2 0.2 0.2 0.1 0.1 0 0 0 0 -0.1 -0.1 -0.1 -0.1 -0.1 -0.1 -0.1 -0.1 -0.1 -0.1 -0.2 -0.2 -0.2 -0.2 -0.3 -0.3 -0.4 -0.4 -0.4 -0.4 -0.5 -0.5 -0.5 -0.5 -0.5 -0.4 -0.5 -0.5 -0.5 -0.4 -0.4 -0.4 -0.5 -0.9 -1.3 -1.5 -1.5 -1.5 -1.5 -1.5 -1.5 -1 -0.5 0 0.2 0.3 0.3 0.5 0.9 1.3
9.9 2.6 1 -0.2 -1.5 -1.5 -1.5 -1.5 -1.5 -1.5 -1.5 -1.5 -1.5 -1.5 -1.5 -1.5 -1.5 -1.5 -1.5 -1.5 -1.5 -1.5 -1.5 -1.5 -1.5 -1.5 -1.5 -1.5 -1.5 -1.5 -1.5 -1.5 -1.5 -1.5 -1.5 -1.5 -1.5 -0.9 0 0.7 0.7 0.5 0.3 0 -0.5 -1.5 -1.5 -1.5 -1.5 -0.4 0.6 1.6 2.3 2.3 1.4 0.9 0.4 0.2 0.6 1.5 3.7 5.8 6.8 5.7 5.8 5.8 5.8 5.6 6.4 5.9 5.9 6.5 7.3 7.2 7.7 8.3 8.4 8.3 7.9 7.9 7.7 8.2 8.2 8.1 8.4 8.3 8.3 8.4 8.6 8.7 8.4 8.2 8.6 8.5 7.9 7.9 8.5 9.1 8.8 8.2 7.1 7.5 8 8.1 8.2 9.5 8.2 6.4 5.8 2.2 2.1 2 2 1.9 1.8 1.7 1.6 1.5 1.4 1.4 1.3 1.2 1.2 1.1 1 1 0.9 0.9 0.9 0.8 0.8 0.7 0.7 0.7 0.6 0.6 0.5 0.4 0.3 0.3 0.2 0.1 0.1 0 0 -0.1 -0.1 -0.1 -0.2 -0.2 -0.2 -0.2 -0.2 -0.3 -0.2 -0.3 -0.3 -0.3 -0.3 -0.3 -0.3 -0.3 -0.4 -0.4 -0.4 -0.5 -0.5 -0.6 -0.6 -0.6 -0.6 -0.6 -0.6 -0.6 -0.6 -0.6 -0.6 -0.6 -0.6 -0.6 -0.6 -0.6 -0.7 -1.1 -1.5 -1.5 -1.5 -1.5 -1.5 -1.5 -1.5 -1 -0.5 -0.1 0 0.1 0.1 0.4 0.8 1.1
11.7 3.6 1.1 -0.2 -1.5 -1.5 -1.5 -1.3 -0.6 -0.4 -1.5 -1.5 -1.5 -1.5 -1.5 -1.5 -1.5 -1.5 -1.5 -1.5 -1.5 -1.5 -1.5 -1.5 -1.5 -1.5 -1.5 -1.5 -1.5 -1.5 -1.5 -1.5 -1.5 -1.5 -1.5 -1.5 -1.5 -1.2 -0.3 0.3 0.2 0 -0.3 -0.5 -0.8 -1.5 -1.5 -1.5 -0.8 -0.1 0.6 1.5 4.2 2.3 2.3 2.3 2.3 1.8 1.9 4.5 5.5 6.3 6.9 6.6 7.1 6.9 7.4 7.9 8.2 9 9.5 9.4 8 7.2 7.6 8 9.2 8.8 8.6 8.5 8.4 8.4 8.7 8.7 8.7 8.6 8.5 8.9 6.1 7.5 8.3 7.8 8.8 8.6 8.3 7.7 8.6 8.6 8.8 8.4 8 7.9 8 7.6 9.1 9.1 7.4 5.2 2.2 2.1 2 1.9 1.8 1.8 1.7 1.6 1.5 1.4 1.3 1.3 1.2 1.1 1 1 0.9 0.9 0.8 0.8 0.7 0.7 0.7 0.6 0.6 0.5 0.5 0.5 0.4 0.3 0.2 0.1 0.1 0 -0.1 -0.1 -0.2 -0.2 -0.2 -0.3 -0.3 -0.3 -0.3 -0.4 -0.4 -0.4 -0.4 -0.4 -0.4 -0.4 -0.4 -0.4 -0.5 -0.5 -0.5 -0.5 -0.6 -0.7 -0.7 -0.7 -0.7 -0.8 -0.8 -0.8 -0.8 -0.8 -0.8 -0.8 -0.8 -0.8 -0.8 -0.8 -0.8 -0.8 -0.9 -1.3 -1.5 -1.5 -1.5 -1.5 -1.5 -1.5 -1.5 -1 -0.5 -0.3 -0.2 -0.2 -0.1 0.3 0.6 1
12.4 4.1 1.3 0 -1.5 -1.5 -1.5 -0.7 0.2 0.6 0.2 -1.5 -1.5 -1.5 -1.5 -1.5 -1.5 -1.5 -1.5 -1.5 -1.5 -1.5 -1.5 -1.5 -1.5 -1.5 -1.5 -1.5 -1.5 -1.5 -1.5 -1.5 -1.5 -1.5 -1.5 -1.5 -1.5 -1.4 -0.5 -0.1 -0.3 -0.5 -0.8 -1 -1.3 -1.5 -1.5 -1.2 -0.5 0.1 0.8 1.4 2.2 3.8 2.5 2.3 2.3 2.3 4.4 5.4 6.1 6.7 6.7 7 7.9 8.3 8.7 8 8.8 6.9 7.3 7.5 9.1 6.8 5.7 7.3 9.2 9.6 9.8 8.6 9 8.3 9.1 8 7.6 7.2 7 5.9 5.9 6.1 6 8.5 9.3 9.2 8.7 7.5 8.6 8.5 8.9 7.9 6.8 7.1 7.8 8.9 9.1 8.5 6.6 2.2 2.1 2 1.9 1.8 1.7 1.6 1.5 1.5 1.4 1.3 1.2 1.1 1.1 1 0.9 0.9 0.8 0.7 0.7 0.7 0.6 0.6 0.5 0.5 0.5 0.4 0.4 0.3 0.3 0.2 0.1 0 0 -0.1 -0.2 -0.2 -0.3 -0.3 -0.4 -0.4 -0.4 -0.5 -0.5 -0.5 -0.5 -0.5 -0.5 -0.5 -0.6 -0.6 -0.6 -0.6 -0.6 -0.6 -0.7 -0.7 -0.7 -0.8 -0.8 -0.9 -0.9 -0.9 -0.9 -0.9 -1 -1 -1 -1 -1 -1 -1 -0.9 -1 -1 -1.1 -1.4 -1.5 -1.5 -1.5 -1.5 -1.5 -1.5 -1.5 -1 -0.6 -0.5 -0.4 -0.4 -0.2 0.1 0.5 0.9
12.8 4.5 1.2 -0.1 -1.5 -1.5 -1.5 -0.2 0.9 1.6 2.8 1.2 -1.5 -1.5 -1.5 -1.5 -1.5 -1.5 -1.5 -1.5 -1.5 -1.5 -1.5 -1.5 -1.5 -1.5 -1.5 -1.5 -1.5 -1.5 -1.5 -1.5 -1.5 -1.5 -1.5 -1.5 -1.5 -1.5 -0.8 -0.6 -0.8 -1.1 -1.3 -1.5 -1.5 -1.5 -1.5 -1 -0.3 0.3 1 1.5 2.1 5.5 4.3 3.6 3.9 6 6.9 6.5 6.4 6.8 7.6 9 6.5 6.9 5.4 5.7 5.6 5.1 5.1 9.5 10.1 6.1 6.3 5.6 9.3 8.5 10 10.3 9.1 6.5 6.4 6.2 5.9 5.7 6.4 6.1 6.5 7.5 8.4 8.9 8.7 8.2 8.6 7.6 8.2 7.8 7.3 7.6 7.5 9.2 10.4 9.5 8.1 6.2 2.2 2.1 2 1.9 1.8 1.7 1.6 1.5 1.4 1.4 1.3 1.2 1.1 1 1 0.9 0.8 0.8 0.7 0.6 0.6 0.5 0.5 0.5 0.4 0.4 0.3 0.3 0.3 0.2 0.2 0.1 0 -0.1 -0.1 -0.2 -0.3 -0.4 -0.4 -0.5 -0.5 -0.5 -0.6 -0.6 -0.6 -0.6 -0.7 -0.7 -0.7 -0.7 -0.7 -0.7 -0.7 -0.7 -0.8 -0.8 -0.8 -0.8 -0.9 -0.9 -1 -1 -1.1 -1.1 -1.1 -1.1 -1.1 -1.1 -1.1 -1.1 -1.1 -1.1 -1.1 -1.1 -1.1 -1.1 -1.3 -1.5 -1.5 -1.5 -1.5 -1.5 -1.5 -1.5 -1.5 -0.9 -0.8 -0.7 -0.7 -0.6 -0.4 0 0.4 0.7
17.4 5.4 1.3 -0.2 -1.5 -1.5 -0.6 0.9 1.8 4.3 7.5 4.6 -1.5 -1.5 -1.5 -1.5 -1.5 -1.5 -1.5 -1.5 -1.5 -1.5 -1.5 -1.5 -1.5 -1.5 -1.5 -1.5 -1.5 -1.5 -1.5 -1.5 -1.5 -1.5 -1.5 -1.5 -1.5 -1.5 -1 -1.1 -1.3 -1.5 -1.5 -1.5 -1.5 -1.5 -1.5 -0.9 -0.4 0.1 0.7 1.3 1.9 5.6 4.9 5.2 6.8 7.6 6.9 6.9 7.3 7.8 8.8 6.4 5.1 3.5 2.9 2.4 3 5.4 6.6 6.5 6.6 6.4 5.8 5.2 5.4 6 5.4 6.7 5.7 6.1 6.4 6.2 6.4 6.2 6.3 8 8 6.9 6.7 7 7.4 7.5 7.8 7.7 7.6 7.7 8 8.6 8 8.9 10.1 9.1 5 2.2 2.1 1.9 1.8 1.8 1.7 1.6 1.5 1.4 1.3 1.2 1.2 1.1 1 0.9 0.8 0.8 0.7 0.6 0.6 0.5 0.5 0.4 0.4 0.3 0.3 0.3 0.2 0.2 0.1 0.1 0.1 0 -0.1 -0.2 -0.2 -0.3 -0.4 -0.5 -0.5 -0.6 -0.6 -0.7 -0.7 -0.7 -0.8 -0.8 -0.8 -0.8 -0.8 -0.8 -0.9 -0.9 -0.9 -0.9 -0.9 -0.9 -1 -1 -1 -1.1 -1.1 -1.2 -1.2 -1.2 -1.3 -1.3 -1.3 -1.3 -1.3 -1.3 -1.3 -1.3 -1.3 -1.3 -1.3 -1.3 -1.4 -1.5 -1.5 -1.5 -1.5 -1.5 -1.5 -1.5 -1.5 -1.1 -1 -0.9 -0.9 -0.8 -0.5 -0.1 0.2 0.6
18.1 6.8 1.5 0.2 -1.3 -1.5 -0.3 1.3 5.1 6.1 6.9 7.5 3.9 -1.5 -1.5 -1.5 -1.5 -1.5 -1.5 -1.5 -1.5 -1.5 -1.5 -1.5 -1.5 -1.5 -1.5 -1.5 -1.5 -1.5 -1.5 -1.5 -1.5 -1.5 -1.5 -1.5 -1.5 -1.5 -1.5 -1.5 -1.5 -1.5 -1.5 -1.5 -1.5 -1.5 -1.5 -1.5 -0.7 -0.1 0.5 1.1 1.7 5 6.7 8 7.4 7.4 7.2 7.2 7.7 7.8 4 2.2 2 1.9 1.9 1.9 1.9 2 2.1 2.2 4.1 5.6 8.4 8.7 6.7 6.5 6.1 5.8 5.6 6 6.5 6.4 7.2 7.4 7.7 7.8 7.3 7 6.6 9 8.6 8.1 8.1 7.3 7.3 7 8.4 9.3 9.4 9.5 9.1 5.9 2.2 2.1 1.9 1.8 1.7 1.6 1.5 1.5 1.4 1.3 1.2 1.1 1 1 0.9 0.8 0.7 0.7 0.6 0.5 0.5 0.4 0.4 0.3 0.3 0.2 0.2 0.1 0.1 0.1 0 0 -0.1 -0.1 -0.2 -0.3 -0.4 -0.4 -0.5 -0.6 -0.7 -0.7 -0.8 -0.8 -0.8 -0.9 -0.9 -0.9 -0.9 -1 -1 -1 -1 -1 -1 -1 -1.1 -1.1 -1.1 -1.1 -1.2 -1.2 -1.3 -1.3 -1.4 -1.5 -1.5 -1.5 -1.5 -1.5 -1.5 -1.5 -1.5 -1.5 -1.5 -1.5 -1.5 -1.5 -1.5 -1.5 -1.5 -1.5 -1.5 -1.5 -1.5 -1.5 -1.5 -1.3 -1.2 -1.2 -1.1 -1 -0.6 -0.3 0 0.1
17.9 8.9 1.7 0.2 -1.5 -1.5 -0.5 0.9 2.9 6.4 6.7 7.1 7.6 3.5 -1.5 -1.5 -1.5 -1.5 -1.5 -1.5 -1.5 -1.5 -1.5 -1.5 -1.5 -1.5 -1.5 -1.5 -1.5 -1.5 -1.5 -1.5 -1.5 -1.5 -1.5 -1.5 -1.5 -1.5 -1.5 -1.5 -1.5 -1.5 -1.5 -1.5 -1.5 -1.5 -1.5 -1.5 -1 -0.5 0 0.4 0.4 1.6 9.1 10.6 8.3 7.9 8.5 8.4 4.2 2.1 1.9 1.7 1.6 1.5 1.5 1.5 1.5 1.7 1.8 1.9 1.8 1.9 6.9 9.5 9 7.4 4.4 3.2 2.3 2.3 2.3 3 4.7 8 9.1 9 8.3 7.8 7.3 7.4 8.7 9.5 7.7 8.2 8.4 9.6 9.7 10.3 9.7 9.2 6.7 2.2 2.1 1.9 1.8 1.7 1.6 1.5 1.4 1.3 1.3 1.2 1.1 1 0.9 0.9 0.8 0.7 0.6 0.6 0.5 0.4 0.4 0.3 0.2 0.2 0.1 0.1 0.1 0 0 -0.1 -0.1 -0.1 -0.2 -0.2 -0.3 -0.4 -0.5 -0.5 -0.6 -0.7 -0.8 -0.9 -0.9 -1 -1 -1 -1 -1.1 -1.1 -1.1 -1.1 -1.1 -1.1 -1.2 -1.2 -1.2 -1.2 -1.2 -1.3 -1.3 -1.3 -1.4 -1.5 -1.5 -1.5 -1.5 -1.5 -1.5 -1.5 -1.5 -1.5 -1.5 -1.5 -1.5 -1.5 -1.5 -1.5 -1.5 -1.5 -1.5 -1.5 -1.5 -1.5 -1.5 -1.5 -1.5 -1.5 -1.5 -1.5 -1.5 -1.3 -1.1 -0.9 -0.7 -0.6 -0.3
17.8 12.6 2.1 0.1 -1.5 -0.9 0.2 1.2 2.8 5.3 5.6 6.7 7.3 7.1 2.1 -1.5 -1.5 -1.5 -1.5 -1.5 -1.5 -1.5 -1.5 -1.5 -1.5 -1.5 -1.5 -1.5 -1.5 -1.5 -1.5 -1.5 -1.5 -1.5 -1.5 -1.5 -1.5 -1.5 -1.5 -1.5 -1.5 -1.5 -1.5 -1.5 -1.5 -1.5 -1.5 -1.5 -1.5 -1.1 -1 -0.9 -1.5 0.4 4 11 8.7 8 7 1.9 1.5 1.5 1.4 1.3 1.1 1.1 1.1 1.1 1.2 1.3 1.5 1.6 1.4 1 0.9 2.5 6.1 4.3 2.8 2.3 2.3 2.3 1.8 1.7 1.9 2.2 6.5 7.7 8.4 7.8 7.1 7.5 7.3 7.3 6.9 8.9 9.2 8.8 9.3 9.7 8.7 7.2 2.2 2.1 1.9 1.8 1.6 1.5 1.4 1.3 1.3 1.2 1.1 1.1 1 0.9 0.8 0.7 0.7 0.6 0.5 0.4 0.4 0.3 0.2 0.2 0.1 0.1 0 0 -0.1 -0.1 -0.1 -0.2 -0.2 -0.3 -0.3 -0.3 -0.4 -0.5 -0.6 -0.6 -0.7 -0.8 -0.9 -1 -1 -1.1 -1.1 -1.1 -1.2 -1.2 -1.2 -1.2 -1.3 -1.3 -1.3 -1.3 -1.3 -1.3 -1.4 -1.4 -1.4 -1.4 -1.5 -1.5 -1.5 -1.5 -1.5 -1.5 -1.5 -1.5 -1.5 -1.5 -1.5 -1.5 -1.5 -1.5 -1.5 -1.5 -1.5 -1.5 -1.5 -1.5 -1.5 -1.5 -1.5 -1.5 -1.5 -1.5 -1.5 -1.5 -1.5 -1.5 -1.5 -1.5 -1.5 -1.5 -1.5 -1
17.7 15.7 4.1 0.4 -1.5 -0.6 0.6 1.8 4.1 5.9 6.1 5.7 6.7 7.2 4.9 -1.5 -1.5 -1.5 -1.5 -1.5 -1.5 -1.5 -1.5 -1.5 -1.5 -1.5 -1.5 -1.5 -1.5 -1.5 -1.5 -1.5 -1.5 -1.5 -1.5 -1.5 -1.5 -1.5 -1.5 -1.5 -1.5 -1.5 -1.5 -1.5 -1.5 -1.5 -1.5 -1.5 -1.5 -1.5 -1.5 -1.5 -1.5 -1.5 0.9 6.3 8.1 4.6 1.4 0.6 0.8 0.9 0.9 0.8 0.7 0.7 0.7 0.7 0.8 1 1.1 1.3 1 0.4 -0.1 -0.2 1.9 3 2.3 2.3 2.3 1.6 0.9 1 1.3 1.6 2 4 9.5 9.4 8.5 7.9 7.8 7.3 9.2 9.7 7.9 6.9 6.4 5.9 7.6 2.7 2.1 1.9 1.8 1.6 1.5 1.4 1.3 1.2 1.1 1.1 1 0.9 0.9 0.8 0.7 0.6 0.5 0.5 0.4 0.3 0.3 0.2 0.1 0.1 0 0 -0.1 -0.1 -0.2 -0.2 -0.3 -0.3 -0.3 -0.4 -0.4 -0.5 -0.5 -0.6 -0.7 -0.8 -0.8 -0.9 -1 -1.1 -1.1 -1.2 -1.3 -1.3 -1.3 -1.3 -1.4 -1.4 -1.4 -1.4 -1.4 -1.5 -1.5 -1.5 -1.5 -1.5 -1.5 -1.5 -1.5 -1.5 -1.5 -1.5 -1.5 -1.5 -1.5 -1.5 -1.5 -1.5 -1.5 -1.5 -1.5 -1.5 -1.5 -1.5 -1.5 -1.5 -1.5 -1.5 -1.5 -1.5 -1.5 -1.5 -1.5 -1.5 -1.5 -1.5 -1.5 -1.5 -1.5 -1.5 -1.5 -1.5 -1.5 -1.5
17.2 14.5 3.8 -1.5 -1.5 -1 0.2 1.8 5.5 6.2 6.4 5.8 6.6 7.4 8 1.8 -1.5 -1.5 -1.5 -1.5 -1.5 -1.5 -1.5 -1.5 -1.5 -1.5 -1.5 -1.5 -1.5 -1.5 -1.5 -1.5 -1.5 -1.5 -1.5 -1.5 -1.5 -1.5 -1.5 -1.5 -1.5 -1.5 -1.5 -1.5 -1.5 -1.5 -1.5 -1.5 -1.5 -1.5 -1.5 -1.5 -1.5 -1.5 -1.5 -1.5 2 3 -0.2 -0.6 0.1 0.3 0.3 0.4 0.3 0.2 0.3 0.4 0.5 0.7 0.8 1 0.5 0 -0.5 -1.5 -1.5 0.9 1.5 2 1.3 0.7 0.2 0.4 0.7 1.1 1.5 1.8 2.2 8.5 9.5 9.1 9.6 10.4 9.7 10 4.9 4.7 5 6.9 4 2.3 2 1.8 1.6 1.5 1.3 1.2 1.1 1 1 0.9 0.9 0.8 0.7 0.6 0.6 0.5 0.4 0.3 0.3 0.2 0.1 0.1 0 -0.1 -0.1 -0.2 -0.2 -0.3 -0.3 -0.3 -0.4 -0.4 -0.5 -0.5 -0.5 -0.6 -0.6 -0.7 -0.8 -0.9 -0.9 -1 -1.1 -1.2 -1.3 -1.3 -1.4 -1.4 -1.4 -1.5 -1.5 -1.5 -1.5 -1.5 -1.5 -1.5 -1.5 -1.5 -1.5 -1.5 -1.5 -1.5 -1.5 -1.5 -1.5 -1.5 -1.5 -1.5 -1.5 -1.5 -1.5 -1.5 -1.5 -1.5 -1.5 -1.5 -1.5 -1.5 -1.5 -1.5 -1.5 -1.5 -1.5 -1.5 -1.5 -1.5 -1.5 -1.5 -1.5 -1.5 -1.5 -1.5 -1.5 -1.5 -1.5 -1.5 -1.5 -1.5
17.5 15.7 5.4 -1.5 -1.5 -1.5 -1.5 1.8 6.1 6.4 6.6 6.2 6.3 6.6 7.9 5.1 -1.5 -1.5 -1.5 -1.5 -1.5 -1.5 -1.5 -1.5 -1.5 -1.5 -1.5 -1.5 -1.5 -1.5 -1.5 -1.5 -1.5 -1.5 -1.5 -1.5 -1.5 -1.5 -1.5 -1.5 -1.5 -1.5 -1.5 -1.5 -1.5 -1.5 -1.5 -1.5 -1.5 -1.5 -1.5 -1.5 -1.5 -1.5 -1.5 -1.5 -1.2 -1.5 -1.5 -1.3 -0.5 -0.3 -0.2 -0.1 -0.2 -0.2 -0.1 0 0.2 0.3 0.5 0.6 0.1 -0.4 -0.9 -1.5 -1.5 -1.5 -0.8 0 0.1 -0.3 -0.4 -0.1 0.2 0.6 1 1.4 1.8 2.2 8.3 9.2 9.6 8.3 6.4 10.6 3.9 3.3 6.5 5.7 2.3 2.2 1.9 1.6 1.5 1.3 1.2 1.1 1 0.9 0.8 0.8 0.7 0.7 0.6 0.5 0.4 0.4 0.3 0.2 0.2 0.1 0 0 -0.1 -0.2 -0.2 -0.3 -0.3 -0.4 -0.4 -0.5 -0.5 -0.5 -0.6 -0.6 -0.7 -0.7 -0.7 -0.8 -0.9 -1 -1 -1.1 -1.2 -1.3 -1.4 -1.4 -1.5 -1.5 -1.5 -1.5 -1.5 -1.5 -1.5 -1.5 -1.5 -1.5 -1.5 -1.5 -1.5 -1.5 -1.5 -1.5 -1.5 -1.5 -1.5 -1.5 -1.5 -1.5 -1.5 -1.5 -1.5 -1.5 -1.5 -1.5 -1.5 -1.5 -1.5 -1.5 -1.5 -1.5 -1.5 -1.5 -1.5 -1.5 -1.5 -1.5 -1.5 -1.5 -1.5 -1.5 -1.5 -1.5 -1.5 -1.5 -1.5 -1.5 -1.5 -1.5
17.8 17.7 8 -1.5 -1.5 -1.5 0.1 2.1 6.3 6.4 6.3 5.9 5.5 6.2 7.6 7.7 1.3 -1.5 -1.5 -1.5 -1.5 -1.5 -1.5 -1.5 -1.5 -1.5 -1.5 -1.5 -1.5 -1.5 -1.5 -1.5 -1.5 -1.5 -1.5 -1.5 -1.5 -1.5 -1.5 -1.5 -1.5 -1.5 -1.5 -1.5 -1.5 -1.5 -1.5 -1.5 -1.5 -1.5 -1.5 -1.5 -1.5 -1.5 -1.5 -1.5 -1.5 -1.5 -1.5 -1.5 -1.5 -0.9 -0.7 -0.5 -0.6 -0.6 -0.4 -0.3 -0.1 0 0.2 0.2 -0.3 -0.9 -1.4 -1.5 -1.5 -1.5 -1.5 -1.5 -1.5 -1.5 -1 -0.7 -0.3 0.1 0.6 1 1.4 1.8 2.2 8.8 7.1 5.7 4.1 11 3.5 6.6 5.9 4.9 2.3 2.1 1.8 1.5 1.3 1.2 1 0.9 0.8 0.7 0.7 0.6 0.6 0.5 0.5 0.4 0.3 0.2 0.2 0.1 0 0 -0.1 -0.2 -0.2 -0.3 -0.3 -0.4 -0.4 -0.5 -0.5 -0.6 -0.6 -0.7 -0.7 -0.7 -0.8 -0.8 -0.9 -0.9 -1 -1.1 -1.1 -1.2 -1.3 -1.4 -1.5 -1.5 -1.5 -1.5 -1.5 -1.5 -1.5 -1.5 -1.5 -1.5 -1.5 -1.5 -1.5 -1.5 -1.5 -1.5 -1.5 -1.5 -1.5 -1.5 -1.5 -1.5 -1.5 -1.5 -1.5 -1.5 -1.5 -1.5 -1.5 -1.5 -1.5 -1.5 -1.5 -1.5 -1.5 -1.5 -1.5 -1.5 -1.5 -1.5 -1.5 -1.5 -1.5 -1.5 -1.5 -1.5 -1.5 -1.5 -1.5 -1.5 -1.5 -1.5 -1.5 -1.5
17.6 17.5 11.6 -1.5 -1.5 -1.5 0.6 5.9 6.4 6.5 6.4 5.7 5.7 6.2 7.5 8.5 5.3 -1.5 -1.5 -1.5 -1.5 -1.5 -1.5 -1.5 -1.5 -1.5 -1.5 -1.5 -1.5 -1.5 -1.5 -1.5 -1.5 -1.5 -1.5 -1.5 -1.5 -1.5 -1.5 -1.5 -1.5 -1.5 -1.5 -1.5 -1.5 -1.5 -1.5 -1.5 -1.5 -1.5 -1.5 -1.5 -1.5 -1.5 -1.5 -1.5 -1.5 -1.5 -1.5 -1.5 -1.5 -1.5 -1.2 -1 -1 -0.9 -0.8 -0.6 -0.5 -0.3 -0.2 -0.3 -0.8 -1.3 -1.5 -1.5 -1.5 -1.5 -1.5 -1.5 -1.5 -1.5 -1.5 -1.5 -0.7 -0.2 0.2 0.7 1.1 1.5 2 4.2 6.6 3 3.4 11.2 5.2 6.6 5.1 3.8 2.3 2 1.7 1.4 1.2 1 0.9 0.8 0.7 0.6 0.5 0.5 0.4 0.4 0.3 0.3 0.2 0.1 0 0 -0.1 -0.2 -0.2 -0.3 -0.3 -0.4 -0.5 -0.5 -0.6 -0.6 -0.6 -0.7 -0.7 -0.8 -0.8 -0.8 -0.9 -0.9 -1 -1 -1.1 -1.2 -1.3 -1.3 -1.4 -1.5 -1.5 -1.5 -1.5 -1.5 -1.5 -1.5 -1.5 -1.5 -1.5 -1.5 -1.5 -1.5 -1.5 -1.5 -1.5 -1.5 -1.5 -1.5 -1.5 -1.5 -1.5 -1.5 -1.5 -1.5 -1.5 -1.5 -1.5 -1.5 -1.5 -1.5 -1.5 -1.5 -1.5 -1.5 -1.5 -1.5 -1.5 -1.5 -1.5 -1.5 -1.5 -1.5 -1.5 -1.5 -1.5 -1.5 -1.5 -1.5 -1.5 -1.5 -1.5 -1.5 -1.5 -1.5
17.3 17.5 14.3 -1.5 -1.5 -1.5 0.4 5.4 6.5 6.6 6.3 5.9 5.8 6.1 7.4 8.5 7.3 -1.5 -1.5 -1.5 -1.5 -1.5 -1.5 -1.5 -1.5 -1.5 -1.5 -1.5 -1.5 -1.5 -1.5 -1.5 -1.5 -1.5 -1.5 -1.5 -1.5 -1.5 -1.5 -1.5 -1.5 -1.5 -1.5 -1.5 -1.5 -1.5 -1.5 -1.5 -1.5 -1.5 -1.5 -1.5 -1.5 -1.5 -1.5 -1.5 -1.5 -1.5 -1.5 -1.5 -1.5 -1.5 -1.5 -1.5 -1.5 -1.2 -1.1 -0.9 -0.8 -0.6 -0.5 -0.7 -1.2 -1.5 -1.5 -1.5 -1.5 -1.5 -1.5 -1.5 -1.5 -1.5 -1.5 -1.5 -1 -0.5 -0.1 0.4 0.8 1.3 1.7 2.1 5 7.5 6.6 11.6 7.2 6.7 3.5 3.3 2.2 1.9 1.6 1.3 1 0.9 0.7 0.6 0.5 0.4 0.4 0.3 0.3 0.2 0.2 0.1 0.1 0 -0.1 -0.1 -0.2 -0.3 -0.3 -0.4 -0.5 -0.5 -0.6 -0.6 -0.7 -0.7 -0.8 -0.8 -0.8 -0.9 -0.9 -1 -1 -1 -1.1 -1.1 -1.2 -1.3 -1.4 -1.4 -1.5 -1.5 -1.5 -1.5 -1.5 -1.5 -1.5 -1.5 -1.5 -1.5 -1.5 -1.5 -1.5 -1.5 -1.5 -1.5 -1.5 -1.5 -1.5 -1.5 -1.5 -1.5 -1.5 -1.5 -1.5 -1.5 -1.5 -1.5 -1.5 -1.5 -1.5 -1.5 -1.5 -1.5 -1.5 -1.5 -1.5 -1.5 -1.5 -1.5 -1.5 -1.5 -1.5 -1.5 -1.5 -1.5 -1.5 -1.5 -1.5 -1.5 -1.5 -1.5 -1.5 -1.5 -1.5 -1.5
16.4 17.1 16.2 -1.5 -1.5 -1.5 -1.5 3.2 6.5 6.4 6.2 6 5.8 6 6.9 8.2 8 -1.5 -1.5 -1.5 -1.5 -1.5 -1.5 -1.5 -1.5 -1.5 -1.5 -1.5 -1.5 -1.5 -1.5 -1.5 -1.5 -1.5 -1.5 -1.5 -1.5 -1.5 -1.5 -1.5 -1.5 -1.5 -1.5 -1.5 -1.5 -1.5 -1.5 -1.5 -1.5 -1.5 -1.5 -1.5 -1.5 -1.5 -1.5 -1.5 -1.5 -1.5 -1.5 -1.5 -1.5 -1.5 -1.5 -1.5 -1.5 -1.5 -1.4 -1.3 -1.1 -0.9 -0.8 -1.1 -1.5 -1.5 -1.5 -1.5 -1.5 -1.5 -1.5 -1.5 -1.5 -1.5 -1.5 -1.5 -1.2 -0.7 -0.2 0.2 0.7 1.1 1.5 1.9 2.9 6.3 6.5 12.1 7.4 7.3 3.7 3 2.1 1.8 1.5 1.2 0.9 0.7 0.6 0.5 0.3 0.3 0.2 0.1 0.1 0 0 0 -0.1 -0.1 -0.2 -0.3 -0.3 -0.4 -0.5 -0.5 -0.6 -0.6 -0.7 -0.7 -0.8 -0.8 -0.9 -0.9 -1 -1 -1 -1.1 -1.1 -1.2 -1.2 -1.3 -1.3 -1.4 -1.5 -1.5 -1.5 -1.5 -1.5 -1.5 -1.5 -1.5 -1.5 -1.5 -1.5 -1.5 -1.5 -1.5 -1.5 -1.5 -1.5 -1.5 -1.5 -1.5 -1.5 -1.5 -1.5 -1.5 -1.5 -1.5 -1.5 -1.5 -1.5 -1.5 -1.5 -1.5 -1.5 -1.5 -1.5 -1.5 -1.5 -1.5 -1.5 -1.5 -1.5 -1.5 -1.5 -1.5 -1.5 -1.5 -1.5 -1.5 -1.5 -1.5 -1.5 -1.5 -1.5 -1.5 -1.5 -1.5 -1.5 -1.5
14.5 16 16.8 -1.5 -1.5 2.1 -1.5 5.9 6.4 6.3 6.4 6.5 6.2 6.4 5.8 7.2 8.6 2.2 -1.5 -1.5 -1.5 -1.5 -1.5 -1.5 -1.5 -1.5 -1.5 -1.5 -1.5 -1.5 -1.5 -1.5 -1.5 -1.5 -1.5 -1.5 -1.5 -1.5 -1.5 -1.5 -1.5 -1.5 -1.5 -1.5 -1.5 -1.5 -1.5 -1.5 -1.5 -1.5 -1.5 -1.5 -1.5 -1.5 -1.5 -1.5 -1.5 -1.5 -1.5 -1.5 -1.5 -1.5 -1.5 -1.5 -1.5 -1.5 -1.5 -1.5 -1.4 -1.3 -1.1 -1.5 -1.5 -1.5 -1.5 -1.5 -1.5 -1.5 -1.5 -1.5 -1.5 -1.5 -1.5 -1.5 -1.2 -0.8 -0.3 0.1 0.5 0.9 1.3 1.7 2.2 4.3 5.7 12.6 7.1 7.2 3.8 4 2 1.7 1.4 1.1 0.9 0.6 0.4 0.3 0.2 0.1 0 0 -0.1 -0.1 -0.1 -0.2 -0.2 -0.3 -0.3 -0.4 -0.5 -0.5 -0.6 -0.7 -0.7 -0.8 -0.8 -0.9 -0.9 -1 -1 -1 -1.1 -1.1 -1.2 -1.2 -1.2 -1.3 -1.3 -1.4 -1.4 -1.5 -1.5 -1.5 -1.5 -1.5 -1.5 -1.5 -1.5 -1.5 -1.5 -1.5 -1.5 -1.5 -1.5 -1.5 -1.5 -1.5 -1.5 -1.5 -1.5 -1.5 -1.5 -1.5 -1.5 -1.5 -1.5 -1.5 -1.5 -1.5 -1.5 -1.5 -1.5 -1.5 -1.5 -1.5 -1.5 -1.5 -1.5 -1.5 -1.5 -1.5 -1.5 -1.5 -1.5 -1.5 -1.5 -1.5 -1.5 -1.5 -1.5 -1.5 -1.5 -1.5 -1.5 -1.5 -1.5 -1.5 -1.5 -1.5
14.3 14.5 16.4 6 -1.5 2.3 -1.5 5.4 6.4 6.8 6.8 6.8 6.8 6.7 6.2 6.6 8.4 5.8 -1.5 -1.5 -1.5 -1.5 -1.5 -1.5 -1.5 -1.5 -1.5 -1.5 -1.5 -1.5 -1.5 -1.5 -1.5 -1.5 -1.5 -1.5 -1.5 -1.5 -1.5 -1.5 -1.5 -1.5 -1.5 -1.5 -1.5 -1.5 -1.5 -1.5 -1.5 -1.5 -1.5 -1.5 -1.5 -1.5 -1.5 -1.5 -1.5 -1.5 -1.5 -1.5 -1.5 -1.5 -1.5 -1.5 -1.5 -1.5 -1.5 -1.5 -1.5 -1.5 -1.5 -1.5 -1.5 -1.5 -1.5 -1.5 -1.5 -1.5 -1.5 -1.5 -1.5 -1.5 -1.5 -1.5 -1.3 -0.9 -0.5 -0.1 0.3 0.7 1.1 1.5 1.7 3.6 5.5 13.2 5.9 7.5 3.8 2.1 1.8 1.5 1.3 1.1 0.8 0.5 0.2 0.1 0 -0.1 -0.1 -0.2 -0.2 -0.3 -0.3 -0.3 -0.4 -0.4 -0.5 -0.5 -0.6 -0.7 -0.7 -0.8 -0.8 -0.9 -0.9 -1 -1 -1.1 -1.1 -1.2 -1.2 -1.2 -1.3 -1.3 -1.4 -1.5 -1.5 -1.5 -1.5 -1.5 -1.5 -1.5 -1.5 -1.5 -1.5 -1.5 -1.5 -1.5 -1.5 -1.5 -1.5 -1.5 -1.5 -1.5 -1.5 -1.5 -1.5 -1.5 -1.5 -1.5 -1.5 -1.5 -1.5 -1.5 -1.5 -1.5 -1.5 -1.5 -1.5 -1.5 -1.5 -1.5 -1.5 -1.5 -1.5 -1.5 -1.5 -1.5 -1.5 -1.5 -1.5 -1.5 -1.5 -1.5 -1.5 -1.5 -1.5 -1.5 -1.5 -1.5 -1.5 -1.5 -1.5 -1.5 -1.5 -1.5 -1.5 -1.5
13.8 13.4 10.5 6.2 -1.5 1.9 1.9 2.2 3.5 6.7 6.9 7 7 7.1 6.5 6 7.5 8.3 1 -1.5 -1.5 -1.5 -1.5 -1.5 -1.5 -1.5 -1.5 -1.5 -1.5 -1.5 -1.5 -1.5 -1.5 -1.5 -1.5 -1.5 -1.5 -1.5 -1.5 -1.5 -1.5 -1.5 -1.5 -1.5 -1.5 -1.5 -1.5 -1.5 -1.5 -1.5 -1.5 -1.5 -1.5 -1.5 -1.5 -1.5 -1.5 -1.5 -1.5 -1.5 -1.5 -1.5 -1.5 -1.5 -1.5 -1.5 -1.5 -1.5 -1.5 -1.5 -1.5 -1.5 -1.5 -1.5 -1.5 -1.5 -1.5 -1.5 -1.5 -1.5 -1.5 -1.5 -1.5 -1.5 -1.5 -1.2 -0.8 -0.4 0 0.4 0.8 1 0.8 2.5 4.8 13.7 5.9 7 3.2 1.8 1.4 1.2 1 0.9 0.7 0.4 0.1 0 -0.2 -0.2 -0.3 -0.4 -0.4 -0.4 -0.5 -0.5 -0.5 -0.6 -0.6 -0.7 -0.7 -0.8 -0.8 -0.9 -1 -1 -1.1 -1.1 -1.2 -1.2 -1.2 -1.3 -1.3 -1.4 -1.4 -1.5 -1.5 -1.5 -1.5 -1.5 -1.5 -1.5 -1.5 -1.5 -1.5 -1.5 -1.5 -1.5 -1.5 -1.5 -1.5 -1.5 -1.5 -1.5 -1.5 -1.5 -1.5 -1.5 -1.5 -1.5 -1.5 -1.5 -1.5 -1.5 -1.5 -1.5 -1.5 -1.5 -1.5 -1.5 -1.5 -1.5 -1.5 -1.5 -1.5 -1.5 -1.5 -1.5 -1.5 -1.5 -1.5 -1.5 -1.5 -1.5 -1.5 -1.5 -1.5 -1.5 -1.5 -1.5 -1.5 -1.5 -1.5 -1.5 -1.5 -1.5 -1.5 -1.5 -1.5 -1.5
14.2 14 8.2 4.8 2.1 2.6 1.8 1.9 2.6 3.5 6.9 6.9 6.9 7.1 7.3 6.5 6.2 8 4.8 -1.5 -1.5 -1.5 -1.5 -1.5 -1.5 -1.5 -1.5 -1.5 -1.5 -1.5 -1.5 -1.5 -1.5 -1.5 -1.5 -1.5 -1.5 -1.5 -1.5 -1.5 -1.5 -1.5 -1.5 -1.5 -1.5 -1.5 -1.5 -1.5 -1.5 -1.5 -1.5 -1.5 -1.5 -1.5 -1.5 -1.5 -1.5 -1.5 -1.5 -1.5 -1.5 -1.5 -1.5 -1.5 -1.5 -1.5 -1.5 -1.5 -1.5 -1.5 -1.5 -1.5 -1.5 -1.5 -1.5 -1.5 -1.5 -1.5 -1.5 -1.5 -1.5 -1.5 -1.5 -1.5 -1.5 -1.4 -1 -0.6 -0.2 0.2 0.2 0.1 0.1 1.8 5.5 14.3 7.3 5.2 1.8 1.5 1 0.8 0.7 0.6 0.5 0.3 0 -0.3 -0.3 -0.4 -0.5 -0.5 -0.6 -0.6 -0.6 -0.6 -0.7 -0.7 -0.8 -0.8 -0.9 -0.9 -1 -1 -1.1 -1.1 -1.2 -1.2 -1.3 -1.3 -1.4 -1.5 -1.5 -1.5 -1.5 -1.5 -1.5 -1.5 -1.5 -1.5 -1.5 -1.5 -1.5 -1.5 -1.5 -1.5 -1.5 -1.5 -1.5 -1.5 -1.5 -1.5 -1.5 -1.5 -1.5 -1.5 -1.5 -1.5 -1.5 -1.5 -1.5 -1.5 -1.5 -1.5 -1.5 -1.5 -1.5 -1.5 -1.5 -1.5 -1.5 -1.5 -1.5 -1.5 -1.5 -1.5 -1.5 -1.5 -1.5 -1.5 -1.5 -1.5 -1.5 -1.5 -1.5 -1.5 -1.5 -1.5 -1.5 -1.5 -1.5 -1.5 -1.5 -1.5 -1.5 -1.5 -1.5 -1.5 -1.5 -1.5
14.1 12.7 7.2 4.2 2.8 3.3 2.7 1.9 2.7 3 6.9 6.9 6.8 7 7.6 7.2 5.9 7 7.1 2.5 -1.5 -1.5 -1.5 -1.5 -1.5 -1.5 -1.5 -1.5 -1.5 -1.5 -1.5 -1.5 -1.5 -1.5 -1.5 -1.5 -1.5 -1.5 -1.5 -1.5 -1.5 -1.5 -1.5 -1.5 -1.5 -1.5 -1.5 -1.5 -1.5 -1.5 -1.5 -1.5 -1.5 -1.5 -1.5 -1.5 -1.5 -1.5 -1.5 -1.5 -1.5 -1.5 -1.5 -1.5 -1.5 -1.5 -1.5 -1.5 -1.5 -1.5 -1.5 -1.5 -1.5 -1.5 -1.5 -1.5 -1.5 -1.5 -1.5 -1.5 -1.5 -1.5 -1.5 -1.5 -1.5 -1.5 -1.2 -0.8 -0.5 -0.5 -0.7 -0.8 -0.6 1.3 4.9 14.8 7.2 2.9 1.3 1.1 0.7 0.4 0.4 0.2 0.2 0.1 -0.1 -0.4 -0.5 -0.6 -0.7 -0.7 -0.7 -0.8 -0.8 -0.8 -0.8 -0.9 -0.9 -0.9 -1 -1.1 -1.1 -1.2 -1.2 -1.3 -1.3 -1.4 -1.4 -1.5 -1.5 -1.5 -1.5 -1.5 -1.5 -1.5 -1.5 -1.5 -1.5 -1.5 -1.5 -1.5 -1.5 -1.5 -1.5 -1.5 -1.5 -1.5 -1.5 -1.5 -1.5 -1.5 -1.5 -1.5 -1.5 -1.5 -1.5 -1.5 -1.5 -1.5 -1.5 -1.5 -1.5 -1.5 -1.5 -1.5 -1.5 -1.5 -1.5 -1.5 -1.5 -1.5 -1.5 -1.5 -1.5 -1.5 -1.5 -1.5 -1.5 -1.5 -1.5 -1.5 -1.5 -1.5 -1.5 -1.5 -1.5 -1.5 -1.5 -1.5 -1.5 -1.5 -1.5 -1.5 -1.5 -1.5 -1.5 -1.5 -1.5 -1.5
10.2 11 6 2.6 3.3 3 2.7 1.4 2.2 3 4.4 6.8 6.7 7 7 7.4 5.7 10.1 8.7 6.1 2.6 -1.5 -1.5 -1.5 -1.5 -1.5 -1.5 -1.5 -1.5 -1.5 -1.5 -1.5 -1.5 -1.5 -1.5 -1.5 -1.5 -1.5 -1.5 -1.5 -1.5 -1.5 -1.5 -1.5 -1.5 -1.5 -1.5 -1.5 -1.5 -1.5 -1.5 -1.5 -1.5 -1.5 -1.5 -1.5 -1.5 -1.5 -1.5 -1.5 -1.5 -1.5 -1.5 -1.5 -1.5 -1.5 -1.5 -1.5 -1.5 -1.5 -1.5 -1.5 -1.5 -1.5 -1.5 -1.5 -1.5 -1.5 -1.5 -1.5 -1.5 -1.5 -1.5 -1.5 -1.5 -1.5 -1.5 -1.2 -1.2 -1.4 -1.5 -1.5 -1.5 0.7 4.8 15.3 5.9 1.5 0.7 0.3 0.3 0 -0.1 -0.2 -0.2 -0.2 -0.3 -0.5 -0.8 -0.8 -0.8 -0.9 -0.9 -0.9 -0.9 -1 -1 -1 -1.1 -1.1 -1.1 -1.2 -1.3 -1.3 -1.4 -1.4 -1.5 -1.5 -1.5 -1.5 -1.5 -1.5 -1.5 -1.5 -1.5 -1.5 -1.5 -1.5 -1.5 -1.5 -1.5 -1.5 -1.5 -1.5 -1.5 -1.5 -1.5 -1.5 -1.5 -1.5 -1.5 -1.5 -1.5 -1.5 -1.5 -1.5 -1.5 -1.5 -1.5 -1.5 -1.5 -1.5 -1.5 -1.5 -1.5 -1.5 -1.5 -1.5 -1.5 -1.5 -1.5 -1.5 -1.5 -1.5 -1.5 -1.5 -1.5 -1.5 -1.5 -1.5 -1.5 -1.5 -1.5 -1.5 -1.5 -1.5 -1.5 -1.5 -1.5 -1.5 -1.5 -1.5 -1.5 -1.5 -1.5 -1.5 -1.5 -1.5 -1.5 -1.5
13.9 10.4 3.4 2.8 3.4 3.1 2.6 1.7 2.4 3.2 4.7 6.3 5.9 5.5 6.4 7 10.1 12.8 15.4 15.2 5.5 3.2 1.5 -1.5 -1.5 -1.5 -1.5 -1.5 -1.5 -1.5 -1.5 -1.5 -1.5 -1.5 -1.5 -1.5 -1.5 -1.5 -1.5 -1.5 -1.5 -1.5 -1.5 -1.5 -1.5 -1.5 -1.5 -1.5 -1.5 -1.5 -1.5 -1.5 -1.5 -1.5 -1.5 -1.5 -1.5 -1.5 -1.5 -1.5 -1.5 -1.5 -1.5 -1.5 -1.5 -1.5 -1.5 -1.5 -1.5 -1.5 -1.5 -1.5 -1.5 -1.5 -1.5 -1.5 -1.5 -1.5 -1.5 -1.5 -1.5 -1.5 -1.5 -1.5 -1.5 -1.5 -1.5 -1.5 -1.5 -1.5 -1.5 -1.5 -1.5 0.1 2.2 15.9 4.2 0.6 -1.5 -0.6 -0.3 -0.4 -0.6 -0.6 -0.6 -0.6 -0.7 -0.7 -0.9 -1 -1 -1.1 -1.1 -1.1 -1.1 -1.1 -1.2 -1.2 -1.2 -1.2 -1.3 -1.3 -1.5 -1.5 -1.5 -1.5 -1.5 -1.5 -1.5 -1.5 -1.5 -1.5 -1.5 -1.5 -1.5 -1.5 -1.5 -1.5 -1.5 -1.5 -1.5 -1.5 -1.5 -1.5 -1.5 -1.5 -1.5 -1.5 -1.5 -1.5 -1.5 -1.5 -1.5 -1.5 -1.5 -1.5 -1.5 -1.5 -1.5 -1.5 -1.5 -1.5 -1.5 -1.5 -1.5 -1.5 -1.5 -1.5 -1.5 -1.5 -1.5 -1.5 -1.5 -1.5 -1.5 -1.5 -1.5 -1.5 -1.5 -1.5 -1.5 -1.5 -1.5 -1.5 -1.5 -1.5 -1.5 -1.5 -1.5 -1.5 -1.5 -1.5 -1.5 -1.5 -1.5 -1.5 -1.5 -1.5 -1.5 -1.5
12.9 4.5 3.5 3.3 4 3.5 3 2.6 3.9 3.3 4.3 4.8 5.1 5.3 6.2 6.1 8.7 11.3 14.6 19.8 14.5 5.8 4.1 1.8 -1.5 -1.5 -1.5 -1.5 -1.5 -1.5 -1.5 -1.5 -1.5 -1.5 -1.5 -1.5 -1.5 -1.5 -1.5 -1.5 -1.5 -1.5 -1.5 -1.5 -1.5 -1.5 -1.5 -1.5 -1.5 -1.5 -1.5 -1.5 -1.5 -1.5 -1.5 -1.5 -1.5 -1.5 -1.5 -1.5 -1.5 -1.5 -1.5 -1.5 -1.5 -1.5 -1.5 -1.5 -1.5 -1.5 -1.5 -1.5 -1.5 -1.5 -1.5 -1.5 -1.5 -1.5 -1.5 -1.5 -1.5 -1.5 -1.5 -1.5 -1.5 -1.5 -1.5 -1.5 -1.5 -1.5 -1.5 -1.5 -1.5 -1.5 1.6 13.9 2.2 -1.5 -1.5 -1.5 -1.2 -1 -1.1 -1.1 -1.1 -1.1 -1.1 -1.1 -1.1 -1.2 -1.3 -1.3 -1.3 -1.3 -1.3 -1.3 -1.3 -1.3 -1.4 -1.4 -1.5 -1.5 -1.5 -1.5 -1.5 -1.5 -1.5 -1.5 -1.5 -1.5 -1.5 -1.5 -1.5 -1.5 -1.5 -1.5 -1.5 -1.5 -1.5 -1.5 -1.5 -1.5 -1.5 -1.5 -1.5 -1.5 -1.5 -1.5 -1.5 -1.5 -1.5 -1.5 -1.5 -1.5 -1.5 -1.5 -1.5 -1.5 -1.5 -1.5 -1.5 -1.5 -1.5 -1.5 -1.5 -1.5 -1.5 -1.5 -1.5 -1.5 -1.5 -1.5 -1.5 -1.5 -1.5 -1.5 -1.5 -1.5 -1.5 -1.5 -1.5 -1.5 -1.5 -1.5 -1.5 -1.5 -1.5 -1.5 -1.5 -1.5 -1.5 -1.5 -1.5 -1.5 -1.5 -1.5 -1.5 -1.5 -1.5 -1.5
5.4 4.6 9.5 3.5 4.2 3.7 3.3 3.4 4.9 4.6 3.6 4.6 5.3 6 5 4.8 7.2 9.8 13 18.8 20.4 13.8 6.7 4.1 1.4 -1.5 -1.5 -1.5 -1.5 -1.5 -1.5 -1.5 -1.5 -1.5 -1.5 -1.5 -1.5 -1.5 -1.5 -1.5 -1.5 -1.5 -1.5 -1.5 -1.5 -1.5 -1.5 -1.5 -1.5 -1.5 -1.5 -1.5 -1.5 -1.5 -1.5 -1.5 -1.5 -1.5 -1.5 -1.5 -1.5 -1.5 -1.5 -1.5 -1.5 -1.5 -1.5 -1.5 -1.5 -1.5 -1.5 -1.5 -1.5 -1.5 -1.5 -1.5 -1.5 -1.5 -1.5 -1.5 -1.5 -1.5 -1.5 -1.5 -1.5 -1.5 -1.5 -1.5 -1.5 -1.5 -1.5 -1.5 -1.5 -1.5 -1.5 -1.5 -1.5 -1.5 -1.5 -1.5 -1.5 -1.5 -1.5 -1.5 -1.5 -1.5 -1.5 -1.5 -1.5 -1.5 -1.5 -1.5 -1.5 -1.5 -1.5 -1.5 -1.5 -1.5 -1.5 -1.5 -1.5 -1.5 -1.5 -1.5 -1.5 -1.5 -1.5 -1.5 -1.5 -1.5 -1.5 -1.5 -1.5 -1.5 -1.5 -1.5 -1.5 -1.5 -1.5 -1.5 -1.5 -1.5 -1.5 -1.5 -1.5 -1.5 -1.5 -1.5 -1.5 -1.5 -1.5 -1.5 -1.5 -1.5 -1.5 -1.5 -1.5 -1.5 -1.5 -1.5 -1.5 -1.5 -1.5 -1.5 -1.5 -1.5 -1.5 -1.5 -1.5 -1.5 -1.5 -1.5 -1.5 -1.5 -1.5 -1.5 -1.5 -1.5 -1.5 -1.5 -1.5 -1.5 -1.5 -1.5 -1.5 -1.5 -1.5 -1.5 -1.5 -1.5 -1.5 -1.5 -1.5 -1.5 -1.5 -1.5 -1.5 -1.5 -1.5 -1.5
4.6 4 4.4 4.4 4.3 3.8 3.4 4.4 4.9 4.9 3.8 4 4.3 3.9 4.6 6 6.8 8.2 11.9 18.8 22.1 19.2 11.6 5.1 3.8 -1.5 -1.5 -1.5 -1.5 -1.5 -1.5 -1.5 -1.5 -1.5 -1.5 -1.5 -1.5 -1.5 -1.5 -1.5 -1.5 -1.5 -1.5 -1.5 -1.5 -1.5 -1.5 -1.5 -1.5 -1.5 -1.5 -1.5 -1.5 -1.5 -1.5 -1.5 -1.5 -1.5 -1.5 -1.5 -1.5 -1.5 -1.5 -1.5 -1.5 -1.5 -1.5 -1.5 -1.5 -1.5 -1.5 -1.5 -1.5 -1.5 -1.5 -1.5 -1.5 -1.5 -1.5 -1.5 -1.5 -1.5 -1.5 -1.5 -1.5 -1.5 -1.5 -1.5 -1.5 -1.5 -1.5 -1.5 -1.5 -1.5 -1.5 -1.5 -1.5 -1.5 -1.5 -1.5 -1.5 -1.5 -1.5 -1.5 -1.5 -1.5 -1.5 -1.5 -1.5 -1.5 -1.5 -1.5 -1.5 -1.5 -1.5 -1.5 -1.5 -1.5 -1.5 -1.5 -1.5 -1.5 -1.5 -1.5 -1.5 -1.5 -1.5 -1.5 -1.5 -1.5 -1.5 -1.5 -1.5 -1.5 -1.5 -1.5 -1.5 -1.5 -1.5 -1.5 -1.5 -1.5 -1.5 -1.5 -1.5 -1.5 -1.5 -1.5 -1.5 -1.5 -1.5 -1.5 -1.5 -1.5 -1.5 -1.5 -1.5 -1.5 -1.5 -1.5 -1.5 -1.5 -1.5 -1.5 -1.5 -1.5 -1.5 -1.5 -1.5 -1.5 -1.5 -1.5 -1.5 -1.5 -1.5 -1.5 -1.5 -1.5 -1.5 -1.5 -1.5 -1.5 -1.5 -1.5 -1.5 -1.5 -1.5 -1.5 -1.5 -1.5 -1.5 -1.5 -1.5 -1.5 -1.5 -1.5 -1.5 -1.5 -1.5 -1.5
4.7 4 3.8 4.7 3.2 4.7 4.8 4.9 4.9 5 4.1 4.4 4.3 4.1 5 5.6 6.1 7.8 11.4 18.3 23.4 19.1 17 7.3 4.7 2 -1.5 -1.5 -1.5 -1.5 -1.5 -1.5 -1.5 -1.5 -1.5 -1.5 -1.5 -1.5 -1.5 -1.5 -1.5 -1.5 -1.5 -1.5 -1.5 -1.5 -1.5 -1.5 -1.5 -1.5 -1.5 -1.5 -1.5 -1.5 -1.5 -1.5 -1.5 -1.5 -1.5 -1.5 -1.5 -1.5 -1.5 -1.5 -1.5 -1.5 -1.5 -1.5 -1.5 -1.5 -1.5 -1.5 -1.5 -1.5 -1.5 -1.5 -1.5 -1.5 -1.5 -1.5 -1.5 -1.5 -1.5 -1.5 -1.5 -1.5 -1.5 -1.5 -1.5 -1.5 -1.5 -1.5 -1.5 -1.5 -1.5 -1.5 -1.5 -1.5 -1.5 -1.5 -1.5 -1.5 -1.5 -1.5 -1.5 -1.5 -1.5 -1.5 -1.5 -1.5 -1.5 -1.5 -1.5 -1.5 -1.5 -1.5 -1.5 -1.5 -1.5 -1.5 -1.5 -1.5 -1.5 -1.5 -1.5 -1.5 -1.5 -1.5 -1.5 -1.5 -1.5 -1.5 -1.5 -1.5 -1.5 -1.5 -1.5 -1.5 -1.5 -1.5 -1.5 -1.5 -1.5 -1.5 -1.5 -1.5 -1.5 -1.5 -1.5 -1.5 -1.5 -1.5 -1.5 -1.5 -1.5 -1.5 -1.5 -1.5 -1.5 -1.5 -1.5 -1.5 -1.5 -1.5 -1.5 -1.5 -1.5 -1.5 -1.5 -1.5 -1.5 -1.5 -1.5 -1.5 -1.5 -1.5 -1.5 -1.5 -1.5 -1.5 -1.5 -1.5 -1.5 -1.5 -1.5 -1.5 -1.5 -1.5 -1.5 -1.5 -1.5 -1.5 -1.5 -1.5 -1.5 -1.5 -1.5 -1.5 -1.5 -1.5
4.6 4.5 4.7 4.9 9.6 5.1 5 5.1 5.3 5.3 5 5.4 5.4 4.7 4.9 5 6.1 7.5 10.6 16.7 21.4 19.5 20.5 19.2 5.5 3 -1.5 -1.5 -1.5 -1.5 -1.5 -1.5 -1.5 -1.5 -1.5 -1.5 -1.5 -1.5 -1.5 -1.5 -1.5 -1.5 -1.5 -1.5 -1.5 -1.5 -1.5 -1.5 -1.5 -1.5 -1.5 -1.5 -1.5 -1.5 -1.5 -1.5 -1.5 -1.5 -1.5 -1.5 -1.5 -1.5 -1.5 -1.5 -1.5 -1.5 -1.5 -1.5 -1.5 -1.5 -1.5 -1.5 -1.5 -1.5 -1.5 -1.5 -1.5 -1.5 -1.5 -1.5 -1.5 -1.5 -1.5 -1.5 -1.5 -1.5 -1.5 -1.5 -1.5 -1.5 -1.5 -1.5 -1.5 -1.5 -1.5 -1.5 -1.5 -1.5 -1.5 -1.5 -1.5 -1.5 -1.5 -1.5 -1.5 -1.5 -1.5 -1.5 -1.5 -1.5 -1.5 -1.5 -1.5 -1.5 -1.5 -1.5 -1.5 -1.5 -1.5 -1.5 -1.5 -1.5 -1.5 -1.5 -1.5 -1.5 -1.5 -1.5 -1.5 -1.5 -1.5 -1.5 -1.5 -1.5 -1.5 -1.5 -1.5 -1.5 -1.5 -1.5 -1.5 -1.5 -1.5 -1.5 -1.5 -1.5 -1.5 -1.5 -1.5 -1.5 -1.5 -1.5 -1.5 -1.5 -1.5 -1.5 -1.5 -1.5 -1.5 -1.5 -1.5 -1.5 -1.5 -1.5 -1.5 -1.5 -1.5 -1.5 -1.5 -1.5 -1.5 -1.5 -1.5 -1.5 -1.5 -1.5 -1.5 -1.5 -1.5 -1.5 -1.5 -1.5 -1.5 -1.5 -1.5 -1.5 -1.5 -1.5 -1.5 -1.5 -1.5 -1.5 -1.5 -1.5 -1.5 -1.5 -1.5 -1.5 -1.5 -1.5
4.8 4.7 4.9 5.1 5.4 5.3 5.2 5.3 5.6 5.7 5.7 6.1 6.1 4.6 5.1 5.8 7.3 8.1 10.5 15.6 19.7 22.6 25 24.8 8.9 4.6 -1.5 -1.5 -1.5 -1.5 -1.5 -1.5 -1.5 -1.5 -1.5 -1.5 -1.5 -1.5 -1.5 -1.5 -1.5 -1.5 -1.5 -1.5 -1.5 -1.5 -1.5 -1.5 -1.5 -1.5 -1.5 -1.5 -1.5 -1.5 -1.5 -1.5 -1.5 -1.5 -1.5 -1.5 -1.5 -1.5 -1.5 -1.5 -1.5 -1.5 -1.5 -1.5 -1.5 -1.5 -1.5 -1.5 -1.5 -1.5 -1.5 -1.5 -1.5 -1.5 -1.5 -1.5 -1.5 -1.5 -1.5 -1.5 -1.5 -1.5 -1.5 -1.5 -1.5 -1.5 -1.5 -1.5 -1.5 -1.5 -1.5 -1.5 -1.5 -1.5 -1.5 -1.5 -1.5 -1.5 -1.5 -1.5 -1.5 -1.5 -1.5 -1.5 -1.5 -1.5 -1.5 -1.5 -1.5 -1.5 -1.5 -1.5 -1.5 -1.5 -1.5 -1.5 -1.5 -1.5 -1.5 -1.5 -1.5 -1.5 -1.5 -1.5 -1.5 -1.5 -1.5 -1.5 -1.5 -1.5 -1.5 -1.5 -1.5 -1.5 -1.5 -1.5 -1.5 -1.5 -1.5 -1.5 -1.5 -1.5 -1.5 -1.5 -1.5 -1.5 -1.5 -1.5 -1.5 -1.5 -1.5 -1.5 -1.5 -1.5 -1.5 -1.5 -1.5 -1.5 -1.5 -1.5 -1.5 -1.5 -1.5 -1.5 -1.5 -1.5 -1.5 -1.5 -1.5 -1.5 -1.5 -1.5 -1.5 -1.5 -1.5 -1.5 -1.5 -1.5 -1.5 -1.5 -1.5 -1.5 -1.5 -1.5 -1.5 -1.5 -1.5 -1.5 -1.5 -1.5 -1.5 -1.5 -1.5 -1.5 -1.5 -1.5
4.8 5 5.3 5.5 5.7 5.9 4.7 5.6 5.8 6 6 6.1 6.1 5.7 5.8 6.3 7.4 9.7 11 15.4 19.6 25.9 25.9 24.9 21.5 5.4 1.3 -1.5 -1.5 -1.5 -1.5 -1.5 -1.5 -1.5 -1.5 -1.5 -1.5 -1.5 -1.5 -1.5 -1.5 -1.5 -1.5 -1.5 -1.5 -1.5 -1.5 -1.5 -1.5 -1.5 -1.5 -1.5 -1.5 -1.5 -1.5 -1.5 -1.5 -1.5 -1.5 -1.5 -1.5 -1.5 -1.5 -1.5 -1.5 -1.5 -1.5 -1.5 -1.5 -1.5 -1.5 -1.5 -1.5 -1.5 -1.5 -1.5 -1.5 -1.5 -1.5 -1.5 -1.5 -1.5 -1.5 -1.5 -1.5 -1.5 -1.5 -1.5 -1.5 -1.5 -1.5 -1.5 -1.5 -1.5 -1.5 -1.5 -1.5 -1.5 -1.5 -1.5 -1.5 -1.5 -1.5 -1.5 -1.5 -1.5 -1.5 -1.5 -1.5 -1.5 -1.5 -1.5 -1.5 -1.5 -1.5 -1.5 -1.5 -1.5 -1.5 -1.5 -1.5 -1.5 -1.5 -1.5 -1.5 -1.5 -1.5 -1.5 -1.5 -1.5 -1.5 -1.5 -1.5 -1.5 -1.5 -1.5 -1.5 -1.5 -1.5 -1.5 -1.5 -1.5 -1.5 -1.5 -1.5 -1.5 -1.5 -1.5 -1.5 -1.5 -1.5 -1.5 -1.5 -1.5 -1.5 -1.5 -1.5 -1.5 -1.5 -1.5 -1.5 -1.5 -1.5 -1.5 -1.5 -1.5 -1.5 -1.5 -1.5 -1.5 -1.5 -1.5 -1.5 -1.5 -1.5 -1.5 -1.5 -1.5 -1.5 -1.5 -1.5 -1.5 -1.5 -1.5 -1.5 -1.5 -1.5 -1.5 -1.5 -1.5 -1.5 -1.5 -1.5 -1.5 -1.5 -1.5 -1.5 -1.5 -1.5 -1.5
5.1 5.3 5.6 5.8 6 5.7 9.4 6 6.1 6.4 6.5 6.4 6.3 6.2 6.4 6.8 7.2 11.1 14.4 17.9 23.5 26.8 26.4 25.8 24.6 7.9 3.1 -1.5 -1.5 -1.5 -1.5 -1.5 -1.5 -1.5 -1.5 -1.5 -1.5 -1.5 -1.5 -1.5 -1.5 -1.5 -1.5 -1.5 -1.5 -1.5 -1.5 -1.5 -1.5 -1.5 -1.5 -1.5 -1.5 -1.5 -1.5 -1.5 -1.5 -1.5 -1.5 -1.5 -1.5 -1.5 -1.5 -1.5 -1.5 -1.5 -1.5 -1.5 -1.5 -1.5 -1.5 -1.5 -1.5 -1.5 -1.5 -1.5 -1.5 -1.5 -1.5 -1.5 -1.5 -1.5 -1.5 -1.5 -1.5 -1.5 -1.5 -1.5 -1.5 -1.5 -1.5 -1.5 -1.5 -1.5 -1.5 -1.5 -1.5 -1.5 -1.5 -1.5 -1.5 -1.5 -1.5 -1.5 -1.5 -1.5 -1.5 -1.5 -1.5 -1.5 -1.5 -1.5 -1.5 -1.5 -1.5 -1.5 -1.5 -1.5 -1.5 -1.5 -1.5 -1.5 -1.5 -1.5 -1.5 -1.5 -1.5 -1.5 -1.5 -1.5 -1.5 -1.5 -1.5 -1.5 -1.5 -1.5 -1.5 -1.5 -1.5 -1.5 -1.5 -1.5 -1.5 -1.5 -1.5 -1.5 -1.5 -1.5 -1.5 -1.5 -1.5 -1.5 -1.5 -1.5 -1.5 -1.5 -1.5 -1.5 -1.5 -1.5 -1.5 -1.5 -1.5 -1.5 -1.5 -1.5 -1.5 -1.5 -1.5 -1.5 -1.5 -1.5 -1.5 -1.5 -1.5 -1.5 -1.5 -1.5 -1.5 -1.5 -1.5 -1.5 -1.5 -1.5 -1.5 -1.5 -1.5 -1.5 -1.5 -1.5 -1.5 -1.5 -1.5 -1.5 -1.5 -1.5 -1.5 -1.5 -1.5 -1.5
5.4 5.6 5.8 6.1 6.4 6.5 7.1 7 6.4 6.8 7 6.9 6.8 6.8 7.1 7.1 7.7 12.5 17.8 24 27.5 27.3 26.9 26.4 25.5 14.9 4.5 -1.5 -1.5 -1.5 -1.5 -1.5 -1.5 -1.5 -1.5 -1.5 -1.5 -1.5 -1.5 -1.5 -1.5 -1.5 -1.5 -1.5 -1.5 -1.5 -1.5 -1.5 -1.5 -1.5 -1.5 -1.5 -1.5 -1.5 -1.5 -1.5 -1.5 -1.5 -1.5 -1.5 -1.5 -1.5 -1.5 -1.5 2.1 -1.5 -1.5 -1.5 -1.5 -1.5 -1.5 -1.5 -1.5 -1.5 -1.5 -1.5 -1.5 -1.5 -1.5 -1.5 -1.5 -1.5 -1.5 -1.5 -1.5 -1.5 -1.5 -1.5 -1.5 -1.5 -1.5 -1.5 -1.5 -1.5 -1.5 -1.5 -1.5 -1.5 -1.5 -1.5 -1.5 -1.5 -1.5 -1.5 -1.5 -1.5 -1.5 -1.5 -1.5 -1.5 -1.5 -1.5 -1.5 -1.5 -1.5 -1.5 -1.5 -1.5 -1.5 -1.5 -1.5 -1.5 -1.5 -1.5 -1.5 -1.5 -1.5 -1.5 -1.5 -1.5 -1.5 -1.5 -1.5 -1.5 -1.5 -1.5 -1.5 -1.5 -1.5 -1.5 -1.5 -1.5 -1.5 -1.5 -1.5 -1.5 -1.5 -1.5 -1.5 -1.5 -1.5 -1.5 -1.5 -1.5 -1.5 -1.5 -1.5 -1.5 -1.5 -1.5 -1.5 -1.5 -1.5 -1.5 -1.5 -1.5 -1.5 -1.5 -1.5 -1.5 -1.5 -1.5 -1.5 -1.5 -1.5 -1.5 -1.5 -1.5 -1.5 -1.5 -1.5 -1.5 -1.5 -1.5 -1.5 -1.5 -1.5 -1.5 -1.5 -1.5 -1.5 -1.5 -1.5 -1.5 -1.5 -1.5 -1.5 -1.5 -1.5 -1.5
5.7 5.9 6.1 6.4 6.7 7.1 7.2 8 7.1 7.3 7.4 7.4 7.3 7.4 7.4 7.3 9.6 15.1 22.5 26.9 26.7 26.6 26.7 26.1 25.3 22.9 5.7 1.5 -1.5 -1.5 -1.5 -1.5 -1.5 -1.5 -1.5 -1.5 -1.5 -1.5 -1.5 -1.5 -1.5 -1.5 -1.5 -1.5 -1.5 -1.5 -1.5 -1.5 -1.5 -1.5 -1.5 -1.5 -1.5 -1.5 -1.5 -1.5 -1.5 -1.5 -1.5 -1.5 -1.5 -1.5 0.8 5.1 3.1 1 0 -1.5 -1.5 -1.5 -1.5 -1.5 -1.5 -1.5 -1.5 -1.5 -1.5 -1.5 -1.5 -1.5 -1.5 -1.5 -1.5 -1.5 -1.5 -1.5 -1.5 -1.5 -1.5 -1.5 -1.5 -1.5 -1.5 -1.5 -1.5 -1.5 -1.5 -1.5 -1.5 -1.5 -1.5 -1.5 -1.5 -1.5 -1.5 -1.5 -1.5 -1.5 -1.5 -1.5 -1.5 -1.5 -1.5 -1.5 -1.5 -1.5 -1.5 -1.5 -1.5 -1.5 -1.5 -1.5 -1.5 -1.5 -1.5 -1.5 -1.5 -1.5 -1.5 -1.5 -1.5 -1.5 -1.5 -1.5 -1.5 -1.5 -1.5 -1.5 -1.5 -1.5 -1.5 -1.5 -1.5 -1.5 -1.5 -1.5 -1.5 -1.5 -1.5 -1.5 -1.5 -1.5 -1.5 -1.5 -1.5 -1.5 -1.5 -1.5 -1.5 -1.5 -1.5 -1.5 -1.5 -1.5 -1.5 -1.5 -1.5 -1.5 -1.5 -1.5 -1.5 -1.5 -1.5 -1.5 -1.5 -1.5 -1.5 -1.5 -1.5 -1.5 -1.5 -1.5 -1.5 -1.5 -1.5 -1.5 -1.5 -1.5 -1.5 -1.5 -1.5 -1.5 -1.5 -1.5 -1.5 -1.5 -1.5 -1.5 -1.5 -1.5
6.1 6.2 6.4 6.7 7.2 7.6 7.7 8 10.2 7.7 7.9 7.9 7.9 7.8 7.9 8.5 11.6 18.1 26.6 25.4 25.8 26.3 26.3 25.8 25.3 25.4 6.9 1.9 -1.5 -1.5 -1.5 -1.5 -1.5 -1.5 -1.5 -1.5 -1.5 -1.5 -1.5 -1.5 -1.5 -1.5 -1.5 -1.5 -1.5 -1.5 -1.5 -1.5 -1.5 -1.5 -1.5 -1.5 -1.5 -1.5 -1.5 -1.5 -1.5 -1.5 -1.5 -1.5 -1.5 -1.5 2.7 6.3 4.3 2 0.6 -1.5 -1.5 -1.5 -1.5 -1.5 -1.5 -1.5 -1.5 -1.5 -1.5 -1.5 -1.5 -1.5 -1.5 -1.5 -1.5 -1.5 -1.5 -1.5 -1.5 -1.5 -1.5 -1.5 -1.5 -1.5 -1.5 -1.5 -1.5 -1.5 -1.5 -1.5 -1.5 -1.5 -1.5 -1.5 -1.5 -1.5 -1.5 -1.5 -1.5 -1.5 -1.5 -1.5 -1.5 -1.5 -1.5 -1.5 -1.5 -1.5 -1.5 -1.5 -1.5 -1.5 -1.5 -1.5 -1.5 -1.5 -1.5 -1.5 -1.5 -1.5 -1.5 -1.5 -1.5 -1.5 -1.5 -1.5 -1.5 -1.5 -1.5 -1.5 -1.5 -1.5 -1.5 -1.5 -1.5 -1.5 -1.5 -1.5 -1.5 -1.5 -1.5 -1.5 -1.5 -1.5 -1.5 -1.5 -1.5 -1.5 -1.5 -1.5 -1.5 -1.5 -1.5 -1.5 -1.5 -1.5 -1.5 -1.5 -1.5 -1.5 -1.5 -1.5 -1.5 -1.5 -1.5 -1.5 -1.5 -1.5 -1.5 -1.5 -1.5 -1.5 -1.5 -1.5 -1.5 -1.5 -1.5 -1.5 -1.5 -1.5 -1.5 -1.5 -1.5 -1.5 -1.5 -1.5 -1.5 -1.5 -1.5 -1.5 -1.5 -1.5
6.5 6.7 6.9 7.2 7.6 8.1 8.3 8.6 9 10.2 8.1 8.2 7.9 8.1 8.4 10.3 15.5 26.3 25.7 21.6 24.3 26 25.9 25.5 25.3 24.4 8.5 2.1 0.3 -1.5 -1.5 -1.5 -1.5 -1.5 -1.5 -1.5 -1.5 -1.5 -1.5 -1.5 -1.5 -1.5 -1.5 -1.5 -1.5 -1.5 -1.5 -1.5 -1.5 -1.5 -1.5 -1.5 -1.5 -1.5 -1.5 -1.5 -1.5 -1.5 -1.5 -1.5 -1.5 -1.5 4.3 8.4 8.9 4.1 1.6 0.5 -1.5 -1.5 -1.5 -1.5 -1.5 -1.5 -1.5 -1.5 -1.5 -1.5 -1.5 -1.5 -1.5 -1.5 -1.5 -1.5 -1.5 -1.5 -1.5 -1.5 -1.5 -1.5 -1.5 -1.5 -1.5 -1.5 -1.5 -1.5 -1.5 -1.5 -1.5 -1.5 -1.5 -1.5 -1.5 -1.5 -1.5 -1.5 -1.5 -1.5 -1.5 -1.5 -1.5 -1.5 -1.5 -1.5 -1.5 -1.5 -1.5 -1.5 -1.5 -1.5 -1.5 -1.5 -1.5 -1.5 -1.5 -1.5 -1.5 -1.5 -1.5 -1.5 -1.5 -1.5 -1.5 -1.5 -1.5 -1.5 -1.5 -1.5 -1.5 -1.5 -1.5 -1.5 -1.5 -1.5 -1.5 -1.5 -1.5 -1.5 -1.5 -1.5 -1.5 -1.5 -1.5 -1.5 -1.5 -1.5 -1.5 -1.5 -1.5 -1.5 -1.5 -1.5 -1.5 -1.5 -1.5 -1.5 -1.5 -1.5 -1.5 -1.5 -1.5 -1.5 -1.5 -1.5 -1.5 -1.5 -1.5 -1.5 -1.5 -1.5 -1.5 -1.5 -1.5 -1.5 -1.5 -1.5 -1.5 -1.5 -1.5 -1.5 -1.5 -1.5 -1.5 -1.5 -1.5 -1.5 -1.5 -1.5 -1.5 -1.5
7 7.4 7.7 8 8.2 8.6 8.8 9.1 8.9 9.8 8.9 8.7 8.1 8.4 9.2 13 21.4 26.1 20.7 14.5 14.9 23.8 25.4 25.3 24.7 24.1 12.9 2.5 0.7 -1.5 -1.5 -1.5 -1.5 -1.5 -1.5 -1.5 -1.5 -1.5 -1.5 -1.5 -1.5 -1.5 -1.5 -1.5 -1.5 -1.5 -1.5 -1.5 -1.5 -1.5 -1.5 -1.5 -1.5 -1.5 -1.5 -1.5 -1.5 -1.5 -1.5 -1.5 -1.5 -1.5 1.8 2.4 8.1 8.7 4.3 1.7 0.9 0.2 -1.5 -1.5 -1.5 -1.5 -1.5 -1.5 -1.5 -1.5 -1.5 -1.5 -1.5 -1.5 -1.5 -1.5 -1.5 -1.5 -1.5 -1.5 -1.5 -1.5 -1.5 -1.5 -1.5 -1.5 -1.5 -1.5 -1.5 -1.5 -1.5 -1.5 -1.5 -1.5 -1.5 -1.5 -1.5 -1.5 -1.5 -1.5 -1.5 -1.5 -1.5 -1.5 -1.5 -1.5 -1.5 -1.5 -1.5 -1.5 -1.5 -1.5 -1.5 -1.5 -1.5 -1.5 -1.5 -1.5 -1.5 -1.5 -1.5 -1.5 -1.5 -1.5 -1.5 -1.5 -1.5 -1.5 -1.5 -1.5 -1.5 -1.5 -1.5 -1.5 -1.5 -1.5 -1.5 -1.5 -1.5 -1.5 -1.5 -1.5 -1.5 -1.5 -1.5 -1.5 -1.5 -1.5 -1.5 -1.5 -1.5 -1.5 -1.5 -1.5 -1.5 -1.5 -1.5 -1.5 -1.5 -1.5 -1.5 -1.5 -1.5 -1.5 -1.5 -1.5 -1.5 -1.5 -1.5 -1.5 -1.5 -1.5 -1.5 -1.5 -1.5 -1.5 -1.5 -1.5 -1.5 -1.5 -1.5 -1.5 -1.5 -1.5 -1.5 -1.5 -1.5 -1.5 -1.5 -1.5 -1.5 -1.5
7.5 8 8.4 8.7 9 9.2 9.1 9 8.8 9 10.1 10.2 9.4 8.8 10.3 16.2 25.5 24.6 23.4 20.9 17.9 23.6 25.5 24.9 24.4 23.9 17.8 3.5 1.1 -0.2 -1.5 -1.5 -1.5 -1.5 -1.5 -1.5 -1.5 -1.5 -1.5 -1.5 -1.5 -1.5 -1.5 -1.5 -1.5 -1.5 -1.5 -1.5 -1.5 -1.5 -1.5 -1.5 -1.5 -1.5 -1.5 -1.5 -1.5 -1.5 -1.5 -1.5 -1.5 -1.5 -0.1 1.1 3 6.8 8.2 7 3.7 1.9 0.6 -0.6 -1.5 -1.5 -1.5 -1.5 -1.5 -1.5 -1.5 -1.5 -1.5 -1.5 -1.5 -1.5 -1.5 -1.5 -1.5 -1.5 -1.5 -1.5 -1.5 -1.5 -1.5 -1.5 -1.5 -1.5 -1.5 -1.5 -1.5 -1.5 -1.5 -1.5 -1.5 -1.5 -1.5 -1.5 -1.5 -1.5 -1.5 -1.5 -1.5 -1.5 -1.5 -1.5 -1.5 -1.5 -1.5 -1.5 -1.5 -1.5 -1.5 -1.5 -1.5 -1.5 -1.5 -1.5 -1.5 -1.5 -1.5 -1.5 -1.5 -1.5 -1.5 -1.5 -1.5 -1.5 -1.5 -1.5 -1.5 -1.5 -1.5 -1.5 -1.5 -1.5 -1.5 -1.5 -1.5 -1.5 -1.5 -1.5 -1.5 -1.5 -1.5 -1.5 -1.5 -1.5 -1.5 -1.5 -1.5 -1.5 -1.5 -1.5 -1.5 -1.5 -1.5 -1.5 -1.5 -1.5 -1.5 -1.5 -1.5 -1.5 -1.5 -1.5 -1.5 -1.5 -1.5 -1.5 -1.5 -1.5 -1.5 -1.5 -1.5 -1.5 -1.5 -1.5 -1.5 -1.5 -1.5 -1.5 -1.5 -1.5 -1.5 -1.5 -1.5 -1.5 -1.5 -1.5 -1.5 -1.5
7.7 8.2 8.7 9.2 9.7 9.7 9.4 9.3 9.3 9.4 10.5 11.6 10.7 9.9 10.5 20.2 24.7 24 23.1 22 24.2 24.9 24.8 24.5 23.9 23.4 20.3 4.4 1.4 0.3 -0.9 -1.5 -1.5 -1.5 -1.5 -1.5 -1.5 -1.5 -1.5 -1.5 -1.5 -1.5 -1.5 -1.5 -1.5 -1.5 -1.5 -1.5 -1.5 -1.5 -1.5 -1.5 -1.5 -1.5 -1.5 -1.5 -1.5 -1.5 -1.5 -1.5 -1.5 -1.5 -0.2 0.9 1.7 2.4 6 8.9 9.2 6 2.1 0.8 -0.2 -1.5 -1.5 -1.5 -1.5 -1.5 -1.5 -1.5 -1.5 -1.5 -1.5 -1.5 -1.2 -1.2 -1.2 -1.3 -1.4 -1.5 -1.5 -1.5 -1.5 -1.5 -1.5 -1.5 -1.5 -1.5 -1.5 -1.5 -1.5 -1.5 -1.5 -1.5 -1.5 -1.5 -1.5 -1.5 -1.5 -1.5 -1.5 -1.5 -1.5 -1.5 -1.5 -1.5 -1.5 -1.5 -1.5 -1.5 -1.5 -1.5 -1.5 -1.5 -1.5 -1.5 -1.5 -1.5 -1.5 -1.5 -1.5 -1.5 -1.5 -1.5 -1.5 -1.5 -1.5 -1.5 -1.5 -1.5 -1.5 -1.5 -1.5 -1.5 -1.5 -1.5 -1.5 -1.5 -1.5 -1.5 -1.5 -1.5 -1.5 -1.5 -1.5 -1.5 -1.5 -1.5 -1.5 -1.5 -1.5 -1.5 -1.5 -1.5 -1.5 -1.5 -1.5 -1.5 -1.5 -1.5 -1.5 -1.5 -1.5 -1.5 -1.5 -1.5 -1.5 -1.5 -1.5 -1.5 -1.5 -1.5 -1.5 -1.5 -1.5 -1.5 -1.5 -1.5 -1.5 -1.5 -1.5 -1.5 -1.5 -1.5 -1.5 -1.5 -1.5 -1.5 -1.5 -1.5
8 8.5 8.9 9.4 9.9 10.3 10.1 10 9.8 10 10.3 11.1 11.9 11.4 15.7 23.2 22.5 20.3 19.8 21.7 23.8 24.4 24.1 23.8 23.4 23.1 22 5.4 1.6 0.5 -0.4 -1.5 -1.5 -1.5 -1.5 -1.5 -1.5 -1.5 -1.5 -1.5 -1.5 -1.5 -1.5 -1.5 -1.5 -1.5 -1.5 -1.5 -1.5 -1.5 -1.5 -1.5 -1.5 -1.5 -1.5 -1.5 -1.5 -1.5 -1.5 -1.5 -1.5 -1.5 -0.1 0.6 1.2 1.7 2.2 7.6 7.2 8.7 7.1 2.1 1 -0.1 -1.5 -1.5 -1.5 -1.5 -1.5 -1.5 -1.5 -1.5 -1.5 -1.1 -0.8 -0.9 -0.9 -1 -1.1 -1.2 -1.3 -1.4 -1.5 -1.5 -1.5 -1.5 -1.5 -1.5 -1.5 -1.5 -1.5 -1.5 -1.5 -1.5 -1.5 -1.5 -1.5 -1.5 -1.5 -1.5 -1.5 -1.5 -1.5 -1.5 -1.5 -1.5 -1.5 -1.5 -1.5 -1.5 -1.5 -1.5 -1.5 -1.5 -1.5 -1.5 -1.5 -1.5 -1.5 -1.5 -1.5 -1.5 -1.5 -1.5 -1.5 -1.5 -1.5 -1.5 -1.5 -1.5 -1.5 -1.5 -1.5 -1.5 -1.5 -1.5 -1.5 -1.5 -1.5 -1.5 -1.5 -1.5 -1.5 -1.5 -1.5 -1.5 -1.5 -1.5 -1.5 -1.5 -1.5 -1.5 -1.5 -1.5 -1.5 -1.5 -1.5 -1.5 -1.5 -1.5 -1.5 -1.5 -1.5 -1.5 -1.5 -1.5 -1.5 -1.5 -1.5 -1.5 -1.5 -1.5 -1.5 -1.5 -1.5 -1.5 -1.5 -1.5 -1.5 -1.5 -1.5 -1.5 -1.5 -1.5 -1.5 -1.5 -1.5 -1.5 -1.5 -1.5
8.7 8.7 9.2 9.7 10.2 10.8 10.6 10.5 10.4 10.9 10 12.1 12 13.1 18.6 23 19.7 19.5 20.2 22.7 23.8 23.6 23.4 23.2 22.9 22.5 21.9 9.8 1.8 0.9 0 -0.7 -1.5 -1.5 -1.5 -1.5 -1.5 -1.5 -1.5 -1.5 -1.5 -1.5 -1.5 -1.5 -1.5 -1.5 -1.5 -1.5 -1.5 -1.5 -1.5 -1.5 -1.5 -1.5 -1.5 -1.5 -1.5 -1.5 -1.5 -1.5 -1.5 -1 -0.3 0.2 0.7 1.3 1.8 2.6 6.6 7.5 8.5 7.5 2.3 1 -1.5 -1.5 -1.5 -1.5 -1.5 -1.5 -1.5 -1.4 -0.9 -0.5 -0.5 -0.6 -0.7 -0.7 -0.9 -1 -1.1 -1.2 -1.5 -1.5 -1.5 -1.5 -1.5 -1.5 -1.5 -1.5 -1.5 -1.5 -1.5 -1.5 -1.5 -1.5 -1.5 -1.5 -1.5 -1.5 -1.5 -1.5 -1.5 -1.5 -1.5 -1.5 -1.5 -1.5 -1.5 -1.5 -1.5 -1.5 -1.5 -1.5 -1.5 -1.5 -1.5 -1.5 -1.5 -1.5 -1.5 -1.5 -1.5 -1.5 -1.5 -1.5 -1.5 -1.5 -1.5 -1.5 -1.5 -1.5 -1.5 -1.5 -1.5 -1.5 -1.5 -1.5 -1.5 -1.5 -1.5 -1.5 -1.5 -1.5 -1.5 -1.5 -1.5 -1.5 -1.5 -1.5 -1.5 -1.5 -1.5 -1.5 -1.5 -1.5 -1.5 -1.5 -1.5 -1.5 -1.5 -1.5 -1.5 -1.5 -1.5 -1.5 -1.5 -1.5 -1.5 -1.5 -1.5 -1.5 -1.5 -1.5 -1.5 -1.5 -1.5 -1.5 -1.5 -1.5 -1.5 -1.5 -1.5 -1.5 -1.5 -1.5 -1.5 -1.5 -1.5 -1.5
12.9 11.4 10.2 10.3 10.7 11.3 11.2 10.9 11.2 11.5 11.5 12 12 12.1 14.5 21.4 19.7 20.8 22.6 23.2 23.2 23.1 23 22.8 22.5 22.1 21.7 8.3 2 1.1 0.3 -0.4 -1 -1.5 -1.5 -1.5 -1.5 -1.5 -1.5 -1.5 -1.5 -1.5 -1.5 -1.5 -1.5 -1.5 -1.5 -1.5 -1.5 -1.5 -1.5 -1.5 -1.5 -1.5 -1.5 -1.5 -1.5 -1.5 -1.5 -1.5 -1.5 -1.1 -0.5 0.1 0.6 1.1 1.5 2 4.1 6.7 7.9 8.6 7.8 3.3 1.1 -1.5 -1.5 -1.5 -1.5 -1.5 -1.2 -0.8 -0.4 -0.1 -0.2 -0.3 -0.4 -0.5 -0.6 -0.7 -0.8 -0.9 -1.1 -0.8 -1.5 -1.5 -1.5 -1.5 -1.5 -1.5 -1.5 -1.5 -1.5 -1.5 -1.5 -1.5 -1.5 -1.5 -1.5 -1.5 -1.5 -1.5 -1.5 -1.5 -1.5 -1.5 -1.5 -1.5 -1.5 -1.5 -1.5 -1.5 -1.5 -1.5 -1.5 -1.5 -1.5 -1.5 -1.5 -1.5 -1.5 -1.5 -1.5 -1.5 -1.5 -1.5 -1.5 -1.5 -1.5 -1.5 -1.5 -1.5 -1.5 -1.5 -1.5 -1.5 -1.5 -1.5 -1.5 -1.5 -1.5 -1.5 -1.5 -1.5 -1.5 -1.5 -1.5 -1.5 -1.5 -1.5 -1.5 -1.5 -1.5 -1.5 -1.5 -1.5 -1.5 -1.5 -1.5 -1.5 -1.5 -1.5 -1.5 -1.5 -1.5 -1.5 -1.5 -1.5 -1.5 -1.5 -1.5 -1.5 -1.5 -1.5 -1.5 -1.5 -1.5 -1.5 -1.5 -1.5 -1.5 -1.5 -1.5 -1.5 -1.5 -1.5 -1.5 -1.5 -1.5 -1.5
17.3 15.3 13.9 12 11.9 11.9 12.2 12 12.2 12 12.6 12.4 12.6 12.8 13.2 14.7 18.2 21.4 23 22.7 22.4 22.3 22.3 22.2 22 21.6 21.4 10.2 2.1 1.3 0.6 0 -0.6 -1.5 -1.5 -1.5 -1.5 -1.5 -1.5 -1.5 -1.5 -1.5 -1.5 -1.5 -1.5 -1.5 -1.5 -1.5 -1.5 -1.5 -1.5 -1.5 -1.5 -1.5 -1.5 -1.5 -1.5 -1.5 -1.5 -1.5 -1.5 -1.1 -0.5 -0.1 0.4 0.9 1.4 1.8 2.2 4.3 7.7 7.7 8.6 8.7 5.5 1.2 -1.5 -1.5 -1.5 -1.1 -0.7 -0.2 0.2 0.2 0.1 0 -0.1 -0.2 -0.3 -0.4 -0.6 -0.7 -0.5 -0.2 0.1 1.9 7.3 -1.5 -1.5 -1.5 -1.5 -1.5 -1.5 -1.5 -1.5 -1.5 -1.5 -1.5 -1.5 -1.5 -1.5 -1.5 -1.5 -1.5 -1.5 -1.5 -1.5 -1.5 -1.5 -1.5 -1.5 -1.5 -1.5 -1.5 -1.5 -1.5 -1.5 -1.5 -1.5 -1.5 -1.5 -1.5 -1.5 -1.5 -1.5 -1.5 -1.5 -1.5 -1.5 -1.5 -1.5 -1.5 -1.5 -1.5 -1.5 -1.5 -1.5 -1.5 -1.5 -1.5 -1.5 -1.5 -1.5 -1.5 -1.5 -1.5 -1.5 -1.5 -1.5 -1.5 -1.5 -1.5 -1.5 -1.5 -1.5 -1.5 -1.5 -1.5 -1.5 -1.5 -1.5 -1.5 -1.5 -1.5 -1.5 -1.5 -1.5 -1.5 -1.5 -1.5 -1.5 -1.5 -1.5 -1.5 -1.5 -1.5 -1.5 -1.5 -1.5 -1.5 -1.5 -1.5 -1.5 -1.5 -1.5 -1.5 -1.5 -1.5 -1.5 -1.5
21.6 19.3 17.6 15.9 14 12.5 12.8 13 13.2 12.6 12.9 13 13.3 13.4 13.7 15.3 20.8 18.3 22.2 21 21.8 21.8 21.8 21.8 21.6 21.3 21.9 10 2.3 1.6 0.9 0.2 -0.4 -0.9 -1.5 -1.5 -1.5 -1.5 -1.5 -1.5 -1.5 -1.5 -1.5 -1.5 -1.5 -1.5 -1.5 -1.5 -1.5 -1.5 -1.5 -1.5 -1.5 -1.5 -1.5 -1.5 -1.5 -1.5 -1.5 -1.5 -1.5 -1.1 -0.6 -0.1 0.3 0.7 1.1 1.5 1.9 2.3 7.1 7.7 7.6 8.6 9 5.7 1.1 -1.5 -1 -0.5 -0.1 0.4 0.6 0.5 0.4 0.2 0.1 0 -0.1 -0.2 -0.4 -0.2 0.1 0.5 0.8 2 7.7 1 0.1 -0.7 -0.9 -1.5 -1.5 -1.5 -1.5 -1.5 -1.5 -1.5 -1.5 -1.5 -1.5 -1.5 -1.5 -1.5 -1.5 -1.5 -1.5 -1.5 -1.5 -1.5 -1.5 -1.5 -1.5 -1.5 -1.5 -1.5 -1.5 -1.5 -1.5 -1.5 -1.5 -1.5 -1.5 -1.5 -1.5 -1.5 -1.5 -1.5 -1.5 -1.5 -1.5 -1.5 -1.5 -1.5 -1.5 -1.5 -1.5 -1.5 -1.5 -1.5 -1.5 -1.5 -1.5 -1.5 -1.5 -1.5 -1.5 -1.5 -1.5 -1.5 -1.5 -1.5 -1.5 -1.5 -1.5 -1.5 -1.5 -1.5 -1.5 -1.5 -1.5 -1.5 -1.5 -1.5 -1.5 -1.5 -1.5 -1.5 -1.5 -1.5 -1.5 -1.5 -1.5 -1.5 -1.5 -1.5 -1.5 -1.5 -1.5 -1.5 -1.5 -1.5 -1.5 -1.5 -1.5 -1.5 -1.5 -1.5 -1.5 -1.5
25.6 22.8 21.2 19.6 17.4 15.6 13.4 13.4 13.3 13.3 13.3 13.5 13.6 13.9 14.2 15.5 21 21.4 16.7 21.3 21.7 21.3 21.4 21.5 21 21.1 19.3 8.2 4.7 1.7 1.1 0.5 -0.1 -0.6 -1 -1.5 -1.5 -1.5 -1.5 -1.5 -1.5 -1.5 -1.5 -1.5 -1.5 -1.5 -1.5 -1.5 -1.5 -1.5 -1.5 -1.5 -1.5 -1.5 -1.5 -1.5 -1.5 -1.5 -1.5 -1.5 -1.5 -1.1 -0.7 -0.3 0.1 0.5 0.9 1.2 1.6 2 3.2 7.6 7.6 8 9.2 9 4.8 0.9 -0.4 0 0.5 0.9 0.9 0.7 0.6 0.5 0.4 0.3 0.2 0 0.1 0.4 0.8 1.1 1.4 2.1 8.1 1.4 0.5 0.2 -0.3 -0.5 -0.8 -1 -1.3 -1.5 -1.5 -1.5 -1.5 -1.5 -1.5 -1.5 -1.5 -1.5 -1.5 -1.5 -1.5 -1.5 -1.5 -1.5 -1.5 -1.5 -1.5 -1.5 -1.5 -1.5 -1.5 -1.5 -1.5 -1.5 -1.5 -1.5 -1.5 -1.5 -1.5 -1.5 -1.5 -1.5 -1.5 -1.5 -1.5 -1.5 -1.5 -1.5 -1.5 -1.5 -1.5 -1.5 -1.5 -1.5 -1.5 -1.5 -1.5 -1.5 -1.5 -1.5 -1.5 -1.5 -1.5 -1.5 -1.5 -1.5 -1.5 -1.5 -1.5 -1.5 -1.5 -1.5 -1.5 -1.5 -1.5 -1.5 -1.5 -1.5 -1.5 -1.5 -1.5 -1.5 -1.5 -1.5 -1.5 -1.5 -1.5 -1.5 -1.5 -1.5 -1.5 -1.5 -1.5 -1.5 -1.5 -1.5 -1.5 -1.5 -1.5 -1.5 -1.5 -1.5 -1.5 -1.5
27 25.8 24.4 22.5 20.4 19.1 17.5 14.2 14.3 14.1 13.5 13.7 14.1 14.5 14.8 15.2 20.7 21.2 21.1 14.6 20.7 21.1 20.9 21.2 20.5 18.4 14.9 7.8 6.1 1.9 1.3 0.7 0.1 -0.2 -0.6 -0.9 -1.5 -1.5 -1.5 -1.5 -1.5 -1.5 -1.5 -1.5 -1.5 -1.5 -1.5 -1.5 -1.5 -1.5 -1.5 -1.5 -1.5 -1.5 -1.5 -1.5 -1.5 -1.5 -1.5 -1.5 -1.5 -1.3 -0.9 -0.5 -0.1 0.2 0.6 0.9 1.3 1.8 2.2 7.9 7.4 5.6 6.8 9 8.9 2.5 0.9 0.6 1.1 1.3 1.1 1 0.9 0.8 0.7 0.5 0.4 0.4 0.8 1.1 1.4 1.7 2.1 2.3 7.9 1.6 1 0.5 0.2 -0.1 -0.4 -0.6 -0.8 -1.2 -1.5 -1.5 -1.5 -1.5 -1.5 -1.5 -1.5 -1.5 -1.5 -1.5 -1.5 -1.5 -1.5 -1.5 -1.5 -1.5 -1.5 -1.5 -1.5 -1.5 -1.5 -1.5 -1.5 -1.5 -1.5 -1.5 -1.5 -1.5 -1.5 -1.5 -1.5 -1.5 -1.5 -1.5 -1.5 -1.5 -1.5 -1.5 -1.5 -1.5 -1.5 -1.5 -1.5 -1.5 -1.5 -1.5 -1.5 -1.5 -1.5 -1.5 -1.5 -1.5 -1.5 -1.5 -1.5 -1.5 -1.5 -1.5 -1.5 -1.5 -1.5 -1.5 -1.5 -1.5 -1.5 -1.5 -1.5 -1.5 -1.5 -1.5 -1.5 -1.5 -1.5 -1.5 -1.5 -1.5 -1.5 -1.5 -1.5 -1.5 -1.5 -1.5 -1.5 -1.5 -1.5 -1.5 -1.5 -1.5 -1.5 -1.5 -1.5 -1.5 -1.5 -1.5
30 28.4 26.3 24.6 23.6 22.3 21.2 17.8 15.2 14.8 14.4 14.5 15.2 15.2 15 14.8 17.9 20.6 21.1 20.2 14.5 18.7 21.6 21 18.2 15.2 11.6 6.9 7.1 2 1.4 0.9 0.5 0.1 -0.3 -0.8 -1.2 -1.5 -1.5 -1.5 -1.5 -1.5 -1.5 -1.5 -1.5 -1.5 -1.5 -1.5 -1.5 -1.5 -1.5 -1.5 -1.5 -1.5 -1.5 -1.5 -1.5 -1.5 -1.5 -1.5 -1.5 -1.5 -1.2 -0.8 -0.4 -0.1 0.2 0.6 1.1 1.5 2 6.3 7.3 6.1 5.9 5.9 8.4 8.1 2.2 1.2 1.6 1.6 1.4 1.3 1.1 1 0.9 0.8 0.8 1.1 1.4 1.7 2 2.3 2.3 2.3 7.9 1.8 1.3 1 0.7 0.4 0.1 -0.1 -0.4 -0.7 -0.9 -0.8 -0.7 -0.7 -0.8 -0.9 -1 -1.5 -1.5 -1.5 -1.5 -1.5 -1.5 -1.5 -1.5 -1.5 -1.5 -1.5 -1.5 -1.5 -1.5 -1.5 -1.5 -1.5 -1.5 -1.5 -1.5 -1.5 -1.5 -1.5 -1.5 -1.5 -1.5 -1.5 -1.5 -1.5 -1.5 -1.5 -1.5 -1.5 -1.5 -1.5 -1.5 -1.5 -1.5 -1.5 -1.5 -1.5 -1.5 -1.5 -1.5 -1.5 -1.5 -1.5 -1.5 -1.5 -1.5 -1.5 -1.5 -1.5 -1.5 -1.5 -1.5 -1.5 -1.5 -1.5 -1.5 -1.5 -1.5 -1.5 -1.5 -1.5 -1.5 -1.5 -1.5 -1.5 -1.5 -1.5 -1.5 -1.5 -1.5 -1.5 -1.5 -1.5 -1.5 -1.5 -1.5 -1.5 -1.5 -1.5 -1.5 -1.5 -1.5 -1.5
34.7 33 29.9 26.5 26 25 23.4 20.6 14.3 15.2 14.8 15.9 15.9 15.8 15.7 15.5 18.3 20.6 21.4 23 23.1 14.2 19.3 18.9 16 13.1 10 6.5 7.4 2.2 1.7 1.1 0.8 0.3 -0.2 -0.7 -1.1 -1.5 -1.5 -1.5 -1.5 -1.5 -1.5 -1.5 -1.5 -1.5 -1.5 -1.5 -1.5 -1.5 -1.5 -1.5 -1.5 -1.5 -1.5 -1.5 -1.5 -1.5 -1.5 -1.5 -1.5 -1.5 -1.5 -1.1 -0.8 -0.5 -0.1 0.4 0.8 1.2 1.8 4.3 5.8 5.9 5.6 4.9 5.6 9.1 7.8 2.3 2 1.9 1.7 1.6 1.4 1.3 1.2 1.1 1.4 1.7 2 2.3 2.3 2.3 2.3 2.3 8.1 2 1.8 1.5 1.2 0.9 0.6 0.3 0.1 -0.3 -0.2 -0.1 0 0 -0.1 -0.2 -0.4 -0.5 -0.6 -0.8 -1 -1.5 -1.5 -1.5 -1.5 -1.5 -1.5 -1.5 -1.5 -1.5 -1.5 -1.5 -1.5 -1.5 -1.5 -1.5 -1.5 -1.5 -1.5 -1.5 -1.5 -1.5 -1.5 -1.5 -1.5 -1.5 -1.5 -1.5 -1.5 -1.5 -1.5 -1.5 -1.5 -1.5 -1.5 -1.5 -1.5 -1.5 -1.5 -1.5 -1.5 -1.5 -1.5 -1.5 -1.5 -1.5 -1.5 -1.5 -1.5 -1.5 -1.5 -1.5 -1.5 -1.5 -1.5 -1.5 -1.5 -1.5 -1.5 -1.5 -1.5 -1.5 -1.5 -1.5 -1.5 -1.5 -1.5 -1.5 -1.5 -1.5 -1.5 -1.5 -1.5 -1.5 -1.5 -1.5 -1.5 -1.5 -1.5 -1.5 -1.5 -1.5 -1.5 -1.5
36.5 35.1 32.2 29 27.9 26.2 22 16.4 17.5 16.3 16.3 16.5 16.5 16.4 16.3 16.1 18.7 22.3 23.4 24.6 25 21.4 15.1 18 14.4 11.8 8 6.5 7 3.5 1.8 1.4 0.9 0.4 -0.1 -0.5 -1 -1.5 -1.5 -1.5 -1.5 -1.5 -1.5 -1.5 -1.5 -1.5 -1.5 -1.5 -1.5 -1.5 -1.5 -1.5 -1.5 -1.5 -1.5 -1.5 -1.5 -1.5 -1.5 -1.5 -1.5 -1.5 -1.5 -1.5 -1.1 -0.8 -0.4 -0.1 0.3 0.7 1.3 2.6 3 3.2 3 2.3 3 6.8 8.3 8.7 3.8 2.1 2 1.8 1.6 1.5 1.4 1.7 2 2.3 2.3 2.3 2.3 2.3 2.3 2.3 8 2.3 2.2 1.9 1.6 1.4 1.1 0.8 0.5 0.4 0.4 0.6 0.7 0.7 0.6 0.4 0.2 0.1 -0.1 -0.3 -0.5 -0.8 -1.1 -1.3 -1.5 -1.5 -1.5 -1.5 -1.5 -1.5 -1.5 -1.5 -1.5 -1.5 -1.5 -1.5 -1.5 -1.5 -1.5 -1.5 -1.5 -1.5 -1.5 -1.5 -1.5 -1.5 -1.5 -1.5 -1.5 -1.5 -1.5 -1.5 -1.5 -1.5 -1.5 -1.5 -1.5 -1.5 -1.5 -1.5 -1.5 -1.5 -1.5 -1.5 -1.5 -1.5 -1.5 -1.5 -1.5 -1.5 -1.5 -1.5 -1.5 -1.5 -1.5 -1.5 -1.5 -1.5 -1.5 -1.5 -1.5 -1.5 -1.5 -1.5 -1.5 -1.5 -1.5 -1.5 -1.5 -1.5 -1.5 -1.5 -1.5 -1.5 -1.5 -1.5 -1.5 -1.5 -1.5 -1.5 -1.5 -1.5 -1.5 -1.5
36.1 34.5 32.2 29.1 27.1 24.6 19.7 17.1 17.7 17.8 17.2 17 16.9 16.9 16.9 20.4 23.2 22.7 22.5 22.7 23.2 20.5 18 16.3 14.1 11.8 7.8 7.1 7.4 5.9 1.9 1.5 1 0.5 0 -0.4 -0.9 -1.4 -1.5 -1.5 -1.5 -1.5 -1.5 -1.5 -1.5 -1.5 -1.5 -1.5 -1.5 -1.5 -1.5 -1.5 -1.5 -1.5 -1.5 -1.5 -1.5 -1.5 -1.5 -1.5 -1.5 -1.5 -1.5 -1.5 -1.5 -1.5 -0.9 -0.5 -0.4 -0.1 0.3 -1.5 -1.5 -1.3 -1.5 0.5 1.6 5.3 7.8 8.9 8.7 6.4 2.2 2 1.9 1.8 2 2.3 2.3 2.3 2.3 2.3 2.3 2.3 2.3 2.3 8.4 2.3 2.3 2.3 2.1 1.8 1.5 1.2 1 1 1 1.2 1.4 1.4 1.2 1 0.8 0.6 0.4 0.1 -0.2 -0.5 -0.8 -1 -1.3 -1.5 -1.5 -1.5 -1.5 -1.5 -1.5 -1.5 -1.5 -1.5 -1.5 -1.5 -1.5 -1.5 -1.5 -1.5 -1.5 -1.5 -1.5 -1.5 -1.5 -1.5 -1.5 -1.5 -1.5 -1.5 -1.5 -1.5 -1.5 -1.5 -1.5 -1.5 -1.5 -1.5 -1.5 -1.5 -1.5 -1.5 -1.5 -1.5 -1.5 -1.5 -1.5 -1.5 -1.5 -1.5 -1.5 -1.5 -1.5 -1.5 -1.5 -1.5 -1.5 -1.5 -1.5 -1.5 -1.5 -1.5 -1.5 -1.5 -1.5 -1.5 -1.5 -1.5 -1.5 -1.5 -1.5 -1.5 -1.5 -1.5 -1.5 -1.5 -1.5 -1.5 -1.5 -1.5 -1.5 -1.5 -1.5 -1.5
31.9 31.5 29.8 27.7 24.4 20.5 19.9 18.5 18.2 18.5 18.2 17.8 17.4 17.3 21.3 23.3 23.3 22.5 21.8 21.5 21.4 19 16.7 14.9 13.7 11.4 7.6 7 7.3 7.3 2.1 1.6 1.1 0.6 0.1 -0.4 -0.8 -1.5 -1.5 -1.5 -1.5 -1.5 -1.5 -1.5 -1.5 -1.5 -1.5 -1.5 -1.5 -1.5 -1.5 -1.5 -1.5 -1.5 -1.5 -1.5 -1.5 -1.5 -1.5 -1.5 -1.5 -1.5 -1.5 -1.5 -1.5 -1.5 -1.5 -1.5 -1.4 -1.5 -1.5 -1.5 -1.5 -1.5 -1.5 -0.7 0.9 3.1 7.6 7.9 8.8 8.7 8.3 3.5 2.1 2.3 2.3 2.3 2.3 2.3 2.3 2.3 2.3 2.3 2.3 2.3 8.4 2.3 2.3 2.3 2.3 2.3 2 1.7 1.4 1.6 1.6 1.9 2.1 2 1.7 1.5 1.2 0.9 0.7 0.4 0.1 -0.2 -0.5 -0.8 -1 -1.3 -1.5 -1.5 -1.5 -1.5 -1.5 -1.5 -1.5 -1.5 -1.5 -1.5 -1.5 -1.5 -1.5 -1.5 -1.5 -1.5 -1.5 -1.5 -1.5 -1.5 -1.5 -1.5 -1.5 -1.5 -1.5 -1.5 -1.5 -1.5 -1.5 -1.5 -1.5 -1.5 -1.5 -1.5 -1.5 -1.5 -1.5 -1.5 -1.5 -1.5 -1.5 -1.5 -1.5 -1.5 -1.5 -1.5 -1.5 -1.5 -1.5 -1.5 -1.5 -1.5 -1.5 -1.5 -1.5 -1.5 -1.5 -1.5 -1.5 -1.5 -1.5 -1.5 -1.5 -1.5 -1.5 -1.5 -1.5 -1.5 -1.5 -1.5 -1.5 -1.5 -1.5 -1.5 -1.5 -1.5 -1.5 -1.5
29.1 27.5 26 24.1 21.6 19.8 19.6 17.9 19 19.3 19.1 18.6 18.8 21.3 23.4 23.8 23.1 22.4 21.6 20.9 20.3 17.7 15.8 14.6 12.7 10.8 9.4 6.8 6.9 7.5 2.5 1.8 1.3 0.7 0.1 -0.6 -1.2 -1.5 -1.5 -1.5 -1.5 -1.5 -1.5 -1.5 -1.5 -1.5 -1.5 -1.5 -1.5 -1.5 -1.5 -1.5 -1.5 -1.5 -1.5 -1.5 -1.5 -1.5 -1.5 -1.5 -1.5 -1.5 -1.5 -1.5 -1.5 -1.5 -1.5 -1.5 -1.5 -1.5 -1.5 -1.5 -1.5 -1.5 -1.5 -1.5 0.1 1.6 5.1 7.6 8.1 9 9.1 9 5.3 2.3 2.3 2.3 2.3 2.3 2.3 2.3 2.3 2.3 2.3 2.3 8.2 2.3 2.3 2.3 2.3 2.3 2.3 2.2 2 2.2 2.3 2.5 2.9 3 2.1 1.8 1.5 1.2 1 0.7 0.4 0.1 -0.2 -0.5 -0.7 -1 -1.3 -1.5 -1.5 -1.5 -1.5 -1.5 -1.5 -1.5 -1.5 -1.5 -1.5 -1.5 -1.5 -1.5 -1.5 -1.5 -1.5 -1.5 -1.5 -1.5 -1.5 -1.5 -1.5 -1.5 -1.5 -1.5 -1.5 -1.5 -1.5 -1.5 -1.5 -1.5 -1.5 -1.5 -1.5 -1.5 -1.5 -1.5 -1.5 -1.5 -1.5 -1.5 -1.5 -1.5 -1.5 -1.5 -1.5 -1.5 -1.5 -1.5 -1.5 -1.5 -1.5 -1.5 -1.5 -1.5 -1.5 -1.5 -1.5 -1.5 -1.5 -1.5 -1.5 -1.5 -1.5 -1.5 -1.5 -1.5 -1.5 -1.5 -1.5 -1.5 -1.5 -1.5 -1.5 -1.5 -1.5 -1.5
27.2 25 23.5 22.5 21.6 20.7 20.8 20.1 20.3 20.1 20.3 20.7 22.9 22.9 23.5 23.5 22.9 22.2 21.5 20.7 19.4 17 15.8 13 10.9 11.7 11.9 7.7 6.8 7.2 5.2 1.6 0.9 0.3 -0.4 -1 -1.5 -1.5 -1.5 -1.5 -1.4 -1.2 -1.1 -1.1 -1.5 -1.5 -1.5 -1.5 -1.5 -1.5 -1.5 -1.5 -1.5 -1.5 -1.5 -1.5 -1.5 -1.5 -1.5 -1.5 -1.5 -1.5 -1.5 -1.5 -1.5 -1.5 -1.5 -1.5 -1.5 -1.5 -1.5 -1.5 -1.5 -1.5 -1.5 -1.5 -1.5 0.7 2.2 6.7 7.6 8.5 9.3 9.1 9 6.6 2.3 2.3 2.3 2.3 2.3 2.3 2.3 2.3 2.3 2.3 8 2.3 2.3 2.3 2.3 2.3 2.3 2.6 3.7 3.5 3.3 3.2 2.9 2.2 2 1.7 1.4 1.2 0.9 0.6 0.4 0.1 -0.1 -0.4 -0.6 -0.9 -1.2 -1.5 -1.5 -1.5 -1.5 -1.5 -1.5 -1.5 -1.5 -1.5 -1.5 -1.5 -1.5 -1.5 -1.5 -1.5 -1.5 -1.5 -1.5 -1.5 -1.5 -1.5 -1.5 -1.5 -1.5 -1.5 -1.5 -1.5 -1.5 -1.5 -1.5 -1.5 -1.5 -1.5 -1.5 -1.5 -1.5 -1.5 -1.5 -1.5 -1.5 -1.5 -1.5 -1.5 -1.5 -1.5 -1.5 -1.5 -1.5 -1.5 -1.5 -1.5 -1.5 -1.5 -1.5 -1.5 -1.5 -1.5 -1.5 -1.5 -1.5 -1.5 -1.5 -1.5 -1.5 -1.5 -1.5 -1.5 -1.5 -1.5 -1.5 -1.5 -1.5 -1.5 -1.5 -1.5 -1.5 -1.5
26.1 24.7 23.1 22.3 21.6 22.8 24.1 23.2 22.8 22.2 21.8 21.9 23.2 23.2 23.3 23.3 22.6 21.9 21.3 20.2 18.6 17.2 16.6 15.8 13.4 12.5 11.9 8.8 7.3 7.3 7.1 1.9 0.8 -0.2 -0.8 -1.5 -1.5 -1.5 -1.5 -0.9 -0.7 -0.5 -0.4 -0.6 -1 -0.9 -0.8 -0.9 -1 -1.5 -1.5 -1.5 -1.5 -1.5 -1.5 -1.5 -1.5 -1.5 -1.5 -1.5 -1.5 -1.5 -1.5 -1.5 -1.5 -1.5 -1.5 -1.5 -1.5 -1.5 -1.5 -1.5 -1.5 -1.5 -1.5 -1.5 -1.5 -0.3 1.3 4 7.4 7.7 8 9.2 9.3 9.2 6.6 2.3 2.3 2.3 2.3 2.3 2.3 2.3 2.3 2.3 7.6 2.3 2.3 2.3 2.3 2.3 2.8 3.2 3 3 2.9 2.4 2.3 2.3 2 1.8 1.5 1.3 1 0.8 0.5 0.2 0 -0.3 -0.5 -0.8 -1 -1.2 -1.5 -1.5 -1.5 -1.5 -1.5 -1.5 -1.5 -1.5 -1.5 -1.5 -1.5 -1.5 -1.5 -1.5 -1.5 -1.5 -1.5 -1.5 -1.5 -1.5 -1.5 -1.5 -1.5 -1.5 -1.5 -1.5 -1.5 -1.5 -1.5 -1.5 -1.5 -1.5 -1.5 -1.5 -1.5 -1.5 -1.5 -1.5 -1.5 -1.5 -1.5 -1.5 -1.5 -1.5 -1.5 -1.5 -1.5 -1.5 -1.5 -1.5 -1.5 -1.5 -1.5 -1.5 -1.5 -1.5 -1.5 -1.5 -1.5 -1.5 -1.5 -1.5 -1.5 -1.5 -1.5 -1.5 -1.5 -1.5 -1.5 -1.5 -1.5 -1.5 -1.5 -1.5 -1.5 -1.5
25.1 24.2 22.7 23.4 25.2 24.5 24.1 23.5 23.1 22.9 22.6 21.7 22.7 23 23.2 23 22.2 21.5 21 20 18.4 17.6 16.7 15.9 14.8 14 12.8 10.6 7.7 7.3 7.4 3.4 1 -0.4 -1.5 -1.5 -0.6 -0.4 -0.1 -0.1 0 0.1 0.3 -0.1 -0.2 -0.1 0.1 0 -0.1 -0.6 -1.5 -1.5 -1.5 -1.5 -1.5 -1.5 -1.5 -1.5 -1.5 -1.5 -1.5 -1.5 -1.5 -1.5 -1.5 -1.5 -1.5 -1.5 -1.5 -1.5 -1.5 -1.5 -1.5 -1.5 -1.5 -1.5 -1.5 -1.5 0.3 1.9 5.8 6.9 6.2 7.3 8.7 8.4 8 6 2.3 2.3 2.3 2.3 2.3 2.3 2.3 2.3 5.8 2.3 2.3 2.3 3.3 2.8 2.8 3 2.7 2.5 2.4 2.3 2.3 2.3 2.2 1.9 1.7 1.4 1.1 0.9 0.6 0.4 0.1 -0.1 -0.4 -0.6 -0.8 -1 -1.1 -1.3 -1.5 -1.5 -1.5 -1.5 -1.5 -1.5 -1.5 -1.5 -1.5 -1.5 -1.5 -1.5 -1.5 -1.5 -1.5 -1.5 -1.5 -1.5 -1.5 -1.5 -1.5 -1.5 -1.5 -1.5 -1.5 -1.5 -1.5 -1.5 -1.5 -1.5 -1.5 -1.5 -1.5 -1.5 -1.5 -1.5 -1.5 -1.5 -1.5 -1.5 -1.5 -1.5 -1.5 -1.5 -1.5 -1.5 -1.5 -1.5 -1.5 -1.5 -1.5 -1.5 -1.5 -1.5 -1.5 -1.5 -1.5 -1.5 -1.5 -1.5 -1.5 -1.5 -1.5 -1.5 -1.5 -1.5 -1.5 -1.5 -1.5 -1.5 -1.5 -1.5 -1.5 -1.5
26.7 25.4 24.9 26 25.4 24.7 24.1 23.6 23.1 23 23 21.9 21.2 22.7 22.7 22.8 22 21.2 21 19.8 18.7 18 17.1 16.2 15.3 14.5 13.9 12.9 8 7 8.5 5.2 1.4 -0.1 -1.5 1.1 0.9 0.8 0.9 0.7 0.7 0.8 0.8 0.6 0.6 0.6 0.9 0.9 0.7 0.1 -1.4 -1.5 -1.5 -1.5 -1.5 -1.5 -1.5 -1.5 -1.5 -1.5 -1.5 -1.5 -1.5 -1.5 -1.5 -1.5 -1.5 -1.5 -1.5 -1.5 -1.5 -1.5 -1.5 -1.5 -1.5 -1.5 -1.5 -1.5 -1.5 0.9 2.9 4.3 4.6 4.7 6.9 7.8 6 8.9 7.6 3.5 2.3 2.3 2.3 2.3 2.3 2.3 3.6 2.6 3.8 3.6 3.6 3.2 3 3 2.6 2.3 2.3 2.3 2.3 2.3 2.3 2 1.8 1.5 1.3 1 0.7 0.5 0.2 0 -0.3 -0.4 -0.6 -0.7 -0.9 -1 -1.2 -1.5 -1.5 -1.5 -1.5 -1.5 -1.5 -1.5 -1.5 -1.5 -1.5 -1.5 -1.5 -1.5 -1.5 -1.5 -1.5 -1.5 -1.5 -1.5 -1.5 -1.5 -1.5 -1.5 -1.5 -1.5 -1.5 -1.5 -1.5 -1.5 -1.5 -1.5 -1.5 -1.5 -1.5 -1.5 -1.5 -1.5 -1.5 -1.5 -1.5 -1.5 -1.5 -1.5 -1.5 -1.5 -1.5 -1.5 -1.5 -1.5 -1.5 -1.5 -1.5 -1.5 -1.5 -1.5 -1.5 -1.5 -1.5 -1.5 -1.5 -1.5 -1.5 -1.5 -1.5 -1.5 -1.5 -1.5 -1.5 -1.5 -1.5 -1.5 -1.5 -1.5
30.3 28.2 27.7 26.8 27.1 26.4 25.4 23.7 23.2 22.9 23.3 23.2 23.2 23.3 22.9 22.5 22.3 21.4 21 19.8 19.1 18.5 17.6 16.7 15.9 14.9 14.4 13.8 10.3 7.3 7.7 8 2.9 2.4 -1.5 2.7 2.5 2 1.9 1.6 1.5 1.5 1.4 1.4 1.4 1.4 1.6 1.8 1.6 0.1 -1.5 -1.5 -1.5 -1.5 -1.5 -1.5 -1.5 -1.5 -1.5 -1.5 -1.5 -1.5 -1.5 -1.5 -1.5 -1.5 -1.5 -1.5 -1.5 -1.5 -1.5 -1.5 -1.5 -1.5 -1.5 -1.5 -1.5 -1.5 -1.5 0.1 1.4 2.4 2.3 2 4.7 7.4 5.1 4.5 8.7 7.6 4.7 2.3 2.3 2.3 2.3 2.3 3.5 6.2 3.5 3.4 3.3 3.1 3.1 3 2.4 2.3 2.3 2.3 2.3 2.3 2.3 2.2 1.9 1.6 1.4 1.1 0.9 0.6 0.4 0.1 0 -0.1 -0.3 -0.5 -0.6 -0.8 -1 -1.2 -1.3 -1.5 -1.5 -1.5 -1.5 -1.5 -1.5 -1.5 -1.5 -1.5 -1.5 -1.5 -1.5 -1.5 -1.5 -1.5 -1.5 -1.5 -1.5 -1.5 -1.5 -1.5 -1.5 -1.5 -1.5 -1.5 -1.5 -1.5 -1.5 -1.5 -1.5 -1.5 -1.5 -1.5 -1.5 -1.5 -1.5 -1.5 -1.5 -1.5 -1.5 -1.5 -1.5 -1.5 -1.5 -1.5 -1.5 -1.5 -1.5 -1.5 -1.5 -1.5 -1.5 -1.5 -1.5 -1.5 -1.5 -1.5 -1.5 -1.5 -1.5 -1.5 -1.5 -1.5 -1.5 -1.5 -1.5 -1.5 -1.5 -1.5 -1.5 -1.5
36 31.7 33.5 32.7 31.3 29.3 26.2 24.9 24 23.4 23.2 23.4 23.9 23.9 23.3 22.9 22.5 21.7 21 20.2 19.5 18.9 18 17.5 16.7 15.5 14.5 14.1 12.5 7.3 7.1 5.9 4.5 -1.5 3 3.4 3.4 3.2 3 2.6 2.3 2.2 2.2 2.2 2.2 2.3 2.3 2.3 1.8 -1.5 -1.5 -1.5 -1.5 -1.5 -1.5 -1.5 -1.5 -1.5 -1.5 -1.5 -1.5 -1.5 -1.5 -1.5 -1.5 -1.5 -1.5 -1.5 -1.5 -1.5 -1.5 -1.5 -1.5 -1.5 -1.5 -1.5 -1.5 -1.5 -1.5 -0.3 0.9 1.5 1.8 2 2.2 4.1 5.7 4.7 4.1 6.9 8.6 5.9 4.7 3.5 4.4 4.7 5.1 10.6 3.9 3.9 3.5 3.2 3 2.7 2.3 2.3 2.3 2.3 2.3 2.3 2.3 2.3 2 1.8 1.5 1.2 1 0.7 0.5 0.3 0.2 0 -0.1 -0.2 -0.4 -0.5 -0.7 -0.9 -1 -1.1 -1.5 -1.5 -1.5 -1.5 -1.5 -1.5 -1.5 -1.5 -1.5 -1.5 -1.5 -1.5 -1.5 -1.5 -1.5 -1.5 -1.5 -1.5 -1.5 -1.5 -1.5 -1.5 -1.5 -1.5 -1.5 -1.5 -1.5 -1.5 -1.5 -1.5 -1.5 -1.5 -1.5 -1.5 -1.5 -1.5 -1.5 -1.5 -1.5 -1.5 -1.5 -1.5 -1.5 -1.5 -1.5 -1.5 -1.5 -1.5 -1.5 -1.5 -1.5 -1.5 -1.5 -1.5 -1.5 -1.5 -1.5 -1.5 -1.5 -1.5 -1.5 -1.5 -1.5 -1.5 -1.5 -1.5 -1.5 -1.5 -1.5 -1.5
36.4 37.6 37.6 36.8 33.6 30.7 30.7 29.2 27 26.2 25.6 24.3 24.6 24.8 24 23.3 22.7 22 21.3 20.6 20 19.3 18.8 18.3 17.8 16.6 15.6 14.6 12.2 7.3 7.3 7.3 4.4 3.1 3.6 3.5 3.5 3.6 3.5 3.2 3.4 3.2 3 2.9 2.9 2.8 2.8 2.4 -1.5 -1.5 -1.5 -1.5 -1.5 -1.5 -1.5 -1.5 -1.5 -1.5 -1.5 -1.5 -1.5 -1.5 -1.5 -1.5 -1.5 -1.5 -1.5 -1.5 -1.5 -1.5 -1.5 -1.5 -1.5 -1.5 -1.5 -1.5 -1.5 -1.5 -1.5 -0.6 0.2 0.8 1 1.2 1.8 2.3 3.4 5.5 5.3 4.9 8.6 8.8 7.8 5.9 5.2 6 6.3 6.7 5.8 4.4 3.7 3.4 3.6 3.2 2.6 2.3 2.3 2.3 2.3 2.3 2.3 2.3 2.1 1.9 1.6 1.4 1.1 0.9 0.6 0.6 0.5 0.3 0.2 0.1 -0.1 -0.3 -0.4 -0.5 -0.7 -0.8 -1 -1.2 -1.5 -1.5 -1.5 -1.5 -1.5 -1.5 -1.5 -1.5 -1.5 -1.5 -1.5 -1.5 -1.5 -1.5 -1.5 -1.5 -1.5 -1.5 -1.5 -1.5 -1.5 -1.5 -1.5 -1.5 -1.5 -1.5 -1.5 -1.5 -1.5 -1.5 -1.5 -1.5 -1.5 -1.5 -1.5 -1.5 -1.5 -1.5 -1.5 -1.5 -1.5 -1.5 -1.5 -1.5 -1.5 -1.5 -1.5 -1.5 -1.5 -1.5 -1.5 -1.5 -1.5 -1.5 -1.5 -1.5 -1.5 -1.5 -1.5 -1.5 -1.5 -1.5 -1.5 -1.5 -1.5 -1.5 -1.5 -1.4
42.5 41.9 41.6 41 38.5 36.6 35.7 34.5 32.8 31.4 29.3 28.3 27.4 26.2 24.9 24.3 23.7 23.1 22.1 21.1 20.6 20.2 19.6 19 18.5 17.6 16.1 14.7 10.4 7.6 7 6.9 3.8 3.4 3.9 6.2 4.1 4.4 4.1 3.9 4.2 4 3.8 3.6 3.5 3.5 3.6 3 -1.5 -1.5 -1.5 -1.5 -1.5 -1.5 -1.5 -1.5 -1.5 -1.5 -1.5 -1.5 -1.5 -1.5 -1.5 -1.5 -1.5 -1.5 -1.5 -1.5 -1.5 -1.5 -1.5 -1.5 -1.5 -1.5 -1.5 -1.5 -1.5 -1.5 -1.5 -1.5 -0.4 0 0.3 0.9 1.5 2.1 2.5 4.9 7.5 7.9 8.4 8.8 9.3 8.6 8.3 7.1 5.8 6 10.2 5.9 5.2 5.5 5.3 6.2 5.6 3.8 2.3 2.3 2.3 2.3 2.3 2.3 2.3 2 1.7 1.5 1.2 1 0.9 0.8 0.7 0.6 0.5 0.3 0.2 0 -0.1 -0.2 -0.4 -0.5 -0.7 -0.9 -1.1 -1.3 -1.5 -1.5 -1.5 -1.5 -1.5 -1.5 -1.5 -1.5 -1.5 -1.5 -1.5 -1.5 -1.5 -1.5 -1.5 -1.5 -1.5 -1.5 -1.5 -1.5 -1.5 -1.5 -1.5 -1.5 -1.5 -1.5 -1.5 -1.5 -1.5 -1.5 -1.5 -1.5 -1.5 -1.5 -1.5 -1.5 -1.5 -1.5 -1.5 -1.5 -1.5 -1.5 -1.5 -1.5 -1.5 -1.5 -1.5 -1.5 -1.5 -1.5 -1.5 -1.5 -1.5 -1.5 -1.5 -1.5 -1.5 -1.5 -1.5 -1.5 -1.5 -1.5 -1.5 -1.4 -1.3 -1.2
49 49.1 47.2 45.7 44.4 44 44.2 43.2 41.9 39.9 38.3 36.3 34.3 31.6 30.1 28.5 26.1 24.2 23.3 22.3 21.5 21 20.5 20 19.6 18.3 16.7 13.3 12.5 8 7.2 7.3 6.1 4.1 4 4.7 4.9 5.3 5 4.7 5 4.7 4.5 4.4 4.3 4.2 3.6 3.3 2.8 2.3 -1.5 -1.5 -0.6 -0.8 -1.1 -1.4 -1.5 -1.5 -1.5 -1.5 -1.5 -1.5 -1.5 -1.5 -1.5 -1.5 -1.5 -1.5 -1.5 -1.5 -1.5 -1.5 -1.5 -1.5 -1.5 -1.5 -1.5 -1.5 -1.5 -1.5 -1.5 -0.6 0 0.7 1.3 1.9 2.3 3.7 7.7 7.9 8.1 8.2 8.6 9.2 8.8 8.7 8.4 8 10.1 7.5 8 8.1 8 8.2 8.4 8.3 6.4 2.3 2.3 2.3 2.3 2.3 2.3 2.1 1.9 1.6 1.4 1.2 1.2 1.1 0.9 0.8 0.7 0.6 0.4 0.3 0.2 0.1 -0.1 -0.3 -0.5 -0.6 -0.8 -1.1 -1.3 -1.5 -1.5 -1.5 -1.5 -1.5 -1.5 -1.5 -1.5 -1.5 -1.5 -1.5 -1.5 -1.5 -1.5 -1.5 -1.5 -1.5 -1.5 -1.5 -1.5 -1.5 -1.5 -1.5 -1.5 -1.5 -1.5 -1.5 -1.5 -1.5 -1.5 -1.5 -1.5 -1.5 -1.5 -1.5 -1.5 -1.5 -1.5 -1.5 -1.5 -1.5 -1.5 -1.5 -1.5 -1.5 -1.5 -1.5 -1.5 -1.5 -1.5 -1.5 -1.5 -1.5 -1.5 -1.5 -1.5 -1.5 -1.5 -1.5 -1.5 -1.5 -1.4 -1.3 -1.2 -1.1
56.1 53.8 51.7 51.8 53 53.9 54.2 53.6 52.4 50.7 46.4 43.6 41.2 39.3 37.5 35.1 32.2 30.2 28 25 23.7 22.4 21.7 21.3 20.7 19.2 16.5 15.7 12.6 8.8 13.6 11.9 8.1 4.9 4.2 4.8 5.3 5.6 5.9 5.5 5.6 5.2 5.1 5 4.8 4.8 4.3 3.5 3 2.6 2.3 0.8 0.3 0 -0.3 -0.5 -0.8 -1.1 -1.3 -1.5 -1.5 -1.5 -1.5 -1.5 -1.5 -1.5 -1.5 -1.5 -1.5 -1.5 -1.5 -1.5 -1.5 -1.5 -1.5 -1.5 -1.5 -1.5 -1.5 -1.5 -1.5 -0.7 -0.1 0.5 1.1 1.8 2.3 3.4 5.7 7.6 8 8.1 8.2 8.4 9.2 9.1 8.9 8.8 7.9 9.3 7.8 8.4 8.3 8.3 8.5 8.6 8.9 6.8 2.7 2.3 2.3 2.3 2.3 2.2 2 1.7 1.5 1.5 1.5 1.3 1.2 1.1 1 0.9 0.7 0.6 0.5 0.4 0.2 0 -0.2 -0.3 -0.5 -0.8 -1.1 -1.3 -1.5 -1.5 -1.5 -1.5 -1.5 -1.5 -1.5 -1.5 -1.5 -1.5 -1.5 -1.5 -1.5 -1.5 -1.5 -1.5 -1.5 -1.5 -1.5 -1.5 -1.5 -1.5 -1.5 -1.5 -1.5 -1.5 -1.5 -1.5 -1.5 -1.5 -1.5 -1.5 -1.5 -1.5 -1.5 -1.5 -1.5 -1.5 -1.5 -1.5 -1.5 -1.5 -1.5 -1.5 -1.5 -1.5 -1.5 -1.5 -1.5 -1.5 -1.5 -1.5 -1.5 -1.5 -1.5 -1.5 -1.5 -1.5 -1.5 -1.4 -1.3 -1.2 -1.1 -1
62.8 61.5 61.3 61.9 62.1 62.5 62.4 62.4 60.8 57.4 53.1 45.4 47.3 45.6 44.1 41.5 39 37.2 34.7 32.2 29.9 27.5 25 23 22 19.9 18.9 16.8 12.8 12.9 16.5 14.9 10.1 6.1 4.9 5.4 6 6.5 6.7 6.9 6.7 5.8 5.7 5.6 5.4 6 4.7 3.2 2.8 2.5 2.3 1.6 1.1 0.8 0.5 0.3 0 -0.5 -1 -1.5 -1.5 -1.5 -1.5 -1.5 -1.5 -1.5 -1.5 -1.5 -1.5 -1.5 -1.5 -1.5 -1.5 -1.5 -1.5 -1.5 -1.4 -1.3 -1.1 -1.5 -1.5 -1 -0.3 0.4 1.1 1.7 2.3 3.3 4.4 7 7.9 7.9 7.8 7.7 7.8 9.3 9.3 8.8 7.8 7.7 6.7 8.7 8.4 8.7 8.6 8.3 7.8 8.3 7.8 4.5 2.3 2.3 2.3 2.3 2.1 1.9 1.8 1.8 1.7 1.6 1.5 1.4 1.3 1.1 1 0.9 0.8 0.7 0.5 0.3 0.1 0 -0.2 -0.5 -0.8 -1 -1.2 -1.5 -1.5 -1.5 -1.5 -1.5 -1.5 -1.5 -1.5 -1.5 -1.5 -1.5 -1.5 -1.5 -1.5 -1.5 -1.5 -1.5 -1.5 -1.5 -1.5 -1.5 -1.5 -1.5 -1.5 -1.5 -1.5 -1.5 -1.5 -1.5 -1.5 -1.5 -1.5 -1.5 -1.5 -1.5 -1.5 -1.5 -1.5 -1.5 -1.5 -1.5 -1.5 -1.5 -1.5 -1.5 -1.5 -1.5 -1.5 -1.5 -1.5 -1.5 -1.5 -1.5 -1.5 -1.5 -1.5 -1.5 -1.4 -1.3 -1.2 -1.1 -0.9 -0.8
67.5 67.6 68.2 68.2 68.2 67.9 67.5 67.2 65.3 62.1 57.1 54.6 52.5 50.7 48.4 46 44 42.1 40 38.2 36.8 34.8 32.9 29.3 25.7 25.5 24.1 21 17.9 12.2 21.9 20.9 15 9 5.7 6.4 7 7.3 7.7 7.8 7.4 7 7 6.5 5.9 6.1 4.8 3.6 2.5 2.3 2.3 2.4 1.9 1.6 1.1 0.6 0.1 -0.5 -1 -1.5 -1.5 -1.5 -1.5 -1.5 -1.5 -1.5 -1.5 -1.5 -1.5 -1.5 -1.5 -1.5 -1.4 -1.2 -1.1 -1 -0.8 -0.7 -0.8 -1.5 -1.5 -1.4 -0.7 0 0.7 1.4 2.3 3 4 6.1 7.6 7.4 7.3 7.1 6.9 7.9 7.7 7.4 8.5 8.8 8.9 8.6 8.1 8.5 8.5 8.5 8 7.9 8.6 7.3 6.4 5.8 4.2 2.3 2.2 2.1 2.1 2.1 2 1.9 1.8 1.7 1.6 1.4 1.3 1.2 1.1 0.9 0.8 0.6 0.4 0.3 0 -0.2 -0.5 -0.7 -0.8 -1 -1.2 -1.5 -1.5 -1.5 -1.5 -1.5 -1.5 -1.5 -1.5 -1.5 -1.5 -1.5 -1.5 -1.5 -1.5 -1.5 -1.5 -1.5 -1.5 -1.5 -1.5 -1.5 -1.5 -1.5 -1.5 -1.5 -1.5 -1.5 -1.5 -1.5 -1.5 -1.5 -1.5 -1.5 -1.5 -1.5 -1.5 -1.5 -1.5 -1.5 -1.5 -1.5 -1.5 -1.5 -1.5 -1.5 -1.5 -1.5 -1.5 -1.5 -1.5 -1.5 -1.5 -1.5 -1.5 -1.4 -1.3 -1.2 -1.1 -0.9 -0.8 -0.7
70.3 70.2 69.6 69.9 70.2 69.9 69.4 68.6 67 63 59.9 58.1 56 54.5 51.2 49.4 46.9 46.1 45 43.7 41.5 39.2 36.5 33.3 29.1 30.7 29.3 27.9 25.7 20.9 22.9 24.2 20.7 15.3 10.7 7.2 7.9 8.5 8.6 8.5 8.3 7.8 7.5 7 7.1 7.4 5.3 4 2.8 2.4 2.4 2.4 2.3 1.7 1.1 0.6 0 -0.5 -1.1 -1.5 -1.5 -1 -0.9 -0.9 -0.9 -0.9 -1.5 -1.4 -1.3 -1.2 -1.1 -0.9 -0.8 -0.7 -0.5 -0.4 -0.3 -0.2 -0.4 -0.9 -1.5 -1.5 -1.2 -0.5 0.3 0.7 0.6 3.1 4.4 5.7 7.6 7.1 6.7 6.4 5.3 6.7 7.7 9 8.9 9.1 13.6 12.6 12.4 11.9 11.3 10.6 9 7.9 7.3 7.8 8 7.4 7.1 6.2 5.4 4.6 4 3.1 2.2 2.1 2 2 1.8 1.7 1.6 1.6 1.4 1.2 1 0.9 0.7 0.6 0.3 0 -0.1 -0.3 -0.4 -0.6 -0.9 -1.1 -1.2 -1.5 -1.5 -1.5 -1.5 -1.5 -1.5 -1.5 -1.5 -1.5 -1.5 -1.5 -1.5 -1.5 -1.5 -1.5 -1.5 -1.5 -1.5 -1.5 -1.5 -1.5 -1.5 -1.5 -1.5 -1.5 -1.5 -1.5 -1.5 -1.5 -1.5 -1.5 -1.5 -1.5 -1.5 -1.5 -1.5 -1.5 -1.5 -1.5 -1.5 -1.5 -1.5 -1.5 -1.5 -1.5 -1.5 -1.5 -1.5 -1.5 -1.5 -1.5 -1.4 -1.3 -1.2 -1.1 -1 -0.8 -0.7 -0.6
72.2 71.4 70.5 70.4 70.2 69.5 68.6 67.8 66.3 62.9 61.7 60.1 58.5 55.6 53.3 52.4 51.3 50 48.3 46.3 44.5 42.5 39.3 36.4 34.2 32 31.9 30.9 27 17.7 26.4 25.6 24.7 21.6 17.1 13.1 9.7 9.4 9.6 9.4 9.1 8.7 8.4 8.1 6.6 5.9 5.4 6.8 3.9 3.3 2.7 2.1 2.3 2.2 1.5 0.8 0.1 -0.5 -1.1 -1.5 -1.5 -0.5 -0.3 -0.3 -0.3 -0.2 -0.6 -0.7 -0.8 -0.6 -0.5 -0.4 -0.2 -0.1 0 0.2 0.3 0.3 0 -0.7 -1.5 -1.5 -1.5 -1 -1.5 -1.5 1.2 -1.5 3.6 4.8 7.3 6.9 6.2 6 6.2 6.3 7 9.2 9.7 8.8 10.2 9.6 9.2 9.5 9 8.3 8.7 8.3 8.4 8.7 9.2 7.9 8.2 9 7.3 8.4 7.6 5.1 4.2 4 2.9 2.3 2.1 2 2 1.9 1.7 1.5 1.3 1.2 1.1 0.9 0.6 0.4 0.2 0.1 -0.1 -0.3 -0.5 -0.7 -0.9 -1.1 -1.2 -1.4 -1.5 -1.5 -1.4 -1.3 -1.4 -1.4 -1.5 -1.5 -1.5 -1.5 -1.5 -1.5 -1.5 -1.5 -1.5 -1.5 -1.5 -1.5 -1.5 -1.5 -1.5 -1.5 -1.5 -1.5 -1.5 -1.5 -1.5 -1.5 -1.5 -1.5 -1.5 -1.5 -1.5 -1.5 -1.5 -1.5 -1.5 -1.5 -1.5 -1.5 -1.5 -1.5 -1.5 -1.5 -1.5 -1.5 -1.5 -1.5 -1.3 -1.2 -1.1 -1 -0.8 -0.7 -0.6 -0.5
73.4 72.5 71.2 70.2 69.4 68.5 67.5 66.2 64.6 63.1 62 60.2 58.4 56.5 54.6 53.7 52.6 51 48.7 47 45.1 42.8 40.3 39.6 38 34 32 25.4 25.4 29.5 28.6 27.6 26.8 25.2 22.4 18 14.1 10.7 10.4 10.2 10 8 9.2 7.7 6.3 5.7 5.1 4.4 4.1 5.1 3.2 2.9 2.8 2.3 1.9 1.3 0.6 0 -1.1 -1.5 -0.5 0 0.3 0.4 0.3 0.4 0.2 0.1 0.2 0 0.1 0.2 0.3 0.5 0.6 0.7 0.8 0.6 0.4 -0.3 -0.3 -0.3 -1.5 -1.1 -1.5 0.6 2.2 -1.5 2.9 3.8 5 5.1 5.3 5.1 5.8 6 8.2 8.6 7.9 8 8.8 11.2 11.6 12.2 11.4 11.9 11.5 11.2 10.6 9.4 9.5 8.7 9 8.6 8 7.6 7.3 8 8.1 5.5 4 3.9 4.5 3 2.7 2.2 2 1.8 1.6 1.5 1.4 1.1 0.9 0.8 0.6 0.4 0.2 0 -0.2 -0.4 -0.6 -0.7 -0.9 -1.1 -1.3 -1.3 -1.2 -1.1 -1.2 -1.2 -1.3 -1.3 -1.4 -1.4 -1.5 -1.5 -1.5 -1.5 -1.5 -1.5 -1.5 -1.5 -1.5 -1.5 -1.5 -1.5 -1.5 -1.5 -1.5 -1.5 -1.5 -1.5 -1.5 -1.5 -1.5 -1.5 -1.5 -1.5 -1.5 -1.5 -1.5 -1.5 -1.5 -1.5 -1.5 -1.5 -1.5 -1.5 -1.5 -1.5 -1.5 -1.4 -1.2 -1.1 -1 -0.8 -0.7 -0.6 -0.5 -0.4
74.3 73.4 71.7 69.6 68.2 67.4 66.4 64.9 63.5 62.2 60.9 59.1 57.4 56.1 54.5 53.2 52.6 50.1 47.3 46.1 45 42.7 42.5 41.4 38.2 30.9 26.4 31.5 33.5 32 30.2 29.6 27.6 26.7 26.5 23.9 19 14.5 11.9 10.3 10.6 9.9 8.6 7.2 6.1 5.5 4.8 4.2 3.9 3.7 3.6 2.7 3.5 3.2 2.5 1.8 1 0.2 -0.4 0.3 0.2 0.6 1 1 1 1.1 0.9 0.9 1 1 0.8 0.8 0.9 1 1.2 1.2 1.3 1.2 1 0.8 0.9 1.1 0.8 1 1.4 2.3 2.8 4.8 4.4 5.5 7.1 9.6 9.9 11.2 12.5 13.4 13.6 14.6 14.5 14.2 15.4 15.6 16.5 16.4 16.2 16.2 15.7 14.8 14.1 13 11.9 10 10.7 9.9 9.2 8.6 8.7 8.7 8.9 9 8.6 8.2 4.9 4.6 5 5.4 2.3 2.1 2 1.8 1.7 1.5 1.3 1.1 1 0.8 0.5 0.3 0.1 -0.1 -0.2 -0.4 -0.6 -0.8 -1 -1 -0.9 -0.9 -0.9 -1 -1 -1.1 -1.1 -1.2 -1.2 -1.3 -1.4 -1.5 -1.5 -1.5 -1.5 -1.5 -1.5 -1.5 -1.5 -1.5 -1.5 -1.5 -1.5 -1.5 -1.5 -1.5 -1.5 -1.5 -1.5 -1.5 -1.5 -1.5 -1.5 -1.5 -1.5 -1.5 -1.5 -1.5 -1.5 -1.5 -1.5 -1.5 -1.5 -1.5 -1.5 -1.3 -1.1 -1 -0.8 -0.7 -0.6 -0.5 -0.4 -0.3
74.3 72.9 71.4 69.4 67.7 66.3 65.4 63.3 62.4 60.6 59.4 57.6 55.8 54.8 53.7 52.3 50.1 47.6 45.9 45.6 44.8 42.3 42.7 40.3 33.9 29 33.8 34.8 33.8 32.1 29.2 29.7 21.8 19.8 20.8 15.4 15.5 14.4 11.9 11.8 11.1 9.9 8.1 6.8 5.9 5.2 4.6 4 3.7 3.6 3.6 3.5 3.2 3.1 1.9 3.1 2.2 1.5 1 1.3 1.3 1.2 1.5 1.6 1.7 1.8 1.7 1.7 1.8 1.9 1.8 1.6 1.5 1.6 1.7 1.8 1.8 1.8 1.8 2 2.2 4.3 3.6 3.4 4.4 5.1 7.2 10.7 12.3 15.8 18.4 18.8 19.3 20.2 19.7 20.2 20.2 21 21.6 21.6 21.3 19.8 20 20 19.8 19.3 18.7 18.1 17.7 17 17.2 18 16.9 15.6 14.8 14.5 14.3 14.3 14 13.1 11.9 9.7 9 9.2 9.5 5.5 5.2 6.1 2.3 2.2 2 1.8 1.7 1.5 1.3 1.1 0.8 0.7 0.4 0.3 0.1 -0.1 -0.4 -0.6 -0.7 -0.7 -0.6 -0.7 -0.7 -0.8 -0.8 -0.9 -0.9 -1 -1 -1.1 -1.1 -1.2 -1.3 -1.4 -1.5 -1.5 -1.5 -1.5 -1.5 -1.5 -1.5 -1.5 -1.5 -1.5 -1.5 -1.5 -1.5 -1.5 -1.5 -1.5 -1.5 -1.5 -1.5 -1.5 -1.5 -1.5 -1.5 -1.5 -1.5 -1.5 -1.5 -1.5 -1.4 -1.3 -1.2 -1.1 -1 -0.9 -0.7 -0.6 -0.5 -0.4 -0.3 -0.2
74 72.2 70.6 68.3 66.1 64.3 63.4 62 60.6 59.2 58.2 56.4 55.2 53.6 51.9 50.1 48 46.4 47 45.4 43.7 41.5 39.5 32.5 33.4 36 35.4 33.9 32.7 27.5 21.1 18.9 19 18.7 17.9 16.5 15.7 14.4 15.6 14.6 14.4 12 8.3 6.5 5.7 5.3 4.8 4.3 3.5 3.5 3.7 3.5 3.1 3 3.4 3.8 3.7 4.8 2.8 2.6 2.3 2.1 2.2 2.2 2.3 2.4 2.4 2.6 2.7 2.6 2.9 2.3 2.3 2.3 2.3 4.8 3.4 6 7.1 8 7.6 7.8 8.6 10.1 14.1 19.8 21.8 23.8 26 26.9 26.2 25.8 26.7 26.7 26.5 27.1 26.1 27.1 28.4 28.1 26.7 25.9 25.7 25 24.4 23.7 23 22.8 23.6 25.3 25.3 24.2 24 22.6 22.3 21.2 20.4 19.8 19.4 18.8 17.6 16.2 14.6 13.6 11.9 10.4 12 9.9 8.4 6.9 4.9 2.2 2 1.8 1.6 1.4 1.2 1 0.8 0.6 0.4 0.1 -0.1 -0.3 -0.4 -0.4 -0.3 -0.4 -0.5 -0.5 -0.6 -0.6 -0.7 -0.7 -0.8 -0.9 -1 -1.1 -1.2 -1.3 -1.3 -1.4 -1.5 -1.5 -1.5 -1.5 -1.5 -1.5 -1.5 -1.5 -1.5 -1.5 -1.5 -1.5 -1.5 -1.5 -1.5 -1.5 -1.5 -1.5 -1.5 -1.5 -1.5 -1.5 -1.5 -1.5 -1.5 -1.3 -1.2 -1.1 -1 -1 -0.9 -0.8 -0.7 -0.5 -0.4 -0.3 -0.2 0
71.9 69.9 67.7 66 64.8 63.4 61.6 59.6 59.1 58 55.8 53.6 52.9 51.1 49.7 48.8 45.7 44.6 45.1 42.9 39.2 35.1 36 38.3 38.8 37.6 35.9 34 29.5 23.5 23.7 22.3 20.9 21.3 23.2 24.4 23.3 21.4 21.2 22.6 22.1 19.2 16.3 13.8 8.9 7 5.9 5 4.3 3.8 3.7 3.4 3.1 3.2 4.6 4.8 3.7 3.6 4 3.5 3.5 3.5 3.1 4 4.3 4.3 4.7 4.8 4.9 3.6 4.3 5.7 6.8 10.6 14.8 19.8 21.7 22 21.9 22 23.8 26.4 27.8 28 29.1 31 32.5 33.4 33.3 33.1 32.7 32.6 32.5 32.9 32.7 32.5 31.7 32 33.4 34 33.6 32.8 31.4 33.5 31.6 31.2 30.7 30.5 30.4 31.7 32.2 32.5 31.2 30.6 30.2 28.7 28.2 27.4 26.3 24.1 23.1 21.4 19.7 16.9 16.6 16 15.1 14.1 12.3 10.7 9.3 7.1 3.8 2.1 1.9 1.7 1.5 1.3 1.1 0.8 0.6 0.3 0.1 0 -0.2 -0.2 -0.1 -0.2 -0.3 -0.3 -0.4 -0.4 -0.5 -0.5 -0.6 -0.7 -0.8 -0.9 -1 -1.1 -1.2 -1.3 -1.4 -1.4 -1.5 -1.5 -1.5 -1.5 -1.5 -1.5 -1.5 -1.5 -1.5 -1.5 -1.5 -1.5 -1.5 -1.5 -1.5 -1.5 -1.5 -1.5 -1.5 -1.5 -1.4 -1.4 -1.3 -1.2 -1.1 -1 -0.9 -0.8 -0.7 -0.6 -0.5 -0.4 -0.3 -0.2 0 0.1
69 68.7 67.8 66.6 65.6 64.5 62.6 59.3 56.4 55.4 53.2 52.5 51.8 50.1 49.6 48.9 47.7 44.8 43.6 41.3 37.9 40.2 41.9 41.9 41 39.3 35.5 29.9 26.4 27.2 29.6 29.3 29.2 29 28.3 27.9 27.1 26.1 25.4 25.3 25.1 24.5 23.6 21.4 20 19 16.4 12 7.4 6.8 5.9 4.5 4.2 5.2 6.8 8.4 6.6 5 5.5 5.1 4.9 5.2 4.8 4.9 4.7 4.6 5 5.5 12.2 19 24 27.5 32 33 32.3 33.1 32.8 32.6 32.8 33 33.7 34.7 35.3 35.3 35.5 36.7 37.5 37.7 37.8 37.8 37.9 37.8 37.2 36.9 37.6 37.6 36.2 36.6 37.7 38.3 38.6 37.7 34.8 32.3 36.1 36.9 36.4 36.6 36.3 36.8 37.5 37.3 36.6 36.1 35.4 33.3 33 32.6 31.4 29.7 28.5 26.2 22.6 21.2 20.6 19.6 18.8 17.8 15.8 14 11.2 8.8 7.8 4.1 2.2 2 1.8 1.6 1.3 1 0.8 0.6 0.4 0.2 0 0.1 0.1 0 0 -0.1 -0.1 -0.2 -0.2 -0.3 -0.4 -0.6 -0.7 -0.8 -0.8 -0.9 -1 -1.1 -1.2 -1.3 -1.4 -1.4 -1.5 -1.5 -1.5 -1.5 -1.5 -1.5 -1.5 -1.5 -1.5 -1.5 -1.5 -1.5 -1.5 -1.5 -1.5 -1.5 -1.4 -1.4 -1.3 -1.2 -1.1 -1 -0.9 -0.8 -0.7 -0.6 -0.5 -0.5 -0.4 -0.3 -0.2 0 0.1 0.2
72.2 70.8 69 67.1 65.2 64.1 63.8 58.9 57.4 56.2 56.4 56.6 52.6 52.5 52.3 50.6 49.7 48.1 43.7 45.3 44.8 44.4 45.7 45.2 44.1 43.6 34.9 28.7 29.1 33.9 36.5 36 35.5 34.2 33.4 32.2 31.1 30.6 29.5 28.8 27.8 27.5 27 26.1 25.5 24.3 22.7 21 20 19.7 17.4 14.2 14.1 14.2 14.3 14.4 14.8 7.7 7.3 11.4 11.9 14.7 13.6 10 8.4 12 19.8 33.1 35.8 36.7 37.8 38.8 40.2 41.2 41.4 40.4 39.5 39.8 40 39.7 39.9 40.5 40.5 40.4 40.6 41.5 41.6 41.7 41.8 41.8 41.7 41.4 41.1 40.9 41.7 40.9 39.8 40.4 41.6 42.2 41.8 41 38.9 32.3 33.4 39.7 41.2 41.4 42.1 42.9 42.6 41.7 41.1 40.4 39.1 37.3 37.2 35.7 34.1 32.7 31.1 29.2 25.3 26.4 24.4 23 22.1 20.4 19.1 16.6 14.7 11.8 9 7 5.2 2.8 2.1 1.8 1.5 1.2 1 0.8 0.7 0.5 0.3 0.4 0.3 0.2 0.2 0.1 0.1 0 0 -0.1 -0.3 -0.4 -0.5 -0.6 -0.7 -0.8 -0.9 -0.9 -1 -1.1 -1.2 -1.3 -1.4 -1.5 -1.5 -1.5 -1.5 -1.5 -1.5 -1.5 -1.5 -1.5 -1.5 -1.5 -1.5 -1.5 -1.4 -1.3 -1.3 -1.2 -1.1 -1.1 -1 -0.9 -0.8 -0.7 -0.6 -0.5 -0.4 -0.3 -0.2 -0.2 -0.1 0 0.2 0.3
74.1 72.6 71 69 67.5 64.7 62.7 63.6 62.8 62 60.4 54.7 54.8 55.2 54.8 53.5 51.6 48 50.4 48.8 48.6 50.8 49.9 49.3 49 46.9 35.6 30.7 34.9 39.7 43 42.9 40.8 39.9 39 38.1 37.7 37.3 36.9 35.9 34.9 34.7 34.1 33.4 32.9 32.2 32.2 31.1 30.7 30.4 31.4 31.7 31.9 31.6 30.1 25.3 30.4 31.5 31.2 31.5 32.2 35.7 38.3 39.8 41.4 43.7 45.9 48.1 49.7 50.6 50.5 50.6 50.3 48.8 47.2 46.1 45.5 45 45.1 45.2 45 45.3 45.4 45.4 45.6 45.5 45.6 45.7 45.7 45.7 45.2 44.9 44.7 44.7 45 43.9 43.1 43.8 44.5 44.8 44.2 43.7 43.8 37.8 35.1 43.2 45.4 45.8 46.7 47.4 47.5 45.7 44.2 43.4 41.8 40.9 39.6 37.8 35.9 34.2 32.8 30.5 26.2 29 28 26.2 24.2 22.5 21.2 19.8 18.3 15 9.3 7.8 5 4.5 2.3 2 1.7 1.5 1.3 1.1 0.9 0.7 0.6 0.7 0.5 0.5 0.4 0.4 0.3 0.3 0.2 0 -0.1 -0.3 -0.4 -0.4 -0.5 -0.6 -0.7 -0.8 -0.9 -1 -1 -1.2 -1.3 -1.5 -1.5 -1.5 -1.5 -1.5 -1.5 -1.5 -1.5 -1.5 -1.5 -1.5 -1.4 -1.3 -1.3 -1.2 -1.1 -1 -1 -0.9 -0.8 -0.7 -0.7 -0.5 -0.4 -0.3 -0.2 -0.1 -0.1 0 0.1 0.2 0.3 0.4
75.7 74.6 73.1 71.8 70.6 66.1 65.1 64.5 63.3 63.5 58.9 56.2 60.1 58.7 58 56.3 56 55.6 56.1 54.7 55 54.9 54.1 53 50.8 42 35.6 33.3 39 45.2 46.8 46.2 45.8 45.3 44.7 44.6 44.1 43.8 43.4 43 43.4 42.9 43.1 43.5 42.8 43.2 44.2 45.1 46.4 46.7 47.4 47.3 47.7 47.5 44.7 31 45.7 47.3 48.6 48.6 49.8 51 52.8 54.9 56.4 58.4 59.2 59.5 60.2 59.8 59 58 55.5 53.3 51.8 50.2 49.6 49.2 49.2 49.4 49.4 49.9 50.1 49.9 49.9 50 49.6 49.6 49.7 49.2 48.8 48.4 47.8 48 48.1 47 46.8 46.8 46.9 46.9 46.3 45.8 45.9 42.4 43.4 46.8 48.4 48.9 49.7 49.1 49.2 47.9 46.1 44.6 43.1 41.8 39.6 38 36.1 34.5 33.3 31.9 29.4 28.6 28.2 26.8 25.9 24.6 23.1 21.7 19.5 14.7 16.7 10 7.7 8.6 4.1 2.2 2 1.8 1.6 1.4 1.2 1 0.9 0.9 0.7 0.7 0.6 0.6 0.5 0.4 0.3 0.1 0 -0.1 -0.2 -0.3 -0.4 -0.4 -0.5 -0.6 -0.7 -0.8 -0.9 -1.1 -1.2 -1.4 -1.5 -1.5 -1.5 -1.5 -1.5 -1.5 -1.5 -1.5 -1.4 -1.3 -1.2 -1.2 -1.1 -1 -1 -0.9 -0.8 -0.7 -0.7 -0.6 -0.5 -0.4 -0.3 -0.2 -0.1 0 0.1 0.2 0.2 0.3 0.4 0.5
77.1 76.5 75.8 74.6 73.3 70.6 68 67.2 63 57.8 61.4 65.1 64.4 64.1 63.2 62.4 62 61.6 60.6 59.5 58.9 58.3 57.1 54.5 42.3 37 32 37.3 46.3 49.5 49.1 48.8 48.7 48.4 48.9 49.2 49.6 49.5 49.9 50.2 50.8 51.6 52.1 53 54.5 56.4 57.3 58.4 59.6 61.9 62.4 62.3 61.6 60.6 56.4 44.5 58.3 59.7 61.2 62.7 64.4 65.7 67.5 68.9 69.7 70.4 70.4 69.1 68.5 67.8 66 62.7 59.9 57.7 55.8 54.1 53 51.9 51.8 52.3 53 52.9 53 53.3 53.2 53.1 52.9 52.9 52.9 52.6 52.2 51.6 50.9 50.4 49.9 49.3 48.8 48.7 48.8 48.1 47.5 47.6 47.7 47.8 47.8 49.7 50 50.4 50.7 49.9 49.6 48.6 46.1 45.8 43.6 41.1 39.2 38.1 36.1 34.1 33.4 31.9 29.4 29.1 28.4 27.1 26.4 25.4 24.9 23.7 19.8 21 18.7 13.4 9 8.3 8.5 4.5 2.2 2 1.8 1.6 1.4 1.2 1.1 1.1 1 0.9 0.9 0.8 0.7 0.6 0.4 0.3 0.1 0.1 0 -0.1 -0.2 -0.3 -0.4 -0.5 -0.6 -0.7 -0.8 -1 -1.2 -1.4 -1.5 -1.5 -1.5 -1.5 -1.5 -1.5 -1.5 -1.4 -1.3 -1.2 -1.1 -1 -0.9 -0.9 -0.8 -0.7 -0.7 -0.6 -0.5 -0.4 -0.4 -0.3 -0.1 0 0.1 0.2 0.3 0.4 0.4 0.5 0.6 0.7
77.8 77.3 76 74.4 73.1 72.3 71.4 67.7 62.4 63.2 68.1 68.5 68.2 67.9 66.8 66.1 65.7 65.3 64.3 63.3 62.1 60.5 57.4 45.5 36.4 38.3 40.4 47.6 51.2 51.8 51.3 51.4 51.7 51.8 52.9 53.6 54.7 56.1 57.2 58.5 62 64.1 66 67.8 69.4 70.5 71.5 73.2 74.8 76.5 76.1 76.2 75.1 73.4 68.9 63.4 69.9 71.7 74.1 76.5 80.3 83.5 83.4 82.4 82.2 81.8 81 78.3 76.3 75.3 71.6 68.1 65.1 62.4 59.6 57.6 55.8 54.8 54.6 55 55.3 54.8 54.8 54.8 54.7 54.5 54.3 54.3 53.9 53.6 52.4 52.1 51.9 51.3 50.9 50.6 50.7 50.6 50.1 49.4 49.1 48.9 48.9 49.3 49.5 49.8 49.1 50.3 50.9 49.6 48.5 48.2 46.1 45.6 43.3 41.4 40.2 38 36.8 36.4 35.8 32.4 30.4 30.4 29.2 28.7 28.5 26.8 24 22.2 22.8 20.8 18.7 15 13.6 8.6 8.2 8.3 5.4 2.3 2.1 1.9 1.7 1.5 1.4 1.3 1.2 1.1 1.1 1 0.8 0.7 0.6 0.4 0.3 0.2 0.1 0 0 -0.1 -0.2 -0.3 -0.5 -0.6 -0.8 -1 -1.2 -1.3 -1.5 -1.5 -1.5 -1.5 -1.5 -1.5 -1.5 -1.3 -1.1 -1 -0.9 -0.9 -0.8 -0.7 -0.6 -0.6 -0.5 -0.4 -0.4 -0.3 -0.2 -0.1 0 0.1 0.2 0.3 0.4 0.5 0.6 0.7 0.7 0.8
