ncols 200
nrows 82
xllcorner 220000
yllcorner 822950
cellsize 50
693 680 668.1 658.3 649.5 641.8 633.8 626.6 620.4 613.8 607 601.3 593.2 580 583.4 581.7 579.1 576.6 574.7 572.5 572.4 570.5 567.8 564.9 562.6 560.6 557.8 554.6 549.9 546.4 543 538.5 535.5 532.2 530.5 530.1 530 527.7 526 524.7 522.3 520.3 517.7 516.3 513.9 512.2 511.9 511.8 512.9 511 511.6 510.6 508.4 509.1 508.2 507.2 507.4 505.6 501.7 497.8 493 492.8 492.1 490.3 492.8 491.9 491.9 493.1 496.5 497.6 496.9 495.4 490.6 487.7 482.7 477.3 469.5 459.1 450.7 439.2 429 419.5 409.4 400.1 392.4 383.9 379.6 374.1 366.4 362.2 360.6 355.2 348.1 342.5 338.7 332.5 326.5 319.3 311.4 308.5 305.6 302.4 299 298.9 302.1 296.2 278.8 271.5 267.2 258.6 255 252.1 246.5 217.1 217.1 217.1 217.1 217.1 227.1 221.7 217.1 217.1 218.3 217.1 217.1 217.1 217.1 217.1 217.1 217.1 217.1 217.1 217.1 217.1 217.1 217.1 217.1 217.1 217.1 217.1 243.9 261.8 279.5 298.2 315.9 321.3 333.7 349 377.4 399.6 425.2 433.8 441 439.4 436.4 432.6 419.2 411.6 409.1 406.5 396.9 389.1 385.6 367.9 348.1 329.3 304.3 294.8 281.8 276 272.6 271.2 272.3 268 264.7 267.4 270.1 265.9 257.3 254.4 253.8 253.8 254.3 259.8 260.7 264.3 267.2 257.9 250.6 247.1 242.9 235.5 226.5 215.2 200.9 188.1 179.7 169.1 159.6 150.2
688.8 675.2 664 655.4 647.3 639 630.3 622.4 615.8 608.9 602.4 596.9 588.9 580.5 572.2 571.2 570.8 568.1 567.7 564.5 563.1 560 556.9 553.6 550.6 547.6 544.2 540.1 535 531.1 526.9 522.3 517.5 515.1 512.7 511.9 512.3 510.3 507.5 507.3 506.8 505.8 505.4 505.4 504.3 500.7 499.1 498.9 498.4 496.2 496.4 495.1 495.6 498.5 495.8 495 493.6 490.3 487.7 483.6 481.3 480.8 479.7 474.5 477.5 478.4 476.6 479.9 483 483.3 481.9 479.8 472.7 472 465.4 459.2 451.1 440.7 430.9 421 413.2 403.3 391 382.8 376.6 370.2 366.8 361 356.5 353.9 350.4 346.9 341.1 337.2 334.5 329.1 322.7 310.1 305.5 303.3 301.7 298.6 295.8 296.9 297.8 295.6 278.7 273.2 268.4 260 252.9 248.7 236.6 217.1 217.1 217.1 217.1 217.1 217.1 217.1 217.1 224 224.9 219.6 217.1 217.1 217.1 217.1 217.1 217.1 217.1 217.1 217.1 217.1 217.1 217.1 217.1 217.1 217.1 240.9 262.6 281.5 300.1 316.5 326.3 336.7 353 375 394.7 416.7 435.1 446.5 447.1 442.6 439.7 427.2 419.4 414.8 399.3 393.7 389.3 380.2 368.2 359.9 346.9 334.5 321 304.2 285.4 277.1 274 271.3 269.3 264.6 261.6 260.9 260.1 256.5 254 253.8 253.8 253.8 253.6 258.9 257.9 258.2 258.5 253.6 250.2 247 243.2 224.6 210.2 198.1 185.6 175.2 163.9 151.1 138.1 127
683.9 670.7 659 650.1 642.9 636.2 628.2 619.3 610.4 602.5 596.9 591.1 583.5 575.3 567.8 555.6 561.4 556.8 555.2 551.8 548.9 547.1 543.4 540.4 537.2 533.2 529.8 525.5 519.6 514.7 510.8 504.9 499.8 497.4 495.4 494.9 492.9 491.4 489.3 488.1 487.8 487.4 488.3 488.2 488.2 488.6 489 486.9 485.6 484.3 484.1 481.8 483.3 482.7 481.8 480.3 478.4 478.3 475.1 471 468.4 467.3 464.8 461.7 458.9 456.8 456.7 458.6 461 459 458.9 456.9 451.8 449.2 445.2 439.5 431.9 422.3 412.6 405.1 395.6 385.5 375 367.4 360.9 356 353.7 349.9 346.8 344.8 340.2 334.5 330.8 328.2 325.6 320.7 311.5 303.6 301 299.1 296.7 293 289.9 290.5 287.9 282 272.3 264.5 264.3 258.4 242.3 229 217.1 217.1 217.1 217.1 217.1 217.1 217.1 217.1 217.1 227.5 229.3 218.5 218.5 217.1 217.1 217.1 217.1 217.1 217.1 217.1 217.1 217.1 217.1 217.1 217.1 227 240 258.5 279.9 298.9 314.3 326.9 339.2 353.2 375.8 392.2 408.7 432.6 444.8 449.4 448.1 445.4 436.9 428.9 413.6 408.8 397.5 385 380.9 368.5 359.4 353.7 350.5 349.5 342.3 325 292.5 277.7 272.1 268.7 266 261.5 260.7 261.6 256.7 253.4 253 253.8 253.8 253.8 253.8 255.8 254.1 251.6 250.1 250.8 250.2 244.7 233.7 211.9 195.6 187.6 177.8 166.5 152.7 139.1 124.5 114.9
680.4 666.7 653.6 644.3 637 630.7 622.4 614.6 605.9 597.6 590 583.7 575.6 568.3 561.4 554.6 549.8 545.5 542.1 538.1 534.8 533.6 530.8 527 523 518.5 514.6 509.3 502 497.9 493.2 487.8 483.6 481.1 479.3 478.4 477.4 476.3 473.8 472.5 472.2 472.7 472.8 473.4 474.4 473.9 473.3 473.9 472.1 474.8 472.9 471.2 471.2 468.9 468.4 466.5 467.3 468.6 465.1 459.3 455.5 451.9 448.1 445 444.5 440.9 438.3 440.4 438.2 436.4 433.9 433 429.7 427 422.8 418.2 409.1 401.7 395.7 389.9 381.1 371.6 363.6 354.5 350.2 344.7 340.7 338.7 333.6 328.2 325.3 320.3 314.7 312.2 310.3 305 297.6 293.8 293.3 290.1 285.9 282.8 280.3 278.1 273.5 264 256.9 255.5 256.4 248 218.1 217.1 217.1 217.1 217.1 217.1 217.1 217.1 217.1 217.1 217.1 217.1 217.1 217.1 217.1 217.1 217.1 217.1 224.8 217.1 224.5 227.4 217.1 217.1 217.1 222.4 234.8 246.5 260.4 278.4 298.5 310.1 324.6 337.9 352.1 375.2 395 407.8 421.7 426.2 437.7 444.2 447 439.9 433.1 428.5 416.2 411.7 401.9 387.1 373.9 352.8 347 351.2 350.9 349.5 344.3 329 293.2 280.7 270.4 265.6 262.5 261.6 262.5 262.1 256.5 254 253.8 253.8 253.8 253.8 253.8 252.6 250.7 247.7 247.7 247.3 249.2 234.1 218.1 207.9 202 187.7 174.2 159.7 147.4 137.5 127.5 112.6
673.8 661.4 648 639.5 633.3 625.4 616.9 609.1 600.4 590.9 584.5 576.2 568.7 560.4 552.1 544.3 539.7 535 530.9 527.1 522.6 520.7 515.3 510.7 505.6 499 496.1 489.3 483.6 479.8 476.5 472.4 468.4 465.7 464.7 463.6 462.2 461.1 460.3 459.9 460.3 458.7 458.4 458.9 459 460 458.2 460.9 461 460.2 459.3 457.1 456.8 458.2 455.9 454.2 454.6 456.6 454.2 448.2 444 441 439.6 435.4 431.8 429.5 427.1 424.8 420.2 415.4 414.4 411.4 408.2 404.2 402.2 398.6 395 390.7 385.9 378.2 368.6 361.4 353 350.6 343.8 341.2 333.5 318.7 315.9 311.5 305.1 297.8 294.8 289.5 290.6 286.7 281.2 279.6 279.3 277.2 273.7 270.7 268.1 262.8 256.6 248.2 235.8 233.7 228 235.2 217.1 217.1 217.1 217.1 217.1 217.1 217.1 217.1 217.1 234.3 233.6 235 227.6 217.1 217.1 217.1 217.1 217.1 224.5 231.9 237.4 240.6 235.8 233 235.3 242.2 254.8 264.2 279.4 295 311 324.2 336.4 350.5 365.8 384.6 397.8 407.7 412.6 416.9 428.2 435.9 439.6 428.8 425.9 415.6 415.8 410.6 403.4 393.9 373.5 353.1 344.6 346.3 350.2 347 329.8 313.9 291.7 289.9 276.2 264 262 263.2 263.6 261.4 256.5 253.8 253.8 253.8 253.8 254 254.9 254.5 252.5 247.3 242.9 243.6 239.7 225.4 213 208.6 195.2 180.3 165.1 151.9 145.2 129.6 113.2 103.5
662.9 651.8 642.6 636.4 629.5 618.7 612.6 603.1 595.2 586.2 578.9 569.8 562.4 553.7 547.2 539.4 528.7 525.6 520 516.3 510.6 504.9 498.6 493.4 485.7 477.6 473.9 470.8 465.5 460.7 456.5 453.9 452.4 451.4 453 449.5 447.5 445.7 446.2 445.4 445.7 444.1 445.3 447.1 446 447.1 448.2 450.7 452.2 453.8 451.1 448.1 447.3 445.9 444.5 442.7 441.3 440.3 436.8 432.8 429.9 426 424.5 420.5 418.2 415.6 415.9 412.5 408 403.2 398.7 395.7 392.1 389.5 388.3 386.6 386 380.6 373.9 369.3 360.7 354.1 351.5 344.3 336.5 329.3 324.1 319.1 320.8 318.6 317.2 311 302 293.5 289.6 288.5 280 275 270.5 265.8 262.1 260.5 252.8 245.2 241.9 234.6 224.9 217.1 217.1 217.1 217.1 217.1 217.1 217.1 217.1 217.1 217.1 228.1 238.9 226.6 217.1 217.1 217.1 217.1 217.1 217.1 217.1 227.3 235.8 245.2 253.7 258.8 260 258.2 260.9 264.8 272.7 281.3 296.3 310.2 325.1 339.2 351.3 365.2 378 390.6 401.9 409.9 416.2 420.1 428.2 432.1 425.4 423.1 415.9 409.3 405 403.6 394.8 379.4 366.6 354.1 346.2 345.1 339.6 329 319.4 303 293.4 283.4 272.2 263.3 263.1 264.1 264.6 263.4 259.7 255.7 253.8 253.8 253 254.4 255.7 256.7 258.4 247.3 242.3 238.2 227.2 219.7 214 197.3 178.2 167 151.9 143.1 130.7 114.9 106.5 103
652.7 644.2 638.3 634.2 629.9 623.8 617.3 609.4 600.4 589.1 579.8 568.5 553.8 545.2 535 527.6 519.6 513.3 506.1 500.5 493.9 488.3 481.7 475 465.3 457.1 454.8 451.5 446.1 440.7 436.6 434.3 433.1 434.6 435.3 434.9 434.7 432.8 434.8 433.5 430.6 430.8 430.9 431.1 431.6 432.7 435.6 437.1 438.8 439.8 439.3 435.9 441.8 436.1 432.6 429.4 429.3 424.6 421.1 417.8 413.6 410.3 409.2 407.6 406.7 402.7 399 395.7 393.1 387.8 383 385.2 382.3 380.8 379.3 375.7 373.5 369.9 365.1 357.6 351.9 349.4 345.8 340.7 328.6 327.6 332.6 336 336.2 324.8 314.2 307.1 302.6 296.9 293 289.7 288.7 289.6 289.6 280.6 274 266.3 251.4 237.4 223.8 217.1 217.1 217.1 217.1 217.1 217.1 217.1 217.1 217.1 217.1 219.6 240.4 241.6 231.1 217.1 217.1 217.1 217.1 217.1 217.1 231 239.1 243.7 253.3 262.1 274.1 275.7 278.1 281.7 281 283.4 285 296.9 311.6 323.9 336.7 351.5 365.6 378.2 391.9 397.1 403.1 414 422.1 426.5 425.5 422.5 420 422.2 416.7 411.6 409.3 405.3 389.6 368.5 356.8 349.2 346.2 337.9 332.7 321.1 311 298.8 288.3 279 270.3 263.7 264.8 265.7 265.7 265.3 263.8 259.6 255.2 255 256.9 259.4 264.2 264.7 255.1 251.1 248.9 230.7 220.4 218.6 209.1 184.8 163.8 149.5 141.7 129.3 114.9 107.8 103.3 101.1
654.9 649.9 646.5 640.7 636.8 630.4 622 611.7 601.2 590.1 577.6 566.3 551.5 541.6 529.3 518.2 508.4 493.7 489.2 483.8 477 469.1 462.6 454.7 443.4 436.3 433.2 428.4 424.6 421.3 417.4 413.3 414.5 415.9 417.5 417.8 418.6 417.6 420 418.8 418.3 417.8 416.1 415.5 417.7 419.5 422.1 425 425 422.9 420.1 423.8 424.8 418.4 416.2 413.4 410.4 409.2 406.6 403.2 398.8 396.6 393.4 391.3 388.5 383.8 377.1 379.4 377 371.9 371.6 370 370.7 370.6 365.8 362.7 360.1 356 353 347.8 345.6 342.6 338.7 333 330.7 334.4 337.7 337.5 332.3 324.6 312 305.4 303.3 298.9 295.1 292.4 289.1 286.9 281.7 273.5 262.4 258.5 249.5 236.3 218.4 217.1 217.1 217.1 217.1 217.1 217.1 231.7 233 228.9 234.3 254.4 261.5 244.4 225.6 217.1 217.1 217.1 224.4 226.6 230.5 238.4 250.8 259.6 266 273.9 281.2 287.6 288.1 291 293.8 295.5 296.7 310.2 318.9 331.4 346.8 368.8 381.8 394.9 402 407 418.5 420 425.3 426.5 421.5 421 408.2 410.1 405.8 396.3 393.1 396.2 387.9 373.5 358.6 346.1 340 330.7 322 314.2 305.1 293.5 283 274.6 270.1 270 266.8 266.9 267 266.9 266.4 263.4 262.9 267 269.7 270.4 271.5 263.6 245.7 246.5 238.8 226.6 218.2 217.3 193.8 172.8 157.6 138 128.2 115.8 108.2 103.5 100.4 99.5
661.1 659.7 655.2 648.6 643.1 635.5 625.3 614.9 602.9 586.3 572.3 560 544 530.5 518.3 507.8 499.4 493.1 480.6 471.1 467 470.6 454.9 436.8 428.4 419.1 413.7 410.1 409.8 404 398.3 396.8 395.2 397.4 398.5 400.1 402.3 403.5 403.7 402.4 402.7 401.9 400.8 400.7 404 406.7 410.8 411 407.2 407.4 407.7 404.2 403.5 398.4 397.8 396.4 393.4 392.1 391.8 388.5 384.5 381.5 378.6 373.9 371.6 366.7 363.5 364 364.2 359.7 359.1 354.8 355.6 357 353.3 350.4 344.7 342.8 341.9 340.3 336.8 334.2 332.6 330.6 331.6 329.2 323.9 319 313.1 306.7 301.2 298.2 295.1 289.6 282.7 276.5 271.6 268.8 261.9 246.2 237.1 227.8 217.1 217.1 217.1 217.1 217.1 217.1 217.1 217.1 218.3 230.9 237.2 243.3 235.1 232.5 227 217.1 217.1 217.1 219.8 226.6 237.5 244.3 252.1 257.3 264.5 271.4 278.1 285.2 289.2 290.2 291.1 293.3 293.7 295.8 301.7 315.4 328.7 343.5 363.5 389.5 405.3 412.1 418.1 432.3 432 428.6 429.7 431.7 426.4 412 405.6 405.4 395.6 384.6 378.4 378.3 369.1 362.7 354.5 345.8 334.9 328 321 313 301.5 288.9 278.8 276.2 277.1 276 271.1 268.7 271.8 273 271.3 266 266.9 277.4 274.6 274.4 271 255 237.7 234 228.3 221.3 217.9 203.7 183 170.6 152.7 126.3 116 108 103.7 100.7 99.1 99.5
666.2 664.5 660.5 653.8 646 638 628.1 618.2 603 584.9 568.2 554.8 539.1 523.3 509.1 499.9 489.7 485.4 474.5 464.9 454.9 466.7 450.3 432.6 417.1 408.8 398.3 394.1 391.4 390.3 385.7 381.8 380.9 377.7 381.4 385.3 389.5 390.6 388.5 389.2 389.1 390.4 390.1 389.9 389.3 393.4 392.7 392.9 395.1 396.3 395.9 392.4 389.2 384.7 381.1 381.1 378.3 376.9 377.3 371.2 369.6 366.1 362.2 358.3 352.9 351.2 351.7 354.7 348.6 346.9 345 343.2 339.5 339.3 339.2 339.6 335.4 332.9 330.3 329.3 326.8 323.4 322.8 316.5 315.3 311.6 306.4 299.4 292.1 285.9 282 277.3 271.4 262.8 253.5 248.4 248.5 249.4 243.8 224.6 217.1 217.1 217.1 217.1 217.1 217.1 217.1 217.1 217.1 217.1 225.7 241 245.3 217.1 217.1 217.1 217.1 217.1 217.1 228.5 233.2 240.7 248.8 257.8 268.2 274.3 283.9 291 298.3 301.9 306.6 308.7 315.8 315.5 315.4 318.2 321.7 331.5 350.1 364.2 386.9 410.7 424.1 441.1 442.4 438.7 432.3 430.3 430.9 432.3 422.4 411.9 406.6 403.5 391.5 382.9 372.8 368.5 358 354.1 351.5 346.2 335.8 326.4 321.1 312.1 299.6 287.5 285 282.3 281.2 279.5 274.8 272.9 275.7 274.7 271.5 267.8 269.9 272.7 272.4 269.8 264.1 245.9 226.7 222.9 223 217.7 207.3 187.4 172.3 159.2 138 124.3 110.7 105.3 101.7 99.4 99.7 99.3
670.2 668 663 656 647.6 637.9 628.7 616.4 599.4 584.9 567.1 554.7 541.3 524 506.9 493.6 478.6 465.2 456.1 448.3 436 443.4 436.5 418.4 404 395.1 389.8 379.5 375.7 376.9 373.9 371.5 372.4 371.8 371.1 370.3 372.2 373.7 372.5 372.9 374.2 374.3 374.8 377 376.4 375 376.8 382.1 380.1 382.5 379 372 373.9 372.6 370.1 367.8 365.3 364.3 364.1 361.5 359.8 357 351.5 345.7 343.4 341.5 336.2 335.4 331.8 327.8 319.9 322.5 320.1 314.3 309.7 309.6 308.3 302.3 299 301.6 308 307.2 305.9 299.2 295.3 291.4 285.1 275.8 266.7 259.2 253.4 246.8 239.1 232.6 227.3 225.4 217.1 217.1 217.1 217.1 217.1 217.1 217.1 217.1 217.1 217.1 217.1 217.1 228.7 230.7 217.1 222 217.1 217.1 217.1 217.1 225.7 234.7 247.8 262.7 258.9 257.6 265.4 272.5 283.4 294.9 310 331 341.3 341.7 337.5 342.3 346.8 354.9 352.6 351.5 361.2 373.4 385.9 401.7 412.8 432.8 442.8 441.5 438 430.3 429.6 430.8 421.7 415.2 415.8 407.6 390.9 384 378.2 369.4 364.9 359.2 351.9 352.7 352.1 350.1 340.2 329.2 320.2 311 299.2 292.4 292.9 288.5 283.2 281.7 277.1 275.2 273.2 272.4 269.4 266.9 267.8 267.6 267.1 262.8 254.2 233.1 218.5 215.7 214.9 206.1 190.9 173.8 157.4 139.8 121.2 118.5 106.5 101.8 100.5 99.2 99.2 98.4
666.3 665.1 660.6 653.4 644.8 638.3 627.6 617.4 599.9 584.4 560.8 552.8 541.2 525.7 501 473.7 458.5 440.9 434.3 428.3 418.5 409.6 408.6 398 390.3 385.1 378.8 375.4 370.6 369.6 367.1 370.5 372.2 371.1 367 363.4 363.2 362.4 362.1 362.8 362 362 363.4 365.8 363.3 361.9 365.1 373.9 378.5 375.2 368.6 360 348.1 344.5 345.4 346.3 346.6 347.6 349.1 344.3 340.7 335.8 332.5 330.4 327.9 330 331.7 332.8 333.4 337.6 339.1 337.9 335.8 334.8 330.2 330.1 324.8 314.4 302.9 297.5 287.9 287.2 287.2 273.8 276.5 273.4 262.8 251.7 240.7 236.3 234.9 227.4 222.3 220.9 217.1 217.1 217.1 217.1 217.1 217.1 217.1 219 217.1 217.1 217.1 228.4 232.5 239.7 240 217.1 217.1 217.1 217.1 217.1 224.8 236.3 241.3 253.6 269.8 283.1 283 280.8 284.1 292.1 301 314.7 331.1 344.8 357 361.1 363.7 361.6 372.7 378.1 379 380.2 389.6 398.1 414.7 426.4 441.4 438.8 438.7 435.6 429.9 426.3 423.9 422.2 417.3 405.5 401.3 389.9 380 373.8 362.4 352.6 348.6 346.8 347.1 351.4 350.2 351.4 345.4 326.3 317.5 310.5 299.3 295.6 290.2 284.1 282.9 282.7 279.4 272.2 266.8 265.4 262 261.8 261.8 259.6 257.4 252.7 240.9 223.9 215.1 209 204.7 190.9 175.8 155.3 145.6 134.1 114.7 107.9 103.1 101.6 99.7 99.2 99.4 100.8
653.5 651.7 649.7 644.6 638.5 632.4 623 614.8 593.9 568.6 552.7 552 537.9 519.1 490.3 456.6 434.5 420.9 410.3 404.7 398 392.7 387.6 383.9 378.7 377.5 375.6 371.9 368.9 366.7 364.5 366.1 370.9 368.2 364.3 360.2 359.7 359 359.3 360.2 359.8 357.6 359.1 358.7 356.7 355.2 361.4 369.2 367.2 355.4 354.1 349.6 346.6 346.8 346.6 345.8 344.6 342.3 337.8 342.6 345.3 343.2 346.5 350.7 350.2 354 353.4 349.6 346 345.4 343.2 341.4 339.9 335.7 330.5 326.3 321.5 314.4 311.5 308.3 301.9 282.2 259.4 255.3 248.1 255.5 248.9 239.9 235.5 222.5 217.1 217.1 217.1 217.1 217.1 217.1 217.1 217.1 217.1 217.1 217.1 217.1 217.1 238.3 240.8 238.5 244.8 229.5 226.4 218.6 217.1 217.1 217.1 217.1 235.5 244.9 253.7 271 286.6 298.7 297.6 296.3 302.9 309.5 320.6 337.3 354.1 362.6 375.9 378.1 383 381 388.5 396 402.2 409.1 419.2 427 435.9 443.8 445.4 442.7 438.4 433.4 428.9 431.3 429.5 423.8 415 403 399.2 392.8 382.1 371.8 350.4 347.1 345.5 342.2 344.7 346.8 341.3 339.4 332.9 320.8 314.2 305.5 298.1 291.1 283.2 278.2 277.3 277.4 275.6 269.2 263 258.6 254.3 251.2 249.9 249.8 245.6 238.2 230 220 211 204.7 187.7 173.9 162.7 151.8 136.7 122.6 108.8 104.4 102.7 99.8 99.4 99.5 100.4 100.3
642.9 641.1 637.4 634.8 627.1 620.9 611.8 599.9 581.1 556.6 541.5 525.2 510.2 497.7 475.3 438.3 422.1 407.2 399.2 395.1 390.9 384 381.1 380.1 377.1 374.2 374 372.8 370.5 365.9 364.6 363.5 361.7 361.2 361.7 362.9 362.6 361.5 358.3 358.1 357.9 357.5 356 355.4 355.6 356 353.8 352.8 353.9 355.6 354.3 352.9 354 354.3 352.3 355 357.3 356 357.7 358.5 358.5 356.6 356.7 356.6 358.3 359.2 358.1 356.9 353.7 352.4 349.1 347 345.4 339.7 333.4 326.9 321.3 318.6 316.9 310.1 303.2 295.4 279.2 266.5 245.2 236.3 243.8 236.4 228.3 217.1 217.1 217.1 217.1 217.1 217.1 217.1 217.1 221.4 217.1 233 222.2 220.2 237.2 245.9 222.3 220.6 225.7 233.1 233.7 224.2 217.1 217.1 217.1 233.5 242.5 251 262 273.8 285.9 297.6 309.6 317.3 323.9 333.2 349.4 365.2 380.2 392.3 398.1 405.6 412.3 415.7 426.4 432.9 434.5 433.5 432.6 437.4 435.9 428.9 430.1 429.4 421.9 420.7 421.8 424.4 418.2 416.2 414.2 407.6 400.9 393.6 373.5 358.3 348.4 343.1 340.4 341.3 344.2 342.4 335.4 329.7 324 315.1 305.8 297.2 290.2 283.6 276.9 272.8 269.3 266.8 267.2 265.1 257.8 252.4 248.3 242.8 237.7 234.8 230.6 225.6 218.4 210.8 201.3 189.3 177.5 165.1 152.6 144.5 128.4 111.7 105.3 103.8 100.5 100.2 100.5 100 99 99.9
626.3 624.1 625.3 619.9 614.3 605.1 593.9 579.9 567.6 553.4 535.2 516.6 501.6 481.7 451.8 424 405.2 396.2 387.2 384 382 377.2 376.3 374.8 373.8 372 372.1 371.1 371.3 366.9 364.6 362.5 363.1 364.7 365.9 365 363.8 360.1 358.4 359.1 358 356.6 356.8 359.6 361.2 361 361.5 366.5 370.2 370.2 368.6 371.2 369.3 371.2 369.9 369.6 368.9 365.4 363.1 361.5 360.4 361.4 364.8 363.4 363.5 365.4 364 365.6 363.9 359.2 356 353.8 349 344.1 338.1 334.5 327.9 321.7 316.4 312.2 308.1 300.3 287.5 267.9 244.3 237.9 230.2 231.6 217.1 217.1 217.1 217.1 217.1 217.1 217.1 217.1 217.1 217.1 233.6 250.4 240.1 229 217.1 217.1 217.1 217.1 217.1 217.1 217.1 217.1 217.1 217.1 228.4 239.6 250 262.1 276.6 285.2 284.2 290.4 304 318.5 335.8 352 361.1 368.1 376.2 377.6 381 395.9 407.5 411.7 415.6 417.5 421.8 418.4 419.2 425.1 423.8 413.1 408.1 412.1 410.4 405.8 404.5 396.6 396.2 395.8 395.5 395.4 386.1 371.6 358.3 351.1 346.7 340.2 337 338.4 340.3 338.4 330.2 319.9 312.3 303.7 295.1 286.7 280.3 274.5 268.2 263 258.6 257.4 256.9 255.9 251 245.7 241.7 237.3 231.6 227 222 216 207.3 198.8 189.3 178 168.4 159.1 147 136.9 120.1 106.1 103.3 101.1 100.4 99.9 99.8 99.2 99.1 100
604.7 605.9 608.4 606.4 603.1 596.7 587.4 575.9 560.4 553.4 537.7 516.6 493.6 463.2 430.1 404.7 391 383 379.3 376.8 374.5 373.8 372.7 372.2 371.2 369.3 369.3 368.7 369.4 365.9 363.8 360.1 365.8 367 365.6 364.3 361.4 364.1 365 362.6 362.4 367.1 368 370.9 376.2 376.8 376.8 380.5 385 386.9 387.5 388 390.5 388.5 387.1 386.8 386.6 385.1 384.3 382.2 377 375.6 375.2 369.8 368.2 369.3 372.9 373.6 372.6 365.7 361.5 355.1 348.2 344.1 340.2 336.8 333.5 324.8 319.7 316.1 310.2 301.2 288.9 265.4 242.6 237 229 217.1 217.1 217.1 217.1 217.1 220.6 224 221.3 217.1 217.1 217.1 234.1 229.1 225.8 217.1 224.2 217.1 217.1 217.1 217.1 217.1 217.1 217.1 224.4 227.1 239.4 247.9 259.4 272.3 288.5 300.8 297.1 291.9 298.3 308.7 326.6 346.4 355.6 364.6 372.8 370.7 368.8 381.5 386 390.6 399.8 399.7 397.9 395.9 398.6 412.7 418.3 405.8 396.4 396.8 393.5 387.9 380.3 376.4 372.8 376.2 376.3 376.4 370.2 352.4 350 345.7 340.8 332.7 333 332.6 333.7 332.5 325 312.7 301.4 292.3 283.4 276.5 270.3 264.1 259.1 254.4 250.3 248.8 245.9 242.8 238.8 234.2 231.2 227.8 222.9 218.6 214.1 207 197.9 187.5 178.4 166.4 161 150.3 140.9 123 110.8 102.4 100.7 100.3 99.2 100.1 99.8 100.3 100.8 101
588.4 593.2 598.5 598.9 598.2 593.2 582.4 568.2 549.1 535 518.8 499.5 474.2 444.7 414.6 388.2 379.2 374.7 373.5 372.7 371.5 370.8 370.4 370.5 370.4 368.6 365.6 366 367.1 366.5 363.2 364.6 366.7 365.8 363.9 362.1 365 370.4 369.8 369.4 372.5 379 386.4 384.9 388.2 390.6 390.1 390.4 393.7 399.4 404.6 409.3 413.8 416.6 415.8 412.8 412.9 409.3 405.5 400.1 395.5 393.6 392.8 387.4 380.5 380 378.1 376.1 371.2 367 360.3 354.1 349.7 346.7 344.2 340.4 335.6 327.3 320.3 311.6 305.2 297.4 283.6 257.6 239.4 236.2 230.8 222.8 217.1 217.1 217.1 217.1 225.5 225.5 221.9 217.1 217.1 229.4 226.6 217.1 226.6 234.3 237.8 225.2 217.1 217.1 217.1 217.1 217.1 234.5 242.9 241.9 248.6 258 268.5 283.5 294.7 297.4 298.3 299.4 302.8 311.1 315.1 323.5 332.7 343.5 351.7 356.5 356.3 361.4 369.7 373.2 373.3 372.8 372.9 373 373.6 377 383.9 380.4 378.3 374.8 370.4 365.9 359 352.5 355.5 360.9 364.7 363.4 352.6 339.5 331.8 329.9 325.4 323.4 324.9 325.1 323.6 322.8 318.7 305.2 290.7 280.6 271 263.7 259 253.7 250.1 244.9 240.6 238.3 235.6 229.4 224.8 222.8 220.2 217.1 214.1 209.7 202.3 196.9 187.9 179.9 165.6 156.5 152.8 144.2 130.9 114.3 104.6 101.4 100 100.5 100.2 100 100.7 101.7 102.6 102.8
560.9 576 587.1 584.6 586.2 581.7 570.7 554.8 537.5 510.8 487.6 467.4 446.3 421.8 401.1 382.4 372.9 369.7 369.4 369.5 368.8 368.9 369.5 369.5 369.4 367.8 366 365.5 365.1 365.1 366.8 368.8 370 366.8 364.9 367.8 372.8 373.5 374.3 378 384.3 391.7 397.1 399.5 399.3 398 400.8 406.9 409.5 414 420.5 425.4 430.6 436.6 437.5 435.7 431.1 425.6 420.5 415.9 410.7 411.1 407 400.1 393.3 389.1 384.3 376.4 374.3 366.3 357.5 353.1 349.3 347.6 343.8 339.4 334 328.3 322 312.7 300.5 290.6 272.3 250.6 236 234.3 229.6 222.7 217.1 217.1 217.1 217.1 217.1 226.4 226.6 231.1 228.4 221 217.1 217.1 239 236.9 241.3 229.1 217.1 217.1 217.1 219.6 217.1 239.7 249.5 254 259 268.4 281.3 289.1 293.3 294.3 294.8 297 300.3 307.2 316.4 318.9 320 320.3 322.1 327.6 333.1 340.2 348.6 357.4 355.8 355.9 356.4 355.5 352.2 349.8 352.8 354.8 354.5 352.3 347.7 340.6 335.3 334.1 338.5 344.8 347.5 346.9 339.9 334.7 326.4 317.6 312.1 311.7 314.7 315.7 313.9 309.9 304.4 293.4 279.6 267.4 257.2 250.7 245.9 241 238.1 233.1 229.4 226.9 224.2 217.7 213.6 210.6 208.3 206.3 203.1 196.7 189.6 184.3 177.4 168.3 156.1 146.3 142.4 130.9 118.3 105.7 102.2 101.4 101.4 98.3 101.5 100.5 102.1 102.8 104 104.6
522.2 538.7 553.6 559 566.1 561.7 552.8 528.6 516.7 483.9 455.1 434.3 420.8 404.5 387.1 376.4 370.7 369.8 368 368.3 367.9 367.9 368.1 368.3 368.3 367.3 366.3 365 363.3 365.4 367.2 370.9 371.5 370.9 374.2 377.5 376.9 380.2 385.9 392.8 398.9 402 403.3 407.9 412.8 416.3 417.9 422.1 426.1 429.8 435 438.4 442.9 446.7 448.9 451.5 452.6 451.5 448.8 440.9 432.1 425.9 416.9 407 402.3 397.8 395.1 388.6 384.1 379 368.3 357.6 351.8 346.8 341.7 337.9 333.3 326.9 319.3 310.5 302.8 287.7 264.1 247.3 235.3 233.6 223.1 217.1 217.1 217.1 221.4 222.9 222 219.6 223.2 229.3 217.1 217.1 217.1 227.4 239.3 233.9 229 217.1 217.1 217.1 217.1 227.6 236.7 250.6 258.6 264 268.7 278.7 286.8 290.9 293.2 293.5 294.9 296.3 299.9 305 311.4 316.5 319.2 318.5 315.5 312.3 314.2 317.9 321.5 327.1 330.9 334.2 335.4 336.5 334.8 333.3 330.6 331.1 330.2 328.2 325.2 319.7 317.7 319 321.9 324.5 325.3 327.3 327.6 324.6 319.9 309.6 302 299.6 298.8 300.2 298.2 294.1 286.7 278.3 267.8 256.7 246.2 238.6 234.3 228.9 224.2 223 221 219.1 214.2 208.2 203.2 200 197.5 194.9 189.7 183.9 179.5 175 165.4 155.3 144.5 132.9 127.2 118 107.7 103 101.7 98.7 100.6 100.2 98.9 100.9 102.7 104.1 105.6 107
484.3 494.6 507.6 518.6 526.6 534.3 527.1 505.8 482.5 452.5 430.6 415.3 400.6 387.6 378.8 373.8 371.3 369 366.9 367.1 367 367.1 367.2 366.4 366.3 365.4 364.8 364.8 366 368.3 370.5 373.5 376.9 379.6 381.3 383.1 383.3 389.1 395.9 402.7 409.8 410.4 414.1 420.7 425.9 430.3 435.2 439.5 448.9 448.7 450.7 456.7 457.7 460.1 462.1 465 465.2 462.5 456.6 446 437.4 428.4 418.1 412.6 409.4 411.4 405.8 403.1 397 391.9 380.2 368 359.6 348.9 343.3 336.3 330.3 322.3 312.8 302.5 291.7 273 254.2 241.4 233.8 240.9 230.9 223.5 217.1 217.1 217.1 217.1 217.1 217.1 217.3 220.4 217.1 217.1 217.1 235.7 246.4 239.5 230.1 224.1 224.3 225.2 227.2 234.3 246.2 257.2 266.3 273.2 278.8 286.2 292.1 297.3 296.9 294.7 294.6 296.9 301.5 306.1 312.2 316.5 318.9 321.2 318.6 312.4 311.2 312.8 315 313.9 312 309.8 309.2 310.9 311.8 314.6 312.1 308.5 306.6 304.9 303 301.2 299.6 300.4 301.8 305.5 307.5 308.4 308.7 307.4 303.4 296.7 288.5 285.2 283.2 282.3 282.3 278 271.4 264 254.8 244.8 236.6 230.9 225 216.9 211.3 210 210.5 208.8 206 200.3 194.2 189.1 185.6 182 176.9 172.3 170.9 168.3 155.2 144.8 135.1 121.5 112.7 106.7 104.5 100.7 100.3 100.8 100.3 100.2 100 101.8 103.3 105.2 107.2 108.9
453.9 459.9 466.5 476.9 485.6 487.5 486.9 476 454.4 430.3 413.8 399.8 387 378.5 374.3 372.6 371.3 368 367.3 366.4 366.6 366.5 365.7 366 365.2 365.4 366.1 367.8 370.9 375.1 380 387.9 390.4 390.7 385.6 386.6 392.5 401.2 408.2 413.7 420.8 425.7 430.9 436 441.1 446.9 453.8 457.9 461.4 467.6 474.4 480 480.4 483 483 480.1 480.3 478.8 467.9 452.2 441.6 435.4 429.9 424.6 420.9 419.9 415.6 413.5 405.2 400.6 390.4 374.4 363.6 353 343.3 336.3 327.1 317.6 305.8 295.2 280.4 265.5 248.7 240.1 233.8 232.4 219.4 217.1 217.1 217.1 217.1 217.1 217.1 217.1 217.1 217.1 217.1 217.1 217.1 227 235.9 239.8 232.4 229 230.9 238.2 239.9 245.5 257.6 267.4 277.2 284.5 291 296.9 306 308.4 307.2 299 295.7 301.3 301.9 308.4 312.1 316.9 319.5 321.6 321.2 313.1 311.2 317.8 321.7 321 313.7 307.4 299.2 294.7 292.8 292.6 291.3 288.4 284.9 284.2 284 283.7 283.2 283.3 282.9 286.3 290.4 291.7 293.6 293 289.3 283.6 276 271.4 269.8 269.5 269.6 264.2 257.6 250.6 242.1 234.2 228.2 223.5 216.9 207.6 204.6 200.3 198.3 198.7 195.8 191.9 185.8 180.6 176.3 171.6 166.4 165.3 160.5 154.1 144.7 135 125.5 113.2 105.7 102.2 99.8 100.1 101 100.4 100.2 100.1 100.7 102 103.9 105.6 107.9 110.9
431.6 435.2 439.3 441.4 444.4 451.5 453.3 440.6 431.3 413.5 396.9 388 380.7 375.3 373.8 371.7 370.2 369.1 367.7 366.9 366.3 366.2 364.5 364.7 365.8 367.3 369.7 375.4 382.6 390 393.7 399.4 400.1 402.5 399.5 400.5 408.4 416.2 421.9 428.7 436.9 441.3 448.2 454.8 457.5 461 469 470.6 477.9 481.4 487.4 496.1 508 511.1 514.6 508.8 501.8 497.1 491.5 477.5 458.7 443.5 439.3 435.7 437.4 436.5 431 427.4 419.3 411.6 396.9 388.4 374.5 356.5 344 332.3 320.9 309.6 298.1 288.1 277.4 267.2 251.6 240 234.2 228 217.1 217.1 217.1 217.1 217.1 217.1 217.1 217.1 217.1 217.1 217.1 217.1 217.1 217.1 236.8 248.7 245.1 236 237 243.9 252 258.8 268.9 279.2 289.2 296.6 304.3 314.1 306.7 304 303.3 302.3 305.6 305.9 305.5 306.9 306.8 312.1 314.5 316 315.5 310.7 311 316 322.8 323.8 320.7 314.4 310.6 301.1 297.4 292.2 282.3 279 277.9 274.6 274.3 274.4 275.3 275.5 274.9 275.1 275.7 277.1 283.3 283.1 277.8 271.7 266.1 261.9 259.8 260.9 258.7 252.7 245.7 240 234.8 230.9 228.3 218.1 208.9 207.4 203.8 194 190.9 189.6 187.2 183.2 178.3 173.3 169.7 164.8 159.5 155.5 145.6 138.2 131.9 123.3 112.7 104.4 102.1 102.3 101.2 101.8 101.3 100.6 100.5 100.3 101 102 103.8 106.4 119.7 124.9
412.2 413.1 415.6 418 417.8 421.9 419.3 412.9 407.8 399.3 389.5 381.2 376.9 373.5 373 371.2 370.8 369.2 368.3 366.8 366.1 366.7 366.6 368.1 370.8 374.8 379.1 385.9 394 401.6 411.7 417.8 423 421.4 423 420.6 425.7 431.5 439.3 448 454.8 458.1 469.8 479.4 480.8 478 480.1 488.9 497.4 498.7 508.2 517 519.8 524.4 537.1 541 530.9 515.7 506.8 499.7 480.5 459.7 451 445.9 443.9 439.4 434 425.3 415 401.7 383.5 377.5 367.7 350.6 336.5 324.6 313.9 304.8 293.5 281.3 274.1 265.2 256.1 241.2 230.2 217.1 217.1 217.1 217.1 217.1 217.1 217.1 217.1 217.1 217.1 217.1 217.1 217.1 217.1 217.1 243.6 250.8 244.6 240.7 248.1 256.7 263.3 274.7 282.3 291.7 297.9 308.9 316.9 318.3 306.3 301 302 304.4 309.2 309.3 308.6 307.7 305.2 303.4 305.8 307.6 308.4 307.5 308.9 310.9 313.1 316.5 315.4 313.5 310.3 307.8 309.4 305.1 295.7 284.4 273.3 270.1 269.6 269.5 269.6 271.6 271.6 271.7 271.1 273 278.2 274.8 269.3 264.2 259.5 255.6 254.1 254 252.3 246.8 240.7 234.6 232.7 232.8 224.2 212.2 204 199.9 196.7 186.4 181 180 176.7 174.6 173.6 169.2 161.5 156.1 153.6 142.3 131.9 121.4 114.1 104.4 102.9 101.2 101.1 101.4 101.2 101.3 100.9 100.7 101 100.5 101.3 102.4 105.3 113 128.9 127.1
397.3 397 396 397.5 398 396.6 395.7 393.6 388.7 383.7 378.4 374.1 372.3 371.3 371.8 371.4 369.7 369.3 368.6 368.6 367.9 368.6 370.3 374.9 378.5 382.1 391 401 413.6 425.1 435.2 443.2 448 446.5 448.4 450.1 446.6 453.1 459 467.7 475.1 479.4 485 493.6 497 495.1 499.3 504.8 510.5 519.1 523.8 527.5 526.7 527.8 526 525.5 523.4 511.1 495.8 483.5 477.2 465.9 454.6 448.4 445.5 436.5 426.7 412.6 397.2 381.4 364.5 355.9 348.4 335.1 320 309.4 303.3 295 286.4 275.3 265.6 262.1 257.5 240.4 227.7 217.1 217.1 217.1 217.1 220.6 217.1 217.1 217.1 217.1 217.1 217.1 217.1 217.1 217.1 228.1 241 248.7 242.9 248.7 258 268.1 274.9 283.1 290.1 296.3 301.9 308.2 316.5 316 304 299.3 301.7 305.8 308.7 308.5 308.3 307.3 304.2 300.8 298.9 297.3 299.3 301.9 305.5 306.8 306.6 305.3 306.5 308.9 309.6 307.2 305.3 302.6 296.3 286.7 279.1 274.5 271.4 267 265.1 265 264.5 266.2 268.7 270.5 271.1 268.7 265.2 259.8 255.1 253.1 250.7 250.6 247 241.4 234.1 230 229 223.4 215.6 204.7 195.8 192.8 182.1 173.4 168.5 163.5 164 163 165.5 161.7 151.6 148.5 138.9 130.9 121.6 109.1 103.4 102.1 102.2 101 101.3 101.2 101.1 100.8 100.6 100.3 99.1 100.3 101.8 104.2 109.2 120.9 133.3 128.5
385 386.5 387.8 390 389.3 387.8 387 384.7 385.2 382.2 378.1 375.7 370.6 368.5 370.3 369.6 370.1 369 369.3 370 370.9 373.7 375.7 380.5 385.4 394.2 409.9 425.3 437.6 449.8 460 468 481.2 486 479.7 473.2 469.1 473.3 476.2 485.3 490.2 491.9 500.4 509.3 514 516.4 515.9 518.2 520.2 529.1 532.6 534.8 542 542.8 535.1 525 510.2 501.8 489.9 467.3 460.4 455 446.8 443.1 436.6 423.7 412.2 398.8 385.2 369.5 352.1 337.9 327.3 316.9 305.2 297.3 289.9 282.5 275.6 270.5 261.1 256.5 248.2 231 217.1 217.1 217.1 217.1 217.1 217.1 217.1 217.1 217.1 217.1 217.1 217.1 217.1 217.1 217.1 229.8 240 244.9 247.1 258.3 268.1 278.9 287.6 295.3 299.4 302 307.4 310.4 317.8 314.9 302.3 299.7 299.5 300.9 300.9 300.1 299.5 299 298.8 298 295.5 293 290 294.2 298.5 302.1 300.9 299.2 302.2 302.7 304.7 305 304.2 302.6 298.7 293.7 291.5 283.4 276.2 270.8 266.2 264 262.3 264.2 268.2 273.3 274.4 267.4 262.4 256.4 254.5 252.2 250.3 248.6 241.4 235.8 227.7 221.9 216.8 211.1 203.7 195.3 189.9 177.3 159.4 155.6 151.4 145.3 142.9 147 150.4 147.1 143.7 135 126.4 118.6 107.8 103.5 99.9 101.4 101.8 101.7 101.5 101.2 101 100.8 100.5 101.7 101 101.5 104.5 110.1 120.4 136.4 137.2 129.9
374.5 373.6 371.8 381.1 381.4 374.5 375.8 380.1 381.8 379.1 375.8 373.4 369.6 366.6 367.8 368.7 369.8 369 369.4 370.7 374.3 375.9 381.5 391.8 402 413.4 427.7 443.8 456.8 474.6 486.4 497.5 520.8 532.6 529.5 514 500.3 495.4 496.3 503.7 511.2 519.4 525.3 528.3 533.3 535.2 533.1 531.6 530.5 533.7 546.3 551.7 549.3 541.3 536.3 531.3 522.5 504.9 488.8 471.4 452.6 438.6 431 425.3 419.1 412.5 400.2 389.3 381.1 364.7 342.5 326.1 315.1 306.1 295.2 284.8 275.7 270.4 266.6 262.3 261.3 252.3 242.8 230.5 217.1 217.1 217.1 217.1 217.1 217.1 217.1 217.1 217.1 217.1 217.1 217.1 217.1 217.1 221.1 233.9 242.6 248.1 259.4 268.9 279.8 292.2 303.1 306.8 308.8 309 311.4 316.2 325.9 317 302 298.8 298.5 297.3 295.6 293.4 291.5 290.4 290.6 291.4 291 289.9 287.5 286.7 290 291.4 291.8 291.4 291.9 294.5 299.9 303.2 302.8 302.5 301.1 297.8 294.2 285.8 280.1 274.6 268.4 265.5 262.3 264.2 269.6 269.9 264.6 261.7 259.1 256.4 253.3 252.2 245.8 241.4 235 222.8 217.5 212.8 204.7 196.8 185.3 177.7 165.1 157.4 142.5 137.1 133 132.5 133.2 136.9 140 137.3 131.3 124.5 113.6 104.9 102.7 100 102.4 102 101.8 101.6 101.2 102.6 101.5 100.9 103.7 104.7 104.4 109.6 125.7 134.5 140.1 139.2 134.4 133.4
368.4 367.8 365.4 365.6 365.6 366.7 368.6 370.9 374.6 372.4 371 369.5 369.4 365.8 367 366.2 367.5 369.3 369.3 372.2 377.4 384.5 393.6 407.2 415.6 431.4 448.6 468.7 488 504.1 522.4 535.9 553.7 559.5 556.8 550 540.6 523.5 528.4 532.2 537.8 542.4 542 545.6 546.1 543.9 539.1 532.4 540.5 541.5 542.5 547 547 539.2 532.6 525.8 518.8 509 491.7 473.2 462 442.9 428.5 418 407.4 397.4 387.8 377.9 359.8 344.4 333 324.1 312.6 305 296.4 285.3 275 269.6 265.3 259.7 256 250.3 240.6 224.5 217.1 217.1 217.1 217.1 217.1 217.1 217.1 217.1 217.1 217.1 217.1 217.1 217.1 217.1 231.7 239.6 251 268 276.5 281.4 294.5 307.5 315.7 321.7 321.6 320.9 322.3 325 318.8 309.1 302.7 299.4 296.1 294.7 291.8 288.4 287 285.5 285.4 285.7 287.1 288.2 287.4 286.1 285.7 286.1 286.9 286.8 285.8 286.5 289.1 292.6 293.3 293.3 292.6 290.8 287.6 283.8 278.6 272.9 265.9 265.2 260.1 260.1 262.1 263.1 260.6 259 256.9 253.9 251.6 246.5 239.8 231.8 223.5 209.2 204 196.3 184.9 175.5 166.8 158.9 149.2 137.5 126.4 119.2 119.2 123.3 127.5 130.3 129.9 124.5 117.4 109 104.2 101.5 102.7 102.4 102.1 101.9 101.7 101.5 102 104.2 104.2 107.2 110.4 110.8 113.3 125.2 139.7 147.6 146.5 142.2 138.2 137.3
374.4 365.6 357.1 359 358 357.8 360.1 361.9 366.1 367.9 368.2 368.7 367.4 364.8 367 367.8 367.4 367.3 370.1 376.8 387.8 399 406.7 419.2 432.5 450.6 472.8 496.1 525.5 544.7 558.7 567.9 577.9 581.8 585.2 580.2 573.7 561.5 558 552.9 555.9 554.1 551.3 549 548.7 543.6 542.8 550.6 547.2 541.9 539.1 538.8 537.2 530.4 525.3 517.5 510.8 500.9 490.6 478.5 454.5 432.6 422.5 408 393.9 384.1 374.6 362.7 349.3 338 340 331 317.4 306.6 299.5 288.6 278.8 269.6 267 264 247 240.6 234.5 217.1 217.1 217.1 217.1 217.1 217.1 217.1 217.1 217.1 217.1 217.1 217.1 217.1 217.1 225.7 236.5 250.6 266.9 280.1 284.7 295.5 309 322.4 330.3 337.8 339.2 343.3 341.2 333.5 328.5 325.9 321.3 307.5 298.8 299.4 295.8 290.6 286.2 283.4 283.8 283.8 284.8 286.2 286.1 285.1 284.2 284.5 284.1 282.2 279.9 282.2 281.7 280.7 281.4 282 279.2 277.2 275.2 273.1 271.6 267.1 262.2 258.6 255.4 254.2 254.3 252.9 251.2 250.6 247.8 246 242.1 234.6 228 219.6 215 206.3 191.3 184.8 175.5 164 152.2 140.7 129.1 117.9 113.6 112.8 115.8 119.5 121.6 123.2 118 109.5 104.9 101.1 102.9 103.2 102.7 102.3 102 101.7 101.6 101.4 104.7 110.7 118.3 118.6 114.9 118.1 129.7 141.2 152.8 152.3 149.7 145.6 141 141
374.7 372.8 365 359.8 355.9 355.2 352.2 356.5 359.7 362.7 363.6 363.1 361.7 364.4 366.7 369 372.4 375.7 373.9 383.9 398.3 409.5 422.7 436.3 452.7 466.1 493.3 524.2 547.7 564.3 575.7 583.8 589.1 594.6 599.2 593.4 587.2 579.1 571.3 566.6 560.7 555.9 554.4 551.4 549.9 551.1 549.9 546.8 542.7 539.1 534.4 528.7 522.2 517.3 514.3 502.3 492.7 481.9 470.8 460.9 449.7 434.5 414.9 394.7 379 369.7 362.3 350.6 339.5 331 327.8 323.2 314.9 306.7 298.3 290.1 280.5 269.4 261.9 256 238 218.3 217.1 217.1 217.1 217.1 217.1 217.1 217.1 217.1 217.1 217.1 217.1 217.1 217.1 217.1 227.3 242.2 259.9 279 287.4 289.8 299.8 312.9 326 338.4 349.8 358.5 364.7 365.1 351.2 340.1 339.8 338.2 329.2 314.9 303 303.1 301.4 294.6 291.5 284.8 283 283.8 283.8 284.6 284.8 284.2 283.4 283.9 283.6 281.6 278.6 276.7 276.7 275.8 274.9 274.4 272.4 269.9 267.5 264.9 263.2 260.7 256.6 253.5 248.9 246.3 247.2 245.7 242.7 239.9 237.7 235.5 229.5 222.8 217.7 212.7 207.6 195.6 179.1 171.5 163.1 154 140.9 128.9 119.2 113.2 111 110 110.1 111.5 111 108.8 104.5 101.5 101.7 103.4 103.1 103.1 102.6 102.3 102 101.7 101.5 107.3 124.7 129.9 132.4 132.1 126.8 135.9 147.5 152.8 156.8 154.7 153 149 148.2 150.5
373 371.8 369.5 361 358 355.4 353 349.2 350.8 354.7 354.8 357.6 361.1 362.1 366.9 370.5 376 381.3 380 391.9 405.3 418.8 438.3 457 468.8 488.5 511.9 534.1 553.9 568.5 581.4 585.2 583.9 585.1 594 607.1 604.7 606 597.7 580.5 570.8 563.8 561.5 561.3 558.5 553.6 545.8 538.1 533.8 532.6 526.5 517.6 506.8 501 493.8 482.9 474.6 466 457.7 448.7 436.6 429.8 418.2 399.7 376.9 357.4 344.5 336 325.6 318.4 313.5 307.4 300.6 295.1 288.4 284.2 277.5 268.7 257.7 247.1 231.9 217.1 217.1 217.1 217.1 217.1 217.1 217.1 217.1 217.1 217.1 217.1 217.1 217.1 217.1 223.2 242 263.9 289.5 292.5 301.7 311.8 321.9 332.3 343.3 356 371.3 385.5 387.4 381.7 368.3 354.8 347.9 345.6 334 320.2 309.1 305.3 300.1 296.4 290.8 284.5 285.3 286 285.7 285 284.8 285 283.2 282.7 282.1 282.5 282 280.3 276.9 274.5 272.5 269.7 268.8 266.4 263.1 257.6 255.6 255.8 253 251.9 246.8 244.9 242.7 239.7 234.9 228.6 224.4 225.5 220 215 208.5 204.5 197.1 187.2 176.4 165.7 156.1 146.4 131.9 124.6 114 110.8 110 108.9 106.3 105.1 104 103.7 104 103.6 104.1 103.6 102.9 102.8 102.6 102.2 102 101.6 112 125.8 137.1 144 145.8 144.9 146.5 151.8 156.2 157.5 159.1 158.5 157.1 157.8 154.2 158.9
375.5 371.5 369.2 367.6 364.3 357.5 355.2 352.1 345.2 346.8 351 352.3 358.2 360.2 367.7 375 378.2 383.5 389.7 399.2 413 429 449.1 470.7 485.4 506.3 523.5 532.5 547.6 562.9 571.8 571.7 576.1 594 604.4 598.7 605.6 606.3 597.3 587.7 577.5 572.7 564.7 558.6 553.5 548.2 537.6 528.6 525.6 522.3 511.9 503.4 493.6 481 471.6 460.3 457.5 449.3 439.6 430.2 425.5 418.8 413.5 397.3 377.9 358 340.4 325.4 312.5 306.1 299.7 292.7 286.9 282.3 277 271.6 265.7 260.9 255.1 244.5 227.4 217.1 217.1 217.1 217.1 217.1 217.1 217.1 217.1 217.1 217.1 217.1 217.1 217.1 217.1 238.3 259.4 284 297.5 306.1 318 334.7 348.2 353.8 359.2 370.4 384.2 394.6 395 388.9 378.3 365.8 354 347.2 338.9 328.6 318 311.1 303.9 298 289.7 288.5 289.7 291.2 292 292.7 292.4 296 299 294.9 288.7 285.8 286.1 290.7 289.8 288.2 284.1 280 276.3 274.4 269.5 261.9 257.1 258.7 260.3 259.4 252.5 249.5 247.2 244.6 240.5 235.1 227.4 220.4 212 204.7 201.6 197.8 190.1 181.5 170.9 160.2 149.2 138.4 128.6 115.3 110.5 108.6 107 105.1 105.2 104.6 104.2 104 104 103.6 104.1 103.9 103.6 102.9 102.5 102 104 115.2 129.3 140.7 147 154.4 158.7 159.5 160.3 163.4 165.1 161.6 160.7 162 164.5 164.1 163.3 168.3
381.7 374.7 369.7 365.7 363.9 359.9 358.4 360.4 358.5 355 342.9 347 351.2 356.3 367.7 373.7 380.4 391 401.4 410.6 426.4 442.7 462.4 475.8 491.9 508.2 518.5 530.1 544.6 554.3 559.6 561.8 579.2 585.6 588.2 584.5 585.2 590.2 584.8 578.5 570.3 562.4 553.4 547.2 541.9 533.3 523.1 522.5 512.5 503.4 497 491.2 483.8 469.7 454.3 443.9 438.2 430.2 421.1 415.8 410.6 400 388.3 379.7 368.5 353 339.5 326.8 311.6 300.9 291.6 283.8 276.6 269 266.3 268.5 270.1 261.4 252.1 239.5 225.1 217.1 217.1 217.1 217.1 217.1 217.1 217.1 217.1 217.1 217.1 217.1 224.8 229.8 235.5 254.1 274.8 296.4 311.5 323.9 342 356.7 369.6 365.9 369.3 373.8 376.5 382.7 379.8 376.7 370 365.2 357 349.2 341 333.2 325 318 308.7 299.2 295 293.9 294.1 295.4 296.8 297 297.8 300.9 303.2 306.1 303.9 298.9 296 294.6 298.3 300.4 300.1 295.3 290.4 287.2 280.5 271.7 264.4 267.8 271.6 267.2 261.5 256.1 250.9 250.2 246.6 241.6 236.7 229.3 218.7 210.1 204.9 198.7 188.4 177.1 164.7 154.4 143.2 129.8 120 112.5 108.3 105.2 105.4 105.6 104.1 104.2 104.6 104.2 103.9 104 104.6 104.7 103.7 102.8 102.4 106.3 116.9 131.2 141.7 151.1 155.5 162.8 168.1 170.3 169.7 171.7 170.2 166 164.5 166.1 167.6 168.4 170.5 175.5
383.9 380.2 375.8 368.9 366.7 363.2 360 361.4 361.5 359.5 342.8 338.9 343.8 353.1 364.1 374.2 382.7 396.6 409.5 422.4 439.4 459.4 474.3 484.3 492.4 500.4 508.9 520.3 533.9 545 549.6 560.5 566.5 569.4 571.7 570.1 565.6 568.5 571.2 565.9 555.1 546.8 540.5 533.9 525.1 517.3 508.4 505.2 502 498 482 475.7 467.4 458.4 440.6 427.2 422.6 415.7 408.5 400.6 392.4 381.4 373.7 365 355.8 344.1 331.2 319.9 307.7 297.3 292.6 284.7 274.8 265.9 258.9 256.8 255.1 247.8 240.7 233.6 217.1 217.1 217.1 217.1 217.1 217.1 217.1 217.1 217.1 217.1 222.6 231.1 232.7 240 248.6 267.4 289.1 310.4 327.9 341.1 357.9 376.3 379.7 373.4 370.4 366.9 368 370 363.7 360.8 358.4 358.8 353.7 345.2 341.5 340.9 330.1 320.1 314.8 304.8 298.7 298.2 298.6 299.1 299 298.4 299.7 301.2 304 305.1 304.3 305.9 309.7 309.3 305.5 306.6 307.5 307.6 305.4 300.8 291.5 281.2 273.8 275.4 274.3 270.7 266.4 261 257.2 256.3 253 246 238 230.3 223.6 219.6 215 207.7 192 173.8 159.4 147 136 122.4 115.2 109 106.3 105.7 105.7 106.1 105.4 105.3 105.2 104.6 104.4 104.4 104.7 104.9 104.9 104.6 106.2 118.1 130.5 139.8 147.8 159.1 162.7 170.7 177.8 179.1 178.3 179.2 179.9 181.1 180.9 176.9 172.5 173.8 179 175.8
390.4 388.2 381.7 373.2 368.6 366.3 362.2 362.7 363.1 361.6 353.4 335.9 337.6 351.4 361.7 373.9 385.7 401.3 419 437.2 448 475.8 488.9 492.6 497.6 498.4 504.1 512.1 522.1 529.8 539 549.2 556.2 557.5 557.4 554 550 544.8 541.8 545.2 539.2 536.1 527.2 521.1 510.7 500.3 491.2 487 491 488.5 470.4 455.8 446.4 435.9 417.9 403.7 395.9 391.1 385.7 380.6 374.3 366.2 361 350.3 342.1 328.5 316 305.9 295.6 287.7 281.7 275.2 266.8 262.2 258.5 254.2 244.5 232.7 222.5 217.1 217.1 217.1 217.1 217.1 217.1 217.1 217.1 217.1 217.1 217.1 235.5 241.8 243.2 247.1 261.1 283.5 304.9 324.3 342 356.8 375.8 381.8 380.2 377.6 368 365 362 361 359.3 361.1 359.9 359.5 355.4 346.2 337 336.4 328.2 322.5 315.8 304.4 300.1 299.2 299.2 299.3 298.6 300.3 300.5 302.7 304.3 304.7 302.8 303.3 308.2 311.6 312.9 311.8 311.8 312.7 313.6 311 302.8 291.6 283.5 279.4 276.6 274.9 269.8 265.2 263.7 261.6 258 250.1 243.2 236.1 228.8 221.8 211.9 200.1 184.3 167.5 152.1 140.2 129.4 119.6 112.3 107.1 106.2 106.1 106.1 104.4 105.7 105.3 105.3 104.8 104.8 105.5 105.6 105.8 106.6 107.2 117.1 126.5 133.7 145.1 155 161.7 168.1 179 185.1 186.9 190 193 192.6 193 191 185.7 178.1 178.1 184.8 190.3
393.3 389.2 386.3 377 370.5 367.7 364.9 364.3 363.2 362 355.3 339.2 334.2 348.5 363 377.5 387.9 400.7 418.5 440.4 455.1 474.8 481.1 486.8 490.8 492.9 497.7 505.8 513.8 523.2 531 538.2 545.1 543.8 539 533.5 528.2 527.8 523.6 527.4 525.8 514 511 505.5 496.7 485 474 469.2 470.4 464 449.1 435.4 426.6 411.6 402.5 394.7 384.5 374.6 368 363.4 356.8 350.6 345.4 339.9 326.9 314.2 304.3 295 284.2 276.1 269.4 263.5 258.9 258.3 257 250.8 240.8 227.6 217.1 217.1 217.1 217.1 217.1 217.1 217.1 217.1 217.1 217.1 217.1 231.3 242.3 246.9 251.4 254.8 273.8 296.6 318.5 335.3 348.5 362.7 374.7 381.8 385.2 384.2 373.5 364.3 356.3 356.3 356.3 356.3 359.8 361 357.6 351.9 340.5 328.7 320.1 313 303.9 299.3 297.6 297.9 296.7 295.8 298.2 295.1 298.7 300.9 301.8 301.7 298.2 295.9 302.1 304.6 306.4 309.2 312.7 315.2 316 313.6 308.4 299.8 291 286.5 279.6 277.5 273.9 268.2 266.9 263.5 259 254.3 248.9 242.7 231.7 220.7 208.3 191.4 175.7 158.1 142.9 133.5 123.2 114.7 110.1 107.1 106.6 106.1 106.5 106.2 106.5 105.9 105.4 105.4 105.5 106.5 106 106.7 109.9 112.6 125.2 134.8 137.5 147.5 158 166.4 170.1 183.6 189.3 189.4 196 198.8 199.6 197.5 194.4 188.5 182.3 182.6 189 196
398.4 393.3 384.8 379.3 373.6 371.2 366.8 365.5 364 361.7 354.5 336.5 331.4 346.6 361.9 376.9 386 402.9 419 435.6 451 468.7 474.7 480.1 487.4 491.7 494.3 499.9 505.7 517.3 524 526.3 527.8 526.8 519.8 511.5 506 502.8 502.5 505.9 503.4 499.8 496.3 489 479.4 463 460.9 451.5 442.3 442 438.9 425.1 410.2 395.9 391 379.2 370.2 356.6 348.7 344.6 340.6 335.4 328.6 321.3 314.9 305.7 295.9 286.7 275.2 264.2 255.8 251.6 248.2 251.8 250 233.8 225 217.1 217.1 217.1 217.1 217.1 217.1 217.1 217.1 217.1 217.1 217.1 217.1 235.5 243.6 253 259.9 264.3 283.2 306.4 330.3 345.7 350.9 358.3 367.3 378.7 383.7 380.2 374.3 369.4 360.7 356.3 356.3 356.3 356.3 360.2 364.1 362.1 352.5 338.8 329.4 321.3 314 302.7 298 293 290 288.3 289.7 288.7 293.9 296.3 296.7 294.8 290.6 284.8 287.8 293 295.5 300.8 304.2 306 306.6 306.9 306.7 303.3 295.4 289.5 281.3 278.3 274.6 268.8 265.7 264.5 260.6 257.5 255.9 249.6 236 220.9 203.1 184.3 167.4 150.3 135.7 126.9 119 112 108.6 107 106.9 106.5 106.8 106.6 106.1 105.7 106.4 109.5 110.2 109.8 107.4 106 112.9 119.6 129.5 139.4 139.7 150.4 160.8 168 176.6 188.1 191.4 196.8 200.3 201.8 201 199.3 197.8 191.9 187.8 189.2 192.6 200
402.1 397.6 387.9 378.1 372 369.2 368 365.9 364.2 361.3 352.6 341 318.7 343.9 361.6 374.3 385 404.4 418.1 433.6 454.3 467.1 472.1 475.8 483.5 486.4 490.7 497.2 504 509.2 518.9 526.7 530.9 526.2 516.9 508.7 498.9 493.3 488.9 487.5 483.1 480.7 475.5 466.9 459.9 451.3 444.5 434.2 434 435.9 426.1 408.6 397.3 385.2 372.8 364.1 356.1 347.2 337.4 329.6 327.5 321.9 314 308.2 303.5 295.5 287.7 279.8 267.7 255.5 245.3 236.4 234.9 233 230.5 217.1 217.1 217.1 217.1 217.1 217.1 217.1 217.1 217.1 217.1 217.1 217.1 217.1 229.7 241.9 250.1 261.5 269.9 273.4 286.3 308.2 328.6 339.7 345.7 354.8 361.6 370.7 378 375.9 376.8 381.3 379.3 368.1 356.3 356.3 356.3 359.4 359.6 361.1 355.5 344.4 341.8 337.4 327.5 318.3 305.9 294.7 291.5 293.4 292.5 285.7 284.4 283.3 284.5 284 277.7 273.6 274.8 281 286.1 295 299.5 298.8 296.4 295.7 295.4 291.1 286 282.4 279.1 276.1 272.7 268 265.1 262.6 261 260.8 259.2 254.6 241.2 223.3 197.5 177.8 160.1 143 133.9 125.2 114.6 107.9 107.6 107.4 107.1 106.8 107 107 107.8 110.9 111.1 112.9 111.4 111.5 107.8 112.8 118.5 123.6 133.7 142.6 142.6 154.4 164.5 169.8 181.5 189.9 195.7 199.6 203.1 201.4 199.4 197.8 197.1 195 193.2 199.6 204.1 204.5
402.7 396.1 388.8 379 372.7 365.9 366.4 365.2 363.9 359.6 352.8 342.5 320.6 337.3 356.5 370.6 385.3 402.8 416.8 430.6 456.8 460.8 463.3 469.1 476 480.3 486.2 490.9 494.9 504.2 518.8 520.8 521.7 513.7 505 497.3 488.5 482.6 480 480.5 476.1 468.8 463.3 457.3 447.1 433.7 431 427.1 420.3 414.7 406.5 392.6 382 372.2 356.7 346.4 341.2 334 326.6 316.4 310.7 305 299.4 296.9 292.2 285.9 279.6 273.6 260.4 248.9 238.1 231.3 217.3 217.1 217.1 217.1 217.1 217.1 217.1 217.1 217.1 217.1 217.1 217.1 217.1 217.1 217.1 217.1 234.9 247.5 259.2 273.9 279.6 283 291.4 308 326.5 341.2 350.7 355.7 359 365.3 371.2 375.3 379 379.2 373.9 365.6 358.7 356.3 356.3 356.3 356.3 356.5 357.2 359.8 358.4 353.8 343.3 328.2 314.4 301.7 298.6 297.1 294.7 291.6 290.5 288.9 283.6 277.4 272.7 271.6 273.2 277.3 282.2 288.5 293.1 294.2 289.7 287.9 290.4 287.9 281 274.8 272.5 270.7 267.4 264.8 262.3 260.2 261.4 261.4 259.8 256 243.8 220.7 192.2 172.3 154.2 139.6 131.2 120.9 111.9 108.2 107.9 107.9 107.6 107.3 106.1 112.5 112.3 113.1 114.7 114.4 112.6 109.6 108.7 115.9 120.1 126.2 135.3 144.1 149 159.2 169 172.3 181.4 192.5 199 203.6 205.7 201.4 198.8 197.4 197.6 198.2 200.4 205.7 209.8 210.7
403.2 396.1 388.7 379.9 372.2 365.6 365.7 365 363.1 359.2 351.2 342.3 318.7 336.6 353.4 370 385.6 402.2 414.2 430.4 446.2 452.1 456.5 463.8 467.6 477.2 483.3 484.3 485.4 494.6 500.6 504.1 499.9 493 488.7 483.1 475.3 467.9 466.5 467.9 465.7 463.5 456.9 446.9 438.3 429.3 422.9 416.8 409.8 399.5 386.3 379.3 369 357.1 344.5 334 326.5 318.8 310 302.6 297.6 289 287.2 285 280.7 274.6 269.4 262.8 249.3 235.6 218 217.1 217.1 217.1 217.1 217.1 217.1 217.1 217.1 217.1 217.1 217.1 217.1 217.1 217.1 217.1 217.1 217.1 242.1 254.5 270.9 281.2 289.1 292.5 297.3 312.4 329.1 347 353.1 354 355.6 359.7 365.9 370.2 377.1 377.7 370.9 361.5 358 361.2 358.7 360.8 362.4 362.9 359.8 359.3 357.3 354.7 349 336.2 319.2 308.9 304.4 302.6 296.8 294 294.5 297 295 286.1 279 272.4 271.4 270.6 274.1 278.2 282.6 284.4 281.2 278.6 279.8 277.9 273.4 269.4 266 263.5 260.9 259 257 255.9 254.8 255.9 253.5 247.7 232.3 207.6 185.2 165.8 147.7 136.3 125.2 116.1 112.1 108.2 108.3 108.3 108.4 107.8 110.3 113.7 115.6 117.8 119.1 117.8 114.7 112.6 109.7 110.6 116.1 128.4 140.5 145.4 152.5 162.9 171.2 176.5 185.8 194.9 202.1 206.9 207 202 199.6 199.6 201.7 203.4 206.9 209.4 217.6 218.1
405 396.2 392 384.2 372.7 365.3 362.7 364.2 362.5 352.3 348 337.7 318.4 333.2 351.7 362.9 380.9 396.3 408.8 427 435.4 442.3 447.6 452.6 459.9 466.8 470.9 474.6 479.4 484.8 487.9 486.1 480.7 476.7 471.9 466.5 461.1 454.5 452.6 455.7 458.2 455.1 448.3 443.5 440.4 434.3 417.4 401.5 392.5 381.7 367.8 364.4 357.7 347.6 334.9 322.5 313.9 305.4 298.7 292.7 283.3 275.1 271 269.5 266.2 260.7 252.9 245.1 230.2 217.1 217.1 217.1 217.1 217.1 220.7 217.1 217.1 217.1 217.1 217.1 217.1 217.1 217.1 217.1 217.1 217.1 217.1 233.5 244.8 259.5 274.4 286.5 296.1 300.2 302.8 314.6 330.1 348.8 355.2 360.4 361.9 360.9 363.1 367 369.8 371.6 374.1 371.6 365.6 369.4 369.1 367.4 362 359.2 356.3 354.6 351.1 347.8 341.8 332.2 321.2 312.2 315.5 309.2 299.4 294.9 293.9 293.8 294.1 291.9 283.4 278.7 273.4 267.5 268 268.5 268.6 268.6 264.8 265.4 265.7 266.2 264.4 263.7 258.8 255.8 253.2 250.2 246.7 245.1 243 240.6 234.1 222.9 206.7 191.1 174.4 157.3 142.4 130.8 119.7 114.6 112.1 108.7 108.7 108.9 107.1 108.9 114.6 118.9 121.9 122.6 123 122.5 120.9 118.4 116.1 115.8 118.6 129.1 142.6 149.1 156.3 165.6 173.8 181.7 189.8 197.5 202.5 208.1 206.2 202.2 201.1 202.6 203.5 207.5 213.5 217.7 221.1 220.6
405.5 394.9 390.4 383 374.1 364.8 360.8 360.1 358.1 355.6 347.9 335.3 309.4 330.9 346.6 357.7 374 389.3 403.3 415.8 423.4 432.1 436 441.2 447.7 456.2 463 471.1 478.8 481.3 480 477.4 467.3 457.7 452.7 450.5 448.3 440.4 440.5 443.3 444.3 441.9 441.6 431.8 430.1 424.4 408.3 390.2 372.7 362.1 351.3 346.8 341.6 334.6 321.7 309.4 298.6 291.7 285.9 278.6 269.3 258.2 253.1 248.6 241.1 232.2 225.7 217.1 217.1 217.1 217.1 223.5 235.3 230.6 217.1 217.1 217.1 217.1 217.1 217.1 217.1 217.1 217.1 217.1 217.1 217.1 217.1 239.7 249 261.8 277.3 289 299 304.3 311 319.8 332.9 345.9 363.1 371.8 372.8 373.3 370.3 370.2 376.5 384 383.2 379 377.7 382.1 379.5 373.9 367.2 364 361.4 359.5 353.2 348.2 336.4 328.6 321.3 319.7 319 311.9 303.5 295.8 291.7 292.1 291.4 294.3 296.7 292.5 281.9 269.8 262.1 260 258.4 257.6 256.5 252.8 252 252.4 252.8 252.5 250.4 246 243.3 240.4 238.4 235.5 232.5 227.4 217 201.8 189.4 177 163 147.3 134.2 123.6 115.1 112.1 112.4 109.3 109.6 107.2 108.8 112 120.4 123.5 124.9 125.5 126.3 126.7 126.2 125.1 120.9 124 128.3 111.8 143.1 151.4 159.7 168.3 175.6 182.9 191 196.7 201.4 204 205.6 204.2 203.9 206.1 208.6 213.2 218.6 221.5 222.7 224.3
407.4 397.4 387.7 379.4 370.3 364.1 357.3 356.4 355.8 351.3 344.4 330.9 307.2 325 341 353.3 367.6 381 394.4 402.7 410.6 419.4 424.6 430.3 438.7 446.3 460.1 467.3 473.4 473 471 464.6 450.9 443.9 444.1 439 440.4 428.9 425.7 423.8 421.7 424.5 424.1 410.3 401.1 393 376.6 361.1 347.5 337.6 328.1 322.1 317 311.1 302.9 298.3 293.5 288.4 282 275 264.3 254.7 243.9 229.6 217.1 217.1 217.1 217.1 217.1 217.1 217.1 217.1 223 217.1 217.1 217.1 217.1 217.1 217.1 217.1 217.1 217.1 217.1 217.1 217.1 217.1 231 242.6 252.1 264.4 277.7 289.9 306.1 318.8 321.7 327.9 334.4 358.9 381.5 383.2 378.8 377 383.2 386.7 388.7 391.8 392.6 391.3 386.1 387.8 385.2 384.4 379.3 373.1 364.6 361.7 355 348.7 334 324.2 321.6 320.8 318.9 311.1 301 294.1 289.5 288.5 291.1 293.6 294.5 287.7 278.2 268.1 262.5 259.8 261.5 262.4 260.9 258.3 255.1 253.5 251.6 248.5 243.4 238.4 229.5 227.6 227.3 225.2 220.1 210.8 196.4 186.5 176.6 165.5 150.7 138.2 127.4 120 114.7 111.6 110 109.7 110 109.3 113.8 124.1 125.6 128.3 129.2 130.9 131.6 131.2 130.7 131.2 130.3 138.1 142.1 143.7 119 153.3 162.2 169.8 176.3 183.1 192.1 197 201.7 205 206.5 207.5 208.3 210.9 215.1 219.6 222.8 225.2 228.2 230.7
403 393.9 386.2 377.8 369.4 362.5 358.1 352.1 347.6 344.1 335.3 325.1 311.7 323.3 336.2 350.8 361.7 373.8 387.6 394.8 400.7 408.2 411.7 420 427.1 434.2 441.7 446.1 448.8 449.8 449 442.9 435.4 423.7 426.1 429.7 425.8 411.4 407 405.1 400.1 395.9 389.8 378.8 371.6 359.1 345.4 330.9 319.9 313.3 307.3 304.1 301 300.1 296.6 292.4 286.7 284 274.8 265.2 251.8 241.5 231.4 220.8 217.1 217.1 217.1 217.1 217.1 217.1 217.1 217.1 217.1 217.1 217.1 217.1 217.1 217.1 217.1 217.1 217.1 217.1 217.1 217.1 217.1 217.1 231.9 243.4 256.7 271.8 284 298.8 316.3 332.4 329.7 333.5 353.2 373.7 381.8 384.7 379.2 384.4 390.9 392.3 407.9 415.6 411.7 404.1 396.9 393.2 381.5 376.6 368.6 361.5 356.3 357.1 351.9 341 338.2 327 320.9 321.2 316 307.3 298.9 292.1 286.5 286.3 287.2 290.5 287 281.8 277.2 273.4 268.7 265.8 267.6 267.3 264.4 262.4 261.7 258.9 255.5 250.3 240.7 233.4 226.8 220.9 217.4 213.9 207.9 194 181.8 173.1 164.1 153.1 140.4 131.3 124.8 122.9 112.9 111.1 110 110.2 109.9 117.3 118.2 125.7 129.6 133.2 134.5 136 136.3 136.6 136.9 139.3 146 150 150.8 152 144.8 156.8 164.2 171.2 178 185 192.1 197.9 202.2 205.6 208 209.7 212.8 218.8 224.2 228.8 233.1 234.7 235.7 237.5
400.2 393.9 383 376.4 372.5 365.4 361 352.8 348.4 337.5 331.8 326.9 309.4 320.6 332.2 344.9 356.3 368.1 381.9 386.9 394.2 392.8 399.1 407.4 415.1 425.7 429.9 430.8 431 425.5 423.4 421.8 415.5 404.6 404.4 406.7 401.7 396.6 388.6 384.9 381.8 373.8 365.2 361.2 352.4 340.7 329.1 320.1 309.5 303.3 297.3 293.6 291.2 288 286.3 282.5 275.5 268 260 251.4 239.2 229.1 225.4 217.6 217.1 217.1 217.1 217.1 217.1 217.1 217.1 217.1 217.1 217.1 217.1 217.1 217.1 217.1 217.1 217.1 217.1 217.1 217.1 217.1 217.1 217.1 235.5 253.1 266.6 278.4 291.8 308.4 326.4 337.8 333.9 339.5 356.2 369.5 377.9 379.9 383.4 393.5 397.9 404.7 414.8 418 417.8 417.2 416.5 405.2 385.4 370.7 363.6 353.6 344.4 337.8 334.7 334.7 341 329 320.8 322.2 317.1 307.6 296.7 291.6 286.8 285.6 286.5 289.2 290.4 287 283.3 280.7 277 273.4 272.3 271.7 269 265.5 262.9 258.1 253.5 248.5 242.7 238.6 232.3 220.4 211.8 205.6 193.3 177.8 166.2 155.6 152.3 143.7 134.9 127.9 123.8 121.6 117 114.1 110.3 108 120.4 122.1 126.2 130.2 133.5 137.4 139.4 140.2 142.3 143.5 144.5 153.9 155.5 157 157 150.8 152.7 159.5 166.4 173.8 179.4 186.7 193.6 199.4 203.7 207.3 210.5 213 220.4 227.7 233.1 237.8 241.4 245.3 245.9 248.9
401 391.5 381.2 376.7 373.7 369.2 359.2 352.7 344.1 336.9 328.4 324 311.1 313 328.8 339.1 349 359.2 370.1 372.3 379.3 383.3 385.3 392 398.6 411.2 412.2 408.7 410.9 404.8 403.5 400 392.4 382 380.3 378.9 379 376.5 368.6 364.8 360.1 358.4 354.6 350.6 338.6 328.2 318.1 310.9 300.4 289.8 285.8 284.2 278.4 276.3 276.1 272.3 264.7 257.2 246 238.4 231.1 228.2 226.9 217.1 217.1 217.1 217.1 217.1 217.1 217.1 217.1 217.1 217.1 217.1 217.1 217.1 217.1 217.1 217.1 217.1 217.1 217.1 217.1 217.1 217.1 228.9 241.8 258 271.6 286.3 303.8 318.3 324.2 330.2 334 343.8 356.3 368.3 376.8 384.7 392.5 397.5 400.6 409.2 414.2 421.3 424.4 421.7 411.8 404.4 387.5 371 361.6 355 341.8 337.1 332.7 331.6 329.4 326.1 318.3 313.9 310.2 302.5 298.9 294.1 288.7 286.5 286.1 287 286.6 284.6 283.7 286.9 289 281.3 277.3 278 277.4 271.7 261.5 251.8 248.2 247.6 247.7 242.6 232.5 218.6 209.4 202.7 191.8 179 167.1 151.3 140.2 134.5 129.6 126.4 120.7 117.8 114.7 113.1 110.8 111.2 123.3 127.1 132.9 135.3 139.3 142 143.7 145.6 148.8 153.6 156.2 160.8 161.2 161.5 159.8 153.9 156.5 162.4 169.3 175.9 182.5 189.6 196.4 202.5 207 210.8 214.1 219.8 229.3 236.2 240.9 244.5 249.5 254.8 257 257.1
395.8 387.6 378.3 372.6 371.5 364.7 355.7 348.5 344.1 331 322.9 316.3 310.1 306.8 324.7 335.3 347.1 354.2 359.7 366.5 369.2 371.3 370.3 374.7 380.5 390.1 391.4 389.4 392.7 386.2 379.7 376.6 363.9 356.9 356 355.9 354.3 351 348.4 346.3 342.6 340.7 336.3 334 325.4 315.7 306.2 298.3 284.4 273.3 271.6 270.2 268 265.8 265.1 260 251.5 242.4 241.3 238.3 227.9 217.1 217.1 217.1 217.1 217.1 217.1 217.1 217.1 217.1 217.1 217.1 217.1 217.1 217.1 217.1 217.1 217.1 217.1 217.1 217.1 217.1 217.1 217.1 217.1 233.5 247.4 259.7 274 299 309.9 315.6 323.2 331.2 334 337.4 352.9 364.5 372.9 384.2 392 395.5 403.9 411.8 411.3 412.6 408.7 406.4 403.2 395.2 383.5 370.6 363.3 355.5 345.4 338.7 336 333.2 328 324.4 317.3 312.2 312.9 313.7 311.6 306 297.1 290.6 287 286.6 292.2 294.4 293.4 291.1 287.8 281.5 275.9 278.5 280.2 275.2 262.5 249.1 245.6 245.3 242.1 237.9 227.8 214.9 205.4 198.3 189.6 178 165.4 151.7 142.5 131.6 128.2 123.4 118.7 115.7 118.5 111.3 111.1 122 125.9 132.2 139.1 141.7 143.6 146.3 149.9 153.2 156.4 160 164.9 166.1 166.7 165.4 164.5 159.1 157 165.8 172.4 179.8 186.5 193.6 199.8 206 211.3 216.3 221.5 230.3 236.5 242.6 246.9 250.1 256.1 259.8 264.5 266.9
389.5 380.7 372 366.2 360 355.7 349.5 346.6 339 328.8 322.1 314.6 306.3 305.1 322 333.3 341.1 346.8 353.7 357 356.7 354.5 355.7 359.1 363.3 367.3 369.4 371.7 372.2 364.3 350.9 350.5 344.9 341.2 341.7 340.6 340.9 334 333.3 333.6 328.5 323.3 319.2 315 309 301.5 293.6 285.3 272.4 259.5 257.1 257.1 258.8 256.8 252.4 241.8 240.3 240.8 236.7 228.8 217.1 217.1 217.1 217.1 217.1 217.1 217.1 217.1 217.1 217.1 217.1 217.1 217.1 217.1 217.1 217.1 217.1 217.1 217.1 217.1 217.1 217.1 217.1 217.1 226 236.6 246 256.8 269.9 292.3 308.6 322.4 333 337.1 338.6 336.9 342.2 350.4 364.6 378.9 385.7 395.5 403.4 409.6 410.9 413.1 417.1 410.9 404.9 398 384.3 363.6 359.8 354.4 348.1 341.3 339.7 332.6 325.7 322.6 318.8 320.7 322.9 322.3 319.4 316.2 310.4 298.4 293.3 291.5 292.4 293 288.8 285 280.3 274.9 272 273.9 269.1 260.2 249.5 244.5 242.5 239.3 234.4 228.6 219.7 209.8 200.7 192.2 184.1 173.1 155 140 134.6 129.1 125.3 122 116.9 113.4 113 109.4 116.2 126.6 129.4 136.8 142.9 148.2 152.1 152.4 155.3 160.3 166.1 169.9 169.6 171.8 171.5 168.9 167.2 160 164.8 171.4 177.5 183.9 190.7 197.8 204.3 210.6 216.1 222.2 229.7 236.9 243.5 250 252.3 253.8 256.4 261.7 270 267.2
386.6 376.7 369.8 360.4 354.1 351 346.7 340.8 333.9 326.3 320.2 315 304 305.2 315.1 322.7 331.6 338.3 338.3 339.9 340.1 337.6 339 342.8 343.7 348.7 350.3 348.3 341.5 341.4 334.7 332.7 330.2 327 324.1 324.2 325.1 320.4 320.2 318.7 317.5 310.3 304.6 299.1 294.5 288.9 280.4 274.7 267 257.9 248.5 245.5 243.7 239 233.4 237 237.4 232.1 220.9 217.1 217.1 217.1 217.1 217.1 217.1 217.1 217.1 217.1 217.1 217.1 217.1 217.1 217.1 217.1 217.1 217.1 217.1 217.1 217.1 217.1 217.1 217.1 217.1 217.1 234.9 242.8 251.3 261.6 276.8 292.3 310.6 326.5 341.7 347.2 345 343.6 345.2 356 368.4 379 389.9 397.9 406.9 409.6 409.3 409.6 407.6 400.4 398.2 393.8 385.9 366.5 359.3 351.3 347.2 340.2 334.3 328.9 328.3 328.6 327.5 327 324.9 322.7 321.6 322.7 319.3 306.2 297.8 294.1 290.7 287.6 282.9 277.7 273.9 268.6 265.9 265.3 261 253.1 246.2 241.1 236.3 232.7 228.2 221 211.8 201.7 192 184.1 175.7 158.8 140.2 127.8 126.6 124.9 120.6 117.5 110.6 112.7 112.2 118 127.8 130.2 137.5 144.2 150.2 154.3 160.2 158.9 162.5 164.6 172 174.5 174.8 175.3 175.7 173.1 166.7 156.1 171 176.8 182.9 188.2 195.3 202.5 209.1 215.8 221.6 228 236.5 243.4 248.8 252.9 255.4 256.9 259.3 267.7 268.8 267.3
378.3 369.9 361.5 354.7 349 344.8 340.7 333.7 326.9 322 317.6 309 300.8 300.6 309.9 320.7 326.1 333 332.6 332.8 327 324.8 325.7 327 327.3 331.1 331.8 333.2 332.9 326.4 321.5 319.6 317.7 314.1 307.5 308.4 308.4 308.1 309.1 307.4 304.3 298 293.1 288.8 284.9 280.6 276.5 276.6 270.2 255.3 240.9 238.1 233.7 231.9 231 229.1 217.1 217.1 217.1 217.1 217.1 217.1 217.1 217.1 217.1 217.1 217.1 217.1 217.1 217.1 217.1 217.1 217.1 217.1 217.1 217.1 217.1 217.1 217.1 217.1 217.1 217.1 217.1 237 242 248.1 255.9 264.9 278.1 292.5 307.7 326 337.8 348.1 347.6 347.5 352.4 360.9 375.3 385.8 395.9 402.2 410 414.7 417.5 423 422.2 414.7 407.4 386.4 373.4 365.3 355.6 345.3 342.2 340.6 340.6 339.1 338.7 337.1 334.5 329.3 324.6 321.7 320.8 320.6 317.2 308.5 300.9 295.3 288.3 284.8 279.9 274.8 269.1 264.2 261.7 260.2 255.7 250.1 244 237.3 231.8 226.7 220.2 210.7 197.9 191.1 182.3 172.1 160.6 147.4 134.4 126.7 122.6 120.8 114.4 112.1 113.1 118.1 122.5 129.3 132.2 132.4 140.7 147.9 154 159.9 165.1 166.6 169.6 171.3 174.5 178.2 178.5 178.5 176.9 172.2 165.5 167.1 175.2 180.9 187.2 194 200.8 207.7 214.5 221.2 227.8 234.4 241.1 248.7 252.5 254.9 258.2 261.5 264.8 270 270.9 271.6
365.8 356.3 351.7 346.3 340.4 336.5 331.6 324.4 317.2 320.9 312.7 305.7 300.3 284.8 303.5 312 315.7 315.9 316.9 319.5 314.6 313.5 313.2 312.8 315.3 319.9 323 324.3 316.9 309.6 307.1 305.7 301.4 295.1 296.6 296.4 295.9 297.1 296.8 294.9 290 287.1 281.2 277.5 275.2 272.9 271.1 267 257.4 239.7 232.8 232.7 235.4 228.9 217.1 217.1 217.1 217.1 217.1 217.1 217.1 217.1 217.1 217.1 217.1 217.1 217.1 217.1 217.1 217.1 217.1 217.1 217.1 217.1 217.1 217.1 217.1 217.1 217.1 217.1 217.1 217.1 230.2 239 245.6 253.3 258.2 267.2 278.6 289 301.7 317.2 332.3 341.2 342.4 352.3 360 370.9 382.3 389.6 401.2 414.7 417.8 421.1 428.5 435 437.3 429.6 418.9 398.3 376.8 358.2 349.2 347.6 351.4 353.5 355.3 353.8 351.3 345.7 340.7 335.5 326.9 319.3 317.6 317.4 315.3 310.3 306.2 297.4 288.5 283.1 278.4 273.5 267.9 263 260.3 257.2 252.3 245 238.3 231.9 226.1 220.2 212.4 198.8 183.8 177.9 169.2 158.4 147.1 139.5 131.7 126.7 120.4 114.4 112.9 114.1 116.3 124.1 129.6 130.7 132.1 137 145 149.3 157.6 164.5 170 172 174.4 174 174 179.3 180.9 181.2 176 166.9 168.7 174 179.5 186.4 193.5 200 206.3 213 219.6 226.2 232.6 238.2 245 250.6 255.7 259.9 263.6 267.3 270.3 272.8 273.5 273.8
359.6 351.5 345.3 340 334.4 329 323.4 314.8 307.8 306.1 304.5 301.4 297.9 292 293 304.1 307 308.8 312.8 311.3 308.4 302.9 302.2 304.7 308.6 309.5 309.7 308.3 301.8 296.5 295 293.7 289.6 282.1 286.2 286.5 286.8 287 285.4 280.2 277.1 273.7 269.4 264.9 263.9 259.7 255.2 250.6 242.8 227.8 223.9 217.1 217.1 217.1 217.1 217.1 217.1 217.1 217.1 217.1 217.1 217.1 217.1 217.1 217.1 217.1 217.1 217.1 217.1 217.1 217.1 217.1 217.1 217.1 217.1 217.1 217.1 217.1 217.1 217.1 226.3 229.1 234.3 243.5 250.7 260.2 266.3 273.8 288.6 303.9 315 321.3 330 341.8 344.3 351.2 369.4 387.2 388.8 400.1 408.4 410.2 416.9 429.1 426.9 443.4 442.3 437 418.1 382.1 369.8 369.7 364.7 359.6 362.4 364.3 364 362.9 358.7 353.4 348.7 344.9 342.2 333 325.6 323.7 319.1 315.8 312.8 305.5 298.3 293 287.8 283.1 276.4 266.9 260.8 257 251.2 242 231 225 219.7 213.1 204.9 188.1 174.2 163.6 154.1 144.2 138.6 134.1 129.4 123.5 116.4 114.7 114.3 115.5 119.4 125.8 131.6 135.4 138.8 144.3 148.6 152 160.4 167.3 173.4 174 175.4 174 177.1 180.5 181.5 179.1 173.3 166 175.8 180.1 185.3 192.2 199 205.3 211.1 217.8 224.6 231 236.8 242.6 249 254.4 259.6 264 268.6 272.9 274.2 275.5 275.7 274.8
351.4 344 337.9 331.5 325.5 317.5 306.8 300.1 298.6 295.4 295.9 295 292.7 289.9 285.6 297.6 298.8 302 305.5 304.5 301.3 297.6 298.7 299.2 295.7 294.3 295.7 291.9 287.1 284.6 284.8 283.7 278.5 274.6 275.3 276.7 276.2 271.9 269.3 266.7 265.4 262.8 256.6 253.8 250 244.2 234.5 228.7 222.8 217.1 217.1 217.1 217.1 217.1 217.1 217.1 217.1 217.1 217.1 217.1 217.1 217.1 217.1 217.1 217.1 217.1 217.1 217.1 217.1 217.1 217.1 217.1 217.1 217.1 217.1 217.1 217.1 217.1 226.5 228.5 231.4 234.7 244.6 257.2 267.3 275.1 278.8 285.3 300.9 319 329.8 336.3 350.5 351.9 347.7 352.2 368.9 379.5 395.3 406.5 408.6 406.8 410.6 416.1 406 406.4 406.5 396.5 390.6 389.3 384.2 379 373.1 373.7 373.5 376.4 374.2 371.2 365.7 358.2 356.7 355 351.9 343.7 336.8 333.3 329.5 327.1 320.6 312.7 306.8 301.9 296.1 289.9 280.9 271.2 262.8 257.3 251.1 236.9 224.1 217.3 211.9 203.9 193.4 178.7 165.8 154 145.8 138.7 134.3 132.3 126.4 115.8 115.6 115.1 114.9 119.5 123.2 126.1 131 138.5 145.6 150.1 152.9 155.5 162.3 167.5 171.2 173.6 175.7 174.1 181.3 181.9 180.9 178.7 175.4 166.8 175.4 184.5 190.8 196.6 202.6 208.7 214.9 221.8 228.7 234.3 239.8 245.2 253.4 258.3 262.8 267.3 270.9 274.6 276.8 276.3 276.4 277.1
341.9 333.6 327.2 318.9 311.6 302.7 295.6 290.7 290.6 289.6 288.6 287.6 284.7 282.1 274.2 289.2 291.3 295.4 298.4 299.2 299 297.6 292.9 288 283.6 280.6 279 278 281.2 282.5 280.5 275.1 270.3 264.4 264 264.8 262.7 259 256 253.3 248.8 245.1 237.2 235.7 234.3 217.1 217.1 217.1 217.1 217.1 217.1 217.1 217.1 217.1 217.1 217.1 217.1 217.1 217.1 217.1 217.1 217.1 217.1 217.1 217.1 217.1 217.1 217.1 217.1 217.1 217.1 217.1 217.1 217.1 217.1 217.1 227.5 227 229.1 231.4 236 244.4 257.1 272.6 283.9 288.3 289.9 295 307.4 323.5 331.8 340.1 347.3 344.5 356.2 362.1 379.7 390.1 393.1 399.4 397 389.8 385.2 387.1 394.3 398 398 397.6 401.8 403.4 398.9 388.1 380.2 377.5 374.9 373.5 373.3 371 367 363 364.4 364.6 359.7 348.3 340.4 337.4 337.9 338 332.5 321.8 314 308.6 303.4 298.7 286.2 274.2 267.8 260.7 250.9 237.7 222.5 209.7 202.3 193.2 179.5 168 156 147.1 140.5 134.1 128.8 126.8 119 116.8 116.1 115.2 116.3 120.1 124.8 128.3 134.8 142.7 147.4 151.5 153.9 155.4 162.5 168.9 170.9 174.6 177 183.9 184.4 183.6 182.8 179.9 175 179.9 185.9 188.4 193.5 198.6 205.3 211.5 217.4 223.3 229.7 235.1 240.4 247.2 254.8 260.2 264.2 268.5 272.3 276 277.5 277.2 277.7 280.5
333.8 322.5 315.2 304.7 298.1 291.5 285.8 282.8 283.7 283 282 281.6 276.2 279.2 271.5 285 286.2 289.8 294.3 296.5 297.1 299.5 298.1 298 293 286.6 280.8 275.2 274.2 274.4 272.9 269.1 260.4 251.4 248.9 249.4 246.4 243.3 237.3 232.2 217.1 217.1 217.1 217.1 217.1 217.1 217.1 217.1 217.1 217.1 217.1 217.1 217.1 217.1 217.1 217.1 217.1 217.1 217.1 217.1 217.1 217.1 217.1 217.1 217.1 217.1 217.1 217.1 217.1 217.1 217.1 217.1 217.1 226.7 231.2 231.7 230 229.8 231.6 234.5 241.4 252.2 264.2 280.2 294.1 300.5 299.3 299.4 314 329.3 333.2 333.6 334.1 337 344.3 354.6 366.6 370.8 376.8 380.9 381.3 381.1 383.7 386.7 394.8 395.3 398.5 411 417.1 414.3 406.1 393.6 384.3 379.6 377.3 374.7 374.5 371.8 365.1 363.5 364.5 360.6 353.7 347.5 342.5 341.1 342.9 339.5 336.2 326 319.9 315.3 308 301.1 290.5 282.1 276.9 271.8 259.4 241.9 221.5 205.1 193.1 184 167.5 157.9 148.9 141.7 135.3 130.1 126.1 121.8 119.5 117.8 116.8 114.2 122.6 124.7 129.6 133.2 139.2 144.5 148.5 152.3 154.7 157.3 162.1 166.5 173.6 178.7 183.1 186.1 185.5 184 183.6 178.5 181.3 189.4 190.4 193.7 192.4 200.5 208.1 214.7 218.7 224.5 230.3 235.9 240.9 247.2 253.9 259.3 263.9 268.4 273.4 277.6 278.8 279.1 282.9 289.4
323.3 310.9 304 292.1 283.6 279.2 276.6 275.5 277.5 277.4 276.9 275.9 274.5 274 271.9 281.4 282.8 284 288.4 291.8 300.5 306.6 305.2 303.5 299.6 293.3 287.6 281.2 273.4 268.3 266.5 258.8 249.6 236.5 232.4 233.9 228.5 217.1 217.1 217.1 217.1 217.1 217.1 217.1 217.1 217.1 217.1 217.1 217.1 217.1 217.1 217.1 217.1 217.1 217.1 217.1 217.1 217.1 217.1 217.1 217.1 217.1 217.1 217.1 217.1 217.1 217.1 217.1 217.1 217.1 217.1 225.8 230.4 235.3 234.1 233.7 232.8 233.7 237.5 243 246 254.5 268.5 284 295.3 302.7 305.2 304.9 322.8 330.8 331.4 326.4 328.3 334.2 338.1 339.4 344.4 356.6 369 374.9 379.9 390 389.7 386.4 389.5 403.9 413.2 426.8 431.5 428.4 417.1 404.5 398.4 388.3 381.7 377 374.4 370.6 365.6 361.5 357.1 353.3 348.1 345.6 342.9 341.2 339.8 333.3 327.5 324.4 321.9 318.9 310.9 304.7 297.4 291.7 284.8 276.8 264.3 242.7 221.2 202.8 185.7 175.9 162.7 153.2 148.4 145.8 141.7 139 129.6 125.4 115.5 117 116.2 118.8 126.8 135.2 136.8 138.1 140.5 148.8 154.2 157.6 160.3 162 165.3 171.4 179 184.2 187.1 188.4 187.1 184.5 181.5 180.4 190.2 190.7 193.2 197.8 193.4 205 211.5 217.6 221.6 226.1 231.2 237.1 241.8 247.4 252.7 258.2 263 269 274.6 280 281.5 281.3 286.1 291.3
310.8 302.7 293.2 283.9 277.1 272.7 272.8 271 271.1 272 270.6 270 271.6 273.4 259 277.4 278 281.1 284.7 288.9 295.4 300.3 301.6 301.8 300.7 292.9 286.2 276.7 264.2 254.7 252.2 239.4 234.5 233.1 228.8 217.1 217.1 217.1 217.1 217.1 217.1 217.1 217.1 217.1 217.1 217.1 217.1 217.1 217.1 217.1 217.1 217.1 217.1 217.1 217.1 217.1 217.1 217.1 217.1 217.1 217.1 217.1 217.1 217.1 217.1 217.1 217.1 217.1 217.1 217.1 230.6 235.1 235.6 235.9 239.3 239.7 239.6 238.8 246.8 257.7 258.1 263.7 273.9 289.7 301 304.4 303.6 305.6 311.4 320.2 328.6 332.4 336.7 342.3 339.5 338.6 360.4 377.5 389.4 393.3 396.3 399.5 397.5 392.9 401.1 415.9 421.8 428 431.4 429.7 420.7 417.4 409.7 392.6 377.3 370.3 366.1 364.3 359.8 355.2 353.8 352.5 349 344.9 339.2 332.3 325.9 320.8 320.7 319.7 319.7 314.2 309.8 307.1 303.2 297.8 286.8 273.3 259.9 239.7 219.3 201.8 184.5 171.1 160.5 156.6 154.3 152.8 145.2 135.7 116.4 118.5 118.4 118.9 123.4 128.7 138.3 143.7 144.4 140.3 144.9 155.4 161.1 164.7 166.8 167.7 171.4 177 182.5 187.5 191.8 191.3 188.9 186.7 187.5 180.4 189.6 192.5 196.7 201.5 202.3 208.1 214.4 218.9 223.6 227.5 232.3 237.4 242.1 247.5 252.5 257.7 263.1 269.8 276.7 283.7 285.3 286.7 288.4 294.4
299.9 296 285.8 275.7 270.3 268.1 269.3 267.4 265.1 268.5 268.3 270.6 270.1 267.1 256.5 268.8 273.2 276.1 278.2 281.1 278.7 283.8 281.7 280.2 279.3 275.3 266.6 254.8 242.9 233.3 237.9 234.5 231.8 221.7 217.1 217.1 217.1 217.1 217.1 217.1 217.1 217.1 217.1 217.1 217.1 217.1 217.1 217.1 217.1 217.1 217.1 217.1 217.1 217.1 217.1 217.1 217.1 217.1 217.1 217.1 217.1 217.1 217.1 217.1 217.1 217.1 217.1 217.1 225.6 229.7 232.9 235.6 237.6 242.6 246.5 244.8 242.8 244.1 257.4 262.4 265.9 275.9 278.5 289.3 293.9 292.3 297.6 303.3 316.4 330.1 335.6 342.8 340.6 339.6 339.1 344.3 358.9 377.6 387.5 393.7 396.1 397.4 397.3 399.5 409.1 414.5 419.3 423.5 419.6 419.3 415 404.4 392.9 376.8 366.4 362 362.5 360.8 352.8 350 349.5 347.6 345.9 341.8 331.1 322.1 316.3 313.5 310 306.5 304.5 303.3 304.3 302.9 298.7 292.1 281.6 271.1 259 241.7 217.7 201 185.1 172.3 162.1 158.5 155.9 150.7 139.3 117.2 119.7 120.4 124.7 127 129.2 140.7 148.1 149.5 148.1 141.9 152.6 160.2 167.3 170.6 172.2 175.2 176.4 181 188 190.7 193.7 193.4 190.8 189.3 190.1 184 191.9 195.9 200.7 207.1 203.4 210.8 216.1 219.6 223.3 228.8 233.1 237.4 242.1 247.4 252.5 257.8 263.1 270.5 279.7 286.9 289.9 291.8 294.5 300.5
285.1 286.6 276.1 267.6 262.6 261.5 261.5 260.9 261.4 263.5 263.8 264.4 267.1 265.3 258.1 265.9 263.1 266 263 265.3 262.4 261 258.5 256.5 253 248 242.5 232.7 227.8 224.7 225.9 218.4 217.1 217.1 217.1 217.1 217.1 217.1 217.1 217.1 217.1 217.1 217.1 217.1 217.1 217.1 217.1 217.1 217.1 217.1 217.1 217.1 217.1 217.1 217.1 217.1 217.1 217.1 217.1 217.1 217.1 217.1 217.1 217.1 217.1 217.1 217.1 223.4 225.5 229.6 233.5 238.6 245.5 248.8 248.1 244.5 242.8 249.9 260.5 265.5 272.7 280.7 284 288.8 297.2 301.4 301.7 307.7 321 334.5 335.7 337.3 335.9 341 343.6 344.9 356.2 376.7 387 395 399.2 403.4 405.6 404.2 408.6 406.1 410.6 418 412.8 407.8 401.9 387.9 373.4 360.6 354.2 354.6 354 349 344.6 345.2 343 339.4 336.2 330 318.8 313.2 310.4 310.3 310.2 308.4 304.3 304.7 304.3 301.7 299.7 297 287 274.5 260.1 239.6 213.5 198.2 183.9 172.9 164.2 160.8 154.7 144.1 123.6 121.2 126.7 127.9 131.3 138.2 144.5 150 152.4 150.7 148.7 148.4 158.2 164.9 176.1 181.8 179.9 180.7 185.6 188.9 192.9 194.9 195.7 194.1 192.3 192 192 186.7 194.9 198.8 204.2 209.4 210.4 211.2 212.4 218.4 222.2 227.7 233.9 238.6 245.1 246.7 251.9 257.4 263.2 273.5 281.9 288.7 292 294.7 298.5 302
279.5 278.1 273.1 265.3 262 260.7 259.8 258.5 260.1 261.6 262.2 261.2 264 264 262.4 254 243.4 253.7 253.9 250 245.2 242.6 240.3 236.5 230.2 234.3 232.9 223.8 225.1 227.1 226.8 223.3 223.6 217.1 217.1 217.1 217.1 217.1 217.1 217.1 217.1 217.1 217.1 217.1 217.1 217.1 217.1 217.1 217.1 217.1 217.1 217.1 217.1 217.1 217.1 217.1 217.1 217.1 217.1 217.1 217.1 217.1 217.1 217.1 217.1 217.1 219.1 227.6 229 230 233.7 239.5 244.8 247.5 244.9 242 241.6 250.7 260.8 268.8 279 285.9 288.3 295.5 304.8 310.5 315.9 315.7 323.7 336 339 336.9 336.7 338.3 342.2 346.7 368.4 382.3 391.8 400.5 404.6 407.9 409.3 404.1 400.6 395 401.6 400.8 396.4 391.7 388.4 373.1 357 349.1 347.7 347.4 344.2 338.2 337 336.8 334.8 330.7 328.4 325.8 322.7 318.4 313 311.2 311.4 310.5 309.8 309.7 308.7 305.4 299.8 296.1 287.3 274.5 259.4 235.2 209.3 192.4 179.9 172 165.4 157.2 147.7 139.5 118 126.7 131.7 134.9 141.2 144.3 150.2 156.5 159 156.8 145.6 158.9 165.8 172 189.6 188.4 184.6 187 191 195.5 196.2 196.6 196.3 195 194.7 195.6 196.7 193.4 197.3 201.4 207.6 210.2 213.1 214.8 215 218.5 226.1 230.3 233.6 235.1 235.8 247.8 254.1 257.7 266.2 274.7 282.7 290.2 293.9 296.5 298.9 302.8
273.8 272.4 268.3 265.1 262.1 261.8 260.2 257.5 255.9 258.3 262 258.1 255.4 258.5 258.5 257.5 255 238.5 244.7 237.6 238.1 235.9 236.4 234.6 232.5 232.6 236.8 233.2 229.6 230.7 232.1 228.6 231.5 229.9 224.4 217.1 217.1 217.1 217.1 217.1 217.1 217.1 217.1 217.1 217.1 217.1 217.1 217.1 217.1 217.1 217.1 217.1 217.1 217.1 217.1 217.1 217.1 217.1 217.1 217.1 217.1 217.1 217.1 217.1 217.1 228.2 231.2 231.4 230.4 231.4 234.8 238.2 241 240.7 241.2 241.4 241.9 253 262.6 272.3 280.1 285.5 293.1 300.8 306.7 312 315.6 318.4 323.4 330.2 330.6 334.1 337.4 339.2 340.3 349 370.9 386.3 399.6 402.2 396.5 399.2 398.8 400 399.4 389.3 379.7 379.3 375 369.5 369.2 353.5 351.2 350.7 347 342.4 339.2 334.5 333.5 335.3 340.8 344.7 339.3 330.3 324.8 318.2 313.5 312.2 312 311.2 313 312.8 308.4 303.6 300.3 292.8 281.8 269.3 251.4 225.9 202.2 182.2 173.1 165.7 158 149.1 143.2 136.2 121.5 125.5 134.6 140 145.3 147.7 153.6 159.1 157.7 150.8 160.4 169.7 173.6 183.4 193.9 189 191 192.9 195.4 197.5 198.1 198.3 196.6 197.3 198.2 197.7 199.6 188.7 200.8 198.6 207.3 211 215.1 217.2 219.8 224 229.2 233.2 236 240.4 240.6 241.2 246.3 254.4 262.5 275.3 282.9 289.6 294.9 297.6 301.3 305.4
275.5 270.1 267.2 262.7 261.7 261.3 263.2 256.4 253.6 252.9 253.6 253 253.9 257.7 257.5 255.3 255.7 256.4 249.4 246.1 243.8 239 243.8 241.8 238.1 234.6 233.8 231.6 234.2 236.5 232 230.3 217.1 217.1 217.1 217.1 217.1 217.1 217.1 217.1 217.1 217.1 217.1 217.1 217.1 217.1 217.1 217.1 217.1 217.1 217.1 217.1 217.1 217.1 217.1 217.1 217.1 217.1 217.1 217.1 217.1 229.1 232.7 236.9 241.9 239.9 238.8 239.4 239.7 234.9 234.6 236.7 236.4 237.9 238.6 240.1 244.3 255.4 265.9 276 284.6 290.9 296.3 302.6 317.9 328.3 326.6 324.1 323.9 332 340.4 341.8 342.4 344.8 346.9 351.5 370.2 377.7 384 383.5 388.7 384.6 379.8 375.8 371 364.4 351.6 350.5 350.3 352 347.4 343.6 344.5 344.2 340.2 337.8 335.1 334.1 333.2 337 340.2 337.9 333.1 326.4 320.3 315 314.6 313.8 311.7 311.6 311.8 310.7 306.5 300.3 296.4 285 273 260 236.8 215.1 195.7 177.4 166.3 161.3 157.7 146.9 142.6 130.6 121.6 130.9 131.9 146.2 152.9 153 152.3 152.1 154.5 165.7 175.1 177.5 181.4 188.7 195.2 195 194.9 197.4 199.4 200.2 199.3 198.5 199 199.9 200.5 199.2 199 199.9 204.5 208.1 208.4 212.2 216.4 219.5 223.4 230 234.8 239.4 242.5 244.7 245 251 256.6 265.9 271 275 282.4 289.7 296.5 299.5 303.8 306.9
279.8 273.7 272.7 270.1 262.7 259.8 261.8 261.5 257 253.1 253 260.8 261 259.2 257.6 254 251.8 249.7 244.7 242.9 243.7 239.4 239.7 239.6 236.7 234.8 227.8 228.5 217.1 217.1 217.1 217.1 217.1 217.1 217.1 217.1 217.1 217.1 217.1 217.1 217.1 217.1 217.1 217.1 217.1 217.1 217.1 217.1 217.1 217.1 217.1 217.1 217.1 217.1 217.1 217.1 217.1 217.1 217.1 223.1 234.1 239.4 248.2 251 246.2 246.9 252.6 252.5 252 249.2 241.2 243.2 244.5 242.4 240.1 240.1 245.8 258.8 271.3 281.8 288.9 294.1 300.8 315.9 329.2 333 329.5 326.5 331.5 339.4 342.2 346.2 354.5 355 354.3 349.4 364.3 372.4 375.7 375.3 372.7 367.1 368.8 360.9 353.5 342.6 334.5 330 331.5 332 330.4 330.7 332.6 336.1 337.8 339.9 337.2 333.1 329.8 327.6 331 325.9 324.2 320.8 317.2 312.4 309.7 309.5 308.5 305.7 303.3 302.2 298.9 290.2 279.7 269.1 256.1 238.2 220.7 205.4 189.5 172.8 160.4 156 148.6 145.1 144.2 127.7 120.3 122.3 123.5 132 145.4 148.7 151.9 157.7 164.9 178.2 184.5 185.5 188.8 194 199.1 199.5 198.4 200.8 201.7 201.9 200.9 199.9 201.1 201.6 203.8 199.7 192.8 203.1 208 206.7 208.9 215.4 221.2 226.3 232.2 238.7 244 246.7 249.7 252.3 253 253.8 261 269.8 275.3 279.1 284.2 290.2 297 300 304.5 307.3
288 287.5 285 280 273.7 265.7 261.5 258 253.4 251.6 258 264.9 265.6 259.5 254.2 252.4 251.7 249.9 248.4 246.7 240.5 240.1 236.6 232.6 226.6 226.9 217.1 217.1 217.1 217.1 217.1 217.1 217.1 217.1 217.1 217.1 217.1 217.1 217.1 217.1 217.1 217.1 217.1 217.1 217.1 217.1 217.1 217.1 217.1 217.1 217.1 217.1 217.1 217.1 217.1 217.1 217.1 217.1 226.9 232.9 247 248.2 250.8 252 250.6 260.5 264.8 260.8 258.9 260.2 256.2 255.5 256 254.7 253.9 253.4 260.2 270.6 277 286.4 293.1 298.9 308.6 327.1 340.2 341.2 334.8 330.6 331.1 338.5 345.2 351.9 355.6 354.6 347.8 340.2 352.8 360.9 367.3 370.2 364.1 349.6 338.9 336.8 335.4 334.7 332.8 328.4 327.9 328.6 327.1 327.4 332.6 337.2 338.7 337.9 331.7 324.9 319 316.3 318.9 322.8 316.8 316.1 312.6 307.8 302.2 296.9 294.2 290.3 286.4 282.4 278 269.7 259.3 246.7 232.2 217.9 206 193.1 178.6 165.3 153.3 150.6 143.6 134.9 130.2 127.5 131.2 137.6 139.9 134.6 124.3 148.9 156.6 168.2 178.6 184.2 188.7 192.9 195.7 200.5 203.1 202.9 202.2 203.6 204.4 203.6 202.2 201.6 201.6 203.7 202.1 196 203.6 208.3 208.8 208.7 211.1 221.3 228.1 233.3 240.3 245.4 248.1 252 257 259.5 259.1 262.9 265.1 272.1 276.7 282.4 287.6 293.7 294.9 299.9 305.5 308.3
302.8 300 295 287.9 279.4 268.2 259.4 252.7 252.2 252.6 255.8 262.8 260.7 253.1 251.5 251.7 251.5 251 249.1 246.2 241.2 236.9 233.3 224.1 226.4 219.9 217.1 217.1 217.1 217.1 217.1 217.1 217.1 217.1 217.1 217.1 217.1 217.1 217.1 217.1 217.1 217.1 217.1 217.1 217.1 217.1 217.1 217.1 220 227.4 224.3 219 217.1 217.1 217.1 225.9 228.5 227.3 236.4 249.1 246 245.5 252.7 257 258.7 267.3 269.1 265.4 268.3 276.9 268.5 264.6 268.5 273.6 277.8 276.8 278.5 285.3 289.2 292.1 296.6 302.1 312.9 331.4 339.5 338.2 334.2 332.7 334.6 341.2 344 347.6 352.7 342.4 332.5 330.9 330.6 333.7 336.8 337.2 335.6 335.4 338.3 338.4 336 335.5 327 324.7 327.6 334.3 332.6 323.9 322.7 327.7 324.3 320.4 315.8 313.6 308.9 309.2 314.6 313.9 311.5 307 302.6 296.2 286 277.3 272.3 268 264 259.2 254.4 248.2 238.2 226.1 214.1 202.1 190.7 178.1 168.2 154.8 144.8 140.8 136.7 142 142.3 153.3 160.6 163.3 162.2 153 126.7 155.6 170 176.7 187.6 191.9 196 196.1 199.9 203.1 205.2 205.3 203.8 206.8 205.6 204 202.9 202.6 201.4 199.6 197.6 208.9 213.4 211.7 210.3 211.6 217.1 224 231.8 234.6 244.4 248.4 250.6 254.3 257.9 260 262.7 263 269.1 272 275.3 278.1 286.6 294.9 298.7 300.7 306.3 309.3
295.7 293.3 290.5 285 275.4 265.9 259.9 255.2 251.4 253.1 257.4 258.5 250.4 246.2 250.7 251.9 252.8 253.9 250.7 244.6 241.3 238.3 233.3 229.2 223 217.1 217.1 217.1 217.1 217.1 217.1 217.1 217.1 217.1 217.1 217.1 217.1 217.1 217.1 217.1 217.1 217.1 217.1 217.1 217.1 217.1 227.2 234.9 237.8 238.9 236.3 235.5 234.4 230.4 225.3 237.7 238.6 236.4 247.5 242.3 247.7 261 275.1 275.8 270.9 271.4 270.3 270.4 274.2 279.7 276.9 275.4 284.7 291.9 298.7 298.1 298.7 299.8 299 302.8 305.8 308 313.8 330.3 337.5 343.3 343.1 339.6 335.1 331.3 333 334.8 333.5 328.3 322 321 325.6 329.6 334.5 336.3 334.1 335.3 334.6 332.9 333.2 324.5 315.4 317.4 320.5 323.6 324.5 315.6 309.6 310.9 306.2 302.7 297.2 291.9 297.4 302.8 306.2 301.7 294.9 286.9 282.8 274.7 265 257.1 252.4 248.3 243.4 237.9 233.5 226.9 216.7 207.1 197 186.2 170.8 159.4 160.9 162.1 161.3 160.9 160.7 160.8 164.2 168.5 169.9 170 169.9 163.2 137.9 143.6 170.9 178.7 182.6 191.9 193.4 199.7 202.7 204.7 206.8 205.9 205.3 205.3 204.7 204.4 203.7 202.2 200.2 200.8 210.8 215.6 214.6 212.2 212.4 214 220.6 225.9 233.5 236.8 247.2 249.5 253.9 258.2 259.3 262.7 265.3 269.9 270.8 278.4 281.2 286.4 290.3 297.2 301.4 303.5 306.3 308.4
294.8 295.2 286.9 279.7 271.1 264.5 259.6 254.7 252.4 252.1 254.1 252.3 246.2 245.7 248 250.7 252.3 249.4 246.8 244.7 244.9 240.8 234.1 230.2 219.3 217.1 217.1 217.1 217.1 217.1 217.1 217.1 217.1 217.1 217.1 217.1 217.1 217.1 222.9 230.4 229.5 226 221.4 226.2 219.1 238.6 241.6 243.2 243.8 246.1 245.9 244.5 240.7 239 237.6 241.4 243.7 244.2 242.3 246 262.1 270.6 275.3 273.4 273.4 274.4 273.1 275.4 278.6 281.7 281.3 287.6 298.2 305.2 310.7 307.9 306.6 308.2 304 308.6 312.6 316.5 324.9 333.5 339 332.3 331.5 333.8 331.3 334.2 335.8 337.5 330 325.8 317.5 314.1 320.6 322.7 323.7 325.6 328.7 327.4 324.5 321.6 316.6 312.6 312.1 313.8 312.9 309.7 308.9 301.3 295.9 296 293.8 292.1 283.5 277.7 278.7 281.8 283.6 279 269.6 262.3 257.3 249.1 242.3 237.8 233 226.1 221.5 214 204.7 197.3 189 184.9 183.5 185 179.6 173.2 172.5 174.6 174.6 173.7 175.3 178 182.4 179.5 176 174.2 175.3 173.3 142.1 173.1 181.9 186.8 191 194.9 198.6 198.7 201.8 204.3 205.2 206.2 206.4 206.3 205.8 204.6 203.6 202.1 200.7 210.2 213.1 213.4 214.5 213.3 214.4 216.6 221.7 226.7 233.8 239.1 250.1 255.1 257.1 260.1 261.5 264.1 270.3 272.2 277.6 279 286.4 291.9 294.8 299.3 302.5 304.3 305.9 308.5
293.4 294.8 290.8 283.3 274.7 264 258.5 254.3 253.4 255.5 252.4 248.1 247.6 246.1 245.4 247.5 249.2 245.7 244.5 242.1 237.3 233.5 226 227 217.1 217.1 217.1 217.1 217.1 217.1 217.1 217.1 217.1 217.1 217.1 217.1 217.1 217.1 228.9 231.4 231.1 229.3 231.7 239.5 236.7 245.3 248.3 246.5 246.1 246.7 247 247.9 252 246 245 246.2 247.5 242.1 246.6 259.7 271.3 271.7 273.4 275.7 276.8 276.6 276 279.1 282.5 285.3 288.8 297.6 302.4 305.1 306.2 303.1 304.7 302.2 308.7 314 317.5 320 323.9 330.6 333.2 340.3 343.8 341.7 340.4 343.3 340 334.8 329.9 324.9 316.7 313.9 313.7 313.7 315.3 319.1 322.5 322.4 317 315.3 308.9 308.5 311.8 306.7 307 302.3 298.2 298.3 294.8 289.9 291.9 291 276.5 267.7 263.8 260.3 258.5 252.5 245 237.9 225.7 226.5 226.2 226.1 224.4 225.6 224.9 222.7 217 215.2 211.5 208.8 202.4 190.6 184.6 181.4 180.7 180.5 177.1 178.5 181 185.4 190.4 189.1 180.5 178.7 178.8 176.7 152 177.2 183.5 188.2 193.2 197.1 201.1 203.6 205.1 205.6 205.3 204 206.7 207.2 206.4 204.9 204.7 203.1 201.5 212.1 212.7 214.1 214.5 215.5 218.1 219.6 225.8 233 238 245.4 253.4 257.9 260.7 262 264.8 267.3 272.1 275.8 280.5 287.2 288.1 291.9 292.2 299.9 303.1 305.2 307.4 310.3
286.2 291.3 288.5 282 272.3 262.3 258.2 255.6 253.6 255.3 255 251.7 248.9 245 241.1 242.8 243.1 242.5 244 236.9 229.3 217.1 217.1 217.1 217.1 217.1 217.1 217.1 217.1 217.1 217.1 217.1 217.1 217.1 217.1 217.1 226.7 235 235.5 236.5 231.5 232.6 240.5 247.3 248.4 251.1 249.3 247.8 250.8 250.4 255.1 258.3 257.4 252.3 248.2 248.2 246.1 244.3 255.2 266.4 270.5 270.1 272 275.7 278.9 279.7 283.7 290.3 294.4 296.2 297.2 300.2 299.6 300.2 301.2 301.1 304.2 312.8 320.7 323.1 327.6 331.6 331.3 338.2 353.3 361 361.3 357.4 359.6 349.3 348.6 342.8 331 319 313.7 313.7 313.7 313.7 313.7 313.7 312.8 313.7 311.8 308.5 305 304.4 309.4 303.2 303.7 304.6 304.1 300.9 296.3 290 281 282.8 267.4 258.6 251.3 241.7 242.5 244 248.1 249.9 251.5 253.2 252.3 251 251.3 253.9 250.8 244.9 236.5 232.2 229.8 221.1 210.4 200.3 192.2 187.3 183.4 181 180.5 180.7 182 184.6 188.6 185.4 182.8 182 179.9 176 150.4 181.5 189.9 192.8 196.8 199.8 203.2 205.8 207 208 208.8 209.7 210.1 207.2 207.4 206.2 205.1 204.2 203.3 213.5 213.7 215 216.5 218.2 220.4 224.2 231.9 238.4 242.2 253.4 256.3 259.2 262.6 265.9 270.5 273.6 275 280.8 284.3 287 293.2 293.8 296.7 300.8 302.9 306.2 309.7 312.2
274.3 280.1 279.7 278.5 268.1 261.5 255.7 254.6 251.8 250.9 252.6 250.8 248.8 245.9 241 239.4 239.9 237.2 234.4 234.3 232.6 217.1 217.1 217.1 217.1 217.1 217.1 217.1 217.1 217.1 217.1 217.1 223.7 229.8 241.4 245.8 242.2 246.1 246.7 239.8 237.3 238.8 242.9 246.3 246.7 255 251.9 253.9 261.6 271.6 277.6 272.4 264.1 257.9 254.3 250.5 249.5 253.4 260.3 264.7 266 270.8 274 279.6 286.6 292.1 301.9 305.8 305.5 300 295.9 298.1 304.1 312.8 319.4 326.1 322.7 327.3 330.2 327.9 332.9 340.7 345 362.3 371.3 375.5 379.6 381.6 369.8 369.1 370.4 349.3 330.4 315.4 313.7 313.7 314.6 313.7 313.7 315.7 316.5 317.6 315 317.5 315.8 309.2 313.2 310.1 306.4 306.7 305.6 302.2 296.1 291.6 286.3 276.1 256.6 260.8 262.3 265.1 269.2 272.7 274.6 273.2 273.7 273.7 270.3 268.3 268.3 267.9 264.3 257.3 247.8 243.3 239.6 231.5 219.9 207.8 198.9 192.7 187.3 184.4 182.1 182.1 182.1 182.7 183.1 183.5 183.8 183 181.7 161.9 180.8 189.7 193.4 197.2 200.1 202.2 205.9 208.5 210.3 211.2 211.5 212.2 212.4 210.3 208.4 206.8 205.5 205.6 213 215.8 215.6 216.1 218 219.6 222.2 227.4 235.8 241.7 246.9 253.9 258.8 260.3 265 271.2 274.1 275.3 278.5 283 286.9 289.8 293.9 295.5 297.6 302.7 304.6 308.3 311 313.2
269.7 270.7 268.1 266 266.4 263.1 258 250 247.3 244.3 247.3 248.7 248.3 244.1 239.1 234.9 233.3 229.8 232.7 235.6 235.2 217.7 217.1 217.1 217.1 217.1 217.1 217.1 217.1 217.1 217.1 219 234.7 243.9 251.9 257.1 254.4 250 249.7 249.1 247.6 251.2 253 253.5 252.9 256.4 266.5 275.9 277.9 280.3 283.7 278 272.7 268 263.7 257.5 260.2 260.9 264.8 268.1 273.1 274.5 278.1 284.7 291.5 295.2 296.4 298.5 298.7 298 300 306.3 316 325.2 331.3 333.9 331.8 333 333.3 334.5 347.4 354.6 363.8 379.1 380.4 374.3 368.4 368.4 367.5 357.5 347.9 332.9 319 313.7 316.4 316.9 316.2 314.2 313.7 314.2 315.6 316.8 321.4 323.2 316.9 315.4 315.6 312.6 306.5 302.9 302.9 301.1 296.2 294.5 278 276.8 282 286.5 288.1 289.8 294.3 296.6 297.9 298 296.9 293.1 289.5 284.7 283.1 282.2 275.8 264.7 257.5 254.4 250.9 240.7 226 213.1 205.2 198.9 192.6 188.6 183.1 181.8 181.8 180.9 181.4 181.8 181.1 181 162.9 178.4 187.5 194.7 196.3 199.2 202.8 207.6 210.9 212.7 214.4 214.6 214.5 214.7 213.2 211.9 210.1 207.8 207.8 207.7 214.3 216.9 216.3 217.1 218.7 220.7 224.4 229.5 232.5 239.7 247.5 251.1 256.3 262.7 266.3 272 275.2 278.1 282.2 286.1 290.5 293.3 295.1 296.5 299.4 306.1 306.2 309.4 312.6 315.1
275 272.4 270 264.5 259.2 255.6 250.9 243.3 241.1 241.5 244.2 246.5 243.4 239.9 237.7 236.8 231.2 229.6 226 232.7 223.7 217.1 217.1 217.1 217.1 217.1 217.1 217.1 217.1 217.1 225.9 236.8 239.2 253.2 256.8 256.6 262.6 259.9 259.7 260.9 265.1 269 270.3 268.2 270.9 284.8 296.1 303.6 307.5 306.5 290.5 270.6 266.4 264.1 264 272.8 274.7 269.7 270.3 275 277.8 279.5 282.8 288.5 291.5 296.4 296.7 296.8 301.4 304.2 305.8 309.9 319.5 328 332.1 335.4 334.8 337.7 344.1 350.1 362.7 371.9 379.9 387.6 383.6 372.7 371.2 377.8 363.3 338.6 326.5 313.7 313.7 313.7 313.7 313.7 314.8 319 313.7 313.7 313.7 317.4 317.7 317 313.8 314.9 314.1 314.5 315.9 311.9 303.3 293.1 285.9 290.7 293.9 299.1 305.2 310.4 313.4 316.1 316.7 322.1 318.2 317.4 315.8 312.9 310.4 303.2 295.4 288.3 279.7 270 264.2 261.2 255 242.6 227.4 215.6 207.2 198.9 191.7 186.5 182.8 181.4 179.1 176.8 177.1 175 172 179.9 181.5 186 194.9 196.2 200.2 203.5 208.8 213.8 216.8 218.9 220.5 221.5 219.1 216.9 214.8 213.6 211.3 209 208.8 210.1 215.6 217.6 218.9 220.8 220.9 222.7 226 232.7 239 244.7 252.1 258.9 262.9 264.6 267.3 273.5 277.3 279.5 283.4 289.4 293.3 296.4 297.1 299.6 303.2 306.2 308.3 310.9 314.1 317.9
282.7 281.1 273.9 264 256.9 246.1 240.8 237.8 237.2 237.7 234.9 234 234.9 236.3 233.7 229.9 217.1 217.1 217.1 217.1 217.1 217.1 217.1 217.1 217.1 217.1 217.1 217.1 217.1 229.9 233.3 238 242 247.7 253.2 259.1 263.1 264.5 265.9 268.2 272.5 276.2 283.3 286.7 299.9 312.8 313.6 311.2 298.3 286.5 264.1 264.1 264.1 264.1 264.1 267 269.6 272.1 275.3 283.1 290.9 292.1 297.9 300.6 301.1 308.4 309.7 309.1 308.7 308.4 311.2 311.3 317.6 323.4 327.9 332.3 335.4 343.7 355.1 365.6 380 384.2 380.2 373.8 372.4 370.2 364.4 349.3 340 322.5 313.3 313.7 313.7 313.7 313.7 313.7 313.7 313.7 313.7 314.1 317.9 316.6 315.9 314.3 312.1 311.8 311.5 308.9 304.6 301.5 301.9 304.7 308.8 310.1 312.7 318.2 323.4 328.2 329.8 331.6 332.7 333.3 332.8 331.1 326.5 322.7 323.1 312.1 301.3 292.6 281.9 275.7 271 263.3 253.9 239 223.8 213.6 205.1 197.2 190.2 185 180.6 179.1 177.2 175 176.2 176 184.4 185.4 188.9 193.4 199.4 204.6 208 212 216 220.5 223 225.2 227.3 229.6 225.1 219.2 217.5 215.5 211.5 210.7 210.6 212.9 216.7 218.6 221.4 223.6 224.6 225.2 228.7 234.4 242.9 250.8 258.5 264.7 268 270.2 270.6 276.1 279.8 282.9 286.8 291.3 295.8 298.6 299.2 303 304.8 307.9 310.3 313.4 317 320.8
265.1 262.1 259.1 250 242.1 236.2 234.5 236.4 232.3 227 217.1 217.1 217.1 217.1 217.1 217.1 217.1 217.1 217.1 217.1 217.1 217.1 217.1 217.1 217.1 217.1 217.1 217.1 219.3 234.2 235.3 239.5 243.3 250.2 255 257.5 261.4 263.3 265.8 271.9 275.7 280.1 288.7 292.5 297.4 294.4 285.4 277.5 271.5 266.2 264.1 264.1 264.1 264.1 269.3 273.4 278.4 284 289.6 300 304.8 305.9 309.5 311.9 312.2 318.7 322 322.3 321.9 321.1 321.1 319.8 320.7 328.7 336.3 340.2 347.4 356.2 367.3 374.4 375.7 369.6 366.6 367.4 372.1 368.4 357.7 346.9 333 322.2 315.2 313.8 313.6 313.7 313.7 315.9 318.1 318.3 318.3 318.1 318.1 315 312.2 312.6 313.6 314.4 316.8 317.7 316.5 315.9 318.3 322.8 331.7 330.6 331.6 335 337.2 339.2 344.6 348.2 342.2 337.6 336.7 336.8 329.1 321.4 318.7 314.2 303.8 293.9 284.4 280.4 276.8 266.3 250.6 233.9 219.5 208.8 199.6 192.2 187.2 183.3 181 177.1 177.2 175.9 171.9 180.9 185.3 192.3 196.5 199 205.5 211.2 215.1 219.2 223.6 227.3 230 231.9 236.1 232.4 227.3 223.5 220.9 217.9 212.1 213 213.5 214.3 220.5 223.1 224.8 226.4 227.2 228.2 232.6 240.6 249 256.6 263.8 269.1 271.8 274.4 275.1 276.5 281.8 287.4 290.1 294.1 297.2 300.1 303 307.1 307.2 309.5 313.2 317.1 321.3 325.1
250.1 247.7 247.4 246.5 243.8 240.1 234.7 233 228.4 224.7 217.1 217.1 217.1 217.1 217.1 217.1 217.1 217.1 217.1 217.1 217.1 217.1 217.1 217.1 217.1 217.1 217.1 217.1 219.8 229.8 237.3 242.8 245.2 250 253.1 255.8 262.2 263.3 264.4 269.7 275.9 280.8 283.2 285.5 283.7 282 277.1 271.9 266.9 265.3 265.5 267.7 269.9 271.4 280.2 285.9 291.7 295.2 301 311.8 318.3 316.8 322.3 324.4 327.8 335.1 333.7 331.5 330.1 331.6 332.4 330.8 333.4 339.6 346.3 354.4 361.1 370.6 372.3 372.9 371.5 369 368.4 367.6 363 356.2 348.7 339.4 327.9 319.2 314.4 314 314.7 315.2 317 318.9 323.3 325.8 326.2 326.1 320.5 316.7 316.9 320.5 322.4 325.6 329.7 328.7 332.5 336.6 338.8 342.7 346.3 343.6 347.4 350.2 349.1 352.1 364.1 355.8 343 336.4 331.1 325.7 319.2 315 312.5 310.7 304.1 292.4 283.2 277.2 271.9 262.1 243.9 226.4 212.5 201.8 193.1 189.4 185.8 183.1 180.4 175.7 180.7 171.5 180.4 185.2 192.7 199.5 203.1 205.7 209.5 216 221.8 227.3 231.3 234.6 237.8 239.6 237.7 234.2 230.4 226.2 222.6 218.1 213.8 214.3 216 216.5 219.6 222.2 227.2 227.4 230.1 233.5 238.5 246.2 253.8 259.9 267.5 271.6 275.7 278.4 279.6 281.5 283.2 290.6 293.5 296.9 301 303.4 308.1 311 309.6 313.7 317.5 321.4 325.8 329.6
242.8 246.5 247.8 248.5 246 244.9 238.1 227.4 217.1 217.1 217.1 217.1 217.1 217.1 217.1 217.1 217.1 217.1 217.1 217.1 217.1 217.1 217.1 217.1 217.1 217.1 217.1 226 231.4 239.7 244.8 247.4 248.1 250.8 255.4 260.1 265.1 268.7 269.3 274.8 281.4 284.4 284.3 283.2 282.8 280.3 274.6 270.4 272.1 277.1 279.2 276.8 280.2 282.1 287.9 293.7 297.8 304.9 306.9 317.9 325.3 323 331.5 333.9 334.7 340.2 344 339.8 338.7 339.9 338.5 340.1 346.3 351.8 358.3 366.5 374 379.1 377.1 376.5 379 376 367.3 366.8 359.8 352.2 340.1 329.8 323.5 317.1 316.6 315.8 316.2 317.1 318.9 321.3 326.2 329.8 329.3 326.8 330 332.7 333.5 335.2 333.6 332.6 336.8 341.3 345.2 348.5 354.7 358.5 358.4 356.2 360.4 362.1 360.4 361.3 360.9 356.9 349.6 342.4 332.8 323 315.5 312 311.1 308.9 301.5 291.3 280.9 272.9 264.9 250.5 231.9 215.6 204.9 197.2 191.3 187.4 184.9 183.4 179.7 175.9 175.8 181.7 185.8 190.8 200.7 204.9 209.3 212.2 217.4 224.7 232.1 237.1 239.7 242.1 245.1 246.9 241.9 237.6 233.9 229.4 224.8 221.1 218.3 216.9 219.1 219.5 223.2 225.8 227.9 229.4 233.4 236.9 241.3 248.2 255.8 262.6 266.9 270.2 275.9 279.1 282.4 284.5 290.2 294.3 298.2 300.8 303.8 308.1 311.3 312.6 314.9 318.9 322.6 326.7 330.3 335
249.6 247.5 244 240.4 238.2 238.3 236.5 218.6 217.1 217.1 217.1 217.1 217.1 217.1 217.1 217.1 217.1 217.1 217.1 217.1 217.1 217.1 217.1 217.1 217.1 217.1 217.1 228.6 236.4 243.6 245.3 249.3 256 257.7 258.9 262.3 266.6 269.7 274.9 282.1 289 287.4 285.3 281.5 280.4 280.4 281.5 280 281.9 285.9 285.1 287.3 290.2 290.4 295.3 306.5 307.1 309.1 314.2 326 332.2 337.2 342.1 342.1 340.8 343.9 344.4 341.2 344 346.4 347.3 351 358.3 363.8 367.3 371.7 376.2 375.1 377.5 375.6 370.8 362.3 357.8 353 345.8 341.4 336 329.8 323.7 317.8 317 317.3 317.8 319.1 321.1 324.3 327.9 330.7 331.4 333.3 340.1 345.9 350.5 351.2 347.3 342.4 345.8 352 356.2 358.4 362.9 365.8 365.2 369.5 374.5 372.1 371.6 371.9 365.5 359.6 353.7 351.2 334.6 324.4 317.9 315 314.7 312.8 307.4 298.4 279.5 263.2 250.4 237.2 224.7 212.2 203.6 195.7 189.4 187.6 186.8 186.7 183.9 178 182 187.5 191 197.1 204.7 211.3 215.9 219.7 225.5 234.7 242.9 247.4 248.5 250.1 250.7 246.2 245.3 242.7 239.5 235.1 230.7 227.1 222.2 218.7 221.7 224 227.3 229.4 231.2 233.9 236.2 239.9 245.9 252.2 259.5 266 268.4 273.3 277.5 281.3 284 288.6 293.8 297.4 301 303.9 307.8 312.1 314.7 316.8 320.4 324 327.6 333.5 337.5 340.9
234.7 233.2 235 236.7 236.1 232.1 228.7 217.1 217.1 217.1 217.1 217.1 217.1 217.1 217.1 217.1 217.1 217.1 217.1 217.1 217.1 217.1 217.1 217.1 217.1 219.1 230.1 232.5 238.3 245.8 250.5 251.6 259 261.9 261.2 263.2 268.8 269.5 276.7 282.4 286.6 284.3 282.1 280.7 281.9 285.9 288.1 287.4 291.1 293.1 296.9 298.6 300.2 300.3 304.2 311 317.8 320.4 322 328.6 336.4 342.3 348.3 350.6 350.3 352.3 353.3 352.4 354 356.8 359 363.4 367.3 369.1 372.6 375.7 376.7 379.5 379.6 375.6 372.3 359.7 347.1 342.2 340 337.9 331.1 323.5 320 319.1 320 323.4 327.2 329.6 330.4 329.6 336 340.7 342.8 343.4 346 354.4 364.3 364.4 360.3 356.2 359.1 365.4 370.3 373.3 375 376 379.4 388.8 395.7 390.9 392.8 385.4 369.4 357.6 349.6 346.2 335.3 327.4 322 319.7 319.6 318.3 314.9 306 277.2 256.3 243.4 234.2 224.5 212.7 203.4 198.9 192.9 189.8 187.5 186.5 186.5 182.8 188.4 192.6 198.1 205.5 213.4 220.5 223.3 227.4 235.2 244.2 250.6 253 254.2 255.5 253.8 251.7 250.2 248.5 246.2 242.5 237.1 232.3 227.4 221.6 222.1 226.8 230.4 234.2 236.6 238.7 240.4 244.3 249.9 258.2 265.6 268.7 271.5 276.7 280 285.2 287 292.8 297.5 299.6 302.7 307.5 312 316.1 316.7 320 323.4 328.3 334.9 338.3 341.5 343.8
230.3 229.8 232.6 236.5 238.3 233.6 228.2 218.7 217.1 217.1 217.1 217.1 217.1 217.1 217.1 217.1 217.1 217.1 217.1 217.1 217.1 217.1 217.1 217.1 222.1 228.9 232.2 239.9 251 253.4 255 257.7 258 260.4 266 271.9 270.8 270.9 279.1 282.2 280.2 279.2 280.5 284.3 289 292.1 295.7 295.8 301.1 308.8 310.1 307.1 306.2 306.7 311.1 316.4 322.9 326.3 329 336.7 343.7 349.3 355.3 357.6 361.3 366 365 362.9 363.4 366.3 370.1 372.6 376.6 382.4 390.4 392.8 387.9 386.8 382.8 370.1 357 348.7 340.8 339.3 338.6 336.7 333.2 326.1 325.5 329.9 334.8 340.4 342.8 343.6 344.3 347.9 355.2 359.2 357.9 352.4 353.5 360.9 370.2 369.6 366.4 367.4 376 379.7 381.5 387.9 387.8 387.1 389.5 395.6 397.8 399.6 401 388.1 369.3 357.5 349 343.7 341.3 340.7 331 327.7 323.3 311.4 299.6 287.7 269.8 254.7 240.1 235.2 226.7 213.8 203.8 199.3 194 191.5 190.4 189.7 178.9 191.9 196.9 200.4 207.5 214.5 222.7 227.9 231.3 237 245 251.9 255.1 257.5 258.5 258.8 258.1 257.2 257.5 255.8 253.5 252.5 247.2 237.1 232.8 230.6 223.2 226.8 234 237.3 239.1 242 245.8 248.6 253.2 263.3 267.6 269.8 276.1 280.4 284.1 289.8 292.3 297.7 301.7 301.8 306.9 312.5 315.9 317.3 321.4 324.5 329.6 334.1 338.4 342.1 345.5 349.8
222.1 228.7 231.5 236 233.4 231.6 227.1 217.1 217.1 217.1 217.1 217.1 217.1 217.1 217.1 217.1 217.1 217.1 217.1 217.1 217.1 217.1 217.1 227.5 231.5 232 234.2 241.6 252.3 254.7 260.1 264.3 266.7 267 267.7 268.6 269.6 273.2 275.3 275.8 276.9 279.4 285.2 289.7 295.7 301.9 304 307.2 310.8 314.4 318 316 313.7 314.8 320.2 329.2 334.6 337.8 339.4 348 354.6 361.7 368.9 373.5 376.4 377.8 376.7 376 373.2 370.8 378.5 384.1 396.6 398.9 399.5 390 389.7 376.5 358.5 351.9 345.1 341.6 340.5 339 337.9 339.4 332.4 331.1 336.6 342.6 347.3 352.9 356.3 353.9 358.2 364.8 372.9 372.8 370.6 368.3 363.2 369.2 374.4 371.7 371.9 379.9 385.4 385.4 388.4 394.7 399 396.4 397 397.9 396.8 401.9 402.5 391 377.5 361.7 357.7 354.6 353.2 348.9 338.6 328.3 317.3 307.7 295.5 279 267.1 255 240 233.8 225.2 213 203.2 198.7 197.3 194.9 195.2 192.1 191.2 198.5 203.9 208.7 215.2 223.5 230.6 234.9 239.2 246.9 251.8 257 259.9 261.6 262.7 263.4 262.6 261.7 261.8 262.4 262.9 259.3 251.9 241.6 235.4 234.5 228.3 229.4 237 239.3 244.3 249.3 253.1 256.2 257.5 265.9 269.9 272.3 279 284.6 288.7 293.3 295.4 301.8 304.8 306.4 310.3 316.6 319.2 321.1 326.1 330.5 334.6 338.8 343.8 346.3 348.6 352.4
217.1 224.2 227.8 234.3 234.4 219.2 217.1 217.1 217.1 217.1 217.1 217.1 217.1 217.1 217.1 217.1 217.1 217.1 217.1 217.1 217.1 217.1 217.1 230.7 232 232.3 234.5 237.6 243.6 252.6 261.1 265.5 267.7 269.7 269.8 269.6 270.8 272.8 276 280.1 280.6 284.5 288.2 291.9 299.8 308.6 315.6 315 314.4 319 325.4 329.7 330.7 329 328.7 336.9 343 349.1 355.4 363.4 370.3 374.7 377 382.3 388.1 395.7 398.1 399.1 393.5 393.8 393.2 397.2 401.1 393.8 389.5 383.6 371.1 357.4 346.6 342.2 338.6 336.6 336.3 336.3 337.8 341.4 343.2 347.1 351.3 355.8 360 361.6 361.6 363.2 368.9 378.3 382.2 382.2 377.8 379.4 384.9 391.8 393.7 385.2 381 389 393.2 398.3 407.5 408.2 404.8 399 397.3 396.9 399.2 408.7 406.5 393.8 380.1 372.8 370.3 366.4 354.4 344.4 333.9 325.3 314.4 304.4 294.2 279.9 265.6 256.5 239.6 231 220.7 210.4 206.1 202.2 200.9 201.2 200.8 185 198.2 206.2 211.5 217.1 222.9 231.9 236.8 240.8 247.2 253.2 257.2 260.8 264.4 266.5 268.2 269.1 268 267.3 267.9 267.8 266 260.5 254.7 244.6 238.1 238.8 231 232.6 239.1 244.9 251 257.3 259.8 261.4 265.5 268.4 272.2 275.8 281.8 288.7 292.3 297 298.9 303.7 307.1 311 313.8 319.9 322.2 327.7 332 335.4 338.9 344.1 347.2 349.9 355.9 359
227.6 229 230.4 233.1 232.5 236 232.5 228.9 217.1 217.1 217.1 217.1 217.1 217.1 217.1 217.1 217.1 217.1 217.1 217.1 217.1 217.1 227.4 233.4 235.9 233.5 235.5 239.6 244.1 250.4 256.6 260.9 262.8 268.2 275.9 279.6 279.7 277.6 275.8 280.5 286.7 290.1 292.9 299 308.1 315.8 319.1 318.9 323.6 331.1 337.2 341.3 341.4 338.2 343.3 351 357.9 364.1 369.5 378.8 386.3 392 395.1 398 405.9 415.9 424.6 420.9 420.7 418.4 407.9 395.6 385.7 378.3 370.4 366.8 354.8 349 342 340.4 339 336.9 337.3 340.7 348.4 352.5 357.4 360 362.7 365.4 368.6 368.5 368.6 371 375.2 376.1 379.3 381.6 387.2 395.9 406.8 417.8 417.9 407.2 402.2 405.2 412.7 426.8 438.4 432.5 423.3 409.7 401 407.4 414.4 423.7 412.9 394.9 381.3 369.1 360 352.4 345.4 338.5 332.4 323.8 314 301.3 290.4 280.2 272.7 258.1 240 230.9 218 212.3 208.1 208.6 206.3 199.7 191.1 198.2 206.1 213.9 220.4 223.9 230.7 239.4 243.9 248.3 253.8 257.8 261 264.5 268.5 271.1 272.9 274 273.9 271 271.9 270.6 267.7 263.5 257.5 248.8 243.2 243.4 235.6 231.8 241.9 249.9 255.3 263.1 263.7 265.7 270.3 272.3 275.2 279.7 285.6 291.9 296 299.7 302.6 304.7 310.8 318.6 322.4 324.4 327.7 333 336.7 340.7 344.6 347.2 351.6 354 356.9 357.8
234.4 233.8 236.3 239.7 239.9 240.6 240.1 235.3 232.2 237 228.8 217.1 217.1 217.1 217.1 217.1 217.1 217.1 217.1 221.5 217.1 217.1 232.8 238.8 238.2 237.2 240.7 247 249.7 250.1 256.5 260.8 261.6 269.5 277 283.6 282.2 280.7 280 284 291 297.7 303.6 308.8 316.8 321.8 323.6 328.9 336.8 342.2 346.3 348.2 349.7 351 356.4 368 379.7 384.8 387.9 397.3 408.1 411.9 418.6 420 426.6 432.8 448.2 446.9 435.9 422.2 403.1 385.1 376.8 369.6 361 355.9 348.1 345 340 339.7 339.4 342 345.7 350.9 356.1 362.1 366.8 369.1 372.5 372.4 378.7 386.8 389 387.2 385 384.3 387.8 394.4 402.7 408 416.4 421 423.6 419.7 417.8 418.8 435.1 443.6 439 438.1 431.9 418.7 413.2 421.4 419.4 414.1 395.3 380.1 372.7 364.7 355.2 351.6 346.8 340.3 334 325.4 314.8 303.2 293.7 285.1 282.2 255.8 240 226.1 218.2 213.7 212.6 211 206 195 209 207.4 212.1 218.9 223.7 230.6 240.2 246.7 251.1 256.1 260.7 263.7 265.8 268.1 276.8 276.6 277.6 276.9 274.3 274.9 275.3 273.2 274.8 270.3 263.1 253.6 249.2 248.2 244.7 238.6 246.2 252.8 259.8 265 265.8 269.5 274 276.3 278.7 283.4 288.4 293.6 297.7 302.3 305.9 310.4 317.2 324.7 326 328.6 333.6 337.8 341.8 345.3 347.5 350 353 355.3 357.1 357.4
