ncols 200
nrows 84
xllcorner 100000
yllcorner 920900
cellsize 50
110.4 120.3 117.6 110.8 115.6 108.9 113.7 107.7 102.1 105.1 106.9 104.6 103.3 102.5 104.4 107.2 108.7 112 114.1 117.7 121.7 133.5 143.5 154.5 166.2 177.3 183.9 184.2 192 196.2 201.5 204.9 214 226.1 234.6 246.1 256.7 257.4 264.5 267.7 272.7 291.6 308.4 322.8 331.5 342.4 356.2 370.6 382.8 387 395.7 403.3 427.3 440.4 452.1 467.9 480.8 488.7 500.6 501.6 493.6 478.4 460.9 439.4 422.6 398.6 368 318.7 274.9 236.1 223.2 201.1 218.6 247.3 284.3 323.7 363.6 405.6 430.2 441.5 443.6 443.1 442.2 438.6 436.1 431.7 429.8 424.3 417.9 410.5 404.3 399.5 397.3 398.6 401.6 404.5 407.7 412 413.3 410 399.9 391.7 382.5 367.1 362.6 355.6 348.2 335.6 326.9 321.3 313.8 306.2 296.7 287.6 272 254.2 234.4 209.7 193.6 175.9 160.5 148.3 136.4 129.6 128.1 128.1 127.9 127.8 130 133.4 134.2 133.1 131.2 131.2 126.5 127.6 128.8 123.1 123.5 126.5 125.2 126.1 125.5 124.9 123.8 122.7 122.1 120.1 116.6 110.6 108.1 107.7 109.4 110.5 111.3 111.8 111.5 111.2 117.2 120.8 123.6 126.2 131.5 138.4 141.5 142.5 146.8 150.6 156.6 162.2 167.1 172.8 181.7 188.2 188.6 185 183.8 183.9 183.6 177.9 171.4 165.2 157.8 146.9 135.6 133.5 133.6 137.7 141.1 143.1 139.7 138.4 136.2 134.1 128.4 120.1 130.1 137.4 143.6 155.8
126.6 129.9 128.6 126.1 121.3 122.5 118.8 122.5 119.3 109.6 112.9 115.1 115.5 113.4 115.5 118.3 118.9 118.8 120.6 122.4 125.4 129.3 136.3 147.2 157 163.3 166.7 173.3 182.7 192.5 200.7 205.3 214.4 224.4 233.7 245.4 255.5 260.2 267.5 271.4 285.3 300.6 311.5 323 332.9 338.7 344.1 348.2 359.6 367.2 376.6 398 424.3 443.2 462.7 476.7 477.4 487.6 496.5 489.1 480.7 467.5 452 433.2 415.8 396.5 368.2 325 284.2 244.1 214.7 211.1 222.8 254.2 289.3 324.5 362.3 399 424.8 430.1 431.2 433.1 430.7 428.2 428.1 424.5 421.8 416.8 411.2 403.6 397.1 392.4 390.1 391.2 394.1 398.3 404.2 409.8 414.5 412.2 406.3 390.1 380.2 367.5 360.7 351.9 343.8 332.6 326.7 317.9 309.8 303.7 293.6 283.9 267.9 246.3 224 199.5 184.4 168.1 156.4 144.8 138.8 132.3 128.6 125.8 127.3 125.5 125.6 126.6 128 129.5 129 129.9 126 123.7 125.8 119.4 121.9 119.4 125 125.1 124.2 122.9 123.2 122.9 125.2 119.3 116.7 113 108.2 110.1 114.1 113.9 114.7 114.8 115 115.3 118.2 123.7 128.4 129.9 136.8 145.4 147.1 148.4 150.7 155.2 163.5 169.6 174 176.5 186.4 193.7 194.1 191.6 191.2 190.3 189.8 180.2 173.5 166.8 160.3 150.5 140 138.1 139.5 144.7 150.4 153.1 149.6 149.4 147.1 143.8 140.1 124.7 121.9 136.9 145.5 151.3
133.6 144.7 143.9 146.5 141.1 137.2 128 126.9 126.6 125.8 115.9 116.8 120.9 123.9 121 123.4 125.2 125.4 127.2 125.7 126.8 129.9 133.2 138.9 145.7 152.2 160.4 168 182 189.7 196.9 201.9 209.6 216.4 227.5 243.8 264 276.5 282.6 289 292.8 303.8 315.4 321.3 325 329.2 336.9 339.3 344.6 364.7 378 405.1 426.7 441.9 451.4 460.1 475.7 485.6 484.8 476.4 465 452.4 438.7 424.5 407.7 388.5 363 327 289.6 248 222 216.6 234.6 263.8 292.2 332.5 366.2 399.9 422.6 427.5 426.7 425.7 421.1 418 416.7 414.5 411.4 407.3 401.8 396.2 389.8 385.6 382.5 383.5 386.6 391.6 395.3 401.4 406.7 407.7 399.1 385.6 376.2 365 357.5 347.1 338.6 330.7 322.1 318.4 310.9 305.6 296.8 282.1 262.8 241.4 219.5 199.5 182.5 168.4 158 143.9 136.2 131.2 127.3 125.8 125.3 119.4 125 124.8 125.7 122.9 119.4 124.8 124.3 119.4 119.4 119.4 119.4 119.4 119.4 125.7 122.5 119.9 119.5 118.4 121.3 115.8 114.6 112.8 113.4 115.3 118.1 119.2 117.8 118 119.8 119.6 122.9 125.1 131 134.8 140.5 145.4 150.7 152.8 154.6 159.1 168.1 177 180.6 185.1 190.6 195.5 195.7 194.8 197.1 196.6 193.6 184.3 176.8 170.3 165.8 155.4 144 145.3 146.9 155.4 161.8 165.2 165.3 165.1 159.6 153.6 149.2 136.3 124.8 130.5 143.6 150.5
146 153.9 155.2 156.7 157.9 155.7 143.7 139.3 136.7 134.3 132.2 128.4 127.7 128.9 128.3 125.5 127.4 130.5 130.3 129.8 127.8 128.1 131.4 134.2 137.5 140.6 146.6 159.5 172.1 183.3 193.3 199.8 204.8 215.5 228.5 251.3 267 279.3 291.4 296.1 303.9 314.5 320 322 324.5 332.8 338.8 350.4 361.6 365.3 378.1 402.2 428.2 445.6 450.3 462.1 470.8 468.7 466.8 461.4 452.7 440.4 427.7 415 397.8 379.9 358.1 331.6 288 255.5 227.1 221.1 241.2 266.9 297.6 333.1 369.1 405.1 409.3 415.5 415.4 410.8 408.9 405.7 405.5 403.7 400.9 397.8 392.7 387.4 382 377.8 374.9 373.8 377.7 382.6 386.8 392.7 397 394.9 390.6 378.1 370.5 359.7 351.6 344.1 338.9 330.9 323.1 318.3 310.5 301.9 289.7 273.5 256.7 237 223 206.6 183.4 165.2 150.9 141.1 134.8 129.2 124.6 120.3 119.4 119.4 119.4 119.4 121 119.4 119.4 119.4 123.9 119.5 119.4 119.4 119.4 119.4 119.4 119.8 119.6 119.8 119.6 118.2 119.8 117.5 115.1 115.5 116.9 119.1 121.6 122.5 123.5 122.8 123.7 126 128.6 128.9 133.5 140.5 145.8 152.1 155.9 160.2 161.8 169.3 182.5 184.8 186.6 190.9 194.8 198.8 200.7 200.1 203.1 202.5 197.8 189.3 182.5 176.2 172.3 161.4 148.9 151.2 155.9 163.5 174.2 178.4 185.1 178.8 172.8 165 158.8 149.6 132.2 125.5 141.2 148
159.3 161.2 165.3 171.7 172 168.5 167.3 159.3 151.2 147.7 146 141.8 141.5 140.8 139.8 136.7 135.3 130.9 132.7 130.9 130.3 126.6 126.6 128 129.4 133.9 142 151.2 165.4 176.9 187.3 197.5 202.6 217.9 235.3 248.5 266.5 279.8 291.9 302.4 313.8 319.7 323.8 329.6 336.2 343.6 353.4 370.6 376.7 380.5 381.9 398.9 425.2 441.7 448.3 454.6 456.3 452.9 451.6 445.5 438.2 425.8 414.9 404.7 387.1 368.6 351.6 330.5 304 260.5 229.8 225.2 247.3 271.7 301.3 334.9 385.2 399.7 399.3 404.7 403.1 398.7 397.4 395.3 392.6 391.5 389.4 385.8 382.8 379 374.9 368.1 364 363.5 366.7 373.3 377.8 382.2 385.1 383.1 378.3 370.2 362.8 355.5 347.6 341.5 336.5 330 323.6 317.7 310.3 301.4 283.6 269.1 249.6 231.6 220.6 204 178.9 160.5 149.8 145 135.7 129.3 119.4 122.4 119.4 119.4 119.4 119.4 119.4 119.4 119.4 123.3 124.8 119.4 119.4 119.4 119.4 119.4 119.4 123.1 122.5 121 119.9 120.4 121.9 120.8 117.7 116.2 118.7 121.7 125.2 126 129.3 128 128.3 132.6 134.4 133.3 137.4 147.1 150.6 156.7 163 165.7 166.6 176.5 188 190 193.1 198.6 200.2 201.4 202.1 203.9 207.5 203.6 200 192.8 190.2 182.5 174 164 156.3 157.8 162.6 172 181.4 189.7 205.6 191.1 185.4 175.7 165.3 155.2 140.5 130.2 139 148.4
154.7 169 175.1 181.3 180.3 178 175.2 171.1 158.9 153.7 151.4 149.2 150.9 150.6 146.9 142.5 139.7 130.8 127.8 129.4 126.6 126.6 126.6 126.6 126.6 126.6 137.4 147.7 159.3 175 186.3 196.4 206.5 220.1 236.9 247.4 256.9 270.7 285.1 299 310.3 324.4 340 346.8 345.3 354.8 368.6 367 372.7 380.3 383.4 389.8 416.8 436.5 443.6 446.2 442.5 435 435.8 426.4 418 410.2 398.6 386.2 371.2 354.9 338.5 320 295 262.5 233.6 233.1 255.1 280.9 305.9 347.5 386 392.6 398 397.4 389.7 389.5 389.1 385.6 381.9 378.9 376.6 373.5 371.6 368.3 361.5 355 347.8 347.9 352.7 359.7 365.7 371 373.4 374.4 371.9 365 359.4 351.3 344.8 338.7 333.6 328.6 323.7 317.1 310.7 302.2 286.7 262.7 249.3 230.5 215.7 193.6 178.7 167.3 157.2 145.5 136.8 132.5 119.4 119.4 119.4 119.4 119.4 119.4 119.4 119.4 119.4 124.5 119.4 119.4 119.4 119.4 119.4 119.4 121.9 123.6 125.2 122.9 121.7 121 121.9 123.4 119.4 118 120 124.1 126.7 130.3 133.3 136 137.9 138.8 139.6 142.8 144.9 152.5 158.3 160.9 166.8 169.7 171.1 179.2 190 196.4 200.1 204.8 203.7 205 205.5 205.7 207.5 205.6 203.7 198.7 193.6 187.6 177.7 167.4 165.8 166.7 174 182.9 191.7 203.1 206.4 201.8 194.7 184.5 174.3 161.7 149.4 135.1 129.4 144.1
155.5 173.7 182 185.9 185.3 183.7 180 177.6 171.1 166 162.1 159.7 154.4 153.6 150.9 145.3 137.5 127.9 126.6 126.6 126.6 126.6 126.6 126.6 126.6 126.6 133 144.3 160.9 176.3 191.2 201.5 209.6 223.6 236.5 249.5 260.1 275.9 296 309.9 325.7 339.7 349.4 358 358 361 366.6 367.9 372.1 373.1 375.2 373.6 382.2 405.9 417.1 421.1 426.2 417.7 412.8 407.9 399.5 390.7 380.3 371.1 358.3 342.6 330.1 312.4 291.4 264.7 234.6 240.2 264.3 290 329.6 359.9 382.6 392.9 393.2 391.6 384.6 382.4 375.5 372.1 366.3 360.5 348.1 355.3 348.1 345 335.5 333.3 322.9 324.6 330.6 342.1 350.5 359.2 364.4 364.8 365.8 359.8 355.4 346.9 340.9 335.6 332.9 327.3 323.6 316.8 309.9 300.3 285.8 265.3 248 235.3 227.1 208.8 186.4 175.4 159.7 148.6 140 133.2 119.4 119.4 119.4 119.4 119.4 119.4 119.4 125.2 126.2 125.4 123.9 122.2 119.4 119.4 119.4 121.8 126.2 127.1 129.3 126.4 126.1 125.1 123.7 124.5 121.9 122.9 124.3 128.3 130.7 136.5 140.9 144.9 145.8 144.1 148.1 150.4 152.5 160.8 164.3 167.5 173.6 177.8 178.1 182.5 194 200.4 204.7 205.7 207 208.4 208.4 207.3 210.7 210 207.1 202.6 198.1 192.7 182.1 173.5 174.2 176.8 186.4 197.1 204.6 218.3 214.8 211.7 203.4 192.6 184.7 172.9 155.4 139.3 132.3 140.5
157.2 171.3 182.8 184.7 185.8 181.9 181.4 179.3 175.5 172.9 172.7 164.3 162.2 158.9 159.3 150.6 137.6 132.6 126.8 126.6 126.6 126.6 126.6 126.6 126.6 126.6 130.8 140.3 156.8 174 189.1 199.1 212 225.3 242.5 252 269 295.7 314.4 324.5 338.3 349.3 363.3 372.7 377.8 375.7 379.6 377.4 388.8 389.4 380.9 373.6 373.6 386.1 390.8 400.3 405.9 406.2 395.2 391.5 387.1 376.5 370.7 359.1 344.3 330 319.9 307.8 290.9 260.9 236.6 246.4 272.9 311.7 339.2 364.7 381.9 388.1 389.7 384.4 378.9 369.7 360.3 352 342.2 325.6 310.3 304.1 307.2 300.3 295.6 301.5 297.5 298.5 310.2 321.8 333.5 341.8 350.4 352.1 353.7 352.1 345.8 341.5 337.2 333.8 330.1 327.3 323.7 318.9 313.1 303.6 288.6 270.1 254.1 239.4 231.7 215.2 191.9 178.7 163.7 151.8 140.1 131.5 122.2 119.4 119.4 119.4 119.4 119.4 123.8 126 124.7 125.5 122.7 119.5 119.4 119.4 119.4 125.9 133.7 133.6 131.9 130.1 130 128.1 126.1 126.2 125.3 126 128.4 131.9 135.7 143.2 149.4 151.4 154.3 152.5 155.3 157.1 158.2 159.8 169.4 171 179.3 185.2 183.6 186.4 195.5 202.5 204.5 207.5 210 212.9 212.6 210.8 213.3 212.9 211.3 210.7 208.2 201 189.5 182.9 187.5 191.7 204.8 215.8 220.9 223.7 220.8 214 206.7 198.7 189 179.7 165.5 148.5 137.6 141.5
158.2 173.5 182.6 181.9 178.5 182.7 181.5 176.6 176.4 178.5 172.1 168.8 165.6 162.4 160.1 156.7 146.9 139.1 130.1 126.6 126.6 126.6 126.6 126.6 126.6 126.6 131.3 139.7 154.5 166.2 182 200.5 212.5 225.8 238.3 251.8 268.5 286.8 308.8 322.3 330.6 338.1 347.9 362.5 371 378.2 381.9 380.1 382.8 388.8 376.7 373.6 373.6 380.4 394.7 401.9 399.1 387.2 382.4 377.9 373.7 365.4 356 343.4 331.5 321.3 313.5 301.3 287.3 261.4 239.8 256.3 282.8 319.1 339.2 366.7 379.3 385 383.3 375.2 366.9 352.6 343.4 333.4 315 292.6 284.1 272.7 273.7 266.5 266.4 273.3 273.5 275.5 284.4 296.9 308.8 323.1 332.4 340.4 344.3 341.3 339.5 336.5 333 330.4 327.6 325.8 324.1 321.5 316.5 308.7 300.5 284.2 260.2 246 234.8 218.8 192.7 178.7 166.7 151.5 136.1 131.3 125.1 119.4 119.4 119.4 119.4 119.4 119.4 119.4 119.4 119.4 124.4 128.4 127.4 119.4 123.1 132.3 135.6 135.6 135.6 133.4 133.3 131.9 129.5 127.6 129.2 130.5 132.3 135.1 140.9 151.9 153.4 158.2 162.4 162.9 163.4 163.9 164.3 161.3 166.3 173.7 187.3 188 189.2 190.8 193.7 202.1 206.4 210.1 214.4 212.9 214.6 214.1 213.4 215.8 215.1 212.4 212.3 210.7 199.1 195.8 204 214.4 231.3 236.2 241.6 239.2 235 224.4 211 199.5 188.1 180.5 168.1 154.9 144.1 142.8
161.5 169.4 178.5 177.2 177 176.1 174.5 173.8 175.5 177.8 174 168.5 166.6 158.5 159.1 153.2 149.9 142.5 134.8 132.4 129.2 130.1 126.6 127.4 132.4 138.5 148.4 160 179.3 190.3 205.7 225 232.5 241 252.7 269 280.6 288.7 300.8 325 340.1 355.1 366.6 386.5 397.7 405.6 415.7 419.2 400.2 410.1 395.3 386.4 388.1 402.6 411.8 403.2 394.1 386.1 381.6 366 358.9 348.6 340.9 332.3 321.9 311.4 308.1 295.9 282.9 263.8 245.9 263.3 292.9 320.6 344.7 364.2 375 378.9 375.6 368.2 353.2 335.8 320 306 280.9 264.1 255.6 250.7 250.8 242.2 241.7 243.1 247.8 251.2 262.5 276 287 301.2 314.6 324.4 331 332.8 331.9 329.8 328.9 328.6 327.6 329.4 328.3 325.5 320.2 315.9 306.2 293.4 275.2 251.2 237.3 219.9 199.9 183.8 168 149.1 137.4 128.9 119.4 119.4 119.4 119.4 119.4 119.4 121 119.4 119.4 127.5 126.3 129.9 129.6 123.5 128.8 137.6 141.6 139.3 138 137.6 136.9 136.6 133.1 133.4 135.1 132.1 132.4 136.9 144.5 152.3 157.5 162.2 168.8 167.1 168.1 171.6 169.7 168.9 170.3 175.1 184.7 189.1 192.3 194.8 199.1 203.6 208.5 211.8 213.6 214.8 214.6 216.8 216.6 219.6 218 215.9 215.5 217.5 206.9 209 219.4 240.7 255.3 253.6 256.3 254.8 249.2 242.1 223.4 204.6 194.5 184.9 172.6 158.3 148.8 143.5
159.1 166.5 171.8 173.4 171.1 166.6 166 168.6 173.1 175.5 172.4 167.9 165.6 159.4 163.2 159.4 148.9 146.6 140.7 145.4 150.9 147.9 147 140.5 149.4 166 172.7 190.3 204.4 221.3 236.6 247.6 262.3 275.4 286.6 300.6 307 316.2 326.3 353.4 372 391.3 412 425.2 437.7 449.5 457.3 450.7 447.2 435.8 442.6 434 412 415.3 415 415.9 396.7 383.2 373.7 360 347.8 337.2 328.2 318.8 309.8 304.6 294.3 290.4 280.5 268.8 250.6 272.2 297.8 320.5 339.2 354.8 365.9 369.8 367.5 357.5 342.4 319.3 297.6 278.4 264.5 249.6 236.5 226.2 219.5 217.3 216.8 224.8 225.3 236.6 243.5 255.4 266.9 279.8 294.8 307.4 317 321.7 322.7 324.7 326.1 326.4 332.3 331.6 332.7 334.2 335.2 321.1 314.8 304 293.6 264.2 242.5 227.7 209.4 192.2 173.6 155.2 141.9 129 120.4 119.4 119.4 119.4 119.4 119.4 119.4 119.4 122.4 128.6 131.6 134 130 127 134.2 142.9 145 143.6 140.8 139.4 139.1 139.3 136.7 136.8 137.3 134.4 134.2 140.3 146.2 150.9 160.1 166.1 174.1 170.9 172.8 175.2 176.1 175.8 175.7 178.6 186.1 191.2 195.7 196.8 201.1 207.8 208 209.1 212.5 214.8 215.6 217.2 218.7 220.4 220.6 219.5 221.2 221.5 216.5 222.4 239.9 255.6 262 261.7 263.9 269.3 262.2 249.6 235.5 213.9 197.1 187.6 179.7 165.3 157.9 148.6
153.7 161.3 164.8 164.6 163.5 161.7 161.5 159.9 165.3 170.8 168.3 166.3 164.5 162.7 159.3 154.2 152.1 151.8 151.2 161.1 160.7 164.2 171.3 175.7 176.6 192.1 198.9 217.2 229.8 240 256.4 276.5 285 301.4 309.8 319.8 341.3 357 370.3 382.1 400.3 413.5 429.1 441.6 454.3 468.4 478.9 490 490.1 483.3 470.1 466.3 456.3 453.5 447.2 433.4 414.2 392.3 370.8 351.9 338.6 325.6 312.4 307.4 301.5 298.5 294.5 283.4 278.3 268.3 256.8 277.4 298.1 318.8 335.9 355.7 362.9 361 356.8 347 324 302.9 280.5 266.4 254.5 240.4 222.9 211.2 208.1 204.4 203.5 202.6 204.3 213.5 222.2 234.2 246.8 259.5 274.7 289.6 301.1 309.6 313 316.4 318.6 323.6 325.6 328.8 331.9 336.7 346 331.5 328.9 321.5 316.7 303.1 274 245 225.3 219.9 209.7 179.3 152.8 135.7 125.5 119.4 119.4 119.4 119.4 119.4 120.9 126.4 129.4 132.2 136.3 139.7 134.1 132.2 140.3 143.2 147.1 148 145.9 142.7 140 140.7 139.9 138.6 138.9 135.9 137.1 140.9 146.6 150.5 158.4 171 174 174.2 176.1 178.3 181.8 182.8 183.3 184.3 187.6 191.9 197.1 199.2 203.9 206 207 208.9 211.9 214.3 215.7 217.5 221.6 221.3 221.4 223.4 227 225.3 224.6 233.1 246.1 264.4 272.7 272.8 276.6 278.1 272 261.4 248.5 229.3 206.7 188.6 181.7 173 161.5 154.6
144.6 152.1 154.3 156.1 157.4 155.6 155.1 152.3 156.3 162.9 163.4 161.8 160.4 159.1 155.5 157.4 154.1 165.2 163.3 168 174.1 189.5 207.9 218.1 219.8 226.7 232.1 242.4 245.2 260.8 280.5 295.1 315.8 330.5 339.8 353 365.6 375.9 388.4 399 410.3 421.3 434.7 451.1 464.7 474.4 485.7 494 498.7 496.3 494 490.9 478.9 467.6 449.2 429.1 414 393 375.4 350.1 327.6 313.1 298.2 292.4 290.2 287 282.8 275.2 270.3 266 261.4 276.8 297 314.4 335.7 350.2 359.5 362 359.7 344.9 318.9 290.7 273.7 257.8 236.3 222.6 205.9 190.1 187.5 184.2 186.3 190.1 192.7 200.1 201.8 210.3 225.3 239.3 255.7 270.6 284.2 295.9 301.4 305.9 309.9 313.8 318.3 323.4 329.8 336.1 341.6 345.3 343.6 342.2 342.6 325.7 299.7 282.5 263.9 251.4 242 210.2 169.8 144.3 131.7 123.9 119.4 119.4 119.4 119.4 125.8 129.8 134.7 138.8 144.1 143 134.3 136.7 140.7 147.2 150.2 150.6 150.1 147.2 142.9 143.1 143.2 145.3 141.6 138 138.7 142.5 150.1 154 162.7 170.9 175.1 176.8 178.9 184 189.4 189.1 189.1 191.5 190.7 192.6 199.6 201 202 202.7 205.7 207.5 210 212.3 214.5 216.7 219.3 219.8 221.5 224.2 225.9 227.8 232.3 244.5 251.5 269.5 276.8 284.7 286.9 284 279.5 272.3 257.7 241.6 223.5 200.4 185.6 179 170.1 161.1
137.3 145.5 150.1 152 153.9 151.5 149.3 148.4 150.9 158.4 158 156.3 154.4 152.8 153.1 152.5 162.7 173.7 188.5 187.9 196 211.1 225.1 235.3 232.3 244.3 250 272.4 278.4 286.7 303.4 321 331 336.9 350.6 361.4 373.1 382.8 393 404.2 414.1 425 436 449.2 463.4 474.5 485.3 492.8 496.1 497 503.4 498.5 483.3 467.3 444.2 423.4 404.2 389 366.5 340.4 317 303.8 287.8 278.3 280.4 276.9 268.5 263.2 258.4 261.2 266.3 277.6 296.8 316.4 331.7 346.1 356.1 359.7 357.9 342.7 320.8 292 265.2 247.5 228.5 210.7 201.4 189.4 176.9 175.2 176.1 177.9 181.9 181.1 185 192.1 203 219 236.5 253.9 268.6 281 290.4 295.9 301.5 306.8 312 318 325.2 335 341.5 340.3 343.5 343.8 347.1 340.1 324.9 303.3 285.5 273.8 253.2 217 190.1 159.4 143.2 132.6 123.4 119.4 119.4 123.8 129.2 134.2 139.8 144.6 149.3 144.4 138.9 143.6 146.9 149.4 155.2 155.1 153.5 150.7 146.3 145.3 146.6 147.3 144.6 141 142 146.9 157.7 159.6 164 171.1 176.8 179.8 184.7 194.3 197.2 195.5 195.2 195.1 195 193.6 198.5 203.1 201.2 203.2 203.9 206.9 211.1 211.1 212.7 214.8 215.7 218.5 221.2 223.5 224 225.9 239.8 251.5 263 274.3 283.1 290.2 294 289.2 284.4 278.6 264.2 248.2 235.9 216 194.9 182.4 174.2 164
130.6 138.3 143.2 147.1 149.7 150.5 147.7 146.7 147 155.9 154.5 151.6 148.4 148.7 149.1 152 164.9 176.4 187.2 201.4 210.1 220.8 223.7 230.5 241.6 248.3 255.3 272.7 286.6 300.6 311.6 323.9 333.1 338.5 346.3 359.6 371.2 380.1 389.9 398.6 409.5 418.3 424.8 437.6 451.3 463.6 473.8 484.8 493.3 493 495 493.3 480.7 465 444.6 421 398.2 380.1 359.9 339.9 306.2 288 275.9 255.7 260.8 259.3 256.4 253.6 252.1 257 267.3 282.9 298.8 316.2 331.7 347.5 359 365.8 361.2 339.6 318.3 288.5 266.3 245.1 226.3 208 195.8 180.5 172.8 168.4 167.6 169.1 173.8 169 170.2 179.1 186 202.8 219.6 236.9 252.9 266.7 276 285.1 291 297.8 304.7 310.7 318 328.8 335.2 337.9 343.7 352.1 350.9 344.4 339.2 337.4 317.9 293.4 269.1 241.1 208.3 176 157.2 144.3 133.3 127.8 127.2 128.9 133 137.5 143.1 146.5 150.7 146.5 145.8 150 151.5 155.3 161.5 159.8 159.1 155.8 150.9 151 149.2 149 148.2 143.2 145.4 150.1 157.8 164.7 169.6 174.5 181.2 184.7 194.5 197.8 203.3 197.1 196.2 197 195.7 194.7 196 198.6 199.1 201.9 202.2 204.9 208.5 210 211.2 213.5 214.9 216.6 218.8 220.9 223.1 227.5 241.1 259.1 270.8 278.6 287.1 293.9 296.2 291 285.3 279.6 272.6 255.5 242.3 233.3 212.8 191.1 175 168.1
128 131.6 135.9 140.3 144.7 147.5 148 144.4 146 151.9 151.8 147.5 146.9 147.5 158.2 154.9 170.2 179.5 195.1 198.5 207.9 214.1 219.8 226.6 235.4 241.9 255.5 268.9 277 292.2 307.5 317.3 326.7 334.2 343.7 351.9 364.1 372.2 382 390.6 398.1 406.7 409.4 422.7 436.8 450.5 462 476.9 488.3 491.1 492.2 482.9 470.7 452.1 439.1 415.3 389.3 367 351.6 336.1 298.2 279.8 263.8 244.8 233.3 231.1 237.7 248 250.5 254.8 264.2 280.5 297.3 314.5 332.6 349.8 360.3 371.8 371.3 348.4 320.6 293.9 272.7 250.2 234 213.9 196.4 181.1 169.3 161.1 158.5 158.4 163 156.6 160.1 166.3 176 190.1 201.3 220.6 238 253.7 265 272.9 280.4 288.5 295.7 302.2 308.9 316.5 323.9 330.1 341.6 347.1 346.8 342.4 342 335.8 331.3 310.7 270.2 239.7 212.4 188.8 173.9 155.9 142.4 135.7 131.2 132.8 134.9 140.6 143.8 149.5 153.7 149.8 152.1 153.7 159.1 160.9 164.2 165.3 163.6 159.4 156.5 155.8 154.4 152.5 149.7 145.5 150.3 156.5 162.5 170.5 175.8 183.5 187.3 189.6 197.4 203.7 203.9 198.2 197.2 196.4 196.5 196.1 195 197.3 198.1 200.3 202.9 204.5 207.3 208 209.5 210.1 212.7 215.6 217.4 221.4 224.3 233.4 249.3 263.7 284.7 283.2 290.7 294.4 296.4 295 287.6 280.3 274.5 265 255.5 245.1 231.4 205.9 181.4 173
123.7 128.7 131.7 135.6 139.3 142.3 144.9 145.5 145.6 145.7 145.9 146.7 147.9 151.7 163.2 156.9 167 175.1 179.1 185.8 194.7 202.9 205.8 211 226.3 231 239.2 248.7 256.8 272.8 294.9 308.1 318.8 328.4 334 344.2 351.2 362.5 372.1 377.1 384.7 392 400 404.2 418.2 430.5 449.2 469.2 477.9 480.9 484.6 475.8 461.4 446.5 429.1 407.6 383.4 361.1 338.7 322.5 297.7 277.6 253.4 234.8 229.4 228.5 236 248.3 248.2 253.2 262.3 276 293.6 311.8 330.9 351.4 365.8 377.2 380.7 365.6 332.8 307.4 283.9 262.9 244.5 227.9 206.2 186.5 173.6 162 153.7 152.3 150.7 150.2 152.7 162.1 168.7 175.9 189.6 207.5 225.4 240.5 253.8 263 268.6 276.6 285 292.7 299.9 305.7 313.9 324.4 330.5 336.2 336 335.8 334 330.9 321.9 304.9 278.6 245 216.7 196.3 178.4 161.5 147.5 137.1 133.2 132 134.3 140.5 146.2 149.7 152 146.9 158.5 159.4 164.7 165.6 167.2 167.1 166.7 163.1 161.3 161.4 158 156.3 153 152.4 155 162.5 168.3 177.2 185.5 189.5 196.7 195.7 200.8 203.2 202.9 199.7 198.7 197.8 197.5 197.3 197.1 197.1 198.8 199.4 203.9 204.2 205.1 206.4 206.9 207.7 210.4 214 217.3 219.4 224.9 235.8 253.3 269.6 283.2 288.5 290.7 294.2 299.3 302.6 298.5 291.6 275.2 267.2 259.3 250.3 237.8 216.4 191.1 179.1
119.7 125.3 128.6 131.3 135.9 138.2 141.8 145.7 145.3 145.2 147.8 151.9 150.8 149.9 158.8 154.4 159.4 164.6 168.7 173.9 177.7 184.3 187.5 194 210.4 209.4 219 222.7 234.8 251.8 274.2 291.1 306.5 315.6 321.9 330.1 339.7 348.1 354.8 362.1 374.9 385.4 392.5 400.3 406.4 419.1 443.2 455.4 460.5 473.9 470.4 471.3 459.7 443.5 422.2 402.9 380 356.5 338.6 317.8 303.2 281.6 256.4 231.4 227.2 229.3 235.5 238.1 241.4 250.7 256.8 270.4 288 308.5 330.2 349.9 366.6 379.8 387.1 385.7 365.6 329.2 304.6 284.2 271.4 261.3 231.7 204.3 180.7 165.4 156.3 146 146.8 143.2 148.5 155.5 161.8 166.1 182.7 194.7 215 228.8 240.7 251.2 259.9 267.6 274.9 282.6 288.9 296.8 306.4 313.4 318.7 323.6 327.1 329.4 329.2 326.8 316 297 273.7 242.6 213 194.1 176.9 161.1 148.1 138 134.1 132.7 134.5 141.1 148 153 154.5 152.6 160.3 168.2 173 172.9 175.9 173.8 170.9 169.2 166.3 165.5 162.4 159.6 158 157.2 162.2 168.6 175.3 181.7 190 198.1 203.1 202.9 201.3 203.6 201.2 200.4 200 199.3 199.7 196.3 199.1 198.5 199 198.7 201.2 205.1 205.6 205.7 206.2 209.1 212.7 218 218.5 218.6 225.2 239.8 264.2 279.5 281.1 285.9 288.6 297 300.9 300.6 298.2 294.7 287 276.6 265.3 253.9 238.7 222.3 199.2 188
117.3 120.7 124.9 127 129.5 134.2 134.7 138.4 140.7 144.8 150.9 159.7 155.7 149.8 152.3 148.9 151.9 155.6 157.5 167.3 173.6 178.1 176.9 179.9 189.3 196 204.9 204.5 216.6 231.4 250.4 268.7 283.5 299.4 306.4 313.4 323.6 333.4 344.9 356.9 368.7 377.1 387.9 401.5 408.7 427.5 438.8 445.3 448.4 454.7 460 465.3 460.7 448 423.2 402 382.3 361.2 343.3 325.5 308.4 283.2 251.7 227.4 226.2 228.4 232.5 233.4 238.6 244.6 252.5 261 281.2 304.6 327 348.9 366.8 379.8 384.8 387.2 381.9 363.8 336.5 319.8 310.1 296.7 279.2 259.6 202.8 178.7 159.9 149.5 139.1 138.1 139.7 143 152.9 160.6 169.8 185.4 198 217.6 230.3 240.7 250 258.7 266.3 273 280.7 288.2 295.5 301.1 306.1 312 317.2 320.6 320.9 314.6 305.2 285.4 262.3 241.9 214.7 192.6 178.5 166.2 152.8 140.4 134.4 133.8 137.2 144.3 151.9 158.1 157.3 163.9 169.3 178.3 183.5 183.2 181.9 179.2 174.6 173.4 170.9 170.3 166.7 165.1 161.9 161.2 166.4 175.7 182.2 184.2 190.1 198.6 206.4 209.2 207 204.1 201.1 200.6 196.3 196.3 196.3 196.3 199.5 201.4 201.7 200.5 200.1 203.3 204.5 205.3 206.9 209.6 213.7 219.1 219.1 220.1 232 249.1 270.8 281.2 286 292.3 288.8 294.1 297.3 297.7 294.7 292 290.8 284.2 276.8 268.7 245.3 227.4 208.6 194
113.2 118.5 120 121.8 123 127.3 131.1 135.7 140.9 144 155.7 157.7 149.8 147 150.5 150.7 148.3 152.1 158.4 166.7 170.6 170 172.7 170.2 187 191 190.2 188.1 198.4 210 225.2 243.4 259.8 273.2 288.7 301.7 313.2 324.8 338.7 352.2 366.5 376.3 389.9 404.6 417.8 426.6 427.4 430.1 444.7 449.6 461 464.9 458 443.2 427.7 411.4 394.4 376.6 358 342.1 327.2 307.1 251.7 226.3 223.4 226 228 232.4 239.3 243.2 250.6 257.7 277.5 298.3 322.8 345.4 364.1 376.4 384.5 388.8 391.8 388.3 369 358.6 350.2 342.3 315.2 295.2 288.7 194.9 170.6 151.2 140.2 134 133.9 136.5 143.1 153.4 163.5 177.1 189.3 203.3 216.2 227 240 248.5 257.4 264.7 270.2 276.4 283.9 289.8 296.5 302.2 306.5 312.9 312.5 305 288.2 274.4 254.1 232.1 209.3 192.5 180.3 166.8 154.9 143.4 137.5 135.5 139.2 145.8 155.2 160.6 160.6 168.5 180.3 188.6 193.8 192 189.4 185.3 179.9 177.1 176.9 173.6 170.4 167 164.1 166.5 169.5 176.8 181.5 185.7 191.6 200.1 205 208.7 210.6 207.7 204.7 201.2 196.3 196.3 196.3 196.3 199.8 202.1 201.9 199.9 201 201.9 201.2 203.3 206.2 207.8 213.2 216.8 221.3 230.3 242 262.5 282.6 294.6 289.3 289.6 291.2 292.8 294.3 293.4 292.1 290.8 288.1 285 278.5 270.8 259.9 230.4 214.1 197.2
109.2 112.3 114.8 119.6 121.5 126.6 129.2 133.8 141 146.3 142.7 146.4 148.2 146.4 151.1 152.4 148.3 155.8 159 166.9 168.8 162.4 160.7 162.8 168.5 177.2 175.8 177.3 183.2 191.8 202.8 224.5 238.1 254.8 276.1 295.2 306.8 321 337.3 354.8 371.2 383 393.6 398.7 415.8 422 427.6 426.6 439 451.9 455.6 451 450.2 442 433.8 423.3 412.5 393.9 380.7 360.8 337.5 306.3 256.2 231.2 222.3 221.2 223.6 234.7 239 239.9 247.9 257.1 274 293.4 318.1 341.4 361.3 374.3 384.1 391 396.7 400.1 399.9 390.9 377.8 355.4 338.6 316.1 307.3 258.9 181.7 160.3 143.3 131.9 131.8 131.8 135 144.1 153.7 165.9 180.1 193.4 208.8 218.6 229.4 237.4 245.4 252.6 258.9 265.6 271.5 278.6 285 292.5 296.7 300.5 300.5 294.9 281.8 264 245.6 226 208.1 192.8 181.6 169.3 155.7 146.3 143.3 141 143.4 148.5 156 162.4 163.1 175 190.1 206 206.3 201 196.7 191.8 188 185.5 186 181.1 177 171.6 169.2 167.6 172.1 175.6 180.5 189.7 192.5 196.7 204.4 208.8 213.7 214.7 209.9 203.7 196.3 196.3 196.3 196.3 196.4 196.3 200.3 199.7 199 199.8 201.2 202.1 202.5 205.3 210.7 217.5 230.3 243.8 254.9 265.5 286.5 292 294.9 296.6 293 301.8 299.5 299.4 299.3 292.9 292.3 287.2 283.1 273.8 262.9 240.1 211.9 196.7
104 105.9 108.4 110.8 118.3 121.3 128.2 134.3 131.4 133.8 142.5 149.6 155.1 152 151.1 153.9 148.3 151.8 151.6 159.6 159.9 159.5 159.4 159.2 164.5 169.6 169.6 171.3 175.7 181.4 192.5 213.9 235.1 253.1 279 290.1 301.9 321.6 342.7 358.9 374.2 382.1 395.7 404.5 413.7 421.3 425.6 427.5 435.4 442.1 450.6 449.6 449.5 447.5 439.6 434.4 423.8 405.8 386.1 366 338.5 308.5 265.6 239.2 224.9 221.2 221.2 226.2 232 240.1 245.7 254.5 269.8 289.8 313.6 337.4 356.9 371.8 383.7 391.5 400.1 407.9 415.2 415.9 405.1 384 369 349 335.8 326.3 192.3 169.6 147.6 132.2 130 128 129.4 135.4 143 153.3 165.3 180.2 193.6 203.7 213.7 221.5 232.1 241.3 247.9 250.4 256.7 263.6 271.6 280.5 287.2 288.9 291.6 288.6 272.7 257.5 239.3 222 205.1 192.3 182.5 168.8 155.9 146.6 145.5 144 144.9 148.2 154.1 164.1 173.5 192 211.6 225.7 218 208.9 201.2 198.8 193.1 192.7 191 187.4 181.8 174.7 169.7 168.9 171.3 174.6 178.9 183.9 189.3 196.2 203.6 207.4 212.5 215.9 211.6 208.1 199.3 196.3 196.3 196.3 196.3 196.3 196.3 196.3 196.3 196.3 196.3 199.2 204.1 208.4 211.6 225.9 240 254.1 264.8 283.2 284.6 292.6 292.5 296.4 300.6 304.1 305.2 303 303.7 299.4 291.6 287.4 285.1 279.6 269.9 247 219.1 202.1
99.8 98.5 100.4 102 108.3 116.8 116.3 118.9 131.1 134.4 142.5 143.3 147.8 151.2 148.3 148.3 148.3 154.3 158.4 165.7 167.3 165.9 172.4 177.9 182.1 178.2 176.5 176.5 175.1 182.8 194 211.6 229.3 252.7 279.9 297.2 309.8 329.3 343.5 360.6 376.4 387.9 395.7 404 416 419.5 428.3 428.9 430.5 447.5 455.8 454.7 446.6 442.2 439.6 436.8 426.1 407.4 385.8 366.2 343.6 313.4 275.5 253.1 232.3 221.2 221.2 228.6 233.2 236.9 243.8 252.1 265.3 284.3 309.5 334.5 354.9 369.6 383.5 392.7 403.7 415 425 434.1 433.8 413.9 395 384.8 366.9 347.7 209.8 175.9 153.7 136.5 127.8 127.8 127.8 127.8 136 144.3 155 170.3 181.3 189.1 198.8 207.7 213.6 221.6 228.4 232.8 240.3 247.9 256.2 266.4 275.6 278.8 277.8 275.2 267.3 249.5 233.7 218.3 201.6 189.3 179.6 168.5 154 148.5 145.6 144.8 146 149 156 166.7 181.8 200.2 223.1 230 230.8 216.1 207.6 202.7 199.4 198.3 194.1 189.2 182.4 177 170.7 170.4 171.8 173.4 179.1 182.1 187.3 197.1 205 208.5 211.5 215.4 213.9 213 206 196.3 196.3 196.3 196.3 196.3 196.3 196.3 196.3 196.4 199.7 200.1 206 213.7 218.8 235.4 249.5 265.8 273.3 286.3 286.1 293.3 296.7 296.3 297 301.6 303.2 304 305.5 301.1 299.5 292 284.2 281.1 278.6 255 232.9 209.2
93.7 90.8 96.3 101.6 106.5 111.4 119.2 127.7 135 138.7 142.2 147 150.6 151.2 148.3 149.6 150.2 168.5 166.5 175.4 187.5 195.4 190.7 199.5 203.1 202.4 207.1 205.6 184.7 187.4 193.8 204.8 221 255.2 283.2 295.8 316.7 331.4 349.2 361.4 370.4 385 392.1 403.5 411.7 410.8 415.5 419.8 427.5 447.2 450.5 449.6 448.5 448.3 451.1 440.3 426.5 401.3 383.2 361.6 345.3 323.1 291.9 259.4 236.7 223 226.1 231.8 237 240.1 242.1 250.3 263 282.9 306.1 332.1 352.1 368.7 382.6 394.7 408 421.7 435.6 445.9 451.3 448.9 431.2 413.6 395.3 377.4 316.4 190.3 159.8 142.8 127.8 127.8 127.8 127.8 130.5 136.8 142.6 154 168.3 179.4 186.3 194.5 198.5 205.5 210.2 218.6 224.7 232.6 242 252.3 262.3 266.5 269.5 266.5 256.8 242.5 230 213.7 198.9 187.4 178.1 165 152.7 147.8 144.5 144.4 145.2 148.9 158.2 169 186.6 204.1 218.5 230.5 238.6 226.7 216.4 206.2 201.3 199.2 195.8 190.1 181.6 174.5 171.4 171.1 173.2 175.8 178.9 182.1 188.2 195.7 205.8 211.3 213.3 214 215.5 216.3 211.8 202.7 196.3 196.3 196.3 196.3 196.3 196.3 200.6 202.7 203.2 206.1 212.5 224.3 232.3 247.9 267.1 288 284.8 292.2 294.4 292.9 296.5 299.3 300.2 298.9 300.8 302.1 299.9 303 300.6 299.3 289.4 281.7 274.2 262.8 236.4 218
85.4 90.1 93.8 106.6 109.9 116.6 121.9 128.6 139.3 145.9 144.4 150.2 155.2 155.8 158.3 153.1 166.9 172 174.5 187.5 203.2 215.9 217.2 214.5 226.6 233.4 234.3 227.9 202.4 195.6 200.1 209 234.8 259.1 283.2 302.2 318.9 332.1 349 361.6 373.8 383.3 391.4 397.1 400 407.4 418 425.9 435.7 453.7 458.5 455.4 451.4 454.8 449.7 438.6 420.7 392.5 371.4 352.5 338.2 316.2 295.7 267.1 239.7 221.4 226.2 231.6 235.8 236.6 240 245.5 259.5 282 303.5 329.7 350.7 367.9 381.6 395.1 410.6 424 438.5 451.5 458.6 458.7 449.1 435.9 413.1 390.3 360.5 212.5 172.4 150 132.7 127.8 127.8 127.8 127.8 130.5 135.2 141.5 153.7 165.6 173.5 178.3 184.3 191.9 197.5 204.5 212.1 219.7 226.9 240.8 249.4 256.2 258.7 255.1 247 235.9 223.9 209.8 205.1 191.6 176.2 162.8 151.8 146.8 143.8 143.2 145.2 150.5 158.3 170.8 186.6 203 214.7 229.9 233.5 227.1 218.6 211 204.8 201.1 196 188.6 181.3 174.9 171.8 171.9 173 175.7 179.4 182.8 188.5 197.1 206.3 211.7 214 213.9 217.8 215.7 215.5 206.5 202.3 196.3 196.3 196.3 196.3 200.3 203 207.1 214.5 220 229.5 245 253.1 271.1 289 305.8 300.7 300.2 302.1 300.5 299.1 301.6 304.9 299.6 300.3 299.9 298.3 301.9 301.2 299.2 296.1 283.7 276.7 265.9 246.4 228.4
89.3 91.5 92.4 101.6 108.3 111.3 125.6 130.1 137 142.4 148.4 153.8 154 160.3 164.3 164.4 175.7 178.9 183.1 199.2 212.3 226.6 235.2 242.7 238.8 251.8 246.8 238.1 221.6 217.5 213.8 217.9 240.6 260.6 282.8 302.1 324.9 334.8 346.7 361.1 371.6 380.2 387.9 387.3 395.2 405.1 417.4 426.3 444.7 454.6 451.7 450 456.4 456.5 445.5 431.4 409.8 391.4 370.6 350 329.1 307 281.1 258.8 236 210.5 221.3 221 226.1 230.9 237.6 246.8 260.1 277.7 299.3 325.1 349.4 368 382.9 398.1 412.1 426.8 442.3 454.3 465.8 463.6 453.5 438.2 416.6 390.2 366.3 327 198.2 164.3 142.8 129 127.8 127.8 127.8 127.8 128.6 133.1 143.5 149.9 160.3 169.9 174.6 179.4 187.6 193.1 199.5 208 216.8 225.6 234.9 243.1 247.1 244.4 238.1 229.5 220.9 213.2 204.5 190.8 176.2 163.1 152.1 146.5 143 141.7 144.5 151.8 158.7 171.7 186.7 200.6 211.8 225.2 228.3 223.8 220.4 213.4 205.7 202.1 195.1 188.5 180.3 176.7 173.3 173.3 175.1 177 180.9 184.3 188.5 197.3 205.4 210.8 212.1 215.7 218.4 220.6 218.8 213.3 210.9 202.6 196.3 196.3 201.1 204.4 208.2 215.8 227.9 237.3 251.4 277.7 282.2 293.7 305.3 319 320.3 316.3 310.5 308 305.7 303.1 304.7 303.2 298.3 298.3 298.3 298.3 299.3 299.5 298.4 292.5 279.2 270.4 252.8 241.5
92.5 91.8 96.8 104.1 108.8 113.6 124.1 132.4 135.3 139.9 147 151.9 154.6 162.5 164.6 165.9 182.6 184.1 196.9 208 218 230.2 244.1 252.4 251.7 252.8 256.4 243.7 237.9 232.3 221.9 218.9 241.6 263 286.4 311.8 329.2 330.6 344.6 356.1 365.7 373.3 376.3 389.9 396.7 403.7 419.9 441 454.4 461.4 454.2 450 452.5 455 440.8 423.1 402.4 383.5 365.4 347.5 321.1 288.5 255.1 233.2 212 199.9 203.8 213.3 219.7 226.9 235.5 244.4 259.8 275.7 297.5 324 349.3 370.1 386 400.5 414.6 430 442.9 455.8 465.1 465.5 456.9 442.1 411.7 380.7 353.9 329.5 238.8 187.7 156.9 138.9 127.8 127.8 127.8 127.8 127.8 127.8 130.2 144.8 149 157.4 167.6 171.4 176.5 183.8 190.8 196.9 204.4 214.7 225.6 230.4 234.6 234.2 232.3 225.6 218.7 211 200.9 190.4 172.1 160.7 150.3 144.7 142.6 143.2 145.2 149.1 156.6 168.8 184.9 198.1 209.5 218.4 223.1 224.3 218.9 212.4 207 201.9 194.4 185 178.9 176.2 174.8 175.1 176.2 180 182.3 184 187.5 196.7 206.1 208.9 211.9 219.2 222.8 224.6 222.9 217.5 214.5 212.3 205 202.6 204 207.6 212.7 221.6 237.7 252.7 271.9 287.3 296.2 305.2 316.4 324.7 331.1 330.7 331.5 314 309.7 307 303.8 298.3 298.3 298.3 298.3 298.3 299.4 299.7 298.1 294.4 280.3 269.9 255.5 243.3
93.4 96.6 105.5 111.1 117.9 116 125.6 132.7 135.5 138.5 143.8 148.8 156.5 162.5 168.2 178.1 189.8 192.2 203.1 211 220.3 238 248.3 255.9 263.8 258.1 263.3 249.3 242.9 239.4 230.2 229.7 238.8 259 277.3 306.1 330.5 336 338 345 352.3 358.2 373.1 376 389.7 407 418.5 451.1 461.2 466.7 460.1 456.9 462.5 451.9 440.9 417.7 396.1 379.7 362.8 342.8 309.9 272.2 234.5 209.1 196.8 194.1 201.2 206.9 211.1 220.1 232 242.5 258.5 274.7 298.9 322.5 348.8 370.6 389.2 402.1 415.4 428.9 443.4 453.5 463.2 466.8 458.4 444.8 416.8 380.5 341.4 313.3 290.3 214.4 177.7 149.4 137.1 127.8 127.8 127.8 127.8 127.8 127.8 131.8 140.4 150.7 158.3 163.9 169.6 175 181.4 187 194.8 205.1 213.1 220.3 224.5 225 222.7 219.6 216.3 208.6 202 189 172.1 158.3 148.6 143.7 140.3 139.9 142.6 146 153.8 167.7 180.2 194.8 206.1 215.9 219.3 220.2 216.9 211.1 206.5 200.3 193.7 185 178.8 175 172.9 173.6 176.4 178.9 183.1 185.9 189.5 196.2 202.4 207.7 213.1 222.7 225.2 227 224.9 221.6 218.3 219.4 215 210.2 209.8 214.2 221.1 232.5 251.7 281.5 290.5 300.5 305.9 320.2 329.2 342.4 348.4 349.6 342 320.1 315.3 310 305.2 300.2 298.3 298.3 300.9 305.4 303.4 300.5 298.7 293.2 280.2 272.7 261.3 245.1
94.7 102.4 104.9 115.6 117.2 120.7 123 128.7 130.8 132 141.9 149.7 153.5 156.6 170.7 183.4 190.9 200.6 216 226.8 230.2 242.1 260.4 271 273.2 262 262.2 255.3 256 242.9 238.6 233.3 236.1 253.9 269.4 291 314.5 323.5 329.3 330.8 339.2 360.1 371.8 379.4 393.4 407.5 438.5 459.2 473.8 471 466.6 471.3 467.1 454.6 439.5 418.6 393.8 373 359.7 338.6 292.1 255 223.5 200 189.5 190.6 194.1 202.1 211.2 219.3 230 239.2 255 272.3 294.7 319.1 348.9 371.4 390.5 403.9 416.6 429.5 442.6 450.6 458 463.5 459.5 449.9 424.2 381 346.1 296.1 269.6 222.2 189.5 161.2 144.4 129.2 127.8 127.8 127.8 127.8 127.8 127.8 134.8 144 148.9 157.5 162.8 168.7 174 179.4 186.9 195.9 203.4 209.8 213.4 214 214.1 213 211.1 207.8 199.3 187.9 168.3 155 145.8 141.1 137.9 138.8 140.3 145.1 151.2 164.3 175.3 188.9 203.1 211.5 215.8 215.5 212.2 209.4 205.4 199.5 192.2 185.4 180.2 176 173.4 173.9 176.4 179.1 183.6 188.8 193.4 198.3 203.8 212.2 219 225.9 228.6 228.9 227.7 227.1 224.2 223.2 223.6 222.8 222.7 227.9 231.9 241.4 266 292 300.9 304 314.4 325.1 343.4 372 382.7 383.1 368.3 344 321.7 315.7 308.1 302.4 300.3 301.9 304.9 307.6 307.2 303.7 300.8 294.1 282.8 273.4 262.1 248.4
101 109.2 107.8 111.3 116.5 122.2 128.4 125.4 126.2 129.2 135.7 145.1 147.1 160.9 171.7 184.8 190.7 201.3 222.1 237 250 254.1 258.2 272.9 276.6 266.6 265.4 262.5 259.7 251 249.3 239.8 235 240.4 256.9 279.5 300.6 311.9 314.3 324.4 337.1 353.4 372.9 390.7 409.9 436 454.9 469.8 477.7 472.6 477.6 486.5 477.1 461.5 440.5 416.2 389.3 371.1 355.6 325.1 278.4 241.9 214.2 194.2 188.8 189.8 195.2 203.9 210.9 219.3 225.1 236.5 251.1 268.3 290.6 314.7 344.8 367.4 386.9 402.3 415 427.8 440.9 449.7 456.5 460.1 458.1 448.7 430.4 401.3 361.8 316.6 274.7 227.1 198 175.2 158.3 137.8 127.8 127.8 127.8 127.8 127.8 127.8 128.5 138.3 146 151.8 156.8 162.6 168.6 172.7 178.7 186.8 193 200.9 206.6 208.6 205.5 206.3 206.4 202 196.2 185.2 167.3 150.8 143 139 136.5 136.9 139.1 143.1 148.9 160.5 171.4 184.5 199.6 206.2 210.3 211.5 210.8 209.4 203.9 197.6 190.8 185.3 180.6 177.9 174.6 170.6 175.1 178.7 182.5 187.7 193.7 203.7 208.9 219.4 224.6 230 232.9 238.5 241.8 245.2 240.4 237.9 238.9 238.9 240 240.3 242.6 246.9 267.7 292.3 303.1 315 325.3 337 357.3 379.9 393.3 393.8 382.8 365 336.7 319.5 311.1 307.5 306.9 312 317.7 317.5 316.1 312.4 304.1 295.4 286.6 275.9 263.2 247.9
97.6 105.7 107 113.6 114.3 120.3 123.2 125.4 126.2 134 133.6 138.9 142.5 161.7 167.5 175.9 188.8 203 220.7 237.7 250.9 257.9 262.6 265.5 271.9 270.8 277.7 272.3 262.9 252 247.6 238 233 231.6 244.7 257 272.1 298 306.7 330.3 348.3 362 381.8 402.1 420.1 440.6 457.7 465.8 465.5 479.4 492.3 492.5 483.9 464.3 443.1 415.5 388.6 367.3 348.6 317.8 274.3 238.3 214.8 197 190.4 190.2 196.4 202.5 208.7 216.9 224.8 235.2 247.5 262.9 284.3 307.6 334.6 361.5 384 399.9 414.3 428.4 439.7 450.1 457.1 459.9 456 445 426.3 397.5 369 321.6 288.4 251.8 215.4 195.3 174 157.6 145.9 133 127.8 127.8 127.8 127.8 127.8 134.5 140.5 147.7 152.1 157.3 160.5 166.7 172.5 178.9 185.9 191.6 195.9 198.4 199.3 202.9 202.7 202.1 192.3 180.7 162.5 147.9 141.3 137 135.7 135.8 138.6 142.7 146.1 157.3 168 178.8 192.9 198.6 203.7 207.9 208.1 206.8 202.6 194.3 187.5 182.5 179.5 177.5 170.9 170.6 175.2 178.9 181.9 187.5 199.8 209 216.8 225.7 230.2 237.1 243.5 254.7 268.7 275.6 269.4 266 260.6 263.3 262.8 257.5 256.6 262.1 278.3 297.2 308.4 317.4 330.8 337.4 361.4 377.1 393.7 394.9 385.5 370.2 345.4 322.8 315.9 311.8 312.5 316.1 319.6 321.2 322.1 316.7 311.4 299 290.7 282.6 270.2 259.8
98.5 104.2 108.6 116.1 119.1 121.2 126.7 131.1 131.3 133.2 134.8 141.3 143 159.4 166.6 176.7 189.9 208.9 220 235.7 248.1 255.5 265.4 272.4 271.3 269.8 279.6 275.1 272.8 258 249.1 238.2 233.1 229.8 231.1 244.7 264.3 281.8 295.3 329.1 348.4 366.8 386.3 404.1 422 436.5 445.9 447 459.5 477.8 494.8 500.9 490.7 458.8 432.7 404.7 382.1 360.8 336.6 310.2 270.3 231.1 200.2 192 187 189.7 191.7 197.7 206.3 213.4 218.1 230.9 243.6 258.3 278.2 301.7 325.4 355.3 379.3 397.5 411.9 426.2 438.5 447.2 452.3 457.5 454.2 443 423.5 400.8 361.3 325.2 294 271 245.5 226.6 199.5 178.9 162 148.9 133.5 127.8 127.8 127.8 127.8 131.9 138.2 142.6 146.5 151.7 156.6 160.6 165.7 170.8 175.8 181.8 186.8 191.1 193.4 197.4 199.5 196.3 189.8 178 162 147.2 141.2 136.1 134.5 134.4 137.1 140.5 144.2 152 163.1 175 185.3 193.1 199.5 203.8 204.2 203.3 199.1 192.3 184.7 179.7 175.9 174.7 170.6 170.6 174.7 178.2 181.5 190.2 196.3 212 223.4 232.6 241 244.9 256.7 274.3 298.6 326.6 335.9 310.7 317.1 312.2 313.6 287.7 285.4 279.1 292.7 302.6 310.8 319.3 327.2 338.1 360.5 372.7 384.1 393.5 385.7 372.9 350.7 330.6 318.5 315.8 313.1 318 318.9 321.1 325.2 324 320.2 312.5 305.6 295.1 286.3 277.9
98.3 108.6 115.8 120.1 124.4 124.8 128 131.3 136.8 136.8 134.5 140 140.8 150.6 162.3 176.5 195.3 209.2 223.8 237.1 249.9 263.4 264.9 270.5 278.8 274.3 275.9 285.5 282.1 269.3 250.4 241.5 234.5 229.8 229.8 239.4 248.7 271.9 301.9 332.1 351.2 365.9 383.9 400.6 413.5 421.2 422.7 435.1 458.9 490.3 492.3 486.9 471.1 446.3 421.5 389.2 369.5 349.8 328 300.4 262.6 229.1 202.8 192.6 185 185.5 188.3 194.7 204.3 208.2 214.2 223.8 237.6 254 273 293.5 319.6 348.2 373.2 392.6 408.1 422.2 433.8 444.9 452.4 453.1 448.6 436.6 419.8 393 364 332.7 299.9 276.8 256.7 236 215.9 200.7 180.2 166.1 144.7 131.4 127.8 127.8 127.8 127.8 136.4 141.3 144 149.6 149.8 154.3 157.5 162.9 170.6 176 180.9 186.5 190.4 192.5 196.9 195.7 189.8 177.3 161.9 148.1 140 135.9 133.9 134.6 135.3 137.8 142.7 149 157.6 167.2 176.4 185.8 195.5 197.9 200.4 200.3 195.4 188.6 182 176.3 174.9 173.8 170.6 170.6 173.6 177.7 181.4 186.8 196.7 207.9 223.1 236.7 246.7 254.1 272.4 307.7 329.3 338.9 348.6 347.8 349.5 342.8 331.4 312.7 316.3 300.6 298.2 305.2 309.7 316.2 325.1 334.2 351.8 363.6 373.2 382.2 382 372.4 352.2 331.8 318.9 316.3 314.1 316.3 319.7 321.3 326.5 330.8 338.6 340 324.4 319.7 313 309.2
98.2 112.1 122 126.4 125.6 127.4 130.4 131.7 132.4 134.1 135.8 137.4 139.6 152.3 163.1 184 195.8 211.8 222.3 234.6 244.8 255.2 263.5 271.1 278.7 289.2 285.1 281 279.4 273.3 259.2 246.9 237.7 236.5 235.8 234.2 242.6 270.2 309.5 329.4 344.6 360.3 374.8 387.5 397.3 398.3 413.6 440.4 464.1 474.4 473.2 466.8 451.6 423.8 401.8 378.2 355.1 339.4 319.3 290.1 259.8 226 205.7 187.5 179.1 181.5 187.1 192.3 200.4 203.8 209.9 219.2 232.3 249.1 267.9 289.8 314.1 342.8 365.5 387.9 404.4 418.6 431.2 441.6 446.1 443.3 437.1 425.3 405.8 379.7 351 325.6 295.2 275.7 261.3 249.9 240.3 216.7 198.5 182.9 159.3 141.1 127.8 127.8 127.8 127.8 134.7 141 144.4 145.8 146.2 150.8 153.6 159.7 167.2 172.3 177.5 182.5 188.7 192.3 193.2 195.5 189 180.6 164 150.3 139.8 135.6 134.4 134.1 134.3 136.9 140.6 147.5 153.6 162.7 170.9 179.4 187.9 193.6 195.7 194.2 190 184.8 178 174.2 173.3 173.7 172.2 172.3 174.5 177.5 180.8 185.8 198.6 208.2 225.1 237.9 250 262.2 293.6 315.8 337.9 346.4 349 348.8 349.2 343.2 333.4 323.7 320.6 314 304.6 304.3 308.4 314.9 319.5 329.3 341.7 351.1 361.3 368.2 371.5 367.4 351.3 329.5 319.7 315 314.6 315 318.8 323.8 330.2 338.1 355.7 362.9 354.2 348.4 338.8 341.7
111.6 122.6 125.4 130.9 129 128.3 128.1 129.1 130.9 132.9 133.4 133.3 137.2 148.4 165.8 182.8 201.7 212 226.5 233.8 248.7 256.3 265.9 276.6 295.5 301.8 301.6 289.5 290.3 283.4 280.7 262.3 249.3 243.3 235.6 233.4 245 264.3 292.6 314.9 334.9 350.8 359.5 369.7 372.6 389.7 412.7 432 447.8 453.9 452.5 442.2 427.6 405.9 383.9 365.6 342.9 327.1 317.6 289.6 268.5 228.9 202.5 184.9 173.9 177.3 182.2 189.5 195.7 201.7 205.1 214.3 227.8 243.3 261.8 286 309.4 336.9 364.7 386.9 402.3 415 426.7 434.6 436.3 430.5 422.8 410.6 389.8 364.8 335.4 312.2 289.4 271.6 262.1 252.5 244.1 219.9 204.3 196.9 171.4 150.5 131.4 127.8 127.8 127.8 134.6 141.2 142.2 141.9 145.3 146.7 150.6 157.3 163.5 170.2 173.4 179 186.9 191.1 194.2 193.1 190.3 182.5 163.9 148.7 139.4 134.9 133.7 133.8 134.4 135.5 138.6 143.9 151.2 157.1 166.7 176 183.2 188.8 190.9 190.2 185.6 180.6 174.4 171.4 171.1 171.7 173.7 173.3 175.5 176.1 179.4 185.2 202.6 216.6 227.8 241.6 254.2 269.7 294.4 315.5 335 341.5 341.4 340.8 340.2 335 329.4 325.6 322.1 316.7 306.9 306 303.6 309.9 314 321.3 330.6 338.3 347.7 354.8 359 354.8 347.2 329.2 317.3 313.9 312.3 313.5 317.5 330.4 339.4 348.1 363.9 373.2 368.3 368.7 368 345.4
116.9 124.8 129.1 126.1 127.4 129.2 126.6 127.2 131.2 134.4 133.3 132.9 139.3 157.7 182.9 200.6 219.9 231.5 240.8 248.5 254.8 262.6 275.7 289.7 303.1 309.6 313.6 307.8 299 298.5 295.2 283.8 258.3 249.3 242.9 239.5 244.1 260 282.8 303.4 322 336.9 345.1 352.7 362.9 376.4 402.2 414.7 426.8 434.6 431.2 421.9 403.8 381 364.5 349.7 335.1 320.6 312.2 288.4 262.8 211.2 191.1 180 174.3 176.6 180 185.6 196.5 197.1 202.5 211.9 224 238.5 258.7 283.4 306.9 336.6 362.8 383.2 398.8 410.2 420.1 424.9 424 417.2 405.4 392.6 371.4 346.8 323.1 302.3 280.5 267.1 257 252.4 234.3 220.9 208.4 203.1 183.6 158.5 139.2 127.8 127.8 127.8 133 138.9 140.1 142 143.7 145.3 150.4 153.9 159.6 167 171.4 176.8 183.4 188.6 192.7 194.4 188.7 180.5 165 151.8 140.4 135.2 133.5 133.5 134.2 134.9 137.1 142.1 147.8 154.5 161.1 169.4 176.5 179.4 183 182.8 180.5 176.6 170.6 169.2 169.9 172.1 173.5 173.7 174.7 176 178.8 186.2 201.9 218.3 228.8 240.9 255.5 269.3 295.7 311.8 322.9 330.3 332 332 330.3 327.9 324.7 321.4 318 313.9 307.7 304.5 302.1 304 308.7 313.1 319.8 328 334.2 341.2 345.5 344.7 339.3 324.1 314.7 311.6 310.4 310.9 316.6 331.5 342.7 347.8 361.9 370.2 369.3 367.2 365.3 356.1
115.1 123.3 127.3 124.7 127.7 130.4 126.4 127.7 130.2 135.2 142.9 140.9 154 182.4 198.7 211.4 224.3 238.8 251.5 258 266.4 274.4 288.1 302.6 314.8 321.8 323.1 324.6 321.6 315.8 304.8 298.8 273.5 260.5 251.4 249.2 246.1 256.7 277.3 291.4 309.6 318.9 339.3 347.3 348.8 378.3 395.9 398.9 407.4 413.1 410.3 397.2 383.5 358.2 341.8 332.2 323.9 315.1 300.9 269.2 215.4 189 176.9 167.8 163.5 166.1 172.5 183.9 193.1 192.7 198.7 207.8 219 233.3 258.9 278.4 308.3 336.6 361.1 378.4 393.1 403.8 410 412.9 410.4 402.9 389.3 372.4 351.7 330.5 311.1 289.3 274 260.4 249.7 237.3 219.9 219.6 211.3 211.7 200.3 166.1 144.5 127.8 127.8 127.8 132.9 135.7 138.9 139.2 141.4 142.8 146.5 152.2 157.8 164 169.7 175 179.5 185.8 190.8 194.1 187.7 176.2 166.6 151.7 144 135.7 133.5 132.2 133.6 134.3 135.2 140.6 144.9 151.4 157.6 164.3 169.2 172.2 173.9 174.7 172.3 169.3 167.9 168.2 169.1 171.9 172.9 173.2 174.2 175.5 178.3 191.5 203.9 214.9 227.1 239.4 253.5 269 290.5 304.9 314.3 320 322.8 323.5 322.7 319.7 318.3 316.4 313.1 312.6 309.7 305 300.6 297.9 302.5 306.6 311.3 318 323.4 327.7 332.1 331.2 327.4 318.1 310.7 307.4 305.8 307.8 312.3 326.2 336.4 343.5 354.7 361.6 360.4 359.7 357.1 351.2
108.3 115.5 120.1 120.5 130.2 124.3 122.9 127.4 131.5 138.5 154.3 155.9 168.4 199.3 206.9 221 233.9 242.3 257.9 267.9 276.7 285.9 298.7 311.2 321.2 330.6 338.7 343.2 334.4 334.8 318.9 303.2 299.2 280.8 274.4 265.9 255.2 257.1 263.2 272 288.5 318.9 333.1 333.8 360.8 376.8 389.8 391.4 394.7 392.6 388.1 376.1 359.5 347.1 334.2 326.8 317.8 304.6 290.1 256 199 168.2 162.3 164.2 159.8 163.7 172 180.5 190.2 189.9 194.7 203.6 214.6 231 254.7 274.8 301.1 330.6 355.1 372 386.1 394.1 396.6 398.8 394.8 386.4 375.2 354.4 336.9 316.8 296.7 278.5 263.8 250 235.2 220.2 211.3 210 209.2 211.6 207.6 176.8 148.5 135.5 127.8 127.8 131 133.5 135.2 135.2 138.5 140.1 144.7 151.4 157.9 164.2 169.4 173.3 178.8 183.3 192 192.6 188.6 180.9 168.5 155.4 146.3 137.2 133.8 132.5 132.2 133.1 134.2 137.9 142.6 148.2 153 159.6 163.5 166.3 167.8 168.6 167.4 164.6 164.1 165.2 167.4 170.7 172.1 172.1 173.7 175.3 179.4 189.5 203.2 214.4 225.8 238.5 251.1 267.6 286.3 299.9 306.2 311.1 313.6 314.6 313.3 312.9 312.8 309.1 309.4 307.1 305.1 303.8 298.3 294.4 295.1 299.2 302.4 305.3 312.6 316.1 317.5 318.3 316.8 311.2 304.8 300.1 299.9 303.2 307.1 317.5 326.9 336.8 343.3 351.3 352.1 351.7 349.9 345.5
102.9 112.5 116.5 116.4 119.2 120.5 122.7 127.9 132.4 148.9 157.5 160.1 173 203.5 220.4 228.5 237.2 249.5 262.4 275.9 284.7 298 309.8 321.1 331.9 343.4 354.2 355.5 351.7 347.8 335.8 322.3 315.1 298.4 293.9 281.1 273 266.6 267.3 285.5 306 326 329.8 334.4 351.4 383.7 392.4 390.3 380.4 371.3 370.4 363.1 349.5 340.1 330.1 318.3 307.4 294.6 271.3 216 178.3 162.4 157.5 157.8 155.3 161.6 169.9 180.3 187.2 187.4 191.8 201.7 211.4 223.7 244.4 266.1 292.4 319.9 347 363 377.2 383.7 384.6 382.1 378 369.9 356.6 339.9 319.7 302.5 286.4 269.4 255.2 240.4 224.1 212.5 204.9 204.5 203.3 199.3 194.4 170.5 146.1 135.4 127.8 127.8 128 131.8 133 132.2 134 138.4 146 151.5 157.5 161.8 166.3 172.3 177.4 182.6 190.8 194.8 189.3 181.3 170.7 156.6 147.1 138 134.1 132.1 131.2 132.6 133.4 135.3 140.6 145.6 149.6 154.7 158.7 161.8 162.3 163.5 162.6 160.4 159.5 161.6 166.3 170.1 171 172.4 173.2 175.4 180 189.1 200.7 214.4 226.7 236.2 248.8 262.7 279.8 293.5 298 302.9 304.6 306.3 305.3 306.4 305.5 302.8 303.4 303.4 303.4 301.8 295.8 291.8 289.9 291.2 294.1 296.8 300.9 303.8 306.3 307.1 305 302.1 298 293.9 295.5 295.4 300.1 309 318.3 326.9 333.9 340.5 343.9 344.6 342.2 340.2
103.8 107.2 114 119 121.6 122 126.8 130.3 145.7 158.3 165.8 167.5 178.8 199.5 217.5 233.1 244 254 267.5 278.5 289.9 301.2 315.8 326.5 337.7 345.2 366.9 372.6 367.6 365.5 358.9 342 340.8 325.6 312.3 293.1 283.1 278.2 283.3 297.2 322 332.2 341.5 338.5 360.9 377.8 380 382.9 371.9 365.8 360.5 351 345.6 332.1 316.4 304.8 295 279.8 251.9 202.9 173.5 158.8 157.5 155.3 153.1 158.6 167.1 177.6 182.6 186.1 190.7 198.6 209.8 222.2 238.8 261.8 285.7 311.3 334.1 353.5 365.9 370.2 370.6 367.2 363.4 354.3 341.2 323 305 292.4 275.9 261.6 250.1 231.1 216.9 206 197.7 190.5 185.6 182.2 178.1 156.3 142.7 136.8 133 127.8 131.4 131.1 130.4 130.7 132.9 139 146.7 150.8 154.9 159.9 164.7 169.5 176.4 182.7 187.9 192.1 188.5 182.1 174.3 159.4 148.4 139.5 133.5 131.5 129.8 131.6 133.1 134.5 137.3 142.2 146.3 150.9 154.4 156.4 157.2 158 156.1 156.7 158.1 161.7 163.9 166.2 168 170.2 172.8 175 180.9 188.8 202.9 217.7 225.9 234.9 245.1 258.7 271.5 284.1 290.6 294.9 297.4 297.5 297.7 298.5 297.1 297.4 301.5 303.6 304.7 303.5 296.9 290.4 285.8 284 285.5 288.3 290.3 292.5 295 296 294.5 292.3 289.3 287 287.3 289.3 292.8 301.2 309.9 318.2 327.5 335.1 337.7 337.4 335.5 332.3
111.6 109.1 114.1 118.1 120 123.3 133.1 137.5 149.7 163.3 174.5 180.1 188.6 213 233.4 245.4 261.6 272.7 281.9 292.2 305.8 310.6 326.4 339.6 354.3 363.2 371.5 381.6 380.9 375.9 375.8 363.2 350.6 344.9 331.1 313.3 308 307.8 312.5 310.4 328.9 346 345.9 352.6 362.8 369.7 380.2 385.5 375.9 369.5 370.5 358.4 340.3 324 310 299.5 290.1 272.7 241.6 197.5 171.3 156.3 153.1 151.2 149.3 155.4 163.5 173.3 179.1 182 187.9 197.3 209.3 221.5 237.3 258.9 278.8 299.1 319.2 340.9 355 359 360.8 357.7 351.7 340.3 326.1 308.3 293.3 280.8 267.8 254.7 240.3 224 212 199.1 188.3 179 170.7 160.9 153.5 147.1 142.6 137.3 133.7 131.8 128.6 129 129.9 131 132 139.9 146.1 150.3 154.1 157.3 162.3 167.5 177.7 185 189.3 191.4 188 182.2 177.3 163.3 149.8 140.4 133.8 132.1 129.3 129.2 131.9 134.1 135.6 139.3 143.3 147.1 149.3 150.7 151.3 152.7 152.2 154.2 155.4 160.1 163.3 163.5 166.3 167.8 170.8 175.3 180.7 189.3 204 217.1 223.8 233.1 243.2 254.6 266.2 274.9 282.5 287.2 288.1 288.7 288.5 290.1 290.6 294.2 298 304 305.9 301.3 296.6 292.3 284.7 278.4 278.9 280 281.1 282.8 284.2 284.8 284.1 282.7 280.5 279.2 279.9 281.7 285.8 293.9 303.7 313.1 323.6 330 330.5 329.9 326.2 319.9
116.3 121.8 128 126.4 130.6 132 134.5 143.8 162.6 174.2 188.5 187.6 204.8 226.9 248 261.9 275.9 285.9 297.8 308.4 320.2 324.9 337.5 349.4 358.6 366.2 371.9 383.4 390.5 380.1 380.2 376.8 378.8 371.7 356.2 346.2 330.1 322.9 328.2 326.6 339.7 367.7 393 395 401.8 408.4 411.6 401.1 386.9 381 372.3 369.2 356.6 335.4 312.1 295.7 278.3 258.9 224.7 191.1 169.3 153.1 150.6 148.9 149.6 153.5 165 170.9 175.1 179.3 186.6 197.1 208.7 222.7 237.7 255.2 273.9 291.4 311.4 331.2 344.6 351.1 349.9 346.6 339.9 330.1 313 298.1 282.6 271.1 258 246.1 233.4 219.8 206.1 194.1 183.2 171.1 161.7 155.6 151.2 146.8 142.3 138.4 134.8 134.2 130.6 128.5 129.8 129.9 131.5 137.8 144.1 148.2 152.3 155.9 160 167.4 174.8 181.1 188.1 190.5 188.1 183.7 178.2 166.1 152 141 134.5 131.9 130.2 129.2 131.9 133.3 134.9 137.5 140.4 142.6 143.8 145.5 147.1 148.1 148.3 150.6 153.3 157.6 160.7 163.2 164.7 168 171.4 177.4 183.5 189.8 201.2 215.1 222.5 232.2 241.1 250 260.4 267.9 274.3 277.7 279.6 279.3 280.3 282.6 284.4 287.8 293.9 299.5 302.2 300.3 294.2 290 281.4 274.2 271.2 271.4 272.4 272.3 273.6 272.9 273.2 273 272.5 270.8 272.8 274.8 279.3 286.4 296.1 306 315.5 322 322.1 320.1 314.9 308.1
118 130.2 137 138.1 136.3 137.4 143.3 154.8 170.9 177 191.1 203.3 220.5 235.2 254.5 267.3 280.7 294.3 302 309.4 315.8 325 335.8 345.8 353.2 361.4 371.2 378.2 385.5 379.5 384.9 387.2 391.4 388.9 380.6 369.6 355.4 349 350.2 366.5 386.6 402.8 420.5 441.1 437.4 426.8 412.5 403.6 398.3 386.6 379.3 366.8 355.8 339.2 322.6 303.1 279.2 254.9 217.6 184.9 162.2 149 145.9 144.4 148 152.5 158.8 169.3 174.6 177.9 185.3 197.1 208 222.9 236.2 252.1 269 286.2 303.5 320.7 335.8 338.5 340.5 337.3 329.2 317 302.7 288.4 273.7 262.1 250 238.9 224.2 211.5 199.9 187.8 177.6 167.2 158.2 156.7 153.6 147.8 143 138.5 136.7 136 133.5 129.7 128.6 129.7 132.2 137.2 140.1 144.1 149 154.7 159.2 164.7 172.4 181 188.6 188.5 186.6 183.6 177.9 165.3 153.4 143 136.1 132.9 130.9 129.2 131.6 133 133.7 135.5 137.3 139 140.3 141.6 143.3 143.9 145.1 149.7 152.1 155.4 157.4 161.7 164.6 169.3 173.1 180 187.6 192.5 200.6 214.9 222.7 230.5 238 245.6 253.4 259.7 266.5 269.9 271.1 271 273.3 274.9 277.4 280.4 287.1 296.2 297.8 297 290.7 285.9 278.3 269.3 264 263.3 263.3 262.7 262.4 263.8 263 264 263.5 264.5 265.7 268.2 272.5 279.7 289.3 298.5 307.4 314.7 314.5 310.7 304.4 295.3
117.3 134.1 142.1 145.6 142.7 142.9 154.8 167 182.1 185.4 197.5 211.7 224.1 240.5 253 264.2 278.7 293 304.8 311.4 309.9 315.6 325.7 337.4 346 354.6 366.5 372.5 377.8 380.5 386.6 391.7 402.2 402.6 405.1 390.9 382.7 385.9 401.8 416.4 435.8 451.4 451.3 441.2 431 421.1 410.1 405.3 390.4 380.2 369.3 359.3 349.1 339.8 327.2 317.3 294.8 257.8 221.6 181.3 156.9 143.4 139.2 136.9 143 151.2 159.9 169 170.4 173.6 184.7 194.9 206.8 220.9 235.2 248.4 266.4 282.6 299 314.2 325.7 333.2 334.8 331.9 321.9 309.8 294 281.2 269.3 255.1 242.9 230.2 220.3 204.9 194.3 181.7 172.6 164.9 160.7 155.1 150.4 147.4 144.6 140.9 137.1 135.4 134.9 128.9 128.5 130.7 132.1 134.7 137.1 141.7 145.4 150.3 156.8 164.9 171.7 178.4 188.7 189.4 185.3 184.6 177.9 168.2 155.7 143.7 137.4 134.3 132.3 131 130 131.3 132 133.8 136 136.8 137.9 138.8 140.7 141.4 143.3 145.4 149.8 152.6 156.4 160.5 163.9 169.8 174.8 181.5 188.3 193.4 202.5 210.6 221.9 228.9 234 241.6 247.1 255.5 260.9 262.3 263 263.8 266 268.2 269.8 270.3 276.9 281.6 287.8 287.8 283.9 278.8 271.3 265.4 258.1 254.3 254.2 254.2 254.4 254.5 254.8 255 254.7 257.1 257.7 261.3 265.6 271.8 281.8 291.3 301 307 307.2 300.8 292.2 283.7
119.6 136.3 142.7 144.2 148 148.4 160 175.2 185.1 195.7 203.5 211 220.1 229.8 241.5 252.5 271.2 285.6 296.3 303.5 305.6 309.8 315.6 320.4 329.8 345 352.9 365.5 374.5 383.8 384.5 390.4 403.3 407 410.2 420.8 431 422.8 437.5 448.2 448.5 441.8 439.7 433.8 422.4 406 398.5 391.9 381 366.9 357.1 349.8 344.8 338.7 327.5 316.8 298.2 269.8 216.1 183.9 156.6 140.9 134 139.4 143.2 149.8 157.1 165 168.4 170.8 181.2 194.2 202.2 215.5 231.5 245.9 262.4 277.6 294.3 308.4 323.9 329.9 330.3 325 317.1 304.5 290.4 274.2 262.1 250.7 237.5 225.7 210.2 197.2 187.3 177.1 165.6 160.4 157.7 153.6 151.1 148.7 147.5 143.5 137.8 135.9 135.6 127.9 127.5 128.4 128.6 131.2 135.8 138.5 144.3 150.6 154.1 160.9 171.4 177.8 185.4 188.3 185.8 182.2 178.5 171.7 159.8 148.4 140 135.3 133.4 132.5 131.9 129.5 130.1 131 133.1 134.4 135.3 136.5 138.9 140.3 142.1 144.4 147.6 150.9 155.3 160.9 165.5 170.9 174.8 181.8 190.3 195.5 204.8 210.8 220.1 226.7 231.4 235.5 241.3 247.1 251.7 255.2 255.2 255.8 257.5 260.3 260.2 261.7 267.3 274.9 279 277.6 273.8 269.8 265.2 259.7 252 248.2 245.8 246.6 246.3 246.2 246.8 247.9 247.5 247.7 250.3 253.7 257.9 264.5 272 280.5 294.9 300.7 298.6 290.5 281.4 272.8
121.5 135.2 140.7 142.8 144.4 154.3 160.2 165.4 177.3 188.9 197.6 204 219.4 229.4 240.1 248.7 261.4 274.1 284.5 296.6 302.6 304.5 303.6 308 315.1 330.1 343.9 361.2 369.7 380.4 381.4 390.4 407.7 414.3 411.5 436.4 442.4 437.3 435.7 439.8 438.1 434.1 428.5 420.3 407.2 397 382.2 371.8 362 355.2 342.3 337.5 334.8 331.2 323.3 312.2 300.9 278.9 233.8 174.6 152.5 134.9 128.5 130.6 140.7 147.8 155.1 160.7 161.1 167 177.9 192.6 201.5 213 228.4 244.1 260.4 274 290.3 307.1 316.8 322.2 324 321 312.2 300.4 285.8 270.6 257.2 246.8 233 215.9 204 192.9 180.3 168.4 159.2 154.3 154.2 149.3 148.5 146.9 147.2 145.9 137.1 134.3 131.8 128.4 125.3 125.7 125.2 128.9 133.6 137.5 145.2 149.9 153.8 162 168.8 177.9 184.7 189.4 187.7 186.4 182 175.6 162.5 152.6 143.3 137.8 134.6 132.9 131.6 130.5 129.3 129.5 130.9 131.7 131.8 133.7 137.1 139.7 142.3 143.9 146.8 150.9 154.4 159.1 163.6 169.4 174.8 183.4 189.5 195.4 200.8 207.5 217 223.2 228.2 230.3 234.8 241.3 242.4 246.8 249 248.6 250.5 252.6 251.4 254.3 261.4 266.5 269.2 270.6 266.2 262.1 258.2 253.9 247.7 240.6 238.6 238.3 239 239.9 238.9 239.8 239.2 240 242.5 246.9 251.8 257.5 262.9 271.7 290.4 293.1 287.6 279.6 272 263.9
118.8 129.2 138.2 141 146.8 154.1 157.5 163.8 172.5 185 190.8 193.6 208.2 216.4 228.5 238.9 247.6 262.4 266.4 273.3 279.8 290.4 297.4 308.5 311.5 320.4 336.2 351.9 360.8 370.8 379.3 397.1 405.9 405.5 412.3 443.8 444.4 434.6 427.8 429.4 425.5 419.5 413.4 405.2 393.9 380.9 366.8 355.5 345.1 337.7 326.8 323.2 321.4 313.3 309.9 302.4 291.3 273.2 227.3 173.2 146.7 130.5 124 121.8 131.5 143.6 150 155 155.8 164.2 177.1 190.5 200.1 213.3 227.6 244.4 258.1 274.5 286.6 300.1 309.2 313.9 315.1 311.1 305.7 293.3 281.5 269.6 253 238 223.9 212.1 200.1 188.5 174.5 163.5 152 147.8 145.9 144.2 144 145 145 145.1 136.5 129.1 126 124.8 125.6 121.1 122.2 127.6 132.9 138 142.2 146.3 152.8 161 170 182.6 187.7 191.4 191 192.3 185 178.2 166.3 156.7 147.3 140.9 136.3 133.6 132 130.6 128.9 128.4 128.9 129.8 129.6 132.1 135.5 138.4 141.6 143.4 147 148.8 152.8 157.8 162.5 166.4 171.9 183.2 190.3 194 199.9 206.6 216.4 221 223.7 226.9 231.2 233.3 234.6 238.3 239.7 240.8 243.6 244.3 244.5 247.3 252.1 255.6 260.1 261.7 259 256.3 253.2 247 241.3 236.2 232.8 231.4 230.2 231.5 232.1 230.9 230.3 231.5 234.3 238.4 243.9 248.4 254.8 262.4 277 281 276.1 269 262 253.9
121.3 126.2 142.2 144.5 151.4 156.6 165.8 172 176.8 187.9 182.3 189 197.4 205.5 218 228.8 235.7 237.9 249.3 257 265.3 279.2 286.4 304.2 312.4 322.9 332.9 346.1 356.7 365 373.7 380.8 391.9 392.7 414 438.3 436.6 427.2 418.4 415.5 414 409.7 400.1 391.5 379.2 367 348.7 340.9 332.6 323.7 315.6 310.5 298.3 292.7 289 288 275.9 259.4 198.8 167.4 139.9 126.5 116.9 113.3 123.7 132.7 143.5 150.3 148.3 161.7 175.7 190.1 201 215 228.9 244.4 258.8 270.2 283 293.7 302 306.3 306.6 298.6 290.9 282.7 273.3 262.6 244.6 230.4 218.3 206.3 195.3 182.9 167.2 156.3 147.9 144.8 142.2 141.8 141.7 141.9 142.5 139.5 136.7 128 122.5 120.5 119.7 118.7 120.7 124.9 130.7 135.8 140.8 145.6 151.9 161.6 176.1 187.1 190.7 196.5 193.9 188.3 185.8 178.7 170.3 160 152 144.4 139 135.6 133.6 131.1 129.3 127.4 127.2 126.8 128.7 130.8 134.3 137.7 139.8 141.7 144.4 147.5 152 155.6 160.3 166.4 171.8 181.7 189.3 194.9 200.8 205.9 214.6 216.8 219.7 222.4 225.7 227.7 227.3 231.3 232.8 233.7 235.1 236.1 238.3 240.8 241.7 242.1 247 248.6 249.5 246.8 244.9 240.2 236.8 230.5 225.2 224.1 223.8 224.7 224.2 222.7 222.5 223.3 225.3 230.2 236.5 239.9 245.2 254 262.1 263.3 262.3 258.4 251.1 244
118.8 132.1 139.9 142.4 149.3 158.6 167.7 177.6 186.4 185.4 178.7 178.4 200.4 195.2 203.9 208.5 220.3 235.9 249.4 255.9 256.8 265.5 272.7 292.3 308.7 320.4 330.3 343.6 353 357.3 367.9 368.7 372.1 373.8 392.3 421 424 415.5 407.5 403.7 404 396.7 388.6 379.3 368.7 358.4 340.4 326 320.9 309.1 297.6 289 276 264 260.8 260.3 254.6 235.7 190.2 159.5 137.6 122.7 110.5 108.2 117 122.7 136.2 142.9 143.1 157.3 173 188.8 201.6 216.8 229.6 246.4 256.5 268.4 276.5 285.8 292 297.4 293.5 290.2 280.5 272.8 265.1 254.9 238.5 224.9 212.6 201 191.5 179.1 162.7 150.8 145.9 142.6 144.5 144.5 140.7 140.5 140.1 137.1 134.6 126.7 121.8 118.9 117.3 117.4 120.4 123.7 131 134.3 138.7 147.5 155 166.5 180.4 188.7 194.2 200.5 198.3 192.9 187.2 180.1 171.7 164 155.5 147.9 141.4 138.1 134.6 132 128.9 127.2 126.7 126.5 127 130 132.1 134.7 138.6 140.3 142.2 145.5 150.1 153.7 158.6 164.9 172.1 182 188.4 192.9 198.8 203.4 210.6 213.5 215 216.6 218 221.2 223 224.1 225.2 227.2 228.4 230 232.6 233.5 233.3 232.1 235.4 235.3 237.5 239.4 238.2 235.4 229.1 223.8 219.3 216.6 217.4 216.7 216.6 214.1 213.2 214.6 218.4 222 227.6 231.7 236 243 248.6 253.4 250.9 246.5 240.3 235.7
120.8 130.2 137 141 152.9 160.3 168.1 175.3 176.6 177.9 173.8 182.3 177.1 178.5 186.9 198.1 215.2 234 241.8 240.6 240.2 246 256.2 286.2 301.7 313.9 326.5 333.9 341 348.7 352.9 350.3 362.2 356.8 379.6 406.7 410.4 403.4 396.8 392.5 388.9 381 371.9 362.7 350.8 339.2 323.8 315 301.3 287 274.5 264.7 254.8 246.4 245.3 241.4 238.2 220.6 182.4 151.4 127.9 115.3 106.3 106.1 110.1 115.9 123.6 134.3 138.6 154.5 170.9 186.2 201 214 233.3 249.3 259.8 266.1 273.4 277.5 281.4 281.3 279.3 272.5 266.1 261.1 257.8 245.4 229.1 216.1 205.1 193.4 183.7 172.2 160.3 151.4 143.2 138.6 139.1 138.1 137.2 137.8 136.3 133.9 131.5 124.8 119.8 118.2 116.4 118.3 121.6 123.5 127.3 134.8 139.9 148.1 159.8 171.2 182.3 192.6 197.6 201.1 200.4 198.1 191.1 182.1 173.9 166.1 158.4 150.5 145.7 139.3 136.3 133.3 129.8 127.4 126.1 124.5 126.8 128.3 129.8 132 135 136.9 139.9 143.1 146.7 152.1 159 166.6 171.4 180.5 187.6 191.1 197.9 200.1 207.9 209 211.6 211.8 212.8 214.8 217.5 217.2 219.7 220.4 220.4 222.7 225.5 225.8 225.1 224 223.3 226.8 229.6 230.9 230.8 229.5 222.3 218.4 212.1 210.2 209.5 210.7 209.4 208.1 205.5 207.5 211 213.8 218.4 223.1 228.8 231.1 235 240.5 240.5 238.5 233.3 227.6
117.4 126 133.7 138.9 149.5 160.4 163.6 169.9 170.2 166.8 160.7 163.6 164.7 174.1 178 191.6 214.8 226 231.3 227 227.5 231.4 239.2 278.7 293 307.1 314.9 322.5 330.9 344.8 344.8 343.6 339.6 334.9 359.4 385.3 393.4 383.3 378.7 378 379.4 369.8 356.6 351.2 336.7 322.6 309.4 296.1 281.8 270.3 263.6 254.6 242.6 238.7 236.2 230.5 224.5 205.3 166 130.7 114.5 105.6 100 99.7 105.8 111.2 120.5 127 132.7 148.9 168.6 184.9 197.5 214 233.5 248.5 259.6 264.8 267.4 270.9 269.3 266.3 263.2 258.1 252.4 242.8 238.9 228.9 216.6 208.4 192.9 183.4 174.6 167.2 159.9 147.2 139.6 135.6 132.9 131.9 132 131.4 129 126 126.5 124 117.2 115 116.1 118.7 120.3 123.2 126.2 130.8 137.8 147.5 160.1 174.9 188.8 198.8 205.4 204.7 204.2 200.3 193.9 184.4 174.6 166.5 159.6 152 146.1 141.3 136.8 133.4 130.5 128.6 127.6 125.8 125 126.5 127.7 129 131.6 136 140.5 144.2 147.3 153.1 158.9 168.3 172.2 176.7 183.9 190.5 192.7 194.6 199 203.1 204.2 205.2 205.6 207.9 209.5 212 213.2 214.1 213.4 215.8 218 218.3 218.5 217.7 217.3 220 221.3 221.6 223.4 224.1 216.6 210.4 205.1 202.2 203 203.6 202.8 201 201.3 200.2 201.9 206.9 210.1 214.8 220.2 224.1 226 229.2 230.5 228.8 225.4 220.7
113.9 120.5 130.7 139.6 144.6 154.7 163 167 167.5 163.3 157.8 157.4 159 161.9 172.6 188.5 200.7 220.1 227.3 226.1 225 229.1 229.9 260.7 277.9 293.4 305.7 311.6 320.5 329.3 337.4 333.3 327.7 320.2 343 363.5 370.6 366.6 358.1 353.5 359.8 353.9 344.6 331.7 322 311.3 295 281.8 264.9 255.3 253.9 245.6 236.3 226.6 222 217.8 216.2 202.1 154.2 121.6 103.9 98.8 98.7 94.6 97.3 105.2 112.2 121.8 125.6 144.3 164.9 182.8 200.4 219.6 237.6 252.5 261 268.2 268 266.7 259.7 256.3 251.2 248.7 238.6 228.8 222.6 211.1 202.8 197.1 182.4 173.3 170.1 163.6 154.3 140.6 136.6 132.7 131.2 129.3 126.5 125 124 123.3 124.5 121.2 116 114.3 115.8 115.7 118.3 122.3 124 129.9 137.2 147.1 163 180.4 196.2 206.3 209.3 208 205.9 200.5 195.4 188.2 175.8 166.7 159.7 153.6 146.9 142.1 138.2 133.6 129.9 128.8 126.8 125.4 122.5 124 125.3 127.6 129.7 133 137 142.6 148.9 154.6 160.6 166 170.9 176.3 182.7 184.9 187.8 189.7 194.2 195.9 198.3 200.1 201.1 201.1 204.3 205.1 205 205.8 205.2 206.8 208.8 210.2 210.8 211.3 211 213.3 216 216.8 217.4 216.6 212.1 205.4 198.9 195.9 196.8 197.7 196.4 195.1 194.4 194.3 196.5 199.2 203 207.4 211.8 215.6 218.1 219.5 220.3 219.6 217.2 213
114.6 120 130 137.9 140.7 147.3 155.4 157.9 162.6 152.9 151.4 156.3 159.6 161.7 167.7 181.8 189.9 217.2 228.2 231.1 226.7 222.8 222.8 244.9 257.9 272.1 287.9 306.6 312.1 320.5 328 321.6 314.6 314.6 325.7 340 348.4 348.3 336.1 333.3 334.2 333.3 330.8 326.1 311 300.6 285.3 273.5 262.1 237 232.8 231.4 220.3 220.1 215.3 207 202 190.6 152.2 112.7 99.6 94.5 93 88.4 92.5 98.5 102 112.7 118.5 139 160.3 182.6 201.6 221.4 239.6 255.7 266.3 268.4 268.6 263.6 257.2 245.4 238.3 231.1 224.6 215.7 205.5 194.6 185.5 176.1 170.3 162.9 166.5 158.8 149.3 140 131.9 130.3 129.5 129.2 128.2 123.6 122.4 123.5 125.1 124.2 117.4 110.7 113.1 114.4 116 119.8 123 127.6 135.5 147.8 170 186.9 200.7 203.7 209.9 211.4 208.7 202.5 194.1 185.1 176.5 167.6 159.7 154.4 147.9 142.3 137.7 132.5 129.6 127.2 126.9 125.3 122.4 120.9 122.3 125.3 128.3 131.4 133 139.3 147 153.8 160.7 164.8 170 173.9 177.8 181.4 183.5 185.9 189.2 191.1 191.7 193.1 195.8 194.5 196.7 198.1 199.4 199.7 198.5 199.9 201.8 204.8 205.1 205.2 206.4 207.5 209.1 210 209.3 207 202.1 198 193.2 189 190.5 190.7 190.8 189.5 188.8 188.7 191.5 194 196.3 198.9 202.2 206.5 206.6 211 212.4 210.8 208.9 206.2
117.7 120.6 122.4 126.4 130.4 134.4 139 145.5 152.4 147.8 148 150.5 154.7 158.9 171 174 183.1 201.1 214.8 228.1 226.3 222.8 222.8 232.5 247.1 266 285.7 303.7 315.4 323.9 328.3 320 314.6 314.6 314.6 329.2 327.3 330.2 324.6 319.2 318.9 316.2 319.4 313.7 303.8 291 278.6 266.9 255.7 242 224.9 222.5 216.8 213.3 208.2 202.8 190.8 180.5 144.4 110.7 95 91.2 88.9 82.9 88.6 93.9 98.6 104.6 111.8 131.7 153.6 177.3 196.1 218 238.2 253.8 263.4 262.6 262.6 256.5 248.4 240.9 232.1 221.1 211.5 202.9 188.5 178.7 170.2 165.1 157.6 151.1 149.9 150.6 144.1 133.9 130.4 130.5 127.7 130 125.6 124.5 123 121.7 122.8 122.2 113.6 108.3 110.4 111.7 114.5 118.1 121.3 128.2 136.7 149.8 169 189.3 198.6 202.1 203.4 203.5 204.5 198 191.4 184.9 176.3 167.1 158.7 153.3 146.9 140.4 136.1 131.8 129.7 126 124.4 123.7 121.9 120.4 118.4 121.7 124.5 128.2 131 137.2 144.7 152.6 159.9 162.4 166.2 170.8 175.3 178.5 181 182.4 183.8 186 187.7 189.7 190.2 190 192.1 192.4 193 193.9 193 194.4 196.7 198.3 198.4 198.5 201 202.5 202.5 200.8 201.1 199.4 196.5 192.5 186.6 184.1 183.9 184.3 185.1 184.7 182.5 183.3 185.4 188.1 189.4 191.3 192.9 196.9 198.5 200 202.8 202.5 202 199.3
126.1 125.9 128.2 129 130.9 135.8 136.8 142.2 143.4 143.3 145 147.8 151.7 156.7 162.5 170.3 178.7 191 206.3 219.8 223.9 222.8 227 238.4 255.5 265.2 283.4 301.3 309.8 316.9 330 333.3 314.6 314.6 314.6 317.3 320.4 320.1 318.4 315.8 311.4 308.4 304.2 300.8 296.3 287.3 277.5 268 249.5 239.1 228.2 220 214.7 213.2 209 196.3 180.9 173.5 145.4 109.3 94 81.8 80.7 81 80.2 86.5 91.3 94.8 106.5 121.2 141.5 162.7 185.1 208.8 231.8 247.3 254.9 257.5 251.7 248.2 240.1 230.4 223.1 210.7 198.8 189.5 177.7 168 159.8 153.7 146.6 141.5 137.8 132.9 129.6 127.7 130.6 126.1 124.7 124.6 123.9 123 119.1 121.5 118.6 113.7 107.5 106.9 110.4 111 111.3 113.3 116.6 122.9 133 148.4 169.1 188.1 196.9 205.7 202.2 201.8 199.4 194.7 188.3 179.6 172.2 164.5 157.7 150.8 145 138.7 133.8 131.1 127.4 123.2 122.4 121.6 121.1 119.2 117.4 118.5 122.5 125.3 129 135.4 142.9 151.9 158.6 161.6 164.1 169.7 172.6 174.4 177.2 179.3 179.8 182.7 182.8 184.6 186.2 184.3 185.6 185.8 185.9 187.9 188.3 190.1 191.5 192.6 194.1 194.8 195.8 197.6 195.2 193.1 193.4 194.6 193.1 189.9 184.9 179.6 174.6 177.5 179.9 179.2 177.7 177.7 180 182.9 184.2 184.5 185.6 188 190.2 190.5 193.4 195.7 194 191.6
125.7 128.6 128.3 128.5 128.9 131.9 139.6 144.1 142.5 142.4 143.2 145.7 153.7 162.8 166.3 171 174.4 186.5 207.2 223.6 224.5 227.1 233.5 245.3 256.3 270.6 288.9 300.7 307.1 317.6 323.8 324.5 314.6 314.6 314.6 314.6 314.6 316.6 315.9 317.1 309.5 307.7 302 298.2 295.1 288 280.3 265.5 254.9 244.7 234.9 226.1 214.8 210.4 196.1 186.8 172.2 154.5 135.4 105.1 86.5 77.4 74.3 82.9 76.9 77 85.8 89.2 99.8 114.5 135.3 156 179.7 205.3 224.6 238.3 246 246.5 242 233.4 228.5 222.1 212.3 202.9 191.1 170.9 161.6 155.7 150.7 144.5 141.2 132.8 130 122.1 121.8 120.5 123 121.8 122.4 123.2 121.7 120.9 118.8 114.7 110.6 108.1 104.9 104 108.9 108.2 108.5 109.6 112.2 118.6 129 144.4 163.5 181.9 188.8 199.4 201.8 204.3 201.1 192.1 184.7 174.2 167 160.8 152.5 145.4 140.4 134.3 130.9 128.4 124.3 121 120.1 119.4 118.2 119.7 117.5 116.9 119.5 122.9 127 133 143.9 150.8 155.6 160.2 163.8 167.6 169.9 172.9 174.9 175.2 176.4 177.6 178.2 179.7 180.4 178.2 179.4 179.9 178.9 180.7 181.4 185.4 186.5 187.1 187.8 188.9 191.7 191.5 188.9 185.9 185.3 187.8 188.4 186.8 180.5 174.5 169.9 173.1 174.2 173.2 171.1 170.6 172.6 175.7 177.3 180 181.5 181.1 180.7 181.9 185.3 187.4 186.9 183.3
128.5 132.2 134.6 138.6 141.7 149.3 156.6 159.2 155 153.1 162.2 169.9 177.3 187.1 192.5 192.6 205.1 219.1 232 242.1 247.5 252.5 259.7 269.5 286.4 302.8 319 333.4 341.3 335.1 328.9 319.6 314.6 314.6 314.6 314.6 314.6 320 320.7 318.8 314.7 312.4 303 299.3 297.5 290.8 280.7 270.1 261.4 249.7 236.7 218.9 207.6 202.7 195.4 184.6 170.6 148.7 129.4 105.3 86.6 76.5 73.4 70.4 71.5 76.6 80.4 84.9 91.1 105.8 127.3 151 169.8 190.4 215.5 225.8 236 231.9 224.4 221.9 223.7 213.9 202.7 192.8 170.5 155.2 146.7 140.6 138.4 138.7 134.8 125.6 125.2 118.8 114.4 114.1 114.2 119.6 119.9 121.9 120.2 119.9 122.5 115.3 107.5 105.9 104.9 104.7 100.8 103.8 104.1 107.2 110.9 117.2 127.5 141.1 156.9 171.5 177 181.5 193.9 199.7 197.6 187.6 176.5 167.7 161.2 154.8 147.3 139.2 134.3 130.6 126.5 123.2 121.3 119 119.1 118.5 117 117.3 116.9 116 118.1 120.9 124.8 132.1 141.6 149.6 154.2 159.7 162.8 165.1 167.7 170.1 171.7 172.8 172.6 173 172.9 176 176.2 174.3 173.1 173.2 172.4 174.5 177.4 179.2 181.9 182 182.3 183.8 184.5 185.6 182.9 180.8 179.9 181.4 182.1 179.3 174.5 169.5 165.6 167.1 167.4 166.3 165.2 164.5 166 167.5 169.3 174.1 176.9 176.7 176.2 177.4 179.1 180.2 178.8 177.7
144.6 151.6 158.6 164.4 165.4 167.8 177.3 178.4 184.6 184.8 198.7 207.5 224.4 218.6 227.9 233.7 238.1 247.5 260.3 276.7 287.9 295 299.6 304.9 320.3 341.8 368.7 387.4 387.6 373.1 369.7 347.7 355.1 356.6 343.6 332.3 333 341.8 337 337.9 336.7 324.6 318.1 305.8 303.7 296.1 285.4 272.5 265.8 258.2 249.2 221.6 210 202.7 195.7 189.9 183.2 152.1 116.7 99.6 85 76.6 72.6 67.3 67.8 67.4 72.7 78.6 82.8 95.2 119.5 137.5 157.3 178.5 197.3 210.2 218.8 218.2 219 214.9 204.9 199.7 186.4 163 150.9 141.9 136 130.6 128.4 125.9 120.8 117.6 117.6 113.9 112.8 113.5 112.2 114.2 116.4 116.3 115.2 114.2 110.9 107.7 106.3 105.2 104.6 102.1 98.8 98.7 102.5 105.2 108.8 114.9 126.6 139 156.1 163.5 161.3 166.2 176.7 183.4 180.7 174.3 164.9 160.3 153.8 147 139.7 132.4 128.4 125.6 122 120.1 118.3 117.2 115.8 116.1 115.9 115.7 115 115.7 118.5 121.2 124.3 129.3 138.2 147 152.6 158.8 160 161.5 164.9 167.2 168 169.3 166.9 167.9 168.3 168.9 170.3 171.7 169.9 168 168.2 170.4 172 174.6 176.7 177.2 177.3 176.7 178.8 179.3 177 174.3 175.3 176.7 178 172.7 168.6 165.6 162.2 162 162.8 162.9 162.1 160.2 160.9 162.8 164.2 169.2 172.2 172.4 172.7 172.4 173.1 174.7 175 173.7
160.2 171.9 180.5 184.1 186.7 189.4 197.1 210.7 220.3 224.7 232.5 245.6 256.8 261.6 269.5 270 281.4 300.2 308.8 316.2 329 339.9 356.3 364.1 385.7 415 415.7 422 413.6 411.6 401 381.2 394.9 396.8 383.5 381.5 370.1 362.3 361.9 361.8 355.9 350.1 335.3 317.4 308.8 300.9 296.4 286.1 275.7 263 247.8 228.7 216.1 206.6 196.9 191.8 179.5 163.5 121.2 99.3 84.8 76.2 75.1 67.3 61.6 65.3 72.3 72.2 75.6 86.3 106.8 126.2 146.6 166.7 186.3 194.4 204.4 209.2 210.7 206 193.1 180.5 161 149.2 141.5 132 124.4 123.2 121.8 117.9 112.2 108.4 104.3 107.6 111.1 108.2 110 112.7 115 113.3 110.4 105.9 105.7 104.6 104.4 103.7 103 102.3 97.6 95.8 99.9 102.8 107 111.9 120.1 134.3 150.4 152.8 151.1 162.3 165.2 163.1 160.3 159.6 155 152.6 146 139.7 130.2 125.6 123.6 122 117.9 116.6 115.6 114.8 113.2 113.3 113.8 112.3 116.4 117.1 118.6 121.7 124.7 127.5 133.6 139.4 146 153.9 155.5 157.8 160.1 164.5 165.3 164.4 162.9 162.2 165.1 165.3 164.8 166.6 166.6 165.2 162.7 165.9 166.3 167.4 169.4 169.6 169.8 171.1 174.1 174.8 172.5 170.9 172.4 170.4 168.9 166 163.8 162.1 159.7 158.6 159.9 159.4 159 154.5 157.5 158.9 160.1 164.4 167.7 167.8 166.7 166.9 167.6 170.3 168.8 170.1
174.6 196.1 202.6 216 221 226.5 236.3 247.5 250.8 256.8 258.9 273.2 287 301.6 305.7 310.2 319.6 344.8 359.7 365.2 377.6 397 393.2 415.6 441.1 460.8 456.9 452.8 440.9 436 422.1 416 406.7 403.7 395.5 396.5 399.1 392.1 384.5 371.2 358.2 352.7 342.4 327.8 317.3 306.6 297.9 287.7 279.4 267.8 257.8 242.3 226.7 217.3 207.6 190.9 179.8 164.8 126.8 102.7 87.8 82.1 82.6 77.9 70.3 60.4 62.7 63.1 66.6 78.5 95.8 116.7 135.2 148.3 166.7 188 193.6 196.6 191.1 181 170.9 151.5 142.9 136.2 128.5 120.1 112.2 109.1 111 113.8 110.1 100.9 99.4 101.1 103.9 106.1 107.9 109.3 111.5 110.5 103.4 102.2 102.3 103.1 103.3 102.3 99.3 95.8 95.8 96.4 97.5 100.1 105.1 108.4 115.2 122.2 128.3 132.8 137.5 145.1 149.5 148 145.3 145 148.9 146.2 137.2 130.8 123.5 120.3 117 114.6 113.2 113.3 111.6 111 110.9 111.3 111.3 112.3 115.4 117.2 118.6 122.7 125.7 126.4 129.9 133.4 139.3 144.8 149.1 154.2 155.8 158.3 158 157.3 157.9 159.5 160.8 160.9 160 158.5 160 160 159.5 158.7 159.8 160.1 162.1 161.4 163.2 166.3 168.9 169.8 168.8 167.8 166.1 164.9 162.3 161.3 159.8 158.6 157.7 157.2 157.2 156.7 156.2 152.7 154.6 155.2 157.6 159.8 162.4 162 161.7 162.3 162.3 163.4 166.4 167.4
186.7 203.6 220.1 234.2 246.7 253.6 265.4 272.9 282.5 290.7 292.7 305.3 316.7 329 344.2 357.5 373 392.3 407.1 431.8 442 449.3 463.6 483.1 489.1 487.3 476.2 463.8 448.1 439 427.6 421.4 416.8 407.2 402.5 398 394.3 390.2 388 381.2 369.1 359.9 355.1 346.9 331.4 326.1 312.4 295.2 285.2 275.7 262.2 247.1 234.8 223.9 211.5 196 179.7 157.8 129.4 109.6 99.8 90.7 85.2 75.7 67.2 56.7 56.9 57.8 57.6 70.8 88.3 104.9 119.9 136.6 153.5 165.9 173.3 173.2 168.6 159.5 142.1 136.4 130.9 125.6 117.3 110.1 104.2 102.5 101.4 101.2 103.9 103.3 97 97.7 103.2 104.2 108.1 107.4 104.5 102.1 100.1 97.9 98.1 98.4 98.6 97.2 95.5 93.4 90.3 95.1 94 95 100.2 106.1 111.3 118 122.3 126.3 128.9 131.5 135.5 133.9 134.5 133.2 131.8 131.2 128.8 122.1 117.5 113.2 110.1 109.3 109.2 108.4 109 108.9 108.4 109.6 108.4 110.9 112.4 114.4 116.4 122.8 125.3 126.2 128 129.9 133.7 140.3 145.7 149.7 153.3 152.9 151.6 151.1 152.6 154.3 155.4 155 154.5 153 152.2 153.7 155.4 155.6 156.7 156.1 156.3 156.8 158.3 160 162.3 163.3 163.1 162 161.9 161.8 157.8 156.6 156.9 155.9 155 153.7 152.9 154 153.6 148 149.5 151.2 153.9 155.6 157.3 157.6 156.8 158.4 159.2 160.1 163.1 162.7
192.2 207.3 222.6 241 254.6 269.3 281.1 290 298.4 302.4 311 317.4 330.2 344.5 357.4 372.2 388.8 402.5 417.6 434.8 459.5 476.7 489.3 497.1 496.2 488 474 463 447.7 435.3 430.8 421.2 412.7 409 403.2 404.6 399.6 394.6 390.8 382.4 376 362.1 354.5 347.7 342.3 335.1 322.4 314.2 292.7 276.6 262.3 252 242.1 231.6 218.3 203.9 188.2 169.8 144.5 119.8 103.9 95.5 84.3 68.3 58.1 53.5 48.8 52.1 53.3 65 76.2 91.5 104.5 118.2 129 133.7 138.3 141.5 137.1 132.8 127.2 124.5 120.2 113.9 109.4 103.6 100.5 98.6 95.8 95.1 97.3 100.6 95.1 95.1 97.8 102.2 104 101.6 97.8 97.1 96.6 96 95.6 95.4 94.9 94.6 92.3 90.1 88.8 90.4 91 91.9 95 100.5 107.3 114.2 118.1 123.5 124.7 125 124.8 125.9 126 125.1 124.3 124.6 121.1 117 112.9 108.7 107.3 106.5 106.6 106 107 105.8 107.2 107.8 107 109.6 111.2 111.5 115.5 120.2 123.5 125.4 127.4 129.4 132.4 137 142.5 145.7 147.7 147.5 147.4 147.6 149.7 150.2 151.8 151.1 149.7 149.1 149.1 149.8 149.8 152.5 154.2 152.5 152.1 152.8 155 156.4 158.6 157.6 159.3 157.4 157.8 155.6 154.1 154.1 153.2 152.8 151.4 150.1 146.1 146.7 147.2 146.2 144.9 147.1 150.5 153.1 153.9 154.3 154.8 155.9 155 157.2 157.6 158
195 212.7 227.4 244.9 258.6 272.9 285.3 297.1 301.3 310 315.6 324.9 336.8 349.9 360.7 375.8 389.3 405.3 418.7 443.9 459.3 478 490.5 494.1 492.9 484 471.1 456 443.7 430.7 425.8 420.4 421.8 419.3 418.3 413.3 408.3 399.1 391.3 378.1 371.3 360.9 356.4 345.3 338.7 338.1 326.1 310.5 304.5 286.1 270 258.4 247.9 241.1 233.3 220.6 214 197.9 164.4 135.8 116.9 102.6 95.9 78.4 60.5 51.5 46.8 46.7 50.6 60 69.5 81.1 91.4 102.4 111.3 115.8 115.8 116.1 118.4 117.8 117.9 116.7 115.2 108.6 104.6 98.6 95.5 93.9 93 92.8 92.7 92.9 93.8 93.9 94.8 96.4 99.2 95.3 95.8 94.9 93.8 92.9 94 93.8 92.7 90.9 88.8 87.4 85.8 87.9 88.4 89.9 92.5 96.6 100.8 107.8 113.7 119.3 120.8 119.5 117.6 118.2 117.5 118.1 118.8 117.9 116.8 114 110.6 105.8 101.9 104.4 103.4 103.2 103.7 104.5 106 106 109.1 109.9 110.9 111.4 114.2 117.5 122.1 125 126.5 127.5 131.2 136.8 139.2 140.2 141.5 142.3 143.5 143.1 147.4 147.2 148.3 148.2 147.7 147.3 144.7 143.9 145.6 149 151.5 151 150.6 149.1 151.7 151.4 153.3 152.6 153.6 153.4 153.3 150.7 149.8 150.1 147.3 147.3 147.7 146.5 144 144 143.7 144.9 143.8 145.8 147.7 151.1 151.8 151.7 152.4 153 151.9 152.1 152.1 151.6
203.5 215.3 229 241.9 255.4 271.1 282.4 296.1 299.7 303.8 320 328.8 334.5 345.6 361.4 375.3 389.8 404.4 421.3 439.8 457.2 471.2 484 488.4 485.8 470.8 458.3 449.6 441 426.7 426.5 426.9 427 425.5 425.3 412.6 407.1 398.6 385 376.7 367.8 357.3 352.9 342.3 331 329 329 311.6 301.5 287.1 274.5 266 257.9 244.8 240.2 232.5 224.1 211.3 181.4 155.4 130.7 111.5 99.9 86.5 66 58.4 50.7 42.2 43.5 54.2 60.6 69.8 80.8 88.8 100.1 105.2 106.2 105.3 106.2 108.5 110.5 109.7 107.6 105.6 100.6 96.5 94.7 94.9 93.6 93.1 92.5 91.7 93.5 94.5 91.8 92.6 93.9 94.5 94.1 92.4 91.1 90.6 91.1 92 89.6 88.1 85.6 85.7 83.6 85.5 86.5 87.2 90.5 94.1 97.2 101.7 107.1 112.6 115.2 113.5 112.9 111.6 111.7 111.3 112.2 112.4 112.9 109.5 105.4 100.6 96.5 99.8 100.7 99.6 104.6 104.6 105.5 107.1 110.2 110.4 110.9 112.4 113.4 116.8 119.6 124.4 126.3 126.1 129.5 133.2 136.7 137.5 136.9 136.4 135.5 138 142.3 144.3 146.3 144.2 145.5 144.1 142.7 142.1 144.7 146.6 146.7 148.7 148.8 147.2 147.1 146.8 146.9 146.8 148.9 150.2 148.3 148 147.2 146.3 145 145.3 145.4 144.3 142.7 142.5 141.7 142.9 142.6 142.5 143.8 147.8 147.9 148.6 149.9 150 149.7 148.5 149.5 148
201.6 212.4 227.4 239.4 250.1 263.4 277.3 290.8 299.5 307.7 320 330.4 335.2 343.7 359.8 369.7 388.4 398.8 413.5 432.6 449.2 461.6 472.3 469.5 462.7 462.3 450.7 440.5 431.6 422.5 419 419.8 422.5 422.7 413.6 405.1 399.4 390 378.5 365.8 359.7 353.1 344.9 334.9 324.3 319.8 322 310.1 298.5 282.2 275 273.4 262.9 256.2 241.5 234.9 226.4 216.7 197.3 167.8 151.5 131.1 118 94.9 63.9 54.8 48.1 42.8 39.9 52 57.2 63.8 71.9 84.2 86 90.3 92.9 97.1 99.9 104.1 105.4 103.4 104.6 103 100.9 97.5 99 97.3 96.6 97.9 94.9 94.4 91 90.7 90.1 93 94.5 94.3 93.1 91.1 89.8 88.3 87.3 86.4 85.4 84.9 84.7 84.4 82.7 83.4 83.6 84.4 87.3 90.5 93 96.2 100.8 106.1 107.4 108.4 108.4 107.6 107.2 106.9 107.6 107.3 105.4 102.6 100.6 97.1 94.5 95.4 97.3 99.6 101.8 103.9 104.9 106.7 108.4 109.4 109.8 111.5 112.6 114.9 120.2 123.4 124.4 125.5 126.4 129.7 132.4 135.2 132.1 130.3 130.6 134.9 139.2 141.2 141.5 142 143.4 141.1 142.3 139.8 142.5 143.4 144.3 145.4 145 143.5 140.5 142.1 142.3 142.8 144.1 145.3 145.9 145.4 144.7 143.6 142 142.6 144.6 142.6 143 142.8 140.7 141.2 141.5 141.4 141 143.7 144.5 145.1 145.7 146.3 145.9 146.8 146 144.5
198.7 208.9 220.2 232 246.1 258.8 270.2 279.4 289.3 301.6 311.4 322.8 331.8 341 352.3 363.9 380.4 395 405.2 422.3 437 447.7 456.2 461.9 463.8 456.2 441.1 433.3 426.7 421.5 419.7 416 409.8 413.3 409.1 401.4 389.6 381.8 369.2 358.6 349.8 343.9 335.5 326.4 319.9 311.5 305.1 295.3 291 280.3 272.6 270.9 270.3 256.5 247.4 245.8 232.7 216.7 201.3 177.5 151 129.4 118.4 98.5 64.2 50.9 44.1 39.7 41.1 51 55.9 64 67.8 73.2 80.6 79 80.7 85.3 88.8 91.3 90.8 88.2 86.3 88.2 87.8 87.2 87.6 90.9 94.1 92.4 91 89.3 88.6 88.8 90.5 93.4 95.2 97.9 97 90.2 88.4 87.7 85.2 83.3 82.9 83.3 82.7 82.6 81.8 82.8 82.7 82.7 84.1 86.2 89.1 92 95.6 98.5 101.8 103.5 103.6 103 103 103.5 103.1 102.1 100.3 98.4 96.6 94 91 93.4 96.3 97.2 98.6 101.5 103.2 104.2 107.4 107.7 108.9 109.4 111.9 113.6 119.5 120.6 122.1 124.5 127.9 127.7 127.9 129.7 127.8 125.6 129.3 132.9 135.1 139.6 138.5 137 137.6 139 138.8 136.9 137.6 140.8 140.7 141.6 141.8 141.1 137.1 139.6 140.6 141.6 142.8 144.1 143.8 142.6 141.7 141.9 140.6 139.3 139.3 139.7 140.4 140.3 139.7 139.9 140.6 140.1 138.6 139.4 141.6 140.3 141.3 140.8 141.7 143.7 143.8 140.2
194.9 205.9 219.9 227.7 240 252.3 259.1 272.2 277.4 294.7 303.3 316.7 328.2 337.1 347.2 363.4 376.9 384.3 401.3 411.7 423.4 437.1 448.1 451 452 446 436.6 426.5 414.9 413.4 407.6 401.8 400.9 404.5 399.2 392.6 378.8 369.4 359.6 349.2 342 332.9 325.1 319.7 312.8 302.8 294.7 287.2 280.1 270.6 270 264.5 262.5 253.4 255.1 258.4 240.5 227.6 198.7 178.2 152.5 134.3 120.6 84.5 64.6 50.7 39.5 34.9 40.3 50.4 54.1 60.2 63.8 67.2 70.1 72.3 78.9 87.7 86.5 88.6 87.1 83.5 83.4 83.1 83.5 83.4 85 86.4 89.8 94.1 89.5 88.8 87.1 86.6 88.6 90.5 92.3 93.2 92.2 93.4 91 86.9 84.1 82 80.9 81.1 81.7 82.3 81.2 81.8 81.5 81.6 81.6 83.5 85.5 88.6 91.5 96.2 99.1 101.8 101 100.6 100.1 100.3 99.6 98.3 97.5 95.9 94.4 91 91.1 91.8 93.4 94.5 95.4 98.3 100.5 101.9 103.7 105.5 105.9 107.4 110.4 110.6 115.3 119 121.3 124.1 127.4 126.6 126.2 126.1 122.9 123.1 126.3 129.6 131.8 133.8 135.3 135.1 134.1 136.6 137 135.4 134.9 135.2 134.8 135.2 136.4 135.2 135.5 137 137.7 140.2 142 142.8 143.2 140.9 141.4 141 140.6 138.8 139.4 140.1 140 140.6 139.8 139.9 140.2 138.2 137.5 137.1 135.6 135.7 136.1 138.3 139.1 139.3 140 137.6
184.2 198.9 220.4 231.8 241.4 246.5 254.8 263.1 276.8 285.1 296.3 312.3 319.7 329 344.7 356.7 368.9 377.7 394.7 402.5 416.1 428.9 439.5 443.6 439.6 434.7 426.9 415.5 406.4 399.8 399.9 395 394.3 390.1 386.7 382.6 370 356.2 348.4 338.5 329.6 321.8 315.4 308.2 301.5 290 283.1 278.2 272.2 261.9 267.9 255.4 247.9 253.1 255.3 256.6 247.6 232.9 215.5 179.2 147 128.9 104.6 81.4 69.2 51.5 40.2 32.7 37.2 44.7 51.7 54.2 56 60.1 60.8 67.9 73 72.9 76.2 79.4 83.2 79.4 79.6 79.5 79.1 81.2 84.9 86.7 87.9 89.5 90 88.6 84.7 86.7 87 88.7 88.8 88.5 88.2 91.2 90.5 91.2 86.3 82.2 78.5 78.3 80.8 81 81.3 81.3 81.7 82.1 82.4 83.2 85.1 86.9 89.4 92.9 96.4 100 99.4 98.8 98.2 98.5 97.7 96.7 96.6 94.3 91 86.8 89.8 90.8 91.2 92 93.9 95.8 98.2 101.2 100.7 102 103.4 104.9 108.1 109.1 114 116.5 119.2 123.1 126.1 124.3 123.6 120.2 118.1 119.3 124.6 129.2 132.7 132.9 132.2 133.3 133.4 132.1 133 131.4 131.6 131.8 132.2 131 133 133.6 133.3 133.3 134 138.2 139.2 138.8 139.5 140.2 140.4 141.1 139.1 139.5 139.8 138.8 137.8 138.6 139.3 140 140.7 140.2 137.4 135.3 132 131.6 131.6 133.5 134.5 137.2 137.4 133
183.7 201.9 215.7 227.6 233.4 240.4 249.4 255.9 265.8 274 287 296.8 311.9 324.7 335.8 348.3 362.3 379.1 393.8 400.1 410.4 414.4 427.6 428.9 423 414.2 415.7 405.2 398.9 391.8 385.2 381 377.4 377.6 373.8 366.4 357.4 347.2 333.3 325.4 316.9 312.3 304.6 294.8 289.9 282.6 274.5 265.3 261.8 253.8 252.6 242 243.7 259.4 257.7 249.1 249.2 240.1 223 189.6 152.5 121.6 101.7 86.2 64.8 50.2 41.9 32.3 36.8 43.2 43.8 49.7 52.6 50.8 57.7 63 67.1 66.1 69.8 72.4 74.2 75.1 76.6 76.1 76 77.4 81.1 84.3 87.8 85.3 85 83.8 83.6 86.1 87.5 89.3 90.8 89.2 87.4 86.5 87.4 87.6 85.6 81.6 78.3 78.3 79 80 80.4 80.1 80.7 82 82.8 83.4 84.3 86.5 87.6 89.7 92.7 94.6 96.6 96.8 96.7 96.2 96.5 95.2 95.2 93.1 89.2 85.1 87.8 89 89.7 90.6 91.7 93 95 98 99 100.2 101.9 103.9 106.2 108.5 111.5 114.2 117.8 122.6 123.9 121.5 118.4 116.5 115 118.3 122.8 126.2 131.8 135.4 132.8 131 131.3 129.2 129.8 129.8 130.1 131.8 131.8 131.6 131 130.8 131.5 131.1 130.2 132.1 135 134.4 137 139.2 139.3 139.4 138.9 139 138 137 136.2 136.7 137.8 138.3 139.8 140.6 137.2 135 131.2 128.4 127.5 128.6 131.5 133.1 131.4 128.4
190.1 216.8 229.2 233 238.2 242.6 247.9 252.4 263.4 275.9 289.4 305.4 317.9 328.1 339.1 343.2 353.2 370.6 386.8 393.3 397.8 405.3 412.9 408.7 404.8 403.5 400.4 395.8 388.6 383.9 376.8 372.5 367.8 363.7 362 357.3 347.4 337.1 325.3 315.9 306.6 301.1 295 288.9 281.1 270.2 261.8 253 251.6 248.5 237.2 237.3 239.5 251.6 255.6 246.6 246.5 243.4 225.4 199.6 171 131.9 108.4 88.3 70.3 49.5 37.8 29.9 34.9 38.1 39.6 43 44.3 46.9 52.6 59.3 60.4 64.9 67.8 73.6 74.6 75.2 75.5 75.8 76.5 77.2 77.7 80.1 80.9 80.4 78.8 82.4 85.2 83.9 85.7 85.4 85.2 84.3 84.4 84.7 83.9 84.4 82.8 82 78.8 78.9 78.6 79.5 80.2 80.3 81.6 82.6 83.3 83.8 86.1 86.4 87.6 88.8 92.2 94.1 94.6 95.4 95.2 94.1 93.9 94.3 93.6 91 87.9 84.8 87.8 88.2 87.3 87.2 88.8 90.8 92.5 93.5 95.6 98 100.7 104.8 107.5 109.3 111 114.2 116.4 121.2 120.8 116.7 115.3 112 116.3 119 119.9 122.4 126.3 130.9 131.8 129.6 128.1 127.4 126.6 126.2 127.4 131.4 133.1 129.4 131.3 128.4 128.6 127.6 128.3 129 130 131.5 134.1 138.4 142.2 139.8 137.2 136.1 135.5 135 134.5 134.5 136.1 136.8 135.4 135.4 135.3 133 130.8 127.9 125.2 125.2 124.6 124.4 123.1 120.3
213.1 225.8 232.4 232.9 238.4 245.9 249 260.1 267.5 274.8 289.1 302 319.4 332.4 340 351.2 366.7 380 392.9 397.9 403.9 410.8 411.1 403 402.5 404.9 405.7 394.4 383.6 376.7 372.4 368.5 359.4 357.1 351.1 346 335.8 327.6 315.7 306.7 297.3 293 286.2 278.7 271.1 263.7 251.4 242.3 231 227 227.7 226.8 236.7 239.6 252 245.4 241.1 243.1 228.9 201.2 177.9 151.4 115.5 94.7 78.7 47.9 35.9 23.4 32 36.2 34.8 35 35.2 39.3 44 49.4 51.6 57.5 65.7 73.1 76.6 77.3 78.9 79.4 80.5 84.4 83.5 81.6 81.5 80.4 78.8 78.8 78.8 82.5 83.2 84.1 83.4 81.7 81.7 81.9 81.9 82 81.8 81.5 80.4 80.3 81 79.2 81.3 81.7 82.1 84.2 85.5 85.3 86.8 87.5 88.7 89.5 91.9 93.6 94.1 93.8 93.6 93 92.4 92.1 90.7 88 86 86.5 87.5 87.1 86.9 84.9 86.3 90.9 91.4 93.6 95.8 99.1 102.6 107 109 110.8 110.2 111.7 113.9 114.5 114.4 112.3 111.5 110.5 115.6 119.6 120 121.5 123 126.3 129.6 128.1 126 125.3 124.9 123.5 125.6 126.6 127.6 126.1 125.3 124.5 125.4 125 127.1 128.8 126.5 130.8 133.7 136.6 137.8 136.8 134 133.5 132.8 133 131.8 133.6 134.6 134.4 134 132.9 132.3 131.6 128.8 125.1 120.8 122 120.3 120 118 117.3
204.9 220.4 229.2 229.5 240.9 246.6 250.6 257 266.1 274 284.9 301.7 320.4 334.9 348.5 360.7 374.2 387.1 399.7 407.3 417 420.2 415.2 410.5 415.1 410.8 405.4 395.7 387 382.6 375.4 369.4 362.6 357.9 347.8 339.2 328.7 317.1 305.7 293.5 286.6 284.3 277.3 267.2 261.8 255.2 238.4 225.5 220.7 220.3 219.1 217.1 221.6 232.2 240.8 244.3 233.4 232.2 226.3 202 185.1 163 120.2 101.1 79.9 53 32.9 19.2 30.6 32.8 31.2 31 30.5 33.8 39.8 46.2 51.1 56.1 67.6 77.4 82.6 85.9 85.1 86.9 87.8 88.1 89.6 91.1 86.4 85.2 80.7 81 78.8 82.3 82.7 83 82.5 82.5 83.9 82.4 82.1 82.5 81.5 80.6 80.4 81.5 79.3 80.8 82.4 84.5 84.6 85.1 85.8 85.4 85.4 88.6 89.1 90.2 90.6 93 92.9 93.2 91.5 92 90.4 89.3 89.1 87.3 84.2 84.4 84.5 84.9 84.3 81.6 83.9 86.3 91.3 93.7 96.4 100.6 101.7 105.8 108 109.6 110.1 110.5 110.1 110.5 109.8 109.6 108 109.6 114.6 119.6 119.3 120.8 121.1 122 122.9 125.2 122.8 123.1 124 123.4 123.8 124.7 124.8 124.3 123.9 122.1 123.1 122.3 122.4 122.8 123.8 127 129.7 132.3 133.9 133.4 132.1 131.4 131.5 130.6 129.6 129.8 129.7 128.8 129.4 130.3 130.2 128.1 128.1 123.5 119.4 118.6 116.5 115.5 114.8 113.9
195 202 210.7 221.1 227.5 235 242.4 249.9 259.1 266.2 279.4 298.4 315.2 333.8 350 363 373.6 383.5 394.6 396.7 403.5 413 414.2 411.5 420.3 425.6 412 400.2 394.8 393.4 388.2 380.4 371.5 359.1 348.2 335.8 318.1 306 294.4 281.5 275.9 272.4 261.5 256.3 249.4 240.8 226 215.3 213.2 215.6 212.6 207.1 210.7 220.1 232 240.1 236.9 221.7 220.2 202.2 188.4 165.6 123.4 98.5 86.9 57.6 32.1 21.1 25.8 32.5 27.9 26.2 25.3 28.1 32.8 40.9 46.6 57.4 65.8 75 82.1 86.4 87.9 89.3 89.5 91.1 93 93.9 92.6 88.6 86.6 90.1 88.4 86.8 85.2 87.2 84 82.6 82.2 81.9 83 83.7 82.2 81.2 80 80 79.5 81.2 83.6 89 85.6 85.9 86.6 85.4 86.3 87.7 88.6 89.8 90.8 91.1 91.6 92.7 91.9 89.6 88.9 88.2 89.4 86.7 83.1 82 82.7 84 80.3 80.8 81.5 85.9 90.7 93.7 96.8 99.9 100.7 101.6 104.7 109.7 109.2 109.5 108.9 108 105.4 105.7 105.2 108.6 113.4 116.3 118.1 118.8 120.7 121.5 121.5 121.6 122 121.8 120.7 120.1 121.4 121.2 121.9 121.2 121.5 121.1 120.6 121.5 121.8 122.5 123 124.9 126 128.9 130.4 129.7 127.9 128.4 127.9 127.7 126.4 125.8 124.7 125.8 126.1 127.4 126.1 125 123.7 121.6 118.7 115.9 114.7 113.1 112.1 111.3
186.6 188 195.3 205.8 210.5 217.6 231.4 236.8 247.8 273.7 278.5 293.3 316.4 330.5 346 361 370.4 379.5 394.5 395.1 392.7 399 400.6 401.5 417.4 413 405.3 393.7 395.4 398.9 392.9 388.3 375.9 360.2 343.1 329.9 311.4 298.6 278.8 272.1 267.5 259.7 253.9 238.1 233.5 228.1 211.4 207.5 203.7 205.8 207.4 197.7 205.7 215.5 222.7 235.7 236.2 224.6 207 200.6 183.8 161.3 131.9 104.3 87.7 55.7 33.1 16.6 18.8 25.1 21.7 23.7 21 21.5 27.5 36.7 43.4 65.2 70.1 82.5 87.8 92.7 92.7 95.3 93.3 92.9 94.8 94.3 92 91.3 92 91.7 89.8 90 87.3 85.5 83 81.2 80.2 81.1 81.9 82.3 82.1 81.3 79 79.4 79.3 81.5 83.8 86 86.5 85.8 85.4 85.4 85.4 85.8 87.1 89 89.6 91 92.5 94.2 92.6 89.2 87.9 86.2 87.4 85.6 80.8 80.4 80.1 80.3 79.2 79.6 81 86.5 91.4 93.3 95.7 99.3 100.8 101.3 101.9 108 110.4 108.9 106.3 104.6 101.7 101.7 102 105.1 108 110.8 114.3 116.6 119.4 120.9 121.4 121.5 121.9 121.9 119.3 117.2 117.2 118.2 118.1 118.5 118.5 118 118.9 119.2 122.6 122.7 124.2 125.1 124.8 125.7 123.9 124.9 124.7 125.3 126 126.1 125.7 124.2 123.3 122.2 122.4 123.5 124.8 124.6 121.1 118.8 114.7 111.1 111.3 108.2 109.6 109
185.7 192.7 199.3 201.1 202.8 214.5 224.9 236 249.6 264.7 278.9 286.8 301.7 316 332 342.9 357.2 370.6 381.1 383.2 384.5 392.6 386.7 389 390.1 393.6 388.3 384.6 387.8 392.2 389 384.8 371.1 352.1 335.3 322 305.2 292 277.4 258.7 255.3 249.8 238.1 229.8 223.7 216.1 206.1 196 196.2 197.5 192.5 190.7 198.8 210 217.1 225 230 227.3 204.3 198.3 185.6 161.6 135.4 114.2 83.9 57.1 33.9 13.4 7.3 15.7 13.1 11 16.1 14 20.7 27.6 41.3 55.1 68.5 77.5 86 93.8 98 94.5 94.4 93.7 93.4 96.3 93.1 97.5 99.9 94.9 91.8 91.6 88.7 86.4 84.8 81.1 79 79.4 80.1 81 81.7 80.9 79.9 77.7 79.1 81.4 82.7 85 86.8 86.2 85.4 85.4 86.4 84.3 84.3 86.2 88.6 90.3 91.2 92.5 92 86.1 86.1 85.3 84.4 82.5 78.7 79 78.9 78.1 77.8 78.6 80.8 86.3 89.9 93.6 95.2 97 98.9 101 101.3 105.1 108.3 106.1 102.6 100.7 99.9 101.3 101.4 103.1 105.1 108.1 110.8 114.9 117.7 119.8 121.6 122.1 120.9 122.1 118.6 115.8 115.4 114.2 114.5 117.3 118.9 117 117.6 118.8 122.2 123.5 125.4 124.5 125.1 122.7 122.4 124.2 122.9 123.5 122.2 124.4 125.4 122.8 121.1 121.6 119.8 119.6 118.3 116.8 113.9 112.6 111.5 109.2 107.1 106.5 104.5 104.2
178.3 183.3 182.5 178.3 183.7 204.1 214.7 221.8 238.9 248.8 261.2 280.1 300.4 311.1 322.5 335.5 348.9 363.8 364.2 361.6 372.3 380.4 375.7 377.5 374.6 383.8 375.8 376.2 384.6 393.2 389.9 382.5 363.3 337 324.4 316.5 301.5 281.6 268.2 253.4 242.6 230.7 227.3 218.5 214.9 206.7 195.6 184.5 183.5 184.2 179.1 182.8 194.6 203.7 212.6 218.9 222.7 217.1 204 183.7 179.5 156.5 137.3 111 88.6 59.9 28.8 11.3 -1.8 7.1 2.5 0.6 5 9 13.6 23.4 36.2 48.3 57.8 64.2 72.3 78.9 83.4 88.9 89.9 88.2 90 90.9 93.8 96.9 104.6 104 94.6 93.5 89.2 88.3 85.8 81.6 77.8 77.6 78.5 79.7 80.7 80.6 80.3 77.5 77 80 82.4 84.2 87 89.4 86.6 85.4 86.1 84.3 84.3 84.3 86.9 90 90.8 87.9 85.4 83.2 84.4 84.2 82.7 80.6 77 77.6 78 78.5 76.5 78.4 79.9 85.4 90.2 95.8 97.7 97.6 100.1 101.1 101.5 101.2 103.2 104.6 99.7 98.8 98.3 101.2 102 104.2 106.1 106.9 108.1 110.4 113.1 115 116.7 117.5 117.7 119.1 117 116.5 116.8 111.2 111.3 112.2 115.9 115.5 116.2 117.6 120.4 122.4 124.5 124.3 124 121.8 123.1 126.7 123.3 121.1 119.6 118.8 118.9 119.5 119.4 119.5 118.3 117.9 115.7 114.2 110.7 109.7 108.8 108 107.5 105.6 99.4 99
164.6 164.4 165.2 164.9 173.7 181.9 185.8 200.3 205.3 237.5 251.3 271.3 287.4 305.8 315.2 323.6 333.4 332.6 340.2 345 351.6 350.3 350.7 356.4 364.7 371.7 364.6 367.2 377.6 382.8 378.3 372.8 350.8 329.9 317.3 308.6 293.6 275.6 258.4 246.5 245.9 233.1 221.4 203.1 203.4 197.1 185 177 174.8 174.1 170.2 182 193.3 202.7 207.8 210.4 214.6 204.3 199.8 182.8 168.9 155 148.4 117.4 90.2 56.5 27.6 8.7 -1.8 -1.1 -1.8 -1.8 -1.8 -1.8 10.8 24.1 33.1 41.4 50.1 60.2 68.8 76.4 79.3 81.8 83 84.5 85.5 86.4 87.1 85.4 88.6 92.2 91.9 88.6 87.4 87.2 85.2 78.9 76.5 76.4 77.2 78 79.6 80.5 79.3 77.8 77.2 79.4 81.4 83.3 85.8 85.4 85.4 85.7 86.2 84.2 84.3 85.9 86.5 86.6 85 83.5 82.7 82.4 82.3 82.9 82.8 77.3 74.2 76.2 78 76.2 75.8 76.5 79.8 82.9 87.4 96.5 97 96.9 97.5 98.7 100.8 100.6 101 101.1 97.9 97.4 97.7 98.6 101.3 104.2 108.1 109.6 107.3 106.1 106.7 109.7 111.6 112.5 114.2 113.4 113.7 115.9 111.3 108.4 108.1 108.4 111.2 111.5 113.3 115 115.8 118.9 119.9 119.7 120.7 121.5 122.1 120.5 120.5 120.7 118.7 117.3 118.5 117.4 116.9 117.3 116 114.7 115 111.9 108.6 107.8 106.9 106 104.1 104.3 98.8 95.3
156.9 151.2 150.6 156 162.8 169 175.1 187.9 198.2 216.7 233.7 246 261 277 288.9 295.8 300.7 306 310.6 315.3 318 324.1 323.4 338 342.3 351.1 344 352 355.9 361.2 362.3 354.5 341.8 325.4 309.8 291 277.4 266.9 251.5 240.3 236.6 229.3 220.6 212.9 200.3 181.4 174.8 173 169.5 165.9 161 175.7 194.6 203 198.8 194.4 201.4 196.8 194.9 180.8 157 153.2 144.4 120.4 84.6 62.1 22 -1.8 -1.8 -1.8 -1.8 -1.8 -1.8 -1.8 12.5 20.2 31.2 40.7 51.9 61.2 68.9 74.4 76.6 77 79.9 83 84.5 83.4 79 81.7 84.2 86 86.8 86.5 83.4 82.9 78.9 76.8 74.3 74.2 74.4 76.3 77.2 77 77.8 76.9 77.8 78.7 80.6 82 81.8 83 83.9 84.6 85.5 83.9 84.3 84.6 85.3 84.3 82.5 80.6 80.9 81.5 82.3 82.7 81.6 74.6 75.2 74.5 75.5 75.3 74.8 74.9 77.8 80.3 84.2 89.1 90.6 92.7 95.1 96.1 98.1 98.2 99.4 96.4 95.9 96.3 98.4 100.9 103.5 104.4 107.7 110.9 106.5 104.1 102.8 104.6 105.3 107.6 109.3 108.3 107 106.8 107 105.7 104.6 105.7 107.4 106.2 109.4 111.7 113.3 113.6 114.6 115.4 116.5 117.2 117.3 116.7 118.8 119.3 118.3 116.2 116.6 115.6 115.1 113 112.1 112.3 109.6 108.2 105.5 105.1 104.8 103.9 99.8 97.4 95.2 92.2
144.8 144.6 146.2 151.8 154.7 166.3 173.9 179.4 188.4 199.2 213.8 217.7 224.8 242.8 253.8 260.8 268.1 277 282.1 287.2 289.1 295.6 298.3 314.2 321.5 327.8 325.5 332.4 339.7 345.1 340.4 337.9 333.1 316.6 297.9 276.4 266.1 257.5 243.6 233.3 229.3 220.8 214.7 206.6 196 182.1 170.9 166.7 159.6 152.4 152.2 168 183.2 184.3 185.2 187.6 186.6 187.1 188.4 178.4 157.2 149.5 138.5 116.8 80.4 46.3 18.2 -1.8 -1.8 -1.8 -1.8 -1.8 -1.8 -1.8 11 20.4 30.7 39.2 48.3 54.5 58 63.1 66.5 70.7 74.7 78.3 78.8 77.8 77.8 77.8 83.9 84.9 84.6 83.3 81.2 80.2 78.4 76.5 75.8 74.6 73.4 74.2 74.7 75.5 75.4 75.8 78.5 80.1 81.4 81.2 80.5 80.4 80.9 82.2 81.8 82.4 82.6 83.5 84.8 84 82.5 79.3 79.7 80.7 82.2 82.4 79.5 73.5 73.2 75.3 75.4 73.6 74.2 75.4 77.2 79.1 81 84.8 88.1 89.4 92.7 92.5 94.2 93.9 93.9 93.6 95.2 96.5 97.5 100.4 103.4 102.6 104.4 106.5 105 100.4 97.9 98.7 100.6 102.1 105.9 105.2 106.4 106.3 105.5 104.8 100.7 103.4 104 105.1 107.9 108.4 108.6 109.5 110.4 110.4 111.6 111.9 113 115.5 115.4 114.8 116.1 114.7 114.2 114.1 112.7 108.4 108.3 106.6 105.1 105.1 102.7 101.9 101 99.1 97.1 93.8 92.4 91.7
133.2 140.6 146.7 148.7 151 156 158.6 164.6 174.8 188.2 191.7 194.1 196.1 205.3 207.7 223.6 233.4 241.8 257.7 265.5 269.6 281.2 282.3 298.1 304.6 300 306.8 316.5 327.1 331.4 327.3 323.7 317.7 306.3 285.7 271.1 258.5 250.6 236.2 226.1 221.8 214.3 205.8 199.2 192.5 178.4 170.6 159.1 152.2 142.8 143.3 155.5 167.1 165.7 174.7 182.9 186.1 185.8 176.5 169.8 158.8 145.6 132.3 116.1 89.5 35.7 12.4 -1.8 -1.8 -1.8 -1.8 -1.8 -1.8 -1.8 7.9 18.4 30.1 43.4 48.7 52.2 57.6 64.6 71.3 73.6 74.1 78.6 81.5 77.8 77.8 77.8 84.2 84.8 85.4 83.2 80.4 79 78.2 75.4 73.3 74.5 74.4 73.3 74.8 75 76.3 77.7 78.9 80.9 81.9 81.1 79.2 77.4 77.6 77.3 76.7 78.6 80.3 84.1 86.5 86 83.6 79.2 78.4 80.9 81.4 83.3 80.3 75 72.7 73.9 73.4 74 73.6 74.6 78.6 77.8 79.8 83.7 86.8 89.1 91 91.6 91.1 89.3 93 91.9 94.9 95.1 95.9 99.1 101.3 101.4 101.2 103.4 102.1 98.7 94.7 94.3 95.9 96.9 98 99 104.1 103.5 104.1 102.7 99.2 99.8 102.5 104.4 105 106.8 106.8 108.1 108.4 107.5 109.5 110.6 111.2 111.6 112.8 110 107.9 109.2 109.9 108.6 106.2 104.7 102 102.9 102.1 100.8 99.5 97.8 96.3 95.2 94.3 92.7 90.2 89.2
152 155.2 157.8 166.2 162 159.8 160.9 165.4 169.8 173.6 174.7 175.3 176 182.7 186.8 204.9 219.7 227.6 245.4 254.5 268.2 276 271.7 279.9 285.6 290.5 304.4 316.6 321.3 323.1 319.4 312 302.4 289.5 280.9 271.3 256.2 247.2 236.5 220 216.2 205.6 198.6 193.3 185.9 169.7 165.1 156.2 149.3 135.4 134.8 139.6 144.7 156.8 167.9 170.7 175.6 177.8 176.3 160.4 148 140.8 126.4 102.7 83.4 34.3 12.7 -1.8 -1.8 -1.8 -1.8 -1.8 -1.8 -1.8 8.8 21.2 31.7 42.4 53.9 58.6 63.9 68.6 76.1 79.3 78 79.4 81.9 78.6 78.5 82.6 84.2 85.8 85.7 84.7 80.8 78.8 76.4 74.9 73.7 73.1 73.1 73 74.7 75.9 77.2 78.3 79.2 80.4 81.2 78 75 74.8 74.3 73.6 73.2 76 79.4 82.3 87.2 87.2 83.6 77.5 76.3 76.5 79.9 84.1 81.3 74.8 72.6 72.1 70.5 72.7 74.3 74.6 78.3 77.8 78.6 83.3 86.6 88.2 89.7 89.4 86.9 85 87.9 89.5 91.3 91.1 92.3 95.8 96.4 97 96.1 98.4 97.8 95.1 93 91.3 91.5 93.2 95.5 97.5 100.1 101.6 102.3 100.2 98.3 95 98.8 100.1 103.7 104 103.2 104.1 103.4 105.3 107.2 108.9 106.9 106.4 106.5 106.7 103.8 104 105.6 104.5 103.3 99.9 97.9 99.1 99.8 100.6 97 92.9 91.6 89.4 88.5 87.4 87 86.5
165.4 174.4 183.2 183 178.5 168.7 169.5 169.7 170.6 178.2 182.6 181.7 178 177.9 184.9 193.7 214.1 231.4 245 246.9 261.7 271 263.1 270 271.7 289 305.6 311 314.6 312.9 308.8 305.8 292.6 279.8 274.2 265.8 255.2 245.1 233.5 221.6 214.3 201.8 195.8 187.9 179.6 166 158.9 146.6 137.3 133.9 129.5 133 145.2 157.9 161.8 166.3 166.5 163.2 160.2 156.5 144.2 129.4 118.1 89.1 61.5 37.7 13.2 -1.8 -1.8 -1.8 -1.8 -1.8 -1.8 -1.8 11.9 24 35.6 46.8 53.8 64.7 69.6 77.3 78.4 78.6 79.2 80.5 85.2 83.8 84 84.8 85.6 86 86.5 85.5 82.8 79.1 76.1 74.9 73.5 73.4 73.2 71.9 73.8 75.3 77.9 78 78.1 80.6 80.7 73 70.9 70 68.2 67.8 69.9 73.3 76.7 77.2 80.1 80 78.2 75 74 74.5 77.1 78.9 79.2 70.7 69.5 67.3 68.6 72.7 74.5 75.8 77.7 79.6 77.9 80.7 84.3 86 85.2 83.3 79.3 84.2 84.8 86.3 88.6 86.9 88.4 90.3 90.5 93.2 91.7 89.9 90.3 91 90.7 90.1 89.5 88.9 91 93.9 97 97.7 97.9 98.8 98.6 95.7 93.4 95.9 98.2 97.6 99.4 98.8 99.9 100.9 103.8 104.9 105.1 102.7 102 101.7 100.7 100.8 99.9 100.4 99.3 98.8 96.2 97.8 98.5 96.2 92.1 89.2 86.6 87 86 85.1 84.8 83.9
167.3 184.2 195.8 196.7 191.1 190.3 179.2 183.8 186.8 190.2 197.5 193.9 186 182.8 187.2 193.3 218.5 232.3 245.6 253.4 266.5 256.5 251.9 262.4 262.5 288.4 297.7 305.9 302.3 304.7 297.8 292.3 282.9 277.4 267.2 258.4 252 245.8 233.3 224.4 214.2 203.1 191.4 188 162.2 157.5 149.8 137.6 128.9 126.5 125.3 131.3 152.2 163.5 171.5 170.8 167.5 164.2 155 143.9 135.6 126.7 109 88.4 59.9 27.1 -1.8 -1.8 -1.8 -1.8 -1.8 -1.8 -1.8 9 16.9 29 44.3 52.1 58.1 63.9 71.6 81.7 84.1 83.8 83.5 83.7 84.1 85.1 85.8 86.8 87.7 88 88.1 86.4 82 77.7 75.8 74.4 73.3 72.8 73.5 70.8 72 73.8 75.2 74.5 76.7 79 72.9 68.8 65.9 63.8 62.6 63.5 66.8 70.6 76.4 75.7 75.1 72.4 71.9 71.1 70.2 70.9 72.4 73.3 69.1 66.7 67.1 67.7 68.6 70.4 71 73.7 74.7 74.2 72 76.6 77.7 78.4 78.2 79.3 78.2 81.7 83.6 86.7 87.6 86.3 85.9 85.3 86.2 87.8 86.3 86.4 88 89.5 88.4 88.3 86.7 85.8 84.1 86.8 89.6 90.5 92.8 94.6 95.8 95.2 89.9 90.6 90.8 93.6 93 91.4 93.1 94.9 96.9 98.6 99.7 99 98.7 98.6 96.3 97 96.6 97.6 98 99.6 97.3 93.6 93.6 90.8 87.4 86.7 85.7 82.4 83.6 84.1 85 83.4
185.2 185.1 197 206.4 213 215.1 200 209.5 206.7 203.7 200.7 198.4 196.4 190.1 185.9 186.6 194 202.3 213.1 240.2 248.9 236 243.5 252.6 252.7 280.5 295.9 292.2 288.3 290.2 287.7 283.3 277.5 268.1 261.4 252.2 244.9 232.6 215.3 210.8 202.5 191.9 186.1 170.8 151.9 150.4 142.9 128.4 122.4 121.6 122.2 135 146.5 154.4 165.9 171.2 166.2 162 161.1 153.7 137 119.9 112.4 92.6 52 19.3 -1.8 -1.8 -1.8 -1.8 -1.8 -1.8 -1.8 -1.8 15.7 28.8 40.5 54.2 61.1 71.8 74.3 80.9 83.9 84.1 83.6 84.6 86 86.5 88.8 88.8 89.9 90.9 90.5 87.9 82.1 76.9 74.1 71.1 70.7 71.7 71.8 70.1 69.4 69.5 69.1 69.4 69.1 69.5 67.4 62.9 59.8 56.3 56.8 60.2 63.9 68.1 71.5 72.5 71.3 69.3 68.4 68 66.9 67 68.4 68.6 65.5 65.5 64.8 66.4 69.2 68.6 69.7 68.7 67.9 68.5 68.3 70.1 72.1 74.2 74.1 71.7 76.1 79 80.8 80.7 84.3 82.9 82.5 85.3 84.8 83.3 82.5 82.5 83.8 84.4 84.7 84.4 83.7 81.8 81.1 82.9 86.2 87 88.9 91.8 91.7 90.3 86.6 87.1 86 85.9 86.4 86.9 88.7 89.5 91 93.6 94 95.1 96.5 93.6 91.6 92.3 93.4 94.1 95.4 97.8 93.7 91.3 89.4 87.3 85.7 84.1 82.4 77 76.9 77 76.9 79.2
