ncols 200
nrows 82
xllcorner 310000
yllcorner 625900
cellsize 50
396 373.2 355.8 338.1 326.6 320.3 312.3 307.3 300.4 294.3 293.5 298.1 306 312.2 307.4 295.7 288.2 305.1 321.9 332.4 338.9 337.9 329.3 317.2 296.7 278.5 265.1 249.8 230.3 225.8 223.6 219.4 214.4 207.7 206.2 207 207.5 206.8 206.9 207.4 207.3 207.5 207.7 208.9 214.2 212.1 216.1 222.4 234.8 248.6 275.4 297.4 325.8 357.2 382.5 402 414.7 423.3 421.6 409.9 404.6 397.3 395.3 392.1 386.9 382.7 382.2 381.8 380.4 379.1 379 380.4 384.1 392.6 409.3 422.7 431.1 435.3 437.6 436.6 431.7 425.1 417.5 411 403.6 399.5 390.2 380.5 371 362.9 358.3 349.4 359.9 359.6 355.8 352.1 345.4 344.4 358.8 372.4 386 399.7 414.7 426.8 437.1 447.7 453.3 459.5 458.1 458.4 457.6 484.7 512.9 536.8 560.8 583.2 603.3 621.2 642.9 661.8 677.2 686.7 690.4 691.5 686.7 680.7 673.5 666.1 659.1 654.2 653.7 658.2 665.9 675.1 684.1 692.4 700.5 706.5 707.6 706.8 701.1 693.9 681.8 669.2 658.6 649.4 638.2 625.5 608.9 588.8 572.4 556.7 543.7 533.4 525.4 519.5 511.4 505.1 491.9 486.2 479.5 472.9 468.8 461.9 448.3 438.3 425.9 410.2 395.3 380.4 364.3 367.9 376.7 389.1 400.4 410.9 415.7 414.3 410.6 402.9 387.5 407.8 418.4 423.6 424.5 422.2 413.3 401 382.4 361 339.7 323.5 313.8 301.4 299.4 297.7 293.8 287 295.5 307.9
383.1 362.4 345.5 339.8 333.7 326 318 309.8 302 297 291.1 283.2 290.7 294.3 294 286.3 280.1 293.8 308.6 319.9 324.2 310.5 301.3 295.5 277.1 253.6 240 230.2 226.5 222.6 220.2 213.4 207.7 207.7 207.9 207.6 207.3 207.2 207.4 207.9 208.5 208 208.3 210.9 213.7 213.5 219 228.1 242.6 261.9 288.4 315.3 340.9 370.3 400.3 418.1 431.3 439.9 440.2 430.4 421.1 414.6 413.1 409 405 400.6 398.1 396.6 395.3 393.9 394.4 396 399.5 401.3 414.8 428.1 436.2 441.4 442.9 441.8 437.3 431.8 425.2 421.2 415 408.8 401.9 393.5 383.5 374.6 369.6 365.2 372 372.2 369.2 363.8 354.7 349.2 362.4 377.3 391 404.5 420.8 435.2 448.6 458.4 467.8 477 480.8 479.4 482.7 484.2 512.3 540.6 565.7 588.4 608.7 627.1 647.1 666.3 680 689.7 693.9 696.1 691.5 686.5 679.9 673.5 667.2 662.5 662.1 664.7 669.3 676.9 685.1 692.3 697.6 701.9 703.7 701.5 697.2 690.1 679 668.1 658.2 647.8 637.5 625.3 610.4 592.6 576.6 561.8 545 534.6 527.8 519.9 512.9 503.8 494.5 487.9 477.1 471.6 463.3 452.7 441.2 429.2 415.9 400.6 386.4 370.7 371.5 382.6 394.4 407.8 419.7 424.9 427.7 427 421.7 411.9 403.6 409.8 422 429.8 432.5 429.3 418.9 406.6 387.2 363.7 342.7 325.7 312.8 302.6 301.6 300.4 296.6 288.5 295 306
368.8 362.9 359.3 350.7 341.4 332.4 322.1 313.1 305.5 299.2 293.2 286.4 277 279.3 280.1 275 273.3 282.7 296.6 306.2 308.9 289.9 281.4 268.2 259.7 248.1 233.1 225.8 222.9 222.4 212 206.3 208.1 208 208.1 207.8 207.6 207.6 207.9 208.5 209 209.2 209.2 210.3 212 215.1 219.9 227.5 247.8 276.5 305.9 331.6 360.4 389.3 416.3 433.5 441.6 448.3 450.2 444.3 439.1 432.7 430.4 426.5 422.8 418.9 414 411.1 410.3 409 410 411.8 415.1 420 425.7 435.8 442.4 447.3 448.4 448.4 445.1 440.8 435.2 429.8 424.7 419.1 412.7 405.6 395.7 385.6 380.2 376.8 382.7 383.9 381 374.4 362.5 354.2 366.2 382.1 396.4 412.3 429.3 443.8 458.2 471.3 483.6 494 500.5 505.1 508.1 513.4 521.1 542.5 572 595.9 615.8 633.2 650.2 669.9 683.2 692.6 697.5 698.8 695.8 690.5 684.1 678.6 674 672 670.5 671.6 674.7 678.5 684.2 689.4 694.7 697.6 698.3 694 689 681.8 672.4 663.8 654.3 644.8 634.3 622.2 608 591.7 576.6 563.3 548.1 535 526.4 518.4 510.8 501 494.3 482.9 471.5 464.4 455.3 443.8 430.5 418.3 404 391 376.8 373.5 386.9 401.7 415 425.1 430.9 436.7 437.7 435.3 425.3 418 412.1 411.6 423.4 432.7 437.5 435.9 424.3 412.4 393.4 371.7 350.5 332.5 317.3 304.3 301.3 301.5 298.7 289.5 293.6 303.2
384.7 379 373.7 364.4 352.2 342.2 328.5 318 309 302.3 294.8 287.3 279.2 272.9 267.5 267.2 265.3 272.6 285.5 289.2 280 286.4 278.8 264.9 245.1 237.1 229.3 223.4 220.7 214 207.1 208.5 208.3 208.2 207.9 208.4 208.1 208 207.8 208.1 208.8 210.2 210.2 212.4 214.2 216.9 223.4 235.2 251.9 280.9 315.6 350.7 377.4 408 427.7 440.8 448 455.9 460.4 453.8 451.8 450.3 448.6 444.8 440.8 435.4 430.1 426.3 424.6 423.9 425.2 427.2 430.3 435.1 440.4 446 450 453.6 455.3 456.2 454.5 450.3 445.1 439.4 433.9 428.4 422.3 414.2 406.5 396.4 389.7 389.3 393.3 394 391.4 384 369.9 358.6 368.2 385 403.5 420.4 436 452 466.9 483.7 498.6 510.1 518.8 526.2 533.9 541.6 552.7 564.8 581.5 603.3 623.3 640 656.4 675 687.3 694.9 700.2 701.5 699.6 694.7 688.6 683.9 680.5 677.6 677 678 679.2 681.8 685.1 687.9 690.9 693 690.7 686 678.8 671.5 664.1 655.3 646 636 625.6 613.6 600.4 587.2 573.6 559.7 547.6 534.2 524.4 514.5 504 495.3 480.6 471.2 461 453.9 443.3 429.3 418.8 407.9 395.2 383.1 378.4 388.1 404.2 419.2 429.9 437.5 444.6 447.5 447.6 444 434.7 423.4 415.3 414.9 426.6 434.9 441.9 441.5 432 418.6 400.5 379.4 357.7 337.9 321.6 307.4 300.6 300.7 299.8 290.8 293.6 302.2
407.5 401.1 394.3 384.2 368.7 355.2 339.1 325.3 313.6 303.6 296.8 290.3 282.1 275.5 269.9 264.3 258.1 263.4 271 267.2 276.3 261 253.6 242.9 235 229.8 226.2 224.7 221.5 206.8 208.8 208.7 208.5 208.4 208.1 208.2 208.8 208.4 208.1 209.4 211.6 212 212.2 213.8 218.6 219.6 226.1 242.2 262.2 290.2 319.4 353.1 389.1 413.8 430.5 443 451.9 458.8 466.3 463.5 463.2 467.6 467.7 464.3 458.7 452.5 446.5 441.8 439.1 439.6 440.4 442.6 445.3 449.7 454.7 457.4 459.8 463 465.4 466 464 459.8 455 450 444.3 437.9 432 424.9 416.4 408.1 396.8 401.3 403.3 405.3 402.3 393.9 376.2 367.9 369.9 388.3 406.9 422.8 439.7 459.1 478.2 497.7 512.4 523.8 533.8 541.8 550.9 563.8 577.1 589.8 603.1 617.2 634.6 649.1 665.6 680.5 692.4 697.9 702.4 703.7 700.9 695.9 690.5 686.7 683.8 683.8 683 682.5 684.4 685.7 687.3 687.9 687.7 686 682.4 675.7 666.6 659.2 651.9 643.3 633.1 622 611.1 601 590.3 579.3 566.4 552.5 541.7 530.5 516.8 505.9 494.4 482.6 472.1 460 451 439.2 430.9 420.5 410.7 400 388 383.7 391.1 406.3 420.5 432.5 443.5 453.1 456.6 458.5 456.8 451.9 440.7 429.5 416.4 417.9 426 436.1 445.8 446.5 438.3 425.4 407.4 386.4 363.5 343 326 311.8 302.8 299 296.8 291.7 295.1 302
431 423.4 415.7 403.9 386 368.9 352.3 334 321.1 308.2 298.9 290.8 282.8 273.1 268.7 264.4 260.6 252.6 259.2 264.3 260.5 252.4 244.7 233.5 227.2 224.2 221.6 220.9 210.9 209.2 208.8 208.9 208.7 208.6 208.4 208.1 208.6 209.4 210.1 212.6 214.9 215.9 216.1 215.9 218.9 222.4 226.1 243.3 272.5 305.6 325.3 357.4 388 409.3 424.8 439.7 450.3 458.7 465.9 467.6 472.6 479.2 482.2 481.1 477 471.2 462.8 457.4 454.5 455.2 455.7 457.4 460 464.4 466 468.2 471.6 473.8 476.1 477 474.6 469.6 465 461 455.3 449.3 443 436.5 428.9 420.8 409.4 414.1 415.1 416.4 413.9 403.2 384.8 377.3 385.5 384.6 407.6 426 444.3 466 490.6 509.4 523.4 535.6 547.2 557.3 568.5 580.6 593.7 606.9 619.9 631.6 645.3 660.2 674.7 686.6 698 704.3 707.1 705.8 701.9 696.4 691.3 688.4 687.8 687.6 686.5 687.5 689.3 689.4 688.7 688.1 685.7 679.9 674.5 663.3 656.9 647.9 638.6 630.1 619.3 607.1 596.1 586.3 576.9 567 555.9 542.5 530.7 518.6 505.4 494.4 481.1 471.7 461.9 448.9 442.6 433.7 423.7 412.2 402.6 393.4 386.9 398.1 408.7 424.3 438.3 449.5 458.3 466.9 470.7 469.7 465.3 458.2 447.5 438.6 426.7 422 429.2 439.8 449.9 452.1 444.6 433.1 413.8 392.5 369.1 348.1 330.3 315.4 306.1 299.3 293.2 293.8 297.7 303.2
448.7 440.8 431.5 418.4 400.9 381.5 360.6 344 327.1 313 303.6 291.3 279.9 271.7 266.5 263.7 259.5 249.9 247 244.9 240.6 235.3 236.8 231 225.5 219.4 217 212 207.9 209.2 208.6 208.7 208.8 208.8 208.6 208 209 212.8 214 217.3 219 219.5 220.2 220.5 219.2 221.8 227 242.7 271.8 303.1 328.2 345.7 376.5 398.1 417.2 432.5 443.1 452.8 461.1 468.9 475.4 481.8 487.1 490 491 487.2 478.1 471.6 470 470.3 471.3 472.1 474.1 477.3 479.2 481 485 486.4 488.3 491.2 490.2 483.7 476.8 472.4 468 462.4 456.4 449.9 443.1 432.6 424.4 426.9 428.1 427.7 424.6 411.5 392.9 389.7 399 398.4 403.7 425.6 448 470.9 497.1 517.5 532.2 544.7 558.5 571.1 583.6 595 608.6 621.8 633.7 646.6 658.6 670.1 682.7 695.3 703.7 708.2 708.4 706.9 700.7 695.3 692 689.3 687.5 689.1 690.3 692.4 693.4 692.6 691.9 690 683.7 677.7 668.2 658.6 648.1 635.8 625.6 616.2 605.5 593.5 581.9 571.7 564.2 554.4 543.8 532.3 517.6 505.7 493.2 481.4 470.2 460.5 451.8 443.9 435.7 425.4 413.8 404.1 398.6 393.8 405.3 414.3 425.5 440.9 452.5 464.6 475.1 481.7 482.1 480.6 475.3 466.9 457.3 448.9 438.3 428.3 432.8 442.9 451.9 458.8 453 441 421.7 398.7 375.7 353.6 333.8 318.5 308.6 300.6 294.1 296.3 298.9 301.1
455.4 447.8 437.8 425.3 408.6 390.7 370.2 354.7 334.8 318.4 308 290.4 277.9 272.3 269.2 266.2 262.5 261.1 256.7 253.1 248.7 242.6 238.1 235.2 229.2 223.9 217.9 209.3 207.8 209.4 208.5 208.6 208.7 208.8 208.9 208 213.3 216.6 220.6 224.5 223.3 221.8 222.8 223.5 225.3 225.9 227.1 238.1 253.9 278.6 305 334.5 358.2 381.3 400.4 418.5 430.7 442.3 451.1 460.4 469.3 477.1 485.1 491.9 496.2 494.4 489.8 485.6 483 482.7 485.6 486.4 488.5 491.9 494.9 497.4 499.6 500.9 503.5 506.5 506.9 502.8 493.5 485.4 480.2 475 470.2 464.9 458.3 450.7 445.1 444.5 442.7 441.9 436.6 421.4 403.6 402.4 412.8 413.8 407.9 425.4 449.2 474.9 500.6 521 538.4 554.1 568.4 581.8 595.1 609.1 623.4 636.6 649.1 660.8 672.1 683 693.5 703.5 708.7 710.8 709.7 706.7 700.2 693.8 690.5 688.4 689.1 689.9 693.2 696 697.2 696.5 695 693.1 686.2 675.4 666.3 652.5 637.7 624.8 613.5 603 593.3 583 571.8 561 550.9 540.6 529.4 517.6 504.3 492.7 480.1 468.9 461.7 453.9 444.9 436.4 426.7 415.5 408.7 400.6 409.5 416.5 422.5 433.7 443.7 458.2 470 481.4 493.4 498.1 495.3 491.7 487.9 478.4 466.2 456.1 445.7 435.9 439.4 449.5 457.7 462.6 460.1 448.6 429.1 406.1 383.4 359.7 338.9 322.7 311.8 304.2 295.6 296 299.2 302
458.1 450.3 440.4 427.2 411.5 393.9 379.6 364.1 352.7 333 301.5 281.9 282.7 274.1 272.6 275.4 270.4 269.7 265.5 258.2 251.7 244.6 238.2 234.4 229.2 221.3 210.8 209.6 207.1 209.7 208.9 208.9 208.8 208.7 208.6 213.2 218.6 223.4 229 234.4 233 232.1 233.8 231.4 231.5 229.6 226.5 234 240.8 258.4 281.6 307.7 334.8 359.4 380.3 398.2 412.4 426.3 436.7 446.6 457.7 467.9 478.6 487.5 494.9 497.5 498.2 496.4 495.5 496.8 498.8 501.1 503.2 507 511 513.2 515.4 517 520.8 523.4 522.6 520.1 512.2 500.8 494.9 490.4 484.1 481.3 476.2 469.8 464.1 461.8 460.7 458.5 450.3 434.1 416.3 414.9 426.5 426.9 421.2 425.2 450.6 475.9 500.6 523 543.8 560.3 576.4 590.6 606.7 620.4 635.1 648.5 660.8 672.3 683.5 694.8 703.3 709.9 712 712 710.2 705.2 699.1 692.7 688.1 687.3 688.4 690.7 694.7 698.7 700.8 701 698.4 695.2 687.1 677.2 664.3 647.6 633.8 617.5 602.4 592.5 583.2 573.3 561.8 549.6 538.6 527.5 515 500.6 490.6 480.6 471.5 461.6 453.7 444.5 434.9 425.2 417.6 411.8 412.4 418.6 425.4 432.4 440.1 446.8 462.9 478.1 489.1 498.5 507.9 513.9 510 505.1 498.4 486.7 473.2 460.8 450.1 440.8 444.1 454 462.9 467.6 464.8 454.7 436.7 413.5 389.9 365.5 343.6 327.4 316.2 307.9 300.4 295.8 297.9 301.2
457.5 449.5 439.7 426.5 412.8 398.6 384 379.7 361.2 325.8 295.7 301.4 287.3 275.6 285.9 288.5 284.6 282.6 274.1 263.3 253.2 243.3 235.3 230.7 224.8 214.9 210.1 209.1 210.3 209.8 209.7 209.1 209.2 211.2 216 220.6 226.8 233.1 240.7 248.1 247.7 241.8 239.8 239.8 239 236.8 233.7 229.7 235.5 243.9 257.3 281 307.5 332.3 353.1 372.7 390.7 405.2 415.9 428.6 442.6 455.6 466.8 480 490.6 497.4 502.4 504.4 510.5 513.4 513.8 516.3 519 525.3 527.3 528.5 530.8 533.3 537.8 539.7 537.2 534.4 526.5 515.2 510 505.5 501.6 497.9 494.6 489.3 484.1 480.9 479.6 477.4 466 449.4 429 425.5 439.6 441.9 434.6 429.6 447.1 474.6 500.2 524.6 546.2 565.1 582.2 598.6 615.1 630.9 645.5 659.5 672.5 683.8 694.8 704.6 712.2 714.8 714.5 712.9 709.7 703.3 696.4 688.6 684.1 682.4 685.4 689.5 694.2 700.1 703.5 703.7 701.7 697.1 687.8 676.3 662.7 646.5 629.8 615.9 600 588.1 576.2 560.5 548 535.7 525.6 514.9 503.8 492.7 482.9 473.4 462.4 453.8 445.3 435.8 424.9 420 414.7 419.1 425.2 431.5 438.6 445.9 453.8 465.4 478.6 494.4 505 513.9 524.7 525.4 521.1 513.6 503.8 490.8 477 464.2 451.8 446.2 451.3 459.6 468.2 472 468.6 459.4 443 419.7 395.6 371.6 349.7 331.8 320.6 312 303.9 297.2 298.3 301
455.5 447.1 436.4 425.3 413.1 403.2 392.9 386.4 362.7 337.8 327.6 315.6 285.2 284.8 300.8 303.1 294 288.5 277.9 264.2 252.2 239.6 231.7 225.2 220 210.8 209.8 208.7 210.6 210.5 210 209.6 210.4 215.9 223.1 229.6 238 246.2 254.5 260.7 259.2 253.5 253.9 253.2 250.5 246.9 241.1 237.2 233.6 236.4 246.6 256.2 279.9 303 325.4 348.1 369 384.2 396.8 409.8 424.8 439.8 455.2 468.6 483.1 494.6 503.2 511.4 517.7 524.1 524.8 529.1 531.5 537.4 537.3 538.3 541.5 546.5 553.1 553.8 549.2 546.5 541.6 531.3 524.8 525.1 522.7 516.4 512.5 508.4 504.1 501.4 500.3 495.9 485.4 462.5 440.5 437.6 453.4 459.4 454.3 438.9 449.3 472.8 498.3 522.8 546.3 566.4 584.8 603 621 637.9 653.5 667.9 681.5 692.8 703.9 712.4 715.9 716.3 715 711.9 706.4 699 691.5 683.1 677.5 677.9 680.4 686.3 692.3 698.9 702.8 703.5 701 695.7 685.6 673.3 658.5 642.4 625.2 610.4 596 582.7 567.6 546.9 534.4 523.3 514.4 504.5 494.6 484.2 474.1 464.9 456.4 447.2 435.3 427 421.8 422.1 424 430.3 437.8 444.5 452.4 461 471.4 481.3 493.9 506.8 518.3 529.3 530.6 529.3 523.7 515.1 504.3 491.4 476.9 464.6 458.8 455.8 458.3 465.6 473 475.3 472.8 464.5 448.3 425 401 378.7 357.4 337.3 325.1 316.3 308 297.5 299.6 302.8
451.6 442.3 433 422 411.4 403.6 401.8 392.7 364.9 358.2 346.9 323 288.6 295.1 312.1 315.2 301.5 290.7 277.6 260.5 247.3 236.8 227.2 222.5 218.2 210.7 209.6 210.9 210.5 210.2 210.1 212.9 217.1 223.9 234 241 252.4 261.3 266.5 272.1 275.2 266.9 269.9 267.4 268.4 264 254.4 246.8 244.2 235.8 238.5 245.8 254.3 274.4 297.7 321.7 344.9 363.5 376.8 390.7 409.3 428.1 441.5 458.6 473.6 488.6 501.8 510.8 519.3 525.3 529.5 532.4 534.8 540 542.7 543.8 547.9 554.1 559.7 558.3 556.7 554.2 552.3 546.7 539.3 540.9 540.3 533.3 529.7 525.5 521.6 519.7 517.9 510.2 497.8 475 448.6 455.8 467.9 475.4 472.9 462 452.2 470.4 496.2 521.9 546.8 568.3 588.3 606.8 625.1 642.1 658.8 674.3 688.3 700.8 709.8 714.9 716.6 714.9 711.5 706.5 699.8 692.2 684 676.4 670.2 668.2 674.5 680 687.2 695.9 700.7 701.8 698.5 691.8 681 668.5 651.8 635.5 618.5 600.8 587 572.2 552.1 532.8 522.7 514.9 505.4 495.4 486.6 478.6 470.4 461.9 451.9 438.1 429.5 424.7 426.5 432.6 439.4 446.5 454.1 462.2 471.5 480 488.2 498 507.8 521 531.6 533.5 532.1 526.7 519.8 510.8 499.1 485.7 477.7 472.7 469.1 465.1 465.3 471.7 477.9 479.5 476.3 468.2 453.1 429.3 405.1 384.1 363.7 342.3 328.5 320.2 311.4 298.1 301.1 305.1
446.5 437.3 428 419.8 410.8 405.5 401.2 393.4 378.1 364.3 364.3 332.3 297.2 302.6 324.3 321.2 307.5 289.7 272.5 253.5 240.3 231.5 224.1 217.5 209.5 210.1 210.6 210.6 210.8 210.5 214.1 221.2 226.3 231.3 241.3 255.5 264.3 274.4 278 287 292.9 284.7 291.8 289.7 292.2 287.9 273.8 261.9 255.2 246 237.2 239.1 246 256.9 272.1 296.1 319.2 340.9 357.4 377.4 398.2 419.3 438.8 453.4 469.1 481.2 494.5 504.2 513 518.1 521 525.1 528.1 532.3 535.9 540 544.8 550.2 556.3 558.5 560.2 558.1 556.3 553.5 549.9 552 550.8 548.9 545.6 541.5 538.2 536.4 533.5 523.2 506.7 483.1 457.5 473.9 488.1 496.9 493.7 482.6 468.1 481.4 493.6 520.5 547.4 570 591.2 609.8 628.3 645.5 661.5 677.5 692.4 704.2 707.9 711.5 709.1 706.6 702.3 697.2 690.1 682.7 675.1 667.3 659.7 658.3 664.5 672.7 680.8 689.4 695.6 697.7 694.5 685.9 675.5 662.5 644.9 627.5 612.5 594.6 573.1 556.1 538.2 522.7 511.4 504.7 498.2 490.5 481.5 474.8 468.2 458.8 444.5 435.3 432.3 431.3 437.3 445.5 453.5 462.6 472.8 483.6 493 500.8 508.1 516 521.6 529.1 536.3 533.9 531.8 524.3 514.2 504.8 500.2 495 489.2 483.5 477.9 473.2 472.6 476.7 482.6 482.8 479.6 470.1 454.5 433 407.1 386.3 367.7 346.6 334 324.4 314.2 303.2 299 305.2
441.4 432.3 423.1 414 405.8 401.5 395.1 390.2 386.7 372.3 370 333.9 301.1 316.5 330.1 320.2 302 282.9 261 248.8 235.6 227.6 222.7 211.4 211 211.1 210.9 210.9 210.9 210.5 218.9 227.9 233 239.2 250.6 268.2 280.7 292.4 292.6 303.1 314.6 308.6 304.3 317.2 311.6 311.3 292.7 279.3 270.3 259.3 245.2 239.2 240 246.5 256.6 275.5 297.9 318.1 339.9 366.4 391.1 414.1 434.4 449.7 463.8 474.9 487.4 495.5 500.8 505.4 506.2 509.4 513 516.5 521.5 528.5 534.2 541.6 548.7 554.2 558 558.7 556.3 555.5 556.8 559.9 560.4 560.5 558.5 554.4 552.1 549.4 546.5 534.4 513.4 485.9 486.4 495.7 510.2 522.7 517.2 505.3 489.8 499.5 508.3 521.8 548.5 572.6 593.6 612.2 630 646.8 661.8 677.4 690.3 697 700.4 700.1 697.9 694.3 689.9 684.9 678.7 672.3 664.8 657.1 648.3 644.8 651.3 661.9 671.4 680.1 687.3 691.2 688.8 679.1 666.9 655.5 640.2 623.9 603.3 583.5 563 545.9 528.8 512.9 502.6 496.2 490.2 486.6 479.1 473.3 466.5 454.3 441 440 438.2 443 450.7 460.1 470.5 483.2 495.8 506.2 512.6 518.7 524.9 530.2 532.8 537.5 539.7 536.7 530.8 522.5 515.7 513 508.9 503.7 497.7 492.4 486.8 481.3 481.2 483.9 486.2 485.5 480.2 469.9 455.7 436.4 409.6 386.5 369.1 349.4 334.9 326.5 317.3 306.1 301 303.9
434.8 426 417.2 408.3 400.9 394.2 389 385.5 381.1 380.5 371.7 336.4 305.8 319.5 330.4 315.3 294.1 283.6 265.3 243.6 230.1 224.6 211.8 211.6 211.5 211.4 211.3 211.2 211.1 215.3 223.4 234.8 242 250.6 263.8 281.9 294.8 306.9 315.4 319.4 332.4 329.9 321.6 339.6 339.9 333.4 314 297.6 288.5 272.5 257.9 242 240.9 242.5 249.7 262.8 280.9 305.6 331.9 359.8 384.7 408.9 430.6 447.1 459.7 469.1 475.4 480.1 483.1 484.9 487.3 489.8 493.7 497 501.7 511.2 519 526.3 533.4 541.1 546.7 549.7 547.9 550 557.8 563.4 564.7 567.2 568.6 567 563.9 560.2 556.2 545.3 524.3 500 510.4 521.3 535.5 543 538.4 527.6 515.1 521.6 530.7 541.3 557.8 579.5 598.2 615.6 631.8 645.9 660.6 673.3 681.8 685.2 686.9 686.2 683.3 679.9 675.7 671.7 666.5 661 653.1 645.3 636.8 632.5 638.3 647.3 660.5 669.7 678.3 683.1 679.6 669.4 658.9 647.5 634 614.4 594.8 572.1 551.7 535.9 519 505.5 496.2 489.9 484.3 480.8 477.5 472.3 462.8 454 446.4 446.7 448.8 456.9 467.3 477.2 490.5 503.2 515.7 523.8 530.3 535.2 538.5 541.2 544.1 544.8 542.5 538.9 533 526.2 523.6 522.3 519.9 512.7 506.3 501.2 496.9 491.6 491.4 492.3 490.8 485.7 479.7 469.1 452.8 432.4 408.9 386.2 369.2 349.4 336.8 329.3 320.7 307.9 301.7 302.9
428.2 419.6 410.7 403.2 394 385.4 377.1 372.8 370.4 370 365.2 347.1 312.4 315.3 322.6 300.9 296.2 278.9 257.3 238.2 227.1 215.1 210.7 211.9 211.7 211.5 211.5 211.3 213.7 220.5 230.1 240.6 250.2 265.7 283.7 301.4 311.8 316.9 328.3 333 348.7 355.9 351.5 359.5 360.3 352.9 339.6 322 307.2 287.6 272.9 253.3 241.6 242.4 245.5 255.8 265.7 287.5 316.2 346 374 400 422 439.4 448.3 453.9 456.4 458.3 461.7 463.5 463.8 464.8 469.2 474.5 479.8 489.3 500.3 508.5 515.9 522.6 528.7 531.5 533.6 539.2 549 557.5 562.6 569.4 573.8 575.2 573 570.1 564 555.5 540.7 529.8 533.9 547 558.5 561 557.4 549.4 540.3 545 553.5 563.7 575.7 591.5 604.3 619.8 632.3 644.5 655.8 664.5 668.9 670 671 670 666.7 664 661.3 657.8 653.5 647.4 640.1 632.3 625.1 615.6 627.7 638.9 649.7 660.3 668.8 672.4 669.7 658.4 651.6 641.7 624.5 605 586.6 566.3 546.3 528.6 511.8 501.7 493.2 487.4 481.9 479.2 480.7 478.3 467.5 456.1 452.1 455.3 461.7 473.2 482.7 494.4 509 520.7 530.5 538.4 545 549.5 552.3 553.5 554.4 553.7 548.4 543.5 538.6 534.9 533.2 532.7 530.5 523.9 517.1 513.3 509.3 505.3 503.3 500.8 495.2 488 479.4 466.7 449.8 428.3 406.9 385.5 368.2 351.2 341.6 334.1 323.8 309.5 302 303.3
420.8 412.8 405.1 397.4 388 378.4 367 356.9 351.9 353 344.2 327.8 317.3 323.2 309 298.2 290.3 269.4 248.6 232.4 221.4 209.8 212.1 212.2 212.1 211.9 211.6 211.6 218.3 227.8 237.2 247.9 261 279.6 294.7 315 329.8 330.8 343.7 350.2 365.1 373.6 372.9 372.7 379 372.2 359.5 341 325 301.1 282.9 264.8 247.4 242.8 245.4 248.2 253.9 267.4 294 323.3 354.6 384 405.1 422.2 430.8 431.4 432.6 435.4 436.8 439.6 439.4 439 443.4 450.2 459.1 468.1 478.6 487.4 492.7 500.5 508.3 511.3 514.5 521.5 533.6 545.5 558.4 568.9 576.4 580.5 580.4 579.9 577 570.4 565.3 558.9 559.9 568.8 575.2 576.2 574.8 570 564.8 566.9 574.1 584.8 595.1 603.8 612.7 623.5 632.8 642.2 648.1 652 654.2 653.7 654.1 652.1 649.2 647.2 644.4 641.8 638.1 632.6 626 618.7 611.1 599.9 614.7 627.4 639.1 650.2 658 662.5 663.3 655 643.5 633.8 617.7 598.4 578.1 559.3 543.6 527.7 514.5 502.4 494.6 485.2 482.7 483.5 482.1 474.4 465.8 461.2 461 465.6 477 485.8 496.8 511 525 535.1 544.4 552.3 558.3 562.5 564.9 565.7 565.4 563 555.7 549.4 546.5 545.8 546.1 546.9 545.2 541.2 535 531 523.8 517.5 513 507.7 500.6 491.4 481 465.9 447.1 425.7 404.8 384.9 367.9 353.9 346.5 338.3 327.4 314.9 304.7 304.3
413.7 407.8 402.7 394.4 384.8 372.7 357.2 339.3 330.5 331.9 322.1 329.1 326.4 316.4 298.4 293.7 277.2 254.8 239.6 228.3 209.8 210.8 211.9 212.6 212.4 212.2 211.8 215.2 224 234.4 247.4 256.1 266 284.7 303.7 317.9 337 344.1 356.7 363.2 382.2 393.6 388.9 388.7 391.8 390.2 378.2 362.5 343.2 319 298.8 279.7 260.5 244.1 244.2 248.4 248.8 255.5 273 300.3 332 363.4 384.6 400.1 406 405.7 406.9 410.1 411.1 413.1 414.5 415.7 417.9 424.5 433.1 445 452.8 463.5 470.7 476.5 485.1 488.7 489.7 499.7 513.7 532 550.2 565 578.3 586 588.7 589 588.3 585.2 582.1 578.9 578.5 584.8 588.9 590.5 587.9 583.4 582.3 583.2 587.9 596.7 606.2 613.2 619.8 626 631.2 635.6 637.8 638.8 638.1 637.7 635.3 633.4 631 629.1 628.1 625.5 621.7 617.1 610.7 602.4 594.7 587.5 601.1 614.2 627.6 636.9 645.9 652.9 656.6 648 635.7 626.7 610.4 591.9 571.9 559.9 544.1 530.6 520.7 507.9 495.1 496.4 491.4 487.6 481.2 475.5 473.1 472.2 471.9 477.2 488.4 498.4 510.6 525.5 538.8 548.6 557.4 564.8 570.8 574.7 576.7 578.5 576 570.7 566.4 559.5 560.8 561.5 563.4 564.3 562.7 558.8 555 547.8 537.3 527.8 521.3 513.6 506.2 495.7 482.1 465.2 444.3 422.7 403.9 384.8 370.2 358 350 341.9 331.2 317.4 308.3 305.9
411.8 407.1 401.8 393.3 382.1 368.6 353.7 331.6 319.3 312.3 310.4 315.6 311.9 303.1 288.7 280.1 259.8 244.9 231.9 213.1 212.8 212.3 211.7 212.8 212.8 212.3 211.9 221.7 227.1 240 253 266.4 277.2 293.8 307.5 325.3 338.6 357.5 368.1 378.2 391.7 406.7 411 413.7 410.1 408 395.5 379.5 358.6 334.7 313.8 291.3 270.4 252.3 245.8 245.4 248 249.9 255.5 280 311.3 337.7 359.6 374.4 378 378.6 381.1 380.6 382.3 385.2 387.8 388.9 390.6 396.4 407.2 419.7 428.4 436.9 446.6 454.2 458.6 459.8 460.9 473.4 494.1 522.8 547.3 564.9 581.4 591.9 599 601.9 601 597.6 596 593.9 592.4 597.7 601.7 602.7 598.5 593.5 592.7 593.8 598.5 605.5 613.2 619.3 624.1 627.2 628.2 628.1 626.3 623.6 622.7 620.7 618.5 615.9 613.1 612.3 610.5 608.5 605.6 601.5 594.8 586 578.8 577.6 589.9 602 613.6 623.4 633.2 640.5 643.4 636.4 628.4 617.9 605.8 589.3 572.3 560.3 545.7 536.3 524.5 507.5 511.6 512 506.8 498.6 492.2 485.4 484.8 483.8 484.3 484.8 498.5 509.3 522.2 536.8 550 560.9 569.2 577.9 583.2 587.4 589.8 590.2 587.3 581.1 575.8 574.3 574.4 576.2 577.6 580.3 579.9 576.8 569.7 559.8 549.1 537.9 529.1 520.9 510.9 498.3 483.5 464.5 442.9 421.9 402.5 384.2 369.9 360 352.9 343.9 332 317.6 310.6 305.6
410.5 409.1 404.3 394.9 383.3 366.8 348.6 331.1 319 311.4 302.6 294 291.9 286.7 272.6 258.3 246.9 236.3 219 212.1 213.2 212.8 212.3 212.7 212.7 211.9 217.3 224.7 232.8 245.8 257.6 273.2 289.9 301.4 317.3 331.3 344 354.9 379.3 389.1 400.9 414.4 426.1 433.4 428.4 424.6 410.6 393.3 371 345.2 321.2 302.5 282.9 264 251.2 246.2 247.2 248 251.4 261.3 285.2 308.1 330.4 344.1 348.2 349.3 352.1 354.7 356.8 357.6 359.8 362.4 364.5 368 381.6 392.4 401.3 410.3 421.1 428.2 430.5 429.8 433.1 464.9 491.6 520.3 546.8 569.2 587.5 602.8 612.1 614.9 614.7 609.9 608.8 607 605.6 608.3 611.2 612 607.3 606 603.6 602.8 605.8 610.4 615.7 620.1 622.9 623.1 620.6 616.2 610.9 608.1 606.4 603.7 601.5 598.1 595.7 594.4 592.7 590.6 587.7 583 578.2 570.8 562.6 568.9 580.4 591.9 600.3 609.9 618.6 625.4 633.3 633.7 623.9 614.6 600 589.7 575.5 562.3 551.4 540.8 527 527.5 528.3 527 519.2 510.6 503.3 496.8 495.8 494.9 496.6 494.8 507.5 520.1 532.3 546.7 560.4 571 580.8 588.9 593.6 599.5 601.1 599.9 596.5 591.5 587.2 588.2 589.9 592 594.9 595 593.6 588.9 580.9 572.3 561.6 544.6 534 525.4 516 500.7 485.5 466.1 443.6 421 402.8 384.9 372.6 363.8 356.4 344.1 326.9 318.8 312.6 307.8
410 410.4 407.7 396.8 382 369.7 345.4 333.8 319.9 312.8 302 286.3 272.6 266.5 256.2 248.3 239 227.1 212.2 213.5 213.6 213.2 212.8 212.5 212.4 217.7 220 229.2 242.3 257.8 269.3 284.1 304.9 319.2 327.2 340.6 357.6 365.8 385.3 396.8 410.6 422.8 436.2 441.1 439.3 433.9 420 402.5 380.5 355.5 334 312.4 290.9 269.4 262.1 254.1 248.3 248.3 249.9 254.6 263.9 283.1 300.1 311.4 315.4 320.5 324.3 327.1 328.5 331.3 333.2 337 340 346.7 357.1 367.6 374.9 383.6 393.8 401.3 404 414.1 441.9 469.7 495.6 522.3 549 573.4 593.4 610.5 621.2 624.7 625.3 622.1 619.7 617.3 614.2 615.1 615.5 615.1 615 614.8 612.5 610 608.2 610.8 613.7 615.5 614.5 613.3 608.4 603.6 596.3 592 589.9 587.4 584.3 580 578.2 576.4 573.9 571.3 568.6 566 561 553.6 549.4 562.4 573.3 584.6 590.5 595.3 602.4 615.6 625.7 627.1 618.9 605.5 593.7 589.5 578.3 568.8 558.2 547.3 548.1 548.8 551.3 541.7 532.1 525.9 511.4 507.6 508 507 510 510.1 515.2 528.9 541.4 556.6 568.8 581.1 590.7 599.6 605.9 610.6 611.5 609.9 605 600.2 597.8 601.1 603.7 606.1 607.1 606.7 604 598.2 590 581.6 570.9 553.7 537.7 528.3 518.3 502.5 486 466 443.3 420.5 402.3 386.8 376.3 368.1 359.1 345.6 335.5 325 312.8 306.6
403.8 406.7 403.9 394.2 385.3 372 357.1 342.8 322.2 317.5 303.4 286.5 270.5 256.5 245.9 239.6 231 216.8 213.9 214 214.1 213.8 213.4 213.1 215.2 218.9 226.4 237.8 254.7 267.8 282.8 299.5 314 332.9 338.3 359.2 366 378.9 393.3 404.8 418.3 432.1 443.9 446.6 443 434.1 418.3 401.7 382.3 360.5 338.6 318.7 296.9 283.2 276.4 266.8 255.2 249.5 250.2 251.1 254.7 258.3 272.2 283.1 288.4 295.4 298.3 300.1 300.9 305.8 311.6 317.7 323.7 331 338.4 345.3 353.4 363 371 380.8 398.8 421.7 447.9 473.8 498.1 523.9 550.8 575.1 595.6 613.1 625.8 629.9 633.3 631.5 628.1 622.6 620 617.6 616.9 618.1 618.5 617.9 615 610.9 605.6 605.4 606.2 605.8 604.3 600.7 594.5 590 583.2 576.8 574.2 570.9 567 562.2 558.9 557.1 554.7 552.5 551.3 547.2 542.8 534.4 547.1 555.5 566.6 573.2 579.9 586.6 593.2 601.1 614.3 620.9 613.6 603.6 596.2 590 582.3 569.7 564.1 568.6 572.1 577.1 569.5 554.4 546.7 537.1 521.6 520.2 519.2 521 521.5 523.7 522.7 538.6 551.5 564.4 577.1 589.4 599.9 609.4 616.9 620.6 621.3 619.3 615.2 610.9 608 612.1 616 618.4 619 616.9 613.8 607.3 599.1 588.7 576.3 557 539.5 527.7 516.5 501.3 484.1 464.1 441.6 421 402.9 389.9 380.2 370.2 362.9 355.3 341.4 326 314.5 307.4
392.9 397.3 394.4 396.5 390 377.3 354.5 348.8 326.6 323.5 305.5 287.7 267.1 254.9 246.4 235.4 227.5 211.9 214.3 214.4 214.6 214.4 214 214 219.6 219.8 231.7 248 263.3 278 292.5 312.2 328.9 342.2 358.4 373.3 379 390 402.9 416.3 425.5 437.5 448.2 449.4 443.6 432.2 417.2 400.6 381.5 361.4 340.8 319.4 293.4 299.7 294.9 283.5 268 257.5 251.1 252.3 253.1 257.6 261.8 267.2 272.4 278 296 307.7 318.6 325.9 335.9 342.5 346.9 349.6 354.8 362 371.7 380.3 391.7 406.1 420 436.9 458.3 479.5 504.4 530 553.1 576 594.8 611.3 622.7 629.6 634.4 636.1 631.1 625.6 620.5 614.7 614.6 614.8 615.3 614.7 610.1 602.8 597.2 594.1 593.6 592.8 591.7 588.1 581.1 575 567.7 560.9 556.2 553.1 548.5 544.1 539.8 537.6 536.6 535.7 532.2 529.5 525.9 530.5 542.1 548.8 557.6 562.8 568.5 573.8 583.9 590.6 602.6 612.2 609 606.4 601.5 595.5 586.6 581.7 581 589.9 595.9 591.3 582.1 572.3 561.6 548.4 537.3 533.2 533.9 531.7 532.2 535.1 537.7 547.2 562.7 573.3 585.9 598.9 609.1 618.8 626.2 629.6 629.2 627.6 623.5 620.7 619.6 621.6 626.8 629 628.8 627.3 623.1 615.6 606.3 593.8 579.6 557.1 536.8 526.2 514 499.7 480.2 461 442.1 421.7 405.1 393 381.7 378.6 372.8 360.8 346.1 328.6 313.7 308.7
381.1 389 396.2 399 395.1 376.1 365.4 352 334.5 324.4 304.5 284.6 264.6 251.2 243.3 234 225.1 212.8 214.8 214.7 214.5 214.8 215.9 218.7 221.2 226.9 237 252 271.5 284.8 305.6 321.6 340.7 355.7 368.9 382.7 388.8 400.3 412.4 423.2 432.4 442.1 451.4 450.5 442.5 428.9 414.2 396.3 377.4 358.9 338.1 310 315.9 317.1 311.2 298.3 282.5 268.6 256.1 254.7 254 255.1 260.8 264.8 269.4 280.5 303 317.7 329.3 338.6 348.9 359.3 367.2 372.6 376.7 383 391.6 401 412.3 424.6 438.4 453.7 472.5 493.3 514.5 534.5 553.4 570.5 587.9 602.8 614.1 621.5 627.3 627.9 625.2 620.4 613.9 609 607.3 606.5 606.2 604.2 598.1 589.4 581.3 578 578.9 579.6 578.6 574.7 567.7 560.7 553.5 546.5 539 533.8 528.8 525.1 520.4 518.6 518.3 517.2 514.6 511 518.7 529 536.2 544.4 549.7 554.8 561.3 568.6 577.6 584.1 591.8 604.2 605.9 606.9 604.2 597.7 595.6 594.4 599.9 606.6 606.1 599 590.6 582.3 569 554.9 546.3 546.8 543.4 543.4 545.7 549.1 554.1 554.2 572.1 583.5 596.1 607.6 619 629 634.9 637.4 636.7 635 632.7 634.3 632.6 633.8 638.3 641 639.6 635.9 630.1 621.2 610.3 597.3 580.3 556.3 537.9 522.6 510.7 491 473.7 456.5 438.7 420.9 407.1 394.5 391.9 387.3 380.2 365.3 348.6 329.6 315.3 309.3
369.9 379.4 386.3 392.9 389.8 373.5 367.1 351.3 340.5 321 302.7 276 259.8 248.4 239.7 229.3 222.4 214.6 215.1 214.7 214.3 214.2 216 221.6 224 232.8 243 255.1 273.4 292.8 315.4 336.1 354.8 368.5 380.9 399.2 406.3 413.1 423.3 430.8 440.4 448 454.3 453.1 443 428.5 414.3 395.6 374.2 353.8 334.5 330.2 331.7 331.9 326 314.7 299.5 284.3 267.2 257.7 254.1 255.3 258.5 262 265.9 279.7 301.4 316 332.5 346 356.2 366.5 376.5 385.5 393 399.8 408.9 419.5 428.8 441.6 456.7 472.4 488.8 503.1 517.5 531.3 545.8 560.3 574.7 588.5 599.3 607.3 612.4 614.4 612.7 607.7 601.8 596.5 593.4 592.7 592.4 589 582.3 573.3 565.6 563.6 565 565.8 564.6 560 552.7 544.9 538.2 531.3 521.8 513.8 509 505.4 501.8 500.8 499.5 498.1 496.2 506.4 515 525.8 532.8 539.2 545 549.8 555.5 564.3 573.6 579.9 588.3 597.5 606.8 611.3 610.4 605.2 604.9 611.1 615.9 616.8 613.4 605.1 596.1 586 571.6 559.5 556.1 555.1 558.4 560.1 561.5 564.3 569.4 564.7 584.1 594.9 605.9 619.1 630.4 639.2 644 646.9 646.4 645.1 648.1 647 648.1 649.5 649.9 651.8 648.8 642.5 636 626.2 613.9 598.9 579.2 558.6 536.2 519.1 501.7 483.1 466.6 449.6 431.2 418.2 411.8 407.4 401 392.1 383.8 368.8 349.6 329.3 315.1 310.1
356.1 366.6 374.3 379.1 376.6 373.7 363.3 348.8 340.9 317.2 290.1 265.7 253.8 246 233.4 228.6 222.2 213.6 215.5 215 214.6 214.7 220.9 223.5 226.2 233.2 246.1 256.9 282.5 299.6 324.7 345.5 363.9 377.3 389.9 412.6 423 425 431.2 436.6 445.8 453.1 460 456.4 445.9 431.4 417.8 397.3 375.7 357.8 339.3 346.1 347.4 350.7 344.3 329.9 318 300.5 282.5 266.5 259.2 255.2 257.3 258.5 263.6 270.8 286.3 307.4 323.5 336.5 348.8 362.6 376.7 388.2 399 408.6 419.2 432.9 445.7 458.7 470.4 483.1 494.1 502.8 510.1 518.4 530.3 543.5 557.4 570.5 582.2 590.6 595.6 597.4 595.2 590.5 584.8 579.3 577.5 577 576.2 571.4 565.5 557.9 552.1 548.7 549.6 550.9 549.4 544.8 537.3 529.2 522.9 516.6 506.4 493.6 489.7 486.2 484.6 483.1 481.2 484.6 495.6 505.2 513.5 521.2 528.1 534.9 541.1 546.2 551.7 560.6 570.9 578.3 585.8 594.4 605.4 612.3 612.4 612.3 618.3 622.6 626 623.6 618.8 612.2 601.3 587.4 576.7 566.2 565.7 568.1 573.4 577.1 582.6 582.8 586.3 584.5 597 608.8 619.5 631.6 640.8 649.5 654.4 657.4 659.5 661 660.3 661.2 662 661.7 661 659.9 655.4 648.8 641.4 630.3 616.8 599.2 579.2 555 531.7 511.3 493.7 476.7 463.4 454.4 444.3 434.1 425.2 417.1 408.8 398.8 388 371 348.9 328.5 314.3 310.1
339.3 352.4 361.7 369.7 374.7 368.7 352 351 331.1 305.3 276.9 256.8 250.1 239.2 232.9 226.1 221.8 212.6 215.3 215.2 214.9 217.9 221.3 223.8 227.6 236.2 244.6 259.9 281.4 303.4 327 349.9 368.9 384.9 398.7 420.4 431 432.9 435.2 442.1 450.7 457.9 464.8 459.3 450.5 436 423 405.8 385.1 369.5 356.7 358.3 367.3 368.1 361.7 352.6 338 319.3 300.7 282.8 265.9 260.2 259.1 257.1 258.8 265.1 271.9 284.3 297.2 313.5 329.2 344.3 359.1 374.9 387.1 404.1 421 436.3 450 461.7 470.2 477.6 482 486.8 491.4 499.1 513.1 527.3 541 554 565.5 572.4 577.1 578.3 575.4 571.4 565.8 561.6 560.4 559.4 558.2 553.4 546.7 542.6 537.8 531.8 532.3 535.3 533.7 529.8 522.5 514.7 507.7 500.2 490.6 478.9 472.1 468.5 465.6 463.2 473.9 486.3 495.1 502.4 510.7 517.6 525.9 533.2 538.2 544.2 549.8 558 565.5 579.8 588.9 595.1 603.8 610.4 614.1 619.8 624.8 630.2 632.2 629.6 625.6 617.2 604.8 595.3 589.1 582.5 579.5 585.4 592.3 598.5 602.2 601.3 601.7 602.7 607.5 622.2 633.6 643.1 651.6 659.3 665.7 667.9 671.3 673.1 674.8 675.1 674.6 670.8 668.5 666.6 660.9 653.5 645.4 634.2 616.5 601.8 578.9 550.2 528.7 507.5 491 482.1 475.8 464.3 452.8 442.7 433.8 426.3 415.3 403.2 389.7 370 346.2 326.4 313.2 311.9
325.1 338 349.3 357.2 363.7 353.6 353.4 339.8 315 286.2 261 253.5 245 237.1 230.1 224.3 221.8 212.5 215.5 215.3 216 221.3 221.6 225 229.9 239.7 253.2 264 283 302.5 322 341.1 361.6 379.1 396.6 416.5 428.3 434.2 438.8 445.9 454.1 460.8 465.3 462.9 457.4 445 431.1 414.5 399.4 383.3 374.1 377.6 380.8 383.5 380.7 374 356.5 339.3 317 298.9 278.3 269 265.6 263.2 261.7 261.4 262 267.2 272.9 284.6 301.9 317.7 332.3 345.6 365 383.1 399.3 417.4 432.2 444.4 454 456.6 459.6 466 473.4 482.8 497.5 511.2 525.3 538.9 548 554.2 557.7 558.1 555.8 551.3 546.4 543.3 541.5 540.9 538.7 534.6 530.1 525.4 519.6 517.3 516.6 519.1 518.8 514.4 507.4 500.5 493.4 485.1 475.6 463.6 453.1 449.4 451.1 466.3 477.5 484.9 491.5 499.7 505.7 512.5 522.8 531.2 536.9 543.6 548.3 555.4 560.5 573.9 587.8 595.2 602 607 611.6 618.5 626.1 630.1 633.2 635.4 628.4 619.9 611.7 607.7 605 602.9 601.2 606 611.7 617.1 620.1 619.2 620.6 612.1 617.9 635.5 646.4 655.5 665.8 673.8 679.4 683.4 686.2 686.9 687 687.8 685.5 681.7 677.3 672.7 664.1 656.7 648.1 636.1 620.5 604.4 576.4 549.4 526.6 510.5 505.2 494.6 486.1 472.8 461.2 450.8 441.9 433.8 421.1 406.6 390 368.6 344 324.5 313 311.5
310 325.2 334.9 344.2 349.1 351.8 346.2 324.3 295.9 267 256.2 249.5 241.5 233.6 226.2 224.8 221.1 213.9 215.5 215.5 218.7 221.8 222.5 226.7 233.4 243 257.1 274.9 289.2 298.4 312.6 331.6 350.2 370.7 388.3 406.6 418.7 430.3 440.5 448 454.5 463.2 467.5 468 463.1 454.7 441 425.9 412 399.3 389.3 392.6 394.9 397.6 399.4 391.5 376.8 358.8 338.3 316.7 295.5 282.8 273.8 267.9 266.9 266.4 262.6 262.4 264.2 270.7 277.7 284.5 297.7 314.1 334.1 351.5 373.3 395.4 408.2 421.3 431.7 438.9 442.4 446.1 453.1 462.6 480.6 496.8 511.6 522 530.4 535.9 537.7 537.3 535.3 532.2 527.6 523.9 522.7 522.6 519.2 516 513.3 508.7 504.9 501.7 502.3 502.7 503 498.4 492.3 485.6 477.8 468.6 459.3 447.3 436.4 445.6 457.7 467.2 474.9 481.1 487.9 495.9 502.4 511.1 519.6 525 536.9 542.5 548.2 555 561.2 567.1 580.2 589.4 594 601.7 603.5 608.8 619.5 627.2 634.5 636.5 627.8 624.5 621.2 621.4 620.1 617.7 619.9 623.3 630.9 636.3 635.4 634.4 637.2 629.6 629.1 646.5 659.8 670.3 679.6 686.5 692.8 695.9 698.7 700.1 700.1 697.7 693.7 688.9 683.8 678.7 668.2 657.9 649.3 636.4 622.6 605 577.8 553.1 530.3 518.1 517 507.2 495.6 481.1 468.3 457.6 448.4 439.7 426.1 408.2 388.1 365.6 342.6 323.2 312.6 312.5
299.5 311.3 321.6 327.4 338.2 341.2 327.3 303.4 275.1 256.6 251.6 245 238.4 228.7 225.5 222.3 215.5 217.2 215.8 215.6 221.5 223 224.4 227.2 236.4 246.8 261.7 282.4 299.9 311 317.1 326.3 343.4 358.2 374.8 396.2 410.3 425.1 437.9 447.7 455.8 463.4 470.6 471.9 468.9 462.1 451.5 438.4 426.2 415 407.3 407.4 411 411.9 412.6 406.6 394 377.2 355.5 332.3 312.6 294.7 285.5 273.6 279.2 277.3 273.5 273.9 270.9 266 266.8 267.8 276.2 287.1 304.3 322.9 344.7 364.3 377.8 393.5 407.8 417.4 421.9 426 429.8 440 464.9 484.4 496.9 507.3 513.9 516.8 517.5 516.3 514.7 512.3 508.2 505.1 502.3 503 501.6 499.2 496.8 495.2 491.6 487.6 488.9 489.6 487.7 483.1 477.4 471 462.2 454 443.6 429.8 435.2 448 455.9 463.7 470.3 477.3 485.3 492.5 501.1 508.8 517.2 524.2 535.5 543.1 547.1 551 556.5 565.4 571.6 580.1 582.5 589.3 593.5 598.4 606.9 613.6 623.1 629.2 632.1 633 634.7 632.5 629.3 631 634.4 641.4 647.6 652.8 654.8 653.6 655.3 648.1 641.8 661.5 674.8 683.8 691.1 698.8 705.1 708.2 711 712.5 710.3 706 701.4 695.3 689.5 682.8 672.1 661.1 650.4 637.2 621.9 604 579.7 556.4 535.5 531.6 527 515.3 500.9 487 472.9 461.4 452.5 442.7 425.8 408.5 386.7 361.3 338.5 321.3 313.8 314.6
290.9 292.8 306 315 323.9 325 308.9 280.2 260.7 254.5 249.9 243.4 233.6 226.5 225.9 218.9 216.8 218.5 214 216.3 221.9 222.2 225.2 230.3 238 249.7 265.8 287 306.9 320.9 329.9 335.8 336.1 356.9 370.1 382.3 402.6 419.1 432.2 443.7 453.2 461.8 470.5 475.3 474 468 460.9 449 439.2 431.4 425.2 423.3 425.5 428.8 428.2 422.4 408.6 388.9 365.5 343.6 321.7 301.2 287.8 292.2 294 291.7 289.9 287.3 285.3 277.9 271.1 269.3 269.1 276.5 283.2 296.1 315 332.4 347.2 365 381.8 393 397.8 399.2 403 431.6 453.9 472.2 484 492.6 497.2 498.6 497.3 496.9 495.7 492.9 489.6 486.4 483.4 484.8 484.9 482.9 480.9 480.1 478.3 477.2 479.1 476.9 473.3 467.8 462.5 455 446.5 438.7 428.7 419.1 434.4 444.4 450.2 459.1 465.8 472.4 480.4 488.6 497.2 506 514.2 523.2 533.8 539.2 541.3 544.4 548 556.5 561 567.4 573.6 579.7 585.9 594.9 600.3 606.6 618.8 626.4 632.1 635.6 639.5 640.2 644.3 650 654.1 658.4 662.5 666.5 669.5 672.4 672.6 667.7 653.8 673.4 686.9 696.5 705 711.8 716.1 719.4 720.1 720.5 718.3 711.9 707.7 702.2 694.4 686.5 676.2 663.6 651.4 635.9 619.2 604.7 587.6 565.8 547.5 543.6 536.4 520.1 505 486.5 472.9 462.7 454.7 443.6 425.2 406.8 383.6 356.1 334.7 317.9 314.5 319.5
287.6 281.6 289.5 300.9 308.9 308.1 283.9 263.3 257.2 253 248 237.5 227.8 222.8 219.6 219.1 220.4 220 215.2 216.2 222.3 222.9 226.9 233.9 240.6 252.1 271.6 293 312.8 328.6 340.6 348.5 352.6 353.4 362.3 379 394.1 411.6 423.9 438 448 457.9 466.7 474.7 476.5 474.3 469 460.9 452.7 446.3 441.1 437.3 442.9 446.1 442.3 432.1 417.9 398 374.5 352.2 328.7 305.1 292.7 306.1 310.5 313 313.7 312.3 303.6 293.3 283.3 273.3 269.9 271.1 274.6 279.6 287.5 299.9 316.4 334.7 352.4 364.2 369.7 372.9 400.7 426.5 445.5 460.4 471 477.5 479.6 479.8 478.1 475.8 475.1 474.3 470.5 466.7 460.3 466.3 468.5 466.8 465.5 464.3 463.2 465.3 467.5 464.4 458.4 453 445.4 440.3 434.4 425.9 412.7 418.6 429.2 437.2 445.3 451.7 460.5 467.4 475.5 482.3 490.1 498.8 508.9 519.3 525.7 533.1 537 540.8 542.9 547.1 551.7 556.6 563.8 572.4 579 586.2 593.7 599.6 611.2 622.3 633.4 640.6 646.7 651.6 657 661.8 665.7 671.6 675.3 679.2 683.7 688.4 690.9 686.8 672.3 685.1 699 708 715.7 721.9 725.9 729.2 731.9 730.5 724.3 717.3 712.9 707.6 699.9 690.4 679.9 664.9 652.3 635 620.9 605.8 589.9 570.9 560.6 552.8 538.8 521.8 503.7 483.9 472.3 462.8 455.5 444 424.1 403 378.1 350.9 329.6 315.5 315.7 321.7
293.3 280.1 272.9 284.8 291.7 279 263.3 258.6 255 249.4 241.6 232.4 225.4 222.7 221 219.7 225.1 223.9 216.2 215.5 217.3 223.1 227.5 233.2 242 256.6 278.9 299.9 318.9 336.3 351.6 358.2 362.5 366.1 368.3 373.8 388.2 403.7 418 430.9 440.3 452.4 462.1 470.7 476.2 478.4 476 471 464 460.3 455.3 451.6 455.6 457 450.8 439.3 423.5 403 380.8 358.5 332.9 307.7 307.8 320.7 327.9 336.7 337.8 333.6 324.7 312.7 300.9 291.8 279.2 271.8 273.2 274.1 279.5 283.5 289.1 305 320.8 332.5 346.3 373.1 397.4 418.5 435.5 447.9 455.5 461 461.3 460 457.8 455.7 454.4 453.7 451.9 448 436.9 450.1 452.2 451.2 449.9 449.6 450.4 452 454.4 451.1 443.1 435.4 428.6 424.4 418.2 411 400.7 412.2 420.2 429.1 437.6 444.3 451.6 462.1 469.8 476.2 484.4 491.6 502.9 509.3 514.1 521.7 525.9 531.9 535.1 537.8 544.4 550.6 555.8 561.4 566.4 574.6 582.9 593.8 606.2 617.9 631.3 639.8 651.1 658.6 665.4 671.9 679.1 684 688.9 696.9 702 705.4 706.1 704.8 694.4 697.3 708.3 717.3 725 731.6 735.3 737.7 740.1 737.5 731.8 725.8 719.2 711.7 705.2 695.6 683.6 667.4 654.8 637.4 622.3 610.5 600.2 584.9 569.8 554.7 538.5 524.7 499.2 483.7 470.8 461.3 454 441.5 419.5 398.8 372 344.1 326.3 316.8 317.8 325.4
300.9 290.6 277 265.5 269.2 261.7 256.9 256.5 250.8 241.8 230.6 224.3 223.9 221.5 221.5 226.6 225.7 224.7 217 215.1 218 223.8 227.7 233.9 243.1 258.2 281.4 307.6 327.3 342.9 356.8 363.9 368.5 372.6 377.5 382.7 384.5 397.1 412.1 422.4 433 445.6 456.6 466 473.8 479.2 482.5 481.3 474.9 471.6 469.7 467.6 468.5 463.4 455 444.3 428.9 407.1 385.3 361.9 336.8 306.7 317.4 330.4 342.2 352.8 358.8 355.7 347.9 337.1 323 311.3 298.2 286.2 273.3 274.6 276 277.7 281.9 288.8 298.8 312.9 336.9 360.7 384.1 406.3 422.8 434.5 441 443.2 442.4 440.1 438.4 436.9 435.4 435.1 432.4 427.7 417.9 431 435.3 437.2 438.2 438.8 438 440.5 441 437.2 428.7 418.4 412.8 407.1 401.1 395.8 397.2 403.2 410.8 421 429.4 436.9 443.9 453.3 462.6 470.4 477.8 484.6 495.5 503 507.7 511.4 516.6 520.8 527.2 530.6 533.9 542.3 547.9 553.4 560.4 569.2 575.7 586.5 600.9 614.7 624.9 641.7 655.2 664.8 674.7 684.5 692 696.4 704.9 711.9 717.5 719.1 720.1 720.2 714.2 712.6 718.6 727 733.7 739.8 743 745.9 748.4 747.5 742.6 734.6 726.9 718.3 710.1 701 688 672.5 660.4 641.4 629.2 619.4 608.6 591.8 573.6 554.6 538.4 518.4 495.9 479.4 466.4 456.1 448.6 434.6 412 391.9 365.6 338.9 323.6 319 322 326.7
310.6 299.5 284.8 266.1 257.8 253.2 252.1 250.4 243.2 231.5 227.2 227.8 229.3 229 228.2 227.5 226.9 225.8 217.7 217.2 217.5 223.7 231.4 237.7 247.1 262.9 285.9 310.5 331.1 347.8 361.8 368.7 374 379.8 385.8 391.4 394.7 392.7 406.1 417.3 428.5 438.3 450.8 459.6 469 476.5 482.2 486.8 485.1 483.9 483.1 480.9 479.5 472.4 459.2 446.8 428.5 410.4 388.7 364.7 339 316.8 328.3 340.5 357.1 371.2 378.3 377.2 372 359 346 333 319.2 303 288.6 276.2 276.1 277.4 279.8 283.3 292.4 297 313.3 338.4 364.1 385.4 405 418.3 424 424.5 423.6 421.4 419.9 419.1 416.3 413.9 412.5 408.7 402.3 407.5 419.2 424.1 426.3 425.4 423.7 426.6 428.4 423.1 415.4 405.3 398.9 391.7 385.7 388.6 389.3 395.2 400.8 410 421.3 429.8 437.2 444.9 455 461.4 469.1 475.9 484.7 493.3 496.8 500.2 505.5 513.6 520.2 524.6 528.9 532.8 541.9 547.2 555.2 562.7 572.5 584.6 597.6 611 626.8 644.6 660.2 673.3 685.8 695.7 702.7 709.7 719 725.8 731.5 736.1 736.4 735.6 732.2 730.6 731.3 737 742.3 746.8 749 752 756.4 756.4 751.7 743.3 735.5 727.6 717.1 706.1 695.6 678.4 666 650.4 636.9 624 611.6 595.7 574.9 552.3 535 515 491.3 473.2 460.4 450.6 441.9 424.8 399.5 379.4 357 334.6 321.2 319 323.5 327.4
319.3 307.2 291.6 270.5 257.7 251.6 242.5 241.6 231.6 229.7 232.5 231.9 230.3 229.5 228.7 227.8 228.7 226.4 217.7 217.8 216 224.1 232.3 239.1 247.9 265.1 288.1 311.4 333.5 352.9 365.2 372.4 378.1 385.4 392.4 399.3 403.3 404.5 404.5 407.1 417.7 433.5 445.6 456.1 464.6 472.8 482.1 489.9 490.4 492.3 492.8 490.7 485.3 477 464.7 449.6 429.7 410.3 389.9 367.4 342.7 322.8 338.6 353.5 369.1 386.4 391.6 391.7 390.4 381.7 368.3 355.5 340.3 325.5 308 295.1 278.3 279 279.6 281.2 282.5 287.5 295.1 314.4 340.4 361.9 382.2 395.2 401.2 403.4 403.6 402.3 400.5 399.6 396.7 393.4 390.3 388.4 384.6 393.2 402.4 409.6 412.5 412 409.4 414 415.9 411.2 402.9 392.4 382.5 377.1 379.6 386.5 391.6 395.5 402.2 404.1 408.8 417.8 428.9 438.5 446.1 452.6 460 464.8 470.6 477.2 483.2 488.8 495.1 504.9 514.5 518.4 522.2 527.6 536.3 542.3 550.6 560 570.1 583 594.6 612.1 630.2 647.8 664.3 679.1 692.8 703.8 712.6 720.5 729.6 738.4 745.3 750.3 751.6 749.5 745.5 743.5 743.1 745.1 748.5 752.6 754.1 757.8 762.3 764.1 760.7 753.4 742.9 734.9 724.8 711.5 699.8 685.4 671.5 659.5 645.4 630.5 611.9 594.7 571.4 546.6 527.5 508.5 485.7 470.8 457.3 445.1 431.6 412.6 387.3 368.1 348.7 331.8 320.5 320.1 322.6 328.9
323.6 309.2 291.6 269.9 256.4 249.9 243 232.3 229 234.6 234.7 232.7 230.8 230 228.6 227.4 227.7 225.7 219.4 217.4 216.8 221.9 230.8 238.5 246.3 261.4 284.7 312.1 335.5 353.2 364.8 374 383.3 391 398 404.3 409.5 412.7 415.3 418.6 421.8 424.3 437.2 453.5 461.4 469.7 480.9 489.1 494.6 497.6 499 495.4 488.8 478.8 465.6 450 428.2 409.8 390.6 368.6 344.9 333.1 347.2 365.3 380.6 398.7 404.8 407.5 407.5 401.7 391 377.9 363.6 349 332.3 317.9 302.4 287.5 279.4 281.7 283 286.5 290.4 298 315 339 356.8 369.4 375.9 378.5 381.1 380.4 379.8 379.5 378.1 375.3 371.3 368.5 369.5 375.9 383.3 390.7 393.9 396.5 395 401.3 402.3 397.7 388.8 377.1 372.5 377.3 387 394.2 401.5 407.3 411.6 416.9 420.9 417.5 420.6 428.8 437.2 443.7 450.4 455.8 462.2 467.5 474.2 480.4 486.5 495.3 503 511.5 518.1 523.5 531.5 539.2 546.9 556.9 570.4 584.1 597.9 614.8 633.7 651.3 668.1 685.4 697.5 710.1 722.4 730.9 740 749.8 757.1 763.4 764.6 763 758.2 755.6 753.9 754.2 756.3 758.3 765.3 769.7 771.9 772.8 769.3 762 752.8 743.4 730.4 719.2 704.9 691.7 676.6 666.2 653 635.3 614.1 590.6 567 541.8 518 500.4 484.9 471.6 457 438.6 416.1 395.3 374.5 357.8 342.7 327.9 321.3 321 324.9 330.6
316 298.8 278.8 260.9 251.1 245.1 235.5 229.3 233.3 234.4 234 232.6 231.2 230.2 228.7 227.2 226.6 225.3 220.6 217.9 216.8 216.4 228.8 236.8 244.8 256.6 277.2 307.1 332.6 349.5 361.8 374.5 385.4 396 403.9 410.3 415.5 420.8 423.7 427.6 431.1 434 438.9 450 460.1 469.9 480.7 490.1 496.7 500.6 501.1 496 490.7 480.5 467 448.8 428.4 410.1 390.6 370.2 345.2 340 358.1 376.4 392.3 410.6 421.3 425.2 425.5 421.5 411 398.5 384.6 369.8 356.3 340.2 324 307.8 297.1 282 283 285 286.9 288.7 297.5 312.3 328 338.8 347.9 351.6 353.1 355.4 353.6 356.6 358.3 356.1 352.1 353.6 355.3 361.2 365.8 370.6 376.8 380.3 381.9 385.8 386.3 380.3 372.1 363.2 373.9 386.3 393.1 400.2 407.3 414.1 420.2 426.4 431.1 435.2 433.9 429.8 432.9 435.8 440.9 446.8 452.4 460.1 466.1 473.2 478.9 485.8 494.1 503.7 512.9 520.1 527.9 537.1 548.3 559.1 572.4 586.9 601.7 615.3 636.8 653 673 688.9 701.5 717.8 730 738.3 750 758.7 767.5 773.9 775 773.7 770.1 770.5 769.1 769.1 770 772.5 773.8 776.9 780.2 779 776.1 768.6 759.5 748.9 734.4 722.4 709.8 696.2 682.8 672.4 658.9 642.1 617.2 588.8 558.6 533.5 511.4 501 489.2 475.5 458.9 440.4 420.2 393.9 367.8 349.9 336.8 326.3 321.9 322.4 326.7 333.6
299.1 282.3 263.8 250.8 243.6 235 230.7 233.8 234.7 240.9 239.1 234 234.3 232.5 229.3 227.4 227 226.4 224 218.5 218.3 216.1 225.9 234.6 242.7 248.7 267.1 291.7 316.8 340.1 359.4 374.7 386.9 398.8 410.1 416.1 421.6 426.8 432 435.5 439 443.2 447.1 452.2 462.1 472.2 481.3 489.9 497.5 501.1 501.4 498.6 491.9 481.8 468.6 451.1 430.4 409.8 385.9 374.6 363.9 347.8 366.4 384.5 400.9 421 432.9 439.9 441.3 439.5 430.1 421.2 407.6 393.3 379.5 364.1 345.6 326.3 311.6 300.4 287.5 285.9 286.9 288.7 290.1 298.1 304.7 313.7 321.6 323.5 323.7 326.6 329.4 334.5 336.5 340.1 339.9 342.6 344.7 346.8 348.9 353.4 360.7 365.2 368.5 369.3 368.6 365.7 360.3 371.7 385.9 397.8 405.3 412.3 418.4 424.1 429.8 435.6 440 444.9 446.3 448.2 447.4 449.4 453.6 455.1 460.4 464.6 468.9 470.6 473.4 481.8 489.3 499.2 509.8 517.7 526.8 539.7 550.2 560.1 573.4 588.2 604.8 623 642.3 662.3 677.6 693.2 705.8 725.6 736.4 748.3 758.4 768.2 776.8 782.7 785.3 785.3 782.6 780.9 779.3 778.8 779.7 780.1 782.2 784.6 786.3 785.9 783.1 775.5 763.9 753.3 740.4 725.1 712.2 699.2 688.1 677.1 662.8 644.9 620.1 591.6 561.9 533.3 516.5 504.4 496.6 479.2 461.4 440 416.4 386.3 363 346.1 331.9 324.2 322.8 323.9 329.8 335.5
280.5 264.2 250.1 242.8 234.6 233.3 232 235.4 241.7 247.1 242.8 241.3 238.2 238.3 234.6 228.5 228 228.3 223 218.7 218.7 217 221.2 232 238.1 244.5 255.3 276.8 302.7 333.5 356 374.9 388.5 400.6 412.4 421.1 427.7 433.6 438.8 443.3 446.2 449.6 453 457.2 465.1 473.2 481.4 489.2 495.7 501 502 499.2 493.3 484.1 471.8 453.7 430.9 415.6 400.6 388.1 377.1 367.1 373.8 391.9 409.6 429.2 443.7 452.2 454.7 454.9 451.8 442 428.1 415.2 402.9 386.3 365.6 347.4 333.4 319.2 305.5 292.2 289.6 289.4 291 292.9 296.4 300.1 304 307.1 309.7 311.3 316.8 321.8 326.5 329.4 332 335.1 336.2 336.6 338.9 344 348.8 351.9 354.7 356.1 355.6 356.7 372.4 389.7 402.3 411.3 418.1 423.9 427.8 434 442.6 449 455.5 456.8 454.2 454.6 455.7 456.6 457.6 461.2 462.9 468 472.5 476.7 483 487.1 492 496.1 508 516.6 527.4 541.1 551.6 562.3 576.9 592.1 607.4 630.5 650.7 668.2 683.7 700.1 717.3 732.2 745.6 757.5 766.7 778.2 787.4 793 795.4 796 794.1 791.7 788.2 786.9 786.9 788 789.3 791 791.1 789.7 785.9 778 768.2 755 741.1 726 712.3 701.4 691.2 679.5 663.6 645.8 622.7 597.2 567 545.5 523.4 509.9 502.3 481.2 460.7 434.1 409.8 378.5 357.3 341.3 329 324.1 323.2 326.1 331.6 339.3
264.8 251.3 238.8 236.2 235.4 238.8 244.6 245 251.1 252.8 251.2 250.2 246.3 239.2 239.2 236.2 232.1 230 225.4 219.7 219.2 218.7 218.9 229.2 236 241.6 249.2 264.8 293.3 325.2 352.5 373.9 389.3 401.9 413.7 424.7 433.5 441.1 446.5 451.8 452.7 455.4 458.7 461.2 465.6 475.4 482.1 489.6 495.7 500.9 502.5 500.3 493.9 485.7 475.6 460.8 443.3 428.6 412.6 399.5 391.1 380.3 382.1 401 417.3 436 453.6 463.1 468.7 471 467.9 459.8 447.6 432.1 418.7 402.2 384.9 368.1 357.7 343.4 325.9 309 297.5 292.5 293 293.4 293.8 297 301.2 304.6 306.3 309.3 313.8 316.3 320.3 323.3 326.4 329 329.5 330.3 331.8 332.4 336.1 339.8 346.5 351.1 363.7 378 390.6 405.1 414.8 423.1 432.7 440 444.7 450.7 456.3 460 463 465.7 467.6 466.3 462 462.6 464.5 465.4 468.8 472.8 478.7 484.6 489.3 494 499.1 503.8 510.3 516.8 529.6 542.6 553.6 566.1 583 596.4 615.1 636.8 656.7 671.3 689 707.1 723.2 738.5 754.2 765.9 776.6 788.1 796.8 802.1 804.6 805.1 803.5 800.3 796.6 794.1 792 791.5 794.4 795.5 793.9 790.7 787 778.5 768.3 753.5 739.5 726.4 712.8 700.7 688.8 677.2 661.7 643.7 622 598.8 570.8 552.8 530 510.4 500.2 480.6 455.5 426.8 400.8 370.5 350.1 337.9 327.8 325.9 324.9 328.6 335 340.9
252.6 238.7 237.4 236.7 244.1 242.5 250.6 251.9 256.8 258.2 259 260.4 260.8 249.4 243.7 241.6 238.1 228.9 226.9 224.1 219.8 219.4 222.1 224.7 234.4 239.6 245.6 256.9 282.3 313 342.6 369 387.1 400.8 413.1 424.4 435.4 444.4 451.2 456 458.5 461.2 463.5 465.7 470.6 477.3 483.4 490.4 496.8 502 503.1 500.6 495.8 490.3 481 469.3 454.2 439.1 425.2 412.8 405.3 394.5 389.3 404.7 423.6 441.3 460.8 472.7 481.3 485.6 484.1 476.6 466.2 450.3 433.7 418 403.6 394 384.3 366.8 349.2 329.7 312.4 303.2 296.8 297.5 298.4 299.1 300.8 301.9 301.3 304.3 307.3 312.2 316.1 318.3 320.7 317.9 321.2 324.7 331.7 336.9 341.6 351.5 360.4 369.6 381.3 395.7 409.9 420.9 429.6 437 445.9 450.3 458.5 465 467.3 469.4 471.1 474.5 475.5 475.4 474.8 474 475.5 477 478.7 482 486.1 489.8 494.2 500.4 504.4 510.6 516.6 522.3 530.8 545.3 556.5 571.9 587 601.1 622 644.1 659.3 677.1 693.2 710.6 729.7 745.1 759.8 775.3 785.4 797.2 806.2 809.4 812 811.9 809.3 805.3 800.3 796.9 795 794.6 795.7 795.2 792.6 789.5 783.7 774.6 762.9 749 735.4 722.3 707.6 696.1 683.9 670.5 655 637.4 616.6 595.2 568.9 548.9 529.4 508.7 489.4 467 442.3 414.9 388.8 362.9 345.3 332 328.5 327.3 326.8 330.2 338.2 344.4
239 238.7 245.8 251.9 247.1 251.8 254.4 260.1 264 265.6 269 274.5 274 266.3 256.8 250.5 242.8 236.7 228.3 226.2 219.5 218.9 218.5 218.1 227.3 236 243.7 253.4 272 301.8 330 357.3 377.7 393.7 407 419.9 431.9 442.2 450.9 457.1 461.9 465.7 467.9 470.1 473.2 479 484.9 490.2 496.5 502.6 505.6 504.3 501.7 496 487.2 476.2 463.7 450.7 437.9 428.3 419.5 406.4 402 409.1 428.3 446.8 465.5 481 492.1 497.4 496.8 490.4 480.9 467.6 451.9 437.3 426.1 416.3 405.2 390.8 371.8 351.6 335.4 322.6 312.1 310.3 307.8 303.9 308.2 310.5 310.4 313 312 310.5 309.1 312.2 314.8 318.6 322.7 326.5 329.6 334.3 342.2 351 363.2 377.6 393 410 421.6 429.7 437.8 446.2 456.3 465.1 470.7 474.5 476.2 479.2 480.4 482.7 482.7 483 483.1 483.3 484.4 486.4 489.5 493.3 495.9 499.3 503.6 508.4 513.9 520.6 528.4 533.3 534.6 546 559.1 576.5 589.6 607.7 628.3 647.2 661.9 679.5 695 714.2 733.5 750.8 765.4 781.8 793.9 803.3 810.7 814.4 815.7 814.9 810.8 804.7 800.1 797 793.8 791.9 791.7 790.8 786.9 783.2 776 765.5 752.6 739.6 727.8 714.8 700.7 687 672.9 659.1 643.6 626.3 606.4 588.3 567.2 542.1 521.4 498.6 476.7 449.2 425.5 401.3 378.3 355.2 338.3 331.2 328.6 326.8 329 332.9 340.9 347.1
239.6 246.9 254.7 255.7 255.4 258.4 263.1 268.1 274.1 277 279.5 286.6 286 275.7 259.3 256.8 248.9 249.2 234.3 225.8 218.8 219.8 218.9 218.1 223.3 233.4 242.4 250.9 262 288.9 315.1 342.4 363.7 380.3 396.9 411.7 424.1 436.9 446.6 455.1 462.4 468.1 471.7 474.3 475.8 478.3 482.8 488 494.6 501.1 505.1 507.7 506.4 502.6 494.5 485.1 474.3 460.5 448.3 439.6 432 423.2 418.8 419.9 429.2 450.3 469.4 487.3 499.2 506.2 506.1 501.5 493.7 482.8 468.5 454 443.2 432.5 421.3 407.8 391.2 372.8 356.8 341.3 327.3 320.2 315.4 312.5 316.4 320.8 324.6 325.6 325.4 322.8 319.6 317.6 315.2 318.1 320 324.4 327.4 330.8 337.7 346.3 356.7 371.6 391.2 410.6 425.3 437.3 448.2 458.2 467.5 474.9 478.1 481.8 483.2 485.8 488.6 489.3 489.2 489.3 489.6 490 491.3 493.9 498 503 507 511.3 515.1 518.4 524.4 533.6 539.6 543.9 548.7 548.5 561.2 579.7 593.2 611.1 629.9 647.7 663.2 679.4 698.4 716.5 733.3 752.4 770 784.5 796.3 806.7 812.6 815.8 816.4 814.3 809.6 802.8 797.9 791.4 787.6 785.1 782.7 780.2 774.6 770.6 762.8 751.7 739.5 728 716.7 702.4 687.5 668.7 656.8 643.9 627.8 610.7 590.9 571.8 551.5 530.1 506.6 479 456.1 430.1 406.6 384.9 366.2 346.6 334.7 332.6 330.6 329.1 332.9 335.3 341.3 347.9
253.1 261.7 263.1 265.9 267.7 270.8 274.7 281.3 289 292.1 295 302.2 303.2 287.6 270.4 262.1 257.7 253 238 226.6 219.9 217.8 220.3 220.4 219.9 230.9 240.5 249.3 259.3 278.5 302.4 327.1 348.8 366.4 383.8 399.3 412.8 426 439.6 450.9 460.4 468.6 473.1 475 475.7 475.8 479.2 485.3 491.8 498.3 504.7 507.9 509.6 507.6 501.4 493.3 483.6 472.7 459.7 451.2 445.7 439.9 436.6 433.5 434.6 450.9 471.4 492.7 506.1 512.5 513.8 510.2 505.1 495.5 483.1 470.5 457.5 445.4 433 419.5 402.1 384.5 371.1 355.1 339.7 329.2 324 322.1 323.3 331.1 334.5 336 336.5 336.7 335.9 331.7 329.5 323.7 317.9 323.3 327.9 331.3 334.7 341.6 349.4 363.1 381.1 403.2 424.1 440.3 452.6 462.7 470.5 478 481.5 485.3 488.9 492.6 494.2 494.2 494.3 494.4 494.7 495 497.2 499.5 505 510 515.4 520.1 525.3 532 538.7 546.8 553.1 558.5 560.1 563.4 564.2 576.2 595 612.9 628.9 645 662.4 677.9 698.3 717.1 733.2 751.1 769.8 784 798 806.6 812.8 814.9 814 810.9 802.9 796.7 789.7 782.5 776.4 772.3 769.8 764.5 758.9 753.4 744.3 733 723.9 713.9 701.2 687.5 669.3 639 628.8 623.8 607.2 589.2 570.3 548.9 528.9 508.8 485.5 458.3 436.7 414.9 393 371.3 355.3 341.8 337.2 334.1 331.8 329.5 334 335.3 343.3 351.5
265.7 270.7 274.1 275.9 279 285.5 289.8 299.1 306.4 309.1 309.9 316.9 323.3 302 281.7 269.7 264.4 252.3 236.8 227.8 223.2 219.7 220.3 220.7 220.6 229.2 237.8 248.2 257.6 269.1 292.1 314.3 333.7 352.5 370.1 387.2 403.3 418.5 433 445 456.2 464.4 469.8 471.4 471.4 472 474.4 479.4 486.6 494.6 502.2 506.1 508.2 509.1 504.2 499.1 491.8 481.9 471.3 464.5 457.2 455.1 453 449.2 448.5 451.9 473.4 495.1 509.8 515.4 520.1 518.6 514.7 506.6 497.1 483.1 468.1 455 441.7 425.7 408.1 391.8 377.3 365.7 349.2 338.7 333.3 330.7 327.2 336.8 342 345.6 351.5 354.4 353 351.1 347.1 340.5 328 322.3 327.2 331.5 334.7 340.1 345.6 356.8 372.9 393.4 415.8 438.1 451.7 460.6 469.4 475.4 480.3 487 492.3 497.1 498.3 497.7 497.7 497.4 497.8 498.3 501.9 505.5 510.2 516.5 522.7 529.5 535.3 543.2 550.8 559.1 565.4 570.3 574.6 577.6 577.4 583.3 593.5 612.1 627.8 644.5 658.6 678.2 695.1 715.4 732 750.7 766.8 782.4 795.3 805.2 810.1 810.9 807.9 802.5 794.1 788.1 778.1 770.4 763.5 759.7 755.1 750.3 743.6 736.2 725.1 716.8 708.1 695.9 683.3 668.4 650.7 620.2 592.9 595.7 581.1 562.6 544.3 522.8 501.6 481.2 459 439.2 419.9 400 381.1 361.1 347.5 343.6 339.1 334.7 332.4 330 336.8 340.8 346.9 355.9
276.7 282.2 286.9 290.7 293.7 300.5 306.4 314.4 320.4 322.4 321.5 329.4 330.6 316.3 294.8 277.8 269.1 258.2 244 231.7 223.1 219.4 220.1 220.6 220.8 228.7 237.5 247.2 256.7 266.7 285.3 304.5 322.1 339.5 358.2 377.4 393.9 410.8 425.8 439.3 450.6 459.4 464.5 465.5 465 464.2 466.5 470.9 477.9 486.6 494.8 501.6 506.3 508.7 508.8 505.3 498.9 490.9 481.4 474.7 468.5 466.5 466.9 466 469 470.7 476.1 498.6 513.9 521.9 524.9 526.4 522.8 516.4 507.1 494.4 476.5 462.3 446.7 430.3 413.3 396.8 382.2 369 356 351.9 345.7 340.4 335.3 345.3 350.8 356.3 362.7 366 366.5 364.4 359.9 353.5 341.2 327.4 327.8 329.5 334.3 338.4 342.7 349.2 360.9 379.8 402.7 426.3 446.3 457.5 465.3 472 477.4 485.6 492.9 498.4 500.4 499.1 496.6 496.2 497.1 499.6 503.3 508.3 515.7 522 531.2 539.2 546.1 552.9 561.1 568.9 577.1 585.6 591.7 593.9 595.9 597.6 599.8 612.3 628.3 643.4 657.6 677.1 692.6 715 731.2 747.6 766.5 779.5 791.9 801.2 804.2 805 800 794.3 785.1 777 767.5 757.4 751.5 745.4 739.1 732.3 724.8 716.7 706.5 697.1 686.6 676.8 663.2 647.8 629.3 606.8 573.6 560.3 550.6 533.7 514.1 494.4 472.6 454.7 435.9 418.6 402 381.9 367.2 356.3 350.5 344.2 339.4 335.5 333.3 331.9 338.2 341.2 348.8 360.3
288.1 293.7 299.4 304.7 310.7 318.5 325.2 329.4 332.1 331.8 330.3 333.4 330.3 323.6 308.3 284 277.7 268.5 253.6 236.2 225.8 220.4 219 220.5 221.9 229.2 237.9 247.1 256.6 266.9 280.5 297.1 317 336.8 357.4 373.8 388.7 404.6 420.5 434.2 444.8 453 457.5 458.4 456 453.2 454.4 459.5 466.4 476.3 486 495.2 502.4 508.5 509.2 508.7 504.2 497 489.9 484.3 479.8 478.9 479.8 480.9 484.2 489.7 499.6 509.1 520.8 528.3 532.3 533.5 530.5 524.5 515 501.8 484.7 466.5 450.9 433.4 416.5 400.7 387.4 376.9 369 363.4 357.8 349.7 343.7 355.5 365.2 372.1 374.8 376.2 376.3 374.5 369.6 361.5 348.1 335.3 332.8 331.5 332.3 338.4 342.8 347.2 353 365.4 386.9 409.6 430.3 447.2 458.6 465.8 471.7 477.2 486.1 490.7 493.5 494.9 493.8 493.3 495.3 499 503.2 510.1 519.6 527 536.9 544.2 551.3 558.7 569.6 579.5 588.2 597.2 603.8 608.6 612.8 613.8 615.4 618.7 629.7 645.1 659.1 675.7 694.4 715.5 731.6 749.2 765.4 777.4 789 796.2 799.1 797.4 791.4 784.1 775.1 767.6 757.8 744.1 738.6 730.6 723.7 716.7 707.8 698.2 687.3 676.8 667.6 656.2 640.8 623.3 603.9 582 554.3 525.1 515.9 502 483.3 464 446.1 430.3 412.9 396.6 383.6 373.4 373.2 367.6 358.4 343.1 339.1 335.3 332.4 335.1 339.7 345.2 356.3 366.5
305.4 311.7 316 320.1 329.1 336.3 340.5 339.9 338.7 336.5 331.8 329.8 323.4 316.9 308.3 294.3 286.3 275.9 259.5 238.3 226.8 220.6 219.5 221.2 222.5 228.5 237.7 246.7 256.4 267.5 281.4 296.8 318.2 340.6 359.3 376.8 391.3 404 418.4 429.6 438.8 445.9 449.2 449.5 444.2 439.6 439.1 443.8 451.4 461.7 472.2 484.6 496.9 504.9 509.6 510.7 507.6 501.6 496.5 492.1 489.3 489.7 490.6 492.8 497.4 503.8 511.8 519.7 529 536.3 540.3 540.9 537.9 531.5 521 507.5 489.2 470.4 452.6 435.6 420.9 408 396.8 385.9 377.9 371.6 363 355.9 355.3 368 378.3 385.7 388.8 389.6 387.8 383 375.2 366.1 356.6 347.3 339.7 336.4 335.9 338.1 339.4 346.7 351.3 356.6 369.4 392.8 412.6 430.5 443.8 452.2 462 469.1 477.2 482.7 485.2 486 486.7 488.4 491.5 497.4 502.4 510.4 520.2 531.6 540.1 548.9 556 562.5 576.8 588 598.7 607.9 614.7 624.1 629.3 631.3 636 635.5 638.5 648 662.4 681 698.5 717.4 734 750.5 763.9 778.1 786.2 792.2 793.7 791 785 777.8 767.6 759.5 743.4 733 725 716.4 708.8 700.4 689.7 677 664.8 657.5 647.9 632.9 613.4 595.1 574.7 553.5 529.1 504.5 486.1 471.7 454.6 438.6 421.1 406.5 395.5 388 389.9 393.7 391 383.5 360.4 343 338.3 334.8 334.9 336.4 341.8 349.5 360.4 370.9
321.7 330.5 333 336.1 343.5 348.9 349.8 347.2 344.4 338.1 331.1 321.9 310.8 306.3 305.7 305 294.7 281.8 260.6 238.9 225.6 220.7 220.4 221.9 223 227.7 236.4 245.4 255.1 267.9 282.1 300 321.9 345 364.3 379.9 393.3 405 417.1 426.1 433.3 436.6 437.1 433.4 428 422 421.6 426.7 435.5 447.1 459.8 472.5 486.7 498.3 506.5 511.1 510 505.6 502 499.5 498.6 498.9 499.6 503.6 509.9 516.2 524.3 532.7 539.1 545.7 548.1 548.2 545 537.6 525.2 512.3 493.6 474.9 458.1 442.3 429.9 418.7 407.4 394.1 387.1 376.5 370.3 362 368 380.8 390.5 396.1 400.2 399.6 397.2 390.2 383.6 375.4 364.2 354.6 354.4 349.2 347 344.6 342.4 343.9 348.5 354.2 359.5 372.2 388.6 408.8 425.2 435.3 444.9 452.4 461.7 468 473.4 476.7 477.8 482.6 488.2 494.3 500.8 509.5 521.1 531.4 541.4 549.9 556.3 568.1 583.4 595.2 605.1 614.8 625.7 635.4 642.8 647.2 649.1 651 656.1 660.8 671.1 686.1 703.7 720.7 738.7 751.5 764.6 778.3 785 788.7 787.2 785.6 780 771.3 761.8 748.8 731.8 720.4 709.5 698.7 692.3 683.1 672.5 658 645.4 636.8 622.9 605.5 585.4 565.5 543.4 523.5 503.5 483.8 464.1 450.4 432.6 419.7 411.7 405.2 411.8 413.4 412.8 408.8 401.9 385 362.9 344.9 337.7 334.7 334.7 338 343.8 352.2 363.8 375.8
340.9 347.3 350.7 354.2 359.9 362.4 359.1 354.2 348.1 337.4 328.5 314.6 302 296.9 297.8 299.1 289.5 270.8 255.3 236 222.6 221.1 221.1 221.4 223.8 230.3 235.9 244.4 252.7 265.6 281.9 303.7 326.1 348.8 369.2 383.9 394.4 404.2 414.7 421.4 423.6 424 421.7 416 409.8 404 400.8 404.9 417.4 432.8 447.1 460.3 475.8 487.9 499.4 507.1 507.9 507.1 506.1 505.2 504.7 507.1 509.2 513.2 520.6 527.5 535.2 540.7 547.5 552.9 556.3 556.2 551.5 544 530.9 517.3 498.1 481.7 465.4 452.6 440.7 430.1 417.4 406.3 396.6 384.5 375.4 370.9 382.4 390.8 401.6 409.6 412 410.2 406.5 398.8 390.5 382.5 370.2 370.3 367.6 364.5 361.1 356.9 353.4 352.7 348.6 354.2 358.3 363.4 373.3 387.7 403.5 413.7 422.9 434.5 445.1 454.1 461 466.8 471.6 479.1 485 491.7 498.5 508.2 519.2 530.4 540.8 548.7 559 573 587.2 598.8 609.1 619.6 631.8 642.9 651.4 658.3 661.6 667.6 672.5 677.8 687.5 699.5 712.5 726.7 742.5 754.2 767.7 778.1 783.8 786.2 784.7 782.8 776.2 768.4 753.6 737.2 719.6 704.6 692 681.5 673.9 662.5 650.9 636.7 623.3 608.9 593.1 575.1 553.7 534.3 516.8 497.2 478.9 460.5 446.7 435.8 439.1 435.5 432.7 432.4 432.1 430.6 427.4 420.7 408.2 387.6 366.4 347.9 340 335.2 335.6 340.8 346 356.2 369.6 387.6
359.6 364.6 368.1 373.8 375.3 376 369.4 362.7 351.5 340.3 325.3 311.4 296.6 290.6 289 283.4 274.9 264.1 251.9 232.6 226.2 221.2 221.3 221.9 224.3 228.6 236.2 242.7 250.7 263.4 284.3 306.5 331.4 354.9 373.5 386.4 395.4 403.1 408.4 410.7 408.8 404.9 402.1 397.4 391.6 385.5 377.8 383.8 399.4 417.2 434.4 449.5 464.9 477.8 490.1 498.2 504.7 506.3 506.3 508.6 509.2 513 517.2 521.3 528.3 536.2 543 549.7 555.6 559.6 563.3 564.1 559.5 551.6 539.8 523.4 503.2 488.6 476.3 463.4 451.4 439 424.8 414.8 403.4 392.5 381.8 380.1 392.1 399.1 410.9 417.7 420.8 419.4 414.1 405.7 396.3 388.6 383.2 383 382.4 377.9 375.4 372.5 369.8 363.1 358.5 353.8 357.5 362.6 368.5 377.8 385.9 393.2 405.4 411.7 423.9 435.6 445.6 454.1 465 472.6 482.1 489.7 497.9 507.3 516.8 527.4 535.3 546.8 560.8 573.6 586.1 597.4 610.1 622.1 634.9 647.5 658.5 665.9 673 679.2 685.7 693.3 700.4 711.9 724.9 735.8 748.3 759.4 772.2 780.1 783.2 784.8 785.4 781.8 775 766.8 750.2 732.4 716.2 700 682 660.4 645.9 635.5 623.1 609.6 593.2 576.2 562.2 543.9 526.7 509.3 491 476 463.9 461.6 459.4 458.5 456.6 452.8 451.4 452.3 452.2 448.2 441.9 430 411.5 390.3 369.8 349.8 341.2 336.3 337.4 343 348.4 359.4 375.2 398.5
376.3 382 386.3 390.3 390.5 388.5 380 371.8 358.1 344 324.8 309.8 294.2 288.2 283.6 277.5 269 257.7 247.3 230.9 229 222.1 222.1 220 224.3 229.4 236 241.9 248.6 262 285.7 311.3 337.2 359.7 376.6 385.1 390.6 392.4 392.7 392.1 388.8 385.1 380.5 375.8 371.1 366 355 364.5 384 403.4 422.2 438.9 454.9 468.8 481.1 491.4 498.6 502.6 504.9 507.2 509.9 515.8 521.6 527.6 534.1 542.5 549.4 556.8 563.7 568.2 571.5 572.1 567.3 558.3 546.8 531 511 497.4 486.8 474.8 459.3 446.9 432.3 421.9 408 396.9 387.1 384.6 397.6 408.9 418.6 426.8 429 426.3 419.2 412.2 404.1 397.1 393.2 394.1 393.4 389.4 389.3 388.9 383.2 380.6 373 369.5 363.3 361.7 365.5 372.5 378.4 384.7 392.3 400.9 408.8 420.4 430.8 441.4 453.9 465.6 477.4 485.9 496.4 506.5 515.7 524.7 534.1 544.5 556 570.6 582.7 593.5 606.2 622.5 634.5 649.1 661.7 671 682.9 690 697.5 707.3 716.4 726.6 735.2 747.3 758.6 769.2 778.2 783.4 785.4 787 786.4 782.2 775.3 766.3 755 739.4 724.3 710.6 695.9 675.8 648.7 618 593.5 579.5 564.4 551.3 536.6 519 503.2 502.8 497.5 491 485.4 481.9 479.4 476.3 473.7 473.7 472.8 473 472.1 466.1 453.2 435.3 414.5 394.8 370.1 349.4 341.7 338.1 340 345.3 352.8 362.7 382.4 402.4
388.9 396.4 400.6 401.1 401.4 396.1 386.9 376.7 363.8 346.8 324.8 307.6 296.2 288.9 283.1 275 260.9 251.2 243.8 233.7 229.8 224.6 222.3 219.8 224.4 226.5 235.3 241 248.7 258.6 284.2 306.5 330.2 349.9 363.9 371.8 371.5 368 369.1 367.2 363.3 359.5 355.6 351.4 348.3 345.4 336.3 347.9 369.2 391.8 411.9 429.3 445.3 460.3 473.4 483.4 490 494.8 500 504.2 508.5 514.9 521.2 528.5 537 545.4 555.2 564.5 571.5 576.5 579.3 577.6 572.5 564.6 554 539.1 521.7 506.3 498.3 486 469.2 454.6 437.9 426.4 415.3 402.8 394 394.8 405.5 417.5 428.5 438 438.1 437 429.3 418.8 412.6 406.6 404.3 405.5 403.7 402.1 401.1 399.5 397.3 394 387.7 382.3 378.6 371.3 365.8 372.2 376.4 378.4 382.9 389.7 399.7 407.1 416.1 426.5 438.7 452.6 469.3 480.8 493 503.1 512.2 521.3 532.4 543.1 553.2 565.3 579.3 591 603 619.3 632.2 646.8 661.1 675.4 688.4 699.7 709.9 720.4 728.3 737.5 750.8 760.9 769.2 778.4 785.2 787.5 789.3 790.3 788 783.4 775.7 764.6 753.8 736.9 723.5 710.8 695.9 675.1 648.2 616.1 591.9 572.3 553.1 536.5 533.9 531.1 525.5 519.8 514.8 511.8 506.7 501.8 499.1 497 500.3 500.4 502.1 499.7 496.3 482.6 465.7 441.7 417.2 395.9 370.8 349.9 342.7 338.8 341 347.8 356.9 364.3 386 405
398.9 407.7 412.8 413.5 411.3 404.4 391.9 380.9 367.7 349.3 325.2 310 301.6 293.9 285 276.1 265.7 255.7 244.7 235.3 231.5 227.2 222.2 221.1 223.7 226.4 230.8 238.7 247 256 275.3 294.5 314.9 329.5 339.7 344.6 346.2 342.9 341.7 338.3 333.9 331.4 329 326.9 326.6 324.1 323.7 339.6 359.8 381.8 403.1 420.7 435.5 449.4 461.2 470.1 476.4 483.9 489.8 497.2 506.3 513.4 520.9 529.1 538.7 549.7 560.4 570.4 578 582.1 584 583.3 579.9 572.7 562.3 545.9 531.1 520.1 509.8 497.8 481.2 464.6 445 433.6 421.8 410 400 402.1 414.2 428.6 439.9 447.7 450.6 447 441.1 435.5 427.7 418.4 416.5 415.1 414.5 413 412.8 412.2 411 406.9 398.8 395.9 392.5 382.8 372.9 379.6 386.9 390.1 394.7 399.1 401.7 399.9 405.4 413.8 423.4 437.6 453.8 472.2 487 498.5 507.8 517.5 528.6 539.1 551.3 562.9 575.5 588.2 600.8 615.1 629.5 642.9 657.1 676.3 691.6 705.7 718.6 730 740.1 749.9 761.8 771.1 782 789.7 794.6 796.7 796.5 794.1 789.8 783.8 774.1 763.1 749.7 733.1 720.4 708.1 690.7 667.2 640.1 608.8 586.7 564.5 556.7 556.1 552.7 547.4 542 538 534.7 529.3 525.1 522.4 520.8 520.6 530.2 531 536.4 532.4 528.8 510 478.1 448 420.8 397.3 371.6 350.2 344.7 344.2 343.8 346.2 355.4 366.9 387.5 406
400.5 409.8 417 420.9 418.7 412.2 398.6 385.8 369.5 346.4 326.2 313.9 307.6 300.9 291.3 280 267 254.3 243.1 235.2 231.1 225.6 222.8 222.6 220.8 224.1 227.7 235.7 244 252.4 263.8 278.3 292.1 303.6 311.5 315.3 316.5 314.1 312.5 308.3 303.5 300.5 299.8 299.3 302.4 302.8 314.6 331 352.2 373.5 392.1 409.2 423.2 435.2 444.3 451.7 458.2 466.9 475.8 486.9 498.8 508.7 518.7 529.3 540.7 553.4 564.3 575 582.1 585.4 588.2 588.7 587.2 582 572.2 558 543.3 529.8 520.7 507.9 491.3 472.8 457.8 444.3 431.4 415.6 405.2 411.6 423.7 438.9 449.5 458.3 461.9 460.7 454 448.5 442 431.9 431 429.5 428.2 427.7 427.4 426.3 422.7 417.7 412.7 406.4 400.3 385.5 379.8 386.5 391.5 401.5 409 412.5 416.9 421.7 425.7 421.7 423.9 422 437.4 458.2 479.8 491.9 504.2 514 523.9 534.8 548.7 561.6 572.8 585.4 597.2 613.1 627.1 641.2 658 674.9 692.1 708.8 723.4 736.8 748.9 761.4 772.5 782.7 792.2 798.8 803 803.6 800.7 796.4 789.4 782 771.9 758.7 743.5 729.3 715.1 700.8 682.1 657.9 631.9 605.6 583.4 588.2 580.9 578.7 572.5 565.7 562.2 559.6 557.8 553.9 551.8 553.1 555.9 555.5 561.8 563.3 561.2 556.1 549.4 525.9 493.6 455.7 426.3 400.6 372.1 349.3 344.4 343.5 345.8 350.2 356 369.2 385.4 410.1
397.6 407.2 417.9 423.6 425.8 423.2 406.2 391.9 370.9 348.7 333.2 323.1 316.3 309.4 297.2 283.1 270.5 255.9 241.6 235.9 237.2 228.1 223 221.9 220.6 223.9 226.5 231.4 239.8 245.6 253.1 262.9 271.2 278.4 279.7 281.8 284.4 281.5 280.5 278.3 278.7 277.3 279.8 283.7 289.3 295.2 305.5 320.6 339.2 358.6 378.1 392.5 405.3 415.8 423.9 431.6 437 445.7 456.2 470 486.7 503.5 515.6 528.7 542.7 556.4 567.5 576.7 582 585.8 590.2 593.5 593.4 589.1 581.7 569 554.3 542.3 530.3 516.1 502.5 484.8 465.9 453.5 440.1 424 413.7 419.6 432.5 449.2 460.5 469 474.1 471.8 467 461.3 454.6 444.1 447.3 447.9 449.3 449.1 444.1 440.3 435.1 430.1 425.9 418 405.8 388.3 387.8 395.8 402.6 413.9 421.9 427 433.4 439.6 444.1 447.8 449 447.9 443 445.6 468.8 485.8 498.6 510.9 520.7 530.8 545 559.2 570.8 583.3 597.4 612.4 625.4 640.7 656 672.6 692.6 709.4 725.6 740.3 754.5 767 778.9 790.5 799.5 806.8 809 807.2 803.8 796.8 788.4 779 766.3 752.9 737.7 721 707.2 691.2 671.4 647.7 624.4 599.3 609.6 613.1 611.8 607.8 603.6 594.7 590.6 586.9 590.4 589.9 588.8 588 586.1 584.5 582.9 578.3 570.7 566.5 554.1 532.1 505.9 469.6 434.8 402.3 368.2 348.5 344.9 344.5 344.3 349.4 360.2 373.5 395.8 412.4
393.5 406.7 418.3 425.2 430.3 428.6 413 397.2 374.6 355.2 342.1 333.5 325.8 317.8 305.7 291.2 273.7 258 250.5 240.9 241.6 240.3 227.9 223.5 221 224 228.9 230.2 234 237.1 242.4 247 250.6 253.8 256 257.2 256 257.7 262.5 266.1 268.3 272.4 276.8 280.2 284.3 287.2 292.3 306.2 323.1 340.8 356.7 372.5 385.6 393.2 400.9 406.5 414.3 422.7 433.8 450.9 474.9 496.8 514 528.1 544.2 556.8 566.6 573.2 578.6 583.9 590.6 594.7 594.5 590.8 585.6 575 561.2 550.8 539.8 526.1 511.9 495.6 476.6 460.8 446.3 432.7 418.8 428.8 441.8 457 469.5 480 485.6 485.4 481.7 475 469.6 458.2 463 466.7 468.4 465.6 462.7 457.1 450.9 443.5 435.6 427.1 410.4 393 397 405 413.1 430.7 440.5 446.1 452.8 456.6 462.1 466.1 469.5 467.8 464.6 444 463.1 481 491.7 504.4 517.2 529.8 542.5 555.7 569.2 584.1 598.7 610.4 627.3 641 657.5 675 691.8 708.9 725.3 741.5 755.9 770.1 783.5 794.2 802.4 809.4 811.1 807.8 803.7 794.9 787.2 775.3 760.8 748.3 728.7 712.9 698.3 680.4 659.5 638.6 623.7 626.3 629.6 633.8 636.6 636.4 634.1 630.7 625.1 617.5 613.8 610 605.2 599.5 597.1 593.3 587.8 579.9 571.4 563.6 551 532.3 511.5 475.5 439.7 402.5 367.3 347.3 345.8 345.6 345.3 346.7 362 375.9 404.5 419.6
389.7 404.3 416.6 424.7 431.3 430.9 419.5 403.1 381.4 363.6 354.5 346.2 337.8 326.6 315.6 299.3 279.3 266.3 260.7 247.3 243.6 242.4 234.6 225.2 223.3 222.9 227.1 228.6 229.6 232.8 237.6 244 250.4 257.6 263.2 266.6 269.6 272.9 273.1 263.7 266.6 269.2 273 275.6 279.3 283.8 288.6 292.6 305.4 319.8 335.3 349.6 360.7 369.5 376.9 383 390.6 401.1 420 444.7 466.9 490.6 511.1 528.1 542.7 553.3 561.8 568.9 574.5 580.4 585.8 589.9 589.4 585.8 580.2 572.8 563.8 554.9 543.7 531.1 518.4 501.7 482.9 465.6 452 437.8 428.8 434.9 450.3 466.8 480.3 491.8 496.9 500.3 497.7 491.5 484.8 474.5 477.4 481.5 486.7 489.8 484.3 476.5 467.9 456.5 446.5 436.4 417.8 399.3 403.1 412.6 425.1 442.3 455.8 462.9 469.4 476.9 484.6 488.1 488.5 485.4 478 453.1 463.8 477.8 490.2 504.4 516.2 530.9 543.7 555.1 570.5 584.2 599.6 612.6 628.1 640.1 658.5 673.7 690 708.2 723.8 740.1 755.1 769.7 783.2 794.3 803.9 809.7 811.7 808.1 803 793.6 786.2 772.1 757.4 738.3 719.1 702.2 686.2 667.9 650.9 636.9 642.5 647 650.5 655.4 657.4 655.3 651.9 647.5 640.6 633.8 626.7 618.9 614.5 606.7 602.5 594.7 585.2 575.1 563.7 554.5 542.5 526.8 511.4 475.3 438.3 397.7 363.1 348.3 347.3 347.5 347.1 347.1 362.1 382.1 408 424.2
397.4 403.3 414 424.2 430.9 432.1 425.3 412.8 390.1 374.4 366.8 357.6 350.8 337.6 323.9 302.9 287.1 279 274.9 258.1 247.2 244.9 238.9 232 224.4 221.7 225.9 227.8 228.3 237.8 245.2 251.5 258.7 263.5 268.6 273.6 277.2 281 282.6 282.6 280.5 278.4 273.4 278.4 277.9 281 285.1 289.1 293.7 304.2 317 329.1 338.5 345.3 352.8 360.2 376.6 398.6 421.4 442.3 463.6 486 506.2 524.3 537.5 547.6 555.1 561.9 567.1 571.5 576.1 578.2 578 574.8 568.7 563.2 559.7 552.5 542.5 533 520 504.6 488.9 473.5 457.1 443.4 439.6 444.2 460.9 477.5 490.2 502 509.5 513.8 512 507.1 498.7 490.2 493.1 501.5 509.8 512.7 511.9 503.5 491.6 476.6 458.6 444.1 426.1 411.7 406.7 417.5 427.2 446.7 462 474.3 484.5 490.9 498.1 501.2 499.9 496.7 488.4 469.3 465.1 476.6 488.3 503 515.2 530.2 543.1 555.7 572.2 587.7 602.1 616 628.9 641.5 657.5 671.8 688.6 704.6 721.5 736.7 751.4 767.1 781 791.4 801.3 808.9 810.9 807.9 802.2 792.7 785.5 773.7 758 736.4 714 692.9 677.7 663.3 650.5 655.2 661.1 666.3 670 672.7 672.3 668.2 664.1 657.9 649.6 642 633.6 624.6 618.1 611.5 605.2 595.6 583 571.6 553.9 539 528.5 517 502.6 468.9 430.8 393.2 361.5 349.7 348.7 349 348.7 348.6 358.6 382.6 406.3 434.4
408.7 412.2 420.6 428.3 433.1 433.7 429.4 417.7 397.7 383.9 374.2 367.7 358.9 353.1 339.8 319.8 301.5 291.9 284.3 267.9 262.6 256.1 243.5 233.2 224 222.2 224.8 226.9 232.5 241.5 248.3 256.8 264.3 270.9 279.3 284.9 290.8 295.7 298.3 298.7 296.2 293.7 291.8 290.6 287.7 280.5 282.8 287.8 291.6 296.7 303.3 313.5 321.6 327.2 344 359.1 378.7 399.1 419.9 438.8 458.9 480.8 499.8 513.7 527 538.2 545.6 552.3 557.4 560.9 564.9 565.6 563.8 559.4 555.4 553.3 549.5 545.5 539.9 531.3 519.9 505.5 490.9 477.9 462.6 443.4 448.5 455.5 471.3 485.4 498.7 511.2 521.6 526.5 525.7 520.2 512.8 507.9 515.6 525.4 532.5 534.6 532.6 525.7 512 493 471.6 452.3 438.5 427.1 421.2 417.9 430.4 447.7 463.4 481.9 495.4 503.1 508 511.2 513.7 511.3 499.5 483.4 465.8 473.2 484.9 498 511.7 527.3 542.1 555.2 573.2 588.7 603.5 616.4 629 641.2 655.4 669 685.8 700.2 715.6 731 745 760 774.6 786.4 797.3 806.2 808.6 806.8 800.5 793.8 784 775.3 761.6 743.6 718.2 698.1 682 667.5 668.9 675 679 682.4 684 683.9 682.1 677.8 672.9 665.1 655.1 646.5 638.4 629.8 622.9 614.6 607.4 595 580.3 563.6 541.1 523.6 512.3 498.8 484.7 454.5 419.6 383.1 359.3 351.3 349.6 350.4 350 350.2 357.4 378.4 411.3 443
420.2 422.3 430.6 434.8 437.6 435.1 430.2 421.5 408.4 394 382.7 373.4 365.3 362.7 357.4 337 312.4 300.7 293.3 279.1 275.3 266.1 252.9 237 224.9 221.9 223.6 225.6 233.5 241.6 250 260.1 272.5 284.9 296.3 303.6 310.5 317.2 319.9 320.6 317.1 313.4 309.8 307.9 303.7 297 292.8 287.4 289.9 294.4 299.6 308.1 315.5 326.9 340.5 357.5 376.8 395.7 412.1 428.8 449.7 469.4 483.8 496.9 510.4 523.9 533.4 540.5 546.4 549.7 552.6 551.4 547.9 542.2 542.3 541.8 540.6 538.4 534.3 527.6 518.1 504.6 493.7 480.9 462.2 464.7 462 466.1 481.3 495.1 508.8 522.8 532.9 538 537.7 534.5 530.8 530.8 536.5 543.4 547.9 549.1 547.5 540.1 526.9 506.4 482.7 465.7 451.1 440.9 435.5 426.4 430.6 449 462.6 482 499.2 511 516.3 520.3 524.6 522.1 509.9 497.3 483.7 474.1 483.8 491.6 504.4 521.2 538 554.8 572 587.7 600.9 613.6 627 639.1 652.4 664.5 678.9 693 708.7 722.5 735.9 747.7 763.8 777.7 789.1 799 804.4 803.2 799.2 792.4 784.4 775.1 764.6 750.5 730.4 711.8 694.5 678.2 688.5 693.2 694.8 694.1 692.8 690.8 687.6 683.3 677.9 669.6 660.1 649.7 640.3 632 625.3 617.4 606 590.5 575.1 553.3 528.3 511.6 494.8 474.4 461.7 436.3 403.8 374.5 357.3 353.5 351.9 351.9 351.7 352.8 357.2 379.4 410.1 453.9
432.4 433.7 439.3 440 441.5 437.6 430.4 420.4 409.5 398 389.4 378.6 372 372.5 366.4 351.4 323.5 308.6 303 292.6 283.7 273.6 259 236.8 227.1 222.5 224.2 224.2 231.8 242.4 254.2 265 281.6 300.4 315.1 324.7 332.3 340 343.7 345.4 341.5 337.4 333.7 329.9 323.2 316.1 307.6 301.4 291.3 292.4 294.3 298.8 306.2 317.4 330.6 345.8 364.6 382.6 397.7 416 435.3 451.6 465 477.6 491 504.8 516.6 526.9 533.9 538.4 539.1 537.1 532.7 531.3 531 530.2 529.3 529.1 527.4 523.1 513.6 503.6 495.9 486 483.7 480 476.9 479.1 489.9 504.9 519 531.7 542.3 547.7 550.4 549.8 547.4 549 553.6 559 562.1 563 559.9 553.3 539.3 519.1 500.7 484.3 468.3 458 452.2 440.8 429.4 451 465.3 482.7 499.5 514.1 526.3 530.9 533 533.6 526.1 509.2 495.7 478.7 483.9 488.2 496.5 511.8 529.1 548.3 566.9 582.8 596.5 609.5 622.2 634.9 647.3 658.9 670.9 684.1 697.4 712.1 725.6 736.8 752.9 767.4 780.4 791.1 797.8 798.5 796.1 789.6 784.7 775 766.3 755.3 740.4 722.5 700.2 701.2 706.3 707.9 705.9 703.2 699.9 696.4 691.5 685.5 678.4 670 660.5 648.4 640.5 631.3 624.7 615.7 598.5 583.5 562.7 538.7 515.8 497.9 482 458.4 437.5 417.2 389 369.1 361.3 356.3 353.3 353.2 354.2 355.2 358.5 386.9 424.5 457.2
443.8 445.5 446.7 446.2 445.2 438.7 429.4 417.3 405.7 397.8 388.6 382.6 379.3 378.3 373.7 358.7 331 314.3 307.1 300.2 289.8 267.5 250.7 234 228.1 224.1 224.7 224.5 228.8 242.9 255.4 270 289.9 314.8 334.8 346.8 353.8 361.1 364.6 366 364.4 361.1 358 353.6 344.4 334.2 329.8 323.9 318.3 312.7 306.3 298.6 301.6 307.5 318.2 331.3 348.1 365.3 381.1 397.9 413.2 428.7 442.5 455.7 469.9 482.7 495.3 507.7 519 524.1 523.6 519.3 514 511.7 513.3 515.2 517.2 520.2 521 517.8 512.2 502.8 501.7 501.8 498.2 492.1 488.5 492 500.3 513.4 526.3 537.3 548 556.7 560.5 562.6 561.2 561 567 572.5 574.7 573.6 569.8 564 552.8 537.5 523.9 505.2 487.6 475.6 466.6 454.7 437.7 449 468.5 484.1 501.5 517.2 533.3 539.2 540.9 540.5 536.1 525 506.4 493.1 484.8 488.4 494.2 503.9 518.6 538.3 559.3 575.7 588.9 601.9 615.3 627.2 639.1 650.5 662 673.9 686.2 699.4 714.2 725.3 741.3 758.7 770.5 782.3 789.9 792.7 791.5 788.5 783 775.1 766.6 756.5 744.8 732.2 721.2 720.9 721.3 717.7 714.2 710.6 705.8 700.7 692.7 685.4 677.2 667.9 658 645.4 636.9 628.6 620.7 606.9 589.4 567.9 547.6 522.7 502.1 482.7 462.5 437.4 409.8 394.9 383.6 371.9 364.4 358 355.7 355.6 356.6 357.6 362.5 394.5 436.5 469.3
455.8 456.7 454.8 451.8 447.2 438.5 429.4 415.3 402.2 391.7 383 379.5 375.1 377 375 360.7 341.4 323.3 311 302 285.4 258.3 241 235.7 225.3 225 224.3 225.3 225.4 242.6 256.6 275 297.4 325.7 352.6 369.1 376.9 384 386.1 386.2 384.7 382.9 379.9 373.5 363.7 351.1 353.8 350.9 344.8 336.7 328.2 317.8 304.7 304.3 307.8 316.9 329.7 344.7 360.9 376.3 390.8 405.5 418.5 433.7 446.9 458.8 470.7 484.7 497.5 504.4 503.9 494.6 490 487.3 488.2 493.1 498.3 506 510.7 510.8 511 508.2 510.1 512.3 510.5 500.8 498.9 501.2 510.7 523 533.8 542.4 551.9 561.2 568.1 572 573.7 574.7 578.6 584.9 586.6 582.8 578.6 572.1 562.5 547.5 534.7 520.3 507 491.2 480.5 465.8 448.7 450.4 469.3 486.9 500.7 521.4 536.6 545.6 547.8 547.5 542.9 536.7 517.6 504.7 498 492.7 496.9 503.1 511.6 527.3 547.7 564 579.3 592.5 605.8 616.2 627.4 637.3 649.9 661.5 671.6 687.3 702.5 717 731.4 749.9 764 774.9 784.5 787.8 788.7 786 780.2 774.8 765.5 757.2 750 742.7 737.2 733.4 729.5 725 720.6 715.5 709.5 702.1 693.2 683.2 673.6 663.8 653.1 639.3 630.3 621.1 610.7 592.9 571.5 550.6 532.2 509.4 489.8 468 445.8 436 435 411 385.2 369.5 363.2 358.6 357.6 357.8 359.8 360.9 365.1 398.7 438.2 473.6
464.7 464.5 461.6 455.3 446.3 435.2 424.9 413.3 398.9 386.6 377.1 373.8 367 364.1 365.9 359 343.6 325 308.2 297 271.6 251.3 239.2 230.7 225.1 225.6 223.2 225.2 226.2 242.7 257.4 277.6 303.5 335.9 366.6 386.3 395.4 401.7 404.9 404.7 403.9 402.1 399.3 392.9 382.1 373.9 378.8 378.2 371.3 364.2 355.3 344.5 329.6 317.2 307.3 310.5 316 327.8 340.3 351.9 367.1 382.5 395.3 410 421.3 430.3 443 459 471.3 479.3 475.3 462.9 455.4 454.8 457.8 464.7 469.7 482.2 490 496.5 505.4 508.6 514 519.3 519.7 514.1 508.1 510 518.1 529.7 539.2 547.6 557.3 566.9 575.3 581.2 585.7 588.3 593 597.2 597.5 592.8 586.6 579.6 569.1 554.7 541.6 529.3 516.8 504.4 490 478.2 459.2 452.5 471.9 486.5 504.7 522.6 535.9 549.1 554 554.3 550.7 544.9 530.4 517.8 512.2 504.1 500.2 502 507.6 516.5 528.1 543.4 561.4 576.9 590.4 602.3 613.9 625.2 636 645.8 658.3 675.2 690.3 708.2 723.1 741.3 758.1 768 780 785.2 786.5 784.5 779.2 773.4 763.4 757.7 752.1 746.7 743 739.3 735.1 730.7 725 718.4 711.8 702.5 690.3 678.6 668.3 658.8 645.7 630.7 620.1 609.8 595.9 575.5 554.2 537.3 518.2 498.9 477.2 471.4 467.1 460.7 439.2 410.8 383.9 368.7 362.3 360.5 363 364.2 366.1 366.7 370 402.1 442.2 476.7
470 467.8 462 453.1 443 430.9 420.2 408.8 394.9 383.9 373.7 366.4 361.6 353.5 351.8 351.3 342.4 327.7 302.1 282.9 258.4 243 228.5 226.9 225.2 225.9 224.1 225 226.1 242.3 258 282.1 311.5 347.4 381.8 400 409.5 415.7 419.9 420.9 421.3 420 415.7 410.8 399.1 390.6 400.5 401.8 398.3 390.5 380.5 369.8 355.9 341.4 329.3 323 315.6 317.4 325.5 335.2 345.4 358.4 370.7 383.2 391 399.9 413.8 431 438.7 446 445.5 427.1 419.7 419.2 423.8 430.4 439.8 451.6 462.4 474.3 485.2 496.8 509.6 519.2 522.6 520.8 517.5 514.8 523.2 534.5 544.4 552.8 562.4 572.2 581.5 589 595.5 600.3 605.4 609.3 608.9 603.6 594.2 586.2 574.8 561 546.9 534.7 523.1 512.2 500.5 488.1 467.2 458.8 474.3 492.5 507.1 521.8 537.7 551.7 560.4 561.8 558 553.7 546.5 534.7 525.1 518.4 514.6 511.4 506.9 509.5 516 523.4 537.9 552.7 567.7 585.1 598.5 610.3 619.5 629.6 645.6 666.3 684.9 702.5 718.2 737.1 754.5 766.1 778.1 784.2 786.6 784.6 779.2 772.7 763.3 757.7 753.7 749 745.3 742.3 738.8 734.8 728.6 721 711.4 701.1 687.9 676.1 665.1 652.1 635.7 619.9 606 593.7 575.6 560.7 542.2 523.5 505.4 498.5 495.9 493 484.3 466.7 439.6 411.8 385.6 370.8 364.7 364.6 369.1 373 376.9 373.8 372.3 400 439.1 476.8
474.2 466.9 455.8 446 436.4 425.9 415.1 402.6 391 379.2 370.6 361.6 353.7 345.9 339.4 335.3 326.6 316.4 290.6 268.2 248.4 229.9 227.2 226.2 225.9 226.1 224.2 225.6 228.1 243.5 261.3 287.4 315.8 351.9 390.1 413.3 424.9 430.5 433.4 435.7 435.7 435.4 431.4 425.1 412.1 407.3 418.8 422.3 425.2 419.2 408.7 396.1 381.8 368.6 356.6 346.9 337.1 322.5 319.4 325.7 331.2 338.4 345 351.6 360.5 370.8 384.3 395.9 402.2 406.7 400.3 393.9 388.4 391 394.4 399.2 408 419.4 432 445 459 473.5 489.6 507 515.8 517.6 517.8 520.5 527.7 538.1 548.7 558.5 567.6 577.4 586.8 595.9 603.6 610.2 615.4 619.8 619.3 611.8 602.5 592.1 578.9 564.9 550.9 538.6 526.8 517.1 506.6 493.8 474.7 467.7 482.8 497.8 508.2 522.9 539.6 553.6 564.7 569 567.6 563.6 558.6 549.8 540.2 532.6 527.9 525.2 523.9 522.1 520.5 519.9 523.2 533.5 546.7 562.5 576.9 586.1 603.3 623.6 644.6 664 679.7 697.1 712.7 732.6 750.9 764 776.5 784.6 787.3 784.9 778.7 772.3 765.3 757.4 753.3 749.7 747.1 744.4 741 736.9 730.8 722.1 710.6 700 686 673.9 661.7 645.4 622.1 605.7 589.1 576.6 561.3 545.9 531.7 522.5 518.2 517.4 516.6 512 501.2 472.3 440.4 414.2 389.2 375.2 368.4 371 378.5 386.4 389.8 384.5 384.2 387.8 424.6 450.3
472.3 462.7 449.4 435.6 427.4 418.9 407.7 395.4 385 372.9 366.4 355.1 345.9 337.4 326.6 317.7 308 295.4 275.7 257.3 242.5 226.1 225.9 226.6 226.2 226.2 224.8 226 226.5 246.6 265.3 289.1 316.6 351.5 387.2 419.1 435.4 441.8 445.9 448.7 448.1 446.7 442.3 437.5 428.7 420.9 431.4 441 445.9 442.7 433 419.2 407.4 394.8 384.6 374.1 362.6 352.9 343.9 338.1 328.9 330.8 334.6 338.4 343.3 350 359.4 365.6 370.8 373.3 373.1 372.2 375.7 378.8 382.9 386.1 390 395.3 402.7 414.8 430.2 446.7 463.7 481.8 495.8 506.3 514.5 521.4 531.6 542 552.2 562.5 572.7 582 590.6 601.5 610.7 619.2 625.3 628.1 627.5 619.7 608.2 596.9 583.2 567.5 553 541.6 528.4 518.5 508.2 496.7 476.8 479 487.7 501.8 513.4 528.7 541.1 556.5 569.4 575.3 576.1 573.5 568.3 564.2 556.7 548 542.9 538.4 536.5 535.8 535.3 533.5 530.6 531.2 539.4 550.7 565.9 585.3 603.8 623.1 643 660 676.6 692 709.7 727.6 745.9 761.3 774.7 784.1 787.6 784.6 779.2 772.4 765.1 756 753 750 747.6 745.1 742.1 737.7 730.9 722.7 711.8 700.2 685 673.6 662.3 649.1 628 611.2 589.3 570.9 557.8 549.5 543.3 537.3 536.4 535.3 535 532 510.3 481.1 447.5 419.5 391.6 377.9 371.1 380 391.2 397.9 403.2 398.3 410.1 394.5 402.1 422.3
466.2 455.9 442.6 430.6 418.9 405.5 396.2 387.3 375.1 364.9 356.6 346.5 337 325.1 312 298.3 287.7 274.5 262 251.2 231.9 227.9 226.8 226.7 226.4 226.1 225.9 226.7 228.4 247.2 263.1 287.9 316.2 351.5 387.4 416.9 437.4 447.9 452.2 454.3 453.9 451.7 448 443.3 435.5 436.1 439.6 452.4 461.2 463.3 456.8 444.1 432 419.8 410.3 401 390.6 381.6 372.7 365 356.1 348.2 333.7 336.3 338.4 342.6 344.6 351.1 354.7 358.4 361.2 363.3 366.7 369.4 373 376.3 380.9 386.6 390.4 395.5 402.5 418.9 437 454.9 471.9 488.6 503.2 519.3 532.5 544.1 554.4 565.7 575.5 585.1 594.2 604.7 615.3 623.6 631 634.9 634.3 626.9 615 599.9 587.5 572 556.4 544.4 531.1 517.7 509.5 498.7 478 485 491.5 505.6 519.9 532.6 544.9 562.4 572.3 578.9 581.8 582 581 578.6 574.3 563.9 556.7 552.8 550.5 547.6 547 545.5 541.9 540.6 544.1 550.3 564.1 583.4 601.8 619.6 637.7 657.1 672.8 687.6 706 723.1 743.1 757.6 771.1 782.1 785.2 783.7 777.9 770.7 764.1 754.8 749.3 747.7 745.6 743.5 741.7 737.3 730.8 721.5 711.2 702.6 688.2 676.5 664.7 654.7 636.3 614 595.4 582.2 576.1 564.8 557.6 555 557.7 556.1 554.8 549.9 519 489.2 455.3 424.5 396.5 378 375.9 388.5 401.4 412.9 421 422.1 432.2 425.9 421.5 436.7
463.7 451.5 436.6 422.5 410.5 397.6 384.8 376 362.3 355 346.9 337.1 329.1 323.8 317.6 303.7 284 266.7 247.6 245.1 228.8 227.9 227.8 227.1 226.7 226.4 224.6 226.2 237.1 248.8 265.4 286.7 317.4 352.6 387.6 415.4 435.1 446.9 453.2 455 453.7 450.8 445.6 440.8 437.5 440.5 445.5 458.1 471.3 479.9 476.4 464.5 453.3 443.3 432.9 424.3 416.5 408.8 401.9 393.6 384.4 374.9 367.3 363 363 360.6 360.6 356.4 353.4 353.7 356 359 362.7 365.7 368.8 371.7 375.7 379.1 382.8 386.4 392.6 400 412.7 429.9 451.4 470.3 489 507.2 527.2 541.7 555.9 567.5 577.3 586.8 595.2 604 615.8 624.8 633.5 637.8 637.8 631.5 618.8 602.6 590.2 575.8 558.5 546 533.9 521.6 512.4 502.4 487.3 487.3 495.7 508.6 524.3 537.5 551.8 565.7 575.2 581.6 586.7 590.7 593.6 592.6 590.1 583.9 574.5 568.7 566.3 563.7 559.3 557.2 554.1 549.4 556.9 555.7 564.8 580.8 597.7 617.8 634.6 653 670.2 687.3 703.7 721.1 738.6 757.2 771.6 779.2 782.7 781.6 776.3 769.5 761.7 750.5 743.5 741.6 739.8 740.4 739.3 735.6 730.4 723.6 716.2 706.5 693.1 682.2 670.5 656.9 642.3 621.8 604.9 600.7 597.6 588.6 581.9 578.1 578.6 576.9 572.2 561.6 529.5 493.5 459.5 427.4 396.4 378.6 385.7 402.2 416.7 433 440.7 440.1 449.2 453.2 455.7 468.8
464 450.9 434.4 419.6 407.7 395.5 385.3 379.6 373 365.4 356.7 350 342.2 334.6 324.3 306.9 283.7 262.2 245.4 234.4 228.6 228.5 228.2 227.5 227 226.8 223.7 229.6 239.8 252 266.2 287.8 319.4 354.5 386.2 412 432.9 444.2 449.8 449.9 446.2 441 435.7 431.4 430.8 436.7 440.8 450.1 466.3 481.8 489.9 482.2 472.7 466.3 456.3 447.8 439.8 434.1 429.4 423.3 413.8 402.9 396.4 393 392.4 391.8 393.7 387.1 384.6 381 376.4 372.1 373.7 372.6 373.3 375.7 374.4 375 383.1 386.4 388.5 393 401.2 411.6 429.9 451.3 471.5 493.6 512.4 534 553.4 567.5 577.6 585.5 591.7 598.6 610.7 621.9 631.3 637.2 638.5 634 620.7 607.6 592.6 579.4 561.4 549.1 538.9 525.7 515.8 506.2 496.1 487.6 499.8 512.1 529.2 541.7 555.3 567.4 576 584.7 593.3 599.1 603.6 605.1 603.5 603 596.9 587.6 582.3 578.9 574.6 572.3 567.8 560.2 568.1 568.5 570.3 585.1 601.9 619.2 635.7 653 670.9 687.1 703 719.8 738.9 755.9 771 777.8 780.3 778.4 773.7 767.4 759.2 745.3 736.6 729.7 730.7 733.8 734.6 731.7 729.2 724.1 718.2 709.6 698.9 686.2 672.5 660.2 650.7 631.8 625.5 621.8 621 616 607.6 605.3 600.8 595.7 584.8 569.9 531.9 498.1 461.8 428.2 396.1 381.9 394.7 418.3 436 451.6 460.8 464.6 467.2 475.4 484.7 493.5
465.5 450.8 434.8 420.9 409.7 397.7 391.4 384.5 376.5 370.3 365.1 359.5 351.4 340.7 329 304.4 276.8 256 242.6 229.6 228.7 228.5 228.3 227.9 227.3 227.1 224.9 235.7 243.6 254.3 266.7 290.7 321 354.9 381.5 406.1 426 438.5 441.5 440.3 435.4 428.3 422.8 418.1 419.7 425 431.1 438.6 454.6 470.7 484.3 490.9 487.2 482.3 476.9 471.2 463.8 458 454.2 448.2 440.4 429.9 423.5 420.9 420.6 422 422 419.9 416.1 410.5 406 400.5 396.4 390.3 390.1 390.7 391.6 386.6 380.2 386.1 388.7 391.3 396.1 404.7 415.4 431.7 452.7 474.6 498.3 523.3 545.3 563.4 573.6 580.5 586.7 593.5 600.9 613.8 624.1 632.5 636.2 633.8 623.1 610.6 597.2 582.3 567.6 554 543.3 534 522.1 510.2 508.9 497.1 502.7 512.9 529.1 543.5 556.4 568 578.8 588.6 597.9 605 611.9 616.4 617.8 617.4 614.7 608.7 602 599.4 593 588.6 582.2 567.4 578.3 584.7 573.1 587.4 602.4 620 638.2 653.1 672.3 686.7 705.4 721.8 741.5 758.5 770.7 776.8 779 777.8 773.7 767.2 751.2 737.8 723.9 716 718.6 722.8 725.8 727.4 726.2 723.2 719.2 710.9 702.3 689.7 678.8 672.2 663.3 653.2 647.3 641.3 639 632.8 624.8 617.5 612.7 605 591.8 574.8 534 496.3 460.4 427.1 397.3 384.4 401.8 434.2 453.3 468.9 481 485.6 485.6 492.4 505.5 511.9
469.9 452.6 436.6 424.4 412.2 402.6 398.4 390.5 380.9 376.7 371.7 366.4 359 345.5 326.1 296.6 268 250.1 231.9 228.6 228.8 228.6 228.3 228 227.6 226.6 228.4 237 246.7 257.1 269.8 293.3 321.3 353.6 381.2 400.6 417.7 427.7 430.4 425.6 419 411.2 406.5 403.3 405.5 410.7 417.7 426.1 441.5 456.9 472.3 484.3 492.6 495.7 493.8 488.7 485.2 480.4 476.9 471.9 465.8 454.8 446.5 445.1 444.5 442.3 447.2 446.1 443 438.1 434.1 430.3 424.5 419.4 417.4 415.2 409.6 401.6 393.5 391.6 389.6 392.1 395.8 399.9 408.6 419.5 436.7 459.6 486.9 514.4 539.6 554.9 561.9 569.8 576 585.9 595.7 603.7 616.7 626 631.1 628.9 621.4 612 599.3 584 573 560.8 547.6 538.5 527.4 523.8 517.5 509.2 504.4 514.5 523.9 539.3 554.7 566.1 580 591.3 600 608.3 617 622.5 626.6 628.3 629 629.1 626.6 621.9 614.3 607.6 599.7 582.3 591.3 598.2 594.3 586.2 602.9 617.3 636.4 655.7 672.4 690.3 706.9 723.9 743.8 759.5 771.3 776.6 779.7 778.8 773.9 767.6 752.2 736.8 718.8 705.2 704.2 711.6 716.4 719.8 721.8 720.6 717.9 712.6 703.6 693.1 689.3 682.4 674 665.8 660.4 654.8 650.5 643.6 633.6 625.5 617.1 608.5 595.4 574.9 532.4 494.8 459.6 426.4 396.9 387.9 414.6 443.9 467.9 486.5 501.1 507.6 504.2 510.4 521.2 526.1
473 456.7 441.7 428.4 414.6 409.4 402 396.2 387.4 383 375.6 370.9 361.3 342.5 318.8 287.4 262.1 246.2 228.7 228.2 228.3 229.2 228.5 228.3 227.9 223.1 235.3 241.2 248.6 259.5 271.1 293.4 323.5 352.1 374.8 393.4 405.5 411.1 409.1 404.8 399.9 393.1 387.6 382.4 384.6 392.4 402.6 411.8 423.2 439.8 456.3 470 477.8 482.8 486.2 490.9 493.6 492.6 496.5 493.3 489.4 478.1 470 467.6 468.4 468.3 472.4 469.3 467.3 463.1 458 452.9 449.3 444.3 441.6 439.7 429.8 422.4 415.2 409.7 403.6 393 398.2 399.9 405 414.4 426.6 448.2 474.5 504.5 529.4 540.1 546.5 556.1 567.1 575.9 590.4 599.2 610.2 619.1 624.5 623.9 618.2 609.1 599.4 587.4 575.9 564.6 552.2 543.2 533 532.8 528.5 520.4 510.9 515.3 528.6 543 549.3 562.2 578.4 589.9 600.9 610.9 619.6 626.9 633.4 636.6 638 640.1 640.6 639 632 625.8 615.7 595.4 607.2 613.9 613.1 608.9 605.1 616.4 634.6 653.4 671.3 689.8 708 725.3 743 760.5 772.7 778.6 783 781.3 776 768.2 754.5 738.1 718 700.1 695.4 698 705.1 710.6 715.3 718.1 716.9 712 705.3 704.2 699 693.2 685.5 677.6 670.6 663.4 655.8 647.9 637 625.3 618 606.9 594.6 570.8 529.9 492.6 458.9 424.2 399.3 391.4 422.4 456.4 479.7 499.8 517 523.9 526.8 529 535.5 537.2
475 459.7 444.2 430.7 419.6 414.6 408.1 401.8 392.3 387 379.8 372.5 358.9 338.8 308.8 276.4 256 241.6 228.9 229.2 228.7 229.2 228.9 228.6 228.2 223.5 238.4 243 250.7 262.4 274.6 290.8 318.7 345.7 368.2 380 384.1 383.9 381.2 377.3 372.6 367.3 362.9 359.8 361.6 369.4 381.9 393.4 405.5 420.7 437.2 449.1 453.9 456.5 460.9 467.6 475.5 484.8 494.2 502.1 502.8 499.2 494.7 489.8 490.7 495 497.7 497.4 492.7 487.4 484.5 476.1 470.4 462.2 460.3 456.9 450.3 447.1 442.5 435.1 424.9 409.9 397.9 401.5 404.9 413 423.2 439.4 464.5 492.9 512.7 522.4 532.7 544 562.6 574 586.1 593.4 605 614.1 618.6 618.1 613.8 606.6 597.7 587.8 576.9 566 557.4 547 542.7 546 544.1 535.5 525.6 519.6 529.5 548.4 558.5 570.4 577.5 588.6 601.3 611 622.4 630.8 638 643.1 647.4 648.9 649.5 650.7 649.3 642.2 625 608.1 624.7 631.9 631 624.8 626.6 623.5 629 648.2 669 687.7 707.9 724.6 743.3 760.2 772.7 781.9 785 783.9 778.3 767.7 754.5 738.2 718 700.6 683.1 683.7 691.3 699.8 705.7 711.5 714.8 710.5 713.8 712 708.5 704.9 698.4 690 679.6 670.9 660.5 648.6 636.8 623 613.3 603.1 591.6 568.2 528.9 492.7 456.6 424.4 403.1 396 429.3 465.7 491.9 512.6 528.9 535.9 543.7 545.6 545.8 546.3
471.4 459.1 444.6 430.7 423.9 420 412 406.8 396.2 386.4 382.2 371.8 352.1 329.2 297 267.5 252.3 233.9 229.5 229.9 228.9 227 228.7 227.7 227.9 238.9 240.1 245.5 253.1 264.5 276.2 288.8 312.7 336.9 348.2 350.3 350.2 349.5 347.8 345.9 341.3 340 334.7 332.1 334.6 341.7 354.2 369 382.2 395.8 411.2 420.4 423.7 426.6 430.4 438.3 446.6 458.2 472.9 484 493.9 503.6 508.6 509.2 513.1 522 524.8 523.9 517.8 513.5 508.1 499 491.6 483.3 479.6 476.2 471.4 468.2 464.6 460 448.7 427.2 404.5 403.9 405.8 411.1 420 433.4 455.1 477.1 494 511.4 525.8 545.2 563.1 574.7 584.7 592.8 599.7 608.7 612.3 612.6 609 603.9 595.7 587.9 578.1 570 561.8 552 554.5 556 554.5 550.7 540 524.1 534.7 551.6 566 577.7 587.7 597.2 604.9 613 623.8 631.8 640.8 648.3 655.9 660.3 659.4 659 658.4 654.5 634.4 627.8 643.9 651.9 651.1 643.3 640.9 642.7 640.7 645.7 663.6 686.2 705.8 727.7 744.4 759.3 773.6 783 785.9 783.6 777.7 763.6 752.9 739.4 715.8 698.1 682.6 671.7 672.6 684.1 695.7 704.2 711.4 714.8 716.8 719.6 720.5 716 709.3 700.8 688.2 675.7 661.8 648.6 632.3 619.9 609.8 598.1 584.1 564.3 527.1 491.2 453.2 420.9 399.3 403.2 439.7 475.4 504.1 524.4 538.8 547.6 555.7 558 554.5 552.4
467.5 452.7 435.2 425.6 424.2 417.7 412.8 408.8 398.6 384.9 377.8 364.7 342.8 316.1 284.8 262 247.3 233.4 230 229.4 227.5 228.5 229.5 233.7 239.3 240.1 243 248.2 255.8 264.7 277.8 289.8 306 315 318.4 318.2 317.2 315.1 311.9 308.3 299.8 300.4 301.5 301.2 306.1 313.2 325.5 340.2 355.3 370 383.6 389.1 390.9 393.1 397.4 405.2 417.1 430.4 446.3 463.2 479.3 493.3 506.1 518.9 530.1 545.4 548.9 544.7 540.4 534.7 528 519.7 511.8 505.7 497.8 493.6 491.1 489.3 486.2 481.5 472.4 449.4 424.1 404.2 408.5 411.5 418.5 431.4 448.8 469.9 491.3 512.3 534.7 552 565.3 574 585.4 591.4 596.9 602.8 606.3 606.5 604 599.5 593.1 586.2 577.5 570 563.7 556.1 562.5 564.1 564.6 562.4 554.9 541.9 533.3 551.4 570.6 582.3 593.2 603.2 610.9 618.7 626.5 633.2 641.3 652.3 660.2 667.2 666.8 666.4 666 663.3 642.9 647.7 657.9 665.2 666.5 664.1 659.6 658.3 658.5 663.6 672.2 689.6 709.9 728.8 744.1 763.6 775.8 781.8 784.9 780.9 771.3 761.4 751.6 734.9 714.2 695.6 680.5 661.6 658.2 672.3 687.3 699.3 707.8 714.1 719.1 723.5 726.9 722.6 714.9 706.1 693.1 678 661.7 645 628 614.3 603.8 589.9 575.5 554 522.6 489.4 452.2 420.5 402.2 412.2 447.9 485 513.7 534.5 548.6 558 565.7 565.9 560.6 555.9
457.2 439.3 422.9 413.1 414.1 412.2 409.4 407.5 392.7 380.4 370.5 356.6 334.6 305.5 274.8 256.1 244.5 230.5 229.6 227.9 228.8 229.2 229.8 236.7 240.6 241.7 243.5 248.2 256.2 266.7 277.9 287.1 292 291 290.7 288.2 283.7 280.3 278 276.9 274.8 273.7 276.2 277.8 282 288.1 296.9 312.7 329.3 341.8 352.2 355.7 357.2 358.9 362.7 372.4 385.5 402.4 421.8 439.8 459.9 478.1 497.2 514.1 529.6 542.7 549.8 550.4 548.1 546.5 544.7 541.1 534.3 525.6 519.5 514.7 510.7 509.2 506 501.8 491.7 469.7 445.9 423.2 408.5 413.1 417.8 427.7 443.7 468 493.2 517.5 539.2 555.6 568.3 576.3 584.5 589.8 594.5 598.2 601.9 602.3 600.6 597.3 592.5 585.7 579.7 571.2 566.3 564.4 569.5 571.2 572.8 573.8 569.8 557.5 537.2 549 573 586.6 598.5 608.8 617.1 624.5 632.3 639.5 645.6 654.1 663.1 669.8 671.9 672.5 672 670.6 656.7 663.1 668.2 675.4 678.9 680.9 680.5 678.1 677.8 683 690.9 704.8 723.2 735.4 753.2 769.2 777.9 782.9 782.5 775.8 768.1 759 746.7 727.9 709 689.2 674.2 658.5 648.6 663.2 679.2 693.5 705.2 714.8 721.8 728.6 731.9 728.1 719.5 708.4 693.8 677.3 657.5 639.3 623 608.7 595.9 580.4 562.2 542.3 517.2 481.9 447.6 418.9 406.5 423 457.2 494.7 523.7 543.7 558.8 568.2 574.4 573.8 569.6 563.8
444.7 425.7 410.1 395.6 396.1 398.7 398.7 397.1 385.1 375.6 365.1 346.8 322.5 294.9 267.1 251.4 242.2 230.3 228.8 229.6 229.7 229.5 229.7 235.8 238.8 241.1 243.1 247.7 255 264.9 273.9 276 275.1 268.5 266.3 264.3 265.2 266.9 269.4 270.8 273.1 278.3 275 277.4 279 280.5 283.9 293.2 303.7 314.4 320.9 324.6 325.2 325.6 330.7 339.7 355.3 375.1 396.5 418.3 439.7 462.5 483.6 503 519.5 531.7 541.5 547.1 548.7 551.9 555.6 555.6 553.8 547.4 539.3 533.8 532.6 531.9 530.4 526 508.8 484.5 466.2 444.5 426.9 413 418.6 424.2 438.3 461.4 487.8 514.9 537.3 552.9 564.5 574.5 582.4 587.7 591.2 594.3 597.2 598.3 597.7 594.5 590.7 585.3 580.1 573.4 568.3 571.3 575.6 578.2 580 582 582 573.1 548.9 553.3 569.8 589.8 602.5 613.8 621.5 630.5 639.1 646 651.2 657.4 664.8 670.5 675.3 677.1 678.1 677.7 675.5 677 679.7 684.2 692.2 696 701.9 703.4 699.1 703.8 710.4 721.6 735.4 748.8 761.7 773.1 780.7 782.9 780 771.4 765 753.3 740 720.5 701 681.4 666.3 650.5 638.9 654.4 672.2 687.1 701.3 712.4 723.6 733.1 732.5 728.2 720.7 706.1 689.2 672.5 650.9 633.5 617.6 601.2 588 570.6 551.5 535.4 506.5 472.2 441.2 419.3 413 433.8 467.9 500.2 530.1 554.9 569.4 580.8 584.9 583.5 578.6 571.4
434.7 414.3 400.5 386.5 377.5 380 384.6 383.9 377.5 368.2 353.9 336.4 310.1 286.7 260 248.2 239.7 230.8 228.7 230.3 230.3 231.7 232.5 232.8 235.7 238.8 242.9 246.8 253.1 261.5 265 262.3 259.9 260.6 265.5 264 275.4 277.9 279.8 282 284.3 287.4 289.1 288.9 287.6 279.6 282.5 286.4 291.2 297.3 298.9 305 314.1 322 331.1 340.4 342 348.4 373.5 397.7 423.5 447.1 468.2 489 505.1 518.3 530.7 538.7 548.2 556.3 562.6 567.2 568.3 567.7 561.7 555.4 555.2 555.2 554.2 546.1 522.8 496.7 478.3 461.7 444.8 427.7 419.8 423.5 434.6 452.7 480.1 507.7 529.5 544.6 556.9 567.9 577.2 583.2 586.7 589.5 592.4 594.5 594.5 593.5 590.5 586 580.8 576 573.7 578.3 581.5 584.2 587 587.8 588.1 583.4 563.6 557 568.1 588.9 604.4 616.7 625.4 635.9 644.5 651.4 657.5 661.8 666.5 672.3 677.8 680.8 683.4 684.6 686.9 689.9 692.7 695.2 702.1 708.4 715.8 720.9 724.5 727.5 732.4 739.1 749.3 758.6 768 779.2 784 783.7 778.1 770.4 760.1 746.8 728.7 708.1 689.3 672.2 657.1 642.2 628.8 646.5 664.7 681.7 696.2 711.2 724.6 730.7 729.7 721.9 711.7 698.2 681.7 664.2 646.5 629.7 612.5 596.5 576 557.3 541.7 522.4 491.8 458.8 438.3 424 420.5 444.7 478.4 509.9 539.1 563.4 578.7 590 594 592.8 586.9 579.1
426.5 409.2 395.4 379.2 365.9 362.1 364.8 365.3 363.3 356 340.4 320.5 300.9 275.6 253.2 244.3 232.1 231.7 229.7 230.7 231.1 232 233.2 237.2 243.7 246 247.2 242.9 246.8 259.7 257.9 261.3 268 275.1 278.9 281.7 286.5 288.8 290.6 293 295.6 300 302.4 301.4 299.7 292.7 281.8 285.6 289 298.9 313.8 330.1 340.9 350.9 361 368.8 369.4 355.6 355.4 378.1 404.7 431.3 453.2 474.3 490.5 505 518.4 532.6 545.3 556 566 574.1 580.1 581.9 582 578 577.8 578.5 576.3 563.2 536.2 512.6 492 478.4 463 443.8 425.7 424.7 430.3 445.3 465.8 490.5 511.6 529.2 543.5 557.3 568 575.7 580.9 584.3 587.5 590 591.3 590.9 590 586.6 581.9 579.3 578.7 582.7 586 588.7 592.1 595.5 597.4 596 580.1 563.1 568.5 583.9 604.4 618.3 629.5 640 648.5 656.2 662.5 667.5 672 676.7 681.2 685.6 688.9 691.6 696 699.2 702.1 704.6 708.1 717.9 725.1 730 735.6 741.4 747.5 751.5 759.3 767.1 776.9 784 786.3 784.2 775.9 768.6 753.9 736.5 714.7 695.5 678.7 661.5 644.5 632.6 620.8 636.3 657 675.6 692 709.7 720.2 723.6 720 711.4 701.3 689 674.6 658.9 640.5 621.7 603.6 585.3 563.7 549.5 532.8 511.7 486.5 465.8 441.8 425.5 433.7 457.8 489.9 521.5 550.3 571.8 585.4 598.1 602 600.2 593.3 585.6
