ncols 200
nrows 89
xllcorner 370000
yllcorner 770350
cellsize 50
70.6 69 68 67.9 66.9 67.6 68.2 66.9 64.7 62.6 62.8 65.6 65.8 65.6 65.1 65.8 64.7 62.9 63 63.5 63.6 62.7 61.4 58.7 60.2 60.5 60.3 60.3 60.8 61.3 61.3 61.2 62 63.2 64.4 65.2 66.3 67.8 68.4 67.8 66.1 64.5 63.3 61.9 60.4 59.4 58.1 57.4 57.5 57.5 57.2 57.3 57.8 58.3 58.4 57.6 57.3 57.1 57 56.5 56 56.1 56.1 56.3 57.6 59.2 61.2 63.6 65.6 68.4 70 71.5 72.2 71.3 70.8 71.2 69.4 68.8 67.4 66.4 65.2 64 63.5 65.1 64.6 64.6 64.6 64.5 63.9 63.2 61.9 61.2 63.4 64 65 66.1 66.7 67.3 67.8 67.8 68 68.1 69.2 70.6 71.9 72.2 74.1 75.2 76 77.8 79.8 81.5 83 84.6 86.6 89.7 93.3 97.5 101.6 106.8 113.1 117.3 116.8 115 111.6 106.9 102.1 98 94.4 92.4 89.6 87.2 85.4 83.6 82 80.4 78.8 77.8 74 63.9 58.9 68.2 75.6 74.4 69.3 64.5 54.2 47.2 47.2 46.9 45 45.4 53.3 46.1 46 45.4 46.4 57.6 57.8 61.1 59.1 46.1 43.2 41.9 42.5 43.1 52.3 57.2 56 55.9 55.6 55.5 55.6 55.1 54.8 52.8 51.8 51.4 47.6 39.3 37.2 37.1 37.4 38 46.8 50.6 52.6 55.3 57.1 59.2 59.9 61.9 63.3 64.8 65 66.4 63.8 44.8 31.9 37
70.2 70.1 69.4 68.8 68.1 68.9 68.5 67.7 66.8 64.7 63.8 66.6 66 65.8 66 65.1 63.7 62.4 62.3 62.5 62.5 62.4 61.1 57.9 59.4 59.7 60 60.1 59.5 60.1 60.1 60.1 60.6 61.4 62.1 62.9 64.3 65.6 67 65.2 64.3 63.4 61.9 60.2 58.8 57.7 57 57.1 57.2 57.2 57 57.2 57.7 57.9 57.9 57.6 57.3 57.2 57.1 57 56.2 55.5 56.1 57.3 58.6 60.3 62.2 64.5 66.9 69.2 70 70.9 72 71.7 70.7 70.6 68.7 68.5 67.2 65.7 64.4 64.1 65.3 66.2 65.9 65.1 65 64.7 64.7 63.3 62.7 62 62.6 63.7 64.8 65.9 66.7 67.3 67.8 68.2 68.4 68.5 70.3 71.7 73 74.5 75.8 77.1 77.9 79.5 81.8 83.6 85.2 86.9 89.2 92.6 97.1 101.2 105.4 111.1 117 119.2 118.7 115.8 112.1 108.4 103.7 99.7 98.5 95.3 91.8 89.4 87.7 86 84.3 82.9 81.9 80.5 75.7 64 61 77.6 77.8 76.5 76 73.1 65.1 48.8 54.6 51.8 46.7 44.5 43.2 43.4 45.2 45.6 45.3 44.3 44.4 45.5 42.7 43 42.1 43.2 43.1 42.1 43.3 49 53.3 57 56.6 55.8 55.7 54.9 54.7 53.1 50.7 46.2 41.1 38.2 36.7 38.1 44.7 54.2 57.4 58 58.9 60.9 62.8 63.8 64.2 65.1 68.1 68.1 68.8 69.3 67.2 51.1 33.9 33.2
69.8 69.5 69.3 69.2 69.1 68.4 68 68.2 66.7 66 64.8 66 66.2 66 65.7 64.5 63.1 61.7 61.3 61.1 61.2 61.3 60.4 58.2 59.4 59.8 60.3 60.4 59.7 59.1 59 59 59.2 59.9 60.5 60.7 62.3 65.5 65.2 63.9 63.1 62.2 61.2 59.5 57.7 56.6 56.7 56.7 56.8 56.9 56.8 57.1 57.4 57.4 57.4 57.6 57.4 57.3 57.2 57.1 57 55.6 56.9 58.2 59.7 61.4 63.2 65.5 67.8 69.5 70.5 71.4 71.8 71.1 70.9 70 68.5 66.9 65.8 65.5 64.6 65.1 65.9 66.7 67.1 66.1 66.1 64.3 64.8 64.3 63.6 63 62.3 63.6 64.7 65.7 66.7 67.1 68.2 68.8 68.8 69.4 71.4 72.8 74.5 76.1 77.6 78.9 79.7 81.6 82.8 85.8 87.6 89.3 91.7 95.3 99.6 104.1 109.3 115 119 120 119 116.1 112.6 109.1 105.4 102.1 99.9 96.8 93.8 91.5 89.6 87.6 85.7 84.3 83.1 81.8 70.1 64.5 78.9 78 76.9 76.6 73.5 70.6 59.2 68 70.6 60.9 54.1 56.1 54.7 51.7 47.5 48.5 45.8 46.3 45.5 45.1 44.7 45 45.6 46.4 44.8 43 41.2 43.7 44.1 50.1 57.6 56.5 55.8 55.2 53.5 48.8 43.7 39.2 39.3 38.6 40.1 48.7 57 59.5 60.2 61.4 63 65.4 68.2 69.1 69.9 71.4 72.4 71.8 72.7 72.5 69.7 57.1 35.8 33.1
69.7 69.5 69.4 69.4 69.4 66.9 67.8 68.3 66.4 65.8 65.1 65.5 66 65.9 65.1 64.1 62.4 61.2 60.9 60.5 60.1 60.2 59.8 57.8 58.9 59.3 59.6 59.5 59.2 58.5 58.5 58.5 58.8 59.8 59.5 60 61.6 63 63.3 62.8 61.6 60.9 60.1 58.8 57 56.6 56.3 56.4 56.5 56.6 56.5 56.9 56.9 56.9 56.9 57.5 57.4 57.2 56.9 56.6 56.4 56.1 57.6 58.9 60 62.2 64.3 66.3 68 69.8 70.9 71.2 70.5 69.6 70 69 67.6 65.9 64.5 64.6 66.3 66.2 66.6 67.4 67.8 67.6 66.2 65.6 65.1 64.7 64.2 63.8 63.3 63.6 64.9 66.2 66.6 67 68.8 69.6 69.2 70.5 72.5 74.3 76.1 77.7 79.2 80.7 81.6 83.7 85.5 86.9 89.6 91.7 94.4 98 102.1 107.8 113.5 119.7 122 121.4 120.4 118.6 114.5 110.1 105.8 101.8 99.6 96.8 94.1 91.8 90.2 88.4 86.4 85.5 83.7 75 66.3 80.2 80.5 79.8 78.5 77 75.5 69.4 71.7 74.2 69.7 60.7 64.7 68.3 66.8 67.5 64.5 58.1 55.2 51.2 49.4 45.9 47 49.5 52.7 49.9 47.8 43.8 42.3 40.2 42.3 42.4 44 44.8 43.9 45 44 40.8 39.9 39.7 39.9 42.2 50.7 60.3 63 64.3 66 67.1 69.5 72.4 75.4 75.7 75.8 76.3 75.8 76.2 75.8 74.8 71.8 58.4 42.4 33.4
69.7 69.4 69 69.6 69.2 68.5 68 67.2 66.1 65.7 65.1 65.5 65.6 64.8 64.5 63.6 61.8 60.8 60.2 59.5 59.4 59.4 59 57.1 58.1 58.4 58.7 58.5 58.2 58.2 58.5 58.8 59.5 60.4 60.9 60.9 60.4 60.5 60.9 60.4 59.9 59.4 58.5 57.3 57.4 57 56.8 56.6 56.4 56.3 56.4 56.5 56.9 57.1 57.3 56.9 57.3 56.8 56.3 55.7 55.8 57.1 58.4 59.2 60.3 62.5 64.7 66.7 68.4 70 70.5 69.9 69.1 68.2 67.4 67.6 66.6 64.9 64.6 66.6 67.7 67.2 67.7 68.1 68.5 67.9 66.9 66.1 65.5 65.1 64.6 64.8 64.3 63.9 65.5 66.8 66.7 67.4 69.3 70.1 70.1 72.2 74.3 76 77.7 79.2 80.8 82.4 83.7 85.3 87 88.9 90.9 93.5 96.6 100.4 107.3 113.1 119 123.4 124.7 123.7 122.7 119.3 114.5 110.3 106 101.8 99.6 97.2 94.5 91.9 90.3 88.7 87.1 84.6 77 70.1 82.4 82.5 82.1 81.4 80.5 80.2 79.4 77 76.7 74.8 69.4 69.7 72.5 72.7 70.7 71.3 59.1 67 63.5 60.3 55.4 48.9 54.8 55.5 56.3 55.3 52.4 49.2 42.9 41.7 41.9 41.7 40.2 40.9 40.3 39.9 39.9 39.7 39.7 39.2 46.9 60.7 66.9 68.3 70 71.8 74 75.5 78.3 80.6 81.9 81 81.1 80.3 80.3 79.7 79.1 77.7 71.6 55.8 44.6 36.5
69.6 69.3 68.9 69.6 68 67.6 66.1 65.8 65.2 65.5 65 65.2 64 63.2 62.9 62.4 61.7 60 59.3 58.7 58.7 58.7 57.6 56.5 57.1 57.6 57.7 57.5 57.9 58.7 59.4 59.8 60.6 61.2 61.9 61.8 61 59.8 59.4 59.1 58.6 58.1 57.7 58 57.9 57.6 57.5 57.4 57.2 57 56.7 56.7 56.7 56.7 57.1 57.6 56.6 56.9 56.2 55.5 56.1 57.6 58.6 59.4 60.5 62.7 65 67.2 68.8 69.5 69.1 68.6 68.3 67.6 66.9 66 65.4 64.6 66.4 67.8 68.2 68.8 69 70 68.8 68.8 67.9 67.1 66.6 67.1 66.5 66 65.6 65.4 65.9 67.5 68.4 69.3 69.3 69.4 73 73.2 75.3 77.7 79.2 80.8 82.1 83.5 85.3 86.7 88.7 91 93.4 96 99 104.8 112.1 117.6 123.1 125.5 126.4 126.3 123.8 120 114.7 110 105.7 102.3 99.5 97.2 94.8 92.1 90.4 88.2 86 79.6 73.6 83.7 85.4 84.7 84.5 83.8 83.2 83.3 82.8 81.5 80.7 78.9 77.9 77.8 76.3 75.1 74.8 68.8 72.2 71.4 68.9 66.1 60.9 51.2 57.1 60.5 60.5 60.8 61 58.9 51.8 44.1 42.3 40.5 40.3 39.4 39.7 39.3 39.1 42 46.8 55.9 67.6 72.6 74.1 75.5 78.3 80.4 82.5 84.5 85.6 87.1 88.4 86.3 85.7 84.9 84.1 83.6 83.6 81.1 74.4 62.3 51.5 46.4
69.6 69.2 67.8 67.5 66.4 65.4 64.7 64.3 64.2 64.5 64.7 63.6 62.4 61.6 61.2 60.6 60.4 59.7 58.5 58 58.1 57.6 57.4 56.9 56.6 56.9 57.3 57.7 58.4 59.2 60 60.8 61.4 62.1 62.7 62.7 62.3 61.8 60.9 60 59 57.8 58 58.6 58.4 58.3 58.3 58.2 58 56.9 57.5 57.5 57.4 57.1 56.7 57.4 57.3 57.4 56.8 55.6 55.9 57.3 58.6 59.6 60.7 63.1 65.4 67.7 68.3 68.1 68 67.9 67.7 67.3 66.7 65.8 64.7 67 68.9 70.4 70.9 71.1 71.6 70.6 69.9 69.4 69.1 68.1 69.2 69.1 68.1 67.5 67.3 68.1 67.7 68 69.4 70.6 71 70.8 72.4 75.5 76.5 79 80.5 82.1 83.6 85.1 86.7 88.5 90.7 93.2 95.8 98.4 103.3 108.5 116.1 121.1 124.6 126.5 126.9 126.7 123.7 119.5 114.6 109.8 105.7 101.6 99.6 97.2 94.9 92.5 90 86.3 79.8 77.9 83.9 88.7 88 88.1 87.9 87.2 86.6 86.4 85.8 84.7 83.9 82.9 81.8 80.9 78.8 76 76.2 74.6 73.4 72.5 70 67.5 63 52.3 58.4 63.6 63.4 62.8 61 59.2 58.4 54.8 49.3 43.9 40.1 40.2 45.1 53.1 57.1 64.8 69 74.8 77.4 79.6 81.6 84.4 87.3 90 92.2 93.8 94.1 94.8 95.2 93.5 92 90.5 90.1 90.5 88.6 86.5 84.1 79.2 67.9 52.5
69.5 67.7 66.6 66.4 66 65.8 64.5 64.3 64.1 63.6 62.9 61.9 60.8 60 59.4 59.3 59.2 59 57.7 57.9 57.9 57.4 56.2 57.4 56.7 58 58.2 58.5 59.3 60.2 61.5 62.7 63 63.3 63.6 63.5 63 62.5 61.3 60.3 59.2 58.1 58.4 59.3 59.1 59.1 59 59 58.5 57.4 58.2 58 57.5 57 56 57.3 57.4 57.4 56.8 55.9 55.8 57.1 58.4 59.5 61.1 63.3 65.6 67.4 67.9 68 67.6 67.2 67.1 66.7 66.2 66.8 66.7 68.8 71.5 72.1 73 72.7 72.7 71.7 71.1 70.6 70 69.3 71.2 71 70.6 69.2 70.8 71.2 69.4 70.3 70.2 71.6 73.1 72 74.9 75.3 79 80.2 81.8 83.3 84.9 86.3 88.3 90.1 92.6 94.8 97.1 99.6 105.3 111.5 117.4 122.3 125.9 127.5 126.6 125.7 123.3 119.1 114.4 109.8 105.9 102 99.5 97.3 95.5 93.5 89.5 83.9 84 90.6 91 92.2 91.9 91.7 91.3 90.7 90.1 89.5 88.7 87.8 86.3 84.6 82.9 81.8 80.2 78.1 77.1 75.7 74.4 73.4 71.1 66.6 62.8 55 51.6 64.7 65.4 63 61.7 60.4 62 62.7 64.3 58.7 51.9 58 63.1 68.1 73.2 76.4 81.2 82.9 85.1 87.8 90.6 93.4 96.2 99 101.4 103 103.4 103 102.8 102.2 100.8 99.6 97.6 95.6 93.5 90.8 87.2 84.8 82.6 65.9
67.9 67.1 66.5 67.4 66.2 65.8 64.1 63.2 62.4 61.8 61.1 60 59.1 58.3 58.2 58.2 58.1 58.1 57 57.8 57.8 57.4 56.3 57.9 58.6 59.3 59.7 60 60.4 61.7 63 64.2 64.9 64.9 64.4 63.6 63.1 62.8 62.8 62.2 61.1 60 60 60 59.9 59.9 59.9 59.9 59 59.1 58.5 57.9 57.4 56.9 57 57.6 57.8 57.6 57.1 56.3 55.7 56.9 58.2 59.5 61.5 63.6 65.6 66.5 67.4 67.9 67.3 66.7 66.4 66.1 66.8 67.7 68.7 70.7 73.4 73.9 73.9 74.3 74.2 73.2 72.3 71.8 72 71.6 73.3 73.6 72.1 71.1 72.4 73.1 70.4 71.8 72.3 73.2 74.5 75.6 77 78.4 79.5 81.5 83.1 84.6 86.3 87.7 89.9 91.6 94.4 96.7 98.9 102.8 109 115.3 121 123.6 127.1 128.1 127 124.8 121.5 118 114.1 109.7 105.9 102.5 100.8 99.1 97.5 96.1 89.2 90.1 95.2 94.5 95 95.5 95 94.5 94 93.4 92.4 91.5 90.4 89.1 87.7 85.8 84.1 82.7 80.8 79.4 77.9 76.6 75.2 74.2 72 68.9 60.4 60.6 57.6 66 65.5 65.4 65.4 65.3 65.7 66.2 66.8 68.4 66.8 71.2 74.2 77.7 81.5 85.1 89.4 91.4 93.6 97.5 99.6 101.9 104.7 107.8 110.7 112.8 113.9 113.2 110.7 107.9 106.3 103.6 101.7 98.4 95.3 92.3 89.1 86.1 83.2 80.1
67.2 65.8 65.2 64.6 65 64 63 61.2 60.6 60 59.5 57.4 56.5 57.3 57.1 57 57 56.9 56.2 57.2 57.7 57.2 57.5 58.7 59.2 60.4 60.9 61.2 62.3 63.7 64.8 65.5 65.8 65.3 64.6 63.8 63.2 62.9 62.7 62.8 62.8 62 61.7 61.3 60.9 60.9 60.8 60.1 60.3 59.4 58.6 58.1 57.6 57.1 57.3 58.1 58.3 57.1 56 55.8 55.8 57.2 58.9 60.8 62.5 64.6 66 66.6 67.4 66.9 66.6 66.1 66 66.8 68.1 69.5 70.4 72.2 74.1 74.5 75.3 75.8 75.6 74.8 73.9 74.1 74.6 74 74.2 75.5 75.2 73.2 74.9 74.7 73.3 74 74.7 75.2 76.2 77 76.7 80.7 81.8 82.6 84.4 86 87.1 89.1 91.3 93.2 96.3 98.5 100.8 106.9 113.2 118.9 124.8 127.1 128.8 128.9 127.4 124.5 121.2 117.2 113.5 109.8 107.2 104.8 103 101.2 100.4 97.8 87.4 99.8 99.9 98.8 98.7 97.9 97.2 96.8 95.8 94.7 93.8 92.8 91.5 90.2 89 87.5 85.5 83.8 82.5 81.2 79.6 78.4 76.7 75 73.8 71.1 60.2 58 65 67.8 68.2 68.1 68.1 68.1 68.8 69.5 71.2 73.1 74.5 77.2 79.4 83.2 88.6 93.3 97.5 101 104 105.5 108.2 110.9 113.2 116.2 119.5 121.3 120.9 120.3 117.6 113.1 110.1 107.6 104.2 100.4 96.7 93.7 89.3 85.8 82.9 79.5
66.8 64.7 63.2 62.2 61.5 61.3 60.2 59.4 59.3 58.6 58 56.5 56.6 56.7 56.4 56.2 55.9 55.8 55.4 56.4 57.5 58.6 58.9 59.1 59.8 61 62.1 62.4 64.1 65.7 66 66.6 66.2 65.5 64.8 63.9 63.1 63 62.7 62.8 62.8 63.1 63 62.6 62.2 61.8 61.8 61.5 60.5 59.6 58.7 58.2 57.7 57.3 55.2 58 57.9 56.3 55.2 55.1 56.9 58.6 60.4 62.3 64.2 65.9 67 67.1 66.2 65.5 65.4 66.3 66.8 67.7 68.4 70.7 72.2 73.5 74.1 75.1 76.2 76.9 76.5 76.1 75.5 75.4 76.2 75 74.8 76.5 75.5 75.4 76.1 76.2 74.9 75.5 76.4 77.4 78.2 79.2 80.7 80.7 82.7 84.4 85.7 87.4 88.3 90.5 92.7 94.8 97.9 100.4 105 111.2 116.9 122.2 127 129.3 131.1 129.8 127.5 124.8 121.8 117.4 114.2 112 109.6 107.3 105.4 104.1 103.6 92 97.9 99.9 102.3 102 101 100.2 99.4 98.7 97.3 95.9 94.8 93.9 92.6 91.4 90.1 88.8 87.2 85.6 84.4 83 81.3 79.8 78.6 76.9 75.3 70.2 60.4 57.1 69.2 69.9 70.5 70.8 70.7 71.3 72.2 73.2 75.5 77.2 79.6 82 84.6 88.6 94.6 101 105.6 109.3 112.4 114.3 117.4 119.7 121.4 124.5 125.6 127.2 126.6 124.4 122 117 112.7 109.2 105.4 101.6 97.6 93.7 89.6 85.6 82 78.3
64.8 63.1 61.5 60.4 59.4 58.6 58.2 58.3 58.7 58.4 57.6 56.3 56.1 56.6 55.7 55.5 55.2 54.9 55.4 56 58.1 59.3 59.5 59.6 60.4 61.6 62.8 64 65.4 66.2 67 66.9 66.2 65.5 64.8 63.7 63 62.9 62.7 63.3 63.9 64.5 64.2 63.9 63.5 63.1 62.6 61.7 60.7 59.8 58.9 58.3 57.8 57.3 56.3 56.7 56.9 55.7 55.1 55.3 57.4 60 61.9 63.8 65.3 66.2 65.8 64.7 64.1 64.9 66 66.1 67.9 68.7 69.5 70.6 72.9 74.3 75.2 76.1 77 77.9 77.7 77.5 77.2 77.8 77.8 76.9 77.4 77.7 76.7 76.2 77.8 77.7 77.5 76.7 77.7 78.9 79.8 79.4 82.3 80 83.9 85.5 87.2 89 89.7 91.9 94.1 96.3 99.4 103.3 109.4 115 120.3 125.5 129.3 132.7 132 130.6 127.6 125 123.5 119.7 116.3 113.3 111.5 109.7 108.1 107 106.6 94.6 98.7 103.2 104 104.1 103.4 102.5 101.6 100.2 98.7 97.3 96.1 95 93.8 92.5 91.2 90 88.7 87.4 86.2 84.8 83.1 81.5 80 77.9 76 65.3 58 69.4 70.5 72.1 72.6 73.2 73.8 74.8 75.8 76.8 78.6 81 83.8 86.6 90 94.6 100.7 108.3 113.8 118.3 120.5 122.9 126.2 128.1 129.6 130.4 131.2 131.5 129.9 127.5 123.3 118.3 113.1 108.1 104 100 96 92.2 88.3 84.5 80.6 77.6
63.9 62 59.9 58.7 58 57.4 58 57.6 57.8 58.1 57.4 57.1 57.4 55.8 55.5 54.5 54.1 53.8 56.4 58.7 58.4 60.1 59.9 60.2 61.9 63.3 64.2 65.1 66 66.5 66.4 65.8 65.1 64.4 63.9 63.8 63 62.9 63.3 64.6 65.4 66 65.5 65.1 64.7 63.9 62.8 61.9 61 60 59.1 58.4 57.9 57 56.2 54.9 55.9 54.8 54.4 55.8 58.5 61 63 64.9 65.4 64.7 63.9 64.4 65 65.8 64.5 68.5 69.3 69.2 69.3 72.4 73.1 74.8 75.7 76.6 77.5 78.7 79.3 79.5 79.3 79.4 79.1 79 79.4 79.6 78.2 78.7 79.1 79.1 78.9 79.1 80.1 80.7 81.6 81.8 82 83.5 84.3 86.8 88.6 90.3 92.1 93.8 95.9 98.8 101.8 107 112.6 117.9 123.2 128.4 132.1 134.3 132.9 131.3 128.7 128.9 125.5 122.4 119.1 116.3 113.9 111.5 110 108.9 100 99.8 102.9 103.7 106.2 105.2 104.4 103.6 102.7 101.4 100 98.7 97.4 97 95.9 94.6 93.4 92.1 90.8 89.4 88 86.6 85 83 80.8 77.8 69.4 75.2 64 68.3 75.3 75.4 75.8 76.2 76.2 77 78 79.3 81.8 84.2 87 90.7 95.3 100 106.9 115.3 122.3 127.2 130.1 132.3 134.1 135.6 135.5 134.6 134.4 133.4 130.9 127.7 122.5 117.3 111.6 106.1 100.9 96.8 93 89.4 85.9 82.4 80.4 77.7
61.8 59.9 58.4 58.1 57.5 57.2 56.9 57.6 57 57.5 57.5 57.4 56.8 56.2 56.5 55.5 54.3 54.5 56 58.8 58.7 59.3 59.9 61.5 63.3 64 64.7 65.3 65.9 65.8 65.3 64.7 64 63.3 63.2 63.3 63 63.3 64.2 65.4 66.7 67.2 66.7 66.3 65.3 64.1 62.9 62 61.1 60.2 59.3 58.5 57.7 56.6 55.4 55.5 55.2 54.7 55.3 57 59.3 61.9 64 64.7 63.4 64 64.2 66.7 67.2 64.7 68 69 70.6 71.2 71.9 72.1 73.1 74.8 76.2 77.1 78.3 79.6 80.5 80.7 81 81.1 80 80.4 80.2 80.8 80.5 80.3 80.3 80.4 80.3 81.5 82.4 82 83.2 84.3 84.1 84.6 85.8 87.2 89.8 91.6 93.4 95.6 97 100.1 104.3 110.2 115.7 120.7 125.8 130.9 134 134.7 133.5 131.2 130.8 130.7 127.8 124.5 121.2 117.9 115.5 113.1 111.4 108.8 103.5 108.1 107.2 107.7 106.9 106.2 105.4 104.6 103.7 102.4 101.3 100.5 99.7 99 97.9 96.7 95.5 94 92.3 90.5 89.1 87.1 85.1 83 80.4 72.2 71.6 76.2 67 70.1 77 78.4 78.8 78.9 78.9 79.2 80.4 82.4 84.9 87.4 91.1 95.1 100.1 105.4 112.9 122 129.5 135.8 137.7 139.5 140.5 139.6 138.1 135.6 133.9 132.7 130.1 125.2 119.6 114.7 109 103.8 98.3 94.3 90.1 86.5 83.4 81.3 80.3 77.8
59.4 58.5 57.9 57.6 57.4 57.2 57.1 57.2 57.9 57.7 58 57.7 57.1 57.7 56.7 56.3 55 54.9 55.9 59.8 59.6 60.1 60.7 62.6 63.6 64.2 64.5 65.2 65.1 64.7 64.2 63.9 63.2 62.5 62.6 62.8 63.4 63.8 65 66.2 67.7 68.2 67.7 66.7 65.5 64.3 63.1 62.2 61.3 60.4 59.5 58 57 55.8 55 55.2 55.1 54.5 56 58.1 60.4 62.4 63.4 62.9 62.5 63.5 66.9 67.9 65.6 68.3 69.2 70.3 71.3 71.6 71.5 72.3 73.2 74.7 76.8 77.9 79.2 80.5 81.5 81.9 82.2 82.1 81.3 80.4 81.7 81.7 80.6 80.1 81.9 81.7 81.8 83.3 84.2 84.4 84.4 85.8 86.4 85.9 87.2 88.4 91.2 93.4 95.4 97.8 100.3 103.1 107.7 112.6 117.5 122.4 128 132.6 133.9 134.6 134.3 132.3 132.3 132 129.1 125.8 122.5 119.3 116.9 114.7 113 103.8 111.3 110.3 109.9 109.4 108.9 108.1 107.1 106.1 105.3 104.7 103.9 103.1 102.2 101 99.8 98.6 97 95.2 93.5 91.5 88.3 86.9 85.1 81.8 74.4 79.2 80.4 75.4 64.1 72.6 80.8 81.3 81.6 81.5 81.3 82 83.3 85.5 88 91.5 95.5 99.7 105.1 111.6 118.8 127.9 136.1 141.3 143.4 145.1 144.9 143.2 140.2 136.7 134.5 130.2 126.1 121.8 117 111.5 106.2 100.7 95.2 91.3 87.3 85.3 82.3 80.6 79.7 78.3
59.4 58.5 58.4 57.7 58.4 57.5 57.8 58.3 59.2 59.2 59.3 59.8 59.6 60.1 60.6 59.9 57.4 54.7 58.2 61.2 60.6 61.1 61.6 61.9 62.7 63.6 64.1 64 63.8 63.7 63.1 62.8 62.7 62.1 62.1 62.8 63.6 64.6 66.4 68 68.9 68.9 68.3 67 65.7 64.4 63.2 62.3 61.4 60.5 58.6 56.9 55.8 54.9 54.4 53.9 54.6 54.6 56.6 58.8 60.8 61.6 62 61.3 62.3 66.2 67.9 69 70 69.4 70.4 71.2 71.3 71.2 71.9 72.6 73.5 74.6 77.4 78.7 80 81.4 82.6 83 83.4 82.9 81.7 82 83.4 83.3 82.3 83.6 83.8 83.9 83.5 85.3 85.9 86.6 87.4 87.8 87.8 88 89.8 91.6 93 95.2 97.5 100.3 103 106.3 110.6 114.8 119 125.1 129.7 134.2 135.9 137.6 136.8 134.5 133.5 132.3 129.3 125.8 122.6 120.3 117.9 115.3 109.5 113.9 112.7 111.9 111.8 111.4 110.7 109.9 109 108.1 107.5 107.1 106.6 105.5 104.1 102.7 101.5 99.9 98.1 96.2 94.1 91.8 88.2 84.1 79.6 78.8 84.1 84.1 83.8 76 63.2 72.7 83.3 84.1 83.7 83.3 84.3 85.3 86.7 88.9 92.1 95.9 100 106.3 111.3 118 124.7 133.6 141.6 145.1 146.8 147.3 147.9 145.6 142.1 138.2 134.2 128.6 124.4 119.7 113.5 107.3 102.2 97.5 92.5 89.6 88 86 83.1 81.1 80.6 78.9
58.6 58.3 59 58.8 59.5 59.6 60.3 60.8 61.2 61.1 61 60.9 60.7 60.6 61.1 61.2 60.9 54.5 57.4 61.1 61.6 61.7 61.8 61.9 62.1 62.5 63.1 62.8 62.5 62.4 62.1 61.8 61.7 61.6 62.5 63.5 64.6 65.7 67.5 69.4 69.6 69.5 68.6 67.2 65.9 64.6 63.4 62.5 61.2 59.2 57.3 55.9 54.6 54.7 54.3 55.5 54.6 55.5 56.5 58.4 59.6 60.4 60.6 60.7 64.3 67.4 68.7 70.5 70.4 70.4 71 71.1 71.1 71.8 72.5 73.2 73.9 74.7 77.8 79.4 80.9 82.2 83.6 84.1 84.5 84.1 83.1 84 85.1 84.8 84.3 84.3 85 85.9 85.4 87.2 88 88.8 89.6 90.4 90.8 90.5 91.6 94 94.9 97.3 100.1 102.9 106.1 109.4 113.9 117.7 121.5 127.2 131.5 135.8 138.9 140.3 139 136.9 135.1 132.5 129.1 125.9 123.5 121 118.6 114.4 112.3 115.1 114 113.6 113.6 113.3 112.6 111.8 111 110.2 109.7 109.1 108.2 106.6 105.5 104.4 102.7 100.8 98.9 96.6 92 89 88.9 87.9 85.6 86.5 87.9 87.4 85.9 75.2 67.4 81.7 80 86.4 86.1 85.9 87.3 88.4 90.1 92.9 96.2 100.9 105.3 110.3 117.3 124.5 130.4 138.7 143.8 146.6 147.8 149.6 149.2 146.5 142.7 137.6 133.3 126.9 121.7 115.5 109.8 104.8 98.8 95.1 93.6 91.9 90.4 87.6 85.4 83.2 81.6 80.5
59.1 59.1 60.6 61.1 61.8 62.4 62.5 62.3 62 61.9 61.8 61.6 61.4 61.5 61.6 61.5 61.2 54.7 54.3 59.7 60.8 61.4 61.8 62 61.1 61.3 61.8 61.9 61.6 61.2 60.9 60.7 61 61.6 63.3 64.7 65.8 66.9 68.2 70.1 70.3 70.1 68.8 67.5 66.1 64.8 63.6 61.9 59.9 58 56.1 55.1 54.1 54.8 55 55.5 55.1 55.7 56.7 57.8 58.9 59 60.4 62.6 65.4 68.5 67.4 71.7 71.4 70.7 70.9 71.3 72 73.3 74.2 74.7 75.2 75.7 78.3 79.9 81.4 83 84.4 85 84.6 84.7 83.8 85 86.2 86.3 86.5 87 86.8 87.7 87.5 89 90.3 91.2 92 92.8 93.1 93 93.7 96.7 97.7 98.6 102.7 106.1 109.6 113 116.5 120.3 124.1 129.2 135.6 139 142.5 142.9 142.3 139.2 136.4 132.3 129.5 126.8 124.3 121.7 119.3 112.4 117.5 116.5 115.6 115 115 115 114.4 113.7 113 112.3 111.3 110.5 109.4 107.7 106 105 104 101.9 100.1 96 95.9 95.5 93.3 89.9 91.3 90.6 90.3 90.3 87.2 74.7 72.7 86.8 82.4 86 88.2 88.6 90 91.4 93.6 96.6 99.8 104.4 109.7 115.5 121.3 127.9 134.3 140.9 145.2 148.4 150.1 151.5 149.6 146.5 141.3 136.6 132 126 120.4 113.7 106 101.4 97.4 95 93.3 93 91.2 89.3 86.4 84.3 82.4 80.9
62.7 62.5 63.4 63.3 63.2 63.7 63.6 63.3 63 62.7 62.5 62.3 62 61.8 60.9 60.1 59.7 56.4 54.6 56.6 60.1 60.7 61.1 60.5 60.1 60.3 60.6 61 60.6 60.3 60 60.7 60.8 61.8 63.5 65.1 66.8 68.1 69.3 70.9 71.2 70.3 68.7 67.3 66 64.6 63 61 59 56.8 55.3 54.6 54.1 54.5 54.9 55.5 55.7 55.9 57.1 58.2 59 60.7 62.9 64.8 66.3 65.4 71 71.5 70.7 70.7 71.2 71.8 72.6 73.9 75.2 76.5 77.4 77.9 78.8 80.4 82.1 83.7 85.3 86.2 86.4 86.5 85.2 86 87.7 88.1 88.2 88.2 89 89.8 90 90.3 92.5 93.4 94.3 95.2 95.7 95.8 96.5 98.5 100.9 102.1 106 109.9 113.4 115.8 119.2 122.8 126.7 132.8 140 142.9 145.5 144.9 143.6 141.3 137.1 133.5 130.6 127.7 125.2 122.8 116.9 120.4 119.2 118.1 117.2 116.7 116.2 116 115.5 114.9 114.3 113.4 112.5 112.2 110.6 108.9 107.1 105.4 103.7 103.7 101.4 100.5 99 98.2 97.2 93.1 94.6 92.9 92.7 92.2 86.8 73.8 77.6 88.9 88.5 87.2 90.5 91.3 92.5 94.2 96.8 99.8 103.3 107.9 114.5 119.9 124.7 130.9 137.3 143.2 146.4 149 151.1 151.9 149.6 145.4 141.3 135.4 130.2 124.2 118.1 110.3 104.2 100 96.9 94.6 92.5 91.9 90.2 87.9 85.4 83 81.7 80.1
65.2 65.4 65.5 65.4 65.2 64.8 64 63.7 63.4 63.1 62.8 61.8 61.2 60.5 59.6 58.7 57.1 55.6 54.3 53.8 58.1 59.9 60.1 59.5 59.3 59.3 59.5 59.9 59.7 59.4 59.8 60.7 61.1 62.1 63.5 64.9 66.7 68.6 71 71.9 71.6 70.6 69 67.4 65.8 64.2 61.8 59.8 57.6 55.4 53.8 53.9 53.8 54.2 54.6 55.4 55.9 56.1 57.6 58.8 59.4 62.2 64.7 66.9 68.6 69.1 71 70.9 70.8 71.4 71.9 72.4 73.4 74.7 76 77.2 78.5 79.6 80.3 81.5 83.1 84.8 86.4 87.5 87.7 88 88.1 86.7 89.8 90.2 90.6 90.4 91 92.3 92.4 92.6 94.6 95.4 96.2 97 98.6 98.7 100.1 101.1 104 106.8 110.3 113.6 116.5 119.8 122.2 125.8 131.6 138.8 142.7 145.2 147.5 146.5 144.4 142.4 138.4 134.7 131.9 129 125.9 122.8 123.5 121.9 120.8 119.7 118.8 118.4 118 117.7 116.5 116 115.4 114.5 114.2 113.6 111.8 110.3 109.8 105.7 106.5 105.4 103.4 103.2 102.2 100.9 99.6 98 96.5 95.8 94.4 89.9 80.6 73.9 81.9 91.1 90.7 90 91.5 93.3 95.5 97.7 100.1 102.7 106.8 111.6 116.9 123 128 133 138.8 143.4 146.5 149.6 151.2 151.9 148.9 144.9 138.8 133.8 127 121.1 114.8 110.5 105.7 100.9 96.5 94.4 91.6 89 87.8 85.6 83.5 81.9 81.7 80.7
67.3 67.2 67.1 67 66.5 65.7 64.6 63.6 62.8 62.5 62.2 60.7 59.8 59.1 58.1 57 55.5 54.9 55.7 54.2 54.5 58.1 59.2 59 58.8 58.7 58.6 58.7 58.8 58.8 59.7 60.6 61.5 62.6 64 65.3 66.6 67.9 69.3 71.2 71.5 70.6 68.7 67 65.4 62.6 59.5 57.4 55.8 53.7 54 54 54.1 53.9 54.4 55.2 55.9 56.3 58 59.3 61.1 61.7 66.5 68.2 70.5 70.2 70.9 70.8 71.6 72.2 72.7 73.6 74.6 75.8 76.9 78.2 79.5 80.4 81.9 83.5 84.2 85.9 87.5 88.8 88.9 89 88.7 88.7 90.1 92.7 93.5 93.2 92.9 94 95.1 95.2 96.6 97.4 98.1 99.5 101.2 103 103.4 105.8 107.5 110.1 113 116.8 119.3 122.9 125.2 129.6 137.5 141.9 145.1 149.2 151.2 149 146.2 143.3 139.5 135.9 133.1 130.3 127.4 126.9 125 123.9 123.3 122.8 122.2 121.1 120.4 120.3 119.7 118.4 117.2 116.2 115.9 114.8 113.6 112.7 111.6 110.4 108.7 107.6 106.4 105.1 103.8 102.5 101.1 98.9 96.8 96.8 91.1 79.6 74.1 72.6 86.6 92.6 93.2 93.2 94.5 96 98.4 101.1 103.4 106.3 110.6 115.5 120.7 125.4 131.2 135.9 140 143.5 146.8 150.4 150.8 151.7 149.1 143.5 135.9 130.4 124.6 119.1 113.5 108.2 103.2 98.4 94.4 91.9 90.1 88.1 86.2 83.1 81.2 80.3 80 77.1
68.7 68.7 68.7 68.2 67.4 66.6 65.6 64.5 63.5 62.4 61.7 60.2 58.7 57.6 56.4 55.3 54.3 55.3 55.8 54.1 54.1 57.6 58.7 58.5 58.3 58.2 58 57.9 57.9 58.7 59.6 60.4 61.3 62.5 63.8 65 66.3 68.1 69.7 71.4 71.5 70.7 68.6 66.6 64.1 61 57.8 54.8 54 53.8 53.6 53.7 53.7 53.8 54.3 55 55.7 56.6 59 61.5 64.1 64.3 63.8 65.6 70.4 70.6 70.5 71.6 72.5 73 73.9 74.8 75.8 77 78.1 79.3 80.5 81.8 83.4 85.1 86.7 86.9 88.5 89.3 89.3 90.4 89.7 91 91.2 93.8 94.9 94.7 95.3 95.2 97.5 98 98.5 99.8 101.2 102.8 104.6 106.3 107.7 109.5 111.7 113.8 116.7 119.9 122.5 125.6 129.2 136.1 140 145.3 150 153.3 153.2 149.8 146.5 143.9 141.3 137.8 135.1 132.4 128 130 128.3 127.4 126.9 126.3 125.6 124.3 123.5 123.1 122.7 121.8 120.9 119.7 117.7 116.6 115.5 114.4 113.3 111.8 110.3 108.8 107.5 106.6 105.3 104 102.6 99.8 95.9 82.2 80.8 85.1 77.2 86.2 91.5 95.6 95.9 96.2 97.1 98.9 101.3 104 106.7 110.1 114.6 119.8 125 129.6 134.2 138.7 141.6 144.5 148.1 151.6 152.4 150.8 147.2 140.5 133.5 129.1 123.7 118.3 110.8 105.9 100.7 96 92.5 89.4 87.1 85.2 83.3 81.3 79.5 79.1 78.8 78.8
69.5 68.9 68.4 68.9 67.2 65.6 64.6 63.5 62.5 61.4 60.3 58.8 57.3 56.1 54.9 54.2 54 55 55.4 54.3 54.1 56.5 58.2 58 57.8 57.7 57.5 57.4 57.8 58.4 59.2 60.1 61 62.1 63.4 64.8 66.7 68.4 70 71.2 71.3 70.3 67.8 65.1 62.2 59.1 55.4 52.8 53.9 53.6 53.3 53.3 53.3 53.7 54.3 54.9 55.7 57.4 59.6 61.7 64.3 66.4 65.4 64.7 67.5 70.6 70.7 72.4 73.3 74.2 75.1 76.1 77.1 78.2 79.3 80.5 81.9 83.7 85.2 86.8 88.3 89.7 89.4 90 90.7 91.7 92.6 92.8 93.1 94.2 95.6 96.7 97.3 98 99.5 100.2 101.5 103 104.4 106.1 107.9 109.8 111.5 112.8 115.4 117.9 120.3 123.2 126.2 130.8 135.1 139.8 144.9 149.3 152.3 154.9 154.9 152.6 149.1 145.9 142.6 140.1 137.9 132.5 134.1 132.9 131.7 130.8 129.9 129.1 128.4 127.1 126.7 126.2 125.1 123.6 122.5 121.4 119.6 118.5 117.4 116.2 114.4 112.7 111.2 109.7 108.6 107.7 106.6 105.1 103.1 100.5 88.9 87.7 98.7 91.4 78.9 96.6 98.1 98.4 98.9 100.2 100.7 102.7 105.9 108.9 111.7 114.5 119.6 124.6 127.6 132.2 136.9 141.7 144.7 147.4 150.1 152.2 149.9 147.9 142.8 138.5 133.9 129.3 122.1 115.5 107.7 103.1 98.2 94 90.5 87.2 85.9 84.3 82.4 81.3 81 81.7 82.2 82.5
69.6 68.4 67 66.2 65.7 64.2 63.1 62.1 60.9 59.8 58.7 57.2 55.8 54.7 54.7 54.2 54 54.2 54.3 54 54.2 55.8 57.5 57.5 57.3 57.1 57 57.4 57.9 58.5 59.1 59.8 60.6 61.8 63.4 65.2 67 68.7 70.1 70.7 70.7 68.4 65.7 63 60.1 57 53.9 53.3 53.1 53.1 53.1 52.9 53.2 53.8 54.3 55.1 57.5 60 61.2 61.4 64.4 67 68.6 69.8 70.9 69.7 68.2 71.4 74.2 75.4 76.4 77.4 78.3 79.3 80.5 81.9 83.9 85.7 87.3 88.8 90.5 91.5 92 91.9 92 93 93.7 94.5 95.8 96.2 98.2 99.1 100 100.9 102 103.2 104.6 106.1 107.7 109.6 111.6 113.4 115 116.7 118.8 121.6 125.1 128.5 132 136.1 139.9 145.3 149.3 152.3 156.1 157.6 155.9 153.3 150.8 147.9 145.1 142.9 140.3 137.7 138.1 136.8 134.9 133.9 132.9 132 131.1 130.3 129.6 128.6 127 125.3 124.2 123.1 121.5 120.4 118.9 117.2 115.4 113.7 112.1 110.7 109.8 108.8 107.4 105.9 104.3 99.7 88.9 102.7 100.7 95.7 79.2 92.4 100.9 101.2 102.5 103.8 104.9 107 110.4 113.2 115.9 118.7 123.2 126.8 129.9 134.5 139.8 145.3 147.5 150.5 153.2 153.1 148.8 146.2 143.7 139.4 133.8 127 119.7 112.1 104.4 100.1 96.2 92.6 88.6 86.3 85.1 83.6 82.1 83.2 83.5 84.8 85.9 86.2
68 66.8 65.1 64.4 63.7 62.7 61.6 60.5 59.3 58.2 57 55.6 54.7 55.1 55.3 54.9 55.5 55.2 53.5 52.6 53.2 54.6 56 56.5 56.3 56.3 57 57.5 58 58.6 59.2 59.9 60.5 61.9 63.7 65.5 67.3 68.9 69.6 70.3 68.8 66.3 63.6 60.9 58.1 54.9 53.7 53.1 52.9 52.8 52.7 52.8 53.4 54.1 55.1 57 59.3 61.8 63.4 64.8 63.2 66.2 69.7 71.1 72.3 72.9 73.1 71.3 72.9 76 77.4 78.6 79.6 80.6 81.9 83.9 86.1 87.9 89.6 91.2 92.5 92.9 94.2 94.4 94.4 95.2 94.9 97.2 98.5 98 100.2 101.8 102.8 104 105.3 106.1 107.7 109.6 111.3 113.3 115.2 116.9 118.8 121.2 123.9 127.2 131.1 134.1 137.5 142 145.8 150 154.1 157.3 160.8 160 158.2 155.6 153.1 150.5 148 146 141.3 142.9 141.9 139.9 138.1 137.1 136.1 135.1 134.1 132.9 131.9 130.7 129 127.2 125.8 124.7 123.5 121.7 119.9 118.2 116.4 114.6 112.9 111.8 110.8 109.8 108.9 107.5 106.5 92.3 102.1 104.2 102.4 100.4 83.6 90.1 103 104.6 105.9 107.2 108.5 110.8 113.5 116.3 118.9 121.9 125.3 128.7 132.1 137.2 142.7 148.2 151.7 154 154.2 151.6 150.4 150.6 145.5 138.4 131.2 123.9 117 109.7 102.9 99 95.1 92 88.4 86.1 84.8 84.3 83.6 84.9 86.7 88 89.3 90.1
66.7 64.7 63.3 62.5 61.5 60.6 60.1 58.9 57.7 56.6 55.4 55.1 55.5 55.7 55.9 55.6 56.2 56.8 55.7 53.5 53 53.5 54.5 56.1 55.6 57.4 57.6 57.7 58.1 58.6 59.3 59.9 60.6 62.1 63.7 65.6 67.5 68.5 68.6 68.2 66.4 63.9 61.4 58.8 56 53.8 53.3 53.1 52.6 52.5 52.6 53.2 53.8 55.1 57 58.9 61 63.1 64.7 66.2 67.5 67.1 70.1 72.4 73.2 73.7 74.5 75.9 73.5 75.2 76.3 78.6 80.6 81.6 84.7 86.9 89.1 90.4 91.9 93.5 93.9 94.3 95.6 96.9 95.8 96.3 96.7 99 100.5 101.8 101.3 103.8 105.9 107.3 108.7 109.7 112 114.3 116.5 117.6 119.1 121.5 123.9 126.5 130.4 134.1 137.1 140.3 145.1 148.2 151.9 156.5 158.3 162.1 164.8 163.1 160.4 157.8 155.2 152.6 151.4 149.1 147.1 146.2 145.1 142.9 141.3 140.4 139.4 138.4 136.6 134.8 134 132.8 131 129.4 128.2 126.8 124.7 122.9 121.1 119.4 117.6 115.8 114 113 111.8 110.8 109.9 109.1 107.6 92.5 102.9 105 104 101.2 86.8 92.9 105.3 107.9 108.9 110.2 111.2 113.6 115.8 118 120.7 123.6 126.9 130.5 134.6 140.1 145.6 151.1 155.8 154.7 152.4 150.7 150.2 150.8 143 136.3 128.7 120.8 113.8 107 101.7 97.3 94 90.7 88.7 86.9 85 85.2 85.4 87.2 88.7 90.7 92.3 93.3
63.2 62.2 61.4 60.5 59.6 59.2 58.6 57.5 56.4 55.2 55.4 55.9 56.1 56.3 56.5 56.4 56.9 57.2 57.2 56.3 52.2 52.9 54.7 57.2 56.9 58.1 58.2 58.3 58.5 58.7 59.3 60 60.8 62.4 64 65.6 67.2 67.1 66.5 66 64.1 61.6 59.1 56.6 54.1 53.3 52.7 52.6 52.4 52.4 53 53.6 55.1 57 58.9 60.8 62.7 64.5 66.1 67.7 66.2 71 70 73.5 75 75.7 76 77.2 77.9 76.4 78 76.6 80.8 83.4 86.8 90 91.7 93 94.4 95.1 95.7 96.3 97.6 99.1 98.6 99.6 99.5 101.7 103.5 104.4 104.7 106.3 108.3 109.4 110.4 114.1 116.2 118.2 120.8 122.2 124.1 126.5 129.5 133.4 137.7 141.5 144.2 146.3 149.6 152.8 157.9 160.9 162.8 166.8 167.9 166.2 162.8 159.8 157.2 154.6 154.2 147.1 148.8 149 148.3 146 144.6 143.7 142.7 141 139 137.2 135.5 134.5 133.1 131.9 130.7 128.5 126.1 124.3 122.5 120.7 118.9 117.1 115.4 114.4 113.5 112.6 112.1 111.4 108.9 95.7 105.5 107.2 106.3 102.1 86.7 105.5 103.3 110.5 111.9 113 113.7 115.7 117.5 119.8 122.5 125.3 128.2 132.8 139.9 145.2 150.6 154.8 156 155 152.7 150.3 149.7 146.8 140.4 134.1 127.1 119 111.3 104.7 100.4 96 92.4 89.5 88.3 86.9 85.2 86.6 88.8 90.4 91.1 93.8 95.2 95.7
60.7 60.1 59.6 58.7 58.3 57.9 57.3 56.6 56.5 55.8 56.3 56.5 56.6 56.9 57.1 57.1 57.6 57.6 57.5 57.5 51.7 52.4 53.3 56.8 58.3 58.7 58.8 58.8 58.9 58.9 59.4 60.1 61 62.4 63.9 65.5 66.1 65.5 64.5 63.9 61.8 59.3 57 54.9 52.1 52.7 52.1 52 52.2 52.6 54 54.7 56.1 58 59.9 61.8 63.7 65.7 67.3 68.8 71 72.4 73.4 72.6 74.8 77 77.8 78.8 79.9 76 79.8 80.5 79.6 84.3 88.4 91.9 93.3 94.1 95.7 97.4 98 98.7 99.9 101.2 100.3 103 102.6 102.4 105.3 107.3 107.7 109.9 111.2 112.6 114.2 118 120 122.4 125 127.2 129.7 133.4 137.1 140.2 144.7 146.7 148.6 151.1 154.6 158 162.2 164.4 166.7 169.1 170 168 164.7 162.2 159.2 157.2 151.5 153.5 152.5 152.1 150.7 149.8 148.5 146.9 145.4 144.2 141.9 139.2 137.5 136.3 135.7 134.4 132.5 130.1 127.8 125.9 123.9 122 120.1 118.3 116.7 115.3 114.6 114.5 113.2 111.5 105.4 99.3 108 109 108.4 103.7 90.2 108.5 109.6 111.7 113.5 115.2 115.9 118.2 120.5 122.4 125 129.7 134.1 138.8 144.9 150.1 154 155.8 157.3 155.7 153.1 151.1 148.3 144 138.4 131.4 124.3 117.3 110.6 103.9 99 94.5 92.1 90.8 89.8 88.3 88.7 90.7 92.3 94.9 96 95.3 97.6 97.3
59 58.9 58.8 58 57.2 56.7 55.6 56.7 57 57.1 57.1 57.2 57.4 57.5 57.7 57.8 58 57.9 57.9 57.4 56.7 52.3 51.5 55 57.6 58.8 58.9 58.9 59 59 59.5 60.2 61.2 62.6 63.6 63.2 63.2 62.8 62.2 61.7 59.8 57.6 55.5 53.4 53.1 52.5 51.7 52.1 52.6 54.2 55.3 56 57.4 58.8 60.4 62.3 64.4 66.7 68.4 67.9 71.9 73.4 74.6 74.4 74.7 76.9 79.2 80.4 80.5 79.7 78.4 82.8 83.8 82.2 89.7 92.2 93.7 95.2 97.3 99.3 100.3 101 102.2 103.1 103.3 105 105.1 107.2 108.1 109.7 111.7 113 114.7 116.1 118.7 121.9 123.8 126.8 129.6 134.1 136.8 140.8 144.1 146.3 148.8 151.4 155.2 157.4 160.1 163.8 166.1 166.8 167.7 170.9 171.5 168.7 165.6 162.4 159.2 158.1 157.7 157 155.6 155.8 156.5 155.2 154.1 152.6 150.7 147.7 144.6 141.8 140.6 141 138.7 135.6 133.7 131.8 129.4 127.6 125.7 123.7 121.8 120 118.7 118.2 117.5 115.2 113.3 107.8 101.3 108.4 109.7 110.7 110.6 104.5 93 110.9 114.6 113.8 116.3 117.5 118.2 119.7 122.1 125.4 127.9 132.6 137.7 143 148.2 153.5 156.3 157.9 158.8 155.7 155.7 153.1 148.9 144.2 137.5 130.9 121.2 115.3 108.8 103.5 98.9 96.5 94.6 93.5 92.3 92.6 93.1 94.7 96.1 97.8 98.4 98.4 100.1 99.8
58.6 59 59.3 58.9 58.1 57.2 57.3 57.4 57.6 57.7 57.8 58 58.1 58.2 58.3 58.4 58.3 58.2 57.8 57.3 56.7 54.5 51.6 53.1 56.4 58.9 59 59 59.1 59.1 59.5 60.3 61.5 61.9 61 60.2 60.2 59.9 59.4 58.7 57.3 54.9 53.5 53 53.1 52.7 52.9 52.6 54.6 54.8 56.6 57.3 58.7 60.2 61.6 63 65.1 67.5 69.5 71.3 73.2 74.6 75.4 76.7 76.8 77 79.2 80.7 82 82.5 81.6 83.3 86.9 88.1 85.7 93.3 94.7 96.8 98.8 100.8 102.5 103.4 104.3 104.7 106.3 108 108.5 109.9 111.1 112.9 115.6 116.3 118.5 119.9 122.9 126.4 126.9 133.4 137.5 140.9 144.2 147.3 149 151.1 154.9 159 162.1 164.1 166.2 168 169.6 170.3 169.7 172.3 171.5 168.1 165 163.3 162 161.7 161.5 161.5 161.7 162.1 162.6 160.9 158.7 156.8 153.7 150.3 147.2 144.7 144.3 141.6 139.1 136.5 134.7 132.9 131 129.3 127.4 125.5 123.7 122.5 121.2 120.2 117.5 109 105.4 104.4 112.2 112.7 112.9 113.1 111.1 98.6 100 104.7 116.8 116.7 118.2 119.2 120.1 120.9 123.6 127.1 130.5 135.6 141 146.1 150.4 154.6 157.5 160 158.9 156.8 156.8 154.4 150.4 144.5 137.4 130 122.3 115.4 110 105.6 102.4 99.9 98.3 96.8 97.5 98.3 98.1 98.5 100.5 101.3 101.5 101 101.5 101.2
57.8 59 58.6 58.1 57.8 57.5 57.5 57.6 57.6 57.7 58 58.4 58.6 58.7 58.9 58.9 58.8 58.2 57.9 57.4 56.8 56.5 52.4 52.5 55.8 58.3 58.6 58.8 59 59.2 59.5 60.4 60.2 59.2 58.3 57.4 57.3 56.9 56.5 55.7 54.2 53.1 52.8 51.9 53.5 53.6 54.6 55.9 57.1 56.7 57.4 58.7 60.1 61.4 62.4 63.8 65.8 67.8 68.7 72.4 74.6 75.1 76.2 77.4 78.6 79.3 79.7 81.4 83.1 84.6 83 82.2 89.4 91.2 92.3 91 95.2 97.6 99.9 102.3 104.4 105.5 106.4 107.3 108.8 110 111.9 113.4 114.6 115.6 117.8 120.3 121 124.3 126.7 131.8 136.8 140.5 144.2 147.8 150 151.6 152.9 157.3 162.8 166.8 168.6 170.4 172.1 173.2 173.5 172 172.4 172.4 170.7 168.4 168.1 167 167.5 167.6 167.7 167.9 167.8 167.6 167.4 164.4 161.6 158.8 156.2 153.1 149.9 147.6 145.4 142.6 141.6 138.4 136.6 134.8 132.5 130.8 129.1 127.4 125.8 124.1 122.2 118.9 117.2 117 114.9 114.7 115.6 116 116.2 116.4 111.3 98.6 115.5 110.4 116.2 117.8 119.4 120.2 121.2 122.3 125.4 128.9 133.2 138.4 144 148.8 154 158.2 160.8 160.8 159.7 158.1 157 155.7 151.7 145 137.8 131.2 124 117.2 112.6 109.1 106.9 104.2 100.7 102.9 103.1 103.4 102.6 102.9 104.6 103.8 103.8 103.5 102.3 102.2
58.9 58.9 58.6 58.1 57.8 57.5 57.5 57.6 57.7 57.8 58.2 58.7 59 59.3 59.2 58.9 57.9 57.6 57.5 57.5 57.2 57 55.2 51.8 55.3 57.3 58 58.2 58.2 58.1 57.6 58 57.1 56.4 55.7 54.8 54.3 53.9 53.6 52.5 52.5 52.9 52.5 52.3 53.6 54.8 54.9 56 57.8 57.9 58.7 59.8 60.8 61.7 62.7 64.7 66.7 68.7 71.8 73.6 75.4 76.3 77.1 78.6 79.7 80.5 81.5 82.9 84.4 85.9 87.3 83.9 90.4 92.2 93.2 93.3 94.7 97.5 100.3 103 106.1 109.1 109.9 110.6 111.3 113.1 114.6 116.2 117.5 119.1 121.5 124 125.5 127.8 132.5 138.8 142.8 140.8 146 149.6 152.1 154.2 158.9 164.8 169.6 173.2 175 176.2 177.4 176.3 175.2 175.5 173.8 172.7 172.6 172.8 172.2 172.6 173.2 173.5 173.4 172.8 172.2 171.8 171.3 167.9 165 161.6 157.7 154.5 151.3 148.7 146.5 145 143.4 140.9 138.5 136.4 133.9 132.2 130.4 128.6 126.6 124.1 117.8 122.1 121.2 119.7 114.9 118.6 118.9 119.2 119.5 119.2 112 105.7 119.5 115.3 119.2 118.9 120.6 121.6 122.7 124.3 127.5 131.4 136 141.5 147.6 151.4 156.7 160.7 161 160.1 159.3 158.6 158.6 157.1 153 147.6 139.1 132.4 126.2 119.9 116.6 114 111.5 109.2 108.1 108.7 108.3 107.3 105.2 104.9 106.1 106 106.2 106 104 104.1
59.4 59.2 58.9 58.1 57.8 57.6 57.6 57.6 57.7 57.8 58.4 59 59.3 59.1 58.3 57.9 57 56.9 56.9 56.8 56.8 56.6 56 50.7 55.8 57.1 57 56.7 56.7 56.6 55.4 54.8 53.9 53.1 52.4 52.3 52 51.9 52.4 52.4 52.5 51.6 52.7 54 55.6 56.1 55.7 55.8 57.6 59.1 58.8 59.8 61.1 62.1 63.6 65.6 67.6 67.3 72.7 75 76.6 76.9 78.2 79.7 81.3 82.3 83.2 84.8 86.4 87.9 89.8 89.6 92.3 93.5 94.6 95.7 95.3 98.7 100.8 104 106.9 110.3 111.6 112.3 113.2 114.6 116.3 118.1 120.1 123.3 125.9 128 129.2 132.4 136.7 140.1 143 145.5 148.8 151.8 155.6 160.4 165.3 170.1 175.7 179.2 181.5 181.5 181.2 180.4 179.8 178.6 177.4 176.9 176.9 177.6 178.4 179.2 178.9 177.5 177.7 177.1 176.3 174.8 172.7 170.6 168.2 163.1 159.3 156.1 152.7 150.7 148.9 147.5 145 142.7 140.4 137.9 135.4 133.6 131.4 129.1 126.1 123.7 124.2 124.4 123.6 122.3 115.5 122.1 122.4 122.4 121.7 121 115 110.9 121.3 118.2 121.6 122.1 122 123 124.3 126.8 130.2 134.5 139.3 145 150.4 154.2 158.8 161.7 161.8 160.9 161.4 161.5 161.5 159.9 155.6 150.3 143.3 135.9 130.8 126.2 122.5 118.7 115.2 112.9 108.1 111.6 110.5 110 108.7 106.3 108.8 108.3 107.9 108.2 106.8 107.2
59.7 59.4 59.1 58.1 57.8 57.7 57.7 57.7 57.7 57.8 58.6 59.3 59.5 58.9 57.8 56.8 56.3 56.3 56.2 56.2 56.2 55.9 55.6 51.9 53.3 55.3 56 55.7 55.5 54.2 52.6 51.6 51.7 51.6 51.6 51.5 51.4 52.1 52.7 51.9 52.8 52.2 53.7 55.2 56.8 55.9 55.9 56.1 57.3 59 59.6 59.9 61.3 62.6 64.6 66.6 68.5 70.8 72.9 75 76.4 77.7 79.3 80.8 82.4 83.9 85 86.6 88.5 90.5 92.7 89.4 92.5 94.5 95.7 96.5 97.6 98.6 101.4 104.7 106.8 109.8 111.8 113.2 115.5 118 119.9 121.8 124.1 127.5 130.3 132.1 134.4 137.8 140.7 143.9 147.7 150.5 153.4 156.7 160.4 164.8 169.3 175.7 181.7 184.3 185.2 184.8 184.5 184.7 184.3 183.8 182.6 182 182.2 183.7 182.3 183.9 184.3 182.9 181.8 180.8 179.3 177.8 175.9 173.8 171 165.7 161.4 158 155.2 153.5 149.8 148.6 146.2 144.1 141.5 139 136.5 133.7 131.3 127.1 126.3 127.1 126.8 126.6 126.6 125.3 119.9 125.3 125.1 124.5 123.9 123.2 116.5 110.9 122.3 121.9 122.8 123.4 123.9 124.9 127.1 129.6 133.4 138.3 143.3 148.9 153.6 157.3 159.8 162.8 162.9 163.6 164.8 165.1 164.7 163.2 158.2 152.8 147 141.8 136.5 131.3 126 121.1 117.7 115 114.1 113.5 113 112.6 111.2 109.7 111.1 109.5 109.9 110.2 109.6 110.4
60.2 59.7 59.3 58.3 57.8 57.8 57.8 57.8 57.8 58 58.8 59.5 58.9 57.7 57.6 55.8 55.7 55.6 55.6 55.6 55.5 55.2 53 51.5 51.3 54.4 54.7 54.4 53 51.6 51.1 51.1 51.5 51.6 51.5 51.5 51.4 51.1 51.7 52.8 53.2 54 55.2 56.3 56.7 56.8 56.8 56.9 57.1 58.7 60.3 60.9 61.6 64 65.5 67.1 66.5 71.8 74.1 75.5 77.3 78.9 80.4 82 83.5 85 86.6 87.6 88.3 90.1 92.9 90.6 88.9 93.2 96.8 98.4 100.1 101.5 102.7 103.7 107.5 110.9 113 115 118.5 121.5 123.5 125.4 128.2 131.5 134.7 136.1 139.6 143.1 146 148.5 152.3 156.1 159.6 163.2 166.8 171.2 176.4 181 184.6 187.4 188.1 187.6 188.2 189.4 190 190.1 188.8 188.6 188.5 188.7 187 187.9 187.7 186.1 185.2 183.7 182.2 180.7 179.2 177 173.8 169.8 165.5 160.8 157.8 155.4 152.1 149.7 147.5 144.5 141.8 139.3 136.7 131.6 131.1 131 130.6 130.5 130.2 129.8 129.3 127.6 125.9 127.4 126.9 126.5 125.9 125.6 116.2 120 125.3 125 124.7 125.3 126.8 128.3 130 133.7 137.7 142.2 147.3 152.6 156.5 159.7 161.9 164.1 165.6 166.9 168.1 168.7 167.5 165.5 161.3 156.8 151.1 144.8 139.4 134.7 128.9 123 118.7 115 115.3 114.4 115.2 114.9 114.7 111.9 112.2 111.9 112.4 112.7 112.9 113.7
60.7 60 59.4 58.5 57.8 57.8 57.9 57.7 57.3 57 57.2 57.2 56.9 56.5 56.3 55.5 54.8 54.6 54.5 54.9 54.7 53.6 49.9 49.7 50.2 53.6 53.3 51.8 51.3 51 50.9 51.1 51.4 51.7 51.5 51.6 50.7 52 52.9 53 53.2 54.5 56.5 56.5 56.5 56.8 57 57.2 57.5 58.5 60.1 61 62 63.4 65.3 70.5 70.1 72.3 74.4 76.8 77.5 79.5 81.7 83.3 84.8 86.4 88.3 90.5 92.3 92.6 92.7 94.2 94.4 92.4 95.8 99.2 101.1 103.7 105.7 107.3 108 108.6 114.3 117.3 121.6 124.6 127.1 129 132.2 135.6 138.3 141.6 145 148.4 151 153.4 157.2 162.1 166.7 170.3 173.9 177.9 182.2 186.6 188.4 190.1 191.9 192.8 193.4 195.4 196.1 195.9 195.6 194.2 193.2 192 190.6 189.8 189.3 189.1 188.6 187.2 185.9 184.2 182.5 181.4 176.4 172.3 168.3 163.7 160.3 157.2 153.9 150.8 147.9 144.8 141.7 139.9 138 136.5 134.4 134.1 134 133.8 133.6 133.1 132 130.3 129.7 129.6 129.2 128.6 128 128.9 118 123 127.5 127.4 127.3 128 129.9 132 135.8 138.5 142 146.3 151 154.8 158.7 162.7 165 166.8 167.5 168.8 170.1 170.8 169.5 168.5 164.3 159.6 153.6 147.5 142 136 130.3 124.8 121.2 118.7 119.3 117.4 119.6 117.1 115 114.5 114.7 115 114.4 114.8 115 116.1
60 59.6 59.2 58.6 57.9 57.7 57.3 57 56.6 56.3 56.3 56.3 55.9 55.4 55 55 53.5 54.3 54.2 54 53.8 51 50.9 51.3 51.4 52.3 51.6 51.3 51 50.7 51.1 51.2 51.5 51.6 51.3 51.8 51.9 52.1 52.4 52.7 53 54.7 56.3 56.1 56.2 56.4 56.9 57.4 58 59 59.9 61.1 62.3 63.7 65.7 66.6 70.2 71.6 74.2 76.4 77.7 79.8 82.9 84.6 86.1 88.1 90.3 92.4 94.6 95 93.2 94.8 95.9 96.4 95.2 99.8 102 105 107.5 109.2 111.3 113.1 116.5 118.8 124.4 127.6 130.7 132.9 136.2 139.9 143.9 147.1 149.7 152.6 155.5 159.5 163.7 168.4 173.1 176.9 179.7 182.6 186.2 190.1 193.1 195.8 197.3 198 198.3 201.3 201.8 200.5 199.5 197.3 195.2 194.2 193.6 193.8 193.7 192.9 192 190.6 189.3 187.7 185.4 182.2 178 173.9 170 166 162.2 158.8 155.5 152.2 149.2 146 143.7 142.5 141.5 140.3 138.5 137 136.6 136.4 136.3 134.8 133.7 131.3 131.8 131.6 131.6 131.1 130.1 129.8 117.1 126.1 129.8 129.7 130.6 132.2 134.3 137.6 140.3 142.9 146.3 150 153.3 157.2 161.2 165.4 168 169 169.5 170.7 171.7 172.1 172.2 170.5 166.9 160.8 154.7 148.3 141.3 135.7 130.3 125.4 122.1 122.4 122.9 121.4 120.2 118.6 118.3 117.8 116.5 116.6 116.4 116.6 117 117.3
58.8 58.5 57.6 57.1 56.8 56.8 56.6 56.2 55.9 55.5 55.5 55.3 54.9 54.3 53.8 53.7 52.9 53.5 53.3 53 52.6 49.4 50.3 51.3 51.7 51.6 51.3 51 50.7 50.9 51.3 51.3 51.6 50.4 51.8 52 52.2 52.3 52.5 53.6 54.7 55 55.4 55.7 56.2 56.8 57.3 57.9 58.8 59.5 60.4 61.6 62.6 64 66.1 69.9 72 73.5 75.7 76.7 77.9 80.1 83.5 85.7 87.2 89.3 91.3 93.3 95.3 95.6 94.6 95.8 96.8 98.6 99.2 98.9 102.1 105.7 108.9 110.9 113.9 115.9 119.2 123.2 127.4 130.9 133.8 137 140.3 145.4 149.6 151.8 155.3 158.7 162.7 166.7 171.5 176.4 180.4 182.5 184.4 187.9 192.7 196.9 199.7 201.1 202.4 202.5 202.9 204.9 205.4 203.5 201.4 198.9 198.2 197.8 197.2 196.9 196.8 196 195 193.3 191.7 190.1 187.6 183.5 179.6 175.5 171.6 167.6 163.6 160.3 156.9 153.8 150.8 148.8 147.9 145.3 145.1 144.1 142.5 141.1 139.6 139 138.6 136.8 135.2 133 133.6 133.7 133.9 133.7 132.1 127.8 122.7 131.6 132.6 134 135 136.6 139.5 142.1 144.7 146.8 149.3 152.5 155.7 159.6 163.9 168 170.8 171.2 171.7 172.3 172.4 172.9 174.1 171.7 167.5 160.4 153.8 147.4 141.8 135.4 130 125.8 125.7 126.1 125.6 124.9 122.1 120.8 120 119.4 118.3 118 117.2 117.5 117.8 117.9
58 57 56.1 55.5 55.4 55.4 55.4 55.3 55.2 54.8 54.6 54.3 53.8 53.3 52.8 52.5 51.7 51.3 51.1 51 50.9 49.1 50 50.9 51.8 51.4 50.9 50.6 50.7 51.1 51.5 51.4 51 51 52 52.3 52.4 52.6 52.9 54.5 55.2 55.2 55.3 56.2 56.7 57.2 57.8 58.3 59.1 60 61.1 62.5 63.9 64.6 67 69.4 71.6 73.7 76.6 77.5 78.7 80.9 84.4 86.4 87.8 89.7 91.8 93.9 95.9 96.2 95.9 97.2 99 101.4 103.1 102.7 102.7 104.1 108.8 112.6 115.6 118.7 123.1 127.3 127.4 133.8 137.1 140.6 146.3 151.7 153.6 156.8 161.2 165.4 170.1 174.1 178.6 182.6 185.6 187.7 190.6 193.9 199.4 203.3 204.1 205.2 206.8 207.1 208.1 207.5 206.6 204.4 203.2 201.9 201.6 201.4 200.8 200.2 200 199 197.7 196.1 194.1 192.5 189.7 185 181.2 177.1 173.2 169.5 165.4 161.7 158.5 155.4 152.7 151.4 149.6 148.4 148 147.6 146.5 145.1 143.6 142.2 140.7 139.3 137.8 136.7 137.4 137.6 137.6 136.8 135.3 123.5 127.9 133.7 136 137.5 139 140.6 142.8 144.8 146.9 149 151.6 154.9 158 163.4 169.7 173.1 174.7 174.5 173.1 172.8 173.3 175.6 176 171.4 165.6 158.5 151.8 145.7 140.7 135.5 130 129.3 128.9 128.1 126.1 124.8 123.6 122.1 119.7 119.4 119.5 118.8 118 118.2 118.3 118.6
55.6 55.6 54.6 54 54 53.9 53.9 53.9 53.9 53.9 53.8 53.3 52.8 52.2 51.7 51.2 50.9 50.7 50.2 49.8 49.3 48.8 49.8 50.7 51.1 50.9 50.6 50.5 50.9 51.3 48.6 50.1 50.4 51 52 52.6 52.7 52.8 53.4 55 55.2 55.4 55.5 56.2 57.2 57.7 58.2 58.8 59.6 60.7 61.9 63.5 65.1 66.4 67.9 69.8 71.7 74.6 76.8 78 79.7 82.2 84.5 87 88.5 90.1 92.2 94.3 96.2 97.1 97.5 99.4 101.4 103.2 105.1 106 107.1 106.1 109.2 114.2 116.9 122.1 127 131 134 131.8 140.2 146.6 152.8 154.4 157.7 161.7 166 169.3 174.6 179 183.8 188.5 191.3 193.9 196.5 199.8 203.7 207.3 208.2 209.9 211.6 211.5 211 209.9 208.8 208.6 207 205.5 205 205 204.4 203.8 203 201.6 200.3 199 196.9 194.7 191.8 187.1 182.8 178.7 174.9 171.3 167.4 163.2 160.1 157 155.5 154.1 152.6 151.7 151.3 150.9 150 148.7 147.3 145.8 144.6 142.5 141.6 141.1 142.2 142 141.2 139.1 137.4 126.1 138 138.5 139.3 140.6 141.7 142.1 144.2 146.5 148.9 151.3 153.9 157.2 162.6 167.9 174.4 176.1 176.1 175.9 174.4 173.3 174.1 174.9 174.2 168.6 163.3 156.6 149.7 144.4 139.4 134.6 133.6 132.6 130.6 129.7 127.3 126.5 124.4 122.3 119.9 119.3 119.6 119 118.8 118.8 118.8 119.8
53.7 53.3 52.8 52.7 52.7 52.7 52.7 52.7 52.7 52.7 52.4 51.9 51.4 50.8 50.4 50.6 50.3 50.3 49.8 48.7 48.4 49.1 49.8 50.6 50.5 50.5 50.5 50.6 51.3 50.1 50.2 50.6 50.7 51.3 52 52.8 53 53.2 53.9 54.9 55 55.2 56.2 56.6 56.8 57.6 58.4 59.2 60.3 61.3 62.8 64.4 66.1 67.5 69.8 71.5 72.3 72.2 77 78.8 80.9 83.5 84.8 87.3 89.3 90.6 92.7 94.6 96.2 98.1 99.3 101.3 103.3 104.6 106.5 108.4 110.2 110 111.8 114.9 118.7 124.5 129.2 132.9 135.6 139.2 142.5 148.8 153.5 156.1 157.8 160.7 163.1 170.8 177.9 185.1 188.7 191.8 195.3 198.9 201.5 204.1 207.5 210.9 214.1 215.2 215.2 215.3 214.2 213.1 212 210.9 210.1 209.6 208.3 208.4 207.7 206.9 205.9 204.7 203.2 201.6 199.8 197.4 194 189.2 184.5 180.4 176.8 173 169.2 165.2 161.8 160 158.4 157 156 155.1 154.5 154.1 153.4 152.2 150.9 149.4 148.3 147.1 144.9 144.9 145.3 144.3 143.5 142.1 140.5 129.5 142.6 142.9 143.3 143.3 143.4 144.2 145.4 147.7 150.3 153.5 157.3 162.5 168.9 172.8 176.6 176.5 176.2 176.1 174.6 173.4 173.6 174.4 171.7 166.7 160.9 153.9 147.4 142.6 138.3 137.3 136.3 133.4 130.8 130.1 129.5 127.5 124.6 122.5 121.1 120.1 119.5 119.4 119.8 120.4 120.8 121.9
52.2 51.9 52.1 52 51.6 51.6 51.6 51.6 51.6 51.6 51 50.4 49.9 49.7 49.9 50.1 49.6 49.4 49.2 48.7 49.8 50.1 50.6 50.7 50.6 50.7 50.6 50.6 51.3 50.7 50.7 50.9 51.2 51.7 52.2 52.9 53.3 53.6 54.3 54.7 55.8 56.7 57.2 57.6 58.1 58 58.7 59.9 61 62.2 63.9 65.6 66.8 68.7 70.8 72.9 73.5 73.3 74.1 78 81.5 83.4 85.1 87.6 90.1 91.2 93 95.1 97.1 99 101.1 103.1 105.1 107.1 108.3 111.1 112.7 113.2 116 117 122 126 129.4 134.4 137.1 141.3 141.7 148.5 151.1 153.3 156.6 159.9 166.1 175.9 183.6 187.7 192.2 194.7 197 201.7 205.5 208.9 213.6 217 217.5 217.7 218.6 219.1 217.7 216.2 215.1 214.2 213.8 213.4 212.8 211.1 210.7 210.3 209.3 207.5 205.8 204.2 202.4 199.6 195.5 190.9 186.2 181.8 178.1 174.3 170.5 167.3 164.8 163.1 161.7 160.6 159.6 158.6 157.8 157.4 156.8 155.6 154.4 153.1 151.9 150 147.4 146.9 147.7 146.7 145.8 144.5 136.3 138.4 145 145 144.9 144.8 144.8 145.5 146.9 149.8 153 156.9 160.6 166.2 172.3 175.9 177 176.9 176.5 176 174.2 172.9 172.9 172.2 169.6 163.9 156.3 149.1 144.4 141.6 140.6 139.5 136.4 133.7 132.8 132.3 129.9 128 125.5 123.9 122.5 121.6 120.8 121.2 121.8 122.4 123.2 124.2
51.2 51.4 51.4 51.4 51 50.5 50.5 50.5 50.5 50.2 49.5 49 49 49.2 49.4 49.6 49.2 49.5 49.6 49.4 50.7 50.8 50.8 50.9 50 50.4 50.4 50.8 51.6 51.3 51.1 52 52.3 51.9 52.3 53.1 53.7 54.1 54.5 55.7 56.6 57.3 58.2 58.7 59.1 59.3 59.2 60.7 61.9 63.1 64.9 66.8 67.9 69.8 71.7 73.6 74.3 76.6 78.3 79.8 80.7 83.1 85.4 87.9 90.4 92.5 94.1 96.1 98.2 100.6 103 105 107 109 110.9 111.6 114.9 116.4 118.3 120.7 123.8 127.7 133.4 137.7 139.4 141.1 144.2 145.6 149 153.5 158 164.1 170.8 179.4 186 191.3 195.5 197.8 201 204.3 208 213 217.8 220.2 222.5 223.6 223.4 222.3 221.3 220.3 219.1 217.8 217.3 216.9 215.8 214.9 215.4 214.1 212.3 210.5 207.8 206.1 204.2 200.9 197 192.3 187.6 182.8 179.8 175.9 173.9 171 168.4 166.6 165.3 164.3 163.2 162.2 161.3 160.6 160.2 159 157.8 156.4 154.5 153.1 150.4 151.6 150 149 148.1 147 131.5 145.2 146.6 146.6 146.5 146.4 146.2 147.2 149.5 152.4 156.1 159.8 163.7 169.1 174.2 175.8 176.4 177.3 176.7 175.7 173.2 171.2 169.3 168 165.4 159.1 153 148.7 145 143.2 140.2 138.4 137.1 136.2 134.6 131.8 129.3 127.9 127.1 125.4 124.2 123.7 122.5 123.2 123.9 124.5 123.5 123.7
50.6 50.8 50.8 50.8 50.4 49.9 49.4 49.4 49.4 48.8 48.3 48.4 48.3 48 48.2 49.2 49.1 48.8 49.5 50.1 50.4 50.4 50.4 50.4 50 50.4 50.8 51.1 51.3 51.7 51.5 52.7 53.4 52.7 52.9 53.1 54.4 55.1 55.2 56.3 56.9 57.4 58.3 59.3 60.2 60.5 61 61.5 62.2 63.7 65.2 67.3 68.6 70.3 72.2 73.6 75.9 78.2 80.6 82.6 83.6 83.7 84.5 85.6 90.6 92.8 95.9 97.4 99.7 102.1 104.8 106.8 108.8 110.8 112.8 114.3 115.6 118.8 120.3 123.6 127.5 131.8 132.6 138 141.8 142.6 144.5 148.8 152.3 155.2 160.6 166.9 175.5 182.9 190.2 195.5 198.9 201.4 204 206.9 211.4 216.6 222.4 226.1 227.5 227.5 227.2 226.3 225.2 224 222.1 221.4 220.9 220.4 219.4 219 218.6 217.3 215.4 213 208.6 207 204.9 202 198.4 193.7 188.9 185.5 182.1 179.7 177 175 173.4 171 169.3 167.9 166.8 165.8 164.8 164.2 163.6 162.2 160.7 159.2 156.7 154.6 154.1 154.1 152.2 151.3 150.3 149.1 132.7 147.3 147.8 147.7 147.6 148 148.6 149.2 152.1 155 158.9 162.8 166.8 171.9 174.9 177.6 178.8 177.8 176.6 175.9 172.4 170.3 168.1 165.9 161.4 156 152.3 149.9 147 143.3 141.1 140.1 139.7 138.6 135.7 132.7 129.9 128.6 128.2 126.9 126.1 125 124.5 125.1 125.6 126.2 126.7 126.2
50.1 50.1 50.1 50.1 49.8 49.3 48.8 48.3 48.1 48 48.1 48.2 48.4 48.6 48.9 48.8 48.7 49 50 50.2 50.2 49.9 49.9 49.9 50.6 50.6 51.2 51.7 51.7 51.9 51.9 53.3 53.5 53.7 54.3 54.1 54.8 55 55.8 56.5 57.2 57.7 58.3 59.3 60.2 61.4 62 62.4 63.4 64.8 66.1 67.6 69.3 71 72.6 74.5 77.7 80.2 82.4 84.3 85.5 86.7 87.7 88.5 90.1 93.9 95.3 98.4 101.3 103.7 106.4 108.6 110.6 112.6 114.6 116.4 118.8 120.4 123.5 126.5 130.4 134.6 137.4 138.1 142.7 144.7 147 150 153.9 157.7 164.8 171.6 179.3 186.5 193.4 198.4 202.2 204.2 206.7 209.6 216.3 224.5 229.3 230 230.7 231 230.5 229.4 227.9 226.6 225.5 225 224.5 224 224.1 224 221.8 219.7 217.7 214.1 209.7 207 205 202.9 198.4 193.3 190.7 187.9 184.8 182.5 180.2 177 177.3 175.4 173.7 172 170.4 170.1 169.5 168 166.4 164.9 162.6 160.3 158.2 157.6 157.1 156.1 154.7 153.3 151.3 149.4 138 148.4 148.7 149 149.5 150.1 150.7 151.5 154.4 157.6 161.6 165.6 169.6 172.6 175.6 178.5 179.6 178.2 176.7 175.7 172.4 169.5 167.5 165.6 160.7 156 152.6 151.1 148.1 145.7 143.7 141.8 140.3 138.7 135.5 133.9 132.3 130.3 129.3 128.4 126.5 126.1 126.3 126.7 127.1 127.8 128.6 128.9
50.1 49.5 49.5 49.5 49.3 48.8 48.3 48.1 47.7 47.7 47.9 48.4 48.6 48.6 48.5 48.5 49.4 49.8 49.9 50.1 50.2 50.3 49.9 49.5 50.1 50.9 51.3 52.2 52.4 52.4 52.6 53.7 54 54.7 55.5 55.8 56.3 56.6 56.7 56.9 57.5 58 58.5 59.3 60.5 62 63.2 63.4 64 65.9 67.4 68.9 70.5 72.3 74.3 76.9 79.4 81.8 83.4 85.2 86.8 88 89.2 91.8 92.3 92.9 96.2 99.3 102.8 105.2 108 110.5 112.5 114.5 116.4 118.5 121.2 123.4 126.4 130.5 134.6 136.5 140.3 142 143.8 146.7 149.3 152.3 156.6 161.7 170 179 185.4 190.8 197.6 201.8 205.5 207.5 209.5 214.5 221.9 227.7 232.1 234.1 234.8 234 233.4 232.2 231.3 230.3 229.3 228.9 228.8 229.3 229.2 226.6 224.5 222.4 219.9 215.6 210.1 207.1 205.7 203 199.4 195.2 192.5 189.7 187.8 185.6 182 180.2 179.7 178.1 177.1 175.5 173.9 173.6 171.5 170 167.9 165.6 163.3 162.5 160.9 160.1 159.1 157.3 155.5 153.6 151.6 150.7 148.7 145.2 149.4 150.1 151.2 152.1 152.7 153.8 156.6 160.1 163.9 168 171.4 174.3 177.3 180.3 180.3 179.3 177.2 175.5 172.6 169.9 168.2 166.6 162.2 157.3 154.1 151.1 149.1 147.2 145 142.8 140.9 139.1 137.7 136.2 134.7 132.8 130.8 129 126.3 128.8 128.1 128.2 128.7 129.2 129.2 129.1
50.6 49.8 49.2 48.8 48.7 48.2 48.1 48.1 47.7 47.8 48.4 48.7 48.7 48.7 48.7 48.5 49.1 49.6 49.8 50 50.1 50.2 49 49.6 50.2 51.1 51.4 52.3 53 53.5 54.2 54.4 55.2 55.9 56.6 57.2 57.2 57.3 57.3 57.5 57.1 57.9 58.7 59.8 61.1 62.5 63.9 64.9 66.2 66.8 68.4 70.2 71.7 73.5 75.9 78.8 81 81.7 84.2 85.8 87.7 89.3 91.2 94.1 95.5 96.8 97.1 100.2 103.7 106.8 109.5 112.2 114.6 116.9 119.3 121.6 124.9 126.6 129.6 134 138 140.3 142.7 145.6 147.5 148.7 152.1 155.8 160.6 166.5 176.9 186 192.4 197.5 202.3 205.3 208.6 210.9 213.7 218.9 225.4 230.9 235.5 237.9 237.7 237 236.3 235.1 234.9 233.9 232.7 232.2 233.5 233 231.7 229.2 227.6 224.2 220.7 215.7 210.2 207.8 207.2 204 200.6 197.1 194.6 192.2 189.9 187.5 183.8 182.3 180.7 179.9 179.5 178.3 176.5 174.7 172.4 170.5 168.7 166.5 165 165.2 163.6 162.1 160.4 158.5 155.8 153.9 152.1 151.9 145.3 147.5 150.4 151.1 152.2 153.4 154.6 156.3 159.3 162.5 166.3 169.9 173.4 176.5 179.4 181.5 181.5 180.7 178.6 176.3 174.6 171.6 169.9 168 162.9 159 156 153.1 150.5 148.4 146.2 144.1 142.7 140.9 139.5 138 136.8 134.9 134 129.8 128.8 132.5 130.1 130.1 130 129.7 129.1 128.8
50.4 50 49.4 48.8 48.1 48.2 48.2 48.3 47.9 48.3 48.8 48.8 48.8 48.8 48.8 48.5 48.9 49.3 49.6 49.8 49.9 50.1 50 50.1 50 50.8 51.8 52.6 54.3 55.2 54.8 55.5 56.5 57.3 58 58.3 58.2 58 58 59.2 59 58.7 59.8 61 63 64 64.9 66.9 66.3 67.6 69.2 71 72.8 75.5 76 80.1 82.5 83.5 84.2 86.5 88.2 90.5 93.2 95.8 97.4 99.2 100.2 101.4 103.8 108.3 111 113.7 116.7 119.2 121.5 123.7 127.6 131.2 134.8 138.3 141.6 144 146.4 148.7 150 152.2 155.4 160.1 164.9 174.5 184.6 194.1 199.1 203 206.7 209.1 211.7 214.5 218.4 224.7 230.6 236.2 239.2 240.6 240.1 239.7 239.2 239.1 238.6 237.5 235.9 235.6 235.4 234.7 233.6 232.4 229.1 223.9 220.1 215 210.2 210.3 209.1 205.1 201.8 198.4 195.3 192.9 190.5 189.2 186.1 184.1 183 182 181.3 179.7 177.3 174.3 172 170 169 168.4 167 166.7 164.6 162.9 160.8 157.8 154.9 153 152.5 151.9 145.2 149.7 151.5 152.2 153.1 154.8 156.7 159.1 162.1 165.3 168.3 171.8 175.3 178.7 181.4 182.7 182.9 182.1 179.8 176.8 175.5 174.2 174.3 167.7 164.6 161.1 158 155.1 152.1 149.7 148.1 146.9 145.7 143.9 141.3 139.2 137.3 136.6 133.8 127.9 131.5 132 131.5 131 131.6 128.8 127.9 127.2
49.9 49.1 48.9 48.2 47.5 47.4 47.8 48 47.7 47.9 48.3 48.1 48.9 49 48.9 48.5 48.6 48.9 49.3 49.6 49.7 49.9 49.2 49.7 50.4 51.3 53 54.4 56.2 56.4 55.7 56.7 57.9 58.6 59.1 59.4 59.2 59.1 59.1 60.8 61.2 60.8 61 62.1 63.9 66 68 67.7 69.1 69.8 70.1 72.4 74.6 76.4 78.8 81.9 83.7 85.5 84.6 86.1 90 91.4 93.9 96.5 97.9 100.7 102.6 104 105.3 109.3 112.5 115.1 117.9 121.3 123.8 126.1 130.6 134.3 138.7 142.2 145.1 146.9 149.7 150.6 152 155.5 159.9 164.3 172.1 184.1 194.3 199.1 203.4 207.7 210.6 213.1 215.8 220.7 225.5 230.8 236.1 240.1 242.9 243 242.6 243.1 242.5 242.5 242.3 240.8 239.2 239 238.7 237.3 235 232.9 229.2 224.3 218 214.7 212.8 213.2 209.4 205 202.2 199.4 196.6 193.6 191.2 190 188.1 186.4 184.8 183.5 181.4 179.2 176.7 174.1 172.2 170.9 170.7 170.3 169.4 166.8 164.7 162.3 160.1 156.9 154.2 152.8 151.2 149.6 149.2 150 152 153.5 154.4 156.2 158.3 161.8 164.7 167.5 170.3 173.8 177 181 182.9 184.4 184.7 183.3 180.2 177.5 176.1 174.5 171.5 169.3 166.2 163.2 160.1 157.1 155.3 153.5 151.7 150 147.3 143.4 140.3 138.8 139.6 137.5 131.4 129.1 133.1 132.7 132.5 131.9 127.9 127.6 126.8 124.2
48.8 48.5 48.3 47.8 47.1 46.7 47.1 48 47.7 47.9 48.3 48.7 48.4 48.3 48.3 48.3 48.3 48.6 48.9 49.3 49.6 48.8 50 50.7 51.9 53.1 54.1 56.1 58.6 59.1 56.4 57.6 59.3 59.8 60.2 60.4 60.3 60.2 60.2 61.5 63 63 62.9 63.2 64.5 68.6 70.1 70.8 71.3 72.8 72.3 72.4 75.1 77.6 80.5 83.3 84.6 86.2 87.8 87.5 88.7 92.2 94 97 99.2 102.2 104.2 106.6 108 110.2 114.1 116.7 119.3 122.2 126.2 129 133.9 137.4 142.9 145.6 148.1 150.4 152.2 153 155 159.1 163.9 168.8 180.9 190.6 194.6 202.9 207.2 211.2 214.2 218.3 221.7 224.8 229.6 234.8 241.1 244.1 244.9 247 247.5 246.9 245 244.2 243.6 244.1 242.6 241.9 240.5 238.6 236.4 233.3 229.2 224.3 219 214.9 213 211.3 209.4 204.9 201.9 198.9 196.7 194.5 192.1 190.9 189.6 187.7 185.2 182.8 180 177.8 176.1 174.4 173.7 171.9 171.1 171 169.3 166 163.9 161.8 159.4 156.1 154 152.9 152 150.4 148.1 150.6 152 153 154.1 156.8 159.6 162.6 165.6 168.6 171.6 175 178.6 183.6 185.2 186.2 185.4 183.9 180.6 178.2 176.2 174.6 173.4 171.7 166.7 162.1 159.2 155.4 154.5 154 152 150.1 147.4 144.3 142.2 143.1 141.7 137.8 130.2 131.6 132.9 133.2 130.9 128.9 125.6 124.6 123.7 121.1
48.6 47.9 47.7 47.3 46.6 46.8 47.2 47.4 47.7 47.9 48.3 48.4 47.8 48 48 48.3 48.3 48.9 49.2 49.6 49 50.6 53 54.1 55.3 56.2 57.1 59.1 60.3 60.3 58.7 57.9 60.6 60.9 61.3 61.5 61.3 61.3 61.6 62 64.1 64.5 64.8 65.4 65.5 70.5 71 71.9 72.6 74.6 73.8 74.7 76.2 78.4 81.2 83.2 85.3 87.5 89.5 90.6 91.3 90 93.9 97.6 99.5 102.7 105.8 108.2 110.8 111.7 115.2 118.3 121 124.4 129.3 132.8 138.6 141.6 146.4 148.9 150.9 152.6 155.1 156.4 158.6 163 168.5 174.1 184.3 191.2 197.4 203.5 209.9 216.9 220 221.9 224.2 228 234.8 240.3 244.4 247.3 249.1 250.9 251.2 248.3 247 246.1 245.5 245.2 244.6 243 241.1 237.1 234 232.8 229.1 224.2 219.3 216.3 214 211.5 207.7 204.2 201.5 198.4 196.2 194.5 193.2 192 189.5 187 184.5 182.1 179.4 177.1 177 174.9 174.4 172.5 171.4 169.5 166.8 164.4 162.5 160.3 158.1 154.8 153.7 152.7 151.9 151.1 150.8 151 151.6 152.6 154.6 157.6 161 164.1 166.6 169.5 172.5 175.2 181.3 185.5 187 187.5 186.8 184.8 181.8 178.7 177.4 177.1 175.1 173.7 170.7 168.3 164.9 162.8 158.4 154 149.6 149 148.3 146.5 145.3 144.2 141.9 139.1 130.2 134 133.4 132.2 128.1 125.9 123.3 122.1 120.6 121.9
48.9 47.8 47.1 46.8 46.7 47 47.3 47.9 47.8 47.9 48 47.9 49 48.8 48.4 48.8 47.8 49.3 49.1 51.1 52.6 53.4 54.4 56.3 57.4 58.8 60 61.2 61.8 61.6 60.4 58.7 61.9 62.2 62.4 62.5 62.6 62.8 63.3 63.8 64.5 66.2 66.7 69 71.1 70.3 72.4 74.5 76.1 75.6 75.7 76.5 77.1 78.9 79.3 82.9 85.8 88 90.3 92.4 93.6 93.1 94.9 96.3 98.5 100.8 106.7 110.1 110.9 114.8 117.3 120.5 124.4 127.2 131.2 137.3 142.3 144.6 148.7 150.6 152.2 154.1 157.5 159.4 163.1 168.2 174 181.8 189.1 194.5 199.2 206.6 218.4 221.6 222.5 224.4 227.5 232.8 239.2 244 247.5 250.4 251.7 253.2 252.3 250.2 248.4 247.6 246.8 245 244 242.3 238.8 237.6 235.6 232.5 228.4 224.3 219.4 217.7 214.6 210.8 206.4 203.1 200.4 198.3 197.2 196 193.8 191.6 188.4 186 183.9 181.4 179 177.6 177.1 176.7 174.7 172.2 169.6 166.9 164.2 162.7 160.7 158.6 156.8 153.6 153.5 152.7 151.9 151.1 151 151.1 152 154 156.1 159.6 163.2 166.2 168.8 171.5 173.9 177.1 184.9 187.2 188.5 188.6 187.5 185.4 182.4 181 180.5 179.7 177.7 175.8 176.5 173.4 170.3 167.8 164.7 159.5 153 147.1 146.8 146.2 143.7 143.1 144 140.9 131.1 131.8 129.2 129.3 127 123 121.1 119.7 118.4 117.2
48.3 47.6 46.8 46.5 46.8 47 47.5 47.9 48 47.8 48.2 48.7 48.6 47.1 47.1 48.5 49.6 49.7 50.8 53.6 55.1 56.6 57.4 58.5 60.2 61.3 62.1 62.7 63.3 63.2 61.9 60.7 63 63.7 63.7 63.9 64.1 64.5 65.1 65.8 66.6 67.4 70.4 69.2 71.4 75.5 76 77.4 77.4 77.2 77.6 78.4 79.2 80.3 80.7 84.2 86.3 88.5 91.1 93.1 94 94.9 96.1 99 101.9 104.4 105.3 105.7 112.2 116.1 118.4 121.3 126.4 130.1 133.8 140.2 143.7 146.9 148.5 151.8 153.5 155.7 159.8 161.8 167.3 173.4 179.4 186 192.8 198.3 203.8 211.4 219.9 223.1 225 228.2 232.3 237.7 243.3 247.9 251.6 252.9 253.7 254.4 253.4 252 249.3 248.7 247.8 245.8 243.6 242.5 241 238.1 234.7 231.2 226.4 224.4 220.7 216.9 212.5 208.8 205.2 202.6 201.3 200 197.7 195.2 193.2 190.4 187.3 184.9 182.8 181 180 178.4 177.3 175.4 172.4 169.8 167 164.8 162.9 161.2 159.5 157.9 156.3 153.1 152.8 152.2 151.6 151 151.5 152.5 154.3 156.5 159.3 162.1 165.5 168.1 170.1 172.2 174.6 181.7 187.1 189 190.2 189.1 187.7 186.4 184.2 183.2 182.4 181.3 179.8 179.6 179 176.5 172.7 167.9 161.5 156.2 151.5 148.5 145.5 142.6 141.7 143 138.8 138.5 135.4 131.4 127.6 125.5 122.6 119.7 118.5 118.2 116.6 115
48.4 47.7 47 46.1 46.8 47.3 47.1 47.8 48.1 48.6 48.1 48.9 48.8 48.9 49.6 50.6 50.9 51.4 53.6 56.1 57.6 59.1 60.3 59.9 62 63 63.6 64.2 64.8 64.7 63.5 60 63.4 65.1 65.2 65.4 65.7 66.4 67 67.7 68.6 71.1 71.7 71.8 75 77.2 78.3 79.3 79 78.8 79.5 80.1 80.5 83.7 84 83 87.9 89.4 91.3 92.8 94.1 95.4 97.4 99.9 103.2 106.4 109.3 112.1 109.3 111.5 118.5 124.1 126.8 131.4 136.7 141.6 145.1 147 148.6 151.6 154.8 157.3 161.3 164.9 171.5 177.9 183.9 190.2 196.4 203 209.7 217.3 222.4 225.9 228.1 231.2 237.5 243.5 248 251.2 253.4 254.8 255.8 255.1 253.7 251.6 250 249.1 247.9 246.8 245.2 242.8 240.3 237.2 233.8 229.9 225.5 223.2 219.1 214.4 210.9 207.3 205 203.2 201.3 199.1 196.9 194.4 192.1 189.1 187.3 185.3 184 182.6 181.1 179.2 176.6 173.9 171.1 169 165.7 163.6 162.2 160.8 159.1 157.4 155.5 152.6 152.2 152 151.9 151.9 153.2 154.8 156.5 158.9 161.9 165.5 167.5 169.7 172.1 174.4 178 185.1 189.2 190.7 191.2 190.5 189.2 187.7 186.3 184.8 184 183.2 183 184.2 182.2 177.9 173 165.7 159.6 154.4 150.7 149.6 148 146.9 147.3 146.6 139.8 135 132.3 128.7 125.8 122.6 119.5 118.5 117.3 116.1 115.8 116.3
48.2 47.8 47.3 47 47.4 46.3 48.2 49 49.7 50 50.3 50.8 51 51.4 51.4 52.1 52.5 54 56.5 58.5 60 61.4 62.7 63.2 63.6 64.7 65.3 65.7 66.1 66.2 65.3 62.5 63 66 66.3 66.5 67.2 67.7 68.5 69.3 71.5 71.9 72.1 73.5 77.8 78.7 79.7 80.7 81.1 80.8 80.9 81.6 81.2 85 86.4 87.9 87.3 90.8 91.9 93.2 94.6 96.3 98.7 101.7 104.7 107 109.3 112.6 116.4 119.7 123 121.9 127.7 133.6 137.5 142.9 145.4 147.9 149.4 151.7 154.1 158.4 162.4 168.8 175.8 182.5 188.5 194.7 202.3 209.8 216.8 221.9 225.7 230.2 232.7 236.8 243 246.5 250 252.8 255 256.2 256.2 255.1 253.3 251 249.2 249.4 248 246.1 243.5 242 239.4 236.3 232.4 228.6 224.8 220.9 217.1 213 209.9 207.6 205.7 202.9 201 198.1 195.9 193.6 191.3 189.7 187.8 186.7 184.8 182.8 180 177 174.1 172 171.6 171.2 166.3 163.9 161.9 160.4 158.7 157 154.6 152.7 152.8 152.8 152.9 153 155.1 157 158.8 161.2 163.9 166.6 167.8 170.6 174.2 176.7 182 187.1 191.1 192 192.2 191.5 190.6 189.3 187.9 186.5 185.6 185.2 187.5 187.5 182.7 177 169.6 162.1 158 153.7 152.5 150.8 148.3 148.8 146.1 143.2 138.5 132.1 128.5 124.9 122 118.9 117 116.5 115.9 117 116.2 118
47.2 46.7 46.4 46.9 47.5 48.4 50 50.8 51.4 51.8 51.9 52.2 52.9 54.3 53.5 53.7 54.7 55.7 58 61 62.4 63.7 64.9 65.6 66 66.4 66.8 67.3 67.6 67.7 67.6 69 67 67 67.4 67.8 68.5 69.3 69.5 72.4 73.4 75.3 73.4 78.8 79 80.1 81.1 82.2 83.2 82.9 82.6 82.5 82 86.2 88 89.4 88 90.4 92.3 93.8 95.7 97.6 99.7 102.7 106.1 109.3 112.2 113.7 117.3 122.4 125.7 128.9 126.2 134.8 141.6 144.6 145.6 148.9 150.3 152.8 155.3 159.2 163.1 171.5 179.4 186.8 193.1 200.7 208.8 216.2 223 227.5 231.7 239.1 240.2 241.9 245.3 248.8 251.5 253.5 255.4 255.8 255.9 254.8 252.7 250.9 251.2 248.9 246.9 245.4 243.4 241.2 238 234.5 230.4 226.7 222.9 219 215.3 212.3 210.3 208.2 206.3 202.3 200.4 198.5 196.6 194.5 192.2 190.3 188.6 186.8 184.2 181.3 177.8 174.8 174.4 173.5 171 168.1 164.8 163.6 161.6 159.9 158.3 156.6 154.2 152.9 153.2 153.3 153.4 154.8 156.9 159.1 161 163.6 165.9 167.7 168.4 171 174.6 179.8 184.9 190 192.9 194 193.7 193 191.9 190.3 188.9 187.7 186.9 186.6 186.4 186.9 180.2 172.7 165.3 159.7 156.2 155 154.2 151.9 148.9 147.8 140.5 136.8 133 132 125.8 122.3 119 116.2 116 116.4 119.6 122.3 117.5 118.4
46.6 46.7 45.9 47.3 47 49.1 50.6 52.2 53.4 53.7 53.7 53.9 55.3 54.7 54.8 55.5 56.6 57.8 60 63.2 64.6 65.8 66.7 67 67.4 67.8 67.8 68.3 69.1 69.8 69.7 69.5 68.5 66.3 68.4 69.1 69.8 70.5 73.6 74.1 74.9 77.1 78.3 79.7 80.4 81.6 82.6 83.6 84.6 85 84.7 85.5 83.4 84.2 88.9 90.2 90.8 90.9 93.1 95.1 97.1 99 101 103.8 107.2 110.6 113.7 116.6 120.4 122.3 128.3 132.2 135.5 129.6 142.7 145.3 147.3 149.8 150.9 153.8 156.3 160.2 166.2 174.4 182.3 190.3 199 207.2 215.4 222.4 229.2 235.6 241.5 242.6 242.2 243.5 248.8 250.7 252.1 254.2 255.3 255.3 254.4 254.8 253.6 252 250 248.4 247.1 245.1 242.7 239.8 235.8 232.2 228.5 224.9 221 217.8 214.7 211.9 209.3 207 204.9 201.8 200 198.1 196.3 195.2 193.7 190.8 187.3 185.1 182 179 176.2 176.4 174.3 170.8 167.6 164 163.9 162.5 160.7 159.3 158.4 156.5 154.8 153.6 153.9 154 154.9 156.7 158.8 160.9 162.5 164.5 166.5 167.7 168.3 171.2 177 184.1 188.9 193.5 195.4 195.8 195.5 194 192.5 191 189.7 188.6 187.9 187.4 185.4 182.3 174.8 167.5 162.9 158.9 156.6 155.3 153.5 150.3 146.9 141.7 135.5 131.4 129.2 131 123.9 120.1 117.1 116.9 117.4 119.7 123.5 123.5 118.6 117.4
46.6 46.7 47.2 46.7 47.7 49.6 51.5 53.3 55.1 55.6 56 56.3 56 56.4 56.2 57.3 58.4 60.3 62.1 64.7 66.8 67.9 68.1 68.3 68.7 68.9 69.7 70.3 71 70.8 70.6 70.5 70.4 69.8 71.6 70.6 70.6 74.4 75.4 76 76.7 78.5 79.5 80.5 81.8 83 84 85 86 87 87.4 86.2 88.5 87.6 89.4 91.5 92.4 93.4 94.1 95.8 97.8 100.4 102.3 104.9 108.3 111.7 115.1 118.6 122.8 127.5 130.3 134.5 138.6 141.6 131.5 143.8 148.3 149.8 150.9 153.7 156.8 160.6 169.4 178.2 186 195 204.5 213.6 221.3 228.8 237.6 243.6 244 242.3 242.2 246.5 251.7 252.9 253.4 255 255.4 255.8 255.8 255.1 254.2 252.8 250.1 248.5 246.1 244 241.7 238.6 234.7 230.9 227.2 223.6 220.4 217.3 214.2 211.5 209.1 207 204.8 201.4 199.8 197.9 196.2 194.7 192.4 190.3 186.6 183.2 179.9 180.1 180.3 181.1 178.5 174.8 170.1 164 163.2 161.6 160.1 158.7 158.1 156.5 155.4 155.1 155.8 156.1 157.2 158.6 160.5 162.5 163.6 164.7 166.6 167.6 169.6 175.2 181.7 188.3 193.1 196 197.4 197.5 196.3 194.8 193.2 191 188.2 189 187.8 185.3 180.9 175.6 170.4 166.4 162.3 159.6 156.8 153.2 148.9 144.7 142.1 136.1 130.9 127.1 123.5 121.3 119.3 118.7 118.2 118.9 119.5 121.7 123.3 122.4 119.6 117.5
47.1 47 46.4 49.4 51.4 53 54.2 55.8 56.1 56.6 57.5 57.3 58.8 57.8 58.1 59.1 60.5 62.9 64.3 66.7 68.1 69 69.3 69.7 70 70.8 71.5 72.2 72.1 71.8 71.6 71.5 71.4 71.2 71 70.4 74.1 74.6 77.2 77.8 78.7 79.9 80.6 81.3 82.1 84.5 85.4 86.4 87.4 89.3 89 87.9 90.2 88.9 90 91.8 93.7 94.6 96.3 97.1 99.5 101.9 103.8 106.5 109.5 112.9 117.5 121.6 126.1 130.4 134.5 138 139.4 144.4 137.1 146.4 149.8 150.3 150.9 153.5 156.9 164.3 172.1 180.3 189.7 199.6 209.2 219 226.9 234.3 241.6 243.8 243.3 244 246.8 252.4 254.8 255.1 255.4 256 256.7 255.4 254.8 254 253 251.8 250.1 248.1 245.4 243.3 240.4 236.7 234.1 230.6 227.1 223.4 219.9 216.7 213.7 211.1 209.4 207.3 204.7 201.4 199.3 197.7 195.8 193.1 190.1 187 184.2 180.6 178.5 182.4 184.1 183.5 181.7 178.8 175.2 170.2 162.5 161 159.6 158.2 157.5 156.5 156 156.6 157.7 158.3 160.3 161.8 162.9 164.2 165.3 165.7 166.8 168.9 173.9 180.6 187 191.7 195.3 198.2 199.2 198.7 197.1 195.3 193.1 190.8 191 189.2 186 182.2 177.4 173.1 168.7 165 161.4 158.4 154.7 150 145 141.2 136 133 126.9 123.6 120 118.5 117.6 116.6 117.3 118.8 120.2 121.2 121.5 120.9 118.4 116.9
46.6 45.4 47.6 50.9 53.7 55.3 56.4 57.1 57.5 57.4 58.6 58.7 60.2 60.3 59.9 61.3 62.5 64.7 66.5 67.9 69.3 70.1 70.5 71.2 72.5 73 73.8 74.6 73.7 73.2 73.6 73.7 73.4 72.4 70.8 74.7 75.2 75.3 78.4 79.1 79.9 80.7 81.3 82 83.5 85.3 86.2 87.2 88.3 90.3 90.9 91.6 91.8 89.8 93 93.4 94.7 96.1 98 100.7 101.6 103.5 105.5 108 111.7 114.2 117.9 123.1 128.7 133.7 138.4 142.4 144.8 147.4 144.1 142.7 146.6 149.9 151.7 154.6 159.8 166.3 172.9 182.2 193.9 204.4 214.3 224.1 232 238.4 243.1 245.6 246.5 247 251.9 254.3 256.6 257.2 257.5 255.4 254.3 253.8 253.6 252.7 251.7 250.4 249.1 246.3 244.1 242.4 239.9 236.5 234 231.1 227.3 223.2 219.7 216.2 213.2 211.3 209.2 206.9 204.4 201.6 198.8 196.6 192.6 189.3 186.1 182.8 180.6 178.4 178.9 182.5 183.6 183.6 182.8 181 178.5 173 163 160.4 159 157.6 156.9 156.5 156.7 158 159.4 161.2 163.1 164.4 165.4 165.8 166.4 167.1 168.6 172.3 178.6 185.1 190.7 194.9 197.5 200.7 200.4 199.6 197.2 194.3 192 189.7 187.4 185.3 183.6 179.3 174.3 171.4 168.3 165.1 161.1 154.7 151.8 146.9 141.6 136 131.1 126.7 122.9 119.8 118.6 118 117.1 117 118.6 120.1 121 119.7 119.2 119.2 117.3 116.8
46.5 47 50.4 54 55.8 56.5 57.3 58.1 58.8 59.5 58.8 58.5 58.9 60.6 61.2 63.1 64.7 66.5 67.5 68.8 70.3 71.6 72.4 73.1 73.8 74.9 76.5 76.5 75.1 74.9 75.1 75.4 76 71.4 73.1 76.1 76.7 76.7 79 80.3 80.4 81.2 81.9 83 85.2 86.4 87 88 89.3 91 90.6 93.5 93.5 89.1 94.3 95.2 96.3 98.5 100.4 102.4 103.9 105.5 107.4 110.8 113.4 115.7 119.9 124.8 132.3 137.9 143.3 148 149.5 149.4 149 149.2 149.3 151.6 153.2 156.8 162.1 168.4 176.4 185.7 197 208 218.7 228.2 235.4 240.9 245.8 247.7 247 248.3 255.9 258.4 258.4 256.6 254.5 254.2 253.9 253.3 252 251.4 250.3 248.9 247 244 242.1 240.4 238.9 236 231.8 228.1 224.6 221.4 218.9 215.8 213 210.9 208.8 205.7 202.4 198.9 195.6 193.8 189.9 186.3 183.2 180.8 179.4 178.6 177.9 179.7 180.1 180.7 181.1 178.9 175.4 171.8 163.5 159.5 158.2 157.5 157.6 157.6 158.9 160.3 161.7 163.4 164.9 165.5 166 166.4 167 168.4 171.6 176.3 182.4 188.9 193.7 197.1 199.1 201 201 199.4 196.6 193 190.7 188.3 186.1 184.6 181.8 178 175.1 172.1 168.5 163.7 158.6 152.3 147.8 144 138.2 132.2 126.8 122.5 119.3 118.8 118.2 117.5 117.7 118.8 120.8 122.7 123.5 122.5 120.3 118.1 117.4 117.1
46.9 50.4 54 55.9 56.6 57.2 57.9 58.7 59.3 58.9 59.3 59.8 60.2 61.3 62.6 64 66.3 67.8 68.6 69.5 71 72.7 74 74.7 75.6 76.6 77.3 78.2 77.9 76.2 76 76.1 71.4 76.6 76.2 73.7 77.2 78.2 79.5 81.1 81.2 82.7 83.9 85.1 86.4 87.6 88.1 88.7 90.3 91.8 91.3 94.3 94.3 91.2 96.1 98 98.7 101.3 103.2 104 105.7 108.3 109.9 111.7 114.7 117.9 122.2 128.3 135.3 142.5 148 152.4 153.1 151 150.7 150.8 152.7 153.2 155.9 159.2 164.5 170.1 178.3 188.2 198.8 208.2 218.7 227 237.8 242.5 247.4 246.1 246.7 248.7 258 254.9 254.5 253.9 253.4 253 252.9 251.9 250.3 250 247.8 246.4 244 241.7 240 238.4 236.4 233.4 229.7 226.8 223 219.6 217.1 214.7 212.3 209.5 205.4 202.6 197.9 194.5 192.1 188.9 186.4 183.2 180.9 180.4 179.6 178.8 177.8 177.1 176.1 176.4 176 173.6 169.2 167 164.9 160.7 159.6 158.5 158.7 159.7 161.1 162.6 163.9 164.5 165.1 165.7 166.3 166.9 168.4 171.2 175.2 179.7 185.8 192.2 196.4 196.1 199.8 200.6 200 197.9 195.6 192 189.2 186.7 186.7 185.2 182.6 178.2 175.1 171.2 165.6 160.8 155.5 150 144.4 140.5 134.7 128.5 123.8 121.3 119.2 118.9 118.5 118.2 119.4 120.8 122.4 124 121.7 122.6 120.8 117.4 117.2 116.4
50.8 53.6 55 56.2 57.1 57.8 58.5 59.1 59 59.3 60 60.8 61.4 63.1 64.9 65.7 66.6 68.4 69.8 70.7 72 73.5 75.1 76.4 77.1 77.3 77.5 78.4 78.6 77.4 77.4 71.4 77.8 77.9 77.4 76.8 75.7 78.4 79.5 81.5 82 84.4 85 85.9 87.2 88.7 89.8 90.8 91.8 93.2 94.7 95.5 96 96.1 97 100.1 101 103.1 104.9 106.7 108.3 109.9 111.2 113.6 116.7 120.4 124.9 130.8 139.3 146.3 152.7 155.7 155.2 152 152.3 154.2 155.3 156.7 159.4 162.3 167 173.1 181.9 191.3 202.1 212.6 224.1 233.4 240.3 244.5 245.4 245.5 245.7 249.3 252.2 252.9 252.9 252.9 252.4 251.9 251.5 250.8 248.8 246.4 244.9 243.6 241.7 240 238 236.1 232.5 229.3 227.3 224.7 221.3 217.8 215.2 212.5 209.5 205.7 201.9 197.4 193.4 190 187.8 184.2 183.1 181.1 179.4 178.1 176.8 176.1 176 175.8 175.6 172.3 170.2 166.9 163.3 162.9 166.2 165.1 162.7 161 161.4 162.2 163.2 164.6 164.1 164.7 165.3 166 166.5 167.8 170.3 173.4 178.9 183.2 189.2 194.3 197.9 200 200.8 200.3 199.1 196.8 194.4 189.4 186 187.9 187 184.9 182.3 178.9 173.2 168.3 161.2 156.3 150.6 145.4 141.6 137.5 131.5 125.8 122.1 121 120.1 119.2 120 120.9 122.1 123.2 124.4 124.3 123.4 125 119.7 116.9 115.8 114.7
52.5 54.3 55.6 55.9 57 58.1 58.8 58.9 59.3 60 60.6 61.5 62.7 64.2 65.7 66.8 68.2 68.9 70.3 72.7 73 74.6 76.2 77.6 77.8 78 78.1 78.5 79 78.6 72.2 78.6 78.3 78.3 77.5 76.5 79 78.4 81.1 83.5 84.2 85.3 86.1 87 88 89.5 91.1 92.3 93.3 92.7 95.4 96.3 97.1 97.9 96.7 101.9 103.3 104.9 106.4 107.3 108.7 110.9 113 115.8 118.9 123 127.4 134.5 142.2 149.7 155 156 155.1 154.5 155.8 157.7 158.9 160.4 162.7 165.4 169.8 176.7 184.8 192.5 203.8 215.9 227.5 235.5 243 245.6 246.7 246.7 247.5 250.6 251.4 251.8 251.9 252.2 252.4 252.5 249.9 247.1 245.5 243.8 242.2 240.9 239.4 237.5 235.2 232.5 229.4 226.1 223.7 221.1 218.1 215.6 212.5 209.3 205.2 201.1 197.2 192.1 188.4 185.6 183.1 182.8 181.3 179.3 177.8 176.4 175.3 174 173.7 175.7 173.9 170.8 166.6 164.1 162.5 163.2 167.4 168.3 165.9 163.5 164.4 165.2 165.9 164.9 163.9 164.9 165.6 166.2 166.8 169.2 171.8 175.3 181.2 186.6 191.6 195.4 198.7 200.4 200.5 199.6 197.9 195.1 190.9 186.8 186.5 186.9 184.8 183.2 181.2 177 171 163 156.3 150.1 144.8 140.9 136.8 132.9 130.6 125.1 121.5 120.9 120.4 121.4 122.6 123.6 124.7 124.3 124 122.8 121.3 119.8 119.1 116.6 114.7 114.2
51.5 54.2 55.5 55.6 56.7 58.1 59 58.9 59.8 60 60.2 61.2 63.2 64.7 65.4 66.6 67.9 69.2 70.6 72.4 73.3 75 76.7 78 78.1 78.3 78.5 79.3 79.6 74.7 80.3 80.1 79.7 79.1 78.7 77.9 80.6 78.3 79.3 83.6 86 86.4 87.2 88.1 89 90.3 91.7 92.5 93.6 94.9 96.2 97.2 98.2 99.9 101.5 100.2 105.6 106.4 107.5 108.5 110.7 112.9 115.1 117.9 121.2 125.5 130 136.9 145 151.9 156.9 158.2 159.8 159.2 158.6 161.3 162.6 163.8 165.1 169.1 173.8 179.1 186.1 194.8 205.3 218.7 231.6 239 245.2 246.6 248 248.6 249.7 251.8 252.1 253.3 254 254.4 251.9 249.8 246.6 243.5 242.6 241.3 239.7 237.8 235.8 233.7 231.2 228.3 225.5 222.8 219.9 216.5 214.5 211.7 208.8 205.2 201.1 197 193.7 190.5 187.4 185.9 184.1 182.9 179.8 177.8 176.3 174.8 173.6 172.2 172.8 174.5 171.2 167.8 163.3 161.1 160.2 160.7 164.3 167.8 166.9 165.1 166.2 167.5 167.6 165.7 163.7 164.1 165.8 166.4 168.3 170.7 173.2 176.8 183.2 188.9 193.9 196.9 198.6 199.6 199.1 198.1 196.4 192 187.8 185.7 185.2 183.8 182.9 181.3 178.2 172 165.6 157.4 150.4 144.9 140.2 138.1 130.6 127.7 127.2 123.2 121.9 121.6 122.5 123.5 124.8 125.5 124.2 123.7 123.2 121 119.2 117.3 116.8 116.5 114.3 114.1
51.8 53.2 54.2 55.8 56.2 58.2 59 58.4 59.9 60.6 60.8 61.3 63.6 64.5 65.2 66.4 67.7 69 70.3 72 73.7 75.4 77 78.1 78.2 78.8 79.3 80.4 75.3 80.8 79.3 81.4 81.1 80.1 79.9 79.7 81.2 81.6 81.2 81.5 86 87.4 88 88.8 89.8 91.4 92.1 92.7 92.9 95.7 96.9 98.3 100.2 101.5 102.9 103.9 104.3 107.1 108.5 110.2 112.4 114.7 116.9 120.4 123.9 128.1 133 140.4 147.9 155.4 159.6 162 163.7 164.4 162.7 163.8 166.2 167.8 169.7 172.9 177.4 183.2 189.5 198 209.9 224.1 234.9 242.9 246 246.8 247.7 250.8 252 254.6 256.3 256.6 254 250.9 248.9 247.5 244.2 240.8 239.8 237 235.2 233.3 231.3 229.2 227.3 224.5 221.2 218.5 215.4 212.4 209.9 207.3 204 200.6 197.1 194.8 192.6 190.8 189.1 186.9 184.5 182.2 178.2 176.3 174.8 173.3 172.7 171.8 171.5 167.6 165.2 162.7 160.6 159.6 158.5 159.4 161.8 165.3 166 165.5 166.3 166.2 165.5 164.4 163.3 163.1 165.1 167.1 169.5 171.9 174.9 178.2 184.4 190.6 194.5 196.1 197.5 197.4 196.8 195.6 191.2 188.3 186.1 184.9 183.2 180.9 177.7 176.4 172.3 165.7 158.1 151.4 145.4 139.9 136.4 132.5 127 124 122.8 122.1 123.8 122.7 124.1 125.4 126.2 126.3 124.9 123.3 121.5 119.3 117.6 115.9 115.7 114.3 113.3 114
49.9 52 52.8 54.6 56 57.5 58.7 58.4 59.8 60.6 61.4 61.5 62.9 63.9 65 66.2 67.5 68.8 70.5 72.1 74.2 75.8 76.7 77.5 78.8 79.5 80.1 76.1 81.3 81 82.4 82.7 82.5 81.5 81.3 81.1 81 84.3 84 83.8 86.6 88.2 90 89.6 91.4 92.5 92.7 92.8 94.3 96.1 97.5 99.6 101.9 103.8 105.6 106.8 102.8 105.5 109.3 111.5 113.8 116.1 119 122.5 126.8 130.1 136.3 144 151.4 159 163.5 165.8 167.5 168.5 168.7 169.4 170.2 171.8 174.5 177 181.9 187.2 193.8 202.7 215.6 228.4 238.3 245.1 245 245.6 247.5 253.2 257.2 257 255.1 252 250.2 248.4 246.8 245.1 241.3 237.7 234.8 232.5 230.7 228.8 226.7 224.6 222.9 220.8 217 214 211.1 208.1 205 202 199.1 196.8 195.9 195.5 194.5 192.4 190.5 187.9 184.8 180.5 177.2 174.8 173.3 171.8 171.2 171 168.9 163.8 161.6 160.9 159.5 158.1 156.7 158.6 159.9 162.7 165.1 165 164.5 164 163.3 162.1 161.5 163.9 166.2 168.2 170.2 172.4 175.6 179.7 186.6 190.2 193.5 194.8 194.1 192.6 192.6 190.6 189.2 186.6 185 183.5 178.9 177 172.8 170.6 165.5 157.9 151.8 146.4 142.3 138.1 134 129.2 125.5 123.4 122.9 124.1 128.2 127.2 124.8 124.6 126.2 125.2 123.6 122.2 120.4 118 116.7 115.5 114.4 113.3 112 113
51.1 50.5 51.8 53.5 55.4 56.6 57.1 58.4 58.7 60.1 60.6 62.9 63.8 64.8 65.6 67.2 67.7 68.9 71.2 71.9 73.6 74.7 75.8 77.5 78.7 79.8 77.4 81.4 81.4 82.5 84.6 84.2 84.2 83.7 83.1 83.6 83.5 85.1 86.3 86.4 88 86.7 88.9 90.8 91.4 91.9 92.3 92.5 94.9 96.7 99 101.1 103.2 105.4 107.1 107.8 108.2 105.3 108.8 112.9 115.3 118 121.3 124.8 128.7 133 139.8 147.7 155.2 162.8 167.4 169.7 171.2 172.3 173.1 173.8 174.5 177.5 179.9 183.2 186.7 191.7 198 207.4 220 231.5 239.3 243.9 244.7 245.8 249.6 254.6 253.4 250.6 251.1 250.8 248.9 248.3 246.2 242.3 237.7 233.7 231.6 228.6 226.3 224.3 222.2 220.1 218 216.8 212.8 209.8 206.8 203.8 201.1 198.4 196.5 194.4 194 193.8 193.7 192 190.1 186.4 182.4 177.9 175.3 173.5 172 170.4 169.5 170.2 166.6 162.1 159.3 158.2 157.3 156.9 155.8 157.7 158.6 161 162 162.3 162.2 161.7 161 159.8 162.2 164.6 167 169.3 171.3 173.1 177.5 182.5 186.6 189.5 191.3 190.6 189.5 188.8 188.9 188.8 187.3 185 182.4 179.2 175.9 172 168.9 162.7 157.1 151.9 146.7 142.4 139.9 136.3 132 127.6 125.1 125.2 126.6 130.4 131.8 130.4 127.9 125.8 126.7 123.8 123.3 121.4 119.5 116.8 115.3 114 112.6 111.5 110.1 112.5
51.9 52.1 52.3 52.7 54.5 56.4 57.1 57.4 58.8 60 60.3 62.9 63.9 65.3 67.1 67 68.3 69.4 70.7 72 73.2 74.7 76.4 77.1 78.9 78.7 81.9 82.1 82.7 83.7 85 85.1 84.5 86.1 86.1 85.6 85.2 85.6 88.5 89.3 89.7 90.1 88.8 89.8 91.5 92.2 92.4 93.9 96.1 98.9 101.4 103.5 105.4 107 108.3 109 110.5 110.6 107.1 114.6 117 120.4 123.7 127.1 130.9 136.4 143 150.2 159.1 166.7 169.8 171.6 174.4 175.5 177.6 178.7 179.3 182.7 185 187.6 191.5 196 201.8 213 224.8 235 240.3 243 243.1 244.9 246.2 246.5 247.1 248.2 249.9 250 248.6 246.5 243.2 239.2 234.9 231.1 228.6 225.3 221.9 219 217 214.9 213 211.5 208.7 206 203.2 200.5 197.8 195.9 194.6 193.5 193.3 194.1 191.8 189.5 186.6 181.9 178.3 176.4 175.3 172.8 170.8 170 169.9 168.9 165.2 161.6 158 157 156 155.1 154.6 156 157.3 158.9 159.2 159.7 159.7 159.4 158.7 160.5 162.9 165.2 167.5 169.7 171.4 173.1 177.6 182.1 184.4 185.7 187.4 187.4 187 187.3 187.5 187 185.2 182.5 179.4 175.9 172.3 168.1 163.3 157.9 152.9 149.4 144 142.1 139.1 134.9 130.7 128.2 127.3 130.1 132.6 134.4 133.4 129.9 128.1 127.5 126.9 125 123 121.1 118.1 115.8 113.7 112.4 110.7 109.7 110 112.5
53 53.7 54.5 54.9 54.2 54.5 55.6 57 57.7 59.6 60 62.7 63.9 64.9 66.8 67.3 69.1 70.5 71.6 72.4 74 75.7 77.1 78.2 79.5 82.3 83.1 83.4 85.5 86.8 86.3 86 86.6 86.6 88 87.7 87 87.6 88.3 89.6 91.3 91.2 88.6 90.6 91.9 92.6 93.2 94.8 97.5 100.3 102.9 105 106.7 108.3 109.6 111.8 112.5 114.1 113.6 112.9 118.7 122.4 126.1 129.4 134.8 140.9 146.5 153.1 161.2 167.4 170.5 173.6 177 179.2 181.8 183.6 186.2 188.4 190.5 192.4 195.6 200.5 207 218 230.2 238.3 241.4 242.3 240.7 241.5 242 243.4 245.1 246.8 248.5 248.8 248.1 244.9 241.3 236.5 232.1 227.8 224.6 221.3 216.7 213.5 211.1 210.3 209.2 207.6 205.3 203.3 200.9 198.6 196.7 195.2 194.1 193.1 191.6 190.3 188.3 184.6 181.7 178.5 177.1 175.9 174.1 171.5 169.4 169 168.6 168.1 164.3 160.4 157.2 155.7 154.8 153.8 154.2 155.3 156.4 156.4 156.6 157 157.1 156.8 158.7 160.9 163.2 165.5 167.8 169.9 171.5 173.2 177.3 179.6 182.2 183.6 185 185.9 186.2 186.5 186.4 184.9 181.4 177.7 174.5 171.8 169.1 165.1 160.2 155 151.5 147.9 144.9 141.8 137.5 133.4 130.4 132.1 133.8 135.9 137.2 136.4 133.8 129.9 128.9 127.8 125.4 124.1 122.2 119.4 116.4 114.1 111.6 109.9 108 107.5 110.2 111.9
52.3 54.2 55.2 57.7 57.9 56.8 56.6 57.2 58.2 58.2 59.8 62.6 64.1 64.9 66.4 67.2 69.6 71 72.1 73 74.6 76.4 78 79.3 80 82.4 83.8 84.9 86.3 87.7 87.9 88.2 88.8 89.1 89.1 89.2 88.6 88.5 88.8 90.7 92.6 91.9 88.8 90.7 92.7 93.5 94.8 96.1 98.9 101.4 103.7 105.9 107.8 109.5 111.4 113 114.7 116.3 117.5 117.8 117.9 122.5 128.1 133.4 138.9 145 149.2 155.6 162.2 168 171.4 175.4 179.2 183.1 185.7 186.6 189 191.9 194.3 196.7 199.9 205.3 212 223 231.9 240.4 239.4 238.4 238.2 238.3 239.5 241.2 243.7 246.4 247.7 248.6 248.9 245.5 240 234.9 228.8 222.7 218.2 216 212 209.4 208.6 208.3 207.5 206 204.1 202.1 199.9 198.1 196.3 194.6 193.6 192.7 190.6 186.7 183.5 181.2 178.8 177 175.6 173.7 171.8 169.3 167.5 166.6 166.4 165.7 161.8 158.2 156.5 154.8 153.4 152.7 154 155.1 155.2 154.8 154.7 154.6 154.7 156.6 159.3 161.5 163.7 165.9 168.2 170 171.7 173.3 175.9 179 181.5 182.7 183.9 185 185.4 185.4 183.5 181 177.3 173.9 172.8 169.9 166.6 162.8 157.8 154.2 150.9 147.8 145.4 141.1 136.4 135 137.2 138.6 139.6 140 138.8 137.2 133.4 130.9 129 126.5 124 122.2 120.9 117.6 114.1 111.1 108.5 107 106.4 106.8 107.3 109
53.3 54.3 55.1 57.2 58.7 58.3 58.4 57.9 59.2 60.3 60.5 60.7 63.9 65.6 67.6 68 69.5 71.5 72 73.7 75.4 76.7 78.3 79.8 81.3 84 85 86.3 87.1 87.9 89.5 90 90.3 90.2 90.4 90.6 90.1 90 90.4 91.1 92.7 91.5 89.7 91.4 93.5 94.4 97.3 97.6 99.8 102.1 104.4 106.6 108.8 111.1 113.7 115.6 117.3 118.9 120.5 121.2 121.9 125.6 131.3 137 142.3 147.1 151.7 157.8 162.8 167 171.4 177.2 183.9 185.9 187.4 188.3 192.1 195.2 197.6 200.4 204.3 208.6 215.7 225.8 232.2 236.7 236.3 235.7 235.8 235.9 237.4 239.5 242.3 245 247.7 249.1 248 243.8 237.3 230.9 224.7 218.5 214.3 211.6 209.5 208.5 206.9 206.4 205.7 203.8 201.9 199.8 197.7 196.6 195.5 194 192.9 191.6 189 185.7 181.6 178.7 176.6 174.7 172.9 171.1 169.2 167.1 165.6 164.5 166.2 163.3 159.4 157.1 154.7 153.7 151.6 152.5 153.8 153.9 153.7 153.3 153.2 153.3 153.7 156.2 159.8 162.1 164.4 166.3 167.9 169.4 170.4 171.9 175.2 178.5 180.9 182.6 183.9 183.2 183.2 180.5 177.9 177.2 173.5 172.7 172.2 169 165.2 161.5 158.8 154.1 150.5 147.3 144.4 139.5 138.2 139.9 143.3 143 143 141.9 139.8 137.6 132.4 130.2 127.6 124.9 122.5 119 117 114.4 111.3 107.2 105.3 103.9 104.1 104.6 104.5 106.1
55.4 55.5 55.6 56.2 57.7 58.7 58.9 59 60.1 61.2 62.1 61.3 62.2 65.9 69.4 70.2 70.6 71.3 72.5 74.3 76.2 75.3 79.7 81 82.5 83.8 85.9 87.1 88.9 89.3 90.6 91.2 91.9 92.3 92.5 92.1 91.6 91.6 92.3 92.6 93.8 93.3 91.9 92 94.3 97.2 98.6 99.7 101.9 103.3 105.9 108.5 110.7 112.8 115.5 118.1 119.9 121.5 123.1 124.1 125.2 128.8 134.3 139.9 144.2 148.9 153.8 157.7 161.8 166 172 180 182.9 184.5 186.9 189.8 195.1 198.4 200.9 204.8 209 212.9 216.4 228.7 233.4 235.1 234.2 233.9 234.1 235 237.2 239.4 241.9 244.4 248.1 248.7 246.7 241.7 234.5 228 222.1 216.1 212.7 210.1 207.7 207.3 206.9 205 203.6 201.5 199.6 196.4 194.9 193.4 192.5 190.7 190.3 189.8 187.1 184.4 180.6 177.1 174.1 172.1 170.2 168.6 166.9 166 165 163 164.1 160.9 158.2 156 153.2 152.8 150.9 151.2 152 152.6 152.1 151.7 151.8 152 153.2 156.2 159.7 162.6 163.8 164.9 166.1 167.3 168.6 171.2 174.9 178.2 179.4 181.1 181.2 180.5 178.8 175.6 172.6 172 170.8 171.6 170.3 167 165.1 163.1 159.6 154.8 150.5 146.9 143.5 141.5 144.9 146.5 148.8 147.2 144.8 142.8 140.8 136.4 131.1 128.8 126.4 123.6 119.6 115.8 113 111.1 107 104.3 102.6 101.8 102 102.4 102.2 103.5
56.8 57.2 57.5 58.1 58.4 58.5 59.4 60 61.1 62.3 64.1 65.3 63.9 65.8 69.7 71.4 71.8 72.3 73.7 75.3 74.5 78.4 80.6 82.1 83.9 85.6 86.8 87.7 88.7 89.8 92 92.7 93.4 93.7 93.6 93.6 93.1 93.5 93.8 94 95 94.1 94.3 95.4 95.4 98 99.9 101.8 104 105.6 108 110.6 112.8 114.4 117 120.9 123.5 125.1 126.8 128.2 126.6 132.9 137.2 142.5 146.2 150 153.9 157.6 161.5 166.4 172.6 177.3 180.1 183.6 187.9 192.2 197.2 201.7 205.5 209.7 213.8 218 225.1 230.9 233.5 233.9 233.9 233.9 234.2 235.3 236.7 239 241.2 245.1 248.9 247.6 243.8 238.8 233 226.3 222.7 218 213.7 209.6 206.9 206.8 206.2 204.9 201.3 198.7 197.1 194.7 193.2 191.9 190.9 187.5 185.6 186.2 184.1 181.7 179 174.9 171.8 169.7 167.7 166.7 166.3 165.6 164.5 162.6 161.9 158.4 155.6 153.3 152 151.7 150.7 149.7 150 151 150.5 150.5 150.6 151 153.7 156.9 158.8 160.2 161.3 162.2 163.2 164.2 167.9 171.6 175.2 176.8 177.1 177.3 177.3 174.3 172 169.1 168.5 168.6 169.8 169.8 169 167.8 166.4 164.3 159.9 155.5 150.7 146.9 145.1 145.9 150.4 153.5 152.6 149.8 144.6 142.6 138.9 133.4 128.7 126 123.8 121.1 117.2 114.7 111.4 108 105.9 104.1 102.6 101.3 101.2 100.5 100.4 101.2
57.6 59.3 59.9 60.6 60.6 60.5 60.4 61.2 62.5 64.3 66.4 67.4 68.5 64.6 68.7 71.2 72.6 73.3 74.8 76.5 77.9 78.6 80.9 83.4 85 86.6 88.1 89.1 90 91.6 93.6 94.3 94.9 94.8 94.8 94.8 94.7 95 95.2 95.5 96 96.2 96.3 95.9 95.1 98.4 101.7 103.5 104.9 106.6 109 111.6 114.3 118.1 121.7 124.7 127.4 129.5 131.1 132.3 129.4 137.2 141.3 144.3 148 150.3 153.9 157.7 161.5 165.4 170.2 174.2 179.3 184.2 189.2 195.2 200.4 205.8 210.6 214.8 218.9 226.1 232.5 235.6 236.6 235.5 234.6 234.4 234.4 235.2 236.3 240.4 245 247.5 248.6 246.7 243.2 238.1 232.9 227.1 222.6 217.5 213.1 210.5 210 209.8 205.6 203.6 200.6 198.5 196.1 193.3 192.2 191.2 190.4 189.3 187.2 181.3 179.6 178.1 175.2 171.5 169.3 167.5 166.6 165.2 165.1 164.8 164.2 160.3 159.6 155.8 152.9 150.7 149.1 149 148.7 148 147.4 148.2 149.1 149.1 148.8 150.4 153.5 154.8 156.2 157.7 159.1 160 161.5 163.7 169 172 174 174.7 174.5 173.8 170.9 168 165.4 165.4 166.5 167.2 169.4 171 171.2 169.3 167.6 163.6 159.3 154.8 150.6 147.8 147.1 149.4 153.6 155.8 154.1 151.4 145.4 140.3 135.6 130.9 126.8 123.4 122 119.1 116.7 114.2 111.5 108 106.1 104.1 102.9 101 100.5 100.2 100.3 100
58 59.8 60.5 61 62.2 62.7 62.6 63 64.5 66.6 68.7 70.1 71.6 66.1 69.9 70.9 72.4 74.3 75.1 76.9 79.1 80.9 81.5 84.1 86.1 87.1 88.2 89.8 91.6 93.2 94.5 95.3 95.9 96.3 96.5 96.7 96.9 97.1 97.5 97.6 97.3 97.5 97.1 97.9 97.1 98.3 102.7 104.2 105.8 107.7 110.2 113.5 116.7 120.7 124.7 128.4 131.2 133.6 135.6 137.2 137.1 139.5 144.6 146.9 149.9 151.2 154.3 158.2 162.5 166.3 169.9 174 179.2 184.9 190.7 196.8 203.3 209.7 215.8 220.3 224.9 234.1 238.5 240.2 238.2 235.9 235.8 235.2 235 236.3 239.6 242.6 245.3 247.2 248 245.8 242.5 237.5 232.4 226.1 222.2 218.4 215.1 212.7 212.4 210.8 206.4 203.9 201.3 199.4 196.8 193.8 190.8 190 188.3 187 183.9 181 175.9 173.5 171.3 168.9 167.3 165.9 165.3 163.8 163.6 163.5 162.8 158.8 154.4 152.4 150.2 148.6 146 146 146.6 146 145.4 146 146 146.9 147.4 149.9 151.4 152.3 153.5 155.1 156.6 158.7 160.7 164.1 168.5 169.9 172.1 172.2 169.9 164.9 162.9 162.1 161.6 161.9 163.4 166.9 170.4 171.6 170.8 170.8 168.5 162.3 157.8 153.9 150.9 148.3 150.2 152.1 155.1 156.5 155.5 150.5 144.3 139.7 135.1 130.2 126.6 122.7 120.6 118 115.6 113.2 111 108.1 106.1 104.9 103.9 102.6 101.8 101 100.2 99.5
59 60.4 61 61.4 62.8 63.9 64.7 64.8 66.2 68.3 70.7 71.8 74.7 74.9 69.6 72.8 73.5 75.3 76.6 77.8 79.1 81.9 83.1 84.5 85.9 87.9 89.5 90.1 92.3 94 95.1 96.1 96.8 97.3 97.9 98.4 98.3 98.5 98.8 98.7 98.6 98.3 98.9 99.5 99.7 99.5 101.6 104.9 106.8 108.8 111.7 116.1 119.2 122.8 126.9 130.9 135.2 138.5 140.6 142.1 141 136.6 146.3 147.7 149.7 151.6 155.2 159.3 163.3 167.1 170.4 174.1 179.4 184.9 192 198.3 206.6 214.7 220.8 226 231.4 239.8 241.9 239.2 236.5 236.2 235.2 235 234.4 236.7 238.8 241.6 244.4 247.1 246.9 244.9 240.9 236.3 231.3 227.7 224.2 220.5 217.6 215.7 213.4 210.6 207.3 205 202.5 200.2 197.7 195.1 192.7 189.9 186.1 182.1 179 176.2 173.1 170.6 168.9 167 165.7 164.4 164.1 162.8 161.9 162.3 161.5 157.4 152.6 149.9 147.7 145.7 144.2 143.5 144 144.1 143.6 143.5 143.6 143.6 145.5 148.1 149.7 150.4 151 152.2 154.7 158.1 160.9 164.6 166.6 167.7 166.5 163.5 160.4 158.7 158.4 158.3 157.8 160.3 163.9 169 169.8 169.9 169.1 169.5 163.8 159.8 156.8 153.9 151.2 148.6 148.6 149.5 150 152.8 151.7 148.4 143.6 139 134.4 129.7 125.2 122.1 119.6 116.9 114.5 112.3 110.1 108.2 107 105.7 104.5 103.1 101.5 99.9 98.8 98.1
60 61.5 62 61.9 63.2 64.6 65.4 66.3 67.7 69.5 71.7 72.1 72.4 75.1 68.9 73.4 74.7 75.4 76.4 78.6 80 81.3 84 84.6 86.3 88.3 89.9 91.5 93.4 94.7 95.8 96.8 97.7 98.3 98.9 97.7 98.5 99.2 99.5 99.4 99.5 100.2 101.3 101.8 102.4 102.4 102.5 105 108.4 110.3 113.3 117.9 121.3 125.2 129.7 135.1 139.5 142.8 144.5 145.8 146.2 139.6 140.3 142.6 144.6 152 156.6 160.5 164.2 167.5 170.8 174.2 179.4 184.9 191.5 200.8 210.4 219.1 225.5 230.4 235.6 242.6 241.6 239.2 238 235.5 234.3 232.9 233 236.7 238.2 241.9 245 246 244.9 243.6 240.5 236.6 232.7 229.1 225.7 221.9 218.9 217 213.7 210.1 206.9 204.1 201.6 199.4 195.9 193.3 189.5 185.5 181.9 178.2 175.1 173.3 170.5 167.8 166.6 165.4 164.1 163.2 162.9 161.6 160.2 160.4 158.4 153.4 150.1 147.5 145.5 143.8 142.6 141.5 141.5 141.5 141.6 142.1 140.9 141.3 142.8 145 146.7 147.3 148.1 151.3 153.3 157.8 160.5 161.9 162.9 160.4 158 156.2 155.5 155.1 154.6 154.4 155.8 160.7 165.2 167 167.3 167.4 165.7 163.9 161.4 158 153.7 151.6 148.9 146.2 146 145.4 145.4 146.2 146.3 144.2 141.1 136.7 132 127.6 123.6 120.5 117.4 115.8 113.3 111.1 109.7 108.6 106.5 104.9 103.8 102.1 100.2 98.8 98.7 98
61.1 62.8 64.2 64.2 65 66.1 66.7 67.8 68.9 70.9 73 73.3 73.2 74.6 75.4 73.5 75 77.3 78.2 78.7 80.4 82.6 84.3 86.3 87.4 88.4 90.5 91.8 94.1 96.4 96.7 97.6 98.5 99.1 99.3 98.7 99.5 100.3 100.7 100.6 102.5 103 103.7 104.5 105.1 105.1 103.9 105.2 109.8 112.4 116 118.9 122.1 127.1 133.6 139.4 143.2 145.8 147.3 148.4 148.6 146.3 149.2 151.7 154.2 156.4 160.6 163.4 165.6 167.8 171 174.6 179.4 184.8 192.1 202.5 213 222.5 229 234 240.6 245.3 244.2 239.1 235.6 232.3 230 228.8 232.9 235.5 238.3 241 242.6 244.3 245 243.1 240.6 237.6 233.7 229.1 225.5 221.7 217.6 214.6 211.2 207.7 204.3 201.5 198.5 195.5 192 188.2 184.8 181 177.4 174.5 171.7 170.5 168.5 166.2 163.3 162 161.3 162.1 161.4 159.9 156.5 156.6 153.1 149.6 147.2 145.4 144.2 142 141 139.9 139.1 139.2 139.2 139.7 139.2 139.1 140.1 141.8 143.1 144.7 147.2 151 153.7 155.8 157.3 156.4 154.9 153.5 153.1 152.2 151.7 151.3 151.1 151.3 155.9 160.4 163.1 164.3 164.6 164.1 162.9 160.8 158.9 154.6 149.7 146.7 145.7 143.8 141 140.9 141.2 141.4 141.2 139.2 136.5 133.1 129.6 125.6 121.8 118.8 115.7 114.3 112.6 111.2 109.8 109 107 105 103.1 101.3 100.3 99.7 99 98.4
62.6 64.3 65.9 68 69.2 68.7 69.3 69.9 70.5 72.2 74 73.7 74.5 75.4 75.8 75.3 73 77 80 81.3 81.2 82.1 84.7 85.8 88 89.7 91.7 91.9 94 96.1 97.8 98.6 99.1 98.7 99.6 99.7 100.6 101.4 101.6 104.1 104.6 105.2 106 107.2 107.8 107.8 107.9 106.8 110.6 114.3 116.5 120 123 128.5 135.5 140.7 142.6 144.9 146.6 147.6 148.2 149.1 151.5 154.1 156.8 160.5 162.9 165.3 167.2 169.4 171.7 175.1 179.5 185.2 193.4 204.5 215.4 224.6 231.3 237.2 243.1 245.2 241.4 236.1 231.3 227.4 224.8 227.6 230.5 232 235.9 238.9 241.7 243.6 243.4 241.5 238.8 234.8 230.8 226.4 222.2 218 213.8 210.4 207 203.7 200.3 197.2 194.2 190.8 187.1 183.1 179.8 176.6 174.5 172.3 170.8 169.2 167.2 165.6 163.4 158.3 158.8 160.2 159 156.6 153.2 151.1 148.3 146.6 143.9 143.6 142.4 140.2 139.5 138.3 137.5 136.9 137 138 137 137.3 138.3 139.3 140.5 142.4 144.5 147.5 149.2 150.9 151 149.6 149.2 149.2 149 148.2 147.8 148.2 148.9 150.2 154.2 158.3 160.3 161.4 160 160.2 160 157.1 154 150.2 145.6 142.4 141.5 139.7 137.7 137.8 137.9 136.9 136.1 134.7 131.8 129 126 123.4 120.4 117.3 115.3 113.9 112.5 111.3 109.9 109.5 107.4 105.6 104.3 102.1 102 100.5 99.4 98.8
65.7 66.7 68.2 70.7 71 71.2 71.8 72.5 73.1 72.7 73.8 75.4 75.9 76 76 75.3 73.5 72.8 75.5 78.8 81.6 82.7 84.4 85.6 86.8 88.3 90.3 91.4 93.2 95.5 98 98.2 98.5 99 99.9 100.6 101.6 102.2 105.3 106.1 106.8 107.3 108.3 109.4 110.5 110.6 110.7 111.1 112.8 115 117.2 120.4 123.8 128.7 134 139.2 140.6 141.8 144.4 145.8 148.1 151.8 154 156.4 160.1 163.8 165.5 168.1 169.1 171 174.1 176.8 180 187.1 195.5 206.3 217.2 226.8 234.7 241.8 246.5 242.4 235.3 229.4 224.8 220.4 220.1 222.5 225.7 229.9 233.6 237 239.3 239.8 239.1 237 234 229.7 224.5 220.3 216.4 212.6 208.6 204.9 201.2 197.5 194.6 191.3 188 184.4 181.6 178.3 176.2 174 172.7 171.4 169.9 168.1 166.5 165.1 163.7 160.6 156.3 156.7 155.1 152.9 150.1 147.2 144.9 143 142.4 141.9 140.6 138.5 137.5 136.8 136 135.3 134.7 134.3 134.8 135.5 136.5 137.6 139.7 142 143.6 144 144.9 144.9 145.1 143.9 144.4 145 144.7 144.6 145.3 146 146.7 148.4 152.9 156.7 157 156.8 156.9 156.4 154.3 150.9 147.5 143.9 141 139.4 138.7 136.9 136.1 135.8 135.7 134.5 132.3 130.2 128.8 125.6 122.6 120.9 119.8 117.7 116.1 114.3 112.5 111.4 110.1 109.9 108.1 107 105.5 103.5 102.7 101.4 99.8 99.1
66.5 68.3 71.1 72.1 72.7 73.3 74 74.9 75.7 75.8 74.6 76.2 77.5 78 76.4 77.1 77.9 78.9 79.5 76.5 79.9 82.7 83.3 84.3 85.8 87.7 90.1 91.1 92.1 95.8 96.9 98.2 99.5 99.8 100.6 99.9 102.7 105.4 107.4 108.5 108.9 109.5 110.6 111.8 113 113.6 113.7 114 113.1 113.3 116.2 119.6 122.4 126.1 131 133.9 137.4 138.6 141.3 144 147.9 151.8 155.7 159.7 163.4 166.1 168.3 170.6 171.8 173.2 175.4 178.6 183.3 189.9 198.4 208.5 220.8 228.9 236.8 243.9 241.4 234.9 228.8 222.6 218.8 218 218.3 221 225.5 228.6 230.8 233 234.5 233.7 231.9 228.8 225.5 220.8 216.9 213.2 209.4 205.7 202.2 198.6 194.9 191.8 188.8 185.6 182.8 179.9 177.2 175.6 173.8 173.2 173.3 170.6 168.9 167.4 166.2 165.1 163.2 160.6 156.4 152.2 152.3 148.8 145.3 144.2 144 141.4 141.1 140.7 138.7 136.7 135.5 135.1 134.3 134.1 134.3 133.9 134.3 134 134.9 136.3 138.5 140.5 141.7 142.7 143.8 143.1 142.7 143.3 140.6 140.7 141.1 142.4 143.1 143.8 145.1 146.9 152.3 151.2 152.1 153.1 152.1 150.1 147.3 144.3 141.7 139.5 138.3 137.1 136.6 135.4 134.6 133.9 133.3 132.2 130.3 128.4 126.3 123.4 121.7 120.6 119 118.4 117 115.1 113.1 111.5 110.7 110.6 109.5 108.3 106.7 105.1 103.5 101.2 100.2 99.2
66.8 70.2 73.1 74.2 74.7 75.3 76 76.7 77.5 77.7 76.2 76.3 77.1 75 77.6 78.1 79 80 80.8 80.9 77.9 81.2 83.5 84.3 85.5 87.9 89.8 91 92.8 95 96.1 97.6 99 100.4 100.8 101.5 104.9 106.7 109.2 111 111.1 111.8 113 114.2 115.5 116.1 116.6 116.9 116.2 115 112.9 116.9 120.8 124.2 127.9 130.9 133.8 137.7 141.7 145 150.5 154.3 158.3 163.2 166.7 168.9 171.1 173.1 174.3 176.7 179 182.7 187.4 192.9 201.7 213.8 223.8 233.5 240.6 241.9 236.5 230.6 223.3 219.1 217.1 216.2 217.6 219.7 222.9 225.3 226.6 227.5 228.4 227.2 225.1 221.1 217.6 213.9 210.2 206.5 202.7 199.2 195.8 192.3 188.8 186.3 183.1 180.6 178.1 175.9 174.7 174.4 173 173.4 172.7 170.6 168.6 167.4 166.1 163.8 161.3 158.5 155.4 152 149.1 147.9 145.7 143.5 142 139.8 139.9 138.9 136.8 134.8 133.9 132.8 133.7 134.1 134.1 134.1 134.2 133.4 133.6 135 136.9 138.1 140 141 142.6 142.2 142.1 141 140.1 140.3 139.8 140.3 141.3 142.6 144.1 145.9 146 147.6 148.7 148.1 146.1 143.5 140.7 138.8 138.1 137.6 136.7 135.9 136.2 134.5 132.8 131.9 130.3 129.2 128.4 126.4 123.9 121.6 121.2 120.5 119.1 118.3 116.8 115.7 113.7 113.4 111.9 111.6 109.9 109.2 106.8 105.8 103.6 101.9 99.9 98.4
68 72.1 74.3 76.1 76.8 77.4 78.1 78.7 79 78.7 78.9 80.2 76.7 78.4 79.2 79.9 80.1 81.1 82.9 82.2 80.4 79.5 84 86.1 86.8 87.7 89.5 91.4 93.9 95.4 95.8 97.5 99.4 100.7 101.7 103.7 105.6 108.2 110.5 112.9 114.1 114.7 115.5 116.7 118 118.6 119.2 119.4 118.5 117.7 118.3 117.9 121.1 124.3 127.8 131.4 134.7 137.2 142.2 147.7 152.8 157 162.2 166.5 169.5 171.7 174 175.7 178.2 180.8 183.4 187 191.3 198.3 209.4 219.5 229.4 236.6 240 237.4 232.9 226.4 221.6 217.7 215.9 215.3 215.6 217.4 218.7 220.7 221.6 222 222 220.8 218.6 214 210.5 207.1 203.5 199.8 196.3 192.8 189.4 186 183.5 181.4 179.2 177.1 175.3 174.4 173.7 173.3 172.4 172.7 172.1 170.4 168.4 167.1 164.5 161.5 158.7 155.8 152.9 149.8 148.4 146.8 144.7 142.5 140.6 138.4 138.6 137 134.9 133.8 132.9 132 132.5 133.9 133.8 133.8 133.7 133.1 133 134.4 136.5 138.7 139.9 140.2 141.4 141.4 140.7 140.1 140.3 140.5 140.5 138.3 140.1 141.5 142.8 142.8 143.5 145.2 145 142.6 140.8 138.6 137 136.5 136.4 136.6 136.4 135.8 136.4 134.1 131.7 129.7 127.8 126.2 126 124.2 122.6 121.6 121 120.2 119.2 117.8 116.5 115.4 114.2 113.9 113.6 112.9 111.2 109.5 107.5 105.7 102.8 101.2 99.4 97.8
70.8 72.8 75.4 77.7 78.8 79.2 79.4 79.6 79.8 79.6 81.2 80.1 79 79.3 79.9 81.1 82.3 83.2 83.1 83.4 83 81.9 83.5 86.6 87.9 89.2 90 91.9 94 96.1 97.3 98 99.1 100.7 102.6 104.8 107.7 110.4 112.8 115.3 116.7 118.1 119.1 119.9 120.6 120.9 121 121.2 121.5 121.4 122.2 122.8 123.3 126.3 129.4 132.4 135.8 139.3 144.1 149.7 154.8 159.7 165 169 172 175 177.1 180.1 182.5 184.9 187.8 191.8 197.1 205.3 215.5 225.9 233.7 239.6 240.2 235.2 229.6 224.7 220.5 216.8 215.1 214.5 214.2 214.3 213.9 216.6 217.5 218 216 214.7 212.4 208.3 204.2 200.5 196.8 193.4 190 186.7 183.4 180.7 179 177.2 175.6 174.7 173.7 173 172.4 171.7 171.6 171.8 171.3 169.9 167.8 164.7 161.6 158.7 155.9 153.1 150.2 148.3 147.4 145.7 143.6 141.4 139.6 138.5 137.3 135.6 133.6 132.8 131.9 131.1 131.8 132.9 132.8 132.8 133.1 132.8 132.8 135.4 136.7 139.4 139.6 139.8 141 141.5 140.9 140.3 140.2 140.3 139.8 138.8 137.3 139.7 140.6 141.4 141.8 141.4 141 138.6 137.9 136 135.8 135.6 136 136 135.7 135.4 134.5 132.2 130 128.1 126.2 124.6 124 123.3 122.4 121.5 120.5 119.5 118.5 117.4 116.3 115.2 114.1 113.7 113.8 113.9 112.4 110.2 107.6 104.6 102.5 99.8 98.4 96.4
73.5 74.3 76.1 78.4 79.2 79.9 80.3 80.5 80.6 80.5 81.6 79.5 80 80.4 80.8 81.8 83.1 83.6 84.3 84.5 85.2 85.7 84.9 84.1 87.3 90.6 92.1 92.4 94.2 96 97.1 98 99.5 101 103.7 107 109.8 112.6 115.1 118 119.6 120.7 122.5 123.3 123.7 124 124.3 124.4 124.5 125.3 126.1 126.7 127.3 128.6 131.4 134.9 137.3 141.1 146.3 151.4 156 162.1 166.9 171.1 174.2 177.7 181.7 184.7 187.8 190.9 194.8 198.2 203.3 211.4 223.5 232.9 240.1 243.7 240.3 234.3 229.1 223.9 219.4 215.8 214.2 213.7 214 214.3 213.5 215.3 214.9 215 213.1 209.1 206.5 202.5 198.4 194.4 190.8 187.5 184.6 181.8 178.9 177 176.2 175.1 174.2 173.2 172.2 171.3 170.9 170.7 171.2 170.4 168.9 167.1 164.9 161.8 158.7 155.9 153.2 150.6 148.5 147.6 146.3 144.6 142.5 140.4 138.5 136.8 135.4 134.7 132.6 131.7 130.9 130.4 130.7 131.9 131.8 132.1 132.5 132.4 133.2 136.2 138.6 140.3 140.6 140.6 141.1 141.5 140.9 140.5 140.4 140.2 139.9 139.8 139.4 136.1 137.8 138.6 138.7 138.2 136.9 136 134.6 134.2 134.9 135.2 135.3 135 134.6 134.2 132.7 130.5 128.4 126.4 124.7 123.5 122.6 121.8 121.1 120.2 118.6 117.7 117.1 117 115.9 114.8 114.1 114.4 113.7 113.9 113.1 110.8 108.3 105.3 102.4 99.5 96.3 94.9
74.5 75.9 77.6 78.8 79.2 79.7 80.6 81.3 81.5 81.6 75 80.8 80.9 81.5 82.6 83.2 84.4 85.3 85.2 85.8 86.8 87.8 87.9 85.5 86.7 91.2 93.2 94 94.9 95.8 97 98.3 99.7 101.8 105.4 109.1 112.2 115.4 117.2 120.8 122.1 123.7 125.9 126.3 126.6 126.9 127.3 127.7 128.4 129.2 129.9 130.1 130.8 131.3 132.9 137.5 140.1 143.6 148.4 153.3 158.6 164.5 169 173.2 178.8 184 187.5 191.4 194.6 197.9 200.3 203.5 208.6 218.7 229.6 240.8 247 245.7 239.8 233.4 228 222.9 218.7 215.9 214.9 215.1 216.5 215.7 214.8 213.9 205.2 210.1 207.9 204.2 200.2 196.6 192.8 189.2 185.9 182.9 180.3 177.4 176.3 176.2 175.4 174 172.8 171.8 170.9 170.6 170.6 170.1 169.3 168.5 166.6 164.6 162.2 158.8 155.9 153.5 151.8 149.6 148.2 147 145.3 143.5 141.3 138.7 137 135.6 134 132.8 131.8 130.7 130.3 130.1 130.4 130.6 130.9 131.4 132.4 133.8 136.3 138.4 140.5 141.9 142.5 142.8 143.1 142.7 142.2 141 139.8 138.9 139.1 139 137.9 136.2 134.5 134.5 135.1 135 134.6 133.5 132.9 133.3 132.8 133 132.7 132.1 132.5 132.2 130.9 128.9 126.7 124.8 123.6 122.4 121.3 120.5 119.8 118.9 116.7 116 116.8 116.5 115.6 114.5 114.5 114.9 114.5 114.6 114.1 111.6 109 105.5 101.4 98.5 95.7 93.9
75.1 76.5 78.1 79.2 79.6 79.8 80.4 81.5 82.7 75 82.3 82.3 82.4 83.6 83.7 84.7 85.8 86.7 85.9 86.9 88 89.1 89.7 89.9 88.3 89.8 92.8 93.7 95 96.4 97.6 98.9 100.5 102.8 106.3 110.1 114 117.1 120.7 123.6 124.6 126.3 128.9 129.7 130.2 130.6 130.9 131.3 132.1 133.1 133.8 132.5 134.1 135.1 135.2 138.8 143 146.4 151.4 156.4 161.5 166.9 171.5 178.1 184.9 190.1 194.4 198.3 200.9 203.7 205.7 209.6 216 228.9 239.6 246 249.1 244.9 239.6 232.9 227 222.2 220.7 219.1 219.9 219.6 218 217.1 216.2 214 209.4 202.9 198.4 198.9 195.3 191.6 187.8 184.2 181 177.9 175.6 174 174.9 175.2 174.3 172.8 171.5 170.6 170.3 170 169.6 168.4 167.3 166.1 164 161.3 158.4 156.3 154.1 152.3 150.9 149.7 147.9 146.3 144.4 141.7 139.1 136.7 135.5 134.3 132.9 131.7 130.6 130.1 129.7 129.9 130.1 130.4 130.5 133.1 136.2 138.3 139.2 140 141.6 142.9 144.1 144.7 144.3 143.2 141.8 140.6 139.4 138 138 136.9 136.5 135.1 133.3 132.4 131.6 132.3 132.1 132.6 132.8 132.8 131 130.8 130.3 130 130.4 129.8 128.6 127.1 125.1 123.6 122.5 121.3 120.1 119.2 118.1 117.4 115.3 115.8 116.1 115.9 115.2 114.5 115 115.4 115.5 115.6 115.1 113.4 110 105.2 101 97.8 95.5 93.8
75.4 76.1 77.6 78.8 79.9 80.4 80.8 82.6 80.2 83.2 83.2 83.8 84 84.5 85.1 86 87 87.4 87 88.3 89.4 90.5 91 90.8 90.8 90.8 93.1 93 94.7 96.7 98.4 99.8 101.2 103.8 107.2 111.5 115.8 119.1 122.6 126.4 128.4 130.1 131.4 132.6 133.7 134.2 134.6 135 135.8 136.3 135.4 135.9 137.8 138.7 138.7 141.9 146.3 149.9 154.7 159.6 164.7 169.9 176 183 190.2 196.4 201.2 204.3 206.9 209 210.9 215.2 225.6 238.3 245.1 249.2 250 244.4 237.5 232.3 227.9 226.5 225.7 224.9 223.5 222.2 220.4 217.9 214.8 210.5 206.7 202.8 197.3 192.5 188.8 187.2 183.4 179.6 176.8 174.5 173.8 173.1 174.1 174.1 173.2 171.7 170.3 170.1 169.8 168.7 167.1 166.1 165.2 163.3 160.7 158.2 156.3 154.6 153.4 152 150.9 149.2 147.3 145 142.7 139.9 137 135 133.8 132.6 131.5 130.8 129.9 129.6 129.4 129.7 130 131.2 134.4 137.5 140.2 140.4 139.8 140.4 142.5 144.7 145.7 144.9 144.2 142.7 141.3 140.2 139.2 137.9 137.1 135.7 134.7 134 133.3 132.1 130.9 130 129.6 130.8 130.8 130.8 129.1 128.7 128.5 128.3 128.7 127.8 126.5 125 123.7 122.5 121.4 120.2 119 117.9 118.1 117 115.8 115.7 115.5 115.2 114.8 115 115.4 115.8 116.3 116.7 117.1 114.7 110.8 105.5 100.7 98.1 95.5 94.7
