ncols 200
nrows 98
xllcorner 610000
yllcorner 132550
cellsize 50
61.7 64.8 67.4 69.3 69.3 69.2 67.9 66.2 61.2 59.9 60.1 60.5 63 65.1 66.5 67 67.8 69.3 69.9 69.1 68.3 68.3 68.3 68.1 67.2 65.6 63.7 63 63.8 65.5 65.9 65.7 66.2 67.1 67.3 68.1 69.2 70.7 71 69.5 68.8 68.8 71.2 73.5 74.3 75.7 76.8 76.3 75.1 75 74 72.8 72.8 72.8 72.4 73 73 72.8 73.9 73.9 74.3 74.8 75.4 75.6 74.7 74.9 75.8 77.3 78.6 79.3 81.2 86.6 86.9 87.9 90.1 93.2 95.2 96.1 95.2 94.8 96 96.7 96.8 96.8 96.8 96.8 96.7 96.3 96 95.8 95.2 95 94.9 94.7 95.2 96.2 97.4 98.5 101.3 103.9 104.8 104.2 102.8 104.9 102.4 96.9 94.8 93.3 93 92.7 93.4 94.9 96.9 97.5 95.5 92.4 89.7 88.2 87.1 86.5 86.3 86.6 86.9 87.1 86.8 86.4 85.9 84.4 80.7 74.3 69.2 65.8 65.7 66.9 67.3 64.1 62.6 62.6 62.2 62 62.1 62.4 63 63.1 63.3 63.7 63.4 62.7 62.5 61.8 61.2 61.9 62.2 61.3 56.7 53.4 60.6 60.6 60.9 61.2 61.5 61.4 60.5 60 60.9 61.7 62.1 62.7 67.3 64.7 65.6 64.2 63.1 60 65.9 66 63.1 63.1 62.7 62.2 61.7 61.9 62.4 61.6 61.1 60.7 55.5 55.6 56 56.4 56.4 56.4 56 51.9 53.4 53.1 50.5 49.9 49.5 49.3
61.6 65.4 69.5 71.3 72.2 71.7 70.4 69 64.7 60.3 60.3 62.9 64.7 66.1 67.5 68.5 68.4 69.5 70.1 70.1 69.5 69.4 69 68.4 67.2 65.4 63.4 63.2 65.1 66.3 66.4 66.3 66.9 67.4 68.1 69.3 70.9 71.2 71.6 72.1 72.8 72.3 72.1 70.8 70.2 69 70 72.1 73 73.2 72.4 71.7 71.8 71.8 73.2 73.5 73.4 72.7 73 74.2 76.3 73.8 73.5 75.4 76.2 76.5 77 77.2 77.5 78.4 86.6 81.5 82.3 83.4 87.2 88.7 89.9 90.6 91.9 94.2 96.2 96.9 97.1 97.6 97.8 97.8 97.5 97.4 97.2 96.7 96.1 96.3 96.2 95.9 96.3 96.8 97.6 98.4 100.4 102.2 102.8 102.6 101 100.8 99.8 96.3 93.9 91.5 90.5 91.5 93.8 95.7 97.2 97.5 95.7 93.2 90.6 88.8 87.9 87.7 87.6 87.9 88.2 88.3 88 87.7 87.5 85.7 82.3 75.9 70.9 67.4 64.7 63.5 62.4 60.3 58.8 60.2 61 60.7 60.8 60.5 60.6 60.9 61.9 64 63.1 63.4 62.2 59.9 58.8 59.1 60 60.1 56 54.5 59.5 61.1 61.6 61.9 62 62 61.1 59.4 61.4 62.9 62.8 63 66.2 66.9 65.7 64.8 63.7 61.2 58.5 63.4 60.2 62.9 63.2 62.8 63.6 62.9 59.2 55.5 56 56.1 56.2 56.4 56.4 56.4 54.5 52.2 53.7 53.5 52.5 50.1 49.6 49.2 49 49.1
63.6 67.3 71 73.4 74.1 74.1 73.4 71.6 68.9 64.2 61.3 63.8 66 67.3 68.6 69.4 69.5 71.3 71.3 70.9 70.1 69.5 68.9 68.1 66.4 64.6 63.5 65.2 66.1 67.2 67 66.9 67.5 68.3 69.4 70.6 71.6 71.7 72.2 72.9 73 72.7 72 71.2 71.6 71.7 71.2 71.4 71.4 70.4 69.6 70.9 71.8 71.9 74.7 74.5 74.5 74.9 73.7 73.4 74.8 75 75.1 74.7 74.5 75.2 75.1 76.4 81.7 80.3 84.2 78.9 79.2 79.9 80.4 80.8 81.2 82 83.5 84 88.2 92.7 96.9 97.4 98 98 97.6 98.2 98 97.4 97.8 97.7 97.4 97.4 97.3 98 98.5 99.1 100.3 101.2 100.4 99 97.9 97.1 96.8 95.2 90.5 87.9 91.3 92.9 94.7 96.4 97.7 96.9 94.7 92.2 90.3 89.2 89 88.8 88.9 89.2 89.5 89.3 88.7 88.5 87.9 86.1 81.5 75.9 72.4 70.2 68.2 65.7 64 62 59.2 58.5 59.7 59.9 59.5 59.5 61 59.6 58.6 60.4 58.3 57.5 56.3 56 55.8 55.9 56.1 55.8 55.6 56 57.3 61.4 63.1 62.5 62.8 62.6 61.5 58.8 60.2 62.9 63.5 64.4 66 66.7 66.4 66.8 66 64.3 59.7 64 64.6 65.1 64.8 57.4 55.1 55.5 55.5 56.2 56.3 56.4 56.4 56.4 53.3 53.2 55.7 54.1 53.8 52 49.8 49.9 49.5 48.7 48.5 48.9
67 70.7 73.3 75.2 76.2 76.6 76 74.2 72 66.4 63.2 63.6 65.7 68 69.5 70.4 70.8 71.9 71.5 70.7 70 69.3 68.5 67.3 65.4 63.9 65.7 67 67.5 67.7 67.7 67.7 68.5 69.4 70.4 70.8 71 72.1 72.7 72.6 72.5 71.7 70.9 70.1 70.3 70.1 69.9 70 70 70.6 72 73.6 72.9 72.2 70.8 70.9 76.1 75.7 74.6 74 76.5 75.9 75.6 75.1 75.3 76 75.7 75.9 76.7 76.9 83.5 83.7 83.6 83 86.4 86.3 85.5 84.4 83.1 83.1 83.1 83.2 83.4 84 84.7 89.2 94.9 98.2 97.5 98.7 99.4 99 98.7 98.6 98.6 98.7 98.7 99.3 99.7 99.7 98.9 96.9 95.2 94.3 94.2 89.7 85.3 91.7 93.9 94.3 94.4 95.9 97.2 95.9 93.8 92 90.7 90.5 90.2 89.9 89.8 90 89.8 89.6 89.2 89.2 87.3 84.3 80.8 77.2 74.5 72.2 70.4 67.7 65.5 62.8 59.1 57.1 57.9 59.8 59.8 59.2 58.7 57.8 57 56.8 55.9 55.5 55.5 55.5 55.6 55.6 55.3 55.2 55 54.9 54.9 55.7 57.4 59.4 61.3 61.3 60.1 57.7 58.4 61.3 64.5 66.3 66.5 66.7 66.6 65.2 64.8 65.7 65.7 61.6 56.1 55.8 55.4 55.8 55.6 56.1 56.4 56.4 56.4 56.4 55.1 55.7 58.7 58.1 54.5 55.4 51.9 50.6 50.3 50.4 49.8 49.1 48.5 48.7
70 72.8 74.9 76.7 78.3 78.6 78 76.7 74.1 68.7 64.5 64.8 65.7 67.9 69.8 71 72 71.9 70.9 70.3 69.5 68.7 67.8 66.1 64.2 66 68.3 69.4 69.6 69 69.1 69 69.6 70.3 70.8 71 71.5 71.9 71.9 71.8 71.5 70.3 69.2 69 69.4 69.5 69.6 69.6 70.3 72 73.8 74.8 76.2 77.2 76.5 75.6 75.6 72.9 72.7 72.2 73.3 76 77.7 75.8 76.2 75.9 75.8 76.8 77 77.1 80.5 83.4 81.8 84.3 82.5 82.5 84.3 90.2 89.3 88.8 90.8 88.8 87.8 91.8 92.1 87.9 86.1 86.5 86.7 88.2 93.7 99 99 99.8 99.7 99.6 99.5 99.4 99.5 99.3 98.8 97.2 95.6 92.3 86.5 83.1 91 94 94.7 95.3 95.3 95.2 96.5 94.7 93.5 92.2 91.5 91.3 91.2 91 90.7 90.4 89.9 89.7 89.4 89.1 85.9 82.6 79.3 76.2 73.3 71.9 70.2 68.2 66 63.5 60.2 59 61.3 60.7 60 59.1 58.2 57.8 58.9 59.1 58.6 67.7 61.1 60.8 60.9 58.8 56.9 56.6 51.4 53.4 57.2 54.8 55 55.1 58 62 63.4 63.6 65 58.4 64.8 64.2 64.5 65.1 65.4 65.4 64.3 61.5 57 55.7 55.3 55.3 55.9 56.2 56.4 56.4 56.4 56.8 59.5 62.5 61.2 60.9 56.3 55.2 58.9 52.2 51.5 51 51.4 51.8 51.4 50.6 49.8 48.8
70.9 74.1 76.2 78 79.8 79.9 79.4 78 76.1 71.9 68.2 66.9 66.3 68.1 69.9 70.9 71.7 71.8 70.6 69 68.9 68 66.8 64.9 64.7 68 70.3 71.8 71.7 71.1 70.4 70.3 69.9 69.9 69.7 70.4 71 71.3 71.2 71 70.2 69.4 68.6 69.7 70.4 71.2 70.3 70.3 72.2 73.7 74.8 75.2 76.2 76.8 76.4 75.8 76.2 76.7 77.1 78.3 78.4 75.8 73.6 73.4 73.4 73.8 76.9 78.4 77.7 78.6 81.2 79.3 79.3 84.3 81.2 82.2 84.9 87.1 85.1 85.3 88.4 86.3 85 89.6 93.7 93.5 91.9 94.4 96.6 92.7 88 87.9 88.9 90.5 96.3 99.7 99.8 99.8 99.4 99.1 98.8 97.6 96.1 89.7 81.4 85.1 94.2 95.2 95.6 96.1 96.3 96 96.2 94.9 93.9 93.5 92.6 91.8 91.5 91.4 90.7 90.3 90 89.5 89.3 88.3 84 80.5 77.3 74.3 72 70.9 68.9 66.9 65.5 64 63.1 62.3 61.6 61.7 62.4 63.3 63.7 63.9 64.5 65.6 65.4 71.3 69.2 67.6 66.1 61.5 62.4 62.8 53.8 51.2 59.9 61.9 63 60 55.1 55.1 56.5 66 63.8 66.4 63.8 58.4 65.4 65.9 66 64.9 55.5 54.3 53.8 57.2 56 55.9 56.4 56.4 56.4 60.1 60.5 62.8 63.5 61.9 58.8 55.9 63.7 60.5 53.3 52.6 51.9 52.4 52.8 53.2 53 52.1 50.7 49.6
72.2 74.9 76.8 78.7 80.1 80.7 80.4 79.3 77.5 75.5 72.3 68.9 67.4 69.3 70.3 71.3 72.4 72.7 71 69.5 68.5 67.3 65.7 64.7 66.2 69 70.4 71.3 71.9 71.6 70.7 69.7 69.1 68.9 68.6 69.3 70 70.5 70.5 69.9 69.2 68.8 68.8 70.6 71.2 71.8 71.3 71.8 73.3 74.1 74.5 75.1 75.1 75.9 75.8 75.4 76.5 77.8 78.8 81 81.7 81.6 81 79.4 78.8 78 74.7 74.4 74.3 74.6 76.6 79.6 79.5 84.3 82.9 82.4 82.6 82.3 79.5 81 83.8 83.9 83.1 87.9 90.6 88.4 87.9 94.4 98.9 100.6 101.1 100.7 98.5 94.2 89.8 90.2 90.6 94.2 99.1 98.8 98.7 97.1 88.9 81.5 80.7 88.7 95.9 96 96.3 96.7 96.5 96.1 96.5 95.2 94.1 93.4 93 92.4 91.9 91.7 91 90.6 90 88.9 88.5 86.2 81.2 77.6 74.9 72.7 70.6 69.1 67.6 66.4 65.6 64.2 64.3 64.9 66.9 66.5 65.9 65.2 64.9 64.9 65.1 65.5 64.6 64.2 63.7 63.5 63.4 63.4 63.4 63.5 62.5 60.8 65.4 64.8 64.6 64.4 64.8 65.1 65.2 55.4 55.6 59.1 65.1 64.4 62.9 62.5 64.7 64.3 63.6 55.7 55.7 55.7 55.7 55.7 56.3 61 60.6 60.6 60.9 62.6 62.3 57.7 57.5 58.5 63.8 55.1 54 53.3 52.6 52.8 53.7 54.5 54.8 53.8 52.3 50.9
73.5 75.5 77.4 79.3 80.8 81.2 81 80.1 78.7 76.7 74.3 71.1 70.9 72.1 73.2 73.1 73.9 73.7 72.1 70.5 69 67.5 65.3 65.1 66.2 67.5 68.7 69.4 69.9 69.8 69.1 68.5 68.3 68.1 67.9 68.3 69.7 70 69.9 69.6 69 68.9 69.9 71.3 71.4 71.8 72.3 72.6 73.4 73.8 74.2 74.5 74.5 74.6 74.9 75.3 75.9 77.2 80.1 83.2 84.4 84.3 82 80.2 79.2 78.6 77.9 77.5 77.5 77.5 77.4 74.9 74.6 74.4 75.4 78 79.5 79.3 78.6 79.7 81.1 82.1 81.9 84 85.4 83.6 85.4 94 95.5 97.5 101.1 103.1 104.3 103 101.5 99.9 98.4 94.9 92 92.5 93 93.3 89.5 86.1 87.7 95.9 97 97.2 97.1 96.9 96.7 96.4 96.7 95.6 94.9 94.3 93.3 92.7 92.1 91.4 89.9 89.1 89.3 87.2 84.2 80.1 76.6 75.2 73.8 72.3 71.8 68.2 66 65.8 66.3 66.1 65.4 64.8 64.7 64.7 64.7 64.7 64.7 64.7 64.7 64.7 64.4 64 63.7 63.5 63.4 63.4 63.4 63.7 64.5 64.9 64.2 65.5 67.5 68.4 68.5 69.4 65.8 59.1 57.1 57 56.2 56.2 58 63.2 67.1 66.7 64.8 64.8 65.2 64.9 64.3 63.5 62.5 62.2 59.7 58.3 58.1 57.7 59 64.2 62.5 63.1 62.2 55.7 54.8 54.1 53.4 53.2 54.4 55.6 56.4 55.7 53.8 52.3
74.2 76.4 78.3 79.9 81.5 81.7 81.3 80.6 79.6 77.2 75.1 73.3 73.6 74.8 76 75.5 75.4 74.7 72.9 70.9 69.4 67.9 66.2 64.8 65.2 65.9 66.6 67.3 67.8 68.1 67.4 66.7 66.8 67 67.2 67.1 68 68.8 68.8 68.8 68.7 68.8 70.2 70.4 70.8 71.5 72.2 72.7 73.1 73.4 73.8 73.8 73.8 73.8 74 75.1 77 79.5 82.1 84.3 85.7 85.7 82.2 79.4 79.2 78.5 77.8 77.5 77.7 78.1 78.6 78.8 78.5 81.1 83 77.5 74.6 73.9 73.6 75.5 78.4 80.4 80.1 80 81.8 81 82.8 85.3 85.5 88.5 94.9 101.1 104.7 103.7 102.2 101.3 98.9 100.1 102.7 101.7 92.3 88.9 91.5 93.4 93.7 94.5 95.2 95.1 95.1 96.2 96.8 97.3 96.9 96.4 95.6 94.5 93 91.5 89.6 87.4 86 84.5 82.9 80.9 79.1 78.6 74.3 70.7 69.6 70.3 68.9 66.9 66.7 66.7 66.7 66.1 65.5 64.9 64.7 64.7 64.7 64.7 64.7 64.3 64.2 64 62.7 62.6 62.6 62.6 63.3 64.9 66.1 67.5 64.3 58.7 58.9 62.5 62.2 64 65.8 66.4 63.8 54.9 52 64.2 65.8 65.7 64.2 58.8 57.6 58 58.3 58.3 58.3 58.3 58.3 58.3 58.3 58.3 58.3 59.1 58.9 59.8 58.9 59.2 59.1 59 61 56.7 55.4 54.7 54.1 53.7 54.9 56.2 57.3 56.8 55.3 53.6
74.9 77.4 79.1 80.6 81.4 82 81.7 81.1 80.2 78.2 76.4 75 76.2 77.7 78.9 77.1 76 74.6 72.7 71 69.5 68.2 66.7 65.4 65.6 65.8 66 65.8 65.8 66.1 66.4 66.8 69 70.8 70.9 69.1 68.1 67.8 68.1 68 68.4 69.2 69.4 69.8 70.2 70.7 71.1 71.6 72.2 72.8 73.1 73 73 72.9 74.4 76.2 78.5 81.3 83.1 84.7 86.2 86.5 84 80 79.1 78.4 78.3 78.7 78.7 79.1 79.7 80.4 81.4 83.6 83.9 81.8 76.9 73.4 76.1 72.8 73.7 78.5 84 81.5 77.5 78 78.9 79.3 79.1 81.1 86.6 92.5 100.1 103.9 101.9 98.6 94.1 97.9 100.3 98.8 88.2 74.9 75.2 90.5 95.9 96.5 98.3 97.9 97.2 94.9 95.2 96 95.5 96.1 95.9 95 93 90.3 87.6 85.6 81.3 77.5 76.2 73.2 73.9 70.1 69.2 68 66.8 66.7 66.7 66.7 66.7 66 65.5 65.7 64.9 64.5 63.2 62.7 62.5 62 62.2 62.3 62.8 63 65.7 70.1 70.9 72.8 60.4 57.1 57.5 59.1 55 51.3 47.4 56 56.8 58.5 58.5 60.7 59.6 61.4 59.4 65.6 66 67.1 66.9 66.9 66.6 66.8 66 65.5 64.9 64.8 64.8 64.5 63.8 62.8 62.9 62.6 62 61.7 60 59.4 58.8 58.9 58.8 57.5 56 55.2 54.6 54.7 55.6 56.8 58.2 58.3 57 55.9
76.2 78.3 79.8 80.9 81.8 82.3 82 81.4 80.6 79.2 78.3 77.1 77.5 79.4 80.4 79.2 76.6 74.6 72.8 71 69.5 68 67 66.6 67.4 67.8 67.8 67.4 66.5 66.5 68.6 70 71.1 72.1 72.9 72.4 70.1 68.6 68.4 68.4 68.6 68.6 68.8 69.3 69.6 70.4 70.6 70.8 71.3 71.6 72 71.9 71.9 73.3 75.1 77.2 79.8 82.2 83.2 84.8 86.4 86.7 83.8 80.2 79.3 78.9 80 79.7 79.7 80 80.8 81.6 83.5 83.6 82.2 78.7 74.3 70.2 70.9 70.9 73.9 84.4 90.8 80.3 74 71.7 72.3 73 74.6 77.6 80.8 84.5 89.5 98.7 94.6 92.2 89.8 89 88.2 87 83.6 75.5 79.8 86 87.7 88.8 88.9 88.7 88.1 87.8 87.6 87.6 87 85.7 84.9 84.7 85.1 85.6 86.2 86.9 88.1 87.8 86.8 81 75.9 77.1 76 76.4 76.6 68.7 61.2 57.6 55.5 54.2 62 64.8 67.8 66.7 65.2 61.5 59.7 60.3 61.3 61.6 62.4 63 67 68.8 72.8 73.2 59.1 54.9 53.9 53.5 53.1 51.8 45 50.3 52.3 54.7 54.8 59.9 52.6 50 61.1 66.1 66.8 63.8 60.1 60.9 64.3 66.6 66.1 65.5 65.9 65.8 65.3 64.6 65.1 65.2 64.2 63.8 63.3 62.6 61.6 61 59.7 59.8 59.1 58.2 56.4 55.3 55.1 55.7 56.2 57.7 59.1 58.6 57.8 56.3
76.9 78.7 80.1 81.3 81.8 82.2 82.1 81.8 81.1 79.9 79.3 78.3 78.1 79.6 80.1 79.8 77.5 75.2 73.4 70.7 69.2 68.6 68.6 67.5 68.2 68.8 69.1 68.9 68 67.7 68.6 70.5 71.7 72.5 73.1 73.1 71.1 69.7 69.5 69.8 70.1 70.3 70 69.8 69.7 70.6 70.6 70.6 70.6 70.3 70.7 71.2 72.1 74 76.1 77.7 80.2 81.8 83.4 84.9 86.4 86.7 83.3 80.6 79.8 80 81.7 80.4 79.9 80.3 81 81.6 82.4 82 78.8 74.3 71.1 67.8 68.7 70 75.5 84.6 88.9 83.1 77.3 75.2 73.5 75.1 76.4 72.6 72.8 78.2 81.1 82.6 78.6 78.2 77.4 78 79 81 81.8 82.5 81.7 80.8 79.3 79.7 89.9 95 97 97.8 97.7 97.7 97.4 97 96.5 95.5 93.7 92.5 91.3 90.2 89.6 88.7 86.8 84.9 83.2 85.6 83.9 83.4 83.6 78.3 67.9 60 54.7 55.2 72.1 73.3 75 72.1 68.7 64 62 61.5 62 62.4 63 63.8 67.2 69.5 73 73.1 59.5 54.3 53.8 53.3 52.9 50.9 43.9 48.7 51 52.6 53.2 52.5 48.8 51.7 64 67.1 67.7 68 68 67.6 67.4 66.3 63.1 59.1 58.2 62 66.2 65.7 65.4 65.8 64.8 64.2 63.7 63.2 62.4 61.9 61.4 60.8 59.8 58.6 57.6 56.1 56.3 57 57.2 58.2 59.6 59.7 59.3 56.9
76.5 78.7 79.9 80.6 81.3 81.9 81.8 81.8 81.5 80.7 80.1 79.5 79.7 79.9 80.7 80.1 78 75.8 73.9 71.5 69.8 70.7 70.4 69 68.6 69.5 69.8 69.8 69.2 68.2 68 69.9 71.7 72.5 73 72.1 70.7 69.9 70.1 71.2 71.5 71.9 71.7 71.4 71.2 70.6 70.6 70.6 70.6 70.2 70.4 71.3 72.7 74.3 75.9 77.5 79.4 81.6 83.7 85.2 86.6 87.2 87.7 84.3 80.8 81 82.2 80.7 79.9 79.1 80.7 81 78.9 78.9 77 73.2 69.7 67.5 65.7 67.6 75.2 80 81.8 79.2 78.7 78.8 79.5 77.9 74.2 70 73.2 77.5 77.3 80.1 72.4 71.5 71.4 71.4 71.4 71.4 71.6 70.1 70.6 78.3 79.7 84.3 94.9 99.4 99.1 98.8 98.6 98.4 98 96.2 96.6 96.3 95.9 95.4 94.9 94.7 94.4 94.1 93.9 92.6 91.6 90.1 88.6 88.6 87.8 84.9 67.1 60 53 53.4 71 76.9 80.5 77.3 71.7 67.2 66.8 65.5 64.7 64.7 65.8 67 68.4 71.6 74 74.4 60.4 54.1 53.7 53.2 52.7 51 44 48.7 52.1 50.9 50.7 47.3 47.2 58.7 66.8 67.6 67.8 68 68.5 68.6 68.8 68.1 67.5 67.4 66.5 66.2 65.8 62.5 58.7 56.9 60.6 65.1 64.8 63.9 63.3 62.8 61.8 61.5 60.5 59.3 59 57.8 57.2 56.9 57.7 58.8 59.6 59.7 59.4 57.5
75.6 77.8 78.9 79.8 80.2 80.7 81 81.2 81.2 81 81.2 81.4 81.7 81.5 81.5 80.5 78.7 76.6 74.7 74.1 73.5 73 72.4 70.6 69.9 70.3 70.2 70.1 69.5 69 68.8 69.5 71.1 72.4 72.7 71.6 69.5 69.8 71.5 72.2 72.9 73.3 73.1 72.6 71.6 70.4 70.6 70.6 70.7 70.9 70.8 72.3 74.4 75.8 76.8 79 80.7 82.3 84.2 85.9 87.5 89 90.9 87.5 82.1 82.3 82.3 80.8 80.2 79.1 78.7 79.2 74.1 74.6 73.9 71.4 68.9 66.5 64.8 67.5 72 75.3 76.4 78 80.1 81.2 80.7 78.9 74.9 70.2 73.5 77.5 78.8 77.6 75 73.1 72.7 72.2 72.1 73.9 76.1 65.7 72.8 76 77.6 87.6 99.8 100.2 100.4 100 99.5 98.3 97.2 95.4 92.4 94.3 96 95.6 95.5 95.3 94.9 94.5 94.4 93.5 92.7 91.8 90.7 89.8 88.2 83.3 66.1 57.5 50.3 50.8 61.8 79.5 82.3 79.2 72.3 66.9 68.5 68.7 68.4 68.8 71.1 70.5 70.1 72.6 74.9 74.5 64.2 61 60.7 57.1 53.5 50.2 44 47.1 47.8 45.9 44.7 42.5 48.7 63.9 67.4 67.4 67.8 68 68.6 68.7 68.5 68.3 67.7 67.5 67.7 67.4 67 66.8 67.1 66.8 66.4 65.7 63.3 59.1 56.5 58.9 62.7 62.4 61.2 60.1 59.3 59 58.6 57.6 57.9 58.9 59.4 59.4 59.1 57.5
73.7 75.8 77 77.9 78.6 79.1 79.8 80.4 81.4 82.1 83.1 83.3 83.8 83.5 82.7 81.6 80.1 78.2 76.7 75.9 75.4 76.4 75.1 73.7 72.9 72.5 71.7 70.9 70.8 70.7 70.6 70.4 70.7 72.2 72 70.5 69.6 71.2 72.9 73.8 74.4 74.6 74.1 73.3 72.7 71.5 70.8 70.7 71.1 71.5 72 73.9 76 77 77.8 79.4 81.1 82.9 84.8 86.8 88.4 91.4 91.9 87.9 83.2 83.1 82 80.9 80.8 78.5 74.1 75.1 72.3 70.5 71.4 70.3 68.4 65.8 64.2 65.1 68.5 71.5 74.4 77.8 80.2 80.2 78.3 76.6 73.6 69.4 72.1 75.8 77.5 78.4 76.3 74.2 71.9 72.2 71.8 73.5 77.2 67.1 71.5 71.6 79.4 94.4 100.9 101.3 101 100.3 98.9 96.3 93.4 89.3 86.8 90.4 94.8 96.2 96.1 95.9 95.4 94.7 94.3 93.4 92.5 91.9 91.1 90 87.4 75.9 62.7 55.2 48.9 52.5 70.2 81.9 82.7 80.1 76.2 70.9 70.1 71.6 72.1 72.9 74.6 73.4 72.5 73.6 74.7 74.3 72 68.2 67.3 59.8 52.9 47.6 44.1 42.1 43.5 44.1 42.8 40.9 45 60.7 65.4 65.2 65 67.2 68.4 68.5 68.3 68.1 67.8 67.9 68 68 67.6 67.5 67.2 66.5 66.5 66.2 65.5 64.3 64.5 63.3 63.3 63 59.1 55.9 56.7 58.8 58.3 58.7 58.5 58.5 58.8 59.2 58.2 55.9
71.6 73.1 74.3 75.2 75.9 77.3 78.8 80.6 82.3 84 85 86 86.5 86.1 84.7 83 81.4 80 78.7 77.8 77.2 79.7 78.4 76.7 75.3 73.7 73.3 72.7 72.4 72.3 72.3 71.4 70.8 71.2 71.1 70.1 70.9 72.4 74.1 74.3 75.7 75.6 74.7 73.9 73.5 72.9 72.1 71.9 72.1 72.6 73.1 74 75.5 77.1 78.4 79.7 81.2 83.1 84.9 87.5 90.1 92.3 89.8 86.6 84 82.6 81.9 81.8 78.7 75.9 73.7 69.4 67.9 67.7 68.4 68.4 67.5 65.5 63.2 62.4 66.4 68.9 73.9 76.8 77.8 76.6 74.8 73.3 71.5 68.5 70.8 74.9 76.6 79.4 78.3 74.7 71.4 71.9 72.8 76.7 79.9 70.6 67.8 72.3 83.3 99.5 101.9 101.5 100.9 96.4 92.8 90.1 85.9 83.2 81.7 83.8 92.4 95.7 96.7 96.6 96.1 95 94.2 93.4 89.6 88.9 90.1 89.5 82.6 65.4 58 51.1 46.3 54.3 69.4 77.1 82.9 81.7 78.6 75.7 72.5 75.1 74.9 75.7 75.8 74.5 74.5 74.6 74 72.8 65.6 58.4 53.3 50.1 49.3 48.2 48.1 49.5 50.9 51.9 50.4 45.2 42.6 48.1 53 54 58.7 66 68.5 68.4 68.1 67.9 67.6 67.8 68.1 68.6 68.4 68.2 67.7 67 67.1 66.4 65.7 64.7 63.4 63.2 62.9 62.6 62.3 61.1 60.7 60.4 60.2 59.2 55.3 54.9 58 58 56.3 56.4
69.7 70.9 71.7 72.6 74.1 77.2 79.7 81.6 83.6 85.4 86.9 88.2 88.9 87.8 86.1 84.8 83.8 81.9 80.7 79.7 79.3 79.9 79 78.6 78.1 77.6 75.9 75.3 75.6 75.6 74.2 72.7 72.5 72 71.5 70.7 71.9 73.8 74.9 75.4 75.2 76.1 75.2 74.4 74.3 73.8 73.4 73.4 73.6 73.9 73.8 73.4 75 76.6 76.8 79 81.2 83.3 85.3 88 90.7 91.4 88.9 84.4 83.7 83 81.6 77.8 72.6 70.8 69.7 69 67.7 65.4 66.6 66 65.3 63.8 62.5 60.8 62.8 65.5 71.2 74.5 75.7 73.8 71.7 70.7 68.7 65.6 70.9 76.4 78.4 79.6 77.9 73.1 70.3 69.4 70.3 74.5 74.2 70.2 65.5 72.7 89.8 103 102.7 100.8 96.7 89.6 84.3 83.9 81.1 78.1 77 78.3 83.8 92.3 96.6 97.3 96.6 95.4 93.5 86.8 79.9 78.1 81.3 81.8 71.2 61.4 55.7 49.7 42.9 51.2 60.6 68.2 79.6 82.8 81 78.1 75 74.7 75.4 75.6 74.1 74.3 74.7 74.5 73.4 70.6 60.7 55 58.5 60 62.4 63.8 65.6 66.7 64 57.5 54.1 48.6 42.2 40.8 43.8 47.6 51.6 64.1 68.5 68.4 68.1 67.8 67.5 67.2 68.2 68.7 68.9 68.8 68.2 67.7 67 66.3 65.9 64.3 63.3 63.5 64 63.7 62.9 61.8 61.6 60.8 60.5 60.2 59.9 59.7 58.8 58 56.5 54.9
67.6 68.8 69.6 71 74.1 77.4 80.8 82.8 84.8 86.6 88.3 89.8 90.5 89.9 88.5 87.5 85.7 83.9 82.6 81.6 81.5 81.8 81.2 80.9 80.7 79.9 78.8 78.3 78.5 77.3 75.1 74 73.7 73.1 72.6 71.5 73.4 75.2 75.7 76.3 76.7 76.9 75.4 75 75 74.8 74.8 74.8 74.8 75.1 74.5 74.1 74.8 76.4 77.3 78.9 81 83.5 86 88.7 91.3 89.9 87.4 81.5 80.9 77 75.2 72.5 71.2 68.9 68.1 68.8 67.1 64.6 64.1 64.2 64 63.4 63.7 62.8 59.7 61.5 67.1 72.3 73.1 71 68.4 67.3 65.8 64.4 70.4 74.9 77.2 79.5 79.4 74.9 71.1 67 66.3 68.3 68.7 72.1 69.6 78.8 93.1 104.2 103.7 100.8 91.2 83.8 79.6 79.1 77.9 76 72.3 74.4 78.5 89.3 97.1 97.2 95.8 89.3 83.9 79.7 72.3 68 70.5 68.3 64.3 60.3 56 51.9 45.3 42.4 51.4 61.7 75.9 83.9 82.7 80.4 77.5 75.5 74.2 72.8 72.9 73.3 73.5 73.5 71.6 66.8 58.3 60.7 73.3 75.7 75.3 75.3 75.7 74.4 73.3 64.8 56.5 53 48.2 40.8 38.2 42.3 46.9 52.5 66.8 67.5 67.3 66.3 65.1 66.3 68.3 69 69.2 68.6 68.1 67.3 66.5 65.6 62.6 60.8 60.8 62.7 64.5 64.8 63.8 62.7 61.9 61.7 61.1 60.4 60.4 59.4 58.4 58.1 56.7 54.2
66 67.9 68.4 70.2 73.4 77.2 81.1 83.6 85.9 87.5 89.1 90.4 91.7 91.6 90.7 89.1 87.3 85.7 84.2 83.3 83.4 83.6 83.2 83.2 81.9 81.5 81.4 81.4 80.6 78.1 75.9 75.5 75.4 74.6 74.1 72.9 74.8 76.2 76.8 76.8 77 78.4 77.3 76.6 75.6 75.2 74.5 75.4 75.7 75.4 75.3 75.3 76.3 77.1 77.9 79.2 80.9 83.1 86.4 88.8 90 88.2 79.2 75.2 75.4 74.5 72.1 70.8 69.2 68.1 67.3 66.9 67.1 66.2 65.5 67.3 68.8 67.8 65.8 64.7 63.5 59.1 62.4 66.8 67.9 67 64.5 63.6 62.2 65.3 68.9 72.2 74.9 79.5 80.4 74.3 70.5 67.1 62.8 66.4 62.7 68.9 80.9 75.7 95.5 100.7 94.4 89.8 84.1 77.9 75.7 75.7 75.6 74.7 71.5 70.7 75.4 84.4 95 96.1 87.5 79.9 74.8 70.6 66.5 61.4 60.9 61.3 61.6 58.9 54.5 49.6 44.8 42.4 49.8 60.4 74.3 85.4 84.4 82.1 79.4 77.5 75.5 74.3 73 72.2 72.2 71.2 66.7 60.1 58.6 67.6 76.9 78 77.7 77 76.9 75.9 74.6 70.2 61.9 58 52.8 48.6 39.6 38.5 44.1 48.9 63.1 65 61.9 59.6 58.3 63.4 68.3 69.4 69.4 68.7 67 64.7 62.3 59.4 56.9 57.2 62.5 64.1 65.9 65.3 64.8 63.8 62.6 62.5 61.8 60.8 60.4 59.4 58.3 57.2 55.9 54.7
68.1 67.7 66.8 69.4 72.2 76.9 81.3 83.8 85.8 87.7 89.4 91 92.1 92.4 91.9 90.5 88.9 87.7 86.5 85.3 85.3 85.3 85.3 85.5 86 84 83 82.9 81.4 79.7 78 78 77.9 76.8 75.6 73.8 73.8 76.5 76.3 76.6 77 79.6 79.6 78.6 77.4 76.9 75.6 76.3 76.7 77.1 76.6 76.5 77.6 78.1 79.4 80.5 81.2 82.9 85.9 88.1 89.7 85.1 77.6 79.5 76.6 74.7 73.2 71.1 69.4 69.1 69.8 70 69.6 68.4 66.1 69.1 71.9 69 66.2 64.8 63.5 61.5 58.3 62.2 64.1 63.1 60.7 64 64.8 65.8 68.1 70.9 75.3 79.5 75 70.9 66.7 64.3 61.5 60.3 63.5 74.9 86.4 91.6 102.9 83 87.4 83.3 78.3 74.1 72.3 72.3 72.9 73.4 71.1 68.2 73.1 79.2 88.2 85 78.1 72.6 67.8 63.1 60.1 56.5 55.2 57.7 58.7 56.6 53.8 48.8 44.2 41.9 45.7 54.2 69.9 85.5 85.7 83.5 81.5 79.4 77.8 75.9 73.9 72.3 71.3 69.4 69.2 64.9 64.2 75.8 78.6 78.7 78.5 78.3 78.1 77.2 75.8 73.5 66 60.6 56.4 52.1 45.8 37.9 41 46.7 57.4 58.1 50.6 49.5 52 59.9 68.1 69.5 69.8 67.6 64.4 59.8 53.8 52.3 55.2 59.8 64.3 66.6 66.5 65.8 65.3 64.7 63.8 63.2 62.5 61.8 60.5 59.5 58.6 56.9 56.7 56.7
71 69.1 67.4 67.9 70.9 75.5 80.3 83.2 84.7 86.8 89.1 90.7 92.1 92.8 92.6 91.9 90.4 88.9 87.8 87.1 86.7 86.8 86.8 87.3 87.7 85.2 84.3 85.9 85.5 83.1 80.6 80.1 80.2 78.6 76.1 74.6 74.1 76.7 77.5 77.3 77.8 79.2 80 78.9 78.6 77.8 76.9 76.8 77.6 77.7 77.7 77.8 78.9 79.3 80.4 82.2 82.8 84 85.5 87.3 89.6 90 89.7 89.5 81.8 77.4 74.7 73 73 71.4 71.6 70.8 69.4 68.2 66.6 69.8 70.9 68.7 66.2 64.5 63.1 63.3 61.6 58.3 59.8 61.4 59.7 63 62.8 63.5 67.2 73.3 77.4 75.2 70.8 67.3 63.3 61 59.6 60 66.3 76.9 86.1 94.4 99.8 91.1 86.1 81.7 77.4 76.3 73.6 71.8 69.9 70.4 68.3 66.4 72.7 77.1 78.6 77.1 72.9 68.6 64.5 61.5 58.3 57.1 55.4 52.6 53.7 53.2 50.8 46.1 43.4 41.1 41.7 51.1 65.5 76.5 83.8 85.5 84.1 82.4 80.7 78 75.1 72.9 71.2 70.9 71.7 67.4 73 77.9 79.5 79.4 79.2 79 78.8 77.9 76.7 74.8 68.9 61.5 56.7 51.8 46.3 39.6 37.1 41.8 46.6 46.9 45.2 43.5 47.1 54.4 64.5 69.2 69.3 68.8 64 54.6 49.8 50.3 59.4 65.4 66.5 67.7 67.4 66.7 65.9 65.2 64.5 63.8 63.2 62.5 61.4 60.4 59.6 57.6 57.9 57.8
72.8 71.1 68.6 69 69.5 73.8 78.3 80.7 82.8 86.1 88.4 90.3 92 92.9 93.2 93.3 91.9 90.4 89.5 88.7 88.3 88.4 88.5 88.6 88.3 86.4 85.7 89.2 87.9 86.2 83.8 82.4 81.3 78.8 76.4 74.5 74.5 77.1 78.5 79.2 80.3 81 80.9 79.7 79.5 79.1 78.2 77.8 78.5 78 78.4 79.6 80.8 81.6 81.5 82.4 83.7 85.6 87.5 89 89.5 89.7 90.5 87.8 82.4 80.7 79.4 80 78.6 73.9 71.2 70 68.8 67.8 66.9 69.3 69.6 67.9 66.2 64.8 64.8 63 62.1 61.2 59.8 56.5 56.5 58.8 59.3 60.1 66.1 73.1 74.5 70.9 67.6 64 60.7 58.1 59.4 63.4 69 74.3 80.2 84.5 94.3 94 87.3 83.5 83.1 83.6 80.4 75.8 71.3 68 65.8 66.2 71 74.2 73.5 73.3 70.8 68.8 67.6 69.2 66.8 62.2 57.8 52 51.5 50.5 46.7 47.5 45.8 42.3 40.1 49.8 59.2 63.4 74.2 85.8 86.4 85.2 83.2 79.9 77.1 74 72.1 71.1 71.1 70 73.6 78.3 80 80.1 79.9 79.7 79.4 78.7 77.5 76.1 71.7 63.2 57.8 53.6 47.9 40.4 34.2 36.1 40.1 40.4 38.7 40.5 44.5 46.5 51.5 65.7 68.9 67.6 59 49.9 45.7 52.9 64.8 68.6 69 68.9 68.4 67.6 66.7 65.9 65.1 64.4 63.7 62.8 61.9 61.3 60 58.4 58.3 58.2
74.3 73.1 71.3 67.9 69.9 73.4 75.7 77.6 80.1 84.5 87.6 89.6 91.7 93 93.8 94.6 93.3 92.8 92.2 91.5 90.6 90.2 90.3 90 88.9 88.1 90.1 90.3 89.4 88.1 85.7 83.1 80.9 78.5 76.3 74.2 74.5 77.7 79 80.2 80.9 81.5 81.8 80.6 80.2 79.6 79.2 79.4 80.2 79.9 78.6 80.7 82.2 82.5 82.4 82.9 84.7 86.6 88.4 89.9 90.2 88.9 87.5 81 81.3 79.9 79.6 81.5 81.1 77 71.7 69.2 68.6 67.9 68.7 69.6 69.4 67.7 66.9 66.4 65.6 63.8 64.1 64.3 62.9 58.8 56.5 61.6 58.8 56.5 63.2 70.5 70.9 67.4 64 60.9 58.6 56.2 62.2 66.4 70.4 74.9 80.1 84.5 89.2 90.8 86.7 84.8 85.8 87.1 85 79.4 73.9 72.5 66.4 65.2 69 70.3 70.2 70.7 69.5 67.2 68 70 68.4 64.2 58.7 51.5 48.4 46.9 46.7 49.1 47.5 44.1 38.7 46.1 53.9 59 65.6 82.7 88.4 87.4 85.3 81.8 79.2 75.1 72.8 71.8 70.9 70.8 73.3 78.2 80.2 80.8 80.6 80.3 79.9 79.6 78.7 77.3 75 66.3 60 55.4 49.6 44.4 40.3 34.7 34.7 34.9 33.2 36.7 39.5 42.5 45.9 57.6 67.6 65.1 52.9 44.8 43.9 55 66.2 68.8 69.3 69.7 69.5 68.4 67.6 66.7 65.9 65 64.1 63.2 62.3 62 60.5 58.9 58.9 58.2
75.4 74.8 72.5 67.9 70.2 72.6 74.2 75.9 79 83.1 87 89.4 92 93.9 95 96.1 95.9 95.4 94.9 94.2 93.1 93 92.5 92.7 92.7 91.3 91.6 91.1 90.3 89 86.1 83.2 80.5 78.3 77 75.1 73.7 76.2 78.7 80.1 81.3 81.9 82.3 81.3 80.7 80.1 80.7 81.8 82.5 81.8 80.4 80.7 81.6 82.2 82.7 83.4 85.1 87.2 89.3 90.9 91.2 88.9 83.1 81.5 78.5 76.7 75.9 78.3 77.8 75.4 72.7 68.9 69.5 70 70.2 70.6 70.3 69.3 69.6 69.1 66.1 65.8 67.2 68.7 66.5 61.6 56.5 55.8 56.2 54.2 59.7 67.5 67.7 64.3 60.9 58.2 56.3 57 60.6 64.9 70.4 76 81.4 85.7 87.5 87 85.4 85.1 86.3 87.4 86.1 80.4 75.1 70.9 64.9 62.4 63.9 66.4 68.5 69.7 67.5 64.8 65.9 69.3 66.9 64 60 53.8 49 48.3 48.8 49.8 47.9 44.8 37.9 44.4 51.6 59.7 68.6 84.2 89.5 88.7 86.8 83.9 81.6 77.1 73.7 72.7 71.9 71.3 74 77.9 80.3 81.1 81.1 80.8 80.4 80.1 79.6 78.7 77.3 72.8 62.9 59.2 53.2 50.1 47.6 42.5 37.6 34.7 31.5 30.4 34 37.9 43.1 50.4 60.7 58.8 48.1 42.2 41.8 50.9 60.4 68.1 70.1 70.1 70.2 69.2 68.4 67.6 66.7 65.5 64.8 63.9 62.9 62.7 60.4 59.6 59.4 58.6
76.7 75.8 74.3 71.1 71.2 73.9 74.8 76.6 78.6 82.5 86.8 90 92.4 95 96.6 98.1 98.6 98.4 98.4 96.1 94.8 94.6 94.4 94.4 93 91.6 92.3 91.9 90.8 89 86.5 83.6 82.3 81.1 79.3 77 74.5 74.3 77.6 79.3 80.6 81.4 81.7 80.9 80.7 81.4 81.9 82.6 83.5 83.6 82.4 82 82.3 82.4 83.7 84.1 85.2 87.3 88.4 90.5 91.3 90.5 84.7 79.4 76.5 76 74.8 75.3 72 71.2 70.9 71.4 72.2 71.9 71.3 71.3 71.4 72 70.8 68.5 68.6 70.5 71.7 72.1 66.4 61.1 61.7 65.1 61.9 54.2 57.7 65.3 64.8 61.9 59 56 54.2 56.7 60 64 70.6 77.7 84 85 84.3 83.6 82.6 82 82.1 83.4 82.6 78.8 74.7 70.3 65.2 61.3 62.4 67.5 68.9 67.3 65.3 63.5 63 63.4 62.1 62.2 62 58.1 54.2 51.2 51.2 49.8 47.6 45 37.8 44.4 51.9 58.8 70.4 85.7 89.7 89.4 88.3 86 83.4 79.2 75.9 74.7 73.2 72.4 73.9 76.8 79.5 81.1 81.1 80.9 80.6 80.4 80.3 79.8 79.1 77.3 68.7 61.4 58 55.3 52.1 47.6 43.4 39.5 35.5 30.9 29.8 34 39.2 44.7 47.9 48 43.1 39.1 40.1 47.6 58.8 67.7 70.1 70.3 70.5 70 69.2 68.3 67.3 66 65 64.6 63.3 62.7 60.2 60.1 59.9 59.3
76.8 77.9 77.1 76.8 77.4 77 76.8 77.9 80.4 84.2 87.8 91 93.9 96.3 98.2 99.6 100.6 100.5 99.5 98 96 96.1 95.9 95.9 95.2 94.5 93.5 92.7 91.6 89.7 87.2 86.2 86.6 85.5 80.9 77.9 75.9 74.9 75 77 80 81.2 81.9 80.6 80.6 81.2 82.3 83.2 83.9 84.1 84.3 84.4 83.9 83.3 83.8 84.8 85.9 86.6 87.7 90.2 90.9 85.9 80.6 77.2 76 75.5 75.6 74.7 72.9 71.9 71.8 72.3 73.1 72.8 72.1 72.6 72.9 71.9 68.7 69.2 72.3 77.1 80.6 75.7 67.3 62 64.8 65.1 59.1 53.1 57.9 63.4 62.3 59.3 56.6 54.3 53.4 57.2 59.7 65 71.6 78 83.5 83.4 82.3 80.8 79.7 78.4 76.9 77.7 78.3 75.2 72.6 69.1 64.7 61.1 61.9 64.1 65.8 63.8 63.5 64 61 57.8 57.5 60.1 62.7 61.5 58 54.2 51.6 49.4 47.3 42.9 37.3 47.7 53.7 60.6 69.9 78.4 87.9 90.1 89 87.2 85.1 81.9 78.4 76.7 74.8 73.2 73.9 76 78.4 80.5 81.1 80.8 80.7 80.7 80.8 80.6 79.8 78.4 76.8 67.8 61.7 58.3 54.9 51.3 48.2 44.6 39.5 34.4 29.1 30.6 34.9 39.2 40.7 40.7 38.2 35.3 38.9 48.2 62.2 68.7 70 70.3 70.5 70.1 69.3 68.7 67.5 66.5 65 64.2 63.1 62.3 61 61 60.6 60
77.3 79.6 81.1 81.1 83.1 83 80.5 79.4 81.6 85.5 89.3 92.8 95.1 96.9 98.5 99.3 100.2 100.7 100.5 99 98.3 97.7 97.5 97 96.4 95.7 94.8 93.9 92.6 91.2 91 90.9 89.2 87.3 82.7 78.9 77.2 76.5 76.1 75.3 77.2 80.6 80.8 79.7 80.1 81.4 82.3 83.2 84.2 84.6 84.5 84.7 85 84.4 84.5 85.7 87.2 88.6 88.8 91.3 90.5 81.5 79.5 78.3 77.1 76.2 75.5 74.9 73.5 73 73 73.5 72.3 72 71.7 72.2 71.4 70.3 71.5 73.6 78.8 88.7 91 84.7 71.5 70.1 68.1 63.4 58.1 52.4 60.4 61.7 59.6 56.1 53.5 54.7 56 58.3 60.8 67.6 75 76.6 79.5 80.4 80.2 78.9 77.6 76.1 74.5 72.3 73.2 70.9 68.6 65.8 63 59.8 61.3 63 62.9 60.8 59.5 60.3 59.9 55.9 54.9 57 59.8 60.1 57.5 53.9 50.4 47.6 45.5 37.3 38.5 47.7 52.4 59.7 65.6 71 83 90.2 89.5 88.2 86.6 84.5 81.3 78.9 76.7 74.3 73.8 75.5 77 79.9 81.1 81.2 81.1 81.2 81.4 81.3 80.5 79.4 79 75.9 68.6 61.1 57.5 55.2 50.4 45.8 40.8 35.5 29.8 30.3 32.3 33 34.6 34.1 33.5 31.9 37.2 46.4 55.7 63.8 68.4 70.3 70.4 70.2 69.1 69.3 68.4 67.5 65.9 64.1 63.7 63.3 62.9 61.9 61.4 60.9
78.3 82 84.1 85.2 88.3 89 85 81.5 81.1 86.2 90.1 93 94.9 96.4 97.9 98.8 100.1 100.8 101 99.9 99.9 99.3 99.1 98.2 97.5 96.8 96 95.1 94.1 93.7 94.1 93.2 91.5 88.9 84.2 80.2 79.1 78.9 78.2 77.1 75.9 78.3 78.6 79.5 79.9 81.2 82.2 83.2 84.4 84.8 84.4 84.8 85.3 85.5 85.8 87.1 88.7 90.2 90.8 92.6 89 82.7 80.6 79.3 78 77.5 76.8 75.7 74.9 74.6 74.3 73.5 71.6 71.1 70.9 71 71.5 73.9 77 80.6 88.8 90.2 90 89 74.2 68.3 64.2 60.8 57.2 49.9 59 58.7 55.9 53.4 56.5 57.6 58.1 60.1 62.4 68.7 71.4 72.4 74.3 76.2 77.7 77.9 78 77.6 76.2 71.2 68.1 66.9 64.7 62.3 60.9 59.2 58.5 59.4 60.2 58.6 57.3 57.8 57.3 54 52.2 53.2 56 57.9 55.3 51.3 47.5 39.2 34.9 34.2 40.8 53 54.9 57.6 62.4 69.9 81.3 88.9 89.9 89.1 88.1 86.3 83.4 80.6 77.7 75.4 74.6 75.6 76.7 79.6 80.7 80.8 81 81.5 81.8 81.8 81.1 80.6 80.5 79.5 77.9 69.7 59.6 56.1 51.2 47.2 42.6 36.6 31.2 29.4 30.6 30.2 29.6 29.7 30.4 30.5 35.6 41.7 48 55 64.6 71.3 71.1 71.1 71 70.1 69.3 68.4 66.6 65.4 65.2 64.4 64.2 63.7 62.5 62.5
78.3 84.3 86.7 88.4 91.4 91.8 87.8 84.6 83.2 86 89.1 92.1 94.3 95.7 97.2 98.6 100.1 101 101.2 101.2 101 100.9 100.2 99.3 98.7 98 97.2 96.3 95.4 95.9 95.7 94.6 93.1 90.7 86.3 82.7 81.8 81.5 80.5 78.7 77.3 77.3 77.4 79 79.7 81 82.1 83.6 84.7 85.2 84.9 85.2 85.6 86.3 87.9 89.2 90.6 90.7 90.9 92.2 88.2 86.2 83.5 80.6 79 78.6 78.8 77.8 77 76.6 75.9 73.5 70.8 70.1 70.3 71.8 74.3 79.4 86.2 89.6 89.3 89.4 89.6 80.6 73.9 67.9 66.2 65.8 64.1 61.5 56.1 47.5 48.5 46.7 54.1 60.3 59.2 60.5 62.8 66 66.8 67.7 68.6 70.6 74.3 76.9 78.7 77.9 75.6 71.8 68.1 67 64.8 63.2 61.8 61.4 59.2 56.9 56.2 55 54 55.8 54.3 52.3 51.1 51 53.1 55.4 53.3 48 36.7 32.4 34.8 43.1 41.6 50.3 52.2 53.1 60.6 65.9 69.3 78.2 90.7 90.8 90.1 88.5 86.3 83.9 79.8 76.6 75.8 76.7 77.7 80.1 79.9 80.3 80.4 81.3 81.9 81.9 81.5 81.1 81 80.3 79.3 77.2 64.3 56.8 52.8 48.9 44.9 39.8 33.9 29.3 27.5 26.9 25.1 26.3 30.5 35.1 39.7 42.5 45.7 50.9 57.5 66.2 71.8 72.2 71.7 70.6 69.8 69.3 68 66.5 66.4 65.9 65.5 65.1 64.5 63.7
79.9 85.6 88.5 91.2 92.9 93.4 91.3 88.2 84.5 84.5 88.7 91.6 93.7 95.2 96.9 98.5 100 101.4 101.7 102 101.9 101.7 101.3 100.4 99.7 99 98.1 97.1 96.7 97 96.6 96 94.6 92.8 89.5 85.7 84.8 84.2 82.6 79.7 78.8 78.5 77.5 78.1 79.7 80.8 82.1 83.4 84.2 84.8 85.3 85.6 86.5 88 89.8 90.6 90.5 90.4 90.9 92.1 90.9 88.4 87.2 84.1 80.9 79.8 79.9 79.9 79.2 78.1 77 74.4 71.4 70.3 71.1 73.7 76.9 85 91 89.8 89 89.1 85 76.5 75 71.8 69.7 73.9 71.7 68.7 63.5 60 60.5 54.4 47.8 53.4 60.1 60.4 62.3 64.2 64.6 64.9 65.5 67.6 71.1 75 78.2 78.4 76.2 73.2 71.4 70.3 67.7 64.9 63.2 61.4 60.2 59.4 57.6 54.8 52.8 52.2 53 52.5 50 48.5 49.2 52.3 50.5 40.4 32.1 31.9 46 51.7 50.5 48.5 49 50.7 55.6 59.9 65.3 73.6 89.4 92.5 92.3 91.2 89 86.2 81.1 77.5 77.2 77.9 79 79.1 78.8 79.3 79.9 80.9 81.9 81.8 81.5 81.3 81.5 81.1 80.2 79.1 74.3 58.2 55.6 51 47.2 43.2 39.8 34.3 26.9 24.6 22.3 23.7 33.1 39 43.8 59.7 63.1 59.3 57.4 63.3 71.4 72.5 72.1 71.3 70.8 70.1 69.3 68.1 67.9 67.5 67.2 66.6 66.7 66.7
82 86.4 90 92.9 94.8 95.3 94.2 91.8 88 83.8 87.7 91.2 93.3 95.1 96.8 98.5 100.1 101.2 102.2 102.5 102.6 102.2 102 101.4 100.5 99.4 98.6 98.1 98.4 98 97.5 96.9 96.2 94.3 92.3 89.5 88.3 86.5 84.1 81 80 79.2 78.6 78.1 79.6 80.7 81.8 82.6 83.5 84.2 84.8 86 88.4 89.9 90.5 90.4 90.1 89.9 90.2 91.4 92.1 91.8 89.8 86.6 83.6 82.6 82.6 83 82.1 80.3 77.8 75.4 72.8 71.4 72.4 75.3 81.4 91.4 91.2 90.3 89.3 87.2 86.2 83.7 80.2 77.6 76 74.6 72 69.8 66.1 63 60.5 48.9 43.4 53.2 59.2 61.3 61.5 63.6 64.6 65.1 66.8 67.6 69.8 73.1 75.4 77.7 78.4 75.1 72.9 71 68.1 64.5 62.1 60.4 59.3 58.7 58.1 55.5 51.9 52.3 56.5 52.1 47.9 44.8 42.1 44.4 40.5 34.2 30.5 36.8 46.6 50.1 52.3 54.2 56.7 56.2 55.2 62.6 65.9 72.3 88.7 93.9 93.9 93.2 92.1 87.8 80.9 77.9 77.2 77.9 77.9 77.2 76.8 76.7 76.7 78.7 81 81.7 81.5 81.9 82 81.7 81 79.9 78.4 67.1 59.8 56.4 51 45.5 42.3 39.3 34 28.2 22.4 24.8 34.8 41.3 53.8 72.5 73 72.7 73.1 70 72.2 72.7 72.2 72.1 71.9 71.3 70.4 69.8 69.2 68.5 68 68.1 68.3 68.2
84.8 86.5 90.2 93.6 95.4 96.4 95.1 93.6 91 87.1 87.4 90.9 93.4 95.3 96.9 98.4 100 101.4 102.4 102.8 102.7 102.4 102.2 102.3 101.1 100.1 100 99.9 98.9 98.7 98.5 98 97.3 95.9 94.1 92.3 90.4 87.8 84.6 81.8 81.4 81.8 80.4 78.4 79.4 80.3 81 81.8 82.7 83.6 84.9 87.4 89.4 89.5 89.6 89.4 89.2 89 89 88.9 89.5 90.2 89.8 87.5 86.1 85.7 85.4 85.5 82.8 80.2 77.7 75.7 74.6 73.2 73.7 77.2 85.5 92.4 90.9 90 88.4 87.6 86.9 85.5 82.6 79.7 77.2 74.5 72 68.9 65.2 62.3 58.8 44.4 49.9 62.2 64.8 63.5 62.1 63.4 65.6 69 68.9 68.9 70 70.4 71 74.2 76.5 75.3 72.6 70.3 67.6 64.2 63.3 62 60 59.2 57.6 54.9 50.9 48.1 50.1 47.7 42.5 37.9 36.7 35.4 33.6 31.5 30.8 39.2 47.6 52.3 55.2 56.5 58 61.1 60 63 69.7 76 88.8 94.7 95 94.5 93.1 87.4 81.4 78.6 76.9 75.6 75.4 74.5 73.6 72.7 72 70.2 74.5 78.5 80.1 80.7 81.9 82 81.1 80.4 79.2 76.9 67.5 59.9 53.3 47.6 42.2 38 32.7 28.4 20.9 26.7 36.9 43.2 60.3 69.2 72.9 74.1 74.8 74.4 74.4 74 73.5 73.2 72.6 72.3 71.7 71.3 70.8 70.3 69.4 69.2 69.1 69.1
86.1 86.8 90.8 94.5 95.8 96.5 95.5 94 92.4 90.3 87.8 90.6 93.3 95.4 96.9 98.4 99.9 101 102.2 103.1 102.7 102.4 102.2 102.2 102.1 101 101 100.7 99.6 99.3 99.2 99 98.5 97.3 95.7 94.2 91.8 88.6 85 84.1 84.2 83.9 82 80.1 78.7 79.5 80.3 81 81.9 82.9 85.7 88.2 88.5 88.2 88.6 88.5 88.3 88.1 88.2 88.3 88.5 88.6 88.4 87.8 87 86.8 86.6 86.3 83.5 80.3 78.3 77.4 76.8 74.8 75.1 78.5 83.5 90.5 91.6 88.9 87.9 87.2 86.4 85.4 82.1 78.7 75.2 72.8 70.7 68.4 65.6 61.9 55.2 42.9 52 63.7 65.5 63.7 63.1 64.4 64.8 68.8 68.8 68 68.2 66.8 67 70.6 72.2 71.8 69.3 66.8 64.8 62.2 61.4 60.3 59.4 58 57.1 56.1 53.4 51 46.8 46.2 40.6 40.2 38.4 34.3 31.9 30.7 32.7 40.6 49.4 55.8 58.5 58.6 59.4 63.1 64.8 64.7 73.5 85.6 93.8 95.5 95.4 95.3 93.6 87.8 83.5 79.7 77.2 74.5 72.8 71.9 70.7 69.8 68 61.2 60 66.4 75.2 77.9 79.5 78.6 79.5 76.7 77.7 76.9 75.3 65.6 54.5 47.5 41.6 35.7 32.2 24.2 19.7 28.3 36.9 43.3 48.1 55.3 64.6 71.9 74.5 75.3 75.4 74.9 74.5 73.7 72.9 73.2 72.5 71.9 71.7 71.7 71.2 70.5 70 70.2
87.7 88.6 92 95.4 97.9 98.3 97 95.5 94 92.4 90.1 90.3 92.7 95.4 97.1 98.6 100.1 101.4 102.6 103 102.7 102.3 102.2 102.1 101.9 101.9 101.7 101.5 101 100.4 100.1 99.8 99.5 98.5 97.2 95.3 92.6 89.4 86.7 86.6 87.3 85.9 83.6 81.7 80.2 78.9 79.8 80.8 81.3 82.5 85.1 86.6 86.6 86.8 87 87.6 87.4 87.2 87.4 87.5 87.7 87.9 88.1 88 87.5 87.2 87 86.8 84.5 81.7 80 79.3 78.6 76.6 76.7 78.2 80.2 85.2 88.4 88.1 87.4 86.7 86 85.1 83.2 80.6 77.7 74.6 72 69.7 66.2 62 47.7 42.9 49.5 62.7 64.6 61.3 62.4 63.2 64.2 65.4 67.5 66.1 64.6 64.3 65.5 67.7 69.5 68.9 67.3 64.6 63.2 61.2 60.3 59.9 59.2 58.8 58.5 57.6 57.1 55.7 50.8 52.1 50.5 50.1 45.7 36.5 31.5 30.1 34.5 43.3 51.6 56.1 58.1 60.1 61.3 64.1 67.1 67.1 72.2 84.7 95 95.9 96.1 95.8 93.6 89.9 85.9 82.3 78.9 75.4 71.5 69.3 67.7 66.8 62.5 56 53.7 51.6 57.3 68.4 67.7 61.4 59.9 60.7 64.7 73 75.5 72.6 60.6 51.1 44 38.5 34.4 24.6 18.9 22.7 30.2 35 38.5 42.7 52.4 56.1 67.2 74.5 76 75.7 75.3 75 75.2 74.3 73.9 73.2 72.6 72.4 72.2 72 71.5 70.6
88 89.5 93.6 96.9 99.4 100.1 98.9 97 95.6 94.2 92.4 91.2 92.4 95.3 97.2 98.8 100.3 101.8 102.7 102.8 102.5 102.3 102.1 101.9 101.9 102.2 102.3 102.2 102 101.5 101.1 100.8 100.6 99.9 98.5 96.3 93.4 90.2 87.8 88.5 88.9 87.6 85.4 83.1 81.2 79.5 80.1 80.7 80.8 82.2 83.5 85.2 85.7 85.9 85.9 86.5 86.5 86.3 86.5 86.7 86.9 87.2 87.3 87.2 87.9 87.6 87.4 87.2 85.7 83.7 82 80.7 79.7 77.3 78.1 79.6 81 82.6 86.3 87 86.3 85.6 84.9 84.8 83.8 82.4 80 77.5 74.8 71.2 66.6 55.2 45.7 40.7 46.4 53.3 56.3 57.9 59.1 60.9 62.5 64.4 65.9 64.5 63.2 63.2 64.8 67.2 67.7 67 66.1 65 63 61.6 61.3 61.1 60.7 60.8 60.8 59.3 58.5 57.6 55.9 55.8 56.5 55.7 48.3 36.7 31.1 28.6 34 43.9 50 54.2 56.7 59.4 61.8 64.9 68.1 72.4 76.7 85.7 95.6 96.2 96.6 96.3 94 89.5 87 84.8 82.1 79.3 73.1 67.6 64.9 63.2 60.2 71.9 67.5 51.9 51.4 55.7 55.5 52.6 51.4 49.8 52.3 58.8 61.9 63.4 62.4 55.2 46.4 41.1 35.2 26.9 19.4 17.4 22.8 27.2 32.6 38.6 42.6 48.9 58.7 73.5 76.3 76.6 76.7 76.8 76.7 75.4 74.9 74.5 73.8 72.9 72.9 72.8 72.1 70.9
86.4 90.8 95.6 98.5 101 101.6 100.1 98 96.7 95.4 93.7 92.2 92.7 95.3 97.1 98.9 100.5 101.7 102.6 103.1 102.9 102.8 102.9 103.1 102.5 102.7 102.9 102.8 102.7 102.6 102.1 101.9 101.6 100.8 99.3 97.2 94.2 91.1 89 89.6 90.1 88.9 87 84.5 82.3 80.3 79.8 80.2 80.9 82.1 82.9 84.3 84.7 85.2 85.3 85.6 85.6 85.3 85.6 85.8 85.8 85.8 85.7 86.7 87.8 88 87.8 88 87.2 85.5 83.5 81.7 80 78.5 79.2 80.9 84 85.1 85.4 85.7 84.9 84.5 84.2 84 83.5 82.5 81.4 79.5 76.5 72.3 66.7 54.9 46.3 41.6 40.7 43.2 45.1 48.9 53.6 57.3 60.7 62.6 63.7 63.2 62 61.7 63.4 65.7 67 67.6 67.3 65.7 63.9 62.7 62.3 62.5 63.1 63.5 62.5 60.3 59.6 58.7 56.8 56 55.5 54.2 45.8 36.3 30.7 27 30.7 39.4 45.5 49.4 51.9 54.9 58.3 63.2 67.7 72.2 76.9 84.9 95 96.3 96.7 96.6 94.4 90.7 88.9 87.5 85.9 83.4 77.7 71.2 67 65.5 68.2 76.2 73.3 58 47.8 49.7 48.7 46.6 44.3 41.5 42.3 47.2 51.1 56.4 55.8 54 46.4 38.6 32.3 27 19.8 19 21.2 25.9 33.7 41.6 49.3 59.1 73.5 75 77.4 77.1 77.3 77.5 77.1 76.3 75.7 75.1 74.5 73.9 73.4 73 72.3 71.1
88 92.4 97.2 99.9 102.2 102.4 100.8 99.1 97.7 96.5 94.7 92.8 93.3 95.1 97 98.3 99.7 101.5 102.9 103.2 103.4 103.4 103.5 103.5 103.1 103.1 103.3 103.3 103.2 103.1 103 102.9 102.5 101.4 100 97.5 94.8 91.9 91.1 91.8 91.3 89.7 88.1 85.8 83.3 81.3 80.8 80.7 81.1 81.1 82.5 83.4 83.8 84.2 84.5 84.4 84.4 84.5 84.4 84.3 84.3 84.3 84.8 86.2 87.5 87.9 87.9 87.9 87.5 86 84.1 82.5 80.9 80.3 81.3 82.4 85.2 86 84.8 83.8 83.8 83.5 83.2 83.2 82.9 82.1 81.2 79.5 76.5 72.4 69.3 59.8 49.7 44.3 40.4 38.5 39 40.8 44.4 49.9 56.6 60.2 61.8 60.9 60.6 60.5 61.3 63.2 65.5 67.4 68 66.9 65 64.3 64.4 64.8 65.2 65.4 63.6 61.4 60.7 59.5 57.4 55.7 54.3 52.1 46.4 36.8 30.1 26.4 29.4 36.9 42.3 45.1 47.1 50.1 55.1 60.9 65.1 67.8 72.7 82.3 93.5 95.5 94.3 96.5 94.9 92 91.3 91 89.4 87.6 82 75.5 71.3 68.9 70.2 76.3 76.8 71.8 55.3 49.1 45.2 43.6 40.7 38.1 36.6 36 42.1 43.2 46.5 48.6 41.6 34.2 28.5 22.6 18.2 20.2 25.7 27.6 31.7 40.2 46.7 60.3 75 77.4 78.4 78.2 77.5 77.5 78.2 77 76.5 75.7 75.1 74.6 74 73 71.2 68.9
91.4 95.7 98.5 101.2 103.1 102.9 102 100.3 98.7 97 95.1 93.5 93.9 94.8 96.8 98.4 99.9 101.4 102.7 103.4 103.7 103.9 103.9 103.9 103.6 103.7 103.7 103.7 103.7 103.7 103.8 103.7 103 102 100.4 97.7 95 92.5 92.6 94 92.8 90.9 88.9 86.8 84.6 83.5 82.6 81.8 81.5 81.1 81.1 81.9 82.4 83 83.4 83.4 83.4 83.9 84.3 84.2 84.2 84.1 84.3 85.6 87 87.5 87.6 87.7 87.4 86.3 84.8 83.7 82.8 83.2 84.2 84.5 85 84.7 83.4 82.2 82.9 82.6 82.3 82.3 82.3 81.5 80.7 79.3 76.6 73.4 70.1 66.5 56.5 50.3 44.8 40.9 37.3 35.6 38.7 42.8 48.8 56.9 59.5 59.5 59.5 59.9 60.4 61.2 63.5 66.5 68 67.3 66.2 66.2 66.3 67.1 67.9 67 64.4 62.3 60.7 58.9 57 54.9 52.7 50.5 46.9 37.8 30.8 25.4 26.9 33.2 40.1 41.7 44.7 48.4 55 59.9 62.2 63.6 71.1 81.9 93.3 86.9 89.1 96.7 95.3 93.8 93.7 93.2 91.7 89.5 86.2 80.1 75.5 72.3 71.3 74.4 76.6 76.6 67.6 55.7 53 49.3 45.8 43.8 41 35.8 32.1 31.3 37.1 40.5 34.2 29.2 26.4 20.1 18.9 28.3 32.1 32.8 34.1 36.9 43 56.1 77.7 78.7 79.4 79.3 79.4 80.6 78.8 77.8 77.1 76.3 75.7 75.1 74.5 73.5 71.6 64.3
95 98.2 100.3 102.4 103.5 103.2 102.7 100.8 99.3 98 96.1 94.7 94.4 94.6 96.6 98 99.2 101.2 101.3 102.3 103.1 103.6 104.3 104.3 104.3 104.6 104.8 104.7 104.6 104.8 104.6 104.5 103.6 102.8 100.8 98.2 95.3 93.8 94.9 95.5 94.7 93.1 91.5 89 87 85.8 84.1 83.2 82.8 81.7 80.9 81.1 81.3 81.9 82.2 82.3 82.6 83.2 84.2 84.1 84.1 84.4 84.8 86.1 87.4 87.6 87.6 87.5 87.4 86.7 86.2 85.6 85.5 85.6 85.3 84.6 84.1 83.5 82.5 80.8 81.7 82 81.5 81.5 81.6 81 80.3 78.6 76.4 73.3 70.2 69 66.9 59.7 50.9 45.2 40.5 36.4 34.7 37.5 42.4 48.9 57.3 58 58.2 58.5 59.3 60.6 62.1 64.5 66.5 66.2 65.4 65.4 66.1 67.4 68.6 68 64.9 62.5 60.6 59.4 57.2 55.1 53 49.9 46.2 39.1 32 25.8 24.5 29.1 34.9 39.5 43.6 47.8 54.8 57.7 57.6 59.9 67 75.4 85.1 85 88.4 95.6 95.8 94.9 94.8 94.3 93 90.3 87.3 82.1 77.8 73 69.4 69.6 72.9 77.6 78.4 77.9 63.2 57.3 52.8 49.1 44.1 37.4 32 27.8 29.1 31.4 28.2 26.1 23.7 18.2 18.5 24.6 35.3 39.5 41 42 46.9 59.1 77.6 79.3 79.6 79.7 79.8 79.6 79.1 78.5 77.7 76.9 76.2 75.6 74.7 73.8 72.7 71.9
98.2 100 101.8 102.9 103 103.6 104 101.2 100 98.7 97.2 95.7 94.4 94.7 96.4 97.6 98.7 99.9 101 101.7 102.6 103.8 104.5 104.5 104.9 105.7 105.7 105.7 105.5 105.7 105.9 106.1 105.9 103.1 100.6 98.1 96.3 95.4 96.4 97.7 97.2 96.2 94.2 92.1 90 87.9 85.2 85.5 83.9 82.3 81.8 81.4 81.3 81.7 82.1 82.4 82.6 83 83.7 84.5 84.8 85.2 85.5 86.6 87.6 87.7 87.8 87.9 87.7 87.4 87.3 87.1 86.7 86 84.8 83.6 83 82.3 81.4 80.6 80.2 81 80.4 80.9 80.7 80.2 79.4 77.7 75.4 72.5 70.5 69.6 68.8 65.3 58 52 44.9 39 34.6 33.9 38 43.7 51.8 55.6 55.8 56.4 57.2 59.4 60.6 62.5 64.4 64.9 64.6 64.5 65.1 67.1 68.1 66.7 64.6 62.6 60.3 59.1 57.2 56.3 54.3 51.5 47.3 41.2 33.4 27.1 23.3 25.2 29.6 34.5 40.3 44.7 49.3 52.9 54.4 58.2 65.1 71.8 77.8 82 90.2 95.6 95.5 95.7 95.7 94.4 92.4 89.4 87.9 83.8 80 73.3 62.6 60 63 73.6 78.4 80.5 77.1 69.1 61.4 52.4 44.2 38.6 31.7 26.5 23.7 23.9 23.6 22.5 19.7 16.3 16.9 23.2 33.1 43.9 50.8 55.8 56.3 64.3 76.4 79 79.8 80.1 80.1 79.5 79 78.6 78.1 77.4 76.7 75.9 74.9 74.2 73.8 72.9
101 101.9 102.4 102.6 102.6 102.8 103.3 100.9 99.7 98.7 97.6 96.2 94.8 95.4 96.4 97.7 99.1 100.2 101.1 101.4 102.9 104 104.6 104.8 105.3 106.4 106.5 106.3 105.9 105.5 105.1 104.6 104.1 103 101.1 99.3 97.6 97 97.8 98.5 98.4 98.2 96.8 94.9 92.6 89.7 88.4 86.8 85.4 84 83.2 82.5 82.7 82.9 83.1 83 82.9 83.4 84.7 86 86.4 86.8 86.9 87.4 87.8 87.9 88 88.1 88.1 88 87.8 86.9 86 85 83.9 82.9 81.9 80.9 80 80.5 80.1 80.5 79.7 80.1 79.9 79.2 78.3 76.7 74.4 71.9 69.9 69.2 69 66.8 62.7 56.1 47.8 41.5 35.5 31.7 34 39.8 45.4 52.1 53.4 54.6 55.1 57.1 59.1 60.9 62.7 63.4 63.6 63.6 64.3 66.1 67 65 63 60.9 59.5 58.1 56.9 55.6 54.3 52.1 49.3 43.3 35.9 29.8 23.9 21.6 23.8 29.2 35.6 42 47 49.4 53.1 58 63.4 68.8 73.4 77.9 88 93.9 95.6 95.3 93.8 91.2 87.4 82.7 88 85.7 83.2 78.9 64.9 58.2 57.1 62.3 73.4 77.2 77.2 77.4 71 53.3 43.6 37.4 32.6 26.2 21.6 18.2 17.7 16.9 16.3 16.6 20.5 26.2 34.4 43.5 54 63.6 69.3 73.5 78.7 79.9 80.6 80.5 80 79.5 78.7 78.3 77.7 76.7 76.2 75.6 74.9 74.4 73.4 72.7
102.5 102.6 102.6 102.7 102.8 102.2 101.4 100.6 99.7 98.7 97.7 96.9 96.1 96.3 96.7 98.1 99.4 100.6 100.9 101.1 102.7 104.1 104.6 105.1 105.7 107.1 107.2 106.4 106.3 106 105.3 104.8 104.3 103.1 101.8 100.8 99.4 98.8 99.6 100 100.1 100.2 99.1 97.2 94.5 91.9 90.6 88.8 87.7 86.5 85.3 84.1 84 84.1 84 83.6 83.4 84.3 85.9 87.1 88.1 88.3 88.4 88.7 88.4 88.3 88.3 88.3 88.2 87.7 87 85.4 84.5 83.5 82.5 81.4 80.4 79.6 79.1 79.6 79.7 79 78.9 79 78.6 78 76.9 75.1 73.2 70.8 68.4 67.1 66.9 64.7 61.9 58.3 49.7 43.2 37 31.4 31.1 36.2 41.1 47.7 49.7 51.4 52.9 54.5 56.8 58.1 60.8 61.7 61.9 62.4 63.6 64.8 64.7 63.4 61.4 59.9 58.6 57.7 56.1 55.1 54.1 51.9 49.2 45.4 38.4 32.5 26.4 21.4 20.7 25.4 31.5 39.7 46 49.3 52.6 57 62.8 65.7 68.9 70.8 73.1 76.3 81.5 87.5 82.5 79.8 73.7 75.1 83.3 84.7 85 81.9 72.5 60.5 53.1 53.2 62.1 69.2 73.9 78.8 69.3 54.3 43.3 36.9 30.8 26.6 21.3 16.4 13.7 12.9 17 21.4 27 30.1 34.5 40.2 45.6 50.8 58.4 67.6 77.8 79.9 80.6 80.2 80 79.5 78.1 77.9 76.6 75.4 75.1 74.2 73.5 73.4 72.9 71.6
102.7 102.8 102.9 103.1 102.7 102.2 101.2 100.2 99.6 98.8 98.6 97.7 96.3 95.7 96.9 98.9 99.8 101.2 101.7 101.5 102.7 104 104.6 105 105.5 107.8 106.9 106.8 106.6 106.5 105.7 105 104.2 103.8 102.9 102 100.9 100.4 101.1 101.4 101.3 100.8 99.8 98.1 95.1 94.5 93.5 92 90.5 89.1 87.7 86.4 85.3 84.9 84.6 84.2 84.7 85.9 87.3 88.6 89.6 89.8 89.8 89.4 88.9 88.6 88.5 88.5 88.2 87.4 85.8 84.2 83 82 81 80 79 78.5 78.1 78.6 78.1 76.9 76.6 76.3 75.7 75.2 74.4 72.5 70.7 68.1 62.6 57.3 56.5 56.2 55.7 54.9 48.4 42.5 36.6 34.1 30.3 32.8 36.9 42.8 46.1 47.9 49.3 51 53.3 55.2 58.7 60.2 60.1 61.3 63 63 62.4 61.7 60.6 59.3 58 57.2 56.1 55.1 53.7 51.5 49.2 45.6 40.3 33.3 27.4 21.8 19.4 23.5 28.1 36.4 45.4 48.2 50.9 54.6 59.5 62.3 63.9 66.7 66.9 68.1 70.3 70.8 70.2 68.3 66.2 66.7 70.2 74.4 81.6 82.8 71.1 56.1 47.9 45.1 49.6 58.6 65.2 67.3 62.9 53.8 43.9 36.5 30.1 25.3 20.7 14.8 10.3 12.4 21.2 29.2 31.7 33.8 34.6 38 40.9 46.1 53.7 62 75.7 79.8 79.7 79.2 78.8 77.9 75.9 73.9 72.6 71.3 70.4 67.2 71.7 72.2 70.8 68.1
102.5 102.9 103 102.8 102.4 101.9 100.9 99.9 99.6 99.5 99.5 93.4 89.3 88.7 90.6 98.5 101.3 102.1 101.5 101.6 103 104 104.5 104.9 105.8 106.7 107.1 106.9 106.8 106.6 106 105.3 105.1 104.7 103.8 102.9 102 101.9 102.1 101.9 101.9 101.5 101.2 98.3 96.9 96.8 96 94.6 92.7 90.3 89.2 87.9 86.5 85.2 85 84.9 86.5 87.9 89.1 90.1 90 90 89.3 88.9 88.5 88.4 88.5 88.5 87.9 86.6 85 83.2 81.6 80.6 79.5 78.5 77.9 77.3 77.2 76.9 76.1 74.2 73.7 73.3 72.6 71.4 71.1 68.6 67.2 60.8 55.4 50.9 49 47.5 48 48.5 44.2 40.1 35.6 32.8 28.5 29.6 32.7 37.5 41.1 43.3 46 47.5 49.4 52.8 55.6 57.8 59 61 62.6 62 61.5 61 60.3 59 57.8 56.8 55.9 55.5 53.5 51.6 49.2 46.1 40.4 33.8 28.6 21.7 19.1 21.1 25.3 32.1 40.8 46 49.4 52.3 55.5 58 61.3 64.7 62.5 61.2 64 65 62.7 62.4 60.8 61.3 59.6 63.6 68.4 73.7 66 53.6 46.6 41.9 43.1 49.9 56.4 59.2 56.8 49 42.5 37.1 31.3 24.5 17.9 12.3 10.7 16 26.1 33.8 36.2 39.7 38.6 39.3 43.3 51 58.7 68.6 74.8 77.5 77 75.7 74.2 72.4 70.1 67.4 63.5 60.8 59.2 56.3 65.3 66.9 47.8 38.7
102.3 102.4 101.9 102.2 102 101.3 100.2 100.8 91.7 86.5 84.7 83.1 82.5 83.2 85.6 90.6 100.4 101.2 101.3 101.9 103.1 104.1 104.4 104.8 106.3 107.1 107.1 107 106.8 106.6 106.2 106.2 106.1 105.5 104.6 103.7 102.9 103 102.7 102.6 102.6 102.2 100.9 98.4 99 98.7 98.2 96.7 94.2 92.5 90.5 89.2 87.5 85.7 85.4 86.4 88 89.1 90.1 90 89.9 89.4 88.7 88.3 88 87.7 87.7 87.6 87 85.7 84.2 82.3 80.7 79.8 78.8 77.8 77.2 76.5 75.9 75.1 74.4 72.4 70.8 68.9 67 65.4 63.1 61.4 59.3 56.5 53 49.7 46.2 42.8 40.6 41.2 40.5 36.3 31.3 28.4 26.9 24.9 29.4 33.3 36.8 39.9 42.3 44.2 46.8 49.9 52.5 54.8 56.7 59 61 60.9 61.3 62 61.3 59.5 58.7 57.6 53.7 52.8 55.2 52 49.3 46.2 41.7 34 28.8 22.6 16.4 18.1 23.1 29.2 37.3 43 47.4 51.6 54.1 56.5 59.5 62.9 61.4 57.6 57.2 57.4 57.2 57 56.5 57.9 56.1 54.1 55.5 59.2 57.9 53.9 49.4 42.6 38.5 42.5 47.7 50.6 49.6 43.7 39.5 35.3 29.9 23.5 14.9 9.5 12.5 18.3 27 33.5 35.4 41.1 46.3 46.5 49.4 55.8 67.5 69.1 68.6 67.6 67.6 67.6 65.8 62.2 60.1 57.3 51.1 48.6 47.9 45.5 50.3 42.7 37.7 37.5
101.6 101.6 101.2 101.5 101.6 101.6 95.8 88.3 83.4 80.4 79.1 77.5 76.6 77.7 81.1 85.7 91.9 100.4 101.6 102.1 103.3 104.1 104.4 104.9 106.2 106.9 107.1 107.1 107 106.8 106.8 107.1 106.7 106.1 105.5 104.7 104 103.9 103.6 103.6 103.2 102.6 102.1 101.3 100.6 99.4 98.6 97.7 95.9 94.7 91.9 90.2 87.7 86.1 85.8 87.2 88.6 89.6 89.7 89.5 89.2 88.9 88.2 87.8 87.3 86.8 86.4 86.1 85.7 84.8 83.4 81.5 80.3 79.3 78.3 77.2 76.7 76.3 76.1 75.4 75 73.5 73 73.9 72.6 71.1 66.7 63.8 61.5 61.5 57.9 53.1 48.1 42 37.4 35.7 35.3 31.9 26.7 22 20.4 21 25.7 29.4 33.2 36 38.3 40.2 43.5 46.8 49.3 52 54.6 57.4 59.2 60.3 60.9 60.9 54.7 56.6 58.7 57.7 54.1 52.6 51.3 46.3 48.3 44.9 40.3 34.5 28.1 23.3 16.1 16.1 21.1 27.3 33 38.7 43.8 46.7 51.6 54.4 57.9 60.3 57.4 55.5 53.6 51.9 52 53.7 52.8 56.7 55 49.8 48.3 51.1 52.3 52.5 50.9 45.1 38.6 37.3 42 45.6 43.5 38.9 34.8 32.1 28.5 21.9 13.8 7.1 12.6 18 26.9 29.6 40.6 48 53.9 59.7 64.7 60.2 61.4 61.5 55.6 54.2 54.5 56 55.3 51.3 46.9 41.8 38.1 37.3 37.2 35.3 32.5 28.6 26.8 26.3
100.7 100.8 100.5 100.7 101.8 93.4 87.2 82.1 77.9 74.6 72 71.1 70.9 72.8 77.1 81.7 86.7 97.8 100.6 103 103.7 104 104.3 105.1 106.4 106.7 106.8 107 107.2 107.1 107.1 107.4 107 106.3 106.1 105.7 105.5 104.9 104.2 103.8 103.6 103 103 102.4 101.6 100.7 99.3 98.4 97.5 96.4 93.7 90.7 87.7 86.5 86.1 87.1 88 88.8 89.1 89 88.9 88.5 87.7 87.2 86.7 86.2 85.9 85.5 85.2 84.2 82.7 81 80.2 79.3 78.5 77.7 77 76.7 76.6 76.6 76.6 75.3 74.7 75.4 74.3 73 72 71.4 69.9 68.9 63.3 55.7 49.4 43.2 37.9 35.8 32.3 29.2 24.4 19.1 15.2 15.5 20.6 24.7 28.1 31.1 34.3 36.9 39.6 42.6 45.7 48.7 52 54.9 57.4 58.8 60.3 61.2 59.9 59.2 58.5 57.7 54.2 52.2 51.1 49 47.5 39.5 38.9 34.9 26.6 21.7 15.4 14.9 19.4 24.8 29.5 32.9 39.7 43.5 44.2 48.1 52.4 53.6 52.5 53 51.6 49.4 48.3 48 48.4 49.7 47.8 44 43.5 43.5 40.1 40.4 42.6 44.1 39.7 33.7 36.3 38.4 37.8 33.7 30.4 29.1 26.8 21.2 13.2 7.5 10.7 16.4 21.3 31.9 42.3 50.7 57.6 60.8 64.8 60.8 52.4 50.9 48.6 46.5 45.4 44.5 39.4 35.3 31.9 28.9 28 27.5 26.7 24.9 21.1 17.8 19 20.6
99.1 99.6 99.6 100.1 94.3 85.9 81.6 76.4 71.1 68 66.1 65.2 65.5 68.2 73.2 78.2 82.4 87.6 102.6 102.8 104 103.9 104.3 104.9 106.4 106.3 106.5 106.6 106.8 107 107 107.1 107.1 106.7 106.6 106.5 106.8 106 105.5 104.8 103.7 103 103.6 103 102.1 101.1 100.2 99.2 98.4 97.2 95 92 88.3 87 86.4 86.3 86.6 87.6 88.1 88.6 88.5 88.1 87.2 86.7 86.2 85.6 85.5 85.2 84.6 83.6 82.7 81.2 80.5 79.8 79.1 78.2 77.9 77.7 77.6 77.5 77.5 76.9 75.8 75.9 75.5 74.5 74 73.4 72.1 70.4 65.3 56.5 50.6 45.7 42.7 39 35.6 32.5 28.4 22.9 16.2 12.2 16.7 19.5 23.2 26.9 30.2 33.2 34.9 36.6 39.3 43.5 48.5 52.6 55.4 56.4 58.8 59.9 59.9 59.2 57.5 55.6 53.2 51.8 48.5 47.9 45.3 43.2 37.5 31.5 24.3 19.5 13.3 12.7 16.4 20 24.8 28.4 31.8 36.5 38.6 39.4 40.3 44.3 44.7 44.8 42.9 42.3 41.7 39.5 40 38.1 37.3 35.2 34.3 34.4 31.9 33.2 32.1 29.4 34.9 28.9 28.3 26.7 25.5 23.8 22.3 22.7 20.2 16.9 11.7 7.4 8.7 12.6 16.6 29.4 34.3 27.3 30.1 36.3 42.3 42.8 41.7 39.1 38 36.9 36.4 33.5 25.8 22.9 19.8 17 17.6 17.7 16.7 15.1 12.3 10.8 12.1 11.5
95.3 99.1 98.7 98.6 85.8 81.2 76.2 70.3 65.3 62.1 60.9 59.6 60 64.2 69.7 74.8 79.2 84.2 92.5 101.1 103.9 104.7 105 105.4 106.1 105.9 106.1 106.3 106.4 106.6 106.5 106.4 106.5 106.8 106.7 106.7 106.8 106.4 105.9 105.3 104.5 103.9 103.2 103.5 102.5 101 101.5 101.1 99.4 97.4 94.5 91.7 88.9 87.4 86.9 86.7 86.7 86.8 87.4 87.7 87.9 87.4 86.8 86.2 85.6 85 85.1 84.8 84 83.5 83.1 81.4 80.7 79.9 79.4 79.3 78.9 78.7 78.6 78.5 78.3 78 77.1 76.7 76.3 76 75.3 74.5 73.2 71.5 67.5 58.6 53.8 50.8 48.1 44.9 40.5 37 33.2 26.9 19.7 13.4 12.5 13.8 17.7 22.5 25.7 28.2 28.7 30.2 32.4 36.7 41.4 45.6 51.3 51.8 55.7 57.2 58.3 54.3 57 52.4 52.6 50.9 47.5 41.4 37.8 31.4 28.3 24.6 19.8 16.2 9.4 8.8 11 13.8 18.2 21.1 24.8 28.3 29.9 30.9 30.6 31.7 33.2 36.6 33.9 32.4 31 29.8 29.1 28.5 27.8 26.7 25.6 24.8 24.7 27.9 22.8 21.2 21.7 21.9 20.2 20.6 18 16.2 14.5 13.4 10 7.9 7.4 6.2 6.3 8.4 11.6 15.2 17.2 18.2 19.1 23.2 28.2 30.4 29.3 26.1 26 26 22.6 18.4 17.3 15.4 14 12.3 10.8 9.8 9.2 6.4 6 5.3 4.1 2.8
83.8 86.7 94 83.8 81.1 76.6 70.3 64.2 59.9 57 55.7 54.3 55.3 60.6 65.1 70.6 76.1 82.5 89 96.3 102.2 104.2 104.7 105 105.6 105.5 105.7 105.9 106 106.2 106.2 105.7 106 106.3 106.4 106.8 106.8 106.4 105.7 105 104.5 104.4 102.9 103.1 102.3 101.5 98.8 93 91.1 89.1 88.7 88.9 88.9 88.1 87.9 87.8 87.3 87.4 87.3 86.9 86.2 86.4 86.1 85.7 85.1 84.5 84.6 84.3 83.8 83.4 83.1 81.8 80.9 80.9 80.8 80.6 80.2 79.8 79.6 79.5 79.2 78.8 78.1 77.4 77.1 76.7 76.4 75.5 74.4 72.6 70.6 62.1 58.9 56.6 54 49.6 45.9 42.5 37.7 32.2 25 16 11.5 9.1 10.9 14.8 18.4 20.4 20.4 22.3 25.6 29.4 33.8 37.5 39.6 41.5 46.9 48.8 44.9 44.3 41.2 38.7 38 36.8 35.5 32.2 28.7 25.9 21.9 17.3 13.2 8.6 5.8 5.5 6.4 7.4 10.1 13.8 17.4 19.5 20.7 21.7 22.6 23.2 25.5 26.4 26.3 24.5 22.5 20.5 18.4 20.6 21.1 20.3 19.7 17.6 16.5 16.6 14.3 13.1 12.9 14.5 14 13 10.9 8 7 5.7 5.7 5.6 5.7 5.4 5.3 5.9 5.9 6.7 11.7 11.9 10.8 10.9 15.9 17.9 18.7 18.7 18.4 16 10.4 9.3 9.5 7.4 6.2 6.7 5.4 3.8 2.6 1.5 0.6 -2.4 -2.4 -2.4
79.4 83 79.7 77.9 75.4 70.5 64.5 58.9 55.3 52.5 50 48.8 52.5 56.6 60.8 67.1 73.4 79.7 85.6 94.3 99.9 101.3 102.2 103.5 104.1 104.3 104.7 104.9 105.1 105.4 105.9 106 106.1 106.1 106.2 107.1 107.3 106.4 106.3 105.8 105 104.3 104.2 103.7 103.3 98.6 89.9 87 83.5 82.8 82.5 86.4 88.9 89.6 88.9 88.7 88.1 88.1 87.9 87.7 86.8 85.9 84.9 84.2 83.9 83.7 83.8 83.9 83.7 83.3 83.1 82.2 81.7 81.7 81.7 81.8 81.4 81.1 80.7 80.4 80.1 79.8 78.7 78.3 78 77.7 77 76.2 75.2 73.9 72.4 69 68.2 66.4 60.3 52.8 49.1 44 39.4 33.2 23.5 16.7 12.3 8.2 6.2 8.3 11.4 12.2 13 15.7 18.7 21.5 24.6 28.4 31.9 34.5 35.6 36.1 36.2 34.9 33.1 30.6 27.9 26.5 24.9 23.1 19.5 16.7 13.5 10.3 7.4 5.4 5.2 5.2 5 5 5 6.1 9.5 11.5 12.6 15 15.3 14.4 15.2 16.8 18.1 16.9 17 14.2 13.1 13.1 12.3 10.8 9.1 10.1 9.3 7.7 7.5 7.1 7 7.2 7 5.9 5.8 4.5 4.7 4.5 4.9 5.2 5 4.3 4.2 4.2 4.3 2.3 2.9 5.7 5.6 6.2 10 11.9 15.8 11.3 8.7 6.4 4.3 2.6 1.8 1.1 0.8 0.2 -2.4 -1.5 -2.4 -2.4 -2.4 -2.4 -2.4 -2.4
73.1 73.3 71.2 69.9 67 62.6 58.5 53.9 50.6 47.4 44.9 44.6 48.5 52.7 56.6 62.3 69 75.5 81.4 86 99.5 98.6 100.4 101.5 102.4 103.2 103.5 103.9 104.2 104.6 105.1 105.7 106 106 106.2 106.6 107.5 107 106.4 105.5 104.7 104 104 103 102.4 89.7 83.5 78.8 75.1 74.9 78.2 84.4 92.2 92.2 91.1 90.1 89.3 89.5 89.6 89.4 88.2 86 84.6 83.7 82.8 82.2 82.1 82.1 82.2 82.4 82.7 82.4 82.4 82.4 82.7 82.6 82.4 82.1 81.7 81.4 81.1 80.4 79.8 79.3 79 78.3 77.6 76.8 75.9 74.8 73.4 72.5 71.2 68.3 62.1 53.1 48.3 41.2 33.6 26.7 20 14.3 9.4 6 4.7 4.5 5.2 6.2 7 9 9.9 17 18.8 20.9 23.1 24.3 24.4 24.5 25.1 25.2 23.5 22.2 20.2 19 17 15 12.9 11.1 7.5 5.2 4.9 4.9 5 5 5 4.6 4.1 4.1 4.6 5.7 7.8 8.3 9.4 8.4 8.6 8.6 8.7 10.6 9.3 8 6.6 6.1 6.4 6.1 5.6 5 3.7 3.5 4.3 5.2 5.4 4.7 4.4 4.6 4.3 4.3 4.4 4.3 4.7 2.2 0.9 0.9 3.2 4.7 7 6.5 4.9 6 6.4 5.3 4.8 3.6 2.1 1.1 0.2 -2.4 -2.4 -2.4 -2.4 -2.4 -2.4 -2.4 -2.4 -2.4 -2.4 -2.4 -2.4 -2.4 -2.4 -2.4
65.6 64.8 64.2 61.8 58.5 54.7 51.8 48.2 44.8 43 40.1 40.3 43.5 46.8 50.5 56.9 63.1 69.9 75.9 79.7 84.2 96.1 99.1 99.5 99.6 100.7 101.4 102.5 103.2 103.7 103.9 104.4 105.4 105.9 106.2 106.1 105.3 106.3 105.9 105.1 104.4 103.5 103 102.7 91.5 85.5 78.4 71.6 68.6 68.5 71.6 80.1 87.4 93.4 93.1 91.6 90.8 91.6 91.9 90.8 89 86.3 84.3 83.4 82.4 81.5 82 82.1 82.1 82.3 82.4 82 82.7 83.4 83.6 83.4 83.2 83 82.7 82.3 81.9 81.4 80.9 80.3 79.7 78.9 78.2 77.5 76.6 75.7 74.2 73.7 71.1 65.5 57 49.5 41.8 34.8 27.7 20.9 14.9 9.2 6.1 3.8 3.4 3.5 3.9 4.6 4.5 5.6 9 9.4 9.6 15.1 15.1 15.3 15.7 16.1 15.4 15.8 15.8 13.9 11.8 11 9.4 8.5 7.2 6.2 4.6 3.8 3.7 3.2 3.2 3.7 4 3.8 3.4 3.6 3.9 4.4 4.2 4.4 4.6 4.6 5.8 5.6 5.5 4.4 4.7 4.9 3.6 3.4 3.4 3.8 3.3 3.7 3.3 3.6 3.4 4.1 4 3.9 3.4 1.4 0.9 0.9 3.2 4.3 5.4 6.2 5.3 6.1 6.5 7 6.1 5.2 4.3 3.9 3 2.8 -2.4 -2.4 -2.4 -2.4 -2.4 -2.4 -2.4 -2.4 -2.4 -2.4 -2.4 -2.4 -2.4 -2.4 -2.4 -2.4 -2.4 -2.4 -2.4 -2.4
59.1 58.9 58.3 55.6 52.6 49.3 45.8 42.1 38.9 37.3 34.2 35 38.7 42.3 46.7 51.6 58 64.2 69.4 73.8 79.8 82.9 94.2 95.7 97.9 99.4 100.2 100.7 101.7 102.1 102.4 103.3 104.1 105.2 106 105.4 104.9 105.1 104.7 103.9 103 102.6 102.5 91.9 83.8 79.5 73.7 65.7 63.3 63.6 66.3 72.7 77.7 85.2 93.9 92.4 91.9 93.3 93 91.5 89.3 86.6 84 83.1 82.1 81.4 81.9 82.1 82.1 82.1 82.1 82.3 83.2 84 84.3 84.1 84 83.7 83.5 83 82.6 82.1 81.6 81.1 80.4 79.5 78.8 78.1 77.3 76.4 70.7 65.2 60.1 57.5 51.4 42.9 34.3 27.9 21.9 16.8 9.4 5.9 3.6 3.1 2.8 3.3 3.4 2 0.4 3.2 6.2 8.5 8.2 8.5 8.3 6.7 6 7.3 7.7 8.7 8.7 7.3 6.2 6.2 5.3 4.8 5.3 4.7 4.2 4 3.2 3.3 3.2 2.9 3.9 3.5 2.5 3.4 3.6 3.7 2.1 3.1 3.3 3.2 3.8 2.9 3.3 3.5 4.2 3.5 3.3 2.7 2.6 1.3 0.9 0.9 2.5 3.5 1.5 0.9 2.6 4.4 5.5 6.2 6 7.3 6 5.6 5.5 5.9 5.2 4.3 2.9 2.7 -2.4 -2.4 -2.4 -2.4 -2.4 -2.4 -2.4 -2.4 -2.4 -2.4 -2.4 -2.4 -2.4 -2.4 -2.4 -2.4 -2.4 -2.4 -2.4 -2.4 -2.4 -2.4 -2.4 -2.4 -2.4 -2.4
52.4 52.6 52.2 50 47 44.2 40.9 37.4 34 31.7 29.7 30.7 34.2 38.7 43.2 48.1 52.4 57.7 63 67.9 74.8 78.2 81.2 83 86.1 92.2 96.6 99.9 100.3 99.9 100.6 101.5 103.1 104.4 104.2 103.3 103.1 102.5 102 101.9 101.4 101.6 90.7 86.4 80.9 73.9 67.8 62.3 58.3 57.8 60.3 64.1 69.1 77.9 83.5 84.1 87.3 91.1 93 92.1 89.6 86.9 84.2 82.8 81.7 81.4 81.7 81.6 81.6 81.8 82.3 82.9 83.6 84.2 84.5 84.7 84.4 84 83.9 83.8 83.4 82.8 82.3 81.8 81.2 80.2 78.8 75.6 71.6 68.6 63.1 58.8 51.6 47.3 41.9 35.7 28 23.1 17.1 12.5 5.7 3.2 3.4 2.3 2.2 0.4 3.4 3.4 3.3 3.5 2.9 0.4 0.4 4 5.2 5.5 4.5 4.4 4.2 5.2 5.4 5.1 5.4 5.2 4.4 4.2 4.3 4.1 3.9 3.6 2.4 2.7 2.6 2.6 2.8 2.9 2.4 2.7 2.8 2.7 2.6 2.5 1.3 0.9 0.9 1.9 1.5 0.9 0.9 1.9 2.5 2.5 2.4 2.7 2.7 3.1 6.2 6.1 6 6.8 7.5 7.3 6.1 5.3 5.1 5.3 3.8 3 1.9 0.5 -2.4 -2.4 -2.4 -2.4 -2.4 -2.4 -2.4 -2.4 -2.4 -2.4 -2.4 -2.4 -2.4 -2.4 -2.4 -2.4 -2.4 -2.4 -2.4 -2.4 -2.4 -2.4 -2.4 -2.4 -2.4 -2.4 -2.4 -2.4 -2.4 -2.4
45 46.2 45.9 43.7 41.9 39.4 37 33.5 29.9 27.1 24.6 25.9 30.3 35.3 39.9 44.7 49.4 52.5 56.2 62.2 68.2 70.7 72.5 76.3 81.4 82 82.5 84.9 89.7 99.2 98.1 100 101.8 102.6 101.3 101 102.3 100.3 98.3 99.3 98.1 87.2 84.8 80.6 75.8 70 64.6 59.2 54.6 52.2 54 56.5 62.9 71 72 72.5 76.4 79.7 83.3 91.4 89.7 87.2 84.5 82.4 81.3 81.2 81.3 80.9 81 81.3 82 83.2 84.1 84.3 84.4 84.4 84.4 84.3 84.2 84.1 83.8 83.4 82.6 82 81.3 78.2 70.9 64.6 62.6 61.9 56.5 50.6 42.7 37.6 32.9 27.8 21.5 16.5 12.6 8.6 3.6 3.1 3.2 1.3 1.7 2 3.5 3.6 3.6 3.9 4 4.3 4.3 4.2 4.4 4.6 4.8 4.5 4.8 5 4.7 4.6 5 4.2 3.9 3.9 3 2.9 2.9 2.8 1.5 0.4 0.4 1.9 2.5 2.7 1.9 2.3 2.8 2.4 2.5 2.4 2.9 2.7 2.6 2.6 2.5 2.5 2.7 2.7 2.7 2.6 2.6 2.9 3.1 3.1 6.7 7.2 6.9 6.9 5.6 4.6 3.1 1.8 -2.4 -2.4 -2.4 -2.4 -2.4 -2.4 -2.4 -2.4 -2.4 -2.4 -2.4 -2.4 -2.4 -2.4 -2.4 -2.4 -2.4 -2.4 -2.4 -2.4 -2.4 -2.4 -2.4 -2.4 -2.4 -2.4 -2.4 -2.4 -2.4 -2.4 -2.4 -2.4 -2.4 -2.4 -2.4 -2.4
38.8 39.6 39.2 38 36.3 34.6 32.2 29 25.6 22.3 20.6 21.2 25.9 31.7 34.8 37.6 40.9 45.1 49.8 55.6 59.6 62.2 65.5 68.9 73 74.5 76.2 78.6 81.9 83.8 92.2 94 96.7 87.8 93 93.2 85.9 90.1 88 94.5 85.5 82.5 77.7 73.4 69.7 65.5 60.5 55 49.2 46.7 47.2 50.8 57.1 61.8 61.7 63.3 70.5 70.1 72 77.5 81.9 84.7 83.7 82.1 81 80.9 80.5 80.2 80.4 80.8 81.7 83 83.7 84 84 84 84 83.8 83.8 83.6 83.4 83 82.3 80.8 74.3 69.1 63.6 57.1 51.4 51.2 46.4 39.9 34.2 30.3 25.8 21.2 15.6 9.7 8.2 3.9 3.3 2.7 0.4 2.2 3.2 3.1 3.7 3.7 3.6 3.7 4 4.6 4.9 4.9 5.1 5.2 0.4 0.4 0.4 0.4 0.4 0.4 3 2.1 0.4 0.4 0.4 2 2.4 2.5 2.8 3.1 2.8 2.5 3.2 3.4 3.2 3.7 3.5 3.3 2.6 2.8 2.9 2.8 3 3.3 2.7 2.8 2.9 2.6 2.8 2.6 3.1 4.4 5.6 6.3 5.7 3.8 2.4 1 -2.4 -2.4 -2.4 -2.4 -2.4 -2.4 -2.4 -2.4 -2.4 -2.4 -2.4 -2.4 -2.4 -2.4 -2.4 -2.4 -2.4 -2.4 -2.4 -2.4 -2.4 -2.4 -2.4 -2.4 -2.4 -2.4 -2.4 -2.4 -2.4 -2.4 -2.4 -2.4 -2.4 -2.4 -2.4 -2.4 -2.4 -2.4 -2.4 -2.4
33.4 33.6 33.1 32.4 30.7 29.1 27.3 24.1 21.2 19.5 17.7 17 21.9 26 29.7 32.9 34.7 38.7 44.2 48.3 51.7 54.2 56.1 60.9 64 65.9 67.5 70.9 74 77 79.9 80.3 79.6 79.2 81.2 77.9 75.7 77.6 78.3 79.5 75.3 72.9 69.5 65.1 61.6 58.4 54 49.9 43.5 40.5 41.2 45 51 52.4 52.5 54.5 58.4 59.8 64.6 67.5 70.1 72.7 74.8 79.4 80.7 80.2 79.7 79.4 79.7 80.2 81.7 83 83.5 83.1 82.8 82.6 82.5 82.7 82.5 82.2 82.2 81.7 77 71.1 67.3 62.3 55 48 42.5 40.2 36.9 31.7 27.3 23.5 18.9 14.6 8.8 4.3 3.5 2.7 1.8 0.8 2.7 3.3 3.5 3.7 3.8 3.7 3.6 3.6 4.1 4.7 5 5.3 5.4 5.2 5.1 5.1 4.3 4.3 4 2.9 2.4 2 2.7 2.9 2.9 2.9 2.9 3 3.2 3.3 3.3 3.2 3.2 3.1 3.4 3.5 3.5 3.3 2.7 2.6 2.6 2.5 2.8 3.2 3.6 3 3.3 4.4 5.8 6.6 4.7 3.6 2.1 0.6 -2.4 -2.4 -2.4 -2.4 -2.4 -2.4 -2.4 -2.4 -2.4 -2.4 -2.4 -2.4 -2.4 -2.4 -2.4 -2.4 -2.4 -2.4 -2.4 -2.4 -2.4 -2.4 -2.4 -2.4 -2.4 -2.4 -2.4 -2.4 -2.4 -2.4 -2.4 -2.4 -2.4 -2.4 -2.4 -2.4 -2.4 -2.4 -2.4 -2.4 -2.4 -2.4 -2.4 -2.4
28.1 28 28.1 27 25.4 23 22.7 21.7 19 14.9 12.7 12.4 17.5 18.9 23 27.6 31.2 33.3 36.6 39.1 43.3 46.3 48.9 52.8 54.7 56.1 58.8 62.1 65.1 68.3 70.6 71.5 71.1 70.2 71.9 69.9 66.7 68.7 69.5 69.1 66.4 63.7 60.6 56.5 53.2 50.4 47.9 44.2 38.9 35.6 35.4 38.4 42.3 44 45.4 46.5 48.2 50.3 53.3 56.2 58.6 60.1 60.8 63.7 67.6 68.3 72.6 79.1 78.3 78 78.3 82.3 75 73.9 80.3 81 81 80.7 80.6 77.4 73.4 71.9 67.3 64.1 58.3 53 45 38.7 33.9 31.1 27.1 22.9 19.1 15.1 13 8.3 3.5 2.3 1.9 0.5 1.5 3.3 3.3 3.2 3.4 3.5 3.5 3.5 3.5 3.6 4.1 4.8 5.1 5.3 5.5 5.4 5.3 5.3 5.3 5.5 4.8 3.7 2.6 2.3 2.5 2.9 2.9 2.9 2.8 2.9 3.1 3.2 3.2 3 2.9 3.3 3.6 3.5 3.5 3.2 2.9 2.8 2.8 3.1 3.2 4.2 6.2 6.4 6.3 4.7 2.4 0.8 -2.4 -2.4 -2.4 -2.4 -2.4 -2.4 -2.4 -2.4 -2.4 -2.4 -2.4 -2.4 -2.4 -2.4 -2.4 -2.4 -2.4 -2.4 -2.4 -2.4 -2.4 -2.4 -2.4 -2.4 -2.4 -2.4 -2.4 -2.4 -2.4 -2.4 -2.4 -2.4 -2.4 -2.4 -2.4 -2.4 -2.4 -2.4 -2.4 -2.4 -2.4 -2.4 -2.4 -2.4 -2.4 -2.4 -2.4 -2.4
23.4 23.7 22.3 20 18 16.2 14.7 13.4 10.2 8.1 6.5 6.5 7.6 11.5 17.4 22.2 24.9 25.2 26.8 31.7 34.6 39 42.1 46.1 48.2 49 52.1 54 56.6 60.2 62.1 62.2 61.9 61.7 63 61.4 58.1 59.9 60.6 59.7 57 54.2 51.3 47.7 44.4 42.1 39.7 36.6 32.5 30.6 28.8 28.1 31 33.8 36.4 37.3 38.9 41.6 43.7 45.4 47.2 49.5 49.5 53 57.1 57.8 63.8 66.9 62.4 62.7 69 70 64.4 62.9 63.6 68.8 75.6 76.3 72.2 64.1 63.2 62.3 61 54.1 47.9 44.6 37.6 31.5 26.3 24.4 19.5 14.9 12.3 9.8 6.3 3.7 2.1 0.4 1.7 1.7 2.7 3.6 3.4 3.2 3.2 3.3 3.3 3.4 3.4 3.5 4.3 4.8 5.2 5.4 5.5 5.5 5.5 5.5 5.5 5.6 5.4 4.2 3.1 2.5 2.6 2.8 2.8 2.8 2.8 2.9 3.1 3.1 2.9 2.7 2.5 2.8 3.1 4.1 4.7 4.3 3.7 3.5 4 5.3 5.9 4.6 2.8 -2.4 -2.4 -2.4 -2.4 -2.4 -2.4 -2.4 -2.4 -2.4 -2.4 -2.4 -2.4 -2.4 -2.4 -2.4 -2.4 -2.4 -2.4 -2.4 -2.4 -2.4 -2.4 -2.4 -2.4 -2.4 -2.4 -2.4 -2.4 -2.4 -2.4 -2.4 -2.4 -2.4 -2.4 -2.4 -2.4 -2.4 -2.4 -2.4 -2.4 -2.4 -2.4 -2.4 -2.4 -2.4 -2.4 -2.4 -2.4 -2.4 -2.4 -2.4 -2.4 -2.4
18.3 18.3 13.9 10.9 8.6 8.4 4.7 4.5 4 4.2 4.5 4.3 4.1 6.1 11.6 15.5 16.8 17.1 19.8 24.7 28.7 31.6 32.9 37.7 40.8 43 45.1 47.1 49 52.1 53.2 53.4 53.4 53 54.1 52.5 49.5 50.3 50.8 49.1 46.4 43.8 41.4 38 35 32.8 30.6 28.1 24.8 22.9 20.6 18.7 22.4 25.2 27.8 27.7 31.4 33.9 34.6 35.4 36.7 38.6 41.4 45.9 48.1 49.4 55.5 56.7 54.7 56.8 60.2 59.4 56.8 53.7 54.7 59.4 62.7 64.3 59.2 59.1 58.5 57.1 52.6 46.9 38.7 36.4 30.6 24.5 19.2 17.8 14.4 8.1 4.5 3.1 2.3 0.4 2.4 3.3 2.6 2.5 3.4 3.6 3.3 3.2 3.2 3.3 3.3 3.3 3.4 3.5 4.1 4.6 5.1 5.4 5.5 5.6 5.6 5.7 5.7 5.8 5.4 4.7 3.4 3 2.9 2.9 2.9 2.9 2.9 2.8 2.9 2.9 2.8 2.6 2.6 2.7 3.9 4.4 4.4 5.9 6.1 5.4 5 2.2 -2.4 -2.4 -2.4 -2.4 -2.4 -2.4 -2.4 -2.4 -2.4 -2.4 -2.4 -2.4 -2.4 -2.4 -2.4 -2.4 -2.4 -2.4 -2.4 -2.4 -2.4 -2.4 -2.4 -2.4 -2.4 -2.4 -2.4 -2.4 -2.4 -2.4 -2.4 -2.4 -2.4 -2.4 -2.4 -2.4 -2.4 -2.4 -2.4 -2.4 -2.4 -2.4 -2.4 -2.4 -2.4 -2.4 -2.4 -2.4 -2.4 -2.4 -2.4 -2.4 -2.4 -2.4 -2.4 -2.4
7.8 8.6 6.3 4.6 4 4.2 3.9 3.6 3.6 3.9 4.1 3.7 3.3 3.7 6.2 8.8 8.3 9.1 12.6 17.5 22.1 24.2 25.7 29.5 32.8 34.9 36.8 40 42.2 44.6 45.4 46.4 46.3 46.1 45.9 45.4 42.5 41.3 40.4 38.2 35.6 33.2 31.5 28.1 25.1 23.2 21.4 19.3 17 14.9 12.8 10.8 14.1 16.7 18.8 20.7 24.1 25.9 26.3 27.4 28.2 29.9 32.3 35.3 39.1 41.4 45.6 46.5 46 45.9 50.5 49.2 46.1 44.2 46.3 51.2 52.2 52.3 49.2 47.8 48.1 47 43.6 38.9 32 27.6 22.4 17 14.1 10.5 6.4 3.9 3.1 2.5 0.4 3.4 3.6 3.6 3.4 3.3 3.3 3.5 3.5 3.4 3.2 3.3 3.3 3.7 3.8 3.6 4.1 4.6 5.1 5.2 5.4 5.6 5.7 5.7 5.8 5.8 5.4 5.1 3.7 3.5 3.6 3.6 2.9 3 3 2.9 2.8 2.8 2.7 3.2 3.4 4.2 5.4 6.7 5 4.1 2 -2.4 -2.4 -2.4 -2.4 -2.4 -2.4 -2.4 -2.4 -2.4 -2.4 -2.4 -2.4 -2.4 -2.4 -2.4 -2.4 -2.4 -2.4 -2.4 -2.4 -2.4 -2.4 -2.4 -2.4 -2.4 -2.4 -2.4 -2.4 -2.4 -2.4 -2.4 -2.4 -2.4 -2.4 -2.4 -2.4 -2.4 -2.4 -2.4 -2.4 -2.4 -2.4 -2.4 -2.4 -2.4 -2.4 -2.4 -2.4 -2.4 -2.4 -2.4 -2.4 -2.4 -2.4 -2.4 -2.4 -2.4 -2.4 -2.4
2.2 2.4 2.6 2.4 1.7 1.9 2.3 2.2 2.2 2 1.9 2 2.4 2.5 3.3 3.7 3.5 3.8 5.8 10.4 13.5 16.4 18.3 23.5 27.1 28.8 29.9 31.3 32.1 34.3 36.7 37.3 37.8 38.1 36.8 34.9 33.8 32.5 30.6 27.5 24.9 22.9 21.7 18.4 15.8 13.4 12.4 10.9 9.2 8.6 6.7 6.4 7.6 10.6 12.5 13.4 16.6 18.2 17.9 19 19.7 21.2 23.5 25.5 28.4 32 34.6 36.6 37.1 38.3 41.3 39.4 36.4 36.3 38.5 42.2 43.1 43.8 40.8 40 38.9 37.7 36 32.2 26 21.7 16 9.7 5.5 3.7 3.1 3.2 0.9 2.9 2.7 3.3 3.4 3.5 3.5 3.5 3.4 3.4 4.1 3.6 3.3 3.3 3.7 4.5 4.8 4.3 4.6 5 5 5.2 5.4 5.6 5.7 5.7 5.8 5.7 5.5 5 4.8 4.8 4.8 4 2.9 3 3.1 3 2.9 3.3 3.5 3.6 4.3 6 5.3 4.5 1.9 -2.4 -2.4 -2.4 -2.4 -2.4 -2.4 -2.4 -2.4 -2.4 -2.4 -2.4 -2.4 -2.4 -2.4 -2.4 -2.4 -2.4 -2.4 -2.4 -2.4 -2.4 -2.4 -2.4 -2.4 -2.4 -2.4 -2.4 -2.4 -2.4 -2.4 -2.4 -2.4 -2.4 -2.4 -2.4 -2.4 -2.4 -2.4 -2.4 -2.4 -2.4 -2.4 -2.4 -2.4 -2.4 -2.4 -2.4 -2.4 -2.4 -2.4 -2.4 -2.4 -2.4 -2.4 -2.4 -2.4 -2.4 -2.4 -2.4 -2.4 -2.4
2.8 2.5 2.2 1.7 2.6 2.3 2.9 1.8 2.4 2.4 2.5 2.5 2.8 2.7 1 1.1 2.3 2.6 3.1 4 5.5 7.8 11.2 15.2 17.8 19.7 22.3 23.8 24.4 25.6 27.2 29.8 31.6 31.5 29.3 27.2 26.6 23.4 20 16.7 13.7 12.9 11.8 10.1 7.7 4.4 3.8 3 3.5 3.4 3.8 4.4 5 5.7 6.7 7.2 9.3 9.8 10 10.3 10.2 12.8 16.4 18.8 22.5 22.7 25.1 27.5 29.7 30.5 31.9 31.1 28.9 28.8 30 32.6 32.7 33.6 32.6 31.4 29.8 28.4 27.6 24.8 18.7 12.8 10.5 5.1 2.8 2.9 0.9 1.5 3.1 3 2.9 3 3.2 3.3 3.3 2.8 3.4 4.3 4.6 4 3.7 4.1 4.5 5.2 5.5 5.2 5.6 5.8 5.1 5.2 5.4 5.6 5.7 5.7 5.8 5.7 5.5 5.5 6 5.7 5.2 3.8 3.1 3.1 3.2 3.1 3.9 4.6 5.3 5.3 4.8 2.5 -2.4 -2.4 -2.4 -2.4 -2.4 -2.4 -2.4 -2.4 -2.4 -2.4 -2.4 -2.4 -2.4 -2.4 -2.4 -2.4 -2.4 -2.4 -2.4 -2.4 -2.4 -2.4 -2.4 -2.4 -2.4 -2.4 -2.4 -2.4 -2.4 -2.4 -2.4 -2.4 -2.4 -2.4 -2.4 -2.4 -2.4 -2.4 -2.4 -2.4 -2.4 -2.4 -2.4 -2.4 -2.4 -2.4 -2.4 -2.4 -2.4 -2.4 -2.4 -2.4 -2.4 -2.4 -2.4 -2.4 -2.4 -2.4 -2.4 -2.4 -2.4 -2.4 -2.4 -2.4
2.8 2.8 2.3 2.3 2.1 2.4 2.6 2.3 2.3 2.5 2.5 2.6 2.6 2.8 2.8 2.5 2.6 0 1.4 2.4 2.8 3.4 5.5 7.5 9.9 11.7 13 15 15.2 15.7 18.5 21.8 24.1 23.8 21.3 19.3 19.1 16.2 12.3 8.9 5.8 4.2 3.9 3.5 3.1 2.4 2.6 0.3 1 0.3 0.3 0.3 3.5 3.5 4 4.1 5.6 4.6 4.7 5.2 5.3 6 7 11.3 12.7 13.9 16.6 19.6 22 21 20.1 20.3 20.3 21 21.3 23.1 23.9 23.1 23 23.3 22 20.8 19.6 15.6 8.7 4.3 4.6 2.3 0.9 3.2 3.1 3.1 3 3 2.9 2.9 3.2 3.5 3.4 3.4 4.1 4.6 5 4.7 5 5.4 5.7 5.7 6 6.1 6.5 6 5.2 5.3 5.4 5.6 5.7 5.7 5.7 5.7 5.6 5.8 5.3 4.6 4 3.3 3.7 4.4 4.6 5.5 5.3 4.5 -2.4 -2.4 -2.4 -2.4 -2.4 -2.4 -2.4 -2.4 -2.4 -2.4 -2.4 -2.4 -2.4 -2.4 -2.4 -2.4 -2.4 -2.4 -2.4 -2.4 -2.4 -2.4 -2.4 -2.4 -2.4 -2.4 -2.4 -2.4 -2.4 -2.4 -2.4 -2.4 -2.4 -2.4 -2.4 -2.4 -2.4 -2.4 -2.4 -2.4 -2.4 -2.4 -2.4 -2.4 -2.4 -2.4 -2.4 -2.4 -2.4 -2.4 -2.4 -2.4 -2.4 -2.4 -2.4 -2.4 -2.4 -2.4 -2.4 -2.4 -2.4 -2.4 -2.4 -2.4 -2.4 -2.4 -2.4 -2.4
2.7 2.7 2.5 2.3 2.4 2.4 2.3 2.2 2.4 2.5 2.6 2.7 2.7 2.6 2.6 2.6 2.7 2.4 2.4 0.1 1.8 2.3 2.8 3 3.1 3.8 5.5 6.5 6.4 6.8 10.5 13.3 15.8 16.5 15.2 12.1 10.6 9.6 6.2 3.3 2.8 2.9 2.4 2.6 0.3 2.1 2.3 3.3 4.3 4.2 4 2.5 2.4 0.5 2.5 3.1 3.1 3.2 3.6 4 4.6 4.7 4.7 5.5 4.8 4.9 8.5 11.8 14.1 12.7 10.5 10.5 13.2 14.6 13 13.1 14.6 12.4 12.6 13.6 13.9 13.9 12 7 3.7 3.2 1.9 0.9 3.1 3.1 3.1 3.1 3 3 3 2.9 3 3.7 3.7 3.7 4 4.4 4.8 5.2 5.5 5.8 5.9 5.9 6.2 6.3 6.3 6.1 5.3 5.4 5.5 5.6 5.7 5.7 5.7 5.7 5.4 5 4 4 4.5 5.5 5.9 5.8 5.3 1.9 -2.4 -2.4 -2.4 -2.4 -2.4 -2.4 -2.4 -2.4 -2.4 -2.4 -2.4 -2.4 -2.4 -2.4 -2.4 -2.4 -2.4 -2.4 -2.4 -2.4 -2.4 -2.4 -2.4 -2.4 -2.4 -2.4 -2.4 -2.4 -2.4 -2.4 -2.4 -2.4 -2.4 -2.4 -2.4 -2.4 -2.4 -2.4 -2.4 -2.4 -2.4 -2.4 -2.4 -2.4 -2.4 -2.4 -2.4 -2.4 -2.4 -2.4 -2.4 -2.4 -2.4 -2.4 -2.4 -2.4 -2.4 -2.4 -2.4 -2.4 -2.4 -2.4 -2.4 -2.4 -2.4 -2.4 -2.4 -2.4 -2.4 -2.4
2.5 2.6 2.6 2.3 2.4 2.5 2.5 2.5 2.5 2.6 2.7 2.7 2.7 2.6 2.6 2.5 2.5 2.5 2.5 2.6 2.6 2.4 0.1 1.7 1.8 2 2 2.6 2.4 3.1 4.6 6.3 7.6 8.3 6.8 5.1 4.9 3.9 2.5 2.2 2.6 0.1 2.1 3.6 4.1 3.6 3.5 4.4 4.1 4 3.5 3.3 3.2 3 2.1 1.9 2.4 2.1 0.9 0.9 3.3 3.3 3.6 3.4 2.8 2.7 3.1 4.3 5.2 4.7 4.2 4 8.4 10.3 6.6 5.1 6 3.8 5.6 6.4 6.6 7.1 5.4 3.3 1.8 1 3.2 3 2.9 3 3.1 3.3 3.1 3.1 3 3.1 3.4 3.8 4 4 4.3 4.7 5.1 5.3 5.7 6 6.2 5.8 5.7 5.6 5.4 5.3 5.4 5.5 5.6 5.6 5.7 5.9 5.9 5.8 5.4 4.6 3.9 4.8 5.2 4 1.5 -2.4 -2.4 -2.4 -2.4 -2.4 -2.4 -2.4 -2.4 -2.4 -2.4 -2.4 -2.4 -2.4 -2.4 -2.4 -2.4 -2.4 -2.4 -2.4 -2.4 -2.4 -2.4 -2.4 -2.4 -2.4 -2.4 -2.4 -2.4 -2.4 -2.4 -2.4 -2.4 -2.4 -2.4 -2.4 -2.4 -2.4 -2.4 -2.4 -2.4 -2.4 -2.4 -2.4 -2.4 -2.4 -2.4 -2.4 -2.4 -2.4 -2.4 -2.4 -2.4 -2.4 -2.4 -2.4 -2.4 -2.4 -2.4 -2.4 -2.4 -2.4 -2.4 -2.4 -2.4 -2.4 -2.4 -2.4 -2.4 -2.4 -2.4 -2.4 -2.4 -2.4
2.4 2.5 2.5 2.3 2.4 2.5 2.6 2.6 2.6 2.6 2.7 2.8 2.7 2.6 2.5 2.4 2.4 2.4 2.5 2.6 2.7 2.2 1.9 2.1 2.1 2.6 2.2 1.2 0.1 1.3 1.7 2.4 3.7 2.8 3.4 2.4 2.1 1.6 0.1 1.8 2.6 3.3 4 4.4 4.9 4.5 4.2 3.8 3.4 3.3 3.2 3.2 3.2 3.1 2.4 2.7 3.2 3.3 2.9 3.3 2.9 2.6 2.3 1.6 0.9 0.9 0.9 0.9 1.3 1.6 1.9 2.7 3.3 3.2 2.8 2.7 2.9 1.9 2.5 2.7 2.6 2.8 2.1 1.3 0.9 3.2 3.1 3.1 2.9 2.9 3.5 4.1 4 4.3 3.9 3.5 3.6 3.8 4.2 4.3 4.6 4.9 5.1 5.3 5.7 6.1 6.5 6.2 5.4 5.4 5.4 5.3 5.5 5.7 5.7 5.6 5.7 5.5 5.9 6 5.6 5 5.1 3.3 -2.4 -2.4 -2.4 -2.4 -2.4 -2.4 -2.4 -2.4 -2.4 -2.4 -2.4 -2.4 -2.4 -2.4 -2.4 -2.4 -2.4 -2.4 -2.4 -2.4 -2.4 -2.4 -2.4 -2.4 -2.4 -2.4 -2.4 -2.4 -2.4 -2.4 -2.4 -2.4 -2.4 -2.4 -2.4 -2.4 -2.4 -2.4 -2.4 -2.4 -2.4 -2.4 -2.4 -2.4 -2.4 -2.4 -2.4 -2.4 -2.4 -2.4 -2.4 -2.4 -2.4 -2.4 -2.4 -2.4 -2.4 -2.4 -2.4 -2.4 -2.4 -2.4 -2.4 -2.4 -2.4 -2.4 -2.4 -2.4 -2.4 -2.4 -2.4 -2.4 -2.4 -2.4 -2.4 -2.4
2.3 2.4 2.4 2.4 2.4 2.6 2.6 2.6 2.4 2.5 2.7 2.7 2.6 2.5 2.4 2.3 2.3 2.4 2.5 2.6 2.7 1.9 1.4 1.8 2 2.4 2.4 2.5 2.5 2.1 2.1 2.1 0.1 0.1 0.1 0.1 1 1.5 2.3 2.8 2.9 3.2 4.1 4.8 5.2 4.6 4 3.5 3.6 3.2 3.1 3.1 3.1 3.1 2.8 2.9 3 3.1 3.2 3.3 2.8 2.9 2.9 2.9 2.9 2.8 2.5 2.1 2.1 1.7 2 0.9 0.9 1.1 1 0.9 0.9 1.1 1.7 2 2.5 2.6 2.5 2.6 3.2 3 2.9 3 2.9 2.9 3.8 4.4 4.7 4.6 4.4 4 4 4.2 4.3 4.6 4.8 4.9 5.1 5.4 5.8 6.2 6.6 6.3 5.4 5.3 5.4 5.4 5.6 5.8 5.7 5.5 5.5 5.2 4.9 5.4 4.3 -2.4 -2.4 -2.4 -2.4 -2.4 -2.4 -2.4 -2.4 -2.4 -2.4 -2.4 -2.4 -2.4 -2.4 -2.4 -2.4 -2.4 -2.4 -2.4 -2.4 -2.4 -2.4 -2.4 -2.4 -2.4 -2.4 -2.4 -2.4 -2.4 -2.4 -2.4 -2.4 -2.4 -2.4 -2.4 -2.4 -2.4 -2.4 -2.4 -2.4 -2.4 -2.4 -2.4 -2.4 -2.4 -2.4 -2.4 -2.4 -2.4 -2.4 -2.4 -2.4 -2.4 -2.4 -2.4 -2.4 -2.4 -2.4 -2.4 -2.4 -2.4 -2.4 -2.4 -2.4 -2.4 -2.4 -2.4 -2.4 -2.4 -2.4 -2.4 -2.4 -2.4 -2.4 -2.4 -2.4 -2.4 -2.4 -2.4
2.3 2.3 2.3 2.3 2.5 2.6 2.6 2.4 2.3 2.4 2.5 2.6 2.5 2.4 2.3 2.2 2.3 2.4 2.4 2.5 2.5 1.8 1.7 1.6 1.9 2.2 2.5 2.5 2.4 2.2 2.2 2.2 2.1 2.1 2 2.6 2.1 1.6 2.6 2.6 2.9 3 4.2 5 4.5 4.1 3.7 3.4 3.4 3.4 3.1 3.1 3.1 3 3.2 3.2 3.3 3.2 3.2 3.2 2.9 3 2.9 2.8 2.8 2.7 2.6 2.2 2.1 2.3 2.3 2.2 2 2 2.5 2.4 2.2 2.4 2.3 2.4 2.4 2.7 2.7 3 3.1 2.8 2.8 2.8 2.8 3 3.8 4.4 4.7 4.8 4.8 4.5 4.4 4.6 4.7 4.8 4.8 5 5.1 5.5 5.9 6 6.1 5.7 5.1 5.2 5.3 5.6 5.8 5.9 5.6 5.5 5.2 4.5 2.8 -2.4 -2.4 -2.4 -2.4 -2.4 -2.4 -2.4 -2.4 -2.4 -2.4 -2.4 -2.4 -2.4 -2.4 -2.4 -2.4 -2.4 -2.4 -2.4 -2.4 -2.4 -2.4 -2.4 -2.4 -2.4 -2.4 -2.4 -2.4 -2.4 -2.4 -2.4 -2.4 -2.4 -2.4 -2.4 -2.4 -2.4 -2.4 -2.4 -2.4 -2.4 -2.4 -2.4 -2.4 -2.4 -2.4 -2.4 -2.4 -2.4 -2.4 -2.4 -2.4 -2.4 -2.4 -2.4 -2.4 -2.4 -2.4 -2.4 -2.4 -2.4 -2.4 -2.4 -2.4 -2.4 -2.4 -2.4 -2.4 -2.4 -2.4 -2.4 -2.4 -2.4 -2.4 -2.4 -2.4 -2.4 -2.4 -2.4 -2.4 -2.4
2.2 2.2 2.1 2.1 2.5 2.6 2.4 2.3 2.2 2.3 2.3 2.3 2.3 2.3 2.2 2.1 2.2 2.2 2.3 2.3 2.3 2.3 2.3 2.2 2.3 2.3 2.4 2.4 2.4 2.3 2.3 2.3 2.2 2.2 2.2 2.3 2 2.6 2.5 2.5 2.7 2.9 4 4.7 3.6 3.8 3.2 2.9 2.9 3 3 3.1 3 3 3.1 3.3 3.3 3.3 3.2 3 3 2.9 2.8 2.8 2.7 2.7 2.6 2.3 2.2 2.3 2.3 2.2 2 2.1 2.4 2.4 2.2 2.5 2.5 2.6 2.3 2.5 2.2 2.4 2.4 2.4 2.7 2.7 2.9 3.1 4 4.5 4.7 4.8 5 5 4.9 5 5 4.9 4.9 5 5.2 5.3 5.3 5.4 5.4 5.1 5 5.1 5.2 5.9 6.1 5.8 4.7 3 -2.4 -2.4 -2.4 -2.4 -2.4 -2.4 -2.4 -2.4 -2.4 -2.4 -2.4 -2.4 -2.4 -2.4 -2.4 -2.4 -2.4 -2.4 -2.4 -2.4 -2.4 -2.4 -2.4 -2.4 -2.4 -2.4 -2.4 -2.4 -2.4 -2.4 -2.4 -2.4 -2.4 -2.4 -2.4 -2.4 -2.4 -2.4 -2.4 -2.4 -2.4 -2.4 -2.4 -2.4 -2.4 -2.4 -2.4 -2.4 -2.4 -2.4 -2.4 -2.4 -2.4 -2.4 -2.4 -2.4 -2.4 -2.4 -2.4 -2.4 -2.4 -2.4 -2.4 -2.4 -2.4 -2.4 -2.4 -2.4 -2.4 -2.4 -2.4 -2.4 -2.4 -2.4 -2.4 -2.4 -2.4 -2.4 -2.4 -2.4 -2.4 -2.4 -2.4 -2.4
2.1 2.1 1.8 2.2 2.7 2.6 2.4 2.2 2.1 2.1 2.1 2.1 2.1 2.1 2.1 2.1 2.1 2.1 2.1 2.2 2.2 2.3 2.3 1.8 1.9 2 2.1 2.2 2.2 2.2 2.3 2.3 2.3 2.3 2.3 2.1 1.9 2.3 2.4 2.5 2.8 3.1 3.7 3.9 3.4 3.3 2.7 2.6 2.7 2.8 2.9 3 2.9 3 3.1 3.1 3 3.1 3.2 1 2.6 2.8 2.8 2.7 2.7 2.6 2.5 2.3 2.3 2.3 2.3 2.2 2.1 2.1 2.3 2.4 2.2 2.1 2.5 2.6 2.2 2.2 2.4 2.8 2.8 2.9 2.8 2.6 2.8 3.1 4.1 4.4 4.6 4.8 5 5.2 5.3 5.2 5.1 5.1 5 5 5.1 4.9 4.9 4.9 4.9 4.9 4.9 4.9 5.1 5.6 3.6 1.8 -2.4 -2.4 -2.4 -2.4 -2.4 -2.4 -2.4 -2.4 -2.4 -2.4 -2.4 -2.4 -2.4 -2.4 -2.4 -2.4 -2.4 -2.4 -2.4 -2.4 -2.4 -2.4 -2.4 -2.4 -2.4 -2.4 -2.4 -2.4 -2.4 -2.4 -2.4 -2.4 -2.4 -2.4 -2.4 -2.4 -2.4 -2.4 -2.4 -2.4 -2.4 -2.4 -2.4 -2.4 -2.4 -2.4 -2.4 -2.4 -2.4 -2.4 -2.4 -2.4 -2.4 -2.4 -2.4 -2.4 -2.4 -2.4 -2.4 -2.4 -2.4 -2.4 -2.4 -2.4 -2.4 -2.4 -2.4 -2.4 -2.4 -2.4 -2.4 -2.4 -2.4 -2.4 -2.4 -2.4 -2.4 -2.4 -2.4 -2.4 -2.4 -2.4 -2.4 -2.4 -2.4 -2.4
2 2 2.2 2.6 2.7 2.6 2.4 2.2 2.1 2 2 2 2 2 2 2.1 2 2 2.1 2.2 2.2 2.3 2.2 1.3 1.4 1.7 2.1 2 2 2.1 2.1 2.1 2.2 2.1 2.2 2 1.9 2.5 2.6 2.7 2.9 3.5 4.2 3.1 2.8 2.7 2.7 2.6 2.5 2.6 2.7 2.8 2.6 2.4 2.6 3.2 2.8 2.8 2.4 2.3 2.3 2.6 2.7 2.6 2.6 2.5 2.5 2.4 2.4 2.3 2.2 2.2 2.1 2.1 2.3 2.4 2.3 2.2 2.5 2.6 2.2 2.8 3.3 3.3 3.3 3.2 3 2.8 2.7 3.1 4.1 4.4 4.5 4.7 4.8 5.1 5.2 5.3 5.2 5.2 5.1 5.1 5.2 5.1 4.8 4.6 4.6 4.7 5.3 6 3.1 -2.4 -2.4 -2.4 -2.4 -2.4 -2.4 -2.4 -2.4 -2.4 -2.4 -2.4 -2.4 -2.4 -2.4 -2.4 -2.4 -2.4 -2.4 -2.4 -2.4 -2.4 -2.4 -2.4 -2.4 -2.4 -2.4 -2.4 -2.4 -2.4 -2.4 -2.4 -2.4 -2.4 -2.4 -2.4 -2.4 -2.4 -2.4 -2.4 -2.4 -2.4 -2.4 -2.4 -2.4 -2.4 -2.4 -2.4 -2.4 -2.4 -2.4 -2.4 -2.4 -2.4 -2.4 -2.4 -2.4 -2.4 -2.4 -2.4 -2.4 -2.4 -2.4 -2.4 -2.4 -2.4 -2.4 -2.4 -2.4 -2.4 -2.4 -2.4 -2.4 -2.4 -2.4 -2.4 -2.4 -2.4 -2.4 -2.4 -2.4 -2.4 -2.4 -2.4 -2.4 -2.4 -2.4 -2.4 -2.4 -2.4
2.1 2.4 2.6 2.6 2.7 2.5 2.4 2.2 2.1 2.1 2.1 1.9 1.9 1.9 2 2.1 2 2.1 2.1 2.2 2.2 2.3 2.3 1.6 1.4 1.8 2.2 2.1 2 1.9 2 2 1.9 2 2.1 1.9 1.7 2.2 2.4 2.7 3.7 4.3 3 2.7 2.7 2.7 2.6 2.6 2.5 2.4 2 1.5 1.4 1.9 2.3 2.6 3 2.4 2.3 2.5 1 2.3 2.4 2.4 2.4 2.4 2.3 2.3 2.3 2.2 2.1 2.1 2.1 2.1 2.3 2.3 2.3 2.2 2.2 3.3 2.5 3.6 3.9 3.6 3.5 3.3 3.2 3 2.8 3.1 3.8 4.1 4.3 4.5 4.8 5 5.2 5.2 5.3 5.2 5.2 5.1 5.4 5.1 5 4.9 5 6 3 -2.4 -2.4 -2.4 -2.4 -2.4 -2.4 -2.4 -2.4 -2.4 -2.4 -2.4 -2.4 -2.4 -2.4 -2.4 -2.4 -2.4 -2.4 -2.4 -2.4 -2.4 -2.4 -2.4 -2.4 -2.4 -2.4 -2.4 -2.4 -2.4 -2.4 -2.4 -2.4 -2.4 -2.4 -2.4 -2.4 -2.4 -2.4 -2.4 -2.4 -2.4 -2.4 -2.4 -2.4 -2.4 -2.4 -2.4 -2.4 -2.4 -2.4 -2.4 -2.4 -2.4 -2.4 -2.4 -2.4 -2.4 -2.4 -2.4 -2.4 -2.4 -2.4 -2.4 -2.4 -2.4 -2.4 -2.4 -2.4 -2.4 -2.4 -2.4 -2.4 -2.4 -2.4 -2.4 -2.4 -2.4 -2.4 -2.4 -2.4 -2.4 -2.4 -2.4 -2.4 -2.4 -2.4 -2.4 -2.4 -2.4 -2.4 -2.4
2.2 2.5 2.8 2.7 2.7 2.5 2.4 2.3 2.3 2.3 2.1 2 1.9 1.8 1.9 2 2 2.1 2.2 2.3 2.3 2.2 2.2 2.3 2.2 2 2.2 2.1 2 1.9 1.8 1.7 1.8 1.9 2 1.8 1.9 0.6 2.7 3.4 4.1 2.7 2.6 2.4 2.5 2.6 2.6 2.5 2.3 2.3 2.4 1.8 1.4 1.6 2 2.1 2.1 2.1 2.1 2.1 2.4 2.2 2.3 2.3 2.2 2.2 2.2 2.5 2.2 2.1 2.1 2 2 2 2.1 2.3 2.5 2.7 2.9 4.1 4.6 3.7 3.5 3.5 3.5 3.5 3.4 3.2 3.5 3.6 3.8 4 4.4 4.6 4.7 5 5.1 5.1 5.2 5.2 5.2 5.2 5.7 9.6 5.3 4.8 2.5 -2.4 -2.4 -2.4 -2.4 -2.4 -2.4 -2.4 -2.4 -2.4 -2.4 -2.4 -2.4 -2.4 -2.4 -2.4 -2.4 -2.4 -2.4 -2.4 -2.4 -2.4 -2.4 -2.4 -2.4 -2.4 -2.4 -2.4 -2.4 -2.4 -2.4 -2.4 -2.4 -2.4 -2.4 -2.4 -2.4 -2.4 -2.4 -2.4 -2.4 -2.4 -2.4 -2.4 -2.4 -2.4 -2.4 -2.4 -2.4 -2.4 -2.4 -2.4 -2.4 -2.4 -2.4 -2.4 -2.4 -2.4 -2.4 -2.4 -2.4 -2.4 -2.4 -2.4 -2.4 -2.4 -2.4 -2.4 -2.4 -2.4 -2.4 -2.4 -2.4 -2.4 -2.4 -2.4 -2.4 -2.4 -2.4 -2.4 -2.4 -2.4 -2.4 -2.4 -2.4 -2.4 -2.4 -2.4 -2.4 -2.4 -2.4 -2.4 -2.4 -2.4
1.8 2.1 2.3 2.5 2.4 2.2 2.1 2.4 2.4 2.4 2.2 2.1 2 1.9 1.8 2 2.2 2.2 2.3 2.2 2.2 2.2 2.2 2.1 2 2.1 2.2 2.1 2 1.9 1.8 1.6 1.7 1.9 1.9 1.7 1.9 1.8 0.5 2.4 2.5 2.5 2.4 2.1 2.2 1.5 2.2 2.2 2.2 2.3 2.3 2.3 1.9 1.8 1.8 1.9 2.1 2.2 2.2 2.3 2.3 2.2 2.1 2.2 2.4 2.5 2.4 2.3 2 2 2 2.1 2.1 2.1 2.1 2.1 2.6 3.1 3.5 3.9 4.1 3.6 3.6 3.6 3.5 3.5 3.5 3.5 3.6 3.7 3.9 4.2 4.7 5.2 5.1 5 5 5.1 5.1 5.1 5.2 4.9 4.7 4.2 2.2 -2.4 -2.4 -2.4 -2.4 -2.4 -2.4 -2.4 -2.4 -2.4 -2.4 -2.4 -2.4 -2.4 -2.4 -2.4 -2.4 -2.4 -2.4 -2.4 -2.4 -2.4 -2.4 -2.4 -2.4 -2.4 -2.4 -2.4 -2.4 -2.4 -2.4 -2.4 -2.4 -2.4 -2.4 -2.4 -2.4 -2.4 -2.4 -2.4 -2.4 -2.4 -2.4 -2.4 -2.4 -2.4 -2.4 -2.4 -2.4 -2.4 -2.4 -2.4 -2.4 -2.4 -2.4 -2.4 -2.4 -2.4 -2.4 -2.4 -2.4 -2.4 -2.4 -2.4 -2.4 -2.4 -2.4 -2.4 -2.4 -2.4 -2.4 -2.4 -2.4 -2.4 -2.4 -2.4 -2.4 -2.4 -2.4 -2.4 -2.4 -2.4 -2.4 -2.4 -2.4 -2.4 -2.4 -2.4 -2.4 -2.4 -2.4 -2.4 -2.4 -2.4 -2.4 -2.4
1.6 1.7 1.8 1.9 1.9 1.8 1.6 2.3 2.5 2.5 2.3 2.3 2.2 2.2 2.2 1.7 2.6 2.7 2.5 2.1 2.1 2.1 2 1.7 1.7 2 2.1 2 2 1.9 1.8 1.7 1.8 1.9 1.9 1.9 1.9 1.9 1.9 1.5 2.6 2.4 2.2 1.8 1.5 1.3 1.8 2.1 2.2 2.2 2.2 2.2 2.3 2.1 1.9 1.9 2.1 2.3 2.3 2.4 2.2 2.1 2.5 2 2 2.4 2.8 2 2.4 2.4 2.3 2.2 2.2 2.2 2.2 2.2 2.5 3 3.5 3.8 3.9 3.6 3.6 3.6 3.6 3.6 3.5 3.6 3.7 3.8 4 4.5 5 5.5 5.7 5.6 5.9 5.7 5.7 5.7 5.5 5.3 2 -2.4 -2.4 -2.4 -2.4 -2.4 -2.4 -2.4 -2.4 -2.4 -2.4 -2.4 -2.4 -2.4 -2.4 -2.4 -2.4 -2.4 -2.4 -2.4 -2.4 -2.4 -2.4 -2.4 -2.4 -2.4 -2.4 -2.4 -2.4 -2.4 -2.4 -2.4 -2.4 -2.4 -2.4 -2.4 -2.4 -2.4 -2.4 -2.4 -2.4 -2.4 -2.4 -2.4 -2.4 -2.4 -2.4 -2.4 -2.4 -2.4 -2.4 -2.4 -2.4 -2.4 -2.4 -2.4 -2.4 -2.4 -2.4 -2.4 -2.4 -2.4 -2.4 -2.4 -2.4 -2.4 -2.4 -2.4 -2.4 -2.4 -2.4 -2.4 -2.4 -2.4 -2.4 -2.4 -2.4 -2.4 -2.4 -2.4 -2.4 -2.4 -2.4 -2.4 -2.4 -2.4 -2.4 -2.4 -2.4 -2.4 -2.4 -2.4 -2.4 -2.4 -2.4 -2.4 -2.4 -2.4
1.6 1.6 1.7 1.8 1.8 1.8 1.9 2.1 2 1.9 2.2 2.6 2.5 2.4 2.3 1.9 2.7 2.6 2.5 2.3 2.2 2 1.9 1.7 1.6 1.8 2 2 1.9 1.8 1.7 1.7 1.8 1.8 1.9 2 2 2 2 1.9 1.9 1.9 2 2 1.6 1.3 1.4 1.8 2.1 2.1 2.2 2.4 2.4 2.3 2.1 2 2.1 2.2 2.3 2.3 2.1 2 2.4 2.1 2.1 2.1 2.1 2.3 2.9 2.8 2.6 2.3 2.3 2.3 2.3 2.3 2.6 3.1 3.4 3.7 3.8 3.6 3.6 3.6 3.6 3.6 3.6 3.7 3.8 3.9 4.1 4.7 5.3 5.8 6.3 7.7 6.1 6.8 7 4.9 2.3 -2.4 -2.4 -2.4 -2.4 -2.4 -2.4 -2.4 -2.4 -2.4 -2.4 -2.4 -2.4 -2.4 -2.4 -2.4 -2.4 -2.4 -2.4 -2.4 -2.4 -2.4 -2.4 -2.4 -2.4 -2.4 -2.4 -2.4 -2.4 -2.4 -2.4 -2.4 -2.4 -2.4 -2.4 -2.4 -2.4 -2.4 -2.4 -2.4 -2.4 -2.4 -2.4 -2.4 -2.4 -2.4 -2.4 -2.4 -2.4 -2.4 -2.4 -2.4 -2.4 -2.4 -2.4 -2.4 -2.4 -2.4 -2.4 -2.4 -2.4 -2.4 -2.4 -2.4 -2.4 -2.4 -2.4 -2.4 -2.4 -2.4 -2.4 -2.4 -2.4 -2.4 -2.4 -2.4 -2.4 -2.4 -2.4 -2.4 -2.4 -2.4 -2.4 -2.4 -2.4 -2.4 -2.4 -2.4 -2.4 -2.4 -2.4 -2.4 -2.4 -2.4 -2.4 -2.4 -2.4 -2.4 -2.4 -2.4
1.7 1.7 1.8 1.8 1.9 1.9 1.9 1.9 2 1.8 2 2.4 2.4 2.3 2.3 2.3 2.6 2.5 2.3 2.2 2 2 1.9 1.8 1.7 1.6 1.8 1.9 1.8 1.8 1.7 1.7 1.7 1.8 1.9 2 2.1 2.2 2.2 2.1 1.9 1.9 2.2 2.2 1.8 1.4 1.1 1.5 2.3 2.5 2.5 2.3 2.2 2.3 2.1 2 2.1 2.2 2.3 2.1 2.8 2.1 2.1 2.1 2.1 2.1 2.1 3 3.3 3.1 2.8 2.5 2.4 2.4 2.4 2.6 2.8 3.1 3.4 3.6 3.6 3.6 3.6 3.6 3.6 3.7 3.7 3.8 3.9 4 4.3 5 5.5 6.1 6.3 10.2 6.5 6.8 2 -2.4 -2.4 -2.4 -2.4 -2.4 -2.4 -2.4 -2.4 -2.4 -2.4 -2.4 -2.4 -2.4 -2.4 -2.4 -2.4 -2.4 -2.4 -2.4 -2.4 -2.4 -2.4 -2.4 -2.4 -2.4 -2.4 -2.4 -2.4 -2.4 -2.4 -2.4 -2.4 -2.4 -2.4 -2.4 -2.4 -2.4 -2.4 -2.4 -2.4 -2.4 -2.4 -2.4 -2.4 -2.4 -2.4 -2.4 -2.4 -2.4 -2.4 -2.4 -2.4 -2.4 -2.4 -2.4 -2.4 -2.4 -2.4 -2.4 -2.4 -2.4 -2.4 -2.4 -2.4 -2.4 -2.4 -2.4 -2.4 -2.4 -2.4 -2.4 -2.4 -2.4 -2.4 -2.4 -2.4 -2.4 -2.4 -2.4 -2.4 -2.4 -2.4 -2.4 -2.4 -2.4 -2.4 -2.4 -2.4 -2.4 -2.4 -2.4 -2.4 -2.4 -2.4 -2.4 -2.4 -2.4 -2.4 -2.4 -2.4 -2.4
1.7 1.8 1.9 1.9 1.9 1.9 1.9 1.9 1.9 1.9 2 2.2 2.3 2.2 2.2 2.3 2.5 2.3 2.2 2.1 2 2 1.9 1.8 1.8 1.7 1.7 1.9 1.8 1.8 1.7 1.7 1.7 1.8 1.9 2 2.1 2.2 2.2 2 1.9 0.5 2.4 2.5 2.6 2.1 1.6 1.9 2.4 2.4 2.3 2.2 2 2.3 2.1 2.1 2.2 2.2 2.1 2.2 2.1 2.1 2.1 2.1 2.1 2.1 2.1 2.1 3.5 3 3 2.8 2.6 2.5 2.5 3 3.4 3.4 3.4 3.6 3.6 3.6 3.7 3.7 3.8 3.8 3.9 3.9 4 4.1 4.8 5.1 5.2 5.3 4.6 7.8 2.4 0.2 -2.4 -2.4 -2.4 -2.4 -2.4 -2.4 -2.4 -2.4 -2.4 -2.4 -2.4 -2.4 -2.4 -2.4 -2.4 -2.4 -2.4 -2.4 -2.4 -2.4 -2.4 -2.4 -2.4 -2.4 -2.4 -2.4 -2.4 -2.4 -2.4 -2.4 -2.4 -2.4 -2.4 -2.4 -2.4 -2.4 -2.4 -2.4 -2.4 -2.4 -2.4 -2.4 -2.4 -2.4 -2.4 -2.4 -2.4 -2.4 -2.4 -2.4 -2.4 -2.4 -2.4 -2.4 -2.4 -2.4 -2.4 -2.4 -2.4 -2.4 -2.4 -2.4 -2.4 -2.4 -2.4 -2.4 -2.4 -2.4 -2.4 -2.4 -2.4 -2.4 -2.4 -2.4 -2.4 -2.4 -2.4 -2.4 -2.4 -2.4 -2.4 -2.4 -2.4 -2.4 -2.4 -2.4 -2.4 -2.4 -2.4 -2.4 -2.4 -2.4 -2.4 -2.4 -2.4 -2.4 -2.4 -2.4 -2.4 -2.4 -2.4 -2.4
1.8 1.9 1.9 1.9 1.9 1.9 1.9 1.9 1.9 2 2.1 2.2 2.1 1.8 1.7 2.1 2.5 2.3 2.2 2 1.9 2 2 1.9 1.9 1.9 1.8 1.9 1.8 1.8 1.7 1.7 1.6 1.8 2 2.1 2 2 1.9 2 2.2 2.1 1.9 2.1 1.9 1.9 1.9 1.9 2 2.2 2.2 2 1.7 2.3 2.1 2.2 2.2 2.1 2.1 2.1 2.1 2.1 2.1 2.1 2.1 2.1 2.1 2.1 3.4 3.3 3.2 3.1 2.8 2.7 2.8 3.7 3.7 3.7 3.7 3.7 3.7 3.8 3.8 3.9 3.9 4 4 4.1 4.3 4.7 4.6 4.7 4.7 7.5 4.1 0.9 -2.4 -2.4 -2.4 -2.4 -2.4 -2.4 -2.4 -2.4 -2.4 -2.4 -2.4 -2.4 -2.4 -2.4 -2.4 -2.4 -2.4 -2.4 -2.4 -2.4 -2.4 -2.4 -2.4 -2.4 -2.4 -2.4 -2.4 -2.4 -2.4 -2.4 -2.4 -2.4 -2.4 -2.4 -2.4 -2.4 -2.4 -2.4 -2.4 -2.4 -2.4 -2.4 -2.4 -2.4 -2.4 -2.4 -2.4 -2.4 -2.4 -2.4 -2.4 -2.4 -2.4 -2.4 -2.4 -2.4 -2.4 -2.4 -2.4 -2.4 -2.4 -2.4 -2.4 -2.4 -2.4 -2.4 -2.4 -2.4 -2.4 -2.4 -2.4 -2.4 -2.4 -2.4 -2.4 -2.4 -2.4 -2.4 -2.4 -2.4 -2.4 -2.4 -2.4 -2.4 -2.4 -2.4 -2.4 -2.4 -2.4 -2.4 -2.4 -2.4 -2.4 -2.4 -2.4 -2.4 -2.4 -2.4 -2.4 -2.4 -2.4 -2.4 -2.4 -2.4
1.8 1.9 1.9 1.9 1.8 1.8 1.8 1.8 1.8 1.9 2.1 2.2 2.1 1.9 1.9 2.3 2.3 2.4 2.2 2 1.8 1.8 1.8 1.9 2.1 2 1.9 1.9 1.8 1.8 1.8 1.7 1.7 1.9 2.2 2.4 2.4 2.5 2.5 2.5 2.3 2.1 0.5 2.4 2.2 1.9 1.9 1.9 1.9 1.9 2 1.8 1.5 2.3 2.1 2.2 2.1 2.1 2.1 2.1 2.1 2.1 2.1 2.1 2.1 2.1 2.1 2.1 5.5 3.9 3.7 3.6 3.3 3.1 3 3.4 3.8 3.9 3.8 3.8 3.8 3.9 4 4 4 4.1 4.2 4.3 4.4 4.8 4.6 6 3.5 0.8 -2.4 -2.4 -2.4 -2.4 -2.4 -2.4 -2.4 -2.4 -2.4 -2.4 -2.4 -2.4 -2.4 -2.4 -2.4 -2.4 -2.4 -2.4 -2.4 -2.4 -2.4 -2.4 -2.4 -2.4 -2.4 -2.4 -2.4 -2.4 -2.4 -2.4 -2.4 -2.4 -2.4 -2.4 -2.4 -2.4 -2.4 -2.4 -2.4 -2.4 -2.4 -2.4 -2.4 -2.4 -2.4 -2.4 -2.4 -2.4 -2.4 -2.4 -2.4 -2.4 -2.4 -2.4 -2.4 -2.4 -2.4 -2.4 -2.4 -2.4 -2.4 -2.4 -2.4 -2.4 -2.4 -2.4 -2.4 -2.4 -2.4 -2.4 -2.4 -2.4 -2.4 -2.4 -2.4 -2.4 -2.4 -2.4 -2.4 -2.4 -2.4 -2.4 -2.4 -2.4 -2.4 -2.4 -2.4 -2.4 -2.4 -2.4 -2.4 -2.4 -2.4 -2.4 -2.4 -2.4 -2.4 -2.4 -2.4 -2.4 -2.4 -2.4 -2.4 -2.4 -2.4 -2.4
1.8 2 1.9 1.8 1.8 1.8 1.8 1.8 1.8 1.8 2 2.1 2 1.9 1.9 1.9 1.9 2 2.3 2.1 1.9 1.8 1.6 1.6 1.8 1.7 1.8 1.9 1.8 1.8 1.8 1.7 1.7 1.8 2 2.1 2.2 2.5 2.5 2.3 1.5 1.3 0.5 3.2 2.3 1.8 1.9 2 2 2 2 1.8 1.5 1.8 2.3 2.1 2.2 2.1 2.1 2.1 2.1 5.3 5.6 6.6 2.1 5.8 2.1 3.9 6.2 6.3 4.5 4 3.8 3.6 3.3 3.5 3.8 3.9 4 3.9 3.9 4 4.1 4.1 4.2 4.3 4.3 4.4 4.5 4.5 4.6 1.2 -2.4 -2.4 -2.4 -2.4 -2.4 -2.4 -2.4 -2.4 -2.4 -2.4 -2.4 -2.4 -2.4 -2.4 -2.4 -2.4 -2.4 -2.4 -2.4 -2.4 -2.4 -2.4 -2.4 -2.4 -2.4 -2.4 -2.4 -2.4 -2.4 -2.4 -2.4 -2.4 -2.4 -2.4 -2.4 -2.4 -2.4 -2.4 -2.4 -2.4 -2.4 -2.4 -2.4 -2.4 -2.4 -2.4 -2.4 -2.4 -2.4 -2.4 -2.4 -2.4 -2.4 -2.4 -2.4 -2.4 -2.4 -2.4 -2.4 -2.4 -2.4 -2.4 -2.4 -2.4 -2.4 -2.4 -2.4 -2.4 -2.4 -2.4 -2.4 -2.4 -2.4 -2.4 -2.4 -2.4 -2.4 -2.4 -2.4 -2.4 -2.4 -2.4 -2.4 -2.4 -2.4 -2.4 -2.4 -2.4 -2.4 -2.4 -2.4 -2.4 -2.4 -2.4 -2.4 -2.4 -2.4 -2.4 -2.4 -2.4 -2.4 -2.4 -2.4 -2.4 -2.4 -2.4 -2.4 -2.4
1.8 2 1.9 1.8 1.7 1.7 1.7 1.7 1.7 1.8 2 2.1 1.9 1.8 1.8 1.8 1.7 1.7 1.9 2.3 2.1 2.2 2 1.8 1.6 1.7 1.9 1.9 1.8 1.7 1.7 1.7 2.1 2.6 2 2 2.3 2.4 2.4 2.3 2.1 1.9 1.9 3 2.1 2 2 2 2 2 2 2 1.8 2.1 3.3 2.3 2.7 2.4 2.5 2.2 2.1 2.1 6.7 8.3 8.4 6.4 6.2 6.3 6.3 6.2 5.9 4.3 3.9 3.8 3.3 3.5 3.8 3.9 4 4.1 4 4.1 4.2 4.3 4.3 4.4 4.6 4.8 5.5 2.2 -2.4 -2.4 -2.4 -2.4 -2.4 -2.4 -2.4 -2.4 -2.4 -2.4 -2.4 -2.4 -2.4 -2.4 -2.4 -2.4 -2.4 -2.4 -2.4 -2.4 -2.4 -2.4 -2.4 -2.4 -2.4 -2.4 -2.4 -2.4 -2.4 -2.4 -2.4 -2.4 -2.4 -2.4 -2.4 -2.4 -2.4 -2.4 -2.4 -2.4 -2.4 -2.4 -2.4 -2.4 -2.4 -2.4 -2.4 -2.4 -2.4 -2.4 -2.4 -2.4 -2.4 -2.4 -2.4 -2.4 -2.4 -2.4 -2.4 -2.4 -2.4 -2.4 -2.4 -2.4 -2.4 -2.4 -2.4 -2.4 -2.4 -2.4 -2.4 -2.4 -2.4 -2.4 -2.4 -2.4 -2.4 -2.4 -2.4 -2.4 -2.4 -2.4 -2.4 -2.4 -2.4 -2.4 -2.4 -2.4 -2.4 -2.4 -2.4 -2.4 -2.4 -2.4 -2.4 -2.4 -2.4 -2.4 -2.4 -2.4 -2.4 -2.4 -2.4 -2.4 -2.4 -2.4 -2.4 -2.4 -2.4 -2.4
1.7 1.9 1.9 1.8 1.7 1.7 1.7 1.7 1.7 1.8 2 2 1.9 1.8 1.7 1.7 1.7 1.7 1.7 2 2.2 2.5 2.3 2.1 1.9 1.8 2 1.9 1.8 1.7 1.8 2.2 2.6 2.2 1.9 2 2.3 2.3 2.3 2.2 2.1 1.7 1.8 2.2 2.4 2.2 2.1 2.1 2.1 2.1 2.1 2 2.1 2.2 4.4 4.4 2.5 2.5 2.8 4.8 2.2 2.1 5.4 8.1 6.7 6.4 6.3 6.4 5.9 6.3 4.5 3.6 3.6 3.6 3.3 3.5 3.8 3.9 4 4.1 4.2 4.2 4.3 4.3 4.4 4.6 5 3.2 0.4 -2.4 -2.4 -2.4 -2.4 -2.4 -2.4 -2.4 -2.4 -2.4 -2.4 -2.4 -2.4 -2.4 -2.4 -2.4 -2.4 -2.4 -2.4 -2.4 -2.4 -2.4 -2.4 -2.4 -2.4 -2.4 -2.4 -2.4 -2.4 -2.4 -2.4 -2.4 -2.4 -2.4 -2.4 -2.4 -2.4 -2.4 -2.4 -2.4 -2.4 -2.4 -2.4 -2.4 -2.4 -2.4 -2.4 -2.4 -2.4 -2.4 -2.4 -2.4 -2.4 -2.4 -2.4 -2.4 -2.4 -2.4 -2.4 -2.4 -2.4 -2.4 -2.4 -2.4 -2.4 -2.4 -2.4 -2.4 -2.4 -2.4 -2.4 -2.4 -2.4 -2.4 -2.4 -2.4 -2.4 -2.4 -2.4 -2.4 -2.4 -2.4 -2.4 -2.4 -2.4 -2.4 -2.4 -2.4 -2.4 -2.4 -2.4 -2.4 -2.4 -2.4 -2.4 -2.4 -2.4 -2.4 -2.4 -2.4 -2.4 -2.4 -2.4 -2.4 -2.4 -2.4 -2.4 -2.4 -2.4 -2.4 -2.4 -2.4
1.7 1.9 1.8 1.8 1.7 1.7 1.6 1.7 1.7 1.8 1.9 1.9 1.8 1.7 1.7 1.7 1.7 1.7 1.7 1.8 1.9 1.9 2.2 2.4 2.3 2.1 2.1 1.9 1.8 1.9 2.2 2.5 2.4 2 2 2 2.2 2.2 2.2 2.2 1.9 1.5 1.6 0.7 2.5 2.1 2.2 2.2 2.2 2.1 2.1 2.2 2.2 2.1 3.1 2.8 2.3 2.3 2.4 2.1 2.1 2.1 2.4 7.4 6.6 6.6 6.3 6.4 6.2 5.5 3.4 3.3 3.3 3.4 3.3 3.4 3.8 3.9 4 4.1 4.2 4.2 4.1 4.1 3.9 2.8 1.4 -2.4 -2.4 -2.4 -2.4 -2.4 -2.4 -2.4 -2.4 -2.4 -2.4 -2.4 -2.4 -2.4 -2.4 -2.4 -2.4 -2.4 -2.4 -2.4 -2.4 -2.4 -2.4 -2.4 -2.4 -2.4 -2.4 -2.4 -2.4 -2.4 -2.4 -2.4 -2.4 -2.4 -2.4 -2.4 -2.4 -2.4 -2.4 -2.4 -2.4 -2.4 -2.4 -2.4 -2.4 -2.4 -2.4 -2.4 -2.4 -2.4 -2.4 -2.4 -2.4 -2.4 -2.4 -2.4 -2.4 -2.4 -2.4 -2.4 -2.4 -2.4 -2.4 -2.4 -2.4 -2.4 -2.4 -2.4 -2.4 -2.4 -2.4 -2.4 -2.4 -2.4 -2.4 -2.4 -2.4 -2.4 -2.4 -2.4 -2.4 -2.4 -2.4 -2.4 -2.4 -2.4 -2.4 -2.4 -2.4 -2.4 -2.4 -2.4 -2.4 -2.4 -2.4 -2.4 -2.4 -2.4 -2.4 -2.4 -2.4 -2.4 -2.4 -2.4 -2.4 -2.4 -2.4 -2.4 -2.4 -2.4 -2.4 -2.4 -2.4 -2.4
1.7 1.8 1.7 1.7 1.7 1.6 1.6 1.7 1.7 1.8 1.8 1.8 1.7 1.8 1.8 1.8 1.7 1.7 1.7 1.7 1.7 1.7 1.8 2 2.2 2.1 2.2 2.2 1.9 2.4 2.7 2.5 2 2 2.1 2.1 2.1 2.1 2.1 2.1 1.6 1.8 2 1.9 1.9 2.2 2.2 2.2 2.2 2.2 2.2 2.2 2.2 2.1 2.6 2.5 2.2 2.1 2.1 2.1 2.1 2.5 4.6 5.1 7.1 6.8 6.2 6.4 5.4 3.8 3 3 3 3.1 3.2 3.3 3.7 3.9 4.1 4.2 4.4 4.4 3.8 4.5 2.5 -2.4 -2.4 -2.4 -2.4 -2.4 -2.4 -2.4 -2.4 -2.4 -2.4 -2.4 -2.4 -2.4 -2.4 -2.4 -2.4 -2.4 -2.4 -2.4 -2.4 -2.4 -2.4 -2.4 -2.4 -2.4 -2.4 -2.4 -2.4 -2.4 -2.4 -2.4 -2.4 -2.4 -2.4 -2.4 -2.4 -2.4 -2.4 -2.4 -2.4 -2.4 -2.4 -2.4 -2.4 -2.4 -2.4 -2.4 -2.4 -2.4 -2.4 -2.4 -2.4 -2.4 -2.4 -2.4 -2.4 -2.4 -2.4 -2.4 -2.4 -2.4 -2.4 -2.4 -2.4 -2.4 -2.4 -2.4 -2.4 -2.4 -2.4 -2.4 -2.4 -2.4 -2.4 -2.4 -2.4 -2.4 -2.4 -2.4 -2.4 -2.4 -2.4 -2.4 -2.4 -2.4 -2.4 -2.4 -2.4 -2.4 -2.4 -2.4 -2.4 -2.4 -2.4 -2.4 -2.4 -2.4 -2.4 -2.4 -2.4 -2.4 -2.4 -2.4 -2.4 -2.4 -2.4 -2.4 -2.4 -2.4 -2.4 -2.4 -2.4 -2.4 -2.4 -2.4
1.8 1.8 1.7 1.7 1.7 1.7 1.7 1.8 1.8 1.7 1.6 1.6 1.7 2 2 1.9 1.8 1.8 1.8 1.8 1.8 1.8 1.7 1.6 1.6 1.7 1.8 1.7 2.1 2.4 2.6 2.3 2 1.9 2 2 2 2.1 2.1 2.1 1.8 2 2 1.9 1.8 2.9 2.2 2.3 2.3 2.3 2.3 2.3 2.2 2.2 2.5 2.6 2.5 2.3 2.4 2.1 2.1 4.1 6.1 6.3 6.9 6.2 5.8 3.4 3.5 3.1 2.6 2.7 2.7 2.8 3 3.4 3.9 4 4.2 4.3 4.4 4.5 4.5 1.5 -2.4 -2.4 -2.4 -2.4 -2.4 -2.4 -2.4 -2.4 -2.4 -2.4 -2.4 -2.4 -2.4 -2.4 -2.4 -2.4 -2.4 -2.4 -2.4 -2.4 -2.4 -2.4 -2.4 -2.4 -2.4 -2.4 -2.4 -2.4 -2.4 -2.4 -2.4 -2.4 -2.4 -2.4 -2.4 -2.4 -2.4 -2.4 -2.4 -2.4 -2.4 -2.4 -2.4 -2.4 -2.4 -2.4 -2.4 -2.4 -2.4 -2.4 -2.4 -2.4 -2.4 -2.4 -2.4 -2.4 -2.4 -2.4 -2.4 -2.4 -2.4 -2.4 -2.4 -2.4 -2.4 -2.4 -2.4 -2.4 -2.4 -2.4 -2.4 -2.4 -2.4 -2.4 -2.4 -2.4 -2.4 -2.4 -2.4 -2.4 -2.4 -2.4 -2.4 -2.4 -2.4 -2.4 -2.4 -2.4 -2.4 -2.4 -2.4 -2.4 -2.4 -2.4 -2.4 -2.4 -2.4 -2.4 -2.4 -2.4 -2.4 -2.4 -2.4 -2.4 -2.4 -2.4 -2.4 -2.4 -2.4 -2.4 -2.4 -2.4 -2.4 -2.4 -2.4 -2.4
2 1.8 1.8 1.7 1.8 1.8 1.9 1.9 1.9 1.8 1.6 1.7 2 2.1 2.1 2 1.9 1.9 1.9 1.9 1.9 1.9 2 1.9 1.5 1.5 1.9 1.7 1.9 2.2 2.4 2.4 2.1 2 1.9 1.9 2 2 2 1.9 2 2.1 2 1.9 1.8 0.5 2.6 2.1 2.3 2.3 2.3 2.3 2.5 2.8 2.7 2.8 6.3 7.3 5 2.1 2.1 3.1 5 11 7.4 7 4.4 3.3 3.2 2.8 2.6 2.7 2.9 3 3.1 3.6 3.9 4.2 4.3 4.5 4.4 4.1 0.5 -2.4 -2.4 -2.4 -2.4 -2.4 -2.4 -2.4 -2.4 -2.4 -2.4 -2.4 -2.4 -2.4 -2.4 -2.4 -2.4 -2.4 -2.4 -2.4 -2.4 -2.4 -2.4 -2.4 -2.4 -2.4 -2.4 -2.4 -2.4 -2.4 -2.4 -2.4 -2.4 -2.4 -2.4 -2.4 -2.4 -2.4 -2.4 -2.4 -2.4 -2.4 -2.4 -2.4 -2.4 -2.4 -2.4 -2.4 -2.4 -2.4 -2.4 -2.4 -2.4 -2.4 -2.4 -2.4 -2.4 -2.4 -2.4 -2.4 -2.4 -2.4 -2.4 -2.4 -2.4 -2.4 -2.4 -2.4 -2.4 -2.4 -2.4 -2.4 -2.4 -2.4 -2.4 -2.4 -2.4 -2.4 -2.4 -2.4 -2.4 -2.4 -2.4 -2.4 -2.4 -2.4 -2.4 -2.4 -2.4 -2.4 -2.4 -2.4 -2.4 -2.4 -2.4 -2.4 -2.4 -2.4 -2.4 -2.4 -2.4 -2.4 -2.4 -2.4 -2.4 -2.4 -2.4 -2.4 -2.4 -2.4 -2.4 -2.4 -2.4 -2.4 -2.4 -2.4 -2.4 -2.4
2 1.9 1.8 1.8 1.9 1.9 2 2 1.9 1.9 1.9 2 2.2 2.3 2.3 2.2 2.1 2 2 2 2 2 2.1 2.2 1.4 1.8 2.4 1.8 1.9 2 2.1 2.4 2.2 2.1 2 1.7 1.6 1.6 1.7 1.8 2 2.2 2.2 2.1 2 2 2.3 2 2.2 2.3 2.3 2.7 3.2 3.9 5 3.1 8.2 5.2 6.3 2.1 2.1 2.1 2.1 5.7 8.9 7.6 4.2 3.8 3.2 2.7 2.8 2.9 3 3.2 3.3 3.6 3.8 4.3 4.5 4.5 2.1 -2.4 -2.4 -2.4 -2.4 -2.4 -2.4 -2.4 -2.4 -2.4 -2.4 -2.4 -2.4 -2.4 -2.4 -2.4 -2.4 -2.4 -2.4 -2.4 -2.4 -2.4 -2.4 -2.4 -2.4 -2.4 -2.4 -2.4 -2.4 -2.4 -2.4 -2.4 -2.4 -2.4 -2.4 -2.4 -2.4 -2.4 -2.4 -2.4 -2.4 -2.4 -2.4 -2.4 -2.4 -2.4 -2.4 -2.4 -2.4 -2.4 -2.4 -2.4 -2.4 -2.4 -2.4 -2.4 -2.4 -2.4 -2.4 -2.4 -2.4 -2.4 -2.4 -2.4 -2.4 -2.4 -2.4 -2.4 -2.4 -2.4 -2.4 -2.4 -2.4 -2.4 -2.4 -2.4 -2.4 -2.4 -2.4 -2.4 -2.4 -2.4 -2.4 -2.4 -2.4 -2.4 -2.4 -2.4 -2.4 -2.4 -2.4 -2.4 -2.4 -2.4 -2.4 -2.4 -2.4 -2.4 -2.4 -2.4 -2.4 -2.4 -2.4 -2.4 -2.4 -2.4 -2.4 -2.4 -2.4 -2.4 -2.4 -2.4 -2.4 -2.4 -2.4 -2.4 -2.4 -2.4 -2.4 -2.4
2.1 2 1.9 1.9 2 2 2.1 2.1 2.1 2.2 2.3 2.3 2.4 2.5 2.4 2.4 2.3 2.1 2.1 2.1 2.1 2.1 2.1 2.2 2.2 2.1 2.2 2 2.1 2.2 2.3 2.4 2.3 2.1 2.1 1.7 1.6 1.6 1.7 1.9 2.1 2.2 2.3 2.3 2.3 2.1 1.5 2.6 2.2 2.2 3 2.8 3.5 4.4 6.6 2.1 2.1 3.5 2.1 2.1 2.1 3.9 2.1 4.8 10.7 6.7 5.5 4 3.1 2.9 3 3.1 3.2 3.3 3.3 3.6 3.8 4 3.1 0.9 -2.4 -2.4 -2.4 -2.4 -2.4 -2.4 -2.4 -2.4 -2.4 -2.4 -2.4 -2.4 -2.4 -2.4 -2.4 -2.4 -2.4 -2.4 -2.4 -2.4 -2.4 -2.4 -2.4 -2.4 -2.4 -2.4 -2.4 -2.4 -2.4 -2.4 -2.4 -2.4 -2.4 -2.4 -2.4 -2.4 -2.4 -2.4 -2.4 -2.4 -2.4 -2.4 -2.4 -2.4 -2.4 -2.4 -2.4 -2.4 -2.4 -2.4 -2.4 -2.4 -2.4 -2.4 -2.4 -2.4 -2.4 -2.4 -2.4 -2.4 -2.4 -2.4 -2.4 -2.4 -2.4 -2.4 -2.4 -2.4 -2.4 -2.4 -2.4 -2.4 -2.4 -2.4 -2.4 -2.4 -2.4 -2.4 -2.4 -2.4 -2.4 -2.4 -2.4 -2.4 -2.4 -2.4 -2.4 -2.4 -2.4 -2.4 -2.4 -2.4 -2.4 -2.4 -2.4 -2.4 -2.4 -2.4 -2.4 -2.4 -2.4 -2.4 -2.4 -2.4 -2.4 -2.4 -2.4 -2.4 -2.4 -2.4 -2.4 -2.4 -2.4 -2.4 -2.4 -2.4 -2.4 -2.4 -2.4 -2.4
2.2 2.1 2 2.1 2.1 2.1 2.1 2.2 2.2 2.2 2.2 2.3 2.4 2.4 2.4 2.4 2.4 2.2 2.2 2.2 2.2 2.2 2.2 2.5 2.7 2.4 2.3 2.2 2.3 2.4 2.4 2.4 2.3 2.3 2.3 2 1.7 1.9 2 2 2.1 2.3 2.3 2.4 2.4 2.2 2 2.1 2.4 2.4 2.9 4.2 3.9 7.3 4.4 5.3 5.7 12.4 9.1 7.5 4.3 3.8 3.7 8.8 9.1 5.4 5.1 3.8 3.3 3 3.1 3.2 3.3 3.4 3 3.5 5 2.3 -2.4 -2.4 -2.4 -2.4 -2.4 -2.4 -2.4 -2.4 -2.4 -2.4 -2.4 -2.4 -2.4 -2.4 -2.4 -2.4 -2.4 -2.4 -2.4 -2.4 -2.4 -2.4 -2.4 -2.4 -2.4 -2.4 -2.4 -2.4 -2.4 -2.4 -2.4 -2.4 -2.4 -2.4 -2.4 -2.4 -2.4 -2.4 -2.4 -2.4 -2.4 -2.4 -2.4 -2.4 -2.4 -2.4 -2.4 -2.4 -2.4 -2.4 -2.4 -2.4 -2.4 -2.4 -2.4 -2.4 -2.4 -2.4 -2.4 -2.4 -2.4 -2.4 -2.4 -2.4 -2.4 -2.4 -2.4 -2.4 -2.4 -2.4 -2.4 -2.4 -2.4 -2.4 -2.4 -2.4 -2.4 -2.4 -2.4 -2.4 -2.4 -2.4 -2.4 -2.4 -2.4 -2.4 -2.4 -2.4 -2.4 -2.4 -2.4 -2.4 -2.4 -2.4 -2.4 -2.4 -2.4 -2.4 -2.4 -2.4 -2.4 -2.4 -2.4 -2.4 -2.4 -2.4 -2.4 -2.4 -2.4 -2.4 -2.4 -2.4 -2.4 -2.4 -2.4 -2.4 -2.4 -2.4 -2.4 -2.4 -2.4 -2.4
2.4 2.3 2.2 2.2 2.2 2.2 2.2 2.2 2.2 2.3 2.3 2.3 2.3 2.3 2.4 2.5 2.4 2.3 2.2 2.3 2.5 2.4 2.4 2.3 2.5 2.6 2.8 2.5 2.5 2.5 2.4 2.4 2.4 2.4 2.4 2.4 1.7 2 2.2 2.3 2.3 2.4 2.4 2.4 2.3 2.1 1.9 0.5 1.8 2.4 2.6 3.7 4.2 4.6 4.3 4.3 5.2 7.9 7.5 5 5.1 3.5 3.6 4.3 5.2 5.3 4.4 4.1 3.5 3.3 3.2 3.3 3.4 3.2 2.8 3.2 1.1 -2.4 -2.4 -2.4 -2.4 -2.4 -2.4 -2.4 -2.4 -2.4 -2.4 -2.4 -2.4 -2.4 -2.4 -2.4 -2.4 -2.4 -2.4 -2.4 -2.4 -2.4 -2.4 -2.4 -2.4 -2.4 -2.4 -2.4 -2.4 -2.4 -2.4 -2.4 -2.4 -2.4 -2.4 -2.4 -2.4 -2.4 -2.4 -2.4 -2.4 -2.4 -2.4 -2.4 -2.4 -2.4 -2.4 -2.4 -2.4 -2.4 -2.4 -2.4 -2.4 -2.4 -2.4 -2.4 -2.4 -2.4 -2.4 -2.4 -2.4 -2.4 -2.4 -2.4 -2.4 -2.4 -2.4 -2.4 -2.4 -2.4 -2.4 -2.4 -2.4 -2.4 -2.4 -2.4 -2.4 -2.4 -2.4 -2.4 -2.4 -2.4 -2.4 -2.4 -2.4 -2.4 -2.4 -2.4 -2.4 -2.4 -2.4 -2.4 -2.4 -2.4 -2.4 -2.4 -2.4 -2.4 -2.4 -2.4 -2.4 -2.4 -2.4 -2.4 -2.4 -2.4 -2.4 -2.4 -2.4 -2.4 -2.4 -2.4 -2.4 -2.4 -2.4 -2.4 -2.4 -2.4 -2.4 -2.4 -2.4 -2.4 -2.4 -2.4
2.5 2.5 2.4 2.2 2.2 2.2 2.3 2.3 2.3 2.3 2.4 2.4 2.4 2.4 2.5 2.5 2.4 2.3 2.2 2.3 2.5 2.7 2.6 2.5 2.6 2.6 2.6 2.4 2.4 2.5 2.5 2.5 2.5 2.5 2.5 2.5 1.5 1.9 2.3 2.4 2.5 2.5 2.4 2.3 2.3 2.1 1.7 1.8 1.7 2 2.4 3 7.7 8.3 3.8 5 4.9 5.9 5.8 6.2 6.3 4.4 3.9 4.4 4.9 5.1 4.6 4.2 3.7 3.5 3.5 3.4 3.5 2.9 2.2 0.2 -2.4 -2.4 -2.4 -2.4 -2.4 -2.4 -2.4 -2.4 -2.4 -2.4 -2.4 -2.4 -2.4 -2.4 -2.4 -2.4 -2.4 -2.4 -2.4 -2.4 -2.4 -2.4 -2.4 -2.4 -2.4 -2.4 -2.4 -2.4 -2.4 -2.4 -2.4 -2.4 -2.4 -2.4 -2.4 -2.4 -2.4 -2.4 -2.4 -2.4 -2.4 -2.4 -2.4 -2.4 -2.4 -2.4 -2.4 -2.4 -2.4 -2.4 -2.4 -2.4 -2.4 -2.4 -2.4 -2.4 -2.4 -2.4 -2.4 -2.4 -2.4 -2.4 -2.4 -2.4 -2.4 -2.4 -2.4 -2.4 -2.4 -2.4 -2.4 -2.4 -2.4 -2.4 -2.4 -2.4 -2.4 -2.4 -2.4 -2.4 -2.4 -2.4 -2.4 -2.4 -2.4 -2.4 -2.4 -2.4 -2.4 -2.4 -2.4 -2.4 -2.4 -2.4 -2.4 -2.4 -2.4 -2.4 -2.4 -2.4 -2.4 -2.4 -2.4 -2.4 -2.4 -2.4 -2.4 -2.4 -2.4 -2.4 -2.4 -2.4 -2.4 -2.4 -2.4 -2.4 -2.4 -2.4 -2.4 -2.4 -2.4 -2.4 -2.4 -2.4
2.6 2.6 2.6 2.4 2.3 2.3 2.3 2.3 2.4 2.4 2.4 2.5 2.5 2.5 2.5 2.5 2.4 2.4 2.2 2.3 2.5 2.7 2.8 2.6 2.6 2.4 2.2 2.3 2.3 2.4 2.5 2.5 2.6 2.5 2.6 2.5 1.3 1.8 2.3 2.5 2.5 2.5 2.4 2.3 2.3 2.1 2.2 2 1.4 1.9 2.2 2.5 3.1 3.8 12.8 5.5 7.4 6.9 11.4 6 6.1 4.7 3.9 4 4.4 4.7 4.9 4.4 3.9 3.4 3.4 3.4 3.1 1.4 -2.4 -2.4 -2.4 -2.4 -2.4 -2.4 -2.4 -2.4 -2.4 -2.4 -2.4 -2.4 -2.4 -2.4 -2.4 -2.4 -2.4 -2.4 -2.4 -2.4 -2.4 -2.4 -2.4 -2.4 -2.4 -2.4 -2.4 -2.4 -2.4 -2.4 -2.4 -2.4 -2.4 -2.4 -2.4 -2.4 -2.4 -2.4 -2.4 -2.4 -2.4 -2.4 -2.4 -2.4 -2.4 -2.4 -2.4 -2.4 -2.4 -2.4 -2.4 -2.4 -2.4 -2.4 -2.4 -2.4 -2.4 -2.4 -2.4 -2.4 -2.4 -2.4 -2.4 -2.4 -2.4 -2.4 -2.4 -2.4 -2.4 -2.4 -2.4 -2.4 -2.4 -2.4 -2.4 -2.4 -2.4 -2.4 -2.4 -2.4 -2.4 -2.4 -2.4 -2.4 -2.4 -2.4 -2.4 -2.4 -2.4 -2.4 -2.4 -2.4 -2.4 -2.4 -2.4 -2.4 -2.4 -2.4 -2.4 -2.4 -2.4 -2.4 -2.4 -2.4 -2.4 -2.4 -2.4 -2.4 -2.4 -2.4 -2.4 -2.4 -2.4 -2.4 -2.4 -2.4 -2.4 -2.4 -2.4 -2.4 -2.4 -2.4 -2.4 -2.4 -2.4 -2.4
2.8 2.6 2.5 2.5 2.4 2.4 2.4 2.4 2.4 2.5 2.5 2.5 2.5 2.5 2.6 2.5 2.4 2.4 2.3 2.3 2.5 2.6 2.7 2.7 2.5 2.3 2.1 2.2 2.3 2.3 2.4 2.4 2.5 2.6 2.5 2.3 1.4 1.5 2.1 2.2 2.3 2.5 2.5 2.4 2.3 1.9 2.3 2.1 1.7 1.7 2 2.5 2.8 3.5 3.8 12.6 10.1 9.1 6.4 6.2 4.7 3.5 3.2 3.2 3.4 4.3 4.7 4.6 4.1 3.7 3.9 3.5 0.9 -2.4 -2.4 -2.4 -2.4 -2.4 -2.4 -2.4 -2.4 -2.4 -2.4 -2.4 -2.4 -2.4 -2.4 -2.4 -2.4 -2.4 -2.4 -2.4 -2.4 -2.4 -2.4 -2.4 -2.4 -2.4 -2.4 -2.4 -2.4 -2.4 -2.4 -2.4 -2.4 -2.4 -2.4 -2.4 -2.4 -2.4 -2.4 -2.4 -2.4 -2.4 -2.4 -2.4 -2.4 -2.4 -2.4 -2.4 -2.4 -2.4 -2.4 -2.4 -2.4 -2.4 -2.4 -2.4 -2.4 -2.4 -2.4 -2.4 -2.4 -2.4 -2.4 -2.4 -2.4 -2.4 -2.4 -2.4 -2.4 -2.4 -2.4 -2.4 -2.4 -2.4 -2.4 -2.4 -2.4 -2.4 -2.4 -2.4 -2.4 -2.4 -2.4 -2.4 -2.4 -2.4 -2.4 -2.4 -2.4 -2.4 -2.4 -2.4 -2.4 -2.4 -2.4 -2.4 -2.4 -2.4 -2.4 -2.4 -2.4 -2.4 -2.4 -2.4 -2.4 -2.4 -2.4 -2.4 -2.4 -2.4 -2.4 -2.4 -2.4 -2.4 -2.4 -2.4 -2.4 -2.4 -2.4 -2.4 -2.4 -2.4 -2.4 -2.4 -2.4 -2.4 -2.4 -2.4
2.7 2.5 2.3 2.3 2.3 2.4 2.4 2.4 2.4 2.4 2.4 2.4 2.5 2.5 2.6 2.5 2.4 2.4 2.3 2.3 2.4 2.5 2.7 2.7 2.7 2.5 2.3 2.3 2.3 2.4 2.5 2.6 2.6 2.6 2.6 1.9 1.6 1.8 2 1.9 2 2.2 2.4 2.4 2.3 2.3 2.2 2.1 1.9 1.9 2.4 2.5 2.8 3.4 3.3 3.4 9.8 7.6 4.9 5.1 3.6 3.2 3.2 3.5 4.3 4.6 4.7 5.1 4.4 4 2.4 0.3 -2.4 -2.4 -2.4 -2.4 -2.4 -2.4 -2.4 -2.4 -2.4 -2.4 -2.4 -2.4 -2.4 -2.4 -2.4 -2.4 -2.4 -2.4 -2.4 -2.4 -2.4 -2.4 -2.4 -2.4 -2.4 -2.4 -2.4 -2.4 -2.4 -2.4 -2.4 -2.4 -2.4 -2.4 -2.4 -2.4 -2.4 -2.4 -2.4 -2.4 -2.4 -2.4 -2.4 -2.4 -2.4 -2.4 -2.4 -2.4 -2.4 -2.4 -2.4 -2.4 -2.4 -2.4 -2.4 -2.4 -2.4 -2.4 -2.4 -2.4 -2.4 -2.4 -2.4 -2.4 -2.4 -2.4 -2.4 -2.4 -2.4 -2.4 -2.4 -2.4 -2.4 -2.4 -2.4 -2.4 -2.4 -2.4 -2.4 -2.4 -2.4 -2.4 -2.4 -2.4 -2.4 -2.4 -2.4 -2.4 -2.4 -2.4 -2.4 -2.4 -2.4 -2.4 -2.4 -2.4 -2.4 -2.4 -2.4 -2.4 -2.4 -2.4 -2.4 -2.4 -2.4 -2.4 -2.4 -2.4 -2.4 -2.4 -2.4 -2.4 -2.4 -2.4 -2.4 -2.4 -2.4 -2.4 -2.4 -2.4 -2.4 -2.4 -2.4 -2.4 -2.4 -2.4 -2.4 -2.4
2.6 2.4 2.2 2.3 2.4 2.5 2.4 2.4 2.4 2.4 2.4 2.4 2.4 2.7 2.6 2.6 2.5 2.4 2.4 2.3 2.4 2.6 2.6 2.6 2.6 2.6 2.5 2.8 2.6 2.6 2.7 2.6 2.5 2.6 2.6 1.9 2 2.2 2.1 1.9 1.9 2 2.3 2.3 2.4 2.4 2.2 2.1 2 0.5 2.1 2.4 2.8 3.2 3 2.9 3.2 4.1 4.5 4.2 3.6 2.9 2.8 3.5 4.2 4.6 4.7 5.2 4.9 2 -0.1 -2.4 -2.4 -2.4 -2.4 -2.4 -2.4 -2.4 -2.4 -2.4 -2.4 -2.4 -2.4 -2.4 -2.4 -2.4 -2.4 -2.4 -2.4 -2.4 -2.4 -2.4 -2.4 -2.4 -2.4 -2.4 -2.4 -2.4 -2.4 -2.4 -2.4 -2.4 -2.4 -2.4 -2.4 -2.4 -2.4 -2.4 -2.4 -2.4 -2.4 -2.4 -2.4 -2.4 -2.4 -2.4 -2.4 -2.4 -2.4 -2.4 -2.4 -2.4 -2.4 -2.4 -2.4 -2.4 -2.4 -2.4 -2.4 -2.4 -2.4 -2.4 -2.4 -2.4 -2.4 -2.4 -2.4 -2.4 -2.4 -2.4 -2.4 -2.4 -2.4 -2.4 -2.4 -2.4 -2.4 -2.4 -2.4 -2.4 -2.4 -2.4 -2.4 -2.4 -2.4 -2.4 -2.4 -2.4 -2.4 -2.4 -2.4 -2.4 -2.4 -2.4 -2.4 -2.4 -2.4 -2.4 -2.4 -2.4 -2.4 -2.4 -2.4 -2.4 -2.4 -2.4 -2.4 -2.4 -2.4 -2.4 -2.4 -2.4 -2.4 -2.4 -2.4 -2.4 -2.4 -2.4 -2.4 -2.4 -2.4 -2.4 -2.4 -2.4 -2.4 -2.4 -2.4 -2.4 -2.4 -2.4
