ncols 200
nrows 82
xllcorner 360000
yllcorner 462950
cellsize 50
97.1 96.4 91.6 85.1 80.7 83.8 87.6 84.2 66.1 56.8 57.9 60.1 68.1 76.3 82.9 83.6 86 91.2 94.9 92.4 89.6 96 99.9 105 108.3 109.4 109.1 107.7 111.1 114.2 117.9 120.5 121.6 119.6 118.2 116.7 119.9 125.4 129.8 132.7 134.7 137.7 140 141.1 140.8 137.4 141.4 143.2 143.9 144.5 145.8 146.2 145.1 141.9 145.4 145.7 146.9 146.7 145.8 145.5 143 140 136.4 132.3 125.4 103.8 87 86.2 84.4 83.2 82.5 85.6 96.1 107.9 117.7 123.7 128.1 136.9 140.4 142.7 144.6 146.1 144.8 142.2 137.8 136.7 137.1 138.3 139.8 143.3 149 151.9 154.4 155 156.6 156.9 157.6 159.2 160.7 161.7 161.2 160.4 157.2 162.6 164.3 164.2 167.2 170.6 176.4 179.4 180.1 173.9 180.8 183.5 182.6 184.9 185.2 183.9 183 183.9 183.8 185.4 187.7 189.5 188.2 189.1 192.4 195 196.7 197.9 198.4 198.1 199.7 201 202.3 202.9 203 201.6 202.2 202.8 203.4 203 203.5 204.5 204.8 205 205 205.1 197.4 205.8 206.2 206.3 204.3 202.3 200.6 200.3 199.7 199.9 199.5 198.9 198 197.2 194.1 193.3 192.8 193.5 192.2 190.1 187.4 184.6 189.2 190.6 189.9 187.8 189.6 185.7 186 186.4 186.2 186.4 185.2 185.1 183.3 183.7 179.1 181.6 184.8 186.1 185 180.4 178.9 179.4 181.1 183.1 182.4 181.2 179.7 176 169.7 173.5
94.9 96.7 95.1 91.3 85.7 88.6 91.5 87.6 71 55.3 59.8 67.6 61.4 68.5 71.4 75.6 79.7 85.9 90.5 91.3 92 99 103.4 107.9 112.2 113.6 113.3 110.9 110.7 114.7 119.1 123 124.5 123.6 123.3 123.6 118.1 127.1 132 135 138.1 140.8 143.1 144.4 142.9 141.1 144.4 146.5 147.9 148.6 149.4 149.6 149.4 145 143.9 145.8 146.3 146.3 147.3 147.3 145.4 143.1 141.4 138 133 124.7 108.9 90.9 87.4 85.1 82.9 86.3 94.5 102.7 111.5 117.5 124 129.5 133.6 137 139.5 139.6 132.2 130.6 141.7 146.2 150.8 151.8 153.3 152.8 156.2 159.2 161.4 162.3 163.2 163.2 164.2 166.8 168.6 170.7 170.8 169.5 164.1 170.2 173.1 175.4 177.7 180.3 182.3 184.9 182.9 178.2 183.6 184.9 183.6 186.2 186.9 186.8 188.2 188.7 188.3 189 191.8 193.4 194.2 195.3 196.3 197.8 199.3 201.2 201.6 202.2 203.6 205.1 206.1 205.9 205.5 202.4 204.5 205.9 205.7 206.3 206.1 207.4 207 207.5 207.2 206.9 202.5 208.8 209 208.3 206.1 204 203 203.5 204.5 204.2 203.8 203.2 202.5 202.6 199.7 197.4 196.7 197.9 197.4 196.4 192.9 188.9 193.4 193 193.8 191 190 190.4 189.9 190.4 191.2 191.1 189.2 186.6 184.9 184.4 183.2 184.8 183.4 186.9 189 186.4 183.6 180.6 181.3 184.5 182.5 182.2 182.6 181.3 178 177.6
95.6 99.5 98.6 93.8 90.4 93.6 93.3 87 77.9 53.8 60.8 62 73.8 78.1 78 77.5 73.7 73.1 78.2 88.8 94.7 101.5 106.2 110.2 115.5 118.1 116.9 114.1 110.6 115.7 119.8 123.8 125.5 125 126.8 128 126.6 125.7 132.7 136.4 139.5 142.8 144.9 146.3 145.2 145.2 147.3 149.7 149.8 151 151.8 152.1 151 148.9 146.8 145.9 144.8 145 146.7 146.6 145.9 145 143.4 141.8 137.9 131 116.4 107.5 91.6 86.4 84.8 86.9 89.5 96 104.3 112.1 117.9 123 127.4 131.2 132.6 128.7 130.1 145.9 149 152.1 154.9 156.7 157.3 157.2 159.6 162.5 164.4 165.4 166.3 166 167.2 170.1 171.9 174 175.3 174.1 171.1 175.2 177.5 179.1 181.7 183.4 186.3 186.8 183 181.5 185.5 186 185 188.5 189.2 190.5 191.9 192.7 193 193.2 195.1 197 198 198.8 199.4 201.1 202.4 204.4 205.1 205.8 206.9 207.7 208.9 208.9 207.9 204.6 206.8 207.5 207.3 207.8 208 208.8 209.1 209.8 210.3 210 209.9 211 211.3 210.3 207.1 205.3 205.6 207 207.9 207.7 207.1 206.2 205 204.5 204.5 201.6 201 200.9 201.9 200.8 196.1 193.8 196.5 196 196.3 194.7 194.6 196.7 197.5 198.1 196.5 194.7 192.7 190.8 188.9 191 189 188.5 190 188.1 192.1 191.7 189 185.6 183.3 186.6 187.5 184.4 185.1 184.1 182.5 180.6
98.2 101.1 99.3 94.2 92.1 94 90.7 87.5 82.7 61.4 58.7 62.9 65.9 80.4 84.4 88.8 90.6 88.6 80.1 83.9 98.7 103.4 108.7 112.8 118.9 119.7 116 111.9 111.5 117.4 121.2 123.3 124.6 125.6 127.6 129.8 128.1 126.3 132.8 136.3 140.1 143.4 146.8 149 149.9 149.1 148 151.2 153.9 153.4 153.7 153.5 151.9 150.5 148.9 147.9 147.2 145.8 145.3 145.6 146.4 145.9 144.6 143.8 141.2 136 123.2 121 89.6 105.3 89.2 87.1 88.1 88.5 97.3 106 111.7 115.3 120 124.4 122 124 137.7 145.2 149.3 152.3 155.8 158.6 159.2 158.9 162 164.5 165.7 166.8 167.7 168.5 168.8 171.8 174.4 176.6 177.7 176.4 175.8 178 179.9 181.2 181.9 184.5 186.5 186.4 183.7 185.1 187.2 188.4 184.9 190.3 191.9 193.4 194.8 195.8 196.4 196.8 197.8 199.3 200 200.8 201.8 203.4 204.7 206.3 206.7 207.6 208.6 210.3 211 211.1 209.8 207.7 208.3 208.9 208.8 209.5 210.8 211.6 212 212.3 212.5 212.6 212.6 213.3 213.2 212.9 211.1 211 210.6 211.1 211.5 210.8 209.7 208.9 207.9 206.1 205.9 204.7 203.8 203.7 204.1 202.2 191.2 199.4 201.3 200.5 200.8 199.8 200.3 202.2 203.7 203.5 203.2 200.8 202 202 199.4 198.9 200.4 197.4 197.6 195.3 193.8 195.4 193.1 190 189.3 190.6 191.1 188.2 188.2 187.1 186.2 183.4
97.2 97.6 96.5 94.5 94.3 95.4 92 92.2 94.1 79.9 58.2 57 63.8 77.4 84.9 91.3 95.7 94.5 88.2 77.6 100.2 108.3 111.4 115.6 119.8 119.2 113.4 112.2 113.2 114 119.5 122.2 122.6 125 126.4 126 123.3 129 134.4 134 141.3 145.4 149.7 151.7 153.4 152.3 148.2 152.1 153.1 154.4 154.8 153.7 152.4 151.2 149.9 148.7 147.3 146 146.2 146.4 145.7 146.5 146.1 144.9 142.4 138.9 134.2 120.9 96.7 116.4 105.8 84 87.8 88.4 90.1 99 103.8 106.4 111.6 112.8 118.8 129.3 134.7 142.4 146.5 149.8 153 157.3 158.4 160 162.6 165.1 166.4 167.9 169.8 170.7 170.2 172 175.7 178.3 178.8 176.9 177.7 179.2 180.4 180.2 181.5 184.1 185.6 186 186.3 188.1 189.9 191 189.2 191.1 193.8 195.6 196.7 197.3 198.2 198.2 198.7 199.8 200.5 201.5 203.4 205.4 206.5 207.1 207.4 208.6 210.4 212 213 212.4 210.7 209 210 211.3 211.8 212.2 213.5 214.1 214.7 215.3 215.8 215.4 215.1 215.8 215.9 215.8 216.4 215.8 215.3 215 214.8 213.9 212.7 212.2 210.5 208.7 207.9 206.8 205.8 205.2 203.7 196.3 200.2 204.4 206 206.4 205.5 203.4 204.3 207.3 209.5 210.2 210 209.5 209.8 208.2 205.1 203.3 204.9 203.9 200.7 197.7 191.2 198.9 197.6 193.2 193.1 195.1 195 193.7 193.7 190.1 188.8 186.9
98.4 99.2 100.1 100.5 100.4 98.4 96.6 97.3 97.8 92.3 61.1 58.2 63.9 73 88.2 94.7 96.8 101.4 95.9 87.7 89.7 108.2 110.8 114.3 118.2 118.1 113.8 115.7 121.2 119.4 116.4 116.2 117.7 119.6 122.8 129.8 136 136.7 140.7 141.7 144.4 148.5 151.4 153.5 153.8 147.6 151.5 153.4 154.7 154.8 154.8 153.8 152.3 150.5 149.4 148.2 146.5 146 145.6 145.9 145.3 145.5 146.6 145.6 143.3 143 140.8 130 104.2 125.4 120.8 89.8 84.9 87 90.7 93.4 90.1 98.2 111.6 121.1 124.1 127 132.7 138.9 142.4 145.3 150.6 155.2 157.1 160 163.2 165.5 167.5 169.2 171 172.5 172.2 171.9 174.8 177.9 178.2 177.7 177.8 178.8 180.2 180.5 181.8 183.7 185.5 188.4 189.8 191.3 192.6 193.4 193.1 193.5 195 196.7 197.2 197.4 197.8 197.2 197.7 198.5 200.4 203 205.3 206.3 207.4 207.8 208.8 210 211.6 212.9 212.6 212.5 211.2 210.6 212.2 213.1 213.5 215 215.7 217.2 217.8 219 219.2 219 218.1 218.7 219.2 220.4 220.4 220 219.5 218.9 218.6 217.9 216.1 215 214.4 212.5 212.7 212.9 210.9 203.6 201.6 203.3 205.4 208.1 210 210.1 208 208.8 210.7 214.1 215.4 216.4 216.5 215.1 213.1 212 211.8 210.4 206.8 205.7 205 202.1 201.6 201.7 202.1 199.7 198.9 198.2 199.8 199.4 197.7 194.7 191.2 190
106.5 105.2 105.4 107 107.1 105.2 101.6 102.4 102.8 96.5 61 60.9 65.5 84.4 88.8 92.6 96.2 102.9 102.7 91.9 86.1 100.4 108 113 115.9 115.2 115.4 119.8 125.8 128.1 128.1 127.9 129.7 132.5 135.3 138.3 140.1 141.9 144.6 146.3 148.3 149.9 152.6 153.8 154.1 150.4 146.9 154 155.4 155.2 155.6 154.3 152.7 151 149.4 147.7 146.7 145.4 145.4 144.6 144.2 144.5 144.8 144.6 143.2 144.2 145.3 134 124.8 132.3 130.7 125.9 88.4 85.1 85.1 85.6 90.7 93.8 114 122.6 126.2 126.5 131.2 135.3 138.6 142 147.5 152.5 156.1 159.9 162.6 164.6 168 170.3 172.3 174 174.2 173 173.3 177.1 177.7 178.6 178.4 179.7 180.8 182.7 184.1 185.1 187.9 191.1 193 194.1 194.8 194.7 194.3 194.4 195.4 196.6 196.4 195.8 196.1 196.8 197.8 199.8 202.6 204.5 206 206.2 207 207.4 207.5 208.8 210.1 211.2 210.7 212.7 213.9 214.9 215 214.2 216.7 218 218.4 218.4 220.6 222.1 222.2 222 221.8 221.9 223.1 223.7 223.7 224.2 223.7 223.3 222.3 222.2 221.8 221.5 220.6 219 219.1 218.7 216.6 207 205.3 208.2 209.6 213 215.8 215.2 214.4 216.1 218.8 220.8 221.7 221.9 221.5 219.8 217.5 218.5 217.9 217.3 215.8 211.7 209.4 207.2 205.1 203.9 204.6 204.5 206.5 204.9 200.3 198.2 199.1 198.3 195.1 193.7
115.8 115.3 114.8 115.1 113.6 109.3 104.5 106.2 105.9 96.1 58.6 61.1 75.1 92.2 98.4 95 97.7 103.4 105.7 103.6 94.2 88.3 103.4 112 113 111.8 117.3 122.8 126.8 129.2 130.9 129 132 135.2 138.8 141.2 142.3 143.8 145.9 147.6 149.8 151.9 152.7 153.8 153.8 152.6 144.8 153.5 154.8 156.9 156.6 155.5 153.4 151.4 149.3 148.1 147.5 146.2 144.9 144 143.7 143.4 143.4 143.1 142.6 143.5 144.5 128.1 140.5 139 138 133.4 126.9 89 87 87.1 87.1 90.6 106.1 115.8 120.7 126.4 130.1 132.3 134.1 139.5 145.2 150.7 154.6 158 161.4 163.9 167.2 170 172.6 175.1 175.8 174.7 173.5 176.3 179 180.2 180.2 182.5 184.7 186.5 187.3 188.4 190.6 193.5 195.7 196.7 196.6 196.7 196.3 195.1 195.1 195.5 196.3 195.9 196.8 199.1 203.3 203.9 203.5 204.6 205.4 205.8 205.7 207.1 209 210.5 211.9 214.5 216 213.7 215.8 217.1 217 218.9 219.5 221.1 221.2 222 223.4 224.4 224.3 224.8 224.8 224.8 225.5 226.5 227.4 227.9 228.2 227.6 226.2 226.6 227 226.4 225.1 223.2 223.3 222.6 219.4 204.7 213.9 216.1 218.7 220.3 222.1 222.3 222.1 218.2 224.9 227 228 227.5 225 224.7 225.6 224.3 223.1 221.9 222.9 221.5 218.1 214 205 204 204.4 205 208.3 210.4 205.8 201.5 199.2 199.4 197.7 196.6
123 121.7 121.2 120.5 117.5 112.2 104.6 107.4 106.2 81.5 59.5 66.7 83.5 96.4 101.3 98.1 101.9 105 107.1 107.8 103 96.1 91.9 103.6 109.5 111.5 117.3 123.3 123.6 123.4 126.1 128 130.5 132.7 137.5 140.4 141.6 143.3 145.1 147.6 149.8 151.3 152.9 154 153.5 146.2 145 154.7 155.6 158.4 158.8 157.8 155.8 153 150.9 149.8 148.9 147.3 145.1 144 143.4 142.6 142.4 142.5 142.5 143.6 142 140.4 142.4 141.2 139.7 139.4 133.7 124.2 93.2 87.9 87.2 89.9 97.3 104.6 112 122.1 127.4 129.1 132.4 138.3 143.7 149 153.6 157 160.7 163.4 165.8 168.6 171.2 174.8 176.6 176.4 175.1 177.7 180.3 181.5 182.6 184.6 186.8 189 189.3 190.5 192.8 195.1 196.5 197.1 197 196.6 195.3 195.4 196.6 197.1 199.3 199.8 200.8 204.9 206.4 206.4 206.9 207.9 208.5 208.3 209.5 210.2 212.7 214.4 214.8 215.9 215.7 216.2 217.7 219.7 220.7 221.4 222.2 222.6 223.8 225.3 226.2 226.3 226.9 226.9 226.6 227.2 228.2 229.8 230.8 231.7 232 231.2 231 230.9 230.5 229.9 228.1 226.5 225.4 224.6 210.5 212.6 221.6 222.3 224.4 227.4 227.6 226.8 226.7 225.7 226.4 228.7 228.9 228.7 229.6 229.1 229.5 226.4 224.3 219.2 217.1 214.8 211.8 207.2 207.9 208.3 207.5 205.7 204.6 206 207.2 205.8 205 200.1 198.1 197.1
122.3 120.5 120 121 119.2 114 104.3 104.4 100 67.6 68.3 72.5 93.5 102.9 103.5 100.5 104.2 105.4 108.6 109.8 112.5 111.3 105 98.1 96.1 106.8 114.1 117.8 118.5 118.4 120.2 122 125 128.4 131 134.5 136.8 140 142.4 146 148.5 150.6 152.3 151.7 150.2 144.8 153.9 155.6 157.6 159.6 161.3 160.8 159.1 156.9 154.8 152.7 150.8 148.8 146.1 144 143.8 142.7 142.2 142.1 142.2 142 141 141.7 144.4 144.5 143.3 140.4 137.6 134 125.5 112.6 89.4 87.9 90.2 91.5 104.4 113.1 121.2 127 131 136.4 140.9 147.3 152 155.8 160.4 163.5 165.5 166.6 169.7 173.1 175.8 177.4 177.2 179.1 181.1 182.7 184.2 185.7 188.2 189.5 190 191.2 193.2 195.1 195.6 196.1 194.4 194.9 197.4 199.8 198.2 199.4 201.2 204.7 207.3 208.9 209.4 209.8 209.2 209.6 210.8 210.1 212.1 213.6 215.1 216.6 218.4 219.7 221.3 221.6 221.6 221.5 222.7 223.8 224.3 225.6 227 228 228.6 228.4 228.1 228.7 229.3 229.8 231.7 233.1 234.7 235 235.4 235.3 235 234.5 233.6 232.3 230.6 229.1 227.1 223 221 223.4 223.5 224.3 225.4 229.4 229.2 228.8 229.3 228.5 228.2 229.1 230.1 229.2 230.4 229.4 227.3 224.6 222.8 221.5 220.8 218.4 214.6 212.3 212.3 212.6 213.4 212.1 211.4 209.5 206.7 211 211 206.7 200.6 205.6
118 117.3 116.9 118.8 118.5 111.3 102.6 101.2 90.8 61.2 72.6 84.2 98 106.1 104 102.4 105.4 108.2 110.4 114.9 118.3 117.2 117.1 109.4 105.6 98.5 100.4 103.2 105.3 107.9 109.2 114.2 120.8 123.1 126.1 129.3 132.1 134.4 138 142.4 146 148.7 149.4 143.1 141.1 152.8 155.4 157.2 159.6 161.9 162.9 162.8 161.8 159.7 157.3 155.1 153.2 151.3 146.9 145.5 145.1 144.4 142.7 141.8 142.4 142.1 143.6 143.6 144.7 145.9 146 144.5 139.5 136.9 129.9 122.1 109.6 89.8 88.8 92.1 91.7 102.9 113.2 123.7 128.5 133 138.7 144.6 149.7 155.2 159.9 163.2 165.1 167.1 168.8 172.1 174.9 177.7 178.8 180.1 181.8 183.5 184.7 186.7 188.8 189.5 189.6 189.9 190.7 192 193.2 192.5 194.4 198.6 199.1 198.5 199.4 204.6 207.5 209.2 210.3 210.6 211.3 209.7 210.4 211.3 213.4 215.6 217.6 219.3 220.6 221.4 221.9 222.5 222.2 222.7 222.6 223.2 225.1 226.1 227.2 229 229.9 229.9 230.3 230.5 230.3 231.2 231.6 232.3 234.7 236.3 237.4 237.9 237.9 237.3 237 236.5 236.2 235.2 233.6 231.5 227.8 219.1 227.9 226.9 225.8 226.3 226.8 229.2 230.8 234.9 235.3 231.5 232 234.4 233.7 232.7 231.8 230.2 229.1 228.1 228 227 226.7 225.3 221.4 222.2 221.5 218.9 225.1 227.4 224.8 219.2 215.1 218.2 218 212.6 210 206.4
123.2 121.2 117.9 115 112.3 112.4 106.5 95.7 82.4 66.3 86.9 95.5 104.4 107.6 104.4 103.3 103.2 107.4 114.6 119.1 124.9 123.7 122.5 119.1 119.3 114 117.3 116.3 114.1 118.3 116.6 110.3 110.1 118.5 120.9 125.1 129.6 132.3 136.2 139.1 142.2 145.3 142.4 138.1 150.2 154.9 157.1 159.2 161.8 164.2 164.6 164.4 163.4 161.5 159.2 157.3 156 153.6 150 147.1 147.4 146.8 145 143.3 143.4 143 144.3 145.3 145 145.6 146.6 146.2 143.8 140 136.1 129.7 118.7 111.1 92.2 88.6 91.2 93.1 105.9 114.6 120.4 128.3 134.8 141 147.3 153.2 156.9 161.4 164.6 167.3 169 171.7 174.5 177.1 178.8 180.5 182.3 183.9 185.1 186.8 188.2 188.8 188.9 187.6 188.4 192.1 193.8 195.2 195.1 197.4 200.3 203.9 206.8 209.1 210.5 210.9 210.5 209.8 212.7 215.4 215.6 214.8 218.7 219.9 220.2 220.4 221.2 221.3 222 224.2 226.6 227.6 224.7 227 228.7 228.6 230.2 231.6 231.9 231.5 232.7 234.3 234.7 234.9 235.4 234 236.9 238.4 239 239.3 239.4 238.9 238.7 238.4 238.3 238.4 236.5 233.1 222.7 229.3 229.9 229.6 228.8 229.4 229.4 232.9 239.2 236.3 235.3 234.1 233.5 233.9 233.5 233.2 236 240.7 237.2 236.1 233.6 233 231 231.8 232.3 233.6 234.8 234.1 235.5 238.7 235.8 231.8 224.6 222.1 224.1 220.2 213.7 213.3
128.5 126.3 122.8 124.2 125.1 123.6 118.5 113.1 88.6 67.7 96.9 100.1 107.1 108.3 105.7 108.1 110.9 116.1 119.3 123.5 127.1 127.4 124.7 122.2 125.6 125.3 120.1 128.2 130.7 131.5 130.7 127.4 122.1 114.7 112.6 120.5 125.4 131.1 133.9 136.3 139.7 141.8 134.9 146.8 153 155.9 158.8 160.7 163.4 165 165.8 165.6 163.9 162.6 160.1 158.9 157.2 155.3 152.6 149.8 150.8 149.6 147.7 145.8 144.5 145 147.8 146 147.5 146.8 147.2 148.1 147.4 144 141.8 136.2 128.9 119.6 109.8 91.1 89.8 91.9 93.5 103.4 113.2 122.5 129.6 136.7 142.5 147 151.7 156.5 161.6 165.2 168 171 173.7 177 178.3 180.2 181.6 183 184.4 186 187.3 187.8 187.6 188.8 192 194 194.4 194.6 199.7 202.1 204 206.6 208.5 209.9 208.9 209.2 212.5 215.9 217.9 218.6 216.5 217.8 219.4 220.3 221.2 221.6 223.9 224.2 227.4 229.5 230.6 229.4 228.8 231.4 231.9 230.9 231.9 232.7 233 233.6 235.9 237.7 237.6 237.8 238.7 237.2 239 240 240 239.9 240 240 240.1 240.2 239.8 238.5 234.2 230.7 231 233.1 232.7 231.9 231.8 233.7 236.1 240.1 238.5 238.1 238.3 239.6 240.9 241.1 241.2 239.8 243.4 245.3 246.1 243.6 241.9 241.2 240.1 240.5 237.1 242.5 242.6 243.4 243.6 245.2 242.4 241.5 237.9 231.2 230.3 229.2 223.9 221.5
132.5 130.4 125.2 129.1 132.1 129 123.6 119 102.2 67.7 74.7 71.5 75.4 88.2 107.3 111.6 115.2 118.6 120.4 124.1 127 126.7 122.9 126.4 129.8 131.4 127.1 132.5 135 136.1 135.3 134.2 133.1 132.1 125.4 115.6 119.4 123.1 125.8 128.5 130.9 132.3 138.6 150.1 154.4 157.3 159.7 162 164 165.8 166.6 166.5 165 162.7 161 159.9 158.6 157.7 155.3 154.6 154.2 152.9 150.6 148.8 147 146.6 148.7 146.6 146.2 147.5 147.2 149.1 150.2 147.8 145.2 141.2 136.4 129.5 124.2 103.7 90.3 91.2 92.2 95.1 104.5 111.2 119.1 129.5 136.5 140.9 147.1 152.4 156.9 161.4 165.1 169.1 173.4 176.4 177.8 179.5 181.4 183.1 185.2 186.8 185.4 187.5 189.9 191 190.5 190.9 195.7 199.9 202.3 204.5 206.1 207.4 204.5 208 212.5 214.6 217.4 219.2 220.1 217.7 220.1 224.3 225.5 225.2 224.8 226.5 228.1 227.9 228.5 230 231.1 232 230.3 233.7 234.8 233.7 233.8 234 234.4 236.7 238.5 239.4 239.3 239.5 239.6 238.6 240 240 240.4 241.4 241.7 241.7 241.4 240.7 238.7 234.4 236.6 236.7 236.3 236.7 237.1 236.3 236.2 238 242.4 242.8 243.6 244.2 246.6 249.3 250.1 251.3 250.9 250.3 254.2 255.6 255.2 252.3 250.4 249.8 252.7 249.2 245.2 244 246.9 247.1 249.9 254.5 252.4 249.4 248.8 243.9 240.9 234.7 230.6 226.2
131.8 130.4 130.8 135 135.2 133.3 129.3 123.7 118.1 99.1 77.4 70.8 71.5 81.9 111.3 113.4 116.7 118.5 119.9 122.9 124.9 124.6 121.7 128.7 135.1 134.6 132.8 135.8 137.9 139.2 139.3 139.6 139.9 140.6 140.1 140.3 131 126.2 123.9 123.2 129.2 126.8 135.6 151.4 155.9 159.1 161.3 162.2 164.3 165.9 166.9 167 165.9 164.3 162.9 162.1 161 159.9 158.8 158.1 157.6 156 153.7 151.3 149.3 149.5 149.2 148.8 147.2 147.5 147.6 148.6 150.2 149.5 148.4 145 141.5 136 132.2 127.8 114.5 97.6 92.4 93 93.8 107.3 114 119.4 130.3 136.2 141.8 146.7 152.1 156.1 161 167 171.2 175.6 177.6 179.3 180.6 181.1 182.5 182.8 187.9 189.8 189.4 188 192.5 197.1 199.3 201.5 203.3 205.1 207.1 205.1 208.3 212.4 214.9 216.7 218.7 218.7 219.6 222.1 226 227.6 227.3 225.8 227.3 228.9 229.9 229.2 229.9 232.9 236.2 237 238 239.1 240.2 240.3 238.7 238.2 238.1 239 240.2 240.9 241.3 241.7 241.7 239.7 239.6 240 241.5 242.5 243.8 244 242.9 239.6 237.4 238.5 239.8 240.1 239.9 239.8 243.4 243.6 246 248.9 251.2 252.3 252.5 252.5 258.1 257.7 260.6 258.9 258.4 258.6 263.9 265.2 266 264.5 261.8 258.7 258.4 257.3 256.7 254.6 255.7 255.3 255.4 256.5 261.9 259.3 257.4 253.6 250.6 244.7 235.2 233.8
130.9 131.2 133.9 136.9 137 137.6 135.8 131 126.8 121 113.9 84.2 74.1 76.1 105 110 115.6 117.3 118.7 121 122 120.8 124.9 131.5 135.9 135.3 134.6 137.6 140.3 142.4 143.6 144.5 144.6 145.1 146.2 146.5 146.5 146.5 147.2 147.5 150.3 144.4 131.2 148.2 158.1 160.5 161.6 162.1 163.6 165.5 166.2 165.6 165.1 164.2 163.4 163.4 162.5 162 161.7 161.9 160.8 159.5 156.6 154.2 152.6 152.5 151.2 149.7 148.6 148.5 148.5 149.6 151.3 151.7 150.9 148.8 146.4 143.1 138.4 133.6 126.6 117.5 99.4 90.1 93.6 94.3 109 117.8 123.6 129.7 135.5 140.6 145.5 152.2 158.4 163.8 168.3 171.2 174.5 176.8 180 182.7 181.8 183.8 186 184.4 188.6 193.3 196.5 198.5 200.6 201.7 203.3 205.2 206 202.1 209.8 213 214 214 218.1 221.5 224 225.3 226.1 225.6 227.8 228.5 228.8 230.2 233.9 235.8 237.6 239.2 241 241.4 241.2 241.5 242.1 241.9 241.7 240.8 241.9 242.7 242.7 241.8 242.4 242.8 242.2 239.6 239.6 240.6 240.7 241.5 242.7 243.1 241 239.9 239.6 240.8 242.2 243.1 242.9 246.7 251.1 253.7 255.4 256.6 258.3 259.8 262 264.4 265.9 267.9 269 269.4 268.9 269.5 270.7 272.7 273.1 271.8 271.9 271.1 269.7 268.7 268.4 267.2 264.6 263.8 263.6 263.1 265.7 267.9 266.9 264.1 256.9 251.4 246.6 247.1
142.1 136.4 135.1 136.5 141.4 143.2 140.6 137.1 132.8 127.2 116.4 86.5 73.7 77.7 108.2 115.3 113.6 116.6 117.9 118.6 120 121.4 127.9 133.8 135.4 136.2 136.3 139.1 144.4 148.1 148.3 147.9 149.4 148.9 150 151 152.2 153.1 154.6 155.2 156 153.2 136.5 146.4 158.4 160 160.1 159.6 160.7 161.6 162.1 162.9 162 162 162 162.4 162.5 163.2 163.3 164.1 163.5 162.5 158.8 155.3 155.2 155.7 155.4 154 154.1 153 151.8 151.9 155.4 154.4 153.9 152.4 151 146.8 142.9 138.2 133.2 123.8 116.5 116.1 93.7 93.8 95 100.6 108.6 117.7 129.8 136.5 141.1 148.5 153.2 158.7 163.7 167.7 171.5 175 177.8 180.6 179.7 181.6 183 189.6 192.6 195 197.1 198.8 200.2 199.9 198 199.3 202.2 205.4 208.4 211.2 210.4 216.9 220.4 222.8 224.3 223.7 225.3 228.4 227.9 230.9 234.6 236.2 237.8 239.6 240.7 242 243.1 243 243.5 244.9 246.8 246.3 244.8 244.5 244.4 245.5 243.4 241.9 242.6 242.9 240.4 240 240 240.3 241.7 241.9 241.4 241.2 240.5 240.6 242 243.1 243.6 244.8 248.8 254.6 257.4 259.2 260.4 261.5 263.8 265.6 267.9 269.8 272.6 273.9 274.5 275.6 277.4 278.7 279.1 280.2 280.2 280.3 279.7 279.7 278.3 277 276.9 275.6 273.8 272.1 273.3 272.8 271.1 271.9 272.1 273.2 269 262.5 257.8 255.3
152 150.7 150.1 151.1 151.9 149.4 147.8 143.2 137.2 130 117.5 85.6 72.6 77.3 106.7 116.8 117.2 117 118.8 121.4 122.7 126.7 130.7 134.7 136.9 138.9 142.2 147.3 151.3 153.1 153.8 154.3 154.4 153.2 153.6 155.5 156.1 158.1 158.8 159.8 158.8 153.4 138.7 149 157.4 158.6 158.5 158.6 159.4 160.6 160.8 160.3 160.3 160.2 160.4 161.3 162 163.4 165 166.2 166.8 165.6 163.1 160.1 159.2 160.9 160.1 158.5 159 158.1 156.1 157.7 157.6 157.2 156.8 155.1 153.2 150.5 146.4 142.1 138.6 127.5 124.8 125 122.7 96.9 95.4 96.1 96.4 96.5 116.5 132 137.4 143.3 149.6 153.9 162.8 166.6 169.3 172.6 175.3 177.3 178.8 182.1 186.3 189.8 193.1 195.3 195.8 195.5 195.7 197.5 202.2 206.2 208.3 210 207.8 209.5 214.7 217.6 219.7 221.9 222.7 222.2 226.5 224.5 229.8 233.9 236.6 237.6 238.4 239.1 239.7 242.3 244.7 246.7 246.7 247.3 248.5 248.8 248.8 247.7 247.6 247.4 245.4 241.6 241.3 240.4 240.2 240 240.1 240.2 241.1 241.8 241.9 241.5 242.2 243.2 242.8 243.6 247.9 252.5 256.5 259.3 260.6 262.6 264 264.4 266.8 268.2 270.2 272.4 275 275.8 278.2 279.7 282.1 285.1 287.2 286.9 286.3 285.6 286.7 285.2 284.5 283.8 283.3 281.2 281.3 279.7 279.5 279.6 280 279.9 278.9 278.9 278 274.2 268.3 263.8
158.8 158 158.3 158.5 158.9 156.5 155.3 149.1 142.6 132.9 117.1 86.8 72.8 76.7 99.3 114.9 118.1 118.3 122.4 126.9 130.2 129.6 134 138.1 140.9 143.7 148.4 152.2 155.3 157.4 158 159.4 159.4 158.5 158.2 159.7 160 160.5 161.2 161.8 159.3 153 140.6 143.8 154.2 155.7 155.9 156.7 158.3 159.5 160 160.3 159.9 160.1 160.5 161.3 161.7 162.9 164.4 167.7 168.7 168.8 167.5 166.6 166.9 167.9 167.1 163.6 163.8 163.3 162.1 161.4 160.9 159.6 159.2 157.7 155.2 152.5 149.5 145 141.4 134.1 134.8 133.9 132.8 118.4 96.7 96.8 96.8 97 112.8 128.9 135 140.2 145.3 152.4 161 169.1 159.5 166.4 174.4 178.4 179.8 183.1 186.2 189.2 190.5 191.4 192.9 194.5 197 199.4 202.1 205.1 208.3 208.7 207.2 212.5 214.7 216.8 219 220.6 219.7 222.1 221.7 227.2 231.1 233.9 234.6 234.7 237.5 240 243.2 245.2 246.5 248.3 250.2 251.4 251.6 251.4 251.6 251 250.3 248.4 243.4 241.5 241.1 240.3 240.5 240 240.4 241.7 243.1 243.7 242.8 242 243 244.7 246.1 248.4 251.4 256.9 260.1 261.4 262.8 264.2 266 266.6 269 270.3 273 274.8 276.6 280.8 284.8 286.6 289.7 291.6 292.9 293.8 292.6 290.8 292.5 291.6 289.9 290.5 289.1 288.7 287.7 286.2 285.8 285.3 285.6 285.1 283.7 282.7 281.5 279.9 277.6 274
159.2 161.3 162.5 162.9 163.4 164.8 161.9 157.8 150.4 134.8 117.6 91.4 77.7 77 91.5 110 114.3 118.1 124.3 130.5 134.7 136.9 134.6 140.4 143.4 147.9 153 156.4 159.2 159.4 161.8 162.4 162.8 161.7 162.8 163.6 162.3 161.3 162.3 162.8 158.3 151.8 142.2 138.6 145.6 151 152.5 154 156.1 157.7 157.4 158.2 158.5 159.8 161 162.2 162.5 163.7 166 168.3 171.1 171 170.7 171.5 172.2 171.8 171.8 169.9 169.2 167.5 166.2 164.3 162.5 160.7 159.8 159.3 157.9 154.2 151.2 146.9 141.3 142 142.1 139 136.4 134.5 109.9 98.4 97.6 99.3 106.4 124.6 131.2 139.1 144.9 149.1 152.7 152.1 161.7 173 176.4 179.1 180.1 182.5 186 187.8 188.4 190.1 192.4 194.3 195.9 197.4 200.1 203 205.1 204.3 208.6 212 213.7 215.5 216.8 217.6 216.7 221.3 224.3 225.6 227.2 229.7 234 236.7 237.9 241.3 243.9 245.8 248.9 251 252.3 253 253.4 252.4 252.7 251.8 250.5 243.1 244.1 245.3 243 240.8 241.3 242 242 245.3 246.5 247 246.7 247.7 248.4 247.6 249.1 252.4 254.5 258.2 260.8 262.4 265 266.2 267.8 269.1 271.4 275 277.1 282 283.1 285.3 288.9 291.5 294.8 296.7 297.5 298.8 297.7 295 297 297.5 296 296.9 296.5 296.3 295.1 294.5 292.8 292.2 291.3 290.8 290.1 288.7 287.4 285.8 283.8 280.2
159.7 163.8 166.6 166.6 168 168.3 167.1 162.3 156.8 142.3 123.8 98.4 84.8 78.6 87.6 107.5 113.9 117.5 126.9 133.6 137.9 140.6 140.3 140 146.9 151.6 155.4 158.9 161.7 163.5 164.2 164.9 165.2 165.2 165.8 165.6 163.3 162.1 163.1 163.3 157.3 151.6 143.5 144.7 143.9 142.2 145.8 153.1 156.5 157.5 157.9 158 159.7 163.1 163.2 165.3 167.7 168.9 169.6 170.9 172.4 174.2 175.4 176 175.3 173.8 174.5 174 173 171.6 168.8 165.8 163.4 160.3 158.3 158.2 157 153.9 147.2 148.3 147.7 146.6 146.2 145.8 139.6 123.3 113.9 106.6 98.5 101 104.8 116.7 129.1 136.2 140 139.7 148.2 155.2 164.7 173.8 175.8 178.5 179.2 181.1 183.5 184.9 186.9 188.3 189.9 191.8 193.4 194.9 197.9 200.6 202 203 208.3 210.9 212.4 213.1 214.1 215 218.8 220.9 223.4 226.9 229.8 232.2 234.1 235.7 238.4 240.5 244.1 246.9 249.4 251.4 253 253.6 253.7 254 252.5 250.8 247.1 247 247.4 247.2 248.3 247.5 245.5 248.4 250.3 252.1 252.1 251.1 251.9 252.9 255.1 255.5 254.1 256.7 257 260.8 263.3 265.8 267.6 268.5 270.1 273.2 277.6 279.9 283 285.5 288 290.8 292.5 295.6 297.9 300.7 301.7 302.6 303.2 303.1 303.2 303.3 303.1 302.7 302.6 302.7 302.3 301 299.7 299.1 298.4 297.2 296.3 295.2 294.1 293.4 290.9 287
162.2 161.9 168.2 169.7 170.8 169.5 168.2 163.8 158.1 148 128.8 103.4 87.8 79.8 84.6 104.7 115 120.4 128.2 134.2 139.6 142.8 144.4 146.9 147.9 152.6 157.3 160.9 163.2 165.7 166.6 166.9 168.4 168.8 168.8 166.9 164.5 162.8 162 162.2 158.1 149.7 145.3 149.3 147.8 144.1 147.7 152.2 156.6 157.9 158.9 160.2 164 166.3 167.7 170.4 171.2 172.3 172.6 173.2 174.1 176 177.9 178.5 178.8 176 176.9 176.7 175.4 173.8 170.5 167.9 165.2 159.7 158.7 157.1 155 153.7 152.7 150.6 149.1 148 146.7 142.7 138.4 129.6 116.6 102.4 98.4 102 103.4 112.2 122.5 124.3 134.3 144.3 150.1 156.3 167.2 172.4 173 172.5 177.4 181.3 182.6 184.3 184.8 186.2 188 190.5 191.5 193 195.5 197.8 199 203.9 207.5 210.4 212.2 212.8 213.6 216.7 219.5 221.7 221.8 223.8 228.5 230.7 233.4 234.9 237.4 241.3 242.6 245.2 248.3 250.3 252 253.7 253.5 250.3 248.1 247.7 248 253.3 253.4 250 250.5 249.1 252.7 253.1 253.8 256.4 257.5 257.3 258.3 258.6 259.4 259.2 257.3 260.2 261.3 261.7 265.9 267.7 268.7 271 275.8 279.9 282 284.3 286.4 289.1 291.9 295.1 297.7 300.3 302.3 304.9 306.7 307 307.4 307.8 308.5 309.4 309.6 309.8 308.9 308.5 308.1 307 305.8 304.5 305 304.3 301.7 301.3 301.1 299.5 297.4 294.1
167.8 163.2 166.2 168.2 170.5 170.5 168.4 166.9 159.1 148.7 127.4 111 86.9 81 85.6 107.3 116.9 124 128.9 133.3 139.8 143.7 147.5 150.3 152.3 155 157.4 162.2 164.6 167.5 169.3 171.2 173 173.8 171.8 168.5 164.8 163.7 160.8 158.8 154.4 148.8 149.5 151.9 152 149 149.6 153.9 156.7 157.3 159.4 162.3 167.3 170.9 172.9 173.5 174.7 175 175.9 176.6 177.8 180.1 181.6 181.6 181.7 179.2 179.1 179.1 176.3 175.5 173.2 170.1 165.6 162.5 159.8 158.1 157.1 156.5 154.6 152.1 150.8 148.7 146.3 142.4 134.6 133.5 127.5 114.5 98.9 104 105.3 112.4 120.7 130.1 137.1 141.7 146.1 152.3 154.3 163.1 166.3 172.7 182.6 186.1 185.2 183 183.5 184.9 187.3 188.6 190.1 192.2 194.1 196.2 199.7 203.8 207 209.7 211.2 211.6 213.3 217.7 218.8 220.1 222.4 222.9 225.7 229.6 232.7 235 236.8 234.3 233.1 235.4 241.6 244.2 245.8 247.6 252 255.1 255.2 252.6 252.6 254.8 253.7 251.7 250.9 253 255.9 256.3 257.1 259.7 259.7 260.3 262 262 261.9 262 260.5 261.8 265.5 268.9 270.3 271.9 273.5 277.1 280.5 282.8 284.5 287.4 291.2 293.2 296.2 298.1 301.4 304.9 306.3 308.8 309.6 309.8 311.5 311.9 313.5 313.7 314.6 314.8 314.5 314.8 314 312.8 312.1 311 310.4 309.9 308.7 307.1 305.7 304.2 301.9 299.2
173.4 168.6 166.9 167 168.5 169.1 169.2 167.1 159.3 134.7 116.2 103.2 86 81.1 86.8 113 117.3 123.4 129.5 134.6 139.8 146.7 151.2 154.8 157.5 159.9 163.9 165.5 168.2 169.9 173 175.4 177.5 177.4 176.3 171.7 166.9 165.5 162.3 158.6 157.9 157.4 154.5 155.6 155.5 154.3 149.7 158.4 160.7 160.6 160.9 162.8 165.8 174.5 177.1 177.2 178.1 179.8 181.9 183.9 184.9 185.2 184.8 185.8 185.7 184.3 180 179.2 178.1 177.6 175.1 172.1 168.3 164.3 162 161.6 160.1 159 157.4 155.3 154.1 151.3 146.7 143.6 141.2 137.9 131.6 122.8 98 103.7 105.9 109.1 118.3 124.9 127.5 133.7 137.3 143.8 147.3 156.4 158.9 168.6 175.5 183.9 185 181.4 181.2 183.7 185.5 186.9 186.4 189.7 192.4 195.5 199.2 202.7 205.4 207.8 209.6 211.9 214.6 218.5 218.8 220.4 222.8 225.1 227.3 228.4 228.8 227.4 233.2 239.8 243.6 246.5 248.9 252.2 253.7 255.5 256.7 257.5 257.3 255.5 254 254.8 252.7 252.4 252.8 254.5 257.7 258.9 259.1 260.8 263.4 264.6 263.9 263.8 263.6 263 263 265.2 269.2 272.5 274.6 275.9 277.5 280.3 282.7 285.5 287.7 291 294.7 297.7 301.3 304.8 308.4 310.4 312.6 312.2 313.4 315.3 315.9 317.8 318.7 318.6 318.7 319.4 319.5 319.5 319.3 319.3 318 316.4 315.3 314.8 313.7 313 311.8 309.3 307.5 303.9
179.5 173.1 170.9 171.2 168.4 168.9 168.9 166.7 158.1 126.4 109.9 98.1 85.9 81 89.7 116.3 121.7 122.5 128.4 134.4 140.6 148.1 155.2 159.2 163.2 165.5 168 169.1 170.8 172.3 175 177.5 179.1 179.1 178 174.7 170.9 171.2 167.4 163.1 165 163.5 161.6 160.3 162.3 162.9 147.9 159.1 164.7 165.9 167.6 170.7 174.2 177.2 179.1 180.3 183.3 185.2 187 188.8 189.3 186.6 188 189.9 189.3 187.9 184.8 181.4 181.7 179.8 177.6 174.5 170.8 167.5 164.4 163.4 162.2 161.5 160.8 158.8 156.9 151.8 150.8 148 144.5 140.5 133.6 115.3 100.7 101.5 104.4 107.1 105.4 109.5 114.3 124.1 135 139 141.5 149.3 155.8 162.8 168.8 173.4 174.7 173.9 178.1 182.6 187.8 182.2 183.9 186.9 190.7 194.5 197.7 202 204.1 207.4 209.9 212.4 214.3 216.7 217.8 219.9 221.7 223.6 225.4 224.8 228.2 234.2 238.1 240.8 243.9 246.8 249.8 252.1 254.1 255.9 257.2 257.7 258.3 254 256.7 256.2 253.1 253.6 254.7 258 262.8 263.3 262.7 263 264.4 265.8 266.6 267 266.7 266.1 265.3 266.7 270.6 273.7 274.9 276.3 279.4 282.6 285.8 289 292.7 295.9 299.5 303.1 306 309.9 313 315.7 316.6 317.6 319.3 320.8 321.6 324 326.4 325.8 324.7 324.6 323.3 323.9 323.9 323.4 323.4 322.6 321.9 319.9 318.8 317.5 315.7 314.4 312.9 310.7
184.9 178.3 173.2 172.3 171.7 170 170.1 168.2 154.1 126 113.5 100.9 90.9 80.2 86.3 112.7 122.2 124.2 127.6 134.4 140.3 145.5 155.1 162.9 167.2 169.4 170.9 172.1 172.4 173 175.1 176.3 177.2 177.5 177.8 177.8 177 176.4 172.6 170.8 170.2 169.4 166.6 165.4 166.9 166.4 148.6 165.7 168.5 170.2 172.5 175.5 178.7 175 181.1 182.6 182.8 187.9 190.2 192 188 191.8 191.6 192.5 191.8 190.1 188 185.5 183.3 181.7 178.9 176.6 173.7 170.5 166.2 165.4 165.3 164.9 163.5 162.2 157 156.8 154.2 151.1 147.1 142.5 137.3 130.4 111.4 103.6 100.5 102.9 103.7 104.4 107.9 111 130.7 132.1 139.9 145.5 151.7 155.5 160.9 164.8 166.1 169.8 172.9 177.1 180 174.7 181.9 187.2 190.4 193.2 196.6 200.5 202.9 205.2 208.6 211.5 214.1 215.6 217.1 218.7 219.9 220.7 222 225.7 229.3 233.1 236.8 239.8 242.8 246 248.7 251 253.1 255.8 256.9 257 256.4 253.8 257.8 257 254.1 254.9 257.8 261.2 264.9 266.2 266 265.3 266.2 267.7 268.8 269.4 270.3 269.4 268.8 268.6 270.5 273.2 276.6 279.3 280.7 283.9 288.2 291.8 295.6 298.8 301.7 305.3 309.9 313.2 317 318.5 320.9 321.7 323.5 325.6 327.4 330.2 331.2 331 331 329.3 328.1 327.7 327.2 327.6 327.9 328.8 328.2 326 323.5 321.9 320.1 318.8 317.8 315.1
189.3 184.1 180.2 177.2 174.7 173.7 172.4 170.6 146.2 132.2 115.4 103.9 93.4 82.7 86.2 109.1 124.1 125.6 128.4 133.5 139.6 146.4 153.8 162.1 168.4 171.2 173.3 174.9 174.8 174.9 176 177.8 177.5 177.8 179.1 180.4 180.7 180.5 176.5 175.1 175.9 175 170.8 170.5 171.6 163 151.3 168.3 171.3 173.2 175.9 179.2 181.7 183.8 180.7 186.8 187 184.8 189.5 189.9 193.3 194.1 193.9 193.8 193.1 191.2 189.4 186.2 184.7 182.2 180.5 177.2 175.1 172.7 169.3 169.2 168.4 167.3 166.5 163 162.7 160.3 157 152.8 148.8 145.9 141.6 135.7 127.8 107.2 105.8 103.9 102.1 114.5 116.3 117.7 110.3 125.2 135.5 141.6 147.8 150.5 154.8 157.7 160.8 164.3 166.4 169.3 171.1 172.8 181.8 189.2 192 189.5 193.6 198.6 201.9 203.5 207.3 210.1 212.9 214.1 215.7 216.8 218.3 220.2 223.3 225.8 228 231 234.7 238.5 241.6 243.7 246.7 248.6 251.4 253.6 254.6 255.1 253.2 255.2 257 259.1 260.6 260.4 260.1 263.1 267.3 268.1 266.6 265.8 266.8 267.9 269.2 270.3 271.5 272.4 273.1 273.6 273.8 275.5 277.4 279.8 282.6 285.6 289.3 293.9 299.6 303.7 307.5 311.7 315.7 319 321.9 323.8 325 327.1 328.2 331.2 332.5 334 334 334.6 334 332.8 332.1 331.9 332.1 332.1 332.9 332.3 332.3 331.5 329.9 327.5 325.7 324.4 322.1 319.4
193.8 189.1 186.4 183.9 178 175.8 174.6 172.1 141.3 133.8 117.3 104.9 100.9 83.8 87.1 111.9 124.2 126.5 129.7 136.1 142.9 150.1 156.6 164 170.6 174.3 177.9 178.4 177.4 176.7 177.8 180 179.3 180.8 182.8 182.9 182.9 182 178.9 178.4 178.4 177.6 174 173.5 162.5 156.4 162 170 172.5 174.7 178 180.7 183.6 186.7 187.6 183 190 191.4 192.9 194.6 195.2 195.1 195.3 195 193.8 192 189.9 187.5 185.8 182.9 180.9 178.3 178 177.1 174.6 172.8 171.6 170.1 166.8 166.2 165.8 163 159.9 156.9 153.1 148.6 144.3 139 129.5 111.8 108.1 104.8 104.8 102.3 123.1 126.4 114.4 119.4 120.2 137.6 142.6 146.3 149.9 151.5 155.4 158.3 160.8 162.1 162.4 168.9 173.5 178.5 181.9 187.7 192.9 197 199.4 202.1 206.2 208.7 211.3 212.8 214.2 214.7 215.8 218.2 221.8 224.5 225.5 228.7 232.5 236.3 239.2 242.3 244.3 246.6 249.7 251.8 253.6 252 253.5 258.5 260.2 261.4 263.1 262.9 262.7 264.2 268.4 268.3 266.4 266.6 266.8 268 270.4 271.9 272.8 274.1 275.1 275 274.9 276.3 278.7 281.4 285.6 288.7 292.1 296.1 303 307.6 311.1 315.5 318.9 321.2 323.9 326.9 329.7 331.9 333.3 336.2 338 338.2 336.5 336.9 336.7 335.8 335.4 334.9 336.5 336.9 337.5 337.4 336.6 335.6 335.1 333.1 331.1 329.6 326.7 323.1
195.7 193.3 190 186.5 183.7 179 176.9 173.6 150.1 134.5 119.9 106.8 98.7 82.8 87.7 96.7 110.5 124.5 133.3 139.6 144.7 149.3 156.5 165.8 174 178.6 180.6 180.4 178.9 178.4 178.7 181.1 180.7 181.7 184.2 183.8 183.2 183.5 180.6 178.7 178.3 176.8 172.1 162.2 156.5 169.6 168 170.9 173.3 176.2 179.7 182.8 185.7 188 189.2 186.3 190.9 191.4 193.1 194.6 194.8 195.3 195.7 195.2 193.2 191.8 189.8 187.9 186.3 184.8 182.4 182.2 180.3 179.8 177.7 175.5 173.8 170.9 170.6 168.4 167.3 165.2 163.1 160.2 156.2 151.5 146.4 127.4 135.9 122.7 108.3 103.9 104.5 106.9 123.9 127 124.8 128 120.7 124.1 136.8 141.6 144.2 148.1 150.8 152.9 154.6 155.5 156.3 163.8 167.7 171.8 175.3 182.4 188.4 193.3 196.3 200.4 203.7 207.5 209.4 210.7 209.6 212.4 213.3 216.1 219.1 222.1 223.9 226.3 230.6 234.5 236.6 240 241.6 244 247.3 249.7 251 251.8 253.3 258.6 261.5 261.8 264.3 264.3 263.5 264 266.5 266.2 266.4 266.7 267.1 268.1 271.1 273.3 273.9 275.3 275 275.4 276.7 279.9 283.9 288.6 292 292.6 298 302.3 307.4 310.7 313.9 316.9 320.6 323.7 326 329 332.3 334.7 336.5 339.2 340.2 339.8 339.9 339.1 338.6 338.1 338.8 339.1 340.4 341.3 341.5 341.3 341.2 340.2 339.8 339.6 337.2 334.8 331.8 327.9
198.2 195.9 193.1 190.2 187.2 183.4 178.8 177.1 161.7 142.4 130.6 106.6 95.7 83.9 85.9 89.5 101.7 118.7 134.5 139.6 145.1 150.8 158.2 164.7 175.4 179.8 181.6 181.3 179.3 179.3 180.4 181.6 180.5 182.1 183.4 182.8 183.2 184.1 180.4 178.2 178.3 176 163.6 161.9 171.2 171.4 164.7 172.1 175.2 177.8 182 184.9 187.5 189.8 190.7 190.6 190.7 192.3 192.6 193.4 194.2 195.2 195 194.3 194.4 192.9 189.9 189.3 189.2 184 186 184.7 183.1 181.7 180.3 177.4 173.9 174.3 172.5 170.7 168.1 167.1 163.7 159.7 155.5 148.5 147.3 145.6 138.5 132.6 105 106 106.5 114.7 124.3 127.4 129.6 132.4 130.7 124.5 125.6 135.5 141.7 145 146.9 148.3 149.3 151.5 154.2 158.5 163.6 166.5 172 176.9 180.9 188.2 192 196.7 201.4 203.3 205.6 206 205.3 210.4 211 213.7 217.4 219.4 221.4 224 228.7 231.9 234.2 236.4 239.6 241.8 244.8 246.6 247.9 252.1 253 257.7 260.4 261.5 264 265 263.8 263.5 264.4 265.5 266.3 266.7 267.2 268.2 271.3 274.8 275.3 275.1 275 276.2 280.8 288.7 290.4 291.9 295 295.8 301.4 303.5 307.6 312.6 315.9 319.7 323.3 326.3 329.1 333.1 335.4 336.9 339.8 341.6 341.5 341.4 341.8 342.2 341.6 342.6 342 343.8 344.7 346.1 346.3 346.9 346.5 344.9 344.1 343.9 342.4 340.4 337.4 333.3
199.8 196.8 194.4 191.9 189.4 185.5 181.2 179.4 175.1 140.1 136.9 114.6 103 92.1 85.2 87.9 90.1 108.1 134 139.3 146.7 153.3 160.2 168.1 176.9 180.4 182.2 182.4 181.4 181.2 182.9 182.8 180.4 181.3 181.9 182.1 183.1 184.9 182.2 178.7 178.1 173.1 163.4 169 174.6 173.9 171.8 168.7 177 180.3 183.2 185.7 188.2 190.3 191.7 191.8 192.4 194.1 194.3 194.2 194.4 195.7 196.2 196.6 195.5 194.7 191.9 191.1 190.2 188.4 187.9 186.5 185 183 180.3 177.5 178.1 175.4 170.6 169.3 166.3 165.1 161.2 157.9 157 153.7 150.7 147.1 142.6 136.1 107.8 107.3 107.2 115.1 126.5 128.6 130.7 134.2 138.1 136.2 128.4 123.8 130.5 138.1 143.9 145.1 146 148 150.8 155.6 159.3 164.7 168.3 172.1 177.9 184.1 189.2 194 197.1 199.5 202.5 203 203.7 207.6 208 211 215.2 216.8 218.6 222.3 227.3 229.8 231.4 234.6 236.6 239.2 241.4 244.1 247.7 250.5 251.4 255.7 258.3 259.8 262.6 259.7 261.1 263.1 264.7 265.5 266 266.5 267.3 270.4 272.8 274.6 276.7 274.9 276.5 284 288.9 291.7 294 296.3 298.8 300.8 305.5 309.3 313 316.3 320.3 323.2 326.3 329.8 334 336.9 340.2 342.3 344.2 345.4 345.4 345.5 345.8 346.7 347.3 347 347.6 348.3 349.7 350.1 351.4 352 351.3 351 350 348.1 345.6 343.3 341.2 339.1
202 199 194.9 193.1 190.2 186.4 182 179.9 175.8 155.2 139.3 125.6 108 100.8 91.5 89.1 90 97.8 119.7 138 146 153.3 159.8 168.5 176.8 181.3 183.6 183.8 182.8 183 184.8 185.3 180.9 180.8 180.6 181.1 182.9 184.7 182.7 178.8 178.6 176.1 164 173.6 178.2 177.3 172.6 174.5 177.2 182.8 185.1 186.8 189.1 191.4 193 193 194.3 196 197.1 197.9 198.3 198.3 198.6 199 198.2 197 195.3 194 192.9 190.9 189.2 187.4 184.4 182.4 181.4 181.1 179.5 178.2 174.3 171.4 168.7 167.4 164.3 161.4 158.4 154.6 150.9 146.2 143.2 139.3 120.9 108.7 106.2 110 124.9 130.1 132.5 136.7 140.7 143.4 141.8 133.4 126 129.2 134.7 142 144.8 147.5 149.8 153.2 157.2 161 165.4 169.9 175.1 180.8 187.1 192.5 195.3 197.5 199 201.1 201.8 204.1 203.4 209.2 213.7 214.7 216.6 221 225.8 227.5 228.6 231.7 234.5 237 240.8 243.3 246.6 248.5 249.6 253.3 255.2 257.5 256.8 259.8 262.9 265.9 266.8 265.9 266.4 266.6 267.8 271.9 275.3 274.3 274.4 275.1 278 284.8 289.2 292 294.2 297.7 301.4 304.9 307.5 311.5 315.4 319.1 322.9 325 329.2 332 336.2 338.7 342.4 345.4 347 347 346.9 348.6 350.2 351 352 353 353.7 353.5 353.9 354.6 355.9 355.9 356 356.1 354.6 352 349.8 347.9 343.6 342.8
204.9 200.7 197.1 193.4 190.5 186.6 182.1 178.9 174.7 167.6 138.8 128.6 114.1 103.7 95.2 93.1 89 93.1 107.2 132.1 145.2 154.6 161 168.6 176.1 180.8 183.3 183.7 183.5 183.8 184.7 185.3 181.1 180.4 181.4 180.8 182.4 183.2 183.5 180.8 180.1 180 164.4 173.4 181.4 180.1 175 180.4 178.3 183.2 188.3 189.6 191.7 193.1 194.9 196.2 197.3 198.2 200 200.6 200.8 199.9 199.9 199.7 198.7 198.5 196.9 196.1 193.5 193.2 192.6 191.4 187 186.9 185.7 182.6 181.6 181.3 176 173.4 172.3 169.9 166.8 163.1 158.5 155.4 151.4 148.8 146.2 142.9 136.2 112.1 108.8 109.5 119.7 131.4 134.1 138.3 142.9 145.9 146.3 145.1 139.3 137.3 129.8 134.3 146.7 148.3 150.4 153.4 157.4 161.2 165.2 168.4 172.9 177.3 184.7 191.1 194 194.5 196.7 199.6 201.4 200.6 201.7 208.5 212.7 213.4 215 219.5 223 224.6 228 230.5 232.5 234.6 239.6 241.9 244.8 246.1 247.7 250.8 253 252.7 256.8 260 264 267.3 268.7 267.4 266.8 267.7 268.9 271.3 271 275.4 277.3 277.9 279.3 284.4 288.2 290.8 296.8 299.9 303.6 306.2 310.3 314.3 318.7 322 324.7 327.9 333.1 336.9 338.6 340.4 343.7 346.9 349.3 348.8 349.2 351.3 353.7 354.7 356.4 357.4 358.3 358.4 358.5 359.4 360.4 360.4 360.3 360.2 358.5 356.9 354.2 351.9 348 346.2
206.6 201.7 198.1 193.9 190.8 187 182.8 178.9 173.6 166.6 139 128.9 114.6 115.5 105.7 94.7 90.6 93.8 99.9 125 143.2 154.4 162.9 168.1 174 178.8 181.1 182.5 182.5 182.5 183.6 183.1 182.5 180.1 181.8 181.5 181.1 182 183.2 181.7 180.9 181 166.2 172.8 182.6 182.2 181.8 185.6 188.7 187.6 191.3 192.5 193.8 195.4 197.5 199 199.8 201.1 202.4 202.7 202.7 201.8 201.4 201.1 200.5 199.9 199 197.7 196.7 196.3 195.8 194.5 187.2 191.7 190 183.5 184.7 182.1 178.3 176.3 175 172.7 169.5 163.1 161.4 158.2 154.4 151.4 149 145.2 141 123.5 109.5 109.5 114.1 126.2 135 139.2 143.3 147.2 148.6 147.1 145.3 143 138.7 131.4 139.4 148.6 153.4 155 157.2 160.7 163.4 167 171.1 175.5 182 190.3 192.4 192.1 193.7 193 195.2 196.5 201.3 207.4 211.5 212.2 213.3 218.5 220.9 224.3 227 229.6 230.8 232.9 237.4 240.6 242.9 244 246.4 248.7 249.4 253.4 257.9 261.2 264.2 267.4 268.5 266.8 266.5 266.8 267.9 269.7 271.8 273.9 277.4 280.2 280.8 283.4 286.8 292.8 297 300.7 305.6 309.5 314.2 317.6 321.9 325.3 328.8 332 336.3 340.5 342.1 344.5 346.7 348.9 350.6 350.9 352.7 355.2 356.2 357.6 359.7 361.1 362.2 362.4 363.2 363.9 364.3 363.4 363.9 363.3 361.8 360.6 358.2 354.8 352.2 350.8
208.1 202.6 198 193.7 185.9 182.5 172.6 164.5 151.7 144.8 144.3 127.8 135.8 128.4 114.8 99.5 89.7 95.4 96.1 112 138.6 151 160 166 170.5 175.1 177.5 178.7 180.3 179.6 179.6 180.9 182.6 180 181.5 181.6 180.4 180.6 181.5 180.7 179.8 177.2 164.4 174.9 182.8 184.4 186.8 189.2 191.8 192 193.9 195.3 196.6 198 199.6 201.1 202.1 203.2 204.1 204.5 204.6 203.6 203.7 203.1 202.2 201.6 201 199.8 198.6 198 198.2 195.8 192.5 195.4 187.7 190.5 189.7 187.9 184.1 181.7 179.5 177.2 168.8 168.6 166.5 160.9 157.3 154.3 151 146.9 143.3 129.6 111.9 108.1 113.5 120.1 134.3 138 142.3 146.8 149.1 148.9 147.3 145 144.9 146.1 137.2 135.8 149.2 155.9 157.3 159.8 163.3 167.9 171.5 176.2 183.5 190.6 190.1 190.3 190.3 189.4 188.3 197 198.5 203.8 205.7 210.2 216.7 221.7 226 227.6 228 230 231.5 235.6 237.5 239.2 241.3 243.7 245.4 246.3 249.6 253.5 255.8 260.6 263.7 266 267.2 265.4 265.8 267.9 270.4 270.8 274.2 276.2 278.1 280.8 281.9 282.9 288.9 294.7 298.6 302.4 306.7 311.4 315.6 320 325.1 329.9 333.1 336.4 339.8 343.5 346.5 348.8 350.4 351.7 352.9 353.4 356.3 358.8 360 361 362.7 364.3 365.1 366.4 367.6 368 367.8 366.8 366.5 366.3 365.4 364.5 362.5 359.7 356.8 354.8
209.8 204.6 196.4 187.6 185 186.7 182.5 170.9 163.8 154.6 151.1 150.6 146.8 137.1 127.2 108.5 101.6 94.1 94.2 105.4 130.7 147.2 155.3 161.6 166.4 170.5 172.5 174.7 177.3 177.1 176.8 178.2 182.1 179.7 180.5 182.9 180.6 179.4 179.2 178.6 177.9 174.4 165.8 179.2 183.6 187.3 189.5 192.2 193.5 193.8 194.9 196.1 198.1 199.5 201.2 203 204 205.3 206.1 206.9 206.6 206.3 206.6 206.1 205.2 204 203.2 202.4 201.3 200.5 199.8 194 198.7 198.7 192.4 196.8 195.3 193 190.5 187.6 185.6 180.2 178.4 175.8 171.3 165.8 161.1 157 152.9 149.4 145.8 141 115.5 111 112.8 116.6 132.4 137.2 141.3 145.8 148.8 149.9 148.8 147.4 147.8 150.3 152.9 142.4 139.2 136.4 147.7 157.9 164.1 168.8 172.9 177.5 182.3 185.5 184.9 185.5 185.7 184.6 191.5 198.9 203.3 203.5 206.7 210.9 216.3 221.6 224.9 227.2 228 230 232 234.8 236.9 238.6 240.8 242.5 243.9 245.6 249.3 252.2 256.1 259.1 261.4 260.8 263.6 265.8 267.4 269.2 270 275.2 276.8 277.3 278.6 280.9 280.8 284.7 290.7 296.2 300.2 304 307.8 311.9 316.8 322.2 327.4 332.6 336.9 341 343.3 346.6 348.9 352.3 354.1 355 356.9 357.5 359.5 362.5 364.3 364.6 365.3 367 368.1 368.8 369.4 370.9 370.7 370 369.4 368.5 367.7 367.2 365.1 362.7 360.3 358
210 203.4 201.1 195.9 192.3 189.5 185.1 177.1 168.8 162.8 163.5 157.6 152.4 145.7 136.6 120.4 114.1 99.9 96.9 100.8 122.9 139.5 147.6 156.8 163.1 167.2 168.4 169.9 172.2 172.9 174 177.2 181.2 179 179.5 183.2 181.5 178.5 178.2 177 176 171.1 167.2 177.5 183.5 188.4 191.5 193.5 194.3 195 194.6 195.9 197.9 200.6 202.7 204.8 205.9 207.4 208.9 209.4 209.2 209.1 209.1 208.7 208.4 206.9 205.8 205.2 206.2 204.3 203.4 201.4 203.6 199.9 193.7 199.9 200.4 199.2 196.5 193.8 192 179.5 186.1 181.9 175.5 169.6 165.1 160.4 155.4 151.1 146.2 133.3 115.6 110.7 112.4 113.8 129 135.1 140.3 144.3 148.1 150.3 151.3 151 152 153.9 156.4 156.2 150.1 148.3 147.7 144.6 145.5 165.1 172.4 174.9 177.8 182.3 185.6 180.6 177.5 178.8 187.3 193.2 199.9 202.9 203.5 208.9 214.1 218.3 221.6 224.7 227.2 228.1 229.8 234.3 237.2 238.6 238.9 242.8 243.6 246.3 249.6 252.4 251.6 253.4 258.8 262 263.7 265.4 267.2 270.4 273.8 277.3 279 279 278.4 279.3 281.3 283.1 290.6 297.2 301.8 305 309.1 313.5 317.3 321.3 325.8 333.3 338.7 343.3 347 350.4 354.8 357.1 358.3 358.7 360.6 361.6 363.9 365.5 367.1 367.5 368.7 369.8 370.6 370.8 371 371.5 372.6 372.2 371.8 370.8 369.8 368.6 366.9 364.5 362 360.5
211.2 208.6 205.7 201.2 196 192.9 187.9 181.9 177.7 174.1 168.7 163.2 158.2 150.5 147.3 138.6 129.6 116.8 99.9 100.4 117.2 132.4 142.3 149.9 158.9 163.3 164.1 164.7 167 168.5 171.4 175.4 178 178.1 179.3 182.9 180.1 178.4 177.6 176.9 174.7 171.2 169.7 174.2 180.7 188.7 192.6 195.1 195.6 195.4 195.3 196.4 198 202.1 205.1 206.9 208.9 210.4 211.1 211.9 212.1 212 211.7 211.2 210.6 209.7 209.3 209.5 209.7 207.9 207.5 202.3 206.8 204.6 202.9 203.3 203.8 202.9 201.6 199.9 196.1 183.3 191.6 187.5 181.4 176 168.1 164.8 157.3 153.8 149 143.3 124.7 111.7 111.9 113.4 127.2 132.6 137.5 142.4 147.1 151 154.2 155 155 156 157.9 160 158.6 155 157.4 155.7 155.2 152 155.7 168.5 170.8 178.1 186.8 171 184 183.1 184.1 179.3 188.9 196.3 201.5 205.2 209.8 215.3 219.6 224 221.4 222.6 225.9 231 233.9 233.1 238.6 242.6 244.1 246.6 248.5 247.4 252.8 256.9 260.4 262.1 264.1 266.6 270.4 271.3 272.8 275.9 277.7 276.3 278.9 279.7 280 283.8 290.9 296.4 300.6 303.3 306.8 312.8 314.8 321.9 325.2 332.6 338.3 343.4 348.7 353 358.1 360.5 362.2 362.5 365.6 367.2 367.5 369.7 371.3 371.1 371.5 371.8 373 373.5 373.4 373.9 374.2 374 373.4 371.6 370.8 369.3 367.8 365.7 363.2 362.2
212.4 210.2 207.1 203.6 199.9 195.9 190.7 186.2 183.6 180.1 176.6 170.8 169.1 165 160.3 152.9 144 136.3 113 101 115.8 123.7 134 144.3 153.4 158.7 160.1 161.5 163 165.7 169.2 173.4 176.7 177.3 178.7 182.3 180.2 178.9 177.9 176.6 174.8 173.7 174 171.9 173.7 187.5 192.7 195.6 195.8 195.2 195.4 197.4 199.3 203 205.6 207.9 210.3 212.4 213.9 214.6 215.2 214.9 214.5 213.7 213.7 212.7 212.3 212.1 211.6 210.2 209.3 207.7 209.1 208.2 207 207.1 207.4 207.4 204.6 203.1 192.3 186.2 195.9 192 186.1 181.1 174.2 167.6 160.5 156.1 151 145.5 126.5 117.1 112.8 112.5 118.3 130.3 133.7 137.8 145.9 151.1 155.9 158.3 159.3 158.9 162.4 165 166.7 164.6 165.8 161.5 162.2 161.8 161.3 157.5 161.6 161.7 162.1 169.6 188.2 191.9 191.6 191.1 189.7 189.5 195.9 199.5 202.6 209.6 211.3 219.3 212.3 216.7 221.5 228.2 229.5 229.6 235.3 239.6 243.2 244.9 244 249.5 252.8 255.3 258.3 262.5 264.7 268.6 270.6 270.2 270.8 272.9 274.2 274.8 277.5 277.6 278.2 284.7 290.4 295.1 299 301.2 304.2 312 317.9 322.6 328.2 333.3 338 344.1 349.7 354.1 358.4 362.1 364.1 366.1 369.1 370.3 371.4 373.4 374.6 374.1 374.3 374.9 374.9 375.7 375.5 375.8 375.9 375.9 375.1 373.3 370.9 369.4 367.6 366.1 364.4 362.3
215.7 211.6 207.9 205.4 202.3 197.9 195.7 192.3 190 186.9 183.6 179.3 177.3 174.7 168.9 162.7 157.3 145.2 118.6 96.1 97.4 98.5 112.7 135.1 149.2 154.3 157.7 161.8 164 165.4 167.6 171.5 174.6 176.4 178.6 180.7 179.4 179.7 179.2 179.3 176.7 174.8 175.7 176.3 175.6 181.3 190.1 194.1 194.1 195.6 197.3 198.7 201.5 204.6 207.6 210.2 212.4 214.1 215.9 217.2 217.9 218.1 217.6 217.2 216.3 216.2 215.2 214.6 215.1 213.8 212.5 211.3 210.3 210.1 209.6 210.4 210.8 209.5 208.4 206 198.9 203.4 200.3 196.1 189.5 183.1 177.5 171.3 165.7 160.6 146.9 139.3 132.1 123.9 114.8 114.1 113 128.9 132.1 135.7 144.8 150.3 155.3 159.7 161.7 164.7 167.3 170 170.8 170.7 171.1 171.7 169.9 168 169.1 169.3 168.8 170.5 171.3 179.3 194 192.4 197.7 197.8 197.4 196.2 192.1 194.2 196.9 199.3 197.9 199.2 200.7 210.5 219.1 223.3 223.6 228.5 233.3 237 241.6 242.4 243.5 249.3 250.4 253.1 257.7 261.6 263.6 267.2 269.7 269.5 269.3 269.9 270.8 271.1 274 274.1 278.3 284.4 288.8 293.4 296.5 298.3 301.9 308 315.7 322.1 328.8 334.4 336.9 345.3 351.8 355.9 359.5 363.6 366.3 369.2 372.1 373.8 375.7 377.1 377.2 376.8 376.8 377.3 377.9 377.6 377.9 377.6 378 377.6 376.4 374.9 373 370.7 368.4 366.6 364.9 362.5
222.1 214.3 208.7 205.8 203.6 200.7 198.7 196.3 193 190.7 186.9 182.6 182.5 180.8 176.6 171.9 165.1 151.4 126.5 109.3 102.5 102.1 105.4 119.4 142.5 153.6 157.5 161.2 163.3 165.4 167.6 170.8 173.1 174.8 176.5 177.5 180.9 180.3 180.8 181 180.1 177.9 178 178.8 180.3 175.7 181.8 181.1 189.3 194.9 199 202.4 205 208.2 210.5 211.8 214.4 215.6 216.1 216.5 217 217.3 217.6 218.5 220.9 220.3 218.2 218 217.4 216.5 215.8 215.6 215.4 215.7 214.8 214 214 212.4 210.3 210 208.8 207.9 205.2 201.1 193.1 187 176.7 175.6 172.3 151.8 144.8 139.7 135.8 129.8 123 115.8 114.8 125.9 133.7 138.1 143 148.8 154.3 158.9 162.4 166.2 170.2 173.7 174.3 173.1 172.8 174.7 175.8 176.2 175 175.3 178.5 177.7 179.3 188.8 197.1 198.8 200.5 204.1 200.3 199.5 198 201.5 205.7 209.3 211.1 208.1 202.2 209 215.7 220.6 225.1 228.6 233.7 235.8 237.3 237.1 242 245.4 249.1 251.1 253.4 256.3 262.2 265 267.7 268.7 269.2 267.4 266.8 268 270.1 272.4 279.5 284 287.2 291.8 294 297 302.2 306.2 312.4 321 327.9 332.5 334.2 340.3 351.8 356.4 361.7 365.7 369.5 372.4 374.9 377 378.9 380.2 380.1 379.6 380.6 380.7 381.4 380.8 380.4 379.7 379.6 379.4 378.1 376.1 374.2 372.5 369.6 367.5 365.4 364.1
223.7 218.6 211.7 207.7 204.9 202.5 200.1 197.7 193.8 190.9 187.8 185.9 185.4 183.2 180 175.2 169 163.5 148.4 132.3 106.6 104.2 106.9 111.6 133.2 150.4 156 160.6 163.2 164.6 168.1 171.9 173.7 175.4 177.9 179.8 181.5 181.9 182.7 183.8 184.6 182.9 181.2 185.2 185 185.2 185.4 192.2 187.4 185.2 200.8 204.3 207.5 210.3 212.9 214.6 214.5 215.8 216.1 217.2 218.1 219 220.3 222.3 224.1 223.1 220.5 220.4 219.7 219.8 218.8 219.4 219.7 220.3 218.6 217.5 217.2 214.3 212.4 211.4 211.7 210.7 208 205 199.8 186.2 184.1 183.1 172.7 152.1 147.6 144.7 138.9 131.5 126.1 115 115 124.4 133.1 138.1 141.8 147.8 153.7 158.9 162.8 167.2 172.1 175.4 177.1 175.6 176 178.6 179.2 181.7 182.3 181.5 182.3 184.4 183.8 195.8 199.5 200.6 203.6 204.4 204.8 204.1 204.1 204.1 210.8 214 215.7 221.4 212.8 204.2 212.2 219.4 227.6 231.8 232.8 235.3 235.4 234.7 239.5 245 247.4 248.4 249.9 252.6 258.4 261.8 264.9 266.6 267.6 265.2 263.4 266.1 268.6 273.6 279.4 283.5 286.5 289.8 293 297 301.5 305.8 311.3 316.6 325.3 328.3 331.7 337.7 346.3 354.7 361.6 366.9 371.1 374.7 376.5 379.4 381.2 382.6 382.8 383.1 384.3 385.5 385.1 384.5 383.7 382.2 381.8 381.5 380.2 378.2 376.3 374.4 372.3 370 367.7 366.5
224.2 219.6 214.6 209 204.7 202 200.2 197.2 193.2 189.2 186.8 186.3 185.7 183.7 181.6 177.1 171.3 165.1 159.5 150.3 137.1 106.8 106.7 111.6 128.6 147.3 155.8 160.2 162.8 164.7 168.1 171.3 173.9 176.3 179 181.6 183.7 184 185.4 187.2 188.4 188.7 190 191.5 189.5 190.1 193.7 192.3 196.9 199.1 186.9 205.2 207.4 209.1 213.4 214.2 213.6 215.2 216.3 216.8 217.5 219 219.8 220.5 221.6 223.6 221.5 221.8 221.4 220.8 220.9 220.9 220.8 221 221.6 221.5 220 219.1 216.3 213.6 212.4 211.8 209.8 206.8 200.5 194.5 195.8 188.6 169.2 155.8 150.8 144.2 141.5 134.1 127 116.3 115.8 128.3 134.3 137.1 142.2 147.6 152.5 157.2 162.1 168.2 170.9 174.6 176.4 177.8 180.8 185.3 186.9 185.7 189 188.7 189.6 188.6 192.4 203.6 202.7 203.9 206.2 207.1 210 210.8 208.7 211.5 216.1 221 222.3 222 221.1 211.8 207.1 208.2 213.3 218.9 224.4 230.6 230.9 231.9 236.1 241.3 243.8 246.9 248.9 250.3 255.8 258.9 261.6 262.1 263.8 262.2 262.2 264.4 267.8 274.8 278.7 282.2 285.5 288.7 291.8 295.7 300.1 305.7 311.6 315.7 322.4 325.3 329.8 335.4 341.5 350.4 356.7 366.5 371.5 375.9 378.1 379.8 383.2 385 385.5 386.5 387.7 388.6 388.4 387.8 387 384.8 383.8 383.2 381.9 380.4 377.9 376.6 375.2 373.3 372.2 369.3
223.6 219.4 213.9 208.6 204.4 201.7 198.4 195.3 189.4 185.8 183.1 182.8 182.1 181.2 180.4 177 171 164.5 156.6 150.7 136.8 104.1 107.1 111.9 126.1 143.5 154 159.6 162.5 165.1 168.5 172.4 176 177.5 180 182.7 184.9 186.7 187.6 189.5 192.9 194.1 195.3 195.7 194 196.5 197.5 199.7 199.5 202.4 204.8 189 192.1 207.9 209.2 210.5 211.6 213.1 214.4 215.2 216.9 218.5 220.2 222.8 226.2 227.3 226.2 225.8 224.9 222.4 222.4 221.8 222.4 222 222.5 222.5 222.3 222 220.6 218.9 215.8 213.8 212.4 209.3 207.4 205 202.8 198.6 180 157.6 151.7 146 143.6 137.9 127.1 116.7 117.1 120.6 136.5 139.9 143.9 148.1 152.8 157.2 161.8 166.9 170.9 173.3 174.8 177.3 182.2 188.5 191.7 190.9 190.8 192.6 195.5 197.1 202.9 206.2 206.6 208.1 211.8 213.5 215.6 215.8 215.4 218.3 222 226.1 226.5 225.1 224.8 223.7 223.4 224.3 209.6 211.7 213.2 220 220.9 231.1 235.1 238.4 243.9 247 247 249.1 253.6 256.4 258 258.7 259.3 257.6 260.9 263.9 267.4 273.9 277.6 280.8 284 287.2 290.7 294.4 299.4 304.3 309.3 315.1 320.4 322.8 327 333.4 339.7 347 354 361.6 369.7 375.5 378.9 382.4 385.3 387.3 388.7 389.6 390.5 391 390.9 390.7 389.5 388 385.6 385 383.8 382.6 381.2 379.6 377.7 376.6 374.1 371
221.5 217.6 212.7 207.3 203.9 201.2 196.9 192.1 186.1 181.6 178.9 177.4 177.4 176.4 175.7 173.2 169.3 161.9 155.8 149.9 124.3 103.2 109.5 114 130.2 146 150.3 156.6 162.1 165.5 169.3 173.9 177.3 180 181.9 184.9 187.3 188.7 192.6 196 197.7 198.9 199.4 200.3 198.8 201.2 202.2 203.8 202 204.5 206 205.8 206.6 207.8 204.2 210.2 205.7 213.4 214.1 215.8 217.6 219.9 221.6 223.2 224.7 228.3 229 227.6 226.7 225.3 224 226.2 227 226 225.6 225.6 226.8 224.8 223.4 222.6 220.8 218.1 216.6 213.6 210.8 209.6 207.3 200.9 185.4 176.9 163.2 158.2 151.7 138.5 129.5 121.1 116.5 119.6 136.3 141.6 146 149.6 153.1 156.5 161 166.3 169 172 174.5 177.8 184 190.2 191.7 194.5 194.3 194.4 196.4 201.6 205.5 209.1 209.8 210.9 216.1 219.3 222 223.4 224.8 226.4 227.1 229.6 229.3 228.8 229.4 230.5 228.6 229 225.7 224.1 219.5 220.5 215.7 215.5 227 236 239.4 244.1 243.5 245.2 248.2 253.5 255.7 256.3 255.1 254.1 254.5 258.5 264.4 270.1 275 278.3 281.7 285.1 288.7 293 297.7 302.4 308 318.5 319.4 320.8 324.9 331.3 337.4 343.7 349.7 357.5 365.7 373.1 377.9 382.1 385.8 388 390.1 391.6 392.6 393.1 393.2 392.5 391.8 389.9 388.3 386.4 385.6 384.8 383.6 382.3 380.8 379 376.9 374
218.7 214.7 210.5 204.5 200.8 198.6 194.6 189 183.1 176.5 171.9 171.5 173.7 172.3 170.7 167.2 164.8 160.1 155.4 140.6 115 106.3 110.6 121.7 139.6 149.9 155 162.1 165.7 168 170.5 174.2 179.1 181.6 184.7 188.4 190.9 193 195.6 197.8 200.1 201.3 203.6 205.6 205.5 205.5 206.5 207.2 206.6 206.5 206.9 206.9 208.4 208.9 211.2 212.8 208.1 212.8 212.9 214.5 218 219.5 220.2 221.4 225.1 223.1 224 225.7 227.1 227 225.3 228 230.1 230.4 229.6 229.7 230.5 229.3 227.4 225.4 223.6 222.1 220.9 218.8 216.2 213.5 211.6 201.4 205 195.3 169.8 160.9 154.8 141.9 135.7 128.1 117.9 118.9 130.5 141.6 146.6 150.7 154.4 158.1 161.6 166.8 171.2 172 175.4 179.3 186.6 189.7 191.1 193.7 196.5 200.6 200 203.4 208.3 211.6 212.8 215.3 218.2 220.4 225 228.4 230.2 230.1 229.4 230.3 231.3 231.3 232.9 234.9 234.1 233.7 234.2 235.8 234 231.3 229.6 217.4 218.3 220 232 235.3 240.5 241.9 245 248.4 251.4 254.4 254.4 257.1 252.4 251.4 257.1 263.8 271.5 276.6 279.5 282.3 287.5 292.7 299 302.3 308.5 315.9 317 318.8 324 329 335.2 341.2 347.1 352.4 359.3 367.9 374.2 378.8 383.3 387.2 390.7 392.9 394.2 394.9 395 394.5 393.9 392.7 391.2 389.7 388.4 387.8 388 385.7 384.4 381.7 379.4 376.5
216.6 211.8 207.6 201.8 196.2 194.8 193.3 187.3 182 178.7 171.3 152.6 169.1 163.9 146.7 145.6 143.3 149.6 136.4 122.4 112.8 104.1 114 131.6 147 157.8 162.7 164.8 167.7 171.1 174.6 178.6 181.2 182.8 188.4 192.8 195.8 197.2 199.2 199.5 201.5 204.3 207.8 210.3 211.1 210.8 211 209.7 208.5 208.4 208.6 208.1 210.9 214.2 215.8 213.6 209.6 209.1 211.9 213.4 215.9 218.5 219.2 220.4 223.9 227.3 228.3 226.7 228 229.1 229.5 228.1 228.8 229.3 230.2 230.5 230.3 230.1 229.3 227.4 226.7 225.4 223.9 222.1 219.8 217.3 214.4 212.7 210.9 197.8 169.1 167.6 156.3 139.9 136.3 126.3 119.1 117.6 129.2 140.6 145.8 150.3 153.8 158.7 163.3 168.6 173.5 175.5 178.5 184.1 190.1 191.2 191.1 192.3 197.6 204 204.2 205.8 208.4 211.5 213.5 217.8 220 223 227.2 230.1 230.8 231.8 230.6 232.5 235 236 236 236.7 237.2 239.5 240.3 240.7 240.8 240 236.8 234.1 230.5 221.9 223.8 224.3 235.5 241.1 242.6 243 248.9 251.9 253.1 252.4 249.2 247.3 250.3 256.1 266.4 271.6 277.6 282 286.6 292.1 297.4 302.1 306.9 311.3 314.4 318.5 322.7 328.2 333.6 338.3 344.3 349.9 356.5 361.6 368.4 375.7 380 385.2 389.4 393.3 395 396.3 397 396.9 397.2 396.2 395.1 393.8 391.9 390.9 391.1 389.6 388.2 385 381.8 378.2
213.7 206.9 203.8 198.3 192.8 188.5 184.9 179.3 173.2 167.1 166.6 154.3 150.7 146.2 129.6 122.6 107.9 111.2 115.1 104.7 104.5 111.8 124.8 144.7 153.8 162.1 167.5 169.1 170.3 173.6 177.1 180.4 184.5 187.5 188.8 197.8 201.2 201.4 202.2 202.7 204.3 207.4 211.6 215 213.9 214.1 212.8 211.3 210 209.8 210.2 214.5 215.9 215.9 215.2 212.4 210.8 209.4 211.4 213 215.5 217.2 220.6 226.3 229.9 232.5 233 233 234.2 234.3 234.7 233.9 233.1 231.5 232.1 232 231.2 230.2 229.4 228.6 228.3 227.8 225.3 224.2 222.5 219.8 217.1 217.2 212.8 190 173.9 176 156.4 143.6 137 129.7 119.3 121.5 134.2 138 143.9 148.1 152.7 157 162.8 168 175.1 178.9 183.1 187.7 191.6 193.8 192.6 194.7 201.3 202.9 205.6 207.2 207.7 210.3 215.7 219.3 221.4 223.8 228.3 231.7 232.5 232.8 233.8 236.1 236.6 237 237.9 239.8 240.9 242.3 243.3 244.6 245.7 244.9 242.7 240.9 237.1 222.8 224.6 225.9 228.4 234.3 241.8 237 240.7 247 245.2 245.1 243.1 246.2 250 256.1 261.1 267.7 273.8 280 284.7 289.4 294.7 300.6 304.8 308.5 312.2 317.3 322.8 327.7 332.6 336.8 342.6 347.7 354.2 359.9 364.8 370.2 376.2 382.2 386.9 390.5 394.3 396.9 398.2 398.5 398.9 398.7 397.6 395.7 393.8 392.9 393.2 392.5 390.3 387.1 384.2 380.5
212.1 202.8 197.9 193.4 186.1 182 174.9 168.3 163 159.2 156.4 139.4 125.4 121.2 119.6 118.5 117.7 115.8 115.6 119.9 119.1 128.9 140.2 151.2 158.2 166.7 171.2 172.1 172.9 175.8 178.5 182.4 186.6 190.7 196.4 195.4 196.4 201.1 203.5 206 207.2 209.8 212.5 215.5 215.5 214.6 214.3 213.4 212.4 214.5 216.9 217.9 216.2 214.5 213.8 213 212 210.4 211.9 213.4 214.9 216.7 221.5 227.1 231.2 233.4 234.4 235.1 236.8 236.1 236.9 237.8 237.8 237.5 237.2 238.1 235.2 232.9 231 231.3 230 229.2 228 227.6 225.1 222.5 219.8 219.4 216.9 192.8 173.6 173.7 164.5 143.9 131.9 123 118.9 121.8 122.8 133.6 140.7 145.8 149.1 155.2 159.8 166.2 172.7 180.3 185.1 188.5 191.2 192.9 194.6 198 201.6 201.3 204.4 205.8 208.5 211.2 215.7 219.2 221.6 224.7 228.2 232 233.1 236.9 237.6 237.8 237.7 238.6 239.9 241.6 243.4 245.8 249.3 251.9 253.4 252.4 248.8 247.1 244.2 238.3 232.7 230.8 227.2 228.1 228.7 229.9 233.4 236.6 236.8 244.1 247 249.6 251.1 253.7 257.8 263.4 269 275.4 280.6 285.3 288.3 296.4 302 306.6 311.6 315.8 321.5 327.7 332.3 336.6 340.9 346.4 351.1 356.7 362.3 368.2 373.5 377.6 383.2 388.3 391.9 396.3 398.6 399.8 400.1 399.8 399 396.7 395.4 395.3 394.7 394.5 393.1 390.7 385.9 381.7
210.6 201.4 196.7 187.8 180.4 175.6 168.4 160.7 155.7 150.2 137.2 115.9 117.5 119.2 110.9 110.7 129.7 127.4 133.8 142 144.1 145.9 150.3 154.4 164 170.3 172.7 173.3 174.9 178.1 181 183.5 187.6 195.3 198.1 199.4 200.7 200.6 203.8 205.8 207.6 209.6 211.1 212.1 214.4 214.9 214.7 216.1 217.3 217.2 216.6 215.7 215.1 214.7 214.2 213.9 212.9 212.3 213 214.1 215.2 217.6 220.9 227.2 231.4 234.1 236.5 238.5 240 238.2 239.6 240.9 241.8 241.9 242.1 243.6 243.2 241.7 239.7 237.1 233.4 231.5 231.5 230 227.8 225.6 223.6 221.5 218.9 201.5 180.4 170.8 164.7 147.1 130.4 124.1 119.8 121.7 124.6 139.4 142.3 138.5 141.5 152 159.4 165.1 171.2 179.1 184 187.3 189 192.8 194.1 193.6 194.2 200.8 205.4 207.9 210.7 214.3 218.1 219.7 222.4 227.9 231.2 233.5 234.4 237.4 238.1 239.2 240.4 240.6 242.3 244.2 246.8 250.4 253.4 255 257.4 256.9 255.8 252.3 249 243.8 237.7 235.7 232.7 230.9 233.4 234.8 232.7 234 237.1 242 247.2 250.2 252.9 255.7 258 261.3 266.8 271.7 276.5 281.8 286.9 293.5 300.3 304.6 309.8 313.9 321.1 327.2 332.7 336.9 341.9 345.9 350.2 354.2 359.2 365.3 370.2 375 379.5 382.9 388.3 392.9 396.6 399.5 401.3 401.1 399.6 398.1 396.6 396.3 396.3 396.7 396.4 394.3 390.5 385.8
208.2 201.1 193.5 183.6 172.3 168.7 162.8 156.7 146.9 139.2 126.4 116.4 123.3 134.8 136.6 133.6 139.5 140.6 143.8 147.4 149.8 151.9 156.1 165 166.1 171.6 173.4 175.6 178 181.9 184.9 190.1 195.3 198 200.2 200.7 201.8 203.1 205.2 210 210 210.5 211 212.3 215 215 215.7 215.4 216.1 216.1 215.9 215.9 215.5 215 214.8 214.5 214.7 214.3 215.1 215.4 222 227 227.9 230.7 234.8 236.9 238.1 239 239.5 239.6 240.9 241.9 242.2 243.3 243.3 243.9 243.7 242.6 242.2 241.2 238.9 236.3 233.7 231.8 230.5 228.5 226.3 223.2 220.4 213.9 190.4 179.9 165.8 147.7 134.7 123.9 121.8 123.2 128 143.4 147.4 148.2 142 149 158.7 163.9 169.8 176.8 180.8 182.2 185.4 184.5 181.9 184.2 189.2 201.1 205.5 208.9 211.1 215.8 219.3 221.1 225 230.1 233.3 234 234.6 237.1 238.9 242.1 242.5 243.1 244.6 246.6 249.8 253.8 256.8 258.8 259.6 260.2 260 256.9 252.3 248.5 243 239.3 237 234.5 237.5 241.1 238.9 233.8 235.8 237.6 246.8 250.5 253.2 252.8 257.3 260.9 263.9 269.9 274.1 278.7 284 290.8 298.4 304.4 308.5 311.7 316.8 326 332.7 334.5 341.6 346.7 350.3 353.5 357.6 362 367.5 372.7 376.5 380.6 383.4 387 391.7 394.9 397.7 398.6 398.2 398.6 398.9 399.8 399.9 399.1 397.9 396 393.5 389.3
205.5 199.9 191.5 182.3 173.1 162.2 154 149.4 137.4 129 125.1 120.9 126.7 140.4 140.5 140.8 144.8 145.2 147.6 151.8 154.9 160 164.8 168.4 170.6 173.3 175.9 179.6 182.7 186.3 190.7 196 199.8 200.8 199.1 200.7 201.9 203.4 206 210.9 213.5 214.3 212.8 213.2 214 214.6 215 215.9 215.8 216.3 216.4 217.6 217.7 216.7 215.8 215.9 218.2 219.2 217.2 222.8 227.6 231.4 231.6 230.4 234.1 235.8 236.6 237.5 238.9 239.5 239.9 240.8 242.2 243.2 243.4 243.8 242.2 241.6 241.4 242 240.7 238.7 236 233.2 231.6 230.3 227.8 224.4 220.7 215 193.7 182.1 168.6 158.5 137 127.9 120.4 124.5 131.1 143.7 149.8 150.8 153.7 146.6 155.2 162.2 166.8 170.4 173.3 175.3 175 184 188.5 193.1 195.3 192.2 203.7 208.9 211.6 215.6 219.7 222.2 226.3 231.3 233.3 234.8 233.6 237.1 239.1 241.4 242.3 244.9 246.2 248.5 251.6 254.7 259.4 258.9 260.5 261.5 261.8 260 255.5 252.1 248.3 245.4 240.6 238.7 241.2 244.5 246 245 240 239 242.4 247.6 251.5 255.7 258.5 261.8 264.8 267.5 272.3 278.2 283.1 289.6 296 301.2 305.2 308.7 313.2 321.8 327.9 331.7 334.5 344.2 349.4 353.3 358.4 361.5 365.4 369.6 373.1 376 379.2 383.5 386.9 389.4 392.1 394.1 395.3 396.2 398 399.8 400.4 400.7 399.7 398.1 396.6 393.4
205 195.1 188.7 179.1 169.6 158.9 150.4 141 136.8 127.9 123.8 123.6 128.4 142.9 142.3 144.2 145.3 148.1 151.6 156.6 161.9 166.9 169.7 172.7 174 175.4 178.6 183.1 186.7 190 195.2 199.5 201.1 202.1 202 202.7 203.3 205.5 206.5 210.1 214.9 215.4 215.7 215.5 214.8 215.2 215.9 215.5 216 217.1 217.2 218.3 219.6 219.2 218.2 220.9 222.5 224.8 222.1 228.6 232.2 233.8 233.6 232.4 233.8 235.1 236.4 237 237.8 238.7 239.2 240.1 243.3 244.1 243.4 242.9 241.8 241.3 240.7 240 239.9 239.3 237.2 234.8 232.7 230.5 228 224.5 219.8 212.4 201.4 181.6 173.3 159.8 145.6 133.7 125.1 125.4 132.1 142.5 150.1 153.1 157 159.9 153.8 154 159.1 165.6 168.8 176.6 187 192.3 193.3 195.8 200 203.7 198.4 207.3 212.1 215.4 219.3 222.5 227.1 231.4 233.7 232.1 233.3 236.5 238.1 240.1 241.3 244.7 246.5 249.5 251.7 254 255.7 257.3 257.6 259.8 260.8 260.4 257.3 253.5 251.8 251.6 246.3 243.5 244.7 246.7 248.8 249.5 248.3 242.8 238.8 246.6 253.9 256.5 260.8 262.1 265.6 267.7 272.2 276.4 281 285.5 290.4 295 301.6 305.9 310.3 316.3 322.3 327.6 333.7 340 345.4 351.3 356 359.7 363.7 367.3 370.9 373.3 375.1 378.4 381.9 384.9 386.7 389.3 391.7 392.4 393.3 394.9 396 397.7 397.2 396.1 394.8 392.7
204.4 193.9 185 171.9 166.2 158.7 151.5 147 139.7 127.8 126.2 124.3 129.2 145.7 145.9 146.7 149.8 153.3 156.6 160.6 166.7 171 174.3 177.1 180 181.9 181.1 186.5 190.2 193.5 198.7 200.1 201.1 202.8 204.2 204.4 206 208.3 210.1 211.7 214.4 215.8 216.4 216 215.7 215.9 216.6 217.2 218.2 218.3 219.1 219.3 220.3 221.4 224.1 225.9 227.3 228.7 229.7 230.9 233.2 233.2 233.3 233.6 233.7 234.5 236.1 237.1 238.2 238.9 239.5 240.9 243.3 244.5 244.9 244 243 242.9 241.7 240.5 239.5 239.2 237.7 236.5 233.5 230 226.4 222.6 216.9 207.8 198.3 180.7 170.8 162.7 147.9 135.9 127.2 122.2 127 138.1 145.6 154.3 159.4 163.1 163.8 162.3 165.5 168.9 175.3 182.4 195.1 204.9 205.9 203.5 201.7 205.7 208.4 201.1 211 214.1 216.9 220.6 225.9 230.5 231.5 230.2 234.1 235.9 237.6 239.3 241.1 243.5 246.2 248.2 250 251 252.7 253.8 254.4 256.8 258.4 258.3 256.8 253.6 253.3 251.5 248.4 248.2 248.4 249.3 251 252.2 251.6 249.2 246.3 241.7 247.8 258 260.2 263.4 265 266.9 269.5 273.6 279.9 282.8 286.5 290.1 298.3 303.1 306.1 311.3 317.1 324.6 330.5 337 342.5 346.5 351 354 356.4 361 366.4 369.9 371.9 375.8 378 380.3 382.9 386 388.2 389.6 390.2 391.3 392.7 393.3 392.9 391.4 391.3 390.1
201.9 193.7 183.9 169.6 162.7 159.1 157.2 154.3 149.2 137 127.3 122.1 135.2 148.8 150.4 152.9 157.2 160.5 162.3 165.1 170.7 173.7 177.8 181.2 183 185.5 184.6 187.5 191.7 195.9 199.6 201.1 202.8 204.2 205.7 206.4 207.7 210.5 213.5 215.2 216.3 217.5 217.5 217.7 217.8 217.8 218.6 220.2 221.7 222.1 219.9 220.5 222 222.9 227.2 229.9 231.6 231.3 231.3 230.4 231.1 232.4 233.6 233.4 233.5 234 235.8 238.5 239.5 240.6 241.1 241.4 243.4 245 244.9 244.2 243.4 242.7 242.7 241 240.4 239.2 238.5 238.4 234.6 229.2 224.1 214.3 204.6 202.3 194.5 176.4 171.3 158.9 150.2 140.3 132.3 123 127.6 137.1 144.6 153.8 160.9 163.4 167.2 170.9 172.9 177.7 181.4 181.3 189.6 193.1 197.8 194.8 199.8 205.2 210 211.1 207.9 208.7 212.8 216.8 222.6 225.1 225.7 229.9 232.1 236.3 238 239.1 241.8 243 244.8 245.8 247.5 249 251.5 251.5 252.8 253.5 255 255.1 254.7 254.7 255.2 255.1 255 253.9 255 255.2 255.4 254.6 253.3 252.6 250.5 241.5 243.2 245.4 256.4 261.3 264.1 265.4 266.7 270.6 274.4 278.5 282.4 285.6 289.9 298 301.6 305 308.8 317.9 325.5 331 336.2 341.1 344.8 347.7 350.6 353.8 357.9 361.2 366.1 369.4 372.6 377.1 380.5 382.5 384 385.5 385.6 387 389.1 389.9 390 388.7 387.2 386.2
199.3 189.8 182.1 172.6 168.3 164.2 163.5 157.3 151.1 139.6 126.6 124.8 140.9 151.6 153.2 155.4 162 164.4 167 170.7 174.2 177.6 181.6 185 185.3 187.7 189.2 189 195 199.2 202.2 202.9 204.3 206.1 207.3 207.7 210.9 214.1 215.6 216.6 217.2 218 218.9 220.7 221 221.9 223.9 225 226.6 225.7 225.6 225.9 225.7 224.5 228.2 231.4 233.5 235.1 234.5 233.6 232.9 232.9 233.3 233.2 233.9 234.1 236 238.5 240 240.4 241.6 242.3 243 244.3 244.7 244.6 243.7 242.8 241.9 241.9 241.5 239.4 238.8 236.8 235 231.2 225.9 212.3 199.8 195.6 190.8 174.2 168.8 157 151.6 145.5 134 128.6 128.7 136.8 145.9 152.9 163.7 166.7 170.2 173.6 178.3 181.2 183.3 182.6 185.3 191.2 195.2 199.3 205.9 211.9 209.5 211.4 211.7 211.4 214.1 216.2 213.4 216 225.1 228 227.9 231.8 232.6 239.3 238.8 242 244.5 246.2 248 249.9 251.2 252.8 255.7 257 256.1 255.4 256.7 257.7 257.9 258.2 259.3 259.6 260.1 260.2 259.5 258.2 257.9 258.6 258 256 252.6 246.5 249 256.6 260.9 262.8 264.3 265.9 268.8 274.4 278.8 281.5 284 290.2 296 298.5 304.1 313.7 319.8 325.3 330.3 334.9 338.1 341.3 345.2 348.4 352.4 357.7 360.2 363.8 366.8 369.5 373.7 377.1 378.6 380.4 382.1 383.6 384.6 385.1 385.1 384.8 383.9 382.5
195.2 186.1 179 173.5 168.2 164.8 163.3 157.7 153.2 130.8 119.7 138.7 149.8 155 158.4 163 166 168.9 171.5 174.4 177.1 180.1 184 188.4 189.6 190.3 192 196 194.3 198.7 202.5 204.2 206.1 208.8 209.8 211.2 212.8 215 216.1 218 218.4 221.2 223.1 224.1 225.2 227 228.7 228.6 230.2 230.5 230.8 229.6 229.2 227.6 228.7 231.7 233.9 233.9 233.6 233 233.4 233.1 233.1 233.9 234.1 234.1 235.3 237.4 238.9 239.8 242 243.3 243.6 244.1 245.4 245.5 245.4 246.1 244.2 243.2 240.3 239.3 239.3 238.9 237.2 233.3 226.2 216.8 207.8 199.3 192.1 177.5 171 162.1 153.4 148.8 138.2 125.9 128.5 134.5 144.6 151.2 159.1 167.1 169.7 174.2 177.5 176.9 177.4 180.5 184.8 189 193 198 206.3 213.1 210.5 211 212.6 215 219.6 222.5 222.4 224.4 227.1 230.6 233.8 236.6 238.5 240.9 242.8 245.8 247.5 248.7 249.2 250.6 252.3 254.1 256.1 256.3 256.6 259.6 261.7 262 263.6 263.3 261.9 262.3 263.1 263.1 262.1 262.2 263 263.3 263.9 261.8 259.6 255 248.6 251.2 256.2 259.3 261.4 263.6 267.8 274 277 279.7 282 285.2 288.9 293.5 299.3 306.9 313.9 320.5 325.5 329.3 333.2 336.5 340.6 344.9 348.6 352.9 357.1 360.6 362.1 364.7 366.6 369.2 371 375.4 375.4 377.6 379.3 381.4 381.4 379.6 378.7 378.1
190.7 182.5 176.4 172.1 168.3 164.6 160.5 157 152.2 130.4 130.3 149.6 157 159.4 160.7 165.9 169.8 173.3 175.4 176.7 179.8 183.7 187.3 190.9 193.4 195.5 197.8 201.6 202.8 202.1 203.3 206 210.9 212.3 213 215 215.6 216.5 220 221 222.3 224.3 225.4 226.5 228 231.2 231.6 232.1 233.9 232.1 232.3 232.5 231.6 231.7 232.3 232.4 232.3 232.8 232.9 232.8 233.9 233.8 234 234.6 234.5 234.1 234.5 235.8 237.5 238.9 241.8 243.6 244.2 244.8 246.1 246.9 246.5 248.1 247.6 246 244.1 241.7 240.8 240.7 237.7 233 223.5 213.8 206.5 198.4 191.5 179.9 175.3 165.5 156.6 146.6 136.4 130 129.1 130.1 140.1 146 152.3 156.2 160.8 167.2 170.3 172.2 175.6 179.9 183.7 187.8 192.4 196.7 204.3 214.3 213.5 212.3 214.4 217.9 221.7 224.2 224.9 222.7 228.8 232.4 235 237.5 240.8 243.1 245 247.8 249.7 250.7 250 252.7 255.6 257.2 258.8 259 262.4 264.5 265.5 265.8 267.2 268.3 269 269 267.6 268.3 268.4 267.6 269.9 269.9 267.4 265.4 263.4 259.7 253.1 251.5 253.7 256.4 260.7 264 268 272.9 277.7 281 280.9 282.2 284.7 289.5 295.8 303.7 309 310 321.4 327.4 332 336 337.5 341.6 345.7 348.9 352.6 356.6 359.7 361.4 363.2 366.3 368.9 370.2 371.5 372.3 372.5 371.5 371.1 373.9 373 371.6
186.5 178.5 173.2 170.8 168.2 165.5 162.6 159.9 155.5 131 133.5 148 159.6 163.3 165.2 168.7 172.5 176.9 178.7 182 184.2 189.1 191.3 193.5 197.2 200.5 202.7 205.4 206.4 205.3 209.1 211.3 213.2 214.9 216 216.9 218.1 221.4 223.3 224.9 227.3 227.7 227.3 228.6 231.4 232.6 232.6 232 230.6 230.7 230.8 232 232.2 231.4 231.5 231.8 232 232.2 232.8 233.5 234.4 234.4 234.4 235.1 235.3 234.5 233.9 235 236.7 238.3 240.2 241.2 243 245 245.3 246 247.2 248.4 249.2 247.8 246 243.8 242.5 240.3 237 232 225.4 214.7 209.5 200.6 191.4 179.6 177.3 168.1 158.9 151.9 145.4 134.8 130.2 131 136 140.2 144.9 148.2 155.1 160.5 165.6 170.3 174 178.5 182.2 187.1 191.9 196.7 203.5 213.1 217.6 213.5 215.9 220 223.8 226.1 228.3 227.2 228.4 231.7 235.4 238.2 241.7 245.7 246.3 247.5 249.5 250.6 251.3 254.5 258.4 260 260.7 262.1 265.4 267.5 268.4 268.9 270.2 271.5 272.5 272.4 272.1 272 272.3 273.8 274.6 274.3 272.4 269 266.1 262.6 256.5 250.9 254.1 256.2 259.1 261.9 266.1 271 277 281 278.2 277.8 279.1 285.8 289.5 291.5 300.7 313.1 324 330.1 335 340.6 345.2 346.6 349 351.4 354.2 356 357.7 359.2 361.2 363.3 366.8 368.4 369.4 370.2 370.7 369.9 369 366.9 368.2 364.5
180 173 168.2 167.3 167.3 166.3 164.3 159.7 140.9 127.4 136.2 147.7 163.6 166.5 169.3 171.6 176.1 179.9 182.8 185 188.7 192.9 195.6 199.9 202.1 204.4 206.2 207.5 209.6 212.3 213.6 215.3 215.9 217.3 217.7 219.4 222.8 224.9 227 228.6 230.4 229.7 229.9 230.3 231.4 230.3 229.5 230.3 234.1 234.3 231.3 230.5 231 231.7 231.8 232.2 233 233.4 233.6 234.2 234.7 235 236.7 237.3 235.4 235.5 235.4 235.2 236.7 237.6 238.8 239.7 241.2 242.9 244.4 245.8 247 247.8 248.4 248 246.2 244.4 241.6 238.9 234.3 228.8 221.8 213.7 208 200.8 192.9 185.5 175.5 167.5 158.4 152.5 146.1 142.5 131.7 130.6 134.6 138.3 140.9 147.5 153.1 158.3 163.9 168.8 173.5 177.4 182.6 187.6 191.8 198.2 201.7 207.7 218.9 214.1 216.6 221 225.6 228.3 230 229 231 232.4 235.1 238.2 242.1 246.6 246.3 246.9 248.8 250.8 255.3 256.3 259.8 261.2 261.6 263.5 266.9 268.8 270.1 271 273.3 274.8 275.9 275.3 275.8 276.2 277.9 278.7 278.5 276.8 275.2 273.2 269.1 266.2 262.8 260.4 252.1 256.3 259.5 262.3 259.4 262.6 263.5 265.4 271.7 272.6 279.2 288.8 294.6 301 306.4 314.4 323.6 332 338.1 341.9 347.1 351.7 355.4 356.9 359.9 361.4 363.5 363.1 362.8 363.1 364.1 366 367.3 367.8 368.3 368.4 367.1 366 362.8 360.7
171.6 166.6 163.6 161 165.5 166.7 163.8 133.9 125.8 135.4 140.9 155.2 167.4 171.6 173.3 176.6 180.4 183 185.7 188.8 191 195.1 200.1 204.1 206.8 208.1 210.9 212.4 213.6 215.5 216.4 217.6 217.6 218.7 220.1 223.1 225.1 227.7 229.7 231.6 231.1 230.8 230.8 231.7 229.3 229.2 231.1 236.5 239.9 240.9 238.7 236.2 234.1 233 232.7 234.2 234 234.5 235.1 235.7 235.9 236.4 238 238.9 237.9 235.8 235.7 236.6 236.5 237.5 238.8 239.2 240.1 242.5 243.6 244.2 244.5 244.7 245.1 245.4 244.5 242 238.2 233.5 229.6 224 217.7 211.1 206.5 200.1 193.4 186.1 178.1 168.5 159.1 153.9 148.5 142.1 132.3 130.5 132.1 137.2 140.3 143.5 151 153.9 161.9 166.8 171.6 176.6 182.2 188.3 192.1 196.9 197.9 204.7 215.4 214.7 216.9 220.7 223.8 226 228.3 230.4 232.9 235.5 238.4 239.7 242.3 244.5 246 248.9 251.9 254.5 257 258.8 260.3 261.6 262.4 264.8 267.1 269.2 271 273.1 275.4 277.6 278.3 278.4 279.7 280.3 281.2 282 281.4 279.6 277.4 275.4 274.3 272.5 270.6 266.7 258.7 258.6 263.1 264.8 270.7 272.6 273.2 274.8 278.4 271.8 278.3 285.5 293.7 299.5 305.5 314.3 323.4 331.9 339.8 345 348.5 354.4 359.8 363.1 365.3 365.7 366.8 367.5 367.7 368.2 368 368.1 367.5 366.6 365.4 365.7 364.7 363.1 361.4 358.5
163.5 156.8 153.4 151.7 159.5 165.4 158.7 127.5 146.3 147.1 144.5 161.9 171.4 175.9 178 180.8 184.6 188.2 190.6 192.8 195.3 200.2 203.1 206.9 210 211.5 212.8 214.8 216.2 216.8 217.8 218.5 220.3 222 224.1 224.9 227.2 229.1 231 232.2 232.2 231 228.9 227.8 228.9 231.8 235.6 239.9 242.2 242.9 242.9 241.7 239.2 236.7 236.1 237 236.6 237.4 237.1 236.6 238.5 238.8 239.1 240 240.3 238.6 237.1 236.7 237.1 238 239 239.2 239.5 241.2 241.5 241.6 241.5 241.8 241.5 242 240.7 237.1 232.2 227 222.9 217.7 212.6 207.2 203 197.6 192.4 186.3 176.8 169 162.5 156.7 151.8 137.3 136.3 134.6 135.5 133 139 147 154.2 158.5 161.9 167.3 170.3 175.5 180.2 186.7 192 197.2 200.5 201.8 207.4 212.5 216.8 220.4 222.8 225.4 226.4 231.1 235.2 238.8 241.2 242.5 243.1 245.4 247.4 249.9 253.2 256.5 259.2 259.4 260.7 261.8 262.8 265.4 267.6 271.2 273.5 275.8 277.8 279.1 280.2 281.2 282.7 283.9 284.5 284.6 284.1 281.7 278.6 277.3 276.9 276.1 274.2 271.2 264.4 258.3 265.1 268.1 276.8 282.4 281.9 284.2 284.9 286.4 277.7 283 290 297.6 305.7 312.6 321.8 331.8 340.2 346.8 349.9 354.4 361.3 366 369 368.7 370.6 371.5 371.3 372 371.4 369.6 368.4 365.7 363.9 362.7 361.9 360.4 358.4 356.2
153.9 146.8 142.7 140.8 151 160.4 145.6 133.4 135.5 159.1 139.9 162.5 169.8 178.9 182.7 185 187.4 190.8 195 198.9 201 204.4 208 211 213.5 215 215.5 215.8 216.7 218.4 220.3 221.2 222.8 224.4 225.5 227.4 229.3 230.6 230.1 228 227.1 226.7 227.4 228.4 231.6 235.2 238.4 240.3 242.4 245.4 247.3 246.7 245 242.1 241.5 240.6 240 240.8 241.2 238.3 241 240.4 240.2 240.4 240.1 240.6 239.7 239 238.5 238.1 239.1 239.7 239.7 239.7 239.6 239.5 239.6 239.3 238.7 238 236.2 233.4 227.6 222.7 217.7 211.8 207.5 202.2 199.1 194.5 189.8 184.5 176.8 169.5 163.4 158.4 154.2 138 144.3 141 135 134.6 136.1 144.4 153.6 158 163 169.6 173.8 179.6 186.4 190.1 194.2 197.1 203.5 207.3 210 210.5 215.9 221.9 222.6 225.2 227.9 231.1 235.6 239.8 240.9 243.7 248.3 248.8 249.9 250.9 254.1 258 259.9 260.5 261.2 262.3 263.7 266.1 269.1 272 274.4 277.2 279.3 280.7 282.6 283.9 285.2 286.7 287.4 286.6 285.8 284.5 281.8 278.7 278.6 277.8 276.5 273.4 267.6 260.1 265.4 271.6 279.4 283.1 283.6 288.1 289 288.1 285.1 288 296.2 295.3 304.5 310.3 318.9 330.2 338 345.4 350.2 355.8 363 368.5 371.8 374.7 376 376.1 376.5 374.1 373.3 371.9 370.4 368.1 364.4 360.9 359.3 357.3 356 353.1
147.8 143.6 140.8 137 137.2 132.1 134.6 132.5 132.6 171.5 144.5 156.5 169.3 178.6 185.6 188.6 190.9 195.2 199.5 204.2 208.5 210.7 211.7 213.5 215.6 215.7 216 217.4 219.9 222 222.8 224.4 225.3 226.1 227.7 229.2 229 226.9 225.7 225.9 229.8 231.7 233.5 234.4 235 236.8 238.3 240.5 245.1 248.9 249.9 250.6 251 249 246 244.6 243.2 243.6 243.1 241.6 241 243.4 242.3 241.1 241.3 243.6 241.2 239.3 238.8 238.7 241.1 241 240.4 240.4 240 239.6 239.5 238.9 237.2 236.2 234.8 232.8 228.2 220.2 213.6 207.6 202.9 198.1 195.7 191.1 186.7 182.1 176.5 169.9 164.9 160.8 154.9 142.2 151.6 149.9 138.7 136.3 134.1 139.9 149.7 156.6 163.4 170.4 174.7 180.2 187.3 194.2 196.6 199 205.6 210.3 214.2 215 216.7 218.8 222.1 225.5 229.3 231.6 235.8 240 243.6 247.2 250.6 252 252.6 254.2 256.4 259.5 260.5 261.4 262.3 263.2 264.5 265.7 269.4 273.4 276.1 278.3 280.4 282.7 285.4 287.1 288.5 289.9 290.3 288.6 287.3 286.4 285.2 282.9 280.7 279.5 277.6 273.1 274.1 272 272.9 270.1 278.8 282.7 284.2 291 293.4 292.1 291.3 292 299.5 303.3 305 310.8 317.3 326.4 334.7 342.4 348.8 356.3 363.4 369.3 374.3 377.5 379.2 380.2 380.4 378.8 376.6 374.9 372.3 369.5 366.3 363.1 359.9 357.2 353.7 351.5
145.6 142 141.7 155.8 157.3 148.9 150 146.3 172.5 177.8 156.4 145 166.8 174.7 184.2 192.9 196.3 200 203.1 208.2 211.3 211.6 213 214.3 215.7 216.7 219.3 221.6 224 225.1 224.8 225.1 225.9 226.1 226.7 226 224.5 225.3 226.3 230.3 233.8 235.5 236.5 237.5 236.9 239.2 240.9 244.1 247.4 250.9 252 252.3 252.4 250.9 249.3 247.1 245.5 244.6 244.6 243.9 244 245.8 245.6 244 243.1 244.9 242.6 242.6 242.4 242.1 243.7 243.7 242.9 242.6 242.6 242.4 242.2 241.5 238.9 237.6 236.7 234.2 229.3 219.8 212.8 204.1 199.6 195.7 190.2 188.4 185.1 180.7 174.7 169.6 164.5 160 146.6 152.3 158 157.1 151 140.3 139.2 136 144.3 156.4 163.2 170.2 175.3 180.6 186.4 192.2 198.8 201.4 208 210.8 212.9 216.6 219.2 219.7 222.2 225.9 229.5 233.4 236.9 240.8 244.2 248.2 252.7 252.8 255.9 258 258.9 260.3 261.5 262.9 263.3 264.4 265.7 267.4 271.3 274.7 277.5 279.7 282 284.7 287.9 290.4 291.7 292.2 292.3 291.3 289 288.2 286.9 285.1 282.8 280.9 279.1 277.9 278.3 277.2 277.4 277.9 274.5 281.6 286.7 291 294 295.4 295.1 294.4 299.1 305.4 307.4 312.6 319.1 326.2 332.3 340 347.2 354.6 362 369.5 375.3 379.3 382.3 383.8 383.2 382.6 380.4 378.3 376 372 369.2 365.8 363 358.8 353.8 349.6
142.1 138.7 155.3 164.9 168.7 172.1 176.6 179.7 181.4 182.5 167.9 151.7 148.4 172.4 180.7 194.1 204.6 204.1 208.2 209.8 211.4 211.4 212.5 213.7 216.4 219.7 221.5 223.3 225.6 226.7 226.8 228 226.3 223.9 222.9 225.9 229.3 231.1 231.9 232.3 234.4 236.1 237.4 239.3 239.5 242.4 244.1 246.2 248.4 251 252 253.7 253.2 252.3 251.3 248.7 246.6 245.6 245.6 245.2 246.4 247.2 247.5 246.8 245.7 246.8 246.3 248 248.5 249.5 248.2 245.8 244.6 243.9 244.4 245 243.6 242.4 240 238.6 238.2 236 230.6 222.3 212.7 203.6 194.3 191.1 185.9 184.9 179.4 177.5 173.2 167.3 163.8 159.4 145.9 158 160.4 160.7 158.2 155.3 146.8 140.8 140.9 151.7 162 168.1 175.2 181 187.1 191 196.2 201.4 207.6 212.1 215.4 217.6 218.4 220.1 223.3 226.1 229.9 234.7 237.7 241.1 245 249.5 253.2 254.1 257.7 258.6 259.4 261.5 263.2 262.5 265.8 267.2 270.4 272.3 275 276.2 279 280.9 283.6 286.2 290 292.9 294.3 294.7 294.1 292.8 291.6 290.2 288.4 286.1 283.9 281.9 280.7 279.8 280.7 280 280.4 282.8 283.8 281.5 286.7 292 295.9 299.7 301.6 300.9 301 309.1 312.8 314.3 318.6 325.8 334.2 340.5 346.9 354.2 361.5 368.9 375.3 380.3 384.3 386.7 387.8 387 385.3 382.5 378.7 374.8 371.9 368.4 365.1 361.5 357.2 351.5
141.4 140 164.2 169 172 177.3 181.3 183.2 185.2 185.7 177.2 166.5 157.3 152.3 174.2 187.2 193.1 200.4 208.2 210.1 210.8 212.3 212.9 214.8 218.6 221.6 223.8 225.4 227.7 228.3 225.9 222.4 222.6 226 229.4 230.7 231.2 233.7 234.8 234.9 236.8 239.9 242.6 242.8 242.2 243.5 245 247 249 250.4 251.3 254.6 255.8 254.2 253.4 252.1 248.8 247 246.9 247.3 247.5 248 248.8 248 246.8 248 248.8 250 250.4 251.6 251.1 249.4 247.9 247.5 247.6 247.3 245.3 242.8 240.9 239.6 239.3 236.2 229.4 222.6 213 203.9 197.8 192.8 186.7 175.5 175.7 172.3 170.3 165.6 164.1 152.3 152.6 161.3 162.7 163.4 162.6 160.8 157.7 148 140.2 140.6 160.5 167.9 174.3 181.3 186.4 190.7 194.8 199.3 204.4 208.9 215.9 222.7 222.5 222 224.6 228 231.4 235.4 239.2 242.5 246.9 250.6 251.9 255.8 257.1 258 259.6 260.5 262 264.9 269.2 271.3 273.6 275.9 278.5 279.8 282.2 284.4 285.8 289 291.4 294.2 296.5 296.3 295.2 294 293.3 292.3 291.9 288.1 284.6 282.6 281.9 282.7 283.6 284.3 284.2 285.8 287.1 289.8 287.9 292 297 302.9 307.8 308.8 310.3 314.4 318.7 322.9 323.7 327.6 335.3 342.7 348.5 355.3 363.8 369.5 375.2 379.2 384.7 388.2 390.7 390.5 388.7 386 382.2 378.9 375.4 372.7 368.8 364.5 361.2 356.1
144.3 159.8 165.7 171.9 176.6 180.3 184.2 187.3 188.9 189.1 187.7 178.7 168.9 158.8 158.5 178.4 184.3 193.5 201.1 207.4 211.2 212.6 214.5 216.2 218.8 222.9 224.5 224.7 223.2 221.8 223.6 227.4 229.7 231.6 232.7 233.3 233.2 235.4 236.9 238.3 242.1 245.4 248.3 248.2 247.6 247.2 246.1 247.3 249.7 253.7 257.2 257.8 259.3 256.7 255.3 255.3 252 249.4 248.4 248.9 249 249.2 249.7 249.3 249.2 249 249.8 250.3 251.2 253.1 254.1 254.3 253.4 252.5 251.3 249.3 247.4 244.5 243.3 242.5 240.8 237 231.9 222.1 214.4 206.3 196.7 188.9 179.4 171.2 169.4 167.2 161.5 155.8 155.6 147 160.3 162.3 163.9 165.1 166.1 165 163.2 155.3 142.8 139.1 155.3 168.4 174.8 181 186.6 191.7 195 198.2 202.9 207.9 216.2 224 223.8 223.3 226 228.8 232.1 236.1 240.7 243.8 247.2 250 255.9 257.7 258.2 257.9 260 264.1 266.5 269.7 272.2 274.4 276.2 278.5 281.1 282.9 285.3 287.6 289.4 291.8 293.1 295.6 297.9 298.1 297 295.1 293.8 292.3 290.6 288.5 286.7 286.6 284.4 285.2 286.2 287.2 287.1 289.4 292 293.8 295.4 294.9 297 305.3 311.8 314 310.7 319.5 322.4 326.6 330.1 332.9 338.7 347.6 351.9 358.6 365.5 370.1 375.9 381.3 384.3 388.2 391.2 391.7 390.5 388.3 385.1 382.9 379.1 374.2 371.3 366.5 363.1 358.8
148.2 163.5 168.1 172.9 179.2 182.8 186.1 189.2 191.5 192.2 192.7 192.9 187.9 173.6 159.7 158.1 164.1 181.8 194.3 202.8 210.1 212.8 215.1 216.9 219.5 220.7 218.6 218.7 222.8 226.5 228.6 230.1 231.2 232.8 234.3 236.1 237.1 238 240.4 243.7 247.6 250.8 251.9 252.5 251.9 251.9 252 253.1 254.8 257.2 259.4 259.9 260.5 259.1 258 258.7 255.5 253.2 250.6 250.5 250 250.1 250.4 251 252.8 252.1 252.4 253.8 254 254.3 254.6 255.9 257.3 257.6 255.9 253.8 250.4 248.7 246.9 244.5 241.9 236.9 230.1 219 209.2 198.4 191.7 187.4 189.5 184.3 179.3 175.6 171.4 168 164.3 150.7 162 163 165.1 166.6 168.5 169.7 169 162.8 148.1 139.2 146.8 164.9 174.3 181.9 187.2 192.1 195.3 198.9 203 210.3 215.8 219.2 222.8 225.4 227.4 230.3 233.9 237.9 241.5 243.4 247.6 253.9 257.5 258.9 255 259.8 262.3 265.1 267.8 271.6 274.1 276 278.5 281.2 283 284.4 286.7 290.1 292.6 294.5 295.4 297.7 299.9 299.9 299 297.1 293.9 291.2 290 288.7 288.4 289.5 289.3 287.5 287.5 288.1 289.3 292 295.1 296.9 299.5 300.7 299.3 305.9 314.2 318.6 319.9 323.9 326.6 329.3 331.9 335.7 341 350.1 355.7 360.9 367.3 371.6 377.5 381.1 384.6 388.4 390.9 391.5 391 389.7 387.9 383.2 380.3 377.2 373.4 369.2 365 361.6
160.8 162.9 168 172.2 178.6 183.6 187.5 189.8 192.3 194.7 195.9 197.6 198.4 193.1 178.2 172.7 166.7 169.9 190.1 199.1 206.8 206.1 210.2 215.2 212.3 218.3 222.1 224.7 226.6 228.1 230.3 230.8 232.6 235.3 238 241 243 243 244.9 248.3 251.2 251.3 251.9 252.2 252.8 253.1 253.6 255.5 257.4 258.5 259.9 260.3 260.8 260.4 260 261 259.2 257.1 253.2 252.2 251.4 252.2 251.9 253 255 254.8 256.2 257.6 257.8 257.9 257.4 257.9 259.3 260.1 259 254.9 249.9 247.4 247.9 244.6 240.8 235.2 230.1 217.6 206 206.5 204.5 201.7 196 187.3 181.4 176.6 173.1 169.3 158.9 154.5 164.1 165.9 166.2 168.5 170.2 172.5 172.8 168.9 159.2 142.9 144.3 158.4 172 180.5 187.1 192.2 196.5 200.7 204.7 210.8 214.2 218.1 222.2 226.2 228.7 232.4 235.3 238.6 241.4 244.3 249.7 255 256.3 253.8 259.2 262 264 266.5 269.2 273.2 275.6 278 279.9 282.6 284.1 285.8 288.4 291 294.2 296.7 298.3 300.3 301.8 301.5 300.1 297.3 293.5 291.3 290.6 290.3 290.1 291 291.7 290.6 289.5 290.1 293.3 296.4 298.8 300.9 302.9 305.1 304.1 308.4 317.3 322.4 324.5 325.8 329.9 332.6 335.4 340.2 344.2 351.4 357.1 362.3 367.9 374.5 379.6 383.8 385.4 389.3 391.8 391.7 392.6 392.3 391.7 388.2 384.7 379.8 374.9 371.3 367.3 364.6
164.2 165.2 165.9 171.6 176.5 179.6 185.7 190.2 193.7 196.8 199 200.7 201.5 203.8 191.9 187.9 178.8 167.2 177.2 193.9 194.3 179.6 183.8 205.8 216.7 223.3 225.9 228 228.4 228.5 230.3 231.6 234 237.5 240 243.7 245.8 247.3 249.2 251.1 250 249.9 250.8 251.6 252.1 253.2 254.9 256.2 257.5 258.8 260.2 260.2 260.9 261.1 261 262 262.5 261 257.7 254.6 253.5 253.2 253.8 254.5 256.1 256.7 257 258.5 259.8 259.7 258 257.2 256 255.4 255.6 252.7 250 248.8 248.1 244.1 239.7 234.8 230.1 219.1 219.3 217.3 213.3 204.2 201.8 192.9 187.5 179.2 174 169.5 157.3 162.7 168.7 171.1 174.3 170.8 172.9 174.4 176.8 174.1 164.3 146.5 144.6 147.4 168.3 179.6 186.4 192.2 197.4 201.9 206.4 211.4 213.5 217.6 221.4 225.7 228.2 231.9 234.3 236.9 240.6 245.7 250.7 254.8 251.1 257.6 260.2 262.4 264.3 267.6 271 274.6 277.3 279.4 281.6 284.1 285.5 286.6 287.8 290.3 293.3 296.2 298 299.7 300.6 300.3 297.6 294.8 292.2 290.7 291.2 291.9 292 292.6 292.9 293.5 293.7 295.8 299.5 301.8 303.4 305.3 306.8 309.1 312.1 312.5 320.6 325.2 328.9 330.7 331.9 333.9 336.2 340.4 345.9 352 357.7 364 370.1 376.4 380.4 385.7 388.1 390.5 392.4 393.1 395 396.2 396.6 394.3 391 385.1 380.1 374.1 370.1 366.9
163.2 167.3 170.4 175.6 178.8 180.4 184.7 189.7 195 199.7 203.5 205.2 207.8 207.6 209.3 206.4 197.7 183.2 179.6 179.9 179.2 192.4 201.4 192.1 215 221 226 228.1 228.6 229.4 231.5 234.6 237 239.4 242.1 245.3 247.5 248.6 249.8 249.5 248.8 248.8 250.1 251.1 252.2 253.8 254.8 256.4 257.8 259.4 260.7 260.6 261 261.7 261.9 262.5 262.8 262.3 260.3 259 256.2 256.3 256.2 256.9 258.3 258.1 258.3 258.4 258.6 258.3 256.8 255.5 254.7 254.1 253.2 251.8 251.4 251.2 248.2 244.4 240.7 233.2 232.3 231.3 231.8 227.5 223 217 211.5 203.9 195.6 183.8 175.3 169.4 160.3 166.5 172.3 175.7 177.1 178.1 175.8 177.9 180.2 177.3 170.4 163.3 144.6 147.5 162.8 176.8 184.7 189.3 195.5 200.6 202.9 207.3 213.1 216.1 219.8 223.8 227.9 231.1 234.5 238.1 241.8 245.7 249.4 249.3 255.9 257.9 259.9 262.7 266.2 269.1 273.2 276.2 278.7 281.1 283.5 285.6 287 287.3 287.7 288.5 290.1 290.9 291 290.6 291.6 292.3 291.7 290.9 289.5 289 290.7 292.5 294.1 294.4 294.7 296 298.6 301 303.2 306.1 307.4 308.4 313.3 316.6 320.3 314.7 327.6 332 334.6 336.9 341 344.1 343.8 343.8 344.8 349.8 358.3 365.8 372 377.6 383.4 387.4 390.6 392.4 394.9 397 397.5 398.9 399 398.7 397.5 393 388.9 382.8 375.7 372.6
166.3 170.9 175.4 177.9 181.1 184.9 187.5 192.9 196.4 200.9 206 210.1 211.4 211.6 213.8 215.5 214.9 212.9 196.7 197.8 203.1 205.8 210.7 212.4 206.7 211.2 225.7 229.3 230.3 232.6 234.9 236.9 238.3 240.2 243.2 245.4 246.6 247.5 247 247.6 248.5 249.7 250.8 251.3 254.5 256.9 258.6 260.2 261.6 262.8 264.2 264.4 264.4 264.7 263.7 263.8 263 262.8 262.7 261.8 260.4 260.6 259.2 259.7 260.7 260.8 260 260 259.5 257.8 257 256.2 255.1 253.9 253.2 251.9 252.1 251.1 248.8 245.6 242 239.2 237.8 237.3 236.8 233.8 228.5 225 218 210.1 202.5 190.5 178.7 169.3 165.4 172.3 175.8 176.9 177.5 177.8 179.5 181.7 183.5 181.6 174.5 168.5 149.2 146.2 154 169.5 179 186.9 191.9 199.1 206 208.8 212.6 216.7 221.1 225.3 229.3 233.3 235.9 239.3 242.3 244.7 246 251.8 255.5 257.6 260.7 265.2 267.6 271.3 275 278.4 280.4 282.6 285 286.5 285.6 281.3 282.3 282.1 277.7 278.7 276.9 276.7 278.5 280.6 284.2 284.4 286.1 288.3 290.4 294.4 296.4 296.8 296.4 299.2 303.7 306.7 308.2 310.7 311.9 314.3 319 323.4 327 326.3 325 336.7 340.6 344.1 347.5 350 350.6 351.6 353.5 354.2 357.6 366.7 374.4 379.2 385.5 389.9 393.1 395.3 397.8 399.5 400.9 401.5 401 401.6 401.9 399.9 396.8 392.9 388.1 383.4
165.4 173.7 177.4 180.5 182.6 190.2 194.6 198.2 202.2 205 208.9 212 215.1 217.8 219.2 220.4 220.7 220.2 219.3 218.8 218.5 219.8 217.9 216.4 224.6 223.5 216.1 229 231.4 231.9 236.4 237.2 238.7 240.1 242.6 243.3 244 244.8 246 246.7 250.4 252.8 253.5 255.1 256.5 258.2 259.5 261 262.6 263.3 264.5 266.9 268.4 268.4 267.4 266.8 265.1 264.5 264.4 264.5 264.4 264.3 262.9 263 263.5 262.8 261.9 261.3 260.3 258.6 257.5 256.9 256.1 255.4 255.2 253.7 253.4 251.5 249.1 245.7 244 243 242.3 241.6 240.4 238 234 229.2 223.3 215.9 206.7 195 182.3 170.7 166.6 175.6 178.1 178.4 179.2 180.5 182.8 185.9 186.8 184.7 180.6 173.1 162.2 145.9 150 166 180.8 187 193 201 208.9 216.4 217.2 219.1 223.5 227.5 231.1 234.4 237.5 239.5 241.4 242.4 246.8 251.3 254.9 257.9 262.4 266.2 269.5 272.9 276.4 279.8 282.2 283.5 283.7 279.8 274.5 270.3 271.4 268.5 265.4 264.3 266.5 266.6 269.9 272.6 278.7 283.2 286 287.8 291.5 296 297.7 298.8 299.3 304.6 308.1 311.4 312.9 313.9 316.9 320.6 325.2 329.3 331.9 333.3 332.5 328.7 338.8 346.1 349.5 352.4 354.3 356.4 359.8 361.5 363.1 367.6 374.7 380.7 386.2 390.8 395.2 396.8 400.3 402.5 404.1 404.8 404.8 404.6 404.6 404 401.8 398.6 395.2 389.1
163.4 174.1 178.2 182.5 187.3 193 197 200.2 204.4 210.4 213 215.2 216.9 218.7 220.2 221.3 222.8 224.5 225.2 224.8 225.2 225.4 228.1 224.5 229.6 230.2 228 225.6 226.2 228.9 224.5 227.4 234 239.7 240.9 241.9 242.6 243.4 245.5 248.6 251.1 253.5 255.3 256.4 257.5 259.9 263 265.1 265.8 267.2 268.8 270.3 271.4 272.1 271.5 271 269.7 268.8 267.2 268.5 268.2 268.6 269.2 269 267.8 266.4 266.1 264.6 262.5 260.5 259 258.1 259 258.9 258.1 256.7 255.3 252.1 249.6 248.9 246.7 246.6 245.6 245.3 242.6 240.3 236.4 231.2 225.5 218.5 210.9 199.4 185.4 169.7 173.4 176.7 180.7 182.9 182.7 184.6 186.6 188.9 189.9 187.2 183.9 180.1 170.7 147.7 148.8 163.6 177.3 186.4 194.3 200.2 207.7 215.7 221.4 222.2 225.1 229.4 232.1 235.4 237.3 238.4 239.7 241.9 246.5 250.3 254.4 258.6 260.6 266.1 269.6 272.4 275.6 278.6 279.6 277.3 271.2 263.8 261.2 257.5 256.2 255.9 256.6 257.3 260.5 265.3 269.5 275.1 279.7 282.2 284.6 287.1 291.5 296.5 299.7 301 302.1 308.8 311.9 314.7 315.5 319.2 323.7 326.5 330 334.3 336.1 336.7 337.8 341 343.3 342.8 350.2 353.6 357.3 361.2 364.3 367.1 367.7 371.2 375.6 380.9 387.4 392.2 396.7 399.1 401.8 405.3 407 407.7 407.6 407.1 407.2 406.8 404.8 402.1 399.2 395.6
161.9 171.3 177.4 184.4 189.8 195.2 199.1 202.6 210.5 216.2 215 218.4 219.8 221.4 222.7 223.8 225.1 227.5 231.2 231.7 231.7 231.7 232.9 232.6 232.2 231.9 231.8 231.1 232.4 233.7 235.7 235.2 229 233.5 237.6 241 242.4 243.7 245.3 249.8 253.5 255.7 255.9 257 258.4 261 263.8 266.2 268 269.4 270.9 271.3 272.2 273 273.2 272.9 272.7 272.1 270.7 271.4 272.4 274.3 275.8 275.4 275.7 276.2 274.6 274 271.7 265.5 263 261.6 262.2 262.7 263.4 262.2 259.5 255.7 251.5 251.4 250.6 249.1 248 246 244.1 241.1 236.9 231.7 225.9 219.2 212.2 203.8 189.5 174.4 173.8 182 184.7 186.3 186.8 188.6 191.1 192.4 192.9 190.3 187.4 184.8 177.2 151.8 148.1 160.4 175.4 186 193.1 199.2 205.7 211.8 220.9 227.1 226.2 229.7 232 234 236.6 237.1 239.5 241.1 245.5 249.9 254.3 258 260.2 263.8 267.5 270.1 271.9 272.4 269.8 262.8 256.4 251.4 250.4 248.7 247 247.8 250.6 255.5 260.3 266.2 270.8 275.2 275.9 281.9 284.5 288.5 294.9 300.1 302.2 303.4 305.7 311.8 315.1 317.7 317.3 324.2 330.4 331.8 333.9 340.1 342.3 342 342 344.2 347.8 348.7 352.2 356.5 361.2 365.3 369.4 371 371 373.7 376.6 383.2 388.8 393.8 397.7 402.2 404.6 407 409.8 411 411.1 411 410.7 409.9 408.4 406.7 402 399.4
156.4 168.7 178.8 184.4 190.6 197.3 200.6 206.7 210 212.9 217.2 220.1 222.4 224.3 225.6 226.6 228.6 231 233.1 233.8 234.8 235.3 236.4 237 234.9 233.5 233.7 233.5 236.4 236.9 237.5 238.8 237.6 232 237 241.1 242.3 243 245.6 248.2 251.7 256 257.9 259 260 261.6 263.7 266.6 268.9 270.9 271.8 271.7 272 272.9 273.5 276.3 277.6 276 274.6 274.3 276.6 279.4 281.9 282.8 281.1 280.2 279.6 277.9 275.5 271.3 270.8 268.8 267.3 268.8 268.1 266.4 261.9 256.5 255.1 253.7 252.2 251.5 249.3 247.5 244.7 241.1 236.3 230.3 224.2 218.2 211.8 204.1 191.4 174 177.1 184.3 187 188.7 190.5 192.6 194.7 196.2 194.9 192.1 191.4 187.8 177.9 156.5 148.9 151 172.5 183 192 198.7 203.3 209.3 216.5 224.7 227.5 230 231.2 232.9 236.2 237.7 238.6 240.4 244.3 248.7 253.3 256.8 257.5 258.4 259.3 258.6 260.9 259.1 254.2 250.4 246.1 243.4 241.5 241.2 244.4 245.8 249.9 255.5 261.9 262.4 267 274.8 280.3 283.9 288.8 294.6 298.7 301.5 305.3 307.5 310.4 315.3 319 322.1 321.8 330.2 336.1 337.6 340.8 345.9 350.1 351.5 350.4 350.3 351.4 355.8 352.2 359.9 364.3 368.6 372.3 374.9 375.8 377.8 381 384.3 389.3 394.8 399.7 404.2 408.1 408.9 410.4 413.3 414.3 414.6 414.4 413.2 411.8 410.2 406.2 402.7
152.4 165.8 174.7 183 188.4 197 199.4 203.3 211.2 216.6 220.3 221.4 225.2 227.3 228.1 229.7 233.2 234.7 235.8 237 238.2 238.8 239.2 240.1 239.4 238.9 237.7 237.4 238.7 240.5 240.4 240.4 239.2 235.5 233.5 237.3 240.8 242.4 243.6 247.1 250.9 255 258.6 260.9 261.6 262.9 264.3 265.5 267.3 269.8 271.3 271.9 273.6 275.8 276.6 279.1 280 281.3 278.8 277.5 281.1 284.7 287.8 289.2 285.7 282.8 281.4 279.4 277.4 276.7 275.2 273.3 271.6 271.8 271.1 267.3 263.9 260.9 258 255.7 254.2 252.3 250.7 247.8 243.7 239 233.3 226.9 220.8 212.3 205.4 187.5 177.5 176.1 177 184.3 187.7 190.3 194 197.2 198.2 198.4 196.4 195.2 195.5 191.2 182.7 167.4 148.9 148.5 161.2 180.4 189.3 195.3 201.6 207.4 213.5 218.7 225.5 226.5 228.5 231.8 234.4 237.3 238.4 240.3 243.6 247 250.6 253.4 251.8 248.6 247.5 245.9 247.2 245.4 242.5 239.9 235.9 235.9 238.1 240.7 242.5 248.3 254.1 258.4 261.6 265.8 271 276.4 281.3 286.2 291.7 296.7 301.4 304.9 308.7 310.2 315.8 319 323.5 327.2 330.7 335.2 341.5 344.3 345.1 350.8 355.5 358.1 359.6 361.4 360.9 365.2 364 364.6 368.2 371.5 375 378.4 380.3 381.9 385.1 387.3 390.7 395.6 399.5 404.1 407.2 410.3 412 413.1 415.2 415.5 415.9 416.4 415.3 413.9 411.1 408.4
154.4 157.3 172.7 182.1 183 194.7 198.4 206.4 211.8 217 222.4 226.1 226.3 231.2 232.2 233 234.1 236.1 238.1 240 240.8 242 243.3 243.6 243.4 243.2 242.6 240.9 241 242.1 242.5 241.7 241.3 238.6 234.6 237.6 238.4 240 241.9 245.1 249.4 253.8 259.6 262.6 263.7 264.9 265.8 268.7 270.8 272.1 273.5 274.4 276.1 279.2 279.3 280 281 281.7 282.7 282.2 285.2 288.8 288.3 287.7 286.2 284.8 282.5 281.1 279.6 278 276.3 275.3 274.5 273.4 271.6 268.3 266.6 263.9 260.8 257.9 255.6 252.7 250.1 246.7 241.7 235.9 227.9 218.9 213.9 207 193.4 184.4 175.7 185.1 187.4 188.6 188.1 192.4 196.9 200 200.6 200.6 198.3 199.3 198.5 195.1 188.3 177.3 150.2 150.5 149.9 174 184.2 192.7 199.4 205.4 209.7 214.1 218.8 220.6 227.4 232.6 235.6 236.7 237.5 239.7 242.8 245.2 247.2 246.8 243.7 239.2 237.5 234.7 235.5 233.9 232.2 232.1 229.4 229.5 234.9 241 246.3 252.4 255.8 259.3 262.6 268.9 272.6 278.3 282.8 288.4 293.3 298.9 303.9 307.1 311.3 315.6 317.9 322.5 326 330.7 334.9 340.6 346.5 349.6 350.1 353.5 356.9 361.2 364.2 366.5 368.5 369.4 368 369.8 373 376 378.9 381.9 384.8 387.3 389.9 392.9 395.8 398.6 402.2 405.3 406.2 408.8 411.6 413.1 414.5 415.6 416.8 417.4 417.6 417 414.4 412.9
155.6 158.9 165.8 180.8 189.5 195.4 201.1 206.5 211.8 219.2 223.7 229 227.9 230.4 233.4 234.8 236.6 237.9 238.9 240.5 243.5 245.4 247 247.8 247.3 246.5 246.3 244.1 243.2 243.7 244.1 243.8 243.3 242 237.1 236.3 239.8 244.1 244 244 247.7 251.7 258.8 263 264.5 265.8 267.6 269.5 272.1 274.2 275.5 276.8 278 282.4 283.5 282.3 283.1 283.1 284.1 287.3 288 288.5 288.3 287 286.3 284.4 283.4 282.1 280.8 279.8 278.7 277.9 276 274.9 275 273.5 270.7 267.3 263.2 260.4 257.5 254.3 250.5 246.2 240.5 230.1 219.3 212.5 207.2 195.5 182.5 179 181.7 191.2 191.1 192 191.6 193.6 197.2 200.1 201.7 202.2 202.3 203.4 200 196.9 193.8 185.6 158.8 151.7 148.7 169.8 181 188.6 194.9 200.9 205.1 209.8 216.7 221.2 226.5 231.4 234.5 235.6 236.7 238.2 239.4 240.1 240.6 238.1 235.9 232.7 229 227.8 227.8 225.1 224.1 227.1 233.9 237.9 241.4 244.6 248.6 252.8 257.9 262.2 265.7 271 275.7 279.3 283.5 289.9 296.9 301 305.8 310.2 314.4 318.8 322.8 325 329.9 333.8 337.9 345.3 352.5 354.3 354 355.3 358.7 362.8 366.5 369.1 370.8 371.6 370 372.8 376.1 379.7 382.7 385.7 387.6 390.3 393.8 397.2 399.4 398.5 403.3 406.6 408.5 410.1 411.7 412.6 414 414.5 415.6 416.8 417.7 417.6 415.6 414.3
154 158.3 165.7 178.9 189.9 196.9 203.4 209.9 215.2 220.6 225.9 229.4 229.7 231.8 234.2 236.2 237.3 239.2 240.3 241.8 244.7 248.1 249.7 251 251.2 250.4 250.1 248.9 246.3 246.3 246 246.2 246.2 244.4 242.1 238.2 240.5 246.1 247.2 247 247.4 250 254.5 260.9 264.4 266.2 267.6 269.8 271.9 274.9 276.5 278 279.5 283.9 286.1 289.1 289.5 287.5 289.5 289.7 289.7 289.3 289 288.7 287.7 285.5 284.5 283.4 282.6 281 280.2 279.4 277.7 276.5 276.6 275.1 273.5 270.3 266.4 262.6 259.2 255.8 250.4 245.1 238.1 226.9 214.9 204.5 190.9 183.5 182.9 188.8 194.2 194.8 195.1 195.2 194.6 195.8 197.7 199.9 203.1 205.5 205.9 205.6 202.8 199.8 196.2 190 174 152.9 152.6 164.5 176.7 182.6 185.7 196.9 202.8 207.6 213 216.3 224.1 227.9 231.9 234 229.9 233.2 234.4 235.7 232.7 228.2 228.4 224.5 222.2 218.9 218.7 218 222.4 225.6 233.1 237.5 241.3 245.6 249.1 253.3 258.8 262.9 267.7 273 277.4 281.4 286.2 292.2 298.9 304.1 308.3 312.3 316.3 320.4 325.6 328.5 332.4 336.3 341.4 347.5 352.5 356 357.5 357.8 360.8 365.4 368 369.2 371.2 373.2 375.6 378.3 380.4 383.2 385.8 388.3 391.6 391.3 396.2 398.8 401.4 403.2 403.9 405.1 408.5 410 411.7 413 413.3 413.1 414.4 416 416.6 417.1 415.2 413.4
163.7 157.2 164.1 180.2 189.5 197.4 204.6 211.7 217.9 223.4 228.7 230.7 232.5 234.7 236.8 239 241.1 243.1 244.6 246.1 247.5 249.4 252.1 254.3 254.4 254.1 253.5 252.7 251 251.3 250.5 248.6 248.7 247.1 245.2 242 239.6 247.6 249.8 249.8 248.6 249.8 253.3 258.2 263.1 266 267.9 269.4 271.9 274.8 277.4 279.3 281.9 286 286.7 290.9 292.2 291.8 292.2 292.7 292.7 292 289.8 289.4 288.7 286 285.4 283.5 283.5 282.6 281 279.9 279 279.9 280.8 278.6 276.4 273 270 265.9 262 257 251.4 243.5 232.7 220.2 211.1 201.8 187.8 185 191.1 196.5 198.9 198.4 198.1 197.9 199.3 200 201.4 203.4 205.8 208.1 207.9 207.5 205.8 203.6 198.8 193.4 180.9 153.9 155.3 159.5 167.9 182.6 189.6 194.8 200.5 205 207.5 214.4 219.2 224.3 227.8 229.2 221.5 228.3 226.2 224.3 221.6 217.7 218.2 213.6 213.6 211.9 211.7 216.3 219.1 223.9 229.9 236.5 240.2 244.9 249.6 253.9 259.5 264.9 270.5 276 281.1 284.8 289.5 294.6 301 306.9 311.9 314.9 318.1 321.8 327.7 330.7 334.6 337 342.9 347.4 352 355.2 358.3 360 362.7 367.2 369.4 370.2 372.7 376.7 380.3 382.6 386.1 388.2 390.4 392.9 395.1 395.9 398.3 400.6 402.6 404.5 405.7 408.2 409.2 409.4 411 413.4 414.4 414.5 414.8 415.1 415 415 413.6 412
