ncols 200
nrows 82
xllcorner 310000
yllcorner 102650
cellsize 50
282.2 281.6 281.1 280.6 279.7 278.9 278 276.8 275.6 274.3 272.9 271.7 270.5 269.5 268.2 266.9 265.3 264 263.1 261.8 260.5 259.5 259.1 258.6 258 257.3 256.5 256 255.6 255.3 255.4 255.8 256.2 256.7 257.4 258.9 260.3 262 263.7 265.5 266.8 268 268.8 269.4 270.1 270.3 269.5 268.6 267.7 266.8 265.8 264.3 262.8 261.4 260.2 258.9 257.6 256.1 254.8 253.7 252.5 251.1 249.6 248.6 250.4 251.9 252.4 252.2 251.9 251.3 249.8 247.8 248.9 251 253 255.2 257 257.9 258.3 257.6 256.9 256.2 254.3 252.6 250.7 248.2 246.4 244.2 241.3 238.5 227.9 234.6 240.3 239.9 235.8 224.7 233.3 237.7 241 243.9 246.3 249.7 253.3 256.6 258.6 260.1 261.2 261.9 262.4 262.5 262.3 262.2 261.5 260.9 260.2 259.4 258.9 258.3 257.5 256.1 254.9 253.4 250.5 245.8 240.1 234.1 226.9 217.2 212 207.8 204.9 204 202.1 200.2 198.9 200 200.7 197.7 197 193.4 187.8 182 177.1 171.6 166.9 160.1 151.3 150.4 158.2 163.4 168.6 173.5 178.7 184.8 190.9 196.9 202.9 208.7 218.5 230.6 247 256.2 258.3 257.7 254.4 245 238 227.1 220.8 215.7 210.7 205.7 200.9 194.7 189.1 189 184.9 179.8 177.8 174.6 171.2 168.3 165.8 166.4 167.5 168.3 165.7 162.7 159.5 155.9 155.6 153.5 151 147.8 144.4 141 138 135.1 131.5 128.7
282.3 281.8 281.3 280.8 279.9 278.7 277.5 276.3 275.1 274 272.5 271.2 269.6 268.4 267.1 265.7 264.5 263 261.9 261.1 260.2 259 258.2 257.4 257.1 256.5 256.2 256.7 256.6 256.6 256.9 257.2 257.5 258 259.1 260.5 262 263.7 265.3 266.5 267.7 269 269.8 270.4 270.8 270.9 270.3 269.4 268.5 267.5 266.2 264.7 263.3 262.1 260.9 259.6 258.2 256.8 255.9 254.5 252.9 251.2 249.6 251 252.1 253.6 253.6 253.3 253 252.3 250.7 248.9 250.8 252.8 254.8 256.9 258.2 258.8 258.9 258.6 257.4 256.2 254.5 252 249.8 247.9 246.2 244 241.1 234.9 232 240.5 240.9 239.9 235.8 230.1 237.2 240.3 243.1 245.7 248.3 251.5 255 258.2 260 261.2 262.3 262.7 263.2 263 262.8 262.2 261.5 260.9 260.2 259.5 258.7 257.7 256.3 255 254 252.5 250.5 246.6 240.7 232.9 224.4 216.1 208.8 202.1 197.6 195.6 193.8 192.8 191.8 192.2 191 190.3 188 184.9 178.3 173.3 169.1 167.2 164.3 157.8 150.2 149.8 156.6 162.1 168 173.9 179.6 185.8 192 198.1 204.2 211.1 220.6 233.3 249.8 256.8 258.5 258 254.8 247.3 237.9 227.2 219.3 212.3 206.9 201.6 195.2 187.6 185.1 184.2 180.6 175.6 171.1 167.9 163.5 162.6 160.5 161 162.7 164.5 162.1 159.1 156 153.5 152.7 150.9 148.2 144.9 141.6 138.4 136.3 133.4 130.1 127.6
282.4 281.8 281.3 280.5 279.3 278.2 277.1 275.6 273.5 271.2 269.9 268.9 268 265.5 262.7 261 261.1 260.9 257.4 258 257.6 256.1 255.6 255.3 255.8 255.5 255.2 255.8 256.5 256.6 257.4 258.1 258.6 259.7 260.8 262 263.6 265.1 266.3 267.5 268.7 269.9 270.5 270.9 271.3 271.3 270.8 270.1 269 267.9 266.6 265.2 263.9 262.7 261.5 260.3 259 257.6 256.2 255.4 253.5 251.7 250.5 252.2 254.1 255.1 255.4 254.8 254.2 253.2 251.3 250.8 252.3 253.8 256 258 259.2 259.6 259.7 259.5 257.9 255.7 254 251.5 249.6 247.1 245.8 243.7 240.4 232.5 238.6 242.1 241.9 240 233.6 235.9 240.1 242.8 244.7 247.7 250.8 253.9 257 259.4 261.2 262.3 263 263.3 263.6 263.5 262.8 262.2 261.5 260.9 260.2 259.4 257.6 256.8 255.3 253.9 251.6 251.9 250.1 247.6 244.7 237.6 227.5 216.1 209.1 202.6 196 189.5 186.5 185.7 184.9 184.6 182.5 184.6 180.6 175.4 170.4 167.1 164.7 162.9 160.2 155.4 148.6 149.2 156.8 162.4 169.1 175.8 181.9 187.8 193.4 199.7 206.3 213.1 223 236 250.9 257.6 258.7 258 254.9 250.2 241.2 227.8 217.7 210.9 204.2 197 189.2 181 177.9 180.3 175.3 170.9 165.8 162.1 160.5 161.3 156.4 156.4 158.7 160 159 156.4 153.4 151.3 149.2 147.4 145.5 142.3 139.1 136.8 134.7 132.4 129.1 126.3
282.2 281.6 281 279.7 278.4 277.3 275.1 272.8 270.7 268.5 265.2 261.3 258.8 257 252.6 250.5 250.3 248.5 247.2 245.8 243.6 242.6 246 248.9 251 252.8 253.3 254.2 254.8 256 257 257.9 259.3 260.3 261.4 263.2 264.8 266.2 267.3 268.5 269.6 270.3 270.9 271.4 271.7 271.6 271 270.3 269.5 268.4 267 265.9 264.7 263.3 262 260.9 259.9 258.5 256.9 256.3 254.3 252.4 252.4 254.2 255.4 255.9 256.5 256.4 255.2 253.8 252.1 252.5 254.2 255.7 257.2 258.9 260 260.6 260.5 259.8 258.2 255.9 253.7 251.1 249.1 247.5 245.2 243 238 238 242.5 242.3 241.9 239.9 235.5 240 242.5 244.8 247 249.4 252.5 255.7 258.4 260.5 262.3 263.3 263.5 263.8 263.9 263.6 262.8 262.1 261.5 260.1 258.7 257.8 256.8 255 252.7 250.1 244.6 247.1 248 247 244.8 237.9 219.8 211 207 201.7 195.6 182.8 181.8 178.7 177.6 177 177.3 180.4 176.7 172.1 166.3 164.6 160.9 158 155.8 151.7 146.4 152 159.5 165.2 171.3 178 184 189.8 195.6 201.4 207.3 215.1 224.9 238.1 253.5 258.4 259 257.8 254.8 250.1 241.1 228 217.4 210 203.5 195.8 185.8 178 171.7 171 168.1 164.6 161.4 157.4 155.3 153.8 152.2 151.7 153.8 155.5 155.5 153.5 150.7 148.5 146.5 144.5 142 139.8 137.3 134.9 132.5 130.2 127.3 126.5
281.9 281.4 280.2 278.8 277.2 274.6 272.3 269.5 265.4 260.7 250.7 246.1 245.5 243.4 239.3 238.2 237 234.1 233.1 232.8 232.7 231.4 231.5 233.1 235.2 239.4 244.9 248.5 251.1 253.4 255.3 257.2 259 260.4 261.9 264.1 266.1 267.1 268.2 269.3 270 270.6 271.1 271.7 272.2 271.9 271.2 270.4 269.7 268.8 267.5 266.7 265.6 264.1 262.9 261.7 260.5 259.4 257.7 256.1 254.8 253.4 254.3 255.6 256.7 257.3 257.6 257.2 256.4 255.5 254.6 254.1 255.7 257.4 259 260.6 261.3 261.5 261.2 259.9 258.1 255.7 253.5 251.4 248.5 246.2 244.4 241.7 237.7 242.2 243.9 243.3 241.5 238.1 239.8 242.2 244.4 246.6 248.8 251.6 254.6 257.2 259.4 261.6 263.3 264 264.1 264.2 264.2 263.7 262.8 262 260.9 259.3 257.5 255.4 253.4 250.4 245.1 235.1 232 236.5 240.2 241.2 238.7 230.7 215.7 209 203 198.1 191.8 187.8 183.3 178.7 172.4 171.3 174.3 174.7 173.8 170.1 163.1 159.2 156.6 154.2 150.7 146.6 146.4 153.8 159.9 167 173.2 178.9 183.5 190.4 197.1 203.1 209.1 217.3 227.6 240.5 255.5 258.9 259.2 257.6 254.1 249.9 241.7 228.7 216.5 209.4 203 196.6 188.9 180.7 173.7 166.4 161.2 158.3 156.6 152.9 151.8 149.7 148.6 147.5 148.2 150.3 151.3 150 147.2 145.1 143 140.9 138.9 137.2 135 132.7 130.3 128.2 125.4 126.1
281.6 280.6 279.1 276.7 274.5 271.9 267.1 262.3 252.2 245.6 241.2 239.8 236.8 233.6 230.6 228.5 227.1 225 224.5 224.9 223.7 222.9 224.9 226.3 227.8 229 230.7 233.8 238.2 242.8 249.6 253.3 255.8 259 262.3 264.4 265.9 267.6 268.9 269.6 270.3 270.9 271.4 272 272.4 272.4 271.6 270.9 270.2 269.3 268 267.4 266.5 265.3 264 262.8 261.6 260.2 258 256.1 255 254 254.4 256.8 258 258.6 258.6 258.5 257.9 257.4 256.9 256.1 257.6 259.1 260.5 261.6 261.9 261.7 261.3 259.8 257.7 255.5 253.3 251.3 248.8 246 243.5 241.1 241.5 244.1 244.6 243.5 240.7 239.6 241.2 243.5 246.1 248.3 250.5 254.1 257.1 259.1 260.6 262.6 264.4 264.5 264.6 264.7 264.3 263.8 262.8 261.6 260.2 257.9 254.6 251 247.8 243.4 234.4 227.1 223.4 225.4 230.2 231.9 228.6 218.2 211.9 205.1 200.7 195.8 187.4 183.3 181.3 176.6 170.2 167.2 169 169.4 167.8 165.8 159.9 155 152.7 150.7 147.7 145.1 148.4 155.1 162 169.1 175.2 181.2 186.5 192.6 198.2 204.3 210.2 219.8 230.4 245.4 256.9 259.2 258.9 257.3 254.1 249.1 241.2 226.4 215.5 209.4 202 196.5 189.9 183.1 175.1 167.2 161.2 157.2 154 152.4 149.8 146.5 146.4 142.1 143.5 144.9 144.6 144.5 143.2 141.6 139.6 137.6 135.8 134.3 132.3 130.1 128.3 126.2 125.8 126.1
280.9 279.2 276.7 273.6 271.3 267.6 258 250.7 242.9 238.2 235.5 234.6 229.4 224.6 221.7 219.5 218.2 217.4 217 214.6 212.1 211.8 215.1 218.5 220.2 223.5 223.4 226.2 230.1 230.3 232.4 238.5 245.8 253.4 259.4 263 264.9 266.5 268.4 269.9 270.5 271.2 271.7 272.1 272.6 272.7 272.2 271.5 270.8 269.7 269 268.2 267.4 266.3 265.2 263.8 262.3 260.7 258.8 256.4 255.3 255.4 256.3 258.4 259.2 259.8 259.7 259.5 259.3 258.5 257.8 257.4 258.9 260.3 261.3 262.4 262.8 262.6 261.5 259.5 257.3 255.2 253.1 251.1 248.8 246.1 243.6 241.9 244.5 245.5 245.1 243.3 241.2 242.3 244.2 246.1 247.9 249.9 252.9 256.5 259.1 260.8 262.3 263.9 265 265.1 265.2 265 264.6 263.6 262.6 261.2 259.3 256.4 252.5 246.1 238.6 230.3 221.1 217.1 214.8 215.7 220.5 223.4 221.8 215.9 208.6 202.6 197.8 192.5 186.8 181.4 175 173.3 167.7 164 163.3 163 161.2 159.3 156.5 153.3 151.2 148.8 145.5 143.8 151.8 157.5 164 171.3 177.3 183.8 189.4 195.5 201 206.6 212.7 223 234.7 250.1 258.3 259.2 259 257 253.2 248.1 238.8 225.8 215.1 207.8 199.5 194 188.7 182.3 173.2 166.2 162.3 159 156.2 153.6 151.5 149.5 146.6 142.1 142.1 140.7 141 141.7 140 138.5 136.3 134.4 132.9 131.4 129.6 127.7 126.3 124.5 125.3 126.7
279.3 277 274.1 270.8 263.3 255.7 248.2 241.2 235.4 229.8 227.1 223.7 217.8 214.4 213 212.7 211.8 210.7 208.8 206.8 204.1 202.1 204 207.4 209 212.2 214.8 218.8 223.3 225.4 226 227.5 231.9 237.7 248.4 257.1 262.6 265.5 267.6 268.9 270.3 271.4 271.8 272.3 272.7 272.9 272.8 272.1 271.4 270.5 269.7 269 268.2 267.2 266.1 264.5 262.9 261.3 259.6 257.2 256.2 255.8 257.6 259.4 260.4 261 260.9 260.8 260.7 259.8 258.7 258.7 260 261.1 262.3 263.2 263.3 262.6 261.4 259.5 257.2 254.8 252.9 250.9 248.7 246.2 243.2 244.1 246.2 246.2 245.3 243 242.4 244.1 245.9 247.7 249.6 251.4 254.7 258.1 260.1 262.1 263.7 264.5 265 265.6 265.7 265.3 264.7 263.6 262.4 260.8 259 256.2 251.3 242.2 231.1 221.1 211.9 208.4 204.5 208.2 213.3 216.8 216.4 212.9 206.1 200.8 195.3 189.7 183.9 178.3 171.8 167.5 164.4 162.2 159.5 157.4 154.9 153.7 151.2 148.4 147.3 145.3 143 146.7 152.8 156.6 163.8 171.4 178.3 185.5 192.3 198.4 203.9 209.5 217.7 228.3 241.7 255.5 258.2 259.3 258.7 256.5 252.2 246.4 237 223.9 213.5 205.1 197.1 191 186 178.8 172.3 168.9 166.1 162.6 159.4 156.5 154.8 152.9 149.9 146.4 142.5 139 139 136.9 136.6 135.7 133.7 132 130.3 128.6 127.1 125.8 123.6 125.7 126 129
277.2 274.1 270.8 263.6 253.1 245.2 239.4 233.8 228.6 224.2 220.2 217.1 212.2 208.7 207.3 206.7 206.1 204.9 202.2 199.6 196.9 195.1 197.2 200.9 201.8 202.5 205.2 208.8 212.5 214 216.7 219.5 223.6 229.1 234.7 244.6 254.7 261.6 265.2 267.6 268.8 270.5 271.7 272.2 272.7 273.1 272.9 272.7 272 271.3 270.5 269.7 268.9 268.1 266.8 265.2 263.6 262 260.5 258.2 256.8 256.3 258.3 260.2 261.3 262.2 262.2 262.1 262 261.3 260.9 260.5 261 262.2 263.1 263.8 263.4 262.5 261.2 259.3 258 254.9 252.9 250.8 248.6 245.8 243.5 246.4 247.4 246.9 245.3 243.9 244.2 245.4 247.1 249 250.8 253.1 256.1 259.1 261.2 263.2 264.6 265 265.5 266 266 265.5 264.7 263.5 262.2 260.7 258.8 256.1 251.7 244.6 233.2 217.7 209.1 202 197.6 202.2 208 211.2 211.1 209.4 205.1 199 193.6 187.7 182 176.5 172.5 167.7 163.5 159.6 158 156 153.1 150.8 149.3 149.7 145.9 143.1 142 146.3 150.6 156.6 164 171.1 179.6 187.6 193.8 199.9 206.5 212.2 222.5 232.5 248.2 257.5 259.4 259.3 258.3 255.8 251.1 245.7 235.5 223.1 212.6 204.7 197.1 190.8 184.4 179.2 175.9 173.1 169.2 165.4 161.5 158.7 157.6 155.5 152.6 149 145.6 142.2 139.4 136.8 134.5 132.8 131.5 130.3 128.9 127.5 126.1 125.4 124.6 125.3 127.8 130
274.2 267.5 260.4 252.3 243.6 236.2 231.6 227.4 223 218.7 214.3 210.8 206.7 203.1 201.5 200.8 200.6 199.8 196.5 192.6 189.4 188.8 191.8 194.9 195.1 195.3 199.2 200.7 203.5 205.4 208.8 210.8 216.8 223.3 227.4 233.9 242.8 252.3 261 265 267.4 269.2 270.8 271.9 272.5 273.1 273 272.8 272.5 271.8 271.1 270.4 269.7 268.9 267.5 266 264.4 262.9 261.4 258.8 257.3 257.3 259.1 261 262.4 263.3 263.5 263.4 263.3 263 262.5 262.5 262.8 263.1 263.7 264.2 263.5 262.4 260.9 259.3 257.5 254.8 252.7 250.5 248.3 245.7 245.5 247.8 248.4 247.5 245.9 245.7 246.1 247 248.5 250.2 252 254.5 257.6 260.1 262.2 264.3 265.2 265.6 266.1 266.4 266.3 265.8 264.5 263.2 261.9 260.6 258.7 256.2 253 247.2 233.6 219.3 209.1 199.9 193 195.3 202.1 204.7 205.6 204.7 202.9 197.7 191.6 184.8 179.9 177.2 175.1 170 166.2 164.4 163.2 159.7 159.1 160.2 156.4 151.8 147.6 142.8 142.5 147.9 153.1 156 163.8 171.2 180.9 188.6 195.8 202.3 208.2 214.9 225.9 238.4 254.9 258.7 259.9 258.9 257.9 254.5 249.8 243.7 233.9 222.9 212.5 205.4 198.8 193.2 188.7 183.6 179.1 175.1 171.5 167.4 163.3 160.4 157.1 155.4 153.4 150.4 147.5 144.7 142.5 139.9 136.6 133.7 131.1 129.7 128.3 126.9 125.5 124.7 124.7 125.4 129.4 132.1
265.1 255.9 248.1 241.4 236 229.5 224.6 222.2 217.8 213.3 208.8 204.4 200.9 197.6 195.4 195.2 195 194.5 192 188.7 184.7 183.9 187.2 188.6 189.2 191.3 193.2 192.6 196.5 199.7 201.8 205.4 210.4 217.5 223.9 229.4 236.4 247 255.1 261.3 265.6 267.9 269.7 271.2 272.5 273.1 273.2 273 272.8 272.1 271.4 270.8 270.1 269.5 268.2 266.7 265.1 263.6 262.1 259.2 258 258.9 260.5 262.2 263.2 264.3 264.6 264.8 264.8 264.6 264.2 264.5 264.2 264.4 264.9 264.2 263.2 261.6 260 260 256.4 253.7 252.4 250.2 248 245.5 247 248.9 249 248.2 247 247.5 247.9 248.9 249.9 251.6 253.3 256.2 258.7 261.1 262.6 264.8 265.7 266.1 266.5 266.8 266.6 265.5 264.2 263 261.7 260.4 258.8 256.3 253.3 247.8 234.5 220.3 209.6 199.3 190.6 189.8 195.1 197.6 198.4 198 196.8 194.1 189.1 183.5 178.1 174.3 174.8 172.7 170.4 168.6 166.8 164.8 163.4 161 155.6 150.4 145.6 141.2 143.5 152.4 158.4 160.8 163.2 171.8 180.8 190.5 197.9 203.8 209.4 217.8 230 245.6 257.7 259.7 260.2 259.2 257.1 253.3 248.5 241.8 230.3 220.8 212.1 205.1 199.8 195.1 189.6 184.2 179.6 175.6 171.7 167.7 164 160.2 156.5 153.9 151.3 150.1 148.5 147 144.7 142.5 139.3 134.9 131.1 129.1 127.8 126.4 124.9 124.2 124.5 127 129.9 132.9
249.6 242.2 236.6 231.5 227.6 224 219.9 217 212.8 208.4 203.9 200.1 195.9 192.8 190.2 189.8 189.6 189 187.3 185 182.1 179.5 181.7 183.2 184 185.3 186.8 188.3 192.2 194.7 198.4 201.6 206.9 213.7 220.2 226.6 232.5 241.8 250.3 257.4 262.7 265.9 269.4 270.8 272 273.1 273.4 273.5 273.2 272.5 271.8 271.2 270.6 269.9 268.5 267 265.5 263.9 262 259.7 259.2 260.4 262 263.2 264.2 265.2 265.5 265.8 266 266.2 266 265.7 265.4 265.7 265.1 264.2 262.9 261.5 259.6 257.6 255.5 253.5 251.6 249.8 247.7 247.3 249.1 250 249.6 248.9 248.5 249.1 249.6 250.4 251.6 253.3 255.4 257.7 259.9 262.1 263.9 265.4 266.2 266.7 267 267.1 266.3 265.1 263.7 262.5 261.3 259.6 257.6 255 251.4 244.5 231.8 219.3 209.7 200.1 190.4 184.6 186.6 190.4 192.3 191.5 188.4 187.9 185.1 180.1 173.6 169.6 171.9 173.9 173 171.6 170.2 169.6 165.9 158.8 152.3 147.6 144 139.3 147.6 155.9 162.3 168.7 170.4 174.6 181 190.5 198 204.2 210.5 219.8 234.9 251.9 259.3 260.1 260.1 258.7 256 252 247.2 239.4 228.8 218.7 211.5 204 198.4 193.8 188 182.5 177.7 173.5 170.5 166.1 162.1 158.4 154.5 151.7 148.9 148 147.3 147.1 145.3 142.5 139.4 135.5 131.1 128.1 126.4 125.3 124.3 123.2 127.1 129.6 130.7 133.9
237.2 233.5 229.1 225.2 221.2 218 214.8 211.6 207.9 203.6 200 195.9 191.7 187.7 185.6 184.3 183.8 183.5 182.3 180.6 178 176.7 178.8 179.2 178.8 180.4 182.3 185 187.1 190.8 190.8 197.9 203.4 210 216.5 222.9 230.4 237.2 245.6 253.7 260.6 265 268.7 270.7 272 272.9 273.5 273.8 273.5 272.9 272.3 271.7 271.1 270.2 268.8 267.4 265.7 263.8 262.1 260.5 260.9 261.7 263.3 264.5 265.5 266.4 266.7 267 267.2 267.4 267.1 266.8 266.5 266 265 263.8 262.4 260.8 259 256.9 255.1 253.3 251.4 249.6 248.2 248.9 250 250.8 250.5 249.7 250 250.6 251.1 251.7 252.7 254.5 256.6 258.7 260.9 263 264.9 265.8 266.6 267 267 266.6 265.9 264.7 263.3 261.9 259.8 257.8 255.2 251.8 247.3 237 226.5 217.3 209 203.2 196 183.5 179 182.4 185 185.2 183.8 181.3 179.1 174.8 168.3 165 168.2 171.7 171.4 172.7 174.7 172.4 167 159 149.8 144 139.9 143.3 152.6 158.4 167 173.4 177.2 179.2 183.9 192.3 199.8 206.1 212.7 225.1 240.8 256.8 260 260.1 259.7 257.7 254.5 250.3 245.4 236.8 226.5 214.9 208 201.9 196.2 191.3 186 180.3 175.6 171.2 167.2 163.4 159.3 155.9 152.6 149.5 145.9 143.8 143.5 143.5 143.1 141.7 138.4 134.4 130.1 127 125.3 124.4 122.3 125 129.1 131.7 134.5 135.7
229.8 226.5 223.5 220.2 216 209 209 204.8 202.3 199.2 195.9 191.7 187.6 183.4 180.6 179.2 178.4 178.2 177.5 176.2 173.7 173.2 175.4 174.7 175.8 179 182.2 186.2 190.2 194.6 198.1 199.9 200.3 206.7 213.7 219.1 225.7 233.6 242.2 252.8 260.2 265 267.9 270.5 272 272.8 273.4 273.6 273.6 273 272.5 272 271.5 270.5 269.1 267.7 265.2 263.4 262.9 261.9 262.5 263 264.4 265.8 266.8 267.5 268 268.2 268.4 268.6 269 267.8 266.9 265.9 264.8 263.3 261.6 260 258.3 256.4 254.8 253.2 251.3 249.6 248.9 249.7 250.8 251.5 251.4 250.9 251.4 252 252.6 253.2 254.2 256 257.8 259.6 261.8 263.9 265.7 266.3 266.9 267.4 267.1 266.3 265.5 264.3 262.6 260.4 257.3 253.5 249.8 244.3 240.2 232.5 222.3 214.3 209.2 203.3 197.5 188.9 176.5 174.4 177.7 178.2 178 175.8 173.4 170.2 165.3 161 163.9 167 168 170.9 175.2 172.9 167.1 158.8 149 140.2 139.3 147.1 156.3 163.6 169.9 176.9 182.8 183.7 187.8 193.9 201 208.3 215.3 228.7 245.5 258.4 260.2 260 258.6 256.5 253 248.9 243.8 233 223.7 213.1 205.4 199.4 193.6 188.1 183.4 178.2 173.4 168.8 164.3 160.5 156.5 153.3 149.7 145.9 142.6 139.4 138.8 138.7 137.1 138.9 136 131.7 127.5 125.1 123.2 123.2 124.6 128.7 131.3 134.2 136.9 139.5
223.7 220.9 218.1 215.1 211.7 206.8 204.2 200.5 197.5 194.1 191.1 187.5 183.5 179.2 176.3 174.2 173.9 173.4 172.9 171.3 168.6 169.4 171.1 173.9 177.8 181.9 185.4 188.5 192.4 196.8 201.2 207.1 210.4 212.7 216 219.9 224.8 233.9 244.5 255.4 261.3 265.3 268.1 270.4 271.9 272.8 273.1 273.3 273.4 273.1 272.6 272.1 271.6 270.7 269.4 267.9 265.2 263.8 263.6 263.4 264 264.7 265.7 267 268 268.7 269.2 269.4 269.5 269.7 269.8 268.5 267.1 265.7 264.1 262.5 260.9 259.2 257.7 256.2 254.6 253 251.2 249.9 250 250.9 251.6 252.3 252.4 252.4 252.9 253.4 254 254.7 255.9 257.7 259.5 261.2 262.9 264.8 266.3 266.9 267.4 267.6 267.2 266.4 265.1 263.2 261.3 258.1 251.4 242.9 237.9 235.4 231.9 226 217.3 211.3 206.6 201.4 196.1 189.8 179.1 170.6 170.5 171.8 172 170.6 168.2 164.2 160.7 157.3 158.8 159.9 161.9 167.3 171.3 169.9 164.5 154.7 145.9 137.8 142.1 150.8 159.9 166.4 172.6 179.1 186.4 188.6 193.7 198.3 203.9 210.8 217.9 231 248.6 259.6 260.1 259.4 257.5 255.1 251.5 247.5 241 229.7 220.9 210.6 203.4 198.1 192.5 186.7 181.5 177 172 166.7 160.2 154.5 152.9 149.4 145.7 141.9 138.3 135.4 133.3 133.5 134 135.4 132.7 128.3 125 123.5 121 122.8 126.7 131.5 135.1 136.4 139 141.7
219 216.3 212.9 209.6 205.8 202.6 199.5 196.1 192.8 189.4 186.2 182.6 179.5 176 172.7 170.5 169.3 169.1 168 165.8 165.6 167.7 171.2 175.3 179.5 183.6 187.3 191 194.8 199.1 204.1 209.5 213.8 217.4 221.5 225.5 231.1 237.1 251.3 260.5 264.9 267.3 268.9 270.5 271.9 272.7 272.8 272.9 273.1 273.2 272.7 272.2 271.6 270.6 269.6 268 265.5 264.8 264.5 265 265.6 266.4 267.4 268.4 269.1 269.8 270 270.2 270.3 270.5 269.3 267.8 266.4 264.9 263.2 261.6 259.9 258.3 257 255.7 254.2 252.7 251.1 251.1 251.4 252.2 252.8 253.1 253.3 253.8 254.3 254.9 255.5 256.3 257.6 259.4 261.1 262.9 264.6 266.1 267 267.6 268.2 267.8 267.3 266 264.3 262 259.6 256 250.8 239.3 226.8 224.5 222.6 217.8 213 208.4 203.2 197.7 192.8 188.1 181.6 172 166.3 166.5 166.5 164.9 162.8 159.9 157 153.6 152.5 152.8 154.3 161.1 166 165.2 158.9 149.6 140.7 136 145.2 152.4 159.9 166.9 173.7 181.5 189 194.9 199.4 202.9 207.6 213.4 223.6 237.1 256.4 260.3 259.7 258.3 256.3 253.5 249.8 245.7 238.5 227.8 218.8 208.5 202.6 196.9 191.2 185.4 180.5 175.5 170.3 165.5 160.7 155.5 150.3 145.4 141.6 138.5 135.3 132.2 130.1 129 129.9 131.2 129 125.1 123.1 120.8 122.4 125.5 129.7 133.9 137 139.6 141.6 143.9
212.7 210.8 205.6 202.5 200.2 197.9 194.9 191 187.9 184.8 181.6 178.4 175.5 172.5 169.8 167.5 165.2 164.6 163.2 162.8 164.4 168.2 172.2 175.5 178.9 184.6 188.5 192.1 196.3 200.6 205.3 211 214.6 219.5 224.1 231.1 237.4 244.4 258.9 264.6 267.5 269.4 270.6 271.4 272.3 272.4 272.6 272.8 273.1 273.2 272.7 272.2 272 270.9 269.7 268.5 267 266.5 266 266.6 267.1 268.1 269 269.9 270.3 270.8 270.9 271 271.1 270.1 268.8 267.1 265.7 264.1 262.3 260.7 259 257.4 256.3 255.1 253.6 252.4 252.2 252.3 252.8 253.5 254.1 254.4 254.7 255.3 255.8 256.3 257.1 257.9 259.3 261.1 262.8 264.4 265.8 267.2 267.9 268.5 268.7 268.2 267.5 265.6 263.9 261.5 255.3 248.5 241.5 231.1 220.8 214.3 212.8 210.8 208.4 203.9 199 193.9 188.5 184 176.9 170.3 163.8 161.7 161.5 160 157.5 154.5 152.7 149.8 148.7 147.5 147.9 152.2 158.2 157.8 152.8 146.1 137.1 138.5 146 152.6 159.6 166.5 173.7 181.7 189.5 196 201.4 205.7 210.6 217.4 228.3 243.4 259.6 260.2 259 257.3 255 251.7 248.3 243.4 235.9 226.2 215.6 206.1 200.8 195.2 189 182.7 177.6 172.3 167.7 162.8 158.3 154 149.1 144 140.6 137.4 134.2 131.1 128.4 126.8 126.1 126.7 125.4 123.2 121.5 120.6 123.1 125.4 129.1 133.8 136.6 139.6 141.4 145.3
206.1 204 201.2 197 195 192.6 189.6 186.6 184.4 182.8 179.4 175.2 171.7 169.1 166.9 164.8 162.4 160.6 159.5 162.3 165.4 169.5 173.6 177 181 185.1 188.7 192.1 195.3 198.9 204.1 209.7 214.9 220.8 227.1 237.3 248.2 259.5 265 268 269.8 270.8 271.2 271.7 272.1 272.4 272.6 272.8 273 273.1 272.7 272.3 272.2 271.6 270.5 269.7 268.3 267.8 267.4 268 268.7 269.6 270.6 271.5 272 271.9 271.8 271.8 270.9 269.6 268.3 266.6 265 263.3 261.5 259.8 258.1 256.7 255.6 254.4 254 253.8 253.5 253.6 254.3 254.8 255.4 255.8 256.1 256.6 257.2 257.9 258.8 259.7 261.2 262.6 264.1 265.5 266.9 268.3 268.8 269.4 269.1 268.7 267.8 266 264 261.3 256.7 245.8 237.7 228 221.8 212.8 204.8 201.7 200.1 197.1 192.4 187.5 180.7 174.3 169.9 165.6 163 160.4 158 156.6 155.5 154.6 154 152.7 151.1 147.2 144.9 145.5 150 151.4 147.6 143 136.8 138.9 145.9 152.4 158.4 166.1 172.9 180.3 187.5 194.3 200.6 206.1 213 223.6 238.4 255.6 260.4 259.7 258 256.2 253.9 250.5 247 241.7 233.1 223.9 213.2 205.8 200.4 194.3 188 181.6 174.9 169.2 164.4 159.6 155.9 151.7 147.8 144 140.3 137.1 133.9 130.8 127.7 126 124.5 123.8 123.1 121.7 121.3 121.6 124.8 126.8 128.9 132.7 135 137.5 139.8 143.5
200.4 197.3 196.1 192.7 190.7 188.4 185.5 182.4 179.3 179.9 177.6 172.6 169.3 166.5 164.4 162.3 160 158 158.9 162.6 166.1 169.5 172.4 176.3 180.6 184.7 188.6 191.7 194.6 198.4 203.8 210.5 216.3 222.8 232.7 242.1 259.2 265.5 269.3 270.8 271 271.7 271.7 271.7 272.2 272.3 272.6 272.8 273 273.1 272.7 272.5 272.4 272.3 271.2 270.6 269.6 269.1 268.9 269.6 270.1 270.9 272.1 273 273.5 273.2 272.7 271.7 270.4 269.1 267.8 266 264.4 262.7 261 259.3 258 256.8 256.1 255.4 255.1 255.1 254.9 255.1 255.5 256 256.5 257.2 257.5 258 258.6 259.5 260.5 262 263.3 264.3 265.4 266.6 268 269.2 269.6 270 269.5 269.1 268.1 266.2 264.1 261.5 257 249.9 240.6 231.3 223.8 213.1 202.1 196 192.1 187.7 184.2 181.6 178.5 176 173.5 171.1 168.4 166.2 164.6 167.6 166.4 163.3 160.7 157.3 153.2 148.8 145.3 142.1 143.6 145.5 142.7 139.3 135.5 138.2 145.3 151.4 156.3 160.1 168.2 174.9 183.4 192.5 199.5 207.3 215.4 228.4 247.6 259.3 259.9 258.7 257.1 255.2 252.8 249.5 246 239.8 231.2 222.5 213.5 206.3 200.3 195.6 188.5 182.1 175.8 170.3 165.2 159.1 155.5 151.5 147.6 143.9 140 136.8 133.6 130.6 128.7 127.9 124.4 122.7 121.7 121.5 121.2 123.6 128.5 130.1 132.4 133 134.1 136.1 139 141.9
193.9 190.7 187.4 186.8 186.8 184.2 181.7 179.3 177 176.9 178.1 171.8 167.7 164.4 162.1 160 158.6 155.9 158.4 161.8 165.1 168.3 171.9 175.9 180.2 184.4 187.8 190.5 192.5 198.2 203.4 211.1 218.5 226.2 237.1 256.1 264.8 269.4 271.3 272.1 272.4 272.2 272.2 272.1 272.2 272.1 272.4 272.7 273 273 272.9 272.7 272.6 272.5 272.2 271.5 270.8 270.5 270.4 271.1 271.6 272.1 273.3 274 274 273.4 272.7 271.8 270.3 268.9 267.4 266 264.6 263.1 261.4 259.8 258.6 257.7 257.1 256.4 256.1 256 256 256.2 256.7 257.1 257.7 258.3 258.9 259.3 260.2 261.1 262.9 264 265 266.1 267.2 268.3 269.3 270 270.5 270.4 270 269.4 268.4 266.4 264.3 261.4 257.2 249.7 238.5 230.8 223.9 214.5 206.1 202.1 199.3 194.5 191.6 189.5 187.5 185.6 184 181 177.9 174.5 176.6 176.1 171.2 165.4 160.5 156.9 153.1 148.9 145 141.3 140.5 141.3 139.7 136.7 134.9 136.5 142 147.8 152.5 157.8 165.6 174.1 182.5 191.5 199.9 208.4 218.2 234.3 254.5 259.5 259.1 257.6 256.1 254.1 251.7 248.6 245.2 238.4 229.5 220.4 212.1 205.7 200 194.1 187.2 180.9 174.7 169.7 165.5 160 155 151.7 147.8 143.7 139.9 136.5 133.4 130.4 134.1 132.8 129.3 123.9 121.2 121.2 119.5 125.3 130.3 133.6 136.8 137.9 136.9 138.7 140.3 144
190.8 187.5 185 180.2 181.4 180.7 178.5 176.6 174.1 176.7 175.3 171.1 166.4 163.5 160.1 157.5 155.7 154.1 157.2 160.6 164.1 167.5 170.5 175 179.1 182.6 184.9 188.6 193.4 198.8 204.6 212.7 220.9 232.9 249.2 263.5 268.8 271.4 272.5 273.1 273 272.8 272.7 272.6 272.2 272.2 272.3 272.6 272.7 273.2 273 272.9 272.8 272.6 272.7 272.7 272.3 271.8 271.7 271.9 272.5 273.1 273.8 274.4 274.1 273.5 272.7 271.8 270.4 268.9 267.6 266.2 264.7 263.3 261.8 260.5 259.6 258.7 258 257.4 257 257 256.9 257.3 257.8 258.2 258.8 259.5 260.1 260.9 261.8 263.5 265.2 266 266.7 267.8 268.9 269.6 270.1 270.7 271 270.7 270.4 269.4 268.2 266.5 264.1 261.3 257.3 250.2 243.3 237.2 228.4 220.1 212.8 207.7 205.4 204.5 202.1 198.7 196.8 194 192.4 189.9 186.4 182.3 180.6 178 170.9 163.5 157.5 154.2 150.7 147.6 145 141.1 139.1 138.1 136.9 135.3 132.6 137.1 141.9 146.5 151.8 157.9 166.9 175.1 183.9 192.4 200.2 207.8 216.8 232.4 252.9 258.6 257.9 256.5 255 253.2 250.8 248.5 245.1 239.9 230.3 220.1 208.7 203.2 197.1 190.4 183.9 177.5 171.9 167.6 163.1 159.4 154.2 150.5 147 143.4 139.7 136.3 133.4 132 134.3 131.4 128.2 123.6 121 121.2 122.2 127.4 131.5 135.2 137.2 140.1 142.3 143 142.7 144.9
187.2 183.3 179.6 174.2 175.5 176 174.5 172.9 171.9 173.4 171.7 168.4 164.8 161.6 158.3 155.7 153.2 152.2 155.8 159 162.6 166.1 169.1 173.7 177.7 181.5 184.8 188.5 193 199.5 207.4 215.6 226.8 235.4 257.4 265.5 270.4 272 272.7 273 273.1 272.9 272.5 272 271.6 271.7 271.1 271.1 271.8 272.9 273.2 273 272.9 273 273 273 273 273 272.9 272.7 273 273.6 274.2 274.4 273.9 273.4 272.8 271.9 270.5 269.1 267.7 266.3 265 263.6 262.3 261.4 260.5 259.6 258.9 258.4 258 258 257.9 258.4 258.9 259.3 260 260.6 261.3 262.2 263.4 264.7 265.9 267.2 268.5 269.2 269.7 270.2 270.7 271.2 271.1 270.7 270.4 269.3 268.1 266.5 264.6 261.8 259.6 256 251.9 246 238.6 230.7 223.9 216.5 214.2 212.1 209.2 205.5 204.3 202 200 198 194.9 188.5 183.5 178.1 171.3 166.2 160.6 155.2 150.2 146.3 143.3 140.5 138.5 137.5 136.1 134.2 133.6 136.7 141.7 145.9 150.9 157.3 165.5 172.9 181.8 191.6 199.4 206.9 215.3 231.6 252.7 257.4 256.7 255.4 253.9 252.3 249.9 247.8 245 240.5 232.1 220.4 209.5 204.2 196.3 187 181 175.5 170.5 165.6 161 157.1 153.1 149.2 145.5 142.2 139.8 136.7 134.6 135.9 133 128.9 125.1 121.7 120.4 119.8 122.3 126.6 130.4 134.1 138.1 142 146 147.4 146.7 148.2
183.3 180.3 175.4 171 168.6 171 169.5 168.2 168.9 169.4 167.7 164.9 162 159.1 155.8 153.5 151.6 151.6 154.7 157.6 160.7 164.2 168.1 172.2 176.1 180 184.2 189.2 194.4 200.9 209 218.1 231.1 242.9 262.6 267.8 270.5 271.9 272.7 272.9 272.8 272.5 271.9 271.4 271.1 270.6 269.9 270.4 271.2 272.5 273.3 273.2 273 273.3 273.3 273.3 273.3 273.2 273.2 273.1 273.3 273.9 274.1 274 273.6 273.1 272.7 272 270.6 269.2 267.8 266.4 265.1 264.2 262.9 262 261.4 260.5 259.9 259.4 259 258.8 259 259.5 259.8 260.2 261 261.8 262.5 263.6 264.8 266.1 267.4 268.6 269.6 270.1 270.6 271 271.4 271.5 271.1 270.7 270.3 269.2 268 266.9 265.2 263.7 261.6 259.6 257.4 254.1 248.9 242 235.9 230.3 225.7 222.4 219 214.8 213 209.7 208.1 204.8 200.7 195.2 189.5 181.9 174.5 168.7 163.8 158.4 152.8 148.8 145.5 144.6 145.7 142.1 136.3 134.5 133 135.7 141.7 146 149.4 152.6 159.1 168.9 178.6 189.6 198.4 207.3 216.9 231.4 250.4 255.9 255.6 254.4 252.8 251.2 249.1 246.9 244.8 241.4 234.7 224.3 214.7 206.1 197.4 189.1 181.8 175.8 170.5 165.1 160.6 155.6 152.7 149 146.6 145.5 143.1 140.4 138.7 136.2 131.2 126.9 123 119.9 119.3 120.2 122.8 125.3 128.9 132.8 137.5 142.6 147.3 150.7 151.9 151.6
178.8 176.7 171.7 167.6 166.9 165.2 165.2 164.6 165.7 165.5 164.1 161.8 159.3 156.6 153.3 150.9 149.1 151 153.6 156.7 160.4 164.1 168 171.4 175.2 179.2 184.5 189.9 195.2 202.2 210.1 220.6 233.1 254.2 264.6 268.3 270.8 271.8 272.7 272.7 272.4 272.1 271.4 270.8 270.6 269.2 268.9 269.7 270.6 272.1 272.9 273.3 273.4 273.6 273.6 273.4 273.3 273.2 273.3 273.4 273.6 273.7 273.7 273.6 273.2 272.7 272.2 271.5 270.7 269.4 268 266.3 265.1 264.3 263.7 262.8 262 261.4 260.8 260.3 259.9 259.7 260 260.3 260.7 261.1 262 262.9 263.8 265 266.3 267.5 268.8 269.8 270.5 271.1 271.6 272 272.1 271.6 271.2 270.8 270.3 269.6 268.7 267.8 266.5 265.2 263.6 261.8 259.8 257.8 255.3 252.1 248.6 244.5 241 236.8 233.1 228.4 225.6 222.7 219.9 213.7 207.6 200.6 193.4 186.6 178.5 172.5 168.1 161.5 158.8 158 156.3 152 146.2 139.7 135.3 133.1 132 136.5 142.5 145.8 149.4 154.8 161.5 172 180.4 188.8 197.5 207.4 214.6 227.8 248.7 254.1 253.9 253.1 251.7 250.1 248.2 246 243.8 241.5 237.1 229.1 219.4 209.6 200.6 190.5 182.5 175.4 170.4 165.7 160.8 155.5 152.3 151.5 149.7 148.1 145.9 142.2 138.1 134.6 128.9 124.4 120.6 118.5 118.9 120.7 123.3 125.8 128.3 131.6 136.3 141.2 146.4 151.4 156.2 160.5
174.4 172.9 168.9 165 165.6 161 160.2 161.5 162.3 161.5 160.3 158.2 155.9 153.7 150.4 147.8 148.3 150.3 152.4 155 159.5 163.4 167.3 170.8 174.4 178.9 184.1 190.1 196 202.8 210.2 220.6 232.8 255.5 265.4 268.7 270.9 271.9 272.5 272.2 271.9 271.6 271 270.2 269.4 267.8 268.2 269 269.7 271.3 272.3 273.2 273.4 273.7 273.6 273.5 273.4 273.4 273.4 273.5 273.4 273.4 273.3 273.2 272.8 272.3 271.6 270.8 270.1 269.3 268 266.3 265 264.4 263.8 263.2 262.5 261.7 261.1 260.6 260.3 260 260.7 261.2 261.5 262.1 263 264.1 265.2 266.5 267.7 269 270 270.9 271.4 272 272.5 272.5 272.4 271.7 271.3 270.9 270.7 270.3 269.5 268.5 267.6 266.4 264.6 263.3 261.9 259.8 257.8 256.1 253.7 251.4 248.9 246.1 244 241.4 238.3 236.1 233.1 226.6 216.5 207.7 198.5 190.4 185 179.2 174 168 166 165.2 161.6 156.7 148.4 139.5 134.7 132.3 131.3 135.6 140.8 145.7 151.7 158.3 165.8 174.8 180.7 188.5 197 205 212.5 224.4 245.6 251.9 252.1 251.2 249.8 248.6 247.1 245 242.9 240.5 238.1 232 223.2 211.4 200.7 191.7 184.1 177.7 172.7 168.3 163.3 157 151.4 149 148.2 145.7 142.6 139.4 135.6 131.8 126.8 122.6 118.2 118.9 119.6 121.7 123.9 126.5 129.1 131.5 136 140.6 144.6 150 155.7 161.5
170.2 169.6 167 163.7 162 162.1 159.3 156.6 157.4 157.2 156.3 154.9 153.1 150.1 146.9 146.7 149.7 152.4 154.3 155.6 157.9 163 165.8 169.7 173.9 178.6 183.7 189.8 195.1 202 210.8 220.5 233.6 254.6 264.6 268 270.6 271.6 272 271.7 271.5 271.2 270.5 269.4 268.1 266.3 266.6 267.9 268.8 270 271.1 272.1 272.5 273 273.2 273.4 273.5 273.5 273.3 273.2 273 272.9 272.9 272.6 272.2 271.7 270.8 269.4 268.5 267.8 266.9 265.6 264.7 264.5 264 263.4 262.7 261.9 261.1 260.8 260.5 260.1 260.8 261.6 262.3 263.2 264.4 265.6 266.7 267.9 269.2 270.2 271.1 271.8 272.4 272.7 273 273 272.5 271.9 271.5 271.2 270.4 269.6 269 268.1 267.1 265.9 264.6 263.3 261.9 260.6 259.2 257.3 255.5 253.6 251.5 249.1 247.2 245.3 243.3 241.6 239 235.1 228.5 213.4 203.1 194.6 189 183.9 178.7 174.4 173.9 170.9 166.3 160.2 153.4 144.9 136.5 132.7 131.1 134.8 140 145.6 152.1 158.2 165.8 174.8 181.6 188.6 196.3 202.6 210.1 221.7 240.5 249.7 250.3 249.1 247.5 245.7 245.1 243.4 241.2 238.7 237.4 234.6 226.6 213.5 201.7 191.7 185.5 180 175 169.8 164.4 157.9 151.3 145.2 142.4 140.5 137.3 134.1 130.5 127.6 124.3 120.5 119.5 118.7 119.7 123.1 127.1 129.7 131.7 133.5 135.6 140 144.3 149.7 155.2 161.5
165.9 165.8 164.4 162.4 159.8 159.3 160.1 157.9 153.6 152.4 152.1 151.3 150 146.5 144.4 147 152 155.3 156.8 158.1 161.1 164.4 167 170.5 175.3 178.3 182.1 188.3 195.6 203.3 211.4 220.8 231.7 254.3 263.3 267.2 269.5 270.8 271 271.1 270.9 270.6 269.7 268.4 266.8 264.6 264 265.4 267 268.3 269.4 270.5 271.7 272.3 272.6 272.8 273 273 272.9 272.8 272.6 272.5 271.8 271.3 270.3 269.5 268.8 267.5 266.7 265.6 264.5 264.2 263.8 263.6 263.3 263 262.8 262.1 261.3 260.9 260.3 260.2 260.9 261.6 262.5 264.1 265.4 266.7 268 269.3 270.3 271.3 272.2 272.7 273 273.2 273.5 273.4 272.7 272 271.3 270.6 269.8 269 268.2 267.2 266.1 264.8 263.3 262 260.8 259.8 258.8 257.6 256.2 254.5 252.6 250.7 248.8 246.8 244.9 242.9 240.5 237.3 230.7 219.8 207.1 198.8 193 188.7 183.6 180 176.6 171.9 166.5 160.7 154.2 147.6 140.2 132.8 130 134.2 139.5 145.6 150.9 157 164.7 173.6 180.6 187.7 194.3 196.4 205 214.6 229.8 244.1 247.4 246.8 245.1 243.3 241.1 238.5 237.7 237.2 235.7 233.8 228.3 215.4 201.8 191.6 185.1 178.7 173.9 169.8 164.2 157.7 151.3 145.2 139.9 135.7 132 129.2 126.5 124.3 121.5 118.9 118.6 118.6 121.9 126.4 130.8 133.8 136.4 137.3 137 140 145.1 151.1 157.3 162.4
161.8 162 161.7 160.2 158 156.5 157.2 156 153.6 149.2 147.9 147.2 146.3 143.5 143.8 147.5 152.5 154.5 157.3 158.5 161.3 166.4 170.4 175 180.3 185.5 187.1 189 196.1 204.3 212.2 222.7 232.7 247.2 261 266.3 268.4 270.2 270.1 270.2 270.3 270 269 267.7 264.9 262.1 262 263.4 264.8 265.9 267.6 268.7 270.1 271.3 272 272.2 272.4 272.5 272.4 272.2 272.1 271.4 270.4 269.7 268.5 267.6 266.8 265.1 263.8 262.7 261.8 261.9 261.6 261.7 261.9 261.3 261.1 261 260.8 260.3 260.1 260.3 261 261.8 262.8 264.9 266.2 267.4 268.7 270.1 271.2 272.4 272.9 273.2 273.5 273.7 274 273.5 272.6 271.7 270.6 269.8 269.1 268.3 267.1 265.8 264 262.2 261.5 260.4 259.3 257.9 256.9 256 255.4 253.7 251.8 250.8 249.2 247.4 245.8 243.6 241.4 237.7 231.4 220.6 211.4 201.9 197.5 193.4 188.6 182.9 177.6 172.5 166.6 160.5 153.4 147.1 139.2 132.4 129.4 132.4 139 145.1 150.2 155.7 162.4 171.3 179.2 186.1 186.6 188 197.7 205.8 216.5 229 235 238.5 237.2 235.3 233.4 231 230.3 230.2 229.3 227.8 221.4 210.6 198.7 190.3 182.8 176.3 170.8 167.8 163.1 156.9 152.7 146.8 143.4 140 135.3 128.5 124.8 122.3 119.6 117.5 118.1 118.7 124.5 129.6 134.2 137.5 140.1 142.2 142 142.2 147.3 153.7 160.5 167.8
158.2 158.2 158.1 157.3 155.1 153.3 154.1 153.1 151 147.6 145.1 143.8 142.6 142.2 144.7 147.7 150.2 153.5 156.8 159.4 163 167.5 171.9 176.1 180.7 185 190.4 195 199.9 208.1 214.4 223.5 233.6 247.3 258.2 265.6 267.8 269.8 270.3 270 269.7 269.3 268.2 266.1 263.1 260.3 257.5 259.9 261.4 263.1 264.5 266.9 268.3 270 271 271.7 271.9 271.9 271.8 271.7 271.1 270.2 269.1 267.9 266.7 265.8 263.8 262 260.5 259.3 258.1 258.1 258.3 258.9 259.4 259.6 259.3 259 258.7 259 258.9 259.6 260.2 261.9 263.1 265.4 266.9 268.2 269.7 270.9 272 273 273.5 273.8 274 274.2 273.8 273 272.1 271.2 270.1 269.1 268.2 267.1 265.4 263.8 261.8 259.6 257.9 256.7 255.6 254.3 253 252.1 252.3 251.5 250.6 249.4 248.2 247.1 245.3 243.6 241.5 238.3 231.8 220.5 211.4 205.2 201.3 195.5 190.3 184.8 179 173.5 167.6 161.7 154.2 147.7 140.1 134 129 131 138.1 144.1 150.1 156 162.4 172.4 178.8 184.7 177 183.6 191.5 200 206.1 212.5 218.2 225.3 227.2 226.3 224.9 223.5 222.5 221.6 220.3 216.6 210.3 201.9 193.3 185.6 178.9 172.7 165.8 162 160.6 156.2 151.8 150.9 146.9 142.6 136.3 128.2 123.4 120.5 117.9 117.5 117.8 122.1 127.5 132.6 137.3 142.3 145.9 147.5 148.1 147.7 150 156.3 164.1 172.7
154.4 154.3 154.3 154 152.3 149.7 150.4 150.2 148 144.9 142.2 141.1 140.6 142.3 144.7 147.3 149.9 153.7 157.3 159.4 163.6 167.7 171.9 175 178.9 182.1 187.6 193.4 198.4 205.3 212.9 221.4 231.5 243.7 257.1 264.6 267.4 268.9 270.1 269.7 269.4 269.2 268.1 266.1 263.5 259.9 252.4 251.1 254.8 257.8 260.8 263.7 266.9 268.6 270.1 270.8 271.3 271.4 271.3 270.9 269.7 268.4 267.1 265.9 264.6 261.9 259.5 257.7 254.5 252.1 251.3 252.2 253 254.2 255.1 255.9 256.2 256.1 255.9 255.9 257 257.6 259.3 261.2 263.1 265.8 267.6 269.1 270.6 271.7 272.7 273.4 274 274.3 274.2 273.8 273.2 272.5 271.6 270.7 269.6 268.6 267.6 265.7 263.9 260.8 258.4 255.7 252.8 251.1 249.8 247.4 244.5 244.4 244.4 245.6 246.6 246.4 246.4 245.9 244.6 243.2 241.7 239.2 234 223.8 213.3 202 197.2 193.4 186.8 182.9 178.6 171.7 168.3 162.8 156 148.6 141.7 134.6 129.3 129.4 137.7 143.3 150.8 157 163.5 172.9 178.1 176.7 169.7 177.1 185.1 192.3 197.8 200.9 204.6 211.8 216.1 216.7 215.5 214.5 213 212.5 209.6 204.5 199.5 193.8 186.9 180.5 173.5 167.8 161.6 154.8 154.6 151.6 151 150.5 147.1 142 134.3 127.2 122.6 118.7 116.4 117.5 118.1 123.5 129.1 134.5 140.8 146.1 150.6 152.8 155.1 155.4 157.5 159.8 167.3 174.8
150 150.4 150.9 150.3 149.6 146.1 146.3 146.8 144.7 142.1 139.3 139.8 141.6 144.2 145.3 146.5 148 151.7 155.2 158.1 162.6 167.2 169.7 172.9 177.1 180.9 184.9 191.6 198.4 204.7 211.9 219 229.7 238.5 253 263.4 267 268.4 269.7 269.4 269.3 269.1 268.1 266.3 263.9 260.3 252.5 241.1 242.7 250.5 256.3 260.5 265 267.2 269.5 270 271.2 271 270.8 270 268.5 267 265.5 263.4 261.3 256.3 250 243 241 239.2 240.7 241.5 242.5 245.5 249.9 250.8 250.6 250.5 252.2 252.9 253.2 255.7 257.9 260.4 263.2 266 268.5 270.2 271.3 272.3 273.2 273.8 274.1 274.2 273.8 273.2 272.6 271.9 271.1 270.2 269.1 268.1 266.9 265.1 262.5 257.1 251 246 244.8 244 241.6 238 234.1 232.7 232.4 233.5 237.8 240.9 243 243.2 243.2 242.6 241.8 239.8 234.8 223.8 209.2 200.3 193.3 187.9 182.6 177.2 172 166.4 165.3 160.7 155.8 149.2 141.1 133.3 128.4 127.9 137.5 144.2 151.4 157.7 165.6 171.5 172.9 167.5 164.2 169.2 176.3 183.9 190.4 194.9 198.4 202.4 206.2 208.7 205.9 204.5 203.2 201.8 200.2 196.1 192.4 186.8 179.7 173.2 166.8 161.1 155.2 148.6 145.2 141.9 145 146.5 143.4 139.6 132.8 126.4 121.8 117.4 116.9 117.2 118.5 124.1 129.4 136.3 142 146.8 152.2 158 161.6 164.3 165.6 167.3 171.4 178.6
144.7 146.2 147.5 146.8 146 144 143.1 142.6 140.1 137.4 138 140.7 144.6 147.5 149.4 149.6 149.1 150.1 152.6 156.2 162.5 165.7 167.4 171 174.9 178.9 184.2 190.8 197.1 203.9 210.9 218.1 226.4 237.4 252.9 262.4 266.4 268.3 269.1 269.2 269.1 268.9 268 266.4 264.2 261.1 256.4 237.1 232.9 238.4 250.2 257.9 262.7 266.5 268.7 269.9 270.8 270.6 270.5 270.1 268.7 267.2 265.7 262.5 258.5 249.2 239.5 231.3 228.4 224 229 227.7 229.9 234.4 234.8 233.9 232.2 234.1 237.3 248.9 249.9 253.4 257.6 260.5 263.3 266 268.3 270.2 271.9 272.9 273.5 273.7 273.8 273.5 273.2 272.6 272 271.4 270.6 269.7 268.6 267.4 266.3 264.7 262.2 257.2 248.1 238.3 235.1 231.7 230.2 228 224.5 223.2 222.8 222.9 226.4 231.6 236.7 240.6 241.7 241.8 240.6 238.6 233.1 219.7 206.1 197.5 191.7 186.3 179.6 173 165.8 160.6 155.3 152.3 151 146.7 137.9 131.3 127.5 130.3 138.1 144.3 150.8 156.3 162.2 167.9 168.5 164.2 159.5 163.6 171.1 178 183.4 189.5 193.9 196.3 199 199.7 198.4 196.9 194.5 193 190.8 187.6 184.3 178.6 173.7 168.8 163.5 158.8 155.5 149.5 141.2 136.5 135.1 136.6 137 134.6 130.8 125.2 121.6 117.9 117 116.8 119.5 124.9 130.7 136.9 143.2 148.2 154.7 160.7 166 169 172.6 173.4 176.5 184.9
141.3 143.2 143.9 142.9 141.9 140.3 138.8 136.5 134.7 137.2 140.8 144.5 147.9 151.1 153.3 153.8 152.5 152.3 156.4 158 158 162.8 165.8 170 173.9 179 184.9 191 197.5 203.8 211.3 218.3 229.9 239.1 251.9 262.1 266.1 268 268.8 269.1 268.7 268.5 267.9 266.4 263.9 261.5 253.2 237.1 228.6 232.7 244.9 255.6 261.2 265.2 268.4 269.6 270.5 270.3 270.1 270 268.7 267.4 265.3 262.4 258.6 253.3 245.8 229.5 217.9 214.6 216.5 216.6 220.3 225.6 227.6 228.3 228.4 230.6 232.9 234.2 247.7 252.4 256.8 260.5 263.3 266 268 269.7 271.4 272.8 272.8 272.9 272.8 272.6 272.4 272.1 271.4 270.8 270.1 269.2 268 266.7 265.7 264.3 261.8 258.3 253.3 248.5 242.8 233.7 221.6 216.9 214.8 214 214.5 214.7 215.4 219.6 224.2 230.9 237.3 238.7 238.8 234.4 225.5 212.2 203 195.6 190.5 184.7 178.3 169.4 161.7 156.2 147.3 142.4 141.8 140.9 134.5 129.5 126.5 132.6 139.2 143.8 149.3 151.3 154.4 160.1 160.7 158.9 156.2 160.3 166.9 172.3 177.3 185.5 190.3 192.3 191.8 192.5 191.6 188.9 185.1 183.7 180.5 177.3 176.6 172.4 168.6 164.7 162.4 160.9 156.9 150.2 140.8 135.2 131.4 129.2 128.8 128.1 126.5 123.1 120.3 117.2 116.3 116.9 120.9 126.5 132.1 137.9 143.9 149.7 155.7 161.8 165.8 169.6 174.1 177.2 182.9 190.7
137.7 140.4 140.1 139.1 138.1 136.4 135.1 133.2 138.3 142.4 145 147.7 150.8 154.4 157 157.3 151.8 154 156.2 159.3 163 164.5 167.2 170.4 175.8 180.6 186.4 192 198.3 204.8 212.5 218.7 228 238.1 251.3 260.7 265.7 267.8 268.4 268.7 268.9 268.4 267.4 265.5 263.6 259.3 246.4 232.7 224.4 228.7 240.8 252.9 259.9 264 268 269.1 270.3 270.3 270.1 269.8 268.8 267.8 265.5 262.5 260.1 257.6 249.4 231.4 217 207.8 204.5 208.6 213 217.5 220.5 222.3 222.2 225.9 226.7 232.7 245.7 252.2 256.1 259.5 263.4 265.8 267.6 269.5 271.5 272.1 272 272 271.9 271.7 271.5 271.2 270.7 270.2 269.5 268.6 267.2 266.1 265.1 263.9 261.7 259.8 256.9 254.1 250.1 238.1 223.3 210.6 206.3 205.3 206.2 206.1 206 208.1 211.5 215.9 225.9 232.4 231 224.7 214.3 204.7 199 192.6 186.8 181.7 179 171.1 163.8 158 149.5 143.1 137.9 134.4 131.3 127.4 126 133.7 140.1 144.6 148.2 148.2 148.1 149.5 151.7 152 153 157.1 164.2 169.9 177.3 182.5 187 188.3 188.2 187.1 184.9 183.1 179 176 173.4 171.2 170.7 167.1 161 159.4 155.9 154.2 152.3 146.3 142.1 138.9 135.2 130.2 125.6 124.6 122.5 120.7 119.1 116.6 114.5 117 122.3 127.7 133.3 138.7 143.3 148.9 153.4 157.8 162 166.3 172.9 180.1 183.5 195.6
135.7 137.6 136.5 135.2 134 133.5 133.1 137.5 142.9 144.9 147.7 150.6 153.3 156.5 159.1 158.4 157.9 157.2 157.2 159.3 163.5 167.7 170.9 174.2 178.1 181.8 186.6 192.7 198.4 205.9 213.2 219.9 229 238.9 253.8 261.4 265.6 267.5 268.1 268.4 268.7 268.3 266.3 264.4 261.3 251.8 238.5 227.2 220.2 226.2 237.9 251.3 259.3 264.1 267.5 268.7 269.9 270.2 270.1 269.7 268.6 267.2 265.5 263.2 261 258.3 249.5 231.8 221.6 207.8 198.3 201.7 206.3 212.6 213 213.6 215.1 218.5 226.1 236.2 244.9 252.4 256.4 259.7 263.1 265.8 267.6 269.6 271.5 271.4 271.3 271.1 270 269.6 269.2 268.8 268.6 268 267.1 266.2 266.1 265.1 263.9 262.8 261.1 259.4 257.8 255.7 251.7 240.7 226.2 213.9 205 197.8 196.2 197.3 197.7 198.9 201.5 205 209.7 219 219.1 212.2 206.6 201.2 194.6 188.9 182.7 179.2 174.3 169.2 164.6 159 151.3 144.6 139.1 134.3 129.5 126.6 126.1 132.2 138.7 144.4 148.6 146.7 144.7 144.6 146.1 147.8 149.9 155.2 161.5 168.9 175.2 180.3 184.8 186 186.3 185.2 181.9 179.1 175.3 171.3 168.4 165.7 165 163.8 159.6 154.6 149.9 148 146.4 143.4 145 146.8 143.4 137.9 132.4 127.5 123 119.8 117 115.7 115.7 118.1 123.5 128.5 133.7 138.3 142.7 147.2 150.2 154.1 158.1 163.9 171.1 178.3 188.9 199.4
131.3 133.9 132.5 131.6 131.4 133.5 137.5 141 143.8 146.9 149.8 152.6 155.4 158.3 159.2 161.9 161.8 160.4 159.8 164.8 165.7 170.2 174 177.5 181.5 185.3 188.2 193.5 199.3 206.1 212.8 220.3 229.5 240.3 254.2 262 265.7 267.4 267.9 268.2 268.5 267 265 261.4 255.3 243 230.6 221.6 216.4 224.1 236.6 249.8 258.8 264.3 267 268.5 269.5 270 270.1 269.5 268.3 266.7 265.1 263.1 261 258.3 246.3 229.6 221.2 209 197 194.2 197.9 202.1 204 205.3 208.8 217.7 227.1 238.9 247.1 252.9 257.2 260.5 263.1 266.3 267.7 269.6 270.9 270.7 270.6 269.7 268.3 267.3 266.8 266.5 265.6 265.1 264.2 263.1 262.8 262.6 261.5 260.7 259 257.4 256.7 255.2 251.5 243.8 230.3 217.5 208.4 200.5 192.6 187.5 186.4 187.7 191.5 194.9 202 207.1 208.1 205.7 200.7 195.2 189.7 181.8 176.1 172.2 168.3 164.2 160 154.6 148.1 142.7 137.8 133.7 129.3 125.6 125.5 129.8 134.8 140.3 141.8 143.2 141.1 141.3 142.4 144.5 148.7 155.3 160.5 167.5 172.9 177.2 181 185.4 186.6 184.2 180.5 176.7 172.8 167.9 163.2 161.1 159.7 160.4 160 156.6 149 144.2 141.4 139.2 143.4 146.7 144.3 140.6 136.2 131.7 126.3 120.8 117.3 115.5 114.9 119.5 124.1 129 133 137.6 141.6 144.4 147.4 151.4 155.5 161.7 170.9 180.7 190.6 200.4
130 129.3 129.2 130 133.5 136.4 139.4 142.7 145.6 148.5 151.4 154.6 157.4 159 163.4 165.4 166.2 164.3 166.2 169.7 170.1 171.7 176.4 180.5 184.4 188.7 192.4 197.2 201.7 207.8 212.9 220.8 228.8 239.4 254.3 262.8 266 267.4 267.9 268.4 267.1 265.3 262.9 258.2 245.6 232.9 223.7 215.2 213.1 221.2 235.9 248.2 257.3 263 266.5 268.4 269.2 269.7 269.6 269 267.7 266 264.3 262 260.1 253.5 234.2 227 219.2 208.3 194.4 188.8 186 193 197 203.4 213.1 221.4 228.7 241.2 250.4 255.2 258.3 261.4 264.1 266.1 268.1 269.7 270.2 270.1 269.9 268.5 267 265.6 264.1 263 261.8 261.3 259.2 258.1 258.3 258.3 257.9 257.4 257 255.8 255 254.4 250.8 243.4 230.1 218.5 211.9 205.5 199.1 190.8 184.9 178.2 181.5 186.1 194.5 200.7 201.2 199.6 196.1 191.7 185.7 175.6 168.7 164.7 162.4 158.8 154.4 149.1 144.4 139.8 135.9 132.6 128.6 123.8 125.4 128.2 131.3 134.2 137 136.4 136 137.1 139.4 143.5 150.6 159.5 165.6 169.6 174.3 178.8 181.7 186.4 189.4 185.8 180.7 176.3 171.4 165.7 161.3 155.8 153 152.8 154.2 150.8 145.2 139.8 137.9 135.4 139.1 144.2 141.3 139.8 135.4 130 125.2 119.8 116.4 115.3 115 120.5 123.4 127.7 130.7 134.1 137.1 139.8 143.9 150.3 154.2 161.3 170.9 182.9 192.2 202.9
127.1 126.3 129.7 132.8 136.1 139.4 142.2 144.8 147.3 150.1 152.7 155.1 159.9 163.2 165.6 168.1 169.3 167.3 166.9 170.6 173 173.5 176.6 181.4 186 191.8 196.8 199.3 205.7 210.8 216.5 224.4 230.8 240.9 254.9 263.7 266 267.5 268.2 267.5 266.3 264.6 260.8 253 237.3 225.7 217.5 209.6 208.6 217 230.7 245 254.6 260.8 265.4 267.6 268.6 268.9 268.7 267.8 266.3 264.2 262.5 260 257.8 241 228.9 222.2 211 201.8 190.8 185.3 185.6 189.6 196.1 206.9 216.7 224.9 231.4 243.2 253.9 257.3 260.3 263.1 265.3 266.9 268.5 269.9 270 270.1 269.1 267.7 266.3 263.9 260.8 257.1 255.1 253.8 251.6 251.1 250.2 250 250.6 251.6 252 252.6 252.7 252.2 248.5 236.3 223.3 215.2 208.5 204.7 200.8 195.5 188.4 178.9 172.5 179.3 188.2 192 194 193.8 191.4 188 183.3 176.9 168.7 160.3 154.5 152.6 148.4 144.8 140.9 136.9 133.4 130.4 127.4 124.6 124.8 126.8 128.7 131.3 133.1 135.4 138.8 144.3 146.9 144.5 150.3 160.2 167.6 172.7 176.6 180.5 183.4 187 190 186.8 180.7 175.9 169.9 164 158.4 153.2 148.7 147.3 147.5 145.1 140.7 136.6 135.3 132.8 135.9 140.8 139.2 135.1 132.3 127.9 122.9 118 116.2 114.4 115.8 120.5 122.9 125.4 127.9 130.4 134 138.9 145.6 152.5 158.2 165.3 175.2 185.8 194.2 206.2
127.6 129.4 132 133.9 136.2 140.4 144.3 146.8 148.7 151 155.2 158.7 162.5 165.2 167.9 170.5 171.9 170.8 170.9 173.9 176.9 178.4 178.6 182.2 187.8 193.4 198.6 203.3 208.4 213.8 220.5 231.4 237.2 247.5 256.6 264.3 266.3 267.6 267.8 267 265.9 263.4 259.3 249.6 232.5 219.7 212.6 205.9 205.5 213.5 224.7 239.1 247.5 256.5 262.5 266.4 267.9 268.1 267.7 266.3 264.8 262.9 260.7 256.9 243.6 228 220.4 209.9 201.9 196 188 183.4 184.1 188.5 196.2 207.6 217.6 227.3 236.2 248.6 256.6 259.8 262.3 264.6 266.4 268.1 269.3 270 270 269.7 268.2 266.8 265.2 262.1 257.4 247.2 242 240.3 237.7 236.4 234.8 236.2 238.2 240.6 243.4 245.8 248.4 249.3 242.4 225.7 215.8 207.9 202.3 199.4 197.8 194.1 187 178.7 169.8 173.6 182.2 185.1 186.1 186.2 185.6 183.6 180.1 175.7 170.1 163.1 155.2 149.2 145 141.9 138.8 135.7 134.4 130.1 126.5 123.9 124.1 127.4 131.4 136.4 141.2 143 143.8 152.8 156.9 153 149.8 158.3 168.4 175.2 179.7 183.6 186.5 189 189.1 185 179.6 173.4 167.5 162 156.4 150.3 145.8 142.7 141.5 138.6 135.7 133.1 132 129.6 132.5 136.8 136.9 132.9 129.6 125.1 120.4 116.1 114.7 114.7 116.4 119.4 122.1 125.9 129.3 132.4 136.5 141.5 147.9 154.6 160.9 165.6 176.4 187 196.3 207.6
127.8 130 132 135.3 137.3 140.5 143.9 144.7 149.9 152.5 155.8 159.6 163.4 167 169.7 172.4 174.7 174.6 175.7 177.9 179.6 181.8 183.2 184.9 189.2 194.6 200.2 205.9 210.7 217.9 225.9 238.4 246.2 252.1 258.7 264.6 266.4 267.7 267.4 266.7 265.3 262.3 258.3 245.4 228.1 216.4 208.8 202.1 203 208.9 218.2 227 236.4 247.1 258.5 264 266.5 266.8 266.1 264.5 263.1 260.6 257.4 249.1 234.7 221 211.2 200.9 195.1 191.2 186.8 182.3 183.6 191.1 202.1 211.4 221.4 231.5 242.5 253.3 259 262 264.1 265.9 267.6 268.7 269.7 270 270 268.8 267.4 266 263.9 260.4 251.5 238.1 230.1 228.9 225.8 223.5 222.7 223.5 225.1 227.9 232.1 236.7 238.6 240 227.6 216.9 209.2 201.1 196.1 192.9 191.5 190.1 184.6 177.7 168.4 167.4 176 179.4 178.3 178.5 179.2 178.2 175.7 172.2 168.1 162.1 156.2 151.5 146.9 142.7 139.3 137 134.2 130.2 125.4 123.1 123.3 128.7 135.3 141.6 146.7 150.1 152.4 151 155.9 158.2 153.7 156.8 167.9 176.1 182.2 186.7 189.9 191.6 188.2 183.3 177.9 171.9 166.2 160.4 153.4 147.3 142.4 139.9 137.4 134.8 132 130.2 128.4 127 128.8 132.4 133.5 130.7 126.5 122 117.5 115.2 113.1 114.4 117.8 122 124.8 128.7 131.4 135.2 139.2 143.7 149.4 155.7 160.6 168.6 178.7 188 197.1 208.8
127.8 131.2 134.4 137.4 139.3 140.9 145.6 148.2 151.6 154.3 156.4 160.1 164 167.6 171.1 174.3 176.6 177.5 178.3 180.4 181 182.7 187.4 189.3 190.8 196.3 201.9 207.1 213 220.8 230.8 241.8 249.7 255 260 264.5 266.5 267.4 267.1 266.5 264.9 261.7 255.8 243.6 225.8 213.9 206.8 200.3 197.8 203.4 210.3 216.9 222.9 231.4 247.8 260.1 264.9 265.4 264.4 262.8 260.9 257.7 253.4 240 223.6 214.8 202.1 192.5 189.4 187.2 182.9 177.3 185.3 194.9 208.5 216.4 226 234.9 244.6 255.4 260.3 263.3 265.3 267.1 268.1 269.1 269.9 269.9 269.4 267.7 266.2 264.8 262.2 258.6 248.4 233 223.1 219.9 216.2 212.8 212.8 214.8 217 221.4 224.5 227 227.5 226.4 218.7 212.1 203.6 196.6 188.7 184.2 183.2 181.8 179.9 173.8 166 164.1 169.8 172.1 171.5 171.9 172.7 172.2 170.4 167.7 165.1 160.5 155.6 151 147 143.1 139.1 136 132.2 128.4 124.6 122.9 123.3 128.3 135 140.1 146 153.6 159.1 161.1 160.5 158.4 156.4 158.6 168.6 180 184.7 189.1 194.1 192.4 187.9 182.5 176.6 170.8 164.8 158.3 151.8 146 141.8 139.5 137.9 135.4 132.5 129.9 127.1 125 124.5 127.5 128.5 126.8 122.8 118.3 115.7 114.2 114 114.4 119.2 123.4 126.8 129.1 131.4 134.3 136.7 142.5 148.7 155.4 162 170.2 178 187.8 197.2 208
129 132.5 136 139.7 141.7 143.1 146.9 149.9 153.3 156.4 158.8 160.9 164.6 168.2 172.1 176.1 179.1 180.5 181.6 182.6 184.6 187.2 190.2 192.9 195.1 197.9 202.8 208.7 215.3 224 234.2 244.3 251 255.6 261.2 264.5 266.3 267.2 267.1 266.2 264 260.6 255.1 238.6 221.8 210.5 204.3 196.9 192.8 198.7 203.5 209.2 216.3 225.1 237 252.5 261.9 263.9 262.6 260.7 258.3 254.2 245.6 229.2 217.5 206.9 196 186.3 181.6 180.4 177.9 179.1 187.8 199 212.1 220.3 226.8 234.8 244.5 255.8 261.1 264.1 266.1 267.6 268.7 269.5 269.8 269.1 268.6 266.8 265 263.5 260.6 256.4 245.8 229.6 220.7 214.5 209.2 204.9 203.7 206.4 209.3 215.1 218.5 218.3 219 217 213.5 206.4 198.6 189.2 181.6 176.3 172.8 171.4 171.3 170.8 164.7 159.7 161.9 166 164.4 164.1 165.1 165.8 164.7 162.7 160.5 157.7 154.7 150.6 147.2 142.8 137.9 133.7 129.9 126.1 123.6 122 122.8 128.1 133.7 139.9 144.9 150.5 157.8 163.2 169.3 165.4 160.3 160.9 170.3 183.4 188 191.7 196.4 192.8 188.3 182.8 177 170.6 164.8 158.3 151.2 145.6 143.7 143.1 142 138.4 134.6 130.6 127.9 124.6 122.2 122.1 122.8 122.6 119.3 116.3 114.4 113.5 113.8 114.7 118.3 120.9 123.8 126.4 129.3 132.8 136.7 140.8 146.4 155.5 160.9 168.8 178.5 187.9 196.2 206.3
130 133.7 137.7 141.4 144.1 145.8 148.2 151.8 154.7 157.9 161.2 163.6 165.5 169.2 173.5 177.7 181 182.9 184.1 186.1 188.4 190.7 193 195.7 199.3 201.5 205.3 210.7 216.6 226.6 237 246.8 252.2 256.8 261.5 264.6 265.6 267.2 266.9 265.8 263.4 259.1 249.9 233.1 218.6 208.3 202.2 194.8 189.8 195.3 200.2 205.6 211 217.1 227.1 240.3 256.4 261.9 260.6 257.8 254.5 248.2 231.6 220.9 210.8 200.2 192.3 183.4 175.1 172.2 175 181.1 191 201.4 212.8 219.4 225.9 234.2 244.7 256.1 261.6 264.7 266.6 268 269.3 269.5 269.5 269.2 268.2 266.3 264.3 261.8 257.8 252.1 238.5 226.7 218.6 211.9 206.4 201.2 195.6 195.3 199.9 206.6 211.4 210.5 210.7 209.3 206.2 202.3 194.3 182.2 172.6 169.7 165.4 161.1 160.8 160.7 161.7 156.8 155.7 157.4 156.1 156.7 158.7 160.5 160.4 158.2 155.8 153.6 151.2 148.7 145.1 140.9 136.5 131.9 127.6 124.5 122.2 120.4 124.5 133.4 138.5 143.3 147.8 154 161.9 168.7 176.2 179 173.6 167.1 171.7 186.1 191.7 196 197.7 193 188.4 183.4 177.3 170.4 164.4 157.6 150 143.5 141.6 140.9 139.4 136.2 134.8 131.3 128.8 125.7 122.3 119.9 119.2 118.5 116.7 114.7 113.7 112.7 113.6 114.8 118.4 121.6 124.2 127.9 131.9 135.9 140.1 144.2 150.2 155.2 161.3 170 179 188.7 194.3 204.8
132.2 136.6 140.7 144.1 147 147.9 148.9 153.4 156.2 159.4 162.7 166 168.2 171 175.3 179 182.5 185.4 186.5 189.3 191.4 193.5 195.8 198.7 202.2 206.1 209.6 214 220.5 231.9 242.1 251.3 255.3 258.2 262 265.2 266.6 267.1 266.5 264.9 262.8 255.9 241.6 225.3 212.9 205.7 199.7 193.2 187.9 192.9 197.6 201.9 206.3 211.7 219.2 230.5 243.6 257.5 258 255 245.1 229.5 218.4 210.2 201.6 194.5 187.6 180.6 172.6 167.6 172.7 181.5 192.1 202.8 212.9 218.9 225.6 232.9 243.4 255.6 262 265 267 268.4 269.3 269.6 269.7 269.1 267.9 266 263.6 260.2 255 244.3 229.3 221.2 214.2 208.2 202.7 198.5 190.7 186.1 190.9 198.5 202.8 201.7 200.9 200 197.5 194.8 189.5 174.4 164.5 161.6 160.5 157.5 154.5 152.1 151.7 154 153.3 150.9 151 151.9 155.6 157.4 156.1 153.9 151.8 149.9 147.6 145.6 142.4 138.8 134.5 130 125.7 122.7 121 120.6 128.2 135.5 142 148 153.9 160.4 167.1 175.1 182.6 188.1 188.9 180.6 181.7 187.7 195 200.8 199.1 194.9 188.7 183.8 177.7 170.6 162.3 156 149.2 144.4 140.5 137.3 134.9 132.3 130.2 129.2 128.7 126.7 123.5 120.4 117.8 116.5 115.1 113.8 112.9 112 113.3 117.1 122.6 124.9 127.3 130.7 136.8 141.6 145.6 149.5 154.3 158.7 165.5 173.5 181.4 189.3 194.4 204.7
134.5 139.1 143.8 147.2 149.7 151.2 152.8 154.6 157.6 160.9 164.2 167.5 170.9 173.1 177 180.4 183.8 187.2 189.6 192.4 194.5 196.6 198.8 202.6 206 209.6 213.3 217.7 226.9 239.5 252.9 256.8 257.8 260.6 263.4 265.6 266.9 266.7 265.8 264 260.8 252.8 234 217.3 208.5 201.9 196 189.8 185.5 190 194.3 197.8 202.3 207 212.4 220.5 231.6 244.3 254.7 251.8 238.6 225.5 213.4 205.7 198 190.5 183.1 176.6 170.5 168 171.3 179.8 191 201.8 211.7 217.5 224.9 232.2 243.4 255.6 262.4 265.3 267.4 268.7 269.3 269.6 269.3 268.5 266.7 264.6 261.7 257.1 249.6 232.4 225.8 218.3 207.6 201.8 196.3 192.1 186.3 180.8 184.2 193 195.4 194.9 192.7 188.4 184.6 180.7 179.5 174.2 164 156.5 155.5 153.3 151.2 148.7 147 149.3 152.5 148.3 147 148.3 151.5 154.8 153.3 150.5 147.8 146.2 144.5 142 139.4 136.3 132.1 127 123 120.1 119.7 124.8 130.1 135.7 142.1 150.8 160.4 167.3 174.5 181.9 188.9 195.9 199.1 197.2 195.8 195.2 201.5 205.1 201.5 197.1 189.6 184.9 179.4 171.9 163.3 154.9 149 145.6 143.7 141.6 138.3 134.7 130.2 126.3 125.6 124.7 122.6 120.5 117.2 115.3 114.1 113.1 112.5 112.9 115.6 122.4 127.4 130.7 131.9 134.2 139.4 145.4 150.1 153.9 157.8 163.3 169.6 176.4 182.8 189.6 195.9 204.7
136 140.4 145.1 149.3 152.7 154.5 156.2 157.8 159.4 162.5 165.9 169.3 172.7 175.7 178.5 182 185.4 188.7 191.6 194.7 197.6 199.4 201.8 206.1 210 213.6 217.2 222.1 233 249.4 260.5 261.6 262 262.9 264.6 266.6 267.1 266.4 264.7 262.4 257.8 244.5 227.4 212.8 205 198.1 191.7 185.5 181.8 187.3 189.5 193.5 198 202.5 208.5 214.7 222 228.9 241.4 250.3 239.2 220.1 207.7 198.2 191.2 183.8 177.6 171.9 167.8 168.2 173.2 177.5 186.9 196.9 208.5 215.3 223.7 230.9 243.8 256.2 262.8 265.7 267.7 268.7 269.2 269.3 268.6 267.1 265.2 262.9 258.4 252.7 236.8 226.4 219.1 208.7 201.2 195.1 191 186.2 182.3 178.3 180.1 188.2 193.8 187.4 184.5 180.3 174.8 166.9 168.7 164 159.1 157.1 155.6 153.3 148.5 146.2 144.5 147 151.9 149.3 145.7 145 148.8 152 150.7 148.2 145.4 143.9 142.5 139.8 135.9 133 128.7 124.1 119.3 119.5 125.3 131 135.7 140.1 144.7 153.3 164.9 173.8 180.9 188.2 194.2 200.7 205.1 211.3 211.2 207.3 211.8 210.6 204.4 198.4 192.2 186.6 180.4 173.1 162.3 151.8 146.1 144.1 144.3 143.6 141.3 138.7 134.6 128.3 123.9 121.2 120.1 118.8 116 114.4 113.3 112.6 112.4 111.3 118.8 123.8 129.2 133.2 136.8 138 141.5 147 151.8 156 160.6 166.9 173.4 179.9 185.8 191.7 196.3 205.9
137 141.1 145.4 150.1 153.9 157.4 159.7 160.9 161.9 164.5 167.9 171.2 174.4 177.6 180.6 184 186.8 189.5 192.5 195.6 198.8 202.8 205.7 209.6 213.3 217.2 221.4 228.7 242.2 260 265 264.3 264.2 264.4 265.7 267.3 267.2 265.3 263.3 260.5 253.4 237.1 222.4 209.5 201.8 195.1 188.5 181.8 177 182.8 185.8 189.5 193.3 199.1 205.5 211.7 214.4 217.7 225.7 241 243 219.4 206.1 193 182.2 176.1 171.9 167.5 162.1 168.9 171.3 176.2 184.4 195.8 206.2 213 221.6 231.4 243.7 257 262.5 266.1 267.5 268.4 268.9 268.5 267.7 266 263.5 259.4 254.5 241 227.5 220.4 212.5 201.3 195.5 190.2 185.6 181.3 177.2 173.2 176.3 183.8 184.3 182.1 178.6 171.9 164.1 159.2 157.4 155 153 153.3 156.7 153.9 147.6 144.2 142.1 144.3 149.4 149.6 144.8 142.3 144 148.2 147.6 145.1 142.6 141 140.8 138.5 134.5 130.5 126.6 122 118.1 121.5 129.3 135.1 140.6 145.6 150.6 159.7 167.9 176.3 184.4 191.6 198.9 206.2 219.3 229.1 227 221.4 220.6 213.5 206.6 200.8 193.9 187.1 180.2 170.9 160.6 150.9 145.4 140.4 138 138.7 139.1 137.8 135.7 131.1 125.5 121.7 118.6 117 114.8 113.1 112.7 112.2 111.6 114.9 119.6 124.9 130.4 135.5 139.6 142.3 145.2 149 153.1 157.7 162.8 169.4 175.7 181.6 187.3 192.1 197.6 209.2
137 141.1 145.1 149.6 154.3 158.6 161.6 162.1 163.7 165.8 168.6 171.6 175 178.6 181.9 184.9 187.6 190.4 193.5 196.7 200.2 204.4 208.2 212.4 216.6 220.4 222.1 235.4 255.9 266.1 266.7 266.2 265.5 265.3 266.2 267.4 266.7 264.2 261.5 254.1 240.8 225.3 213.7 204.1 197.9 191.9 185.2 178.4 172.4 175.8 182 185.6 190 196 201.4 206.5 210.7 213.4 215.8 223.3 232.7 219.8 206.6 197.2 185 171.9 164.5 161.6 161.8 165.4 168.7 174.7 182.9 193.6 204.4 212.4 220.3 231.2 243.3 256.7 262.6 265.6 267.1 268.1 268.4 267.7 266.8 264.5 261.5 256.2 248.1 231.7 222 214.7 205.6 194.2 187.9 183.1 180.2 176.5 172.3 169.8 173.8 177.6 179 176 171.3 169.3 162.3 154.5 150.4 149 147.4 147.7 152.1 151.2 146.7 142.8 141 143.6 151 152 147.3 141.2 140.5 141.6 141.9 140.7 138.7 137.2 136 134.3 130.4 129.1 125.5 120.2 118 123.8 131.8 138.2 144.2 150.2 155.6 162.8 170.1 178.4 185.5 193.3 201.8 212.6 227.1 242.4 241.2 233.2 223.7 214.9 206.8 200.7 193.5 185.6 177.2 167.4 158.8 152.3 147.1 141.5 135.9 132.6 132.9 133 131.4 128.9 124.4 120.4 117.3 115.3 114.1 112.9 111.7 112.2 112.1 116.1 120.5 126 131.4 136.6 141.6 146.1 149.9 151.5 156.7 160.4 165 170.9 177.5 183.6 188.9 193.9 199.9 211.4
135.1 138.6 142.8 147.7 152.9 157.4 160.6 162.1 163.7 165.8 168.6 171.3 174.4 177.8 181.7 185.1 188.3 191.4 194.7 197.9 201.5 206 210.2 214.8 219.3 224.5 230 246.8 264 268.6 268.2 267.1 265.6 265 265.1 266.3 265.8 261.3 251.2 238.8 225.7 216.6 208.1 199.7 192.6 187.6 181.8 175.6 170.1 172.8 177.6 181.5 186.8 192.4 197.2 201.4 205.2 207.1 208.6 210.7 215 213.4 202.9 193.9 185.3 174.7 165.6 158.6 158.9 161.7 166.9 173.5 182.4 193.1 203.3 212.9 220.7 232.1 245 256.4 262.1 265 266.8 267.6 267.9 267.2 266.2 263.8 260.2 254.1 241.5 226.3 216.4 209 197.7 186.5 181.6 177.5 174.2 171.1 168.3 166.9 170.2 172.5 173.4 170.2 167.3 163.8 160 152.8 147.8 145.7 144 143.4 146.3 147.4 143.9 140.3 139.1 146.2 155.4 153.9 149.9 141 137.1 136.4 135.9 135.1 133 131.3 129.5 127 125.2 124.2 122 118.9 116.2 126.2 135.3 143.4 147.9 155.4 162.3 167.6 173.3 182 189.3 196.4 205.8 218 233.7 245.1 243.5 238.9 228.5 215.9 207.9 201.1 192.9 184.2 174.7 168.3 160.7 155.3 151.3 146.4 140.4 133.5 129.3 126.5 125.7 123.3 120.8 117.5 115.4 113.9 112.6 111.4 111.3 110.6 112.9 117.5 122.4 127.7 132.8 138.2 143.2 147.1 150.4 154.8 158.1 162.4 166.8 172.9 179.3 185 190.1 194.8 203.3 216.6
135.7 138.4 141.4 144.5 150.1 154.5 156.9 157.7 158.1 161.7 166.7 169.7 171.6 177.9 181.5 185 188.2 193.2 196 199.1 202.9 207.4 212.2 217.3 222.2 227.2 239 255.4 267 268.9 268.9 267.6 265.4 264.4 263.6 263.1 259.6 250.3 237.7 226.6 216.5 209.1 203.5 196.9 189.9 184.3 179.3 174.3 168.3 167.6 173.8 177.9 183.1 187.5 192.3 196.6 199.8 200.6 202 202.7 206.3 205.6 199.1 192.4 182.9 174.6 166.3 157.2 156.3 159.6 164.7 171.7 180.2 192.6 202.4 209.9 220 232.2 245.3 256.6 261.8 264.6 266.3 267.1 267.3 266.6 265.3 263 259.2 253.4 241.9 227.5 215.6 206.5 195.9 188.1 181.6 175.7 171.9 167 165.3 162.2 164.7 166.3 167.5 166.4 162.4 158.7 155.5 150.3 145.8 143.6 142.1 141 140.7 141.5 139 137.5 139.7 150 155.2 153.8 149.4 141.9 137.1 135.1 132.8 131.6 129.3 127 124.4 123.2 121.7 120.5 119.2 117.5 118.5 128.3 136.8 142.6 148.2 157.4 164.7 171.4 177.9 186.9 194.4 199.7 211.3 224.8 241.5 247.2 245.6 240.7 230.1 217.1 209.2 201.1 192.5 182.6 178.5 170.6 163.5 159.2 155.9 151.3 144.8 137.2 129.1 125.2 122.7 120 117.8 115.8 114.2 112.6 111.2 111.2 111.2 111.7 114.8 119.2 124.2 129.2 134.2 139.5 143.6 146.4 151.5 155.1 158.9 163.4 168.9 174.6 180.8 186.7 191.5 197 210.1 220.8
137.2 140.1 143.8 147.2 149.1 151.6 153.7 156.7 160.2 163.3 167.3 171.6 174 177.8 180.2 183.7 188.3 193.7 198.4 201.4 205.1 209.6 214.7 220 224.9 232.3 247 262.7 267.7 269.4 269.4 267.6 265.2 262.6 260.2 255.8 246.2 234.5 225.7 216.1 209.9 203.8 199 193.1 187.3 181.7 176.2 171 166.2 163.5 169.8 174.4 178.9 182.9 186.8 190.8 194.6 192 193.5 194.8 196.4 196.5 196.7 188.8 179.3 171.1 165.5 157.4 153.9 157.3 162.6 168.9 177.2 188.8 200.3 208.1 218.4 229.9 245.1 256.1 261.5 264.5 266.1 266.9 266.8 266.1 265.1 263.4 259.4 255.3 246.9 236.4 222.3 210.2 201.8 192.3 186.4 179.6 174.6 169.5 165.4 162.5 158.6 161.1 161.4 161 158.5 155.2 151.7 147.4 144.2 141.5 140.2 139 138 137 136.2 136.4 142.7 151.8 155.1 154.3 151.3 147 141.6 136.3 133.8 132.6 131.3 132.7 132.2 130 125.7 120.8 118.1 116.2 120.4 126.6 134.2 140.7 148.4 158.2 165.3 176.4 184.8 192.4 199.2 207 218.3 232.7 247 249.1 247.5 241.7 228.3 218.2 207.4 194.3 181.9 173.1 174.4 170.9 164.7 162.9 160 154.3 148.2 139.1 129.4 124.1 120.8 119.4 117.3 115 113.1 111.7 110.8 111.7 111.7 113.1 115.3 121 124.8 129.8 134.7 138.7 142.7 147.1 152.4 156.2 160.2 165 170.1 176.2 182.4 188.2 193.2 201.6 215.7 222.7
138.8 142.6 146.3 149.9 153.4 156.6 159.2 161.9 164.7 167.7 170.7 173.9 176.9 180 182.2 183 185.7 191.5 199.1 204.7 208.3 211.9 217.1 222.6 228.2 239.8 253.7 265.4 268.6 269.6 269.2 266.6 261.9 257.7 253.2 245.7 232.6 222.5 214.1 209.9 204.7 199.8 195 190.3 184.9 179.4 173.9 169.8 164.5 161.7 166.8 170.7 175.1 178.5 182.3 186.3 187.3 183.2 185.5 186.5 186.7 189.3 190 183.3 173.7 165.9 161.1 155.9 152.3 155.7 160.8 166.6 176.4 186.5 195.6 205.1 216.7 227.8 243.3 256.5 261.2 264 265.7 266.7 266.5 266 265.2 263.8 261.5 257.5 252.9 249.2 228 216.3 208.3 200 193.5 184.7 177.9 175.6 169.1 164.8 160.2 156.2 155.4 154.9 153.9 150.9 148.3 145.3 142.5 140.3 138.4 137.6 136.7 135.3 134.6 137.5 147.3 152.2 154.5 154.4 152.4 150.2 147.4 144.2 141.3 139.5 139.5 137.6 134.1 129.3 123.1 118.7 116.7 117 123.5 126.4 133.5 139.8 146.6 156.7 164.5 174.8 185.2 196.4 203.2 212.7 226.4 242.7 250.4 251.8 251.8 242.9 230.8 219.9 210.8 196.6 183.7 172.4 161.5 156.8 154.4 155.6 157.2 149.8 140.9 132.5 126.1 124 122.7 120.5 117.2 114.5 112.1 111 109.2 110.5 112 114.5 116.3 120.2 124.4 128.7 135.3 138.6 142.2 147.8 153 157.3 161.7 166.8 172.1 178.1 184.5 189.8 194.9 206.5 219.5 223.6
140.8 144.7 148.7 152.3 156.4 159.4 162.3 165.3 168.2 171.2 174.1 176.9 179.9 183.3 185.9 188 189.5 189.4 196 205 210.2 211.9 218.1 224 234.2 248.8 261.8 267.1 268.6 268.1 266.7 262.2 254.1 246.1 242.2 234.9 225 216.1 210.5 206 201 195.9 191.7 187 182.6 177.4 172.2 167.7 162.6 160.1 163.5 167.2 170.9 174.2 177 180.6 182.3 177.2 178.7 178.5 176.8 175.8 174.9 172.2 165.6 160 155.6 153.3 150.6 154.7 161.1 168.5 177.6 186 193.6 204.8 214.8 225.1 239 254.4 260.6 263.3 265 266.3 266.3 265.9 265.3 263.7 261.5 259.2 255.2 251.6 239.3 223.6 212.5 204.7 199.2 193 189.4 183.7 174.7 171.5 166.5 158.6 153.8 149.9 149 148.3 146 142.7 141 139.8 137 137.1 135.4 133.4 132.7 136.2 145.9 151.6 154.2 153.5 151.4 149.3 147.3 145.6 143.8 141.4 138.7 135.2 130.3 123.9 118.9 116.1 115.3 120.3 128.4 133.3 132.2 137.3 146.6 161.7 165.6 175.4 186.5 197.1 205.1 216.4 233.1 247.4 252.9 255.5 256.6 247.4 233.8 221.4 208.7 198.5 186.8 177.4 167.2 158.4 150.8 145.1 141.6 136.9 132.4 129.2 126.9 126.4 125.3 122.8 118.6 113.8 111.2 110.2 109.2 110.4 112.8 115.8 118.5 121.4 124.8 129.1 133.8 139.1 143.7 149.2 154.1 158.5 163.5 168.7 174.4 180.2 186 191.3 197.3 211 221.7 224
143.5 147.3 150.6 153.9 157.5 161.2 164.7 167.7 170.7 173.8 176.1 178.9 182.1 185.4 188.7 191 193.1 196.2 200.6 206.8 211.2 215.3 220.1 228.3 241.6 257.5 265.9 268.6 268.3 265.9 260.7 252.7 238.6 231.3 228.7 224.9 216.5 208.6 206 200.9 196.5 192.8 188.4 183.7 179.2 174.7 170.3 166.3 161.3 157.6 159.6 162.6 166.5 169.9 172.4 174.5 174.4 170.2 170.7 170.3 168 165.4 164.3 162.6 157.3 153 150.6 148.5 151 157.3 165 171.6 178.6 186.6 195 203.3 210.5 220 231.5 247.5 258.3 262 264.7 265.8 266.1 265.7 265.2 263.5 262.3 260.5 257.7 254 248.6 234.8 220.5 212.9 204.9 199.8 195.8 189.1 185 178.8 170 162.5 158.7 155.4 152.3 150 148 145.8 144.5 141.9 139.2 137.2 135.5 133.5 130.4 133.5 143.8 148.7 150.8 151 150.1 148.4 146.5 144.2 142 138.4 134.8 130.6 125.4 120.5 116.4 114.5 116.8 122.9 131.1 138 141 149.3 158.5 164.4 168.2 175.2 181.4 193.5 204.3 217.5 234.7 247.6 256.3 258.8 259.3 254 238.3 221.6 209.1 200.6 190.8 181.2 170.2 161.6 154.1 148 142.7 138.5 135.3 132 129.1 128.1 127.3 124.4 119.6 114.3 110.2 110 109.2 110.6 113.6 117.5 120.4 123.9 126.9 132.2 135.6 139.6 145.6 150.6 155 159.5 164.8 170.3 176.6 182.4 187.7 193.1 201.1 214.8 222.9 224.5
144.8 148.1 151.4 154.5 157.7 161 164.3 168.2 171.5 174.3 177 180.4 183.7 187.1 190.5 193.1 194.7 198.6 203.5 208.4 212.7 216.9 222 231.8 246.4 261.3 267.6 268.2 266.4 263.1 255.4 242.5 230.4 223 220.1 216.5 208.6 201.9 200.2 194.5 191.5 188.7 184.2 180.3 176.3 172.2 168 164.3 159.9 156.3 156.7 159.6 163.3 165.8 167.1 167.5 166.3 162.5 162.6 162.3 160.7 159 158.5 155 150.4 147.9 145.1 149.4 155.9 161 167.7 173.8 181.4 187.5 194.6 200.1 205.4 214.3 224.8 238.4 253.8 261.7 264.5 265.4 265.8 265.5 265.1 264.1 262.9 261.2 258.9 256.4 253.5 245.8 235.1 222.5 214.8 207.7 203.2 198.8 192 182.8 176.2 172 169 162.8 159.3 158.5 154.5 152.4 150.4 146.5 142.5 139.6 137.8 134.7 130.1 130 137.2 143.8 146.9 147.6 147.6 147.2 146.2 143.9 141.8 137.3 132.4 127.5 122.4 118.3 114.6 114.4 119.6 125.8 131.8 139.1 145.4 153.8 161.5 161.1 158.3 162.4 171.5 184.9 197.1 209.2 223 236 250 259.6 260.2 256.1 240 220.7 208.7 199.3 189.5 180.6 170.2 161.5 155.1 149.5 143.9 138.8 135 131.8 130.2 128.8 126.7 123.4 118.9 113.7 109.3 109.3 109.4 111.3 115.6 119.4 122.2 125 129.5 132.6 136.8 141.1 146.6 151.1 155.9 161 166.5 172.2 178.4 184.3 189.6 194.9 206.3 219.4 224.1 224.4
145.4 148.2 151 153.8 157 160.2 163.5 167.4 170.7 173.7 176.4 179.9 183.2 186.3 189.8 192.3 193.7 199.4 204.8 209.9 214.1 218.4 222.9 234.2 249 263.5 267.7 267.3 264.8 261.5 249.2 235 224.2 216.3 212.7 209.5 206 202.2 193.8 192.6 187.6 184.8 180.9 176.8 173.1 169.6 166.1 162.3 158.4 155.7 153.5 157.2 160.1 162.4 164.5 163.1 160.4 156.4 156.4 156.1 155.3 154 153.6 150.7 146.4 143.7 145.5 151.7 156.8 161.6 166.2 172.1 177.8 182.1 187 192.3 198.8 207.8 218.5 229 247.5 259.3 264.5 264.8 265.5 265.1 264.6 263.6 262.3 260.8 259.5 257.3 255.4 252.6 247.3 237.8 225.8 215.6 210.6 206.3 199.3 192.4 188 181.2 175.1 169 169.1 167.3 163 160.2 156.1 150.6 145.3 143.4 141.8 138 133.3 129.5 130.2 138.1 141.9 144 146.2 145.8 145.1 143.8 141.6 138.3 134.3 129 122.4 116.2 113.3 115.9 121.1 126.4 132.3 139.8 144.5 151 150.7 146.4 149.6 156.7 168.5 181 190.7 202.5 215.6 226.9 242.3 258.7 260.2 255 239.4 219.2 206.7 194.7 182 167.5 158.4 151.7 152.2 148 144.5 138.7 133.9 130.6 129.8 127.9 125.1 121.2 116.7 111 107.8 109.3 109.5 112.5 117.1 121.1 124.1 127.1 132 136.1 138.6 143.8 148.4 152.8 157.5 163.2 168.8 174.3 180.2 186.1 191.6 198 211.2 222.3 224.5 224.4
145 147.7 150.4 153.1 156.2 159.5 162.7 166.7 170 173 174.3 177 180.3 183.8 187.9 190.8 194.2 199 204.2 209 212.8 218 223.3 235.4 251 264.4 267.3 266 263.1 256.3 243.9 230.7 221.6 211.6 207.5 204.7 201.4 198.7 193.1 187.7 183.2 180.4 176.6 173.4 170.3 167.3 164.4 162 158.2 154.9 152.5 153.6 156.4 159.2 160.7 158.4 154.6 152.1 151 151.9 151.1 149.9 149 147 144.1 141.6 145.3 150.4 155.3 159.9 163.9 167.9 172.6 176.9 181.1 187.2 195.6 203.9 212 225.4 239.7 255.2 262.8 264.2 264.6 264.6 264.2 263.1 261.6 260.2 258.9 257.8 255.8 254.1 251.3 247.6 242 230.7 222.3 213.5 205.3 199.6 193.6 188.1 183.2 177.9 176.3 176.1 171.9 166.5 159.4 153.2 149.1 149.2 146.8 141.7 136.7 131 126.9 132.7 137.8 141.8 144.5 143.8 142.3 141.8 140.5 138.3 134.6 130.7 124.5 116.9 113 115.8 120.1 125.5 131.9 138.1 143.7 144.9 137.2 141.1 149.3 158.9 169.2 178.7 189.8 201.2 210.8 222.4 233.7 251.6 261.1 252.4 234.9 217.6 205.9 192.8 179.7 163.5 151.1 144.1 143.3 143.3 142.3 139.8 134.2 128.1 127.6 125.2 122.1 118.2 114.1 109.3 108.7 109.4 109.5 113.8 119 122.4 125.6 129.6 133.7 138.8 142.7 146.6 150.9 155.1 159.6 165.4 171.1 176.1 181.8 187.7 193.3 202.4 217.5 223.3 224.5 224
144.7 147.4 150.3 153.2 155.8 158.9 162.1 165.5 168.4 169.6 171.8 174.1 178 179.9 184.2 188.1 190.7 195.3 201.2 207 211.8 217.6 224 237.7 252.4 264.9 267.1 265.9 262 251.1 239 226.3 216.7 207.6 203.7 200 197.4 194.9 192.6 189.1 178.3 176.4 172.3 169.5 166.3 164.2 162.1 159.9 157.4 154.4 151.2 150.2 152.9 155.4 154.6 152.8 149.9 148.2 147.3 148.4 148.4 147.3 145.9 143.6 141 140.3 143.6 148.9 152.6 157.5 160.5 163.7 167.5 172.9 179.1 186.1 192.5 198.7 207.7 220.7 235.7 254.9 261.8 263.6 263.7 263.7 263.7 262.5 261 259.6 258.3 257.1 255.9 254.2 252.5 250.6 247.2 242 231.5 220.2 213.5 207.2 201 196.1 191.4 188.2 185.4 181.1 175.9 170.7 164.3 158.7 157.3 154 151.5 146.5 142.2 134.3 127.8 131 136.1 138.8 141.3 140.9 139.4 139.3 137.9 137 134.2 131.1 125.6 117.8 112.8 114.7 118.3 123.3 128.3 134.7 140.3 140.7 134.5 141.4 149.7 158.4 167.2 174.3 186.2 197.6 205.3 213.4 224.8 237.4 252.4 245.5 230.2 215.8 204.5 190.9 180 164.2 151.8 143.1 138.1 135.6 135.2 137.4 133.1 126 123 121.9 119.2 115.3 112.1 108.5 109.1 109.3 110 115 119.9 123.2 126.7 131.8 136.8 140.7 144.6 149 153.3 157.6 161.9 167.6 172.8 178.1 183.6 189.3 195.8 207.2 220.8 223.8 223.9 223.3
144 147.3 150.6 153.2 155.6 158.6 161.3 162.9 165.5 168 169.6 170.6 172.8 175.2 179.5 183.4 186.9 193.3 199.7 205.1 211.5 217.7 224.2 237.9 255.6 266.9 267.2 265 255.4 243.3 231.3 220.4 211.2 204.5 199.7 196.1 193 190.6 188.5 186.7 183 177.9 172.3 167.3 164.3 162 159.8 157.8 155.6 152.9 150.1 146.2 149.3 149.4 148.5 147.5 146.9 145.6 144.3 145 144 143.9 143.2 141.1 139.5 140.2 143.6 147.1 150.4 155.3 158.9 162.8 166.5 172.1 178.6 184.5 189.9 196 206.2 219.6 232.3 252.1 260.8 262.7 263.6 263.5 263.3 261.8 260.3 258.8 257 255.5 254.3 253.4 252.2 250.7 249.7 246 241.2 231.1 221.8 213.5 206.8 201.4 196.5 193.3 189.8 185.9 181.5 176.9 168.4 159.6 157.1 156.6 155.3 152 145.4 136.3 129.6 127.4 131.7 134.6 137.7 136.7 133.8 134.5 134.2 134.1 132.8 130 125.4 118.2 111.2 112.8 116.8 120.3 124.4 129.2 133.1 132 133.8 141.5 147.4 154.8 160.3 165.2 174.2 186.8 197.4 206 214.7 228 237.2 233.3 223.7 212.5 200.8 190.4 177.8 165.4 153.7 146 138.4 133.8 130.7 131.8 130.1 124.9 120.4 117.9 115.4 112.9 110.2 107.6 108.7 109 111.2 116.4 120.3 124.3 128.4 131.6 136.4 139.5 144.1 150.7 155.3 159.8 164.3 169.6 175.2 180.6 186.2 191.8 199.6 213.4 222.5 223.8 223.3 222.3
143.2 146.4 149.7 152.6 156.1 158.8 161.2 162.4 163.8 163.9 164 166.1 169.2 172.5 176.2 181.5 187.1 193.2 199.3 205.1 211.2 217.6 225.7 240.3 258.8 268.3 266.6 261.3 249.4 233.7 225.2 215.4 208.4 203.1 197.8 191.9 187.8 185.6 183.3 181.9 180.2 176.1 170.6 166.1 162.8 159.7 157.7 155.8 153.8 151.1 148.7 146.6 144.7 144.5 143.8 143.7 143.7 143.5 142.2 142.3 141.1 140.7 140.6 138.5 137.8 139.7 142.7 146.2 148.5 152.1 156.1 160.5 165.2 170.6 176.4 182.2 187.6 195.9 204.7 217.6 230.2 251.1 259.4 261.7 263.2 263.1 262.7 261.1 259.2 257.3 255 253.1 251.3 249.7 249.1 248.3 247.9 247.2 244.6 237.6 228.6 218.5 212.6 207.3 203.4 198 194 190 185.6 178.9 169.3 161.5 157.1 155 156.7 151.9 145.8 138 130.5 126.3 126.4 130.2 131.5 130.9 128.8 129 129.4 129.3 129.1 126.4 122.2 116.6 112.7 111.8 114 117.1 120.9 124.3 126.9 128.5 133.1 138 143.6 146 150.3 154.8 163.8 175.6 188.5 196.3 205.5 215.3 223.9 225.6 222.8 211.1 197.8 187 174.8 163.3 153.8 146.3 139.6 134.2 129.4 127 126.6 122.9 119.2 116 114 112.2 109.3 107.7 108 108.8 112 115.7 120 123.6 127.1 129.5 133.6 139.1 144.4 150 155.1 160.1 165 170.7 176.8 182.8 188.8 194.7 205.6 219.7 223 223.5 222.6 221.7
142.3 145.2 148.3 151.4 154.7 157.9 158.1 155.1 158 159.5 162.8 165 167.6 172 177.7 182.3 187.7 193.6 199.8 205.3 211.6 218.2 227.2 243.6 262.1 268 264.8 255.4 237.1 227.6 218.4 210.9 204.9 200.5 196 190.5 182.9 179.8 177.8 176.9 176.5 174.1 169.4 166.1 162.2 158.5 155.7 153.7 151.7 149.5 147.6 145.7 143.5 141.6 140.9 140.7 140.7 141 140.1 141 141 138.4 138.2 136.4 136.2 138.8 141.7 144.8 147.1 150.5 154.4 158 162.8 168.3 174.1 180 186.4 193.3 201.7 213.1 230.4 250.8 258.8 261.5 262.6 262.8 262.1 260.3 258.4 256.1 252.9 249 244.2 239.1 237.9 237.5 237.3 240.4 242.5 241.8 235.5 223.4 216.3 212 207 202.2 197.7 192.4 186.6 179.4 171.2 165 158.7 151.6 152.3 148.7 143.6 138.4 134.9 130.4 125.4 124.4 124.5 125.5 124.4 123.9 124.4 123.2 122.3 119.3 116.4 114.1 111.5 109 109 113.5 117.1 120 123.7 127.8 130.6 134.5 137.1 139.8 143.3 148.1 156.9 166.8 176.9 183.7 190.4 201.7 215.2 221 218.1 208.6 197.2 186.2 174 161.5 153.1 146.7 140.1 135.4 130.5 125.3 121.9 120.2 116.8 114.2 113.3 111.7 108.4 108 108 109.3 112.3 114.9 118.1 120.4 126.8 126.6 130.2 134 140.2 145.7 152.5 159.9 165.9 171.4 178.6 185.2 191.2 199.1 211.8 221.5 223.4 223.1 222.2 220.5
140.2 143.5 146.9 149.8 152.6 155.3 155.6 153.2 159.4 163 165.8 168.3 172 172.6 178.8 183.9 189.2 194.3 199.9 206 211.5 219.2 230.4 245.3 265 267.2 261.8 247.9 231.6 221.5 212.8 206.9 201.6 196.9 192 186.6 179.9 174 171.6 171.6 172.2 171.4 169 165 161 157.4 154.5 151.7 149.7 148.3 146.6 144.2 141.8 140.3 139.2 138.1 137.7 138.2 138.2 141.5 143.1 139.1 135.9 135 135.3 137.7 139.9 142.4 145.2 149 152.5 155.8 160.7 166.1 171.7 178.1 184.5 191.6 202.2 214.7 230.2 249.4 258.6 261.2 262.8 262.7 261.8 260.1 258.1 255.5 251.5 246.1 233.6 227.4 224.5 222.3 222.2 224.6 227.8 232.6 236 229.2 218.7 215.3 210.8 205.6 199.3 193 185.8 179 171.3 163.4 157.1 151.4 147.6 144.9 140.9 137.4 134.7 132.4 127.4 122.9 121.2 121.6 120.7 120 119.2 118 116.5 115.2 114.2 114.7 113.8 112.4 110.7 110 113.5 117.6 121.5 124.2 126.9 130 133.5 136 139.3 144.3 150.6 157.1 162.1 164.2 178.3 193.4 208.2 212.3 210.4 205 196.9 188 176.6 163.8 151.7 144.6 138.9 134.4 129.6 124.9 120.8 117.8 115 113 111.5 110.4 108.4 106 108.1 109.8 113.2 116.9 121.2 124.5 127.7 130.9 131.6 133.7 139 144.4 153.1 160.2 167 172.7 179.7 186.6 193.3 204.8 217.3 222.7 223.5 223 222.1 219.9
137.9 141.4 144.7 147.7 150.1 151.3 150.3 155.7 160.5 164 167.2 171.2 173.7 174.6 178.4 183.8 188.9 194.1 199.8 205.7 211.7 219.4 231.1 249 265.5 263.9 257.1 243.2 229.1 217.5 210.4 203.5 198.5 193 187.9 183 177.9 171.4 166 165.6 166.5 167.4 165.7 163.7 159.7 156.4 153.4 150.4 147.7 146.3 144.8 142.4 140.5 138.8 137.7 136.7 135.6 136.1 136.4 140 142.2 138.8 133.8 132.9 133.6 135.7 137.9 140 142.9 146.4 150.2 154.2 159.6 164.9 171.1 177.3 183.9 191.4 202.5 214 227.4 244.9 258.2 261.1 262.5 262.8 262.1 260.1 258 255.1 252.2 247.6 233.3 222.5 217 215 214.8 215.7 217.3 218.8 221.1 220.2 214.8 214.3 213.5 208.8 200.8 193.7 188 182 173.7 166.6 160.4 155.5 150 144.4 139.5 135.1 131.4 128.2 126.6 125.4 123.9 123.1 123.7 123.8 124.8 123.7 121.7 121.1 119 120.2 117.9 114.8 111.8 109.3 111.2 113.6 117.7 120.3 123.5 126.5 130 133 136.7 140 144.3 149.5 153.9 172.6 190.8 197.5 199.5 203.8 204.3 199.7 194.1 188.5 179.6 168.1 152 142.8 136.3 131.5 127 122.7 119.5 116.3 113.8 111.6 109.9 108.2 107.9 107 107.2 110.2 114.2 118 122.6 126.8 130.1 133.8 137.9 141.3 145.5 150.5 156.2 162.6 169 175.7 181.8 188.5 196.7 209.7 220.4 223.5 223.6 222.9 221.3 219.3
136.1 139.2 142.9 145.8 145.8 147.6 152 157.1 161.3 164.9 168.4 172.6 176.9 180.5 181.2 184.4 189.7 194.6 200.7 206.2 211.9 220 230.5 250.8 265.5 262.8 254.1 239.1 226.9 216.2 208 200.7 194.7 189.7 184.1 179.1 174 168.7 162.9 160.3 161 161.2 161.9 161 158.5 155.3 152.3 149.4 146.3 144.2 143 141.2 139.3 137.5 136.2 135.1 133.7 134.1 135.2 137.2 139.1 135.9 132.5 131.4 131.6 133.7 136.1 138.4 141.1 144.7 149 153.2 158.7 162.7 169 176.3 183.2 192.8 202.7 214.9 228 245.7 258.3 261.1 262.1 262.4 262.3 260.4 258.5 256.2 253.3 249.6 237.5 221.5 216 209.6 205.9 205.2 205.4 207.4 211.2 209.7 205.5 206.7 212.8 211.2 204.6 196.7 190.4 185.1 178.4 172.2 165.1 159.2 153.6 147.7 142.8 138.6 135 132.7 131.7 132.9 133.6 135.4 135.1 134.1 135.5 133.1 131.2 129.8 128.9 126.3 122.1 116.8 112.4 109.4 108.2 110 114 117.3 121.5 124.1 127.1 131.3 134.6 137.2 141.3 146.6 160 181.2 189.1 190.9 192.5 195.1 197 193.7 189.7 184.4 177.6 170.4 160.6 145.9 134.2 129.3 125.3 123.3 120.7 118.7 116 116.8 112.9 108.6 106.9 107.1 106.9 110.1 114.2 118.6 124.1 128.7 132.7 136.7 141.1 145.2 149.6 153.9 159.1 165.4 171.6 178.1 185.1 191.7 201.5 215.6 222.3 223.8 223.6 222.7 220.9 218.8
136.6 138.8 141.1 142.9 147.3 150.8 154.5 158.2 161.8 165.5 169.2 173.3 177.3 181.5 185.8 187.8 192.5 196.9 200.8 205.7 212.6 220.7 232.1 254.3 265.6 261.1 251.6 236.1 224.3 215 207.7 201.2 195.5 190.4 183.5 177.8 171.6 167 162 157.1 156.5 155.7 156.7 157 156.1 153.9 150.9 147.8 145 142.5 141.3 139.6 138.1 136.3 134.6 133.4 131.6 131.9 133.1 134.3 134.2 132 129.9 129.6 130.6 132.4 134.7 137.3 140.2 144.9 149.8 154.4 160.8 166.4 172 179.7 186.5 196.4 204.9 214.9 226.4 244.5 257.8 261 262 262.3 262.6 260.8 259.1 257.2 254.1 251.1 244.8 229.5 208 202.7 194.9 196.7 195.9 196.9 201 199.4 198.7 204.9 211 216.2 208.2 202.3 194.5 188 182.1 176.5 170.9 164.7 157.6 152.5 148.8 143.1 139.2 139.9 143.8 146.4 145.3 143.1 140.6 138.3 136.6 134.6 132.5 130.9 129.4 127.6 122.5 116.7 112.3 109.6 108.2 108 111.6 115.4 119.4 122.3 126.2 129.6 132.5 134.9 141 151.7 168.9 180.2 182.6 183.9 185 190 190.3 186.9 184 179.4 175.4 170.7 166 155.7 143.6 136.5 131.1 128.1 125.9 121.7 119.3 120.4 116.6 111.4 106.7 106.5 106.5 109.6 114.1 119.8 125 130.1 135.3 140.1 144.3 148.1 152.6 156.8 161.6 168.1 174.7 181.4 187.4 193.8 204.6 218.8 222.9 223.9 223.5 222.2 220.3 218.1
138.1 140.2 140.7 144 148.2 151.6 154.7 158 161.4 165 168.9 173 177.3 181.6 186.2 190.4 195.3 199 202.8 208 215 222.1 235.1 255.7 265.2 261.9 247.9 233.6 220.7 212.2 205.7 199.9 193.4 187.5 183.1 177.5 171.2 166.7 161.8 156.9 152.4 151.1 152.5 152.6 152 151.1 149.3 146.4 143.8 141.3 139.6 137.8 136.1 134.7 133.2 130.8 128.4 132.8 132.8 132 130.8 130.2 128.5 127.7 129.5 131.4 134.3 137.9 140.1 144.2 149.5 155.2 162.1 168 173.3 179.9 186.8 195.6 203.4 213.3 224.9 244.2 257.2 261 262 262.3 262.7 261.1 259.3 257.5 255.2 251.1 246.7 232.7 217.9 207 196.5 186.2 187.3 187.6 190.4 191.8 198.6 207.8 218.9 227.6 219.9 207.8 199.8 191.9 185.8 181.4 176.1 169.5 163.1 158.9 153.1 146.7 145.9 152.8 153.2 151.3 147.9 144.3 141.3 139.2 136.8 134.6 132.8 130.9 129.1 126.6 121.7 117 112.7 109.4 108.3 107.6 110.2 114.3 118.5 121.5 125.5 128.3 133.3 138.8 148.7 161 172.9 176.1 176.9 177.1 179.6 183.1 183.3 180.7 176 174.6 170.1 166.9 164.2 159.7 155.9 151.8 146.5 141.3 132.7 128 123.8 120.7 116.8 112.3 107.7 104.9 106.7 109.6 115.2 121 126.7 132.2 136.8 141.5 146.4 151.3 155 159.6 164.1 170.4 176.9 183.1 189.1 198.9 212.1 221 222.6 223.8 223.2 221.6 219.5 217.2
144.4 145.7 145.3 144 146.2 150.3 153.9 157.5 160.9 164.8 169.1 173.7 178.2 182.1 186.5 190.9 195.4 201 205.8 210 214.9 222.9 234.3 257 263.3 261.7 248.8 235.6 220.2 211.4 204.3 197 190.2 184.4 180.5 175.7 171.1 166.8 161.9 157.2 152.8 149.2 147.9 148 147.7 147.2 144.8 144.2 142.3 140.1 137.9 136.1 134.3 132.6 130.7 126.9 131.6 135.5 133.5 130.8 128.7 127.8 126.8 126.9 128.2 130.6 135 139.6 140.2 143.6 149.4 155 161.3 167.8 172.2 176.7 183.7 191.2 200.4 210.7 221.9 239.1 257.2 261 262.5 262.6 262.6 261.3 259.4 257.5 255.6 252.5 248.4 237.8 217.6 207.9 196.6 188.5 179.1 180.2 182.8 188.7 198.6 207.6 217.4 230 230.1 221.1 207.6 198.9 191.7 185.4 180.3 174.4 168.2 163 157.4 155.3 158.9 159.6 156.4 152.7 148.9 145.2 141.7 138.7 136.7 134.5 132.5 130.6 128.5 125.8 121 117 113.1 109.3 108.5 107 110.4 112.9 116.6 120.7 125.5 130.9 135 143.7 156.8 164.5 168.1 169.1 170.2 172.1 174 176.8 176.9 174.9 171.1 167.2 164.5 161.6 159.5 156.8 154 152.3 150.2 144.9 137.5 130.1 124.3 119.1 115 110.8 106.5 104.8 106.3 110.2 116.3 122 127.1 133.6 138.3 143.1 147.8 152.7 157.2 161.7 166.3 172 178.3 184.5 191.2 202.4 215.2 221.9 223.5 223.3 222.4 220.9 218.6 216.3
145.8 147.6 149.2 149.3 148.7 149.6 152.6 156.3 159.9 164.7 169.4 174.1 178.2 182.8 185.7 188.8 192.6 200.3 206.6 211.4 216.3 223.4 234.5 256.3 263.6 260 250.3 236.6 224.1 214.3 206.1 199.6 194.3 188.2 184.1 179 173.3 168.7 163.6 158.5 153.9 149.4 145.6 143.6 143.1 142.1 140.6 140 139.3 137.8 135.8 134.5 132.7 130.9 127.9 127.3 131.4 134.7 133.1 130.4 127.5 125.7 124.6 125.8 127.3 130.1 135.2 139 139.1 142.3 148.1 153.9 159.4 165.5 170.3 176.2 183.2 191.2 200.1 210.2 220.4 235.6 255 261 262.7 263.2 262.8 261.8 259.9 257.9 256 253.4 249.5 238 218.9 205.7 195.7 188.1 178.5 174.5 177.6 186.3 193 200 207 220.1 231.5 228.1 216.5 206.2 200.3 193.5 186.7 179.8 173.7 169.2 166.7 166.8 165.8 162.1 157.8 153.8 149.9 145.6 141.5 138.1 135.8 134 132.3 130.2 128.1 124.9 120.1 116.5 112.9 109.4 107.4 104.7 108.8 111.5 114.5 119.8 126.8 134 136.2 142.5 155.2 160.6 160.3 159.1 162.7 167.4 167.5 168.5 169.5 167 164 161 158.7 156.7 154.7 152 149.3 147.4 145.3 141.4 135.9 127.2 122.1 117.5 112.8 107.6 105.7 105.4 107.2 109.8 114.6 121.7 125.1 132.6 137.7 140.7 147.3 152.6 158 163.4 168.7 174.7 180.5 186.6 192.9 205.4 217.4 222.4 223.2 222.8 221.5 219.7 217.6 215.5
146.5 148.5 150.6 152.4 153.9 154 151.9 155 158.7 163.4 167.9 172.2 176.9 180.8 184.2 189 193.4 199.5 206.1 211.4 217.3 224.2 235.5 254.4 266.8 261.6 254.8 243.2 230.9 219 210.8 203.4 199.2 191.8 185.4 180.2 175.3 171.4 165.4 160.4 156.2 151.8 147.2 143.1 141.1 138.7 137.5 136.6 137.2 135.7 133.5 132.4 131.2 129.2 126.3 126.4 128.8 130.7 129.6 127.5 124.6 124.1 123.7 124.7 126.5 130.9 136.6 137.7 137.6 140.9 146.8 152.2 157.4 163.1 168.5 175.4 181.5 188.8 196.3 207 218.7 234.1 252.4 261.2 263 263.4 262.8 261.9 260.5 258.5 256.3 253.6 250.3 233.6 216.3 205 194 184 174.1 169.6 173.8 180.8 187 192.4 199.7 207.2 220.8 229.6 224.1 212 203.5 198 192.3 185.8 179.3 174.8 174.4 172.1 167.9 163.5 158.8 154.1 149.8 145.5 141.4 137.9 134.9 132.8 131.2 129.2 126.9 122.8 119.8 116.4 113 109.6 107 106 107.7 110 112.6 117.7 125.6 130.8 132.9 138.9 150.6 151.7 150.9 156.4 161.8 163.5 162.8 162.9 162 159.5 157.3 155.6 153.3 151.3 149.7 147.2 144.4 142.4 140.2 136.4 131 124.6 118.6 114.2 110 105.8 105.7 105.5 107.9 110.6 113.7 118.1 123.1 127.6 132.2 136.6 143.7 151.6 157.9 164.5 171.1 177.6 183.1 188.8 195.9 209.4 219.1 222.5 222.7 221.9 220.6 218.5 216.4 214.3
146.3 148.3 151.3 154.2 156.3 156.2 155.4 155.5 157.5 161.8 166 170.3 174.2 179 183.5 188.5 194.3 200.3 205.6 211.5 217.8 224.3 235.4 255.3 263.9 262.3 256.2 246.1 233.7 221.8 213.6 207.9 201 193.2 185.4 178.8 174.3 171.8 166.2 161.1 157.8 153.6 149.3 144.9 140.4 137.7 135.9 134.4 134.6 134.5 132.8 130.1 129.3 127.3 125.1 124.4 128 127.6 126.3 123.9 122.9 122.3 122.5 124.5 126.8 132.4 136.3 136.2 136.5 139.7 145.2 150.5 154.9 160.2 166.2 172.1 178.8 185.5 193.6 203.9 217.7 232.1 249.1 260.6 263.1 263.6 262.9 262 260.8 258.9 256.8 253.9 249.5 228.9 214.9 202.5 194.2 185.2 175.3 168.9 167.4 173.1 180.2 185.2 191 198.7 205.5 216.2 217.9 206.8 200 199.2 195.5 188.5 184.3 179.8 176.7 172.7 168.5 163.7 158.8 153.8 149.7 145.4 141.4 137.8 134.3 131.8 129.5 127.5 125 121.6 119 115.7 112.6 109.2 106.1 105.6 106.6 108.5 111.1 115.2 119.4 123.2 128.7 133.9 141.5 142.7 148.2 157.5 158.8 158.6 158.5 157.4 156 153.9 151.8 150.5 148 146.3 144.7 142.3 139.6 137.2 134.5 131.8 126.3 119.2 114.7 110.5 106.6 105.1 105.2 105.3 109 113.1 117.1 120.4 124.7 128.1 132.7 138 146.3 152.4 158.9 166.1 172.5 179.2 184.5 190.9 200.2 213.1 221.1 222.4 222.1 220.9 219.3 217.2 214.8 212.3
145.2 148.7 152 154.2 157.1 159.7 161.5 162.5 162.3 161.8 164.8 168.6 173 178.1 182.6 187.5 192.8 199.1 204.6 211.2 218.1 225 234.6 253.4 266.9 266.1 259.8 247.8 231.4 221.2 213 205.4 199.8 192.3 184.2 176.7 171.1 164.9 165.1 161.4 158.2 153 149 145 141.2 137.4 135 132.8 132 132.4 131.2 129.4 127.6 125.4 123.1 122.1 124.7 124.3 122.8 121.6 121 120.1 122 124.5 128.5 133.1 134.8 133.9 135.6 139.1 143.3 148 152.3 156.2 161.8 168.1 175.4 183.4 192.1 202.7 216.5 231.8 247.4 260.2 262.7 263.7 263.1 262.1 260.3 258.5 256.6 253.6 247.3 228.9 214.8 201.5 194.2 185.6 175.7 166.7 161.9 165.7 173.2 178.4 184.4 190.9 196.8 202.8 202.9 197.1 192.3 192.1 194.4 190.5 186.7 181.8 177.2 173.3 168.9 164 158.9 153.7 149.4 145.3 141.3 137.8 133.3 129.5 126.9 124.2 120.6 118.2 117.3 114.1 111.7 108.3 105.2 104.8 105.6 107.2 109.6 112.8 116.5 122.6 129 132.5 135.1 140.2 152.6 153.8 153.3 153 153 152.5 150.8 148.7 146.8 145.3 143 141.7 140.3 136.8 133.9 130.5 128 125.1 121.4 114.1 109.9 107.2 103.3 104.8 105.1 105 110.7 113.4 116.5 121.6 127.7 132.3 136.9 142.4 147.7 153.6 160.3 167.1 174 180.9 186.9 193.1 205.6 217.8 221.2 221.9 221.3 219.9 217.9 215.7 213.4 210.9
144.5 148.1 151.5 154.3 157.8 160.3 162.6 164 166.3 165.8 166.5 169.2 173.7 178.1 182.3 187.5 192.9 197.9 203.2 210.2 217.6 215.8 233.4 252.8 267.5 267.5 260.4 243.5 228.1 219.5 209.1 200.3 197 190.9 183.9 176.3 170.2 164.7 158.6 153.6 152 150.2 147.5 144.5 140.9 137.3 134.8 132 130 130.7 129.7 128 126.2 124.2 122 119.4 121.9 122.2 120.9 119.8 119.1 119.7 122.4 126.6 130.5 133 132.2 132.2 134.7 138 141.7 146.6 151.1 154.7 159.5 165.4 173 181.7 192.4 203.4 213.8 230.6 247.3 260.1 262.3 262.9 262.9 261.7 259.8 258 255.6 252.7 244.2 227.4 212.7 201.6 194.6 185.9 175.7 163.9 159 159.7 165.5 171.1 176.3 183.2 189.1 193 194.2 190.8 184.1 183 189.9 191 187.3 183.4 179.1 173.9 169.1 164 159 153.9 149.4 145.2 141.2 137.3 133.3 129.8 126.4 122.8 119.4 116.6 114.7 112.8 110.2 107.7 102.9 104.7 105.2 106.4 108.7 111.5 116.3 122.4 126.1 128.1 132.7 146.2 151.1 149.2 147.7 147.3 148.4 148.1 145.8 144.2 143.2 141.2 138.2 136.7 135.2 131 125.2 122.3 120.7 118.1 115.2 109.2 106 104.2 104.5 104.2 104.8 107.3 110.2 112 115.4 119.5 125.2 131.9 137.7 143.5 149.1 154.9 162.3 168.7 175.4 182.7 189.2 197.8 211.2 219.6 221.5 221.4 220.4 218.6 216.6 214.3 211.9 209.5
143.3 146.8 150.5 153.6 157 160.1 162.7 164.9 167 168.1 169.4 170.7 174.5 177.7 182.5 186.8 191.8 196.9 201.3 208.2 215.3 223.9 233.2 252.4 267.2 267.6 254.7 237.3 223.3 214.9 207.6 199.8 192.5 187.8 182.4 176.5 170.7 164.6 159.1 153.7 150.2 147.9 145.1 143.7 142.4 141.7 138.8 131.5 129.7 129 128.2 126.5 124.8 123.1 121.4 119.7 119.6 120.2 119.6 118.2 117.5 120 124 128.8 131.9 131.1 130.1 131.1 133.9 136.9 140.6 144.6 149 153.5 158.1 163.6 171.5 180.3 191.4 202.7 215 228.8 244.6 257.5 261.6 262 261.9 260.7 259.3 257.1 254.5 250.2 239.1 225.1 213.6 204.9 197.9 190.6 182.4 169.9 160.7 155.3 159 163.5 168.6 175.5 181.5 184.5 185.1 182.3 176.8 175.1 180.7 190 188.7 184.7 181 176.2 171.2 166.4 161.6 156 151 146.6 142.4 138.5 134.5 130.8 127.2 123.7 119.7 119.4 116.1 113.4 110.4 107.3 104.3 104.1 104.8 106 107.3 110.3 114.7 118.9 121.1 125.2 134 145.8 147 144 140.8 142.5 143.7 142.3 141.1 139.6 139.6 138.2 135 130.6 127.8 124.4 118.9 115.7 114.6 111.2 107.9 105.6 103.8 103.6 104.1 104.3 106.7 109.3 111.3 113.7 115.2 118.3 123.2 129.5 134.3 141.1 148.3 154.8 161.9 170.2 176.8 184.1 192.6 205 217.3 220.6 221.4 220.6 219.3 217.3 215.1 212.6 210 207.4
142.4 145.7 149.3 152.9 156.1 159.2 161.7 164.3 166 167.5 168.1 171.1 174.6 177 181.2 185.3 189.3 194.2 199.6 205.9 215.2 223.5 234.1 252.9 267 265.9 250.2 231.1 220.4 213.5 206 198.8 192.6 186.3 180.7 175.1 170.4 165.5 161.6 157.4 153.4 149.7 146.7 144.5 143.3 142.3 139.5 136 131.5 128.2 126.7 125.2 123.7 122.3 120.8 119.1 118.1 118.2 118 117.2 117.2 121 125.3 129.9 130.4 128.7 128.4 130.2 132.9 135.9 139.2 142.5 147 151.9 156.7 164.3 172.5 180.9 189.6 200.5 212.7 223.8 239.3 255.1 260.5 260.9 261.1 259.2 258 256 252.7 247 231.7 219.5 214.6 205.2 198.6 190.3 183.3 173 163.7 156.4 153 155.8 161.8 168.4 173.4 176.3 177.8 175.5 170 165.3 171.8 177.1 183 185.6 181.8 177.7 173 168.5 163.3 157.9 152.7 147.9 143.7 139.7 136.1 132.9 129.5 126.2 123.6 121.2 117.4 114.1 110.8 107.7 104.8 103.6 104.4 105.6 106.8 109.4 112.9 115.8 120.3 128.6 137.2 143.6 141.9 138.6 135.7 137.2 137.4 138.4 136.3 134.9 138.5 136.5 132.1 126.2 121 117.9 115.3 112.1 109.9 107.2 104.5 103.3 103 103.2 104 105.4 107.9 110.5 112.9 117.1 117.5 119.2 123.9 129.1 135.7 143.2 149.9 156.5 161.5 170.3 178.1 186.5 196.8 212 219.4 220.8 221 219.9 218.2 216.1 213.4 210.6 208 205.3
141.7 145.1 148.4 151.8 155.1 157.9 159.7 161.6 163.5 164.5 166.7 171.3 174.9 177.9 180.8 184.5 187.6 193.1 199.3 206.7 216.5 224.5 236.1 253.2 266.4 264.7 247.2 230.1 218.7 211.4 204.8 197.8 192.5 186.7 181.6 176.5 171.6 167.2 162.9 158.4 154.8 151.1 148 143.9 141.4 140.2 138.4 135.1 131.8 128.4 125.9 124.2 122.8 121.4 120 118.5 117 116.9 116.8 115.7 117.3 122 124.6 128.7 128.2 127.1 127.4 129.7 132.4 135.7 138.9 142.2 146.1 150.9 154.6 162.8 171.1 179.7 186.6 197.1 210.1 220.8 234.7 250.7 258.9 260 260.3 258.8 256.9 254.6 250.4 242 228.9 216.9 206.9 202 196.8 189.1 180.7 172.5 164.5 157.5 150 149.7 155.7 160.2 165 166.3 168.7 167.1 162.1 158 161.5 168.3 172.2 176.7 179.1 178 174.6 170.1 165.1 160.1 155.3 150.2 145.5 141.9 138.2 135.2 131.9 128.6 126.1 122.4 118.4 114.7 111.2 108 104.8 102.5 104 105 106.7 108.8 113 117.3 127.8 138.3 142.6 140.6 137.2 131.3 130.4 132.2 132.8 132.6 131.2 131.8 135.4 134.6 130.2 124.3 118.7 113.9 112.6 109.4 106.1 103.7 102.7 102.8 101.9 102.7 104.2 106.8 109.9 112.9 116.6 121 122.6 122.7 126.4 131.1 138 145 152.3 158.8 164.8 171.7 180.4 191.3 203.8 215.9 220.1 221.2 220.7 219.1 217 214.7 211.9 209 206.2 203.5
140.3 144.4 147.8 151 154 155.6 157.4 158 159.5 163.7 168.1 172.2 177.2 179.9 182.4 186.8 191.4 194.3 197.3 209.5 216 224.3 235.7 251.8 263.9 261.9 244.4 227.1 217.3 211 205.1 198.5 192.5 187 181.4 176.6 172 167.6 163.4 159 155 151 147.6 143.8 140.1 137.6 136 133.4 130.9 128.2 125.6 123.6 121.8 120.2 118.6 117.1 115.6 115.4 115.2 114.5 117.1 120.2 124.1 127.3 126.1 124.4 127.5 129.3 131.9 135.3 138.8 143.4 147 151.9 157.6 163.6 170.4 176.6 183.7 194 206.3 217.3 229.6 245 256.3 259 259.5 258.4 256.3 253.8 248.7 239.4 228.7 218.7 206.3 195 186.9 181.7 175.8 168.4 162.8 156.7 149.4 145.8 149.9 153.5 155.3 158.2 159.8 157.1 153.7 150 153.9 160.6 163.9 166.5 170.6 175.2 174.7 171 167 161.6 156.6 151.6 147.6 144.3 140.6 137.5 134.6 131.1 127.6 123.5 119.4 115.7 112.1 108 103.8 102.9 103.4 104.4 108.6 112.5 117.5 124.6 137.1 142.3 140.6 137.4 131.8 125.8 125.3 127.7 128.5 127.9 125.6 128.4 130.9 130.2 126.5 121.2 116.4 110.7 109.2 106.8 103.1 100.6 102.3 102.7 103.4 104.1 105.5 108.1 111.4 116.2 121.1 125.9 130 130.9 130.4 134.4 140.9 146.6 153.4 160.3 167.2 174.1 184 194.8 209 218.5 220.8 220.9 220.2 218.4 216.1 213.5 210.6 207.8 204.9 202.1
138.8 142.8 147 149.8 151.1 152.3 153.6 155.1 159.6 164.5 168.4 172.2 175.7 179.4 183.5 186.4 190.8 193.1 198.4 204.9 212.6 221.5 230.5 247.9 261.6 254.8 236.6 223.8 215.6 210 204.4 198.3 191.9 186.1 180.3 174.8 170 165.9 161.6 157.1 153.5 150.2 146.8 143.3 140.3 137.8 135.4 133.5 130.9 128 125.4 123.3 121.5 119.9 118.3 116.6 115 112.5 113.7 113.8 116 119 123.2 123.7 122.4 123.7 126.9 129 131.5 134.9 139.1 142.9 146.9 151.4 156.1 161.2 166.7 173.5 180.3 191.5 201.7 212 226.5 240.9 253.7 258.4 258.7 257.7 255.8 253 248.6 239.2 229.8 221 208.2 196.3 184.6 174.6 168.1 161.9 156.2 152.6 148.4 144.6 143.3 146.5 148.6 151.2 152.3 150.5 146.2 144.2 147.2 150.9 153.6 157.1 162.4 166.7 171.5 170.8 167.4 162.8 158 153.3 149.8 146.5 143 139.7 136.7 133.2 129 124.7 120.3 116.3 112.9 107.6 105.3 101.3 102.8 105.4 110.8 114.1 118 124.7 135.4 138.6 137.4 134.6 128.7 122.3 120.1 122.2 123 122.8 121.3 123.3 125.5 125.1 121.1 116.9 111.7 108.7 105.8 104 101.5 102.3 102.3 103.2 104.8 106.1 106.6 109.9 113.7 118.2 122.8 127.8 132.4 136.5 138.8 140.7 144.4 149.6 155.2 161.5 169.3 176.3 187.3 201.5 215.6 220.1 220.9 220.6 219.6 217.8 215.4 212.6 209.7 206.8 204 200.7
135.5 137.2 141 142.5 146.6 147.7 152.9 157.3 160.8 164.5 167.9 171.4 174.6 178.1 181.6 185 189.5 193.5 197.9 203.2 209.9 214.2 225.5 237.5 249.3 244 228.3 220.3 213.8 208.3 202.9 197.2 191.6 186 180.2 174.4 167.6 166.3 161.6 156.5 153.1 149.6 146.4 143.9 140.6 138.9 139.5 137 132.6 128.9 126 123.3 121.2 119.5 117.8 116.3 114.4 112.9 111.7 113.3 115 119.5 121.3 119.6 122.8 125.1 127.5 130.5 131.7 134.9 138.1 142.4 146.3 150.2 154.2 159 164.5 171.2 178 185.4 196.5 208.1 221.8 236.5 249.2 256.1 257.9 257.4 255.8 253.1 249.3 241.3 233.3 224.6 213.6 201.7 191.6 182.2 171.8 165.2 161 151.7 147 144 139.6 139.8 141.8 144.6 146.2 145.5 139.2 137.3 137.2 140.1 142.6 150 153.9 157.2 161.7 163.6 163.9 160.9 158.5 155.3 152 148.7 145.4 141.2 137.8 134.1 129.4 125 120.6 116.5 112.9 108.4 102.2 101.6 101.6 103.9 109 112.9 115.4 120.8 128.7 133 132.4 132.6 128.3 123.4 117.1 116.7 117.2 117.1 117.2 117.9 117.8 117.3 115 111.9 109.9 107 104.1 101.8 101.8 101.9 102.2 104.1 106 107.3 109.4 113.2 116.4 120.2 124.3 128.8 134 138.1 142.2 145.8 148.9 153 158.5 164.9 171.9 180.4 194.4 209.3 218.8 220.6 220.8 220.2 219 217 214.7 211.7 208.8 205.9 202.8 199.1
132.3 135.2 138.1 141.4 145.6 149.9 153.9 157.2 160.7 164.1 167.4 170.5 173.6 177 180.2 184 187.9 191.6 195.2 200.4 205.9 215.2 222.2 224.1 231.7 227.8 221.5 215.4 211.6 206.8 202.1 196.9 191.2 185.6 180 174.4 165.4 163.2 161.4 157 152.7 149 145.5 143.4 141.3 139.8 140.2 139.8 136.3 132.5 128.9 124.9 121.6 119.3 118 116.5 115 112.1 111.2 111.6 116.5 119.3 118.2 120.1 124.2 127.3 130.2 133.6 136.5 135.7 137 141.1 145.2 148.8 152.8 156.8 162 168.2 174.5 184.4 194.9 203.8 215.9 231.3 247.5 255.7 257.1 256.8 255.8 253.6 250.8 246.2 239.5 232.3 219.7 208 198.8 190 179.1 171.9 164.3 154.5 147.5 143.4 144 139.7 136.4 137.3 139.1 139.4 136.6 132.5 131.1 131 136.3 140.9 145 148.9 149.9 153.4 155 155.2 154.7 155.3 155 151.1 146.2 142.3 138.8 134.9 130.2 125.2 120.9 116.4 112.8 109.5 104.9 102 99.1 101.9 106.4 110 112.9 116.5 122.9 127.5 128.9 129 126.6 123.4 121.2 114 112.7 112.5 112.5 112.3 111.4 110.5 108.8 107.6 106.2 103.8 101.7 99.9 101.5 101.6 102.7 104.8 106.8 109.1 110.7 114.2 117.1 121.6 125 128.9 133.9 138.7 143.9 149.8 154.1 157.9 160.6 167.6 175 187.3 201.3 215 219.5 220.6 220.5 219.8 218.1 216.2 213.8 210.8 207.9 204.9 201.9 198.5
133.2 134.7 137.2 140.8 145.5 148.9 152.8 156.2 159.1 162.4 165.5 168.8 172.3 175.5 178.7 182.1 184.8 188 194.3 198.9 204.3 214 219.1 221 222 220.1 217.9 213.6 206.3 204.2 199.8 195.1 190.6 185 179.4 174.6 170 164.9 160.7 156.3 152.2 148.5 144.8 142.5 140.4 138.4 138.5 139.6 138.6 136 132.6 128.2 123.9 120.7 118.1 116.7 115.2 111.8 109.8 110.5 114.6 114.6 117.4 121.3 125.6 129 132.4 136.7 138.2 140.4 142.8 144 146.4 149.1 151.7 154.3 157.5 162.1 167.7 180.4 191.6 200.4 211.9 227 244.7 253.5 255.7 256.4 255.9 253.8 252.1 249 244.8 239.5 227.4 211.8 204.8 197.8 190.4 181.4 169.4 158.4 150 152.2 150.1 144.2 138.3 134.9 133.9 132.3 130.9 129.2 127.7 127.4 128.7 133.6 136.8 139.6 142.4 143.7 143.8 141.8 146.5 152.9 155.2 152.6 147.5 143.7 139.9 135.6 130.2 126.3 122 117.9 114.1 110.9 105.8 102.5 100.2 100.9 103.9 107 110.2 113.2 118.6 124.1 124.3 124 122.1 119.4 123.1 120.9 113.4 108.5 108.3 107.7 106.6 105.3 104.4 103.6 102.7 100.5 100.8 101 101.7 102.7 104.1 105.9 109 111.3 113 113.3 116.7 120.2 123.5 126.4 130.5 137.4 145.5 150.9 157.1 163.1 161.4 172 181.6 194.6 209.8 217.8 219.7 220.5 220.1 218.9 217.2 214.9 212.6 209.7 206.7 203.8 200.8 197.7
134.2 133.1 136.7 140.3 144.8 148.5 151.2 154.1 157.5 160 162.4 165.9 169.3 172.6 176.5 179.7 183.1 188.3 193.8 198.2 203.8 208.6 213.7 215.5 217.4 216.1 212.9 210.2 205.8 200.6 196.1 193.5 189.7 184.3 179 174 168.8 163.5 159.6 155.6 152.1 148.7 144.6 141.1 138.3 136.3 136.7 138 138.6 137.9 135.3 132 127.7 123.2 119.8 116.6 115 111.7 108.5 109.9 111.4 115.2 118.9 122.8 126.6 129.7 132.9 136.2 141.1 144.7 147 147.8 149.7 153.3 159.9 163.9 162.6 165.2 170.2 181.4 190.9 199.7 210.2 221.9 237.2 249.3 254.1 255.8 255.9 254.4 253.1 250.7 248.1 243.9 235.9 222.7 210.8 203.7 196.1 187.4 173.7 164.9 159.4 160.5 154.1 147.2 141.2 136.6 132.3 131.4 130.1 128.2 125.9 123.5 124.4 125.6 128.7 134.5 135.7 132.8 134.1 135.3 141.2 148.6 152.5 152.5 148.7 145.1 140.9 136.5 132.1 127.7 123.2 119 114.9 111.5 108 104.1 100.4 98.8 101.5 104.4 107.3 110.1 114.5 120.3 119.9 118.3 116.6 117.7 123.7 122.5 116.9 109.8 105.2 104.1 103 102 101.3 100.3 100 100 100.6 100.7 102 104.1 105.4 108.9 111.1 113.2 115.6 116 118 120.8 124.3 128.3 132.4 139.1 145.3 151.5 158.1 164.9 169.8 178.3 189.7 202.5 215.2 218.2 219.9 220 219.6 218.3 216 213.7 211.4 208.5 205.5 202.3 199.3 196.2
133.5 131.4 134.4 140.1 142.6 146 148.9 151.8 153.7 156.3 158.8 162.6 165.6 169.2 173.6 176.8 181.7 187.4 192.1 195.1 199.2 204.4 207.4 207.9 210.2 209.2 203.3 203.7 201.3 196.9 193.7 189.2 186.3 183.1 178.1 173.4 168.9 164 160 156.1 152.9 148.8 144.7 140.7 137.2 135 134.4 135.6 136.8 137.3 136 134.5 131.1 127.2 121.8 116.6 113.3 112.1 105.3 109 112.4 116.2 119.5 123.3 126.8 129.7 133.8 138.4 142.2 146.6 149.7 151.7 153.3 158.1 163.8 166.8 162.7 169.1 174.9 182.5 190.6 195.9 205.1 215.4 229.8 243 250.3 254.4 255.5 255 254.1 252.7 250.5 247.8 242.1 232 220.5 209.2 200.9 193 183.5 174.6 172 164.3 156.3 149.9 143.9 141.6 138.2 134.1 131.6 126.2 125 123.1 122.5 122.1 123.2 129 128.8 126.1 126.1 129.7 136.3 143.2 149.1 149.9 148.7 145.4 142.2 138.1 133.9 128.6 124.1 120.1 115.9 111.7 107.8 104.1 99.8 100.1 99.5 102.4 104.9 106.9 109.8 114.6 115.2 113.1 111.2 114.4 119.2 118.8 114 108.2 103.4 101.8 100.9 99.6 99 99.4 98.5 100.3 100.5 101.6 103.4 104.9 106.5 109 109.7 113 116.4 119.1 120.7 123.1 125.9 130.4 135.8 141 147 153.9 160.2 167.3 174 182.8 195.9 210 217.7 219.2 219.9 219.6 219 217.1 214.8 212.4 210.1 207.1 203.8 200.5 197.5 194.6
