ncols 200
nrows 87
xllcorner 280000
yllcorner 93800
cellsize 50
78.6 81.4 83 84.1 84 82.8 81.9 78.9 73.7 68.5 72.7 72.4 69.6 66.3 66.5 75.6 81 87 95.1 102 105.6 109.2 114.7 119 123.6 132.3 143.7 141.6 128.4 115.7 108.8 117 121.5 116.6 110 103.7 98.8 94.6 90.6 87.1 87.5 93.3 97.4 104.8 107.5 107.6 105.7 104.7 102.6 100.1 97 94.5 92.4 88 84.4 79 72.5 65.8 59.1 53.3 51.5 50.7 49.3 48.8 49.9 50.1 53.7 55.9 54.6 52.1 52.7 58.9 67.8 76.2 84.1 88.8 93.2 93.5 91.3 84.9 85 91.2 94.2 96.9 100.4 97.5 97.6 94.7 89.8 84.3 79.3 81.4 83.7 87.1 79 83.8 90.6 87.9 84.3 78 77.4 80.5 83.7 81.2 76.5 69.9 63 72.1 86 86 85.1 81.8 77.8 74.2 71.7 70.4 68.2 65.9 64.7 61.7 58.8 54.3 49.8 45.8 42.6 44.1 44.8 41.7 46.5 55.3 59.9 65.2 69 70.5 68.8 64.4 64.2 62.4 61.2 59.8 56.2 53 53.1 55.6 56.1 53.1 49.3 51.5 55.1 53.9 50.5 44.4 38.6 42.3 48.1 46.8 47.9 46.3 43.7 36.6 35.5 34.1 31.9 30 31 35.2 38.8 42.4 43.9 43.7 41.8 39.7 37.2 34.5 31.4 28.8 25.9 21.4 22.4 21.5 21.4 21.3 21.3 21.4 21.7 21.9 21.6 22.4 21.9 21.5 21.5 21.5 21.5 22.5 23.8 24.8 25.4 25.7 25.3 25.6
82.5 85.3 86.5 87 86.3 84.5 82 78 71.6 76.4 77.3 76.5 74.2 69.5 66.9 70.7 76 80.2 87.3 94.4 101.3 109.7 114.8 120.5 127.4 137.9 144.8 142.3 136.5 124.8 121.6 126.3 123.3 114.1 106.8 102.5 99.5 97.2 95.1 95.7 100 104.6 106.2 108.4 107.2 105.7 103.2 100.6 96.9 93.8 90.6 87.5 84.4 80 74.9 69.2 63 57.4 52.8 50.3 46.4 46.2 45.5 49.5 50.4 52.9 56.6 58.9 58 55.1 52.6 53.5 58.9 67.7 74.2 83.4 87.2 90.3 85.7 79.2 77.5 82.9 90.9 99.2 101.5 102.6 100.4 95 91.2 88.6 83.3 88.6 93.4 92.2 88.7 97.1 97.4 95.5 91 90 90.3 89.8 87.1 83 78.8 74 66.2 71.1 86.7 86.6 84.2 81.3 77 73.1 67.3 64.6 63.5 61.6 62.6 60 56.3 51.9 47.5 44.2 44 51 52.2 47.1 43.2 46.5 54.3 61 69.1 71.3 71.6 71.2 71 70.2 69.1 67 64.1 61.3 61.3 61.8 62.5 61.1 58.1 58.5 59.7 58.1 54 47.7 45 53 54.9 54.3 51.5 48.1 47.2 40.2 37.9 33.7 32.1 30.8 33.2 39.8 42.1 43.4 46 46.1 44.9 42.8 40.7 37.5 35.2 33.3 31.8 29.4 26.4 21.9 22 21.8 21.4 21.5 21.7 21.6 21.4 21.4 21.8 21.5 21.5 21.5 21.4 21.5 22.6 23.9 24.9 25 23.2 23.2
85.3 88.6 89.9 89.6 88.3 85.1 80.5 75.2 73.9 79.7 81.5 79.8 76.6 72.7 68.3 69.7 74.2 80.1 87.1 95 102.5 108.8 115.2 121.2 126.4 136.4 144.1 142.4 139.7 138.7 138.3 136.5 130.6 120.1 112.8 109.7 107.3 105.4 106.8 107.1 108.6 108.4 107.5 105.6 102.6 100.1 95.8 92.3 89 85.7 82.2 79.1 75.3 70.4 65.1 60.2 56 51.2 49.1 51.4 51 50.8 50.3 50.9 54.3 58 59.1 60.8 60.8 59.1 56.8 53.8 53.3 56.7 67.5 72.5 81.6 85.3 80.7 74.2 75.2 84.2 89.8 93.9 91.7 99.4 100 98.8 97.6 92.9 90.6 98.3 103 99.5 101.4 103.9 102.4 100 97.1 95.7 93.1 90.6 87.3 83.4 79.1 74.4 66.6 73 87.1 86.3 83.4 80.5 77.9 74.3 70.3 66.6 61.5 57.8 56.3 54.9 52.7 48.8 45.5 44.4 50.8 57.8 57.7 53.5 47.3 44.9 49.2 57.6 61.3 68.5 71 74.8 75.2 74.8 73.6 71.8 69.9 68.3 67.2 66.8 66.7 65.3 63.9 63.7 62.5 61.5 59.2 56.1 55.9 57.7 58 57 54.6 52.1 48.7 36.4 36.4 32.9 31.6 31.8 36.9 42 46 47.1 48.2 48.3 47.9 45.6 43.1 40.5 39.3 37.3 35.4 34.3 32.2 29.8 22 21.5 21.6 21.8 21.8 21.9 21.6 21.3 21.1 21.4 21.3 21.3 21.4 21.5 21.6 22.7 23.9 24.3 22.6 20.8
89 91.5 93.2 92.2 88.7 83.9 78.9 76 77.9 82.7 84.7 81.9 78.1 73.9 69.9 72.3 77.2 81.6 87.3 94.6 100.1 106 113.4 119.4 126 132.6 138.3 143.4 147.3 149.6 148.4 144.6 138.3 131 122.8 118.3 115.9 114.2 112.8 111.2 109.3 106.8 104.1 100.6 97.2 92.5 87.6 84.1 81.1 77.6 74.1 70.4 66.8 62.3 57.8 53.4 47.3 47.6 50.8 51.8 51 51.1 52.3 55.3 58.7 61.6 62.1 62.3 63.3 62.4 61.6 58.5 56.3 54.7 56.5 65.2 74.7 77.5 75.5 69.5 75.1 79.8 85.9 81.1 88.4 93.7 97.5 100.9 100.9 99.7 97.3 102.9 107.3 107.9 107.4 106.3 104.2 101.6 98.9 95.9 91.1 88.2 85.2 81.1 76.6 71.2 66.7 77.7 85.8 84.9 82.5 79.7 77.1 74.3 71.3 68.1 64.5 60.2 55.6 51.7 49.1 46.4 46.3 53.2 59.6 63.9 62 58.4 54.1 48.2 46.9 52.4 61.4 64.2 68.3 74.6 76.4 76.6 75.2 73.8 71.3 69.9 67.5 66.5 65.7 64.8 64.3 63.4 62.6 61.6 61.5 60.3 60 59.9 58.5 56.1 52.9 49.5 44.3 39.7 33.1 31.4 31.6 33.3 39.7 44.5 49.5 51.2 51.7 52.4 51.3 49.7 47.2 45.4 43.1 40.5 38.4 36.3 34.4 33.2 30.4 21.6 18.2 21.7 21.8 21.8 21.9 21.4 21 21.2 21.2 21.3 21.4 21.4 21.4 21.7 22.2 22.5 22.3 20.9
93.2 94.5 94.6 92.2 89.1 86.8 83.2 81.9 83.3 87.6 86.9 83.4 78.8 73.6 70.7 74.7 78.8 82.5 86.4 93.1 99.8 106.5 113.7 120 126.8 132.5 138.7 146 153.6 155.4 152.8 148.4 143.2 135.3 128.5 123.6 119.5 116.4 112.9 109.7 106.1 102.7 98.5 95 91.5 85.7 81.4 78.4 75.2 70.2 66.9 64.1 60.6 56.1 54 51.4 50.9 52.5 52.2 52.1 51.6 53.8 56.1 59 61.7 62.8 64.1 64.5 65.8 65.8 65.3 64 62.2 59.3 55.9 55.7 61.9 68.9 69.2 65.4 70.6 78.4 80.5 75.8 85.7 85.2 89.7 96.3 101.8 102.1 102.8 106.7 108.8 108.5 108 107 104.7 101.8 98.9 95 91.6 85.9 82.5 79.3 73.2 70.4 78.5 85.8 86.2 83.9 81.5 78.5 75.4 72.2 69.5 67 63.6 60.4 56.7 52 48.1 48.4 55.2 61.9 67.9 68.6 65.8 62.7 58.5 52.7 47.8 49.7 56 57.6 65 74.3 77.3 77.4 76.2 74.2 71.6 68.9 66.5 64.4 62.2 59.6 58.7 58.8 59.8 60 59.5 59.5 59.6 58.5 56.5 53.9 50.5 46.4 41.3 34.7 34.5 32.4 32.7 36.6 42.7 47.1 52.1 54.8 55.8 56.3 54.8 53.2 51.5 49.1 46.1 43.1 40.5 38.2 36.3 34.4 32.3 26.9 22 21.5 21.6 21.8 21.8 21.4 21 20.5 21.2 21.2 21.2 21.2 21.1 21.2 21.2 21.2 21.2 21.8
96.1 98.1 97.9 97.4 96.6 93.8 91.8 90.4 90.4 91.3 88.8 84.7 78.2 74.9 73.4 75.6 80.4 84.4 89.4 97.3 104.5 110.7 118.2 123.6 128.4 133.8 139.2 147.9 160.6 160.6 155.5 150.1 144.3 136.9 129.8 124.1 118.2 113.4 108.4 104.6 100.8 97.1 92.9 89.4 85.8 80 74.6 72 68.6 65.2 61.7 58.4 55.7 53.6 52.6 52.1 53.2 52.8 52.6 52.7 54.5 58.4 61.3 61.9 63.4 64.5 65.4 66.6 68.1 69.3 69.9 68.3 67.8 65.5 60.7 57.5 57.3 58.7 61.6 62.4 66.5 71.4 72.3 71.3 77.5 77.4 83.4 89.9 93.7 99.7 101.9 103.3 106.8 107.8 107 104.8 102.8 100.7 97.8 94 94 85.3 79.5 75 75.8 83.2 90 88.9 85.4 82.5 79.6 76.5 73.3 70.2 66.8 63.6 59.8 56.4 53.1 48.9 49.7 57 64.6 70.4 72.6 70.6 67.3 63.5 59.3 54 50 48.2 50.6 58.6 67.4 75 77.2 77.4 75.7 72.5 68.2 64.9 61.8 59.4 56.3 52.3 50 50 53 54.6 56.1 57.3 57 55.7 54.3 51.4 47.9 43.5 37.7 34.1 34 32.5 33.7 37.9 45.6 46.8 54.3 57.6 57.8 57.8 57.7 55.7 53 50.8 47.9 45 42.4 40.2 38.3 36.2 33.9 30.9 25.4 21.4 21.6 21.7 21.8 21.4 21 20.5 20.4 21 21 20.9 21 21.1 21.2 21.2 21.2 23.4
98.2 101.5 103.4 103.7 102.8 100.9 98.6 96.1 94.9 91.1 87.4 83.1 79.9 79.8 78.3 76.3 80.4 85.3 92.1 98.6 106.1 112.4 117.7 122.1 128.6 133.8 139.1 146.3 158.7 147.2 144.9 151.9 144 135.1 127.5 119.5 113.5 108 103.4 98.9 94.9 90.7 87.2 83.7 80.1 76.2 70.6 66.8 63.5 60.3 57.5 54.6 53.2 50.2 53.9 53.7 53.8 53.4 53.2 55.9 55.9 59.9 63.2 63.5 65.1 66.5 67.8 69.8 72.3 74.3 74.2 72.8 71.1 67 61.9 59.6 61.8 61.7 60.9 61.1 62.5 63.3 64.1 65.4 68.2 72.3 78.6 82 90.9 93.8 95.1 99.6 101 104.8 104.5 101.3 97.8 93.9 91.6 87.5 82.1 78.2 79.1 83.2 85.4 91.3 90.5 87.7 83.8 80.9 77.5 74.4 70.6 66.9 63.2 60.2 56.5 53 50.9 53 58.1 64.9 72.1 76.3 74.2 70.7 67.1 63 58.3 53.6 55.9 54.8 50.8 55.3 63.4 72.7 77.2 77.2 73.6 69.5 65.9 63.5 59.9 55.6 50.9 54.7 53 47.3 45.5 46.7 48.5 50.8 51.6 52 49.9 47.1 44.4 39 34.4 33.5 34.2 35 36.3 36.3 42.9 50.1 55.5 55.4 57.6 57.1 57.9 56.5 54 51.9 49.7 46.9 44.2 42.2 39.9 37.4 34.9 34.2 32.4 22.2 21.6 21.7 21.7 21.4 21.1 21.4 21.6 20.5 20.7 20.8 20.9 21 21.1 21.2 22 24.7
102 104.7 107.2 107.6 107.3 105.2 101.7 97.2 93 88.7 85.9 84.2 83.5 84.8 84.2 81.3 78.7 84 89.2 95.2 101.7 108.6 113.8 119.1 125.6 132.2 137 140.7 146.2 154.5 146.8 149.9 141.5 132.8 124.3 115.4 106.8 100.2 94.7 91.9 89.5 85.1 81.6 78.9 74.3 71.6 68.1 63.6 59 56.5 54.7 53.5 54.1 54.2 54.3 55.3 54.6 56.1 59.4 61.8 59 60.8 64.4 65.3 66.3 68.9 71.5 73.6 76.7 78.5 78.4 75.7 72.3 67.7 62.7 61.4 71.2 68.8 68.4 68.1 66.5 66 66.8 67.7 68.5 66.7 72.9 81 85.8 86.1 91.3 92.4 97.5 103.3 103.6 101.2 97.4 93.9 89.1 87.8 86.6 87.7 89.9 92.1 93.9 92.2 89.7 86 82.1 78.2 74.7 71.7 68.5 64.8 60.9 56.5 52.6 53.9 59.2 63.2 68.3 72.9 77.1 77.3 73.9 69.5 64.9 60.6 56.8 58.7 63.5 61.5 55.3 53.7 57.8 67.1 74.2 77.5 76.4 74.8 74.8 70.3 63.9 57.9 62.1 61.5 54.7 51.1 48.8 44.6 42.7 42.5 44.3 46 45.4 42.9 39.8 34.7 35.3 35.7 36.6 43.3 43.9 40 38.6 46.9 54.5 57.1 56.2 53.9 53.7 54.5 53.2 52.3 49.6 47.7 45.2 43.3 40.8 38.3 36.6 35.5 34.7 31.2 21.6 21.7 21.7 21.4 21.2 21.5 21.5 20.7 20.8 20.6 20.7 20.9 20.9 20.9 22.8 24.3
100.5 104 107.1 109.3 107.9 104.8 99.3 96.2 94.7 92.7 90.8 89 87.7 90.4 89.7 87.4 86.2 85.6 87.6 90.9 95.9 102.5 108 115.5 122.5 128.1 132.5 135 138.2 141.2 141.1 142.6 136.9 129.3 122.5 112.5 102.5 93.3 87.1 84.5 84.1 82.3 78.6 75.3 70.8 67.2 64.6 56.4 56.9 55.2 54 55.1 55.6 54.8 54.4 55.1 57.6 59 63.3 64.4 61.3 61.4 65.2 67.8 69.2 71.7 75.3 78.1 80.7 80.9 80.4 77.6 73.8 68.4 62.7 64.5 74.8 73.5 75.5 76.8 74.6 73.3 73.5 74.4 72.4 67.9 69.4 76.7 79.2 81.5 84.2 90.1 96 101.7 103.8 103.9 100.5 96.1 96.1 95.8 96.2 98.6 100.2 97.8 95.6 92.4 88.8 84.5 80.2 75.6 72.1 69 65.8 62 58.1 53.3 53.3 56.5 65.4 72.8 77.9 80.5 79.6 75.9 71.3 66.4 61.3 59.2 63.1 67.4 68.5 65 60.5 59.2 57.7 60 67.2 76.1 81.4 84 81.1 75 64.7 66.2 70.9 62.8 59.3 61.3 59.2 54.7 48.8 45.1 40.7 40.2 41.6 37.3 35.1 36.3 36.5 38.2 42 46.8 50.2 46.9 41.2 44 54.3 57.9 56 52.9 50.6 48.3 47.6 45.2 43.7 42.6 41.7 41.8 39.5 37.8 37.1 35.8 31.3 25.4 20.4 21.6 18.2 21.4 21.3 21.5 21 20.7 20.4 20.6 20.6 20.5 20.4 21.5 24.7 26
97.7 102 106.5 111.1 110.7 109.3 104 102.5 101.8 100.4 96.9 92.7 92 100.5 99 98 95.1 91.5 90.9 92.2 94 99.2 106.6 114.5 120.9 126.1 126.9 127.3 128.2 129.5 131.2 131.2 127.4 123.9 117.3 109.5 100.5 92.4 85.9 80.2 78 79.2 76.5 71.1 65.8 58.5 60.4 56 56 55.1 54.8 55.4 56 55.6 57.4 61.2 62.8 61.2 65.3 66.3 63.5 63.3 66.9 69.1 72.7 75.6 80.3 83.1 83.9 83.3 81.2 78.4 73.5 67.1 64.3 72.4 79.2 78.7 80 83.5 82.5 80.6 80.6 79.5 78.2 73.3 71.2 72.2 75.7 78.6 81.1 85.3 90.2 96.8 103.8 106.7 103.9 100.9 103.1 104.3 104.2 103.2 101.4 99.3 95.3 90.9 85.8 81.6 77.3 72.8 68.2 65.6 61.6 58.2 55 56.5 59.9 58.1 63.8 72.4 80.3 82.8 80.4 73.7 68.1 64.3 63.2 67.5 72.4 75.7 72.7 68.6 67.2 66.6 65 66.2 65.9 73.6 82.9 86.9 85.3 80.5 78.2 77.9 75.3 73.1 69.6 66.7 63.2 58.7 56.4 52.2 47.3 39.8 36 36.9 37 36.9 40.7 47.1 50.7 51.8 54.1 53.3 47.7 42.2 54.1 60.8 57.4 53.4 48.4 45.2 42.7 40.6 38.9 37.7 36.9 36.9 34.8 34.2 32.7 31.3 25.3 23.2 28.1 27.7 20 21.5 21.4 21.2 21.2 21.3 21.1 20.8 20.3 20.2 20.2 22.3 25.6 27.6
101.3 103 108.1 113.9 117.5 115.6 112.3 112.3 111.7 108.2 103.4 97.8 103.6 112.2 112.9 109.9 106.9 101 97.5 99.2 99.9 102.7 107.1 115.5 123 126.1 124.5 122.4 122 121.2 121 120.3 117.5 113.9 108.9 102.6 97.9 91.1 86.2 80 74.6 73.4 73.1 68.8 65.1 60.7 56.9 56.3 55.7 54.9 54.4 56.5 57.9 60.3 63.4 66.4 66.6 63.5 67 68.2 65.8 64.1 69.1 72.8 76.1 80.5 84.1 86.6 86.4 84.8 82.3 78.8 73.2 66.3 69.2 80.2 84 84.7 86 89.7 90.1 87.9 86.8 84.2 78.8 74.6 72.8 73.5 77.8 81.3 89.2 91.2 93.7 101.1 107.5 109.1 108.2 107.4 106.1 105.2 104.4 102.7 99.3 95.2 91.5 86.8 82.2 76 71.4 67.5 64.1 61.1 58.6 53.8 59.9 62.8 63.7 60.4 64.2 71.5 79.3 84.1 81.2 74.1 70.6 69 68.8 76.1 81.9 83.2 78.7 76.1 75.4 75.1 72.3 78.5 78.1 80.5 84.8 85.4 84.3 82.2 81.3 79.4 76.8 74 70.8 67.1 63.3 59.8 55.7 51.3 45.6 38.9 36.6 38.3 38.1 37.5 46.2 52.4 56.7 59.6 60.1 58.6 55.6 47.2 53.7 63.8 61.2 58.3 53.1 51.3 49.1 46.6 46 43.2 39.6 36.3 34.3 32.7 31.7 27.4 27.7 31.4 31.8 29.8 27.1 24.3 20.6 21.2 21.6 21.4 21.6 21.4 20.4 20.2 20.4 22.5 25.3 28.7
107.2 108.6 112 119.1 123.9 124 123.5 123.4 120.9 117.2 110.5 102.8 109.3 119.2 124.1 120.6 118 112.8 106.9 106.2 107.1 110.7 117.2 122 126.5 125.9 120.6 117.7 115.1 114.8 114.7 113.3 110.8 107.2 102.4 96.8 92.6 88 84 79.7 74 69.9 67.1 64.8 62.1 58.9 56.9 55.7 54.5 54 56.8 58.2 60.6 63.7 67.8 69.1 69.1 66.6 68.8 69.9 69.1 66.8 69.4 77 81.9 86 88.5 89 88.2 85.8 82.2 78 71.7 67 70.3 78.8 86.4 89.4 91.9 94.2 94.7 92.5 90.3 85.8 79.7 75.8 74.7 75.6 76 85.3 95.6 101.4 103.7 106.7 110.1 109.9 108.6 107.2 104.9 102.7 99.9 96 92.6 88.2 84 79.6 74.2 69.5 66.6 63.6 61.6 60.2 60.4 62.4 68 70 68.1 63.3 69.6 79.8 85.4 87.4 82.9 77.2 79.1 74.5 74.9 80.4 90.7 91.7 88 85.4 84.7 85.2 82.3 84.2 84 82.3 82.8 82.2 81.3 79.8 78.5 77.2 75.3 72.8 69.5 66 62.2 57.7 53.3 48.9 42.3 36.9 38.6 38.4 38.1 39.3 42.8 49.9 59.7 64.9 66 64.6 60.1 50.9 58.3 67.2 66.1 63.7 59.9 58.8 56.2 54.8 53.3 50.4 46.6 43 39.8 36.9 31.4 27.3 31.8 33.3 34.2 32.2 30.4 26.4 22.6 21.3 21.4 21.2 21.4 20.8 20.6 20.2 20.2 20.7 24.9 30.4
113.4 115.1 114.2 122.9 128.1 132.1 132.9 132 127.9 123.8 115.4 108.6 113.2 124 128.8 127.3 124.2 119.2 114 113.1 116.7 124.4 130.4 133.1 130.6 125.2 118.3 112.2 110.5 109.5 109.2 109.2 107.6 104.3 100.1 94.9 90.4 85.2 81.2 77.5 74 70.4 65.7 62.3 59.8 58.1 57.3 56 56 56.8 59.5 60.6 62.1 65.4 69.5 70.8 70.9 68.8 71.2 72.3 72.6 70 70.7 78.6 86.5 90.6 91.2 90.6 88.7 85.5 81.4 76 70.7 70.7 71.8 74.7 82.9 91.5 95.9 97.4 96.7 94.6 90.7 86.1 79.7 78.5 79.9 82.9 77.8 79.8 91 101.6 106.5 108.9 109.6 108.8 107.1 104.2 101.3 97 93.9 89.8 85.5 80.8 75.9 72.5 70 68.4 66.7 64.9 62.9 61.7 64.5 67.8 71.3 73.4 69.4 65.2 72.1 83.7 92.1 91.5 83.3 83.1 87.2 79.9 81.7 87 95.2 97.3 95.1 92.8 90.9 89.7 87.3 84.8 83.4 81.3 79.2 77.9 76.8 75.9 74.9 73.8 72.1 69.7 67 64.3 60.5 56.5 51.8 46.5 41.3 37.1 38.4 38.6 40 43.9 46 44.9 53.8 64.1 68.8 69.4 65 59.9 66.5 70.8 70.2 68.1 65.2 62.3 60.1 58 55.6 51.8 47.8 43.7 40 35.9 29.4 35.7 38.9 38.5 35.3 34.6 31.5 25 28.7 29.2 23.5 20.2 20.5 20.4 20.2 20.3 20.2 20 22 29.1
119.4 122.6 121.4 124.5 133 140.4 141.4 139.6 136.9 132.4 123.4 115 118.7 127.9 134.3 133.4 130.1 125.8 120.8 121.2 127 137 141.6 141.5 134.3 126.1 118.6 112.8 105.9 103.9 103.1 103.3 103.2 102.8 101 97 91.9 85.9 81 77.4 72.7 69.2 65.2 61.8 59.2 57.7 57.6 57.1 59.3 60.4 62 62.9 64.3 66.4 70 72.5 72.3 71.4 74.1 75.8 75.6 73.9 72.6 80.2 88.9 93.4 93.1 91.2 88.6 85.2 80 75.6 72.6 76.5 76.2 77.1 79.3 89.4 97.6 98.2 97.3 95 90.6 85.8 80.8 80.5 84.4 86.2 81.1 79.8 86.8 94.9 101.9 106.5 107.8 106.5 103.8 100.8 97.7 93.7 89.2 83.8 78.7 76.5 75.6 74.5 73.5 72 69.7 67.6 65.2 65.4 68.7 72.5 75.7 76 70.8 69.1 75.1 82 90 91.2 86 87.7 90.4 89.7 90.8 92.8 96 96.8 94.8 92.2 90.1 88 85.8 83.3 80.7 77.1 74.8 72.8 71 70 68.9 67.9 66.8 65 63 61 57.7 55.2 50.7 45 39.9 37.2 39.4 41.5 44.1 47.9 51.6 48.9 49.2 57.2 65.9 72.9 73.1 71.6 72.7 72.5 71.1 68.5 65.6 62.5 59.2 56.2 52.9 49.4 45.7 41.9 37.1 32.3 37 44.6 44.1 41.1 37 32.8 29.7 32.5 32.7 31.7 29.7 23.6 20.1 19.6 20.5 20.3 20.2 20 20.3 28.4
121.6 128.7 128.2 128.8 135.2 144.9 148.7 146.3 143.6 140.4 133.2 124 125.2 133.3 140.6 141.7 139.2 134 128.8 130.6 136.9 145.2 151.1 148.7 140.3 129.7 123 114.3 107.4 98.3 97.9 97.8 97.5 97.9 98.1 96.3 91.9 86.3 81.7 76.9 73.1 68.3 64 60 58.3 57.9 58 59.9 63.2 63.8 65.3 66.9 69.1 71.2 72.9 74.7 75.2 74.6 77.8 79.3 79.2 77.4 74.6 81 88.9 94.4 94.1 91.2 87.8 83.6 80 77.2 76.7 81 82.2 83.4 83.5 85.3 93.9 97.9 97.4 95.1 91.6 87 84.2 84.6 86.6 87.4 84.4 81.5 86 94.2 101.1 104.7 105.2 103.7 100.7 97.5 94 90.6 86.7 83.8 80.8 82.2 81.5 79.2 77.1 75 72.7 70.3 67.6 69.3 73.7 78.1 80.5 81.6 77.4 76.1 79.6 85.2 90.1 91.8 91.4 91.6 93 92.3 91.6 92.4 93.9 94 92.3 88.7 85.1 83.8 81.6 78.1 76.1 73.6 70.3 67.2 64.9 63.9 62.8 61.6 60.4 59.8 58.1 56.5 54.5 51.8 47.9 43.4 41.9 38.9 43.1 49.9 54.3 55.1 55.4 55.3 54.7 55.4 62.4 71.3 75.2 74.6 73.5 71.2 68.3 66.4 63.2 60 56.9 52.8 49.5 45.3 41.2 36.8 34.9 38.7 47 51.1 48 43.5 38.5 36 37.8 36.3 35.7 34.6 31.8 28.5 21.6 18.6 18.9 20.2 20 19.2 18.9 25.4
121 130.1 134 136 143.6 151 153.7 151.9 149.3 146.3 140.2 131.5 132.7 141.7 148.9 151.3 150 144.6 139.2 141.2 149.1 153.2 155.3 151.6 143.5 135 124.5 116.3 110.9 104.2 94.2 90.6 89.8 89.1 89.4 89.2 87.6 82.9 77.7 72.6 68.8 63.7 60.9 58.7 57.5 60 62.3 64.6 65.9 67.2 71.5 74.1 76.7 78.3 78.3 78 79.3 79.3 81.5 82.6 81.6 79.1 79.6 84 88.6 94.3 94.4 91.3 88 83.7 82 76.4 80.8 85 86.7 88.2 90.7 87.9 90.5 96.7 98.1 96.4 93.8 89.8 86.4 88.3 89.5 89.3 87.6 83.5 86.4 92.5 98.5 101.9 103.7 103.8 100.8 97.1 93.9 91.3 89.9 87 85 86.9 85.7 83.4 81.6 79.7 76.8 72.4 68.7 73 77.5 82.8 85.2 87.5 86.2 83.8 86.6 89.6 93.2 94.3 93.2 93.2 92.6 90.1 88.3 88.2 88.8 89.7 88.6 83.9 78.7 76.9 76 72.2 70.9 67.9 65 61.5 58.9 57.9 57 56.8 56.4 55.1 53.3 51.2 49.1 46.6 43.1 42 41.2 42.2 50.7 53.4 59.3 63.7 64.2 64.2 66.4 66.5 69.1 73.3 74.3 72.8 70.6 67.2 64.6 62.6 59.5 56 52.6 48.7 43.2 38.7 37.4 38.8 43.1 49 54.2 55.7 51.3 45 39.9 40.4 43.6 45.2 42.4 35.3 34.2 30.3 24.4 18.6 19.7 19.2 19.5 18.6 18.9 22.2
118.8 130.8 138.7 142.7 148.3 155 159.2 158 155 151.8 147.5 139.9 140.7 153.3 161.7 163.4 162.2 156.2 152.2 155.1 159.3 161.4 159.9 155.1 148.7 140.4 131.5 122.3 118 112.9 102.6 95 89.7 83.4 80.4 80 79.3 73.5 70.3 66.8 65.6 62.1 59.6 58.7 58.6 59.9 62.5 67 69 70.9 75.8 81 84.8 85.3 83.6 81.9 81.7 82.8 85.3 86 84.7 81.6 82.5 86.5 91.7 94.6 94.7 91.7 88.6 86.9 82.2 80.6 85.5 89.9 91.3 93.1 96 95.8 95.8 97.8 99.3 97.8 94 91.2 91.2 92.1 93.1 92.3 88.6 87.9 88.7 90.1 96.2 100 105 105.1 102.4 99.2 97.7 95.9 93.3 90.4 89.8 90.6 90.1 88.6 86.2 83.6 78.6 73.3 73.5 77.3 80.8 86.9 91.6 94.2 93.8 91.4 94.1 96 95 94 92.1 90 88.3 86.3 83.4 82.2 82.9 84.3 82.9 80.8 76.5 72.2 70.2 66.7 64.3 61.2 58.2 55.5 53.9 52.4 52.1 51.3 50.1 48.9 47.1 45.9 45.7 44.4 42.1 42 43.2 49.9 58.7 63.8 67.2 71.6 72 74.5 75.4 75.7 76 74.3 72.6 68.7 66.6 64 59.2 56.9 53.7 50.3 46.3 42.1 42.9 44 43.6 42.8 50.9 56.7 61.2 59.9 52.6 46.7 45 46.3 48 51.2 49.3 43.4 36 30.7 26.5 20.6 19.4 19.3 19.3 18.7 18.1 20.6
121.9 127 135 143.3 150.6 156.3 162.1 164.6 161.6 158.7 153.5 147.6 149.7 163.7 171 174.1 172.8 168.2 164.4 166 164.1 161.7 159.4 157.2 152.9 146.5 139.2 131 124 118.5 111.9 104 98.1 92.7 86.7 81.7 78.4 76.2 75.9 71.5 64.8 61 58.7 58.7 59.8 60.8 59.1 63.4 69.2 75 79.1 83.8 89.2 91.6 90.4 87.9 86.4 87.5 89.1 89.4 88 85.4 87.2 91 94.7 96 97.1 94.1 90.8 87.5 84.5 86 91.8 96.9 97.7 99.3 99.9 101.7 102.8 103.2 102.4 98.7 95.3 95.1 94.9 96.8 96.9 93.8 93.7 93.2 93.1 92.3 97.1 102.9 108.2 108.8 107 105.4 104.1 101.8 97.3 95.1 94.7 95.2 93.6 91.1 86.9 83.8 77.4 74.5 79.8 83.6 87.3 93.5 97.8 101.8 100.8 99.9 99.1 96.6 92.7 91.2 90.5 87.1 83.8 81.6 78.6 76.5 76.7 77.2 76 73.6 71.1 67.4 63.3 60.7 58.6 56.1 56 55.1 54.5 53.1 51.8 51.5 50.8 50.1 49.9 49.3 47.6 44.5 43.4 43.4 53.4 63 70.7 74.2 76.9 79.3 79.1 79.5 78.2 76.6 73.9 70.7 67.3 63.2 59.6 56.6 53.1 50.5 46.6 45 46.8 49.3 51 51.7 49.9 45.8 57.7 62.9 65.7 61.7 53.6 49.4 50.1 50.2 52.7 57.1 56 49.6 42.1 34.9 27.1 23.5 19.2 19.7 19.4 18.8 18.3 19.6
131.1 132.1 134.7 140.5 147.8 153.5 160.9 166.7 167.8 165.4 160.5 155.9 160.6 169.5 172.5 173.8 177.1 176.7 174.1 167.7 160.6 155.4 151.8 149.7 151.9 150.8 146.5 140.7 134.2 127.6 122.3 117.1 111.7 106.2 103 98 92.5 84.5 77.6 68.9 62.5 59.6 59.4 59.4 61.2 63.1 63.2 62.3 63.6 71 80 88 94.2 97.1 97.1 95.2 92.9 92.8 93.4 93 90.9 89.7 90.9 95.8 99.4 102.1 101.3 97.6 93.8 90.8 87.9 92 97.2 103.2 103.8 104.6 106.4 108.3 108.7 106.9 104.4 100.3 98.7 98.7 100.9 100.3 99.5 98.5 99.2 101.2 101.3 97.8 99.6 104.4 110.4 113.8 113 113 112.2 107.9 102.1 100.8 99.9 98 94.9 90.2 83.9 80.7 76.9 81.6 88.4 92 95.6 102 106.3 108.4 107 105.1 102 98 93.9 89.8 86.7 84.4 80.6 75.6 72.8 71.5 70.2 69 68 66.8 62 60.3 58.6 58.8 59 59.7 60.4 59.4 58.8 57 56.9 57.1 57.7 57.1 55.8 52.5 46.8 44.9 43.4 48.1 57.5 67.6 76.3 82 84.8 85.4 82.9 79.1 75.8 71.5 68.4 63.9 59.8 56.7 56.4 53.3 50 49.1 49.7 51.7 53.7 56.9 59.4 61.1 54.7 54.8 64.4 68.8 68.6 61.8 57.4 57.3 55.9 54.7 58.1 62.9 63 57 49.3 40.1 30.6 24.2 19.5 19 20.1 18.9 18.8 18.6
139.7 140.7 141.5 144.4 150.6 156.4 163.2 168.1 171.7 172.8 168.2 166.2 169.8 172.3 168.5 167.6 172.4 177.1 176 169.4 161.3 153.1 145.5 143.6 144.2 144.9 144.6 145.7 143.7 137 129.9 126 122.7 118.2 113.1 106 95.8 83.6 73.5 64.9 60.6 59.8 60 61.5 69.1 71.9 70.5 68 64.1 67.1 75.5 91.9 101.1 104.1 103.8 100.7 98.6 98.3 98.8 98.2 94.7 93.2 95.1 100.9 105.8 106.8 104.4 100.5 97.3 93.6 91.9 96.8 102 108.5 110.6 111.2 112.7 114.2 113.3 109.8 105.8 103.4 104 108.2 107.6 105.1 105 103.2 106.7 110.4 108.7 104.4 106.5 112.1 115.3 118.6 120.7 120.9 118 112.8 108 107.1 104.2 99.3 94.4 86.5 83.3 83.8 83.5 86.2 97.6 100.7 103.5 111.7 114.3 113.2 111.7 109 105.5 100.8 95.4 90 84 79.7 77.1 77.9 75.6 73.2 69.6 66 64.6 64.2 64.2 63.3 63.1 63.6 65 65.9 64.9 63.4 61.6 60.4 61.1 62.3 61.6 59.2 55.3 48.4 46 45.1 46.5 48.6 53.2 60.8 71.9 82.7 88.2 86.1 81.8 77.1 72.3 67.3 61.7 59.9 61.9 63.3 62.2 59.5 58.1 56.1 56.4 59.3 60.5 65 69.2 68.6 59.9 60.2 69.2 74.4 72.6 66.6 64.5 67.8 65.1 63.6 67.1 70.7 70.7 65.1 56.5 45.3 34.5 24.8 21.9 18.1 18.7 19 18.8 18.6
145.6 148.5 149 150.7 155.6 158.7 161.4 165 168.7 171.3 171.4 169.8 172.1 169.3 164.8 163.3 167.3 173 175.6 170.1 162.8 155.3 146.5 137.3 136.2 136.6 138.2 141.7 145 143.9 137.5 132 126.4 122.1 117.3 109.3 95.6 79.7 70.4 63.8 60.1 59.5 60.7 67.9 75.6 78.6 77.7 75 68.9 63.5 75.7 91.3 105.3 110 110.6 107.9 107.7 106.7 105.4 102.1 98.3 97.1 99.6 106.2 109.8 110.6 107.9 103.3 101.4 97 95.9 102.6 109.3 116.3 119.5 119.8 120.7 120.8 118.1 112.8 108.8 107.4 112.7 115.6 113.8 111.1 110.4 109.1 111.4 117.5 115.6 111.6 113.2 119.2 123.6 125.8 128.6 128.3 124.1 117.5 113.3 110.3 104.9 98.8 91.4 90.6 91.7 93.1 95.4 99.6 107 110.3 113.8 118 118.1 116.3 114.3 111.5 107.4 102.2 96.6 91 83 83.2 83.3 82.2 80.3 77.7 74.3 71 70.4 70 69 68.2 67.6 68.7 69.3 69.3 68.6 67 65.6 64.6 65.9 66.1 63.8 58.4 51.2 47.2 46.3 47.4 52.8 52.7 56.4 58.8 62 73.7 81.6 84.7 80.7 74.8 69.5 66.5 64.9 68 69.4 68.9 67.2 65 63.5 60.9 62.3 65.4 69.2 73 77.2 73.4 65 63.2 73.5 81.1 79 70.7 75.4 76.2 71.3 72.2 75.4 76.8 75 67.6 57.4 46.3 34.7 26.2 22 17.2 18.9 18.7 18.5 16.2
143.7 148.3 151.5 154.3 155.1 155.3 155.6 159.3 164.1 166.1 167.3 167.9 167.8 164.8 160.5 156.7 162.1 168.3 171 167.4 161.5 154.1 144.1 134.3 129.8 129.5 131.3 133.9 139.2 141.7 139.5 133.3 123.7 116.6 112.4 105.4 90.4 75.6 67.6 62.9 59.6 60.8 64.7 72.3 79.3 84 82.3 78.8 73.9 67.9 72.1 90.2 106.2 113.3 116.3 115.2 115 114.3 111.5 106.8 103.1 100.8 102.7 109.8 117.1 117.1 112.1 107.2 104 102.6 103.6 112.2 118 124.3 128.5 129.2 129.3 128.4 125.4 117.5 114.6 113.5 119.7 122.4 120.7 116.7 114.6 114.8 117.3 123.8 123.6 118.1 121.7 126.8 131.7 132.8 134.7 133.7 130.1 125.2 117.4 110 102.8 96.6 97.3 100.2 102.9 104.7 106 110.7 118.1 121.5 121.9 121.9 120.5 118.2 115.2 112 108.3 103.5 98.8 90.3 86.5 90.3 89.4 87.6 85.2 82.7 79.7 76.9 76.6 76.1 74.6 73 72.5 73.6 74.8 74.7 74 72.7 71 69.2 67.4 65 59.9 52.3 48.4 47.5 48.3 52.4 57.7 58.2 59 65.6 67.6 70.4 77.5 82.1 79.3 75.7 70.7 68.2 69.7 74.2 76.1 74.5 72.2 70.5 68.7 67.6 68.7 71.7 76.5 80.7 84.1 79 70.1 67.2 76.3 85.2 84.5 80 82.1 83.4 80.5 81.6 81.1 76.1 71.2 63.4 52.6 40.1 30.1 28.4 24.7 18.8 18.3 18.5 18.1 17.7
143 149.7 153.8 153.9 153.3 151.4 150.9 154.2 157.5 158.7 159 160.5 161.1 159.8 155.7 151.9 158.7 164.8 168.3 167.2 161.9 153.4 145.8 138.9 128.5 125.1 123.9 125.3 128.6 134 136.3 132.5 122.4 111.5 101.6 97.6 87.3 73.9 66.4 61.6 60.5 63.3 71 78.3 84.6 89.7 88.4 83.7 79.6 72.2 66.7 83.4 97.8 107.5 112.4 114.1 115.5 116.6 115.8 113 109.4 106.8 106.9 113.6 122.6 123.7 119.6 115.6 114.3 111.5 113.2 121.9 127.5 132.6 136.2 137.2 137.3 136 132 128.2 125 119.5 123 129 127.3 124.7 124.3 123.5 125 130.8 131.7 125.1 130.3 137 140.9 139.3 138.3 135 129.7 123.6 116.7 109.6 100.5 101.8 104.7 109.3 112.1 115.4 119 124.4 127.5 127.9 127 125.2 121.9 118.1 113.6 109.1 105 101.7 95.7 86.6 95 96 94.9 92.6 90.2 87.3 85.2 83.1 82.9 82.3 81 79.2 78.6 79.5 81.5 80.7 80.2 78.2 74.9 70.9 65.9 59.3 53.1 49.2 49.1 50.1 54.1 58.6 62.8 64.5 63.9 70 75 78.6 83.6 84.1 81.1 76.9 75.5 73.4 75 79.6 82.1 82.2 79.6 76.8 77.5 78.2 78.7 80.6 85.9 91.3 90.1 84.2 76.9 72.3 80.7 89.6 92.8 91.8 91.4 91.4 90.4 89.1 82.8 74.8 63.6 53.3 43.4 34.7 38.3 35.1 29 22.7 16.5 18.1 18.3 17.8
147.4 152.1 154.1 154.3 150.1 147.9 148 150.5 152.5 153.7 151.1 152.6 154.7 153.9 149.2 148.2 155.5 161.3 163.6 164.8 163.6 159.5 154 147.4 137.9 126.8 122.9 118.5 118.1 122.2 128.4 129.5 121.5 110.3 96.5 86.5 80.1 71.7 65.3 58.1 61.7 70.5 80.8 86.6 94.2 98.2 94.4 88.8 83.1 76.5 71.1 74.2 86 94.4 99.4 101.7 103 104.8 110.5 116.6 116.5 113.1 113.2 116.7 126.3 129.6 129 125.9 124.2 123.3 126.3 133.6 138.3 141.4 144.6 146 145 143.2 141.4 139.2 134 126.4 128.8 133.3 135.4 134.7 133.9 131.6 135.4 139.4 139 132.6 137.3 143.3 143.8 139.4 134.4 127.5 119.6 112.9 109.1 105.3 106.7 110.5 114.6 118.9 121.8 126.3 130.5 132.3 132.4 131.1 128.9 124.4 119.6 114.3 108.3 102.3 97.9 94.1 89.4 97.6 103.7 103.7 100.7 97.7 95.1 92.2 90.4 89.3 89.1 88.1 86.8 85.5 84.9 85.1 86.9 86.5 84.9 80 74.3 68 60 53.4 50.6 50.3 51.5 56 60.9 67.1 71.6 71.4 71.1 78.1 82.7 86.3 88.9 86 81.6 80.1 81.8 79.5 78.7 82.8 87.4 89.8 87.2 86.1 86.7 88.5 90.3 93.2 98.5 101.8 99.6 92.5 84.8 82.1 91.7 102 104.6 104.4 103.4 101.8 99.8 94.8 87.2 76.4 64 52.3 45.4 48.1 50.2 42.7 33.7 26 19.7 17.5 18.3 16.5
153.3 155 156.4 154.6 148.7 144.8 144.6 146.7 147.7 147.3 144.7 145.9 149.5 148.2 142.5 144.1 152 156.2 157.5 161.4 161.8 159.4 155 149.4 141.3 133.3 127.8 119.2 112.7 114.7 120.7 123.9 120.5 111.2 98.5 87.4 79.7 70.3 63.6 60 63.1 75.2 85.8 92.5 100.7 103 97.9 92.4 84.5 80.7 76.3 68.7 68.7 78.9 84 87.1 88.9 90.2 96.2 106.9 114.9 119.5 120.2 124.6 131.7 135.5 136.2 134.6 133.7 135.2 138.9 143 147.1 150.1 152.3 153.4 152.8 150.6 148.5 145.3 141.3 134.3 136.9 141.1 143.7 143.5 143.4 141.5 145.3 146.5 145.1 141.4 145.7 148.1 144.4 136.2 126.3 119.1 118.5 117.7 118.3 120.2 122.2 123.1 125.6 128.5 131.7 135.8 136.3 135.5 131.9 129.1 124.9 120 113.9 107.3 100.5 101.3 101.1 100.4 103.1 106.7 110.9 111.1 107.6 103.7 99.4 96.9 95.4 95.6 95.1 94 92.9 91.6 90.4 90.5 91.5 90 83.6 76.4 67.8 59.5 55 51.2 51.3 52.8 56 61.8 67.9 75.1 80 78.9 79.5 87.5 92.3 93.6 91.8 87.4 86.5 86.7 86.7 85.8 85.6 87 92.1 96.6 97.5 97.4 98.2 102 102.1 104.4 109.7 112.4 108.8 102.7 99 93.7 103.4 111.7 113 112.4 111.9 110.1 107.7 102.7 92.4 77.6 68.9 61.2 56.5 59.8 59.7 52 41 30.3 24.1 18.5 17.9 18.5
156.5 155.7 156 152.9 148.4 143.7 139.7 142.5 145 143.5 139.8 142.3 146.6 144.7 136.3 139 146.3 146.6 148.9 156.2 159.2 156.9 152.5 148 143.8 137 129.9 121.9 113.2 106.5 111.3 117.1 117.9 113.6 104.7 95.8 84.7 71.7 63.6 62.5 66.7 74.8 83.3 93.5 102.2 104.5 99.5 91.4 87.6 89 85.3 79.3 75.6 70.9 68.5 69.3 70.7 70.6 81.6 92.4 104.6 117.1 124.3 129.6 133.5 137.5 140.7 141.2 142.3 144.5 146.7 149.2 152.5 154.8 156.5 158.6 159.1 157.8 155.6 154.3 152.4 148.4 149.1 150.3 151.2 151.3 150.6 150.4 154.1 155.6 155.5 156 156.5 153.9 149 139.6 131.5 133.7 132.5 131.4 130.8 131.7 136.9 136.5 136.7 137.9 140.9 142.3 139.6 134.3 127.6 123.1 118.4 112.6 108.4 110.3 111.6 111.9 111.8 111.7 113.2 114.8 117.1 118 114.1 109.6 105.9 102.3 102.5 102.6 101.6 100.2 99 97.6 96.1 95.2 92.7 86.8 77.3 68.1 59.4 54 52.2 52.9 54.2 55.2 58.6 64.1 70 79.4 85.9 85.9 79.4 91.6 98.7 97.8 94.8 94.2 93.8 93.2 92.5 92.5 92.5 94.5 98.2 101.3 103.1 105.7 107.3 107.8 109.7 112.4 116.5 118.3 118 115.5 111 107 114.4 118.4 119.4 117.4 115.6 114 112.2 106.6 98.8 89.8 79.9 72.7 70.3 75.4 72.8 65.4 53.5 39.1 30.8 24.1 18.4 18
156.8 153.8 150.7 148.3 145.8 142 136.3 137.8 141.4 141.8 136.4 137.9 143 141.1 133.1 135 139.5 138.7 145.4 154.2 158.5 154.9 148.2 141.7 137.6 135 129 123.6 115.6 108.1 103.7 109.9 115.2 114.3 107.6 97.9 86.1 70.9 63.7 62 70.3 80.1 87.3 94.5 102.6 106.7 100.8 95.9 99.1 96.1 92.7 88.1 84.3 83 82.4 86.8 91.2 88.5 83.2 77.7 92.4 105.6 117.5 124.5 126.2 131.1 136.5 140.5 143.4 145.7 146.8 148.3 150.7 153 154.3 157.4 159.1 159.4 158.9 159.8 158 157.7 157.2 156.3 155.9 155.3 155.4 156.9 160.2 163 163.9 164.9 163.4 159.1 153.9 148.2 145 147.4 148.4 145.4 149 150.4 150.8 148 147.1 148.2 148.3 146.2 142 134.7 128 123.3 119.6 118.3 120.3 122.1 121.3 120 119.5 121.1 122.4 125 125.9 124.1 119.8 115.2 112.4 110.7 111.3 112.1 110.2 107.4 103.7 101.9 99 93.5 87.7 79 67.7 59.4 54.9 53.4 53.7 57.1 58.6 58.6 60.3 63.5 69 75.5 85 90.9 91.9 97.5 102.7 101.8 100.9 101.5 101.1 100.7 99 99 98.8 100.8 105.4 107.7 111.5 113.7 114.3 114.5 113.5 113.1 112.3 113.6 118 119.8 120.1 118.6 120.3 119.6 117.6 114.4 111.4 109.5 108.4 107.6 104.3 99.3 93.9 89.4 88.4 89.6 89.3 80.4 70.2 55.8 44.7 35.8 25 18.9
158.6 154.4 148.5 143.2 138.9 136.6 132.7 131.1 133.9 137.8 136.4 131.3 138.5 138.2 130.7 129.8 131.9 135.2 145.1 151.8 155.3 152.2 146.9 140.5 132.4 128.3 126.7 123.1 115.4 108.9 98.1 100.3 110.5 114.5 108.1 98.1 84.6 69.1 63.5 64.3 76 87.5 93.6 100 106.1 110.8 106.5 104.3 107 104.5 101.2 96.4 94.1 93.1 92.4 95 101 99.3 92.5 84.3 80.5 95.4 104.6 111 115 119.8 127 131.8 136.2 139.2 141.1 142.2 143.8 146.3 148.4 150.4 151.7 151.9 152.3 153 153.5 153 152.3 149.8 147 145.2 147.3 155.1 160.5 165.1 168.3 170 168.6 165 161.2 159.2 158.5 159.9 160.5 161.4 164 164.2 163.6 162.9 157.5 158 155.9 152.3 147.5 140.3 133.5 130.3 128.7 129 130.7 130.7 130.1 130 129.9 131.6 133 133.6 132.6 129.7 125.6 121.5 120.1 119.9 120.6 120.7 118.2 113.8 108.6 103.1 95.4 86.8 77.2 68.6 62.1 55.8 54.4 56.7 59 60.4 61.2 62.9 64.3 66.2 67.1 71.6 80.2 89.8 97.6 103 107.5 107.4 106.5 108.3 108.6 108.1 106.3 105.5 106.3 109.4 113.7 117.3 120.4 119.4 118.6 117 113.4 109.1 107.8 107.8 111 114 115.8 117.9 118.1 116.6 113.2 109.7 106.6 103.7 102.4 102.5 103.8 105.5 103.1 100.3 101 100 96.1 89.6 80 68.1 62.5 58.3 47.7 26.8
161.7 156.9 151.9 148.3 144.1 137.8 132.2 125.1 126.9 131.3 133 127.2 135.8 133.8 128.2 124.3 125.7 134.8 142 148 150.6 149.3 144.7 138.9 131.1 123.7 120.6 116.7 111.7 105.4 92.8 98.2 108.4 113.1 107.4 96.3 82.2 67 63.8 67.8 82.5 94.8 101.3 106.4 111.8 115.4 110.1 111.2 112.9 110.5 108 102.5 101.3 100.9 100.1 102.5 107.4 106 100.5 93.4 86.6 81.6 91.4 97.6 104.4 110.1 116.1 120.2 126.9 129.8 133.5 135.5 136.7 138.2 140.1 141.9 143.6 144.3 144.6 145 145.7 145.4 143 139.9 135.2 141.9 142.8 147.2 156.7 163.3 169.1 172.7 173.3 172.5 172.6 173 171.3 171.6 171.2 168.6 170.6 172.3 172.2 170.4 167.8 163.7 161 157 152.8 148 145 141.7 138.7 138.6 138.7 137.8 137.6 137.7 137.3 139.8 141.8 141.2 139.1 135.5 131.2 128.1 127.2 126.7 125.5 123.4 117.4 111.2 104.7 98 88.6 78.5 68.9 63.5 58.6 54.3 56.4 64.6 69.6 71.8 71.7 73.1 69.6 70.7 70.4 70.6 76.3 85.9 94.1 102.8 110.4 112.4 112.7 113.8 115.3 115.5 113.7 112.1 114.9 118.1 121.4 123.4 124 123.3 120.8 117.2 112.2 107.6 104.1 102 103.1 104.4 108.2 112.5 114.5 112.6 108.1 102.7 99.5 96.4 94.4 96.4 97.8 103.8 106.3 105.5 102.9 101.7 100.2 95.9 88.7 80.1 75.3 71 66 53.8
164.8 162.2 158.6 153.8 147.9 141.9 136.5 132.4 123.8 122.6 124.2 122.4 129.6 128.3 122.2 116.3 126 131.9 137.7 143.8 146.5 144.4 140.2 134.6 129.3 123.1 116 111.4 106 97.4 90.5 97.8 104.4 108.9 105.3 91.1 76.5 65.9 62.8 71.4 88 100.3 107.2 113 118.9 121.1 117.5 118 120.1 119 115.9 108.9 108 107.6 107.4 108.5 113.6 112 106 100 94.1 87.8 85.9 86.4 89.6 97.6 104.5 110.1 115.1 120.6 125.4 128.6 129.4 129.2 131.4 134.4 136.3 137.5 137.9 138.3 139.1 138.1 130.2 136.3 143.8 149.6 151.5 146.8 153.2 160.8 168.1 173.7 176.9 178.8 180.1 181.5 182.4 181.9 180.5 175.9 173.5 174.4 174.9 171.6 168.8 165 161.3 157 155.4 152.7 150.4 149.3 148.7 148.1 147.4 146 145.3 144.7 144.4 144.4 142.9 140.9 138.8 136.1 134.1 130.1 129.5 129.4 127.3 122.9 115.1 106.2 96.7 87.8 78.4 70 65.3 60.9 56.4 55.4 63.5 72.9 78.3 80.8 79.9 81.8 80.4 78.4 76.4 75.2 75 81.2 87.1 95.7 105 115.4 117.7 119.8 121.9 122.8 121.2 120.7 122.8 124.4 127.1 126.2 124.3 121.1 118.6 114.7 109.7 105 99.7 95.5 95.2 97.1 100.4 103.6 108.3 109.4 105.4 97.4 91.5 89.3 87.3 88.4 89.9 97.1 103 101.6 99.2 97.6 99.5 99.3 95.3 90.3 86.5 82.4 79.2 72
164.4 163.9 161.2 157.4 151.8 147.3 143.1 138.3 132.7 123.2 114.5 114.4 118.6 121.8 113.3 116.9 122.8 127.4 133.8 141.1 142.7 140.1 134.1 127.8 122.7 117.4 111.4 103.1 97.2 89 84.9 93 99.2 100 97.1 83.2 70.1 64.4 65.2 76.9 92.9 105.1 112 118.5 124.5 126.9 122.9 123.3 126.3 126.6 122.1 115.4 115.8 115.3 114.8 115.3 117.7 117.2 112 105.4 96.9 94.4 92.5 90.9 91.7 91.8 92.6 98.8 103.7 106.7 112.1 118.7 119.4 119.5 120.3 122.8 124.9 126.3 127.9 126.7 124.7 129.3 135.3 142.7 150.1 156 155.8 153 155.5 159 166 173.8 180.3 184.1 186.3 188.3 189.2 189.6 187.5 180.8 177.4 177.3 175.7 170.2 162.8 155.7 150.7 149 150.6 150.6 153 153.8 153.3 151.6 149.2 146.9 144.2 141.7 138.9 135.6 131.4 127.2 123.3 120.5 118.7 116.7 118.5 122.7 121.8 118.4 111.8 103.1 92.4 80 72 68.7 65.8 58.9 58.2 55 60.1 69.5 81.5 85.3 84.7 87.2 88.7 89.3 86 84.6 83 80.9 83 90.6 101.5 114.6 122.4 125.4 128 127.9 129.2 129.3 127.1 125.2 122.8 120.6 118 115.3 112.2 108.9 105.2 98.6 91.5 86.9 84.7 83.9 86.3 87.2 94.5 98.7 101.7 97.6 91.5 82.8 76.9 77.9 83.4 91.2 96.5 95.3 90.4 89.8 93.9 98 98.9 96.8 94.2 92.6 89.5 83.9
158.3 157.7 156.8 155.6 153 149.3 145.8 142.3 137.3 132.3 125.4 117 110.6 113.2 109.4 118.5 124.4 131.5 137.7 141.8 142 135.8 127.4 120.1 114.5 110 102.4 95.1 92.2 90.6 83.9 79.7 81.6 84.4 83.1 73.7 64.7 64.6 67.8 82.9 97.9 112.5 119.3 126 129.8 131.1 128.4 126.9 131.2 130.7 126.7 121.8 123.5 124.1 122.2 121.4 125.8 123.6 118.6 107.9 102.1 103.7 103.9 104.2 102.9 99.1 96.5 96.6 94.5 96.4 100.8 105.7 109.4 110.9 109.9 110.7 111.8 115.5 117.4 123.4 129.5 136.6 143.6 150.8 156.3 160.6 158.8 158.3 161.8 161.2 166.1 174.4 182.1 188 191.3 192.6 193.2 193.4 189.5 182.6 176.2 169.9 163.7 155.8 147.5 140.5 136 135.5 137.1 138 142.4 147.5 147.6 145 141.2 138.3 135.4 131.2 126.7 121.3 114.3 108.4 103.6 100.4 97.5 99.1 101.8 106.2 110.5 111.9 106.2 97.1 84.8 75.8 72.2 69.4 61.4 58.3 61.7 62 60.1 67 71.4 84.8 90.4 93.3 94.9 96.4 97.3 91.6 86.8 86.1 90.2 96.1 103.2 113.9 123.2 128.3 129.9 128.3 128.1 126.2 122.2 117.5 113.7 109.9 107.1 104.8 102.5 99.2 94.4 89.2 83.6 81.6 72.2 69.8 68.1 70.6 79.3 86.8 93.5 98.6 95.2 87.6 79.6 68.5 75.9 84.2 88.9 87.5 81.8 82 85 87.4 87.9 88.6 89.1 89.4 90.7 90.4
147.7 148.5 148.9 148.7 147.3 145 142.6 140 137.2 133.5 128.6 122.5 114.4 107.2 105.8 114.1 123.1 132 138.2 143.1 144.2 140.9 133.6 125.9 119.5 114.6 112.1 109.9 105.6 101.3 94.2 85.1 75.7 70.4 70.3 66.5 62.4 64.3 71.5 86.1 101.9 119.1 128.6 132.8 136.3 136.6 135.2 131.5 134.8 135.7 133.7 128.8 131.1 132.2 128.1 125.6 130.9 128.6 122.3 112.9 108.4 111.4 112.5 112.7 109 105.5 101.6 108.9 104.3 102.2 99.7 98.9 106 110.8 114.7 115.1 113.4 113.3 121.9 128.7 137.7 146 150.1 155.7 160.6 164.4 163.2 162 166.9 168.7 169.5 176.2 182.8 189.7 193.4 193.7 192 189.4 185.6 179.9 171.2 160.5 148.2 139.2 132.8 127.1 123.9 123.6 123.1 121.3 125.3 132.4 136.1 134.1 131.4 128.8 125.3 121.1 114.7 108.1 99.2 92.9 85 78.5 77.5 75.5 75.8 80.7 92.1 98.9 98 87.4 78.1 71.6 69.3 63.2 58.5 60.3 64.7 70.8 71.2 67 69.7 74.8 87 95.4 100.8 102.9 102.2 97.5 92.5 93.8 97.7 105 111.5 112.9 122.4 127.7 127.6 125.6 123.4 118.9 114.4 109.2 104.7 99.3 97 95.7 92.8 88.3 84.2 80.4 78.9 80.9 79.6 76.9 73.1 61.9 64.4 77.2 85.1 92.9 93.7 89.6 82.5 73.1 64.6 76.4 80.6 78.5 71.4 72.6 72.3 70.2 70.8 71.6 71.7 73.5 76.4 80.7
137.3 138 139.8 141 141.1 139.2 137.4 135.8 133.5 130.9 127.7 123.7 118.6 111.6 101.2 114.6 131.6 135.6 138.9 142.2 145 145.5 142.8 139.1 133.8 128.4 123.3 119.4 113.7 106.5 99.9 91.7 80.5 68.9 66.3 64.6 67 67 74.1 89.1 106.9 123.3 129.9 137.4 144.3 142.8 142 140.4 141.4 141.2 139.1 134 137.5 137.5 134.6 133.3 135.7 133.3 125.8 117.2 119.9 118.9 121 119.1 110.4 114 107.9 116.1 116.7 113.8 111.2 108.8 108.5 114 118.6 120.4 117.5 113.7 116.7 128.2 136.8 143.8 152.6 159.2 164.7 168.2 168 165.6 170.8 175.7 177.2 179 184.1 188.7 190.9 188.6 184.5 181.1 177.3 173 164.4 152.1 137.4 128.3 122.2 117.5 113.9 112.4 110.9 109.8 113.1 116.4 120.7 119.9 118 117 114.6 110.6 104.3 97.6 89.1 81.3 76.6 79.4 81.6 82.3 76.3 72.2 72.7 81.3 83.5 80 73.7 68.9 62.6 61.3 62.1 65.4 71.6 78.5 79 75.4 72.1 74.9 78.4 92.5 101.9 109 109.8 110.3 104 103.2 104.9 109.6 118.4 118 122.2 127.7 124.5 121.1 117.5 112.9 107.1 102.2 98.9 93.7 93.2 93.3 91.8 90.3 89.6 91.7 92.7 93.9 90.3 85.2 79 70.7 58.7 62.1 72.1 83.5 86 84.7 81.4 74.8 58.8 66.4 70.7 68.3 59.3 60.8 55.7 51.7 51.2 51.8 52 54.4 57 62.2
129.8 129.7 131.1 134.7 135 133.4 132 131 129.4 125.2 122.4 119.4 115.5 110.2 99.3 111 128.8 132.1 135.8 139.5 142.4 142.8 143.1 142.7 140.3 136.6 131.9 125.9 120 111 101.6 89.2 72.9 66.5 65.6 66.2 66.2 66.8 76.7 91 107.6 122.5 131.9 140 146.7 147.9 147.3 147.4 147.4 146.5 143.1 140.5 143.1 142.7 140.8 140.7 141.4 138 128.9 127.2 129.2 126.9 127.5 121.4 118.1 121.1 114.2 118.3 123.1 122.8 120.7 115.4 107.9 112.8 120.1 130 129 122.5 116.9 120.6 129 138.3 147.1 157.9 166.6 171.6 172.8 170.8 172.7 180.2 184.6 185.1 187.2 187.7 185.6 181.5 176.1 170.5 165.4 161.1 154.5 142.5 131.2 121.4 111.2 110.3 112.8 110.1 106.7 102.6 102.3 102.1 105.5 106 105.3 104.3 103.5 99.9 94.3 88.4 80.6 78.6 83.6 89.8 93.6 90.4 85.9 81.1 76.3 71.8 68.9 69.8 68 64 62.2 65 68.3 72.2 81 86.9 88 83.8 80.2 77.2 77.8 86.7 96.9 105.5 112.4 114.6 113.1 111 111.5 115.6 123.7 123.6 125.6 126.6 121.8 115.3 112.9 111.5 110 107.2 103.4 102.9 103.4 102 100.8 100.4 102.1 105.8 103.9 99.7 93.8 87.5 78.3 70.7 62.4 53.2 60.2 71.9 75.9 75.9 73.8 69.9 60.2 54.7 60.4 56.5 50.1 43.7 39.4 36.7 36 35.6 34.9 35.9 39.5 44.8
126.3 124.2 123.4 125.7 128.6 127.1 124.6 123.6 121.9 119.8 114.6 111.4 108.1 105 97.6 110.2 121.6 125.6 130.2 135.2 137.4 138.1 138.6 140.1 139.8 137.3 133 127.7 121.2 111.3 98.7 82.2 67.9 65.7 72.6 70 66.3 66.5 76.4 89.5 105.2 117.9 128.8 136.6 143.6 147.2 150.1 151.3 151.6 150.3 148.8 147 148.7 148.9 149.1 148.6 147.3 142.5 132.5 133.8 136.7 132.2 124.8 123.2 124.9 124.6 119.5 121.5 127.6 128.2 125.1 118.1 114.9 113.9 117.3 128.8 133.2 129.4 122.6 119.9 127.7 139.4 149.9 157.9 163.6 170 174.8 175.8 177 184.6 190 190.6 189.8 184.7 177.3 170.6 162.4 156 149.4 146.3 141.7 133.2 122.9 114.1 120.7 123.9 124.1 121 115.8 106.9 95.1 92 92.2 93 91.7 92.4 92.3 87.1 83.2 83.9 85.4 85.9 92.1 99.2 100.6 97.8 93.6 89.1 85.4 77.9 71.8 66.3 67 65.9 64.6 71 74.4 78.5 85.1 93.2 95.6 92.2 86.3 84.1 79.5 79.4 89.3 101.4 112 118.9 118.2 117.1 118.3 121.6 123.7 126.1 132.3 131.3 128.6 127.2 122.7 119.8 117.1 114.6 116.4 116.7 113.7 111.8 109.7 111.5 113.8 111.7 107.2 99.6 91.3 80 69.1 61 60.4 54.9 51.5 60.3 61.6 62.6 64 63 58.6 47.7 49.3 44.7 38.8 38.1 39 41.9 38.8 35.9 32.5 31.5 30.5 31.9
125.9 121.6 119.1 117.2 121.3 123.1 119.4 115.9 114.3 113.3 110.2 105.3 102.2 99.3 95.1 104.4 110.9 116.1 122.4 127.6 129.7 130.3 131.7 134.4 135.4 134.2 130.5 124.8 117.3 107.9 95.3 78.9 65.3 72.5 81.8 73.6 67 67.3 78.5 89.4 97.7 108 119.7 128.7 136.8 143 147 148.4 149.4 151.2 151.8 152 153.4 154.2 154.7 153.8 151.9 147.6 138.4 141.3 141.8 134.4 132.2 132.4 131.6 130.7 126.2 130.3 133.5 133.1 128.9 122.7 125.5 123.5 123.3 130.6 136.5 134.6 129.3 121.6 126.7 136.1 146.5 151.8 157.7 165.5 174.1 178.8 183.3 189 193.4 195.3 192.4 185.5 175.5 161.7 150.1 142.5 136.1 131.6 128.8 122.5 120.2 127.8 132.6 133.6 129.5 124.5 118.5 108.2 95.9 98.4 101 99.2 96.6 93.3 90.1 88.5 92.5 97.6 97.8 95 100.8 108.4 110.4 107.6 103.7 99.3 95.2 89.3 83.8 78.8 72.2 66.6 71.4 76.2 79.9 84.5 89.8 98.5 100.8 98.2 92.6 88.4 85.2 79.6 84 95.8 108.2 119 123.5 123.6 124.2 126.4 129.3 134.6 138 138.1 137.4 136.3 132.2 128 126.5 126.5 127.4 125.6 122.9 120.8 119.2 116.9 116.6 112.9 105.9 97 85.2 72.1 57.3 53.3 53.1 53.7 47.3 48.1 48.5 51.3 52.1 51.5 48.8 44.2 41.3 39.1 43.3 48.3 49.9 51.2 51.9 49.2 42.8 41.7 39.8 35.6
129.2 126.9 124 119.2 114.6 119.6 119.6 116.3 111.9 107.2 103.7 98.6 95.6 92.1 89.9 92.9 101.1 108.4 114.5 119.3 121.5 122.4 122 126.9 129.7 129.7 127.4 121.9 114.5 104.1 92.9 78.7 65.2 72 84.1 79 67.3 68.7 79 85.7 89.1 95.1 105.3 114.5 123.5 130.9 134.9 138.2 141.6 144.9 148.6 152 155.5 157.2 158.6 158.9 157.1 152 148.8 149.7 147 141.4 140.8 140 140 138.8 132.5 136.2 138.6 137.4 130.6 129.6 131.9 129.7 134.7 136.4 141.8 140.9 135.8 128.3 125.7 134.2 142.6 149.5 154.8 162.8 171.9 179.3 187.4 192.5 196.4 196.7 190.6 180.5 170 161.5 152.3 143.6 137.2 134.4 131.4 129.6 133.8 138.6 138.8 134.8 130.2 123.9 116.4 103.2 104.3 110.8 113.4 111.8 108.6 104.5 100.3 97.6 103.9 113.5 111.7 105.3 108.7 115.5 119.2 117.2 114.4 110.2 105.4 99.2 92 82.7 72.1 68.1 75.3 81.6 85.2 87.9 95.4 102.5 105.6 102.4 98.6 94.7 90.8 86.2 79.3 89.8 101.9 113.1 122.9 127.3 129.2 131.8 135.1 138.4 140.3 140.7 140.2 140.3 138.4 136.5 135.4 135.3 134.7 132.1 129.6 127.6 124.3 120.9 116.3 110.8 103.6 91.8 78.2 61.6 58.3 63.6 64.2 64.4 57.3 52.2 49.6 47.8 46.8 43.9 41.8 43.3 48.7 51.2 55.3 59.5 61.6 61.2 61.3 58.6 54.2 54.2 51.1 45.1
133.7 129.1 122 120.2 116.1 110.6 110.8 109.5 105.1 107.1 105.3 103 101.3 98.4 95.8 90.6 92.3 99.2 106.2 109.4 110.9 112.1 113.4 117.7 121.1 123.3 123.6 119.2 112.5 103.4 92.6 82 70.8 71.2 85.3 84.4 69.4 67.5 74.7 79.2 80.5 85.2 92.9 100.4 109.6 116 120.6 124.4 129.9 135 140.9 146.6 150.3 154.4 159.8 160.3 160.9 157.6 156.7 156.7 155.1 151.7 150.7 149.6 150.5 149.2 145.3 145.4 145.3 142.9 137.9 140.7 141.2 138.1 144.8 146.9 147.6 145.9 140.1 132.9 125.2 132.7 141.9 149.1 158.8 167.4 176.1 183.4 189.1 194.5 196.2 189.9 179.3 169.2 162.9 158.9 151.8 145.9 143.6 144.4 141.4 140.5 142.9 142.1 138.1 131.6 125 117.7 107 105.7 115.7 120.3 123.1 123 120.2 116.3 111.3 103.8 107.6 119 119.2 115.1 117.6 122.3 125.5 125.1 122.8 119.5 113.5 105.7 96.3 84.6 72 69.7 78.9 85.9 91.4 93.6 96.1 103.2 108.4 108.1 105.3 101.1 97.8 93.6 87.7 86.2 98.1 109.2 121.6 128.2 133.2 134.8 136 136.6 137.6 138.9 137.8 137.1 136.4 136.5 135.7 135.9 135 133.4 130.4 126.3 122.2 118.5 113.9 108.1 100.3 86.8 69.8 57.5 65.1 74.7 76.3 75.3 71.2 63.1 57.8 56.7 56.2 53.6 55 59.6 63.5 66.2 72.7 72.9 72.7 72 68.9 66 64.6 62.2 57 48.9
133.2 129.9 128.5 128.5 124.7 118.7 116.5 116.2 116.7 117.4 114.7 111.7 108 104.3 101.5 98.2 93 88 92.9 97.6 98.6 100.6 103 107.1 109 112.2 114.5 114.6 111 103.7 95 84.5 73.6 68.6 80.6 84.9 71.5 68 80 86.2 90.7 90.5 90.2 94.7 99.5 104.8 109.2 114.4 119.5 122.5 128.6 137.9 144.8 149.7 153.9 158.8 162 162.9 162.5 163.9 164.1 163.1 161.6 161 160.7 157.7 154 153.7 154.1 151.9 148.2 151.5 151.5 148 153.8 156.3 154.3 150.6 142.9 132 126.6 128.2 133.7 140.8 150.4 161.9 175.1 182.4 187 189.5 187.6 180.2 171 163.5 156.7 148.9 149.6 150.8 151.9 153.3 151 149.1 147.2 141.4 135.1 128.3 118.6 110.6 105.4 117 123.1 127.3 130.2 131.2 130 126.3 121.2 111.6 109.2 123.7 125.4 124 124.6 129 132 131.6 129.4 125 118.8 108.6 96.1 84 72.5 72.2 82.4 91.2 98.2 100 100.6 103.8 110 113.1 111.1 108.4 105.2 100.7 96 88.2 96.9 110.1 121 128 133.6 133.3 133 130.9 131.1 132.4 131.4 131.2 130.6 129.2 129.8 131 130.2 129.1 125.9 121.7 117.6 113.1 108.5 102.3 96.1 82.9 67.1 58.6 73 84.4 87.5 87.2 85 75.5 70.4 68.5 68.1 67.5 69.3 74.5 78.6 82 85.6 85 84.3 81.3 77.9 73.2 69.4 65.5 60.3 51.8
142.4 140.3 139.1 139.4 135.5 131 129.3 128.1 128 128.1 124.4 120 113.2 109.2 110.3 108.2 101.9 94 84.1 86.1 84.8 86 88.6 91.4 94.8 98.6 102.4 105.9 105.8 100.7 94.1 84.9 74.1 67.6 76.3 81.3 69.9 68.3 86.4 95.3 100.1 99 99.3 102.5 105 107.5 111.4 116.1 120.4 125.3 132.4 135 136.5 141.8 147.5 153.6 159 159.8 164.3 168.4 171.1 171.1 170.3 169.6 168.1 165.3 161.4 162.9 163.2 161.9 158.2 160 161.9 160.6 161.8 164.3 161.6 156.4 146.7 137.7 132.3 134.7 138.4 138.9 145.9 156.6 167.8 174.7 179.6 182.2 181.6 175.1 164.8 160.1 158.2 159.8 161 162.7 162.9 163.9 160.9 158.5 151.5 141.7 132.4 122.1 113.1 107.9 113.2 122.9 127.6 130.7 134.4 135.8 135.4 134 128.3 121.3 117 127.4 132.8 132 132.4 136 138.9 137.2 133.3 128 120.3 108.8 95.1 82.3 72.2 75.1 86.4 94.1 101.2 105.4 106.5 109.2 112.5 116.2 116.9 115.2 112.2 108.3 103.9 96.9 97 111.3 121 127.3 131.2 133.4 130.6 125.7 124 123.4 123.6 122.5 120.3 118.4 118.4 120.5 122.6 122.3 119.8 116.7 111.5 106.7 101.3 96 90.8 78.6 64 62.3 76.1 93.1 96.8 97.2 96.1 90 86.8 86.2 85.3 84.5 86.6 90.2 92.4 94.7 95.4 93.8 91.8 87.8 82.7 76.8 71.5 66.3 57.9 53.5
152.7 153.8 152 150.5 146.5 143 140 137.9 136.7 135 132.5 127.8 116.6 117.1 119.1 116.6 110.2 101.9 97.8 93.7 90.1 86.5 82.3 79.8 82.4 84.9 87.7 92.6 96.6 94.2 90 82.9 73.2 67.6 76 78 70.9 68.2 85.1 100.7 107.1 108.3 109.4 114.6 117 118 121.6 128 134.4 140.3 143.3 144.7 146.2 147.2 148 150 156 160.5 166.3 171.3 173.7 174.7 174 174.4 173.5 172.5 171.3 171.1 170.8 170.3 167.9 167.7 170.8 171.3 171.6 171.9 168.4 162 154.1 146.7 140.5 143.9 146.2 144.7 148.3 152.6 158.6 165 171.9 180.3 181.3 177.2 173.2 170.9 171 171.7 173.3 174.1 174.5 174.3 171.6 164.7 149.4 139.2 128.7 118 115 115.3 115.9 123.3 129 134.5 138.5 139.1 140.3 140.5 137.2 130.9 124.8 133.4 140.3 140.4 140.5 143.2 144.5 140.5 134.9 128.2 118.8 105.1 92.2 80.4 72.4 74.7 86.8 96.2 103.2 109 112.4 115.5 118.6 121.6 124.6 122.2 118.4 114.5 112.1 106.8 99.3 109.3 118.2 124.8 130.9 132.3 127.7 121.9 116.9 113.8 112.2 111.9 109.5 107.3 106 104.7 107.1 110.9 112.4 110.3 106.8 101.1 93.7 89.3 82.5 74.8 61.7 65.9 79.8 97.7 102.7 105.6 106.3 104.5 103.6 103 101.3 100.6 101.5 103 103.4 102.4 100.1 95.6 90.1 85.5 80 74.2 67.9 61.2 55.5 49.3
160.6 161.1 160 158 154.5 149.6 146.6 143.8 141.2 138.2 132.7 120.3 124.3 128.1 125.7 121.1 115.4 109.8 105.4 101.6 100.1 96.1 91.4 87.4 84 78.3 74.7 77.5 84.8 88.2 86.1 80.9 71.3 67.8 76.3 79.9 71.4 68.7 80.1 95.8 105.5 112 117 121.1 124.9 127.7 132.7 140.4 146.2 148.6 150.5 152.8 154.9 156.7 157.4 160 163.5 168.6 170.5 173.7 175.5 175.5 175.8 176.7 176.8 177.1 177 177.5 177.5 177.1 177 176.7 178.2 179.1 179.7 178.6 174.8 169.2 163.1 153.6 150.9 152.1 154.9 154.5 152.6 161.7 165.4 169.3 175.3 182.6 187.5 187.9 186.2 184.3 184.4 184.7 185.1 185.7 186.4 184.7 179.1 168.2 151.4 137 125.4 120 124.6 123 118.7 125.6 135 139.4 141.1 141.3 142.7 145.7 146.2 140.2 133.9 142.2 148.3 148.4 147.5 146.7 145.6 139.8 131.8 124 112.9 99 86.7 77.9 71.9 74.9 86.5 97.2 105.1 112.1 117.6 121.3 124.4 126.7 127.6 126.6 123.4 119.6 117 113.9 106.8 106.8 114.8 120.2 127.9 132.7 127.5 119.4 112.9 107.6 107.5 108.7 107.3 104.5 101.1 96.6 92 95.8 101.1 101.2 99.6 95.8 89.2 81.6 77.9 69.2 62.3 70 82.8 98.5 104.9 109.8 115.1 115.4 115.1 114.8 113.1 111.3 108.9 106.7 104.7 100.3 95.7 90.1 83.9 77.5 71.5 66.4 59.7 53.7 47.3 41.8
167.1 166.9 165 162.1 158.2 153.2 148.6 142.5 138.4 133.3 127.6 133.3 134.4 134.1 132.1 128.6 122.2 117.6 113 109.1 108.1 105.9 102.1 97.3 93.1 89.2 84.7 78.7 75.1 81.4 81.5 76.5 71.1 69.6 81.4 81.3 74.1 69.7 74.9 90.1 100.3 107.5 113.8 118.8 123.8 128.1 133.4 141.1 146.6 149.3 153.3 157.9 161.1 163 164.6 165.9 168.9 170.6 171.7 171.6 171.8 172.1 172.3 172.6 174.1 175.6 177.4 179 180.2 182.4 183.2 183.5 184.7 185.3 185.8 184.4 180.1 176.6 168.7 166.2 161.5 162.9 163.9 164.8 161.3 168.7 174 179.8 186 192.9 199.1 200.7 199.2 196.3 195.3 195.3 195.8 195.8 194.6 191.1 183.9 167.1 149.4 135.1 125.3 127.7 130.1 130.9 124.1 125.2 138.9 145.1 146.7 147 148.8 152.1 154.2 149.5 145.3 151.6 155.6 154.5 150.6 144.9 139.3 131.6 121.8 113.3 102.2 89.8 81.7 78 77.8 76 86.2 99 106.8 113.7 119.9 126 128.5 130.3 131.1 130.2 128.3 124.8 122.4 121 116.2 107.3 112.2 121.4 129.5 135.3 130.1 120.4 114.2 112.6 112.9 114.5 115 113.5 111.3 107.6 100.5 93.2 89 90.9 90.4 88.2 82.9 76.2 71.3 64.1 67.8 78 86.5 97.8 105.4 114.6 119 120.2 118.1 116.1 112.8 109.4 105.7 99.5 96.2 92 87.1 82.3 76.4 69.2 63.8 56.4 50 46 40.6 35.8
172.5 170.7 167.8 164.4 158.8 153.9 149.3 146.2 144.4 144.4 144.6 144.5 144.1 143.6 141.9 138 133.2 127.9 123.3 118.5 114.4 109.7 104.7 98.9 94 89.5 85.4 79.6 74.6 73.9 75.5 72.4 70.6 72.8 86.3 85.8 78 70.4 70.3 83.8 91.9 97 102.3 108.6 114.1 119.5 125.4 132.5 137.5 142.3 148.4 155.2 161 164.8 168.3 170 170.7 170.4 168.5 166.4 165.5 165.4 166.3 167.4 169.5 171 173.1 175.8 178.4 180.5 182.5 184.8 185.9 186.3 186.7 185.7 184.8 181.4 177 174.6 170.8 171.7 173.4 173.2 170.3 172.3 180.3 189.9 198.2 204.5 209 209.1 208 206.9 205.4 203.9 202.4 200 196.5 191.1 180.7 163.1 144.9 129.3 132.3 133.9 135.8 137 130.4 125.9 141.4 148.7 151.9 153.2 155.1 159 161.6 159 155.8 159 159.9 157.5 150.7 142 133.3 123.5 112 102 92.2 83.5 83.5 86.7 90 82.7 84.8 98.2 106.5 113.3 121.8 129 132.2 134.5 136.4 134.3 131.9 128.1 126.7 125.7 123.2 119.6 113.8 123.7 135.2 139.5 134 123.5 119.5 117.8 117.7 118.2 117.5 116.4 114.8 112 107.3 100.8 95.5 91.3 85.8 77.7 75.4 70.8 66.7 67.7 75.8 82.5 90.4 99.7 107.8 115.1 117.2 116.4 113.1 110.2 106.8 103.6 97.9 90.3 85.4 81.1 77.3 74 69.3 62.8 56.2 49.3 44.4 38 33.4 31.8
175.1 172 168.3 163.8 158.3 154.5 152.2 152.9 152.5 152 152.5 152.4 152 150.9 148.2 143.2 137.5 131.6 125.6 119.7 114.1 107.5 97.7 89.4 83.3 78.9 75.2 73.7 72.5 71.7 71 70.9 72.1 79 91.3 91.4 82.2 74.9 70.3 74.6 79.3 83.2 87.3 94 99.8 106.1 111.9 118.5 124.4 131.8 140.5 147 153.3 159.4 163.3 167.6 169.7 168 163.6 157.1 156.2 157.2 158.2 159.7 161.3 163.3 165.1 168.2 171.5 174.1 177.3 179.1 179.8 180.6 181.5 182.6 184.1 182.8 180.6 178.9 178.6 179.5 180.8 180.7 179.7 179.4 184 194.1 202.5 209.1 213.8 214.5 213.2 210.7 207.3 204.1 200.6 196.8 192 185.7 174.4 156.1 139.8 134 138 141.9 143.5 143.4 135.5 130.2 145.8 155.1 157.7 159.3 161.8 166.7 166.9 166.4 164.5 163.6 161 153.7 144.7 135.4 126.1 115.3 102.8 92.7 85.1 87.8 93.1 99.3 101.7 91.7 83.2 94.1 102.8 111.3 123.5 131.8 136.3 140.6 143 140.7 137.6 133.8 132.9 132.3 130.7 128.5 126.5 129.3 142.9 143.5 138.5 131.1 126.4 122.8 121.3 120.7 119 116.7 114.1 110.8 108.2 105.9 101.3 97.3 93.1 86.9 74.9 66.3 69.9 74.5 79 87.3 95 103.6 110.8 115.1 112.3 108 104.4 100.9 97.1 93.1 86.8 81.8 77.7 73.7 69.9 66.3 61.5 55.8 50.6 43.8 37.1 35 36.7 41.6
174 169.7 166.5 162.5 158.8 155.4 154.1 153.5 153.3 155.7 155.5 155.3 153.8 152 148.6 142.2 135.6 129 121.4 114 106.4 96.1 85.9 78.8 75.1 74.1 74.3 75.4 74.8 74.1 72.7 72.6 79.3 87.8 100.1 96.2 86.2 80.1 72.4 71.8 80.2 84.1 87.7 92.2 95.1 98.9 102.3 108.7 111.1 115.7 127.9 137.9 142.6 148.8 155.2 161.2 165.5 165.5 160.9 151.2 143.1 147.4 148.9 150.8 151.9 152.6 153.3 155.6 159.5 162.2 165 167.1 167.6 168.4 171 173.4 175.6 177.1 178.2 179.4 180.6 182.5 184.7 186.3 187.1 187.7 190 196.1 202.2 208.6 213.1 213.9 211.5 207.7 202.6 197.2 193.1 188.6 182.5 176.7 166.9 151.7 140.3 140.3 144.8 149.9 152.5 149 137.4 140.4 155.5 163.9 167.8 170 171.6 173.7 173.4 170.6 167.9 165.8 159.8 149.3 138.4 127.6 117.4 106.3 94.4 86 89 95.5 102.7 107.3 105.6 94.5 84.2 90.9 101.5 112.3 124.6 132.8 139.8 146.2 149.4 147.6 145.2 142.5 141.8 140.8 139.6 139 138.9 142.1 149.8 146.6 142.6 138 135.6 129 123.2 120.7 118.8 114.5 109.1 106.4 105.6 103.6 101 97 92.4 84.3 71.9 72.1 77 80.5 85.6 89.9 97.4 105.5 110.4 109 103.4 95.8 91 90.6 87.3 82.8 76 72.4 70 65.4 60.8 56 51.9 46.9 42.3 37.6 40.3 45.9 50.4 57.3
171.6 167 163.1 159.4 155.8 151.8 148.5 146.8 148.3 149.9 150.3 149.2 147.4 144.9 141.1 135.3 128.3 121.4 112.3 104.1 93.3 85.1 78 75.1 74.6 73.6 78 83.1 87.6 86.8 87.8 88.7 94.9 106.2 107.5 99.4 89.5 83.1 76.2 71.2 81.6 93.5 100.2 104 107.4 111.6 115.5 118.8 122.4 125.3 127.5 128.8 136.5 141.3 147.6 155.3 160.7 161 157.3 144.5 133.1 137.3 138.4 140.9 140.8 140.3 141.4 142.6 144.2 146.7 148.4 150.6 152.7 154.2 157 160.9 164 166.2 168.6 170.7 174.2 179 183.3 186.7 188.8 189.6 192.8 196.6 200.4 205.4 210.2 211.7 208.4 202.3 195.4 188 183.3 178.3 172.3 165.4 157 146.3 143.1 146.5 152.3 158.6 160.7 153.3 140.2 145.4 160.5 169.7 177.1 182.3 181.3 180.8 177.1 172.9 169.9 164 154.4 142.7 131.2 119.8 109.3 99 88 90.9 98.8 106.1 111 110.6 98.5 91 90.5 91.4 102 113.9 125.1 133.7 141.4 148.7 152.6 152.4 151.2 150.9 150.5 149.4 149.8 150.2 150.6 151.7 154.7 152.1 148.3 144.7 137.9 129.1 121.8 117.2 113.2 107.4 101.3 97.5 97.5 97.1 94.8 91.9 86.3 77.3 75.8 78.9 82.4 86.1 91.3 97.2 103.3 107.8 106.1 101.5 97 91.2 86.3 83.2 79.5 74.3 68 61.9 58.2 54.5 50.4 45.4 42 39.5 45.9 48.3 54.8 60.7 65.4 68.3
171.3 163.9 156.5 154.4 150.5 140.5 134.9 134.9 139.4 142 141.8 140.2 137.1 134 129.7 124.4 117.3 108.6 98.3 91.5 84.7 77.6 74.6 76.6 80.9 86 86.5 87.1 97.2 99.8 102.5 108.4 112.6 115 108.9 100.8 92.2 85.5 77.6 71.8 79 95.5 107.9 113.9 117.7 121.5 124.1 127.1 130.7 133.6 136.3 139.1 142.3 145.2 150.3 155.4 156.6 155.2 150.6 140.3 125.7 127.8 129.2 131 129.1 128.2 129.2 130.1 131.2 132.5 134.2 136.2 138.1 139.5 142.9 146.3 150.3 153.3 156.9 160 164.8 171.7 177.2 177.6 181.8 184.2 186.7 188.8 189.5 199.7 207.5 209.6 207.2 201 192.7 180.2 168.3 162.3 156.6 152.1 148.6 149.5 150.5 153.4 160.4 168.8 169.3 160.5 145.2 152.7 166.3 176 183.7 189.1 186.1 181.1 176 170.5 165.4 157.5 147.5 135.7 123.9 112.5 102.3 91.4 90.9 99.2 108.7 118.8 120.9 108.7 96.6 99 98.7 95.8 103.9 115.2 126.2 135.5 143.2 151 155.4 156.4 157.4 158.5 158.4 159.7 160.4 160.7 161.4 161.7 161.5 160.4 155 143.1 134.5 126.1 117.1 110.1 105.1 99.8 97.8 94.6 90.7 86.7 84 83.8 79.2 81 83.5 85.1 88.4 91.6 97.1 103.7 108.1 106.3 100.4 93.9 88.4 84.1 79.3 75.5 71.6 66.1 60 53.5 47.7 48.8 49.7 51.8 53.7 55.4 56.8 58.8 67.3 72.9 76.4 77.2
170.1 163.3 156.9 148.4 142.4 141.2 137 128.2 125.7 128.3 129.1 127.8 125.2 120.5 114.5 108.1 103.4 98.5 92.4 86.3 81 75.5 82.8 88.2 92.4 95.5 94.6 87.8 101.5 109.7 114.6 119.6 121.1 116.3 110.4 102.3 94.3 87.7 81 73.1 74.7 94 110.3 119.9 124.4 127.4 129.9 132.9 137.2 141.3 143.5 145.5 147.5 149.3 152.3 154.5 152.8 148.2 142 132.3 120.1 118.8 120.8 122.7 118.5 116.7 116.5 116.8 117.1 118.6 120.3 122.3 124.2 126 127.7 130.2 132.7 137.4 142.6 145.9 154.8 162.4 167.5 169.3 171.9 173.3 175.6 174 185.8 195.9 203.7 206.2 206.2 203.4 197.1 187.5 182.7 176.1 171.8 167.5 159.8 162.6 161.7 159.4 167.6 174.6 175.4 166 148.6 163.6 174.6 182.9 189 190.9 184.4 175.7 168.8 159.4 153.8 148.7 142.1 130.4 117.6 106.2 96 90.8 99.8 108.9 117.6 125.3 127.4 110.8 100.6 104.4 103.6 100.2 109.1 119.4 128.2 137.8 145.7 153.3 158.2 160.5 163.3 165.1 166.7 168.2 169.1 169.6 169.6 169.4 169 167.6 165.6 158.1 146.2 131.8 122.1 115.5 111.2 107.4 107.3 106.2 100.5 94.7 86.9 82.1 87 90.3 91.7 92.8 95.3 98.4 102.7 108.4 106.8 100.3 93.5 85.9 80 75.7 71.7 67.9 62 56.3 53.3 53.9 54.8 57 62.9 66.3 68.2 70 69.3 73.1 80.6 84.8 87.4 87.5
173.3 167.7 163.5 159.7 154.2 150.9 145.6 135.1 121.8 114.6 112.7 112.5 110.5 105.3 100.3 94.8 91.6 88.1 85.3 82.3 77.6 80.6 95.8 98.7 103.1 105.3 101.9 93.8 101.6 111.3 120.9 126.3 125.7 120.2 113.6 105.9 98 89.5 83.5 74.7 73.2 90.6 109.9 121.6 127.9 131.9 134.6 137.6 141.2 144.1 145.3 146.7 147 146.7 148.2 149 145.5 139.7 131.3 118.7 111.8 110.6 115.8 116.3 110.5 106 102.2 100.9 100.1 102.7 104.5 106.7 109.2 112.2 113.8 113.5 114.9 121.5 128.3 136.4 144.5 151.8 155.6 156.3 156.9 158.2 161.3 168.2 179.6 189.4 195.2 198.3 201.2 201.1 197.8 194.8 190.7 186.1 182.1 177.1 168.2 173.1 170.1 165.8 170.3 178 178.8 170.8 156.8 167.6 179.4 187.6 193.3 191.6 182.7 171 160.9 152.7 144.7 139 133.2 123.5 110.7 99.7 90.8 97.2 109.1 120.2 126.2 130.7 131.2 117 102.9 107.8 106.2 102.9 109.3 119.2 127.2 139.2 147.8 155.8 161.4 165.4 168.2 172 174.4 175.8 177 177.6 177.6 177.5 176.3 174.4 173 168.2 156.9 142.3 130.2 123.2 118.6 114.9 113.3 109.3 101.7 95 88 93.8 96.1 98.4 99.5 100.1 101 103.1 106.1 105.1 100.3 93.9 87.6 80.6 73.5 68 63 61.6 61.6 61.1 61 61.8 62.6 65.4 75.4 79.1 80.7 83.2 84.5 86 91.7 96.4 98.9 99.3
174.6 169.5 166.1 162 159.1 154.3 146.9 138 126.5 123 117 111.3 107.6 105.5 104.6 104.7 101.8 96.2 91 84.6 76.8 79.8 101.1 107.1 110.6 111.8 109 102.6 101.2 109 118.2 126.4 126.3 121.8 114.8 108.3 101.9 94.3 86 76.9 74.6 87.9 106.5 118.3 126.6 132 135.7 138.9 140.9 141.7 142.1 142.7 142 140.2 140.6 140.4 137.5 132.3 126.1 115.6 103.6 105.3 108.1 106.7 100.4 95.3 96.2 101.1 106.9 110.4 112.2 113.4 113 111.2 108.9 109.5 110.1 111.1 117.3 125.8 134.5 141.5 145.1 145 145.4 147.3 157.3 166.2 176.2 183.1 185.3 187.1 190.9 193.8 194.7 195.7 194 192 187.7 181.7 178.5 182.7 180.3 174.8 172.9 181.5 183.7 178.3 170.4 169 180.9 189.5 195.6 192.7 181.2 167.9 156.6 145 135.8 129.2 123.8 114.3 102.8 101.7 100.1 97.3 111.3 124.2 133.4 135.7 133.7 121.5 104 106.8 107.5 103.6 108.2 114.9 122.1 134 147.7 157.9 165 169.7 173.2 177 180.5 183.2 184.7 185.5 185.3 184.6 182.4 179 176.8 172.8 164.5 152 139.5 131.9 126.1 118.7 112.5 108 100.8 95.1 99.6 101.4 103.3 105.5 106.7 106 106.7 108 107.1 99.4 92 86 81.2 74.4 67.9 64.3 68.8 71.8 72.1 72.3 71.8 72.4 75.3 80 85.6 90.7 93.1 96.3 99.3 100.1 102.4 106.5 108.1 107
169.4 166.2 163.4 161.2 159.1 155.8 150.3 144.1 139.3 135.3 129.3 123.3 119.9 118.6 117 112.6 106.5 98.3 91.4 85 77.4 79.7 97.4 106.1 112.2 116 114.8 113 110 108.4 116.9 126.1 125.4 119.9 112.7 105.9 99.9 93.9 86.8 78.1 75.5 85.9 101.9 114.2 122.1 128.3 131.9 134.1 135.4 134.7 134.6 134.3 134.2 132.5 131.3 129.1 125.7 122.6 118.4 112 102.9 96.5 98 93.8 91.5 99.7 106.8 108.9 113.1 117 121.1 123.4 124.8 125.7 123.1 122.4 123.4 121.9 118.2 117.4 125.6 134.1 136.2 135.2 145.5 155.6 163.3 169.8 173.8 175.8 174.9 176.4 179.5 182.9 186.9 192.7 196.3 196 193.1 187 190.3 191.1 187.8 182.4 179.4 185.6 189.7 186.6 179.3 169.1 181.8 189.7 196 195.1 182.4 170.8 159 141.2 128.3 117.1 110.5 100.9 111.7 123.7 122.7 110.2 106.6 122 135.2 139.5 137.2 127.9 113.2 105.7 109.1 111 108.4 109.8 114.7 123.6 139.4 156.9 167.7 173.6 178 181.8 185.7 189.2 192.4 193 191 189.3 187.1 184 180 175.3 167.1 154.9 143.5 135.9 130.1 119.5 111.3 104.6 102.2 106.9 108.8 109.3 110.7 112 112.6 112.2 112.7 115.3 112.4 102.7 93.8 89 81 73.7 66.7 70.3 77.7 82.1 82.9 84.8 85.7 86.7 89.6 92.5 95.6 100.2 105.1 108.3 110.1 110.8 112 113.1 111.9 104.8
160 157 155.1 155.4 156.4 157.6 156.3 153 149.3 145.1 140.5 135.8 131.6 127.1 121.6 114.3 105.8 98.2 91.9 85.3 77.8 82.4 93.1 98.6 106.6 116.9 122.3 120.3 116.3 113.2 122.1 127.3 126.4 122 116.4 110.1 104 97.6 89 78.4 76.5 82.8 96.1 108 115 118.9 121.4 122.1 122.2 123.1 122.5 122.2 121.3 119.7 116.6 112.8 110.2 106.5 101.4 97.1 93.3 89.4 87.9 91.7 100.4 105.1 109.1 113.6 116.4 120.2 124.6 129.4 134 135.5 133.8 132.7 133.2 130.7 127.3 123.8 120.4 120.6 125.8 135.4 147.7 155.4 160.7 163.4 165 163.2 161.3 163.3 168 172.8 177.3 184.9 194.7 198.3 197.5 196.2 197.4 197.7 194.5 189.3 185.5 189.4 193.7 190.5 183.3 171.5 182.9 190.8 196.2 194.2 182.7 168.9 154.4 137.5 124.7 111.1 113.9 123.5 130.3 136.5 134.7 126.6 110 119.9 135.1 142.5 140.6 133.8 123.4 112.2 108.1 113 114.5 115.8 113.3 114.7 129.8 145.5 164 176.2 181.6 186.2 190.3 195.7 198.5 197.3 194.7 192 188.8 185.4 181.4 173.8 164 151.2 142 133.1 126.4 118.3 108 108.8 112.9 116.7 118.7 118 118.8 119.8 120.6 121.7 123.6 123.8 120.6 113.3 105.6 97.5 88.1 74.2 75.8 77 82.8 90.9 94.9 96.8 97.3 98.1 100.9 101.9 104.8 109.7 114.2 117 118.5 119.1 116.2 110.8 102.4 90.3
152.3 150.5 148.9 148 150.5 155.8 157.8 156.7 154.1 149.8 146.5 141.5 136.7 130.5 123.8 115.2 106.9 100.1 92.2 85.1 79.1 83 98.6 107.4 112.5 120.4 127.3 129.1 124.2 120.5 127.3 127.8 123.9 119.3 114.8 108.2 99.5 92.6 85.6 79 75.5 80.7 90.8 100.9 104.3 105.8 106.4 107 107.2 107 106.8 108.3 106.9 104.2 100.7 98.2 95.5 91.4 88.8 89 94.6 94.6 95.7 92.4 99.5 108.3 117 122.8 125.7 127.3 127.5 131.9 139.9 143 142 141.2 140.2 136.2 132.1 131.6 129 127 120.9 126.2 139.3 146 150.8 153.4 153.1 150.9 147.6 147.9 154.6 161.9 169 182 193.8 200.1 202.1 202.1 203.5 203.4 200.7 196.3 188.5 194.7 197.8 195.5 187.5 178.2 189.9 194.3 196.5 191.5 180.8 164.7 149.3 134.7 122.9 112.4 129.6 139.9 144.6 148 146.5 135.4 117.4 122 137.9 147.5 147.4 140.5 130.6 122 111.3 118.5 118.6 120.3 123.7 120.2 120 137.7 154.5 172.6 181 187.9 195.6 202.7 204.3 200.1 196.4 191.4 184.2 178.9 172.7 164.8 154 143.4 133.8 125.2 117 115.2 118.1 120 122.6 125.4 127.3 126.9 127.1 127.8 129.8 131.9 132.8 131 126.5 119.5 111.4 102.2 90.2 73.7 82.9 87.2 86.5 95.5 103 106.4 107.4 109.7 113.2 113.9 114.7 119.9 122.9 123.2 119.8 113.7 104.7 95.6 83.8 72.2
141.7 136.4 137.3 139.5 144.1 153 156.3 155.4 152.5 148.9 145.5 142.3 137.9 132 125.2 117.1 108.5 101.1 95.3 88.4 78.9 83.7 99.2 114.4 122.1 128.2 134.9 138.2 137.1 134.5 134 131.3 122.2 114.5 103.8 98.4 93.3 90 90.4 85.7 77.2 79 86.3 91 91.6 90.3 90.3 91.4 92.1 93 93.2 94.1 92.2 91 88.4 85.8 85.8 91 95 98.8 101.5 104.2 105 102.3 97.3 107.9 117.6 126.5 134 135.5 134.8 136.5 144.4 148.8 149.9 149.5 147.6 143 136.5 138.4 140 137.2 133.7 126.6 124.7 136.8 138.9 141.8 139.9 136.6 132.7 137 136.6 149.1 166 179 190.3 197 201.8 205.5 208.1 208.1 205.4 200.4 196.3 199.8 201.8 198.2 192.4 192.7 196.4 198.7 197 190.8 176.3 160.3 145.2 132.8 119 120.3 137.5 147.9 152.9 155.3 153 143.2 124.1 124.2 141 153.9 156.3 148.1 136.9 125.5 116.2 125.9 124.4 124.6 131.2 131.4 126.1 131.3 149.5 165 177.3 187.5 197.3 204.2 203.2 197.8 191.4 183.6 174.5 167.7 161.5 152.3 143.5 133.6 125 113.9 121.1 124.9 127 128.7 131 133.1 134.1 133.9 134.1 134.9 137.9 139.3 139.4 136.3 130.8 123.9 115.5 104.6 87.7 77.1 87.9 95.6 95.5 98.2 107 113.3 117.5 120 122.6 124.9 125.4 127.7 127.9 121.7 112.9 101.6 90.1 79.4 67.6 65.1
142.5 139 130.8 129 144.4 151.7 150.2 149.3 147.6 144.9 141.1 137.9 134.1 129.3 124 118.1 111.8 105.5 99.6 91.8 81.5 86.9 101.1 116.6 129.9 137.8 144.6 147.6 147.5 145 142.6 138.1 131.2 121.2 113 106.9 106.9 103.7 99.8 92.8 83.7 77 78.6 81.2 80.8 79.7 78.8 79.2 81.3 82.4 82.9 85.1 84.7 85.9 88.7 92.1 95 101.4 105.5 109.1 111.5 114.6 115.1 110.7 106.2 103.3 113.8 125.9 141.9 143.6 142.8 141.9 147.4 154.3 156.8 157.4 155.3 151.2 142.5 142.7 148.6 147.4 143.2 136.5 133.9 127.3 128.7 128.4 133.1 140.2 145.9 149.3 147 143.9 160.2 173.2 180.8 185.2 190.4 198.5 205.1 209.8 209.4 206.4 204.2 206.6 206.5 202.2 197.6 199 200.1 198.4 193.4 185.4 170.3 156 142.5 129.1 114 128 141.5 152.7 156.5 158.4 158 149.3 133 126.6 143 156.8 161.1 155.2 141.4 124.9 129.4 134.1 131 130.4 139.5 140 136.5 129.5 145.3 162 174.9 185.1 195 200.3 198.6 190.4 181.5 172.7 164.5 157.6 151.1 142.7 130 120.5 117.9 126.3 130 132.5 135.3 137.5 140.2 141.4 140.8 140.8 140.9 142.9 144.5 144.7 142.1 137.3 131.2 124.2 117 105.4 86.8 85.3 95.2 102.3 105.3 104.2 106.6 115.6 123.6 129 132 134.6 135.7 135.4 130.7 122.5 108 95.9 89.7 83.3 78.8 74.6
152.3 146.3 133.8 123.2 141.6 148.3 142.9 140.1 139.4 136.2 132.3 128.7 126.1 123.3 118.2 114.9 111 107.4 101.3 94.7 84.1 83.1 96.3 113.6 130.3 146.5 152.8 155 154.3 151.6 148.5 143.7 137.3 129.6 123 117.6 114.2 110.9 105.8 99 91.5 78.7 75.8 81.4 83.4 84.9 88.1 89.3 88.8 84.1 91.6 96.1 97.6 97.3 101 103.5 102.1 107.8 112 116.6 120.7 122.7 122.2 118.5 112.3 102.6 110.7 125.7 143.6 149 149.4 148.2 150.3 156.1 161.8 163.1 161.4 155.2 146.6 149.5 155.4 155.5 149.7 145.2 146.6 143.6 141.2 141.8 145.6 150.6 156.1 157.3 150.8 144.1 154.4 164.2 167 171.7 177.4 186.3 194.6 200.5 207 208.6 208.4 209.5 207.8 204.9 201.7 199.5 195.4 190.3 183.4 173.3 163.7 151.7 137.3 122.9 121.8 133.9 143.4 152.8 158.2 159.9 159.2 152.6 138.8 130.5 145.8 156.7 164 161 148.8 134.3 143.8 146.3 141.9 135.9 146 146.8 144.2 136.9 141.9 159.4 171.8 184 194.5 200.2 198.3 189.8 177.8 164.7 156.9 153 149.6 143.9 135.7 121.9 126.7 133.1 138 140.9 143.6 147.3 150 148.8 147 147.5 148 149 149.7 146.5 141.2 135.2 126.7 119.8 114 105.7 87.1 92.6 101.8 107.6 112.2 112.6 112.1 117.8 126.6 134.9 140 142.5 142.7 140.3 132.6 121.5 113.6 108.1 101.1 95.8 89.6 84.7
156.9 149.6 132.5 122.8 137.7 145.9 139.8 132.1 127.3 123.1 118.9 114.6 112.6 109.6 104.3 102.8 101.7 100.1 97.5 92.8 85.6 79 90.4 108.3 127.1 146.6 157 159.9 157.9 154.3 149.8 144.2 138.6 131.8 127.4 121.8 115.4 109.7 104.4 98.1 89.1 77 78.3 88 92.3 94.8 96.9 101.8 100.2 89.7 97.9 105.7 108.4 108.1 111.3 112.3 110 113.6 120.2 125.3 128.9 130.2 128.7 123.8 117 104.9 107.8 124.9 140.9 149 151.9 153.8 155.6 159.7 164.2 166.3 165.5 160.3 152 156.4 161 161.6 155.6 152 156.9 155.8 151.7 150.5 158 162.5 167.4 161.8 147.1 151.5 151 155.6 163 166.6 169 171.6 180 188.7 198.6 204.9 207.7 208.9 205.6 200.8 194.8 188.4 181.8 173.7 165.1 155.5 149.2 140.8 127.6 121.4 129.8 137.2 145.6 154.8 160.2 161.6 158.9 152 138.9 136.2 147.6 160 166.8 164 153.8 143.1 153.7 158.1 153.5 142 150.5 152.4 150.7 145.8 138.9 154.3 167.9 181 193 201.2 200.3 192 180.2 170.1 165.2 161.8 156.5 146.3 134.3 130 139.2 144.1 147.2 148.7 151.2 154.7 155.9 154.8 153.3 152.4 152.8 151.6 148.5 143.6 138.1 132.9 125.8 118.8 112.3 104.1 87.9 99 106.1 112.3 119.2 121.2 120.7 123.3 130.4 139.7 146.5 149.8 148.6 144.2 137.1 129.7 123.5 118.1 112.2 105.3 96.2 97.6
157.2 149.4 135.1 120.7 132.4 136.2 136.1 127.1 118.8 116.5 111.8 108 103.7 99.3 95 92.4 90 88.8 90 88.9 85.6 80.9 91.1 108.7 128.3 147.1 159.1 159.8 155.6 150.3 145 139.6 134.7 129.9 125.1 119.4 111.9 101.7 93.8 87.3 82.9 76.1 81 89.6 98.6 105 105.9 109.3 104.4 93.7 107 113.2 115.5 117.1 121.8 123.5 120.8 116.9 129.1 133.9 136.1 136 133 127.1 118.9 107.3 105 115.7 127.5 140.3 145.3 150.9 154.2 156.4 160 164.1 166.6 164.4 157 160.7 165.6 167.1 161.7 157.3 164.7 164.4 159.7 159.9 170.7 174.5 173.5 158.4 153.7 159.5 160.7 164.3 172.7 178.4 181.8 183.7 184.9 183.8 188.8 197.5 204 207.2 203.9 195.3 183 172 163.8 154.5 145.5 138.4 133.3 126 121.2 128.9 135.8 140.4 148.7 157.8 163.1 163.8 158.3 148.7 133.5 140.2 152.5 164.8 171.3 168.3 159.1 149.5 161 165.3 162.1 151.5 156.1 159.9 159.1 154.5 145.2 152.5 164.7 177.4 190 200.2 202.3 195.6 186.9 178.9 172.5 166.8 159.3 147.5 133.3 140.3 152.1 156.8 156.9 157.7 158.9 161.1 161.6 159.1 156.6 154.2 151.2 145.9 140.8 135.6 131 127.2 124.6 118.8 110.6 100.3 93.2 102.6 109.7 117.6 126.4 129.4 130.2 131.8 136.6 144.8 151.8 155 153.2 148.7 143.5 137.7 132 126.3 119.3 112.1 106.1 107.3
151.4 146.4 139.6 126 122 124.3 125.9 123.9 116.6 109.3 106.8 103.1 98 93.3 92 90.8 90.5 88.6 83.6 82 80.4 81.7 96.7 114.9 131.3 149.6 158.7 155.4 149.6 144.4 138 134 129.5 123.4 116.9 108.9 103.1 95.5 91.2 90.4 85.3 79 87.1 97 105.3 113.7 116.6 116.1 106.7 99.1 112 118.7 124.3 127.3 130.8 131.7 128.3 122.3 133.9 139.8 141.1 138.8 134.6 128.3 120.9 111.4 103.5 107.8 116.6 127.1 136.1 141.3 143.9 145 152.2 160.4 166.8 169.2 164.3 163 168.2 171.4 169 163.7 171.7 175.3 171.6 172.6 181.9 184.4 176 154.1 161.2 169.4 171.1 173.2 183 189.1 193 196 198 198.1 197.9 202 205.6 207.3 200.4 189.9 174.6 158 143.5 134.8 129.2 126.2 125.1 127.4 130.8 135.9 140.8 146.2 153.8 162.9 167.3 164.5 156.2 143.9 136.8 145.1 156.7 168.9 175.9 174 164.8 156.6 167.4 172.9 170.9 162.8 161.6 168.2 168.6 164.1 154 154.4 165.2 176.7 190.2 200.3 204 198.6 190.3 180 170.4 160.7 149.3 140.5 140.5 154 163.3 166.4 166.6 166.9 167.6 168.2 167.2 163.5 158.8 153.1 146.8 139.8 135.2 130.5 122.8 115.9 112.8 111.4 105.5 96.9 99.3 106 114.1 125.1 133.7 138.2 139.6 141.4 145.6 150.5 154.8 155.6 153 148.4 143.2 138.2 133.2 128.3 123.5 119.1 116.9 114.3
145.3 142.7 138.7 130.1 119.6 112.2 114 114.8 111.3 102 98.3 97.3 98.5 99.7 100.2 97.6 94.8 89.8 83.7 81.1 82.8 87.6 101 116.2 132.8 147.3 152.6 148.5 142.7 136.7 130.8 126.4 122.5 117.6 109.5 103.6 100.6 98.7 98.5 95.8 90 81.5 85.7 101.3 112.6 121.1 124.4 120.1 111.1 101.4 108.1 119.2 129.1 135.2 138.5 138.6 134 130.3 139.5 143.4 141.9 137.9 131.9 125 119 109.8 106.3 118.3 118.9 119.6 125.5 131.7 135.5 145.5 155 161.7 168.6 171.7 170.2 169.3 170.5 175.6 177.7 173.9 179.6 185.8 185.1 186.3 192.5 190.8 176.7 154.7 168.2 177.8 181.1 184.8 192.3 199.2 204.7 208.5 211.3 210.8 211.5 214.1 213.4 208.7 198.8 184.9 166.5 144.1 137.1 142.2 140.9 138.7 136.9 138.3 139.7 142.1 147.3 153.3 161 169.6 171.3 166.5 155.3 145.5 149 154.3 161.2 171.6 179.6 178.9 171.5 164.5 174.9 181.2 180 173.1 168.9 175.2 176.9 172.8 164.4 160.3 171.7 177.4 190.7 201.8 205.3 199.3 185.4 171.5 164.1 159.1 154.7 147.4 157.2 166.8 172.8 175.1 174.9 174.4 173.8 173.2 170.5 166.5 160.8 154.1 149.1 143.6 138.5 133.6 126.9 118.1 106.3 101.1 98.7 99.3 105.3 110 120.4 132.6 139.7 144.9 147.6 149.5 150.7 151.3 151.4 150.5 148.3 143.1 135.7 129 124.6 120 118.4 117.8 117.2 113.5
136.6 135.6 133.9 128.3 121.3 114.1 107.7 102.5 100.9 100.2 102.7 106.5 108.4 106.5 102.4 96.4 89.9 83.8 82.7 82.7 87.7 95.3 104.4 117.1 129.3 141.6 145.6 142.5 136.7 130.8 126.3 122.7 118.4 114.6 111.9 109.2 107.1 105 101.1 96.3 90.1 84.6 82.3 97 113.1 126.4 130.2 125.1 118.2 113 109.6 116 127.2 138 141.9 142.6 139.9 137.9 141.9 141 139.2 133.6 125.9 120.1 116.2 109.2 104 125.1 128.8 129.4 131.3 134.7 140.5 149.5 157.6 165.1 170.6 173.9 174.8 175.5 176.8 178.4 183.5 185.1 187.4 195.3 198 199.4 200.6 195.8 180 157.4 169.9 182.6 188.1 193.9 201.8 208.7 215 220.1 223.7 225.6 226.8 224.7 218.5 208.9 197.5 183 158.9 145.7 156.6 158.8 155.8 152.2 149.2 148.1 148.1 149.2 155.1 161.7 168.8 175.9 176.8 170 157.5 149.8 155.3 163.4 172.8 181 186.2 186.1 180.5 174.9 184 190.5 188.9 183.4 178.1 183.3 184.2 181 176.3 166.6 181.6 190 197.3 206 208.2 203.5 192.5 186.6 181.1 175.8 172.4 163.8 172.7 178 180.9 181.1 179.9 177.9 176.3 174.4 172.4 168.9 163.5 156.5 151 145.6 140 134.9 129.1 120.4 108.3 104.5 107.7 111.2 115.1 121 127.8 135.9 141 142.4 143.4 143.2 143 143.1 143.5 142.4 139.9 133.6 124.6 116.7 110.2 106.5 106.5 107.9 109.5 107.6
126.6 125 123 119.1 114.5 110.1 104.4 103.9 107 110.4 114.3 115.2 111.8 106.2 98.9 92.3 86.3 82.6 82.7 87.7 96.4 100 110.3 123.6 135.1 141.8 142.2 138.1 132.6 127.4 123.4 120 117.4 114.7 112.1 111.3 110.3 106.3 100.5 95.4 90 86.1 81 91.8 108.9 126.4 136.1 132.9 128.6 123 120.1 120.3 130 141 146 145.9 143.8 142.4 142.1 140.5 137.5 133.6 127.9 124.1 118.6 112.6 106.6 119.8 127.9 130.8 134 137.8 141.8 147.3 151.6 158 163.2 167.5 171.4 174.8 174.9 179.2 188.6 194.8 195.7 204.1 207.7 208.3 206.9 200.6 183.8 163.4 167.1 182.7 191.9 199.2 205 212.2 220.5 227.7 232.9 235.6 237.5 233.9 223.3 211.1 199.4 183.1 152.1 166.4 171.8 170.8 168.2 165.1 162.8 160.8 159.7 158.9 161.9 170.2 177.6 184.8 185.1 178.2 163.6 158.2 165.4 172.4 184.7 193.5 198.2 198.1 195.3 191.8 197.2 201.7 200.1 195.6 190.9 194 194.5 192.3 187.2 180.5 189.3 198.5 205.2 210.7 212.2 210.1 204.8 199.6 194.5 189 184.9 176.6 182.7 183 182.3 179.5 176.6 173.5 171.5 169.8 168.6 167.8 163.4 157.1 151.1 145.3 139.4 132.6 123.4 112.7 111.6 114.7 120.1 124.5 128.8 133.2 135.7 137.1 135.3 133.2 130.9 129.6 128.6 128.4 129 129.5 128.6 123 114 105.7 97.8 95.2 95.4 96.7 98.9 99.1
127 125 122.2 118.9 115.6 115 113.4 115.2 118.2 120.9 121.5 120 115.2 108.7 101.9 94.4 85.3 85.7 93.8 102.1 106.5 109.9 115.9 124.2 132.3 141.2 141.1 137.6 133.8 129.8 125.4 121.6 118.4 114.9 108.5 106.7 104.4 102.2 97.3 93.4 90.2 87.5 83.5 88.4 104.1 122.1 135.9 141.2 137 134.5 134.3 132.9 138.9 145 147.9 145.8 142.8 139.8 137.9 135.7 134 131.5 124 122.8 115.2 114.3 108 107 111.8 115.1 115.7 121.9 128.6 133.4 139.1 144.6 148.1 154 158.6 160.2 161.4 175.9 193.7 203 205.7 210.8 214.3 213.4 209.6 202 187.5 171.6 160.6 177.9 186.8 192.6 200.4 206.9 214.2 224.7 234.9 242.3 245.2 240.9 230.7 217.3 203.7 182.3 169.9 185.7 186.3 182.9 180.7 178.5 176.3 174.3 172.7 171.4 171.5 178.1 190.1 196.5 196.2 187.4 175.2 166.7 173.6 183.1 194 205.6 211.6 213.4 211.2 209.4 212.3 214.4 212.5 209.1 206 206.9 205.5 203.7 200.9 199.7 202.1 205.2 209.5 212.3 212.8 211.4 207.7 204 199.7 196.1 191.8 188 186.7 183.6 180.5 175.3 170.6 166.7 161.8 159.8 162.4 166.2 163 155.1 145.6 138.9 134 126.4 114.2 117 123.6 127.7 131 132.6 133.6 134.5 132.7 130.2 125.3 121 117.3 114.3 113.5 115.5 116.5 117.5 117.8 114.6 107.7 92.7 81.8 79.6 78.7 79.4 83.4 84.9
142.5 140 136.5 131.7 129.8 127 125.2 128.9 132.2 131.8 130.8 128.6 123.9 118.1 109.9 100.8 90.5 85.5 100.5 112.2 119.9 123.9 130.3 137.2 142.9 145 143.5 140.3 136.6 132.2 128.4 123.9 119.9 116.7 112.3 107.9 102.6 100.4 99 96.1 91.8 88 84.3 86.3 101.6 118.6 133.1 144.3 146.6 144 142.3 142.9 144.2 143.9 141.5 137.1 134.4 133.8 132.8 133.1 131.7 128.7 123.1 117.8 120.4 118.2 113.7 108.3 117.1 117.2 115.8 115.2 116 116.4 118.5 122.8 127.8 136.7 142 157 171.6 186.1 200.7 209 213.7 217.1 218.1 216.4 210.3 202.2 189.5 177.2 165.5 166.6 173.5 176.9 187.1 197.7 206.9 214.8 228 239.4 247.6 244.7 236.6 222.9 207.8 190.5 193.6 198.9 198 195.2 192.3 189.8 188.2 188 186.6 182.8 184 188 202.3 209.2 207.1 197.6 186.3 178.8 183.6 192.3 203.8 215.2 223.4 225.5 223.7 223.4 223.7 223.6 221.9 219.1 216.9 215.1 213.5 211.1 209.3 208.8 209.3 209.7 209.7 208.3 206.7 205.9 203.9 201.4 198.5 196 193.6 190.9 189 186.8 184.3 181 175.8 171.9 166.2 156.5 151.4 162.6 166.3 161 151.3 140.4 133.6 126.2 124.9 127 133.7 136.9 136.3 133.5 130.6 128.2 124.7 119.9 114.1 108.7 104.6 103.2 102.1 101.6 102.7 103.9 105.7 106.6 106.4 96.6 81.5 69.2 63.1 62.8 69.2 70.6
154.8 150.6 148.7 146 144.5 143.8 143.4 143.3 142.9 142.3 140.2 137 130.8 124.8 114.6 103.6 94.7 87.4 90.1 104.4 118.3 131.7 141.4 146.4 148.3 145.9 142.5 138.1 135.2 130 125.7 121.3 118.8 116.8 113.7 111.2 108.8 106.7 104 99.4 94.1 87.8 83.7 86.4 98.6 116.1 128 139.6 146 145.3 143.2 139.9 137.7 136.1 132.8 129.7 128.3 127.9 128.2 129.1 130 130.2 126.3 126.6 126.1 124.3 121.5 110.4 124.3 126.2 125.9 125.4 125.2 126.1 124.4 117.9 126.7 142.3 154.2 166.9 179 190.6 205.4 215.5 220.9 223.5 222.8 219.3 211.6 201.5 186.6 181.8 175.2 164.2 181.8 186.9 190.8 192.8 197.5 206.7 219.1 231.2 240.8 243.6 239.2 227 213.1 209.1 209.7 210.6 207.6 204.7 202 199.9 198.4 198.3 198.7 196.3 195.7 201.7 211.6 217.8 216.5 209.4 198.7 192.3 196 203.1 214.6 226.1 233.6 236 235.4 234.4 232.8 231.8 228.8 224.3 220.1 217.1 215.4 213.9 212.6 211 209.1 207.8 206.3 204 201.1 199 197 195.4 193.1 190.6 188.5 187.5 187.1 187.9 186.7 183.5 179.8 174.7 167.4 156.1 146.2 157.9 166.1 166.2 159.4 152.2 147 140.9 139.2 138.5 140.1 139.9 135.6 128.3 119.4 119.4 116.4 110.8 105 99 95.5 93 90.8 88.3 88.5 88.9 88.2 94.4 99.3 94.6 85.6 73 64.5 52.5 57.1 61.2
160 155.6 155.9 154.5 153.4 152.7 152 151 149.3 147.3 144.4 139.7 135.3 127.6 117.9 109.1 101 94 85.6 87.8 104.5 119 135.3 149.3 146.8 141.3 137.8 133.7 129.3 125.6 121.3 117.1 114.9 113.5 111.8 109.8 108.9 108.1 103.5 98.4 92.9 87.4 82.6 86.5 98.1 110 121.6 131.7 137 137 134.5 130.1 128.3 127.7 124.4 122.4 121.9 121 124.3 128.4 130.7 134.2 134.4 134.4 132.6 130.1 121.8 113.6 127.3 133.1 132.8 132.3 130.8 132 132.4 127.9 126.1 140.9 153 164.4 176.2 192.4 207.2 218.7 226.4 230.3 227.7 221.2 214 199.6 192.8 187 184.7 175.7 186.4 195.1 199.2 204.9 206.1 210.7 216.3 226.5 238.8 245.4 241 233.7 224.5 221.2 222.1 220.5 217.4 214.5 212.2 210.1 208.1 208.3 210.2 208.7 208.3 213.4 220.1 225 225.5 219.6 210.8 204.7 207.7 217 227.5 236.1 242 244.2 242.8 240.5 237.6 233.6 228.1 222 216.3 212.2 210.1 209 207.7 206.4 203.9 201.6 199.8 196.9 193.3 190.6 187.7 184.8 182.1 177.7 174.5 174.4 175.3 177.2 179.6 178.3 174.6 169 160.7 149 142.5 154.6 164.8 169.9 164.7 157.1 151.8 148.4 146 143.5 139.8 135.6 131.6 125.2 115.5 109.2 105.2 102.6 95.9 89.5 85.5 81.8 78.2 74.9 76.2 75.1 72.7 78.7 84.3 87.1 84.4 77.5 70.4 59 48 51.9
160.6 159.7 157.6 154.7 153.1 151.9 151.6 149.8 147.4 145 142.4 138.4 133.8 128.9 121.8 114.6 107.9 100 92.2 85.1 93.7 109.4 126.2 145.2 146.1 139.1 137.4 131.1 127.4 123.3 119 116.7 112.3 107.1 106.9 104.7 103.8 102.1 97.3 90.2 89.7 88 80.3 84.9 92.9 103.5 115.4 124.1 129.7 128.5 127.4 122.6 119.5 118.4 115.9 114.3 118.6 120.8 129.3 133.5 134.8 137.2 138.8 139.8 138.5 134.2 117.9 123.9 135.5 140.2 141.2 140.1 140.7 141.4 140.1 136.4 125 135.2 148.9 161.2 175.2 192.4 207.4 218.8 227.1 230.7 229.4 225.6 218.1 208.1 200.9 195.5 194.8 187.2 191.1 204 209.8 213.6 218.3 223.4 228.8 234.6 242.4 247.3 244.4 240.5 236.1 233.7 231.6 230 227.3 224.9 223.8 221.3 218.5 218.5 220.2 218.5 218.3 223 229.4 233.3 234 229.6 222.1 215.7 219.2 227.4 236.9 244 248.1 248.7 245.6 241.8 237 231.8 225.3 218.7 211.1 205 202.4 200.6 200 199 195.6 192.5 188.8 186.3 182.8 176.3 173.9 169.7 166.4 161.7 157.9 155.3 157.3 160.4 165.8 167.8 165.9 157.8 146.6 135.7 140.8 152.1 164.2 170.1 164.4 156.2 148.2 144.3 140.8 137 131.7 125.9 121.9 118.1 112.5 104.3 96.6 92 87.7 80.2 75.2 70.6 66.1 63.4 63.5 61.1 60.5 66.9 70.7 74.6 76.4 72.2 67.9 60.8 45.5 42.7
157.7 156.2 153.1 150.4 148.8 147 145.6 144 141.4 138.8 136.5 133.5 130 127 122.6 116.7 111.1 105 97.9 89.4 87.5 99.2 115.8 136.6 143.6 139.5 137.1 134.1 130.9 126.8 123.1 119.1 114.8 109.1 104.5 100.8 98.2 95.6 95.1 95.6 95.5 91.1 84.7 82.6 91.4 106 115.7 123.6 124.1 120.3 120.7 117.9 113 112.9 114.7 119.8 124 128.1 132.8 136.6 139.1 141 143.3 145.2 144.1 136.6 119.4 130.5 140.2 145.9 148.6 149.4 149.7 150.5 148.8 143.3 128.6 137.2 151.7 165.2 178.9 193.6 205.8 215.3 221.3 224.3 226 225 220.8 214 208.4 204.4 202.6 196.6 194.9 208.5 215.9 222.2 227.8 232.4 237.9 241.9 244.3 245.6 244.2 242.6 240.2 238 235.6 233.5 230.5 228.8 227.5 226.1 226.2 227.6 228.1 226.4 227 229.9 234 236.6 235.9 234.1 230.3 227.2 228.9 235.5 241.9 247 248.4 247.7 244.1 239.7 234.7 228.5 221.9 215.4 209.1 200.5 192.6 192.3 191.3 188.1 184.8 181.7 177 173.7 169.9 162.5 159.2 153.5 149.7 146.7 142.1 138.5 138 141.8 148.9 155.1 155.4 148.3 133.8 134.7 144.7 155.5 165.4 168.6 163.4 153.7 143.5 135.1 130.9 126.5 122 116.7 112.9 108.8 104.2 98.8 91.9 84.9 80.5 73.1 66.8 59.8 55.2 54.6 52.9 50 49.6 52.5 57.2 62.4 65.7 63.4 57.7 51.7 42.1 35.1
152.6 151.2 148.5 145.5 142.7 140.4 138.8 137.5 135.4 132.4 129.4 126.8 123.8 120.9 117.6 113.6 109.4 105.7 100.4 94.1 87.9 91.5 109.8 129.6 137.8 136.8 135.9 132.5 128.9 125.1 119.7 116.8 115.4 112.6 109.9 107.1 106.2 104.4 102.8 100.5 97.3 92.8 86.7 82.2 93.3 111.4 121.7 123.1 118.5 113.4 112.7 110.7 106.5 108.9 118.5 122.2 128.5 131.4 135.2 139 142.9 145.4 146.7 146.6 143.4 134.8 121.2 133.3 142.6 150.4 155.5 157.5 158.2 158.1 155.6 148.8 131.3 139.5 154.4 168.4 181.7 192.3 201.1 206.8 211.4 215.9 219.9 221 219.9 216.9 213 211.4 210.6 206 194 211.5 220.5 226.9 231.7 236.7 240.5 241.5 241 239.8 238.1 236.2 235.1 232.9 231.2 228.7 226.4 224.5 223 223.8 225.7 227.3 229.1 229.1 227.9 229 230.7 230.8 231.3 231.3 232.2 231.8 232.2 236 238.6 241.3 243.6 242.4 238.9 234.3 228.5 222.7 216.1 210.5 204.9 198.4 188.7 182 181.4 178.5 174.5 169.6 164.5 160.6 156.5 151 146.9 141.5 136.4 131 130.3 130.4 127.3 126.4 131.9 142.1 146 139.3 128 137.5 148.3 156.8 164.3 168.1 163.1 154 143.6 133.2 122.2 114.9 109.5 104 100.2 94.8 90.1 86.9 81.8 76 71.1 64.8 62.1 64.3 65.6 64.4 62.5 58.8 53.6 47.3 44.9 49.8 54.8 51.6 45.7 39.4 34.9 32.9
147.8 146.5 143.4 140.3 136.3 133.7 132.4 131 128.9 125.8 122.3 118.7 115 112.3 108.2 103.7 101.2 98.1 95.6 92.2 89.2 88.9 103.6 119.4 127.9 129.8 130.2 128 125.5 122.8 118.4 113.1 109.8 109.1 108.2 106.8 106.8 106.5 105 101.4 97.5 93.5 86.8 82.5 97.9 116.1 127.3 121.9 114.4 106.4 103.4 100.9 102.4 106.5 113.5 121.5 125.5 128.5 135.2 140.9 145.7 149.4 151.7 148.4 143.6 136.3 128.3 132.3 143.4 151.4 158.2 162.1 163.4 162.8 160.3 153.4 133.6 140.4 155.9 169.6 180.2 187.5 192.9 197.7 200.7 205.4 209.5 211.3 211.2 211 209.9 210.6 213.5 214.6 202.5 206.5 220.8 226.6 232.1 236.4 238.1 237 234.6 231.2 229.2 227.2 226.1 224 221.9 219.6 217.4 215.1 213.5 215.2 217 218.8 221.3 221.7 222.2 222.5 222.3 222.8 223.2 223 225.3 226.2 226.6 226.8 227.6 230.5 235.1 235.1 231.6 226.2 220 214.2 207.1 201.2 196.6 191 183.8 175.7 170.5 168.3 164.8 159.4 153.8 149.2 145.3 140.1 138.8 139.7 139.5 139.8 140.8 140.2 135.9 130.2 124.3 126.7 135.1 132 123.3 131.7 140.6 146.6 153.6 160 162.1 156 147.3 137.8 129.1 121.5 114.8 108 101.1 93.1 84.7 82.3 81.1 79.1 75.8 73.1 76.5 77.1 78.5 75.4 71.1 67 60.5 53.1 45 40 42.5 40.2 34.9 36.3 40.6 43.3
142.8 140.8 138 133.5 130.7 128.4 125.9 123.6 121.4 118.4 116.3 113.4 110.3 108.8 107.3 103.8 101.8 98.6 94.9 91.5 89.6 89 98 106.7 114.6 118.1 122.3 122.9 120.5 117.3 114.6 109.5 105.9 103.9 102.9 101.6 100.5 99.1 95.2 90.5 88.1 86.5 83.5 88 101.6 116.9 120.3 115.4 106 97.9 96.1 101.6 103.4 105.1 106.9 107.6 113.8 121.9 128.2 135.5 140.9 147.1 151.7 151.6 148 142 134.9 128.1 138.8 145.8 153 158.8 160.6 162.4 162.5 158.6 143.7 135.4 152.9 164.7 172.6 177.6 182 184.6 186.7 190.6 194.4 196.8 198.4 199.6 199.8 204.4 216.2 220.6 219.6 213.4 214.1 224 230.1 234.2 234.6 231.5 227.4 223.3 220.2 217.9 215.5 213.5 211.7 209.4 206.8 204.6 202.2 203 204.2 206.1 209.3 210.8 210.8 210.7 211.2 211.9 212.8 213.8 217.1 218.1 216.3 214.5 212.6 216.3 228.5 229.6 226 219.3 212.3 204.2 196 191.7 187.6 182.7 176.2 169.8 162.5 160.1 156.1 152.9 153.5 153.8 153.1 152.8 151.1 151.7 152 154.7 155.3 150.2 142.9 134.9 126.6 122.3 120.9 122.1 118.6 120.2 123.6 127.8 136.1 148.2 155.9 156.2 149 140 130.8 122.4 114.5 107.7 100.9 92.8 86.9 87.2 85.7 83.4 83.1 85.9 87.3 86.5 86.3 83.1 79.5 74.6 64.6 50.6 41.1 38.3 39.1 41.3 44.5 53.2 54.1 54.4
148.6 145.2 140.8 137.6 134.8 131.2 128 125.8 124.7 121.5 120.3 118 114.4 111 108 104.8 101.6 98.3 94 90.6 89 90.2 93.4 98.2 103.6 112.6 118.8 120.5 118.5 114.2 111.2 106.7 103.1 98.9 96.8 95.8 94.1 92.9 94.2 96.4 95.8 93.5 85.9 80.5 97.1 107.1 109.3 107.3 98 98.5 104.9 110.7 114.8 117.4 116.9 115.1 114.9 112 117.4 126.4 134.9 141.6 147.4 150.1 148.5 145.2 138.6 134.2 129.2 135.9 141.9 146.6 150.3 153.6 157.6 159.2 152 135.6 142.9 154.9 160.5 163.4 166.5 169.1 172.1 176 179.8 182.4 184.5 187.1 191 204.6 221.5 226.9 227.7 227.1 226.3 226 231.6 234.8 233.1 227.5 221.1 215.5 210.5 207.8 204.9 202.5 200.7 198.5 196.2 194.3 191.7 191.2 191.6 193.1 196.4 199.2 199.5 200 201.2 201.9 202.8 204.5 208 209.6 206.5 197.6 197.3 212.9 222.7 224.6 222.9 217.3 208.9 201.9 194.8 185.7 178.5 175.3 171 169.2 169.4 167.1 166.4 166.5 165.6 165.8 165.7 165.5 164.5 165.9 168.2 166.2 161.6 154.2 145 138.8 133.5 127.5 121 116.7 113.7 111.4 109.2 107.5 116.6 133.8 148.1 154.9 150.3 140.2 129.4 119.8 112.2 105.9 99.1 94.4 96.6 98.3 97.5 95.1 98.5 100.8 99.6 99.4 96.2 91.6 84.5 76.7 61.4 46.4 44.8 54.4 55.1 56.9 57.8 61.9 64.4 65.5
148.9 145.5 142.5 139.9 137.4 133.1 127.7 126.8 124.8 120.9 118.3 113.6 110.6 107.2 104.6 102.1 98.9 95.4 90.7 89.3 91.8 97.1 99.1 99.7 100.1 109.5 115.3 119.2 118.2 113.9 108.6 104.7 100.1 101.2 101.1 99.2 97.5 98.5 99.3 98.4 96.3 92.5 85.6 83.3 89.7 95.5 97.9 97 95.7 104.9 112.8 118.7 123.5 125.5 124.7 122.4 121.8 117.3 119 119.4 126.2 134.2 141.2 145.2 146.6 145.4 142.7 139 133.8 134.6 135.4 138.8 142.1 145.9 150.7 155.4 155.1 146.4 136.2 136.6 141.5 145.4 149.7 154.1 158.5 163 166.8 171.6 179.4 190.4 203.7 217.9 227.3 231.7 233 233.2 234.8 237.3 239.1 239 235 227.8 221.6 214.8 210.5 207.6 203.5 199.9 195.8 192.6 190.7 188.6 185.8 183.3 181.3 180.4 182.3 187.7 188.9 189.4 191 191.8 191.7 194 196.5 197.6 193.6 177.6 195.5 206.9 213.5 216.2 216 214.5 212.3 206.9 201.2 195.1 188.9 182.7 182 182.6 183.3 181.5 180.3 179.9 181.4 181.8 182.8 180.9 178.2 178.2 176.1 171.7 166.3 158.9 151.8 146.1 139.7 134.2 126.8 121.5 116.6 113.6 112 104.7 100.9 122.1 139.4 152.3 151.3 142.3 132 124.6 117.9 110.5 104.6 104.4 106.3 107.9 108.4 105.5 109.2 111.1 109.6 108.1 104.3 97 86.3 72 57 46.3 55.2 64.7 68.2 69.6 69.7 72.1 74.9 76.6
144.4 141.6 138.9 136.2 132.4 128.4 123.5 120.2 117.5 114.8 111.7 108.4 105.4 102.4 100.1 98.2 94.9 91.2 89.9 95.6 103 106.8 108.7 109.2 107.6 108.3 115.8 119.6 119.2 115 110.5 107.2 102.6 105 102.9 101.6 101.4 103.4 102.4 99.7 95.4 93.9 90.5 86 84.1 85.7 89 93.9 103.4 113.7 118.7 125.4 129.8 132.6 132.5 130.9 127.9 123.8 121.6 126.6 124 128 134.4 139.4 143.9 147.7 147.8 144.4 140.1 141.1 141.2 143.2 145.6 150.5 150.4 155.3 158.4 158.4 156.5 154 154.6 159 163.1 166.7 168.6 170.8 176.7 184.9 192.9 203 214.7 222.4 226.4 229 229.2 230.2 232.9 235.8 237.3 237 235.6 232.5 229.3 223.6 220.7 217.7 214.4 210.3 205.5 202.8 200.1 198.1 194.6 190.2 185.8 180.8 174.3 173.9 177.1 178.5 179.8 180.8 180.1 182.4 184.2 184.6 178.2 167.3 186 194.1 200.8 204.9 205.3 206.4 206.6 205 200.5 197.2 195.3 192.9 192.8 192.5 192.6 191.9 192.7 193.5 193.9 193.3 191.7 189.5 187.8 186.1 183.1 178.3 172.3 166.1 159.9 154.2 147.2 141.2 133.7 129.7 126.5 125.2 122.2 108.6 96.2 114.7 132.6 149.6 154.9 148.6 140.8 131.2 121.9 114.4 111.7 114.1 117.6 120.9 122.4 119.3 121.1 121.7 118.7 115.4 109.6 101 90.6 73.5 53.1 50.3 62.4 73.1 79.3 81.1 82.1 83.6 85.3 87.6
137.7 135.6 132.9 129.5 126.1 121.9 117.6 113.8 112.3 109.5 106.3 102.2 99.2 96.2 94.9 93.2 91.2 90.3 97.4 105.3 110 112.9 114 114.4 113.6 110.1 117.3 121.3 120.2 117 113 107.4 106.8 109.4 108.4 107.8 107.6 107.2 104.8 101.5 99.5 96.7 92.9 87.4 84.3 89.4 96.2 103.1 112.3 120.9 125.2 130.8 135.4 138.1 139.5 137.3 133.2 129.1 125.3 130.7 130.9 131.9 135.7 140.2 144.9 149.6 152.1 150.6 146.4 147.2 145.5 147.3 150.8 155 156.8 157.1 161.7 165.1 166.3 166.1 164.7 166.6 172.3 177.9 181.7 183.7 188.4 193.6 200.7 207.3 211.6 213.8 215 218.6 220.1 221.8 224.1 227.6 230.7 231.4 232.8 232.2 230.9 228.5 226 223.9 221.9 219.3 214.9 213.9 212 208.7 204.5 199.9 194.5 188.1 180.4 171.7 166.3 166.9 168.5 169.8 170 171.8 172.8 172.2 164.9 164.7 172.4 178.9 188.2 193.2 192.8 195.3 198.8 197.8 195 193.2 191.3 189.2 186.5 185.6 188.5 190.2 191.4 192 193 194.6 196 194.8 193.9 192.4 189.3 185.5 181.8 177.5 171.2 163.9 155.4 147.6 143.5 141.6 139.1 133.1 124.6 105.7 93.4 112.4 132.4 150.9 159.9 156.6 147.9 138 127.4 122.6 121.5 125.2 132.9 137.2 136.3 133.4 132.1 129.8 125.7 119.5 110.7 100.2 85.9 69.3 53.4 56.5 68.3 79.5 87.7 89.6 92.3 94.8 96.7 98.4
130.1 129.3 126.6 123.4 120.5 116.5 112.3 108 105.9 103.1 99.2 95.4 93.2 92 92.6 91.1 90.6 94.1 101.9 106.8 109.8 112.6 114.8 117.3 118.6 114.8 122.3 123.4 121.5 117.7 113.9 113.1 111.9 113.6 114.1 113.1 112 109.4 106.3 104.3 101 97.7 94.4 90 85.8 85.1 93.6 102.3 111.2 119 127.9 132.9 139.3 143.2 144.5 143.5 139.7 136 132.6 135.1 138.3 140.2 144.7 149 152.4 154.4 156 155.2 153.9 153 152.2 151.1 153.3 156.8 159.9 162.3 164.8 168.6 170.5 172 173.3 174.6 178.1 182.9 187.8 192.3 195.6 198.9 202.5 204.2 206.8 208.1 208.8 209.8 210.5 213 215.3 219.2 221.6 222.8 223.8 222.7 222 221.7 221.8 223.7 225.1 224.5 223 221.6 219.1 215.2 210.4 204.5 198.9 193.1 186.2 178.7 171.3 163.7 157.2 157.8 159.8 162.8 163.2 161.1 153.7 150.9 160.4 163 172.3 178.3 179.8 181 188.2 188.9 187.9 186.6 184.3 180.8 175.8 176.4 179.9 181.9 181.2 180.9 182.2 186.1 189.5 192.9 195.7 198.2 197 193.8 190 184.9 178.8 172.2 165.6 159.9 154.9 150.8 144.6 134.8 121.2 100.3 91.5 109.4 131.1 149.7 161.9 162.1 154.8 145.7 136.3 132.4 132.3 139.5 144.4 145.2 144.2 141.9 139.8 135 127.7 117.1 104.7 87.5 74.6 58.7 53.2 63 73.6 84.7 94.2 98.1 101.7 105.3 108 109.6
124.8 121.6 120.4 117.5 114.2 110.1 106.9 102.4 98.2 96 96.3 96.3 96 95.4 93.7 90.9 92 94.7 99 101.7 104.2 109 114.4 118.6 121.3 121.8 123.3 124.5 124.1 122.7 120.6 119.6 118.1 118.4 117.6 115.6 113.3 110.5 107.6 105.2 102.6 99.8 96.7 93.2 88.6 83.3 87.6 96.6 104.1 111.6 119.9 126.2 133.7 140.4 147.3 147.7 145.4 143.2 141.1 142 146.6 149.7 153 155.8 157.9 158.7 158.1 157.4 157.1 156.7 156.2 155.9 156.8 158.7 161.8 165.2 167.8 170.4 172.5 174.8 177.3 179.5 182 184.9 189.4 192.8 194.5 196 199.1 200.5 200.4 199.1 199.4 200.3 201.2 202.7 206.8 211.5 213.3 212.8 212.6 211.9 211.6 211.3 212.3 216 221.2 225.2 227.4 226.5 223.8 218.6 212.4 205.9 199.1 192.1 184.2 177.3 171.2 164.3 158.8 153.1 146.9 149.5 149.8 147.1 143.6 140.3 144.1 148.1 154 158.6 163 166.6 177.4 179.3 177.6 177.6 175.2 171.8 167.2 166.7 169.9 171 169.9 165.6 169.1 172.6 177.4 183 190.4 194.3 194.9 192.3 190.1 187.3 183.3 178.2 172.8 167.9 162.2 155.5 146.4 135.7 117.2 98.6 90.7 109.1 128.5 147.4 162.4 166.7 161.6 155.2 148.3 143.5 144.8 148.7 150.3 149.6 148.5 146.6 142.7 136.3 127.3 114.1 92 81.7 67.5 55.1 62.5 69.7 78.7 89.1 99.1 108.1 114.5 117.9 120.1 118
121.4 115.5 113.5 111.2 109.1 105 101.6 98.4 99.6 102.5 103.4 101.8 99.3 97.1 94.4 91.6 95.8 98.6 101.2 103.4 106.2 109.8 113.1 118.9 123.2 125.2 125.5 127.1 126.7 126.6 126.5 126.3 124.7 121.9 120.1 117 113.3 109.8 105.7 103.7 101.3 95.6 92.7 90.2 87.8 86.8 85.3 91.7 99.3 105.6 112.2 119.1 127.5 138 143.8 147.6 148.2 148.7 147.8 149.4 152.8 155.4 157 157.8 157.6 157.1 155.2 154.5 155.5 155.5 156 156.5 158.3 159.9 162 163.8 165.5 167.7 169.9 172.5 175.7 179.3 181.4 183.8 185.9 186.8 186.7 187.1 186.2 187.3 187.4 188.2 188.7 189.6 190.8 195.1 200.3 205 206.1 204 200.3 196.3 194.7 194.8 198.5 204.5 212.9 220.6 225.6 227.7 224.9 220 212 202.8 192.8 184.2 180.3 177.4 173.3 173.3 172.1 167.8 160.3 155.4 151.3 150 149.4 146.3 142.3 136.9 133.5 138.3 142.6 151.2 167.4 169.5 167.4 167 165.8 162.7 154.9 156.5 159 159.6 157.7 152.1 156.2 155.3 159.6 168.3 176.1 182.2 183.8 184.4 184.1 182.8 181 177.9 175.5 171.7 165.2 156.5 146.4 132.4 114.5 97 91.3 109.3 127.7 146.6 162.6 169.2 166.7 162.1 156 152.6 151.3 149.9 148.1 146.8 146.7 144.8 141.7 136.2 126.6 113.2 96.9 81.3 64.6 62.5 70.9 74.8 82.2 93 104 115.6 123.6 127 126 119.9
116.6 113.5 110.2 106.7 104.7 100.9 99.3 103.9 107.8 107.4 105.1 101.4 99.3 98.1 94.6 95 100.2 103.9 108.2 111.9 112.6 117.2 121.3 122.9 125.6 126.7 125.9 126.4 128.1 131.7 132.7 131 129.2 124.7 121.3 116.9 110.8 107.8 104.7 100.2 98.7 99.2 97.4 94 90.7 88.4 86.3 87 93 100.2 106.5 113.7 121.5 130.2 137.1 141.8 147.3 150.5 151.6 152.4 155.5 155.8 153.3 151.2 149.8 148.2 146.6 146.5 146 147 149.2 152 154.5 156.8 157.8 159.4 161.6 163.8 166 168.8 173.6 177.1 178.1 178.9 180.3 179.7 177.8 175.5 174.6 175.5 178.5 178.3 179.2 180.9 185.8 193 197.1 200.4 199.5 194.3 186.9 181.7 179.9 180.7 185.3 192.7 203 213.4 219.1 222.6 222.8 219.5 213.8 205.6 197.5 193.5 191.1 187.7 183.1 184.1 184.3 180.6 172.7 172.1 168.5 165.4 161.7 157.6 154.1 149 141.6 134.1 126.8 134.2 151.7 160.5 157.9 158.7 156.7 153.1 143.3 147.4 148.2 148.1 145.8 138.3 143.5 140.4 145.2 152.9 159.5 165.9 169.5 170.9 174.6 174.4 173.1 171.5 169.8 166.2 160.5 152.3 142.2 126.2 110.6 95.1 91.9 109.5 128.5 150.3 160.8 165 164.7 161.2 156.9 152.5 148.5 144.3 141 137.5 136.9 136.4 133.3 130.4 124.5 114 99.4 81.1 64.7 66.5 76.7 82.1 87.6 95.8 106.1 116.3 122.3 124.3 124.2 119.3
113.2 111.7 109 105 100.5 102.8 109 111.7 111.7 108.9 105.7 104.1 103 100.3 96 96.3 102.8 107.6 112.2 117.6 121.8 124.2 123.7 124.1 124.1 123.2 124.4 127.6 133.6 135.5 136.8 134.3 130.8 126.2 121.7 115.6 112.1 109.9 108.7 107.9 106.3 104.5 102.2 98.1 94.6 92.2 89.2 85.9 88.2 95.2 100.6 107.6 115.2 122.1 126.1 133.2 139.9 144.9 146.5 150.5 153 151.6 146.9 142.6 140.1 137.9 137.1 137 136.8 138.7 141.2 144.6 148.5 150.3 151.6 150.2 151.5 156.6 163.1 167.8 170.8 172 171.2 169.6 170.2 167.8 165.6 163.7 163.5 165.2 169 170.2 172.5 178.1 185 191.2 193.1 193.9 192.4 187.1 173 168 168 172.6 177.6 187.4 198.7 209.5 214 215.3 216 215.6 212.4 208.2 204.8 200.3 200.1 198 196.4 197.2 196.4 193.3 188.5 186.3 183.1 178 173.7 168.9 163.8 158.6 151.6 144.7 137.6 128.1 133 146.3 151.1 150.7 148.8 144.7 134.4 137.8 137.9 136.1 132.1 126.4 130 125.6 128.7 134 139.2 145.6 151.6 154.1 162.1 163.6 162.6 162.2 160.8 158.6 154 147.2 137.6 123.7 108.1 92.6 90.7 111.1 129.8 145 152.4 157.3 157.9 155 151.3 146.1 140.9 135.1 130.3 126.1 123.5 123.9 122.1 120.6 116.5 110.5 101.5 88.6 69.5 64.2 76.9 87.8 96.1 103 110.8 113.9 113.7 115.6 118.5 118.3
109.9 108.6 105.1 100.5 107.5 111.9 115.3 116.9 115.8 112.6 110.1 108.8 106.1 101.9 97.2 93.7 99 105 110.4 114.1 118.7 121.6 121.7 120.2 119.4 120.3 124.5 129 134.6 138.6 138.3 135.4 131.3 126.2 121.8 119.6 117.6 115.2 114.1 112.9 110.9 108.8 105.9 101.7 99.5 97 93.2 89.8 86.2 91.6 95.5 100.6 107.7 114.8 118.3 122.5 127.7 132.8 137.6 143.7 147.8 147.3 141.8 133.2 130.1 128.1 126.8 127 127.9 130.8 133.9 137.5 140.8 143.1 143.4 142.1 150.8 156.5 161.1 164.5 164.3 162.3 159.8 157.8 156.1 156 155 154.9 156.8 159 161.3 164.7 172 176.3 180.8 182.1 181.9 182.1 181.8 177.4 160.3 153.8 159.4 170.6 184.3 193.5 199.3 205.8 205.3 204.8 204.6 205.6 206.2 204.6 205.5 206.6 207.9 208.1 207.6 207.6 204.9 202.6 198.9 194.9 190.4 185.9 180.5 175.4 171.3 163.8 156.7 149.1 143.2 135.4 125 133.8 142.9 142.8 142.4 139.1 130.1 126.9 126.6 122.9 118.2 113.3 113 109.9 109.6 112.9 116.1 123 130.6 139.6 149.4 152.2 149.3 150.6 149.5 147.5 143.7 138.3 131.5 120.9 105.7 88.1 90.4 110.8 125.7 135.3 143.7 148.7 150.4 147.9 143.1 137.2 130.9 124.8 119 113.9 111.5 111.6 110.6 108.9 107.6 105.3 100.1 92 79.3 66.8 73.7 88 101.9 108.9 110.6 107.3 99.7 105.6 109.8 113.3
104.2 102.8 99.6 102.4 108.6 115.9 119.6 121.4 120 117.1 114.8 111.1 106.7 100.9 94.6 92.4 101.9 103.6 104.3 103.8 106.7 109.3 111.8 120 123.4 127.5 128.6 132.7 136.7 138.8 138.1 135 131.1 126.6 123 121.3 119.3 116.4 116.2 114.9 112.8 110.8 107.7 105.9 103.4 100.6 97.1 92.9 89 88.7 90.7 94.3 100.3 106.9 110.5 112.1 116.7 121.3 127.1 133.3 138.8 138.5 134.4 127.7 121.5 119.8 120 120.9 121.1 124 127 131.4 133.5 133.5 132.1 138.9 144.6 151.1 156.4 159.2 157.9 154.2 150.5 149.3 148 148.1 149 150.8 153.2 154.8 157.1 161.4 165.4 169.1 170.6 168.9 167.9 168.4 170.2 165.8 146.4 153.3 168.4 181 191.1 194.1 195.1 193.7 191.9 190.1 189.6 189.5 191.3 193.4 198.7 204.4 208.8 212 214.3 214 211.4 207.8 204.4 200.3 195.6 189.7 183.9 177.6 170.5 163.4 155.6 147.8 144.7 137.4 130.2 121.2 132.9 134.9 134.3 132 127.3 118 116.8 111.3 104.8 104 104.3 103.3 102.4 99.5 95.9 102.5 110.5 121.7 134.5 139.2 135.6 136.6 135.3 133.7 130.4 127.1 122.6 116.2 102.3 84.6 88.9 104.7 114.4 124.5 134.5 139.8 141.7 140.2 135.3 127.1 119.3 112.1 107.1 103.1 100.5 100.4 99 96.7 95.2 92.7 89.5 85.2 75.8 66.3 72.9 92.2 102.7 104.5 102.1 97.6 90 93.1 101.6 105.2
105.6 106.9 109 111.9 118.8 124.1 126.4 124.4 123.6 118.4 114.1 109.8 105.7 97 99.6 96.7 100.9 108.6 113.4 115.6 114.7 118.8 124.2 127.6 131 133.4 134.7 135 134 135 132.1 128.9 125.1 122.3 119.8 118.8 117.2 115.2 112.6 111.6 111.9 111 108.7 107.2 104.5 101.6 98.5 94.8 90.6 89.8 90 90 91.9 95.2 99.6 102.4 107.3 112 116.4 120.6 126.3 128.4 126.3 122.7 118 114.2 114.3 112.8 113.2 117.1 120.2 123.9 123.8 129 135.4 139.7 144.3 149 154.6 155.7 152.1 146 143.7 142.4 142.9 142.9 144.1 147.2 149.6 152.5 154.2 163.2 163.8 162.1 159.3 156.1 154.6 154.7 157.6 155.5 138.9 149.1 161.5 173 182.2 184.7 183.6 179.3 176.3 173.7 172 171.9 171.1 174 182.9 191.7 198.2 203.2 209 210.5 209.9 207.8 205 200.9 196.2 190.5 183.3 175.2 166.3 160.9 158 154.4 149.1 143 135.1 126.9 119.8 124.7 125.6 124.4 119.6 114.1 110 117.2 120.5 121.8 122.3 121.7 117.1 112.9 107.6 98.6 90.6 102.6 118 126 123.2 123.6 122.6 120.8 116.8 113.7 111.7 108.6 99.7 84.8 81.3 90.6 99 111.9 121.7 127.3 131.5 132.8 131.1 127.2 119.8 112.1 105.8 99.7 95.4 92.8 89 86 83.3 79.9 77.1 74 70.2 72.8 81.3 95.6 101.7 98.8 93.6 89 76.9 78 85.6 95.9
114.9 118.9 125.2 130.2 131.8 131.5 127.8 124.8 120.5 116.4 111.3 106.4 101 96.7 106.2 105.2 99.7 112.2 119.6 124.4 125.7 126.9 129.7 132.2 134.3 135.2 134.6 131.7 130.6 129 126.1 122.9 120.5 118.1 115.4 114.1 112.8 110.7 109.9 109.5 110 109.8 107.3 106.5 104 100.8 97.6 93.4 90.5 95.5 95.2 93 91.1 89.2 88.8 93.2 97.7 102.5 106.8 111.6 115.8 118.5 119.2 116.9 112.9 107.3 106.1 112.3 114.2 118.4 123.3 126.8 132 139.5 144.4 148.1 150.9 153.2 154.8 154.1 146.2 137.2 134.5 131.7 133 139.7 146.1 151.2 153.5 154.6 158.4 163.6 165 159.8 154.3 147.3 143.5 142.9 146.5 147.2 136 137.7 147.5 157.5 167.1 172.1 170.8 164.3 161.7 160.3 158 156.2 155.4 155.9 163 174.3 183.3 191.5 196.3 198.1 197.5 195.8 193.5 193.6 190.9 187 182.3 176.9 173 169.7 164.9 158.7 151.8 143.7 137.3 131.1 124.5 119.9 117 116.9 117.9 122.5 130.1 133.2 134.1 133.1 131.6 129.1 125.3 120.9 115.6 109 99.4 91.5 99.6 107.7 106.9 109.6 109.9 108.2 104.8 101.8 100.7 101.2 99.8 92.3 82.4 79 84.3 95.7 104.9 109.6 114 118.4 122.8 125.4 125.2 120.2 114.8 107.4 101.8 97.4 93 88.5 86.9 85.1 81.5 79 81.5 86.3 91.7 99.6 98.7 92.7 86 82.4 71.9 68.1 70.6 79.4
129.9 136.3 139.2 138.7 135.5 131.8 127.2 122.5 117.5 113.1 109.3 103.5 97.2 100.2 109.3 106.9 93.4 108.8 122.2 126.6 128.1 129.9 130.1 131.4 130.9 130.6 129.4 128.4 126.5 123.1 120.7 119.1 116 114 110.7 109.1 109 108.2 106.3 107 106.8 107.2 105.9 104.9 102.4 98.9 95.6 92.4 92.5 98.2 98.9 99.9 98.5 95.9 93.2 92.4 91.3 92.3 98.6 103.5 107.9 111 112.3 111 106.3 104.7 114.1 119.8 123.3 125.6 128.3 130.8 134.5 139 143.6 148.3 151.9 153.9 154.1 150.2 136.9 128.4 130.3 141.6 147.2 150.9 156.2 159.5 161.7 163 166.4 169.8 168.5 161.7 154.3 149.8 142.7 136.6 137.2 139.7 133.5 129.8 140.1 149.8 159.1 163.8 160.5 154.6 151.3 149.7 146.7 143.6 143.6 145.4 150.7 156.6 168.3 178.9 182.8 182.8 181.2 179.3 178.1 177.6 178.5 180.7 180.7 179 175.4 173.9 169.3 163 155.6 148.1 141.4 140.1 138 134.5 131.9 132.8 136 138.8 137.7 137.3 135.4 132.3 129.8 126.2 122.3 117.7 112.2 105.1 96.2 90 87.8 90.6 95.2 98 98.6 98.5 95.4 92.4 90.5 90.2 91.5 92.9 90.4 83.3 75.4 79.8 87.9 91.2 94 97.4 101.5 107.3 111.7 114.7 117.7 118.9 115.4 110.2 104.5 100.1 97.2 92.2 89.3 88 90 96.8 100.7 101.6 96.2 87.7 80.3 73.9 64.3 61.1 60.7 65.9
