ncols 200
nrows 109
xllcorner 600000
yllcorner 161100
cellsize 50
2.5 2.5 2.4 2.3 2.3 2.3 2.3 2.2 2.5 2.7 2.8 2.6 2.7 4.1 1.3 1.9 2.1 2.1 3.5 9.5 17 21.5 24.8 24.4 27.6 26.4 24.6 25.7 24.5 23.5 22.2 21 20 19.1 18.3 17.4 16.6 15.9 15.7 15.8 15.8 15.8 15.8 15.7 15.8 15.4 15 14.7 14.5 14.4 13.4 12.3 11.7 11 9.8 8.6 7.4 6.2 4.9 3.5 2.7 2 2 1.8 1.9 2 1.4 1.1 2.4 2.8 2.3 2.2 2.4 2.5 1.9 1.4 0.9 0.7 0.6 0.4 0.2 -0.1 -0.5 -0.8 -1 -1.2 -1.4 -1.8 -1.8 -1.8 -1.8 -1.8 -1.8 -1.8 -1.8 -1.8 -1.8 -1.8 -1.8 -1.8 -1.8 -1.8 -1.8 -1.8 -1.8 -1.8 -1.8 -1.8 -1.8 -1.8 -1.8 -1.8 -1.8 -1.8 -1.8 -1.8 -1.8 -1.8 -1.8 -1.8 -1.8 -1.8 -1.8 -1.8 -1.8 -1.8 -1.8 -1.8 -1.8 -1.8 -1.8 -1.8 -1.8 -1.8 -1.8 -1.8 -1.8 -1.8 -1.8 -1.8 -1.8 -1.8 -1.8 -1.8 -1.8 -1.8 -1.8 -1.8 -1.8 -1.8 -1.8 -1.8 -1.8 -1.8 -1.8 -1.8 -1.8 -1.8 -1.8 -1.8 -1.8 -1.8 -1.8 -1.8 -1.8 -1.8 -1.8 -1.8 -1.8 -1.8 -1.8 -1.8 -1.8 -1.8 -1.8 -1.8 -1.8 -1.8 -1.8 -1.8 -1.8 -1.8 -1.8 -1.8 -1.8 -1.8 -1.8 -1.8 -1.8 -1.8 -1.6 -1.4 -1.3 -1.1 -1 -0.9 -0.3 0.2 0.5 0.9
2.6 2.6 2.5 2.4 2.3 2.9 2.9 2.8 2.6 2.5 2.7 2.7 2.6 2.9 2.8 4.4 1.7 1.8 2.5 8.6 18.5 21.3 25.8 24.4 27.9 26.9 26.1 25.8 24.3 23.1 22 21 20 19.1 18.4 17.6 16.8 16.5 16.9 17.4 17.4 17.1 16.7 16.6 16.7 16.2 15.8 15.3 15.1 14.7 13.6 12.6 11.9 10.9 9.5 8.2 6.9 5.7 4.4 3.2 2.7 2 2 2 2.5 1.6 1.1 2.2 2.6 2.3 2.3 2.3 2.3 1.7 1.3 0.9 0.4 0.2 0 -0.1 -0.3 -0.5 -0.7 -1 -1.3 -1.5 -1.8 -1.8 -1.8 -1.8 -1.8 -1.8 -1.8 -1.8 -1.8 -1.8 -1.8 -1.8 -1.8 -1.8 -1.8 -1.8 -1.8 -1.8 -1.8 -1.8 -1.8 -1.8 -1.8 -1.8 -1.8 -1.8 -1.8 -1.8 -1.8 -1.8 -1.8 -1.8 -1.8 -1.8 -1.8 -1.8 -1.8 -1.8 -1.8 -1.8 -1.8 -1.8 -1.8 -1.8 -1.8 -1.8 -1.8 -1.8 -1.8 -1.8 -1.8 -1.8 -1.8 -1.8 -1.8 -1.8 -1.8 -1.8 -1.8 -1.8 -1.8 -1.8 -1.8 -1.8 -1.8 -1.8 -1.8 -1.8 -1.8 -1.8 -1.8 -1.8 -1.8 -1.8 -1.8 -1.8 -1.8 -1.8 -1.8 -1.8 -1.8 -1.8 -1.8 -1.8 -1.8 -1.8 -1.8 -1.8 -1.8 -1.8 -1.8 -1.8 -1.8 -1.8 -1.8 -1.8 -1.8 -1.8 -1.8 -1.8 -1.8 -1.8 -1.8 -1.6 -1.4 -1.2 -1 -0.9 -0.7 -0.6 -0.2 0.3 0.9 1.2
2.7 2.6 2.5 2.4 2.3 2.3 2.5 2.6 2.7 2.4 2.3 2.7 2.9 3 2.8 2.6 2.6 4.5 1.6 8.8 16.8 22.8 24.4 24.4 27.9 26.7 25.8 25 24.1 23.1 22.1 21.1 20.1 19.2 18.4 17.7 17.2 17.6 18.1 18.8 18.4 18 17.6 17.6 17.6 16.9 16.5 16.2 15.7 15 13.7 12.8 11.9 10.8 9.6 8.2 6.9 5.5 4.6 3.8 3.1 2.5 2.5 2.4 2.2 1.5 1.3 2.4 2.2 2.3 2.3 2.2 1.7 1.1 0.6 0.3 0 -0.5 -0.6 -0.6 -0.7 -0.9 -1.1 -1.3 -1.6 -1.8 -1.8 -1.8 -1.8 -1.8 -1.8 -1.8 -1.8 -1.8 -1.8 -1.8 -1.8 -1.8 -1.8 -1.8 -1.8 -1.8 -1.8 -1.8 -1.8 -1.8 -1.8 -1.8 -1.8 -1.8 -1.8 -1.8 -1.8 -1.8 -1.8 -1.8 -1.8 -1.8 -1.8 -1.8 -1.8 -1.8 -1.8 -1.8 -1.8 -1.8 -1.8 -1.8 -1.8 -1.8 -1.8 -1.8 -1.8 -1.8 -1.8 -1.8 -1.8 -1.8 -1.8 -1.8 -1.8 -1.8 -1.8 -1.8 -1.8 -1.8 -1.8 -1.8 -1.8 -1.8 -1.8 -1.8 -1.8 -1.8 -1.8 -1.8 -1.8 -1.8 -1.8 -1.8 -1.8 -1.8 -1.8 -1.8 -1.8 -1.8 -1.8 -1.8 -1.8 -1.8 -1.8 -1.8 -1.8 -1.8 -1.8 -1.8 -1.8 -1.8 -1.8 -1.8 -1.8 -1.8 -1.8 -1.8 -1.8 -1.8 -1.8 -1.8 -1.5 -1.3 -1.1 -0.9 -0.7 -0.6 -0.5 -0.3 -0.2 0.5 1 1.7
2.7 2.6 2.5 2.4 2.3 2.3 2.6 2.5 2.9 2.8 2.5 2.3 2.8 3 3 3 2.6 3 3 7.3 15.5 23.4 24.4 24.4 27.5 26.5 25.5 24.7 24.1 23.2 22.2 21.2 20.2 19.5 19 18.4 18.5 18.8 19.1 19.4 19.1 18.9 18.5 18.5 18.3 17.7 17.3 17 15.9 14.8 13.6 12.6 11.5 10.4 9.5 8.1 7.2 6.5 5.5 4.3 3.2 3.7 4.3 2.1 1.8 1.1 4.2 2.3 2.2 2.3 1.9 1.3 0.8 0.4 -0.1 -0.4 -0.7 -1 -1.2 -1.2 -1.3 -1.4 -1.8 -1.8 -1.8 -1.8 -1.8 -1.8 -1.8 -1.8 -1.8 -1.8 -1.8 -1.8 -1.8 -1.8 -1.8 -1.8 -1.8 -1.8 -1.8 -1.8 -1.8 -1.8 -1.8 -1.7 -1.6 -1.7 -1.7 -1.7 -1.8 -1.8 -1.8 -1.8 -1.8 -1.8 -1.8 -1.8 -1.8 -1.8 -1.8 -1.8 -1.8 -1.8 -1.8 -1.8 -1.8 -1.8 -1.8 -1.8 -1.8 -1.8 -1.8 -1.8 -1.8 -1.8 -1.8 -1.8 -1.8 -1.8 -1.8 -1.8 -1.8 -1.8 -1.8 -1.8 -1.8 -1.8 -1.8 -1.8 -1.8 -1.8 -1.8 -1.8 -1.8 -1.8 -1.8 -1.8 -1.8 -1.8 -1.8 -1.8 -1.8 -1.8 -1.8 -1.8 -1.8 -1.8 -1.8 -1.8 -1.8 -1.8 -1.8 -1.8 -1.8 -1.8 -1.8 -1.8 -1.8 -1.8 -1.8 -1.8 -1.8 -1.8 -1.8 -1.8 -1.8 -1.5 -1.4 -1.1 -0.9 -0.7 -0.5 -0.3 -0.2 -0.1 0.1 0.5 1.1 1.7
2 2.3 2.5 2.4 2.3 2.3 2.3 2.7 2.8 2.4 2.3 2.3 2.7 2.7 2.9 2.7 2.9 2.8 2.8 7.2 15.5 23.5 24.4 24.4 27.4 26.5 25.5 24.5 23.8 23.2 22.3 21.3 20.4 19.7 19.7 19.2 19.1 20.2 20.2 19.5 19.5 19.2 19 18.7 18.1 18.2 17.5 16.5 15.2 14 12.9 12.4 11.2 10.1 9.5 8.9 8.2 7.6 6.4 5.1 3.9 2.8 2.3 1.5 1.1 4 2 1.9 1.8 1.5 1 0.4 -0.1 -0.5 -0.8 -1.1 -1.8 -1.8 -1.8 -1.8 -1.8 -1.8 -1.8 -1.8 -1.8 -1.8 -1.8 -1.8 -1.8 -1.8 -1.8 -1.8 -1.8 -1.8 -1.8 -1.8 -1.8 -1.8 -1.8 -1.8 -1.8 -1.8 -1.8 -1.7 -1.6 -1.5 -1.5 -1.5 -1.5 -1.6 -1.6 -1.7 -1.7 -1.7 -1.8 -1.8 -1.8 -1.8 -1.8 -1.8 -1.8 -1.8 -1.8 -1.8 -1.8 -1.8 -1.8 -1.8 -1.8 -1.8 -1.8 -1.8 -1.8 -1.8 -1.8 -1.8 -1.8 -1.8 -1.8 -1.8 -1.8 -1.8 -1.8 -1.8 -1.8 -1.8 -1.8 -1.8 -1.8 -1.8 -1.8 -1.8 -1.8 -1.8 -1.8 -1.8 -1.8 -1.8 -1.8 -1.8 -1.8 -1.8 -1.8 -1.8 -1.8 -1.8 -1.8 -1.8 -1.8 -1.8 -1.8 -1.8 -1.8 -1.8 -1.8 -1.8 -1.8 -1.8 -1.8 -1.8 -1.8 -1.8 -1.8 -1.8 -1.8 -1.8 -1.5 -1.3 -1.1 -1 -0.8 -0.5 -0.3 -0.1 0.1 0.2 0.3 0.6 1.2 1.8
1 1.3 1.7 2 2.3 2.4 2.3 2.3 2.3 2.2 2.5 2.8 2.9 2.5 2.4 3 3.1 2.9 2.9 8.2 16.6 23.6 24.4 24.4 27.4 26.4 25.5 24.5 23.5 22.8 22.1 21.5 20.7 19.9 20.2 20.4 21.2 19.7 20.2 19.5 19.4 19.4 19.2 19.5 16.8 17.4 16.7 15.7 14.4 13.3 12.3 12.1 11 10.6 10.2 9.7 9.2 8.5 7.2 6 4.7 2.9 2.3 1.1 3.4 1.9 1.3 1 0.8 0.6 0.1 -0.6 -1 -1.8 -1.8 -1.8 -1.8 -1.8 -1.8 -1.8 -1.8 -1.8 -1.8 -1.8 -1.8 -1.8 -1.8 -1.8 -1.8 -1.8 -1.8 -1.8 -1.8 -1.8 -1.8 -1.8 -1.8 -1.8 -1.8 -1.8 -1.8 -1.8 -1.6 -1.6 -1.5 -1.4 -1.4 -1.4 -1.4 -1.4 -1.5 -1.5 -1.6 -1.6 -1.6 -1.7 -1.7 -1.7 -1.8 -1.8 -1.8 -1.8 -1.8 -1.8 -1.8 -1.8 -1.8 -1.8 -1.8 -1.8 -1.8 -1.8 -1.8 -1.8 -1.8 -1.8 -1.8 -1.8 -1.8 -1.8 -1.8 -1.8 -1.8 -1.8 -1.8 -1.8 -1.8 -1.8 -1.8 -1.8 -1.8 -1.8 -1.8 -1.8 -1.8 -1.8 -1.8 -1.8 -1.8 -1.8 -1.8 -1.8 -1.8 -1.8 -1.8 -1.8 -1.8 -1.8 -1.8 -1.8 -1.8 -1.8 -1.8 -1.8 -1.8 -1.8 -1.8 -1.8 -1.8 -1.8 -1.8 -1.8 -1.8 -1.8 -1.6 -1.5 -1.4 -1.1 -0.9 -0.8 -0.6 -0.4 -0.1 0.1 0.3 0.5 0.6 0.8 1.2 1.8
0 0.3 0.7 1 1.7 2.4 2.3 2.3 2.3 2.4 2.7 2 2.6 2.3 2.3 2.3 3 2.9 2.8 7.5 15.9 24.4 24.4 24.4 27.2 26.2 25.3 24.3 23.2 21.5 20.6 19.7 19.4 19.2 20.5 20 21.1 20.2 19.6 19.4 18.9 18.9 18.8 19.1 17.6 16.5 15.3 14.3 13.2 12.9 11.9 12 11.6 11.3 10.9 10.4 9.6 9.3 8 6.8 5.5 4.3 2.1 2.6 1.9 1.3 0.7 0.2 -0.1 -0.3 -0.9 -1.8 -1.8 -1.8 -1.8 -1.8 -1.8 -1.8 -1.8 -1.8 -1.8 -1.8 -1.8 -1.8 -1.8 -1.8 -1.8 -1.8 -1.8 -1.8 -1.8 -1.8 -1.8 -1.8 -1.8 -1.8 -1.8 -1.8 -1.8 -1.8 -1.8 -1.6 -1.5 -1.4 -1.4 -1.3 -1.2 -1.2 -1.3 -1.3 -1.3 -1.4 -1.4 -1.4 -1.5 -1.5 -1.6 -1.6 -1.6 -1.7 -1.7 -1.7 -1.8 -1.8 -1.8 -1.8 -1.8 -1.8 -1.8 -1.8 -1.8 -1.8 -1.8 -1.8 -1.8 -1.8 -1.8 -1.8 -1.8 -1.8 -1.8 -1.8 -1.8 -1.8 -1.8 -1.8 -1.8 -1.8 -1.8 -1.8 -1.8 -1.8 -1.8 -1.8 -1.8 -1.8 -1.8 -1.8 -1.8 -1.8 -1.8 -1.8 -1.8 -1.8 -1.8 -1.8 -1.8 -1.8 -1.8 -1.8 -1.8 -1.8 -1.8 -1.8 -1.8 -1.8 -1.8 -1.8 -1.8 -1.7 -1.6 -1.5 -1.5 -1.5 -1.4 -1.3 -1.2 -1 -0.8 -0.5 -0.4 -0.2 0 0.2 0.5 0.7 0.9 1 1.3 1.9
-1 -0.7 -0.4 0.2 0.8 1.7 1.9 2.2 2.3 2.1 2.3 2.3 2.4 2.7 2.6 2.9 2.3 2.8 2.9 3.9 12.8 23 27.4 27.8 27 26 25 23.9 22.8 20.9 19.1 18 17.8 17.5 17.2 18.5 18.3 17.4 16.7 16.9 17.3 17.9 18.4 18.2 17.4 15.7 14 12.6 11.8 11.5 11.4 11.8 12 12 11.5 10.8 9.9 9.4 8.1 7.3 5 2.7 2.4 2 1.4 0.7 0.1 -0.4 -0.9 -1.8 -1.8 -1.8 -1.8 -1.8 -1.8 -1.8 -1.8 -1.8 -1.8 -1.8 -1.8 -1.8 -1.8 -1.8 -1.8 -1.8 -1.8 -1.8 -1.8 -1.8 -1.8 -1.8 -1.8 -1.8 -1.8 -1.8 -1.8 -1.8 -1.8 -1.7 -1.6 -1.5 -1.4 -1.3 -1.3 -1.2 -1.1 -1.1 -1.1 -1.2 -1.2 -1.2 -1.3 -1.3 -1.3 -1.4 -1.4 -1.5 -1.5 -1.5 -1.6 -1.6 -1.6 -1.7 -1.7 -1.7 -1.8 -1.8 -1.8 -1.8 -1.8 -1.8 -1.8 -1.8 -1.8 -1.8 -1.8 -1.8 -1.8 -1.8 -1.8 -1.8 -1.8 -1.8 -1.8 -1.8 -1.8 -1.8 -1.8 -1.8 -1.8 -1.8 -1.8 -1.8 -1.8 -1.8 -1.8 -1.8 -1.8 -1.8 -1.8 -1.8 -1.8 -1.8 -1.8 -1.8 -1.8 -1.8 -1.8 -1.8 -1.8 -1.8 -1.8 -1.8 -1.8 -1.8 -1.7 -1.6 -1.5 -1.5 -1.4 -1.3 -1.3 -1.2 -1.2 -1.1 -1 -0.8 -0.7 -0.4 -0.2 0 0.2 0.4 0.6 0.9 1.1 1.3 1.4 2
-1.8 -1.8 -1.8 -0.9 -0.3 0.5 1.4 1.8 1.3 1 1.5 2.2 2.8 2.9 2.7 2.6 2.8 2.9 2.5 2.6 7 16.3 24.2 27.4 26.6 26 25.2 23.7 21.7 19.5 17.8 16.3 15.8 16 16.1 16 15.6 14.9 14.2 14.8 16.5 17.6 17.9 17.8 16.2 14.5 12.8 11 10.3 10.7 11.5 11.7 11.9 12 11.6 11.1 10.2 9.6 7.4 6.8 2.5 2.1 1.7 1.3 0.9 0.2 -0.4 -1 -1.8 -1.8 -1.8 -1.8 -1.8 -1.8 -1.8 -1.8 -1.8 -1.8 -1.8 -1.8 -1.8 -1.8 -1.8 -1.8 -1.8 -1.8 -1.8 -1.8 -1.8 -1.8 -1.8 -1.8 -1.8 -1.8 -1.8 -1.8 -1.8 -1.8 -1.7 -1.6 -1.5 -1.4 -1.3 -1.2 -1.1 -1.1 -1 -1 -1 -1 -1.1 -1.1 -1.1 -1.2 -1.2 -1.2 -1.3 -1.3 -1.3 -1.4 -1.4 -1.5 -1.5 -1.5 -1.6 -1.6 -1.6 -1.7 -1.7 -1.7 -1.8 -1.8 -1.8 -1.8 -1.8 -1.8 -1.8 -1.8 -1.8 -1.8 -1.8 -1.8 -1.8 -1.8 -1.8 -1.8 -1.8 -1.8 -1.8 -1.8 -1.8 -1.8 -1.8 -1.8 -1.8 -1.8 -1.8 -1.8 -1.8 -1.8 -1.8 -1.8 -1.8 -1.8 -1.8 -1.8 -1.8 -1.8 -1.8 -1.7 -1.7 -1.6 -1.6 -1.5 -1.5 -1.5 -1.5 -1.4 -1.3 -1.3 -1.2 -1.1 -1.1 -1 -1 -0.9 -0.8 -0.6 -0.5 -0.3 -0.1 0.1 0.4 0.6 0.8 1 1.3 1.5 1.7 2
-1.8 -1.8 -1.8 -1.8 -1.8 -1.8 -0.5 0.2 -0.2 0 0.6 1.3 1.9 3 2.9 2.9 3 2.9 2.9 2.8 2.7 7.9 14.9 24.5 26.3 25.7 24.5 22.3 19.9 18 16.5 14.7 13.9 13.8 13.9 13.8 12.7 12.5 12.4 13.3 15.2 16.8 17.5 16.9 15.2 13 11.2 9.6 9.1 9.5 9.9 10.9 10.9 11.1 10.6 10.1 9.7 8.7 7.5 2.9 1.8 1.4 1 0.7 0.2 -0.2 -0.9 -1.8 -1.8 -1.8 -1.8 -1.8 -1.8 -1.8 -1.8 -1.8 -1.8 -1.8 -1.8 -1.8 -1.8 -1.8 -1.8 -1.8 -1.8 -1.8 -1.8 -1.8 -1.8 -1.8 -1.8 -1.8 -1.8 -1.8 -1.8 -1.8 -1.8 -1.6 -1.6 -1.5 -1.4 -1.3 -1.2 -1.1 -1 -1 -0.9 -0.9 -0.9 -0.9 -0.9 -1 -1 -1 -1.1 -1.1 -1.1 -1.2 -1.2 -1.2 -1.3 -1.3 -1.4 -1.4 -1.4 -1.5 -1.5 -1.5 -1.6 -1.6 -1.8 -1.8 -1.8 -1.8 -1.8 -1.8 -1.8 -1.8 -1.8 -1.8 -1.8 -1.8 -1.8 -1.8 -1.8 -1.8 -1.8 -1.8 -1.8 -1.8 -1.8 -1.8 -1.8 -1.8 -1.8 -1.8 -1.8 -1.8 -1.8 -1.8 -1.8 -1.8 -1.8 -1.8 -1.8 -1.8 -1.7 -1.6 -1.6 -1.5 -1.5 -1.4 -1.4 -1.3 -1.3 -1.3 -1.3 -1.2 -1.1 -1 -1 -0.9 -0.9 -0.8 -0.7 -0.7 -0.6 -0.4 -0.3 -0.1 0.1 0.2 0.5 0.7 1 1.2 1.4 1.6 1.9 2.1
-1.8 -1.8 -1.8 -1.8 -1.8 -1.8 -1.8 -1.8 -1.8 -1 -0.4 0.2 1 1.9 2.5 3 2.8 2.4 2.4 2.6 2.7 3.4 8 12.9 16.3 20.4 22.7 20.4 18.4 16.6 15.4 13.7 12.3 12.1 12 11.7 11.1 10.8 10.4 11.3 13.7 15.9 16.1 15.8 14 12 9.8 8.8 7.3 7.2 7.7 8.6 9.1 9.3 9.5 8.8 8.1 7.4 2 1.6 1.2 0.7 0.3 -0.1 -0.4 -0.8 -1.8 -1.8 -1.8 -1.8 -1.8 -1.8 -1.8 -1.8 -1.8 -1.8 -1.8 -1.8 -1.8 -1.8 -1.8 -1.8 -1.8 -1.8 -1.8 -1.8 -1.8 -1.8 -1.8 -1.8 -1.8 -1.8 -1.8 -1.8 -1.8 -1.8 -1.6 -1.5 -1.4 -1.4 -1.3 -1.2 -1.1 -1 -0.9 -0.8 -0.8 -0.7 -0.7 -0.8 -0.8 -0.8 -0.9 -0.9 -0.9 -1 -1 -1 -1.1 -1.1 -1.1 -1.2 -1.2 -1.2 -1.3 -1.3 -1.4 -1.4 -1.4 -1.6 -1.8 -1.8 -1.8 -1.8 -1.8 -1.8 -1.8 -1.8 -1.8 -1.5 -1.5 -1.5 -1.6 -1.6 -1.6 -1.6 -1.6 -1.6 -1.6 -1.6 -1.7 -1.7 -1.8 -1.8 -1.8 -1.8 -1.8 -1.8 -1.8 -1.8 -1.8 -1.8 -1.8 -1.7 -1.6 -1.5 -1.5 -1.4 -1.4 -1.3 -1.3 -1.2 -1.2 -1.1 -1.1 -1.1 -1.1 -1 -0.9 -0.8 -0.8 -0.7 -0.6 -0.6 -0.5 -0.5 -0.4 -0.2 -0.1 0.1 0.2 0.4 0.6 0.8 1.1 1.3 1.6 1.8 2 2.2
-1.8 -1.8 -1.8 -1.8 -1.8 -1.8 -1.8 -1.8 -1.8 -1.8 -1.8 -1.8 -0.5 0.3 1 1.8 2.8 1.8 2.4 2.5 2.6 2.9 2.7 6.2 7.8 11.1 14.3 18.1 16.6 15.1 13.5 12.3 9.9 10.4 10.6 9.3 8.2 7.5 7 8.1 8.5 8.3 7.9 7.5 7 7.1 7 6.5 5.4 4.9 4.8 4.8 4.6 3.6 3.1 3.3 2.4 1.9 1.4 0.9 0.5 0.1 -0.4 -0.8 -1.1 -1.8 -1.8 -1.8 -1.8 -1.8 -1.8 -1.8 -1.8 -1.8 -1.8 -1.8 -1.8 -1.8 -1.8 -1.8 -1.8 -1.8 -1.8 -1.8 -1.8 -1.8 -1.8 -1.8 -1.8 -1.8 -1.8 -1.8 -1.8 -1.8 -1.8 -1.6 -1.5 -1.3 -1.3 -1.2 -1.2 -1.1 -1 -0.9 -0.8 -0.7 -0.7 -0.6 -0.6 -0.6 -0.7 -0.7 -0.7 -0.8 -0.8 -0.8 -0.9 -0.9 -0.9 -1 -1 -1 -1.1 -1.1 -1.1 -1.2 -1.2 -1.3 -1.3 -1.6 -1.8 -1.8 -1.8 -1.8 -1.8 -1.8 -1.8 -1.8 -1.8 -1.3 -1.3 -1.3 -1.4 -1.4 -1.4 -1.4 -1.4 -1.4 -1.4 -1.4 -1.5 -1.5 -1.5 -1.5 -1.5 -1.5 -1.6 -1.6 -1.6 -1.6 -1.6 -1.5 -1.5 -1.4 -1.4 -1.3 -1.3 -1.2 -1.2 -1.1 -1.1 -1 -1 -0.9 -0.9 -0.9 -0.9 -0.8 -0.7 -0.6 -0.6 -0.5 -0.4 -0.4 -0.3 -0.2 -0.2 -0.1 0.1 0.2 0.4 0.6 0.8 0.9 1.2 1.4 1.6 1.9 2.2 4.3
-1.8 -1.8 -1.8 -1.8 -1.8 -1.8 -1.8 -1.8 -1.8 -1.8 -1.8 -1.8 -1.8 -1.8 -0.4 0.3 0.9 1.6 2.3 2.3 2.5 2.6 2.9 2.7 2.5 5.5 6.9 9.4 12.9 11.7 10.8 9.1 5.5 5.6 5.6 4.7 3.6 3.3 3.3 3.6 3.2 2.8 2.9 2.6 2.8 2.9 2.8 2.9 3.1 3 3.2 2.9 3 2.8 2.9 2 1.5 1.1 0.7 0.2 -0.2 -0.6 -1.1 -1.8 -1.8 -1.8 -1.8 -1.8 -1.8 -1.8 -1.8 -1.8 -1.8 -1.8 -1.8 -1.8 -1.8 -1.8 -1.8 -1.8 -1.8 -1.8 -1.8 -1.8 -1.8 -1.8 -1.8 -1.8 -1.8 -1.8 -1.8 -1.8 -1.8 -1.8 -1.6 -1.4 -1.3 -1.2 -1.1 -1.1 -1 -0.9 -0.9 -0.8 -0.7 -0.6 -0.5 -0.5 -0.5 -0.5 -0.5 -0.6 -0.6 -0.6 -0.7 -0.7 -0.7 -0.8 -0.8 -0.8 -0.9 -0.9 -0.9 -1 -1 -1 -1.1 -1.1 -1.3 -1.5 -1.8 -1.8 -1.8 -1.8 -1.8 -1.8 -1.8 -1.8 -1.6 -1.1 -1.1 -1.2 -1.2 -1.2 -1.2 -1.2 -1.2 -1.2 -1.2 -1.2 -1.3 -1.3 -1.3 -1.3 -1.3 -1.3 -1.3 -1.4 -1.4 -1.4 -1.4 -1.3 -1.3 -1.2 -1.2 -1.1 -1.1 -1 -1 -0.9 -0.9 -0.8 -0.8 -0.7 -0.7 -0.7 -0.6 -0.6 -0.5 -0.4 -0.4 -0.3 -0.2 -0.2 -0.1 0 0 0.1 0.3 0.5 0.6 0.7 0.9 1.1 1.3 1.5 1.7 2 2.2 4.3
-1.8 -1.8 -1.8 -1.8 -1.8 -1.8 -1.8 -1.8 -1.8 -1.8 -1.8 -1.8 -1.8 -1.8 -1.8 -1.8 -1.8 -0.1 0.7 1.3 2.1 2 2 2.6 2.4 2.7 2.7 2.6 2.7 4.3 3.8 3.3 3.5 3.2 2.9 2.9 2.9 2.6 3 3.1 2.8 2.7 2.8 2.5 2.9 3.1 2.9 2.9 2.6 3 3.2 2.6 2.3 2.1 1.6 1.1 0.7 0.2 -0.1 -0.5 -0.9 -1.8 -1.8 -1.8 -1.8 -1.8 -1.8 -1.8 -1.8 -1.8 -1.8 -1.8 -1.8 -1.8 -1.8 -1.8 -1.8 -1.8 -1.8 -1.8 -1.8 -1.8 -1.8 -1.8 -1.8 -1.8 -1.8 -1.8 -1.8 -1.8 -1.8 -1.8 -1.8 -1.6 -1.4 -1.3 -1.2 -1.1 -0.9 -0.9 -0.9 -0.8 -0.7 -0.7 -0.6 -0.5 -0.4 -0.4 -0.3 -0.3 -0.4 -0.4 -0.4 -0.5 -0.5 -0.6 -0.6 -0.6 -0.7 -0.7 -0.7 -0.8 -0.8 -0.8 -0.9 -0.9 -0.9 -1 -1.3 -1.5 -1.8 -1.8 -1.8 -1.8 -1.8 -1.8 -1.8 -1.8 -1.3 -0.9 -1 -1 -1 -1 -1 -1 -1 -1 -1 -1 -1.1 -1.1 -1.1 -1.1 -1.1 -1.1 -1.1 -1.1 -1.1 -1.1 -1.1 -1.1 -1.1 -1 -1 -0.9 -0.9 -0.8 -0.8 -0.7 -0.7 -0.6 -0.6 -0.5 -0.5 -0.5 -0.4 -0.4 -0.3 -0.2 -0.2 -0.1 0 0 0.1 0.2 0.3 0.4 0.5 0.6 0.8 0.9 1.1 1.3 1.5 1.6 1.8 2.1 3 4.2
-1.8 -1.8 -1.8 -1.8 -1.8 -1.8 -1.8 -1.8 -1.8 -1.8 -1.8 -1.8 -1.8 -1.8 -1.8 -1.8 -1.8 -1.8 -1.8 -1.8 0.4 1.3 1.9 1.7 2.2 2.9 2.8 2.6 2.5 2.6 2.7 2.7 2.9 3 3.6 2.7 3.4 3 3.1 2.8 2.7 2.8 2.9 2.4 2.8 4.3 2.8 3 2.3 2.6 2.2 2.1 1.6 1.1 0.7 0.2 -0.1 -0.6 -1 -1.8 -1.8 -1.8 -1.8 -1.8 -1.8 -1.8 -1.8 -1.8 -1.8 -1.8 -1.8 -1.8 -1.8 -1.8 -1.8 -1.8 -1.8 -1.8 -1.8 -1.8 -1.8 -1.8 -1.8 -1.8 -1.8 -1.8 -1.8 -1.8 -1.8 -1.8 -1.8 -1.8 -1.6 -1.4 -1.3 -1.2 -1 -0.9 -0.8 -0.8 -0.8 -0.7 -0.6 -0.6 -0.5 -0.4 -0.3 -0.2 -0.2 -0.2 -0.2 -0.3 -0.3 -0.3 -0.4 -0.4 -0.5 -0.5 -0.5 -0.6 -0.6 -0.6 -0.7 -0.7 -0.7 -0.8 -0.8 -1 -1.3 -1.5 -1.8 -1.8 -1.8 -1.8 -1.8 -1.8 -1.8 -1.7 -1 -0.8 -0.8 -0.8 -0.8 -0.8 -0.8 -0.9 -0.8 -0.8 -0.8 -0.8 -0.9 -0.9 -0.9 -0.9 -0.9 -0.9 -0.9 -0.9 -0.9 -0.9 -0.9 -0.9 -0.9 -0.8 -0.8 -0.7 -0.7 -0.6 -0.6 -0.5 -0.5 -0.4 -0.4 -0.3 -0.3 -0.3 -0.2 -0.2 -0.1 0 0 0.1 0.2 0.3 0.3 0.4 0.5 0.6 0.7 0.8 1 1.1 1.3 1.4 1.6 1.8 2 2.2 4 2.3
-1.8 -1.8 -1.8 -1.8 -1.8 -1.8 -1.8 -1.8 -1.8 -1.8 -1.8 -1.8 -1.8 -1.8 -1.8 -1.8 -1.8 -1.8 -1.8 -1.8 -1.8 0 0.5 1.2 1.8 2.2 2.6 2.8 2.1 2.5 2.6 2.6 2.9 2.7 2.6 2.9 2.7 2.6 2.9 2.6 2.6 2.8 2.9 2.5 2.9 2.3 2.1 1.9 1.6 1.4 1.2 1 0.6 0.2 -0.3 -0.7 -1 -1.8 -1.8 -1.8 -1.8 -1.8 -1.8 -1.8 -1.8 -1.8 -1.8 -1.8 -1.8 -1.8 -1.8 -1.8 -1.8 -1.8 -1.8 -1.8 -1.8 -1.8 -1.8 -1.8 -1.8 -1.8 -1.8 -1.8 -1.8 -1.8 -1.8 -1.8 -1.8 -1.8 -1.8 -1.6 -1.4 -1.3 -1.1 -1 -0.9 -0.8 -0.7 -0.6 -0.6 -0.6 -0.5 -0.4 -0.4 -0.3 -0.2 -0.1 -0.1 -0.1 -0.1 -0.1 -0.2 -0.2 -0.2 -0.3 -0.3 -0.3 -0.4 -0.4 -0.5 -0.5 -0.5 -0.6 -0.6 -0.6 -0.7 -1 -1.3 -1.5 -1.8 -1.8 -1.8 -1.8 -1.8 -1.8 -1.8 -1.4 -0.7 -0.6 -0.6 -0.6 -0.6 -0.6 -0.7 -0.7 -0.6 -0.6 -0.6 -0.6 -0.7 -0.7 -0.7 -0.7 -0.7 -0.7 -0.7 -0.7 -0.7 -0.7 -0.7 -0.7 -0.7 -0.6 -0.6 -0.5 -0.5 -0.4 -0.4 -0.3 -0.3 -0.2 -0.2 -0.1 -0.1 -0.1 0 0 0.1 0.2 0.2 0.3 0.4 0.5 0.5 0.6 0.7 0.8 0.9 1 1.1 1.3 1.5 1.6 1.8 2 2.2 3.9 3 2.3
-0.1 -0.5 -1.8 -1.8 -1.8 -1.8 -1.8 -1.8 -1.8 -1.8 -1.8 -1.8 -1.8 -1.8 -1.8 -1.8 -1.8 -1.8 -1.8 -1.8 -1.8 -1.8 -0.8 -0.2 0.4 0.8 1.2 1.4 1.5 1.8 2 2.1 2.5 2.4 2.3 2.9 2.2 2 2 1.8 2.5 2.1 1.9 1.7 1.5 1.4 1.1 0.9 0.6 0.4 0.1 -0.1 -0.5 -0.9 -1.8 -1.8 -1.8 -1.8 -1.8 -1.8 -1.8 -1.8 -1.8 -1.8 -1.8 -1.8 -1.8 -1.8 -1.8 -1.8 -1.8 -1.8 -1.8 -1.8 -1.8 -1.8 -1.8 -1.8 -1.8 -1.8 -1.8 -1.8 -1.8 -1.8 -1.8 -1.8 -1.8 -1.8 -1.8 -1.8 -1.6 -1.4 -1.3 -1.1 -1 -0.8 -0.7 -0.6 -0.5 -0.5 -0.5 -0.5 -0.4 -0.3 -0.2 -0.2 -0.1 0 0.1 0.1 0 0 0 -0.1 -0.1 -0.1 -0.2 -0.2 -0.2 -0.3 -0.3 -0.4 -0.4 -0.4 -0.5 -0.5 -0.7 -1 -1.3 -1.5 -1.8 -1.8 -1.8 -1.8 -1.8 -1.8 -1.7 -1.1 -0.5 -0.4 -0.4 -0.4 -0.4 -0.5 -0.5 -0.5 -0.5 -0.4 -0.4 -0.4 -0.5 -0.5 -0.5 -0.5 -0.5 -0.5 -0.5 -0.5 -0.5 -0.5 -0.5 -0.5 -0.5 -0.4 -0.4 -0.3 -0.3 -0.2 -0.2 -0.1 -0.1 0 0 0.1 0.1 0.1 0.2 0.2 0.3 0.4 0.5 0.5 0.6 0.7 0.7 0.8 0.9 1 1.1 1.2 1.3 1.5 1.7 1.8 2 2.1 3.2 3.3 2.6 2.6
1.2 0.8 0.5 0.1 -0.5 -1.8 -1.8 -1.8 -1.8 -1.8 -1.8 -1.8 -1.8 -1.8 -1.8 -1.8 -1.8 -1.8 -1.8 -1.8 -1.8 -1.8 -1.8 -1.8 -1.8 -0.5 0 0.1 0.4 0.7 0.9 1.2 1.5 1.7 1.8 1.7 1.7 1.7 1.6 1.6 1.3 1.1 0.9 0.7 0.6 0.4 0.2 0 -0.3 -0.6 -0.9 -1.8 -1.8 -1.8 -1.8 -1.8 -1.8 -1.8 -1.8 -1.8 -1.8 -1.8 -1.8 -1.8 -1.8 -1.8 -1.8 -1.8 -1.8 -1.8 -1.8 -1.8 -1.8 -1.8 -1.8 -1.8 -1.8 -1.8 -1.8 -1.8 -1.8 -1.8 -1.8 -1.8 -1.8 -1.8 -1.8 -1.8 -1.8 -1.6 -1.4 -1.2 -1.1 -1 -0.8 -0.7 -0.6 -0.5 -0.4 -0.3 -0.3 -0.3 -0.3 -0.2 -0.1 -0.1 0 0.1 0.2 0.2 0.2 0.1 0.1 0.1 0 0 0 -0.1 -0.1 -0.1 -0.2 -0.2 -0.2 -0.3 -0.3 -0.4 -0.7 -1 -1.3 -1.5 -1.8 -1.8 -1.8 -1.8 -1.8 -1.8 -1.4 -0.8 -0.2 -0.2 -0.2 -0.2 -0.3 -0.3 -0.3 -0.3 -0.3 -0.2 -0.2 -0.2 -0.3 -0.3 -0.3 -0.3 -0.3 -0.3 -0.3 -0.3 -0.3 -0.3 -0.3 -0.3 -0.2 -0.2 -0.2 -0.1 -0.1 0 0 0.1 0.1 0.2 0.2 0.3 0.3 0.3 0.4 0.4 0.5 0.6 0.7 0.7 0.8 0.9 0.9 1 1.1 1.2 1.3 1.4 1.5 1.7 1.8 2 2.2 4.1 4.5 4.1 7.3 9
3 2.2 1.9 1.7 1.5 0.9 -0.1 -1.8 -1.8 -1.8 -1.8 -1.8 -1.8 -1.8 -1.8 -1.8 -1.8 -1.8 -1.8 -1.8 -1.8 -1.8 -1.8 -1.8 -1.8 -1.8 -1.8 -1 -0.7 -0.4 -0.2 0 0.3 0.5 0.6 0.6 0.6 0.6 0.6 0.6 0.3 0.1 -0.1 -0.2 -0.4 -0.5 -0.7 -1 -1.8 -1.8 -1.8 -1.8 -1.8 -1.8 -1.8 -1.8 -1.8 -1.8 -1.8 -1.8 -1.8 -1.8 -1.8 -1.8 -1.8 -1.8 -1.8 -1.8 -1.8 -1.8 -1.8 -1.8 -1.8 -1.8 -1.8 -1.8 -1.8 -1.8 -1.8 -1.8 -1.8 -1.8 -1.8 -1.8 -1.8 -1.8 -1.8 -1.8 -1.8 -1.4 -1.2 -1 -0.9 -0.8 -0.6 -0.6 -0.5 -0.3 -0.2 -0.1 -0.1 -0.1 -0.1 -0.1 0 0.1 0.1 0.2 0.3 0.3 0.3 0.3 0.2 0.2 0.2 0.1 0.1 0.1 0 0 0 -0.1 -0.1 -0.1 -0.2 -0.4 -0.7 -1 -1.2 -1.5 -1.8 -1.8 -1.8 -1.8 -1.8 -1.8 -1.2 -0.5 0 0 0 -0.1 -0.1 -0.1 -0.1 -0.1 -0.1 0 0 0 -0.1 -0.1 -0.1 -0.1 -0.1 -0.1 -0.1 -0.1 -0.1 -0.1 -0.1 -0.1 0 0 0 0.1 0.1 0.2 0.2 0.3 0.3 0.4 0.4 0.5 0.5 0.5 0.6 0.6 0.7 0.8 0.9 0.9 1 1.1 1.2 1.2 1.3 1.4 1.5 1.6 1.7 1.9 2 2.2 4.1 5.4 8.2 10 14.1 14.6
2 2.9 3.3 3.3 2.5 2.4 2.1 0.9 -1.8 -1.8 -1.8 -1.8 -1.8 -1.8 -1.8 -1.8 -1.8 -1.8 -1.8 -1.8 -1.8 -1.8 -1.8 -1.8 -1.8 -1.8 -1.8 -1.8 -1.8 -1.8 -1.8 -1.1 -0.9 -0.7 -0.6 -0.6 -0.5 -0.5 -0.5 -0.5 -0.7 -0.9 -1.1 -1.2 -1.8 -1.8 -1.8 -1.8 -1.8 -1.8 -1.8 -1.8 -1.8 -1.8 -1.8 -1.8 -1.8 -1.8 -1.8 -1.8 -1.8 -1.8 -1.8 -1.8 -1.8 -1.8 -1.8 -1.8 -1.8 -1.8 -1.8 -1.8 -1.8 -1.8 -1.8 -1.8 -1.8 -1.8 -1.8 -1.8 -1.8 -1.8 -1.8 -1.8 -1.8 -1.8 -1.8 -1.6 -1.4 -1.2 -1 -0.8 -0.7 -0.6 -0.5 -0.4 -0.3 -0.2 -0.1 0 0 0 0 0 0.1 0.2 0.3 0.3 0.4 0.4 0.4 0.4 0.4 0.3 0.3 0.3 0.2 0.2 0.2 0.1 0.1 0.1 0 0 -0.1 -0.4 -0.7 -1 -1.2 -1.5 -1.8 -1.8 -1.8 -1.8 -1.8 -1.5 -0.9 -0.2 0.2 0.1 0.1 0.1 0.1 0.1 0.1 0.1 0.1 0.1 0.2 0.2 0.1 0.1 0.1 0.1 0.1 0.1 0.1 0.1 0.1 0.1 0.1 0.1 0.2 0.2 0.2 0.3 0.3 0.4 0.4 0.5 0.5 0.6 0.6 0.7 0.7 0.7 0.8 0.8 0.9 1 1.1 1.1 1.2 1.3 1.4 1.4 1.5 1.6 1.7 1.8 1.9 2 2.2 4.6 8.6 12.5 17.9 17.3 16.3 16
2.7 2.5 2.1 3.7 3 2.7 2.6 2.4 2.1 0.6 -1.8 -1.8 -1.8 -1.8 -1.8 -1.8 -1.8 -1.8 -1.8 -1.8 -1.8 -1.8 -1.8 -1.8 -1.8 -1.8 -1.8 -1.8 -1.8 -1.8 -1.8 -1.8 -1.8 -1.8 -1.8 -1.7 -1.7 -1.6 -1.5 -1.5 -1.6 -1.8 -1.8 -1.8 -1.8 -1.8 -1.8 -1.8 -1.8 -1.8 -1.8 -1.8 -1.8 -1.8 -1.8 -1.8 -1.8 -1.8 -1.8 -1.8 -1.8 -1.8 -1.8 -1.8 -1.8 -1.8 -1.8 -1.8 -1.8 -1.8 -1.8 -1.8 -1.8 -1.8 -1.8 -1.8 -1.8 -1.8 -1.8 -1.8 -1.8 -1.8 -1.8 -1.8 -1.8 -1.8 -1.6 -1.3 -1.1 -1 -0.9 -0.7 -0.5 -0.4 -0.3 -0.2 -0.1 -0.1 0 0.2 0.2 0.2 0.2 0.2 0.2 0.3 0.4 0.4 0.5 0.6 0.6 0.5 0.5 0.5 0.4 0.4 0.4 0.3 0.3 0.3 0.2 0.2 0.2 0.1 -0.1 -0.4 -0.7 -1 -1.2 -1.5 -1.8 -1.8 -1.8 -1.8 -1.8 -1.2 -0.6 0 0.4 0.3 0.3 0.3 0.3 0.3 0.3 0.3 0.3 0.3 0.4 0.4 0.3 0.3 0.3 0.3 0.3 0.3 0.3 0.3 0.3 0.3 0.3 0.4 0.4 0.4 0.5 0.5 0.5 0.6 0.6 0.7 0.7 0.8 0.8 0.9 0.9 0.9 1 1.1 1.1 1.2 1.3 1.3 1.4 1.5 1.6 1.6 1.7 1.8 1.9 2 2.1 2.2 4.4 10.4 14.7 19.3 18.9 18.8 17.7 17
1.8 2.6 2.5 2.6 2.5 3.1 2.7 2.8 2.8 2.5 1.2 -0.3 -1.8 -1.8 -1.8 -1.8 -1.8 -1.8 -1.8 -1.8 -1.8 -1.8 -1.8 -1.8 -1.8 -1.8 -1.8 -1.8 -1.8 -1.8 -1.8 -1.8 -1.8 -1.8 -1.8 -1.8 -1.8 -1.8 -1.8 -1.8 -1.8 -1.8 -1.8 -1.8 -1.8 -1.8 -1.8 -1.8 -1.8 -1.8 -1.8 -1.8 -1.8 -1.8 -1.8 -1.8 -1.8 -1.8 -1.8 -1.8 -1.8 -1.8 -1.8 -1.8 -1.8 -1.8 -1.8 -1.8 -1.8 -1.8 -1.8 -1.8 -1.8 -1.8 -1.8 -1.8 -1.8 -1.8 -1.8 -1.8 -1.8 -1.8 -1.8 -1.8 -1.8 -1.6 -1.3 -1.1 -0.9 -0.8 -0.6 -0.5 -0.3 -0.2 -0.1 0 0 0.1 0.2 0.3 0.4 0.3 0.3 0.3 0.3 0.4 0.5 0.6 0.6 0.7 0.7 0.7 0.7 0.6 0.6 0.5 0.5 0.5 0.4 0.4 0.4 0.3 0.3 0.2 -0.1 -0.4 -0.7 -1 -1.2 -1.5 -1.8 -1.8 -1.8 -1.8 -1.6 -1 -0.3 0.3 0.5 0.5 0.5 0.5 0.5 0.5 0.5 0.5 0.5 0.5 0.6 0.6 0.5 0.5 0.5 0.5 0.5 0.6 0.6 0.5 0.6 0.6 0.6 0.6 0.6 0.6 0.7 0.7 0.8 0.8 0.8 0.9 0.9 1 1 1.1 1.1 1.1 1.2 1.3 1.3 1.4 1.5 1.5 1.6 1.7 1.8 1.8 1.9 2 2.1 2.2 4.4 6.2 11.6 18.7 21.1 20.8 20.6 20.5 19 17.9
2.1 2.1 2.5 2.6 2.6 2.3 2.3 4.1 3 2.7 2.4 1.3 -0.1 -1.8 -1.8 -1.8 -1.8 -1.8 -1.8 -1.8 -1.8 -1.8 -1.8 -1.8 -1.8 -1.8 -1.8 -1.8 -1.8 -1.8 -1.8 -1.8 -1.8 -1.8 -1.8 -1.8 -1.8 -1.8 -1.8 -1.8 -1.8 -1.8 -1.8 -1.8 -1.8 -1.8 -1.8 -1.8 -1.8 -1.8 -1.8 -1.8 -1.8 -1.8 -1.8 -1.8 -1.8 -1.8 -1.8 -1.8 -1.8 -1.8 -1.8 -1.8 -1.8 -1.8 -1.8 -1.8 -1.8 -1.8 -1.8 -1.8 -1.8 -1.8 -1.8 -1.8 -1.8 -1.8 -1.8 -1.8 -1.8 -1.8 -1.8 -1.8 -1.6 -1.3 -1.1 -0.9 -0.7 -0.5 -0.4 -0.3 -0.1 0 0.1 0.1 0.2 0.3 0.4 0.4 0.5 0.5 0.5 0.5 0.5 0.5 0.6 0.7 0.8 0.8 0.8 0.8 0.8 0.8 0.7 0.7 0.7 0.6 0.6 0.5 0.5 0.5 0.4 0.2 -0.1 -0.4 -0.7 -1 -1.2 -1.5 -1.8 -1.8 -1.8 -1.8 -1.3 -0.7 0 0.6 0.7 0.7 0.7 0.7 0.7 0.7 0.7 0.6 0.7 0.7 0.7 0.8 0.7 0.7 0.7 0.7 0.8 0.8 0.8 0.8 0.8 0.8 0.8 0.8 0.8 0.8 0.9 0.9 1 1 1 1.1 1.1 1.2 1.2 1.3 1.3 1.4 1.4 1.5 1.5 1.6 1.7 1.7 1.8 1.9 2 2.1 2.1 2.2 4.3 6.9 11.2 16 21.4 22.6 22.3 22.7 22.5 21.8 20.3 19.3
1.9 1.9 2.1 2.4 2.8 2.6 2.2 2 2.1 3.9 2.5 2.3 1.2 0.1 -1.8 -1.8 -1.8 -1.8 -1.8 -1.8 -1.8 -1.8 -1.8 -1.8 -1.8 -1.8 -1.8 -1.8 -1.8 -1.8 -1.8 -1.8 -1.8 -1.8 -1.8 -1.8 -1.8 -1.8 -1.8 -1.8 -1.8 -1.8 -1.8 -1.8 -1.8 -1.8 -1.8 -1.8 -1.8 -1.8 -1.8 -1.8 -1.8 -1.8 -1.8 -1.8 -1.8 -1.8 -1.8 -1.8 -1.8 -1.8 -1.8 -1.8 -1.8 -1.8 -1.8 -1.8 -1.8 -1.8 -1.8 -1.8 -1.8 -1.8 -1.8 -1.8 -1.8 -1.8 -1.8 -1.8 -1.8 -1.8 -1.8 -1.8 -1.3 -1.1 -0.9 -0.7 -0.4 -0.2 -0.2 -0.1 0.1 0.3 0.3 0.3 0.4 0.5 0.5 0.6 0.7 0.7 0.7 0.6 0.7 0.7 0.7 0.8 0.9 0.9 1 1 0.9 0.9 0.9 0.8 0.8 0.8 0.7 0.7 0.6 0.6 0.5 0.2 -0.1 -0.4 -0.7 -1 -1.2 -1.5 -1.8 -1.8 -1.8 -1.7 -1 -0.4 0.2 0.9 0.9 0.9 0.9 0.9 0.9 0.9 0.8 0.8 0.8 0.9 0.9 0.9 0.9 0.9 0.9 1 1 1 1 1 1 1 1 1 1 1 1.1 1.1 1.2 1.2 1.3 1.3 1.3 1.4 1.4 1.5 1.5 1.6 1.6 1.7 1.7 1.8 1.9 1.9 2 2.1 2.2 2.7 4.3 6.2 12.5 12.9 19.2 21 22.2 23.4 23.8 24.4 23.9 23 22.1 20.9
1.8 1.8 2.2 2.5 2.7 2.7 2.2 2.2 2.2 2.2 2.1 2.3 2.3 1.3 0.3 -0.6 -1.8 -1.8 -1.8 -1.8 -1.8 -1.8 -1.8 -1.8 -1.8 -1.8 -1.8 -1.8 -1.8 -1.8 -1.8 -1.8 -1.8 -1.8 -1.8 -1.8 -1.8 -1.8 -1.8 -1.8 -1.8 -1.8 -1.8 -1.8 -1.8 -1.8 -1.8 -1.8 -1.8 -1.8 -1.8 -1.8 -1.8 -1.8 -1.8 -1.8 -1.8 -1.8 -1.8 -1.8 -1.8 -1.8 -1.8 -1.8 -1.8 -1.8 -1.8 -1.8 -1.8 -1.8 -1.8 -1.8 -1.8 -1.8 -1.8 -1.8 -1.8 -1.8 -1.8 -1.8 -1.8 -1.8 -1.8 -1.3 -1.1 -0.9 -0.6 -0.4 -0.2 0 0.1 0.2 0.3 0.5 0.5 0.5 0.6 0.6 0.7 0.7 0.8 0.8 0.8 0.8 0.8 0.8 0.8 0.9 1 1.1 1.1 1.1 1.1 1 1 1 0.9 0.9 0.9 0.8 0.8 0.7 0.5 0.2 -0.1 -0.4 -0.7 -0.9 -1.2 -1.5 -1.8 -1.8 -1.8 -1.4 -0.7 -0.1 0.5 1.1 1.1 1.1 1.1 1.1 1.1 1 1 1 1 1.1 1.1 1.1 1.1 1.1 1.1 1.2 1.2 1.2 1.2 1.2 1.2 1.2 1.2 1.2 1.2 1.3 1.3 1.3 1.4 1.4 1.5 1.5 1.5 1.6 1.6 1.7 1.7 1.8 1.8 1.9 1.9 2 2 2.1 2.2 4.2 5.6 7.2 11.7 15.3 13.5 18.3 20.4 21.5 23.1 24.6 25.6 26 25.4 24.9 24 23.3
2.6 2.5 1.7 2.4 2.3 2.3 2.2 2.3 2.4 2.2 3.3 2.6 4.8 2.4 1.4 0.4 -0.4 -1.8 -1.8 -1.8 -1.8 -1.8 -1.8 -1.8 -1.8 -1.8 -1.8 -1.8 -1.8 -1.8 -1.8 -1.8 -1.8 -1.8 -1.8 -1.8 -1.8 -1.8 -1.8 -1.8 -1.8 -1.8 -1.8 -1.8 -1.8 -1.8 -1.8 -1.8 -1.8 -1.8 -1.8 -1.8 -1.8 -1.8 -1.8 -1.8 -1.8 -1.8 -1.8 -1.8 -1.8 -1.8 -1.8 -1.8 -1.8 -1.8 -1.8 -1.8 -1.8 -1.8 -1.8 -1.8 -1.8 -1.8 -1.8 -1.8 -1.8 -1.8 -1.8 -1.8 -1.8 -1.5 -1.2 -1 -0.8 -0.5 -0.4 -0.1 0 0.2 0.4 0.4 0.5 0.7 0.7 0.8 0.8 0.8 0.9 0.9 1 1 1 1 1 1 1 1 1.1 1.2 1.2 1.2 1.2 1.2 1.1 1.1 1.1 1 1 1 0.9 0.7 0.5 0.2 -0.1 -0.4 -0.7 -0.9 -1.2 -1.5 -1.8 -1.8 -1.7 -1.1 -0.5 0.2 0.8 1.3 1.3 1.2 1.2 1.2 1.2 1.2 1.2 1.2 1.2 1.3 1.3 1.3 1.3 1.3 1.4 1.4 1.4 1.4 1.4 1.4 1.4 1.4 1.4 1.4 1.4 1.5 1.5 1.5 1.6 1.6 1.7 1.7 1.8 1.8 1.8 1.9 1.9 2 2 2.1 2.1 2.2 2.3 3.7 5.7 10.9 13 13.8 11.5 16.1 17 18.6 20.8 22.2 24.7 25.6 27 27.3 26.9 27 26.3 26.9
2.6 2.3 2.2 1.6 2.3 2.2 2.1 2.2 2.4 2 1.9 1.6 1.3 4.8 2.4 1.5 0.5 -0.3 -1 -1.8 -1.8 -1.8 -1.8 -1.8 -1.8 -1.8 -1.8 -1.8 -1.8 -1.8 -1.8 -1.8 -1.8 -1.8 -1.8 -1.8 -1.8 -1.8 -1.8 -1.8 -1.8 -1.8 -1.8 -1.8 -1.8 -1.8 -1.8 -1.8 -1.8 -1.8 -1.8 -1.8 -1.8 -1.8 -1.8 -1.8 -1.8 -1.8 -1.8 -1.8 -1.8 -1.8 -1.8 -1.8 -1.8 -1.8 -1.8 -1.8 -1.8 -1.8 -1.8 -1.8 -1.8 -1.8 -1.8 -1.8 -1.8 -1.8 -1.8 -1.8 -1.5 -1.2 -0.9 -0.7 -0.5 -0.3 -0.1 0.1 0.3 0.5 0.7 0.7 0.8 0.8 1 0.9 1 1 1 1.1 1.1 1.2 1.2 1.1 1.1 1.1 1.1 1.1 1.2 1.3 1.4 1.4 1.3 1.3 1.3 1.2 1.2 1.2 1.1 1.1 1 0.7 0.5 0.2 -0.1 -0.4 -0.7 -0.9 -1.2 -1.5 -1.8 -1.8 -1.4 -0.8 -0.2 0.5 1.1 1.5 1.4 1.4 1.4 1.4 1.4 1.4 1.4 1.4 1.4 1.4 1.5 1.5 1.5 1.5 1.6 1.6 1.6 1.6 1.6 1.6 1.6 1.6 1.6 1.6 1.7 1.7 1.7 1.7 1.8 1.8 1.9 1.9 2 2 2 2.1 2.1 2.2 2.2 3.3 4.6 6 9.4 10.9 11.4 12.5 10.4 13.5 14.6 16 16.9 18.7 21.2 23.2 25.3 27.5 29.1 28.9 28.7 29.2 30.5 31.5
2.3 2.2 2.4 2 2.2 2.2 2 2.1 2.2 2 2.1 2.2 2.1 1.4 3.4 2.3 1.3 0.5 -0.1 -0.8 -1.8 -1.8 -1.8 -1.8 -1.8 -1.8 -1.8 -1.8 -1.8 -1.8 -1.8 -1.8 -1.8 -1.8 -1.8 -1.8 -1.8 -1.8 -1.8 -1.8 -1.8 -1.8 -1.8 -1.8 -1.8 -1.8 -1.8 -1.8 -1.8 -1.8 -1.8 -1.8 -1.8 -1.8 -1.8 -1.8 -1.8 -1.8 -1.8 -1.8 -1.8 -1.8 -1.8 -1.8 -1.8 -1.8 -1.8 -1.8 -1.8 -1.8 -1.8 -1.8 -1.8 -1.8 -1.8 -1.8 -1.8 -1.8 -1.8 -1.4 -1.2 -0.9 -0.6 -0.4 -0.2 0 0.2 0.4 0.6 0.7 0.9 1 1.1 1.1 1.2 1.2 1.2 1.2 1.2 1.3 1.3 1.4 1.3 1.3 1.3 1.3 1.3 1.3 1.3 1.4 1.5 1.5 1.5 1.4 1.4 1.4 1.3 1.3 1.3 1.2 1 0.7 0.5 0.2 -0.1 -0.4 -0.7 -0.9 -1.2 -1.5 -1.8 -1.8 -1.2 -0.5 0.1 0.7 1.4 1.6 1.6 1.6 1.6 1.6 1.6 1.6 1.6 1.6 1.6 1.6 1.7 1.7 1.7 1.7 1.8 1.8 1.8 1.8 1.8 1.8 1.8 1.8 1.8 1.8 1.9 1.9 1.9 2 2 2 2.1 2.1 2.2 2.2 2.2 3.4 3.9 6 8 8 8.4 9.4 9.1 9.7 9.8 11.9 12.7 13.5 14.8 16.4 16.9 18.4 21.1 23.3 26.2 28.3 30 30.6 31.2 31.9 36.5 37.2
2.5 2.6 2.4 2.3 2.2 2.1 2 2.3 2 2.4 2.3 2.3 2.1 1.6 2.3 3.6 2 1.3 0.7 0.1 -0.5 -1.1 -1.8 -1.8 -1.8 -1.8 -1.8 -1.8 -1.8 -1.8 -1.8 -1.8 -1.8 -1.8 -1.8 -1.8 -1.8 -1.8 -1.8 -1.8 -1.8 -1.8 -1.8 -1.8 -1.8 -1.8 -1.8 -1.8 -1.8 -1.8 -1.8 -1.8 -1.8 -1.8 -1.8 -1.8 -1.8 -1.8 -1.8 -1.8 -1.8 -1.8 -1.8 -1.8 -1.8 -1.8 -1.8 -1.8 -1.8 -1.8 -1.8 -1.8 -1.8 -1.8 -1.8 -1.8 -1.8 -1.8 -1.3 -1.1 -0.8 -0.6 -0.4 -0.1 0.1 0.3 0.5 0.7 0.8 1 1.2 1.3 1.3 1.3 1.4 1.4 1.4 1.4 1.4 1.5 1.5 1.5 1.5 1.5 1.5 1.4 1.4 1.5 1.5 1.5 1.6 1.6 1.6 1.6 1.5 1.5 1.5 1.4 1.4 1.3 1 0.8 0.5 0.2 -0.1 -0.4 -0.7 -0.9 -1.2 -1.5 -1.8 -1.5 -0.9 -0.2 0.4 1 1.7 1.8 1.8 1.8 1.8 1.8 1.8 1.8 1.8 1.8 1.8 1.8 1.9 1.9 1.9 1.9 2 2 2 2 2 2 2 2.1 2.1 2.1 2.1 2.1 2.1 2.2 2.2 2.2 3.1 4.6 6.8 8.2 8.7 8.4 8.2 7.4 7.1 7.2 7.5 8.4 8.6 10.1 11.1 11.7 12.3 13.3 14.4 15.5 16.9 18.8 20.9 23.1 26.3 28.7 30.7 31.9 32.5 33.9 38.9 43.7
2.6 2.2 2 2.1 2.1 2.1 2 2.2 2.4 2.2 2.3 2.1 1.4 2 1.6 1.3 2.4 2.2 1.6 1 0.4 -0.2 -0.8 -1.8 -1.8 -1.8 -1.8 -1.8 -1.8 -1.8 -1.8 -1.8 -1.8 -1.8 -1.8 -1.8 -1.8 -1.8 -1.8 -1.8 -1.8 -1.8 -1.8 -1.8 -1.8 -1.8 -1.8 -1.8 -1.8 -1.8 -1.8 -1.8 -1.8 -1.8 -1.8 -1.8 -1.8 -1.8 -1.8 -1.8 -1.8 -1.8 -1.8 -1.8 -1.8 -1.8 -1.8 -1.8 -1.8 -1.8 -1.8 -1.8 -1.8 -1.8 -1.8 -1.8 -1.8 -1.3 -1 -0.7 -0.4 -0.2 0 0.2 0.5 0.6 0.8 1 1.1 1.3 1.4 1.6 1.6 1.6 1.6 1.7 1.6 1.6 1.7 1.6 1.6 1.7 1.7 1.6 1.6 1.6 1.6 1.6 1.6 1.6 1.7 1.8 1.7 1.7 1.7 1.6 1.6 1.6 1.6 1.3 1 0.8 0.5 0.2 -0.1 -0.4 -0.7 -0.9 -1.2 -1.5 -1.8 -1.2 -0.6 0 0.7 1.3 1.9 2 2 2 2 2 2 2 2 2 2 2 2 2.1 2.1 2.1 2.2 2.2 2.2 2.2 2.2 2.2 2.5 2.8 2.8 3.6 2.9 4.6 4.8 5.1 5.8 7 7.8 7.9 8.4 7.9 7.2 6.7 6.4 6.3 5.7 7.6 7.5 7.7 8.8 9.9 11 11.5 12.1 13.2 14.3 15.6 17 18.6 20.2 22.5 26.5 29 31.4 32.9 34.4 36.4 41.6 46.1
2.6 2.3 2 2 2.1 2 2.5 2.1 2.1 2.1 2.1 2.5 2 2 2 2.4 1.3 1.2 4.4 1.9 1.2 0.7 0.1 -0.4 -1 -1.8 -1.8 -1.8 -1.8 -1.8 -1.8 -1.8 -1.8 -1.8 -1.8 -1.8 -1.8 -1.8 -1.8 -1.8 -1.8 -1.8 -1.8 -1.8 -1.8 -1.8 -1.8 -1.8 -1.8 -1.8 -1.8 -1.8 -1.8 -1.8 -1.8 -1.8 -1.8 -1.8 -1.8 -1.8 -1.8 -1.8 -1.8 -1.8 -1.8 -1.8 -1.8 -1.8 -1.8 -1.8 -1.8 -1.8 -1.8 -1.8 -1.8 -1.3 -1 -0.8 -0.6 -0.3 -0.1 0.2 0.4 0.5 0.8 1 1.1 1.3 1.5 1.6 1.7 1.8 1.9 1.9 1.9 1.9 1.9 1.9 1.8 1.8 1.8 1.8 1.8 1.8 1.8 1.8 1.8 1.8 1.8 1.8 1.8 1.9 1.9 1.9 1.8 1.8 1.8 1.7 1.6 1.3 1 0.8 0.5 0.2 -0.1 -0.4 -0.6 -0.9 -1.1 -1.2 -1.8 -1.8 0.3 0.6 1 1.6 2.2 2.2 2.2 2.2 2.2 2.2 2.2 2.2 2.2 2.1 2.1 2.2 2.2 2.3 4.1 3.7 3.7 3.9 4.6 3.7 3.4 4 3.8 3.4 4.3 4.5 4.5 5 5.3 4.1 5.1 6.2 6.9 7 7.2 6.8 5.9 5.4 5 6.2 5.1 5.6 6.6 7.2 8.4 9.6 10.3 11.3 12 13.1 14.4 15.6 17.1 18.9 20.6 22.8 26 29.6 31.2 32.3 34.5 37.9 42.8 48.5
2.4 2.4 2.2 2.1 2 2 2 2 2.1 2.5 2.6 1.9 2.2 2.2 2.2 3 2 1.8 1.8 1.7 2.1 1.5 0.9 0.3 -0.3 -0.7 -1 -1.8 -1.8 -1.8 -1.8 -1.8 -1.8 -1.8 -1.8 -1.8 -1.8 -1.8 -1.8 -1.8 -1.8 -1.8 -1.8 -1.8 -1.8 -1.8 -1.8 -1.8 -1.8 -1.8 -1.8 -1.8 -1.8 -1.8 -1.8 -1.8 -1.8 -1.8 -1.8 -1.8 -1.8 -1.8 -1.8 -1.8 -1.8 -1.8 -1.8 -1.8 -1.8 -1.8 -1.8 -1.8 -1.8 -1.4 -1 -0.7 -0.5 -0.4 -0.2 0.1 0.3 0.6 0.8 0.9 1.1 1.4 1.5 1.6 1.8 1.9 2 2.1 2.2 2.2 2.2 2.2 2.1 2.1 2.1 2.1 2 2 2 2 2 1.9 1.9 1.9 1.9 1.9 2 2 2 2 2 1.9 1.9 1.9 1.6 1.3 1 0.8 0.5 0.2 -0.1 -0.2 -0.3 -0.4 -0.2 0.1 0 -1.8 1.5 1.7 3.2 5.2 2.9 3.1 4.6 5.2 5.8 5.8 5.1 4 3.8 3.6 4.1 4 4.3 5 2.4 2.3 2.2 2.2 1.9 1.9 2 1.7 2.2 1.9 2.1 2.3 2.2 1.5 1.8 3.2 4.2 5.3 5.9 6 5.9 5.7 4.5 6.4 3.5 3.4 4 5.4 6.2 7.6 8.3 8.9 9.5 10.5 12 13.2 14.4 15.7 17.5 19.4 21.2 23.3 25.8 28.9 30.6 32.3 34.7 39.3 44.2 51.7
2.2 2.1 2.1 2.3 2.3 2 2 2.1 2.2 2.5 2.4 2.3 2.4 2.3 2.2 2.1 2.1 2 2.1 2.3 1.2 5.1 1.6 0.9 0.4 0.1 -0.1 -0.5 -1 -1.8 -1.8 -1.8 -1.8 -1.8 -1.8 -1.8 -1.8 -1.8 -1.8 -1.8 -1.8 -1.8 -1.8 -1.8 -1.8 -1.8 -1.8 -1.8 -1.8 -1.8 -1.8 -1.8 -1.8 -1.8 -1.8 -1.8 -1.8 -1.8 -1.8 -1.8 -1.8 -1.8 -1.8 -1.8 -1.8 -1.8 -1.8 -1.8 -1.8 -1.8 -1.8 -1.8 -0.9 -0.6 -0.3 -0.1 0 0.1 0.3 0.5 0.8 1 1.2 1.4 1.5 1.7 1.9 2 2.1 2.2 5.4 3.6 3.1 2.7 2.1 2.4 2.7 3.6 4.6 3.7 2.2 2.2 2.2 2.2 2.1 2.1 2.1 2.1 2.1 2.1 2.1 2.1 2.1 2.1 2.1 2.1 2 1.9 1.6 1.3 1 0.8 0.7 0.6 0.5 0.5 0.6 0.7 1 1.4 2 -1.8 3 3.5 2 2.2 2.1 2.7 2.2 2.3 3.6 3.3 2.4 2.3 2.5 2.5 2.5 2.6 2.6 2.7 0.8 1.8 1.8 1.7 1.7 1.8 1.3 1.8 1.5 1.6 1.9 2.2 2 1.8 1.9 2.2 3.2 4.2 4.8 5 5 7 3.5 3.2 3.2 3.4 3.5 4.7 5.9 7.4 7.7 8.7 9 10.8 12.1 13.3 14.4 15.9 17.7 19.4 21.8 23.3 25.6 27.8 29.7 32.4 35.3 39.5 47 52.4
2.4 2.6 2.3 2.1 2.2 2.2 2 2.1 2.3 2.3 2.2 2.3 2.4 2.4 2.2 2.5 2 2.1 2.2 2.3 2 1.2 2.1 1.6 1.2 0.9 0.7 0.3 -0.2 -0.6 -1.1 -1.8 -1.8 -1.8 -1.8 -1.8 -1.8 -1.8 -1.8 -1.8 -1.8 -1.8 -1.8 -1.8 -1.8 -1.8 -1.8 -1.8 -1.8 -1.8 -1.8 -1.8 -1.8 -1.8 -1.8 -1.8 -1.8 -1.8 -1.8 -1.8 -1.8 -1.8 -1.8 -1.8 -1.8 -1.8 -1.8 -1.8 -1.8 -1.2 -0.7 -0.2 0 0.2 0.3 0.6 0.6 0.7 0.8 1 1.2 1.4 1.6 1.8 1.9 2.1 2.2 4.8 2.3 1.7 1.9 0.1 1.5 1.6 1.5 1.4 1.6 0.1 0.8 1.1 1.3 1.9 2.9 2.9 5.1 4.1 2.2 2.2 2.2 2.2 2.2 2.1 2 2.1 2.2 2.2 2.2 1.9 1.7 1.6 1.5 1.4 1.4 1.3 1.4 1.5 1.6 1.9 1.8 2.7 4 3 1.8 2.1 1.7 2 1.3 2.2 2.2 2.3 2.5 2.4 1.8 1.8 1.9 2.1 2.4 2.6 3.4 1.8 1.7 1.8 1.9 0.8 1.1 1.6 1.5 1.5 1.5 1.6 1.7 2 1.7 1.8 1.8 1.9 2.4 3.1 3.5 3.9 5.8 3 3.1 3.1 2.8 2.9 3.2 4.3 5.5 6.8 7.4 8.1 8.2 10.1 11.5 12.9 14.2 16.1 18.1 19.9 21.9 23.7 25.4 27.5 29.6 31.4 36.2 40.6 47.1 51.8
2.4 2.6 2.8 2.5 2.4 2.2 2 1.9 2.2 2.1 2.1 2.2 2.2 2.4 2 2.7 2.1 2.1 2.2 2.2 2.3 2.3 1.4 2.2 2 1.7 1.6 1 0.6 0.1 -0.3 -0.7 -1.1 -1.8 -1.8 -1.8 -1.8 -1.8 -1.8 -1.8 -1.8 -1.8 -1.8 -1.8 -1.8 -1.8 -1.8 -1.8 -1.8 -1.8 -1.8 -1.8 -1.8 -1.8 -1.8 -1.8 -1.8 -1.8 -1.8 -1.8 -1.8 -1.8 -1.8 -1.8 -1.8 -1.8 -1.8 -1.8 -0.2 0.1 0.5 0.9 1 1 1.1 1.2 1.2 1.2 1.3 1.4 1.6 1.8 2 2.2 3.7 4.1 2 1.8 0.1 1.3 1.6 1.7 1.6 1.7 1.6 1.5 1.7 1.1 1.8 1.8 1.6 1.9 1.9 1.1 0.6 0.9 1.2 2.3 2.5 3.1 4.1 2.6 1.9 2.5 4.8 3.8 3 2.3 1.7 2.2 2.2 2.2 2.2 2.2 2.5 3.7 4.7 2.6 2 1.6 2.1 1.4 1.9 1.9 1.7 1.5 1.4 1.4 1.9 2.4 2.5 2 1.5 1.4 1.5 1.5 1.8 2.6 2.7 1.8 1.8 1.7 1.7 1.6 1.4 1.7 1.8 1.5 1.5 1.6 1.8 1.9 2 1.8 1.9 1.8 1.9 2.3 5 3 2.8 2.8 3.2 3.2 3.2 3 3.1 4 5.2 6.1 6.9 7.5 7.9 9.7 11 12.3 13.7 15.7 17.4 18.8 21.8 23.9 25.7 27.6 30.4 33 36.2 40.9 45.3 50
2.7 2.5 2.3 2.3 2.2 2.4 2.8 1.9 2 2 2.2 2.2 2.2 2.8 3.1 2.1 2.1 2.1 2.2 2.3 2.2 1.9 1.7 1.3 5.4 2.2 2.6 1.8 1.4 0.9 0.5 0.1 -0.3 -0.6 -0.9 -1.1 -1.8 -1.8 -1.8 -1.8 -1.8 -1.8 -1.8 -1.8 -1.8 -1.8 -1.8 -1.8 -1.8 -1.8 -1.8 -1.8 -1.8 -1.8 -1.8 -1.8 -1.8 -1.8 -1.8 -1.8 -1.8 -1.8 -1.8 -1.8 -0.5 -0.1 0.4 0.9 1.4 1.6 1.9 2 2 2 1.9 1.8 1.8 1.8 1.8 1.9 2.1 2.4 2.6 2.3 1.8 1.5 1.5 1.6 1.5 1.8 1.9 1.8 1.3 1.8 1.7 1.7 1.6 1.6 1.6 1.5 1.4 1.3 1.5 1.6 1.1 1.7 1.5 1.6 1.6 1 1.4 1.8 1.9 1.7 1.3 1.6 5 2.7 2.7 2.9 2.6 3.3 3.2 2.9 4.9 2.2 2.1 2 2.1 2.1 1.9 1.4 1.8 1.7 1.7 1.8 1.6 1.7 1.8 1.3 1.3 2.2 1.9 1.6 1.6 1.4 1.1 1.2 1.7 2 2 1.7 2.2 1.6 1.2 0.8 1.9 1.6 1.5 1.7 1.9 2.1 2.1 2.1 1.9 1.8 1.7 6.5 2.2 2.3 1.8 2.1 3 3 3.3 3.2 3.2 4.1 5 5.5 6.2 6 6.8 9.1 11 12.7 14 15.2 17.8 18.6 21.1 23.6 25.4 27.2 30.5 33.9 35.7 39.8 42.7 47.4
4.1 3.3 2.8 2.1 2.3 2.5 2.3 2.1 1.6 2.2 2 2 2.4 2.3 2.5 2.3 2.6 2.3 2.3 2.2 1.8 1.5 1.3 1.2 1.3 1.5 2.6 3.6 2.2 1.7 1.3 0.9 0.5 0.3 0 -0.2 -0.4 -0.6 -0.9 -1.8 -1.8 -1.8 -1.8 -1.8 -1.8 -1.8 -1.8 -1.8 -1.8 -1.8 -1.8 -1.8 -1.8 -1.8 -1.8 -1.8 -1.8 -1.7 -1.8 -1.8 -1.8 0.2 0.8 1.2 1.6 2.1 2.3 2.8 2.8 2.7 2.6 3 3.4 2.9 3.9 3 2.6 3.5 3.3 2.8 2.7 2.1 1.3 1.1 1.2 3 1.8 1.8 1.9 2 1.8 1.7 1.7 1.3 1.4 1.5 1.6 1.3 1.7 1.6 1.4 1.7 1.4 1.5 1.6 1.7 1.8 1.9 1.9 1.8 1.9 1.4 2.3 2.2 2 1.8 1.1 1.9 4.8 3 2.7 3.1 2.7 2.6 2.1 2 2 2 2 2 1.8 2.1 2 1.8 1.6 1.9 2.1 1.9 2.1 1.5 1.4 2.3 2.1 1.8 1.2 1 0.8 1.6 1.8 1.8 1.9 1.7 2.1 1.8 1.5 1 1.1 1.6 1.5 2.1 2.1 2.2 2.1 2 1.9 1.7 5.5 2.1 2 1.9 2.1 2.2 1.8 2.2 2.8 3.3 3.5 4.3 4.5 4.4 4.5 4.3 4.3 4.7 7.7 11.6 14.1 15.1 17.9 18.7 20.8 22.7 24.8 26.3 30.4 33.8 36.3 39.4 41.9 44.9
4 3.5 3.2 2.9 2.3 2.3 2.4 2.2 1.7 2.3 2.5 2.4 2.2 2.3 2.2 2.2 2.1 2.7 2.4 2 2.2 1.8 1.2 1.5 1.6 2 2.4 2 2 3.5 2.1 1.7 1.4 1.1 1 0.8 0.6 0.4 -0.1 -1.4 -1.8 -1.8 -1.8 -1.8 -1.8 -1.8 -1.8 -1.8 -1.8 -1.8 -1.8 -1.8 -1.8 -1.8 -1.8 -1.8 -1 -0.6 -0.4 -0.6 0.4 1.5 3.4 2.3 2.6 2.6 3 2.5 2.3 2.3 2.5 2.9 2.4 2.5 2.7 3.6 4.7 2.6 1.9 1.8 1.1 1.3 1.6 1.7 1.7 0.6 2 2.1 1.9 1.8 1.6 1.5 1.3 1.8 1.8 1.7 1.7 1.4 1.6 1.3 1.4 1.5 1.6 1.7 1.6 1.8 1.8 1.8 1.8 2 1.7 1.9 1.8 2.1 2.1 2.1 2 1.7 1.1 1.6 4.3 4.4 1.9 2.9 1.5 1.7 1.8 1.8 1.9 1.9 1.3 2.2 2.1 2 1.5 2 1.9 1.9 2.1 2 1.7 1.9 1.6 1.6 1.7 1 1.8 1.8 1.8 1.8 1.7 1.7 1.9 1.9 1.9 2 0.8 1.6 2.1 2 2.1 1.9 2.1 2.2 2.2 2.1 2.7 2 1.9 1.6 1.6 1.7 1.9 1.5 2 2.4 2.8 3.4 3.3 3.2 3.4 3.6 4.9 7.5 9.9 10.7 12.7 15.3 17.2 18.4 20.3 22.1 23.7 25.7 28.5 31.4 35.6 38.7 42 44.9
6.1 6.5 3.8 2.6 3 2.1 2.1 2.2 1.3 1.5 2.2 2.3 2.8 2.3 2.2 2.2 2.1 2.5 2.1 1.9 1.7 1.6 1.3 1.8 2 2.1 2 1.7 1.8 1.9 2.8 5.2 2.2 2 1.9 1.8 1.7 1.3 0 -1.3 -1.8 -1.8 -1.8 -1.8 -1.8 -1.3 -1.1 -1 -0.9 -0.8 -0.7 -0.6 -0.6 -0.4 -0.2 0.1 0.2 0.4 0.6 0.5 1.4 2.7 2.2 2.2 2.3 2.5 2.3 2.3 2.7 2.3 2.3 2.8 3.8 4.3 2.3 0.8 0.9 1.3 1.4 1.4 1.3 1.4 1.5 1.6 1.7 1.7 1.9 1.9 1.7 1.7 1.5 1.3 1 1.8 1.7 1.7 1.7 1.6 1.7 1.7 1.7 1.7 1.7 1.8 1.8 1.7 1.7 1.7 1.7 1.8 2 1.5 1.4 2.1 2.1 1.4 1.7 1.8 1.8 1.5 1.3 3.3 1.8 2 2.2 2 1.6 1.6 1.5 1.4 1.5 2 1.7 1.7 1.6 1.8 1.7 2 2 2 0.9 1.1 0.8 1.8 1.6 1.6 1.5 1.9 1.9 1.8 1.7 1.7 1.9 2 2 2.2 1.4 1.7 2 2 1.4 2.1 1.6 2.9 2 2 1.7 1.7 1.9 1.7 1.8 2 2.1 2 1.9 2 2.1 2.1 2.1 2.4 2.7 3.8 5.8 7.9 10.6 12.6 13.6 14.6 15.7 18.4 20 21.8 22.9 25 26.6 30.6 34 39.4 41.9 43.8
7.9 6.9 5.4 3.1 2.5 2 2 2 1.9 2.6 2 2 2.6 2.4 2.2 2.1 2.1 2.4 2.5 2.2 1.6 2.1 1.7 1.9 1.9 2 1.9 2.1 2.2 1.9 2.5 2 2.2 2.2 2.7 2.8 3.6 1.5 0.1 -1.2 -1.8 -1.8 -1.8 -1.1 -0.7 -0.5 -0.3 -0.1 0 0.1 0.3 0.4 0.5 0.7 0.9 1.2 1.5 1.5 1.5 1.5 2.2 2.3 2.3 2.5 1.8 2.7 3.2 2.9 3 4.2 3.4 3.1 0.8 0.8 1.2 1.4 1.1 0.8 1.5 1.5 1.5 1.5 1.5 1.6 1.7 1.8 2 1.6 1.2 1.3 0.8 1.3 1.2 1.7 1.7 1.7 1.7 1.7 1.8 1.8 1.8 1.6 1.8 1.6 1.6 1.7 1.7 1.7 1.7 1.7 1.8 2 1.7 1.8 2.1 2.1 2.1 2.1 2 1.8 2 2.3 1.9 2.1 2 2 2 1.8 1.7 1.4 1.9 2.1 2.1 2.1 1.5 1.4 1.7 2.1 2 1.9 1.9 0.9 1.7 1.7 1.7 1.8 1.9 2 2 2 1.9 1.9 2 2 2.1 2.1 1.2 2.1 2 1.8 1.9 2.6 3.5 1.5 1.5 1.8 1.7 1.7 1.9 1.9 1.9 2 1.7 1.3 1.5 1.8 1.9 1.7 1.8 1.9 2.2 2.8 5.5 8 11 13.6 15.7 17 17.9 18.7 20 20.9 22.5 24.5 26.7 30.1 37.5 42 44.1 47.1
7.2 6.6 5.4 3.7 3.1 2.4 2.6 2.2 3.1 2.6 3.1 2.2 3 2.3 2.1 2.1 2.1 2.6 2.4 2.3 2.8 1.8 1.3 1.4 1.8 1.9 1.9 1.9 1.7 1.9 2.1 1.9 1.9 1.9 2.1 3.2 2.7 0.9 -1.8 -1.8 -1.8 -1.8 -0.8 -0.4 0 0.3 0.5 0.8 0.9 1 1.2 1.3 1.5 1.7 2 3.5 4 3.5 3.9 4.7 3.7 1.7 2.8 3.2 3.4 4.1 4.8 2.7 1.7 1.3 0.6 1.3 1.7 1.5 1.6 1.6 1.5 1.1 1.6 1.6 1.6 1.6 1.6 1.9 2 1.8 2.6 1.3 1.7 1.6 1.6 1.5 1.6 1.3 1.3 1.7 1.9 1.7 1.7 1.7 1.6 1.7 1.8 1.8 1.4 1.7 1.7 1.7 1.6 1.6 1.7 1.7 2.1 2.1 2.1 2.1 2.2 2.2 2.2 2 1.9 1.8 2.6 1.6 1.6 1.8 2 2 1.5 1.5 1.9 2 2 2 2.1 1.7 2 2 2 2 1.1 0.9 2 1.8 1.7 1.8 1.9 1.9 1.9 1.9 1.9 1.9 1.9 2 2 2.1 0.9 2.3 2.3 2.1 1.3 2 1.7 1.3 1.2 1.8 1.7 1.8 1.9 1.5 1.7 1.8 1.8 1.6 1.3 1.4 1.5 1.5 1.6 1.9 2.1 1.6 4.8 7.8 11 13.2 15.5 17.5 18.9 20.5 20.9 21.5 22.5 23.6 27.4 34.7 36.6 41.8 45.2 48.5
6.2 6 3.9 3.6 3.3 3 2.8 3.1 2.8 2 2.2 2.5 3.7 2.6 2.4 2.6 2.7 2.2 2.2 3.4 2.4 3.7 1.7 1.4 1.7 2.1 1.9 1.9 2.7 1.9 2.4 1.9 2.1 1.9 4.3 1.5 -1.8 -1.8 -1.8 -1.8 -0.9 -0.5 -0.1 0.3 0.7 1.1 1.4 1.6 1.8 1.9 2.1 3.3 4.1 2.3 0.3 0.2 0 0.5 0 0.2 0.4 1.1 2.1 0.8 0.6 0.3 0.2 1.1 1.4 1.4 1.2 1.1 1.5 1.3 1.5 1.5 1.5 1.5 1.6 1.7 1.7 1.7 1.7 2 2 0.9 2.1 1.9 1.8 1.7 1.6 1.6 1.7 1.1 1.3 1.6 1.7 1.7 1.1 1.6 1 1.3 1.7 1.8 1.2 1.6 1.7 1.6 1.6 1.6 1.8 2 2 2 2.1 2 1.5 2.2 1.8 1.5 1.3 2.4 1.7 1.4 1.4 1.6 1.9 2.1 2 1.6 1.9 1.9 1.9 1.9 1.9 1.9 2 2 2 2 1.7 1.6 2 1.9 1.7 1.8 1.8 1.8 1.9 1.8 1.8 1.8 1.8 1.8 1.9 2 0.8 2.2 2.1 2.1 1.5 1.8 2 1.7 1.1 1.7 1.7 1.8 1.9 1.2 1.8 1.7 1.7 1.6 1.4 1.5 1.6 1.6 1.4 1.8 1.9 1.7 4 7.3 10.8 13 15.4 17.6 19 20.3 21.6 22.4 23.1 24.6 29.9 36.1 34.2 41.8 47.1 51.2
6.7 6.3 5.5 4.8 4.2 3.8 3.6 3.1 3.9 3.7 2.5 2 4.6 2.4 2.7 2.1 2.3 2.3 2.2 2.3 2.2 2.2 2.2 1.9 2.6 1.9 1.9 1.9 1.9 1.9 1.9 2.3 2.8 4.9 2.2 -1.8 -1.8 -1.8 -1 -0.5 -0.2 0.3 0.7 1 1.4 1.8 2.1 2.9 2.7 1.3 1.3 0.6 0.2 1.1 1.4 1 1.2 1.3 1.2 1.1 1.3 1.4 1.4 1.3 1.1 1.3 1.4 1.4 1.1 1 0.9 0.9 1 1.1 1.4 1.5 1.5 1.3 1.2 1.6 1.6 1.8 2 1.9 1.1 1.5 2.6 1.8 1.8 1.7 1.6 1.7 1.4 1.1 1.3 1.4 1.6 1.4 2 1.7 1.6 1.5 1.6 1.7 1.3 1.7 1.7 1.8 1.8 1.9 2.3 2.5 1.8 2 2.1 2 1.3 1.5 2.2 1.9 1.4 2.5 2.2 2.2 1.6 2 2.1 1.7 1.6 1.7 1.8 1.8 1.8 1.8 1.8 1.9 1.9 2 1.7 1.4 1.3 1.6 1.9 1.7 1.7 1.7 1.7 1.7 1.8 1.7 1.7 1.7 1.7 1.7 1.8 1.8 1.5 1.9 3 1.8 2 2 1.6 1.9 1.8 1.9 1.4 1.3 1.3 1.4 1.7 1.6 1.6 1.6 1.5 1.6 1.7 1.7 1.9 1.7 1.8 1.8 4.1 7.6 10.7 12.9 15.3 17.1 18.8 20.5 21.4 22.9 23.5 25.7 29.6 34.1 42 44.3 46.8 50.4
7.7 6.7 5.7 4.8 4.2 2.5 4.4 3.3 2.9 3.7 2.9 3.8 4.1 3.6 3.4 2.3 2.8 2.6 2.3 2.7 2.3 2.3 2.9 2.1 2 1.9 1.9 1.9 1.9 1.9 1.9 2.4 5.4 1.3 -0.2 -1.8 -1.8 -0.5 0 0.4 0.7 1.1 1.5 1.8 2.1 3.7 0.5 0 1.2 1.3 0.7 1.3 1.4 1.4 1.4 1.5 1.3 1.3 1.2 1.1 1.2 1.4 1.4 1.4 1.2 1.1 1.4 1.2 1.1 1 0.9 1 1.1 1.2 1.1 1.6 1.3 1 0.8 1.5 1.7 1.9 2.1 1.7 1.7 1.7 1.7 1.8 1.8 1.7 1.7 1.7 1.6 1.5 1.7 1.7 1.6 1 1.8 1.7 1.3 1.3 1.1 1.5 1.8 1.8 1.2 1.8 1.5 2.1 2.3 2.8 2.2 2.2 1.9 1.8 1.9 2.2 2.2 1.5 2.3 2.1 2.1 1.9 1.8 2.1 1.8 1.9 1.5 1.5 1.9 1.7 1.5 1.5 1.9 1.9 2 1.9 1.6 1.8 2 0.8 1.4 1.5 1.7 1.7 1.7 1.7 1.9 1.7 1.7 1.7 1.7 1.7 1.7 1.1 1.2 3.2 1.7 1.8 2 1.9 1.8 1.9 1.9 1.8 1.7 1.8 1.9 1.9 1.8 1.7 1.5 1.4 1.4 1.3 1.2 1.2 1.8 1.6 1.8 1.8 3.4 6.9 10.3 12.7 14.7 16.5 18.2 20.1 21.1 22.9 24.2 28.1 33.4 36 41.1 47.5 52.7 56.2
7.9 5.8 5.8 4.9 2.5 2.5 2.5 4 4.5 3.8 4.4 5.8 2.4 2.8 2.8 5.7 2.6 2.5 2.2 2.5 2.4 2.6 2.3 2.3 1.9 2.2 1.9 1.9 1.9 1.9 1.9 1.9 2.4 0.5 -1.8 -1.8 -0.3 0.5 1.1 1.4 1.6 1.9 2.2 3 1.6 0.4 1.5 1.5 1.5 1.5 1.4 1.4 1.4 1.4 1.5 1.6 1.3 1.2 1.2 1.1 1.1 1.3 1.2 1.3 1.3 1.1 1.3 0.6 1.1 1 1 1.1 1.1 1.2 1.3 1.5 1.4 1.3 1.3 1.5 1.7 1.9 2 1.8 1.7 1.7 1.8 1.8 1.6 1.8 1.8 1.7 1.7 1 1.6 1.6 1.7 1.2 2 2 2 2 1.9 1.7 1.9 1.7 1.6 1.8 1.9 2.1 2.3 2.6 2.1 2.1 2.2 1.3 1.8 1.7 1.5 2.8 2.1 2.1 2 1.9 1.7 1.7 1.4 1.7 1.5 1.9 1.9 1.8 1.6 1.4 1.6 1.6 1.7 1.9 1.9 1.9 1.3 0.8 1.1 1.5 1.7 1.7 1.7 1.7 2.3 2.1 1.9 1.8 1.8 1.8 1.8 2.6 1.8 2.3 1.7 1.8 1.9 1.9 1.7 1.5 1.6 1.4 1.2 1.6 1.9 1.7 1.5 1.4 1.2 1.2 1.2 1.1 1 1.2 1.1 1.5 1.5 1.4 3.7 7.9 10.9 13.4 15.3 16.6 18.8 20 21.4 22.7 25.8 28.5 29.8 35.3 43.5 51 56.4 59.5
8.9 7.5 5.9 4.9 5 2.3 2.5 3.6 3.5 4.9 6.5 4.6 2.4 2.8 2.8 2.8 6.9 5.8 3 3.1 2.8 3.3 2.1 2.2 2.7 2.5 2.4 2.9 1.9 2.6 1.9 1.9 2.3 1.4 -1.8 -1.8 0.7 1.7 2.2 2 3.7 2.3 0.6 1.1 1.4 1.4 1.5 1.5 1.5 1.5 1.5 1.5 1.5 1.6 1.6 1.7 1.3 1.2 1.2 1.1 1.1 1.1 1.1 1.1 1.1 1.1 0.9 0.5 1.2 1.1 1 1.1 1.2 1.4 1.4 1.6 1.6 1.6 1.7 1.7 1.7 1.6 1.6 1.7 1.7 1.6 1.8 1.8 1.9 1.9 1.8 1.8 1.7 1.3 1.6 1.6 1.7 1.3 2 2.1 2 2 2.3 1.6 2 1.9 1.9 2.2 2.3 2.2 1.7 2.3 2.2 2 2.3 2.3 1.5 1.8 3.6 1.7 1.6 3.1 2 1.8 1.6 2 1.7 1.9 1.9 1.5 2 1.9 1.7 1.5 1.5 1.5 1.6 1.8 1.9 1.9 1.8 1.1 1.1 1.6 1.7 1.7 1.7 1.7 2.5 2.3 2.9 2 1.9 1.8 1.8 1.4 1 1.3 1.8 1.7 1.9 1.9 1.7 1.2 1.1 1.1 0.9 1.1 1.5 1 1.1 1 1 1 1 1 1 1.7 1.2 1.2 1.1 1.3 5.1 9 12.3 14.9 16.5 16.6 18.2 20.3 21.6 24.7 25.3 27.1 30.1 35.9 44.4 53.3 58.9 61.6
9.5 8.5 6.5 5.7 5.8 5.8 5 3.5 4.3 8.4 8.6 8.7 5.3 2.8 3.7 4.3 7.7 7.6 8.4 7.6 3.8 2.1 2.2 2.2 4.3 4.2 3 3.2 3.1 2.1 2.6 1.9 5.3 2.3 -1.8 -1.8 1.8 2.4 2.8 4.8 0.6 1 1.5 1.5 1.4 1.3 1.1 1.5 1.5 1.4 1.4 1.4 1.4 1.4 1.5 1.5 1.3 1.3 1.2 1.1 1 1 1 1.1 1.1 1.1 1.1 0.9 1.3 1.1 1.1 1.1 1.2 1.3 1.3 0.8 1.8 1.9 1.8 1.5 1.2 1.7 1.6 1.7 1.7 1.7 1.6 1.9 1.9 1.8 1.8 1.8 1.7 1.7 1.8 1.7 1.7 1.6 1.9 2 2.1 2.1 2.4 2.3 2.1 2 2.2 2.1 2.3 2.4 2.3 2.2 2.3 2.3 2.2 1.9 1.4 1.9 1.7 1.7 1.6 1.5 1.7 1.8 2 1.4 1.8 1.5 1.5 1.5 1.5 1.7 1.8 1.6 1.4 1.4 1.5 1.7 1.8 1.7 2.2 1.2 1.3 1.8 1.8 1.7 1.7 1.9 2.5 3 2 3.3 3.5 3.5 1.7 1.6 1.3 1.4 1 1.2 1.2 1.9 0.8 0.8 0.8 1 1.3 0.8 1.1 1.2 1.1 1.1 1.1 1.2 1.2 1.1 1.1 1.5 1.7 1.5 1.3 1.7 4 9.4 13.3 16.2 16.6 16.1 18.3 20.6 23.1 24.1 25.1 27.5 31.1 36.3 44.7 53.5 59.6 63.1
10.2 9 6.8 6.2 6.3 6.1 5.4 3.7 4.9 9 9 9.9 9.6 10.1 2.8 2.8 9.8 8.1 8.5 7 6.4 4.9 2.4 4.4 5.9 5.6 4.8 3.7 3.5 3.6 2 2.1 2.8 3.1 -1.8 -1.8 2.4 2.9 3.9 1.6 1.4 1.4 1.4 1.4 1.3 1.3 1.1 1.4 1.3 1.3 1.4 1.4 1.4 1.3 1.4 1.4 1.1 1.2 1.1 1.1 1 1 1 1.1 1.1 1.1 1.1 1.2 1.1 1.2 1.1 1.2 1.2 1.3 1.4 1.5 1.9 2 1.6 1.4 1.6 1.6 1.6 1.7 1.8 1.8 1.3 1.9 1.8 1.8 1.8 1.7 1.7 1.7 1.7 1.7 1.7 1.7 1.9 2 2.1 2.1 2.5 2.6 2.3 2.2 2.3 2.3 2.1 2.4 2.3 2.2 1.8 2.1 2.2 2.1 1.9 3.8 1.6 1.8 1.5 1.6 1.7 1.8 2 1.6 1.7 2.2 2 1.5 1.8 1.8 1.8 1.6 1.4 1.8 1.4 1.7 1.7 1.6 2 1.4 1.4 1.9 1.8 1.8 1.7 2 2.5 3.1 3.1 1.9 2.8 1.3 1.3 1.7 1.5 1.4 1.4 2.1 1.6 1 1.2 1.3 1.3 1.2 1.4 1.2 1.3 1.4 1.2 1.1 1.2 1.2 1.1 1.1 1.2 1.4 1.5 1.6 1.5 1.4 4.8 9.9 13.6 17.1 16.7 17.2 18.9 22.2 23.2 24.4 26 28.7 32.8 38.3 45.6 53.2 59.9 63.8
10.4 10.2 7.3 6.6 6.5 6.4 5.7 4.4 4.8 8.4 8.6 9.1 7.9 11.8 10.1 9.8 9.4 9.7 8.6 8 7 4.6 5.4 6.2 6.6 6.7 5.5 4 4 2.8 2.3 2 1.6 3.3 -1.8 -1.8 2.4 2.9 2.3 1.2 1.4 1.3 1.3 1.2 1.3 1.4 0.7 1.3 1.3 1.3 1.3 1.3 1.3 1.3 1.3 1.3 1 1.3 1.2 1.1 1 1 1 1.1 1.1 1.2 1.2 1.3 1.4 1.3 1.1 1.2 1.3 1.4 1.5 1.6 1.9 2 1.7 1.4 1 1.5 1.6 1.7 1.8 1.8 1.7 2.5 1.8 1.8 1.8 1.8 1.8 1.5 1.7 1.8 1.8 1.7 1.9 1.8 2 2.1 3.6 3.8 4.1 2.7 3.1 2.3 2.4 2.4 2.3 2.3 2 1.7 1.9 2.2 1.3 2.1 1.9 1.6 1.6 1.6 1.8 1.8 2.3 1.9 1.8 2 1.8 1.5 1.9 1.4 1.2 1.6 1.8 1.6 1.5 1.7 1.9 1.6 2 1.2 1.6 1.9 1.9 1.8 1.8 1.7 1.9 3.1 3.6 1.8 1.3 1.3 1.4 1.6 1.5 1.5 1.7 1 1.5 1.8 1.7 1.7 1.5 1.1 1.2 1.2 1.4 1.5 1.4 1.2 1.6 1.1 1.1 1.6 1.3 1.2 1.3 1.4 1.5 1.7 6.1 9.9 13.6 15 16.9 18.8 19.4 21.8 23 24.9 27.4 30.5 35.9 41.6 48.8 55.7 61.3 64.5
11.4 11 8.5 6.9 6.7 6.6 5.9 5.4 5.8 7.6 8.5 9.9 9.3 9.4 12.8 12.8 11.7 11 10.2 9.7 7.6 7.3 7.2 6.9 6.9 6.8 6.2 4.3 2.7 2.3 2.2 2.4 2.3 2.4 -1.8 -1.8 2.4 4.6 0.9 1.3 1.3 1.3 1.3 1.3 1.4 1.5 1.6 1.2 1.2 1.3 1.3 1.3 1.3 1.2 1.2 1.2 1.3 1.2 1.2 1.1 1 1.2 1.2 1.2 1.3 1.3 1.4 1.4 1.5 1.3 1.2 1.3 1.4 1.4 1.5 1.6 1.8 1.8 1.7 1.4 1.3 1.5 1.6 1.7 1.8 1.8 1.8 1.6 2.7 1.7 1.8 1.9 1.9 1.4 1.9 1.8 1.8 1.6 1.5 4.1 6.2 6.3 5.6 3.8 4.4 3.9 3.5 2.8 3 2.5 2.4 2.3 2.1 1.9 1.7 1.7 2.1 1.7 2.3 2.3 2.6 2.5 1.8 2.4 2.4 2 3.7 2.5 2.2 1.6 1.9 1.6 1.6 1.5 1.7 1.7 1.7 1.7 1.8 1.9 1.8 0.8 2 1.9 1.8 1.8 1.7 1.7 1.7 2.4 3 1.7 1.3 1.4 1.5 1.6 1.6 1.2 1.1 1.2 1.5 1.2 1.6 1.7 1.8 1.6 1.7 1.3 1.5 1.6 1.6 1.5 2.1 1.6 1.5 1.3 1.2 1.2 1.2 1.3 1.3 2.1 6.6 9.9 13 15.1 16.7 18.4 20.6 22.9 23.8 26.3 29.6 34.9 41.4 51.6 52.7 57.6 63.3 66.7
11.6 11.5 9.8 6.9 6.4 6.9 6.5 6.1 6.4 6.9 9.2 11.4 13.3 13.9 14.5 14.9 14.5 13.5 12.4 11.2 9.7 8.7 7.8 7.2 6.6 6.7 5.9 3.9 2.3 2.2 2.2 2.3 2.2 3.4 -1.8 -1.8 2.5 3 1.4 1.4 1.5 1.6 1.4 1.4 1.5 1.5 1.6 1.3 1.3 1.3 1.3 1.3 1.4 1.3 1.3 1.3 1.7 1.2 1.2 1.1 1.2 1.3 1.3 1.4 1.4 1.5 1.5 1.6 1.6 1.5 1.4 1.4 1.5 1.6 1.6 1.8 2 1.8 1.7 1.5 1.3 1.6 1.7 1.7 1.7 1.7 1.8 1.7 1.3 1.7 1.8 1.8 2 2 2 2.5 3.2 6.1 6.2 5.9 6.2 6.4 6.7 4.3 5.4 7 5.6 3.8 3.2 3.1 3.1 2.6 2.4 1.9 1.4 1.7 2 2.2 1.7 1.5 1.7 4.5 1 0.8 0.9 3.3 3.1 2 2 2 1.9 1.8 1.7 1.6 1.7 1.9 1.9 1.9 1.5 2.4 2.1 2.1 1.4 2 1.8 1.7 1.8 2.7 3.6 1.7 1.5 1.3 1.4 1.5 1.6 1.6 1.4 1.1 0.8 1.4 1.7 1.5 1.8 1.4 1.2 1.4 1.4 1.3 1.5 1.7 1.6 1.7 1.8 1.5 1.2 1.2 1.3 1.4 1.2 1.1 1.2 2.2 5.8 9.3 12.9 15.3 17.3 19.7 20.7 23.8 25.8 29.5 34.8 41.9 47.4 52.1 57.1 60.5 64.7 67.1
11.3 10.6 9.9 8.2 7.8 7.2 6.8 6.9 6.4 6.7 7.8 10.5 12.3 14.4 15.7 16.2 15.9 15.4 14.4 12.4 10.8 9.7 8.4 7.6 7.1 6.8 5.7 3.8 2.4 2 2 2 2.1 2.3 -1.8 -1.8 2.7 2 1.6 1.7 1.7 1.9 1.8 1.5 1.5 1.6 1.8 1.1 1.3 1.2 1.2 1.5 1.6 1.3 1.3 1.5 1.4 1.2 1.1 1.1 1.4 1.5 1.5 1.5 1.6 1.6 1.6 1.5 1.4 1.5 1.7 1.6 1.6 1.7 1.8 1.7 1.7 1.8 1.6 1.7 1.5 1.7 1.7 1.6 1.7 1.8 1.8 1.7 1.7 1.2 1.8 1.9 2.3 2.1 3.4 5.1 6 6.2 6.1 6.2 6.4 6.3 6.4 7.1 8.3 10.4 10.3 8 5.3 4.9 3.7 2.8 2.8 2.2 1.5 3.3 1.6 1.6 1.7 1.1 0.8 2 1.1 2.2 1.7 0.9 1.7 1.3 1.8 1.9 1.9 1.9 1.8 1.7 1.8 1.9 1.2 2.2 2 1.9 2 2.1 1.5 1.4 1.7 1.7 2.6 2.9 1.9 1.7 1.6 1.4 1.5 1.6 1.6 1.5 1.4 1 0.8 1.1 1.3 1.5 1.6 1.3 1.1 1.2 1.4 1.3 1.5 1.7 1.5 1.5 1.8 1.5 1.4 1.3 1.4 1.5 1.6 1.7 1.3 2.1 4.4 8.1 12.8 15.2 18 19.9 22.4 28.2 31.1 35.7 41.4 46.9 53.5 57.6 62 63.6 65.3 67.2
11.3 11.2 10.4 9.4 8 7.5 7.6 7.8 7.4 6.5 7.6 9.7 11.8 14.4 15.9 16.4 16.7 16.4 15.4 13.7 11.9 9.8 8.8 8.1 7.5 7 5.9 4.2 2.2 2 2.1 2.3 2.6 2.7 -1.8 -1.8 2.5 1.5 1.2 1.9 2.1 2.2 2.1 1.9 1.6 1.7 1.9 2.1 2.1 1.6 1.5 1.7 1.8 1.5 1.4 1.4 1.6 1.4 1.4 1.5 1.7 1.7 1.7 1.6 1.6 1.5 1.4 1.3 1.2 1.5 1.6 1.7 1.7 1.7 1.7 1.7 1.8 1.7 1.5 1.6 1.8 1.5 1.5 1.7 1.8 1.8 1.8 1.8 1.6 2.1 4.6 1.5 1.6 4.8 5.1 5 5.3 10 6.6 6.7 7.1 9 6.4 8.9 10.2 12.8 11.5 6.7 7.5 5.9 7.2 4.6 3.3 3.5 3.6 2 1.8 1.4 2 2.2 0.9 1.2 1.6 2 1.7 1.8 1.6 1.9 1.9 0.8 1.9 1.9 1.9 1.8 1.9 1.8 2.2 2.1 2 1.8 1.9 1.9 1.7 1.6 1.7 2.7 3.3 1.5 2 1.5 1.6 1.5 1.6 1.5 1.5 1.4 1.3 1.2 0.9 1.3 1.5 1.6 1.6 1.2 1.1 1.1 1.2 1.3 1.5 1.7 1.5 1.3 1.9 2 1.9 1.7 1.6 1.7 1.6 1.5 1.6 2.1 5.2 8.8 14 16.4 18 22.4 24.6 28.1 35.1 41.5 47.6 54.3 59.8 63.6 65 65.5 66 67.1
12 12.2 11.8 11.2 10.2 8.1 7.4 7.9 7.7 7.2 7.3 8.9 11.5 14.1 16 16.8 17.2 16.7 15.5 14.3 12.6 10.5 9.6 8.8 8 7.2 6.6 4.8 2.5 2.1 2.1 2.2 2.1 3.2 -1.8 -1.8 2.5 1 1.5 2 2.1 2.2 2.1 1.9 1.6 1.7 1.8 1.9 1.9 2.1 1.9 2.1 2 2 1.9 1.9 1.9 1.6 1.1 1.9 1.9 1.8 1.8 1.6 1.7 1.7 1.6 1.5 1.5 1.6 1.6 1.5 1.5 1.5 1.5 1.4 1.8 1.6 1.4 1.3 1.4 1 1.8 1.8 1.8 1.8 1.8 1.8 1.6 1.4 1.1 1.3 1.4 1.6 5 4.6 5.4 8.1 9.9 12.8 14.3 13.8 12.6 10.4 11.9 11.4 10.1 9.4 7.4 6.1 7.3 5.1 4.5 4.6 2.6 1.4 1.8 1.6 1.8 0.8 1.1 1.3 1.7 1.9 2 2 1.8 1.8 1.8 1.8 2 1.9 1.8 1.9 1.9 2 2.1 2.1 1.9 1.8 1.7 1.8 1.7 2.1 3.2 1.4 2.8 1.6 1.6 1.4 1.4 1.6 1.5 1.4 1.3 1.3 1.1 0.8 1.2 1.4 1.6 1.7 1.5 1 1 1.1 1.2 1.5 1.7 1.7 1.5 1.4 1.9 2 2.1 2.2 1.8 1.6 1.4 1.6 1.7 2.4 6.1 9.3 13.9 17.8 21.4 24.6 27 31.1 38.2 45.5 52.7 61 64.9 65.5 65.4 64 62.9 64.1
12.7 13.7 13.6 12.4 11 10.2 7.5 7.8 7.9 8 8 8.6 11.2 13.8 16 17.1 17.5 16.8 15.6 14.4 12.5 11.6 10.5 9.7 9 8.3 7.6 5.3 2.2 2.1 2.4 2.4 2.4 2.8 -1.8 -1.8 2.7 1.1 1.6 2 1.9 2 2 1.8 1.7 1.1 1.9 1.7 2.3 2.3 2.2 2 2 2 2 1.9 1.7 1.7 1.8 1.6 2 1.9 1.6 1.6 1.7 1.7 1.8 1.8 1.6 1.5 1.5 1.5 1.5 1.5 1.5 1.4 1.7 1.6 1.4 1.5 1.3 0.9 1.9 1.8 1.8 1.8 1.8 1.8 1.4 1.6 1.6 1.2 1.5 1.8 2.7 2.2 3.7 5.5 10.2 13.3 15.2 17.2 17.1 14.7 12.9 10.8 9.4 8.3 8.2 6.5 5.9 5.4 4.9 4.2 2.6 2 1.8 1.8 1.5 1.1 1.1 1.4 1.7 1.5 2 1.8 1.8 1.8 1.8 1.7 1.7 1.7 1.7 1.7 1.7 1.7 1.9 2 1.9 1.8 1.6 1.7 1.5 3.2 1.2 1.9 2 1.8 1.4 1.2 1.6 1.7 1.6 1.4 1.2 1.1 1.1 0.9 1.1 1.1 1.1 1.1 1.7 1.5 1.4 1.4 1.3 1.7 1.6 1.4 1.3 1.5 1.7 1.8 1.8 1.9 2 1.5 1.5 1.7 1.8 2.4 6.1 9.1 16.6 15.9 21.4 26.7 30.4 35 41.5 49.8 57.9 64.6 65 63.5 61.8 58.9 56.3 57.8
13.9 15 14.2 12.9 11.7 11.1 10.8 9.7 8.8 8.1 8.1 8.4 11.1 13.7 15.9 17 17.2 16.6 15.8 14.8 13 12.2 11.5 10.8 10.1 9.3 7.7 3.3 2.2 2.1 2.1 2.4 2.6 2.3 -1.8 -1.8 2.6 0.8 1.6 1.6 2 1.7 1.7 1.8 1.7 1.3 1.7 3 3.1 5.5 2.5 2 1.9 2 2 2 1.9 1.8 1.8 1.5 1.8 1.7 1.6 1.7 1.7 1.7 1.8 1.8 0.8 1.5 1.5 1.6 1.6 1.7 1.7 1.5 1.8 1.5 1.6 1.6 1.7 1.5 1.8 1.8 1.8 1.8 1.8 1.7 1.6 1.5 1.4 0 1.4 1.7 2.4 2.4 3 4.8 9.4 13.1 14.2 15.6 16.4 16 14 11.6 9.7 8.6 8.5 7.4 6.3 5.5 5 4.1 2.6 2.3 1.9 1.7 1.9 1.8 1.9 1.9 1.7 1.4 1.6 1.7 1.7 1.7 1.7 1.7 1.8 2 1.6 1.5 1.5 1.6 1.6 2 1.9 1.7 1.6 1.5 1.3 1.7 1.8 1.7 1.4 1.2 1.3 1.5 1.9 1.9 1.2 1.6 1.7 1.7 1.5 0.8 1 1.1 1.2 1.4 1.4 1.8 1.5 1.5 1.2 1.1 1.5 1.2 1.4 1.4 1.5 1.5 1.5 1.6 1.5 1.5 1.7 1.4 3.4 5.3 6.4 8.2 15.2 15.9 21.1 27.2 33.4 39 44.7 53.5 61.9 64.4 62.7 58.3 55.5 52.8 51.7 52.4
14 14.9 14.1 13.2 12.8 12.6 11.5 10.6 10.1 9.4 8.4 8.9 11.1 13.2 15.4 16.5 16.7 16 15.5 14.4 14.1 13.6 13 12.3 11.7 10.9 7.5 2.5 2.3 2.1 2.1 2 2.5 -1.8 -1.8 -1.8 2.9 3 2.3 2.4 1.8 1.4 1.8 0.5 1.6 3.8 -1.8 -1.3 -1.8 2.7 5.2 2.9 2.2 2 2.1 2.1 2 1.9 1.7 1.6 1.7 1.8 1.8 1.8 1.8 1.7 1.7 1.6 0.6 1.6 1.5 1.4 1.3 1.5 1.5 1.5 1.7 1.6 1.7 1.8 1.8 1.8 1.6 1.7 1.7 1.7 1.7 1.7 1.6 1.5 1.4 1.5 1.3 1.9 2.1 2.1 2.6 4.7 9.2 13.6 15.8 16 15.5 14.6 13.7 12.8 11.1 9.9 9.4 8 6.7 5.7 5.1 4.3 2.4 1.8 2 2.1 1.5 2.2 2.2 1.7 1.9 1.9 1.6 1.6 1.7 1.8 1.8 1.8 1.9 1.7 1.4 1.7 1.9 2.2 4.1 1.5 1.5 1.7 1.5 1.9 1.7 1.7 2.9 1.8 1.6 1.4 1.4 1.9 2.8 2.8 1.6 2.4 1.5 1.1 0.9 0.8 0.9 1 1.5 1.6 1.5 1.9 1.7 1.8 1.8 1.6 1.5 1.5 1.7 1.8 1.5 1.4 1.5 1.6 1.6 1.6 1.6 2 3.1 4 2.9 13.7 11.3 16.1 21.3 27.9 33.7 39.2 44.8 53.8 60.8 62.7 59.8 56.4 53.2 49.3 48.2 47.8
13.9 14.9 14.6 14.6 14.7 14.2 13.3 11.8 11 9.9 8.6 9.4 10.9 13.1 14.3 15.4 16.1 15.6 15.3 15.3 15.4 15.1 14.4 13.7 12.9 12 6.4 2.5 2.4 2.3 2.2 2.1 2.7 -1.8 1.2 -1.8 -1.8 2.3 2.3 2.3 2.6 2.6 2.6 3 1.6 -1.8 -1.8 -0.5 -1.8 -1.8 -1.8 3.4 4.5 2.4 2.1 2.2 2.1 1.9 1.8 1.8 1.8 1.8 1.8 1.8 1.9 1.9 1.8 1.7 1.7 1.6 1.5 1.5 1.4 1.4 1.5 1.6 1.7 1.7 1.8 1.8 1.8 1.7 1.7 1.5 1.6 1.7 1.7 1.7 1.7 1.6 1.5 1.4 1 1.1 1.9 1.1 1.5 4.7 9.1 13.6 16.7 16.9 16.4 15.3 14.3 13.4 12.7 11.7 10.4 8.9 7.5 6.1 5.3 4.4 3.1 1.9 1.9 1.7 0.8 1.8 2.1 1.5 2 2.5 1.7 1.5 1.5 1.6 1.7 1.7 1.8 1.4 1.6 1.9 2.2 2.5 2.2 1.6 1.6 3.2 1.7 2 2.2 1.7 4.8 1.6 1.6 2.2 1.6 1.8 1.9 1.6 1.4 2.7 2.1 1.1 0.9 1 1 1.1 1.2 1.3 3.4 3.9 4.2 4.4 4.1 4.7 4.9 4.7 3.5 1.5 1.7 1.8 1.5 1.4 1.5 2.2 1.6 1.5 1.7 2.6 3.3 6.5 11.1 17.2 21.6 27 32.6 37.6 43.9 51.5 57.5 58.7 56.2 52.3 48.4 47.3 46.1 45.1
13.8 14.8 15 16.3 16.3 16.4 14.3 13.5 11.2 10.5 9.2 9.6 10.8 12.2 13.2 14.2 14.7 15.7 16.2 16.4 16.5 16.5 16 15.2 14.5 12.9 4.9 2.4 2.4 2.3 2.2 2.3 -1.8 -1.8 3.8 -1.8 -1.8 -1.8 2.2 2.3 2.7 2.8 2.7 1.4 -1.8 -1.8 1.2 1.5 1.4 0.1 -1.8 -1.8 -1.8 -1.8 -1.8 -1.8 2.5 2.2 2.9 2.7 1.8 1.7 1.5 1.8 1.7 1.6 1.7 1.7 1.8 1.7 1.6 1.6 1.5 1.6 1.6 1.7 1.6 1.7 1.7 1.7 1.6 1.6 1.6 1.6 1.5 1.7 1.8 1.8 1.8 1.7 1.6 1.3 1.1 0.5 2.1 2.1 2.1 4.1 8.4 12.5 15.5 16.5 15.8 15.4 15.3 15.1 13.9 12.6 11.3 9.9 8.4 6.8 5.2 4.3 3.1 2.1 1.5 0.8 2.2 2.2 1.8 1.8 1.9 2 2 1.8 1.6 1.5 1.4 1.5 1.8 2 1.6 1.9 2.1 2 1.9 2 2.3 3.9 4.4 1.9 2.2 4 3.8 1.5 1.8 2.1 2.1 1.7 1.6 1.7 1.6 1.7 1.8 1.8 1.8 1.8 1.4 1.5 1.6 2.2 5 7.4 7.8 8 8.3 9.4 8.8 6 3.7 2.2 2 1.7 1.3 1.6 1.9 2.1 1.6 1.6 1.7 3.4 3.9 6.7 5.6 12.8 19.6 25.6 31.3 36.6 41.8 47.8 53.1 54.4 52.2 50.8 46.8 45.5 44.2 42.9
14.5 14.9 15.9 17.2 18 18.5 17.5 15 12.6 10.4 9.3 9.4 9.9 11.2 12.2 13.1 14.4 15.8 16.7 17.7 17.9 17.6 17.3 16.8 15.9 10.2 2.9 2.5 2.4 2.3 2.3 3.9 -1.8 3 1.9 1.4 -1.8 -1.8 -1.8 2.4 2.7 2.8 1.6 -1.8 -1.8 2.3 2.5 2.3 2.5 2.3 2.5 -1.8 -1.8 1.5 1.5 -1.8 -1.8 4.3 3.7 2.8 1.9 1.9 1.9 2.1 1.7 1.6 1.5 1.6 1.7 1.8 1.7 1.7 1.7 1.7 1.8 1.8 1.7 1.7 1.6 1.6 1.6 1.6 1.5 1.5 1.2 1.6 1.8 1.8 1.8 1.8 1.7 1.4 1.2 1.2 1.9 1.7 2 3.1 6.7 9.9 13 15.2 16.2 16.7 16.7 16.1 14.8 13.5 11.9 10.3 8.6 6.9 5.2 3.7 2.3 2.2 0.9 0.8 1.6 2.1 1.7 1.8 1.9 1.7 1.6 2.7 2 1.8 1.6 1.7 1.8 1.7 1.6 1.7 1.8 1.7 1.6 1.6 1.6 1.8 1.9 2.2 1.5 3.2 4.7 1.8 1.8 1.9 1.9 1.6 1.7 1.9 1.9 1.8 1.7 1.8 1.8 1.4 1.6 1.7 1.7 2 4 8.1 9.7 9.3 9.3 9.4 8.6 5.1 2.5 2 1.6 2.2 3.1 5.7 7.4 5.9 5.4 4.5 4.1 4.7 5.1 4.9 3.1 7.9 14 23.9 29.5 33.7 38.3 43.9 48.8 50.6 49.1 46.6 45.3 44.1 42.9 41.6
15.4 15.5 16.6 17.9 20 20.6 19.2 16.5 13.7 11.2 9.5 9.1 9.3 10.1 11.9 13 14.4 15.8 17 17.8 19.3 18.9 18.3 17 15.2 7.1 2.6 2.7 2.7 2.5 2.4 3 -1.8 2 2.2 2 1.2 -1.8 -1.8 -0.8 0.9 0.1 -1.8 0.3 2.7 3.1 2.7 1.9 1.7 2.3 2.9 3.1 2.8 2.4 2.8 2.4 -1.8 -1.8 4.5 2.8 2.1 2 2 2.1 1.8 1.7 1.8 1.9 1.9 1.7 1.8 1.8 1.8 1.9 1.9 1.9 1.6 1.8 1.8 1.7 1.7 1.6 1.6 1.5 1.5 1.5 1.3 1.5 1 1.3 1.8 1.5 1.8 1.4 1.4 1.5 2 2.2 4.3 6.9 9.9 13.6 16.4 17.6 16.9 16.4 15.4 14.2 12.3 10.4 8.8 6.8 4.7 3.6 1.9 1.9 0.9 1.7 1.7 2.1 1.6 1.8 1.9 3.1 6.2 5.7 4.4 1.8 2.9 1.8 1.8 1.8 1.8 2 2.3 3.4 2.9 1.7 1.6 1.7 1.8 1.9 1.5 1.6 1.7 1.7 1.7 1.7 1.7 1.6 1.7 2 2 1.9 1.9 1.8 1.6 1 2.1 1.6 1.4 1.5 2.4 5.6 6.5 6.4 6.2 5.4 3.6 1.6 2 2.7 8.4 9.8 6 9.8 11.2 10.6 10.2 9.8 9.5 11.6 6.8 6.9 5.9 4.6 10.2 20.6 25.1 28.2 31.2 38.6 43.6 46.6 46 44.8 43.6 42.4 41.4 40.4
16.2 16.1 17.1 19 21.3 22.3 20.5 16.9 14.4 11.8 9.2 8.7 9.1 9.6 11.5 13 14.3 15.2 15.6 17.7 19.2 18.5 16 12 8.4 2.4 2.4 2.5 2.8 2.5 3.4 -1.8 3.9 1.9 2 2.1 2 1.5 3.7 -1.8 -1.8 -1.8 3.5 2.1 1.5 1.9 1.7 1.8 1.9 1.6 2.5 2.3 2.3 2.8 2.2 2.9 2.6 -1.8 -1.8 3.6 2.3 2.3 2.5 2 1.8 1.9 2 2 2.1 1.7 1.9 1.9 1.8 1.8 1.8 1.7 1.9 1.9 1.9 1.9 1.8 1.7 1.6 1.5 0.9 2.4 2.8 0.7 1.3 1.5 1.6 1.7 1.5 1.4 1.6 1.7 1.9 2 2.5 4.1 6.5 11.3 15.7 16.9 16.3 14.8 14.9 14.3 12.6 10.7 8.3 6 3.8 2 1.8 2 1.3 2.2 2.1 2 1.7 1.7 2.3 7 7.6 7.1 5.8 2 2 1.8 1.7 1.6 1.6 1.7 3.8 1.8 2.1 1.9 2.1 1.6 1.8 2.2 1.8 1.8 1.3 1.4 1.5 1.5 1.5 1.7 1.9 2.1 1.9 1.7 1.7 1.7 1.9 1.6 1.8 1.5 1.5 1.4 1.4 1.7 1.9 1.6 1.7 1.7 1.7 2.8 7.4 10.9 10.1 11.6 10.9 11.8 13 13.5 13.2 12.8 11.2 9.8 12.7 10.1 5.4 3.9 7.6 13.5 21.1 22.9 27.7 34.8 40 43.7 44.1 43.3 42.2 41.2 40.2 39.3
16.4 16.6 17.3 19.3 21.4 22.2 19.8 16.5 13.7 12 8.2 8.4 9.1 9.7 10.3 12.9 14.3 8.3 6 7.1 12.5 10.5 2.5 2.5 2.3 2.4 2.4 2.2 2.2 3.1 -1.8 -1.8 2 2 2 2 2.1 1.6 1.7 1.6 2 1.3 2.1 1.9 1.7 2.1 1.9 1.9 2.1 1.8 2.1 1.5 1.9 1.9 1.4 2.8 2.8 2.8 -1.8 5.2 3.6 2.5 2.6 2 1.9 1.9 1.9 2 2 1.9 1.9 1.9 1.9 1.9 1.8 1.7 2.1 2.3 2.4 2.3 2.3 2 1.7 1.3 3.9 4.2 4.2 3.4 1.7 1.5 1.6 1.7 1.5 1.6 1.6 1.6 1.8 1.3 2.1 3.2 4.5 8.3 12.7 14.6 13.4 12.3 13.3 13.4 12.6 10.7 7.8 5.2 2.7 2 1.9 1.4 1.7 1.4 1.5 1.5 1.8 1.5 6.5 7.9 7.7 7.6 6 2.3 1.9 2 1.7 1.6 1.8 2.1 2.1 1.8 2.1 3.3 2.3 1.6 1.8 0.8 2.7 2 1.8 1.6 1.7 1.5 1.7 2 1.8 2.2 2 1.8 1.7 1.7 2.1 1.9 1.5 1.5 1.7 1.4 1.5 1.4 2.1 1.3 1.9 1.6 3.7 8 11.2 11.6 11.3 13 12.7 12.7 14.2 14.8 15 12.6 14.1 15.4 15.1 13.9 10.5 5.4 5.1 10.5 16.3 20.8 26.1 33.5 38.9 42.3 42.5 41.9 40.9 40 39 38.1
15.4 16 16.4 18.3 19.8 20.1 17.9 15.4 13 11.6 8.4 8.4 8.8 9.7 10.8 12.8 8.8 2.6 2.6 2.4 2.6 2.4 2.1 2.4 2.2 2.1 3.2 -1.8 -1.8 -1.8 -1.8 2 2.1 2 1.9 1.9 2 2 1.9 1 1.8 1.7 2.1 2 2 1.9 2 1.9 1.9 1.9 1.6 1.7 2.2 1.7 1.6 1.4 2.6 2.3 -1.8 -1.8 4.7 3.6 1.2 2 2 2 2 2 2 0.8 1.9 1.9 1.9 2 2 2 2.3 2.7 2.9 3.4 3.4 2.5 2.5 1.6 1.5 3.4 4.2 4.2 1.8 1.7 1.6 1.6 1.3 1.4 1.5 1.7 1.8 1.9 1.6 1.8 3.2 5.3 8 9 8.7 9 11 12.3 11.9 10.5 7.4 4.5 1.7 2 2.1 0.8 1.8 2 1.9 2 1.6 1.6 7.7 8.2 7.9 7.3 4.2 2 1.8 2.1 2.1 1.8 3.4 2.6 2 2.5 2 1.7 1.8 2.4 2.6 2.5 2.3 2.1 1.8 2 2.1 1.6 2.2 2.4 2.3 2 2.4 2.3 2.1 2.3 2.4 2.3 1.8 1.7 2.5 2.3 2.5 1.9 2.4 2 1.6 2.6 8.7 11.5 12 11.7 13 12.4 12.3 13.5 14.8 15.9 13.9 16.4 17.3 17.2 16.9 15.8 14.3 8.8 5.4 8.8 16.5 21.2 26.1 32.8 37.8 40.9 41.3 40.5 39.7 39 38.3 37.6
14 14.8 15.6 16.6 17.7 17.4 15.9 14.2 12.6 9 8.9 8.8 9.8 9.9 11.4 13.3 5.9 2.3 2.4 2.5 2.6 2.1 3.4 -1.8 -1.8 -1.8 -1.8 -1.8 2.7 3.6 3.2 1.9 2.1 1.8 1.7 1.9 2.1 2 2 1 1.5 1.6 2.2 2.1 2.1 2.2 2.1 2.1 1.6 1.6 1.6 1.6 1.7 1.8 1.8 1.8 1.9 2.7 -1.8 -1.8 5.6 4.1 2.5 2.1 2 2 2 2 2 0.6 2 2 2.1 2.1 2.2 1.9 1.9 3.3 3.5 3.9 3.9 3.6 3.1 2.3 1.6 1.5 4.2 4.2 1.1 1.6 1.6 1.6 1.7 1.5 1.6 1.7 1.8 1.9 1.7 1.9 1.6 3 3.9 5.1 5.9 6.3 9.3 11.1 11.2 9.9 7.5 4.5 1.7 1.8 1.9 0.9 2 1.9 1.8 2 1.7 2.2 6.8 7.6 6.7 4.4 2 1.8 1.8 2 3.6 2 2.2 3.4 4.3 4.1 3.5 3 3 3.3 4 3.6 2.6 2.2 2.3 2.3 2 1.9 1.9 2.5 2.7 2.8 2.7 2.6 2.9 2.8 5.3 2.9 2.6 1.9 5.4 5.4 8.6 8.7 7 4.9 1.8 1.7 7.4 11.8 12.9 12.7 13.7 13.3 13.7 14 15 14.7 17.5 18.1 18.4 18.8 18.2 17.8 16.6 12.4 6.9 10.8 19.4 22.9 26.9 32.2 37 39.5 40.1 39.4 38.9 38.3 37.4 36.6
13.7 14.8 15.5 16.1 16.6 16 14.8 13.7 9.7 9.3 9.2 9.7 10.6 10.4 12 12.1 2.6 2.7 2.8 2.9 2.4 -1.8 -1.8 -1.8 1.8 3.2 3 4.1 3.7 3.6 3.4 2.2 2 1.8 1.5 2.1 2.2 2.1 1.9 1.8 1.9 2.2 1.7 2.3 2.3 2.4 2.2 1.7 1.7 1.7 1.7 1.5 2.9 2 2 2 2 2.6 2.3 -1.8 3.9 4.6 3.2 2.1 2.1 2.1 2.1 2.1 2 2 2.2 2.2 2.3 2.4 2.4 2.2 2.3 3.6 4 4.5 4.5 3.8 3 2.3 1.5 1.6 1.2 1.8 1 1.7 1.7 1.7 1.8 1.5 1.7 1.9 2 1.9 1.9 1.9 2.1 1.6 2.9 3.4 3.8 5.4 7.4 9.2 9.4 8.6 6.9 4.2 1.7 2 2 1.4 2 2 2 2.1 2 1.5 3.5 4 3.7 2.8 1.6 1.6 2.1 4.5 2.4 2.9 4.4 6.3 7.5 7.1 6 4.8 4.4 5.1 5.8 4.8 4.5 3.6 3.1 2.8 1.9 2.6 2.1 2.6 4 5.2 5.9 7.6 5.8 6.4 9.6 11.2 4 2.6 6.5 7.9 10.6 10.1 10.4 10.5 7.3 3.4 5 11.6 13.5 14.3 14.8 14.6 15.3 15.3 15.6 16.2 17.3 18.4 19.4 19.6 19.6 19.3 17.9 15.7 9.1 11 19.8 26.8 29.7 33.2 36.6 38.4 39.2 38.7 38.2 37.7 36.9 36.3
15.2 15.9 16 16.1 16.5 15.6 14.7 10.4 10.1 9.9 9.5 10.6 11.2 11.6 11 5.5 3.3 2.6 2.3 2.2 1.9 -1.8 2.3 3.6 3.7 3.7 3.8 4.1 4.4 4.1 3.9 2.7 2 1.9 2.1 1.7 2.1 2.2 1.8 1.9 2.1 2.3 2.1 2.1 1.8 1.8 2.4 2.3 2 1.8 1.9 2.5 1.9 1.5 1.9 2 1.8 3.2 2.8 -1.8 1.3 5.1 4 2.5 2.7 2.2 2.2 2.2 2.1 2.4 1 2.4 2.6 2.6 2.5 3 2.7 4.1 4.6 5.1 4.8 4 3.2 1.7 3.3 3 2.9 2.1 0.9 1.8 1.8 1.7 1.7 1.6 1.3 1.9 2 1.8 1.6 1.6 1.8 2 2.1 2.1 2.8 3.5 4 5.3 7 8.2 7.2 4.4 2.2 1.8 1.5 2 1.9 2 2 1.8 2 1.5 2.1 2.1 2.3 2.3 2.1 1.7 2.3 2.8 3.8 5.3 8.2 10.8 11.6 10.8 8.7 7.2 6.6 7.5 8.2 8.1 7.4 6.3 4.8 5 7.4 7.4 3.6 2.4 6.5 6.6 6.9 7.5 7.3 7.8 9.3 9.6 9.6 9.6 8 11.3 11.5 11 11.8 11.9 10.8 9.5 4.7 10.8 14.1 15.4 15.4 15.6 16.1 16 16.9 16 17.1 18.3 19.9 20.6 20.8 20.8 19.8 17.8 11.1 11.5 18.2 28.6 33.4 35 36.9 38.1 38.5 38 37.5 37 36.4 36.1
16.6 17.7 17.4 17.4 16.8 15.3 14.4 12.6 10.7 10.5 10.2 11.3 12.2 12.9 6.7 2.8 2.8 2.6 2.2 3.5 -1.8 -1.8 -1.8 4.3 2 4.4 4.6 5.1 5.1 4.7 3.5 3.5 1.9 1.9 1.6 2.2 1.9 2.1 1.4 2.1 2.2 2.5 1.8 2 2.1 2 1.6 2.2 1.7 1.9 1.9 2 1.9 2 2.1 2.1 1.6 1.6 2.6 -1.8 -1.8 2.1 4.8 4 3.7 3.3 2.5 2.2 0.9 2.8 2.8 2.8 3.5 3.7 3.6 3.8 2.7 4.4 5.2 5.7 5.1 4.5 3.8 2.5 1.2 1.2 1.2 2.1 1.2 2 1.9 1.9 1.9 1.9 1.5 1.9 1.5 1.9 2.1 1.8 2 2.2 2 2 2 1.9 2.6 4.4 6 7.3 6.5 4.4 1.7 1.6 1.2 1.5 1.6 2 2 1.7 1.7 1.6 2 2.1 2.1 2 4.2 3.1 3.8 4.9 6.6 8.7 12.5 14.7 15.3 13.5 11.7 10.2 9.9 11 11.5 11 10 8.3 6.6 6.8 6.6 6.6 6.9 6 6 6.1 7.4 8.3 7.6 8.2 8.6 8.2 10 9.6 9.6 11.4 11.7 11.8 11.9 12.7 12.9 12 9.8 11.6 15.3 15.9 16.6 16.7 16.4 16.7 17.4 18 17.9 18.9 20.5 21.7 22 22.2 21.8 20.8 13.1 11.4 18.5 27.4 36 37.2 37.9 38 38.1 37.8 37.3 36.7 36.6 36.6
17.6 19.4 20.1 19.1 17.9 16.1 14.3 12.1 12.4 11.2 10.9 11.5 12.8 10.5 4.1 3.1 3 2.7 2.3 1.5 -1.8 4.4 3 3.4 4.5 5.2 5.6 5.4 5.3 5.1 4.3 3.6 2.3 2.1 1.8 1.8 1.8 2.2 1.6 1.9 1.7 2.4 2.3 2.3 2.3 1.8 1.7 1.6 2.4 2.4 2.2 2 2 1.8 1.9 2.2 1.7 1.8 1.8 3.3 -1.8 -1.8 4 5.2 5 4.1 3.4 2.2 3 3.1 3.3 3.9 4.4 4.3 4.5 4.7 4.6 4.7 4.6 6.1 5.7 5 4.1 3.1 2.9 1.2 2 1.9 1.3 1.9 2.1 2.1 2.2 1.6 1.5 1.8 1.8 1.8 2.2 2.2 2.2 2.2 2 1.7 1.8 2 2.7 4.3 6.1 7.2 6.4 4.4 1.9 1.5 1.4 2.1 1.5 2 1.4 1.4 1.4 1.4 1.7 1.9 2 4.3 4.9 5.9 7.1 8.1 9.6 11.9 15.4 18.9 19 16.9 15.2 14.3 14.2 14.4 14.3 13.4 12 10.5 8.8 6.4 6.1 6 5.6 5.3 5.2 6.4 6.8 7.4 8 8 8.1 8.2 8.6 9.3 11.8 11.7 11.6 11.7 13.1 13.9 15.1 15.2 13.9 12.6 15.8 16.7 17.3 17.1 16.6 17.7 18.5 18.9 19 19.2 21 22.3 24 24.6 24.2 22.9 16 11.2 17.5 26.5 33.4 35 36.8 37.5 37.9 38 37.6 37.6 37.7 37.3
18.2 20.9 22.9 22 19.5 17 15.1 12.6 12.5 12.3 10.6 11.7 12.9 11.5 4.1 3.3 3 3.1 0.9 -1.8 -1.8 5.1 3 2.8 4.8 5.4 5.1 5.4 5.2 5 4.3 3.5 3.1 2.2 1.8 1.9 2 1.7 1.9 2.8 1.7 2.4 2 2.3 2 1.8 2.2 2.2 2.1 2.2 2.1 1.9 1.8 1.7 1.7 2.1 2.1 2 1.9 1.8 2.8 -1.8 -1.8 -1.8 4.6 4.7 4 3 3.2 3.7 3.3 3.6 4.5 5.3 5.4 5.6 5.5 5.2 5.4 6.8 6.6 6.1 4.7 3.3 2.1 1.2 1.7 1.5 2.9 2.9 4.3 2.1 2.1 1.9 1.8 2.1 1.8 2 2.4 2.4 2.4 2.2 1.9 2.1 2.2 2.3 3.5 5.4 7.1 7.3 6.4 4.4 1.5 1.3 1.4 1.9 1.6 1.3 1.6 1.7 1.5 1.4 2.1 2.7 4.3 7.5 9.7 11.1 11.7 11.9 13.4 16 19.6 22 22.2 20.3 19.9 19.4 18.9 18.1 16.9 14.9 13.4 12 7.5 5.9 5.9 5.9 5.1 4.8 4.6 5 5.7 7 8 8.2 8.4 8.4 8.5 9.1 12.1 11.8 11.6 11.6 14.3 15.1 15.6 15.7 15.9 15.8 16.2 17.9 17.9 17.7 17.5 17.9 18.7 20 20.2 20.4 21.7 22.9 25.1 26.2 26.4 25.5 18.7 12.1 14.7 22.3 24.4 26.5 30.6 34.7 37.5 37.8 38.4 38.6 38.7 38.4
20.3 23.8 25.7 24.5 21.8 18.1 15.8 13 12.3 11.9 11.8 12.1 13 9.4 4.6 3.5 2.7 2.7 -1.8 -1.8 3.7 3.1 2.6 2.8 5.9 5.4 4.5 5.1 5 4.8 4.2 3.3 2.3 2 1.8 1.9 2.3 2.4 2.1 2.7 2.2 2.6 2.5 2.4 1.9 2.3 2.1 2 2.1 2 2 1.8 1.7 1.7 1.6 1.9 1.9 1.9 1.9 2 3.7 3 2.6 -1.8 -1.8 4.8 3.6 2.6 2.4 2.2 2.9 3.7 4.6 5.4 6.2 6.4 6.5 6 6.7 7.6 8 7.5 6.1 4.4 3.4 3 2.9 2.6 3.3 2.9 2.9 2.5 2.3 1.6 1.8 2.2 2.1 2.3 2.5 2.6 2.8 2.4 2.4 2.7 2.6 3.2 4.6 6.6 7.8 7.5 6.3 4.4 1.8 1.3 1.4 1.2 1.2 1.4 1.7 1.6 1.9 2.4 3.4 5.7 6.6 9.3 12.9 15 15.6 16.3 17.9 20.5 23.7 25.6 25.4 24.1 24.4 24.7 23.8 22 18.3 15.7 13.5 12 5.8 5.9 5.9 6 5.1 4.9 4.9 5.2 5.8 7.8 8 8.2 8.4 8.6 8.8 9.2 11.9 11.7 11.6 11.6 12.3 15.9 16.3 16.6 16.8 17.6 18.3 17.9 17.7 18.4 18.6 18.8 19.6 21 21.5 21.9 22.8 23.7 26.4 28.2 28.7 28.8 22.6 14.7 12.9 18 24.1 29.6 32.5 32.5 36.8 38.1 38.6 39 39.6 39
22.6 26.7 27.8 26.7 22.7 18.9 16.3 13.5 12.2 12.3 12.5 11.5 12.7 9.2 4.7 3.5 2.9 1.4 -1.8 2.3 3.5 2.4 2.5 4.6 3.6 2.3 5.2 5.2 4.9 3.8 3.4 2.3 2.3 2.3 2 2.4 1.8 2.5 1.7 0.9 2.3 2.5 2.8 2.3 2.4 2.1 1.8 1.6 1.7 1.9 2.1 1.8 1.8 1.7 1.6 1.7 1.7 1.8 1.8 1.9 2.2 2.8 3 -1.8 -1.8 4.1 1.7 2.2 2.3 2.2 3.4 3.9 5.1 6.1 6.9 7 6.8 6.9 7.6 8.3 8.9 8.9 7.5 5.9 5.1 4.3 3.1 2.5 3.7 3.7 2.9 3.4 3.2 2.2 2.4 2.4 2.9 3.2 3.5 3.6 3.5 3.5 3.4 3.6 4.1 4.8 6 8 8.5 7.7 6.3 4.4 1.8 1.2 1.4 1.3 1.5 1.7 1.8 1.4 1.7 5.1 8 10.3 10 10.1 13.5 16.8 18.8 19.9 21.8 23.9 26.1 27.7 28.1 27.4 27.1 27.1 26.4 23.8 19.3 15.9 13.2 11.1 5.9 5.9 6 5.9 5.3 5 5.2 5.5 6.3 8.3 8 8.3 8.5 8.7 8.9 12.4 12 11.8 11.7 11.9 14.2 16.1 16.5 16.9 17.6 18.2 18.2 17.8 18.3 19 19.7 19.7 21 21.9 23.5 25 25.6 27.3 28.8 30.4 32.2 31.2 24.6 15.7 14.2 27.2 31.6 35.3 37.3 38 37.4 38.6 39.6 40 40.7 40.4
24.3 28.4 29.2 28.4 24.5 20.3 17 14.5 13.5 11.9 12.5 12 10.5 8 4.5 3.3 3.6 -1.8 2.3 2.3 3.2 2.5 3.6 4.2 3.4 2.6 2.3 2.3 2.3 2.8 2.3 2.3 2.3 2.3 2.1 2.3 2.6 0.9 0.9 0.9 2.5 2.9 2.1 2.2 1.9 2.1 1.7 1.8 1.9 1.7 2.3 2 1.9 1.8 1.7 1.6 1.6 1.7 1.8 1.8 3.1 2.8 2.5 2.7 -1.8 2.6 5.1 3.6 4.2 3.9 3.5 4.2 5.2 6.4 7.6 7.4 7.2 7.5 8 8.9 9.7 10.3 9 8.4 7.7 6.9 6.1 5.4 5 4.6 4 3.7 3.1 3.3 3.5 3.5 3.9 4.1 4.4 4.6 4.5 4.4 4.4 5.5 6.1 6.7 7.6 8.9 9 8 6.2 4.2 2 1.3 1.4 1.7 1.6 1.8 1.4 1.7 4.4 7.5 11.3 13.8 13.1 11.9 13.8 17 20.3 21.5 22.3 23.3 24.4 26.5 28.2 28.6 27.8 26.2 24.1 21.2 17.7 14.9 12.4 10.5 7.7 6.1 6.2 5.6 5.5 5.1 5.4 5.8 7.7 8.6 8.5 8.3 8.5 8.8 9.1 12.6 12.3 12.1 12 12 15.7 16.3 16.8 17.4 18 18.3 18.5 18.3 19.1 19.8 20.4 20.8 22.4 23.6 25.7 27.9 29.4 30.6 32.7 34.2 34.6 33.5 26.6 20 18 29.6 35.9 38.1 39.2 39.3 39.3 40.1 40.5 41 41.9 41.8
24.3 28.4 30.3 29.5 26.1 21.9 17.8 15.4 13.4 11.8 11.9 11.8 10.7 5.2 3.8 3.1 -1.8 3 2.3 2.3 3.8 2.9 3.6 3.2 3.3 2.4 2.3 2.3 2.3 2.3 2.3 2.3 2.3 2.3 2.3 2 0.9 0.9 0.9 0.9 2.8 3.2 3.2 2.9 2.5 2 1.7 1.9 2.1 2.3 2.3 2.2 2 1.9 1.9 1.6 1.6 1.8 1.7 1.8 3.3 2.9 2.8 2.3 -1.8 3.1 2.8 2.4 4.4 4.7 4.5 4.7 5.3 6.7 7.8 7.7 7.6 8.2 8.7 9 10.1 11.5 11.9 11.4 10.7 9.5 7.9 6.9 6.6 5.8 5.2 4.2 3.7 4.1 4.4 4.5 4.8 5 5.3 5.5 5.5 5.4 5.8 6.7 7.3 8.3 10 10.2 9 7.3 5.2 3.6 2.6 2.3 1.2 2.1 2 1.8 1.7 3.6 4.9 9.8 13 15.6 16.4 15.5 14.8 17.5 19.2 20.3 20.8 20.9 21.3 22.5 24.1 25.2 24.1 22.5 20.6 17.7 15.4 12.7 10.6 8.9 7.5 6.7 6.5 5.8 5.8 5.3 5.6 7.1 8 8.5 8.7 8.8 8.5 8.7 12.6 12.5 12.7 12.4 12.3 12.1 15.9 16.5 16.8 17.3 17.8 18.1 18.5 19.3 20.1 21.3 22.3 22.9 24.9 27.3 30 31.8 33.6 35 35.6 36.6 37.3 34.9 30.3 20.4 17.7 29 37.7 39.6 39.9 40.2 40.6 40.9 42.3 42.2 43.1 43.5
22.5 27.3 31.1 30.2 27.2 22.9 18.4 15.5 14 11.3 11.7 11.2 8 3.9 3.6 2.4 -1.8 2.3 2.3 2.3 2.3 2.5 3.5 3.1 3.3 2.3 2.6 2.3 2.4 2.2 9.7 2.3 2.3 2.3 2.3 2.9 3.3 3.8 1.3 0.9 0.9 3.1 2.9 2.2 2.1 1.7 2.2 1.9 2.2 2.4 2.3 1.7 2.2 2.1 1.7 1.5 1.3 1.7 1.9 1.8 2.7 2.3 2.3 2.9 -1.8 2.3 2.5 2.6 4.4 5.3 5.5 5.8 6.1 6.7 7.7 7.9 8.2 8.5 9 9.4 11 13.4 14.4 13.8 12.9 11.4 9.6 8.4 7.9 7.1 6.3 5.7 5.4 5.2 5.2 5.4 6 6 6.2 6.4 6.4 6.7 7.3 7.9 9.1 11 11.9 11.3 9.8 7 5.5 3.7 3.1 2.8 1.5 1.7 2.2 2.3 2.8 5.3 9.2 12.5 15.4 17.3 18.8 18.6 17.8 17.9 18.6 19.1 18.8 18.2 19 19 19.8 19.8 19.4 17.8 16.1 14.2 12.4 10.4 9 7.5 6.7 6.3 6.1 5.7 5.4 5.5 6.5 7.2 8.3 8.7 9.1 9.3 9.5 10.1 12.3 12.4 12.5 12.7 12.6 15.4 16.1 16.2 16.5 16.9 18 18.6 19.1 20.5 22 23.5 24.7 26.2 29.4 31.7 34.5 36.2 37.8 38.5 38.3 39.3 38.2 35.7 31.1 20.9 16.7 29 37.7 40.8 41.2 41.6 42 42.4 43 43.5 44.2 45.5
21.5 26.6 30.5 30.7 28.7 22.9 18.8 16.3 13.5 11.8 11.7 10.4 4.9 2.3 3.4 2.3 2.3 2.4 2.3 2.3 2.3 2.9 2.9 2.3 2.3 2.4 3 2.5 2.5 2.6 2.1 2.3 2.3 2.3 3.2 4.7 4 4 3.1 3.5 0.9 3.4 2.9 2.6 2.2 2 2.2 2 2.5 2.5 2.4 2.1 1.8 1.7 1.8 1.5 1.2 1.4 1.7 3.7 2.7 2.7 3.6 2.8 -1.8 2.2 3.5 2.4 2.6 4.9 6.5 6.8 7.1 7.3 7.5 8.1 8.9 9.7 9.9 10.4 12.7 15.8 17.8 16.8 14.9 13.1 11.3 9.9 9.1 8.4 7.6 6.9 6.2 6.1 6 6.3 7.1 7.2 7.3 7.3 7.6 8.2 8.9 9.4 10.9 12.6 12.7 11.8 9.5 6.7 5.7 5 4.4 2.7 1.8 1.4 4.1 2.3 5.2 5.9 9.5 10.8 11.2 13.1 16.9 19.9 20.6 21.3 21 19.8 18.8 17.5 17 16.6 16.5 16 15.2 13.8 11.2 9.1 9.9 8.8 7.4 6.6 6.2 5.8 5.9 5.5 5.2 5.9 7.1 7.4 7.7 8.8 9.2 9.6 10 10.7 11.2 12.3 12.3 12.5 14.1 14.7 15.4 16.1 16.5 16.5 17.7 18.7 20.5 22.4 24.5 26.9 29 31.5 34.8 36.7 38.9 40.3 40.7 40.9 40.7 39.7 38.4 35.9 33.3 25.4 17.4 26.9 35.5 39.2 40.9 42.4 42.8 43.1 43.5 44 44.9 46.5
21.4 26.3 29.7 29.3 27.5 21.5 18 16 12.4 11.1 11.4 9.7 3.4 2.3 4 4 3.2 3.9 4.3 3.2 2.7 3.1 3.5 3.2 2.3 3.3 3.4 2.9 2.6 2.6 2.6 2.6 2.6 3.8 4.2 4.4 4.4 4.4 4.4 4.5 4.6 4.3 3.6 3.3 2.7 2.1 2.4 2.3 2.5 2.5 2.3 2.2 1.9 1.9 1.8 1.4 1 1.1 1.9 2.7 2.9 3.6 3 2.5 -1.8 3.2 2.3 2.2 2.1 2.6 6.5 7.5 7.7 7.9 8.1 8.8 9.5 10.9 11.2 11.7 13.8 16.8 19.6 18.7 16 13.9 12.1 10.8 10.1 9.3 8.4 7.7 7.7 7.5 6.8 6.5 7.9 8.5 8.6 8.7 8.7 8.9 9.4 10.2 11.4 13 11.5 11.4 9.9 7 5.7 4.7 4.3 1.8 1.8 4.3 1.8 1.6 1.9 1.7 1.8 2.4 3.2 4.9 9.1 15.6 19.4 22.2 23.6 21.3 18.6 16.3 16.1 15.7 14.7 13.3 11.8 10.8 10.2 9.2 8 6.8 6.4 6.1 5.7 5.3 5.4 5.3 5.6 6.4 6.9 7.4 7.8 8.1 8.7 9.6 10.6 11.3 11.5 13.2 13.3 13.3 13.5 14.6 15.6 15.8 16.4 16.4 17.4 19.9 21.3 23.8 27.1 30.8 34.2 36.9 39.4 41.1 41.7 42.4 42.5 42.5 41.6 40.1 38.9 37.2 35 28.7 22.2 19.4 31.6 35.7 39.4 42.6 43.5 43.9 44.2 45.2 46.4 48.7
21.5 25.6 26.4 25 22.9 20.8 17.6 15.1 13.7 10.8 10 5.5 2.1 3.4 4.7 4.1 4.2 4 4.2 4.4 3.9 5.4 5.3 5.2 3.6 4 3.5 3 2.6 2.6 2.6 2.6 4.4 3.9 4.7 4.9 4.9 4.8 4.9 5.3 5.9 5.7 5.1 3.7 2.7 2.5 2.7 2.5 2.2 2.4 2.3 2.2 2 1.8 2 1.2 1 2.5 -1.8 -1.8 -1.8 2.5 2.4 -1.8 -1.8 2.3 1.9 1.9 2.3 2.1 2.8 3 7.8 8.9 9.3 9.9 10.3 11.5 12.5 12.6 14.4 17.3 18.9 18.3 16.3 14.2 12.3 11.3 10.8 9.9 9 9.4 9 8.6 8.8 9 9.4 10 10.1 10.2 10.2 9.9 9.9 11 12 13.3 11.9 10.8 9 7.1 5 3.3 4.1 1.8 2 1.8 2 1.4 2.1 1.7 1.5 1.8 1.6 1.7 1.9 3.4 13.2 16.6 22.1 20 16.8 14.7 15.3 15.4 14.8 12.5 10.6 9.6 9 7.6 6.8 5.9 5.7 5.4 5.1 4.6 5 5.1 5.1 6.3 7 7.3 7.6 8 8.4 9.7 10.8 11.4 12.2 12.6 12.7 13.3 13.9 14.7 18.4 15.2 15.6 16.1 17.5 20.4 23.5 25.4 28.2 33.8 38 40.5 41.7 41.4 41 42.3 43.7 43.5 42.3 40.8 39.4 38.1 36.3 33.2 28.6 22.2 25.5 33 37.3 41.5 44.2 44.7 45.6 46.6 48.1 51.7
21.2 24.2 24.2 23 21.4 19.6 17 14.3 12.7 10.6 5.1 4.4 4.2 5 4.5 4.4 4.3 4.4 4.4 4.4 4.9 6.4 5.8 5.8 5 4.8 3.7 4 2.6 2.6 2.6 3.9 4.4 4.3 4.9 5.4 5.3 5.2 4.9 4.7 4.6 4.1 3.4 3.4 3.9 3.7 2.4 2.1 2.4 2.4 2.3 2.2 2 1.7 1.3 1 3.3 -1.8 -1.8 2.6 -1.8 -1.8 -1.8 -1.8 4.5 2.2 2.2 2.1 2 2.1 2.1 2.2 2.8 10.4 10.6 11.2 12.4 13.4 12.8 14.1 15.8 17.5 17.7 17.4 15.3 13.7 12.1 11.8 11.5 11.3 10 10.1 10.1 9.8 10 10.2 10.9 11.3 11.6 11.7 11.7 11.6 11.3 11.2 11.6 12.3 11.9 10.6 8.7 6.8 4.8 3.7 2.6 1.8 1.6 1.7 1.5 1.7 2 1.6 1.7 1.7 1.7 1.7 1.9 2 7.4 13.2 15 15.7 14.7 12.8 14.7 16 15.5 12.7 10.2 8.6 7.5 6.4 4.1 4.3 4.5 4.5 4.1 4.4 5 5.5 5.7 5.8 6.6 7.1 7.4 7.9 8.3 9.1 10.5 11.8 15.5 13 12.7 13.1 14.3 14.8 14.7 16.3 15.2 16.2 17.6 21.7 24.1 25.8 28.3 33.1 36.2 38 38.4 38.4 39 40.8 43.1 43.9 43.1 41.5 40.4 38.5 36.9 34.9 32.7 27.6 21 31.3 36.5 40.6 43.9 45.9 47.2 47.8 50 54.2
23.2 23.6 23.2 21.9 20.3 18.3 16.2 13 5.8 4.5 4.4 4.6 5.4 4.7 4.1 3.7 4.4 4.7 4.7 4.6 5.5 7 8.3 10.8 8.3 5.1 4.6 3.8 2.6 2.6 3.4 4.5 4.8 5 5.1 5.6 5.8 5.5 5.2 4.7 4.2 3.9 3.7 3.6 4.3 3.8 3.4 2.9 2.6 2.3 1.8 1.9 2.1 1.6 1.5 2.1 -1.8 -1.8 2.9 2.9 3.1 3.8 3.8 2.4 1.6 2.4 2.4 2.3 2.1 2.1 2.9 2.5 2.4 11.8 12 12 13.2 14.3 15.7 16.9 17.9 17.6 16.9 15.9 14.5 13 11.9 11.8 12.1 12.4 12.1 11.7 11.3 10.9 11.2 11.4 12.4 12.8 13.2 13.2 13.2 12.7 12 12 11.9 12.3 11.8 10.2 8.3 6.5 4.9 5.3 2.2 1.6 1.9 1.7 1.5 1.7 2.1 2 2 1.9 1.8 1.9 2 1.9 1.7 7.2 10.7 11.9 11.4 10 13.7 18.4 17 14 10.7 8.9 7.1 5.6 4.9 3.7 3.3 3.5 4.3 4.5 5 5.4 5.7 6 6.3 6.9 7.3 7.8 8.3 8.7 9.9 11.3 12.7 19.6 12.2 16.1 16.1 14.3 13.5 14.3 14.6 16.1 18.4 20.9 23.1 24.6 27.4 30.7 32.7 33.9 34.9 35.2 36 39.1 42.4 43.8 43.7 42.3 41.1 39 36.8 35.7 33.6 31 22 31.6 36.1 39.8 43.6 46.8 48.6 50.3 51.7 54.8
23.9 23.5 22.7 20.8 19.2 16.8 9.9 7.7 5.2 5.5 5.6 5.7 5.6 5.5 4.6 3.6 4.4 5.4 8.8 3.1 5.9 6.3 7.1 8 7 6.1 6.5 3.2 2.6 3.4 5.1 5.5 5.2 5.4 5.3 5.8 6.1 5.4 4.9 4.4 4 3.6 3.4 3.5 4.2 3.8 3.3 2.9 2.5 2.2 2 1.9 1.8 1.8 1.1 -1.8 -1.8 2.9 2.6 4.6 2 2.1 2 1.4 1.8 2.3 2.4 2.3 2.2 2.2 2 2.1 2.6 12.5 13.4 13.4 13.8 14.9 16.5 17.7 18.4 18.3 17.1 15.7 14.3 12.3 11.5 11.5 12 13.2 13.4 13.2 12.6 12.2 12.3 12.8 13.8 14.6 14.7 14.7 14.4 13.4 12.6 12.2 12.2 11.8 11.2 10.2 7.9 7 5.4 2.8 1.9 1.8 2 1.4 1.4 1.5 2.2 2.2 1.7 1.8 1.9 2 2.1 2 1.8 1.9 5.6 8.7 9.1 10.5 19.2 25.1 21.7 15.8 11.6 8.5 6.6 5.5 4.3 3.5 3.2 3.8 4 4.7 5 5.3 5.6 6 6.4 6.8 7.2 7.7 8.2 8.6 9.3 10.7 11.3 11.4 18.2 15.6 18.4 13.5 13.3 13.5 14.7 16.2 17.8 19.7 22 24.6 27.4 29.1 30.2 32.3 32.6 32.9 33.8 36.8 40.3 42.5 43.7 43.1 41.7 39.5 37 35.4 33.7 29.5 27.6 29.4 35.8 39.8 43.4 48.3 51.3 53.7 54 55.9
23.7 23.2 21.9 20.1 17.4 12.6 5.2 4.5 6.9 4.8 6.4 5.7 5.5 5.6 5.2 4.9 4.8 6.8 6 3.2 6.4 6.6 7.8 7.2 7.6 7.3 6.7 2.6 4.9 5.2 5.6 6.1 5.9 5.8 5.5 5.9 6.1 5.7 5 4.3 3.9 3.4 3.2 3.3 3.5 3.5 3.1 2.6 2.4 2.3 2.2 2.1 2 2.2 2 -1.8 2.7 2.9 2.6 2.2 2.1 2.3 2.2 1.6 2.1 2.3 2.3 2.1 2.4 2.3 2 2.4 4 14.3 14.5 14.7 14.8 15.6 16.5 18.2 18.7 18.1 15.8 14.4 13.1 11.7 10.5 11.1 13 14.9 14.9 14.2 13.5 13.7 13.8 14.2 15.3 16.2 16.3 16.1 15.2 14.1 13.3 12.1 12.3 11.4 10.6 9.8 8 6.2 3.8 2 1.7 1.9 1.8 1.7 1.4 1.7 1.7 2.1 1.7 2 2.1 2 1.9 2 1.9 1.8 1.9 3.7 5.9 16.4 25.6 30.4 25.9 16.4 11.6 8.6 6.5 5.4 4.2 3.3 3.1 3.4 3.7 4.2 4.6 5.2 5.6 6 6.5 6.7 7 7.5 8 8.5 9 10 10.1 10.8 11.4 15.6 12.8 12.1 12.4 12.6 14.5 16 17.6 19.5 21.4 23.5 25.7 27.9 29 31.2 31 31.4 32.5 34.5 37.7 41.4 43.8 43.7 42.1 39.3 36.9 35.3 33.1 29.3 31.8 35.1 36 40.2 44.6 51.6 54.9 56.7 57.7 59
24.9 23 21.5 18.4 13.2 6.7 5.5 7.6 4.8 4.8 7.1 6.8 5.6 7.1 6.4 7.6 7.5 7 6.2 3.2 6.6 7.2 7 7 7.4 7.8 7.3 6.7 5.1 5.5 5.9 6.3 6.7 6.3 5.8 6.1 6.3 5.6 4.7 4.5 4.2 3.7 3.2 3 3 3 2.8 2.3 2.3 2 2.3 2.2 2.1 2.8 -1.8 -1.8 3.1 2.3 2.5 2.1 2.2 2.3 2.2 2.1 2.2 2.4 2.4 2.1 1.7 2.2 2.2 2.1 14.3 14.2 14.5 14.5 13.7 14.4 16.6 18.2 17.7 15.8 13.7 12.6 11.4 10.1 9.8 10.7 12.9 16.2 16.3 16 15.1 15.1 14.9 15.3 16.4 17.5 17.6 17 16 14.9 13.8 12.8 12 11.1 9.8 7.3 6.9 5.7 3.3 2 1.7 2 1.7 2.2 2.2 2 1.9 2.3 2 1.9 1.7 1.6 1.8 2 1.6 1.9 1.6 1.8 8.7 15.9 24 28.4 25.4 17.8 12 8.6 6.8 5.3 4 3 3 3 3.2 3.5 3.7 4.2 4.6 5 5.5 5.5 6 6.9 7.6 8.2 8.7 9.3 9.5 10.3 11 11.3 12.5 11.2 11.4 12.1 13.8 15.8 17.7 19.7 21.6 23.4 24.9 27 27.9 28.9 29.6 30.5 31.8 33.3 36.4 40.7 43.7 43.8 41.7 39 36.4 34.7 32.3 26.5 33.6 36.9 39.1 41 46.2 54 58.7 60.6 62.3 63.8
24.2 22.6 20.1 16.2 8.7 6.7 4.8 5.1 4.8 6.8 7.3 7.2 6 7.2 9 7.9 7.3 7.8 5.3 4.7 5.3 6.1 6.5 6.9 7.3 7.6 7.7 7.2 5.6 5.8 6.6 6.9 7 6.8 6.3 6.5 6.3 5.4 4.4 4.6 4.6 3.9 3.2 3 3.2 2.8 2.5 2.3 1.5 1.4 2 2 -1.8 -1.8 -1.8 3 4.8 0.7 2.1 2.9 2 2 2.3 2.3 2.4 2.5 2.3 2 2 1.9 2.3 5.1 9.4 11.9 12.9 11 10.2 11 13 14.2 14.2 11.9 10.9 10 9.1 8.1 8.7 10.5 12.7 16 16.8 16.1 15.5 15.5 15.8 16.1 16.8 17.7 18.4 17.9 16.8 15.5 14 13.7 12 11.1 6.4 7.4 5.8 4.5 2.8 2.3 1.9 1.5 1.9 2.1 1.5 2 2 2 1.7 1.5 1.4 1.3 1.4 1.5 1.9 2 1.8 2 3.5 14.1 19.9 22.7 20.7 16 10.8 9.6 7.3 5.8 4.2 2.9 2.8 2.8 2.9 3.4 3.2 3.6 3.9 4 4.5 4.4 4.7 4.9 5.9 7.8 8.6 9.3 10.1 10.6 11.3 11.1 10.9 11.3 10.9 11.7 13.6 16 18.2 20 21.3 22.7 24.1 25.5 27.6 28.3 28.7 29.8 31.3 33 36.5 40.5 43.8 43.6 41.4 38.8 36.3 34.1 28.6 31.8 34.8 38.6 42 44.6 49.1 55.7 61.9 64.6 66.3 67.4
23.5 20.4 18.2 10.1 6.7 4.8 4.8 4.8 6.2 7.2 7.2 7.3 7.2 10.1 9.2 8.7 7.8 6.4 5 5.1 5.4 6.1 6.7 7.1 7.7 8.1 7.7 5.9 6.2 6.8 7.3 7.3 7.2 7 6.8 6.5 6.2 5.2 4.6 4.1 4 3.8 3.2 2.5 1.9 1.5 1.6 2 2.2 2.2 2.5 -1.8 -1.8 3.6 5.2 7.3 6.3 5.6 3.7 0.8 0.6 1.3 1.8 2.3 2.4 2.4 2.2 2.2 2.2 2.6 2.4 3.9 5.9 8 8.1 7.8 7.3 7.8 9.4 9.7 9.9 9.7 8.6 7.5 7 7 7.7 9.5 11.8 14.3 15.4 15.7 15.7 15.7 15.3 15.3 15.6 17.8 18.2 17.8 16.8 15.6 13.9 13.4 12.2 8.1 9.3 7.2 5.3 4 2.3 2 2 1.4 1.6 2 1.6 2 2 1.7 2 1.8 1.6 1.6 1.8 1.7 2 1.8 1.8 1.8 1.8 2.9 13.2 15.4 14.6 12 9.9 8.9 7.7 6 3.9 2.5 2.8 2.7 3.5 3.8 3.9 4 3.6 4.3 4 3.8 5.1 5.5 6.9 7.7 9.1 9.9 10.4 11 11 10.5 10.4 10.6 10.8 11.9 13.7 15.8 18 19.7 21 22.2 23.6 24.7 26.6 27.4 28.1 29.1 30.7 33.6 37.4 41 43.5 43.1 40.8 38.3 35.8 33.1 33.5 34.8 35.5 40.3 44.3 48.1 54.7 60.6 65.8 67.9 68.6 68.7
15.3 14.5 10 8.4 4.8 4.8 6 4.8 7.7 7.6 7.6 7.7 9.1 9.4 8 8.1 7.1 5 5 5 5 5.6 6.8 6.5 8 8.7 5.9 6.8 7 7.1 7.3 7.3 7.1 6.8 6.7 6.5 6.2 5.6 4.9 4.4 3.8 1.7 2.3 2.5 2.8 2.2 1.9 1.3 2.5 3.8 -1.8 -1.8 3 3.8 5.9 6.7 6.5 6.7 7.3 7.2 5.6 4.1 2.4 1.7 0.8 0.6 1.7 1.8 2 1.9 2.2 2.4 2.9 3.7 4.7 4.5 4.9 5.3 6 6.5 6.7 6.7 6.5 5.7 6.1 5.9 7 8.5 9.9 12.7 14.3 15.4 16 15.5 14.9 14.9 14.5 14.9 17.1 16.8 16.1 14.3 14 11.5 12.3 11 9.3 7.2 5.1 3.8 1.6 2.1 1.7 1.4 1.6 1.8 1.9 1.7 1.7 2.3 2.1 2.1 1.9 1.8 1.8 1.8 1.9 1.9 1.8 1.8 2.2 2.1 2 6.5 8.2 9 8.7 8.3 8.1 6.4 4.2 2.6 2.9 3 3.4 4.4 4.7 5 5.3 5.3 4.6 4.8 3.8 6.4 6.7 7.8 9.6 10.5 11 11.1 10.5 10 9.9 10 10.6 11.7 13.9 15.6 16.9 18.5 21.2 21.6 22.1 23.7 25.4 27.1 28.6 29.6 32.3 35.3 39.3 41.7 43 42 39.6 37.2 34.8 31.3 34.7 36.2 36.5 40.7 44.7 50 58.2 65.7 68.9 70.5 70.6 69
17.4 8.9 6 6.3 4.8 6.7 4 8.9 8.3 8.5 8.6 8.7 9 7.7 6.9 6.8 5 5 5 5 5.1 5.5 6.7 7.2 8.9 5.5 7.9 7.7 7.3 6.9 6.9 6.8 6.9 6.4 6.6 6.3 6 5.8 5.2 4.6 3.7 2.4 2.1 2.3 2 2.1 1.9 1 -1.8 -1.8 2.7 5.2 4.8 3.3 3.8 6 6.7 8.1 5.4 6.5 5.3 4.3 3.5 2.6 2.3 2.2 1.3 0.5 1.2 1.7 1.8 2.2 2.3 2 1.8 2 2.1 2.7 2.9 3 3.9 3.8 3.8 3.9 4.2 4.8 6.2 7.6 8.8 10.6 12.4 14.3 15.7 14.9 13.7 12.8 13.1 13.6 13.8 13.5 14.4 12.8 6.8 12.9 12.5 11 9.3 7.1 5 3.2 1.7 1.6 2 1.6 2 1.6 2.8 5.6 6.7 7 7.4 6.1 4.4 1.9 1.9 2.1 2.1 2.1 2.1 1.9 2.2 1.9 1.9 3.8 4.8 6.2 7.2 8.7 8.7 7.4 4.6 2.7 2.9 2.3 3.8 4.4 5 5.6 6.3 6.3 6.1 5.9 6.6 5.4 6.7 8.5 9.8 11.2 11.6 10.6 9.8 9.4 9.6 10.1 10.5 11.2 13.2 14.4 15.2 17.2 19.1 19.8 21.4 23.7 25.4 27.2 28.3 31.1 34.7 38 41 42 42.6 41 38.6 37.8 36.4 34.5 35.1 37.4 38.8 41.3 45.6 50.1 57.6 65.4 70 71.5 71.3 69.3
8.2 6.6 6.4 6.2 7.5 7.3 7.2 9.4 10.1 9.6 9.6 9.6 8.4 7 7 7.3 5 5 5 5 5.3 5.9 6.7 7.8 6.4 7.3 8.6 8.3 7.6 7.3 7.3 7 6.6 6 5.1 6.2 5.8 5.7 5.5 4.7 3.1 2.6 2.2 2.4 2.6 2.3 -1.8 -1.8 -1.8 2.9 3.8 3.2 3.1 3.2 4 5.9 7.1 7.9 7.7 6.4 5 3.9 3 2.4 2.1 1.9 1.8 2 2.3 2.5 2 2.3 2.2 2.1 1.5 1.9 1.6 2 2.1 1.9 2.3 2.3 2.6 2.9 2.8 3.4 4.7 6.1 7.5 8.6 10.5 12.4 13.5 13.2 11.8 10.8 10.9 11.2 12 11.9 10.9 9.3 13.5 13.3 12.9 11.2 9.1 7.2 5 2.4 1.7 1.6 1.6 1.7 2.3 1.7 5 8.9 9.3 9.8 10.4 9.8 7.7 5.7 3.6 2.4 2.3 2.2 2.4 2.3 2.1 1.9 2.6 3.2 3.4 4.1 5.2 6.4 6.7 5.5 3.2 2.4 3 4.4 4.9 5.1 5.7 6.5 7.2 6.9 6.9 7.2 6.1 5.6 7.3 9.3 10.7 11.6 11.1 10.1 9.3 9.1 9.7 10.2 10.6 10.9 12.3 12.8 13.4 14.6 15.6 16.9 19.2 21.7 24.3 26.6 28.3 33.3 37.7 41.3 42.6 42.6 41.6 40 39.5 39.1 37.6 35.9 36 38.3 40.8 42.9 46 49.5 55 62.7 70.1 71.6 70.7 68.7
7.3 6.5 6.4 7.4 8 8.4 10.6 11 9.9 10.7 10.8 10.7 7.4 7.2 7.7 7.5 5 5 5 5 4.8 7.3 7.5 7.7 7.4 7.3 8.6 7.7 7 7 7.2 6.9 6.3 5.6 5 6 5.7 5.8 5.4 4.4 2.8 2.7 3 -1.8 -1.8 -1.8 -1.8 -1.8 4 3.7 3.1 3.3 3.2 3.7 4.6 6.5 7.7 7.8 7.5 6.5 4.8 3.6 3 2.8 2.1 2.3 2.1 0.7 0.2 0.2 2.1 2.4 2.3 1.6 0.9 -0.4 2.3 1.9 1.9 2 2 2.2 2.4 2.5 2.2 2.3 3.3 4.2 5.2 6.5 8.7 10.4 10.8 10.5 10.1 9.4 8.7 9.1 9.6 6.9 11.4 12.1 13.6 14.1 13.4 11.2 8.6 6.8 5 2.1 1.7 1.6 1.4 2.2 2 1.8 5 10.7 12.1 12.7 13.3 12.9 10.7 8.1 5.7 3.2 2.3 2.4 2.4 2.5 2.4 5.8 2.3 2.1 2.3 3.3 3.4 4.2 3.5 2.6 2.5 2.8 3.6 5.1 6.5 6.6 7 7.9 7.6 7.6 8.2 8.1 7 5.8 7.3 9.1 10.6 10.9 10.2 8.9 9.7 9.4 9.8 10.2 10.2 10.7 10.3 11.5 11.8 12.3 13.6 14.9 16.6 19.3 21.9 25.2 28.8 33.5 38.7 43.6 43.7 41.9 40.7 39.6 40 40.3 38.7 37.1 37.2 39.3 42 44 45.2 47.9 53.7 62.1 70.2 70.2 68.6 66.9
7.1 7.2 7.2 7.7 8.3 10.6 11.7 11.7 12.8 13 11.9 10.4 7.4 7 7.4 7.3 6.6 5 5 5 3.7 6.6 10.2 11 12.5 8.7 9.1 8.2 9.1 8.2 6.9 6.5 6.9 8.6 5.5 5.9 5.8 5.9 4.4 4.3 3.5 -1.8 -1.8 -1.8 2.8 3.6 -1.8 -1.8 3.1 3.3 3.2 3.3 3.6 4.2 5 6.6 7.7 7.6 7.2 6.1 4.7 3.3 2.5 2.3 1.7 2.2 1.7 1.8 2 1.2 0.1 2.5 -0.4 2.5 1.6 1.2 0.7 1.5 2 1.6 1.8 1.9 1.5 2 2.2 2.2 2 2.6 3.5 4.6 6.7 7.4 8.1 8.2 8.3 8.2 7.9 6.9 6.6 8.7 9.8 11 14.4 15.3 13.8 11.2 8.3 6.3 3.8 2 1.7 1.7 1.5 1.5 2.1 1.8 4.4 9.7 12.5 13.8 14.2 14.5 13.5 10.8 8 4.9 2.3 2 2.3 2.5 5.5 6.6 2.4 2.5 2.5 3.7 3.4 3.1 3.5 3.7 4.1 4.1 3.6 5.8 7.6 7.9 8.5 8.4 8.7 8.7 9.4 9.8 8.2 6.9 6.3 7.6 8.7 9.4 8.4 8.5 9.1 9.5 9.9 10.3 10.7 11 11.3 11.7 11.9 12.4 12.8 13.6 14.3 16.6 19.7 24 28.8 34.4 38.7 43 42.6 40.5 40.1 39.9 40 41.1 40.4 39 39.1 40.9 43.6 45.9 49.9 50.1 54 62.5 68.6 67.5 66.4 64.7
6.7 6.2 9 9.2 10.4 11.3 12.5 12.3 12.6 12.6 11.2 10.4 7.6 7.4 7.5 7.1 6.3 5.4 5 6.8 6.3 11.1 13.1 13.5 13.1 12.9 9.3 9.1 8.8 8.2 7 6.8 7.6 8.3 7.2 5 5.4 3.9 4.7 -1.8 -1.8 -1.8 4.2 4.3 4.7 4.2 -1.8 -1.8 3.5 4 3.9 3.6 4.1 4.8 5.5 6.8 7.7 7.6 6.8 5.5 4.2 2.2 1.4 1.2 1.7 1.5 1.2 1.6 1.4 1.1 1.5 1 2.3 1.5 1.2 1.6 -0.4 1.5 1.8 2 1.4 1.3 2.3 1.7 1.8 2.1 1.6 2.1 2.2 3 4.2 5 5.6 6.1 5.5 5.8 5.9 6 7.1 8.2 9.3 13.2 16 16.1 13.9 11 7.9 5.4 3.3 1.9 1.8 1.9 1.4 2.2 1.8 1.8 4.6 7.3 9.8 13.1 14.7 15.1 15.3 13.4 10.4 6.8 3.8 2.3 4.1 5.3 6.2 2.3 4.5 4.5 4.6 5 5.3 5 5.7 5.9 5.4 5 5.5 7.3 8.9 9.3 9.8 10 9.9 9.6 11.7 11 9.3 8 6.7 7 7.5 7.9 8 8.4 9.2 9.6 9.9 10.3 10.7 11 11.4 11.7 12.1 12.3 12.9 13.1 13.5 13.9 17.4 22.9 28.6 34.2 38.3 41.9 41.4 39.2 38.6 39.9 41.1 41.9 42.3 40.1 40.7 43.2 46.6 51.7 56.5 57.3 55.7 62.4 66.9 66.3 65.3 63.6
6.2 8.7 9.6 11.1 12.2 12.8 12.9 13.5 13.4 13.3 9.9 8 8.5 7.7 7.4 6.9 6.3 5.9 5 7.3 11.6 12.7 13.4 13.5 13.9 13.2 11.7 8.6 8.1 8 6.9 7.6 8.3 7.3 3.8 4.4 -1.8 -1.8 -1.8 -1.8 5.1 5.7 5.2 3.4 3.1 4.2 -1.8 -1.8 3.8 4.3 4.6 3.9 3.9 4.6 5.8 7 7.7 7.6 6.6 5.1 3.2 1.7 1.3 1.5 1.9 2.3 2.1 1.6 2.4 1.3 1.7 2.2 2.2 1.9 1.6 1.5 1.2 1.7 1.6 1.7 1.6 1.9 2.2 2 2 2.2 2.2 1.5 1.9 2.8 2.2 3.1 5.5 4.9 4.8 4.8 4.7 4.4 6.3 7.9 9.9 15 17.3 16.3 12.2 9.9 6.8 4.5 2.1 1.8 2 2.2 1.5 2.1 2.2 2.4 3.7 5.9 8 10.1 13.8 15.3 16.2 15.5 12.9 8.4 4.8 5.4 5.4 3.5 6.7 12.3 3.1 5.3 5.6 5.8 6.3 6.8 7.4 7.8 7.3 6.6 7.9 9.1 9.9 10.4 10.7 11 11 11.9 11.8 11.7 10.1 8.7 7.5 6.7 7.2 8 7.9 8.4 9.3 9.7 10 10.4 10.6 11 11.5 11.8 12.1 12.5 12.8 13.3 13.7 14.2 15.1 19.3 25.6 32.2 36.9 39.5 38.7 36.1 38.4 40.1 41.5 43.9 43.6 41.4 42.6 45.8 51.4 58.2 63.3 63.9 61.5 65.3 67.4 66.6 65.6 63.8
9.2 10.7 12.1 12.7 12.4 12.7 13.6 14.1 13.5 11.3 8.1 7.2 7.5 7.7 7.7 7.2 6.7 6.5 6.5 10.2 11.6 13 13.5 13.8 13.8 13.7 11.9 8.6 8.3 8.2 8.3 8.6 7.7 6 2.3 -1.8 -1.8 3.4 4.8 5 5.8 5.9 5 4.3 3.4 2.5 -1.8 5.4 4.4 5.1 5.5 5.1 4.5 4.7 5.3 6.4 7.7 7.4 6.5 4.2 1.8 1.5 1 1.8 2 2.2 2.3 2.2 2.2 2.4 2.7 2.5 2.3 2 1.8 1.6 1.1 1.5 1.6 2 1.7 1.9 2.2 2.1 2.1 2.3 2.2 2 2.5 5.2 2.2 1.8 2.2 2.1 2.8 3.5 3.6 4.8 6.5 8 12.7 16.7 18.1 16 11.7 9.1 6.4 3.9 1.5 1.8 2.3 1.6 1.8 2.1 2.9 4.1 5.4 5.6 7 8.7 10.7 15.5 16.4 16.5 14.1 9.9 5.9 5.4 5.6 7 9.7 14.2 8.4 6.1 6 6.7 8.7 9.8 10.1 9.6 8.9 8.6 9.2 8.9 10.3 11.3 11.7 12 11.7 12.1 11.7 11.2 10.9 9.9 8.5 7.3 7.5 8 7.9 8.5 9.1 9.7 10 10.3 10.6 11 11.5 11.9 12.2 12.5 13 13.6 14.1 14.3 14.7 15.9 20.9 27.7 32.4 32.5 30.3 37.1 40.8 41.5 42.8 45 45 43.2 44.9 48.4 55.1 62.4 70.5 69.8 67.6 69.4 69.3 68 65.5 63.6
11.5 13.9 13.7 12.2 12.4 13 14.8 14.7 13.4 8.7 7.4 6.9 7.2 7.1 7.1 7.5 7 6.8 7.1 10.2 12.9 13.3 13.4 13.3 13.1 13.3 11.9 9.3 8.7 8.8 8.7 7.5 5.8 2.3 -1.8 -1.8 3.5 6.5 7 6.7 6.1 6.1 4.9 4 3.7 2.9 4.3 4.6 5.5 6 6.2 4.9 4.9 5 5.4 5.7 5.9 6.7 4.7 2 1.4 1.5 1.9 2.4 2.2 2.6 2.9 3.6 3 3.3 2.9 2.4 2.2 2 1.7 1.5 0.7 2.3 3.4 2.2 1.8 2.3 2.6 2.3 2.3 2.5 4.7 2.9 2.2 2.4 2.1 1.9 2.2 2.1 2.4 2.9 3.3 4.8 6.7 8.3 13 17.1 18.1 14.9 11.3 8.6 5.9 3.3 1.7 1.4 1.9 2.4 2.7 3.7 5.5 6.1 7 6.6 7.3 7.9 9.9 14.4 16.7 17.1 15 10.2 6.8 5.3 6 7.8 15.4 10 7.5 7.5 8.3 9.9 11.7 11.5 10.9 12.3 11.2 11.7 9.4 9.4 11.3 12.1 12.4 12.8 12 12.5 12.1 11.4 12.1 11.4 9.9 8.5 8.4 8.4 8.6 9.2 9.2 9 9.6 10 10 11.1 11.6 11.9 12.3 12.6 13.1 13.7 14.3 14.5 15.4 15.8 17.6 22.4 23.9 27.6 34.6 40.6 42.2 42.9 45.4 47.5 46.8 44.6 48.2 51.5 57.7 66.8 74.7 73.6 72.2 72.8 71.9 68.5 65.7 62.5
14.3 15.7 13.1 13.4 13.1 13.6 14.6 14.2 14.2 9.4 7.2 6.6 6.6 6.4 6.5 6.8 7.2 7.5 7.5 9.8 14.2 14.1 13.5 13.5 13.5 13.7 12.5 10.5 8.1 7.6 7.6 4.3 3.6 -1.8 -1.8 3.7 4.6 7.2 7.5 7.1 6.7 4.6 4.7 3.7 3 2.8 4.2 5.4 6.3 6.3 6.2 5.6 5.6 5.5 4.9 5.2 5.2 5.3 2.4 1.7 1.8 1.5 1.8 2.6 2.5 2.8 4.1 4.5 4.6 3.6 3.1 2.4 2.2 1.9 1.6 1.6 2.3 3.2 3.6 3.3 3.3 3.1 4.1 4.3 2.6 2.3 3 3.1 3.2 2.7 2.9 2.5 2.1 2.4 2.4 2.7 3.2 3.9 6.9 10.3 14.3 16.9 17.4 14.1 10.9 8.1 5.3 3 1.8 1.4 2.2 2.4 3.6 5.7 7.7 9.5 8.8 7.7 7.4 7.9 9.6 12.9 16.3 17 14.4 11.1 8.1 6.1 6.7 7.3 9.7 8.2 9.5 10.2 10.5 11.4 12.5 13.5 14.4 14.2 12.8 12.2 10.5 9.4 12 12.8 13.2 13.7 13.2 12.9 12 12.4 13.1 12.5 11 9.7 9.7 9.3 9.1 9.4 9.8 10.1 10.4 10.2 10.5 10.9 11.6 12 12.4 12.9 13.4 14.1 14.9 15.3 15.8 16.2 16.9 19.2 25.5 32.7 38.2 42.1 43.9 45 47.4 49.5 48.8 47 51.9 54.5 59.1 66.3 74.3 75.8 75.7 75.7 73.3 68.9 64.5 61.9
16.4 15.1 13.1 13.5 13.5 15.3 14.5 15.2 12.3 9 8.3 6.4 5.8 5.5 6.9 7.1 7.6 8.6 7.7 14.6 14.7 14.6 15.4 13.4 13.7 14.2 13.6 11.6 7.6 7.2 6.5 3.2 -1.8 -1.8 4.1 4.3 7.4 7.6 7.5 7 6.5 5.8 3.3 2.7 2.5 3.7 4.7 6.1 6.3 6.8 6.5 6 6.3 5.8 5.2 4.7 4 3.1 2.1 1.8 1.9 1.9 2.3 2.7 3.6 2.5 3 3.2 4.5 4.3 3.4 2.1 2.1 1.8 1.7 1.8 3.1 4.4 4.1 3.8 4.7 4 3.9 3.4 2.8 3 3.7 3.7 3.7 3.5 3.5 2.1 2.8 2.4 2.2 3 4 5.3 8.6 11.5 16 18.5 17.1 13.4 10.4 7.7 4.9 2.7 1.7 1.6 2.2 2 5.2 9.7 14.1 14.1 11.4 9.3 8.7 8.8 10.1 12.6 15.8 17.2 16.5 14.3 10.5 7.9 7.3 7.9 9.8 9.9 10.1 10.6 12 12.7 14.1 14.6 14.9 15 14.3 13.3 11.4 9.4 11.3 14.1 14.6 15.3 15.4 14.2 13 13.5 13.4 13.4 11.8 11.2 10.2 10.3 10.4 10 10.3 10.7 11 11.1 11.2 11.5 12.2 12.4 13.1 13.6 14.2 14.7 15.4 15.8 16.5 16.7 17.1 18.3 25.7 34.7 40 44 46.2 47.3 49.6 51.4 50.2 49 51.9 54.6 59.2 66.6 75.3 78.3 78.1 75.8 71.5 66.7 63 60.2
17.6 15.5 17.5 14 14.7 15.6 15.2 14.8 12.8 9.6 7.5 6.4 5.5 5.5 7.2 7.9 7.9 9.7 13.5 15.6 15.5 14.4 14.9 13.2 13.7 13.6 13.2 11.8 9.2 6.5 3.6 2.6 -1.8 -1.8 4.5 7 7.6 7.3 7.1 6.6 5.8 5.3 4.4 3 3.8 4.2 5.5 6 7.2 7.2 6.5 6.4 6.4 5.9 5.3 4.6 3.7 2.8 1.7 1.4 1.9 2.5 3.1 4.4 4.4 3.4 3.6 3.8 3.8 2.8 2.2 2.5 1.7 2.3 1.9 2 4.4 4.7 5.3 5.1 5 5 4.6 4.1 3.6 3.4 4.4 4.6 3.9 3.9 3.7 3.2 3 1.8 3.2 3.4 4.8 7 9.7 12.7 17.4 18.6 16.9 13.5 10 7.2 4.7 2.7 2.1 1.6 1.8 2.6 7.7 14.6 20.2 17.1 12.8 11.6 10.2 10.4 12 14 16.7 18.9 19.5 18.2 13.4 9.9 7.9 11.5 10.8 9.7 10.9 12.8 14.4 14.5 15.6 15.4 15.8 15.7 15.4 14.3 13.3 12.6 11.3 13.3 16.1 17 16.2 15 14 13.8 14 14.3 12.8 12.6 12.3 11.5 11.1 10.8 11.1 11.4 11.8 12 12.1 12.3 12.5 12.9 13.6 14.3 14.9 15.5 16.1 16.7 17.1 17.2 17.4 17.8 25.5 35.5 42 46.2 48.9 50 51.5 53 52 51.3 52.6 58 64.1 70.4 77.1 79.5 76.5 72.9 67.3 63.8 60.2 57.5
15.2 17.6 17.5 17.3 15.2 15.6 15.4 14.3 11.4 8.8 5.9 5.7 5.4 6.1 7.6 7.6 8.5 13 15.6 13.3 14.5 12 7.4 6.2 7.4 8.6 4.5 4.6 3.6 3.7 -1.8 -1.8 -1.8 4.2 7.6 8.8 7.8 7.2 6.8 5.7 5.4 4.5 3.2 3.5 4.1 4.6 6.4 6.6 7.3 7.6 7.1 7.4 6.4 6.1 5.4 4.7 3.9 2.9 2.2 2.3 2.6 3.6 4.1 5.5 5.7 4.3 4.7 4.9 4.6 3.4 2.6 2.6 0.7 1.2 1.6 3.6 5 6.2 6.4 6.2 6.1 5.9 5.5 5 4.2 4.5 5.2 5.6 5.1 5.2 4.6 4.1 2.5 2.2 4.2 4.3 4.8 7.4 11 14.9 18.3 18.3 16.4 13.6 10.1 6.6 4.7 2.2 1.9 1.5 1.6 3.2 11.1 19.1 23.2 19.1 16.2 14 12.9 12.1 14.1 17.1 19.9 21.2 21.4 20.3 15.9 15.3 12.6 8.6 7.9 10 11.9 15.1 16.2 16.7 16.7 16.2 16.5 16.6 16.4 15.4 15 15 13.1 11.3 17.6 18.5 17.3 16 15 14.3 14.5 14.8 13.9 13.5 13.6 13 11.7 11.7 11.8 12.2 12.5 12.9 13.1 13.3 12.9 13.4 14.2 14.9 15.6 16.2 16.8 17 17.3 17.9 18.1 18.2 22.3 33.1 42 47.3 51.1 52.8 54 55.2 54.8 55.3 57.7 64 69.8 75.8 78.6 77.8 73.6 69.4 64.9 61.5 58.3 55.7
18.3 17.7 18 15.4 15.3 15.1 15.2 13.2 10.5 6.4 5.6 5.9 5.7 7.4 7.3 7.9 10.6 16.9 17 16.2 10.5 4.8 4.1 4.1 3.8 2.8 -1.8 3.6 3.2 -1.8 -1.8 -1.8 4.5 6.7 9.2 8.8 8.3 7.7 6.3 5.6 5.1 4.3 3.3 4.1 4.9 5.5 8.4 7 7.3 7.4 7.3 7 7.2 6.8 6.1 4.8 3 2.6 2.4 2.6 5 4.7 5.2 6.4 7 5.2 5.5 5.9 5.5 4.2 3.1 2.6 0.7 1.4 3.4 4.8 5.6 6.5 7.1 7.1 7 6.7 6.4 5.9 5.1 5.2 5.9 6 3.1 3.3 4.3 3.9 2.3 3.5 4.9 5.5 6 8.4 12.3 16.1 18 17.8 15.9 13.4 10 6 4.1 2.1 2.1 1.9 2 2 9.5 21.4 24 21.4 18.4 16.4 15.5 15.1 17.4 19.4 21.9 23.1 23.2 19.5 13.9 13 11.8 9.4 7.9 9 11.9 14.6 16.6 18.1 16.8 16.9 17.1 17.3 17.2 16.8 16.5 16.8 16.5 11.3 18 20.7 18.8 17.1 16 15.5 15.6 15.6 15.2 15 14.9 14.1 12.8 12.6 12.7 12.6 12.9 13.3 13.6 13.7 13.7 14 14.8 15.5 16.2 16.8 17 17.5 17.9 18.7 18.9 18.8 20.3 28.5 37.4 45.7 51.4 56.1 56.8 59.6 61.5 62.5 65.8 70.1 75.2 80.9 78.5 75 70.7 66.5 62.7 59.5 56.5 55.2
18.6 18.3 17.3 15.8 15.6 15.7 15 11.7 6.3 6.3 5.5 5.7 6.3 7.6 8.6 12.2 17.1 17.7 17.5 14.4 6 4.1 4.1 2.8 2.8 3.3 -1.8 2.3 -1.8 -1.8 3.5 4.7 6.1 8.9 9.5 9.5 8.2 7.5 6.4 5.6 4.8 4.1 3.6 4.8 5.1 6.3 7.8 7.3 7.8 8.1 7.7 7.3 8.4 7.9 6.9 5 3.2 1.4 2.4 5.5 6.1 6.4 6.9 6.5 6.1 6.1 6.3 7.1 9.4 8 5.6 2.6 3.5 3.5 4.6 5.9 6.7 7.5 7.7 8 7.9 7.6 7.2 6.7 5.8 5.3 5.7 6.2 5.9 4.8 3.8 3.2 2.6 3.6 4.6 6.6 7.6 10.4 13.5 16.2 18.1 18.1 16.5 12.9 9 5.4 3.4 2 2.4 2.5 2.3 1.8 4.5 14.3 23.5 25 22.3 20 17.3 15.9 17.8 19.4 21.1 22.9 21.3 14.5 18.8 16.3 13.4 10.9 9.6 9.7 10.9 12.9 14.9 16.4 17.2 17.4 17.8 18.1 17.9 18 18.6 19 19.4 14.9 14.7 22 20.6 18.1 16.8 16.5 16.6 16.7 16.5 16.3 16.1 15.1 15.3 14.6 13.6 13.8 13.5 14.1 15 14.7 15.2 15.2 15.4 16.1 17.1 18.2 18.6 18.9 19.2 19.3 19.4 19.6 21.1 28.5 37.3 45.9 53.3 58.8 62.8 66.3 68.9 69.9 72.2 76.1 80.4 80.8 77.7 73.6 68.6 64.5 60.8 57.5 55.6 54.2
19.3 18.8 16.4 16.3 16.2 15.3 13.9 9.6 5.7 5.3 5.5 5.6 7.7 13.5 17.6 17.4 17.9 18.2 17.9 16 5 4.1 3 3.4 3.7 4 -1.8 -1.8 2.9 3.2 3.7 7.3 9.1 9.2 9.5 9.3 8.1 6.9 5.6 4.9 4.1 3.3 4.3 5.3 6.1 7.1 7.2 7.7 8.2 8.8 8.2 7.9 10 9 7 5.5 1.7 1.5 5 6.7 7.3 7.6 8.4 7.2 7.5 7.5 8.2 9.8 9.5 8.2 6 3.3 1.8 3 5.2 6.8 7.8 8.1 8.3 8.6 8.6 8.1 7.6 7 6.2 5.7 5.7 5.8 5.3 4.5 4.2 4.1 4.1 4.1 5.9 6.9 9.2 11.1 14.3 17 18 18.1 16.3 12.8 9.3 5.8 3.7 2.2 2 1.6 1.9 1.8 2.1 3.2 13.1 22.1 26.3 23.6 21.1 18.8 17.2 18.1 19.3 19.6 14.6 24.4 20.2 18.1 15.3 12.6 12.3 12.2 12.5 13.2 14 17.1 18 18.2 18.8 19.2 19.4 20.2 20.6 21.2 21.5 15.7 14.3 23.3 21.7 19.2 17.6 17.4 17.6 18.1 17.5 17.3 17.3 17 16.6 16 14.3 14.2 14.7 15.2 16.6 16.7 16.6 16.4 16.7 16.8 18.4 19.5 19.6 19.8 20 20.2 19.5 20.2 23.5 32.6 40.8 49.4 57.2 64 68.8 72.8 75.2 76.2 79.4 81.7 81.2 79 76.4 73.7 68.9 63.8 59.5 57 54.7 53.1
20 18 17.7 17.4 16.8 15.6 11 8.3 6.2 5.5 5.5 6.3 10.1 18.8 18.1 17.8 17.9 17.7 17.7 16.8 5.3 4.1 2.8 5.4 5.9 4.8 4.8 4.3 4.3 5 7.1 8.2 9.5 9.4 9 8.7 7.3 6.6 5.2 5 4.6 4.2 4.5 5.7 6 7.2 7.6 8.9 9.4 9.8 8.9 9.3 11.2 8.8 7.1 5.5 2.6 1.5 6.7 7.7 8.7 9 8.3 7.1 7.5 8.5 8.8 10.3 9.3 8.1 6.8 4.4 1.5 4.4 5.3 7.6 8.5 8.7 8.9 9.1 9.1 8.6 8 7.4 6.6 6.1 6.1 5.5 5 4.8 4.9 5.1 4.9 5.4 5.8 8.7 11 13 14.8 17.1 18.2 18.2 15.7 12.3 9.2 6.1 4 2.1 2.4 2.6 2.5 2.4 1.7 1.9 2.2 7.4 25.1 27.2 24.1 20.9 18 17 16.6 14.4 21 22.7 23.5 22.2 19.5 16.7 16.4 15.4 14.6 14.6 16.9 18.8 19.7 19.9 20.2 20.7 21.4 22.1 22.6 22 21.1 18.2 17.5 24.4 22.7 20.8 18.8 18.6 19.2 19.1 18.3 18.1 18.2 18.2 18 18.4 16.9 15.5 15.8 17 17.9 18.9 19.5 19.5 19.8 20.4 21.5 21.7 20.9 20.6 20.9 20.9 20.1 21.5 27.7 36.2 44 53 61.9 68.8 74.6 79.1 81.9 83.1 83.3 81.9 79.6 77.1 74.1 72.2 67.5 62.2 58.5 55.7 53.9 52
19.6 17.5 17.6 17.3 15.6 14.3 10.1 8.7 5.7 5.4 5.9 7.6 18 18.7 18.4 17.7 17.4 17 16 8.3 4.9 4.1 2.8 7 7.4 6.8 5.9 5.7 7.4 8.6 9 9.4 9.6 9.4 9 7.6 7.3 5.9 5 4.6 4.6 4.6 5.3 5.8 7.1 6.7 7.9 9.3 11.1 12.4 12.2 11.7 11.4 9.1 7.4 5.8 2 1.7 8.2 9.1 9.9 10.7 8.6 7.2 7.4 8.9 10.7 10.4 9.3 8.2 6.6 4.3 1.7 4.2 7.4 8.5 9 9.4 9.5 9.7 9.7 9 8.4 7.7 7.1 6.5 5.4 5.1 5.5 5.5 5.9 5.7 5.6 5.1 6.2 9 12.8 15.5 17 17.5 18.8 18.2 14.8 11.4 8.4 6.2 4.3 2.6 2.6 2.5 2.5 2.3 1.8 1.8 2 1.9 18.6 25.8 25 21.4 18.3 13.8 16.4 16.8 20.7 24.7 27.5 26.9 23.2 20.9 19.7 19 18.4 19 20.6 21.3 22.2 21.9 21.6 22.5 23.6 23.4 22.2 20.9 19.3 16.3 22.7 25.4 23.8 22.8 21.1 19.6 20.1 20.3 19.5 19.6 19.6 19.9 20.3 20.2 18.5 18 17.8 19 20.7 21.5 23.1 23.5 24.8 25.5 26 26.6 25.5 22.6 21.7 22.2 21.7 24 30.1 39.4 47.9 57.7 66.1 73.7 80.1 83.9 85.6 85.4 83.4 80.6 78.1 74.4 70.1 66.9 63.7 59.1 55.9 53.7 52.4 51.1
18.8 18.3 16.7 16.9 14.6 12.3 10.2 8.9 5.6 5.5 5.5 9 16.4 14 9.3 10.2 15.9 15.3 14 7 4.8 4.1 4.3 7 8.4 8.7 8.3 7.7 10 10.2 10.2 9.8 9.7 9.1 8.6 7.2 6.9 6.2 5.2 4.3 4 4.9 5.9 6.7 7.5 7.1 7.6 9 11.1 12.9 12.6 12.4 11.8 10.9 7.7 5.7 3.7 1.7 8.9 10.5 11.7 12.2 8.8 8 11.7 11.8 11.7 10.8 9.4 7.9 6.7 4.4 2.7 5.1 8.1 9 9.5 10.1 10.3 10.4 10.1 9.4 8.7 8.1 7.3 6.5 5.5 6 6.3 6.7 7.1 6.6 6.1 5.8 6.5 9.6 14.5 18.8 19 18.7 18.5 17.1 13.2 10.4 7.9 6 4 3.2 2.6 2.5 2.1 1.6 2.4 2.2 2 2.2 11.7 15.7 19.1 15.4 13.3 14.8 12.7 14.6 19.3 24.9 28.1 30.4 28.6 27.2 25.6 23.8 22.4 19.5 24.1 24.4 24.9 23.9 23.4 24.5 24.3 23.7 22.9 21.3 19.8 17.7 21 26.1 25.8 25.1 24.9 22.8 21.7 20.7 21.2 21.5 21.7 22.1 21.6 21 20.2 20.2 20.4 21.9 23.7 25.7 27.9 29.6 30.8 31.7 32 32.2 30.3 25.8 23.1 22.7 22.9 24.6 34 44 53.8 62.5 70.1 77.2 83.6 85.9 86 85.1 82.3 79.2 75.6 71.4 66.7 63.4 59.4 56.7 53.5 51.4 50.4 49.4
17.9 17.5 16.3 15.5 14.6 12.1 8.8 7.4 6.5 6.7 6.6 5.8 5.2 5.6 6 6.3 5.5 8.6 7.5 5.2 3.8 3.2 8.1 10.6 10.4 11.3 10.2 9.6 10.6 10.8 10.3 10 9.3 8.6 8.4 7.3 6.4 6.3 5.2 4.6 4.5 5.5 6.4 7.3 7.8 7.8 7.8 9.2 11.3 13.2 12.6 12.6 12.6 11.9 10.3 5.4 4.4 5.5 7.1 11.3 13 13.7 13.6 12.9 13.4 12.5 11.8 11.1 9.6 8.1 6.6 3.4 4 5.5 7.7 9.6 10.2 10.7 10.9 10.8 10.5 9.9 9.1 8.4 7.6 7 6.6 6.8 7.2 7.8 8.4 6.5 7.3 6.9 7.2 10.2 14 18 19 18.7 18.8 15.7 12 9.4 7.6 5.6 4 3.4 3.1 2.6 2.2 1.8 1.7 2.3 2.1 2.4 3.4 8.8 11 12 13.2 12.1 11.5 12.9 17.2 26.3 29 32.9 33.4 31.9 30.6 28.7 26.8 26.5 26.6 28.3 26.8 25.6 25 25.6 25 24.5 23.5 22.3 20.8 19.5 19.8 24.7 28.2 26.5 27.5 27 24.9 22.5 22.4 23.5 25.5 25 26.3 25.3 22.9 22.4 24 26 28.1 30.9 33.1 35.1 35.7 36.3 36.3 36 33.7 29.5 25.5 23.9 23.7 27.4 38.5 51.3 61.8 68.9 73.6 80 83.2 85.2 85.4 83.6 80.5 76.7 72.4 68.9 63.6 60.7 57.4 54.4 52 50 49 47.9
18.7 17.5 16.4 14.9 13.8 11.7 8.9 6.8 6.5 6.4 6.7 6.6 6.6 6.2 6.5 6.5 6.1 6.1 5.8 5.7 3.6 5.9 11.9 12.6 12.8 9.2 8.9 11 10.8 10.8 10.3 9.8 9 8.3 8.7 7.7 7.2 6.2 5.6 5.1 5.4 6 6.9 7.7 8.4 8.6 8.6 9.2 10.8 11.6 12.4 13 12.9 12.3 10.8 5.9 4.5 6.6 7.4 11.2 13 12.7 14.9 14.4 13.5 12.7 11.9 11.3 9.8 8.5 7.3 4.5 4.7 5.4 6 9.5 10.8 11.3 11.5 11.2 10.8 10.3 9.5 8.8 8.3 7.7 7.2 7.5 7.8 8.7 9.1 8.8 8.7 8.3 7.9 10.3 14.2 17.3 19.3 19.7 18.3 14.9 11.6 9 7.6 5.3 3.9 2.9 2.5 3 2.7 2.2 2.8 5.1 6.1 6.6 8.1 9.3 7.3 7 8.9 8.6 9.7 11.2 14 19.8 28.2 33.3 34.3 34.4 33.9 33.2 30.1 30.5 31.5 31.3 28.2 26.4 25.9 26.3 26 25 24.1 23.1 22 22.1 20.7 23.3 29.2 30.9 29.7 29.4 27.3 25 24.4 25.6 27.7 27.9 29.7 29.1 26.7 25.2 27.6 30.4 34 37.1 39.6 40.3 40.2 39.7 39.1 38.3 36.2 32.6 28.7 25.1 24.9 29.6 40.5 54.4 66 70.9 75.5 79.2 81.9 83.6 83.5 80.9 77.3 72.7 68.5 63.6 61.3 58.9 56.3 53.8 51.4 49.3 48 47.1
18 15.1 15.5 14.8 13.1 11.6 10 7 6.8 6.9 7 7.7 8.1 8 7.6 7.1 6.1 5.8 6 3.7 5.5 9.4 13 13 12.1 11.8 10.9 8.9 8 10.2 10 9.9 9.7 9.4 9.3 9.1 8.1 6.6 6.1 5.5 6.1 6.3 7.5 9.2 8.7 8.5 8.4 9.2 10.5 11.7 12.7 13.7 13.7 13.3 12.3 8.6 5.5 5.7 8 10.9 12.5 14.3 15.7 15.1 14.3 13.4 12.6 11.6 10.4 9.2 8 5.2 5.1 3.9 3.4 8.7 11.1 11.8 11.7 11.5 11.1 10.5 9.7 9.7 9 8.5 7.9 8.1 8.5 9.9 10.2 9.8 10.4 9.1 8.5 11.1 14.6 17.9 19.9 20.3 17.8 14.5 11.5 9.3 6.5 5.2 3.9 2.9 2.3 2.9 3 2.4 3.1 4.7 5.5 5.4 6.7 10 9.5 9.4 9.6 10.7 10.1 10.8 11.4 13.3 20.5 27.2 30.2 30.6 31.7 32.7 33.5 34.3 34.5 33.5 30.8 27.7 26.7 26.8 27.2 26.6 26 25.4 24.4 24.8 23.7 22.2 29.6 34.2 33.6 32.9 31.2 28.5 27.5 27.9 30.8 31.1 33.4 33.4 30.9 29.8 33.5 37.2 41.6 42.2 43.9 44.2 44.3 43 41.9 40.4 39.1 35.7 30.9 25.7 26.1 32.5 41.7 55.7 66.9 71.7 74.5 77.7 79.1 80.2 80.1 78.8 74.5 68.8 64.3 61 58.6 56.6 54.5 52.8 50.7 48.7 47.2 47.1
16.1 15.5 14 13.6 12.6 11.1 10.6 8.2 7.6 7.9 8.5 9.7 11.1 10.6 10.4 9.8 9.7 7.1 6.4 6.6 8.9 11 14.1 14 12.2 11.1 10.7 9.9 11.4 10.9 11 10.8 10.8 10.7 10.3 10.1 8.4 7.1 6.4 6.2 6.6 7.1 6.5 7.9 8.1 8.1 8.6 9.5 10.6 12.1 13.6 14.7 14.7 14.6 13.8 11.5 8 11.2 8.3 8.7 12.3 14.2 16 15.5 14.8 14.1 13.5 12.9 10.7 9.7 8.5 5.7 5.9 4.6 4.6 10.1 11 11.8 11.7 11.7 11.3 10.6 10.4 10.4 10 9.3 8.8 9.2 10.4 12 11.9 11.4 11.6 10.9 9.8 11.7 15.3 18.4 20 20.2 17.4 14.3 11.5 9.4 6.7 5.5 4.4 3 2.3 3.7 3.6 3.3 2.5 2.7 2.2 5.1 15.8 15.6 14.2 12.8 11.7 12.7 12.7 13.8 14.5 13.9 14 20.6 23.6 26.2 28.4 30.6 34 35 35.5 34.2 31.6 28.6 28 28.1 29.2 28.7 28.3 28.4 28.8 27.3 25.3 23.7 28.4 35.1 35.6 36.7 35.9 33.9 31.4 31.3 32.8 34.6 37.2 37.6 36.4 37.2 40.4 44.2 46.2 48 48.9 48.7 47.5 45.5 44.5 42.6 40.4 36.9 30.9 25.6 27.3 33.3 43 55.4 66.8 71.9 74.1 75.4 76.4 77.4 76.6 76 73.6 69.1 63.5 59.4 56.7 54.5 53 51.3 49.8 48.1 47.7 47.3
16.6 16.1 15.3 14.2 12.9 9.8 9.3 8.9 8.7 8.6 9.2 12.1 14.7 14.5 13.8 13.5 11.5 9.1 11.3 11.9 12.6 13.8 13.9 15.3 12.5 11.7 11.3 11.2 12.7 12.4 11.6 11.4 11.6 11.5 11.4 10.7 8.8 7.5 6.6 6.8 6.9 7.5 8.5 8.1 8.6 8.3 8.7 10.1 11.4 12.4 14.1 15.2 15.9 15.2 14 11.8 10.5 8.9 8.8 9.2 11.5 14.4 15.9 15.9 15.2 14.5 14.4 13.4 11.5 9.9 8.4 6.5 6.4 7 8.5 10.1 11 11.9 11.8 11.8 11.6 11.2 11.2 11.1 11.2 10.9 9.9 9.9 12.5 14.4 15 15.3 13.5 11.5 10.5 12.7 16.3 18.4 18.9 19.2 16.5 14.1 12 10 7.4 8 6.9 5.1 2.5 2.8 2.6 2.7 2.7 2.9 3.3 11 22.5 22.3 20.8 17.6 15.7 16.4 16.9 17.1 17.2 17 15.6 15.6 20.2 23.6 26.9 30.1 33.7 34.7 35.3 34.2 31.7 29.1 29.2 29.6 30.9 30.8 30.4 32.9 33 31.3 28.7 26.4 29.4 34.9 39.2 41.7 42.5 42.3 39.7 37 36.7 38.8 42.2 43 43.2 45.4 48.2 51 52.4 53.4 52.9 52.5 50.3 47.7 45.9 43.8 40.8 36 31.1 25.4 25.1 35.6 44.2 54.6 65.3 72.1 73.8 74.7 75.4 74.3 71.6 71.9 71.2 66.8 62.2 57.5 54.6 53.7 51.8 50 48.6 48.6 48.2 48.1
