ncols 200
nrows 82
xllcorner 270000
yllcorner 255400
cellsize 50
219.5 221.4 221.3 220 219.6 218.7 219 221.2 226.2 231.8 236.5 242.1 249.3 255.7 262.7 269.3 274 279.5 284.7 290 295.7 299.9 306.6 312.8 317.7 323 329.2 337 346 355.4 361.9 367.5 378.4 394.4 403.2 402 402.4 404.9 408.4 413.9 420.3 422.5 431.3 436.8 438.6 437.9 436.2 433 437.4 439.4 434.2 430 434.8 439.7 441.3 434.8 430.6 419.1 412.1 403.3 390.7 381.7 378.9 380.7 398.9 418.5 427 440.6 437 432.6 432.3 424.7 421.1 414.8 412.3 411.1 412.7 417.3 423.1 428.4 422.3 418 422 424.6 425.2 424.2 425.4 428 432.8 432.9 431.5 429.7 427.2 424.8 428.7 433.2 442.6 452.2 455.5 455.6 457.1 449.3 441.8 438.5 442 445.4 453.8 470.5 484.2 492.6 500.7 503.2 499.9 493.6 483.8 480.2 480.3 480.5 480.7 481 477.9 476.8 473.8 470.2 466.5 463.8 462.1 460.7 456.8 460.6 461.2 461.2 462.4 467.6 472.6 479.4 486.3 492.9 499.2 504.7 510.2 515.1 520.7 522.2 522.8 519.9 509.9 496.4 484.6 476.9 472.8 468.3 467.9 477.7 480.5 477.8 473.7 467.5 452.7 446.4 441.3 442.9 445.6 446.5 447.3 448.1 449.9 451.5 452.9 454.2 455.6 457.9 460.7 461.3 460.6 460.7 465.1 470.7 476.6 483.1 491 497.5 500.1 502 502.5 498.6 494.7 488.3 475.4 461.4 446.6 429.4 408.1 393.8 381.8 373.5 379.4 388.3 393.9 395.8
208.9 209.4 210.1 211.3 212.6 214.5 217 220.2 224.1 229.6 235.1 240.2 246.1 251.9 258.3 264.5 269.7 275.5 279.4 284.1 287.3 296.1 302.8 309.6 315.8 323.5 332.2 341 350.6 359.9 367.5 375.3 389 403.5 406.7 405.1 406.9 412.6 419.6 425.6 428 431.2 440.5 447.2 447.7 447.5 444 444.2 447.6 445.6 440 437.8 442.6 448.7 448.2 448.8 447.5 433.6 424.1 415 399.4 394.8 389.3 382.7 385.3 396.5 409.2 416.3 416.7 418.2 415.6 414.3 408.9 406.4 406.3 406.8 408.5 413.7 423.6 421.9 415.7 416.9 420.2 419.4 419 419.4 421.4 425.2 429.3 427.5 424 423.5 422.9 426 432.5 437.8 448.5 454.2 452 452.5 451.4 441.9 440.1 437.2 440.7 445.5 459.3 479.1 488.4 497.6 501.5 499.4 496.2 485.9 483 482.4 482.7 483.3 486.2 482.3 480.1 480.3 474.1 467.9 465.2 464 462.9 461.4 455.7 457.4 458.5 458.3 465.1 470.2 476.3 482.5 488.9 494.4 500.2 505.9 511.3 516.6 521.8 521.6 518.6 512.3 501.7 486.6 477.2 475.4 475.4 475.4 481.1 485.2 483.1 481.3 477.4 469.1 452.8 445.8 442.9 442.4 444.3 444.6 445.4 445.9 446.7 448.6 450 451.5 453.5 455.3 456.4 457 456.5 456.4 460.5 466.1 472.2 478.7 486.6 495 498.7 500.6 502 500.4 496.5 489.8 477.1 463.2 449.6 433.4 417.9 408.4 393.8 380.8 371.4 375.3 378.9 382.5
206.1 207.2 208.4 209.7 212.3 214.8 218.6 222.6 227.5 231.6 235.3 239.5 245.3 250.8 256.7 262.1 267 271.1 275.5 279.3 283.9 290 297.4 304.5 312.1 321.5 333 345.6 355.4 365.3 376.7 384.3 396.3 408.8 410.2 409.5 414.3 418.5 425.6 434.6 438.7 444 452.3 457.2 458.1 457.1 453.3 453.6 452.6 448.2 445.2 446.4 450.5 455.1 456.4 464.7 462.3 446.2 438.2 430.1 416.8 415.8 411.7 401.2 390.3 383.4 394.8 399.1 400.8 402.1 404.2 402 401.6 401.9 403.1 403.6 404.9 407.4 412.2 411 412.2 414.2 415.7 417.1 417.4 417 418.7 421.3 423.6 423.1 421.8 421.4 421.9 426.8 433.2 441.7 450.9 451.9 447.2 447.8 442.3 436.7 435 437.4 440.8 447.4 468.6 484.2 489.8 499.3 497.4 494.9 490.6 485.8 485.5 484.8 484.9 487.9 490.1 485.4 483.3 480.6 473.5 465.1 463.7 462.6 461.3 458.6 455 454.2 456.1 461.3 469.8 479.5 485.6 489.4 492.3 497.5 502 506 512.1 517.9 520.2 517.9 512 502.8 489.5 478.5 477.8 480.6 482.3 484.1 490.1 489.5 486.6 486.6 479.2 464.5 450.3 444.9 442.2 439.8 441.6 443.2 443.2 442.9 442.1 443.8 446.9 449.6 451.1 452.7 453.8 453.1 452.1 451.7 454.6 460.3 466.4 472.8 480.7 489.3 495.1 497.7 499.3 499.4 496.7 490.5 479.1 466.6 455.4 443.1 433.5 429 415.6 397.2 382.2 374.2 367.4 365.7
205.2 206.3 207.6 209.7 211.6 213.9 220 223.8 227.4 230.5 233.8 237.7 243.2 249 254.9 259.4 263.3 265.8 271 274 279.9 285.5 293.8 303.2 311.2 319.8 330.9 345.7 358.5 372.8 383.7 389.6 400.9 413.5 413.3 412.9 418.7 423.7 428.7 436.5 442.9 447.2 454.6 464 470 465.4 461.3 460 461.4 457.7 452.9 454.6 460.7 462.1 469.4 477.9 471.3 457.9 457.1 447.5 436 433.3 442.8 423.1 409.8 401.3 397.8 397.6 397.5 397.7 396.9 399.4 400.9 401.9 404 406.7 412.1 412.6 411.5 412.8 417.6 418.8 416.9 415.3 415 415.7 416.4 416.3 420.1 421.4 420.1 420.6 421 424.1 430.2 439.7 445.2 441.9 441.7 439.7 434.3 432.2 431.9 436.2 440 455.3 475 485.7 492.5 496.9 493.4 491.7 488.8 487.3 488 486.5 487.7 492 490.3 487.1 482.8 476.4 466.4 463.3 462.1 461.1 459.4 457 454.4 452.8 457.6 467.5 484.6 492.5 496.7 499.1 501.6 502.1 503.6 506.9 512.3 517.2 516.3 510.2 502.1 490.5 480 478.9 480.4 484.7 490.5 494.2 494.5 492.9 492.3 488.8 472.8 459.1 448.4 443.4 444.5 444.3 440.1 436.2 437.9 438 436.8 437.9 443 447 449.4 450.5 450.2 448.6 446.8 446 447.7 453.4 459.5 466 473.4 482.3 489.1 493.5 495.1 495.1 492.2 488.1 481 470.8 460.6 452.1 444.6 439.5 435.4 422.1 406.8 392.3 381 375.4
204.5 205.7 207.6 209.6 211.4 213.2 216.3 219.7 222.8 224.9 225.8 231.4 240.1 246.6 251.7 255.7 259.5 263.8 265.6 269.7 274.6 280.2 288.1 298.6 308.2 317.5 326.6 342.9 361.5 377.9 389.4 395.1 406.5 416 417.5 417.2 428.5 436 441.5 448.2 451.2 450.7 456.4 469.2 475.1 467.1 465.7 465.4 468.9 463.5 462.5 465.5 470.2 471.1 481.3 483.6 473.5 469.9 465 459.2 455 458.1 460.9 445.3 429.1 421.1 414.1 411.9 406.4 401.6 400.6 408.9 413.8 415.2 416.9 416.3 419 419.7 418 417.8 419.2 420.4 418.9 417.5 417.4 418.1 420 419.1 417.2 418.7 419.2 419.6 420.4 421.8 428.3 434.7 434.6 434.8 436.4 435.7 430.8 428.7 430.3 434.2 443.7 462.9 476.7 485.4 494.2 492 491.6 488.3 487.6 488 486.3 487.8 490 492.6 489.8 486.6 482 473.1 463.4 461.8 460.5 459.6 457.5 456.1 452.1 452.6 460.7 474.9 490.2 496.1 500.9 504.5 505 502.8 504.5 509.3 513.8 514.2 506.7 499.6 491.1 481.5 479.1 480.3 487.3 489.5 497.8 502.9 500.7 493.2 487.6 476.2 462.4 454.6 450.2 447.8 447.5 446.5 444.7 441.1 437.4 431.3 429.8 430.9 434.8 442.2 446.3 446.9 445.1 442.3 440.8 439.7 441 445.8 451.7 458.1 465 473 479.2 484 488.6 489.4 486.4 482.6 478.2 472.2 464.6 458.5 452.5 449.4 448.5 442 430.5 419.3 406.6 389.1
205.6 207.1 209.3 210 212.5 213.5 215 217.2 220.5 223.8 230 229.1 235 243.6 248.7 253 256 259.2 260.8 263.2 266.2 270 279 288.1 299.6 309.2 320.9 337 359.7 377.5 391.7 400.9 412.9 420.1 422.4 425 438.5 446.6 452.8 457.9 456.8 455.8 464.3 474.9 478 468.2 467.6 469.7 473.7 467.9 468.2 473 481.5 485.3 489.6 483.5 477.1 481.8 473.4 468.6 476 482.3 473.2 453.8 443.8 438.1 432.6 429.6 425 413.6 413.5 427.3 431.9 432.8 433.9 432.6 428.4 426.2 424.3 423.1 422.8 422.8 422 420.3 420.5 422.4 424.2 420.1 416.6 417.8 418.3 419 419.8 420.6 422.2 423.8 425.3 428.1 431 431.1 425.9 425.3 428.2 435 449.9 466 477.4 484.7 489.6 489.3 489.1 485.7 486.5 485.5 485.4 487.2 489.8 490.5 488.3 485.4 481.4 469.5 462.3 460.4 458.9 458 456.8 455.1 448.7 454 462.6 479.8 490.7 496.3 500.5 502.5 501.6 502.4 507.6 511.4 510.3 505.1 495.3 489.6 482.1 479.1 479.1 488.2 492.4 498.2 505.7 508.1 500.2 489.3 479.1 467.8 461.9 459.8 457.1 455.1 452 449.5 447.5 445.6 443.6 441.6 437.4 426 428.9 435.2 439.8 441.1 437.9 434.4 432.7 433.2 434.9 438.2 443 448.6 454.1 461.2 467.3 473.2 477.8 481 479.7 476.7 472.9 469 464 460.6 458.3 456.8 454.7 450.2 443.1 435.3 423.8 410.9
209.9 209.1 211.3 213.2 214 216 218.2 220.7 223.6 230 237.1 239.8 233.1 237 245.8 250.3 253 255.4 256.8 257.2 259.1 262.1 267.5 278.2 288.9 300 312.8 330.7 355.1 375.3 386.9 401.6 414 419.2 424.8 436.4 449.7 457.3 462.2 462.4 460.8 467.6 479.6 485.9 481.3 468.9 469.3 474 473.1 471.7 473.3 482.8 492.8 492 487.3 481.4 481.5 486.3 477.4 479.9 492.2 488.2 473.9 458.8 453.9 450.9 447.1 442.7 434.5 423 431.1 443.4 445.5 445.9 449.4 449.3 444.4 437.2 433.9 431.3 429.8 428.1 426.3 426 424.8 425.2 422.2 419.5 418.5 417.8 418.1 418.9 419.5 420.2 420.8 421.8 423.7 424.5 426.6 423.5 423.3 423.2 427.8 439.5 456.6 467.9 476.4 484.2 485.3 487.7 485.4 484.3 484.2 482.9 484.6 487.1 488.4 487.9 486.5 484.8 481.3 474.5 462.1 458.4 457.1 456.4 454.9 452.5 446.8 453.5 466 477 485.6 492.3 496.2 497.6 497.7 503.5 507.7 508.6 501.2 489.6 485.6 483.2 478.9 479.6 487.3 497.5 500.7 510.5 512.5 509.6 495.2 485.4 476.8 471.7 470.2 468.3 466.3 463.9 460.1 455.8 451.6 448.8 446.6 444.2 442 432.9 422.7 427.8 431.7 432.9 430.8 427.4 426 426.6 428.2 430.1 432.6 437.3 441.4 447.6 454.8 461.2 466 467.6 467.2 467 464.9 463.8 461.7 458.8 457.6 455.8 454.9 451.9 447.3 441.7 434.7 425.1
212.6 212.2 214.8 219.5 223.7 229 229 228.6 231.4 237.6 239.8 242.8 242 233.4 242 247.2 249.9 251.6 251.8 252.3 252.5 255.7 263.2 271.7 278.6 289.2 303.6 325.2 347.5 365.6 385.3 403.7 410.9 422 430.2 445.1 459.4 465.4 467.4 468.6 470.1 479.3 489.5 491 484.8 470.4 474 478.7 474.3 475.8 482.1 486.3 490.6 488.1 482.1 481.9 486.1 488.6 488.3 498.3 497.8 486.4 470.6 462.7 460.5 458.4 453.8 448.6 440.5 438.5 441.4 449.9 454.2 456.8 462 460.1 456.2 451.4 445.2 441.8 437.8 434.5 433.2 433.4 431.2 427.2 422.2 420.4 419.4 418.5 418.5 418.7 419.3 421.3 422.4 423.4 423.6 423.1 422.6 422.5 421.9 421.7 429.8 445.5 456.4 465.6 472.7 478 480.4 480.7 478.7 481.8 480.8 482.7 485.5 487.1 487.4 486.2 485.9 484.8 482.8 476.6 464.9 456.4 455.3 454.7 453.4 449.4 442.7 449.9 459.5 466.6 476.5 484.4 486.7 490 497.5 498.9 503.8 498.7 489.1 484.2 481.3 478.7 479.5 483.9 496.6 503.2 509.8 518 515.4 506.7 493.5 486.1 481.5 480.4 479.7 478.2 476.4 473.7 470.1 466.1 460.9 456.2 450.9 447.4 444.3 438.4 431.9 423.6 421.9 424 423.4 421.9 421 421.1 421.2 421 421.1 424.8 428.5 433.6 439.7 446.2 450.3 450.8 451.7 452.7 455.2 456.6 456.3 455.2 454.3 453.7 453.1 451.5 449 444.8 439.7 432
217.3 218.1 223.5 230.3 237.1 242.4 241.4 239 240 241.8 244.5 244.8 244.4 240 238.9 243.8 246.3 247.6 248.1 247.7 247.5 249.4 255.4 262.3 267.4 274.3 293 316.6 334 353.6 378.9 404.3 418.4 430.4 445.9 457.5 463.3 467.9 471.4 476.9 483.2 489 491.3 488.4 478.1 474.3 479 480 475.6 480.1 482.7 485.1 486 482.8 482.8 483.9 487.8 491.2 499.1 502.9 495.4 479.7 470.3 466.8 465.1 462.8 457.9 452.7 449 451.6 453.6 456.1 461.1 466.1 467.2 462.9 461.8 460.1 455.8 452.1 447 440.6 439.4 439.2 436.2 428.9 423.3 421.2 420.2 419.3 419.5 420.1 425 428.4 426.5 425.8 423.5 422.9 422.4 421.8 420.6 421.2 430.6 442.8 451.2 458 461.3 467.2 473.1 470.7 473.9 476.4 479.2 483.2 487.4 486.8 485.9 484.4 484 482.2 477.9 472.6 460.6 454.4 453.4 452.7 450.8 445.5 439.9 444.1 448.1 457.8 468 472 476.7 486.3 491.5 497.3 495.6 487.7 482.7 480.1 479.6 478.7 481.2 492.3 503.5 509.8 517.7 519.9 516.5 506.6 497 490.5 489.4 488.9 488.3 487.7 486.6 483.5 480 476.2 473 469.3 462.9 456.3 450.7 441.9 436.5 432.5 427.5 422.7 418.9 415.4 415.3 415.3 414.9 413.6 412.1 413.2 416 418.1 423.2 428.3 430.9 433.3 435.2 439 444.7 448.7 450.9 450.8 450.2 449.6 449.6 449.5 448 445.1 440 434.6
225.9 231.1 237 243.7 251.2 256.9 256.8 253.4 249.5 246.5 245.3 245.6 243.6 240.1 236 239.1 242.7 243.8 244.4 244.4 244 243.5 244.6 248.4 253.7 265.6 285.3 307 325.8 348.8 374.8 403.7 424.5 443.9 456.1 462 467.1 473.6 479.9 489 493.2 492.9 488.5 476.3 472.6 475.5 479.3 476.5 476.6 479.9 483.9 483.4 482.6 482.6 482.8 484.8 487.1 497.1 507.3 500.4 490.2 476.9 470.2 467.4 464.7 461.6 458.4 456.1 456.3 459.9 459.7 460 462.2 466.4 465.3 464.7 465.5 464.9 463 459 452.5 446.2 444.7 443.7 438.4 430.5 425.2 422.4 421 420.6 421.1 428.9 433.6 433.8 432.6 428.2 424.4 422.7 422.1 420.8 419.2 421.9 430.9 441.2 448.9 455.5 455.9 458.7 464.9 462.4 470 474.9 479.7 485.2 485.4 484.6 483.4 483 482 476.5 470.5 462.5 457.5 453.8 450.9 450.3 449.6 447.8 438.3 439.3 443.8 455 462.3 466.3 472.8 481.4 489.4 492.4 486.6 483.2 479.5 479.2 479.7 480.8 487.1 497.7 507.4 517 520.5 519.9 517.5 511.4 503.8 497.3 494.4 494 493.7 493.3 493 491.6 488.8 486.7 484.8 481.9 477.5 470.8 462 449.5 444.1 441.2 438.5 435.2 430.4 426 421.8 419 416.2 412.4 409.9 409.2 407.3 405.4 403.9 411.3 414.4 416.5 420.1 426.1 432.6 439.2 443.6 446.5 446.1 445.8 445.6 445.4 444.8 442.5 439.3 435.5
239.5 246 251.9 259.3 267.5 271.4 271.1 267.6 258.5 252 248.8 247.1 245 243.1 241.4 237.6 239.1 240.1 241.1 241 240.6 240 240.1 241.9 246.6 255.7 274.4 293.7 315.5 343.5 372.8 400.9 426.2 449.2 462.9 465.7 473.9 484.2 490.3 495.3 496.5 492.7 481.4 468.1 468.5 471.4 473.3 475.3 476.9 478.8 481.4 482.6 481.8 482.7 483.9 485.7 491.7 500 506.3 499.8 485.7 474.9 470 467.7 464.3 461.6 460.8 461.7 463.6 464.4 461.9 461.1 463.1 463.9 465.1 467.4 467.3 465.6 465.6 462.9 457.7 453.1 451.1 447.6 440.6 432.3 428 424.5 421.9 422.5 432.2 435.5 435.1 434.4 431.5 427.6 424.6 422.6 421 419.5 418.5 421 428.9 440 447.9 452.4 447.1 445.3 449.4 456.6 465.8 473.6 478.9 478.3 480.7 481.3 481.9 482 476.5 470.3 464.7 460 454.4 449.6 447.2 447.5 447 446.7 445.2 436.6 441.1 452.6 456.4 463.2 470.1 479.1 486.3 485 480.8 479.4 478.5 478.6 481 483.8 489.4 502.9 514.3 521.1 524.1 521.7 519.3 516.9 511.4 502.6 498.1 496.9 495.8 496.4 496.9 496.9 496.2 494.8 493.1 492.3 491.3 486.5 476.7 462 455.2 456.4 456.8 453.7 448.8 439.6 434.6 431.6 429.9 427.4 424.6 420.3 418.1 415.8 410.3 401.9 401.5 401.7 407.5 412.3 419.8 428.1 435 439.5 440.7 440.9 440.9 440.9 441.1 440.4 439 436.6
252.8 259.1 267.2 274.5 282.8 283.9 282.9 280.2 269.2 258.3 253.3 249.8 247.4 245.8 243.3 240.4 239.7 238.6 239.2 239.2 239.5 239.5 239.9 240.7 242.3 247 261.3 280.2 302.1 331.6 363.8 394 432.8 453.3 462.6 468.8 482.7 493.7 496 497.6 497 492.4 475.6 464.1 465.7 468.7 471.3 476.9 478.4 479.9 480.8 483.2 483.7 482.8 484.1 490.3 498.3 505.8 506.1 492.1 478 472.9 469.7 466.9 464.9 462.9 466.6 470 469.1 465.6 464.7 466.4 465.5 463.4 464.5 466.5 465.9 465.5 465.7 466 465.6 463.4 460.3 451.5 441.8 434.5 430.1 426.6 424.1 429.4 436.8 437.4 435.7 433 429.9 427.2 424.6 422 419.4 417.4 416.7 420.7 426.7 433.3 440.1 439.6 436.1 435.8 441.1 450.7 459.9 468.9 472.1 474.3 476.6 478.5 481.1 478.1 472 467.5 462 456 448.8 443.5 442.8 443.5 442.9 442.4 442.5 440.8 437.1 446.4 455.1 460.6 469 478.3 478.8 477.3 475.7 476.7 477 478.4 481.3 488.5 498.4 511 520.8 525.5 524.4 522 518.9 515.8 510.6 502.6 499.8 498.8 498.4 498.3 499.7 500.3 499.8 499.2 498.9 499 498.8 495.9 489.3 478.9 472.1 471.7 469.3 469.3 469.3 457.7 455.3 453.4 450.4 447.5 443.8 436.1 433.2 432.8 429.5 420.9 410.3 401.3 399 398.9 406.5 415.1 422.9 427.4 430.6 433.8 435.4 436.8 437.7 437.4 436.9 436.4
266.1 272.2 281.8 289.1 292.7 291.9 291.9 287.5 278.3 265.9 258 253.2 250.2 247.9 246.2 243.8 241.9 240.9 239.4 238.4 239.2 239.5 239.9 240.7 241.6 243.5 251.7 268.1 292.3 322.9 351.7 382.7 425.9 443 453 470.8 486.7 492.3 496 495.8 494 481.7 466.7 459.7 462.8 467.5 469.4 475.3 478 480.6 482.5 487.6 486.4 484.6 490.4 498.2 502.9 507.4 500.4 482.6 475.7 472.7 469.7 466.7 464.8 466.8 471.1 473 468 466.7 470.7 471.6 464.6 462 463.2 464.9 464.2 465.6 467.1 469.4 472.9 473.6 468.6 457 442.8 437 433.2 430 434 441 441.3 441.5 438.3 434.1 430.9 427.9 425 421.2 417.6 415.6 416.6 420 424.8 428.8 429.1 427.6 427.1 429.8 436.8 445.8 455.6 464.3 466.6 468.9 473.1 477 479.2 475.2 470.7 468.9 464 457.1 445.6 438.6 437.4 437.3 437.2 437.2 437.4 437 437.6 447.9 451.3 457.7 467.6 472 470.6 468.1 468.6 473.8 476.5 478.6 483.9 493.1 506 517.3 525.5 524.8 522.8 520.9 518.3 514.8 507.9 502.9 500.1 499.1 498.5 498.6 499.8 501.1 501.4 501.3 501.9 502.4 502.2 498.5 494.1 490.1 485.8 483.4 480.4 481.7 477.6 470.9 471.6 472 470.8 469.5 463.8 455.3 452.1 451.6 449.2 436.7 422.8 413 407.6 402.4 395.8 401.3 407.3 413.8 419.1 426.4 431.5 432.1 433.3 434.3 434.3 434.2
280.7 287.1 294.2 298.6 298.3 298 296.1 291.4 283.5 272 264.5 258.3 254.7 252.9 250.8 248.6 245.6 243 241.2 239.6 239.2 239.6 240 240.8 241.7 242.8 246.5 260.9 285.1 315.3 346.3 374 398.9 418.2 443.2 470.4 480.3 484.1 482.8 488.4 482.4 465.6 456.5 453.4 459 464.5 467.4 471 473.3 477.8 485.4 488.4 485 486.9 496.1 504.7 506.7 502.6 489.2 479.2 476.3 474 470.9 467.2 465.2 466.9 470.9 469.7 466.6 470.3 475.1 472 461.5 460.2 461.8 463.1 463.3 465.3 468.9 475.3 481.1 481.5 472.5 459.6 444.7 442.3 439.1 434.6 441.1 446.2 449.2 449.9 448.7 440 434.2 429.2 424.7 419.5 416.3 414.8 416.2 418.6 422.7 422.5 420.2 420.5 422 426.8 435.5 446.9 449.2 452 454.8 462 467.6 471.8 472.3 470.6 469 467.8 464 459.1 445.2 434.3 432.5 432.2 431.8 432.5 433.2 433.1 434.3 439.4 444.1 452.3 458.4 460.9 459.6 462.3 465.8 474.8 476.6 479.4 487.7 501.2 513.6 522.3 520.2 521.5 521.8 521.3 520.3 515.7 508.5 503.9 500 499.4 498.6 497.9 498.5 499.5 500.3 501.1 501.8 502.1 501.1 498.5 499.2 497.4 491.5 487 488.7 489.6 477.9 477 479.4 483.7 485 485.5 479.3 473.4 469.7 468.2 462 447.9 435.9 426.5 417.9 410.3 401.8 394.7 394.1 400.8 407.8 416.9 423.5 426.8 427.8 428.6 429.1 430.6
290.2 295.5 298.7 300.2 300 300.1 299.1 296.6 290.1 280.9 272 265 261.4 258.9 256.7 253.6 250.6 245.7 242.7 240.6 239.7 239.8 240.1 240.9 241.3 242.6 243.9 256 283.8 319.5 345.3 360.4 377.1 404.3 434.3 454.4 467.6 465.2 470.9 473.9 463.9 450.9 446.3 446.5 451.5 456.5 460.5 464 468.6 475.9 481.7 483 483 489.7 496.3 502.1 503.6 497.3 484.5 478.5 476.4 474.1 470.6 466.6 465.1 465.8 467.1 464.8 466.1 473 476.1 466.5 458.8 459.2 461.3 462.4 462.6 466.4 473 479.9 485.6 483.3 472.4 459.5 449.8 446.9 441.8 443.3 447 453.3 456.2 456.6 455.1 447.6 442.8 436.2 426.4 418.9 415.9 415.4 414.2 415.8 418.4 417.8 418.7 418.2 418.9 425.3 437.5 441 435.9 437.7 446.6 454.5 460.7 466.3 466.1 466.2 466.7 465.5 460.6 455.1 442.6 429.5 426.9 426.6 427.3 428.2 429 428.7 425.8 432.5 439.4 447.9 450.8 453 459.4 461.9 474.8 474.2 475.9 483.2 496.2 508.4 515.8 513.9 514.2 517.4 517.4 515.8 513.7 511.2 510 500.8 499.4 498.6 497.9 496.6 495.6 495.9 496.2 496.3 497.9 498.5 497.8 498.9 500.4 498.3 491.1 489.3 488.5 489.2 485.2 484.5 488.2 493.4 494 491.4 486.8 482.6 479.4 475.2 466.6 455.5 444.9 436.4 426.7 416.8 407.9 399.6 394.5 392.2 397.6 405.6 412.4 418.2 422.4 423.8 425.2 427.3
294.4 299.3 302.1 301.1 301.2 300.6 299.6 297.8 293.7 287.3 279.4 274 269.7 266.2 263.6 260 255.6 250.4 245.2 242.4 240.1 240 240.3 240.6 241.1 241.8 242.4 249.1 277.2 309.5 323.7 336.1 365.1 388.4 409.8 432.6 441.8 450.1 456.4 454 441.2 432.8 434.4 438.4 443.6 448.4 452.9 457.9 463.7 470.4 476.2 478.9 482.6 489.1 494.4 497.1 495.3 489.3 481.9 477.6 475.9 473.9 469.5 464.8 464.7 465.1 463.5 460.8 463 468.6 466.1 458.9 457.3 458.5 459.6 460.7 463.4 470.4 479.5 485.5 487.3 483.4 473.3 459.4 452.1 448.1 446.1 451.3 453.6 458.1 459.9 460.6 457 451.2 445.7 442.8 430.5 423.1 417.9 418.6 417.5 415.3 412 415.9 416.3 415 415.6 422.8 431.1 425 423.5 433 445.7 449.4 449.1 455.3 456.5 459.6 463.7 462.9 462.8 454.5 438.4 426.6 423.4 422.6 423.3 424.1 424.4 423.6 418.8 427 434.7 442.7 447 454.2 458.7 471.9 472.3 471.4 479.6 491.5 502.8 508 507.3 507 509.6 512.1 512.1 512.5 511 511.5 507 499.4 498.6 497.9 496.8 495.1 493.6 492 491.5 491.5 491.1 491.5 492.2 493.8 493.9 491.4 489.8 488.3 487.8 489.9 491.2 492.5 495.2 498 498.8 497 493.3 489.4 484.4 477.6 469.3 459.7 450.3 442.2 432.4 422.4 413.2 405.9 401.5 395.5 390.7 394.1 401 406.6 414.6 419.9 422.5 424
295.9 297.1 297.4 299.9 302.1 301.2 298.7 296.4 294.6 291.7 286.2 282.1 278 274.2 270.3 266.7 262.3 256.2 249.2 245.3 243 240.7 240.2 240.7 241.3 241.9 242.4 243 255.2 274.4 292.2 315.3 343 366.5 386.1 406.6 419.6 431.7 427.8 421.2 414.5 414.2 420.9 430.1 435.4 439.7 444.5 450.2 458.8 465.8 472 475.3 478.1 482.3 484.4 485.5 484.4 481.7 478.3 475.4 474.6 469.6 464.2 461.7 461.5 462.8 459.3 455.4 455.2 457.3 454.9 455.1 455.7 457.4 458.7 461.1 466.6 476 485.5 490.8 487.2 481.1 471.8 458.4 454.6 449 449.2 452 456.2 457.2 457.2 457 455 446.6 445.2 440.8 433.7 428.7 426.7 427.2 424.6 418 411.1 413.2 411.7 410.9 412.1 420.2 419.6 413.1 414.8 422 439.7 446.3 442.1 444 447.4 453.1 459.7 462 464 455.4 441.9 425.3 420.8 419.2 419.2 419.5 419.8 417.5 416.8 423.2 431.3 440.1 446 453.6 456 457.8 465 474.4 487.1 496.9 498.8 498.2 500 504.2 505.3 507 509 509.5 510.3 508.1 501.4 498.9 497.8 496.9 495.8 494.1 492.5 490.3 488.6 487.9 487.2 486.4 486.5 486.7 486.8 486.4 485.1 484.6 484.8 487.3 491 495 498.5 500.7 500.9 498.5 495 491.5 486.2 478.7 470.9 462.2 455.4 447.2 437.2 427.6 418.9 412.2 406.3 401.1 393 388.2 388 394.6 403.2 411 417.1 418.3
280.4 284.1 291.3 300.8 304.3 301 297.5 295.3 293.6 292.1 290.3 286.9 284.9 282 278.2 275.7 271 263.7 255.1 248.7 245.1 242.7 240.7 241.2 240.9 241.9 242.4 242.6 244 255 272.8 299.1 322.7 344.1 363.2 377.4 390.4 388.8 384.1 386.2 390.5 398.6 409.5 419.4 425.1 429.7 438 447.6 458 463.4 469.1 473.6 474.9 474.6 475 474.4 473.4 473.3 472.7 472.9 472.4 466.7 459.7 457.7 458.1 457.4 452.2 450 448.9 448.6 449.9 451.3 453.5 456.5 459.2 463.9 471.6 481.4 490.5 492.8 486.2 477.8 465.9 460 456.5 452.7 452.3 453.4 454.7 454 453.8 452.8 446.1 443.1 442.2 436.5 433.1 426.6 431.3 432.7 427.7 417.9 411.9 414.2 408.5 407.9 409.8 413.4 407.2 407.8 409.6 414.2 429.1 441.2 431.9 433.8 438.1 449.2 453.3 456.5 458.4 453.4 442.6 421.8 417.5 416.5 416.2 415.8 415.4 410.9 416.4 423.8 433.6 440.4 445.5 450.7 455.2 459 470 482.6 492.3 490.8 488.9 494.5 499.2 501.8 500.4 502.3 504.7 504.4 502.9 499.4 497.5 496.5 496.3 495.7 494.7 493.4 491.4 489.1 487.2 483.9 483.2 482.4 482.4 482.6 482.3 481.7 481 480.7 481.7 484.1 487.9 492.1 497 499.4 498.8 496.7 494 490.8 486.4 479.6 472.7 468.5 461.9 452.4 443 434.6 426.2 419.5 416.7 407.5 398.9 394.1 394.9 387.2 391.7 399.9 406.6 409
270.4 276.4 288.3 298.6 299.9 297 294.6 293.4 292.4 291.9 291.4 291.7 290.8 288.8 288.2 286.2 280.9 273.8 263 254.7 250 245.4 242.2 241.7 241.5 241.4 242.6 242.9 243.8 244.2 255.8 273.6 297.4 315.1 327.2 342.6 345.4 344.5 348.7 356.8 369.5 388.1 397.8 404.6 407.8 416.9 431.7 446.6 458 464 468 470.6 471.7 469.7 466.8 464.1 463.3 464.2 465.6 468 469 462.2 455.6 455.2 456.5 452.2 448.1 447 446.6 447 448.2 449.7 452.7 456.5 460.9 469.3 478 487.2 494.7 492.5 485 475.1 464.7 461 458 455.7 454.6 455 454.1 452.2 449.8 445 442 440.5 437.3 434.1 430.9 431.5 434.9 431.6 422.2 414.9 409.9 406.6 405.6 405.2 405.9 403.7 402.9 404.7 406.1 409.4 422.2 421.9 414.3 418.8 430.4 441.2 445.6 448.7 451.3 448.4 440.2 420 413.6 413.8 414 413.2 411 408.9 416.9 426.5 435.7 442.4 447.4 449.9 457.9 467.9 480.7 489.1 484.4 481.6 489.6 496 497 495.1 497.3 500.4 502.9 499 494.7 495.2 494.5 493.9 494.2 495.4 495.5 494.7 493 491.6 489.1 485.4 482.5 479.1 476.2 478.3 478.3 477.3 476.8 476.7 478.6 481 484.6 489.3 493.7 494.9 494.2 494.1 492.4 489 485.9 482.2 479.7 476.3 467.7 456.5 447.8 442.8 436.1 431.4 425.9 412.3 408.1 404 399.3 391.8 382.1 390.3 395.9 400.6
265.8 272.2 280.2 290.1 292.1 290.4 290.5 290.9 289.3 290 291.1 293.5 294.7 295 294.1 292.7 289.8 283.9 274.9 265.6 256.8 251.2 246 243.4 242.8 241.5 242.1 242.5 243.2 243.7 245 252.5 267.7 280.5 293.1 302.5 307.3 312.6 319.4 327.2 351.4 362.4 370.1 381.9 392.8 413.9 430.3 444.1 456.2 461.2 462.9 464.6 466.2 465.4 461.9 458.5 456.2 455 455.1 459.8 459.5 451.3 448.1 450.3 448.8 443.4 443.1 444.1 445.1 446 447 449.3 451.6 457.4 465.1 474.2 482.8 491.1 494.8 490.7 481.5 471.2 461.8 459.9 458.7 456.9 455.5 455.1 452.3 448.2 444.4 441.4 440.1 439.4 435.5 432.2 431.9 434 434.7 429.6 421.5 415.6 411.2 409 407.9 408.1 406.6 401.1 399.8 401.5 401.8 402.6 407.9 402.6 405.4 408.1 419.9 432.1 437.2 438.8 440.8 440.3 430.4 416.8 409.7 411.1 411.3 410.2 407 406.6 418.2 430.8 439.4 447 449.9 457.5 467.7 481 486.7 480.3 476 483.5 488.7 492.9 491.3 492.3 495.9 498.2 495.4 490.1 489.9 491.9 490.7 491.5 492 493 495.1 496.2 495.8 494.8 492.2 485.6 483.6 479.3 474.1 469.9 474.3 473.4 472 470.8 473.7 476.9 480.9 485.2 487.8 489.2 489.6 490.7 490.2 489.1 486.1 483.7 481.9 478.3 469.8 459 452.1 449 444.8 440.1 430.1 425.6 425 418.2 407.9 398.5 387.1 381.3 384.9 390.8
266.7 269.6 276.7 282.4 282.5 283.3 284.4 284.4 286.2 289.8 292.1 294.5 296.8 298.9 299.2 297.9 296.4 291.1 286.3 280.2 270.8 266.5 253.8 247.8 244 242.3 241.9 242.4 242.8 243.6 244.8 245.4 246.5 255.6 262.3 270.3 276.9 284.1 289.9 304.1 320.1 333 336.5 365.3 390 415.4 432.2 442.2 446.5 448.7 453.2 457.7 459.2 458.3 455.8 452.7 449.4 447.2 447.8 449.3 443.5 439.5 439.9 442.8 438.5 437.9 439.5 442.1 444.2 444.9 444.9 446.5 450.5 460.2 470.3 478.6 486.8 492.1 490.7 487.1 476.5 464 461.1 459.8 458.7 457.3 455.5 453.6 448.5 445.3 441.7 439.9 438.5 437.6 434.3 434.4 435.6 440.3 440 434.6 427.4 419.7 413.5 411.5 411.4 409.8 405.6 402 399.1 397.5 398 398.1 397.5 398.4 401.3 402.6 410.6 425.4 429.3 426.9 428.6 426.3 416.6 406.6 406.5 408 408.3 407.4 402 409.2 421.3 436.8 445.7 451.6 459.1 468.5 481.7 487.1 478.9 474.2 475.5 477.4 484.5 485.2 486.2 490.1 492.3 491.6 485.5 483 483.1 484.1 485.5 486.9 488.6 490 492.1 495.6 495.7 493.6 491.2 489.1 485.1 480.6 476.3 471.7 465.9 468.6 468.4 465 465.4 469.4 474 477.4 480.4 483.6 486.2 487.9 488.1 487.9 487 484.5 482.2 477.6 471.5 464.9 459.6 457.1 454.1 445.7 438.4 440.5 440.3 435.2 420.8 411.2 397.7 384.7 378.3 380
271.7 269.5 272.4 275.4 277.1 278 279 282.9 287 290.7 293.3 295.6 298.1 300.5 303 302.9 299.9 294.6 292.3 290 289.4 285.6 267.5 255.7 249.4 243.3 242.3 242.4 243.1 243.9 245.2 245.5 246.4 247 247.9 248.4 254.7 265 272.5 281.5 294.7 302.7 332.8 352.8 380.9 412.2 425.2 420.5 424.3 434.6 441.5 448.3 450.4 450.1 448.7 446.5 443.4 440.2 439 432.8 429.6 429.3 431.2 433.3 432.4 434.3 437.3 439.4 441.2 442 442.6 443.8 451.1 463.6 473.4 481.7 489.2 491.1 488.1 482.9 472.6 462.8 460.8 459.8 458.8 457.1 455.3 452.6 448.9 445 441.6 439.5 437.6 438.7 439.7 438.5 444.4 444.2 441.1 437.9 434.3 424.9 416.6 417.4 418.6 413.2 407.5 403.6 404.2 401.7 397.9 396 395.1 394.3 396.9 399.5 407 421.2 422 419.5 416.8 409.7 403.6 400.7 403 404.6 405.2 399.6 404.7 413 425.9 440.7 457.3 463.3 467.9 476.5 484.1 479.6 472.2 467.9 468.6 474.5 477.7 480 484.1 485.7 486.5 483.6 479.4 480.1 480.5 481.1 481.7 482.3 484.3 486.3 489 491 492.2 490.6 489.3 487.4 484.8 480.8 477.4 472.9 467.3 461.3 462.8 460 459.2 460.3 463.2 467.4 472.3 478.1 483 485.5 486.1 486 486.5 485.1 482 478.2 473.7 468.6 466.1 464.4 460.6 452.3 452.4 454.3 452.5 445.2 437.7 427.9 412.5 395.7 385.6 378.1
273.6 272.1 271 273.4 273.6 276.1 278.5 282.8 286.8 290.5 293.5 295.7 297.9 300.6 303.9 307.4 306 303.2 301.1 301.4 302.5 297.6 281.8 272.3 264.2 257.3 256.5 252.1 247.6 244.1 245.1 245.6 246.2 246.7 247.8 248.8 250.8 255.8 260.6 265.8 275.9 286.9 309.4 335 367.6 383.5 380.2 380.7 389.7 412.6 428.3 437.5 441.1 441.7 441.1 439.9 437.2 433.1 425.5 420.1 418.4 419.2 422.3 426.5 428 430 432.4 434.1 435.9 437.3 438 440.9 450.7 462.8 470.7 478.7 486.6 487.7 483.8 476.5 467.1 462.1 460.2 459.6 458.8 457.2 455.6 452.5 449.7 445.7 442.3 440.2 438.5 440.2 442.1 445.6 447.2 444.2 441.7 439.3 435.2 426.9 420.8 424.3 425.3 421.8 411.8 408.1 410.3 409.6 404.3 401.4 399.8 396.7 394.1 395.9 403.5 412 413.3 408.1 401.2 397.9 397 398.7 400.5 401.5 397.3 401.4 409.7 417.1 431.9 454.4 470.2 473.4 477.1 478.8 477.5 466.4 464.3 465.7 467.9 472.8 474.2 478.4 480.2 480.3 480.1 477.3 478.2 479 479.3 479.5 479.2 478.9 480.6 482.5 484.7 486.7 487.8 487.4 486.5 485.5 483.3 481 477.6 473.5 468.1 461.4 452.6 455.2 453.8 453.7 454.7 457.8 463.9 473.4 480.3 482.7 483.9 484.3 484.8 485 482.8 479.3 475.6 471.1 469.2 467.6 462.4 458.9 460.2 459.9 454.9 450.5 447 441.7 427.8 412.4 400.5 391
275.7 274.7 273.9 273.3 273.3 275.6 278.9 282.4 286.2 289.9 292.4 294.6 297.2 300 303.4 307.9 312.5 315.8 316.9 314.2 313 308.8 304.2 299.5 289.5 283.4 283.6 281.7 277.6 262.1 254 250.6 246.2 246.5 247.8 248.8 249.6 250.5 254.4 260.2 264.2 272.2 291.8 317.4 335.3 337.4 341.6 346.5 351.7 368.8 388.8 415.5 422.5 428.9 431.5 432.7 431.3 421.9 414 409.8 408.4 408.9 413.2 417.3 423.2 425.8 427.8 429.4 430.8 432.2 434.5 438.6 446.6 456.4 464.5 471.6 479 482 478 470 463.2 461.1 460.9 460.6 459.8 457.8 455.8 453.8 452 447.8 443.6 440.7 439.4 440.2 442.6 446.5 446.1 444.8 442.9 440.9 437 430.9 426.4 429.4 430.1 423.5 415.2 414.9 417.8 420.4 412.9 408.9 405.2 403.9 399.8 392.5 394.8 400.5 401.4 396.3 393.7 393.6 394.2 395.5 397.5 395.3 395.6 406.7 413.6 421.7 441.9 472.4 476 477.7 485.5 481.3 471.2 462.9 463.9 465.8 469.9 470.8 471.9 473.8 475.2 474.9 475.3 476.6 477.4 478 477.5 477.3 477 476.6 476.7 478 479.2 481.2 482.9 483.2 483.2 482.9 481.6 479.8 477.2 473.1 467.4 461.2 454.5 446.9 445.7 448.7 449.2 452.7 461.6 471.3 477.2 479.6 480.8 481.7 482.4 483.1 482.7 480 476.9 473.4 471.9 468.6 463.6 463.5 464.5 459.2 455.3 454.2 453.7 448.2 436 426.1 412.3 407.2
278.5 277.9 277.9 277.7 277.5 278.9 277.8 281.6 284.9 287.4 290.1 292.7 296 300.1 304.1 310.3 317.5 324.3 327.6 327.7 325.4 319.6 318.1 323 321.7 315.4 317.7 320.9 310.9 290.3 275.7 266.7 257.9 252.6 248.2 248.8 249.8 250.9 251.8 254.8 256.3 261.4 272 287.1 297.7 305.9 311.3 317.7 325.6 337.5 354.7 380.9 395.6 407.9 417.5 423.4 417.1 405.1 400.9 398.7 398.9 400.8 406.5 410.8 414.4 421 424.1 425 425.5 427.5 431.2 435.9 443.5 452.4 461.1 465.3 469.9 473.6 471.1 465.8 461.5 461.2 461 461.6 461 459.4 457.9 456.2 454.4 449.9 445.4 441.1 439.9 440.4 442.2 446.6 447.1 445.8 445.3 444.9 444.5 441.2 434.6 434.2 435.2 426.3 424 426 429.5 429.1 425.4 421.6 417.3 416.9 416.6 410.9 399.9 389.3 389.9 390.3 391 391.4 392.1 391.9 392.1 397.2 403.3 409.3 416 430 456 473.3 476.2 479 478.6 471 465.9 463.5 465 469.4 469 469.2 469.9 471.1 472.4 473.7 474.8 476 477.3 477.3 476.8 476.3 475 474.4 472.7 472.7 473.5 475.4 477.8 479 479.9 480.3 480 478.8 475.9 471 465.4 459.5 455 449.7 441.8 443.4 445 450.5 460.5 468.9 473.6 476.5 477.5 478.4 479.3 480.2 480.3 479.1 476.7 474.1 470.7 468.2 466.4 467.4 464.4 459.6 458.4 458.5 456.3 449.1 441.6 434 423.7 420.4
284 283.1 283.5 283.8 283.7 284.2 283.2 282.3 283.3 286.2 288.6 291.8 296.1 301.9 309.4 322 329.7 333.8 337.1 341.4 340.7 334.2 333.7 338.1 340.8 361.7 357.1 370.1 344.1 319.6 303.5 290.1 280.4 274 264.9 253.9 250.6 252.1 252.6 253.3 254.2 254.8 260.2 265.6 270.5 278.4 283.9 293.1 300.3 312.7 327.1 342.5 360.9 384.8 403.9 407.4 393.4 386.4 384.7 388.1 389.6 393.3 398.5 409.1 408.9 414.6 417.9 418.5 420.1 424.8 429.1 434.5 442.3 452.4 456.9 459.3 463 465.5 465.2 461.5 460 460 461.4 462.2 463 461.6 460.3 458.8 456.8 452.5 447.6 442.5 440.4 440.8 441.9 446.7 448.2 450.6 450.4 450.3 449.6 448.1 445.6 443.8 441.2 437.6 434.7 440 443.6 440.7 437.3 432.2 428.5 426.9 424.4 418.6 411.2 403.6 393 388.5 389.1 389.7 390.3 390.2 392.8 397.8 405 411.3 418.3 438.9 464.8 472.8 471.7 470.5 467.3 466.9 463.5 464.6 470.5 467.1 467 467.4 468.5 470.2 472.9 474.2 475.3 477.1 478.3 478.3 478 476.2 474.4 473 470.9 467.3 468.5 469.9 472.3 473.6 475.1 476.7 477.1 476 473.6 468.9 463.4 457.9 453.3 448 439.4 434.2 441.4 447.2 456.5 464.3 468.1 470.4 472.2 474.1 475.6 477.2 477.2 476.6 474.6 472.6 469.5 468 468.6 466.8 462.4 462.3 461.8 459.5 455.6 449.6 447.3 441.9 434.4 430.5
295 294.2 297.1 293.3 292.3 291.1 288.2 286.7 286.3 286.8 288.1 291.6 300.9 306 317.2 335.3 344.8 351.8 357.1 360.2 355.1 352 360.9 360.9 362.2 384.4 394.6 392 378.9 356.9 337.6 320.7 308.9 303.6 292.6 275.9 259.9 255.1 255.3 254.3 254.6 255.5 256.9 258.2 260.4 263.2 267.7 272 278.4 288.8 302.3 316.7 333.6 352.1 372.3 368.4 367.2 370.6 374.5 377.5 380.1 383.2 394.8 402.5 402.1 406.9 409 411.9 419.6 426 431 435.7 441.7 450.4 451.2 453.4 456.9 458.4 458.7 458.3 457.9 458.8 461 462.8 464.1 463.8 462.5 461.3 459.3 455.1 449.8 444.7 441.3 441.4 443.1 447.4 455.2 459.3 458.2 458.4 463.6 459.7 456.7 452.1 447.7 447.4 454.7 454.8 452.6 450 445 439.5 436.5 432.6 428.4 422.1 414 405.3 396.6 390.4 387.7 388.6 389 388.3 392.4 398.3 405.3 411.6 424.9 444.7 467.4 468.7 467.4 467.5 463.6 463.5 463.8 471.6 469.1 466.7 465 464.9 467.7 471.6 474.2 475.9 478.6 480.1 480.6 481.9 484.6 477.9 474.5 472.9 470.5 468.4 463.4 464.5 466.4 468.3 469.9 471.1 470.8 470.2 469 465.7 460.9 455.9 450.5 444.9 439.6 429.6 437.5 442.7 450.2 457 460.5 462.9 464.9 466.7 469.5 471.6 473.8 473 471.9 470.9 469 468.5 467.7 465.2 462.3 461.7 458.8 455.6 452.9 452.9 449.9 443.2 441.2 438.7
301.3 306 309.7 307.3 302.4 302.3 299.7 296 290.7 290.6 293.3 304.3 312 317.5 328.6 345.2 357.1 367.8 374.4 383.1 373.8 370.1 380.6 387.4 388.1 400.8 404.9 408.4 407.8 399.6 380.5 358.5 348.3 333.7 329.2 301 278.5 260.6 258.6 256.1 255.4 257.9 259.2 258.7 260.9 262.6 264.7 266.8 269.2 272.5 280.1 293.7 309.9 327.5 339.9 344.4 353.9 361.8 366.3 368.3 371.3 380.2 392.9 408.7 411.5 410 410.8 416.1 425 428.2 432.4 435.6 440.4 446 444.6 446.5 450.8 452.9 453.7 455 456.1 458.7 460.5 462.1 463.9 465 464.1 464 462.8 459.1 452.8 446.4 442.4 442.4 446.6 451 458.3 464.4 464.9 468.6 471.1 465.2 458.7 455.2 452.5 455.1 461.4 458.5 454 451.1 447.1 444.3 441.2 434.7 429 421.9 414.6 406.9 399.1 392.4 387.5 387.5 387.8 387.3 394.1 400.2 405.6 418.4 433.4 451.6 464 460.4 461.9 462.9 462.5 462.4 471.6 473.8 469.4 464.9 461.6 463.7 468.5 473.2 475.8 478.3 481.6 483.7 486.7 488.3 489.3 484.1 479 473 470.8 469.1 467 461 460.4 461.3 462.7 463.5 462.9 462.3 462.3 460 456.7 452.1 445.4 440.4 437.6 431.2 432.3 435.7 441.1 446.8 451.8 454.7 456.8 458.9 462.8 465.5 467.6 468.9 469 468.3 468.5 468.5 465.8 463.6 462.8 460.7 456.6 453 452.8 452 447.8 445 447.3 444.7
309.4 313.2 316.2 316.9 314.2 310.6 312.8 314 310.6 303.3 310.4 323.3 329.5 335.1 343 356.3 364.1 372.3 379.8 385.8 387.6 387.2 393.7 402.4 410.1 412 419.5 433.3 437.3 424.3 412.4 397.1 376.2 361.6 350.4 324.7 299.2 266.7 262.6 262.9 266.6 264.8 266 264.6 263.1 263.6 264.3 265.8 268.5 270.1 273 279.7 289.7 302.5 313.7 325.5 342.8 353.5 356.3 357.7 366.9 378.4 394.8 407.4 413.2 412.7 411.1 414.2 420.9 427.4 430.8 432 437.3 436.7 437.1 439.2 444.3 447.7 449.8 451.8 454.9 457.7 459.4 460.2 462.4 465 465.2 465.5 465.6 464.7 457.3 448.9 444.8 448.6 451.4 453.8 459.6 464.9 466.4 471 472.9 463.1 458.5 456.3 456.6 458.3 459.7 455.6 452.7 449.8 447 444.2 441.3 437.2 432.4 427.1 419.5 411.3 401.3 395.1 388.4 386.8 386.9 388.9 393.9 399.1 412.6 425.9 439.3 451.4 456.3 456.7 456.9 458.9 461.3 467.9 474 472.4 465.3 460.4 459.1 466 471 474.9 477.9 482 484.5 487.8 491.2 493.2 492.2 490.9 484.5 473.8 471.5 469.7 467.5 464 454.4 453.3 454.5 455.7 455 454.4 454.4 454 449.7 444.5 439.7 437 435 432.7 426.3 429.5 432.7 437 441.6 445.9 448.5 451.4 454.8 457.7 460.2 462.1 464.2 465.7 467 465.2 464.3 463.5 460.8 459 454.7 453.3 452.4 449.8 447.7 451 449.9 449.1
319.3 320.8 321.7 322.3 321.8 320 320.3 322.8 325.2 326.5 332 338 343.8 349.4 359.9 366.8 371.6 378.2 386 390.7 392.9 392.5 400.7 411.8 423 421.9 431.7 447.5 445.1 432.8 429 411.9 392.9 375.3 359.4 343.3 315.9 280.7 284.7 282.3 283.8 279.9 276.4 273.6 270.5 270.6 269.5 270 270.7 272.1 273.6 274.2 280.8 290.9 299.9 309.6 323.2 333.3 339.4 348.7 364.9 379.9 389.5 396.9 399.8 403.4 404.7 408.4 412.4 419.7 424.5 427.6 426.5 426.6 428.8 432.6 438.1 440.5 444.4 449.5 453.7 455 456.3 457.7 461 464.5 463.2 462.9 464.5 463.6 457.6 450.9 448.8 449.9 453.1 456.4 460.3 463.1 466.2 470.4 467.3 461.4 459.5 458.3 458.5 458.9 458.2 455 453.4 451.3 449.1 447.6 446.9 445.3 442.1 434.6 424.9 413.3 404.6 397 389.5 385.4 386 390.7 395.2 406.4 419.6 431.6 439.2 446.5 448.9 450.9 454.5 459 463.5 466.3 466.5 463.1 458.7 454.9 461.2 467.4 473.5 476.9 480.9 484.7 487.8 490.8 494 496.7 497.1 495 487.7 476 471.6 469.1 465.9 465 461.5 458.1 450.7 446.6 447.3 446.8 445.1 442.8 440.1 437.4 435.7 434.1 433.6 432.4 430.5 424 426.7 429 431.7 435.9 439.2 442.9 446 448.8 451.6 455 458.4 461.2 461.8 460.8 461.3 460.3 458.2 456.4 454.1 452.6 451 448.9 450.2 453.6 451.3 451.3
333.5 331.2 329.3 327.7 327.4 327.2 326.7 329.4 333.2 337.6 342.7 348.6 356.2 365 374.1 374.5 379.4 384.8 393.1 397.3 398.2 398.2 407.1 420.7 424.6 430.5 442.4 446.3 440 437.2 433.7 425.5 410.9 391.2 374 349.1 322.6 301.8 303.7 306.4 307.4 303.6 296.3 287.8 282.9 280.1 278.1 274.9 274.8 275.4 279.1 280.8 282.1 279.3 291.1 297.2 305.4 313.8 317.9 336.9 358.1 372.7 380.4 385.1 386.4 391 397.9 404.2 409.3 413.9 415.3 418.8 417.4 417.4 419.7 424.6 428.1 432.3 440.2 444.5 448.7 451.8 451.3 453.7 456.6 460.7 457.3 458.2 461.5 459.4 455.9 452.4 452.7 453 454.8 457.8 460.2 461.9 463.6 466.1 465.3 465.5 461.1 459.4 459.4 459.6 458.6 457 456.3 456.6 457.5 459.8 456.5 451 445.2 436 422 414.2 406.1 398 391.3 385.8 383.2 391.1 400 412.8 424.2 431.3 438.2 439.5 440.6 442.5 446.8 453.2 455.5 454.8 455.3 454.6 450 456.8 462.8 470.8 475.6 480 483.8 487.4 490.9 493.8 496.8 500.7 500.9 496 487 478.9 472.3 470.5 468.3 466.9 464.9 461.7 457.5 454 447.8 441.8 440.2 435.9 434.6 434.1 432.1 432 431.5 430.7 429.2 427 420.7 423.4 426.5 427.8 428.4 432.5 436.6 440 444.1 448.1 451.5 454.6 455.4 456.5 457.5 457.2 456 456.3 453.2 451.2 450.3 450.4 451.2 452.5 451.3 456.3
343.2 339.3 336 334.5 333 333.1 332.3 335 338.9 344.2 349.8 356.6 366.6 378.5 386.7 384.4 384.1 388.8 395.6 398.9 400.8 404.6 412.3 419.6 422.8 432.8 440 439.3 438.3 435.5 433.2 426.2 415.7 398.9 383 361 334 319.7 315.6 325.2 333 336.1 322.6 314.5 302 295.3 292 288.8 286.2 286.6 288.4 289.6 289.5 292.2 295.7 300.5 293.5 305.5 315.6 327.3 341.3 353.7 362.5 368.6 372.5 380.6 394.1 400.5 401.1 403 405.2 404.8 405.6 407.1 410.4 415.6 419.6 420.7 425.6 435.3 438.7 438 439 441.2 444.8 448.1 450.5 453.1 455.5 453.4 451.8 453.6 455.9 455.7 456.8 459 461.1 462.2 463.5 464.1 465 464.7 461.5 460.9 460.4 460.7 460.3 460.9 463.2 465.6 467.6 464 457.2 450.4 442.4 431.6 423.2 417.1 408.6 398.6 391.7 385.6 385.1 390.9 403.8 415 424.2 426.2 433.4 434.8 436.4 437.7 440.1 444.2 446.2 449.8 451 447.6 452.6 457.9 467.1 474.1 479.8 484.7 488.9 492.7 496 499.3 502.7 503.8 500.2 494.1 486.3 478.6 475.8 474.7 472.7 470.2 466.7 462.3 457.2 453.6 450.5 445.9 442.2 438.4 435.2 431.7 427.6 427.1 427 424.7 425 425.9 422.7 414.7 422 422.7 422.9 422.2 425.3 430.1 435.4 440.3 443.9 446.7 448.8 451.2 451.9 452.7 453.3 452.3 451 449.4 449.7 449.9 449.1 449.5 455.7 453.3
348.3 345.8 342.6 341.3 339.1 338.4 338.2 339.9 344.1 349.7 356.8 366.1 377.4 388.7 391.1 391.2 390.8 393.5 399.5 404.4 406.8 413.7 422.6 423.7 425.6 432 435.3 435.6 436 432.3 431.6 428.3 421.1 404.8 389.2 374.5 353 337 327.7 335.5 343.1 345.4 341.2 338 324.9 313.5 310.5 307.5 303.3 302.6 303.8 302.8 299 300.2 304.4 307.4 313.8 319 321.5 316 320.9 330.3 340.4 346.4 353.3 365.9 378.1 387.6 390.6 393.8 395.7 395.1 396.7 399.1 402.2 406.7 409.5 412.5 418.4 425.8 429.2 429.6 432.2 433.7 434.3 438.2 444.2 446.5 445.3 443.6 446.5 452.2 455.7 456.3 457.5 460 462.9 464.4 464.6 464.3 464.6 464.1 466.8 466 463.9 464.9 466.4 468.6 473.1 474.3 469 462.4 455.6 447.4 438 430.9 425.6 419.2 408.9 400.4 393.6 387.3 383 390.2 403 413.7 417.5 427.8 430.8 431.8 432.9 432.4 433.5 438.4 442.9 447.5 442.7 447.2 453 460.3 469.8 477 483.9 489 492.4 495.7 498.8 500.7 503 501.9 499.7 496.7 490.6 489 491.8 491.4 489.7 484.1 476 469.9 461.8 455.6 451.6 447.3 443.9 440.5 436.9 435 430.9 427.3 428.4 430.9 425.9 422.3 417.7 414.9 417.6 418.6 417.1 415.6 415.2 419.1 424.4 429.4 434.4 438.9 442.5 444.6 446.5 448.8 449.4 449.3 449.7 448.2 448.7 449 447.3 449.3 452.8 450
354.7 352.4 350.4 348 345.8 343.5 343.1 345.7 350.4 356 362.5 372.3 383.3 390.8 393.3 393.5 394.3 396.6 401.8 408.3 412.4 417.6 425.6 426.7 429 431.4 432.5 433.4 434.6 432.9 431.3 425.7 418.9 408.5 401.8 387.8 368.2 351.1 341.5 337.9 347.2 350.8 353.9 354.2 347.8 336.5 332.3 327.5 322.8 322 321.5 319.9 316.5 316.1 321.2 322.9 328.4 333.6 334.7 332.7 332 332.2 327.5 331.4 338.6 348.1 359.3 369.1 375.3 380.1 383.3 384.6 389 392.9 397.4 403 404.3 410.9 415.1 419.8 422.8 424.5 428.5 432.5 433.2 435.8 437.2 434.4 435.2 439.2 446.1 453.3 456.8 457.3 461.6 470.4 470.8 466.7 465.6 465.4 466.3 468 471.3 471.8 470.2 471.1 476.7 479.5 479.9 475.7 469.4 460.9 452 443.9 435.6 431 426.9 419.3 412.3 404.1 398.3 389.5 380.8 391.8 403.3 408.5 417.7 423.1 423.8 428.2 427.2 427.6 431.3 436.5 442.4 441.5 440.1 446.2 453.9 464.4 472.2 479.1 485.8 490.4 494.2 497.3 499.7 502.1 502.9 502.9 501.1 500 500 501.7 501.3 498.6 494 487.5 481.8 476.5 468.6 466.5 461.2 453 447.3 446.9 445.6 441.9 436.8 438.9 446.8 448.3 447.4 444.6 437.9 426.8 418.8 410.8 409.4 407.8 407.2 403.3 415.5 420 424.3 429.1 434.8 439.5 443.5 445.7 445 446.2 447.3 447.3 448 446.7 446.1 448.2 447.7 444.6
362.2 361.1 360.1 358.2 355.2 352.8 350 351.6 356 361.7 368.1 376.3 388.4 395.2 396.4 396.9 397.6 400.8 406.3 410.6 414.7 420.1 430.6 429.2 430.6 431 432.3 434.6 437.5 437.9 432.7 425 419 417.1 410.9 394.7 375.2 361.1 352.4 346.3 351.2 355.7 359 360.8 359.6 357.9 357.1 352.4 347.2 344.6 344.9 342.8 339.4 336.6 340.3 341.9 346.6 349 347.8 344.1 340.4 337.9 331.3 332.4 332.7 335.1 343.3 356.3 363.7 367.6 371 375.9 380.8 384.6 390.3 394.4 402.7 408.4 411.8 416.3 419 422.5 427.3 430.8 431.9 434 430.9 431.7 433.8 438.1 446.5 451.7 452.7 457.3 464.2 469.6 468.9 465.9 466.3 467 468.6 473.6 479.3 478.9 477.2 480.6 485.8 484.4 481.5 474.3 468.1 458.4 448.8 441.4 435.6 431.9 427.3 422.9 417.4 410.1 405.7 394.2 380.8 389.8 392.3 402.7 407.3 405.2 411.1 413.9 422.7 426.8 431.4 435.7 439.1 435.1 439.3 447 458.9 467.2 474.2 481.4 487.5 492.6 496.1 498.9 500.9 502.4 503.2 503.5 503.5 503.9 504.4 504.5 502.1 496.1 491.3 486.8 479.9 475.6 471.7 473.2 469.4 465.4 456.5 455.4 455.5 452 447.2 455 460.4 459.8 458.7 455.3 449.1 443 437.8 421.5 420.1 418.3 413.2 396.8 406.4 410.3 416 420.9 427.9 434.1 440 439.9 441.8 444.1 445.3 447.9 446.2 444.5 444.1 444.4 442.4 438.9
368.2 369.1 370 369 366.3 364.3 361.5 359.7 362.2 367.4 373.8 381.3 391 398.2 400.2 401.5 404.1 408.5 414.3 415.2 418.5 426 434.3 431.6 431.6 432.5 434.4 436.4 438.7 436.8 433.1 426.1 421.5 423.5 413.3 393.6 380.3 368.4 360.5 354.4 355.9 360.6 363.7 365.6 367.7 368 373 374.8 374.6 374.3 374.9 370.3 365.8 361.8 361.6 364.1 368.9 371.1 366.5 358.4 352.4 345.4 338.8 335 337.6 340.7 344.8 344 354.4 360.4 365 369.8 374 378.7 384.4 391.9 398.6 402.1 407.3 412.9 418.1 423.2 428.7 429.8 429.8 430 430.8 431.4 432.7 434.9 440.6 444.6 449.3 455.4 461.9 465 465.8 465.6 466.9 468.3 472 477.3 481.9 482.1 483.6 485.7 486.4 481.5 475.7 469.4 464.4 456.4 448.5 440.1 436.2 432.6 428.8 421.8 415.2 412.6 408.7 396.2 380.5 377.8 386 390.9 390 398.1 401.5 410.3 417.7 423.4 427 432.5 430.4 433.9 440.4 452.2 461.5 468.2 474.7 481.9 488.5 494.4 497.8 499.3 500.8 501.7 503 503.5 503.3 503.4 503.4 501.3 495.7 489.2 485 480.3 474 469.4 468.4 469.3 469 467 464.4 461.3 460.6 459.3 458 464.4 469.2 465.8 465.4 462.3 458.4 456.3 448.4 435.7 428.3 423.6 412.3 403.2 393.3 400 406.7 411.9 419.7 428.6 431.8 435.3 440.1 443.3 447.4 448.3 443.8 442.1 441.6 439 436.3 433.3
372.2 373.5 374 373.6 372.7 373.5 371.1 370.3 370.8 375.2 380.8 388.1 395.9 400.2 402.9 405.6 408.9 413 416.7 420.2 424.4 435.7 437.2 433.8 433.3 434.6 436.4 442.4 438.9 436.7 433.5 425.9 424.2 425.2 410.3 397.6 386.1 377.6 368.5 360.7 361.6 365.1 367.6 370 372.9 375.7 379.4 383.9 390.3 401.1 405.3 400.1 393.6 387.3 384.9 388.7 393.2 392 384.7 375.5 366.5 357.7 349 341 342.8 348.8 353.2 355.9 351.5 351.4 357.7 362.9 369.5 374.7 379 385 390.8 398.6 402 405.3 412.8 421.2 427.5 428 425.3 429.2 431.3 431.8 431.8 433.3 436.8 442.3 448.1 454.4 458.6 462.2 464.8 465.4 467.4 469.9 475.4 479.8 482.7 483.5 484.4 485.3 481 473.3 469.5 466.1 462.5 456.4 445 437.5 433.7 430.9 424.3 416.5 414.3 412 405.1 392.1 380.9 374.4 376 380.4 386.8 391.9 399.4 406.6 414.1 419.5 422.7 425.8 429.3 435.4 443.3 454.5 461.8 468.4 475 481.3 487.7 494.2 496.6 497.2 498.9 500.5 501.5 501.1 500.6 499.8 497.6 493.8 486.1 480.4 478.5 473.2 467.8 461.7 463.2 464.7 466.6 467.1 467.9 469.4 465 463.3 465.8 470.2 473.2 472.2 472.5 467.3 466.8 464 454.5 449 441.7 430.7 419.4 410.6 399.4 394.4 391.6 401.7 410.7 419.1 426.1 433.8 438.5 443.2 446.8 443.4 441.8 440 436.9 432.7 429.5 427.1
372.8 375.1 377.3 378 380.2 382.6 385.8 388.3 390 391.5 395.2 400.6 402.6 403.8 406.5 409.3 412.5 416 419.4 425.1 430.1 441.5 440.4 437.1 436.1 436.9 439.5 442 438.1 436.3 433 427.1 426.2 425.3 414.9 402.9 394.2 386.1 375.8 366.6 365.7 369.9 372 374.3 378.3 381.8 386.4 391.5 399.7 411 415.7 415.9 413.8 412.2 409.8 413.9 412.4 409.5 402.1 392.3 382.8 370.2 360.2 349.8 355.5 358.8 361.3 360 357.2 356.1 359.9 363.9 368.9 374.3 378.4 388.6 395.3 400.8 406.1 411.8 416.9 419.4 422.9 427.6 431.1 434.3 435.1 435 434.1 435.8 439.7 444.1 448.5 453.4 456.2 460.5 464 466.7 468.9 473.1 481.7 483.6 484 481.7 483.3 478.5 472.4 468.5 465.9 463.1 457 447.5 437.7 433.5 430.7 424.9 416.1 407.9 404 396.5 397.2 388.6 378.4 373.6 373.4 376.8 382.4 389 396.6 403.7 410.1 411 420.3 423.4 428.8 434.1 443.2 452.1 460.1 467.5 473.6 479.6 486.3 490.8 493 495.2 496.9 496.4 497.1 495.6 494.7 492.8 489 482.2 475.3 471.3 468.4 465.4 456.7 451.4 455.8 462.1 466.7 466 467.9 473.5 471.5 472.6 473.3 474.8 477.2 479 472.7 468.6 466.9 462.5 459.5 455.4 449.9 442.3 431.5 425.7 415.7 406.7 401.2 388.4 397.7 406.5 419.7 430.1 436.7 441.4 438 441 438.3 435.5 431.5 426.3 421.8 418.8
373.4 377.1 379.6 383 387.5 391.7 397 402.2 405.7 408.2 410.3 413.2 412.6 410.5 411.4 413.8 416.5 419.6 422.4 427.6 438.1 444.8 443.7 444.2 441.3 440 441.9 440.3 438.9 438.1 434.7 428.9 425.4 423.7 415.9 408.2 399 390 380.8 373.8 370.8 374.8 376.2 377.6 382.1 386.3 389.6 395.2 405.7 414.7 419.8 420.4 421.7 424.8 426.1 425.6 421.4 417.7 410.6 403.8 398.3 383.1 371.4 352.3 366.8 367.8 366.2 364 361.3 360.6 364.3 367.6 374.5 379.3 384.5 390.9 398.2 404 410.1 417 424 428.8 431.9 435 437.3 439.1 439.4 438.1 438.6 440.7 443.9 447 450.6 454.1 457.7 461.2 464.8 467.7 470.4 475.5 480.2 481.8 480.4 479.5 475.6 471.5 467.4 464.1 462.4 456.4 445.2 437.4 432.5 429.9 424.9 413.7 415 414.6 411.6 407.3 399 386.1 377.4 373.4 370.7 374.3 379.7 386.7 395.5 404.3 410.5 418.1 419.4 420.1 425.2 431.5 438.7 447.2 455.9 463.6 470.5 477.2 483 488 491.2 493.1 494.5 492.6 490.6 489 486 482.7 477 470 464.7 459 454.9 451.8 444 441.6 451.2 457.8 460.2 462.4 469.9 476 476.8 476.7 475.9 476.6 479.4 476.6 469.7 468.7 467.6 466.3 465 462.2 451.8 443.4 440.1 436.5 427.4 415.7 411.3 400.7 386.4 395.5 408.7 419.9 428.4 432.2 432.7 434.2 432.6 430.1 426.2 420.7 415.4 411.6
373.8 376.9 380.6 385.2 390.6 397.7 404.1 408.4 413.1 417.5 421.9 423.1 422.2 419.7 418.2 419.3 420.9 423.6 426.1 430.6 441 445.4 447.9 446.2 443.4 441.8 441.8 441.4 443.4 441.4 437.1 431.1 427.1 425.5 421.1 411.9 403.8 395.6 387.5 380.8 375.9 379.6 380.5 381.3 384.3 387.5 389 392.7 403.5 413.2 417.1 418.4 421.5 426.8 429.5 426.3 423.4 421.2 413.5 408 408 393.5 375.2 354.6 378.2 378.3 375.9 371.3 369 366.9 375.5 374.9 379.2 387.1 391.1 396.6 402.2 408.1 414.8 422.3 429.7 434.9 438.2 439.6 441.9 443.3 442.5 440.8 441.8 444.1 447.3 449.9 451.9 454.4 457.9 462.2 465.4 467.8 471.6 475.1 479.2 479.3 477.2 474.5 470.7 467.6 462.9 459.2 454.3 442.8 435 431.9 430.3 427.6 415.7 422 422.3 419.5 412.9 401.3 392.1 380 374.8 372.4 370.4 372.3 379.7 385.5 391.2 398.4 406.8 410.2 411.3 413.5 418.5 424.9 433.6 442.9 451.6 459.3 466 472.4 478.2 482.1 485.5 487.5 487.3 485.4 483.8 481.1 477.1 470.3 463.8 457.1 450.3 442.7 437.5 433.3 430.1 435.7 445.2 451.6 456.6 465.8 475.7 480 479.4 477.9 475.7 475.6 474 469.3 468.5 469 468.2 466.2 463.9 455.9 450.7 445.6 442.2 434.2 425.3 419.7 415.2 403.7 392.8 384.2 399 409.2 417.4 423.3 426.3 427.5 426.7 424.7 420.4 414.9 409.9 406.4
373.4 376.3 380 384.7 389.7 399.7 406.3 410.5 416.2 423.2 427.9 429.4 428.7 425.9 425.1 425.2 426.5 427.9 429.7 434.8 441.7 445 444.7 444.1 442.7 442.6 442.6 445.5 449.8 445.2 439.3 433.7 431.4 430 424.1 413.9 407.7 401.5 394.5 387.5 382.3 383.5 384.1 384.4 385.9 388 390.2 391.9 399.5 407.7 409.7 411 416 424.1 423.6 423.1 422.8 419.7 412.9 407.9 406 396.8 368.7 372.9 386.5 387.5 385.5 381.2 380.9 380.3 386.1 387.3 385.8 394.4 400.4 403.8 408.3 413.8 420.5 427.7 434.8 439.9 443 444.7 444.7 445 443.8 442.2 443.7 446 448.6 450.8 452.3 453.8 457.8 462.9 465.7 468.8 472.2 475 477.8 477.4 477.3 470.7 466.6 462.1 456.4 450.3 439.3 432.8 430.4 429.2 429.2 419.8 426.2 428 425.5 418.9 407.6 396.5 384.2 376.3 373.8 371.8 369.9 369.8 377.8 383 385.4 391.2 399.6 402.7 408.5 410.6 410.3 416.3 427.1 437.1 446.5 453.7 460.3 465.7 470.9 475.3 479.2 481.1 481.8 480.7 478.4 475.1 465.7 455.6 449 440.9 430.1 422.3 420.2 419.3 420.7 432.8 442.2 449.1 461 472.5 480 483.8 485.7 477.2 472.4 471.5 467.3 466.5 467.1 465.7 464 461.4 455 451.9 449.2 443.7 438.2 430.2 427 421.6 411.2 402.1 394.2 386.8 392.2 401 409.1 416.2 419.7 421 419.4 416.9 413.5 408.7 404.6 402.3
375.1 377.3 380 385 392.7 400.3 405.7 411.7 417.8 424.1 430.1 433.8 436.3 437.9 433 431.6 431.2 431.5 434.1 443.8 444.1 445.1 445.4 443.7 443.1 443.2 443.9 454 455.6 449.5 443.8 440.1 439.2 437 426.5 418.3 411.9 404.7 402.3 398.3 390.8 388.5 388.2 387.8 387.8 389.5 390 391.8 395.6 404.2 406 404.7 409 415 415.8 418 416.8 413.5 408 403.8 399.1 386.2 367.3 388.3 393.1 393.2 391.7 390.8 390.8 390.7 394.9 396.1 399.2 406.3 409.2 409.6 414.4 420.7 427.2 433.7 439.7 444.3 448.1 450.1 449 446.5 445.1 443.7 444.9 446.5 448.6 449.9 451 453.6 457.9 464.3 467.3 470.6 473.7 475.4 477.2 477.1 474.6 468.5 463.1 458.1 452.6 442.2 434.4 430.9 428 425.7 423.2 427.6 431.7 431.1 427.3 417.7 406.1 392.2 380.9 375.9 373.3 370.8 369.2 369.1 376.5 379.4 385 394.9 400.1 404.7 408.9 407.9 402.5 409.3 420.6 431 440 447.8 453.9 459.5 464.7 468.9 472.7 474.4 474 472.2 470.5 465 457 445.2 432.3 423.9 414.3 408.8 407.8 408.6 422.8 435.1 444 455 467 476.8 481.9 488.5 487.5 478 469.8 466.3 464.6 464.2 462.9 460.9 458.9 452 447.2 445.4 441 436 429.8 425.5 419.5 410.6 403.5 397.8 392.4 386.4 382.5 396.7 402.8 408.6 411.2 411.8 409 406 402.8 401.3 400 398.2
377.3 379.7 383.5 389.2 396.5 403.2 409.9 418.4 424.7 429.8 433.4 439 443.9 446 443.5 439.1 437.3 435.7 441 446.9 449.1 449.1 451 446.7 443.7 444.1 451.6 462.7 462.3 453.4 447.2 447 447.1 441.9 428.6 424.2 417.3 410.7 410.8 408.5 402.8 397.5 393.8 390.3 390.5 391 392 393.6 396.5 402.9 402 400.9 400.8 402.2 406.4 407.9 406.7 408.2 403.9 400 392.8 386.3 374.4 387.3 390.9 393.9 394.4 394.8 396.2 398 401.3 403.7 402.5 407.1 412.1 414.4 418.1 423.8 430.5 436.1 441.1 445.9 451.1 454.3 451.5 448.5 446.6 446 446.3 447.2 447.7 448.6 449.5 453 457.7 463.6 471 473.5 474.4 476.2 476.9 475.7 472.7 468.1 462.8 458 450.9 440.4 432.8 429.8 426.5 424.8 427.4 430.6 430.5 429 423.7 416 402.5 388.9 381.7 377.1 373.8 371.1 367.8 371.9 374.8 373.3 385.3 391.8 395.8 400.2 402.2 397.2 394 401.2 412.7 423.2 434.3 442.1 447.9 453.5 458.5 462.4 464.6 465.4 465.3 463.9 461.7 456.1 447.9 436.4 420.3 409.8 401.7 399.3 403.4 415.2 427.3 437.9 450.1 462.4 472.6 481.2 488.5 491.4 485.3 477 467.8 464.8 462.9 461 457.5 454.5 447 444.6 441 436.1 431.5 426.4 419.1 412.3 403.3 400.9 395.1 391.4 385.6 381.8 380.1 386.5 395.9 400.3 402.4 401.7 398.3 394.3 392.9 393.2 393.7 393
382.6 384.5 388.4 395.1 401.7 409 418.6 426.2 430.5 433.8 437.3 442.9 448 451.5 450.8 448.1 447.6 448.7 450.5 451.3 452.8 455.5 454.9 449.4 446.7 449.8 461.2 468.1 462.6 454.6 451.3 453 451.9 441 436.4 436.2 430.7 422.8 421 417.2 409.1 402.4 398.5 394.9 393.6 393.8 394.7 397.9 399.3 402.1 399.5 398.2 397 397.3 397.2 396.2 398.1 404 399.7 394.5 387.9 384.4 386.2 388.9 392.3 395 396.6 397.6 398.7 402.3 406.5 409.6 410.1 410 411.1 414.5 418.9 424.5 430.2 435.5 440.7 445.8 450.4 452.7 451.8 450.6 451.8 450.4 449 447.4 446.7 446.8 448.1 451.3 455.7 462.8 469.3 472.3 474.3 475.5 475.7 474.5 472 468 463.9 458.9 450.2 440.2 435.7 429.7 427.2 428.1 429.6 431.4 430.6 429.2 424.2 415.7 403.9 390.2 382.9 378.1 375 371.3 367.3 369.1 370.4 373 380.3 385.2 383.3 381.2 381.4 384.3 387.5 391.8 400.3 414.5 427.6 435.9 441.8 447.4 451.8 454.4 455.9 456.5 456.7 455.3 451.8 442.7 431.6 420.1 407.2 396.5 392.9 395.5 408.2 421.9 434.9 446.3 458.7 469.5 479 486.5 491.5 489.2 485.2 480.7 466.7 464.6 463.3 461.6 459.6 456.4 452.7 447.9 442 430.9 421 416.6 417.6 420.2 418.3 414.7 409.3 402.9 397.3 390.5 373.8 377.5 382.1 389.4 389.3 386.5 382.4 380.6 383.7 385.7 382.9 381.6
391.6 397.5 399.9 403.2 408 416.2 425.8 432.3 436.3 438.7 442.6 449.2 455.4 455.8 454.8 455.6 462.2 465.6 461.1 457 454.9 454 453 451.5 452.4 458.9 467.2 470.2 460.8 455 453.3 452.3 448.7 442.6 444 444.2 439.9 434.4 430.3 425.4 417 408.4 402.8 399.2 396.6 396.7 399.8 404.5 406.2 404.4 402.5 402 402.7 400.9 397.9 395.9 394.7 394.4 394.4 390.6 390.6 389.7 390.6 393.1 395.7 398.1 399.9 401.7 402.7 406.2 410.9 415 415.4 414.5 413.5 415.1 419 424.1 429.4 434.9 440.1 444.8 449.2 451 451.3 453.6 457.3 455.2 450 446.9 445 445 446.9 450.1 456.8 463.9 468.9 472.9 474.6 475.2 475.1 473 470.9 467 462.7 455 447.2 441.1 434.7 430.2 429.7 431 431.9 433.3 436.7 437.1 435.3 432.1 419.4 397.7 390.6 380.8 376.1 372.8 368 367.2 367.3 367.8 372 370.5 367 370.9 376.2 380.6 383.7 385.6 391.1 406.4 419.6 428 434.9 440.4 445.2 447.7 448.3 449.1 448.3 444.9 435.9 423.3 413.6 402.6 392.7 387.3 388.6 400.2 414.9 427.5 439.9 452.2 464.3 473.8 483.5 490.9 491.6 491 491.7 483.4 470.6 466.2 465 463.2 461.3 458.8 455.5 451.8 448.3 439.5 436.4 438.5 438.3 437.9 435.7 431.7 424.8 419.1 412.3 406.8 394.2 377.9 371 373.9 374.5 370.4 368 370.3 373.7 371.9 367.3 369.1
414.9 415.4 413.8 413.5 417.6 426 435.9 444.6 451.8 451.7 448.9 455.5 458.5 458.3 459.4 467.3 474.9 471 463.9 459.5 457.7 454.3 453.7 454.7 460.8 467.7 470.7 466.8 458 455.4 454.6 453.4 451.4 447.9 447.6 447.2 444.5 440.2 436.5 433.2 426.9 415.7 407.9 403.1 401.6 404.2 408.3 410.2 410.4 408.3 407.5 407.4 407.2 404.8 401.3 398.7 396.4 395.1 393.8 393.2 393.1 393.9 394.9 397.5 400.4 402.9 404.4 405.8 407.5 410.7 414.8 418.4 420.1 418.9 417.6 418.3 420.5 424.6 430 435.4 440.2 445 448.6 449.9 451.2 454.1 456.3 450.7 446.2 445 443.2 444.7 446.5 451 460.6 467.5 473.3 475.6 477.9 478.5 476.2 474.1 471.1 468 463.3 452.6 445.6 440.3 435.1 433 432.3 433.7 435.8 441.4 445.5 448.5 445.3 439.2 423.2 409.7 400 386.9 377.3 373.6 372.5 365.7 365.9 365.6 365.1 364.8 364.2 365.6 370.9 376.4 379.1 377.5 385 399.1 413.8 422.9 429.4 435 439.1 440.8 441.4 440.2 436.5 426.6 415.4 404.6 393.5 386 381.2 386.3 394.3 405.7 419.5 432.4 445.1 456.7 467.5 476.8 485.5 490.9 492.4 494.5 490.5 483.8 479.4 474 470.5 469 466.7 462.3 460.3 457.8 452 447.6 446.9 452 449.3 448.8 446 442.5 437.5 433.2 429.8 424.5 413.9 398.9 383.9 372.2 362.5 359.7 358 358.5 356 351.8 351.8 351.1
430.7 429.9 426.9 424.7 429.2 436.6 443.8 450.7 454.7 453.4 453.9 457.2 459.2 461.3 470 477.9 480 468 461.3 457.8 456.3 456.6 457.7 461.4 470 473.2 472.6 465.2 457.5 456.4 455.5 456.8 458.6 455.3 451.9 450.9 448 444.6 441 436.1 430.2 422.2 414 409 409.8 410.2 413.6 413.4 413.2 414.4 414 413.6 408.7 406.3 405.3 404.5 405.1 402.6 395.9 395.4 395.8 396.9 399.3 402.3 405.2 407.9 409.7 411.4 413.9 416.8 419.5 422 422.7 422.2 421.9 423 425.2 428.7 433.3 437.6 442.4 447.1 451.3 450.7 450 449.5 447.8 442.8 442.3 442.4 442.7 444.4 446.2 451.1 461.8 468.1 474.6 478 482 481.1 477.7 475.4 471.7 468.2 460.5 450 445.8 442.2 437.1 435.7 435.1 436.5 440.9 445.5 447.7 449.8 448.4 443.4 428 415.9 404 391.8 381.8 378.2 379 377.8 372.6 365.8 365.7 365.7 364.4 363.4 365.6 360.8 363.7 369.3 377.3 391.4 408.1 417 424 427.7 430.5 431.6 430.4 426.5 415.5 403.3 393.7 385.7 379.6 376.5 384.7 391.7 400.6 411.3 422.3 435.6 448.8 459.8 469.6 478.6 486.5 489.2 490.6 490.5 489.4 488.5 486.4 482.9 480.9 480.4 478.3 471 470.9 463.3 458.7 455.8 457.8 455.6 455.9 455.2 451.8 449.5 446.9 443.8 439.6 434.7 429.3 419.8 410.3 396.5 386.4 378.2 374.7 370 367.4 364.1 361.4 357.2
441.6 439.5 436.9 436.7 440.4 446.7 453 455.8 455.1 454.4 455.9 460.1 462.7 467.6 478.2 482.7 478.6 466.6 458.5 456.9 456.7 458.9 464.4 473.3 478.2 474.7 467.8 461.2 458.5 456.8 457.7 460.8 460.9 457.8 455.7 454.6 451.9 448 443.4 437.5 430.3 423.1 419 416.4 417.9 419.8 422 419.5 420.4 423 422.9 422.3 418.5 411.3 411.2 416.6 414.1 403.8 397.2 397 397.3 399.2 403.9 407.6 410.4 412.7 414.5 417.3 420.1 422.4 423.6 423.8 424.5 424.6 425.3 428.2 430.6 433.6 436.9 441.1 445.5 450.2 452.4 448.2 447.2 446.8 441.8 440.1 440.1 440.1 442.1 445 446.7 451 458 464.1 469.8 475.6 479.5 478.2 474.9 472.7 468.8 463.7 457 449.9 447.8 445.2 439.2 438.3 441.1 448.3 450.8 452.7 455.2 455.7 454 443.5 425.5 414.5 400.9 394.6 390.3 388.5 391.4 393.7 385.4 373.8 372.3 367.6 370.4 370.9 370.7 369.6 367.3 361.6 368.8 382.3 399.4 411.5 418 419.4 417.3 414.6 413.1 404.5 393 383.2 377.9 375.7 372.6 381.5 390.4 398.1 406 416.1 425.8 439.5 454.4 464.7 474.3 482.1 485.6 486.8 488.5 490 490.1 489.7 488.9 488.1 486.2 484.4 480.3 476.6 473.1 469.2 465.2 462.2 461.8 461.6 462.1 461.6 457.9 456.5 455 451.7 446.7 440.9 436.8 435.2 430.5 420.3 410 401.1 398.3 390.1 384.1 379.6 377.2 374.2
452.5 449.2 447 448.1 449.6 456.9 461.9 459.8 456.3 456.4 459.3 464.3 467.3 476.8 483.5 480.3 472.5 463.9 457.9 457.1 458.7 462.7 469.9 478.9 475.8 469.2 465.2 461.4 458.4 457.6 461.2 464.1 461.7 460.3 458.6 458.2 454.6 450.3 445.4 439 432.1 425 421.5 421.2 424.8 426.4 428 426.8 428.1 429 428.1 426.8 422.9 417.9 417.8 420 408.5 402.1 401 400.3 399 402.5 407.7 412.3 414.8 416.5 418.3 420.9 423.6 425.5 426.1 426 426 427 430.5 433.5 436.2 438.3 440 443.7 447.6 451.7 447.6 442.1 440.1 440.1 440.1 440.1 440.1 438.5 442 444.8 447.4 450.3 454.4 461.2 467.1 471.1 473 472.8 470.4 467.5 463.2 459.1 453.8 450.6 448.8 444.8 442.8 444.3 449.9 455.3 457.1 460.9 460.4 459.3 451.5 433.3 418.8 407.4 404.7 401.4 399.4 400.5 402.7 401.4 379.1 375.2 371.7 372.3 373.3 372.6 371.7 370.9 368.6 363.6 360.7 375.3 393.1 406.7 409.9 407.7 403.5 399.1 395.2 384.3 375.8 373.4 371.9 369.8 377.5 386.6 391.7 403.4 413.8 421.6 432.2 444 457.6 467.5 475.9 480.8 481.4 483.6 486.3 488.6 489.7 489.7 489.4 488.1 485.7 483.1 480.5 476.5 473.7 470.3 469 468 466.9 466.9 468.9 468 464.3 462.8 460.6 456.7 452.6 447.5 446.7 444.7 439.6 433.2 425.7 416.9 411.6 405.1 399.3 394 391.5 389.7
458.8 456.8 454 453.2 456.6 462 462.1 459.1 458.3 459.8 464.5 469.3 474.4 482.3 480.6 475 465.1 459.9 457.7 457.9 461.5 467.6 473.6 474.2 469.6 466.8 464.7 461.5 458.5 458 460.4 462.6 462.3 461.3 462.3 461.8 457.8 451.7 447 441.4 434.9 428.9 424.4 424.6 428 431 431 430.6 430.6 430.5 429.2 427 423.2 423.4 418.9 407.7 404.5 402.7 405.8 405.9 405 406.1 410.8 414.4 417 418.7 420.6 422.7 424.8 425.9 427 427.9 428.4 431.6 435.3 439 441.5 442.1 443.9 445.6 447.9 447.3 445 439.8 440.1 440.1 440.1 440.1 440.1 440.1 443.3 445.5 447.9 450.3 453.5 458.7 465.3 469.8 470.9 469.2 466 462 459.2 455.3 453 450.1 450.5 448.1 446.2 450.3 458.6 464.1 468.2 465 465.1 459.1 441.4 423.3 414 411.3 409.9 407.4 407.2 408.4 407.1 391.4 378.7 372.6 373.1 374.9 374.2 373.5 372.7 371.7 369.3 362.9 358.3 370.5 386.7 395.9 397.6 395.2 387.7 384.3 380.3 373 369.2 366.7 366.2 374.1 384.4 394.1 402.5 405.7 418.6 426.3 436 446.7 458.2 467.5 474.9 477.6 479.6 481.7 484.4 487.1 488.8 489.2 488.3 486 482.8 480.3 477.8 475.6 472.6 470.2 469.6 469.9 470.1 470.9 473.7 472.9 469.2 467.2 464.2 460 456.4 455.5 455.1 448.5 441.5 436.9 432.1 425.8 421.3 416.9 411.8 407.6 404.5 401.6
460.8 460.3 458.4 457.7 458.2 460.4 460.9 462.4 464.8 466.6 469.7 473.2 479.3 481.9 475 467.1 459.8 457.4 457.5 458.6 463.5 468.8 472.8 471.3 469.6 470 467.6 461.9 458.4 458 458.9 460.6 461.3 462.9 464.7 465.3 459 452.7 447.8 442 436.4 430.1 425.4 428.2 432.8 435.3 435.7 434.7 433.6 431.2 427.1 423 419 416.4 408.5 403.9 405.9 408.7 410.4 410.7 411.1 411.7 413.2 416.3 418.8 420.8 422.2 423.4 424.1 425.1 426.6 428.5 431.9 437 440.6 444 446.2 446.5 446.6 447.2 447.2 444.1 440.2 440.1 440.1 440.1 440.1 440.1 440.1 439.7 443.2 446 448.3 450.7 452.9 456.2 461.5 466.2 466.7 463.8 461 458.2 456.4 455 452.8 454.2 454.1 454 458.4 465.4 469.5 473.3 474.9 470.2 468.3 458.2 437.1 423.2 416.7 414.8 413.4 412.1 413.3 411.2 401.1 382.6 377.2 377.1 376.3 377.5 376.4 375.1 373.2 371.3 369 366.5 357.1 363.3 374.7 379.5 381.4 377.5 373.6 372 369.3 366.7 363.7 361 370.4 379.2 387.7 397.3 406.9 414.9 421.1 429.3 437.4 447.1 457.8 468.2 474.2 476 478 480.2 482.2 484.7 486.3 486.3 484.8 481.5 479 476.5 474.2 472.5 470.4 469.4 470.1 470.7 471 472.6 475.1 473.1 471.9 470.2 466.9 462.8 460.8 459.6 455.8 448.7 442.3 437.8 435.9 432.8 430.4 426.6 421.8 417.5 413.7 410.4
458.6 459.6 460.7 461.5 460.5 460.2 461.8 466.6 470.6 471.6 474 479.2 480.3 477.2 470 460.8 457.3 456.6 457.4 459.9 464.6 469.4 471.6 471.8 471.7 471.6 467.9 461.3 458.5 458.5 458.9 460.3 463 465 466.5 465.3 457.8 451.1 445.6 441.3 436.3 430.4 429.3 434.8 438 439.5 440.1 438.5 436.3 430.8 422.8 416.6 412.7 407.2 404.1 404.4 407.8 411.1 413.6 413.8 414.5 415.1 416.6 418.3 420.4 422.1 422.9 422.9 423.4 423.8 425.8 428.3 434.5 441.4 445.7 448.5 449.9 450.2 449.6 448.9 446.6 443.9 440.1 440.1 440.1 440.1 440.1 440.1 440.1 440.1 443.6 446.1 448.5 450.6 452.4 455 458.6 461.3 461.6 460.7 458.9 456.9 455.4 454.6 455.5 457.1 460.2 464.8 473.1 479.9 482.4 484.8 477.3 472.8 470 452.1 437.2 426.1 422 419.4 416.9 415.4 412.8 406.9 386.9 381.7 385.5 383.9 383.3 383.9 380.3 377.9 375.8 372 368.6 366.7 360.8 356.7 360.6 368 372.9 371.5 366.7 364.7 363.1 361.6 358 369.4 375.3 383.6 392 400.7 410.3 418.3 427.8 436.8 445.4 452 462.6 471.8 473.4 474.9 474.9 476.4 478 480.3 481.3 481.5 479.7 477.2 474.2 472.3 471.1 469.8 469.3 469.7 470.4 471 471.9 474.5 475.3 471.8 471.6 470.8 468.4 465.5 464 460.5 454.5 448.6 442.7 439.5 438.4 436.9 434.1 430.5 426.5 421.6 418.1 414.5
452.6 455.2 457.4 458.7 459.3 461.6 466.6 472.1 472.3 473.4 476.4 479.7 475.3 470.1 462.9 457.6 456.2 456.5 457.5 460.5 464.4 467.5 469.2 470.3 471.4 471.2 466.6 461 458.8 458.6 459 462 466 467.5 464.5 459.9 453.3 447.9 444.4 440.9 436.2 432 432.9 438.3 441.4 443.6 442.7 441 435.4 428 417.2 411.8 407.5 404.3 404.4 405.9 409.1 412.2 413.8 414.7 415.5 416.4 417.8 419.9 421.7 423 423.5 422 421.5 421.9 423.8 427.9 434.6 442.5 448 451.8 453.4 452.7 452 451.3 448.4 444.7 440.1 440.1 440.1 440.1 440.1 440.1 440.1 440.6 443.8 446.2 448.5 450.5 452.2 453.7 455.9 457.4 458.6 458.7 458.6 456.5 455.6 456.1 458.6 460.7 466.1 472.4 483.2 486.5 487.4 484.8 482.1 476.1 466.6 453.5 438.5 429.9 429.8 424.6 419.5 418.8 416.6 404.7 396.3 398.4 395.2 393.1 392.5 390.5 385.7 382.9 379.2 374.6 370.3 365.3 359.5 355.1 356.3 362 366.2 364.3 361.2 360.2 359.5 357 363.7 369.7 377.1 386.2 396.2 407.3 417.5 428.8 438.5 446.9 452.9 458 468.3 471.9 473.2 473.9 473.7 473.4 473.8 474.9 475.6 476.4 473.9 470 467.6 467.5 467.7 467.2 467.7 469.2 470.4 471.4 472.5 475.3 473 471.3 470.7 469.8 468.3 466.5 464.3 458.6 453 448.2 444.2 441.4 439.6 437.3 434.9 432 427.8 423.3 420.3 417
448.3 451.6 454.9 457.3 460.3 467.2 474.3 473.5 471.1 472.2 474.8 473 468.7 462.7 458.9 456.5 455.3 455.3 457.3 460.2 463.2 465.5 466.5 470.6 473 471.2 466 461.9 459.6 459 459.6 462 467.8 466.1 459.6 455.1 449.6 447.4 446.1 441.3 438.9 437 437.3 440.9 445.1 448.5 447.1 441.7 431.2 424 415 408.6 405.1 404.3 404.6 406.8 409.9 412.4 414 415.1 416.2 417.7 418.8 420.9 423.3 423.9 423.1 420.7 417.2 417.3 419.6 424.4 431.1 439.1 447.8 453.6 455.2 454.9 454.9 455.1 452.5 447.3 440.4 440.1 440.1 440.1 440.1 440.1 440.1 440.8 444 446.5 448.4 450.4 451.4 452.5 454 455.4 456.5 457 456.9 456.5 456.2 457.7 460.6 464 470.6 478.5 484.6 489.6 484.4 482.3 479.8 477.1 464.7 449.1 438.8 434.3 430.7 427.2 424 424.6 417.7 406.4 408.7 407.1 403.9 401.1 399.8 396.3 392.4 388.4 383.1 377.5 373 369.3 365.9 353.6 354.5 354.4 356.5 357.2 356.8 356.8 356 353.9 360.4 366.3 377.3 389.5 401.8 415.2 427.5 439.6 449.4 455.5 458.6 463.7 472 473.2 472.4 472.4 471.9 471.6 471 469.8 470.1 470.4 465 462 462.3 463 463.6 464.6 465.2 466.6 468.3 470.2 472.1 473.9 471.4 469.5 469.4 468.5 466.9 465 461.4 457.4 453.4 449.7 446 443.4 440 437.1 434.5 432.4 428.5 424.3 420.5 416
445.9 448.9 452.7 457.4 465.2 472.6 475.3 470.9 469.2 472 471 466.7 463 459.2 456 454.3 453.6 454.4 456.4 459.4 462.2 464.3 468.5 472.3 475 472.2 467.1 463.9 462.1 459.7 460.1 461.7 462 459.6 455.4 452.4 449 451.4 453.2 445.4 442.5 440.6 440.2 444.8 448.6 450 447.2 436.7 426.9 421.2 413.6 406.4 405.3 405.1 406.1 408.2 410.6 413.1 414.8 415.8 416.8 418.4 420 422.1 424.4 424.2 422 418.5 415.2 413.9 414.4 417.6 425.7 435.2 446.3 454 455.7 457.6 460.7 462.1 459 453.1 442.7 440.1 440.1 440.1 440.1 440.1 440.1 441 444 446.4 448.3 450.1 450.9 451.3 451.9 453.5 454.4 455.2 455.4 455 455.1 456.7 460 467.7 475.8 479.8 484.7 488 485.5 486.3 482.3 474.4 461.6 450.5 439.4 435 433.8 430 430.9 428.1 419.2 417.3 416.6 414.8 412.8 411.9 409 404.7 400.8 396.3 389.1 385.6 380.4 373 367.2 362.5 354.4 354.1 353.1 352.3 351.7 351.7 351.7 353.5 356.5 364.2 377.3 391.4 406.9 421.6 435.5 447.4 456.4 463.2 465.2 471.7 475.4 474.6 473 471.1 470.2 469.6 467.9 464.4 463.9 460.6 458.7 457.8 458.2 459.5 460.5 461.6 462.6 463.9 465.5 467.5 469.2 470.6 467.9 468 468.6 468.8 467.1 464.6 461.1 456.9 453.2 450.5 447.6 444.3 440.4 436.7 434.2 432.4 429 424.9 418.5 410.8
443.7 446.2 452.2 459.8 469.9 476.3 469.8 467.2 468.7 470.2 467.1 460.6 458 455.4 453 452.4 452.7 454.2 456.8 459.1 461.7 464.5 469.9 473.8 475.4 471 466.5 465.8 463.9 464 464.8 463.8 462.1 456.2 452.6 450.8 452 455 451.9 447.4 443.6 440.7 441.2 445.7 446.4 444.5 439.4 431.8 426.2 422.4 411 406.2 405.5 406.7 408.4 410.1 412.2 414.2 415.4 416.4 417.4 419 420.2 421.4 423.5 423.4 420.7 416.8 414.2 412.6 413.7 418.8 426.4 434.3 444.3 451.4 455.1 458.6 462.6 462.6 456.7 449.6 442.1 440.1 440.1 440.1 440.1 440.1 440.1 441.7 444.8 446.3 448.2 449.3 449.7 450.2 450.6 451.5 452.3 453.1 454.2 453.9 454 455.8 459.7 468.9 475.1 482.6 487.5 486.8 485.3 485.2 477.7 468.9 461.3 449.2 440.4 437.5 434.5 434.3 435.1 428.3 424.8 425.8 426 423.8 420.3 418.6 415.7 411.7 408.4 402.4 398.9 400.4 393.8 383.7 372.8 365.2 360.6 355 353.2 352.3 351.9 351.4 351.6 350.4 352.7 359.6 373.8 388.7 406.5 423 436.8 449.6 460.3 467.7 471.3 476.7 476.6 474.6 472.9 470.6 468.7 467.6 465.1 461.4 458.6 456.6 456 455.6 455.6 456.8 457.8 458.8 459.7 460.9 462.6 463.9 465.3 465.7 465.6 465.7 466.8 467.9 467.2 464.1 460.6 456.6 454.1 452.6 448.9 444.4 440.4 437.9 433.8 432.6 429.8 422.4 414.6 405.1
441.6 443.5 450.9 460.4 470.8 469.8 466.2 467.4 471.3 468.7 461.1 457.2 454.4 451.9 451.1 451.4 452.5 454.9 457 459.2 461.4 465.2 471.1 475.7 472.7 468.6 467.2 467.1 469 470.9 468.9 467.1 462 457.4 454.2 453.6 457.2 455.7 450.2 447.8 444.3 441.3 441.1 442 441.5 438 433.6 431 427.7 422.6 407.9 405.6 406 407.7 409.4 411.3 413.7 415.1 416 417 418 419 419.9 420.7 421.5 421.2 418.1 414.3 412.2 411.3 412.9 418.3 425.5 432.8 440.3 446.2 452.5 458.4 460.2 457.5 450.4 445.5 442.5 441.2 440.1 440.1 440.5 440.1 439.2 442.7 444.9 446.4 447.7 448.2 448.6 449 449.4 449.9 450.2 451.8 453.5 453.1 453.3 456.7 467.8 475.4 480.7 486.6 486 484.9 481.7 478.9 469.5 465.7 457.9 447.1 441.8 438.4 437.7 442 438 431.6 433.9 434.1 432.4 430.5 427.3 425.7 422.1 418.5 415.7 411.1 413.1 409.4 401.9 392.3 380.7 370.8 365.4 358.9 354.2 353.4 353.9 352.9 350.5 350.1 349.7 352 366.2 383.4 401.5 419.9 436.3 449.3 459.5 467.8 476.3 479 479.3 477.3 474.1 471.9 468.4 465.6 462.5 459.1 456.3 454.8 454.2 453.8 453.4 454.1 455.1 455.9 456.5 457.6 459.2 460.5 461.8 462.1 463 464.6 466.3 467.8 467.2 463.9 460.5 458.1 456.5 454.9 450.9 446.2 443.4 441.4 438.2 435.7 431.7 423.4 416.1 405
439.4 441.5 450.1 457.6 465.6 464.3 465.7 471.5 470.4 465.4 457.5 454.3 451.7 449.7 450.8 451.5 452.5 454.7 456.8 458.8 460.9 466.2 472.6 474.2 469.7 467.5 468.1 471.6 473.8 472.3 467.6 464.7 463.4 462.4 461.9 460.1 459.6 455.6 452.4 448.9 443.7 442.2 441.4 439.9 438.5 435.8 433.5 430.8 426.4 415.9 406.9 406.1 406.9 408.6 410.2 412.3 414.4 415.7 416.6 417.3 417.9 417.7 418.6 418.9 418.7 417.6 414.8 411.4 409.4 409.3 411.8 417.1 423.9 430.6 435.3 442 450.3 456 456 452.2 446.9 444.4 444 444.4 443.7 443.6 443.4 441.6 438.9 441.5 443.7 445.2 446.5 447 447.4 447.8 448 448 448.3 450.3 451.4 450.9 453.3 461.8 467.9 470.9 478.7 478.6 477.3 477.8 479 470.6 466.3 460.4 447.3 444.2 442.2 441.1 446.4 448.6 436.8 438 440.7 440.4 437.9 434.4 432.5 431.1 427.5 423.9 419.7 418.6 417.6 412 402.2 394.4 386.3 378.2 370.4 364.6 361.3 355.6 353.7 353.6 353.5 348.4 348.6 348.5 358.8 378 395.4 415.6 436.1 450.3 462.9 475 480.5 485.1 483.9 480.7 479.2 474.4 468.9 465.3 460.5 457.6 455 453.5 452.4 451.9 451.6 451.5 452.1 452.7 453.2 454.4 455.8 457.1 458.6 460.6 462.7 464.5 466.3 467.6 467 464 461.7 460 458.5 456 452 448.6 446.6 444.8 442 438.5 434.4 428.3 420.7 412.4
438 441.8 448.4 455.7 460.6 462.1 466.4 467.1 464.7 456.9 454.1 451.4 449.1 448.3 449.4 450.6 452.2 454.4 456.5 458.5 461.9 466.9 471.8 469.1 465.7 464.6 468.3 473.3 475.3 470.1 464.7 463 466.9 467.4 466.8 464.4 461.3 458.5 454.3 449 443.1 441.9 441 439.3 438.3 436.3 431.9 427.5 421.8 412.1 407.9 407.2 407.7 409.4 411.1 412.9 414.4 415.8 416.8 417.5 417.7 417.4 416.7 416.2 415 412.8 410.1 407.3 407.4 408.6 411.4 416.4 422.2 427.5 432.5 441 450.8 454.8 453 448.5 446 444.8 445 446.5 446.5 446.1 445 443.5 440.7 439.3 441.3 443 444.5 445.5 446 446.5 445.8 446 446.3 447.4 447.9 449.6 453.2 461.6 466.6 472.8 474.7 475.5 476.8 478.9 471.2 463.2 459.8 450.8 446.5 444.9 443.9 449.9 455.3 446.6 444.1 446.3 447.1 445.7 441.2 439.9 437.9 434.4 430.9 427.4 423.5 422.9 419.5 412.9 405.9 399.4 391.7 383.2 372.6 367.5 364.5 357.2 353.8 353.6 353.6 353.6 353.4 349.2 354.9 371.5 388.5 408.7 430 449.6 465.9 474.6 480.9 481.6 479.9 478.2 481.6 473.9 468.7 463.4 458.6 455.8 454.1 452.4 451.2 450.2 449.3 448.9 448.9 449.4 450 451 452.4 453.8 456.4 459.6 462.3 464.4 465.5 466 465.8 463.9 462.3 461.5 459.3 456.5 453.5 451.1 448.7 446.9 443.7 440.8 438.5 433.7 426.9 422.3
438.5 441.8 446.3 452 456.2 459.3 459.7 459.1 456.2 452.4 449.9 447.8 446.1 446.6 448 449.7 451.3 453.8 456.2 458.2 463 467.2 467.3 464.8 462.7 463.2 468.3 473.8 472.3 465.9 460.5 460.5 463.5 465.5 466.6 466.1 465.2 465.1 459 448 443.2 441.9 440.7 439.8 438.8 435 429.6 424.2 417.2 410.3 406.8 406.8 408.3 409.6 410.9 412.6 414.2 415.7 416.9 417.6 417.3 415.9 414.4 412.9 410.8 407.9 405.7 405.3 405.9 408.6 412.6 415.4 419.9 425.6 433.1 445 456.5 460.4 453.3 448.3 446.4 445.7 446.1 446.8 446.6 446 445 443.9 442.4 438.8 438.8 440.8 442.5 443.7 444.2 443.9 443.4 443.7 444.1 444.5 446.5 450 454.8 459.5 465.2 472 474.4 474.4 474.7 472.1 466.6 459.4 454.5 449.5 448.3 448.7 452.7 460 454.5 452.2 454.5 455.5 454.4 452.4 447.4 442.9 439.9 436.6 433.2 429.7 427.3 425.7 421.7 415.9 409.9 402.8 395 383.6 374 371 366.5 362.4 355.8 353.6 353.6 353.6 353.3 349.6 348.4 361.2 376.6 397.5 418.9 437.3 452.9 464.1 469.8 471.9 473.5 480 481.1 474.3 468.7 461.8 457.4 455.4 453.3 451.5 450.3 448.9 447.3 446.1 445.5 446 446.6 447.8 449.2 451.6 455.1 458.4 460.9 462.7 463.7 464.2 464.4 463.2 462.5 460.8 458.2 456.6 454 451.5 449.3 447.3 444.7 442.1 438.8 434.3 430.4 427.1
435.7 441.8 445.9 449.6 453.3 454.6 454.1 451.2 449.3 447.2 445.6 444.6 443.9 445.3 446.9 448.7 450.4 452.9 455.4 458.1 461.4 463.2 463.1 460.7 458.8 461.4 466.3 470 466.6 460.7 456.8 457.8 461 463.9 466.2 467.4 467.3 463.4 454.7 446.4 443.5 442.5 441.3 440.5 438.9 433.8 428.1 421.8 414.8 409.7 406.9 407.1 408 409.3 410.6 412.3 413.9 415.5 416.9 416.5 415.9 413.9 412.3 410.2 407.1 405.1 404.1 403.8 404.7 407.4 410.4 413.4 417.5 425.2 436.1 451 460.9 459 452.2 447.9 446.9 446.4 446.4 446.6 446.5 446 444.9 443.9 442.1 439.5 436.3 437.7 440.1 441.7 441.5 441.5 441.2 441.4 440.4 442.9 447.6 452.9 457.3 467.1 473.6 474.2 472.6 473.7 473.6 469.8 467.3 460.7 456.2 452.1 454.1 458.4 465 462.8 458.4 458.8 460.1 460.3 459.4 457.7 455.7 449.1 443 439 435.3 432.8 430.3 428.4 424.8 417 409.5 402.1 393.7 380.9 375.3 372.3 366.2 365.5 358.7 357.5 357 354.8 353.6 352.5 346.5 353.1 366.4 386.9 407.3 418 429.6 446.3 456.9 463.8 473.2 479.6 478.7 475.8 472.3 463.1 458.5 455.1 452.9 451.8 450.5 449.1 447.4 445.3 442.4 442.6 442.8 444.3 446.2 449.4 453 455.8 458.2 460.3 461 461.2 461.3 460.6 460.3 458.8 457.5 456.2 453.8 451.3 449.4 447.3 445.2 443.1 439.6 435 432.1 429.7
444.6 444.9 446.5 450.3 458 452.5 449.4 445.7 443.4 441.2 440.8 441.5 443.7 445.3 446.7 447.9 449.1 451 453.4 455 456.8 458.4 459.3 456.6 456 460.2 464.1 464.5 460.6 455.5 455.1 456.4 458.9 461.8 464.5 465.7 464.9 458.5 450.1 445.3 443.6 442.7 443 441.8 437.4 432 426.9 421.5 416 409.5 407.6 407.7 408.4 409.3 410.3 412 413.6 415.3 416.5 415.5 414.5 412.5 410.6 407.9 405.9 404.4 403.5 403.2 404.5 406.8 409.2 412.1 416.9 426 438 454.5 460.4 455.4 450.4 448.3 447.3 446.6 446.6 446.5 446.5 445.9 444.9 443.4 441.4 439.2 436.8 433 436.6 437.5 438 438.5 438.9 437.2 439.1 443.4 451.2 455.1 460.7 470.1 468.6 470.8 472.4 474.4 471.7 470.3 466.4 458.7 455.2 456 459.4 465.9 470 465.2 463.6 463.9 464.2 464 463.6 463.9 463.7 460.3 450.5 441.5 438.5 436.9 436 431.7 421.8 409.4 401.5 397.9 389.6 378.9 373.5 370.5 368 367.9 364.4 364.9 362.8 361 356 356.2 348.8 345.1 355.9 373.5 388.3 395.8 410.2 430 443 459 471.5 476.8 477.1 476.8 468.8 462.1 457.6 454.6 453.3 452.1 450.8 449.3 447.6 445.4 443 439.5 439.3 440.8 442.3 446.7 450.4 453.1 455.3 457.2 458.8 458.9 458.6 458.3 458.3 458.2 456.3 454.5 452.1 449.9 448.2 446.9 445.3 443.6 441 438 436.6 436.1
443.4 447.5 448.9 450.8 450.6 447.2 443.8 441.9 438.8 437.9 438.5 439.6 442.3 443.7 444.9 446.2 447.4 448.5 450.6 451.6 452.7 453.6 455 453.7 455.6 459.6 462.2 459.8 455.3 454 454.7 456.2 458.4 460.7 461.7 462.3 460.6 454 447.7 447 446 445.7 447.9 443.6 437 431.1 426.8 422.5 417.4 412.5 409.7 408.7 408.9 409.3 409.9 411.7 414 415.7 416.3 415.2 413.2 411.2 409.1 406.8 405 404 403.2 403 404.3 406.3 408.6 412.2 418.2 427.6 439.3 452.8 455.6 451.8 449.8 448.3 447.8 447.1 446.8 446.7 446.6 445.8 444.5 442.7 440.7 438.6 436.5 433.6 432.3 435.1 436 436.5 436 436.1 439.3 446.5 451.2 455.2 461.4 466.4 470 470.1 472.1 470.6 466.1 463 459.4 456.6 456.9 458.6 465.4 474.6 470.6 467.3 466.2 466.1 466.6 468.2 469.5 469.9 467.8 462 450.6 444 442 439.6 435.2 428.9 412.9 398.2 391 383.2 379.1 377.5 378.4 375.6 374.8 373.3 372.4 368.2 366.7 363.8 362.2 359.3 353.3 345.6 346.4 357.7 366.3 376.7 392.8 412.8 436.1 454.6 465 471.6 474 473.1 465.1 460.5 457.8 456.4 453.8 452.2 450.8 450.4 448.1 446.5 444.2 441.2 438.7 437 437.8 441 446.5 449.7 452.4 454.2 455.9 457.1 455.4 455.2 455.8 454.9 453.5 452.2 450.5 447 446.7 446.2 445.3 443.7 441.9 440.4 438.8 437.3
449 456.8 452.9 448.6 446.1 443 441.2 438.5 436.3 435.9 436.7 438.4 440.5 441.8 443 444.2 445 445.9 447.4 448.7 449.9 450.7 451.2 452.4 456.4 460.4 459.7 455.6 452.8 452.5 454.1 456 458.2 459.6 459.6 458.2 455.6 450.3 448.6 447.6 447.4 449.4 451.8 444.8 436.1 430.7 427.5 423.7 420 416.4 414.1 412.1 411.4 411.9 413.5 415.4 417.4 418.5 418 415.6 412.7 410.1 407.8 405.8 404.9 404.1 403.2 402.7 404.1 406.7 409 414.1 420.8 429.8 438.8 449.6 451.2 450.4 449 448.7 448.4 447.7 447.1 446.8 446.4 445.7 444.1 442.1 440.1 438 435.7 433.2 430.4 432 434.1 434.3 433.6 435.7 440.5 448 455 461.6 461.6 465.2 466.5 467.5 468.4 463.2 459.6 455.2 454.6 455.7 458.4 461 472.9 472.7 470.9 468.9 468.4 468.6 470 471.3 472 471.3 466 458.9 448.1 445.1 442.7 439.7 434.7 422.8 402.6 391.9 384.9 387.8 388.6 389.4 388 386.3 381.6 378.9 377.5 377.3 374.3 372.1 368 362.3 357.4 352.9 344.4 343.9 348.6 361.3 378.6 399.9 423.5 442 452.5 460.3 466.3 466 462.1 459.9 461.1 459.2 454.1 452.5 452.9 453.2 453 454.3 450.2 441.1 439.3 437 434 432.4 439.4 444 446.7 449 451 450.6 451.1 451.9 452 451 449.7 448.7 448 445.8 445.3 444.7 443.9 442.7 442 440.6 439.5 436.8
457.7 463.6 456.1 446.7 444 441.3 439.5 435.8 434.6 434.1 435 437.1 438.5 439.8 441 441.8 442.7 443.6 444.7 446 447.4 448.2 449.5 453.8 457.4 457.8 455.1 452.6 451.3 451.9 454 456.1 458.5 459.1 458.1 456.6 453 450.5 449.4 448.4 448.5 451.9 450.2 441.7 436 432.2 429 425.4 422.5 420.7 419.2 418.1 417.3 417.9 420.3 423 425.8 425.9 422.6 420.1 416.7 411.3 408.5 406.8 405.4 404.3 403.5 402.2 403.3 406.1 410.2 417.4 425.1 432.9 440.7 447.5 450.8 449.5 449.4 449.3 448.9 448.5 448 447.6 446.8 445.9 444.6 443.1 440.2 437.1 434.6 432.3 429.9 430.4 431.7 431.8 431.6 434.7 443.7 452.2 458.7 460.3 459.7 462 462.1 462.8 459.9 454.3 449.8 450.1 452.1 456.9 461.4 467.9 473.4 472.4 471.1 470.4 471 471.1 472.3 472.3 471.1 468 462.5 453.8 446.4 444.4 442.4 438.5 427.1 412.8 397.8 389 398.2 404 402.8 399.6 395.9 391.9 388.9 386.4 385.8 386.3 384.1 380 373.9 370.8 361.3 357 352 342.7 340.1 342.6 359.6 386 412.4 432.3 445.7 455.9 463.5 462.7 460.3 460.9 462.3 460.3 455.7 454.8 455.9 457.4 458.5 457.5 450.1 442.1 440.3 439.1 435.7 430.5 431 438.8 441.2 442.3 443.5 443.4 445.6 446.4 446 445.6 443.8 442.4 442.2 442.3 442.3 442.8 442.5 441.4 440.9 440.1 437.3 434.6
461.3 462.8 450.9 444 442.8 440.5 436 433.1 432.3 432.4 433.5 435.2 436.6 437.9 438.7 439.6 440.4 441.6 443.4 445.2 446.5 447.4 450.4 454.4 456.1 455.8 452.2 450.7 450.4 451.8 454.6 457.2 458.8 459.1 458.1 456.3 454.2 451.9 450.2 449.7 449.7 450.8 445.7 437.5 434.3 432.4 429.3 427 426.4 425.6 426.4 426.5 424.6 424.4 426.6 428.9 430.7 430.1 428.1 425.6 421.2 415.9 410 407.8 406.4 405.1 403.7 402.1 402.4 406.4 411.6 418.7 426.3 434.3 441.8 448.2 450.4 450.4 449.8 449.8 449.6 449.4 448.9 448.9 448.2 447.7 446.7 444.9 441.4 437.1 432.9 430.5 428 427.5 429.1 429.1 430.3 433.1 440.5 450.5 454.8 457.4 454.5 454.5 453.8 455.7 452.3 446.5 444.5 448.3 459.5 468 467.8 475.2 474.9 473.6 472.8 471.9 472.5 473.5 473.8 472.5 470.2 465 457 448 444.6 442.6 438.3 429.5 415 405.6 393.2 405.7 415.5 416.1 412.3 403.9 399.2 395.9 394.6 394.2 392.8 391.5 389.3 381.9 376.5 373 365.4 358.2 355.4 349.8 344.9 341.8 347.8 382.4 407.4 431.1 445.6 459.1 463.4 460.7 460.6 463.3 464.6 460.8 458 457.8 458.4 459.6 460.6 460.5 450.6 446.2 448.7 443.3 437.7 432.4 426.3 431.4 433.5 434.5 435.6 436.8 438.3 439.2 438.9 438.9 438.7 438.4 438.5 439.4 439.9 440.4 440.3 440.2 439.5 438.2 434.5 431.7
459.1 455.2 444.4 440.2 439.8 435.2 430.1 428.8 428.4 430.1 432 433.4 434.8 435.5 436.3 436.4 439.1 441.2 443.1 444.7 445.8 447.4 451.7 455 453.7 451.9 449.9 449.4 449.7 452.3 455.7 458.5 459.5 459.8 460.1 459.9 458.5 453.1 450.5 448.5 447.1 444.7 437.3 434.7 433.5 431.4 430.1 429.8 430 430.8 432 432.1 430.4 430.6 432.9 435.1 437 436.5 438 437.3 433.3 424.1 413.4 409.7 408.1 406.8 405 402.9 401.3 406.8 412.5 418.6 425.7 433.4 441.3 447.8 450.6 450.4 451.1 451 451 450.7 450.7 450.9 450.9 450.7 449.9 448.2 442.8 436.1 431.2 428.9 426.6 425.5 426.7 427 428.9 432.6 444.1 449.9 452.5 452 448.8 448.6 444.9 444.5 441.6 441.7 446.2 458 467 472.2 477.9 481.2 476.9 475.1 474.8 475.5 476.8 477.9 476.4 472.6 468.8 461.3 450 444.4 440.7 436.1 428.5 418.9 409 402.1 412.7 423.4 427.3 426.6 419.9 406.3 401.1 400 399 396.9 394.7 392.6 388 379.9 375.5 371.1 362.8 354.6 351.9 346.8 343.2 341.3 359.3 386.3 412.4 436.6 451.1 459.5 457.4 458.5 462.6 464.7 463.2 460.9 459.7 460.1 461.3 464 465.3 459 454.8 455.3 453 442.7 437.4 432.4 426 423 425.9 426.9 428.1 429.2 430.7 431.4 431.8 432.2 434.2 434.5 434.6 436.1 437 438.1 438.6 439 437.6 434.9 431.6 428.5
452.7 440.7 436.6 433.6 433.9 428.5 425.2 424.2 423.8 427.5 430.2 431.8 433.2 433.5 433.1 436.8 439.4 441.5 443.1 444.1 445.1 448 452.8 453.5 451.8 449.9 448.4 448.2 450.8 454.4 457.4 458.9 460.1 461.9 464.4 461.8 455.9 451 447 444.3 442.2 437.6 436.6 435.5 434.4 433.1 433.2 435.3 436 436.3 436.7 437.2 436.5 436.9 439.1 441.3 443 446 449.4 450.2 447.2 436.2 420.6 413 410.6 408.5 406.3 403.8 401.1 405.1 409.7 415.8 423 430.9 438.8 447.2 451.9 453.8 454 454 453.5 453.2 453.3 453.5 453.9 454.1 453.2 451.1 442.3 433.7 428.5 426.9 425.6 423.1 424.2 425.7 427.6 436.4 443.7 447.6 446.6 444.3 441.5 440.8 439.5 438.6 440 442.7 452.1 459.6 466.7 475.8 482.6 481.5 478 477.1 477.7 478.9 479.9 479.2 475.6 470.3 464.8 454.9 446.9 442.7 439.8 431 420.6 411.1 415.1 423 430.4 433.8 432.6 428.4 417.8 404.5 401.8 400.9 398.9 396.4 394.2 391.6 387.4 381.9 371.8 367.1 358.9 351.2 347.8 342.7 339 347 365.5 393.8 419.6 437.9 449.7 450.1 451.5 460 462.3 462.3 462.8 461.4 461.6 464.3 466 468 465.4 460.8 462.3 459.5 449.3 442.6 436.8 431 426.2 418.5 417.6 419.4 420.6 421.7 423 423.7 424.7 426.4 428.9 430.5 431 432.9 435.4 436.8 437.3 436.6 433.2 430.1 426.9 425.6
435.5 432.6 430.4 428.2 423.7 421.4 420.4 415.6 422.6 425.8 428.1 429.6 430.1 431.5 434.6 437.7 440.6 442.5 443.2 444 445.5 449.8 452.1 451.9 450.1 448.2 447.3 447.5 452.9 455.9 457.2 458.6 462.1 464.9 462.2 456.3 450.2 445.9 442 440.6 438.6 437.9 437.4 437.8 437.5 438.1 439.4 440.5 441.1 441.7 442.2 442.5 442.5 443.4 445 446.5 449.2 452.9 456.3 457.3 452.3 439.2 424.7 417 414.4 411.7 408.4 404 400.1 403 405.9 412.1 419.3 429.9 439.9 450.2 456.5 458.4 457.8 456.8 456 455.6 455.3 455.2 454.9 453.9 452.6 447.4 439.3 431.1 426.2 424.3 423.6 422.9 422.4 424.7 426.6 438 440.3 440.1 441 438 437.4 436.5 436.3 438.4 441.1 448 454.9 462.4 472.9 481.7 481.1 479.6 478.6 478.5 479.6 479.8 479.3 476.3 469.8 464.5 457.1 450.4 445.1 441.9 437.2 428.3 426.9 429.4 432.6 434.7 437.3 437.3 434.7 426.8 412.8 401.5 401 399.8 398.1 395.7 392.2 389.9 386.9 382 368.3 362.4 350.8 345.7 342.3 338.5 343.9 352.6 376.7 402.8 420.4 431.2 439.7 443.1 451.2 455.1 457.6 460.9 462.8 464.4 465.7 468.4 471.5 472.8 466.8 465.4 463 452.1 445.7 441.7 437.2 434.2 430.5 423.2 412.2 412.4 412.8 414.1 415.5 416.6 417.7 419.6 422.2 423.9 426.9 429.8 433.1 435.5 435.4 431.9 428.4 425.4 423.6 424.4
429.3 429.2 426.8 421.6 415.6 415.5 415.9 409.9 418.8 422.1 422.4 427.3 430.4 432.6 436.3 441.2 443.4 443.1 443.5 444.5 446.5 450.1 452.1 450.6 448.1 446.5 446.1 447.6 452.3 455.2 456.3 460.4 463.6 463.7 456.2 450.2 446.5 442.5 439.5 438.6 438.4 438.7 438.4 439.9 441.6 443.7 444.8 445.4 446.3 446.9 447.1 447.5 447.9 448.2 448.6 450 452.5 456.1 459 459 452.1 439 424.7 421.1 418.6 414.5 410.1 405.4 400.7 402.1 403.8 407.7 416.4 430.9 444.9 457.2 461.6 462.4 460.9 459.1 457.8 456.4 455.4 455.4 454.6 453.2 450.7 444.8 437 429 423.6 421.9 421.3 420.5 421.4 423.6 427.3 434.2 435.1 437.3 436.7 431.2 432 433.9 436 438.3 444.8 451.9 459.7 470.2 482.1 480 478.6 478.8 478.4 479.6 479.8 479.8 477.7 470.7 464.4 460.5 453.5 447.6 445.1 442.6 439 437.4 440.1 441 441.2 439.9 439.5 438.3 435.6 423.3 410.7 402.2 400 397.9 394.8 390.5 387.2 384.6 381.4 374.8 362.1 353.4 343.7 339.7 336.8 343.4 347.6 365 387.8 406.4 418.9 425.1 431.3 438.4 442.9 449.7 456.7 461.8 466.7 468.6 469.7 472.2 473.2 469.7 467.3 463.3 455.6 448.5 445.1 443.3 440.8 439.4 435.1 429 421.8 416.3 407.9 407.3 407.2 409.4 410.2 411.8 414.7 418.5 422.5 426.2 430.3 433.4 431.8 427 422.5 420.5 421.6 421.2
425.4 426.5 424 414.1 409.7 410.2 410.9 408.7 411 419.6 425.2 429.7 432.4 435.2 439.6 443.3 444.1 443.5 444.5 445.8 448.7 451.4 450.3 448.6 445.1 444.8 446.8 448.7 452.5 453.9 456.8 461.1 464 460.7 451.8 449 444.9 439.5 438 437.9 438.5 438.7 440 441.7 443.1 444.9 446.7 447.7 449.9 450.8 451.1 450.2 449.4 448.8 448.9 450.1 452.2 454.7 457.4 457.8 447.3 439.7 432.5 427 425.3 422.3 417.7 408 402.2 399.6 402.3 405.4 412.2 427.8 447.8 454.8 457.8 459.6 459.7 458.9 457.5 456.6 455.6 454.5 453.4 452 448.9 442.8 434.9 427 421.1 419.6 418.6 418.5 420.8 420.7 420.9 425.1 428.9 430.2 426.6 429.3 431.8 433.6 436.7 443 449.4 458.1 467.1 479 479.7 476.9 477.6 476.4 477.8 477.9 477.5 475.9 473.3 465.8 462.4 459.2 451.9 448.6 446.9 444.9 444.3 444 443.6 444 444 442.5 436.9 433.7 430.4 419.9 409.7 403.6 402 399.1 395.6 388.4 382.7 378.9 373.2 365.4 355.3 345.2 338.5 338.4 343.5 352.1 360.8 378.5 393.1 403.7 411.3 419.6 423.4 426.9 438.2 449.9 458 463.7 467.8 469.9 472 474.1 471.1 470 468.7 461.2 453.1 449 447.9 446.4 444.8 443.1 439.4 434.8 434.3 429.3 418.4 411.2 403.7 401.6 402.5 404 407.4 412.1 417.6 422.2 426.8 428.6 425.2 421.4 417.1 418 419.1 419.8
419.8 421.3 412.7 406.5 403.5 404.1 399.6 405.6 413.8 418 424.1 428.5 432.3 436.2 440.5 444.8 443.7 443.6 444.9 448.8 452 453.3 450 444.4 442.6 445 448.7 448.9 450.7 453.5 457.5 460.1 456.9 451.3 450.2 448.6 441.3 437.5 437.5 438 438.6 439.2 441.3 443 444.2 446.2 448.6 451 452.7 453 451.4 450.1 449.2 448 447.9 448.9 450.1 452.1 454.3 454 447.4 442 437.8 433 431.4 427 420.4 408.6 402.2 399.4 400.1 403.4 408.2 419.2 433.3 444.7 451.4 454.5 456.7 456.6 456.4 455.4 454.2 452.8 451.6 449.6 446.4 440.4 433 425.4 419.5 417.7 417.2 418.3 419 418.3 416.8 415.8 420 419.3 427.4 430.4 430.1 435.1 440.1 444.3 451.9 462.1 472 478.5 478.1 473.6 472.5 473.5 474.4 474.5 473 470.6 466.3 462.4 461.6 456.1 451.8 450.2 448.8 447.5 446.7 445.9 445.7 446.1 444.9 438.4 433.5 430.8 423.1 413 407.2 405.4 401.7 398.7 393.5 386.6 379.9 372.1 365 355.2 347.4 337.6 337.6 342.9 353.4 361.9 371.8 382.8 391 401.9 411.2 410.6 413.3 427.8 442.9 452.8 459.9 465 467.9 471.3 473.6 472.5 471.5 471.6 469.9 460.4 452.2 450.7 449.9 448.1 446.5 444.7 442.1 442.8 440.4 432.9 430.2 420 414 406.6 393.7 395.6 399.2 406.2 412 417.9 422 420.6 417.5 414.2 413.7 415 415.7 416.1
412.9 407.7 401.8 398.1 397.5 390.5 399.6 407.9 410.9 416 421.5 426.8 432.7 436.7 441.2 444.6 443.1 444 445.1 449.8 453.1 453.6 444.6 439.1 439.1 443.9 444.1 446.4 449.3 454 457.6 452.8 447.7 447.1 445.4 441.6 436.9 437.5 438.2 438.4 439.5 441.4 443.4 444.3 446.8 449.9 452.5 454.6 455.2 453.6 451 449.2 446.9 445.6 444.7 444.9 446.6 448.6 450.2 449.9 447.7 442.1 439.7 437.1 434.9 427.2 419.5 409.1 401.3 398.3 398.8 400.9 404.9 418.8 429.1 437.4 443.8 449.9 452.9 454.9 454.9 453.9 452.4 450.9 448 445.7 442.3 436.6 430 423.4 418.3 416.7 415.5 416 415.7 414.5 413.1 411.2 410.3 417.8 420.6 423.8 430 435.6 441 447.9 456.6 466.8 475.7 477.2 470 469.1 468.1 469.3 470.2 469.2 467.4 464.7 462.7 460.9 457.7 454.5 453.3 451.8 450.4 449 448.3 448.8 448.7 445.1 439.7 434.5 434 427.5 413.8 409.8 408.3 405.8 402.1 397.8 392.1 386.1 376.8 368.4 356.7 344.7 334.7 335.1 343.1 352.1 360.2 368.6 377.2 384.8 394 403.5 406.3 401.5 413.6 431.2 446.2 454.2 460.4 465.9 469.9 472.6 474.1 472.4 472.5 473.4 467.9 455.4 452.2 451.4 450.7 449.1 446.7 445.5 443.9 443.1 439.6 432.1 427.5 424.2 418.8 411.5 402.6 391.8 390.2 399.6 407.2 413.2 414.6 412.3 409.3 407.8 410.7 411.6 412.2 412
404.1 395.7 392.4 392.4 393.2 382.9 399 405.2 406.1 409.9 416.5 423.9 428.6 433.9 440.3 442.1 442.6 443.1 446 449.8 450.1 442.6 435.9 432 434.7 437.3 436.7 440.4 444.4 448.6 447.8 440.5 440.3 440.4 438.4 436.1 436.5 438.2 439 440.7 443 446.1 447 448.4 451.3 454.8 459 458.9 456.4 453.1 450.2 446.9 443.8 441.8 440.4 439.7 440.9 442.6 443.9 443.5 442.3 439.8 437 435.9 430 424 416.3 408.4 402.4 397.8 398.5 401.6 404.2 413 422.5 430.7 437.8 444.6 449.1 451.7 453.1 452.6 450.3 448.8 445.2 441.5 437.9 432.8 426.4 420.1 416.3 414.6 415 420 414.6 408.7 408.9 408 406.2 408.3 412.9 426.1 433 438.3 445.7 454.2 462.9 470.1 472.7 466.6 463 461.4 462.7 464.6 465.5 464 463.5 462.4 460.9 460 458.9 455.3 453.6 452.5 451.6 451.9 452.9 449.6 443.5 438.1 434.2 433.1 430.3 416.6 407.1 408 408.4 406.1 403.2 399.9 392.7 384.8 371.5 363.2 349.5 336.8 337.1 342.5 347.4 356.9 364.5 371.2 378 385 391.7 395.7 395.4 397.3 416.2 435.3 448.5 456.4 463.9 469.6 472.5 475.6 475 474.6 476.2 474.4 462.7 454 452 451.3 450 448.1 446.4 445.1 443.6 439.9 434.5 430 427.6 424.1 419.4 409.9 400 389.8 387.5 392.9 399.7 404.2 404.4 403.2 401 404.2 406.7 408.2 408.4 407.3
394.6 388 387.6 387.9 387.2 378.9 397.7 400.2 399.5 403.2 409.4 415.6 422.2 432 439 441.8 441.8 442.6 445.7 447.2 441 434.2 428.3 423.1 423.7 425.6 430.1 432.5 436 436.8 433.7 432.9 433.7 434.9 434.4 435 436.7 438.4 441.6 444.2 448 450.5 449.7 449.9 452.9 457.5 460.5 460.5 456.8 452.2 448.1 444.8 441.1 437.5 436.3 435.6 435.3 436.1 437.4 437 437.3 435.6 433.2 431 429.6 420.6 413.4 403 400.8 397.2 398.3 401.2 404.7 410.6 417.2 425 432.7 440.1 445.2 448.6 451.5 451.2 449.5 446.1 442 437.3 432.6 428.1 422.9 418.1 413.6 412.9 419.7 430 414.1 403.5 405.2 405.3 404.3 406.6 417.2 426.5 433 440.1 448.3 455.9 462.1 466.1 463.2 456.3 455.1 456 459.1 461.6 461.9 462.1 461.6 461.6 461.4 462.2 459.7 455 454.7 454.8 455 453 450 443.6 435.6 429.9 427.5 425.5 414.8 404.8 403.1 401.8 400.1 397.6 395.4 390.3 383.3 374.5 367.1 357.2 342 334.9 340.2 345 351.2 357.5 362.9 368.4 373.1 376.3 379 381.2 385.9 397.3 417.6 437.7 449.8 458.4 465.8 470.6 474.3 475.4 477 480.8 479.2 470.3 460 454.3 452.2 450.9 448.9 446.7 444.7 442.3 438.9 433.7 431.7 429.8 424.1 420.8 415.6 402.1 394.7 387.4 382.8 384.2 389.6 392.5 392.9 392.3 394.5 399.9 402.5 404 403.4 402
394.2 382.9 383.3 383.5 373.4 389.8 394.9 394.9 395.7 399.1 404 411 418.8 428.6 436.8 441.9 440.5 441.6 443.5 442.2 433.8 428.1 421.1 412.3 418.8 421 423.5 423.8 424.2 425.9 426.1 429 430.2 431 433.6 436 437.7 439.9 443.2 446.8 452.4 450.8 450.8 451.4 454.2 457.3 461 460.3 455.2 450.5 446.1 441.9 437.3 433.4 432.7 432.7 432.4 431.7 431.1 431.3 431.8 431 428.8 426.8 426.1 416.2 406.9 403.6 400.1 396.8 397 400 403.6 408.6 414.1 420.8 428.1 435.3 441.5 445.9 449 448.9 446.3 442.5 437.5 432.6 427.9 423.2 418.8 414.6 412.2 418.7 432 430.1 409.1 400.4 401.8 402.5 402.4 405 412.4 422.9 431.3 440.2 448.2 455 462.9 459.6 454.3 448.4 449 452.3 455.9 459.8 460.2 461.7 463.4 466.1 467.4 460.7 457.4 456.1 457.2 458.2 458.3 453.3 445.9 437.1 428 418.8 416.9 408.9 400.2 398.1 397.5 393.3 389 386 384.3 377.6 375.4 370 359.7 347.3 337.7 335.3 340.7 345.5 351.2 353.8 358.2 364 366.9 368.1 375 382.2 390.1 403.2 420.9 441.3 451.4 459.4 466.1 469.8 472.5 476.2 480.2 481.5 475.4 466.3 459.4 455.2 452.6 450.7 448.7 445.4 440.7 435.8 432.3 431.4 429.7 425.3 419.1 410.4 402.3 395.8 389.3 391.5 391 385 379.6 381.3 382.3 384.1 387.9 393.9 398.3 398.8 398 396.3
390.3 378.1 379 373.4 377.1 387 390.2 391 391.4 396.5 403.8 411.2 418.9 427.2 433.7 438.2 442.5 441.7 441.2 433.9 426.1 420.4 413.2 407.4 413 413 413.6 415 417.2 419.2 420.5 421.7 426.8 430.7 434.2 437.1 439.2 442.1 445.8 451.2 452 451.5 452 453 455.1 458 460.8 459.5 453.2 447.8 443.8 439.3 434.2 430.4 429.5 429.8 429.5 428.8 428.4 428.3 428.6 427.9 425.1 421 419.2 411.6 405.9 403.1 399.8 396.6 395.8 399.2 402.7 405.9 410.8 416.1 423.3 430.4 437.5 442.8 445.9 444.8 441.3 437.4 432.8 427.9 423.2 418.5 415.1 412.5 419.7 430.2 434.8 417 399 397.6 398.9 399.3 399.9 404.7 411.2 420.3 427.3 435.7 443.9 446.9 447.8 447.7 443.4 441.5 445.6 450.3 454.9 456.9 458.7 462.8 467.2 470.2 468 459.7 457.4 458 459.3 460.1 458.2 453 446 437.1 426 409.7 401.8 394.8 389.4 387.8 384.6 380.8 377 374.4 372.1 367.8 365 359.3 348 338.7 335 334.3 339.4 343.8 345.1 354.1 359.7 363.4 368.5 374.5 384.9 394.6 405.9 419.9 433.7 443.7 451.7 458.2 463.4 468.1 473.5 478.8 480.8 478.6 473.3 461.8 458.4 455.5 453 450.8 448.4 444.5 437.6 431.5 429 428.5 422 412.8 405.3 401.2 399.7 398.6 398.1 399.8 398.2 393.3 386.8 380.2 375.8 376.8 382 387 390.6 392.2 392 390.2
382.1 372.2 373.8 364.1 374.4 379.8 383.3 384.4 388.8 396.7 406 412.9 420.2 427.8 434.2 440.9 440 437.5 434.2 426.9 419 412.9 406.8 402.5 404.8 406.6 408.2 410.2 411.2 412.3 414.6 421.3 425.5 429.3 434.6 437.6 441.2 444.1 447.8 452.3 452.7 452.6 453.7 454.6 456.3 458.7 461.8 456.6 450.6 445.6 442.1 437.8 433.4 429.7 427.5 427 426.6 426.2 425.7 425.4 425.5 424.6 421 416.7 413.2 407.5 404.2 401.5 399 396.2 395.5 398 401.2 404.4 407.6 412.7 418.4 425.6 432.9 439 440.6 439.8 436.1 432.3 427.7 422.7 418.5 414.7 412.5 415.9 427 435.6 425.1 406.6 395.8 395.7 395.9 397.2 399.6 403.9 409.2 416 423 435.1 434.5 431.2 431.9 433 434.6 438.7 443.6 448.6 453.6 455.6 459.5 464 466.5 467.9 465 459.5 457.8 457.8 459.7 460 454.4 450.9 445.8 433.7 417.5 399.3 389.2 384.1 378.7 374.1 371 369.1 365.6 362.8 358.6 355.1 349.6 348.1 344.1 344.6 339.7 331.7 335.8 342.1 346.9 352.6 358.3 363.5 375.2 389.2 400.6 411.6 424 432.8 438.3 443.5 451.9 458.7 465.3 471.3 477 478.9 478 474.8 463.7 460.1 458.4 456.4 454.1 451.4 447.6 442.6 433.1 429.3 424.2 419.4 410.8 408.4 409.5 411.8 413.8 414.6 415.2 415.7 414.7 411 402.4 392.2 382.8 375.1 372.7 379.2 382.2 382.9 383.8 382.3
373.1 364.4 368.1 359.8 365.5 369.6 372.4 378.9 387.8 397.6 401.9 407.1 417.5 430.7 441.3 443.2 437.9 435.3 431.6 420.7 413.5 407 402.4 397 398.6 401.6 402.8 402.7 403.3 406 412.8 417.5 422.1 429 434.2 438.4 442.1 446 450 452.2 453.3 453.9 454.7 455.8 456.7 457.8 457.5 453.9 450 446.1 442.6 439.9 435.7 430.6 427.6 425.7 424.7 423.7 422.9 422 421.5 419.6 416.5 412.7 408.8 405.2 402.5 399.8 397.4 395 395.1 397 400.1 403.3 406.3 409.8 414.8 420.7 427.1 432.7 434.7 433.7 429.8 425.3 420.6 417 413.6 412.4 413.7 421 435 436.5 422.5 401.4 394.4 393.7 393.4 396.1 399.3 401.9 406.2 412.3 422 425.4 423.2 422.3 424.1 427.9 432 437.8 443.1 448.1 451.6 457 461.5 461.4 463.5 465.2 464.5 458.1 456.8 457.5 458.2 456.2 453.5 449 434.7 418.9 403.1 389.3 384 377.7 375.9 376.8 375.1 371.8 368.7 366.1 366.6 369.5 367 360.8 358 352.3 344.6 332.1 333 337.1 343 349.3 355.5 367 382.6 396.1 408.6 420.5 430.6 438.6 441.3 445.4 452.7 460.2 467.3 472.4 474.9 475 473.3 466.2 461.5 460.2 459.1 457.2 455.8 452.8 447.7 438.3 433.4 429.2 423.3 419.4 420 422.7 426.1 428.3 430.5 430.9 430.8 430.5 429.4 424.1 417.3 411 399.2 386.6 379.8 370.2 371 370.4 371.1 372.5
365.7 362.5 357 353 357.1 361.5 363.3 372.2 379 382.6 387.9 396.1 410.4 432.2 435 435.5 434.4 436.1 426.1 415.2 409.1 402.9 398.7 394.2 393.3 396.1 397.2 398 399.6 404.1 408.6 413.4 419.9 426.2 433 438.4 442.2 446 449.1 451.5 453.3 454.5 455.4 456 456.4 456.8 454.9 453.4 450.9 447.1 444.6 442.7 439.8 435.4 431.6 426.7 424.3 423 420.5 418.8 417 414.9 411.8 408.9 406.2 403.9 401.5 399 396.6 394.9 394.7 396.1 399.3 402.1 404.7 407.7 412.6 417.1 420.6 425.6 427 426.1 422.1 418.3 415.6 413.1 412.1 411.9 418.4 430 439.6 432.5 418.1 399.2 395.4 391.4 392.9 394.6 396.1 397.2 400.4 405.6 410.9 410.4 413.6 416.6 420 425.8 431.3 437.4 442.8 447.2 451.5 457.7 457.9 458.9 463.3 465.3 463.9 456.5 456.4 457.9 458.2 457.8 453.6 437.8 423.2 410.4 394.4 387.7 381.1 381.4 383.5 382.2 381.8 384.4 385.5 382.2 385.5 385.9 380.7 372.2 367.8 358.6 345.9 338.5 332.9 330.3 338 343.7 352.3 368.4 386.1 401.1 413.9 425.7 433.8 437.1 439.2 444.4 452.6 460.5 469.6 471.6 470.5 469.1 464.5 461.9 461 460.4 459.8 459.3 458 453.6 447 438.5 436.1 434.9 435.3 436.1 437.4 439.2 439.9 440 440.6 440.7 440 438.9 436.3 431.8 427.5 422 413.1 405.5 395.9 384.4 369.6 357.2 359.9 361.3
358.3 354.2 349.6 341.5 349.3 352.3 358 364 368.6 373.4 378.5 386.9 403.3 412.8 418 422.8 428.8 427.6 418.5 409.7 406.8 400.2 395.2 390.9 389.6 391.9 392.7 394.5 398.9 402.3 405.7 410.4 415.8 423.7 431.3 437.1 441.9 444.8 447.7 450.9 452.9 454.4 455.3 455.7 456.1 455.9 454.3 452.9 451.3 449.1 447.6 447 446.4 444.8 438.8 430.8 427.3 423.8 420.9 415.4 412.9 411.6 409.2 407 404.5 402.2 400.4 398.2 396.1 394.3 394.4 395.2 397.8 400.4 403.1 406 409.8 413.2 416.4 419.9 420.3 419.1 414.9 413.1 411.1 409.9 410.4 416.7 424.6 437.7 436.9 425.4 411.6 402.9 401 391.2 390 391.3 392.5 393.3 395.2 397.9 400.6 403.6 406.9 409.9 416.6 423.1 428.7 434.6 440.8 446.6 451.9 453.9 453.6 457.6 460 459.6 455.1 455.5 456 459.1 461.4 459.8 443 427.9 420.1 405.8 392.8 387.9 385.8 385.7 387.2 390.5 395.4 398.8 399.2 398.5 397.5 394.5 389.1 383.9 376.5 362 348.9 343.9 339 331.6 330.1 336.6 348.4 366.5 386.1 402.3 415.8 425.5 430.3 433.1 440.1 447.5 455.3 462.6 466.7 467.9 466.4 463 460.2 460.9 461.2 460.6 462.6 463.3 461.1 455.8 450.4 446.7 445.1 447.9 450.1 450.8 450.8 449.2 448.2 446.1 445.7 444.8 443.4 441.1 438 434.4 430.6 426.4 421 415.9 407.7 399.2 388.1 376.1 365.1 354.5
347.3 345.2 340.5 337.2 343.6 344.4 349.8 354.5 359.1 363.5 369.5 380 391.6 398.4 404.9 416.9 414.5 411.1 406.6 404.1 402.2 396.4 391.6 386.6 385.4 387.9 390.2 394.3 398.5 401.8 405.3 409.2 414.1 422.5 428.9 435.1 439.4 444.1 447.5 450.6 452.9 454.4 454.9 455.2 455.7 454.9 453.5 452.1 450.7 450.7 449.8 449.6 449.3 447.8 444.7 436.7 429.6 426.3 422.3 415.5 412.1 410.1 407.7 405.4 403.3 401.3 400.6 399.9 398 394.4 393.4 393.9 395.9 398.6 401.4 404.1 406.5 409.5 412.7 415.2 415 412.4 409.9 408.4 407.2 406.9 413.4 419.6 431.6 440 432.9 419.5 409.6 405.5 399.1 394.5 389 388.8 388.4 389.5 391.1 393.7 395.7 397.8 400.4 404.8 410.6 416.8 422.5 430.3 436.9 443.8 448.9 446.3 448.5 451.8 452.9 451.6 452.9 455.1 457.3 459.4 460.1 447.9 432.7 420.4 405.5 396.3 393.1 391.2 389.5 389.7 393.8 400.2 405.4 408.2 408.9 408.7 405 400.2 395.2 387.9 376.6 360.1 356.3 348.8 340.3 333.1 331.5 329.2 340.4 359.6 380 397.2 410.2 418.8 425.8 432.6 439.5 446.8 453.8 458.6 460.8 461.5 460.2 456.4 459 459.7 460.6 463.4 465.9 467.5 464.5 460.4 458 455.9 455.5 458.4 461.2 461.6 459.8 457.5 454.9 451.9 450.4 448.8 445.2 442.1 439.3 435.5 431.5 427.5 423.5 418.2 411.9 405.2 397.2 389 378.8 368.9
