ncols 200
nrows 82
xllcorner 290000
yllcorner 350500
cellsize 50
389.5 395.7 401.2 406.8 412.6 421 430.3 430.5 433.3 437.6 446.3 449.8 450.6 452.2 453.6 451.6 452.5 452.4 453.9 457.2 461 465.4 465.7 464.9 470 478.6 483.7 486.9 489.6 490.1 486.7 483.9 479.9 471.4 456.9 452.8 451.3 450.1 450.1 446.1 441.8 438 434.9 432.2 430.8 430.5 430.9 430.4 429.3 428.7 430 432.6 434.4 433.7 430.5 425.5 420.5 413.8 408 401.7 393.5 382.8 374 370.6 368.8 362.9 362.9 362.9 362.9 362.9 362.9 362.9 362.9 362.9 362.9 362.9 369.3 376.7 382 382.1 381.7 380.2 379 376 373.9 369.2 370.3 371.9 369.7 367.3 370.1 377 380.4 384.2 390 399.2 409 414.5 418.5 423.2 428.4 430.6 431.4 434.8 435.3 435 436.2 436.8 439.6 440.8 442.3 442.8 443.5 443.9 444.8 445.4 446.3 445.3 443.4 441.9 441.4 439.2 438 435.7 433.1 430.2 427.3 424.7 421.8 417.9 408.9 400 393.6 388 381.8 376.8 376.8 376.8 376.8 376.8 376.8 376.8 376.8 376.8 376.8 376.8 376.8 376.8 376.8 376.8 376.8 376.8 376.8 376.8 376.8 376.8 376.8 376.8 376.8 376.8 380.7 383.2 388 391.8 395.4 397 398.6 400.9 406 411.1 415.9 420.8 426.9 434.9 443.6 452.9 462 471.3 477.2 483.5 485.6 486.2 484 482.7 481.7 479.8 477.3 470.4 465.4 464.5 461.5 456.6 451.3 447.6 445.7 442.9 437.9 434.6 432.8 429.4
387.2 392.7 398.4 403.1 410.6 420.3 425.5 425.5 429.6 435.8 439.4 443.2 445.9 447.5 447.8 447.2 446.5 448.3 449.3 451.4 455.3 458.7 460.7 460.4 468.9 476.1 482.4 486.2 488.5 488.7 484.6 480.2 474.7 466.6 460 460.8 458.5 455.5 451.6 446.5 440.6 436.6 434.2 432.7 432.2 432.9 432.7 432.2 430.2 431 432 432.9 432.4 430.6 428.7 427 421.8 415.6 409.9 403.8 397.8 392.2 380.8 374.2 369.7 367.2 362.9 362.9 362.9 362.9 362.9 362.9 362.9 362.9 362.9 362.9 366.2 372.3 379.8 378.7 377.9 375.4 373.1 370.6 367.8 364.6 364.8 366.6 365.1 366.1 372.7 381 384.8 387.4 392.2 401.2 407.7 413.9 419.8 425.4 429 430.5 434.6 435.9 435.1 436.1 435.7 435.9 438.8 441 441.7 442.2 443 443.7 444.7 445.6 446.7 445.7 444.3 442.6 441.6 440.4 439.8 438.5 436 432.6 429.9 427 422.6 416 404.2 398 391.4 386.3 379.1 376.8 376.8 376.8 376.8 376.8 376.8 376.8 376.8 376.8 376.8 376.8 376.8 376.8 376.8 376.8 376.8 376.8 376.8 376.8 376.8 376.8 376.8 376.8 376.8 376.8 378.8 380.4 383.7 388 391.3 393.2 397.2 400.9 406.1 411.2 416.3 421.4 427.8 435.5 445.5 455.6 465.6 475 479.7 483.4 487 485.2 482.8 479.4 476.4 474.1 471.7 465.4 462.5 457.6 454.5 448.3 442.7 439 437.4 435 431.5 428.7 425.9 423.6
387.5 392.5 397.9 403 410 417.7 419.2 419.6 425.5 431.8 436.1 437.3 437.9 438.7 439.7 441.2 443.6 445.2 447.1 448 448.3 449.1 453.5 456.4 462.6 471.7 479.6 483.9 486.2 484.8 482 478.7 473.8 469.8 466.6 467.4 466.7 461.6 454.5 446.7 439.8 436.7 435.1 434 434.2 434.3 434 433 432.4 432.5 431.8 431.1 429.9 426.4 425.2 425.1 422.3 417.2 412.2 406.8 402 395.7 387.8 380.4 374.4 368.8 366.3 362.9 362.9 362.9 362.9 362.9 362.9 362.9 362.9 362.9 362.9 372.1 375.5 375 373.1 370.4 367.5 365 362.9 362.9 362.9 362.9 362.9 365.9 375.4 383.3 386.1 390 396.7 404.1 411.4 416.5 421.9 428.2 428.9 428.6 431.9 432.6 430.6 431.8 432.3 434.9 439.1 440.4 440.4 441.3 442.4 443.8 445.1 446 447.1 445.8 444.4 443.3 442 440.8 440 439.1 436.8 434.2 431.7 429.7 422.7 411.7 402.7 396.6 390.8 383.1 376.8 376.8 376.8 376.8 376.8 376.8 376.8 376.8 376.8 376.8 376.8 376.8 376.8 376.8 376.8 376.8 376.8 376.8 376.8 376.8 376.8 376.8 376.8 376.8 376.8 376.8 376.8 379.3 381.7 384.5 387.7 392.6 396.8 401.7 406.5 411.9 417.3 422.8 429 436.5 444.9 454.8 465.2 474.6 480.3 480.6 482.8 482.4 478.6 475.4 472.1 469.7 466.4 462.2 457.6 453.3 446.8 440.9 436.2 431.8 429.4 427.8 426.1 423 420.7 418
386 390.3 394.8 402.1 409 414.3 413.8 415.3 421.4 428 429.9 432.4 432.3 432.5 434.4 436.2 437.2 439.5 442.7 443.4 440.3 444 448.5 456.2 459.9 468.4 476.4 481.2 483.3 483.2 481.4 478.8 477.3 476.9 474.2 474.7 472.9 466.9 457.3 448.8 440.2 437.6 436.8 435.9 435.4 435.4 434.8 433.9 432.9 432.3 430.6 428.9 426.2 423.2 420.7 419.1 417.5 415.8 412.3 408.8 404.6 399.6 393.3 385.2 377.2 370.9 366.1 362.9 362.9 362.9 362.9 362.9 362.9 362.9 362.9 362.9 362.9 370 370.6 370.5 367.9 366.2 364.3 362.9 362.9 362.9 362.9 362.9 364.4 372.9 380.3 384.7 387.9 392.4 399.2 407.6 415.1 420.7 426.2 429.1 427.3 426.4 427 428 428.5 429.4 428.7 429.5 432.6 436.4 439.3 440.7 441.9 443.6 445.7 446.5 447.2 446.1 445.1 444.4 443.4 441.9 440.6 439.8 436.6 435.4 432.5 427.7 417.3 411 402.3 395.4 388.6 381.8 376.8 376.8 376.8 376.8 376.8 376.8 376.8 376.8 376.8 376.8 376.8 376.8 376.8 376.8 376.8 376.8 376.8 376.8 376.8 376.8 376.8 376.8 376.8 376.8 376.8 376.8 376.8 376.8 380.3 385.6 389.7 393.7 397.6 401.4 406.9 413.4 419.4 423.6 430.3 437.5 444.9 454.1 463.5 468.5 473 476.9 476.7 474.2 471.9 469.9 467.9 464.6 459.6 455.7 451.3 446.6 439.5 435.4 432 426.4 423.9 421.9 419.6 417.2 414.8 412.1
383.8 388.7 394.2 401.1 408.6 409.9 409.9 411.7 417 421.4 425.2 425.6 425.5 424.9 427.6 430.8 432.7 433.4 434.9 434 436.9 440.9 444.5 449.6 457.4 468.9 478.5 483.6 483 484.2 483.9 480 480.3 482.4 482.9 484.6 482 470.4 461.4 447.6 443.3 441.6 440.9 440.1 440.5 438.8 437.4 436.5 434.9 432.8 429.7 427.2 423 419.9 417.2 414.9 412.9 411.5 410.4 408.3 406.3 400 394.1 386.5 379.5 372 365.5 362.9 362.9 362.9 362.9 362.9 362.9 362.9 362.9 362.9 362.9 363.6 366.1 366.4 363.8 362.9 362.9 362.9 362.9 362.9 362.9 363.7 368.7 378.6 383.6 387.2 389.7 393.6 400.8 409.8 417.6 422.9 425.9 426.8 425.2 423.7 423 424.4 426.6 426.4 424.4 425.5 430.3 434.6 438.6 440.6 440.5 441.5 442.7 445.8 445.9 445.6 445.8 445.4 444.9 443.2 441.2 439.3 437.3 436.1 432.9 425.4 414.4 408 401.2 393.5 387.6 379.2 376.8 376.8 376.8 376.8 376.8 376.8 376.8 376.8 376.8 376.8 376.8 376.8 376.8 376.8 376.8 376.8 376.8 376.8 376.8 376.8 376.8 376.8 376.8 376.8 376.8 376.8 376.8 378.4 383.3 387.7 390.6 396 400.6 405.1 409.7 413.9 420.1 424.3 431.2 438.5 445.5 451.9 457.5 462.9 465.7 467.1 466.9 464.6 462.6 460.9 459.9 456.8 452.2 447.4 442.2 437.4 434.4 430.8 426.3 422.2 418.8 415.6 413.2 411.2 408.5 406
382.3 388.2 393.7 400.8 406 406 406.5 408.1 412.9 416.4 417.7 418.8 418.3 420.4 422.4 423.9 425.5 427.6 428 431.2 435.4 438.9 443.2 448.4 456.4 464.1 475.4 479.3 481.9 482.7 483.3 484.1 485.2 488.4 487.5 487.4 484 476.5 462.6 453.3 451.8 447.1 447.2 447.5 446 443 442.4 439 437.6 434.4 429.3 425.5 421.4 417.2 414.6 412.1 409.4 407.7 406.2 405.2 402.7 397.3 391.3 386.4 379.6 374 363.3 362.9 362.9 362.9 362.9 362.9 362.9 362.9 362.9 362.9 362.9 362.9 362.9 362.9 362.9 362.9 362.9 362.9 362.9 362.9 362.9 362.9 375.3 382.7 386.6 389.6 392.7 395.2 401.8 410.6 416.4 419.6 423.2 422.7 421.6 420.3 420.4 420.4 420 420 419.3 422.3 427.9 431.7 435 438.2 437.7 437.7 439.5 444 444.3 443.6 445.9 448 448.6 447.4 443.2 441.5 439.7 436.8 429.9 424.5 416.6 405.1 399.2 393.1 385.2 381 378.3 376.8 376.8 376.8 376.8 376.8 376.8 376.8 376.8 376.8 376.8 376.8 376.8 376.8 376.8 376.8 376.8 376.8 376.8 376.8 376.8 376.8 376.8 376.8 376.8 376.8 379 381.6 385.4 390.2 393.9 398.7 404.1 409.1 413.6 417.8 421.4 425.6 429.4 434.7 441 447.6 452.7 457.1 458.6 459.6 457.5 455.5 454.4 453.7 452.3 447.7 444.2 440.1 436.5 433.7 429.6 426.2 422.4 418 415.5 411.9 408.6 406.7 403.8 401.1
384.4 388.6 392.6 400.2 402.5 402.3 403.2 404.9 410.6 411.7 411.8 411.5 411.8 415.2 416.2 416.8 418.8 421.7 423.4 428.2 434.3 438 442.8 449.7 456.6 467.6 476.6 479.6 483 482.9 484.9 490.2 495.8 498.1 493.8 488.7 485 477.2 465.6 458.9 457.9 456.6 457.1 454.6 449.9 448.9 446.4 440.5 437.9 429.9 428.4 423.9 419.6 415.1 411.7 409.1 406.8 405.7 402.6 400.7 398.1 392.8 388.3 383.3 377.7 370 368.3 369.1 369.6 366 362.9 362.9 362.9 362.9 362.9 362.9 362.9 362.9 362.9 362.9 362.9 362.9 362.9 362.9 362.9 362.9 371.4 373.5 382 386.1 389.7 393.2 396.6 398 402.6 409.1 413.4 416.9 417.7 417.1 415.7 414.3 414 413.9 414.2 415.2 417.1 419.6 424.7 428.8 431.6 433.8 435.2 435.5 434.2 437 438.4 439.4 441.4 443.6 445.6 444.7 442.8 440.9 439.1 435.9 429.6 423 414.7 405.4 397.4 391.3 382.8 373.3 368.4 368.5 371.5 376 378.4 380.3 381 379.1 376.8 376.8 376.8 376.8 376.8 376.8 376.8 376.8 376.8 376.8 376.8 376.8 376.8 376.8 376.8 376.8 376.8 379.2 382.5 385.2 388.8 393 396.8 401.2 406.8 412.2 417.2 420.3 423.4 425.9 429.8 434 438.7 443.5 448.9 452.1 453.2 453.9 452.4 449.1 448.4 447.4 445.1 441.7 438.3 435.4 431.9 428.3 425 421.7 418.7 415.5 412.1 409 404.8 402.1 399.2 396.4
386.9 388.1 391.1 395.1 398 398.8 400.4 402 405.5 406.5 405.7 404.4 408.1 409.6 409.9 410.4 413.8 417.6 422.4 426.5 431.7 440.1 444.4 450.6 463 475.4 479.9 481.6 483.7 486.2 492 499.4 504.1 504.6 500.3 496.8 489.1 479.4 470.3 465.6 465.7 465 463.5 458.8 455.4 453.5 446.2 444.7 437.8 430 428.1 422.2 418 413.2 408.6 405.6 403.9 402.1 399.5 397.2 392.2 389 385 378.3 374 374.5 377.2 376.3 374.7 371.7 364.6 362.9 362.9 362.9 362.9 362.9 362.9 362.9 362.9 362.9 362.9 362.9 362.9 362.9 362.9 369.3 377 381.1 382.5 387.7 392.4 395.6 397.3 398.3 397.3 405.8 411.4 413.7 412.5 411.5 410.4 407.8 406.4 407.8 409.2 411.4 414.3 418.2 422.9 425.8 428.2 430.5 431.2 430.8 430.9 431.2 432.2 433.1 434.6 437 439 440.4 440.4 438.9 436.5 431.2 426.5 420.5 414.3 404.9 396.2 388.8 379.4 371.3 367 365.1 364.7 362.1 357.9 359 361.6 366.3 367.5 370 374.9 378.2 381.2 377.9 376.8 376.8 376.8 376.8 376.8 376.8 376.8 376.8 376.8 376.8 380.1 382.6 385.9 388.6 392.2 396 399.9 403.9 408.8 414.5 419.2 421.9 424.2 427.1 429.9 434.6 438.8 442.1 445.2 449 448 448.3 446.9 444.1 443.7 441.8 439.9 437.7 434.8 432.2 428 423.9 421.3 418.8 416.1 412.8 409.1 405.5 403.4 399.8 396 394
389.9 390.5 388 389.9 393.1 395.9 398 399.8 402.6 402.4 401.1 402.9 404.6 404.5 404.4 405.4 410.5 415.6 420.8 426.1 434 443 450.5 456.9 473.6 483.4 485.8 485.4 484.5 492.9 498.4 505.4 510.9 510.8 508.9 505.9 493.5 482.6 475.1 476.3 474.3 470.7 466.2 461.7 460.1 454.4 450 445.4 436.2 432 427.3 421.5 416.4 410.7 405.6 403.2 400.9 399.9 397.2 394.1 388.4 386.1 380.7 381.3 382.5 383.5 384.1 383.3 380 377 373 362.9 362.9 362.9 362.9 362.9 362.9 362.9 362.9 362.9 362.9 362.9 362.9 362.9 362.9 368.8 373.6 378.4 385.6 391.2 395.3 397.8 397.7 397.6 397.9 398.2 403 407 406.8 405.9 404.2 403.6 403.6 404.2 405.1 407.5 411.4 417.2 420.9 423.3 424.8 426.3 426.9 427.3 428.3 427.8 427.6 426.4 426.9 429.2 431.4 433.9 434.6 434.4 431.5 428.6 424.7 418.4 411.3 402 395.9 386.9 377.1 370.8 366.8 363.6 362.6 358.5 352.8 350 348.5 349 350.6 352.2 354.2 359.7 379.8 381.7 382 380.5 379.4 376.8 376.8 376.8 376.8 376.8 376.8 380 383.2 386.3 389.4 393.7 396.8 400 403.2 407 411.1 416.6 419.4 422.5 424.7 426.6 428.5 433.4 437.5 441.2 442.1 442 441.6 441.6 440.7 441 440.5 439.8 437.8 434.6 432.1 428.7 424.2 419.7 417.2 414.3 412.2 409.1 406.3 403.3 401 398.8 396.2 393.7
392.1 392.2 386.7 387.4 390.2 391.7 394.9 396.3 398.6 396.7 397.7 400 400.7 401 401.6 405.1 409.8 415.1 421.7 429.9 441.9 448 455.3 463.9 482.8 489.3 490.4 488.1 486.4 496.5 501.2 508.5 514.5 518.5 520.2 511.1 499.1 487.9 486.3 483.1 480 475.3 467.6 463 462.1 455.7 450.7 439.4 436.9 432.4 426 420.7 413 406.5 402.5 400 398.3 397.3 394.8 392.1 388.9 384.9 385.6 386.4 388 389.6 390.9 388.1 384.7 381.4 374.2 369 367.1 362.9 362.9 362.9 362.9 362.9 362.9 362.9 362.9 362.9 362.9 362.9 364.8 370.5 378.2 388.8 394 397.1 397.3 394.9 394.4 394.5 392.9 395.6 399.2 399 400.3 401.1 400.3 399.1 400.2 401.1 401.2 404.2 408.8 413.9 419.4 421.9 423 423.1 424.7 425.6 425.7 424.6 425.3 422.5 424.1 421.6 423.9 426.3 429.2 429.1 425.3 424.9 421.7 416.4 406.9 399.8 393.1 383.6 375.7 369.9 365.6 362.5 360.2 354.7 348.4 343.5 341.9 341.1 341.1 341.3 343.5 359.9 381.3 390.8 381.7 360.8 366.6 372.2 379.1 380.2 376.8 376.8 380.1 383.3 386.4 390.4 392.9 397.8 401.2 404.5 407.5 411 413.1 417.4 420.1 423.5 424.7 425.8 426.2 428.4 432.7 438.4 439.5 438.7 437.3 436.5 438.3 437.4 437 436.7 433.8 430.4 426.6 421.6 417.8 412.6 411.7 410.5 409.3 406.6 405.4 402.2 399.4 397.2 395 393.4
393.6 391.7 385.8 383.9 385 387.8 392.3 393.3 392.2 391.6 395.4 396.8 397.7 397.9 401.1 404.5 409.9 415.6 425.9 437.8 445.8 452.9 460 468.3 487.1 494.8 493.7 491.1 489.6 495 500.5 506.6 514.7 524 527.9 515.1 502.3 493.5 492.2 487.3 483.2 477.9 461.8 459 453.9 451.4 440.7 436.3 436.3 430.7 425.1 416 408.6 403.4 399.7 397.4 396 395 392 390.3 387 388 390.1 391.5 393.2 394.1 395.5 393.5 389.5 384.8 376.9 370.8 368.5 367.1 362.9 362.9 362.9 362.9 362.9 362.9 364.6 364.6 362.9 362.9 362.9 368.2 379.7 385.8 387.9 389.4 389.7 390.2 390.7 390.1 391.9 393.9 394.6 395 395.1 395.8 395.7 396.1 396 396.6 399.2 402.5 408.7 413.2 418.7 421.1 422.2 421.1 422.4 423.4 423.8 422.1 421.5 421.6 421.7 419.3 419.4 422.4 425.2 425.5 424.2 422.3 419.5 414.4 407 397.4 389.4 380.7 373 367.9 362.6 357.4 354.1 353.8 350.5 339.2 336.8 336.9 337.8 339.4 342.6 354.9 373.9 377.3 372.4 349.3 348.5 351.9 359.3 366.1 370.8 378 382.9 385.8 387.8 391.8 395.5 401.1 404.1 407.1 410.2 412.9 415.2 419.1 422.3 424.8 425.4 425.4 426 425.7 429 434.6 436.3 435 432.5 433.7 434.1 433.2 430.5 427.5 425.2 423.3 419.7 415.1 410.6 409.9 409.3 408.1 406.7 405.6 403.8 401 397.9 395.6 393.4 392.3
392.8 389.6 383.8 382.3 383.4 386.8 389.3 389.1 389 390.7 392.4 392.7 394.1 396.6 400 405.6 410.9 417.2 431.4 443.5 451.1 459 466.9 472.3 490.4 497.5 495.6 494.5 492 492.7 496.3 503.8 512.8 522.7 529.8 522.4 507.3 498.6 491.3 485.7 482.4 471.8 464 458 452.1 444.6 439.7 434.9 431.7 426.8 416.1 412.6 405.7 400.9 397.3 395.6 393.6 392.7 391.6 388.7 391 392.8 394.4 396.2 397.2 398.2 399 399.4 396 391.4 380.6 373.7 370.9 368 365.8 362.9 362.9 362.9 365 368 371.7 370.7 366.6 362.9 362.9 362.9 367.5 378.4 381.7 385.5 387.8 389.2 388.4 389.9 391 391.8 391.3 390.5 390.3 391.5 391.9 391.3 390.4 392.7 396.8 400.7 407.9 413.4 417.8 420.1 419.2 420.2 420.1 420.7 421 421.4 419.8 419.5 420.3 419.8 418.2 419.3 419.4 420.4 419.8 420.3 418.7 411.8 407.7 395.3 385.7 377.8 370.4 366.1 360.3 353.8 347.3 346.4 347.5 344.8 339.9 334.7 335 336.9 341.5 350.6 356.9 359.3 353.6 338.5 338.6 350.1 358.1 361.8 369.4 376.4 384.2 387.1 391.1 394.3 399.8 403.1 406.1 409 411.6 414.5 418.1 421.8 424.6 426.2 425.9 425.6 425.5 425.1 425.1 429.1 430.7 429.7 428.3 428 427.7 426.6 422.1 420.7 419.2 416.3 413.1 408.9 407.8 407.1 406.5 405.7 405 404.3 402 399.2 396.5 394 391.9 389.9
391.3 388.1 381.3 381.6 381.8 385.5 386.5 386.2 387.6 388.9 388.2 389 390.6 395.5 399.2 407.9 409.9 421.6 437.9 446 454.6 463.6 473.5 475.6 487.8 497.8 494.2 495.9 492.6 492.2 492.9 498.5 509 517.5 525 524.6 515.2 502.6 495.2 486.6 479.9 474 465.9 459.9 453.4 446.2 440 436.2 427.5 416.9 412.9 408 403.3 400.1 397.1 394.5 392.6 390.8 389.8 390.7 394.5 397.1 398.9 400.1 401.1 401.9 402.3 402.7 402.3 397.7 389.1 379.3 373.7 371.2 367.7 367.9 367.5 367.1 368.5 373.5 378.5 377.4 372.4 368 365.3 362.9 362.9 370.3 378.5 380.6 382 383.8 384 386.6 388.5 387.5 386.7 386.1 385.8 386.7 386.1 385.7 386.5 391.4 395.5 400 406.8 412.7 416.9 418.8 419 419 417.3 417.5 417.8 418.4 420.2 420.7 419.7 418.6 418.5 417.9 417.8 415.9 414.6 415.3 412.8 407.5 403.1 394.4 386.1 377.2 368.2 362 353.6 345.3 339.4 338.5 342.2 342.5 341.1 337.1 332.8 335.5 341.2 349.6 351.1 347.3 342.8 330.9 340.6 358.8 361.9 365.2 370.6 376.1 382.7 387.1 390.7 396.9 401.9 404.8 407.6 410.2 412.8 414.6 418 423.8 427 426.7 425.9 424.9 424.1 424.5 424 425.5 425.1 425 425.2 424.3 422.4 419.2 417.3 414.3 411.7 409.2 408.3 406.2 405.3 404.3 404 404.2 403.5 402.6 400.5 397.7 395 392.3 390 386.3
389.3 381.8 378.8 379.2 381.1 384.4 384.4 383.9 385.3 385.3 383.9 385.3 390.8 394 400.7 406.7 409.1 425.5 440.8 446 458.1 467.5 475.8 479.1 481.7 498.4 492.7 488.5 487.4 489.9 490.4 492.4 500.4 509.8 519 517.2 511.8 507.1 499.6 489.5 481.2 475.3 468.4 463.1 458.7 451 446.7 434.4 425.5 416.7 413.1 408.4 404 400.5 397.9 395.1 393.5 391.2 391.8 393.3 396.4 399.9 402.6 403.8 404.9 405.6 406 406.4 406.8 404.1 398.6 392.6 384.5 378.9 374.5 372.1 371.8 369.4 372.2 376.6 382.4 380.5 376.5 373.1 369.4 362.9 362.9 362.9 362.9 368.1 374.9 376.6 379.3 380.1 383 382.9 381 380.8 380.7 380.8 380.4 379.7 385.1 389.6 393.6 399.6 405.3 410.4 415 417.8 419.3 417.4 415.7 414.2 414.2 414.2 415.4 419.4 419.5 417.4 416 416.9 415.5 414.9 412.7 411.2 410.5 407.1 401.8 394.7 385.9 376.1 365.4 358.6 349.8 345.2 339.7 335.9 336.6 337.6 336.8 335.2 329.6 333.3 341.5 345.9 343.1 340.7 336.2 326.4 344.7 355.6 360.3 364.9 370.2 376.6 382.7 387.7 392.8 398.3 403.1 406.8 409.4 412.1 412.1 413.1 416.5 421.8 423.8 423.2 422.1 421.2 422.8 423.5 422.5 421.6 421.4 422.8 424 421.5 419.5 416.7 414.8 412.7 410 408.2 406.1 404.1 402.7 401.4 402.5 402.5 401.7 400.9 398.6 396.2 393.3 390.6 387.5 384.1
386.4 377.8 375.9 377.3 380.4 382 382.1 382.4 382.6 381.9 381.1 384.7 389.4 394.1 404.1 406.8 411.9 427.1 438.5 446 458.3 466.7 474.1 475.9 478.5 492.5 486.4 476.3 477.9 482.3 485.2 488.8 493 500.6 509.8 512.4 508.7 504.6 495.7 488.5 483 482.4 475.1 465.8 458.6 456.3 445.6 436.2 425.8 417.2 414.1 409.8 405.2 401.5 398.9 395.7 393.8 392.6 393.9 395.1 398.4 401.9 406.3 407.6 408.5 409.2 409.8 410.1 410.5 409.9 403.3 395.7 388.4 382.2 377.3 374.3 372.9 369.9 373 374.9 378.2 375.7 371 368.6 365.9 362.9 362.9 362.9 362.9 362.9 362.9 364.1 373.9 375.2 376.3 377.2 376.8 374.8 374.7 376.7 374.8 379 383.8 388.3 393.3 397.5 403 407.8 413.4 415.6 416.4 414.7 413.9 412.8 412.6 412.3 413.1 414.6 415.2 413.7 414.2 415 415.4 416.1 414.2 411.3 406.2 401.3 397.3 391.1 383.5 375.4 366 361.3 357.5 353.2 347.1 343.2 337.5 331.6 332.6 331.6 327 332 339.8 340.4 337 330.5 322.4 344.9 353.5 358.6 362.7 365.4 370.5 376 381.9 386.2 393.1 399.9 406 410.4 411.9 412.4 411.2 411.8 414.5 419.3 419.3 419 417.8 419.2 420.1 421.5 421.1 420.5 418.2 418.2 418.4 418.3 415.9 414.3 411.8 410.4 407.7 406.2 404.1 402 400.7 400.2 400.5 400.1 399.2 397.2 395.4 393.1 391.4 387.9 384.8 381.7
381.7 374.6 373.8 376.3 378.5 379.6 380.3 380.4 379.5 378.5 380.4 382.8 389.1 397.9 405.4 408.4 415.4 427.3 438.8 448.2 456.5 465.1 467.1 469.3 472.4 480.7 477.4 469 469.7 475.4 480.3 482.3 484.5 490.5 499.2 505.7 501.2 495.6 490.8 486.4 490.1 487.3 478.5 469.4 465.3 456.4 447.5 438.8 430.5 422.3 415.2 411.6 407 402.8 399.2 396.6 394.2 395.1 395.6 396.8 399.3 404.2 407.4 411 411.7 412.8 413.4 413.9 413 410.6 405.7 398.6 391 383.4 377.8 374.3 371.1 369 370 372.9 372.6 369.1 366.4 362.9 362.9 362.9 362.9 362.9 362.9 362.9 362.9 362.9 362.9 362.9 364.2 370.1 370.9 368 369 371.3 372.6 376.5 381.2 387.8 392.4 396.3 401.4 407.1 410.5 411.6 413.6 414.4 413.2 412 410.4 410.5 410.6 409.9 411.4 412.1 413 414.6 416.1 415.7 415.3 413.3 411.3 405.6 398.6 389.8 382.3 375.6 369.3 366.7 365.9 363.6 357.3 350 343.2 334.1 329.4 328 325.4 329.6 334.4 334 331.3 321.2 327.7 341.8 355.3 359.4 363.4 365.3 370.2 375.7 381.4 387.1 394.2 401.2 408.3 412.6 414.1 414.9 413.5 415.5 417.1 419 418 417.3 416.4 416.7 418.5 419.2 419.6 418.1 416.8 415.9 415.8 414.6 413.9 412.4 410.5 408.4 406 404.7 402.4 400 398.4 398.7 398.7 397.4 395 393.1 391 389.6 388.5 385.2 381.7 378.8
377.1 372.6 372.8 376 376.6 377.3 378 377.4 376.7 376.1 378.7 382.1 392.1 403.2 406.2 408.6 415.3 429.8 437.6 449.5 458.5 461.1 460.3 461 464.2 468.2 467.1 462.8 462.2 467.6 474.1 476.5 475.3 479.7 487.9 494.1 491 488.8 484.2 483 488.6 487.5 481.1 474.7 467.3 459.7 450.9 441.1 433.5 425.2 416.9 413.6 410.7 406.9 402.2 398.7 395.8 396.6 398.3 399 401.4 404.6 406.7 410.2 411.5 416.1 417.3 416.2 413.6 410.6 406.3 399.8 392.9 385.9 378.6 372.8 369.1 365.1 365.8 367 366 362.9 362.9 362.9 362.9 362.9 362.9 362.9 362.9 362.9 362.9 362.9 362.9 362.9 362.9 363 362.9 362.9 362.9 368.3 370.4 372.9 379.5 388.1 392.3 395.6 402 407.3 411.3 414.3 418 417.7 413.6 414.9 413.3 409 407.3 407.3 408.8 409.9 411.4 415.3 416.2 416.5 415.6 413.5 410.1 404 398.6 391 384.9 378.9 373 372.3 371.9 368.4 361.9 355.1 345.2 339.5 329.1 325.7 323.5 326.2 328.8 327.2 324.9 323.4 331.6 340.2 358.5 360.2 362.6 366.1 371.7 377.6 382.9 388.4 395.4 402.3 409.5 414.4 415.9 416.5 417.2 417.3 419 419.7 419.8 417.7 417.4 416.8 416.3 414.9 412.8 413.1 413.9 414.6 415.2 413.6 412.7 411.3 409.2 406.6 404.1 401.5 400.1 397.8 395.4 395.3 395.6 394.4 391.6 389.3 388.2 386.8 385.3 382.7 379.1 377
371.3 369.9 372.4 374.3 373.8 373.2 375.1 374.5 373.6 374.6 378.2 383.8 395.9 402.2 406.2 409.8 421.7 431.7 438.5 446.8 456.6 456.6 455 454.2 454.1 454.9 457.8 456 455 460.8 466.3 470.6 471.1 471.8 476.6 480 484.1 484.4 480.3 482.6 486.9 487.2 482.7 477.4 471 463.1 453 442.8 433.8 426.9 420 417.7 415 410.5 406.1 401.5 400 399.9 403.2 403.7 403.8 405.4 406.5 409.1 411.3 413.3 418 416.3 413.7 410.4 405.8 400.9 393.7 386.5 379.7 372.4 366.4 362.9 362.9 362.9 362.9 362.9 362.9 362.9 362.9 362.9 362.9 362.9 362.9 362.9 362.9 362.9 362.9 362.9 362.9 362.9 362.9 362.9 362.9 362.9 362.9 373 380.8 391.8 396.4 401.5 406.3 408.9 414.7 418.6 420.8 418.8 413.3 414.1 413.8 408.7 406.2 404.8 406.7 408.1 411.5 416.1 416.7 416.2 415.5 413.9 409.2 403.7 396.9 391.1 385.3 380.4 378.7 377.6 374.8 370.1 363.4 356.8 346.7 340.2 332.3 327.5 323.1 323.5 324.7 324.1 321.6 324.2 333.1 343.2 355.7 359.9 364.4 368.7 374.7 380.7 384.5 389.3 396.2 403.4 410.2 414.7 416.3 417.7 418.4 419 420.3 420.5 420.9 421.1 419.4 415.5 413.5 412.7 410.7 410.6 409.1 411 412.4 412.5 410.3 407.8 406.4 403.8 401.7 399.4 397.6 394.9 392.4 390.9 390.7 390.4 388.6 386.9 385.6 384.1 382 380.2 376.9 376.9
368.2 366 370.6 371.4 369 369.8 370.4 371.7 371.3 374.4 378.5 386.8 394.4 400.2 404.5 415.2 426.5 432.4 440.1 445.7 452.1 452.4 452.8 448.3 445.1 447.3 447.8 446.3 448.8 452.1 458.6 464.1 464.3 463.8 465.6 470.6 475.7 478.7 477.6 478.9 484.4 486.2 485.7 479.8 473.6 467.3 454.1 443.4 437.2 430.7 426.2 420.9 416.8 413.1 408.9 406.3 405.1 407 408.8 407.7 407.1 408.1 409 409.4 410.7 411.8 415.8 416 414 409.6 405.3 400.5 394.7 387.2 380.6 373.4 366.8 364.4 362.9 362.9 362.9 362.9 362.9 362.9 362.9 362.9 362.9 362.9 362.9 362.9 362.9 362.9 362.9 362.9 362.9 362.9 362.9 362.9 362.9 362.9 362.9 369.3 379.9 393.6 398.2 405.2 410.6 416.1 418.7 420.7 420.6 419.8 414.7 410.7 408.6 406.3 404.1 402.2 403.6 406.8 409.3 413.3 417.1 416.8 416.4 414.3 410.1 405.4 398.7 391.7 386.6 384.5 382.2 379.4 374.9 369.4 362.9 354.8 346.3 340.3 336.2 329.3 325.2 322.5 322.1 321.4 318.8 325.2 331.9 340.9 351.9 357.9 363.4 369.1 376.9 381.7 385.9 389.1 395.3 401.8 410.9 414.5 416.8 418 419.8 420.4 420.6 420.5 421.4 419.3 415.9 414.1 410.7 409.6 409.1 408.3 406.7 405.5 406.3 406.5 404.3 404.1 402.3 400.1 398.4 396.5 394.4 391.3 390 387.9 385.8 385.5 384.8 383.4 381.9 380.8 379.7 377.7 376.5 377.1
363.8 363.7 368.1 367 365.2 365.8 367 368.9 369.5 374.6 379 388.4 393.2 400 403.2 418.3 427.5 433.6 438.3 441.2 444.7 447.8 447.9 443.1 439.3 438 437.1 439.9 443.2 445.8 449.5 455.2 456.5 454.8 451.9 461 467.9 473.8 473.9 475.4 480.4 486.2 486.9 483.2 470.4 465.1 456 446.3 440.1 436.5 432.4 425.6 419.8 415.2 412.3 411.2 410.9 412.6 412.9 410.9 412.5 413.7 412.8 411.1 410.7 411.2 412.6 414 413.4 409.5 404.9 400 395.2 388.5 381.2 377.8 372.4 367 363.7 362.9 362.9 362.9 362.9 362.9 362.9 362.9 362.9 362.9 362.9 362.9 362.9 362.9 362.9 362.9 362.9 362.9 362.9 362.9 362.9 362.9 362.9 362.9 376.3 394.9 402.2 408.9 414.4 418.3 421.2 421.9 424 422.9 417.2 409.1 405.1 402.2 400.6 399.2 401.7 405.1 407.2 410.5 413.7 416.7 416 414.8 410 404.6 398.4 392.1 388.8 387.4 384.2 378.5 372.7 367 360.3 353.6 345.9 339.8 336.6 331.1 329 327.1 319.5 319.2 320 322.9 330.3 339.7 349.9 355 360.4 365.1 372.2 377.2 382.1 386.7 392.2 400.6 409.7 415 417.6 418.9 420.8 421.8 421.7 420 420.6 416.9 411.6 409.6 408 407.3 406.5 405.2 403 403.2 401.9 400.8 400.8 400.6 399.8 398.2 395.4 392.5 389.8 387.6 386.4 382.9 380.5 381.3 380.7 379.8 380.6 379.4 378.1 376.1 376.6 377.5
357.3 355.7 362.9 362.8 362.3 362.6 364.1 365.6 369 373.7 380.5 387.3 395.2 399.1 403 416.8 427.8 433.5 436.1 438 440.8 441.4 440.7 436.3 432.5 432 431.6 433.5 434.6 438.4 439.1 442.1 445.3 443.1 443.5 447.9 459.2 465.1 469.4 474.4 478.2 482.3 484.6 484.8 473.2 462.9 456.9 449.6 444.3 441.1 436.7 429.4 423.1 418.7 416.6 415.9 418.5 420.5 417 415.6 418.3 418 416.4 413.9 410.5 409.7 409.3 411.3 410.5 408.2 404.7 399.8 394.9 389.3 387.2 386.5 381.5 371.2 366.4 363 362.9 362.9 362.9 362.9 362.9 362.9 362.9 362.9 362.9 362.9 362.9 362.9 362.9 362.9 362.9 362.9 362.9 362.9 362.9 362.9 362.9 362.9 372.6 387.3 400.8 402.4 415.1 419.7 422.9 423.8 422.3 421.7 415.4 409.9 406.1 402.1 397.7 396.7 399 402.2 404.3 407.2 410.8 413.3 414.8 414 409.1 403.2 397.2 394.3 392 387.7 382.1 375.9 369.8 364.5 356.4 350.9 344.5 339.6 336.5 332.8 330.7 324.7 318.6 316.8 318.8 318.9 324.9 338.3 349.6 355.4 360.2 364 368.5 374.6 379.1 382.9 388.9 396.8 404.6 411.9 416.7 416.9 415.3 413 416.5 414.7 414.8 412.3 407.3 405 404.4 404.2 403.5 402.9 402.6 402.6 402 401.1 398.5 398.7 397.7 394.2 392 388.7 385.9 384.2 382.7 380.5 378.9 377.9 376.8 378 378.3 377.6 376.7 375.9 376.7 378.7
348.3 353.2 357.3 358.9 360.5 360.7 361.7 365 369.8 374.3 382.8 387 393.9 397.7 404.7 414.5 423.1 430.7 433 434.1 436 436.5 434.7 431.3 426.2 424.3 424.3 424.4 426.1 429.5 431.4 432.2 432.5 434.9 438.9 442.4 448.9 452.7 462.8 468.6 476.9 480.3 481.6 478.5 472.8 464.9 458.7 455.1 451.7 445.3 439 433.6 426.9 423 420.7 421.5 425 425.5 420.2 423.3 422.4 422.6 419.5 414.9 410.3 409.1 409.1 408.2 407.7 405.9 404.4 400.5 395.1 393.9 394.1 393.3 389 379 372.5 366.5 363.1 362.9 362.9 362.9 362.9 362.9 362.9 362.9 362.9 362.9 362.9 362.9 362.9 362.9 362.9 362.9 362.9 362.9 362.9 362.9 362.9 362.9 362.9 383.1 390.8 397.5 409.7 418.9 424 423.7 421.5 419.5 415.9 412.7 406.2 401 397.9 394.1 394.7 397.8 400.2 403.2 407.5 410.9 413.8 412.2 405.6 401 397.9 395.9 391.1 386.6 379.6 373.7 366.8 359.7 354.6 350.7 344.8 339 336.3 334.4 331.3 328.2 317 318.6 317 316.6 320.7 335.3 348.2 356 359.9 363.9 367.9 372.4 377.2 381 384.8 392.6 399.9 407.4 406.6 408.9 408.4 406.1 404.1 406.1 406.1 403.7 403.2 402.9 402.6 403.3 403.3 403.1 402.6 403.1 402.8 400.9 399.4 398.5 396 392 387.3 384.6 384.2 381.7 379.1 377.7 375.7 375.4 374.8 374.6 376.2 375.4 375.5 377.1 377.7 380.2
344.4 346.9 352.4 355.7 355.8 354.7 361.3 365.5 370.5 377.7 383 387 391.8 396.6 406.3 410.8 418.6 425.4 429.3 426.5 430.6 431.3 429.3 425.3 422 419.2 416.7 414.1 417.7 422.1 425.8 427.2 427.1 428 433.4 436.1 440.2 447.7 451.3 456.7 467.2 475.4 479.5 479.2 473.9 466.3 461.8 458.3 454.4 448.8 441.9 435.5 430.7 427.9 425.7 427.1 428.9 428.7 429.1 432 431.6 429.1 425.2 419.2 413.2 410.3 409.4 407.6 407 405.7 403.3 400.2 398.7 399.1 399.3 397.9 392.8 386.2 376.8 371.9 368.3 366.1 365.4 363.6 362.9 362.9 362.9 362.9 362.9 362.9 362.9 362.9 362.9 362.9 362.9 362.9 362.9 362.9 362.9 362.9 362.9 362.9 362.9 374.8 388.2 394.8 402.6 413.7 421.3 422.5 421.2 419.1 415.7 409.3 404.8 402.6 398.5 392.6 391.8 392.9 396.2 402.3 405.9 409.8 411.9 409.6 405.6 404.3 400.4 396.2 389.8 384.1 377.4 370.5 364.9 358.2 353.5 348.1 343.8 339.8 336.6 334.1 334 334.9 321.9 323.8 316.7 315.6 316.3 333.3 348.3 355.1 359.8 363.7 367.8 371.7 375.2 379.4 384.9 392 399.3 406.4 407 406.7 405.5 403.9 402.4 401.9 401.1 399.3 398.2 399.2 399.5 400.1 403.8 404 403.9 403.3 402.1 402.2 400.1 397.2 393.9 389.8 385.4 381.1 380.8 380.1 379.1 376.6 374.9 374.5 373.2 373.4 374.5 375 378.2 379.5 379.7 387.4
341.6 342.2 344 347.8 348.8 353.4 362.5 366.4 371.5 378.6 382.2 386.3 390.5 397.6 404.2 407 411.8 417 418.1 417.3 420.3 421.4 421.2 418.5 414.7 412 405.6 404.4 409 413.9 418 420.4 421.3 422.3 427 430.3 433.7 437.9 443.3 450.3 460.3 464.6 472.1 477.4 474.7 466 461.8 458.4 455.8 451.4 446.5 439.8 435.2 432.6 431.1 432 433.5 434.4 436.8 438.9 438.8 435.3 430.3 424 418.4 416.1 415.7 412.9 410.6 407 404.6 401.7 401.8 403.9 404.3 403.4 398.1 391.9 384.7 378.6 373.1 370.4 370.2 366.8 365.1 362.9 362.9 362.9 362.9 362.9 362.9 362.9 362.9 362.9 362.9 362.9 362.9 362.9 362.9 362.9 362.9 362.9 362.9 363 383.2 391.7 399.5 408 415.3 417.8 418.2 414.7 411.3 407.3 403.3 400.3 392.7 388.5 387.2 388.3 395.7 403.4 407.9 409.8 408.7 407.4 408.1 407.1 403 397.3 388.8 381.6 374.5 370.1 364.1 358.9 353.9 348.7 345.5 343 340 335.6 337 339.3 337.8 332.3 315.4 314.7 315.2 324.8 345.4 354 357.7 362.1 367 370.2 374.8 378.3 384.6 391.4 398.6 405.2 405.7 405.1 404.2 403.4 402.8 398.9 397.3 392.7 391.7 392.4 392.8 394.1 399.1 401.6 401.4 398.9 397.1 397.7 391.6 389.1 387.4 384.8 381.5 378.5 377.5 376.5 375.5 374.6 373.5 372.8 371.9 373.1 374.7 378.1 381.5 383.4 384.7 390.6
338.8 338.8 344.9 352 355.2 359.3 362.8 367.3 372.2 377.6 381.6 385.8 390 394.7 401.4 403.6 405.9 408.3 411.2 412.4 414.4 415.5 412.8 410.3 406.8 402 399.3 399.5 402.7 407.5 410.7 410.9 413.5 415.5 419.3 424.7 428 431.8 435.4 442.2 454 460.2 464.8 467.9 466.7 465.6 464.7 462.4 458.5 455.1 452.4 445.2 439.5 437.7 437.4 438.3 437.4 441 443.4 445.6 444.5 441.2 436.3 431.1 427.6 425.6 422.3 418 414.3 410.2 407.8 404.3 404.2 406.7 408 408.7 404 399.3 392.6 387.3 383.6 378.2 376.1 373.6 368.6 366.6 364.2 362.9 362.9 365 366.2 368.3 364.5 362.9 362.9 362.9 362.9 362.9 362.9 362.9 362.9 362.9 362.9 362.9 374.8 385.3 393.2 403.1 408.9 411.6 412.3 411.2 408.1 404.7 401 395.3 389.8 384.7 381.5 383.3 391.7 403 411.2 413 411.8 408.9 409.1 407.3 403.7 396.9 388.3 380.2 373.8 369.1 363.7 359.3 354.6 350.6 346.6 343.3 339.9 337.6 339.4 342 340.3 337.2 315 312 314.9 317.6 330.5 342.7 353.5 361 365.4 368.5 374 379.1 385 391.8 397.5 402.2 403.3 403.3 402.3 401.3 400 396.3 392.1 386.5 385.2 386.5 387.1 387.4 390.6 395.8 393.2 392.1 390 387.5 386.6 385 383.5 381.8 378.1 376.2 374.8 373.6 372.4 371.6 371.4 371.4 371.4 373.1 375.4 379.1 384.2 387.8 389.1 394.7
339.3 339.9 346.7 351.4 355.4 359.2 363.3 368 372.6 376.2 381 384.9 389.3 394 398.2 401.7 403.8 406.1 408.3 409.6 412 409.9 408.3 404.6 399.5 396.8 394.8 393.3 396.3 401.8 403.9 401.8 403.9 409.4 412.3 413.6 416.2 426.8 430.7 434.3 440 450.8 457 462.6 466.6 466.1 467.1 464.9 464 459.9 454.3 449.7 445.8 441.9 443.8 444.6 443.2 447.2 450.2 451.5 449.4 446.1 441.9 436.3 433 430.6 427.9 422.6 415.8 412.9 407.9 406.2 406 408.3 410.4 411.7 411.4 405.4 400 395.7 390.5 386 381.3 379.7 373.6 372.1 372.9 364.6 365.6 369.6 372.6 375.1 369.8 364.2 362.9 362.9 362.9 362.9 362.9 362.9 362.9 362.9 362.9 362.9 366.4 381.2 386.3 395.4 403 407.4 407.3 406.6 404.3 401 397.5 392.3 387.3 380.7 377 379 386.7 397.9 408.5 415.9 417.2 415.8 412.1 408.1 404.1 397.1 389 382 375.6 369 364.1 359.9 355.8 351.6 346.8 342.4 339.6 338.6 340.9 342.9 342.4 339.2 329.1 311.6 312.7 316.6 323.8 337.2 351.2 360.5 363.3 367 372.6 378.4 384.3 391.3 395.2 397 398.5 400 399 396.9 393.8 392.3 389.6 384.7 381.5 381.1 381.6 382.2 382.1 383.3 384.1 385.6 385.7 387.2 386.6 382.6 379.3 378.1 375.3 372.9 371.6 370.5 369.8 370.3 370.4 370.4 370.3 372.2 375.3 380.8 386.4 389.3 394.2 397.9
334.5 339.4 345.5 350.6 354.3 358.9 363.8 367.9 371.7 376 381.3 384.5 389.4 393.8 398.3 402.2 405.2 406.6 407.3 406.5 407.9 404.9 403.9 399.1 393.6 391 390.5 387.5 392.2 396.3 394.4 396.1 395.6 401.3 404 406.7 410 416.8 422.8 429 437.7 442 453.2 458.2 463.7 466.7 465.4 468.7 468.8 465.6 462.6 457.6 450 445.6 448.2 449.1 450.2 454.6 454.8 456.7 454.5 450.5 446.1 441.6 437.4 434.5 429.7 423.9 418.2 413.7 409.6 406.5 406.5 408.4 409.3 410.2 410.7 409.6 404.6 401.9 398.4 394.1 389 385.5 380.7 379 376.4 370.8 369.3 374.5 380.9 380.1 375.3 369.3 362.9 362.9 362.9 362.9 362.9 362.9 362.9 362.9 362.9 362.9 362.9 375.1 381.2 389.4 397.1 404.7 403.2 401.1 398.7 395.1 392.5 388.1 383.5 376.5 373.6 374.5 382.5 394 403.1 411.8 418.4 420 416.6 410.1 403.3 395.9 388.9 385.1 378.7 373.4 368.7 363.2 358 351.9 347 344.2 340.4 339.2 340.2 342.8 342.3 339 334.6 314.9 312.1 313.1 320.9 335 349.3 356 361.1 366.1 371.2 376.6 383.5 387.6 392.4 394.3 394.7 395.2 394.2 392.5 392.1 389.8 387.4 380.2 377.2 379.2 379.8 380.3 384.1 387.2 385.1 385.1 381.7 380.6 379.3 376 375.5 373.4 370 368 367 368.3 368.7 369.2 369.2 368.3 369.1 372.8 376.3 381.8 388.3 392.6 396.5 400.9
336.9 339.6 344.8 349.4 354.6 358.5 363.2 367.8 373.1 376.5 380.5 384.4 389.7 394.6 399.6 402.9 405.4 406.4 405 402.6 401 399.7 398.2 393.4 388 385.6 385.7 382.7 385.2 387.7 387.1 387.2 386.8 392.7 398.5 402 405.1 411.5 416.2 423.6 434.3 440.8 446.1 459.4 463.5 464.9 465.3 467.9 470.9 473.2 470.4 461.2 453.2 451 451.1 450.8 453.8 457.8 459.4 459.5 457.4 453.2 448.1 445.7 441.4 438.1 432.4 425.4 418.9 415.3 409.9 406.3 406.1 408 408.9 408.5 408.4 407.9 406.8 406.6 405.5 402 399.7 394.1 391.1 385.4 380.3 373.7 372.1 379.6 385.8 387.6 383 378.8 369.9 365.2 362.9 362.9 362.9 362.9 362.9 362.9 362.9 362.9 362.9 372.4 377.2 382.7 389.6 394.4 395.7 395.6 393.7 391 388 385.4 377.9 372.4 371.3 372.4 379.5 389.9 399.1 407.5 413 417.3 414.3 406.8 400.6 392 388.3 385.3 379.6 373.2 369.5 365.2 359.9 353.6 347.6 343.8 340.8 339.1 339.1 340.1 339.8 336.2 331.9 325.4 310.1 310.7 322.8 339.4 345 353.7 359.4 364.6 369.8 375.6 380.6 386.6 390.8 392.8 393.5 394.4 397 395.5 391.2 384.7 381.5 373.6 372.8 375.7 379.5 384.5 388.8 388.4 382.4 381.3 378.2 375.5 374.1 372.5 372 368.8 365.6 365.3 365.1 365.9 367.3 367.4 366.3 366.8 370.4 374.4 376.5 382.9 389.4 395.7 400.1 403.4
335 339.3 343.7 349.1 353.9 359.1 363.8 369 374.1 376.8 380.5 384.6 389.5 395.4 400.5 405.2 405.9 405.6 403.6 400 397.9 396.1 393.1 388.2 384 381.9 379.4 377.9 377.9 378.6 381.5 380.2 379.6 383.4 390.4 399 403.7 409.4 415.1 423.2 431.3 439 445.4 453.8 463 464.5 463.5 471.4 470.7 472.9 470.2 464.1 455.5 452.8 452.5 454.5 457.2 459.6 458.9 459 457.2 453.1 450.7 448.4 442.5 439 433.9 427 421.4 417.2 409.8 406.7 405.2 407.5 407.4 406.6 406 406.2 407 409.6 409.2 409.5 405.6 401 397 389.1 380.6 371.3 377.7 382.5 389.1 393 389.7 385 381.3 371.8 363.9 362.9 362.9 362.9 362.9 362.9 362.9 362.9 362.9 367.5 373.9 376 381.8 384.9 387.8 387.5 386.8 386.3 382.8 378.1 373.7 368.2 367.8 370.2 377 384.6 396 404 408.1 410.8 408.5 402.9 397 390.9 386.8 385.1 382.9 374.9 368.8 366.3 360 355.7 350.9 343.4 340.1 339 337.3 336.8 334.9 330.8 326 319 309.7 308.5 318.5 335.4 342 349.5 355.3 362.7 368.8 373.8 379.4 385.4 389.1 391.7 391.8 395 398.4 392.8 391 388.9 378.6 371.9 370.3 369.8 373.8 379.8 380.8 383.3 381.4 374 373 371.8 371.5 370 366.3 362.6 361.2 362.2 362.8 363.4 364 364.5 365 367.8 372 375.4 379.6 384.3 391.2 398.8 403.5 405.7
334.4 338 343.7 349.1 353.3 359.5 364.1 370.7 375.2 378.7 381.8 385.3 389.4 394.9 400.5 406.1 406.3 404.7 400.1 396.8 396.4 393.9 388.1 383.6 381 377.6 375.2 373.9 373.2 372.1 372.4 373.6 377.6 378.4 385.8 396.4 403.5 408.3 415.7 424.3 432.3 439.7 446.3 452.2 457.2 461.8 463.4 469.8 473.4 474.5 474.1 467.4 459.2 453.9 453.5 456.1 460.6 459.6 457.7 454.3 454.6 454.4 450.9 444.4 441.4 435.6 431.7 426.2 421.1 416.3 413.2 411.3 405.1 405.6 404.9 403.7 403.4 403.4 403.6 407.7 411.6 416.5 413.9 408.2 400.2 393.5 380.9 372.8 376.4 383.6 390.2 395.6 395.9 391.4 382.9 375.8 367.6 362.9 362.9 362.9 362.9 362.9 362.9 362.9 362.9 362.9 368.9 370.1 375.5 375.5 377.6 377.8 378.2 378.9 376.6 373 366.6 363 361.5 367.9 371.9 381.9 387.9 397.7 404.6 406.2 404 399.2 395.1 393.3 387.3 383.7 379.3 374.2 371.5 367.1 361.4 356.8 352.8 347 340.5 338.6 337.7 333.2 330.5 324.1 319.5 306.1 309.6 310 324.5 332.3 341.2 349.4 354.9 359.2 366.7 371.2 378.7 384.5 387.1 388.6 389.9 390.8 394.7 394.2 391.9 381.1 375.5 372.5 367.3 366.9 368.6 370.4 373.4 375.1 374.7 374.4 370.7 370 368.5 365.7 361.8 358.3 358.6 359.6 360.6 361.1 362.2 362.6 363.4 366.1 371.7 375.9 380.4 385.4 393.2 400.6 406.9 410.2
333.9 338.4 343 348.3 353.2 358.4 364.9 371.3 375.3 379.7 383.4 386.1 390.5 393.9 399 404.1 406 401.8 397.3 394.3 394.3 390.9 384.8 381.3 377.7 374.6 372.8 371.5 370.1 368.7 368.6 369.7 371.9 379.7 384.8 391.8 400.6 408.9 419.9 426.9 433.3 442 450.6 457.2 456.7 458.7 462 461.8 466 473.2 473.1 470.1 455.9 454.7 454.7 457.7 464.8 461.2 457 452.9 452.3 454.7 449.6 438.9 432.4 430.8 426.9 422.6 419.2 418.4 417.1 414.5 409 403.2 402.4 401.7 401.1 401.2 402 403.8 407.5 410.6 409.9 409.3 401.8 394.9 383.8 374.7 376.2 383.3 386.9 392.1 395.4 391.1 384.8 377.7 373 367.3 363.6 362.9 362.9 362.9 362.9 362.9 362.9 362.9 362.9 364.9 366.8 367 370.7 373.5 374.6 375 372.2 367.9 362.2 358.9 357.5 362.1 370.2 376.3 383.9 388.6 398.4 400.9 400.8 397.8 394.4 392.7 389.9 385.6 380.8 377.6 374.1 368.4 361.2 357.5 353.9 349.4 342.4 338.5 335.1 329.4 324.3 319.8 314.1 308.3 314.4 319.5 323.4 331.8 343.3 349.3 354.3 357.4 360 365.5 372.9 381.6 383.5 384.9 385.2 385.9 389.5 394.2 382.6 378.8 375.1 370.1 364.9 365.1 366.3 368.5 371.5 377.6 378.1 375.9 371.4 368.8 366.3 363.2 357.7 352.9 352.9 355.7 357.7 359.1 359.9 361.1 362.1 365 370.4 377 382.2 388.2 395.1 402.3 409.3 414.1
334 338.5 343.8 349 354 358.9 365.1 370.6 375.5 379.4 383.6 387.7 392.5 392.3 396.6 399.5 401.2 397.2 394 391.2 390.7 385.6 382 378.7 374.9 372.8 370.9 368.7 367.2 365.9 366.3 366.4 370 377.6 385.6 391.2 399.7 412.5 422.1 430.1 435.5 441.8 451.8 459.5 462.5 457.2 455.9 454.7 458.3 460.8 463.1 458.1 455.9 456.1 455.5 457.5 465.6 463.9 457.8 456.2 451.7 450.6 449.2 441.8 435.4 430.2 426.4 423.9 422.6 421.4 419.2 415.6 411.2 406.7 402.6 400.7 400 399.6 399.4 400.3 403 404.2 404 404.7 401.6 395.7 388.1 379.1 375 380.4 384.9 389.8 390.7 389.1 384.9 381.2 379 375.4 372.1 363.9 362.9 362.9 362.9 362.9 362.9 362.9 362.9 362.9 362.9 363 364.4 368.5 371 370 366.4 361 358.5 353.9 353.7 359.9 366.7 373.5 380.1 388.3 393.6 395.4 396.6 396.7 393.4 391 388.3 384.9 382.8 379.7 375.3 368.9 362.4 357.7 354.1 350.1 344 339.5 335.8 329.9 321.4 316.5 308.9 307.1 311.5 317.2 321.6 337.1 346.8 350.3 353.2 356.4 358.6 362 363 371.5 379 379 379.5 381.6 384.5 385.3 379.4 378.9 375.3 365.9 363.8 363.7 364.5 367.5 370.7 374.4 375.2 373.9 372.1 365.8 362.6 360.2 354.9 349.8 348.1 350.6 354.3 356 356.9 358.7 359.9 363.4 368.8 374.1 383.4 389.1 396.7 404.1 411.2 418.2
334.7 339.5 344.5 350.3 354.9 359.7 363.9 369.6 374.4 377.4 382.8 387.1 391.5 392 392.5 394.3 394.7 392.6 390.6 387.5 385.3 382.4 378.8 375.3 372.5 371.8 370.2 367.8 365 363.6 364.2 363.2 367.4 374.6 384 390.8 401.2 415.2 423.1 431.2 435.2 442.9 450.7 458.2 460.5 456.3 450.6 451.3 455.5 458.2 458 456.7 456.5 457.2 456.8 459.5 466.8 463.6 457.7 458 452.7 452.9 453.1 447 439 431 428.2 427 425.8 423.8 420.5 416.7 411.7 408.4 403.6 402.5 400.8 400.6 397.3 397.7 399.1 399.9 399.9 398.9 397.6 393.8 389.6 384.5 375.5 378 382.7 386.7 390.6 388.3 385.3 384.9 384.3 382.2 377.7 372.2 362.9 362.9 362.9 362.9 362.9 362.9 362.9 362.9 362.9 362.9 362.9 362.9 363.9 362.5 360 356.1 353.6 349.4 350.6 358.3 363.3 370.8 377.9 383.8 387.2 390.1 392.8 392.8 390.9 389.1 386.6 383.9 381.3 379.1 374.5 371.4 366.4 359.3 355 352.1 345.6 338.3 334.6 328.6 320.3 316.1 306 303.8 311.1 314.1 324.1 340 346.8 350.4 352.8 357.8 361.6 362.4 363.1 362.8 368.7 370.4 371.1 374.7 377.6 377.2 376.9 376.5 370.6 364.8 362.8 363.1 364.9 365.9 367.5 371.7 372 372.1 368 362.4 359 356.1 353.1 348.4 344.8 347 350.4 351.8 354.3 355.1 356.5 360.9 366.3 372.1 378.9 389.5 398.2 405.1 412.5 419
335.4 339.1 343.1 351.1 356.1 360.2 363.1 366.6 370.6 375.3 379.3 385.1 389 389 390.1 390 389.3 388.4 385.5 383.6 381.7 378.6 375.8 372.5 372.3 371.2 370.5 367 362.8 360.5 361.4 361.5 366.6 372.5 382.2 392.2 402.7 413.2 423.8 429.4 436.8 445.6 450.4 453.9 453.7 450.4 447.1 450.1 452.8 455.7 457.7 458.9 459.2 460.3 464.1 459.8 461 462.1 456.3 455 455.6 456.9 459.1 451.9 443.8 436.7 432.3 429.6 428.3 425.7 422.8 418.3 413.3 408.4 406.6 406.4 405.9 404.3 398 397.1 395.7 396.7 397.1 395.5 393.4 390.9 387.6 383.8 379.4 377.4 380.2 384.6 387.9 388.8 387.9 388.2 388.1 384.9 380.1 373.4 367 362.9 362.9 362.9 362.9 362.9 362.9 362.9 362.9 362.9 362.9 339 341.4 358.3 357.5 353.2 349.9 340.8 350.5 356.9 360.7 366.8 374.4 381.5 384.1 386.3 388 389.5 388.2 386.1 385.1 383.5 380.5 377.7 374.2 370.7 367.2 363.4 357.4 349.5 345.2 339.3 333.3 325.3 318.3 314.1 304.9 304.1 308.7 312.4 325.6 341.5 346.2 348.9 356.1 360.1 362 362.8 362.5 361.9 362.1 363.6 365.9 368.3 373.2 376.9 374.6 374.5 367.9 364.4 362 361.4 364 365.4 366.6 367.3 372 367.7 364.5 361.4 356.4 352.5 349.7 346.7 344.1 343.7 345.6 347.3 350.1 351.7 353.7 358.3 364.1 370 376.6 388.3 397.4 401.4 407 413.4
335.2 338.6 344.4 350.5 357 359.9 362.8 365.5 368.5 372 375.2 382.8 386.2 387.7 389.5 386.3 384.8 384.4 382.7 380.4 377.2 375.8 372.2 371 372.2 372.3 370.2 364.9 360.4 357.9 357.2 360.5 366.3 372.9 381.5 394.7 402.3 411.3 421.7 428.4 433.1 443.7 448.3 450.9 449.7 446.6 442.1 445.1 449.9 451.4 452.5 452.2 456.4 461.7 464.8 457.3 456.9 454.9 456.6 461 460.4 459.5 459.4 454 447.5 441.7 438.2 434.5 430.3 427 425.1 420.6 416.3 411.5 410.8 411.2 409.9 406.7 401.9 397.8 396.5 395.1 393 391.4 389.9 388.1 385 382.4 379.1 377.2 379.9 382.9 386.2 386.5 389 387.3 384.7 382 378 374.1 369.1 364.7 362.9 362.9 362.9 362.9 362.9 362.9 362.9 362.9 362.9 361.9 346 335.6 343.3 342.3 341.1 338.4 350.7 351 358.2 365.6 369.1 377.2 380.8 383.1 384.1 384.3 384.3 383.5 381.9 381.2 378.2 375.1 372.4 369.8 366.2 364.5 359.6 349.4 344.6 339.5 333.8 322.4 313.8 309.8 303.4 303.1 308 311 318.5 335.1 343.4 346.9 356.3 359.8 362.2 362.3 362.5 364.6 364.2 363.7 362.3 359.5 366.5 374.6 371.3 370.8 369.4 365.5 361.2 359.6 362.4 366.1 366.7 365.9 365 365.1 360.2 358.7 353.6 347.4 345.6 345.3 344.2 342.6 342.8 343.6 346.1 348.2 350.8 355.6 361.8 367.7 375.7 387.8 396.2 399.7 403.8 409.3
334.6 339.7 346.1 350.9 354.6 359.7 362.6 365.8 367.9 369.1 371.4 377.8 382.6 384.8 385.6 383.8 382.3 380.7 379.8 374.6 371.9 369.6 367.2 369.2 371.5 371.1 366.9 360.7 357 355.3 355.7 360.7 366.8 372.1 383.6 396.3 403.7 410.5 417.5 426.4 430.7 437.5 441.5 443.2 443.3 440.2 435.7 437.6 443.6 448.3 450 451.2 452.3 457.3 460.8 455.3 453.5 456.6 463.1 465.6 464.6 462.9 460.2 456.2 451.5 447.9 444.2 440.4 434.5 430.2 426.2 422.2 418.9 416.3 415.7 415 412.8 409 404.6 400.5 399.3 398.1 396.2 392.5 389.8 386.2 381.9 380.5 379.1 377.6 378.2 381.1 383.6 383.6 384 382.3 378.9 375.1 372.3 373.8 370 364.4 362.9 362.9 362.9 362.9 362.9 362.9 362.9 362.9 362.9 363.2 357.5 344.8 333.3 335.4 335.5 335.8 349 351.2 355.4 359.7 365.9 372.4 379.3 379.6 381.2 380.8 378.1 379.5 378.9 378.2 375.8 374.2 371.3 368.4 365.7 361.2 359.5 353.6 347.1 340 331.5 319.6 309.3 304.3 302.6 302.8 302.9 309.3 313.6 321.4 340.8 345.2 350.6 357.5 359.5 362.4 366 367.4 366.8 367.1 365.7 359 356.5 361.6 370.2 370.7 368.8 365.6 361.1 357.4 359.2 361.3 363.7 366.7 364.7 362.5 358.3 354.6 349.2 343.4 342.6 342.7 342.7 341.9 342.1 342.4 343.6 344.5 348 353.9 360.1 366.6 375 390.4 394.9 398.5 401.4 407.9
332.3 338.8 345.2 350.2 354.2 356.6 359.4 362.6 363.8 366.3 371.3 375.5 377.4 381.9 380.9 380.8 379.5 375.9 371.5 368.6 365.9 363.1 363.4 365.7 367.8 365.7 362.4 358.1 353.9 350.9 354.9 358.3 365.7 372 385.5 393.4 402.9 409.4 411.4 418.3 424.7 432.6 435.2 438 438.5 435 430 432.7 433.5 435.9 443.3 448.3 450.2 450.1 452.1 452.7 454 456.1 462.5 465.5 467.6 467.3 465.8 461.4 458.2 455.7 451.8 448.1 443.6 437.7 430.8 426.8 423.8 424.2 420.8 417.1 414.1 409.9 405.4 405.4 403.1 401 399.1 395.2 391.3 387.5 384.4 381.6 380.3 379 379 380.1 380.8 381.5 381.6 379.4 375.4 374.2 372.7 368.1 368.5 365.8 362.9 362.9 362.9 362.9 362.9 362.9 362.9 362.9 362.9 364.4 362.7 358 346.6 334.9 332.4 335.9 342.7 347.9 350.2 353.4 361.6 369.8 376.7 377.2 376.2 375.1 372.1 372.8 374.8 373.8 372.9 372.7 371.2 368.1 364.6 361.2 356.4 351.1 345.6 342 332.3 322 310 304.5 302.2 301.5 301.9 307.5 309.4 312.2 326.1 339.6 346 353.6 357.8 360.5 366.5 368.9 368.4 369.4 369.3 363.1 357.6 354.5 352.6 357.1 361.1 360.4 357.9 356.7 354.1 353.7 355.6 356.5 360.8 353.3 352.9 347.3 346.3 341.3 340.5 340.8 341.1 340.8 340.8 341.8 343.6 345.2 346.8 352.3 360.9 367.2 377.2 389.2 394 397.8 401.6 409.5
329.5 336.5 343.1 349.7 352.3 355.4 357.1 360.1 362.9 365.9 368.9 372.2 376 376.3 376 377.4 375.4 375.3 369.3 361.4 360.9 359.7 359.9 360.6 361 359.7 357.3 353.5 351.2 346.9 353.7 357.7 364.6 373.8 385.7 390.6 402.4 405.4 408.8 411.7 419.2 423.7 424.7 427.1 425.6 423.8 424.6 424.6 426.6 432.1 436.2 440.5 444.6 445.9 447.3 453.5 451.9 456.2 461.8 466.9 468.1 470.5 468.3 466.3 466.4 465.5 460.2 455.9 449.1 443.5 439.3 436.2 433.6 429.9 424.6 421.1 414.7 410.7 411.2 410.7 407.8 406.1 403.1 398.8 394 389.4 385 383.2 380.6 378.7 378.9 379.6 379.2 379.6 380.4 378.9 376.9 376.1 374.5 370 369.2 369.2 366.2 364.8 365.3 365.4 362.9 362.9 362.9 364.8 367.2 366.6 368.2 364.6 351.5 343.7 335.5 331.7 337.7 342.8 347.1 349.9 356.1 363.7 369.4 373.5 373.7 372.3 371.1 371.1 371.1 371.8 370.9 369 366.8 365.3 362.9 358.6 354.8 348.9 342.2 334 327.7 319.7 309 304 301.6 301.2 301 300.1 302.4 303.5 306.2 319.1 332.1 344.1 352.8 356.6 359.9 365.2 367.1 368.7 368.9 365.1 359.4 354.9 352.1 350.7 350.1 349.9 357.5 354.7 352.5 348.8 348.6 348.9 347.7 344.3 343.3 343.8 343.5 341.7 340.2 340.2 340.1 340.2 340.4 342.5 344.2 346.1 347.8 353.9 365.9 369.8 377.6 385.4 391.6 396.1 399.8 408.9
328.7 336.2 344.3 348.4 351.3 354.7 357.2 361 364.5 367.5 370.3 371 374.7 376.2 372.4 367.1 367.2 362.8 358.3 358.5 357.7 357 356.3 356.5 356.4 354.2 350.9 349.4 348.8 343.1 351.7 356.2 365.8 377.3 386 389.7 398 401.2 404.9 410.5 418.1 419.9 420.9 420 420 417.6 419.1 419.1 422 426.4 429.7 432.4 436.6 442.7 444.5 454 451.3 453.5 459.1 462.8 466.9 469.3 471.5 472.1 473.9 469.3 465.9 458.8 455.2 448.3 445.1 443.9 440 435.5 429.6 423.1 419.4 417.5 416.2 415.4 412.1 408.9 405.4 400.2 394.2 389.2 388.3 383.7 382.1 381.2 379.5 378.5 377.2 377.3 377.6 376.3 375.7 376.2 374.8 371.9 371 371.1 369.5 369.9 368.9 368.6 365.4 366 369.9 373.8 375.8 375.7 373.6 368.9 361.1 346.9 340.7 330.9 330.5 340.6 344.8 346.2 352.1 353.5 362.9 365.5 367.8 373.3 371.1 371.1 370.1 369.1 366.8 364.2 362.8 362 359.4 356.1 351.2 344.6 337.4 329.5 322.7 316.2 307.9 304.2 301.7 301.4 300.9 299.9 299.5 298.9 298.7 298.1 306.1 327.3 345.1 351.2 353.1 357.8 362.7 364.7 365.4 363.3 359.4 355.4 351.6 350.1 349.2 348 348.1 351.9 349.5 346.6 344 343.3 342.3 342.2 341.3 341.8 343.1 342.2 340 340 340.2 340.3 340.4 342.5 345 346.8 350.7 359.1 366 372.4 378.4 386.2 390.6 393.6 397.3 401.1
329.7 337 344.5 348.6 352.9 355 358.8 362.6 366.1 370.6 372 371.5 371.9 371.9 368.8 362.1 359.1 357.2 356.6 355.9 355.4 355.7 355.7 355.4 355 353.1 348.1 342.4 340.8 347.7 349.9 354.7 364 379 384.2 389.6 396.2 397.4 399.7 406.5 412.9 412.2 411.9 413.9 413.6 411.2 412 414.5 418.6 422.5 423.5 425.8 428.3 436 443.1 446.9 450.4 451.1 453.1 459.1 463 469.5 475.1 473.8 475.5 472.3 468.9 464.1 459.3 453.8 450.5 449.1 445.6 441.1 434.5 429.7 424.8 423.4 420.9 417.9 414.8 411.3 407.8 400.9 394.3 389.1 386.9 384.1 383.1 382.9 381.7 380.1 376.2 375 374.4 374.5 374.4 374.3 373.8 373.8 373.1 372.5 371.7 370.8 370.9 370.3 369.3 371.6 375.8 381.2 382.9 383.6 379.8 371.3 363.2 352.5 345 340.8 329.2 329.7 342.5 344.3 346.7 350.4 356.8 361.7 362.8 369.9 372.7 372.3 369.2 366.8 364.6 361.7 360.1 357.6 354.6 349.1 343.7 338.4 333.6 326 320.7 314.8 306.6 302.5 301.8 301.4 300.6 300 299 298.6 297.9 298.1 296.7 298.1 323.7 340.8 347.3 350.2 357.3 361.6 362 360.5 358.3 354.7 352.9 349.6 348.3 347.1 346.6 345.5 345.2 344.9 343.7 342.7 341.7 340.9 339.8 339.5 339.6 339.2 340.1 340.1 340.3 340.4 341 342.2 344.1 348.2 355.2 364.8 371.6 376.9 381.2 384.5 389.4 392.4 393.6 396.5
330.7 339.4 344.6 349.5 353.2 356.6 361.2 364.4 368.1 372.2 373.1 373.1 370.7 367.8 364.8 359.5 356.6 354.5 354.7 355.3 354.1 354 356.5 359.9 360.6 354.5 347.2 340.4 339 340.8 343 350.4 359.1 377.6 385.7 391 393.3 394.8 396.2 398.7 405.1 404.5 407.7 408.7 404.6 404.3 408.6 411.8 416.5 417.3 416.9 422 425.4 430.8 439.8 444 446 444.6 448.5 452.5 458.6 464.1 473.4 475.4 472.3 470.9 473.8 467.6 461.9 457.5 456.8 454.3 451.2 446.4 442.1 437.1 432.2 428.1 423.7 420.2 416.7 413.9 408.7 401.8 394.8 388.3 385.8 385.6 384.4 384.2 383.8 380.3 376 372.9 373.4 374.4 374.2 374.3 374.1 375.1 374.6 374.4 374.7 371.2 370.9 370.4 373.2 373.8 377.7 383.9 389.2 390.3 381.1 373 365.8 355.2 348.7 344.4 335.1 330 329 332.6 345.7 350.2 352.7 354.7 359.5 362.7 362.3 362.8 363.1 361.9 360.1 359.7 356.8 353.1 348.5 342.6 337.2 334.3 328.3 324.5 319.1 311.2 305 302.3 302.2 302.8 309.8 309 310.7 308 304.9 296.9 297.1 295.9 295.3 315.9 336.5 346.8 352.4 355.3 357.2 357.9 356 354.9 353.2 348.7 347.4 346.1 345.4 344.7 344.6 344.4 343.7 342.9 342.2 339.7 339.4 337.7 336.8 338 341 341.1 341.1 341.4 342.7 345.6 349.9 354.5 370.6 373.2 378.1 382.3 387.1 390.4 393 393.9 393.5 393.1
331.4 338.4 344.2 349.6 351.9 358.5 363 364.8 367.9 372.1 373.2 373 370.3 366.1 361.5 354.9 352.7 352.2 354.6 353.3 351.8 354.7 359.6 363.8 364 358.6 348 340 337.1 338.7 341.3 347.2 355 375.4 386.2 389.5 390.8 391.3 391.2 393.5 399.9 403.5 405.8 402 400 400.8 403.6 407 410.9 412 412.8 417.6 423.5 429.9 435.6 443.9 443.4 441 440.6 443.5 449.6 461 464.3 471 470.7 473.5 470 470.9 465.3 462 460.3 459.9 457.6 454.1 449.6 444.6 439.3 431.1 424.9 419.8 418 414.8 409.5 402.7 394.7 387.1 386.5 386.4 385.8 386.8 384.6 381.7 377.4 373.1 373.3 373.5 373.3 373.4 374.1 372.3 372.7 373.1 372.3 370 367.1 367.3 371.4 375 381.4 386.8 391.1 388.4 379.9 374 366.9 358.3 351.9 347.7 343.5 339.8 333.2 325.9 338.1 349 349.6 350.4 355.8 359.1 358.3 357.2 356.6 356.2 354.4 351.2 348.5 345.9 341.1 334.8 330.2 326.7 319.5 316.3 310.9 304.9 304.1 303.8 309.2 313 315.1 316.1 317.5 318.2 311.6 307.1 296.6 295.4 294.9 294 313.2 334 344.9 349.3 353.8 354.3 351.3 352.9 352.7 347.9 346.6 345.3 344.3 344.4 344 343.6 344.3 343.5 343 338.6 336.4 335.6 338.2 342.1 343.6 343 341.8 344.1 348.4 352.8 359.6 362.4 368.3 378.8 386 389.6 394.1 396.9 398.9 399.3 395.7 393.2
331.3 337.9 343 347.9 352.1 359.2 362.7 364 365.8 372.6 373.3 372.2 368.7 363.7 359.3 352.1 349 349.1 350.7 349.5 351.2 355.7 361.1 366.4 365.9 359.4 349.4 340.3 336.4 338.2 338.8 349.9 356.4 367.4 379.8 387.5 388 387.8 387.8 391.2 396.6 400.5 398.5 395.9 395.8 397.1 399.2 402.8 405.9 407.5 409.5 413.9 420.8 430.5 433.1 441.9 443.6 438.5 439.9 440.8 442.8 449.6 459.9 460.7 464.4 465.6 467.9 468.9 466 464 464.9 466 463.4 462.5 458.3 451.1 445 433.9 423.7 420.3 417.3 412.1 407 400.7 393.5 388.1 389 389.2 389.6 387.8 384.5 382.1 378.3 372.9 372.8 372.3 372.1 371.4 373.7 370.7 369.8 369.7 368.9 366.4 365.5 368.1 370.8 375.3 381.1 385.1 386.7 383 379.9 373.5 368.2 360.9 354.6 351.6 350.1 349.1 342.5 329.2 326 336.9 346.3 346.8 350.3 350.9 353.3 352.1 348.6 348.4 347.5 344.9 339.7 333.6 329.2 325.3 319.4 313.8 311.7 309 306.6 307.3 305.6 304.9 313.4 315.8 318.1 321 324.4 326 319.8 313.6 310.4 307.4 304.3 295.9 293.7 309.8 335.8 341.9 347.5 348.8 349.5 349.5 349 346.8 346 345.5 345.4 345.6 345.4 345.5 345.9 345.1 343.4 338.6 333.2 334.2 339.8 343.3 345.4 343.8 343.5 345 352.1 359.7 366.1 369.6 377.6 388.4 395.8 399.4 400 401.6 402.9 401.5 397.2 395.4
329.2 336 341.2 344.3 349.4 357.1 361.2 363.2 363.4 370.5 372.2 369.4 365.2 361.5 355.5 347.9 346.2 345.9 346 347.6 350.4 354.5 361.5 368.1 365.7 359.3 350.5 340.4 335.8 336.8 337.7 349.2 357.9 365.1 375.6 382.4 385.5 385.4 385.9 388.1 389.9 389.7 390.8 391.3 390.6 393.4 394.4 397.5 401 404.3 406.6 409.6 414.5 427.1 432.9 440.2 437.2 432.5 441.2 442.3 443.6 442.1 444.1 454.6 455.3 461.3 465.3 465.2 467.2 468.7 469.1 472.1 470.9 469.5 470 459.6 448.4 436.8 427.6 420.9 414.9 409 399 394.4 391.5 391.9 392.8 395.2 393.1 388.9 386.1 382.2 378.5 373.2 371.4 371.1 371.1 370.1 371.1 369.3 367.7 368 366.6 363.1 364.4 368.6 370.4 373.6 377.4 381.3 381.3 378 376.1 372 367.9 364.9 362.6 360.1 359.3 358 351.6 341.7 325.2 325.1 338.8 344.2 344.8 342.5 347.4 344 341.9 341.4 339.4 333.2 327.9 324.5 318.7 314.5 311.2 310.2 309.1 308.6 308.8 307.6 305.9 309.8 316.9 319 324.2 327.8 333.3 334.8 327.1 319.4 315.2 311.8 306.9 301.9 297.5 292.8 310.7 334.3 340.4 340.4 343.3 344.8 345.2 345.1 346.1 346.7 347.2 347.9 348.2 348 347.1 346 341.5 335.4 324.8 335.3 339.8 343.6 346.7 344.4 345 349.2 357.1 365.8 370.5 379.5 389.4 396.6 401.8 403 403.6 406.4 406.1 399.3 392.6 390
325.5 333.1 337.9 341.5 344.7 352.3 355.6 358.2 358.1 363 365.9 361.9 359.8 357.8 350.9 345.9 345.5 345.2 345.3 345.7 347.9 352.5 358.8 364.7 363 357.4 349.5 339 335.9 335.8 336.9 344.1 356.7 366.7 376.4 380.4 383.1 383.4 384.9 386.7 386 386.7 387.9 389.2 388.2 389.5 390.4 392.9 397.1 400.6 403 404.3 408.8 416.2 422.8 428.4 432.1 425.5 435.4 438.5 438.5 438 434.9 434.8 446.7 451.7 455.7 460.3 465.7 469.5 473.1 476.3 477.6 475.4 475.3 464.5 450.6 441.7 433.2 424.6 415.4 407 399.9 398 397.8 397.5 399.1 399.7 396.4 390.8 387.8 383.5 379.6 375.2 372.8 371.7 371 369.7 369.1 367.5 366.1 365 362.6 361.3 364.1 370.2 371.6 370.2 372.9 376.9 375.7 374.2 374 370 368.3 365.8 365.1 365 364.1 362.6 361.8 355.9 339.8 329.9 323.7 326.4 332.7 335.5 336.4 337.3 335.1 333.9 326.6 318.4 314.8 316.7 316.2 311.5 310.3 310 309.9 308.7 307.6 306.1 309.7 316.9 320 323.9 328.7 335.1 340.2 344.5 340.7 328.2 320.3 317.3 310.8 307 300.3 295.1 293.5 311.1 330.3 335.9 336.4 339.1 341.6 343.4 346.3 347.4 347.9 349 349.6 349.5 348.5 346.3 341.9 332.7 320.6 325.2 341.1 344.1 346.7 346.5 347.8 353.3 359.4 368.6 374.8 384.6 392.7 399.6 401.5 403.3 403.1 401.1 399 394.9 388.9 386.6
321.1 328.5 333.2 337.2 342.4 347.9 350 354.5 353 353.2 355.1 353.4 350.6 349.4 346 343.9 344.2 343.6 343.7 344 345.4 349.1 354.1 359 360.5 356.5 350.1 339.1 335.3 335.6 336.8 338 351.2 364 377.1 381.2 381.8 382.9 385.4 385.4 384.3 384 385.3 385.2 384.5 385.9 385.9 389.8 393.1 396.9 397.3 400.2 407.6 410.2 414.1 421.7 424.7 422.5 424.9 425.1 427.8 426.8 423 422.8 426.9 439.7 445.3 451 458.2 464.8 469.1 473.3 479.1 474.8 476.8 464.9 452 447.3 439.2 428 417.3 409.4 406.2 404.1 401.9 402.7 402.3 399.9 396.6 393.8 390 387 381.5 378.1 374.5 373.3 372.3 370.7 368.1 365.1 364.1 362.5 361.2 361.3 363.8 369.3 372.1 370.4 370 370.6 372.4 372.1 370.4 369.2 366.4 364.5 363.3 362.5 363.1 363.6 361.8 356.2 346.9 339.5 329 322.7 325.8 325.4 327 328.5 328.2 317.4 317.2 321 324.5 323.4 325.3 322 318.3 316.9 312.5 307.6 309.9 310.2 316.2 320.8 324.4 328.9 333.1 340.9 347 354.6 347.9 342.6 328.9 322.3 318.3 312.9 304 298.2 294 292.8 308.2 319.6 331.2 332.8 335 337.9 346 347.6 348.4 349.3 349 348.5 344.4 343.2 336 324.3 309.2 325.7 340.6 346.4 348.4 348.5 349.9 354.4 359.5 370.8 378.1 386.5 392.8 397.8 400.5 400.3 399.6 397 393.4 390.1 387.5 384.8
316.2 323.1 329.5 335.1 340.3 343.6 347.9 350.3 349.6 346.6 346.3 346 345.9 345.2 343.3 343.4 343.3 342.9 342.2 342.4 343.2 347.2 349.9 354.4 357.3 357.8 352.7 341.7 336 334.6 336.7 337.1 353 362.9 374.9 378.2 379.3 383.9 385.3 384.3 382.9 382.7 383.6 380.7 379.8 381.6 383 385.1 387.9 390.4 390.4 395.6 402 407 411.1 416.8 421.2 418.2 418.7 418.2 414.7 415 414.8 416.1 420.1 424.8 436.6 442.4 450.5 457.7 461.8 469.6 477.5 472.1 474.3 464.7 453.4 446.8 437.4 429 420.5 414.2 411 410.6 408.5 406.9 404 400.9 397.6 394.2 391.1 387.7 384 380.8 378.3 376 371.1 369.5 366.3 363.9 362.3 361.3 360.1 360.8 364.3 368.1 369.6 368.9 368.2 369.5 369.9 368.6 367.6 365.2 363 362.7 361.5 359.8 359.8 359.6 357.5 352.6 344.2 338.6 332.5 327.8 326.6 323.8 320.4 319.9 318.9 319.6 326.6 330.5 332.4 333.1 332 330.5 325.1 323.3 319.3 317.5 315.7 313.7 317.6 321.3 328.2 334.5 339.1 348.4 357.7 364.6 357.4 352.2 340.7 330.3 324.4 318.2 307.8 302.7 295.7 293.2 292 296.8 309.7 316.8 320.9 323.9 331.2 338 342.3 347.3 346.9 342.8 340.1 333.2 327.7 313.6 315.2 328.8 337.5 344.4 347.8 350.7 351.2 355.3 362.6 373.4 380.3 387.7 394.2 397.2 395.5 395.1 396.4 394 391.1 389.8 386.2 383.6
310.4 319.5 326.7 334.5 340.1 344.1 346.2 346.6 345.5 344.7 343.8 343.9 344.2 343.2 343.2 342.9 342.5 341.8 341.2 340.7 341 344.2 346.7 351.3 355.4 359.1 355.9 350.6 337.4 334.1 336.3 336.1 346.1 358.9 373.9 377.4 378.6 382.4 384.4 382.6 381.9 382.7 378.6 376.4 376.5 378.1 379.4 381.1 383.6 386.7 386.6 392.7 400.1 406.1 414.7 417.3 415.6 415.4 418.8 414.9 410.5 407.7 408.6 409.9 415.4 419.6 422.7 432.7 441 449.9 454.9 464.3 470.7 467.7 471 457.5 450.5 444.6 436.3 430.8 425.3 422.8 420.3 415.1 412.3 408.8 406.2 402.5 398.8 395.6 392.1 387.3 384.2 382.3 379.6 375.8 372.7 369.1 365.8 363.2 361.4 358.5 358.4 360 363.2 364.8 365.2 365.6 366.3 367.1 368.2 366.2 364 359.7 357.6 357.9 356.9 355.4 355 353.7 351.3 347.6 341.3 336.2 331.9 326.2 326.5 322.3 329.6 332.7 328.1 336.9 338.6 340.6 343.5 344.4 339.9 337.4 330.4 329.1 322 319.2 318.9 320 320.8 323.4 331.4 338.9 346.1 350.8 362.2 371.1 364.7 359.9 354.2 342.6 331.2 326 319 310.9 303 294.4 291.8 291.4 291.7 291.3 294.9 299.4 305.5 313.4 319.2 324.1 328.1 334.7 335.7 330.1 320.6 305.6 319.1 327 335.6 344.1 348 351.2 353.7 356.6 362.2 372.1 379.5 385 387.8 389.8 390 390.3 392.4 391.5 389.1 389.1 385.1 381.5
306.8 313.4 324.7 331.9 339.6 343.2 343.5 343.6 342.8 343.6 343.7 343.3 343.6 344.8 344.6 343.7 342.9 343.2 341.3 339 339.2 341.1 343.6 347.8 353.6 359.1 357 351.5 338.8 334.2 336 334.8 340.2 357.1 372.1 376.6 377.1 378.5 380.2 379.7 382.2 376.4 375.1 373.3 374.1 375.2 376.6 379.3 383.6 383.1 382.9 385.6 402.8 403 409.2 415.1 410.8 413.2 415.6 411.7 407.3 402 401.7 404 410.9 413.7 417.1 421.3 432.6 437.9 447.1 457.5 464.2 463.2 467.4 455.4 450 443.7 440.6 435.7 433.7 432.7 428.3 419 414.3 412 408.7 405.5 401.2 399.3 395.2 390.3 387.6 384.7 380.5 376 371.6 368.1 363.7 360.7 359.4 356.8 356.6 358.4 360 359.5 359.9 361.4 361.8 362.4 361.8 360.1 357.5 353 356 361.1 358.8 355 352.4 349.3 346.2 341.5 338.7 336.6 332.1 325.8 323.9 324 332.2 335.9 339.6 343.9 347.3 348.9 354.6 354.2 348.9 341.7 336 334.3 327.1 325.8 324.7 327.1 328.9 330.5 334.6 340.9 348.7 355.5 366 372.1 371.2 368.5 361.8 356.4 346.6 336.7 330 322.5 313.5 306.8 296.1 291.3 290.3 290.6 290.1 289.5 288.1 288 286.7 292.8 296.1 313.8 323.3 322.1 313 308 316.5 324.1 335.7 344.3 349.5 352.6 356.2 359.4 363.1 368 373.3 376.7 381.6 383 383.1 383.9 386 387.9 386.7 385.1 382.9 380.6
305.5 310 322.7 330.9 336.1 342.8 343 341.7 341.4 341.7 342.2 343.4 344.7 347.1 347.4 346.5 344.6 343.9 342.4 340 338.8 336.5 340.4 344.7 350.8 355.1 355.6 351.7 343.2 334.3 334.1 336 339.5 353.9 367.3 375.9 375.6 376.5 379.3 375.8 374.9 373.2 371.6 370.3 372 373 374.5 379.5 384.1 381.4 380.9 381.4 389.4 397.7 403.9 407.9 403.7 409.5 411.9 408.3 404.6 399.4 396.1 395.9 399.5 406.7 414.1 417.5 421.4 429.9 438 448.8 457.6 459.6 460.4 455.3 448.9 445.9 442.2 439.7 440.7 440.7 434.6 426.7 418.6 415.3 412.1 408.8 404.3 404.1 400.6 395.5 389.8 385.2 381.1 376.3 371.6 367.7 362 358.5 356.4 354.1 354.8 355.5 354.9 354.3 355.6 357.6 358.9 358.2 355.3 353.4 350.4 347.5 348.7 353.4 357.4 354.2 349.8 344.9 342.2 341.1 339.8 336.8 331.1 325 323.5 330.9 333.8 338.4 343.9 348.3 352 356.2 362.8 360 354.5 349.5 342.6 337.9 333.7 334.4 337.1 338.7 339.1 332.7 339.2 343.4 349.6 356.9 364.8 369.8 372.1 373.7 370.5 364.7 358.4 351.8 340.2 333.8 329.2 322.7 315.4 306 295.7 289.3 289.4 288.4 287.2 286.1 286.4 286.8 285.8 288.6 306.8 308.3 304.1 300.9 308.7 319.7 334.2 341.8 350.4 353.5 356.2 360 363.9 366.5 367.9 369.9 374.3 374.1 375.4 378.5 381.8 384.6 382.9 380.6 378.3 377.4
304 309 320.7 329 334.9 339.7 341.1 341.5 340.8 340.9 340.9 343.9 346.8 348.9 348.7 348.5 346.9 344.9 342.2 341.5 339.6 336.1 337.3 340.7 344.8 349.1 352.4 350.3 346 334.7 336.7 338.7 343.4 350.9 363.7 371.9 374.9 376.3 376.2 374.1 372.5 371 368.9 368.2 370.2 371.8 373.2 380.5 383.3 380.8 380.5 380.4 385.9 394.2 401.4 396.6 400.4 407.2 409 404.6 401.4 396.9 392 391 392.5 396.3 406.7 412.3 416.4 420.9 429.2 441.9 450.9 455.6 454.3 453.8 451.6 450.9 448.5 446.4 442.8 442 439.2 433.3 425.1 420.7 416.9 412.9 409.8 408.4 406.6 397.7 389.9 387.4 383 376.9 371.7 366.6 361.5 356.4 354.2 353 352.2 352.3 350.6 351 353 354.6 354.9 353.4 350.8 347.3 343.6 342.8 343.2 343.7 346.9 346.7 344.4 340.4 339 337.3 336.5 333.2 327.2 325.7 327.8 333.5 337.1 341.5 346.6 352.3 356.2 362 367.7 363.6 359.4 355.4 351.6 345.4 341.8 344.2 346.7 349.5 345.7 337.4 342.8 346.6 349.5 355.4 361.2 367.7 373.1 376.3 375.5 370.8 365.7 361.7 356.6 349.1 341.9 334.8 329.1 325.3 322.2 309.2 305.1 304.7 292.9 301.6 300.8 286.7 285.1 285.8 301 299.2 297.2 297.9 305.2 318.9 327.6 336.5 343.9 348.6 353.7 359.1 361.3 363.1 364.2 365.9 367.5 366.6 367 368.4 372.2 375.3 373.9 372.3 373.1 372.3
300.6 307.2 316.9 323.2 329.5 332.6 341 341.1 340.6 342 340.6 340.8 346.8 350.4 350.2 349.9 348.9 346.7 344.1 342.4 340.4 338.1 332.4 336.5 339.7 343.8 348.5 348.5 344.6 333 338.3 340.1 344.7 352.5 364.6 367.4 374.5 375.7 373.8 372.4 370.8 367.9 366.9 368.5 370.3 372 375.4 382 386.2 384.3 380.4 380.1 383.9 389.7 392.4 387.8 401.6 408.5 406.9 403.1 399.1 393.8 388.8 387.4 387.7 389.9 397.5 407.1 412.3 417.1 423.8 435.4 447.7 450.4 450.9 455.6 456.2 455.4 455.2 453.2 451.9 450.8 446.5 440.7 433.8 428.8 424 420.1 419 419 410.7 401.4 396.2 390.9 385.5 379.2 372 365.2 360.3 355.3 353.3 352.5 351.2 350 349.6 349.4 350.4 350.3 350.2 349.5 347.7 343.8 344.2 344.8 339.8 339.2 339.2 339.1 337.3 336.2 333.6 332.6 330.9 329 326.2 324.7 331.8 334.4 338.2 344.6 349.4 357.4 364 367.8 372.7 370 367.3 365.2 359.5 356.2 353.7 352.2 353.7 351 345.9 344.6 345 348.7 351.2 354.4 359.5 366.3 372.6 376.1 378.2 376.8 372.7 369.2 364.7 360.2 355.2 347.4 340.6 338.7 335.9 330.3 322.8 307.2 295.8 302.9 307.2 305.2 285.6 284.2 290.1 293.8 292.3 297.6 304 317.1 324.1 333 341.4 346.5 349.6 351.4 354.6 357.7 359.5 360.8 361 359.4 358.7 358.5 363 365.4 364.3 363.2 366.7 365.4
295.7 304.5 311.7 318 324.1 328.6 338.3 339.7 341.7 343.5 341.9 339.3 342.3 349.1 352.2 351.2 349.9 347.8 346 343.4 340.4 337.9 332.8 332.6 335.4 339.2 344.6 345.8 342.6 331.8 332.1 341.8 347 351.4 358.4 365 371.5 372.8 371.4 369.7 367.1 365.3 366.4 368.9 370.4 372.3 378.2 383.9 387.5 385.4 380.3 376.2 378.6 384.8 381.9 385 398 405.9 405 401.3 396.8 391.2 385.4 384.7 384 384.1 390.2 400.1 409 414.8 420.6 432.7 445.8 448.8 449.1 458.3 461.2 462.5 463.4 462.9 462.1 459.1 452.9 448.4 442.2 436.5 431.2 429.3 430.2 425.1 414.9 407.2 400.9 395.6 389.2 380.2 371.5 362.9 357.9 354.9 353.2 351.6 350.8 350 349.6 349.5 349.8 348.2 348.3 349 349.7 348.5 347.5 349.7 346.9 340.8 338.3 338 337.6 336.6 335.6 335.8 335.4 333 327.5 326.3 333.7 336.5 340.8 347.9 354.2 359.8 367.9 373.1 379.3 377.8 375 370.9 366.6 362.7 360.1 356.3 353.4 349.5 348.2 351.3 349.7 349.5 352.7 357.1 359.8 365.1 371.7 376.2 378.9 378.3 376.7 373.8 369.9 364.4 359 354.8 350.2 347.2 341.8 334.5 324.6 311.7 299.5 296.6 305 304 293.1 283.7 285.7 286.8 288.8 291.9 305.9 312.1 319.9 328.3 334.9 339.5 343 344.3 346.4 351.5 354.6 355.4 353.6 351.9 353.6 356.4 357.1 358.4 358.2 360.4 363.1 367.9
292.7 298.8 305.1 312.5 319.5 324.3 329 337.2 341.9 344.5 344.3 342.6 339.1 346.1 351.1 351.5 350.1 348 346 344.3 340.5 336.5 331.6 328.1 331.8 336.4 340.6 342.8 339.9 331.6 327.9 338.1 347.7 351.7 358.7 362 361.5 363.1 364.1 364.2 363.9 364.8 366.5 367.7 368.9 373.1 379.3 384.3 385.8 383 377 371.2 373.5 380.9 376.7 380.8 393.1 402.1 401.6 398.7 394 387.7 382 381.7 381.3 382.9 387.1 393 405.2 411 416.8 427.6 440.6 446.9 450.3 460.3 463.5 466.6 468.1 470.3 469.2 465.7 459.2 453.7 450.3 442.7 437.3 437.6 431.2 427.9 421.4 411.2 402.4 396 391.4 379.2 368.8 361.6 356.9 354.1 352.9 352.2 351.5 351 350.5 350.9 351.9 349.1 351.5 353.6 353.2 352.1 353 355.5 353.3 348.4 346.2 345.2 344.5 342.6 340 338.5 337.3 334.9 328.3 327 333.7 336.7 341.6 349.8 355.4 362.9 371.6 381.9 385.3 384.3 380.4 375.2 369.2 364.6 361.5 358 352.6 353.4 354.9 357.6 357.2 356.5 355.5 358.9 362.1 366 370.6 376.4 378.9 377.7 375.4 373.1 368.2 361.8 358.3 358.2 353.6 347.9 341.3 331.9 324.1 314.3 306.7 297.2 294.7 293.3 290.6 283.3 284 284.7 285.1 289.6 299.7 303.3 309.1 313.6 316.9 322.5 328.6 332.1 336.6 342.3 344.9 344 344.4 350.1 352.8 355.6 357.6 359.3 358.6 360.5 363.5 367.7
288.5 292.5 299.2 304.9 311.2 319.4 325.4 333.4 340.6 343.5 343.7 341.1 338.4 344.2 347.4 348.1 347.5 346.6 344.9 342.8 338.2 332.7 330.3 327.3 330 334.3 338.5 339.2 337.6 330.5 326.1 337.8 348.4 354 356.5 357.9 360 360 359.8 360.9 363.8 365 365.8 366.4 368.8 373.4 377.4 379.3 379.1 376.8 373.5 369.6 369.8 373.2 373.3 380.6 388.8 393.7 397.1 396 389.7 383.8 379.3 378.8 378.7 381.3 384.9 391.6 400.1 407.9 414.5 423.4 435.7 445.4 450.5 454.8 461.5 465.5 470.8 472 472.9 469.8 464 460.1 456.5 446.9 442.6 442.8 440.8 435.1 425.4 416.4 404.2 397.8 389.3 376.4 369.9 365.5 361.4 358.3 356.2 353.7 353.4 353.2 353.9 352.3 350.5 350.8 355.3 356.9 356.5 357.6 360 361.5 360.9 357.4 354.1 352.6 350.5 346.8 344.3 342.5 339.6 333.7 329 327.3 333.4 338.1 343.1 350.4 358.1 364.8 373.1 383.5 386.1 382.5 377.7 372.2 368.1 363.7 359.2 355.5 354.9 356.7 360.6 360.5 361.9 361.6 360.6 362 364.9 368.7 373.6 377.8 380 378.6 375.7 371.4 366 357.8 354.2 353.5 349.9 345.4 339.3 331.3 326.4 320 313.1 307.6 300.1 296.4 294.6 281.9 282.8 283 283.1 283.6 292.4 294.9 297.3 296.5 302.3 308.6 319.2 322.5 326.7 330.6 327.6 344 347.9 350.6 353.3 355.4 357.9 359.1 359.8 361.5 364.2 366.7
285 288.7 297.7 302.6 310.5 316.4 324.4 332.3 338.8 340.6 339 334.5 334.9 341 345.4 345.8 346.5 346.4 342.7 339.5 334.5 330.8 328.3 325.8 328.6 332.6 335.8 337.7 337.9 333.2 325.7 340.1 352.9 355.9 355.1 356.9 359 353.8 361.1 362.8 364.1 364.7 365.7 366.3 368.6 369.3 371.3 372.2 372 371.1 369.8 367.6 370.9 370 370.4 376 384.2 385 385.8 388.6 384.9 380.3 377.5 376 375.8 379.1 383.6 391.5 398.5 404.7 409.9 418.9 429.1 441 445.8 452.7 458.9 464 467.7 471.8 471.9 471.4 471.9 466 458.8 449.7 448 454.8 452.9 439.7 430 419.2 407.4 397.8 386.2 378.1 371.6 369.1 364.2 363.8 361.7 357.5 357.2 355.8 354.9 353.5 353.3 354.4 356.6 359.7 361.8 364.4 365.8 367.3 367 365.6 363.3 360.6 356.5 352.7 349.8 347.1 341.1 334.7 330.9 329 334.4 339.8 344.3 350 358.9 366.6 374.5 382.7 381.1 376.4 372.4 369.7 365.4 359.6 357.2 356.2 356.9 359 361.4 364 367.6 368.5 366.8 366 369.6 372.9 377.4 380.6 381.7 379.9 377.8 374 368.9 360.7 354.8 353.2 350.3 346.5 340.8 336 330.7 323.1 315.8 309.1 303.4 300.4 297.8 283.4 281.8 281.2 281.5 281.4 286 287.6 293.8 304.5 312 315.6 319.9 320.9 325.9 329.7 331.9 344.2 349.9 352.2 353.4 355.7 358.4 359.9 360.8 362.6 365.2 367.5
285.9 290.4 295.8 302.4 308.5 315.6 323.3 330 333.7 334.6 333.3 328.5 335 340.3 342.1 342.6 343.5 342.9 339 335.3 330.7 329.3 326.3 324.2 326.9 330.4 333.1 335.9 337 335.2 326.7 341.5 354 355 353.5 354.5 354.6 359 360.7 364.2 364.5 364.2 365.3 366.5 367.2 365.8 364.8 365.2 365.3 365.6 363.1 369.1 371.1 364.7 368.3 374 375.7 377.8 376.4 377 381.1 377.2 374.2 372.7 373.7 377.7 383.6 390.6 396 400.2 408.6 418.4 425.2 431.3 438.6 444.3 448.2 453.6 458.8 463.6 466.4 468.4 466.3 463.3 457.5 454.1 452 455.4 455 444.9 434.2 420.7 409.9 400.2 390.6 380.9 376.4 372.1 368.3 367.7 363.4 362.1 361.2 359.4 356.6 356.4 357.8 358 359.4 363.9 367.2 369.6 370.7 371.9 372.1 370.8 368.3 365.8 362.4 359.7 356.3 350.6 342.8 339.5 336 332.3 331.8 339.4 343.9 349.9 357.7 366 372.3 373.9 373.3 370.6 369.7 366.9 363.1 359.1 358.7 359.4 362.1 363.1 363.4 363.7 367.5 371.8 373.3 373.8 375.6 378.1 381.3 383.5 383 381.6 379.9 377.1 373.1 367.5 365 363.5 359.2 352.4 346.9 341.2 334.9 325.8 318.3 310.6 306.1 302.3 300.2 295.4 279 279.7 278.1 276.8 281.7 292.1 304.5 317.9 322.6 325.4 327.3 327.9 329.2 333.6 336.5 342.9 349.5 353 353.6 355.6 358.1 360.9 361.4 363.1 366.9 369.5
284.9 288.4 295.4 302.3 308.6 314.6 321 325.3 327.5 327.9 326.3 324.1 330.9 337.4 340.1 340.3 339.4 338.4 333.3 331.1 329.7 326.4 324.6 322.6 325.8 329.1 332.5 334.9 334.3 332 325.6 335.9 349.5 351.6 350.9 346.6 355.4 357.8 363.1 365.1 364.8 363.7 364.4 365.1 365.4 364.2 360.7 360.9 361.1 360.3 363.4 369.8 368.8 361.5 366.2 372.5 372.8 373 370.1 369.5 375 373.4 370.2 368.9 372.1 376.3 381.4 389.2 393 399.6 403.9 416.7 421 425.3 427.6 432 437.2 441.7 444.4 448.5 452.2 454.9 456 455.1 454.8 454.6 452.6 452.2 451.6 445.4 432.6 422.6 414.1 402.9 394.6 387 382.4 378.3 374.4 373.3 370.6 367.9 364.7 362.3 359.2 359.9 362 364 366.4 369.7 373 374.3 375.1 376 377.5 374.7 371.7 370.4 368.9 365.2 361.9 353.6 347.9 345.1 340.2 335.9 332.3 338.9 343 349.1 355.5 359.5 362.4 365.2 366.8 366.7 365.5 364 362.8 363.5 365.2 368.6 370 369 368.7 369.6 372.6 374.4 376.5 378.2 380.7 382.6 385 387 386.1 384.5 382.3 380.1 378.1 375.7 374.8 372.4 366.7 361.5 357 348.8 339 329.3 319.3 312.6 308.8 305.1 301.8 298.3 294.7 290 281.4 279.8 275.4 296.6 312.1 322.9 327.1 331.1 334.7 336.7 337 337.4 340.2 344.4 351.2 354 356.1 357.9 359.7 361.3 362.9 364.2 367.9 372.1
283.1 286.8 293.5 301.9 308.3 314.4 319.7 321.4 321.5 321.6 318.1 320.9 324.2 328.1 329.2 335.5 334.8 332.7 330 327.5 326.2 324.4 321.8 320.5 324.4 327.8 331.4 332 331.5 327.6 320.5 324.2 337.4 348.2 346.9 344.5 350.4 355.2 364.3 364.3 363.3 361.8 362.8 362.9 362.1 361.2 360.1 359.6 359.2 357.9 363.1 368.1 366.3 359.5 359.1 369.1 370.4 369.1 367 365.1 368.6 369.8 366.9 363.5 370.9 375.1 379.7 386 390.6 398.3 403.8 414.2 419.9 421.5 422.2 425.2 428.3 431.1 433.9 436.9 440.5 445.5 448.6 449.3 451.1 453.8 453.3 452.9 453 443.6 435.3 426.3 416.5 409.5 398.1 392.6 388.3 385.2 380.1 379.5 375.6 371.5 368 365.7 362.9 366.1 367.2 368.1 373.2 375.9 376.8 378.4 379.4 379.7 379.4 377 374.1 372.8 372.7 368.9 365.3 359 352.2 348.7 342.9 337.9 334.8 337.9 342.6 348.1 351.7 355.7 358 360.4 362 362.3 363.5 365.5 368.8 370.8 372.7 373.7 374.5 374.2 375.2 377.2 378.3 378.8 381 382.4 385 386.8 389.4 390.2 389.4 388.8 387 384.4 382.8 381.7 381.1 377.6 373.1 369.5 364.8 354.3 342.2 332.2 322 315.1 311 306.9 303 298.6 294.9 289.5 282.5 279.4 278.9 296.3 314.4 324.8 331.1 335.6 341.1 343.2 344.9 346.9 349 351.3 353.5 356.2 358.6 361 363.3 365.4 368.1 370.9 371.6 374.4
282.5 285.3 292.1 301.3 306.9 312.4 316.7 316 316.1 315 312.3 312.3 314.9 321 325.6 327.5 332.2 329.8 327.4 325.8 324.3 322.7 320.4 318.2 322.5 326 328.7 330.2 329.7 327.9 319.8 317.3 322.9 338 342.9 339.4 343.3 352.1 358.8 357 358.1 359.8 360.6 360 358.5 357.8 357.9 357.7 357.4 355.8 361.2 366.1 364.5 358.3 356.4 363.3 367.8 365 363.8 362 363.8 362.8 358.6 362 368.5 372.6 377.7 383.3 389 394.8 403.8 411.5 418.1 418.8 421 421.2 420.9 422.9 424.5 424.8 427.4 439.5 443.4 447.5 449.6 448.2 446.9 450 447.2 440.7 436.8 428.7 419.2 414.8 403 398 393.8 390.4 386.5 384.2 378.2 372.8 371 368.8 369.8 370.6 372.7 371.4 379.4 380.3 380.7 380.5 380.9 380.6 379 375.9 374.9 375.1 375.3 372 366.8 360.3 355.2 349 344.7 339.3 339.8 340.8 343.1 346.7 349.2 352.8 355.5 356.8 359.7 362.9 367.3 371.3 374.1 376.5 378.3 379 379.8 379.8 380.8 382.2 383.1 383.5 384.9 386.1 388.6 390.6 392.7 393.2 392.9 391.8 390.4 388.7 387.9 386.8 384.7 381.4 377.7 374.5 368.7 358.3 347.9 336.5 327.6 319.8 313.1 308.1 302.9 298.8 293 283.7 281.9 278.5 275.4 302.6 322.3 333.4 340.7 347.5 349.8 349.7 351.1 353.2 355.3 357.7 360.1 362.2 364.2 364.8 368.5 371.1 373.6 376 378.2 379.5
274.5 283 292.5 300.4 305.7 310.5 311.2 310.4 310.8 309.6 308.2 307.4 310.2 313.6 318.7 324.1 325.3 323.8 321.9 322.4 323 319.1 317.7 315.4 320.5 323 324.7 326.8 327.6 327.2 324.8 320.7 315.4 331.4 336.8 335.1 339.8 343.9 350.7 353.1 355.4 357.3 357.1 356.5 354.7 354.2 354.5 355.7 354.5 353.7 358.3 361.6 360.5 357.2 354.8 359.5 363.9 361.2 359.2 359.4 359.5 357 354.8 362 366.1 370.9 375.4 381.6 388.8 397.8 404.6 407.9 412.9 417.9 418.7 417.7 416.5 416.2 415.6 415.2 418.2 423.1 428.5 435.3 440.1 439.2 433.5 436.9 439.6 435.8 432.2 427.9 424.2 418 409.2 403.3 398.6 393.9 389.3 385.6 381.4 377 372.9 374.2 375.5 379.7 377.1 383.9 384.4 384.1 384 383.4 381.6 379.3 376.7 374.8 374.7 375.1 374.8 371 366.2 361 356.1 347.9 343.2 341.8 344.5 347.1 347.9 349 351.5 354.3 358.4 359.4 361.7 367.5 372.5 375.5 378.4 380.9 382.5 383.4 382.9 383.4 384.1 385.6 386.2 387.1 388.5 390.1 391.9 393.5 394.7 395.7 395.6 394.7 393.8 392.8 392.3 389.7 386.8 383.7 380.6 376.5 370 360.9 351 342.3 331.4 323.7 316.6 310 302.4 296.7 289 281.4 281.1 277.7 276.3 310.7 332.4 341.6 348.1 353.6 355.6 356.4 357.4 359.4 361.7 364.2 366.5 369 372 371.6 374.7 376.8 379 381.8 382.9 384.6
273.4 283.2 292.1 299 302.9 305.3 306.2 306.2 305.5 300.2 304.1 305.6 306.5 309.5 314.4 316.7 318.5 317.5 316.3 318.7 319.5 315.6 314.1 314.1 316.4 318.6 320.4 322 322.7 324.7 325.8 323.4 313.5 324.5 328.1 332.1 337.8 340.1 345.3 348 352.5 353.9 353.4 352.1 350.4 350.4 351.4 351.4 350.3 350.7 353.3 354 354.1 353.9 354 355.4 358.9 357.2 356.6 357.4 353.5 350.4 354 358.9 362.4 367.3 373.7 381.5 389.6 396.9 405.8 408 410.2 416.3 416.5 414.3 411.2 410.5 410.3 410.9 412.7 413.1 416.3 422.7 425.3 425.6 423 425.7 427.4 434.9 434.6 431.6 425.4 419.2 412.2 406.2 401.8 397.7 393.4 387.5 384.1 379 379.1 380.3 382.3 387.9 391.9 390.7 391.4 389.7 387.7 386.1 383.1 379.2 375.6 374.6 373.5 373 371.4 367.6 362.5 357.2 350.9 344.8 342.2 345.5 349.6 351.3 352.7 353.4 357 359.7 361.9 366.1 369.2 371.3 374.9 378.1 381.4 382.3 384.4 385.3 385.4 386.4 386.6 388.5 390 390.9 392 392.9 394 395.8 396.5 396.8 397.1 397.4 397.7 396.4 395 391.6 388.1 384.6 380.3 375.3 369.9 362.3 355.5 347.7 339 328 318.3 309.7 301.7 293 284.2 281.7 281 278.1 283.3 314.3 338.9 349 355.9 360.3 362 363 363.9 365.7 368.1 370.6 373.1 375.7 376.4 377.2 379.7 383.2 384 385.8 388 391.1
276.4 284.3 290.9 296.7 298.9 300.2 300.7 301.6 301.2 295.3 293.4 299.1 302.5 302.3 305.9 309.5 312.2 311.8 310.2 313.9 314 311 309.2 310.5 312.3 313.5 314.9 316.5 317.6 319.1 319 317.8 309.2 316.7 325.6 329.1 331.6 335.5 340.3 342.9 347.5 348.8 347.7 346.6 346.7 346.1 347.4 346.4 344.4 345.4 346.3 346.7 347.4 351.3 354.5 353 354.5 353.6 354.5 351.5 348.2 345.5 350.6 354.2 358.9 366.2 373.2 380.9 388.6 397.3 404.8 407.3 407.8 410.4 410.9 408.6 407.6 405.9 404.5 405.1 407.5 409 409.9 412.1 412.5 413.4 413.6 417.3 423.6 428.9 430.7 432 427.2 420.6 414 409.1 404.6 398.5 394.5 390.9 386.1 382.2 384.3 383.9 388 395.5 395.9 397.7 396.7 396.1 391.6 388.7 384.8 381.5 377.8 374.9 372.2 370.3 367.6 364.9 359 352.5 346.9 344.7 345.5 350.4 353.7 355.5 357.1 358.9 362.2 366.2 368.4 371.6 373.9 375.6 376.4 379.8 382.2 384.5 386.3 387 387.7 389.2 391.7 393.5 394.9 396.1 395.4 395 395.7 396.9 398 398.9 399.4 400.3 399.4 397.3 394.5 391.3 387.6 383.4 378.9 373.9 368.6 363.7 357.6 350 339.2 326.1 315.6 306.7 301.3 292.2 283.6 279.8 277.4 275.8 281.8 314.9 343.1 354.1 360.6 364.5 367 368.5 370.3 372 374.6 377.1 379.7 381.6 381.9 381.9 382.9 384.5 386.8 390.5 394.6 396.6
278.8 283.6 288.8 292.1 293.8 294.8 297.1 297.6 297.4 290.5 290.8 290.3 290.8 293.9 298.4 303.9 302.8 305.3 302.4 307.6 306.4 305 305 306.2 308.4 310.2 311.4 312.1 312.5 313.1 313 310.5 309.4 312.4 321.6 326.1 329.3 331.9 335.5 337.8 340.1 340.5 341.6 344 343.4 341.5 341.8 340.8 339.6 339.5 338.4 339.8 340.6 347.1 349.5 347.8 348.3 352.3 349.3 345.7 339.7 341.3 348 351.5 357.8 365.2 373.5 380.6 387.8 396.5 403.7 406.3 405.4 405.4 405.9 404.3 402.2 400.6 399.9 399.7 398.9 399.4 401.4 404.8 408.3 410.7 409.2 413.6 416 426.7 426.4 427.8 424.3 420 413.6 408.5 403.7 397.7 394.7 390.6 387.6 385.9 387 385.8 395.3 396.9 403.3 406.3 403.6 400 396.5 391.5 386.6 383.8 380 376.5 371.6 367.9 364.5 361.2 355.1 349.3 346.7 347.4 351.2 353.8 357.4 360 361.4 364 367.6 371.5 374.9 375.8 377.7 378.4 378.8 380.6 384.1 385.7 388 390.1 392.2 394.1 396.9 398.8 400.3 400.3 399.6 398.8 398 398.3 399.7 400.3 400.4 400.6 399 396.6 393.4 389.5 385 381.2 376.3 370.5 365.1 360.2 354.2 346.1 334.9 325.8 312.4 305.2 299.8 291.3 284.4 277.2 276.2 275.5 285.1 323.1 349 359.5 363.8 366.4 368.1 368.7 371.8 375.5 379 382.3 385 386.6 386.5 386 384.9 385.9 391 393.8 396.2 397.8
277.5 282.1 285.7 288 289.7 292.8 295.7 296.9 293.2 290.5 289 288.7 288.7 288.7 291.8 296.5 295.9 297.9 296.5 299.5 298.4 300.6 300.6 301.5 304.4 306.2 308.8 309.6 309.8 309 307.7 306.9 305.7 309.2 316.3 321.9 324.5 328 331.2 333.8 335.2 336.3 339.1 340.7 338.6 337.4 338.1 337.3 334.5 334.1 332.4 333.6 335.4 339.8 342.9 340.5 341.8 347.1 343.3 338.5 333 340.9 345.5 350 357.1 365.6 373 380.9 388.8 395.3 400.6 404.2 405.1 405.7 405.2 401.9 399.3 396.6 395.2 394.7 395.1 394.9 395.9 398.2 399.7 403.4 399.7 406.2 411.8 413.5 420.7 420.9 419 415.8 411.1 405.4 399.5 394.7 393.1 391.4 389.4 387.1 387.9 390.6 398.4 405.4 409.8 412.9 408.5 403.6 399.3 394.6 392 386.6 382.2 377.8 372.5 366.3 362.7 358.2 354 348.8 347.4 351.1 355.1 357.9 361 364.4 365.7 368.9 372.5 375.9 378.6 379.8 381.2 381.8 382.1 384.1 386.5 388.8 392.1 394.9 396.8 399.7 402.5 404.3 404.8 404.5 403.9 403.1 402.4 401.7 401.5 401.9 401.1 399.7 397.8 395.2 391.3 387 382.7 377.6 372.6 367.1 361.3 356.3 346.8 339.3 330.7 322.3 309.8 302.5 297.6 287 275.1 275.2 275.6 275.7 290.1 325.8 349.2 359.7 362.1 367.6 369.9 371.3 374.4 377.5 381 383.8 386.4 388.3 388.9 386.7 385.8 386.1 394.2 398.5 400.6 401.4
277 280.1 282.9 285.2 288.4 294 297.6 299.1 293.5 288.8 288.7 288.7 288.7 288.7 288.7 288.7 289.6 291.3 292.2 293.4 293.9 296.7 298.1 298.8 300.9 303.8 305.9 308.9 310.2 310.6 308.3 305.6 304 307.4 314.6 319.7 321 323.6 327.5 329.8 332.1 335.3 335.5 335.8 334.7 333.5 334.8 333.5 331.3 327.1 325.6 329.1 331.1 332.3 334.8 333.8 337.8 340 335.7 330.6 331.1 339.6 343.9 349.1 357.2 365.2 373.4 381.8 388.4 393 399 405.4 407.4 408.5 406.3 402.4 397.8 393.6 391 390.8 391.3 392 391.7 393.3 394.7 396.7 398.1 402.9 411.7 413 413.5 413.4 410.2 406.9 403.6 399.6 394.8 393.1 392.9 391.7 389.5 387.3 388.6 393.8 402.3 409.8 413.5 417.9 411.3 406.2 402.8 399 396 391 383.1 378.4 373.8 366.4 362 357.1 353.5 350.8 350.5 354 358.5 362.3 364.4 368 371.3 374 377.1 379.8 382.3 383.2 384.2 385 386.9 387.2 390.7 395.6 397.3 400.6 403.8 406.5 407.9 409.2 409.1 408.7 408.1 407.4 406.7 404.6 404.1 403 401.8 399.4 396.9 393.1 388.4 384.3 379.6 373.7 368.6 363.1 356.8 349.8 341.5 333.1 323.2 315.8 305.2 299.7 293.4 281.6 274.4 274.9 274.4 277 299.4 327.2 342.2 350.6 355.9 362.5 368 373 375.9 379 382.3 385.1 387.9 389.9 389.8 387.8 386.8 387.3 392.9 401.2 404.6 405.4
275.9 277.2 280.6 284.9 290.1 294.8 299.1 301.5 298.3 289.4 289.1 288.7 288.7 288.7 288.7 288.7 288.7 288.7 289.8 290.7 292.4 293.6 295.4 296.4 298.6 300.5 303 306 309 310.7 309.7 308.2 303.5 306.8 311.8 316.2 318.2 320.3 323.1 326.7 330.3 333.7 333.3 331.1 329.7 330.7 331.3 330.3 326.2 322.1 319.9 327.3 328.3 326.9 327.5 327.3 329 327.2 327.4 325.5 332.6 337.8 342.7 348.6 357.7 365.2 374.4 382.6 388.2 391.9 398.2 404.7 407.6 409.2 406.5 401.6 396.8 391.2 387.5 387.6 387.6 388.7 390 393.7 397.7 399.5 399.5 403.1 410.5 413.9 412.7 411.1 407.8 403.2 400 395.4 392.3 391.9 391.3 389.9 387.3 387.5 390.4 394.9 401.1 408.7 413 418.5 412.4 409.6 406 402.7 398.5 393.5 385.3 378.2 372.7 365.9 360.9 355.9 356 355.7 354.9 357.1 362.5 366.3 367.8 372.3 375.3 379 381.5 384 385.8 386.9 387.5 389.4 391.2 391.4 396.9 400.7 403.3 407.4 409.4 411.3 413.3 413.3 412.8 412.1 411.3 410.8 409.6 407.7 405.9 404.3 402.7 400.1 395.4 390.7 385.2 380.6 375.7 369.3 364.6 359 352.5 346.4 336 325 316.9 311.3 301.4 295.9 289.7 275 273.3 274 275.9 288.7 312.2 328.5 338.5 347 353.6 359.5 366.4 370.9 377 380.2 383.3 386.2 389 391.6 390.9 389.2 387.9 386.7 390.8 393.4 395.1 396.6
274 275.5 281.3 285.3 290.5 296.3 301.1 303.7 301.1 296.7 291.8 290.8 289.2 288.7 288.7 288.7 288.7 288.7 289 289.8 291.1 292.7 293.4 294.8 296.4 298.6 299.5 303 307.2 309.6 309.7 308.4 304 304.2 308.1 311.2 315.2 317.9 322.1 325.7 328.7 330.2 329.8 327.8 326.4 326.9 328.2 326.2 321.6 317.8 316.1 318.8 324.4 321.3 322.1 321.7 322.5 322.1 323.5 325.8 331 336.2 343.2 351.4 359.6 367.8 374.7 382.2 386.9 390.8 395.6 403.4 406.2 405.7 404.7 400.9 394.4 388.3 384.2 385.1 385.3 385.8 389.2 394.4 398.8 400.5 398.3 400.2 407.2 410.7 412.9 409.7 405.2 400.4 397.2 393.3 391.2 390.3 389.2 387.4 385.6 387.6 392.2 396.2 399.6 403.5 411.6 415.1 412.7 412.2 408.3 404.5 400 395.5 387.8 377.9 372.7 366.5 361.9 359.7 361.3 360.9 361.1 362 366.4 371.2 373.5 377.1 380.8 382.5 385.5 387.4 389.3 390.9 391.6 393.8 395.1 397.4 400.6 405.4 407.7 412.3 415.4 417.4 418.1 417.5 416.5 415.8 414.9 414.1 412.6 411 409.8 406.9 402.1 398.3 393.4 388.6 382.5 376.6 372.1 365 360.8 354.9 349.6 343.7 330.3 319 312.1 305.1 297.6 291.9 278.7 272.7 271.2 273.7 278.2 293.5 311.3 323.9 334.7 341.7 346.8 354.7 362.7 371.9 377.4 380.1 383.3 386.6 389.6 392.6 392.3 390.8 389.4 387.8 390.5 390.2 390.7 391.6
272.2 275.1 280.8 285.1 290.9 297.4 302.3 304.1 302 299.6 297.2 294.9 291.8 289.2 289 288.7 288.7 288.7 289.2 289.8 290.7 291.3 292.5 294 295.5 295.7 295.8 300 304.2 305.9 304.9 303.7 301.3 301.3 305.1 307.2 311.9 316.9 321.3 325 325.8 326.2 325.6 324.4 322.5 322.7 322.8 321 317.2 314.3 313.9 313.6 313.6 314 315.6 318.4 319.5 320.8 321.8 326.6 331.1 336.8 343.4 352.8 360.4 367.4 373.4 380.4 385.4 389 393.5 399.3 403.9 403.7 402 397.5 391.9 384.4 382.3 383.5 384 381.5 379.9 383.7 390.3 397.9 396.9 396.1 402.8 406.4 408.5 408.7 403.8 397.8 393.4 390.5 388.9 390.3 387.4 385.7 385.6 387 391.1 395.3 398.9 402.6 413.7 414.6 414.8 411.3 407.9 404 400.1 395.8 389.5 378.4 374 367.9 365 364.9 366.7 366.6 367.3 368.7 369 373.7 378.7 383.2 385.8 387.6 389.9 391.6 393.4 395.3 397.1 398.4 400.2 402.3 406.8 409.1 411.6 415.4 419.3 421.8 422.1 422 421.5 421.7 419.7 417.3 415.4 412.9 410.4 405.7 400.4 396.8 391.9 386.7 380.9 374 368.3 362.8 357.6 352.4 345.9 338.2 326.2 311.8 304.5 300.4 294.3 289.4 273.7 272.1 271.5 273.6 278.4 297.2 309.2 318.1 329.1 340.3 344.8 354.3 362.1 373.9 378 380.1 383.5 386.5 387.9 390.3 393.5 392.2 390.2 387.4 384.5 385.4 385.8 387.1
271.8 275.3 280.2 284.6 290.9 297.4 301.7 302.2 301.7 300.6 299.8 298.2 297.2 293.4 290.4 289.3 289.1 289.7 290.7 291.1 291.4 292.6 292.2 293.4 294.2 294 294.9 297.7 300.9 300.2 298.9 297.3 294.7 297.6 301.6 307 311.9 316.4 320.4 322.5 323.4 322.7 322.1 321.5 319.8 318.8 317.5 316.2 313.6 311.9 311.3 311.6 315.7 319.2 320.5 321.3 321.7 321.9 322.3 326 330.6 337 343.6 353.4 360.2 366.9 372.2 378.3 383.5 386.3 390.5 394 400.7 401.9 399.9 394.4 387.8 381.8 379.6 380.5 380.2 378.7 376.9 379.3 386.2 389.4 392.8 390.6 399.7 404.4 405.4 405.3 402.2 398.3 393.9 388.6 386.5 386.7 385.4 384.3 383.7 385.9 392.5 394.2 397.8 402.4 412.6 416.7 414.4 413.8 409.4 404.1 399.9 396.3 387.8 378.6 375.2 371.8 370.4 371.5 373.3 373 375.6 376.1 376.9 381.3 384.8 388.9 390.8 392.6 394.5 396.2 397.7 399.8 400.5 402.5 404.2 407.8 409.8 412.5 415.1 417.9 423.3 425.3 425.3 425.4 425.7 424.5 423.4 421.4 419.4 414 408.6 404.1 399.1 394.4 388.9 383 378.1 371.7 366.6 361.9 357 351.4 341.8 332 321.2 309 300.7 293.2 288.8 284 273.1 271.4 271 272.6 277.4 298.1 309.6 316.7 324.3 331.7 344.2 348.2 358.3 368.1 375.4 380.3 381.9 383.2 385 387.4 391 392.4 388.8 385.7 382.6 379.1 381.1 382.2
270.8 274.8 279.8 283.7 290.1 295.8 299.1 300.3 301.5 301.7 301.3 299.8 297.5 294.2 290.2 288.9 289 289.4 289.9 291.7 292 291.9 291.9 291.9 291.9 291.9 292.7 295 296 295.7 293 291 293 296 300.5 305.6 310.3 314.8 317.8 319 319.9 320.6 319.7 318.8 318.4 315.3 314 313.1 311 310.5 310.5 315.1 320.8 323.2 326 326 325.1 323.7 321.5 325.9 330.9 336.8 344.4 351.9 358.8 364.2 369.3 376.4 380.9 383.3 386.8 389.7 392.9 397.8 395.1 390.3 383.6 377.5 376.3 376.2 373.1 372.9 369.8 373 382 386.7 388 387.2 390.7 400.7 402.5 401.6 398.7 395.8 393.5 389.2 385 384.3 383.3 382 381.1 385.9 390.8 395.1 397.6 402 409.7 415.5 413.8 414.1 411.6 407.1 402.4 394.3 385.2 380.8 378.1 377 376.9 378.2 380.7 381.4 383.9 386.1 388.1 391 393.6 393.3 394.3 396.3 398 399.7 401.6 403 405 406.9 408.9 412.5 414.3 416.1 418.3 422.9 426.5 428.8 429.3 430 428.9 428.2 426 423.9 418.8 413.6 409.1 403.2 398 391.8 385.6 380.1 375.8 370.7 365.5 361.1 356.2 347.4 341 333.3 320.1 310.8 303.2 295.6 288.4 277.5 273.5 270.9 269.8 272.2 274.2 293 307 313.7 322.2 330.6 336.4 344.3 356.4 365.5 372.3 377.4 378.6 379.9 382.5 385.2 388.3 386.6 386.4 382.3 377.7 372.9 374.1 373.4
269 273.8 278.9 282.8 288.1 292.5 295.4 298.2 300.9 301.8 302 299.8 296.5 291.4 289.6 289.2 288.7 289.5 290.2 291.3 292 291.1 291.3 290.7 290.3 290.5 291.7 293 291.3 290.4 287.3 288.6 291.6 295.3 299.5 304 307.9 312.2 314.3 316 317.7 318.1 318 316.9 315 312.9 312.4 310.8 309.3 309.7 313.4 316.8 322.4 323.6 322.5 321.4 320.9 319.8 320.4 323.7 330.7 337.2 343.4 349.5 354.6 358.8 364.9 371.5 378.6 380.5 385 385.9 389.3 392.1 390 385.3 378.8 372.7 370.1 369.9 368.1 368.1 366.4 368 373.9 378.9 383.3 383 384.1 391 395.7 397.2 396.2 393.7 390 386.8 382.8 382.6 382.1 379.2 378.4 384.9 389.9 394.4 396.5 401.6 405.9 411.9 410.8 410.6 410.3 407.5 401.8 390.4 384.3 383.2 383.5 385.2 388 389.8 389.4 390.5 392.5 396.1 397.2 399.3 397.4 397.6 398.3 399.4 401.4 402.4 404.5 407.2 410 412.3 414.2 417.2 418.5 420 424.7 428.1 431 432.8 432.3 432.5 432.3 428.7 425.9 422 418 413.3 408.2 400.4 393.2 388.4 383.8 377.9 374.1 370.2 364.8 357.8 353.4 353.3 348.6 342.1 328.3 315.8 307.1 300.9 296.2 277.6 271.9 271.1 270.4 270.4 273.5 283.4 298.8 312 319.7 330.5 336.8 344.4 352.4 358.9 366.7 371.1 374.3 376.9 380 380.8 381 378.4 377.8 374.6 372.2 370.1 371.6 370.9
267.3 273 277.5 281 284.9 288.2 291.7 295.2 297.9 299.4 299.7 297.1 293.5 289 288.8 288.7 289 289.3 289.8 290.7 291.1 290.9 290.9 290.3 290.7 289.6 289.3 290.3 289.3 285.9 285.9 286.8 289.8 294.3 299.2 302.9 307 309.1 310.3 311.4 313.2 315 315.9 314.2 312.2 311 310.1 308.7 307.2 312 313.9 315.9 317.1 318 316.9 315.4 315.6 315.1 317.4 323 329.3 336 341.5 345.7 349.7 354 360.4 366.8 374.2 376.9 383.1 384.6 383.6 387.8 387 382.2 373.3 368.9 365.6 364 363.1 361.8 359.5 357.5 365.7 373.7 374.7 376.2 380.8 381.8 384.2 392 392.3 389.5 386.8 381.7 378 377.6 376.7 375.7 376 380.9 385.6 392.1 395.1 400.4 402.5 407.4 407.8 409.2 407.4 404.3 397.4 388.1 387.7 385.2 388.3 394 396.4 396.4 396.6 399 404.3 405.8 406.9 403.3 401.4 402.9 402.2 404.3 405.8 406.5 407.4 411.4 414.6 417.7 419.2 420.2 421.7 424.9 429.4 432.2 434.5 436 436 435.1 432.3 429.8 427.1 420.7 416.1 412 403.2 394.6 389.9 386.2 379.6 376 372.4 368.7 364.6 360.3 360.5 356.5 349.6 341.8 331.8 316.6 307.9 302.4 297.8 276.2 270.6 270.4 269.1 270.4 273.5 280.5 295 310.4 321.5 331.2 338.5 344.8 350.9 355.6 363.6 368.2 371.2 373.6 374.1 374.2 373.2 372.8 371.7 371.3 369.2 367.2 369.8 367.8
266.2 272.1 276.7 278.6 282 285.3 288.8 291.8 294.3 295.9 294.7 293.2 288.8 286.7 287.2 289.5 289.9 290.7 291.4 291.4 291.3 290.7 290.3 289.8 289.6 290.2 288.8 285.9 285.9 284.3 284.7 285.5 289.2 293.3 297.6 300.3 303.5 305.5 306.8 308.6 310.5 312.3 313.4 311.7 310.3 309.4 308.6 306.4 309 312.4 310.7 308.9 309.4 308.5 309.8 310.3 310.2 312.7 315.6 321.4 326.6 332.6 337.9 341.5 345.3 350.4 354.4 362 367.7 371.4 377 382.9 380.5 379.8 382.7 374.5 368.8 365.3 358.6 358.8 358.4 357.8 356.5 352.8 352.7 355.3 360.1 363.8 369.7 373.6 375 378.8 380 378.8 378.6 377.3 374.9 369.1 369.8 371.3 373.2 373.9 378.5 386.4 392.2 397.7 399.7 402.9 404 406.4 403.7 400.1 395.9 387.1 385.9 388 392.8 399.1 401.8 402.8 403.4 405 412 413 412.5 409.7 406.9 408 408 408.3 409.8 411.7 413.2 416 419.1 421.7 422.6 424 426.7 430.5 432.9 436 438.5 437.5 436.4 434.8 431.4 429.7 424.8 418.6 412.9 405.3 396.3 392.8 388.2 382 378.1 375 371.6 366.9 365.4 365.7 363.7 356.8 348 338.5 330.2 317.2 308.4 302.2 296.7 273.7 270 270.1 269.7 269.1 280.7 280.6 290.3 310.5 324.3 332.2 340.3 346 350 354.3 358 362.8 367 372 373.2 372.1 371.5 370.1 369.9 367.5 365.6 363.2 364 364.2
265.5 270.5 273.5 276.4 279.3 282.2 285 287.7 289.8 290.4 289.3 288.2 286.8 283.6 288 290.3 291.1 291.7 292.1 292.3 291.7 290.4 289.8 289.4 289.2 289.6 287.7 284.6 283.7 283.3 283.1 284.2 287.4 291.1 294.9 297.6 299.3 301.3 303.7 305.8 308.8 310.5 310.9 309.9 308.6 307.8 307.2 304.7 307.6 308.7 306.6 305.1 304.3 303.5 302.7 304 307.9 311.8 314.4 317.8 322 326.8 331 335.3 340.2 344.9 348.9 355 361.5 366 370.8 379.1 378.7 376 372.4 369.2 365 361 356.4 352.5 353.1 353.6 352.7 350.6 350.8 351.7 353.2 356.3 359.1 361.4 363.8 367.9 369.5 367.4 366.1 364.6 359.4 359 360.6 365.4 368.4 371 373.4 378.3 384.9 392.8 396.6 397.3 399 401.6 398.4 395.4 394.7 385.8 383.8 392.3 396.2 400.5 406.3 408.3 409.5 411 419 419 418.5 414.7 412.2 413.3 413.6 413.7 414.3 415.8 418.4 420.9 423.6 425.3 427.3 429.4 432.6 434.7 437.5 438.3 437.9 437.7 438 435.4 431.7 428.4 422.1 413.3 404.4 398.2 394.5 388.5 383.6 378.9 375.1 372.8 370.5 368.8 368.8 368 361.7 353.4 344.8 335 327.9 316.3 308.5 301.3 294.6 280.4 269 268.7 268.7 273.1 286.4 284.8 289.7 309.5 324.8 334.5 342.4 346.6 350.6 355.5 359.2 362.3 365.6 371.4 372.1 371.3 371.3 369.2 366.8 365 363.4 361.2 358.6 356.5
261.9 267.1 271.1 274.5 277.8 280.5 282 283.6 285.3 285.6 285.3 285.5 281.6 285.4 289.3 290.8 292 292.6 292.7 291.6 290.7 289.8 290 289.9 288.2 287.3 286.3 282.9 282.2 281.8 280.7 282.3 286 288.9 292 294.5 295 297 299.7 303.1 307.2 308.7 309.2 308.3 307.4 307.3 306.8 304.2 302.2 302.7 300.1 297.2 296.2 295.5 296.9 303.3 307.4 310.9 313.4 315.8 319.3 323.5 327.4 331.3 333.9 338.9 345.6 351.2 356.7 361 367 374.3 378.5 375.3 371.2 367.5 362.8 356.2 351.9 346 347 347.2 347.5 347.7 348.4 347.1 349.1 352.2 351.9 353.7 356.6 357.3 356.3 356.3 356.6 354.7 354.2 351.7 353.5 356.9 362.8 366.6 370.2 374.3 380.5 385.7 391.6 391.8 393.2 394 393.5 390.1 386.6 388.3 383.2 393 402.3 404.9 408.6 412.7 413 417 422.6 424.9 424.3 419.8 417.8 418.6 418.5 420.5 421.4 422.5 424.4 426.5 427.3 429.7 432.4 435.6 438.1 439.8 440.8 440.9 440.1 438.7 436.7 435.1 431.8 423.7 411.6 403.3 400.3 393.6 388.3 383 380.7 378.2 374.2 372 370.6 371.1 369.8 363.9 357.6 348.5 340.1 332.5 324.3 316.1 309.3 303.3 286.2 274.9 268.7 267.7 268.2 286.3 291.6 289.2 290.7 308.9 324.4 334 341.8 348.1 352.6 356.4 359.8 362.8 366.3 368.7 372.5 373.6 371.9 368.5 365.2 363.8 361.7 359.5 357.2 354.9
261.8 264.3 268.3 272.9 275.7 278.5 279.6 280.3 281 281.3 282.4 280.3 283.2 287.2 289.3 291.2 292.7 292.9 292 290.8 289.9 290.3 290.4 289.3 287.8 286.8 283.9 281.3 280.7 280.2 279.5 281.9 284.5 287.1 289.6 290.7 293.2 294.2 296.3 301.4 305.4 306.9 307.6 306.9 306.1 306.9 306.5 304 299.2 294.5 293.9 290.9 291.2 290.2 292.4 301.1 306.5 309.6 312.3 315.1 318.3 320.8 323.9 327 330 336.4 342.4 347 353.2 358.4 362.7 370.7 375.6 374.7 370.2 365.4 360.3 353.1 347 341.5 342.3 341.9 340.6 339.5 340.6 341.7 344 345.2 344.2 347.3 351.1 351.8 350.9 350 349.2 345.8 346.4 347.7 350.3 355.1 359.8 364.9 370 373.3 377.6 380.6 386.4 387.6 390.6 389.6 387.6 386.9 382 382.7 381.1 386.7 401.4 409.7 414.1 416.1 417.7 421.7 426 428.8 428.5 426.3 424.8 424.8 425.4 426.8 428.4 429.2 430.4 430 430 432.9 438.1 440.6 441.9 443.3 444.6 444.1 442.3 438.3 436.8 433.2 424.9 410.5 403.7 398 392.2 388.1 382.6 377.9 377.4 377.2 374.8 371.9 370.8 370.9 366.6 358.5 354 344.9 338.7 331.5 323.5 315.1 308.1 301 285.1 271.1 268 267.7 273.7 289.4 296.8 293.6 294.6 305.7 320.7 332.1 337.6 344.3 347.3 355.2 360.6 363.5 365.7 369 370.7 370.2 370.2 366.1 365.2 364.1 359.8 358.1 355.7 353.5
261.9 263.6 266 270.8 274.8 277.2 276.9 277.1 277.9 278.6 279.2 279.9 284.3 287 288.6 290.5 292 291.4 290.8 290.6 290.2 290 290.4 289 286.9 284.7 282.5 280.6 279.4 278.9 277.2 280.1 283.4 286.2 288.5 288.5 288.5 289.8 293.7 299 302.5 305.7 305.9 305.5 305.4 306.3 304.8 301.5 297.7 289.9 288.7 285.8 285.9 286.3 290.4 296.6 302.7 307.4 310.4 313.1 315.4 316.5 317.8 322.7 326.9 334.8 336.3 343.5 350.5 355.8 360.6 365.2 367.7 369.6 367 362.5 355.5 349.9 342.1 336.8 335.8 337.4 336.6 332.6 334.6 336.7 337.5 337.8 337.8 341.8 346.6 347.8 346.6 345.1 345 340.9 341.6 344.6 347.2 352.3 361.2 363.8 372 374.2 376.2 378.7 377.8 380.5 383.1 384.2 382.7 382.8 380.8 378.2 379.2 382.9 398.5 408.7 415.6 417.9 419.6 425 427.4 430.5 432.4 432.6 432.4 431.9 432.3 433.4 434.4 433.6 433.3 431.8 431 433.8 440.4 443.4 444.9 446.6 447.2 445.9 441.7 437.7 431.6 422.9 412.1 403.7 397.6 393 391.2 386.8 380.7 373.5 371.4 374.5 371.9 368.5 367.1 365.7 361.4 355.6 350.2 344.5 337.3 331.9 322.7 315.5 313.1 308 291 275.3 267.1 267.9 275 290 296.9 297.2 300.5 305.7 313.3 318.9 328.2 335 339.5 346.4 353 356.7 360.4 362.6 363.7 366.1 365.1 365.4 361.7 359.1 358.2 355.1 353.2 352.5
262.8 263.5 265 268 272.2 274.4 274.5 275.8 276.3 277.1 277.4 279.7 282.8 285.3 288.1 290.3 290.7 289.7 289 289.2 291 288.5 288 286.6 285.5 283.4 281.5 279.5 277.5 276.9 276.1 278.4 281.9 285.3 286.9 287.3 287.2 288 289.2 295.6 300.4 304.1 304 304.7 303.6 304.5 302.8 299.4 295.5 288.8 282.5 282.4 282.3 282.8 287.5 293.3 298.5 303.6 306.9 310.8 311.1 310.5 312.9 317.5 325.5 329.2 331.9 336.7 348.2 351.8 356.6 359.4 362.4 362.8 360.4 357 351.7 342.5 337.5 332.8 329.6 332.6 331 327.7 330.4 330.8 331.1 330.8 332.7 337 338.4 339.3 339.5 340 340.7 338.6 337.8 341.9 346 350.7 356.6 361.8 372.4 375.7 375.3 378.3 377.8 375.9 376.2 377.2 381.5 381.6 379.4 378.3 377.5 380.3 392.2 403.8 410 414.3 416.4 423.7 426.2 430.1 434 435.6 437.6 439.2 439.3 439.8 440.5 437.3 435.9 434 433.5 437.1 442.9 445.7 447 448.4 447.1 444.1 438.2 432.7 420 411.5 404.6 399.7 393.7 389.9 384.8 382.4 377.6 369.8 368.9 373 369.8 366 363.1 361.1 357.6 352.4 348.2 343 335.6 327.6 324.3 320.3 315.5 309.3 299 281.6 266.9 266.5 265.9 287 290.9 294.3 301.7 306.6 311.3 316.1 319.7 321.5 326.3 334.9 343.7 350.9 355.6 358.7 357.9 358.4 358.5 362 359.9 358.8 355.4 352.7 350.1 346.9
261.9 263.6 264.4 266.4 269.4 272.5 274.5 275.6 275.7 276.3 277.7 278.3 280.8 283.1 283.5 286.9 287.2 287 286.7 287.8 288.6 286.7 285.9 284.4 283.2 281.5 279.7 277.8 276.6 274.4 274.9 278.6 282.5 284.7 285.9 286 286 287 288 295.4 300.7 302.4 303.3 303.8 303.7 299.8 295.8 295 292.4 288.1 284.5 278.3 277.7 278.4 282.2 287.9 291.8 296.8 302.4 304.5 302 304.2 308.7 313.4 319 324.7 326.9 334.9 343.1 346.4 350.1 351.2 354.3 357.3 356.2 352.1 345.5 337.7 330.6 326.2 323.4 323.1 323 319.1 321.4 321.4 320.8 324 327.3 331 333.6 334.3 334.9 335.7 337 335.2 336.5 342.1 345.2 348.9 353.6 360.3 370.7 375.8 376.1 374.1 375.4 376.7 374 373.2 379.2 380.2 379 378.8 376.9 378.4 389.2 398.6 406 408 410.7 419.2 423.8 426.9 431.5 434.6 438.2 445.8 447.1 444.9 443.5 440.6 439 438.1 438.2 441.1 443.5 444.4 445.2 444 440.5 434.7 428.6 418.6 411.4 405.5 399.8 395.8 393.5 385 379.5 378.6 374.4 369 368.9 372.9 368.5 363.6 360.8 358.1 354.5 349 344.1 339.9 335.3 333.8 329.5 323.7 315.7 309.4 301.7 285.5 267.2 266.9 265.4 279.5 285.7 296.7 303.2 307.3 311.8 316.7 319.5 320.5 323.8 328.9 334.1 337.2 343.4 349.1 353.5 354.6 354.3 356.1 355.1 354 351.3 349.3 347.5 347.9
263 263.7 264.2 266.3 269.4 273.6 276.6 275.6 275.7 276 277.1 277 278 280 279.8 280.5 283.4 283.4 285.7 287.9 286.8 284.9 283.4 281.8 280.1 278.7 277.6 276.1 274.4 272.7 274.4 278.7 282.2 283.9 284.9 285.2 286.2 286.5 287.7 293.8 297.8 300.6 302.7 303.6 300.8 299.1 294.4 290.4 288.5 285.1 282.8 279.3 274.4 276.4 279.7 283.7 288 294.6 297 296.8 295.7 297.7 301.9 311.6 318.2 320.4 321.4 329.8 337.9 340.9 343.8 345.3 347.2 346.8 346 344.3 335.7 331.3 324.9 321.8 318 314.7 315.1 314.4 315.6 317.1 317.6 320.1 322.4 326.4 328.9 330.5 330.9 329.8 334.9 332.5 333.8 343.2 345.3 347.8 353 361.5 371.4 375.1 375.7 372.9 370.9 374.3 371.8 371.1 371.8 374.7 376.6 376.4 375.8 376.5 384.9 389.5 395.3 401.6 407.8 413.9 418.8 424.5 429.8 434.3 437.5 443 445.6 443.3 442.5 440.3 439.6 441.4 441.4 442.5 442.6 442.4 441.7 438.2 430.7 427.2 417.5 411.1 406.4 401.6 398.5 395.7 386.6 377.4 375 374.9 371.9 367.8 367.2 369.3 365.3 360.8 358.2 355.5 353.4 347.7 344.2 340.9 338.5 335 330.3 323.6 314.7 306.8 302 289.8 272.4 266.6 265 267.6 287.6 297.8 305.2 309.6 314.7 319.4 322.9 325.7 326.9 329.1 331.3 333.4 335.5 340.6 350.8 351.6 350.9 350.6 350.7 352 351.1 350.5 351.7 352.8
263.7 264.9 265.6 269.5 271 273.8 275.3 275.7 275.4 275.8 276.1 275.3 275.1 276.1 275.8 275.8 275.8 276.7 280.3 282.7 282.2 281 280.5 278.4 276.7 276.8 275.4 273.9 271.7 271.8 275.9 278.6 281.5 283.3 284.7 285.9 285.9 286.2 288.7 294.9 298.7 299.8 301.7 301.8 298.5 292.5 289.2 287.1 285.1 283.1 281 277.7 273.4 273.9 276.2 282.2 287.1 292.9 293.8 291.9 292.3 293.1 296.8 304 312.9 313.9 316.2 322 327 334.1 337.6 339.8 339 337.5 335.9 333.1 329.8 323.8 319.1 315.7 314.6 310.8 310.8 311.1 312.7 314.8 315.5 317.1 319.5 320.8 322.1 324.1 323.7 324.9 325.8 328.1 332.2 339 345.5 347.1 352.7 361.6 369.8 372.4 371.8 367.1 368 368.5 362.9 365.6 368 370.5 372.3 373.2 372.4 376.1 380.9 386.7 392.6 398.3 403.9 408.4 413.8 424.3 429.7 432.5 435.7 439.3 441.4 442.2 441.6 441.6 442.1 442.6 442.1 441 439.1 434.7 431.7 427.6 421.6 415.1 409.3 405.8 401.8 400.8 397.9 387.1 378.5 375.2 373 370.2 365.8 362.6 359 362 361.2 357.1 354.4 352.9 351 346.7 343.9 341.4 338.6 334.6 329.3 320 309.4 302.5 297.9 291.1 271.3 265.3 264.4 267.8 290.4 301.1 305.3 312.3 318.7 322.1 325.5 328.9 330.9 331 332.7 334.5 335.8 339.6 345.2 349.6 351.5 351.1 350.4 351.5 352.8 353.8 354 354.4
