ncols 200
nrows 82
xllcorner 380000
yllcorner 422400
cellsize 50
345.9 334.7 325.4 317.1 310.3 301.4 292.4 281.8 272.8 267.5 263.5 260.5 257.1 250.1 241.2 227.6 227.3 237.2 248.1 252.4 256.4 257.4 258.6 259 260.4 265.8 271.4 278.7 284 286.9 288.7 291.9 293.7 295.9 301.4 306.8 304.1 303 303.4 305.1 305.2 304.8 304.7 303.3 303.5 305.1 306.7 309.2 309.3 309.8 309.3 306 308.3 306.9 311.2 313.4 315.3 318.2 322.1 326.3 331.2 335 334.5 330.4 327.4 325.5 321.9 317.7 312 306.4 304.6 302.3 298.1 297.4 295.1 292 290.1 287.2 285.7 283 283.7 283.8 284.4 286 291.1 293.7 290.8 285 278.5 282.2 286.3 288.3 293.3 299.1 305.8 313.6 320.8 330.9 336 338.5 340.7 343 345.7 347.7 349.7 351.6 354.4 356 358 360.6 363.2 366.4 369.6 371.3 374.1 375 376.4 377.8 379.8 382.2 384.9 388.2 391.3 391.7 392.9 395.1 398.6 404.1 404.7 406.3 405.9 403.2 401.9 392.1 393.8 392.7 390.5 387.2 381.3 390.2 392.3 389.2 392.5 397.4 399.1 402.7 403.1 401.7 398.8 398.9 399 397.1 398.7 401.7 403.7 405.5 409.2 413.6 415.5 416.1 412.6 403.4 401.4 403.5 399.2 395.1 392.9 390.3 386.7 383.1 381.4 378.7 377 374.4 371.8 368 366.8 365.3 364.3 363.3 361.8 359.6 357.9 354.4 348.2 338.3 323.6 316.5 306.9 295 285.9 279.2 270.4 247.2 229 212.4 210.6 211.7 214.3 217.6
347.3 340.1 331.4 321.5 311.4 302.9 293 282.4 274.7 269.9 265.5 261.9 257.8 251.1 238.2 227 225.8 229.7 247.1 252.2 255.2 256.4 257.1 258.7 260.1 263.9 271.5 277.1 284.1 287.5 288.9 290.9 292.2 294.7 296.8 303.3 302.2 301.7 301.7 301 300.7 300.8 300.2 299.1 298.7 299.9 302.4 303.6 303.1 300.6 303.2 302.7 305.3 307.8 309.7 311.8 314.2 317.8 321.7 325.9 330.2 335.2 336 331.3 328.1 323.4 319.2 313.8 309.3 304.5 302.2 300.5 299 297.6 292.9 291.1 287.7 283.6 279.5 281 282 283.4 284 286.1 288.9 291.9 290.2 284.7 278.4 284.4 285.7 287.9 291.5 298.1 303.2 309.8 315.1 321.8 327.4 332.6 335.8 339.7 342.5 345.4 348 350.2 352.8 355.1 356.9 359.1 361.4 364.3 366.1 369.3 371.3 372.9 373.8 376 377.3 380 382.2 385.6 388.4 388 388.2 390.4 393.3 400.2 401.3 403.3 404.4 404.3 400.9 396.1 388 385.3 383.3 381.4 378.5 381.4 385.2 386.3 391.1 394.6 396.8 398.2 397.8 395.7 393.1 393.3 393.7 393.2 396.3 398.3 399.2 401.6 405.1 409.2 412 413.3 412.9 413.3 411.3 408.1 405.1 402.1 397.4 394.4 390 384.7 382.6 380.6 378.1 376.7 374.4 372.3 369 367.2 366.2 364.9 363.8 361.5 358.3 355.9 351.6 341.5 325.4 316.5 309 296.1 289.7 287.6 283.4 266.3 240.5 213.1 207.8 207.4 210.9 214.7
347.1 339.7 330.1 321.3 311.3 303.1 293.3 283 275.7 271.3 266.8 263.1 258.6 250.8 234.5 224.1 225.1 238.1 246.4 251.7 253.7 255.4 256.5 258.8 258.3 263.4 269.8 275.8 280.6 285.9 287.6 290.2 291.9 294 296.1 299.4 302.3 301 300.5 299.2 298.7 297.7 297 297.1 296.1 296.4 295.8 296.6 294 294.7 298 302.9 307.6 308.3 310.6 312.4 314.7 318.8 323.3 327.4 332.8 339.2 337.8 334.5 326.9 322.7 317 311.9 307.4 304.3 301.8 299.9 298.6 295.9 295.3 292.7 288.7 282.8 281.5 275.9 279.2 279.8 282.1 283.6 285.9 289.2 289.4 282.5 277.8 283 284.8 286.8 290.1 294.6 299.3 304 309.5 314 319.2 322.8 326.7 329.1 338.2 343.4 346.3 349.1 351.3 353.4 355.9 358.1 359.7 361.5 364.2 366.5 368.7 369.6 371.9 373.2 374.7 376.6 378.9 380.8 382.4 383.2 384.6 386.8 390.6 394.7 397.3 400.1 401.5 403 405.4 400.4 396.8 389.3 380.7 376.2 374.6 371.2 373.5 377.6 383.3 388.2 390.9 392 392.3 389.7 388.3 388.2 388.7 390.3 393.4 394.8 395.5 397 399.5 404.1 406.6 410.4 414 416.5 416.2 413.1 410.8 407.2 404 400.9 396 391.7 387.2 383.9 384 382.6 380.6 377.3 374.5 369.1 367.8 366.6 363.9 359 358.1 355.2 350.3 338.2 326.6 315.5 307.6 292.6 287.8 284.5 281.1 266.9 249.1 218.2 209 207.1 211 214.8
341.9 332.5 326.2 318 310.2 301.9 292.7 282.8 276.4 272.1 268 264.1 259.5 253.4 244.1 223.9 224.4 239.8 247 251.1 253 254.1 257 257.1 257.3 261.5 266.6 271.1 277.4 284 288 289 290.9 293.2 296.7 298.9 300.3 300.4 300.2 299.2 297 297 296.8 295.6 295.3 294 291.8 289.7 294.5 300 304.8 307.7 309.1 311.2 312.1 314.5 317.4 320.9 325 328.9 332.8 338 338.5 334.8 330.3 322.8 319.9 316.9 313.1 310.9 308.5 305.7 301.8 298.8 292.1 288.5 283.9 281.1 279.9 272.4 276.5 278.6 281 281.1 283.5 286.6 284.4 275.3 278.8 282.4 285.2 286.4 288.8 291.7 296.1 298.8 303.2 308.1 312.2 311.5 319.9 325.1 331.7 339.6 344 347.3 349.2 352.1 354.2 356.1 357.6 359.6 361.7 363.7 365.8 368.1 369.4 370.3 371.4 372.3 374.2 375.5 378.1 380.2 382.6 384.9 388.5 391.2 394.5 396.1 398.4 402.6 405.7 405.1 401.4 396.5 394 386.9 378.5 367.8 367.5 370.3 378.1 382 383.3 384.3 385.4 383.7 383.5 384 384.6 387.2 390.1 391.3 391.6 392.3 394.5 398.3 402.4 406 409.9 414.1 416.1 417.8 415 412.1 409.9 407.3 405 402.3 399.8 393.9 391.5 389.3 388 385.2 379.6 374.2 370.2 368.3 366.4 365.2 355.1 351.2 348.3 334.9 318.7 308.8 298 288.8 281.4 272.5 254.6 234.5 214.3 212.4 208.1 206 206.9 208.3
334.2 329.3 321.3 314.7 306.1 298.7 288.2 283.5 277.2 273.1 269 263.6 257.2 249.9 244.9 223.7 223.8 241.4 245.4 248.4 251.7 251.1 254.9 254.8 256.5 258.7 263.6 270.3 276.1 281.1 284.3 287.8 291.4 293.5 295.5 297.4 298.8 299.1 298.8 299.4 298.2 296.7 294.4 291 291 288.4 290.6 295.4 298.4 300.8 306.1 309.4 311 312.9 314.4 316.7 320.4 325.6 327.3 329.7 333.8 336.7 338.8 334.8 330.7 326.1 323 319.8 317.4 314.2 310.5 306 305.6 303.7 296.2 291.5 286.3 283.3 280.5 278.9 271.9 274.5 279.7 279.5 279.2 278.6 272.7 275.6 285.4 283.3 284.7 285.9 287.3 289.6 292.9 295.5 298.2 301.4 306 310.5 315 318.7 324.7 334.1 341.1 344.9 347.6 349.5 351.7 354.2 355.5 357.4 359.3 361.1 363.1 365 366.5 367.5 367.3 368.1 369.2 370.9 374.9 377 379.6 383.1 385.6 389.1 392.6 394.9 397.8 401.8 405.5 406 405.1 402.6 398.1 393 389.8 383.8 373.5 361.9 370.3 376.4 377.7 379 379.5 379 378.6 379.9 381.9 383.7 385.4 387 387.8 389.8 392.6 395.1 399.7 403.4 407 411.3 413.1 416.1 417.8 415.9 413.7 413 412.4 411.8 409.8 405.8 403.1 398 392.4 389.5 386.5 380 373.9 369.7 367.1 364.6 359.6 355.1 346.7 332.1 320.3 307.7 303.8 293.5 269.8 250.9 253 254.7 252.9 243.5 222.5 204.8 205.3 203.8
334.8 328.7 321.9 313.9 306.3 296.8 289.7 284.2 278.2 274 269.3 263.1 249 235.9 232.9 223.8 220.6 233.2 237 241.9 248 247.1 252.9 253.6 255.9 258.9 261.6 269.8 274.4 278.9 283.8 286.9 289.6 291.1 293.2 296.1 297.7 298.6 297.7 298.5 297 291.2 282.4 282 282.8 289.9 294.1 299.3 303.5 306 307.5 310.3 312.8 314.8 316.5 318.9 323 326.6 329 332.9 337.6 340.1 340 336.2 332.8 329.3 323.2 318.7 315.6 314.9 309.7 305.7 303.3 305.4 303.4 297.2 289.7 284.5 282.3 279.8 277.4 270.6 276.9 273.9 270.4 275.1 284.1 288 291.7 287.9 286.8 285.6 286.2 287.5 289.9 292 295.6 298.9 301.2 305.2 309.6 313.7 319.9 329.3 337.1 340.9 344.7 347.1 349.2 351.2 352.9 354.5 356.6 358.2 359.5 361.2 362.5 362.9 363.9 365.3 365.6 367 373.3 378.2 382.5 386.1 389.6 391.9 393.5 395.2 397.6 402.3 405.5 405.8 406.5 403.7 400.1 395.8 391.6 387.2 380.4 372.5 359.3 369.4 372.3 374.4 374.8 375.1 373.5 376.9 378.8 379.8 380.4 382.1 385.5 388.4 391.7 395.5 399.2 402.2 407 409.8 412.3 413.8 417.3 417.9 419 418.3 418.2 418.7 417.7 414.6 410.8 406.4 400.3 392.8 389.7 386 378.9 372.3 367.7 364.6 360.5 354 347.9 339 321.7 307.1 297.8 277.4 262.2 284.5 286.9 288.8 284 271.4 236.4 209 202.2 202.4
334.6 328.3 324.4 317.9 309.2 299.1 290.5 284.1 279.1 274.5 268.8 256.8 259.7 256 249.6 237 220.6 224.1 229.9 231.3 240.1 246.3 252 255.4 256.9 259.3 262.4 267.9 275.3 279.4 282.8 284.5 284.8 285 287.5 290.9 292.7 296.7 294.2 293.7 291.5 279.2 286.5 291.7 290.5 292.5 299.5 304 306.4 307.4 308.7 311.6 313.9 315.5 317.4 320.7 324.6 327.1 331 335.1 340.2 342.9 341.4 337.6 334.8 331.9 327.8 322.1 315.1 310.3 307.2 303.5 300 300.5 298.3 298.8 296.4 288.9 284.8 279.8 276.4 269.5 269.7 269.9 275.9 281.6 286 289.8 293.4 292.1 291.1 285.6 285.6 286.4 289 290.7 292.4 295.3 298.4 300.6 304.7 309.1 315.4 323.5 330.7 336.3 340.3 343.3 346.1 347.9 349.6 350.7 353.3 354.9 356.4 357.4 359.1 359.8 360.8 361.6 363.8 368.6 374.1 380 386.4 390.1 393.9 397.2 398.2 399.2 402.9 404.4 405.5 405.8 404.8 402.3 398.9 395 391 387.1 380.6 374.1 356.8 363.3 368 368.7 369.5 370.3 370.1 373.7 377.1 377.3 377 380.5 384.3 387.3 392.1 396.4 401.8 405.4 406.5 410.2 413.1 415.1 417.2 417.9 419.2 421.4 423.7 424.7 424.8 422.8 418 413.8 408.2 402.6 393.6 389.1 382.8 374.5 368.5 364.9 360.5 354.2 348.7 341.2 312.5 297 275.4 280.9 290.9 292.3 296.2 299.6 298.6 282.8 247.1 218.8 206.3 201.7
333.8 329.8 326 319.4 310.4 300.5 291.5 286.6 280.7 275.5 272.9 271.2 269.6 265.8 260.3 249.6 225.3 220.9 225.6 237.1 241.8 247.1 250.4 253.7 256.9 259.3 262.4 267.7 273.1 277.6 278.6 279.4 279.6 279.4 282 283.9 286 287.3 278.3 281.5 271.2 283.4 294.4 297.2 294.7 295.8 299.9 305.7 308.2 309.3 310.3 311.7 314.3 316.2 317.6 320.5 324.1 327.2 331.4 335.5 341.2 344.1 341.4 338.8 336 333.2 329.6 322.7 316.2 310.9 307.5 303 299.8 296.9 298.1 297.8 297.8 291.4 287.7 283 278.4 274 268.6 275.5 280.1 282.2 288.2 292 293.2 292.5 288.4 282.7 284.3 285.5 286 287.6 289.3 291.8 293.9 297.7 301 305.7 312.8 318.1 326.2 330.8 334.3 336.7 339.2 341.5 344 339.6 349.4 351.8 353 354.7 355.9 357.1 358.2 358.8 362.7 368 375.1 384.4 390.2 396.5 398.3 399.9 401.5 403.8 405.4 407.9 409 408.2 405.6 401 396.3 392.6 388.8 384.4 379.6 373.6 364.4 355.5 360.7 363.4 364.4 363.6 367.2 371 373 373 375 379.3 384.2 389.6 394.7 396.9 401.3 403.7 407.1 409.4 412.5 414.8 417 418.4 419.2 420.9 423.9 427.3 429.1 428.2 425.1 420.3 414.4 407.4 400.9 390.8 386.2 378.6 370.4 365.3 360.8 352.4 344.2 312.7 290.8 294.1 306.1 307.2 305.2 300.6 302.5 304.3 301.5 285.4 256.2 232.5 212.9 203.9
333.2 330.8 324.7 311.1 303 296.6 290.8 286.7 282.3 280.7 278.1 276.4 274.1 271.5 266 258.9 241.8 221 220.6 231.7 243.3 246.6 248.8 252.5 254.3 256.2 261.7 267.3 269.7 273.9 273.8 273.4 273.8 274.4 276.4 276.9 275.7 270 265.4 281 287.5 290.8 298.1 298.8 297.8 298.1 298.8 306.5 310 311.1 312.6 314.3 315.5 316.6 317.6 319.5 322 325.4 328.6 333.8 339 341.8 341.2 338.3 335.9 333.3 329.6 325.7 321.1 311.6 307.2 304.1 298.4 296.2 295.3 293 297.1 293.3 287.9 284.1 284 275.3 267 270 273.8 280.2 284.1 291.8 292.5 291.3 281.8 283.6 283.8 284.1 283.4 285.3 287.2 289.7 292.4 293.7 298 303.4 308.1 315.9 322.1 326.2 328.6 330.4 331.2 334.1 336 340.1 344.9 347.9 350 351.8 352.6 353.6 355.4 357.7 360.6 366.8 375.6 383.4 392 398.3 400.8 400.3 401.5 404.5 409.7 411.9 411.4 410.6 407.1 401.2 394.8 389.7 384.9 382.5 377.2 371.6 364.8 355.3 355.2 358.2 358.5 358.4 363.3 366.8 368.6 367.7 374 380.1 385.4 391.8 396.7 399.4 401.7 403.8 405.8 408.2 411.3 413 415.1 418.3 418.7 421.2 423.1 425.7 429.2 431.5 430.3 425.3 419.7 413 405.3 396.3 387.8 382.2 372.8 366.9 361.1 352.9 331.2 308.7 322.7 323.6 324.7 324.7 321.3 316.9 310.3 309.5 307 296.2 283.9 262.6 231 213.3
335.2 332.1 326.3 317 305.8 296.2 293 289.2 287.1 284.4 281.7 279.6 277.6 274 269.3 262.1 251.3 231.7 218 222.7 239.4 245.1 247 248.8 250.3 252.2 259.3 264.3 265.5 266.8 266.8 265.9 266.4 267.9 268.2 259.8 254.8 267.2 282.1 288.9 294.5 297.2 296.7 298.5 301.7 303.7 306.2 305.4 307.5 310.7 314.2 315.7 316.9 318.3 317.8 318.8 320.1 322.8 325.4 328.7 331.2 333.9 333.3 332.9 331.9 329.9 328.1 322.6 316.2 308.1 303.2 301.7 299.3 296.6 293.8 289.5 292.5 291.5 289.8 285.7 286.5 275.7 270.7 266.4 270.6 275.2 281.3 283.1 283.3 280.9 275.2 280.2 281.7 280.5 282.1 283.6 284.2 284.5 289.6 294.3 297.3 299.2 303.5 312.6 318.3 322.1 324.1 325.1 326.2 327 327.5 333.9 338.1 342.6 345.6 347.7 349.1 350.5 350.4 355.4 358.7 363.9 372.7 380.9 389 395.9 396.5 397.6 401.2 405.7 407 409.1 409.6 409.7 407 400.9 393 385.8 381.3 376.3 373.9 369.5 364.7 357.7 349.7 352.1 352.1 353.7 357.7 360.3 361.3 360.8 370.2 376 381.5 385.8 391.2 396.1 400.6 403.4 405.1 405.5 407.6 409.5 413.9 416.7 418.6 419.7 422.1 425 428.2 430.6 429.9 429.1 423.4 416.5 408.3 400.5 388.2 382.9 375 367.8 361.2 345.8 319.4 340.8 345.5 340.6 346.9 340.7 335.4 330.5 323.2 317.4 313 307.5 296.9 272 254.4 234.3
336.1 331.8 323.1 312.5 303 298.5 295.1 293.3 290.1 287.6 284.9 282 279.8 276 269.8 263.7 254 237.7 220.1 217.1 233.2 243.3 243.8 243.9 245.5 249.7 254.8 257.3 261.3 261.2 258.8 260.1 260.3 260.4 248.1 256.8 275.5 281.3 286.6 292.3 296.3 298 298.7 300.7 304.1 307.4 309.2 311.3 311.7 313.2 315.3 316.5 318.2 319.2 319.2 318.8 318.7 319.8 321.3 322.8 324.1 326.2 324.4 323.1 321.3 319 316.4 312.3 307.8 302.8 300.2 298 296.9 296.2 294 291.7 289.2 287.2 292.1 291.4 284.6 275.2 270.1 261.9 268.2 275 276.8 277.9 279.4 276.8 271.2 274.3 275.3 277.2 276.2 278.5 285.5 288.6 290.8 294.5 299.8 305.8 303.6 306 310.9 314.7 317.1 319.7 321.7 322 323.5 326.8 331.5 335.9 340.3 342.9 342.1 347 348.1 352.7 356.5 361 368.1 375.2 381 386.4 393.4 397.4 399.9 402.7 405.8 407.9 408.7 407.8 403.7 397.7 388.8 380.8 377 372.6 369.3 366.2 363 355.9 347.6 344.2 347 349.2 352.5 353.4 353.8 359.6 366.1 370.7 375.3 379.1 385.4 390.4 395.8 400.3 403.8 404.2 404.2 407.8 412.2 416.4 419.1 420.9 422.9 424.4 427.6 428.3 430.2 430.1 425.8 418.6 410.4 401.5 392.3 382.6 375.5 367.3 360.7 345.1 329.9 349.7 354.9 355.8 355.6 352.1 349.4 344.6 338.2 330 322.4 316.4 309.4 296.6 282.7 262.6
335.9 329.1 317.6 309.6 304 301.2 299.1 295.9 293 290.4 287.8 284.4 280.4 276.2 272.1 266.1 257.2 243.1 223.9 215.9 231.1 240.3 240.7 240.6 239.9 242.9 248.6 249.7 252.2 252.4 253.4 253.9 249.7 245.9 255.2 269.1 275.6 281.2 286.9 291.9 295.5 297.8 299.3 302.5 306 307.7 310.5 311.8 314.5 316.4 317.3 317.6 318.5 318.9 318.7 318.6 318 316.3 316.5 318.1 320.1 320.5 319.3 315.9 315.2 311.4 308 305.4 302 299.9 299.3 298.6 297.1 297.3 296.9 295.2 290.2 283.3 290.6 291.2 283.5 276 269.2 262.3 266.2 271.5 273.7 273.5 272.3 269.8 267.9 269.5 272 276.6 280.2 282.5 285.7 289.5 293.4 298.9 307.7 311.7 313.8 312 309 310.5 312.4 315.8 317.8 316.2 319.7 321.3 325.3 330.6 335.1 335.8 339.4 343.4 346.6 349.7 353 357 359.7 372.4 383.3 388.6 391.9 395.3 400.7 405.1 408 408.5 408.8 406.5 399.1 394.8 385.6 377.6 373.3 369.4 365.5 362.3 358.7 354.2 346.6 345.2 339.2 345.3 347.1 347.9 350.4 357.6 361.2 363.4 369.8 373.2 376.4 383.7 389.7 393.5 399.1 399.7 399.6 404.9 409.9 414.7 418.7 421.9 424 425.4 426 426.5 427.4 428.6 425.9 418.9 410.9 401.6 393.8 381.4 375.7 366.7 356.5 331.5 347.9 358.2 361.8 363 361.7 360.8 358.4 356.9 352.6 345.8 336.8 327 320.4 315.2 305.2 295
331.5 323.9 315.6 311.6 311.5 307.9 303.8 299.8 297 294.2 290.7 286.8 282.9 278.3 273.9 267.8 256.9 242.6 222.8 216.5 220.1 237.6 237.8 237 236.2 236.7 240.5 244.2 245.8 246.7 247.2 239.3 237.2 245.6 260.7 266.7 274.9 280.7 286.5 290.3 294.4 297.4 300.1 302.6 304.3 307.4 311 314.4 315.3 317.6 318 318.5 319.1 319 318.2 317.8 316.8 313.9 314 313.9 315 315.2 313.5 311.3 309.8 307.5 302.9 300.7 299.9 299.1 299.3 299.9 300 301.5 302.2 301.2 297.4 287.2 283.6 292.9 283.6 278.2 273 265.3 261.9 267.1 267.7 267.2 265.9 271.3 273.8 276.5 269.7 276.4 281 283 285 291.5 297.5 305.6 311.6 314.2 316.2 317.2 315 312.6 311 312.2 312.8 316.6 317.6 317 320.9 328 328.7 331.8 336.9 341.1 344.5 346.8 351 356.4 362.8 369.9 377.7 382.7 390.7 396.8 401.9 406.4 408.8 407.9 407.4 404.6 398.1 389.2 381.5 373.5 369.7 366.2 362 358.3 354.9 350.9 346.2 340.2 332.4 340.5 343.9 342.1 346.1 349 353.7 361.6 363.8 369.2 372.8 376.3 379.4 385.9 392.1 393.9 397.9 404 408.5 412.7 417.5 422.4 424.8 425.4 425.4 424.2 424.9 425.6 424.4 419.2 411.3 402.7 394.2 379.6 374.7 362.5 345.3 339 363.7 368.7 371.6 371.7 369.1 368.2 368.5 367.8 366.9 361.5 354.1 345.6 334.6 325.6 322 315.9
327.6 325.3 323.5 322.8 321 316.1 311 305.1 301 297.3 293.6 290.4 286.3 281.6 276.9 269.1 257.1 241.4 225 216.2 218.5 230.7 233.1 234.3 234.1 234.7 237.2 239.1 239.7 240.8 235.8 234.1 246.6 254 259.4 265.3 273.7 281 285.1 289.5 294 294.8 297.4 300.4 302.7 306.5 310 315.1 317.3 318.9 319.1 319.2 319.1 319 318.4 317.7 316.1 312.8 311.9 310.7 310.4 310.1 308 306.2 303.4 302.1 300.3 298.9 298.2 298.2 300.7 302 304.5 305.6 305.3 304.7 301.1 293.5 277.6 291.9 281.2 275.6 270.3 263.5 259.9 263.8 264.1 263.3 270.8 277 283.1 278.7 272 274.2 278.9 282.7 284 290 296.3 304.5 309.4 311.9 311.8 310.8 307 304.4 304.1 305.7 303.9 311.5 313 314 316.1 320.7 316.4 329.2 333.6 338.2 342.8 346.4 350.7 356.2 363.4 371.4 381.9 387.4 392.8 397.9 403 405.3 405.6 405.7 405.4 401.4 394.5 385.8 376.9 369.1 365.7 363.3 358.7 355.2 351 346.4 342.5 339.2 334 334.8 337.4 338.7 341.8 344.3 347.7 352.3 355.5 360.8 366 371.3 376 377.9 385.5 389.7 396.6 400.2 407.5 413.6 419.4 424.2 425.9 425.6 423.5 421.4 421.2 422.2 421.9 417 411 402.3 394.7 385.9 374 364.1 349.9 359.1 368.8 373.2 377.1 379.9 379.8 377.1 376.6 377.1 377.4 375.7 370.4 362.2 353.6 343.1 332 329.2
334.2 331.3 332 330.4 327.9 323.2 316.8 310.3 304.1 299.8 296.5 294 290.7 285.8 280.2 273.9 262 244.7 232.7 212.2 215.6 223 228.3 229.4 233.5 234.7 236.5 237.8 236.1 234.7 232.2 235.3 243.7 253.3 261 269.6 278 284 289.1 293.7 297.7 301.4 303 305.9 309.8 312.8 314.2 316.4 317.9 319.4 319.3 319.6 319.5 319 318.5 317.4 315.6 313.6 309.1 307.5 306.8 305.6 304.7 301.9 300 298.1 297.5 297.8 297.4 298.6 300.4 302.8 305.4 305.9 305 303.9 298.9 292.5 277.7 283.1 277.3 267 265.1 261.1 261.8 263.2 267 270.7 277.8 281.4 283.1 281.3 278 272.7 277.2 281.4 284 286.7 289.8 294.3 298.3 299.7 299.1 298.3 298.4 299.3 299.7 300.6 298.3 304.2 306.4 308.5 307.4 314.1 321.9 330 334.5 338.6 344.1 348 351.7 355.6 362.1 368.9 376.6 384.3 391.9 397.5 400.9 403.3 403.7 404 403.1 398.7 391.3 381.4 372.3 365.9 363.2 360.6 356.5 352.7 347.5 343.4 339.7 336.8 333.7 330 333.6 335.2 337.7 339.6 342.1 345.4 349.2 353.5 359.7 365.5 369.6 374.5 379.3 385.5 392 398.6 403.7 412.4 418 423.4 425.8 424.4 422.1 418.8 418.2 418.6 418.6 416.2 409.3 402.6 394.6 386.9 374.5 366.4 357.8 364.8 371 374.8 380.2 384.2 386.8 388.5 385.9 385.1 385.8 386.6 384 379.6 369.2 359.2 349.1 339.6
341.4 338.6 338.7 336.7 332.3 328.2 321.9 314.1 305.8 302.1 298.9 296.2 294.5 290.4 284.5 277.8 268.6 252.3 239.9 227.4 214.9 215.5 223.6 231.3 232.1 234.7 238 236.3 226.2 227.6 240.7 248.5 251.8 257.4 262.7 271.7 279.9 285.9 290.4 294.1 297.8 302.1 303.1 306.6 309 312.6 314.9 317.8 319 318.9 319.5 320.1 320 319.3 318.4 316.7 316.4 314 311.4 308.1 305 302.1 301.7 299.4 296.6 294.9 294.2 293.9 296.3 297.6 299 302.1 304.5 304.2 303.5 300.1 293.7 287.5 278 271.2 270.1 263.2 261.1 259.3 262.9 268.2 274.7 277.5 279.3 281.1 282.4 283.4 280 273.6 277.1 280.9 282.7 286.4 287.7 288.7 290.8 292.6 292.8 292.9 293.5 295.8 295 296.7 306.3 301.8 302.8 303.9 310.4 318.1 325.5 330 335.8 340.5 344.2 347.9 350.4 353.9 357.6 363.2 367.7 378.2 387.1 394.2 398.3 401.3 401.8 402.4 400.9 395.5 385.4 376.4 367.7 361.8 359 358 354.1 348.9 345.3 341.6 338 334.6 331.3 328.2 329.9 331.2 332.4 334.8 337.9 339.9 344.1 348.1 352.8 358.1 362.4 367.3 373.8 380.2 386.7 394.1 402.1 409.6 416.1 420.7 423.7 423 420 416.3 414 414.6 415.1 413.6 407.4 401.8 393.7 384.8 373.9 362.7 368.8 370.8 370.6 377.9 381 386.6 391.1 394.1 396.4 395.1 392.3 393.2 393.3 389.6 381.3 371.9 362.3 352.6
344.7 343.6 342.4 340.3 336 330.7 323.1 316.3 308.9 304.3 301 299 296.5 292.8 287 280.5 269.2 255.8 248 239.4 217.8 212 225.9 233.2 234.1 232.8 232.8 226.6 222.8 237.3 241.5 246.7 251 257.2 266.9 275.3 280 286.9 290.7 295.5 300.2 301.1 304.2 307.5 310.1 314.7 317.2 317.8 319.8 320.2 320.4 321.2 321.3 319.8 318.9 316.6 315.6 313.8 310.9 308.5 305.3 303.2 300.1 295 294.3 292 291.5 291.9 294 296.1 298.3 300.4 301.9 302 296.9 293.6 289.3 282.8 278.2 270.1 262.4 260 260 257.9 264.6 270.6 274.9 275.9 278.4 280.4 282.9 282.7 280.3 275 278.1 279.2 280.9 282.1 283.6 286.1 288.4 287.6 287.1 286.7 288.3 291.2 292 294.3 298.5 297.5 299.8 303.3 306.3 314.2 321.3 328.4 333.8 339.1 343.3 345.9 348.4 350.5 353.5 359.4 363.5 372.7 381.3 390.3 396.8 399.9 400.6 401.1 399.3 391.3 384.3 373.6 364.5 357.9 355.4 355 352.2 345.8 341.4 337.4 335.4 332 328.4 325.2 327.3 333 333.3 331.2 334.5 337.3 340.8 344.3 349.1 352.1 356.9 362.1 367.8 375.2 382.3 389 395.9 403.4 410.4 417.4 420.1 421.3 417.7 415 412.1 411.5 411.8 410.7 406.2 400.6 392.8 381.6 379.8 372.2 375.4 375.3 379.4 381.1 383.7 388 392 396.5 400.9 403.5 402.8 399.4 400.2 396.6 389.9 381.2 371.3 361.5
347.7 346.5 344.4 341.3 337.6 331.2 323.9 317 311.3 307 303.7 301 298.4 294.4 288.1 280.5 266.8 257.2 251.8 243.9 233.2 208.9 212.3 232.2 232.5 228.1 227.3 223.6 232.6 235 238.8 242 246.9 253.1 263.4 273.5 281.4 288.9 293.7 297.4 300.9 303.1 305.8 310.8 314.1 316.1 318.2 319.5 320.1 320.6 320.8 321.9 323.2 322.3 320.5 316.8 314.8 312.3 310.1 307.2 305.5 304.2 301.7 297.2 291.2 288.9 286.8 288.6 291.2 292.7 295.6 296.9 297.1 295.2 290.8 289.5 284.3 279.1 273.6 266.8 261.3 258.9 256.9 262.9 267.9 274 275.4 275.7 278 281.2 283.9 283 282 281.1 277.8 279.3 279.1 280 283.4 284.9 285.1 285.3 287.8 289.8 293.2 297.3 301.5 299.7 302.9 307.2 310.8 309.2 306.5 306.7 315.1 322.2 324.6 330.4 342.7 346.5 349.4 353.2 355.7 359.8 365.3 370.7 376.2 384.2 394.2 397.7 399.6 399.7 398.6 394.2 385.7 374.5 365.8 356.9 352.4 351.6 349.5 344.1 339 335.2 332.2 330.7 327.1 320.7 323.3 328.3 331.4 334.6 333 335.4 338.5 341.9 345.7 349.3 353.3 357.2 363.1 370.4 375.3 382.2 390.9 396.3 404.9 412 416.2 417.7 415.5 412.7 410 408.3 408.3 407.2 404.2 397.2 387.9 388.1 388 381.8 381.7 382.2 383.7 386.2 390.1 391.1 392.5 398.2 402.6 407.4 409.3 407.5 405 401.6 396 387.8 376.5 366.3
349.3 348.3 345 341.2 335.9 329.8 323.5 317.6 313.3 309.3 306.3 303.2 300.1 294.3 287.1 275.8 264.2 258.5 252.5 246.4 236.7 211.8 210.2 226.6 223.5 224.5 219.7 224.3 232.8 236.2 239.4 243.2 247.7 254.8 267.2 274.3 284.3 293.1 297.3 298.5 300.8 304 308.8 314.7 316.5 317.7 319.4 320.2 320.3 320.4 321.5 322.5 323.6 323.6 321.4 318.1 315.4 311.6 310 308.3 306.2 303.9 301.4 296.8 293.3 291.8 288.5 283.8 287.7 289.2 290.1 290.6 290 286.3 285.2 284.8 280.4 275.3 268.6 262.5 259 258.1 259.4 265.4 271.8 275.5 277.3 278 279.2 279.9 284 285.6 285 284.2 284.3 283.4 282.4 283 284.1 284.8 286.6 288 290.6 293.5 297.8 301.7 310 316.8 316.4 314.9 317.2 318.1 316.1 311 316.7 325 333.8 339.6 343.5 346.4 349.3 353.5 356.5 362.3 368.6 374.4 379.7 387.3 393.6 396.1 397.9 397.4 396.6 392.8 385.2 375.2 364.4 355.6 350.2 349.1 346.3 342.3 337.1 333.5 331.5 328.2 324.3 321.4 321.4 326.6 340.1 339.5 336.1 334.2 338.1 340.5 343.3 346.7 349.8 353.5 358.9 365.1 370.4 378.1 389.1 393.4 398.9 405.9 411.7 413.3 413.8 410.7 407.6 405.5 405.1 404.3 402.3 395.5 390.1 400.5 394.4 388 390.3 392.5 393.7 394.4 395.7 397.9 399.5 401.6 403.3 408.2 412.2 413 410.4 406 399.8 392.7 381.7 371.5
349.3 347.8 343 338.6 333.1 328.5 324 319.6 315.5 311.9 308.2 303.8 297.8 288.1 280.9 269.9 262.6 258.2 244.9 247.6 239.5 212 210.1 218.2 217.6 215.6 221.6 232.3 235.9 239.5 243 248.7 256.8 263.7 270 277.1 286.6 294.6 299.4 301.1 302.8 305.6 311.5 316.8 319.1 320.2 320.8 321.2 321.7 321.7 322 321.9 322.2 321.4 320.4 318.4 315.5 312.8 309.8 307.1 305 303.4 301 298.2 295.7 293 289.6 282.5 282.5 285 285.6 285 284.2 281.6 280.4 281.2 277.5 272.8 264.8 260.1 257.5 255.2 262.9 268.7 275 275.6 277.6 279.5 281.9 284.3 287.6 289.4 287.4 287 287.3 286.5 285.2 285.6 286.2 287.5 289.6 292.5 294.3 298.3 306.9 310.9 317.6 321.6 324.4 326.1 326.3 325.3 322.8 318.3 315.4 328.4 336 340.8 344.6 348 351.4 358.8 365.8 372.3 378.5 383.4 387.3 391.3 393.9 395.2 396.4 395.5 394.1 391 382.4 372.4 360.8 354.2 348.3 345.6 343 339.6 334.7 331.6 328.6 326 322 316.7 321.7 333.2 340.3 342.6 338.5 337 337.8 339.7 342.2 344.9 347.7 350.1 355.4 360.1 365.7 373.8 381.1 387.7 393.8 400.1 406.3 409.8 410.8 408.5 406.3 404.6 401.1 401.9 399.3 392 399.2 400.4 396.4 397.3 398.8 400.3 402.6 404.3 404.4 405.5 404.6 407.5 409.4 411.2 412.9 414.8 413.9 408.9 402.6 394.7 385.8 370
347.8 345.6 340.3 335.2 330.6 327.4 324.1 320 317.1 311.4 305.5 295.6 284 277.8 270 265.4 248.7 251.4 254.7 253.7 236.3 208.4 209.6 211.8 214.5 222.1 229.2 233.5 238 242.3 247.5 263.4 264.6 268.7 275.8 283 290.7 297.2 300.9 303.3 306.2 309 314.3 318.7 321.5 321.8 322.3 322.2 322.6 322.2 322.8 322.7 322 321.2 320.7 318.9 317.8 315.1 308 305.5 303.9 302.6 300.5 298.3 295.8 292.9 290.3 283.8 276.8 280.5 281.4 281.6 279.7 276.8 277.6 278 275.1 271.5 263.3 257.3 256.9 258.5 268.4 272.1 274.3 275.5 279.2 281.5 284 287.4 289.9 292.6 292.3 290.8 290.2 290.7 289.5 289.3 289.7 291 292.5 296.5 300.5 307.4 314.1 319.1 321.7 324.6 329 328.9 329.8 329.6 328.7 327.8 325.7 323 331.4 341 345.1 350.8 356 363.6 373.2 381.3 386.4 389.7 390.4 392.7 394.3 393.7 394 393.7 391.9 387.2 377.9 369.6 359.7 352.8 348 343.4 341 337.3 333 328.8 326.3 322.8 318.6 311.4 326.2 333.9 339.5 342.3 340.8 339 339.1 340.2 342 344.1 346.6 348.5 351.9 356.9 362.2 373 375.8 383.3 388.7 394.1 400.6 404.7 407.3 407.5 405.3 403.4 400.9 398.4 395.6 395.9 406.5 401.5 403.3 405.7 407.8 410 410.6 411.4 412.6 413.2 413.9 413.3 413 415.1 414.9 414.7 413.9 410.8 404.3 396.2 388.2 380.1
346.3 342.8 336.5 332.7 329.5 325.5 321.7 317.2 311.2 305.2 295.4 283.6 278.1 272.1 267.6 250.4 251.3 257.1 255.6 249.1 230.3 205.7 210 212.5 218 223.5 228.5 234 239.8 244.3 250.1 259.3 270.2 261.2 280.7 288.8 296 299.7 301.7 304.6 307.5 311.9 316.5 320.5 323 323.5 323.9 323.7 323.1 323.1 323.6 323.4 322.4 321.5 320.9 319.3 317.8 315 307.6 305.6 304.1 302.1 300.5 298.7 296.2 294.4 292.1 289.7 279.1 275.2 276.8 276.5 275.3 273.2 274.4 273.4 272.7 270.4 262.7 254.8 255.7 258 264.1 263.5 264.7 271.4 279.3 283.2 285.6 289.2 292.4 294.6 295.7 295.5 295 295.9 294.8 296.3 295.2 297 300.4 304.7 310.8 314.4 319.2 321.6 325.4 330.3 331.4 331.4 332.6 333.1 334.7 333.1 332.8 333.5 340.7 340.1 346.9 352 358.7 366.8 374.2 383.9 387.7 390 391.9 393.8 393.3 392.3 392.3 391.8 388.4 385.7 376.1 366.4 358.2 351.9 346.6 342 338.5 335.8 331.5 326.7 321.7 318 312.5 314.8 328.4 334.2 338.1 340.2 340.8 339.6 340 341 342.5 344.4 346.7 350.1 351.9 354.6 359.3 366 371 376.1 382.4 389.2 395.2 401.5 405.5 405.6 403.9 401.8 399.9 395.6 397.4 402.3 405.3 409 411.6 413.5 414.5 418.2 419.2 419.9 420.8 419.5 421 420 416.8 415.9 415.6 413.4 412.3 409.7 404.7 396.9 388.1 378.4
345.2 340.4 334.4 330.6 327 322.6 318.3 312.9 305.9 296.1 285.2 277.7 273.8 269.3 254.6 258.6 254.8 257.3 253.7 244 225.8 207.8 211.5 214.9 221 226 228.7 235.8 242.3 245.8 253.8 262.3 270.3 261.3 286.2 294.5 298.6 301.3 303.9 306.1 310.3 314.4 320.6 323.7 324.8 325.3 326 324.7 324.2 324.3 324.1 323.9 323.6 322 320.3 319.7 316.7 313.1 310.1 307.5 305.3 303 299.5 298.4 297.3 295.8 293.9 291.3 288 277.3 271.9 268.8 269.5 267.8 270.2 268.3 268.8 269.6 263.4 254.4 255.2 256.3 264.7 270.9 275.4 277.1 273.6 272.1 271.3 280.1 292 295.3 296.4 296.4 297.4 297.4 297.9 300.4 301.3 301.9 305.5 310.9 315.3 319.2 323 325.3 329.9 331.4 333 334.3 336.4 337.7 338.3 337.4 338.2 335.7 345.8 349.5 354.3 360.5 365.4 372.9 379.4 384 387.1 389.5 391.5 392.1 391.7 391.1 391.1 389.3 386.7 381.6 370.8 362.6 355.7 350.9 344.8 339 336.2 333.3 328.8 324.7 318.1 314.6 309.9 322.5 330.1 333.3 336.1 338.3 339.1 340.3 340.6 341.7 343 344.6 348.2 350.2 352.3 355.1 358.2 361.9 364.5 371.2 376.6 384.8 390.6 397.5 402.3 404.8 404 402.8 400.6 399.6 397.4 403 407 410.8 415.6 419.8 422.9 425.1 426.5 427.9 427.1 427.4 426.1 425.1 421.8 416.7 415.7 412.8 410.3 407.9 404 396.2 386.3 377.8
343.1 338.5 334.6 330.3 323.9 315.1 310.1 304.2 296.6 287.2 279.1 274.7 269.8 257.8 259.5 262.8 254.4 250.2 242.8 236.4 219.3 207.7 209.8 214 222.8 224.4 228.5 236.8 242.4 247 256.1 265.8 267.2 283.7 291.2 298.7 302.4 303.9 306.9 309.2 314.6 319.2 325 327.1 325.3 328.1 327.1 326.3 326.1 327.3 325.1 324.6 323.7 323.3 322.4 319.9 315.9 312 310.3 308 305.3 302.6 300.4 297.6 296.6 294.8 293.6 291.6 290 288.5 284 275.9 269.9 263.9 264.4 265.1 264.3 266.9 265.7 250.8 254.8 263.4 268.2 272.7 276.6 278.8 281.1 284.4 288.5 292.7 280.7 291.2 292.8 295.8 298.1 298.4 299.6 301.3 303.2 306.3 309.3 313.5 318.7 322.7 326.1 327.9 331.1 334.7 338.4 341.2 342.8 343.6 345.2 343.5 344.3 348 348.7 357 362.5 368.3 374.3 377.9 381 384 387.3 389 390.9 390.3 390.2 389.9 388.5 386.8 383.9 378.1 368.5 360.3 354.3 348.9 344.8 338.3 334.7 331.4 326.2 320.7 315.1 310.8 314.9 324 328.7 330.8 333.9 335.4 337.2 337.7 339.6 338.7 338.9 342.3 344.6 350.6 359.3 366.6 370.6 374.7 377.7 369 371.6 380.6 385.6 391.9 397 402.9 403.5 403.4 402.6 402.4 400.8 401.8 407.4 411.1 415.6 420.9 425.2 428.8 431.2 433.4 434.2 433 431.4 428.3 424.7 419.9 413.8 412.8 408 405.8 402.6 394.7 385.6 377.7
342.4 337.9 333 327.1 324.3 319.5 310.3 301.9 288.8 280.7 273.7 268.5 263.5 259.4 253.9 247.8 243.5 235.4 229.5 220.6 210.7 207 208.1 212.9 220.5 221.3 226.7 236.2 242.1 247.9 256.1 265.2 277 285.4 294.4 302 306.4 306.9 309.3 313.3 320.1 324.3 328.6 330.8 331.4 330.1 329.8 329.5 328.8 327.7 325.6 325 324.3 323.4 321.9 319.8 316.9 312.9 310.8 307.9 305.1 302.8 300.2 297.6 296.2 295 294 292.8 291 288.1 285.4 282 275.7 270.7 261.2 261.5 260.7 265.1 253.1 253.7 255.3 266.1 270.7 274.8 278 280.5 285 289.9 294 296.5 295.8 295.5 296.6 294.3 298.4 300.5 301.6 303.6 305.8 308.6 312 316.1 321.5 325.6 328.5 332.9 337.5 341.1 345.5 349.7 352.1 351.5 352.5 349.3 351.9 354.2 356.7 358.9 369.3 374.2 377.9 382.3 387 389.4 390.7 391.4 390.9 390.6 388.7 387.7 386.5 384.7 378 371.6 363.7 357.3 351.7 347.7 343.4 338 332.2 328.1 323.8 317.2 312.7 308.9 320.5 323.5 326.3 327.8 330.7 332.1 334.5 333.4 336.8 341.7 345.3 346.6 346.3 352.4 357.6 364.9 369.4 373.8 379 383.2 385.2 375.8 384.7 388.3 393.2 398.8 402 403.5 404.1 404.6 404.6 404.6 406.2 410 414.6 420.4 424.8 429.2 432.5 436.2 438.2 437.5 435 431.9 426.3 421.5 415.2 411.9 407.2 402.9 400.6 394.3 386.3 378
341.8 338.9 335.8 332.1 327.7 322.5 316.1 309 297.8 287.3 278 273.7 269.7 262.1 259.9 254.6 244 231.7 222.4 217.5 210.5 205.6 207.2 212.3 219 222.1 227.5 236.3 241.3 246.6 253.4 263.1 275.5 287 296.7 304.7 309.1 310 312.9 320.7 325.7 329.7 332.6 333.6 333.8 331.3 331.3 330.5 328.5 327.5 326.1 324.8 323.6 322 320.4 318.9 317.2 314.6 312 310.9 308.3 303.7 301.2 298.3 293.7 291.3 291.7 290.4 288.3 284.1 282.2 280 276 270.2 267 256.7 259 260.8 253 254 261.8 266.8 271.9 276.1 280.3 285.4 290.1 295.2 299.4 301.9 300.1 298.5 299.4 299.7 296.7 302.5 304.6 305.8 308.5 312.5 315.6 319.4 323.4 327.6 335.5 343.8 350.3 352.9 354.3 356 357.7 357.7 358.1 357.4 356.4 359.7 363.1 368.8 372.9 377.7 383.2 388.6 393 395.9 397.1 397.1 395.5 392.8 389.4 385.3 384 382.1 378 368.2 359.9 354.5 349.6 346.1 341.8 336.9 330 325.8 320.9 310.8 303.6 315.1 319.5 320.6 321.8 322.6 323.7 325.4 332.9 342.8 348.4 353.1 352.7 350.7 352.4 352.4 353.9 361.6 366.3 371.5 378.3 383.2 387.9 390.5 382.8 388.3 393.4 396.7 401.9 404.5 405.4 406.7 408.2 408.8 408.9 407.6 413.7 418.6 423.7 428.4 432.9 436.2 439.2 440.3 438.1 433.9 428.9 422.7 417.3 411.2 407.8 403.8 400 395.1 386.5 368.6
346.4 343.5 339.7 336.2 331.4 324.3 318.9 312.5 302.1 290.6 281.2 277.1 273.7 268.7 266.3 260.5 253.7 240.2 222.5 217 210.6 202.7 205 209.5 216 221.3 225.5 233.4 241 245.9 252.3 259.6 274.9 287.1 297.8 306.5 311.4 312.6 318.9 325 327.1 333.6 336.2 335.9 335.2 332.9 332.4 331 329.7 328 327 325.4 323.4 322.2 320.6 319.3 317.9 314.8 312.9 312.4 309.7 304.7 300.6 298.2 296.2 292.8 288.1 279.3 282.3 281.2 278.5 276.7 273 269.1 270 261.1 253.3 252.8 252.7 257 264.5 270.1 273.5 277.4 283.2 289.4 295.1 299.7 304 306.4 305.4 303.6 302.3 302 302.7 301 306 308.4 310.9 313.7 317.6 321.6 325.6 333.4 343 349.9 356.4 359 360.3 361.2 362 363 362.1 363.9 361.9 365.5 369.5 373.9 378.7 383.2 388.1 392.9 396.8 399.4 400.2 400.8 399.3 396.7 392.7 386.1 382 373.1 372.6 366.9 359.7 351.9 347.3 343.1 339.3 333.8 327.4 322.5 316.5 307.5 303.3 312.4 314.7 317 318.1 325.5 335.7 346.7 356.1 362.3 364.1 365 365.1 361.1 359.2 358.9 359.1 354.1 361.9 372 379.8 385.8 388.4 391.5 393.2 392.1 393 396.5 399.2 403.1 406.9 409.1 410.8 412.5 413.3 413.5 412.7 415.4 421.3 426.1 431.2 435.4 438.3 440.6 439.5 436.4 431 424.4 418.3 413.2 407.4 403.4 399.7 395.9 391.8 388.2
353.6 350.4 344.9 342 337.1 328.2 321.9 315 306.5 294.3 284.8 279.6 276 272.7 269.9 264.7 254.9 240.5 224.5 216.2 208.2 205.3 206 208.7 213 224.5 219.3 229.9 238.9 244.8 252.4 260.9 272.8 287.7 298 306.4 312.6 316.4 322.4 329.1 334.5 336.9 338.2 337.5 336.3 334.7 334.1 332.2 329.8 328.2 327.1 326.1 323.9 323.1 320 318.4 316.8 315.1 313 311.8 309.1 304.5 301.7 299.1 295.8 292.5 288.7 285.2 276.5 273.7 273.3 273 269.5 269.5 269.2 264 251.8 251.3 254.8 260.6 265.7 271 274.9 278.5 286.4 293.1 298.7 304.5 307.6 308.3 307.6 306.9 304.9 304.5 305.3 301.5 305.1 309.2 311.2 314.4 318.3 321.5 327.4 338.7 347.8 354.5 358.5 361.4 364.3 366.2 368.8 368.9 369.8 369.8 370.1 368 373.8 379 384.1 389.4 392.5 395.2 397.9 399.9 400.9 400.9 400 399 394.2 388.3 381.3 377 363.1 357.8 353.9 348.5 343.7 340.2 336.7 331.9 325.8 319.9 315.3 305.1 302 302.1 311.3 316.4 322 340.2 350.9 359.6 363 365.9 368.7 371.3 373 373.4 371.9 369.2 367.7 366.1 365.6 368.4 376.9 383.2 387.4 391.2 391.9 392 393.5 396 397.5 402.5 406.3 409.9 412.6 415.3 416.2 416.9 417.3 417.1 419.1 425.1 427.1 432.5 437.1 439.1 440.3 437.2 432.7 425.7 419.8 414.5 409.6 404.7 402.7 399.1 396.3 395.2
359.9 357.1 352.8 346 342.2 334.4 326 318.9 310.1 293.2 289 281.4 278.5 274.3 271.1 267 258.5 239.1 221.9 214.4 206.2 205.2 205.2 206.3 213.7 220 219.3 224.7 237.2 244 253.5 262 271.3 287.4 298.1 306.4 312.3 317.5 324.3 331.2 337.1 339.4 340.9 338.5 336.9 335.7 334.2 332.6 330.3 328.7 327.3 326.1 324.6 323 320.5 317.5 314.6 311.9 311.1 310.1 307 303.9 302 298.7 294 290.5 287.8 284.7 279.4 272.6 268.1 268.9 267.2 265.6 267.4 258.8 251.1 250.1 263.6 267.5 267.7 271.7 275.9 280 287.7 295.8 303.1 306.6 308.4 308.7 308.4 308.7 308.2 307 307.7 307.5 308 309.9 311.2 313.9 318.3 323.9 331.5 340 349.7 355.1 358.6 363.4 368 372.5 375.4 376.1 377 376.8 377.1 376.4 378.7 383.7 388.8 393.2 396.1 398.2 399.4 400.4 400.7 400.6 399.6 397.6 394.2 388.7 382 376.2 370.8 355.6 350.4 344.2 339.5 336.9 333.7 329.6 323.6 317.3 312.1 302.7 299.5 312 316.9 323.5 325.6 340.1 352.2 357.5 362.2 369.9 376 379.8 381.7 381.9 381.3 377.9 376.1 375 372.4 371.7 372.7 378.8 383.6 387.7 389.3 390.9 392.9 395.4 397.2 399.5 405.4 409.6 413.3 416.1 418.7 419.6 420.4 421.3 420.7 423 426 430.5 434.2 437.7 439.1 437.8 434 428.6 422.8 418.2 413.7 408.9 406.9 401.1 399.6 399.6
363.9 360.4 356.1 348.9 345 338.2 328.5 321.9 313.5 301.3 288.7 283.2 279.7 276.3 272.6 269.9 262 239.5 219.6 211 206.3 204.4 200.8 212.7 214.9 220.5 219.3 222.6 235.2 243.4 252.1 260.8 272.5 286.2 297 305.8 313 318.2 325 332.7 338.9 342.4 342.8 340.5 337.6 336.2 334.2 332.4 330.7 329.3 328 325.5 323.3 321 318.1 314.7 311.2 307.9 307.6 306.6 304.7 302.5 299.6 295.6 290.8 289 287 284.6 278.8 275.3 266.6 265.3 264.9 263.7 265.5 253.8 250.4 251.4 263.9 271.1 271.5 273 276.8 280.8 287 294.1 301.3 307.1 308.3 309.5 310.3 309.7 309.6 310 309.2 308.9 309.3 310.8 313.1 317.4 319.9 325.1 333 341.3 348.4 354.6 359.3 366.2 372.1 377 380.6 382.6 382.4 381.5 382.6 381.3 384.3 387 392.4 395.1 397.7 398.8 399.9 400.7 400.1 400.1 399.1 396.4 393 387.9 381.2 373.4 359.9 356 349.2 343.6 336.6 333.2 330 325 319.2 313 309.4 300.7 298.8 311.2 317 323.1 331.6 342.6 350.4 358.2 368.4 377.1 383.4 386.7 389.3 389.6 388.9 387.5 383.9 381.4 379.7 378.4 377.6 374.7 379.4 382.6 387.9 391.5 394.5 396.1 396.9 399.5 401.7 407 412.8 416.3 418.6 420.5 421.4 423 423.9 423.4 423.1 427.3 431.5 435 437.8 438.5 435.4 432.3 427.3 422.9 418.5 413 409.2 407.6 404.5 404.2
364.7 362.4 357.6 352 348 341.4 331.1 323.3 313 300.1 288.9 283.9 281.1 277.8 274.7 270.9 262.2 238.7 216.6 208.4 204.6 203 207.8 211.9 215.4 219.3 219.3 219.3 231.9 242.2 251.9 261.4 272 286.7 297 306.4 312.4 318.8 326 334.8 340.8 342.9 343.4 341.8 338.1 336.8 334.8 332.9 331 329.7 328.1 325.6 323 321.2 320.2 317.8 315.6 312 307.3 299.5 298.2 297.1 294.2 290.2 286.8 284.8 280.8 281.8 277.5 269.8 265.8 260.8 263.8 262.5 263.8 256.7 249.8 250.3 261.9 267.3 269.5 272.2 276 280.1 286 294.1 301.6 305.9 308.1 308.9 310.6 310.4 310.3 310.1 310.1 310.8 312.1 313.5 315.9 316.9 322.9 328.4 334.4 342.5 349 354.4 360 367.7 374.1 379.6 382.8 384.5 385.9 386.7 387.1 386.2 388 391 393.7 396.2 398.2 399.3 400.3 400.6 400 399.6 398.6 395.5 391.8 386.8 380.3 371.7 358.2 349.9 344.5 340.8 335 329.6 325.3 321 315.5 309.7 305.7 297.1 303.1 310.6 317.9 328.1 337.2 344.9 352.2 362.6 370.1 379.5 384.6 387 389.8 392.1 393.6 392.6 391.6 388 385.4 383.6 382.3 381.4 381 383.3 387.2 391.7 396.1 398.6 399.2 399.8 401.2 402 410.8 415.7 417.5 419.9 422.4 423.7 425.1 426.5 425.4 425.3 428.3 432.3 435.5 437.2 436.9 434.4 430.4 426.8 422 419.2 414.8 411.5 410.8 409.1
366.3 364.1 360.2 354.8 350.6 342.4 332.1 322.6 312.6 298.7 289.2 284.3 281.2 278.3 273.3 264.7 255.1 232.2 216.2 205.9 203.1 203.2 203.6 212.8 216.8 219.3 219.3 221.5 230.8 242.3 253.5 261.6 271.3 286.7 297.6 307.6 313.9 320.1 327.3 335.7 341.6 343.8 343.2 341.5 339.5 337.2 335.6 333.6 331.7 330.1 328.3 327 326.3 325.7 324.9 322.1 318.2 314.3 311.5 304.8 297.1 290.6 288.7 286.2 280.2 276.7 282.5 277.2 272.1 267.7 264 259.9 258.8 262.1 262.6 260.2 249.7 251.3 259.7 264.3 264.9 267.6 274.7 280.3 285.5 293.5 299.4 303.8 307.8 309.1 310.4 310.7 311.2 311.5 312.2 313.7 315.7 318 320.5 321.7 322.8 328.2 335.2 342.9 349 354.1 359.4 367.7 373.5 379.1 382.8 384.8 386.6 388.7 389.7 390.9 392.2 392.3 394.9 396.6 398.4 399.9 400.5 400.2 399.7 398.7 397.1 394.7 391.4 385.9 379.3 371.4 361.9 352.8 341.5 335.6 331.7 326.9 321.6 315.5 311.4 306.8 300 295.3 306.9 312.7 322 332.6 341.2 346.8 357 367.1 374.6 377.7 382.2 384.3 387.1 389.9 392.5 393.9 394.3 392.9 389.4 388.3 386.2 385.3 384.5 385.5 387.5 390.7 395.5 399.5 400.6 400.7 401.4 403 405.9 413.2 416.7 419.6 421.7 423.6 424.5 426.5 426.6 422.6 425.1 428 431.8 434.8 437 436.3 433.3 429.5 426.9 423.3 419.9 415.7 412.2 413.2
368.4 365.9 361.5 356.3 351.8 343 332.4 321.2 309.7 296.9 289.7 284.8 281 278.2 270.8 252.1 238.6 221.6 212.3 202.6 200.9 193.2 208.3 213.8 216.9 223.6 224.7 226.7 233.4 244.6 253.9 261.1 270.7 287.6 299.6 309.2 315.9 322.3 327.7 335.9 340.4 342.9 343.1 341.4 339.9 339 337.3 334.3 332.7 331.6 329.9 328.9 328.1 327.3 325.7 322.4 319.5 314.7 310.4 304 300.9 298.4 295.9 292.4 290.9 288.2 283.5 277.6 271.2 267.5 264.3 260.3 256.1 260.6 259.3 258.2 248.4 249.7 256.1 260.8 259.2 266.2 273.5 279 286.9 294.2 299.1 302.8 305.5 307.4 309.3 310.6 311.9 313.7 315.6 320.6 324.4 326 325.5 325 327.5 328.1 336.3 343.3 347.2 353.4 358.6 365.9 371.5 376.7 381.6 383.6 385.5 388.3 390.1 391.7 392.9 394.3 395.5 397.3 399 399.7 399.9 399.6 398.7 397.5 396.6 394.3 390.8 384.9 378.1 369.8 360.2 348.8 339.8 332.7 328.4 323.7 318.4 312.8 306.1 302.7 294.5 300.3 310.2 316.3 325.2 336 342.1 349.7 362.3 368.6 373.1 376.7 378.8 381.7 384.2 386.5 389 391.3 393 394.4 393.2 391.8 390.8 388.7 388.2 387.6 389.3 391.3 394.5 398.1 400.7 400.8 400.7 402.1 404.9 409.3 414.6 418.6 421.1 422.7 425.2 425.3 426.2 421.3 421 423.4 429.2 433.2 435.5 436.6 435.1 432.2 430.2 428.1 423.2 419.9 415.1 413.3
370.2 367 361.3 357.2 352.3 342.6 331.3 319.2 304.9 295.6 289.2 285 281.7 278.3 265.3 241.8 221.9 212.6 207 200 198.9 201.1 208.5 213.2 216.2 219.9 227.1 234.3 243.1 249.1 254.9 262.7 272.7 288.5 301.2 312 318.7 324.7 328.3 335.7 339.1 342.3 342.7 342.3 341.2 339.8 338.6 336.5 334.6 333.4 331.6 330.1 329.1 327.9 325.9 322.2 319 314.2 308 304.6 303.5 300.2 297.1 294.6 292.2 288.6 283.3 278.1 272.6 267.3 262.3 260.4 252 250.2 247 248.5 246.8 254.9 259.5 266.5 267.5 270.2 276.4 281.4 285.7 291.5 294.6 301.8 304.6 306.9 309 311.1 312.8 315.3 318.8 323.1 325.9 329.4 330.9 333.4 334.9 328.6 334.1 340 347.9 352.4 357 363.7 369 374.2 378.7 382.9 385.3 388 390 391.5 393.1 394.6 396.7 397.5 398.6 399.9 399.8 398.3 398 396.8 394.7 392.6 389.1 383.3 376.2 367.6 357.7 346.4 337.5 330.2 325.1 320.2 313.1 307.6 304.5 298.3 293.9 305.6 311.1 317.9 327.7 337.6 342.7 351.7 361.7 366 368.5 371.9 375.4 377.7 379.9 382.5 385 387.6 389.7 392 395.1 395.4 393.5 392.7 391.1 390.7 391.6 392.2 394.2 396.4 399.1 400.5 400.5 400.3 399.7 405.5 412.9 416.2 419.2 421.7 423.8 424.6 424.2 420.8 417.3 420.1 424.6 427.8 433.4 435.8 436.1 434.1 431.7 428.6 427 421.3 417.1 411.7
372.2 368.2 362.3 357.7 351 340.9 330.6 317.2 302.4 295 289.6 285.9 282.5 277 259 233.9 219.6 209.3 198.1 197.1 197.8 200.6 208.7 213.7 216.1 219.8 223.4 232.8 245.4 256.6 258.8 264.1 273.8 288.8 303 314.6 321.3 325.1 331 334.4 337.6 340.2 342.2 342.6 341.5 339.5 338.4 336.5 334.7 333.1 332 330.5 328.8 327 324.7 321.3 317 311.8 306.9 304 297.7 296.1 295 293.2 290.7 286.7 283.2 279.8 274.4 268.8 262 259.2 249.9 244.5 243.5 249.6 255.2 260.5 262.2 266.9 271.8 269.4 274.8 282.1 287.7 292 295.7 300 303.9 305.3 307.7 309.9 312.9 317.1 321.6 325 328.1 331.3 334.5 336.7 340.5 341.1 341.7 341.2 344.8 350 355.9 361 366.2 370.6 376.3 381.4 385.7 387.2 388.7 391 393.5 396.2 398 400 399.4 400 399 398 396.8 395.3 392.9 390.9 386.9 380.8 372.7 364.2 354 342.5 334.4 328.9 322.7 317.4 310.4 304.6 299.2 292 299.2 306.7 311.2 316.5 327.1 336.2 341.1 347.1 355.1 360.3 362.3 365.2 369.2 374.1 377.2 379.8 382.3 386.2 391.3 393.5 395.2 396.4 395.7 394.3 394 393.5 392.3 391.9 393.1 394.7 396.4 399.7 399.4 398.1 398.8 402.8 408.2 414.2 417.7 420.4 422 422.4 421.3 419.9 413.9 415.1 420.3 423.1 430.2 433.5 435.9 435.4 431.7 427.4 425.6 421.1 415.8 410
374.3 370.2 364 359.3 350.5 339.7 330.5 317.3 302 294.7 289.4 285.9 281.9 274.6 254 228.6 216.3 205.7 193.2 195.6 197 202.1 208.4 213.1 216.1 219.8 223.5 232.3 240.9 253.1 260.5 265.6 273.7 287.4 302.8 314.4 320.7 325.6 331.2 333.3 336.1 338.4 341.3 342.3 343.2 340.7 338.7 336.7 334.7 333.1 331.5 330.3 328.7 326.9 323.9 318.7 313 309.1 304.9 299.4 294 291.4 290.5 289.9 288.2 285 282.2 278.7 272.6 268.3 262.7 258.9 250.9 239.2 244.8 255.3 258.9 262 263.1 266.6 272 277.3 277.6 279 288.5 293 294 297.7 301.6 303.9 307.4 310.9 314.6 319 324.8 327.9 330.6 334.5 337.4 340.6 345.6 349 352.6 354.1 352.9 347.8 351.6 356.9 363.2 368.7 374.6 381.1 384 386.3 388.4 390.9 393.8 396.5 399 400.8 401.3 400.4 398.7 396 394.8 394.3 391.7 386.9 381.8 370 369.2 360.2 349.5 337.8 331.4 325.5 320.7 314.7 308.1 303.1 292.1 294.3 301.5 306 309.7 313.1 316.5 328.1 336.7 340.1 343.8 348.4 353.7 358.8 364.3 370.3 375.4 378.4 384.5 392.1 393.5 393.1 394.1 394.5 396.8 396.4 395.4 393.9 392.6 390.3 391.1 392.3 394.9 400 399.3 397.1 394.3 398.6 405.2 410.8 414.8 418.5 420 419.2 418.6 417.3 410.1 411 416.2 418.7 425.9 430.2 433.3 434 431.5 426.5 423.5 420.2 413.8 409
375.9 372 366 360.3 350.3 339.7 329.4 312.6 299.9 293.6 289.5 286.1 281.6 271.8 246.9 226 212.9 201.2 193.8 195.7 197 202.2 208.2 211.8 215.7 219.6 222.4 228.7 242 250.2 257.7 264.6 271.6 284.2 300.8 312.3 320.5 323.6 327.4 332.8 334.3 337.4 340.1 342.5 343.4 342.2 339.8 337.5 335.3 333.3 331.7 330.1 328.5 325.8 322.3 318.6 314.4 308.7 301 293.8 290.3 285.1 283 282.9 282.6 280.8 278.1 275.6 272.1 267.3 263.8 258.1 248.7 237.5 249.5 255 259.9 258.4 262.2 267 272 277.9 282.4 285.2 283.3 289.3 294.3 297.2 302.2 305.2 308.7 313.3 316.7 322.8 326.6 330.1 334.5 339.1 343.6 348 352.1 357.4 359.9 361.7 360.8 358.3 364.7 365.9 367 370.6 373.4 376.1 381 386.3 389.5 393.7 397.7 399.8 402.8 405.3 405 404.1 402.1 397.6 394.4 391.2 389.6 385.3 376.6 368.8 361.9 341.7 342.1 334.7 326.3 322.9 318.9 311.9 305.3 300.4 285.1 293.6 300.2 305.8 309.3 313.5 317.6 318.9 322 327.6 335.7 344.8 351.1 357.9 362.2 367.9 374.1 380 387.3 391.6 393.8 394.7 395.3 394.4 395.5 396.8 394.8 393.2 391.5 389.2 388.6 390.4 394.7 399.5 398.7 395.4 393.3 394.9 402.8 408 411.3 416.4 419.1 417.6 416 414.4 410.9 406.4 412.7 417 421.3 426.3 430.1 430.7 428.4 423.7 419.7 418 411.6 407
377.3 372.9 366.6 359.9 349.4 339.1 325.6 309.7 299.4 293.5 289.4 285.6 280.3 269.2 246.8 224.2 211.2 190.5 194 195.4 197.4 204.7 206.4 210.3 214.1 217.3 221.4 230 242.3 250.5 255.4 263.2 269.6 278.5 294.3 307 316 320.7 324.1 329.8 333 335.9 339.4 342.4 343.5 343.5 341.8 339.6 337.5 334.5 331.8 330 328.1 325 321.1 317.3 312.5 306.3 300.4 293.4 286 281.4 280 278.8 278.4 278.1 277.4 275.9 273.2 268 263.3 259.1 240.5 236.8 254.5 262.2 263.8 262.9 261.3 265.4 271.7 277.2 282.6 286.7 289.3 292 297.7 302.8 305.1 307.8 312.4 317 321.5 325.7 328.9 334.1 339.8 344.5 349.9 355.3 360.6 363.9 368.1 370.3 369.8 369.1 371.8 373.1 374 377.7 381.3 384.9 387.8 392 395.3 398.3 401.1 404.5 406.1 407.7 408.6 407.9 404 397.7 392.4 390.1 386.6 382.3 374.8 365.8 354.5 349.3 333.5 329.1 323.7 319.2 315.1 309.8 303 290 290.4 296.5 301.5 306.3 310.9 312.8 318.7 324 330.7 338.1 347.5 353.3 360 365.2 369.9 373.4 375.5 380.9 387.3 390.3 392.9 394.3 395.1 394 393 394 394.4 391.6 389.6 386.8 385.7 387.7 392.3 395.3 392.2 389.6 389.3 394.3 402.6 407 409.7 415 418.3 417.2 414.2 411.3 408.5 401.1 407.4 411.7 417 421.5 426 427.6 425.4 420.5 416.2 414.7 409.3 404.1
379.4 374.2 368.2 362.1 348.5 337.6 323.8 307.3 299 294.2 286.6 284.1 276.8 263.6 245.2 225.9 205.5 192.3 193.8 195.1 199.5 204.4 206.7 209.6 212.9 216.3 219.2 225.3 234.9 243.6 250.9 260.5 266.8 274 284.9 298.5 306.9 314.2 321.3 326.7 332.7 336.5 339.4 342.8 343.8 344.1 342.8 341.4 338.9 336 332.7 330.3 327.7 324 321.1 316.8 310.5 304.8 298.2 290.5 284 279.4 275.4 274.8 274.1 275 274.5 275 271.1 265.8 262.3 258 239.5 245 256.7 265.2 265.8 265.2 262.6 266.1 271.1 276.7 281.6 286.3 290.3 295.2 301.2 305.6 308 311.5 315 319 323.6 328.2 333.4 338.9 344.6 350.7 357.3 362.7 368 372.3 376.1 378.2 376.4 377 377.2 379.1 382 384 386.2 390.4 393.7 397.4 400.4 402.3 403.9 405.3 407 406.2 407 407.3 404.5 398 392.1 386.8 383.1 377.3 370.9 362.1 353.5 336.9 329.1 324.6 319.7 316 311.4 305.3 298.6 286.8 290.9 301.9 304.8 308.2 312.4 317.6 324.7 330.8 337.2 347.4 356.6 361.5 365.9 371.3 376.9 380.6 382.3 383.7 387 390.3 392.4 393.7 394.2 391.9 388.5 390.7 390.9 389 386 382.1 381.3 383.6 387 386.1 384.1 383.7 388.6 391.9 397.2 403.5 408 412.8 416.7 416 412.5 408.6 401.2 396.4 402.9 407.5 413 413 420.3 423.4 421.3 416.8 408.5 411.4 407 400
381.5 377.2 368.7 360.8 346.8 337.4 320.8 308.3 299.4 294.3 289.7 284.4 267.5 253.8 235.3 221.3 200.9 192.4 193.5 194.5 199.5 203.6 206.6 211.6 215.4 221.3 221.5 221 226.6 231.8 242.3 255 263.4 269.1 278.4 289.1 296.9 312.1 320.5 325.5 331 335.8 338.9 342.3 342.8 343.2 342.9 341.3 338.8 336.4 333.8 330.5 328.7 325.5 321.2 318 311.6 304.6 297.6 289.4 282.1 276.7 272.7 271.6 270.6 271.3 270.9 268.7 267 264.9 262.3 259 237.3 239.8 257.6 264.9 266.4 266.5 264.1 267.1 271.7 277.3 284.1 287.5 291.2 297.1 303.4 307.1 309.7 313.3 317 321.4 325.8 330.8 336.7 344.6 351.1 358.4 364.7 371.3 378.2 381.7 383.2 384.2 382.8 382.1 384 385.9 387.6 389.8 392.3 395.7 399.1 402.1 404 405.2 406 406.7 406.2 405.5 404.8 403.6 401.9 396.4 389.1 384 377.7 370.3 361.7 353.7 345.8 333.4 323.4 319.3 314.6 311.1 306.4 301.2 294.4 281.3 292.9 301 305.9 309.5 314.8 321.4 328.7 335.1 344.1 355 360.3 364.4 370.1 377 380.7 382.7 385 386.3 387.9 390.2 391.7 392.1 390.8 388.3 386.6 386.5 386.7 387.2 383.4 377.7 377.9 379.4 381.3 377.4 384.4 385 389.1 391 394.6 399.4 405.6 410.3 413.6 413.6 409.8 405.7 400.6 393.1 398.1 402.9 409.7 407 414.6 419.1 416.5 411.8 407.6 407.4 403.5 395.1
384.2 378.2 370.1 359.2 347.8 337 320.7 307.6 300.6 295.3 288.5 275.1 260.4 242.3 227.5 215.5 195.1 192.1 194.6 201.6 201.5 202.6 206.9 211.2 216.6 223.1 228.7 229.1 232.7 238.2 240.4 246.6 255.9 263.6 273.6 285.9 298.3 310 318.5 324.3 329.2 335.1 338.2 339.7 340.4 340 341.7 341.2 339.1 336.9 334.7 331.7 328.4 323.8 320.6 318.1 310.2 303.3 295.6 286.5 278.3 274 269.3 265.9 267.9 268.1 266.1 264.9 264.6 263.3 261.5 258 240.4 238.4 257.4 265.9 267.8 266.9 266.4 268.8 272.8 278.2 284.7 288.7 293 298 302 307.6 310.5 314.4 319 323.8 328.7 333.2 341.8 350.4 357.5 364 373.4 380.5 384.5 387.8 388.9 388.2 387.9 387.4 387.5 389.5 392 394.3 397 398.8 402 405.4 407.3 407.7 408 408.2 406.8 404 402.5 399.4 396.5 391.3 384.4 378.1 370.1 362.3 351.8 345.1 335.1 326.5 319.7 314.1 310.3 305 300.7 296.4 283.6 287.1 299.6 304.1 307.8 311.9 317.2 323.7 331 338.1 348.7 357.3 361.7 366 373.7 379.7 381.8 383.2 384.7 386.4 388.2 390 390 388.1 384.8 383.7 382.8 383 382.6 383.1 377.8 373.1 374.5 374.6 380.7 386.4 382.8 383.4 389.9 390.7 393.8 397.3 401.5 406.3 409.5 410 406.3 401.9 397.2 390.1 392.7 398.8 400.5 402.7 413.2 414.4 411.3 405.6 403.3 403.3 398.3 389.4
385.7 378.8 370.4 357.9 348.1 333.3 317.6 309 301.3 294.7 287.1 271.9 253 234.9 221.4 205.6 188 192.4 201.2 202 201.6 202.5 207.6 211.4 214.9 218 227.5 241.8 248.3 254.5 256.7 255.4 261 266.6 274 283.1 295.1 306.7 315.7 322.4 327.1 334.3 336.7 338.3 339.2 338.7 337.9 339.8 339.7 337.4 334.8 331.7 326.9 323.3 317.2 312.1 308 300.2 291 283.7 280.6 277 272.6 267.9 259.5 259.5 260.5 260.6 262 260.8 259.1 253.6 237.1 234.3 259.2 266.4 268.3 268.2 267.7 269.9 274.9 277.6 279.1 288.9 293.7 298.7 304.1 308.5 313.2 317.5 321.4 324.4 329.3 336.6 344.5 355.2 361.9 371.7 380.7 385.6 388.3 390.7 391.1 391.8 391.9 391.6 391.4 392.8 395.7 398.9 401.4 403.7 405.3 407.2 408.1 408.4 408.4 407.5 405.3 402.2 399 393.5 388.7 383.2 377.9 371.1 363.2 355 344 334.5 327.8 320.8 315.6 309.9 302.8 299.2 294.5 285.8 282.4 295.7 301.6 305.9 310.1 314.9 320.5 327.8 334.8 343 350.7 356.9 361.9 365.7 372.5 379.6 381.2 382.5 383.9 385.8 387.5 388.4 385.9 382.4 380.1 379.2 379.8 379.4 379.2 377.4 369.1 367.7 367.6 377.6 384.2 390.6 394.4 382 383.6 388.5 393.7 394.9 397.6 403.2 403 406.1 401.7 397.4 393 386.3 388.3 394.6 394.5 398.2 408.3 408.2 406.1 396.9 399.5 398.3 390.9 383.5
386.5 379.2 371.9 359.4 347.1 334.7 317.7 309.2 301.6 295.5 288.8 272.5 252.6 234 217.2 199.3 190.6 195.6 201.4 202.1 201.1 202.8 206.4 211 214.6 221.2 230.8 243.1 252.3 259 262 263.7 263.7 267.7 273.8 281.2 290.6 301.6 313.3 319.8 324.5 331.1 335.2 337 337.9 336.8 335.7 336.1 337.8 337.3 334.9 331.4 327.3 323.4 317.2 311.7 301.9 296.7 287.5 287.1 284.9 280.3 277.2 272.8 267.6 262.7 250.9 254.8 256.6 256.4 253 243.4 236.3 242.6 260.1 265.5 268.7 270 269 270.6 276.7 280.9 285.4 290.3 296.7 301.4 306.7 310.9 313.1 318 322.9 325.1 330.6 339.6 348.6 356.8 364.4 376.1 383.5 386.6 389.6 390.5 391.7 392.7 393.6 393.9 393.6 395.5 398.9 402.4 404.2 405.8 406.1 407 407.2 408.1 407.3 406.1 403.6 399.1 393.1 387.6 378.5 375.5 370.7 362.6 355.1 345.3 339.1 328.7 321 315 309.6 302.9 298.3 291.9 287.4 280.9 290.9 297.4 302.9 307.9 311.6 317.7 323.9 330 337.8 346.7 351.9 357.1 362.5 368.1 375.2 379.5 381.4 382.2 383 384.7 386.3 384.7 381.5 378.2 376.7 376 373.4 373.2 372.8 368 362.5 362.8 371.4 378.6 386 391.8 396 398.7 383.2 385 394 394.1 395.9 401 399.6 401.4 396.8 393 388 380.5 382.7 389.1 394.5 394.7 403.2 403 398.8 392.5 395.1 392.9 383.2 377.6
388.5 381.2 372.9 358.8 347.8 335.2 317.6 308.3 302.4 297 290.4 274.8 257 235.2 220 197.5 190.9 193.2 196.3 200 198.9 203.5 207.9 210.4 213.7 221.3 230.5 244.7 254.9 261.3 265.2 266.6 266.5 268.6 273.1 279.5 287 297.1 308.6 317.6 322.1 327.2 333.7 335.6 336.3 335.3 334.5 332.8 332.4 334 333.7 331.4 327.8 323.4 318.4 313.4 308.9 302.9 296.8 292.4 289.3 286.2 281.9 276.6 271.9 267.9 259.5 248.3 250.8 244.1 235.7 234.2 233.9 253.6 261.5 267.2 270 269.6 270.8 271.7 277.3 282 290.5 294.9 298.2 304.7 307.2 311.2 313.9 318.3 323.2 325.7 330 341.1 349.4 356.5 362.6 372.8 380.1 384 386.4 387 388.3 390 391.7 393.2 394.4 396.3 400.7 403.8 404.5 405.6 406.3 406.1 405.7 406.3 405.6 403.5 399.9 394.8 389.5 380 373.4 368.6 361.8 354.5 345.7 339.8 328.5 321.4 314.7 308.6 302.2 297.5 290.5 283.6 279.9 274.9 294.7 300.1 305.2 308.9 312.8 319.2 326 332.5 339.8 347.9 353 357.8 362.3 368.6 375.5 380 381.2 382.1 382.8 383.4 383.5 381 377.7 374.4 372.8 370.3 364.1 364.9 362.7 360 360 365.5 373 380.1 387.2 393.5 397.1 400.9 403.9 399.3 394.6 392.4 393.2 396.7 395.7 397.5 392 387.2 383.4 375.3 379.2 383.6 389.8 393 395.9 395.2 390.6 387.9 389.3 386.4 376.7 370.4
390.2 382.3 373.7 358.5 347.6 333 316.7 308 302.1 297.1 292.8 276.6 262.9 239.2 224.4 200.3 190.1 190.8 190.4 194.7 199.3 204.1 208.2 211.9 214.5 218.2 227.6 244.6 256.1 262.3 266.1 268.3 267.9 269.8 273.4 278 283.2 292.3 303.9 313 320.9 325.9 330.5 334.8 335 334 333 330.5 329.4 328.7 330 328.8 326.5 322.9 318.9 316.1 312.8 309.7 305.8 302.1 298.8 295.2 289.4 283.9 277.4 271.2 264.9 252.5 236.6 233.6 233.8 233.2 251.6 258.4 263.9 267.2 271.2 270.9 271.3 272.7 277.9 285.5 294.8 298 299.4 305.2 307.1 310.3 314 319.5 323.9 326.4 330.2 338.7 346.3 353 358.7 364.1 367.7 371.7 377.6 379.2 382.1 385.1 386.6 388.8 390.8 394.2 398.5 402.2 403.9 404.9 405.2 405.4 405.1 403.6 401.9 398.3 394 389.6 382.8 375.8 368.6 360.1 352.5 345.6 338.6 329.7 321.6 317 311.5 305 296.5 291 283.2 278.7 276.5 287.3 297 303.2 307 310 314.8 321 328.1 334.3 341.7 349.4 354.1 358 362.2 368.9 375.3 379.3 380.4 381.1 381.8 381.6 379.5 374.7 371.8 369.7 366.6 364.1 357.9 357.4 353.6 357.4 364.2 371.2 379.4 385.3 390 394.3 398.5 401.9 405.1 400.6 393.8 391.2 390.1 393.3 390.6 393.7 387.2 382.5 378.3 374.3 375 378.2 385.4 389.2 391.7 390.7 382.5 383 383.2 377.4 370.7 363.1
392.4 384 373.8 359.7 347.4 334.2 315.9 307.8 302.4 297.2 289.6 276.4 263.4 239.3 225.7 205.6 188.3 188.8 188.2 192.4 202.9 204.8 208.5 211.3 213.4 217.9 224.7 242.6 255.8 262.2 266 268.2 269.4 270.3 272.2 274.2 279.7 287.1 298.1 310 318 323.8 327.6 333 333.7 332.4 331.2 329.5 327.8 327.1 326.1 325.4 324.2 322.6 320.1 318.5 317.2 316.2 313.1 309.9 305.9 303.1 298.2 291.3 281.8 275.6 268.8 257.7 233.2 232.3 233.7 251.1 258.3 260.8 265 268.2 272.6 272.3 272.6 273.4 279.3 287.4 297.9 300.1 302.1 305.5 306.6 309.2 314.1 320.5 324.5 327.3 329.8 335.9 342.4 347.4 350.8 357 359.9 363 365.3 367.2 371 374.9 379.3 383.2 386.1 389.8 394.9 398.9 401.8 403.9 404.1 404.3 404.2 401.5 399.4 394.8 388.1 381.7 375.6 368.3 359.8 351.4 341 334.4 326.5 321.2 316.9 312.1 307.6 302.1 293.9 286.1 280 275.3 273.8 290.3 299.6 304.8 307.7 311.2 315.9 323 329 335.1 343 350.3 355.6 358.8 362.4 367.9 374.3 377.7 378.9 380.1 379.1 376.8 373.5 370 367.2 364.5 360.6 355 351.8 341.5 352.6 360.1 368.7 376 381.7 386 390.2 393.6 397.2 401.4 403.1 399.6 393.7 390.2 386.7 389.4 390.4 388 381.2 377.6 372.9 367.7 368.9 372.1 374 385.7 385.7 382.6 376.1 377.7 376.9 369.4 362.4 356.8
393.8 384.3 372.3 358.7 346.7 330.3 314.7 306.7 301.5 295 283.5 275 259.6 238.2 225.3 209.9 185.9 188.5 187.9 190.6 199.7 207.4 209.5 211 213.2 217.3 224.2 238.5 252.3 259.8 264.8 267.8 270.4 270.2 270.4 272.3 276.8 281.4 292.8 306.4 314.8 321.9 325.1 329.1 331.6 331.6 329.6 328 326.7 325.3 324.1 322.7 322 321.3 321 320.6 321.3 319.9 318.2 315.6 312.4 308.6 303.6 297.2 288.1 279.9 272.7 254.1 232.1 231.8 234.1 253.3 258.1 261.4 265.3 268.3 271.5 273.2 273.9 274.9 278.6 286.6 298.1 300.2 300.5 305.3 306.5 308.9 313.9 320.1 324.6 327.1 327.3 331.7 336.9 341.3 345.4 349.2 352.3 355.3 358.2 360.6 363.9 366.9 371.3 375.3 379.5 384.4 389.3 394.9 399 400.5 402.3 403.2 396.3 400.5 397.7 393.1 385.9 375 363.6 358.3 348.8 340.1 332.3 323.8 320.1 315.7 309.9 307.9 304 298.2 290.2 280.8 276.6 273.5 283.9 294.3 301.2 306.1 309.3 311.6 316.7 323 328.9 335.6 344.7 351.7 356.2 359.3 362.7 365.5 371.2 374.5 375.4 374.5 370.4 369.3 367.9 366.7 363.2 360.3 354.8 348.7 338.7 351.8 357.7 364 371.1 376.9 381.8 385.2 389.2 393.3 396.5 399.2 400.1 397.4 394 389.9 386.7 383.4 382.8 382.7 378.4 375.8 367.5 364.8 365.7 366.7 373 374.6 378.3 374.6 370.3 371.6 370 359.9 354.9 350.2
394.5 384.8 371.4 358.3 345.3 327.8 314.2 306.1 299 287.9 281.5 269 248.6 235.7 223 208.1 196.7 185.4 187.3 187.7 198.1 207.1 209.6 211.3 212.5 215.2 221.1 233.6 247.4 255.8 263.3 268.5 268.8 268.9 268.7 270.2 272.9 277.3 286.1 299.1 309.9 318.1 322.8 325.9 329.2 329.8 329.8 328.4 327.2 324.9 323.3 321.2 320.5 320 320.6 320.9 321.5 321.4 320.2 318 315.4 312.4 307.3 301.3 294.9 285.2 276.7 255.7 231.4 230.1 230.9 252.5 256.7 262.4 264.6 267.5 270.8 272.9 273.4 274.8 278.5 285.4 293 296.6 298 301.3 306 308.9 312.4 318.4 322.9 325.5 326.3 330.2 333.5 335.9 339.8 341.5 345.9 348.5 350.5 353 355.6 359.2 364.2 369.1 372.4 377.2 383.1 389.9 394.7 397.3 399.4 400.9 400.8 401 396.4 390.8 383.9 374.8 360.6 340.6 335.7 328.8 323.2 317.3 312.5 308.7 305.8 301.7 298.6 294.5 286.3 277.5 273 272.1 287.9 294.9 301.2 306.3 309.5 312.4 316.8 321.8 328.9 335.6 345.9 352 356.4 359.2 361.7 363.4 365.9 368.1 368.1 366.4 365.7 365.1 364.3 362 359.7 356.3 348.9 338.3 344.8 352.5 357.8 365.7 368.8 376.9 381.1 384.4 388.1 392.4 395.4 398 398.3 396.1 393.2 389.7 386.1 381.1 379.1 376.4 369.7 367.4 363.3 359.8 364.4 366.9 371.1 372.5 374.3 362.6 365.3 365.4 361.3 353.4 347.6 344.2
392.3 384.2 370.7 357.5 342.8 324.2 312.5 304.8 294.1 286.1 277.1 258.3 243 232.6 221.2 208.5 197.3 190.7 186.8 187.3 200 203.8 205.6 211 212.8 214.4 218.8 226.4 238.6 249.8 256.6 261.1 263.9 265.5 265.5 267.9 269.7 273.1 279.4 289.9 303.9 313.5 320.4 324.5 328.4 329.8 329.6 328.4 326.3 324.1 322 319.7 319.1 319.2 319 319 320 321.3 321.1 319.6 316.9 314.6 311.8 306.4 299.8 290.5 280.4 262.9 231.5 228.5 229.5 247 256.6 261.9 264.1 267.6 271 272.5 273 274.7 277.6 283.4 288.6 294.1 295.9 299.5 304.2 308.4 311.5 316.1 321.1 324.1 322.6 327.6 330.2 331.7 332.8 335.1 337.1 339.2 342.3 345.4 349.6 353 356.5 361.3 367.5 372.5 378.8 384.7 390.3 395 396.8 398.5 399.7 398.3 394.5 388.7 381.2 371.1 362.6 349.4 336.4 318.2 314.2 308.8 304.1 302.1 299.6 297.6 293.3 289 280.4 272.5 271 277.8 288.9 294.1 299.9 306.5 309.8 312.7 315.4 320.7 327.8 334.6 344.4 351.5 356.4 359.7 361.4 362.3 363.1 363.3 363.6 364.2 359.7 361.1 360.3 358.2 355.3 348.2 342.7 339.2 345.8 352.1 358.5 364.7 370.6 377 380.2 384 387.5 390.5 393.3 397.1 399.3 399.6 396.3 393.2 388.5 385.7 381.7 377.6 359.7 353.5 354.6 351.6 356.9 366.6 368 368.4 363.4 357 359.7 359.3 353.1 346.1 341.7 338.4
391.8 382.4 369.5 356.2 341 321.7 311.8 301.2 290.9 282.5 268.5 249.3 237.5 226.4 216.7 205.6 198.4 189.6 183 187.3 198.7 201.3 205 212 212.6 214.7 216.6 223.4 229.2 238.5 248.2 253.3 254.6 252.4 259.7 263.7 266.8 270.1 274.2 280.8 295.6 309.2 319.2 324.8 326.2 328.5 328.6 327.1 324.3 321.8 319.3 318.2 317.4 317.3 317.3 317.9 318.5 319.1 319.5 320 318.5 316.4 314.4 311.1 304.4 295.5 284.5 269.8 237.9 228.3 227.8 234.7 255.1 259.2 262.4 265.4 270.4 272.1 272.8 275.5 276.9 279.9 287 293.5 295.6 298 301.6 305 309.9 313.4 317.2 319.3 319.3 322.6 324 325.6 327.3 329.5 331.8 333.7 336.4 339.1 342.7 346.6 349.8 354.5 360 368.6 373.9 382 387.2 393.8 396 396.7 397.2 396.2 392.9 385.5 377.2 368.3 358.8 344.7 333.1 320.1 310.9 303.7 299.9 296.7 294.5 291.2 287.4 281.9 273.5 270.4 269.3 284.1 289.1 290.4 300.6 305 309.8 312.4 315.2 321.1 327.2 334.6 343.2 351.2 355.7 359.1 360.6 361.9 362.3 362.6 362.7 362.2 359.7 358.9 355.6 352.1 346.3 343.3 330.5 337.4 346.7 351.5 356.6 365.8 372.3 377.3 381.2 384.7 388.2 391.5 394.8 397.6 400.9 402.2 401.4 398.9 393.5 389.1 384.5 379.1 372.5 366.3 356.9 344.7 348.8 357.3 361.4 360.5 354.8 351.1 353.9 352.7 345.7 340.3 336.2 333.5
391 378 365.6 351.5 334.7 318.2 310.3 297.6 289.3 280.5 258.6 243.9 232.1 221.1 212.2 203 197.2 188.7 181.1 186.3 196.8 200.7 203.6 209.9 212.4 213.9 217.1 221 224.4 227.8 234.5 240.4 241.2 243.8 254 258.7 264.7 267.7 271.1 276.1 285.1 301.5 315.7 323.1 325.4 324.3 323.7 320.3 317.8 315.4 313.6 313 314.3 314.9 316 316.8 317.4 318.6 318.6 319.7 319.5 318.8 316.3 313.6 308.3 298.8 286.9 273.8 249.4 228.3 227.1 230.4 251.2 257 261.1 263.8 270.6 271.7 273.9 276.1 276.1 278.7 285.5 293.1 295 296.6 299.8 303.1 307.7 311.4 312.6 313.9 315.5 317.6 318.5 319.8 321.5 323.8 325.8 329.6 332.9 335.4 338.3 340.8 344.8 350.5 356.3 364.9 372.5 380.1 387.6 393.3 394.5 395.4 394.9 393.9 390.8 382.1 374.5 364.6 354.1 342.5 326.8 314.2 304.3 291.7 292.6 292.8 289.6 285.4 283.8 276.2 270.7 268.7 270.7 285 288.1 291.5 300 304.6 308.2 312 315.4 320.7 326.9 332.9 341.8 349.8 354.7 358.2 360.1 360.3 361.4 361.6 360.4 360.1 357.3 354.3 350.4 345.8 340.6 334.2 330.5 342.3 348.3 352.5 360.7 367.7 373.9 378.7 381.9 386 390.8 395.8 401.7 406.9 409.9 408.9 405.8 403.5 400.8 395.2 389.7 384.4 377.1 370.3 364 355.8 352 350.1 354.2 354.5 346.4 344.2 346 344.3 338.8 334.8 331 329.5
388.9 373.4 360.1 342.4 325.9 317.2 308.2 295.4 288.8 275.8 252.9 240.7 227.6 218.7 207.8 198.7 195.4 186.7 182.8 184.9 193 200.3 202.2 207.8 212.3 214.8 216.2 218.5 220.5 222.8 225 226.8 228.4 238.2 246.1 253.6 259.1 262.3 268.8 273 279.3 287.5 302.8 315.1 320.7 320.8 318.2 315.1 310.9 306.9 306.5 306.3 306.1 311 315.1 316.6 317.1 318.5 318.6 318.3 319.4 319.2 318.8 316.3 311 303.1 289.5 278.5 253.4 222.6 226.4 228 244.8 255.4 259.1 262.6 265.7 269.3 272.4 275 274.9 276.6 282.5 289.7 291.7 296.5 299.5 301.5 305.2 308.9 309.7 309.4 311.2 312.1 313.2 315.1 317.7 319.1 321.8 325.1 328.5 331.7 335.2 339.2 342.7 348 354.8 363.8 371.5 380.1 386.6 392.6 393.4 393.8 392.9 390.4 386.1 378.8 370 361.4 347.9 330.1 313.8 307.4 307.6 300.5 296.3 285.8 279.7 278.2 275.6 273.1 267.9 267.8 273.4 285.8 288.1 292.4 297.4 303 307.3 310.8 314.8 319.7 327.4 336 342.6 347.8 353 356.7 357.8 358.9 359.5 359.2 357.9 357.6 353.6 349.7 343.7 338.3 335.7 335.4 337.1 344.2 349.2 355.8 361.6 368.4 375.1 379 382.2 386.2 393.1 399.6 409 416.8 418.6 416.4 412.6 409.4 405.4 400.5 394.8 388.4 380.5 371.7 362.6 354.9 352.6 349.5 342.7 337.6 333 336.4 337.2 331.7 332.1 328.9 325.5 326.1
377.2 363.2 346.7 331.8 322.3 315.5 306.4 294.4 287.9 271.1 251.1 236.3 223.5 213.1 207.1 202 194.8 185.7 183.5 183.1 191.4 198.9 200.4 203.2 208.1 213.6 214.9 217.6 220.2 221.1 220.8 222.5 225.6 232 239.9 248.1 255.3 259.2 267.9 272.8 274.6 278.3 284.3 293.4 304.3 309.5 308 304.5 300.4 298.1 298.2 296.1 297.8 306 312.4 314.8 316.3 317.3 318.7 318.8 317.8 320.5 320.1 317.5 314 305.7 294.5 281.1 255.4 231.2 226.6 227 236.4 253.5 256.4 259 262.7 267.4 271.5 273 273.6 275.5 279.1 285 290.5 301.5 304.1 300.9 301.5 303 304.5 306.6 307 307.6 310.5 314.4 316 317.7 319.4 322.3 325.7 328.9 332.6 335.5 339.8 345 352.8 361.8 370.4 378.6 384.7 390.7 392.4 392.6 390 387.7 382.8 376.3 368.2 359.4 347.2 337.8 329.3 320 312.4 305.9 300.2 295 290.2 283.6 277.2 271.9 266.1 267.4 272.8 279.6 283.1 290 295.1 300 305 309.5 314 319.1 326.6 335.2 341.5 345.1 350.1 353.6 355.6 356.3 355.7 354.2 353.8 350.8 346.2 340.9 336.1 332.1 334.5 334.8 338.5 344.5 350.7 359.1 364.8 369.6 375 379.6 382.9 389.2 396.6 405.6 417.9 425.4 424.8 421.7 418.8 415 408.9 404 399.3 389.1 380.2 366.5 359.5 352.9 353.5 352.5 341.5 327 319.1 320.7 322.5 326.2 322 320 321.6 322.9
361.9 347.7 337.4 327.8 321.2 314.3 303.8 293.8 285.9 263.8 247.4 233.7 219.6 212.9 203.5 200.7 196.6 185.2 183.5 183.2 189.4 196.1 199.6 202.3 206.2 211.9 214 215.9 219.6 218.8 215.5 219.2 223 227.2 232.7 243.8 250.7 254.8 267.2 270.7 261.4 273.3 275.2 278.7 283.5 286.8 287.9 288 287 285.1 283.5 281.9 295.3 302 307.9 312.8 314.7 316.7 318.3 318.6 318.7 318.8 319.3 318.7 315.5 309.5 296.9 284 257 231.9 225.2 224.9 231.1 251.4 253.4 256.1 260.1 264.6 271.2 273.5 272.9 274.4 276.7 281.8 287.3 291.5 294.1 297.2 298.6 299 299.4 301 297.7 311.3 314.7 315.8 315.5 316.8 318.1 320.2 323.2 326.2 329.5 333 337.3 342.2 350 359 368.1 375.9 383.3 388.2 391.5 391.7 389.6 386.2 381.5 375.8 369.8 359.9 350.9 344.6 336.1 328.7 320.6 315.1 308.7 306 305.1 299.7 291.5 282.1 267.2 266.7 271.1 276.2 283.1 287.1 292.6 296 302.8 307.9 312.1 317.3 324.2 332 339.3 343.6 345.4 348.2 350.1 349.4 346.2 346.6 344.7 340.8 336.8 332.3 326.8 330.2 333.7 335.3 339.3 345.9 353 359.7 366 370.7 375.4 379.5 383.1 391.3 398.7 411.5 423.1 428.4 429.2 426.3 423.4 418.8 413 406.4 399.8 389.4 376.2 362.7 360.8 360.3 357.6 356.1 353.1 338.7 331 317.7 307.8 314.6 312.4 314.3 312.7 317
340.8 336 330.5 325 319.7 312 302 293.5 281.3 257.1 242.8 230.6 218.3 209.4 202.9 196.7 193.6 184.3 181.6 182.4 188.5 193.8 196.7 201.2 204.5 208.6 210.9 213.3 215.6 215.1 216.6 221 228.7 232.1 233 239.8 245.5 250.7 256.1 262.9 265.9 260.1 271 271.7 273.1 273.9 275.8 276 274.4 270.9 266.9 274.8 286.8 296 303 309.5 314.1 315.2 317.8 318.7 318.4 317.3 317.2 318.1 316.2 310.7 298.4 286.4 261.5 233.6 224.1 224.2 226.8 247.5 248.9 250.6 255.8 260.9 266.4 272 272.3 274.5 276.4 281.7 285.2 287.9 290.2 293.8 295.6 295.5 295.2 294.4 299.6 306.8 312.8 314 315.1 315.1 314.9 317.3 321.2 323.8 327.5 330.8 335 338.2 347.6 355.4 364.5 372.7 381.6 386.9 390.3 390.9 389.5 386.5 381.8 376.5 370.7 363.9 357.3 351.9 345 337.4 335.2 330 326.7 319.5 313.7 307.1 297.4 287.8 273.5 264.8 268.6 273.8 279.5 284.9 289.2 294.7 301 306.2 310.6 315.8 320.4 328.1 336.2 341.5 343.7 344.2 343.1 341.4 339.5 337.4 335.5 333.3 329.8 324.7 322.7 324.2 330.6 334.9 339.1 345.5 356.1 362.1 366.9 371.4 375.7 378.9 384.1 392.9 401.8 415.4 426.5 430.2 431.4 429.8 426.7 423 417.1 408.6 402.5 389 373.9 370.6 373 366.2 363.2 361.4 357.2 354 350.1 341.8 330.3 313.6 305.6 306 304.9 310
332.5 328.6 325.9 323.4 317.1 307.6 297.9 290.2 269.6 250 236.7 226.4 214.6 206.3 199.8 198 195.5 188.1 181.4 181.9 183.8 192.4 193.6 200.9 204.1 206.2 208.1 210.1 210.8 209.6 216.3 219.3 222.6 228.1 231.4 234.2 240 245.4 250.4 254.3 257.7 263.1 266.2 267.3 267.1 266.8 267.3 265.2 261.7 259.4 253.9 264.3 276.5 290.3 299.3 306 311.5 314.7 315.2 316.3 317.1 316 315.7 316.4 316.2 309.3 298.4 286.3 262.6 239.9 223.6 223.2 223.5 239 244.2 245.8 245.2 259.6 268.5 272.7 274 275 276.3 280.7 282.8 285.7 288 290.1 293 291.8 288.9 288.6 292.8 298.4 303.3 307.8 310.8 311.3 312.6 315.6 319.2 321.5 325.4 329.1 332.4 337.9 344.7 353.2 362.7 370.6 379.7 385.2 389.3 390.1 388.9 386.7 382.7 378.2 372 366.8 363.2 358.8 352.1 349.5 344 340.3 335.7 328.2 319.3 311.1 301 289.6 274.5 264.3 266.5 272.1 277.4 282.6 286.6 293 299.1 304.6 309.8 314.5 318 322.6 327.3 331.9 334.8 335 335.1 332.8 332.2 330.5 328.1 326 323.5 319.4 315.8 324.2 328.5 333.9 340.2 346.7 357.3 363.2 367.6 372 375.7 379.6 385.3 394.1 402.6 415.9 427 430.7 432.4 430.6 428.5 425.7 420.1 411.5 404.6 394.4 387.7 383.3 384.6 379.8 373.4 366.9 362.5 360 357.7 354.5 346.7 337.8 328.9 308.8 299.6 302.8
331.4 328.6 324.7 320.5 313.3 302.6 294.7 276.9 257.1 244.1 230.4 220 210.5 206.6 206 202.5 197.2 192.2 180.8 176.4 179.7 183.4 192 192.2 203.1 204.9 203.5 203.5 209.4 215.8 216.9 218.8 221.7 224.6 227.5 232.5 237.8 240.4 244.4 246.8 250.1 253.5 257.7 259.3 261.1 260.9 260.3 256.8 252.8 247.3 246.7 253.8 268.4 284 294.2 303.3 310.5 314 315 315.9 316.9 317.6 316.1 313.2 312.1 305.1 296.3 286 271.9 247.1 221 222.8 223.2 228.3 238.4 238.3 250.2 259.6 267.4 272.5 273.8 274 276 279.7 282.2 283.2 285.3 286.8 288.2 287 284.4 285.6 288.8 293.1 296.6 299.8 300.7 310.1 313.9 316.8 319.1 321.3 322.7 325 331.3 335.9 345.5 350.1 360.2 368.1 376.7 383.4 387.5 389.4 388.7 386.7 382.5 377.4 371.3 367.4 365.6 363.3 361.3 358.5 353.4 346.5 339.9 333.2 323.9 314.2 304.1 290.2 273.8 260.8 266.1 274.2 278.4 281 285.1 291.3 296.9 302.2 307.9 313 316.4 318.6 320.4 322.6 323.7 325.5 325.3 324.9 324 322.6 321.4 319.9 316.7 312.6 313.8 320 327.4 334.1 340.6 347.8 358.1 360.3 368.9 372.9 376.1 380.6 386.6 393.8 403.3 413.6 423.8 428.9 431.8 432.5 429.1 426.6 422.2 414.2 407.4 401.1 395.6 390.2 390.6 388.9 381.5 374.1 372.4 366.6 363.3 360 355.9 349.1 339.7 324.4 302.4 295.6
331.4 327.6 323.2 316.3 303.5 292.2 281 264.9 247.8 230.7 228.2 224.8 219.2 212.4 207.3 202.9 199.6 194 181.2 180.8 179.4 181.7 185.2 192.9 199.4 202.1 205.1 207.2 209.6 209.7 216.7 218.2 223.1 224.5 227.8 234.2 234 235.6 237.1 238.6 239.6 244.1 248.5 250.3 252.5 251.7 248.9 246.6 242.7 237.4 244.2 252.4 261.9 279.5 291.7 300.9 308.4 313.9 315 316 317.5 318.3 317.2 313.6 305.6 299.7 292.9 284.9 276.1 256.2 226.8 222.2 223.2 227.6 231.6 240.4 248.8 255.5 263.1 270 272.8 273.7 275.2 278.1 280.9 283.3 282.4 283 283.2 280.7 275.1 278.8 285.9 286.8 288.9 294.7 296.5 307.8 312.8 315.2 318.5 321 323.7 326.2 329.7 335.2 344.8 350.2 357.9 365.2 372.7 380.2 385.7 387.2 387.1 384.9 379.9 374.6 370.4 368.4 366.9 366 364.7 362.8 358.9 349.2 341.4 336 326 316.2 305.5 290.8 270.1 261.5 266.8 272.7 277.7 281.1 284.2 289.7 295.7 301.4 306 311.1 312.4 316.2 317.4 317.9 318.4 319.5 319.5 319.5 319.2 317.6 315.6 313.6 309 304.5 315.2 320.6 328.2 334.1 341.5 345.8 358.7 364.2 369.1 373.9 376.5 380.9 385.8 393.4 401.5 410.3 418.8 423.7 427.6 429.2 428.7 427.4 424.4 416.9 410.8 406 403.5 404.5 401.4 395.5 392.4 386.5 381.1 374.8 370.2 365.5 362 358.3 353.7 345.3 321.7 316.5
331.4 327.6 323.2 316.9 307.7 297.2 269.6 254.6 251.1 246.6 242 235.8 230.7 222.6 211.5 204.7 198.1 194.8 181.9 180.6 179.2 179.2 183 186.6 196.6 200.7 204 207.1 209.1 210.6 212.5 215.8 218.2 219.7 221.5 226 226.8 226.8 231.3 232.3 234.7 235.6 238.7 241.3 243.3 239.7 239.3 237.7 232.5 236.8 249.2 256.9 263.1 278.4 288.2 298 307.8 313.7 315 315.3 314.6 314.8 314 310.5 305.2 298.7 292.7 283.8 277 263.4 233.9 222.4 222.6 233.7 235.5 236.9 241.6 251.4 261.3 266.9 272.3 274.5 276 276.5 278.7 280.7 280.8 278.7 274.3 273.4 277.2 284.6 288.4 291.2 294.8 298.8 306.5 310.5 312.5 313.3 318.5 320.9 323 325.5 328.5 334.2 339.8 348.3 356.3 363.6 368.5 373.8 380.5 382.2 383.4 381.1 377.1 371.9 368.3 367.9 366.9 366.3 365.5 364.6 360.6 351.1 342.8 336.9 326.7 315.8 305.2 291.1 269.5 260.7 264.8 270.8 277.4 280.2 282 286.9 292.9 298.9 304.1 306.7 308.6 312.1 313.1 312.5 314.1 314.5 314 313.8 312.8 312.3 307.1 296.3 304.2 310.9 317.5 320.6 327.7 332.3 339.5 346.7 357.7 364.3 368.8 374.1 377.5 380.2 384.8 391.1 398.8 406.5 415.1 420.5 423.4 425.9 428.1 426.9 425.9 419.8 415.1 411.2 408.3 407.6 409 405.6 398.5 394.6 388.7 382.3 376.7 372.7 368.9 367.7 365.3 361.6 351.8 344.6
332.3 329.2 324 318.8 310.3 299.9 289.3 279.2 268.6 261.5 254.5 247.5 238.7 230.9 217.3 209 201.1 195.7 189.6 179.9 178.5 177.7 181.2 187.3 196.2 200.3 201 202.7 206.7 209.2 210 213.2 212.7 212.7 214.8 220.1 223.8 223.7 225.8 227.3 228.5 231.1 230.1 230.6 229.2 230.8 231.1 230 231.2 239.5 252.6 257.8 265.8 277.3 287.6 296.4 307.8 313.9 315.2 315 314.3 313.2 311 308 304.6 299 293.1 284 276.6 265.2 240.1 222.6 221.6 232 234.6 235.5 236.3 249.6 260 266.3 271.8 274.2 275.4 274.2 274.3 274.4 272 264.4 266.4 276.1 283.9 286.3 289.2 292.5 295.8 301.9 305.1 309.8 313.6 315.3 317.2 319.6 322.2 323.8 327.3 331.6 338 345 353.9 361 364.4 366.8 373.5 376.9 375.8 373.7 370.1 368.3 367.1 365.3 365.1 363.6 361.6 359.2 354.4 346.2 341.6 334.2 323.8 314.5 303.5 290.8 271.8 261 262.4 269.1 275.8 279.6 280.9 283.9 289.6 294.6 298.1 301.3 305.3 306.2 307.3 307.1 308.7 308.3 307.8 306.6 303.9 301.9 292 299.5 307 314.3 319.3 321.8 327.4 332.8 336.1 347.7 351.4 361.4 368.2 373.2 377.3 380.3 384 389.1 395.9 402 407.8 415 421.1 424.3 426.6 427.9 427 422.3 418.2 414.7 412 411.7 412.5 410.7 406.5 399.3 395.1 389.3 383.6 377.7 374.8 373.8 373.7 370.8 365.6 360
333.4 330.7 329.3 325.2 323 318.9 312.7 305 293.8 281.4 266 253.5 244.3 235.8 222.8 211.7 203.6 197.6 194 182.3 178.7 176.7 175.9 184.7 189.2 197.2 199.3 200.2 201.5 205.9 208.1 208.3 209.4 208.2 210.7 215 219.4 221.1 222.2 223.6 224.5 224.6 225 225.4 225.7 225.8 227.5 229.2 230.1 243.3 253.2 257.8 263.9 275.4 286.5 296.9 307.6 314.6 315.5 314.6 314 312.4 310.7 308.2 304.5 300.4 294.4 285.9 277.1 266.9 253.2 227.2 220.5 225.4 229.9 233.6 237.3 243.7 255.6 265.2 268.9 269.3 270.9 270.3 263.3 257.7 257 266.8 276.2 282 284.1 287.7 290.5 293.4 299 303.9 307.5 310.7 313.8 315.6 318.4 320.2 322.4 324.7 327 332.4 336.1 344.8 350.8 357.5 361.2 363 366.4 368.6 368.6 368.3 366.2 366.2 362.2 358.9 356.5 354.4 352.3 351.2 346.1 342 338.4 329.1 321.5 312.5 300.4 290.6 270.8 261.8 259.8 270.8 275.2 278.9 281.1 282.7 285.4 288.5 291.6 295.4 297.7 300.1 300.8 299.8 301.4 301.1 299.9 299.3 294 288.6 293.3 302 309.1 316.2 320.4 322.6 326.9 333.1 337.7 340.2 350.6 358.9 367.1 371.3 375.8 379.6 383 387.3 392.2 397.9 402.9 408.6 414.9 421.4 425.6 428.1 425.8 424.6 421.3 416.7 414.2 413.6 414.4 413.8 411.4 405.5 400.3 395.8 389 382.5 378.9 377.8 377.9 377.8 372.4 368.1
335.9 333.5 332.2 330.2 328 324.7 320.2 312 303.9 282.5 264.7 254.5 246 238.1 225 216.1 207.7 200.3 194.5 192.1 178.8 176.3 175.4 178.9 181.7 188.1 196.9 197.9 198.1 201.9 205.5 206.7 206.1 206.5 209 209.7 212.7 216.7 221.9 225.3 224.1 220.5 220.3 223.4 222.9 225.7 227.8 227.9 231.9 243.9 253.2 257.6 264.6 271.7 284.7 296.2 306.5 313.1 315.6 315.2 313.5 311.8 310.1 308.3 305.4 301.9 296.2 288.7 280.8 271.7 267.3 249.6 220.4 221.6 229.9 232.7 235.5 239.5 252.2 262.8 264.7 263.5 262.8 255.8 255.8 260.3 270 275.2 280 282.2 286.2 291.3 294.3 295.9 300.5 304.3 307.9 311 314.5 316.6 318.2 320.7 322.8 325.2 328.6 331.9 336.7 341.9 348.8 353.7 357.3 359.1 361 364.5 364.7 363.9 361.9 359.3 356.6 353.9 350 347.3 345 343.4 340.5 337.2 332.3 326 318.3 309.9 299.5 289.5 269.7 260.2 255.1 265 275 279.3 281.1 282.5 283.4 285.7 287.3 286.9 289.6 291.4 293.6 291.1 292.1 290.2 290.5 287.9 285.8 290.8 296.1 302.2 309.4 316.6 321.4 324 327.8 332.5 338.5 341.4 348.1 355.3 363.6 369.3 374 377.5 381.4 385.1 389.1 393.7 399.5 404.4 409.6 415.4 422.6 426.9 427.9 427 423.1 417.8 415.4 415 415.8 415.7 413.6 410.9 404.6 399.3 393.8 387.8 382.6 379.7 379.5 379.2 375.2 372.6
338.4 336.4 334.7 333 331.3 323.6 316.7 304.9 283.1 270.2 260.6 252.5 244.4 234.7 224.5 218.2 212.1 204.6 197.1 192.3 189.9 176.6 174.3 173.8 176.1 182.3 193.7 194.5 195.5 199.1 202.3 203.9 202.9 204.2 208.9 208.3 210 211.2 214.1 218.6 224.3 225.7 217.3 213 217.4 225.2 227 227.1 233.7 243.9 252.7 257.3 262.1 268.8 281.6 292.5 303.4 310.5 314.3 314.7 314 312.2 310.2 308.6 306.7 303.2 298.9 292.2 286.3 276.7 265.8 243.7 219.1 219.3 226.7 236.3 239.1 239 248.9 255 256.1 255.6 256.4 255.8 262.6 271.1 276.1 280.9 283.9 283.7 288.4 291.5 295.1 297.9 301.1 304.7 308.1 311.3 313.7 316.9 318.7 321 323.7 326.7 331 334.5 337.2 340.7 347 351.4 351.6 354 355.1 356.6 357.1 355 355.6 353.5 350.9 348.3 346.5 344.9 342.5 339.8 336.7 333.1 327.6 320.1 311.9 308.4 297.6 286.9 268.4 259.1 257.7 263 275.4 279.3 280.1 281.2 282.2 282.7 284.3 284.5 285.2 285.8 286.2 286.2 286.2 285.1 284.7 283.8 285.8 290.3 294.8 301.4 308.5 316.2 321.7 325.5 328.3 332 337.5 341.7 347.2 352.4 358.2 366.8 372.5 375.7 379.9 383.6 387.3 390.5 394.5 398.6 405.2 412.4 419.6 425.7 428 427.6 423 417.9 415.2 415.3 416.1 416 414.6 412.9 408.9 402 395.6 389.4 383.7 380.5 379.7 379.5 377.2 373.6
340.6 338.7 336.7 331.7 322.8 316.2 300.6 283.2 270.4 261.7 253.1 247.1 239.8 230.6 224.3 218.9 213.2 207 200.3 193.7 190.4 178.8 174.8 173.3 173.2 179 187.3 189.7 192.1 196.4 199.2 201.8 201.4 203 203.1 204.4 205.4 205.2 206.8 211.2 215.7 218.3 215.2 209.6 214 223.2 226 228.5 235.2 242.5 249.5 256.6 259.8 265.1 274.6 287.1 297.8 305.8 310.3 313.2 313.3 312.2 310.2 309.1 307.4 305.4 301.5 296.8 288.7 275.6 242 222.5 215.5 218.8 230.2 238.1 239.8 241.8 245.4 249.9 251.5 246.5 246.7 257.2 267.4 273.9 279.5 283.8 286.3 285.2 286.7 291.7 296.4 298.8 303.4 306.8 310.1 312.3 313.7 316.3 319.7 322.1 324.1 328.5 333.4 336.3 338.4 339.5 342.5 346.2 347.8 349.4 350.2 351.6 351.9 350.9 351.2 349.1 346.7 345.7 344.4 342.5 340.5 337.5 332 329.6 326.2 320.7 312.6 305.7 296.4 284 267.3 260.5 257.2 258.5 275.6 278.2 279.9 281.1 281.6 281.5 282.1 281.4 280.3 280.3 280.7 280.1 280.7 278.7 278.4 278.5 286.9 289.8 293.7 300.5 308.8 316 321 325.2 328.2 331.3 336 341.3 345.6 351.1 355.8 360.8 367.6 373.7 378.2 382.3 386.3 388.8 391.9 396.4 401.8 408.6 415.2 420.7 423.8 421.9 417.3 413.9 414.4 415.5 416.1 416.3 415.4 413.6 410.3 402.1 396.6 390.1 384.2 379.5 377.4 378.6 378 372.3
342.7 337.9 330.7 322.5 310.7 294.8 281.7 270.6 259.5 252.7 247.1 241.2 233.9 228.6 224.3 218.3 212.2 205.7 199.2 194.2 191.2 188.4 180.8 174.4 172.3 173.7 179.9 186.7 194.6 198.5 200.9 202.1 202.5 203.2 200.8 201.7 199.6 201.7 202.7 205.8 209.5 211.4 209 209.3 220.2 221.4 223.5 228.6 234.5 241.2 247.7 253.9 257.7 261.4 266.4 279 290.1 299.1 306.5 309.3 312.4 311.8 310.8 309.6 307.3 305 302.1 298.3 286.5 260.5 234.4 217.4 216.1 218.9 232.9 236.4 239.2 242.3 243 248.3 248.2 242.3 247.5 262.9 267.6 271.5 276.3 280.9 283.6 286.5 290.5 295.4 298.3 301.3 305.1 308.8 311.3 313.4 314.8 317.3 320.5 324.6 328.8 333 335.9 337.7 338.9 338.8 339.6 341.8 343.5 345.4 346.4 347.2 347.5 348.7 349.1 347.8 345.1 343.2 342 340 338.4 336.1 331.8 329 325.2 316.6 308.1 301.6 292.4 284.9 265.9 260 256.3 266.1 274.9 277.5 279.7 280.6 280.4 279.9 277.7 276.6 273.4 272.9 273.4 270.5 271.7 270.7 275.1 279.1 282.2 289.7 292.9 298.4 305.6 311.5 319.5 324.3 327.9 330.4 334.2 338.8 343.9 347.7 353.6 357.7 363.4 369.5 375.1 379.5 384 387.6 391.6 394.7 398.5 403 407.3 411.6 413.6 413 411.3 411.6 413 414.8 415.2 415.5 414.4 412.7 409.4 401.7 395 388 381.8 377.3 375.6 376.9 376.5 370.6
331.8 324.8 317 302.7 289.8 279.6 269.6 258.5 251.3 245.3 240.4 236.4 231.3 225.9 220.2 215.4 209.6 203.6 196.8 192.4 191.5 189.2 185.6 178.4 172.7 173 178 184 192.3 195.5 197.6 202.4 202 194.2 190.7 191.7 194.7 197.7 199.9 204.8 206.7 206.4 208.5 217.7 219.5 221.1 222 226.5 232.8 238.6 243.8 251.6 256.9 259.6 262.4 269.1 280 290.6 298.3 304.8 310 310.9 310.9 310.3 308.3 306.2 303.6 297.8 278.7 251.4 228 219.5 216 218 224.2 230.5 235.7 237.3 235 236.1 240.2 241.7 256.3 265.9 274 280 284.1 283.4 286.7 289.9 294 298 300.2 302.7 306.4 310.3 312.8 314.8 316.7 319.9 325.8 330.8 334.3 336.9 338.7 338.9 338.3 337.9 338.5 340 340.7 341.7 342.2 343.4 344.7 346 346.2 345.7 343.1 341.4 339.8 337.9 336.6 335.1 332.4 330.4 328.2 319.2 313.5 305.4 295.6 284.4 266 260.2 255.1 262.9 271.6 276.3 277.7 277.7 276.2 273.6 265.6 260.2 265.3 263.5 266.4 269.1 271.9 279 280.3 286.1 287.5 287.6 292.1 296.7 301.4 310.6 317.6 323.3 327.6 329.7 333.2 338.5 343 346.1 350.1 355.9 360.2 365.2 368.1 373.9 381.6 387 391.2 395.6 396.7 400.7 402.8 405.8 407.6 408.4 410.5 411.4 412.8 413.9 414.4 414.3 412.5 410.4 405.6 398.1 391.6 384.7 378.2 375.2 374.7 374.5 372.7 367.8
317.6 306 295.4 286.5 277.2 268.4 259.4 250.9 244.3 239.8 234.3 231.1 227.6 222.8 216.1 207.7 204.6 200.6 195.8 192.5 191.2 185.1 185.8 181.1 172.3 172.7 174.8 181.2 186.5 189.2 188.2 187.2 186.4 197.2 204.7 205.4 199.9 201.6 197.8 199.8 202.6 204.7 210.8 212.5 215 219 221.5 225.3 227.4 232.3 240.2 249 253 257.9 258.2 261.9 270.4 279.7 290.5 297.7 305.7 310.4 310.9 310.4 309.4 307.5 304.3 296.1 270.7 245.5 228 214.9 212.5 215.4 217 221.2 222.4 227.1 228.9 230.6 234.6 244.9 259.1 270.2 277 282 285.2 287.8 289.8 292.3 296.2 299.5 301.5 304 309 312.1 314.9 318.4 321.8 326.5 332.5 339.3 341.9 341.2 340.9 339.8 338.3 337 336.9 338.8 338.5 339.6 340.3 341.4 341.1 342.8 343.3 341.5 338.7 336.9 336.7 336.3 335.3 334.3 332.8 331.5 328.5 320.5 312.9 306.2 295.3 282 265.3 259.2 254.1 258.8 267.8 272.1 272 270.4 265.8 259.3 257.9 261.4 265.4 266.6 272.4 277.5 280.5 284.4 286.7 289.3 292.4 295.8 295.3 297 298.4 301.2 306 314.2 325.3 329.4 332.1 334.4 341.7 343 349.4 353 357.8 358.2 368.6 374.3 380.9 386.4 391.2 394.8 398.8 399.7 402.5 404.2 406.2 408.5 410.5 412 413.2 413.9 413.1 412.8 410.3 406.2 400.8 394.1 387.4 380 375.7 373.3 372.1 371.8 368.6 364
298.6 290.7 284.5 276.3 268.5 259.8 250.7 244 239 235.3 231.3 226.6 223.1 219.4 211.1 203.3 199.8 198.3 195.1 193.5 191 190 186 178.3 171.9 173.1 173.3 176.1 179.8 184 185.7 187.1 191.4 198.8 204.7 207.9 207 203.9 204.6 204.1 202.6 204.3 205 208.5 211.2 212.2 218.3 220.6 223.6 229.7 236.1 240.4 246.4 255.9 258.3 257.6 261.7 269 279.8 292.5 302.7 308.3 311.2 310.6 310.1 308 304.6 291.3 263.3 240.4 219.4 212.8 213.2 220.6 229.6 231.4 232.8 234.8 236.8 239.5 249.5 259.6 267.2 273 278.6 283.7 286.6 288.8 290.5 293.5 297.4 300.1 302.6 305.3 310.9 315 319.2 324 328.8 332.2 337.3 344.2 348.6 349.9 344.9 339.7 336.8 335.4 336.1 337.8 337.8 338.4 338.5 338.2 337.4 337.4 338.8 335.9 334.5 333.9 334 333.8 333.2 332.7 332.3 331.3 329.6 321.8 314.8 306.2 297.5 285.1 268.1 261.1 255.8 254.5 261.7 264.4 264.2 259 255.2 260.4 262.5 267.4 273.6 281.2 284.2 285.9 286.7 288.2 290.1 292.6 293.7 297.4 300 304.5 306 307.6 311.4 308.5 324.6 328.8 333.6 337.5 340.4 343 344.1 353.6 356.1 361.1 365.8 374.3 380.5 385.5 391 395.5 399.1 401.6 403.1 405.1 406.4 407.9 410.4 411.5 412.7 413.8 414.1 413 407.9 401.4 396.5 389.5 382.7 377.6 374.5 372 370.3 369 365 360.7
287.3 282.2 274.7 266.7 261.1 252.9 245.2 239 234.1 229.9 226.3 222.4 218.3 215.6 210.4 204.4 199.9 198.8 196 194 191.3 187.9 180.1 170.5 171.2 173.2 179.2 181.1 180.3 186.1 189.7 191.1 192.7 194.6 197.4 203 204.9 205.1 205.4 204.5 204.7 204.9 204.9 205.2 210.4 211.4 211.6 218.2 222.3 225.4 230.4 235.3 240.8 248.1 256.6 255.5 256.8 261.2 270.7 286.5 298.1 305.6 310.5 311.6 311 308.6 306.2 286.7 258.5 235.9 212 212.8 216.6 223.7 231.6 235.7 238.3 240.7 243.4 252.6 259.1 264.7 270.7 274.6 278.3 283.7 286.6 289.3 291.3 294.3 298.1 300.4 303.3 307.1 312.4 317.7 323.6 329.3 335.7 341 344 346.7 351.8 353.7 348.1 338.8 335.7 333.9 335 336.4 337.3 337.3 335.4 335 333 333.7 332.9 331.2 331.7 331.4 331.6 331.3 330.7 331.3 330.9 329.2 329.4 323.1 314.5 309.2 296.5 286 270.1 262.7 258 252.6 254.7 256 253.9 254.3 260.5 264.1 266.8 269.8 278.2 282.5 284.1 286.9 289.6 290.9 292.3 294.5 297.3 304 310.3 314 316 317.7 316 319.6 316.5 328.5 334.2 338 341.5 344.3 348.3 352.1 355.8 360.8 367.3 372.1 379.5 383.2 390.8 396.2 398.7 401.9 403.7 405.3 406.8 408.8 410.3 411.9 413 414.1 414.1 413.3 408.7 402.9 396.1 388.8 382.3 376.1 371.5 369.5 367.6 364.6 360.7 357.2
278.7 273.3 267.2 259.5 253.1 247.1 240.2 234.3 229.2 225.4 222 217.9 214.2 211 209.1 205.5 202.3 200.3 196.6 193.6 187.1 179.2 170.8 171.4 170.9 174 178.1 181.6 182.8 186.4 188.8 190.2 192.3 194.7 195.1 199.1 201.5 203.2 202.9 204 205 205.4 205.5 208.8 209.4 210.4 210.7 213.2 219.5 223.1 226.6 231 237 241.7 249.3 253.9 253.6 255.9 261.1 277.4 291.6 302.2 308 311.7 311.3 309.4 305.7 283.3 254.6 234.8 210.3 213 218.4 226.2 231.6 235.4 238.6 242.4 248.6 257.8 265.5 269.4 272.1 277 280.1 285 288.3 290.2 292.4 295.5 299.6 302.3 304.5 308.4 314.7 319.1 325.8 333.2 342.6 349.7 347.2 345.6 345.8 346.3 342.2 336.7 334 333.7 335.5 336.8 336.9 336.6 331.7 329.9 329.4 328.9 328.1 328.4 328.9 329 328.2 327.7 328 327.8 328 326.6 326 321.9 315.1 310.6 301.8 291 276.1 266.1 260 253.9 252.3 251.5 254.1 257.5 262 263.3 265.5 269.5 276.3 281.8 286.6 289.2 290.5 293.9 295.1 298.6 304.8 310.5 316.7 321.7 327 330.3 330.9 329.1 329.8 329.9 334.6 338.5 342.2 345.4 348.7 352.8 356.6 361 365.8 372.3 380.8 386.6 392.2 397 399.7 401.6 403.9 405.4 407.2 409.1 410.9 412.3 413.3 414 414.2 413.5 410 405.9 397.9 389.1 380.3 374.5 369.8 367.2 364.9 362.1 358.9 355
268.2 265.8 260.5 253.5 245.6 240 233.9 227.8 222.3 219.5 216.9 214.1 211.1 208.7 207.6 205.4 203 199.9 195 188.9 178.6 177.5 170.8 171.4 172.9 178.1 177.1 181.5 183 185.9 188.3 189.5 192.5 193.7 192.1 195.9 197.9 201.2 203.1 204 204.1 205.2 206.6 208.6 208.5 209.3 210.3 212.9 216.4 217.7 220.1 226.6 234.2 238.3 242.1 245.9 247.5 252.7 256.2 264.1 282.5 295.6 302.7 310.8 311.1 309 303.4 281.1 251.8 233.5 207.1 210.8 217.3 224.1 231.3 235.3 238.8 243.4 249.6 258.7 266 272.1 276.1 279.6 282.2 287.5 290.1 291.6 293.9 297.3 301.3 304.4 306.1 309.4 314.3 319.4 326.8 333.7 342.7 347.5 343 338.5 337.8 337.3 335 333.4 326.6 333.9 335.4 336.3 335.4 333.6 329.1 324.1 326.3 325.7 325.8 326 326.9 325.9 323.5 323.3 323.8 325.2 325.4 324.9 323.2 320.3 316.8 310.2 303.3 295.5 282.9 271.3 264.4 257.5 252.2 251.4 252.1 255.1 258.4 263.7 269.2 273.1 279.2 283.7 288.6 291.2 294.7 295.6 298.3 302.3 309.9 315.8 321.1 328.4 333.4 335.7 336.5 335.3 335 335.2 335.1 339.9 342.7 346.7 349.5 353.2 357.1 361.3 366.2 371 379.3 386.9 392.5 397.4 400.2 402.1 402.8 405.6 407.6 409.4 411.2 412.7 413.6 414 414.3 413.9 411.1 407.3 398.2 391.6 380.2 374.2 368.8 364.8 361.9 359.2 355.3 352.4
262.1 257.6 252.2 245.4 239.8 234.2 227.3 221.3 217.1 214.6 212 211 208.7 205.3 204.3 203.5 201.8 199.8 194 186.1 181.3 176.1 170.6 164.5 170.7 172.4 176.8 179.7 182.4 185.3 186.2 186.9 185.1 185 186.1 189.3 190.3 196.1 200.4 204.5 207.2 209.7 211.8 211 212.7 211.8 210.8 213.1 214.3 216.2 217.3 222.3 226.5 229.4 238.1 239.2 241.8 248.3 252.3 256.5 270.6 288.5 300.9 307.8 308.6 307.4 302.4 277.8 249.2 222.4 204.7 210.2 213.2 220.7 227.9 234.7 238.4 242.6 248.9 259.3 267.7 273 278 281.2 284 289.2 292 293.3 295.1 298.5 302.6 305.3 307.1 309.7 314.4 319.1 324.3 330.1 334.6 335.9 335.3 334.2 332.9 330.9 329.2 328.2 325.6 327.2 330.1 331.7 330.4 327.7 325.1 324.2 324.2 323.8 323.3 323.5 324.8 325.2 320.2 319.4 320.1 321.4 322.4 322.3 322.4 319.8 316.7 313.1 305.5 296.8 289.2 275.4 266.9 261 254.9 251.4 250.9 257.7 263.4 268.3 273 275 279.8 286.9 290.9 294 296 298.1 300.7 305.2 312.6 319.6 323.5 332.8 336.6 339.6 340 339.5 339.1 338.6 340.3 341.8 344.8 346.9 350.1 353.8 358.2 362.1 365.9 371.3 378.2 386.4 391.5 396 399.7 402.3 403.5 405.5 407.7 409.6 411.3 412.9 413.7 414.4 414.5 413.7 410.9 407.3 397.7 390.1 382 373.8 369.2 364.7 361.6 358.4 354.8 348.2
249.2 244.1 239.5 237.3 232.3 225.2 219.7 215.5 212.6 209.8 208.2 206.5 205.5 202.8 200.4 198.1 197.4 195.2 192.4 181.3 180.4 181.7 173.1 168.3 169.7 169.8 169.2 169.6 172.7 172.8 175.9 175.8 176.7 179.9 178.6 179.6 179.6 184.6 187.8 193.8 202.3 204.1 206.6 210.7 212.2 212.4 212.4 211.1 211.3 214.7 215.8 218.1 220.7 224.1 229.4 235.5 237.1 241.2 248.5 252.3 257.4 276.5 292 302.5 309.3 307.9 302.3 276 249.3 234.2 206.6 207.2 211.8 217.8 226.9 233.8 236.9 241.7 247.3 256.6 268.1 274.1 279 282.6 286.4 291.1 293.9 295 296.9 299.6 303.9 305.9 307.7 310.4 315.2 319.3 321.9 325.2 327.9 329.4 329.3 328.7 327.1 325.7 324.7 324.3 323.4 319.7 321.2 321.5 323.2 322.5 322.1 322.2 321.6 321.3 320.6 319.7 321.3 319.6 315.4 314.9 316.5 318.1 319.3 320.1 320 318.6 317.4 312.9 306.3 298 292.5 283 270.3 260.9 253.5 250.5 250.7 255.9 265.5 270.5 276.6 279.8 281.9 287.3 293.4 295.2 297.6 300.1 302.9 309.4 316.4 321.5 324.3 331.1 338.4 341.8 342.5 342.6 342.5 343.2 343.9 345.5 345.2 347.1 349.7 355 357.3 362.3 367.2 372.4 378 381.5 387.6 393.8 398.6 402 404.3 406.3 407.4 409.5 411.2 412.4 413.5 414.5 414.2 413.4 409.1 405 396.3 388.8 380.9 375.5 369.5 366.3 362.7 359.1 354.7 350.3
237.8 236.5 234.6 226.2 222.6 217.7 214.2 211.2 207.8 205.6 203.9 202.4 200.7 199.3 196.6 194 191.7 190 187.3 178.5 175.4 174.5 170.5 167.7 168.4 169 168.2 168.1 168.1 167.9 168.3 169.1 169.4 170.1 170.4 171.1 172.5 176.1 178.1 182.7 192.2 194.6 197.2 201.3 209.9 212 210.6 209.9 211.6 215.6 216.4 217.4 218.8 221.8 224.1 229.1 234 237.5 242.7 249.3 253.5 262.3 281.1 296 304.8 308.1 302.4 277.9 249.7 233.3 207.2 206.5 208.2 214.6 226.6 232.8 235.8 240 245.8 254.9 266.1 273.2 279.4 283.9 287.8 292.2 294.5 296.2 298.2 300.6 304.6 305.1 307.9 310.1 315.2 319.1 321.8 322.3 322.9 324 324.5 324.1 323.3 323.3 323.2 322.7 321.5 317.1 317 317.1 319.3 320 320 320.2 320.1 319.6 316.6 315 313.8 311.9 309.7 311.6 313.4 315.1 316.1 317.4 318.4 318.4 316.5 312.5 306.9 299.8 294.4 286.4 278.2 265.5 252 249.7 248 253.6 258.6 271.9 278.1 282.8 286.2 290.3 294.5 297.2 300.3 302.6 305.8 311.1 318.1 323.3 326.3 329.9 337.7 342.6 344.2 345.2 345.6 346.4 346.6 347.6 348.2 350.4 353.2 356 360.4 360.1 365.4 370.9 371.5 382.6 387.6 392 397.5 402.1 404.6 406.9 408.5 410.1 410.9 412.1 413.2 414 414.3 412.3 407.7 401.9 396.1 389.7 384.6 378.8 373.3 368.7 363.1 358.7 355.4 350.2
228 221.7 220.8 218.5 214.4 211.8 208.8 206.3 204.2 201.3 199.5 198.2 195.8 193.5 192 189.1 187.1 185.8 181.9 176.7 170.6 168.2 166.6 167.2 168.6 166.8 167.4 167.5 167.5 167.7 168.9 169 169.8 170.4 171.1 170.9 172.4 172.8 173.7 175.9 182.6 190.8 194 196.7 203.7 208.2 209.8 207.8 209.5 214 217.9 218.6 218.3 221.9 223.6 225 228.3 233.4 240.9 250.2 253.5 258.2 268.4 282.1 296.7 305.4 300.1 278.2 253.9 233.8 207.8 205.6 206.2 208.6 219.5 228.6 234.1 239.7 245 251.9 263.2 271.6 278.4 284.2 288.1 291.8 294.6 295.9 297.8 300.6 304.7 306.5 307.8 309.8 313.4 317.5 320.4 320.9 321.3 321.3 321.6 321.5 321.6 321.1 321.6 318.7 316.1 314.1 314.1 314.6 316.3 317.7 317.9 315.8 317 317.5 312.5 310.3 308.3 306 304.9 307.6 309.9 312.7 314.8 316.1 317.5 317.3 316.8 313.6 308.7 302.1 295.7 290 280.1 277.4 250.8 249.1 249.4 255.1 266.5 273.3 279.5 283.9 288.1 292.5 297.5 299.7 301.3 304.3 307.8 311.9 317.9 322.9 326.5 330.5 337.6 344.9 345.6 346.6 347.6 351.8 349.4 349.8 350.3 351.8 355.7 362.5 369 372.3 378 381.2 386.4 387.3 389.1 385.5 398.6 402.7 405.4 407.3 408.9 410.4 411.3 412.2 413.4 414 414.3 412.4 407.7 401.6 397.9 391.4 386.1 381.7 376.5 370.6 364.5 361.9 357.4 352.5
215.2 215.6 212.7 210.9 208.9 207.1 205.4 202.2 200.2 196.7 193.5 191 190.4 188.9 187.6 185.8 181.5 179.8 176 172.5 168.4 166.6 166.3 166.3 166.6 167.3 167.4 168 168.9 169.2 169.2 168.7 169.6 170.4 170.5 170.9 171.5 172.1 172.9 174.1 176.2 177.1 182.6 190.5 199.3 200.7 201.8 205 205.2 210.1 213.3 219 221.2 224.2 225.8 223.1 224 228.6 234 244.7 251 255.9 260.8 268.9 279.8 292.4 293.2 279.4 260.2 237.9 210.4 206.7 205 204.5 209.9 224 232.4 237.5 241.6 247.3 257.6 269 276.9 283.6 288.2 291.9 294.6 295.8 297.3 300 304.2 306.5 307.5 308.9 310.8 314.1 316.3 318.4 318 318.1 318.7 318.3 318.1 316.9 316.9 314.3 312.9 312.1 312.5 313 314.7 315.9 315.1 313.1 311.3 312.2 310.4 305.7 304.4 301.8 300.5 304.3 307.3 309.7 312.9 316 317.4 317.7 315.3 313 309.2 303.4 298.2 292.2 285.5 268.1 249.3 248.7 249.3 255.4 269.1 275.2 282.3 286.5 290.8 294.7 299.6 302.3 303.7 304.9 308.9 313.4 318.9 324.4 328.1 332 336.9 340.9 342.5 341.4 335.2 338.2 341.7 340.6 352.5 353.6 358.9 367.1 375.6 380.1 384.9 391.9 395.1 395.7 394.2 397.7 399 400.7 405.5 405.5 409.2 410.6 411.5 412.4 413.6 414.7 415 413.9 410.5 406.8 400.5 393.9 389 384.8 379 374.4 370.6 365.6 360.4 355.5
207.3 208.3 207.4 206 204.1 202.2 199.6 196.8 193.9 191.7 188.5 186.6 185.9 185.4 183 182 177.3 173.8 170.5 168.2 166.2 166 166.4 165.8 166.2 165.4 167.8 165.2 163.1 168.2 164.3 169.8 168 165.5 170.5 170.8 170.8 170.7 172.6 173.6 174.1 174.9 175.8 177.1 186.4 193.3 198 201.2 203.3 206.6 209.8 216.3 221.1 223.1 223.6 222.4 223.3 224.9 231.9 239.9 246.1 252.2 257.2 261.1 268 275.7 279 277.2 259.5 238.1 217.6 213.3 208.8 204.4 201.4 217.9 229.3 234.3 238.4 245.3 256.2 268.6 276 283.2 288.1 290.7 294.4 295.3 296.3 298.6 302.9 305.6 307.2 308.1 308.9 310.7 312.2 313.6 314.3 313.7 313.5 314 312.6 312.4 312.7 312.9 311.7 311.4 306.9 310.8 310.7 313 312.3 306.3 305.7 304.8 303.6 301.4 298.8 298.1 298.7 302.7 305.8 308.8 311.6 314.2 316 317.4 316.4 312 309.1 302.6 298 291.5 284.2 270 247.9 248 248.4 254 264.5 274.3 282.8 288.8 293.4 298.7 303.8 305.5 306.8 310.3 313 314.8 319 324.5 327.7 331.7 335.6 339.2 344.3 345.2 341.4 335 336.6 334.1 354.7 356.4 362.1 369.3 377.8 383.1 391.2 397.1 399.2 399.7 397.9 401.2 401 405.6 406.6 408 409.3 410.6 411.9 413.3 414.6 415.7 416.6 415.6 412.8 409.9 403 397.6 393.7 388.2 383.6 378.7 374.3 369.9 364.8 361.2
201 201.6 202.1 201.6 198.6 195.7 192.6 188.2 186.2 184.9 183 182.1 181.9 181.2 177.6 175.1 171.9 169.5 167.8 166.1 165.1 165.8 162 160.9 165.8 166.6 168.1 170.2 175.6 176.1 175.6 174 172.2 171.5 172.5 172.9 173.9 175.7 170.1 174.5 174.7 174.6 175.5 175.7 178.5 182 188.8 196.3 204.4 206.1 208.6 212.5 219 222.7 221.9 220.3 223 226.1 231 238 243.6 249.1 254.6 258.2 260.9 264.6 267.1 266.2 257.7 237 222.4 217.2 216.5 205.6 204 211.3 226.2 232.2 236.5 242.4 251.9 264 273.6 280.7 286.8 289 291.7 293.5 295.8 298.1 302.2 305.1 307.1 307.5 308.3 309 309.8 310.9 310.8 310.6 310.9 310.2 309.9 310 310.7 311 310 309.2 306.4 306.4 308 309.4 308.5 306.8 303.8 300.3 301.3 299.5 293 290.3 294.8 300 303.4 306.8 310.1 312.2 314.1 316.2 315.9 311.5 307.8 302.8 296.1 291.2 282.7 266.8 246.6 247.4 248.2 253.9 269.1 279.7 287 294.7 299.7 303.7 307.6 310.8 312.5 315 316 318.6 320.1 324.9 328 332.1 333.9 336.5 343.5 345.7 346.5 336.7 340.8 350.8 349 357.1 361.9 369.2 376.9 384.1 392.9 399.3 402.2 402.8 403.1 403.4 406 407.3 408.1 409.5 410.8 412.1 413.4 414.5 415.6 416.6 417.2 416.7 415 412.4 407.6 402.1 397.6 392 386.6 381.7 377.5 372.8 369.4 365.6
195.2 195.3 194.9 193.3 190.5 187 183.7 182.2 180.9 180.1 179.5 178.5 176.9 174.6 171.8 166.9 164.3 164.8 166 165.5 160.9 165.7 165.9 166.6 167.6 169.7 177.8 185.1 188.9 188.6 187.4 185.9 187 185.5 184 182.1 176.6 180.5 176.5 173.7 172.9 174.8 175.5 176.4 177.1 179.3 180.8 188.9 202.2 204.7 209.5 211.6 212.9 212.2 218.7 217.1 222 227.6 231.1 234 239.9 245.6 251.7 254.8 257.4 259 259.4 259.5 257 239.8 231.7 222.7 216.4 212.3 203.9 209.2 223.5 230.5 235.2 240.1 246.2 257.2 269.3 276.1 282.7 286.9 287.3 290.4 293.7 296.6 301.2 304.9 306.5 306.6 307.3 307.8 309 309.1 308.8 308.2 308.6 307.7 307.9 308.3 308 308.4 306.7 305.5 303.4 300.7 304.1 304.9 305.6 304.2 302 300.2 292.6 296.3 290 281.6 290.6 296.7 301.8 306.3 309.4 311.2 313.3 315.4 315.6 311.1 303.6 300.3 295 290 282.9 265.8 245.9 247.6 252.9 259.1 273.6 281.7 293.2 299.1 302.5 305.5 309.4 312.4 316 317.3 319.3 321.8 323.6 327.2 329.8 332.7 335.4 339.2 343.2 345.8 345.8 348 357.3 359.3 359.6 359.9 361.8 368.8 375.5 382.8 391.6 399 403.3 404.5 405.6 405.7 407.3 408.8 410.3 411.2 412.3 413.8 414.9 416 417.1 417.8 418.4 418.3 417.5 415.2 412.2 406.9 402.4 396.5 390.9 387.5 381.4 379 375.9 371.6
189 188.4 187.4 186.2 184.2 181.2 177 174.9 173 170.2 164.3 162.9 163.2 163.2 163.5 163.6 163.6 163.2 162.9 164.7 164.6 165 166.7 168.6 180.3 187.7 191.7 194 195.4 197.7 198.1 200.9 203.3 204.5 205.8 203.1 197 190 186.3 184.1 177.1 176.6 176.6 176 172.7 177.3 179 181.5 189.9 200.8 206.2 209.9 206.1 203.8 211.1 215.8 218 223.4 228.4 231.2 234.8 241.6 249 250.9 252.8 254.8 256.9 255.4 255.3 239 231.4 226.2 218.3 210.4 204.3 206.3 221.5 229.4 234 237.5 241.5 249.2 259.8 269.6 275 279.6 278.2 286.5 292.2 295.1 299.7 303.9 306.4 306.5 306.4 306.6 308.1 308.2 307.2 306.4 306.4 305.9 306.2 303.8 303.5 303.3 303.3 300 299.2 297.9 301.1 302.2 302.5 301.9 300.6 299.3 295.1 291.3 285.5 274.9 288.5 295.9 301.7 305.6 308.7 310.7 313.6 315.2 314.9 308.2 301.9 296.2 291.4 287.3 281.9 266.4 245.4 248.3 253.2 258.4 267 281.8 292.3 299.2 301.5 304.1 307.6 311.4 316.7 319.3 326.2 325.9 326.8 329.6 331.8 333.8 337.2 342.1 344.3 346 347.9 349.1 352.3 356.7 359.9 358.3 362.8 366.4 372.9 380.9 387.9 397.2 403.1 405.4 407.1 406.4 407.8 410.5 412.5 414 414.1 415.2 416.5 418.4 418.9 419.9 420.5 419.8 419.6 418.2 415.4 410.5 406.5 402.2 396.7 393.5 389.7 385 382.5 377.5
177.7 177.4 177.6 178.6 176.4 172 167.9 165.6 164.6 163.5 161.6 161.4 161.5 161.5 161.5 162.6 162.7 164.5 164.8 164.5 164.4 164.4 175.3 185.8 190.5 194.1 195.1 199.4 201.6 204.4 206.4 209.7 211.7 214.9 216.2 208.8 206.1 200.9 197.2 194 188.9 182.2 176.2 176.4 176.9 176.3 178.4 178.8 186.6 194.4 200.9 203 201.5 206.8 208.6 214.9 214.9 217.9 223 227.9 230.9 237.2 243.4 247.1 249 250.8 252.3 253.2 250.7 239.7 232.3 228 223.9 212 205.4 202.8 218.8 228.1 231.9 235.3 238.8 243.9 251 254 258.8 268 281.8 287.4 291.2 293.8 296.7 300.9 303.8 305.5 305.3 304.3 305.6 305.8 305.9 303.8 302.6 300.1 301.9 300.6 299.1 298.9 297.7 295.2 295.6 296.1 297.9 298.4 298.7 298.1 296.8 296.2 294 285.5 277.8 279.1 286.8 296.5 302.9 306.9 309.1 311.3 312.9 313.9 309.9 304.3 297.6 292.2 287.9 285 279.8 266.2 244.9 248.2 251.2 254.8 268 280.7 291.1 297 299.9 302.3 306.5 310.8 316.2 320.3 325.5 326.6 328.1 329.7 333.7 335.1 337.6 341 342.9 344.7 346.9 349.5 350.6 353.7 355 356.8 360.9 363.2 371.2 375.5 385.1 391.7 402.1 406.3 408.5 408.8 409.6 412.2 414 415.3 417 418.9 420 420.8 421.6 422.7 422.3 421.9 421.7 420.4 419.4 416.3 414 409.3 405.1 401.3 397.9 392.7 389.9 384.5
183.2 182.8 180.7 174 170.8 163.9 164.8 164.2 160.9 161.2 160.8 161.6 161.4 161.2 162.7 163.4 163.5 164 163.7 166.5 171.5 177.4 184.3 190.6 194.1 196.8 199.1 203.9 206.9 210.1 214.8 218.9 225.1 226.6 219.3 222.6 215.8 209.8 204.9 205.2 197.9 192.4 187.2 176.3 176.2 176.4 172.8 178.8 180 188.8 192.9 196 203.4 210.5 213.9 214.4 215.1 216.9 219.8 224.4 227.1 232.7 238 242 245.4 247.9 248.9 249.8 247.8 241.1 236.5 228.3 225 218 206.6 202.9 216.6 225.1 230 234.6 237.8 240.9 246.5 250.5 260.9 274.2 281.2 286.4 289.7 292 295 296.6 299 301 301.1 300.5 301.4 301.6 300.8 298.7 295.9 294.8 295.5 295.1 294.3 294.5 293.6 292 289.1 293.2 294.5 294.1 293.8 292.9 293.1 293 289.2 277.3 268.2 279.9 287.5 298.2 304.7 308.2 309.9 312.1 312.9 311.5 305.5 299.2 291.3 288.7 284 280.2 275.4 262.9 244.4 245.1 249 253.5 267.4 279.4 289.4 294.5 297.8 301.1 304.9 310.2 314.2 320.3 323.7 325.4 326.8 330.5 332.9 334.4 336.9 336.8 336.8 338.5 341.7 342.6 350 351.8 353.2 354.4 356.6 361.1 365.4 373.5 379.8 388.6 399.2 405.7 409.1 410.8 411.6 414 415.7 418.3 419.9 422.6 424.2 424.8 425.3 425.2 424.8 424.2 424.7 424.1 423 421.2 418.7 417.3 413.3 408.1 404.4 400.4 397.8 393.5
