ncols 200
nrows 82
xllcorner 290000
yllcorner 241150
cellsize 50
220 219.6 218.3 216.3 215 212.2 210 202.1 194.9 194 193.5 193.2 191.8 193.6 194.3 196.8 200.4 206.3 209.8 212.2 214.2 216.8 220.9 226.7 232.1 237.2 244.2 251.3 255.8 258.8 260.5 261.8 260.6 258.2 258 256.2 244.4 232.8 234.6 243.4 255.3 267.8 272.9 277.5 283.7 290.6 297 301 302.7 303.2 302.1 297.9 279.4 250.6 238.6 251.3 259.9 270.8 281.8 289.5 296.2 305.5 317 329.8 343.8 358 370.5 381.1 390.8 399.9 408.2 415.3 421.3 426.3 429.1 430.5 429.3 427.1 425.2 423 420.1 410 380.6 353.7 334.7 360.7 401.4 426.4 434.6 438.8 439.1 437.5 438.2 440.9 443.6 446.1 447.6 445.6 444.6 442.7 441.5 439 437.5 436 434.5 433.8 433.1 432.2 431 430.3 431.1 431 429.2 426.6 423.7 422.3 422.2 423.3 424.3 425 426.5 427.6 427.9 427.2 427.1 430.8 432.8 433.3 433.1 432.7 432.5 432 431.7 432.7 433.7 434.9 435.5 437.6 438.7 438.7 437.7 436.6 434.5 432.1 429.5 426.9 426 426.1 427 428.9 430 430.1 429.9 429.3 428.9 428.7 428.3 426.6 424.4 424.4 426.4 428.9 430.4 433.5 434.6 435.1 435.2 434.5 436.9 438.3 438.1 437.8 437.2 436.4 436.2 435.7 435.6 436.5 437.9 437.9 438.1 438.2 437.9 436.5 434.8 432.1 430.3 429.4 429.5 430 430.9 431.4 432.6 433.4 432.9 431.7 430.8 431.5 432.5 432.3
217.4 215.4 213.7 211.5 208 204.3 200.4 195.1 194.3 193.3 193.4 193 194.7 197.1 200.4 203.8 206.4 208.2 211.4 213.9 216.3 219.3 223.4 228.4 234.3 241.1 248.7 255.6 259.2 261.6 263.5 264.2 263.4 263.1 262.5 255 240.6 234.4 238.1 237.5 244.4 256.3 266.6 275.5 284.6 293 300.5 305.7 306.5 306.3 304.3 299.8 280 250.8 241 254.6 262.5 270.4 279 287.9 296.9 308 321 334.5 349.1 362.3 373.6 384.2 393.6 402.1 409.6 417.1 422.6 427.3 430.4 431.3 431 430.7 429.7 429.1 427.6 422.9 404.1 375 349.7 377.1 412.1 429.8 438.1 440.9 440.6 440.3 441.5 445.5 447.7 448.4 448.9 449.4 447.5 443.9 440.4 437.6 435.9 435 434.5 433.9 433.3 432 430.5 428.3 427.6 428.1 426.8 424.5 421.7 419.4 418.6 419.2 420.3 421.9 423.7 424.8 425.2 424.1 426.3 428.9 430.2 430.4 431.1 430.6 430 428.8 427 427.8 429 430.3 433.1 437.1 438.6 439.1 439 438.7 437.6 435.7 433.6 431.5 430 429.6 429.7 430.7 432.2 432.3 431.4 430.1 429.7 429.3 429.1 427.6 428.4 430.6 433.5 438.4 440.5 441.1 442.3 441.9 440.4 437.6 438.7 439.6 440 440.2 439.4 438.5 438.9 438.2 437.9 438.1 439.1 439.8 439.4 438.1 436.5 434.7 432.3 430.1 429.3 429 428.5 428.4 429.4 429.7 431 432.2 432.2 431.6 431.2 432 433.2 433.2
214.1 211 208.3 205.6 202 198.5 196.2 194.7 194.6 192.5 192.8 194.8 198.6 201.6 204.9 207.5 209.4 211.2 213.2 215.6 218.1 221.7 225.4 230.2 236.4 244.9 252.6 257.8 261.6 264 267 266.9 266.4 266.5 263.6 248.6 235.8 240.6 246.8 247.6 240.4 244.7 257 271.1 284.6 294.5 303.3 308.7 308.4 307.8 305.8 301.4 287 256.8 245.1 256.7 265 270.9 278.1 286.9 297.3 310.3 323.7 338.6 353.6 365.7 376.9 387.6 396.6 403.9 410.3 417.3 423.9 429.1 430.9 431.9 432.5 433.9 434 434.9 434.8 432.5 425.1 399.8 372.6 390.3 422.3 432.1 438.5 441.9 441.8 441.8 443.1 446 447 447.3 448.1 447.2 444.7 441.7 439.1 436.6 435.8 435 434.6 434.7 434.6 433.5 431.7 429.8 427.3 424.9 422.2 419.9 418.2 416.4 415.8 415.7 416.6 418.9 420.6 422 422.3 421.2 424.2 426.3 427.4 426.9 427.2 427.7 427.2 425.5 423.7 423.2 423.5 429.1 434.1 436.3 438.4 439.4 439.7 440.7 440.8 440.4 438.7 437.2 435.7 434.5 433.1 432.9 433.6 433.4 432.5 431.3 430.8 431.1 433 434.5 437.4 439.5 442.6 446.2 447.9 447.7 449.4 448.1 444.5 442.2 441.1 440.6 440.3 440 438.6 438.7 439.7 439.9 439.6 439.8 440.4 440.8 439.6 437.6 434.7 432.6 430 427.3 426.9 426.5 425.5 425.3 426.4 428.2 430.3 431.9 431.8 431.4 431.3 432.6 433.7 433.4
212 208.3 204.9 200 197.5 196.8 196.1 194.7 190.6 198.4 201.8 204.1 204.2 206 207.7 209.5 212.1 213.7 215.6 218.4 221.3 225.8 230.6 235.1 239.7 248.6 255.2 259.9 263.5 267.5 269.2 269.4 269.6 270 262.9 245 238.2 247.9 258.6 261 253 240 249.2 264.3 281.6 294.6 303.4 307.3 307.6 307.6 307.5 304.9 294.9 268.8 246 254.9 263.2 269.2 275.6 284.1 296.6 310.5 325.9 341.8 357 369.7 380.8 390.7 399.2 406.2 413.9 422.1 427.4 430 430.5 431.3 433.5 436.6 438.7 440.3 440.8 440.2 437.5 428.3 400.7 404 424.4 434.6 439.1 441.6 444 443 443.3 445.1 446.7 445.4 444.2 442.5 440.3 437.8 437.1 436.2 435.5 435.1 434.6 436.4 437.7 436.6 434.7 432.8 430.8 428.4 424.9 419.7 416 414.9 413.6 413.2 413.7 415.1 417.2 419 418.8 418.2 421.7 423.7 424 423.2 423.1 424.3 424.4 421.7 420.3 419 422.5 427.5 431.1 434.7 436.9 439.3 441.2 443 444.2 444.9 444.2 442.9 441.3 439.3 438 436.6 435.7 435.2 435.6 436.6 438.1 439.7 439.9 442.1 444.3 446.1 447.9 449.6 450.4 451.2 452.9 452.7 450.5 447.7 444.9 442 439.8 437.7 435.3 435.7 437.8 439.4 439.9 439.9 439.9 439.1 437.5 434.9 432.5 429.7 426.5 424.1 423.3 422.6 422 422.2 423.9 426.3 429.2 430.6 431.1 431.1 431.7 433.1 433.7 433.6
221.5 216.6 205.3 197.4 196.2 194.3 194.6 195.7 200.3 203.6 206.2 208 208.7 208.9 209.7 212.7 215.4 216.8 218.3 221.2 225.2 230.7 235.9 241.4 246.8 253 258.2 262.7 266.9 270.3 271.5 272.1 273.3 271.9 261.2 242.3 245 259.5 268.2 273.1 265.9 249.4 243.7 258.9 277.3 294.3 300.7 304.1 306 308.3 310.2 310 305.6 283 256.1 253.5 259.2 265.2 271.7 279.8 291.5 307.7 325.7 344 359.5 373.3 384.1 393.3 401.5 409.9 418.8 426.1 427.8 427.1 427.1 429.9 434.9 440.1 443.3 445 447 447.5 446.4 443.5 432.1 424.5 431.7 435.8 439 443 444.6 443.7 443.6 444.9 445.5 442.1 440 437.7 435.6 435.4 435.1 434.6 434.8 434.7 435.5 437.7 439.8 440.6 439.1 436.2 433.3 430.5 427.7 423.9 419.3 415.8 414.4 412.9 411.7 411.8 412.8 414.5 414.2 416.5 418.7 420.2 420 419.9 420.5 421.2 421.2 418.4 416.2 415.8 420 426 430.6 433.6 436.6 440.6 443.3 444.8 446.1 446.6 446.2 445.6 444.6 443.6 442.8 441.6 440.2 441 442.3 444.1 446.3 448.3 449 450.1 452 454 456.2 457.1 457 457.2 457.1 456.2 454.2 449.9 444.8 439.7 435.5 431.8 429.4 431 434.4 436.4 437.2 437 436.6 435.5 432.6 429.8 428.1 425.7 422.8 419.9 418.5 417.3 416.1 417.9 421.4 424.5 427.8 430.2 431 431.5 432.2 432.9 433.7 433.9
229 218.3 201.6 197.3 196.4 196 196.9 201 206.6 208.1 209 210.6 211.6 212 212.7 215.7 218.7 220.4 221.9 224.5 229.3 235.5 240.9 246.6 252.2 257.5 262.3 266.4 269.3 272.7 273.9 275.4 276.7 271.3 259 247 254.6 268 275.8 281.6 277.4 258.5 243.3 255.2 274.4 290.3 298 302.5 306.3 310.4 313.6 314.8 312.1 298.2 280.9 268 255.5 260.4 266.4 273.3 285 300.5 320.1 343.5 360.9 376.2 386.1 395.1 404.1 413.7 420.9 423.6 423.2 419.1 419.6 428.7 437.3 443.5 446.7 449.2 451.3 451.9 451.6 449.1 445.4 441.8 440.3 440.3 442.5 444.9 444.2 443.5 442.6 442.6 440.7 438.2 436.6 435 433.9 433.2 432.6 432.1 433.2 433.6 435.2 437.9 440.1 442 441.6 439.6 436.7 434 431 427.9 424.2 420.4 417.2 414.9 412.7 410.7 410.4 411.1 411.5 413.6 415.2 416.5 416.4 416.9 417 417.1 416.8 415.4 412.7 414 419.7 424.2 429.3 433.4 437 440.3 442.1 444.1 445.8 446.4 447.3 447.4 446.7 447.3 446.9 446.4 446.4 448.1 449.7 451.4 453.2 455 456.8 458.3 459.7 461.6 463.8 464.8 464.4 463 461.5 459.5 456.6 452.3 447.3 441.9 433.9 427.9 424.5 426.2 430.6 433.3 433.5 432.8 432.2 430.5 427.2 424 422.4 420.3 417.9 414.9 412.5 411.7 412 415.2 419.8 422.6 426.4 429.1 431.1 432.4 433.4 434.2 434.8 434.5
227 209.3 197.4 198.5 199.8 201.1 202.9 207.1 210.1 210.6 211.5 212.5 213.4 214.2 216 218.6 222.1 223.8 225.4 227.9 233.8 240.1 245.9 251.6 257 262.1 266.7 269.6 272.5 274.9 276.8 278.2 276.4 267.9 255.3 252.2 263.9 275.2 283.6 289.6 286.7 265.7 246 254.1 273.2 290.1 298.8 304.1 308.8 313.6 318.1 319.5 318 313.6 304.8 292.1 274 262 261.9 269.9 279.1 293.7 313.2 338.6 360.7 375.2 386.6 395.6 405.3 411.9 414.9 412.8 407.3 403.5 413.4 429.8 440.6 446.3 449.6 451.8 453.7 454.4 454.5 452.7 449.5 446.9 446.9 446 445.8 445.3 443.7 442.8 441.5 438.7 436.3 434.4 433.5 433.4 432.2 430.7 429.2 429.7 430.6 431.9 433.4 436.1 439 441 442 441.9 440.1 437.5 434.3 431 427.8 424.5 421 417.9 415.6 413.8 411.8 409.2 408.6 409.1 411.2 412.5 413.2 413.8 414.2 413.3 413.2 412.5 410.5 412.9 416.7 422.7 428 431.9 434.6 437.2 441.3 443.6 444.9 445.8 446.5 447.5 448.2 449.5 449.9 450.3 450.7 452.8 454.3 456.1 459.1 461.7 463.5 464.7 465.9 467.9 470 470.6 469.9 468.1 465.1 461.5 457.1 451.2 446.7 440.5 432.2 425.1 421.1 422.3 426.8 429 429.3 428.4 427.3 425.3 422 418.8 416.2 414.3 412.3 410.2 409.2 409.2 409.9 413 416.5 421.2 426.7 431 433.5 434.5 435.1 435.3 435.3 434.3
219.8 195.3 199.2 201.1 202.4 205.8 208.4 211.1 212.2 212.4 213.2 214.2 215.3 216.6 218.1 220.5 223.7 226.4 229.2 232.2 237.5 244.3 250.8 256.3 261.4 266.1 270 273.3 276.3 278.8 280.2 281 273.2 262.5 255.5 260.4 272.5 282.6 291.7 298.6 296.1 272.9 251 254.4 272.5 290.7 299.7 306.1 312.3 319.3 323.5 324 323.4 322.7 321 314.1 299.9 282.4 268.4 267.1 277.2 288.1 307.7 332.5 356 369.6 378.4 386.8 395.3 398.7 397.3 392.6 388.9 393.1 414.8 434.1 443.5 448.7 452.2 454.7 455 455.6 455 453.6 450.9 448.5 447.1 446.8 446.3 444.7 442.7 441.2 438.3 435.4 433.2 431.9 431 430.7 430.3 428.7 427.6 426.8 427.7 428.9 431.2 433.6 437.4 440.2 441.7 442.8 442.4 440 436.6 433.3 430.2 427 424.1 421 418.6 416.9 415 412.7 408.6 406.6 406.7 408.3 409.3 410.1 410.8 409.8 409.8 409.1 408 410.6 416.2 421.3 425.5 427.1 432.8 436.6 439.5 441.2 443.4 445.2 446.5 447.6 448.7 450.2 451.7 452.4 453.6 455.7 458.1 460.3 463 465.2 467 468.7 470.6 472.7 472.9 472.3 471 468.1 464.7 460.2 454 447 441.4 436 429.4 423 419 418.9 421.1 423.6 424.1 423.5 422.2 420.4 417.1 414 411.4 409.7 408.2 407.1 406.6 406.8 407.1 410.3 414.4 420.2 424.7 426.7 431.3 433.9 436 436.6 435.5 433.5
212.1 196.4 199.4 202.6 204.9 208.3 211.1 213.1 214.1 214.5 215.1 216.1 217.9 219.1 220.4 222.2 224.6 227.8 231.5 235.8 241.9 249.1 255.3 260.5 265 269.3 273.3 276.8 280.6 283.1 282.6 277.2 267.8 259.8 261.6 269.5 280.2 290 298.4 305.4 304 281.5 257.6 253.6 270.1 287.2 299.7 308.2 317.3 324.3 327.7 330 330.9 331.9 332.6 332.2 323.9 305.9 287.5 270.2 273.8 285 303.2 326.6 345.4 353.6 358 366.7 373.8 376.2 375.9 373.8 374.2 394.3 423 437.9 445.7 451.3 454.5 455.8 455.8 456 455.3 453.8 451.3 448.8 446.5 444.9 444.1 442.6 440.4 437.4 434.8 432.9 431.5 430 428.8 428 427.7 427.4 426.3 425.3 425.1 426.1 427.7 430.9 435.5 438.5 440.9 442.5 442.5 440.9 438.3 435.2 432.4 429.5 426.9 424.4 422.3 419.9 418 415.8 412.1 408.1 404.6 403.8 403.7 404.1 406.4 406.3 406.3 405.1 408 410.8 415.4 419.2 420.5 426.3 430 433 436.3 440.5 443 444.5 445.7 447.9 448.3 450.1 452.7 454.5 456.2 457.8 459.8 462.4 465.3 467.7 469.6 471.7 472.9 473.3 473.2 471.8 469.6 465.9 461.2 456.4 449.5 440.8 434.6 428.9 423.2 419.4 417 416 417.1 418.8 418.9 418.9 417.8 415.8 413 411 409.4 408 406.3 405 404.2 404.2 405.2 408.9 411.8 414.9 421.5 427.6 432.5 435.6 439.2 439.8 438.9 436.6
205.4 198.8 201.4 207.5 209.5 212.1 214.4 215.2 215.8 216.6 217.2 218.3 220.3 222 223.3 224.2 226.6 230 234.7 240.9 247.7 254.2 259.5 264.3 268.7 272.8 276.5 280.8 285.1 285.5 280.1 271.3 265 262.3 269.2 279.8 288.9 297.5 305.8 312.1 311.6 291.8 266.4 252.4 265.6 282 298.8 312 321.8 327.6 331.9 335.8 338.2 340.9 343.1 343.6 340.7 329.9 309 288.5 271.6 282.9 300.2 318.8 329.9 332 336 344 351.8 357 358.1 358.4 378.4 403 431.7 440.8 448.7 453.4 454.8 456.1 456.9 457.5 456.8 455.3 453 450.3 447.4 445.1 442.8 440.1 437 434.7 432.8 431.5 430.2 429 428.2 426.3 425.2 425.1 424.4 424.1 423.9 423.9 425.1 428.9 433.7 437 438.8 440.3 440.7 440 438.2 436.1 434.2 431.7 429.6 427.2 425.3 423.6 421 417.6 413.7 410.4 408.9 408.4 405.9 401.2 400.9 402.2 401.4 405.6 408.3 410.1 412.5 415.3 418.5 422.4 425.9 432.5 436.5 439.6 441.5 443.4 443.4 446.4 448.9 451.3 453.6 456 457.7 459.6 462.4 465 467.1 468.8 470.7 472.1 472.9 473.1 472.5 471.6 468 464.5 459.6 453.3 445 435 427.8 422.7 418.8 416.3 414.7 412.8 414.5 415.4 416.9 415.8 414.4 412.3 410.2 408.6 407.6 406.4 404.8 403.3 401.9 402.3 403.9 405.8 408.4 413.9 422.4 430.6 436.1 438.9 440.2 442 442.1 440
201.3 196.9 205.8 211.4 212.8 215.1 216.1 216.9 217.6 218.5 219.3 220.6 222.2 224.2 226.1 226.9 229.3 233 239.5 246.5 253.4 258.6 263.4 267.8 272.3 276.1 280 283.8 287.4 284.1 275.7 270.5 265.8 270.2 280.2 290.3 298.8 306.6 315.1 319.8 319.2 302.7 277.7 257.6 261 275.5 295.4 312.9 324.2 330.7 335.2 339.6 344.4 348.8 351.8 352.3 351.2 346.3 331 305.8 281 282 296.9 306.3 309.4 311.7 314.8 322.6 333.7 338.2 348.5 367.7 389.5 418.3 435.8 444.2 451.2 454 455.1 456.1 457.6 459.1 458.5 456.6 454.1 451.9 449.3 446.2 442.7 438.5 436 434.2 432.6 431.5 430.3 429 427.8 426.6 425 423.9 423.4 422.9 422.9 422.9 423 426 431.3 433.8 435.8 437 436.8 436.9 436.2 435.5 434.5 433.2 431.3 429.7 428.2 427 424.8 420.8 415.8 414.6 413 410.5 408.1 404.4 400 398.2 402.1 405.2 407.3 409.6 411.2 413.9 416.3 421.3 427.3 430.3 432.9 435.5 436 438 443.1 445.7 448.4 451.1 453.6 456.6 459.3 460.5 462.1 464.2 466.9 469 471.2 472.4 472.7 472.9 471.9 469.3 465.9 460.9 455.5 449.6 443.2 434.6 425.4 418.7 415.9 413.6 412.3 410.5 411.6 411.2 412.6 412.5 412.2 410.3 408.3 406.8 405.5 404.6 403.1 401.2 399.3 400.8 401.5 403.5 406.9 416.4 425.6 433.3 439 440.3 440.8 439.4 440.1 440.2
199.4 199.1 205.9 211.9 214.8 217 217.8 218.5 219.3 220.1 221.5 223.4 225.2 226.8 228.5 229.8 232.2 237.7 245.5 252.2 257.8 262.7 266.6 270.8 275.2 279.4 283.1 286.4 285.5 280.8 273.3 270.4 271.4 279.9 291.3 299.8 307.9 316.3 322.4 326.3 323.9 312.1 287.7 266.4 256.1 269.8 289.6 309.8 323.8 332.4 338.9 344.3 350.5 354.7 357.7 360.4 361.2 358 348.2 325.5 300.3 288.3 290.7 295.5 302.9 311.4 321.2 320.4 329.1 346.3 364.6 385.7 410.4 430.6 440.7 448.2 453.1 454.4 455.7 456.9 458.3 459 458.7 457.5 454.9 452.4 449.5 445.2 441.6 438.8 435.9 434.6 433.2 431.9 431.2 430 428.8 427.6 426.6 425.1 423.9 422.6 421.7 421.8 421.2 422.8 427.6 430.4 432.1 432.5 432.6 432.7 432.9 433 433.2 433.4 432.3 431.2 431.3 430.7 428.7 425.3 421.3 418.9 416 411.6 408.1 404.8 401.9 398 400.3 403.1 405.1 406.3 409.9 412.4 415.4 420.4 424.1 426.3 428.3 428.7 433.3 437.7 439.8 442.7 446.1 450.7 454 455.9 456.6 458.3 461.1 464 466.3 468.3 470.4 471.8 472.9 472.6 471.3 468.3 463.9 459 453.3 446.3 438.1 428.1 421.1 416.3 413.3 410.5 409 407.7 408.1 409.5 410.3 410.9 411 409.8 407.6 405.5 404 402.6 401.2 399.4 396.9 398.5 398.4 401.5 409.5 418.1 425.2 430.2 433 434.2 434.9 434.5 435.4 434.9
199 199.7 203.3 211.8 216.3 218.2 219.3 220 220.8 221.8 223.6 226.2 228.5 230.2 231.3 233.1 235.8 243.6 251.3 257 261.8 265.6 269.3 273.5 277.9 282.6 286.5 288 286.2 279 275.1 273.4 280.4 291.1 300.3 307.9 315.7 323.8 330.1 331.6 327 318.6 296.6 273.2 257.7 266.2 284 303.8 321.2 332.9 341.5 349.2 355.8 360 363.2 365.9 368.4 366.6 361.5 346.4 327.1 319.9 317.7 320.2 328.7 340.1 350.6 345.9 335.1 362.1 392.3 413 428.6 438.1 445.1 450.7 454.1 455.7 457.2 458.6 460 459.8 459.3 457.9 454.7 451.3 447.5 442.9 439.8 437.2 435.5 434.4 433.6 433.5 433 432.2 430.9 429.6 428.6 427.6 426.1 424.9 423.4 421.6 420 419.4 421.9 425.3 427.2 427.9 428.1 428.6 428.9 429.3 430.8 432.2 432.4 432.6 432.8 432.7 431.1 427.7 424.1 420.8 417 412.2 408 404.2 401.5 396.2 397 400.6 401.4 404.5 408.4 410.8 412.7 416.7 418.3 420.3 422.2 426.9 430.9 434.1 437.1 441.5 446.4 448.9 450.4 451.3 454.2 457.5 459.9 462.8 466.2 468.9 471.2 472.5 472 470.8 468.5 465.1 461 456.1 450.3 443.7 436.7 426.9 418 414.1 411.1 406.8 405.3 401.4 405 406.6 409.3 411 412.5 410.8 408.8 405.8 402.9 400 398.3 396.9 395 393.8 396.4 403.4 410.9 417.2 422.6 426.6 429 429.6 428.7 428.5 429.8 428.4
199.6 200.3 204.4 212.8 217.6 219.4 220.4 221.5 222.3 223.7 225.3 227.8 230.7 233 234.8 236.8 241.7 249.7 256.4 261.2 264.9 268.3 272 276.8 281.5 286 289.2 288.8 286.2 279.2 276.4 282.9 291.5 300.7 307.8 314.5 322.7 330.6 336 334.8 331.2 324 304.2 278 261.9 263.1 279.8 297.8 316.3 332 343.2 352.9 361 365 368.5 371.7 375.1 375.6 373.6 369.4 363.4 358 354.9 356.5 363 371 378.5 372.3 351.8 360.3 395.7 421.3 433.2 441.2 447.3 451.8 454.7 456.8 458.6 460.2 460.8 460.6 459.4 457.3 453.4 448.8 444.2 440.5 437.2 434.4 433.2 433.4 433.9 434.1 433.9 433.7 432.9 431.8 430.6 430 429.1 427.9 426.7 424.2 421.5 418.8 417.8 418.7 421.3 423.2 424.4 424.7 425.1 426.6 428.5 430.2 431.4 432.4 432.4 432 430.7 428.1 424.5 420.9 416.7 412 406.9 402.6 400 397.3 395.5 394.6 396.5 400.8 403.7 406.1 408 409.5 411.1 412.9 421.7 424.2 428.3 430 436.8 440.9 442.6 444.5 445.5 449.7 452.9 456.8 460 462.6 465.3 467.7 469.9 470.5 469.3 467.2 464.4 459.8 455.6 451 445.7 439.7 433.4 422.7 414.5 412 409.2 405.5 399.6 394.5 401.2 404 406.3 410.8 414.4 414.4 412.9 409.6 405.9 401.4 396.9 393.7 392.7 389.7 395.8 402.1 407.5 414.3 419.9 424.3 425.2 424.7 423.2 421.2 421.6 421.7
199.9 201 205.2 214.6 217.6 219.7 221.2 222.6 223.6 225.6 227.6 229.4 232.4 235 238.2 242.4 248.9 255.4 260.8 265 268.1 271.2 275.7 280.5 285.3 289.2 291.3 290.2 284.8 281.8 285.1 292.9 300 307.9 313.6 320 328.2 336 338.5 337.8 334.7 327.2 307.8 280.3 269.3 263 276.3 292.3 309.8 327.5 342.7 356 366.7 371.4 375.4 379.3 382.6 383.4 383.1 383.8 384.1 385.4 384.3 387.8 393.8 400.2 405.6 398.4 379.6 364.3 388.8 421 434.7 442.4 448.1 452.4 455.2 457.4 459.4 460.7 460.9 460.3 458.4 454.6 450.4 445.5 441.5 437.7 434.6 431.8 430.5 431.4 432.4 432.8 433.1 433.4 433.2 432.7 432 431.4 430.8 429.9 428.3 426.1 423.9 420.3 418 416.7 415.4 417.4 419.4 420.2 421.3 423.4 425.5 427.2 428.7 430.3 430.3 429.9 429.7 427.8 424.8 420.4 414.8 409.5 405.3 402.3 401.3 401.1 399.5 394.8 392.4 395.3 398.2 400.1 403.6 404.2 404.3 409.4 416.5 421.2 423.5 429.8 433.1 435.5 437.2 442.4 446.3 449.8 453.6 456.3 459 461.1 463.6 466.1 468 468.2 467.3 464.4 461.4 457.5 451.7 445.3 438.9 433.8 428 419 411.1 408.8 407.1 404.1 399.6 393.4 397.4 400.6 402.1 406.2 409.9 411.3 411 409.3 407.1 403.6 397 391.2 389.7 387 392.6 397.3 403.1 412.5 419.2 423.5 425 423.6 420.2 417.6 414.4 413.9
201.4 203.2 208.8 215.8 218.3 220.3 222 223.4 225.2 227.4 229.4 231.4 233.8 236.5 240.5 246 252.7 258.6 263.6 267.4 271.1 274.6 279.7 284.4 289 292.1 293.4 290.7 286.4 287.9 294.6 300.3 307 314.2 320.4 326.3 333.1 338.5 340.9 340.4 337 328.5 309.2 283.4 280.3 274.3 272.5 288 304 321.9 339.7 358.5 371.1 377.3 382 386.2 389.7 390.7 391.5 393.2 394.6 397.5 401.2 406.7 411.9 416.4 420.1 420.3 412.3 396.4 391 422.3 436.1 443.4 449.8 453.4 456.2 458.5 460.2 460.6 460.7 459.2 455.5 450.6 446.6 442.2 438.4 435.2 432.2 429.3 427.6 428.2 429.1 430 431 432.1 432.5 432.4 432.4 431.8 431.3 430.1 428.5 427 425 423.2 421.3 419.4 417.3 414.3 412.2 416.8 416.8 419.3 421.4 423.4 425.9 427.2 428.2 428.2 428.3 426.9 424.8 420.4 415.1 409.4 406 405 405.9 404.7 403.6 401.2 397.9 393.1 388.4 393.2 397.6 398.4 402 408.5 411.8 418.6 422.5 424.8 430 435.4 438.8 442.6 446 449.6 452.2 454.8 456.2 460.1 463.6 465.7 466.5 466.1 464 460.7 456.6 452.2 448 443 437.3 430.6 422.7 413.8 408.7 405.6 403.8 401.6 391.9 389.7 393.2 393.1 396.1 401.1 406.1 407.2 407 405.7 403.3 399.9 394.1 388.1 385.8 382.8 388.4 391.9 402.1 412.5 419.2 423.4 425.3 423.4 419.9 414.6 410.2 407.9
203.7 209.8 213.6 216.6 218.7 220.7 222.6 224.5 226.5 228.5 230.5 232.3 234.8 237.6 241.5 247.3 254 260.3 265.3 269.1 272.8 278 283.4 287.9 292.1 295 295 291.5 290.8 295.5 300.9 306.3 314.3 321.9 328.4 333.3 338.3 341.6 343.7 342.7 338.4 331.2 309.9 287.2 292.6 288.7 272.9 283.9 299 316.7 336.6 359 374.6 381.6 387.3 392.5 395.9 396.5 397.7 399.9 402.4 405.3 408.9 413.2 419 424.6 429.5 432.9 433 427.8 418.2 424.9 436.7 443.4 450.3 454.5 457.2 458.9 459.9 459.7 458.8 455.4 451.3 446.9 442.6 438.5 435.7 432.8 430.4 427.8 425.1 424.8 425.3 426.6 428.1 429.8 431.2 431.9 432 431.6 430.6 429.2 428 426.8 425.4 424.2 423 422 420.6 417.7 413.7 409.4 413.6 415 417.7 420.1 422.1 424.1 425.8 427.2 427.6 426.9 424.9 421.1 418.4 415.9 413 411.3 411 408.9 406.9 404.1 401.9 398.8 393.6 386.5 390 392 398.8 403.7 410.3 414.1 418.7 427.4 431.5 435.2 438.4 442 445.2 447.4 448.1 451.4 456.3 459.1 461 462.3 462.6 461.8 459.1 456 452.5 448 442.3 436.3 431.1 427.1 421.4 414.4 405.9 401.9 400.7 397.2 388.5 384.6 389.7 391.2 395.7 400.4 406.7 407.8 404.6 398.9 396.8 393.7 388 384.2 381.4 379.7 383.7 389.1 404.4 414.6 420.2 422.2 423 421.8 418 411.7 406 403.8
205.8 210.7 213.6 216.2 218.3 220.1 221.8 224 224.6 225.8 227.7 229.3 233.1 236.8 242 247.5 254.2 261.3 266.4 270.9 275.6 281 286.4 291 294.7 297 296.7 295.1 297 301.1 306 312.7 321.8 328.7 334.7 339.6 343.8 346.1 346.8 344.8 341 332.8 310.8 294.1 308.2 303.7 284.7 280.9 294.3 312.4 332.8 356.3 374.6 384.5 390.6 395.5 398.6 399.9 401.3 404.4 407.6 411 414.4 419.6 425.4 431.1 436.4 440.3 442.8 443.3 441 438.6 440.7 445.6 450.3 454.9 457 458.1 458.2 457.2 454.5 449.8 445.3 442.3 439.4 435.8 433 430.9 428.7 425.5 423.4 422.4 422.3 423.5 425.3 427.8 429.9 430.7 431.1 430.5 429.5 428.5 427.5 426.2 424.8 423.1 422 421.2 420.5 418.8 416 411.1 407.1 412.1 414 415.4 417.8 420.1 421.9 425.5 427.3 428.1 428.4 426.2 423.9 421.9 418.7 417.6 416.7 414.9 412.6 410.5 407.2 403.3 398.4 391.3 386.1 388.7 397.2 403 406.1 414.2 422.3 427.3 429.9 433.5 437.2 439.9 439.9 440.1 446.2 450.2 452.3 454.6 456.1 456.8 456.7 456.2 454.1 450.6 446.1 440.8 436.1 431.1 425.7 420.1 416.4 411.4 403.7 400.2 396 393.1 383.9 380.6 386.7 391.5 393.3 397 403.9 405.9 404.3 399.9 393.5 386.4 381.5 379.3 377.1 376.8 381.1 391.8 408.6 413.8 415.8 417.1 417.7 417.3 414.1 407.9 402.2 400.8
208.7 209.8 210.8 212.8 214.6 216.6 218.6 220.9 223.5 226.6 228.7 230.6 231.9 233.1 239.1 245.3 251.8 258.8 265.9 272.1 278 283 289.1 293.6 296.5 298 297.9 299.9 302.6 306.5 311.2 320.5 328.9 335.7 341.5 345.8 348.8 350.6 350 347.7 344 334.6 311.7 309.2 326 320.4 299.4 278.7 290.9 307.3 327.3 350.8 371.2 383.3 388.6 390.1 393 398 401.6 405.5 410.6 415.6 420 425.8 431.5 437.2 442.8 447 449.5 450.6 450.8 450.5 451 451.2 452.9 454.4 456.1 456.7 454.9 452.8 449.4 445 441.3 438.8 436.3 433.5 430.6 428.3 425.7 423.4 421.7 420.3 420.4 421.2 423.5 426.2 428.3 428.9 429.4 428.5 428 427.7 426.7 425.2 423.2 421.7 420.6 419.3 418.2 417 415.6 413.1 406.4 406.5 409.2 410.4 413.2 414.4 419.3 423 426.4 428.5 429.5 428.7 428.7 428.7 426.6 423.5 422.7 422.5 421.4 418.9 414.8 408.1 400.6 394.9 384.5 386.6 395.1 400.1 409.7 417.7 422.3 425.8 429.2 430.8 432.1 433.4 434.3 439.2 442.4 444.6 447.1 449.4 451.4 452 452.2 450.9 449.3 445 441.2 436.4 431 425.7 419.5 414.7 410.4 405.8 399.3 395.6 392.7 387.2 383.6 375.7 381 386.6 387.6 392.6 399 400.2 400.3 398.3 392.3 381.1 377.1 376.1 372.1 376 381.1 396.5 408.3 413.5 412.6 409.6 409.9 408.4 408.3 403.2 399.2 398.1
210.3 212 213.7 215.4 217.5 219.6 222.1 224.2 228 230.8 232.7 235.7 238 240.1 241.5 240.1 244.9 251.4 259.9 268.1 275.1 282.4 289.7 294 294.6 296.3 299.3 303.4 307.1 311.2 317.5 326.6 334.8 342.2 346.8 350.1 352.4 353.6 353.1 351.9 348.1 336.6 316.4 328.6 342.1 333.5 313.3 289.3 289.4 303.9 321.7 344 362.6 371.2 371.8 372.9 376.3 385.1 393.7 401.5 409.5 418.2 425.1 431.4 437.1 442.8 448.6 452.9 453.8 454.2 454.9 455.3 454.9 455 454.9 454.5 454.5 452.9 449.9 446.3 443.1 440.3 437.9 435.5 433.3 431.1 428.3 425.8 423.2 421.4 419.8 418.4 419 419.9 422.3 424.2 425.7 426.2 426.7 426 426 426.2 425.3 423.8 421.7 419.8 418.6 417.3 415.8 414.1 413.1 411.7 407.7 403.4 403.6 404.8 406.1 410.8 415.2 419.7 422.9 426.5 429.2 429.8 431.1 431 430.5 429.4 428.2 427.3 424.8 421.7 416.6 409.4 402.7 397.7 391.6 383.4 391.9 404 413 416.2 421.7 424.6 425.9 427.2 427.9 427.9 430.2 434.1 436.1 438.5 444.3 447 447.9 448.4 447.6 446.3 445.3 442.8 439.4 434 427.8 421.6 416.6 410.1 405.5 399.7 395.6 392.6 390 384.3 378.3 377 373.6 378.9 381.2 386.1 392.6 394.4 393.8 392.2 388 378.1 373.7 373.5 368.7 374.7 381.7 397.1 409.2 416.8 419.2 417.1 406.8 401.8 400.4 397.9 396.2 395.3
210.7 212.3 214 216.6 219.1 221.5 224.2 227.3 230.8 233.8 235.9 238.2 240.9 244.1 246.3 248.1 248.9 246.7 251 257.6 264.5 272.3 280.6 286.6 289.8 294.6 300.7 305.4 310.2 316.3 323.7 332 340.2 347.3 351 353.3 355.4 356.8 357.7 356.4 351.3 338.4 329.9 346.5 356.2 348.7 327.4 302 287 301 315.9 334 348.7 349.6 348.6 349.7 356.3 367.5 380.5 392.2 405.3 417.6 428.2 435.8 442.1 448.1 453 454.7 454.9 455.5 456.3 456.5 455.9 455.5 454.8 453.4 450.9 447.5 444.2 441 438.3 435.8 434 431.8 429.9 427.9 426 423.8 421.7 419.7 417.9 415.8 417.6 418.7 420.1 421.5 422.9 423.7 423.7 423.1 423.7 424.7 423.6 422.2 420.4 418.4 416.8 415.1 413.3 411.4 409.4 408.2 405.8 402.2 400.6 400 399.8 403.4 410.7 414.9 420.1 423.8 426.7 429.7 431.3 432.4 432.5 432.2 431.3 430.4 428.3 424.2 419.5 413.1 405.4 397.5 392.2 381.2 391.8 403.4 410.9 416.9 419.5 421.7 423.1 423.6 423 422.9 424.7 425.7 432.8 437.5 442.8 444.5 444.8 443.6 442.1 441 440.6 439.3 436.7 433.7 429.4 423.2 415.3 408.5 403.3 399.9 396.1 391.3 387.1 383.2 378.4 372.1 365.2 370.3 375.4 382.7 388.4 388.6 387.4 384.8 380.3 372.2 369.2 369.3 365.9 373.3 381.7 398 408 411.4 413.5 413.4 413.6 403.8 393.6 391.1 391.6 392.1
210.8 213.1 215.4 218.4 220.8 223 225.3 228.9 232.6 236.8 239.2 240.7 244 247.4 251.6 253.9 254.9 255.4 255.6 255.5 254.3 260.7 268.6 275.9 283.1 291.9 299.1 306.4 312.9 319 327.8 336.5 344.5 349.4 352.8 355.8 358.2 360.2 362.4 361.5 355.1 350.4 351.5 358.1 368.5 364.9 344.6 318.1 297.1 296.1 309.8 323.3 330.5 328.2 337.6 352.8 368 377.5 389 396 403.4 415.5 428.6 437.9 444.8 450.7 453.6 455.1 455.4 456 456.6 456.2 455.3 454 452.4 449.9 445.8 441.3 438.8 436.7 434.1 431.8 429.9 428.6 426.9 425.1 423.1 421.1 419.4 417.6 416.1 413.7 416.2 417.7 418.3 418.9 420.3 420.9 420.6 421.2 422 423.3 422.9 421.2 419.3 417.1 414.8 412.8 411 409.2 407.3 405.9 404.3 402.9 401.8 401.4 399.9 398.5 402.3 408.5 414.4 418.6 423.1 427.3 430.8 431.8 432.9 432.8 432 430.5 428.5 425.2 420.6 415.5 408.5 401.7 394.5 381.4 389.2 403 409.8 414.1 418.3 419.3 419.8 419.9 417.8 416.3 419.6 425.1 429.3 434.9 440.3 442 441.1 439.2 437.2 436.4 436.8 436.6 435.1 432 428.2 424 418.5 412.1 405 399.2 393.7 389.1 384.8 381.1 376.3 370.2 365.2 362.4 369.4 376.7 379 380.4 379.7 377.2 373.2 366.4 366.1 366.2 364.1 371 381.7 396 403.7 409.4 408.9 407.1 405.4 401.9 394.6 385.5 385.9 388.8
211.9 213.9 216.9 220.4 222.9 225 227.8 232.2 237.4 241.1 244.4 246.4 246.6 251.7 257.8 260.9 263 264.9 265.9 265.9 264.7 261.3 263.1 266 271.7 280.6 289.4 299.7 308.4 319.6 329.3 338.5 346.1 349.2 352.6 357 360.8 364 366.3 366.8 365.9 366.4 365.2 371.3 378.8 378.8 364.3 339.7 318.5 303.3 301.1 311.5 317.5 334.2 354.9 375 388.3 394.2 399.6 405.1 409.8 419.4 430.4 439.8 446.4 451.2 453.6 455.2 456 456.7 456.5 456 454.7 452.2 448.1 444.5 440.9 437.1 434.5 432.4 429.8 427.8 426.5 425.5 423.9 422.1 420.2 418.3 416.8 415.4 413.8 411.8 415 416.8 417.1 417.5 417.6 417.8 418.5 419.6 420.7 422 422.2 420.8 419.1 416.9 414.3 411.9 410.6 409.5 409.8 409.3 409.1 409.1 409.7 408.2 405.1 402.2 398.7 398.8 404.9 412 419.2 424.1 426.1 429.4 429.9 430.7 430.9 430.2 428.9 425.8 421.4 416.6 410.1 403.4 395.5 383 385.8 399.6 408.5 412.5 415.2 416.4 415.9 415.1 413.3 412 416.8 421.3 426.9 432.6 436.7 438.2 436.4 434.2 432.9 432.8 434 434 432.6 430.9 427.7 423.6 417.9 411.4 405.4 399.6 395.4 389.8 383.3 377.8 373.5 369.4 363.9 358.2 360.8 369 368.8 371.5 372.2 370 365.8 362 363.8 362.7 360.9 368.1 380.3 393.8 404.4 409.7 408.5 402.9 397.7 395.3 389.6 382.8 383.5 389.8
213.3 215.8 219.4 222.1 225 227.7 232.3 238.3 243.2 246.8 251.4 253.5 250.3 255.8 262.4 266.5 270.2 273.6 276.6 276.8 275.9 269.4 267.8 270.6 274.4 278.3 283.3 286.7 295.9 311.1 326.9 335.8 341.5 345.8 351.8 358.5 364 368 370.2 372.5 374.1 376.1 378.1 383 388.7 390.8 382.7 363.6 343.8 324.9 308.9 309.8 328.3 352 374.3 387.9 397 403.7 410.5 416 421.6 430.1 437.3 441.8 447.1 451.6 454.6 456.6 457.3 457.3 456.5 455.6 452.7 449.1 443.7 439.7 436.5 433 430 427.6 425.5 423.3 422.5 422 420.5 418.9 417.3 415.6 414.1 412.8 410.4 412.5 414.6 415.7 415.9 415.5 415.6 416.1 417.2 418.6 419.8 421 421.4 420.7 418.8 416.8 414.4 412.7 412 412.8 413.6 414.8 417.3 420.1 420 417.9 414.5 410.2 405.8 399.7 395.8 401.5 412.2 416.4 421.7 424.3 427.2 428.9 428.6 427.3 425.7 423.1 419.7 415.6 408.8 402.4 396.9 383.7 383.5 398.9 404.4 409.2 411.9 412.2 412 411.2 409.1 409.9 413.7 418.7 425.5 428.8 429.9 430 428.8 427.9 426.4 425.5 426.8 428.6 428.5 426.3 423.1 419.6 415.4 409.5 402.4 394.7 392.2 388.7 383.6 377.9 372.6 367.9 364.9 360.2 354.7 361.8 362.3 365.5 365.5 363.1 359.7 359.1 359.7 359.7 358.1 369.5 381.7 393.3 399.5 401.9 402.8 398.8 394.4 387.6 381.7 379.1 382.1 388.9
215.5 218.5 221.3 224.1 227.2 231.6 237.6 243.6 247.7 253 259 258.5 255.8 260.2 266.6 271.5 276.3 280.7 283.3 284.2 283.7 277.1 270.7 274.7 281.8 288.9 292.6 295.1 293.7 298.4 312.8 322 329.8 339.7 349.9 359.2 366.7 371.4 375.1 377.6 380.9 383.8 386.7 390.6 396.2 399.2 395.9 386.7 369.7 347 324.8 311.4 329 353.3 375.6 389.6 400 410 418.1 425.6 432 438.2 442.6 446 449.3 453.4 456.3 457.9 457.9 457.8 456.6 453.5 449.4 444.3 440.2 436.8 433.3 429.1 425.2 423 421 418.6 417.3 416.8 416.8 415.1 413.6 412.3 411.4 410.4 406.9 411.1 412.9 413.8 413.9 413.6 413.9 414.9 416.5 418.1 419.9 421.1 421.6 421 419.2 417.5 415.3 414.6 415.2 416.4 419.2 423.4 426.2 427.2 427.2 425.6 422 417.2 412 407 400 394.3 402 410.6 414.9 419.5 422.3 424.1 423.7 422.6 420.8 419.4 417.2 413.4 407 400.4 395.3 386.5 381.1 394.3 402.1 407 408.4 408.4 407.6 407 404.5 407.2 410.5 417.7 420.3 421.4 422.7 422.7 421.5 420.1 418.1 418.1 422.7 428.5 430.4 428.6 425.2 419.3 412.9 405.1 396.3 389.3 385.3 382.9 379.6 376.1 372.2 367.3 362.9 358.9 353.2 349.7 351.8 354.7 356 354.4 354.7 354.5 355.7 353 357.4 372.8 383.2 388.3 390.6 392.8 394.1 392.7 389.8 380.3 376.8 375.7 380.6 385.7
217.9 220.2 222.9 226.3 230.9 237 243.3 247.8 252.5 259 262.1 262.5 262.5 264.4 271.2 276.5 281.3 285.4 287.6 289 289.5 283.6 272.4 277.4 287.3 296.7 303 308.9 310 306.3 302.1 306.3 312.3 321.3 339.5 359.8 370 375.3 379.9 383.2 387 390.4 393.7 397.7 402.2 404.7 402.8 399.4 388.3 361.2 334.3 324.7 321.9 338.6 361.1 372.6 389.9 407.7 422.4 431.2 438.1 443 446.5 449.6 452.7 455.8 457.9 458.9 459.1 458 455.2 451 445.9 440.6 436.6 433.6 430.8 427.1 423.1 418.7 416.4 414 412 411.5 411.6 410.6 409.3 409.1 408.2 407.8 404.7 409.1 410.6 411.2 410.7 410.3 412.2 414.3 416.2 419.2 421.3 422.7 422.8 422.5 420.8 419 417.7 417.8 419.4 423 427 430.2 431.7 432.6 432.7 432.1 429.2 424.5 417.7 412.1 406.4 397.8 393.3 402.5 409.7 412.6 415.3 416.5 417.2 417.2 415.2 414.9 413.6 410.8 405.6 399 393.2 386.8 377.2 392.4 399.7 404.4 407.7 407.2 404 402.2 399.7 403.5 409.3 410.2 413.1 414.3 414.6 413.5 412.6 412 409.7 417.4 428.5 434 434.5 431.7 427.2 419.6 411.8 404.9 397.4 389.7 383.5 376.9 372.4 369.9 366.3 360.7 361.9 358.6 358.2 355.9 352.4 350 344.1 346.2 348.5 351.1 353 350.3 361.3 372.7 378.3 380.2 384 388.5 388.8 386.5 380.9 375 371.4 375.4 378 381.8
220.6 221.7 225.4 229.1 234.8 241 246.8 251.9 257.5 262.3 265.6 268.6 269.2 270.4 275.3 280.6 285.6 289.4 291.6 293.8 293.4 287.7 276.5 281.7 289.2 298.3 308.2 316.6 322.1 326.6 327.2 329.9 336 342.8 345.8 349.9 369 378.4 383.7 388 392.2 396.5 400.1 403.7 407.1 409.2 407.5 404.5 392.8 363.3 341.7 346.3 346.4 337.6 351.5 374 396.1 415.8 426.8 434.3 441.8 446.2 449.6 453 455.9 458.1 459.7 460.6 460 457.3 452.9 448.3 444.3 439.7 434.8 430.5 427.2 423.9 420.5 416.7 412.7 409.8 407.4 405.8 405.5 405.1 404.2 404.3 405 404.8 403.1 406.9 408.4 407.8 406.2 409.3 411.7 414.3 419 423.2 425.3 426.8 426.4 425.1 423.5 421.9 421.1 423 426.9 430.8 433.4 435.3 437.2 438 437.4 435.4 431.7 426.9 422 416.2 411.2 405.6 396.3 392.1 400.5 404.5 406 408.1 409.9 409.8 409.5 410.1 409.8 407.7 403.8 398.3 391.8 386.2 372.9 389 397.1 403.8 407.8 406 403.7 400 396.7 399.5 401.6 403 404.3 405.7 405.2 404.1 401.7 402.7 411.6 424.1 432.4 435.6 434.9 432.5 426.8 420.9 412.8 404 395.3 387.7 384 378.8 374.8 369.1 364.8 368.2 366.4 364.3 362 360.1 356.7 352.4 349.5 343.6 340.5 347.4 348.6 347.7 354 364.9 369.5 374.2 380.4 383.1 384.9 381.2 373.1 370.7 367.9 373.2 374.6 377.5
223.6 224.4 227.9 232 237.5 243.5 249.9 255.4 260.5 265.2 269.3 272.7 275.4 277.5 280.8 284.9 289.5 293.3 296 298.4 297.9 293.4 283.7 285.3 297 309.3 317.8 323.6 329.9 337.2 343 348.1 354 359.9 364.2 365.1 368.4 381.1 387.5 393 397.3 401.7 405.6 408.5 411.2 413.2 412.1 409 394.8 367.8 368 375.2 373.5 365.5 365.2 383.3 407.3 428 437.2 438.9 443.7 448.9 453.5 456.4 458.4 460.1 460.7 460.9 458.6 455.4 451.3 447.5 443.4 439.4 436.3 433.3 428.9 424.1 420.1 416.9 413.6 410.6 406.7 403.1 400.8 400.2 400.1 400.7 401.6 400.8 399.9 403.6 405.3 404.1 405.1 408.8 411.3 417.7 423 428 432.1 433.5 431.6 429.5 427.5 426.2 426.7 428.6 432.5 435.8 438.6 441.2 442.8 441.7 439.9 437.5 433.3 428.7 424.1 418.5 413 408.6 402.7 391.4 389.1 392.7 396.4 400 401.6 402.2 404.9 405.8 405.7 404.5 401.1 396.4 390.3 384.1 372.9 386.9 396 403 403.9 402.6 400 396.1 391.2 392.8 393.8 395.3 396.8 397.2 398.2 397.1 398.9 407 421.1 429.2 431.4 430.6 427 423.8 420.8 417.8 411.5 403.3 393.1 386.8 383.1 379.2 375.8 369.7 372.7 371.5 369.3 366.9 364 361.7 359 353.4 348.8 344.3 338.7 342.4 345.3 343 347.7 356.3 361.6 371.3 374.6 377.3 379.4 375.7 369.7 366 368.2 370.9 371.7 375.2
226.6 227.5 230.3 235.2 240.7 247.1 253.2 258.7 263.1 267.7 272.2 276 280.1 283.1 285.7 289.3 293.3 297.1 300.8 302.9 304.1 302.9 295 288.9 301.9 315.4 323.7 331.2 337.8 343.4 349.9 356 362.2 368.1 372.2 376.2 378.7 385.7 392.3 397.8 402.6 406.6 410 412.8 415 417.3 417.5 414.6 402.4 393 403.3 405.4 405.7 398.9 393.6 402.3 424.6 439.3 444.6 445.2 448.1 453.5 456.6 458.8 460.3 461.3 461 459.3 456.6 453.9 450.5 446.6 443.6 441.5 439.1 436.4 431.8 427.6 424.2 421.1 417.3 413.4 409.6 405 400.7 396.7 396.4 397.4 398 397.6 396.8 400.3 401.5 400 403.4 407.9 415 421.6 427.5 433.8 437.2 438.3 437.3 436.1 433.9 432.1 432.6 434.7 438.5 441.6 443.8 444.9 445.6 444.9 442.2 438.9 434.1 429.4 424.2 418.2 412.3 407.9 402.3 400.8 394 386.9 385.7 389.2 392.1 396.8 398.7 401 401 400 397.2 393.8 388.7 382.4 370.8 384.4 393.1 396.8 397.3 396.9 395.3 390.8 385.5 387.9 387.2 388.2 390.8 392.3 391.7 394.1 404.7 417.7 426.3 432.2 435.2 435.1 432.5 428 420.4 411.1 404.2 399.2 392.5 385.3 382.4 379.2 375.4 370.9 374.1 372.7 370.5 368 366 364 361.7 357.6 350.6 345.6 337.2 338.3 339.3 339.7 342 349.5 357.6 363.9 367.7 370.2 372.6 368.6 363.7 359.6 368.2 376 371.3 372.4
229.2 231.7 233.9 238.3 244.2 250.9 256.4 261.2 265.6 270 274.5 279 283.9 287.2 289.5 293 297.1 301.4 305.1 307.6 309.9 310.9 305.9 300.2 298.6 308.8 325.5 337.6 345.3 351.1 356.4 362.8 369.5 374.1 379.2 383.8 387.8 392 397.6 402.9 407.1 410.8 414.1 417 419.1 420.9 422.4 421.4 417.3 417.1 424.2 425.9 428.8 430.8 427.7 425.6 440.7 448.5 450.4 452.1 455.2 457.3 459.2 460.9 461.6 461.3 460 457.9 455.4 452.7 449.9 448.5 446.7 444.2 441.4 438.5 434.6 430.5 426.3 422.8 418.7 414.6 410.2 405.9 401.2 397 393.3 393.7 394.4 394.1 394.7 397 398.1 396.5 401.7 409.5 416.9 425.1 432.3 437.5 440.3 441.3 441 440.2 438.1 436.5 437.7 440.5 443.9 446.5 448.4 449.2 448.9 447.3 443.7 439.3 435 428.8 422.3 417.7 414.3 410.8 406.6 402.3 398.6 394.8 390.3 384.2 383.5 388.6 392.4 394.4 394.7 395.1 392.8 389.3 385.9 382.1 368.9 382 386.2 388.4 389.9 390.1 390 385.9 379.5 379 385 386.1 386.2 386.7 390.8 401.6 411.4 423.1 430.5 433.6 434 431.6 428.4 425.1 420.9 415.4 407.1 398.1 388.8 383.2 381.7 379.4 376.1 373.8 375.7 374.1 371.9 370.2 368.4 367.3 367.2 363.3 357.6 350.9 342.8 335.9 337.1 337.6 339.2 346.1 351.7 355.3 358.7 360.8 361.7 353.9 354 359.2 367.4 376.1 381.7 373.3
231.8 235 238.1 242.5 248.1 254.1 259.5 263.9 268 272.2 276.9 281.8 286.7 289.4 292.4 296.4 301.1 305.4 309 311.8 314.8 316.8 314.9 314.1 314.3 314.8 319.4 337.7 350.1 356.7 362.4 368.7 374.9 379.8 385.6 390.2 394.4 398.6 403.2 407.6 411.5 414.7 418 420.9 423.1 425.1 426.9 429.4 430.1 431.8 435.6 438.8 441.6 444.4 446.3 448.3 451.8 455 457.4 458.6 460.1 461.3 462.3 462.6 461.8 460 458.1 456.6 454.9 453.7 452.6 451 449 446.5 443.6 440.4 436.4 431.6 427.5 423.9 419.4 414.9 410.4 406 401.7 397.8 394.8 390.6 389.8 390.5 390.9 393.5 394.1 394.7 401 409.5 419.2 427.4 434.7 439.3 441.7 443.3 444.2 443.7 442.1 441.6 443 445.1 448 450.5 452.1 452.2 450.5 447.5 443.4 439.3 435.1 431.2 426.8 423 419.7 415 409.4 404.8 400.4 396.9 392.1 387.8 385.2 381.7 382.2 388.9 388.9 388.7 387.5 384.8 383.4 381.2 369.1 374.2 379.5 381.4 385.7 390 388.6 384 378.2 377.4 382.4 381.8 385.1 389.3 398.1 406.9 419 425.6 432.5 436.8 437.6 433.4 428 422.2 413.4 408.5 405.1 399.3 389.7 381.9 379.6 377.3 375.2 375.4 376.3 377.2 374.3 372.8 372.2 371.1 371.7 367.3 360.6 353.1 344.9 336.6 335.6 336.1 337.9 339.8 344.6 348 350.4 351 347.7 348.5 351.4 358.4 365.1 373.7 380.3 376.7
233.7 237.5 241 245.8 251.5 257.1 261.5 265.8 270 274.3 278.8 284.1 288.4 291.5 294.8 299.1 304.3 308.8 312.7 316.2 319.3 321.6 323.1 325.2 330.1 324.6 322.5 335.8 352.5 361.9 367.8 374 380.2 385.9 391.6 396.1 400.2 404.4 408.1 412 415.4 418.6 421.8 424.6 427.1 429.5 432.3 434.9 436.7 440.2 444.5 447.2 449.8 452.4 454.9 457.3 459.2 461 462.6 463.4 464 464.5 464.4 463.2 460.8 458.9 457.7 457 456.2 455.6 454.2 452.6 450.7 448.1 445.4 441.3 437 432.3 428.4 424.6 419.6 415 410.2 406.3 402.2 399.1 396.1 392.6 387.9 387 387.7 390.3 389.8 392 398.8 410.2 419.7 428.3 434.1 438.7 442.9 445.6 446.6 446.5 446.2 446.8 447.8 448.9 451.1 452.4 452.9 453.2 452 450 447 444.5 440.8 436.3 431.6 429.7 426.1 422.6 416.4 409.4 404.2 398.6 394.3 392 387.6 387.1 383.3 380.2 380.7 381 380.6 379.9 379 378.5 371.4 369 373.4 377.6 381.6 384.6 381.8 378.2 373 372.8 377.7 383.5 388 394.1 405.2 414 420.4 429.2 435.2 437.3 435.8 432.6 426.8 420.6 414 407.2 397 391.1 386.2 380 378.8 378.2 377.5 377 377 377.8 378.1 377.5 376.6 375.9 377.9 370.9 362.9 354.6 346 335.7 333.3 334.4 336 337.1 338.8 341.5 343.6 343 345.3 349.8 356.6 367.3 371.3 373.3 378.5 378.7
235.2 239.1 243.7 249.1 254.7 259.7 263.1 267.2 271.4 275.6 280.7 286.3 290.2 293.4 297.7 302.6 307.7 312.2 316.3 320.4 323.8 327.3 331.2 336.4 340.6 339.3 333.6 340.6 355.4 367.4 373.3 379.3 385.3 391.1 396.8 401.7 405.6 409.3 412.6 415.7 419.2 422.5 425.4 428.3 431 434.3 437.2 439.4 441.9 446.1 450.5 453.2 455.5 457.8 460.2 462.2 464.2 465.6 466.2 466.5 466.3 465.7 464.5 461.4 459.6 458.1 457.9 457.6 456.6 455.7 454.6 453 451.1 448.8 445.6 441.7 437.6 433 429.2 424.6 419.7 414.8 410.1 405.8 402.2 399.7 396.8 393.9 390.7 385.1 385 386.5 387 392.2 398.6 409.4 419.5 425.7 431.7 438.3 443.7 447 447.2 447.1 448 449.5 450.7 451.5 452.2 453.1 453.9 454.2 454.3 453.2 451.3 448 444.8 440.7 438 434.6 431.4 428.1 423.5 417.7 410.7 402 397.6 394.2 390.5 389.3 386.5 378.9 379.2 373.1 371.5 370.4 370.6 372.4 371.9 365.9 369.3 372.4 375.8 374.1 370.2 368.1 372.2 380.8 385.5 390.1 396.1 402.7 409.2 418.4 424.8 429.4 431.5 431.9 429.8 427.3 423.8 418.3 411.5 404 398.5 392.3 384.1 379.7 381.2 380 378.6 378.6 378.7 378.8 379.9 381.1 382.7 381 377.7 372.2 364.1 355.3 345.1 334.5 331.8 333.4 335.2 336.6 338.8 341.3 345 348.3 353.7 359.4 366.1 376.9 380.6 381.5 379.9 379.3
236.5 240.8 245.8 251.9 257.5 262.2 265.4 268.7 271.8 277 282 287.1 291.4 295.9 300.9 305.9 311.2 316.4 320.6 324.7 329.5 334 339.6 345.4 348.9 349.5 345.1 351.2 363.7 372.7 378.8 384.2 389.9 395.8 401.5 406.1 410 413.3 416.3 419.2 422.6 425.5 428.9 431.9 435.2 438.1 440.1 442.6 445.4 450 454.5 457.9 459.7 462 464 466 467.6 468.5 468.7 468.5 467.6 465.5 461.9 459 457.4 457 456.9 456.7 456.2 455.1 454 453 451.4 448.8 445.8 441.8 437.7 433.2 428.5 423.9 419 414.3 409.5 405.8 402.9 400.1 397.3 394.3 391 386.1 382.8 383.5 387.6 393.4 399.8 409.1 414.9 422.3 430.4 437.6 443.2 443.7 445.1 447.2 449.4 451.3 452.3 452.6 452.9 453.3 454.2 455.1 455.5 454.7 452.6 449.8 447.6 445 442.2 438.4 434.4 429.3 424.1 418.5 412.7 405.5 399.6 395.1 392.9 390.5 387.8 385.6 383 380.7 378.5 376.4 372.9 369 366.3 364.9 366.9 367.6 367.5 366.9 365.5 374.7 380.6 387 391.1 395.8 401.8 407.9 413.6 420.6 424.4 427.3 429.7 429.5 427.2 423.5 418.2 413.2 408.2 402.8 397.1 388 383 382.5 385.1 382.5 381.3 381.3 382.9 383.5 382.2 382.5 383.2 382.5 377.9 370.5 362.7 353.6 340.4 333 331.5 332.7 338.8 343.4 347.2 352 357.6 365.8 369.2 372.8 374.3 380.2 385.1 386.6 382.7 378.7
238.3 242.5 248.1 254.2 259.7 262.6 264.4 267.5 272.7 278.8 284.1 288 293.6 298.9 304.1 309.3 314.8 320 324.8 329.8 335.3 341.6 348.1 353.2 356.5 358.6 358.7 363.1 371.5 378.7 384 389.2 394.6 400.1 405.3 410.1 413.7 416.7 419.6 422.3 425 428 431.1 435.1 437.9 439.7 441.8 443.9 447.6 453.2 458.3 460.8 462.5 465.1 467.7 469.3 469.8 470 470.2 469.3 466.4 463.4 459.5 457.1 455.6 455.4 455.3 455.2 454.8 454 453.1 452.4 450.9 448.6 445.3 441.6 437.4 432.8 428.1 423.5 418.5 413.2 408.8 405.6 402.1 399.2 396.4 393.7 390.2 386.6 382.4 382.4 385.1 391.1 399.3 404.1 409.8 420.7 428.8 435 437.7 440 444 446.8 449.2 451.3 452.5 452.8 452.9 452.7 453.2 454.2 454.4 454.4 453 451.6 449.9 446.7 442.8 438.4 433.7 428.7 423.3 417.5 409.8 404.1 399.8 397.1 395.8 393.4 391 388.1 385.4 383 380.3 378.4 375.9 372.7 369 365.9 364 363.1 364.3 362.7 369 379.3 385.5 390.9 397.8 402.8 408 411.8 414.2 418.2 422.9 425.6 426.6 426.1 425.2 421.3 415.9 411.4 406.9 399.7 395 393.2 387.4 384.3 385.4 383.2 384.6 384.5 384.3 384.4 384.2 385.5 383.8 381.6 378 371.1 362.4 351.7 337.7 332 329.5 331.9 343.6 353.8 364.4 368.6 370 373 374.1 378 381.8 384.7 388 387.7 384.8 379.6
238.5 243.8 249.5 255.5 259.4 260.1 261.2 267 274.8 280.9 285.4 290.8 296.4 302.6 307.8 313.6 318.3 323.2 328.8 335.1 341.6 348.8 355.5 359.9 363.1 366.4 368.7 373.6 379.4 384.2 388.8 393.5 398.3 403.3 408.4 413.2 416.8 419.9 422.5 425.2 427.2 429.6 432.9 435.7 437.7 439.6 441.6 444.9 449.9 455.9 460.4 463.2 465.4 467.9 470.4 471.2 471.5 471.6 470.6 468.2 464.5 460.9 457.5 455.2 454.2 453.5 453.4 453.6 453.3 452.9 452.2 451.5 450.1 447.8 444.8 441.2 437 432.4 427.8 423.2 418 412.5 408.2 404.8 401 398.2 395.2 392.3 389.2 386.5 382.5 380.6 383 387.5 393.6 399 408.6 418 426.1 429.2 432.9 437.4 441.5 446.7 450.2 451.5 452.4 452.6 452 451.1 450.6 451.3 452.6 453.3 453.2 451.2 448.8 445.9 442.1 437.4 432.9 427.6 421.6 413.9 408.3 404.4 402.4 402.3 401.3 399.2 397.2 395.6 391.9 388.8 385.3 383.7 381.3 377.5 373.3 369.2 366.1 363.4 363.4 362.1 370.2 379.5 387 394.1 401.7 404.2 408.9 412 413.9 418.5 422.6 424.1 425.1 424.3 422.2 419.1 415.5 412 410.9 407.6 404.5 401.8 394.8 387.7 388.1 386.2 388.3 390.9 392.8 391.4 386.9 385.5 382.1 379.5 376.8 370.3 362.7 352.7 335.1 330.8 329.5 331.5 344.6 358.4 368.6 370.4 372.1 373.2 376.6 382 385.6 387.4 388.8 389.4 387.2 381.5
238.3 244.6 249.5 253.2 254.7 257 262.2 269.4 277.3 283 288.6 293.4 300 306.9 312.5 317.1 321.1 326.8 333.2 339.4 346.5 353.9 360.5 364.8 369 372.7 376.2 380.1 384.1 388 392.2 396.7 401.3 405.9 410.6 415.3 419.8 423.2 425.8 427.5 428.9 430.4 431.7 434.2 436.3 438.5 441.4 445.9 452.1 457.2 461.8 464.8 467.5 470.1 472 472.8 473 471.6 469.6 466.3 462.4 458.6 455.3 453.5 452.3 451.5 451.5 451.8 451.9 451.7 451.6 450.7 449.2 447 444.1 440.8 436.9 432.4 427.9 423.1 418.1 413.1 408.4 404.1 399.7 396.2 392.7 389.6 387.4 384.7 381 379.8 380.8 383.9 389.6 397.7 406.3 415.3 419.8 425.1 432.2 438.6 444 448.7 452.1 452 452 451.7 450.4 448.4 447.4 448.9 450.2 451.4 451.2 450.2 448 444.9 441.3 436.6 430.4 423.4 417.5 412.4 408.5 406.7 406.3 405.5 404.1 402.9 403.9 402.1 399.6 397.1 393.8 390.5 387.7 384.9 381.3 374.9 370.1 365.1 362.9 361.3 363.2 372.1 381.6 393.2 398.3 405.4 411.1 414.9 416.4 419 422.6 421.7 421.5 420.3 419.1 417.9 415.6 412.5 409.5 406.5 403.9 401.2 394.6 392.7 393.6 392.4 394.1 396 396 393.3 388.9 384.8 380.4 376.9 372.8 369.2 362.8 354.3 340.1 329.2 329.9 332.3 343.9 355.7 362.7 368.1 370.9 373.2 377.8 384.1 388.6 389.6 390.4 390.1 387.9 382.2
236.7 241.7 244.4 247.3 251.3 257.6 264.5 272.4 279.4 285.3 290.3 296.8 304.2 311.6 315.5 319.1 323.5 329.9 336.6 343.4 350.6 357.7 364.1 369 372.7 376.2 379.8 383.4 387 390.7 394.4 399 403.7 408.1 412.7 417.3 422 426 428.1 429.2 429.7 428.6 428.7 431.8 435.1 438 441.8 447 452.6 457.5 461.9 465.4 468.8 471.8 473.1 473.6 472.9 470.8 467.4 463.9 460 457.2 454.3 451.8 450.4 449.5 449.7 450 450.6 451 450.8 449.7 448 446.1 443.5 440.2 436 431.5 427.6 422.9 418.8 414.6 410.2 405.6 401.3 395.9 391.1 387.9 384.7 384.2 383 379.3 379.5 380.4 385.9 394.5 402.9 408.9 416.2 424.9 433.4 440.5 446.6 451.1 453.6 453.2 451.6 449.7 447.9 446.2 444.5 446.2 447 448.3 448.7 447.7 445.6 442.6 438.9 433.3 426.5 421.7 416.7 413.3 410.8 410.2 411.1 410.2 409.5 409.5 408.3 405.9 403.1 400.5 397.8 395 391.5 388.3 384.6 380.2 375 370.6 365.4 361.3 359.9 374.5 389 396 401.6 407.9 413.7 414.9 414.5 414.1 414.4 413.3 412.1 411.3 410.7 410 407.9 406.9 406.1 405.9 404.6 402.3 397.3 395.2 398.3 399.6 401.5 401.4 398.9 394.6 389.1 384.9 378.4 372 368.8 364.7 359.4 351.9 337 327.4 329.6 333.8 342.4 351.7 359.7 365.8 368.4 374.6 377.4 382.1 388.1 391.2 390.9 390.9 388.8 383.6
234.8 237 240.9 244.8 249.6 258.2 265.6 272.2 279.5 285.5 291.6 300.5 309 312.2 314.5 319.4 325.5 332.9 340.3 347.1 353.8 360.2 366.7 370.9 374.6 378.4 382.3 386.1 389.6 393.1 396.8 401.1 405.8 410.5 415 419.2 423.9 427.2 428.9 429.2 427.6 422.2 426.9 431.3 434.4 438.3 443 447.8 452.7 457.1 461.3 465.5 469.4 472.1 473.3 473.1 471.2 468.1 464.6 461.2 457.7 455.1 452.8 450.5 448.4 447.5 447.5 448.6 449.3 449.8 449.2 448.5 447.2 445.4 442.6 439.5 435.6 432.1 427.4 423.7 419.9 415.7 411 406 399.9 392.8 390.5 390 389.4 389.7 386.9 382.7 378.3 377.3 382.2 392.4 397.8 404.5 414.1 425.3 434 442.5 448.7 453.5 455.8 454.9 450.6 448.4 446.5 444.4 441 441.1 442.7 444.4 444.5 444 442.5 439.6 436.9 433.7 428.3 422.9 418.6 415.9 415.6 415.5 414.5 413.2 412.1 411.3 409.5 406.9 403.8 401.3 398.2 395.2 392 389 386 382.7 379.4 375.1 370 365 360.1 377.4 389.4 396.9 401.4 403.9 407.8 411 410.6 407.8 410.5 408.7 408.6 407.2 407.4 406.3 405.1 403.8 402.7 401.9 401.8 400 395.7 397.7 402.7 406.1 408.1 406.4 402.9 396.1 388.1 381 374.5 368.8 363.1 358.6 351.1 344 329.4 327.4 329.3 335.7 350.8 354.4 358.1 362.3 366.2 372.1 375.9 380 386.6 391.7 391.5 390.8 388.6 383.1
235.6 236.1 237.6 240.7 245.5 252.3 258 264.5 272.9 281.5 289.3 299.9 307.4 305 310.8 319.2 326.7 334.9 343.4 350.5 355.5 360.6 365.7 370.5 375.1 378.9 383.2 387.4 391.2 394.6 398.9 403.1 407.9 412.5 416.8 420.8 424.2 426.6 427.5 426.1 420.4 421 429.6 433.4 435.9 439.8 444.3 449.1 453.4 457.8 461.8 465.7 469 471 471.8 470.5 467.8 465 461.7 458.5 455.9 452.9 450.6 448.4 446.6 445.3 445.7 447 447.7 447.2 447.3 447 446 444.8 442 438.9 436.3 432.3 428.4 425.2 421.3 417.1 412.6 405.6 397.6 394.1 395.8 395.1 394.4 392.1 388.7 385.3 381.4 377.9 379.4 386.8 393.9 402.7 413.8 425.6 435.6 444.4 451.8 455.4 454.9 452.2 448.8 446.4 444 441.3 437.5 436.5 438.6 439.5 440 440.1 439.8 438.5 436.5 434.1 430.7 425.6 421.9 419 417.7 416.4 415 412.7 409.9 407.4 406.2 404 401.4 398.1 394.9 392.3 390.3 388.4 386.4 383.5 380.2 376 371.5 365.8 358.8 375.6 389.2 395.4 397.1 404 405.9 406.6 404.5 401.3 402.2 401.2 400.1 399.9 399.9 400.4 400.3 399.5 398.9 398.4 399 398.4 394.7 399.9 406.3 409.8 409.5 408.5 403.9 398 390.9 383.9 373.8 363.6 357.3 352.2 345.3 335.7 327.9 326.5 332.9 344.8 352.8 356.8 358.6 361.1 365.5 370.9 375.6 379.3 384.5 390.5 391.5 389.6 386.3 381
239.1 239.3 239.6 240.3 241.9 244.5 248.2 252.7 261.6 271.4 278.1 286.9 289.8 290.9 303.4 316.6 327.7 336.8 346.2 352.4 356.6 361 365.2 370 375 379 383.3 387.7 391.8 395.8 400.6 405.2 409.8 414 417.9 421.4 423.7 424.8 424.2 419.5 414.9 423.6 431 436.3 440.1 442.7 446.1 450.4 455 459 462.4 465.6 468.2 469.5 469 466.6 463.9 461.3 459.4 456.9 454.2 451.6 448.7 446.3 444.4 442.8 443.6 445 445 445.3 445.4 445.4 445.2 444.1 442 439.2 436.4 433.3 430.2 427.2 423.6 419.1 413.5 406.8 401.9 401.9 400.6 399.1 397.7 394.3 390.9 388.5 386.9 380.7 376.8 382.8 394.1 403.3 415.3 426.8 436.8 445.8 452 452.3 451.4 450.2 447.1 443.9 440.5 436.9 434.2 432.2 433.5 434.4 435.1 436.5 437.2 437.7 436.5 433.7 430.5 426.7 423 419.7 416.5 412.9 409.5 406.4 404.3 402 401.4 400.1 398.7 396.4 394.1 391.6 389.2 387.1 385.4 383 379.7 375.6 371.5 364.9 358.8 372.5 382.7 390.5 395.9 399.9 402 402.3 400.4 396.1 397.7 397.2 395.5 395.4 396.6 397.4 396.7 395.2 393.8 394 396 395.7 393.6 401.2 408.2 412.1 411.8 407.7 401.9 399.7 391.8 386.5 377.2 365.5 354.9 347.7 339.9 331.5 327.4 329 339.2 348.5 352.7 356.2 360.5 362.9 366.6 370.5 374.5 379.2 383.9 388.6 390.1 386.6 382.2 377.1
246.5 247.6 248 246.7 245.2 245.1 245.4 246.3 250.4 258.4 262.6 266.8 270.6 275.6 286.4 302.2 320.6 333.9 345.4 353.2 357.7 360.7 364.6 369.4 374.3 378.2 382.7 387.2 392.2 397 401.9 406.9 411 415.1 418.7 421.2 422 421.8 419.2 410.4 414.1 425.3 431.5 437.9 443.4 446.2 449 452.3 456.4 460.1 462.5 465.3 466.8 467.2 465 462.2 460.3 458.6 457.2 455.1 452.5 449.9 446.9 444.7 442.6 441 441.8 442.8 442.9 443.6 443.7 443.9 444.1 443.8 442.3 439.8 437.6 435.1 433 430.4 426.5 422 417 412.7 409 406.5 405.3 403.2 400.3 396.6 393 391 388.6 381 374.9 378.9 392.1 402.9 415.1 427.1 437.5 445.3 447 447.6 448.4 447.4 445 441.9 438.7 435.5 432.4 427.3 427.6 428.2 431.4 433 435.7 436.1 435 432.4 428.6 424.7 419.6 415.3 411.1 406.8 404.2 401.6 399.5 398.3 398.6 399.1 397.4 395.5 393.1 390.7 389.3 385.2 382.2 380.7 378.7 375 371.4 366.4 357.5 367.7 379.9 386.3 391.2 395 397 397.5 394.5 391.9 391.6 392 390.5 390.2 389.9 389.6 390.4 389.9 389.2 389.8 390.9 390.7 393.9 405 411.5 412.9 412.1 410.8 404 395 390.3 386 379.9 369.8 355.1 345.8 336.3 330 325.8 330.8 348.2 351.9 353.6 357.2 360 363.1 366.9 370.2 374.7 378.7 384.1 386.4 386.9 382.4 377.4 373
256.5 258.8 259.9 257.9 255.8 252.8 250.3 248.9 249.8 251.3 252.9 254.4 257.2 262.2 269.9 282.4 299.1 318.3 337.7 352.4 357.8 359.2 361.2 365.5 369.7 374.7 380.5 387.1 392.7 397.9 403 407.7 411.6 415.8 419.1 419.9 419.2 417.3 411.6 401.1 412.8 424.7 432.3 439.5 444.9 448.6 451.4 454.6 458 460.8 462.6 463.7 464.5 462.7 460.2 458.5 457.3 456.3 455 453.3 450.7 448.1 445.5 443 440.8 439.2 439.6 441 441.2 442 442.2 442.9 443.3 443.6 443 441.9 440.7 438.4 436 433.1 429.6 425.5 421.5 417.2 412.9 409.4 406.7 403.4 400.1 397.6 395.5 393 389.3 381.8 375.3 375.7 389.5 402.4 414.4 426.3 435.5 438.9 440.4 443.7 444.9 444.7 442.8 439.9 437.1 434 430 425.4 421.6 423.3 426.5 430.7 432 433.4 431.7 429 424.7 419 413.1 408.7 403.9 401 399.6 399.2 397.7 395.4 394.7 395.8 395.2 392 388.5 386.2 385 382.2 379.2 376.6 374.9 372.3 369.7 365.1 357.3 366.1 376.2 382.8 384 390.7 392.4 392.5 390.3 387 385.1 386.9 384.5 385 384.2 384.4 384.5 384.2 384.2 387.9 394.2 396.9 396.5 404.3 409.6 411.2 410.5 406.2 401.5 394.7 385.7 382 376.7 366.8 356.5 347.4 336.1 328.9 325.4 331.1 348.3 352.9 356.3 358.4 359.3 362.5 364.2 368.2 375 379 381.6 383.9 383.5 378.2 373.3 370.8
266.8 270.7 273.8 272.9 268.9 264.1 259.8 257.3 256.4 256.1 256.9 257.4 258.2 256.8 259.8 271.9 283 300 319 340.5 346.4 346.9 351.5 355.1 356.1 367.9 379.4 387.3 393.5 398.6 403.4 407.8 411.8 415.2 417.5 417 412.1 407.1 397.9 400.5 413.8 425.5 433.3 440.4 445.4 449.7 453.5 456.8 459.6 461 461.4 461.5 460.8 458.1 456.6 455.8 455 454 452.6 451.1 449 446.7 444.2 441.7 439.3 436.7 437 439.5 439.8 440.3 441.1 442.2 443.1 443.8 444.7 444.1 443.5 441.5 438.7 435.6 432 427.6 423.9 419.2 415 410.7 406.9 404.3 401.7 398.7 396.8 392.8 388.7 381.7 374.9 372.8 388.3 400.9 413 423.3 428.7 431.1 435.3 439.4 441.2 441.4 440 437.5 434.7 431.7 427.5 424.2 421.1 419.5 423.8 425.3 428.4 427.8 425.7 421.6 417 412.8 407.5 402.3 398.1 394.8 395.7 396.3 395.4 392.5 390.7 388.6 389.6 387.6 384.2 381.3 378.8 378 375.1 371.9 370.7 367.3 366.4 362.5 357.8 362.7 372.6 378.5 381.2 384.7 386.1 386.3 384.9 382.3 379.5 381.8 379.9 380.2 378.8 378.1 378.8 383.1 389.4 395.2 400.1 400.2 398.8 404.9 410.9 412.7 409.3 404.7 400.6 393.8 388.5 376.4 370.8 361.4 352 343 334.7 326.6 324.2 329 341.4 347.5 355.4 356.9 357.9 359.7 361.4 365.9 372.8 377.5 378.7 380.8 379.7 374.2 368.9 366.1
276.6 280.7 285.2 285.6 283.1 280.8 275.1 269.8 269 267.8 265.8 264.9 264.8 261.7 257.1 262.7 276.1 287.3 299.1 315.7 324.4 327.4 336.2 335.5 345.3 368.4 379.7 388.2 394.1 398.3 403.1 407.8 411.6 413.4 414.4 410.2 398.2 390 392.7 405.6 418.6 429 436.2 441.7 446.2 451 455.2 458.3 459.7 459.7 458.5 457.6 455.6 453.5 453.2 453.4 452.5 451.3 450.2 448.7 447.4 445.3 442.8 440.4 438.1 434.7 434.9 437.2 438.1 438.4 440 441.8 443.2 444.1 445.3 445.6 444.6 442.7 440.7 437.7 434 429.5 425.3 420.4 415.4 410.9 406.9 404.2 401.9 398.5 395.8 391.1 386.9 382.5 375.6 371.9 384.7 398.5 408.9 417.3 420.4 425.9 431.3 435.5 438 439.6 438.2 435.3 432.7 430.3 427.1 423.8 420.2 416.8 417.8 420.9 422 420.8 417.3 414.4 412.3 409.6 406.3 402.3 397.6 392.5 389.3 392.5 390 387.2 385.7 383.7 382.3 381.4 378.9 375 372.2 371.5 368.7 366.5 365 362.9 361.7 359.9 356.7 358.7 366.8 370.9 374.6 378.8 381.7 383.4 382.1 380.4 378 375.5 374.7 374.3 375 379.5 386.7 391 394.3 396.6 398.4 399.3 401.8 408.6 416.1 418.3 414.7 409.8 402.6 396.2 390.1 380.5 371.1 363.6 351.6 340.4 331.4 325.7 322.9 326 334.7 342.7 351 353.4 355.3 356.8 359 363.1 370.7 373.7 375.4 376.3 375.4 369.4 364.1 360
284.7 288.6 291.9 293.9 294.4 296.8 291.1 286.4 287.1 284.6 280 277.2 276.9 271.5 262.5 259.2 270.4 278.8 287.2 294.4 302.6 309.2 316.2 325.9 351.8 371 380.9 389 394.4 398.2 402.8 407.5 410.8 410.2 406.8 393.9 380.9 390.2 402.1 414 425.1 433.2 439.3 443.8 448.4 452.9 456.6 459 459.9 458.3 455.3 452.8 450.6 449.8 450.3 450.4 449.3 448.2 447.4 446.6 445.4 443.5 441.2 438.9 436.6 434.1 432.3 434.8 435.3 436.8 439.2 441.4 443.3 444.9 446.7 446.4 445.6 444.5 442 439.1 434.6 429.6 424.8 419.3 413.9 409.2 405.5 401.5 398.4 395.6 392.5 389 385.2 381.5 377.3 371.7 376.5 392 402.3 408.1 413.1 421 427.1 432.9 436.5 437.3 436.9 434 431.3 428.9 426.5 424.1 421 416.9 411.7 411.8 413.3 411.5 411.1 410.6 409.6 407.7 405.4 401.9 397.5 392.7 387.6 385.4 385.8 382.2 379.8 376 375 372.3 369.8 366.5 364.5 364 362.2 360.9 360.5 359.1 358.6 358.2 355.7 356.6 362.1 365.4 371.2 378.5 381.3 383.2 381.5 380.2 379.2 376 372.7 375.4 382.9 386.5 390.4 392.3 392.7 395.4 401.3 405.7 407.3 415.5 418.2 418.6 415.8 412.2 407.7 399.9 391.9 382.3 372.1 365.5 356.9 346.8 337.6 328.8 323.6 322.8 330.7 339.2 345 348.1 351.9 353.6 356.3 361.6 368.9 371.7 371.6 370.6 368.8 364.4 359.7 355.1
290.5 295.2 298 299.4 301.2 300.9 299.9 302.5 310.4 311.3 304.9 301.2 296.4 287.2 272.7 262.4 264.2 271 275.9 283.6 291.9 302.2 321 341.4 359.9 372.6 382.2 389.3 394 397.5 401.8 406.1 407.7 404.8 393.9 377.8 386.5 402.7 412.2 421.7 431.1 437.4 442.3 446.4 450.9 455.1 457.7 458.9 458.9 455.8 451.9 448.4 446.9 447 447.5 447.2 446.5 445.7 445.1 444.3 443 441.1 439.1 437.4 435.1 432.7 430 431.7 433.1 436.1 438.7 440.8 443 445.3 446.8 447.1 446.7 445.3 442.3 438.9 434.2 429.3 424.3 417.3 412.3 407.9 404.1 400.4 396.8 393.5 390.8 387.8 385 381.5 378.8 373.3 369.9 384.1 394.1 399.2 408.9 417.8 423.2 429.3 433.2 436 435.8 433.7 431.6 430.1 428.6 427.4 424 420 416.2 409.5 403.8 403.3 404.1 405 405 403.8 402.9 400.2 396.3 391.1 385.9 381.4 379.7 378.1 376.1 372.9 369.6 366.9 364.7 363.4 362.3 360.9 359.9 359.2 358.7 358 357.4 357 355.7 355.6 357.6 362.2 369.7 376.6 378.5 378.7 377.7 376.3 376.6 375.9 370.8 377.6 383.7 385.6 389 392.9 395.6 401.9 407.8 410.7 411.8 416.9 419 417.1 414.8 411.8 408.2 401.9 392.6 386.3 376.6 368.7 363 355.7 343.3 332.9 326.3 323.3 325.9 334.9 339.1 342.6 347 350.1 354.4 361.5 366.5 368.1 367.8 366 362 358.3 354.2 349.6
295.9 300.1 302.4 303 303.5 305.3 311.6 317 320 319.5 319 322.1 317.9 304 285.9 271.4 263.6 270 282.1 295.2 302.5 314.3 332.8 348.9 362.1 373.4 382.9 388.6 392.6 396 399.4 401.5 401.2 395.3 379.3 378 398.3 412 419.3 426.7 434.5 440.3 445.1 449 453 456.4 457.6 457.6 456 452.6 448.4 445.3 444.1 444.3 444.5 444.3 443.8 443 442.5 442 440.5 438.6 437 435.2 433.6 431.6 428.9 428.9 431.6 434.8 437.3 439.7 442.6 445.3 446.7 447.7 447.4 445.8 442.5 438.4 433.2 428.5 423 416.7 412.7 408.1 404.3 400.4 396.2 392 388.1 385.7 383.6 381.1 378.6 372.6 369.6 378.2 385.8 396.8 405.2 409.4 418.8 424.5 430.7 435.7 436.7 435.6 433.5 432.4 431.1 429.6 427.7 426 422.4 417.1 406.3 398.5 396.9 398.1 400.2 399.3 397.6 395.1 391.5 386.8 383.1 380 377.1 374.8 373.6 371.6 369.1 367.4 363.9 362.6 361.3 360.2 359.2 358.5 358 357.1 356.7 356.4 355.8 354.3 354.4 359.3 367.1 370 371.7 371.7 370.9 369.9 369.6 368.5 372.3 376.3 379.7 385.2 391.2 397.1 402.1 408.1 413.4 414.9 415.5 419.4 420.4 418.7 415.2 410.9 406.8 401.8 393.2 385.7 380.1 371.1 365.9 357.4 346.6 338.9 331.2 326.1 321.5 329.3 334.7 338.8 342 348.2 354.5 362.1 363.8 363.9 364.3 362.7 357.8 353 349.1 344.9
300.7 304.2 305 305.9 310.7 317.4 323 325.5 327.1 327.9 329.2 331 330.1 323.1 300.8 282.6 270.7 265.9 273.8 285.2 295.4 309.5 326.1 345.6 361.6 373.7 382.1 387 389.9 392.5 393.7 393.1 389 378.9 369.4 384.9 402.2 414.4 423.8 430.6 437.1 442.7 447 450.8 454.4 456.7 456.7 455.3 452.4 449.6 446.1 443.2 441.5 441.5 441.1 440.8 440.4 439.8 439.1 439.1 437.7 435.8 434.6 433.2 431.6 430.4 427.8 426.6 428.9 432.3 434.8 438.1 441.7 445.3 447.1 448.2 448 445.5 442 437.3 432.9 428 423.5 418.4 413.6 408.9 404.3 399.8 395.9 392.4 388.4 384.8 381 377.6 375.8 371.7 368.5 372.3 379.5 389.1 395.7 407 416.4 425.8 434.3 439.5 439.7 436.9 433.8 431.7 429.9 429.1 428.5 426.8 424.3 420.3 414.4 406.6 394.9 393.1 391.8 391.4 390.2 386.9 383.4 381.7 380.4 378.7 376.1 373.3 369.9 367.9 366.8 365.3 365 363.4 361.7 359.9 358.9 358.6 357.5 356.5 355.9 355.3 355.1 354.6 354.4 355.5 360.8 362.9 364.3 364.8 365.4 364.3 361.5 365.3 372.9 380 384.8 391.6 395.6 401.2 407.5 413.4 418.4 418.3 416.9 419.6 420.2 419.7 417.1 412.7 408 400.1 392 385.2 379.4 370.3 362.7 354.8 348.1 342.1 336.8 330.5 322.7 323.5 330.8 336 339.8 346.4 353.8 361.8 362.7 362.1 362.6 362.1 357.8 352.1 345.6 341.1
304 306.6 308.1 313 320.6 327.1 329.2 329.8 332.2 334.9 336.9 339.1 340 337.8 319 297.9 283.2 272.3 267.7 272.6 285.2 298.9 316.7 336.2 359 372.6 380.6 384.2 386.5 386.6 384.8 381 373 362.8 378.2 396.5 407.3 416.9 426.1 432.9 439.2 444.3 448.3 452.2 454.6 455.6 454.9 452.5 450 448 445.8 442.7 439.6 438.2 437.7 437.3 437 436 435.3 435.3 434.7 433.1 431.9 430.7 429.7 428.7 426.5 423.8 426.3 430 434.4 438.4 442.2 445.3 447.6 448.6 448.1 445.8 442.4 438.6 434.6 430.7 426.2 421.2 416.1 411.4 406 401.3 396 392.2 388.9 384.6 380.1 376.5 373.2 370.8 367.1 370.1 375.8 388.8 398.4 407.7 419.4 428.9 436.1 438.2 437.4 435.4 431.8 429.3 426.7 427.1 428.2 427.3 424.7 421.2 416.6 410.2 402.1 391.2 385.1 382.6 381.4 380.3 379 377.3 377.4 376.4 373.2 371.1 371.8 371.8 370.4 369 367.2 365.2 362.8 360.8 359.3 359.4 359.8 360.4 359.1 357.2 354.3 353.4 353.5 352.4 354.3 355.7 357.3 357.7 357.5 356.9 360.2 372.1 379.3 385.5 391.7 395.6 399 403.8 410.5 416.3 419.1 417.8 417.1 420.6 421.3 419.5 416.7 411.5 407.3 400.6 391.9 385 378.6 371.1 361.9 354.9 348.5 343.5 339.4 334.8 326.5 321.5 322.7 333 337.7 343.4 351.9 360.6 362.7 361.7 361.7 360.6 356.1 351.1 345.1 338.7
306.8 309.6 313 319.8 327.7 332 330.6 331.7 335.7 339.9 343.2 346.3 349.6 352.5 339.4 320.2 303.5 288.2 275.1 270.1 277.9 289.6 307.3 325 349.3 368.9 377.5 380.8 381.2 374.2 367.5 362.1 358.2 370.7 390.2 406.5 414.5 421.4 427.5 435 441 445.6 449.1 452.2 454.3 454.1 452.6 450.5 448.9 447 444.7 441.7 438.3 435.7 434.7 434 433.6 432.7 431.5 431.2 430.8 430.2 429.2 428.1 427.3 427 424.4 421.7 426.6 431.3 435.4 439.1 442.8 446.3 448.4 448.9 448.8 446.4 443.5 440.8 437.2 433.4 428.3 424.7 419.7 413.7 407.1 401.7 396.5 392.6 387.9 385 381.9 378.6 377 373 369 368.3 373.8 385.8 397.9 409.7 419.6 427.2 431.6 433.2 433.1 432.3 429.5 425.4 422.8 425.6 426.4 424.7 423.2 420.3 415.9 410.5 404.8 397.6 390.4 384.7 382.1 380.8 379.3 378.5 376.9 376.2 374.3 375.9 375.7 374.2 372.3 370.5 369.2 367.2 364.7 363 363.5 366.7 367.9 367.8 365.6 361.5 357.7 353.5 352.5 351.7 352.2 353.1 353 353.5 353.2 360.1 369.4 377.8 383.4 387.7 392 396.7 401.8 406.8 412 415.9 418.5 417.3 416.3 419.7 420.3 418.8 416 410.4 404.4 398.5 392.7 386.3 379.8 372.6 362.7 355.4 348.2 343.2 339.4 335.6 329 322.9 318.7 329.1 337.3 343.6 351.8 360.2 364.7 363.3 361.4 359.4 355 350.8 346.1 341.3
309.2 312.8 318.4 325.6 332 332.8 331.6 332.7 338.1 343.3 347.6 352.4 357.2 359.9 356.7 349.1 328.4 306.7 289.4 273 274.3 283.4 295.3 315 339 362.9 374.1 376.6 368.7 351.6 349.1 358.7 369 383.1 399.4 412.2 420.7 425.9 431.6 437.9 442.7 446.8 449.8 452.1 452.3 451.5 450.1 449.6 448.4 446.9 444.7 441.1 437.1 434.4 432.3 430.6 429.8 429.5 427.9 427.3 426.9 426.7 425.7 424.8 424.7 425 422.1 421.5 425.9 430.2 435.4 438.8 442.5 446.5 448.4 448.9 448.7 447.9 446 443.2 439.4 435 431 425.3 419.5 414.9 408.3 401.5 397.4 393.1 390.6 388.4 384.9 381.3 379 376 373.2 367.4 369.9 380.2 396.4 408.4 416.3 421.9 425.6 426 428.5 426.7 423.7 419.4 419 422.6 422.3 423.2 422 419.1 415.5 410.2 401.9 399.4 394.9 390.6 387.2 386 385.4 384.6 382.9 380.6 378.9 379.4 378.6 377.2 378.1 378.1 374.4 372.4 372.2 374.5 376.2 377.8 376.1 374.5 372.4 368.2 362.8 357.6 354.9 351.4 351.2 351.4 351.6 351.7 356.4 365.5 375 379.7 384.3 389.6 394.1 399.1 403.1 406.8 410.8 413.4 415.1 415.1 415.2 416.2 416.8 416.2 412.8 406.9 400.9 394.6 391.7 387.1 381 374.4 366.6 358 350.1 343.5 338.3 334 329.8 326 319.2 329 339.5 347.4 353.5 359.3 365.4 366 363.3 360.5 357.6 354.5 349.6 343.1
311.2 316.1 322.3 329.4 333 330.5 329.1 334.6 341 347.1 352.2 358.2 362.6 365.2 368.5 369.7 352.2 327.1 305.3 286.4 274.1 279.4 289.7 308.2 329.5 355 369.6 370.6 358.2 343.4 359.6 370.3 381.7 394.7 407 416.7 423.6 429.4 435.3 440.3 444.5 447.9 450.2 450.3 449.8 449.4 449.1 449.1 448.8 447.5 445.8 442.9 439.5 435.4 432.2 428.6 425.3 424.9 424.2 423.7 424.1 423 422.6 422 422.3 422.2 418.6 420.5 425 429.2 434 437.7 442 446.1 448.1 449.5 449.7 449.6 448.2 445.8 442.5 436.5 430.8 426.3 421.3 413.4 407 403.6 400 396.2 393.3 390.2 386.9 383.5 379.9 376.3 372.7 367.5 367.4 374.9 391.4 404.5 410.9 415.4 417.1 420.6 421.5 419.9 417.9 414.7 414.1 416.9 420.8 422.4 421.6 418.5 414.3 410 408.7 406.1 402.9 399 395.5 393.7 393.7 393.7 394 395 392.1 389.4 386.1 385.9 387.6 389.9 389.8 388.9 388.5 387.6 387.5 387.6 384.6 381.8 378.1 373 367.7 362.9 359.3 354.1 350.6 350.3 349.9 349.8 360.3 368.4 374.9 381.3 387.4 391.6 393.8 395.7 399.9 405 411.9 416 418.1 417.2 417.1 416.9 416.3 414.4 409.4 403.5 398.5 393.2 389.2 385.9 380.9 375.1 369.1 361.9 353 346.2 339.5 331.7 325.7 323 319.4 331.6 342 352.7 361.5 365.4 367.3 368.6 366.5 363.8 361.2 357.5 351.3 344
312.6 317.9 323.7 327.8 326.2 323.8 331 338.2 345 351.5 357.7 363.6 367.4 370.8 375.9 379 370 348.3 323.7 300.6 282 278.7 286.4 301 324.1 347.7 366.6 363.8 347.9 341.9 366.2 382.3 390.5 402.6 412.6 420.5 426.5 432.9 438 442.3 446 448.9 449.3 448.7 448.1 448.1 448.2 448.6 448.7 447.8 446.6 444.6 441.1 436.7 432.5 428.3 425.3 421.1 420.1 421.1 421 420.3 419.8 419.3 419.4 419.8 415.5 419.3 423.9 427.8 432.2 436.7 441 445.3 448 449.7 450.4 450.6 449.9 446.6 442.9 439.5 434 426.1 418.3 416.1 412.4 408.6 404.5 400 395.7 392 388.9 385.6 382.2 378.3 374 369.8 366.8 369.3 383.4 395.9 403.3 407.2 410.3 413.5 414.3 413.3 411.3 406.7 408.1 415.3 419.1 421.4 419.7 416.7 416.4 414.8 413.4 413.9 414.7 412.9 410.5 409.5 409.9 408.1 405.3 403.1 401.5 400.9 399.1 401 401.8 404 407.1 407.4 403.4 401 399 396.6 393.6 389.5 384.1 379.6 374.1 367.7 363.1 361.2 358.2 357.4 350.9 348.5 361.5 370.4 378 384.3 385.4 385.9 386.9 394.4 399.6 407.2 413 417.7 419.5 417.9 416.7 415.7 415 413.1 407.5 401.8 396.8 392.1 386.6 384.3 379.5 374.2 369 363.1 352 345.6 339.3 330.2 320.4 316.6 324.6 335.6 345.4 356.8 366.3 370.7 371.1 371.5 369.8 366.9 364.4 359.8 353.9 347.8
311.8 318 321.2 320.1 319.1 327.9 336.4 342.8 349.6 356.1 362.7 368.3 372.2 377 382.3 383.3 380.4 367.9 343.7 317.5 292.1 277.5 287.6 297.4 319.3 345.9 359.9 355.4 333.9 345.1 372.1 391.6 400.8 409.3 417.1 423.7 429.5 435.3 440.2 444.5 447.6 448.4 446.5 446.2 446.4 446.8 447.5 447.9 448 446.9 445.7 443.3 439.8 435.5 431.6 427.5 424.2 420.7 417.6 417 417.3 417.7 417.5 416.7 416.7 416.4 414.2 417.9 422.1 426.3 430.8 435.6 440 444.3 447.3 449.9 451.3 451.7 451.2 449.2 445.4 439.2 433.6 428.4 426.7 425.3 421.7 416.9 410.7 404.6 399.4 394.5 390.3 386.7 381.9 378.2 375.3 371.4 365.2 367.1 374.7 385.8 394.1 397.1 404.2 406.6 407.1 405.9 402.5 399.5 405.4 411.9 417.7 419.2 419.9 421.2 423 426 426.6 425.8 423.6 422.9 424.1 425.6 425.7 424 420.8 416.6 413.7 412.5 409.4 410 412.4 415.5 417.3 416.3 413.8 410.4 407.5 404.1 399.7 395.1 390.6 386.3 380.4 372.3 369.3 365.1 362.2 360.5 355.5 348.7 357.2 370.5 375.4 376.5 376.7 377.9 387.8 396.1 403.6 409.8 413.2 416.6 417.7 415.8 415.4 414.8 413.7 411.7 407.6 402.8 396.8 391.1 384.7 382.6 379 371.6 367 358.8 351.6 342.9 335.3 325.2 314.8 323.9 332.9 339.7 349.9 362.5 371.5 375.7 376.1 375.6 373.7 370.2 367.3 361.8 355.9 349.4
305.5 310.2 314 317.5 327.3 335.2 342 348.4 354.2 361 368 373.1 377.6 383.1 388 388.3 386.7 380.1 360.8 329.5 299.5 279.9 289.5 297.8 316.1 342.4 347.8 337.5 330.4 352.6 380.9 401.2 411.8 418 422.6 427.5 432.9 438.4 442.9 446.3 447.5 445.7 445.1 444.5 445.2 446.1 446.7 446.9 446.4 445.3 444 442.1 439 434.8 430.7 426.6 423.8 420.8 417.2 413.5 413.2 414 414.2 413.9 414.2 412.6 413.5 416.9 420.7 425 429.5 434.4 438.8 443.3 447.6 449.8 452.1 453.3 453.6 450.3 445.8 441.7 438.9 436.5 435.5 433.2 428.6 423.9 419.1 413.1 406.5 399.5 393.1 388 384.1 379.8 375.4 370.9 367.2 365.7 367.2 376 381.7 392.2 395.7 398.9 398.8 395.5 393.5 396 404.5 410.7 415.6 420.5 424.6 429.2 431.5 432.8 434.1 435.4 435.5 435.3 435.2 434 433.8 432.5 430.5 427.3 422.8 418.6 417.1 416.2 420.7 423.9 425.3 425.3 424.5 423.1 419.1 413.2 407.7 403 397.6 391.7 386.2 380.6 375.7 371.6 367.2 362.5 357.8 347.9 349.6 363.2 366.1 366.5 369 380.7 390.4 398.5 404.5 409.7 414.1 416.9 416 414.3 414.2 414 413.2 411.6 409.5 405.5 400.3 393.7 386.2 380 374.1 368.2 361.6 353 344.1 335.7 329.9 319.2 318 328.8 337.7 344.9 354.9 369.4 378.6 381.7 383.1 380.4 377.6 374.3 369.7 363.2 355.1 346.3
309.2 312.9 318.3 326.6 335.5 342.7 348.5 354 359.9 366.4 372.5 377.8 383.4 389.4 393.6 393.6 392.2 387.7 369.4 337.4 307.3 285.6 285.5 298.1 310.5 322.3 327.1 322.3 336.8 361.9 389.8 410 419.7 425.2 428.7 432.1 436 440.9 444.8 446.9 445.5 443 443.1 443.6 445.1 446.1 446.8 446.7 445.2 443.6 441.8 439.7 437.2 433.4 429.6 426 422.8 420.1 418.5 414.8 410.8 411 410.5 410.8 411.2 409.3 411.9 415.7 419.8 423.7 428.2 432.8 437.1 442 445.4 449.8 453.3 454.9 454.3 452.6 449.5 447.7 446.2 443.6 441 437.5 434 430.4 426.2 419.3 410.8 403.1 397.2 391.2 385.9 380.6 378.2 374.8 371 367 364.5 366 373.1 382.8 387.2 388.7 386.7 388.3 392.2 396.5 405.5 411.7 418.9 425.8 430.1 435.5 438.6 440.7 441.9 442.3 441.8 441.4 440.2 440.1 438.6 437.1 437.2 436.1 434.7 432 428.7 427 429.5 431.6 433.1 431.5 430.4 427.1 424.7 420 416.1 410.4 404.1 398.7 390.6 384.7 379.4 374.7 370.3 365.2 359.1 354.9 347.7 353.1 355.1 363.6 375.1 385.3 392 398.1 405.7 412.9 416.8 417.2 415.5 413.3 412.6 412.7 412.3 412.1 411.9 410.9 407.4 400.8 392.6 382.5 370.2 360 353.2 344.5 336.4 329.9 324.2 314.4 318.8 330.6 341.6 349.1 357.5 370.8 381.4 387.2 388.3 387.2 383.1 378.6 372.9 366 357.5 347.4
315.7 319.7 325.1 333.3 341.8 349.5 355.2 360.2 365.7 371.4 377 383.1 389 394.6 398 399.1 397.1 392.1 373.6 342.6 311.9 293.1 286.9 286.8 295.7 299.2 314.7 331.9 351.3 377.5 400.6 417.2 425.6 430.1 433.1 436.2 439.1 442.4 445.1 445.1 441.1 440.8 441.7 442.9 444.5 446 446.9 446.8 445.1 442.7 439.7 436.8 433.2 430.5 427.1 423.7 421.3 419.5 417.5 415.1 412.1 408.5 407.8 407.7 407.7 406.8 410.8 414.6 418.9 423.5 427.6 431.5 436.1 440.4 445.2 450.6 454.2 455.2 455.8 455.6 455.3 453.3 450.1 447.7 445.2 442.1 438.4 434.5 428.5 422.6 415.1 406.9 401.2 396.5 394.9 391.3 384.6 379.5 374 372.2 368 364.9 365.6 375 378.9 376.9 385.9 389.7 394 399.9 406.5 416.4 424.4 429.6 434.9 439.2 443 445.5 446.5 446.5 445.1 443.2 442.6 442.5 442.9 443 442.5 441.8 441.7 440.3 439.5 439.4 438.8 437.7 436.4 436 433.7 430 426.7 423.7 420.3 415.8 408.9 400.3 391.5 385.5 381.8 378.1 375.2 369.2 362.2 355.5 347.2 348.2 357.7 373.3 383.1 389 395.5 403.5 409 412.8 414.2 414 412.6 411.1 410.7 411.3 411.8 412.5 412.9 413.1 411.7 408.1 402.8 395.3 384.6 362.5 346.5 337 330.1 323.5 319 311.5 317.3 329.3 340 348.5 356.8 371.1 381.7 389.3 392.5 392 387.9 382.5 376.7 370.5 363.3 355
321.8 325.8 331.4 339 347.4 354.2 359.7 365 370.8 376.2 381.6 387.7 394.4 398.9 401.7 403.4 401.2 396.3 378 347.1 322 309.5 300.1 291.1 297.5 313.8 340.4 358.1 375.8 396.8 413.6 423.7 429.1 432.8 435.7 438.6 441.1 442.3 443.7 441 438.8 439.1 440.5 442.2 443.8 445.3 446.2 445.7 443.6 441.3 437.5 433.9 429.7 426.6 423.9 421.4 418.9 417.4 415.8 414.2 411.8 410 406.8 404.9 404.6 408 410.6 413.8 418.1 423.2 427.7 432.2 435.7 439.2 445.7 450.5 453.5 456.4 458.8 459.5 457.2 455.3 453.8 451.8 449 445.7 442.5 438.4 433.2 425.9 417.1 411.2 406.3 402.4 397.6 391.9 385.5 381.3 379.8 377.9 374.4 369.2 361.9 367.9 373.1 379.9 383.6 388.5 397.4 403.4 408.5 417 426 430.6 436.7 440.3 444.1 446.5 447.6 448.2 447.4 448.1 447 447 446.6 445.2 445.3 444.7 444.6 443.9 443.7 443.6 442.8 441.8 440.1 438.3 435.7 432 428.4 424.4 420.6 416.7 408.8 400.4 393.3 387 382.9 379.1 375.5 370.6 361.8 357.3 348.6 347.8 367.1 378.8 384.1 392.5 399.4 404.7 408.7 411.6 411.8 411.9 410.4 409 409.2 410.1 411.6 413.3 413.1 413.5 412.6 410.4 407.4 402.9 395.9 374.1 349.2 333.4 323 318.2 315 310.3 313.5 323.5 335.4 345.1 354.7 368.8 380.5 389 395.6 395.5 391.1 385 380 374.3 369 362.2
326.3 330.2 336 343.7 351.4 357.9 363.5 369.3 375.7 381.4 386.7 393 399.3 402.2 404.9 406.4 406.2 401.6 387.1 362 350.9 342.1 325.7 302.9 303 317.1 337.3 367.8 392.9 409.8 420.3 427.3 431.6 434.9 437.8 440.3 442.2 442.6 440 437.7 436.6 438.1 439.9 441.6 443.3 444.4 444.5 443.6 441.7 439.3 435.1 430.9 427.3 423.3 420 417.9 416.8 415.6 414 412.7 411.6 409.2 406.2 402.9 406.1 411.6 414.8 417.3 420 422.8 427.3 432 434.6 439.2 445 449.9 454.6 458.6 460.8 459.9 459.9 459 457.2 454.7 452 448.7 444.6 439.5 434.3 427.7 422.2 416.3 409 403.2 397.5 393.4 389.8 384.7 380.4 377.6 373.3 369 363.7 363 368.1 375.3 382.2 390 395.7 402.3 409.1 415.7 424.2 432.3 435.1 438.3 443.6 445.6 445.9 450.1 452.1 451.9 450.2 447.9 446.3 444.9 444.6 444.9 445 444.2 443.7 443.1 441.7 441.7 441 439.6 437.4 433.6 429.5 425.2 421.5 417.4 411.1 403.8 395.3 389.1 384.2 381 377.2 371.9 361.7 357 349.8 348.4 367.4 373.7 383.3 393.3 398.2 403.9 410 411.7 411.5 410.6 408.5 408.1 408.8 409.6 410.3 411.5 411.6 411.6 412 410.2 407.7 403.6 396.4 380 352 331.3 320.1 315.3 313.5 311.3 308.6 317 328.1 339.9 351.7 363.7 376.2 386.8 394.3 394.5 391.3 386.6 382.2 377.2 371.9 366.5
330.4 334.6 340.5 348 354.8 361.5 367.3 373.9 380.4 386.5 392.2 398.9 403.5 406 408 408.8 409.1 407 399 385.6 384.1 372.9 346.6 321.1 328.2 324 338.5 362.2 388.7 410.1 421.7 428.7 432.6 436.3 439.6 441.6 441.6 438.4 436.1 433.1 436.4 438.1 440 441.6 443.1 443.3 442.9 441.6 439.5 436.1 431.6 427.1 423.2 419.1 416.6 414.6 413.7 412.9 411.4 410.8 411.3 408.7 404.1 402.6 409.6 414.1 418.2 420.3 423.2 425.9 428.2 431.9 436.2 440.5 444.5 450.1 456.1 459.1 460.9 462.3 462.2 460.6 458.4 455.8 452.7 448.7 444.7 439.9 435 430.2 424.5 417.4 409.7 403.1 398.1 394.1 388.8 382.6 378 374.6 371.1 370 367.7 361.4 363.2 369.6 381.1 387.6 397.6 406.1 412.8 414.9 423.9 428.8 431.8 437.7 442 443.2 447.9 451.4 452.7 450.7 448.2 446.2 445.1 444 443.2 442.9 441.7 440.3 439.7 439.3 438.8 438.7 438.8 437.8 436.3 433.5 430 426.3 422.7 419.2 414.9 408.2 400.2 391.6 387.4 383.5 379.6 370.4 359.7 354.2 347 346.1 359.3 372.5 382.7 389.5 395.5 404.2 411.2 412.1 412 410.9 408.3 408 408.7 409.6 410.9 411.4 410.4 409.9 410.4 409.4 406.7 403.2 396 382.2 358.1 337.4 322.8 314.3 311.7 310.5 308 314.3 323.4 334.2 344 353.8 369.7 380.5 387.4 390.4 387.8 385.6 383.1 378.9 373.3 368
334.1 338 344 351.1 358 364.8 371.5 378.5 385.4 391.8 398.3 404.3 407.6 409.7 411.8 412.9 413.4 412.1 409 406.4 403.2 393.9 374.7 355.4 362.8 355.4 350.8 361.8 386.2 406.5 420.8 428.5 433.3 437.4 440.4 440.8 437.6 434.4 430 434.7 436.6 438.4 440.2 441.7 442.6 442.4 441.1 439.8 437.5 433.6 429.7 425.7 420.9 416.6 413.5 411.3 410.7 410 408.8 408.9 409.5 407.4 400.7 406.4 411.7 415.6 419.8 422.4 425.5 428.9 431.2 433.8 437.7 440.2 445.1 450.9 455.2 457.9 461.2 462.7 462.2 460.8 458.4 455.4 451.9 447.7 443.4 438.8 432.9 425.8 419 412.6 406.7 399.1 394.6 390.8 386.5 382 378.5 375.6 376.3 375.9 371.5 364.7 359.2 364.8 375 385.9 397.9 405.3 408.8 413.2 418.1 422.6 428.1 433.7 436.2 442 447 449.5 449.1 448.2 447.3 445.8 444 442.9 441.8 439.8 438.4 436.3 435.2 434.4 434.2 434.8 436.1 436.3 435.2 433.3 430.9 428.2 424.8 420.8 416.4 411.4 404.9 397.1 389.9 384.9 379.8 371.7 359.5 353.6 348.3 345.6 353.8 369.4 379.2 383.8 393.8 403.9 408.4 410.4 410.9 410.7 407.9 408.8 409.5 410.3 411.2 412.8 411.3 408.7 408.6 407.7 405.5 402.1 393.7 383.9 364 345.9 330.1 317.5 311.6 309.9 308.4 315.7 322.7 330.3 338 345.9 361.9 375.4 383 384.7 383.8 382.2 381.3 378.7 374.1 369.1
337.7 341.3 347.3 354.2 361.1 368.2 375.6 382.9 390.4 397.1 403.7 408.8 411.5 413.6 415.6 416.9 418 418 416.8 415.3 412.9 404.7 387.8 375.9 388.9 391.7 391.1 384.1 385.9 402.5 417.7 428.6 433.9 438.4 439.4 436.4 433.1 427.3 432.1 434.6 436.7 438.7 440.5 441.7 442.2 441.6 439.7 438 435.6 432.3 427.6 424.1 419.4 414.7 410.6 407.9 407.1 406.8 406.3 407 407 401.6 399.2 406.8 412.4 416.8 420.4 423.8 427.5 431.1 434.3 436.8 439 441.2 445.9 450.3 453.5 457.9 461 461.8 461.4 459.9 457.3 454.3 450 445 438.5 432.2 426 420.2 416.1 410.2 404.3 399.1 392.3 388.7 385.6 381.6 379.8 380.2 381.4 380.8 375.2 367 360.7 362.3 368.6 382 394.7 400 404.7 409 413.2 417.3 423.5 428.8 437.2 442 445 447.7 449.2 447.5 445.4 443.8 443.4 441.9 439.4 436.2 434.2 432.7 431.6 430.8 430.9 431.6 433.6 434 433.5 432.7 431.3 429 426.2 422.1 417.8 413 408.4 401.3 392.9 384.1 379.3 373.2 362.2 357.5 350.2 345.5 347.6 359.4 366.4 377.2 390.9 397.1 401.8 404.8 406.6 408 410.1 412.8 412.8 413.5 412.8 411.5 410.3 408 407.4 406.1 403.9 400.1 392.6 383.3 369.8 353.5 337.7 324.5 314.6 309.6 310.7 317.2 323 327.6 333.2 340.1 354.8 368.5 376.5 378.2 378.5 377.5 376.4 376.7 373.1 368.4
341.1 345.2 350.6 357.3 364.1 371.8 380 388 395.4 401.9 408.2 412.6 415.4 417.5 419.8 421.6 423.2 423.3 422.1 420.2 417.9 410.7 396.4 388 403.6 411.2 413.8 412.6 404 405 415.9 428.4 434.1 436.9 436 431.6 425.4 429.4 431.5 433.8 436.1 438.4 440 440.7 441 440.4 438.6 436 433.3 429.2 425.5 422.2 417.4 413.5 409.1 405.5 404.2 403.6 403.8 404.9 403.3 398.4 400.6 406.7 411.7 416.3 421.1 425.3 428.8 432.9 436.7 438.7 440.6 443 446 449.3 452.9 457.2 459.6 460.6 459.9 458.4 455.2 451.2 445.4 438.3 430.8 424.2 419.8 416.7 412.4 407.1 401.4 395.5 390 387.6 384.7 382.8 383.6 385.2 385 384.3 379.3 370.8 361.2 360.4 362.7 376.1 388.4 394.4 401 404.3 408.5 413.3 419 427.8 435.7 439.9 443.5 445.6 445.9 444.8 443.4 442.5 441.8 439.2 436.5 434.3 431.9 429.9 428.7 427.6 427.2 428 429.7 430.8 430.9 430.9 430 428.2 425.3 421.9 418.4 414 409.9 404.2 397.2 388 378.6 371.9 364.9 358.8 351.5 345.5 348 358.5 371.5 387 394.3 400.3 406.6 411.6 413.5 414.4 415.2 415.4 413.9 414.4 413.5 410.2 409 407 406.2 404.2 401 397.7 391.5 382.3 373.2 359.4 343.9 331.5 319 310.5 309.9 315.7 320.7 324.7 329.3 334.6 343.2 356.8 366 370.9 371.3 368.6 370.5 373.3 370.2 366.3
344.1 347.9 353.6 360.3 367.5 376.3 384.6 392.9 399.6 406.2 411.7 415.7 418.8 421.3 423.8 425.8 427.1 426.8 425.4 424.4 421.7 417.3 406.6 398.4 414.4 421.8 423.6 422.9 420.9 416.6 421.4 428.4 432.9 433.8 430.8 423.6 427.1 429.4 431.2 433 435.1 436.7 437.9 439 439.2 439 437.1 434.3 431.2 427.6 423.9 420 416 412.2 408.1 404.3 401.6 401.3 400.9 401 396.8 397.8 403.8 408.2 413.3 418.1 422.6 425.9 429.9 435.2 437.7 440 443 444.9 447 449.5 453 455.7 457.8 458.5 458.1 455.5 451.4 444.6 437.7 430 423.6 418.6 414.3 409.6 406 401.5 394.7 390.2 388.6 386.2 385.2 386.6 388.3 388.3 387.8 384.9 382.2 376.3 366.2 359.5 360.4 369.9 382.7 391.6 394.9 398.6 405.6 412.5 418.8 425.3 431 435.8 440.4 443.5 444.2 443.5 442.8 442.1 440.6 438.5 436.1 433.5 430.5 427.6 424.9 423.8 423.3 423.4 425.1 426.3 426.9 426.9 426.1 424.6 422.5 419.4 415.5 412 408.7 404.4 399.3 390.5 379.6 373.5 368.6 359.8 352.5 345.3 346.1 365.1 379.9 391.1 401.4 407.2 411.9 415.2 417.4 418.5 419.1 418.9 415.4 413.2 411.9 409.2 407.5 405.9 404.3 401.6 397.8 393.6 388.2 381.7 374.2 364.2 350.8 337.5 325.4 315.1 309.1 311.4 316.9 321.6 325.8 329.5 334.5 343.1 353.8 359.1 361 359.3 361.5 365.4 366 362.5
346.1 351.1 356.5 363.4 371.5 380.6 389.4 398.1 404.1 409.5 414.2 418.1 421.6 424.4 427.1 429.3 430.2 428.9 428.3 427.3 425.1 421.6 413.4 409.6 421.8 426.5 427.6 427.6 427.4 426.1 425.9 429.1 430.7 429.5 424.4 423.5 426.7 428.3 430.1 431.6 433.5 435 436 437 437.2 437 435.2 432.7 430.4 426.6 423.3 419.9 416.2 412.2 408.9 404.6 400.7 398.6 397.5 397.4 394.7 400.2 404.7 409.6 414.8 419.9 423.4 427.5 433.2 435.5 438.2 441.2 444.3 445.9 447.1 449.9 452.3 453.7 455 455.9 454.5 450.8 443.6 436.4 429.5 423.8 419.4 414.8 409.8 403.7 400 394.8 391.6 388.9 386.9 386.1 386.3 388 389.9 391.1 390.8 389.8 388.8 382.6 372.7 363 357.6 362.3 376.3 381.7 389 396.7 404.1 412.7 418.4 422.2 426.8 433.2 439 441.6 442.6 443 441.3 439.9 438.3 437 434.8 432.1 429.1 425.9 423.3 420.8 419.4 420.1 420 420.4 419.7 420.8 421.4 420.8 418.5 416 412.3 409.3 405.9 402.8 398.9 389.9 381 375.5 371.1 361.4 355.1 346 347.3 372.8 384.4 394.2 403.3 409.4 414.3 417 419.1 420 420 420.4 416.3 412.7 410.1 408.6 406.6 404.4 402.3 399.2 395 389.1 383.5 378.4 372.9 365 354.5 342.8 331.5 321.1 311.8 307.8 312 317.6 321.4 324.8 328.2 333.5 341.7 347.5 351.7 352 354.4 358.7 362.5 359.9
348.3 353.9 359.5 366.6 374.8 384.4 393 401.1 407 411.9 416.3 420.3 423.7 426.8 429.7 432 431.7 431.5 431.2 430.4 428.4 424.9 420.6 420.8 425.8 428 429.1 430.3 430.9 430.3 429.8 429.4 428 425.5 422 422.6 424.9 426.7 429.5 430.3 431.6 433.1 434.1 435 435.2 434.9 433.2 431 428.6 425.3 421.5 418 414.3 410.9 407.4 403.9 400.5 397.2 394.3 393.2 396 402.2 407.5 411.9 416.2 420.2 424.3 429.6 432.4 435.4 439.3 442.8 444.9 446.2 447.7 450.2 451.1 451.1 452.9 451.5 449 442.9 438.4 433.4 429.4 424.1 418.3 411.1 405 399.5 395.4 392.8 390.4 387.9 384.8 383.1 385.1 388.1 392.8 394.3 392.5 391.1 388.6 382.6 374.7 366.7 362.7 357.8 366.3 376.9 385.9 394.1 402.6 411 415.8 419.9 426.3 432.3 436.5 438.8 440 440.4 439.7 439 437.3 435.6 432.9 430.3 427.4 425 422.7 420.6 417.6 415.7 416.4 416.1 416.2 417.5 419.1 418.8 417.3 414 410 406.2 403.6 400.7 396.6 388.6 379.8 374 371.1 366.3 356.3 343.3 348.9 376 387.4 396.7 404.6 411.7 414.8 417.9 421 421.9 420 417.9 415.3 412.8 411.5 409.6 407.6 405.5 402.8 399.7 394.4 388.2 381.3 375.2 370.8 363.3 354 344 334.1 325.4 316.6 308.9 307.8 313.1 317.3 320.4 323.9 327.6 334.3 338.4 341 344 348.3 354.9 359.9 357.9
350.9 357.3 364 370.2 378.1 387.5 395.9 402.8 408.6 413.8 418.4 422.6 425.7 428.9 431.8 433 433.1 433.2 433.7 433.3 431.2 428.8 426.5 426.5 428.6 430.2 431.4 432.2 432.4 431.8 431.2 429.3 425.4 422.7 419.7 421.2 423.3 426.2 427.7 428.2 429.4 430.8 431.8 432.8 433.1 432.7 430.9 429.1 426.5 423.7 420.8 417.1 413.4 409.4 405.9 402.5 399.2 395.8 392.2 392.2 398.9 404.3 410.2 414.4 417.6 420.9 426.1 428.7 432.1 437.1 440.3 442.9 444.8 446.9 447.5 447.9 447.6 448.2 448.5 445.8 441.1 439.5 437.6 434.7 429.3 423.3 416 408.3 401.7 396.4 393.3 391.3 388.6 385.7 385.3 381.7 381 387.5 391.4 391.7 390.6 388.7 386.6 381 375.3 369.2 365.7 357.9 360.9 373.4 384.7 394.9 402.1 405.6 411 418 424.4 430.2 434.7 438.7 438.7 439.7 437.9 434.9 433.6 432.5 430.7 429 426.8 424.6 422.6 420.6 418.3 415.5 411.8 412.1 411.9 412.4 414 413.4 411.1 409.9 407.2 403.7 400.8 398.1 393.6 385.9 377.7 370.5 367.8 366.6 359 344.2 353.1 379.3 392.1 399.7 404.1 408.6 411.8 416 418.8 419.7 418.7 416.6 416.4 415.4 413.1 411.2 409.1 407.2 404.9 402.7 398.7 394.1 387.9 383.4 377.9 368.9 358.1 347.9 341.3 332.1 321.1 310.6 305.2 309.8 313.5 316.6 320.1 324.5 329 332 332.8 336.6 343.3 350.9 357 355.8
352.9 360 367.2 374 382 390.9 399.2 405.5 410.2 415.6 420.2 424 427.5 430.8 432.9 433.8 434.3 434.7 435.2 434.9 433.3 431.6 431.2 430.8 431.6 432.6 433.6 433.4 432.6 431.9 430.6 427.2 423.3 420.7 418.3 419.6 421.8 423.9 425.2 425.7 426.9 428.1 429.2 430.2 431 430.4 429.1 427.6 425.4 422 419.8 416.8 412.8 409.5 405.9 401.3 397.9 394.7 390.4 395.1 400.1 404.8 410.9 414.4 418.5 422.2 424.6 427.9 433.6 437.4 439.8 442.7 445.7 447.6 446.7 445 443.8 443.9 442.5 438.5 436.9 435.8 435.1 431.8 425.9 419.5 412.9 406.3 399.9 395.6 392.4 389.7 389.9 388.6 387 384.9 380.5 383.1 386.1 387 383.6 381.6 382.1 377.9 374.5 370 364.7 360.2 356 370.8 384.2 394.1 398.5 401.4 407.1 414.3 422.2 427.7 432.1 435.9 436.2 433.1 432.1 432.2 431.5 430.6 429.9 428.5 427 424.4 422.3 420.3 418 415.7 412.9 409.2 404.2 405.9 406.8 406.2 404.9 403.5 401.9 399.7 397.1 393.9 389.6 382.4 374.2 366.9 364.4 362.6 359.4 344.5 360.6 385.6 392.3 395.8 403.3 408.3 412.1 416 419 417.9 417.6 416.8 417.6 417.7 415.2 413.1 411.4 411.2 409.8 406.6 405.4 402.9 400.5 397 391.5 380.8 368.8 358.4 349.5 340.2 328.5 315.5 306.1 307.1 309.6 312.9 316.3 320 324.3 326.6 326.3 330.7 340.4 347.9 353.4 352.8
354.4 361.8 369 376.6 385.4 394.9 402.6 408.2 412.7 417.4 421.5 425.3 429 431.7 433.4 434.5 435.2 435.9 436.1 435.7 436.3 435.9 435.4 434.9 434.9 435 434.9 433.7 432.5 430.4 427.3 423.6 421.6 419.6 416.6 417.5 420.3 421 422.1 423.1 424.4 425.7 426.8 427.8 428.4 427.9 427.5 426.6 424.6 421.8 419.1 416.9 414.1 410.7 406.8 402.6 398.3 394.7 389.3 398.3 401.3 405.6 410.6 414.7 418.3 420.2 423.7 429.3 433.2 436.4 439.1 442.3 445.1 445.5 444.5 442.3 438.5 437.3 435.3 434.1 432.9 432.8 430.7 426.7 421.9 414.5 408.5 403.1 398.5 394.7 393.3 393.6 391.6 389.7 388.4 385 383.2 380 374.5 378.2 375.3 371.8 373.8 373.7 372.5 368.5 363.2 358.2 356.5 370.3 383.3 389.8 393.6 397.6 403.4 412 418.2 423.9 429.4 430.1 429.3 429.5 430.1 429.1 429.2 431 431.1 429.7 427.7 425.1 422.3 420.5 417.9 415.1 413 410.3 407.4 399.8 398.7 398.9 398.2 397 395.7 393.3 391.7 389.5 385.3 379.1 370.5 364.6 361.3 357.8 346.7 342.1 369.9 382.6 390.3 395.9 403.9 409.2 413.1 416.5 418.3 417.7 417 416.9 417.2 417.8 417 415.7 415.3 415.9 415 412.9 410.4 408.9 407 403.5 398.7 390 378.7 367.9 356.9 345.8 334.9 323 311.4 305.3 304.6 307.9 310.8 313.5 317.9 320.8 321.1 326.1 335.5 343.8 349.2 347.9
356.1 363.7 370.7 379.7 389.9 398.5 405.1 409.8 414.4 418.9 422.8 426.6 429.7 432.2 433.9 435.4 436.2 437.1 437.2 437.9 438.9 438.9 438.7 438.1 437.4 436.8 436.1 434.8 432.3 428.7 424.2 421.8 420.1 418.1 415.1 415.5 418.7 419.3 419.7 420.9 422.2 423.6 424.6 425.4 425.8 425.7 426.4 425.4 423.4 421.4 418.8 416.7 414.4 411.2 407.2 403.7 399.2 394.3 387.8 398.5 402.5 406.2 411.2 415 415.2 418.6 424.3 428.2 430.7 433.5 437 440.2 442.1 441.6 440.9 439.3 435.9 433.9 432.4 430.8 429.6 428.1 425.5 421.9 416.9 410.3 404.8 399.8 396.6 398 396.6 394.7 392.7 390.3 389 387 385.4 384.4 381.5 373.1 371.4 372.8 371.1 364.9 363.1 360.2 358.8 357.4 355.4 365.5 377.1 382.7 388.8 393.8 400.7 409.1 414.8 421.1 422.8 423.8 425.6 425.4 425.1 425.9 428.2 431.7 431.5 430.1 428.3 425.6 422.8 420.3 417.4 414.8 412.9 410 406.7 402.4 397.4 390.9 388.7 389.1 388.7 387.3 385.3 384.6 380.3 375.2 368 362.4 356.4 345.4 340.7 353.8 373.6 379 389.6 396.6 401.7 404.9 408.2 411.2 414.8 416.7 417.5 417.1 417.1 417.2 418.2 418.4 419 420 420 418.8 416.8 413.5 411.3 407.7 403.1 395.3 386.4 376.6 364.9 351.6 338.6 327.3 315.4 306.6 301.8 299.8 301.8 306 310.6 314.5 316.3 320.2 327 337 342.1 342.4
359.7 366.5 375.1 384.4 393.4 400.9 406.3 411 415.8 420.3 424.1 427.5 430.3 432.7 434.3 435.4 437.1 438.2 439.4 441 441.4 441.7 441.2 440.7 440 438.9 437.7 435.9 432.3 427.8 423.7 420.8 418.4 415.7 413.5 414.3 416.8 417.6 418.6 419.5 420.3 421.4 422.8 423.4 423 424.8 425.2 424.2 422.6 421 419.5 417 414.8 411.9 407.6 402.3 397.7 392.7 385.8 397 401.6 406.4 411.7 413.3 414.5 419.6 423.4 424.9 427 430.5 433.6 437.5 437 436.7 435.5 434.2 433.5 433.3 432.2 429.7 425.7 422.4 420.3 416.4 411.7 405.2 401.2 400.9 401.5 401.3 399.5 397.8 395.9 393.3 390.9 388.9 386.8 382.1 376.4 379.7 377.1 377.8 375.5 370.8 367.5 362.4 355.9 353.6 354.7 359.4 369.1 377.7 385 390.5 396.7 404 410.8 415.7 415.9 419.2 419.4 419.8 420 424 427.5 429.5 429.6 428.7 427.2 424.2 421.2 419 416.7 414.7 412.4 409.4 406.2 402.7 399 394.9 389.9 383.8 379.2 379.6 378.7 377.2 374.3 371.2 366.6 360.4 346.6 337.9 342.2 362.6 366.8 377.8 387 392.6 395.5 399.1 402.5 408.1 410.8 414.7 415.9 417.5 417 417.2 418.8 419.9 421.6 423.1 421.8 420.3 419.4 416.5 414.1 410.8 406.1 399.4 391.7 382.2 370.6 356.2 342 328.7 317.3 309.3 303.8 298.7 297 299.4 303.6 307.9 311.9 314.4 316.9 325.7 332 335.3
363 368.9 379.3 388.4 396.1 402 407 412 417.1 421.4 425 428 430.7 432.6 433.3 434.2 436.4 439.7 442.4 443.7 443.8 444 443.5 442.9 441.9 440.6 439.4 436.6 431.1 426.1 422.2 419.5 417.1 414.3 412.1 413.2 415.1 416.6 417.6 418.1 418.4 419.2 420.5 419.8 420.8 423 423.9 423.2 421.7 420.8 419.6 416.3 413.4 410.5 406.8 401.6 395.8 391 384.8 393.6 400.6 404.3 409.2 410.4 415.2 418.5 418.9 421.4 424 425.9 429.8 430.7 430.9 430.1 429.8 431.4 435.7 436.3 434.1 430.5 426 421.4 416.8 412.3 408.6 408.1 407.6 407.6 408.6 408.1 406.3 402.4 398.6 396 393.5 389.7 386.7 381.5 384.2 382.4 381.9 383 380.2 378.6 374.2 369.3 361.1 353.4 354.1 355.8 363.1 372.5 381.2 386.1 390.1 396.6 405.3 408.6 408.9 412.4 413.7 413.9 417.6 421.9 424 426 426.9 426.5 424.4 422 419.8 418 415.7 413.5 410.7 407.5 404.2 401 398.2 395.2 391.6 387.3 381 375.1 370.1 367.7 368.3 366.7 364.2 359.1 344.3 337.4 338.8 351.6 363 376.3 382.5 385.7 388.3 394.1 399.8 404.8 407.6 411 413.9 416.1 416.8 417.4 419.3 421.3 422.7 424.7 423.2 421.5 420.3 418.3 415.1 411.6 407.3 400.2 392.2 382.9 372 360.1 345.7 331.5 320.1 312.7 306.9 302 297.1 295.9 298.6 303.6 308.8 310.5 313 318.5 324.8 328.6
363.9 373.2 382.2 390.6 397.5 402.1 407.2 412.7 417.5 421.5 424.8 427.3 430.6 430.6 429.2 433.3 438.4 442.5 445.2 446.1 446.2 445.9 445.6 445 443.8 442.4 439.5 434.7 429.5 425 420.7 417.9 415.6 413 410.8 411.2 412.7 414.9 416.5 416.6 416.2 417 417.6 417.5 418.9 421.3 422.9 423.4 421.5 420.3 419 416.3 412.9 409.6 405.9 400.8 395.6 389.4 384.4 395.1 397.8 398.9 405.5 412.3 413.5 413.9 414.6 416.6 418.8 421.9 422.6 423.2 423.2 425.3 429.5 435.5 438.7 438.4 434.9 430.7 426.1 421.8 418.4 415.4 414.4 414.1 415.5 414.6 413.8 411.4 407.1 403.6 399.7 396.4 394.1 391.6 386 388 388.2 391 390.9 390.4 388.1 387.2 381.9 376.1 368.2 357.6 352.6 353.3 357.2 366.4 374.1 379.1 383.3 389.2 396.1 400 401.8 405.9 407.2 411.1 414.8 416.9 419.7 424.5 427.9 428.9 427.2 424.3 420.9 418.5 415.9 412.6 408.3 404.9 401.7 398.4 395.4 393.3 391.7 389.3 386.7 382 377.2 370.5 363.2 357.5 350.7 346.9 346.6 337 343.4 338.9 357.3 369.9 376.2 379 382.8 390.9 399.9 403.5 407.5 409.9 413 416.3 416.8 417.2 418.8 420.9 422.6 424.3 423.5 421.9 420.4 418.7 415.7 411.6 405.7 397.1 389 380.3 371.6 362.9 350 335.7 323.3 314.9 309 303.3 298 295.4 296.9 301.4 307 310.6 313.5 315.4 318.5 321.3
367.1 375.3 384 391.9 397.5 402.3 407.5 412.7 417.2 421 423.5 426.8 425.2 421.5 429.2 435.5 440.9 444.8 447.5 448 448 447.8 447.4 446.3 445 441.8 437.1 432.2 427.6 423 419.2 416.2 413.8 411.6 409.7 408.8 411 413.3 415.2 415.5 414.1 414.4 414.6 415.3 417.2 420 422.2 423.1 422.7 420.9 419.6 417 413.4 410.5 406.9 401.9 396.9 390.9 382.5 392.5 392.3 399.1 407.4 410.2 409.7 410.1 410.8 412.5 413.6 415.1 412.9 416.6 422.9 429.2 434.9 439.7 440.5 438.2 435.1 430.9 426.9 424.2 422 419.3 420.2 421.1 422.5 419.1 415.9 412.7 408.2 404.6 401.1 397.9 396.2 391.6 391.8 391.1 394.8 398.2 399 399.4 395.4 391.4 387.2 381.8 375.4 364.4 351.7 351.1 353.4 358.2 366 373 378.1 382 386.4 390.7 394.7 398.6 401.2 407 410.4 413.9 421.7 427 427.8 427 425.3 423.3 420.7 418.4 415.8 413 409.2 404.6 400.2 396.2 392.7 390 388.1 387.2 385.7 383.8 381.9 379 373 366.7 361.5 355.8 342.7 333.9 340.2 329 352.6 362.9 370.5 373.4 380.7 389.5 399.1 404.4 409.9 414.2 413.7 416.6 417.2 417 418.2 420.2 421.7 422.7 423.1 421.8 420.4 419 416.1 411.2 402.7 393.8 385.9 378.8 372.8 365.7 353.3 337.9 325.6 317.3 310.8 305 298.7 294.5 295.7 301.8 308.7 314.4 316.2 315.8 314.5 314.7
369.1 378.1 387 392.2 396.8 402.5 407.2 411.8 415.6 419.2 421.1 417.3 415.7 423 430.5 437.6 442.7 446.2 448.8 449.6 449.8 450.1 448.3 447 444.1 439.1 434.2 429.7 426 421.1 417.4 414.7 412.2 410.2 408.5 407.3 410 411.8 413.6 414.1 412.4 411.9 412.4 413.4 416 418.8 421.7 422.9 422.8 421.9 420.5 418.5 415.5 412.3 408.1 402.9 397.2 391.4 382.3 383.6 391.3 400.5 405.6 405.3 406.7 406.4 405.5 406.8 408.2 407.2 413.6 420.4 426.7 433.3 438.8 441 439.8 437.5 434.1 431.3 430.5 428.8 425.4 426.4 427.4 427.5 424.7 421.1 418.1 414.6 410.6 405.7 402.4 399.4 396.9 396.5 395.2 395.2 401.9 404 404.5 403.1 400.5 396.9 393.4 388.5 382 370.5 356.5 351.6 351 353.1 357.3 365 370.3 374.7 377.2 381.1 387.2 391.4 397.7 402.2 407.2 416.8 422.8 424.9 425.1 425 423.6 421.5 419.2 417.2 415.1 412.1 408.4 404.8 401.3 397.3 394.1 391.2 388.7 385.9 382.3 378.9 378 376.5 374.7 371.3 364.1 358 351.2 345.9 329.1 326.2 345.4 357.8 366.9 373.7 382.7 392.7 401.6 406.5 408 411.5 412.4 414.3 416.1 416.1 417.7 420.5 422.1 422.3 422.3 421.7 420.5 419.4 416.5 410.8 402.1 393.7 386.6 380.7 375 368.4 356.5 341.5 328.9 319.4 312.1 305.9 299.5 293.9 294 303.4 313.6 319 319.8 316.9 314.1 311.7
370.6 380.5 386.5 391.5 396.7 402.2 406 409.9 413.4 415.7 410.6 406.6 415.7 424.4 433.6 440.6 445.1 447.6 449.7 451.6 452.8 451 449.1 446 441.4 435.9 431.1 427.1 422.8 419 416.4 413.6 411.2 409.3 407.3 406.8 410.5 411 412 412.1 409.7 409.4 410.9 412.2 415.3 418.6 422 423 423.5 423.2 421.6 420.3 417.1 414.2 409.5 403.6 398 392.3 386.9 380.2 388.3 398.4 399.3 401.3 404 402.5 400.5 399.9 401 410.1 416.9 424 430.6 436.9 439.4 439.3 439.4 437.3 435.3 434.8 434.1 432.4 431.9 432.2 432.4 430.4 427.5 424.4 420.4 417.7 414.2 408.9 406.8 403.1 400.6 399.6 397.4 401.1 406.6 407.1 408 406.9 405.7 401.8 398.2 394.3 388.6 377.8 364.7 354.3 350.2 349.9 351.6 355 361.1 366.5 369.3 372.7 378.9 386.2 393.4 400.2 410 417.4 420.4 422 424.4 424.4 422.7 420.9 419.7 417.9 416.3 413.8 410 406.9 403 398.9 395 392.4 389.5 386.9 383.9 380.3 375.4 370.8 369.9 368 365.3 358.5 351.1 344.4 323.6 330.8 344.8 357.7 366.8 374.9 386.2 395.4 403.5 408 409.1 410.9 412.2 413.9 414.6 415.5 418.7 421.2 421.8 421.9 421.9 421.4 420.2 419.1 416.3 411.4 404.2 396.5 389.1 383 377.1 370.9 361.7 348 333.9 320.8 312.1 305.9 300.7 295.4 294 302.5 312 316.7 318.5 317.2 313.8 310.8
372.2 379.8 385.4 390.6 395.8 401 404.6 407.3 409.4 407.9 398.5 403.3 416.1 427.7 437.8 443.2 446.8 449.5 451.4 453.8 453.1 451.6 448.4 443.7 438 432.3 428.2 424.9 420.6 417.6 414.7 411.8 409.5 407.8 405.6 404.4 408.1 409.7 410 409.1 406.6 407.3 409.1 411.2 415.1 419.2 422.1 424 425.4 425.3 422.8 421.5 420.4 417 413.1 407.8 403.1 396.4 389 379.8 379.5 387.3 390.2 395.9 397.7 396 391.4 394.6 403.7 412.1 419.8 427.1 433.2 437.1 437.4 439.6 439.9 438.9 439 439.4 439.5 439.3 438.1 436.2 435.3 433.5 430.1 426.3 423.8 420.4 417.2 415.8 413.2 409.8 406.2 402.8 403.2 405.4 410.4 413.4 413.2 411.8 410.4 408.4 404.8 400.6 394.7 385.8 374.7 361.6 354.3 352.9 349.5 349.6 351.9 357.7 361.7 365.1 373.6 382.1 390.4 400.7 410.1 414.7 417.6 420.6 422.6 423.5 422.3 421.4 420.4 419.4 417.7 415.3 412.3 408.7 405.5 401.3 396.9 394 390.4 387.2 383.4 379.4 375.1 370.4 364.9 362.8 359.7 356.6 349.6 343.4 325.6 330.5 344 356.9 368.9 378.4 387.6 396.2 403.4 408.8 411 412.8 413.5 414.2 414.3 414.6 417.8 420.5 421 421.4 421.4 421 420.2 419 417 413.4 407.9 400.6 393 386.2 380.1 373.8 365.7 353.6 338.7 322.3 312 305.4 300.5 297.1 295.4 299.8 304.9 309.4 312.9 314.2 313.2 310
372.5 378.8 383.7 388.8 394.1 397.1 400.7 403.5 405.6 395.3 392.9 402.9 417.1 430.9 439.3 444.3 447.7 450.4 452.8 453.8 453.3 450.7 446.2 440.2 434.7 429.7 426 422.5 419.5 416.1 413 409.9 407.2 406.2 405.3 401.5 404.8 407.1 407.8 405.7 404 406.7 408.1 410.9 414.7 418.7 421.6 424.4 426.2 425 423.3 423.1 421.9 419.8 417.2 412.9 410 403.7 397.4 389.9 381.3 376.8 380.8 384.4 386 386.1 394.8 400.4 404.4 413.3 422.7 429.1 433.1 435 437.2 440.6 441.7 442.8 444.4 446.2 445.9 444.5 442 439.8 437.6 435.2 432.8 429.6 427.1 425.5 424 421.2 418.8 416.1 413.3 411.2 412.5 410.5 415.9 416.9 415.8 414.4 413.5 412.2 409.4 405.4 399.1 390.7 382.5 370.7 360.4 357.4 354.4 351.3 349.9 347.1 354.4 359.5 368.3 380.2 390.3 400.6 407.6 411.2 415.6 419.3 420.1 421.2 421.8 422.3 422.2 421 419.5 417.9 415.3 412.3 409.9 406.1 401.5 397.3 392.7 388.8 384.3 379 374.8 370.1 365.5 360.2 348.5 346.6 343 340.2 325.5 333.4 347 359.1 369.7 379.8 387.6 395.8 403.2 408.8 411.2 413.1 412.8 413 413.4 413.5 415.3 418.1 420.2 420.8 421 421.2 420.5 419.6 418.7 416.5 412.5 407.2 401.2 394.1 386.5 379.3 371.2 358.8 343.6 327.8 317.6 307.3 301.8 301.4 301 300.6 299.7 301.3 304.9 307.9 309.9 308.7
371.2 377.3 381.4 387.1 390.8 393.4 397.6 400.1 397.2 382.7 393 401.8 420.5 433.1 440.2 445.5 448.9 451.8 453.6 454.3 452.8 448.9 442.4 437 432.9 428.4 424.5 420.4 417.5 414.4 411.1 406.9 404.4 403.2 402.9 399.2 401.3 404 404.5 401.7 403 405.4 408 410.9 414.5 418.4 421.9 424.6 426 425.2 424.3 424.7 423.6 421.1 418.7 415.4 412.2 406.5 400.4 393.8 385 376.2 376.9 387.5 391.7 398.1 405.7 411.8 413.8 418.9 421.1 427.7 431.7 434.9 439 442.8 445.4 448.1 449.7 448.6 447.9 446 443.5 441.4 439.3 437.5 436.4 433.5 433.9 432.4 430 426.9 424.1 421.8 420 418.1 418.1 415.1 418 420.5 420.7 420 417.3 415.6 413.1 409.7 403.8 397.2 390.1 380.9 368.9 361.9 358.9 355.9 354 350.3 345.6 354.3 362.5 376.4 387.3 397.3 401.8 406.1 411 414.9 415.3 419.7 424.2 426.7 426.9 425.7 423.8 420.9 418 415.6 412.4 408.7 404.4 400 395.7 391.5 386.5 382.6 377.8 372.9 367.6 360.3 350.1 340.2 334.5 334.9 322.3 339.1 355.5 364.8 371.7 380.4 389.3 396.3 403.8 408.5 409.8 410.4 409.9 410.6 411.5 411.2 412.7 415.9 418.4 419.8 420.3 420.8 420.9 420.2 419.7 419 416.9 413.2 409 403.9 396.5 389 381 368.9 354.4 338.3 328.2 317.7 308.2 307.6 306.2 303.5 298.3 295.1 297.5 300.6 302.9 302.5
369.8 375.4 380.2 384.1 386.2 389.7 392.9 394.8 384.7 380.2 391.1 402.1 424.2 434.5 441.5 446.9 450.2 453.2 454.2 453.5 450.3 445 439.8 435.2 431.2 427 422.5 418.3 415.3 411.9 408.7 405.1 402.4 399.8 399.3 396.2 397.8 399.1 398.6 400.8 403.3 406.1 408.9 411.7 414.7 418.5 422.2 424.1 425.8 425.9 425.2 424.6 423.9 421.4 419 415.9 411.8 406.7 400.7 391.8 382.1 371.5 387.7 394.5 399.8 408.2 414 419.3 422.4 424.9 427.1 429.7 432.7 436.9 441.2 445.2 448.3 449.5 449.7 449.4 447.7 446 445 443.1 442.4 441.1 439.6 439 438.6 436.7 433.8 430.7 427.6 424.6 422.7 421.5 419.7 419.3 419.6 421 422.3 422.2 420.1 417.1 414.1 410.5 407.7 403.7 397 388.9 377.7 367.2 362.8 357.6 354.9 351.9 346 344.8 354.7 367 380.4 391.3 395.8 400.7 406.3 408.8 413.4 421.6 427.7 429.7 429.4 428.8 426.9 423.7 420.3 416.4 413.2 408.7 404.2 400.7 397.1 392.8 387.7 383.9 379.3 374.8 368.9 360.4 351.5 341.3 335.6 327 320.6 341.9 361 372.4 379.3 384.3 389.8 396.4 402.2 407.1 408.8 408.5 407.3 407.7 408.2 408.4 411 414 416.1 417.9 418.6 419.1 420.2 419.9 419.4 419.3 418.9 416.4 413.2 409.1 403.4 397 389.6 378.9 366.7 350.3 338.8 330 320.5 314.8 310.4 307.1 301.9 296.2 292.1 292.1 294.4 296
369.1 373.9 377.3 380.8 383.4 386.1 388 386.8 374.1 379.9 390.1 410.3 426 435.4 443.1 448.1 451.5 454 454.3 451.5 446.8 442.5 438.8 434.1 430.4 425.8 421.6 417.5 413.3 408.9 405.5 402.9 399.2 396.5 395.2 393.4 394.6 397.4 401.5 404.7 406.4 408.9 411.5 414.1 417 420.2 422.7 424.3 425.3 425.9 424.9 423.6 421.8 419.6 417.4 414.1 410 404.7 397.7 389.3 379.4 374.4 392.5 399.1 407.1 413.8 419.9 425.3 428.1 426.8 428.7 431 434.7 438.9 443 446.6 448.1 449 449.2 448.7 447.6 446.7 445.2 445.1 443.9 443.2 442.4 442.3 441.3 439.5 436.8 433.5 430.2 428.4 426.1 423.6 421.6 420.4 419.7 420 422.3 422.4 421.3 418.9 416.1 412.7 410.3 406.9 401.8 394.4 384.8 374.5 365.5 359.1 354.3 350.7 345.8 344.9 344.1 358.1 371.2 384.3 389.6 395.6 400.6 405.4 413.7 423.3 428.8 430.3 429.6 429 426.7 424.1 420.5 416.3 412.3 408.5 403.7 399.5 396 391.3 385.7 381.9 377.8 374 368.6 359.7 350.7 345 338.8 327.9 323.4 340.8 363 373.7 378.8 383.9 390.3 397 400.5 404.3 406.6 407 406.5 405.2 404.9 405.9 408.9 411.6 413.6 415.6 416.5 417 418 418.5 418.1 418.6 419.1 417.3 414.5 411.3 406.2 400.4 393 382.5 371.1 359 348.5 339.3 330.2 322.2 315.4 309.9 305.6 300.2 295.6 288.8 286.6 289.4
