ncols 200
nrows 92
xllcorner 350000
yllcorner 235150
cellsize 50
60.3 58.8 57.4 56.7 56.8 56.3 53.5 56.4 56 55.3 54 53.7 53.9 53.7 53.3 56.1 54.7 54.2 55.3 56.5 56.4 56.4 56.4 55.9 56.3 56.2 55.3 56.5 55 54.6 55 55 54.1 54.4 53.4 54 52 54.4 52.8 51.9 51.3 51.2 48.8 53.1 57.9 61.3 63 67.2 72.5 79.7 82.8 83.1 82.6 76.8 77.4 76.9 75.6 72.8 72.2 70.7 69.2 68 67.3 67 66.9 65.4 64.2 63.6 65.1 65.2 65 64.9 64.2 63.2 61.7 58.4 54.7 51.5 49.9 49.5 49.1 48.7 48.4 48.3 48.2 48.1 48 47.9 47.7 46.8 46.8 46.8 46.9 46.9 47 47 46.2 46.3 46.5 46.9 46.4 45.5 46.1 46.3 46.6 46.5 46.8 47.3 47.4 47 47.5 47.8 48.2 48.5 48.9 49.3 49.6 50.4 51.5 53 53.5 54 54.4 55.6 58.4 61.2 60.7 59.6 58.5 57.4 54.9 53.1 51.8 51.4 50.4 49.2 48.3 47.9 47.6 47.9 47.9 48.5 48.2 47.5 47.5 48.3 49 50.6 52.4 53.8 54.7 55.4 58.1 60 63.2 66.6 68.5 69.6 71.2 73.4 74.7 76.1 76.7 76.8 78.7 80.8 83.9 85.1 87.2 88.8 90.9 95 106.4 120.4 109.9 120.5 136 145.5 155.3 163.7 167.8 170.2 166 166.4 176.7 184.8 167.1 151.7 137 136.6 144.3 157.2 157.2 164.5 172.1 180.4 188.3 191.3 195.2 197.9
61.2 59.4 59.1 55.8 55.3 55.3 54.5 54.9 52.6 50.3 49.7 50.7 51.3 51.8 55.2 52.5 52.3 52 52.4 53.9 54.9 55.2 53.5 55 53.3 53.7 53.6 55.3 55.4 54.8 53.9 54 55 54.7 53.7 53.2 54.5 54.4 54.3 52.4 51.6 51.8 50.7 52.2 58.8 62.6 65 69.2 74.7 82.6 83.5 82.9 82.1 77 76.8 74.9 72.9 71.8 71 69.7 68.2 66.8 66.1 66.1 66.1 64.7 64.1 63.4 63.3 63.9 62.2 63.1 62.5 62 59.8 57.4 55.2 52.2 50.4 49.7 49.4 49 48.6 48.2 48.1 48.1 48 47.9 47.2 46.9 46.8 46.9 47 47.1 47.2 47.2 45.9 46.2 46.8 47 46.6 46.4 46.3 46.2 46.3 47.3 46.9 45.4 47.1 46.5 46.7 47.1 47.5 47.8 48.3 48.7 48.4 48.3 49.2 50.1 50.7 51.5 52.5 53.7 56.6 60 59.5 58.5 56.4 55.3 52.9 52 50.7 50.3 49.6 48.4 47.5 47.5 47 48.2 47.4 48.9 48.2 47.4 48.5 49.3 49.6 50.8 53 54.6 56.2 57.6 59 60.6 62.4 64.5 66.9 69.4 72.3 75.2 76.9 78.3 79.6 81.4 84 89.5 93.3 94.3 94.6 93.9 94.7 101 115 125.2 122.1 117.8 135.3 152.9 164.2 170.7 175.3 177.5 177.5 176.6 186.2 184.1 169.6 154.6 152.7 151.9 155.9 163.3 158.2 164.3 171.2 179.6 189.9 197.6 201.5 203
62.9 60.1 57.9 55 53.4 52.4 50.7 50 49.9 49.7 49.6 50.1 50.8 51.3 57.2 51.4 46 47 46.4 46.5 48.1 51.3 52.7 54.7 56.3 55.4 58.4 56 54.9 55.3 54.6 54.1 53.7 54.4 54.4 54.4 54.4 54.5 54.4 52.9 51.9 51.4 50.8 53.3 58 62 65.2 69 77.5 82.7 83.4 82.7 81.6 78.4 76.9 74.5 71.9 70.8 69.7 68.6 66.6 66.1 65.5 65.4 65.3 64.6 64 64.5 63.4 63 60.8 61 60.8 60.6 60.4 58.7 56 52.4 50.6 50.1 49.6 49.2 48.8 48.5 48.1 48 47.9 47.6 47.2 47 46.9 46.9 47 47.1 47.2 47.3 46.7 46 46.4 46.1 46.8 46.6 46.4 46.3 46.3 46.8 46.8 46.7 46.8 46.7 46.5 46.5 46.8 47 47.6 48 47.8 47.4 47.2 48.2 49.6 50.1 50.7 51.8 55.6 58.5 57.6 55.5 54 53.2 51.7 50.7 49.6 49.3 48.7 47.7 46.8 46.7 47.7 48.2 48.7 47.9 47.4 47.6 48.5 49.5 49.9 50.5 51.9 53.9 56 57.8 59.5 60.7 62.3 64.6 67 69.6 74.3 75.9 77.7 80.5 82.8 84.6 92.7 99 102.5 103.4 103.5 104.5 102 106.4 118.9 129.4 128.8 120.6 132.4 148.3 167.3 177.1 182 183.4 183.5 183.3 184 180.8 173.4 171.9 169.1 158.1 163.3 162.8 161.8 165.1 171.1 178.3 185.9 190.9 194.4 198
62.4 57.8 53.1 52 51.2 52.7 50.1 50.1 50.1 50 49.8 50.5 51.2 51.5 51.5 47.5 46.3 46.5 50.6 50.6 47.3 46.9 47.5 55.3 55.5 55.4 56.1 54.9 55 55.2 55.3 55 54.6 53.9 53.9 54.4 54.6 54.7 54.5 54.3 52.7 51.8 51.4 51 56.8 60 63.6 69.6 77.9 82.4 83.4 82.8 81.1 79.2 76.6 73.9 71.2 70.1 68.6 67.9 66.8 65.5 64.8 64.8 64.9 64.8 64.7 64.2 63.6 63.1 62.4 60.8 59.6 58.3 57.2 57.2 54.4 52.7 51.2 50.7 50.3 49.9 49.3 48.7 48.4 48 47.9 47.6 47.3 47.1 46.9 47 47.1 47.2 47.3 47.3 46.9 46.3 46 45.7 46.8 46.7 46.5 46.4 46.5 46.5 46.7 46.7 45.7 45.8 46.5 46.5 46.4 46.2 46.7 47.4 47 46.4 46.5 46.7 48.4 49 49.6 50.1 51.5 53.5 53.5 52.6 52.2 51.3 50.4 49.5 48.5 48.2 47.9 47.5 47.1 47.4 47.3 47.2 47.6 47.3 47.5 47.8 48.5 49.5 50 50.9 52.4 54 55.4 56.4 58.4 60 62.3 64.7 67.1 70 73.2 76.6 80.6 83.6 84.4 88.8 99.4 106.7 111.8 113 114.6 115.2 107.7 118.3 124.6 135 138.2 127.1 131.2 147.5 165.2 178.3 185.6 188.7 188 185.8 184.9 182.8 178.6 175.9 171.6 167.7 164.1 163.3 160.5 163.2 168.4 174.9 179.4 181.4 183.7 185.6
57.4 51.2 50.5 50.1 51 52.8 50.3 50.2 50.2 50.2 50.4 50.7 50.7 47.7 47.8 52.2 51.6 51.8 51.2 50.4 50.8 50.5 47.3 47.2 55.5 55.5 57.8 55.1 55.3 55.5 55.2 54.8 54.3 53.9 53.8 53.4 53.6 54.7 54.4 53.8 52.1 52.5 51.6 48.8 55.1 58.7 63.4 69.4 78 82.1 82.9 82.7 79.3 76.4 74 71.4 69.8 68.3 67.4 66.9 66.1 64.9 64.6 64.7 64.7 64.9 64.9 64.7 64.5 63.9 62.8 62.8 61.9 60.4 58.6 56.3 54.6 54 52.7 52.1 51.2 50.7 50.5 49.7 49 48.2 48.2 47.6 47.4 47.2 47 47 47.1 47.2 47.3 47.4 47.1 45.9 45.7 45.4 46 46.8 46.6 46.6 46.7 46.6 47.4 45.4 46.6 45.3 46.3 45.6 45.3 46.2 45.9 46.7 46 45.7 45.9 46.1 46.3 47.1 48.6 49.1 49.3 49.8 50.6 50.5 50.2 49.7 48.8 47.9 47.8 47.5 47.6 47.8 46.7 47.7 47.7 47.7 47.1 47.3 47.7 47.9 48.5 49.4 50.2 51.4 52.9 54.4 56 56.9 59 60 62.3 64.7 67.3 70.5 74.1 77.7 86 87.8 89.2 91.3 104.3 114.1 120.7 124.2 127.3 128.1 116.2 123.3 133.4 141.2 145.1 133.9 130.3 146.8 161.5 178.8 187.1 189.5 188.1 184.5 181.6 178.3 175.9 172.4 168.6 165.5 161.7 159.1 156.1 157.6 162.6 166.5 169.7 172.4 175 176.4
51.1 50.2 50.1 50.1 50.1 54.7 50.5 50.4 50.4 50.5 50.2 47.3 47.3 49.4 52.2 52.3 51.1 50.9 50.5 50.2 50.7 50.5 50.2 48.7 47.3 56.8 54.8 55.4 55.6 55.6 55.1 55 54.3 54.8 53.8 53.2 53.2 53.3 53.9 52.7 54.8 52.2 50.1 48.5 52.5 58.2 62.6 67.8 74.9 81.4 81.8 79.9 77.7 75.5 73.3 71 69.3 68 67 65.9 66 65.7 64.9 64.6 65.2 65.2 65 64.8 64.7 64.6 64.2 63.6 62.6 62.1 61.6 59.2 57.7 56.3 54.9 56 55 53.8 53.5 52.9 51.2 50.5 49.4 48.3 47.5 47.3 47 47.1 47.2 47.2 47.3 47.4 46.2 45.9 46.2 46.5 46.8 46.8 46.6 47.8 46 46 46.1 46.7 45.3 46.2 46.3 46.2 45.1 46.4 45.9 46.1 45.6 45.4 45.6 45.8 45.9 46.5 47.3 47.7 47.8 48.1 48.5 48.9 48.2 47.5 47.3 47.4 47.9 46.9 47.4 46.3 47.4 47.3 47.2 47.5 47.4 47.5 48 48.4 48.9 49.7 50.5 52 53.4 54.9 56.4 57.7 59.6 60.6 62.4 65 67.9 71.1 75 80.4 90.6 100.2 93.7 92.7 98.7 114.9 126.7 132 136.6 136.1 125.5 129.9 141.5 148.1 150.2 139.3 133.2 145.7 162.9 181.9 188.9 190.1 188.5 181.1 173.1 174.2 170.9 167.9 163 158.9 155.9 153.4 148.3 148.1 152.2 157.1 159.6 163.4 166.4 166.3
50.2 50.2 50.3 50.3 50.4 51.9 50.1 49.9 48.1 47.5 47.7 51 50.8 50.8 50.4 52.4 51.2 51.1 50.3 50.1 50.7 50.5 50.2 49.9 48.5 46.5 53.3 55.4 55.9 55.7 55 55.1 55 54.5 53.9 52.9 53.3 53.7 53.4 52.8 53.3 52.1 50.4 49.4 50.5 55.9 60.7 65.8 71.8 75.1 79.4 78 76.2 74.6 72 69.5 68.9 67.5 65.8 65.7 66 65.7 65.3 65.6 65.5 65.3 65.1 64.9 64.8 64.4 64.1 63.8 62.9 62.4 62.1 61.1 59.6 58.2 56.6 57.9 59.3 59.1 61.1 59.7 55.1 52.7 50.6 49.5 48.5 47.4 47.1 47.1 47.2 47.3 47.3 47.3 45.5 45.4 46.4 46.7 46.8 46.6 46.6 46.5 46.2 46.3 46.4 46.5 46.2 45.5 46.5 46.5 46.3 46.6 46.2 45.7 45 45.1 45.5 45.7 45.8 46.1 46.8 47.7 47.6 47.4 47.2 47.3 47 46.9 46.9 47 47.7 47.1 46.5 47.4 47.4 47.2 47 46.8 47.5 48.2 49.1 49.7 50.2 50.9 52 53.2 54.4 55.7 57.1 59.7 61 61.8 63.2 65.3 68.5 71.7 76.5 84 95.9 110.7 104.9 96.2 99.6 111.6 129.9 140.2 144.1 143 134.6 137.9 147.8 154.9 157.4 142.7 137.9 148.5 163.3 183.4 194 195.6 192.1 175.7 162.2 155.2 159.1 155.5 150.8 146.3 143.1 142.8 140.3 138 141.1 146.4 151.7 155.7 158.2 159
50.4 50.5 50.5 50.6 50.8 47.2 47.2 47.2 48.5 51.4 51.6 52 51.1 50.3 50.3 51.8 51.2 50.7 50.5 51.4 50.5 50.5 50.4 50.3 50.2 46.8 51.1 54.4 55.2 55.7 55 55.3 54.8 54.3 54 53.3 53.3 53.8 52.5 52.1 53.6 49.8 50.1 49.8 48.3 55.2 60.4 62.4 69.8 76.8 77.7 75.7 73.6 72.4 70.4 68.5 67.4 66.2 65 65.5 65.9 65.3 64.9 64.8 64.8 64.9 65.2 65 64.6 64.2 63.9 63.7 63.2 62.9 62.6 61.9 61.4 59.4 57.3 58.4 60.5 65.2 67 65.4 60.8 57.6 54.7 51.6 50.4 49.1 47.8 47.2 47.3 47.3 47.2 46.9 46.3 46.2 46.5 46.7 46.8 46.4 46.4 46.5 46.4 46.5 46.6 46.6 46.5 45.8 46.3 46.3 46.2 46.5 45.8 45.2 45.2 45.4 45.1 45.8 45.7 45.7 47 47.8 47.6 47.4 47.2 46.8 46.7 46.7 46.7 46.7 47 46.9 47 47 47.1 47.1 47 46.8 46.9 47.7 48.9 49.3 49.8 51.1 53.5 54.6 55.8 56.9 58.1 61.2 63.2 64.4 65.7 67.4 70.3 74.1 77.8 84.8 101.9 116.5 110.6 100.2 101.6 110.8 127.8 145.6 151 151.5 145.1 144.3 155.2 161.7 162.8 147.4 142.3 152.2 165.6 181.6 198.4 199.6 194.9 174.7 158.8 148.3 143 140.9 136.3 132.9 130.9 130.8 128.6 129.4 137.8 142.6 147 151.8 157.6 153.1
50.2 50.3 47.6 47.5 48.1 50.7 50.3 50.7 51.4 51.2 51.2 51.5 50.9 50.8 51.2 51.8 51.8 51.5 51.1 50.1 50.1 50.1 50.3 50.4 50.4 49.2 46.9 54.5 55.2 55.2 54.4 54.3 54.6 54.1 53.8 53.9 53.2 52 52.1 52.4 52.7 52.3 51.1 50.1 47.9 53.1 56.3 63.8 67.9 70.3 75.3 74 72 71.4 69.3 67.8 66.4 64.9 64.8 65.2 65.7 65.6 63.6 63.4 63.5 63.6 63.8 64.7 64.4 64 63.7 63.5 63.1 62.2 61.9 62.1 61.3 60 58.4 59 60.3 65.9 67.4 67.2 65 61.9 58.2 55.5 52.6 51.3 48.7 47.7 47.5 47.4 46.8 46.4 46.4 46.2 46.5 46.7 46.6 46.2 46.5 46.5 46.6 46.7 46.7 46.7 46.6 46.1 46.2 45.9 46.5 44.7 45.6 45.7 45.2 45.1 45.2 45.3 45.5 45.9 47.3 47.8 47.7 47.4 47 46.6 46.5 46.5 46.5 47.2 46.6 46.7 46.7 46.7 46.7 46.8 46.8 46.7 46.6 47.9 48.5 49.5 50.6 51.8 53.8 55.3 56.4 57.5 59.7 62.6 64.1 66.7 68 70.1 72.9 76.1 80.4 88.5 108.5 122.5 113.6 103.4 105.2 113.9 127.2 146.5 157.2 159.7 155.4 151 162.1 168.6 166.7 150.5 146.9 155.9 167.7 180.2 195.7 203.8 185 168 156.3 143.9 134.7 130 126.8 124.3 122.7 122.5 125.5 131.1 137.5 143.6 148.5 155.2 158.9 149.9
47.1 47.2 47.7 50.5 57.1 50.9 51.2 51.3 51.6 51 50.9 50.9 50.9 51.2 51.5 50.7 50.8 51.2 51.5 50.8 49.9 50 50.2 50.4 50.6 50.2 46.4 53.4 54.7 54.7 54.3 54.3 54.2 53.4 52.2 50.8 51 51.4 51.6 51.9 52 51.7 53 51.2 48.6 52.4 57.2 64.8 67 69.8 71.5 71.2 70 69.6 68 66.6 65.4 64.4 64.5 65.1 65.3 64.3 62.7 61 61.1 61.3 61.6 62.8 64 63.8 63.6 63.3 62.7 62 60.5 61 60.6 59.5 58.6 57.9 60.7 65.1 68 68.2 67.2 65.5 62.5 60.6 56.5 52.3 50.3 49 48.3 47.7 47.3 46.7 46.1 46.7 46.5 46.8 46.5 46 46.5 46.7 46.8 46.7 46.7 46.7 46.6 46.3 46.1 45.6 45.6 46.4 46.1 45.9 45.5 45.3 45.4 45.5 45.5 45.5 46.7 47.5 47.6 47.2 46.7 46.3 46.3 46.3 46.4 46.9 46.4 46.5 46.7 46.6 46.5 46.5 46.5 46.5 46.6 48.1 49.3 50.3 51.4 52.5 53.8 55.6 57 58.2 59.8 62.9 63.6 67.1 70.2 72.2 76.3 79.3 83.9 96.7 113.4 120.1 114.3 107.4 109.4 118.8 131.2 145.9 162.4 166.9 165.5 160.8 170 175.1 170.8 153.6 149.4 158 169.8 181.4 192.3 195.8 178.3 163 150.9 143.1 135.7 128.6 123.1 120.7 118.7 121.1 129.9 135.9 141.7 145.4 152 159.2 159.8 150.7
52.1 53.9 53.2 53.3 56 54.3 53.7 53.4 52.4 52.4 51.3 51.4 51.1 51.4 51.1 50.5 50.4 49.6 52 49.7 49.9 50.1 50.2 50.5 50.6 50.4 46.3 51.9 54.1 54.4 53.1 52.8 51.9 51.5 50.5 50.4 50.9 51 51.2 51.3 51.2 51.1 50.8 48 44.4 50.3 57.5 63.6 66.7 68.8 69.1 68.3 68 67.5 67 66.2 65.4 63.9 63.5 63.4 62.8 62.3 60.9 59.2 58.9 59.1 59.7 61 62.2 62.4 60.8 60.8 60.5 59.4 59.1 59 59 58.1 57 57.5 60.6 65.5 67.7 67.6 67.6 66.6 64.8 63.6 60.5 56.6 54.4 53.3 52.2 49.7 48.1 47.3 46.6 46.4 46.6 46.8 46.3 45.9 46.6 46.8 46.8 46.8 46.7 46.7 46.6 46.5 46 45.9 46 46.6 46.3 46.1 45.6 45.6 45.6 45.7 45.6 45.5 46.1 46.7 47 46.8 46.4 46.1 46.1 46.5 45.7 47 46.2 46.4 46.5 46.7 46.6 46.5 46.4 46.3 46.8 48.1 49.4 50.7 52 53.3 53.7 55.5 57.3 59.3 61.5 62.9 65.8 68 70.4 73.5 77.7 81.8 86.1 103.4 119.2 131.1 119.7 110.7 114.1 122.9 132.4 147 161.5 172.5 173.7 172.4 176.1 180.6 178.3 158.8 152.7 160.4 170.9 181.5 190.3 188.5 172.5 159.5 148.3 140.6 134 128.3 122.5 118.2 115.4 122.1 133.7 142.2 147.9 153.5 158 163.9 158.2 148.7
55.8 55.2 54.5 54.8 54.7 53.8 54.1 54.4 54.6 54.3 53.9 52.5 52.3 51 50.3 50.4 50.4 50 49.8 49.8 50.4 50.9 50.6 50.4 50.2 50 46.1 51.1 51.2 50.8 50.3 50.2 50.6 50.5 50.2 49.8 50.2 50.5 50.6 50.5 50.4 50.3 44.4 46.9 48.7 47.9 44.6 50.9 61.3 63.7 65.7 65.6 66 65.8 65.5 65 65.5 63.5 59.1 61.1 61.4 60.4 58.6 57.2 57.1 56.9 57.8 58.8 59.2 59.7 59.7 58.4 58.4 58 57.4 56.6 56 55.5 55.5 56.2 58.4 62.5 65 66.6 66.6 66.1 64.5 62.7 61.4 59 57.3 56.9 56.6 53.4 50.2 48.3 47 46 46.4 46.7 46.2 45.9 46.6 46.8 46.8 46.8 46.7 46.7 46.6 46.6 45.8 45.7 46.1 46.1 46.5 46.3 45.8 45.8 45.8 45.7 45.6 45.5 46 46.7 46.5 46.3 46 46.2 45.6 46.7 47.4 47.1 46.9 46.2 46.3 46.5 46.6 46.5 46.4 46.2 46.5 48 49.3 50.6 51.8 53.1 53.7 55.5 57.7 59.7 62 64.6 65.8 68 70.3 73.8 77.9 82.8 91.2 110.4 123.9 133.8 122.2 115 121.6 129.5 133.3 147.3 160.6 172.4 178.8 180.5 183.2 185.6 182.3 164 157.2 164.1 174.1 183.5 190.4 181.9 168.7 156 145 137.5 130.7 126.2 120.6 116.7 113.7 121 133.9 146.5 156.3 160.4 164.3 165.7 155.9 146
55.4 54.9 54.8 55.1 54.2 54.5 55 55 54.6 54.9 54.4 53.2 52.8 51.6 52 50.4 50.6 50.5 50.2 50.6 50.6 50.4 50.2 50 49.8 49.6 45.7 50.5 50.4 49.8 49.7 49.6 49.3 49.3 49.3 49.5 49.5 49.3 49 48.8 48.6 46.1 47.6 48.6 50.5 48.8 49.3 46.4 45 48.9 51.6 49.6 50.6 49.5 50.5 54.1 56.7 59.2 57.9 53.8 57.5 57.4 56 55.5 55.6 55.2 55.5 55.8 56.1 56.3 56.2 55.8 55.8 55.6 55.4 55 54.1 54.2 54.4 54.9 56.1 58.3 60.4 62 62.7 62 62.1 60.9 60.2 59.9 58.3 58.1 58 56.8 53.4 51 48.2 46.2 46.6 46.5 46 46 46.6 46.8 46.8 46.8 46.7 46.7 46.6 46.5 46.4 46.1 45 44.6 46.8 46.5 46 46 45.9 45.7 45.6 45.5 46.3 46.5 46.2 46.7 46.4 46.1 47.7 47.2 47.2 47 46.7 46.6 46.2 46.3 46.6 46.5 46.4 46.3 46.6 47.8 49.1 50.4 51.7 52.8 53.7 55.8 58.3 60 62.4 65.5 68.6 69.3 71.6 75 78.5 83.6 94.3 114.3 127.3 136 129.3 121.4 122.1 127.4 133.3 145.2 156.8 168.6 181.8 185 188.3 190.3 187.3 170.6 162.1 169.6 177.4 184 188.4 178.1 164.5 149.9 141.5 135 127.5 124.2 122.2 120.9 113.9 115.9 129.7 143.8 157.2 158.3 163.4 164.5 154.6 142.1
54.7 54.6 54.7 55.2 54.8 54.6 55.6 54.7 54.4 54.6 54.2 52.8 52.8 54 52.6 52.8 53.7 52.4 52 49.6 50.5 50.2 49.9 49.6 49.3 49.2 46.3 50.3 49.9 49.8 49.7 49.7 49.2 49.1 49.1 49 49.1 49 48.6 48.6 48.6 45.5 48.2 49.8 50.3 48.4 48.3 49 48.8 45.9 45.4 45.2 45.7 46 45.9 46.3 46.3 45.9 45.3 48.2 47.4 50.4 52.5 53.6 53.8 52.1 53.4 53.9 54.7 54.6 54.4 53.3 53.1 53 53 53 53.1 52.5 53 53.6 54.4 55.2 56.5 57.4 57.9 58.9 59.1 59.1 59 58.9 58.8 58.6 58.4 57.8 56.3 51.8 48.5 46.4 46.3 46.3 45.9 46.1 46.6 46.8 46.8 46.8 46.7 46.6 46.5 46.4 46.2 46 45.9 46.2 45.8 45.9 46.4 46 45.9 45.8 45.6 45.6 46.3 46.6 46.3 46.1 46 46.1 46.4 47.5 47 47 46.6 46.4 46.3 46.1 46.3 46.6 46.1 46.4 46.7 47.3 49 50.3 51.6 52.6 53.8 56.4 58.9 60.3 63.6 67.8 72 73.2 73.8 76.7 80 85.5 100 116.6 130.2 139.1 135.6 129.5 129.4 131 132.6 140.9 152.1 164.1 179.5 190.3 194 195.5 192.3 180.7 168.9 174.2 180.3 185.4 181.1 171.9 157.3 145.5 137.5 131 124.5 120.9 123.2 122 113.6 109.9 122.7 137.8 152 157.3 156.8 156.6 146.7 135.7
55.6 54.9 55 57.7 54.1 54 54.1 54.1 54.4 55 53.3 54.1 54.5 53.6 52.2 54.2 54.4 54 53.6 51.9 49.8 50.1 49.8 49.5 49.8 50.2 46.9 50.1 50 49.9 49.8 49.7 49 49 48.9 49 49.1 49.1 49 48.5 50.2 45.4 49.2 48.9 48.8 50.7 48.4 48.5 48.3 48.4 48.9 48.6 48.4 48 47.8 45.9 47.7 47.3 48.4 47.1 46.2 45.3 45.4 46.9 48.3 49.3 51.8 52.5 53 52.8 53 51.3 51.3 51.2 51.6 51.8 51.7 52 52.2 52.3 51.7 52.6 53.5 54.3 54.4 55 55.9 56.7 57.5 57.7 57.8 58.3 57.9 57.8 56.3 51.1 47.3 46.5 46.1 46.1 45.8 46.2 46.6 46.9 46.8 46.7 46.6 46.5 46.3 46.2 46 45.8 45.8 46.6 45.7 46.4 45 46.1 46 45.8 45.7 45.7 46.3 46.6 46.7 46.5 45.8 45.9 46.1 46.4 47.4 47 46.7 46.3 46.1 46.1 46 46.6 46.1 46.5 46.8 47.1 48.6 50.1 51.4 52.5 54.2 55.9 59.9 62.8 66 72 74.3 76.4 76.5 78.6 82.3 89.1 102.9 118.3 133.2 142.5 149.8 142.5 144.4 143 137.7 139.2 147.8 160.5 175.4 189.8 198.3 200.8 198.2 191.2 177.9 179.4 180.7 178 171.3 162.6 149.1 137.2 131.4 127 121.1 115.3 116.6 113.2 108.5 107.7 116 129.7 144.4 157.6 159.3 154.2 142.1 132.4
56.5 55 55.3 59.9 57.1 54.1 54 53.7 53.5 53.5 54.5 54.8 54.3 53.3 53.6 54.8 54.7 54.6 54.2 53.4 52.8 50.3 49.9 50.3 49.9 50.1 46.8 50 50.1 50 49.9 49.8 48.9 48.8 48.9 49 49.1 49.1 49.2 49.5 51.4 45.7 49.4 48.7 48.6 49.1 48.5 48 48.1 48.9 48.8 49.1 48.8 48.8 48.7 48.7 48.8 48.7 48.6 48.4 48.5 48.2 48.5 46.5 44.9 44.8 45.6 48.4 49 50.8 50.5 49.6 49.5 50.2 50.5 50.4 50.3 50.4 50.4 49.8 49.5 48.3 49.1 48.7 49.7 51.1 52.2 53.7 55.1 56 56.7 57.7 57.4 55 50.2 47.6 46.1 46.8 46.5 46.1 45.8 46.3 46.7 46.8 46.7 46.6 46.4 46.3 46.2 46 46 46 45.8 45.8 46.2 46.2 46.1 45 46.1 46 46 46 46 46.8 46.9 45.8 45.9 46 46.1 46.2 46.4 47 46.7 46.3 45.9 46.1 46.7 46.5 46.1 46.4 46.9 47.2 48.2 49.9 51.2 52.9 54.7 56.7 61.3 65.2 68.8 73.9 83.2 79.4 78.1 81.1 85.4 92 106.1 120 134.1 147.8 157.4 159.8 161.3 157.8 148.4 144.1 147.7 157.7 174.7 189.8 200.8 205.3 202.8 198 186.2 181.5 172.5 164.1 152.1 143.2 135.8 131.4 125.8 120.6 117.4 112.6 108.6 106.7 103.6 106.5 113.8 121.2 137.7 146 143.5 139.3 131.3 123.4
56.3 55.3 55.4 58.1 55.7 55.1 54.1 53.5 53.4 53.4 53.9 54.2 54.4 52.9 54.4 54.4 54.8 54.8 54.7 54.3 53.6 53.1 52.7 51.2 51.4 52.5 47.5 47.7 50.1 50.1 50 49.9 48.7 48.8 48.9 49 49.1 49.2 49.1 49 50.3 48.4 45.4 49.3 49 48.8 51.6 50.3 50.4 50.2 50.2 50.1 49.6 49.5 48.9 48.7 48.7 48.6 48.5 48.5 48.5 48.6 48.4 48.1 48.4 48.4 45.9 45 45.4 48 48.3 48.3 48.8 49.3 49.2 49.3 49.5 49.4 49 48.5 48.9 48.5 48.5 48.8 48.1 47.9 47.5 49.1 49.3 50.9 53 51.1 48.5 46.9 47.1 47.7 47.4 47 46.7 46.4 46.1 45.9 46.4 46.8 46 45.9 45.7 46 46.1 47.8 46.1 46 45.8 46.3 46.8 45.7 45.7 44.3 46.1 45.9 46.6 46.6 45.6 46.5 46.3 46 46 46.1 46.2 46.3 46.4 46.5 46.7 46.4 46.2 46 45.9 46.3 46.3 46.2 46.7 47.2 47.7 49.2 49.9 53.1 54.5 57.7 62.5 66.4 70.6 79.8 91.6 84.7 80.8 83.1 87.5 95.6 107.3 120.2 132.8 144.9 154.4 164 175.9 175.9 163.4 154.6 151.6 160.5 179.2 190 205.1 209.5 205.1 194.6 181.3 172.5 162 150.3 138.9 133.2 130.1 124 119.5 117.1 113.8 110.6 107 103.3 102 105.8 109.2 114.3 125.8 127.1 124.4 124.8 119.4 113.2
57.2 56.5 57.9 57.4 57.2 55.9 54.2 55.2 54.6 54 54.2 53.9 54.4 53.4 53.7 53.9 54.7 54.7 54.5 54.2 54 53.1 52.5 53 51.9 51.2 50.5 47 49.9 49.9 49.9 50 48.8 48.8 48.9 49 49.1 49.2 48.1 51.2 51.2 51.4 47.1 45.6 48.4 50.1 51.3 51.6 51.3 50.6 50.5 50.4 50.2 50.2 50.4 50.1 49.8 49.3 48.7 48.6 48.6 48.6 48.3 48.2 48.2 48.5 48.5 48.5 47.3 45.6 47.1 48.3 48.1 48.4 48.7 48.9 49.2 48.9 48.6 48.6 49.1 49.3 48.7 48.2 48.5 48 47.6 47.3 47.2 47.5 47.8 47 46.2 46.4 46.6 46.8 47 47.1 47 46.8 46.6 46.6 46.2 45.6 46.3 46.5 46.2 46.1 46.2 46.6 46.5 46.3 45.9 46.3 46.6 45.9 45.3 46.5 46 45.6 45.9 46.5 46.7 45.8 46 46.1 46.1 46.2 46.3 46.4 46.4 46.5 46.5 46.6 46.5 46.4 46.2 45.9 46.7 46.1 46.5 47 47.9 49.7 51.5 53.6 55 58.4 63.1 67.6 72.3 84.3 96.1 98.5 84.4 85.6 90.1 97.9 108.6 120.8 132.9 141.6 151.7 164 176.8 189.2 176.1 165.7 157.8 165.5 176.7 192.9 210.3 210.3 206.6 189.5 174 160.1 151.9 140.7 132.4 128 124.9 119.9 115.3 114.3 111.4 107 103.5 100.7 97.3 101.4 104.2 106.4 110.4 108.1 109.7 111.7 114.9 123.6
56.8 57.1 60.3 60.1 57.4 56.4 56.2 55.9 55.1 55.1 54.8 54.1 54.3 53.2 53.4 53.8 54.4 54.6 54.6 54.3 54.1 53.2 52.9 52.9 53.1 52.8 51.7 49.2 47.7 50 50.1 49.9 49.1 48.9 48.9 49 49.1 49.2 49.1 51.6 51.6 51.6 50.1 46.4 46 50.9 51.8 52.2 51 50.3 50 49.9 49.8 49.8 50.1 50.1 50.6 50.5 50 49.5 48.9 48.6 48.4 48.3 48.2 48.5 48.5 48.6 48.5 48.3 47 44.9 48.3 48.3 48.4 48.6 48.9 48.8 48.8 48.7 48.4 48.6 48.7 48.9 48.6 48 47.6 47.5 47.4 47.3 47 46.6 46.2 46.3 46.4 46.6 46.8 47 46.9 46.8 46.7 46.6 45.7 47.6 49.4 47.7 46.6 46.7 47.6 46.6 46.5 45.7 45.4 45.8 46.2 44.9 45.6 45.4 46 45.5 45.4 46.3 46.3 45.8 46 45.8 45.9 46 46 46.1 46.2 46.2 46.3 46.3 46.3 46.3 46.3 46.1 46 46.8 46.6 47.3 48.6 50.2 51.9 54.3 56.4 59.6 64.3 68.8 74 87.3 100.6 103.2 91.8 90.1 92.6 101.3 110.2 119.6 131.2 137.4 149.1 163.1 173.6 187 187.9 178.4 170.3 170.5 183.3 198.2 209.6 206.1 199.3 183.7 168.2 154 140.6 134.5 130.2 124.8 120.1 115.6 115.4 111.8 108.6 103 99.7 97 95.8 96.3 98 100.9 104.7 107.1 112.8 118.4 127.5 136.7
57.4 58 61.6 59.7 61.9 60.5 58.6 57.1 56 55.4 55.6 54.7 54.1 53.3 53.7 54 53.9 54.1 54.3 54.4 54.2 53.5 53.5 53.6 53.6 53.7 53.3 51.7 47.2 49.6 50.1 49.7 49.3 49.1 48.9 49 49.1 49.6 50.2 51.3 51 50.7 50.7 50.8 48.3 46.8 51.7 51.7 51 50 49.6 49.5 49.4 49.6 49.8 49.9 50.2 50.4 50.4 50.5 50.3 50 49.6 49.1 48.6 49.4 48.5 48.6 48.4 48.7 48.1 45.6 44.6 48.3 48.7 49.1 47.9 48.9 49.1 48.8 48.5 48.2 48 48 48.2 48.1 47.7 47.6 47.4 47.2 47.3 46.7 46.2 46.3 46.3 46.4 46.6 46.8 46.7 46.6 46.7 46.2 48.3 54.4 53.9 53.4 51.1 49.1 47.7 48.3 48.6 46.4 45.2 45.8 45.7 45.9 45.8 46.7 46.3 45.8 45.4 46.5 46.4 46.7 46.1 46 45.6 45.7 45.8 45.8 45.9 46 46 46 46 46.1 46.1 46 45.9 46.5 47 47.7 49.2 50.5 51.9 54.4 56.8 60 64.3 68.9 74.3 90.1 103.3 107.2 97.8 92.4 95.3 102.8 110.4 119.8 125.8 133 141.1 156 168.3 182 194.3 190.1 184.1 180.9 190.9 205 203.1 197.4 190.3 178.2 162 149.1 134.5 128 127.5 121.3 116.1 112.1 112.9 112.4 108.9 102.4 98.5 92.1 96.2 99.1 99.8 104.1 108.1 113 120.4 127.2 136.3 149
57.9 59.6 61.7 63.3 62.5 61.9 61.2 58.6 57.4 56.1 56.2 54.8 54.3 54.4 54 53.7 53.6 53.6 53.8 54 54.2 54 54 53.8 53.6 53.4 53.3 52.9 50.2 47.8 48.5 49.8 49.6 49.4 49.2 49 49.1 50.3 51.5 50.8 50.5 50.8 50.8 50.6 51.2 47 51.5 51.7 51.4 50.5 49.7 47.8 50.6 50.2 49.8 49.8 49.3 50.1 50.1 50.1 50 50 50.3 49.6 49.9 50.1 49 48.5 48.9 49 47.9 47.8 47.3 44.7 47.9 48.7 48.6 48.7 49 49.2 48.6 48.2 48 48.1 48 48 47.7 47.5 47.3 47.2 47.3 46.7 46.3 46.3 46.4 46.4 46.5 46.6 46.7 46.8 46.9 46.4 54.9 54.4 54.2 53.3 47.8 48.8 48 47.2 46.6 46.3 45.9 45.7 46.1 46.5 45.2 45.9 46.5 46.2 45.8 46 46.1 46.3 46.2 46.3 45.9 45.5 45.5 45.6 45.6 45.7 45.7 45.8 45.6 46 46.2 45.9 46.4 46.6 47.4 48.1 49.5 50.9 52.3 54.5 57.3 62.3 67 70.9 78.4 91.6 106 110.2 104.9 96.9 99.7 104.1 108 113.9 119.8 125.7 135.9 153.9 166.9 181.1 184.2 179 184.5 186.1 190.9 201.7 199.2 191.4 182.2 171.4 154 145 131.4 124 121.7 112.8 109.1 106.5 107.4 110.2 107.8 101.9 94.6 92.9 97.4 101.8 104.9 107.6 112.9 115.7 116.9 120.7 131.2 142.7
58.4 57.7 63.7 64.1 64.8 63.3 63 60.7 58.3 57 56.5 55.4 55.7 54.2 54.1 53.5 53.5 53.3 53.2 53.4 53.6 53.7 53.5 53.3 53.2 53.1 53 52.9 52.1 47.6 49 50.1 49.8 49.7 49.5 49.3 49.1 50.9 52.6 51.9 55.4 52.6 50.7 50.4 50.5 48.3 48.6 51.5 51.7 50.6 47 47 49.6 47.2 50.3 50 49.7 49.7 50.1 50.9 50 49.9 50.2 50.6 50.5 50.4 50.1 49.8 49.8 48.6 47.9 48 47.8 46.5 44.9 48.7 49.1 48.8 49 48.4 49.3 48.5 48.8 48.5 48.3 47.8 47.9 47.5 47.3 47.2 47.3 47.4 46.4 46.4 46.4 46.5 46.5 46.6 46.9 47 46.8 46.6 54.3 54.5 54.6 53.8 51.8 49.8 48 47.5 47.2 47.1 47 46.5 45.2 45.8 45.3 44.8 43.9 44.6 44.4 46.3 46.1 46.1 46.4 46.4 46.2 45.9 45.5 45.3 45.4 45.4 45.9 46.4 45.2 45.8 46.2 46 47 47.6 47.7 48.6 50 51.3 52.8 54.7 57.7 63.1 68.1 72.3 81.7 97.3 107.5 113.1 113.7 102 104.9 112.8 123.6 121.9 127.9 136.4 145.3 156.5 167.1 174.2 167.5 162.7 168.9 174.7 178.7 186.2 191.7 188.8 179.8 158.5 143.3 134 126 120.9 118.1 111.6 105.6 102.9 103.7 105.6 102.9 94.9 90.9 94.3 99.1 103.7 105.1 106.7 109.7 110.5 110.8 116.7 124.7 134.5
58.7 60.8 63.8 65.8 66.3 66.2 64.8 62.8 60.4 57.9 56.7 56 56.5 55.8 55.2 53.8 53.4 53.2 53 52.8 53.4 53.2 53 52.9 52.8 52.8 52.7 52.2 52.1 51 47.6 50.7 50.1 49.9 49.7 49.5 49.3 49 51.3 51.7 53.5 53.3 50.6 49.8 51.2 47.7 51.2 51.1 52.2 51.3 50.7 47 47 50.1 49.5 50.1 50.2 50.2 50.5 51 50.1 49.9 50.3 50.6 51 50.7 50.4 50.1 49.3 47.9 47.6 47.4 47.2 47.3 44.6 44.3 49.1 49.2 48.8 48.3 48.5 47.5 48.6 48.6 47.6 48 48.1 47.5 47.2 47.2 47.3 47.4 46.4 46.4 46.5 46.4 46.4 46.6 47 47.2 46.7 46.2 53.9 54.2 54.1 53.6 52.9 51 48.7 48.1 47.8 47.6 47.3 47.2 47.1 46.2 45.9 45.8 45.9 45.5 45.5 46.5 45.7 45.8 46.1 46.3 46.4 46.1 45.7 45.4 45.5 45.6 45.4 45.8 46.2 45 45.6 46 46.9 47.3 48 49.4 51 52.4 53.9 55.9 59 63.5 68.3 72.4 84.2 99.5 109.2 115.5 117.4 112.6 110.9 117.2 129.4 136.2 141.3 145.6 151 157 161.7 158.4 152.4 147.3 151 155.5 161.6 169.2 174.8 176.4 170.6 149.1 134.3 126.6 120.4 114.9 112 106.9 102.6 99.5 98.5 100.1 97.2 89.9 90.3 94.1 100.2 105.1 104.6 104.4 103.8 105.3 109.5 114 120 127.9
59.2 61.2 63.6 64.7 66.9 68.1 66.6 64.8 62.5 60.4 57.4 56.6 56.7 56.5 55.9 54.6 53.8 53.6 53.4 53.2 53 52.8 52.7 52.6 52.6 52.6 52.5 51.5 51.8 52.4 52.5 47.6 49.8 50 49.7 49.6 49.7 49.2 49.4 51.9 51.9 50.1 49.7 49.5 50.6 46.7 51.3 50.7 52.2 50.9 51.2 50.5 50 51.2 50.5 52.3 50.3 50.4 50.2 50 52.1 50 50.4 50.9 50.9 50.7 50.4 50.1 49.7 47.9 47.7 47.6 47.5 48.1 48.1 44.6 46 48.6 48.9 48.6 48.5 48.4 47.9 47.5 47.8 48.2 48.3 47.7 47.2 47.3 47.4 47.5 47.3 46.3 46.3 46.3 46.4 46.7 47.1 47.1 46.8 46.5 52.5 53.6 54.7 54.3 53.8 52.6 50.3 48.4 47.8 47.5 47.4 47.3 47.2 47.1 46.4 44.7 45.2 45.2 45.6 44.6 45 45.5 45.7 46 46.2 45.9 45.7 45.4 46 45.4 45.5 45.8 46.1 45.5 46.4 46 46.7 47.6 49 49.6 51.3 53 54.7 56.7 60 64.3 67.8 71.3 85.3 100.6 109.8 117.4 120.4 120.3 119.7 129 136.2 139.2 143.2 146.5 150.8 149.1 144.6 139.2 134.8 133.7 135.1 138.1 145.3 150.1 152.8 153.9 153.8 139.4 125.9 118.7 114.5 109.9 107.1 103.2 99 96.1 95.1 94.2 92.9 88.1 90.1 93.1 97 102.2 103.6 102.3 101.2 103.6 107.2 110.2 115.2 123.1
59.8 61.1 63.9 64.5 66.6 68.6 68.9 66.5 62.9 62.3 59.2 57.6 56.9 56.7 56.2 55.4 54.3 54.1 53.9 53.6 53.4 53.3 53.2 53.1 52.9 52.7 52.5 51.6 52.7 52.8 52.8 52.7 47.4 48.1 49.9 49.8 50.1 49.7 50.8 51.9 53.5 50.4 50 51.8 48.1 47.3 51.3 51.2 50.4 49.6 50.7 50.9 50.3 50.7 53 50.1 50.2 50.3 50.2 50.2 49.7 49.6 50.7 50.7 50.8 50.7 50.4 50.2 50 48.4 48.4 48 48 47.8 47.5 48.1 45.7 44.4 48.5 48.8 48.6 48.4 47.9 47.7 47 47.7 48.5 48.4 48 47.4 47.5 47.6 47.7 47 46.1 46.1 46.4 47.3 47.3 47.2 46.8 46.3 47.3 50.3 52.6 53.5 53.8 52.4 50.4 48.5 48 47.5 47.5 47.5 47.4 47.3 46.9 46.6 44.7 45.3 44.7 45.9 45.3 45.1 45.4 45.5 46.2 45.6 45.5 45.4 44.5 45.3 45.7 45.8 46 45.3 46.5 46 47.1 48.5 49.9 50.6 51.6 53.6 55.6 57.6 59.7 63.1 66.9 72.5 86.5 101.4 110.4 118.5 121.4 122.3 122.3 133.4 141.3 142.5 140.7 140 138.2 133.4 128.7 124.9 123.3 123.3 124.2 127.3 131.1 134.5 136.2 136.6 136.1 128.7 117.1 111.1 109.3 105.3 102.3 99.1 95.8 93 92.6 90.7 88.2 86.1 88.4 91.8 95.6 100.2 101.8 100.4 98.8 100.8 104.2 107.7 111.7 117.2
61.5 63.2 63 65.6 67.5 69.6 70.5 68.8 65.5 62.2 61.1 59.5 57.5 57 56.7 56 54.9 54.6 54.4 54.1 53.9 53.7 53.6 53.6 53.5 53.1 51.8 52.7 52.7 52.8 52.8 52.8 52.8 49.5 47.4 49.6 50.3 50.1 49.7 50.1 51.3 51.1 50.5 48.4 47.4 51.5 51.1 51.2 52.4 50.7 50.1 50 50.9 50.6 52.4 50.6 50.8 50.1 49.8 49.5 50.1 49.8 50.4 50.3 50 50.6 50.4 50.2 50 48.9 48.4 48.4 48.3 47.6 47.6 47.9 47.9 48.1 44.7 44.4 48.5 48.4 48.4 47.9 47.2 47 46.9 47.9 48 47.9 47.6 47.5 47.2 46.4 46.7 46.9 47.3 47.3 47.3 47.3 46.9 46.6 46.9 47.2 49.2 49.3 50.7 50.7 49.2 47.5 47.3 47.3 47.4 47.6 47.6 47.2 46.6 46.2 46.4 46.6 44 46.3 46.2 45.6 45.4 45.2 45.7 46.4 45.6 44.7 44.7 45 45.6 46 45 45.1 45.3 45.9 47.1 48.4 49.9 51.4 52.6 54.6 56.6 58.5 60.4 64 67.3 71.9 87.6 102.1 111.5 117.3 115.1 111.1 120.8 134.3 142.7 143.2 136.2 128.5 124.6 122.5 118.1 116 115.5 115.6 116.8 118.4 121.1 124 125 125.3 122.8 115.1 108.1 103.7 100.3 99.6 97.2 95.3 93.5 91.1 88.6 87.4 85.8 85.2 87.8 89.9 93.9 99 98.9 97.9 97 98.6 101.1 105.1 107.7 111.5
61.4 62.6 63.9 67.4 68.5 70.3 71.9 70.3 67.6 65.2 61.6 59.8 58.4 57.1 56.5 56.2 55.7 55.1 54.8 54.5 54 54.1 54 53.8 53.5 52.7 51.7 53 52.9 53 53 52.6 52.6 52.3 52.5 48.5 47.1 46.4 46.7 47 46.9 46.6 46.9 46.4 51 51.8 51.5 50.8 51.7 50.1 50.7 50.3 51.2 51.8 51 50.7 50.9 50.4 50.2 50.2 51.3 49.7 50.3 50.1 49.5 50.1 49.8 50 50.1 49.8 49.5 48.7 48.6 47.6 47.6 47.6 47.7 47.6 47.9 47.3 44.5 47.2 48.7 47.9 47.6 47.4 47.1 46.8 47.3 47.6 47.2 46.9 46.6 46.5 47 46.5 47.3 47.4 47.3 47.3 47 47.1 47.4 47.4 47.6 45.7 46.8 47.5 47 47.3 46.9 47 47.4 47.7 47.5 47 46.4 45.8 45.8 45.6 45.5 46.3 44.9 45.3 45.8 45.3 45.4 45.2 44.9 46.4 45 44.9 45.4 45.8 44.7 45.6 45.4 45.3 47 48 49.6 51.1 52.8 54.6 56.6 58.6 61.2 64.2 67.4 71.3 83 92 107 111.9 100.4 104.6 121.2 134.6 142.7 141.8 130.8 119.3 114.1 112.8 110.6 108.2 108.8 109.9 111.2 113.2 114.7 116.2 117 117.8 115.9 109.1 102.7 97.9 96.3 95.6 94 92.8 91.1 89.1 86.6 85.4 83.8 83.5 88.2 88.4 90.3 93 93.3 96.2 95.8 96.6 97.9 100.8 104.9 107.4
61.3 63 66 68 70.9 72.2 73.2 70.7 68.2 66.9 63.8 61.7 60.1 57.8 57 56.4 55.9 55.3 54.7 54.4 54 54.2 53.7 53.4 53.1 52.4 52.5 53.4 53.3 53.3 52.7 51.4 51.4 51.5 51.7 51.4 51 50.6 51.5 51.3 51.4 51.2 51 51.9 51.8 51.5 51 50.7 51.1 50.3 50.1 51.1 51.4 51.6 51.2 50.7 49.5 51.7 50.4 50.4 55.9 50.4 49.8 50.2 49.9 50.2 48.5 48.7 49.3 49.9 49.7 49.5 48.2 48.7 48.4 47.6 47.5 47.6 47.8 47.8 47.9 44.4 47 48.1 47.9 47.6 47.4 46.7 47.3 47.4 46.8 47.8 48 46.8 46.8 46.6 46.7 47.4 47.4 47.3 47.3 47.3 47.2 47.1 47.3 47.8 47.1 47.2 46.7 46.9 47.6 47.9 47.8 47.6 47.5 46.9 46.3 46.6 46.5 47.2 46 46.1 45.5 43.4 45.7 45.7 45.5 45.2 45.2 44.6 46 45.6 45.3 45.5 45.7 45.6 45.5 45.4 46.7 47.5 49.1 50.8 52.4 54.1 56.1 58.3 60.8 64.1 67.1 71.2 75.8 80.4 92.2 94.3 93.1 104.7 121.3 134.9 142 139.2 127 115.5 108.9 105.9 105.2 103.2 103.6 104.8 106.1 107.2 108.5 109.7 110 110.3 110.8 105.3 96.6 93.9 91.6 91.1 90.7 89.3 88 86.5 84.5 82.7 82.9 85.4 87.1 86.9 86.9 88.3 90 92.7 95.3 97.3 96.3 98.7 101 106.3
62.8 64.4 66.8 69.7 72.1 72.4 73.7 73.4 69.7 66.7 65.7 62.6 61.4 59 58.1 57 56.1 57.3 58.1 56.6 54.8 54.1 53.3 53 52.6 52.1 53.3 53 52.4 53.6 52.8 51.5 51.6 51.6 51.5 50.8 50.5 51.3 50.9 50.5 51.3 51.7 51.8 51.9 51.9 51.8 51.4 49.4 51.2 50.6 50.5 50.5 50.5 51.5 50.8 49.2 50.4 49.9 50.6 54.1 53.4 50.2 49.2 50.3 50.3 50.3 48.8 48.9 49.2 49.5 49.8 49.3 48.2 48.4 48.4 47.9 47.9 47.5 47.6 47.6 47.9 48.2 46.2 44.4 48.2 48 47.3 46.8 47.5 47.7 47.6 47.5 46.9 48.1 48.3 47.8 47.3 46.8 47.3 47.1 46.9 46.9 46.9 46.9 47 47.3 47.8 47.9 47.9 47.8 47.8 47.6 47.3 47.6 47.4 46.7 46.2 46.7 47.3 47 46.2 45.5 46.1 45.8 43.7 43.3 43.7 45.2 45.5 45.1 44.9 45 45 44.7 45.6 45.5 45.4 45.1 46 47.1 48.8 50.5 52.1 53.8 56 58.4 61.4 64.1 68 72.4 83.5 80.4 84.2 84.1 91.6 104.6 120.3 134.8 140.7 137.5 125.6 113.8 107.1 102.6 100.1 98.6 99.2 100.1 101.1 102 102.8 104.7 106.4 103.6 102.3 99.8 91.2 88.6 87 86.4 86.6 86.1 84.9 83.7 82.5 81.3 82.7 84.8 85.3 85.6 85.6 86.6 87.9 90.3 94.6 95.1 94.9 96.8 99.3 108.3
64.5 65.5 68.2 70.1 71.4 72.2 73.9 75.1 72.9 69.7 66.2 63.8 61.8 59.9 58.2 57.2 58 58.1 58.6 58.2 56.1 54.6 53.4 53.2 53.3 52.6 53.8 53.6 53.4 53.4 52.1 51.9 50.4 50 51.2 51 50.4 50.2 50.3 50.1 50.6 51.3 51.6 51.8 51.8 51.7 50.7 53.5 50.3 50.5 50.4 50.7 50.6 51.1 50.5 49.6 50.4 50.9 50.6 49.9 50.8 50.4 49.9 49.9 50.2 49.3 51.1 49.2 49.2 49.2 49.1 48.7 48.3 48.1 49 49.2 49.4 48.4 47.9 47.8 48.2 47.7 48 47.8 44.5 46.8 46.4 47 47.6 47.8 47.7 47.7 47.9 47.3 46.5 47.2 47.8 48.1 47.5 46.5 46.5 46.5 46.5 46.6 46 47.4 47.5 47.5 47.5 47.4 47.5 47.1 47.1 46.2 46.8 46.2 45.6 46.7 46.1 46.6 46 45.7 45.6 46.2 46.6 45.6 45.5 45.4 43.6 45.3 45.1 45.1 44.6 45.5 45.5 45.2 45 45.3 46.1 47.2 49 50.7 52.4 54.5 56.2 59.5 63.8 66.8 70.8 74.1 93.4 101.5 101.6 92.2 91.7 105.8 121 134.9 139.8 137.2 125.6 113.4 106 101.9 97.7 96 96.1 96.4 97.6 98.6 99.8 103 104.5 100.7 96 91.6 85.5 83.5 83.1 82.3 83.2 82.5 81.7 80.8 80.4 81 82.7 83 83.3 83.9 85.9 86.8 88 89 90.8 92.6 94.6 97.3 101.3 107.3
66.6 67.3 69.7 70.5 71.4 71.9 74.4 75 73.7 70.6 67.7 64.4 61.7 60.1 58.7 58.2 58.5 58.8 59 58.1 57 55.2 53.3 53.3 53.4 52.7 53.5 53.4 53.3 53.3 53.1 52.5 51.8 51.7 52.1 52.3 51.7 51.7 49.1 51.3 51.3 51 51.4 51.1 50.7 51 49.3 51.1 50.3 50.3 50.9 50.8 50.7 50.5 50.2 50 49.8 50.3 49.1 48.6 50.4 50.7 50.5 50 49.5 49.2 48.8 49.3 48.3 48.3 48.2 48.8 49.3 49.4 49.5 49.8 50.1 50.3 49.1 48.2 47.1 47.6 47.8 48.1 47.9 44.9 44.4 47.9 47.9 47.6 47.8 47.8 47.6 46.9 45.9 47.4 48 47.3 47.2 47.8 46.3 46.3 46.3 46 45.9 46.9 47.3 47.2 47.1 47.2 47.3 47.3 45.6 47.1 47 46.9 46.4 46.7 45.5 46.5 46.2 45.9 45.7 45.6 45.7 45.8 45.7 46.4 46.2 45 45 44.3 45.2 44.5 44.8 45 45 45 45.2 45.4 48.6 51 52.7 55.7 58.6 63.1 66.6 68.6 72.6 76.6 93.5 107.4 112.1 101.5 94.2 106.3 121.8 135.2 139.4 136.3 125.4 114.9 107.4 103.1 98.6 94.6 93.5 93 93.4 95 98.7 102.6 101 97.1 92.9 87.2 82.6 80.2 79.3 79.6 80 79.6 78.9 79.5 79.9 80.8 81.6 81.7 83.5 85 87 88.4 89.3 90 90.5 91.6 94.1 97 100.6 104.2
69.5 68.6 71.3 70.3 70.6 71.1 73.8 74.8 74.1 71.5 68.3 64.2 61.5 60.5 60.4 60.3 59.4 59.5 59.4 58.4 56.1 54.5 53.5 53.5 53.3 53.5 53.4 53.3 53.1 52.4 52.8 52.4 52.3 52.5 52.4 52.6 52.1 51.2 49.6 50.6 51.5 51.4 51.1 51.2 51.2 49.3 52.4 51 50.3 50.6 51.1 50.9 50.8 50.7 50.6 50.2 49.9 49.8 49.8 50.9 50.7 50.6 50.3 50 49.8 49.4 48.7 47.8 48.4 47.3 48.7 49.5 49.7 49.4 49.5 49.2 49.5 49.3 48.9 49 47.2 47.7 48.3 47.6 47.8 47.8 47.3 43.8 44.1 47.2 47.4 47.7 47.4 46.4 45.4 46.1 43.5 43.4 43.3 43.3 46.2 46.1 46 46.1 46.1 46.8 47.3 47 46.9 47.1 47.2 47.3 46.1 46.7 46.7 46.9 47.2 47.1 46.4 45.4 45.6 45.8 45.9 45.7 45.9 45.8 45.8 45.9 45.9 45.9 46.9 44.7 45.1 43.7 44 44.8 45.6 45.6 44.8 45.3 45.9 49.4 54.5 57.4 61.8 65.3 68.9 71.3 74.5 81.5 98.3 108.9 114.4 110.1 97.2 107.2 121.5 135.9 139.1 137.4 128.2 117.5 109.9 104.5 100.2 95.1 91.3 89.3 89 91 94.9 100.6 97.7 92.5 88.5 83.2 79.7 77 75.7 75.9 76.2 76.7 77.5 77.7 78.7 79.2 80.8 82.8 84.9 85.9 86.6 86.9 87.3 88.3 89.4 90.9 93.4 94.9 98.6 99.9
73.7 70.1 72.2 71 70.5 70.3 71.7 73.2 72.8 70 65.1 64.5 61.4 60.8 60.3 60.3 60.3 60.2 59.3 58.4 56.7 55.6 53.6 53.2 53.1 53.5 53.4 53.3 53 52.5 52.8 52.7 52.2 52.5 52.8 51.9 51.8 51 51.6 51.1 50.6 50.1 50.9 51.4 51.5 54.5 50.2 50.3 50.5 50.9 51.3 51.2 51.1 51 50.8 50.7 50.2 50 50.6 50.2 50.4 50.3 49.8 48.8 49.6 49.6 49.1 47.3 47.5 48.2 48.9 49.9 49.5 49.1 49.3 49.9 50.1 49.5 49.6 49.5 49.4 48.2 47.5 47.5 47.5 47.3 47.9 47.8 46.9 43.4 43.3 44.7 45.3 43.9 43.3 43.3 47.2 47.7 47.7 45.8 47.3 46.2 46.3 46.3 46.3 46.1 46.8 46.5 46.8 47.1 47.2 47.1 46.6 46.3 46.4 46.6 46.6 46.3 46.1 45.9 46.1 46.3 46.3 45.9 45.9 45.8 45.9 45.9 45.8 45.8 45.6 45.6 45.9 45.8 45.5 44.5 43.6 44.8 44.3 45.4 45.5 47 53.6 58.7 64.5 68.5 70.9 73.7 77.4 85.8 100.5 110.3 115.9 118.6 103.6 106 119.7 136.7 140.5 139.3 131.9 121.2 112.1 105.6 100.5 96.2 92.9 88.9 86.4 87.9 88.1 93.4 90.5 86.7 83 79 76.3 73.8 74.9 76.2 78.8 77.8 78.1 77.5 77.7 78.7 80.7 81.7 82.6 83.4 84 84.9 85.9 87.6 89.4 91.5 94.1 96.2 98.9 100.4
74 69.7 70.6 71.9 70.4 69.3 68.8 68.4 68 66.5 64.3 61.4 62.4 61.8 61.6 60.7 60.2 60.3 59.4 58.5 57.5 55.6 55.5 52.5 52.6 53.6 53.4 52.9 52.5 52.4 52.8 53 52.2 52.3 52.8 52.7 51.7 52.3 51.7 51.2 50.7 50 50.7 51.1 52.3 51.4 51.2 50.9 50.7 50.9 51.4 51.5 51.4 51.2 51.1 50.9 50.8 50.8 51.2 50 49.9 50 50 50.1 49.6 49.4 48.1 48.4 49.5 49.9 50.3 49 48.6 48.5 48 48.5 48.9 49.2 49.3 49.3 48.9 48.7 47.1 47.2 47.2 47.4 47.4 47.6 47.8 47.6 47.6 47.8 47.7 48.2 47.4 47 47.2 47 47.3 47.3 43.5 46.6 46.6 45.9 46.1 45.4 46.3 46.3 46.7 47 47.2 47 46.5 46.9 46.2 46.3 46.5 46.4 45.5 46.8 46.9 46.9 47 46.1 45.9 45.9 45.9 45.8 45.8 45.7 45.7 45.8 45.9 45.6 45.6 45.7 44.7 45.1 44.7 44.9 45.4 45.3 52.4 59.8 65.6 68.6 71.9 75.9 80 87.2 100.8 110.7 116.9 120.2 113.1 108.4 120.5 137.4 142 140.9 135.9 123.7 114.6 106.5 101.5 97.2 93.5 89.3 85.4 84 84.1 86.1 82.9 80.5 78.1 75.2 73.8 74.1 77.3 83.4 86 85.2 83.7 79.9 78.5 78.2 77.9 79.4 80.1 81.3 82.8 84.7 85.9 87.4 88.9 90.2 93.2 98 100 99.9
72 71.9 72.6 69 68.8 67.2 65.4 64.9 64.4 62.8 62.7 63.4 65.4 65.2 63.7 62.3 60.8 60.3 59.3 58.4 57.5 57.1 56.6 56 52.5 53.4 53 52.6 52.6 52.8 52.7 53.3 52.5 52.2 52.5 52.4 50.9 52.3 51.8 51.6 51.5 50.7 50.9 53.6 51.6 51.5 51.3 51 50.7 50.9 51.3 51.5 51.4 51.3 51.2 51.1 50.9 50.8 50.3 50.7 50.3 50.4 50.4 50.4 50.2 49.6 49.9 50.6 50.4 50.2 50.1 49.4 49 48.4 46.7 47.7 48.6 48.9 49.1 49.2 48.9 48.9 47.9 46.9 47 47.1 47.3 47.4 47.5 47.4 47.5 47.7 47.7 47.9 47.4 47 46.7 46.4 46.8 47.4 43.9 46.9 46.4 46.2 46.8 46.7 45.9 46.2 46.6 46.9 47.2 47.2 46.6 46.7 46.9 46.4 46.9 46.7 46.7 45.8 47.1 47.1 46.3 46.1 45.4 45.9 45.9 45.9 45.9 45.8 45.7 46 46.1 45.9 45.7 45.5 44.6 45.3 44.9 44.9 44.2 45.4 48.7 57.9 63.9 68.1 73.5 77.5 80.3 89.9 101.9 111.9 118.1 122.8 124.6 117 123.5 138.3 143.5 143.3 138.7 126.1 114.5 106.7 101.5 98.4 94.1 90.7 86.4 82.2 80.1 78.4 77.9 75.8 73.8 72.8 73.5 76.7 81.8 87.2 90.1 91.7 91.5 85.8 83.2 80.9 80.3 79.2 79 80.9 82.8 83.8 85.5 86.3 87.2 89.1 91.9 96.1 98.6 97.6
69.6 68.1 67.7 68 65.9 64.9 63.9 63.1 63.4 64.2 65.6 67.3 68.6 66.9 64.6 62.6 61.3 60.2 59.4 58.4 57.7 57.2 56.6 55.9 55.4 52.9 52.7 52.8 53.1 53.2 52.8 53 52.2 52.2 52 52 51.2 52.3 51.5 51.4 51.8 51.5 55.1 51.5 51.7 51.7 51.4 51.1 50.8 50.8 51 51.3 51.4 51.3 51.1 51 50.8 50.6 50.5 50.8 50.7 50.5 50.3 50.1 49.9 49.9 49.1 49.3 48.9 49.1 49.3 50.8 50 47.5 46.7 47.3 48.9 49 48.2 48.7 48.9 48.2 47.2 47 46.8 47 47.1 47.3 47.2 47.3 47.5 47.6 47.6 47.6 47.5 47 46.7 46.3 46.7 46.7 44 47.3 46.8 46.2 46.2 46.9 46.5 45.7 45.9 46.3 45.7 45.6 45.7 45.8 45.8 46 46.2 45.8 46.2 46.6 46.3 47.1 46.5 45.7 45.7 46 46.1 46 46 45.8 45.6 46.1 46.4 46.2 46 45.7 45.4 46.5 44.7 45.2 45.1 44.1 46.5 60.5 67.7 72.5 75.4 76.1 79.6 90 102.7 113 119.3 124.2 128.2 127.7 127.9 141.1 145.8 145.7 141.7 128.6 113.7 107.2 102.5 98.7 96.1 93.6 90.7 89 85.6 82.2 76.5 72.9 71.9 74.3 76.8 79.8 84.6 90.5 95.9 98.4 97.5 92.9 91 86.4 82.9 81.1 79.7 80.8 82.4 83.8 85.1 86 87 89.2 91.3 92.8 95.8 94.7
69.9 67.6 65.5 65.3 65.6 64.1 64.5 65.2 66.6 68.9 70.9 70.6 71.5 68.1 66.4 63.1 61.8 60.7 59.7 59.1 59.2 57.6 56.1 55.3 54.6 53.5 52.9 53.3 53.6 53.5 53.1 52.5 52.6 52.6 52.2 51.8 51.5 51.5 51.8 51.4 55.1 51.6 51.8 51.7 51.4 52.1 51.9 51.5 51.1 50.9 50.8 51 51.2 51.2 51.1 51 50.5 50.3 49.8 50.2 50.5 50.7 50 49.8 49.6 50 48.8 48.4 48.5 49 48.6 49 48.9 48.9 48.1 48.4 48.5 49.1 47.5 47.7 49 48 47.5 47.4 46.7 46.8 47 47 47.1 47.3 47.4 47.5 47.4 47.4 47.5 47 46.7 46.2 47.1 47.1 43.5 47 47 46.6 46.2 46.4 46.9 47.2 46.4 46.3 46.8 47.2 47.1 46.5 46.5 45.8 46.2 46.3 46.6 46.5 46.4 46.4 46.3 45.6 45.3 45.5 46.2 46.2 46.2 45.8 45.5 45.9 46.6 46.5 46 45.5 45.4 45.3 45.2 44.8 43.2 44.7 46.1 59.9 69.8 74.1 74.3 74.3 78.2 89.5 102.4 114 120.3 125.4 131 133.2 136 142.3 148.6 148.6 141.2 123.7 111.6 105.5 102.6 100.2 98.6 97.2 98.2 96.1 94.4 88.9 79.4 71.7 71.9 78.7 80.6 83.6 91.2 95.6 99.4 104.9 104.7 101.4 97.7 92.7 86.4 82.9 81.3 81.1 82.5 84.3 85.1 86 87.1 89.1 90.6 92.2 93.6 92.6
67.3 65.9 65.3 64.8 64.9 65.6 66.9 69.2 69.5 72.3 73.6 71.9 72.8 71 66.7 64.1 63.5 61.5 61.8 61.2 60.6 59.8 58.4 55.7 54.9 54.2 53.8 53.5 54 53.8 53.3 52.8 52.6 52.8 52.4 52.5 52.5 56.1 55 51.6 51.8 51.6 51.8 52 51.3 52.6 52.1 51.6 51.3 51.1 51 50.9 50.9 51.2 51 50.7 50.2 50 50.2 49.5 49.7 50 50.2 50.5 50.3 49.9 49.9 49.3 49 49.8 49 49.2 49.1 48.8 49.2 49.6 49.4 48.2 48.1 47.6 47.3 47.7 47.7 47.7 47.2 46.7 46.8 46.9 47.1 47.2 47.4 47.4 47.3 47.3 47.2 46.9 46.5 46.3 45.9 43.7 46 47.7 47.1 46.5 46.4 45.9 46.7 47.2 47.2 46.1 46.3 47 47 47 46.8 46.8 47.2 46.6 46.7 45.6 46.4 46.2 46.2 45.2 45.3 46.4 46.2 46.4 46.2 45.7 45.4 45.7 46.2 46.2 45.5 45.4 45.3 45.4 46 44.4 45.4 45.2 45.7 59.6 68.4 72.1 71.3 72.5 78.1 90.3 102.7 115.2 121.3 127.5 133.1 138.2 140.4 146 149.8 150.2 144 122.5 110.1 103.1 101.4 100.6 100.7 102.4 105.5 102.2 99.1 89 79.3 70.8 76.4 84.4 85.1 88.4 96.8 107.6 111.6 113.1 111.3 107.8 104.4 98 91.5 84.9 82.8 81.2 81.8 83.4 85 86.1 87.2 88.3 89.7 91.1 90.7 90.7
66.3 65.7 65.3 65.3 65.5 66.7 70 72.1 73.1 74.2 75.2 74.7 74.1 72.3 70.2 66.4 64.5 61.4 62 61.7 61.2 60.5 58.9 57.1 58 58.7 59.9 59.6 57.9 56.3 54.8 53.4 53.3 52.7 53.2 52.2 52.4 52.6 52.7 51.5 51.6 51.6 51.7 52 52.3 52.6 52.2 51.8 51.5 51.2 51.2 51.1 51.1 51 50.9 50.6 50.3 50.1 50.7 50.2 50.4 50.6 50.7 50.7 50.7 50.4 49.6 49.7 49.3 49.2 49.6 49.3 49.2 49 49.4 49.4 49.4 49.6 49.7 48.1 48.7 48 48 48 47.5 46.5 46.7 46.9 47 47.2 47.3 47.3 47.2 47.1 47.1 46.9 46.3 45.6 43.7 46.7 46.9 47.1 47.2 47.1 47.1 46.1 46.5 46.8 46.9 46.9 46.1 46.2 46.9 46.6 46.1 46.5 46.9 46.5 45.8 45.8 46.5 47.2 46.5 45.6 46.7 46.7 46.6 46.6 46.5 46.3 45.6 45.3 45 45.6 45.4 45.3 45.4 45.5 45.6 44 44.9 45.1 44.6 58.3 64.3 68.7 68.7 70.7 79.2 91.1 102.9 114.7 122.6 129.4 135.5 141.6 145.8 149.4 152.7 152.3 148.3 127.5 109.7 102.7 98.7 99.5 100.2 105 106.6 99.7 94.1 86.4 76.7 72.2 80.8 90.4 92.1 96.1 103.6 115.3 119.7 119.7 118 115.2 109.7 102.4 93.4 88.2 84.9 83.2 82.1 82.5 85 85.6 86.7 87.7 88.2 88.8 90 91.9
66.4 66.3 66.3 66.4 66.4 67.5 70.7 73.2 74.5 75.1 72.2 69.1 66.6 65.6 65.2 65.5 65.7 63.7 63.3 63 61.4 61.5 59.7 57.9 56 54.4 54.3 55.2 55.1 54.4 53.5 53.3 53 52.7 53.2 52 52.3 52.1 52.2 51.9 51.8 51.8 51.7 51.7 52.7 52.7 52.4 52 51.7 51.4 51.4 51.3 51.3 51.2 51 51 50.9 50.8 50.7 50.8 50.8 50.8 50.8 50.8 50.9 50.7 49.5 49.8 49.7 49.5 49.7 50.4 49.9 49.7 49.8 50.5 49.3 49.9 49.8 51.5 48.5 48.9 48.6 48.3 47.5 46.7 46.7 46.8 47 47.1 47.2 47.2 47.1 47 47 46.9 46.3 43.7 47.2 46.7 46.9 47.2 47.2 47.1 47.1 46.4 46.2 46.9 46.6 46.6 46.7 46.5 45.9 46.7 46.6 46.3 46.8 47.1 46.7 46.9 47.4 46.5 45.8 45.7 46.5 46.6 46.6 46.5 46.5 46.5 46.5 46.4 45.5 45.2 45.3 45.4 45.5 45.5 45.7 44.1 45 44.1 47.7 57.1 61.3 66.1 67.1 69.6 80 92.3 104.2 115.2 122.2 130.4 137.8 143.8 147.9 150.7 153.4 151.9 148 127.7 108.1 100.6 95 94.3 97.2 102.1 103 95.9 85.6 81.4 73.6 80 90 98.6 95.7 103.6 110.6 116.9 122.4 123.7 123 121.9 116.9 109.3 99.1 91.2 87.2 85.5 84.3 83.3 84.9 84.5 85.9 85.9 87.1 88.7 90.1 92.1
67 67.1 67.4 67.4 69 69.6 71.4 74.2 75.3 75.3 75.4 75 75.2 74.7 72.6 70.7 67.8 65.3 64.6 63.7 62.6 61 59.6 58 56.3 54.8 54.7 55.8 57.1 56.6 54.8 53.9 53.1 53 53.2 52.4 52.3 52 51.9 52.7 52.7 52.5 52.4 52.4 52.4 52.7 52.8 52.2 51.9 51.6 51.6 51.5 51.4 51.2 51.1 51 50.9 50.8 50.7 50.8 50.8 50.9 50.9 51 51 50.1 49.8 49.9 50 49.9 51.1 52.7 55.2 55.3 54 53.7 52.9 53.3 52.7 51.8 52.6 51.4 49.6 48.5 47.9 46.9 46.6 46.8 46.9 47.1 47.1 47.1 47 47 47.1 47 46.7 44.2 46.5 46.8 47.1 47.2 47.1 47.1 47.1 46.5 46.3 47 46.6 46.2 46.2 46.4 46.7 45.8 45.3 46.3 46.6 46.9 47 46.6 46.2 46.1 46.1 45.9 46.7 46.6 46.6 46.5 46.5 46.4 46.5 46.5 45.8 45.8 45.6 45.4 45.5 45.6 45.6 44.3 45 44.1 44.9 56.8 60.6 63.6 66 70 81 93.5 105.6 115.4 123.7 132.1 138.5 144.4 148.2 150.2 150.3 148.2 143.9 122.1 103.7 94.6 89.2 91.5 94.8 98.4 99.8 92.9 80.4 70.6 74.1 88.9 102 109.2 102.6 107.5 115.2 119.7 124.1 125.9 125.9 125.1 121.9 115.9 105.2 95.1 90.4 87.8 86.6 85.6 84.9 83.5 84.1 86.1 87.9 89.1 90.3 92.7
69.1 72.2 69.7 70.3 70.4 71.5 72 74.5 75.5 75.3 75.4 75.4 75 75.2 72.7 71.3 71.2 68.9 67.8 65.6 63.8 61.5 59.9 58.4 56.5 55.4 55.4 56.5 56.4 57.2 56.4 56.1 55.8 54.6 54 53.5 52.9 52.8 52.8 53.4 54 53.3 53.1 53.1 52.7 52.8 52.5 53.1 52.1 51.8 51.8 51.6 51.4 51.4 51.1 51 50.9 50.8 50.7 50.7 50.8 50.8 50.9 50.9 51 50.1 50.2 50.4 50.4 52.8 55.9 61.1 62.8 65.1 65.1 61.9 60.1 60.4 60.8 62.4 62.6 61.9 57.3 51.3 49.3 46.9 46.5 46.7 46.9 47 47 47 47 47.1 47 46.9 43.4 46.8 46.3 46.5 47.2 47.1 47.1 47.1 47.1 46.4 46.4 47.2 46.6 46.1 46.3 46.6 46.5 46.3 46.1 45.9 45.8 45.5 45.9 45.9 45 45.1 45.5 45.2 46.7 46.6 46.5 46.4 46.4 46.3 46.5 46.5 45.4 46.1 45.9 45.6 45.4 45.5 45.6 44.1 45.1 43.8 45.7 57 60.3 61.4 64 71.5 82 94.1 106.3 116.6 124.9 131.4 138.5 141.8 142.6 143.5 143 141.3 135.9 122.6 100.9 89.2 86 88.7 91.7 95 92.6 84.2 70.6 74 81.8 95.9 107.6 112.1 108.6 113.2 118.6 122.9 125.8 128.1 129.1 127.6 124.4 117.2 106 98 94.2 91.1 89.3 88.5 88.4 88 87.1 84.2 86.5 88.2 89.9 93.6
70.5 71 71.9 72.5 72.5 73.6 73.9 74.3 75.5 75.1 74.8 75 74.3 73.8 72.9 72.9 73 72.9 71.2 69.5 67.1 64.2 62 60.1 58.2 56.9 56.1 55.8 55.7 57.9 59.2 58.7 58.1 56.7 56.9 56.2 54.9 55.3 56.1 55.4 55.2 54.6 54 53.4 53.1 52.9 52.9 52.8 53.1 52.1 52.2 52.3 52 51.4 51.4 50.9 50.8 50.7 50.6 50.6 50.7 50.8 50.8 50.9 50.5 50.5 50.1 52.7 55.7 61 67.6 70 74.5 79.8 76.9 73.7 70.3 71.4 74.5 75.6 74.2 72.2 64.8 53.9 49.3 46.8 46.5 46.7 46.8 47 47 47 47.1 47.1 46.8 44.1 43.1 46.5 46.7 46.9 47.1 47 47 46.9 46.9 46.2 47.1 47.1 46.5 46.3 46.5 46.6 46.3 46.1 46 45.9 46.1 46.4 46.1 46.1 45.1 45.1 45.5 45.9 46.9 46.6 46.5 46.4 46.4 46.3 46.4 46.5 45 46 46.2 45.9 45.5 45.4 45.7 44.2 43.8 44.4 49.7 56.3 58.2 59.3 63.5 71.5 83 94.4 106 117.6 124 130.4 135.1 135.5 134.9 133.5 129.5 127.4 126.4 116 96.5 82.6 83.4 84.8 86.8 83.7 82.8 74.6 72.1 81 89.6 105.7 111.9 116.3 118.4 112.2 119.7 125.3 128.8 130.8 131.1 129.9 126.1 117.2 108.9 104.6 102.8 98.2 94.2 91.8 91.4 91.2 89.9 88.1 86.7 87 89.7 96.4
72.6 73.3 74.1 74.6 74.6 74.6 74.2 73.6 75.4 75.8 74.7 75.5 74.8 74.7 74.1 74.1 74.1 73.8 73.6 72.8 70.4 67.6 65.1 62.1 60.2 57.4 55.9 55.5 56.5 58 59.4 59.6 59.3 58.7 58.8 58.3 56.9 57.4 58.5 58.4 56.8 55.3 54.2 53.5 55.3 56 56.1 55.8 54.5 54 53.2 51.6 51.6 51.7 51.6 51.2 50.8 50.7 50.6 50.6 50.6 50.7 50.7 50.8 50.8 51 54.2 58.7 64.9 70.8 78.5 85.4 90.3 92.8 89.7 87.2 82.9 83.7 84.2 80.4 76.4 72.4 64.9 55.7 49 46.6 46.6 46.6 46.5 46.1 46.8 46.9 47 46.9 43.8 43.1 46.8 46.3 46.5 46.7 46.9 46.7 46.8 46.8 46.5 47.1 47 47 46.4 46.4 46.6 46.3 46.1 46 45.9 45.8 46.2 46.4 46.7 46.8 46.2 45.5 45.4 45.7 45.7 46.2 46.5 46.4 46.3 46.2 46.3 46.2 45.6 46.3 46.3 46.2 45.8 45.3 45.1 43.6 45 44.5 52.3 55.9 57.2 58.7 62.3 67.8 79.8 91.7 104.4 117 123.6 127 128.1 126.5 119.2 113.6 110.7 110.4 110 106.5 96.6 79.4 76.8 76.2 74.3 74.6 75.6 68.1 75.5 86.8 100 112.1 116.2 121.1 122.7 115.9 122.7 127.1 131.6 133.6 134.1 133.8 130 122.7 114.7 115.5 110.5 105.5 99.7 96 95.2 94.4 92.2 90.1 89.4 87.7 87.3 93.4
74.7 75.1 75.6 75 73.9 73.8 73.3 72.7 74.5 75.7 74.6 75 75.3 75.2 75.3 75 74.7 74.6 74.3 73.6 72.9 69 66 62.8 59.2 56.8 55.6 55.3 56.5 58.5 59.7 60.3 60.1 59.6 59.4 58.8 58.6 59 58.7 58.5 57.3 55.7 54.5 54.6 56.9 57.4 57.5 57.3 57.3 56.4 54.7 53.8 53.9 53.7 52.7 52 51.7 51.4 51.4 51.5 51.2 51 51.7 53 52.4 55.8 60.5 67.9 73.9 78.9 89 98.7 102.8 108.3 106.1 102.2 91.7 86.9 81.3 77.5 73.4 69.9 63.6 55 49.9 46.5 46 45.8 45.8 46.2 46.7 47.1 45.1 43.1 48 47 47.4 47 46.6 46.5 46.7 46.6 46.7 46.6 46.8 47 46.9 46.8 46.4 46.6 46.4 46.2 46.1 46 45.9 45.8 46.2 46.5 46.7 46.9 46.2 45.4 45.3 46 45.7 45.7 46.1 45.6 45.1 45.9 44.5 45.6 45 44.5 44.5 44.8 45.1 46 42.7 43 43 46.2 51.1 52.7 55.5 57.9 61.1 66.4 76.3 90.1 103 116.1 118.2 118.4 114.4 106.7 99.9 94.1 92.3 93.1 96.6 101.4 99.1 80.5 68.7 66.9 67.1 67 67.7 73.2 83.6 97.1 109.4 115.8 120.1 123.5 126.3 120.4 125.7 130.5 134.3 137.5 137.9 137.9 133.5 127.9 121.5 122.3 117.2 111.7 107.4 102.9 100.2 97.9 95.5 93.4 92.3 90.5 88.7 88.7
75.8 74.4 73.8 73.2 72.5 72.1 72.4 71.6 73.6 74.7 74.8 75.1 75.4 75.6 75.8 75.2 74.9 74.9 73.7 73.2 71.4 68.3 64.4 60.9 58.2 56.3 56.3 55.8 56.4 59.1 60.7 62 61 60.5 60.1 59.7 59.6 59.1 58.3 57.8 56.9 55.6 55.5 55.9 57.6 58 58.5 58.7 58.3 57.5 56.1 55.2 55.5 57.4 57.4 56.2 55.1 54.2 52.5 52.9 52.5 53.2 53.2 55.1 60 61.7 69.3 77.5 86.4 92.8 106 111.2 118.1 124 126.1 109 91.9 83.1 77.7 73.9 69.5 65.2 59.1 56.3 52 46.4 45.9 45.9 46.1 46.7 44.3 44 44 48.3 48.2 47.7 47.6 47.5 47.3 46.9 46.5 46.6 45 46.4 46.9 46.8 46.8 46.7 46.5 46.4 46.3 46.2 46.1 46 45.9 45.8 46.2 46.5 46.8 46.7 46 45.3 45.2 45.9 46.2 45.8 45.5 45.4 45.2 45.5 45.4 45.1 45.2 44.8 44.7 45.1 44.1 43.2 43.6 44.1 43 49.1 51 52 53.5 56.1 60 64.4 73 86.7 99.4 108 105.7 100.9 97 89.6 81.7 75.3 75.3 77.7 81.6 86.3 86.3 73.5 61.7 63.3 67.5 70.1 70.7 80.3 92.7 107.2 112.1 117.3 121.7 124.7 129.3 128.5 129.8 133.2 136.9 140.7 142.2 141.7 138.4 133.7 128.6 128.8 124.8 120.9 115.9 109.6 104.5 102.8 101.9 100.3 96.9 96.1 94.7 91.6
75.6 72.4 71.8 71.2 70.5 69.9 69.1 68.6 71.5 72.6 74.4 74.9 75.1 75.2 75.3 75.1 74.7 74.2 71.8 69.6 68 63.6 60.4 58.5 56.5 57.3 57.2 56.4 56.6 59.4 62 65.4 63 62.1 61.2 60.3 59.8 59.3 57.9 57.1 56.4 55.6 57 57.8 57.9 58.7 59.8 60.1 58.7 58.4 58.1 57.2 56.9 57.1 56.7 60.8 59.6 57.1 56.5 57 56 56.7 56.2 59.5 66.6 73.3 82.3 91.1 99.4 109.1 116.5 123.2 131 133.3 128.3 113.4 96.6 85.6 77.9 71.6 66.4 61.4 59.9 58.2 52.4 47.5 46 46.4 43.5 43.3 43.1 47.5 47.6 48.1 46.7 48.6 47 46.9 46.8 46.7 46.6 46.6 46 46.4 47.1 46.9 46.8 46.6 46.5 46.4 46.3 46.2 46.1 46 45.9 45.8 46.2 46.5 46.8 46.5 45.9 45.1 45.2 45.7 45.6 45.6 45.6 45.5 45.4 45.5 44.7 44.6 44.7 44.9 44.8 45.6 43.1 43.3 43.3 44.2 47.5 50 49.8 51.5 52.3 55.4 59.3 62.7 69.7 77.5 88.6 87.2 85.1 83 77.1 72.3 66.1 61.7 59.9 65.5 70.8 72.2 68.8 60.9 64.1 71 77.3 79.4 81.2 80.3 95 99.1 106.8 116.7 122.9 128.5 132.9 132.3 134.6 137.8 140.9 144.1 146.1 145.3 143.9 139.5 136.6 134.4 130.8 127.2 121.5 114.5 111.8 108.9 108.7 107.3 103.3 102.6 102.3 97.1
74.7 72.1 69.8 69.2 68.5 67.4 66.9 67.1 69.4 72.2 74.5 74.6 74.7 74.8 74.9 74.6 74.1 71.4 66.9 63.8 61.8 60.4 58.2 57 57.7 58.5 57.9 57 56.8 59.5 66 67.5 66 64.8 63.8 61.2 60.4 59.5 57.1 56.3 56.2 57.8 59.2 59.7 59.6 61.3 60.2 60.2 59.9 59.7 59.5 58.9 59 60.3 61.3 60.7 58.3 59.2 59.2 60 61 60.9 62.3 66.3 75.2 89.3 102.4 111.8 115.9 121.9 126.8 133.1 136.2 133.1 125.1 112.9 101 90.4 83.3 74.3 66.7 65.3 63.7 59.3 54.5 46.4 43.1 43.1 44.4 47.5 48.1 47.5 47.9 47.1 46.1 46.1 46.8 46.4 46.5 46.6 46.6 46.5 46.3 48.6 48.1 47.7 47.2 47 46.8 46.5 46.3 46.2 46.1 46 45.9 45.8 46.2 46.6 46.8 46.3 45.7 44.9 45.3 45.4 45.4 45.4 45.5 45.5 45.5 45.2 44.2 44.2 44.4 44.7 44.9 42.2 45.1 45.8 46.1 46.1 45.4 47.2 47.3 50.4 51.7 53.5 56.1 60 68 70.5 70 69.7 70.3 68.6 61.4 57 58.1 59.6 60 59.8 61.4 60.4 61 64.1 70.2 77.2 88.7 90.6 91.9 91.2 96.1 99 108.1 119.2 124.4 130.1 134.8 137.4 139.3 142.5 145.7 148.2 150.2 149.7 148.5 146.2 143 139.4 136 133 127.3 124 120.1 117 115 113 108.7 110.2 110 98.5
71.7 70.3 68.5 67.1 66.1 65.3 64.8 66 68.9 71.3 73.1 72.5 72 72.8 72.3 72.3 70.2 66.3 62.1 60.5 59.7 59.5 58.7 60.4 60.5 62.3 59.7 57.7 57.2 63.2 69.6 69.9 69 67.6 66.2 63.7 61.5 58.2 57.2 57 58.5 61.5 62.8 62.5 62.2 62.9 61.5 61.4 62.3 61.7 62.5 64.7 62.8 62.4 62.2 63.6 64.7 65 67.3 68.5 70.3 72.8 76.8 81.6 88.8 103.8 120.3 127 126.8 129.3 133.1 135.2 133.4 128.3 120.4 109.8 99.6 90.5 83.8 76.6 72.6 72.2 69.5 63 53.6 43.1 43.1 46.2 48.1 47.9 47.7 47.3 46.5 46.3 46.1 46 47.4 46.6 46.7 46.6 46.5 46.3 46.1 46.1 48.2 47.8 47.5 47.1 46.9 46.8 46.5 46.3 46 45.9 45.8 45.9 46.2 46.6 46.7 46.2 45.7 45.1 45.4 45.4 45.2 45.2 45.2 45.3 45.4 45.1 45.4 45.5 44.9 44.8 43.5 44.5 45.2 46.1 47 47 47.8 47.4 46.9 46.2 46.3 46.3 51.5 52.8 54.2 52.7 52.8 55.7 55.8 56.8 57.1 59 61.8 67.5 72 70.5 63.8 64.1 65.7 72 81.1 93.1 102.5 101.7 101.2 102.8 105.4 107.9 118 120.8 128.1 133.8 137.9 141.6 144 146.9 149.4 151.8 154 154 152.1 150.2 147.7 144.6 139.7 133.5 131.3 131.1 126.7 123 120.9 118.7 116.6 113 110.6 103.2
69.2 68.5 67.4 65.7 64.6 64.1 63.7 64.2 66.6 69.1 68.2 67.4 67.3 68 67.8 65.8 63.7 61.3 59.4 59.5 60.7 63.7 66.5 67.7 66.7 65.2 60.2 58.2 59.2 65.2 71.4 71.5 70.7 69.8 68.2 65.8 61.3 58 57.9 58.8 62.8 65.8 67 66.2 65.2 66.3 64.9 65.2 63.7 64.3 65.1 65.9 64.8 66.4 67.6 68.8 71.1 72.1 73.3 78.1 82.9 87.6 93.4 99.5 104 113.1 123.7 129.9 131.8 130.6 131 128.9 124.9 120.7 113.2 103.7 96.5 88.8 82.5 77.1 74.9 73.8 70.6 65.1 53.9 42.6 46.8 48.1 48 47.5 47.2 46.7 46.6 46.4 46.2 46 46.8 46.8 46.7 46.4 46.3 46.1 46 46.3 46.4 46.4 47.2 46.8 46.3 46.8 46.6 46.4 46.2 46 45.8 45.9 46.2 46.5 46.8 46.1 45.6 45.4 45.4 45.4 45.5 45 45.1 45.1 45.2 44.9 45.9 45.7 44.2 42.5 42.3 45.1 45.4 46.2 47.1 47.7 48.3 49.1 49.7 48.5 50.9 50.9 49.8 50.4 52.3 52.3 54.6 55.2 56.4 57.4 58.2 61 65.4 76.1 82.8 82.2 84.7 82.2 83.8 86.5 94.4 108.1 111 111.4 111.3 112.6 113.7 116.6 121.8 125.7 130.4 136.3 140.1 143.9 147.2 151 153.5 155.9 157.5 158 156.1 154.2 151.6 147.6 142.5 134.4 138.4 137.2 133 129.4 127.2 123.8 121.3 114.4 109.2 104.5
67.3 66.7 66.1 64.8 63.7 63.2 62.8 62.5 63.5 64.4 63 62.8 62.3 61.9 61.5 60 59.8 59.7 61.2 64.4 66.2 69.4 71.6 72 69.9 66 60.2 58.1 62.5 68.2 72.6 72.9 72.3 71.6 70.2 66 61 58.9 59 60.1 64.9 69.7 70.3 69 72.1 66.9 64.5 65.9 65.6 65.9 66.7 67.4 68.7 70.6 72 74.3 76.9 79.1 81.3 89.2 96.2 102 107.2 110 112.8 120.7 126.2 129.1 128.6 126.7 123.1 119.2 114.3 110.7 104 98.7 92.6 85.4 80.7 77.4 73.8 71.2 67.4 64.8 56.2 42.4 46.2 47.8 47.9 47.9 46.9 46.6 46.7 46.5 46.3 46.1 46 46.5 46.4 46.2 46.1 46 45.9 46.5 46.2 46.6 46.6 46.5 46 46.5 46.7 46.5 46.3 46.1 45.9 45.7 46.1 46.8 46.9 46.4 45.4 45.4 45.4 45.3 45.3 45.9 44.9 44.8 46.3 45.3 43.3 42.6 44.5 44.6 44.2 45.2 45.9 46.4 47.1 47.8 48.6 49.4 49.7 50.9 52 52.4 52.6 53.3 56.1 55.6 56.4 57.3 56.8 58.3 60.7 63.8 73.5 83.5 90.3 98.3 101.8 104.3 105.1 102.1 108.7 111.8 115.2 119.3 117.6 118.7 120.5 121.7 123.1 128.6 131.8 137.1 141.4 145.3 149.3 153.4 157.3 159.6 161 162 160.2 158 154.5 149.1 143.7 140.7 144.4 143.7 140.1 136.3 134 129.9 122.9 115.8 110.6 106
66.7 65.3 64.7 63.6 63 62.4 61.9 61.5 61.2 61 61.1 60.7 60.5 60.4 61.2 61.2 62.2 62.2 64.4 70.7 72.3 73.5 73.5 72.6 70.1 65.4 59.9 58.1 62.2 69.8 74 74.2 73.5 72.6 69.9 66.1 60.7 59.7 59.9 61 65.3 69.8 72 68.2 69.9 69 69.2 69.3 69.2 69.4 70.2 71.1 72.8 74.6 77 80.9 84.7 89 93.9 99.9 107.2 113.5 115 114.8 117.3 122.9 125.7 126.1 124.9 121.3 116.1 110.2 104.6 100 96.1 92.2 87.2 82.2 78.2 76 74.1 71.5 66.5 63.6 60.7 42.5 44.7 47.6 47.6 47.7 47.8 47.3 46.9 46.7 46.6 46.5 46.4 46.8 46.3 46.1 46 45.9 45.8 46.7 45.9 46.4 46.9 45.7 45.2 46.3 46.2 46.5 46.3 46.2 46.1 45.9 45.6 45.9 46.5 45.5 45.8 45.7 45.5 45.3 45.3 45.5 46.2 45.5 44.8 41.2 41.7 45.3 44.8 44.6 44.3 45.1 45.8 46.5 47.2 48.1 49 49.9 50.5 52.4 54.1 55.5 55.9 56.9 58.2 58 57.8 58.2 59.3 59.8 64.3 71.2 80.7 88.3 95 101 105.6 107.8 109.7 111.5 113.2 114.6 117.9 120.7 121.4 121.2 122.9 124.5 125.4 128.2 132.2 137.7 142.2 146.5 151.1 156.4 160.4 163 164.6 165.9 164.2 161.3 157.3 152.4 146.9 149.1 148.4 147.6 146.1 142.8 138.9 131.5 124.3 117.2 112.1 107.6
66.2 65 63.8 62.7 62.3 61.9 61.5 61.3 61 60.8 60.9 61.2 61.9 63.1 64.4 64.1 64.4 66 66.9 71.8 76.1 74.9 73.9 73 70 64.9 59.8 58.3 62.8 71.1 74.2 74.6 73.8 72.2 68.7 64 61.3 60 60.5 62.2 65.2 69 69.9 71.9 72 71.6 72.5 73.2 73.1 73.6 74.5 75.3 76.8 80 84.5 89.1 95.2 100.9 106.4 112 117.1 117 117 116 116.6 120.3 120.9 119.5 117.3 113.6 108 102.2 97.7 93.1 89.9 86.4 83.7 81.1 77.8 75.2 72.2 69.4 65.1 61.9 58.1 54 42.6 45.2 47.6 47.7 47.4 46.5 46.7 46.6 46.5 46.4 46.3 47.9 46.3 46.1 45.9 45.8 45.7 46.7 46.1 46.2 45 45.4 45.2 45.4 44.6 45.1 46.5 46.4 46.3 46 45.9 45.9 45.7 46 46.2 46 45.8 45.7 45.5 45.3 46.2 44.4 41.2 43.9 42.8 41.4 45.2 44.9 44.5 44.9 45.7 46.4 47.3 48.9 50.2 52.5 53.8 55.9 58.3 59.9 62.8 60.6 60.7 60.9 61.1 60.2 60.4 61.8 64 74.1 84.7 91.2 97.2 102.8 106.5 108.9 109.8 112.1 114.3 115.1 117.8 120.5 121.3 121.6 123.2 124.2 124.4 128.3 133.1 137.5 141.1 146.7 152.6 158.5 162.9 165.4 167.4 169 168.4 165 161.3 155.5 153.3 152.7 151.4 150.3 149.2 147 140.6 133.2 125.7 118.7 113.7 108.9
64.8 63.6 62.7 62.2 61.9 61.6 61.3 61 60.7 61.1 62.5 63 64.1 67.4 68.7 68.8 67.9 70.3 73.2 76.3 77.7 75.5 73.6 72 68.7 65 59.9 59.3 65.2 72.6 74.5 74 73.2 71.8 67.3 62.8 60.8 59.9 63 67.1 67.2 68 69 71.4 72.7 73.8 75.9 77.6 77.8 78.9 79.1 80.8 83.2 86.6 93.3 100.2 106.7 112.4 117.1 120.3 118.7 117.4 113.6 112.1 111.7 112.2 113.5 111.1 108 103.5 99.9 94.1 90.9 87.2 84.8 83 80.4 78.1 76.4 75.2 73.5 69.5 65.8 62.3 58.8 56.3 54 43.6 44.1 47.3 47.5 46.6 46.6 46.6 46.4 46.3 46.2 46.6 46.2 46 45.8 45.7 45.7 45.4 46.1 45.8 45.3 46.1 46 45.8 45.1 45.2 45.2 46.6 46.5 46.3 46.6 46.2 45.7 46.1 46.6 46.4 46.2 46 45.7 45.4 44.3 41.3 45.2 45.3 45.4 44.9 41.6 45 44.7 45 45.6 46.5 47.5 49.2 51.4 54.8 57 60 63.1 66.7 70.9 67 64.2 63.5 63.4 63.4 64.5 64.2 63.4 67.1 81.8 88.9 96.7 102.4 106.1 108.1 109.2 112.1 113.3 114.3 117.5 120.2 122 121.9 122.8 123.1 123.8 128.3 131.8 135.7 140.8 145.1 151.5 157.4 162.8 166.7 170.1 171.8 171.6 168.6 164.9 158.7 157.4 157.8 156.5 155.4 154.3 148.3 139.9 133.7 127.4 120.1 114.8 110
63.5 62.6 62.1 61.7 62.3 61.7 61.4 61.1 61.3 62.7 63.6 64.6 67.2 69 70.5 71.5 71.9 74.8 76.4 75.9 75.3 73.6 71.9 69.5 66.7 63.4 59.5 58.6 66.1 73.1 74.8 74.4 73.8 71.2 65.7 61.6 60.7 62.4 65.4 68.4 69.8 70.9 70.7 71.9 73.8 76.2 79.3 83.1 84.9 85.8 86.7 88.2 91.1 98.1 105.4 112.5 118.6 123.5 124.3 120 117.9 113.9 110.5 107.4 104.9 103.6 101.8 99.7 96.4 93.6 90.1 87 84.6 82.9 81.2 79.6 78.4 76.6 74.7 73.2 71.6 69.2 65.7 62.4 58.5 56.7 55.1 53.4 42.7 42.8 45.9 47 47.1 46.7 46.6 46.5 46.4 46.1 46 46 45.9 45.6 45.9 44.5 44.5 46.2 46.1 46 45.8 46.1 45.6 45.5 45 45.8 46.7 46.4 45.9 45.5 45.8 46.1 46.4 46.5 46.3 46 45.7 45.1 43.9 41.6 45.4 45.6 45.8 45.7 43.1 41.3 44.9 44.9 45.6 46.5 47.7 49.8 52.4 55.1 61 65.2 72.6 79.5 80.8 75.4 70.7 67.9 67.8 67.8 69.2 74.2 73.6 65.3 78.3 86.5 94.8 101.8 105 106.7 107.4 111.1 112 113.3 116.4 118.2 119.6 120.8 122 121.4 122.6 126.4 129.9 133.3 138.4 143.2 150.4 157 163.2 167.2 170.8 173.5 174.1 172.9 167.8 164 163.3 162.6 162.1 160.9 156.7 150.2 142 133.3 127 120.5 114.3 110.2
62.9 62.4 62.4 62.8 63.2 62.3 61.9 61.5 61.9 63 64.3 66 67.9 69.7 71.1 71.8 72.1 73 73.6 73.1 71.7 70.5 69.5 66.1 63.8 60.7 59.5 59.5 66.8 73.3 74.6 74.5 73.5 71 65.3 61.4 63.2 63.8 67.4 71 71.8 72.9 73.4 74 76.1 79.6 83.4 88.8 92.5 95.3 98.8 101.8 105.6 110.7 118 125.3 130.8 130 124.7 119.2 114.8 111.2 105.8 102.2 96.9 92.9 90.5 89.4 86.9 85.5 83.3 81.8 80.8 79.8 79 78.3 76.9 75.4 73.9 71 68.5 66.1 62.9 61.5 60.2 58.1 56.8 55.1 51.1 46.9 43.1 42.8 46 46.3 46.9 46.8 46.6 46.3 46.6 46 45.8 45.6 45.7 44.5 45.2 46.2 46 45.8 45.7 45.7 46.1 45.8 45.3 45.2 45.5 45.7 46 46.3 46.2 45.8 45.4 45.5 45.7 45.9 45.6 46.8 44 44.9 45.8 45.7 45.7 45.6 45.7 44.7 41.7 44.9 45.6 46.4 48.7 51.5 55.7 62.4 69.6 72.7 82.7 94.3 92.1 86 78.7 74 74.7 74.1 73.4 73.6 74.4 70.3 74.4 83.9 92.3 99.3 103.4 105 104.1 108.3 110.6 112.1 115.1 116 117 117.9 119.4 117.4 120.8 125 129.1 133.4 137.6 145 150.7 157.1 163.1 167.6 171.1 174.1 176.5 174.4 170.7 170 169.4 168.7 168.1 165.1 158.7 152 144 135.4 126.9 119.8 113.6 112.1
63.1 63.6 63.9 63.7 63.5 62.9 62.3 61.8 62.5 63.4 64.9 66.5 68.5 70.3 69.9 69.6 69.7 70.1 70.7 70 69.3 67.9 65.9 63.6 61.2 59.9 58.9 61.8 67.2 73.2 74.1 73.7 73.2 70.4 64.1 62.1 62.6 65.1 70.3 74 75.4 76.8 77.4 77.9 78.9 82 87.1 94.2 100.2 106.9 113.3 117.4 120.2 124.1 130.1 137.4 134.5 129.4 123.2 117.3 113 106.8 101.3 96.2 90.7 86.5 85.7 83.1 80.4 79.9 78.2 77.5 77.6 77.7 77.8 77 75.7 73.8 72.3 69.9 67.7 65.6 65.2 65.6 64.5 62.9 58.4 56.1 53 48.4 45.6 46.2 42.3 42.8 46 46.9 46.6 46.2 46.6 46.4 45.7 45.6 45 46.6 46.8 46.6 46.3 46 45.6 45.4 46 45 44.9 45.4 46.1 46.4 46.3 45.9 45.8 45.5 45.4 45.9 46.1 45.9 45.7 45.3 41.6 45.7 45.7 45.6 45.6 45.6 45.6 45.6 41.6 41.7 45.1 46 49.6 54.3 60.3 69.7 79.7 89.6 98.7 105.3 102.5 94.6 87.2 81.8 81 77.7 75.3 73.9 74 71 73.9 81.9 88.9 95 100.4 101.6 100.6 105.2 108.4 109.1 113.5 113 113.7 114.5 115 116.8 121.6 126.1 130.3 134.6 139.9 145.7 152 158.1 163.6 167.7 171.6 175.1 177.6 176.3 174.7 175.7 175.4 174.9 173.2 167.2 161 153.6 146.2 137.2 128.8 120.1 116.1 119.8
64.3 64.1 63.9 63.7 63.5 62.9 62.6 62.4 63.1 64 66.1 68 68.6 69.1 68.1 67.5 67.6 67.9 68.1 67.4 66.9 65.8 64.2 61.7 60.3 59.7 58.7 62.7 68 72.1 74 74.6 66.8 68 63.8 62.6 64 66 70.3 74.3 78.1 81.8 82.6 82 82.8 84.9 90.9 99.1 107.6 118.6 127.4 133.6 135.2 137.4 138.9 137.3 133.4 127.5 121.1 115 109.3 102 95.2 90 85.9 82.8 79.7 77.7 75.5 74.8 74.6 74.7 75.5 76.9 76.6 75.8 74.6 73.2 72 70.1 69.7 70.4 71.6 71.5 70.3 67.6 62.7 57.5 54.5 52.4 50.6 46.5 46.6 46 44.1 42.5 44.6 46.5 46.8 47.4 45.8 45.8 45.9 46.6 46.5 46.4 46.2 45.9 45.6 45.3 45.5 44.8 44.8 45.5 46.3 46 45.6 45.4 45.3 45.1 45.6 46.2 46 45.7 45.5 45.3 41.6 45.7 45.6 45.6 45.6 45.6 45.4 45.1 45.1 41.3 45 45.8 50 54.2 66 78 91.7 106.1 116.1 117.3 108.9 103.4 95.3 88.5 84 79.2 75.2 75.8 72.2 69.9 74.4 80.5 85 90.6 95.5 95.6 96.7 101.2 102.6 106 108.1 108.9 110.5 112.7 115.4 117.8 122.3 127.1 131.5 136.5 141.7 147.5 153.3 159.1 164.5 168.3 172.3 176.3 178.8 179 178.7 180.2 181.2 180.8 175.6 170.1 163.2 156.3 150.1 140.6 130.7 122.9 119.6 126.4
64.8 64.3 63.8 63.6 63.4 63 62.8 63.6 64.8 65.6 66.8 68.9 67.8 67.9 67.3 66.2 66.1 65.5 65.6 65 64.5 63.4 62.2 60.9 60.2 59.6 60 62.8 67.4 71.1 66.4 73.3 72.6 68.6 62.7 63.1 65 67.3 71.2 75 80.6 87.5 88.5 87.2 87.6 91.4 96.2 103.8 114.3 124.7 135 142.1 142.8 143.3 140.6 136.8 131.9 126 119.6 113.7 107.6 98.3 91.5 86.6 82.9 79.5 76.8 74.8 72.8 72.3 72 73.5 75.4 76.1 75.4 74.7 74 73.7 72.9 73.2 73 74.3 73.5 73.2 72.2 70.4 66.2 59.2 55.7 53.3 51.4 50.1 46.8 46.6 46.2 46.8 44.5 42.6 45.5 46.6 46.7 46.3 46.8 46.3 46.2 46.1 46 45.8 45.5 45.6 45.6 44.7 44.9 45.8 46 45.3 45 45 45.1 45.1 45.9 45.9 45 45.6 46.5 43.7 41.4 45.6 45.5 45.5 45.3 45.4 45.6 45.7 45.7 41.4 44.9 45.6 50.1 61.1 75 91.7 108 122.1 128.5 131.6 117.7 108 98.4 91.1 85.2 80.3 76 74.3 70.7 70.8 74.3 77.1 80.4 85.9 90.7 90 92.5 95.7 100 105.6 107.4 109.6 112.1 116.8 116.8 118.8 124.1 128.4 132.6 138.6 143.8 149.8 155.9 161.9 165.9 170.4 174.4 177.9 179.8 180.8 181.7 183.6 185.7 185.3 178.6 173.3 166.2 159.1 153.5 143.3 133.6 125.5 124 128.7
65.7 65 64.4 63.9 63.4 63.5 63.7 64.9 66.1 67.3 69.1 70.6 69.5 68.2 67 65.9 64.6 64.1 63.7 63.1 62.6 62 61.1 60.3 60 59.9 61.1 63.9 64.5 68.7 70.8 70.6 71.1 67.5 63.5 63.8 66.3 70.3 74.5 81 85.7 92.6 94.4 93.4 95.2 99.6 106.2 111.3 124 133.3 139.5 145.6 146.8 144.1 140.7 135.5 130.2 124.9 118.8 112.3 105.2 96 90.8 88.2 83.5 77.1 74.1 71.5 69.9 70.3 70.6 73.2 75.3 75.2 75 74.6 74.1 74 73.9 74.8 75 74.7 74.6 74 73.1 71.6 67.1 61.6 57.3 54.4 52.4 48.8 48.1 46.7 46 46.3 46.6 46.1 43 42.5 46.7 46.9 46.6 46.1 46 45.9 45.8 45.6 45.4 45.5 45.2 44.8 45.3 46.1 46.1 46.3 45.6 45 45.1 45.4 45.5 45.8 45.7 45.4 46.3 42.6 44.9 45.5 45.5 45.4 45.4 45.3 45.3 45.3 45.3 44 41.4 45.3 49.3 66.1 89.8 108.5 127.3 136.7 136.8 136.9 124 110.1 100.6 92.9 86 81 76.6 73.2 71.3 71.7 75.9 77.1 79.3 81.6 83.7 89 91.8 98 104.2 110.5 112.2 111.7 113.7 115.3 119.6 123.1 127.4 130.5 134.6 140.5 146.4 152.4 158.3 164.4 167.8 172.3 176.1 179.2 181.1 182.1 183 185.2 187.6 187.6 182.3 176.3 170.1 163.5 156.4 146.5 139 131.3 129.2 128.5
66.6 65.8 65 64.2 63.7 64.2 64.6 66 67.5 68.8 70.4 71 70.2 69 67.8 66.2 64.4 63.2 62.9 62.3 61.8 61.2 60.7 60.3 60.8 61.7 61.7 61.9 64.5 65.9 66.7 68.8 68.3 65.4 63.5 65.3 68.7 73.6 81.5 91.3 98 99.6 102.4 103.1 106.9 113.9 118.8 124.2 130.2 138.1 143.8 148.6 149 142.5 138.5 134.7 128.8 123.5 117.7 110.8 104 97.6 93 90.8 84.2 77.4 72.2 69.4 68.1 68.7 69.7 72.4 74.5 74.3 74.8 74.7 74.2 74 74.6 75.2 74.9 74.4 74.2 74.2 73.4 72.3 68.3 62.8 58.7 56.6 53.2 46.6 46.6 47.3 46.8 46.2 46.5 46.7 46.1 42.9 44.7 47 46.3 45.8 45.7 45.6 45.5 45.4 45.2 45.1 45.3 45.7 46.1 46.2 46.2 46.2 46 45.6 45.2 45.3 45.6 45.9 45.8 45.3 44.5 41.7 45.6 45.6 45.4 45.3 45.2 45.2 45.2 45.1 45.1 45.5 41.4 45.3 54 79.4 104.4 123.5 141.2 146.5 140.5 132.1 126.6 111 102.5 93 85.5 80.8 76.4 73.6 71.9 71.7 76.6 79 79.1 81.1 84.1 89 92.9 96.8 103.3 110.6 112.8 113.7 114.2 114.3 119.8 124.5 128.9 133.2 136.5 143.1 149 155 160.9 166.7 169.6 173.8 177.3 179.9 182.5 183.5 184.7 186.2 188.6 188.9 183.5 178.4 172.2 164.9 159.6 151.8 144.6 137.1 134 133.6
66.4 65.6 64.9 64.3 64.1 64.6 65.3 66.3 68.3 70.7 71.7 71.3 70.6 69.2 67.5 65.8 64.2 63 62.1 61.7 61 60.5 63.5 61.6 61.7 61.5 61.3 61.8 62.7 64.2 66.2 67.1 66.8 64.8 64.5 66.3 72.8 81 89 99.5 105.4 111.9 115.5 118.5 122.3 126.6 130.8 135.4 137.5 142 148.3 149.5 149.4 142.1 133.2 130.3 126.4 122.7 117.1 110.8 105.4 100 95.4 89 81.9 74.6 70.7 68.6 67.9 68 68.4 71.6 73.8 73.4 73.9 74.5 74.3 74 74.7 75 74.7 74.2 73.8 73.3 72.8 71.5 68.5 63.9 61.5 58 50.8 46.3 46.4 46.4 47.2 46 46.3 46.7 46.4 45.9 43.1 45.4 46.3 45.6 45.4 45.4 45.4 45.3 45.3 45.7 45.4 45.8 46.1 46 46 46.1 46 45.7 45.3 45.4 45.7 46 46 45.3 41.6 45.5 45.7 45.5 45.3 45.2 45.1 45 45 45 45 45.3 41.4 44.2 56.4 86.9 117.1 126.2 133.5 139.8 132.3 119.9 120.2 107.6 99.2 92.6 85.4 80.6 77 74.5 72.6 73.1 77.2 78.9 80.7 83.1 84.5 88 92.8 96.7 104.9 110.6 112.5 112.8 112.4 114.2 120 124.9 130 134.8 138.2 145 151.7 157.6 163.3 167.9 171 175.1 178.5 181 183.6 185.1 186.4 187.7 188 188.1 185.3 180.5 174.4 168.5 162.3 157.1 150 142.9 139.4 138.2
66.9 65.7 64.9 64.6 64.6 65.5 66.5 67.1 68.5 69.4 70.1 70.8 70.5 68.7 66.9 64.7 63.7 63 61.9 61 63.3 62.7 61.7 62 62.5 62.5 62.7 62.5 62.8 64.1 66.2 67.7 68 65.8 65 68.1 77.4 85.9 94.7 103.4 112.7 121.6 127 131.1 134.1 138.2 140.7 143.9 145.8 146.7 152.1 152.9 149.1 142.9 134.4 123.9 119 116 112 108.2 103.5 98.5 92.8 85.3 79.1 72.4 69.7 68.4 65.9 66.3 67.2 71.3 71.6 72.7 73 73.6 74.1 74.2 74.5 74.6 73.9 73.4 73.4 72.5 71.7 70.4 68.2 66.6 67.2 65.7 54.1 46.7 46.8 47.2 47.4 45.8 46.2 46.4 46.4 45.2 46.4 44.1 47.1 45.8 45.8 45.7 45.5 45.4 45.9 46.1 45.5 45.9 46 46 45.9 45.9 46 45.7 45.3 45.5 45.8 46.2 46 41.8 43.6 45.7 45.5 45.4 45.3 45.1 45 44.9 44.9 44.8 45 44.9 43.6 43.1 63 86.8 101.2 109 118.8 129.4 124.8 112.5 110.8 103.6 95.7 90.4 85.6 81.8 78.8 76.1 73.3 74 76.1 77.8 79.5 81.9 84.3 87.2 90.7 96.5 102.4 107.4 108.6 110.8 111.8 114.3 120.5 126.3 129.9 135.1 140.7 147.3 153.9 159.6 164.9 169.4 172.8 176.4 179.6 182.2 184.9 186.7 188.3 189.4 188.4 186.9 184.7 182.5 177.4 170.9 164.3 160 154.2 148.5 145.4 143.3
66.8 66 65 64.9 65.4 66.8 67.6 68.2 69.9 69.3 69.2 69.1 67.9 66.9 65.5 63.3 62.9 61.9 61.7 62.9 61.7 61.8 62 63.4 63.8 63.9 64.3 64.5 64.3 64.7 66.7 68.2 69.3 67.2 65.7 70.8 79.9 89.2 97.7 106.7 119.1 130.5 137.9 140.7 143.7 146.9 149.2 151.6 153.3 154 155.3 154.3 149 142.8 134.6 126.5 118.4 108 103.4 103.9 99.8 93.4 86.3 80.8 74.2 71.5 69.1 67.4 66 66.3 67.9 72.2 73 71.7 72.4 72.7 73.4 73.7 74.1 74.2 73.4 72.4 73.1 72.5 72.1 71.6 70.7 69.6 69.4 69.8 54.5 46.8 46.9 47.1 46.9 45.6 46.1 46.2 46.1 45.8 45 42.6 46.5 46 45.9 45.8 45.6 46 46.3 46 45.6 45.9 46 45.9 45.8 45.8 45.9 45.8 45.4 45.7 45.9 45.9 41.8 44.5 45.8 45.6 45.4 45.3 45.2 45.1 44.9 44.9 44.8 44.7 44.6 44.7 41.4 49.9 67.2 91.3 110.4 119.7 123.8 125.5 125.8 113.5 110.5 103.6 95.4 90.5 86.4 82.5 79.9 77.3 75.1 74.2 75.8 77.7 79.5 81.8 84.3 87.7 90.8 96.6 104.4 108 110.4 112.7 112.4 115.8 122.1 127.1 130.4 136.6 142.6 149.5 155.1 160.4 165.6 170.5 174.5 177.9 180.8 183.5 186.1 187.9 188.7 188.2 186.9 184.4 182.3 179.4 175.6 170 165.3 161.9 157.3 153.5 149.9 151.7
66.8 66.1 65.5 65.5 66 67.9 68.6 69.1 70.3 68.9 68.6 67.7 66.3 65.9 65.8 64.8 64.4 63.2 62.8 62.1 62.2 63.3 63.6 65 65 65.4 65.5 66.4 66.2 66.5 68.8 70.3 70.3 68.1 66.2 72.2 81.1 90 97.5 110 123.2 136.9 146.4 148.5 151.3 154.2 156 158.8 161 160.6 158.7 154.7 149.1 141.7 133.1 124.7 116.7 109 97.8 96.1 98 91.2 83.5 75.5 72.4 70.1 68 66.6 65.4 66.3 68.5 72.4 73.1 71.5 71.2 72.2 72.8 72.1 72.6 73.1 73.2 71.9 72.7 72.4 72.2 70.8 68.7 68.4 68.7 69.6 53.5 46.5 46.1 45.9 45.6 47.9 45.9 45.8 45.6 45.5 45.9 42.6 46.6 47.1 46.2 45.9 45.7 46.5 46.2 45.8 46 45.8 45.9 45.8 45.7 45.7 45.8 45.7 45.5 45.8 45.7 41.6 42.5 46 45.8 45.5 45.3 45.2 45.1 45 44.9 44.8 45.9 45.7 46 44.8 41.4 55.8 74.1 99.2 126.7 134.4 134.2 133.1 128.7 114.5 109.7 104.8 97.7 91.5 86.5 82.6 79.1 76.5 75.4 75.2 76.1 77.7 79.7 81.5 85.2 88.9 92.1 97.8 104 110 112.2 113.7 114.4 118.4 123.9 127.6 132.2 136.8 144.1 150.5 155.8 161.1 166.5 171.5 174.6 178 180.9 183.6 185.1 185.1 184.8 185 184 181.9 178.8 175.8 172.8 169.7 165.2 162.2 158.8 156.5 154.2 156.5
66.3 65.9 66.9 66.4 66.6 68.2 69.1 69.5 69.3 67.8 67.3 66.4 64.7 63.7 62.8 63 63.8 64.1 62.8 62.2 63.3 64.4 65.3 65.9 66.8 66.7 66.9 68.3 68.4 70.7 71.9 71.5 70.6 67.8 66.5 72.4 80.7 90.8 101.1 111.8 124.9 139.7 152.5 156.3 158.9 161.3 163.3 164.7 165.6 165.8 161.6 155.2 146.8 135 123.6 114.2 106.6 100.2 93.9 89.7 91.8 89.1 81.1 74.5 71.1 68.8 67.1 65.7 64.7 65.1 68 71.5 73.4 71.5 71.4 71.5 70.6 69.5 69.2 70.1 70.4 69.5 70.8 71.6 71.3 68.9 66.9 64.5 64.4 65.2 54.7 46.4 46.2 45.9 45.7 45.9 45.6 45.5 45.5 45.5 45.7 42.6 46.5 47.3 46.2 46 46.7 46.3 46 45.6 46.3 45.8 45.8 45.8 45.6 45.6 45.7 45.6 45.9 45.2 43.2 43.6 45.1 45.8 45.7 45.5 45.2 45.1 45 44.9 45.4 45.5 44.6 44.8 44.9 41.5 47.4 61.8 82.6 103.8 130 143 146.4 140.7 132.5 116.6 112.6 105 97.6 92 86.9 83.4 80.4 77.9 76.9 76.2 76.7 78 80.1 82.9 86.8 90.4 95.6 101.5 109 112.4 111.6 113.4 116 120.9 126.1 129.5 134.3 139.1 146.8 152.3 157 162.2 167.4 172.6 174.7 177.7 180.4 182.4 182.2 181.9 181.6 181.6 180.3 178.9 175.8 172.6 169.4 167.1 165.2 162.7 161.2 159.2 156.5 159.6
66.7 67.3 68.3 68.4 67 68 68.5 68.8 68.2 67.2 66.1 65.1 64.2 63.3 63.1 63.3 63.6 63.8 63.7 63.3 64.3 65.5 66.5 67.1 68.7 68.4 68.4 69.8 72.4 74.8 76.1 74.7 70.1 66.7 67.9 73.2 81 91.6 103 112.9 126.4 141.4 154.4 164.1 165.7 167.5 168.5 169.2 170.4 168.1 163.6 155 143.5 129.6 117.8 110 102.6 96.1 89.3 83.8 81.7 82.8 76.6 73.2 69.7 67.9 66.1 64.7 63.8 64.9 66.8 71.8 73.2 71.7 70.6 69.5 68.6 67 65.8 64 64.5 63.1 65.1 69.1 70.3 67.9 63.3 59.6 58 58 53.3 47 46.6 46.3 46.1 45.5 45.5 45.6 45.7 45.8 45.9 42.7 46.3 46.3 46.6 46.2 46.4 46.1 45.7 45.7 46.2 46 45.7 45.7 45.5 45.5 45.7 46.6 44.8 42.1 43.8 45.2 45.4 44.8 45.4 45.3 45.1 45.2 45.5 45.4 45.1 44.8 44.7 44.5 45.1 41.4 48.6 66.8 86.3 112 130.9 147.1 155.2 143.2 131.6 118.3 113.5 105.6 97.9 92.4 87.5 84.1 81.4 79.3 78.3 77.5 77 78.6 81.3 84.3 87.6 91.7 95.7 102.6 111.7 115.5 115 115.4 118.3 123.5 128.6 132.8 137.4 143.6 149.5 154.2 158.8 163.5 168.6 172.9 175.1 176.7 176.9 178.5 178.5 178.4 178.4 178.1 176.7 175.4 172.8 170.7 168.7 166.6 165.1 163 161.7 161.2 160.6 161.9
67.6 68.8 69.7 70.1 68.2 67.8 68.3 68.5 66.6 65.9 65.2 64.6 63.8 63.1 63.4 63.6 63.9 64.2 65.2 66.1 65.8 66.5 67.6 68.6 70.3 70.3 70.5 72.8 76.3 79.8 78.6 74.6 69.2 67.3 70.9 74.5 81.2 91.1 101.1 112.2 124.4 142.2 156.5 168.1 173.2 174.6 176 174.9 175.6 170.8 164.3 154.5 142.6 132 123 114.3 107.4 100.5 92.7 85.5 78.6 76.5 74 71.4 68.7 67 65.3 64.2 63.7 63.6 66.1 71.9 73.5 72.8 71.7 71.1 70.9 69.7 68.5 66.6 62.6 61.3 59.6 61 64.2 65.9 62.8 57.7 54.6 52.7 48.3 47.5 47.2 46.8 46.5 46.1 47.3 45.6 45.7 45.8 45.9 42.6 46.9 46.4 46.6 46.2 46.1 45.9 45.8 45.8 45.8 47.4 45.6 44.7 45.4 46 45.6 42.9 42.6 45.5 45.1 45 45 45.1 45.2 45.1 45.7 45.5 45.9 45.7 45.4 45.1 44.8 44.7 44.5 41.4 49.1 65.8 85.2 108.3 126.4 144.1 152 143.4 124.6 117.2 112.3 104.4 97.4 92.2 88.6 85.2 82.9 81 79.7 78.8 78.2 79.7 82.2 85.1 88.4 91.6 96.9 104.3 113.2 115.9 115.7 116.7 119.1 125.6 130.3 134.7 139.4 146.2 152.1 157.2 161.7 166.1 170.1 172.7 173.2 174.3 174.8 174.9 174.9 175 175 175.2 174.6 173.2 171.7 170 168.1 166.4 164.9 163.2 161.9 161.6 161.9 163.6
68.8 70.9 71.9 71 69.4 68.3 68.8 67.8 66.1 65.2 64.2 64.1 63.3 63.5 63.7 64 64.2 65.3 66.5 68 68.8 68.4 68.7 69.6 72.3 74.3 74 76 79.9 82.7 78.9 72.6 67.9 69.6 71.9 76.3 81.1 89.3 99.5 112 125.3 138.6 155.9 169.3 176.8 180.3 180.6 179.7 177.2 172.4 163.2 152.2 141.7 132 122.7 113.6 105.9 98.6 93 86.1 78.5 75.5 73.3 70.5 67.9 66.2 64.3 63.5 63.4 63.1 66.1 72.3 73.5 72.8 72.2 71.8 71.8 72.2 72.2 70.1 67.4 63.1 59 57.4 58.7 59.9 59.5 54.8 50.9 49.1 50.2 52.9 48.2 48.3 47.1 46.8 46 45.7 45.8 45.9 46 42.8 47.1 46.6 46.2 46.1 47.3 46 46 47.2 46.1 45.9 46 45.9 45.5 42.6 42.4 43.4 46 45.8 45.1 45.1 45.1 45.1 45.2 45.5 45 44.9 45.1 45.7 45.5 45.3 45 44.8 45.1 41.4 49.2 61.6 81.2 98.3 120.3 136.4 140.2 138.2 128.4 115.6 110.7 103.2 98.1 93.4 89.8 86.6 84.7 82.8 81.4 80 80 80.5 82.7 85.7 89.3 94.5 100.7 107.2 114 117 115.9 117.3 120.2 125.3 130.5 135.4 141.2 148.2 154.8 160 164.6 168.4 170.1 171.2 171.5 171.2 171.5 171.5 171.7 171.9 171.9 172.1 172.8 171.9 170.4 168.7 166.8 165.1 163.6 162.2 161.5 161.5 162.9 165.1
70 71.6 72.7 72.1 69.2 68.6 68.5 67.2 65.6 64.6 64.3 63.8 63.5 63.8 64 64.3 65.5 66.7 68 69.4 70.9 71.6 71.3 73.2 76.7 79.8 82.4 81 84 83.2 76.3 71 69.1 69.9 72.8 76.9 81 87.2 97.8 109.6 123.4 134.8 149.7 164.4 176.9 182.2 178.5 172.6 167.5 162.8 157 148.2 138.3 129.1 119.1 111.4 103.7 96.2 91.4 84.9 77.5 75.6 72 69.5 67.1 65.2 63.7 62.9 62.1 62.5 66.2 72.1 73.6 73 72.3 71.7 71.8 72.7 72.5 71.9 69.4 61.1 59.4 56.5 54.5 53.6 53.1 49.4 49 51.4 53.4 57.1 61.8 63.9 59 48.1 46.3 45.9 45.7 45.7 45.7 42.6 47 46.6 46.3 46.1 46 45.9 47 46 46.1 46.4 46.2 43 42.4 45.7 45.9 45.9 45.9 46.2 45.2 45.2 45.2 45.1 46 45.6 45 45 44.9 44.9 45.3 45.2 45 44.8 43.8 44.1 47.6 58.2 72.8 92.2 112.9 128.2 127.6 128.1 129.2 123.7 113.3 106.8 100.9 95.3 90.6 88 86.2 84.6 83.7 82.9 82.2 81.6 83 86.1 91 97.7 104.4 111.2 117.3 117.1 115.1 117.1 121.6 126.8 132.1 137.5 143.9 149.9 156.2 162.5 166.6 167.5 168.4 169.2 169.4 168.8 168.2 168.1 168.1 168.4 168.8 169 170.5 170 168.4 166.1 164.6 162.9 161.1 160.2 160.2 161.3 164 165.6
72.3 73.1 72.9 71.9 69.1 67.8 67.3 65.8 65 64.6 64.7 64.3 64 64.2 64.4 65.5 66.5 67.8 69.8 71.9 73.9 76.2 75.9 76.8 80.6 87.3 93.8 90.6 84.9 80.4 73.9 70.8 70.3 70.8 73.2 75.6 80.1 86.3 96.3 107 119.1 131 142.6 155.8 169.5 173.2 167.4 158.1 154.1 149.4 145.6 140.3 133.2 123.8 114.4 107.5 99.7 92.8 88.4 83.5 78.5 74.2 70.9 68.6 66.7 64.3 63.1 62.3 61.6 62.1 65.4 70.6 73.4 73.1 71.8 69.3 70.3 71 71.2 69.8 61 60.4 56.8 54.1 50.9 51.1 52.9 52.2 55.5 58.2 59.4 60.9 66.3 68.6 69.8 69.9 57.1 53 46.4 46.3 45.7 42.7 47 46.7 46.5 46.2 46.1 46.1 46.7 46.4 46.2 46.4 42.4 42.4 48.2 46.6 46.1 46.1 45.8 46.2 45.6 45.3 45.2 45.8 45.9 45.6 45.1 45 45 44.9 44.8 44.9 45 44.8 41.4 44.9 45.9 56 69.8 86.4 108.7 124.3 113.6 114.7 131.5 133.7 120.6 109.6 104.6 97.9 93.8 91.6 89.4 88.3 87.2 85.4 83.8 83 84.4 88.4 93.1 97.9 104.7 111.2 116.7 115.6 114.2 119.3 125.3 130.1 134.1 139.6 146 153 159.4 164 165.8 166.7 167.4 168.1 166.8 165.8 164.5 164.1 164.7 164.8 165.1 165.3 167.4 168.3 166 163.4 162.4 160.8 158.7 156.9 158.9 162.1 164.3 165.5
74.5 73.5 71.8 70.1 68.3 68.3 66.9 65.7 64.9 65.1 65 64.8 64.6 64.7 65.5 66.3 67.6 69.6 71.7 74.6 78 81.7 81.7 81.2 87 94.3 96.6 91.9 87.8 79.2 72.9 70.9 71.7 72.5 72.7 76.1 80.1 85.5 93.9 104.2 116.4 127.2 137.7 149 155.5 155.9 151.8 143.7 140.9 136.2 132.7 128 123.4 117.3 109.6 103 95.8 89.3 83.7 79.9 76.4 74 71.4 68.6 66.2 64.3 62.7 61.9 60.8 60.8 65.4 70.6 73.2 72.4 68.7 64.9 64.6 65.5 64.5 61.6 59.8 58.5 52.2 52.1 50.8 52.4 54.9 56.4 61 65.2 66.8 65.6 67.5 69.9 70.3 70.5 69.9 59.8 50.6 45 44.7 43 46.6 46.8 46.7 46.4 46.3 46.3 46.5 46.5 46.4 42.9 42.5 52.8 54.9 56.5 52.1 46.5 45.8 46.1 46.5 45.4 45.7 45.6 45.8 45.7 45.1 45.1 45 44.9 44.9 44.8 44.7 44.7 41.4 45.4 45.5 52.3 64 80.9 104.1 109.1 101.3 99.1 122.7 135.7 129.1 115.2 109 102.5 97.8 95.1 92.4 91.9 91 89.2 87 85.8 85.8 89.6 94.3 97.5 103.4 109.1 114.2 118.2 115.2 123.1 128.9 133.1 137 142.9 149 155 160.9 163.5 165.1 165.9 166.6 166.3 165.2 163.3 161.2 159.8 160.1 160.8 162 163 164.1 165 163 161.1 159.4 157.2 153.3 153.4 159.8 162.2 163.5 163.8
75.2 74.1 72.2 70.5 69.1 68.1 66.7 65.5 65.4 65.6 65.4 65.3 65.1 65.8 66.6 67.7 69.4 71.1 73.3 76.7 80.2 86 85.1 86.1 93.3 100 96.2 90.7 86 78.6 72.4 71.5 73.1 75.5 76.5 75.7 79.5 84.4 91 100.7 112.4 122.9 133.7 139.8 142.8 140.7 136.8 132 128.2 123.8 119.8 116.6 112.9 109.1 103.8 97.7 91.6 85.1 80.6 76.8 74.6 72.1 69.7 67.4 66.3 64.7 63 61.6 60.5 60 62.4 68 71.7 69 64.6 61.6 59.7 58.8 58.4 58.4 58.5 52.7 52.3 51.5 53.2 55.4 57.6 61.3 66.2 68.2 69.6 69.2 69.6 69.9 70.3 70.6 70.2 69 60.6 48.4 43.4 42.6 45 45.5 45.9 46.3 46.4 46 46.2 46.2 42.7 46.6 66 61.3 61.4 63.1 62.6 58 47.4 45.9 46.7 45.4 45.4 45.3 45.6 45.7 45.2 45.1 45.1 45 44.9 44.9 44.8 44.8 41.5 45.3 45 49 60 72.1 84.6 85.1 88.3 95.7 113.3 131 136.6 125.6 114.6 107.3 102 98.4 97.2 95.8 94.8 92.2 89.6 87.9 88.2 90.5 94.1 97.3 101.2 106.8 111.6 115.6 121.3 126.7 129.6 136.1 140.3 145.1 150.6 154.9 159.4 163 164.3 165.1 165.5 164.5 163.5 161.5 158.8 156.7 155.6 156.8 158.2 157 156.8 157.5 153.9 151.9 150.9 150.2 148.5 156.1 159.7 161.8 162.1 162.4
75.9 75.4 73.2 71.4 69.6 67.6 66.4 65.2 65.3 65.8 65.6 65.5 66.3 67.1 68 70 72 73.6 74.6 78.4 83.1 89.9 92.7 92.9 99.7 99.5 93.5 88.1 84.6 77.6 72.8 72.5 78.3 81.3 79.7 79.4 78.9 82.9 88.1 97.1 108.9 117.3 124.4 128.8 129.8 127.9 123.6 119.8 116.6 112.9 108.8 106.2 103.5 101.3 96.8 91.5 86.9 81.4 77.8 75.4 72.8 70.2 68.5 67.6 66.4 65 63.2 61.8 60.5 59.5 59.1 64.1 65 63.6 60.9 57.9 56.6 55.7 55.8 53.2 53.1 53.2 53.6 53.8 54.9 57.5 61.5 66.3 69.1 71 70.8 69.7 70.1 69.5 70.1 70.3 70.2 69 67.4 58.6 48 42.6 46.1 44.7 45.1 45.2 45.3 45 42.7 42.8 53.3 68.2 67.8 64.2 65.1 67.4 66.8 63.6 55.9 47.3 45.8 45.8 45.1 45.2 45.5 45.8 45.3 45.2 45.1 45.1 45 44.9 44.9 44.8 41.7 45.2 44.8 45.1 55.3 64 71.8 81.2 92.1 103.4 107.6 115.2 122.8 134.2 124.1 114 107.5 104 101.9 100.2 98.1 94 92.2 90.3 89.3 89.9 93.2 96.8 100.4 104.5 108.9 109 119.1 125.6 129.5 135.9 140.5 145 148.9 153.1 157.3 161.5 163.5 164.3 163.7 162.7 161.6 159.8 156.8 153.5 150.9 152.5 151.8 150 149 149.2 145.8 141.8 140.8 140.7 149.5 156.3 159.7 161.2 161.4 161.5
76.8 76.3 74.4 71.9 69.1 67.2 66.4 65.9 65.7 65.8 65.9 66 67.6 68.5 70.3 72.4 74.3 76.2 78 80.5 86.3 93.4 101 104.3 103.1 95.1 90.4 86.6 81.5 76.6 72 77 83.3 86.8 84.2 81.1 79.6 82.2 87.8 95.1 103.8 111.5 115.4 116.1 116.2 115.7 113.8 111.5 108.6 104.1 101.5 98.5 96.4 93.5 90.2 86.1 82.1 77.6 74.5 73.4 70.7 68.6 67.3 66.3 65.2 64.1 63.1 61.9 60.5 59.4 58.5 58.7 59 58.5 57.2 55.6 55.6 55.8 54.8 55.1 55.9 55.6 58.1 59.1 56.9 59.4 63.8 68.5 70.9 72.4 71.2 70.1 70.4 69.4 69.8 69.7 69.3 66.5 62.7 59 57.2 46.1 42.6 44.3 43.8 44.8 42.7 42.5 42.9 53.5 69.3 68.7 67.2 65.7 67.4 69.1 69 67 61 54.3 48.8 46.3 45.4 45 45.4 45.7 45.3 45.2 45.2 45.1 45.1 45 44.9 44.6 40.9 45.1 44.7 44.5 52.5 62.8 73.9 86.1 101.8 110.4 106.2 105.1 114.9 133.6 130 123.5 115.8 110.7 108.8 104.7 101 97.5 94.6 91.5 88.5 88.4 94.3 95.6 98.4 98.7 98.3 100.5 112.6 124.2 129.5 134.3 139.3 142.6 146.4 150.6 154.8 159.1 162.1 162.8 161.5 160.4 159.3 157.7 154 147.8 146.5 147.1 145.4 143.7 141.8 141.2 137.2 132.6 139.3 147.5 153.7 158 159.3 160.5 160.7 160.9
74.8 73.5 72.4 69.6 69.4 67.8 67.1 66.6 66.6 66.6 66.4 66.5 68.9 70.6 72.7 74.8 76.7 78.6 80.8 84.8 91.9 99.8 105 104.9 100.5 92.6 87.7 84 78.7 74 76.2 81 87.7 92.5 90.3 83.5 81.8 83.9 89.7 96.6 103 106 105.5 105.6 104.9 105.2 105 103.7 100.1 98.4 94.8 93.6 92.1 86.7 83.8 80.2 77.3 74.6 72.1 71.1 68.7 67.2 65.7 64.4 63.4 62.3 61.6 60.6 60 58.6 57.8 57.1 56.9 56.4 55.6 54.8 55.8 56.3 58.7 59.7 60.8 62.3 63.8 64.1 60.7 59.8 65 68.9 71.5 72.1 71.6 70.6 70.3 69.3 69.3 68.5 64.7 61.1 57.9 56.4 54.4 56.8 47.7 44.5 42.7 43 46 54.9 64.9 69.6 69.4 68.9 68.2 67.3 68.3 69.8 69.4 68.1 63.8 60.2 59 55.3 49.9 45.6 45.2 45.6 45.4 45.3 45.2 45.2 45.1 45 44.9 44.4 41 45.7 45.4 45.1 47.3 60.4 73.8 96.8 118.1 113.9 102.2 98.4 108 121.6 130.2 130.4 124.8 118.2 113.3 109 105.5 101.9 97.2 92.5 89.1 86.4 86.7 88 91.6 91.9 91.5 95 107 118.2 126.7 130.1 135.4 140.2 144 148.1 152.3 156.9 161.1 161 159.2 158.1 156.8 154.8 149.4 143.2 142.2 140.9 139.3 137.6 135.9 133.5 128.3 130.7 144.8 151.3 157.9 158.8 158.9 159.9 160 159.5
75.2 73.9 70.4 68.7 68.7 68.4 67.8 67.6 67.4 67.5 67.4 67.3 69.6 72.5 75.1 77.2 79.1 81.3 84.4 91.7 101 105.7 106 101.6 96 90.1 86.7 79.6 75.5 76.7 81 86.1 93.2 97.9 95.9 88.4 84.5 87.5 93.3 99.9 102.4 102.9 100 97.8 97.2 98 97.8 97 94.9 91.9 87.8 87 87.4 80.7 79.6 77.4 74.7 72.1 69.9 68.8 67.3 65.8 64.3 62.8 61.6 60.8 60.1 59.2 58.3 57.4 56.9 56.7 56 55.9 56.2 56.9 57.5 60.5 63.8 67.6 68.2 69.2 69.2 66.2 62.2 64.5 65.5 69.5 71.7 71.7 71.6 71.1 70.2 69.3 67.6 64 61.1 62 64.4 60.9 55.3 51.8 58.4 61.9 68.7 68.9 69.9 69.7 69.8 69.4 69.7 69.7 69.5 69 69.5 70.2 69.9 68.1 67.5 65.2 63 59 52.5 45.4 45.4 45.4 45.4 45.4 45.2 45.1 45 44.9 44.4 45 40.9 45.2 45 44.8 44.7 58.5 70.1 90.5 103.4 102.6 96.7 93.3 101.8 112.2 126.9 129.2 125.9 122.3 118.1 113.8 109.5 104.7 99.4 94.1 89.4 86 83.9 85.4 85.9 86.8 87.5 91.2 102.5 113 123 124.3 130.3 137.4 141.5 145.9 150.8 156 160.8 160.9 158.1 155.8 154.1 151.4 144.7 137.7 135.9 134.6 133 131.4 129.5 127 125.3 134.7 148 152.2 156.4 158 157.7 157.9 157.2 156.5
72 71.1 70.1 69.3 68.9 69 69.5 69.1 68.1 68 68 68.4 70.3 73.5 76.2 79 82.5 87.3 93.7 100.9 106.6 108.6 105.9 99.8 91.3 84.8 81.8 77.6 75.3 81.9 87.2 91.1 97.8 102.1 102.7 92.8 88.8 91.2 95.9 102 101 100.2 97.2 95.2 93.4 91.9 91.2 90 90.1 87.2 83.8 82 79.1 77.2 75.7 73.8 71.9 70.5 68.4 67.7 66.4 64.9 63.3 61.7 60.3 59.6 58.7 58.1 57.6 57.2 57.1 56.9 58.2 59.7 59.5 59.7 60.6 64.9 70 72.3 72.3 72.4 70.9 66.5 66 69.6 70 69.7 71.4 71.3 71.2 71.1 70.6 69.1 66.4 65.1 66.4 66.8 66.8 61.7 55.1 50.7 63.5 69.6 70.1 69.8 69.8 69.9 69.9 69.9 69.8 69.8 69.7 69.6 69.8 70 69.9 69.4 67.8 65.1 60.6 56.3 48.8 46.3 45.3 45.4 45.3 45.3 45.2 45.1 45 44.9 44.6 42.2 41.4 45.1 44.9 44.7 44.5 55.7 64.7 71.5 80.3 83.2 86.8 91.2 100.6 113.1 124.2 134.6 130.6 125.9 121.1 116.3 111.6 106.5 101.2 96 91 86.7 83.3 81.7 81.8 83.1 84.1 87.3 96.1 106.2 116.4 123.5 127.9 133.9 139.1 144.6 149.7 154.9 159 159.4 157 153.5 150.2 147 140.2 133 129.3 127.3 126.8 125.2 123.9 122.4 123.5 136.4 148.4 151.3 154.3 156.4 156.9 156.9 155.7 155.1
72.1 72.9 73.8 72.5 71.4 71.1 71.4 70.5 69.4 68.4 67.9 70.1 71.7 74.6 77.7 82.5 89.6 97.8 105 108.9 110.1 109.4 105.7 100.4 92.6 85.8 79.7 76.5 78.7 85.9 93.1 96.8 101.9 106.1 107.7 98.6 91.7 94 99.7 103.4 100.7 99 99.2 99.7 96.4 92.5 89.3 88.1 83.8 82.3 80.2 77.9 76.4 74.5 73.1 71.5 70.4 69 67 66.3 65.6 64.1 62.7 61.3 59.9 59.1 58.7 58.3 57.8 57.4 57.4 57.3 59.5 62.9 66.4 65 64 67.6 72.4 73.6 73.6 72.7 70.3 69.4 69.8 72.4 72.9 71.9 71 71.1 71 70.6 69.4 68.2 67.7 69 69 68.5 67.3 60.4 54.4 55.8 66.3 63.3 70.1 69.9 69.8 69.9 69.7 69.7 69.6 69.6 69.6 69.5 69.3 69.4 69.6 69.1 67.4 63.7 58.2 52.4 46.6 45.3 45.1 45.2 45.3 45.2 44.5 44.6 44.7 45.1 45.3 40.9 45.1 45 44.8 44.6 44.4 52.4 62.2 67.3 74.2 80.3 86.4 98.2 110.4 127.5 140.1 139.2 148.4 132.5 126.1 121.2 116.4 111 102.8 96.5 91.6 87.3 83.7 81 79.5 79.6 80.6 84.7 89.6 99.3 109.6 118.5 124.6 126.5 136.2 141.8 147.1 152.7 155.6 155.3 153.2 150.7 147.9 143.3 133.7 125.7 125.1 122.4 120.4 117.7 117.6 117.8 124.9 138.8 148.2 150.6 152.6 154.6 154.8 154.9 153.5 151.9
73.4 74.6 75.9 76.8 76.2 73.9 72.7 71.2 69.6 68.8 68.3 71.5 73.9 77.3 81.6 88.2 97.3 106.7 113.2 113.4 112 109.6 107.2 104 96.3 87.7 78.8 76.7 79.6 86.6 96 100.5 104.8 108.3 108.6 101.6 96.6 97.5 103.5 103.8 103 104.2 103.2 104.3 101.1 97.2 92.6 90.7 87.4 86.6 82.7 77.4 75.6 73.3 71.1 69.9 68.9 67.3 65.7 65.1 64.5 63.8 62.6 61.2 59.9 59.2 58.8 58.4 58 57.6 57.7 58.7 61 66.1 70.5 69.4 67.1 69.7 73.5 73.9 73.4 72.4 71.1 72.1 73.2 73.7 73.5 73.1 71.8 70.7 70.5 69.5 68.7 69.3 69.9 70.2 69.4 67 66.8 60.1 51.7 59.4 67.7 70.1 66.6 69.9 69.8 69.7 69.6 69.5 69.5 69.4 69.4 69.3 69 68.9 68.1 67.1 64.2 58.4 54.8 48.8 45.8 44.8 44.9 45.1 45.2 45.3 44.3 44.1 44.3 44.3 44.6 40.9 45.5 44.9 44.6 44.4 44.9 49.2 63.6 71 79.6 86.5 96.2 107.9 124.6 141.4 149.8 142.8 146.1 146.5 137.3 128.1 120.9 115.7 105.2 97.4 94.8 89.9 84.6 81.2 78.7 77.7 78.5 80.4 83.8 90.7 100.3 108.1 114.2 127.1 133.8 138.8 144.2 149.7 150.4 149.9 148.9 147.8 144.6 136.7 127.1 121.6 120.9 118.7 116.3 114 111.7 116.8 127.7 140.9 148.6 150.1 151.4 152.6 152.8 152.2 151.1 149.4
74 75.1 76.1 77.8 77.8 75.2 73.6 71.7 69.7 69 70.3 73.7 76.8 80.5 86 95.5 104.9 112.3 117.1 116.5 113.7 111.1 107 100.9 92.6 83.4 77.6 79.2 80.4 87 94.8 101.2 105.9 110.4 111.3 106.4 103 104.6 108.1 106 105.5 106.5 106.1 106.4 103.2 98.4 94.8 91.5 88.6 86.3 82.5 78 73.6 71.6 71.1 68.6 67.7 66.2 64.7 64.1 63.5 62.8 62 61.2 59.8 59.3 58.9 58.5 58.2 57.9 58 58.8 61.5 67.4 71.5 70.5 69.3 70.9 73.9 73.8 73.1 73.2 73.3 74.1 74.2 74.1 73.8 73.3 72.5 71.6 70.2 69.3 69.9 70.5 71.1 70.7 69.7 66.6 62.5 57.7 53.8 63.7 69.5 70.4 70.4 68.9 69.5 69.6 69.5 69.4 69.3 69.3 69.2 69.2 68.9 68.5 66.2 63.8 59.4 55.7 52 47.1 45.3 44.8 44.9 45 45.1 45.2 44.9 44 43.9 44.6 40.9 43.8 45.1 44.8 44.5 44.2 44.1 44.5 64.6 91.9 112.5 116.5 117.6 128.8 135.1 139.2 137.9 137.5 143.2 149.3 140.1 130.8 122.5 121.3 110.8 103.5 97.5 92.2 87 83.6 80.4 76.2 76 76.9 79.4 83.3 90.8 97.6 108.9 120.3 127.2 134.1 140.3 144 145.3 145.2 144.1 142.9 139.5 131.3 120.4 118.4 116.4 114.7 111.6 107.6 111.7 118.2 130.2 142.9 148.7 149.9 151.1 150.6 149.7 149.2 147.6 146.3
74.8 75 76 77.4 77.5 74.9 73.5 71.6 69.7 70.2 72.5 75.8 79.4 83.5 91.3 102.5 110.9 116.8 119 117.2 112.4 109.7 102.8 94.4 85.8 79.6 80.3 83.6 83.9 85 91.7 98.9 105.8 111.7 116.1 117.8 115.7 114.6 111.1 109 108.1 107.9 108.7 107.1 103.1 98.4 93.6 91.4 88.7 81.7 78.6 75.3 72.4 70.7 69.9 68.8 66.5 65.3 63.9 63 62.4 61.7 61 60.2 59.9 59.5 59.2 58.9 58.5 58.3 58.3 59.2 61.1 64.9 69.3 71.5 71.1 72.2 74 73.5 73.4 73.2 74.4 74.5 74.6 74.5 74.1 73.3 72.5 71.7 70.9 70.5 71 71.6 71.5 71 69.9 66.5 60.2 56.6 58.2 65.9 70.2 70.3 70.4 67.3 67.1 69.5 69.4 69.2 69.1 69.1 69 69 68.7 67.6 66.3 62.5 57.6 54.4 50.8 46.4 45.7 44.8 44.8 44.9 45 45.1 44.6 44.1 44.5 43.5 41.3 44.9 44.8 44.5 44.2 44 44.5 44.5 61.1 79.7 104.1 120.2 130.6 132.9 134.7 130.1 123.8 134.8 147.8 148.6 140.7 132.3 126.3 128.2 121.1 108.9 100 95.1 90.5 85.5 84 78 74.2 74.2 75.7 78.2 82.2 88.8 99 109 119.9 128.4 134.2 137.1 139.5 140.2 139.2 137.7 136 128.5 117.8 113.8 111 107.3 105 104.5 110.7 122.7 134.8 146.5 148.4 149.5 149.8 147.7 146.3 145.5 144.1 143.6
76.3 76.4 76.6 75.9 76.2 74 72.5 71.3 70.2 72.1 75 78 82.7 88.5 97.5 108.2 115.3 119.4 119.2 114.9 110.7 104.2 97.4 88.4 83.7 79.1 85.7 88.5 87.9 85.2 90.3 97.5 104.4 111.6 119.4 124.8 122.3 117.7 114.8 112.8 111.4 111 110.7 109.5 104.8 98.3 93.2 88 83.3 77.8 75.8 73.6 71.5 69.9 68.9 67.8 66.7 64.4 63.1 62.1 61.5 61 60.9 60.7 60.5 59.9 59.5 59.2 58.9 58.7 58.7 59.4 60.6 63 66.8 69.1 71.2 72.7 74.2 74 73.9 73.6 74.7 74.8 74.9 74.8 74.1 73.3 72.6 71.8 70.9 71.4 71.6 71.8 71.4 70.8 68.8 64.4 58.6 54.5 60.2 67.3 69.5 69.7 69.8 70 65.5 68.4 69.3 69.1 69 68.9 68.9 68.9 68 66.1 65.9 61.3 56.1 52.8 49.6 46 44.9 44.8 44.9 44.9 45 44.8 44.3 44.1 43.6 40.9 45.2 44.8 44.5 44.1 43.9 43.7 44 44.1 54.8 69.1 91.2 111 118.8 120 119.3 114.2 122 137.4 151.6 156 140.7 133.6 128.2 124.9 129.5 118 108.4 99.4 93 86.7 82.8 78.6 73.7 72.3 73.3 74.7 77.1 81.2 88.7 100.3 109.6 120.6 126.6 129 132.9 135.1 133.7 132 130.5 125.9 117.1 109.2 104.7 103 102.2 104.5 112.3 127.4 139.1 145.2 147.7 148.5 147.7 145.4 142.8 141.7 140.7 141.1
77.1 76.6 75.6 74.6 73.6 73.1 71.6 70.9 72 74 78.2 82.4 85 92.6 103.1 112.1 117.2 120.1 118.4 114.2 108.8 101.6 95.1 86.9 81.5 80.1 88.2 92.6 90.5 88.8 91.5 97.9 106.4 113.2 120.4 124.6 120.8 117.6 115.4 115.1 112.5 113 111.8 109 104.3 97.8 91.9 84.9 80.2 76.5 74.3 71.7 69.5 69 68 66.5 65.5 64.5 63.2 61.8 61.7 61.7 61.6 61.5 61.2 60.6 59.9 59.5 59.2 59.1 59.1 59.5 60.5 62.5 64.8 67.9 70.9 72.9 73.5 74 74.6 74.8 75 75.1 75.3 74.9 74.1 73.2 72.4 71.6 71.6 72.4 72.1 71.2 70.8 70 66.5 61.5 57.6 57.4 62.8 67.9 69.4 69.1 69.2 69.6 69.5 66.8 68.5 68.6 68.6 68.6 68.7 68.6 66.8 63 61.4 58.3 53.8 50.6 47.7 45.1 44.1 44.3 44.5 44.7 44.9 44.5 44 43.8 42.3 41.1 44.5 44.6 44.1 43.8 43.9 44 43.4 43.7 48 68.4 89.4 96.2 101.1 107.6 109.2 114.5 124.1 138.5 151.1 154.1 143.6 131.6 119 116.1 123.6 126.4 114.8 100.8 93.7 86.8 81.8 77.7 74.1 70.9 71.2 72.2 73.6 75.5 80.1 89.2 99.3 107.3 114.6 119.8 126.1 127.6 127.7 126.3 125 120.7 112.5 105.6 101.5 99.5 99.9 105.3 119.2 133.8 140.9 145.3 146.7 146.4 145.5 143.2 140.3 139.3 139.5 139.2
76.5 75.7 74.9 74.1 73.1 72.3 71.9 72.2 73.8 76 80.1 86.9 91.2 96.3 107.8 116.2 120.8 120.6 117.6 112.6 106.4 99.5 93.2 86.5 80.6 85 92.9 96.7 93.2 90.9 92.1 98.3 106.9 115.4 123.1 124.3 118.8 114.4 111.8 109.4 107 106.5 107.5 104.9 100.3 93.9 88.4 81.2 78.9 76.3 73.4 70.9 68.3 67.5 66.5 65.4 64.4 63.4 62.7 62.6 62.5 62.4 62.3 62.2 61.9 61.2 60.6 60 59.6 59.5 59.3 59.5 60.4 62.1 64.1 66 69 70.1 71.3 73.5 74.9 75 75.2 75.3 75 74.7 73.9 73.1 72.3 71.7 72.5 73.2 72.7 71.5 69.8 67.6 64.3 60.1 57.4 58.4 61.3 66.9 69.1 69.3 69.7 69.4 69 68.8 66.1 66 65.7 67.6 68.2 67.7 65.9 61.9 57.9 53.2 51.3 48.9 46.5 44.9 44.4 44.3 44.5 44.8 45 44.3 43.2 40.9 40.9 44.7 44.5 44.5 44.2 44.1 44.3 44.5 44.7 44.1 45.6 59.1 71.6 74.1 82.6 99.1 110.6 119.2 129.8 140.8 150.9 149.3 144.2 128.9 114.2 108.1 111.2 118 121.6 105.3 95.8 89.2 83.2 79.9 75.2 70.4 69.2 70 71.1 72.4 74.8 79 87.9 96.1 104.5 110.6 116.8 120.5 118.6 123.5 122.9 115.5 107.3 101.1 97.7 96.4 101.2 109.8 122.6 139.5 142.4 142.6 141.4 141.9 140.9 139.2 138 137.1 135.2 139.3
75.8 75.5 74.6 73.9 72.8 72.9 72.7 73.5 75.3 77.4 81.5 89 98.5 104.8 110.6 118.2 121.2 121 116.9 110.3 103.9 97.3 90.1 84.3 80.7 89.3 97 99.5 96.7 93.4 93.9 99.9 108.2 116.9 126.3 123.9 120.5 119.2 115.1 110.2 105.4 101.7 98.3 96.5 94 87.3 82.6 78 76.1 73.7 71.8 69.1 68.1 67.6 66.9 65.5 64.1 63.2 62.7 62 62.6 63.1 62.8 62.6 62.2 61.7 61.1 60.5 60.1 59.6 59.8 60.1 60.4 61.7 63.3 65 66.9 69.3 72.6 74 75.1 75.3 75.3 74.9 74.6 74.2 73.7 72.9 72.1 72.6 72.9 72.8 72.8 71.7 70.3 68.2 63.6 58.6 56.4 61.4 66.7 68.2 69.6 69.7 69.4 68.9 68.4 67.8 67 65.6 61.9 64 66 66.9 66 62.3 58.6 54.8 50.5 48.1 45.8 45.1 44.9 44.4 44.6 44.8 45 42.3 40.9 44.1 44.3 44.4 44.6 44.5 44.2 44.3 44.4 44.2 43.9 44.1 44.2 54.3 60.6 68.2 83.1 99.1 115.4 122.3 130.4 144.8 147.4 136.6 131.9 130.3 112.6 104.6 100.7 104.8 102.8 110.3 97.8 90.8 83.4 78.2 73.8 69 68.3 68.1 68.7 69.8 71.4 74.2 78.9 87.3 97.3 105.9 111 107.8 108.5 118.5 117.4 108.5 101.2 94.9 94.3 97.2 106.1 117.6 130.3 141.1 138.4 136.9 136.3 136.7 135 136 135.7 131 134 136
75.1 75 74.7 73.8 74.3 74.6 73.8 74.8 76.8 78.6 82.7 89.8 100.2 108.4 114.8 118.5 121 118.9 114.2 106.5 99 91.3 85.6 82.8 83.5 91.6 98.3 101.3 100.2 96.9 96.3 102.6 109.9 119 127.7 126.4 123.8 124.3 122.2 116.7 111.2 106.1 100.3 95.2 88.3 81.1 78.6 76 73.7 71.8 70 68.8 68 67.1 66 64.8 63.5 63.1 63.3 63.2 63.3 63.4 63.2 62.9 62.4 62 61.5 60.9 60.6 60.5 60.7 60.9 61.2 61.6 62.5 64.8 67.1 70.4 73.3 74.6 75.3 75.2 74.8 74.5 74.1 73.7 73.4 72.8 72.7 72.7 72.6 72.5 72.4 72.2 70.3 67.6 62.8 59.4 58.5 65.8 67.1 68.6 69.2 69.6 69.9 69.5 69 68.4 67.6 66.5 64.7 59.3 61.3 62.8 65.2 64.3 58.4 54.4 50 47.7 45.5 44.9 44.9 44.9 44.7 44.9 41.8 40.9 45.1 44.8 44.6 44 44.7 44.5 44.3 44.3 44.1 44 44 44.1 44 44 57.7 64.7 71.8 87.5 105.4 115.8 128.9 135.3 130.9 126.4 128.2 120.2 112.7 105.7 99.1 92.3 90.5 97.6 104.6 93.3 84.7 76.1 71.7 67.3 67.3 66.8 67.4 67.8 69 71.7 74.3 78.9 88.6 95.6 100.8 99 102.7 107.7 110.2 104.4 96.3 92.1 93.3 99.9 112.6 125.2 135.9 140.1 134 129.4 128.2 129.3 128.3 130.9 131.7 125.4 130.9 130.4
74.6 74.5 74.4 74.4 76.2 77.3 75.6 76 77.8 79.7 83.6 90 100.7 109.3 116.9 120.3 119.6 116.3 109.9 100 92.2 86.6 84.9 83.1 83.8 90.7 95.1 99.3 100.2 98.9 101.2 104.2 111.6 120.6 127.9 128.6 128.3 128.1 125.1 121.4 115.5 110.1 105 97.8 89.4 82.5 79.3 76 74.1 71.6 70 69.2 68.8 67.3 66 64.7 63.9 63.1 64.1 64.9 63.6 63.6 63.5 63.2 62.7 62.2 61.8 61.4 61.1 61.1 61.3 61.6 61.9 63.2 63.8 63.6 66.4 69.7 73.3 75.1 75.2 74.9 74.5 74.1 73.8 73.4 73 72.6 72.4 72.3 72.2 71.9 70.6 71.3 70.1 68.1 64.1 60.7 61 68.1 68.7 68.4 69.2 69.5 69.7 69.8 69.3 68.8 68.4 67.3 66.3 62.8 57.4 56.3 58.1 59.2 55.9 52.3 49.3 47.4 45.3 44.6 44.7 44.7 44.7 44.9 40.9 44.4 44.4 44.3 44.2 44.3 44.6 44.2 43.8 43.9 43.8 43.9 44 44.3 44.5 44.6 46.5 56.3 64.6 73.7 86.5 99 112.9 122.9 122.2 116.8 118.7 118.1 113.2 108.1 100.6 93.1 85.9 87.7 93.5 95.5 85.9 76.1 69.2 65.6 65.7 68.4 69.6 69.9 70.5 69.5 71.6 74.4 81 87.9 92.5 92.3 95.9 100.1 102.7 97.1 92.2 90.2 93.1 101.1 114.3 127.7 135.6 137.1 129.2 119.9 120.8 120.3 122.9 128.2 125.2 119.7 124.5 122.9
75.3 75.3 75.2 75.2 77.7 78.1 76.7 77.2 78.9 81.1 85.2 91.7 100.3 110.2 118.8 121.7 122.8 114 104.6 93.9 87.8 87.9 88.9 86.3 85.9 85.5 88.9 94.4 96.6 100.8 104 108 115 122.1 128.7 130.7 128.9 128 125.6 121.6 115.7 110.3 104.8 97.4 88.3 82.5 79.2 76 73.3 72.3 71 70.3 69.5 67.8 66.4 65.3 64.5 63.5 65.6 65.9 65.3 64.2 63.8 63.4 63 62.7 62.5 62.3 61.9 61.9 62.2 62.7 63.3 63.1 63.8 65.9 68.7 72.1 73.9 75 75.3 75.1 74.7 74.4 74 73.6 73.3 72.2 71.8 71.6 71.7 72.2 71.9 70.6 69.4 67.9 64.6 61.2 61.6 68.6 70.1 70 69.8 69.1 69.1 69.1 68.5 68.3 68.3 68.2 67.4 64.2 60.8 57.4 53.7 52.5 52.4 50.6 48.8 47 45 44.4 44.4 44.5 44.7 44.5 40.9 44.3 44.5 44.4 44.1 44.1 44.2 44 43.7 43.8 43.9 44.1 44 43.9 43.7 43.6 43.5 44.2 59.1 64.9 72.1 85.6 89.8 97.4 105.6 108 112.2 112.1 128.6 118.6 104.4 93.4 85.2 78.3 79.4 81.8 83.9 74.8 66 64.3 67.2 70.9 72.9 73.1 73.5 72.7 71.1 72.3 75.3 80.9 85.5 87.1 91.4 95.8 95 89.3 88 88.8 92.3 99.3 115.8 126.1 129.2 120.4 113.2 109 111.4 112.4 113.6 117.1 115 114.3 115.4 115.5
76.7 76.1 76 76.7 79.3 79.4 78 78.9 81.1 82.8 87.2 95.1 104.7 113.7 120.6 122.2 119.8 111.6 100.3 92.3 87.8 92.6 96.5 90.2 88.5 87.9 87.2 89.5 93.8 100.5 104.4 110.8 118.9 125.9 132 132.7 128.9 124 122.3 120.3 115.3 110 103.5 96.2 87.7 82.3 79.3 75.8 74.1 73 72.2 71.4 70.1 68.3 66.8 65.9 64.9 63.9 65.9 66.1 65.5 64.8 64.4 63.9 63.6 63.4 63.4 63.2 63.1 63.1 63.1 63.1 63.5 64.9 66.2 68.9 71.6 72.1 71.5 74.8 75.1 75.1 75 74.6 74.3 73.9 73.4 71.7 70.3 71.5 72.4 72 71.9 70.9 70.1 68.4 64.8 61.1 62.8 69.3 70.6 70.4 70.3 69.3 68.4 68.3 68.1 68 68.1 68.2 68 66.2 62.7 59.1 55.1 52.5 51.3 49.7 48.1 46.5 44.7 44.1 44.3 44.4 44.5 44.6 40.9 44.3 44.6 44.3 44 43.9 43.8 43.8 44 44 44.1 44.2 44.2 44.1 43.9 43.8 43.8 43.9 50.8 59.8 65.2 73.2 80 88.7 92.3 99.3 117.2 127.1 142 127.7 111.4 93.1 84.3 76.1 72.8 74.3 75.8 69.5 63 64.8 68 70.7 74.3 76.4 76.5 75.6 73.3 72.7 73.5 75.8 79.4 83.2 88.5 92 88.8 86.4 86.3 87.5 90.9 98.1 116.9 125.1 120.7 106.4 102.8 102.9 105.3 104.6 105.4 107.2 107.3 108.1 109 109.3
78.2 76.9 76.7 76.5 79.7 79.5 79.8 81.2 82.4 85 89.5 96.3 106.2 117.8 122.7 120.8 116.9 109.9 101.2 90.5 89 97.9 101.1 94.3 93.6 93.8 89.5 89.1 93.2 99.2 105.2 113.3 121.3 128.5 133.9 132.6 128.9 122.6 117.9 115 111.1 108.1 101.3 93.7 86.2 81.2 76.9 76.5 75.7 76.1 74.1 73.3 71.7 69.9 67.7 66.5 65.3 64.3 66.3 66.4 65.7 65.4 65.3 64.9 64.9 64.8 64.8 64.5 64.3 64.3 64.2 64.2 64.1 64.6 65.7 68.7 72 72.6 72.5 73.6 74.5 75 75 74.9 74.5 74.1 73 71.3 69.8 69 69 70 70.8 70.1 68.7 66 62.7 61.5 64.7 70.4 71 70.8 70.7 69.8 68.8 67.8 67.7 67.8 67.8 67.8 67.7 66.8 62.4 58.2 54.9 52 49.4 48.6 47 45.4 44.2 44.1 44.2 44.3 44.4 44.5 40.9 44.6 44.2 44 43.9 43.6 43.9 44.2 44.4 44.4 44.3 44.4 44.4 44.3 44.1 43.9 44.1 44 44.9 57 60.5 66.6 72.4 80.2 89.3 106.2 122.8 132.7 139.4 139.3 118.4 95.5 82.8 74.2 69.1 67 66.8 62.2 64.1 66.5 67.9 70.7 74.3 77.9 79 76.7 74.8 74.6 74.4 74.5 76.4 80.3 84.1 85.4 84.4 84.9 84.7 86.1 89.4 100.8 119.3 122.1 106.9 99.1 97.2 98.1 100.2 100 100.8 102.3 103.7 105.2 105.7 106
78.9 77.9 77.5 77.4 80 81.7 82.3 83 84.6 87.7 92.3 101 110.4 121.5 123.9 120.1 112.6 106.7 99.1 89.2 92.6 101.9 106.2 104.7 102.6 96.7 92.4 90 94.4 99.6 108 117.2 123.7 130.8 133.9 133.2 128.9 123.1 117.3 112 107.2 105.2 100.8 91.9 83.9 80.2 79 79.3 79.6 80.1 79 76.8 75.2 72.3 69.6 67.6 66.5 65.4 66.3 66.6 66.5 66.5 66.3 66.3 66.5 66.6 66.9 66.5 65.7 65.4 65.3 65.3 65.2 65.2 65.4 68 71.5 72.8 72.6 73.3 73.6 73.9 74.4 74.9 74.7 74.3 72.6 72 70.8 69.4 67.9 66.4 67.5 67.7 65.6 62.5 61.9 65.1 68.3 70.8 71.4 71.2 71.1 70.3 69.4 68.4 67.3 65.5 66.5 67.2 66.7 64.5 61.5 58.3 54.1 51.7 49.4 47.4 46.3 45.1 44 44.1 44.2 44.3 44.4 44.5 40.9 42.8 43.8 43.7 44 43.9 44.3 44.6 43.9 43.1 43 43.9 44.1 43.7 43.1 40.8 40.5 41.3 45 54.2 59.2 62.9 67 74.9 85.4 105.4 115.1 122.6 133.6 136.1 121.7 100.2 79 72.1 65 62.9 63.4 66.5 69.3 71.1 72.1 72.4 75.9 80.1 80.5 78.1 76.9 76.6 77 77.1 76 77.1 80.1 81 81.6 82.8 83.1 83.6 85.8 90.6 110.2 115.1 97 93.9 93.6 94.9 96.4 97.9 99.3 100.4 101.6 102.9 103.1 103.8
