ncols 200
nrows 82
xllcorner 310000
yllcorner 333850
cellsize 50
526.4 524.6 521.6 520.3 517.1 514 515.9 519.5 522.2 523.6 527.7 531.8 539.6 544.2 543.1 544.8 544 538.2 532.7 526.8 517.8 510.6 507.3 505.5 505 503.1 499.9 499.2 496 493.2 491.3 490.7 489.2 486.8 484.4 480.3 476 473.7 472.9 471 467.7 467.6 461.2 469.9 471.6 471.9 473.6 476 478.8 480.6 483.3 485.4 485.5 485.5 486 485.9 484.7 481.9 480.8 480.8 479.6 477.6 475.3 473.1 478.2 478.5 481 485.6 488.4 494.8 500.6 507.2 516.7 524.7 531.4 538.1 541.1 543.1 543 539.8 534.4 529.2 521.8 511.2 499.5 490.9 482.8 471.9 460.5 451.3 442.6 437.7 431.7 427.4 424.3 420.8 417.4 413.5 410.7 407.4 403.4 400.6 396.4 377.5 392.2 401.1 409.2 414.8 418.3 422.6 425.9 427.9 429.2 430 431.4 432 432.3 432.7 432.6 432 431.4 428.2 425.1 422 419.7 417.6 412 407.8 400.8 390.6 373.1 373.6 386.3 390.2 392.1 394.5 396.7 398.5 398.9 398.4 394.2 392.7 394.4 395.9 397.7 399.7 402.6 402.9 403.9 405 405.4 405.8 405.4 404.4 402.6 401.9 399.4 396.8 393.9 389 384.3 380.6 376.9 374.8 372.7 368.5 364.6 360.1 355.2 348.7 341.8 336 329.1 324.5 323.2 317 318.8 328.5 312.1 320.5 325 330.1 331.4 327.6 328.8 328 326.8 322.9 320.2 317.7 313.9 307.2 301.1 292.4 284.2 269.7 259.7 243.9 230.2 224
534.5 530.7 528.4 525.6 522.9 522.2 523 525.8 525.3 529.7 533.2 535.9 541 545.7 546.9 545.6 544.8 542.1 538.6 535.5 527.3 518.7 512.2 505.4 498.7 494.2 492.5 490.8 488.3 486.7 486.4 486.2 483.4 481.7 478.7 476.6 474.3 472.2 471.6 470.7 465.6 461.6 464.2 466.7 469 469.1 469.9 471.5 474.6 477 479.8 481.5 482.8 483 481.6 480.6 480 476.7 476.5 475.9 475.1 473.8 472.2 473.8 476.7 476.1 479.2 482.4 486.8 492.2 499.3 506.5 512.7 520.6 528.5 534.7 537.1 538.9 539.3 537.4 531.8 525.3 519.1 510.1 498.5 489.8 482 470.8 458.9 450.8 443.4 437.7 430.2 424.9 421 416.4 412.3 408.7 405.7 401.6 397.6 394.8 392.2 380.8 379.9 393.6 404 410.8 413.8 418.1 422.5 424.9 426.4 427.2 427.2 427.5 427.4 428.3 428.3 427.9 427 425.5 421.9 419.4 417.3 414.5 411.3 407 400.9 389.1 364.8 371.1 384.3 388 390.5 392.7 394.1 395.3 396.1 394.7 393 391.4 393.9 395 398.5 402.6 404.9 405.2 405 405 406 405.9 406.1 405.2 404.6 403.4 401.8 399.3 395.9 392.8 388.7 387.5 384.6 382.3 381.9 378 372 366.5 359.4 353.4 345.4 338.9 332.1 325.5 320.6 318.3 320.3 320.2 318 315.9 314 311.2 311.3 313.5 313.7 313.6 312.6 310.6 307.7 304.9 299.5 292.5 280.5 274.3 264 250.5 236.4 222.9 213.7 210.1
540.6 539.4 535.8 535.1 532.6 530.7 532.6 535 533.8 535.1 538.2 543.1 546.2 548.1 548.4 545 542.3 539.7 536.4 532.3 526.8 520.6 514.6 509.5 504.1 497.6 490.9 488 485.6 483.3 480.2 477.8 479.2 478.1 475.6 474 471.7 469.6 469.2 468.2 465.5 462 458.6 462.7 464.1 465.7 467.6 469.2 472.4 474.7 476.3 476.8 476.6 477.2 478.5 477.4 476.6 475.2 473.5 471.3 471.3 470.6 469.2 470.7 472.5 472.7 476.4 480.5 485.6 491.8 498.8 505.7 510.8 519 523.7 529.5 533.1 534.6 535.1 533.3 528.8 523.9 516.6 507.1 495.8 487.8 478.4 469.7 460.6 452.6 444.9 437.8 432.1 427.3 422.3 416.3 412.5 408.3 403.2 398.4 396.7 388.2 384 382 368.8 383 396.1 402.6 407.4 412.9 417.5 420.8 422.9 423.2 422.5 422.3 422.7 422.5 422.5 422.3 420.6 420 416.9 415 412.4 410.3 407.2 404 397.6 383.6 360.7 366.9 380.5 385.1 389.1 391.3 392.3 392.1 391.4 390.6 391.6 389 392.6 395 397 401.4 404.1 406.3 407.8 408.3 408.1 407.7 407.4 406.1 405.3 403.8 402.5 401.4 398.9 397.6 395.8 394.2 392.7 391 389.1 384.2 379 375.8 371.1 365.5 358.2 348.7 340.6 331.2 319.6 317 316.8 314.2 310.5 308.3 302.8 298.8 301.6 304.8 298.8 299.4 301.1 301.3 297.1 293.3 287.6 277.9 263.6 251.3 238.8 227.5 216.8 206.8 200.6 194
546.2 546.1 543.6 540.2 537.3 537.1 538.8 540.3 541 543.6 547.5 548.9 550.1 551.5 550.9 543.5 541.4 539.3 534.7 529.4 525.7 520.2 514.6 509.8 504.4 500.4 495.4 489.6 487.3 484 481.5 477.1 474.1 472.2 471.5 470.7 468.6 466.2 466.9 465.6 463 460.4 453.7 459.5 462 463.8 465 465.7 468.5 471.8 473.5 473.2 475 476.2 476.6 476.2 476 474.1 472.2 468.8 468.4 467.9 465.8 467.5 467.9 468 472.6 476.8 481.3 487.5 495.1 502.1 508.9 514.3 519.9 522.9 527.7 530.1 530.2 527.4 525.5 521.2 514.1 504.4 493.2 484.5 475.2 467.7 459.1 452 444.7 438.7 431.9 425.5 420.1 415.2 411 410.5 407.3 403.1 398.5 393.4 386 377.2 366.4 369.1 380.9 392.6 401.5 405.6 410.2 413.6 416.1 417.3 417.6 417.3 417 415.9 415.2 414.9 413.6 412.7 411.3 409.7 407.9 405.8 402.7 399.9 393.5 381.9 361.8 357.5 372.7 380.7 386.9 390 391.2 391 389.6 389.2 390 388.2 392.3 393.6 396.7 401.6 405.9 407.5 409.8 409.9 410.9 412.3 411.9 411 409.1 407.8 406.6 404.7 403.6 403.6 402.4 400.8 399.2 397.4 395.3 392.1 389.2 385.8 380.6 374.9 364.2 354.1 342 332 323.1 313.9 312.4 305.9 303.7 300.2 296.5 293.7 292.4 295 290.8 290.1 288.4 286.5 284.6 279.3 271.6 261.5 248.9 236.7 224 215.5 199.7 198.8 195.5 193
553.9 552.7 550.5 548.8 546.8 548.6 548.7 549.4 551.2 554.9 557.1 556.2 556.7 554.1 550.9 545.5 541 537.1 532.7 527.1 523.8 520 515.3 508.6 503.4 499.5 494.5 491.9 488.6 485.6 482.2 478.1 475.4 472 469.1 466 463.5 461.3 460.1 459.1 457.9 455.7 452.3 456.2 459.2 460.7 461.6 463 466 468.4 471.3 470.6 472.4 475.2 475.5 475.3 475.2 473.6 471.1 467.7 464.7 463.4 463.5 466.1 464.8 464.9 469.7 473.7 477.1 480.3 486.7 495.7 501.4 507.7 513.7 515.8 520.4 522.5 524.5 524 522.2 517.4 508.4 497.9 490.8 483.1 474 467.4 459.4 452.2 445.2 438.9 430.7 429.2 423.8 419 416.9 413.8 409.6 405.9 402.4 398.1 393.4 384.6 374.1 365.3 364.1 378.9 388.3 393.2 399.1 406.1 410.3 411.6 410.5 411.2 410.4 410.3 409.6 409.5 410.3 409.2 407.1 405.7 403.4 400.7 398.3 395.7 392.6 381.9 366.7 348.2 365.6 375.5 383.1 387.2 389.7 390.3 389.2 388.2 386.6 386.2 388.6 390.8 395.8 401 406.4 410.1 411.8 412 412.3 413.4 412.9 411.5 411.4 410.5 409.5 407.7 408 407.2 407.1 406.1 404.4 402.8 400.8 397 394.3 390.1 384.4 378.9 367 354.8 344.2 335 327.4 317.7 312.9 309.7 306 301.7 298.3 295.8 291.7 291.5 290.3 289.1 283.9 261.4 260.4 258.2 253.8 246.4 235.5 221.9 217 216.7 213.9 215 211.3 207.5
565.4 563.5 561.7 558.5 557.4 558.4 559.2 559.7 560.5 561.9 563.3 562.6 560.5 557.4 554 548.6 544 539.8 534.5 528 523.4 519.3 514 507.6 502.7 500.2 495.6 492.5 490.1 486.6 483.6 480.6 476.7 473.4 470 466.1 463.3 461.5 458.2 457 455.6 453.1 451.4 453.7 456.7 457.7 458.6 459.3 461.7 463.2 467.3 467.2 469 471.6 474.7 475.9 475 473.8 472.7 469 462.8 460.2 462.7 464.5 462.1 463.7 465.2 470.7 473 477.9 483.9 490.3 495.4 502.7 507.6 510.7 514.2 516.5 518.9 518.9 516.7 512.3 502.9 495.6 488.5 480.9 473.5 467.8 460.6 454.5 448.2 442.5 437.3 430.8 427.1 423.7 420.7 418.2 414.3 410.7 407.5 403.4 397.5 389.6 380.1 372.2 363.5 357.5 367.3 376.9 386.5 391.8 398.3 402.2 404 403.5 403.1 402.5 402.8 403 403.2 403.2 402.1 398.6 397.4 395.7 394.3 391.5 387.4 381.6 369.6 346.8 356.1 369.4 377.9 382.6 385.8 387.6 388.2 387.7 383.5 383.6 384.3 388 394.3 399.4 404.6 408.4 411.1 413.2 412.6 412.8 411.6 410.8 411 411.2 411 409.6 409.5 409 409 407.4 407.1 406.2 404.2 401 397.2 392.8 387.3 380.7 369.9 357.1 345.4 337.1 331 328.4 323.7 319.6 317.2 313.1 309.5 305.2 299.1 295.5 291.3 290.2 280.2 270.7 265 262.4 248.7 253.9 249.6 239.9 236.5 231.1 227.3 222.5 215.9 206.1
576.5 572.7 571.2 568.6 568.4 567.1 568.4 568.9 567.7 569 568.1 566.8 564.6 561.1 556.8 551.2 547 543.2 537.4 530.8 525.4 520.5 514.4 509.3 506.1 500.7 495.3 492.4 488.4 486.2 483.8 482.4 480.8 477.4 473.9 471 468.2 465.4 461.3 458.4 456.2 453.1 449.7 450.5 454.6 455.5 454.8 454.7 456.4 455.6 458.3 462.6 468.4 469.3 471.2 473.6 473.3 472.5 471.1 466.7 462.3 459.3 460.2 461.8 459 461 463.4 468.7 470.4 474.5 482.4 486.7 492.1 496.3 501.2 505.4 508.9 510.6 512 512.6 509.7 506.7 500 494.1 488 482.6 476.4 470.5 465 458.5 453 447 441.2 436.9 433.6 429.6 426.4 422.7 418.9 414.4 410.6 407.1 401 394.2 385.1 377.3 370.4 361.7 353.4 359.8 368.4 373.6 382.9 389 392.3 394 392.7 393.9 394.3 394.6 394.6 393.7 392.6 391.7 389.1 388.8 387.7 385.6 382.4 377.5 371.5 359.1 344.2 364 373.2 377.2 380.6 383.2 383.7 383.2 380.3 374.3 377.2 383.3 390.9 396.8 400.8 404.4 407.4 409.3 410.5 410 409.7 408.4 407.9 408.8 410.9 410.6 410.2 410.4 409.7 409 408.7 407.5 404.5 401.7 398 393.5 387.7 382.3 367.2 355.9 349.9 345 348.7 344 341 340.4 337.2 329.9 325.1 322.1 314.5 304.3 299.5 292.9 284.7 276.8 272.3 274.4 267.5 267.4 263.3 253 243.4 238.1 233 228.2 218.3 216.2
581.6 580.7 579.3 578.7 578.7 579.2 577.1 576.7 576.1 574.1 572.1 568.7 566 561.5 556.6 552.4 547.7 542.8 537 532.4 527.7 521.9 516.6 512.1 507.5 501.9 497.8 494 489.7 486.6 482.7 481 479.5 476.8 473.9 471.7 469.2 466.3 463.8 461.2 457.1 454.2 450.3 447.8 450.7 453 452.1 450.6 449.3 450.3 452.1 458.8 462.9 461.8 465.5 467.1 467.3 466.1 465.8 463.6 460 457.9 458.2 459.4 455.9 456.6 461.1 466.2 470.2 473.7 479.2 485.4 491.7 496.8 499.5 502.7 505.9 506.4 507.8 508 506.9 503.7 499.6 492.9 489.1 484.2 478.9 474.4 469.7 464.5 459 453.4 447 442.7 439.1 434.9 430.4 425.9 421.9 418 414.4 409.9 404.8 398.3 389.5 382.3 375.8 367.6 362.9 351.9 348.9 357.2 365.4 372.6 377.5 380.1 381 380.8 383.3 384.4 385.4 385 384.4 383.8 382.8 381.2 380.8 379.4 377.2 373.6 368.3 358.3 338.5 359.7 368.3 371.8 373.3 375.5 377 375.2 372.9 367.9 370.5 378 388 395.3 399.4 402.4 403.7 404.5 406 405.9 407 406.4 405.8 406.3 407.6 408.6 409 409.3 409 407.9 406.7 403.8 400.8 398.1 394.4 386.3 380.7 371.8 362.4 355.1 350.6 349.5 353.2 361.9 358.2 356.7 352.5 344.3 338.4 331 325.7 319.4 309.8 302.8 295.1 285.5 285.1 288.7 279.2 276 269.1 260.2 249.3 243.2 238.3 235.3 235.9 224.4
584.7 583.7 582.5 582.4 582.5 582.8 581.2 579.7 577.2 574.8 572 568.3 565.3 561.2 555.6 551.7 547.2 540.7 536.5 532.3 527.9 523.3 516.2 510.9 505.8 502 499.5 495 491.7 488.5 484.8 480.8 477.4 475.5 472.4 470.8 468.8 466.9 464.5 462.2 458.1 454.5 453.7 451.5 446 448.1 449.1 447.6 444.2 445.2 447.2 451.6 453.1 453.6 456.3 456.7 455.9 455.6 455.6 453.7 455.2 453.7 454 454.4 451.1 453.4 458.3 463.9 469.1 474.9 479.5 486.2 493.3 496.9 500.3 502.1 504.2 505.2 506.2 504 501.6 498.4 496.2 492.8 489.3 485.4 481 476.4 472.3 468.1 463.2 458.6 452.1 448.2 443.1 437.9 432.7 428.5 424.2 420.8 416.8 412.9 406.7 401.1 394.7 387.4 379.9 368.8 365.2 360.2 353.1 342.5 344.1 354.9 360.9 365.7 368.6 368.4 371 371.7 374.5 375.2 374.7 372.3 372.3 370.9 372.4 369.9 369.6 368.8 364.3 356.4 337.4 354.7 363 367.2 370 372.1 372.5 371.7 369.3 365.5 362.6 374.5 384.7 391.3 396.9 400.8 402 402.5 402.6 402.4 403.9 405.3 405.9 406.2 406.5 406.1 406 406.1 405 404.5 403.6 401.7 400.4 398.4 394.7 389.6 381.5 373.3 363.8 356.3 352.1 352.3 355 363 365 364.2 362.7 360.4 358.7 353.5 347.7 340.3 330.3 318.4 306 298.5 291.7 294.5 285.2 276.1 268.1 263.7 261 260 257.6 255.2 248.5 232.5
594.4 593 590.9 589.9 585.3 583.6 581.5 579 574.4 571.8 568.9 566.4 560.6 556.5 552.2 547.4 544.1 538.1 533.8 529.6 526 520.9 513 507.4 503.1 498.7 495.1 491.8 486.5 486.5 483.1 479.2 476 472.5 468.9 466.3 464.4 464.8 463.4 461.8 457.9 454.5 450.7 448 445.8 443.9 443 442.2 441.8 441.8 441.7 442.4 446.6 447.3 445 444.6 444 444.8 445.3 446.2 449.4 448.4 445.7 447.8 447.3 450.1 455.9 462.3 467.5 474 479.3 483.1 490.3 496.3 498.5 500.3 501.8 504.8 503.1 499.7 498.7 496.7 494.7 491 488.2 484.7 481.4 477.5 472.9 468.1 463.5 458.8 454 448.8 443.7 439.4 434.6 430.5 425.5 421.4 416.4 412.3 405.1 401.7 396.1 388.1 381.4 374.4 368.1 361.3 356.7 351.6 344.7 338.3 340.4 348.3 350.5 353.6 353.5 357.6 360.3 360.9 360.7 358.4 359.1 360.1 361.3 362.4 361.4 361.3 357.8 354.2 335.1 345.5 357.7 363.1 366.3 369 369.8 368.9 366.9 362.4 349.5 367.8 379.2 385.7 391.3 396.5 400.1 401 400.6 400.1 400.2 400.7 401.6 401.7 402.4 400.3 399.9 400.5 399.3 399.3 399.4 399.2 397.9 396.2 394.1 389 384.2 376.7 367.4 358.2 353.3 352.7 355.2 360.8 364.3 365.3 367.4 368.3 369.1 367.8 363.7 354.3 341.2 326.4 315.9 313.3 307.4 302.8 294.9 289.4 283.3 281.3 280.8 277.7 270.9 265 257.6 236.7
595.2 593 591.6 590.1 586.4 583.2 580.5 576.3 573.9 572 568.8 563.3 556.7 553.2 546.8 540.7 536.9 532.4 528.3 524.8 520.9 516.4 510.3 504.9 497.2 493.1 493.7 492.6 489.5 486.6 483.9 480.6 477.8 475.3 472.8 470.8 466 463.4 460.1 456.5 455.4 455.1 452.5 452 449.6 447 444.7 441.9 440.6 440.5 439.8 439.4 439 437.7 437.5 437.5 437.3 437.3 436.8 437.4 439.7 438.7 438 440.4 441.6 446.5 451.8 459 467.8 473.3 478.9 483.8 489.4 494.5 497.4 498.8 498.6 500.1 501.7 498.9 495.3 491.6 488.5 486 485.2 483 479.3 475.3 470.1 466 461.1 456.7 450.4 444.1 438.2 434.1 429.9 426.6 423.1 418.7 413.5 408.1 403.3 399.1 394.3 387.2 380.7 374.1 369.4 363.1 357.8 353.8 350.6 345.8 340.5 332.5 338.9 339 342 342.1 342.4 345.1 348 347.1 348.4 347.6 346.2 349.1 349.6 351.6 351.9 350.2 335 329.6 350.7 358.5 363.2 367.1 368.5 367.3 365.1 360.2 344.4 360.6 375.2 380.3 384.7 392.3 396.3 397.3 396.3 396.5 397.6 398.3 398.9 399.4 398.4 396.5 396.6 396.3 397.5 396.3 395.3 394.1 393.2 391.7 389.6 386.6 381.9 373 364.2 356.2 352.5 350.5 353.2 360.9 365.2 368.6 370 370.4 371.7 371.3 369.7 360.7 347.8 335.7 330.1 327.7 321.4 315.1 311.2 306.4 301.5 297.7 294.5 290.3 284.2 277 262.3 242.3
588.2 587.5 586 583.6 580.9 577.8 574.8 570.6 568.2 565.4 563.8 557 552.8 548.2 543.6 537.5 534.2 529.2 524.8 521 516.6 515.8 506.5 508.1 506.8 501.9 498.4 495.3 491.9 488.8 485.6 482.8 480.5 477.9 475 472.1 468.5 464 462.7 461.9 460.5 458.3 456 454.7 451.7 448.7 445.9 443.1 439.8 438.9 438.4 438.3 437.6 437.3 436.6 436.5 435.8 435.2 434.7 434 433.3 434.8 435.5 437.6 439.3 442.2 449 453.8 460.2 468.3 474.4 479.5 483.3 488.1 490.6 494.3 494.8 496.3 499.7 499.2 494.9 491.2 485.5 484 482.7 478.9 472.5 467.2 463.4 459.2 454.5 448.7 442.7 435.4 430 424.8 423.2 419.2 415.7 413.2 408.6 403.7 398.4 394.2 387.1 381.6 373.9 369.4 364.9 359.2 356.3 352.2 348 345.8 340.4 335.1 330.3 330.7 333 332.3 332.5 332.6 332.9 334.2 336.3 336 336.1 337.4 337.3 337.6 341.1 341.7 332.1 324.2 342.9 351.2 358.4 362.4 365 365.1 360.9 357.6 343 346.4 364.1 373.2 377.6 383.5 388.4 391.3 390.3 393.5 392.9 392.3 392.8 392 391 391.3 392.1 393 393.2 393.7 392.9 391.3 391.7 390.3 387 383.3 376.8 369.2 362.4 355.4 350.5 347.8 349.2 357.6 363.2 367.3 370.5 373 373.8 373.5 371.3 365.6 357.8 351.1 343.3 337.9 333.6 328.2 324.1 320.2 316 312.4 309.3 305.4 299.1 291.4 265.7 240.6
584.1 584.6 583.9 582.7 580.7 577.3 574.8 572.1 569 565.7 561.6 557.3 553.5 549.7 545.7 542.3 535.8 532.3 529.2 525.8 523 520.2 515.9 513.6 509.5 508.2 505 499.2 494.4 490.7 487.1 484.2 481.9 478.3 475 472.6 469.4 467.9 465.6 464 462.3 460.3 457.6 455.3 452.7 449.6 446.6 444.5 443 438.4 437.5 436.7 435.8 435.8 436.7 435.9 435.1 434.5 434.1 433.3 432.6 433.4 434.2 435.2 435.4 436.7 440.9 445.7 449.7 458.4 464.9 469.8 471.4 471.7 474.4 478.2 481 485.7 488.4 487.6 485.8 479.8 475.7 472.7 470.3 468.1 462.6 457.6 453.3 446.3 443.8 439.1 431.2 422.9 419.6 414.7 413 410.1 409.1 406.2 400.5 396.2 391.8 386.5 380.7 374.9 369.5 366.9 361.5 356.5 354 350.4 345.3 342.2 338 334.2 330.5 328.1 325.7 325 325.3 323.8 324.4 325.3 325.2 326.6 326.3 326.5 326.7 326.2 328.1 328.8 325.5 318.4 333.7 342.2 352.1 356.5 359.5 356.7 354.8 352.4 341.4 333.1 352.1 363.3 371 374.1 379.4 383.2 384.3 386.6 388.7 389.3 389.9 389.9 389.5 390 389.4 389.5 389.9 390.5 389.7 389.7 388.7 388.5 386.5 382.8 376.3 369 363.2 355.8 349.2 344.1 345.9 353 362.4 367 371.3 374.2 376.9 377.3 376.2 374.1 370.3 366.9 362.3 355 348.7 342.6 338.7 336.5 331.3 327.6 323.6 319.8 313.8 296.3 269.7 242.6
582.8 583.7 584.3 583.8 581.8 579.6 577.8 576.3 572.6 569 564.6 559.9 555.6 552.5 549.5 545.1 539.8 536.1 532.1 528.7 526 523.7 520.7 517.5 515.2 511.7 507.7 503.5 499.4 494.1 491.2 487.7 483.8 482 478.2 475.4 473.3 471.3 468.6 466.3 463.9 461.3 459.3 456 452.9 451 449.5 447 444.3 440.7 439 437 435.8 435 434.3 433.6 434.3 433.9 433.4 432.7 432.2 432.5 432.6 433.3 432.7 432.6 433.2 436.9 438.4 445.1 452.1 454.7 458 459.6 463.1 465.1 468.3 469.1 473.1 474 469.9 464.6 460.7 458.2 455.7 451.9 448.4 444.8 437.5 434.1 428.4 425.2 418.3 411.8 408.1 403.9 401 400.5 399.3 397.1 394.2 391.3 386 380.5 375.1 369.3 368.1 362.9 359 355.4 353.1 348.7 344.5 335.5 331 331 330.7 327.7 326 324.4 322.1 320.8 319.6 318.1 318.4 317.1 316.1 315.4 316.2 318.1 317.6 317.7 316.6 314.3 318.3 327.2 334.4 336.9 341.2 343.9 343.3 342.1 336.6 325.2 341.6 356.1 362 367.7 373.8 375.6 376.2 379.4 382.9 385.7 387.9 389.1 388.4 387.6 387.2 387.5 388.1 389.4 390.1 388.7 387.3 387 386 384.4 380.9 373.4 364.7 357.3 348.5 341.1 342.5 347.1 359.6 365.4 368.8 373.8 376.7 377.7 377.1 376.2 376.1 374.4 371 365.4 359.5 355.7 350.3 346.2 343.6 340 335.1 329.6 325.3 311 282.4 249.5
582.4 582.7 583.6 584.1 582.9 581.6 579.9 578.4 576.1 573.5 572.1 567 562.8 559.8 556.2 552.1 549.2 544.2 539.6 535.6 532 529.2 527.4 524.5 519.7 514.8 510.6 505.7 503.2 499.6 496.5 491.8 489.4 487 483 480.5 478.2 476.7 473.6 470.9 467.4 464.6 462.5 460 457 454.5 452.7 449.9 447.5 443.4 440.6 439.5 437.4 435.9 434.5 433 432.5 433 432.8 432.3 431.2 431.2 431.6 432.8 431.5 432.9 433.1 432.2 432.1 436.4 442.1 448 450.8 453.4 452.8 453 453.4 456.3 459.5 456.9 452 446.2 443.1 440 438.9 436.6 431.9 429.6 424.6 418.8 413.2 406.6 402.4 398.2 394.6 393.4 391 390.1 389.1 387.2 385.2 383.2 379.4 374.8 370 366.6 362.8 360.5 358.1 355.7 353.1 349.2 339.7 334.9 333.9 335.8 334.1 330.9 328.9 325.1 325.3 325.9 323.5 323.5 319.5 316.8 314.9 314.1 312.1 312.1 310.7 309.5 308.4 309.8 311.2 314 316.1 319.3 323.1 324.6 324.1 325.3 325.3 321.1 336.7 349.1 356.3 361 365.3 368.6 368.8 370.5 373.1 378.1 381 381.2 381.8 381.9 382 383.1 383.6 384.5 384.5 384.2 383.8 384.1 384.6 382.6 381 377.2 368.5 359.3 349.2 339.1 338.7 339.8 352.5 361.2 366.5 371.6 375.8 377.7 378.5 378.2 377.4 375.7 372.2 368.3 363.2 358.3 353.5 349.4 344 339.9 335.8 332.4 329 316 284 251.1
582.5 582.9 582.9 583.4 583.2 582.5 581.9 580.3 578.2 574.7 573.4 571.8 568.2 564.4 561.5 559.1 555.9 552.5 549.2 545.2 542.5 538.2 534.4 531.5 528.6 523.5 517.2 512.4 509.5 507.7 504.5 500.1 497.5 494.9 491.9 489.3 488.2 485 482.6 479.6 478 472.3 470.7 468.6 464.7 460.3 457.7 455.8 453 449.5 445.9 444 441.4 439.5 437.6 434.6 432.7 431.5 431.6 431.7 430.9 430.8 430.7 431.2 431.5 431.7 431.7 430.4 431.6 432.3 435.6 437.6 439.3 441.1 442.4 443.2 446.4 445.7 443.7 437.8 434 424.4 425.6 424.6 424.4 422 419.1 414.5 407.5 398 396.9 395.5 389.9 386.5 382.1 381.2 384.2 383 381.5 380 377.1 374.3 370.4 367.5 363 361.1 358.7 356.2 354.6 351.9 349.2 346 338.5 341.4 346.3 344.8 342.6 339.6 336 333.9 333.1 332 328.9 327.8 325.8 323.5 322.6 321.1 319 316.1 311.8 308.7 308.7 308.7 308.3 306.5 306 306 307.4 310 311.6 314.2 313.7 314.8 326.4 338.4 346.1 350.4 355.7 359.9 363.1 364.7 365.6 366.5 368.8 371.8 372.7 374 375.3 377 378.2 379.7 379.5 380 379.3 379.3 378.7 378.9 377.1 375.2 370.5 361.9 352.5 343.7 335.8 336.5 343.4 357.2 364.1 368.8 373.2 377 378.6 378.3 377.8 374.7 371.1 367.6 363.6 358.8 353.9 348.8 344.1 339.3 335.2 331 327.3 309.9 277.7 244.2
580.8 581.2 581.4 582.3 581.3 580 579.1 579 578 575.8 573.4 571.6 569 566.5 563.6 560.6 558.6 555 552.4 550 547.4 544.6 540.6 538.7 535.4 531.1 524.9 523.4 520.3 517.5 513.6 510.6 508.2 505.7 503.4 501.9 499.9 497.9 494.7 490.4 487.7 484.4 481.1 477.8 475.3 472.6 469.2 464.9 463.1 459.9 456.6 453.9 451.4 447.8 445.4 442 439.7 433.1 431.5 430.6 430.3 430 429.5 430.1 429.9 430 430.9 431.4 432.6 433.3 433.5 434.4 436 437.8 440.8 442.9 444.1 445.4 442.6 432.5 429.6 426.9 421.9 415.7 411.7 408.5 407.1 409.9 409.5 408.1 405.4 402 397.4 394.3 388.3 380.8 372.7 372.2 368.3 366.7 363.7 360.5 357 356.5 354.3 352.9 350.3 348.6 346 344.3 342.7 341.2 345.8 348.8 351.4 351 350.4 348.1 346.2 342.7 342.2 340.1 335.7 333.7 332.7 330.7 328.5 326.8 325.2 321.9 318 313.7 309.2 307.2 304.4 304.5 302.6 302 301.2 300.6 302.4 306 306 312.6 319.1 325.6 333.1 337.9 343.1 347.5 354.6 357.5 359.3 361.3 363.6 365 365.9 366.7 367.5 369.1 370.8 372.6 373.4 374.1 373.9 374.2 373.7 373.6 372.8 371.3 369 362.7 354.7 347 339.2 334.3 334.6 345.9 356.5 362.9 369.1 373.9 376 376 374.6 372 369.6 365.8 361.7 356.9 351.8 346.7 341.5 336.3 331.6 327.3 322.2 304.9 270 240.4
575.3 576 579.2 580.6 580 578.9 577.7 576.6 576.6 575.6 572.2 569.2 567 565 563.5 560.9 559.8 556.9 553.8 552.1 549.7 547.5 545.2 542.4 540 536.8 534.5 531.2 528 526 523.9 521.7 519.6 518 516.1 514.3 511.9 510.3 507.3 502.6 499.2 495.3 491.9 488 484.2 481.4 478.4 473.3 470.9 467.8 464.9 462.4 460.6 457.7 454.1 451.7 447.1 442 436.1 431 429.6 428.8 428.6 429.3 432.7 432.9 434.8 436.7 437.7 438.7 439.4 440.2 440.8 441.7 443.1 446.3 449.3 454.8 447.4 442.2 442.8 440.1 431.8 431.4 429.1 423.7 422.1 421 418.9 416.1 411.9 408.4 404.7 400.6 397 391.6 387.5 384.6 379.4 376.2 371.2 367.1 359.8 361.4 360.9 357.9 354.2 353.3 353.5 352.3 353 354.2 354.8 355.7 357 357.8 357 355.7 356.1 354 351.8 349.5 345 344.8 341.4 338.4 336.1 334.4 332.3 329.8 326.5 322.5 319.2 317.1 314.2 312.5 310.1 306.9 305 299.5 298.5 298.3 300.3 309.9 317.5 323.3 328.4 332.7 336.7 338.5 345.5 351.5 354.3 355.9 357.7 360 360.3 362 362.8 364.7 366.5 368.4 368.9 369.2 369.8 369.8 370.4 370.5 369.8 368.2 366.6 363 357.9 350.3 343.5 336.3 330.7 334 346.9 355.8 363.2 369 372 372.5 372.1 370.5 367.9 364.3 360.4 354.3 348.7 343.7 338.5 331.9 326.2 318.8 310.7 287.4 258.7 229.8
570 571.8 576.2 578.9 578.7 577.8 576.4 575.4 572.9 571.1 569.9 567.6 566.4 565.3 563.2 561.7 558.8 556.4 553.8 552.2 549.8 547.9 546.1 543.8 541.1 540 538.3 535.4 532.6 530.4 529.1 528.1 525.9 524.7 524.3 522.2 520.8 518.4 514.7 511.7 508 504.3 499.2 495.4 492.4 488.3 483.7 480.5 477.9 474.7 473.1 471.2 468.5 465.2 462.9 458.8 454.9 449 442.3 436.5 432.7 430.3 428.2 432.6 437.7 438.7 441.8 445.8 447.7 448.6 449.6 450.6 455.4 455.3 453.5 451.4 453.9 454.7 453.1 449.5 456.5 450.5 445.2 445.4 445.5 440.8 437.7 432.5 429.7 425.7 420.9 417.4 413.5 409.4 406.2 403.9 398.5 394.9 390 385.5 379 374.2 369.7 368.9 369.6 363.8 362.9 361.7 361 361.2 361 361.1 362.9 363.8 365 366.5 366.3 365.8 364.3 362 360.4 358.8 355.3 353.7 350.6 346.4 344.7 343.1 341 338.9 335.4 333.8 331.1 328.4 327.2 325.2 319.7 314.9 312.1 308.9 303.2 300.3 297.4 306.2 319.9 326.1 329.9 332 333.7 334.4 335.4 343.4 345.6 349.1 351 353.5 353.9 354.2 356.9 359.7 361.8 363.3 364.2 365.1 365.6 366 366.5 366.3 365.8 365.3 364.3 362.3 359.1 355.1 347.7 340.5 333.2 328.2 335.3 348.5 355.9 361.9 365.9 367.6 366.7 365.3 362.8 359.4 355.6 350.6 345.1 339.4 333.7 323.5 312.4 296.9 282.3 263 239.5 217.6
565.8 568.8 573.4 576.7 575.9 574.9 575.2 573.6 571.2 569.5 568.3 566.9 565.5 564.3 562.2 559.7 557.9 555.6 552.2 550.2 548.7 547.8 546.4 544.5 542.6 540.8 538.9 536.9 533.7 532.1 530.7 529.7 529.7 529.5 529.6 528.9 527.8 525.6 522.9 519.1 516.2 511.7 507.1 502.7 499 495 490.2 486.8 484.6 480.9 478.6 476.6 474.3 471.3 467.3 463.6 459.8 454.8 447.5 440.1 434.8 432 428.5 438 443.6 447 449.7 453 453.9 455.2 458.1 460.5 463.1 463.5 461.2 457.6 460.6 463.3 462.9 463.7 462.9 457.8 460.4 456.3 455.8 453.6 448.9 444.3 443.1 437 432.9 430.5 425.3 421.3 416.7 414.3 409.2 405.4 400.5 395.5 388.8 378.7 382.3 379.4 378 375.5 373.6 373 371.7 375.4 375.5 374.5 373.3 374.8 375.3 375 373.9 372.8 370.6 369.4 367.1 365.4 363.3 361.2 358.1 353.2 352.4 350.5 348.8 347.8 345.9 344 341.5 340.5 338.3 334 328.9 324.1 321 314.3 309.5 307.8 305.2 298 314.1 325.3 327 328.6 330.2 330.9 328.6 330 336 338.1 339.3 338.6 340.6 340.6 348.2 350.9 352.9 352.6 355.1 359.2 361.5 364.1 364.8 364.7 364.1 364 362.6 360.9 358.7 353.9 349.8 344.1 336.3 328.4 326.1 340.5 347.9 354.3 356.7 358.8 359.6 359.4 357.1 353.2 348.7 344.3 339.2 332.8 322.6 310.7 294.3 281.7 263.2 257 234.6 209.4
564 565.6 567.4 570 570.9 572.3 572.6 571.3 568.9 567.9 566.5 565.8 564.5 562.9 561.5 558.6 555 553 551.2 549.5 547.9 546.6 545 543 541.4 540.3 538.7 535.9 533.8 533.1 532.2 531.6 532.2 533.1 534.1 534.1 533.4 531.2 529 524.8 521.5 517.9 513.8 509.1 504.3 499.1 495.1 492.1 489.8 486.8 483.6 480.8 478.6 474.7 470.6 466.9 463.6 458.3 450.5 440.8 431.4 429.6 427.6 444.2 449.7 451.6 454.5 457.8 461 465.7 467.1 468.4 469.9 471.1 470.3 469.8 469.3 474.5 471.5 471.9 471.3 469.4 470.2 466 464.3 460.9 459.9 455.7 453.6 450.4 447.1 441 437 430.2 426.3 423.5 417.8 413.3 407.9 401.9 391.8 392.1 391.5 388.9 386.7 387 387.3 385.9 385.2 387.1 387.4 388 386.6 386.4 386.1 384.1 382 379.8 378.9 377.4 375.9 373.2 371.9 369.3 366.8 361.8 361.1 358.9 357.1 355.3 354.3 353.1 350.6 348.4 345.8 343.1 337.2 332.5 326.6 318.4 317.1 312.4 308.8 302.1 301.6 315.5 320.7 322.5 326.2 328.2 327.3 323.7 322.5 324.4 326.2 327.4 326.4 323.8 328.6 332.8 336.4 342.1 344 346.2 352.4 355.5 357.3 358 359.3 358.6 358.4 355.7 353.2 352.2 350.4 344.1 337.3 329.4 321 335.3 343.3 348.6 351.3 354.6 355.1 353.7 351.9 349.3 345 340.1 335 326.9 313.3 303.4 291.6 282.1 274.3 264.7 238.5 213.9
560 559.8 561.3 563.1 564.8 566.5 567.3 566.4 565.7 564.7 563.9 563.4 563.1 562.1 560.6 556.8 553.5 551.4 550.7 548.6 547.4 546 544.3 542.4 540.6 538.4 536.8 535.1 533.2 532 531.9 532.5 533.6 535 536.7 538 537.2 535.1 532.3 528.7 524.7 521.1 517.2 511.8 507.6 503.3 499 494.5 491.9 489.7 487.4 484 481.2 477.9 474.9 471.1 465.6 459 452 442.5 421.4 416.3 432.1 447.1 454.6 458 459.9 463 469 473.1 476.7 479.4 482.8 484.6 485.6 484.7 482.3 484 480.5 481.4 477.7 476.6 481.6 479.8 476.6 473.6 471 469.9 466.6 462.1 457.9 451.8 445.3 439 435.2 430.3 426.2 420.7 414.2 404.4 400.2 401 400.2 397.9 398.8 401.3 399.6 400.1 398.7 399.7 400 399.6 400.1 399 398.2 396.5 394.4 393.3 390.7 389.6 387.6 385 383 379.4 375.1 372.7 368.8 366.8 365.7 363.9 361.5 358.7 356.8 353.3 351.9 348.5 344.2 339.3 332.3 328.3 324.8 320.8 319.1 306.9 294.1 299.1 303.7 310.4 318 319.8 323.4 321.3 318.7 315.7 314.4 314.4 313.4 309.1 309.4 310 310.8 316.7 322 326.5 332.7 337.3 338.1 340.3 342.2 344.8 348.4 349.8 348.4 346.5 344.7 341.3 335.6 328 318 333 339.9 344.8 348.1 351.8 352.7 352.2 349.9 347 343.2 339.3 333 324.8 319.3 314.2 307.6 301.2 290.1 268.5 244.1 219.9
554.1 553.4 556.6 558.1 558.5 558.4 560.8 559.7 559.8 560.1 559.7 560.5 560.2 559.1 556.9 554 551 549 547.4 546.8 546.3 545.6 544.2 542.4 539.6 536.7 534.3 533.1 531.8 529.8 530.2 531.1 532 534.5 537.5 540.3 540.5 538.6 536.7 533.5 529.6 525 520.5 516.2 510.4 506.8 500.7 496 493.8 492 488.8 486.3 484.1 481.1 477.5 473.6 467.3 460.9 451.9 439.1 419.3 413.8 431.9 449.4 457.6 461.4 464.5 467.6 469.8 474.5 479.8 485.5 489.9 492.8 494.5 493.2 492.3 492.6 493.4 489.8 483.6 483.7 484.1 484.3 481.9 480.2 479 477 473.5 469 463.4 455.8 451.3 446.4 441.5 436.3 429.3 423 415.3 411.1 409.2 406.6 405 407 409 410.4 410.9 410.4 411.1 410.8 411.1 411.5 411.3 411.4 411.3 409.9 409 406.8 405.4 403.1 400.6 398.8 396 391.7 387.5 383.7 380.3 376.3 371.9 369.7 367.8 364.2 361.4 359 355.9 353.1 348.9 346.2 339.4 334.8 332.1 330 326.5 314.6 304.5 296 290.2 295.9 300 305.3 312 313.2 315 312.5 309.4 304.1 301.7 300.8 293.2 298.2 298 298.6 298.1 304 307.9 312.5 316.2 320.8 326.4 332.6 334.7 337.9 339.5 338.6 336.7 334.5 329.4 322.8 315.6 324.9 336.7 342.9 346.6 348.2 348.7 348 347.5 344.4 341.5 337.1 332.3 329.6 326.3 322.2 314.6 306.4 292.4 272 247.7 220.5
548.3 548.5 551 551.3 550.8 551.3 551.9 553.3 553.4 554.6 555.5 557.1 557 555.4 553.6 549.6 546.1 544.2 542.1 543.3 543.7 543 542.4 540.4 535.5 530.9 529.1 529 527.7 527.7 527.3 528.2 530.2 531.9 534.1 538.4 540.7 540.5 538.1 535.5 531.9 527.6 522.5 519.3 513.7 508 502.3 496.8 495.4 493.5 489.8 487.9 486.5 483 478.7 474.5 467.8 458 448.5 428.7 413.1 409.5 430.7 451.7 458.5 463.2 465.3 470.6 476.1 480.5 484.3 488.6 493.2 495.3 496.8 497.3 497.4 495.1 494.2 491.1 488.4 489.1 488.1 487.1 487.9 488.1 484.5 480.2 474 469.3 465.2 459.1 453.9 448.6 442.4 436.2 431.8 426.2 421 417.9 414.6 409.8 411.3 414.9 416.9 418.8 420.1 421.9 422.8 424.4 424.7 425 424.8 425.2 424.8 424.4 423.8 421.8 420.2 418.3 415.3 413.2 409.6 405.9 402 397.5 392 388.5 383.3 379.2 375.9 371 367.1 364.2 361.6 358.1 354.6 349.2 345.7 342.9 339.9 337.5 332.2 320 314.9 312.4 300.6 287.1 284.5 287.8 291.8 298.3 305.8 303.7 302.5 299.5 294.1 287.4 280.3 277.7 282.9 283.8 286 292.7 298.6 302.5 309.1 314.4 317.7 322.6 327.3 328.4 329.7 329.6 328 324.4 321.1 316.4 311.6 317 329.3 338.1 345 348.2 349.5 348.6 347.3 345.3 342.9 340.4 337.3 332.8 329.8 324.4 315.5 302.2 287.9 264.1 239.8 217.5
542.2 541.2 540.6 541.2 544.5 546.5 546.4 547.7 548.6 548.6 548.5 548.1 551.3 550.4 547.9 545.7 540.9 537.8 536.8 537.8 538.1 538 536.9 533.8 530.5 527.3 524.8 523.9 523 523.2 524 523.8 524.9 528.4 530.7 534.6 538.1 539.3 538.8 537 533.3 528.7 523.4 518.9 512.4 507.3 501.4 497.6 494.8 492.3 489.9 488.8 487.5 483.5 479.4 474 465.9 454.9 442.1 419.7 397.8 411.6 430.9 451.3 459 463.4 466.1 473 479.6 485.9 491.7 494.5 496.1 497.4 499.1 500 500.2 496.7 496.7 496.2 492.3 492.9 494.5 493.8 492.5 489.9 484.8 482.4 475.6 471.8 466.7 463.3 457.8 452.5 446.6 440.1 434.5 429.5 426 424.4 418.1 419.4 420.2 422.7 426.6 429.6 431.8 434.8 435.7 437.3 438 438.2 438.4 438 437.9 437.7 437.2 436.4 434.9 433.1 430.5 427.4 423.4 418.7 414.2 408.8 403.1 397.4 392.1 386.9 383.3 378.6 374.2 371.9 369.3 365.6 359.9 357 354 353.3 349.7 345 339.6 328.9 329.9 323.2 317.1 309.3 297.8 287.6 281.5 280.8 284.6 289.9 290.7 292 287.8 277.9 273.2 271.9 269.5 268.8 272.8 277 285.8 296 310.7 319.2 318.6 320.5 321.2 320.8 321 321.1 319.2 317.6 315.4 311.1 309.9 311.3 317.9 327.4 334.1 341.4 347.5 351.1 350.8 349.2 346.7 344.3 339.3 334 328.1 319.3 312.7 296.6 276 254.1 226.6 207.6
535 535.5 535.5 536.4 538.4 539.3 540.6 541.8 542.8 541.6 540.5 540.2 541.2 545.1 543.9 537.6 534.7 532 531 532 532.8 532.9 532.3 530 527.3 524 520.8 518.9 517.5 517.6 519.1 518.3 519.4 523.3 527.2 530.3 534.1 535.9 535.5 534.1 531.4 527.5 523 516.3 510.1 505.9 501.4 497.7 495.3 492.7 490.2 489.2 487.2 484 479.8 473.9 463.4 453.8 437.9 417.2 400.8 409.5 435.9 450.2 458.9 464.4 467.7 475.4 483.5 490.7 496.4 500.1 501.7 500.8 502.4 503.4 503.5 500.1 497.9 498 495.2 496.5 496.5 499 497.4 490.3 487.4 483.4 479 476.7 473 468.5 461.2 456.7 450.8 444.7 438.6 434.7 433.7 430.9 426.5 427.7 428.3 431.1 435.8 440.4 443.8 445.6 447.9 449.4 450.3 450.8 450.4 450.1 449.9 449 448.3 447.6 446.1 444.1 441.1 438.2 434 429.6 424 418.5 411.5 406.6 400.4 395 390.9 385.9 381.5 378 373.4 369.4 366 364.4 362.9 360.4 357.2 351.5 345 341.5 337.9 332.9 329 324.1 317.6 305.1 295.6 290.2 283.1 278.8 277.1 278.9 274.2 281.6 284.1 284.6 279.3 275.2 270.8 265.1 269 290.5 310.5 320.3 323.5 323.3 323.3 322.2 321.6 320.8 318.9 316.8 314.5 310.8 307.5 307.2 310 315.7 322.1 328.2 332.5 336.8 341.4 344.5 345.5 340.8 337.3 332.4 325.5 314.7 302 284.9 265.7 241.9 215.8 198.4
530.2 529.4 528.8 528.7 529.4 531.4 533.9 534.8 535.3 534.8 533.1 532.4 533.1 533.5 532.3 533.4 528.6 526 525.3 525.3 526.7 527.8 527 525.6 523.3 520.6 518.9 516.5 513.2 513.4 513.9 515.3 515.6 517.4 522.2 526.8 531 533.3 533.5 532 529.6 526.6 522 513.2 507.9 503.9 500.3 496.9 494.4 492.1 490.7 488.6 486.6 484 479.8 473.4 463.5 452.8 433.9 420.1 386.9 415.6 435.3 449.6 459.3 466.2 469.8 479.3 486.8 494.1 499.6 504.4 506.9 507.9 506.1 504.9 503.1 500.7 499.2 498.3 497.7 497.1 496.9 497.6 496.5 494.5 491.8 488.1 484.2 480.8 477 471.9 468.8 462.6 458 451.2 444.8 441.5 439.3 440 436.5 435.2 437 442.4 446.5 450.3 453.9 456.9 458.8 460.4 460.7 460.2 459.9 458.5 458.7 458.8 458.3 456.9 455.2 453 449.9 445.9 441.5 436.4 430.6 425.2 418.4 411.7 406.6 400.9 395.6 390.4 384.9 382.1 375.8 374.1 372.5 372 370.6 365.9 361.7 358 355.3 349.3 346.1 340.7 337.7 333.8 326.9 319.5 310.4 305.1 295.5 290.1 284.8 288.3 291.2 300.7 305.6 302.9 295.1 291.8 287.4 277.8 271.8 285 309.6 325.8 329.4 329.9 329.7 327.6 326.4 327.1 324.4 321.9 318.6 314.3 309 304.9 306.2 309.3 313.7 318.7 324 328.7 332.8 336 337.3 335.1 331.6 327.2 322.7 316.5 302.2 282.2 255.9 228.1 205.2 192.2
525.4 524.4 524.7 525.2 526.8 527.9 526.7 525.2 525.7 526.5 527.1 526.2 523.6 523.3 523.3 523.9 523.3 522.8 522.3 521.7 522.3 522.5 523.2 523.1 521 518.5 516.7 513.6 509.4 508.3 510 510.8 511.5 513.6 517.4 521.8 527.3 531.1 532.3 531.7 529.5 526.1 520.4 513.8 507.3 503.2 498.8 496.2 493.7 490.8 489 487.6 485.8 483.4 479.4 472.2 462.9 450.6 427.9 407.8 383.9 404.5 425.8 447.5 457.9 463.4 470.1 478.4 488 494.7 500.5 504.2 505.9 509 508.7 506.5 505.7 503.6 500.7 499.6 500.3 500.4 500.8 503.3 504.7 504.7 502.6 499.4 494.7 489.1 485.6 481.1 476.1 469.9 466 462.1 455.7 450.1 449.3 449 447.4 445.4 446.6 450.8 456.8 461.2 464.2 466.5 467.1 468.4 469.3 468.7 467.6 467.2 466.5 465.7 466.6 464.9 463.5 460 456.5 452.5 447.6 442.1 435.7 429.2 423.3 416.2 409.5 403.8 397.7 392.8 388.7 383.7 381.9 383.8 382.6 378.3 376.7 371.7 367.6 364.7 364.1 359.6 354.8 350.1 348.7 346 339.5 332.3 326.2 319.9 310.3 309.8 306.3 306.3 311.9 316.1 314.8 312.6 308.8 299.8 296.1 282.9 264.9 289.2 309.8 327.9 332.9 333.3 333.3 330.3 329.2 329.4 327 323.5 320.4 315.8 309.4 304.1 306.2 308.6 313.2 317.2 321.9 327.4 329.8 332.5 332.7 329.8 327.4 323.9 318.6 312.7 295.9 271.8 243.7 219.5 199.4 185.3
518.9 519.1 521.3 523.2 524.5 522.1 519.7 520.2 522.1 523.3 523.7 522.4 522 522.2 521.9 521.7 521.8 521.2 520.2 518.9 518.3 520.1 521.6 520.7 519 516.3 513 508.3 506.3 504.1 506.3 508.4 508.9 510.3 513.4 517.5 523.2 527.9 529.5 529.7 527.6 522.9 517.6 511.8 506.4 502 496.9 493.7 490.6 488.8 487.8 486.3 485.4 483.1 479.4 472.4 463.1 450 423.8 399.8 373.7 374.9 406.1 439 454.4 467.5 474.4 482.8 491 501.2 506.7 508.8 512.2 511.1 510.4 507.5 506.7 503.2 502.3 501.2 501.8 502.3 503 505.9 508.4 509.2 508.7 506.6 502.5 499.5 493.7 488.4 483.7 477.4 473.2 470.8 463.6 458 458.5 456.9 457.7 457.2 458.8 462.4 465.8 472.1 475.5 476.5 477.6 476.6 476.2 475.5 474.7 474.3 474.8 474.7 473.4 472.6 470.8 466.6 462.8 457.9 452.1 445.8 438.9 431.6 424.8 417.6 410.3 403.7 397.9 394.4 391.6 390 389.6 388.8 387.4 384.4 380.3 376.3 374.5 373.5 369.9 367.4 365.2 360.9 359.5 355.3 349.8 336.1 338.9 333.1 328.7 330.7 329.9 327.5 326 324.8 321.4 320 315.3 308 298.1 281.6 261.1 285.1 306.3 321.1 328.4 332.8 331.5 329.8 329.8 329.3 326.4 322.9 319.8 315.6 308.7 303.6 301 307 313.8 320 323.3 327.2 330.3 329.9 329.6 328 325.2 319.8 315 307.8 285.3 258.3 231.7 208.6 191.6 186.1
512.8 513.4 517.2 519.6 518.1 514.3 512.9 513.7 516.8 520.2 519.6 519.3 519.1 520.4 520.4 520 519.4 518.9 518.4 517 517.5 518.7 519.4 518.4 517.6 513.7 510.1 507.2 504.3 501.2 502.1 505.1 505.8 507 510.3 514 519.3 522.7 526 526.7 525.4 522.1 517.4 510.9 505.4 501 494.6 490.8 488.5 486.8 485.4 485 483.7 482.2 478.7 472 463.2 454 432.8 410.6 385.8 369.2 395.7 425.7 452.8 469.5 477.4 486.5 495.5 506.1 512.7 516.6 515.7 512.3 509.2 507 506.5 503.8 503.5 502.7 504.6 506.1 506.6 509.7 513 515 516.3 515 511.6 507.5 502.1 494.9 490 484.8 480.4 476.7 472.8 467.6 467.6 466.9 466.2 466.3 469.6 473.2 476.9 480.2 483.4 485.7 485.7 484.8 483.1 481.5 481.5 480.5 480 480 479.9 477.9 474.1 470.6 464.9 459.2 452.2 445.9 438 429.2 422.2 414.5 408.9 404 399.8 398.1 397.7 396.3 394.9 392.9 390.9 390.2 390.6 386.9 383.1 379.2 378.2 376.8 374.1 370.2 367.8 363.9 355.2 348.6 350.1 347.4 344.3 343.6 342.2 340.3 336.7 335.6 334.6 333.5 328.2 318.1 305.1 281.6 260.8 269.6 285.1 301.3 307.4 313 318.9 325.7 318.3 318 325.7 321.9 318.2 313.2 308.2 297.6 296.7 305.6 316.4 324.2 328.7 330.7 331.3 330.9 330.6 329.2 326 320.9 312.7 299.3 271 245.6 201.9 199.7 188.1 184.6
506.6 506.1 509.6 513.6 510.4 507.2 506.1 507.1 510.9 513.6 511.8 511.9 514.1 515.2 514.8 514.6 514.5 513.5 513.7 513.4 516 517.7 519.1 518.2 517.4 514.1 510.6 506.9 501.9 499.2 497.9 501 501.2 502.9 505.8 509.8 515.3 520 523 521.8 520.7 518.7 513.3 508.2 503.8 496.3 491.8 488.8 486.7 484.8 483.5 483 482.1 481 478.1 471 461.8 453.4 443.2 419.3 389 365.1 393.4 424.2 452.2 468.8 478.8 488.2 499.4 507.4 516.1 519.9 520 518.2 514.8 510.4 505.4 505.4 504.4 504.3 506.4 507.5 510.4 513.6 517.1 519.1 520.5 520.4 518.7 513.7 509.6 506.2 499.4 493.8 487.9 484.4 480.2 475 476.1 478.9 479.6 481 481.4 482.5 484.4 486.9 489.7 493.8 495.1 493 491.5 488.5 487 484.8 484.2 483.5 482.2 479.8 477.2 472.9 467.7 460.9 453.6 445.9 436.6 428.3 420.3 416.7 410.5 409.7 406.3 403.6 401.3 401.3 401 398.8 398.3 397.4 394.9 392 390.3 389.2 387.2 384.9 380.5 378 375 370.7 366 357.9 359.7 356 353.6 350.9 349.1 346.9 344.2 343.3 340 337.4 331.8 325.2 311.2 284.7 263.7 253.5 261.7 275.7 278.6 282.2 288.3 294.6 297.8 298.4 307.1 308.7 306.5 303.7 298.9 298.4 296.9 310.4 321.2 331.4 334.4 334.7 334.2 334 332.1 330.8 326.8 320.9 307.8 287.6 262.4 233.9 211 196.1 190.6 199.8
503.5 503 501.1 501.5 501.8 499.4 500.1 499.6 504.2 506 503.5 502.6 508.5 509.8 508.7 507.6 508.3 509.1 509.4 506.2 511.9 514.7 516.2 515.8 514.6 512.6 508.9 504.2 498 496.4 493.4 495.2 497.1 498.3 500.3 503 507.2 512.3 515.7 517.3 517.3 512.9 508.9 505.2 500 492.3 489.1 486.9 485.3 484.2 483 481.6 481.1 479.5 476.2 470.6 462.1 453.4 444.3 424.9 392.2 365.4 386.7 422.4 446.7 462.4 478 488.5 500.7 510.8 517.4 521 521.6 520.9 517.2 514.1 507.4 505.8 504.9 505.8 507 509 512.9 515.3 518.2 520.9 522.4 522.4 522.5 520 516 512.2 508.4 502.5 496.4 494.3 486.3 482.5 484.6 488 491.7 492.8 493 494.5 494.4 495.5 497.3 497 498.2 498 496.7 493.5 491.6 488.8 486.4 484.7 483.5 481 478 474 468.9 462.7 455.3 448.8 440 432.7 426.8 423.2 420.2 418.4 413.8 412.4 410.8 410 409.3 407.2 405.4 404.1 401.2 399.5 397.3 395.3 393.3 390.5 386.7 383.4 379.7 375.7 369 365.2 364.9 361.3 359.3 358.3 356.2 355.4 352.5 350 349.3 346.3 341.1 335 322 294.3 273.4 256.6 249.7 250.9 255.8 261.8 264.9 264.7 270.6 275.1 279.4 281 281.1 281.4 284.1 288.6 297.4 316.3 327.7 331.2 334 335.1 335.4 334.1 332.3 328.9 324.9 316.9 302.3 280.3 254.2 229 206.6 185.5 202.7 214.1
505.1 498 496.1 494.7 492.9 492.3 490.8 492.1 494.6 495.7 494.5 494.4 497.3 500.8 499.5 498.9 501.4 502.8 504.3 504.6 507.4 511.1 512.6 512.3 511.3 510.2 507.1 501.9 496.8 494.1 491.2 489.3 491.9 493.4 495.4 499.9 502.9 505.6 508.5 511.4 509.9 507.6 504.4 498.7 492.7 487.8 487 485.5 484.9 483.5 481.9 480.5 480.3 478.1 475.1 470.3 463.8 451.5 442 417.8 385.7 362.2 385.1 417.5 441 457.1 472.7 488.3 501.5 510.4 516.6 520.7 520.4 519.1 516.5 511.3 507.7 506.2 506.7 506.6 506.9 510.1 515.5 519.8 522.1 526.8 529.3 530.4 529 527.9 524.6 520.4 515.9 512.6 508.8 504.7 501.2 497.8 497.8 500.5 502.6 504.1 505.5 506.2 505.9 504.9 504.2 502.6 501.5 499.2 497.9 494.3 491.7 489.2 486.5 484.9 483.6 481.4 478.3 474.3 469.8 464.1 457.3 451.1 446 442.1 437.2 431.9 429.2 426.9 421.6 421.6 421 419.6 417.5 416.8 414.3 411 408.6 406.4 403.3 400.9 398.2 393.8 389.9 386.5 382.4 378 373.4 373.1 370.6 369.2 368.2 366.7 365.4 366.3 364.7 363 360 357.2 353 344.4 332.4 308.4 284.5 271.7 259.9 249.3 248.9 245.7 245.7 248.2 246.7 246.1 252.6 251.4 254.1 257.4 260 274 287.2 305.3 323.4 331.2 332.9 333.2 334.2 333.8 332.4 329.5 323.1 312 293.3 269.2 246.1 219.8 194.2 193.7 219.7 234.5
508 503.8 500.8 497.6 496.1 493.9 490 486.5 482.6 484.4 486.1 486.7 488 492.9 491.6 490 491.4 493.4 495.3 497.9 502.5 506.7 508.2 508.3 509 507.7 504.6 499 494.3 489.4 485.7 484 484.7 486.9 490.2 495.4 498.7 502.3 506.2 507.8 507.5 505.9 501.5 493.5 487.4 484.1 484 482.9 481.8 480.4 480 480.2 479.5 477.4 474.4 469.5 461.4 451.5 437.7 408.6 378.4 361.8 382.3 414 438.7 452.3 466.4 484.7 498.4 510.8 516.6 517.6 517.5 518.4 514.5 509.6 507.7 507.6 507.5 507.4 507.4 509.5 515.6 521.6 524.4 530.1 533.9 537.6 537.9 537.7 534.6 531.6 527.3 522.6 521.9 519.2 516.1 514.5 513.7 515.2 514.5 512.9 513.5 513.9 513.3 511.7 510 507.2 504.1 501.2 498.5 496.5 492.8 489 486.9 485 483.2 481.3 478.4 475.2 471.5 466.7 461 456.5 452.8 448.5 444.8 440.1 436.8 433.1 433.5 433.5 431.9 430 428 426.3 423.5 420.8 418 413.7 409.6 406.3 402.3 397.1 393 387.9 383.8 381 379.8 379.8 380.7 380.4 380.1 379.6 379.1 377.6 376.3 374.5 371.5 367.1 363.1 356.4 344.6 322 305.2 287.2 274.4 268 261.7 264.7 263.2 260.4 257 255.4 250.8 242.6 240.9 235.7 236.1 246 268.4 286.4 301 319.6 326 334 331.8 329.8 329.5 326.4 319.4 308 287.8 264 233.5 204.4 187.4 210 230.5 252.3
509.7 506.5 503.5 500.5 498.5 495.2 491.4 487.2 484.1 479.3 480.2 481.9 480.7 481.8 481.2 480.8 481.3 482.2 483.2 489.5 495.7 498.9 501.3 504.1 506 503.8 501.1 496 491.4 484.5 480.4 477.3 478.6 480.6 484.1 488.7 493 497.5 501.2 503 502.8 500.4 492.9 483.9 481.8 480.9 480.2 479.1 478 478.2 478.2 479.2 479.1 477.7 474.1 470.6 465.8 456.6 434.8 401.8 371.8 356.9 382.3 412.1 434.4 452.1 467 479.9 494.8 506.1 511.4 514.1 515.9 514.2 513.2 508.7 508.3 508 508 508 508 508.6 513.9 518.9 523.2 531.7 537.5 544 547.3 548.1 546.7 543.4 540.7 536.3 536.5 533.9 531.3 528.8 525.8 525.3 525.1 522.6 520.2 520.1 519.4 517.3 514.2 511 507.1 502.4 498.8 495.2 491.6 488.2 486.2 484.5 482.8 481.2 479.9 477.5 475.3 472.3 467.4 462.7 458.6 455 451.2 448.6 445 443.6 443.6 443.4 442.3 440.7 438.9 437 434.1 430.5 426.2 421.4 414.5 409.3 404.3 399.4 396 391.4 388.5 388.6 389.6 391.2 392.8 394.8 394.6 394.2 392 389.8 388.3 386.6 384.2 379.3 373.9 365.7 355.6 341.2 318.6 305.5 295.6 286.3 284.2 284.7 283.2 281 279.3 274.1 271.2 263.3 255.2 249.8 241.3 230.2 245.9 262 277.2 288.8 305.1 308.2 306.4 321.2 320.4 323.5 315.7 299.4 277.2 245.6 223.3 198.9 194.9 219.8 246.9 267.7
511.4 507.1 504.9 502.7 500.3 496.1 492.5 489.2 485.7 481.7 476.2 475.1 474.8 474.8 471.4 473.4 475.1 473.4 473.7 478.7 486 489.4 490.9 494.4 497.6 496.9 495 491 484.8 478.2 474.2 471.2 473.2 474.5 477.4 479.1 482 488 491.9 492.8 493.1 488.5 480.3 479.1 476.2 475.9 474.9 474.7 473.8 475.3 476.6 478 478.4 477 473.3 470.3 465.9 457.6 425.2 389.1 360.1 370.9 396.8 417.2 430.4 449.9 466.7 481.2 493.8 504.9 509.9 511.2 511.1 509.3 509.3 508.5 508.2 508 508 508 508.2 508.4 512.1 517.8 522.9 529.9 536.8 546.1 552 553.5 553.7 552.1 549.9 548.4 546 543.9 540.8 537 532.4 530.7 529.8 529 526 525.4 523.2 520.6 516.5 512.9 508.3 503.4 499 494.8 490.7 487.6 485.3 483.7 482.2 481.5 481.4 479.6 478.4 477 473.9 470.1 466.1 461.6 458.3 455.6 453.5 452.3 452.4 451.9 451.1 450.1 448.1 445.5 442.3 437.1 431.8 425.9 419.4 413.3 408.9 404.9 400.7 399.1 400.6 402.7 403.5 405.5 407.7 408.5 407.9 407.2 404.9 402.3 401.3 399.6 397.4 392.8 386.8 377.1 370 356.2 342.4 331 320.9 312.7 308.3 309.6 310.2 307.9 299.8 292.5 285 276.6 268.3 262.2 256.3 244.8 229.1 233.9 247 257.1 267.5 272.8 278.4 284.2 291 293.3 315.4 281.5 256.6 233.8 215.6 193.5 204 231.1 262.1 282.7
512.3 509.4 506.2 504.9 502.3 499.5 496.1 492.3 488 484.4 482.3 481.6 481.1 478.1 474.8 468.7 466.8 464.9 466.6 469.1 475.2 478.6 481.8 485.3 487.4 487.3 486.1 482.4 477.6 472.1 468.4 464.7 468.2 468.2 470.1 471.4 471.9 471 471.9 474.8 475.9 472.6 471.3 470.9 470.3 470 469.6 469 469.6 470.3 474.1 476.4 477.3 476 473.3 468.4 461.9 448.9 413.8 384.5 354.5 375.1 402.4 421.1 432.7 449.6 468.8 483.3 495.5 505 511.3 513.2 512.7 509.8 508.9 508.5 508.4 508.2 508.1 508.2 508.4 508.6 513.5 520.7 526.5 531.4 538.4 547.6 551.8 556.2 556.2 554.9 555.4 554.6 552.4 548.5 543.6 539.2 535.2 532.7 532 531.6 530.6 528.2 525.5 522.2 517.2 512.4 507.6 502 497.5 493.3 489.2 486 483.7 481.7 481.3 481.5 481.3 481.6 481.6 480.5 478 475 472.6 469 466 463.2 460.9 459.7 459 459.1 458.5 457.2 455.6 453.5 449.3 444 437.6 431.7 425.8 419.7 415 410.1 409.3 411.1 411.1 413 416.4 419.3 420.6 421.2 420.8 419.3 417.5 415.8 414 411.8 409.1 404.9 399.7 392 383.1 375.1 366.9 357.1 349.1 339.9 337.9 338.1 336.6 333.5 321.4 309.6 298.5 291.4 282.5 275.5 266.4 256.4 242.5 229.9 224.3 224.1 225.5 222 244.6 252.6 256.9 263 261.4 255.1 239.8 221.7 203.4 191.2 211.4 241.3 277.4 299.3
515.4 511.7 509.6 508.1 505.8 503.3 498.9 494.4 491.6 488.3 486.5 486.3 485.2 482.3 478.2 476.4 473.1 466.2 462.6 459.2 456.8 469 472.2 475.9 477.6 479.5 479.2 476.5 472.4 468.1 464.5 460.4 463.8 463.5 461.5 464.1 463.4 462.4 462.7 463.9 464 463.9 463.6 463.7 463 462.6 462.1 462.2 462.7 464.5 468.6 471.5 472.8 472.7 470.5 462.1 452.3 423 398.7 373.8 348.9 370 398.8 423.9 436.2 453.7 473.8 487 497.7 506.4 511.7 514 514.4 513.2 510.7 508.5 508.4 508.2 508.2 508.5 508.7 510 514.4 520.5 528.4 534 541.3 547.8 555.3 558.6 559 559 558.6 555.9 552.1 547.4 542.7 538.7 535.6 533.5 532.9 531.2 530.1 527.9 524.7 520.9 515.9 510.6 505.8 500.2 495.2 491.2 488.1 484.7 481.7 479.9 479.8 481 481.8 482.3 483.2 483.6 482.5 480.6 478 474.8 471.9 469.2 467.2 465.7 464.8 463.9 463.1 461.8 460.3 458.1 455.1 450.6 445.4 439.7 433.9 428.8 425.1 418.5 420.8 420.9 423.3 426.4 429 431.6 432.2 433 433 431.3 429.3 428 425.7 423.6 419.9 415.4 410.6 404 396 388.3 383.1 375.8 368.7 361.4 358.9 359.1 357.4 352.1 341.5 327.5 316.2 305.8 295.5 285.5 276.5 265.6 255.8 244.6 232 222.7 226.9 224.5 216.2 217.2 225.9 230.8 233.6 229.2 221.4 211.9 194.7 195.9 221.5 253.3 289.4 317.9
520.7 518.6 514.4 513.2 511.2 509.3 503.7 499.5 498.2 494.4 491.9 491.2 488.6 486.1 483.7 481 478.8 474.3 471.4 467.3 458.9 455.1 463.7 466.6 467.7 470.3 471.2 468.9 466.9 464.6 461.2 456.1 458.6 458.2 456.4 456.5 456.2 456 455 455.2 455.5 454.5 455.1 453.2 453.8 454.7 454.4 454.5 455.1 457.9 462.2 466.2 467.7 468.3 467.4 460.1 444.7 418.3 393.3 369.6 347.1 366.8 397.8 419 436.6 457.2 477.7 489 498.4 507.7 512.5 514.6 515.6 514.8 513.6 509 508.3 508.3 508.4 508.6 511.1 515.8 520.3 524.4 530.2 536.8 542.2 549.4 556.6 562.1 563.1 561.4 561.1 559.3 556.4 551 545.5 542.8 540.1 535.8 532.9 531.3 529.1 526.7 523.8 519.5 514.4 508.6 503.4 497.9 492.1 487.3 483.7 479.7 477.7 477.1 478 479.2 480.8 481.9 483.1 484.3 484.6 484.1 482.1 479.5 477 473.4 472.2 470.3 469 467.6 465.6 465 463.1 460.9 458.4 454.5 450.3 445.1 440.4 435.8 432.4 429.2 431.2 432.8 434.7 437.6 439.3 440.4 441.5 441.6 440.7 438.9 436.6 435.3 433.6 430.9 426.5 422.6 418.6 412.7 408 402.8 396.4 390.6 384.5 380.7 380.2 378.7 374.3 368.7 359.7 346.7 332.4 315.1 302.9 292.9 283 273.7 264.5 256.9 248.8 241.4 234.8 228 217.2 210.6 210.2 212 214.4 215.9 211.3 202.8 195 219.5 238 267.2 305.5 329.2
529.3 528.1 524.2 522.2 519.9 517.1 514.1 510.5 506.6 502.8 499.5 497.4 495.2 491.6 488.8 485.2 483.2 478.6 476.3 472.4 466.3 460 451.8 453.6 458.6 460.3 460.5 460.9 460.4 460 456.3 453 452.8 452 450.1 450.2 450.5 444.8 447.6 448 446.5 445.2 443.3 442.9 443.6 444.8 444.6 444.5 443.5 447.2 449.6 457.2 461.2 462.6 459 451 436.9 417.6 393.5 370.2 344.5 362 383.4 405.5 431.7 457.9 479.1 490.3 500.6 508.6 513.6 515.8 516.5 516.9 515.2 511.5 508.5 507.6 507.8 508.2 512.7 518.6 523.2 527.6 533.8 541.3 547 551.6 557.4 560.5 561.9 561.4 560 558.1 554.6 549.4 544.5 539.8 537.6 534.1 531.2 529.2 526.2 523.8 520.5 516.1 510.4 504.7 498.3 492.5 487.1 482 478.2 474.4 473.5 473.4 475.7 477.3 479.1 481.1 482.8 484.2 484.8 484 482.4 480.6 478.3 476.2 474.4 472.5 470.4 469.6 468.7 467.3 465.4 463.2 461 458.5 455.3 451 447.5 443.2 439 438 440.3 441.8 443.9 446.3 448.2 448.7 448.6 447.8 446.8 444.7 443.1 441.6 438.8 435.8 431.9 426.9 422.7 419.3 416.4 412.6 406.6 401 396.2 394.8 393.8 393.9 393.4 386.3 376.8 360.8 340.4 323.3 308.7 298.2 289.4 280.5 274.1 266.7 259 250.5 242.9 236.9 228.9 217.6 207 206.9 205.6 202.9 200.9 197.7 207 231 248.1 281 315.7 337.2
539.4 537.1 534.4 532.5 530.2 527.1 523.3 519.2 516.3 512.6 509.3 506.1 502 498.1 495.5 491.6 488.4 484 481.7 477.3 471.2 466.1 462 450.1 446.8 446 448.3 449.8 448.9 449 448.7 447.1 445.2 446.1 444.9 443.2 442.8 441.1 440.3 439.5 438.4 436.2 433.8 433.3 432.7 434.2 433.6 431.3 431.1 436.6 440.1 444 447.9 449.8 450.1 445.5 437.5 420 400.8 381 356 344.6 371.7 401.7 431.3 456.7 478.1 491 502.6 508.8 514 517.4 518.7 519.3 517.9 514.2 507.9 506.7 506.7 506.4 512.7 520.1 526.6 529.6 534 544.5 551.2 554.4 558.4 560.8 561.3 560.2 558.8 556.8 553.5 548 542.6 539.3 536.2 533.4 530.6 528.2 527.7 525.1 520.6 514.9 508.5 501.8 495.5 489.2 483.3 478 473.7 471.2 470.7 470.7 472.3 474.4 476.3 479.1 481.3 482.6 483.1 482.5 481.6 480.3 478.3 475.7 473.7 471.6 470 469.3 468.7 468.8 467.5 465.5 463.6 461.3 458.6 456.2 452.4 449.6 447.6 445.4 446.5 448.3 450.7 452.9 454.1 454.4 454.2 452.8 451.4 449.9 447.5 445.4 443.2 440.3 436.8 432.3 429 425.4 423.6 418.9 414 408.2 404.3 403.5 404.1 404.5 405.7 401.4 389.6 360.9 338.3 322.3 311.4 302.6 295.7 289 284.1 279 274.4 269.2 260.6 252.2 245.3 235.8 225.5 213.1 202.2 202 200.3 195.4 221.9 244.1 268.4 298.4 330.8 353.3
549 547.7 544.2 542.7 539.3 536.4 531.9 528 525.8 521.9 517.2 513.5 509.4 506.5 503.9 499.4 493.2 489.5 485.8 482.6 477.6 473.2 467.4 462.2 456.1 452.2 447.3 442.3 439.5 435.4 433.7 436.2 434.7 435.4 434.7 433.6 432.7 432.5 430.3 428.5 427 424.1 423.8 422.5 419.8 419.9 421.5 422.2 417.6 419.8 427.2 430.8 434.2 438.7 442.3 442.2 437.3 422.9 404.5 386.4 368.7 341.7 363.7 396.8 428.6 456.6 477.3 489.9 502.7 508.8 513.6 516 517.8 518.9 517 513.4 505.6 504 502.8 506.6 514.8 521.7 528.8 535.4 539.5 547.6 553.1 556.1 557.4 558.1 557 556.1 555.9 554.4 550.4 545.6 541.5 537.8 534.1 532 528.7 527.3 525.2 523.2 519.7 514 507.6 501.6 494.6 488.5 483.2 476.9 472.9 470 468.8 468.5 469 470.8 473.4 475.5 477.6 479.4 480.3 480.1 479.3 477.8 476.6 474.9 472.9 470.9 469.2 468.2 467.3 467.7 467.7 467.2 466.1 464.2 461.8 459.3 457.3 455.1 453.1 452.1 453.1 454.2 456.3 457.9 459.1 458.6 457.7 456.2 454.5 452.6 450.2 448.2 445 442.4 439.7 436.2 433.6 430.2 427.2 424.2 419.7 416.7 413.7 412.5 413 413 412.5 410.3 401.7 378.3 347.1 327.5 318.3 313.6 305.4 299.2 293.7 291.5 287.8 282.1 278 270.6 262.1 253.9 227.7 221.8 203.5 199.9 199.5 216.5 239.7 262 289.3 318.3 348.3 362.2
559.6 557.1 555.2 551.4 549 545.1 541.7 538.8 535.3 531.5 526.5 522.1 519.2 514.3 511.1 506.9 502.3 500.1 494.1 488.6 484.6 480.4 475.3 470.9 464.6 459.8 455.1 450.6 447.1 443.4 439 436.4 430.4 428.8 425.2 418.8 414.3 418.2 415.1 397.4 407.3 406.7 397.7 395.2 393.3 393.2 404.2 406.5 402.2 401.8 405.6 411.6 419 423.6 429 432.5 431.3 422.8 408.9 392.7 369 339.8 358.6 391.8 427.5 455.4 475.7 491.6 501.9 510 515.1 517.6 519.5 519.3 515.7 511.2 503.1 500.5 501.9 507.2 516.6 524 531.1 536.9 542.7 546.3 552.6 556.1 557.2 556.4 555.7 553.7 551.9 548.3 544.8 539.9 535.7 532.6 531.4 530 528 525.3 521.3 518.7 513 508.5 504.5 500 494.6 488.9 483.1 477.7 472.8 470.4 468 466.6 466.3 467.1 469.8 470.9 473 474.6 476 476.6 476.4 476.3 474.9 473.2 471.7 470.2 468.5 468 467.2 467.4 467.5 467.1 466.4 465.3 464.2 462.8 461 459.3 458.2 457.3 458 458.3 459.9 461 461.4 460.4 459.1 457.1 455.3 453.8 452.3 450.5 447.8 445 442.7 439.3 436.9 433.4 429.6 427.9 425.4 423.8 422.6 421.1 420.3 420.3 419.8 418.7 413 399.4 371.7 352.8 340.9 335.3 331.5 319.3 311.8 301.4 292.7 287.9 285.1 281.8 274.1 258.5 233.7 214.6 201.7 201 213.2 237 265.9 288.3 315.1 339.6 358 366.3
569.1 566.3 564.1 560.5 556.7 553.6 550.1 546.1 542.7 539.1 537 533.2 527 523.5 519.1 515.5 513.1 508.8 502.5 497.6 494.4 490.4 486 479.7 474.6 469.6 463.7 460.9 455.8 453.3 448.8 445.2 441.8 439.5 435 430.7 426.4 417.8 410.5 402.2 388.6 394 395.5 392.7 385.4 377.1 374.6 379.8 375.7 379.8 383.8 387.5 394.8 402 407.5 412.5 413.2 411.6 405.9 385.7 365.4 335.1 359.4 388.8 423.1 452.3 475.6 491.1 501.9 509.5 514.4 516.9 518.3 517.8 514.9 508.3 500.1 498.2 500.5 509.8 519.5 526.9 534.3 538.6 544 546.4 552.4 555 554.9 553.9 551.1 549.4 545.8 543.2 540.1 535.5 533 530.4 529.4 528.8 526.7 524.5 521.7 516.3 512.8 508 502 497.8 492.2 486.4 481.3 477.5 472.3 469.6 466.9 465 463.8 464.3 465.1 466.4 467.7 469.8 471.6 472.5 472.8 472.8 472.2 471 469.6 467.9 467.3 467.3 467.4 467.6 467.2 467.1 466.8 466.4 465.1 464 462.7 461.8 461.4 460.9 461.3 461.4 462.2 462.9 462.8 461.7 460.3 457.6 455.4 453.5 452.1 451.2 449.6 447.8 445.4 443.4 441.7 438.9 434 431.1 430.2 429.7 428.9 428.2 428.1 426.6 425.5 423 418.1 409.6 394.7 379.5 367.8 358.2 346.4 332.4 320.8 309.3 298.2 292.5 287.7 283.6 274.9 254.8 231.1 207.3 202.2 205.5 225.3 245.4 265.9 297.6 324.6 344.1 357.5 367.4
577.7 573.7 571.4 568.1 564.2 560.5 557.6 554.2 549.8 546.7 545 538.4 536.2 533.5 528.8 524.2 521 517.6 512 508.1 504.5 501.1 497.1 491.6 486.4 482.4 478.1 471.3 467.5 465.7 461.6 457.1 454.2 450.7 446.3 442 436.5 433 428 420.5 417.5 417.5 416.4 416.9 410.6 402.1 385.7 377.4 364.7 359.8 359.2 361.1 372 377.3 383.5 385.6 387.6 390.6 385.9 375.6 361 332.3 355.6 381.8 410.8 440.2 463.9 482.2 495.4 506.6 512.9 515.6 515.9 515.8 512.2 505.5 497.4 494.7 499.5 511.1 521.5 526.9 534.8 539.1 543.6 546 550.2 551.8 551.8 550.4 547.4 543.1 539.5 537.3 532.8 530.3 528.9 527.1 526.7 526.7 526.1 524.8 521.7 517.5 512.5 507.8 502.1 495.5 490.7 485.3 480 476.1 471.3 468.6 466.2 463.8 461.2 461.5 461.9 461.6 462.1 463.5 466.8 468.6 469.3 469.5 469 467.5 465.7 465 465.1 465.1 465.7 466.2 466.6 467.2 467.7 467.3 466.7 465.6 464.6 463.6 462.8 462.7 462.7 462.8 463.5 463.6 463.8 462.7 461.1 457.9 455.6 453.6 452.3 451.4 450.6 449.4 448.2 446.2 443.7 440.7 437.5 435.1 435.4 434.9 434.4 434.1 433.4 431.8 429.6 426 420.6 412.9 402.5 392 382.4 369.1 353.2 335.8 324.8 314.1 302.2 295.1 289.8 283.2 269.7 249.6 226.3 206.2 202.8 208.9 231.2 250.7 269.5 286.3 312.2 336.8 352.3 361.7
585.8 580.2 577.1 574 571 567.3 564.3 561.2 559.1 556.3 552.5 548.6 545.5 540.9 537.2 533 530 524.9 521.9 517.2 513.8 509.7 506.1 502.3 497.6 494.5 488.9 483.4 481.2 478.4 476.1 472.7 469.5 465.2 462.7 456.9 453.1 449.1 443.5 438 434.6 429.6 430.8 427.2 424 418 409.1 396.8 382 373.6 363.8 352.3 349.7 349.7 355.9 360 362 363.5 365 359.2 353.7 332.1 344.5 367.2 391 418.3 445.3 464.8 479.5 495.5 506 512.4 514.4 513.5 510.4 504.2 497 489.9 494.8 507.6 518.1 527 533 537.9 543.4 545.8 548.1 547.7 542.4 537.1 534.5 532.3 528.7 526.6 525.9 525.9 524.8 524.2 523.8 524.8 525.1 524 521.8 518 512.9 507.3 501.4 495 488.3 483.4 479 473.8 470 466.8 464.6 462.4 459.8 457.1 458.5 459.1 459.8 460.3 462 464.2 465.8 466.5 465.7 465.3 464.5 463.7 463 463.6 464.2 464.8 466 466.9 467.5 467.8 467.7 467.1 466.2 465.1 463.7 463.6 463.9 463.8 464.1 464.3 463.8 463.1 461.3 459.2 456.3 453 451.7 450.6 449.4 448.7 447.8 446.6 444.9 442.5 439.4 437.7 437.4 438.3 439.4 439 437.5 435.3 431.8 427.6 422 415 407.2 395.8 382.8 371.4 356.3 339 328.7 320.3 305.2 296.4 289.2 277.9 263.7 242.1 223.8 206.8 203.8 213.3 236.3 259.3 291.7 300.3 308.1 326.5 344.3 357
589 584.8 581.8 578.8 575.2 571.8 569.1 567.9 565.7 563.2 559.6 554.9 552.4 549.7 545.7 541.7 537.6 533.7 530.1 526.8 524.6 520 515.7 510.7 507.8 504.1 500.5 498.7 495.9 492.2 487.6 484.3 480.6 479.2 475.5 470.3 468.1 464 456.2 454.6 452.1 447.8 445.8 442.9 440.3 434.1 425.5 413.1 394.4 386.4 380.8 370.5 368 364 353.8 340.6 339.8 340.7 344.1 343.4 342.7 329.6 335.6 348.9 371.6 390.9 412.4 444.5 469.9 480.5 488.9 499.1 505.9 506.3 503.6 499.8 491.8 484.8 486 498.1 510.6 521.8 528.8 533.8 538.4 538.1 534.6 531.9 526.4 521 518.7 516 516.3 517.3 517.9 518.5 518 518.2 519 520.6 523.2 524.6 523.7 519.5 513.6 506.5 500.3 493.4 488.4 482.6 477.1 472.8 469.6 467.4 464.4 461.2 457.8 454.7 452 454.6 456.5 456.6 458.5 460.4 462.2 463.7 463.4 463.4 463.2 462.5 461.6 461.9 462.4 463.4 464.9 466 467.6 468 468.7 468.3 467.3 465.8 464.7 464.3 464 463.8 464.2 464.3 463.6 462.9 461.6 459.6 456.2 453.1 450.8 449.7 448.3 447.5 446.7 445.5 444.3 442.4 440.5 438.9 438.7 439.8 440.4 439.3 437.3 435.2 431.5 426.8 421.9 415 407.6 398 387.2 373.8 358.6 341.2 331.6 322 308.5 299 287.9 277.5 262.8 241 222.7 208.4 204.9 209 231.9 265.9 303.6 320.3 328.7 333.7 342.1 353.3
592.5 588.4 585.3 582 577.9 575.3 573.4 572.3 571.8 569.4 567.5 565.7 561.2 557 553.1 550.1 546.4 542.4 539.4 537.7 535.1 528.9 525.1 520.8 517.5 514.2 512.7 509.4 504.3 500.5 497.5 493.9 492.1 488.4 484.9 482.1 480.1 477.1 471.4 468 466.3 464.4 461.6 459.3 456.7 449.7 440.3 425.2 402.5 400.7 391.6 386.3 387 379.4 370.6 361.6 350.6 343.1 336.4 331.8 333.4 332.5 327.3 336.8 350.3 368.6 386.2 409.1 433 462.8 478.1 485.1 489.8 490.4 490.4 489 485.3 476.3 480 487.7 497 513.5 521.6 528.7 529.3 527.6 526.6 522.4 519.8 518.3 515.9 514.9 514.3 512 511.3 511.9 513.8 516.6 518.3 521.2 524.4 525 522.5 518.5 511.8 505.9 498.5 492.2 486 480.9 477 473.9 469.8 466.4 464 461.6 459.6 457.4 453.6 448.8 448.3 451.7 455.6 457.4 459.2 461 461.4 461.6 461.2 460.6 460.1 460 460.7 461 462.5 464.9 466.9 468.3 469.6 469.5 468.6 467.2 465.5 464.6 463.7 463.8 464.3 464.3 464 463.5 461.9 459.5 455.8 452.5 449.6 447.2 445.4 444.3 443.7 443 441.5 440.3 439.2 437.9 437.4 437.6 437.3 436.5 435.4 433 429.3 425 420.1 414.3 407.3 399.9 389.7 377 365 351.9 342.4 329.5 318.1 307.6 299.3 288.8 270.7 246.6 226.7 211.2 205 210.8 231.9 266.8 302.2 333.4 343.9 347.8 350.7 357.1
594.3 590.5 585.9 581.7 578.9 575.9 574.4 573.5 572.8 572 571.4 570.8 566.9 563.1 559.1 555.9 551.9 547.7 545.9 543.6 540.8 537.1 533.5 528.9 525.8 524.6 520.9 517.4 513.9 510 505.9 503.1 499.5 497.7 494.4 493.3 490.1 487.3 484.8 481.7 478.8 477.5 474.5 468.8 465.8 460.5 453.4 432.1 420.2 409.5 407.7 400.1 397.6 389.5 378.5 369.6 364.5 358.5 346.5 336.8 331.1 327.1 324 330 334.4 349.3 364.5 380.5 398.2 419.2 440.2 470.1 482.8 486.3 487 486.4 480.6 462.5 471.9 483.8 493.6 503.2 513.8 520.8 525.5 525.4 521.8 520.2 519.3 516.4 513.2 512.5 510.2 509 509.3 509.3 509.8 509.9 511.1 513.1 516.9 517.8 514.6 509.5 506.3 501.4 496.7 491.5 486.1 482.6 478.4 475.6 471.6 468.6 465.9 463 460.5 457.6 455 451.5 445.2 445.3 452.7 455.5 457.4 458.4 459.3 459.7 459.2 458.5 457.5 457.4 457.8 458.5 460.1 462.7 465.4 467.9 469.8 469.7 468.6 467 465.2 463.9 463 463 463.4 464.4 464.9 463.8 462.3 459.4 455.7 451.9 447.4 443.1 439.2 437.7 437.1 436.4 435.3 434.4 434 433.7 433.7 434.2 434.8 433.6 433.4 430.6 427 423.4 418.9 413.4 407.8 401.3 391.5 382.8 374.3 363.7 352.1 339.7 331.3 322.1 312.8 301.1 279.9 252.3 232.5 218.5 206.7 208.8 230.9 264.6 299.4 333.7 348.5 354.2 357.3 360.9
593.6 589.1 584.5 579.8 577.3 575.4 574.7 573.9 573.7 574.3 574.2 573.8 571.2 566.3 562.6 558.8 555.9 553.9 551.6 548.9 546.4 543.3 541.1 539.8 535.8 533 527.6 523.4 520.5 517.3 514.9 510.6 509 507.5 504 501.3 499.8 498.6 496.3 492.4 489 486.4 482.8 479 476.3 471.7 462.9 438.9 429.9 425.3 421.1 413.6 409.5 400.3 391.6 379 374.4 368.9 356.3 343.6 337.4 330.3 326.3 321.7 324.9 331.2 344.3 358.5 373 391.4 410.3 435 459 477 481.5 478.9 468 450.1 455.8 475.8 488.9 500.6 508.8 517 518.7 521.5 520.7 517.2 514.6 513 509.3 507.9 507.1 507.3 506.9 507.2 507.1 506.9 508.1 510 511.7 511.7 508.8 506.4 504.2 500.6 497.5 493.8 489.5 485.5 482.3 478.8 474.8 471.5 469 465.3 462.5 458.8 455.4 452.5 447 430.7 448.7 452.8 455.1 456.1 456.3 457 456.6 456.5 454.7 453.7 453.1 454.3 456.1 458.3 461.6 464.4 466.6 467.7 467 465 463.2 461.5 461 461.4 462.4 463.3 463.7 462.5 461.2 458.6 454.8 449.9 444.3 437.9 430.9 428 425.2 424.1 422.7 422.9 424.9 424.2 427 429.3 430 429.9 428.4 426.3 423.5 420.4 417.2 413.1 408.5 403.5 396.7 388.4 380.5 371.6 358.5 351.4 339.1 331.8 323.6 310.7 287.6 259.6 236.7 223.6 211.5 207.6 228 258.6 293.2 330.6 343.9 348.7 350.1 355.5
591.7 587.1 581.9 577.6 574.9 573.1 572.2 571.8 573.5 574.6 575.2 574.9 572.9 569.8 567 563.9 561.4 560.3 557.9 555.5 552.6 550.4 548.8 546.7 542.7 538.8 535.1 532.2 529.7 525.8 523.5 519.4 518.4 516 512.8 511.6 508 506.1 504.4 501.2 498.4 496.4 493 489.8 483.2 480.3 471.4 448.6 444.3 441.3 437.5 428.6 420.2 409 398.1 388.3 384.1 379.2 373.2 367.4 350.9 340.8 332.5 325.6 320.4 319.9 328.2 335.3 349.3 364.4 387.3 407.4 431.2 456.1 465.5 464.1 454.4 438.5 440.2 452.1 473.5 494.5 506.7 511.1 512.6 512.1 512.4 511.8 509.1 506.2 505.6 504.1 503.4 501.3 500.3 499.9 500.9 502.7 504.2 506.2 508.2 509 507.8 505 504 501.6 499.9 496.1 491.9 488 483.5 480.3 476.1 473.6 469.7 465.9 463 458.8 455.4 451.2 447 423.9 436.5 445.8 451.1 453.6 454.6 455.1 454.6 453.6 452.3 450.7 448.7 447.1 450.1 453.9 456.8 459.4 461.5 463.2 463 461.9 459.7 458.7 458.2 458.7 460 460.9 460.6 460.4 458.7 455.9 452 446.7 439.2 433.4 427.2 423 420.1 417.5 416.1 415.9 415.6 415.4 416.3 419.9 423 422.1 421.5 420.2 418.3 417.6 415.6 412.6 409.2 405.3 399.6 392.5 384.9 376 369.1 360.9 352.4 344.9 333.7 322.2 295.1 266 243.3 226.6 215.2 206.7 221.9 265.7 291.4 316.5 325.5 325.2 324.5 330.4
589.8 582.2 576.3 573.6 569.6 566.5 565.3 567 570.9 574 575.7 577.1 575.2 573.2 572.3 569.7 569 566.9 565.5 563.5 561.2 560.2 557.3 554 551.7 548.2 545.7 542 539.4 537.4 534.6 532.3 528.7 525.7 524.3 520.5 518.9 515.5 512.7 510.4 507.9 505.5 501.9 498.5 492.4 488.9 481.3 471.1 461.2 455.5 453.4 443.9 435.2 423.4 414.9 404.7 398.3 392.4 385.4 382.8 371.3 355.3 343.1 334 325 318.2 317.6 316.3 323.9 342.1 356.9 382 414.2 440.7 456.3 454.1 444.3 430.9 430.9 437.4 455.4 476.2 493.9 500.8 503.7 503.4 502.4 501.3 501.6 501.9 502.1 501.4 499.7 497.7 495.2 491.2 489.6 492.2 496.5 500.6 504.8 507.7 508 507.7 506.7 505.4 503.3 500.8 497.2 493 488.4 483.9 478.1 474.8 470.9 465.9 461.5 456.8 452.5 448.7 442.4 428.3 412.8 434.8 445.4 450.4 452.5 452.8 452.3 451.3 450 447.4 444.3 443.4 443.5 445.3 447.8 450.6 453.4 455.5 456.6 456.7 456.7 455.7 455.5 455.6 456.6 457.1 457.1 456.7 455.3 452.5 447.1 442.5 437.5 431.9 425.9 421.3 417.4 414.9 413.5 412.3 413.2 413.1 413.3 413.1 413.6 415.3 415.7 415.7 415.1 413.9 414.3 412.7 410.1 406.7 401.6 394.1 386.3 379.2 372.8 367.4 361 354 344.8 333 301.7 268.1 246.7 230.9 217.3 209 212.4 244.5 282.2 303.1 303.9 298.8 299.4 307.4
586.4 578.1 569.5 562.9 560.5 558 557.8 561.8 564.7 569.4 575.5 580.3 583.1 580.8 577.9 575 574.3 574.3 572.7 572.4 569.5 568 565.3 563.1 559.9 557.4 554.2 550.9 548.7 545.7 542.9 541.1 540.4 538.2 534.9 533 529.6 526.5 523 520.6 518.2 515.2 512.7 509.4 504.2 498.2 493.4 486.7 478.5 468.6 466.3 459.4 450.1 442.6 432.7 418.8 412.5 406.6 403.2 400 392.1 373.4 355.8 342.9 333.6 325.7 319.1 315.6 314.3 323 334.8 348.5 379.4 429.9 451.2 447.4 436.7 423.3 422 427.9 443.2 464.9 480 487.4 492 494.3 497 498.5 498.5 498.5 498.5 498.5 497.1 493.9 489.6 484.8 482.5 481.2 485.3 490.8 495.2 500.1 503.5 505.1 505.2 504.6 503.6 501.3 498.5 494.4 490.1 485 480.2 475.7 469.2 465.2 460.6 455.5 451.2 446.1 440.1 431.8 408.7 420.5 430.4 442.3 448.5 450.1 450 449 447.9 445.2 442.1 438.7 438.2 438.9 439.8 440.6 442.8 444.5 445.8 447.9 449.2 449.7 450.6 451.5 452.7 452.9 452.1 451.2 449.3 446.9 444.1 440.1 436.1 430.9 425.3 420.3 416.4 412.3 409.2 409.1 409.8 409.7 409.3 409.2 409.6 409.7 409.2 408.9 408.3 406.9 408.4 409.9 408.4 406 402.3 396.4 388.9 382 376.3 372.6 367.2 360.2 351.8 337.2 303.1 272.4 254.3 235.9 220.8 210.8 208.8 227.9 254.2 283.1 275 272.9 282.6 291.5
583.2 573.8 563.1 552.8 550.3 546.7 546.7 551.6 557.4 562.8 568.9 577 581.2 582.8 583.3 583.1 582.3 581.4 579.8 577.7 574.5 570.6 568.6 566.8 564.2 561.7 559.8 558.2 556.6 555.8 553.6 553.2 551 550 548 545.2 541.5 536.9 533.5 531 528.4 525.2 520.5 517.2 513.3 509.1 504.7 500.4 491.6 484.5 476 470.7 468.6 464.2 451.2 432.8 427.9 422.3 416.4 413.4 407 391 370.7 354.6 342.9 335.4 328.6 321 313.9 312.3 318.6 330.9 352.1 391.4 442.7 444.1 433.1 419.5 414.5 420.6 439.3 458.6 472.5 480.4 486.9 491.1 493.1 494.3 494.8 495.5 495.4 495.5 494.3 492.2 486.7 481.6 473.4 472.9 473.9 479 483.2 488.8 494.3 497.7 500.6 501.4 500.5 499.4 497 493.6 489.9 485.6 481.3 476.8 470.6 466.4 461.5 457.5 452.6 447 440.4 428.7 410 397.1 412.5 425.4 440.4 444.6 445.8 446.4 445.5 443.6 439.6 436.5 434.1 435.6 435.4 435.7 435 436.5 438.2 438.1 438.4 440.6 442.4 444.3 445.4 446.4 446.9 446.7 445.2 443.6 440.7 437.6 433.5 429 425.2 420.2 416.4 411.9 407.2 403.6 405.6 405.9 405.1 405.1 404.8 404.7 404.4 404.3 402.3 401.2 400.8 402.2 402.6 402 400.5 396.3 390.2 383.4 378.5 374 369.7 363.9 354.9 333.5 300.4 275.5 255.4 242.1 227 213.7 210.8 220.9 236.4 248.8 255.3 271.1 294.9 307.3
586.4 574.1 561.7 542 536.1 532.4 533.2 538.3 546.1 554.3 562.2 568.1 573.1 576.9 580 583.7 584.9 583.9 581.5 578.5 575.5 572.7 569.2 567.9 566.9 566.1 564.9 564.4 564.2 565.2 565.6 564.3 562.9 561 558.8 555.8 551.6 548 543.8 541 536.7 532.8 528.6 525 520.4 517.1 513.8 509.3 505 497.4 492.7 489.5 485.2 479.5 468.9 450.5 443.5 438.6 432.4 427.5 416.7 404.3 384.9 367.7 357.4 345.8 336.6 326.6 319.3 310.8 310.9 327 337.8 362.6 400.9 436.6 429.3 413.3 403.6 412.2 431.3 453.5 468.3 477.5 484.1 487.8 488.9 490.1 491.1 492 492.6 493.2 491.7 489.9 486.2 480.1 470.3 460.1 462.7 464.2 470.9 477.3 484.2 490.3 494.5 497.4 497.6 496.1 494.4 491.6 487.4 484.4 481.1 476.6 472.5 468.3 464.6 460.8 454.8 447.4 439.7 428.4 419.7 402.7 391 409.2 424.6 437.7 441.4 442.2 441.6 441.2 438.7 435.1 431 428.6 432 432.2 432.2 432.5 433.3 434.2 434.5 435.8 437.6 438.7 440.5 441.7 442.9 442.1 441.7 440.9 438.9 435.1 432.4 429.1 426.2 422.7 418.9 413.1 407.8 402.2 393.3 399.3 399.8 400.4 401.6 401.1 400.9 400.5 399 397.9 395.3 394.5 395.1 394.2 393.2 390 386.4 381.9 377.1 373.3 367.7 359.5 346.9 330.7 306.5 280.3 259.4 241.2 230.2 215.1 212.2 222 231.7 240.3 249.7 273.6 303.8 329.1
589.5 577 564 545 527.9 518.2 519.2 524.8 531.5 539.8 547.3 555.9 562.5 566.6 570.2 575.8 580 580.2 577.7 574.9 573.3 570.3 567.6 568.4 566.8 566.7 566.8 568.1 569.1 570.3 571.8 572.4 571.8 570.3 567.7 564.5 560.9 556.4 552.7 548 544.2 539.3 535.2 531.8 528.5 524.4 520.9 517.1 513.7 510.1 505.6 500.8 496.4 490.4 483.3 472.6 463.8 457 451.1 441.2 429.9 416.6 399.4 381.3 368.9 353.5 343 332.7 320.3 312.2 308.9 315.7 325.5 341.5 363.8 392.5 416.6 405.7 398.4 402.9 418.9 441 461.9 474.5 479.7 484.3 484.3 483.9 485.8 487.5 489.1 490 489.7 488.1 484.9 479.8 469.9 457.9 449.7 452.2 457.8 468.1 479.3 487.9 493.3 496.2 496.9 495.8 493.2 490.1 487.2 483.8 480.4 477 473.3 469.4 466 462.4 457.7 451.1 438.9 427.5 418.8 409.4 388.8 394.9 407.7 424.2 435.7 438.7 439 438.9 436.5 433.5 429.8 424.3 423.7 426.9 427.5 428.4 429.7 430.9 431.9 433.6 434.5 435.4 436.1 437.1 438 438.5 438.8 438.2 438 435.2 433 430.5 427.8 424.8 420.7 415.3 407.3 401.8 392.9 381.9 385.3 388.6 395 395.7 396.6 395.9 394.3 391.7 389.3 389.3 387.4 384.8 383.4 382.5 381.1 378.1 369.1 355.7 341.8 330.1 318.3 305.8 289.7 275.3 260.6 244.1 226.2 214.4 212.8 220.8 229 236.5 243.4 264.4 292.4 321.7
590.3 579.8 567.2 551.3 530.5 506.8 506.1 507 513 519.1 529.1 537.3 542.4 548.8 555.7 561.1 566.2 567.6 567.9 567 564.8 564.1 561.7 560.7 561.4 562.2 563.3 565.2 567.6 571.3 574.7 576 576.5 575.9 573 569.5 565.5 561.1 558.1 554.2 549.5 545.7 541.9 537.6 533.9 529.7 525.9 521.5 518.3 515 510.8 505.9 501.3 496.4 490.4 483.1 476.2 469.9 461.8 452 440.9 427.3 412.1 393.9 376.2 360.8 348.2 335.8 322.7 314.7 307 308.3 318.6 324.2 340.9 361.2 385.7 393.9 390.9 392.9 403.5 422.6 444.5 463.7 471.2 474.2 475.3 476.5 478.8 481.2 484.2 484.9 485.3 484.3 481.7 476.8 470.4 449.5 444.7 444.5 450.9 467.6 479.6 487.6 493.5 496.3 496.9 496 494.1 491.8 488 484.8 481.2 477.2 474.8 471.5 467.4 463.6 459.1 452.6 437.9 424.8 414.6 410.5 396.3 382.2 394.2 411.4 427.8 434.8 437 436.6 435.2 432.5 429.4 423.3 416.8 414.5 417.2 419.8 421.4 423.4 423.7 427.5 429.5 431.1 431.4 432.7 433.1 435.3 436.3 437.8 436.7 435.3 434.1 431.6 428 424.2 420.4 414.4 405.8 399.2 393.1 380.9 371.7 373.4 379.5 390.1 393.4 392.1 390.4 387.3 384.3 382.2 380.2 379 378.9 377.5 372.9 361.1 342.2 325.8 310.6 298.7 286.1 275.2 266.5 257.4 250.7 239.4 220.2 213.4 216.5 224 228.7 237 245.1 256.3 283.3 311.1
588.8 578.6 564.3 550.2 535.2 514.1 492 494.4 495.9 501.3 511 518.4 523.4 528.7 534.9 541.3 545.8 550.3 552.4 553.9 553.6 552.9 552.5 552.3 552.8 554.1 555.6 558.7 563.9 572.1 578.7 581.9 582 580.9 578.8 575.2 570.9 565.9 562.5 557.7 552.6 548.7 544.5 540.5 536.9 532.5 528 523.9 519.6 515.5 511.2 506.3 501.3 495.8 489.8 484.7 479.1 473.6 467.4 459.5 449.3 434.5 421.4 407 390.7 371.6 354.8 339.6 327.6 316.5 309.1 306 314 318.8 324 340.8 361.2 379.7 383.3 381 390.6 405.4 426.9 448.1 462.3 464.9 464.7 466.4 469.7 473.5 477.7 479.4 478.8 477.3 474.4 470.4 463.3 443.5 438.7 436.8 443.2 464.9 478.1 486 492.1 495.5 496.4 495.3 494.5 492.9 489.2 486.1 482.3 479.4 476.1 472.3 468.2 463.5 458.6 451.1 434.3 420.3 411.8 407 390.1 375.2 382.6 403.1 420.7 431.7 435.1 435.1 434.3 432.2 428.9 424.7 418.8 409 405.8 407.7 410.3 411.6 412.4 419 422.4 424.3 426.2 428 428.7 429.6 431.6 433.1 433.7 433.3 431.9 429.3 425.7 421.9 417.2 412.2 405.4 397.5 393 384.8 370.6 361.8 362.7 371.6 386.2 387.5 385.9 383.1 379.2 374.1 370 369.5 367.8 362.4 349.5 331.9 313.4 298.1 283.9 271.4 259.1 249.3 245 238.3 234.3 221.8 212.7 224.2 222 225.7 230.8 236.1 245 253.3 274.6 305
583.1 570.2 559 549 535.5 518.8 491.4 484.8 482.4 486.1 493.6 499.2 504.4 510.7 518 524 528.8 532.3 534.8 535.4 537.8 539.1 538.8 540.3 540.9 542.8 545.3 549.4 558.7 572.8 582.9 588 588 586.7 584.1 580.9 576.5 571.5 566.3 560.3 554.9 550.9 545.4 540.8 535.6 530.6 525.3 520.1 515.6 510.6 505.7 500.8 496.3 492.3 487.6 483.3 478.2 473.4 467.8 462.4 455.4 444.5 431.1 418.8 404 386.1 366.2 346.2 330.2 319.2 313.2 306.6 308.2 314.9 319.4 328.3 344 361.8 374.3 374.3 381.5 392.5 409.1 429 445.9 452.1 455 456.3 459.5 462.6 466.5 469.3 469.7 469 466.7 463 457 439.5 435.5 426.6 435.6 455.4 471.4 482 489.3 495.5 496.4 496.5 495.4 494 490 486.5 482.5 479.7 476.2 471.9 467.8 462.9 457.6 450.1 431.2 417.6 410.6 405.2 390.4 373.6 375.3 395.2 417.5 432.1 435.7 436.5 436.2 435.3 432.6 429.8 424 416.9 407.4 395.6 393.9 396 404.4 412.2 416.4 418 418.4 419.1 419.3 420.9 422.2 425 426.1 426.4 425.9 424.1 422 417.5 414.2 409.3 404 398.9 392.6 385.1 374.5 367.5 354.9 359.8 371.9 380.5 380.3 378 373.4 366.2 359.4 355.4 352.3 344.7 326.9 306.9 290.2 274.3 259.6 245.3 232.8 226.4 217.4 217.9 220 222.5 224.1 230.9 229.8 227.4 231.6 236.9 242.6 249.9 272 301.2
562.8 558 552.7 541.2 528.8 517.7 493.1 469.7 469.8 472.6 480 484.7 490.2 497.6 504.7 510.2 514.8 519.7 521 521.7 521.8 522.5 523.2 524.1 526.4 528.2 530 536.8 548.1 559.8 569.1 579.7 583.6 582.2 579.4 573.6 568.2 565.7 561 555.4 553.4 549.1 542.2 534.3 527.2 521 515.4 511 506.9 502.1 497.9 493.5 490.7 488.6 485.6 481.5 476.9 472.7 467.4 462.1 456 449 440.4 428.1 415.1 397.8 378.4 356.3 336.1 322.4 314.4 305.5 303.9 311.1 314.7 321.9 332.1 344.2 363.6 364.9 372.1 380.5 393.5 411.1 428.9 441.1 444.3 446.9 448.8 452.4 455.4 458.4 460.4 459.5 457.9 454.9 447.7 434.9 428.5 426.4 423.8 446.5 468.2 478.4 487.4 493.3 494.5 494 492.7 490 487.3 483.9 481.3 477.5 475.4 471.6 466.4 462.7 456.8 448 427 414.8 407.7 403.2 392.1 377 363.7 388 410.2 432.8 439.6 440.8 440.1 439.4 437 433.2 429.4 424.6 417.6 407.2 401.2 391.3 388.3 402.2 409.4 411.8 411.8 411.2 412.1 412.7 414.5 416.1 418.1 418.7 419.7 418.7 416.6 413.7 410.6 407 402.5 398.5 393.5 387.4 380 367.2 351.5 349.1 362.9 373.9 374.3 371.6 367.3 360.6 352.5 343.9 334.8 324.6 309.8 284.4 268.5 251.4 239.6 220.7 219 221 225.1 225.9 227 227.7 230.9 233.8 235.5 233.8 231.3 236.4 242.1 250 273.3 302.8
546.9 545.3 539 531.2 523.3 512.4 500.4 483.2 455.8 460.8 465.9 472.6 479 483.6 490.6 496.4 501.6 505.4 507.1 506.8 507.8 507.6 506.8 505.8 506.6 508.9 509.9 519.5 532 542.1 549.6 555.3 558.1 555.8 553 549.5 548.5 544.1 538.1 532.3 528.4 524.6 520.9 516.5 511.1 506.7 503.1 498.6 494 489.5 487.2 484.1 482.9 480.6 478.1 475.2 472.5 468.7 463.7 459.4 454.2 449.1 443.1 435.2 422.3 400.7 383.3 357.4 345 327.4 314.6 309 302.5 305.5 312.5 318.4 327 335.6 351.8 360.2 365.4 371.9 380 397.1 414.4 430.5 435.6 438 439.7 443.9 447.1 449.5 451.2 450.5 449 445.9 441 430.7 424.6 422 419.4 439.6 461.5 475 482.5 485.8 489.1 487.7 487.1 484.6 482.2 480.2 478 475.5 472.9 469.5 466.6 462.6 457 447.5 421.4 412.5 408.3 400.5 391.4 374.1 359.8 380.5 404.4 427.1 440.5 443.7 443.7 443.2 441.2 438.1 434.3 429.8 424.6 416.8 405.8 402.1 385.4 391 400 404.7 405.6 404.7 401.9 404.8 407.7 411.6 413.8 415.8 415.3 414.9 413.8 411.9 409 405.9 402.3 398.3 394 389.2 382.3 370.6 349.4 341.3 352.8 369.5 370.3 368.7 363.5 357.8 351.3 343.7 334 318.4 300 272.3 248.3 236.1 221 221.5 223.7 223.9 228.3 230 231.9 235.1 237.7 239.8 239.2 239.2 236.8 236.7 242.5 252.7 275.4 303.4
530.4 528.9 526.4 524.7 517.4 506.5 495.9 485.7 470 445 448.9 458.5 465.2 469.1 473.1 479.1 482.3 486.2 488.7 490.9 492.1 491.3 490 490.1 490 491.2 492 500.9 513.3 522.2 527.3 531 531.8 531 528 525.7 523.6 520.2 514.7 510.3 506.1 502.1 498.4 494.3 489.4 485.2 482.5 478.5 475.5 473.5 471.3 470.3 468.6 466.8 466.1 464.2 462.9 458.9 454.5 453.1 449.5 443.4 438.1 431 418.1 389.6 367.3 352.6 338.6 327.3 315.5 308.6 303 301.3 310 315.5 321.9 328.4 347.4 355.7 358.9 363.9 371.2 385.4 402.4 420.6 426.1 427.8 431.2 435.6 438.5 439.8 441.2 441.7 440.4 437.4 433.5 426.7 420.4 417.6 413 433.7 454 463.7 470.4 475.8 479.4 481.8 481.2 479.8 477.5 475.7 472.7 470.3 467 465.4 462.2 457.5 451.4 440.9 420.7 409.9 405.9 401 391.4 372.6 355.9 370.4 398.7 423.6 438.9 444.6 445 444.8 444.1 442.1 438.3 433.8 428.2 421.1 411.1 401.5 393.6 372.4 383.6 393.2 398.4 397.6 393.7 393.9 401.2 405.9 409.5 411.8 412 411.4 411.4 410.5 408.4 405.5 403.5 400.2 396.1 391.9 385.1 374.5 347.5 334 336.3 355 368 366.8 361.9 356.6 351.1 343.3 334.5 322 294.8 264.2 233.3 224.6 228.3 225.6 227.6 234.9 240.1 239.8 238.8 242.3 244.5 245.9 245.8 244 242.9 243.1 241.4 254.5 275.1 301.5
515.2 514.1 512.4 510.8 503.8 496.1 488.4 476.4 464.1 452.9 433.1 441.8 448 452.3 455.1 459.3 463.8 466.8 469.4 472.1 472.5 471.4 471.4 470.6 470.8 472 474.2 480.6 491.8 499.5 504.4 505.4 506.1 505.8 505.2 504.2 501.5 498.8 494.8 490.9 487.5 484.1 479.9 475.3 471 466.1 462.7 458.7 456.3 453.5 451.6 450.2 448.9 447.8 446.3 442.5 439.2 436.1 429.5 423.1 417.4 416 407.9 399.2 391.6 376.8 357.6 338.8 327.6 318.2 312.4 307.9 303.4 300.1 305.8 313 318.1 325 340.5 350.4 353.2 357 363.1 374.3 393.7 412.2 418.2 420.5 425.4 429.2 431.3 432.5 433.8 434.6 433.5 431.7 428.1 423.1 416.8 411.8 408.7 428.8 447.6 457.6 465.5 470.4 474.2 476.7 476.4 475.5 473.2 470.9 468.4 464.7 462.2 459.2 455.4 450.5 444.2 436 415.7 408.5 404.2 399.5 393.4 370.5 355.1 360.7 389.1 416.4 441.2 446.5 446.5 446.2 446.7 444.9 441.1 436.1 430.8 424.2 416.6 406.3 394.7 383.7 362.4 378 390.3 388.9 381.1 373.5 382.2 396.8 402.8 405.7 407.7 409.5 409.9 409.2 407.7 405.9 404.5 400.5 396.1 390.6 383.9 374.6 351.2 331.1 328.3 348.4 365.4 364.7 360.6 356.2 350.8 335.3 314.9 296.4 275.3 252 225.3 230.7 228.9 230.5 245.7 258.2 261.3 258.9 255.7 255.5 255.1 254.7 255.4 253.6 251.8 251.2 246.4 248.8 273 298.2
492.9 492.4 490.6 487.1 482 478.4 470.2 462.5 450.8 440.8 426.4 429 433.3 436.1 437.8 441.2 443.2 446.2 449.5 451 450.7 450.4 449.7 449.3 448.9 451 454.7 458.6 465.6 475.6 477.1 478.6 480.3 480.3 480.7 480.9 480.4 479.4 476.3 473 469.7 466.4 462.6 458.5 454.3 450.1 446.7 443.3 438.4 435 430.4 428 425.2 419 412.9 407.8 404.3 400.6 395.9 388.7 384.6 381.4 371.6 365.3 359.4 352.5 343 331.6 318.4 310.2 307.9 306.9 303.2 297.1 303.7 308.4 314.2 319 335.4 342.6 348.3 350.7 354.9 366.2 384.7 406 413 414.2 419.6 423.3 425.6 426.9 428.4 428.2 427.9 426.5 424.2 419.1 408.9 406.8 405.7 427.8 443.6 453.1 460.6 466 468 469.8 470.6 469.6 467 463.9 461.2 458.3 454.7 451.5 447.3 443.4 437 430.2 417.7 407 400.9 396 393.1 368.6 353.4 351.8 377.3 406.7 433.5 450.3 450.5 449.4 449.7 447.6 443.3 438.2 432.7 426.4 419.2 407.4 392.9 385.9 365.9 362.3 380.7 379.7 364.2 360.6 363.7 378.8 394.6 401.5 404.7 407.1 408.1 407.7 406.3 404.2 401.9 398.6 394.7 390.4 385.1 369.7 346 327.5 318 344.7 357.7 359.4 356.9 350.9 333.6 312.1 291.4 269.5 253.2 243.4 226.8 232.1 238.7 253.6 265.2 279.9 285.8 283.2 280.3 270.2 264 263.3 265.8 271.1 262.6 258 253.5 249.8 268.6 291.7
469.6 469.7 466.7 462.3 458.4 453.4 450 448.5 436.5 429 421.2 417 418.4 420.2 421.6 425.3 426.1 428.6 428.9 429.5 427.5 427.4 425.4 421.4 421.2 425.6 429.1 435.5 439.6 443.7 448.5 452.3 454.4 455.9 457 457.8 457.2 457 455.1 453.6 451.5 448.9 446.6 442.9 439.8 435.6 431.5 427.1 421.1 415.2 409.3 402.9 395.5 386.9 381.1 376.5 372.6 370 364.8 359 353.4 348.3 344 343.1 335.5 331.2 326.4 322.5 315 308 303.9 305 299.5 298.2 298.4 306.6 310.3 313.3 323.6 331.5 342.4 343.3 348.1 359.9 382.5 402.8 405.7 406.4 410.8 416.2 419.4 420.8 421.4 421.7 421.1 420 418 411.3 402.1 402 407.1 431.1 443.3 450.7 457.2 460.7 461.1 461.8 462.1 461 459.7 456.3 453 450.9 447.4 444.3 441.1 437.6 432 425.4 414.4 404.3 397.5 391.1 387.9 372.4 349.4 341.9 365.8 391.7 418.9 442 451.2 453 453.3 450.1 445.4 440.3 434.7 427.8 419.2 407.7 394.4 384.6 365.1 350.9 364.2 370 351.5 349.1 361 376.9 391.8 400 403.9 406.1 406.7 406.2 404.3 402.3 400.3 397.7 394.5 391.2 385.7 373.3 343.4 322 312.8 334.4 354.9 351.4 343 330.2 313.6 293.2 272.2 252.3 233.5 226.1 229 233.2 257.7 273.8 290.1 301.7 307.7 305.7 295.8 284 276 272 272.9 276.1 270.1 263.1 259.3 254.1 263.2 283.8
445.1 443.2 443.2 441.1 435.3 428.2 425.1 420.4 416.6 411.8 407.6 404.3 406.6 405.4 408.6 410.6 413.3 413.2 414.1 414.7 411 403 395.4 396.3 399.7 402.9 402.3 407 411.6 414.7 418.8 423.9 428 430.8 432.7 434.5 436.3 437.1 435.9 435.3 435 433.2 430.8 426.5 422.2 416.5 409.6 404.1 397.6 391.6 383.9 377.1 369.4 363.1 358.7 354.1 349.7 344.7 340.3 336 332.7 326.6 323.6 318.7 315.9 312.5 310.6 306.5 303.9 300 299.1 298.9 297.9 295.9 297.2 297.1 305.6 309 313.8 327.1 331.8 336 345.2 359.9 383.2 398.2 402.3 401.4 402.6 410.4 412.4 413.6 413.9 413.3 412.8 412.4 410.4 401.3 397.1 395.9 413.9 436.7 444.7 448.7 452.9 455 455.6 455.9 455.4 454.5 453.3 450 447.7 444.5 441.8 439.3 436 433.6 429 422.6 409.8 398.3 392.9 386 379.8 367.4 349 339.7 351.8 378.6 404.2 427.6 442.8 448.1 448.7 447.1 444.5 440 434.1 426.3 418.2 408.3 394.7 383.6 371 353.8 343.6 348.2 338.4 338 352.5 370.4 390.7 399.1 403.7 403.7 403 402.1 399.9 398.8 397 394.6 392.1 388.8 383.3 368.1 341.4 319.5 308.4 317.1 339.5 345.7 334.7 326.2 302.7 277.4 256.4 230.4 226.5 235.8 243.1 233.5 282.5 298.5 310.5 319.2 325.6 320.8 309.2 297.9 288.2 282 280.4 279.1 274.1 267.4 263.7 259.7 259.1 275.6
425.6 423.4 420.1 418.8 415.4 409.6 406.6 403.5 401.9 399.9 395.1 385.8 386.9 387.8 388.7 390.2 392.3 394.3 395.7 395.2 390.7 382.2 379.9 375.7 375.9 378.5 379.8 382.1 385.8 389.5 392.9 396.1 400.1 402.6 403.8 406.1 410.4 414.4 414.7 413.6 411.4 409.1 407.9 404.5 399.8 393.3 387.7 379.2 376.6 368.5 362.1 356.8 350 344.9 342 338.7 334.3 329.7 326.1 322.2 317.7 309.6 307.7 307.9 306.1 306.8 307.6 306 305.5 304.2 300 296.6 296.3 296.5 296 296.3 296.6 305.9 311.3 318.3 324.7 332.8 342.7 361.8 384.3 396.3 398.7 396.3 394.8 402.7 405.6 407.4 407.1 405.3 402.7 399.4 396 390.9 392.2 392.4 422.1 439.4 445.4 448.9 450.6 451 451.2 450.6 450.8 449.8 448.1 446.6 443.7 439.6 437.2 436.1 434.5 432.7 428.8 422.6 413 399.9 390.5 383.1 377.3 367.6 348.1 337.4 343 365.8 391.9 417.8 436.2 443.6 446.6 446.2 443.4 438.1 431.6 424.1 415.9 407.8 395.3 383 372 359.3 350.6 339.3 329.8 325.6 337.4 359.3 381 393 396.4 397.2 396.9 395.4 395.4 393.9 391.9 389.3 385.7 380.9 374 365 345.2 320.2 303.4 294.7 309.7 324.1 323.2 312.7 287.3 266.4 242.8 228.1 234.6 251.9 249 234.3 303.3 318.4 326.3 333.1 337.8 330.4 320.2 309.3 299.9 292.2 287.4 283.8 278.4 273.3 269.6 264.1 261.5 267.1
407 406.5 405.6 405 403.2 400.8 399.2 396.6 395.1 391.5 386.6 380.2 374.5 376.5 373.1 373.4 373.4 373.9 373 371.2 369.7 368.2 366.8 364.4 364.8 365.1 366.6 366.8 365.9 367.1 368.1 369.2 371.8 373.8 378.7 381.2 384 386.4 388 387.1 386.2 383.9 382.5 379.6 375.2 370 364.8 359.4 355.3 352.2 348 342.5 333.2 334.4 330.6 327.4 320.9 316.6 315.8 313.3 313.9 316.5 318.7 320.6 320.2 321.4 321.2 318.5 315.7 313.7 310.3 303.8 295.1 295.1 294.9 294.7 294.5 296.3 308.4 313 320.3 329.4 344 365 388.1 395.2 395.2 390.9 388.5 391.9 396.2 396 388.5 382.8 380.3 380.4 381.2 383.6 385.4 397.8 418.6 429.9 438.5 443.4 445 446.1 445.9 445.7 445.4 445.2 442.9 441.8 438.8 434.8 432.5 432.3 432.4 430.8 426.9 421.7 414.4 402.3 391.7 381.8 380 378.3 357.8 334.9 331.8 352.2 377.3 404.3 431.9 445.4 447 445.9 438.9 434.6 427.1 419.9 412.9 405.2 397.2 387.4 375.6 364.5 353.1 342.8 335.6 326.8 324.7 346.9 365.9 382.1 390.5 393.8 393.9 392.5 390.4 388.9 385.7 382.3 378.6 373.6 367.3 360.8 349.9 324.3 302.4 288.9 289.1 307.1 306.6 291.2 272.7 259.4 229.5 228.4 246.4 269.5 269 240.4 313.9 331.8 337.7 342.8 342.2 334.9 328.7 321.4 313.2 307.6 299.7 292.9 285.1 280.8 276.2 270.5 266 265.5
396.3 394.8 391.3 392.4 388.1 390.8 390.8 392.8 389.7 384.8 376.5 370.2 372.1 369.2 367.6 369.7 361.4 360.8 358.4 356.9 356.8 356 355 354.2 350.1 351.7 351.1 349.8 352.1 349.4 349 350.5 352.7 354 354.1 357.9 356.7 358 359.4 362.7 361.4 358.6 355.3 353.9 352.2 349.7 348.5 346.1 342.6 339.3 335.7 328.9 327.5 323.6 318.6 320 321.9 323 324.4 323.1 326.2 328.6 332.2 333.3 334 336.3 333.8 333.9 331.5 327.6 322.8 315.9 305.5 293.8 293.9 294 293.5 293.8 298.4 308.5 316.6 325.9 341.6 364.9 383.5 390.4 389.7 386 381.1 382 380.9 372.4 370.3 371.1 371.5 373.2 375.6 379 380.9 389.7 403.6 417.9 430.5 435.5 438.1 439.2 440.7 440.7 440.3 439.1 437.3 434.7 432.9 429.9 427.5 426.7 426.1 424.9 422.6 418.3 412.3 402.2 392.4 382.6 378 383.3 367.8 341.8 327.5 339 361.9 388.4 413.9 433.3 439.5 435.3 429.5 424.3 418.1 413.5 408.2 401.7 396.3 389.2 381.3 372.4 363.2 355.1 342.2 328.7 320.1 330.9 354.4 372.4 384.1 388.1 389.4 387.9 384.7 382.1 379.4 375.6 371.8 367.7 362.7 355.6 346.7 331.7 305.8 281.7 279.4 289.9 292 276.8 265.3 248.3 228 233.7 250.7 273.3 292.9 269.4 300.4 340.6 346.3 351.7 350.7 344.3 339.4 335.2 326.5 321.2 314.7 306 296.4 289.6 283.9 278.6 273.2 271.1
393.7 392.5 393.4 391.4 389.3 390.5 387.8 381.2 377.7 376.5 382.4 383.6 382.3 380.3 379.5 378 375.4 372.6 367.1 366.9 367.7 364.3 361.7 356.1 361.2 358.8 351.9 347.7 345.8 344.3 342.7 341.5 340.2 338.8 337.9 337.8 335.3 334.3 337.9 339 342.5 341.7 339.1 339.6 340.4 338.4 329.8 332.3 326.5 321.6 319.9 318.5 321.7 324.9 328.3 331.7 333.1 335.3 336.7 338.7 344.2 349 352.6 354.6 356.2 356.8 353.4 351.6 349.5 345.4 338.9 331.1 320.4 310.8 296.5 293.2 292.8 292.6 296.6 306.9 314.8 323.1 335.1 359.7 375 379.7 383.4 382.1 374.6 371.6 366.5 364.6 364.6 365.9 367.4 369.3 370.7 380.5 385.8 392.6 403 415.7 427.3 433.4 434.7 434.5 434.6 434.9 434.4 432.7 430.5 429.3 426.6 423.7 421.6 420.1 419.7 419.1 416.6 413.7 408.3 402.1 392.2 382.9 374.3 380.7 371.8 351.7 326.1 327.8 347.4 375.1 400.9 418.8 422.5 422.1 418.6 415.5 411.8 407.6 402.3 398.9 394.4 387.8 382.8 375.9 368.3 359.6 348 334.1 320.5 315 336.8 359.2 381.5 385.1 384.8 382.9 380.3 376.2 372.5 368.3 363.7 358.2 353 347.2 340.3 330.1 312.2 283.4 271.5 276.4 278.2 266.9 259.5 242 229.6 232.9 248.8 273.2 308 300.8 291.5 348.8 355.9 360.7 360.4 357.2 353.9 349.5 341.3 334 328.1 318.3 308.4 301.6 295 288.2 282 277.9
408.6 403.3 404.1 401.6 401.9 398.4 398.3 396.2 394.8 394.2 393.2 393.3 390.3 389.4 390.5 391.7 391.3 391.2 388.4 390.9 390.6 388.6 385.1 380.7 379.5 377.1 372.1 365.8 361.7 358.2 352.6 345.7 341.2 338.7 336.2 335.9 333.8 333.1 332.4 331.5 330.8 329 329.2 326.4 325.8 323.7 323.4 322.7 321.4 322.3 325.2 326.1 332 335.9 341.2 345.7 348.4 351.5 354.2 359.5 363.8 367.3 369.3 372.6 373.7 373.2 369.1 363.2 355.9 347.7 332.8 325.9 315.1 306 297.6 290.3 291.3 291.6 297.3 306.5 313.9 322.3 336.9 355.2 369.8 374.6 377 376.5 370.2 362.8 359.8 359.4 359.8 362 370.6 380.5 389.9 398.3 402.8 409.3 416.8 424.3 428.5 432.3 432.2 432.3 431.8 430.8 427.2 425.1 423.7 421.6 419.1 416.1 413.6 412.7 413.4 413 410.7 408.1 405.3 400.4 392.5 383.3 373.8 373.6 372 356.4 334 320.8 340.5 368.9 394.3 408.5 411.6 412.8 411 409.4 405.8 402.1 398.2 395.5 391.4 387 381 375.2 369.7 358 346.8 335.1 324 309.7 319.2 340.6 361.3 378.3 381 379.5 376.3 372.2 366.5 360.9 355.4 349 342.8 336.9 330.2 322.2 311.6 289.8 273.4 263 266.1 260.8 253.4 235.2 230.5 230.4 255.6 273.4 308 329.6 328.3 321.5 366.8 371.4 372.2 370.3 366.7 362 355.5 348.2 339.2 329 320.8 316.1 310.9 303.1 294.3 286.5
425.7 421.8 418.4 415.7 414.3 410.7 411.9 408.9 408.4 406.8 405.9 406 404.9 406.9 409.6 410.6 410.4 411.4 410.6 408.3 408.7 408.5 403.6 398.8 397.2 393.7 391.5 386.1 381.6 376.7 371.4 365.1 354.5 344.2 347 347.1 344.1 343.8 337.8 335 336.3 332.1 329.6 328.5 327.5 326.2 328.8 329.5 333.1 336.8 339.3 342.9 347.6 349.2 359.4 362.5 365.1 367.4 372 374.6 376.5 379.8 383.3 384.1 383.1 383.6 375 366.3 355.3 343.2 328.3 314.4 304.1 298.1 294.2 290.5 291.4 291.2 301.9 309.2 316.4 327.4 339.4 356.1 367.7 372.4 373.8 372.1 367 357.2 352.8 354.9 363.3 371.4 381.1 394.4 403.6 411.9 417.7 421.7 426 429.3 431.7 433.3 432.7 431.3 431.4 430.7 426.6 420.9 416.3 415.7 411.4 409.5 406.2 404.4 406.5 406.3 404.4 402.5 399.6 395.8 391.1 382.9 373.4 368.6 368.6 356.5 335.5 317.5 330.4 360.7 386.9 403.4 405.2 406.8 406.5 404.6 401.5 398.4 395.8 393.3 389.3 384.7 379.9 374.1 370.3 361.8 351.3 341.6 324.8 309.5 299.9 324.7 344.2 364.3 372.6 371.4 368.6 365.3 360.7 354.9 347.1 340.8 334.2 327.8 321 313.8 304.5 291.3 278 262.8 252.6 250.2 246.7 231.8 229.6 235.8 257 276.4 296.8 314.6 335.2 338.8 343.7 383 383.5 381.9 378.5 372.9 367.1 360.1 352.4 342.7 336.7 331.6 327.4 319.3 309.9 303.3
441.9 442.2 438.5 435.9 433.2 429.7 428.4 426.4 426.5 426.1 424.7 424 426 426.2 427.1 425.3 425.8 425.4 426.5 426.2 424.4 423 417.7 416.2 413.4 408.1 404.2 400.6 395.3 391.5 385.7 378.3 363.1 364.1 361.5 359.6 358.1 356.2 354.8 353.5 352.5 349.5 346.7 347.6 346.5 345.7 346.5 347.6 350 351.8 357.9 362.9 367.4 371.8 375 378.6 381.4 384.6 387.4 389 391.9 392.7 392.5 388.8 383.3 376.5 368.5 360 350.8 341 324.9 310.3 299.1 294.8 292.4 290.4 290.6 290.5 302.1 312.7 324.3 335.5 350.4 362.2 369.8 372.4 372.8 369 361.1 350.3 342.4 356.5 374.2 383.5 396.8 409.9 416.7 422.8 429.7 434 436.7 438.7 439.4 439.2 437.4 435.7 432.8 430.3 426.7 421.9 417.3 412 407.6 404 400.6 398.4 398.6 398.7 397.3 396.3 393.7 390.1 386.2 381.1 372.5 362.1 362.4 353.4 334.2 315.2 331.1 358.8 381.1 390.8 397.9 400.9 400.8 399.6 397.7 395.4 393.2 390.2 385.6 381.8 378.5 374.6 367.3 360 350.3 344.7 330.9 310.6 294.9 311.9 334.3 351.1 359.2 360.1 357.6 354.5 350.4 345.9 340.2 333.4 326.3 320.6 315 308.8 300.4 292.4 280.8 267 252.2 243.7 241.3 232.4 231 243.4 254.5 271.6 290.1 312.8 337 360 373.2 393.6 394.7 392 388.4 383.9 379.1 371 362 355.8 356.3 352.5 346.6 340.4 334.1 325.2
459.2 458.1 453.7 450.8 450.1 449.2 446 444.4 443.8 443.5 441.3 441.2 440.5 439.8 439.8 439 437.9 437.8 437.2 436.9 436.8 435.8 432.3 430 424.9 420.8 416 411.8 407.1 401.4 394.5 379.5 381.2 380.4 378.1 377.5 378 375.8 372.5 369.9 366.7 366.5 366.5 367.4 369.5 368.8 370.6 370.4 374.2 373.3 377.1 380.9 384.8 388.3 391.3 393.6 395.4 396.7 399.2 404 405.1 402.4 396.9 389.1 381.7 373.2 364 354.9 345.7 334.8 318.1 307.9 298.3 295.7 293.1 291.9 288.8 289.4 299.8 316.4 331.2 348.1 361.1 370.3 373.9 370.4 369.7 365.3 355.1 338.4 344 355.6 378.4 393.9 410.8 421.1 428.8 436.1 444.3 446.9 448.7 448.2 447.8 446.5 444.3 441.4 438 434 429.6 425.1 420.4 416 411.3 405.4 401 397.6 393.8 393.8 392.1 390.3 387.5 384.4 380.2 375.9 369.5 359.8 345.4 339.9 318.4 312.1 334.2 359.6 380.7 387 391.8 395.5 395.8 395.5 394.8 393.2 390.8 387.5 383.8 380.4 376.7 371.1 365 357.9 349.8 344.3 333.8 319.1 293.2 304.2 327.1 345.1 351.6 351.9 348 343.5 339.6 334.7 330.7 325.6 319.9 314.7 308.9 299.7 292.6 283 272.7 263.6 252.5 243.8 236.1 232.3 234.1 242.6 254.5 268.7 289.9 313.9 340.8 368.7 390.6 401.9 403.5 401.1 398.5 394.4 388.9 377.5 368.3 367.9 372.1 369.9 366.2 362.3 356.1 348.7
472.5 471 468.6 467.1 465.8 462.6 460.4 458.6 458.1 457.5 457.3 455.9 455.2 453.5 451.8 450.6 449.8 449 449.4 448.6 448.5 447.2 445.1 441.2 436.6 430.7 425.6 418.9 412.2 404.2 396.4 394.5 395 393.3 392.1 393 391.9 390.8 389 386.8 387.2 387 387.3 389.1 390.5 391.4 391.1 391.1 392.6 393.2 395.3 398.4 400.6 403.9 406 408.1 408.3 408.6 409.4 410.3 408.3 402.1 395.3 387.1 378.6 370.1 360.6 346.3 338.2 327.5 313.1 304.5 297.5 295.7 293.7 291.9 289.8 288.7 294.6 309.7 328.5 339.1 351.6 365.2 367.4 365.8 363.9 360.5 348.4 335.6 341.4 354.6 376.6 403.1 421 431.7 439 451.2 456.3 458.3 458.8 457 454.6 452.9 448.3 444.6 440.9 437.5 433.2 427.7 423 417.5 412.7 407.9 402.2 398.6 395.2 390.8 386.9 385.3 382.3 378.4 372.6 365.8 358.8 346.5 327.4 314.1 308.1 326.8 346.7 364.4 380.7 387.7 391.4 393.1 393.5 392.8 391.9 390.5 388.9 385.6 380.4 376.1 371.3 366.5 360.9 354.7 347.7 340.4 330.3 321.2 297.1 302.1 320.8 336.5 344.4 343.9 341.7 338.3 333.8 328.4 325.3 320.6 314.4 306.7 300.9 293 283.1 273.2 264.7 255.1 246.6 235.7 232.5 232.4 235.1 242.9 251.7 267 290 315 344.9 370.2 390 404.9 406.7 404.9 401.8 397.8 392 382.7 376.7 378.6 382.7 383.5 381.6 377.9 373.1 369.8
485.6 483.9 481.8 479.9 478.8 476.5 474.3 473.4 471.5 471.1 471.8 471.2 468.6 467.1 464.8 463.4 462.6 461.8 460.8 458.4 458.3 456.8 453.4 450.1 445.4 439.9 433.5 425.5 417.9 411.2 395.8 404.5 407 408.7 406.6 405.2 404.5 404.1 402.6 401.9 404.1 403.6 404.3 405.3 406.4 406.5 407.6 408 409 410.1 411.8 413.9 416 417.3 418.7 419.9 419.4 418.6 417.2 413.2 408.6 401.7 393.9 383.6 373.2 362.3 348.6 338.4 330.1 322 308.6 300.2 300.3 294.7 294 291.2 290 287.6 287.8 295.1 308.5 319.1 329.7 339.9 347.9 353.3 355.4 350.5 338.3 331.4 339.9 355.9 380.2 409.9 436.1 449.3 451.8 460.4 466.7 465.9 465 464.1 461.4 458 454.6 452.2 448 443.4 438.9 432.2 425.2 418.7 412.8 408.7 403.1 398.4 395.3 390.6 387.6 383.1 380.8 376.1 370.9 358.7 341 317.5 311.2 301.7 319.5 343.9 361.2 375.6 383.8 389.5 391.9 393.3 392.9 391.6 391.6 389.9 386.8 379.5 373.6 368.3 364 359.4 354.5 348.9 343.9 337.9 328.2 314 298.2 297 312.2 327.8 336.1 337.6 336.6 335 330 325.9 321 315.6 308.9 300.5 292.2 284.6 274.3 264.3 256.5 250.4 238.3 234.4 232.2 233 240.7 244.9 241.8 260.8 284.3 310.3 338.8 365.6 385.9 402.5 407.2 406.2 404.1 399.5 394.5 388.7 384.9 388.4 391 392.6 393.3 393.3 388.9 383
498 495.4 493.4 491.3 487.6 486.1 484.8 484 483.8 483.4 483 481.8 481.4 479.3 478.3 476.1 473.6 472.2 469.7 468.5 467.7 466 463.1 457.8 451.8 446.6 439 432.7 425.5 413.8 412.7 416.2 419.2 419.5 418 417 415.8 414.6 414.9 415.3 413.9 416.8 419.8 420.1 419.5 420.9 421.4 421.6 422.4 423.3 425.7 427.6 428.4 428.8 428.5 427.1 426.3 424.3 420.6 415.7 409 400.7 390.8 378.8 360.1 345.2 335.4 331.7 324.3 312.9 322.2 327.4 324.4 312.1 300.2 292.3 290.2 288.7 285.9 286.3 293.2 299.1 304.3 313.8 328.7 342.6 345.8 340.7 326.8 327.6 336.6 354.7 382 412.4 443 453.7 468.7 473.3 475.9 477.1 478.1 475.6 467.6 464.6 463.1 458.3 451.1 446.3 441.8 434.5 427.5 419.6 413.6 408.3 402.4 397.6 395.5 393.9 392.7 391.3 390.1 388 382.1 364.1 345.9 321 300.8 297.2 313.9 338.8 355.4 370 379 385.2 387.7 391.6 394 394.3 392.6 389.3 380.3 372.8 366 361.1 357.1 352.7 348.2 343 338.5 332.7 323.8 314.1 299.6 287.3 307.1 320.7 330.7 334 334.2 330.9 325.9 319 313.9 307.3 301.1 293.4 285.7 273.4 263.5 257.5 250.8 246.5 236.1 233.6 233.6 241 247.5 250.3 251.8 252.2 274.3 299.8 326.9 357.6 379.3 394.2 405.3 404.7 401.8 398.7 395.3 393 392.3 394.1 396.5 399.2 400.7 402.1 399.9 394.4
510.6 508.1 505.3 503 500.8 499.2 497.7 497.1 497 496.9 496.8 495.6 493.7 491.5 489.8 487.1 484.1 482.9 479.8 478 477.1 475.6 471.9 466.4 460 453.4 447.2 440 419 421.8 427.7 430.2 430.1 430.9 429.9 428.6 428.6 427.6 428.6 429.7 430.6 432.9 433.9 434.3 434 434.8 435.3 436.1 437.6 438 439.2 439.2 438.5 437.4 435.8 433.6 432.1 428.8 424.5 418.2 409.5 398.9 379.2 359.1 344.8 338.9 334.7 329.5 316.9 336.7 344 345.9 340.2 323.7 309.1 296.8 288.9 288.2 287.3 286.7 285.2 285.3 291.1 296.8 304.3 315.3 321.3 324.1 317.1 323.2 332.4 353.5 381.9 412 436.1 453.7 470 470.3 475.1 474.8 471.4 472.2 469.5 466.1 462.4 458.5 452 445.4 438.9 432.8 425.7 418 410.2 405.9 401.1 394.5 390.9 393.3 395.1 393.7 390.6 386.1 378.3 365.2 348.7 325.7 302.9 293.7 297.8 313.9 330 342.5 354 362.6 370.8 381.8 390.2 393.6 387.4 377.5 368.8 362.2 357.7 357.1 355 351.1 346.8 342 336.4 328.9 318.9 306.5 290.7 280.1 297.3 315.6 324.7 326.3 323.8 320 315.5 311.1 304.9 298.9 292.4 285.4 276.6 266.2 257 252 247.9 239.9 233.8 233.5 241.6 250 256 257.7 256.3 256.7 263.7 288.2 314 338.9 357.6 375.3 387.3 391.5 395 397.4 396.1 395.5 395.7 397.6 401.2 405.6 408.3 408.4 408.4 405.7
523.4 521.6 518 515.7 514.2 511.7 510.6 511.1 511.2 511.6 511.4 510.1 508 505.3 501.4 499.4 495.2 491.5 489.5 486.3 485 481.4 477.4 471.9 466.3 459.9 452.8 441.9 432.4 435.7 442.3 444.3 443.6 442.8 443.1 441.7 440.8 441.9 442.7 442.4 444.1 446.5 447 448.4 449.6 450.8 452.1 451.2 451.2 450.4 448.7 448.4 446.6 444.6 443 440.6 437.2 433.6 427.2 418.4 407.2 384.5 362.9 349.7 343.5 339.4 335.1 319.6 339.8 356.5 358.8 357.2 347.9 334.7 317.8 302.3 290.3 288.4 287.2 286.8 286.3 285.6 283.2 287.2 294.1 297.7 303.4 304.2 309.5 319.5 330.6 351.2 378.5 404.5 424.8 443.1 456.5 463.7 465.4 464.9 463.8 463.1 463.3 462.6 459.8 455.4 447.9 441.6 437 430 421.4 414 408.1 401.5 395.7 387.1 383.2 387.6 390.5 390.1 382.5 379.5 373.5 366.7 352.8 328.6 309.5 293.9 289 292.5 305.4 318.4 325.6 332.7 344.6 354.3 366.2 372.6 369.7 363.8 357.7 353.4 350.3 353.8 353.3 351.2 347.6 342.9 336.7 329.6 318.1 308.4 287.9 272.3 282 296.3 304.4 307.8 309.3 308.5 306.7 302.7 297.9 290.5 279.9 273.4 266.4 259 251.9 244.4 236.5 234 234.1 235.4 249.5 258.5 265.1 265.4 262.6 261.2 259.2 273.7 299.1 323.6 339.4 351.6 358 361.2 364.2 370 374.1 380.1 390.7 399.6 403.4 408.4 412.6 414.3 414.1 413.5
538.4 534.6 531.2 528.2 525.7 527 525.6 523.8 525.2 525.4 526.2 523 520.9 517.5 514 510.1 506.2 501.7 499.1 495.4 491.3 488.1 483.1 477.2 472 464.6 454.4 438.4 443.3 450.2 454.6 455.7 454.7 455.2 455.4 454.1 454.1 455.5 455.8 455.7 457.2 459.5 462.4 463.4 464.9 465.4 464.8 463 461.9 459.1 457.4 457 454.5 452.5 450.8 447.5 444 437.9 429 417.8 394.8 370.6 354.7 343.5 341.4 336.4 335.1 351 369.3 373.6 368.7 366.1 353.2 342.3 327 312.2 297.4 289 286.7 285.6 286.3 285.1 284.5 283.4 284.9 287.9 291.6 296.7 303.2 313.2 326.7 346.3 376 395 412.8 428.3 442 450.7 453.1 455.2 455.9 456.4 456.3 456 453.2 449.6 443.7 437.9 432.1 425.8 418.3 410.6 403.3 396 389.4 379.8 373.7 374.8 378.1 378.3 373.9 372.9 367.5 361.5 350.2 334.7 313.3 297.7 284.8 284.3 288.6 297.7 305.1 310.8 320 331.2 340.4 353.3 358.6 352.9 346.9 342.6 341 343.2 343.1 341.3 337 333.3 326.9 319.1 315.3 307.8 290.1 274 266 277 286.4 290.4 294 295.6 295.7 292.8 288.9 281.1 271.6 265.1 260.2 253.7 248.6 236.6 235.5 234.8 235.3 240.2 255.7 268.3 273.3 273.6 269 264.9 263.2 263.7 286.9 307.8 320 327.2 330.7 334.6 337.8 343.7 349.4 355.6 367.5 382.4 397.5 407.3 414.1 417.2 417.5 418.1
553.6 549.7 544.8 542.6 541.1 540.1 538.1 538.7 540.5 540.1 539.5 536.6 533.2 529.5 525.9 521.4 517.2 512.8 508.1 503.2 498.7 495.1 490.6 484.6 477.5 469.5 454.4 444.2 449.8 458.3 464.9 465.7 464.8 468 468.3 467.9 467.5 468.3 468.6 469.9 471 473.2 475.9 477.6 478.3 476.5 475.6 473.7 470.7 468.2 466 465.4 463 461.1 458 454.6 449.7 443.1 428 406.7 382.6 365.7 349.9 341.7 337.1 345.9 363.2 375.6 386.3 386.4 379.7 377.7 364.4 351 339.2 325 309.1 296.8 289.5 286.5 286.3 284.7 283.9 283.2 283.8 285.5 288.2 289.5 292.3 297 310.3 328.1 346.1 365.5 387.8 409.2 426.9 437.4 442.2 445.2 448.4 449.5 449.3 448.6 446.1 441.9 437.5 431.8 426.7 421.3 414.8 407.3 401.1 393.7 386.3 376.4 367.7 365.7 364.9 364.7 364.5 364.1 360.5 354.5 345 333.6 320.4 303.4 290.9 280.8 282.2 284.5 288.2 291.3 297.7 308 319.6 330.7 339.9 340.1 336.1 330.1 327.1 325.6 321.3 316.8 311.4 307.3 304.7 298.7 293.9 289 284.1 273.3 263.9 263.7 270.6 275.8 278.6 280.2 281.7 282.6 280.5 272.2 264.4 258.5 254.5 249.8 243.8 237.3 235.4 235.3 235.5 246.4 262.1 276.3 281.3 280 275.5 270.6 267.3 266 273.1 288.8 297.7 305.3 309.8 312.4 317.2 323.9 330.7 338.8 348.9 361.6 375.1 388.3 399 411.6 419 420.5
566.4 562 561.6 559.7 557.4 555.4 553.8 554.7 556.2 555.4 552.1 548.7 544.9 540.4 535.6 530.8 525.3 520.8 515.8 511.1 506.8 502.3 496.3 489.2 481.5 473.1 455.3 445.6 458.5 466.4 473.9 476.5 476.9 478 480.3 479.7 480.6 480.8 482.8 483 485.5 487.9 487.9 487.9 486 483.6 482.4 480 477.3 475.2 474.2 473.4 471.5 468.1 463.4 456.4 448.3 434.1 414.5 395.7 375.7 355.4 348.2 337.2 350.5 363 379.8 389.1 396.2 398.1 392.5 384.2 376.1 364.9 354.9 342.1 325.5 312 302.1 290.4 286.8 284.5 283.5 282.8 282.1 282.6 284.1 284.1 285.2 288.2 293.5 305.7 323.7 339.7 356.6 380.4 401.4 416.1 425.3 433.1 439.7 441.6 441.1 439.6 437.4 434.8 430.8 426 419.6 413.9 407.6 400 395.3 388.8 380.8 372.6 363.3 359.1 356.6 355.2 352.5 348.4 344 340.1 334.4 326.1 317.8 309.3 299.4 280.9 278 278.3 279.8 281.4 284.5 288.7 299 308.8 318.5 323.5 322.6 316.1 307.7 305.2 302.6 298.5 294.1 291.1 287.3 280.6 277.1 274.1 272.2 266.7 258.4 259 262.4 266.4 268.2 270.9 272 273 269.1 263 257.4 252.1 248.4 242.8 238.8 236.5 236.2 235.2 242.8 257.1 269.3 282.2 288.1 287.8 282.6 277 273.2 271.6 270.9 279.2 285.2 291.7 294.8 306.9 322.8 328.2 335.9 339.7 344.2 349.9 359.3 369.9 380 391.7 407.1 419.3
