ncols 200
nrows 79
xllcorner 290000
yllcorner 794150
cellsize 50
1031.8 1027.4 1021.8 1015 995.2 949.9 920.5 878.1 832.1 819.6 800.8 792.1 771.4 754.4 729 687.1 641.6 608.4 579.8 554.8 529.5 507.4 498.1 495.2 495.2 495.2 495.2 495.2 495.2 504.2 530.7 565.5 606.5 660.2 700.7 744 780.7 815.6 841.2 838.1 832.6 826 825.4 824.9 825.7 834.7 837.8 844.8 853.8 869.9 893.8 932.7 983.1 1013.9 1020.6 1035.9 1046.9 1060.8 1073.8 1085.6 1099.3 1113.6 1132.4 1149.7 1165 1180 1194.3 1206.4 1216.2 1223.4 1231.8 1241 1249.2 1254.5 1257.7 1259.6 1258.6 1256.7 1254.2 1232.7 1146 1114.7 1087.3 1063.4 1048.5 1041 1032.8 1024.8 1015.9 1007 1000.3 995.2 987.8 976 959.3 943.7 924.5 903.6 884.4 877.1 870.2 867.2 869.5 872.5 881 887 902.5 913.8 945 948.4 963.7 974.8 985.4 985.5 963.9 947.7 933.2 920 911.8 911.8 911.8 917.4 937.9 959.7 971.8 961.5 957.2 938.8 923.8 908.4 894.3 879.8 864.4 839.2 814 793.3 768.9 743.9 721.7 700.2 678.1 660.2 643.6 628 614.1 603.3 593.8 590.7 590.3 589.9 588.9 588.9 588.7 587.6 590.1 595.7 607.5 624.4 641.4 666 689.2 717.6 746.9 777.3 809.3 842.8 879.1 908.2 918.2 917 919 927.5 934.1 940.4 948.4 955.2 964.6 975.4 986.5 995.4 1020 1045.3 1070 1094.7 1115.1 1129.4 1136.7 1140.3 1140.7 1137.7 1132.6 1133.1 1134.1 1137.8 1141.5 1122 1089 1059.4 1021.6 978.7
1022.2 1019.4 1015.1 998.6 963.8 925.6 881.4 833.3 807.7 796.3 781.1 769.3 757.6 745.2 720.8 687.3 650.2 613.4 584.9 557.1 533 512.6 500.4 498 495.5 495.4 495.3 495.1 495.3 507.7 531.6 565.4 605.5 654.2 692.4 730.5 772.6 810.6 846.4 849.4 840.1 832.7 826.6 830.2 837.5 847.9 846.4 850.8 860 879 908.2 953.4 985.6 1003.9 1019.4 1032.2 1043.9 1056.3 1069.9 1084 1098.1 1113.9 1131.9 1148.8 1163.4 1178 1192.5 1205.1 1214.2 1223 1230.5 1237.7 1245.9 1250.6 1253.1 1254.2 1253.3 1251.2 1244 1174.7 1123.7 1096.3 1070 1048.4 1039.1 1027.8 1017.8 1008.5 999.6 993.5 986.5 979.1 969.8 956.3 948.1 937 922.2 906.1 892.9 886.5 885.4 882.8 888.4 898.6 907.1 922.2 943 965.6 980.1 994.1 1007.1 1015.5 1024.1 1002.5 971.6 947.6 929.2 911.8 911.8 911.8 911.8 920.8 940.7 963.1 976.7 977.1 966.6 950 944.2 933.5 921.8 909.9 891.5 865.9 846.7 819.8 796.4 769 745.3 719.1 696.3 676.1 657.9 640 621.2 607.7 597.3 590.9 589.3 588.7 587.4 587 587.2 587 588.1 591.3 600.9 615.2 627.7 649.6 674.6 699.6 729 757.1 787.9 819.6 856.9 891.2 900.6 900.9 907.3 913.7 920.7 928.4 935 943.8 953.4 962.1 974.9 1000.4 1025.8 1050.3 1074.3 1094.7 1112.2 1122.2 1125.8 1123.2 1121 1118.3 1113.3 1110.9 1109.5 1113.8 1118.3 1117.8 1077.6 1045.7 1007.8 976.4
1013.6 1012.2 1009.8 991.7 935.7 883.3 843.8 812.1 792.2 780.3 768.2 758.3 752.1 743.2 720.9 690.2 651.9 621.2 591.4 561 538.4 517.7 506.8 502.1 500.6 497 495.8 494.9 495.3 512.1 536.7 567.9 604.5 646.6 682.1 719.4 761.1 801.8 837.2 874.8 865.7 858.6 847.6 847.4 857.3 860.6 863.2 866.1 875.8 895.9 938.6 965.8 988 1005.8 1019 1031 1041.2 1055 1068.7 1082 1097.4 1114.1 1131 1146.7 1161.5 1176 1190.5 1201.9 1212.5 1220.1 1227.2 1233.5 1239.9 1244 1246.6 1247.3 1245.6 1244.7 1238.7 1176.1 1125.8 1093.8 1066.1 1047.5 1035.4 1026.8 1006.4 992.5 983.3 976.1 967.4 957.9 951.7 944.8 939 929.3 923.6 916 907.8 904.5 897.8 899.3 909 919.6 932 961.5 986 1002 1015.7 1032.4 1047.6 1056.6 1056.3 1028.4 976.8 945 922.3 911.8 911.8 911.8 911.8 920.2 946.3 972.2 989.4 983.7 975.6 975.2 965.3 954.1 945.9 936.1 920.1 905.2 878.2 848.8 830.4 796.3 768.1 740.4 716 691.9 672.3 651.9 633.9 617.1 602.2 595.4 588.9 588.5 588 587.6 586.3 586.1 587.5 589.8 596.2 602.5 614.7 634.6 660.3 685.1 710.7 739.4 767.5 800.1 832.8 869.9 883.8 885.2 891.2 900.8 905.9 912.8 918.8 924.3 929 951.6 979.5 1005.1 1029.4 1051.1 1071.6 1090.4 1104.1 1110.4 1110.7 1108.8 1103.4 1098.5 1093.2 1088.7 1089.4 1091.6 1095.1 1100.4 1074.5 1042.4 1019.2 1000.2
1007.5 1007.8 1005.5 994.7 940 864.6 827.1 800.2 780.6 772.9 764.1 754.5 748.9 741.5 721.3 692.7 659.1 626.5 595.8 566.6 544 524.1 513.1 507.3 504.2 497.9 497.8 496.4 496.9 511.3 538.4 573.4 607.1 642.1 678.4 714.5 751.4 783.7 820.5 879.8 899.4 890.3 880 880.6 881.8 892.1 891.1 893.3 907.1 928 970.6 978.8 988.4 1004 1016.9 1028.3 1039.9 1053.4 1067.9 1082.2 1097 1113.4 1129.5 1144.5 1159.5 1174.1 1187.6 1197.9 1207.7 1216.1 1224 1228.6 1232 1235.3 1237.9 1237.6 1236.5 1234.9 1231.6 1192.5 1134.4 1102.7 1075.3 1052.7 1038.2 1023.4 999 979.2 968.4 957.8 949.4 944.3 941 935.7 931.5 927.4 926.2 922.6 923.2 920.2 915.1 918.8 926.3 943.9 960.3 990.8 1017.2 1040.5 1053.5 1073.3 1086.7 1088 1064.6 1029.6 985.4 947.9 923.8 911.8 911.8 911.8 911.8 927.5 955 986.3 1004 994.8 996.6 992.7 980.7 972.7 963.5 954.2 946.1 932.4 905.5 883.6 855.8 823.4 790.5 762.3 735.3 711.3 688.4 667.1 644.7 628.6 610.8 596.6 594.3 593.6 590.2 587.6 586.1 586.4 587.4 582.8 591.6 598 606.1 621.8 645.8 672.8 696.4 719.6 749.2 778.6 811 845.6 863.6 869.5 876.2 884.4 886.8 894.8 894 901.6 930.5 960.9 985.3 1008.1 1027.8 1047.7 1066.4 1083.1 1091.7 1095.1 1093.5 1091.5 1087.9 1080.4 1072.9 1070.6 1070.3 1071.1 1075.2 1082.2 1090.3 1067.5 1041.8 1027.9
1002.1 1002.4 1000.2 981.7 933 856.4 823.8 799.2 778.5 767.9 762.6 748 742.7 734.9 720.3 698.2 667.8 632.7 600.3 572.5 549.1 533.7 520.5 513 506.8 499.5 499.1 498.4 503 517.8 541.5 573.5 604.8 637.5 672.9 706.7 738.7 773 809.2 857.8 921.1 936.5 926.6 920.4 922.5 923.7 930.2 937.1 943 969.1 992.7 991.6 991 1001.7 1015.2 1028.1 1038.7 1052.5 1067.3 1081.5 1096.8 1112.2 1127.5 1142.4 1157.4 1172.1 1183 1193.2 1202.2 1210.6 1215.6 1220.7 1223.9 1226.6 1226.4 1225.2 1224.5 1224.4 1223.9 1223.2 1165.7 1142.1 1106.6 1102.4 1067.5 1040.9 1003.3 972 958.4 949.5 941.7 936.5 934 933.7 933.5 934.2 941.7 936 937.6 945.6 943 946.4 960.6 979.6 989.7 1028.4 1053.9 1071.9 1084.3 1109 1124.8 1102.4 1056 1018.4 981.8 955.8 930.7 913.2 911.8 911.8 911.8 937.8 968.3 997.9 1009.4 1011.7 1017.4 1012.7 1001.9 991 980.5 969.6 962.5 953.6 930.4 903.2 873 841.8 811.7 786.3 756.8 730.8 705.9 680.3 659.4 641.5 620.7 603.9 596.4 594.7 590.9 591.5 593.4 594.1 594.1 582.3 593.1 594.8 595.4 609.6 630.9 655.2 680 705.2 730.3 760.3 791.4 823.2 845.9 852.5 858.3 862.1 857.4 866.5 880.5 917.3 943.3 964.8 982.7 998.6 1019.8 1039.9 1057.9 1069.7 1076.3 1078.5 1077.4 1073 1070.8 1064.2 1056.4 1051.2 1050.9 1052.7 1058.8 1070.6 1083.2 1095.9 1092.7 1067.6
997.1 996.1 994 982.5 913.3 864.2 828.3 805.6 788 769.8 754.5 746.8 739.4 730.6 719.1 697.3 669.8 636.7 607.7 580.4 555.8 538.5 527.2 515.7 505.7 501.5 501.4 501.4 510.9 527.5 547.4 573.3 603.7 636.4 670.8 701 734.1 768.6 805.6 844.7 908.6 967.1 975.4 974.6 964.1 963.6 975.5 975.6 989.9 1000.3 1003 1000.1 999.6 1002.7 1015.7 1024.8 1037.8 1051.7 1065.9 1080.1 1094.9 1110.2 1125.5 1140.2 1154.8 1167.4 1178.1 1186.9 1196.4 1202.6 1207.4 1212 1214.1 1213.9 1212.7 1211.5 1210.5 1212.3 1213.8 1214.4 1214.8 1188 1152.1 1127 1095.3 1058.4 1012.2 981.5 962.7 951.1 943 938.8 939.2 944.6 952.2 949.3 953.6 963.4 967.9 960.7 959.6 978.8 992.7 1006.5 1031.6 1070.4 1102.3 1115.3 1123 1138 1140.1 1097.8 1058.6 1020.9 988.6 962.9 938.3 922.8 914.6 915.4 920.7 947.8 977.2 1008.1 1014.1 1031.1 1040 1036.4 1021.3 1010.7 998.4 989.7 979.6 972.8 950.8 924 898.5 872.5 841.6 806.2 775.3 747.6 719.7 695.2 673.5 653.1 634.8 615.9 602.9 597 596.3 598.2 600.3 595.4 591.7 581.8 582.3 589.6 592.3 599.6 618.1 643.8 668.5 688.5 712.3 741.4 772.5 803.5 827.6 835.1 839.7 831.2 836.5 853.9 893 918.2 940.2 959.3 977.4 991.7 1011.2 1026.1 1040.6 1051.5 1056.4 1058.5 1059.1 1056.4 1053.7 1047.4 1038.1 1031.3 1033.2 1039.5 1049.2 1062.5 1079.2 1093.8 1104.8 1106
992.3 990.4 985.6 971.4 932.7 878.2 840.5 816.1 791.2 771.2 755.2 745.6 736.4 727 716 701.8 674.3 643.7 612.7 583.6 562.9 545.3 532.4 516.5 504.8 503 503 503.3 512.7 527.8 547.9 574.4 602.8 636.1 663.8 692.6 731.4 765 804.1 853.3 898.7 961.7 985.9 989.4 990.6 995.1 1000.9 1002.1 1004.5 1007.1 1007.5 1007.4 1007.1 1011.1 1016.1 1022.7 1034.2 1048.4 1063.4 1078.1 1092 1106.5 1121 1135.5 1149.1 1162.3 1170.9 1179.1 1187.8 1194 1198.9 1201.1 1200.7 1199.1 1195.5 1192.2 1192.7 1199.5 1204.5 1206.5 1206.9 1205.1 1163.8 1131.1 1094.2 1056.9 1021.8 997.1 974 966 957.4 952.1 956.8 967.6 975.1 977.9 978.1 987.8 989.9 983.6 991.2 1003.8 1017 1046.7 1080.7 1109 1128.4 1172 1179.8 1192.4 1148.1 1114.3 1068.3 1032.8 1002.6 974 952.5 936.1 926.7 922.1 929.5 955 985.7 1013.3 1023 1042.5 1067.6 1063.3 1048.4 1035.7 1023.4 1009.3 1002.8 995.7 990 970.8 935.8 897.3 861.3 828.2 802 767.5 737.6 710.9 688.1 664.2 645.7 628.3 610.4 600.2 602.7 599 594.9 590.2 586 580 580.4 582.9 588.8 591.8 608.7 630 652.8 675.1 698.7 724.2 752.9 781.6 804.9 820.3 815.2 813.6 832.2 865.3 885.8 908.7 926.6 947.4 965.6 982.4 998.8 1011.8 1021.8 1030.1 1038.1 1041.7 1043 1040.6 1035.9 1028.2 1020 1013.9 1020.1 1030.4 1043 1058.4 1076.3 1090.7 1101.6 1109
996.1 992.8 990.7 981.4 940 895.3 862 832.6 812.6 787.1 763.3 751.7 741.1 733.6 727 712.6 682.9 646.6 614.1 583.6 564.9 548.9 534.8 515.4 508.7 506.1 504.9 505.7 510.3 523.7 544.1 572.8 603.3 637.8 672.1 703.4 737.7 774.6 814.8 863 912.8 976.7 982.8 987.3 990.6 995.7 1000.7 1004.5 1006.3 1007 1006 1007.5 1010.8 1013.7 1016.9 1022.2 1030.8 1043.8 1059.9 1073.5 1086.9 1100.3 1114.5 1128.8 1142.1 1154.4 1163.8 1171.8 1177.8 1183.1 1186.1 1186.1 1184.1 1178.2 1173.5 1174.6 1179.6 1189.2 1194.8 1198 1199.6 1199.4 1176.6 1130.3 1097.9 1085 1063.3 1026.8 1002.1 990.8 983.9 977.6 983.6 995.9 1004.8 1008.3 1018.4 1030.9 1034.5 1019 1014.9 1026.4 1048.6 1098.3 1122.8 1153.3 1185.1 1204.4 1225.9 1212.9 1166 1119.7 1084.3 1046.8 1017.6 990.1 965.1 948.8 937.5 930.4 940.6 962.2 991.8 1017.4 1030 1057.8 1086.9 1091.8 1070.4 1061.9 1051.3 1036.8 1026.5 1021.1 1015.8 1001.4 974.7 923.4 884.5 862.2 817.3 783 752.1 724.4 700.2 677.1 655.3 637.7 618.2 606.7 599.5 595.1 589.5 584.6 583.3 577.4 578.8 577.4 586 590.6 603.1 621.1 641.5 666.9 688.6 710.1 738.6 760.2 786.8 802.5 789.3 802.2 831.8 856.4 877.6 896.7 914.3 933.3 951.7 969.7 984.5 995.6 1005.9 1014 1021.1 1025 1025.6 1022.6 1018.2 1009.1 1003.8 999.8 1011 1023.4 1039.5 1057.7 1076.4 1089.9 1098.9 1101.6
999.1 997.8 998.4 994.4 961.7 924 901.1 868.1 842.3 813.9 780.8 762.1 756.6 747.7 738.7 716.1 683.9 646.2 613.6 585.7 566.7 550.3 535.5 520.2 513.6 508.9 506.8 509 515.1 529.5 546.6 573.3 602.6 637.9 674.6 706.9 742 781.6 860.5 912.2 932.3 968 972.2 981.6 987.5 992.7 997.3 1000.4 1002.2 1002.2 1002.8 1004.3 1009.1 1013.3 1016.7 1022.7 1030.2 1039.8 1055 1067.8 1080.1 1093.8 1106.4 1120.5 1133.4 1145.5 1153.7 1161.2 1166.2 1169.1 1170.8 1167.7 1161.2 1155.5 1154.1 1160.6 1169.7 1180.1 1186.5 1189.7 1192.5 1194 1192.9 1170.2 1146.3 1122.4 1109.8 1074 1040.5 1036 1030 1027.7 1028.6 1032.4 1038.7 1047.9 1056 1077 1051.9 1033.1 1038.9 1055.3 1096.5 1149.1 1177.4 1198.8 1223.4 1249.8 1256.2 1231 1190.5 1147.3 1093 1065.3 1035.3 1003.6 979 962.9 948.6 947.1 954.5 975.7 1003.1 1016.7 1037.3 1074.2 1107.3 1119.5 1096.5 1087.7 1076.8 1068.9 1062.9 1054.8 1045 1028.7 987.8 942.1 911.5 876 832.5 798.7 766.7 737.8 712.4 688.6 669.6 648.8 629.3 612.8 600.6 592 587.3 584 582.6 584.2 576.7 576.6 577 583.7 594.8 611.5 631 656.6 678.3 700.1 724.8 749.7 771.7 779.5 776.3 797.8 828.6 849.6 868.5 886.1 902.4 918.6 934 950.1 966.2 978.9 989.3 996 1001.6 1004.6 1003.8 1001.5 998.3 991.3 988.6 988.3 1003.8 1020.8 1039 1059.5 1077.8 1092.9 1100 1093.4
999.6 1001.2 1000.4 996.2 977.9 939.3 906 874.9 844.8 814.7 786.7 773.8 767.3 758.7 744 719.3 684.6 646.7 610.5 584 567.3 551.5 536.9 524.4 519.3 512.4 511.2 516.1 522.8 540.1 557.5 578.8 608.7 641.2 679.8 715.7 752.4 792.1 877.7 926.7 947.9 957.6 966.6 971.8 981.7 985.9 991.7 995.6 996.7 998.6 999.6 1002.7 1006.9 1011.3 1016 1022.2 1028.3 1038.6 1049 1060.8 1072.8 1085 1097.3 1110 1123.4 1135.2 1142.3 1148.7 1153 1151.6 1149.8 1143.4 1135.5 1132.1 1138 1148.1 1160.5 1169.6 1177 1181.9 1184.9 1187.6 1187.8 1183.8 1174.3 1165 1155 1114.3 1085.1 1073.2 1086.1 1092 1098.1 1077.7 1085.3 1090.2 1098.9 1082.5 1068.6 1058.8 1071.1 1090.4 1131.3 1186.3 1225.6 1243.6 1249.3 1251.7 1249.7 1243.1 1216.5 1176.8 1115 1085.6 1057.3 1029.5 997.3 979.4 968.4 965.1 975.9 997.5 1012.7 1021.8 1047.3 1084.2 1122.5 1150.1 1134.2 1118.1 1108.3 1098.7 1094.4 1085 1071.9 1045.5 1015.1 967.6 927.1 891 856.1 812.8 780.7 751.3 724.8 701.5 679.8 657.8 638.3 618.9 603.4 593.5 589.7 586.9 583.3 580.2 577.9 575.6 575 580 590.6 605 620.4 641.2 666.4 691.4 715.2 737.1 756.2 754.9 768.9 795.6 826.5 843.5 860 874.3 890.3 903.3 916 929.6 944.5 958.4 967.7 975 979.3 980.7 982 981.2 977.9 974.2 974.8 984.1 1000.6 1019.4 1039 1060.6 1080.7 1097.3 1094.3 1085.2
1002.9 1000.1 997.8 992.9 981.2 951.9 907.3 875.1 844.9 818.2 789.1 778.2 774.4 765.4 748.4 722 685.9 648.6 614.6 587.9 568.5 553.4 540.8 533.1 524.9 518.7 523.9 527.8 545.2 559.6 573.5 591.7 620.3 655.4 687 722.5 761 831.9 895 920.3 940.6 950.5 962.5 967.8 974.7 981.8 987 990.7 992.8 995.2 997 1001.5 1005 1009.4 1013.5 1018.8 1024.6 1033.2 1043.6 1053.3 1064 1075.7 1085.6 1099 1111.8 1122.6 1130.9 1135.4 1136.3 1132.7 1127.7 1120.9 1116.7 1118.4 1127.7 1139.6 1150.7 1162.1 1168.6 1173.2 1176.9 1178.8 1179 1175.1 1166.9 1157.5 1149.7 1141.2 1134.7 1127.9 1130.5 1127.9 1126.8 1132.1 1138.5 1134.5 1124.1 1109.7 1105.7 1112.1 1149.2 1172.7 1196.8 1225.7 1233.5 1236.8 1239.9 1241.1 1240.2 1235.6 1227.6 1193.1 1133.4 1107 1071.4 1044.5 1026.2 1002.7 988.8 985.1 992.5 1016.9 1019.2 1033.5 1060.3 1094.2 1133.5 1171.8 1166.2 1152.8 1144 1133.5 1127.7 1118.8 1099.2 1069 1031.9 986.7 951.3 904 858.4 824.8 791.3 762.6 734.9 710.1 688.4 666.8 646.3 628.3 612.1 595.7 582.9 579.8 578.3 577.9 578.1 574.3 575.8 580.6 589.7 600.6 614.8 634.5 658.9 682.2 704.1 722.4 733.9 752.6 776.2 802.3 824.2 837.1 851.3 863.4 874.9 887.4 898.5 910.9 921 932.9 941.4 949.4 953.7 959.5 962.2 960.3 961 959.3 960.6 980.9 999.9 1018 1040 1060.8 1081.4 1091.2 1085.3 1075.1
1005 997.9 993.9 989.9 980 960.6 918.1 876.6 841.6 810.9 791.4 783.9 776.7 763.4 743.6 718.4 688.1 650.6 620 598.2 577.2 559.6 544.7 542.2 528.7 528.2 534.3 551.1 564.3 580.5 595.3 616.8 638.3 665.7 695 740.1 778.3 845.4 894.7 917.1 932.5 942.2 952.6 961 969.8 978 983.7 986.5 989.3 991.7 996.1 1000.3 1003.5 1007.4 1011.5 1014.9 1019.9 1024.9 1035.4 1045.6 1054.6 1062.9 1071.8 1084.9 1098.1 1108.2 1115.6 1115.6 1117.4 1113.6 1109.3 1104.4 1104 1106.4 1120.3 1135.1 1146.4 1154.8 1160.4 1164.2 1167.6 1168.4 1167 1163.1 1155.1 1143.9 1138.8 1134.1 1132.1 1131.1 1127.6 1125 1126.8 1132.3 1141.2 1151.5 1156.7 1149.8 1158.7 1196.4 1205.6 1209.7 1214.7 1219.2 1221.3 1222.2 1225.3 1226.2 1223.3 1220.4 1215.8 1206 1158.4 1123.3 1093.7 1068.7 1056.4 1033 1019.4 1011.7 1015.5 1022 1029.7 1047.6 1077.5 1113.4 1148.2 1182.7 1198.6 1187.7 1177.3 1172.9 1160.5 1134.2 1099 1065.5 1027.2 992.1 952.3 912.6 870.5 836.9 806.6 773.6 745.9 719.4 697.3 675 654.1 636.4 620.6 603.5 586.8 578.2 577.2 576.2 576.3 575.6 575 579.2 585.2 594.1 607.5 626 648 671.3 689.4 706.3 727.9 751.7 786.9 808.8 823.2 831.1 842.2 851.5 859.3 869 879.5 887.7 899.3 907.9 916.3 924.6 932.1 935.6 940.1 943.4 944.4 943.8 959.2 980.9 998.7 1016.4 1037.3 1059.8 1076.5 1079.9 1075.8 1065.9
1004.7 997.7 990.9 982.7 975.7 964.3 927.8 878.2 832.3 803.1 791.5 781.3 770.8 761.7 745.8 716.5 690 658.3 628.8 609.1 589.6 568.1 568.1 561.7 541.2 548.1 557.5 569.6 586.3 601.6 615.1 634.4 657.3 685.7 722.5 768.2 801 844.5 897.7 911.5 924 935.7 950.9 954.8 963.2 976.2 980.6 983.4 985.3 987.5 993.9 998.6 1001.6 1003.2 1005.8 1009.5 1014.2 1020 1027.2 1036.1 1043.9 1049.6 1056.9 1070.4 1083.7 1092.5 1099.1 1101.1 1100 1099.5 1096 1093.2 1092.6 1104.1 1118.7 1130.2 1141 1147.6 1152 1154.9 1156.8 1156.3 1152.9 1145.8 1138.5 1130.3 1126.8 1121.3 1119.1 1119.2 1118.1 1116.2 1123.2 1129.7 1141 1152.7 1163.9 1176.1 1185.6 1193.5 1199.2 1202.2 1205.2 1207.1 1208 1207.8 1208.4 1209.5 1208.4 1206.5 1202.9 1197.5 1188.2 1147.5 1124.5 1105.6 1087.1 1063.4 1051.4 1037.8 1024 1022.7 1040.7 1066.2 1099.5 1135.9 1168.2 1202.8 1222.7 1215.8 1212.1 1206.5 1175.3 1138.5 1107.1 1071.7 1041.9 1003.5 961.9 924.5 886.2 851.8 818.8 786.7 756.3 729.3 705.5 685 666 647.5 629.1 611 596 584.8 577.8 576 576.1 573.6 575.3 579.7 585.9 594.2 606.3 618.1 632.3 656.1 679.1 699 722.9 761.9 799.4 811.4 820.6 828.6 833.6 838.5 842.4 848.1 854.3 863.8 873.4 881.2 891.9 898.1 907.3 917 921.3 925.3 927 932.8 956.1 977.1 996.8 1015.6 1033.7 1054.7 1064.4 1067.4 1063.4 1054.9
1006 996.9 989.2 979.3 971.1 946.2 909.5 864.9 828.6 800.4 793.8 786 774.7 766.5 744.9 717.1 689 662.9 643.2 623.5 597.3 583.8 587.3 583.9 575.9 570 584 596.4 611.3 628.9 640.8 659.8 674.9 703.8 747.2 784.7 816.9 849.9 884.6 895.2 908.6 935.1 949.1 949.4 959.8 972.8 978.2 980.4 982 984.6 992.2 994.9 997.1 997.9 1000.1 1002.7 1008 1013.5 1019.3 1025 1031 1036.1 1043.8 1055.6 1067.3 1076.6 1083.2 1086.9 1086.8 1085.8 1083.7 1080.5 1088.7 1102.7 1114.6 1124.9 1133.7 1138.2 1141 1143 1143.8 1142.3 1137 1129.6 1121.7 1117 1112.7 1107.8 1104.6 1103.3 1105 1111.3 1118.3 1127.7 1141.3 1154.8 1165.1 1172.1 1180.8 1186 1189.6 1190.9 1191.7 1193.1 1194.1 1194.1 1193 1194.3 1195.8 1192.7 1189.1 1183.8 1177.7 1168.1 1158.8 1146.6 1122 1093.1 1071.2 1044.9 1030.6 1038.3 1057.2 1086.1 1113.9 1154.7 1192.3 1223.4 1240.7 1232.9 1225.5 1216.3 1188.8 1152.3 1120.9 1085.3 1052.5 1017.7 981.7 939.7 897.3 862.3 827.6 794.9 764.3 737.4 715.1 692.7 674.5 654.5 636.3 619.4 602.4 589 579 575.9 573.2 572.3 576.8 581.5 587.3 594.7 604.6 615.8 630.8 648.3 673.5 696.6 724.6 765.4 791.2 808.4 821 825.4 829.1 826.1 824.6 826 830.7 838.6 848.7 855.9 864 874.1 881 890.3 901 907.2 902.1 927 952.6 975.7 994.4 1012.9 1030.7 1046.1 1053.7 1054.8 1050.5 1044.5
1003.9 995.3 988.8 980.2 971.1 932.8 894.9 854.5 824.7 806.8 793.6 782.3 773.8 761.9 742.3 719.2 695.5 674.3 653.3 628.7 600.7 611.7 608.8 605.2 603.9 597.4 610.5 627.1 642.4 655.3 662.5 680 699.6 729.5 770.2 799.5 821.1 850.7 876.2 880.4 900 930.5 944.4 947.5 951.4 964.8 972.8 975.9 975.8 980.8 988.4 991.9 992.8 994 994.7 996 1001.3 1005 1009.1 1013.5 1018.7 1023.8 1032.4 1041.3 1053 1063.6 1069.3 1071.9 1072.3 1072.1 1069.6 1071.8 1086.2 1099.7 1109.4 1119 1124 1128.2 1128.2 1129.6 1128.5 1125.9 1119.8 1112.4 1106.5 1101.3 1096.3 1089.4 1086.6 1087.5 1095 1105.4 1114.6 1127.1 1143 1156.2 1165 1170.8 1174.3 1175.9 1177 1177.9 1178.7 1178.1 1177.5 1177.6 1176.8 1174.6 1177 1177.8 1174.6 1169.6 1164.4 1158.1 1153.6 1148.7 1138.9 1105.3 1079.6 1051.8 1045.1 1059.8 1085.6 1121.7 1150 1184.2 1218 1245.3 1255.9 1241.7 1227.5 1211.2 1185.3 1165.3 1130.3 1093.9 1062.3 1025.1 986 945.8 906.4 872.4 835.6 802.6 773.8 747.5 724 701.4 680.7 657.2 644.9 630.1 612.4 594.3 582.6 575.6 573.5 571.6 574.5 579.8 584.5 591.8 603 612.9 626.1 646.4 672 692.9 725.1 757.8 785.9 806.3 816.6 821.1 821.7 817.4 809.4 806.6 807.2 814.5 822 826.5 834.6 839.7 852.2 863.5 874.1 879.7 889.4 921.6 947.7 970.6 988.3 1005 1023.2 1035.6 1042.3 1042.9 1038.2 1033
999.2 993.1 987.2 978.4 968.9 921.2 883.7 851.8 826.9 804.6 789.7 777.5 772.4 762.9 744.2 721.6 704.3 686 659.4 633.3 632.8 629.4 634.5 633.1 628.3 624.9 632.6 657.1 672.4 681.1 690.6 705.6 739.7 760.4 789.6 818.4 833.8 854.2 868.4 873.4 890.5 920.1 929 939 944.7 959.7 966.2 969.8 970.2 979.8 986 988.2 988.6 988.9 989.6 990.6 994.6 998.4 1001.5 1004.7 1009 1013.3 1019.1 1026.3 1037.1 1047.1 1052.6 1056.3 1057.7 1057.5 1057.2 1068.6 1082.6 1094.5 1103.4 1110.6 1114.5 1116.8 1116.2 1113.9 1112.7 1108.6 1102.7 1095.3 1090.1 1083.4 1077.8 1071.6 1070.8 1078 1091.2 1103.8 1116.3 1131.9 1146.5 1156.7 1163.2 1167.4 1168.8 1166.4 1163.9 1163.6 1162.5 1161.7 1161.1 1159.3 1158.6 1159 1159.2 1159.3 1157.1 1154.1 1148.3 1145.6 1144.7 1144.1 1141.7 1112 1087.9 1070 1077.2 1102.9 1126.3 1148.6 1180.3 1215 1243 1271.4 1264.9 1239 1209.7 1182.6 1155 1136.8 1122.5 1103.4 1066.3 1030.8 997.2 963.4 917.1 880.4 845.6 810.9 781.9 756.3 730.4 708.5 691.4 674 654.5 636.8 617.1 602.6 585.6 576.4 573.5 571.7 573.5 576.9 580.2 588.6 598.5 607.4 621.3 640.3 662.3 685.7 720.3 750.5 782.5 807.2 812.8 817.5 817.6 812.1 801.2 791.9 789.9 792.7 795.5 799.5 805.7 814.3 823.3 834.5 845.9 844.8 880.1 909.3 930.9 948.9 967.6 980.1 993.5 1014.6 1028.5 1029.2 1025.2 1015.9
999.6 992.5 985.2 977.8 969.3 941.5 890.1 854.4 830.9 816.2 790.1 779.6 772.1 763.9 748.8 728.5 710.1 690 666.7 648.5 655.7 656.9 653.5 656.1 657 666.2 658.4 666 695.1 712.7 723 745.1 764.5 781.5 807.9 832.3 843.9 851.5 855.7 873.1 883.6 901.4 920.1 933.1 944.3 952 960.8 965.6 967.2 974 982 983.8 984.4 984.9 985.1 985 987.6 991.3 993.6 996.2 999.2 1003.4 1007.6 1013.4 1021.1 1029.4 1035.9 1041.9 1044 1044.6 1053.4 1065.8 1078.8 1088.8 1096.9 1101.5 1105.1 1104.2 1102.4 1099.7 1096.8 1091.3 1083.9 1077.7 1072.8 1067.5 1061.3 1057.1 1064.7 1077.8 1091.6 1105.1 1123.1 1136.7 1148.2 1157 1161.7 1163.2 1161.1 1158 1152.4 1149.2 1145.8 1146.6 1145.4 1145.1 1143.5 1143.1 1141.7 1140.7 1138.6 1137.6 1133.6 1134 1135.9 1138.6 1142 1133.6 1120.3 1113.6 1126.3 1140.1 1159.1 1182.5 1217.8 1252.8 1282 1280 1253.7 1222.2 1189.3 1158 1129.5 1114 1098.8 1093.5 1070.5 1037.1 1004 963.4 926 888.4 851.7 815.4 787 764.4 740.7 719.2 702.3 680.7 663.4 644 627.1 609.1 592.4 578.8 572.7 570.4 570.7 573.9 577.7 583.7 592.1 601.1 613.4 630.7 652.3 679.5 707.9 741.1 775.3 802.5 812.2 814.9 813.3 807.8 795.8 782 773.9 771.6 773.8 777.3 781.2 788.5 798.2 809 813.2 831.3 861.1 882.9 903.9 921.5 936.4 950.2 968 993 1011.7 1009.7 1008.3 1002.1
997.7 991.9 984 973.4 964.2 944.4 906.3 859.2 837.1 819 804.5 786.1 772 762.8 748.7 736.2 717.5 694.2 679.3 658.1 683.9 676.8 682.3 685.7 688.7 691.3 700.9 694.7 724.2 740.7 757.1 776.2 794.3 808.8 829.8 845.2 846.6 851.2 857.6 873.7 882.5 896.3 909.4 925.5 944.1 950.7 957.5 962.1 963.8 967.1 976.1 980.3 981 981.7 979.9 980.8 983 985.9 988.9 991.2 992.4 993.8 996.9 1000.9 1006.7 1012.6 1019.1 1025.5 1031 1040.6 1052.7 1064.1 1073.6 1082.5 1088 1091.1 1092.3 1090.8 1089 1086.4 1082.5 1074.6 1068.5 1062.1 1056.4 1051.1 1047.1 1050.9 1064.9 1077.7 1091.3 1111.7 1127 1139.7 1149.4 1157.3 1159.8 1158 1154.4 1147.3 1142 1137.5 1134 1130.9 1132.1 1130.3 1126.8 1127 1125.9 1125.8 1125.9 1125.5 1125.2 1124.4 1126.1 1131.6 1139.9 1152.6 1165.2 1178.8 1191.6 1195.8 1202.4 1233.1 1258.9 1275.5 1291 1274.3 1237.7 1203.3 1174.2 1148.5 1124.8 1106.7 1094.4 1085.8 1068.2 1036.3 1001.5 959.9 921.3 888.1 858.5 829 800.9 776 751.4 728 707.2 690.4 671.4 651 633.1 615.7 597.3 584.1 574.4 570 569.3 571.4 574.1 580.5 584.2 593.9 604.7 620.9 642.7 669.8 699.9 735.7 767.6 798.8 809.8 813.4 809.3 804 787.6 772.3 759.5 751.8 750.3 752.9 758.7 766.3 775.7 784.2 783.4 814.1 834.7 854.2 874.4 893.2 908.9 924.1 946.8 971.4 987.7 991.4 991.5 987
995.4 989.3 981.5 970.7 961.7 940.6 911.9 884.2 860.6 841.5 820.8 797.8 778.6 764.2 751.8 740.2 721.5 707.7 694.2 692 704.8 703.3 710.3 713.4 719.1 727.5 733.8 743 760.5 778.8 777.3 798.4 816.2 828.4 841.7 850.8 850.8 851.9 859.9 870.7 884.5 896.1 909.7 921 940.2 947.5 953.4 957.5 959.9 962.6 969.8 973.5 975.1 976.8 976.6 977.5 978.8 982.7 986.5 988.4 987.1 985.9 986.1 989.5 992.6 998.7 1003.5 1010.5 1023 1038.3 1049.9 1059.1 1067 1073.2 1078.2 1080 1079.2 1077.9 1076.1 1073.3 1068.3 1061.2 1053.5 1046.8 1041.5 1036.5 1039.6 1052.7 1064.8 1078.8 1097 1116.7 1130.9 1142 1149.2 1155 1155.3 1151.3 1144.8 1138.2 1130.7 1125.1 1121.1 1118.1 1118 1115.5 1112.3 1110.3 1110 1111.3 1112.5 1113.2 1113.9 1113.7 1115.8 1123.2 1134.5 1148.2 1163.3 1178.1 1196.9 1214.3 1231.3 1248.4 1262 1276.1 1287.6 1268.9 1233.5 1195 1164.7 1148.5 1127.3 1108.4 1097.6 1082.9 1065.4 1037.5 1006 973.7 939.6 905.7 873.1 841.2 814 787.6 762.4 737.9 715.4 696.6 680.6 658.2 637.9 620.4 603.1 588.7 575.9 571 568.8 568.1 570.9 574.9 577.7 587.6 598.6 614.3 633.9 659.6 692.1 724.7 759 791.8 807.5 809.7 808.5 807.6 800.3 774.4 755.8 741.6 733.1 735.6 736.7 747.7 754.1 758 768.4 790.6 809.8 827.1 844.5 863 879.5 899.8 922.5 942.2 959.7 970.3 972.5 971.2
990.9 984.1 974.5 964.3 954.1 942.7 922.7 911.2 891.8 885.5 847.5 818.7 797.7 773.8 758.4 746.2 732.9 723.8 708.9 719.2 727 756.5 755.7 757 757.4 760.6 764 766 780 796.7 796.3 813.5 827.4 843.4 846.1 848.4 854 852.8 859.5 867.7 878.8 893 910.4 924.2 937.2 945.4 949 952.8 955.2 958.8 964.4 966.9 969 971.6 972.6 973.5 976.3 980.8 984.4 984.3 982.4 981.4 980.5 980.8 983.2 988 995 1004.6 1017.5 1034.2 1045.4 1052.6 1058.1 1062.1 1065.5 1067.4 1065.6 1064.4 1061.3 1057.5 1052.8 1046.9 1038.7 1032.5 1029.7 1028.5 1041.8 1055 1070 1083.6 1101.3 1120.7 1133.7 1141.2 1148.5 1151.4 1147.3 1142.2 1135.5 1126.5 1119.5 1112.3 1108.1 1105.2 1102.1 1100.5 1098 1096.7 1094.5 1094.2 1094.7 1096 1096.6 1097.6 1103.2 1113.3 1126 1142.5 1156.3 1172.7 1189.1 1206.9 1225.2 1243.7 1258 1270.3 1281.9 1274.3 1239.7 1206.3 1175 1156.4 1136.6 1115.9 1099.1 1083.7 1068.2 1043.2 1017.4 988.2 955.3 918.1 885.7 853.2 825.6 798.1 771.9 748.9 724.4 703.3 683.6 664.3 642.5 624.4 608.5 593.2 579.1 573.1 569.1 568.2 569.4 571.3 573.7 583.3 594 607.9 626.4 650.9 682.8 714.6 746.3 781.4 807.3 810.9 812.5 811.4 802.3 786.6 759.9 741.3 726.6 719.2 722.7 728.7 732.6 738.8 752.1 769.2 784 800.4 817.9 834.7 851.6 874.2 894.6 915.3 933.2 946.7 952.9 955.6
983.2 975.6 967.3 956.5 950.6 940.8 925.8 916.5 915.4 909.9 883.4 844.8 813.1 785.6 763.8 753.7 745.9 737.3 729 741.6 755.2 762.7 776.9 784 777.3 774.2 781 791.9 793.1 804.6 812.2 825.7 836.7 849.9 854 854.4 862.8 857.6 860.8 868.1 875.8 891.7 908.3 923 930.7 938.6 944.5 948.3 951.1 955.8 958.8 962.4 963.8 966.5 968.3 971.6 975.3 980.7 982.4 981.9 978.9 978.1 976.3 976.4 978.3 983 991.2 999 1013 1028.9 1038.3 1044.2 1048.3 1050.4 1052.2 1053.4 1052.1 1050.3 1046 1042.2 1038.1 1032.3 1023.8 1020.3 1020.1 1031.9 1045.3 1061.2 1076 1090.2 1108.8 1125.3 1134.9 1140.6 1145.3 1145.5 1141.5 1134.2 1126.4 1115.2 1108.3 1100.2 1095.2 1092.1 1089.8 1087.2 1084.8 1082.2 1080.6 1078.2 1076.6 1074.7 1076 1079.1 1091.2 1103.7 1116.3 1131.9 1148.5 1166.3 1182.1 1199.5 1217.8 1235 1250.8 1263.5 1279 1286.1 1255.1 1223.3 1199.3 1175.4 1147.3 1126.3 1104.4 1084.3 1064.8 1046.6 1024.5 998.9 965 934.1 901.5 869.5 837.9 809.6 782.2 758.2 734.1 712 690.9 670.6 650 631.7 614.6 599.7 584.3 574.2 569.7 567.6 567 568.2 570.7 577.4 587.8 600.7 620.7 644.6 673.9 708 741 779 806.1 812.3 814.4 814.2 810.2 790.5 765.8 742.3 726.5 716.5 711.4 713.4 717.2 722.5 734.6 747.1 762.6 779.4 793.5 807 827.3 846.1 867.3 886.6 905.4 922.3 933.1 941.3
976.5 964.3 956.2 950.8 947.6 943.1 930 923.5 923.5 922.4 922.3 905.7 849.8 802.4 778.7 766.6 759.7 753.9 751.3 765 767.7 775.5 786.2 790.6 788.6 783.7 788.1 807.5 807.7 810.9 820 834.4 839.8 850.3 866.6 865.5 868.1 862 861.8 867.7 874.7 889.6 903.4 914 922.5 930.1 938.9 943.9 947 950.9 953.1 957.1 959.9 961.7 964.2 968.3 974.7 978.3 980.1 978.9 975.8 973.5 972.1 972.3 974.4 979.6 985.8 993.9 1007.3 1021.5 1029.4 1034.2 1036.8 1037.9 1038.8 1039.6 1039.1 1036.3 1032.7 1029.6 1024.9 1019.6 1009.3 1013.6 1023.4 1035.6 1050.8 1067.5 1082.7 1098.4 1115.8 1127.5 1134.8 1139.2 1140.1 1138.4 1131.9 1122.9 1114.7 1106.8 1097.4 1088 1083.3 1079.5 1077.3 1076.9 1074.2 1069.4 1066.7 1061.8 1059.5 1057.2 1058.3 1066.1 1078 1092.9 1106.4 1121.5 1136.9 1156.7 1175.1 1192.5 1209.7 1230 1244.3 1258.4 1261.5 1247.7 1243.9 1234.5 1224.1 1199.3 1172.3 1146.1 1119.8 1095.5 1067.2 1047.6 1030.2 1008.9 979.1 947.2 914.4 881.7 848.7 819.3 794.1 767 742.9 719.2 697.7 678 658.3 639.3 620.4 605.3 592.8 576.9 571 569 566.5 565.9 569.2 573.7 582.5 595.1 611.7 636 665.1 699.5 730 766.9 800.7 811.1 816.3 818.3 816.5 800.7 770.2 744.2 727.5 713.4 704.1 703.4 705.8 712.8 719.8 728.1 741.5 755.8 770.7 787.9 803 824.7 842 860 879.3 900 916.3 929
969.2 958 951.4 947 944.2 938.1 932.1 926.4 924.9 927.6 931.3 925.8 904.4 837 806.3 784.8 775.4 768 771.8 779 782.5 790.1 797.9 789.9 796.5 793 797.5 816.2 813.5 816.6 825.6 832.2 845.5 853.4 865.5 871.4 868.9 866.6 865.1 866.7 873.5 881.9 894.9 903.9 913.8 922.2 931.9 937.7 941.6 945.1 948.1 951.2 954.7 958.7 964 969.8 974.7 977.4 977.9 973.1 970.7 968.4 967.2 968.1 972.3 977.1 982.9 990.6 1002 1014.4 1020.9 1024.3 1025.2 1027.1 1027.9 1027 1025.1 1023.8 1020.3 1016.5 1012 1003.3 1007.2 1014.7 1025.8 1038.6 1055.1 1071.4 1090.1 1105.1 1121.1 1130.5 1133.6 1134.6 1132.8 1128.5 1120.5 1111.2 1101.9 1094.3 1085.4 1077.7 1073.1 1067.8 1066.3 1064.5 1061.3 1057 1051.1 1045.4 1043.7 1042 1044.2 1056.2 1069.4 1082.3 1098 1112.4 1126.5 1146.7 1167.2 1185 1201.3 1220.5 1234.3 1233.2 1216.1 1202.7 1202 1200.5 1187.6 1180.4 1174.8 1158.9 1133.2 1106.6 1072.6 1053 1036.9 1011.8 985.3 956.3 924 892.5 859.7 831 802.7 775.7 750.9 727.9 705.1 684.7 665 645.3 625.5 610.4 598.5 585.2 572.1 569.2 566.3 567.1 564.7 570.3 578.4 589.2 605.5 627.1 655.1 686.3 716 762.1 792.4 816.6 820 825.4 822 801.8 775.8 752.7 729.5 713.2 703.4 697.3 700.3 700.8 708.9 714.5 723.4 737.1 751.2 766.8 783.1 799.5 816.4 835 856.3 878.6 897.4 911.4
960.9 954.1 948.8 946.4 941.9 936.5 932.4 929.5 928.6 929.6 932.6 929.5 915 882 842.2 814.6 799 785.8 795.6 793.9 796.8 798.1 799.8 801.5 800.9 798.9 802.8 820.6 816.4 823.9 827.3 836.9 847.4 857.5 863.9 870.8 872.9 869.5 867.9 867.4 870.9 874.4 887.7 898.8 908 919.5 926.3 932.2 936.1 938.6 942.2 946.5 951.7 955.1 961.4 968.7 972.8 974.1 973.4 969.7 966 962.6 962.4 964.4 969.3 975.3 980.5 986.9 997.7 1007.6 1012.3 1013.9 1014.3 1014.8 1015.4 1016.2 1013.8 1011.5 1009.1 1002.7 994.2 999.8 1006.5 1014.8 1026.3 1041.4 1057.2 1079.1 1097.5 1112.4 1125.7 1130.7 1131.8 1128.2 1123 1116.2 1107.9 1098 1089.9 1082.6 1074.9 1068.1 1063 1058.3 1055.8 1054.3 1050.8 1043.9 1036.8 1033.8 1031.5 1027 1036 1048.9 1061.3 1075.7 1090.3 1105.1 1118.6 1137 1157.8 1175.7 1193.2 1208.7 1214.9 1190.3 1169.3 1170 1166.3 1161.7 1154 1140.5 1135.3 1129.1 1107.2 1092.7 1071.5 1047.3 1026.7 1001.3 979.2 956.8 930.5 899.1 868.8 841.4 814 787 760.3 737.2 714.6 692.9 673.8 653.3 633.4 617.6 604.3 591.8 577.7 570.8 568 566.8 566.1 568.3 573.3 583.2 599 620.5 645.8 674.4 707.1 742.4 787.7 814.1 830.4 834.1 833.6 812.6 785.8 761.6 737.3 718.3 705.5 697.3 695.9 694.8 698.6 704.1 712.3 721.4 732.9 747.7 760.8 777 792.8 811.5 833.5 854.1 873.3 891.3
954.6 950.1 947.1 944.3 939.7 935 932.3 929.9 929 930.7 931.9 929 913.8 905.2 875.9 851.4 827 816 824 831 812.7 806.8 809.7 813.6 813.3 809.1 816.1 832.7 825.7 832.4 836.1 833.9 846.5 851 861.6 866.2 871.1 870.9 868 868.4 871.5 873.8 885.1 894.6 904.4 910.4 921.2 926.7 931.2 935.1 940.1 944.5 948.7 953 961.2 966.4 969.4 969.3 967.3 964.2 960.8 958.4 958.7 960.3 964.4 971 978.1 985.1 991.3 998.1 1002.4 1003.4 1003.5 1004.2 1004.1 1004.6 1002.5 1000.1 998.2 993.5 991.9 998.2 1005.3 1013.4 1025.7 1041.2 1062.8 1087.7 1103.9 1117.3 1129.8 1130.7 1126.2 1120.8 1111.1 1103 1093.1 1086.4 1079.6 1073.4 1066.8 1060.6 1054.1 1048.9 1046.2 1045.1 1040.5 1033.9 1026.1 1023.9 1019.3 1018.2 1030.7 1040.6 1053.8 1071.8 1086.2 1100 1113.4 1129.5 1149.4 1169.3 1183.7 1198.1 1163.4 1134.4 1124.7 1126.5 1129.6 1115.5 1114.1 1104.8 1095.6 1091.1 1080.7 1057.5 1046.5 1025.5 1006.3 985.9 969.6 953.3 930.1 902.7 876 850.6 823.4 796.6 769 745.4 724.7 701.4 681.3 661.7 641.2 623.7 610.6 596.4 583.6 574.6 569.5 567.5 566.1 566.3 570.1 579.7 593.4 612.8 637 665.1 697.8 737.9 782.8 815.7 837.7 844.5 845.3 823.7 799.3 770.5 746 724.7 708.5 698.4 689.8 691.7 695.2 697 700.3 709.3 717.9 727.5 740.2 755.5 772.2 790.4 809.4 831.3 849.8 869.9
949.1 946.1 944.5 942.5 938 933.7 931.7 929.4 927.7 927.9 927.5 922.6 911.9 905.5 898.8 874 855.7 847 867.6 860.8 859.7 827.3 818.5 820.3 823.9 824.8 836 842.7 837.6 839.4 839 849.6 841.3 847.6 856 861.7 866.4 867.6 867 869.2 871 871.8 877.2 888.8 903.5 903.8 916.4 922.4 927.1 930.7 935.7 938.8 944.2 951.1 960 961.6 963.7 963.2 961.6 959 956.8 954.6 956 958.3 964 970.3 976 981.1 986.1 990.4 992.6 994.5 994.4 993.8 993.5 992.7 991.2 989.5 987.9 983.6 989 996.1 1003.1 1011.7 1022.4 1043.3 1066.9 1090 1106.5 1119.6 1130.4 1126.2 1120.7 1111.3 1101.2 1089.9 1081.2 1076 1070.8 1064.9 1058.8 1053.3 1046.9 1041.7 1037.6 1035.2 1029.6 1022.1 1016.9 1016.5 1008.1 1014.9 1024.6 1035.9 1051.9 1068.1 1083.9 1097.1 1109.9 1124.6 1140.5 1160.6 1175 1172.4 1133.7 1099.6 1090.4 1085.8 1082 1076.8 1072.4 1065.2 1060.8 1051.6 1047.6 1029.9 1019.9 1004.9 988.4 972 955 946 926.8 907.8 879.8 856 828.2 803 776.5 753.5 730.7 709.3 689.2 670.1 648.1 630 613.6 599.6 586.9 577.7 571.1 568.8 566.9 563.7 567.4 574.1 585.4 602.7 624.7 655.5 686.1 724.6 772.1 811.4 841 852.5 858.1 837.5 810.7 780.9 758.1 733.2 712.9 698.9 690 686.8 687.1 688.5 689 695.1 698.9 708.6 722.5 734.6 751.6 769.3 788.1 806.1 826.8 849.3
943.5 941.7 939.8 939.1 936.1 932.5 930.7 928.3 926.4 925.3 923.5 918.4 910.9 906.3 903.8 890.6 875.1 874.2 878.3 882.6 868.2 862 842.7 831.3 840.5 840.3 846.7 845.3 840.8 845.8 842.4 852.5 840 846.7 854.6 859.3 864 865.9 862.4 865.5 870.7 872.9 877.6 893.2 897.8 901.3 911.1 920.2 925.5 928.7 931 931.6 940.8 947.9 954.2 956.7 956.9 956.7 955.5 954.3 951.1 950.7 952.5 956.9 961.6 967.2 972.5 975.6 979.1 980 982.1 983.7 985 983.5 982 981 980.8 979.3 978.2 979.5 986 993.7 1001 1009.6 1022.7 1041.5 1067.5 1090.2 1104.7 1117.3 1122.4 1118.8 1111.5 1101.4 1090.4 1077.5 1069 1065.4 1061.5 1056.9 1051.2 1045.1 1039 1034.1 1029.6 1023.8 1017.2 1011.9 1008.9 1003.2 999.9 1009.8 1021.6 1033.4 1051.8 1068.5 1084.7 1098.5 1111.2 1124.5 1139.2 1153.6 1168.2 1141.7 1107.2 1076.1 1061.6 1056.7 1048.8 1041.9 1035.5 1030.8 1021.1 1015.6 1012.8 1004.2 1000.5 989.9 974.1 960.5 948.5 936.2 925.3 908.5 882.7 858.9 834.5 809 783.7 760 737.2 716.1 696.3 676.2 655.9 632.5 617.1 604.2 591.5 580.6 573.6 569.6 567.8 564.8 567.6 572.7 580.4 594.2 616.9 644 675.7 709.7 763.9 806 840 856.9 862.5 850.1 820.9 794 767.5 743.7 718.9 700.2 689.5 682.2 680.6 682.6 685.4 683.2 684.6 694.9 705 717.2 733 750.5 767 784.4 806 829.4
944.8 940.3 934.2 933.7 932 930.7 929.2 927.6 924.5 922.6 920.8 916.9 912 904.9 900.4 896.5 884.4 886 886.6 888.4 875.2 875.6 871.1 857.6 853.5 858.2 855.9 857.2 854.7 853.2 851 843.9 842.5 846.4 854.1 859.1 862.9 860.9 862.8 867.2 872.2 873.4 881.1 886 887.7 901.3 912 915.7 923.1 924.6 926.3 930.5 935.3 945.6 948.7 950.4 950.8 950.5 948.9 948.9 946.8 945.4 950.7 955.4 959 964.1 968.4 970.1 971.5 972 970.7 972.1 971.8 969.1 969.2 969.2 971.3 969.6 970.9 976.4 983.9 991.6 999.6 1012.6 1026.3 1047.2 1067.7 1089.1 1102.8 1111.1 1114.1 1108.3 1102.1 1093 1078.5 1065.6 1060.3 1055.1 1051.8 1048.1 1043.1 1037.5 1031.6 1026.3 1020.8 1012.3 1005.2 1003.2 1000.6 992 997.3 1007.9 1020.9 1036.1 1053.5 1070.2 1086 1101.1 1115.6 1129.3 1143.5 1157.5 1172.5 1146 1098.5 1068.3 1044.4 1034.7 1023.9 1012.9 1005.7 1001.7 990.9 987.4 982.1 986.2 983.2 975.1 965.1 953.1 940.9 931.9 922.3 904.8 881.2 859.6 835 812.8 788.5 765.1 740.2 720.9 700.3 682.1 662.3 639 620.4 605.4 594.8 585.7 576.3 571.8 571.3 569.5 565.3 571.5 577.9 589.4 608.4 634.5 664.7 698.7 746.3 790.2 828 857.6 867.1 863.2 834.3 808.9 779.2 753.2 730 708.3 692.8 680.1 676.9 676.1 679.4 674.3 675.2 680.8 688.5 700.1 712.4 730.6 746.2 765.5 787.7 810.4
942.7 937.2 930 928.2 927.6 927.8 926.7 925 923.4 920.9 919 914.4 911.7 905.5 901.8 897.5 889.4 886.6 889.1 884.7 881.4 884.2 878.8 872.6 861.8 867.6 864.6 861.1 859.5 859.7 857.6 849.5 846.8 845 853.5 858.3 860 860.1 861 867.5 869.7 876.8 879.3 885.6 889.6 900.4 916.8 919.7 920.1 921.7 922.2 931.3 934 939.6 942.3 944.3 943.5 943 943 943.6 941.1 943.6 948.4 952.8 956.5 960.4 962.4 962.1 962.3 961.1 957.7 958.3 958.1 958.9 959.4 961.7 962.1 963.7 964.3 972 980.6 990.5 1001.7 1015.4 1028.2 1048.7 1067.7 1084.5 1096 1102 1103.9 1098.1 1090.7 1079.3 1065.2 1058.1 1050.9 1045.6 1042.7 1038.3 1033.6 1029.1 1023.3 1014.1 1004.5 998.4 996.2 994.3 988.5 988.2 996.6 1006.4 1020.4 1036 1056.8 1073.9 1089.8 1105.9 1121 1135.1 1148.9 1165 1177.9 1146 1106.8 1065.4 1034.5 1017.6 1008.5 997.8 991.1 986.3 976.5 971.3 971.3 971.3 966.3 966 960.6 949 936.2 926.3 918.5 902.2 881.8 858.6 837.9 814.7 790.8 767 742.5 723.8 704.3 686.2 666.5 646.1 624.5 609.7 599.5 588.8 578.2 573.3 570.1 567.9 562.2 571.3 578.8 586.7 602.9 625 655 688.4 727.3 778.9 818.8 853.8 865.4 874.5 848.3 822.2 794.3 767.5 741.2 718.8 701.5 684.2 674.9 671.8 666.1 669.5 668.6 669.7 674.6 683.9 692.9 708.4 725.7 745.1 767.2 788.3
939.8 936.3 932.7 930.4 925.6 924.7 923.4 923.1 921.1 919.1 917.7 915.4 913 908.9 904.2 900 893.4 889 892.9 891.1 887.4 888.5 879.9 877 868.1 864.4 865.8 864.6 859.8 856.8 855.6 844.7 847 852.3 851.5 855.7 860.5 861.7 866.5 867.9 870.9 876.1 882.4 888.5 895 900.6 913.4 921.9 921.3 921.1 921.3 927.2 930.4 934.2 936.7 938.3 937.3 937.6 938 937.4 936.4 941.2 945.9 948.7 951.8 954 955.8 954.9 953.1 951.2 948.7 948.1 949.6 950.4 953.7 952.4 954.9 956.9 961.7 967.8 977.4 991.2 1003 1016.4 1031.6 1048.8 1062.6 1077.9 1087 1092.8 1091.9 1088.1 1079.7 1066.8 1056.4 1049 1041.6 1036.8 1033.1 1028.4 1023.1 1018.6 1009 997.7 989.7 987.1 986.5 986.3 981.3 988.2 995.7 1007 1017.6 1039 1058.5 1076.4 1093.9 1111 1127.1 1143.3 1157.5 1170.6 1183.3 1154.3 1109.5 1070.6 1033.5 1011 997.9 987.1 978.1 968.3 964.5 960.2 962 959.9 956.7 952.7 950.9 944.3 934.1 922.8 909.5 899.5 881.4 858.3 837.6 814.3 790.3 769 745.9 727.8 707.5 689.7 672.4 651.9 627.3 612.7 600.1 591.7 582.6 574.8 569.7 564.2 562.5 570.7 574.5 582.1 595.2 616.3 644.1 675.2 712.6 764.6 803.3 839.2 862.2 872.7 863.5 837.9 809.6 781.2 753.5 728.5 708.9 691.1 678.3 668.8 661.2 665.7 663.5 662.9 662.9 668.4 678.7 692.5 704.6 722.8 741.9 763
940.5 936 931.4 929.1 926.9 922.3 922.3 920.8 918.8 918 916.7 914.8 913 908.5 905 899.3 895.3 891.8 897.7 893.8 895.5 885.1 880.8 881.3 872.3 868 866.8 862.5 864.1 859.8 851.2 850.5 858.2 854 851.4 858.2 862.5 863.5 868.3 870.6 878.1 882.3 887.1 900 905.5 905.3 913.6 917 921.4 922.1 922.6 926.3 927.7 928.6 930.5 932.3 931.7 932.1 932.1 931.7 935.7 939.1 941.9 943.4 945.6 947.9 948 947.2 945.3 943.2 941.7 941.3 940.9 942.5 944.5 944.8 946.7 951.4 958.2 965 975.2 988.2 1002.7 1018.2 1035.3 1048.2 1059.5 1068.5 1075.3 1082.5 1080.5 1077.6 1066.1 1055.7 1047.2 1039.1 1032.7 1028.1 1022.6 1017.5 1011.9 1003.3 991 983.2 979.4 976.9 978.4 977.6 976.8 986.7 996.4 1005.1 1020.1 1042.5 1061.6 1079.6 1098.2 1116.3 1131.4 1149.8 1164.5 1176.5 1189.1 1162 1126.7 1085.1 1051.8 1021.7 998.8 982.1 968.9 963.4 962.5 960.9 963 956.6 953.1 947.7 943.3 935.4 927.1 918.2 906.4 892.7 875.5 855.5 832.1 813.1 792 769.8 748.2 729.5 709.5 691.9 676.1 657.7 636.3 615.6 603.1 592.9 582.9 575.2 570.7 565.8 563.1 569.2 572.2 579.7 589.1 610.6 635.9 667.1 699.2 741.9 781.9 817.7 846.5 869.3 880.3 865 829 794.5 766.4 738.9 719 697.8 684.9 674.6 664.7 657.2 655.2 655 655.2 659.1 665.8 675.3 687.5 700.6 717.6 736.3
939.9 935.9 932.8 927.1 925 923.5 921.6 918.9 916.9 915.5 914.4 913.6 911.4 908.7 904.9 901 900.3 897.6 899.7 899.3 897 895.9 886.9 884.7 874.6 872 870.9 870 867.8 863.9 866 862.8 862.1 859.3 852.5 857.2 866.6 865.1 867.7 876.5 882 884.8 893.4 898.9 899.2 907.5 916.9 919.3 919.4 922.9 924.6 924.2 925 924.8 925.2 926.3 927.1 926.6 927.1 929.1 933.9 936.8 938.4 938.7 939.5 940.6 940.6 939.3 938 935.9 934.5 933.7 933.8 936 936.8 936.8 940.8 948.4 954.9 965.4 976.7 989.6 999.1 1014.5 1030.6 1040.8 1051.5 1062.1 1063.5 1067.7 1066.1 1063.4 1054.9 1044.9 1038 1030.5 1023.8 1018.3 1012.7 1005.1 996.7 986.5 976.7 972.3 970.8 968.4 970.5 967.2 976.9 987.1 996.4 1007.9 1024.9 1045.5 1065.7 1083.6 1102.3 1120.2 1140.2 1155.3 1170.2 1182.6 1195.1 1171.8 1133.6 1105 1078.4 1047.2 1016.5 994.4 977.3 971.3 967.1 970.2 973.1 965.1 958.7 955.1 945.9 935.9 924 914.7 902 885.9 868.1 848.3 828.3 809.3 790.3 770.2 750.1 731.5 712.7 695.6 678.4 662.6 642.3 620.2 605.4 594.4 583.7 575.9 571.5 567.7 561.2 563.8 570.3 576.6 588.8 608.2 629.9 658.7 691.8 726.1 770.4 797.7 829.8 863.9 884.9 877.7 841.2 805.7 777.5 753.2 729 708.2 691.5 679.9 669.8 660.2 651.6 649.9 649.5 651.6 654.6 661 670.8 681.8 695.1 710.6
939.8 936.4 932.7 928.9 925.2 923.5 922.9 921 918.6 915.1 913.4 911.7 909.2 907.3 905.7 904.6 904.6 901.6 899.3 900.3 902.4 897.9 891.1 888.3 880.1 879.9 877.9 873.1 869.8 869 871.7 870.9 868.1 862.6 853.8 859.7 867.8 871 870.9 877.7 884.6 893.6 898 893.5 905.4 910.8 918.5 921.9 921.4 922.3 923.3 921.9 921.9 921.9 920.9 921.3 921.9 921.5 923.8 927.7 932.2 934.5 934.9 935 934 933.9 932.8 931.8 929.4 929 928.1 927.8 929.3 929.8 929.3 932.3 937.6 947 953.8 964.8 979.2 991.4 1000.6 1008.5 1021.5 1030.5 1040.6 1049.9 1053.6 1051.6 1054.1 1050.1 1043.3 1034 1026.2 1019.6 1013.3 1008.3 1000.2 990.8 982.5 972.1 966.1 963.8 963.1 961.6 960.6 966.5 978.7 988.5 999.3 1014.3 1030.3 1049.2 1069.5 1088 1104.4 1125.9 1144.2 1161.1 1174.5 1187.5 1199.6 1193 1156.3 1129.7 1107.7 1085.5 1045.4 1016.9 997.5 990.2 985.2 993.6 1000.7 988.1 965.4 954.1 940.9 933.2 922.8 913.2 902.4 883.6 864.1 843 821.4 803.5 786 767.5 749.3 731.7 716.4 699.5 682 663.9 646.1 625.6 607.3 594.3 584.5 576.2 571.5 567.4 567.9 561.8 568 574.3 587.6 604.6 622.9 648.8 681.7 714.5 746.2 780.4 822.5 868.5 893.1 891 854 822.1 792.9 766.8 743.5 719.8 702.1 689.3 674.6 664 654.6 645.8 644.5 643.4 646.7 651 657.1 665.1 675.5 686.7
940.5 936.9 932.5 928.4 925.1 924.8 923 922 920.2 915.7 912.7 910.6 908.2 907.1 905.8 904.8 906 907.3 903.2 903.4 904 900.2 897.9 890.5 882.4 883.9 875.1 874.1 876.9 875.1 875 874.3 870.8 861.8 855.1 864.5 868.1 871.1 872.5 878 887.3 895.1 891.3 900.2 908.9 917.6 926 925.7 924.8 923.1 922.7 920.6 918.3 917.5 917.2 917.1 917.8 919.3 923.4 928.7 933.8 933.2 931.6 929.4 928.4 928.4 927.1 926.1 925 924.4 924.3 924.3 923.9 922.8 925.7 930.1 936.4 946.3 954.3 964.9 979.3 990.6 998.7 1005.8 1014.8 1022.7 1032.1 1040.7 1045 1045 1040.8 1039.1 1033.4 1024.2 1017.5 1010.7 1003.2 995 986.2 977.4 969.4 963.1 958.3 956.7 955.7 954.6 956.1 968.3 980.9 990.7 1004.5 1017.9 1035 1052.8 1072.9 1092.1 1111.3 1132.7 1150.2 1165.4 1179.3 1191.7 1201.2 1208.9 1188.5 1163.1 1145.9 1120.3 1082.8 1052.7 1026.8 1013.6 1011.3 1022.5 1030.4 1010.8 980.3 955.9 932.4 923.6 915.1 909.1 901.5 884.9 865 843.5 819.3 799.6 781.3 761.9 745.3 726.9 713.9 699.9 682.8 663.5 648.5 632.2 615 604 591.4 580.2 573.9 567.3 566 560 563.3 573.7 584.4 600.9 620.4 644 669.6 705.2 740 788.3 836.8 867.6 899.6 910.1 880 842.9 808.5 782.2 757.3 734.3 715.6 696.9 683.6 671.1 661.3 651.1 645 640.9 640.9 642.4 645.1 651.4 657.6 667.2
940.2 936.7 932.3 930.2 928.6 928.2 925.9 923.3 920.2 916.7 914.1 911.3 908.7 905.8 905.9 904.8 904.7 907.8 904 903.6 907.1 903.9 898.5 891.3 886.8 881.5 876.5 874.3 876.7 877.2 872.5 872.2 869.6 860.7 856.3 866.6 864.9 868.7 873.9 882.6 889 896.2 892.2 903.8 920.1 923.7 927 926.2 926.7 923.3 921.6 919.5 916.7 914.5 914 913.6 914.9 917.1 922.2 927.8 933.6 932.2 928.5 926.5 924.6 922.8 922.3 921.9 920.7 918.8 919.4 918 916.8 917.2 923.2 928.8 935.3 942.7 952.1 964.8 975.3 983 990.9 999.1 1007 1013.9 1022.5 1031.7 1035.6 1037.7 1034.9 1028.2 1022.4 1014.4 1007.7 1001 993 983.3 971.6 961.9 956 953.5 950.8 950.1 949.5 950.1 959.1 971.4 984 995.2 1007.3 1020.1 1036.6 1057.1 1078.1 1097.2 1117.9 1138.4 1154.7 1169.4 1182.3 1193.9 1202.2 1208.9 1214.1 1205.6 1172.6 1141.3 1115 1078.1 1057 1049.2 1045 1055.9 1047.8 1022.4 992.6 958 931.3 917.5 905.5 894.3 890.5 884 866.6 844.2 818.9 796.3 777.4 760.6 744.3 730 717.3 703.3 687.8 670.7 654.2 635.7 619.2 606 597.4 585.7 577.8 571.8 565 559.3 566.4 573 583 596.7 613.5 637.1 666 699.5 733.8 776 824.4 861.4 905.7 921.8 897.5 859.7 828.1 798.8 773.6 751 729.3 709.5 693.4 680.7 670.6 660.2 649.5 643.6 638.5 636.7 636.4 640.5 645.6 649.5
941.6 937.6 934.7 932.4 929.8 930.2 928.3 924.2 920.3 917.9 915.3 911.7 907.4 904.3 904.3 904.2 904 902.4 904.4 901.8 905 901.3 897.5 890.9 884.9 881.2 879 880.4 878.1 881.1 872.4 867.2 867.7 860.2 858.7 868.5 867.3 872.7 873.6 884 889.4 898.3 895.2 906.6 923.8 927 928.6 925.1 924.4 922.8 920.1 917 916 912.4 911.3 911.4 912.6 915.6 920.6 925.5 931 927.5 924.6 922.3 920.3 919.8 919.1 917.8 916 914 911.2 911.2 910.9 915.7 920.9 927 932.6 938.4 947.4 957.2 968.1 977.2 983.3 990.5 998 1003.8 1013.2 1022.1 1026.6 1028 1025.2 1019.9 1012.1 1005.4 998.6 992.7 982 968.6 957.8 948.9 944.3 944 943.1 943.1 941.8 953.1 963.9 975.8 987.2 998.3 1010.5 1024.3 1039.7 1060.3 1082.2 1101.6 1125.1 1142.7 1157.8 1172.2 1184.5 1194 1201.1 1206.9 1210 1211.4 1200.8 1163.5 1132.3 1108.4 1094.2 1082.3 1082.7 1073 1049.5 1020.7 990.8 962.7 935.2 914.1 897.2 884.6 878.3 875.9 867.3 848.1 822.7 795.5 773.8 754.2 740.3 729 717.4 705 689.2 673.6 656.9 637.6 620.7 609.8 598.1 586.8 574.5 568.6 568.9 558.6 560.2 568.7 577.6 590.6 608.1 632.1 661.5 693.2 727.3 767.6 809.1 844.6 897.1 930 912.6 875.6 843.5 815.4 792.3 765.9 745.3 724.2 704.8 693.7 681.6 670.1 657.3 650.1 642 636.7 633.5 633.1 635.4 638.1
942.6 939.1 936.8 934.9 933.1 931.7 929.3 926.6 920.3 918.5 916 912.2 908.3 904.3 904.2 902.4 901.9 902.1 904.9 904.3 902.2 902.7 899.7 894.7 891.1 886.5 878.6 883.4 883 878.5 872.9 870.2 869.7 863.9 862.6 865.2 865.8 867.4 877.8 879.4 889.7 898.2 899.6 906 920.6 927.7 927.8 924.6 921.9 920.7 918.1 915.4 912.9 910 909.3 909.7 910.6 914.1 918.7 924.2 925.4 922.1 919.5 916.3 916.4 914.5 914.2 911.9 908.6 907 906.2 906.9 910.1 914.1 920.4 927 933 939.3 945.4 953.1 960.6 968.4 973.2 978.4 987.7 991.9 1001.7 1011.1 1017.2 1017.4 1015.9 1010.6 1003.2 994.6 988.5 979 965.5 953.8 944.3 938.1 933.8 933.8 934.9 934.6 945.2 956.1 967.5 980.5 992.4 1001.9 1013.7 1028.1 1045.2 1063.7 1085.5 1107.1 1128.6 1146.7 1160.7 1173.6 1184.4 1193 1198.1 1201.5 1203.4 1203.4 1199.2 1194 1175.8 1153.4 1125.6 1119.3 1119.6 1102.2 1070.4 1042.3 1017.6 981.8 950.9 924 903 884.8 877.4 875.9 873.1 853.9 824.8 794.9 770.3 751.1 737.4 724.8 712.5 702.5 686.9 672.8 656.6 637.1 621.9 610.8 598.6 584.3 573.1 567.1 564.6 564.7 557.4 565.7 574.7 587.3 605 627.4 655.4 685.9 721.5 758.7 795 831 888 933.7 930.3 892.1 863.7 835.9 808.8 783.2 761.4 740 719.9 704.3 691.8 679.4 665.8 655.9 647.4 640.4 634.9 629.7 629.2 630
943.9 939.5 937.8 936.1 935.4 933.5 930.8 927.7 922.3 919.5 916.4 912.5 909.5 905.6 903.9 901.2 900.5 903.5 902.4 903.8 905.9 903.4 900.9 894.7 890 886 882 881.1 881.2 877.9 872.6 873.9 867.2 866.9 865.2 864.4 864 865.6 875.9 883 885.5 894.1 904.1 909.8 917.6 924 923.5 921.8 919.1 918.1 914.6 914.1 910.9 907.3 907.7 908.2 909.1 912 916.3 919.2 918.4 914.8 911.8 912 909.2 908.8 906 899.7 901.2 900.5 900.8 904 909.4 914.8 920.9 925.5 931 934.6 938.4 943.8 948.8 955.8 957.6 970.4 977.9 982.5 988.5 999.6 1005.4 1005.1 1004.5 1000.4 991.6 981.2 967.9 957.6 947 936.9 929.1 925.6 924.2 926.7 928.8 934.8 946.9 959.6 971.1 983.9 994.6 1004.1 1015.8 1030.5 1049.4 1066.9 1087.2 1111.6 1132.3 1148.5 1161.8 1173.6 1183.2 1190.5 1194.9 1196.7 1196.7 1192.6 1187.7 1182.7 1174.5 1162.1 1147.3 1140.4 1133.7 1125 1102.3 1067.6 1045.7 1023.4 992.4 952.8 919 889.9 882.9 879.5 866.7 853.3 821.3 797.5 767.7 745.1 732.8 721.6 710.4 699.5 685.5 672.4 655.2 636.6 618.4 605.2 595.1 582.4 572.6 566.1 563.3 561.7 557 564.5 570.6 583 601.1 623.3 650.7 680.6 712.7 750.7 789.3 829.6 871.6 913 940.5 917.4 884.2 854.4 826.5 800.7 777 755.4 734.6 719 701.2 688.4 676.3 665 655.6 647.7 640.9 634.4 628.1 625.7
943.3 939.7 938.5 937.9 936.6 934.8 931.8 928.2 922.9 921.2 918.8 915.3 911.2 906.4 903.7 901.9 898.7 898.7 898.1 902.3 905.2 901 898.8 893.6 893.1 889.6 884.5 883.3 884.5 880.1 878.1 873.4 869.3 865.9 862.7 863.3 863.1 866.6 875.7 880.4 885.6 887.9 902.2 905.9 913.1 917.8 920.2 917.4 916.2 914.4 911.5 908.9 906.7 905.2 906.1 906.4 907.7 910 911 911.8 910.4 906 904.2 901.4 900.5 900.1 896.7 894.6 894.4 896 898 903.2 909.8 915.8 921.3 925.1 928.7 932 933.2 934.8 938.2 942.1 945.5 951.1 961.3 967.2 974.6 984.3 990.2 992.6 991.6 984.7 977 961.6 946.4 939.5 929.4 921.4 916.6 915.3 918.8 919 920.6 937.4 949.5 963 974.8 986.4 996.7 1006.9 1017.9 1033.5 1053 1072.1 1092.1 1115.6 1134 1149.9 1161.5 1172.7 1180.5 1186.8 1190.1 1190.9 1187.5 1183.1 1176 1168 1160.2 1147.2 1137.8 1128.8 1121.5 1115.5 1106.4 1094.2 1070.2 1039.8 1004.8 975.2 934.2 908.9 897.2 882.2 864 845.7 827.8 795.9 766.1 740.3 729 717.2 706.3 694.7 683.1 670.2 654.7 636.9 622.6 608 594.2 578.7 567.8 562.2 561.2 559.9 555.4 563.7 569.6 580.8 596.8 617.4 645.5 671.3 705.6 744.5 781.8 827.3 866 907.2 947.6 941 904.7 874.7 847.3 816.8 793.8 771.6 751.5 731.3 713.9 698.4 685.5 675.5 664.2 656.6 649.5 643 632.9 626.5
941.4 940.6 939.9 938.3 937 935 932.6 928.7 925.2 922.3 919.9 915.1 911.3 907.4 904.9 900.7 897.9 897 896.1 899.4 900.7 900.3 900 899.1 897.8 890.3 889.7 885.5 885.1 881.3 872.7 870.4 870.5 863.8 862.7 862.7 863.9 867.7 873.8 876.1 883.2 887 895.2 905.4 909.1 912.8 914.6 913.4 911.7 909.9 907.6 904 903.1 903.2 903.7 904.8 906.7 906.3 905.2 902.9 900.7 898.4 898.3 900.6 895.2 894.2 891.1 890.9 891.7 892.9 896.6 901.5 909.8 915.7 920.3 924.5 927.2 927.9 928 928.5 928.8 930.3 932 933.1 937.7 945.3 954.4 964.2 972.7 973.3 974.1 968.8 953.9 939.8 928.3 919.5 913.3 907.2 905.6 907.8 909.1 907.4 924.4 937.9 952.5 964.8 977.4 988.2 997.7 1008.1 1019.7 1034.8 1055 1075.8 1094.7 1118.2 1135.4 1149.3 1160.4 1171.2 1177.1 1183.1 1184.7 1183.5 1179 1173.3 1162.6 1153.7 1143.8 1133 1122.8 1114.7 1107.1 1101.1 1093.4 1082.6 1075.9 1061.2 1018.1 987.1 958.8 931.6 902.6 888.7 852.8 826.8 806 786.7 760.8 739.4 727.4 714.5 701.5 690.6 678.9 666.8 652.6 635.5 620.1 605.4 589.1 575.8 565.6 559.2 555.1 553.4 556.1 561.5 567.8 578.6 591.9 611.2 637 664.5 697.5 734 779.8 812.8 861.8 898.2 937.8 957 923.7 892.2 863.4 835.2 812.2 789.9 765.6 747 729.3 712.8 697.5 684.6 674 662.1 655.4 647 635.4 630.2
939.5 940.6 940.6 939 937.3 935.4 933.1 929.7 927.2 925.1 921.9 915.5 913.1 908.3 905.1 901.6 898 898.1 895.3 896.5 897.1 900.8 904.4 902.7 899.9 896.5 891 891 887.9 882.1 877.6 873.6 866.1 862.7 862.7 862.8 863.2 866.9 868.4 873.2 879.5 882.1 889.9 897.2 903.9 908.4 908.9 908.4 906.6 901.5 902.2 899.5 900.9 900.6 899.4 902.8 901.7 901.1 899.1 896.1 894.8 894.1 892.5 891.8 890.7 888.8 889.4 889.8 890.5 892 894.1 898.8 907.8 910.2 917.7 921.6 923.5 923.7 923.7 922.1 918.4 917 916.3 916.2 918.8 923.6 933.8 949.6 955.9 955.4 946.9 937.8 927.1 918.3 908.3 899 895.2 892.4 893.3 898.4 892.6 912.1 926.8 940.9 953.2 966 977.8 988.7 997.1 1008.3 1021.9 1040 1059.1 1080.5 1100.7 1119.5 1136.1 1148.2 1159.4 1167.6 1174 1177.3 1178.5 1175.7 1170.5 1162.2 1151.8 1138 1127.4 1116.6 1104.1 1098.2 1092.1 1084.5 1077.8 1068.5 1061.4 1056.2 1036.9 1002.2 970.8 939.9 904.7 871.7 834.6 813 791 775.4 757.1 740.2 723.8 710.6 697.6 686.1 674 661.6 648.6 631.6 616.9 601.5 586.5 572.3 562.6 556.3 552.8 554.8 555.6 557.9 565.4 573.2 585.1 605.9 629.1 657.6 689.1 726.6 771.2 804 840.5 875.9 914.5 955.2 942.9 911.1 881.8 856.4 834.2 805.9 786.3 763.6 744.4 726.9 709.7 697.5 682.6 672.5 663.1 653.9 642.4 635.4
938.3 940 940.9 939.1 936.6 934.9 933.9 932.4 930.9 928.9 924.3 918.7 916.2 911.5 908.2 903.9 898.6 896.9 895.2 894.6 895.8 898.6 902.2 901.1 901.6 903.3 897.4 890.7 887.5 881.5 875.9 866.7 862.7 862.7 862.7 864.4 863.8 865.4 868.2 870.9 875.1 881 887.8 894.7 900.4 901.4 901.2 901.2 899.5 897.1 895.4 896.6 897.1 897.6 897.9 899 894.6 894.5 891.8 892.3 890.8 889.6 890.8 888.8 888.3 887.6 888.5 889.4 890.4 891.7 892.9 900.1 901.8 905.8 911.9 916 918.1 918.1 915.4 911.5 907.8 904.2 899.4 896.9 898.3 904.6 912.6 923.1 929.4 926.8 918.9 911 902.3 895.7 888 879.3 877.7 876.1 878.8 876.4 893.3 910.4 924.9 939.6 951.5 964.7 977.8 987.5 996.5 1008.6 1024.4 1045.4 1063.9 1085.5 1104.2 1121.6 1134.8 1147 1156.7 1163.4 1168.5 1170.4 1171.6 1168 1161.8 1152.2 1139.3 1125.3 1113.4 1103.1 1092.5 1086.1 1077.8 1067.4 1061 1053.8 1046.1 1040.8 1005.1 976.5 952.2 923.9 878.2 848 821.3 798.7 781 771.3 757.3 739.1 721.9 708.6 695.6 683.1 669.9 657.3 643.2 627.6 611.3 595.2 582 572 561.4 557.4 552.7 553.1 553.8 555.5 561 570.2 581.9 600 623.4 652 677.5 719.8 754.7 797.8 835.3 870.6 911.6 951.5 960.7 930.9 903.7 881.7 853.4 831 807.2 780.8 761.8 742 728 712.9 696.8 684.4 674.1 663.1 652.4 643.1
939.3 940.5 940.7 939.3 936.8 935.7 935.8 934.7 933.7 931.2 927 921.7 917.9 914.4 913.4 906.4 904.1 899.3 897.2 893.9 893.6 893.8 898.6 900.6 904.7 903.8 898.8 892 887.6 880.9 877.7 870.1 862.9 862.7 862.8 865.1 862.9 863.4 864.7 867.5 871.3 877.6 883.1 889.4 892.7 894.4 894.5 892.4 893.8 891.5 891.3 893.8 894.5 893.6 894.1 893.7 890.5 890.5 889.7 890.1 887.9 888.6 887.8 887.9 887.2 887.2 887.8 888.7 890.6 892.1 893.6 895.1 897.1 903.7 907.5 907.9 908.3 908.5 905.4 898 892.5 889.7 887.8 885.5 883.8 885.9 892.4 896.9 900.4 897.7 891.9 881 873.9 869.1 865.4 858.8 857.4 858.2 863 870.6 889.4 906.1 920.6 935.7 949.9 963 976 985.4 996.7 1009.6 1028.1 1049.3 1069.1 1088.1 1106.3 1122.4 1134.6 1145.3 1152.1 1157.6 1162 1163.8 1163.7 1160.1 1153.2 1141.8 1129.2 1115 1103.4 1093.1 1084.1 1075.4 1065 1055.7 1046.8 1039.3 1033.5 1020.1 979.3 951.9 922 890 862.1 837.8 811.6 794.5 777.2 765.4 753.5 738.5 723.6 709 696 681 667.2 652.2 638.2 622.8 607.5 592.8 579.5 571.3 560.9 556.2 553.1 553.2 550.8 553.7 559 568.3 579 597.6 617.4 643.8 672.1 705.4 747.1 785.8 840.6 877 914.5 954.3 969 949.6 925.1 902.3 878.8 852.4 826.2 801.1 779.2 760.7 743.6 726.7 711.9 697.3 684.2 672.5 662.3 656.2
938.9 940.1 940.4 940.1 938.3 937 937.2 937.2 936.4 933.8 930.3 925.8 920.9 917.7 915.5 911.5 909.5 904.8 901.1 896.4 892.6 891 893.7 898.7 903.6 904.3 901.1 897.1 892.8 883.1 877.2 867.5 862.6 862.7 863.5 863.2 862.8 863.2 865.3 868.2 873.8 876.4 880.4 885.9 887.9 888.8 889 887.2 887.3 887.6 888.7 891.3 891.2 890.2 889.5 887.9 888.3 888.1 888.9 887.2 886.4 887.2 888.2 888.5 888.2 888 888.4 888.7 890.5 892.4 894.9 895 899.7 903.8 903.6 903.5 903.2 900 895.4 887.2 883.4 879.9 876 875.2 872.2 873.1 878.1 878.6 875.8 873 869.1 859.3 849.6 842.8 840.9 838.9 836.5 840.3 845.2 860.8 879.3 897.2 915.3 931.2 945.6 959.8 973.4 984.2 997.2 1012.6 1030.3 1051.2 1071.5 1088.2 1105.6 1120.4 1132.3 1140.1 1146.2 1151.8 1154.4 1155.2 1154.6 1150.9 1143 1132.7 1119 1105.8 1094 1085 1076.3 1065.5 1054.5 1042.3 1031.6 1023.4 1019.1 1011.3 972.1 936.7 900.8 875.1 848.2 827.7 806 787.6 772.7 761.2 750.5 737.5 724.3 709.2 695.3 680.4 664.8 647.7 634.9 620.1 604.6 589.8 576.9 569.4 560.6 556.8 555.5 554 552.2 554.3 558.1 566.7 576.5 591.2 612 638.3 666 696 731.8 770.8 820.6 855.6 909.4 948.7 976 965.4 944.6 927.8 902.3 873.8 847.3 822.1 801.3 779.7 760.3 745.9 728.5 711 696.4 683.5 673.2 666.6
938.1 939.8 940.8 941.4 939.8 937.9 938.5 939.5 938.3 937.1 934 930.7 926.4 921.8 918.1 914.6 913.5 910.9 902.8 899 895.3 890.9 887.2 895.9 902.3 904.4 903.7 899.6 894.8 885 877.8 868.8 865 863.7 863.3 864.2 864.5 864.5 866.2 868.7 873 877.2 877.7 880.4 882.6 883.1 884.4 884.4 884.5 885 886.4 888 888.4 887.1 886.8 885.9 886.1 886.6 884.8 885.6 886.8 888 889.7 891.3 890.8 892.1 892.8 894.1 895.6 897.8 899.5 900 897.2 897.7 901.2 900.9 896.6 893.9 887.6 878.3 874.1 870.9 870 869.5 867.7 866.4 869.8 871 867.3 861 854.1 847 837.6 828 822.2 817.2 818.1 819.2 830 848.2 863.9 885.8 905.8 924.6 941.4 955.8 969.4 982.6 996.1 1012.8 1031.6 1051.9 1071 1086.7 1102 1117.4 1127 1134.7 1139.3 1143.2 1145.2 1145.2 1144 1140.5 1133.2 1122.4 1109.7 1097.1 1086.1 1075.9 1068 1056.5 1044.1 1029.6 1017.4 1009.9 1004.1 993.6 958.5 923.3 886.9 860.1 841.7 822.6 801.7 784.9 769.9 757.8 747.7 736.1 723 709.8 695.1 678.4 661.3 646.1 630.8 614.2 597.6 584.6 575.4 567.3 561.3 558 555.3 554.2 552.2 554.7 557.4 563 569.5 586.3 606.3 631.7 657.5 687.8 722.7 758 791.4 834.5 904.2 940.8 970.9 973 965.4 948.7 923.5 896.6 869.4 846.8 822.8 798.8 779.9 763.5 745.6 726.7 713.5 699.2 686.7 678.1
939.2 940.9 942.4 943.2 941.5 939.6 939.3 940.7 941.1 940.1 938.3 936.6 932.2 925.3 921.9 918 916.5 914.9 906.7 902.4 896.6 893.3 886.1 891 898.4 904.1 902.1 899.6 894.3 887.4 880 873.4 867.4 863.9 865.3 866.9 868 868.8 867.4 871.8 874.6 878.8 880.4 881.3 878.8 879.3 878 880.9 881.6 881.2 881.6 882.9 884.3 884.5 885.1 882.1 885.1 887.9 888.9 890.1 891.8 892.2 893.1 896 898.3 900.8 902.8 903.9 905.1 906.5 907.2 907.4 904.9 902.4 897.3 895.3 889.2 885.9 879.1 870.9 867.1 868.9 867.8 867.6 866.4 866.4 866.1 863.6 860.1 851.2 842.5 836 827 816.2 809.7 807.6 801.5 800.7 815.3 834.1 850.7 870.8 896 914.2 936.4 952 966.2 980.2 993.8 1009.3 1030.2 1049.6 1068.2 1084 1096.1 1107.6 1119.4 1125.2 1129.9 1132.5 1133.2 1132.9 1131.1 1128.5 1122.1 1111.3 1099.9 1088.5 1077.3 1067.9 1058.7 1047.1 1034.7 1018 1004 995.6 987.5 982.4 950.7 912.2 880.6 850.7 833.2 814.4 795.1 779.7 767.4 753.9 744.3 733.4 721.4 710 697.3 679.9 661.7 644.1 632.1 615.4 600.1 586.2 575.7 568.5 561.9 558 556.3 554.6 552.8 554.2 555.8 560 569.3 582.9 602 624.5 648.8 680.7 712.9 745.6 782.4 816.6 865.5 918.6 950.8 976.8 978.8 966.8 945.8 919.7 892.2 868.2 842.9 821.7 804.5 784.4 762.6 743.7 728.1 714.8 702.8 689
940.4 941.9 943.6 945.1 944.2 942 941.5 943.6 943.9 943.1 942.2 941.3 936.8 928.6 922.3 920.9 921.4 916.6 911.3 905.9 900.1 895.1 886.7 885.4 893.2 900.9 899.6 896.9 892.5 888.1 880.7 875.2 869 865.2 867.2 868.4 869.9 869.4 872.3 874.2 878.2 882.8 883.4 879.8 879.7 877.2 876.3 876 878.5 878 878.9 880.3 881.8 881.8 881.1 884.2 888.7 892.7 895.3 896.5 898.8 898.5 900.1 903.5 907.4 909.8 912.8 914.7 916.1 917.4 917.8 917.7 915.9 911.4 903.9 894.3 886.1 882.1 872.4 869.7 867 866.4 866.4 866.4 866.4 867.7 862.5 858.6 852.5 843.4 835.5 835.1 820.6 808.1 795.8 790.1 782.7 789.8 800.4 818.8 838 860.1 882 903.2 929 946.8 962.1 977.1 991.6 1007.6 1027.1 1046 1063.8 1077.4 1088 1098.3 1106.5 1111.8 1115.9 1117.7 1117.3 1116 1114.5 1112 1108.2 1099.4 1087.2 1077.1 1066.7 1056.9 1048.1 1037.1 1024.6 1009.5 992.2 981.2 975.3 970.2 939 903.8 870.6 845 823 802.6 786 773.3 761.9 750.2 741.1 730.9 721.4 710.9 698.1 683.2 655.7 655.8 641.6 620.5 602.6 586.3 573.6 566.5 560.3 557.3 554.7 553.1 550.5 553.8 553.6 556.5 564.3 578.9 597.5 619.7 644.8 671.3 705.1 739.3 777.6 812.9 858.3 925.6 955.7 975 985 979.6 962.7 938.3 909.6 886.6 865.7 847.4 829.4 805 782.9 761.8 745.6 730.2 718.1 703.1
941.5 943.3 945.1 946.8 947.8 945.7 945.6 946.8 946.5 946 944.8 942.9 939.4 931.7 925.7 922.2 923.9 920.1 915.4 907.9 902.1 894.7 886.3 879.9 889.5 895 896.1 893.3 890.1 886.3 881.8 875.7 868.9 868.7 869.9 870.5 870.5 874 878 877.5 881.9 888.1 888.3 884.5 881.3 876.8 875.4 875.8 876.1 876.2 877.1 878.3 879.8 880.2 881.5 886.1 892.5 897 902.1 905.6 904.9 907.5 910.5 914.6 918.3 922.1 924.2 927.5 930.6 931.2 933.2 932.2 927.9 923.2 914.2 903.5 891.6 882.6 873 868.6 866.4 866.4 866.4 866.4 866.4 868 865 855.9 848.3 838.5 831.5 829.8 814.6 801.2 785.2 776.8 765.1 771 781 801.1 819.8 846.7 869.1 891.6 916.9 938.5 956.6 973 987 1004.6 1023.7 1041.6 1057.3 1068.8 1078.1 1084.7 1092.3 1097.5 1099.1 1098.4 1097.3 1096.2 1095.7 1093.1 1091.8 1085.3 1075.4 1064.8 1054.8 1045.2 1037.1 1026.5 1014.9 999.9 984.7 973.7 962.7 960.3 933.4 895.7 861.6 836 816.4 798 780.2 766.8 753.7 745.6 736.9 728.2 719.6 710.6 699.8 686.9 679.9 667 650 626.9 604.2 587 573.6 564.2 559 557 555.1 553.7 549.8 552.5 552.1 552.8 560.9 574.6 591.7 611.2 636.1 662.5 695.1 729.1 763.3 797.8 830.5 887.3 935.8 959.2 983.5 983.9 971.5 951.1 924.5 904.9 886.9 871 850.3 826.1 802 781.8 762.5 746 731.5 717
942.5 944.7 946.8 948.4 949.6 950.4 949.5 949.4 948.9 948.5 946.9 944.2 940.5 932.9 930 922 924 920.2 916.9 911.2 903.2 894.5 885.1 875 883.9 889.8 891 890.4 887.8 884.6 880.3 874.8 870.8 872.6 873.3 873.8 876.4 881.7 884.7 884.6 888 889.9 892.3 890.1 885.7 880 877.6 876.1 875.6 875.6 876.4 877.3 878.5 880.2 880 888.3 895.4 903.1 908.5 909.2 915.3 920 923 930.6 938.4 942.1 942.7 946.9 950.6 952.9 952.2 947.6 943.2 936.2 925.7 914.9 901.9 890.7 880.4 871.4 866.4 866.4 866.4 866.4 868.8 868.1 866.1 856.8 847.2 838.8 827.6 825.6 808.1 794.4 778.6 766.2 751.7 754.5 763.8 785.1 803.3 828.3 853.5 877.9 904.6 928.5 949.5 967.6 984 1002 1019.5 1036.2 1049.9 1059.6 1064.9 1071 1076 1079.5 1080.8 1079.6 1077.8 1073.4 1073.2 1073.5 1072.8 1067 1059.9 1052.1 1043.2 1036.1 1027.8 1017.6 1005.1 990.4 976.3 965.3 955.7 951.3 936.6 894.5 865.7 834.9 815.1 795.6 778.2 763 753.2 743.4 732 725.1 717.3 710.4 704.9 697.6 684.9 671.8 654.6 632.6 606.9 588.9 575.3 565.6 557 555.7 553.7 554.8 549 551.3 551.2 553 561 570.6 586.8 605.9 630 656.5 687.5 719.7 749.9 783.1 816.7 853.7 907.2 934.4 966.9 982.5 976.4 959.5 936.3 918.8 905 887.6 868 845.5 823.9 801 781.5 762.8 745.9 731.9
943.8 946.3 948.7 949.9 950.9 951.9 951.1 951.3 951.7 950.1 947.7 945.7 941.3 937.8 932.9 924.5 922.1 918.6 915.3 908.5 900.1 892.2 884.3 871.8 876.4 882.9 884.9 885.6 883.8 881.9 877.7 871.9 874.6 876.3 878.1 880.4 882.9 891.4 893.4 893.4 895 896.8 898 894.6 889.1 883.9 880.9 877.4 875.4 875.4 876 877 877.7 878.7 880.7 889.5 900.2 909.3 917.8 920.6 929.7 934.3 941.6 953.3 963.1 966.5 964.2 969.5 971.6 970.1 968.2 962.6 955.8 946.7 937.9 925.5 913.8 899.5 889.6 878.5 869.3 866.4 867.3 866.5 866.7 866.2 864 856.5 845.3 837.3 825.9 817.6 798 784.6 771.8 757.3 744.5 744.6 756.9 769.4 790.6 812.1 840.2 866.5 890.3 920.7 942.8 961.8 978.8 996.9 1014.6 1029.7 1040.9 1049.5 1052.4 1056.4 1058.4 1061.5 1061.7 1059 1056.1 1053.6 1051.9 1052 1051.1 1048.1 1043.3 1038.5 1033.4 1026.5 1017.8 1008.2 995.7 980.8 965.2 956.9 948.4 942.7 936.8 905.2 866.3 839.8 818.7 797.9 780 768.6 754.5 743.6 734.9 727.1 724.3 718.2 713 703.2 690.9 674.6 652.1 635.9 610.1 593.1 576.9 563.1 555.9 555.5 554.3 554.6 550.3 548.8 550.8 550.8 558.6 569.6 584.6 602.5 626 649.5 679.2 710.7 741 773.3 804.3 837.8 878.2 921.8 960.5 979.6 979.4 969 946.3 930 916.5 900.8 882.5 862.7 842.1 819.2 796.8 779 763.2 746.9
945.1 947.7 949.5 950 951.1 952.2 952.5 952 951.7 950.7 948.4 946.6 940.8 937.5 933.2 926.6 919.7 915.8 909.6 903.7 896.9 889.8 883.8 872.9 868 878.1 877.3 879.7 878 876.6 875 873.4 875.3 877.4 880.9 885.9 891.2 897.7 899.8 902.2 901.8 901.5 904.1 898.6 892.8 887.4 883.6 879.4 875.7 875.3 875.3 876.3 876.8 879.5 884.9 892.4 903.3 913.5 924.2 931.6 941.5 948 960.8 974.3 978.2 979.8 978.9 982.8 983.3 983.4 979.9 975.3 967.5 957.9 947.7 937 923.9 909.7 896.3 886.9 877.2 869.1 867.9 868.2 867.9 869.6 866.3 862.5 851.2 839.6 827.8 818 795.6 771.5 758.8 751.5 738.8 730.8 752.3 759.7 778 800.5 824.5 852.1 879.8 912.1 934.8 956 974.1 992 1009.3 1023 1031.2 1038.2 1040 1041.8 1042 1043.2 1043.6 1043.1 1039.3 1037.2 1034.7 1033.4 1032.7 1030.9 1027.9 1024.4 1020.6 1015.7 1008.6 995.4 987.1 972.2 959.5 948.4 938 936.1 931.8 915.4 877.7 849.5 828.4 805.1 786.9 773.3 757.5 749.3 742.1 735.4 733.6 731.9 728.5 720.9 709 687.3 658.1 638.4 613.6 591 579 562.2 556 553.9 554 554.4 552.4 551.1 549.2 550.5 558.6 570.2 585.1 599.6 621.1 645.8 673.9 705.3 736 768.7 801.7 839.8 884.1 919.5 953.7 977.6 985.2 973.2 955.6 939.8 926.7 909.8 893.3 876 856.6 834.9 812 796 781.7 765
946.2 948.8 949.9 950.3 951.1 952.2 951.3 949.9 949.3 949.4 946.5 943.1 939.8 935.7 931.3 924.9 918.8 913.8 905.5 898.2 891.4 887.2 880.4 871.5 856.5 870 871.1 872.1 873 873.6 872.1 873.5 875.9 879.1 883.3 889.8 896 902 905.5 907.2 906.5 907.6 907.7 902.7 896.8 891 887.6 881.5 876.4 875.2 875.4 875.4 877.1 882.3 889.4 897.1 907.4 919.6 928.9 937.1 951.3 960.6 976.5 984.5 988.3 989.7 989.1 989.1 990.1 993.1 990.7 988.2 982 971.4 959.3 946.3 933.5 919.7 908.1 897.1 888.9 877.9 872.6 871.6 870.5 869.3 870.3 868 861.7 844.6 830.9 814.5 793.7 769.6 751.9 735.1 730.7 722.5 746.3 752.5 768.3 787.6 814.4 841.8 871 902.4 926.9 949.1 969.1 986.9 1003.4 1015.8 1024.1 1028.3 1029.6 1029.2 1029.5 1028.3 1027.7 1026.9 1025.3 1022.5 1021 1019.7 1019.2 1017.5 1015.2 1013 1010 1005.8 998.9 987.1 979.7 966.9 954.2 942.6 935.6 931.7 927.4 922 897.9 865.7 837.3 819.8 800.1 781.2 771.2 761.9 754 752.8 757.5 754.7 753.2 745.1 729.5 710.7 676.1 644.1 617.6 596.3 579.1 562.3 553.7 552.5 552.8 556.3 553.8 553.7 547.6 550.3 559.5 568.8 579.6 594.1 617.2 641.3 668.1 698.3 728.5 759.3 792.6 825.9 862 900.6 934.7 965.4 990.7 982.4 967 952.2 936.8 921 903.4 886.7 868.4 849.2 828.5 812.3 797.3 781.5
945.4 947.2 949.2 950.4 951.2 951.1 949.2 947.4 947.4 947.8 943.6 938.3 935.2 930.9 927.6 922.5 918.1 911.5 904.3 895.6 888.2 882.3 875.5 867.8 856.2 861.1 864.8 864.4 867.4 867.8 862.6 873.5 878.9 881.5 886 893 899 904.7 907.2 908.6 911.4 913 910.8 905.2 900.5 895.8 892.3 885.7 879.2 877 875.5 875.4 878.7 883.8 894.4 903.8 914.4 923.8 932.4 943.4 955.7 971.3 984.5 992.3 996.6 997.6 997.4 994.7 996.9 1003.6 1004.6 1001.4 997.8 986 975.6 963.5 947.7 934 920.4 908.1 898.8 889.9 884.4 880.5 875.6 873.7 872.4 870.6 864.5 850.5 831.5 809.7 791.8 769.7 748.4 735.9 721.4 716.8 737.9 748.2 761.4 780.4 802.3 828.1 860.6 890.8 920.3 943.7 963.4 980.6 996.8 1009.1 1015.2 1018.5 1020.1 1018.5 1016.7 1015.7 1015.4 1014.8 1012.6 1010.5 1009.4 1008.7 1007.7 1006.2 1003.9 1002 1001.4 997.2 990.5 982.4 974.2 962 948.7 940.1 933.8 929.2 925.5 919.7 907.2 883.9 865.6 846.2 827.5 802.1 792.2 785.1 783.3 784.8 786.2 788.5 786.4 779.4 761 739.6 698.2 655.4 628.8 600.5 581.8 565.1 555.3 552.5 554.2 556.4 554.2 550.9 549.6 551.1 557.9 567.1 579.5 594.3 613.5 636.2 662.1 691.2 717.7 747.1 783.1 818.6 855.2 893.7 936.3 966.6 993.1 990.7 978.2 964.9 950.7 932.1 913.8 896.9 880.6 862.9 844.2 826.4 811.9 800
943 944.4 946.7 949 948.8 948 946 944.3 944.5 944.4 939.6 933 930 926.8 924.5 921.6 917 910.9 899.8 890.6 886.3 880.9 876.6 869.5 859.8 848.7 857.1 855.2 857.9 854.3 865 874.6 880.6 883.4 889.6 895.7 900.6 904.6 907.6 910 913.5 914.3 911.5 907.1 902.7 899.2 894.7 889.1 882.8 877.8 872.9 875.9 880.7 887.3 896.7 908.5 919.4 926.8 936 947.2 959.9 974.5 987.6 994.9 1001.4 1004 1005.3 1002.8 1005.9 1014.7 1015.4 1016.1 1009.9 1004.9 994.7 985.2 977.4 961.6 939.4 920.8 910.5 901.9 894 887.9 883.5 877.9 874.1 870.5 864.4 853.7 831.8 810.2 789.6 766.5 749.2 732.2 724.2 710.2 727.7 745.7 754.1 770.3 791.7 818.6 851 878.3 910 936 956.1 973.9 990.1 1001.4 1006.3 1009.4 1011.3 1007.7 1005.9 1005 1004.4 1003.6 1002.4 999.8 1001.1 1000 998.2 995.7 993.4 994.7 994.4 991 984.9 977.2 968.6 957.7 944.1 936.4 930.1 927.8 924.4 920.5 912.2 900.8 899.3 876 852.7 831.9 820.2 816.7 815.5 817.8 822 825.8 835.3 830 798.1 775.3 721.5 667.9 639 607.1 586.9 568.6 555.8 551.6 555.2 555.9 550.3 548.3 546.2 551.2 559.1 568.2 578.3 594.4 611.8 634.2 658.2 686.9 715.1 743.6 778.6 814.8 851.3 895.4 939.1 954.2 984.2 1000.7 989.8 978 962.9 943.7 926.4 908 890.9 875 858.6 842.5 828.1 822
940.3 941.6 943.7 946.8 947.1 945.9 943 940.9 937.5 934.9 932.2 928.4 926.7 924.9 922.9 920.5 915 907.2 899.4 899.4 894.1 886.1 878.3 872.8 864.7 841.1 847.1 844.9 845.8 852.4 866.7 875.1 880.5 884.8 893.5 897.4 902.1 905.6 908.6 912.1 914.5 915 913.1 909.1 905.3 900.7 895 889.6 884.1 875.9 874.7 878.6 885.1 891.5 900.3 909.5 920.3 928.6 937.8 949.2 961.4 975 986.7 995.6 1003.2 1007.5 1010.8 1012.3 1014.7 1020.4 1025.6 1025.3 1024.5 1023.5 1022.6 1013.5 1001.9 984.3 963.6 941.7 924.6 915.2 905.3 897.9 891.8 885.5 877.5 870.5 864.1 856.1 837.4 810.4 785.8 764.9 748.1 731.9 720.8 707.2 718.6 739.6 748 764.1 782.3 804.3 835.8 865.4 899 927.1 948.6 965.2 980.7 992.5 1000.8 1003.7 1002.9 998.6 994.6 995.8 995.1 994.9 993.2 991.6 992.6 992.1 990.3 988.3 987 988 988 984.6 980 973.2 964 950.7 939.2 931.5 926.4 923.6 921 917.2 915.4 914.9 912.8 902.8 878.9 861.6 848.2 850 851.9 855.4 859.2 863.6 868.7 868.4 828.9 801 739.6 678.9 646.7 614.9 590.3 570.5 556.8 551.4 553.1 551.5 549.3 545.1 548.5 551 557.1 566.3 576.5 590.6 609.1 630 654.4 680.7 708.6 736.6 768.7 802.4 841.6 865 905.8 938.5 980.5 1014.1 1005.9 993 976.3 957.3 939.2 920.8 902 887.6 873.1 858.2 849.4 845.2
938.5 941.1 943.3 944.9 945.8 944.8 941.2 937 931.3 930.4 928.6 925.8 925 923.2 921.9 917.7 910.8 910.7 909.8 906.5 901 893.6 883.8 876.5 868.9 856.3 833.7 836.6 834.3 849.8 865.6 872.9 880.9 888 897.8 900.1 903.7 907.3 910.5 912.8 915.2 916.5 915.4 911.5 906.3 900.6 895.5 889 881.4 868.8 877.5 881.2 887.5 894.9 902.6 910.8 919.2 928.1 937.4 946.2 961.3 974.9 985.8 995.3 1002.6 1009.3 1013.4 1017.7 1019.8 1026.1 1033.2 1037.8 1036 1038.6 1036.7 1029.6 1016.1 999.3 979.7 961.1 943.3 928.5 918.4 909.2 902.6 892.4 882.4 874.3 866.5 860.1 840.9 811.6 779.2 760 745.3 729.7 718.9 707.9 708.4 730.1 731.2 748.3 771.6 799.5 825.6 852.7 884.2 916.1 940.6 957.5 972 984.4 992.8 996.2 993.6 989.8 985 984.5 986.4 986.7 985.1 984.5 985.3 983.4 982.9 982 980.5 982.4 983.3 980.6 975.5 968.9 959.1 947.8 934.2 926.4 921.5 917.8 915.6 915.2 914.8 918 915.7 911.6 905.5 893 887 889.4 890.3 896 898.9 900.5 906.1 883 866.6 824 757.2 690 655.6 622.3 595.6 572.6 558.3 551.9 551.1 549.5 545.1 548.9 549.3 552.3 557.6 566.6 576.8 590.4 608.5 628.4 651.8 678.5 704.3 727.7 760.2 793.8 831.6 868.1 910.6 941.4 972.9 1013.1 1018.9 1008.5 991.4 973.2 954 933.6 915.2 900 886.9 877 869.6 869.5
937.6 940.5 942.4 944 944.4 941.9 939.1 933.8 929.7 927.7 926.5 924.8 923.2 921.1 917.8 915 917.9 916.8 915.5 912.2 908.5 901.4 891.4 883.6 874.7 863.4 846.2 825.3 828.3 844.9 862.6 872.9 880.9 889.9 897.2 901.8 906.1 908.3 910.5 912.8 915.4 917 916.3 912.9 908 902.7 895.3 887.3 878.5 873.4 879.5 886 891.4 897.2 903.2 910.7 919.2 927.3 934.6 945.9 959.9 972.7 984.5 993.6 1002 1009.8 1015.9 1020.4 1025.2 1031.2 1040.3 1046.4 1048 1048.7 1045.2 1036.3 1024.6 1007.9 990.4 972.1 955 941.3 930.6 922.2 912.6 901.2 890.4 881.1 872.3 865.5 841.1 801.5 772.1 751.9 744.9 728.4 715.1 708.8 697.9 715.9 724.6 740.8 761.2 786.8 817.2 840.4 870.6 903.5 930 948.6 963.7 976.4 984.4 988.4 987 982.9 976.7 975.1 977 978.2 977.7 977.4 978 976.7 976.6 976.1 973 978.1 980.9 977.7 972.6 964.7 953.9 942.9 931 920.5 915 912.5 910.9 910.7 915.1 918 918.6 918.5 917.9 916.5 917.3 920.9 925.3 929.6 935.3 938.3 940.5 912.5 877.2 832.6 766.4 699.8 662 629 600.8 580 561.2 552.1 551.8 548.6 546.5 549.1 550.3 554 560 570.3 577.2 590.2 606.1 627.9 649.8 673.1 698 725.1 754.7 787.1 818.6 856.1 887.9 940.7 966.5 1003.4 1031 1023.5 1007.1 988.9 969 947.5 927.9 913.6 902.3 896.4 893.1 893.5
936.4 939.4 941.6 942.3 942.4 941.2 939 934.8 930.8 927.7 925.6 924.9 923.4 919.9 919.6 920 920.6 920.2 919.6 916.8 914 908.1 899.2 891.3 883.3 873.2 858.9 834.8 819.9 837.1 856 870 881 889.8 896.3 901.9 906.5 908.5 911.2 913.8 916 917.1 916.6 912.7 908.4 905.6 895.8 887.2 875.5 872.5 883.1 890.5 896.6 901.4 905.7 909.4 917.2 926.4 934.4 946 955.9 968.8 981.3 991.4 1001.4 1009.9 1016.4 1022.8 1028.6 1035 1046.5 1052.3 1055.3 1054.8 1050.3 1040.5 1029.3 1015.8 997.4 980.5 965.6 953.3 942 934.6 924 908.3 895.9 887.6 876.5 864.2 830.9 794.9 765.7 750.5 741.2 730.2 714.4 702.9 692.8 706.3 717.7 730.9 752.3 779 806.7 828.9 858.8 889.1 916.9 937.9 953.9 966.2 977.4 980.9 979.7 976.4 968 965 967.6 968.9 969.2 970.5 970.7 970.4 970.4 967.6 967.7 972.9 975.3 973.1 969.5 961.5 951.9 939.8 924.7 915.5 910.9 908.3 906.2 909.6 914.8 920 922.3 927.9 930.2 934.9 937.9 945 952 958 965.1 970.4 968.6 928.5 883 830.2 787 710.6 665.9 632.7 607.8 583.7 566.5 554.5 549 543.9 547.3 550.2 551.4 555.1 560.5 566.8 577.6 589.9 606.7 625.2 644.7 668.4 693.2 720.2 749.1 778.1 806.4 838.8 877.3 923.4 961.4 1009.6 1031.7 1034.5 1021.4 1002.8 983 961.8 942 927.6 919.9 917.4 917 918.1
936.1 938.2 939.6 939.8 940.1 940.2 938.3 935.8 931.5 928.9 926.7 924.6 924.4 922.9 922.8 921.3 922.5 922.6 923 921.8 918.3 913.4 906.9 900.1 891.6 884.6 866.9 845.5 821.4 823.8 842.1 858.4 870.7 882.7 894.3 900.6 905.5 908.8 912.1 915.1 915.8 915.3 913.6 911.8 907 902 893.3 884.5 861.2 875.5 886.8 894.4 900.6 906.6 911.1 915.8 917.7 924.8 933.5 942.9 952.4 964.2 978.1 988.7 998.7 1008.6 1015.3 1023.4 1033.1 1041.9 1049 1057.1 1060.2 1058.9 1053.4 1044.5 1033.7 1021.2 1003.5 987.4 975.1 964.5 954.6 946 933.5 918.9 903.2 892.9 882.6 867.5 838.4 788.4 760.3 745.6 739.8 730.4 713.5 699.8 686.7 697.4 709.8 726.8 744.3 765.4 793.4 818.6 848.5 879.3 905.5 926 942.8 957 965.8 972 972.3 968.6 962.1 954.7 958.3 959.5 961.2 963.1 963.6 963.2 960.7 958.5 960.5 965.1 968.1 967.3 964.1 956.1 946.6 933.9 919.3 910.2 904.6 902.5 902.9 907.8 916.2 922.8 930.6 938.1 943.5 949.1 954.6 960.3 967.7 975.7 983.3 989.6 986.7 937 887.3 839.7 773 708.5 668.4 637.1 610.1 588.1 569.1 556.3 547 544.7 545.8 550.7 551.7 555.5 560.4 568 578.8 589 604.6 624.6 643.6 665.9 690.5 716.8 745.6 770.7 796.8 829.3 873.3 914.8 956.2 996.3 1024.9 1037.4 1029.9 1013.5 994.3 976.1 958.1 944.4 938.6 938.7 939.5 940.7
934.6 937.3 937.8 937.2 937.7 937.7 937.9 936 933.6 930.5 927.3 925.1 924.2 924.3 924.5 922.7 924.3 925.9 927.4 927.3 923.6 919.5 912.4 908 903.4 893 876.6 855.5 834.4 812.3 819.7 832.9 845.6 868.3 890.9 898.8 903.8 908.9 911.6 914.1 914.7 914.1 911.5 909.8 904.3 897.6 889.3 879.3 854.2 876.1 888.7 898.1 905.2 911.4 917.8 923.4 925.7 924.9 931.8 941.7 950.7 959.7 972.3 984.8 996.3 1007.6 1016 1024.4 1035.9 1045.6 1053.2 1058.8 1062.3 1060.3 1055.7 1047.2 1038.2 1027.9 1013.1 999.1 988 978 964 952.6 940.2 923.9 909.3 897.6 882.5 865.1 817.1 773.2 750.5 742.7 736.6 728 710.8 696.1 683.1 691.8 701.2 717.6 733.1 756.3 783 810 838.1 869.5 894.9 914.9 932 943.9 954.2 961.8 963.1 959.5 954.4 947.5 950.9 952.4 953.7 954.8 956.1 955.8 954.5 951 950.4 954.3 958 958.7 956.8 947.3 937.5 925.4 912.9 905.1 900.6 898 900.4 907.7 917.2 927.5 937.3 945.9 953.6 960.4 967 973.6 980.2 988.9 996 1002.1 1004.1 963.1 916.9 845.4 778.3 720.6 668.4 638.3 609.8 588.8 570.2 552.9 549.4 548.6 545 549.5 550.7 554.7 558.4 567.8 578.1 591.2 606.6 625.5 644.3 664.2 686.8 711.3 737.4 763.8 791 820.8 861.4 919 946.8 979.1 1014.9 1030.8 1029.6 1018.1 1001.9 987.6 974.8 963.6 959.7 960.2 961.4 961.5
933.2 935.2 935.1 935.2 935.4 935.8 936.2 934.9 933.6 932.4 928.3 925.6 924.9 926.2 926.2 924.8 924.6 927.9 931 931.6 928.1 922.9 917.8 912.1 906.7 900.8 888.1 866.8 844.6 828.8 808.8 811.7 830 854.9 881.7 897.1 903.1 907.5 910.1 912 913.2 912.6 908.6 903 897.6 890.5 883.3 872.8 854.5 877.9 890.7 901.8 908.9 916 924.7 930.7 933.5 934.1 931.9 940.2 946.7 955.5 964.4 979 992.9 1004.8 1015.4 1026.3 1037.5 1048.4 1055.3 1058.9 1062.2 1060.5 1057.1 1049.7 1042.1 1032.6 1020.3 1012.7 1000.1 985.9 971.4 960.3 943.1 927.1 907.9 895.7 879.1 849.1 791.6 760.9 739.7 733.6 731.8 721.8 699.4 695.1 683.4 680.4 694.9 707.7 724 747.3 773.6 799.5 828.9 858 885.7 904.2 919.9 932.2 942.6 949.9 951.9 950 945.8 942.2 942.1 945.4 946.2 946.9 947.7 948.4 947.3 943.9 939.5 942.3 945.7 948.2 945.3 937.5 925.7 915.2 906.8 900.2 895.9 893.1 900.6 909.7 920.5 932.4 943.1 953.3 962.1 969.8 976.9 983.6 989.1 984.8 974.6 980.6 985.3 970.6 922.8 835.7 775.3 718.4 673 639.2 609.9 588.8 569.4 556.3 553.1 552.2 542.9 548.5 551.5 555.1 559.1 566.7 577.5 590 605 625.3 644.3 661.2 683 706.1 733 757.4 782.3 811.4 848.5 894.7 929.1 963.6 1002.1 1014.8 1017.5 1018.5 1007.1 995.5 986.2 982.7 980.1 980 979.2 977.8
932 933.1 933 934 934.7 934.2 934.4 934.7 934.3 933.1 930 926.4 926.2 928.5 927.6 925.4 924.9 928.4 932.2 934.6 931.4 925.3 919.1 913.8 909 903.6 896.4 881.8 860.4 842.6 824.2 799.5 818.3 845.3 872.3 894.1 902.3 905.9 908 909 908.7 906.2 900.2 894.7 889.6 880.6 874.7 861.4 853.1 878 893.4 903.3 912.1 921.6 930.9 937.3 940 942.2 941.7 941.4 946.1 952.9 960.2 972.3 986.8 1001 1013.2 1026.3 1039.2 1049.6 1056.8 1061.3 1060.7 1060.9 1057.9 1052.1 1045.7 1037.1 1029.7 1020.5 1008.3 994.2 977.6 963.5 945 927 902 886.8 868.9 830.1 787.8 757.9 738.9 725.4 718.2 705.8 692.3 689.9 687.3 668.7 690.1 698.9 717 742.4 764.7 788.4 817.1 846.5 875.1 892 907.2 919.7 929.8 936.3 938.7 938.3 935.9 934.6 935.1 938.1 939.6 940.3 940.4 939.4 938.2 935.6 929.1 930.4 933 932.5 930.7 925.1 915 905.6 899.9 894.1 888.9 892.7 902.5 912.7 925 936.8 948.4 959.4 968.3 975.6 982.4 978.8 975 946.9 921.6 919.3 948.4 927.2 889.7 838.1 767.8 724.8 669.3 635.5 611.2 590.3 572 555.7 552.1 547.1 541.6 546.8 554.6 557.6 560.8 567 575.7 590.6 605.6 625 642.7 660.8 680.8 702.1 725.9 751.3 775.7 804.8 842.1 889.2 921.3 947.1 975.8 996 1004 1010.8 1007.7 1000.4 995.5 996.7 997 996.1 995.8 975.8
928.4 932.2 932.6 931.3 932.3 932.5 932.8 933.7 933.7 933.1 930.1 927 928.3 930 929.8 927 923 928 931.7 933.8 930.7 926 919.8 915.1 911.1 906.1 900.3 892.2 878.6 853.6 831.2 802.6 807.8 833.5 861.7 888.8 898.9 901.5 901.1 899.5 896.1 890.3 884.9 879.7 875.4 866.1 861.2 834.2 859.3 880 894.6 905.6 915.9 926.5 936.4 945.5 948.7 950.1 949.7 947.9 948.8 953.2 957.2 965.2 978.7 994.8 1011.6 1027.4 1040.2 1050.1 1057.5 1061.5 1063.3 1063.2 1059 1055.9 1051.2 1046.5 1036.5 1026 1013.1 997.5 979.2 963.6 945 920.2 896.7 874.1 858.7 822.2 783.3 758.5 736 718 701.1 691.3 682.4 681.4 687.4 665.4 679.5 686.9 706 730.9 750.6 775.2 805.5 835.8 865 880.1 892.5 905 915.2 921.8 923.7 925.1 925.8 924.8 927 931 932.9 932.3 931.3 930.2 928.8 925.2 916.3 917.6 918.5 917.7 914.9 910.7 901.6 895 890.2 885.8 881.5 893.2 905.2 916.1 927.8 940.2 950.9 959.6 964.5 956.6 955.9 918 899.9 882.4 867.7 912 912.4 871.2 844 802.2 749.1 700 660.9 629.3 606.1 589.9 574.6 557.2 547.2 543.2 541.1 541.6 556.4 561.1 563.4 566.8 577.7 593.6 607.7 624.1 641.7 657.2 677.3 699.7 722 745.4 767.9 794.8 829.9 870.6 893.2 925.4 952.5 975.5 985.8 993.7 1001 1001.2 1002 1007.3 1011.9 1008.4 983.1 967.7
928.7 930.6 930.4 930.1 930.7 931.7 932 932.8 933.4 933.2 931 928.6 929.6 930.3 930.8 929.2 924.8 925.5 928.5 930 927.2 922.6 917.4 915.2 912 907.9 903.2 895.9 887.8 867.7 838.3 808.8 793.7 820.5 849.4 875.7 887.2 892.1 887.3 873.3 863.5 852.8 849.3 848.8 842.5 838.4 832.5 841.7 868.9 882.4 894.5 907.2 919.3 930 942.4 951.7 957.1 958.1 957.7 955.5 955.7 955.3 957.6 963.3 973.4 989.4 1008.4 1026.1 1039.6 1049.8 1058 1062.3 1064.8 1065.5 1062.9 1059.6 1056.4 1051.3 1041.1 1027.8 1013.9 998.3 980 962.9 940.7 914.6 886.8 870.5 855.6 829.2 786 756.4 735.1 713.5 699.1 687.5 677.2 670.6 670.1 664.2 668.7 675.7 693.7 715.3 734.9 761.3 790.9 820.1 848.8 866.8 878.5 890.1 899.2 905.4 908.8 909.9 911.5 913.3 918.3 923.9 925.6 923.7 920.9 920.4 916.3 902.3 873.2 901.8 904.3 901.6 897.8 893.1 882.4 877.5 865 868.3 883.9 894.6 906.7 917.6 930.5 922.7 915.1 906.4 911.3 907.2 902.7 877 849 833.5 817.8 874.5 866.3 829.4 800.8 766.2 720.7 680.9 650.3 621.8 602.8 587.7 574.7 561.2 549.4 543 540.8 538.7 555 562.8 565.5 568.6 578.9 593.5 607.6 623.8 640.3 657.3 674.8 695.3 716.8 739.6 761 783.2 815.2 842.6 870.6 907.6 931.3 949.3 964.2 971.7 982.8 993.5 1003.9 1012.2 1007 993.6 975.2 954.6
926.8 928.6 928.2 928.9 929.6 930.8 931.4 931.6 932.5 933.3 932.3 929.3 930.3 930.6 931.1 929.9 925.8 918.6 923.2 923.4 920.4 916.3 914.9 913.5 911 908.6 903.8 898 890.3 872.3 843.2 813.2 787.3 810.4 836.2 861.4 876.6 877.7 860.4 843.3 832.6 823.7 819.4 819.2 817.3 814.8 829.5 853.7 873.7 882.1 894.1 908.2 920.9 933.6 947.1 957.1 962 965 962.9 961.2 960.7 959.9 959.9 963.8 970.4 983.1 1001.9 1022.8 1037.3 1048.1 1057.7 1061.4 1064.4 1067.4 1066.2 1064.4 1061 1055.3 1045.8 1031.7 1017 999.6 982.2 961.5 935.9 909.2 886.2 865.2 850 828.9 792.1 759.4 732.8 714.7 698.1 687 677.7 666.1 658.1 656.2 651.1 665.4 678.9 696.5 723.1 745 774.1 803 829.8 850.6 864.4 875.8 884 890.4 894.1 896.4 898.8 900.8 909.3 914.8 916.6 914.1 910.7 908.2 898.6 870.7 841.4 870.5 889.7 884.6 875.3 865.2 843.8 835 848.3 874.1 883.4 884.7 901.2 903.1 879.9 864.5 859.7 843.9 842.4 856.3 840.3 826.2 805.9 788.7 803.5 793.7 779.2 767 754.5 729.8 698.2 665 638 617 599.4 585.1 574.1 565.7 553.3 544.7 541.2 539 552.6 563.7 566.4 570.1 580.3 593.8 608.4 623.1 639.1 654 672.8 690.4 711.6 732.6 755.6 775.6 797.3 824.7 856.2 892.9 911 924.7 940.3 954.1 968.4 978.7 993.2 997.5 992.7 973.4 960.4 943.5
924.8 926.5 924.6 926.3 928.6 930.1 930.5 931 931.4 932.5 932.4 930.7 929.8 932.1 932.1 930.3 926.3 919.3 916 916.6 912.4 913.1 912.5 911.8 910.1 907.9 901.9 899.8 892.4 873.2 843.2 815 783.3 797.5 822.2 847.5 860.6 849.3 831.9 818.5 808.5 798.7 803.8 815.3 826.1 830.4 836.1 862.3 876.9 885.3 893.1 907.9 922.4 937.4 950 960.5 964.1 968.1 967.6 966.6 963.1 962.7 963.1 964.2 967.6 979.6 996.7 1016.7 1034.6 1047 1057.2 1060.8 1065.2 1069.8 1068.8 1067.1 1064.5 1059.1 1049.4 1036 1018.4 998.4 981.4 958.4 933.6 907.3 885.3 867.9 852.1 834.6 799.9 769.8 741.4 718.9 701.6 684.9 675.9 669.3 655.8 653.9 643.5 656.8 665.6 682.2 703.8 726 753.7 782.6 808.8 830.9 848.6 860.8 868.7 875.3 879.1 882.2 885.8 888.8 898.4 904 906.5 903 899 890.9 878.5 845.1 817.6 830.8 859.9 855.4 838.8 818.6 800.9 818.5 849.8 854.6 844.8 839.8 854.1 842.1 826.4 810.4 804.1 795.4 794.7 791.1 781.6 768.9 757.5 745.6 742.4 739.6 733.4 729.6 720.2 702.9 678.6 652.3 626.3 611.8 594.4 581 572.2 564.9 557.4 548 543.4 538.5 544.9 562.7 569.6 574.9 581.7 595.1 606.8 620.8 636.8 652.8 668 684.8 704.8 725.7 747.1 767.5 785.6 810.2 839.4 877.3 892.2 908.9 925 939.9 955.6 970.2 979 980.8 975 958.5 945.9 934.3
922.9 922.8 924.8 927.7 929 929.4 930.1 931 931.4 932.1 932.7 931.8 928.5 930.2 930.3 928.6 924.3 917.7 909.3 910.5 910 909.3 910.1 909.3 908.2 907.6 906.3 901.5 893.3 870 842.9 814.3 789.1 785.1 805.7 830.9 836.4 820.8 805.8 794.6 789.5 807.7 825.8 841.3 853.3 857.4 841.3 855 877.5 886.3 896.1 908.2 922.7 937.9 951.7 961.4 966.8 970.7 971.8 968 964.5 962.1 962.7 964.2 967 977.6 991.9 1009 1029.2 1043.4 1054.9 1063.7 1068 1072.6 1070.9 1069.9 1067.1 1061.5 1052.5 1036.1 1018.6 998.7 981.6 959.1 928.5 905.9 882.9 871.9 858.4 837.6 806.4 775.7 748 724 703.7 686.7 677.1 665.2 654.1 646.9 640.1 642.3 656.6 666.1 685.8 709.2 731.7 758.8 785.1 807.4 826.3 842.1 850 857.7 863 868.6 870.3 877.3 882.7 883.1 886.3 882.5 872.3 852 826.4 812.9 793.1 796.8 816 810.2 800.2 782.4 760.7 815.1 821.3 811.3 802.6 796.1 793.1 783 778.2 762.8 753.6 750.2 746.3 739.1 729.9 722 713.7 704.1 701.5 700.7 695.7 693 689.4 679 665.1 644 621.4 604.1 588.7 577.7 568.5 562.6 556.2 551.9 541.7 538.9 543.3 559.5 569.3 577.9 584.8 596.4 606.7 618.8 633.4 646.7 661.1 678.7 699 718.4 738.9 759.4 775.7 794.3 820.4 849.3 873.3 885.5 907.4 927.7 943.9 962.3 970.1 970.1 961.3 949.7 939 921.8
918.4 922.9 926.1 928.2 929.7 930.3 930.9 931.4 931.9 932.5 933 931.3 929.3 926 926.6 925.5 921.1 916.2 910.6 904.1 907.1 906.1 907.1 907.9 908.7 909.3 906.2 902.1 896.1 871.7 842.8 813.9 790.1 770.7 786.9 805.6 806.8 794 780 788.8 806.4 826.2 847.1 861.4 868.5 872.7 865.1 840.4 872.3 888.8 899.9 907.9 921.4 935.7 949.3 962.1 968.6 971.6 971.1 968.6 965.9 963.2 961.4 963.2 966.1 974.1 987.5 1003.8 1021 1037.2 1052.1 1062.6 1071.6 1074.6 1074.9 1075.3 1071.3 1062.8 1053.1 1039 1023.4 1001.2 978.8 956.6 929.9 911.2 885.2 872 858.4 840 817.9 785 752.1 729.4 707.8 690.9 679.7 666.4 655 648.6 640.9 631.5 642.6 651.8 670.1 690.1 708.5 733.7 759.8 783 802.4 817.9 828.5 835.3 843.4 849.2 848 858 847.6 837.3 855.4 844.9 849.4 808.5 786.1 777.6 765.4 769.2 780.1 774.4 767 750.4 763.4 790 782.9 773.7 761.8 750.9 741.5 736.4 735.7 717.3 712 705.5 698.5 694.6 687.9 682.1 675.7 672.1 669.8 664.7 664.9 666.6 664.8 659.7 651.5 633 612.2 596.6 583.8 574.9 567.3 560.1 553.1 547.7 541.3 536.5 543.4 554.4 564.9 576.9 584.8 598.4 606.8 618.3 630.2 642.7 657.7 673.7 692 710.7 729.2 748.4 766.6 781.6 804.4 830.3 853.9 868.6 890.2 910.5 935.2 953.9 959.9 961.7 950.4 942.2 933.1 917
918.9 923 925.8 929.2 931.7 932.5 932.5 933.1 933.8 934.3 933.2 930.9 928.5 926.2 921.3 921.1 917.8 913.1 908.7 903.6 903.6 903.9 905 906.6 907.9 909 906.5 901.5 897.1 876.3 844.3 815.1 792.1 766.5 774.1 782.6 777.7 771.6 789 804 822.2 842.1 863 875.1 882 883 878.1 866.1 863.6 890.3 901.5 909.8 922.1 934.7 948.9 960.4 967.4 968.8 968.6 966 963.3 960.4 960.6 962.9 967.8 973.8 984.3 997.8 1014.8 1031.7 1049.5 1060.9 1071.8 1079.7 1080.7 1080.9 1077.1 1069.1 1057.2 1043.5 1024.8 1005.5 984.8 955.4 929.9 911 886.5 872.4 861.6 848.9 823.1 790.5 758.2 736.7 715.9 698.1 682.6 668.7 656.2 651 642.2 625.4 630.8 637.4 654.2 669.4 688.4 708.5 731.8 754.7 776 792.9 801.6 805.6 810.9 811 813.5 813.4 802.4 792.1 808 809.9 791.2 779.6 760.6 748.9 737.8 746.6 745.4 740.1 731 708.8 749.3 756.3 749.9 728.8 712.6 701.3 692.1 686.2 678.9 673.5 670.3 662 659.6 657.7 653.8 647.7 643.6 644.1 642.3 641.7 642.3 643.9 645.6 643.2 628.9 617.9 603.7 589.1 580 572.6 564.6 554.6 548.1 543.1 538.9 538.9 542 551.5 560.7 573.3 585.8 598.4 606.7 616.4 627.6 638.8 652 667.3 682.4 700.9 719.2 737.9 756.3 770.4 789.1 809.8 828.9 855.1 876.4 894.9 920.9 941.8 951.9 951.9 945.6 938.1 924.4 912.3
918.6 921.4 925.9 930.3 933.5 935 934.8 934.7 935.5 934.8 933.5 931.5 927.7 925 922.4 916.6 914.6 910.6 906.1 903.8 900 900.2 902.5 904.1 906.3 907.5 905.9 900.2 894.3 877.3 845.6 815.8 792.1 769.4 765.6 766.8 768.5 782.2 802.2 821.3 837.7 859.1 874.7 886.4 893.4 892.3 888.1 878.5 863 887.5 902.6 911.7 920.7 932.5 944.9 957.2 963.2 964.1 965 963.2 960.4 957.9 959.3 962.6 966.7 974.4 983.5 996 1010.5 1028.2 1046.3 1062.4 1073.3 1081.2 1083.7 1084.3 1083.6 1077 1066.9 1050.4 1032 1007.7 986.7 961.2 931.7 908.8 894 881.5 869.3 856 835.4 806.8 773.5 745.5 722.3 703.6 687.3 674.5 663.1 653 643.9 628.5 615.4 622.1 634.2 651.4 666 682.6 701.5 721.1 738.7 748.3 756.4 765 764.7 762.9 780.4 763.6 758.6 751.4 749.9 746.4 740.9 737.1 727.8 715.5 707.9 713.4 710.6 704.9 691.3 700.8 697.5 695.7 687.5 681 669.5 662.8 653.6 647.6 642.2 637.9 631.6 628.4 625.6 623.3 620.7 616.8 614.7 616.3 616.9 616.9 615.1 613.8 611.7 609.4 606.3 604.7 599.6 582.1 575.4 568.2 557.3 551.2 544 541.3 535.7 537.9 540.6 549.2 558.4 567.9 583 596.9 607 616.2 623.8 633.2 645.7 659.5 674.4 692.2 708 727.1 744.7 761.7 777.3 793.8 810.8 835.5 855.7 877.9 903.1 920.5 938.7 944 941.1 933.1 925.1 912
917.4 920.1 925.6 931.1 934.7 936.2 936.8 936.5 936.1 934.8 933.4 931.5 926.9 923.7 920.8 916.7 909.2 905.7 903.5 901.1 899.1 895.8 898.6 900.2 902.5 904.5 901.7 897.3 888 873.3 845.3 813.5 789.7 764.6 758.5 760.3 771.9 789 810.4 833.9 852.2 871.8 885.7 896.9 901 900 895.7 887.3 870 885.9 903.9 912.3 918.9 930.2 941.4 952.1 958.2 959.5 960.9 959.5 956.9 955 958.2 962 966.4 974.5 984 996.7 1010 1026.4 1043.6 1060.4 1073.9 1081.9 1087.2 1087.8 1089.2 1083.7 1074.8 1057.4 1036.7 1009.7 984.1 959 937.5 913.4 899.4 882.5 877.2 873.3 845.1 811.8 782.8 753 727.4 707.2 691.1 676.7 663.1 654 641.2 630.3 618.8 608.1 614.4 627.5 643.5 658.2 675 687.2 700.5 708.2 715.4 718.3 716.6 718.7 723.1 721.6 715.4 710 709.8 708.9 701.8 697.8 692 683.9 677.1 679 675.5 667.8 662.9 658.4 655.6 655.5 645.1 637.7 629.3 623 619.8 615.4 610.2 605.2 599.7 596.1 594.3 591.2 591.5 591.9 589.9 592.1 591.8 591.9 591.4 592.2 590.4 585.6 585 588.1 585.5 577.7 569.8 557.7 551.2 549.2 543.8 539.5 534 535.6 539.4 547.9 556.9 566.4 580.3 592.4 600.3 610 620.1 629.4 637.6 652 665.1 681.9 698.2 716.6 733.6 751.3 765.3 778.3 798.1 815.9 834.6 860.1 882.3 899.7 914 926.9 933.1 929.6 924 915.2
915.9 919.9 926 931.8 934.8 936.5 938.2 938.1 936.1 933.7 932 928.7 924.9 921.2 917.4 913.8 909.8 901.2 899.3 899.1 898.3 893 894.3 896.8 898.2 898.3 892.6 888.8 883.3 866.7 838.2 807.4 782.6 753.7 758.4 759.5 775.2 796.8 821 843.3 866.8 884.1 898.3 905.6 908.7 908 904.4 896.1 883.3 884.3 902.7 912.3 919 927.5 936.7 947.3 953.8 955.5 956.8 955.6 953 954.2 958.3 962.7 967.4 975.9 985.7 997.5 1010.5 1025.3 1041.8 1058.7 1073.2 1083.2 1089.5 1093 1093.6 1089.7 1079 1062.3 1037.7 1008.9 983.7 960.1 936.7 920.6 902.2 886.6 883.4 870.7 846.9 825 793.4 763.1 734.7 712.7 693.2 676.9 666.6 658.6 646.7 635.1 618.9 607.2 601.1 608.9 620.7 633.4 648.1 658.4 663.5 672.6 676.2 680.5 681.2 674.9 682.8 680.6 677.6 674.3 672.8 672 663.8 662.8 655.9 652.5 644 643.8 639.8 631.3 623.3 622.8 618.8 612 607.4 600.9 595.6 590.1 586.4 583 578 574.8 571.4 568.5 568 564.5 567.2 568.3 567.3 570.1 570.6 568 568.5 568.6 567.5 568.6 571.3 575.3 574 572.3 565.8 554.6 546.7 544.9 541.3 537.1 533.1 535.2 537.9 545.7 554.6 565.6 574.6 589.1 596.8 603.8 614.3 623.2 631.1 643.3 657.8 672.3 688.1 704 722.3 739.8 757.3 771.1 784.5 802.1 819.2 841.2 863 879 894 903.9 911.1 917.5 913.3 905.6
914.5 919.6 926.3 932 934.8 936.9 938.6 938.2 933.7 930.3 928.1 923.2 920.2 917.7 914.4 910.8 906.8 898.7 893.9 895.3 894.5 888.1 887.4 888.5 888 885 880.8 876.2 868.8 847.9 822.3 794.7 773.4 750.2 753.9 767.2 784.1 806.1 831.6 855 877.9 894.2 905.4 913.3 914.6 914.1 910.6 904.5 894.2 879.1 898.1 911.8 918.7 925.6 933 941.3 948.3 951.1 952.5 951.1 947.6 954.2 959.3 963.6 970.3 979.3 988.9 999.1 1011.5 1025.7 1041 1057.5 1073.5 1084.4 1091.9 1096.1 1096.9 1092.6 1083.5 1065.7 1038 1011 982.2 958.2 936.6 921.8 901.3 892.6 883.9 870.4 856.1 838.5 806.3 776.8 745.1 715.7 696.7 681 669.5 658.2 649.1 640 618.8 608.1 597.5 593.3 604.2 609 619.7 630.3 635.8 642.5 642.2 646.7 646.6 642.5 649.2 644.9 643.6 642.6 639.8 636.9 635.3 629.7 626.4 623.7 613.2 613.2 608.7 598.7 594.1 589.2 585.7 580.4 576.9 570.7 567 561.6 557.8 553.3 549.5 548.1 547.5 543.8 544.3 542.5 542.4 550.4 549 550.5 550.2 550.6 549.6 550.2 550.8 559 560.4 563.7 561.1 559 552.9 546.3 541.7 539.8 536.7 534.7 531.9 533 536.2 543 553.1 564.6 572.9 584.9 591.5 597.9 608.5 616 624.1 634.7 648.4 662.8 677.5 693.5 710.3 728.2 745.6 763.7 773.6 787 804.9 827.3 844.7 859.2 870.5 882.3 886.2 886.4 879.7 874.8
914.4 919.6 925.8 930.2 933.8 936.1 935.8 934.1 929.8 925.8 920.4 919 917.6 915.2 912.6 908.5 903.1 893.4 888.3 887.7 882.5 867.6 867.6 860.5 857.5 857.7 856.9 857.1 846.9 830 803.4 781.6 762.3 747.6 758.4 776 794.6 817.5 841.8 866.1 887.1 902 912.6 920.3 923 921.4 918.3 911.4 903.2 883.8 897.6 907.7 916.5 923.3 929.7 936.8 942.6 946 947 946 947.3 952.9 958.5 965.1 973.1 982.5 992.1 1002.2 1013.8 1027.8 1042.9 1058.5 1073.9 1085.9 1093.8 1099.7 1099.7 1093.9 1083.3 1067.5 1037 1009.6 986.9 960.7 937.5 921 906.3 897 887.6 875.6 865.1 849.7 819.9 781.9 749 723.4 704.2 685.6 671.6 657.6 645.9 637.3 618.4 607.9 602.1 586.9 589.2 596.2 600.6 604.4 607.7 614 615.6 618.6 619.8 615.2 616.8 614 613.5 612 606.7 607.2 603 601.9 598 594 589.4 586.9 580.8 573.5 573.4 565.1 558 552.7 550.6 546.5 541.7 538.7 534.3 530.9 530.8 527.3 524.5 523.4 523.3 521.6 526.3 529.9 531.6 535 532.9 536.3 539.6 540.1 540.2 547.6 550.9 552.8 548.2 542.5 540.1 538.1 533.9 533.9 532.4 533.6 530.4 530.1 534.3 540.5 551.7 561.8 569.2 580.9 588 593.3 602.6 610.9 618.2 626.1 638.9 652.4 666.8 681.8 698.1 715.2 732.5 751.1 766.2 778.1 791 812.2 827.9 836.4 849.1 852.9 855.3 854.4 850 842
913 918 922.9 927.5 930.3 931.4 929.4 927.3 923 920.2 917.7 916.8 915 913.1 909.1 904 893.8 883.1 868 859.8 850.2 836.9 833 830.7 829.4 830.8 830.6 835 828.8 814.1 789.1 768.1 745.3 749.6 765.1 784.4 804.2 827.4 852.3 875.3 894.8 907.2 919.7 928.2 931.6 930.7 924.8 919.2 912.9 897.6 894.1 904.9 912.7 918.3 925.5 930.9 936.2 939.5 941.3 941.6 945.3 951.2 958.3 966.2 975.4 985 994.4 1004.2 1016.5 1029.5 1044.4 1059.5 1074.8 1086.8 1096 1101.9 1103.8 1098.7 1090.7 1065 1032.9 1010.7 983.8 965.1 940.1 927.9 918.8 907.7 898 883.5 875.4 860.2 830.9 789.7 759.6 734.3 710.6 692.3 670.7 654.9 642.3 632.5 615.9 602.9 595.2 589.1 579.9 585.1 589 588.1 589.7 588.3 588.1 590.9 593.2 589.8 589.5 588.7 588.9 588.5 586.1 581.4 577.4 576.7 574.4 571.8 567.1 561.9 558.1 555.5 556 553.1 544.8 534.6 530.9 527.8 525.5 523.8 520.7 520.4 519.6 516.3 515.1 511.5 516 513.3 512.1 516 519.7 519.1 522.6 525.4 526.9 531.1 535.9 534.7 536.7 537.5 535 533.8 532.8 530.7 528.4 530.3 529.7 528.8 528.9 528.3 532.6 539 549.8 558.1 565.7 573 581.6 590.2 597 604.9 612.4 619.5 628.6 642.7 656 671.2 686.6 701.6 720.7 737.1 752.2 765.5 776.9 792.4 808.9 815.7 821.7 825.1 824.9 822.9 819.4 814.9
911.9 916.1 920.3 923.5 924.9 925.1 922.4 918.1 918.7 917.6 914.8 913.5 912.7 909 905.1 896.5 880.3 863.2 842.1 828.3 820.2 811.5 801.8 803.4 802.1 804.2 808.6 812.4 807.4 792.4 773.7 757.4 742.4 754.3 773.7 794 815.1 838.2 862.1 887.1 902.5 916.3 927.9 936.7 939.9 937.9 933 926.1 919.9 908.9 892.4 902.9 909.3 915 920.9 926.3 930.8 932.6 936.5 941.8 943.7 949.5 958 966.8 975.8 985.7 995.2 1004.4 1016.1 1030.5 1043.9 1059.8 1074.9 1087.6 1097.7 1104.5 1107.5 1105.2 1097.8 1078.9 1044 1011.3 977.3 965.3 952.1 935 930.3 920.4 906.5 897.2 885.9 869.8 837.7 801.9 766.4 742.7 716.9 692.1 672.2 651.4 633.9 627.9 610.2 599.6 590.9 586.9 579.2 572.3 580.5 576.6 575.9 573.7 569.9 567.1 569.8 572.5 567.5 568.5 567.6 566.2 567.5 562.5 558.8 556.5 552.7 547.8 550.2 546.5 539.9 539.8 542.6 540.9 535.5 529.2 523 522.1 515.3 514.6 512.1 510.7 511 510.9 510.5 509.5 509.5 509.4 508.9 511.2 511.9 512.3 513.7 517.1 523.7 524.2 525.6 526.5 527.5 525.9 525 526.9 526.9 526.5 524.5 526.2 525.6 526.4 526.4 524.9 531.4 538.1 548.6 557.6 562.2 573.7 581 587 591.5 599.9 605.6 612.7 622.7 632.9 644.6 658.4 671.5 688.6 705.7 722.1 737.1 749.1 760.1 776.1 787.2 791.4 791.9 794.2 796.3 795.9 791.4 790.2
910.2 913.7 915.9 917.4 917.9 918.3 916.7 915.2 915.5 913.4 912.6 910.6 907.6 903.8 897.7 882.4 855.7 834.1 817.3 803.7 796.2 791.7 780.2 779.9 779.1 781 785 786.8 787.6 768.6 756.4 742 743.3 761.7 782.5 804.4 827.2 850.3 873.3 894.8 911.1 928 937.6 944.7 947 945.2 940.2 932.1 927 917.4 904.8 902.8 906.2 909 914.2 922 931.8 939.3 942.9 945.7 949.6 951.7 955.1 964.6 974.7 984.1 994.5 1004.9 1015.9 1030.6 1043.7 1057.9 1073.1 1086.8 1097.9 1104.6 1109.8 1109.2 1101.9 1086.2 1054.8 1023.4 990.2 975.6 958.3 943.8 935.5 935.3 930.3 906.8 894.6 876.8 848.3 808.6 772.3 745.6 718.6 697.4 672.6 653.9 635.6 616.7 604.7 594.2 587.1 585 580.6 570.3 566.5 565.8 568.5 562.9 557.7 554.4 554.3 555.5 552.5 551.9 549.9 548.5 549.4 548.2 546 541.1 536.9 535.3 537.2 536.7 531 530.1 531.1 530.6 526.9 522.5 518.8 515.9 513.7 512.9 512.3 511.7 511.2 510.8 510.8 510.3 509.2 509.4 508.2 507.8 507 507.9 509.6 510.8 516 520.7 519.6 520.2 520.3 519 519.6 522.8 523.3 522.6 519.1 519.7 521 524.3 523.5 522.2 530.9 535.4 543.6 555.6 560.4 571 573.3 581.4 587.7 593.8 602.3 608.7 615.3 622.9 634.4 645.3 658.7 674.3 689.2 704.4 720.9 731.4 743.8 754 765.2 768.8 769.2 769.8 770.9 768.7 764.7 764
905.2 909.7 911.4 913 913.1 914.5 913.8 913.3 913 911.5 909.2 906.6 903 898.3 890.3 860.8 836.5 815.5 799.9 787.2 777 773 765.8 763.2 762.9 761.3 763 770.4 767.7 755.4 743.5 738.9 751.5 770 791.9 815.5 837.9 862.3 883.8 906.6 923.9 936.1 947.4 953.3 956.1 953.2 947.7 938.6 931.4 924.7 912.2 911.4 915.9 918 923.4 929.4 937.4 943.7 949.1 953.2 957.2 959.8 964.1 966.2 973.3 981.3 992.3 1003.4 1015.8 1028.9 1041.7 1055.1 1070.7 1083.8 1095.5 1103.9 1109.2 1111.2 1105.3 1089.8 1065.5 1040.3 1014.3 986.4 968.8 953.5 948.8 940.2 934.2 921.8 905.8 881.2 858.5 828.9 774.7 750.9 722.2 696.1 672.7 654.8 636.8 615.7 601.4 587.8 581.2 579 573.8 567.5 561.3 556.8 551.2 548.4 547.8 547.2 545.5 544.5 544.6 543.8 542.3 536.6 534.7 535.5 534.9 529.8 526.6 526.4 527.3 528.2 524.9 523.2 522.4 521.8 520.5 518.6 515.6 513.9 513.4 512.7 513.1 513.4 513 512.6 510.7 509.9 509.3 509 508.7 509 508.6 508 508 510.5 511.1 514.8 517.9 515.1 516.5 516.3 516 518.5 519.4 519.9 519 516.3 519.3 520.5 521 520.4 529.2 532.1 542.3 551 557.6 566.1 571.7 578.4 580 588.7 597 603.1 608.6 615.3 623 634.1 644.6 657.1 673.2 686.2 698.9 712.4 722.5 730.7 737.4 741.2 740.6 741.6 743.7 741.2 740 741
892.5 899.3 903.5 906.3 908.5 909.7 908.8 908.3 908 906.9 904.6 901.9 899.5 892.7 876.8 842.9 819.5 800.9 785.5 773.5 761.4 753 748.1 746.6 748.7 752.9 750.1 752.8 749.1 740.7 731.7 741.8 759 779.8 802.7 825.6 849.3 874.2 899.8 920 934.3 945.7 954.2 961.9 962.3 959.3 953 943.3 935 928.1 919.9 915.6 920.4 924.6 930.7 936.6 943.1 949.9 958 964.4 969.4 970.6 972.8 975.3 974.9 979.6 989.4 1001.8 1013.2 1026.4 1039.3 1051.9 1066.4 1080.1 1092 1102.3 1108.3 1110 1104.2 1094.4 1077.5 1051.4 1029.7 1009.2 979 960 957.2 947.9 939 925.5 908.3 891.3 876.6 838.1 783.5 750.7 722.3 694.6 667.2 648.2 632.2 616.3 600.7 590.5 582.2 577.4 569.9 572.1 560.9 557.3 555.2 549.3 545.3 542.7 542.3 540.3 539.2 537.1 537.3 532.2 527.4 526.5 525.7 523.4 521.9 521.5 519.5 522.4 521.7 520.6 519.2 518.2 517.9 514.9 514.3 513.5 513.8 516 515.4 515 514.3 513.1 511.6 510.5 509 508.5 509.3 509.5 508.7 508.4 507.8 508.6 511.5 508.7 510.8 511.7 512.1 514.2 515.2 514.2 513.9 515.7 515 513.7 516.2 516.9 520 518.8 527.1 528.6 538.8 546 552.2 559.8 566.8 575.3 575 583 590.7 597.9 603.8 610.1 615.6 623.8 634 643.6 656 669.3 681.5 690.4 702 709.4 713.2 718.7 720.9 721.1 718 716.7 713.6 713.7
