ncols 200
nrows 82
xllcorner 320000
yllcorner 825450
cellsize 50
214.2 224.4 230.2 235 239 241 241.5 242.8 245.3 247.3 250.5 255.3 260.7 266 269.9 273.5 277.2 279.5 282.3 284.4 284.5 283.4 281.8 278.4 274.2 270 265.1 260.7 259.4 260.4 261.9 261.7 261.8 262.9 264.2 265.3 266.4 266.3 262.8 255.9 256.3 276 284.7 290.3 297.5 303.6 307.8 311.7 316.4 322.4 326.5 329.5 333.1 338 343.4 348.1 354.9 362.1 366.4 369.5 372.3 375.7 383 391.2 395.5 397.7 401.9 407.2 409.5 410.9 409.8 409.5 410.3 412.8 415 413.3 409.3 404.6 400.3 395 388 379.8 372.1 372.3 378.5 389.5 395.1 393.7 392.2 389 388.8 387.2 387.5 389.7 395 401.5 409.3 416.1 428.5 442.1 454.7 466.3 474.7 479.6 484.9 484.7 483.7 482.9 480.1 478 477.2 474.8 470.6 464.9 458.9 452.7 459.6 465.8 469.7 473.6 479.8 484.6 486.7 487.8 484.8 484.8 487.3 494.5 505.6 513.3 521.3 527.9 541 552.7 561 568.7 575 581.2 588.6 600.9 608.9 614.8 619.4 622.2 622.1 618 611.1 601.7 591.4 585.3 579 572.1 564 551.9 538.1 551.9 570.2 587.4 606.1 622.6 639.4 664.6 687 703.1 716.5 729.9 741.6 745.6 746.7 745.7 741.8 735.6 729.5 723.7 717.2 706.6 696.6 681.8 671.6 662.4 653.8 642.9 630.6 617.3 604.8 590.6 573 553.4 537 520.7 509.4 500.9 490.3 482.3 473.3 468.6 464.9 464.8 463.2 460.1
213.8 225.8 232.3 236.7 239.6 242.5 244.4 246 248.9 252.8 257.2 262.2 267.5 273.4 279 280.6 283.8 287.3 290.2 292.7 292.8 292.1 286.5 280.7 274.8 270.5 265.4 261.2 260.4 261.3 261.5 261.6 262.9 264.3 265.7 267.2 268.5 268.3 265.6 264.3 257.5 273.1 281.8 290.9 298.3 304.6 308.9 312.5 317.2 323.2 328.4 332.5 336.9 341.5 347.7 352.5 357.3 362.4 367.9 371.7 374.4 379.9 385.9 393.1 400.5 403.3 408.7 414.6 415.8 416.3 415.5 414.6 415.2 417.4 419.5 418 413.3 409.2 405 400.9 393.3 382.9 375.5 375.7 383.5 397 398.3 397.6 396.9 395 393.2 392.8 390.4 393.6 397.9 404 412.9 426.4 439.7 452.9 465.1 474.9 482 489 492.5 492.1 490.4 489.5 487.3 485.2 483.7 481 477.2 472.1 466.3 461.6 462.3 469 475.2 480.7 488.9 495 499.3 503 504.8 505.3 504.5 512.9 520.4 530.1 534.5 543.2 557.9 569 580.5 587.6 597.3 603.3 609.3 620.8 628.7 633.4 637 639.3 639.1 637.4 631.5 620.5 611.6 602.9 594.4 585.1 573.4 559.8 543.1 560.4 577.9 594.7 613.5 629.6 651.5 677.4 697.2 714.9 729.9 741.5 746.6 748.8 749 746.2 741.4 735.8 729.7 723.8 716.4 705.5 696.8 689.4 679.3 670.1 660.5 648.3 634.8 617.2 600.2 582.3 561.8 547.9 532.3 517.8 509 500.7 491.9 484.2 477.7 476.5 476.2 474.6 471.8 467
213.8 227 234.9 240.6 242.4 244.4 246.6 250.1 253.8 258 263.8 269 273 278.3 283.5 289 295.5 301.5 303.2 301.9 301.1 299.1 292.5 283.3 275.5 270 265.5 261.5 260.5 260.7 261.7 263.3 264.3 265.9 268.1 269 270.4 271.4 268.1 267.4 260.9 267.2 281.1 289.4 297.3 304 308 312.4 317.6 323.4 329.9 335 339.4 344.1 350.7 354.9 357.8 361.9 366.6 371.7 376.2 382 388 397.4 403.2 407.3 413.8 417.3 418.3 419.7 419.7 418.4 419.5 422 421.4 418.1 414.4 410.7 407.6 404.2 397.4 384.8 380.3 380.5 388.7 399.7 402 402.5 402.4 400.8 399.3 398.6 395.3 397.1 402.9 408.8 419.9 435.3 449.3 460 471.2 480.2 487 492.7 497.3 496.7 495.3 494.2 492.9 490.3 488.8 487 482.8 478.5 473.7 470.1 467.3 472.4 481.7 488.7 498.4 505.7 510.2 513.9 516.8 519.5 524.2 529.8 537.5 543.6 551.4 563.3 576.1 587.2 594.4 602.9 611.5 618.4 624.3 635.8 642.3 646.8 651.1 653.8 653.7 653.1 648.9 641.3 630.1 619.2 609.4 596.6 582.3 567.2 551.8 571.1 585.8 602.4 620.7 638.9 663.7 687.3 707.5 724.9 738.2 745.3 749.2 750.4 749 745.6 739.9 735 729.5 723.1 716 708.6 701.9 694.6 685.7 676.2 664.8 652.8 637.6 619.4 598.4 577.4 555.8 537.3 526.3 515.8 507.2 498.7 491.4 484.8 482.7 483.8 483 480.3 474.8 466.1
214 224.1 235.6 240.8 243.5 244.9 248 252.8 258.5 265.6 271.4 277.2 281.9 286.4 292.3 299.4 306.5 313.6 314.8 311.4 308.7 306 297.3 284.3 275.9 270 264.6 261.6 260.9 261.3 264.4 266.4 267.2 268.5 270.7 272.4 274.5 274.5 272.3 269.4 267.5 259.2 276.3 285.5 293.4 301.1 306.8 311.4 318 323.9 330.8 336.3 340.7 344 349.7 354.1 356.6 360.3 364.6 369.6 374.8 381.8 389.1 398.2 404 409.5 414.1 417.8 419.3 419.7 419.8 419.4 419.3 419.4 417.1 413.5 411.1 409.7 407.9 405.8 399.8 388.2 382.9 385.1 393.8 404.2 408.7 409.6 408.6 407.5 408.3 408.2 403.2 399.8 404.7 410.4 429 443.8 454.9 463.3 472.6 480.2 486.9 491.2 494.6 496.8 497.8 496.9 495.8 495.9 495.4 495.2 492.9 488.7 484.4 479.8 476 480.5 488.5 497.6 507 515.3 520.5 525.6 532.5 535.1 536.8 539.8 548.6 554.7 566 577.8 590.8 598.9 609.6 617.9 624.6 631.2 637.7 647.1 653.8 658.9 664.3 666.6 668 667.8 664.8 658.4 648 635 622.7 605.2 589.1 573 569.2 580.8 594.4 610.6 627.7 650.8 672 694.1 715.4 730.7 741.3 747.3 750.4 750.5 748 742.4 738.9 733.7 727.5 721.3 715.6 710.8 705.2 699.2 691.3 681.7 670.9 657.6 640.8 620.6 598.6 576.4 555.5 535.2 523.4 516.4 506.4 494.8 486.2 481.5 481.8 483.7 485.2 480.2 470.5 456.5
214.5 222.5 233.4 237.8 242.8 245.9 248.6 255.7 262.4 268.7 275.3 283.1 288 294 300.8 307.7 314.9 320.2 322.2 319.7 315.1 309.1 299.4 283.3 275.3 269.9 264.1 261.8 261.5 261.6 263.5 269.3 271.5 272.2 275.4 277.1 279.2 278.7 276.7 273.1 268.9 263.9 263.1 276.9 287 296.5 302.7 308.1 314.4 322.3 329 334.6 338.7 342.1 346.3 350.1 353.3 357.4 361.7 367.2 373.5 381 388.5 396.4 402.7 407.5 411.7 415.3 417.6 417.8 417.4 416.5 415.5 412.4 409.4 407.5 405.3 405.6 404.9 403.4 397.2 389.3 385.4 390.2 399.6 406.4 413.7 417 416.5 416.4 420.5 415.7 411.5 402.8 405.9 416.5 436.8 446.9 456.4 464 470 476.6 482.7 487.1 491 494.6 496.9 497.4 497.9 499.2 501.5 503.7 502.8 499.9 495.9 491.6 485.5 486.1 495.7 504.2 516.6 524.2 531 540.4 545.6 549.6 554.2 557.4 564.2 566.8 583.8 593.1 601.5 611.4 619 627 633.4 641.8 649.4 656.6 663.3 670.3 676.7 680.8 681.7 680.1 675.6 670.1 661.7 646.9 630.7 610.2 594.2 578.1 581.3 593.1 605.4 619.8 640 660.1 680.8 702.3 721.6 735.2 744 749.8 751.5 750.9 745.9 740.9 736.3 730.4 723.2 718.9 716 712.8 707.8 701.6 695.2 686.1 673.7 657.8 639.4 616.8 595.6 573.4 553 535.1 523 514.2 505.3 494.3 482.3 474.3 476.6 478.8 476.5 461.9 445.4 436.7
212.9 216 226.2 233.8 240 245.7 249.4 255.4 265.4 271.5 277.6 285.4 292.3 300 307.1 314.9 323 327.5 329.4 327.1 321.3 310.5 297.6 281.8 274 269.1 261.7 262 261.9 261.4 262.5 268.3 271.2 272.6 275.8 279.2 282.4 282.6 283.2 280.6 274.6 270.1 266.3 262.6 276.3 286 295.7 301.6 308.7 317.6 325.1 329.9 334.3 336.2 340.4 344.5 348.1 350.6 357.2 363.5 371 378.4 386.2 393 398.4 403.1 406.7 409.6 411.2 412.2 411.4 410.1 405.8 400.7 398.2 397.7 397.9 398.5 398.7 397 394.9 389 388.3 394.7 401.3 410.5 418.4 423.5 423.1 418.9 420.3 418.8 412.2 403.4 406.8 419.8 437.4 446.6 453.3 459.7 465.3 471.1 477.1 481.1 485.2 488.7 491.9 495.3 498.1 501.8 506.1 508.8 509.8 507.9 505.1 502.3 499 492.9 501.8 511.9 525 533.8 543.1 552.5 558.6 564.8 569.3 573.3 577 586.7 595.7 600.9 610.4 618.8 627.1 635.3 643.2 650.8 656.6 663.5 671.2 679.3 685.9 688.8 689.4 688.2 686.3 678.4 669.8 652.9 632.5 614.9 596.9 590.1 598 603.9 616.5 632 650.3 668.8 689.2 710.1 727.8 740.6 748.4 753.2 753.7 750 745.5 740 732.6 723.4 719 717 714.6 711.6 708.7 703.1 696.7 686.2 673.2 654.4 631.9 613.4 592.6 569.3 549 531.6 521.9 513.2 503 492.7 481.5 470.2 459.8 464.8 457.9 437 434.1 430.2
215.5 213.2 222.7 230.6 236.9 244.7 250.3 256.6 265.7 275 279.6 286.5 295.1 303.4 311.4 320.3 328.3 333.6 334.5 330.7 321.9 309 293.8 280.3 272 266.1 261.8 262.1 261.9 261.4 263.5 267 269.8 272.8 278.4 281.2 282.8 285.2 287.4 287.1 280.7 274.5 271 266.5 265 271.9 284.3 293.4 301.4 310.4 318.3 324 328.4 332 335.5 338.2 341 345.7 351.3 359.7 366.9 375.2 382 387.8 392.7 397 401.1 403.6 404.9 404.7 403.7 399.9 392.8 388.8 387.1 385.6 386.5 388.8 388.8 389.8 388.5 386.7 389 395.7 404.1 412.8 420 422.3 417.6 414 414.1 411.6 404.5 400.5 406.1 421.9 433.1 442.1 448.6 453.9 459.2 464.3 469.2 473.7 477.5 481.7 486 491.1 497 503.2 508.6 513.5 515.5 516.5 515.6 515.1 512.2 508.7 503.8 520 532.9 543.5 554.7 563.6 571 577.2 580.7 584 590.2 596.2 601.7 608.6 616.1 624.5 633.1 641.1 648 654.8 660.3 668.1 676.4 684.5 690.1 693.7 695.8 696.2 694.7 689.3 678.3 656.2 636.8 617.3 600.4 606.2 613.1 618.9 630.2 645.6 662.2 679 698.5 720.2 736.5 747.3 752.8 756.2 755.8 751 746.2 737 728.2 719.6 715.5 713.9 712.6 710.6 706.8 701.4 693.9 682.7 668.3 647.9 630.4 611.3 588.4 566.4 547 531.3 520.4 510.1 499.5 489.7 480.4 472.3 468.3 462.4 450.9 446.4 455.5 443.1
215.7 215.4 214.8 228.9 235.5 241.9 248.5 255.9 265.5 271.6 279.3 288.7 297.2 306 315 323.8 331 335.2 333.9 328.8 313.3 302.9 289.3 277.2 269.7 263.1 261.1 261.4 260.3 262 264.1 268.3 271.6 276.3 281 284.4 287.5 291.1 291.7 290.8 287.6 282.9 276.8 272.4 268.7 267.5 270.7 280.5 292.1 302.3 310.4 316.5 321.5 325.6 328.9 331.2 335.6 340.5 346.9 356.2 361.5 369.5 376.5 381.4 385.8 389.5 394.1 396.1 396.7 396.7 394.6 389.6 383.4 379.4 374.9 373.1 373.5 376.2 377.5 379 379.1 382.8 387.5 395 403.6 410 414.1 413.8 407.7 405.8 403.8 399.8 395.5 394.9 404.7 416.5 423.7 432.7 438.7 444.7 451.4 455.9 461.2 465.1 468.7 473.1 478.8 486 492.6 500.7 508.8 515.6 520 523.4 525.1 526.2 525.3 524.7 522 524.6 539.3 551.9 563 572 580.6 586.4 589.4 592.1 596.8 603.2 607.5 614.1 620.8 627.6 635.6 642.4 649.2 656.5 663.3 671.1 680 686.8 692.8 698.1 701.3 702.4 701.9 697.3 681.3 659.7 641.2 625.9 614.8 623.2 627.9 634.2 643.3 659.6 675 690 710.4 730.7 745.7 753.8 758.2 760.2 757.7 753.1 746.5 735.5 725.3 717.1 712.9 709.6 707.4 704.2 700.7 696 687.9 677.2 664.5 647.2 629.7 610.2 587.4 565.6 545.7 529.8 517.3 507.7 499 491.1 484.3 478.6 469.5 459.9 438.7 464.6 460.5 449.3
216.6 216.2 215 217.9 234 238.4 244.6 252.2 261.1 269.2 278.5 288.9 298.9 307.4 317.2 327 330.4 329.7 326.7 321.3 310.6 297.2 285.9 275 267.3 260.3 260.1 260.5 260.2 261.8 265.6 271.1 273.3 278.6 283 287.7 292.6 295.6 297 297.2 292.4 288 283.7 278.3 275.3 273.8 270.6 270.8 282.4 292 301.3 308.7 313.5 316.5 320.5 325.1 330.4 336.9 342.8 350.6 356.8 363.2 369 373.2 379 381.8 386.1 389.3 390.1 389.6 386.3 379.5 373.7 369 361.9 356.6 359.1 361.2 364.6 368.8 371.4 375.9 382 389.8 392.6 397.7 400.2 400 395.3 391.5 390 387.6 382.4 389 398 404.8 412.2 419.5 427.2 434 440.1 445.9 450.7 455.1 459.2 462.4 468.8 476.4 485.1 495.1 505.8 515.1 522.7 528.5 532.4 534.7 536.7 537.9 538.9 541.5 547.5 558 569.3 579.6 587.4 592.4 595.7 599 603.3 607 610.8 615.8 622 628.1 634.6 640.5 648.7 654.9 662.6 672.3 680.5 688.1 695 700.7 705.2 707.9 707.7 704.6 694.8 674.7 657.5 640.2 631.2 638.4 644.4 652.2 662.1 674.3 688.1 705 728.1 742.8 754.4 759.9 764.3 764.6 761.5 755.2 747.5 736.3 724.6 714.3 708.2 700.8 699.8 697.4 694.7 689.7 682.7 674.8 662.1 647.3 631.5 609.8 586.3 567.5 547 529.8 515.7 506.7 496.8 490.1 484.5 478.5 469.7 449.1 462.4 468.1 463.3 462.6
216.8 216.8 215.7 216.3 227.6 234.6 241.4 249.6 258 267.2 277.5 287.9 298.1 307.8 317 324.4 322.7 320.5 316.5 312.2 303.5 293.4 282.4 272.2 265 258.3 259.3 259.2 259.6 261.3 266.4 274.9 275.7 281.9 287.3 292.3 298.4 301.3 302.5 301.8 298.6 295.1 289.5 283.6 279.6 278.5 277.1 270.4 272.7 279.6 287.8 298.3 304.4 307 311.7 319.3 325.4 332.3 339.3 344.6 350 354.5 359.3 364.6 369.5 375 379.2 381.2 382.6 381.1 378.1 371.5 365.5 353.3 347.2 339.7 343.3 343.6 351.7 358.3 362.6 368.2 373.6 378.6 382.3 384.3 383.7 384.9 381.5 376.6 370.3 369.8 369.6 376.8 386.7 393.5 400.4 407.3 414.8 422.3 428.8 434.9 440.2 443.5 447.6 452.9 459.9 467.2 477.8 488.7 500.3 512.9 524 532.1 538.1 543 546.4 549.6 550.3 552.6 556.6 563.6 574.1 584.5 592.3 597.2 601.1 604.2 605.9 608.1 610.7 615 618.9 624.6 630.1 636.3 643.7 652.6 660.5 669.5 680.2 688.2 695.8 703.6 708.7 712.3 714.4 712.7 707.2 691.9 672.6 653.5 652.4 656.8 665 673.8 684.3 694.4 707 726.5 743.6 754.1 762.5 767.3 769.7 768.6 764 757.3 747.6 733.2 723 712.3 703.6 690.1 686.8 688.8 687.5 684.4 680.3 673.5 662.6 647.6 628.5 608.7 587.5 567.8 546.7 526 513.3 506.3 496 489.4 483.2 475.5 461.6 449 469.9 475.9 471.3 472.5
217.8 217.6 216.5 216.7 218.1 232.2 240 247.6 255.9 266.6 276.7 287.3 296.2 307.4 315.7 315.5 313 309.4 304 297.4 292.1 285.5 276.2 268.5 262.7 257.2 259.5 257.8 260 262.4 267.2 274.4 278.2 283.4 290.1 296.9 302.4 306.8 307.1 307 304.9 301.6 295 289.7 284.5 282.3 281.1 278.9 274.1 273.6 276.5 287.6 293.7 300 305.5 313 319.9 325.5 332.1 337 342.4 345.9 348.9 354.8 362.2 368.4 373.4 375.9 375.6 372.4 367.2 359.5 349.4 336.6 329.2 320.9 320.3 322.8 336 341.9 344 354 356.5 360.9 366.2 368.3 371.2 371.6 367.3 360 356.6 365.7 376.1 383.5 389.4 395.6 401.3 405.2 410.7 410.2 418.5 424.7 430 437.7 445 452.4 461.8 470.5 477 483.9 494.8 508.3 523 534.2 543.6 550.6 554.9 557.9 559.8 561.6 564.9 570.6 581.1 590.2 596.8 601.1 604.5 605.3 605.5 605.5 607.8 610.7 614.5 619.8 624.3 630.4 638.2 648.2 657.1 666 680.3 689.6 698.6 706.8 712.4 717.6 721.2 720 715.1 704.6 685.4 673.6 675.5 681 689.6 698.9 709.7 717.8 731 744.6 756.1 763.9 769.5 773.7 773.5 770.5 764.5 756.4 746.3 734.9 720.2 708.6 697.7 682.9 678.7 681.8 684.2 683.4 679.3 671.3 659.5 642 623.1 604.4 586.5 565.3 544.5 525.3 512.4 503.9 496 488.3 478.6 471.4 454.4 463.4 477 483.8 483.6 481.5
218 217.5 217.2 216.8 217.6 225 239 245.3 253.1 263.5 274.8 283.4 295.8 305 308.9 305.9 301.1 297.5 292.1 286.7 281 276.6 271.5 263.7 260.4 256.6 255.9 258.2 260.9 265 270.5 275.5 279.1 289.3 295.4 302.3 308 310.1 312.1 313 312.5 309.3 302.9 297.1 291.9 287.6 285.4 284.2 283.6 282.1 278.2 277.1 283.6 291.9 297.9 305 311.9 314.9 323.2 328.8 330.5 332.9 335.2 343 354.1 362.2 365.8 367.5 366.5 362.3 355 348.8 334.5 320.4 315.6 323.2 325.8 323.1 324.9 325.3 327.3 329.1 330.5 338.3 343.7 348.1 350.4 352.7 351.2 354.8 364.8 371.4 378.7 386.2 391.8 400.6 407.8 413.7 419.5 424.7 430.2 431.6 434.4 440.5 447.5 455.9 465.1 474.8 483.9 491.5 501.9 509.7 520.4 535 547.3 554.9 559.7 563.6 567.8 573.2 580.8 588 593.2 597.6 601.4 604.8 606 604 602.6 601.3 601.5 603.1 606.4 613.2 618.2 624.7 633.8 645.3 655.6 669.6 682.2 690.9 703.3 710.3 718.6 724.6 726.4 725.2 720.7 713.2 704.2 696.4 699.4 703.5 713.3 723.1 736.1 742.5 750.2 759.1 765.3 770.3 775.2 777 775.3 770 761.4 753 745.6 734.8 718.4 702.4 693 677.9 671.1 677.7 680.4 679.2 676.1 663.5 650.3 634.7 615.6 598.9 582.8 562.8 542.6 525.2 509.3 500.1 492.3 484.5 475.7 465.1 447.2 468 480.9 489.2 490.9 490.4
219.1 218.4 218 217.7 217.2 218 231.3 242.4 251.9 261.6 271.4 280.9 291.3 300.2 300.6 297.4 293 288.2 284.7 280.9 276.5 272.3 266 258.6 254.8 255.4 257.8 260 263.7 267.7 274.7 279.6 284.6 293.2 299.5 305.4 310.4 313.4 315.8 318.2 319.1 316.9 310.6 304.3 299.2 294.9 292.5 290.7 289.7 288.6 286 283.3 278.8 282.1 285.2 294.5 297.6 300.8 312.1 317 319.7 319.2 321.1 334.5 346 353.4 356.7 355.7 352.6 348 344.5 337.5 323.6 312.7 324.2 329.6 333 334.4 334.3 333.1 334.7 334.5 338.1 333.6 341.5 339.4 338.7 341 344.9 349.7 361.4 370.6 379.5 387.4 395.1 402.3 409.6 416.5 422.7 429.3 435.3 437.9 441.6 445.2 451.9 459.7 469.4 480.9 490.2 500.5 512.6 521.6 528.4 535.5 548.2 558.1 564.4 570.8 577.3 586.7 595.2 600.8 603.6 605.1 607.8 608 606.2 602 598.1 592.4 590.6 591.5 598.5 608.3 616.8 623.7 632 646.2 657.2 669.5 681.7 694.7 706.9 714.3 723.5 727.7 729.3 727.8 724.2 719.9 717.3 716.8 718.8 724.7 733.9 743.9 750.7 757.1 763.2 767.9 771.3 776.2 778.4 778.3 773.9 767.7 759.2 751.2 744.8 735.8 720 704.1 690 677.6 658.8 669.6 673.9 673 667.2 655 638.3 621.2 607.2 592.5 577 558.7 539 521.4 507.8 495.6 487.7 481.5 471.3 454.5 458.7 473.4 485.6 493.4 495.3 497.3
224.4 218.7 218.4 218.2 218.4 218 218.9 234.7 248.1 258.7 267.4 276.5 287 292.9 292.3 289.1 286.5 283.5 280.3 276.4 271.9 266.3 259.3 254.7 254.4 255.5 257.7 262 267.6 271.4 276.9 281.6 289.7 298 304 308.7 313.5 317.9 322.3 325.5 325.8 322.5 316.5 311.6 308 303.4 301 299 298.3 297.4 293.4 289.7 288.1 287.8 285.9 284.3 285.5 285.5 290.6 298.6 304.7 304 319 325.2 331.1 338.5 340.2 338.6 333.3 329.1 329.4 322.3 310.7 318.3 328.9 333.4 336.5 338.7 340.2 341.7 343.3 345.7 348.3 348.6 350.8 352.9 354.1 352 343.3 347 355.1 368 377.5 387 394.8 402.1 410.5 419.2 426.5 433.7 440.5 444.1 447.2 451.1 457.7 466.2 476.8 489.4 499.3 510.9 524.6 533.6 541.2 547.9 555.7 564.9 572.2 582.2 592.5 601.7 608.1 611.5 612.4 612.6 611.6 609.2 604.2 597.4 590.5 582.6 580.3 588.1 600.5 609.5 616.8 624.2 632.7 647.4 657.8 672.4 687.3 702.9 710 719.7 726.2 729.2 730 728.6 726.6 723.9 722.8 724.8 729.8 736.1 745.9 753.9 759.9 766.6 772.3 774.4 776.7 780 779.7 776 771.2 765 758.2 750.9 744.9 735.4 724.1 709.7 695.3 680.9 658.8 660.9 665 663.9 654.9 638.4 626.3 612.1 599 585.8 568.8 551.7 533.4 517.5 503.6 491.4 481 471.9 462.4 459.8 465.6 475.9 487.8 496.8 500.7 504.7
227.2 224.1 218.7 218.5 219.2 218.6 218 229.5 243.3 253.4 262.9 272.5 279.9 281.6 280.9 280.3 278 276.5 274.6 270.3 265.8 260.4 255.3 253.9 254.8 255.9 259.9 265.1 270.4 275.4 281.3 286.7 294.6 301.7 307.8 313.7 320.1 326.5 332.3 333.5 331.6 327.9 322.9 319.3 315.3 312.1 309.6 308.6 307.9 305.9 302 296.2 294 293.5 292.3 293.9 293.9 291.5 287.9 289.3 291.4 291.6 302.7 300.6 304.8 314.6 313.2 308.1 308.5 314.6 310.8 306.7 316 327 332.9 336.8 339.5 342 344.5 346.7 348.7 351.1 353.9 357.1 360.4 362 361.2 359.6 356.8 348.4 351.4 364.4 373.2 384.4 393.2 401.3 410.3 422.3 430.8 438.6 445.4 448.7 453.2 458.4 466.6 473.8 486.4 498.7 509.3 524.7 536.7 543.6 552.6 560.7 569.7 577.6 588 599.2 607 614.9 618.8 620.3 620.7 618.6 614.7 608 599.6 589.3 578.8 573.3 577.3 588.5 598.9 608.4 616.2 624.6 634.2 650.1 665.6 679.1 691.4 705.5 713.8 722.8 727.2 729 728.8 728.2 725.7 726.5 727 730.3 736 744.1 753.3 760.6 767.5 775.3 777.9 778.6 779.6 779.5 777.9 773.8 768.1 761.8 754.9 749 743.5 733.8 724.2 710.5 697.5 680.6 657.6 651 655.2 651.3 639.2 627.7 614 603 591.9 576.9 558.8 540.9 526.3 512.6 499.1 487.3 478.3 467.5 457.5 460.1 472.7 484.8 494.5 502.5 508.8 513
232.6 228.9 219.5 219.2 219.7 219.6 219.2 218.5 237.6 248.6 256.8 264.9 268.6 270.1 270.1 269.9 270 268.9 266.5 263.2 259.3 254.9 253 253.7 255.3 259.1 263.9 269.3 274.8 281 286.6 292.8 300 306.6 313.2 320.2 327.4 335 340.1 340.1 336.9 333.2 329.5 327.3 325.3 322 319.2 318 316.2 313.3 308.9 305.8 302.7 299.4 298.4 298.6 298.2 298.1 298 298.7 301.5 296.7 294.4 294.7 296.7 298.2 302.2 302.9 303.5 304.6 307.5 318.9 326.2 332.9 337.2 340.6 343.4 345.9 348.2 350.5 353.2 356.9 360.3 364.2 366.8 367.6 367 366.5 364.1 358.2 350.2 360.6 370.3 382 391 399.7 409.9 425.4 433.4 440.6 447 451.9 458.6 466.7 476.1 486.9 496.1 507.3 521.5 536 545.3 556.3 568.1 579.8 588.3 597.3 603.7 613 620.5 625.9 628.9 629 626.9 622.6 615.5 603.8 591.7 578.6 570.6 564.4 574.6 585.4 596.4 607.3 615.8 624.5 635.7 653.8 667.1 683.5 697 709.1 717.4 723.3 726.5 727.1 726.4 725.4 725.3 725.5 728.7 732.9 739.5 747.6 756.6 765.6 773.4 778.8 779.7 779.6 777.6 777 774.1 769.7 763.1 756.9 749.8 745.5 739.8 731.7 722.1 708.3 694.8 678.9 656.8 642.8 640.7 634.5 624.6 616 605 596.6 584 565.2 545.2 531.8 520.1 506.7 494.3 483.9 474.9 463.3 460.8 469.6 484.5 496.5 505.1 510.7 516.2 521.7
236.4 232.2 228 220.5 219.9 219.4 218.3 219.3 230.6 243.7 250 254 257.1 256.7 259.5 261 261.7 261.4 260.2 258.1 255.7 252.9 253.8 254.4 256.5 260.5 265.9 271 278 283.7 291 296.8 302.4 310.5 317.7 325.7 334.5 343.8 348.5 347.3 343.8 339.9 336.8 335.6 334 330.6 329.2 327.7 325.3 321.8 317.3 314.2 310.1 306.8 305.1 304 303.7 303.8 303 303.6 305.6 306 307.9 308.1 309.6 311.3 311.4 308.5 309.5 314.8 322.5 326.8 332.2 336.9 341.3 344.6 347.4 349.9 351.8 354.4 357.9 362.4 365.8 369.5 371.3 372.1 372.3 371.5 369.3 364.9 354 358.4 368.7 379.7 389.2 399 411.7 423.8 432.8 441.1 448.7 455.2 465.4 475.5 487.4 499 508.4 519 531.8 543.7 554.5 569.2 582.6 593.8 603.1 611.1 617.3 624.1 630.2 638.3 645.5 639.7 633.9 625.1 611.3 596.7 583 573.1 563.7 562 570.2 580.7 593.8 605 615.2 625.4 638.6 656.7 671.1 689.2 701.3 712.2 719 722.9 724.7 724.5 723.1 723 723.4 724.8 727.6 732.7 740.6 749.4 758.3 770.1 776.1 778.8 778.9 777.2 774 771.3 767.3 761.8 757.3 748.5 743.6 741.5 736 727.3 714.3 702.7 690.1 675.8 659.4 629.2 629.2 622.2 615.1 606.2 597.1 586.9 571.9 553 535.3 525.9 515.1 502.2 491.3 482.6 472.2 463.3 467.7 480.9 494.8 508 515.1 518.8 522.9 528.2
241.2 236.2 231.6 228.1 221 218.9 219.9 220 223.7 232.3 239.1 240.1 240.9 242.6 247.9 251.6 254 256.1 256.2 254.1 252.9 253.2 255.7 256.9 259.3 263.9 269.2 274.8 281.5 287.3 295.6 301.9 308 315.3 322.2 330.7 340.7 349.9 355.6 354.9 351.4 348.1 344.4 342.6 341 340.5 338.6 336 331.9 328.9 325.5 321.7 317.8 314 312.4 311.2 309 308.8 308.5 308.9 311.4 313.1 315.6 317.2 316.8 316.1 315.5 312.8 313 322.4 327.7 332.4 336.6 340.9 345.3 347.4 351.3 353.6 355.7 358.6 363.8 368.4 371.9 374.4 375.8 376.1 375.7 374.8 371.7 367.7 363.4 355.2 366.3 375.6 387.1 398 410.3 420.2 429.2 440 450 459.9 471.5 482.8 495.6 506.1 516.3 529.3 541.5 550 563.9 581.1 592.8 604.2 614 620.4 624.6 631 639.8 652.4 653.4 643.3 637.4 623.2 606.6 591.1 580.9 569.8 559.7 557.2 567.1 578.9 591.4 602.9 614.2 627.5 643.8 658.7 677.8 692.8 704.5 713.4 718.7 721.6 723.1 721.9 720.9 719.6 720.4 721.7 724.5 730.3 739.5 749.3 757.9 768.5 774.4 776.1 775.7 772.9 768.4 764.7 759.7 754.5 745.5 741.2 740 736.8 728.8 716.7 706 695.9 681.2 669.8 657 640.4 616.4 597.8 598.8 592.8 587.1 575.6 559.1 543.9 531.8 521.2 510.5 499.1 490.8 481.5 470.3 465.7 480.2 495.1 508.1 517 522.4 525.7 530.7 535.7
245.2 240.6 234.4 227.5 221.8 219.3 219.6 220.5 220.7 221.3 223.9 232 234.5 237 239 244 249.2 251.4 253 251.2 252.4 255.3 258.1 260.3 264.1 268.5 274.1 279.7 286.6 294.5 300.2 305.8 311.5 318.6 327 335.4 345.4 354.9 359.5 360.6 357.9 354.9 352.8 349.6 349.7 349 346.3 340.5 336.4 334.9 332.8 328.7 324.2 320.7 319.4 318.4 315.8 315.2 314 314.3 316.4 318.7 320.9 322.2 321.6 320.9 321 318.3 317.4 325.5 332.5 336.8 340.9 345.4 348.2 352.3 356.4 358 360.3 363.9 371.5 375.2 379.2 379.8 380 379.8 379.3 377.4 374.4 370.9 367.5 359.7 361.6 372.4 383 395.4 405.7 414.6 424 437.7 451.3 463.8 476.5 488.2 500.5 511.4 522.4 537.4 548.6 558 575 588 602.3 613.5 620.8 625.6 629.9 636.7 649.5 654.9 650.1 643.3 634.9 617.9 601.5 587.8 578.1 569 557.4 554.6 566 578.4 590.8 603.1 616.9 634 649.5 665.7 682.4 698.3 707.5 713.3 717.7 719.7 719.3 719.5 718.9 717.5 717.2 718.1 719.9 724.8 736 746.4 757.7 765.2 769.4 770.3 768.8 765.3 762.1 758 750.2 740.9 737.3 735 733.1 727 718.2 706.8 693.9 684.7 671.1 661.7 650.1 638.9 627.3 607.9 579.1 573.7 568 557.8 546 536 525.8 512.9 507.2 499.2 488.2 480.6 472.7 480.6 495.2 506.7 519.4 524.3 529.8 534.6 539.1 545.5
247.7 243.1 238.1 233.7 221.9 219.7 220 220.3 221.2 221.3 222.4 227.9 233.3 236.1 243.1 243 242.1 244.6 246.8 251.9 254.1 256.3 260.2 263.4 268.1 273.2 279 286.7 293.6 299.2 304 309.4 315.3 321 330.2 337.9 347.6 356.1 361.9 364.5 363.4 362.1 359.1 355.9 355.1 355 352.4 345.2 342.5 339.4 336.8 332.7 328.4 325.1 323.6 322.7 321.6 320.7 319.9 319.9 321.8 323.6 325.5 325.5 325.6 327.2 326.5 322.3 318 327.3 334.3 339.8 344.8 348.8 352.5 357.2 360.7 363.2 367.8 373.5 378 382 385.7 385.9 385.8 384.9 383.5 381.3 378.6 375.1 372.7 367.4 361.6 370 378.3 389.3 401.9 412 424.7 439.5 453.5 466.3 479.6 491.4 504.2 514.5 527.9 543.3 553.6 565.1 580 594 607.7 616.8 621.6 626.2 630.6 639.2 648.3 652.8 646.9 639.4 626.7 610.8 595.2 583.5 575.6 567.3 554.4 550.1 567.3 578.7 591.4 606.6 622.7 639.9 659.2 676.3 691.9 703 709.4 714.3 717.6 718.8 720 719.5 717.5 715.8 713.2 711.1 712.6 717.4 730.8 741.9 753.4 760.5 762.6 764.1 762.3 758.8 755.1 746.6 735.4 730.9 729.4 727.8 722.7 714.4 702.7 688.8 679.9 670.7 660.8 651.1 642.9 634.4 624.1 613.4 600.8 586.9 573.5 560.6 547.1 537.2 526 515 507.3 500.7 493.7 484.8 474.5 488.4 507.7 520.9 525.4 532.2 538.6 542.9 551.7 561.1
252.2 247.1 242.3 237.8 227.1 221 221.3 221 219.5 221.6 227.8 232.6 238.7 244.8 246.8 247.3 249.5 251.4 253.1 256.7 259.6 262.1 266.1 270.1 274 280.4 286.5 293.5 298.9 304.6 308.8 313.4 317.1 324.6 332 338.3 347.2 355.3 362.1 365.7 366.1 366.7 363.7 361.7 361.1 361.4 357.1 352.3 347.9 344.6 340 336.2 331.9 328.6 326.6 326.6 325.3 324.8 324.8 325 326.2 327.4 328.5 329.6 330.3 331.5 330.6 327 316.7 327.6 336.8 342.8 347.4 352 356.7 362 366.1 370.2 374.5 377.7 384.8 390 392.3 392.8 391.7 390.4 388.1 385.7 383.1 379.9 377.3 372.5 365.3 367.4 375.1 383.6 397.9 410 423.8 439.7 452.6 465.9 480.2 492.3 504.5 517.6 533.8 546.9 556.9 567.5 582.1 595.7 608 614.5 619 623.1 629.1 636.7 646.2 649.4 640.3 630.3 617.1 602.5 590 579.1 572.1 561.5 546.9 548 565.6 578.5 593.6 612.2 631.5 649.4 668.1 685.9 698.4 706.5 712.1 715.7 717.7 719.2 720.6 719.8 717.8 713.7 706.8 700.9 698.2 710.4 722.5 734.7 747.4 753.4 755.6 756.4 754.5 752.8 747.8 736.3 729.6 724 721.2 717.5 708.6 698.4 684.9 673.4 666 657.7 650.6 644.8 638.1 630.2 620.9 610.9 596.8 584.5 571 564.7 555.2 542 526 515.5 507.4 505.5 500.3 485.5 475.6 490.8 513.3 525.6 532.3 540.3 548.3 557.2 566.6 577.4
255.8 252.1 246.9 241.3 236.4 221.2 221.5 221.3 220.4 222.3 224.9 235 241.2 247 248.9 250.5 252.8 255.6 258.3 261.6 264.6 267.4 271.6 276.1 282.1 288.4 294.9 299.1 304.9 309.2 312.7 315.9 319.3 325.1 332.1 337.6 345.5 352.2 356.4 359.6 362.3 362.8 363 362.3 364.4 364.7 364.2 358.2 352.6 348.7 341.8 339.2 336.7 333.6 330.8 329.9 328.8 328.7 328.8 329 330 330.9 331.7 333 334.6 335.3 334.6 331.3 323.7 327 336.7 344.2 350 355.1 361.6 366.7 370.9 376.8 379.8 384.3 393.4 398.5 401 401.5 399.1 396.1 393.1 390.4 387.9 385.1 382 378.7 372.5 366.6 375.1 379.1 390 402.5 417.8 434.3 449 463.6 478.2 490.3 502.9 517.9 534.5 546.3 557.5 569.1 582.1 592.7 602.3 606.8 612.9 619.4 624.8 631.3 640.2 643.6 631.5 618.5 605.3 593 583.3 572.2 564.5 551.4 535.1 549.8 565.9 578.7 598.3 619.4 638.5 658.4 676.8 691.9 703 709.1 713.4 716.8 719.5 720.5 720.7 719.3 716.3 709.8 703.9 690 683.9 699.9 714.6 726 738.3 744.9 747.9 748.2 746.6 744.5 738 729.1 719.3 716.5 712.5 704 694 680.5 670.5 663.9 655.7 650.7 645 639.2 633.2 624.9 615.5 603.4 590.1 577.5 570 564.2 554.9 540.4 527.2 517.2 512.7 510.5 504.4 489.2 486.1 507.8 520.8 528.8 539.8 549.6 557.5 568.6 579.1 591
260.5 256.6 250.6 245.4 239.4 221.6 221.1 221.9 221.2 222.7 223.1 234 243.2 246.1 248.7 253.9 257.7 260.7 262.8 266.1 269.6 272.2 275.9 282.5 288.9 294 299.9 304 309.1 312.9 315.3 317.9 321.8 325.8 330.3 336.5 342.5 346.3 347.8 349.3 350.8 355.2 358.6 359.7 360.9 363.3 363.1 360.2 355.2 350.1 344.1 343.3 341.7 339.3 336.6 334.7 333.4 333.1 333 333.5 334.6 335.6 336.2 337 338.2 339.1 338.1 334.4 328 325.7 335.8 344 352.5 358.5 365.8 371.8 377 383.3 387 396.6 403.9 408.8 410 409 407.1 403.7 399.2 396 393.6 390.2 386.8 385.1 379.4 370.7 373.9 379.9 383.7 396.2 411.3 428.2 443.8 459.8 474.4 485.4 500.2 517.8 532.9 543.9 556.5 569.7 580.3 588.2 592.1 596.9 602.3 610.1 617.9 623.8 631.8 628.6 617 604.8 593.4 582.3 571 561 550.2 536.3 534.7 553 567.3 582.3 605.2 626.3 646.6 668.1 683.3 695.2 705.7 711 715.2 718.3 720.7 721.2 720.6 717.9 713 706.9 697.7 678.9 674.3 693.3 709.5 718.8 728.4 735.9 738.5 736.3 737.4 735.5 726.9 716.9 713 709.2 702.3 690.4 678.1 667.1 660 654.2 648.9 643.8 639.1 632.9 626.4 618.2 606.6 593.4 580.5 573.1 568.4 561.7 550.7 536.5 522.5 516.4 514 512.9 509.9 481.5 500.7 516.6 527.9 535.3 546.5 554.7 566.1 576 590.7 606.7
266.6 262.9 257.1 250.2 243.2 231.6 222.6 222.2 220.6 223.2 223.3 232.1 241.2 246.1 251.7 255.9 259.9 264.3 266.5 270 272.7 277.3 282 288.8 295.4 299.8 304.2 308.6 313 315.8 317 320.1 322.5 325.1 327.4 331.7 335.4 338 339 341.1 343.4 346.3 350.7 353.3 354.4 357.4 358.3 356.8 355.2 349.1 349.7 348.8 345.3 344.8 343.1 340.9 338.9 338 337.4 338.1 339.1 340 340.8 342.5 343.5 342.5 341.5 337.9 332.5 324.8 334.8 344.9 354.1 361.5 369.2 375.8 385 390.2 395.9 405.9 413.5 418.1 418.8 417.6 415.2 411.1 406.6 402.4 398.9 395.4 392.4 389.5 385.9 379.1 373 379.2 384.8 394.1 406.7 422.3 438.9 454.5 469.2 480.1 497.5 512.6 528.9 540 553.9 565.1 573.3 578.1 581 582.9 588.7 594 602 609.5 616.6 612 603.4 589.1 576.1 566 554.3 541.9 531.1 525.7 540.1 556.5 570.2 591.6 609.9 630.7 651.3 672.3 687.6 697.2 706.8 711.8 715.8 718.9 720.6 721.4 719.8 716.5 710.6 702.9 682 667.7 670.4 685.7 703.3 709.4 720.7 727.8 728.3 729.4 729 722.8 716.8 710.8 705.8 699.5 688.7 674.7 665.5 657.9 652.3 647.2 642.3 636.9 631.2 623.1 615.2 605.8 595.1 582.5 573.7 570.7 565.2 556.2 542.7 530.2 519.1 512.3 510.8 511.8 507.3 484.8 507.2 523.7 532.3 541.6 553.5 562.4 573.5 586.2 603.8 621.1
275.6 269.6 263.8 254 247.2 240.8 226.2 222.8 221.2 223.3 223.6 225.6 235.6 244.8 250.8 255.7 260.6 265.4 269.3 273.6 277.3 282.8 289.9 296.7 302 305.9 309.5 313.4 316.7 316.7 318.2 320.5 321 322.4 322.2 323.9 325.2 327.4 330.3 332.8 335.3 337.7 340.3 345.2 346.2 348.2 350.8 351.3 349.2 350 352.2 350 348 349.4 348.1 346.5 344.6 343 342.2 342.3 343 344.3 344.7 345.9 346.3 345.8 344.1 341.1 336.7 330.5 334.7 345.5 356 365.2 371.6 381.1 389.9 396.4 405.4 414.9 422.3 426.9 427 425.7 422.5 418.4 413.9 409.6 405.6 402.5 399 394.3 391.5 387.7 381.9 378.2 386.1 391.9 404.6 418.7 435.7 450.4 464.3 476.1 492.6 507.5 520 534.3 546.5 554.7 560.7 563.8 563.8 566.8 572.6 578.7 589.1 593.6 601.5 594.9 586.8 571.5 557.6 547.4 533.7 523.4 517.4 527.9 541.8 556 576.2 595.2 612.8 635.9 654 675.7 687.3 697.7 705.9 711.2 715.5 718.6 720.6 720.3 718.3 714.8 708.7 693.8 672.2 658.6 662.9 678.8 696.4 703 711.4 717.7 720.6 721.8 718.7 712.5 705.5 697.2 693.2 686.6 676.4 663.5 655.9 650.1 644.8 639.4 634.5 626.4 621.2 610.6 602.8 592.6 583.7 577.6 572.2 566.8 558.6 546.7 533.4 523.6 514 504 504.8 501.1 488.4 495.4 517.5 527.9 536.9 548.2 560.4 571.6 585.3 598.7 616.1 631.2
285.1 278.7 267.3 257.2 250.5 242.4 236.6 224.7 222.6 223.7 224.2 224.6 230.7 241.8 249.3 256.3 261.8 266.7 272.3 276.3 281.7 288.1 294.7 301.3 307.6 311.1 314.3 315.9 317 317.3 318.5 317.8 318.2 317.6 316.7 317.7 318 318.8 321.2 323.5 325.8 326.9 330.6 335.9 338.6 340.3 343.3 345.9 346.2 348.1 350.6 349.8 351.4 353 352.5 351.1 348.7 347.4 346.4 346.4 346.8 347.7 348.2 348.9 348.9 348.5 346.4 343.9 339.8 334.8 335.7 346.3 358.4 367.7 375.9 383.7 394 402.4 412.8 421.8 429.3 433.3 434.5 433.3 429.7 426 421.3 417.9 414.9 410.1 406.5 401.8 398.2 394.8 387.8 382.9 381.6 391.7 400.8 415.2 430.6 444.7 457.9 471 485.7 500.4 512.7 524.7 535.8 538.3 543.3 542.6 542.7 548.6 556.8 562.5 574.7 580.1 583.8 577.8 567.4 554.7 540.5 527.2 514.8 511.6 518.3 529.8 542.5 563.4 577.4 597.8 618.2 637.2 656.3 674.4 686.4 696.7 704.1 709.5 714.2 717.5 718.4 718.4 716.3 712.7 705.3 688.1 668.4 653.8 651.9 669.9 687.4 696.3 702.4 708.4 710.3 710.3 705.6 696.9 690 686.2 680.9 673.9 664.1 653.5 648.5 642.6 635.9 631.1 626.3 617.8 607.4 596.6 589 581.9 579.3 575 568.7 560.8 548.6 536.3 525.6 517.8 508 491.8 485.2 489.2 489.5 505.5 526.2 532.4 542.7 555.5 569 580.9 597.1 612.2 627.2 639
292.4 284.3 274 264.7 254.6 245.5 240.9 239 223.7 224.2 224.5 225.1 227.1 236.6 246 254.4 260.2 266.8 269.4 275.3 282.6 290.5 298.7 303.8 308.9 313.9 316.3 316.7 317.9 316.2 315.7 315.1 313.5 311.9 311.2 310.9 311.1 309.6 310.7 312.4 313.9 316.2 322.2 327.5 330.6 333.1 335.4 338.8 341 344.5 347.8 350.4 353.2 355.1 355.3 354.6 352 351.2 350.2 350 350.3 350.5 351 351.2 351.4 350.7 348.6 346.6 343.8 339.5 335.9 347.4 359.7 369.9 379 387.5 397 407.5 417.2 426.6 433.5 438.2 441.1 440.6 437.8 434.1 430.6 426.8 423.1 418.5 414 409 404.7 399.5 394.8 390.7 387.2 386.7 396.9 409.6 423.8 436.7 449.3 463.6 477.8 491.1 501.1 511.7 517.3 522.4 523.5 522.2 520.4 530 540.3 547.3 555.4 564.5 565.1 562 550.7 538.1 526.2 507.8 505.5 511.9 520.6 531.5 546.4 563.5 578.7 600 618.6 636.7 655.5 671.3 685 695.5 702.3 708.7 712.5 715.7 716.7 715.7 713.6 709.1 702 690.5 671.4 652.9 636.8 654.4 672.4 680.3 691.1 697.8 699.9 700.5 695.9 684.9 680.4 676.2 669.2 660.4 651.9 644 639.5 633.4 627.9 622.9 616.5 605.3 594 584.1 578.3 576.8 574.5 569.8 561.6 550.8 536.9 527.4 520.2 512.6 503 491.4 492.1 499.2 501.1 523.3 531.5 538.7 551.4 563.7 576.4 591 606.9 621.4 635.4 646.8
302.9 294 283.3 270.7 259.4 250.2 245.6 241.2 223.8 224.6 223.9 224.5 225.2 229.2 242.6 249.4 257.5 262.9 268.9 276.4 284.3 292.4 298.6 303.8 311.1 316.2 315.2 315.2 315.3 314.3 312.5 309.9 308.3 306 303.2 301.4 300.5 300.1 300.5 300.9 303.9 307.9 312.6 317 322.4 325 328.4 332.2 335.6 341 345 348.5 352.2 355.6 357.4 355.9 355.1 354.3 354.2 353.6 353.6 353.2 353.6 354 354.1 353.8 351.8 349.9 348.3 344.3 341.1 342.4 358.4 368.9 378.7 388.4 397.4 408.8 419.5 429.7 436 442.3 445.1 446.2 444.8 442 440.2 436.6 431.6 425.2 421.9 416.7 410.8 405.2 403.9 399.5 395.5 392.6 392.5 401.3 414.8 426.9 439.9 455.1 467.3 477.6 482 493.4 499.4 499.8 497.2 496.8 498.3 511 520.6 532.6 537.5 545.1 545.5 540.2 535.1 528.1 513.3 500.7 509.6 519.6 528.1 535.6 544.5 562.2 581.6 599.4 618.4 635.3 652.8 666.7 683.5 694.9 701.8 707.8 711.9 714 714.5 713.2 710.5 705.3 698.4 689.5 677.7 666.3 644.9 633.3 651.6 661.1 679.6 685.5 689.5 688.8 682.9 676.8 670.6 664.8 657 647.9 638.7 634.3 629.5 624.3 617.1 608.4 602.5 592.2 580.2 574.6 572.2 570.3 568.1 560.4 549.7 537.9 527.2 520.9 516 508 501.5 489.9 500 509.7 524.3 533.1 540 548.3 558.3 571.2 584.2 598.8 614.3 627.6 639.9 654.5
309.6 301.2 289.9 274.9 264.2 255.2 249.2 242.2 229.2 224.8 225 224.1 224.7 226.3 238.7 251.4 257.4 261.9 271.4 279.8 287.5 293.1 299.3 306.7 311.2 312.1 311.4 312.2 310.9 308.4 307.1 304.5 301.4 298.1 293.7 294.3 293.7 295 295.8 296.6 298.1 302 305.1 308.3 312.9 315.9 320.1 325.7 330.5 335.8 341 344.8 349.8 352.8 354.4 354.3 356.7 356.1 355.6 355 355.2 355.7 356.1 356.6 357.2 357.2 356.3 353.9 352.9 348.9 347.9 350.5 350.7 365.1 375.6 385.9 395 406.2 418.8 428.6 436.1 442 446 449.6 451 450.4 449.2 445.8 441 435.8 429 424 417.8 412.8 411 407.6 404.4 401.9 398.1 397.5 405.8 417.6 430.9 444 456.1 465.6 470.2 474.5 475.6 466.2 465.2 468.9 476.5 485.9 505 506.8 515.3 522.7 524.4 521.8 521.1 513.8 501 500.4 511.8 523.1 532.3 542.4 554.1 568.5 583.1 601.8 620.2 634.2 653.1 667.4 683.8 693.5 701.1 706.9 710.7 713 713 711.2 707.1 701 694.2 685.6 680.4 670.9 651.1 622.7 630 646.1 666.2 673.3 676.9 676.9 669.6 661.5 655.2 650.1 641.1 632.3 627.9 623.9 619.6 613.9 602.6 595.3 588.2 580.8 573.7 568 566.1 563.3 559 549.4 538.3 527.7 520.2 516.6 512 504.9 495.7 496.5 505.9 516.6 532 540.1 546.5 556.1 564.2 577.4 591.2 606.1 621 633.4 645.8 661
314.1 306 294.8 281.3 266 256.1 249.8 243.6 238.3 226 226 226.1 225 226.4 234.5 246.6 255 262.9 273.3 282.7 286.9 292.3 299.1 306.3 308 307.6 307.9 307.3 305.4 301.5 298.6 295.2 290.5 286.5 286.3 288.9 286.1 289.3 292.6 296 296.5 298.8 302.6 304.5 304.5 310 313.3 318.6 322.6 328.4 327.2 338.3 344.3 348 351.1 352.1 354.2 355 355 355.5 357 357.9 358.7 359.8 361.3 363.2 362.7 361.7 358.9 355.2 354.5 359.9 358.6 360.3 366 375.9 388.6 399.5 411.5 422.4 431.9 441 448 453.6 456.4 457.9 457.3 454.9 450.6 445.6 437.6 430.7 424.5 420.6 417.9 414.5 410.6 408.2 406.2 401.8 403.6 408.8 420 430.6 439.9 449.9 451.7 450.3 440.4 440.7 445.5 449.4 456 468.4 483.2 485.2 487.6 491 498.4 502.8 506.5 500.8 492.6 501.3 514.5 526.9 539 552 565.2 581.2 592.5 605.3 620.7 635.6 655.3 669.7 684 694.2 701.6 707.2 711.5 712.7 711.7 708.9 703.1 695.2 689.2 682.7 678.6 668.9 647.8 625.7 611.9 632.1 651.4 658.2 663.8 661.2 654.4 647.9 643.8 638.2 631 623.2 617.3 612.1 608.3 600.6 594 586.6 576.7 570.7 565.3 562.2 558.2 553.9 547.8 537.6 527.4 519.7 516.6 512.4 507.7 500.4 494.9 508.2 513.4 524.2 536.6 543.7 551.8 560.6 571.1 584.1 597.4 611.1 624.9 638.7 654.5 673.9
317 308.7 296.9 282.5 267.4 258 252.2 245.7 241.2 231.9 227.1 226.9 227.3 226.7 225.1 241 250.9 263 271.7 279.2 285.3 293.6 300.5 302.3 303.8 304 302.1 300.2 296.1 293 288.6 284.3 283.3 281.9 279.9 290 292.1 294.1 297.2 299.2 302.6 306.5 310.4 311.2 313.1 314.6 315.4 313.8 318.6 322.6 324.9 333.9 337.3 342.4 346.1 348.2 350.6 352.9 354.3 355.9 357.7 359.6 361.9 364.1 366.1 368.7 369.9 368.7 366.7 361.3 359.3 367.2 367.4 368.5 374.6 379.6 384 389.8 399.6 409.7 422 436.8 450.2 456.1 460.6 463.1 463.2 461.5 460 455.7 446.1 437.8 432.3 427.9 424.6 421.5 418.5 416.6 414.4 410.9 409.3 407.3 411.3 417 421.8 433.1 428.6 432.3 438.4 445.7 451.6 458.1 458.2 459.6 463.3 465.8 469.8 472.4 477.3 483.2 488.3 489.3 494.5 506.7 520.4 536.3 545.9 557.9 572.2 590.3 603.1 614.6 626.1 639.1 657.7 672.1 686.2 694.2 701.3 708.1 712 712.8 710.9 707.1 699.3 691.1 684.7 678.2 672.5 659 644.2 622.2 595.7 619.3 637.5 645.6 648.8 649.9 645.3 639.8 635.3 629.5 622.7 612.8 605.7 600.2 595.9 592.4 586 578.7 568.2 561.3 557.9 554.6 549.6 543.2 536.3 527.3 517.7 514.7 511.9 508.2 504.1 501 500.1 508.5 518.2 528.5 538.5 546.3 556.5 565.6 576.1 590 603.4 615.9 629.5 647.7 667.4 682.4
314.3 308.2 298.4 284.7 268.6 260.4 253.4 248.1 243.6 241 228 227.6 227.5 227 226.4 236.9 251.5 262.8 271.3 279.4 289.6 295.2 296.3 299.6 301.6 299.5 296.7 292.7 287.6 284 280.5 279.7 278.3 282.7 286.9 293.1 294 296 303.3 308.9 311.8 314.4 316 318 320.1 321.2 320.5 320.5 319 318.8 322.7 326.5 331 336.7 341.5 344.1 346.9 349.3 352.3 355.7 358.5 361.6 365.2 368 371.2 374.5 376.9 376.4 373.1 368.3 362.5 374.7 377 376.6 381.7 388.7 395.3 403.6 410.9 417.7 424.3 431.5 450.6 459.8 464.7 468.2 469.7 469.7 468.4 465.9 456.1 449 443 437.4 433.5 429.7 426.7 422.9 420.5 418.9 418.1 416 417.3 420.4 423.8 428.2 434 438.7 442.9 452.3 462 470.4 476.2 476 475.7 478.3 482.7 485.8 486.1 485.8 486.8 489.3 500.5 515 526.9 542.8 552 562.8 581.2 598 611.6 623.1 633.8 650.6 663.4 675.5 686 694.9 702.4 709.2 712.3 713.1 711.1 706.9 700.3 690.9 682.4 668.7 659 648.5 631.2 612.5 585.5 608.6 623.5 633.3 640.4 641.5 639.6 635.1 629.4 621.3 609.5 599.5 589.8 587.7 586.2 583.2 578.1 570.3 560.8 551.6 549.2 545.9 540.3 532.3 524.7 517.1 513.4 510.6 508 504.9 502.3 500.9 505.8 514.1 519.6 530.5 539.3 548.7 559.6 568.5 581.1 594.8 607.8 621.2 637.8 655.9 674.2 692.4
311.7 306.5 297.1 285.3 270.8 262.2 255.6 250.4 245.4 237.3 230.9 228.1 227.6 227.3 226.4 231.6 250.3 263 271.5 280.3 286.8 292.2 293.8 296.2 297.8 294.3 289.3 285.1 280 277.6 275.7 274.8 277.4 284.3 289.1 295.8 297.8 303.1 310.5 314.8 318.3 321.2 323.3 324.9 327.1 327.2 325.4 324.1 323.6 323.9 324.2 323.8 327.9 331.9 335.9 339.7 343.6 346.6 350.7 355 359.8 363.4 367.7 372.4 376.2 380.3 382.9 383.1 380.7 376.4 370.7 379.3 385.8 387.2 389.1 398.2 406.5 413.7 421.8 430.9 441 448.9 455.1 464.3 469.9 474.4 477.2 479.6 479.2 476.7 466.2 464.5 460.9 454.1 447.8 440.5 434.9 432.4 429.1 427.6 427.4 424.1 422.2 425.7 430.4 434.6 445.7 450.9 453.9 454.8 465.2 473.7 479.5 483.5 486.5 489.7 492.5 494.7 496.1 496.6 497 502.6 512.3 521.1 535.2 548.6 559.4 574.7 588.3 603.2 618.5 630.2 645.5 658.9 670 678.1 687.1 696.5 703.6 709.8 713.4 714.1 713.5 709.8 703.4 695.3 682.9 661.2 640.3 631.8 617.7 598.4 576.6 595.9 610.6 622.1 633.1 639.3 636.2 629.1 622.3 613 599.7 585.5 575.4 574.8 575.3 572.4 567.2 560.5 552.4 542.2 536.8 535.6 530.7 522.7 513.9 512.4 509.3 506.7 504.1 502 500.2 500.1 510.4 519.5 526.2 532.4 540.6 549.6 560 570.3 585 597.8 610.7 626.5 642.5 660.7 681.6 701
308.2 302.4 295.3 282.5 273.1 264.1 258.1 252.6 246.8 241.6 238.1 228 227.6 227.6 225.8 233.8 246.9 258.4 268.6 276.1 282.7 286.8 288.5 291.9 291.8 287.5 283 276.3 272.1 272.8 270.5 273.9 279.7 286.1 291.9 298.9 304 309.9 314.4 318.8 323.3 326.2 329.1 331.8 332.3 330.8 329 328.4 328.1 328 328.6 328.8 329.1 329.8 332.9 336 340 344.3 350.3 355.4 360.2 364.8 370.3 375.7 381.5 385.6 388.5 388.5 387.2 384 379.7 381.2 392.1 395.9 400.8 406.7 416.2 425 431.9 443.2 453.6 460.5 465.6 470.6 475.9 480.4 484.7 487.9 488.5 486.7 483.5 479.5 478.5 471.9 466.1 457.7 448.9 444.3 441.5 439.3 437.2 434 430.9 431.4 434.8 441.2 453.9 460.5 463.1 464.2 466.7 474.7 480.8 486 490 493.3 495.9 498.1 499.8 500.9 503.5 507.2 516.3 531.4 540.8 552.8 566.1 579.1 591.6 610.3 624.7 639.3 653 664.3 672.6 681.1 689.6 698.1 705.5 712.1 716.2 718.2 717 713.8 706.7 696.2 680.3 660.1 639.9 623.7 601.8 584.1 573.3 583.1 597.3 611 622.8 630.7 624.3 617.2 610.4 602.1 589.7 572.7 562.2 562 561.3 559.4 555.5 549.7 541.5 533 522.5 526.1 520.8 511.2 508.8 506.3 504.7 502.1 499.5 499.2 498.8 504.3 516.1 524.1 532.3 536.4 543.7 552.2 561.9 574.3 589.6 602.1 617 634.5 649.5 670.3 692.3 711.3
308.6 300.3 293 282.4 274.4 267.9 261.8 255.7 248.6 243.2 240.3 232.9 228.7 228.2 227.5 240.9 245.7 254.5 265.3 273.7 280.4 281.9 284 285.1 282.7 279.1 274.3 267.2 262.4 266 272.4 275 281.5 287.3 295 301.5 306.1 311.4 317.2 322.5 328.1 333.1 335.6 337.5 336.4 334.6 333.3 332.7 332.7 332.6 332.5 332.6 332.8 332.3 331.8 334.8 338.2 343.3 349.1 354.4 359.5 364.9 371.2 377.5 385.9 389.4 392.3 394.4 394.1 391.7 388.9 384.2 395.5 402.7 410.2 417.7 425.4 434.3 443.1 455.3 463.8 470.6 476.6 481.4 484.2 488.8 491.7 496.1 497 495.6 495.8 496.6 494.8 488.7 481.6 474.1 465.3 460.2 456.6 455.2 451.6 448.4 444.4 441.4 442.3 447.9 460.9 468.1 470.7 472.8 472.6 475.4 482.4 487.9 492.2 495.6 498.8 501 502 504.2 507.6 511.6 523 533.6 544.9 558 570.7 582.9 598.7 614.4 630.3 645.6 657.1 666.4 673.9 683.9 691.7 700 708.5 715.2 719.6 722 721.7 717 707.5 695.6 679.6 662.5 642.8 622.4 602.1 581.5 564.3 569 580.8 597.7 611.2 617.7 611.9 605.1 599.9 591.2 578 564.9 554.9 548.7 549 546.9 544.5 539.2 530.7 524.7 516.6 514.4 508.7 504.6 503.7 499.8 498.2 497 495.3 497.7 501.1 509.5 521.1 529.7 535.3 540.8 547.6 556.4 564.9 578.7 593.3 607.9 622.5 637.8 657.4 678.6 698.8 716.9
309.3 299.6 291.1 283.4 276.2 270.9 263.3 257.8 249.9 244.3 241.4 240.8 228.3 228.6 228.7 239.6 244.7 252.6 259.4 268 273.7 277.1 278.2 277.4 271.3 267.9 259.5 261.7 268.7 272.7 275.1 277.7 281.7 288.3 296.4 302.6 308 313.4 319.6 325.3 332.2 337.7 340.5 341.6 340.5 339.5 338.3 337.1 336.8 336.6 336.6 336.5 336.4 335.9 335.4 336.1 338.1 342.3 347.7 352.7 357.8 362.9 369.6 379.5 386 392.6 398.2 400.6 402.1 400.1 397.5 391.2 400.1 410.6 418.6 426.8 436.1 445.8 456.3 466.9 476.1 485.7 491.9 496.8 502 506.1 509 509 507.6 505.1 509.5 509.7 508.3 503.7 498.5 490.9 484.6 479.9 475.1 474 472.1 469.8 465 459.9 457.9 460.8 465.1 474.9 476.6 478.1 479.9 480.9 482.8 489.5 494.4 497.3 501.1 503.1 504.3 507.1 509.7 519.5 528.4 536.2 551.8 562.4 572.9 589 602.2 620.3 635.3 648.2 657.4 666.6 674.6 685.7 693.6 702.3 711.5 718.1 723.4 726.4 724.8 718.1 707.1 691.9 675.2 661.1 645.6 623.7 605.7 583.2 566 553.4 563.3 580.3 595.2 600.9 595.7 590.4 586.5 578.1 565.6 556.7 548.4 535.7 535.9 534.8 532.4 527.6 523.4 517.6 510.1 501.4 497.1 498.6 497.6 494.7 492.5 492.8 496 498 504.3 515.1 524.7 532 537.8 545.8 553.3 559.9 569.1 584.9 600.6 612.7 627.5 646.8 669.1 686.7 704.7 721
308.4 300.2 291.1 283.7 278.1 271.8 264.6 257.4 250.1 245.5 243 238 229 229.1 229 239.6 243.4 251.4 252.9 258.4 263.6 267.7 268.7 262.2 260.1 255.2 262.8 266.5 269.8 273.2 277.4 282.7 279.5 290.9 296.8 302.9 308.1 314 320.7 327.9 334.7 339.8 343.6 345.4 345.1 344.6 343.9 342.6 342.9 341 340.2 339.8 339.7 339.6 339.2 339.2 339.5 343.1 347.7 352.6 358.1 363.9 372.2 382.5 390.3 397.9 405.4 408.7 409.9 409.3 406.5 399.5 405.7 416.6 427.6 437.9 447.7 457.3 467.8 480.1 492.7 502.1 508.6 513.2 513.5 516.9 519.6 520.4 520.8 520.4 521.4 520.4 519.1 515.5 510.8 506 499.9 496.9 493.2 490.1 488.3 487.3 484.8 479.6 474.5 473.1 468.9 481.1 482 484.2 486.1 487.3 488.8 491.7 495.2 500.2 502.7 505.6 506.9 509.3 518 524.3 531.4 546.6 557.1 567.6 578.9 592.5 607.2 624 636.8 648.4 657.5 666.3 674.9 684.3 694 703.2 713.1 721.6 727.1 728.7 725.1 716.6 706.3 686.4 672 660.5 649.5 631.8 613 595.5 579.7 558.2 545.1 560.9 574.2 578.7 577.2 575.4 571.2 560.6 554.3 547.1 539.8 532.3 518.2 521.8 520.3 517.3 515.1 509.9 501.8 490.7 489.8 492.6 491.5 487.8 489.2 494.2 498.1 503.7 510.5 518.1 527.8 534.1 540.7 548 555.9 562.6 574.6 591.5 606.7 617 634.6 657.1 675.1 692.3 709.2 722.3
315.9 303.8 294.8 286.6 281.3 274.2 267.9 260.7 252.9 246.9 242.6 235.9 229 229.4 229.5 231.6 241 244.1 247.2 243.1 251.3 252.7 247.4 249.1 257.6 261.3 265.3 269.1 272.2 276.2 282.6 290.1 289.5 286.4 298.5 302.4 308.3 313.6 320.7 328.6 335.4 340.4 345.6 347.8 348.7 348.4 347.6 348.7 349.5 346.3 344.5 343.8 344.2 344.4 344.1 343.1 342.6 344.2 347.8 353.8 360.6 367.9 375.9 386.6 396.3 403.9 410.2 416.3 419.6 420.2 417.2 411 411.7 426.5 438.9 449.1 458.8 468.8 482.2 496.8 510.4 521 528.7 535.1 535.5 533.7 535.1 533.8 532 529.7 528.6 527 525.4 522.6 517.8 513.2 508.1 505.4 503.9 500.9 498.6 495.4 491.8 488.8 486 486.4 480.1 487.3 488.7 490.1 490.9 493 493.8 495.6 498.8 501.9 505.3 508.5 511.8 516.5 521.9 527.6 539.1 550.9 560.1 570.2 582.9 595.7 608.8 623.3 635.6 646.6 654.9 663.6 671.8 680 692.8 703.4 713.8 724.3 729.1 728.8 723.9 715.2 703.4 686.6 674.8 663.3 653.5 644.1 632.2 616.6 599.4 577.7 552.5 536.5 550.1 555.5 558.8 558.5 552.5 545.4 540 532.8 529.8 525.8 518.6 503.5 506.7 506.9 504.7 497.6 489.6 485.5 481.9 485.9 482 484.6 490.6 495.3 500.5 506.5 512.7 520 528.1 534.7 542.3 550.6 558.6 567.2 580.2 598.6 613 624.9 640.8 659.9 680.9 698.6 710.2 720.7
319.4 306.6 298.4 290.2 282.6 276.4 269.8 264 256.1 249.3 244.5 244 229.9 229.9 229.7 230.2 230.2 243.2 242.2 247.4 251.4 254.8 259.1 261.8 263.9 265.9 268.9 273.3 277.5 286.2 294.5 298.1 298.1 298.1 296.5 301.5 307.7 312.4 318.6 328.3 334.8 340.3 346.2 349.6 351.5 352 352.6 354 354.6 351.6 349.9 349.4 349.6 349.9 349.8 349.1 348.3 347.7 350.7 356.8 364.2 371.3 380.1 391.6 400.4 409.5 415.3 425.1 429.3 430.6 428.2 425.7 428 436.4 449.9 461.2 471.2 483.8 500.3 516 528.9 536.6 543.1 546.3 547.5 549.4 547.5 546.7 542.4 536.2 534.3 532.6 530.9 528.3 522.3 517.6 512.8 509.7 507.3 505.1 502.7 499 495.1 492.6 489.9 489.5 488.2 491.2 493 494.9 495.3 496.1 497.3 499.3 501.4 503.7 507.1 510.9 514.2 519.2 524.8 532.6 544.5 552.3 562.6 572.5 585.5 596.5 607.2 620.5 632.7 641.7 648.8 655.9 663.7 674.3 690.9 704 716.8 726.3 729.2 727.4 721.1 713.9 695.9 685.6 675.9 664.3 655.3 649.2 644 634 616.5 596.5 575 549.5 525.7 532.5 536.2 538.2 533.5 531.4 525.7 521.4 520.7 519.2 515.2 507.9 493.6 492.6 491.1 480.1 476.4 474.2 475.5 478.4 483.9 486.1 490.4 496.2 502 507.9 514.8 521.8 529 537.3 544.9 554.1 562.8 573.5 588.6 602.8 613.9 628.8 646.4 662.2 687.1 702.2 711.1 718
319.7 309.5 302.6 295.1 287.2 277.9 271.8 265.8 258.7 251.9 247.5 246.8 231.8 230.5 230.8 230.5 230.1 242.9 246.3 252.9 257.5 260.5 264 266.2 268.6 270.7 273.4 277.9 285.2 295.9 303.6 305.9 306.1 303.6 302.6 301.7 305.9 310.1 317 325.4 331.6 338.9 345.7 349.7 354.4 354.3 355.6 357.5 357.7 357 356.7 356 355.6 356.3 356.7 355.5 353.9 353.1 354.9 360 367.3 374.3 382.3 395.3 406.6 416.2 424.5 432.7 437.3 440.4 441.1 444.6 445.2 448.3 461.2 472.3 485.5 500.2 518.3 533 543.6 551.2 555.5 556.3 556.3 557.3 558.1 556.1 550.9 542.5 539.5 537.9 535 530.7 525.2 520.5 516.1 513.1 510.1 507.3 504.3 501 497.6 494.8 492.9 492.9 490.4 494.8 496.9 498 498.2 498.3 499.7 501.8 503.9 505.6 507.7 511.7 515.3 521.3 527.8 534.2 544.4 555.2 565.9 575.4 587.5 597.2 606.5 616.2 627.3 635.2 640.8 641.5 646.7 669 688.3 707.3 719.9 726.2 727.8 724.3 717.3 709.7 696.3 687.6 673.7 661.7 655.1 651.7 650.3 644.5 624.8 611.3 592.2 567.6 541.2 518.9 518.1 518.4 517.8 512.6 512.6 509.4 511.8 511.8 508.8 501.4 491.9 481.2 475.2 469.7 469.3 476 480.6 484.2 486.7 490.1 493.5 497.5 503.8 509.8 515.9 522.8 531.7 540.1 548.3 557.1 566.6 577.5 590.6 603.3 615.5 634.1 648.8 666.2 689.6 703 712 717.6
321.9 313.5 305.6 299.5 291.1 280.8 274 269.5 261.8 254.1 250.6 247.7 233.3 230.7 230.7 230.8 230.7 241.6 247.6 253.7 259.7 263.4 267.8 270.5 273.1 275.4 279.1 287.5 295.1 304.1 308.2 312 312.5 308.9 306.8 306.3 306.1 309 315 321.3 328.7 336.6 342.7 347.8 353.5 355.3 357.4 359.8 362.2 365.3 363.6 362.6 362.2 363.3 363.3 361.7 359.9 360.4 360.5 362.6 369 376.5 385.4 400.9 412.2 422.5 431.8 439.2 445.1 450.3 455.2 461.8 465.7 467.8 473.3 485.2 500 517.5 531.5 546.3 556 563.1 564.1 565 565.9 564.3 564 559.6 554.2 546.8 543.8 541.2 537.2 532.2 527.2 523 518.3 514.6 511.2 508.4 504.6 501.7 498.8 496.6 494.4 493.9 491.7 496.7 498.6 499.6 500.3 500.6 502 502.8 504.1 505.6 508.4 512.7 516.9 523.1 530.1 535.5 546.3 558.5 567.4 576.9 587.2 595.9 602.9 611.1 620.1 625.1 623.3 626 646.9 668.1 688.8 708.4 719.6 724.2 724 719.3 714.2 702.6 696.8 685 668.9 659 653 648.9 647.9 640.9 627.5 614.1 596 577 559 542.5 527.5 510.8 500.9 491.5 491.7 491.8 502.2 503.6 498.5 490.9 482.1 471.8 468 468.2 473.3 479.5 484.4 487.3 490.7 494.6 499.4 502.1 505.4 511.4 517.9 525.9 534.3 542.1 550.8 559.6 569.1 579.2 592 604.8 622.5 639.2 651.8 671.4 689.4 701.4 709.3 711.4
327.3 318.4 309.6 302.9 291.6 283.4 276.1 269.8 263.8 258.3 253.2 249.1 241.3 231.5 231.1 229.4 231.6 241.7 246.4 253.4 261.9 267.3 269 272.9 277.3 282.4 288.3 298.2 305.6 311.4 316.5 318.9 318.2 316.4 312.2 311.1 310.8 312.2 314 318.8 325.2 332.2 338.7 345.1 351.4 354.4 358.5 362.5 367.2 370.4 368.9 369.8 370.1 370.6 369.3 367.4 366.3 366.8 367.7 367.3 371.8 380.4 390.3 405.1 416.5 427.3 437.1 445.3 453.3 461.3 467.6 473.7 477.8 480.4 487.8 501.3 512 528.5 543.9 558 566 569.4 571.1 570.8 569.9 568 565.3 560.4 554.5 548.8 546.1 541.7 536.5 532.3 527.9 523.3 518.6 514.6 511.3 507.5 504 500.7 498.5 496.5 494.4 492 492.8 496.6 498 499.3 500 499.8 500.1 501.3 503.7 506.6 509.6 513.7 518.5 524.3 531.3 539.2 550.6 559.7 569.9 577.6 586.2 592.2 597.6 602.1 606.5 607.3 607.1 627.6 647 671.9 690.4 706.4 716.5 720.2 718.8 715 709.7 700.1 694.8 686.1 668 654.4 647.2 642 637.7 630.8 622.8 611.1 594.2 577.2 563.8 551.6 538.6 525.3 512.2 498.9 485.7 479.3 490.8 491.2 484.2 476.2 468.9 464 464.2 470.6 476.1 483.4 488.7 491.9 494.9 500.6 504.8 508.2 511.1 515.4 521.7 529.6 535.8 544.7 552.9 560.6 570.4 581.4 595 610.2 627.5 639.8 655.5 674.3 684.4 694.6 701.7 703.9
330.5 321.5 312.3 304 292.7 284 277.7 274 268.5 261.9 255.8 251 248.3 235.2 231.7 231.8 230.1 233.2 246.1 254 263.4 269.3 270.7 275.7 282.7 289.1 296.3 305.5 311.8 316.5 320.1 324.2 324.2 322.5 319.1 317.3 316.6 317.2 318 319.7 324.3 330.5 336.6 342.8 348.5 353.4 359.5 365.2 370.7 373.7 375.9 376.7 376.7 376.9 376.4 374.9 375 375.5 375.9 375.3 376.3 384.8 396.6 410 421 432 441.9 451.5 461 471 478.1 484 487.8 493.6 503 512.3 524.2 540.4 553.1 564 571 576 575.6 574.4 571.6 569 565.9 560.7 554.6 548.1 544.5 539.1 535 531.8 527 521.5 516.7 512.5 508.4 502.3 499.2 496.9 495.4 494 492.7 490.8 491.3 494.3 496.1 497.5 498.6 497.1 496.3 496.4 501.5 506.1 510.6 513 521.3 527.9 535.1 543.8 553.6 560.7 571.1 577.8 583.2 586.8 589.3 589.9 589.9 590.4 610.4 630.9 650.6 672.8 691.7 705.6 713.6 716 714.7 711.8 705.8 699.8 694.4 688.2 668 655.4 640.9 629.9 624.8 616.9 612.1 603.5 589 575.9 562.9 549.8 537 523 510.3 495.4 489.9 482.2 476 477 469.3 465.2 460.4 461.5 466.7 473.4 480 490 495.7 497.8 501.4 506.3 509.6 513.9 518.2 521.6 526.6 532 537.8 546 554 562.5 572.2 582 595.9 613.6 627.8 641.8 656.5 674.8 684.1 690.3 695.3 694.7
334.3 325.9 315.9 305.6 294.6 288.9 283.7 278.8 272.1 266 259.6 253.9 249.6 245.6 232.4 232.5 230.9 232.1 242.8 251.9 259.3 265.8 272.3 277.5 285.3 291.3 298.9 309 315.9 322.3 326.5 329.6 330.2 328 326.9 324.9 323.1 323.3 323.5 325.3 327.6 331.3 336.9 342.4 347.9 354.1 361.2 367 372.6 377 381.3 382.2 384 383.9 383.3 383.4 383.1 383.8 384.4 385 383.8 389.3 401.5 413.4 424.1 435.6 444.7 457.4 468.7 479.8 486 490.7 496.9 509 517.1 524.7 536.5 548.5 559 569.3 576.3 578.4 578.4 577.6 573 569.2 563.8 557.7 553.2 546.1 539.3 535 531.7 527.9 521.7 517.4 513.5 508.5 499.5 496 493.8 491.8 490.2 488.9 487.7 487.9 488.1 490.2 492.5 495 495.4 493.6 492.3 494.9 502.2 507.9 512.1 515 522.7 531 540 550.3 558.6 565.9 573 577.4 579 578.2 574 573.3 575.7 592.4 613.6 631.4 654.4 674.6 690.8 704.5 710.4 712.3 711.1 709 705.3 701.3 696.8 691.7 683.6 669 651.9 630.4 606.3 602.9 601 593.2 581.8 570.1 558 545.3 529.9 517.6 506.6 493.9 488.4 480.7 471.1 464.4 459.7 456.3 457.9 463.2 468.8 476.7 485.7 492.2 500 502.9 506.3 511.2 514.9 519.1 522.8 526.3 530.3 535.4 540.2 547.2 554.7 564.2 574.7 584.5 599.8 614.8 628.1 643.5 656 669.2 680 685.4 684.1 684.7
335.1 327.3 316.6 307.9 299.1 293.3 288.2 282.9 278.2 272.7 266.1 257.3 252.2 246.8 232.4 231.3 232.2 232.7 239.7 246.2 254 263.6 273.1 280 286.2 292.5 303 312.6 321.7 327.8 331.6 334.9 335.1 336.3 335.2 333 328.9 328.9 329.3 330.6 332.5 335.2 339.2 343.7 349.1 355.9 362.6 368.3 374.3 379.8 385.2 389 391.7 390.6 390.8 392.1 392.2 392.5 393.4 394 393.1 395.8 405.2 417.2 427.8 439.2 451.3 462.4 475 486 492.3 498.1 504.4 516 524.6 536.4 543.2 555.5 567.2 574.2 577.7 579.3 579.4 577.2 573.8 569.7 562.4 554.6 548.4 541 533.9 531 527.5 521.4 515.9 511.8 505.4 497 491.4 490.3 487.8 486.2 483.6 481.8 479.6 480.9 482.7 486.2 488.6 490.9 489.8 486.9 488 496.1 502.6 508.3 513.3 519.3 526.8 537.4 548.9 557.4 566.2 572.8 577.1 577.8 573.4 563 559 561 579.4 596 612.4 633.4 655 672.5 686.7 699.5 706.6 708.1 708.2 707.7 706.4 703.7 700.6 696.8 690.6 682.4 666.6 647.5 625.7 605.8 584.1 581.1 571.1 560.4 549.2 537.9 524.1 511.9 500.9 492.2 485.4 476 465.2 458.3 456.4 454.3 460 465.8 473.1 485.1 494.2 502.2 504.7 507.1 511.7 515.2 519.6 522.9 525.4 528.6 533 537.9 542.8 550.2 556.9 565.4 575.2 584.6 600.6 616.1 630.1 641.7 652.2 663.3 671.5 675.8 676.1 674.9
336.3 329.1 319.7 310.4 302.7 296.8 291.7 286.8 284.6 278.7 271.9 260.7 253 246.8 236.1 232.5 232.8 233.3 233.6 241.8 250.6 261.4 272 280.3 286 295.4 304.7 314.7 325.2 330.7 335.2 338.9 341 343.2 343.5 340.5 336.9 334.5 334.4 335.1 337.2 339.4 343.3 347 351.7 357.9 364 370.1 376.3 382.9 389.2 393.9 397.2 397.5 399.2 401.3 402.1 401.6 402 403 402.7 401.9 409 422 433.1 444.3 455.4 465.3 478.8 488.2 497.2 502.9 510.9 523.8 533.3 542.9 551.6 563 572 575.2 579.1 580.2 579.2 576.4 572.9 568.6 562.9 551.5 543.7 536.5 530.8 526.1 521.4 514.4 509.9 503.2 493.4 487 482.4 481 480 479 475.3 471.4 469.8 470.1 475.4 479.1 482.6 485.1 482.8 483 489.5 496.6 503.5 508.4 513.5 519.5 531.1 544.5 557.6 568 576.2 580.7 581.4 577.8 565.8 553.9 548 559.1 575.1 590 611.5 631.5 650.4 665.4 676.8 690.8 698.6 703.4 705.8 706.7 706.9 705.8 704.1 701.6 697.2 687.4 672.8 656.7 637.9 619.8 593.8 566.5 556.8 547.4 536.8 526.4 515.3 502 493.9 488 478.2 465.5 461 456.7 452.3 457.3 463.1 470.3 483.7 496.6 505.5 507.6 508.5 510.1 514.4 518.2 521 522.6 526.3 529.4 534.2 538.8 544.2 551.2 559.4 566.9 576 584.8 604.1 618 628 640.7 650.2 658.3 662.9 666.1 665.9 663.7
340.1 332 323.5 315.4 308 301.8 296.5 291.9 288.2 282.3 274.9 266.5 256.8 249.1 238.8 233.6 232.1 233.6 233.8 241.3 248.8 259.3 270.3 278.9 285.9 296.2 304.2 314.8 326.3 332 336.7 341.3 346 349.7 349.9 347.2 344.8 342.1 340.7 341.6 342.6 344 347 350.5 354.1 359.5 366 372.7 379.5 388.3 394.8 399.6 402.6 404.1 406.8 409.1 409.9 409.7 409.9 411.4 412.6 412.4 416.4 427.6 437.4 447.4 456.8 468 481.3 490 498.3 506.1 516.6 528 538.3 547.1 556.7 568.4 573 576.2 580 579.9 578.1 574.4 570.5 565.6 558.8 550.7 539.7 532.3 526.6 521.5 515.9 508.9 502.4 490.2 480.3 474.9 473.1 470.5 469.2 468.9 465.7 463.2 461.7 461.5 467.4 472.4 476.6 477 474.9 484.4 489 497.7 503.7 510.1 516.8 525.3 537.4 554.3 567.1 578.3 585.4 588 585.8 577.7 561.7 549.6 540.6 551.2 567.6 585.9 604.4 622.2 639.3 653.1 664.6 680.7 693.3 699.2 703.8 707.1 708.1 707.9 709.1 708.8 702.7 690.6 676.2 658.1 642.1 622.9 599.2 580.1 562.6 543.7 522 510 500 489.6 481.8 477 465.6 458.1 455.1 449.3 455.1 460.7 467.2 478 496.1 505.2 510.3 509.1 510.9 512.7 515.9 519 519.4 522.5 526.1 530.2 534.5 539.5 544.8 551.4 558.7 567.6 576.8 591.1 606.5 617.5 627.2 638.8 648.4 653.7 658 659.7 658.6 656.2
344.8 336.7 328.3 322.7 316.6 310.1 303.6 298 293.4 287.9 281.3 272.3 262.8 253.3 240 233.9 233.7 232.7 233.7 234.3 245.9 256.6 268.2 277 285.7 295 302.1 313 322.7 330.2 336.8 342.5 349 353.9 355.5 353.7 351.4 349.4 348.7 348 348.2 348.9 350.7 353.1 356.6 362.4 368.2 376 384.2 393.4 399.3 403.6 406.7 411.7 415.1 417.6 418.1 417.7 418 420.3 421.9 423 425.8 433.1 441.1 450.8 459.4 470.7 481.9 490 497.9 508.5 518.7 528.5 538.5 550.3 561.4 568.1 573.7 577.3 578.5 577.1 574.6 572.3 568.9 562.2 555 546.4 533.8 527.4 520.3 514.4 508.6 499.5 487.8 475.3 468.8 466.2 462.8 461.7 458.2 456.1 455.3 453.3 448.8 452.3 459.4 463.7 464.9 466.7 479.1 479.9 487.2 497.7 507.5 515.6 526.8 536.3 548.7 565.3 577.3 587.4 591.8 591.7 586.7 574.8 559.9 547.9 536.2 540.7 558.1 576.1 592.1 604.9 618.6 632.3 646.6 669.1 687.4 695.8 702 706.5 709.2 711.3 713.8 712.2 705.1 693.7 676 657.8 641.2 622.2 600.2 580.6 562.1 545.6 531.2 517 504.9 495.1 483.3 467.6 456.1 449.6 445.8 451.3 456.8 461.9 469.8 486.2 501.6 510.4 511.2 510 511.6 513.4 515.2 516.6 518.3 521.5 525.4 530.6 534.7 539 544.8 551.3 560.3 568.4 576.8 593.9 606.2 616.6 628.4 637.2 645.2 649.4 652.4 652.4 652.3 649.1
351.5 343.1 335.6 330.7 325.4 319.5 312 305.3 300.3 293.6 286.2 277.9 268.2 258.9 243.7 234.6 234.2 234 234.1 233.3 243.9 253.4 265.8 275.1 283.6 291.6 301 309.5 319.2 327.6 336.4 343.7 350.6 356.9 359.8 359.1 356.8 356.5 354.7 354.9 355.8 355.2 355.7 357.2 361.1 366.7 372.8 380.9 390 397.9 403.4 407.2 413.2 418.5 423.4 426.3 425.9 425.5 426.2 427.7 428.3 429.7 431.2 435.6 443.9 453 461.7 472.4 480.9 489 497.4 508.7 519.5 530.2 543 552.3 563 567.8 573 576.6 575.7 573.4 570.7 568.2 565.9 556.6 548.6 539 525.7 518.1 511.6 505.4 496.7 485.6 472.7 465.6 459.8 456.1 453.8 451.6 449.1 446 439.4 434 435.9 441.7 448.6 452.7 458.4 469.5 474.6 479 488.7 500.3 511.3 521.6 534.5 547.4 563.5 575.3 586.3 594.1 595.9 593 585.2 571.9 556.9 545.1 531.6 530.4 544.3 556.6 571.9 583.1 596 612.6 634.1 659.9 682.6 693.5 701.7 707.4 711.4 714.8 716.5 713.1 706.6 694.2 675.3 656.9 640.2 619.7 598.5 577.4 558.4 543.1 528.2 513.8 503 492.6 480.2 463.2 451.4 444.9 445.8 453 457.5 463.3 472.6 491.2 502.6 509.3 509.1 509.8 510.7 512.3 512.9 512.7 515.4 518.7 524.7 529.4 534.1 539.7 545.8 552.7 560.5 568.8 581.3 592.8 606.2 615.3 628.4 636.9 641.3 644.2 644.9 645.6 644.3 639.2
362.9 353.5 343.9 338 332.7 328.7 323.4 324.4 314.9 301.4 293.7 284.6 274.4 262.6 245.7 236.3 234.2 234.2 234.3 234.5 235.9 251.2 262 271.3 280.3 288.6 296.5 305.9 315.7 326.1 335.2 343.7 351.9 359.1 363.9 363.7 362.2 362.5 360.8 361.6 362.9 364.1 362.9 363.5 367.2 372.6 378.1 386.7 394.1 400.9 406 410.5 418 425.2 430.1 433 433.7 432.7 432.6 433.2 433.6 433.6 434.4 438 445.5 454.6 463.2 471.7 479.3 487.8 496.4 508.4 523.1 532.1 543.9 552.7 562.9 567.1 572 574.4 572.9 570.2 567.4 564.1 557.9 550.6 541.6 528.9 519.6 510.3 502.9 493.6 486 472.6 462.4 456 450.9 447.1 443.6 442.5 438.8 430.1 423.2 427.5 435.9 440.1 445 450.6 462 469.3 474.2 482 492.4 502.8 514.7 528.9 542.2 561.7 573.7 584.9 592.7 598 596.9 591.4 581.8 567.6 552.9 537.9 521.3 522.6 541.2 557.5 574.3 589.8 605 620.3 635.5 659.5 681.2 693.7 702 708.6 712.5 718 717.8 713.5 706.7 690.4 674.4 654.1 637 615 592.5 572.1 553.5 537.9 522.9 509.9 499.9 487.5 472.4 455.9 447.3 440.3 448.6 453.6 459 465.8 477 494.6 504.3 505.6 506 506.4 507.5 508.6 507 508.2 512.5 517.4 522.8 527.5 533.2 538.4 545 553.8 561.2 569.6 582.5 592.4 605.4 614.9 627.2 634.6 638.6 638.4 638.6 639.2 636.2 628.4
372.1 360.2 353.6 346.2 340.2 335.9 334.1 333.2 323.8 309.8 299.9 289.8 278.7 265.8 249.3 237.4 234.4 234.6 234.7 234.9 235 244.3 256 266.8 276 284.1 292.9 301.5 311.8 323.2 333.4 342.8 351.7 360 365.4 366.9 366.6 366.8 367.2 369 370 369.4 368.5 370.3 372.2 376.9 383.9 392 396.6 403.9 408.3 414.1 422.8 429.4 435 438.4 437.2 435.4 435.2 435.2 434.6 434.4 434.9 437.3 445.4 454.6 462.2 470.7 477.9 486.4 495.6 511.2 525.1 534.9 546 552.5 560.4 565.6 570 571.8 570.7 567.8 563.9 559 551.1 541.9 531 522.1 507.1 496.6 488.7 478.4 471.2 461.5 453.6 446.7 440.8 437.9 433.8 432.5 426.7 415.8 420.8 430.1 435.9 440.5 447.9 455.1 464 469.2 475.2 485.2 495.7 508.7 522 537 558.2 572.7 583.2 591.2 598.2 600.5 596.9 588.7 576.1 561.3 545.4 528.6 511.7 521.4 541 564.1 583.6 601.7 618.9 637.9 652.4 666.2 683.9 694.5 703.4 709.6 717.1 720.6 718.7 713.3 704.3 687.8 670.5 649 630 605.6 583.7 564 547.4 530.9 515.8 505.8 494.5 480.5 463.3 449.8 439.2 439.2 448.8 453.7 460.1 469.3 486.6 498.8 501.7 502.4 501.8 502.5 503.8 503.5 499.4 504.6 508.7 515.1 520.3 525.7 531 537.3 544.3 552.6 560.2 572.2 582.7 591.8 606 615.5 624.1 630.8 632.6 632.8 632.8 631.8 626.2 619.3
379.5 365.6 361.2 353.8 347.9 342.5 340.3 338.3 330.7 320 307.5 294.3 280.8 268.4 254.7 238.9 235 234.9 235 235.1 235.4 241.3 254.2 263.7 274 281.2 288.4 298 307.8 320.7 331.9 341.4 351.2 359.3 365.4 367.9 369.9 370.7 371.9 373.9 375 373.9 373 374.6 376.1 380.9 388.3 394.5 399.7 404.3 409.2 418.4 426.2 432.3 436.7 437.4 434.4 433.2 432.8 432.7 431.8 431.5 433 435.5 443 451.2 458.9 468.4 478.1 487.1 498 513.8 527.7 540.8 546.2 552 558.8 563.6 567 569.1 568.1 565 559.5 553.5 545.8 535.2 523.5 513.6 499.6 487.4 477.7 466.9 459.6 452.5 445.9 438.3 428.1 429.4 423.1 416.9 411.6 413.8 424.7 430.6 433.9 440.3 449.4 455.8 463.2 470 477.4 487.4 499.3 515.4 529.6 551.8 570.1 583.1 590.6 597.7 600.3 598.9 593.9 582.9 567.2 552.2 535.9 519.1 501.4 522.2 541.2 567.5 585.9 605.7 628.4 646 656.9 670.9 686.6 696.5 705.3 714.6 721.5 723.4 720.1 712.5 699.9 684.6 663.5 640.3 619.7 595.1 575.1 557.8 540.9 522.7 509.7 500 488.5 471.7 454.4 444.8 436.9 441.5 447.3 454.3 465.2 480.9 496.7 500.1 499.4 498.7 498 498.6 499.4 496.2 496 500.6 506.8 512 518 524.4 530.2 536.7 543.2 550.2 560.5 572.5 581.9 593.2 605 613.7 618.5 623.7 624.6 625.2 624.7 621.1 616.2 610.8
383.7 379.5 369.2 362.4 356.7 352.7 347.2 349.9 338.4 329.3 317.7 299.4 286.2 270.8 256.3 242.8 237.8 235.2 235.3 235.3 235.3 237.8 250.7 261.6 270.3 278.4 286.4 296.2 306.3 318.5 330.5 340.8 349.8 357.6 363 366.4 369.7 371.9 375.8 376.4 378.4 376.1 375.8 377.6 379.1 384 390.3 396 399.5 404.3 410.6 419.4 426.6 431.9 432.7 431.6 428.7 428.4 427.9 427.1 425.7 424.5 427.5 432.3 439.4 447.5 456 467 480.4 491.5 505.8 520.1 533.6 543.1 548.5 552.8 558.2 562.7 565.2 566.1 564.8 561.7 554.3 548.3 540.7 530.1 518.1 506.3 495.9 481.9 469.8 457.5 447.2 443.7 436.8 428.2 417.2 416.5 413.1 402.5 408 418.4 424.7 428.5 432.7 439.9 448.4 455.2 461.7 469.6 480.3 490.1 502.6 517.2 539.5 563.6 580.5 591.9 595.2 597.4 598.3 594.2 584 571.3 556.3 540 523.5 506.7 502.2 523.6 545.2 568.2 588.3 610.5 632.9 648.8 659 673 688.9 700.1 712.1 720.5 725 725.9 720.7 709.1 695.7 678.5 652.2 630.4 610.4 586.9 568.3 550.7 530.7 515.2 502.9 493.6 480 462.9 446.4 438.5 433.9 442.6 451.3 463 481.3 495.6 502.1 501.3 498.3 495.5 493.2 493 490.8 487.5 492.8 498.5 505.1 510.1 514.3 522 528.8 536 542.8 549.1 560.4 569.9 583.3 591.9 603.5 610.6 614.1 616.6 616.9 616.8 615.8 612.1 607.8 602.1
392.2 386.4 379.1 371.8 365.7 362.8 358.6 355.5 344.7 335.7 325.6 314.6 299 280.9 261.6 245.4 237.6 235.4 235.9 236.3 235.6 235.6 248.6 261.6 269 275.9 283.9 293.6 306.3 316.9 329 339.2 347.7 354 359.4 363.1 366.5 370.3 375.7 380.6 378.9 377.5 378.3 378.9 380.9 385.7 392.1 395.6 398.2 403 410.9 417.5 424.9 427.5 426.6 423.8 420.4 420.4 419.7 417.7 414.3 413.5 420.1 429.4 437.5 444.8 454.2 468.5 482.8 496.2 514.2 530.6 539.4 546.2 551.3 554.3 558.7 562.2 563.1 563 561.4 556.6 549 542.8 536.5 524.5 512.4 496.3 487.2 475.2 463.2 451.7 436.6 429.5 426.1 418.1 406.2 400.3 398.4 398.7 409.8 418 423.8 427.7 431.9 439.1 446.5 453.5 461.5 472.1 482.1 492.8 504.8 520.2 550.8 577.9 591.3 601.3 597.1 594.9 590.7 581.9 568 553 537.4 522 505.1 487.8 506.2 525 547.5 569.3 588.2 611.7 632.7 648.8 660.5 676.9 691.8 706.2 718.1 723.2 726.7 726.4 718.6 704.6 690.4 668.9 642.6 622.5 601.5 581.7 562.1 541.5 523.3 509 496.6 485.2 469.7 453.2 438.1 432.6 437.8 447.8 458.3 474.1 493.4 503.3 505.7 502.8 496.3 490.9 488.6 486.9 480.1 485.3 489.9 496.1 503 507.4 514 520.3 528.1 536 542.6 549.3 557.4 572.5 582.8 591.5 600.9 607.1 610 611.4 612.8 611.4 608.8 604.9 599.4 594
398.1 392.7 387.3 380.7 376.1 371.4 367.4 363.3 351.9 341.5 330.5 319.5 306.6 288.9 268.3 251.7 237.5 236.2 236.4 236.7 236.2 236.1 248.5 259.2 266.8 273.7 281.9 292.8 305.8 316.4 328 337.2 344.8 350.3 354.3 357.9 362.3 367.4 372.8 377.2 378 377.5 378.6 378.8 381.2 385.9 389.6 392.4 395.7 401.8 409.1 415.6 420.6 420.6 417.3 413.4 410.2 409.3 407.9 406.6 403.6 413 421.6 428.9 435.9 442.7 452.4 469.2 483.9 502.9 519 536 545.7 550.3 554.1 556.6 560.2 561 561.6 560.2 556.6 551.1 544.3 538.3 532.3 520 502.3 490.4 479.9 465.6 456.2 446.7 434.2 417.2 408.4 403.5 388.6 385.9 393 401.8 410.5 416.6 421.2 424.4 430.6 437.7 445.1 452.4 460 472 481.4 494.4 506.2 530.9 560.3 587.8 597.1 598.5 592.2 587.5 577.6 565 548.2 532.9 515.9 500.4 485.9 491.1 510.7 527.1 548.7 570 587.7 610.1 630.4 646.4 660.6 677 694.9 710.9 720.9 725.2 726.8 725 713.9 697.8 682.1 658.9 634.3 615.1 595.7 575.6 556.3 535.6 518.3 504.8 491.1 475 459 443.6 430 433.7 442 453.9 467.6 484.3 502.4 508.5 508.8 503.4 495.4 488.1 484.6 481.3 479 484.7 491.3 496.8 501 507.5 513.2 519.5 525.9 534.2 541.5 549 559.3 573.7 581.9 590.7 597.1 603.4 606.1 608 607.3 606 601.6 594.2 590.9 587.3
402 396.9 394 392.1 388.8 383.2 376.9 370.6 359.8 347.5 334.6 322.9 310.2 291.6 271.5 254.7 243 237.4 237.3 237.4 234.7 236.6 239.1 253.8 263.8 271.9 281.8 293.2 306.8 315.8 327 335.7 340.8 344.1 347.8 352.4 358.1 363.6 368.6 372 374.5 375 376.6 377 378.3 382.3 385.2 387.4 392.1 399.2 405.7 412 414.6 412.6 408.2 401.9 396.5 395.2 393.6 393 402.3 412.5 420.6 427.3 433.8 441.6 453.2 470.3 486.6 505.8 523 540.6 550.2 554.6 557.7 559.4 560.3 560.1 558.9 556 552.6 547 538.2 532.7 525.2 514.6 498.9 483.7 471.5 458.1 449 439 429.5 414.5 396.8 386.1 378.1 389.1 394.8 402.3 408.3 413.3 418 422.8 427.7 435.3 441.6 449.4 457.5 467.4 479.3 491.2 509.3 537.8 567.4 585.2 590.8 588.7 582.4 572.4 562 547 529.9 509.5 490.6 477.5 477.5 496.7 513.9 529.2 550.9 566.3 584.7 606.4 626.3 640.5 656.6 675.6 695.9 712.2 721.2 725.5 726.3 721.6 707.3 690.4 673.7 648.8 627.1 609.1 590.7 569.2 548.2 528.5 513 499.9 485.3 468 449.9 435.9 428.6 435.2 446.3 459.7 477.8 494.9 511.3 514.3 508.4 499.5 491.3 485 480.1 474.2 478.1 483.8 490.4 495.7 501.6 507.7 513.1 519.8 526.9 533.7 540.7 552.1 564.7 574.7 582.5 589 594.4 600.1 603.3 603.6 602.5 599.7 592.8 587.4 584.7 581.4
401.5 398.7 396.9 398.1 396.3 391.9 384.3 375.4 365.2 352.1 334.6 324.5 312.1 296.6 273.4 254.8 246.1 243.8 245.4 244.7 239 235.4 237.8 241 258.1 268.2 278.3 293.7 307.6 315.1 324.2 332.1 335.8 338.4 340.8 346.6 352.6 358.5 363.9 366.7 369 371.4 372.5 373.2 374.8 376.1 378.3 382.1 388.8 395.5 401.8 407.6 407.6 404.4 397.9 389.5 384.2 381.4 385.7 396.6 404 411.7 419.1 426.5 432.2 441.8 457 470.7 489 508.3 524.6 540.2 551.9 559.8 562.8 563 561.3 558.2 555.9 551.9 548.2 541.3 531 523.8 516.6 504.1 491 477.9 462.3 449.7 441.4 433.7 419.6 405.3 388.4 374.3 377.2 389.3 394.6 399.9 402.1 411.2 417.3 421.7 426.7 432.8 438 445.6 453.7 464 475.1 490.3 513.3 542.9 560.5 576.2 577.1 575.8 566.3 557.5 544.4 528.8 510.9 487.2 465.2 472.7 483 496.3 513.1 526.8 548.7 563.9 580.4 599.5 619.7 634.5 651.9 671.2 693.7 711.2 720.9 724.5 724.9 715.5 699.1 679.9 662.9 639.1 624.5 605.5 583.7 563 541.6 521.1 507.1 493.5 476.3 458.5 442.2 429.1 426.1 437.9 451.1 467.3 485.7 504.3 516.6 513.1 503.1 493.2 486.2 481.2 475.4 472.3 477.9 483.6 488.5 494.4 500.4 506.6 512.6 519.6 526.9 533.4 539.8 552.8 565.9 575.4 583 588.4 592.5 596.6 598.2 598 596.8 591.6 585.7 581.1 579.1 575.2
399 396.8 397.8 400.3 400.7 396.4 387.7 378.2 366 353.8 336.6 325.4 311.8 296 276.8 258.5 251.5 251.6 255 254.6 253.5 246.4 239.6 235.1 241.9 258 269.9 287.2 304.2 313.3 321.3 327.8 330.9 331.6 333.2 340.9 347.3 353.3 358.5 362.1 364.4 366.1 367.5 368.3 368.8 370.4 373 379.3 386.9 392.7 398 403.3 401.4 396.4 386.4 377.6 373.2 379 387.5 394.7 402.2 409.3 417.4 424.7 431.9 443.3 456.8 471.4 488.9 506.8 523.3 539.1 553.6 562.1 565.8 565.5 562 556.9 553 548.3 541.4 534.1 522 512.3 502.7 492.8 482.6 466.3 452.6 440.6 427 420.3 406.7 389.9 374.6 367.1 379.9 387.3 392.9 394.2 402.8 409 414.2 419.3 424.4 429.2 433.5 440.1 449.7 462.3 470.8 489.9 512.9 536.6 550.3 559.9 563.1 557.3 548.7 539.9 526 509.7 490.9 466.5 462 476.7 489.1 500.2 511.5 526.7 539.9 553.2 570.9 592.3 611 630.2 648 666.7 690.3 709.9 719.5 723.2 722.7 709.4 687 671.7 652.5 636.3 619 599.7 579.7 556.5 535.2 516.4 500.5 481.1 465.5 451.1 435.5 424.7 431.5 441.1 456.3 474.3 492.4 510.6 517.2 506.3 494.7 486.3 480 476.1 465.9 471.6 477.5 483.2 488.7 494.5 500.4 505.9 512.8 520.1 528.2 534.9 541.3 552.4 566 574.5 584.5 587.5 590 592.6 593.3 592.1 590.1 584.7 580.1 576.7 575.5 573.3
394.4 393.5 395.5 398.2 398.6 395.5 386.9 376.9 366 354.1 338.7 324.5 310.8 293.8 278.9 265.1 258.2 260 261.7 261.1 258.8 255 241.2 238.6 236 244.5 258.8 266.2 291 307.7 317.2 322.3 323.6 324.7 328.7 335.5 341.9 347.5 352.3 356.5 358.7 360.2 360.8 362.1 362 366.6 370.8 378 384.6 390.9 396.4 398.8 395.8 389 376.7 368.7 367.6 372.1 378.4 385.7 394.6 404.8 414.1 423.1 431.5 442.6 454.7 470.9 487.7 504.7 523 536 553 561.6 565.3 565.6 562.7 556.2 550.3 541.9 535.6 526.3 511.3 496.7 488.9 478.6 466.7 454.5 443.7 433.3 421.3 405 395.1 381.2 367.8 368.5 378.3 384.6 385.2 393.6 400.4 405.8 411 416.1 420.6 424.9 429.8 433.6 444.3 456.3 468.1 489.5 506.9 522 531.1 542.4 542.7 540.3 533.8 524 508.3 492.6 472.9 452.5 466.4 482.5 494.2 504.5 516.2 534 549.8 560.5 575.2 594 610.7 628.1 647.1 664.2 690 709.1 718.8 720.8 718.9 702 679.1 664 645.1 630.3 613.3 592.7 569.4 546.2 526.6 510 491.6 473.2 456.5 441.3 429.6 422.2 430.6 444.5 460.5 478.1 497.6 514.2 509.2 497.1 486 477.1 471.9 467 468 474.7 480.2 485.4 490 495.1 502 507.9 514.5 521.3 528.5 532.9 540.7 554.2 568.7 576.8 584.6 586.8 587.6 588 586.8 585.3 583.4 578.8 574.3 571.7 569.7 568.8
386.8 386.8 388.8 392.8 393.3 389.5 382.7 373.2 363.7 353.4 340.5 323.4 308.4 293.1 282.8 273.3 268.2 268.9 267.6 266.1 265.7 262.4 252.8 243.3 239.2 237.3 245.3 253.2 282.7 301.6 312.4 315.2 315.3 314.3 324.4 331.3 336.8 343.3 347.9 351.8 353 354.1 354.4 354.7 356.2 362.2 369.2 375.8 382.6 388.1 392.4 392.8 389.8 377.9 368.8 361.1 366.7 375.8 383.6 391.4 399.3 404.1 409.1 417.9 429.4 440.4 455 470.1 486.6 503.4 519.3 533.6 546.7 558 562.7 563.9 561.6 554.8 546 537.9 527.4 513.6 497.8 485 474.6 463.7 453.7 443.5 434.3 425.6 414.3 399.9 387.2 373.5 361.8 364.8 373.9 375.7 383.2 392.1 396.9 402.5 407.3 412.3 416.4 420.4 425.2 431.9 440 452.1 469.7 487.6 496.1 507.1 512.7 520 523.5 520.8 515.7 506.8 490.2 471.8 454.2 452.2 473 484.9 496 509.4 524.5 540.3 554.9 568 583.3 598.5 613.3 630 648.5 666.7 691.7 709.2 717.3 719.1 714.4 692.8 671.6 658.8 642 626.3 609.3 588.5 560.1 539.1 519.5 501.3 481.9 463.7 448.5 433.1 423.2 425.5 434.3 447.6 463.5 481.5 500.6 509.3 499.2 487.3 477.3 464.3 458.7 463.9 472 478.3 483.1 487.1 491.3 495.8 504.5 511.6 518.1 523.6 530.5 534.6 545.1 563.9 571 576.2 583.5 585.3 585.7 584.5 581.1 578.2 573.5 571.8 569.5 568.3 566.6 566.3
378.6 379.4 381.5 384.1 385.7 382.3 375.8 368.8 360.4 351.8 340.2 324.2 307.7 292 284.8 280.8 276.3 272.5 270.3 265.8 270.3 268.8 261.2 247.3 242.9 240.2 238 250.3 274.2 295.2 306 306.4 305.1 304.3 318.5 328.7 333.4 339.4 344 347.1 347.9 348.4 346.2 347 352.5 360.5 367.1 373.7 380.3 385.5 386.7 385.9 381.2 369.5 363.7 353 367.1 376.9 385.1 395.5 405.3 413.7 421.4 428 433.1 438.8 453.2 470.8 485.8 499.5 514.6 529.1 540.4 552.2 559.2 561.9 559.4 551.7 542 530.1 515.9 502.2 487.2 473.1 458.2 447.8 440.7 432.3 423.6 416.5 406.5 394.7 385.2 369.1 355.9 360.1 370.8 374.1 382.4 388.1 392.5 398 402.7 408 412.2 415.9 420.1 428.8 438.7 452.1 466.6 481.9 488.2 496.7 500 501.4 504.2 503.9 498.7 486.8 470.2 451.9 442.7 462.1 477.2 486 499.8 515.2 531.5 546.7 561.9 575.7 589.7 604.6 618.4 634.5 652.4 671.2 694.1 712.1 716.7 715.8 710 687 670.1 655.2 641 624 602.6 582 556.8 535.6 515.5 495.2 471.7 454.8 440.9 428.3 419.4 425.9 435.1 449.3 464.3 482.3 497.2 499.9 486.7 475.6 463.9 454.7 466.5 472.3 476.6 481.3 485.7 490.1 493.6 500.1 506.7 514.8 522.2 527.9 533.7 540 554.5 568.3 572.9 577.4 581.7 582.4 582.1 580.1 577 573.1 567.8 563 563.5 563.4 562.3 562.5
370.8 371.7 374.4 376.3 377.2 374.2 368.4 362.1 354.4 347.4 337.7 323.8 308 291.2 278.2 277.2 276.8 271.2 267.2 265.1 271.1 272.4 265.9 252.9 252.2 240.4 240.8 237.6 264 285.8 296.3 293.7 287.1 306.6 320.5 327.5 332.5 336.7 341.3 343.3 343.6 342.4 339.5 342.4 350.3 358.4 365.2 371.7 377.3 380.1 380.5 378.5 371.6 363.3 357.6 351.7 366.6 379 388.2 399 410 418.6 428.9 436.3 443.9 455.2 464.6 473.9 484.2 497.3 511 522.5 535.6 546.1 554.9 559.4 556.8 549 537.5 524 515.3 496.6 480.1 459.8 441.6 429.4 424 419.7 414.2 407.3 397.3 386.8 375.6 359.4 352.3 359.8 363.5 373.9 377.3 381.8 387.2 389.8 398.1 403.9 405.9 410.2 416.1 423.8 433.5 450.5 459 472.9 480.4 486.6 490.5 490.3 488.3 485.7 478.9 468.9 450.5 435.7 451.5 467.1 478.7 489.8 506.1 523 536.6 550.3 566.8 582.5 596.7 610.2 624 641 657.6 678.5 701.4 713.4 717.1 715.9 706.3 685.8 671.1 653.6 637.8 620.6 598.6 574.1 548.8 530.2 511.9 490.1 469.6 451.6 438.5 427.7 418.2 424.4 437.3 450.8 464.1 480.6 492.3 487.2 474.3 463.8 451.3 461.6 470.7 475.7 480.6 484.6 487.9 492.1 497.4 503.1 509.8 518.8 526.5 532.6 538.3 546.5 563.3 571.9 576 579 580.5 578.8 578.3 576 573.6 570.5 567.9 565.8 562.6 559.5 559 558.6
364.1 365.6 367 367.6 369 365.6 360.7 354.9 348.5 343.3 333.8 322.7 306.1 288.9 273.7 262.9 263.5 267 263.5 263.8 271.6 274 269.6 258.7 255.3 252.8 240.8 238.1 254.5 271.7 282 276.6 289.1 305.5 320.2 327.2 331.6 334.8 338.1 339.9 338.8 335.6 333.9 340.5 348.4 356.9 363.9 370 373.7 373.7 372.3 368.4 362.5 355.5 347.7 352 369.7 384.1 394.1 404.2 414.5 424.3 436.1 445.7 454.3 464.1 470.4 477 484.5 495.7 507.1 518.3 530.5 541.6 549.8 555.6 553.5 545.7 534.1 522.7 510.7 488.6 472.4 457.2 440.9 419.8 403.3 402.9 401.1 397.3 389.9 374.9 360.9 346.5 349.8 356.9 363.7 368.6 370.8 374.2 379.7 384.4 392.8 398.9 402.1 404.4 408.2 417.5 430.5 443.9 453.7 466.3 473.6 478.4 479.5 478.6 474.3 468.9 461.1 448.5 432.6 441 457.4 468.8 481 493.1 513.5 529.5 542.4 556.6 572.4 588.3 603.8 618.4 633 648.5 665.6 689.3 708.4 715 717.3 715.2 702.7 687.9 671.8 655.1 636 615.1 591.4 564.6 541.1 524.1 506 484.3 463.8 446.3 436.5 426.1 416.5 424 438.9 452.1 463.3 478.4 486.3 474.1 463.1 452.2 453.4 466.5 472.2 477.6 482.6 487.1 491.2 495.1 500.4 506.1 514.8 523.6 533.6 540.5 547 556.1 569 577.5 579 580.8 580.5 577.2 576.3 572.6 570.7 568.7 567.7 564.9 563.5 560.4 555.4 553.1
355.9 356.8 358 359 358.4 355.3 351.8 347.5 343 337.2 329 319.4 306.4 289.4 275.3 264 261.3 260.1 259.1 262.3 269.4 273.2 269.5 258.5 259.7 256 241.6 238.4 247.8 259.2 268.5 276.7 288.6 304.4 317.7 324.3 330 333.5 336.4 337.9 334.2 327.9 330.1 338.4 346.4 355.5 361.9 367.4 368.4 366.3 363.8 359.4 352 343.3 345.7 361.4 375.6 387.3 396.6 406.5 417.1 428.4 440.1 451.1 460.1 469.3 474.9 480.4 485.9 493.5 502.5 512.9 525.2 535.3 544.6 551.4 549.9 542.3 530.8 519.7 500 481 466.7 452.3 439.3 425.5 408.5 389.4 385 386.6 381.1 367.5 348.8 343.1 350.4 350.9 360.3 361.1 361.8 364.1 367.9 377 388.3 394.3 397.7 395.4 398.6 410.4 425.1 437.9 450.1 459.1 465.6 467.6 467.2 465.4 462.2 454.4 444.2 433.2 427.2 449.6 459.1 472.8 485.9 501.6 522.1 534.6 549.1 562.6 578.5 595.2 611.2 626.5 641.7 657.4 679 702.2 714 718.6 718.1 712.8 701.7 689.8 671.4 655.7 632.4 609.9 582 559.8 534.8 517.8 499.4 477.8 458 444.4 433.1 422.9 413.5 425.3 440.8 451.8 463.5 479.1 476.9 463 452.4 447.5 463 470 474.4 479.7 483.9 488.3 493 498.4 503.1 511 518.6 532.1 541.7 549.3 554.8 564.9 579.2 583.2 584.3 585.1 583.7 581.3 578.2 574.1 570.8 569.4 567.2 563.5 561 558.6 554.5 552.3
348.2 350 350.2 350.9 350.5 345.7 342.8 339.1 335.7 328.6 322.4 315.5 303.2 287.8 272.7 267 260 258.5 257 255.5 255.4 267.3 263.1 256.2 257.4 261.1 246.5 240.1 245.5 253.1 260.4 276 287.2 300.1 313.6 321.2 327.3 332 334.9 334.1 326.2 321.1 328.2 337.3 344.9 353.8 359.8 363.4 362 358.3 354 346.3 337.8 339.9 353.9 366.3 377.8 388.8 398.4 408.4 418.4 430.6 442.5 452.5 460.8 471.3 476.6 481.6 485.2 491.2 497.6 507.3 519.9 529.2 539.5 546.4 545.1 537.4 525.7 512 492.2 477.3 459.5 447.7 434.8 422.1 408.6 395.4 381 370.7 370.6 358.9 342.5 341.7 344.7 351.7 353.4 352.6 353.9 358 359.8 369.5 383.8 388.3 391 382 396 408.5 422.1 433.7 444.1 452 456.6 457.8 456.3 452.3 444.4 437.1 429.5 420.9 438.4 451.3 458.8 478.2 490.3 510.2 526.6 541.8 555.3 571.3 585.3 601.8 618.3 634.2 651.9 670.4 694.1 709.1 719 721.3 719 710.3 699.1 681.4 670.7 650.4 625.9 601.2 577.5 553.5 527.4 510.6 493 472.6 453.3 441.1 430.1 420.3 412.4 426.6 442.8 452.6 465.7 476.6 466.5 452.7 442.6 455.6 465.2 471 476.5 482.5 487.2 491.3 494.8 501.3 508.8 517.6 532.1 542.3 552.4 559.1 565 575.4 583.8 586.6 587.4 587.3 586.3 583.7 581 577.6 574.9 571 568.6 566.6 563.3 561.1 557.7 552.9
340.5 341.3 341.5 342.3 341.4 338.3 334.6 331.2 325.5 319.9 314.8 305.6 295.8 283.6 270.6 262.3 259.8 259 256.9 255.9 253.6 253.3 254 251.7 255.9 261.9 253.7 241.5 244.8 248.8 259.5 271.5 282.7 297 309.7 317.9 324.6 329.8 332.1 328.9 316.3 319.2 325.9 335.6 344.2 352.1 358.4 358.2 355.1 350.2 343.7 332.1 334.2 347.9 361 368.5 379.8 389.5 398.7 408.2 418.9 431.4 442.3 452.7 459.6 469.5 474.2 477.9 480.9 485.6 492.3 501.2 511.9 522.8 533.3 540.5 538.5 531.7 520.5 503.4 486.9 470.5 453.1 441.5 428.5 415.9 404.7 394.3 383.5 366.4 355.4 349.6 337.3 337 340.6 347.7 345.2 344.2 350.3 352.4 355.2 367.5 377.2 382.1 374.9 387.8 396.4 404.4 418.1 430.1 437.8 444.3 447.2 446.4 442.6 436.5 431.5 423.6 416 429 442.3 451.3 465.2 481.4 499.5 513.5 532.2 545.9 563.1 577.8 592.9 609.5 627.1 644.8 663.4 685.4 705.5 717.2 723.4 723.2 718.5 707.9 697 676.7 665.5 645.8 619.4 594 569.4 544.5 520.9 504.3 487.7 467.8 449.9 437.1 426.1 416.9 410.5 429.1 445.2 457.8 470.1 470.7 456.2 439.5 449.8 460.7 467.6 472.9 478.3 484.6 489.9 494.7 502.3 511.5 518.9 532.4 543.5 552.1 562.6 570.7 583.2 590 596.1 592.8 591.5 589.5 587.7 585.9 583.2 580.3 576.9 574.8 571.8 568.7 566 563.1 559.2 556.2
332.1 332.2 332.8 333.8 332.8 328.2 323.2 318.8 315.1 311.3 303.7 295.8 288.9 282.2 269.4 262 260.9 259.2 257.5 264.4 261.6 261.2 256.4 250.9 254.1 262.6 258.5 240.1 243.4 246.4 256.1 267.4 282.5 296.1 307.5 314.5 321 326.7 327.6 322.7 309.1 318.1 324.8 333.2 342.4 350.3 355.8 353.4 347.6 341.2 331 327.8 342 355.2 364.8 372.4 381.1 389.8 398.1 407.2 418.1 430.3 440.3 449.8 455.9 462.9 467.4 470.1 472.3 477.4 484 494.1 503.9 515.3 526.8 534.1 533.7 525.7 513.2 499.7 477.9 462.6 446 433.2 421.2 408.7 399.8 391.3 382.3 369.5 351.8 342 334.3 334.2 338.9 338.3 337.8 341.2 345.7 347.6 352.6 363.3 369.2 367.2 375.6 384.7 391.1 401.4 413.8 423.6 431.2 436.6 438.2 434.2 426.8 420.3 415.2 408.6 420.6 435 444.2 454.2 467 485.3 503.7 518.1 536.3 551.5 570 584.9 601.4 617.5 638.3 656.4 675.5 697.4 713.9 724.1 727.3 725.2 718 708.3 694.1 674.5 662.5 636.8 613.1 587.3 562.1 538.8 515.5 498.5 481.7 462.4 445.4 433.3 422.4 412.4 414 430 446.1 461 469.4 460.9 445.6 440.5 454.9 463.2 468.9 474.6 481.5 487.4 494.1 500.1 508.3 517.3 527.1 542 552.6 561.4 573.4 587.4 598.7 604.4 608.5 607.6 604.4 601.5 597.1 589.1 585.3 582.7 580.3 577.8 574.8 572.3 569.6 566.1 563.2 560.4
323.8 323.3 322.9 323.5 322.9 317 311.3 306.2 302.4 299.5 291.7 286.3 282.2 274.9 266.1 262.7 260.8 259 264 261.6 261.9 261.4 259.5 251.1 248.2 261.3 258.7 241.1 243.5 244.3 252.8 267 281.7 296 304.8 311.2 317.5 322.1 322.3 316.1 302 313.8 321.7 330.6 339.9 347.6 350.7 347.3 340.9 332.3 323.9 332.6 346.5 358.1 368.3 373.8 380.6 389.3 397 405.2 414.6 424.9 433.7 441.4 447.6 453.6 458.2 460.7 460.4 465.8 474.5 484.8 496.5 507.6 519.7 528.2 527.3 519.6 507.5 491.1 469.8 454.2 439.2 425.3 413.7 402.6 392.7 384.7 372.6 356.2 341.8 334.2 331.1 331.3 333.1 335.1 337.8 340.1 342.6 345.3 347.6 355.8 361 362.4 372 379.7 386 398.4 409.1 416.7 423.2 425.5 424 418 410.3 403.1 404.2 417.5 426.9 436.2 445.4 457.3 471.2 486.4 503.2 521.5 538.2 556 574.3 592.1 608.1 627.3 647.3 665.4 686.8 706.9 721.3 728.5 730.1 726.1 717.5 706.7 691.1 676.3 655.8 630.5 608.2 581.3 556.1 531.9 512.1 491.9 475.6 455.7 441.8 430.2 419.2 409.3 414.8 430.2 446.2 460.1 464.3 450.3 432.5 445.5 457.5 465 470.9 476.9 483.3 489.7 496.3 503.7 513.2 525 536.4 550.4 560.5 572.1 585.8 601.7 610.6 620.7 620 618.3 613.1 608.6 605.9 603.4 598 590.7 586.5 582.8 579.3 576.8 573.5 570 567.2 564.4
315.9 314.6 313.5 313 312.1 306.3 300.1 293.5 286.6 280.5 276.6 273.2 270.2 266 264.3 262.7 260.8 261.2 260.9 260.5 260.4 263.2 259.9 259.1 247.6 256.6 255.4 239.6 243.7 244.6 250.7 269.8 283.2 295.5 303.2 309.1 314.1 317.8 317.3 307.1 298.7 308.6 319.6 327.7 336.7 342.5 343.9 341.8 333.8 323.9 316.2 335.3 349.5 361.9 370.2 373.7 378.9 387.5 394.6 402.7 410.2 417.7 424.6 431.5 437.3 442.7 446.1 448.1 440.6 447.5 460.4 473.6 487.9 498.9 512.3 521 520 513.9 500.1 481.3 464.2 448.6 432 417.9 405.7 394.8 380.2 370.6 356.5 341.3 333.3 326.8 329.2 331 332.4 334.5 337 338.9 341 343.8 345.9 350 352 358.5 367.4 374.3 380.9 393.8 403.1 409 412.7 413.6 409.3 401.8 394.1 403.2 411 418.3 426.1 436 445.9 458.3 471 485.5 505.5 522.9 539.9 557.3 578.9 595.3 614.7 634.6 653.7 673.8 694.2 712.6 724.2 729.7 731.5 726.3 716.7 704.1 689.1 673.9 651.7 625.1 598.8 575.2 548.3 523.3 503.2 485.2 468.8 450.4 439.3 427.9 416.3 407.9 415.9 429.8 446 458.2 455.8 439.4 435.3 448.7 458.6 466 472.1 477.9 485.2 492.2 499.6 507.6 521.2 533.8 543.9 556.2 569.3 585.7 601.3 613.7 621.9 629.4 630.1 627.1 623.8 614.1 611.5 609.1 604.9 599.5 593.5 589.5 585 582.1 578.4 574.3 571.1 568.4
308.3 307.3 306 304.3 302.3 294.1 285.6 279.1 275.6 271.5 269.3 267.9 266 263.5 263 262.2 260.6 261.5 261.1 260.8 260.3 261.7 260.3 259 251.2 245.8 246.9 248.4 243.8 244.6 247.8 271.7 285.6 294.2 301.9 308.1 311.6 313.5 310.4 297.3 297.9 307.2 317.7 324.4 332 336.5 337.5 334.8 327.6 318.7 321.3 338.7 352.8 364.3 370.3 372.5 376 383.3 389.8 398.2 404.5 409.4 414.5 420.3 425.7 430.6 433.4 434.5 424.6 437 450.2 464.4 479.8 492.4 505.3 513.9 513.5 504.8 492.2 474.7 458.1 438.2 423.1 410.4 397.4 384.7 371.5 361.7 348.6 341.7 325.7 325.8 328.8 332.9 334.4 335.5 337.7 339.7 340.8 343.3 345.5 347.4 349.7 355.5 362.4 368.9 376.4 381.7 388.5 396.4 400.7 396.3 388.1 389.8 396 400.8 408 415.4 423.5 434.1 443.1 453.7 467.1 484.5 504.6 522.3 538.5 558.8 579.1 599.7 619.3 640.3 659 679.3 698.6 715.5 724.6 730.4 731.6 725 714.8 700.6 684 665.9 646.2 618.4 591.3 566.6 541.3 516.6 497.7 478.7 463 446.5 436.1 424.6 413.3 406.7 416.1 428.3 446.1 456.1 447.7 429.6 438.6 451.1 459.5 466.5 472.4 479.3 486.3 495.5 505.2 517.3 530.7 542.2 553.3 568.4 582.2 596.3 612.1 625.4 633.2 638 636.6 633.5 629.5 622.9 616.1 613.7 609.3 604.3 600 595.6 592.1 587.9 583.8 580.3 576.5 573.1
300.6 299.7 299.1 296.6 290.1 283 278.3 274.4 271.8 269.7 268.7 266.7 266.5 266.4 265 263.6 263 262.2 261.3 260.7 260.1 262.5 262.7 256.2 253.3 253 253.3 254.5 246.4 242.4 248.5 274.3 286.9 293.3 300.6 306.1 308.6 308.7 299.4 284.9 296.2 305.7 314.3 320.6 327.2 330.3 329.6 326.5 316.6 310.1 327.2 341 353 363.1 366.6 368.5 371.7 377.4 384.4 391.8 397.3 400.3 403.7 408.2 412.9 416.8 418.9 419.6 407.1 422.3 441.4 456.6 471.5 486.6 499.6 507.5 506.4 498.3 485.7 468.1 447.4 431.2 416.7 403.2 389.3 376.1 363.9 352.6 342.7 324.7 323.1 330.4 332.6 335.7 336.2 338.8 341.9 344.7 346.2 346.2 348.8 351.4 352.1 354.1 356.7 360.1 368.6 373 377.6 380.9 381.1 381.1 386.6 393.3 396 400.6 405.6 412.9 419.5 427.9 437.4 448.4 465.2 479.7 499.6 518.4 536.5 556.9 577.6 600.8 620.6 643.6 662.5 682.9 701.3 715.4 724.3 730 730.5 723.1 711.3 697.6 679.5 660 639 610.3 583.6 556.5 532.7 508.5 488.7 473.9 457.8 443.8 432.1 420.4 409 403 415.6 428.5 447.4 455.2 440.6 424.4 441.4 450.9 458.5 465.8 472.4 479.5 488 497.3 513.7 527.2 540 551.6 566 577.5 594.9 616.2 631.1 639.8 644.6 645.6 643.1 640.3 634.5 626.7 620.2 616.9 613.1 609.1 604.7 601.3 597.8 594.6 589.9 585.5 581.7 576.7
293 292.3 289.1 286.6 279.2 276.9 274.6 273 271.6 276.1 274 271.2 269.7 268.3 267.8 267.4 267.6 263.7 261.4 260.7 260.3 261.3 261.6 257.7 254.5 253.9 253.5 254.5 256.7 245.5 245.5 273.1 284.8 289.3 298.4 305.2 306.3 303.5 288 285.4 294.4 303.7 310 316 320.8 322.5 320.5 316.9 308.3 314.4 330.9 340.9 349.9 358.1 361.8 363.8 366.4 371.3 377.6 384.3 387.1 390.2 391.9 395.4 400.1 403.7 406.3 404.3 395.3 411.4 430.9 449 464.8 480.6 495 501.3 500.2 489.4 477.5 458.2 437.5 423.5 410.1 395.9 380.8 367.4 356.6 341.2 331.3 320.9 328.7 331.6 335.8 337.6 339.8 342.5 345.2 347.3 350.7 353.1 353.1 354.5 356.8 359.5 362.5 365.1 367.7 370.4 371.1 374.6 380.5 386.1 390.6 396.4 400.8 404.4 410.5 419.3 425.6 431.5 438.5 449.2 457.5 472.2 491.3 512.1 533.6 555.7 578.5 600.7 621.3 644.4 663.6 684.8 703 713.3 724.6 729.3 727.9 720.7 709.3 695 672.8 654.2 629.7 601.3 574.4 550.8 524.4 501.4 484.3 469.4 452 439.3 428.6 416.4 404.1 401.9 411.9 427.1 449 450.9 431.9 428.9 442.2 451.3 458.9 465.5 472.3 479.8 491.1 507 521.4 534.1 546.3 557.5 571 586.5 612.9 636.2 645.6 652.7 657 654.5 650.9 645.4 640 630.7 625 621.3 617.5 612.9 609.4 606.5 604.2 602.3 597.3 591.7 585.6 579.1
286.7 285.3 283.3 279.7 278.5 278.2 278 279.9 281.1 281.4 280 273.1 271.4 270 272.2 276.2 277.8 268.9 263.9 261.6 260.5 259 257.4 257.5 254.7 256.7 256.4 254.5 257.8 250.4 241.2 260.5 274.8 281.5 294.3 302.3 302.1 291.7 282.5 283 293.5 300.6 306.3 309.2 312.2 312.8 311.6 308 306.3 320.5 331.4 339.2 345.6 351.4 353.6 357 358.8 365 370.2 375.5 377.3 378.5 379.6 382.6 387.1 390.5 391.6 387.8 384.7 403.9 424.1 442.1 459.1 474.5 490.8 495.1 492.4 481.3 469.5 447.5 426.8 414 401.7 388.4 373.6 361.2 348.2 333.9 322.3 321 329.5 333.4 337.3 339.9 342.3 345.4 350.4 355.1 358.4 360.9 358.3 357.5 361.1 364.2 366.7 368.8 372 374.7 378.6 382.8 386.8 390.6 395 400 403.9 406.7 414.5 421.7 428.7 434.9 444.5 459.1 469.3 482.3 493.3 504.4 529.2 554.4 577.6 600.2 621.3 645.8 666 684.6 702.9 713.5 724.3 727.9 725.4 717.6 706.6 687.4 668.7 647 621.7 593.2 567.3 539.1 514.7 494.1 479.9 462.8 443.8 433.1 423.3 411.5 402.7 403.5 412.7 431.6 449 443.1 422.4 430.3 442.7 451.3 458.5 465.7 473.3 480.5 497.6 512.7 526.8 540.3 553.7 566.4 577.3 599 627 648.1 655.8 661.7 663.9 664.3 658 649.9 644.3 636.2 629.5 626 621.5 616.7 612.7 609.2 609.4 608.3 604 597.2 588.7 582.4
285 282.2 280.6 280.8 281.8 285.7 287.9 289.3 289.6 287.2 285.5 278.5 275 274.7 277.1 281.9 282.9 277.1 266.4 261.8 261.3 258.5 257 256.2 258.6 262.1 261.2 261.1 259.4 259.1 241.4 245.4 257.5 268.7 280.7 295.2 295.5 282.4 275.5 277.6 286.6 292.6 297 298.1 299.1 299.9 301.3 303 314.5 326 332.7 336.7 341.1 343 344.6 347.6 350.9 356.1 361.7 366.3 366.5 365.7 365.5 369.3 373.3 376.6 376.4 369.3 380.7 401.4 419.1 437.5 454.3 469.5 484.9 488.8 483.6 473.9 459.6 438 416 403.9 391.1 380.8 367.2 354.5 340.5 326.5 317.3 321.1 329.6 334.7 338.3 339.7 344.2 350.5 356.3 361.4 366.2 369 363.6 361.4 365.6 368.9 370.9 372.8 374.4 377.5 381.9 385.7 390.2 395.6 399.3 403.2 405.9 410.7 417.6 424.8 432.2 439.6 452.1 465.2 482 497 508.5 520.7 526.2 550.6 573.8 597.6 621.2 645.9 666.1 684.7 701.7 712 722.3 726.4 721.8 712 696.5 679.8 662.1 638.9 614.2 585.3 560.2 535.2 511.3 488.9 475 455.8 439 427.6 416.9 404.9 399.1 403.7 415.7 441 444.8 433.7 415.9 431.6 442.9 451.3 459 466.4 475.4 485.3 502.5 518.6 532.7 546.2 559.6 572.5 586.6 608.1 635.3 652.5 666.7 671.5 672.6 670.1 664.3 654.2 646.2 640.2 633.3 628.4 623.3 618.9 616 613.4 614.1 612.3 608 600.4 590.4 581.7
284.2 283 283.3 286.1 290.2 293.7 296.9 298.4 298.8 295.7 287.3 279.4 277 278.3 281.5 285.6 286.1 282.3 274.9 266.4 263.9 261.1 262.3 263.1 264.6 266.1 268.6 265.6 263.8 262.9 243.2 245.1 247.2 251.7 264.8 280.7 280.2 266.1 267.1 272 278.6 279.6 284.8 290.1 291.5 292.2 306.1 311.7 320 325.9 328.2 330.5 332.5 332.6 334.3 335.8 340.5 346.4 351.7 354.7 353.7 351 350.9 355.5 359.3 360.3 356.7 355.4 377.7 399.3 415.8 432.5 448.5 463.1 478.2 481 475.9 464.8 450.6 431 410 393.4 383.8 375.3 361.1 349.3 333.7 318.6 316.1 322.1 330.2 336 338.9 341.9 347 354.7 362 366.9 371.4 372.4 368 367.3 370.4 372.7 374.2 376.1 377.9 379.6 383.6 387.1 392.7 397.3 402 406.5 410.9 416.6 421.8 427.7 435.6 444.2 457.9 474 490.6 508.4 525.7 539.7 549.7 557.6 573.2 595.7 621.3 645.2 668.2 683.7 700.5 709 718.5 721.4 715 700.2 685.1 670.3 653 631.3 605.7 579 553.7 528.9 503.4 485.3 463.9 446.8 432.4 420.9 410.1 398.6 395.9 406.2 426.1 441.7 440.2 425.5 415.3 432.4 443.2 451.6 458.9 467.3 477.4 489 507 521.3 536.5 549.8 562.8 576.3 592.4 615.1 637 661 670.8 675.8 676.4 672.9 666 658.6 648.7 641.2 634.5 629.8 624.4 619.7 616 616.5 615.9 613.6 609.2 600.7 589.9 581.8
285.3 286.6 290 295.4 300.8 304.1 306.3 308.4 307.6 302.8 289.7 282 279.3 285.6 288.1 289.3 288.3 285.5 281.4 274.2 266.6 264.3 262.9 264.1 264.6 264.5 265.8 264.8 262.5 263.2 246.6 245.8 246.2 248.3 258.1 265.8 262.7 261.7 266.9 274.6 284.5 289.1 295.1 299.6 305.7 308.7 309.8 312.1 316.9 319.2 319.1 320.3 320.3 321.5 321 322.1 328 335.4 340.9 341.9 338.9 332.2 332.1 338.8 342.3 342.8 343.6 362.1 377.8 395.1 410.9 427.7 443.1 456.6 470.4 472.8 466.4 456 440.6 422.3 404.8 385.5 379.5 369.9 356 343.6 327 316.1 314.1 325.2 332 336.8 339.9 343.5 350 358 365.4 370.7 374.9 374 372.1 372.2 373.6 375.1 376.4 378.3 381.5 383.4 385.5 389.5 396.3 400.9 405.1 409.7 414 419 424.3 430.9 439.6 449.4 465.6 482.1 499.8 520 538.1 555 568.1 578.9 584.5 598.7 624.9 649.7 670.4 684.7 697.6 705.8 712.6 711 702.3 685.8 673 660.3 643.9 621.4 596.6 570.8 544.7 520.1 499.1 479.2 458.4 440.5 425.1 414.2 402.6 395 401.4 412.6 433.1 439.9 432.7 413.2 419.4 434.6 444.1 450.8 458.2 466.7 477.5 493.7 508.7 522.3 536.9 551.6 565.6 579.2 596.6 620.9 646.4 663.3 674.2 678.6 679.8 675.1 666.6 659.7 648.5 642.3 634.3 629.1 624.2 619.8 615.9 614.1 615.8 613.9 607.5 598.9 587.6 579.7
290.5 293.6 297.9 304.7 308.7 312.9 316.1 316.5 313.8 307.6 293 285.3 284.5 287.5 290.4 292.7 292.4 290.5 286.4 279.5 269.9 265.4 264.1 263.9 264 264.3 264 264.7 263 260.7 251.6 246 246.2 247.6 253.7 256.6 257.8 267.8 273.6 277.2 286.9 295.8 300.9 306 307.5 307.3 307.1 307.5 308.8 309.9 308.7 308.5 309.8 309.7 304 304 314.7 323 328.3 327.3 321.8 313.8 313.9 319.5 323.9 326.5 348.1 360.3 373.9 390.1 406.6 423.1 437.3 452.1 463.4 463 457.5 446 428.3 412.2 396.2 383.1 373.3 364.4 350.6 337 322.1 313.6 313.7 324.9 331.5 335.7 340.2 344.1 351.8 360.9 368 373.3 376 374.8 373.9 374.3 375.1 376 377.2 379.8 383.2 387.2 389.3 392.7 397.7 402.7 407.3 412.2 416.6 421.1 426.8 434.8 443.9 455.8 471 488.2 509.2 530.5 550.5 568.9 583 597 605.7 616.1 636.6 657.4 673.5 683.9 694.8 701.5 706.6 702.9 689.7 673.8 659.7 648.4 633.1 611.8 587.6 561 535.8 512.8 490.6 470.8 453.7 434.8 420.2 410 396.8 394.2 406.5 423.7 434 435.2 423 409 423.5 436.6 444.5 450.5 457.1 465.1 478.5 496.1 510.4 522.1 538.8 554.2 567.7 581.8 603.1 629.8 653.9 666.4 674 681.9 679.7 675 667.2 658.8 647.5 640.7 633.3 626.5 621 616.6 615.4 613.8 613.5 610.9 604.7 595.1 583.8 576.9
297.1 300.1 304.7 311.9 315.6 321.5 323.9 322.7 318.4 310.8 296.5 287.6 287.6 290.7 293.5 295.5 295.1 293.1 289.9 285 276.3 267.6 266.2 265.7 265.9 265.6 264.8 264.7 264.5 261.5 252.2 244.9 244.9 245.6 251.3 253 257.8 263.9 273 283.6 289.4 296 304.7 306.8 305.4 303.1 300.3 300.1 300.2 299.1 298.6 298.3 297.8 297.2 292.6 293.6 302 309 312.6 310.5 304.5 298 302.3 309.6 324.3 336.2 345.8 356.4 368.9 384.3 400.6 416.8 431.8 446.6 456.4 455.7 448.3 435.2 416.6 400 386.6 378.2 367.4 357.6 345.9 330.7 316.3 310.8 311.6 323.6 329.6 334.9 339.3 344 353.6 362.6 369.4 374.3 375.6 374.1 374.2 374.4 375.7 376.8 377.9 379.9 385 387.9 391.8 394.8 399.6 404 409.2 414.6 419.3 424 430.1 438.1 448.4 459.3 477.8 495.7 517.7 541.1 561.6 579.8 597.6 612.5 622.4 635.6 648.4 662.4 674.9 684.8 692.3 697.7 699.8 696.4 676.7 658.8 645 634.7 620.1 599.7 575.7 549.7 528 506.1 482.1 463.7 444.7 431 418.9 405.6 392.6 398.8 414.2 423.9 430.7 428.8 412 411.6 426.9 436.7 443.9 449.9 456.2 465.4 480.1 496.3 509.8 522.3 538.8 555.3 567.9 584.6 611.4 636.5 655.7 667.8 678.6 682.7 679.3 674.3 664.4 656 643.7 637.5 630.9 623.8 619.6 614.1 612.1 610 609.4 605.5 599.3 588.8 580.2 572.4
303.3 307 312.3 320.1 325.3 330.3 329 325.4 321.5 313.1 302.3 290.9 295 297.3 298.9 300 298.5 297.3 291.8 287.1 280.3 273.6 270.6 268.6 267.1 267.2 266.5 265.8 263.7 260.9 252.1 245.3 245.3 245.9 247.3 254 257.9 261.3 268.3 280.1 287.9 293.8 299.3 301.2 298 295.2 290.8 290.5 288.5 283.9 283.7 286 286.2 284.4 282.1 282.5 286.5 291.6 293.8 291.9 286.7 286.1 301 312.3 322.9 333.1 341.7 351.3 364.3 378.2 393.9 411.7 425.9 440.4 449.2 447.3 436 423.1 405.5 390.1 378.5 370.8 361.1 350.4 340.6 327.8 311.8 309.7 315.5 322.7 328.1 334.2 339.9 345.7 356.2 363.8 370 374.5 374.5 373.7 373.9 374.6 376 377 378.6 381.1 385.5 389 392.9 396.9 401.7 406.6 412.1 417.9 422.4 428 433.2 439.8 452.7 464.8 484.6 504.3 527.9 549.8 569.5 590.3 606.9 624.5 635.1 646.6 658.4 667.5 675.4 684.2 690.6 693.7 693.8 686 662.9 645.4 631.1 618.6 604.1 585.8 561.9 538.6 519.6 498 477.4 458.1 441.8 427.7 415.9 401.4 391.7 399.8 411.7 421.3 425.6 417 404.5 416.8 427.8 436.4 443.1 448.7 456.2 470.3 480.9 492.5 508.8 523.1 538.6 555 568.8 592.5 614.2 640.5 657 670.9 681.5 682.3 680.8 671.5 658.9 649.2 641.2 635.6 628.7 622.4 616.8 612.1 607.1 603.7 600.8 596.4 590.5 581 574.5 566.9
309.7 314.6 321.3 329.7 334.1 335.6 332.4 326.3 322.9 315.3 302 298.7 300.7 301.3 303.8 303.9 302.2 300.8 297.2 290.6 283.6 277.9 270.2 268.8 267.4 270.1 271 270.5 267.3 256.6 247.7 246.4 246.3 246.8 246.1 248.1 256.2 259.2 263.4 270.6 279.7 287.7 294.8 291.8 288.8 283.8 277.7 272 265.9 260.9 263.8 273.8 273.5 275 272.9 271.1 272.5 276 277.2 275.6 276.4 285.4 299.1 309.4 319.3 328.2 336.5 344.4 358.5 371.5 388.6 405.5 420.1 434.2 440.5 436.7 424.8 410.9 389.8 378.3 368.1 361.1 353.5 343.9 333.6 323.6 308.2 308.3 316.8 322.3 327.6 334.2 341.2 348.7 357 364.5 370.1 373.4 372.8 372.8 372.9 374.1 375.1 376.4 378.9 381 386.5 390.5 394.9 399.7 404.9 409.8 414.9 420.5 425.3 430.8 436 443 456.8 474 492.2 514.9 533.9 555.9 575.4 597.4 613.9 632.3 641.8 654.3 663.5 669.4 676.7 683.4 687.5 689.1 684.7 672.3 648.9 633.6 618.2 603.3 586.9 569.9 547.6 530.1 507.7 490.5 470.1 453.5 437.8 424.3 412.9 398.5 389.3 400.2 408.5 417.5 419.6 404.5 406.5 420.4 428.9 436.4 442.3 449.5 458.9 470.1 478.9 491.3 505.5 519.4 536.7 554.7 573.1 594.3 618 640.2 658.8 674.5 679.6 681.4 677.7 664.5 653.7 645.1 638.5 632.9 625.3 618.4 612.7 607.3 600.6 596.5 590.5 586.3 580.5 573.6 568.4 562.2
317 325 331.9 338.1 340.1 339.4 334.2 326.5 321.8 316.5 304.1 304.8 305.3 306.9 310.7 310.4 307.1 305 301.3 293.9 285.3 280.6 271.3 267.8 266.1 265.8 265.2 264.5 261.3 255 248.3 247.5 247 246.4 246.7 246.4 256.8 258.8 260.1 263 269.4 275.5 278.2 276.7 273.8 268.5 256 257.1 257.8 258.5 259.1 259.5 260.8 260.5 261.4 261.5 261.9 262.3 263.5 268.3 271.7 277.8 290.9 303.3 314.1 323.3 331.9 339 352.3 365.1 382.4 400.1 415.2 427.9 432.5 424.6 416.1 401.6 379.4 365.1 359.2 353.9 344.6 336 327.2 316.3 306.9 309 318.8 324.3 329.3 337.2 345.6 352.4 358.5 364 369.5 371.5 370.8 370.9 371.4 373 374.3 376.1 378.1 381.2 386.9 391.8 397 402.3 407.6 412.9 418 423 428 433.5 439.5 447.7 466.2 483.3 502.7 521.3 538.2 559.6 579.6 600.7 617.1 635.8 647 657.3 665.3 670.4 675.4 680.6 682.8 682.1 676.2 657.6 635.9 622.8 607.4 593.1 571.6 552.7 532.2 515.6 497.6 480.7 462.5 445.9 430.7 421.1 409.1 396.1 387.8 398 406.2 411.2 409.6 399.4 411.8 421.4 429.1 435.6 442.3 449.9 458.5 467.8 477.5 488.9 501 518.5 537.4 553.4 574.9 597 615.7 641.6 659.9 672.1 678.2 677.2 668.7 657.3 650.7 640.6 633.8 627.5 620.8 615.2 609.8 603.3 596.6 590.3 582.5 575.3 569.3 565.1 559.5 554.4
328.7 335.3 341.3 344.9 344.9 342.7 336.2 328.1 322.6 317.9 310.5 312.3 313.8 316.3 318.4 316.8 312 308.6 304.4 297.3 288.9 282.7 276.5 268.6 265.6 262.9 260.3 259.3 259.5 257.1 249.1 248.1 247.4 246.6 247 246.9 251.3 258.9 262.3 261 258.2 259.7 262.7 258.9 254.1 255.3 255.8 256.7 256.5 258.9 259.3 257.1 258.3 259.2 258.9 259.4 260.4 261.6 262.6 263.7 266.2 266.5 281.2 295.3 307.9 316.8 326.8 336 346.5 361 377.2 395.9 410.2 420.9 423.5 417.7 408 391.5 373.9 358.6 352 344.3 336 328.2 318.3 309.3 304.5 311.4 319.8 325.8 333.1 342.4 349 354.5 359.2 364.2 368.5 368.7 368.3 369.1 370 371.3 373.4 375.7 378.8 382.2 387.7 392.9 398.2 403.7 409 414.7 420.5 426.2 432.2 438.9 445.1 459.8 474 491.3 508.4 523.9 541.9 563.3 582.9 601 620 635.7 646.9 658.8 665 669.3 672.5 676.6 677.6 676.1 667 642.6 625.5 614.5 599.2 582 559.2 540.7 517.8 504.3 488.2 470.6 454.3 439.5 427 417 405.4 392.1 387.5 395.3 402 403.4 395.3 405.3 415.1 421.7 427.9 434.5 441.6 449 457.4 466.3 475.8 485.5 496.5 517.2 535.4 551.3 572.8 598.6 620 641.1 656.3 666.6 672.3 670.6 661.3 651.1 644.7 633.3 628.4 624.3 619.7 614.1 608.2 601.4 594.8 587.5 579.2 567.3 557.2 551.7 548.2 548.5
