ncols 200
nrows 82
xllcorner 220000
yllcorner 760000
cellsize 50
660.9 664.9 667.1 663.7 662.1 656.8 653.2 653.7 653.8 651.8 648.2 646.3 635.6 619.4 613.3 605.3 590.1 573.6 554.3 535.3 522 513.6 504.4 500.8 493.3 489.1 482.7 476.7 473.7 471.3 469.2 461.2 455.7 444.7 441.2 441.1 436.9 431.7 427.5 427.1 427.1 424.3 417.8 416.3 415.5 413 412.3 411 401.5 399.1 390.2 374.8 372.8 372.1 372.6 372.7 366.2 365.5 361 349.9 350 347.2 340.4 340.4 340.4 340.4 340.4 340.4 340.4 340.4 340.4 340.4 340.4 340.4 343.3 353.7 362 367.4 372.1 389.2 407 417.8 440.6 459 461.5 453.4 444 439.5 432.8 426.4 426.2 432.1 437.5 443.1 451.4 463.6 477.6 491.9 507.8 526.6 541.2 556 569.3 586 606.4 624.2 640.3 654.1 665.7 682.2 699.8 714.2 732.3 742 754.7 766.4 776.6 782.9 774.9 746.3 720.6 684.7 648.5 627.6 600.9 579.9 545.1 518.6 508.3 501.6 492.6 484.9 475.6 470 464.5 459.8 460.6 455.1 452.4 450.2 447.4 447.3 447.3 448.7 453.3 457 461.7 465.3 473.5 481.9 485.7 490.8 499.3 504.6 512.7 520.3 530.6 538.5 542 548.2 551.7 548 551.9 549.9 541.8 539.8 537.8 537.4 537.5 541.3 540.6 537.2 535.6 530.5 524.2 515.8 505.5 492.8 479.3 456.8 441.4 434.4 418.9 403.1 390.7 380.3 373.5 369.1 366.6 366.1 365.3 364.6 364.4 371.5 386 394.9 409.1 422.4 432.9 445.1
628.9 630.3 627.8 625.6 619.6 618.1 620.6 623.2 623.1 621.7 612.8 603.1 589.4 584 570.8 568.2 558.1 541.9 522 511.3 504.6 494.6 489.3 484.9 479.9 476.4 472.1 469 469.8 462.9 459.8 456.5 449 442 435 429.3 426.8 420 413.5 414.7 413.3 404.8 400.6 401.1 402.6 400.2 396.1 390.7 390.2 377.9 367.7 361.9 361.8 362.6 365.3 363.8 355.1 350.5 341.6 341.3 340.4 340.4 340.4 340.4 340.4 340.4 340.4 340.4 340.4 340.4 340.4 340.4 341.5 351.8 359.6 369.6 372.5 383.2 394 411.6 426.2 446.5 466.9 470.8 467.9 457.2 452.7 446 439.7 433.3 439.9 442.8 447.8 454.4 463.7 476 490.7 507.3 523.9 538.6 553.2 567.3 586.2 599.2 617.7 632.8 649.4 661.3 673 687.8 702.4 717.1 730.8 742.6 754.5 767.2 775.6 779.4 772.9 741.4 715.4 684.2 647.3 616.7 600.8 583.4 545.7 516.1 504.4 496 487.5 478.3 471.8 466 459.3 458.2 457.5 452.8 448.6 448.2 447.3 447.3 447.3 447.3 453.9 458 463.1 467.1 472.7 481 487.3 494.9 500.5 505.1 511 520.2 526.3 536.9 542.3 543.4 544.4 544.1 542.3 540.7 535.3 536 533.6 531.8 532.5 533.2 532.4 529.7 526.1 520.8 512.6 502 492.7 481.6 468.3 449.7 430.1 416.3 404.2 393.9 383.1 370.2 367.5 366.4 364.7 364.1 364 363.2 369.8 380.4 394.1 406.8 420.4 434.5 451.4 465
595.6 592.8 596 594.9 592.1 589.6 587.5 581.9 577.3 568.6 564 560.5 553.7 540.9 539.5 534.7 525.9 508.2 497.4 489.7 483.9 478.7 476 471.5 468.9 465.9 468.6 469.6 462.3 457.4 453.8 452.4 449.2 440 432.2 421.4 419.5 408.2 401.8 397.7 394.5 388.3 387.3 389.9 388.3 389 381.9 374.9 366.3 358.7 353 352.7 352.9 352.9 352.5 346.1 340.5 340.4 340.4 340.4 340.4 340.4 340.4 340.4 340.4 340.4 340.4 340.4 340.4 340.4 340.4 348.2 355.1 365.2 379 382.5 394.4 402.6 413.9 433.1 449.9 469.2 476.9 479.8 469.9 465.9 458.9 455 446.1 443.1 448.8 455.5 456.4 464.9 475.2 488.9 506.5 519.1 532.6 548.9 562.3 580.2 595.9 613.6 625.6 640.2 651.8 665.7 677.4 689.9 705.8 719.5 730.3 739.3 755.3 763.6 771 775.8 760.9 740.4 714.7 683.3 651.4 611.9 597.3 580.7 553.3 521.5 502.5 492.7 483.4 473.9 468.9 462.3 458.6 456.5 454.2 448 447.5 448 448.6 449.2 447.3 450.1 454.1 459.7 465.5 471.1 475.4 482.1 489.9 494.4 500.6 505 511.3 517.8 524.1 532 537.3 537.6 543 542.2 534.3 532.5 530.5 529.3 529 524.3 526.9 526.5 524.8 520 517.6 511.3 501.7 491.3 482.4 471.3 454.2 439.7 421.5 405.3 392.1 381.4 370.1 366 363.4 363.2 362.9 363.5 362.8 369.1 378.9 391.6 403.3 419.7 437 452.1 471.2 484.8
564.4 570 570.3 566.5 564 559.4 547.3 542.2 537.6 531.1 524.6 521.4 518.4 520.8 507.3 500.6 490.8 481.7 474.6 471.2 467.1 463.6 462.8 460.8 458.3 462.2 463.5 463.8 454.9 451.5 447.9 444.2 439.6 434 429 414.2 402.1 398.4 390.3 386.5 380.9 378.1 377.6 377.2 379 373.3 365.7 357.4 353.2 345.5 342.2 342.4 345.4 343 340.4 340.4 340.4 340.4 340.4 340.4 340.4 340.4 340.4 340.4 340.4 340.4 340.4 340.4 340.4 341.4 353.9 361.3 365 375.9 380.7 398.3 415.5 429.1 435.8 456.5 487.8 498.6 486.2 481.7 477.1 471.6 462.6 459.2 457.2 454.6 456 463.6 467.5 474.3 488 501.8 518.8 529.1 544.2 557.5 574.7 590.7 610.1 622 631.6 644.6 658.4 669.1 681.8 691.8 705.4 717.6 728.1 740.1 749.9 760.5 767.9 765.3 758.2 736.2 704.3 679 647.8 624.9 587.7 575.3 562.9 529.9 509 491.6 480.6 473.7 465.1 461.2 457.3 453.4 448.9 445.3 443.4 446 450.1 448.5 447.1 450.7 456.1 461.1 465.8 473.1 475.4 483.7 490.8 496.1 499.9 506.9 512.5 519 522.4 531.9 537.3 537.6 540.1 539 527 525.2 526.1 523.5 521.9 519.8 518.5 521.5 518.8 512.9 507.5 498.2 490.8 480.8 469.1 457.7 441.9 428.1 411.1 396.6 382.3 372.5 365.2 361.6 361.8 362.7 362.9 363.1 366.7 375.7 387.4 401 420.1 437.8 454.5 473.9 487.9 507.4
538.2 539 535 537.8 532.2 520.8 516.4 508.9 507 498.5 494.1 497.1 490.6 484.7 479.7 472.2 464.7 460 456.4 454.9 454.9 455.5 453.4 454 456.5 460.7 463.1 453.5 443.4 441.3 437.3 433.3 429.5 427.8 420 409.3 389.8 384.1 383 373.5 370.2 367.6 369.2 365.3 366.7 358.8 352.4 343.1 340.4 340.4 340.4 340.4 340.4 340.4 340.4 340.4 340.4 340.4 340.4 340.4 340.4 340.4 340.4 340.4 340.4 340.4 340.4 340.4 345.4 354.9 363.1 368.9 376.1 383.9 400.4 417.5 439.9 459.6 475.6 485 502.8 499 499.3 490.6 483.8 476 475.4 468.7 463 465.9 464 471 478.4 487.8 499.7 515.6 526.7 540.3 552.4 570.5 582.4 601.9 613.8 625.6 638.3 648.8 661.3 672.8 684.5 692.6 702.3 714.9 723.1 732.2 745.5 754.2 757.9 759.6 754.9 734.2 697.7 672.9 655.5 624.4 583.7 569.1 562.8 539.8 514 493.6 476.4 466.6 461.7 453.6 451.1 447.7 444.2 441.9 439.1 441.9 446.8 446.4 447.9 452.7 455.7 461.3 466.5 473.9 478.2 484.6 490.7 497.6 502 509.2 516.3 521.6 523.1 525.3 532.9 534.3 537.7 533.5 523.2 519.3 518.3 518.2 516.9 514.5 513.3 515.4 510.4 502.9 498.2 489.8 480.4 469.2 459.3 445.2 427.3 414.2 399 384.5 372.1 366.4 362 361.7 362.7 361.9 362.4 364.9 373.5 386.4 399.7 421 439.3 460.5 475.2 495.3 512.5 529.4
509.4 505.1 497.6 492.9 485.7 485 484.8 479.3 478.2 478.3 471.6 466.3 460.2 454.4 451.6 448.9 447.6 445.3 443.5 445.8 447.4 447.3 446 452.5 454.8 454.7 447.9 438.8 435.7 430.5 422.7 416.2 415.8 411.1 407.1 396.8 390 374.5 367.3 364 361.7 361.1 358.8 358.1 353.2 347.8 340.4 340.4 340.4 340.4 340.4 340.4 340.4 340.4 340.4 340.4 340.4 340.4 340.4 340.4 340.4 340.4 340.4 340.4 340.4 340.4 340.4 349.6 358.1 361.4 373.7 379.9 388.8 405.3 418.1 438.8 467.7 483.7 495.1 503 505.9 507.1 508.7 500.1 490.5 485.3 481.4 474.1 473.7 475.8 474.8 481.3 489.2 497.6 514.6 523.5 537.8 547.2 567.2 577.5 596.9 608.5 622.1 631.6 640.8 652.7 665.6 674.8 686.4 693 700.9 706.6 716.5 729.4 740.3 743.9 746.6 750.4 746.7 739.8 696.1 669.9 655.7 623.4 580.2 560.4 554 542 513.6 496.6 480.8 466 458.7 453.6 445.2 442 440 436.2 436.3 439 441.8 445.3 450.8 453.7 454.3 462.3 467.1 471.5 478.9 487.4 491.5 499.9 506.4 510.6 518.7 519.1 518.7 521.8 526 529.8 534.2 528.4 521.8 513.4 512.3 513.7 512.8 510.6 504.8 507 501.7 493.6 486.6 478 471.1 460.7 449 434.2 419.5 402.4 387.1 372.5 366.3 361.1 361.1 361.1 361.1 361.1 364.8 374.9 383.4 398.1 419 436.4 458.1 480.5 510.9 517.6 534.7 557.3
482 475.5 468.7 464.1 458.2 455.8 454.7 459.5 462.9 449.9 444 437.1 433.1 431.7 430.2 431.2 433.5 433.1 435 434.9 441 444.9 447 449.3 446.9 439.8 434.5 431.9 427 420.7 413.9 405.3 403.1 393.8 389.8 383.9 379.4 371.4 358.5 359.1 356 353.1 351.1 346.8 340.7 340.4 340.4 340.4 340.4 340.4 340.4 340.4 340.4 340.4 340.4 340.4 340.4 340.4 340.4 340.4 340.4 340.4 340.4 340.4 340.4 341.1 350.9 363.4 380.3 382 386.1 391.7 411.8 429.3 444 459.8 478.1 499.6 515.8 515.6 514.9 519.1 522 504.2 496.2 490.5 484.8 480.5 483.7 481.6 483.6 489 499 512.7 517.8 531 542.4 557.9 576.2 593.1 605.1 613.3 625.5 636.1 642.7 653.7 664.4 677.7 685.7 692.1 694.9 699.8 708.1 720.8 726.7 731.2 736.1 739.4 738.8 735.9 705.3 671.1 652.8 616.9 580.8 554.9 543.9 538.5 516.5 492.9 479.3 464.4 454.9 447.8 443.5 439.2 434.1 433.2 435 438.8 444.1 444.2 447.8 452.7 455.1 461.2 469.8 474.8 480.9 484.7 492.6 503.9 505.1 512.5 515.4 518.2 520.2 522.6 520.7 525.3 527.2 522.2 512.7 506.8 504 507.9 505.3 507.5 499.4 497.9 491.7 484.2 475.8 469 459.9 448 436.9 422.8 407.5 392.7 377.1 367.1 361.1 361.1 361.1 361.1 361.1 364.7 376.3 386 398 415.6 433.6 453.8 480.5 503.8 531.6 549.4 565 588.6
459.5 454.6 450 439.3 435.2 436 440.3 437.6 431.7 422.1 415.2 412.4 409.9 411.9 415.5 418.9 420.4 424.3 424.8 431.8 439.1 437.6 435.5 438 432.3 429.1 426.7 422 416.5 410.6 402.4 395.6 388.4 375.9 372.9 367.4 365.2 357.4 352.7 353.7 347.8 342.9 340.4 340.4 340.4 340.4 340.4 340.4 340.4 340.4 340.4 340.4 340.4 340.4 340.4 340.4 340.4 340.4 340.4 340.4 340.4 340.4 340.4 340.4 347.9 355.5 362 378.2 386.2 394.8 398.7 409.4 433.6 446.1 462.2 477.5 498 520.3 524.5 521.1 533.1 543.7 528.9 507.1 498.8 492.9 486.2 491.3 489.2 490.1 491.6 495.3 510.1 519.8 528.1 536.2 551.4 574.3 588.2 597.6 607.9 616.3 627.7 635 647.4 653.8 664.7 674.5 683.4 688.8 689.6 691.1 704.7 710.1 710.6 718.5 725.3 728.3 726.8 723.6 707.6 683.7 647 620 585.6 554.8 537.7 522.4 512.8 496.2 476.1 461.8 450.3 443.9 438.2 433 432.3 431.2 433.2 437.4 443.2 444.6 447.9 450.7 456.2 460.1 470.4 476.2 479.3 486.1 491.5 499.6 503.2 512.5 512.9 515.2 518.4 523.7 518.7 518.6 518.2 511.2 505.3 500.4 498.5 498.5 497.7 499 494.3 488.9 483.5 472.3 464.5 459.2 448.4 438.8 426.7 411.3 398.5 380.2 368.5 363.1 361.1 361.1 361.1 361.1 366.3 377.6 388.3 400.9 419.1 434.1 456.2 472.8 500.1 529.3 549.2 570.2 584.4 601.8
434.9 431.6 423.6 414.3 418.6 416.2 410 410.4 404.6 398.2 392.4 391.1 395.8 401.5 409.7 406.6 409.8 411 421.5 432.4 434.5 429.5 427.8 430 426.3 419.8 415.2 412.6 406.5 401.2 393.7 383.3 369.9 365.9 363.1 358.7 352.6 350.5 344.6 344.1 340.4 340.4 340.4 340.4 340.4 340.4 340.4 340.4 340.4 340.4 340.4 340.4 340.4 340.4 340.4 340.4 340.4 340.4 340.4 340.4 340.4 340.4 340.4 352.1 359.4 367.5 377.4 388.5 398 406.6 415.6 434.3 449.7 466.6 480.1 494 511 527.1 531.5 534.1 541.5 534.9 521.5 506 498.7 494.9 491.7 491.1 492.2 494.6 497.6 501.5 517.8 525.1 534.8 544 566 577.9 587.6 598.7 611 619.9 629.3 637.9 647.2 658.1 667.6 672.1 679.4 686 683.6 687.1 696.8 698.6 698.3 707.1 715.4 720.2 715.4 711.4 703.9 675.7 643.4 622 585.2 555.2 532.1 517.5 506.6 488.3 472.2 458.6 446.7 441 433.4 427.7 426.8 429.5 429.3 434.2 438.8 442.1 448.4 451.9 457 461 471 476.3 480.1 486.5 491.7 499.8 502.1 506 506 510.9 513.3 520.3 511.5 510.3 508.1 499.5 497.7 495.5 494.5 490.7 490.1 489.3 485 475.2 471.1 463 454.5 449 441.4 429.6 418 405.3 387.6 375.1 365 361.1 361.1 361.1 361.1 365.5 373.8 385.3 399.5 417.8 431.2 452.9 471.7 496.1 515.6 542.3 564.4 582.1 596 611.8
417.9 407.4 405.1 406.3 403.4 397.4 391.2 388.1 382.5 375.7 374.7 378 392.8 405.2 401.4 395 393.1 405.2 414.4 419.8 417.3 415.9 421.5 420.1 414.9 408.5 402.2 398.5 395.5 386.4 377.2 367.8 362.6 357 353.2 349.6 344.9 344.1 343.2 342.8 340.4 340.4 340.4 340.4 340.4 340.4 340.4 340.4 340.4 340.4 340.4 340.4 340.4 340.4 340.4 340.4 340.4 340.4 340.4 340.4 340.4 342.9 349.3 357.6 364.7 378.1 388.2 396.1 405.4 413.9 432.4 453.6 466.1 482.6 494.1 510 524.3 530.2 533 538.2 530.5 519 510.1 504.2 500.6 495.1 494.7 495.1 497 500.3 505.6 514.4 521.8 529.9 534.7 550.2 570.6 578.2 587.5 603.6 613 619.9 627.7 637.7 646 655.3 665.9 670 678.3 682.3 679.1 680.7 691 691.6 692.8 701 706.7 705.8 711.2 706.1 695.4 667.3 638 618.7 588.4 555.8 533.3 506.2 492.9 482 465.9 453.8 444 436.8 431.6 425.5 426.4 424.7 431.9 434.2 433.2 438.5 446.8 452.1 457 462.8 468.2 474.5 479.8 484.6 489.8 495.2 498.8 505.1 503.1 507.5 510.1 512.6 507.4 507.1 498.8 492.1 492.6 491.1 487.6 483.7 482.1 479.6 477.1 468.9 461.2 455.4 446.1 435.8 430.4 422.8 411 393.9 381.5 370.6 361.1 361.1 361.1 361.1 364 371.4 382.4 392.9 407.5 427.4 446.7 464.7 483 507.4 529.5 549.9 570.8 586.6 602 615.8
395.2 391.9 388 389.2 384.7 376.9 371.6 365.5 363.6 361.8 366.1 380.5 396.7 401.2 388.5 385.9 390.1 398.2 406.3 408.8 404.8 407.7 409.3 410.5 405.2 397.2 394.1 391.7 384.7 374.4 366.8 361.7 362.5 353.3 348.2 341.3 340.4 340.4 340.5 340.4 340.4 340.4 340.4 340.4 340.4 340.4 340.4 340.4 340.4 340.4 340.4 340.4 340.4 340.4 340.8 341.4 340.4 340.4 341 341.9 343.2 349.6 357.8 365.8 380.8 386.6 393.5 401 411.3 427.4 453.8 470.5 481.5 493.1 516.3 529.5 540.8 532.8 530.4 533.5 521.4 515.6 503.9 503.8 501.3 496.9 496.5 497.3 500.7 506.1 512.7 522.7 523.6 528.9 542.3 559.5 568.2 576.7 592.5 606.7 611.8 619.1 626.1 635.1 648 652.9 661.6 670.7 675 675 674.5 673.1 673.5 681.4 687.6 691.3 694.4 698.4 698.6 704 683.6 659.4 632.7 615.5 588.4 551.6 528.8 502.4 484.3 472.5 459.3 448.8 439.4 432.5 427.5 422.9 420.8 425.7 428.5 430.6 434.5 439.7 448.5 454.7 458.5 462.1 466.6 473.9 479.9 482.7 490 494.6 495.9 499.8 499.6 501.4 508 509.7 503.6 503.8 497 486.3 481.7 483.7 479.9 476.8 476.1 470.8 465 459 454.3 442.4 438.3 429.6 420.3 413.3 401.3 387.5 377.4 366.8 361.1 361.1 361.1 361.5 369 378.7 389.5 402.3 418.2 435.3 456.5 476 496.7 517.5 537.2 556.5 572.7 590.3 605.3 620.2
379 384.1 374.8 366.4 364 355.5 351.9 352.1 353.2 360.8 371.5 382.5 388.6 383.4 374.6 385.5 386.3 392.9 392.9 394.4 396.6 402.2 404.6 398.6 394.5 388.9 388.8 378.2 373.6 368.9 365.9 359 354.5 347.6 343.8 340.8 340.4 340.4 340.4 340.4 340.4 340.4 340.4 340.4 340.4 340.4 340.4 340.4 340.4 340.4 340.4 343 345.3 347.4 349.8 352.1 352.8 350.2 345 345.8 350.8 359.1 368.2 378.6 389.7 393.4 401 407.5 423.9 445.1 463.3 483 494 522 535.8 546.4 550.6 537.6 529.8 525.2 518.5 507.4 504.5 502.9 494.2 493.8 500.4 499.6 503.5 509.7 518.4 524.4 528 536.7 549.3 559.1 566.5 579.2 592.5 600.8 608.2 615.5 625.3 635.7 646.3 652.6 664.9 668.2 665.9 666.8 667.3 666.2 669.1 671.1 678.8 684.3 686.4 683 695.1 686.3 674.6 653.9 629.3 609 586 564.7 527.4 496 480.6 465.2 454.1 444.8 436.4 428.3 423.6 419.9 417.6 421.9 424.6 429.3 433.1 439.7 447.3 451.3 455.8 460.8 465.4 471.2 478.9 483 488.6 492.1 495.6 496 493.6 498.2 503.4 502.3 499.9 495.4 489.2 481 475.3 477.3 474.2 472.1 467.1 461.3 455.8 451.9 445.9 437.6 427.7 419.9 411.1 403.4 392.9 381.7 372.1 361.1 361.1 361.1 361.1 365.8 375.3 386.5 399.8 409.8 429.2 449 469.6 487.7 507.2 525.3 542.6 563.2 576.1 591.4 606.3 620
372.2 365.1 356.7 351 349.7 344.5 344.6 350 360.2 369.3 377.6 377.8 373.3 369.9 372.6 376.6 382.3 390.8 395.3 394.3 394.5 391.7 393 384 382.4 380.1 377.5 373.1 372.3 368.5 359.7 357.5 349.2 346.9 343.4 341.6 340.4 340.4 340.4 340.4 340.4 340.4 340.4 340.4 340.4 340.4 340.4 340.4 340.4 345 349.4 351.7 354.5 357.9 361.2 364.1 362.9 354.5 352.2 354.5 357.6 367.3 373.6 387.2 396.3 399.7 408.4 420.7 437.5 456.4 477 486.5 508.1 530.6 544.6 556.2 548.1 533.5 522.4 520.5 511.9 500.2 505.1 492.3 494 496.4 495.5 500.8 505.8 514.6 521 526 530.4 539.9 547.5 557.3 565.9 575.9 589.4 596.1 606.7 610 623.3 633 643.6 652.6 656.6 657.2 658.4 659.6 659 659.7 661.9 666.4 671.4 675.4 672.5 679.7 680.3 679.3 667.4 650.8 620.1 594.6 583 561.9 527.8 500 477 460.1 448.7 442 432.7 425.4 421 418.4 416.1 419.2 422 424.4 430 435 442.1 448.4 452.9 458.3 464.4 470.2 475.8 481.7 485.4 487.5 493.2 494.9 491.5 494 492.7 492.8 492.8 489.3 478.1 474.1 471.8 466.1 465.3 463.8 458.3 454.4 450.2 444.6 437.4 428.4 422.4 409.5 404.7 397.8 387.5 377.2 367.2 361.1 361.1 363.1 362.8 369.4 382 397.6 410.8 422.2 437.6 457.6 478.4 494.6 512.9 531.1 546.5 562.8 576.2 592 607.2 620.5
350.9 349.4 343.4 342.9 340 345.1 349.7 357.7 365.3 371.1 371.9 365.8 366.9 370.7 372.1 373.7 381.8 387.9 391.2 392 391.3 388.6 387.1 386 385.5 385.8 383.4 378.7 376.7 369.4 361.8 353.2 346.4 345.8 344.4 341.9 342.2 340.4 340.4 340.4 340.4 340.4 348.2 349.4 347.9 347.2 346.4 349.5 351.1 358.2 364.1 365.5 372.3 380.1 383.3 381.4 377.9 374 366.1 363.9 365.1 376.1 383.7 389.5 397 407.5 417.8 432.1 443.4 466.4 481.5 501.3 518.2 536.9 548.9 553.4 537.6 522.6 517.1 513.6 499.6 498.1 497 495.9 492.8 495.8 497.8 500.7 507.5 518.3 521.6 524.5 531 539.8 548.2 554.9 569.6 578.2 582.9 591 602.9 614.5 623 632.9 639.9 645.5 646.3 649.2 651.9 652.2 655.1 653.1 656.1 658.6 665.6 666.9 668.3 671.6 669.2 668.3 666.4 649.8 613.6 586 568.3 558.2 528.9 494.3 470.7 457.3 443.8 434.8 429.5 422.2 418.1 414.1 411.6 413.6 420.5 427.5 428.2 434.1 439.6 444.9 449.3 455.9 462.2 471.1 475 476.9 481.9 484.6 487.2 487.5 486.7 494.7 494.3 486.9 487 481.7 472.6 465.7 464.2 457.7 455.8 455.2 450.5 447.2 445.7 436.2 429.7 422.4 414.8 409.7 399.8 391.5 385.3 375.4 364.8 361.6 361.1 366.5 368 376.7 393.1 404.7 422.6 434.4 451.9 466.9 482.3 500.9 516.3 533.7 548.9 563.7 575.5 592.1 604.4 615.1
343.1 334.6 334.2 339.7 347.5 351.6 357 358.5 361.1 362.9 363 369.8 372.6 379.6 382.4 381.2 384.6 390.9 394.1 397 399.4 397.4 401.3 398.1 395.4 390.4 387 382.9 374.1 365.2 352.6 347 346.1 345.1 345 347.5 341.3 340.4 340.4 340.4 343.9 355.1 355.6 356.2 354.6 359.9 358.6 366.1 369 373 378.2 390.4 395.4 405 403.9 400.7 396.1 387.3 380.9 377.9 375.8 378.8 387.1 392 397.3 410.4 422.9 435.7 455.7 471.8 487.8 513.3 523.9 533.7 538.7 538.9 525.7 516.1 508.9 503.3 494.3 493.2 490.9 491 490.8 488.8 495.2 500.6 513.3 518.7 523.3 525.4 534.7 546.3 548.5 552.8 561 574.6 578.2 593.8 601.9 612.1 617 631.3 632.9 637.1 639.5 640.7 643.4 641.9 645.2 647 648.1 657.4 660.8 659.4 661.5 662.8 672.1 667.7 661.6 650.7 622.4 590.9 563.4 539.9 526.4 490.6 466.6 455.5 444.1 431.7 424.7 417.6 414.4 410.3 410.2 413.1 418.2 424.9 427.9 434.3 435.9 443.4 446.2 451.2 457.5 464.2 469.2 476.7 480.5 481.3 484.1 483.7 485.5 488.1 488.6 482.5 481.8 479.1 467.8 458.1 456.9 451.5 448.2 442.9 436.5 436.4 429.9 427.6 423.3 418 408.2 403.6 397.4 388.8 380.1 369.7 364.7 361.8 368.5 369.6 372.5 380.5 399.8 417.6 430.4 446.6 458.2 473.3 491.3 504.3 519.3 535.5 547.1 563.7 577.5 590.4 602.2 614.5
328.9 336.4 340.3 348.1 353.4 352.7 357.9 365.1 366.2 373.8 376.5 385.7 389 396.9 402.1 404 403.7 412.8 413.4 413.4 411.1 408.8 409 405.1 399.3 393.5 386.2 379.6 368.4 357.2 348.2 347.1 345.8 346.1 349.7 347.4 344.5 340.4 340.4 345.4 350.4 356.1 363 363.1 371 378.5 374.9 377.3 383 390.7 393.3 398.7 405 411.7 415.2 415.3 405.6 399.3 390 390.4 387.7 387.9 387.5 393.1 396.8 414.3 423.5 437.6 451 470.8 489.3 511.2 525.3 531.3 529.2 523.4 511 505.9 501.5 498.7 488.3 484.5 482.2 486.7 484.9 488.3 493.5 500.8 508.8 518.6 522.8 528.5 535 545.9 549.4 554.6 567.4 576.4 579.5 589.2 598.7 605.8 615 622 625.3 629.2 632 634.4 635.4 635.2 636.1 639 648.8 652.2 651.6 651.7 650.2 656 670.3 671.9 663.7 646.9 618.9 599.6 569.3 536.7 506.6 490.6 464.8 454.4 442.2 430.5 424 418 414.2 411.9 409.1 408.7 414.8 420.5 427.2 431 435.8 438.2 445.3 449.7 454.8 457.5 465.9 477.3 476.3 481.9 484.4 483.5 482.8 481.9 482.1 481.9 473.7 472.7 459.2 451.3 448.1 444.7 435.5 434.8 428.6 423.5 418.7 418 414.6 410.4 403.1 400 392.7 382.6 371.9 364.8 361.8 363.4 369.1 372 377.1 384.7 403.2 417.1 434.2 449 464.1 479.7 495.6 505.9 522.6 536.4 548.7 563.5 576.5 589.1 599.9 610.1
333.3 338.6 346.2 357.5 345.1 373.2 376.9 384.4 392.6 396.4 398.8 405.5 410.6 417.5 420.7 421.5 427 428 427.7 424.4 418.1 415.5 413.2 408.9 402 391.5 381.8 371.6 361.1 351.8 346.9 347.3 346.8 351.9 350.7 349.2 340.4 340.4 347.1 359.4 366.1 372.1 373.5 374.4 388.3 392.6 389.3 391.2 396 403 407.5 416.1 417.7 419.4 421.2 421.6 419.3 411.7 402.3 402 395.4 391.7 389.2 396.2 400.1 409.5 421.8 436.6 452.4 466.4 484.7 502.4 525 514.9 511.9 503.3 496.6 493.8 493.4 486.5 486.7 475.5 475.5 482.5 477.5 482.8 491.5 502.4 514.1 518.8 527 531.1 539.5 543.9 549 557.1 571 574.3 581 587.3 590.7 601.3 609.9 615.7 618.1 619.8 621.7 622 625.2 624.6 630.7 634.9 645.1 649.7 644 644.8 643.3 657.6 659.5 653.8 648.6 632.5 608.3 594.7 560.2 540 505.6 483.2 468.5 453.5 441.7 431.2 422.8 417.7 413.2 410.3 410.1 405.7 412.6 415 421 430.3 430.9 435.1 443 444.7 450.5 453.6 460.9 467 472.4 479 480.4 477.4 477.2 481.9 476.1 474.7 469.9 459.5 451.7 443.4 441.1 437.7 429 422.3 421.4 413.8 413.1 410.5 406.6 402.5 398.4 394.5 384.8 375.1 367.3 363.3 361.8 363.2 367.7 374.9 380.8 391.7 410.2 423.3 437.9 457.2 473.4 486.1 496.1 511.1 524.1 537.4 550.7 562.4 574 586.8 595.7 608
338.8 350.8 357.4 339.1 366.7 377.8 385.7 391.2 397.2 406.3 407.4 412.2 420.8 429.2 435.5 439.3 440.4 440.9 439.2 430.9 423.8 418.9 414.7 410.2 403.1 389.4 378.8 366.7 357 347.6 346.6 343.8 346.5 350.8 345.1 340.4 346.6 354.3 361.1 372.5 383.8 384.1 384.5 394.2 404.2 407.4 408.5 418.3 422.5 430.5 430.1 435 436.8 441.8 444.3 440.9 434.4 423.3 412.6 405.7 401.1 394.4 394.8 397.3 405.8 414.2 422.7 433.8 450.7 462.7 477.2 483.1 499.4 500.8 492.1 485.8 481.7 479.1 478.7 478.7 473.9 471.2 474.5 470.9 473.2 481.9 491.7 508.3 519 521.5 529.9 534.4 539.5 542.2 553.9 561 569 570.6 575.5 583.4 586.8 595.2 600.5 607.1 611.1 609.6 610.2 610.7 614.2 618.7 624.8 633.6 639.5 639.4 640.2 639.1 642.6 648.4 652.1 650.7 652.5 641.5 604 575.9 557.4 538.1 507.1 484.1 470.5 454 440.1 429.5 419.7 414.2 411.1 407.8 408 403.8 408.2 410.6 417 424 426.2 432 436.4 440.4 444.5 449.4 458 466.5 468.2 474 476.3 473.9 475.6 476.2 468.2 466 467.5 458.2 443.4 434.6 431.6 428.2 424.9 417.3 412.6 409 402.8 401.2 399.2 394.7 391.3 386.6 377.4 371 366.2 362.9 362.2 364.3 368.6 382.5 387.8 401.9 414 430.9 445.6 466.4 479.4 491.8 499.2 513.2 525.7 537.3 549.3 559.7 570.5 582.9 593.3 603.6
346.9 346.3 332.1 356.2 371.6 379 390.8 403.8 408.7 414 421.3 425.7 430.1 440.1 444.4 444.7 442.5 438.8 438.5 437.8 430.7 423.5 419.3 411.5 396.9 387.6 369.7 359.2 348.8 343.3 341.7 343.5 342.5 343 342.7 344.5 351.9 363.9 374.1 381.7 390.7 389.7 402.6 408.4 416.6 421.4 428.7 433.6 439.2 449.8 454.6 458.2 462.6 463.1 461.5 456.3 443.1 433.3 424.7 414.6 406.7 401.4 403.8 401.1 411.6 413.8 420.3 433.4 450.7 458.8 462.5 467.9 471.6 477.3 476.1 473.2 471.9 469.9 468.5 470.5 466.2 467.6 467.4 468.9 474.1 479.6 492.6 514.7 518.3 523.4 532.1 536.1 539.4 548.3 557.2 561.8 568.2 572.2 575.4 581.5 582 590.3 596.7 602 601.1 599.7 598.6 602.7 606.8 613.1 619.7 621.5 624.2 630.6 638.6 637.8 640.5 641 652.5 646.7 652.4 635.8 608.4 581.3 550.7 532.1 511.5 488.2 469.7 453.9 441.1 428.6 418 411.1 407.8 403.4 402.9 400.1 403.4 407.8 414.4 418.9 423.5 427.8 429.9 436 439.3 445.4 453.1 460.6 462.5 471.5 471 468.8 471.9 467.6 465.4 458.2 453.5 443.1 431 425.8 424.2 418.9 417 412 404.9 399.2 395.2 395.4 391.2 388 383.2 379.7 373.8 368.4 368 362.9 362.3 365.3 372.4 381.3 391.4 409.3 420.3 434.6 451.2 466.4 481.6 491.1 503.7 511.8 524.1 535.9 545.5 555.8 566.2 578.1 588.8 601
317.8 332.3 355 366 374.9 387.5 399.3 406.1 411.7 418.1 423 427.5 434.5 439.4 439.8 439.4 439 440.2 445.2 445.4 435.6 427.5 417.1 404 394.9 382 366.8 353.8 345.6 341.2 343.4 343.8 339.2 339 343.5 355.7 363.6 375 380.2 389.4 394.8 407.6 406.9 419.4 427.2 433.1 445.6 462.6 468.1 466 472.3 480.1 479.8 476.6 476.4 472.2 455.1 443.3 431.6 423.1 416.4 410.9 413.2 411.6 411.4 419.4 423.7 430 442.3 448.5 449.9 461.9 461.7 461 463.3 463.9 461.1 462.1 461.1 463.1 459.1 461.9 459.7 468.9 473.4 482 497.6 512.8 517.8 525.4 534.4 537.9 539.6 554.8 556.1 561.9 570.4 574.2 573.4 574.4 575.5 584.4 592 591.8 588.6 589.4 589.1 595.5 602.4 606.8 614.2 615.3 611.9 630.8 630.8 636.3 634.1 636.6 645.1 640.9 636.1 634 609.6 576.7 548.9 525.2 504.5 491.4 478 462.5 441.2 428.7 417.9 410.3 407.7 403 400.6 400 402.1 405.8 410.5 414.9 419.8 425.4 426.6 429.9 435.9 441.7 451.2 453.7 459 465.4 464.4 464 464.3 463.9 458.6 450.7 442.9 432.2 423.5 417.1 413.2 411.3 410.6 406.4 402.2 395.5 389.8 385.1 383.8 383.6 380.6 380.2 374 368.1 364.3 362.2 363.2 366.4 373.6 383.7 392 403.7 417.4 433.1 449 460.1 475.6 492.1 505 514.9 525.4 535.2 545.6 554.6 564.8 574.5 585.2 594.6
334.8 349.7 359.7 373.8 384.1 392.1 399.7 405.9 415.5 419.6 425.3 418.4 424 431.1 436.7 438.1 439.7 446 447.8 445.7 437.3 421.2 410.1 404.6 386.9 376.9 359.3 348.4 341.4 340.8 343.4 341.9 336.6 342.2 357.8 363.2 368.6 381.6 395 401.5 410 411.4 419.6 424.5 436.5 455.5 471.1 484.1 487.9 489.8 491.2 490.9 490.6 488 484.5 480.4 466.7 450.8 440.5 433.8 424.2 422.1 420.4 418.5 417.9 422.5 426.8 431.4 435.7 440.2 443.6 453.1 456.3 453.5 455.4 453.6 450.9 455.3 456.5 455.3 452.6 453.2 461.3 469.4 475 484.2 500.6 511 519.5 524.4 537.7 537.5 543.3 549.6 556 564.6 571.9 571.5 571 571.3 572.7 584.8 587.8 580.8 578.7 578.7 582.6 589.6 596.9 604.1 609.2 602.2 601.3 614.3 623 630.7 624 626.3 628.9 629.9 633.5 623.2 605.6 575.6 549 520.4 503 489.6 477.5 462.1 444.9 427.1 416.9 410 403.9 401.6 397.5 397.5 399.4 401.2 404.9 410.5 416 420.1 423.3 426.7 431.5 438.3 442.2 447.9 454.1 456.8 454.8 453.6 455.9 459.5 449.9 441.5 431 425.4 414.9 408.8 403.8 403.7 404.5 401.2 396.8 391.8 386.2 381.4 380.1 380.8 379.3 378.8 375.8 369.3 363.4 361.8 362.9 367.2 376.5 387.5 398 411 421.5 437.7 454 466.7 483.9 498.3 509.7 517.5 525.9 534.6 541.4 551.8 561.8 570.4 580.3 589.1
340.3 347.9 362.2 374.5 387 398.7 407.6 411.1 414.8 414.4 412.5 416.8 421.8 429.5 434.2 443 447.5 447.2 444 436.9 426.3 414.1 406.7 393.8 381.3 370.2 352.5 347.3 341.8 342.2 338.3 336.4 340.8 350.6 361.8 364.6 372 391.2 397.5 409.3 413.8 415.6 426.8 438.6 454.5 469.7 488.9 491.6 503 510.1 510.4 505.4 499.2 499.2 494.4 485 471.7 458.6 448.2 440 431.9 425.9 422.9 420.7 420.6 423.1 426.5 429 432.5 436.1 439.1 440.2 443.3 445.7 444.7 443.9 447.7 449.7 448.6 448 445.9 452.6 459.7 466.1 476.3 492.3 502.7 511.9 518 523.1 536.8 538.4 543.2 552.7 563.4 564.1 567.6 568.2 570.2 572.1 570.2 579.1 580.3 572.7 571.5 571.6 576.7 584.2 590.7 594.1 598.3 590.2 592.5 609.7 618.2 618.8 620.4 621 625.8 627.1 630.4 619.5 597.7 578 550.8 517.2 500.3 485.4 474.5 454.3 439.5 426.5 415.8 408.9 401.2 399.9 396.6 394.9 396 397.6 402.5 406.8 409.7 416.4 415.8 419.4 425 432.5 439.6 441.7 448.1 447.4 444.2 449.5 446.5 445.5 440.7 433.1 425.9 417.1 405.8 399.2 397.3 397.7 398.5 393.9 390.2 383.7 381.1 378.5 377.7 376.6 379.3 377.6 373.8 368.2 363.1 361.9 362.7 368 380 393.6 403.9 417 427.9 442.2 455.2 471.3 484.4 500 508.9 517.6 525.1 535 542.7 549.3 557.2 566.2 575.3 584.8
341 354.1 365.9 375.5 382.8 388.5 395.3 399.8 406.7 417.5 422.7 429.1 433.4 436 444.5 444 439.2 438.4 436.9 427.8 417 409.3 398.5 382.4 376.9 360.5 347.7 343.5 342 340.2 336.6 338.7 342.6 351.2 360.1 371 383.2 392.7 402.2 407.8 411.5 425.4 436.1 447.8 464.7 489.5 499.3 503.2 514.6 518.3 517.6 517.4 518.6 510.1 502.1 493.9 483 468.9 458.3 448.5 438.9 434.5 428 425 422.6 421.7 425.8 426.2 427.9 432.8 432 429.9 431.6 437 435.5 435.9 443.2 442.6 437.8 439.5 447.1 452.3 459 468.5 483.9 494.3 506 511.5 516.3 524.5 532.4 537 544.3 555.2 555.4 562 566.6 569.1 567.1 567.9 569.1 573.7 570.3 565.5 562.7 567.7 571.1 581.6 586.2 588 587.7 583.8 591.4 601.5 607.1 614.3 620.6 620.1 620.9 625.7 624.7 611.9 591.3 563.9 541.7 511.8 490.7 481.3 466 456.6 455.6 424.2 413.6 406 399.9 396.8 395.8 391.9 393.8 397 401 403.7 407.5 410.9 413.8 416.7 422.8 430.5 432.7 435.5 437.2 437 435.2 437.1 435.6 432.7 425.9 420.2 415.2 409.3 400 392.2 389.8 392.3 388.8 387.9 387.9 381.6 378.9 376.5 375.4 374.9 376.1 376.5 374 369.2 362.8 361.8 364.2 370.4 381 394.4 409.3 417.8 427.6 443.5 462.4 471.7 488.4 500.7 511.4 521.6 529.5 537 544.7 549 555.5 561.1 568.7 579.3
350.2 361.9 373.2 372.1 373.6 380 392 403 417.3 422.3 431.7 444.6 447.1 448.4 455 448.2 443.5 439.1 426.5 416.2 410.3 398.7 389.9 377.6 369 355.2 344.5 336.9 335.8 335.6 340.4 344.7 349.1 353.8 361.7 373.5 389.7 392.5 397.6 408.4 427.4 433.9 446.2 460.6 485.7 498 502.3 510.2 509.3 511.5 513.6 514.9 517.6 517.6 513.7 511.5 498.8 480.9 469.9 456.3 449.9 441.4 433.8 429 426.7 422.2 424.8 423.1 422.8 427.2 428 424.3 428.2 426.5 428.4 433.8 436.3 431.9 431.1 437.7 446 451 460 475.4 485.8 493.2 504.6 511.8 517.7 530.9 532.6 538.5 552.1 556.8 554.9 560.7 567.4 570.4 565.7 567.3 570.2 567.8 563.3 557.7 560.1 563.2 568.7 577.4 579.1 581.8 577.3 580 591.1 600.2 601.9 615.8 620.8 620.3 619.3 621.5 616.7 610.9 592.7 564.6 532.4 507.5 487.4 469 457.5 441.2 436 417.6 409.2 401.5 396.1 393.1 392 391 390.4 395.6 396.8 400.4 404.5 409.4 412.2 413.9 421.1 427.4 429.7 433.7 431.3 429 426.7 425.3 424.8 418.6 414.8 411.9 405.3 400.9 395.9 389.5 382.6 385.9 384.5 382.9 379.6 375.7 374.7 373.8 373.6 373.4 374.5 374.2 376.1 372 362.3 361.5 364.9 371.6 383.9 395.2 404.3 416.6 428.9 445 460.5 477 488.8 500.5 509.6 518.7 528 534.9 541.7 546.6 553.1 557.7 564.8 571.9
336.5 354.7 363.7 372.1 379.2 390.5 399.3 414.7 426.7 434.1 447 452 452.8 452.3 446.7 444.5 437.4 432.9 427.7 421.2 410 399.2 390.1 373.9 360.4 348.7 338.7 335.2 334.2 346 352 355 349.9 353.9 364.8 375.7 386 390.9 398.5 416.2 437.2 446.7 455 481 491.1 494.8 503.8 513.2 514.7 514.4 518.4 524 525.1 522.9 526.6 523.4 509.5 499 480.5 466.4 457.6 447.1 441.5 432.6 427.9 424 420.7 418.5 420.8 423.7 422.5 422.8 420.6 424 427.7 428.3 426.1 423.4 428.6 436 446.5 450.8 465.6 479.1 486.4 493.3 503.7 511.8 517.9 528.6 530.8 541.4 552.2 555.3 556 560.4 567 569.9 566.4 568.3 570.9 559.8 554.4 549.1 555.5 558.2 562.7 569.8 573.3 572.6 571.8 587.6 593.5 597.8 605 613.1 615.5 615.3 614.2 612.4 611.5 606.5 587.3 558.6 527.9 512.1 482.3 464.5 445 430.5 419.2 409.8 406.8 398.5 392.5 391.2 391.4 388.3 389.6 391.1 393.2 394.4 398.6 404.2 407.3 410.1 416.7 424 422.3 426.4 424.5 422.7 420.1 415.8 414.2 411.6 406.6 409.3 403.3 394.6 390 387.3 382 380.3 378.8 377.3 369.9 370.9 371.2 372.3 373 374.8 374.3 376.8 380 375.2 362.8 362.1 364.2 371.4 382.3 394 407 419 434.8 449.6 466.1 477.5 485.6 498 508.4 516.1 524.8 530.7 536.2 541.7 547.6 553.3 559.4 566.3
349.2 358.8 367.7 384.4 401.9 409 415.7 423.6 430.4 438.3 445.3 449.2 451.2 453.1 457.2 453.8 445 435.2 430.5 426.1 414.6 399 383.3 368.5 357.6 346.9 337.6 338.6 343.6 347.2 351.4 354.7 362.8 360.1 366 369 378.1 388.8 406.7 425.3 445.5 457 477.4 490.2 499.1 505.5 509.5 509.6 512.5 519.9 526 529.3 529.1 529 537.8 532.7 519 506.1 486.6 474.3 462.8 452.9 444.8 436.8 429.8 426.7 422.7 417 416.8 420.6 417.6 418 419.2 420.5 421.9 421.5 420.5 418.4 425.9 435.1 446.2 454 469.6 478 487.6 494.6 501.6 509.9 521.3 530.5 530.3 544.7 551.6 555.3 556.3 563.8 569.1 571.7 564.8 566.7 571.4 553.2 542.1 545 550 550.5 554 561.9 564.5 568.5 575 583.8 589.3 596.7 605.8 607.9 615.1 611.6 613.2 610.6 614.5 608.7 590.4 570.1 543.1 507.2 483.7 462.2 446.2 432.4 420.1 408.9 401.6 396.3 390.1 386.5 386.6 384.9 386.8 387.7 388.5 390 396.1 398.6 401.4 405.5 410.5 415 416.6 419.4 420.2 416.9 412.9 406.2 402.4 403.4 400.5 396.1 393.5 391.4 384.2 381.5 377 378.4 370.8 369.6 370.3 375.1 373.2 375.1 376.1 376 375.2 376.7 378.3 373.6 365 362.3 366.1 373.2 380.1 389.8 409.4 422.2 434.2 453.4 471 478.3 488.3 496.1 506.2 513.3 521 527.7 531.5 537 543.1 547.7 553.5 559.8
351 368 387.4 399.5 406 413.5 421.3 431.6 439.1 445.7 450.4 457.9 459.7 463.2 462.2 453.1 441.7 429.4 421.7 415.2 409.3 385.3 372.5 361.8 349.7 342.3 336.8 338.2 345.9 345 349.8 365.9 372.6 374.3 382.4 380.6 380.4 393.2 415.5 431.8 444.2 478.1 491.6 497.8 497.5 508.8 516.9 519.6 521.5 525.6 527.5 529 531.2 548.1 548.4 540.8 530.2 509.2 492.1 480.3 469.6 459.7 447.2 441 434.5 427 423.8 418.9 414.5 417.4 411.4 412.6 413.9 415.6 414 416.4 416 416.1 426.9 435.4 446.3 458.7 467.1 478.2 484.9 498.7 501 510.2 529.6 529.2 540.1 540.7 550.9 557.5 562.8 571.2 570 567.1 561.1 561.1 557.4 545.1 535.6 540.2 541.1 545.5 552 552.3 560.3 567.5 570.5 579.2 589.7 591.4 596.8 597.3 596 598 605.7 614.2 609.7 588.5 572.1 560.8 537.4 508.7 479.9 458.1 442.9 429.9 418.3 407.4 399.9 391.7 386.4 383.2 380.7 380.4 383.2 384.6 386 387.3 391.4 394.4 397.7 402.9 403.1 410.1 410.6 412.5 412.4 409.5 408.3 400 398.3 395.9 394.6 389 388 388 379.8 378 374.6 370.8 371.2 372 373.6 376.5 379.1 375.2 375.8 376.9 378.2 376.6 374.9 369.6 363 363.1 365.8 373.6 381.1 393.6 407.4 421.5 432.3 454.1 468 474.7 484.6 497.8 505.2 513.3 518.8 523.1 527.5 532.4 537 542 546.6 553.6
367.3 387.2 396.7 403 410.9 413.5 420.3 435 440.9 446 451.8 455.3 461.2 459.6 451.5 445 434.7 422.2 414.4 406.9 393.3 375.2 364.6 353.4 344.1 340.2 333.3 333.9 334.1 343.9 352.8 365.7 375.1 380.6 384.7 392.9 389.2 408.8 419.2 425.5 451.7 480 487.9 497.6 511.9 522.3 522.7 529 530.6 528.7 529.1 541.1 545.4 552.3 553.5 549.4 538.6 514.4 502.2 485.6 475.2 463.8 454.4 446.4 438.5 429.7 423.1 418.1 414.4 413.5 409.3 406.3 409.8 407.7 409.6 411.1 409.1 415.9 426.2 435.3 446.6 459.4 465.9 474.9 483.1 491.2 499.7 507.4 529.1 526.9 532.2 541.5 555.5 557.7 567.3 573.3 573.4 565.7 559.6 554.1 545.4 537.2 531.1 531.9 533.4 540.1 544.4 547.5 555.3 563.4 565 577 579.4 582.9 587.8 588.2 585.5 592.4 596.8 602.5 584.6 568.4 554.8 547 530 508.7 473.5 453.8 439.8 426 416.8 406.3 397.5 392.6 384.8 382.6 379.9 381.4 382.1 382.9 383.3 385.7 385.9 391.3 395.9 400.3 400.5 401.3 404.3 404.9 405 405.6 401.9 395.1 393.9 391.6 391.2 387.6 385.2 380 375.4 370.7 367.1 368.6 377.3 379.9 382.1 383.3 383.7 382.5 377.8 381.3 381.7 379 376.8 370.3 363.2 361.4 369.1 378.7 387.6 398.1 413.6 429.5 440.5 453.9 463.4 473.8 483 493.2 501.4 508.3 515.1 520.1 524.3 528.1 534.3 538.1 543.3 547.1
384 391.6 400.6 401.3 400.7 404.4 413.3 419.4 430.2 440.8 449.7 451.2 448.3 447.2 444.5 436.8 427 418.6 408.7 394.3 376.9 367.7 355.4 345.6 339.9 332.7 326.2 334.9 334.1 340.4 347.4 365.3 377 388.3 391.2 389.1 401.1 411.8 423.7 434.8 451.5 468.9 489.8 507.7 522.1 528.3 529.3 531.6 529.7 530.5 537.9 555.2 553 556.6 556.1 554.2 545.9 523.1 507.1 492.4 485.4 473.8 460.2 447.4 436.7 428.2 420.7 414.9 410.9 409.6 406.3 405.9 399.9 401.6 402 404.1 409.3 415.3 425.8 435.9 446.4 453.1 463.6 473.8 480 487.3 496.6 508.6 521.9 524.5 531.2 540.5 561.3 560.6 561.6 568.2 576.3 567.2 558.3 546.3 534 529.5 525.2 527 531.1 532.1 534.2 539.5 549.7 556.3 560.3 566.1 570.4 571.6 572.9 573.8 572.9 571.5 573.7 572.7 564.9 549.2 536 514.5 506.4 491 466.1 450.4 436.8 421.4 411.9 403.5 393.8 388.2 384 380.3 376.5 379 379.5 381.1 379.8 382.3 383.8 387 390.8 393.9 395.3 397.8 396.9 401.8 397.4 394.5 393.3 390 388.8 387.9 387 388.2 383.3 374.6 368.3 365.4 365.8 373.3 378.4 383.9 385.1 385.5 385 385 378.4 380.9 380.2 379.9 379.9 374.6 363.8 362.2 370.2 381.6 394.1 403 414.7 433.1 445.7 458 469.7 478.2 485.4 492.4 499.5 507.4 514.1 516.9 521.6 524.3 526.1 531.3 536.1 542.3
389.3 392.6 399.4 399 394.1 396.2 403.8 408.4 420 433.6 442.7 443.8 448 443.3 439.2 435.4 413.6 411.1 397.7 381.2 368.2 360.2 350.2 343.8 334.5 324.5 334 334.7 334.1 338.7 351 366.5 387.5 384.8 385.1 394.4 410.7 430.8 431.3 447.2 460.4 476 494 510 522.5 525.5 529 530.4 533.4 536.4 551.6 552.9 555.4 558.9 558.2 561.3 547.6 530.2 514.1 499.4 490 474.4 460 445.4 435 426.3 418 412.3 406.3 403.8 405 399.3 395.5 395.9 393.8 400.4 406.9 415.1 423.1 431.2 439.8 451.6 461.6 470.5 475.4 486.4 496.5 512.9 519.2 522.6 530.8 543.8 557.9 557.1 557.5 571.2 572.2 558.9 549.6 534.7 529.8 520.9 518.8 517.3 522.1 523 530.8 534 541.2 548.1 550.4 550 555.7 555.8 559.6 564.9 559.1 555.5 552 553.1 538 523.6 511.7 494.5 481.8 469.7 456 442.6 432.1 417 408.3 399.9 391.6 386.5 381.5 378.7 375.5 373.3 373.1 375.6 378.2 376.9 382.1 384.1 386.5 389.8 393.1 392.6 392.8 391.4 392.2 390.2 390.2 384.3 379.9 378.6 377.3 374.9 372.3 367.9 364 364.7 367.6 375.1 384.8 390.9 385.7 386.9 387.6 384.3 382.9 380.6 381.5 381.6 381.4 374.4 367.4 362.3 370.8 383.9 396.9 405.2 420.5 431.7 441.2 457.2 468 476 482.2 494.6 499.2 506.1 510.5 513.3 516.8 519.8 521.3 525.4 530 535.3
378.8 381.2 383.3 379.1 390.5 390.9 396.2 410.1 409.9 417.1 426 428.8 428 428.4 429.9 413.4 403.6 393.4 383.7 370.1 365.4 349.7 340.6 341 330.1 331.4 329.6 329.4 337.3 346.4 359.5 376.8 379.5 383.1 390 403.9 423.5 426.6 441 452.6 466.8 480.5 492.7 509 516.2 524.9 527.4 531.9 532.8 545.8 545.8 550.6 557.7 558.1 563.2 561.3 553.2 543.9 526.3 510.6 495.7 470.4 456.5 443 431.9 421.8 414.3 408.4 402.2 399.5 400.2 393.8 391.5 388.1 393.9 398.9 404.3 410.8 417.3 426.5 437.5 452 457.6 467.2 473.7 486.4 501.8 518.1 522.3 527.3 531.4 540.6 552.6 555.2 555.8 561.9 560 556.2 539.8 530.2 523.3 516.3 515 513.5 509 517.6 520.3 525 532.7 538 540.5 533.7 536.8 536.4 538.9 546 547.6 541.6 528.6 516.5 502.9 500 485.4 472.3 462 450.2 442 431.9 420.2 411.8 404.3 398 390.2 385 379.7 378.9 376.6 370.9 370.7 374.2 374.8 373.2 377.4 379.7 381 385.6 388.5 388.5 388.8 388.5 385.3 386.3 383 379.3 374.7 372.5 372.3 368.8 365.8 364.2 365.6 366.6 367.6 379.9 389.5 386.1 383.2 384.3 383.4 383 383.4 382.7 380.8 381.1 379.9 369.7 361.5 360.7 370.5 380.5 396.7 408.6 420.2 430.7 444.8 452.8 461.1 470.7 480.6 485.3 495.6 500 504.3 505.9 509.9 512 516.2 519.2 525.4 531
359.8 357.1 354.2 380.1 383.8 388.6 397.6 400.4 402.7 403.8 409.8 413.4 413.8 416.8 407.5 402.2 384.6 378 372.4 361.8 353.8 343.9 336.8 332.6 323.7 325.5 326.2 333.7 341.7 350.6 369.2 371.1 377.1 390.4 399.6 413.2 420.8 433.1 448.4 459.8 475.2 485 497 506.7 514.7 523.5 525.9 526.7 539.4 543.2 544.2 556.2 559.4 563.2 564.1 558.6 559 547.4 528.5 518.8 494 465.5 453.2 440 428.8 418.4 410.4 404.7 400.7 395.6 394.8 390.3 385.7 388.7 392.3 393.8 398.2 404.1 413.5 425.7 438.3 445.9 455.9 465.6 476.8 487.3 512.7 520.6 521.2 530.5 533.7 543.7 550.7 552.8 559.8 567.7 564.4 551.5 539.4 526.1 514.5 511.6 512.3 510.9 507.2 508.6 510.2 516.2 522.8 528 521.9 524.3 522.7 521.1 522.1 522.5 519.4 515.5 504.1 493.1 481.3 477.5 461.2 453 445.9 439.1 429.6 421.1 414.4 407.1 397.9 394.5 387.5 381.5 379.7 378.2 376.5 371.4 368.7 371.7 372.3 375.6 378 379 380.3 384.1 387.4 389 387.2 384.5 382.4 377.4 378.7 374.7 371.6 368.7 365.5 362.3 364.5 368.9 368.2 369.7 370.4 382.1 386.2 381.4 380.6 382.2 378.8 383.2 382.1 382.9 381.1 379.9 380.5 368.8 360.4 361.2 367.8 376.7 391.4 406.2 417.1 427 438.8 447.9 456.3 470.8 475.7 483.4 487.9 494.2 498.7 500.8 504.3 505.7 507.6 511.1 519 526.1
332 334.7 357 371.1 371.7 375.5 386.5 395.8 395.7 394.5 401.3 408.1 406 404.4 395.8 385.6 372.9 370.7 366.7 353.9 348.2 338.7 329.4 320.7 312.5 320.7 326 341 351.1 362.1 362.9 376.9 387.1 395.4 402.9 415 428.1 444.7 454.6 468.2 483 491 498.8 508.4 511.7 516.7 516.9 531.2 535.5 539 549.5 555.1 559.8 566.2 564.9 567.2 560.1 546.3 519.7 506.4 486.2 459.3 448.1 436 424.9 414.4 406.9 402.6 396.4 393.3 389.1 385.3 381.2 385.7 385.6 388.2 393.3 404.7 412.6 420.6 432.5 443.1 453 467.4 480.2 495 512.8 517.7 522.3 528.8 532.9 545.6 550 552.1 559.8 560.2 555.4 543.7 535.1 523.3 510.5 507.4 507.1 503.3 500.5 498 504 514 515.2 512.9 515.5 519.9 517.2 513.2 505 496.6 497.9 493.6 484.1 472.9 460.9 453.9 445.6 439.5 435 429.6 420.2 415 407.8 400.5 396.7 387.4 381.4 380.1 378.8 377.8 373.8 371.1 368.4 370.4 371.5 375.8 376 376.7 378.4 381.5 382.3 380.6 383.8 382.9 381.2 376.8 372.9 370.1 366.9 362.8 361.1 362.2 366.1 371 371.1 370 374.1 375.2 377.7 373.9 374.7 375.7 375.4 377.7 380.8 382.1 379.1 378.5 379.1 367 356.8 361.5 369.2 377.1 388.1 401.8 412.2 425.2 435.7 442.5 455.9 463.5 468.6 478.5 482.2 487 489.6 495.7 499.6 500.5 502.6 505.4 511.5 517.1
320.3 338.2 340.3 348.3 355.4 369.2 385.4 389.8 386.6 387.1 391.1 389.7 398.5 393.1 388.6 368.3 364.9 362 351.8 350.8 343.1 325.5 313 305 299.4 311.8 323.9 345.7 356.1 357.3 367.5 386.7 393.5 398.8 409.5 419 432.2 448.1 459.8 471.9 487.8 497.8 499.8 503.1 507.4 516 531.2 538.2 541.3 549 555.9 555.9 562.8 564.2 569.5 568.4 556.7 541.7 525.8 493.1 469.7 455.1 442.9 431.4 420.6 411.1 402.5 399.6 393.6 389.9 383.6 381.5 377.5 382.9 378.4 382.2 390.2 400.1 410.3 417.2 429.3 439.9 453.8 467.5 478.7 502.3 509 510.3 517.4 520 539.9 546.6 549.7 557.6 561.3 560.1 553.6 542.6 530.8 516.2 506 502.7 498 495.1 490.5 491.7 499.6 506.9 503.1 506.7 507.6 508.7 506.1 501.2 494.6 484.4 478.6 473.4 464.5 457 446.6 438.1 435.5 432.2 428.8 419.5 414 409.7 401.8 393.1 385.9 381.8 378.9 379.2 377.7 374.2 370.1 370.2 368.3 367.2 370.4 374 376.8 376.1 375.4 379.5 377.6 377.6 377.2 380.4 375.9 370 366 365.1 361.8 361.2 365.2 365.2 367.9 370.1 370.6 372.3 373.5 372.4 370.3 371.8 369.7 371.4 372.4 375.1 374.8 376.5 379.1 374.2 375.9 361.4 357.6 360.8 369.4 378.6 389 402.1 412 422.4 433.8 440.4 449.9 458.3 466.6 472.8 476.5 478.9 483.1 488.5 491.6 494.6 498.7 500.9 507.2 511.2
312.2 319.5 328.6 332.1 342.2 361.3 374.7 376.5 380.7 380.5 372.9 375.7 385.5 380.8 363.8 356.7 349.8 345.5 338.9 344.1 326.4 309.7 287.4 281.2 293.3 296.3 325.6 338.5 346.5 359.5 376.7 387.9 400 405.2 411.1 425.7 439.1 454.6 468.8 481.2 492.8 498.7 504.5 504.5 511.5 523.7 532.6 537.7 544.4 553.5 555.4 561.4 562.8 565.4 567.5 564.1 554.7 531.1 514.2 490 464.1 449.7 436.8 425.6 416.7 406.7 400.5 398 393.4 385.8 379.6 374.9 373.7 376.4 376.6 381.6 386.5 395.9 404.2 414.7 424 440.4 455.2 462.9 490.3 496.4 499.1 502.8 509 520.6 537.5 544.9 552.7 559.9 564.1 560.7 549.7 537.8 523.3 510.7 504.4 499.4 492 487 486.5 486.5 487.9 492.6 495 497.5 493.3 497.8 494.8 489.6 484.1 474.3 463.8 457 449.2 442 434.3 428.3 422.4 420.8 419.8 414.4 406 401.2 395.2 392.4 390.2 383.7 379.4 377.7 376.2 377.5 371.2 368.6 370.3 367 369.7 373.2 375.8 378.9 375.4 374 375.7 374.2 372.9 372 369.4 365.6 366.4 361.6 362.4 365.6 367.6 368.6 366.8 367.5 371.4 373.6 374.6 371.7 368.7 366.1 366.8 368.6 371.1 371 372 372.8 374.1 372 367.8 356.4 356.2 358.9 367.7 377.9 390.4 403.1 411.1 418.9 426.4 438.6 445.7 453.1 461.4 467.9 469 471.8 476.6 480.8 486.5 490.6 493.1 496.3 501.6 508.3
299.4 301.5 305.4 324.7 339 355.5 361.5 363.9 362.5 353.2 357.3 367.4 372.5 363.5 358.3 350.6 344.5 333.3 328.1 319.8 310.2 287.3 257.7 283.8 286.8 294.6 317.2 331.8 351 366.2 378.4 391.2 400.6 406.8 418.6 431.7 447.8 463.9 473.8 487.9 496.1 499.8 503.7 506.1 509.6 519.2 525 537.9 548 551.1 560 564.9 568.9 570.1 565 559.8 537.7 522.8 504.5 480.6 456.8 443 430.9 418.5 412 403.2 397 398 388 382.6 375.7 371.9 368.1 368.8 372.8 379.5 382.4 390.8 403.5 415.6 426.6 441.7 447.9 470.5 477.8 487.6 490.9 499.1 508.2 521.2 539.1 545 553.1 559.3 558.8 557 543.5 530.3 517.7 507.3 501.6 494.1 487.8 484.8 481.7 480.8 483.3 482.5 490.2 487.8 485.7 482.9 480.7 478.5 468.3 461.4 453.9 446.3 440.4 433.8 428.6 420.7 413.9 414.2 410.8 407.6 402.1 397.6 391.6 388.3 386.5 382.1 376.6 375.7 372.5 372.2 370.3 371.4 368.6 365.6 367.5 370.3 376.7 376.8 375.8 376.4 372.7 374.3 370.5 366.7 363.1 360.9 364 365.7 368.8 371.4 371.8 369.1 362.8 364.3 368.6 372.2 366.9 363.7 363.6 362.8 364.9 367.8 367 367.5 368.8 368.9 369.9 368.7 361.6 356.1 354.7 359.9 366.8 376.7 388.4 401.7 406.6 415.6 423.7 430 442.1 450.8 455.7 460.2 463.8 467.3 470.3 476.4 480.7 486.3 489.4 491.8 497.1 502.4
269.8 278.4 287.5 302.5 319.4 335 345.6 344.4 337.4 341.3 362 369.7 361.1 347.5 345.2 339.6 331.7 319.6 312 309.8 292.5 263.1 257.4 271.7 271.2 295.9 313.8 331.3 353.6 370 383.4 391 399.1 408.2 418.5 430.6 449.1 465.8 480.1 489.2 496.7 499.9 503.9 511.2 512.7 519.4 520.5 535.4 542.8 552.1 558.1 564 565.5 564.9 560.6 554.2 524.4 508.2 491.4 469.8 452.8 438 425.5 413.8 405.7 400.2 394.4 389.8 383.1 376.6 371.4 368 364.7 366 369.9 373 380.5 392.1 398.4 411.5 425.3 433.4 451.2 458.5 472.3 478.2 486.6 490.4 501.8 520.4 530.9 543.5 552.3 552.5 553.3 549.2 537.7 524.3 512.1 503.7 501.4 487.8 483.8 479.6 470 474 475.9 476.5 478.3 479.9 474.5 472.7 471.3 465.9 456.4 450.8 444.1 437.1 430 427 420.8 411.7 408.6 404.7 404 401 396.8 388.7 384.5 381.1 381.3 377 373.4 374.6 372.1 371.4 371.6 372.7 370.3 365.3 364.7 368.1 372.5 372.5 372.5 373.2 372.8 369.6 365.4 358.8 357.7 362.7 364.1 369.3 372.1 372.6 369.2 365 361.5 362.4 367.1 367.4 363.2 362.7 363.7 362.8 363.4 364.1 364.1 364.3 364.8 365.4 367.6 365 355.3 351.2 356 360.2 368.3 376.7 382 390.1 400.8 408.8 418.7 427.7 435.8 445.3 448 452.8 457.1 460.8 464.6 470 476.3 480.7 484.8 486.4 491.9 499.7
249.9 256.5 274.4 285.9 298 314.2 321.1 315.6 321.1 345.4 360.1 352.8 338.5 331 325.6 319.8 312.3 310.6 305.7 293.2 276.3 246.4 245.6 257.4 254.3 281.8 315.5 339.1 356.1 373.4 386.2 390.9 400.4 407.7 421.2 433.8 451.5 468.4 477.8 489.7 495.7 501.1 509.4 511 522.6 525.9 524.4 530.1 539.3 547.5 552.5 558.4 559.8 558.5 557.1 546.3 507.3 493.5 473.8 459.9 443.6 429.7 420.5 410.4 402.8 393.3 388.5 384.4 378.7 373.1 367.8 361.7 359.9 362.1 364.6 371 379.2 387.3 395.9 409.1 419.6 434 443.4 453.9 461.7 468.4 473.9 488.5 500.2 513.6 525.4 543.6 544.7 545.7 548.2 542.8 533.4 520.6 509.7 503.5 494.5 481.1 480 470.4 463.5 466.7 467.3 466.5 467.7 467.9 464.9 462.3 461 457.9 450.2 441.3 435.2 431.3 421.1 418.6 410.3 402.5 398.8 396.2 395.1 393.8 387.7 384.8 382.5 377.6 377.4 374.2 372.3 370.2 371.6 371.9 374.1 372.7 365.5 363.6 367.3 370.1 374.2 372.7 370.5 368.8 367.8 362.7 357.6 356.7 358 358.8 362 365.8 365.5 362.2 360.8 361.8 360.6 360.6 361.4 362.1 362.8 363.1 362.3 364.1 361.8 362.1 362 361.9 361.7 363.7 362.8 358.9 350.2 352.2 354.3 360 367.7 374.4 381.1 388.2 394.3 406.1 414.3 423.6 429.6 435.5 442 445.3 449.2 454.9 458.1 463.7 471 477 480.1 483.9 491.6 497.5
213.6 240.2 252.2 255.4 266.3 274.8 272.4 284.1 314.2 338.8 341.8 332.4 321.9 310.9 295.4 293.6 300.2 294.5 292.7 279.8 263 251.6 237.1 213.4 220.9 282.1 329.4 351.7 359.7 373.7 385.9 403.8 406.7 415.8 432 446.1 454.5 469.4 473.8 486.3 498.1 506.3 507.7 515.6 522.2 524.8 524.4 526.6 533 539.7 547.7 546.9 549.7 559 548.4 530.5 498 477 459.8 446.2 432.4 424.4 412.6 406.2 395.1 387.7 383.3 377.7 373.8 370.1 366.5 358.9 355.9 358.9 361 368.7 373.6 383.1 394.8 406.3 417.5 428 440.8 447.6 450.3 456.8 473.6 486.2 497.5 506.9 525.8 532.7 537.2 539.7 538.8 537.5 530.3 517.1 512.5 498.6 491.9 481.9 475.5 469.8 460.8 458.9 461.2 461 457.5 456.5 457.3 457.4 453.5 446.9 439 433.2 426.6 419.9 410.3 404.7 398.6 394.5 392.8 387.9 385.7 381.2 380.4 381.2 377.4 375.1 375.8 375.9 373.9 372.1 371.2 370.9 371 368.6 364.1 362.3 366.5 368.7 367.4 368.2 369 364.2 359.9 357.5 357.1 356.3 356 355.6 357.2 362.3 360 358.5 358.6 359.3 359.6 359.9 361.7 362.5 364.2 362.4 361.6 363 362.1 361.9 361.6 361 360.7 361.2 359.2 351 348 351.7 354.7 358.9 364.7 371.3 380.4 387.4 393.4 403 412.5 417 424 427.3 433 439.1 445.8 448.8 455 459.3 464.2 471.6 474.9 480.2 489 497.1
188.1 209.8 223.5 226.4 231.2 227.5 257.2 282.9 307.3 315.1 312.9 310.2 302.8 288.6 279.8 289.3 284.9 286.7 275.2 258.8 250 237.3 231.1 202.3 234.8 291.8 329.1 357.5 366.7 380.9 393.8 406.6 418.6 432.3 445.3 457.7 469.3 471.3 475.2 489.3 497.3 501.5 507.1 513.9 519.8 520.4 519.3 522.3 531.3 539.9 543.8 541 550.5 548 529 513.3 491.4 466 448.8 437.8 422.4 413.5 407.7 396.1 388.8 383.7 377.6 370.6 366.2 364.3 358.1 355.2 355 354.9 358.3 363.2 369.7 380.1 393.4 403.9 419.5 430.1 434 438.9 445.6 454.3 468.4 479.6 486.9 501.9 514.7 520.7 518.6 528.9 526.6 528.9 521.1 518 508.6 497.2 485.6 475.9 469.6 467.2 459.9 450.5 454.4 449.7 448 450.7 446.4 447.7 445.4 437.2 431.9 423.8 416 406.7 403.3 396.8 393.1 388.6 387.7 384.4 375.9 373.4 373.5 377.3 372.9 373.1 373.9 374 372.5 369.6 373.5 368.3 366.4 366.5 365.2 364.8 365.5 367.4 363.5 363.1 363.7 358.3 356.2 358.6 357.9 358.1 357.8 355.4 356.8 358.2 357.6 357.8 358.3 361 361.4 361 364.7 363.2 363.7 362.7 362.1 361.4 363.5 361.6 361 360.5 360 358 355.5 348.2 347.5 350.9 354.1 356.8 364.1 368.6 375.2 384.4 392.9 400.7 407 413.1 417.8 423.4 426.5 435.1 439 445.2 451 456.1 460.3 464.4 473.1 481.5 487.3 495.6
153.8 173.4 192.5 202.1 189.7 218.4 237.5 262.2 280.5 290.3 290.8 294.8 289.4 275.9 275.6 284.4 280.3 262.2 250.6 237.9 223.4 218.5 198.8 210.8 258.2 292.3 327.7 354.4 378.5 385.6 400.5 413.6 428.3 442.3 449.2 465.6 471.7 471.4 479.6 483.6 489.7 495 500.5 507.2 510.3 511.4 516.4 523.3 529.8 537.1 535.6 540.7 546.1 527.7 510.9 494.9 474.3 453 443.7 428.7 416.1 405.1 394.6 389.2 386.3 379.7 372.4 366.1 361.4 355.7 352.9 351 348.1 350.9 354.5 358.6 371.5 379.4 392.5 402.5 416.4 419.8 429.1 434.9 437.9 450 461.7 471 486.5 493.9 502.4 505.3 510.7 514.3 514.5 513 515.9 511.3 506.4 492.2 479.5 473.2 469 459.7 450.6 448.5 442.5 440.2 441.4 442.2 438.6 438.3 434.4 427 422.1 416 406.3 401 393.6 392.7 390.7 387.6 382.2 377.5 372.1 369 368.5 370.4 371.3 373.7 374.2 370.5 368.7 370 370.2 364.8 364.9 364.8 366.6 360.8 361 365.3 361.3 360.6 354.7 354.2 356.3 358.7 358.3 359.6 359.7 357.9 355.4 357.8 357.4 357.5 357.8 361.5 362.1 362.6 364.8 364.6 365.3 363.2 361.3 362.7 362.3 361.1 360.5 360.6 357.8 356.9 354.3 350.9 347.5 350.1 352 355.3 360.5 366.6 373.2 381.1 390 398.6 404.5 408.5 413.7 418.2 423.2 425.5 432.4 439.1 443.6 449.4 455.2 461.3 468.2 478.4 486.4 493.8
139.4 140.3 160.6 172.5 181.9 201.9 218.5 240.5 259.4 269.1 277.8 275.1 273.8 274.3 272.1 272.8 260.3 242.7 227.7 207.3 202.6 173.4 198 233.4 263.9 307.7 333.1 362.3 387.1 389.9 412.1 426.6 440 446.8 452.8 459.1 466.9 472.4 480.5 477.8 484.4 486.9 491.1 498.5 503.3 509.7 519.9 526.9 529.7 522.8 529.9 538.7 536.7 511.6 494 475.7 455.7 442.3 429.7 418.3 406.4 397.9 389.2 383.9 378.7 373.3 368.1 359.9 355 350.6 350.3 343.4 347.1 346.7 349.9 356.2 367.3 379.6 389.6 402.7 403.6 415.4 423.9 425.8 432.9 445 453 466.2 475.8 486.8 489.3 489.2 499.7 508.6 503.2 498.6 501.1 502 493.7 482.9 475.1 468.3 463.3 449.7 445.9 442.5 436.9 435.1 433.1 433.7 430.3 428.3 423.1 417.9 414.2 408.5 401.5 401 390.5 385.7 383.1 380.6 379.6 372.5 369.7 367.5 365.8 369.3 370 370.7 367.3 365.8 370.1 369.8 367.1 364.9 366 367.1 365.1 362.8 362.5 353.5 355.6 353.2 355.9 353.8 355 358.3 359.9 358.8 357.5 356.6 355 357.6 359.1 359.5 359.8 360.5 361.4 362.1 362.9 364.4 364.8 363.5 360.4 362.9 361.8 361.1 359.6 359.5 356.6 354.6 353.4 350.7 346.7 349.3 352.4 355.3 359.2 363.8 369.5 378.3 386.5 396.3 401.2 404.6 408.7 415.2 418.6 422.6 428.8 433.3 434.9 445.2 451.3 459.8 469 475 484.6 491.7
118.6 129.4 139.4 146.9 168.4 188.6 200 207.6 223.3 228.9 233.5 241.9 256.4 262.8 256.5 253.5 238 224.8 209.9 171.8 145.5 183.5 214.4 241.8 273.9 313.4 342.5 366.5 383.6 395.3 415.9 433.2 438 455.2 461.4 461.1 465.9 471.9 468.7 467.5 476.3 481.2 485.9 489.6 501.5 506.1 517.2 521.8 516.3 517.7 532.3 538.7 527.4 500.2 476.2 458.5 442 431.9 418.3 406.3 396.1 389.5 383.2 378.2 372.7 366.9 360.7 355.9 351.3 347.7 345.4 342.3 344.1 344.7 350.7 355.9 366.3 376.5 388.4 392.6 401.9 411.9 411.6 417.4 428.7 437.2 445.2 454.7 464.6 478.6 479.7 477.6 491.8 490.3 488 487.9 498.7 495.4 486.2 478.8 468.7 462.3 450.7 442.3 442.1 443.3 432.9 423.7 421.4 422.6 423.9 419.7 414.9 411.9 408.9 404 398.2 393.4 385.3 380.9 378.7 378.4 375.1 369.8 365.3 363.9 364.1 367.4 369.1 366 364.1 364.2 367.4 366.1 365.5 367 366 365.6 365.8 361.1 357.1 353.7 350.4 355.1 352.4 353.3 355.6 356.9 359.8 359.5 355.5 355.5 354.8 356 355.9 358.4 357.9 360.9 362.2 361.5 362.9 363.1 363.1 360.6 360.1 361.9 361.3 361.3 360.8 357.8 355.7 353.8 353.4 349.8 346 346.9 352.7 354.8 358.1 361.6 369.8 378.1 384.1 393.7 396.8 403.6 409.4 411.2 415.5 420.7 426.3 428.5 435.3 440.4 449.5 456.8 465.2 472.1 479.5 485.3
111.2 118.7 126 133.8 143.4 161.1 170.7 177.5 187.7 197.7 215.2 232.2 244.3 250.4 245 232 218.9 203.4 175.9 143.4 170.7 197.5 224.4 250.7 283.3 318.3 347 371.7 390.3 404.2 416.5 427.1 440.3 448.2 451 454.8 463.4 460.9 457.3 463.3 472.5 483.2 486.3 488.7 496.2 503.1 511.9 510.8 509.6 514.7 520.4 525 515.5 481 461.3 444.8 428.2 418.3 402.2 393.2 388 384.9 375.8 374.3 366.5 359.6 357.9 352.8 347.9 342.8 341.7 341.3 338.7 345.6 350.7 353.8 364.1 372.9 379 389.9 395.3 403.7 403.6 410.9 421.1 425.8 430.9 441.3 454.2 460.9 464.3 470 478.5 474.5 470.5 479.5 484.1 483.7 477.6 471 463.5 457.4 441.1 435.2 443 434.3 428.9 420.8 412 413.8 414 411 407 406.8 398.6 394.3 392.2 387.2 385.3 381.7 377.6 374.9 370.8 366.1 363.7 364.3 365.1 363.4 364.2 365 365.2 363.5 363.4 365 366.3 368.1 366.5 362.8 359.1 356.4 353 348.6 351.7 351.3 352.2 355.2 356.8 358.8 358.1 357.5 356 354.4 354.4 354.2 355.8 356.8 358.2 359.6 359.4 360.1 359.4 361.2 362.2 361.6 360.6 359.9 359.8 358.1 358.3 356.2 355 353.3 352 347.3 345.8 347.1 348.5 352.4 355.6 361.3 367 377.3 382.4 389.2 395.7 401.6 403.4 407.5 414.8 419.8 425.1 428.2 432 437.8 446.9 454.4 461.7 467.8 474.6 480.3
99.5 107.1 114.1 120.5 129.8 142.5 153.8 161.3 180.5 199 214 218.4 225.8 226.6 221 204.8 194.5 167.6 144.8 147.5 188.1 212.2 231.4 258.7 290.6 323.2 350 376.5 394.7 410.4 419.3 427.1 438.3 442.1 443 450 451.5 453.9 456.6 464.2 471.4 474.9 478.5 489.2 494.3 497.1 502.5 503.7 510.6 510.1 507.6 506.3 490.6 473.5 451.6 434.5 421.4 408.1 390.9 386.4 383.7 376.5 370.1 366.5 360.1 353 353.7 346.5 342.8 339.3 339.5 337.6 339 343.6 348.2 355.7 364.6 370.1 375.2 382.4 392.4 387.9 397.6 406.2 413.3 415.9 422.3 434.7 440.7 443.8 451.9 464.6 464.5 461.4 458.8 468 469 466.6 466.5 458.1 450 439.8 430.9 434.9 431.4 424.7 419.9 417.6 410.9 408.8 409.9 407.3 402.8 397.5 395.4 392.3 389 386.6 386.6 382.1 376.7 371.2 366.3 365.6 362.5 360.6 360.1 360.4 366.5 369.6 365.9 365.2 364.4 363.8 366 366.3 365.1 359.9 357.4 351.2 346.3 348.4 349.6 352.7 356.2 359.2 360.9 358.6 356.9 356.2 356.1 353.4 351.1 354.7 355.9 356.6 357 358 358.7 358.7 358.5 358.2 359.5 359.4 356.8 359.4 358.8 355.6 355.9 354.7 355.3 354.1 351.5 347.6 345 346.6 347.7 349.4 356.4 363.9 371 376 384.7 388.6 392.7 395.6 402.1 407.1 414.4 415.9 420.9 426.5 431.3 439 446.2 452 458.2 461.7 468.9 478.3
95 100.2 109.3 116.4 124 132.3 144.4 157.4 170.3 194.5 210 217 215.4 207.5 198.9 180.4 161.8 133.2 140.6 179.8 204.9 225 246 270.1 300.9 330 358.4 385.4 399.7 414.8 419.2 428.2 429.9 432.2 441.1 447.8 442.2 453.9 457.9 468.1 467.8 464.3 476.9 485.8 485.8 490.4 491.8 504 504.8 498.6 490.6 480.4 463.6 451.8 441.9 422 406.3 393.4 385.8 379.3 374.5 366.7 363.4 357.6 351.1 348.7 344.2 342.6 336.1 334.7 333.3 336.2 341.2 342.6 351.6 360.2 362.2 366.2 374.1 378.6 380.7 383.7 389 396.8 402.1 410.1 416.7 424.7 426.7 435.6 447.1 451.7 449 447 450.2 455.3 453.9 455.3 451.4 444.5 444.8 430.4 428.2 428.6 425.3 418.2 415.9 410.6 403.6 402.6 405.1 401.1 399.8 395.5 391.3 388.4 385.2 384.2 382.6 378.7 372.8 366.8 365.5 364.8 364.4 363.9 361.4 359.2 363.2 366.7 367.3 367.3 364.3 364.4 365.3 365.1 361.6 354.6 349.8 345.8 345.8 348.9 352.9 356.3 358.6 360 359.5 360.1 355.3 351.8 351.9 351.5 351.7 354.8 356.7 356.5 356.1 356.7 356.9 357.2 358.6 359 357.8 355.6 355.5 358.4 358.9 353.5 352.3 351.7 351.9 353.9 352.2 349 344.5 345.8 348.3 349.6 352.5 363 370 371.4 376.6 383 388.5 394.9 400.4 404.4 408.9 415.3 422.2 424 428.6 434.5 441.6 448.2 450.3 458.6 463.5 466
82 94.4 101.4 110.1 120.2 131.7 147.4 157 160.2 166.9 181.5 193.6 193.8 193.9 176.8 150.1 124.8 135.5 174.2 199.2 221.4 246 267.1 288.3 322.8 345 363.2 384.7 401.5 410.5 416.4 421.3 426.2 431.2 438.3 435.6 439.4 446.4 456.4 459.8 456.5 455.6 464.4 470 476.9 479.9 488.1 489.6 491.7 476.1 459.7 450.8 443.9 438 422.1 406 393.5 384.7 381.4 373.5 364.8 360.2 354.8 348.8 344.8 340.9 338 333.9 330.9 327.9 331.4 336.3 340.4 344.4 353 358.9 361.9 371.9 369.2 372.8 372.6 376.9 382.1 387.1 398.5 405.3 413 413.2 417.1 426 434.3 441.4 441.8 436.8 443.6 445.9 438.5 437.5 436.3 435.9 431.4 432.8 425.9 424.6 417.1 411.3 410.4 403.4 400.2 396.4 398.1 396.2 392.5 390.8 388.1 382.9 380.2 380.7 377.7 373.3 369.4 368.4 366.6 367.5 364.2 362.8 363.5 361.1 359.8 363.5 364.8 364.4 365.9 364.3 363.1 360.7 352.5 345 344.3 344.9 349.2 353 354.2 358.2 361.5 361.6 360.3 361.1 355.5 352.6 351 351.4 352.3 354 355.3 355.8 354.9 356.2 356.5 357 357.1 357.3 356.5 354.7 354.7 355.6 356.7 353.8 350.7 350.6 352.1 350.8 349.2 347 344.4 345.5 349.2 351.3 353.6 360.3 366.2 369.2 372.9 380.7 384.8 387.6 395.4 400.2 405.9 409.3 414.7 420.7 425 432.2 436.8 441.2 448.9 453.9 453 462.3
71.4 85.8 88.6 99.4 111.3 129.2 147.4 168.9 165.3 167.2 169.1 181.8 183.7 174.5 152.4 125.4 125.1 163 193 213.5 238.6 266.3 292.7 318 343.2 360.4 376.2 396 408.6 418.5 422.3 419.5 426.1 428.4 430.1 435.7 435.1 439.1 444.8 447.8 442.6 447.3 452.7 460.3 469.4 480.8 478.5 473.6 466 451.4 442 432.8 426.3 419.5 406.5 390.7 383.7 375.9 373.2 366.6 360.7 353.2 346.7 343.3 335.6 333.9 330.3 326.2 325.7 328.5 332.4 337.5 340.1 348.3 353.6 355.3 360 363.9 364.4 360.8 365 372.2 377 384.6 393 399.3 405.8 405.5 411.3 417.7 423.6 430.5 435 432.7 433.4 434.4 431.8 429.6 428 422.5 427.6 423.7 424.1 418.2 409.9 408.6 401.5 397.6 396.6 389.9 393.4 391.5 389.9 385.3 381.3 378.9 377.1 377.6 374.8 374.1 369.6 365.1 369.3 367.5 365.3 367 367.1 360.3 359 358.8 361 365.3 362.9 358.8 359 353.8 344.8 343.7 345.7 345.2 350.8 356.9 357.7 357 356.2 356.6 355.5 351.1 352.3 352.8 353.4 352.5 353.4 353.9 355.1 354.9 355.8 355.6 354.6 356.5 355.1 355.1 356 354.7 352.2 350.9 353.5 352.7 350.4 349.6 347.6 345.7 345.4 346.7 344.1 346.8 350.7 351.6 359.1 364.5 370.3 372.2 375.1 378.6 383 388 390 394.3 398.2 404.3 410.3 415.9 421.3 424.8 428.5 436.6 441.7 443 447.3 454.1
64.2 72.9 80.9 93.7 109.2 124.9 136.8 157.9 151.1 155.5 165.2 160.1 150.4 134.3 116.4 114.8 155.9 188.6 209.3 233.4 258.8 284.7 316.8 342.3 360 382.5 396.4 404.7 412.8 418 416.6 416.6 423.1 429.2 426.9 424.8 432.4 436.1 434.2 432.3 432.2 437.6 442.6 448.9 455.2 466.9 472.1 457.7 448.8 437.1 427 417.6 410.1 404.4 391 380.4 373.6 369.6 364.5 357.7 356.1 349.2 342.6 334.9 331.3 326.8 326.2 324.6 324.9 331.3 334.2 336.7 342.5 346.7 351.5 354 356.9 358.9 355.8 357 362.2 371.8 375.2 381 384.3 389.4 397.4 403.5 405.1 408.1 409.7 418.9 422.8 425.2 425.1 427.5 425.4 424.1 419 420 420.1 422.3 418.1 409.2 408.2 402.2 397.4 396.7 394.4 387.1 388.7 391.5 389.2 382.5 378.6 376.1 376.8 377.1 375.9 372.5 367.5 364.9 364.7 364.6 366 368.6 362.9 361.4 359.2 353.5 359.1 357.5 354 350.1 347.7 342.5 343.2 346 346.2 346.8 351.1 352.4 356.4 352.2 352.5 353.9 351.4 350 349.7 352.5 352.5 352.9 353 353.9 354.2 353.7 355 353.5 352.6 353 354.5 352.1 353.3 351.5 350.7 351.1 350.7 349.3 348.3 346.7 345.7 344.6 343.8 344.5 344.7 349 352.2 354 359 365.5 370.4 374 375.1 378.8 383.6 386.4 386.6 390.4 395.1 399.8 407.9 410.3 414.7 421.1 424.8 429.9 430.3 433.7 442.2 443.2
59.4 64.5 77.4 93 110.4 123.1 126.7 133.4 141.1 156.8 159.2 141.4 108.7 107.9 131.4 154.2 180.7 202 228.8 260.8 284.2 308.7 335.6 354 378.1 395.5 401.1 408.5 414.9 414.1 412.6 412.6 417.7 421.1 417.9 421.4 428.6 429.2 422 421.6 424.1 427.3 434.6 439.5 441.2 445.2 442.5 434.8 426.9 417.4 407.9 397.7 393.9 383.5 376.2 371.2 366 365.1 357.4 351.8 346.5 341.6 336.1 329.7 326.3 323.4 324.7 322.2 326 331.7 335.2 337 343.9 346.1 350.1 353.2 352.3 351.2 356.2 358.1 361.8 375.5 380 374.2 377.3 384 391.1 396.6 401 401.7 403.7 407.1 411.9 415.7 413.3 415.1 418 417.2 415.2 414.7 418.1 416.8 409.5 408.1 405.7 401.5 396.2 393.7 388.2 386.2 384.6 389.6 385.7 378 374.9 371.4 375 372.7 370.8 367.9 365.4 364.3 363 364.2 367.9 366.1 363.7 361.5 357.9 355.1 350.4 349.6 347.6 345.5 342.6 342.9 343.6 344 346.8 349.6 350.2 350.5 352.9 350.6 352.2 349.8 351.2 351.1 353.5 352.7 354.1 353.3 352.7 353.5 353.7 353.7 353 354 352 352 351.8 351.9 349.6 347.4 346.3 350.4 349 347.8 347.1 346.5 343.2 343.3 343.2 343.7 345.3 349.6 350.6 357.1 360.8 367.6 370.4 376 377.3 378.4 381.7 382.4 385.1 388.4 393.3 396.3 401.3 409.3 409.5 414.5 419 417.2 420.4 429.5 432 432
53.6 60.4 71.3 87.8 99 104.5 118.3 128.3 144.9 151.5 136.3 95.7 119.4 151.2 153.1 181.3 191.8 215.9 248.7 279.7 303.8 325.6 345.2 368.1 384.5 391.7 400.8 409.6 410 409 409.6 411.8 409.7 412 413.8 417 420.3 416.4 412.1 414.5 418.8 427.5 431.6 433.5 432.8 429.2 427.6 421.1 414.5 406 394.5 389.1 385.3 375.6 366.2 359.1 362.6 358.3 348.7 348 339.7 332.6 329.3 326 322.5 322.3 321.5 321.5 322.7 328.7 332.6 340 344.8 346.2 348.1 348.8 345.8 350.1 354.2 356.2 366.2 370.4 373.4 369.4 372.1 379.9 385.1 387.2 395.4 401.3 397.1 397.7 402 407.5 404 412.7 412.9 415.1 410.2 409.7 416.7 410.3 406.8 405.2 404.1 398.6 396.3 391.1 388.5 384 381.1 384.8 381.7 374.7 373.3 373.2 366.3 365.2 365.5 364.6 362.8 360.9 362 363 364.3 363.4 363.4 361.6 356.5 354.4 351.5 344.4 342.5 342.7 343.9 345.5 345.1 344.8 346.6 350.8 350.2 349.4 353.3 344.4 347.2 345.8 350 351.4 350.7 350.8 351.9 353 353 354 352.7 351.3 351.2 352.7 351.6 350 351 349.6 348.2 346.7 343.7 344.7 347.7 347.5 347.7 344.7 342.1 342.6 343.2 345.9 346.4 348.3 349.1 355.4 364.5 369.3 368.6 370.1 372.2 376.3 379.2 381.6 383.6 387.6 392.8 395.6 400.8 402.7 404.7 409.8 409.4 412.6 418 422.9 424.7 423
30 47.9 68.6 79.1 88.8 95.1 108.5 121.5 132.3 126.8 92.4 116.7 146.8 169.6 177.5 193.4 213.6 234.9 261.9 284.3 310.8 334.7 355.3 378.7 390.9 390.6 400.5 403 404.6 402.1 405.1 404.4 404.5 407.3 413.1 409.8 405.6 403.6 406.5 411.3 417.3 425.7 427.4 428.4 425.3 425.3 413.7 408.6 404 395.1 385.8 377.9 373.4 368.4 357.3 357.9 358.5 354 342.5 341 330.5 327.5 323.1 320.2 319 319.3 316.1 325 327.6 334 340.7 342.3 343.5 345.1 344.5 345.2 347.2 348.7 354.9 356.1 360.1 369.5 367.5 367.8 370.5 378.1 382.4 385 391.7 396.9 396.5 393 393.7 400.7 401.3 410.4 412.1 408.7 407.6 409.7 406.4 405.1 406.1 402.4 399.3 396.3 395.2 388.9 385.2 380.8 381.8 381.7 376.7 371.5 370.4 367.2 362.9 360.8 362 362.3 359.7 361.6 362.1 362.3 364.2 364.1 362.8 361.9 357.2 354.5 350.1 343.3 345.5 345.6 344.3 347 346.7 347 347.5 350.1 349.6 351.2 347.6 342.1 341.8 345.2 348.5 348.7 348.7 349.9 350.5 351.2 353.4 351.7 351.3 351.1 351.7 354.2 352.1 351 348.7 346.8 344.7 343.1 342.7 344.8 347.7 347.3 347.6 343.2 342.2 343.9 343.5 344.4 347.7 347.5 351.6 356.4 363.9 366.6 368 368.6 370.8 372.4 375.6 379.9 382.5 384.4 388.3 391.9 397 398.7 402.5 402.6 405.4 408.2 412.6 416.1 419.9 419.3
35.2 36.2 53.1 66.6 75.6 85.1 97.3 109.3 115.7 94.1 115.4 141.7 165.8 183.2 191.7 215.5 236.8 259.7 282.1 296.7 317.4 335.4 364.7 378.9 383.9 390 395.4 399 396.1 396.2 397.4 399 397.1 400.6 402.3 400.1 394.3 402.2 405.1 410.6 413.1 417.2 417.5 418.5 420.3 411.9 404.2 395.8 391.5 382.8 371.9 366.9 363.1 360.1 351.5 353.8 348.5 341.9 339.2 336 327.3 321.9 314.3 315.5 313.5 318 322.1 327.7 330.2 334.1 343.8 346.5 348.6 343.9 340.9 347.6 346.8 350.2 350.9 354.6 359.8 362.1 364.4 364.8 370.3 372.1 377.5 380.9 388.4 389.7 391.1 391.1 389.6 392.1 395.9 404.3 409.4 406.8 410.7 406.3 404.1 400.6 401.6 399.1 395.6 395.6 394.2 388.5 385.3 382.1 376.2 374.5 370.6 369.3 368.8 364.8 363.4 361 359 359 361.7 363.1 362 363.4 363 364.1 363.5 360.3 356.2 351.8 348.4 341 347.9 349.7 352.2 351.3 351.1 349.4 348.8 347.2 349.3 348 344.1 341.4 344.5 347.4 347.2 346.8 349.1 348.8 348.6 350.5 350.9 351.3 350.5 351.2 351.9 351.4 350.3 348 348 344.7 342.3 343.1 345.2 344.7 346.9 346.4 345.5 341 343 346 346.6 346.8 346 347.7 351 357.2 363.4 365.4 367.1 368.4 371.4 372.7 376.6 377.4 381 383.9 386.2 389 394.4 397.3 398 399 403.7 406.8 408.4 413.9 413.4 412.8
36.8 55.6 54.9 55.3 63.8 78.4 91 99.5 87.6 105.3 132.4 150.4 183 203 214.7 237 263.3 275.2 288.4 306.3 324.7 334.4 359.2 370.6 376.1 386.4 388.3 389.6 392.3 390.9 390.9 391.7 391.7 392.5 390.2 387.5 390.3 395.6 403 408.2 409 410.1 409.9 411.4 407.7 399.3 392.5 385.1 381.7 370 361.4 359.9 353.6 349.3 348.6 344.7 341.1 340 331.2 325.9 317.4 313.2 312.1 310.9 311.8 318.7 322.8 328.1 333.3 336.9 343.3 346.1 347.9 341.4 340.4 347.9 348.1 348.6 350.9 355.5 357 358.2 358.9 362 364.1 364.3 371.4 377.3 382 386.3 386.6 388.7 384.1 384.4 398.3 404.3 401 404.5 404.9 404.3 400.8 396.9 397.7 395 392.7 391.2 390.6 389.6 386.9 381.6 376 369.5 368.1 367.6 368 366.3 363.7 360.7 359.4 358.5 361.8 360 362.7 363.2 364 364.9 361.8 360.1 355 350.5 340.9 345.3 348.8 353.8 355.3 355.3 354.4 357.1 354.3 350.6 344.7 344.1 343.4 342.3 343.9 344.8 345 345.9 348.7 349.4 348.8 349.4 350.2 349.5 349.5 349.7 347.5 350.2 349.9 346.9 345.4 343.9 343.6 342.3 345 345.1 346 344.5 337.9 340.9 343 344.3 346.5 346.7 347.3 348.1 351.6 358.7 360.8 364.5 365.2 367.1 369.3 371.6 375 377.7 377.8 381.3 384.4 387 391.1 390.7 395.1 399 401.8 404 406.1 407.3 408.6 407.9
56.3 61.7 62.5 61.7 63.5 59.1 89.9 73.4 99.8 118.4 135.3 165.5 193.5 226.5 235.6 255.2 271.2 288.1 298.4 315.1 329.5 347.2 358.6 365.9 376.7 383.2 381.2 386.2 381.9 384.8 381 388.2 388.6 387.5 384 381.2 385.6 390.7 398.6 406 403 400.6 401.8 397.8 393.3 386.3 382.7 377.6 368.6 359.7 357 350.8 346.6 344 337.3 337.6 336 337.9 329.1 318.5 311.1 310.8 309.5 305.8 314.8 317 322.9 330.6 336.9 339.9 340.6 340.7 336.4 338.5 345.2 350.3 351.5 354.3 359.6 355.3 357.1 358.2 358.3 359.5 362.9 366.4 367.7 372.4 375.4 378.7 381.9 381.2 374.8 379.8 389.9 393.8 400.7 398.3 398.1 397.5 393.8 393.9 394.1 392.9 390.7 387.2 390.7 388.2 386 382 375.5 367.2 364.7 366.8 365.3 363.9 363.6 360.1 358.4 357.7 358.6 358.8 361.6 362.4 362.5 361.9 360.2 356.9 350.7 338.6 346 349.7 351.2 352.8 355 355.3 356 354.5 358 351.9 350.7 345.1 345.2 342.7 338.8 343.4 342 343.7 347.4 347.7 348.6 347.7 349.3 349.4 350.4 347.4 346.8 347.8 346.8 345.4 344.3 343.4 341.5 343 345.5 344 346.2 342.6 336.9 341.2 342.2 343.5 343.5 346.3 347.8 348.2 351.8 357.7 360 362.3 361 363.4 367.8 369.8 373.6 374 375.4 378.6 380 384.3 387.3 391 396.1 399.9 400.9 404 403.3 402.9 404.2 403.4
63 68.4 70.6 66.3 71.3 69.7 72.4 88.1 106.6 122.1 136.4 168.7 205.4 243.3 252.2 256.1 272.2 290.7 309.9 325.1 337.2 352.3 356.9 365.5 371.4 373.9 379 376 370.4 371.8 380.4 384 382.1 379.1 376.4 378.1 381.3 394.8 392.6 391.5 391.9 390.1 390.2 385.9 382 377.3 373.6 366.6 358 354.3 348.4 343.7 340.7 334.9 332 332.4 339.5 334.1 319.9 311.3 307.4 306.5 301.7 310.5 313.6 317.9 323.7 332 340.9 341.5 340 334.7 338 342.8 348.1 350.7 354.5 356.1 357 355.8 358.4 356.7 354.2 357.7 359.7 367 372.5 372.6 374.5 377.3 376.2 374.2 378 385.8 389.5 392.4 393.2 391.9 393.9 390.2 388.5 390.1 388.7 387.8 384.7 386.5 387.8 386.8 381.6 378 375 365.8 364.2 363.5 363 361.7 359.3 358.9 357.5 357.7 358.1 359 361.6 364.3 362.8 361.1 355.8 353.1 339.1 345 351.4 351.9 352.4 354.5 353.2 354.2 354.1 350.8 350.1 348.8 348.8 347.4 345.2 341.1 339.4 340.1 343.9 345.5 343.9 344.3 344.8 346 347.8 347.4 346.3 344 343 343.4 345.1 346.3 342.5 341.1 340.7 342.3 342.5 341.5 342 338.2 337.2 341.8 342.7 343.6 342.9 344.9 345.9 347.5 347.8 356.2 358.4 358.6 360.1 359.9 363.7 367.6 368.2 370.4 374.3 375.1 378.8 386.3 385.8 391.2 398.9 399.9 397.6 398.8 398 398.6 399.7 399.2
64.6 69.4 73.3 68.6 69.5 74.1 81.7 83.4 104.8 115.3 134.1 171.9 208.4 240.2 249 254.8 269 295.2 321 328.5 342.5 352.7 362.2 366.9 368.8 371.9 367.5 365.8 368 373.5 379.3 380.4 377.3 369 374.4 374.3 369.3 374.5 380.7 384 381.7 380.5 380.5 377.1 372.1 369.1 364.3 355.1 352 346.9 340 337.5 334.5 328.8 328.1 328 328.4 318.4 308.4 306.6 298.7 298.4 308 310.9 313.2 318.6 325.6 336.4 335.8 334 330 327.4 346 347.1 350.3 352.3 351.6 353.2 356.1 355.6 355.8 355 351.2 355.7 362.3 364.4 370.6 369.1 371 372.7 373.3 368.8 376.7 383.4 391.4 389.8 385.5 388.9 386 384.3 385.5 385.4 385.5 385.5 383.5 383.2 385 385.1 380.6 375.2 370.9 363.3 363.5 362.1 362.6 360.7 358.2 357.8 356.8 357.9 360.1 359.8 364.2 364.1 367 358.1 351.2 339.5 346.9 350.5 351.9 352.9 352.4 352.6 351.6 352.2 350.9 350.7 348.6 346.8 348.4 348.1 345.4 343.2 340.9 339.3 342.7 344.8 347.1 346.2 342.5 344.9 347 347.4 344.6 343.2 340.5 342.1 344.7 341.9 341.2 340.9 340 340.5 339.5 338.8 334.1 332.8 336.5 340.4 341.9 342.1 341.7 342.9 342.3 342.7 344.2 349.7 353.6 355 356.3 358.4 359.2 362.3 365.7 367.2 369 372.3 376.9 382.1 384 388.2 392.5 395.5 396.2 396.6 396.7 398.8 396 394.2
61.6 66.1 70.2 68.8 69.8 78.5 83.9 86.1 80.5 107.7 135.9 184.1 203.7 227.4 235.6 248.9 277.6 308.8 316.9 332.7 338 351.5 358.6 364 368.6 366.4 360.1 360.5 367.3 372.6 373.9 371.4 367 364 361.3 365.2 363 367.6 374.5 374.2 371 368.2 366.7 367.6 364.9 362.8 357 346.9 342.2 334.6 333.4 332.7 327.8 319.7 320.2 317 314.3 305.8 303 299.4 293.2 300.3 305.9 306.5 313.6 319.2 323.9 325.5 329 324.7 321.4 339.1 343.2 343.9 348.4 349.3 350.8 351.7 352.1 352.9 350.5 346 349.2 354.4 360.1 362.9 365.4 364.7 367.8 367.9 365.4 367.1 375.9 381 380 379.4 383.1 382.4 378.7 379 381.4 381.2 382.8 383.9 381.3 381.2 380.3 378.7 373.1 369.3 367.9 366.7 361.4 358.3 358.4 359.1 359 358.5 356.3 358.7 359.8 360.1 362.1 365 364.6 355.5 339.1 344.7 349.4 348.9 349.8 351.9 351.5 351.2 352.3 352.3 351.5 348.9 347.6 346.6 347.6 349.3 347.5 345.6 339.3 337.2 341.9 344.9 344.5 342.9 342.2 342.4 343.4 342.8 342.8 341.7 341.5 339.6 340.4 341.3 340.3 341.2 338.9 338 340.1 338.2 330.4 332.6 336 336.4 339.4 340.8 340.2 340.3 340.4 340.8 340.9 346.3 348.7 351.2 352.5 354.8 357.2 361 364.7 364.4 366.6 369.4 373.1 376.7 381 384.7 386.7 389.9 393 394.1 394.5 393.6 391 389.6
70.9 64.6 68.1 70.9 69.6 78.7 85.9 89.2 90.1 86.3 123 178.3 198 217.1 229.3 247 288.4 311.5 308.7 325.4 334.8 340.3 352.5 359.5 361.3 357.1 354.7 358.8 364.3 365.9 362.8 362 356.6 357.2 353.3 357.4 354.5 359.3 362.5 361.4 365.7 364.4 361.5 356.3 354.8 350.9 348.5 338.6 332.2 330.8 330.2 327.6 323.3 312.8 313.4 308.3 299 300.7 299.3 286.3 294.5 298.2 304.2 307.8 314.9 318 324.3 316.2 314.1 319.1 331 336.6 337.5 342.3 344.2 346.1 347.1 348.3 348.3 347.8 344.6 338.4 349 355.4 356.7 357.8 361.1 361 361.1 363.9 359 365.6 377.7 377.9 377.2 376.6 377.7 372.1 371.2 375.2 376.3 377.8 379.2 379.8 378 378.9 372.4 372.8 369.8 368.3 369 368.3 362.8 358 355.8 357 358.7 356.4 357.7 358.6 360.2 361.4 360.3 359.3 354 341.3 345.9 345.9 345.9 348.6 348.3 350.2 351.3 353.1 351.6 352.4 349.8 348.1 348.3 348.8 348.4 347.2 345.6 343.2 340.3 336.1 339.5 342 341.9 343 342.3 342.1 341.1 343.3 343 341.5 339.6 341 340.3 339.8 339.9 339.7 338.1 338.5 339.2 338.3 333.4 327.7 331.2 335.8 339.1 338.9 340 340.1 341.3 340 338.9 341.4 345.3 348.9 350.2 351.4 354.1 356.5 358.9 363.6 365.1 367.3 369.9 374.7 378.1 381.1 382.8 386.8 390.9 391 391.5 389 386.8 385.5
80.3 71.6 64.8 72.5 75.1 81.2 89.7 95.3 98 91 103.6 157.4 190 206.6 218.8 235.7 291.3 302.3 302.4 307.1 330.3 337.1 341.6 343.3 347.5 348 350.6 357.1 360.5 360.5 354.6 352.7 351.6 346.9 348.7 348.9 342.2 347.2 353.4 360.4 361.4 355 349.1 347 343.8 337.7 335 332.2 328.8 325.2 322.5 317.6 312.3 307.2 306.9 294.8 295.2 294.5 287.3 288.7 293.4 299.2 302.6 307.1 313.7 311.4 306.4 299.8 305.2 318.5 320.6 324.3 338.2 341.1 340.2 340.5 343.4 343.1 337.7 337.4 333.5 334.9 349.9 350.6 351.9 352.7 354.4 354.9 355.7 355.4 355.9 370.3 374.1 373.8 369.8 372.2 371.4 369.6 368.6 368.4 373.5 375.6 378.2 378.4 374.5 373.5 369.2 367.2 366.2 368.4 367.1 366.8 363.5 356.5 352.4 355.3 356.3 355.8 355.3 356.8 357.7 359.5 354.2 346.5 344 335 341.8 344.5 346.1 347.9 348.6 348.4 351 351.7 355.6 351.3 349.6 347.1 346.8 345.9 345.5 344.6 343.4 342 338.4 336.4 339.7 340.1 341.5 341.5 341.7 341.9 341.3 344.1 343.7 342.9 340.4 339 339.9 338.1 337 338.2 335.9 336.3 336.5 334.6 332.4 329.3 329.4 332.7 338.1 337 336.9 336.7 338.8 335.9 336.8 338.8 341.5 344.7 346 348 351.6 353.9 355.4 357.9 359.5 363.5 366.7 370.1 373.9 377.1 377.4 380.3 384.6 386 385.2 384.4 383.5 381
86.3 80 76.1 69.3 79.8 85 92.2 97.7 97.9 96.9 99.7 144.7 179.9 195.1 207.1 241.2 280.1 289 291.9 293 311.3 332.9 334.7 337.8 337.3 341.8 348.1 353.2 351.9 347.3 347.9 349.6 343.8 342.5 338.4 336.6 340.3 342.1 343 348.1 352.7 346.8 341.8 333.8 338.6 334.7 329.6 327.2 325.3 320.5 311.1 305.2 301.9 301.8 288.8 288.2 289.9 284.8 273.9 285.7 294 299.6 296.7 297.2 303 292.3 285.8 300.8 307.3 312.1 313.3 318.7 331 331.1 331.2 339.7 337.9 332.3 326.2 327.3 321.5 336.8 344.3 347.4 344.9 346.4 347.7 346.9 350 348.5 356.8 367 366.5 365.5 365.1 362.6 365.2 367.2 363.4 363.9 367.4 367.7 374 373.4 371.7 371.4 364.3 365.8 364.7 363 367.7 368.3 357.9 351.9 348.3 352.3 354.4 352.2 353.3 355.7 354.6 353.9 347.3 334.8 331.7 339.8 342 344.3 345.8 347.6 347.3 347.9 348 349.4 349.8 348.5 346.4 345.6 350.5 344.9 342.7 343.1 340.6 337.9 336.1 338 339.9 340.7 340 338.6 338.2 338.7 339.7 342 341.1 339 337.6 337.8 337.3 335.5 335.2 335.1 334.2 336.3 335.7 335.6 331.6 330.7 326.7 330.6 335.1 335.3 333.5 333.4 331.9 331.4 331.2 335.5 339.1 341.8 343 346 349.6 351.1 348.8 352.8 354.3 358.6 363.6 367.4 369.5 371.4 372.1 375.6 381.2 378.8 379.3 378.8 379 376.2
95.2 88.4 84.2 83.7 77.1 83.1 90.5 96.7 99.4 99 94 128.6 166.8 182.2 204.6 247.6 263.7 268.3 273.6 284.1 291.1 314.3 313.3 314.5 327.5 337.2 339.5 341.6 338.1 340.2 339 339.4 339.5 332.6 329.1 333.4 332.7 327.7 326.2 333.2 335.9 338.1 337.4 332.2 326.1 327.1 323.6 320.1 314.4 304.7 300.4 292.7 291.7 280.2 280.4 281.1 272.1 267.2 276.9 283 285.6 286.5 286.9 287.9 277.4 261.6 278.8 292.4 294.2 303.9 305.5 312 323.5 327.3 330.1 328 325.1 317.3 313.2 309.3 322.6 331.4 338.5 340.4 337.8 341.5 341.5 340.9 340.4 343.3 359 361.1 358 354.8 356.7 356.3 359.1 357.5 356.6 363.6 362.9 364.4 363.7 367.2 367.1 362 359.5 361 359.1 363.1 360.5 355.1 352 350 347.4 350 350.8 349.3 353.9 349.9 347 343.4 336.9 330.6 339.3 340.8 341.7 346.4 345.8 345 346.3 346.7 344.6 346 343.4 343.8 345.2 344.4 343.6 342.1 339.7 339.3 338.9 337.3 333.3 335 336.9 338.3 338.5 338.5 336.9 337.7 337.8 337.6 339.1 336.9 336.1 334.1 336.4 334.2 332.3 331.9 333.9 335.7 336.9 332.1 330.7 328.5 322.1 325.6 328.7 331.5 331.2 330.8 328.9 327.1 327.2 330.6 335.6 336.2 340.4 342.5 345 346.2 343.9 349.3 349.3 354 358 361.7 364.4 368 367.5 369.4 371.8 371.8 373.2 375 373.5 372.8
103.5 94.1 90.6 90.8 86.1 80.8 84.8 91.8 97 97.2 97.5 101.8 154.7 166.3 205.6 243.1 246.9 245.8 264.4 277.1 292.8 291.6 299.9 299.2 308.1 310.7 325.9 319.6 320.8 323.1 326.4 321.4 317.4 318.2 321.9 320.6 323.6 318.1 325.3 324.7 334.2 330 326.1 319 311.7 319.2 307.2 301.6 293.8 290.3 286.6 281.9 274.5 268.4 265.8 260.6 264.3 264.8 271.1 272.1 272.7 268.8 272.4 265 249 254.3 273.2 278 283.8 287.4 296.4 302.3 313.4 316.9 318.4 313.3 303.5 297.4 301 308.2 318.7 326.6 333.3 332.3 333 332.8 333.1 333.2 331.8 347.1 353.4 353.2 346.8 348.7 349.2 351.6 351.3 350.1 347.1 353.6 360.4 361.3 359.9 356.9 355.1 354.3 353.7 353.8 355.5 352.5 351.8 349.6 347.4 346.3 341.5 344.2 344.3 345.5 343.3 340.1 336.5 335.7 326.2 336.5 338.1 339.5 342.5 344.1 343.2 344.6 345.3 344.6 343.7 343.8 339.8 340.4 344.5 340.5 339.4 335.8 336 336.6 336.9 336.7 334 330.4 336 338.2 336.3 335.3 335.9 335.8 335.4 335.2 334 331.4 333.9 332.5 333.7 332.3 330.4 332 332.5 334.1 334.7 330.3 328.9 325.4 320.6 320.6 325.2 322.4 326.1 322.5 327.3 325.8 323.7 327.2 331.4 333.5 336.8 338.1 340 340.8 340.1 343.2 343.7 347.5 352.9 356.6 358.5 362.5 364.3 365 364.5 367.7 367.4 368.3 368 367.8
113.8 111.5 106.7 97.8 94.1 92 90.2 85.8 87.7 93.8 96.9 95.6 115.7 152.5 171.5 211.9 218.1 237.6 257.6 268.1 271.2 273.9 267.9 290.5 294 290.7 289.1 293 299.8 302.2 300.7 297 304.8 299.4 302.3 316 317.4 310.9 310.1 307.8 314.8 319.7 310.2 310.5 301 302.1 294.5 284.9 276.3 276 274.1 261.7 260.9 254.4 244.1 246.4 247.5 242.9 247.7 251.8 255 250.2 242.9 219.1 231.9 254.9 258.6 259.5 265.8 270.9 282.4 288.8 292.3 300.7 302.6 293.2 280.7 281.9 290.7 297.8 309.6 319.3 325 327.8 322.7 324.3 326.3 321.4 332.9 345.8 348 345.2 341.4 342.3 344.1 345.4 344.8 342.4 343.2 345.8 348.5 351.3 349.1 348.1 349 349.2 348.8 348.6 347.8 343.9 344.3 343.3 343.2 341 340 339.4 339.7 339.6 337.8 332.8 330.7 327 333.4 336.5 336.4 337.3 337.4 339.6 340.2 340.4 341.6 339 338.9 338.2 337.3 336.2 336.6 335.3 333.5 333.3 332.3 333.1 333.3 333.5 332.1 329.9 331.4 334.9 332.9 331.4 330.4 333.6 332.9 330.7 328.4 325.5 326 331 327.7 331.8 328.9 330.9 330.3 330.8 329.9 326.4 324.7 326.3 320.6 320.6 320.6 320.6 324 320.6 320.6 322.5 320.6 323 327.2 327.7 332.5 334.3 336 336.7 336.9 339.4 338.5 343 346.9 351.5 356 358 359.1 358.4 360.9 363.5 363 362.4 362.6 363
130.9 135.7 129.2 123 114.3 101.6 98.2 95.5 91.6 89 91.5 92 92.9 119.5 156.5 174.6 197.4 217.2 237.8 244.2 243.2 240.8 256.8 272.9 276.3 273.9 266.5 280.6 281.3 275 273.5 274.7 274.2 271 270.5 268.1 270 273 266.8 270.4 280.1 299.1 301.4 291.6 289.1 279.9 276.6 268.6 264.5 266.3 255.7 252.2 240.8 226.4 232.4 225.5 214.9 216.5 222.7 222.6 230.9 218.2 196.5 223.4 230.5 239.3 237.5 239.8 241.8 252.9 265 272.5 277.2 277.2 272.4 267.3 262.5 269.1 280.6 290.4 305.5 314.1 320.2 319.9 317.2 316.4 316.2 322.6 332.4 340.6 340.2 337.7 333.3 335.6 335.8 335.4 333.1 337.6 338.5 343.3 343.7 341.3 341.5 341.7 342.2 339.1 339.5 339.4 339.3 339.4 338.1 339 338.5 339.2 337.1 330.1 335.1 333.9 330.1 320.6 320.6 326.6 329.7 331.8 332.5 331.4 334.4 334.5 336.2 336.4 336.3 334.2 333.8 332.2 330.5 328.9 331.5 331.6 328.3 329.9 330.2 330.9 331.8 329.8 328.5 329.2 326.7 329.7 330 328.5 328.9 329.4 330.1 327.5 322.9 320.6 320.6 320.6 320.6 321.9 327.6 327.6 327.1 327.9 322.7 320.6 320.6 320.6 320.6 320.6 320.6 320.6 320.6 320.6 320.6 320.6 320.6 320.6 322.4 320.6 326.5 329.8 333 333.9 334.1 335.6 332.1 336.1 341.6 345.2 349.2 352.9 353.1 353.8 356 356.7 358.9 358.2 358.9 360.4
155.1 155.7 154.4 150.9 132.5 122 113.1 111.1 99.8 90.6 91 92.4 93.4 99.5 128 147.4 166.9 194 201.4 207.8 213.9 228.7 237.9 237.9 235.6 233.2 254.6 257.8 253.7 256.1 258.9 259.4 256.4 255.6 243.1 248 243.1 237.1 232.2 215.7 216.5 246.9 256.8 266.6 262.7 265 257 251.5 245.3 248.3 242.5 232.6 213 221.3 214.5 197.8 179.9 188.2 193.2 199.7 198.4 181.8 200.1 210.1 212.6 212.5 216.9 217 217.5 220 238.2 252.5 263.3 261.8 253.4 253.2 253.2 260.9 278.4 285 295.8 302.5 305.6 310 311.4 313.3 318.4 321.9 329.3 335.4 332.8 328.6 326.2 328.9 328.1 327.3 332.7 332.8 334.6 337 334.8 334.9 335.7 336.3 339.6 338.3 336.2 334.7 333.5 334 334.4 335.5 335 334.4 335.4 331.4 324.6 322.2 320.6 320.6 320.6 320.6 324.3 324.1 326.7 329.2 329.2 328 329.2 328.9 330.6 330 325.9 320.6 321.1 320.6 322.3 320.6 321.5 324.9 327.5 326.6 327.7 324.8 320.6 320.6 320.6 322.3 327.5 321 325.1 326.9 323.1 320.7 320.6 320.6 320.6 320.6 320.6 320.6 320.6 320.9 320.6 320.6 320.6 320.6 320.6 320.6 320.6 320.6 320.6 320.6 320.6 320.6 320.6 320.6 320.6 320.6 320.6 320.6 322.1 320.6 326.2 328.8 330.6 327.9 331.3 331.2 334.7 338.4 342.6 346.6 347.3 349 350.6 351.4 353 353.6 354.1 355.2
184.7 177.9 172.3 167.5 151.1 153.4 148.6 135.7 131.7 108.8 92.8 92.7 93.2 94.2 113.3 129.4 154.4 166.5 173.9 181.6 186.2 196.8 200.4 192.8 200.2 213.5 226.5 225.1 223.7 215 216.7 213.2 230.5 237.5 228.9 221.7 219.4 210.8 176.8 178.3 183.6 194.4 208.4 231.6 247.1 247.3 232.7 227.5 231.2 227.3 231.8 214.9 201.3 192.3 185.3 172.4 157.4 153.6 160.5 175.8 174.2 170.2 162.6 178.8 191.6 198 202.8 215.8 226.3 245.1 244.4 248.2 255.8 253.2 253.2 253.2 253.2 261.8 274.2 285.7 294.4 294.6 299 299.6 302.2 311.9 317.9 318.4 324.1 326.6 323.7 318 319 324.2 320.1 322.9 327.6 326.4 325.7 326 326.8 328.2 329 330.3 325.6 331.5 329.4 327.7 326.7 327.7 328.8 330.6 330.1 328 328.8 325.7 322.7 320.6 320.6 320.6 320.6 320.6 320.6 320.6 320.6 320.6 320.6 320.6 322.7 322.1 321.6 320.6 320.6 320.6 320.6 320.6 320.6 320.6 320.6 320.6 320.6 320.6 320.6 320.6 320.6 320.6 320.6 320.6 320.6 320.6 320.6 320.6 320.6 320.6 320.6 320.6 320.6 320.6 320.6 320.6 320.6 320.6 320.6 320.6 320.6 320.6 320.6 320.6 320.6 320.6 320.6 320.6 320.6 320.6 320.6 320.6 320.6 320.6 320.6 320.6 320.6 320.6 320.6 320.6 320.6 320.6 320.6 329.6 330.2 332 337.1 339.5 341.7 343.1 346 346.3 348.8 348.3 349 350.7
193.7 191.2 199.2 194.5 179.6 180.3 171.5 162.5 143.1 131.4 99.6 91.7 93.7 94.6 107.7 117.3 130.7 130.8 139.7 146.9 157.4 157.1 153.5 168.3 169.6 174.7 177.3 181.2 185 185.2 187.6 179.2 180.4 199.2 197.6 178.8 166.7 154.6 160 171.1 168.3 183 174 209.1 209.9 221.7 206.3 203.7 206.3 217.9 207.8 196.3 183.6 168 159.3 158.9 162.5 169.3 171.1 155.9 162.1 177.3 183.7 189.4 192.3 204.2 228.1 237 250.8 257.7 259.6 261.1 259.6 254.2 253.2 253.2 253.2 262.7 269.2 284.7 299 293.6 290.7 288.8 302.6 310.6 314.6 311.4 319.7 320.1 309.7 313.6 314.8 317 317.6 320 322.6 320.9 320.6 320.6 320.6 320.6 320.6 320.6 320.6 321.7 321.6 321.3 320.6 320.6 320.6 324.1 326.2 323 323.5 320.6 320.6 320.6 320.6 320.6 320.6 320.6 320.6 320.6 320.6 320.6 320.6 320.6 320.6 320.6 320.6 320.6 320.6 320.6 320.6 320.6 320.6 320.6 320.6 320.6 320.6 320.6 320.6 320.6 320.6 320.6 320.6 320.6 320.6 320.6 320.6 320.6 320.6 320.6 320.6 320.6 320.6 320.6 320.6 320.6 320.6 320.6 320.6 320.6 320.6 320.6 320.6 320.6 320.6 320.6 320.6 320.6 320.6 320.6 320.6 320.6 320.6 320.6 320.6 320.6 320.6 320.6 320.6 320.6 320.6 320.6 320.6 320.6 320.6 327.9 330.8 332.9 334.7 337.9 340.8 341.3 341.8 343.8 344.2 346.8
207.3 214.3 218.7 222.1 216.2 203 201.3 196.8 171.3 143.1 119.9 93.8 92.8 94.2 98.6 103.4 104.8 107.6 109.3 116.1 118.6 119.8 127.8 128.1 133.6 128.9 136.1 142.5 146.4 146.9 145.4 142.3 145.2 146.9 142.6 138.8 131.6 128.3 146.1 148.7 145.1 145.1 141.9 143.3 177.4 187.6 192.2 181.8 198.5 197.3 186.5 178.3 163.8 149.1 138.9 160.5 182.3 187.4 188.2 179.8 183.4 188.2 189.8 198.9 208.7 227.8 242.4 259.2 264.9 269.8 265.5 268.1 268.7 261.5 253.2 253.2 255.5 260.9 266 294.6 298.6 288.2 280.3 290.5 296.5 305.3 305.1 305.8 313 305.7 307.5 308 310.1 315.8 317.8 318.1 317.6 301.3 320.6 320.6 320.6 320.6 320.6 320.6 320.6 320.6 320.6 320.6 320.6 320.6 320.6 320.6 320.6 320.6 320.6 320.6 320.6 320.6 320.6 320.6 320.6 320.6 320.6 320.6 320.6 320.6 320.6 320.6 320.6 320.6 320.6 320.6 320.6 320.6 320.6 320.6 320.6 320.6 320.6 320.6 320.6 320.6 320.6 320.6 320.6 320.6 320.6 320.6 320.6 320.6 320.6 320.6 320.6 320.6 320.6 320.6 320.6 320.6 320.6 320.6 320.6 320.6 320.6 320.6 320.6 320.6 320.6 320.6 320.6 320.6 320.6 320.6 320.6 320.6 320.6 320.6 320.6 320.6 320.6 320.6 320.6 320.6 320.6 320.6 320.6 320.6 320.6 320.6 320.6 320.6 320.6 321.4 332.7 329.7 332.8 334.9 333.9 336.8 338.9 339.5
228.4 230.5 232.8 239.2 236.4 230.9 223.4 220.3 195.3 158.4 128.6 108.1 98.9 97.6 95.9 95.1 94.4 96.5 96.5 95.9 95.8 95.8 96 96 98.5 100 99.5 98.2 105.3 109.9 112 111.1 112.8 121.2 114.6 117.5 116.4 106.1 109.9 112.9 118.2 114.4 119.1 124.9 125.8 148.2 162.6 160.1 172 170.8 161.6 156.1 145.4 137.2 164.6 178 192.5 198.7 203.8 193.4 192.1 194.9 198.4 209.3 219 242.8 260.1 271.1 274.2 279.3 272.3 279.1 279.8 267 254.5 256.2 257.1 256.4 270.3 290.7 284.6 276.2 275.8 283.4 292.9 296.4 298.3 302.2 297.7 299.7 303.1 307.1 307.1 312.3 317.2 316.2 313.7 302.1 320.6 320.6 320.6 320.6 320.6 320.6 320.6 320.6 320.6 320.6 320.6 320.6 320.6 320.6 320.6 320.6 320.6 320.6 320.6 320.6 320.6 320.6 320.6 320.6 320.6 320.6 320.6 320.6 320.6 320.6 320.6 320.6 320.6 320.6 320.6 320.6 320.6 320.6 320.6 320.6 320.6 320.6 320.6 320.6 320.6 320.6 320.6 320.6 320.6 320.6 320.6 320.6 320.6 320.6 320.6 320.6 320.6 320.6 320.6 320.6 320.6 320.6 320.6 320.6 320.6 320.6 320.6 320.6 320.6 320.6 320.6 320.6 320.6 320.6 320.6 320.6 320.6 320.6 320.6 320.6 320.6 320.6 320.6 320.6 320.6 320.6 320.6 320.6 320.6 320.6 320.6 320.6 320.6 320.6 320.6 323.7 324.5 329.4 330.6 330.9 331.8 333.5
229.5 242.7 245 241.9 240.3 239.5 235.4 225.8 198.9 166.4 142.9 123.9 112.6 103.4 100 104 108.8 109.1 108.2 111.4 114.2 112.1 112.7 103.1 104.7 105.9 110.3 112.9 111.8 109.4 110.1 109.3 108.7 104.6 103.8 104.6 107.3 124.2 130.6 128.7 119.2 116.4 118 113 121.3 126.3 132.9 138.5 146 146.1 143.5 138.7 134.7 156.9 181 192.8 198.8 206.5 202.3 195 201 206.7 213.3 220.9 237.8 258.6 277.2 285.4 291.4 286.7 292.4 291.1 283.5 270.7 268.3 267.1 270.6 265.2 258.9 277.9 280.5 272.9 273.3 282.4 291.3 292.1 295.8 292 293.8 295.9 298.8 302.6 305.8 309.8 312.7 309.4 304.9 320.6 320.6 320.6 320.6 320.6 320.6 320.6 320.6 320.6 320.6 320.6 320.6 320.6 320.6 320.6 320.6 320.6 320.6 320.6 320.6 320.6 320.6 320.6 320.6 320.6 320.6 320.6 320.6 320.6 320.6 320.6 320.6 320.6 320.6 320.6 320.6 320.6 320.6 320.6 320.6 320.6 320.6 320.6 320.6 320.6 320.6 320.6 320.6 320.6 320.6 320.6 320.6 320.6 320.6 320.6 320.6 320.6 320.6 320.6 320.6 320.6 320.6 320.6 320.6 320.6 320.6 320.6 320.6 320.6 320.6 320.6 320.6 320.6 320.6 320.6 320.6 320.6 320.6 320.6 320.6 320.6 320.6 320.6 320.6 320.6 320.6 320.6 320.6 320.6 320.6 320.6 320.6 320.6 320.6 320.6 320.6 320.6 320.6 320.6 320.6 323.3 325.5 328.1
252 265.4 266.4 273.9 268.5 253.1 238.7 232.4 208.5 183.7 161.9 144.5 125.6 114.1 114.6 120.5 122.6 122.2 129.3 129.7 130 128.3 125.1 121.9 120.4 123 129.2 126 125.4 125.6 129.3 125.5 125.4 120.6 121 126.4 130.6 136.9 136.4 136 135.5 134 125 121 116.8 119.5 121.4 128.6 129.4 129.9 131.6 134.7 142.5 171.7 196.1 203.6 212.7 211.4 202.9 202 207.1 219.8 227.6 241.9 265.8 280.6 293.8 299.2 302.7 302.7 301.7 296.8 284.7 281 281.1 281.9 282.6 277 272.9 272.9 272.9 272.9 272.9 272.9 283.2 289.2 293.3 298.9 292 293.6 294.4 297.5 302.2 310.3 306.8 306.2 301.3 320.6 320.6 320.6 320.6 320.6 320.6 320.6 320.6 320.6 320.6 320.6 320.6 320.6 320.6 320.6 320.6 320.6 320.6 320.6 320.6 320.6 320.6 320.6 320.6 320.6 320.6 320.6 320.6 320.6 320.6 320.6 320.6 320.6 320.6 320.6 320.6 320.6 320.6 320.6 320.6 320.6 320.6 320.6 320.6 320.6 320.6 320.6 320.6 320.6 320.6 320.6 320.6 320.6 320.6 320.6 320.6 320.6 320.6 320.6 320.6 320.6 320.6 320.6 320.6 320.6 320.6 320.6 320.6 320.6 320.6 320.6 320.6 320.6 320.6 320.6 320.6 320.6 320.6 320.6 320.6 320.6 320.6 320.6 320.6 320.6 320.6 320.6 320.6 320.6 320.6 320.6 320.6 320.6 320.6 320.6 320.6 320.6 320.6 320.6 320.6 320.6 320.6 320.6
277 285.1 290.3 298 294.3 284.5 274 240.5 221.8 200.8 172.6 165.3 150.2 148.7 147.6 140.8 142.6 148.7 150.1 150.4 155.3 147.8 141.8 138 135.7 141 148.8 149.5 144.1 147.6 152.4 146.9 140.5 135.8 143.2 147.3 150.7 150.4 151 151.7 159.4 156.5 145.1 139.9 132.6 121.9 123.9 122.8 121.1 122 130.9 140.5 165.8 185 202.6 217.9 224.3 217.6 208.8 210.7 217.4 230.9 244.7 270.8 283.5 293.9 307.9 315.1 314.6 316.3 301.9 295.6 296.6 292.9 292.7 288.6 286.1 279.5 277.8 272.9 272.9 272.9 279.3 286.2 284.7 288.2 301.3 301.3 300.1 301.3 299.4 295.4 301.8 302.9 301.5 301.3 319.7 320.6 320.6 320.6 320.6 320.6 320.6 320.6 320.6 320.6 320.6 320.6 320.6 320.6 320.6 320.6 320.6 320.6 320.6 320.6 320.6 320.6 320.6 320.6 320.6 320.6 320.6 320.6 320.6 320.6 320.6 320.6 320.6 320.6 320.6 320.6 320.6 320.6 320.6 320.6 320.6 320.6 320.6 320.6 320.6 320.6 320.6 320.6 320.6 320.6 320.6 320.6 320.6 320.6 320.6 320.6 320.6 320.6 320.6 320.6 320.6 320.6 320.6 320.6 320.6 320.6 320.6 320.6 320.6 320.6 320.6 320.6 320.6 320.6 320.6 320.6 320.6 320.6 320.6 320.6 320.6 320.6 320.6 320.6 320.6 320.6 320.6 320.6 320.6 320.6 320.6 320.6 320.6 320.6 320.6 320.6 320.6 320.6 320.6 320.6 320.6 320.6 320.6 320.6
285.2 295.6 300 301.3 301.7 297.9 280.4 254.3 231.4 203 202.4 188.2 182.4 177.9 174.1 174 174.5 177.1 176.1 180.4 178.2 168.5 165 169 168.5 176 182.7 173.2 171.1 172.5 169.7 168.1 167.9 160.3 170.4 169 165.5 163.1 167.3 166.8 180.2 171.5 164.5 161.4 148.9 139 134.3 122.1 126.3 122.3 133.6 162.6 187.4 200.9 217.5 230.1 224.9 225.6 221.6 224.7 233.8 249.1 269 290.1 298.8 308.1 318.9 326.5 326.1 327.1 316.4 308 304 300.1 297.1 299 290.8 280.4 275.7 272.9 272.9 272.9 286.1 291.8 287.8 285.8 296.8 293.8 291.3 292.4 301.3 301.3 302.1 301.3 301 301.2 320.6 320.6 320.6 320.6 320.6 320.6 320.6 320.6 320.6 320.6 320.6 320.6 320.6 320.6 320.6 320.6 320.6 320.6 320.6 320.6 320.6 320.6 320.6 320.6 320.6 320.6 320.6 320.6 320.6 320.6 320.6 320.6 320.6 320.6 320.6 320.6 320.6 320.6 320.6 320.6 320.6 320.6 320.6 320.6 320.6 320.6 320.6 320.6 320.6 320.6 320.6 320.6 320.6 320.6 320.6 320.6 320.6 320.6 320.6 320.6 320.6 320.6 320.6 320.6 320.6 320.6 320.6 320.6 320.6 320.6 320.6 320.6 320.6 320.6 320.6 320.6 320.6 320.6 320.6 320.6 320.6 320.6 320.6 320.6 320.6 320.6 320.6 320.6 320.6 320.6 320.6 320.6 320.6 320.6 320.6 320.6 320.6 320.6 320.6 320.6 320.6 320.6 320.6 320.6
297.7 320.3 324.2 318 312.1 303.2 289.6 265.2 246.4 237 227.5 218.2 206.5 203.7 198.1 201.5 204 201.8 205.9 204 195.3 191.6 191 193.3 197.2 204.4 208.7 197.9 194.7 191.3 193.9 195.5 191.8 188.3 194.4 189.4 186.1 183 181 189.8 200.8 191.4 186.1 174.3 161.8 152.6 140 131.4 142.6 150.5 159.3 188.7 208.6 226.6 239.6 235.3 232.4 234.5 234.7 242.4 252.2 276.4 293.7 309.4 313.3 320.5 330.8 332.2 335.3 334.1 323.9 318.9 310.3 313.7 301.4 298 289.7 284.5 274.6 275.2 281.4 283 291.3 295.5 292.4 288.9 289.2 301.3 293.8 299.1 300.5 301.3 301.3 302.5 301.4 304.7 320.6 320.6 320.6 320.6 320.6 320.6 320.6 320.6 320.6 320.6 320.6 320.6 320.6 320.6 320.6 320.6 320.6 320.6 320.6 320.6 320.6 320.6 320.6 320.6 320.6 320.6 320.6 320.6 320.6 320.6 320.6 320.6 320.6 320.6 320.6 320.6 320.6 320.6 320.6 320.6 320.6 320.6 320.6 320.6 320.6 320.6 320.6 320.6 320.6 320.6 320.6 320.6 320.6 320.6 320.6 320.6 320.6 320.6 320.6 320.6 320.6 320.6 320.6 320.6 320.6 320.6 320.6 320.6 320.6 320.6 320.6 320.6 320.6 320.6 320.6 320.6 320.6 320.6 320.6 320.6 320.6 320.6 320.6 320.6 320.6 320.6 320.6 320.6 320.6 320.6 320.6 320.6 320.6 320.6 320.6 320.6 320.6 320.6 320.6 320.6 320.6 320.6 320.6 320.6
305.9 324.4 331.1 328.5 321.1 308.3 301.2 278.6 264.5 262.4 251.3 240.4 233.7 226.4 222.7 229.1 225.9 230.1 227.5 222.2 216 216 214.9 216.7 220.9 225.9 225.4 220.6 217 216.2 218.9 216.2 219.6 215.7 218.8 213.6 204.8 210 207.7 217 228.6 219.3 217.3 203.2 181.9 176.3 157.3 151.9 165 176.1 192.8 206.2 227.7 245.1 256.3 253.6 254.2 252.7 265.4 263.6 273 299.4 314.8 323.3 325.9 333.4 341.3 341.4 357.5 347.6 338.4 322.7 327.2 320.2 305.6 294.9 291.4 283 280.9 289 292.1 291.3 301.6 298.5 297.5 294.3 289.9 292.6 293.7 293.4 298.1 302 301.3 303.4 305.3 320.6 320.6 320.6 320.6 320.6 320.6 320.6 320.6 320.6 320.6 320.6 320.6 320.6 320.6 320.6 320.6 320.6 320.6 320.6 320.6 320.6 320.6 320.6 320.6 320.6 320.6 320.6 320.6 320.6 320.6 320.6 320.6 320.6 320.6 320.6 320.6 320.6 320.6 320.6 320.6 320.6 320.6 320.6 320.6 320.6 320.6 320.6 320.6 320.6 320.6 320.6 320.6 320.6 320.6 320.6 320.6 320.6 320.6 320.6 320.6 320.6 320.6 320.6 320.6 320.6 320.6 320.6 320.6 320.6 320.6 320.6 320.6 320.6 320.6 320.6 320.6 320.6 320.6 320.6 320.6 320.6 320.6 320.6 320.6 320.6 320.6 320.6 320.6 320.6 320.6 320.6 320.6 320.6 320.6 320.6 320.6 320.6 320.6 320.6 320.6 320.6 320.6 320.6 320.6 320.6
301.9 320.7 342.3 340.5 339.1 331.9 310.2 294.6 287.2 284.2 275.9 270.4 259.3 246 244.6 242.4 246.1 244.4 236.1 245.7 236.8 237.9 236.6 246.7 252.5 244 244.2 248.6 240.9 246.9 249.8 251.1 245.7 243.7 242.7 231.1 231.2 231.5 238.8 258.4 253.1 238.9 237.1 234.1 210.1 200.2 180.9 180.8 188.9 203 219.5 228.5 244.8 264 272.5 281.9 285.2 279.3 291 295.9 307 319.9 328.4 330.1 337 346.5 351.7 362 372.6 361.4 348.8 333.5 331.9 324.6 313.7 305.1 303.7 293.4 294.1 302.9 303.6 298.6 303.3 302.2 299.4 296.7 291.3 296.7 294.1 295.4 302.8 302.9 303.2 304 306.8 320.6 320.6 320.6 320.6 320.6 320.6 320.6 320.6 320.6 320.6 320.6 320.6 320.6 320.6 320.6 320.6 320.6 320.6 320.6 320.6 320.6 320.6 320.6 320.6 320.6 320.6 320.6 320.6 320.6 320.6 320.6 320.6 320.6 320.6 320.6 320.6 320.6 320.6 320.6 320.6 320.6 320.6 320.6 320.6 320.6 320.6 320.6 320.6 320.6 320.6 320.6 320.6 320.6 320.6 320.6 320.6 320.6 320.6 320.6 320.6 320.6 320.6 320.6 320.6 320.6 320.6 320.6 320.6 320.6 320.6 320.6 320.6 320.6 320.6 320.6 320.6 320.6 320.6 320.6 320.6 320.6 320.6 320.6 320.6 320.6 320.6 320.6 320.6 320.6 320.6 320.6 320.6 320.6 320.6 320.6 320.6 320.6 320.6 320.6 320.6 320.6 320.6 320.6 320.6 320.6
307.7 330.1 350.3 351.6 349.9 345.9 320 316.3 309.4 307.2 298.2 290.5 284.9 274 268.5 275.1 265.1 256.7 251.8 260.7 259.8 256.2 268.7 282 277.2 270.2 284.1 278.7 273.6 274.9 283.7 276.3 279.1 269 264.3 255.3 258.9 269.7 282.1 283.7 267.6 259.1 250.7 253.7 238 220.1 202.1 207.1 213.3 230.6 240.8 249.3 263.2 277.5 292.7 298.4 299.6 300 308.8 326.8 332.7 336.6 341.5 342.3 348 352.1 363.1 376.7 373.3 370.2 354.4 341.1 334.6 339.6 330.4 313.3 308.4 309.6 312.5 310 310.8 306.1 304.2 303.2 296.3 292.5 297.2 299.5 296.4 305 306.3 304.5 304.2 306.6 314.9 320.6 320.6 320.6 320.6 320.6 320.6 320.6 320.6 320.6 320.6 320.6 320.6 320.6 320.6 320.6 320.6 320.6 320.6 320.6 320.6 320.6 320.6 320.6 320.6 320.6 320.6 320.6 320.6 320.6 320.6 320.6 320.6 320.6 320.6 320.6 320.6 320.6 320.6 320.6 320.6 320.6 320.6 320.6 320.6 320.6 320.6 320.6 320.6 320.6 320.6 320.6 320.6 320.6 320.6 320.6 320.6 320.6 320.6 320.6 320.6 320.6 320.6 320.6 320.6 320.6 320.6 320.6 320.6 320.6 320.6 320.6 320.6 320.6 320.6 320.6 320.6 320.6 320.6 320.6 320.6 320.6 320.6 320.6 320.6 320.6 320.6 320.6 320.6 320.6 320.6 320.6 320.6 320.6 320.6 320.6 320.6 320.6 320.6 320.6 320.6 320.6 320.6 320.6 320.6 320.6
315.8 337.5 352.1 358.6 359.8 350.5 340.7 334.1 326 316.7 313.8 306.8 301.1 294.4 292.1 291.9 287.2 274.1 267.6 275 278.4 286.8 300.3 299.3 295.8 298.5 296.7 293.5 289.8 300.3 298.6 299.6 297.4 303.7 283.3 283.7 287.1 288.5 295.4 295 279.2 273.2 269.7 261.5 249.8 233.5 228.3 231.1 240.5 248.2 258.5 273.9 284.1 293.4 302.3 311.9 326.4 326.9 335.9 347.5 351.5 355 356.6 354.3 359.9 362.4 388 377.9 377.8 370.3 359 343.6 340 341.5 328.3 309.1 317.6 319.8 321.1 325.2 324.9 321 309.6 305.4 295.6 294.6 303.1 300 304.4 309.2 307.9 307.7 309.1 307.4 320.6 320.6 320.6 320.6 320.6 320.6 320.6 320.6 320.6 320.6 320.6 320.6 320.6 320.6 320.6 320.6 320.6 320.6 320.6 320.6 320.6 320.6 320.6 320.6 320.6 320.6 320.6 320.6 320.6 320.6 320.6 320.6 320.6 320.6 320.6 320.6 320.6 320.6 320.6 320.6 320.6 320.6 320.6 320.6 320.6 320.6 320.6 320.6 320.6 320.6 320.6 320.6 320.6 320.6 320.6 320.6 320.6 320.6 320.6 320.6 320.6 320.6 320.6 320.6 320.6 320.6 320.6 320.6 320.6 320.6 320.6 320.6 320.6 320.6 320.6 320.6 320.6 320.6 320.6 320.6 320.8 321.5 325.7 324.7 320.6 320.6 320.6 320.6 320.6 320.6 320.6 320.6 320.6 320.6 320.6 320.6 320.6 320.6 320.6 320.6 320.6 320.6 320.6 320.6 320.6 320.6
329.3 352.5 363.9 367.9 364.6 359.9 356 351.2 347.9 335.4 324.9 317.1 312.3 308.9 309.1 304.1 298.9 294.5 294.9 294.4 300.5 312 314 309.8 311.3 310.4 305.6 307.9 312.1 318.2 325.8 323.9 318.6 315.8 295.7 308 304.2 308.3 308.3 302 290 287.3 277 264.9 249.7 242.1 241.3 246.8 260.2 270.7 284.9 287.9 299.8 309.2 318.4 323.1 338.9 347.4 353.6 364.7 365.7 370.2 365 366.3 375.1 390.4 388.1 383.3 378.8 379.1 364.8 354.2 349.3 347.5 327.5 315.1 321.4 333.2 319.9 329.1 332.2 326.9 322.1 313.2 301.2 301.5 300.9 303.6 305.9 306.8 309.3 311.2 310.7 310.1 320.6 320.6 320.6 320.6 320.6 320.6 320.6 320.6 320.6 320.6 320.6 320.6 320.6 320.6 320.6 320.6 320.6 320.6 320.6 320.6 320.6 320.6 320.6 320.6 320.6 320.6 320.6 320.6 320.6 320.6 320.6 320.6 320.6 320.6 320.6 320.6 320.6 320.6 320.6 320.6 320.6 320.6 320.6 320.6 320.6 320.6 320.6 320.6 320.6 320.6 320.6 320.6 320.6 320.6 320.6 320.6 320.6 320.6 320.6 320.6 320.6 320.6 320.6 320.6 320.6 320.6 320.6 320.6 320.6 321.5 325.7 320.6 320.6 320.6 320.6 320.6 321.4 325.3 328.7 330.2 331 330.2 333.3 332.5 330.5 325.7 325.6 324.3 322.8 322.2 320.7 320.6 320.6 320.6 320.6 320.6 320.6 320.6 320.6 320.6 320.6 320.6 320.6 320.6 320.6 320.6
340.3 363.2 377.2 378.6 375 369.3 372 369.4 361.8 354.2 343.9 334.4 325.8 321.5 314.7 308.7 306.6 307.3 304.5 307 316.6 321.7 320.9 321.7 323 322.7 322.2 325.8 331.3 331 331.1 325.2 312.8 298.3 306 310.9 307.2 307.1 306.7 301.4 294.2 288.9 279.5 269.2 254.7 250.5 254.5 265.3 278.2 283 295.6 304.6 311.1 320.9 328.5 335.3 340.9 358.4 363.7 376.1 377.6 375.4 378.6 386.1 396.5 398.5 393.5 387.5 385 383.9 369.9 362.2 354.6 341.7 328.8 323.4 323.6 330 331.4 338 339 331.4 325.9 316.5 306.6 305 301.3 301.5 305.3 307.9 313 317.4 313.7 319.9 320.6 320.6 320.6 320.6 320.6 320.6 320.6 320.6 320.6 320.6 320.6 320.6 320.6 320.6 320.6 320.6 320.6 320.6 320.6 320.6 320.6 320.6 320.6 320.6 320.6 320.6 320.6 320.6 320.6 320.6 320.6 320.6 320.6 320.6 320.6 320.6 320.6 320.6 320.6 320.6 320.6 320.6 320.6 320.6 320.6 320.6 320.6 320.6 320.6 320.6 320.6 320.6 320.6 320.6 320.6 320.6 320.6 320.6 320.6 320.6 320.6 320.6 320.6 320.6 320.6 320.6 320.6 320.6 321.3 326.4 330.9 322.8 320.6 320.6 320.6 328.4 331.7 332.3 333.4 336.8 335.1 336.5 336.8 337.1 334.4 332.4 330.9 330.5 327.4 326.9 327.3 327.3 322.6 320.6 320.6 320.6 320.6 320.6 320.6 320.6 320.6 320.6 320.6 320.6 320.6 320.6
353.5 377.1 389.4 389.9 385.6 389 385.3 382 373.5 364.9 357.2 346.6 338.7 332.2 326 324.4 327 324.7 322.6 326.7 331.5 330.2 327.6 331.6 331.6 330 328.8 331.7 333.2 333.2 330.7 329.7 321.3 309.9 313.5 313.6 320.9 317.9 313 309.7 303.4 297.4 287.5 272.5 266.5 264.2 259.1 273.4 285.3 293.9 303.5 316.5 324.9 329.6 340 350.9 353.4 363 376.5 382.4 383.7 388.2 399.1 406.2 410.5 402.9 397.7 395.3 391.2 388.4 376.6 367 355.9 340 333.9 327.1 329.2 335.1 339.1 337.8 336.1 331.5 324.1 314.5 311.7 306.4 302.4 302.6 305.7 311.2 315.2 318.7 316.7 320.6 320.6 320.6 320.6 320.6 320.6 320.6 320.6 320.6 320.6 320.6 320.6 320.6 320.6 320.6 320.6 320.6 320.6 320.6 320.6 320.6 320.6 320.6 320.6 320.6 320.6 320.6 320.6 320.6 320.6 320.6 320.6 320.6 320.6 320.6 320.6 320.6 320.6 320.6 320.6 320.6 320.6 320.6 320.6 320.6 320.6 320.6 320.6 320.6 320.6 320.6 320.6 320.6 320.6 320.6 320.6 320.6 320.6 320.6 320.6 320.6 320.6 320.6 320.6 320.6 320.6 320.6 322.7 324.7 326.7 328.8 330.1 322.8 329.5 330.4 332.6 335.3 337.7 339.2 339.1 342.7 343.8 341.3 341.1 339.8 337.5 335.9 335.9 335.3 333.1 332.1 330.2 329.3 328.5 323.2 320.6 320.6 320.6 320.6 320.6 320.6 320.6 320.6 320.6 320.6 320.6 320.6
