ncols 200
nrows 82
xllcorner 340000
yllcorner 283250
cellsize 50
144.2 143.4 143.4 143 142.8 143 142.5 142.2 142 141.5 141.7 143.4 148.5 158.2 160.8 165.9 169.3 171.1 171.9 169.7 158.7 149.2 147.2 160.8 173.5 182.3 185.9 187.1 193.1 195.1 200.6 208.4 218.6 231 231 233.9 236.8 242.5 249.7 251.2 250.6 251.5 250.7 247.8 245.4 239.2 233 234.1 233.8 231.8 230.1 229.3 230 229.5 227.9 225.3 221.2 217.7 213.8 211.3 208.4 205.3 201.9 197.9 194.4 188.3 184 181.7 178.9 175.7 171.8 167.6 164.6 163.3 160.8 157.2 153.9 152.2 152.3 151.9 151.7 151.1 150.1 148.2 147.9 147.8 145.9 142.3 144.4 146.7 146.3 145.3 141.9 139.2 140.2 139.4 138.1 140.5 145.1 148 147.6 147.3 149.4 151.6 155.2 158.5 160.7 160.9 160.4 160.1 160 159.6 159.2 158 155.6 152.9 151.2 149.3 147.3 144.5 142.2 139.4 138.9 138.8 139 139.3 138.4 137.1 135.6 134.3 133.7 138.6 142.5 145.1 149.2 153.8 160.2 167.5 176.6 186.8 199 211.9 224.2 233.3 241.6 245.6 246.3 247.2 246.9 244.8 242.8 241.1 239.7 239 237.1 236.1 234 230.7 227.3 225 222.5 219.2 216 212.1 210.1 211.6 212 210.9 210.7 209.4 210.5 211.2 211.3 211.7 211.3 211.2 209.4 209.1 206.6 205.6 205.2 202.1 197.7 195.3 193.3 189.8 186.5 180.7 175.4 177.6 176.4 168.8 162.3 166.1 174.7 186.3 197 210.3 229.2 247.3
149.2 145.3 144.5 148.6 148.1 142.5 142.2 142.6 144.1 144.5 141.1 141.3 141.2 142.9 148.7 159.6 163.7 167.4 168.2 159.5 144.8 146.1 159.5 169.9 181 190.2 196.4 201.2 203.1 206.8 208.9 218.1 226 224.7 228.8 234.2 241.3 247.7 251 254 255.1 256.6 253.4 250.2 245.8 239.1 232.7 226.1 225.1 224.4 225.4 226.6 227.3 227.3 226.4 224.6 222 218.5 214.5 211.7 208.9 205.6 202.3 198.1 195.3 191.7 190.1 187.7 184.9 180.5 175.5 169.9 165.7 163.9 162.4 158.8 154.5 152 150.9 149.7 149.6 149.5 148.6 146 145.8 146.9 144.9 141.2 142.6 146.2 145.6 143.9 139.7 138.9 139.1 139 139.4 141.3 144.9 145.2 147 151.8 153.2 154.7 157.6 160.4 161.4 160.6 160 159.6 159.4 159 158.4 157.1 155.1 152.5 150.9 150.4 149 146.5 143.5 140.2 138.1 137.2 137.3 137.4 136.9 135.4 133.9 134.6 137.5 141.3 145.5 149.3 153.9 159.7 167.4 181.3 191.4 200.4 213.7 228 238 243.5 243.9 245.4 246 244.5 242.1 240 237.9 237.2 236.4 234.9 234.1 233.7 232.8 230.6 228.2 226.1 223.4 220.1 215.7 214 214.2 215.1 216.4 216.2 214.9 214.4 216 217.1 217.2 217.3 217.5 217.2 217 217.1 215.8 215.4 215.6 214.6 213.8 207.7 204.9 201.3 194.8 186.5 180.3 182.2 181.5 176.2 163.5 160 174.5 185.8 196.5 208.1 227.4 245.3
155.4 154.1 159 163.5 164.2 161.4 160.3 162.2 164.5 162.1 152.4 143.4 141.2 140.8 141.2 144 153.8 163.1 163.5 150 145.4 158.8 168.4 179.2 188.4 197.1 202.8 205.6 206.6 205.9 207 208.9 212.8 218.4 225.4 232.8 243.6 249.5 249.6 255.2 260.8 259.7 256.1 252.2 246 239.7 233.7 227.7 221.3 219.2 221.1 223.3 224.5 225 224.7 223.4 221.1 218.3 215.2 211.9 208.1 204.4 200.8 198.1 196.1 193.9 191.8 189.3 186.2 182.3 177 171 165.7 161.6 160.1 157.1 154 151.5 150.3 148.8 147.7 147.8 146.4 145.2 144 143.2 141.8 141 141.3 144.5 145.1 141.2 138.4 138.7 138.4 138.3 138.7 139.7 141.1 145.2 151.9 155.4 156.3 157.9 160.3 161.3 160.7 159.9 159.3 158.8 158.1 157.8 156.4 155.4 152.4 152.1 150 149.7 149.5 147.6 145.5 142.1 138.3 137 135.8 135.8 136 133.7 135.6 137 139.6 143.8 149 154.9 160.1 168.4 178.6 195.1 208 217.3 230.2 241.7 242.7 243.1 243.2 244.8 243.5 240 237.7 235.4 233.5 232.4 231.3 230.7 231 231.9 232.1 229.9 227.3 225 222.4 219.6 216.5 218.5 218.8 220.4 221.6 220.4 221.2 220.7 222.3 223.1 224.1 224.4 225.6 227 226.9 226.6 227.8 229.6 233.4 233.9 233.8 226.4 223 215.1 202.3 191.6 185.8 182.3 179.9 175 167 160.8 171.2 182.2 193.4 206.9 224.7 242.9
165 169 173 176.4 178 177.3 178.5 181.1 182.8 181.1 177 169.6 160.5 151.3 142.8 140.6 141 145.4 144.7 140.9 152.5 167.1 178.5 185.6 192.9 199.8 206.4 209.6 205.7 203.3 202.4 204.5 208.1 214.2 223.6 234.3 241.7 241.8 251.2 260.4 263.6 262 259.2 253.1 246.5 240.3 233.3 227.1 221.6 219.7 216.8 218.9 221.4 222.2 222.8 222.2 219.9 218 214.9 211 207.2 203.3 200.1 197.6 196 193.4 191.1 188.3 184.7 180.7 176.7 169.9 164.9 160.8 157.9 155.4 152.6 151.4 150.5 149.2 147.3 146.5 148.9 145.5 145.3 144.4 143.1 141.7 139.8 141.8 143.7 138.9 138.5 138.5 138 138.9 138.4 139.1 143.6 150.7 157 157.7 158.8 160.2 160.7 160.1 158.9 158.2 158.2 157.8 157.1 156.4 155.4 153.5 151.2 149.6 148.9 148.3 148.2 148.1 145.8 142.9 139.6 136.5 135.1 134.4 134 134.1 134.9 139.8 143.5 148.5 154.3 161.8 168.5 180.2 192.7 208.2 223.2 234.4 241.3 245.4 244.8 242.6 241.5 241.3 238.2 235.3 232.4 230.4 228.9 227.6 226.7 227.7 229.1 230.4 229.7 226.8 223.8 221.9 219.9 219.2 220.1 222.5 223.7 225.4 226.3 226.7 226.8 227 228.6 230.6 232.3 235.7 235.9 237.2 238.5 241.7 244.5 247.2 248.7 247.5 243.6 236.8 230.4 223.9 211.9 196.9 189.6 183.7 178.5 172.3 166.4 160.9 167.1 179 191.5 206.6 223.4 241.7
174.3 179.4 182.2 184.4 188.8 189.6 191.8 197.3 199.9 199.7 197.7 192.6 185 173.1 162.5 151.1 140.9 140.1 140.8 144.1 156.6 171.5 182.8 189.2 194.1 200 207.5 209.3 202.3 197.7 199.6 201.5 207.3 217 228.1 233.1 229.3 244 256.2 266.1 265.4 263.1 261.4 254.4 247.6 241.7 235.7 228.5 223.2 219 214.3 211 217 219.6 220.6 220.1 218.9 216.8 213.6 209 205.4 201.7 198.9 196.4 194.8 192.3 189.8 187.2 183.7 180.1 175.1 170.3 166.1 161.9 158.3 156 154.6 153.5 151.8 150.2 148.6 148.7 147.8 147.2 146.6 146.6 144.1 142 139.8 139.9 139.2 138.3 138 137.8 138 138 138.3 139.9 147 154.3 158.6 159.7 160.1 160 159.4 157.9 157.1 155.9 155.7 156 156.1 154 153 151.5 149.1 147.3 146.8 147.2 147.3 146.5 144 141.4 137.6 135.4 134.9 134.4 133.5 135.1 139.4 143.4 148.9 154.7 163.7 170.6 182.7 195.6 208.3 223.3 233.9 239.4 242.8 243.8 243.4 241.6 237.3 236.7 233.6 230.3 227.4 225.6 224 222.9 222.5 224.9 227.4 227.4 224.6 221.9 219.2 218.4 219.2 221.3 223.8 226.3 229.4 231.8 232.3 232.7 232.3 234.5 237.9 240.2 242.2 244.7 250.8 253.3 256.8 260.4 262.2 263.5 259.6 255.4 250 243.3 236.6 230 219.8 205.8 196 189.3 184.5 178.7 170.2 160.1 163.9 175.9 190.8 206.8 224.3 238.2
180.6 187.2 191.9 195 198.4 202.7 205.4 211 214.1 214.9 209.4 196.6 184.4 172.8 165.3 159.4 147.5 139.7 139.7 142.3 154 171.1 184 191 196.1 202.3 204.2 200.9 195.4 193.8 196.5 202.9 214.2 222.3 226.8 221.6 231.9 247.6 259.8 265 264.1 264.6 260.8 254.4 249 243.3 236.6 228.7 223.2 218.3 213.5 207.9 208.6 215.5 217.7 217.5 216.2 214.2 211.3 208 203.9 200.5 197.7 194.6 192.3 189.9 188.5 186.2 183.2 180.6 176.3 171.1 167.9 164.1 160.4 157.4 155.8 153.6 152.2 149.7 149.5 148.9 148.1 147.7 146.8 146.8 145.5 143.9 141.5 138.4 138.1 137.9 137.5 137.1 137.4 137.8 138 141.5 149.3 155.3 157.5 158.5 159.7 159.6 158.5 157.2 155.5 154 153.1 153.2 153.6 151.2 149 145.1 146.8 145.8 145.7 144.1 144.9 144 140.6 136.1 134.7 133.1 133.1 133.5 133.8 139.5 143.9 149 155.7 165.1 173.5 184.2 199.9 214.9 225.4 234.1 238.3 240.8 241 241.7 240.9 238.6 234.4 231.9 228.8 225.7 222.6 220.7 219.2 219.4 221.3 222.7 223.6 222 218.7 216.4 215.2 218.1 220.6 223.8 227.2 231.3 235.6 238.2 239 239.5 241.7 243 246.4 249.2 255.5 262.7 269.9 277.4 278.9 276.8 273.1 270.3 265.1 260.1 251.3 242.5 239.2 233.9 225.9 215.2 204.9 196 189.1 181.7 171.7 161.3 161.3 173.6 191.3 209.2 226.3 235
188.1 191.4 201.9 207.9 212.6 214.8 217 221.1 223.7 219.6 209.5 197.3 186.2 175.6 166.3 158.4 146.6 140.5 139.4 139.6 149.8 167.8 181.6 190 196.1 200.4 199.8 194.5 190.3 188.7 193.4 203.1 212.1 219.2 219 217.6 234.6 248.6 258.9 261.2 262 263.9 257.7 252.6 248.4 243 235.4 227.7 222 217.5 213 207.6 202.8 204.6 212.5 213.6 212.7 211.1 209 206.3 202.7 198.4 195.2 192.3 190 187.4 186.3 185 183 180.1 177 173.4 168.9 164.7 161.3 158.7 156.5 153.6 151.3 150.1 149.7 149.6 148.5 147.5 146.7 146.5 145 143 140.9 138.4 137.8 137.7 137.3 136.9 136.7 137.2 139 143.4 150.9 156 156.1 157 158.7 158.4 157.5 156.4 154.7 152.4 150.2 149.4 148.4 144.1 144.5 143.7 143.8 145.9 143.6 140.3 141 139 136.2 135.3 132.5 131.2 134.6 137.8 139.9 144.2 149.9 156.5 164.8 175.1 183.6 198.5 214.5 229.7 235.7 238.4 238.3 239.2 239.6 239.3 237.4 235 231.7 227 224 221.7 218.3 215.9 215.2 217 217.8 219.2 218.1 216.1 213.7 212.6 216.6 220 223.9 227.7 232 237.4 242.6 245.4 246.4 247.1 249.3 252.1 257 265.4 273 286.1 286.9 286.5 284 280.8 278.2 273.8 268.5 262.2 252.7 238.5 231.3 227.5 223 218.8 209.3 200.9 193 182.7 171.6 163 157.6 168.8 189.1 209.6 228.6 230.9
196.6 206.5 215.3 221.5 223.8 222.8 224.4 225.9 220.2 213.1 206.4 197.2 187.3 176.3 163.7 154.2 143.6 140.5 140.5 140.3 146.2 164.7 179.6 187.5 191.6 194.8 195.8 190.1 186.5 186.7 191.7 195.2 201.7 206.1 208.2 220.9 235.5 248 254.2 257.5 259.4 258.8 254.1 251 246.4 241.2 233.7 226.5 220.7 215.9 211.5 206.2 202 198.8 201.7 207 208.2 207.4 205.7 204 201.9 198.2 194 189.9 186.7 184.8 183.8 182.3 180.9 179.4 176.4 173.3 168.7 165.4 162.5 159.1 156.5 153.2 151.5 150.7 150 149.6 149.3 149.2 147.6 146.2 144.7 142.9 139.8 137.6 137.1 136.7 136.8 136.8 136.5 136.7 140.4 148.3 154.9 154.7 154.8 155.3 156.8 156.7 156.2 155.1 153.3 151.3 147.8 145.6 144.8 144 143.6 142.2 142.7 142.4 141.6 139 136.6 134.9 133.6 131.6 135.4 136.5 138.8 141.6 145.6 151 156.8 165.3 175.1 188.1 200.7 214 228.4 235.9 239.2 238.4 236.1 236.6 237.1 234.7 232.9 230 226.7 224.1 219.8 217.2 214.1 211.6 213.5 212.7 213.7 214.5 212.8 210.8 209.4 214.2 218.3 223.4 227.9 233.1 238.9 245.2 251.2 253.9 253.8 255.6 257.7 262 271.7 284.7 288.1 285.1 286 285.7 284 281.9 279.1 274.6 269.3 264 255.7 243.5 232.5 218.6 212.4 208.8 203.9 199.3 191.1 179.7 171.6 166.4 159.2 163.3 185.5 207.3 224.9 226
206.8 218.5 232.6 232.3 231.1 226 220.6 216.2 211.4 206.8 203 197 182.5 168.6 159.4 146.1 141.8 140.1 141.5 142.1 147.5 164.7 177.8 184 186.2 188.9 187.6 186.2 182.9 184.3 187.5 192 196.4 201.5 210.4 223 238.4 248.1 251.5 254.8 257.1 254.2 251.3 248.3 243.6 238.9 232.7 226.3 220.1 215.6 211.1 207.5 203.1 199 195.4 196.9 202.8 202.8 201.9 200.9 201.1 197.8 192.8 188 184.1 180.3 179.3 177.3 176.5 176 175.2 173.1 170.7 166.7 163 159.4 156.1 153.5 152 151.2 150 149.5 149.6 149.7 147.8 145.9 144.8 142.9 139.8 136.9 136.4 136 135.7 135.6 135.6 137.7 144.7 154.2 156.9 154.9 153.4 153.2 154.2 154.4 154.1 153.6 152.1 150.1 146.8 143.3 143.6 141.8 141.5 141.4 139.2 138.2 137.9 136.3 135.6 132.1 131.5 134.4 136.2 141 144.1 147.9 152.1 158.5 166.5 175.8 189.4 204.9 217.2 226.5 236.5 239 238.9 238.2 235.3 232.8 232.4 229.5 228 225.6 222.9 220.1 217 212.6 209.1 209 209.9 207.9 207.6 209.1 206.9 206.8 210.5 214.9 220.7 226.8 233.4 240.5 247.3 255.1 261 264.6 265.1 271.2 274.8 278.4 288 292.9 290.3 288.2 286.8 284.1 281.9 279.6 277.3 274.7 270.3 265.8 260.9 253.4 240.4 227.1 214.1 201.8 196 191.1 185.1 179.3 179 173 161.3 160.3 181.7 201 216.8 220.1
212.8 225.2 236.5 231.6 226.2 219.9 212.2 206.1 200 197.7 194.5 183.9 172 163.9 153.8 143.8 141.2 140.8 140.3 141.3 152.6 167.1 176.7 182.3 182.2 181 180.8 181 177.7 183.7 188.1 193.4 198.4 202.7 210.5 219.8 236 243.6 248 252 251.8 249.5 248.1 245 240.5 235.8 230.7 225.2 220.1 215.6 212.5 209.2 206.3 202.7 196.8 190.8 195.4 196.8 197.7 198.6 199.5 196 190.6 185.7 181.7 177.4 174 172.6 171.7 170.5 170.9 170 168.3 165 161.8 158.8 155.6 152.5 151 150.2 150 149.6 149.9 150.2 149.4 146.5 144 143 139.5 136.5 136.1 135.9 135.7 135.6 136 138.6 147.4 155.5 157.2 155.1 152.7 151.3 151.4 151.7 151.9 151.6 150.4 148.3 145.4 143.1 140 137.5 137.1 136.5 136.5 135.8 134.8 134.6 133.2 134.9 134.2 137.4 140.9 145.9 150.7 154.2 159.7 167.3 176.6 189.1 205.4 223 230.7 236.3 237.5 237.2 237.8 237.4 234.6 230.3 226.4 224.3 222.5 220.9 218.7 215.6 212.5 209.8 205.5 205 205.5 203.5 203.2 202.8 203.7 209.5 214.6 218.2 223.6 230.8 238.8 247.2 255.3 263.4 271.3 274.7 282.4 291.9 295 301.2 298 294.1 289.9 286 282.2 278.9 278.1 276.7 274.9 273.1 271.3 267.4 263.1 256.9 248.8 240.1 229.4 216.3 205.4 198.5 195.9 196.7 190.3 175.9 162.7 158.3 178.5 195.5 205.5 212.1
215 226.9 233.9 229.8 223.4 215.4 207 199.3 192.7 186.1 176.6 171 163 158.1 154.2 142 140.2 139.7 139.4 141.2 156.7 169.1 177.4 179.5 177.9 175.8 176 174.8 182.7 187.5 191.9 194.9 196.6 202.8 213.1 228.7 236 241.5 247.4 250.8 247.9 245.8 244.3 240.8 237 232.6 228.1 223.4 218.8 215.7 213.1 210 206.7 202.8 197.8 192.2 189.2 192 192.7 195.8 197 193.6 187.7 183.5 179.2 175.7 171.6 168.2 167 165.8 165.5 164.7 162.4 160.5 158.8 156.9 154 151 150.1 149.7 149.6 150 150.8 151 150.7 148.3 144.5 143 140 136.2 136 135.9 135.7 135.5 135.5 138.8 147.1 153.9 154.7 154.2 152.3 150.3 148.6 148.6 148.8 148.8 147.9 146.7 144.6 142 139 135.6 134.8 134.6 134.3 133.7 132.8 132.4 133.3 135.7 137.5 141.1 146.5 151.5 156.7 162.8 169.7 178.9 191.6 208.1 224.1 234.3 236.1 237 236.1 234.3 234.8 233.2 230 226.7 223.2 219.4 217.5 215.8 213.8 211.1 208.3 206.1 202.9 200.6 201.6 199.4 199.9 200.7 206 210.6 215.5 220.3 227.2 234 243.7 253.2 261.8 270.8 281.1 289.8 304.5 311 306.4 302.3 297.6 293.2 287.6 281 277.8 273.7 273.3 272.9 272.1 270.9 269.7 267.8 264.7 259.9 253.1 245.8 238.8 232.1 224.1 217 211.2 205.4 192.6 176 161.4 156.6 173.5 187.1 190.3 198.7
216.1 227.9 232.6 227.8 221.1 213.9 203.8 193.2 182.5 173.9 168.1 162.6 158.8 155.6 152.5 142.3 139.5 138.5 139.3 145.8 161.7 170.9 173.7 173.8 175.3 171.3 172 178.9 184.1 189 194.6 191.1 196.4 207.3 218.6 234.4 239.5 242.5 249.4 249.1 245.6 243 241.1 237.8 234.2 230.4 226.3 221.3 217.1 214.4 211.4 209.1 205.2 200.8 195.9 190.5 186.3 185 188.1 192.3 193.2 189.3 184.5 180.4 177 173.1 169.5 167.1 164.2 163.1 161.9 160.9 159.8 157.4 156.1 154.2 151.8 150.1 148.5 149.6 150.6 151.4 152 152.5 151.5 148.6 144.4 143 141.2 137.6 135.6 135.5 135.4 135.1 135.2 137.7 143.3 149.7 151.4 153 151.3 149.1 146.4 145.2 144.7 144.7 144.6 144.6 142.7 140.6 137.7 134.5 133.5 133.5 133.5 134 131.6 133.8 136.4 138.5 143.1 147.3 152.7 159.5 165.7 172.8 181.4 193.2 204.6 220.1 235 236.9 237.4 236.1 234.1 230.7 230.9 228.1 224.8 222.1 219.3 215.5 212.5 210.6 208.6 206.4 204.1 201.8 199.4 198 196.6 197.8 197.7 201.1 205.7 210.3 215.5 222.1 229.4 236.8 247.9 257.2 266.5 276.7 286.6 303.2 313.9 310.3 305.4 300.9 296.2 291.3 286.6 280.2 275.8 270.3 268.3 268.4 268.7 268.4 268.5 268.1 264.9 260.4 255.4 249.4 243.2 236.9 230.9 225.5 220.4 213.2 203.7 185.3 162.2 153.8 164 173.2 175.6 184.9
222.6 230.3 231.2 224.8 216.5 208.6 200.6 193.3 185.6 172.6 163.7 158 155.6 154.4 151.6 139.7 137.9 138.2 139.4 153.4 163.9 169.4 171.2 170.5 171.1 169.4 178.1 182.3 184.3 186.2 188.3 185.8 197.7 211.4 230.2 237.5 240.2 243.9 249.7 246.3 242.6 241.4 240 236.2 232.1 228.7 223.9 219.5 215 212.2 209.3 207 203.2 198.6 193.3 188.8 184.9 182.8 184.6 185.6 187.1 184.2 179.5 176.3 174.2 170.7 168.1 165.4 162.8 160.5 159.6 158.8 157.9 156.1 154.1 152 150.2 149.4 150.5 151 152.1 153 153.6 152.8 151.2 148 144.1 142.6 142.2 141.6 137 135.4 134.8 134.8 135.1 136.8 140.2 145.4 148.8 150.3 149.7 147.6 145.1 143.6 142.5 141.3 141.6 142 140.9 138.3 135.5 133.1 131.7 133.4 132.6 133 135.1 137.6 140.1 143.7 148.5 154.2 161.9 169 176.6 186.8 200 211.9 221.1 232.5 237.6 237.6 235.3 233 230.3 226.8 225.3 222.8 219.6 216.8 214.1 211.7 209.6 207.2 204.9 202.8 200.7 198.8 196.4 194.9 193.7 195.2 198.8 202.7 207 211.4 217.3 224 232.2 241.4 251.6 261 270.8 281.8 294.5 312.7 310.2 305.9 302 297.4 293.6 289.5 285.9 282.1 277.9 274.2 268.5 262.2 263.6 264.8 265.8 264.5 261.3 258.4 253.9 249.9 245 239.2 233.5 227.4 222.8 217.5 211.1 197.9 175.2 158.1 154.2 160.3 165.7 175.7
231.7 230.6 226 217.5 209.1 202.8 195.3 189.5 182.4 170.1 160.1 154.9 152.8 152.9 151.9 138.4 137.8 137.4 140.5 151.3 161.4 167.1 168.3 167.7 167.2 168.9 175.1 179.9 182.2 183.4 182 192.8 201.6 217.9 234.7 238.9 241.4 246.8 247.2 243.4 239.6 239.4 238.2 235.7 231.9 227.8 222.3 217.2 211.7 209.5 207.5 204.4 200.8 196.7 192.2 187.3 183.5 179.9 178.2 177.6 178.8 176.9 174.1 171.4 169.2 167.8 165.5 162.6 159.8 158.2 157.4 156.6 155.4 154.6 152.7 151.2 149.8 152.3 150.4 152.3 153.5 154 153.2 152 150.6 147.1 143.8 142.4 142.5 142.9 139.2 134.7 134.4 134.5 134.9 135.4 138.7 142.5 145.5 147.6 147.4 146 144.1 143.5 142.7 141.5 138.8 138.8 138.6 135.9 133.3 132.6 132.6 133 135.1 136.4 138.1 141.3 145.5 149.6 155.7 163.9 171.9 180.6 189.6 203.1 217.8 230.5 236.8 240.2 240.6 237.4 233.9 230.7 227.7 225.3 221.7 218.5 216 212.9 210.7 208.3 206.8 205.5 204.1 202 200.8 199.2 196.8 192.9 192.7 194.3 198.8 202.8 207.4 213.1 219.2 226.9 235.6 244.9 254.9 264.8 274.5 286.7 303.9 307.4 304 299.3 296.6 293.3 290.5 289.1 286.5 283.8 280.5 276.9 272.7 266.6 258.9 256.4 258.3 260 257.9 255.2 252 248.5 244.2 239.5 234.9 229.3 224.8 218.9 213.3 204.6 189.1 176.2 161.8 151 154.8 166
231.4 224.5 217.3 209 202.4 197.2 192.6 186.6 177.9 166.1 158.1 153 149.5 150 151.1 138 137.6 138.7 140.6 147 156.4 163 164.7 163.6 161 167.8 172.1 177.5 178.5 176.3 183.7 192.6 208.9 227.5 235 239.4 242.6 248.3 243.5 239.2 237.6 238 236.3 235.3 232.3 228 222.7 217.3 211.7 204.6 202.5 199.3 195.2 192.1 188.8 184.6 181.8 179.7 176.2 172.9 171.9 171.3 169.2 167.7 166 164.2 162.4 160.2 158 156.6 155.4 154.9 154.4 153.2 151.6 150.2 148.7 147.5 150.9 151.9 152.9 152.8 152.5 151.4 150.1 147.7 144.5 142.6 141.8 142.1 140.3 134.6 134.3 134 133.9 134.9 137.4 140.1 142.7 144.4 144.6 143.8 143.4 143 141.7 140.1 137.7 136.2 135 133 132 132.1 133.6 134.9 136.9 139.7 143.1 146.5 151.1 158.2 165.4 174.5 184.8 189.7 204.8 221.5 231.8 238.6 242.7 241.9 238.4 235.1 232.5 229.4 226.4 223.8 221.3 218.2 215.6 213.6 212.4 210.2 209 208.4 207.6 206.4 204.6 201.7 198.3 194.6 192.1 194.4 198.3 202.2 208.2 214.2 221.7 229.7 238.6 248.1 257.8 267.9 280.8 298.3 302.9 300.4 297.7 294.6 292.1 288.9 288.2 288.1 286.5 283.4 280.1 276.2 273.3 269.1 263.3 255.7 250.2 250.9 253.1 251.5 249.4 246.3 242.4 238.9 233.8 228.9 222.8 217 211.3 205.1 191.9 180.8 166.9 162.5 150.9 156.2
226 217.4 211.2 206.1 201.6 196.2 192.6 189 176.3 164.4 156.8 152.6 149.8 148.4 146.7 138.6 137.6 137.9 138.4 142.1 153.5 159.5 159.8 155.7 160.8 168.4 171.5 173.8 174.1 170.7 182.2 193.6 213.3 227.4 233.2 238.6 244.8 244.6 239.3 235.7 236.8 237.5 234.6 232.8 231.2 227.2 222 216.9 211.1 206 200.9 196.1 190.3 186.2 182.8 181.3 179.1 176.7 175.7 173.1 170.9 168.5 166.9 165.1 163.5 161.7 160.1 158.3 156.6 155.1 153.7 152.3 152.4 150.8 149.9 148.2 147.6 147.7 148.9 149.8 150.8 150.7 150.5 149.8 149.3 147.5 144.2 142.4 141.6 141.5 140.8 135.4 134.1 134.3 134 134.3 135.9 138.6 140.7 141.3 141.5 141.5 141.4 140.5 139.6 138.9 137.7 135.5 133.3 131.9 130.4 132.6 134.9 137.4 140.6 144.6 149.4 154 159.3 167.7 177.6 187.9 197 206.9 218.4 232.4 237.4 240.1 240.9 238 234.8 231.5 229.3 227 224.7 222.4 220 218 216.4 215.8 214.9 213.8 212.1 210.8 208.7 206.5 202.8 200.3 196.4 193.4 190.9 191.7 195.7 200.6 207 215 223.7 232.5 241.3 251 261.7 277.4 292.9 298 296.3 293.4 290.9 288.5 287.1 285.6 285.6 284.5 282.1 279.4 276.2 273.7 270.2 266.8 263 259.5 253.7 244.7 244.1 246.6 246 244.2 240.4 235.8 230.2 224.6 217.4 212.6 207.2 199.1 188.4 169.6 157.6 154.4 148 160.4
217.8 210 205.6 204.8 203.2 196.6 191.5 183.2 172.7 162.5 156.5 152.3 150.1 147 136.2 134.9 137.6 137.5 137.4 138.5 148.7 153.2 147.7 160.3 165.9 168.4 169.4 170.2 169.7 170.9 178.2 190.9 207.1 218.6 226.8 236 243.9 238.9 235 233.7 236.9 236 233.1 231.4 230.8 228.1 224.3 220.1 214.7 209.4 202.8 197.2 190.9 184.9 180.2 177.5 175.6 174 173.5 172.3 171 168.4 166.5 164.1 162.8 160.9 159 157.1 155.4 154 152.5 152 151.3 149.9 148.7 146.9 146.5 146 145.8 146.5 147.1 147.5 147.4 147 146 144.8 143 142.2 142.1 141.5 140.4 136.1 133.6 133.7 134.3 134 134.6 137.8 139.6 140.9 140.5 140.3 140 139.9 138.7 138.4 137.8 134.5 132.4 131.2 129.7 129.7 137.6 141.9 145.4 150.8 157.8 162 171.2 181.6 190.5 200.4 211.5 223.2 232.9 237.1 239.2 238.2 236.7 234.3 231.1 228.3 226.1 223.9 221.2 219.3 217.6 215.9 215 215.2 214.8 212.9 209.2 206.7 204.1 201.1 197.8 195.5 194.7 192.9 189.3 190.1 195.1 201.4 209.2 218.3 227.6 237.7 246.4 258 274.5 291.5 293.8 291 290 287.1 284.6 282.6 282.4 282.5 280.9 279.6 277.4 274.4 271.7 269.1 266.8 263.7 260 256.9 253.1 248.1 235.5 242 241.4 238.8 234.6 231.7 227.9 222.2 216.1 209.1 203.7 193.3 179.1 160.2 152.2 147.2 153.6 177.4
204.5 197.5 190 183.2 183.7 185 181.1 177 169.7 164.2 158.9 154.8 151.5 146.3 139.6 146.1 135.1 136.1 135.3 137.7 139.7 145.7 156.7 163.6 166 167.6 167.9 167.4 161.7 164.5 176.2 190.5 201.9 209.8 218.6 231.7 234.3 231.8 230.7 233.2 236.5 235.2 232.2 231.1 231.2 228.9 225.6 222.2 217.1 211 203.9 196.7 190.4 185 180.8 178.1 174.3 171.8 171.7 169.9 169.4 169.8 169.4 167.6 165.8 163.5 161.3 158.7 157.1 155.9 153.5 151.1 151.2 150.2 148.9 147.6 145.9 145.3 144.4 143.9 143.8 143.7 143.7 143.4 143.8 142.7 142.4 142.1 141.5 141.9 141.3 137.7 133.3 133.2 133.7 133.6 134.4 136 138.8 139.9 140.2 139.7 139.7 139.6 138.6 137.6 135.8 132.9 130.8 129.7 132.1 137.3 141.3 146.2 151.8 157 164.9 172.5 183.1 197.3 209.3 219.2 228.8 233.1 236.5 238.2 237.3 234.6 232.3 230.2 227.3 225.1 222.9 220.7 217.7 215.5 213 210.4 211 211.1 209.7 207.4 203.5 201.1 198.3 195.3 192.1 192.1 192 191.5 188.4 189.4 195.7 204.1 213.1 222.5 233.6 244.4 254.7 270.4 284.9 288.7 286.9 284.6 282.7 280.8 278.9 278.3 278.2 277.7 274.9 274.1 272.5 269.7 266.8 264.2 263.1 260.2 257.1 254.3 251 247.1 234.5 233.1 235.2 232.5 228.6 225.6 222.1 218.4 213 207.8 203.3 196.4 183.3 159.6 147.2 150.3 167.5 170.8
195.3 197 199 197.3 191.3 184.2 174 163.5 161.5 160.1 156.3 150.2 139.6 137.9 151.3 152.3 145 140 136.4 134.6 138.4 147.8 154.6 160.1 161.6 164.1 163.4 155.7 165.4 171 174.8 183.1 195.4 205 214.6 223.8 225.2 225.4 229.9 232.8 235.3 234.6 232 231.3 231.4 228.4 225.4 221.5 216.7 210.7 202.3 195.9 189.7 186.3 184.2 181.1 176.4 171.7 168.7 167.7 167 168.8 169.1 168.6 167.4 164.3 161.8 160.4 159.2 156.9 155 151.6 149.6 148.2 147.5 146.9 146.3 144.7 144.1 143.3 142.9 142.8 142.7 142.5 142.3 142.7 142.4 141.9 141.8 141.5 140.3 138.5 133.7 132.8 132.9 133.3 133.5 134.2 137.1 138.6 140.2 139.5 139.4 138.9 138.4 137.7 135.7 132.3 132 129.9 135.7 140.5 146.1 152.2 158.3 166.7 174.5 186.1 199.7 214.7 227.2 232.5 233.9 235.1 236.1 236.2 234.2 231.2 228.2 225.3 222.8 220.9 219 216.8 213.8 210.2 207.5 205.4 205.4 206.2 203.9 201.4 197.8 195.4 192.3 189.6 188.9 189.2 189.7 190.6 187.4 188.6 195.1 204.5 214.6 226.8 238.4 248.5 261.9 281.7 283.9 282.3 281.3 278.9 277 276.7 275 273.9 273.3 271.9 269.9 268.5 266.9 264.7 262.6 261.4 259 256.5 253.5 250.3 246.6 242.6 233.8 227.4 230.8 227 224.5 219.1 216.4 214.5 211 209.8 206.6 201.5 191.3 168.5 147.4 148.5 157.3 158.5
207.3 206.9 204.3 200.9 197.6 186.3 176.5 169 163.3 156.1 150 141.3 147 152.5 159.7 154.5 150.3 141.4 137.9 136.5 134.9 142.1 151.3 154.5 155.9 158.4 155.8 153.8 167.7 174.7 182.2 189 193.5 202.9 214.3 216.3 218.7 223.3 228.2 232.1 235.8 235.1 232.1 230.9 230.1 227.5 224.1 220.2 214.6 208.1 200.6 194 188.7 186.3 184.7 182.4 178.5 174.5 170.1 167 164.1 165.3 165.8 165.5 165.1 163.5 161.7 159.8 158.6 157.2 154.7 152.6 151.5 149.8 148.3 147.2 145.4 143.5 143.3 142.8 142.5 142.4 142.2 142.1 141.9 142.2 141.9 141.4 141.4 141 139.6 138.1 133.6 132.5 132.6 132.7 132.7 132.9 134.1 137.1 138.2 138.9 139 138.6 137.9 136.9 135.3 131.6 130.3 132.6 136.5 145.2 152.1 158.5 167.5 176.1 187.6 203.1 216.4 232.1 233.7 234.3 234.6 234.3 234 232 230.4 227.8 224.9 221.9 218.8 216.4 213.6 211.7 209.5 205.5 202.5 200.7 200.9 200.6 198.7 195.9 190.8 189.5 186.8 185.5 185.6 188.5 189.2 187.9 185.1 187.8 195.4 204.3 214.5 227.1 239.5 249.7 264.1 279.6 277.4 276.5 275.6 274.6 274.3 273.5 272.8 270.2 267.6 266.1 264.6 262.8 261.6 260.1 258.4 257 254 251.6 249.1 245.7 242 237.6 232.7 220.9 224 222.9 219.4 214.8 212.2 211.6 210.7 209.1 207.1 201.5 193.5 180.7 161.9 147.2 143.5 146.4
211.8 207.5 203.2 200.2 192.8 182 175.2 170.5 163.5 154.1 142.7 155.3 164.2 167.7 167.6 160.1 152 145.9 140.6 137.7 136 137.4 145.3 150.2 152.1 152.8 145.7 160 170.5 178.6 186.5 194.5 200.5 205.2 211.1 215.8 219.5 223 227.1 230.3 234.1 234.5 232.5 229.9 229.5 227.2 223 217.8 211.6 204.4 197.2 190.8 186.1 184.5 184.4 182.5 179 174.7 170.8 167.6 163.8 162 162.9 162.3 161.8 160.7 159.7 158.9 158.1 157.3 155.4 154.8 153.1 151.8 150.1 148.5 146.8 143.2 142.8 142.4 142.1 141.9 141.8 141.7 141.5 141.8 141.3 141.2 141.5 140.9 140 139.5 133.9 132.7 132.1 132.4 132.1 131.9 133 135.3 137.8 138.2 137.8 136.9 135.9 134.8 133.5 131.7 129.7 134.9 143.1 153.2 159.9 168.2 176.6 189 202.9 219.5 233.4 237.1 237.4 236.9 236.1 234.5 232.4 229.9 227.3 224.4 221.3 218.5 216.3 212.9 208.2 206.6 204.5 200.3 196.8 196.1 196 194.9 193.7 190.2 189.9 184.4 183 183.2 184.8 186.7 186.7 184 184.9 189 196.2 204.1 214.8 224.8 235.7 247.9 262 270.2 270 270.8 272.8 272.8 271.9 269.7 268.7 265.9 262.6 261.4 259 257 256.8 255.3 253.1 251 248.4 246.6 244.1 240.8 237.1 232.4 227.5 220.1 213.9 217.3 214.5 212.2 209.2 208.7 208.7 206.3 204.2 200.1 194 188 182.8 168.6 157.1 148
211 205.3 197.8 189.4 181.5 175.4 168.9 164.1 158.3 147.5 156.2 171.7 174.8 175.8 175.5 168 156.4 150.1 144.3 141.2 136.1 133 138.3 147.8 148.3 141.4 152.8 162.2 173.6 181.9 189.8 197.3 205.1 210.7 213.3 215.9 218.9 221.3 223.5 227 230.2 232.8 231.2 228.6 227.5 225 220.5 215.2 208.1 200.4 193 187.1 183.7 183.4 183.6 181.4 178.4 174.9 171.4 168.3 164.4 160.9 158.9 159 159 158.6 158.3 157.8 157.6 157 156 154.9 154.3 153 151.5 150 147.9 143.3 142.3 142 141.7 141.5 141.4 141.3 141.3 141.4 140.6 140.8 140.7 140.1 139.8 139.2 133.5 131.5 132.2 132 131.8 131.3 132.1 135 138.5 138.6 137.9 136.7 135 133 132.4 131.5 133.7 141.1 152.4 161.8 169 178.4 188.3 203.2 219 236.5 240.3 241.3 240 238.1 236 233.6 231.2 229.2 226.5 223.5 220.3 216.9 212.5 208.6 205.3 199.9 198.3 195.5 194.1 191.5 191.4 190.4 188.6 186.8 184.7 182.6 180.6 181 181.7 182.7 183.1 183.7 186.1 190.4 196.4 203.6 213.1 222.9 231.7 245.3 257.4 261.4 261 266.7 271.2 271.3 269 266.3 264.3 261.4 257.8 256.4 253.7 250.3 249.9 248.2 246.2 244.6 243.2 242.6 240 236.6 232.3 227.2 220.5 214.3 208.5 207.9 212.4 211.3 208.6 203.3 204.8 202.2 199 195.6 191.3 186.7 182.5 177.9 173 163.4
207.1 198 190.5 179.2 174.6 169.5 164.2 159.4 151.5 159.3 171.5 180.2 181.7 182.4 182.2 176.7 165.4 157.4 151.7 144.8 140.7 135.2 136.2 139.6 139.8 138.9 145.3 157.8 173.5 181.9 190.2 199 206.8 207.4 209.5 213.5 215.4 217.5 219.6 222.2 225.8 229.3 227.9 225.7 224.5 221.7 216.8 211.3 204.1 196 188.1 183.5 180.3 182.8 182.2 180.3 177.5 174.3 171.1 167.8 164.9 161.3 158.9 156.8 156.1 156.4 156.4 155.7 156.8 156.7 155.8 154.5 154 153.1 151.8 150.4 146.6 143.3 141.6 141.4 141.3 141.4 141.4 141.4 141.4 141 139.9 140.1 139.5 139.6 139.6 138.5 133.2 132.2 131.4 131.7 131.5 130.9 131.8 134.5 138.5 138.4 137.6 133.8 131.3 130.4 129.2 132.7 140.3 151.6 161.7 169.9 177.9 189.8 204 217.4 237.2 242.6 243.5 242.4 239.9 236.8 234.9 231.8 229.2 225.8 222.8 219.6 216.3 213 208.9 203.8 200.3 197.6 194.3 192.5 190.9 188.6 186.3 186.2 184.5 182.6 181.6 179.2 178.2 178.8 178.8 180.4 183.7 187.4 189.1 190.9 195.5 203.2 211.5 220.2 229.8 242.4 245.8 246.9 260 266.9 270.1 270.6 269.5 266.2 262.3 256.9 252.4 249.1 246.8 244.3 242.2 239.5 237.6 235.8 238.3 241.4 240.5 237.3 234.4 229.4 224.5 219.2 213.3 205.4 199.5 204.5 203.1 191.5 192 189.9 188.6 189.3 186.2 181.8 176.9 172.4 167.1 162.6
199.4 184.3 178.3 177.4 173.9 164.5 156.7 154.4 157.1 162.6 175.8 182.8 187.2 188.2 187.5 184.9 178.6 164.9 164.7 161.1 154.6 147.3 144.4 133.1 134.4 135.8 136.1 143.5 166.4 179.1 188.4 198.6 202.2 200.4 203 206.9 210.7 211.5 213.2 216.7 221.3 225.1 223.3 222 220.8 217.5 212.9 206.8 199.2 190.6 183.7 178.6 178.3 181.3 180.7 179 175.9 172.8 170 167.3 164 160.5 157.8 155.6 153.9 153.1 153.4 154 154.9 155.7 155.4 155.3 153.6 153.3 152 149.8 145.9 142.1 141 140.9 141 141.2 141.2 141.3 141.2 141 140.5 139.5 139.4 139.5 139.5 138.5 133.3 131.9 131.3 131.2 131.1 130.7 131.5 134.3 138.4 138.4 134.7 130.8 129.3 130 134 140.6 150.6 160.8 170.5 181 191.7 204.2 217.1 237.6 245.1 243.9 242.7 240.2 237.4 234.6 231.8 228.4 225 221.5 218 214.6 211.8 207.3 203.1 199.7 196 193 191.1 188.3 187.3 186.1 184.3 184 181.4 178.4 176.9 176.1 176.8 178.9 180.3 183.9 188.7 191.8 191.3 191.7 194.4 201.4 208.9 217.3 226.8 234.5 238.5 255.9 263.5 268.2 272.8 273.9 272.4 269.3 265.5 261 256.1 253 249 247 245.2 243.4 241.9 236.2 230.4 244.4 242.8 238.9 234.8 231.5 228.2 223.6 218 211.3 204 194.3 190 185.6 181.9 177.1 173.4 173.2 175.4 174.5 169.7 163.5 156.7 151
185.8 174.1 169.1 167.1 163.8 155 163.2 171.7 159.7 168.3 168.9 185.3 189.6 193 193.2 188.5 180.7 165.9 175.6 172.6 162.7 155.7 155.4 146.6 137.8 133.2 133.9 135.8 153.9 172.8 183.4 189.8 192.3 193.2 196.6 200.2 203.3 205.1 208.5 212.8 219.7 220.6 218.9 218.6 216.7 213.3 208.7 202.5 192.6 184.3 176.6 176.9 181.6 180.7 178.9 177 174.4 171.2 168.4 166.4 163.2 159.8 156.8 154.2 152.7 151.8 151.3 152 153.5 154.8 154.6 154 153.3 152.9 150.8 149.3 144.4 141 140.5 140.7 140.8 140.9 141 140.8 140.7 140.8 139.9 139.5 139.4 139.3 139.4 138.2 132.8 131.1 131 130.7 130.6 130.4 131.5 134 137.8 137.7 132.1 129.3 130.3 133.3 138.8 147.2 159.6 169.4 180.2 194.3 206.4 217.8 236.4 246.4 244.8 242.1 239.5 236.9 234.1 230.9 226.7 223.1 219.7 216 212.5 209 205.6 201.4 197.9 195.1 192.6 190 188.5 185.6 184.9 183.6 183.1 181.7 178.9 176.4 175.6 176.3 178.8 182.9 187.7 193.5 197.1 197.2 191.9 190.4 192.9 199.4 205.9 213.5 225 226.4 235.9 253.7 261.8 272.1 277.9 278.6 276.5 273.7 269.9 266.5 263.9 262.3 261.5 261.1 259.4 256.5 252.6 239.9 226.6 235.8 236.9 233.6 232.6 229.3 225.9 222.6 219.2 214.8 209.6 203.2 198.4 193.8 190 185.1 178.9 172 164.5 159.8 157.3 153.7 151.4 149.3
188.2 179.1 175 169 160.8 169 170.9 176.8 168.6 165.3 172.1 186.8 191.9 196.9 197.1 192.2 178.5 179.9 184.2 178.4 166.4 163.1 162.2 150.3 142.9 136.7 132.4 134.9 138.3 163.2 177.1 180.2 182.2 183.9 188.5 193.3 196.8 198.9 203.6 209.9 215.6 215.8 214.6 215.3 213.2 208.4 204.2 196.2 186.8 176.4 174.6 180.6 181.3 179.5 177.1 174.5 171.8 169.1 167 165.1 161.1 157.8 155 153.7 151.6 150.5 149.3 150.4 152 153.4 153 152.2 151.8 151.4 149.6 147.9 142.9 140.6 140.2 140 140.1 140.5 140.5 140.2 140.4 140.6 139.5 139.1 139.2 139.3 139.3 137.1 132.3 130.9 130.8 130.6 130.3 130.1 131.2 132.9 136.1 135.9 131.1 127.4 131.7 136.3 143.3 154.5 165.7 177.5 189.3 199.7 217.3 234.9 246.6 245 242 239.1 236.3 233.6 230.4 226.3 222.2 217.8 213.7 209.9 206.3 202.9 199.4 195.6 193 190.4 188.8 187.5 186.1 184.9 183.1 181 180.3 179.7 177.5 175.3 175.3 177.6 183.7 190.4 196.6 200.8 202.2 199.8 192.1 188.7 191.3 196.8 201.6 207.2 213.8 222.8 234 251.7 267.7 278 279.4 278.2 276.1 274.3 271.9 269.5 269.1 267.2 264.7 262.3 259.4 256.7 253 243.8 229.8 221.4 220.5 225.6 229.6 226.2 223 220.7 217.9 214 210.3 206.9 204.7 202.2 198 193.9 190 185 179.7 175.3 172.1 169.5 166.9 163.8
188.4 180.7 171.3 164.1 173 177.2 178.7 180.7 182.4 171.4 182.8 192.2 197.9 201.2 199.7 194.3 189.4 195.9 194.7 187.6 177.2 171.7 160.7 151.2 144.7 145.6 141.3 136.2 133.8 146.7 169.5 171.8 172.5 174.6 179.8 184.8 188.6 193.2 199.6 206.2 210.5 210.2 211.2 211.1 208.4 203.7 198.1 190.7 181 170.2 174.7 180.1 179.3 177.4 174.7 172 169.4 167.4 165.3 164 160.4 156.7 153.4 151.2 149.6 148.5 147.4 148.1 150.5 151.5 151.3 150.9 149.9 148.9 147.7 145.1 142.3 139.8 139.9 139.9 139.6 139.8 139.8 139.9 140.2 140.2 139.3 138.4 138.8 139.2 139.2 135.9 132 130.1 130.6 130.2 129.9 129.8 129.6 131.4 134.8 134.2 130 128.6 132.5 139.5 147.9 160.2 175.3 189 202.4 214.6 232.3 247.2 244.8 242.2 239.3 236.3 233.1 229.7 225.9 221.8 217.7 213.2 208.4 204.2 200.2 196.8 193.4 190.9 188.7 186.8 186.3 184.9 183.4 181.8 181.4 179 177.7 177.1 175.9 174.4 175 179.6 187.7 196 201 203.6 204 198.7 190.5 187.2 189.6 194 198.8 205 212.8 225 240.7 261.1 274 277 276.9 276.5 275.5 273.7 272 269.6 267.3 266.4 263.7 261 258.3 255.7 251.3 247.2 240.1 230.5 218.6 213.9 217.9 223.1 221.3 218.6 216 213.2 209.7 207.5 205.5 203.4 200.5 197.2 194.6 191.3 189 185.9 182.3 179.2 175.6 171.6
183.6 174.3 170.1 178.1 180.3 182.4 184.8 186.5 188.6 181.2 173.4 197.4 203.1 205 203.2 199.1 199.8 205.1 204.5 194.6 185.1 173.3 160.8 151.5 151.4 152.6 150.2 143.9 135 137.3 160.2 166 166.1 167.4 171.3 175.3 180.8 186.5 194.4 198.5 203.3 205.5 208 206 201.8 197.7 192 185.8 179.2 170.3 167.4 176.3 177.9 175.3 172.8 169.8 167.6 165.5 163.7 163 160.2 157.2 153.5 150.1 147.7 146.4 145.8 146.4 148.4 150 150.3 149.1 148.6 147.5 146.2 143 140.1 138.4 138.7 139.4 139 138.9 139.4 139.6 139.9 139.5 138.3 138.2 138.5 138.8 138.3 135.3 132 130.5 130 129.7 129.6 129.5 129.4 130.1 133.7 132.1 127.7 129.5 134.9 143.7 156.7 167.8 186 202.4 216.3 230 246.3 244.4 241.9 239.3 236.6 233 229.4 225.3 220.8 216.4 212.1 208.6 202.6 198.4 194.7 191.7 189.3 187.1 185.1 183.5 183.5 182.2 180.2 178.8 178.7 177.3 175.5 175.1 173.7 173 173.4 180.1 189.3 197 200.1 201.9 201.6 195.4 185.7 186.1 188.2 192.4 198 205 212.8 226.5 244.8 262.4 272.6 273.9 273.9 273.8 273.9 272.1 270.1 267.9 265.1 262.5 258.3 258.6 254.6 251.6 248 244.8 241.3 237.6 230.8 219.8 210.6 216.3 219.2 216.7 214.2 211.9 209.6 207.5 205.2 201.9 199.4 197.4 194.1 191.8 189.8 186.4 182.4 179.1 176.5 172.5
182.6 167.4 181.5 183.6 186.2 190.3 193.5 194.7 195.3 196.4 190.5 202 207.6 210.8 212.8 207.8 211.9 216.6 211.9 200.4 188.4 172.2 160.4 153.7 155.2 155.4 154.7 146.7 139.8 131.4 142.7 160.9 161.8 162.8 164.1 167.1 172.9 175.3 184.7 192.5 196.2 202.8 204.9 200.3 195.9 191.3 186.1 181.6 176.1 172.9 160.9 166.5 176.3 174 171.4 168.3 165.8 163.4 161.7 159.7 159.2 156.1 152.7 148.5 146.3 146 146 145.8 146.5 147.9 148.9 147.8 147.3 145.6 143.8 141.4 137.9 137.6 138.9 138.6 138.2 138.8 139.5 140 139.3 138.9 137.8 138.1 138.7 138.6 137.2 134 131.8 130.5 130.3 129.8 129.8 129.4 129 128.6 131.5 129.8 128 130.4 138.3 147.6 161.4 180.5 201.7 215 235 246.6 244.3 242.1 239.8 236.5 232.8 229.3 225.4 220.4 216.3 211.6 206.1 201.4 198 195 192.5 189.4 187.1 186.1 184.4 183.1 181.8 181.5 179 177.4 177 176.8 174.9 174.6 173.6 173 173.5 178 185.6 192.7 195.9 195.5 193.5 188.8 183.3 184.2 187.1 193.3 199.4 206.3 214.9 226.1 242.6 260.3 269.3 270.6 270.9 271.1 270.5 269.3 267.1 265 262.5 260 256.7 254.2 250.8 248.2 244.4 241.6 238.9 235.4 231.7 225.2 213.9 205.8 217.5 215.5 213.3 211 208.7 205.8 203.2 200.9 197.3 195.6 193 190.3 188 185.5 182.3 178.9 175.7 171.5
172.7 177.9 187.4 191.9 196.2 199.5 202.4 204 207.7 207.4 204.3 207.4 211.5 219 222.6 221.6 225.4 225.4 214.9 201.8 190.2 171.8 161.2 156 155.2 154.3 151.5 150 151.2 141.8 130.7 141.7 149.9 157.8 158.1 158.5 164.4 159.5 174 184.2 194.5 200.3 199.3 196.1 191.4 186.2 180.1 176.3 173.3 168.8 157.1 165.5 174.1 171.8 169.6 166.7 163.9 160.1 158.2 158.4 157.4 154.9 151.1 147.7 145.2 144.1 144.4 144.8 144.7 145.6 147.3 147.2 146.3 143.9 141.4 140.4 137.1 137.1 138.4 138 138.4 138.9 139.3 139.5 139.5 138.6 137.6 138.2 138.4 137 134.4 132.7 131.3 130.2 130.1 129.9 129.1 128.8 128.4 128 129.8 128.3 130.8 136.1 147.3 160.6 175.3 193.7 217.1 231.4 244.7 243.3 242 239.9 237.6 233.3 229.1 225.6 220.4 215.5 211 205.4 201.3 198.6 196.9 195.8 191.8 189.7 188.8 187.1 187 184.9 183.3 181.8 180.2 178.9 177.3 176.6 175.3 174.5 173.8 172.3 171.8 173.4 178.6 186.5 188.1 188.1 187.2 185.1 181.5 182 186.8 194.9 202.3 210 217.7 228 242.7 260 266.9 268.6 269.6 269.1 267.7 265.9 263.9 261.8 259.3 256.3 253.1 249.8 247.4 244 241.4 238.7 235.6 232.4 228.8 224 215.5 198.6 207.2 214.6 212.5 210.2 207.5 204.4 201.1 198.3 196 193.8 190.9 189 186.6 184.2 180 176.8 174.1 170.4
173.1 185.8 194.3 200.3 207 212.1 214.4 218.8 217.5 215.5 213.9 213.7 217.1 227.9 233 236.3 233 226.3 217.5 202.9 192 174.9 163.5 160.7 159.8 157.9 157.1 158.9 157.5 155.2 146 133.2 134.1 141.7 146.6 145.5 149.2 153.3 165.5 177.7 188.7 195 193.4 190.5 186.8 181.7 172.3 173.3 170.4 168.4 153.7 160.5 170.6 169.3 167.3 164.4 161.2 157.5 155.3 153.8 154.6 151.3 148.9 146.2 144.6 144.4 143.8 142.6 144 145.6 146.8 146.3 145.5 143.1 141.6 139.4 136.6 136 137.4 137.1 137.8 138.7 138.8 138.9 138.3 137.6 137.5 138 137.2 135.8 132.8 132 131.5 129.4 129.4 129.7 129.2 128.2 127.8 127.4 128.8 133.4 138.6 145.1 155.4 175.4 195.4 209.4 228 241.9 242.4 241.1 239.4 236.8 233.5 229.8 225.8 220.9 215.4 210.9 206.9 203.7 201.3 200.8 198.9 196.3 192.2 190.2 191.2 189.4 188.4 187.1 185.5 183.6 181.6 180.5 179.8 179.6 179.8 179.5 178.2 175.6 171.5 171 172.2 177.4 179.8 181.7 182.1 180.6 178.7 180.7 187.9 195.9 205.5 217.1 224 231.8 242.5 261.2 266 268.4 268.1 266.2 264.6 262.6 260.4 258 255.4 252.4 249.1 245.9 242.8 240.5 238.6 235.1 231.8 228.8 224.8 221.1 216.4 202.7 193.2 209.7 212.4 209.1 205.6 202 198.4 195.7 193.3 190.6 189.3 186.6 184.4 181.8 178.2 175.3 171.4 168.5
182.9 195.8 199.4 208.6 220.4 226.8 229.7 229.6 224.6 222.4 220.9 219.9 223.2 236.2 243.4 240.8 234.7 225.8 215.2 198.7 189.6 177.7 172 169 164.1 162.1 163.3 166.2 163.9 160.2 157.8 152 139.6 130.2 132.1 136 141.7 148.1 157.9 166 177.2 186.6 186.5 184 180.7 175 167.2 166.2 163.7 167 156 152.3 162.5 165.6 164.6 161.2 157.5 154.1 151.9 153.1 152.9 150.7 147.2 146 145.5 145.9 145.2 143.1 142.5 146.1 147.1 146.6 144.7 142.4 140.4 137.8 135.9 134.7 135.6 136.4 137.4 138.3 138.8 138 137.3 137.3 136.9 135.6 135.2 132.8 132 132 130.4 129 129.2 129 128.2 129.1 127.6 129.2 130.7 137.2 144.2 152.2 163.4 179.4 199.8 217.4 237.6 240 239.8 237.9 235.3 232 229.3 226.1 221.4 216.5 212.1 208 206 205.5 204.1 201.4 197.9 195.2 194.1 193.3 194.2 191.8 190.4 187.5 185.8 184.6 183.1 183.6 185.1 186.5 187.2 185.8 182.3 177.9 173.4 168.7 169.6 171.5 175.1 177.4 178.2 176.4 177.9 182.2 188 195.7 204.5 218.3 227.8 234.7 247.1 261.2 265.8 266.8 265.5 263.3 261.3 258.9 256.5 254 251.4 248.4 245.1 242.4 239.7 237 234.5 231.6 228.2 225.1 221.5 217.3 211.6 203.5 189.2 202.4 210.8 207.3 203.3 199.4 195.9 193.3 190.9 188.6 186.6 184.2 181.2 178.2 174.7 172.1 168.5 165.9
196.1 206 209.5 216.1 228.8 238.1 241.8 242.7 239 232.1 227.3 228.3 233.2 244.6 248.1 245 237.2 226.9 212.7 198.7 189.2 181.5 180.9 174 171 171.6 173.1 170.6 165 159.2 154.4 148.4 145.4 143.1 135.6 130 132 134.5 142.9 150.9 163.1 176.6 178.8 177.3 173.7 167.9 160.6 158.6 156.5 160.7 156.3 150.8 153.3 161.5 160.5 158.6 154.6 151.2 149.8 150.4 150.5 149.2 147.1 146.7 146.4 147 146.4 143.6 141.2 143.6 145.5 146.2 144.4 141.9 139.4 137.6 135.5 134.2 137.6 137.7 137.8 138 137.5 137 136.6 135.2 136.1 133.9 133.1 131.8 131.5 131.7 129.5 128.3 129 127.8 127.2 128.6 129.3 129.8 133.3 140.1 149.3 158 171.4 184.6 199.2 213.3 237.5 237.9 236.5 234.4 231.6 228.5 225.6 222.7 218.6 214.6 211.2 208.9 208.5 206.8 202.5 198.4 198 197.1 196.5 196.5 196.8 195.1 191.5 190.3 188.9 187.8 189.6 192.3 194.5 193.3 190.6 187.5 184 179.7 175.4 172 170.1 168.1 171.7 174.1 174.4 175.5 181.3 187.2 193.6 199.9 207.3 217.4 228.1 237.6 251.9 261.3 264.9 264.7 262.6 260.6 257.3 254.7 252.2 249.9 247.1 244.5 242 239.4 236.7 233.6 230.4 228.1 225.5 222 218.6 213.2 208.3 199.9 187 194.6 207.9 204.4 200.5 196.9 193.2 190.3 188.2 185.3 183.3 181 176.8 173.8 171.5 169 166.1 162.9
201.3 213.2 219.6 227.5 238.5 246.4 251.4 258.2 257.2 243.2 234.7 233.4 240.2 250.7 250.8 246.7 236 225.5 213.7 203.3 191.5 186.5 185.3 182.8 179.9 179.2 173.6 166.6 164.1 159.9 157.5 154.6 153.6 148.9 144.1 138.9 133.4 128.5 131.6 139 147.2 160.6 171.2 170.1 166.2 160.7 154.4 151 149.7 153.2 150.2 149 153.3 154.6 156.2 154.7 152.2 149.4 147.5 147.4 148.2 147.7 146.5 146.5 147.4 147.5 146 144.3 141.3 140.1 143.8 144.1 143.3 140.4 138.7 137.2 135.1 133.9 137.6 137.3 137 136.2 136 136.3 135.6 134 133.3 132.8 130.9 130.7 131.1 130.9 128.5 128.1 128.1 126.8 126.7 128.6 129.1 131 136.5 146.3 156.1 168.2 180 191.5 205.8 221.4 234.8 235.2 232.8 230.3 227.2 224.5 222.4 219.7 217.5 215.6 213 210.4 207.6 203.9 202.5 202.4 201.3 200.4 200.5 200.9 199 196.4 194.2 195.3 194.8 197.4 197.2 195.9 193.8 191.2 188.7 186.2 183.8 181.3 178 174.3 171.9 169.4 169.2 171.3 175.6 181.9 188.4 196 204.8 213.2 217.5 222 229.5 243.5 255.8 261.7 261.9 261.9 259.9 257.5 254.9 251 249.3 246.3 243.4 241.3 239 236.2 233.2 230.1 226.9 225.3 222.3 218.8 215.2 210 203.9 195.3 182.2 189.1 203.5 200.5 197.4 193.8 190.4 188 184.8 182 178.7 175.7 173 170.2 167.8 165.4 162.6 159.6
204.8 216.4 227.1 237.3 246.2 252.2 261.4 271.1 268.7 255.9 248.9 244.9 250.4 255.5 248.4 240.7 231.1 222.7 216.4 207.3 201.2 194.1 190.2 187.8 187.7 182.9 173.9 171.3 170.1 167.8 167.4 166 164.3 158.4 150.9 144.7 138.5 132.7 128.8 131.8 136.7 142.8 153.9 160.8 159.4 154.7 145.2 147 145 145.3 144 144.4 150.4 151.2 151.6 151.1 148.8 147.4 145.5 145.1 145.6 145.9 145.7 146.2 147.2 147.6 145.9 143.9 141.3 139.3 138.4 140.7 140 139.2 138.1 136.7 134.6 133 136.8 137.2 136.3 135.4 135.5 134.8 133.7 132.9 132.7 131.8 129.6 130.4 130.2 128.4 127.5 127.7 127.8 127.8 128.1 128.7 130.8 135.6 141.7 151.6 166.8 180.3 192 204.6 221.3 232.9 232.9 230.9 228.4 225.8 222.8 219.3 218.7 219 217.6 215 211.5 207.6 208.2 206.9 206.1 205.7 205.3 205.2 205.4 205.1 202.2 199.5 199.3 201.5 202.6 200.2 197.2 192.7 189.2 186.6 184 181.9 179.8 178.1 175.7 175 171.7 168.9 167.4 170.4 180.3 187.8 196.8 205.6 219.6 227.8 229.4 231.9 241.5 253.4 259 260.4 259.4 259.3 257 254.3 251.2 248.5 244.9 242.4 240 238.1 235.7 232.8 229.8 226.8 224.2 221.8 219 215.8 211.8 207.8 200.3 189.4 178 188.4 200.1 197.2 193.4 191.2 187.7 184.9 182.1 178.7 175.1 171.5 168.9 166.4 164.2 161.8 158.7 156.5
209.1 217.3 227.3 242.5 252 262.6 271.7 271.9 265.9 259.3 254.1 252.2 255.8 250.7 239.6 232.2 228.2 223.2 218.3 215.6 213.1 204.4 196.6 193.2 191.7 184.8 179.5 175.5 176.1 174.1 173.5 173.4 173 170.2 164.2 157.1 150.2 139.5 131.5 128.6 131.3 132.9 138.2 144.3 151.1 148.9 138.7 138.6 138.8 139.8 140.9 145.4 147 147.7 146.8 146.1 145.3 144 143.3 143.1 143.5 144.1 144.5 145.8 147.4 147.7 146.8 144.8 142.1 139.3 136.9 136.2 137.4 137.7 136.7 136.2 133.1 134 137.2 137.4 136.5 135.6 133.7 132.3 132.6 132.4 131.6 130.8 128.9 128.2 127.9 127.7 127.6 128.1 127.4 128.8 129.2 130.5 135.1 140.9 151.7 169 183 195.3 208.5 223.9 231.3 231 228.7 225.9 223.1 221 217.4 214.8 217 216.7 215.4 212.6 212.2 212.3 211.1 211.6 210.5 210.6 209.6 209.7 209.7 208.3 207.7 204.7 205.3 206.8 206.4 203.4 199.4 195.7 193.7 190.5 187.1 184.7 183.3 181.1 178.4 177.4 173.8 171 168.8 171 182 193.5 205.7 221.1 234.5 242.9 248.1 250.8 255.4 258.4 258.4 258.4 257.3 255.6 253.4 250.4 247.4 244.4 242.2 239.1 236.9 234.3 232.2 229.3 227.6 224.6 221.5 218.3 215.7 213 210.2 206.1 200 185.1 172.5 185.2 196 193.3 190.3 187.8 185.1 182.2 179.6 176 171.9 167.7 164.6 162.1 159.8 157.3 155.6 153.8
217.2 224 233.8 247.5 258.7 269.7 271.9 268.8 262.2 255.4 252.6 253.2 250.6 241.9 233.3 230.7 229.4 227.3 225.4 227 221.5 212.4 201.3 197 193.6 188.5 183.2 180 180.3 180.3 179.6 179.8 179.8 178.6 176.5 170.9 165.5 156.8 145 132.3 130.8 127.7 130.7 133.4 136.8 139.2 141.2 139.3 138.6 137.4 140.7 142.3 143.1 143.3 143.1 142.4 141.8 141.6 141.4 141.5 142 142.4 144.2 146.2 147.6 148 147.4 145.7 143.1 140.2 136.8 135.6 134.6 135.4 134.4 135.4 131 134.7 136.3 137 136 133.5 131.9 130.6 131.1 131.6 130.3 128.9 126.2 126.4 127.5 127.4 127.5 125.2 129.1 130.2 133.8 139.2 146 157.4 169.9 189.8 203.4 213.5 225.6 230.2 228.5 226.4 224.1 221.4 218.8 217.5 212.3 213.1 214.3 214.1 214.3 214.6 215.4 215 215.5 216.6 215.8 215.8 215.1 214.5 215.1 213.3 213 211.9 212.4 212.8 210.2 207.2 204.6 200.9 199.2 197.3 195.1 192 190.3 188.8 186 182.5 178.8 173.6 167.6 171.1 184.5 201.4 220.6 236.7 252.3 257.3 258.7 258.7 258.8 257.4 255.4 255.2 254.2 251.6 248.3 246.1 243.6 240.7 239.1 237 233.2 230.7 228.6 226.4 224.1 221.2 218 214.7 212.2 208.7 207.5 204.3 199.1 183.9 169.1 176.9 187.7 188.6 185.3 183.9 182.4 180.3 176.9 173.4 169.3 165.2 161.4 157.6 155.1 153 152.3 150.8
229.5 228.1 241.8 253.3 263.5 277.8 273.6 268.2 260.2 252.7 249.1 247.7 244.2 234.4 228 226.7 230.2 231.8 235.3 235.6 227 216.7 206.4 201.7 197.7 191.3 186.2 184.2 185.1 184.4 184.6 184.7 184.6 184.8 184.1 181.9 178 171.7 164.3 155.1 144.8 137.7 130.4 128.1 129.9 129.8 129.5 131.1 135.2 134 139.9 140.8 141.5 141.3 141.1 141.2 140.8 140.6 140.5 141.6 140.3 141.8 143.7 145.4 147.1 147.7 147.2 146.2 143.9 140.4 136.9 136.1 135.9 133.2 131.8 133 129.9 134.5 136.1 135.6 134 131.4 130 129 129.7 129.7 127.6 126.2 127.5 125.8 126.2 126.1 128.1 129.4 132.6 136.6 141.6 150.1 162.4 181 197.2 210.2 224.5 228.3 228.2 225.7 224.2 221.5 219.7 217.2 214.3 212.1 208.2 210.4 211.4 213.8 216.1 217.8 219 219.6 221 222.2 222.1 222.1 222 221.7 222 221.3 220.6 220.1 220.4 219.1 216.6 214.3 211.4 208.6 206.5 205.1 203.6 200.8 198.2 196 191.5 187.1 180.3 169.5 165.7 177.4 192.4 213.1 238 255.2 257.3 257.5 258.2 258.1 256.4 254.3 252.3 250.9 249.8 247.1 243.7 240.8 239.5 237.5 235.9 234.1 231.3 228.1 225.3 222.7 220.1 216.9 213.9 211.1 209.1 208.1 205 202.1 197.9 188.1 170.4 164 171.7 180.6 180.9 179.9 180.2 178.4 174.2 170.4 166.4 162.3 157.9 153.1 150.3 148.9 148.4 146.8
241.4 242.7 249.5 255.8 265.5 274.9 273.9 267.5 259.2 250.7 245.2 243.1 238.3 229.5 224.4 220.7 219.8 229.8 234.5 235.4 228.2 220.3 212.8 206.8 200.8 194.9 189.9 186.5 186 187.1 187.5 187 186.7 187.4 188.1 185.6 183.1 179.9 175.8 170.9 163.6 153.5 139.7 133.6 128.5 127 126.9 129.2 128.7 129.3 131.3 137 140.2 140.2 140 141.3 138.8 139 139 138.8 139.8 141.5 143.7 145.4 146.9 146.5 145.9 145.1 143.8 140.1 137 136.5 136.7 135.8 131.9 129.9 130.1 134.8 135.2 132.9 131.8 131.2 128.3 126.9 126.6 124.3 125 127.4 127.2 127.8 128.5 129.5 130.9 134.2 139.4 147.2 155.6 167.1 181.1 195.3 215.9 230.3 228.6 226.5 223.8 221.7 220.2 218.2 215.7 213.2 210.3 206.5 207.1 209.7 212.9 215.5 218.6 221.5 224.6 227.3 229.4 231.6 232.6 232.3 232 231.5 231.6 231.3 231.2 230.1 228.1 226.1 223.7 221.4 218.6 216.1 214.4 213.4 211.9 208.8 205.7 201.8 197.1 188.1 175.5 167.4 167.1 179.8 194.5 215 237.1 253.2 253.6 254.9 255 254.3 252.1 249.9 248.1 246.3 244.3 242.4 239.7 237.2 234.8 234.3 232.3 230.3 228.4 225.7 222.7 219.3 215.5 212.4 209.6 207.4 206.2 204.4 202.2 199.5 196.6 192.1 180.1 163.2 159.6 162.9 169.9 176.5 177.6 174.6 171.2 167.3 163.4 159.4 155.5 150.3 146.2 145 144.9 142.5
252.5 254.7 256.8 260.4 264.7 270.3 272.6 268.7 260.6 252.1 244.9 239.8 234 224.3 219 215.8 208.1 216.8 224.7 229.8 228 223.4 218.3 213.6 205.4 199.3 193.4 191.1 187.9 186.5 187.4 187.2 186.7 187.7 188.6 186.9 184.7 181.3 176.9 171.4 164.7 157 147.4 142.2 137.8 133.3 130.9 126.9 128 126.8 127.6 130.8 136.9 139.1 138.7 140.1 138.6 138.3 138.1 138.7 139.7 143.4 144.5 145 145.8 146.1 145.2 144.4 142.4 139.2 136.6 134.9 136 136 133 130.6 128.9 132.4 133.2 131.2 129.3 128.5 126.1 126.6 123.7 123.7 126.2 126.4 127.3 128.3 129.3 131.7 136 141.5 147.1 156.8 168.8 182.5 194.4 209.9 230.7 227.9 224.9 222.3 220.5 218.3 216.1 214.4 212.3 209.9 205.4 204.7 207.9 210.7 214.7 217.2 221.6 225.1 233.2 235.7 234.7 237.7 241 242.2 244.8 245 244 244.5 243.6 241.9 238.1 234.2 231.8 229.5 226.5 224.2 222.5 221.7 221.2 217.3 213.1 208.5 199.9 185.7 172.9 167.6 165.4 176.5 190 208.4 232.1 247.8 249.2 250.6 250.9 249.7 247.9 245.9 243.6 241.1 239.5 237.9 235.9 233.6 231.8 229.9 229 227 225.3 223.2 220.3 216.2 213.3 209.4 205.4 203.1 202.7 201.1 199 196.4 193.8 190.9 186.8 175.4 161.8 154.8 154.7 165.7 173.5 170.7 167.2 163.9 160.2 156.5 152.7 149 144.4 141.1 142 138.8
260 260.4 259.2 260.2 262.3 266.2 272.6 271.3 264.3 259.1 256.3 245.7 232.9 225.4 218.1 212.2 207.1 198.6 213 221.1 222.3 222.2 222.8 217 207.9 200.9 195 191.1 186.7 184.4 185.7 185.4 185.4 186 187.3 186.2 184.1 180.4 175.8 170.4 163.1 154.7 146.5 143.5 141.1 138.5 135 132.3 131.1 129.8 128 127.3 133 135.5 137.7 138.3 138.5 138.2 137.9 138.4 139.2 144 144.2 144.1 144.8 144.2 143.1 142.3 140.7 137.6 136.3 134 135.7 136.3 134.9 133 130 126.8 129.6 129.1 127.4 125.8 126.3 126.8 127 126.9 127.5 127.7 128.4 129.6 132.7 135.5 140.6 147.5 153.7 166.3 180.4 196.6 210.6 228 228.3 224.8 220.1 219.1 217.5 215.7 213.8 211.6 209.5 206.8 203.9 206.5 210.7 213.4 217.1 220 223.4 231 237.8 239.4 240 243.7 250 254.7 259.5 260.8 260.4 259.4 256.4 253.8 249.3 244.6 241.7 239.1 236.2 234.6 233.7 233.2 233.3 227.9 220.2 210.4 199.9 185.1 175.3 170.1 166.3 169.9 181.4 197.7 223 240.8 243.3 245.5 246.2 244.9 243.6 241.9 239.7 236.6 234.8 233.3 232.6 230.6 228.5 226.7 225.8 224.5 222.5 220.4 217.7 214.8 211.3 207 201.2 198.6 199 198 195.4 192.8 190.2 187.5 185 181.2 173.1 159.8 149.2 152.8 165.8 166.2 162.9 159.9 156.5 153.5 149.9 146.1 142 137.5 137.3 135.9
258.1 257.1 254.9 254.4 255.5 261.4 272.9 272.5 266.3 264.5 255.2 240.3 226.7 221.2 220 216.5 210.5 200.9 197.6 210.6 211.9 214 215.3 210.7 204.2 196.8 191.7 187.4 183 181.1 182.6 182.6 182.3 182.2 183.6 184 182 177.9 173.6 167.8 159.2 150.7 144.2 142.4 141.9 140.3 138.7 134.7 131.8 130 128.5 127.4 125.9 131.9 134.7 137.1 137.9 137.7 137.9 138.2 140.4 144.2 144.3 144.1 144.3 142.6 141.5 140.5 138.9 136.7 134.2 135 135.4 135.3 135.2 133.9 132.3 128.7 126.5 126 125.5 125.9 126.4 124.8 126.6 127.3 128.1 128.5 129.8 132.5 135.9 140 145.7 153 162.4 179.2 197.9 216 230.4 229.6 226.5 219.5 217.7 219.3 217.5 215 212 209.2 205.8 201.3 202.9 207.9 212.7 215.8 219.8 223.6 228.5 233.5 239.7 245.2 253 260.9 267.6 274.2 277.7 278.2 277.7 275.7 272.3 267.7 266.7 267 263 260.8 256.7 253.5 251.9 253.4 250 232.3 218.4 202.9 194.9 186.3 179 173.5 169.1 164.2 172.3 187.6 211.4 233.4 237.6 240.2 240.8 240 238.5 238.1 235.6 232.2 230.2 228.9 228.5 227.3 225.4 224.6 223.4 221.7 219.2 217.7 215 212.4 209.9 206.2 197.7 194.9 194.8 194.2 191.8 189.1 186.5 183.9 181.3 178.3 173.9 168.2 155.7 147 155.2 161.8 158.7 155.7 152.8 148.4 144.9 141.7 139.4 136.2 134.1 131.2
251.1 248.6 247.1 246.4 249.7 256.6 264.4 265.1 261.1 254.3 241.7 226 215.4 215.3 216.2 212.3 207.1 199.4 187.7 196.7 195.7 199.9 202.8 202.4 197.1 191.2 185.2 179.8 176.9 177 178 178.5 178.2 178.4 179.5 180.2 178.7 175.4 171.1 165.1 153.1 145.6 142.6 142.1 141.5 141 140.7 138 133.2 131.1 130 127.2 123.9 127.4 131.7 135.8 136 136 136.3 137.1 142.3 143.5 143.6 144.3 144.1 142.2 140.6 138.6 137.2 133.7 133.8 135.3 135.3 134.8 135.1 132.9 129.9 127.1 126.1 125.2 125.6 125.9 126.3 126.5 126.8 127.6 128.5 130.1 132.5 135.4 139.7 145.5 152 160.9 177.8 195.4 213.7 224.1 228.6 228 221 215.3 217.7 218.4 216.1 212.1 207.9 202.5 199.8 200.4 204.3 207.2 211.4 215.7 221.2 226.8 233.4 238.1 246.7 257.1 268.1 278.3 286.3 292.8 295.3 295.8 296.1 294.4 294.1 294 290.4 290.5 288 285.8 282.5 281.3 274.3 265.2 250.9 235.9 226.5 217 205.9 195.9 187.2 178.8 173 166.3 165 177.6 201.3 221.8 232.2 234.9 235.2 234.9 233.6 233.3 231.2 227.7 225.7 224.8 224.3 223.8 222.9 221.8 220.6 218.7 216.6 214.8 212.3 209.6 206.7 204.3 197.4 191.8 190.8 190 188.3 185.4 182.6 179.4 177 174 171.3 166.8 159.9 144.8 146.2 152.7 154.9 151.3 147.9 144.5 141.6 138.4 135.8 132.9 130.4 128.3
244.4 240.6 239.3 240 244.2 250.5 251.8 249.2 243.6 236.4 224.9 212.6 208.6 210.5 209.5 201.9 193.3 184.4 183.7 182.4 180.4 183.7 190.8 196.3 190 185.3 179.3 173.1 171 171 171.4 171.5 171.8 174.5 176 175.9 173.9 172 166.8 157.7 148 143.5 141.3 140.8 140.5 139.3 138.7 135.8 132.8 131.3 130.4 129 126.9 123.3 127.8 130.5 136 135.1 133.9 135.7 141 141.8 142.1 143.4 143.4 142.6 140.9 138.9 136.6 134.2 134.7 134.8 135.4 134.2 133.8 129.8 126.7 125 125.1 125.5 125.4 126 124.3 126.7 127.6 128.6 129.6 131.3 134.4 138.6 144.1 150.9 159.7 172.6 192.4 209.6 219.2 225.7 227.5 223.1 215.4 211.1 215.7 214.3 210.6 206.1 201.2 196.5 193.6 201.4 206.6 209.7 212.6 217.5 223.9 229.7 237.5 246.3 258 271.9 283.8 293.9 302 307.1 309.4 310.7 310.9 310.4 311.3 312.1 310.3 307.9 303.9 299 294.4 289.1 282.9 276.3 265.4 254.4 240.6 238.1 226.3 212.5 202.5 187.4 177.4 170.2 162.8 170.8 191.2 206 222.8 229.3 229.6 229.2 228.5 228 225.9 223.4 221.4 220.3 220.9 220.8 220.8 219.6 217.4 215.4 213.5 211.6 209.2 206.5 203.6 196.7 191.5 190.2 181.9 184.4 183.6 181.5 178.9 175.6 172.9 171 167 163.9 159.5 152.2 140.6 144.3 150 146.6 143.3 140.5 138.1 134.9 132 128.6 127.4 126.1
236.7 231 227.7 227 233.4 238 238.3 238.2 231 223.2 216.5 208.9 203.3 203 201.3 191 186.3 193.6 191.6 186.6 182 177.1 177.8 180.4 181.7 178.7 172.9 168.1 166 164.9 163.8 164.3 166.1 168.6 172.3 172 170.9 168.2 163.4 152.4 146.1 141.5 139.8 138.6 137.6 136.5 135.3 134.1 132.6 131.1 130 129.3 127.6 126.6 123.3 127.6 134.1 133.7 133.5 133.5 136.9 138.4 139.2 140.2 140.9 140.9 140.9 138.5 135.9 135.1 134.4 135.4 135.1 133.5 129.8 127.1 124.6 124.9 125.2 124.4 125.9 124.1 128.1 128.9 129.2 129.8 130.8 133.2 137.3 142.5 149.5 156.6 168.2 185.6 205 216.6 224.5 225.9 223.7 218 208.4 210.7 212.7 209.4 203.6 198.5 193.8 192.9 199 203.1 206.1 206.9 212.2 218.5 225.4 233.4 243.2 254.6 269.4 284.4 296.7 307.2 313.6 317.6 318.8 319.9 319.1 317.6 316.4 316 315.6 312.9 307.9 303.1 296.9 291.4 285.6 279.8 273.6 267.6 261.2 251.1 241 227.7 214.5 200.8 187.5 175.2 166 164.8 181.1 191.7 204.6 219.6 223.8 223.5 223.2 223.2 221.2 219.2 217.5 216.9 218.2 218.6 218.1 216.6 214.7 213 211.3 209 206.4 203.6 197.3 190.1 190.2 187.1 181 178.1 177.1 177.7 176 173 169.6 166.7 163.5 159.5 156.7 152.7 144.5 138.3 144 141.7 139.9 137.1 134.3 131.1 128 125.3 124.5 124.3
244.2 240.8 236.7 230.9 221.9 228 230.1 229.1 225.6 220.5 215.7 210.7 206.7 200.5 194.2 186.3 198.4 207.7 204.1 197.7 191.8 191.9 186.3 175.1 172.8 171.7 168.7 165.1 161.8 160.2 159.4 159 161.1 164.1 166.6 169.1 167.9 164.9 159.7 150 143 139.7 139 137.6 136.5 136.1 134.8 133.9 132.9 131.8 131.4 130.6 129.9 126.9 126.3 124.7 127.9 129.5 130.2 130.5 132.9 134.1 135.9 137.2 137.7 138.4 138.7 135.2 135.5 134.7 134 134.1 134.7 131.6 126.6 124.9 125.1 124.6 125.7 124.4 126.9 128.7 129.3 130 130.7 131.3 132.3 135.5 140.1 147.4 155.2 164.8 180.1 199.6 212.9 223.4 224.3 221.8 218.3 212.7 204.7 207.9 206.9 202.4 196.9 190.7 189.3 194.3 198.2 201.3 201.1 205.8 211.6 219.1 227.3 237.3 250.1 264.7 280.9 296.1 309.3 316.7 321.6 323.2 322.7 322.3 319 317.9 319.2 319.1 315.4 311.3 306.2 300.4 295.1 290 285 279.7 274.3 268.9 263 256 246.2 234.2 223.1 211.8 199.9 185.7 169.8 159.7 168.9 179.1 190.3 206.3 217.4 218.3 217.5 218.1 216.6 215 213.3 213.5 214.8 216.1 215 213.8 212 210.3 208.5 206.4 203.7 200.4 190.3 189.2 184.6 184.6 178 176.5 174.1 174 172 170.6 166.6 162.4 159.1 156.4 153.2 149.8 144.9 136.3 137.8 136.7 135.5 134.3 131.4 127.7 124.8 123.2 122.7 122.6
255 253.1 248.7 241.3 230.7 219.6 215.4 219.1 216.7 214 210.3 208.1 205.3 197.9 192 201.6 213.2 215.3 210.9 206.3 204.3 201.4 192.3 183.4 175 169.1 165.4 164 162.8 160 158 156.3 156.7 160 161.1 163.3 162.9 160.5 157.3 148 141.2 139.5 138.3 137.3 136.4 135.6 134.6 133.8 132.9 132.1 131.9 131.3 129 127.4 125.8 125.3 123.3 126.4 127.1 128.1 129.4 130.5 131.6 133.2 135.3 135.8 132.1 136.1 135.8 134.4 133.8 134.3 134.6 128.9 124.8 124.3 124.8 125.3 124.6 126.9 128.2 129.2 130.4 131.1 132 132.7 134.1 137.1 142.6 152.5 163.1 176.7 194.3 207.5 219.2 222 220.8 217.3 213.6 206 199.2 202.3 199 194.3 187.7 185 190 193 196.5 196.2 199.5 205.1 211.2 219.1 228.7 241.5 256.5 274.3 292.4 308.7 321.5 325.6 326.1 323.4 320.3 316.4 315.1 318.3 318.8 315.9 311.9 307.2 302.6 297.2 292 287 282.8 277.9 273.2 267.8 262.6 256.5 249.4 239.4 227.2 212.2 195.2 190.6 176.9 165.7 159.5 163.9 174.8 191.4 208.6 212.5 211.6 212.5 211.7 209.8 209.8 211.2 212.4 213.2 212.3 211.1 209.2 207.3 205.6 203.4 200.6 197.6 193.8 184.4 184.3 181.5 177.3 174.7 174.4 163.9 169.3 165.9 163.1 159.8 155.4 152.7 149 146.8 142.5 136.8 134.3 133.4 132.9 130.6 127.5 123.9 122.6 121.7 121 120.8
263.3 264.5 260.6 251.1 234.6 225.8 219.8 211.8 208.1 206.1 203 199 199.4 199.6 204.7 215.6 224.3 223.5 219.8 216.5 215.5 210.3 201.8 190.3 187 181.5 176.4 171.7 168.1 164.2 160.7 157 154.5 157 156.2 155.8 156.6 155.8 153.3 144.7 141.2 139.7 138.5 137.4 136.4 135.4 134.5 133.7 133 131.8 131.5 130.6 128.6 126.8 127 125.5 123.3 124.9 126 126.4 126.8 128.5 129.7 130.4 132.2 134.2 134.5 134.4 134.2 134.3 134.2 134.2 132.4 128 125.8 126.1 125.6 124.4 124.9 127.9 128.6 129.7 131.1 132 132.6 134.2 135.6 139.2 144.4 156.2 172.7 191.1 200.4 214.3 218.9 217.9 215.9 213.8 210.2 204.1 195.5 194.7 191.8 185.8 182.1 186.4 187.4 190.5 191.6 195 199.9 206 212.5 220.8 232.1 247.5 265.7 284.8 304.5 324.4 334.2 329.5 323.5 319.4 314.5 311.1 310.7 315.5 313.7 311.6 307.1 301.7 297.6 293.1 287.6 283.1 279.5 275.6 271.5 266.6 261.5 256.4 249.8 242.1 234.2 222.3 198.5 193.4 184.5 179.8 170.8 160.3 161.7 182.2 196.2 205.8 204.8 206 205.7 201.3 209.5 208.7 209.7 209.5 209.3 208.4 206.9 204.6 202.3 199.9 197.2 194.9 190.8 187.4 184.8 178.6 175.6 172.8 168.8 162 164.8 163.9 159.7 156 153.5 149.4 145.3 143.1 140 136.8 132.9 130.9 127.4 126.5 124.3 120.2 120.8 120.6 119.6 118.9
274.5 276.3 273.2 261.5 252.2 243.1 233.4 221 214.6 209.4 206.5 203 201.4 204.1 212.6 225.6 234.7 237.3 233.2 228.8 224.1 218.2 210.3 199.4 199.8 194.6 185 177.8 171.8 167.3 163.4 159.2 156.2 153 152.4 151.9 152.5 150.5 146.9 142.6 141.5 140.7 139.5 138.1 136.8 135.4 134.8 134.3 133.6 131.9 130.8 130.9 126.4 125.6 125.4 125.3 123.4 124 124.5 125.2 125.3 125.8 127.7 129 130.4 131 133 133.6 133.5 133.5 133.5 128.3 128.1 127.2 123.5 123.7 124.1 125.1 126.3 127.8 128.8 130.2 131.8 132.5 133.5 135.6 136.4 138.8 144.4 152.3 167.7 181.8 193.2 216.2 215.5 213.4 211.5 209.8 206.3 202.1 196.6 188.8 183.5 180.2 180 182.4 184.7 187.6 190.6 195.7 200.7 207 215.2 224.2 236.4 253.3 274 295.7 316 332.4 328 322.9 318.1 313.6 308.8 304 305.1 309.1 309.1 306.8 302.3 297.3 293.2 288.7 283.3 279.1 275.9 272.5 269.4 265.1 260.4 255.9 251.1 245.2 238.6 231.9 220.4 212.3 200.5 187.3 175.1 164.1 157.2 171.1 184.3 193.1 191.4 195.9 198.4 200 205.9 206.4 207.1 206 206 204.8 203.7 201.6 198.7 196.3 193.6 190.9 187.3 183.7 180 176.3 173 169.6 165.9 160.7 159.3 160.7 156.8 154.3 149.4 146 142.1 139 136.5 134.2 131.2 128 127 123.7 120.9 120.2 119.6 119.3 118.5 118.7
283.4 286.3 284.4 276.9 267.5 256.5 244.6 232.7 222.7 217.7 213.2 210.4 211.3 208.9 217.1 233.1 244.4 251 246.9 244.7 237.8 230.5 219.4 213.9 214.1 206.8 197.8 186.4 177.1 171.7 167.3 161.7 156.3 152.6 149.6 148.8 148.9 146.9 142.9 141.5 140.8 140 139 138.6 137.5 136.2 135.3 134.8 134 133.2 131.6 131.6 131 125.7 126.1 125.3 123.1 122.9 124.4 124.4 124.4 124.4 124.2 125.9 130.6 129.7 130.3 130.7 132.9 130.1 128.6 128.9 128.2 123.6 124.2 123.9 124.6 126.5 126.8 127.6 128.6 129.9 132.1 133.3 134.3 136.4 137 138.3 141.8 149.4 159.4 171.4 186.9 201.4 210.4 209 207.9 205.7 201.4 196.9 192.7 187.9 183 178.3 179.7 183.6 184.9 187.7 192.4 197.9 203.9 209.6 216.9 226.5 241.1 259.7 281.4 304.7 325.2 327.8 322.7 317.2 312.5 307.5 303.2 299 299 302.5 301.9 302.3 297 293.2 288.6 284 279.6 276.1 272.1 269.3 266 262.6 259.2 255.4 251.1 246.6 241.7 236.1 231.5 224.4 215.1 202.7 187 169.3 158.3 159.9 169.3 178.9 177.6 189.9 184.4 193.6 202.9 203.1 204 202.7 202.7 201.5 200.3 198.5 195.5 192.6 190 187.4 184.1 180.5 176.6 172.5 168.8 165.5 163 160 153.9 154.5 153.8 149.6 146.2 142.9 139.9 136.6 135.6 132.9 128.2 126.8 125.4 124.1 121.7 120 119.2 118.9 117.5 117.8
289.7 293.7 292.4 286.1 276.5 264.1 249.5 236.3 225 220.5 218 215.9 220 218.9 224.2 239.4 249.9 256.7 256.9 254.2 248 241.5 232.5 230.7 229 220.9 211.6 198.8 187.5 178.4 170.6 164 159.6 155.3 151.9 148.2 146.5 144.7 144.4 143.6 142.3 140.3 139.6 138.2 137.5 136.9 135.8 134.8 133.9 133.1 132.6 133.6 135.3 135.3 131.6 128.5 124.9 123 124.5 124.7 123.9 123.7 123.9 123.4 124.9 126.7 127.9 128.7 130.5 128 128.5 129.5 127.3 124.8 123.7 123.9 124.7 126.4 127 128.3 129.3 130.7 132.1 133.4 135.1 137.2 138.5 138.8 140.4 144.6 154.5 168.5 180.5 194.3 205.4 205.7 204.3 201.4 196.5 191.7 187.5 183.9 180.5 176.9 177.2 178.9 182.8 187.5 193.2 199.6 207.7 214.4 222.8 233.6 247 266.1 289.1 311.3 327.5 322 316.8 311.6 306.7 302.1 297.8 294.2 293.2 294.7 297.5 297.3 293.3 288.5 284.1 279.7 275.9 272.5 268.7 265.6 262.8 259.2 256.8 253.4 249.7 245.8 241.4 237.2 232.3 228 221.2 216.3 202.8 188 169.8 157.1 155.4 161.2 167.7 171.2 176.5 191.6 200 200.5 199.9 198.1 194.7 198.2 196.6 194.7 192.6 189.8 186.5 183.8 180.8 177.2 173.2 169.5 166.5 163.8 161.2 158.3 154.1 149.3 147.2 146.6 143.7 141 138.1 136.8 132.9 130 127.5 125.6 123 121.7 120.9 119.9 119.1 118.9 117.7 117.1
294.1 296.9 295 288.7 278.9 266.3 250.7 241.3 229.8 226 225.5 227.5 230 231.2 235.5 244.1 255.3 261.1 263.3 261.3 255.6 250.2 244.6 243.9 244.2 232.7 221 207.9 194.2 184.3 175.4 169.1 161.9 157.7 154.5 152.1 150.7 149.4 147.5 146.1 145.1 141.2 138.8 137.9 137 137.1 136.3 135 134.2 133.7 134.8 138.7 142.4 144.4 144.1 140.6 136.1 132 124.9 121.7 122.7 122.9 123.3 128.2 124.2 124.8 126.3 128.2 129.6 127.8 127.9 128.1 128.4 126.4 123.7 123.4 123.8 126 127.6 128.5 129.9 131.5 133.3 134.5 137.2 139 140.5 142.1 142.1 141.5 146.8 161.7 172 187.7 200.7 202.7 201 196.7 191.5 186.2 181.7 178.6 176.1 172.8 174.1 180.3 184.4 189.8 194.7 200.6 207.9 217.6 227.5 238.9 252.6 272.2 293.9 316.2 322.8 317.2 312 306.8 301.6 297.4 293.9 290.3 286.3 288.8 290.3 292.2 290 284.7 279.6 274.8 270 267.9 264.7 262 259.2 255.8 253.5 249.8 246.7 243.5 239.8 235.9 232.2 228 223.5 218.4 212.8 205.1 185.7 169.9 155.4 153.1 156.2 163.7 182.3 196.4 197.3 196.9 196.9 195.6 194.9 195 192.9 191.2 189 186.2 183.4 180.3 177.6 173.9 170.4 167 163.2 160.9 157.8 155.2 152.9 149.7 144.5 142.2 140.6 139.1 137.1 133.9 130.4 128.8 127.6 124.4 123.8 123 122.4 122.2 120.2 118.8 117.3 116.9
292.6 295.3 292 284.1 276.2 265.7 255.6 247.9 239.7 240.2 237.4 238 239 236.2 241.2 251.2 260 265.6 269.4 267.4 261.8 257 253 251.8 249 239.6 227.1 213 199.2 189.1 181.5 174.1 167.1 161.6 158.1 155.7 153.7 151.5 148.9 147.3 146.1 143.7 139.6 138.1 137.6 136.9 136.6 136.2 135.9 135.7 137.7 139.1 140.4 143.5 145.4 146.3 145 141.7 134.1 127.5 123.3 121.5 122.6 124 123.6 123.7 126.7 127.3 127.7 128.2 128 128 127.9 127.2 123.6 123.6 123.6 126.2 128.2 128.4 130.4 132.6 134.5 136.2 139.1 141.8 144.3 147 149.1 146.6 143 151 167 178.5 193.7 200.3 196.7 191.6 186.3 180.9 175.2 172.2 168.2 170.9 176 180.4 184.5 190.2 196.3 202.1 209.9 221.4 232.1 244.5 258 273.6 298.5 318.6 317.8 312.4 307.2 302 296.7 293.2 289.4 287.2 285.2 282.3 284 285.7 284.6 280.1 275.9 271.1 266.5 262.7 260 257.8 255.2 252.2 249.5 246 243 240.1 237.1 233.9 230.8 227.5 223.7 219.2 214 208.3 201.8 188.9 171.7 161.5 152.8 157.5 180.1 194.1 194.1 194 194.3 193.4 192.7 190.8 189.6 187.5 185.5 183.1 180.3 177.2 174.2 171.1 168.1 164.5 160.9 158.5 155.6 152 150.4 148.7 145.8 140.8 138 137.8 134.7 132.6 129.1 127.7 128.6 128.5 127.9 129.6 129.8 127.3 122.8 119.5 118.1 116.5
289.1 290.2 285.5 278.8 269.7 264.8 260.1 256 256.3 254 251.1 250.8 247.8 238.1 242.2 255.3 264.4 269.9 273.5 270.8 265.7 260.8 259.8 259.1 251.5 243.6 232.1 220.1 209.2 199.2 189.3 180.2 173.9 168 163.5 160.4 157.9 155.1 151.2 148.2 145.2 142.4 140.7 139.3 137.9 136.8 135.8 134.9 134.5 136.1 137.5 137.9 138.1 140.6 142.4 143 143.2 142.4 140.5 133.1 128.8 126.5 123.3 120.9 123 121.5 121.1 120.5 128 127.9 128.6 127.7 127.5 126.4 122.7 122.9 123.4 126.4 127.9 128.7 131 133.2 134.3 137 140.9 144.2 147.5 152.8 158.8 154.8 147.4 145.1 158.8 173.3 183.3 195 192.3 186.9 181.4 175.8 170.3 164.9 173 178.9 178.5 181.7 185.6 191.4 197.8 203.9 213.1 224.4 237.9 249.8 261.9 276.5 303.3 318.7 313.2 307.7 302.5 297.2 292.6 289.4 287 285.7 283.9 282.4 275.7 276 277.7 275.7 271.7 267.5 263.3 257.8 256.3 254.1 250.9 248.1 245.3 242.3 239.3 236.4 233.8 231.4 228.4 225.8 222.2 217.9 213.3 208.3 202.3 195.2 181.7 167.4 154.2 155.1 175.6 190.1 190.9 190.9 192.1 191.5 191.3 187.3 185.4 184.1 182 179.9 177.1 174.2 171.2 168.7 165.8 162.9 160.5 158 155.8 154.1 149.7 146 141.6 138.7 137.4 136.7 134.9 132 131.5 131.8 133.5 135.4 135.9 135.8 137.1 130.8 126.9 123.5 121.6 119.3
282.4 283.5 280.3 278.3 276.1 274.8 272.3 270.9 271.9 268.6 265.7 264.6 258.2 242.1 241 259.5 268.5 272.9 275.2 271.2 266 263 262.9 264.1 254.9 246 236.7 225.3 216.7 206.5 196.6 188.6 182 175.3 171.6 168.1 164.9 161 156.6 153.1 148.7 145.9 145.4 142.8 139.4 137.3 136 134.6 133.9 134.7 136.4 137 137.5 138.8 139.4 139.1 138.7 138.3 137.1 135.5 127.7 131.8 128.9 124.5 125.7 121.7 122.8 122.3 125.7 128 128.8 127.7 127.4 126.4 123.6 122.5 122.9 125.5 127.6 129.1 131.2 132.5 134.5 137.3 141.5 147.2 152.6 164.3 168.3 162.3 154.3 148 149.6 159.9 173 185.1 187.5 181.9 176.4 170.8 166.9 167.5 174.9 181.9 183.1 184.4 188.4 193.8 200.3 208 217.8 229.7 242 253.8 266.1 284.2 309.4 313.9 308.7 303 298.2 293.1 288.7 284 283.9 286.3 282.5 276.3 270.6 265.8 270.8 270.9 268.1 264.2 260.2 256.7 251.7 249.9 247.5 244.4 241 237.8 235.3 232.7 230.6 228.4 226.8 224.1 220 215.8 211 206.8 200.2 194 185.8 171.4 153.2 154.9 169.1 180.5 189.4 190.5 190.5 189.3 186.4 183.3 181.3 179.9 178.6 176.7 173.9 171.1 168.3 166.2 164.1 162.1 159.9 157.5 155.3 151.4 144.7 143.3 142.7 142.2 142.4 140.9 138.5 137.5 137.2 139.1 141.2 141.8 139.2 136.4 134.4 129.9 126.4 124.6 123.2 121.6
273.5 275.4 278.4 281.1 285.7 287.7 284.6 283.5 283.7 279.9 277.2 275.6 269.9 253.3 257.9 266.4 272.4 273.3 273.8 269.3 264.5 261.5 261.1 261.3 254.3 246.1 238.9 228.6 220 211.4 202.7 196.3 189.1 182.6 179.7 176.1 171.8 166.9 161.1 156.4 153.4 149.9 148.2 145.5 142 138.4 136.2 134.8 133.8 133.6 134.8 136.3 136.9 137.8 137.7 136.8 134.3 134.7 134.9 134.4 128.5 131 129.3 126.7 124.7 123.1 122.7 122.2 120.5 125.6 127.5 127.1 127 126 124.6 122.6 122.8 123.8 127.5 128.9 130.6 132.1 134.7 138.1 143.9 149.9 161.4 172.6 173.2 169.6 160.6 155.2 151.1 149.7 158.3 173.6 182.4 177.1 171.5 166.3 162.6 168.2 175.6 180.8 184 186.2 190.9 196.2 204.1 211.9 222.6 234.7 246.9 258.9 272.2 295.3 314.6 309.4 304.2 300 296.8 295.4 293.1 288.6 282 278.2 277.2 272.5 266.9 262.5 261.7 264.1 263.5 261.2 258.5 255.4 251.3 246.5 243.3 241.3 237.1 232.9 230.9 229.3 226.9 226 224.2 221.4 217.9 214.3 209.4 204.6 199.6 193.1 184.9 170.2 153.6 151.8 161.2 170.4 180.5 189.1 189.1 187.5 184.5 181.1 177.3 175.8 174.6 173.2 170.9 168.1 166.3 165.2 162.8 160.2 157.7 155.5 150.9 149 148.3 149.2 148.7 149.4 147.8 146 145.1 144.6 145.9 145.7 143.4 140.8 138 135 133.5 132.1 128.2 127.2 126.7 123.9
264.7 269.6 276 286.9 295.3 295.6 292.8 291.3 290 287.6 284.6 281 275.8 268.9 269.7 273.7 273.2 271.8 270.8 266.3 262.4 257.6 257.4 257.7 253.6 246.4 239.9 230.4 222.2 214.1 206.6 200.9 194.4 188.9 184 179.7 174.6 169.9 163.5 158.5 155.3 152.7 150.4 147.1 143.3 141.1 138.2 136.1 134.2 133 133.6 134.9 134.8 135.7 136.4 135.4 134 133 133.2 133.5 129.1 128.4 127.8 126.5 124.7 123.6 122.2 121.3 120.5 122.6 124.4 125.6 126.4 126.4 125.2 123.2 122.2 123.7 127.7 128.9 131.9 133.5 135.8 140.3 145.3 154.2 169.2 175.4 176.7 174.7 171.6 163.1 158.7 153.6 151.4 161.8 174.4 172.8 166.8 162 162.6 168 175.1 179.7 183.8 187.4 192.2 198.1 205.4 214.8 226.7 239.7 251.8 263.9 283.6 306.5 310.5 305.8 301.1 298.1 298.1 299.1 295.7 292 287.4 280 273.1 269.9 266.9 262.5 256.3 251.5 256.1 256 255.9 253.6 251 248.1 244.8 237.7 232 227.4 225.3 225.8 224.7 222.4 220.5 218.4 216 212.6 209.1 204.5 199.4 194.3 188.8 177.9 158.4 147.6 150.2 156.5 169.7 181.3 187.1 185.2 182.4 179.2 174.6 172.2 170.9 169.2 167.8 165.2 163.7 163.9 162.1 157.9 155.3 152.5 150.6 150.2 152.9 154 152.6 150.7 148.6 147.8 146.4 146.6 145.7 142.7 139.5 137.1 135.4 134 132.2 129.8 129.5 128.7 127 124.7
261.2 267.4 274.4 290.3 300.4 301.4 298.6 296.2 294.5 291.2 288 284.4 279 271.8 271.5 275 273.6 272 269.4 264.3 258.1 253.9 253.1 254 252.9 247.2 239.2 230.1 222.2 214.5 208.2 202 196.9 192.1 187.2 181.9 175.9 170.4 165.3 160 155.8 153.2 150.7 147.9 146.5 144.2 141.3 138.3 135.8 133.7 132.5 132.7 133.7 133.4 133.9 133.6 133.9 132.7 132 130.7 128 127.7 127.6 126.8 126.2 124.8 122.3 121.1 121 121.9 123.3 124.8 125.9 124.9 124.4 122.3 122.1 125.2 127.9 129.4 132.2 134.8 137.5 141.7 146.8 154.8 165.3 173.3 179.3 181.5 182.9 179.7 172.5 161.6 154.5 152.9 162.4 162.8 159 160 165.2 170.2 174.2 177.3 182.1 187.5 193.1 199.3 206.8 216.4 230.6 243.8 256.8 273.1 295.7 310.5 306 302.2 298.7 296.5 297.5 297.6 296.5 294.7 290.8 286.2 281.6 275.6 267.2 262.8 257 252.3 246.7 247.3 249.5 250.4 249.5 246.9 243.8 240.3 235.4 230.5 224.3 217.7 217.5 219 217.4 216.3 215.1 212.1 208.7 204.9 200.2 194.5 189.2 183.7 172.4 155.9 145.6 147.4 155.6 171 184.2 182.6 180.2 176.7 172 168.4 167.3 165.2 163.8 161.9 161.3 161.4 159.1 156.2 154.1 153 151.6 151.9 152.3 151.7 150.4 149.3 148.4 147.3 145.4 142.9 140.7 138.1 135.5 133.3 133.1 131.3 129.2 127.2 127.6 127.1 126.4 126.6
258.7 266.2 273.1 288.7 300.3 303 301 298.1 296 292.7 287 282.4 276.2 264.1 262.3 270.9 273 270.3 267.4 262.6 256.2 251.4 248.5 249.2 250.2 245.2 237.6 229.3 221.7 214.1 208 201.9 197.4 192.7 187.3 181.6 176.2 170.2 165 159.8 155.9 152.5 150.5 148.4 147.6 146.3 144.2 141.4 138.2 136 133.5 131.8 132.6 131.8 132 131.8 130.8 130.5 130.6 128.5 128.1 127.7 127.1 127.8 126.5 124.6 121.6 121.5 121.5 121.6 121.2 123.2 125.1 124.7 122.6 121.4 122.6 126.9 128.8 130.3 132.6 135.7 139.6 144.2 149.6 158.4 168.2 177.3 184.2 190.1 191.7 190.7 184.9 173.7 165.1 160.2 156.6 158 161.1 167.5 170.8 174.6 178 181.5 185.2 189.5 194.3 200.5 208.3 218.9 234 251.2 265.5 285.5 305.2 307.3 303 298.5 297.7 298 296.5 295 293.5 291.8 288.5 285.2 280.8 275.8 270.8 264 259 254.5 251.8 243.7 238.2 243.9 243.9 243.8 242.1 239.7 236.5 233 228.7 223.3 216.5 209.5 210.5 214.7 214 211.1 208.3 205.3 201 194.1 188.9 183.2 177.4 171.3 155.4 144.5 143.7 160.1 178.7 180.4 177.7 174.6 171 165.8 163.5 161.4 159.1 158.6 159.5 158.5 155.7 156.4 156 154.5 150.7 149.2 147.8 147.2 147.8 147.6 147.2 145.9 143.5 140.7 137.6 134.5 131.8 130.4 131 128 125.8 125.5 125.4 125.9 127 126
258.3 263.8 273.4 289 301.7 302.2 300.3 297.3 292.5 286.5 276.1 273 267.4 258 249.4 256.8 259.3 261.5 263.7 258.1 252.6 247.1 240.9 243 244.8 241.5 235.1 227.2 220.2 212.8 206.5 200.6 196 191.6 186.3 180.9 174.9 168.5 163.1 158.3 154.5 151.8 150.2 148.4 147.6 147.2 145.3 143.1 141.7 138.5 135.1 133 131.4 130.5 129.6 128.8 129.2 129 128.2 127.8 127.6 130.7 127 127.5 126.8 125.2 121.2 121.2 121.5 121.6 120.8 122.6 123.9 122.1 121.5 123.2 126.5 127.7 129.9 132.1 134.2 137.1 141.4 147.4 158.5 170 177 187.5 196.5 198.7 198.6 194.3 187.4 181.4 177.1 173.6 167.3 160.6 167.6 173.1 176.1 178 180.8 184.4 188.5 191.7 196.6 203 212.6 226.8 244 262.6 279.8 298.4 307.7 303 298.5 295.6 295.6 298.5 297.2 295.9 293.8 288.8 285.5 282.5 279.4 275.1 271.7 269.1 265.1 258.4 255.9 251.5 244.2 230.1 233.6 236.1 237.8 237.3 235.3 231.7 228 224.2 219.4 212.9 204.1 208.2 211.8 210.7 208.1 205.5 200.9 194.6 188.3 182.7 177 170.7 161.7 150.8 142.3 150.3 170.4 177.6 174.8 171.7 168.2 163.5 159.3 157.8 156.1 156.2 156.8 154.6 154.2 156.4 156.4 152.8 148.5 146 143.9 142.4 142.4 143.6 145.1 143.3 140.4 137.3 134.2 131.2 128.8 127.6 127.8 124.1 121.9 124.4 126 126.7 125.5 124
257.5 263.7 275.1 292.6 303.3 302.6 300.1 294.2 288 277.4 264.7 259.4 255.9 251.6 241.4 243 241.2 240.2 248.8 251.3 247.4 242.3 235.8 236.2 240.7 238.4 231.1 224.3 217.2 210.3 204.5 198.6 193.7 189.4 184.7 179 173.7 167.3 161.3 156.8 152.8 150.7 149.1 147.6 146.8 146.4 145.8 143.5 142.8 140.6 138.9 136.1 133.3 131.2 130 129.3 128.3 128 127.3 127.1 127.2 126.6 126.5 127.2 126.7 125.1 121.7 121 121.3 121.3 121.1 121 121.5 122.3 125 127.6 130.3 131.8 133.4 135.5 136.9 139.3 144.4 153 166.3 180.3 188 202 205.1 203.8 200.9 196 190.1 185.4 181.6 176.9 169.4 162.4 165.4 173.6 177.5 178.6 180.2 185.5 189.7 193.7 198.8 206.2 218.1 236 255.4 274.9 291.7 307.7 303.8 299.6 294.8 290.8 291.2 293.8 297.4 296 292.3 289 286.3 283.5 280.7 277.9 274.4 270.8 267.2 262.5 258 252.9 247.6 238.3 226.6 224.2 229.5 231.5 232.6 230.3 226.7 223.4 219.6 214.3 205.3 198.4 204.6 209.2 207.5 205 200.7 192.7 188.4 183.5 177.9 171.5 163.4 157.6 142.5 144.9 162.5 174.7 171.5 168.3 164.8 161 157.2 154.3 153.6 153.8 153.5 148.1 152.4 154.9 152.4 148.6 145.2 142.3 139.1 138.7 137.7 140.9 141.6 139.9 137.1 134 131.2 129.1 127 125.4 124 121.4 121.9 123.9 126.7 125.6 123.3 121.8
256.7 265.8 278.2 295.8 304.8 303 299.3 293.6 286.7 278.3 266.4 253.5 247.8 242.5 234.7 229.5 226.9 227.1 231.7 241 241.3 237.4 231.9 227.3 234.3 235.4 229.7 221 214.1 206.9 201.3 195.9 191.2 186.5 182.3 175.8 171.2 165.1 159.7 155.6 151.2 148.9 147.6 146.4 146.2 145.9 145.5 144.8 143.3 142.7 141.5 139.5 136.9 134.1 133.2 132.5 131.7 130.4 127.7 127.2 126.9 126.9 126.6 126.7 126.5 124.2 120.7 120.8 121.1 119.5 121 120.7 124.4 128.2 130.3 136.5 143.7 140.2 141.3 141.2 141 143.2 150 162.9 173.1 184.6 199.3 212 211.1 206.8 202.4 197.4 191.3 187 182.6 176.9 169.7 164.3 162.9 171.3 176 178 180.3 183.6 187.4 193.6 199.5 206.6 218.3 240.4 261.8 281 298.6 304.6 299.7 295.7 291.4 286.6 285.3 290 292.8 293.3 291.2 288 286 284 281.4 278.7 275.2 271.2 266.8 262.7 258.2 253.8 248.9 243.7 236.4 224.2 214.7 221.6 226.4 227.5 225.8 222.4 219.2 214.9 208.5 198.6 192.7 198 203.5 203.5 200.3 194.3 188.4 184.2 178.7 171.5 161.9 154.4 143.4 141.2 156.9 171.7 168.3 165.3 161.8 157.9 154 150.7 150.3 151.1 149.2 147.6 150.3 151 148.5 145 142.4 140.5 136.8 134.4 135.9 139.3 138.4 135.7 133.6 130.8 128.4 128.6 126.1 123 120.6 118.7 122.6 126.1 126.1 122.7 119.7 118.2
257.7 268.9 283.6 299 304 303.4 300.5 296.1 290.5 282.1 271.6 258.8 249.5 242.3 236.8 235.5 230.2 221.8 218 227.7 233.7 232.2 226.9 217.3 225 228.1 228.9 221.8 211.9 204.7 198.9 193.4 188.5 183.1 179.3 174.2 168.5 163.3 158.2 153.9 150.2 147.5 145.6 144.5 144.1 143.9 144.1 144.3 143.5 142.9 141.5 141.2 139.2 136.1 134.5 133 132.6 132 127.9 126.9 126.9 126.4 126.4 126 125.7 124.1 121.8 120.7 118.7 120.6 121.3 126.4 135.4 139.2 141.2 147.7 152.2 146.7 151 154.8 154.7 151.1 158.4 167.9 181 189.5 199.3 214.6 212.1 207.8 203 197.4 192 187.2 182.6 177.4 172 167.2 163.9 168.8 170.3 174.7 177 178.5 185.2 191.4 197 204.7 221.6 243.2 263.5 282.5 301.5 301.1 296.2 291.5 287.6 282.9 279.1 285.8 290.3 289.9 288 286 284.8 283.8 281.4 278.2 274.3 270.4 266.3 262.4 258.5 254.1 249.7 244.7 240.1 231.3 218 209.8 219 222.3 222.2 221.6 218.9 215.9 211.3 204.7 196.1 187.4 192.7 199.2 199 194.5 188.5 183.4 177.9 172.1 163.2 153.8 143.9 139.2 152.3 167.8 166 162.4 158.5 154.6 150.8 147.4 147 147.3 145.1 143.7 146.7 146.7 146.5 143.7 140.4 137.8 134.7 131.9 132.4 135.6 134.9 132 129.6 127.4 126.6 125.2 123.3 121.1 119 118.2 121.4 124.9 121.9 119.2 115.9 114.5
261.4 275.8 292.4 301.7 305.7 304.7 303.1 298.5 291.6 283 272.7 263.7 254.5 246.9 242.8 241 240.3 228.7 215.8 215.1 224.2 225.5 222.4 211.3 216.7 222.2 224.2 220.6 212.6 203.8 198.4 194 188.6 182.4 177.2 173.2 168 162.6 158 153.9 150.1 146.7 144.5 143.1 142 142 142 142 141.6 140.8 140.2 140.3 138.7 137.7 134.8 133.2 132.1 131 127.3 126.6 126.9 126.3 126.5 126.2 125.7 123.5 122 120.2 120.3 120.4 133.5 142.7 151.6 157.8 155.1 156.2 155.1 150.2 156 164.1 164.7 159.7 159.8 169.8 180.8 189 199 207.5 212.5 208.5 203.8 198.4 193 187.6 182.5 178.2 173.8 168.1 166.8 171.8 173.5 174.1 175.5 178.4 183.4 189.9 197.2 208.4 223.1 243.5 263 279.5 295.6 297.7 293 288.3 283.5 278.3 273.9 277.2 282.5 287.4 285.8 284.5 284.1 282.9 279.9 276.5 272.8 269.2 265.7 261.9 258 254 249.6 245.1 239.9 234.5 223.5 209.2 207.5 216.2 216.7 218.3 217 214.9 211.3 208 201.9 193.1 185.1 190.5 196.1 192.7 188.4 182.9 177.5 172.2 165.3 160.6 149.8 137 148.1 164.3 161.8 158.5 154.8 151.1 147.3 144.4 143.5 143.4 140.9 140.1 142.4 144.1 144.3 143 138.6 135.1 132.3 129.6 130.7 132.5 131.5 128.9 126.3 124.8 123.4 121.7 119.5 118.2 117.8 117 120.1 119.5 117.7 115.7 113.3 112.2
266.8 284.4 300.3 306.7 307.9 306.6 303.2 298.3 289.4 278.4 269.3 260.5 251 242.8 239.5 237.7 233.2 225.9 218.7 207 213.3 215.5 213.9 206.6 209.5 218.6 222 217.6 209.8 202.3 197.8 193.5 189.1 183.4 178.6 174.4 168.9 163.3 158.3 154 150.1 146.7 144.4 142.3 140.6 139.5 139 139.4 139.5 139.1 139.2 138.2 136.5 135.9 135 131.8 129.6 128.6 126.5 126.8 126.9 126.2 125.9 125.7 125.6 122.8 120.8 120.2 119.5 124.1 137.5 149.1 162.4 166.3 161.4 158.2 155.5 151.4 153.3 157.8 163.5 162.3 159.6 164.8 173.1 184.3 190.9 197.4 206.5 208.2 204.9 200 194.3 188.8 183 177.9 173.6 169 169.1 172.8 174.9 175.5 178.3 180.8 185.2 190.8 197 207.2 222.6 240.8 256.3 270 286.3 294.1 290.2 285.5 280.8 276.7 270.9 269.5 275.8 281.3 282.6 282 281.9 281.2 278.5 274.8 271.1 267.9 264.6 261 257.1 253 248.6 243.6 238.6 233.6 227.9 218.8 205.8 199.2 207.5 210.8 213.6 212.9 210.9 207.8 204.1 197.5 189.2 179.8 189.6 190.4 186.7 182.5 177.6 171.3 165.5 160.4 154.8 140.6 142.6 161.5 157.5 154.4 150.7 147.2 144.1 142.1 140.1 139.5 137.9 138.6 140.9 141.9 142.6 140.2 137.3 134.5 132.2 128 125.9 127.5 127.6 125 123.7 121.4 120.7 120.2 119.1 118.2 118.2 117.1 117 116.8 114.5 113.1 111.5 111.2
271.2 289.3 305.9 309.9 309.5 306.6 303.3 297.6 286.6 273.8 260.7 251.4 243.6 232.2 230.3 226.2 219.3 216.2 212.4 206 202.5 203.1 202 198.9 203.3 209.3 214.1 213.3 206.7 199.7 195.2 191.2 187.8 182.9 178.7 174.3 169.3 164.2 159.2 154.6 150.9 147.4 146 144.5 142.2 140.7 137.9 137 136.8 137.4 136.7 135.5 134.2 133.7 131.8 128.6 127.6 126 126.1 126.5 126.5 125.5 125.2 124.8 125.5 122.1 120.6 119.9 120 122.8 133.9 143.8 155.5 166.6 165.8 161.2 157.5 152.7 152 154.4 156.9 159.3 156.5 160.1 164.9 173.2 181.8 188.8 193.5 203.2 206 201.8 196 190.2 183.5 178 173.7 169.8 172.2 174.2 175.1 176.6 180.4 183.8 187.3 192.8 199.4 208.4 223.1 237.5 249.5 260.5 277.2 289.8 286.2 283 278.6 274.6 270 264 270.9 276.8 279.1 279.3 278.9 278.5 276.2 273 269.7 266.5 263.3 259.9 255.8 251.3 246.9 242.3 237 231.6 226.3 220.3 212.3 201.1 190.6 201.4 207 210.7 209.9 207.8 204.6 200.1 193 180.9 177.4 186.9 185.1 181.2 176.3 170.6 164.2 158.1 151.6 140.4 140.3 156.9 153.6 150.5 147.5 144.4 141.9 140 137.4 136.5 137.2 138.2 140 140.1 139.3 136.8 134.2 132.7 130.3 127.7 122.7 123.9 123.6 122 120.2 119.1 118.9 118.8 119.9 120 119.9 117.4 114 113.5 112.1 111.3 110.7 111.4
270.2 289.3 306.5 311.1 310.2 307.1 304.1 298 287.4 271.5 259.1 252.4 244 232.3 226.3 222 218.7 216.1 214.7 209.9 204.8 199.8 197.6 193.9 189.6 197.8 207 206.7 201.9 195.7 192.5 189.7 186.2 182.7 178.6 173.4 168.4 163.6 159.2 154.8 151.2 148.8 147.1 144.7 142.7 140.2 138.3 136.7 134.7 134.3 134 132.9 131.5 129.7 128 127 127.1 126.2 126.2 126.1 126.3 125.4 125 124.2 124 120.8 120.1 120 120 125 130 137.5 149.3 160.4 165.2 163.1 158.5 154.5 152.5 152 152.7 152.1 152 155.4 161.1 166.2 171.9 180.1 184.4 188.7 197.6 202.8 198.4 192 184.9 181.3 177 172.7 173.2 175.8 175.9 178.3 182.2 186.1 190.1 195.5 202.5 211.5 223.4 233.9 244.3 253.7 267 282.8 282.1 279.3 275.9 271.5 267.2 260.8 268.8 275.6 276.8 276.6 275.7 275 273.2 270.2 266.5 263.8 261.2 258.1 253.8 249.5 245.3 241.1 235.7 229.6 222.9 216.4 207.8 203.1 194.5 184.1 195.6 203.2 207.9 206.7 203.9 199.4 194.6 186.6 172.7 176.1 182.6 179.3 175.9 171.1 163.8 156.9 148.5 136 147 152.5 149.4 146.8 143.3 141.7 140 137.4 135.2 134.7 135.9 138.4 138.5 137.8 136.2 134.2 131.7 129.8 127.8 126.2 122.4 120.5 120.1 118.5 117.8 117.9 118.2 119.1 120.1 121.9 119.1 116.7 112.8 111.4 110.9 110.4 110.2 111.9
269.3 289.1 303.1 309.7 310.8 309.3 305.7 300.2 292.4 281.2 270.1 260.1 248.4 237.3 235.5 235 232.8 227.6 225 219.3 212.7 209.5 203.5 198.7 192.1 184.3 195.5 197.8 194.9 191 189 186.8 185.4 181.7 177 172.1 166.8 162.4 158.7 155.1 152.1 150.1 147.7 145.1 142.5 139.9 137.5 135.4 133.6 132.5 131.5 130.5 129 127.7 126.6 126 125.6 125.9 126 126.2 126.3 126.2 125.3 124.2 123.6 121 120.2 120.2 120 125.2 128.2 133.2 144.2 153.7 158.8 161.3 159.4 156.5 153.2 150.5 149.9 149.1 152.4 155.8 159.2 163.7 169.2 175.9 178.8 184.3 189.7 194.2 198.1 195.1 190.1 187.7 181.8 176 173.7 175.7 176.9 178.3 181.6 185.8 190 196.2 203.1 211.2 219.4 229.5 238.8 247.8 258.1 273.6 276.9 274.6 271.8 268.1 263 256.4 267.6 275.9 276.7 275.6 274.3 271.3 269.5 266.7 263.4 260.1 257.8 255.5 251.7 247.6 244.1 239.7 234.3 229.3 221 217.4 215.1 212.7 204.1 192.1 181.2 190.9 199.2 204.7 201.9 198.2 193.1 187.1 177.3 168 177.5 178.1 175 170.5 164.6 156.3 140.7 133.7 143.9 147.5 145.2 143.1 140 139.1 137.2 134.4 133.2 133.7 136.3 136.4 136.9 134.6 133.8 132.4 130.6 127.6 126 124 120.9 118.2 117.3 116 115.2 115.7 117.3 118.5 120.6 120.5 117.2 114.4 112.3 110.5 110.1 110.5 109.6 111.4
268.2 288.2 302.2 309.4 311.6 310.6 307.3 301.5 295.4 287.2 277 264.8 252.8 248 249.3 248.5 244.2 238.1 233 226.8 220.9 216.4 209.3 203.7 195.1 188.7 185.6 188.4 184.8 182.9 182.8 182.5 182.2 180.5 176.9 171.8 166.3 162.1 158.6 155.1 153.1 151.2 148.3 145.6 143 140.4 138.2 137 135.6 134 131.8 129.4 128.5 127.7 127 126.3 125.4 125.6 125.8 126.1 126.1 125.6 125.2 124.4 123.7 120.5 120 120 118.4 123.7 127.4 130.6 138.1 149.3 154.6 157.2 159.1 156.5 153.2 149.1 148 150.2 153.6 156.9 159.9 163.9 168 172.5 181.5 189.8 195.2 201.2 204 200.4 196.3 194.2 189.7 183.3 177.7 176.6 177.5 178.4 180.5 185 189.6 194.9 201.4 207.5 214.7 224 233.8 241.6 250.2 265.1 271.7 268.9 266.6 262.6 258.4 248.7 263 275.2 275 274.5 272.5 270 265.7 262.2 259.2 256.3 254.7 252.6 249.2 246.1 242.7 238.7 234.8 230.2 226 223.4 219.4 214.8 208.9 198.6 186.3 176.7 185.8 194.7 199.6 195.4 190.8 186.6 180.5 166.9 167.7 174.9 173.4 169.6 164.7 157.1 141.3 133.3 134.9 140.7 140.1 137.9 137.2 136.5 134.5 132.3 131.7 132.7 134.9 134.4 134.1 132.8 131.4 130.3 129.8 127.8 125.8 122.6 120.2 117.1 115 114.2 113.9 115.2 116.7 120.4 120 117.8 115 112.4 110.6 110.1 109.7 109.3 108.7 109.9
271.6 293.4 304.7 310.6 312.9 311.6 308 302.6 297.3 290.5 281.5 272.8 264.2 259.1 260.9 254.7 248 241.1 236.2 229.6 222.9 217 213.2 207.7 200.6 193.4 186.7 179.6 175.7 173.8 172.2 173.3 176.5 178.6 175.6 171.2 166.1 162 158.8 156.2 154.8 152.1 150.4 148 145.9 143.3 140.9 139.2 137.9 134.9 130.2 128.4 127.7 127 126.4 126.1 124.9 124.6 124.5 124.4 125.1 124.6 124.4 124.1 122.6 120.6 119.9 120.2 117.9 122.8 126.4 129.3 133.9 144.6 151.2 153.9 155.8 155.6 153.1 147.3 148.6 151.7 154.7 157.4 160.6 164.7 170 175.6 185.3 195.5 204 215.3 219.8 207.6 202.7 202 198.9 190.4 184.1 179.3 178 178.9 181 184.4 189 193.2 198.2 203.2 210.8 219.7 228.4 236.5 244.3 255.7 266.2 263.2 260.8 258.8 250.4 241.1 255.7 272.5 273.2 272.3 270.5 267.7 263.9 258.8 255.1 252.1 250.6 249.2 246.7 243.6 240.9 237.5 234.8 231.8 228.1 224 219.4 214.9 209.4 201.4 192.6 181.8 172.3 183.3 192.5 193.6 189.6 185.5 180.2 172.3 160.7 169.3 171.5 168.8 163.8 158.3 149.1 134.4 131.3 132.9 133.4 134.4 134.4 133.2 131 130.1 130.2 131.6 132.8 132.9 131.7 131.1 129.8 128.7 127.8 126 123.5 121 117.7 115.8 113.8 113.1 113.5 115 117 119.1 116.8 114.9 113 110.8 109.4 109.1 109.5 108.9 107.9 108.9
273.2 292.8 303 310.1 314 313.2 308.8 303.7 299 292.8 285.9 278.4 271.6 267.7 262.1 255.7 249.2 243.2 236.9 230.1 222.8 217.4 212.3 207.5 202.2 197.2 192.8 187.9 184.7 180.3 176 172 167.5 172.4 173.3 170 165.3 162.3 159.5 157.6 155.9 154.8 152.5 150 147.7 146 142.3 139.8 136.3 131.5 128.7 127.5 126.9 126.4 125.9 125.4 124.9 124.6 124.3 124 124.3 122.5 123.8 124.1 123.1 120.9 119.3 119.6 120.3 121.4 124.9 127.7 130.9 139.8 148 150.6 151.9 152.6 151.6 144.8 153 154.9 156.3 158 161.5 165.4 170.4 176.3 185 195.7 207.2 219.6 227.2 216.2 210.8 210.6 204 195.2 188.8 184.5 182.4 180.9 181.7 184.4 187.7 191.4 195.5 200.6 207.9 215.4 222.5 230.6 237.9 245.9 259.2 256.1 252.1 252.8 240.1 233.2 252 267.5 271.2 269 267.4 265 261.2 256.8 253.2 249.4 246.2 245.1 243.7 241.3 239.1 236.1 233.9 231.7 227.7 223.7 219.4 213.9 209.1 202.8 198.5 189.9 179.1 169.8 184 187.6 186.3 183.4 178.4 171.3 160.5 161.5 169.4 166.6 162.5 158 152.5 141.8 131.7 130 129.8 131.7 131.3 130.6 128.9 128.9 129.9 131 131.9 131.7 130.6 128.7 127.4 126.9 126.3 124.5 121.8 118.9 116.9 115.5 113.1 112.7 115.1 116.9 116.4 116 114.1 112.5 111.3 110 109.5 109.7 109.1 108.7 107.5 108.1
272.8 289.2 297.9 305.7 311.3 311.6 308.4 304.4 299.6 293.5 287.4 280.3 272 266.4 261 254.4 247.4 242.5 236.8 229.6 222.1 216.4 210.8 206.5 201.6 196.3 192.7 188 182.4 180.3 176.2 174.8 173.5 165.1 167.4 166.7 163.5 161.7 159.3 158.1 156.8 155.7 154 151.7 149.4 147 144.1 140.9 135.2 130.9 129.2 127.7 127.2 126.9 125.9 125.8 125 124.5 124.2 124.2 124.2 124.5 124.3 124 123.1 121.8 119.7 117.3 120 120.2 124.9 127.1 129.3 134 143.6 147.4 148.5 144.7 141.7 149 154.6 155 156.6 158 161.1 164.3 168.9 174.9 183.1 192.5 202.1 213.8 226.7 229.4 221 216.4 208.7 199.2 194.1 190.8 188.8 185.6 183.1 184.1 186.7 189.7 193.7 198.1 203.8 210.3 216.9 224.9 232.9 240.8 253.5 256.5 242.5 237.7 228.3 229.4 245.8 260.9 268.9 265.8 263.8 262.1 258.6 254.5 250.2 247.1 244.7 240.6 239.5 237.5 235.4 233.6 231.9 230.6 227.3 223.4 219.5 214.2 208.9 204.3 199.5 193.8 186.9 177 169.6 181.1 182.5 180 175.2 169.6 161.2 154.2 161.9 163.9 160.1 155.8 150.9 145.2 133.7 131.9 128.3 129 128.7 127.8 127.3 128 128.6 130.1 131.1 130.2 128.7 126.9 126.2 125.3 123.5 121.8 120.3 119.8 117.9 116 113.1 111.7 114.7 116.2 114.7 113.9 112.6 111.3 110.5 110.1 109.7 109.7 108.3 107.3 107.5 108.2
275.3 287 295 301.4 306.3 306.3 305.2 302.7 298.6 293.5 286.9 279.6 271.1 263 257.9 252.1 245.3 240.8 234.7 227.7 220.1 214.1 209.1 204.9 199 194 189.9 187.6 182 177.6 173.5 171.2 170.5 167 162.1 160.4 160.3 158.8 157.1 155 153.6 154.2 153.6 151.9 149.2 145.6 144.6 140.9 135 131.6 129.9 128.2 127.4 126.7 126.6 126.1 125.3 124.6 124.1 124 123.8 124.5 124.2 124 123.1 120.8 119.4 119.4 119.3 120.4 124.5 127 128.9 130.9 137.8 144.2 142 139.9 145.6 154.1 154.2 154.2 155.4 157.1 159.4 162.9 167.4 173.5 180.9 189.2 197.5 207.6 221.6 234.2 230.7 226 219.4 208.9 204.2 201.6 197.4 193 188.6 185.9 186.3 189 192.5 196.6 201.5 206.2 212.4 219.4 228.7 236.3 244.7 253 247.9 228.9 220.4 222.8 239 253.2 264.5 262.5 259.1 258.1 255.3 251 246.6 243.3 241 238.3 234.2 232.4 230.7 229 227.7 227.3 224.4 222 219.1 214.8 209.5 203.9 198.6 192.6 184.4 179.3 171.1 168.6 177.3 176.8 173 167.7 160.6 150.9 157.8 160.6 157 152.9 147.9 142.7 137.2 133.7 129 127.1 127.5 126.8 126.6 127.9 128.3 129.9 130.1 128.8 127.2 124.7 124.4 123.6 120.7 119.1 119.4 119.4 118 116 111.9 110.3 111.7 113.1 112.5 112 111.6 111.1 110 109.4 108.7 107.5 106.6 108.4 108.9 109.2
277 286.4 293.1 296.9 299.5 300.3 299.7 299.1 297 292.6 286.2 278.4 266.9 259.8 252.5 245.7 240.9 237.1 231.2 224.7 217.4 212.7 208.8 204.2 197.9 192.9 188.8 187 182.2 176.7 174.2 171.5 169 168.2 166.9 162.1 160.4 156.2 152.5 151 149.7 147.2 146.3 145.1 142.4 140.1 138.4 137.4 134.1 132.3 130.7 129.2 129.2 127.7 126.2 125.9 125.2 124.3 124.2 123.6 123.3 123.9 123.4 123.3 122.6 120.4 117.3 119.4 119.2 120.1 123.7 126.3 127.7 129.5 134.4 141.4 139.9 138.9 148.1 152.8 153 152.9 153 155.5 158.3 161.9 165.7 170.8 177.2 184.8 193.2 202.8 214.6 232.1 241.5 236.4 230.6 223.8 219.5 217.2 212.6 206.4 200.6 193.9 190.3 190 192.1 196.2 199.2 204.2 208 214.3 224.3 231.8 237.5 242.8 244.9 225.6 215.7 215.2 231.6 244.3 254.9 259.2 255.6 252.7 250.5 247.2 242.9 239.1 236.6 233.4 229.8 227.1 225.9 224 222.3 221.5 220.7 218.7 216.6 213.8 209.7 204.6 197.9 189.7 181.3 174.2 170 160.2 168.9 173.7 170.5 165.2 158.3 149.3 153.2 156.5 153 149.2 144.9 139.4 135.8 131.6 128.2 125.6 126.8 126.3 125.9 126.4 128 129.6 130 128.9 127.1 124.7 123.5 121.4 118.5 117.3 117.6 116.7 117.3 115.4 112.9 110.7 109.8 110.2 110.8 110.8 110.4 110.1 110.1 109.6 108.6 107 106.9 108.7 109.3 109.6
278.4 283.6 288.8 292 292.6 294 294.1 293.1 293.4 290.1 285.2 277.4 265.2 257.2 249.6 242.8 235 229.9 225.8 220.1 214.8 210.6 206.6 203.1 196.5 190.9 187.4 185 181.1 176.7 174.6 172.3 170 167.9 166.6 163.3 159.7 156.6 155.1 154.7 152.2 149.3 146.6 144.3 141.7 139 137 135.6 133.6 132.3 130.4 130 128.5 127 126.8 125.8 125.1 123.1 123.4 123.7 123.2 123.5 123.3 122.9 121.2 119.9 117.3 118.9 119.1 119.2 121.4 126 127.2 128.1 130.5 137.5 139.7 136.3 144.8 150 151.4 151.1 152.1 154.6 157.2 160.5 163.8 167.9 174.4 180.7 189.3 198.2 210.1 226.2 242.8 241.6 236 230.7 228.3 229.7 227 221.4 216.2 211.6 206.5 200.3 195.1 196.9 199 201.7 205.6 210.4 220 227.2 230.9 234.4 238.2 223.5 212.2 211 222.7 234.1 241.9 251.4 251.9 247.8 244.5 240.8 237.1 233.5 231.5 229 224.9 220.2 220.1 218.7 217.1 215.8 214.9 213.7 211.5 209.7 207.5 203.7 197.7 190.3 182.9 173.2 164.5 157.7 157.7 169.9 167.3 162.5 157.2 148.7 145.5 150.6 149.7 145.5 141 136.2 133.2 130.6 127.7 125.5 125 125.2 124.6 126.3 128 128.6 129.4 128.3 125.7 124.7 121.7 119.5 118.5 117.8 116.7 115.9 114.6 115.8 113.9 111.8 109.2 108.3 108.7 109.8 109.5 109.2 109.5 109 108.3 106.5 106 108 108.8 109.4
280 283.2 285.4 285.7 286.1 286.3 285.3 287.1 288.3 286.4 281.8 274.2 261.5 253.2 245.8 237.6 231.4 228.5 220.6 215 210.6 206.4 203.1 200.9 194.7 188.9 185.2 183.1 181.4 178.1 175.3 171.8 169.4 167 165.4 162.5 157.9 153.7 154 153.9 153.8 152.9 152 150.7 148.1 144.6 141.4 136 133.3 132.1 130.4 129.9 128.3 126.4 126.6 125.7 123.7 123.3 123.1 122.7 122.8 123.3 122.7 122.9 120.6 119.6 119.5 119.3 118.7 119.3 119.4 126.3 126.9 127.1 129.3 134.4 137.5 134.4 141.2 145.2 148.2 148.4 150.5 153.2 155.4 157.9 161.4 164.9 169.7 176.4 183.2 192.9 204 217.8 233.7 242.6 240.2 234.6 230.5 229.6 231.2 228.8 226.5 224.5 223.5 218.1 214.7 210.6 207.4 205.4 206 209.1 217.8 223.8 226.6 227.6 229.3 224.4 210.1 205.5 210.1 221.6 229.4 235.6 243.6 243.4 239.3 234.7 229.9 225.9 224.8 223.2 219.2 212.4 213.6 213.2 212 210.6 209.6 208.6 206.8 205.3 203.7 200.9 196.5 187.4 184.7 176.7 163.9 154.2 153.1 167.6 165.8 161.6 156.2 149.5 142.6 144.3 145.3 142.1 137.1 134.3 131 128.2 126.4 125.4 124.6 123.5 123.8 126.1 127.6 127.2 127.9 126.1 124 122.3 119.7 118.5 118.8 118.9 118.5 117 112.4 112.1 111.4 110.8 108.6 107 108.2 109 108.9 108.2 108.8 108.6 108.1 106.2 105.1 107.4 108.3 108.4
280.1 282.1 282.7 279.7 277.3 276.4 273.7 279.6 282.4 281.2 276.9 269.5 257.1 250 244.7 235.8 226.6 222.7 218.5 208.7 204.1 201.6 199.6 198.6 192.3 186.9 183.4 180.4 179.6 178.3 175.1 170.9 167.7 164.8 163 160.9 157.6 154.4 152.3 152.2 152.9 152.1 151.9 150.9 149.7 148.8 146 140.3 132.6 131.7 130.6 129.7 128 126.3 125.4 124.8 124.1 123.2 123.2 122.6 123 123.2 123.6 122.7 122.7 119.1 119.4 119.2 119.6 117.8 118.3 125.3 126.4 126.5 127.7 131.4 134 132.5 137.4 141.3 144.7 146.4 148.7 150.2 152.2 155 158.4 161.8 164.1 169.6 176.2 185.7 196.7 207.4 221.8 235.1 241.7 236.8 231.8 229.9 228.3 228.4 228.6 229 226.9 222.4 219.9 218.8 218.7 219.5 218.7 215.2 216.5 222 222.9 223 222.2 222.3 214 203 201 206.4 215.8 221.7 225.7 232.3 233.1 229 224.9 217.1 212.6 213.7 212.3 206.4 206.7 206.5 205.9 204.9 203.7 203 201.9 200.4 199 196.4 193 188.3 184.3 176.7 164.2 152.7 145.8 161.1 165.5 162.3 157.1 151.1 142.3 138.4 138.9 137.1 134.1 131.3 128.7 126.5 124.9 124.4 124 121.5 123.1 126.3 126.8 126.3 126.8 124.7 123.6 120.4 118.7 118 118.7 118.9 117.7 114.8 111.2 109.4 108.8 108.6 107.6 106.4 107 107.9 108.5 108 108.4 108.3 107.6 105.9 104.4 106.5 107.8 107
278.1 279.6 278.9 274.2 265.8 264.6 264.1 273.6 275.8 276.6 272 263.8 252.2 243.9 239.9 231.8 224.1 219.1 212.5 204.5 195.3 194 193.9 193.7 190.4 183.9 180.8 178.2 176.4 175.8 173.1 169.1 165.6 161.8 158.9 158.1 156.5 154.2 151.8 150.6 151 151.4 151.2 150.1 149.1 148.2 146.4 144.7 136.2 130.6 130.3 129.4 128 126.1 125 124.6 123.7 123.3 122.7 122.5 122.7 123.1 123.1 122.6 122.4 120.8 118.8 119.2 118.7 118.1 118.1 124.1 125.6 125.6 126.6 129.3 130.8 131.4 134.4 138 141 145.4 146.9 147.5 149.5 151.6 154.6 157.7 159.1 163.3 169.7 178.7 188.9 198.5 209 222.9 235.6 237.2 232.6 229.6 226.8 224.9 225.6 227.4 226 223.6 220 217.4 217.4 219.1 220.6 221.2 221.6 221.5 220.3 218.3 215.3 212.9 209.4 204.4 198.4 196 199 207.7 214 220.3 222.6 221.3 217.3 213.7 205.5 202.6 203.6 200.3 199 199.1 198.5 197.4 197.1 197 196.5 195 193.6 191.5 188.4 184 180.2 175.6 166.6 155.7 145.6 147.5 153.6 157.5 155.9 150 143.7 137.4 134.5 132.6 130.6 128.4 126.7 124.9 123.6 123.2 123.1 119.8 123.5 126.1 125.8 124.8 124.4 122.8 121.7 119.9 118.7 117.5 118.1 117.6 115.2 111.8 110 108.1 107.2 106.4 106 105.8 105.9 106.7 107.5 106.6 107.5 107.2 106.8 105.7 103.9 105.3 106.4 104.2
274.9 275 274.8 269.9 260.5 254.8 258.4 267.2 269.4 270.4 267.4 257.6 246.3 240.1 233.2 226.5 219.9 217.3 211.1 198.5 191 187.3 185.1 185.7 184 179.9 175.9 174.4 172.5 171.4 168.3 165.7 162.1 158.2 156.6 154.5 153.7 152.9 151.6 149.2 148.9 149 149.3 148.5 147.8 146.6 145.1 144 136.7 130.6 129.2 128.5 127.2 125.4 124.4 123.5 123 122.3 122.1 122.3 122 122.4 122 122.2 122.4 122 120.7 118.6 118.2 118.1 117.3 123.5 125.3 125.1 125.8 127.6 129.8 132.5 134.3 138.1 142.6 145.4 145.1 144.5 146 148.8 151.2 153.6 155.2 158.7 164.3 172.4 181.6 189.5 198.1 209.8 223.2 233.3 232.6 228.1 225.3 222.8 221.8 223.5 222.9 220.6 217.8 215.5 215.6 216.6 217.9 219.9 221.1 220.7 219.1 216.8 213 209.3 205 200.8 200.1 196.4 191 192.4 201.4 211.7 213.9 213.6 209.8 206.6 202.3 196.6 193.7 191.8 192.4 192 191.4 191 191.7 192 191.2 189.8 188.9 187.2 184.3 179.1 175.2 170.5 165.8 159.1 150 142.8 141.5 145.9 149.3 146.8 141.5 136.1 132.3 129.7 128.3 126.4 124.7 123.5 122.1 121.7 121.3 121.1 125.9 126.5 125.5 124.2 122.4 121.5 120 119.4 117.9 116.6 117.2 115.7 113.5 109.9 107.9 107.5 106.9 105.5 104.9 104.8 104.7 104.7 105.3 105.8 106.8 107.1 107.4 105.1 103.6 103.9 104.3 102.8
270.5 270.1 270.8 268.1 259.7 247.9 250.8 258.7 262.9 264.1 261.1 251.3 241.2 236.8 229.5 219.1 215.4 213.8 202.1 189.4 186.7 183.4 181.6 180.5 178.1 175.3 171.5 170.2 170.2 170.2 164.3 162 160.1 158.5 156.5 153.9 151.8 150.3 149.5 148.3 146.3 146.5 147 148 146.4 144.9 143.5 142.2 137.4 129.7 129 126.7 126 124.5 124.3 123.7 123.2 122.5 123 122.2 122.5 122.3 122.5 122.4 122.4 122.2 121.4 120.6 118.2 118.3 118.7 117.3 124.4 124.5 125.5 126.3 128.2 131 134.7 138 141.8 144.1 143.2 142.3 143.9 145.5 147.2 149.5 150.9 154.5 158.6 166.4 173 180 187.8 195.4 208.8 222.6 229.4 226.8 223.6 220.6 218.4 217 217.1 216.4 214.7 212.8 212 213.3 214.9 215.8 216.9 217.3 216.9 214.9 212.6 207.8 204.4 198.9 199.2 197.8 193.8 187.3 191.4 206.6 207.7 206.9 204 199.4 196.5 193.1 188.8 185.6 186.5 185.8 185.4 185.3 185.8 186.1 185.7 184.9 183.7 181.7 178.3 173.8 169.6 165.7 162.2 157.3 153.1 145.1 141 138.6 140.2 138.9 135.2 130.3 128.9 127.3 126.6 125.4 123 121.9 120.7 121 120 120 125.4 126.3 124.8 124.1 121.7 120 118.6 118 116.4 115.3 115.6 114.5 112.3 109 107 106.4 106 104.5 103.9 104 104 103.8 103.8 104.8 106.1 106.8 107.4 105.5 103.9 102.7 101.8 101
263.7 267.5 268 265.1 258 247.4 241.3 247.5 253.6 257.9 254.4 245.6 235.6 231.8 226.6 220 211.7 203.1 195.4 187.8 187.8 190.2 189.3 184.1 179.8 176.5 173 172.4 170.2 170.2 166.4 163.3 160.3 158.5 156.7 154.3 151.9 150.7 148.9 146.7 144.8 143.7 144 145.3 144.9 143.7 141.4 139.3 137.3 129.7 127.3 126.2 126.1 123.9 123.2 122.8 122.7 122.9 122.4 122.3 121.8 122.2 122.8 122.9 122.4 122.5 121.6 120.8 117.9 117.9 118.8 117.8 125.5 124.2 123.4 125.3 127.9 131.5 134.9 138.9 141.7 142.8 141.8 140.1 140.5 142.5 144.7 145.8 147.7 150.1 155.3 160.6 166.5 172 178.1 183.7 193.6 210.3 221.4 223.8 219.9 217.5 214.8 211.5 211 209.9 208.9 206.6 207.1 208.1 210.1 211.3 212.1 212.7 213 212.5 210.9 208.2 203.9 199.9 197.3 192.9 193.2 187.6 185.3 203.1 202.2 201.2 198.6 194.4 191.1 187.5 184.7 182.1 182.2 181.1 179.8 179.4 179.9 180 180 179.3 177.9 175.2 172.4 168.5 164.7 161.1 158.1 152.4 149.2 144 139.4 136.4 135.4 133.8 131.5 128.3 126 125.6 124.9 123.8 122.5 120.9 118.7 120.2 119.3 120.3 124.7 126 124.9 123.6 122.6 120.8 118.3 116.3 114.9 113.9 113.8 112.7 111.1 108.2 107.3 105.9 105 104.3 103.8 103.6 103.6 103.2 102.9 103.8 103.8 105.2 106.4 106.2 104.5 102.2 101.6 101
257.6 267.1 266.1 262.1 255.3 246.8 235.1 236.3 242.7 248.6 246.6 238.8 230.3 226.7 220.3 215.6 209.7 200.9 194.1 190 191.7 194.4 193.9 190.4 186 181.6 176.2 176.6 174.1 170 166 162.4 158.9 157.4 156.3 154.6 152.5 151.7 150.3 149.1 145.6 143.8 141.4 141.7 142.3 142.2 140.4 137.9 135 128.9 126.4 125.2 124.1 123.7 123.1 122.5 122.4 122.4 123.3 121.7 121.6 122.4 122.6 122.3 122.3 122.5 121.8 120.9 119.7 118.1 118.4 112.1 120.2 122.4 122.7 125.1 128.6 132 135.1 138.5 141 142.2 140.3 138.1 138.2 139.3 141.2 142.8 144.5 146.6 150.8 155.5 159.9 164.8 169.6 175.3 182.2 197 209.1 217.5 217.3 212.6 210.6 207.4 204.2 202.8 202.2 200.5 201.1 201.8 204.2 206 207.3 207.6 207.5 207.2 206.5 205.1 202.7 200.4 196.9 189.3 190.5 185.1 181 196.4 198.8 195.3 192.5 189.5 185.4 182.6 180.1 178 176.5 176.3 174.8 174 174.2 174.8 175.3 174.5 172.9 171.2 168.4 164.4 160.4 156.7 153.9 147.2 143.8 140.7 137.3 133.9 132.5 131.3 128.9 127.2 125 123.9 123.2 122.3 121.3 117.9 119.3 117.8 118 119.4 123.7 125.8 125.5 123 123.4 120.7 117.6 115.4 113.8 112.4 111.5 110.9 109.7 108.1 107.2 105.7 104.9 104.2 103.9 104 104.1 104 103.3 102.5 102.3 102.8 103.6 104.3 103.2 101.5 101 100.6
