ncols 200
nrows 82
xllcorner 300000
yllcorner 342050
cellsize 50
393.8 385.3 379.6 367.6 356.6 346.6 347.5 344.1 341.4 339.2 335.5 327.4 325.8 328.7 330.1 327.3 325.1 324 320.4 320.1 323.6 325 322.6 320.9 326.2 334.9 338.6 337.4 334 328.7 320.6 316.5 312.2 307.9 302.2 296.7 290.2 282.9 276.1 269.8 262.3 255.9 249.7 247.6 249.4 244.5 237.6 236 233.6 228.6 222 222.3 203.4 192.4 191.6 188.8 188.8 189 188.5 187.5 201.2 210.8 226.7 244.6 253 262.4 271.2 275.8 281.9 286.3 290.7 296.7 301.7 300.9 300 299.4 299.2 300 301.9 305.5 309.9 320.4 323.4 325.5 327.3 327.6 324.4 320.7 315.2 311.2 304.2 299.9 293.7 287.1 283.9 281.3 277.3 274.3 272.7 267.8 272.2 287.3 291.8 290 283.8 279.5 278.5 281.6 290 295.5 298.7 298.1 296.5 294.5 289.2 281.5 273.2 271.8 268.4 264.9 260 254.5 246.9 241.6 240.4 238.7 238.1 237.6 236 233.7 231.4 229.1 225.5 223.1 213.8 206.9 201.5 199.1 194.6 189.9 192.4 190 189.1 189.6 190.7 190.3 187.5 185 185 179 177.7 181.9 191.7 202.2 203.2 210.5 219.8 227.6 235.1 235.5 232.4 228.8 225.8 224.4 223.9 223.5 225.4 225.7 226.9 226 225 222.3 220.9 219.2 215.1 216.7 218.1 224.7 227.9 227.2 213.6 219.3 212.3 204 201.2 202.6 205.5 209.6 215.1 221.9 226.7 230.4 233.8 236 238.1 239.9 241.1 241.9 239.6 239.8
398.1 387.9 371.7 360 351.5 344.3 342.8 340 337.8 335.8 333.7 325.4 324.5 326.8 325.4 321.6 321.5 320.5 318.8 321.8 324.9 325.5 323.7 325.7 332.7 338.9 339.5 338.9 334.1 326.1 319.7 315 311.3 303.8 297.7 292 283.5 275.8 268.9 261.4 254.1 247.3 240.5 238.1 237.4 235.2 227.7 224.3 223.7 220.5 216.5 213.1 193.6 187.7 187.6 187.4 187.4 187.4 188 198.8 208.6 226.6 245.2 258.6 268.7 273.3 276.8 283.1 286.3 289.9 294.9 301.2 301.6 299.8 297.9 297 297 298.9 300.4 305.1 309.2 320.4 321.2 322.4 324.3 322 318 311.4 307.5 304.5 299.4 295.1 288.7 282.7 278.9 275.5 272.7 269.6 267.2 265 268.3 282.6 289.3 287.5 282.1 278.8 277.4 282.1 286.1 289.3 295.7 296.6 295 290.8 282.8 272.4 265 267.4 263.2 256 249.9 245.6 240.2 230 227.2 228.5 229 228.5 228.8 226.9 224.8 222.4 219.6 212.5 206.4 201.5 197.5 196.2 198 199.6 196.7 194.9 193.6 193.7 193.6 192.5 189 186.1 186.6 178.7 177.9 181.7 190 197.6 206.9 216.4 223.9 230.7 233.4 230.4 226.6 222.6 222.2 221.7 222.2 223.7 224.8 223.4 222.5 221.6 222.3 223.4 222.7 219.7 214.7 208.7 210.5 215.7 217.7 218.1 212.6 208.3 205.4 201.9 201.3 202.7 204.3 212.9 221.8 229.2 231.7 234.6 237 239.3 241.2 242.6 242.8 240.8 236.7 236.3
396.6 381.5 364.3 356.4 349.1 343.7 337.1 338.1 336 334 331.9 325.5 323.4 323.2 320.7 318.8 319 318.6 318.9 321.6 323.1 323 324.8 330.2 335.9 338.2 337.6 336 329.8 320.2 313.9 311.2 305.6 298 291.6 285.1 279 270.5 264.5 256.1 248.4 242 236.5 231.6 226.8 223.3 217.1 214.3 212.2 209.8 205.8 194.8 186.5 186.1 186.1 186.1 185.9 189.4 198.7 206.6 224.9 244.4 260.2 273.5 279.8 281.4 283.1 286.5 288.3 291.9 295.7 297.7 297.9 296.5 294 291 293.1 296.5 299.7 305 308.7 313.8 317.3 319.6 319.8 317.5 311 308.1 305.9 302 299.8 293.8 286.7 282.9 279.2 276.9 270.7 267.2 265.1 263.6 271.6 279.2 283.1 285.7 284.1 281.6 277 281 282.9 286.1 293.9 293.1 289.8 282.9 274.3 261.9 259.4 258.5 253.5 249.6 246.3 243.1 233.3 227.1 222.8 223.4 222.7 222.4 221.5 219.9 218.8 216 214.4 209.5 201.8 200.5 198.4 203 207.1 206.7 201.9 200 197.9 197.5 195 192.1 188.8 185 181.1 176.9 180.4 187.5 195.3 204.8 213.9 219.5 228.6 233.9 232 227.3 223 221.3 221 221.1 223.3 224.1 223 220.8 218.3 218.3 220.9 221.8 219.1 216.5 210.8 205.6 204.8 207.1 208.5 208.9 206 205.1 203.4 200.8 201.3 202.2 213.8 223.6 228.4 232.3 236.3 236.6 237.7 242 240.9 241.3 240.2 236.7 232.9 231.4
391.4 375.5 361.8 354.1 348 342.6 336.2 334.1 332 331.4 329.9 325.4 318.9 318.6 316.9 315.4 315.8 317.7 316.7 316.2 318.1 321 323.5 329.9 336.6 337.3 335.6 330.8 321.8 312.6 307.6 304.7 298 292.7 287.4 279.6 271.1 263.9 259.1 253.5 245.5 239.7 232.2 225.6 222.1 216.2 212.8 204.8 207 207 193 185.7 184 185 185.3 186.2 187 197.1 204.7 221.8 241.7 261 275.5 283 286.5 288.6 287.3 285.7 288.6 290.1 290.5 293.9 294.4 287 287.4 290.1 293.1 296.4 299.5 306.2 308.3 310.5 313.6 315.2 315.9 311.5 309.2 306.9 308.2 307.8 305.1 299.5 291.7 286.9 282.6 278.3 271.1 265.5 264.2 262.8 273.9 282.2 283.6 286.8 287.6 282.8 274 273.4 278.3 284.2 289.6 284.8 278.2 272.3 260.5 255.6 255.5 253.8 250.7 247.1 242.9 237 234.5 229.9 225 217.6 217.5 217.7 217.4 216 214.2 210 208.1 202.9 199.2 199.2 205.1 212.6 213.6 214.3 211.8 206.3 201.6 196.1 192.7 189.3 184.9 178.5 177.2 182.5 189.6 194.3 200.6 210.1 218.9 224.5 233.1 235.2 231.5 226.4 222 221 221.6 222.4 223.6 223.3 221.3 218 215.1 214.6 216.2 216.1 213.4 209.8 204.4 198.2 198.4 199.3 202.2 202.8 202.4 202.3 201.4 199.5 200.5 204.3 219.1 225.7 233.3 238.1 238.4 237.9 238.2 237.7 239.3 238.1 235.9 232.7 233.2 232.1
388.4 375.4 363.4 353.7 347.4 342.2 336.5 332.1 329.9 324.7 324.8 322.6 314.3 313.2 312 310.3 313.3 313.1 309.7 310.1 313 317.4 321.6 331.1 335.5 334 329.5 324.4 314.6 305.5 302.9 300.2 292.6 286.4 282.4 275.3 264.4 257.5 253.7 251.3 245.3 241.1 237.4 234.2 227.9 218.4 211.9 204.3 197.9 196.3 184.5 185.2 185.7 186.2 186.8 186.7 187 203.1 219.1 239.2 256.3 271.7 282.6 288.5 291 291.4 288 286.1 286.4 287.4 287.9 286.1 285 288.6 290.4 292.8 294.1 296.9 300.4 303.6 306.9 307.6 310 309.6 308.9 309 309.1 311.5 312.9 312.7 308 304.9 301.2 295.7 287.9 280.4 272.5 266.7 263.3 262.5 267.7 279.4 284.7 286.5 285.5 284.6 274.9 263.3 275.1 280.1 278.1 270.2 262 252.8 253.8 256.1 255.4 249.8 248.7 246.6 244.9 243.3 239.2 234.6 227.1 221 213.6 210.6 213.4 214.6 209.7 205.7 204.2 200.8 199 202.2 209.7 213.5 219.6 220.6 214.4 209.4 199.6 191 187.5 182.1 176.8 175.2 179.5 189 193.8 198.4 207.6 215.3 221.6 229.8 237.9 238.6 233.2 226.5 222.7 221.6 221.4 222.3 222.3 221.7 220.5 217.4 213.9 211.3 211.9 210.2 207.9 203.2 195.3 196.9 198.4 198.1 198 200.3 199.7 199.5 199.2 199.4 200.1 203.9 217.9 226.9 236.6 238.5 238.4 236.4 235 234.8 235.7 235.2 233.3 234 236.2 238.8
388.8 374.3 363.8 353.9 348.1 343.3 339 335.3 332.8 326 319 311.9 304.5 305.4 304.7 303.8 302.9 304.9 303.7 304.4 306.6 314.9 320.4 329 331 328.2 322.9 317.9 309.1 300.6 298.9 296.3 288.8 280.2 277.6 265.6 256.3 253.8 251.3 251.1 250.3 247.4 243.1 237.9 228 218.1 209 202.7 197.8 192.7 183 184.9 185.9 186.4 186.5 187.2 202.4 216 235.4 251.9 266.4 278.7 288.1 290.6 294 291.2 288.6 288.3 287.7 285.7 281.4 281.1 289.8 292.4 295.5 294.3 295.9 297.4 301.3 303.8 303 304.7 305.7 305.2 306.8 309.6 312.5 314.8 315.6 314.3 311.8 310.1 306.5 300.8 293.4 282.8 277.5 269 262.5 261.4 264.6 277.7 284.3 282.8 285.8 283.2 276.7 263.7 260.7 261 256.6 253.3 248.7 250.7 255.7 253.8 250.2 249.6 251 255.5 252.2 247.1 244.4 236.3 227.9 221.5 218.8 213.1 203.7 204.9 205.4 202.1 200.6 200.1 202.5 205 205 211.3 216.3 209.9 204.7 200.3 193.5 186 176.9 174.9 171.9 177 184.9 191.8 196.2 201.7 210.8 216.6 225.7 235.7 242.7 240.1 234.5 230.1 227.2 224.1 223 221 220.3 220 219.2 216 212.4 207.8 206.2 204.7 200.6 195 199.5 204.6 206.1 203 200.2 197.5 198.5 197.7 198.1 198.5 199.3 202.9 215.6 223.6 231 233.4 232.7 232 231.9 234.9 235.1 233.9 234.1 237.6 240.9 240.4
387.6 372.8 362.3 355.8 351.4 347 342.9 339.7 334.1 325.3 319.9 317.5 312 300.5 294.1 296.9 295.8 298 296.6 297.3 302.7 310.4 314.7 321.4 323.7 321.2 316.8 310.4 303.8 297 295.2 290.5 282.7 275.4 267.9 260.1 254.9 255.8 257.9 256.8 253.6 249.2 242.8 234.4 226.2 217.2 206.7 201.2 197.3 191.9 183.1 184.6 185.9 186 186.1 198.6 212.9 229.9 245.8 264.5 277.1 287.1 292.1 295.7 294.8 292.6 292.7 293 288 278.9 278.3 281.3 293.4 296 294.9 294.8 294.6 296 299.9 300.8 301 301.3 302.6 305.1 308.5 311.4 311.4 310.5 310.4 312.3 315.3 315.1 310.3 300.8 292.2 281.6 276.2 270.7 261.3 261 263.5 272.9 276 274.9 280.4 278.2 274.6 269.5 259.5 253.7 251.9 250.6 247.6 247.5 249.3 251.6 250.5 250.8 251.7 256.9 257 250.2 242.8 238.7 232.2 227.3 224.7 220.9 212.5 202.9 195 196.8 197 199.3 201.4 202.7 201.2 202.6 202.7 200.1 194.8 191.9 185.9 178.8 169.9 172.1 173.9 178.3 191.4 192.3 197.7 204.7 211.1 221.5 232.3 242.3 243.3 240.3 237.5 235.2 232.1 225.8 223.5 221.4 218.3 218.3 216.2 213.3 209.5 205.7 202.8 193.8 199.3 202.4 208.4 214.6 212.5 205.3 202 198.3 198 198.3 197.8 198.1 198.9 202.1 212.6 222 226.2 228.4 228.7 228.8 233 235.5 234.8 234.8 236.4 240.1 240.8 240.3
386.4 369.1 360.3 358.8 353.8 351 347.4 341.2 332.9 326.4 322.9 319.3 310.6 298.7 280.9 288.9 289 290.7 291.3 290 295.9 300.9 306.5 314.4 319.9 314.9 309.5 305.9 300.5 292.9 290.8 286.3 276.8 267.2 261.3 259.8 261.4 262.7 261.5 256.7 251.6 246.1 240.9 234.2 226.2 218.8 211.4 204.8 199 191.9 182.8 184.3 185 185 192 211.3 227 241 254.3 269.4 285.3 295.7 297.7 297.5 296.8 296.2 297.2 292.1 281.9 276.6 274.9 281 288 292.7 294.3 293 293.2 294.3 296 296.8 297.6 300.1 303.4 306.2 309.3 308.4 306.7 306.2 306.3 308.6 314.6 314.2 305 296.3 286.4 277.6 272.8 268.2 261 260.8 262.4 268.4 268.8 268.5 270.4 273.9 271.6 270 263.6 256 252.4 252 246 247.2 254.4 254.4 251.2 253.6 256.1 253.6 254.7 254.4 242.9 239.3 239.1 238.5 228.9 225.8 221.1 205.2 197.3 191.9 189 187.2 188.1 190.3 191.5 191.8 191.9 191.3 188 184.1 179.6 171.7 171.8 176.8 177.1 180.4 187.8 192.5 197.8 205.1 213.3 224 236.3 241 241 240.2 241.1 240.2 234.5 229.3 225 222.5 220.1 217.7 214.6 209.9 205 200.6 191.7 200.1 202.3 205.9 213.6 220.7 214.7 207.3 202.4 197.3 197.8 198 198.2 198 199.9 206.1 210.4 219 224.7 224.4 224.5 227.4 232.4 234.6 236 234.5 236.1 238.9 241.8 247.6
382.1 365.2 360.3 360.9 359 354.1 348.2 338.1 330.3 328.1 324.4 315.1 306.2 294.5 282.7 278.7 280.3 281.3 282.6 281.4 283.9 290.3 298 303.1 308.8 305.2 303.4 300.9 294.2 291.1 286.4 279.6 269.1 264.4 265.4 266.5 266.6 262.5 257 252.7 248.3 243.8 237.9 233.2 228.3 218.8 213.4 207.8 201.7 195.7 181.7 183.6 183.9 189.7 209.1 227.6 241.7 249.3 260.9 273.7 292.5 298.8 299 300 300.7 300.8 296.5 286.9 281.7 276.7 275.4 284.5 287.5 293.1 292 290.9 290.5 291.2 293.7 294.7 296.3 297.3 301.2 304.3 304.5 301.9 300.7 301 302.3 306.2 309.1 301.6 294.3 288.6 281.2 273.3 269.2 264.6 260.9 260.7 265.4 269 267.8 267.8 263.2 264.9 265.5 262.3 257 255.8 255.3 247.5 243.9 249.3 253.5 254.5 252.1 255.5 258.3 254.2 251.4 247.3 243 239.8 238.5 237.4 230.1 228.6 226.8 211.2 200.9 197.7 196.1 192.7 189.6 183.4 179.8 179.9 180.5 181.9 177.3 173.5 172.1 168.9 178.1 177.8 177.3 181.7 187.2 193.2 197.9 204.5 216.1 227.5 235.3 237.4 237.8 239.6 242.4 241.5 237.3 233.4 228.5 224.8 221.6 218.3 213.2 207.2 200.9 193.6 197.8 205.1 207 213 223.3 222.8 215 207.7 201.8 197.9 197.5 197.7 197.8 198 201.2 206.2 209.5 213 217.2 220.9 224.8 228.5 233.6 237.2 236.7 233.3 232.4 234.4 240.7 243.4
375.2 365.3 365.1 363.3 360.6 353.5 341.8 338.4 336.8 331.5 322 310.8 303 296.5 285.8 268 273 274.2 273.8 273 270.7 277 286.7 292.8 296.7 299.2 298.6 297.1 294.3 291.5 284 276.6 270.5 271.6 272.8 271.7 266.1 259.9 254.4 250.4 245.5 242.7 236 230.8 221.5 215.4 211.6 208.4 204.5 198.8 183.7 182.9 186.1 204.1 223.1 237.8 247.2 255 263.3 276.8 290.1 301.2 305.6 306.2 306 299.8 288.6 285.9 280.3 272.9 276.2 283.8 287.8 290.2 289.5 288.2 287.6 288.8 292.2 295 294.6 294.8 297.9 299.3 298.9 296.6 293.7 294.6 296.4 304 298.6 288.7 285.9 280.9 275.7 268.7 265.7 261.7 259.7 260.3 264 266.8 266.6 259.9 256.8 255.5 254.8 251.5 253.7 257.9 249.5 241.8 247.6 251.3 253.3 252.1 252.2 255.4 257.3 258.3 253.2 249.9 247.2 241.9 237.7 236 231.4 228.6 222.5 213.3 206.9 205.3 204.8 200.9 194.7 187.1 180.5 174.7 172.9 173.6 171.3 168.9 167.5 170.5 179.7 178.8 177.9 182.3 186.3 192.7 198 203.8 213.6 222.4 229 232.5 233.4 234.8 239 241.3 240.5 237.1 233.5 227.9 220.9 214.8 208.5 201 196.5 191.3 203.3 207.8 212 221.2 230.2 224.6 217.3 210.5 203.9 198.7 197 197.2 197.5 197.8 201.9 207.4 209.4 211.8 216.5 220.8 225.5 234.4 239.3 236.2 229.8 228.6 229.4 230.9 232.3 233
369.2 367.6 364.8 363.1 357.4 349.5 346.1 344.1 340.4 329.6 316.9 309.5 303.1 295.2 288 273.8 261.9 266.3 268 266.4 260.6 266.5 274.6 287.2 295.2 299.7 302.1 299 295.5 289.6 277.4 277.9 279.9 280.2 276 271.1 265 259.1 253.3 248.7 244.5 238.6 232.5 225.4 219 212.8 208.1 204.6 202.5 195.8 183.1 181.5 196.6 215.4 232.7 242.2 251.3 260.8 269.4 279.6 290.5 306.1 311.7 311.1 305 294.6 281.2 278.5 274 271.4 279.1 285.8 286.2 286 286.1 285.9 288.8 290.2 291.9 290.6 289.8 290.9 293.2 294.5 291.9 290.3 287.7 286.5 286.1 288.3 285.8 283.5 278.4 274.7 268.6 262.3 261 259 262.5 263 260.2 261.5 260.5 256.8 255.5 254 251.9 250.7 246.2 246.4 240.9 234.5 249.7 252.6 252.3 250.5 253.5 259.5 256.6 255.4 255.1 254.8 248.5 245.1 241.7 237.6 234.4 231.7 223.9 215.5 214 218.7 215.5 207.5 198.9 189.2 180.2 173.7 172.1 171.1 168.5 167.3 167.1 172.9 179.7 179.3 178.8 181.1 185.4 191.1 197 202 209.3 216.5 223.4 228.6 230.1 229.8 233.7 239.4 243 241.9 236.3 226.7 217.1 210.1 205.2 197.2 194.8 193.6 205 210.6 217.4 227.5 234.7 227.7 220.1 213.7 208.1 200.1 197 197 197.3 197.6 199.1 204.3 206.2 210.4 215.3 220.4 225.1 233 232.1 227.3 224.1 224.1 225.2 226 226.8 226.8
367.6 364.8 360.8 357.2 353.2 348.6 348.5 346.7 337.1 323 313.2 306.9 298.5 288.9 277.9 267.4 268.7 253.8 261.8 261 253 256.3 261.2 271.5 287.4 296.7 300.4 296.8 290.8 280.1 281.4 287.6 286.2 283.6 276.6 267.3 261.7 257.2 250.3 245.3 243.4 236.7 226.6 219.9 213.9 209.2 205.2 201.7 196.9 185.5 182.9 184.7 204.4 225.9 240.9 251.8 260.1 268.2 276.1 285.3 293.8 307.3 312.8 308.7 299 288.6 275.7 269.7 268.5 273.6 278.3 281.3 284.3 284.4 283.9 287.4 290.2 288.6 286.3 285.9 286.8 286.8 288.2 286.8 284.5 285 281.1 276.1 274.7 275.6 274.1 271.7 270.8 269 265.5 255 260.4 263.6 266.8 264.4 261 257.9 256.7 257.1 260.4 259.5 258.3 256.1 250.4 239.8 233.1 235.2 239.1 251.3 251.6 248.6 249.8 253.4 259.3 259.3 254.8 249.5 246.5 244.5 242.6 237.3 234.6 230.4 223.8 219.7 222 225.9 221 209.8 200.9 187.8 180.5 172.4 170.6 168.9 167.9 166.7 166.7 173.9 178.3 179 178.5 179.9 182.6 189.5 195.8 201.5 206.7 215.7 222.8 223.5 223.6 223.9 229.7 236.4 233 231.9 225.7 219.9 214.9 206.5 201.7 195.7 192.6 196.3 206.7 215 224.5 238.7 237.9 231.5 223.4 215.4 209.3 202.6 197.5 197.3 197.4 197.4 197.6 199.7 204.3 206.8 211 216 217.3 221.5 221.4 219.4 222.3 223.2 222.8 220 220.5 220.4
362.7 358.1 351 346.6 346.2 343.2 342.5 337.7 329.4 317.1 308.4 303.2 293.5 288.9 285.5 279.7 274.7 259.5 250.7 246.1 246.6 247.5 249.9 259.4 275 286.1 290.7 285.7 282.7 286.1 292.5 291.8 288 282.3 272.3 265.5 260 256.1 253.7 250.4 244.1 236.1 226.2 216.6 210.1 205.7 198.2 192.9 188.9 181.5 181.4 194.1 216.2 236.9 251.9 261 268.2 275.7 280.1 286.4 294.4 303 305.2 300 291.8 281 268.4 265.9 267.1 271.4 275 281.7 281.7 282 283.5 288.8 288.2 284.5 282.8 282.9 284.8 282.5 282.8 281.9 279.2 277.3 270.9 267.2 267.8 265.3 263.1 261.3 261.3 261.7 252.3 261.2 266.9 269 268.5 267.1 263.9 261.3 261.2 261.5 263.2 265.4 260.3 252 245.8 238.3 229.3 228.3 235.1 245.1 251.4 248.6 246 250.1 259.4 257.6 253.5 249.5 246.3 244.4 243.5 236.9 232.3 229.9 225.9 220.1 221.7 220.3 215.2 206.7 197.1 185.5 176.8 171.6 169.5 168.5 167.4 166.1 163.9 172.3 175.7 177.2 176.3 176.9 179.7 185.5 193.9 200.4 206.3 213.5 215.5 215.9 215.7 217.7 221.4 226 223.1 220.4 217 214.5 209.3 201.5 196.8 189.3 185.9 197.7 206.1 217.6 228.2 235.3 232.4 225.7 220.7 215.5 209.5 204.9 200 198.4 198.2 197.9 197.9 198.8 200.8 203.8 205.2 208 211.1 213.6 215.9 221 225.2 227.9 227.2 223.1 216.6 215.6
355.5 350.7 343.1 340.5 337.4 336.7 337.7 331.2 322.3 310.3 298.4 293.9 293.5 294.2 291.8 284 268.7 264.8 258.1 246.2 240.6 241.1 241.8 246.2 258.7 270.2 275.4 279 286.6 290.7 294.1 290.1 281.7 275.3 269.5 264.6 262.8 260.9 258.4 253.1 244.5 236 221.9 213.9 207.1 201.2 192.8 186.1 181.3 179.8 186.6 203 226.1 246.3 261.1 268.1 273.1 276.7 278.6 284.4 288.5 294.5 296.2 289.1 280 267.5 264 265.2 267.4 272.8 275 278.3 280.4 281.6 282.5 284.2 282.9 281 280.7 281.8 284 284.8 283.3 277.4 274.3 270.2 263.7 259.7 259.5 258.6 257.1 250.8 244.8 244.9 257.7 268.7 272 271.3 270.6 269.2 267.3 267.7 265.7 263 268.2 267.1 257.5 248.4 242.9 234.7 227.5 222.2 229.1 237.7 245.2 245.8 245 247.2 249.9 250.9 251.9 249.2 246.5 245.6 239.7 234.1 231.7 227.9 221.4 216 214.1 212.1 208.1 200.7 190.8 184.6 176.6 172.1 170.4 169.1 168.4 168.1 163.7 167.3 171.4 172.6 173.2 177.3 179.6 184.2 189.6 195.6 201.3 206.5 206.3 206.8 208.3 209.5 213.2 214.9 213.6 211.9 211.7 209.4 205 197.6 193.9 185.6 183.1 195.8 203.3 212.8 225.5 224.3 221 215.7 212.9 210 207.4 204.5 204.4 203.4 203 201.4 200.6 199.5 199.4 201 205.7 209.1 211 214.4 219 223.8 228.4 229.6 227.6 223.2 215.8 217.7
346 342.9 339.2 334.6 334.5 332.1 328.5 323.6 314.4 302.7 297.3 298.5 300.2 295.7 288.1 275.4 275.7 267.7 254 243.3 235.3 236.6 236.2 236.7 244.9 257.3 270.2 278.9 282.3 284.2 287.1 279.5 276.5 274.1 270.6 267.8 267.4 266 262.9 257.3 248.8 234.6 220.8 214.1 204.3 198.2 187.9 182 180 181.7 192.6 207.6 230.7 253.8 262.6 271 278.5 283 285 281.3 280 282.3 282.7 274.6 266.1 264.4 266.6 268.1 269.3 274.3 279.1 281 280.3 281.5 282.3 281 279.7 279.4 279.5 283.1 287.8 288.9 284.4 277.4 271.5 264.9 258.7 252.5 249.3 249.8 247.9 243.6 236 248.1 257.1 262.7 264.5 264 266.2 269.2 272.2 268.8 264.6 261 260.3 257.4 253.6 247.9 242.5 237.1 228.5 219.1 223 228.7 237.1 238.8 241.2 245.8 246 244.6 247.6 246.7 243 240.9 234.3 229.6 226.5 222.5 218.1 213.9 211.2 207.4 195.8 195.1 190 183.4 177.4 175.3 174.7 172.6 168.6 169.1 166.9 162.8 167.6 170.7 170.3 176.4 178.9 182.5 186.6 190.8 194.9 197.3 198.6 199.2 201 203.1 206.6 208.5 208 206.9 205.5 203.5 199.8 194.6 190.6 183.9 182.7 191.6 196.3 200.8 207.7 208.8 207.6 207.6 206.9 206.4 204.7 207.9 208.7 207.2 205.3 202.9 203.5 203.3 203.5 206.3 209.1 211.4 213.4 217.7 223.2 227.8 231 230.9 228.6 223.3 217.8 216.5
343.4 341.3 332.3 328.2 327.6 321.1 319.2 312 305.3 295.1 295.2 299.4 296.3 287.6 276.1 274 276.4 265 254.4 244.1 235.4 232 231.9 231.8 234.3 243.4 257.4 270.1 272.1 270.2 270.7 273.4 275.5 275.1 273 272.7 272.9 270.7 267.7 260 251.1 235.9 223.9 213.4 203.6 195.5 185.6 181 179.7 183.3 200.2 208.4 231.9 254.8 262.9 277.2 285.7 287.4 282 276.1 263.6 261.9 259.8 258.7 263.4 266.8 270.1 270.7 271.6 277.5 279.6 279.8 279.8 282.2 279.4 278 278.6 278.9 281.9 286.8 288.7 288.4 286.2 279.8 271.5 263.1 255.1 247.5 245.6 246.6 238.1 233.8 237.1 244.4 246.2 249.4 252.7 254.6 259.6 267.4 267.7 266.2 265.3 265.6 264.5 260.3 253.9 250.8 246.6 239.3 227.7 217.2 219.2 220 226.6 231.8 235.5 241.1 238.6 237 241.6 240.3 235.7 232.6 226.4 221.4 220.4 220.3 217.1 214.5 208.9 203.3 194.5 189.7 188.1 183.7 178.3 176.9 177.1 174.4 166.8 166.5 165.4 161.3 164 165.9 168.7 173.4 177.2 180.8 183.7 186 187.4 189.4 191 193.9 195.7 197.8 198.1 198.2 202.4 200.8 200 198.9 197.2 192.6 187.2 183.3 181.8 187.5 191.5 193.5 196 198.6 201.5 202.6 202.5 204.7 209.8 210.6 207.9 206.1 203.9 203.2 205.4 206.5 206.6 208.2 211.1 213.3 216.6 223.1 228.4 232.3 233.5 232.1 228.5 223.8 220.3 221.6
339.9 333.6 324.8 322.6 316.2 310.9 306.5 300.9 294.9 288.8 287.3 292.6 285.4 269 263.2 265.3 263.5 256.9 249.8 242 236.3 233.4 226.4 229.6 228.8 232.8 240.8 250.1 255.9 262.8 270.1 274.2 275.7 278.2 281 280.4 278.4 275.3 271.9 263.3 246.4 233.4 225.1 214.1 198.3 192.5 180.8 178 181.1 192.7 204.2 211.6 229.4 249 267.1 285.3 287 282.9 271.7 267.2 258.6 250.6 251.4 257.5 263.6 267.6 270.1 271.2 275.5 277.4 278.5 277.3 278.9 277.1 275.6 275.7 276.8 279.2 283.6 286.6 288.5 288.6 287.2 280.9 272.3 262.1 254.5 248 242.7 238.2 236.9 229.7 233 238 240.2 242.3 246.3 249.8 254.2 261.3 263.6 263.6 265.7 264.8 263.7 256.2 257.2 254.1 244.7 237.4 226.4 217.2 215.9 214.9 216.3 217.5 221.9 225.3 229.3 226.7 230.3 227.9 226.3 225.3 221.3 219 220.1 222.3 223.2 214.7 207.1 197.8 189.4 185.4 185.3 181.3 178.8 174.9 171.3 169.3 166.2 164.1 162.2 160.4 164.8 164.3 168.2 171.2 174.9 176.3 179.6 180.3 182.1 184.7 187.7 190 191.4 191.6 189.7 190.9 194.2 199 201.3 200 194.5 188.9 184.4 182.5 181 182.5 183.7 185.6 187.2 187.5 196.3 199.1 202.9 209.7 208.7 208.3 205.6 203.6 202.9 203.3 206.4 208.5 209.3 209.9 211.2 215.8 221.6 228.2 234.4 235.5 235.2 231.8 228.9 223.4 223.9 225.9
333.1 326.1 319.9 312.1 306.1 301.6 292.9 285.4 277.7 276 274.8 272.3 263.4 258 259 250.5 246.7 250.7 237.9 234.1 237.3 237.7 233 224 221.8 228.8 236.4 243.1 251.2 260.3 271 274.5 278.4 284.5 286.1 286.8 283.2 279.4 271.4 258.6 243 233.3 223.3 207.6 193.6 182.1 177.3 179.9 189.1 197.2 204 211.2 229 252 271.6 283 283.9 268.7 261.2 250.9 243.1 247.2 252.1 257.3 262.6 266.5 271.6 278.2 281.3 281.7 280.7 279.4 277.4 277.1 276.1 274.7 275.9 279.2 281.6 284.9 289.2 290.3 287.1 280 271.2 262.3 253.6 245.7 242 236.7 230.6 227.2 226.4 228.9 233.2 232.7 240.5 243.3 250.3 257.4 265.2 267.6 265.5 259.7 254.2 249 249.1 246.7 238.9 229.4 219.7 214.8 214.1 212.9 213.3 212 211.6 211.2 213.5 215.4 216.1 217.8 221.1 221.4 220.6 221 227.5 228.4 222.8 206.7 192.6 184.9 182.7 180.4 181.2 179.7 176.1 171.8 168.9 166.8 165.7 163.7 160.4 159.1 161.2 163.4 167.5 169.4 170.7 172.2 176.1 176.4 176.7 180.3 183.3 183.5 184.7 184.6 183.9 188.6 196.5 200.7 198.8 194.7 190 186.4 182.4 177.4 182.1 183.7 180.9 181.5 183.9 187.5 192.1 198.9 209.1 211.4 208.6 206.4 203.7 202.8 202.8 203.6 205.8 208.5 210 210.5 212.6 218.8 225.9 232.6 238.3 237.1 233.9 231.7 229.8 227 228.3 231.3
325.8 319.6 312.8 307.3 298.1 290.1 280.8 269.7 262.7 258.2 256.6 254 250.5 258.1 257 240.5 231.6 225.8 224.4 229.6 235 236.2 234.9 233.7 229.7 222.8 232.6 239.6 247.4 255.5 270.3 276.5 281.6 286.5 290.4 290.2 283.5 275.5 267.7 250.7 240.7 230.8 222.7 208.7 191.2 178.5 178.2 180.8 189.3 196.7 203.7 210.8 229.2 254.7 266.4 267.1 259.6 257.4 243.3 240.6 244.9 247.9 252.6 257.7 264.3 268.9 276 283.3 284.5 283.6 282.5 281.2 280.2 277.7 276.4 274.9 273.7 275.1 277.7 284.4 288.8 287.4 281.4 274.2 266.9 258.4 250.8 241.3 235.5 229.4 223.8 225.3 225 224.1 225.3 227.6 233.4 242.9 248.9 257.4 260.4 263.5 261.2 257.7 251.1 241.2 237.9 233.9 228.2 223.5 216.3 213.8 212.5 212.2 211.5 211 209.8 209.7 210.4 210 209.3 216 221.5 221.4 223 230.1 234.4 222.7 207.7 189.6 180.4 177 175.9 175 175.2 173.5 171.1 169.8 168 165.6 163.1 161.2 159.6 159 159.1 161.6 163.9 165.2 166.2 167.7 173.7 175 173.4 173.2 174.2 175.8 179.2 180.1 186.1 191.8 196 197.1 194.7 192.1 188.6 185.2 180.8 176.6 184.1 184.8 182 180.6 186.1 190.3 197.1 205.6 212.4 210.2 207.8 205.8 203.9 203.1 203.3 204.5 206.8 209.2 210.6 211.8 213.9 219.8 227.9 234.8 235 233.1 230.2 229.3 228.9 231.4 233.5 240.7
318.4 314 308.2 297.9 289.2 281.5 269.5 254.4 244.8 236.6 231.9 230.5 236.5 243.4 234.5 229.1 223.3 217.9 219.6 226.3 228.7 229.6 230.7 231.1 229.4 214.3 226.1 235.5 242 252.6 269.8 277.9 283.3 288.3 288.7 286.1 278.6 271.3 260 247.9 237.5 226.1 219 211.6 190.3 177 178.7 180.2 184.6 195.5 203.6 210.3 227.8 246.5 252.2 244 240.3 232.5 239.6 246.2 251.1 252.1 255.3 262.9 269.5 274.1 281 285.3 285.7 284.7 283 281.9 280.5 277.5 275.2 272.4 268.4 271.7 275.1 282.7 282.2 278.5 272.6 266 260.4 252.8 246.2 236.2 225.9 222.1 222.7 224 223.9 221.6 225.6 224.7 232.7 242.7 242.6 256.6 259.7 259 256.1 250.9 244.4 237.1 233.8 231.6 225.7 220.3 216.8 214.7 214.6 213.3 212.5 211.9 211.5 209.4 212.1 209.7 209.8 216.4 220.3 222.5 230.7 232.7 218.3 202 188.1 179.2 174.7 171.5 171.8 170.3 168.6 166.5 164.1 164 163.8 162.2 160.8 158.1 158.8 157.8 159.5 162.8 161 161.6 162.9 165.2 167.5 169.6 168.7 170.3 171.5 173 176 181.1 187.2 191.7 194 194.3 191.9 190.4 187.9 184.9 179.5 174.4 185.4 183.9 180.4 181.8 186.7 192.6 201.2 210.2 210.1 210.1 208.8 207.5 206.8 205.6 206.3 206.6 206.2 208.1 211.8 214.2 216.7 222.5 228.3 232.1 232.2 232.2 230.5 231.4 233.5 235.6 239.9 248
313.2 305.4 299.1 289.3 279.7 271.9 258.9 249.1 237.1 229.6 221.4 218.5 218.3 220.4 216.1 214.1 213 211.1 215.7 219.5 222.2 224.8 224.1 223.4 223.5 210.7 219.4 229 235 244.4 261.9 274.4 282.4 286.1 284.9 279.9 272.6 264.6 254.3 243.8 234.3 221.9 215.7 208.7 199.8 176 177.8 178.5 180 188.8 198.3 211 229.2 237.5 236.3 231.5 229.6 237.2 243.7 249.7 254.4 255.9 263.4 269.7 274.9 278.2 282.8 286.7 286.8 285.4 283.7 281.7 279.5 275.5 271.7 267.9 263.9 266.2 270.5 275.6 271.4 267.1 262.9 258.6 253.5 244.5 237.9 228 221.1 221 220.9 222.3 221.3 220.8 221.8 225.1 229.4 233.1 239.4 253.2 255.2 253.2 252.9 250.3 242.4 238.4 238.3 235 228.4 225.2 225.9 221.8 220.7 222.4 223.3 220.5 218.4 210.3 205.6 208.6 213.4 218.4 222.3 224.2 227.4 216.1 201 188.4 177.8 171.9 170.1 169.3 169.6 168.1 164.6 162 159.9 159.3 159.3 158.7 157.2 156.3 157.2 158.4 159.5 160.7 162.6 161.9 162.5 163.1 164.5 166.5 167.1 168 170.4 172.5 176.6 182.4 187.3 190.3 191.7 192.5 191.6 189.7 185.9 182.4 175.1 180.9 184.7 183 179.7 183.1 188.3 194.5 202.1 209.5 212.9 213.2 211.4 209.9 209.2 208.7 208.8 207.7 207.5 209.4 213.2 218 220.8 226.3 230.2 232.9 234.5 235.6 235.5 235.7 237.2 241.1 246.7 252.7
306.8 294.8 287.8 279.8 272.5 264.3 251.8 247.7 236.3 228.4 221.5 212.7 207.3 207.8 207.5 207 206.4 204.5 209.9 212.8 215.9 217 215.9 215.9 217.1 210.2 210.3 223.7 232.5 237.3 249.5 267.9 276.9 280.4 280 274.8 268.6 260.6 250.5 239.4 230 220.2 211.5 203.1 197.4 182.5 175.6 177.1 179.1 193 195.9 209.6 227 233.4 227.3 225.9 233.1 238.7 243.6 250.8 255.8 261.5 267.7 272.3 277.3 282.4 285.8 287.9 287.6 285.6 283.7 281.3 278 274 268.8 263.6 259.1 260.7 264.9 266.2 262.6 259.6 256.3 252.5 243.5 239 232.2 225.1 220 220.2 220 220.9 220.4 222.5 224.7 227.7 230.3 234.4 240 246.6 250.6 256 254.7 248.7 250.8 245.3 239.8 234.2 233.7 235 229.6 229.6 233.5 233.9 232.7 226 217.4 206 205.1 217.4 223.7 223.5 225.4 226.6 217.4 203.1 188.3 179.1 171 167.5 166.5 167 166.4 164.1 160.3 158.9 157.5 156.4 156.4 156.5 155.9 156.3 159.6 160.4 161.9 163 162.8 162.5 163.1 162.9 164 165.6 166.3 168 170.8 172.3 176.3 181.9 186.8 189.4 191 191.2 189 186.5 182.5 176.6 171.5 181.6 184.1 182.3 179.5 184.7 190.2 195.7 201.9 210.7 216.4 216 214.2 211.4 208.9 208.4 208.7 209.1 210.8 213.6 218.1 221.5 226.2 229.6 232.8 235.5 237.8 238.4 239.8 241.1 243 246.1 253.7 258.7
295.7 284.2 274.5 268.9 264.3 255.2 246.3 239.4 231.7 225 216.5 208.7 201.7 200.3 199.5 196.8 197.5 196.8 201.8 205 206.6 207.7 208.7 209.7 210 202.4 206.7 219.5 226 230 238.3 255.8 268.5 275.3 275.9 271.9 262.2 252.4 244 232.2 218.8 214.3 209.6 199.1 192.9 177.7 176.7 177.2 177.8 198 210.8 209.8 222.9 223.1 219.5 226.8 234.2 240.6 245.2 250 256.3 263.5 270.6 275.4 280.7 286.1 289.6 289 287.8 285.8 283.3 280.5 276.1 270.3 263.2 258.6 254 255.7 256.6 256.3 255.1 254.5 251.8 245.6 235.1 231.1 227.2 220 219 218.6 219.4 219.3 224.8 226.6 229.2 230.4 231.8 232.9 242.8 250.8 250.7 251.6 255.6 258 250.2 244 239.2 237.4 238.6 236.5 235.9 237.6 238.3 238.3 231.1 220.3 207.5 199.4 209.7 220.4 226.7 228.2 228 221.1 205.2 190.7 177.4 172.3 166 163.5 162 164 163.9 158.9 155.4 155.5 155.6 155.3 154.9 154.5 154.3 157.8 161.5 163.5 164.2 164.5 163.5 162.4 163.5 162.9 164.6 165.3 166 168 170.9 172.5 175.8 181.1 186.2 189.7 190.2 188.8 185.7 181.7 176.3 171.5 177 182.6 183.7 182.2 179.5 185.3 190.9 197.2 204.5 214.6 217.4 214.5 211.5 208.3 206.3 206.3 207.8 211.4 214.8 217.4 223.1 225.9 229.7 232.1 235.4 238.9 240.9 242.8 245.6 249.5 253.8 258.3 263 263.9
283.4 275.9 269 263.1 253.3 243.9 239.7 231.7 223.6 216.6 210 201.4 197.4 196.2 193 191.6 191.2 190.7 191.2 192.6 198.8 200.3 202.3 203.2 201.3 195.6 201.6 211.2 216.1 222.5 227.8 248 262.5 267.9 267.1 263.6 254.1 244.7 233.7 220.9 213.2 211.2 204.9 194.6 186.5 177.2 176.3 174.9 180.9 205.3 218.4 213.3 211 213.3 221.4 226.8 234 241.3 246.9 257.4 264 270.5 274.8 277.9 285.6 289.9 289.1 288.1 288 284.5 278.4 278.8 272.9 265.4 259.4 255.7 252.1 249.1 252.1 251.3 249.5 246.7 243.7 237.8 229.9 226.9 221.7 219.2 219 218.4 218 219.6 226.5 231.5 227.2 229.6 230.5 231.7 241.2 252.5 253.5 252.6 251 250.1 248.1 245.3 242.6 243.8 240.3 240.4 240.4 239.3 240.7 233.5 224.6 211 197.5 196 208.9 220.4 226.4 230.1 224.6 208.1 190.8 177.9 170.7 165.9 162.4 157.9 158.3 162.6 156.8 154.4 153.8 154.5 154.8 154.3 153.1 152.8 154.4 161 163.2 164.9 164.5 163.7 163 162.5 163.7 163.8 164.6 164.1 165 166.4 169.9 174.3 178.4 179.4 184.4 187.6 186.8 184.4 181 175.3 166.9 173.6 180.3 183.6 183.3 180.3 179.1 185.5 189.7 200.4 209.9 215.7 214.7 211.5 207.8 204.8 205.2 206.6 211 215.3 218.8 222.1 227.4 231.2 236.3 237.3 239.9 243.1 245.9 249.3 253.5 259 263.8 269.1 270.1 270.7
273.7 266.1 263.1 252.8 241.7 231.2 227.7 220 215.3 207.3 202.9 198.7 194.9 192.8 190.8 189.5 188.6 188 187.7 187.4 187.7 189.8 195.6 197.3 190.5 191.1 196.4 205.5 209 214.2 218.2 237.6 250.9 256.4 253.2 248.1 242.3 232.8 219.2 209.7 209.3 207.6 201 189.7 179.7 175.9 174.8 176.8 189.6 213.5 223.4 219.4 217.1 218.3 222.4 227.8 235.4 247.6 258.1 265.1 269.7 272.9 275.1 279.6 289.5 289.8 287.5 285.2 283.8 278.6 272.6 272.4 266.1 261.2 256.3 252.6 249.2 246.5 246.1 244.9 247.3 249.7 247.5 241.3 233.4 227.7 223.3 220.5 219.1 218 217.7 218.5 227.2 229.8 224.2 223.3 228.2 230.1 239.9 249.3 252.7 255.2 255.3 251.1 248.4 245.2 245.3 245.6 245.2 244.6 244.2 241.3 236.6 227.9 218.9 205.8 192 191.5 202.5 214.1 221.7 219.6 209 192.3 177.2 169.8 163.9 161.2 156.5 154.8 155.2 159.4 154.1 152.6 152.9 153.7 153.2 152.1 154 157.2 159.8 162.7 163.8 164 164 164.6 163.7 162.7 163.2 164 163.2 163.4 164.8 168.4 173 177.5 181.7 182.7 181.5 183.4 182.5 178.7 174.8 169.2 172.1 179.5 182.3 181.7 179.7 176.4 181.2 186.6 192.3 201.7 210.8 212.4 210.5 208 204.7 205.6 206.9 211.2 215.8 222.3 223.8 226.6 230.9 239.2 242.3 245.4 248.1 253 257.4 259.8 262.7 267.3 270.9 274.9 276 274.8
266.6 259.7 251.1 241.1 230.5 219.3 214.2 209.1 204.9 199.8 197.4 197.8 198.9 196.2 189.4 188.3 186.7 185.5 184.7 183.2 184 185.8 189.9 190.3 184.2 182.6 194.6 201.2 203.8 206 210.2 219.1 234.6 245.8 246.4 240.3 231.2 216.1 205.6 204.9 207.4 207.9 201.8 190 178.7 174.2 177 191.6 202.1 215.2 221.2 220.3 218 217.5 223.1 229.4 246.2 259 266.3 270 271.6 273.2 276.1 283.7 288.4 287.4 285.1 281.8 277.6 272.8 267.7 266.7 262.7 257.7 254.2 249.5 246.3 242.7 242.7 248.3 253.9 255.3 249.6 243.2 236.2 232.1 228.8 227.3 223.3 220.1 217.3 221.5 223.9 224.8 220.5 221.9 224.6 226.9 233.6 242.2 254.1 257.1 254.6 254.4 250.8 248 247.6 247.6 248 248.4 245.3 239.4 231.1 222.4 213.4 202.5 188.8 184 195.4 208.1 210.3 198.3 187.9 178.6 168.8 163.4 158.3 154.9 152.8 152.3 152.2 154 154.1 151.9 151.6 152.9 153.4 154.4 156.3 159.9 161.9 163.6 164.5 164.4 164.8 165.6 164.5 166.5 164.1 162.9 162.9 163.2 166 170.9 175.1 179.9 183.7 182.9 180 177.5 176.5 173.4 165 162.8 176.5 179.5 178.9 177.5 176 175.5 181.1 185.9 194.3 202.8 206.3 207.8 207 204 205.8 208.8 214.3 224.4 229.3 233.6 235.4 237.9 241.5 247.3 252.7 258.8 266 273.7 274.2 273.4 270.6 272.5 275.5 278 278.7 276.4
266.9 257.7 242.4 230.8 223.7 214.5 207.1 202.2 198.2 194.8 196 198.2 198.4 194.8 188.8 187 185.9 182.6 180.7 179 181.3 181.8 182 180.2 179.6 183 189.1 193.3 198.8 200.8 204.1 211 221.8 232.3 234.9 226.9 212 200.5 199.3 209.8 216.8 215.4 206.6 193.1 181.1 172.6 180.5 194.2 203.7 213.1 221.4 220.4 217.3 219.9 224.5 239.7 257.1 266.1 270.3 269.5 270 270.8 278.3 284 284.2 282 282 275.6 272.3 269.1 262.4 263.1 259.7 255.8 252.6 246.9 242 237.6 245.1 251.4 254.2 251.9 244.6 240.5 236.3 235.4 236.4 235.5 231.5 223.8 217.8 222.1 224.1 220.1 221.2 223.3 224.9 225.6 230.8 238.9 250.4 254.2 254 254.4 252.2 251.2 251.1 251.3 251.6 247.6 241.5 232.7 224.4 214.4 207.1 197.2 186.4 180.7 190.8 192.3 187.2 178 170.6 165 158.7 156.6 153.6 151.9 150.8 150.8 151 152.6 154.3 151.9 151.1 151 154.2 155.7 157.8 161.5 163 164.7 165.4 166.4 166.5 166.2 163.5 164.1 163.6 163.3 162.7 165.1 169.1 173.6 178.1 181.1 181.2 179.7 177.1 173.8 171.2 160.4 165.6 172.5 174.6 174.9 174.4 173.4 172.1 174.7 180.4 186.7 193 199.2 202 203 204.5 206.5 212.9 222.4 230.4 236.6 242.2 245.8 247.7 251.3 254.3 259.2 263.6 272.2 279.6 285.2 285.8 284.4 279.3 276.2 275.8 277.2 277.1 276.4
266.2 254.2 239.7 222.4 215 208.3 202.8 199 195.5 194.7 196 196.3 193.7 190 187.2 184 178 173.8 173.8 174.1 174.7 174.3 173.8 174.8 175.2 175 176.7 184.5 190.5 194.8 196.8 201.9 211 214 211.9 205.6 195.7 195.1 207.8 221.7 222.5 215.8 208.7 196.5 184.6 174.8 176.5 193 202 212.7 218.9 217.5 218.2 219.7 229.7 247.5 261.3 267.5 265.6 264.7 267.9 271.2 277 280.6 278.7 277.3 275.5 270.7 266.7 265.1 259 257.2 256.2 253.1 248 242.8 234.8 238.7 248.7 243.1 241.4 238.5 234.2 233 234.7 238.9 243.8 242.5 236.9 232 224.7 217.1 217.3 222.4 225.6 228.6 228.7 228.1 230.4 236 247.4 250.8 255 257.8 258 257.8 256.5 254.1 249.6 241.8 234.4 224.9 214.5 204.8 197.2 187.9 177.8 172.5 173.9 176.1 171 161.7 156.9 157.9 154 152.7 151.3 150.1 149.9 149.9 150.5 151.6 152 151.5 151.3 152.1 155.6 157.3 159.2 162 164.2 166.5 167.3 167.7 168 166.7 164 163.7 162.1 163.5 163.7 166.1 170.7 174.6 177.5 178.3 177 175.5 174.2 171.3 167 160.5 169 170.3 170.2 170.9 170.1 168.1 168.6 173.6 179 184.5 189 192.4 196.2 200.8 207.1 217.2 229.1 237.9 243.8 248.2 251.9 256 259.2 261.7 265.3 270 273.5 282.4 289.4 292.9 292.6 290 283.7 278.3 276.3 276.9 276.1 275.4
256.4 246.8 233.5 215.1 208.1 203.7 197.9 195.9 193.1 192.6 192.5 189.7 187 183.9 180.1 175.6 175.1 174.1 172.8 171.4 172.2 171.4 171.8 173.1 173.2 170.7 172 173.2 181.6 186.1 187.7 191.8 194.5 194.2 193.5 190.8 191.6 199.2 219.5 224 223.7 220.1 213.7 201.9 185.7 175.8 171.7 184.3 200 213.8 214.4 212.1 214.5 223.1 236.4 252.7 261.5 263 259.2 259.2 268.2 262.3 266.6 273 274 275 273.4 268.5 260.2 257.7 256.6 252.9 250.3 244.9 242.1 233.3 226.2 236.7 235.3 230.5 229.3 227.8 225.7 226.7 231.3 239.2 248.6 245.9 240.2 234.4 227.9 220.8 215.7 225.4 230.3 233.3 231.4 234.1 238.8 243.1 249.4 256.5 260.4 262.6 263.3 261.7 257.4 251.1 244.3 235.2 224.9 214.9 204.2 195.7 189.4 180.2 172.7 168.4 165.1 164.1 163 158 156 155 153.2 151.2 149.9 150.1 149.5 149.6 150 150.9 150.9 151.3 152.2 155.2 158.4 160.5 161.3 164.1 166.8 168.8 168.4 167.8 167.6 166.6 163.9 162.6 162.4 162.9 164.6 164.8 169.6 172.7 174.8 174.5 173.4 171.8 170.6 170 165.2 159.3 166.9 167.7 167 166.2 165.5 163.4 166.9 171.4 177 182 188.3 193.6 199.8 211.1 223.5 234.4 245.2 250.7 253.5 256.9 262.3 267 270.4 273.5 276.1 277.8 280.1 287 292.4 294.9 291.2 289 284.9 278.9 276.7 276.3 275.5 275
246.3 238.3 223.7 209.4 202.1 198.4 194.8 191.5 190.5 189.2 188.4 184 178.4 175.7 174.2 175.5 175.2 174.6 174.9 176.4 177.9 179.9 181.4 179.8 178.3 176 173.3 171.2 171.9 177.9 178.4 180.8 184.6 186 185.9 187.8 193.7 209.5 221.1 222.1 222.1 216.1 211 202.5 187.8 177.5 173.3 170.7 193.6 208.1 208.9 208.8 213.9 229.4 243.6 253.9 257.7 255.6 253.6 252.4 259.8 252.9 251.5 260.3 267.1 272.2 265.5 261.6 255.5 253.3 249.1 245.7 237.7 234.3 228.9 221.5 220.1 223.3 222.4 220.5 219.4 217 218.5 221.9 229.6 243.2 244.1 244.8 239.8 234.3 230 226.4 221.8 213.6 231.5 230.9 233.5 236.7 241.1 246.1 250.5 260.1 265.7 268.4 264.9 258 251.8 246.1 239.3 226.6 214.8 204.2 195.6 187.7 182.6 175 169.2 166.3 163.3 160.6 159.7 157.2 155.7 154.1 152.1 151 150.2 149.9 149.1 149.2 149.5 149.8 149.9 151.3 154.8 157.7 160.2 162.9 164.1 166.9 168.2 169.3 169.4 167.6 165.9 164 162.2 162.3 163.9 164.9 165 165.6 167 170 171.4 170.4 169.9 168.3 167.6 168 164.2 157 162.9 164.5 164.1 162.7 160.5 164.6 168.2 173.1 178 184.2 190.6 200.5 216.1 229.9 239 245.7 253.5 259.9 264.6 267.7 274.1 279 282.5 283 282.8 282.7 285.4 286.3 289.1 289.2 289.5 288.3 287.1 282.4 277.8 276.9 277.1 276.5
242 230.9 216.2 203.5 197.2 195.5 193.2 191.3 189.8 183.3 182.2 179 176.7 176 174.4 175.9 175.6 176.6 180.2 182.5 185.2 185.6 184.2 182.1 178.7 176.5 174.6 172.8 171.4 170.7 174.5 171 176.6 180.7 181.8 186.8 196.9 210.1 214.6 217.4 217 208.1 202 197 188.1 179 174.8 170.5 181.7 198.7 201.9 207.4 214.4 229.4 242.4 248.6 249.1 246.7 243.6 245.4 244.6 240.3 238.9 250.3 263.3 262.4 258.7 257.3 247.9 243.5 238.7 230.3 223.2 222.4 217.2 209.8 209.1 212.2 211.3 213.8 212.6 208.2 211 217.5 224 230 235.4 238.2 237.5 232.4 231 228.8 224 213.8 226.7 226.6 230.7 234.5 241.7 248.8 255.7 262.7 267.6 263.8 257.4 250.8 244.9 238.1 226.1 213.7 202.9 194.5 188.1 182.3 176.6 170 165.2 162 159.9 159.4 158.2 155.9 154.6 153.2 152 151.6 150.6 149.8 148.7 148.8 149.8 149.5 150.1 152.9 157.6 159.4 161.7 165 167 168.2 168.9 168.6 167.9 166.2 164.1 162.7 162.9 162.8 163.6 164.8 166.1 167.2 166.8 162.9 167.2 168 167 167.1 166 166.9 163.6 160.7 155 160 160.3 156.3 161.6 165 168.3 173.4 180.2 189 201.4 217.6 235.9 248.1 254.2 259.4 265.6 268.9 274.2 279.8 284.3 287.3 287.3 287.9 289.4 286.9 288.4 288.9 289.2 289.5 289.9 289.5 289.1 286.4 279.7 276.7 276.9 277.3
238.1 223 207.6 198.6 197 194.7 190.2 185.3 178.6 176.3 178.5 176.3 175.2 173.7 175.3 178.5 180.3 183.8 187.4 189.9 191.5 188.2 184.7 181.4 178.5 177.9 175.8 174.4 173 172 170.5 171.3 170.8 171.3 179.2 188 193.7 199.3 202.8 200.8 201.7 198.6 196.7 195 192.8 183 174.9 173 176.6 192.8 202.9 210.8 214.2 224.3 240.9 242.4 239.7 237 235.7 231.4 230.1 228.6 229 242.5 254.2 253.8 253.1 248.3 240.5 231.5 225.5 216.4 210 208.6 205.3 199.7 197.7 200.9 202.9 204.1 202.3 201.4 204.4 211.5 216.1 222.9 228.9 233 233.6 233.9 235.1 230.4 223.6 213.5 216.9 220.4 224.9 235.4 247.2 253.8 258.4 256.9 256.3 252.5 248.4 242.4 233.7 224 211.1 200.1 195 190.2 184.1 177.4 171.6 166.6 161.4 157.7 157.1 157.8 156.8 154.6 153.1 152.3 150.7 149.6 149.3 148.9 148.4 148.6 149 150.6 154.5 156.4 158 160.4 164.2 166.7 168.1 168.8 168.2 167 165.2 164.9 162.6 163.4 164.4 164 163.7 163.6 165.5 166.8 167.8 166.5 163 165.6 166.4 166 163.9 163.9 162.5 160 158.4 152 153 152.2 160.5 164.2 169.2 173.6 189.2 203.4 217.8 236.8 254.2 261.5 265.3 271.7 275.8 279.4 283.7 286.3 290.8 294.9 294.4 292.4 291.1 289.8 290.8 292.1 292.3 291.8 291.8 291.2 291 288.1 281.5 276.8 277.8 279.4
223.3 214.7 201.8 198.8 193.1 184.6 179.3 178.1 179 178.6 177.2 176.1 175.3 177.2 183.5 188.4 190.9 195.8 201.6 199 194.9 190 186.4 183 180.9 179.1 177 176.8 175.5 173.5 173.2 171.1 171.2 169.2 177.4 186.3 187.2 187.9 185.9 184.4 189.5 194.7 196.8 194.4 191 185 174.8 170.5 175.1 193.7 206.4 214 215.7 220.6 227.8 231.7 233.3 232.9 234.8 230.1 225.3 220.4 218.8 228.2 240.9 250.8 245.6 237.1 228.9 218.5 209.6 204.7 199.1 195.6 197.1 192.6 191.1 192.4 195 192.5 191.4 197.1 199.5 206.1 211.3 216 222.5 229.4 236.9 239 237.2 231.4 225.1 215.5 209.2 207.7 221.7 235.6 244.9 246.7 246.2 245 243.3 239.7 235.2 228.1 217.8 207.2 200.2 196 192.5 188 180.4 173 167.3 163.8 159 155.5 154.3 154.7 152.9 152.1 152.3 150.5 150.2 148.8 148.6 149.2 148.3 148.6 149.1 151.6 154.4 157.6 160.4 164 165.5 167.6 167.9 167.9 166.2 164.4 162.5 162.4 163.6 162.5 163.1 164.1 163.9 164.3 165.5 167.2 167.3 164.6 166.1 165.2 159.4 163.6 163.2 162 161.1 159.5 158.6 156.9 155 148.8 156.8 164 170.4 182.3 199.4 217.3 231.4 253.3 263.9 272.1 276.1 281.4 285.8 285.9 288.2 296.5 304 304 300 296.1 291.9 294.8 295.9 298.2 297.3 297.8 297.6 293.8 292 288.6 281 276.6 278.9 281.4
206.4 202.9 195.7 188 181.6 176.6 179.9 180.7 179.3 178.2 178.1 175.8 178.2 185.7 190.4 195.1 199.7 204.6 206.1 205.4 200 194.5 189.5 185.7 183.3 182.1 178.9 177.9 176.3 175.4 176.6 173.9 170.8 168.5 173.4 178.5 177.7 170.5 166 167.6 183.5 191.6 194.3 192.6 188.4 181.2 172.2 169 169.9 186.2 207 215.4 219 219.5 223.7 228.1 234.1 238.1 238.3 231.9 226.9 220.8 216.7 215.4 226 232.2 227.4 218 208.7 201.9 201.9 198.2 193.7 188.9 187.1 187.4 187.8 186.1 184.3 185 186.9 192.4 195.3 198.1 207.8 212.3 219.8 228 240 237.8 234.3 229.8 222.4 215.1 203.3 195.2 215.8 227.1 231.9 234.3 233 231.2 228.6 224.4 218.6 212.5 203.6 198.8 197 193.9 191.6 183.5 174.4 168.3 164.1 161 161 155.8 153.6 152.6 152.6 151.1 150.8 149.1 149.2 148.3 147.9 148.4 148.1 148.5 150.9 152.7 154.8 159.4 163.9 166.3 166.7 167.2 166.2 164.9 164.3 161.7 161.5 162.2 163 163.6 163.9 164.9 166.8 165 165.6 165.1 164.2 164.4 163 162.5 163.2 164 161.6 156.1 159.3 158.1 158.6 156.6 154.4 149.4 159.2 164.4 171.6 187 205.9 224.2 241 257.9 268 278.9 285.3 293.9 290.6 286.7 290.9 304.2 309.3 309.3 303.7 297.3 293.2 299.7 304.7 309.3 306.2 302.7 300.4 297.4 293.2 287.9 279.8 274.5 276.6 280
199 191.6 185.4 179.4 182.4 186.6 184.9 180.6 178.6 178.4 178.8 181.7 186.5 191.8 199.8 205.9 212.3 214.6 213.9 210.1 206.9 201.6 196.5 192.4 188.2 185.6 183.6 182.2 179.5 177.6 177.6 175.2 172.2 169.1 169.5 173.2 173.4 167.9 167.5 166.6 172.1 177.7 188.8 190.3 183 174.2 168.6 168.8 168.3 180.7 207.9 216.6 219.7 221.5 225.4 231.9 237.8 241.2 236.2 230.1 224.3 219.4 214 209.4 210.2 212.5 208.6 200.1 192.2 192.6 195.1 193.2 187.1 185.3 184 184.4 184.9 184.3 182.4 181.6 184.6 187.8 190.1 195.7 203.7 210.4 218.7 227.4 230.9 231.2 226.2 221.6 214.6 212.9 199.3 192.5 209.2 215.8 219.9 221 218.9 216.8 213.6 208.5 203.4 200.4 198.8 196.1 192.4 186.7 182.7 174.4 167.9 163.7 160.8 159.7 160.4 154.4 152.9 151.6 150.1 150.6 149 148 147.9 147.3 147.5 148.4 148.7 149 152.2 153.9 157.4 161.8 165.4 166 166.1 165.3 163.7 162.4 161.2 160.8 161.6 162.3 162.9 164.2 165.3 166.5 167.5 166.7 165.9 164.1 161.4 162.9 163.5 162.7 163.5 164.6 165.6 162.8 159.7 156.9 158.1 158.2 156.4 146.9 155.5 163.8 171.3 185.9 205.7 228.3 242.6 254.6 267.4 279 291.3 294.6 289.9 287 294.1 307.8 313.2 310 302.5 297.1 298.9 305.6 309.4 311.5 309.3 309.4 304.1 299.3 294.9 287.8 277.2 270.3 268.9 270.4
185.4 180.1 180.5 187.9 190.7 188.5 184.2 180.5 178.8 179.8 182.5 187.3 192.8 202.7 214 224.9 226 223.2 218.9 216.2 211.8 207.7 205.8 201.2 196.4 191.9 188.7 186 181.3 180.1 177.4 175.5 173.4 170.8 168.1 170.5 167.8 167.7 177.3 170.5 165.1 167 173.6 178.4 173 168.2 166.5 167.2 167.9 175.2 207.3 215.1 216.7 218.6 226.5 230.9 232.4 230.1 226.4 220 213.8 210.5 206.7 201.5 201.9 199 194.3 189.4 188.3 188.1 187.3 185.3 183.4 183 182.3 182.1 182 182.5 180.8 179.7 180.3 179.9 181.9 190.3 195.6 201.4 210 213.9 223.9 222.3 216.1 212 207.7 209.5 195.7 187.5 199.5 204.2 206.7 207.2 205.7 203.6 200.9 197.6 197.8 197.9 195.8 190.6 182.1 175.1 169.3 165.3 163.5 160.4 158.5 158 156.1 151.8 151.1 149.5 148.8 148.1 147.2 147 146.9 147.5 148.4 149.3 149.2 149.8 153 157.3 160.4 162.8 164.9 165.4 164.1 162.9 162 160.4 159.6 161.4 161.7 162 163.1 164.6 165.8 167.3 167 167 165.5 162.9 161.6 164.1 166.9 164.7 164.9 165.9 167.1 163.5 160.6 159.5 150 159 157.6 144.9 155.5 165.1 171.1 183.3 202.3 231.8 246.3 258.8 271.5 283.2 291 292.3 286.9 289.9 298.5 307 309.4 303.8 298.7 294.8 300.6 308.6 312.2 311.6 310 307.6 303.4 297.8 292 284.3 273.8 262.8 261.4 261.5
181.3 187.9 193 197.5 196 189.5 182.1 179.8 181.3 184.1 187.8 192.7 200.3 213.9 229.3 235.5 232.5 229.5 227.5 224.7 219.4 216.6 213.1 209.7 208.1 203 196.6 189.2 183 181.7 177 174.2 173 171.1 168.7 168.4 167.8 175.8 182.8 175 167.6 164.1 166.8 168.8 165.8 164.3 170.1 165.5 166.2 176.5 209.9 209.5 210.5 214.4 220.8 221.2 221.6 218.5 216 210.6 207.4 202.9 199.2 196 193.8 191.6 189.2 187.4 186 186.5 185.1 184.2 184.6 185.4 185.5 184.9 184.3 183.7 184 183.4 182.8 185 176.5 184.2 188.3 194.3 200.8 205 211.5 208.5 206.1 203.5 202.3 198.7 189.8 181.1 189.4 192.1 194.4 193.3 192.4 190.4 189.9 190.8 192.8 191.4 189.2 182.8 174.7 167.9 164.9 163.9 161.8 158.6 156.1 155.6 155.9 151.1 150 148.8 146.8 146.6 147 147 147.1 147.6 148.1 148.9 149.4 151.5 154.5 157.5 160 162 164.2 163.9 162.1 160.5 159.5 156 158.9 161.5 161 161.1 163.1 164.6 164.4 166.9 166.6 166.8 166.4 165.1 163.9 165.1 164.2 165.5 165.4 166.6 165.9 164.7 160.6 160.2 159.5 150.7 144 147 156.9 166.8 171.9 180.7 201.8 231.8 250.5 265.4 272.1 281.8 289.1 286.2 285 292.6 298.4 300.6 299 295 293.4 293.7 296.2 301 308 311.3 310.1 307 297.8 291.6 286.7 279.4 268.1 256.5 254 252.6
191.1 197.3 205.5 202.9 196.2 189.5 181.7 181.2 183.1 188 192 197.5 210.1 222.3 232.7 236.5 234.5 233.2 233.3 229.4 226.3 224.6 222.1 217.9 216.9 209.6 201.5 191.6 186.3 184.7 179.5 176.2 176.8 177.4 177.7 178.8 185.7 186.4 183.8 177.2 171.1 165.3 164.8 161.7 163.1 178.1 191.3 186.4 184.5 200.9 202.3 202.4 204.5 210.2 211.1 210 211.4 208.2 206.8 204.5 200.8 196.6 193.6 193.4 194.1 193.3 191.3 191.1 187.2 185.8 185.9 189 192.6 194 193.2 190.9 189.1 186.2 186 185.1 182.5 184.7 179 174.8 182.4 189.1 194.4 195.3 196.5 197.8 199.3 196.9 194.4 186.9 184.8 178.9 184.3 186.8 185.6 184.9 181.2 179.5 179.9 181.6 183.2 182.3 179 175.3 170.2 166.4 163.9 161.5 157.9 154.6 153.4 152.4 151.4 149.3 148.2 146.9 145.8 146.5 146.9 147.1 147.5 148.3 148.5 149 150.4 154.2 156.7 158.5 159 160.8 162.6 162 160.1 158.6 157.2 151.4 157.6 159.4 158.9 159.7 159.2 159.4 157.7 159.1 158.2 160.8 162 163 160.5 159.9 158.7 160.4 161.3 161.9 160.9 160.8 158.1 158.3 158.8 158.9 140.2 152.1 163.7 167.6 172.8 179.8 199.6 227.1 244.9 256 265.8 275.6 280 278.7 280.2 286 287.2 287.6 286.4 284.4 285.1 288.6 290.9 293.7 296 298.1 297.4 293.5 286.5 280.4 275 266.6 256.6 249.5 244.5 245.4
200.7 206.3 209.6 204.8 197.4 189.4 181.4 183.5 187.2 192.1 198.4 204.3 216 225.6 232.7 235.5 236.4 236.1 237.8 236.1 233.9 232.3 230.3 227.5 219.9 212.5 203.4 197.4 193.9 189.6 181.5 180.8 186.2 184.2 184.9 189.1 188.8 185.4 181 176.1 171.6 167.6 166.7 164.4 165.4 182.7 189 193.7 195.7 196.3 196.2 195.8 198.8 200.6 200.4 201.5 201.2 200.6 199.2 194.1 193.9 195.6 198.1 204.4 205.5 202.5 199.5 196.9 193.6 192.4 194.4 197 198.2 198.3 196.1 192.7 190.2 186.6 184.2 182.1 177.5 178.6 178.1 173.3 172.5 180.9 187.1 186.5 185.7 186.7 188.5 185.4 184.7 182.2 178.3 170.5 182.2 181.3 176.7 176.1 171.6 170.6 172.3 174.1 175.9 175.2 173 169.8 166.7 163.8 160.1 158 154.8 151.8 150.6 149.6 148.9 147.5 146.3 145.5 146.1 146.5 147 147.1 148 149.1 150.4 152.5 156.3 159.9 161.8 161 161.5 161.7 160.8 159.1 157.3 156.1 154.6 146 154.4 153.1 153 153.1 153.6 151.5 150.1 149.5 149.3 150.1 151 152.8 154.1 152.7 150.4 149.2 147.9 147.4 148.2 151.3 153.3 154.9 156.5 150.5 140.4 155.9 162.9 167.2 173.7 180.6 194.2 216.1 233.9 245.2 255.6 265 268.5 268.8 271.2 277 277.6 276.5 275.6 275.2 277.2 278.3 281.5 278.4 277.2 277.1 278 272.9 266.7 263.7 259.1 249.6 242.7 237.3 238.2 238.3
212.7 219 212.4 206.1 196.7 189.2 182.6 186.4 192 197.8 203.8 210.6 220.2 227.8 233.9 236.9 240.4 242.6 241.7 241.8 240.9 239 238 231.5 221.7 216.3 211.2 204.9 202 197 186.9 192.1 198 195.9 193.8 195.4 189.3 183.9 180.5 179.2 175.9 169.5 165.2 162.9 168.3 178.3 183.6 187.8 190.5 187.9 187.7 187.8 191.4 192.6 190.6 191.1 190.3 189.9 189.9 190.6 199 205.2 209.9 211.5 210.2 207.8 204.5 201.5 200.3 200.3 200.5 200.7 197.5 193.4 189.1 186.6 184.6 182.3 179.4 176.2 174.8 171.6 171 168.9 166.9 170.1 175.7 174.8 174.7 172.6 174.2 176.6 176.8 175 173.5 167.4 175.4 172.3 169.6 166.1 164.1 165.3 167 168.7 168.7 167.9 167.1 164.1 161.2 157.8 155.6 153.5 150.8 149.9 148.7 147.6 147.4 147.4 146.1 145.4 146 146.9 147.3 150.7 153.1 154.2 155.9 158.8 161.5 164.2 163 162.9 162.3 158.7 157.5 155.3 153.5 152.2 150.5 145.2 146.8 145 142.3 139.8 133.8 132.6 132.7 133.2 137.5 141.6 142.6 141.7 140.2 135 133.5 132.4 132.4 134.8 137.5 138.8 142.8 146.9 147.7 136.9 139.9 155.2 161.5 167.3 173.9 179.2 186.4 202.4 219.1 231.9 240.8 248.4 253.2 255.8 261.2 267.6 267.5 265.9 264.4 262.1 263.6 262.8 261.4 257.8 255 253.5 251.7 248.4 245.6 241.3 237.3 234.2 228.9 225.6 227.9 230.4
221.9 220 213.8 205.8 196.1 187.2 184.5 188.9 196.4 203.6 207.7 215.6 223.7 230.4 236.2 241.3 244.8 246 245 247.7 247.2 246.3 240.9 234.9 231.4 231 226.1 218.6 210.9 198.3 195.6 205.6 205.1 202.3 200.5 196.6 190.7 184.8 182.5 181.2 178.4 169.9 167.1 163.9 163.7 172 176.3 176.9 173.7 172.6 178.5 179.6 180 182.6 182.4 182.9 181.4 178.4 182.3 192.3 204 211.1 212.6 210.7 208.5 206.2 202.7 199.6 198 195.6 193.8 191 188.1 185.6 182.9 179.8 177.8 174.8 170.6 168.7 167.5 166.4 166.3 164.4 162.8 165.9 168 168.6 168.5 168 167.6 170.2 170.8 170.1 168.1 165.2 164.5 164.2 163.2 160.9 159.8 162.3 164.4 163.7 162.7 161.8 161.1 158.7 155.8 153.6 151.8 151.2 150.8 150 147.9 146.8 146.1 145.1 145.5 145.4 146.2 148.4 152.4 156.7 158.8 159.5 161.6 164.4 165.6 165.7 163.9 160 157.6 153.3 151.3 149.3 147.2 144.6 141.8 137.9 136.9 134 133.5 133.8 133.2 133.9 134.4 133.9 133.4 133.3 133.3 132.4 132.4 132.7 133.2 133.4 132.5 132.4 133 133.3 134.1 138 139.2 140.6 144.9 150.4 159.3 165.7 172 177.2 184.7 194.2 201 213.9 222.2 228.8 234.1 239.4 249.3 254.7 252.2 249.3 246.1 243.1 242.1 242.6 241.2 238.5 234.3 231 228 226.9 224.6 222 221.6 221.8 219.4 216.7 218.6 223.5
222.1 217.4 213.1 206.4 194.9 185.9 187.2 194 202.1 205.7 210.6 220.5 230.3 241.5 245.8 249.3 250.5 251.7 253.3 252.7 252 247.9 246.4 247.1 248 245.3 238.8 230.3 219.8 204 206.8 210.8 208 202.7 200.5 196.4 191.5 186.9 184.1 180.3 176.4 170.9 167.5 163.3 160.6 165.7 168.6 168.9 167.5 167.1 170.4 170.6 164.3 159.6 157.7 168.1 167.8 167.3 175.3 186.5 196.8 200.8 200.6 197.6 196.3 194.9 191.8 188.9 187.7 184.8 184 182 180 178.2 176.6 173.7 170.5 166.8 165.2 164.3 164.1 163.2 162.8 161.8 160 162.9 165.9 167.1 166.2 165.4 165.7 166.2 167.3 168.4 167 164.9 161 158 158.8 158.5 157.4 159.3 159.1 158.2 156.9 155.8 155.2 153.2 151.1 151.3 150.8 150.5 150.6 150 147.9 146 145.1 145.1 145.1 145.1 150.1 154.2 157.4 161.6 162.5 164.9 168 167.7 166.2 163 158.4 154.3 150.6 149.5 147 144.1 142 137.1 135.4 135 134.1 134.1 134.9 134.8 134.8 134.6 135 135.1 135.1 134.4 132.8 132.4 133.5 134 134.5 134.4 133.5 132.6 132.4 132.4 132.6 136.9 136.5 139 143.7 145.7 155.4 163 167.2 173.1 180.7 187.2 189.6 194.9 202.4 206.9 211.4 219.7 230.2 234.2 233.5 230.4 226.9 223.4 221.7 220.6 218.4 216.8 215 212.3 212.8 212.8 211.5 211.1 210.2 209.8 209.1 209 210.7 212.7
219.6 215.7 211.3 204.5 192.1 185.9 192.2 198.4 204.2 207.6 213.2 225.5 242 249.9 252.6 254.6 256.7 259.5 260.3 257.3 254.1 255.3 258.2 261.5 259.8 255.7 248.5 239.1 228.1 211.8 213.3 210 205.3 201.5 198.2 195.4 191.6 187.7 182.1 177.1 173.5 170.3 169.2 164.8 159.8 162.2 163.4 162.4 162.7 160.8 159.3 155.2 155.1 156.6 156.4 154.6 158.2 159.4 164.6 174.7 183.6 186 187.2 185 183.6 182.2 180.6 179.2 177.4 174.8 174.8 173.2 172 169 168.2 167 165.6 164.8 162.6 161.5 159.3 160.8 160.4 159.5 158.5 160.2 163.7 165.2 164.6 163.7 164.1 164.9 165.9 166.3 164.7 163.2 161.5 158.1 155.4 155.1 155.2 153.7 153.6 153.5 152.9 151.7 150.6 150.1 149.5 150.9 151.1 150.2 150.3 149.3 145.7 145.1 145.1 145.6 147.7 151.1 155.8 158.9 161.3 165 166.3 165.9 165.2 162.4 158.9 155.6 151.1 147.6 148 146.3 143.4 140.2 138.2 134.8 135.3 134.9 134.6 134.4 134.5 135 134.1 134.5 135 135.6 135.3 134.3 132.4 133.3 134.8 134.7 134.2 134.4 133.5 133.1 132.9 133.6 132.4 132.4 135.7 136.5 138.6 142.4 150.5 156.1 161 166.5 172.9 177.6 181.7 186.4 185.6 186.8 191.9 198.5 207.3 213.1 214.8 212.8 207.5 205.4 202.5 200.4 198.9 199.4 199.3 199 200.1 201.4 200.9 202.3 201.7 201 201.1 201.2 201.6 204.8
220.3 214.5 208.8 199.4 189.8 188.5 195.1 201.7 205.1 210.6 217.5 233.3 250.5 255.6 257.5 260.7 264 264.4 263.4 261.7 261.3 265.4 268.6 269.5 265.9 263.8 257 246.8 237.2 218.8 211 207.2 203.1 200.1 196.6 194 191 185.6 179.7 175 173.6 174.2 172.4 168.8 164.4 159.5 160.9 160.3 158.7 155.1 157.6 159.8 160 158.9 158.9 158 154.9 156.3 157.2 162.9 170.8 173.1 175 176.2 175.6 173.8 171.9 170.2 166.4 165.3 166 164.5 165.9 166 165.9 165 162.4 159.8 156 153.7 153.9 156.2 157.6 157.6 156.6 158.3 161.2 163.6 162.6 162.2 164.3 165.3 165.1 164.3 162.5 161.9 161.9 160.1 156.1 151.8 151.1 150.5 148.7 147.5 147.5 145.1 143.5 144.2 146.4 148.1 152.1 150.5 149.4 149.1 145.1 145.1 149.5 149.6 152.4 155.3 160 162.2 165.2 166.8 164.1 160.4 158.1 154.6 152.1 149.7 148.4 147.5 144.9 143.4 139.4 136.7 135.9 135.2 136.2 136.2 135.8 135.3 134.9 135.1 134.1 134.5 134.9 135.4 136.2 132.9 134.7 133.3 134.5 134.2 134 134.4 133.8 133.6 133.5 133.8 133.7 133.9 131.3 137.2 134.6 141.7 139.1 147.8 152.8 156.8 163 168.7 174.8 178.6 177.1 180 182.4 183.9 187.2 190.8 193 192.2 191.4 190.6 190 190.1 189.5 189.9 190.3 188.9 192 193.5 193.4 193.8 194.5 192.9 192.7 192.4 193.1 195.7
222.6 214.4 205.7 197 187.9 190.1 195.8 203.1 209.5 214.4 223.7 239.6 255.4 260.6 263.1 263.4 266.6 269.5 270 270.2 274.4 275.3 274 273 269.9 266.7 260.8 253 239.2 222.5 212.7 208.3 206.9 204 200.1 193.8 187.8 180.8 178 177.2 177.3 176.1 173.7 171.8 169.3 167.8 165.5 163.4 162 162.6 162.8 163.5 163.1 163 161.9 162.6 156.7 153.6 156.1 157.1 159.8 163.4 162.2 162 161.4 161.4 153.5 152.7 158.3 161.1 161.7 161.9 163.3 164.7 163.4 158.8 152.3 151.2 151 150.8 151 150.7 150.6 154.3 154.9 156.8 157.7 158.6 159.8 162.5 163 163.3 162.2 160.7 161.3 162.2 161.9 158.8 156.7 150.7 150.1 149.1 147.1 146.4 145.6 144.4 143.4 142.4 142 145.3 150.9 151 148.7 145.1 145.7 151 152.5 153 154.9 157.6 162.8 165.3 165.7 162.2 157.1 154.9 153.4 150.3 148.9 148.2 147.6 146.6 144.8 139.3 135.4 134.7 135 136.1 136.4 136 135.7 135.4 135.3 135.4 135.5 134.8 134.9 135.4 133.3 135.5 135.5 134.8 134 135.2 134.8 134.4 134.3 134.3 134 133.5 134.3 134.1 133.4 130.8 131.8 141.2 132.7 135.2 138.9 146.9 154 161.1 165.5 169.8 170 172.3 174.2 174.9 175.1 176.8 178.4 179.4 179.4 180.5 180.3 180.5 180.8 181.2 181.6 182.6 183.8 185.4 185.9 186.7 188.1 186.4 185 184.8 184.2 186
222.9 213.1 202.1 191.6 187 190.5 197 204 211.1 218.4 228.3 243.3 257.9 264.3 264 264.2 267.5 272.2 277 282.9 285.8 283.9 281.4 278.8 273.8 268.4 261.6 253.1 241.2 227.2 217.1 214.7 215.4 208.1 203.6 193.5 184.4 182.4 183.9 182.8 180.9 177.8 176.5 175.3 177 178.2 178.6 175.9 170.5 169.6 168.7 168.2 167.3 166.5 165.4 164.1 162.9 156.5 154 156.2 156.6 155.7 155.3 154.8 154.1 153.9 153.4 153 152.2 160.2 161.1 160 160 158.6 152.6 152 151.5 151.4 151.2 150.7 150.9 149.8 149.7 151.3 154.2 154.7 155.3 155.6 155.6 157.8 157.8 157.5 157.3 155.8 158.1 160.4 159.2 156.5 150.8 148.8 148.9 148.1 147.3 145.6 144.8 144.2 143.4 142.6 141.7 143.4 149 150.9 150.7 145.1 151.8 154.4 154.3 155.4 157.8 160.1 162.6 163.2 159.8 155.8 152.4 150.8 149.6 149 148.4 148 147.3 145.9 141.7 136.3 135 135.1 134.8 136.3 136.4 136.5 135.4 135.1 135.5 135.6 135.7 136 135.7 133.4 135.5 134.4 135.3 134.8 134.6 134.6 134.4 133.6 133.6 134.3 134.3 133.8 134 133.3 135.3 133.8 131.2 132.2 133.4 132.7 132.5 133.7 139 145.5 147 153.3 158 160.4 162.7 163.4 163.3 164.5 168.6 170.9 172.3 172 174.2 174.3 174.2 175.1 175 173.8 174.4 175.9 176.5 176.4 178.2 179.2 179.5 177.5 175.8 174.2
223 212.5 199.2 189.8 187.8 191.7 198.2 204.9 214.5 223.3 232.5 246.7 257.6 260.6 262.5 265.4 270.4 276.2 288.9 294.7 292.3 289.6 286.8 280.4 272.8 264.9 255.9 248.2 242.3 232.3 221.5 215.1 211.8 206.1 199 190 191.1 196.6 193.1 189.2 186.8 185.8 183.7 182.3 185.6 185.6 186.5 188.1 185.2 179.3 172.4 171.5 169.8 167.4 165.5 164.3 163.1 160.8 154.2 154.3 156.1 155.8 155.6 155.3 154.6 153.6 153.7 153.3 152.3 156.1 156.3 154.4 150.9 150.4 150.4 150 149.8 149.5 149.1 150.1 149.4 149.5 149.5 149.8 152.5 153.1 152.6 151.6 151.2 152.8 152.7 151.7 151.4 151.8 151.7 153 152.1 147.7 147.2 147.5 147.8 147 146.2 144.8 144 143.8 143 142.2 141.8 142.1 145.8 148.7 146.1 145.3 151.5 153.8 154.4 154.2 156.6 158.4 158.6 157.2 153.6 152 149.5 148.4 149.2 148.6 147.9 147.5 147.3 145.7 139.2 135.3 136 135.7 135.5 136.4 136.4 136.5 135.3 135.3 135.7 135.8 135.9 136.2 134.2 135.8 134.6 134.8 134.6 135 134 134.6 134.5 133.6 134 135.2 134.5 134.1 133.8 134 133.8 132.7 133.5 130.9 132.1 133.2 133.5 133.3 132.7 132.7 132.3 133.8 137.8 144.1 149 151.2 151.8 148.2 148.1 154 159.9 165.8 163.6 164.8 160.1 160.3 162 162.9 162.7 163.4 161.9 164 170.7 171.5 173.9 171.8 170.5 163.6
221.7 210.8 195.1 187.7 190.4 196.5 204.4 210 217.3 225.3 233.8 250.9 257.7 262.3 265 268.8 275.9 284.3 298 298.5 296 293.4 286.1 277.5 267.9 258.8 249.9 243.4 239 233.7 222.9 217 208.2 201 194.1 197.3 203.2 205.5 203.6 197.6 196.8 196.1 194.8 192.8 194.8 194.9 195.4 194.6 189.2 181.6 176.3 175 169.2 166.5 165.1 163.8 162.2 159.9 158.6 152.3 154.3 155.9 155.5 155.6 155 153.9 153.5 152.4 152 152.2 151.1 150.9 150.7 151.2 150.1 149.9 149.4 149.1 149.3 149.2 149.1 149.2 149.3 149.3 148.9 150.2 150.4 150 147.4 147.1 148.3 147.4 148 148.4 147.5 147.6 146.6 146.4 146.3 145.8 146.8 146.3 145.2 144.2 143.4 143.4 142.8 142.3 142 141.9 144.5 145.3 145 144.6 147.9 150.1 151.4 153 155 154.9 154 151.8 150.2 148.5 147.1 148.1 148.6 148.3 147.1 147.2 147 145.8 140.1 135.7 135.6 136.1 136.2 136.5 136.6 136.7 136.4 135.5 135.8 136 136.2 134.6 133.3 135.4 134.5 135.2 135 134.1 134 134.9 134.4 133.1 134 134.3 134.3 133.7 133.3 134.2 132.9 133 136.1 131.9 132.3 132.1 133.4 132.5 132.9 132.7 132 132.1 131.7 131 130.6 131.3 131.6 130.1 130.2 130.3 134.7 143.3 147 147.7 146.1 150 149.5 149.1 149.2 150.8 148.5 151.4 153.5 161.2 166.4 168.1 165.9 156.2
212 200.3 191.4 187.6 193.6 199.7 204.7 210.8 216 224.5 235.9 245.9 254.4 261.6 265.1 273.3 284.2 292.8 298.9 300.8 297.5 291.2 283.4 273.4 260.9 249.8 245.9 239.2 236.2 229.8 223.4 215.1 205.2 200.4 201.2 206.7 210.3 212.6 212 206.8 206.8 205.4 205.2 203.3 202.8 203.6 203 197.6 189 184.8 181.4 176.6 168.9 166 164.7 163.1 160.5 159.4 158.8 154.2 152.8 154.9 155.1 155.1 154.8 153.5 152.2 152.1 152.1 152.1 150.7 150.7 151 150.1 150.3 149.8 149.1 148.8 149 149.2 149 149 148.7 148.7 148.5 148.8 148.8 148.1 144.6 143.5 144.4 145 144.9 145 145.1 145.4 145.9 145.3 145.6 145.4 145.8 145.5 144.9 144 144.5 143.4 142.9 142.7 142.6 142.6 142.9 143.3 143.9 143.2 144.6 146.6 147.7 148.6 150.3 150.4 149.9 148.9 147.4 146.5 146.1 145.6 145.5 145.1 145.6 144.8 144.5 144.9 142.5 137.1 135.3 135.7 136.2 136.5 136.9 136.7 136.2 135.9 135.2 135.8 134.5 133 135.7 135.6 134.9 135.2 134.8 134.7 134.6 135 134.8 134.2 134.6 134.3 134.2 133.9 133 132.6 133 133.6 133.1 132 131.5 132.1 131.5 133 132.7 132.3 132.7 132.3 132.1 132.2 131 130.8 131.4 131.4 131.3 131.2 130.9 130.8 131.4 130.8 137.5 143.6 142.7 138.3 135.9 136.7 139.7 139 139.4 146.5 149.1 148.5 145.5 140.6
198.3 190 188.7 188 192 198.5 204.6 210.8 217.8 225.8 233.8 242.7 249.6 256.9 265.8 280.3 295.4 302.8 304.7 301.1 292.9 287 278.7 263.6 253.8 247.7 241.5 235 231.8 228 219 208.1 202.4 207.6 211 213.2 217.1 221.5 223.1 221 217.3 217.4 215.8 215 213.6 212.5 207.8 198.8 196.3 192.4 187.2 178.4 169.1 166.2 165.1 164.2 161.3 160.2 158.7 156.1 151.2 153.5 154.1 153.2 153.2 152.3 151.9 152.5 151.7 150.4 151.6 151.4 151 150.7 150.2 149.6 148.8 148.5 148.8 149.1 148.8 148.4 147.4 147.2 148 149.4 146.8 145.1 146.5 146.1 144.6 143.2 143 143.3 143.4 144.1 144 144.4 145.2 145.2 144.9 144.6 144.1 144.9 145.1 143.6 143.4 143.3 142.7 142.5 141.7 141 141.5 141.9 141.5 141.1 143.8 145.2 146.8 146.3 145.7 146.3 145.9 145.7 145.6 145.2 144.8 144.5 144 143.6 143.5 143.6 142.3 138.9 136.5 136.5 136.1 136.5 136.9 136.4 136.1 136 134.5 134.5 133.9 134.6 135.2 135.1 135.4 135.1 134.9 135 135.1 135.1 134.4 133.5 134.9 134.5 134.2 134 133.1 133.1 133 133.3 132.4 130.8 133.3 132.3 131.7 132 132.7 133.3 132.7 132.5 131.9 131.8 132.2 131.9 131.9 132.3 132.4 132.4 132.3 132 131.8 130 131.2 132.3 133.9 132.2 131.3 131.5 131.4 131.3 131.4 134.7 136.6 134.6 133.4 135.1
192.8 189.6 189.2 188.1 192.4 200.4 206 212.4 218.2 226.5 234.2 239 246.3 255.1 269.4 288 300.5 303.8 305.7 297.2 286.7 280.1 266.4 259.8 254.7 248 239.1 231.2 227.2 220.2 213.3 205.2 211.4 217.3 219.4 223 227.8 233.1 232.7 232.7 228.9 226.7 225.4 224.3 223 218.9 210.3 204.3 205 199.9 190.8 180 172.6 167.9 165.6 164.1 163.9 160.3 159.2 157.2 153.6 151 154.1 153.7 153.8 151.9 150.7 151.6 152 152.2 153.4 149.2 150.4 150.2 149.6 149.2 148.5 147.3 146.4 147 145.7 145.4 146.1 145.6 145.4 146.8 146.7 146.8 146.4 147.2 146.8 145.6 144.7 142.1 141.8 142.9 142.8 142.2 143.2 144.3 146.1 144.3 144.7 144.3 143.5 144.5 143.6 142.9 142.3 141.8 141.9 142.3 142.7 141.4 141.8 141.8 141.7 141.7 141.2 141.1 140.2 140.1 139.9 141.1 143.7 145.1 144.6 144.1 143.6 142.6 142.6 141.7 140 136.9 136.6 136.2 135.7 136.4 136.7 136.7 135.8 136.1 134.3 134.3 134.8 134.8 135.1 135.2 135.2 133.8 134.5 134.2 134.3 134.2 134.6 133.1 134.1 133.7 136.1 134.6 133.6 135.9 133 133.6 132.9 131.1 132 132.4 132.7 133.1 133 132.8 132.8 132.7 132.4 132.3 132.5 131.6 132.3 132.7 132 131.9 130.9 129.2 129.4 129.2 131 131.2 129.4 129.1 130.3 130.3 130.8 130.9 131 131 131 131 130.5 130.3
190.5 189.9 190 188.8 195.1 199.9 204.2 210.2 216.7 224.7 230 237.1 243.6 253.4 272.3 290.1 298 309 298.8 288.5 279.9 269.9 261 256.2 252.3 245.9 235.2 226.9 224 220.2 214.3 212.3 220.6 223.8 227.3 235.1 242.6 243.5 243.7 242.9 240.9 238.6 237.5 233.7 227.9 219 213.3 213.4 210.7 203.3 192.1 183.5 175.1 170.7 167.9 165.5 165.2 163.7 159.4 158.3 155.1 151.2 152.9 152.9 151.6 150 153 152 151.4 152.5 151.9 150.3 147.9 148.1 148.2 147.2 151.2 150.5 150.6 149.7 149.1 148.1 147.2 147.4 146.5 147.4 147.3 147.3 147.2 147 146.8 145.5 145.4 145.1 144.5 142 140.7 142.9 141.6 140.9 142.3 144.2 143.6 143.1 142.9 142.3 143.6 143.2 142.8 142.3 142.2 141.6 141.4 142.5 142.2 141.9 141.6 141.3 140.8 140.1 140 139.9 139.7 139.3 139.1 139.2 139.5 140.6 140.7 139.3 138.1 137.3 137.2 136.1 135.9 135.8 135.8 136.7 136.4 136.4 136.3 134.6 134.3 136.5 136 134.7 135 135.3 135 133.8 137.7 137.2 135.7 135.3 134.8 134.9 134.7 134.4 136 133.8 133.7 133.6 135.8 134.5 133.3 131.7 133.2 133 133 133.3 133.3 131.3 132.9 132.5 132.1 132 132.5 132.7 132.6 132.8 131.7 129.2 129.2 131.1 130.8 130.8 132.2 130.6 131.6 131.8 129.9 130.8 131.2 131.1 131.1 131.3 131.3 131.3 130.8 130.5
191 190.4 190.2 190.2 195.3 199.6 204.9 209.8 214.7 220.6 229.3 238.5 246.8 256.3 275.1 288.2 303.5 304.7 296.3 282.2 276.3 268.5 262.7 256 248.9 240.8 230.3 221.9 219.3 216.5 217.2 227.1 230.9 236.3 244 250.6 252.6 253 252.1 251.2 250.6 248.6 245.3 241.4 228.6 225.4 223.9 219.2 213.8 207.5 198.7 189.5 180.5 176.3 171.7 169.6 167.4 165.7 161.2 159.8 158.7 152.8 151.5 151.3 155.7 155.3 155.2 153.3 154 153.9 153.9 153.6 154.2 155.2 157 159.8 162.2 157.6 156.9 154.9 151.8 150.3 148.8 148.3 148.1 147.9 147.7 147.5 147.2 147 146.8 146.2 146.1 145.4 145.7 144.9 144.9 145.1 146 146.2 143.6 141 142.1 142.3 142.4 141.9 142.3 142.9 142.8 142.3 141.4 141 140.9 141.7 141.7 141.5 141.2 140.9 140.5 139.8 139.8 139.7 139.4 139 138.8 138.9 138.2 138 137.9 137.7 137.7 137.3 137.1 136.6 136.4 136.3 136.8 136.3 136.2 136.2 135.9 134.4 134.8 135.4 135.1 137.5 137.2 136.4 136.7 138 138.3 138.3 135.2 135.6 135.2 136.1 135.6 136.6 135.1 134.3 133.9 133.5 133.5 133.2 133.9 135.6 131.5 130 130.8 130 130 130.8 132.9 133 132.3 132.5 132.9 133.2 131.4 129.1 130.6 131.3 132 131 131.9 132 132.2 131.9 131.7 131.3 129.3 131.4 131.7 131.7 131.6 131.5 130.9 131.4 131.3 130.4
191.7 190.7 190.1 190.2 192.7 197.9 203.2 208.1 213 221.9 233.7 243.4 250.9 259 278 294.2 306 300.4 295.6 288.2 276.7 270.4 264.3 254.9 244.6 236.5 227.3 220.1 217.1 219.3 227.8 237.2 244.5 253.1 256.4 260.3 261.7 261.4 260.4 260 257.6 254.5 250.1 240.4 239.3 235.8 230.1 224.3 218.3 212.2 204.6 196.7 188.4 183.9 178.4 173.4 170.2 167.1 166.6 167.8 166.7 170.2 172.2 171.1 168.7 166.1 163 160.1 157.1 157.3 160.1 162 166.8 169.1 168 168.8 166.2 163.4 160.7 158 152.7 148.7 148.3 148 147.9 147.7 147.6 147.4 147.1 147 147.1 146.2 146.2 145.9 145.7 145.3 145.1 144.7 144.5 144 143.3 142.1 139.9 142.5 142.5 142.3 142.1 142.1 142.1 142.1 140.8 140.7 140.5 140.7 140.7 140.7 140.7 140.6 140.2 139.4 139.7 139.4 139.1 138.7 138.5 138.3 137.9 137.8 137.8 137.4 137.2 137 136.9 136.9 136.8 136.8 136.8 136.3 135.4 135.8 134.2 136 135.9 135.7 136.4 137 136.6 137 145.7 153.3 156.2 155.7 143.1 137.9 139.6 138 138.4 138.6 136.9 135.7 134.9 135.8 135.2 133.7 134.4 133.4 133 133 135.5 132.8 134 133.4 130 130 131.8 131.4 130 129.1 133 132.4 132.4 132.2 132 131.9 132.2 132.6 132.2 131.6 132.1 130.8 129.5 130 131.5 131.9 131.2 131.1 131.5 130.7 129.3 128.9
192.4 191.4 191.1 190.4 189.8 191.8 197.2 204.4 215.7 228 239.9 248 258 271 285 301.5 304.2 302.6 301.1 297.6 282 271.9 259.6 249.4 239.3 231.7 224.4 219.4 222 228.6 239.1 251.6 258.3 264.7 265.2 268.9 269.9 269.4 267.9 264.1 260.6 255.2 250.2 250.7 248.9 243.7 239.1 234.5 227.8 220.2 208.8 200.1 192.4 185.9 181.1 177.2 173.5 171.9 174.5 177 180.6 181.8 180.4 177.6 173.5 169.5 166.9 165.3 166.8 169 170.6 175 176 175.8 174.5 175 170 165.1 161 154 148.8 148.6 147.4 147.3 147.4 147.2 147.2 147.2 147 146.8 146.8 146 146.1 145.8 145.5 145.2 144.7 143.8 144.1 143.9 142.9 142.8 141.9 142 142.1 142 141.8 142.1 142.1 141.8 141.1 140.3 140 139.7 139.8 139.8 139.9 139.9 139.2 139.1 139.5 139.1 138.8 138.5 138.1 137.9 137.8 137.7 137.6 137.3 136.9 136.7 136.7 136.7 136.1 136.3 137 136.8 135.5 134.1 136.4 136.1 137.3 137.4 137.6 140.6 151.4 157.2 158.8 160.8 168.5 167.2 164.5 157.6 158.9 155.7 144.6 143.2 139.1 136.2 134.9 135.7 135.6 135.2 134 133.6 133.4 133.3 133.7 134.4 134.4 135.1 134.3 132.9 132.3 131.7 133.9 133.6 134.3 134.4 133.5 133.6 132.8 133 133.2 133.3 133.2 133.2 133.2 133 131.3 131.2 129.3 129.6 128.5 128.3 128.7 129.4 130.7 131.6
193.6 196.1 195.6 191.1 190.1 190.6 196.8 208.9 221.2 236.2 243.7 254.2 269.6 277.7 291.6 302.6 308.5 309.1 307.6 301.4 286.3 270.3 258.1 247.5 236.7 227.6 225.4 231.3 239.7 248.5 255.2 261.5 267.7 271.2 276.1 277.7 277.3 274.2 271.8 266.7 258.5 258.1 257 255.8 254.4 251.7 247.7 244.3 238 226.9 214.5 203.3 194.4 188.9 185.1 183.8 182.2 182 183.8 187.8 189.1 186 183.4 179.3 175.5 170.4 170.2 171.6 176.9 180.8 178.6 178.9 179.8 178.7 177.8 174.5 168.9 164.5 156.6 151.2 156.8 152 147 146.7 146.7 146.7 146.9 147 146.8 146.6 146.5 146 145.9 145.6 145.3 145 144.3 143.5 143.4 143.7 142.9 143.1 142 139.8 142 141.9 141.5 141.9 142.1 141.5 140.8 140.8 140.6 139.4 139.4 139.5 139.6 139.6 139.6 138.9 139.2 138.9 138.5 138.2 137.9 138.3 137.7 137.6 137.5 137.1 136.9 136.9 136.6 136.4 136.2 136.2 136.6 136.1 134.9 134.4 135.9 136.8 137.4 138.2 153.2 164.4 168.6 170 169.8 170.7 170.8 172.4 172.8 176.5 170.5 154.5 148.7 144.6 141.3 137.9 138 135.8 135.8 136 137.8 138.2 136.6 136.4 136.4 139.5 140.3 139 139.3 141.4 141.3 143.2 144.3 143.6 143 140.3 138.2 134.9 134.5 134.4 132 133.5 136.1 137.7 137.5 137.7 140.8 143.4 146.5 147.1 146.5 145.6 140.1 134.1 137.9 136.2
199.7 202 199.1 192.8 189.8 191.3 202.8 217.1 225.4 236.2 248.5 266.5 277.3 293.8 301.1 308 314.1 316.9 312.5 302.5 290.6 271.5 258.3 246.5 235.7 229.8 239.5 250.6 259 261.7 266 273 277.2 279.7 283.6 283.9 281.5 276.9 269.6 265.2 265.1 264.6 263.3 261.2 258.8 257.5 254.5 250.4 243.8 235.4 218.2 208.1 202.1 196.7 193.7 189.9 191.8 192.4 193.4 193.1 190.7 187.1 183.7 179.5 175.8 172.8 171.3 173.2 179.5 179.7 181.8 181.3 179.6 178 175.2 170.5 165.9 160.7 154.4 154.1 159.4 159.1 160 150.1 145.9 145.5 146.5 145.4 145.9 146.4 146.1 145.9 145.7 145.5 145.1 144.7 144.5 143.7 143 143.2 142.8 143 142.9 141.7 139.7 141.6 141.2 141.5 141.9 141.6 141.5 141.5 140.6 139.2 139.1 139.1 139.9 139.8 139.6 138.9 138.9 139 138.8 137.9 138.7 138.6 138 137.5 137.3 137.2 137.1 137 136.9 136.7 136.4 136.4 136.1 134.1 134.1 135.9 141.1 139.8 140.3 155 168.3 178 182.6 183.8 185 185.7 182.8 183.6 182.6 173.1 161.9 160 159.4 158.2 155.1 151.4 148 148.1 149.5 151.7 150 149.7 151.5 150.2 148.5 150 151.8 152 150 149.6 154.5 158 149.9 151.2 151.7 147.6 143.5 142.1 143.6 146 148.9 150.1 151.6 154.7 156.1 158.5 160.1 162 163.3 164 163.3 160 160 154.5 151.1 150.9
202.8 202.2 199.3 190.1 190.9 194.1 204.3 218.1 230.4 241.6 262.3 280.6 289.3 297.5 305.3 315.1 320.9 319.2 310.4 301 285.7 272.6 260.5 246.4 235.5 237.8 253.4 261.2 266.4 271.4 277.9 283.5 283.8 286.7 288.7 286.1 279.7 272.9 271.1 270.1 269.3 268.6 266.8 264.5 263 262.5 258.3 251.4 244.8 237.1 228.2 222.8 216.2 204.6 199.8 195.3 195.4 194.8 193.8 191.2 187.7 184.6 181.7 178.1 174.9 172 173.8 172.7 173.7 176 177 175 173.9 171.4 168.8 166 165 158.8 154 159 161 162.2 164.2 164.1 163.7 162.3 159.8 145.6 144.5 144.7 146.1 145.9 145.5 145.2 144.8 144.4 144.2 144 142.6 142.7 142.4 142.4 142.3 142 141 139.5 141.3 141.5 141.7 141.5 141.3 141.1 140.3 139 138.7 140 139.8 139.7 139.6 139.1 138.5 138.6 138.7 137.6 138.1 137.7 137.5 137.6 137.3 137.3 137.3 137.2 137.1 136.7 136.8 136.7 136.3 134.5 135.1 136.7 137.9 142.3 156.8 168.9 178.3 185.5 190 195.6 194.9 192.2 187.6 182.3 177.5 179.8 179.4 177.2 185.5 184.3 178.4 171.7 178.5 177.2 177.6 176.9 172.4 166.3 168.8 170.2 169.7 167.6 167.6 166.6 164.6 163.6 166 165.9 160.6 158.4 157.8 155.7 155.7 154.6 154.9 159 168.7 166.8 168.7 173.2 177 179.1 178.9 179.2 179.7 179.7 177.4 171.9 168.5 163.3 158.5 148.4
203.6 201.7 194.5 191.4 191.3 193.8 206.1 222.8 238 257.4 278.1 289.7 294.5 297.7 309.9 320.9 320.4 312.8 308 297.5 285.4 272.1 260.3 248.2 239.1 250.5 258.9 265.7 274 281.2 283.8 287.5 287.4 292.2 287.8 279.2 276.5 275.5 274.2 273.9 272.9 271.4 269.5 267.8 266.6 263.3 256.2 249.6 244.2 239.4 235.6 229.7 224.5 214.7 204.1 199.7 195.3 194.1 190.9 188.4 185.5 181.1 177.9 174.4 173.6 173.6 172.5 172.8 171.9 170.5 169.6 169 167.9 166.3 165.6 164.2 163.6 158.2 157.8 162.5 164.6 165.6 167.4 168.5 167.6 164.2 161.6 160.1 150.3 144.1 145.4 145.5 145.5 145 144.5 144.1 143.8 144 142.7 142 141.6 141.5 141.3 141.3 142.5 141.9 142.3 141.9 141.3 141.1 140.9 140.8 140.4 139.3 140.1 139.8 139.7 139.6 139.5 139.3 138.1 138.3 138.4 137.6 137.7 136.8 137.7 137.1 136.6 136.8 137 137.2 137.1 135.4 136.3 136.3 134.4 135.1 137.7 141.6 143.7 157.4 170.9 177.3 183.4 187.8 188.3 189.7 188 187.9 189.6 190 190 193.5 195.9 196.6 199.7 206.2 209.8 202.3 209.1 208.4 203.2 196.8 193.4 187.7 188.3 194.1 193.8 191.2 187.8 181.6 184.9 183.9 184.7 182.3 177 172.8 172.9 177.7 179.7 179 177.5 176.7 181.4 186.4 189.1 195.9 199.8 200.4 202.3 203 201.9 203.3 194.4 183.1 177.7 169.2 162.6 154.3
204.2 198.8 193.9 191.1 191.4 193.9 207.5 223.5 249.1 268.5 282.9 291.9 297.8 301.8 313.5 322 316.3 309.5 305.2 292.8 278.2 266.1 255.5 246.3 253.5 261.9 267.2 273.7 281.2 285.8 287.6 289.7 291.5 288.6 282.1 282.1 280.8 278.5 276.1 276.1 275.1 273 270.8 268.9 265.2 259 252.8 247.9 243 241.6 237.7 231.8 224.8 217.8 210.1 200.9 196.1 193.4 186.1 182.1 180.3 176.9 174.9 173.6 173.6 173.7 174.5 173.1 171.5 169.3 168.1 167.3 165.7 165.4 163.1 162.8 162.1 157.5 160.2 165.8 166.1 169 171.6 170.8 168.7 165.4 163.3 161.9 159.9 159.1 143.8 144.6 145.4 144.9 144.4 143.8 143.4 143.6 143.6 142.6 141.6 141.2 141.4 141.9 142.1 142 141 141.6 140.9 140.8 140.8 140.7 140.5 139.7 139 139.5 139.2 139.1 139 139.3 139.1 139.3 138.8 137.9 137.7 137.7 137.4 137.2 136.9 136.7 137.2 137.3 136.5 136.3 136.2 134 134.7 139 144.3 144 156.5 169.2 176.5 182.2 186.7 188.2 188.5 189.9 192.8 194.6 195.5 195.8 196.7 205.2 214.2 218.5 223.6 234.6 236.3 236.5 254.2 234.7 226.9 221.4 213.4 209.8 211.3 216.3 215.5 211.6 210.3 202.9 208 208.3 206.8 202.5 201.4 196.1 191.3 196 198.9 204.6 210.3 209 209.6 217.5 220.5 214.3 213.6 215.6 218.4 221.4 228.7 225.2 213.8 198.9 188 179.7 172.8 168.1
204.3 200 195.9 191.3 191.5 193 203.1 228.2 257.6 270.6 282.3 291.9 304.6 314.9 315.6 315.2 307.4 300.8 291.4 281.3 269.2 258.1 254.2 260 267.1 273.8 277.1 281.3 286.1 287.9 288.6 288.9 289 286.2 286.9 284.1 282.7 280.3 277.9 276.8 276.4 274 270.2 265.9 258.9 251.8 247.6 241.9 240.4 236.7 232.8 227.7 222.7 216.9 210.7 203.9 204.1 198.6 192.1 182.2 179.2 175 173.6 173.4 173.8 174.1 173.7 171.5 170.2 169.8 168 168.3 164.8 163.1 162.9 162.6 159 157.7 165.7 167.8 173.3 174.5 173.9 172 169.5 167.7 165.8 163.5 161 159.8 147.7 144.8 145.3 144.7 144.1 143.5 143.2 143.1 143.3 143.3 141.9 142.6 141.6 145.4 141.6 141.5 140.5 140.4 140.6 140.7 140.6 140.5 140.4 140.1 139.8 139.4 138.9 138.7 138.6 139.4 139 137.9 138 137.2 137.3 137.6 137.3 137.2 135.7 136.2 136.3 137.2 137 136.8 134.1 134.3 141.2 144.7 145 155.3 168.6 175.5 181.4 185.1 188.5 193.5 196.4 198.3 199 199.4 199.4 201.2 203.5 208.8 219.1 229 241.5 249.4 258.7 256.4 260.2 263.8 257.8 245.7 237 230.6 230.3 233.2 236.5 232.1 227.9 224.6 224.3 223.3 222.2 219.2 216.6 212.5 211.4 216 220.3 225.8 229.5 231.8 231.5 231.7 232.6 234.8 238.7 240.6 238.8 239.2 238.2 232.2 225.9 217.5 205.4 193 183.6 173.9
206.5 204.5 199.9 194.1 191.7 192.8 203.8 228.7 258.8 268.9 281.8 300.6 322.1 319.7 316.8 312.3 300 285.8 277.9 270.5 262.1 259.3 264.1 274.3 281.8 284.5 286.2 287.5 287.7 286.3 285.3 285.1 288.1 290.1 288 285.8 283.5 280.6 277.9 277.4 275.9 270.8 266.2 257.9 250.8 245.9 240.5 235.6 233.7 230.2 227.9 222.1 216.9 215.1 215.2 212.4 207 199.2 191.5 181.8 178.5 175.3 174.1 174.1 174.4 173.7 172 171 170.1 169.2 168.2 166.8 165.1 164.1 163.8 162.8 159.1 165.1 170 173.2 176.8 175.8 174.3 172.8 172.4 174.5 175.5 171.6 162.5 159.6 150.1 143.9 144.3 144.4 144.8 143.8 143.1 143.4 142.2 141.6 141.5 141.6 144 152.9 147.6 144.7 147.7 145.7 138.7 140.3 140.5 140.4 140.3 140.1 139.9 139.5 138.8 138.3 139.5 139.5 139.1 137.7 137.7 137.4 137.3 137.5 137.3 137.2 137 136.7 136.7 137 135.7 134.5 134.1 143.3 150.9 155 158.2 168.7 177.8 184.2 189.4 192.2 196.4 199.5 204.7 209.8 211.6 212.3 214.4 216.1 216.8 216 224.3 239.6 250.1 259.3 266.7 265 262.4 263.2 262.4 265.8 263.7 260 256.2 255.5 257.3 256.9 249.5 244.2 242.1 247 248.2 243.1 237.9 231.5 228.7 245 251.8 255.3 258.6 260 256.7 253.6 254.4 246.8 250.2 251.5 253.9 252.2 247.6 243.2 237.5 229.9 221.7 211.8 201.3 187.4
212.9 211.1 205.6 200 194.3 192.8 205.8 230.6 256.9 268.1 282.9 313.7 322.9 314.4 310.5 304 290.7 279.9 268 262.2 262.1 269.6 283.7 287.3 289.9 291.6 291.9 289.6 287.4 286.1 286.9 291.7 292.6 290.5 288.9 285.9 282.4 279.3 277.5 276 271.2 264.3 256.8 250.1 244.8 239.2 232.7 227.8 226 222.9 223.7 224.4 223.4 221.1 216.4 212.8 206.1 197 185.6 181 179.5 178.6 176.3 175.4 174.4 173.3 172.2 170.9 170.3 169.5 168.5 168.1 168.4 167.4 164.3 159.9 165.2 170.4 175.4 176.5 177.5 177.2 178.1 177.8 180.3 182.4 183.3 178.6 167.7 161.6 158.3 151.2 150.9 146 144.6 143.7 143.2 143.6 143.1 141.7 141.3 141.5 153.7 156.4 157.3 158.8 163.7 150.7 153.8 139.8 140.3 140.3 140.3 140 139.9 139.7 139.6 139.7 138.9 138.6 138 138.3 137.7 137.6 137.5 137.3 136.3 136.1 136.8 136.4 136.1 137.1 137.1 134.1 143.2 155.5 163.3 168.3 171.7 182.2 191.8 195.3 198.6 203.9 208.6 213.9 218.7 222.4 226.4 227.5 228.5 229.5 229.6 228.1 231.3 241.8 257.1 263.8 265.2 267 264.7 268.1 268.1 267.9 271.1 271.8 271.2 270.7 275 276.9 264.6 257.7 255.3 260.4 262.7 259 254.3 249.7 246 256.8 267.7 271.5 273.7 273.3 274.7 276.1 277.1 273.1 258.6 258.1 259.1 259.9 257.3 254 253.2 246.3 237.9 228.3 219.1 208.6
217.8 217.4 212.8 206.2 197.6 194.8 208.2 231.4 252.2 266.5 297.9 316.6 312.3 302.9 296.9 290.7 280 268 262.9 266.6 272.8 287.2 292.3 293.2 294.4 296.3 293.3 290.4 288 290.1 290.8 294 292.9 291.4 288.3 284.6 280 277.2 273.6 270.8 262.7 253.8 247.8 242.5 234.2 228.9 224.9 221.9 221.7 221.4 224 223.8 222.4 220.1 217 209.3 201.7 194.1 184.3 187.1 188.7 186 181.3 177.3 174.7 173.5 172.4 171.5 170.7 170 170.2 171.5 171.8 166.4 161.9 166.2 174.4 175.7 178.1 178.3 180.2 181.2 182.8 185.5 187.5 189.8 189.5 183.7 171.7 163 159.5 157.9 157.2 155.6 144.6 144 143 142.7 143.1 141.8 143.2 155.4 158.1 164.3 162.9 167.4 171.9 160.8 162.1 154.5 138.3 139.3 140.5 139.6 139.9 139.7 139.6 139.3 139.2 138.8 138.2 138.8 138.2 137.7 136.9 136.7 136.6 136.8 136.6 136.4 136.5 136.1 133.8 139.9 158.1 165.5 170.2 181.6 187.8 189.6 197.6 202.5 210.7 218.5 225.6 231.8 236.5 238.9 240.9 240.1 239.1 239.5 240.4 246.6 248.4 251.1 260.1 268 267.8 267.9 269.8 273.8 274.1 275 278 276.7 276.1 276.2 278 276.4 275.1 268.4 269.9 271.9 272.9 272.3 270.7 265.8 264.7 267 279.4 286.8 291.7 290.2 291.6 290.4 288.1 282.7 270.4 264.3 263.8 264.2 263.5 260.6 258.3 259 253 249.3 241.3 229.2
218.9 219.8 217.8 211.5 199.5 195.5 211.6 236.5 257.7 270.9 303.9 306.6 301.8 297.3 287.4 275.7 268.4 263.9 267.4 276 285 292.9 295.4 301.1 300.6 297 293.8 292.2 293 293.6 292.9 294.9 293.8 290.2 285.5 281.2 277.1 274 269.5 259.2 250.6 246.5 239.5 233 226.9 220.7 217.1 216.7 218.7 218.9 219.3 218.5 217.4 217.9 212.1 204.4 197.4 190.7 190.1 195.4 196 190.5 185.5 179.7 176.9 174.9 173.5 172.4 171.6 171.7 172 173.7 169.7 163.9 161.3 175.1 177.6 179.3 179.8 180.6 182.9 185.6 188 190.8 193.5 196.2 194.9 188.6 178 165.5 161.1 158.2 157.2 155.8 148.1 143.2 143.5 143.2 143.6 146.5 154.7 158.2 161.4 166.6 168.3 172.8 176.1 178.6 154.1 158.8 150.6 139.8 139.6 140.2 139.8 139.6 139.4 139.3 139.1 139.1 137.7 138.2 137.3 138 137.9 137.1 137.3 137.1 136.9 137 136.8 134.3 140.8 150 165.6 174.2 186.9 190.1 198.9 200.8 207.5 215.2 224.9 233.9 241 247 251.5 255.3 256.9 255.6 254.4 253.1 252.8 254 255.5 258.8 264.5 273.9 274.7 273 276.4 277.8 279.8 281.3 282.3 281.3 281 281.3 283.5 284.6 282.4 275.4 275.1 278 280.7 281.3 280.2 277.5 276 277.2 282.6 290.2 296.9 297.5 299.7 299.9 299.3 295 287.3 278.1 272.1 269.1 267.4 264.6 261.8 263.1 260.7 258.9 251.4 238.8
221.3 218.1 214.3 209.7 196.4 204.5 216.6 241.6 261.3 275.7 294 295.8 293.4 284.8 275.8 264.8 262 266.3 275.8 284.1 291.9 298.1 301.9 302.5 299.8 296.5 297.5 299 296 294.5 297 295.5 290.8 285.3 281 276 273.7 266.8 255.3 247.8 241.8 234.6 227.7 223.1 218.6 213.7 210.9 212 213.1 212.1 212.3 213.4 216.5 212.5 204.7 197.3 191.9 190.8 195.7 201.6 199.8 194.1 189 182.4 179.2 176.8 174.5 172.4 171.4 171.2 171.6 170.2 165 165.9 175.2 176.7 178.7 180.2 181 182.4 185.6 188.3 191.6 195.9 199.4 201.8 199.2 190.9 179.8 168.4 163.5 158.7 155.7 155.1 150.8 143.6 144 144.2 150.2 155.9 158 164.7 166.7 167.1 171.7 176 177.1 176.2 165 160.5 156.6 152.4 140 139.1 139.4 140.1 139.6 139.7 139.9 139.7 138.9 138.4 137.6 138.1 137.5 137.5 137.5 137.4 136.5 136.6 136.4 134.1 143.5 157 169.3 183.1 200.2 204.6 206.6 214.8 221 228.7 239.3 247.1 255.9 257.1 264.7 267.3 270.3 271.3 268.8 268.5 268 268.5 268.6 270.2 271.9 280.4 282.8 284.5 287 284.7 286.5 289.7 290 287.6 287.7 288.5 288.1 289 289 282.5 280.3 283 285.5 287.2 286.3 285.4 283.9 285.2 287.3 296 301.3 302.6 303.7 304.1 306.6 307.2 301.4 291.5 279.8 273.5 269.2 267.3 267.1 266.1 263.6 260.2 249.3 240.9
219 214.3 209.9 204.7 198.7 208.2 221.3 248.3 269.2 279.5 284.3 283.9 279.5 270.8 262.2 260.5 262.9 275.7 281.9 290.8 298.5 302.8 303.3 301.3 301.6 304.2 302.6 299.9 302.4 300.5 297.3 293.5 286.6 279.6 271.2 267.2 263 248.5 241.6 234.2 226.4 222.4 217.6 213.7 209.6 207.1 206.1 204.6 204.8 203.9 204.3 205.8 204.4 201.7 195.5 190 185.8 191.7 199.4 205.3 202.7 197 190 184 179.7 176.6 173.8 172.5 171.2 169.9 166.7 164.7 168.4 174.1 178 178.5 180 180.6 182 185.2 188.1 191.4 196.4 201.7 205.9 207 200.2 190.8 181 175 168.3 161 156.8 155.4 147.2 144.4 144.6 148.8 155.4 156.9 161.4 167.7 168.3 170.6 173.8 174 173.6 172.1 169.8 164.8 165.2 158.9 143.4 139.5 139.9 138.6 139.3 139.6 138.2 139 139 138.6 138.1 138.5 137.9 137.3 137.4 137.4 136.8 134.8 134.1 138 158.6 166.9 174.4 190 209.4 211 211.1 219.8 233.2 243 251.8 256.8 258.8 264.2 272.3 276.2 277.3 279.7 278.9 277.6 283.3 284.5 283.3 279.2 281.9 284.1 287.2 290.5 290 290.5 294 294.5 294.2 293.1 292.8 293.3 294 294.5 294.9 293.3 287 287.8 290.2 292.6 292.2 291.8 291.3 293.5 294.2 298.5 303.7 306.1 306.9 307.1 308.7 311.1 307.3 298.7 287.4 279.1 277.1 277.1 275 270.3 265.9 262.4 247.9 238.9
214.8 210 203.8 201 200.2 209.1 228.7 262.3 276.3 275.5 276.3 268.6 265.7 261.3 260 260.5 267.9 276.5 288.5 296.1 302.1 304.4 301.6 304.2 307.2 305.5 304.1 305.9 303.3 300 293.3 287.6 277 265.5 258.9 254.3 242.7 232.6 225.9 221.2 215.4 211.4 207.7 204.2 200.4 200.9 199.8 196.4 197.6 195.9 195.7 195.8 195.4 192 184.6 182.8 185.2 193.8 202.4 206 202.1 195.3 188.7 182.1 176.9 174.5 173.2 170.6 169.6 168.5 168.8 169.3 173.7 177.2 178.4 179.7 180 182.1 184.2 186.9 190.8 195.1 201.1 208.2 211.3 207.2 199.4 190.9 187.7 183.2 175.7 164.7 158.3 155.1 150.4 145.1 146.3 155.1 158.2 160.6 164.7 166.6 169.3 172.6 173.4 173.4 173.8 172.7 171.2 171.5 165.8 160.1 152.9 139.9 139.2 138.9 139.5 139.6 139.6 139.1 139.2 138.3 139.3 137.7 137.4 137.8 137 136.8 137.1 134.1 138.3 154.3 164.9 172 179.5 197.3 213.8 214.3 214.1 222 238.3 252.6 258.9 258.9 258.2 266.2 278 280.9 282 285 283.9 281.1 286.5 288.1 285.7 286.4 289.5 283.5 292.6 294.3 294.4 295.1 295.9 296.5 297.7 298.1 297.4 297.4 297.1 300.2 303.4 298.6 292.2 294.4 296.3 298.1 298.5 298 297.5 299.2 300.1 303.1 305.8 308.9 310 310.5 311.1 311.1 307.8 301.7 295.3 288.5 286.7 283.1 278.3 275.3 272.4 267.8 258.6 245.4
209.9 205.4 199.9 198.8 204 214.3 232 254.6 266.3 269.5 267.9 264.8 260.8 259.6 259.7 263.2 270.4 278.7 289.9 295.6 300.8 301.6 303.6 307.9 308.6 308.2 308.9 304.1 300.2 290.9 281.3 274.3 263.1 251.3 243.7 234.1 226.5 220.5 216.4 212.3 207.8 201.9 198.8 195.2 195.2 193.4 192.4 189.6 189.1 188.4 187.7 187.9 187.4 182.7 180.3 180.1 183.2 189.2 198.6 198.5 195.6 190.7 184.7 178 174.8 172.9 171.5 171.8 170.6 171.5 171.1 171.2 172.6 177.3 178.6 179.8 181.5 183.8 186.5 189.4 193.4 198.9 206.2 210.5 210.3 206.7 199.5 195.2 191.9 187.1 177.8 163.3 156.9 154.4 151.5 147.1 153.2 158.9 163.2 164.6 163.7 164.8 168.9 172.8 175.2 175.8 177 176.9 172.8 171.5 169.6 158.5 153.8 139.2 138.5 138.9 138.8 138.2 137.8 139 139.6 138.5 138.6 137.6 137.6 137 136.7 138 134.8 134.7 149.5 161.1 169.2 173.7 190.4 207.9 219.9 216.7 215.6 224.9 237.7 252.8 262.9 259.6 259.4 264.6 274.7 283.3 286.5 288.2 289.7 289.1 293.9 294.6 292.7 293.3 296.1 294.8 298.6 294.7 294.7 295.3 298.4 298.9 302.5 305 303.7 301.9 301.1 302 303.3 299.4 299.6 301.3 303 304.4 304.5 304 303.5 303.6 303.7 309.3 310.9 312.6 312.6 313 313.2 313.5 312.6 305.9 303.1 298.6 297.4 295.8 291.5 284.7 279.1 268.1 258.1 245.3
205.7 201 198.7 205.2 211.1 221.1 237 253.3 261.7 266.3 264.9 262 259.8 259.5 260.8 266 274.1 284.8 291.9 295.4 300.4 300.8 302.3 304.8 305 305.9 301.3 295.2 282.6 275.6 273 259.7 244.7 233.8 224.9 219.2 216.8 210.2 206.3 202.2 197.7 194.5 192.7 189.2 190.4 189.2 186.6 185.8 183.7 181.1 179.4 179 179.2 179.3 179.9 179.9 180 184.7 188.4 189.4 188.1 183.2 179.6 174.8 174 172.2 172.1 173.1 172 172.5 173 172.3 172.3 173.7 177 179.1 181.4 185.4 188.2 192.2 197.6 202.8 207.1 208.9 208.3 203.4 199.1 195.5 191.3 183.1 173.9 159.5 155.8 153.1 149.4 152.4 156.7 161.6 164.8 163.3 162.6 165.4 169.7 174.1 177.4 179.6 181.3 180.7 177.1 171.4 169.3 157.3 153.8 142.2 138.7 138.2 137.8 137.6 137.5 137.5 138.6 138.5 138.5 137.8 138 137.3 137.3 137.8 134.1 142 159.3 168.1 171.4 179.1 199.5 217.3 221.9 220.5 219.7 227.6 239.3 251.2 261.7 260.3 260.6 266.3 270.2 280.7 291.4 292.5 296.8 297.5 301.7 299.9 300 299.8 299.5 300.7 298.8 304.8 311.1 312 310.5 312.3 314 315.4 316 313.4 312.5 312.5 310.2 305.8 306.6 308 309.6 310.2 310.6 310.1 308.8 310.9 311.2 313.8 314.6 315.9 316.6 317 318.8 320.8 320.1 316.1 311 309.1 305.1 298.4 295.4 289.5 281.7 269.6 260.1 249.3
200 201.1 204.7 208.5 218.4 233.2 244.5 252.9 258.2 265.8 263.1 260.3 259.8 260 265.1 272.3 281 288 291.5 294.1 295.6 291.7 292.7 292 291 288 280.1 271.2 265.1 262.9 252.5 240.5 229.8 221.5 215.1 210.6 206.8 199.6 194.7 193.3 189.6 189.1 188.2 189.3 189.7 187.9 185.8 182.9 180.4 178.6 178.3 180 177.5 177.3 178.1 178.4 178.3 178.9 180.4 180.4 180.1 177.9 175.7 174.5 172.6 173.1 174.1 173.9 173.3 173.2 173.1 172.4 171.8 172.5 174.3 179.6 183.3 186.5 189.9 193.6 199.3 203 206.1 206.7 204.4 201 198.7 194.8 187.3 175.6 165.5 159.2 156.2 154 150.3 154.9 158.9 161 162.3 162.7 164.2 168.5 172.2 177.9 182.6 184.8 186.5 185.9 180.6 170.5 165.6 166.4 153.4 145.7 138.3 138 137.6 137.4 137.2 137.2 138.4 137.1 137.2 137.7 137 137.7 137.8 134.4 137.4 153.3 166.3 171.4 174.2 187.9 206.6 218.5 222 220.4 221.8 225.8 239 252.9 259.2 262.9 267.3 272.5 276.2 285.7 297.2 304.6 307 309.2 311.5 310.1 307.6 307.5 305.5 303.5 303.2 309.7 319.9 324.6 326.8 326.2 325.1 323.1 323.8 325.2 326.5 326.1 319.6 315.2 315.1 314.8 315.6 316.1 316.5 317.1 316.4 318 319.8 321.8 322.9 322.8 322.2 323.4 325.9 327.6 326.4 324.5 318.8 317.9 316.3 314 307.2 302.2 293 280.7 269.8 260.2
201.6 205.2 212.1 218.8 227.3 237.5 247.4 254.1 262.8 263.9 259.5 257.3 258.2 264.1 269.5 276.2 280.6 283.5 285.5 285.3 284.2 278.9 271.3 269.9 268.9 263 258.1 251.3 248.8 243.8 236 229.1 221.6 214.2 209.3 204.2 200.3 194 189.1 188.5 187.8 187.6 188.6 189.5 188.3 186.1 184.2 183.5 180.1 179.8 179.2 179.9 179.5 178 177.8 177.1 176.4 177.2 176.8 178.2 176.5 175.8 175.7 175 173 174.1 175.4 174.8 174.2 173.3 173.1 172.6 172.2 172.3 175.7 180.7 183.8 187 190.9 195.7 199.1 202.9 203.5 202.4 199.8 198.8 197.3 190.1 179.3 166 160.8 158.3 156.9 157.4 153.1 155.3 158.1 158.8 161.8 165.3 168 171.3 179.4 184.9 189.7 191.6 192.6 189.9 180.1 169.7 165.7 165.2 150.5 144.5 138.2 138 137.8 137.4 137.3 137.7 137.8 138.3 137.7 137.1 136.9 137.4 136.1 134.4 146.6 160.6 169.1 173.2 177 194 214.8 222.2 223.1 220.4 221.5 225.6 241.3 251.3 259.9 259.8 263.7 274.8 278.4 290.2 304.5 315.2 317.6 321.4 322.9 320 317.2 312.2 310.7 309.9 310.5 315.4 325.6 332.2 334.7 334.2 332.2 330.2 330.2 331.6 334.1 335.1 333.4 329.6 325.3 324.3 327.6 330.5 331.3 329.9 327.7 326.2 327.8 329.6 330 328.7 327.9 331.2 333 334.4 333.1 327.7 327.7 328.3 330.5 329.1 323.5 317.7 308.8 297.9 287.1 282.4
203.5 207.4 211.6 219.4 229.7 239.1 247 255.1 262 260 257.6 256.6 257.8 264.6 270.3 273.7 276.6 278.3 279.4 279.7 276.6 262.1 253.5 249.5 246.2 242.9 240.7 239.2 236.1 232.6 229.3 221.8 214.2 207 200.8 199.3 196 189.1 187.4 188 188.4 187.5 187.3 187.4 186.7 184.8 183.8 182.5 180.8 180.8 180.7 179.9 179.3 180.1 178.6 176.2 175.9 176.7 176 175.9 176.4 176 176.6 176 173.5 174.3 175 176.5 176.6 173.6 173 171.8 172 172.7 176.5 180.3 184 187.4 190.9 195.8 199.4 200 198.6 197.1 195.5 195.6 189.9 183 168.2 161.7 159.7 159.1 159.1 157.2 154.2 156.1 158 161.3 165.6 169.8 172.6 177.6 182.8 189.5 195.7 197.6 194.4 185.2 175.4 166.2 162.2 157.6 151 141 137.8 137.9 138.1 137.8 136.8 136.3 136.3 136.3 136.1 137.3 136.2 137.6 134.5 142.2 155.8 167.5 172.8 176.9 180.2 197.2 217.9 224.6 221.2 219.9 221.2 227.5 241.3 251.6 257 261 270.6 280.4 284.2 296.1 307.4 321.7 325.3 331.1 333.4 328.2 322.2 316.2 313.2 320.3 323.9 319.7 327.8 335.7 340.8 343.5 342.8 338.9 337.9 337 341.7 340.3 341.1 339.8 336.8 336.7 341.2 343.7 345.4 345.4 341.7 335.5 337 336.5 335.4 334.4 334.9 339.1 340.2 341.2 337.5 331.1 333.7 336 342.4 341.7 335.7 328.6 319 311.4 304.1 302.4
208.4 212.2 215.6 222 230.9 239.2 247.4 255.7 259.4 257.6 256.6 255.5 257.1 263.1 268.6 269.5 270.9 271.7 272.8 268.1 258.8 248.3 241.6 240.6 233 229 231.6 231.8 229.9 226.2 222 211.7 206.5 202.3 195.9 192.8 189.1 186.8 186.3 187.5 187.7 185.5 185.7 185.5 184.4 183.3 183.3 183.5 183.3 185.1 184.7 182.2 180.8 180.2 177.6 175.7 175.5 175.7 176.2 175.9 177.2 176.9 176.8 175.3 174.1 174.1 174.9 177 177.6 174.7 172.7 172.6 172.7 173.6 176.9 180.6 184.8 188.1 192.9 196.1 197.3 195.7 192.7 191.1 191.5 188.5 182.6 171.4 165.6 162.8 160.6 160.6 159.9 157.2 154.8 158.6 160.4 164.6 168.7 176.1 183.5 188.1 188.5 192.2 196.9 194.4 186.9 178.2 166.7 160.7 155.4 149.8 142.5 139.4 138 138.3 136.7 136.3 138.7 138.6 138.1 138.5 137.9 136.3 134.1 134.1 138.5 149.2 160.2 168.5 175 182.9 182.8 197 211.3 217.2 218.2 220 221.9 228.5 240.6 249.3 258.8 264.8 271 279.9 288.4 300 312.7 327.5 335 341.9 343.7 337.3 327.1 319.5 319 327.1 331.5 330 330.6 337.8 345.3 348.1 347.4 344.6 344 345.6 349.5 349.7 350.4 353.2 349.1 349.1 354.6 360.4 361.5 361.1 357.4 351.9 345.8 343.7 341.5 340.9 341.4 347 348.4 346.5 341.9 340 340.8 342.1 345.1 344 341.5 336.7 328.7 327.5 322.1 317.3
213.8 218 224.2 231.5 237.3 243.1 247.6 255.2 257 255.8 255.3 256 260.7 264.5 268.1 267.5 267.7 263.3 256.5 248.2 243.1 238.1 234.1 232.4 225.8 224.7 224.5 223.7 221.5 218.1 215.1 206.2 198.4 195.5 192.4 190.3 188.1 186 185.9 186.1 185.2 183.9 183.1 182.5 182.1 182.6 185.4 189.8 195.2 195.8 189.3 185.6 182.9 181 176.8 175.8 175.3 175.3 176.4 176.7 176.8 177.3 175.3 174.5 174.5 174.4 176.3 179.6 181.2 178.4 174.7 174.2 173.4 175.6 177.6 181.2 185.6 189.4 193.7 193.1 191.3 188.5 188.9 187.7 186.2 181.7 173.8 170.3 168.1 164.3 162.3 161.2 160.6 157.5 159.2 163.7 166.8 171.6 176.8 185.9 193.4 194.1 191.6 190.2 192.1 187.4 179.6 170.9 161.6 154.5 148.1 141.2 138.3 137.6 137.5 137.7 138.2 138.4 138.5 138 138 137.7 137.5 137.4 134.2 138.5 145.8 153.5 161.1 168.7 177 187.4 186.2 192.9 205.2 211 215.8 219.9 223.4 231.2 244 254.4 263.4 268.6 273 280.7 289.5 305.9 322.2 337.6 347.1 354.6 351.2 344.1 333.1 324.8 321.6 326.1 332.6 338.9 340.2 346.2 349.9 353.8 352.6 350.6 350 351.5 354.3 356.7 359.1 359.2 360 361.3 369.1 372.5 374.7 374.3 370.9 364 354.9 350.5 349 347.7 346.6 350.1 354.4 349.8 346.6 346.1 347.7 349.3 349.7 348.2 345.9 339 339.2 335.3 334.3 332
217.9 221.7 229 235.6 241.3 247.6 255.8 257.3 257.1 256.4 256.4 257.7 262.9 265.2 266.2 266 263.4 256.1 245.6 239 234.3 231.6 228.4 225.8 222.9 220.4 216.4 216.4 214.5 207.6 207.6 200.7 197.7 195.1 192.5 190.1 187.2 185.1 184.5 183.9 183.1 183.8 182.9 182.2 184.8 188.1 193.1 199.3 204.8 201.9 195.5 188.8 185.8 181.2 177.3 176.1 175.9 175.4 175.3 175.8 175.4 175.2 174.5 174.4 176.3 177.1 183.4 186.2 187.2 183 177.4 175.4 175.4 178 180.3 182.9 186.4 190 189.7 189.2 188.2 188.9 187.5 185.5 183 178 177.2 174.3 170.6 165.6 163.9 162.1 161.9 161.1 162.6 168 172 177.2 186.4 193.9 197.2 191.7 189 189.5 187.3 179.9 172 162.8 154 147.4 140.1 137.5 137.5 137.7 138.5 138.5 138.3 138.3 138.3 138.4 137.2 137.2 137.2 137.1 138.2 141.7 149.6 155.2 160.4 169.1 177.3 186.7 189 190.6 202 209.4 215.2 220.3 224.1 236 248.1 257 265.2 270.1 274.9 280.4 298.5 313.4 326.4 343.1 356.6 360.2 356.9 350.5 341.9 329.3 324.2 332.3 339.4 344.1 345.9 353.9 360.2 364.4 363.8 361.1 356.9 358 359.8 361.7 365.5 367.1 371.2 374.3 378.2 382.9 382.2 381.5 378 372 365 359.9 355.9 353.9 353 354.3 356.4 353.6 349.4 351.1 353.2 354.7 355.7 354 352.2 349.5 350 344.9 343.5 340
222.3 227.6 232.3 240.1 247.8 256.4 262 261.4 259.8 259.4 260 262.4 269.1 272.5 267.7 261.6 256.1 250.8 242.9 238 233.7 230.3 225.9 222.6 221.2 219.5 216.8 214.6 212.5 211.1 208.4 204.4 200.9 197.7 192.1 188.7 185.5 184.5 184.4 183.8 183.9 183.9 183.3 184.4 192.6 197.1 201.8 211.8 212 208.9 204 198.4 189.6 183.1 178.9 177.1 178.2 176.6 178.2 178.2 176.8 176.2 175.8 179.3 183.4 188.3 192.8 195.3 192.7 186.2 180.5 177.9 179.3 182.4 184.3 187.2 188.8 189.9 191.1 192.1 192.3 191.6 191 188.6 186.6 183 183.3 177.3 171.9 167.6 164.9 165.5 163.5 162.8 165 170.1 175.4 183.2 191.3 196.4 193.3 187.8 185.8 184.9 180.4 173.4 164.7 156.3 145.3 137.7 137.4 138.9 138.6 138.1 138.4 138.4 138.3 138.2 138.2 138 137.7 137.7 137.5 138.8 138 143.7 150.5 151.2 159.3 168.1 177.4 185.8 189.9 196.3 203.6 208.7 213.6 218.8 231.3 238.3 249 258.1 266.9 273.2 279.5 286.2 302.3 317.1 328 345.6 357.3 358.6 357.3 352.6 344.5 337 334.4 339.9 346 352 352.1 356.8 368.2 372.4 371.3 370 370.6 372.9 372.7 373.9 374.3 377.6 384 388.2 388.3 390.3 389.5 387 383.6 377.2 372.1 366.8 363.3 362.3 360.6 361.5 360.3 358.6 356.6 356 358.4 359 359.6 359.6 358.3 357.4 360.6 357.8 357.9 352.2
228.9 236.1 239.9 246.3 257 263.4 263.6 262.3 262.1 264.4 264.3 268.4 274.7 276.5 273.9 260.9 254.5 249.1 243.8 239.5 236.7 234 230.2 227.3 226 223.9 221.2 219.8 216.1 214.7 213.3 212.6 207.5 199.3 193.1 190.7 185.5 184.5 183.9 184.2 184.1 183 185 191.5 197.5 203.9 212.1 220.3 217.7 214.6 209.3 203.2 195 187.5 181.9 178.7 177.8 177.1 178.7 178.7 178.1 177.4 178.6 184.6 190.8 194.9 200.2 201.3 195.5 190.8 183.2 180.8 183.5 188.1 190.7 194.1 194.2 193.9 194.2 195.6 196.1 194.4 191.5 189.3 187.9 186.8 186.2 180.9 174.5 170.2 167.2 165.3 164.4 165.2 167.6 172.5 179 186.6 193.4 193.2 188.3 183.3 181.6 178.5 173.4 166.7 154.4 150.7 137.5 138.3 139.2 138.9 138.6 138.4 138.3 138.3 138.2 138.1 138 137.2 137.1 138.1 139.9 137.6 137.8 137.9 150.5 156.6 160.7 167.5 173 182.6 190.6 200.3 204.7 209.6 213.6 221.1 232.9 239.6 250.8 260.8 267.1 275.2 283.4 292.2 304.3 317 329.5 343.6 355.3 356.6 355.3 349.9 345.4 344 341.3 344.3 353 355.9 356.7 362.4 372.1 375.5 378.3 381.7 382.1 381.6 380.9 381.6 383.7 388 391.1 393.4 393.4 394.2 394.4 391.9 388.1 381.3 377.2 373.8 370.7 369 367.1 365.3 363.4 361.9 360.7 360.9 362.3 365 365.6 365.5 364.2 362 365.5 363.6 367.7 365.1
238 244 248.9 257.1 264.6 267.3 265.5 268.5 270.2 271.4 274.2 275 277.3 279.1 278.9 263.7 256.7 250.5 248 246.8 244.5 239.2 235.8 233.5 230.6 226.4 225.4 224 220.6 218.6 218.8 216.5 210.6 205.1 196.1 189.1 185.8 185.6 184.8 184.5 184.7 185.6 192.4 199.8 204.5 212.5 221.8 222.3 220.7 217 212.9 208.4 202.2 196.2 186.2 181.1 178.4 178.5 178.5 178.8 180.3 180.3 184.4 191.3 198 202.8 206.7 209 207.1 197.7 190.7 187.9 190.6 197.7 200.5 201.5 203.4 202.8 208 207.7 203.5 198.8 194.4 190.8 188.8 187.4 189.8 185.5 178.4 171.1 166.6 165.2 167.6 167.2 170.2 175.7 182.3 188.7 191.3 187.5 183.5 180.2 177.8 172.6 166.8 159.4 147.7 146.6 137.3 137.4 139.4 139.2 138.7 138.3 138.4 138.3 138.3 138.2 137.2 137.2 137.9 138.4 138 138.4 137.8 137.4 150.3 159.2 168.7 173.4 176 179.8 190.8 198.2 203.3 208.1 214.1 225.3 234.7 242.6 254.2 261.8 266.9 274.5 284.1 295.8 308.7 321.2 332.2 343.9 355.8 358.2 358.8 354.8 351.1 350.1 346.9 348.3 355.4 360.8 362 365 373.6 384.5 391.6 392 392 390 389.2 395.3 399.3 400.9 398.9 398.2 398.7 398.9 399.3 398.1 394.3 387.8 383.1 379.6 376.4 373.6 370.3 368.6 366.9 365.8 365.2 364.1 365.6 366.9 368.6 369.5 370.7 368.4 369.8 369.3 370.2 370.1
249.1 251.4 258.2 267.1 273.3 272.4 273.7 275.3 276.5 277.8 280.3 281.4 284.5 287.7 284.7 271.6 262.8 256.6 256.3 253 248.8 243.5 239.9 237.1 232.9 229.5 227.2 224.6 224.2 223 221 218.8 212.5 206.2 195.6 189.4 186.9 185 186.4 186.8 187.9 190.8 198.5 203.7 209.3 222.2 225.4 221.7 218.2 217.1 216.8 211.5 205.1 198.5 187.5 182.7 180.5 181 180.6 180.1 183.5 187.1 193.2 200 209.5 218.9 217.8 216.3 216.2 213.4 208.6 206.1 203.6 209.3 212.9 216.1 218.8 219.2 219.1 216.7 210.5 205.3 201 194.9 188.4 192.9 195.5 190.7 180.6 171.1 167.5 166.9 171.1 170.9 172.5 178 184.1 187.7 187.2 184.4 180.5 177.9 172.6 167.3 160.8 152.9 147.7 144.1 138.4 137.4 138.2 139.1 138.7 138.4 138 138.4 138.4 138.1 138 137.5 137.2 137.9 137.4 138.5 137.8 142.5 153.9 163.5 171.1 178.4 183.2 187.5 193 200.1 208.7 211.3 219 229.7 239.2 248.1 257.2 263.5 267.5 275.3 286.4 298.8 311.5 324.8 330.6 349.1 357.5 360.1 360.7 359.3 355.1 353.9 352.8 353.3 356.8 363.4 366.4 369 382.1 394.6 402.5 402.2 403.2 403.6 403.2 406.1 408.7 409.3 409.7 407.2 405.6 406.1 406.8 404.6 400.4 395.8 391.2 385.9 382.5 378 373.9 370.9 369.1 370.2 369.3 369.9 368.4 370.9 372.6 374 374.7 375.6 373.2 373 373.6 375.7
258 261.6 270.6 276.1 277.2 275.7 279.7 283.1 284.4 283.9 286.9 288.9 292.6 293.6 290.4 277.5 269 264.4 260.3 255.9 252.6 246.1 242.3 238.2 235.4 231.4 227.3 225.5 225.3 226.8 224.5 220.6 212.8 201.1 192.9 190 189.6 189.5 190.1 190.4 191.1 194.1 202.1 208.7 217.3 226.4 222.6 218.3 214.6 215.7 215.4 211.2 205.8 199.6 188.7 184 184.8 185.4 184.9 186.9 192.2 197 205.7 219.5 228.4 230.7 231.3 232.3 231.9 231.2 229.1 225.9 223.6 228 234.5 239.9 241.3 237.2 229.4 224.5 220.1 217.8 210.6 202.9 192.3 194.5 194.7 188.8 177.7 170.7 168 171.1 173.3 173.5 175.9 180.7 183.9 184.9 182.2 178.6 178.1 174.1 167.5 162.1 155.6 148.8 146.2 142.6 138.7 137.4 137.4 138.4 138.8 138.4 138.1 137.9 138.4 137.2 138.3 138.1 138.8 137.6 138.9 138.7 137.7 145.8 157.2 167.6 173.5 180.9 187 189.8 198.3 211.7 214.8 218.4 224.7 233.7 242 251.2 257.8 264 268.9 280 290.4 302.5 314 322.7 331.1 348.3 357.7 358.3 357.8 357.6 357.6 357.5 356.1 357.3 358.4 364 370.7 374.8 387.6 402.1 409.9 409.8 410.3 410.7 411.9 415.5 417.8 415.6 412.7 412.4 412.4 412.2 411.2 407.8 405 402.4 398.8 393.3 388.8 384.5 378.4 374.1 372 372.4 373.2 373.7 374.2 375.9 376.9 378.1 379.8 380.1 379 375.6 378.5 381.8
265.8 270.7 278.3 281.2 279.8 281.4 286.7 288.8 290.2 291.3 295.4 297.9 299.9 297.4 292.2 284.1 273.4 266.6 261.1 256.9 252 246.1 243.7 239.3 234.2 229.8 227.7 223.1 222.2 221.4 217.7 211.9 204.8 196.8 197.8 197.9 196.7 194.3 193.4 194.8 195.3 202.3 206.7 215.2 220.5 219 214.4 211.5 211.1 211.7 211.2 209.6 204.5 199.9 191 186.5 189.8 191.4 194 199.2 205.1 215.2 225.5 237 243.2 246.9 254.3 256.2 252.8 248.9 248.4 245.3 244.7 249.4 258.9 260.4 256.7 252 244.3 235.2 230.6 224.2 217.5 208 198.3 191.7 187.8 180.5 175.4 171.7 173 175.8 173.8 176.1 178.9 180.5 181.7 180.5 178.2 174.7 171.8 166.8 161.6 155.8 150.5 147.3 144.9 140.3 137.7 137.4 137.6 138.4 139 138.7 138.3 137.9 137.9 137.5 138.6 139.1 137.9 137.9 138.2 139.1 137.8 152.2 163 169.5 175.7 180.9 187.6 199.3 209.7 215.5 219.3 227.3 234.6 241.5 247.4 253.3 259.2 267.4 275.2 283.9 294.5 306.7 316.6 323.2 336 350.4 354.9 354.9 357.3 360.6 363.4 364.5 365.2 363.5 363.1 365.2 373.3 378.5 388.1 402.7 412 416 415.2 415.7 418.8 422.2 423.6 423.1 420.5 418.8 418.8 417.9 416.2 413.4 410.7 407.3 403.7 400.1 393.4 388 383.7 379.2 378.6 377.3 377.3 377.6 379.1 380.3 381.1 382.5 385.6 386 386.1 381.7 385.8 391.5
