ncols 200
nrows 86
xllcorner 180000
yllcorner 791450
cellsize 50
456 449.6 450.7 443.2 451.6 468.8 475.6 476.7 467.8 465 466.8 460.3 475.6 492.3 502 505 484.9 472.3 468.1 452.4 438.9 438.1 427.7 415.6 401.6 405.8 414.4 427.5 438.1 442.8 449.3 454.3 459.7 459.3 464.1 465.4 464.3 449.6 449.4 430.1 416.4 418.1 427.5 416.7 404.8 411 433 429.7 426.4 439.5 431.9 419.6 412.8 419.8 419.9 397.6 391.7 380.7 358.4 348.6 331.7 292.4 266.6 256.4 229.5 208.4 190.4 178.4 164.9 157.1 154 149 144 146.6 153.8 167.7 170.5 163.7 160 161.3 159.8 149 145.8 140.1 137.8 133.1 128.5 121.1 111.2 101.5 84.7 85.2 85.2 96.7 100.1 99.6 94.2 87.8 84.2 75.1 70.3 67.5 64.8 63 66.6 65.9 59.6 45.9 46.8 43.7 27 16 9.8 8.2 11.2 23 24.4 7 -1.8 -1.8 -1.1 -0.7 1 2.4 2.4 2.4 2.4 2.4 2.4 2.6 2.7 4.2 5.4 11.2 32 50.2 78 104.9 129.3 154.3 176.3 191 214.7 239.3 266.6 288.2 295.4 347.4 388.6 402.9 399.4 399.1 415 418.1 418.8 424.5 430.5 433.5 440.8 448.3 468.3 485.3 496.1 511.4 533.2 569.2 594 585 584.4 562.7 557.6 549.7 543.4 533.4 537.2 528.8 511.6 500.6 490 495.5 498.2 485.4 480.9 482.7 488.7 497.9 485.8 476.5 473.3 476.3 480.4 474 480.6 479.9 491.2 489.9 493.9 494.8 496.2 496.2
437.6 434 426 420.8 431.1 444.1 462 461.7 459.8 458 450.9 456.8 465.6 479.6 486.9 498.4 486.3 464.2 455.7 446.2 435.6 433.2 426.3 411.4 399 407.8 410.6 420.4 434.7 429.1 435.6 449.2 450.3 445.5 451.9 454.4 446.4 429.2 417.1 404.2 394.3 392 395.7 391.6 392.4 398.9 417.3 399.7 400.5 410 410.2 398.4 386.3 389.9 396.6 382.3 378.3 372.8 335.7 319 302.1 272.5 247.4 229 210.8 194.4 176.7 164.9 155.7 145.9 136.4 132.7 126.3 133.2 135.9 144.7 152.2 145.9 140.9 143.6 144.6 140.5 137.3 134.7 131.7 124.5 115.8 104.5 93.8 86.4 69.8 66.3 65 69.3 74.5 79 76.3 73.2 67.4 58.9 54.1 51.8 52.3 53.4 56.8 58.1 50.5 29.3 28.2 19.8 7.7 3.6 4 4.6 8.5 23.2 15.5 2.1 -1.8 -1.2 -0.5 -0.1 0.8 2.4 2.4 2.4 2.4 2.4 2.4 2.5 2.9 3.8 7.3 33.1 53.9 77.6 104.3 136 166.2 181.1 198.6 216.3 243.9 260.9 296.1 311.6 332.9 361.1 395.1 406.8 409 409 418.7 427.2 427.6 440.9 447.8 446.8 448.9 460.6 478.3 490.6 513.2 514.4 542.4 550.7 560.2 564.5 562 538.1 520.2 510.5 501.4 508.8 508.2 496.3 493.1 491 481.9 475.6 472.5 468.5 456.3 450.9 453.6 455.9 457.5 476.5 468 455.9 466 460.9 465.1 461.8 471.6 468.5 487.7 492.3 491.9 496.3
423.4 421.1 407.3 401 415.6 421.3 428.5 431.3 441.3 448.7 448 454.4 462 467.9 476.9 474.3 478.6 460.7 447.5 441.8 433.2 432.1 430.3 415.1 398.2 407.3 409.7 425.6 422.8 424.5 424.7 436.2 440.7 440.2 434.6 437.1 421.2 401.6 387.8 378.5 373.8 368.6 378.2 383.5 382.5 389.4 379.3 365.7 369.1 367.3 374.2 364.9 360.1 372.4 380.3 368.2 359 347.4 330.3 300.8 277.5 255.9 232.8 214.3 197.7 182.2 168.8 155.7 144.4 132.6 126.4 117.6 118.5 117.8 123.3 123.3 128.3 129.9 134.1 137.2 137.2 136.9 137.3 127.3 119.1 108.7 97.1 91.8 79.7 67.7 54.9 49.1 43.3 47.7 55.8 60.6 58.5 51.3 43.5 40 38.8 41.3 38.1 37 36 35.5 30.6 12.6 5.7 2.3 2.4 2.4 2.4 3.5 8.1 18.4 16.7 -1.8 -1.8 -0.6 0 0.6 0.9 2.4 2.4 2.4 2.4 2.4 2.4 2.5 3.6 5.2 16.6 45.5 78.7 98.8 131.1 161.8 190.2 208.4 224.7 247.3 274.4 288.9 323.9 335.9 361.5 379.5 403.2 410.7 409.3 413.4 420.8 426.6 436.1 452.5 467.8 462.5 456.2 465.5 477.4 507.2 515.3 517.1 525.8 533.4 536.7 530.1 524.4 511.3 491.8 480.4 470.7 485.8 475.8 468.6 455 456.8 452.3 462 460.1 441.9 434.6 437.2 435.1 455.3 461 460.7 448.5 442.1 440 440.9 440.9 444.9 454.6 469.6 486.4 482.8 486.2 486.4
408.7 414.2 392.4 385.8 395.2 397.9 400.4 405.9 430.4 442.2 450.6 460.6 463.8 465.7 455.7 455.1 452.3 449.2 437.4 432.1 428 425.5 426.3 408.5 397.9 412.7 412.4 417.1 418.9 415.1 417.6 425.5 428.2 422.3 419.4 407.9 391.9 372.8 359.7 357.3 352.1 355.8 353.5 363.3 361.1 364.8 346.7 334.9 340.7 339.1 342.1 332.6 338 352.3 356.7 353.1 342.2 325.7 302.1 276.3 258.6 243.3 223 205.3 190.6 176.2 160.3 146.3 133.8 122.3 114.2 107.1 108.1 107.1 108.7 110.7 125.4 133.8 132.3 130.5 129.1 125.8 119.5 109.5 101.9 95.5 84.2 73.7 63.4 54.1 43.3 36.6 35.8 37.2 42.8 41 36 30.5 27 24.1 20.3 21.7 24.6 24.3 18.8 15.4 4.1 1.1 0.5 0.6 1.3 1.9 2.4 3.3 11.6 14.8 -1.8 -1.8 -0.9 0.1 0.8 1.1 1.5 2.4 2.4 2.4 2.4 2.4 2.8 2.9 7.3 29.4 44.7 62.8 107.8 120 154.8 175.2 214.9 237.1 252.4 283 301.2 318.7 348.1 357.9 368.2 388.1 413 411.3 410.5 417.5 416.8 419 440.6 462.5 478.3 472.6 467.6 468.4 483.9 508 512.7 516.6 517.8 515.9 506.2 502.1 494.1 478.5 460.4 446.5 440.8 442.6 440.8 433.2 423.4 425.4 424.3 429.3 434.8 419.7 413 418 443.5 445.4 436.1 430.1 427.8 429.9 440.4 444.6 437.4 441.3 447.7 459.2 476.7 474.6 470.2 475.4
396.5 395.8 378.1 373.7 381 386.5 391.4 396.3 418.4 432.5 449.3 462.7 451.5 450.3 444.8 431.2 434.2 429.4 424.2 418.7 422.8 412.1 415.3 397.3 394.6 412.4 414.7 409.7 403.9 410.5 404.6 412.9 406.7 407.4 413.6 389.2 360.8 348.7 338.8 330.4 337.8 337.8 332.8 333.2 323.9 329.8 317.2 306.6 304.9 307.6 299.5 309.4 316 336.1 334.2 333.4 325.8 308.2 284.6 257.4 249.5 226 213.9 200.6 183.2 166.3 148.1 132.9 121.6 113.6 105.2 97.8 98.4 99.1 100.4 109 119.4 123.2 118.9 120 121.8 114.2 106.4 95.8 88.1 79.7 67.9 56.7 48.8 49.2 35.1 25.3 32.2 35.7 46.2 37.9 31.4 25.6 20.1 17.5 13.7 12.6 15.7 12.6 7.9 1.8 -1.8 -1.8 -1.8 -0.6 0.1 0.8 1.6 2.5 17.3 7.8 -1.8 -1.2 -0.2 0.7 1.5 1.9 2.3 2.3 2.4 2.4 2.4 2.4 2.7 12.1 28 55.3 84.1 101.1 125.2 140.1 172.5 192.6 226.6 249.7 277.6 303.5 321.3 338.4 360.9 371.7 376.2 391.4 405.4 405.3 413.7 424.3 416.8 418.8 441.8 465.3 484.6 479.6 469.8 467.7 479.1 488.7 499.7 503.4 506 495.6 479.4 460.5 451.7 446.1 429 421 422.8 422.6 421 406.5 400.3 394 394.6 398.8 395.7 392 398.9 412.2 425 424.1 413.4 410.2 417.1 426.5 429.8 427.3 429.6 438 444.6 446.9 457.5 456.9 457.7 462.4
374.6 378.2 375.2 369.7 373.8 377.4 381.2 397.2 415.5 427.6 438.4 440.7 428.3 423.2 419.2 415.2 406.8 409.1 406.8 411.7 410.1 398.8 393.3 380.7 385.3 415.8 404.7 399 393.8 393.3 396 395.6 386.7 397.5 384.9 366.7 339.4 325.1 320.3 312.8 316.8 315.2 313.8 302.6 296.5 306.6 293.4 283.1 281.4 284 270 278.9 294.9 318.1 315.4 299.8 295.6 293.9 260.3 236.6 226.3 206.8 193.5 189.9 181.4 161.8 141.9 125.4 112.6 104.7 96 88.4 90.4 90.5 88.8 96 106.6 112.1 104.7 110.9 109.8 106.1 96.8 78.6 70.1 62.5 51.3 33.8 30 23.7 17.6 17.1 25 28.3 39.3 33.9 24.7 20.2 15 7.6 6.2 6.5 5 -1.8 -1.8 -1.8 -1.8 -1.8 -1.8 -1.3 -0.4 0.5 1.4 2.3 5.9 1.3 -1.8 -1 0.2 1.3 2.2 9.7 8.7 2.1 2.4 2.4 2.1 2.4 3.8 31.1 51.7 68 96.2 125.5 142.9 157.8 185.3 198.2 224.9 254.2 282.3 308.7 322.1 340.3 354.9 375.3 384.3 385.8 391.9 410.1 423.6 421.9 416.8 424.4 444.2 457.1 466.5 477.7 476.5 469.8 482.3 491.8 493 484.7 486.8 465.9 456.6 436 433.2 429.7 412.8 408.7 411.1 413.4 401.4 391.4 382.4 377 371.6 370.2 374.6 383.9 390.4 411.8 405.1 398 400.6 403.5 406.9 415.7 425.6 433 445 441.8 442.9 445.4 448.2 450.7 455.9 469.3
361 365.1 360.7 363.6 373 371.8 383.1 393.3 409.6 416.8 423.1 412.5 414 406.5 403.7 399.6 405.4 389.1 388.9 392.9 392.5 383.9 374.8 357.5 371 393.1 390 385.7 383.1 388.6 384.6 374 371.2 370.6 359.6 344.6 329.2 311.9 304 294.3 304.4 304.1 292.9 285.7 273.6 274.4 266 266.4 271 257.9 252.5 267.3 276.1 283 286.6 268 267.2 253.9 233.5 218.3 203.9 193.5 178.4 172.2 160.8 146.5 130.8 116.8 104.6 95.7 89.3 77.2 81.9 78.3 80.7 90.6 93.1 94.2 89.1 94.6 97.3 96.8 81.6 63.2 46.5 39.9 35.6 19.2 12.8 9.1 8.4 7.9 11.8 16.1 21.5 22.5 13.8 6.3 2.6 1.9 2.3 -1.8 -1.8 -1.8 -1.8 -1.8 -1.8 -1.8 -1.8 -1.3 -0.4 0.4 1.2 1.8 1 -0.1 -1.8 -1.1 0.1 1.4 5.2 17.5 2.7 2.4 2.4 1.1 1.5 7.4 17.5 47.6 88.4 106.1 127.2 149.4 159.5 167 186.6 192 203.6 234.4 269.7 290.8 311.1 332.3 355.4 361.2 371.7 383.2 391.8 412.2 421.2 418.8 419.3 424.4 433.5 441.9 443.1 459.2 475.1 471.1 484.8 491.7 476.6 460.7 448.3 434.2 420.6 407.5 400.7 394.1 390.8 399.2 402.2 393.9 385 377.5 370.9 362 352.2 368.7 381.3 390.6 386.7 390.3 400.8 402.9 401.6 408.2 413.2 424.7 433.3 447 464 461.4 454.9 449.9 448.8 453.7 466.6 474.1
349.1 351.9 351.5 358.5 366.6 368.4 379.8 386.8 394.4 403.1 404.7 399.5 395.7 396.4 394.1 379.9 382.7 375.4 366.6 370.8 366.2 366.8 354.4 335.6 353 378.4 377.1 374.3 372.2 378.4 364.4 361.4 359.1 353 341.5 325.7 315.6 298.2 284.7 277.3 286.4 285.1 286.2 282.1 259.4 249.5 253.1 246.6 257.8 244.8 252.5 253.6 250.3 261.3 256.1 241.2 234.9 228.8 217.6 205.1 189.7 173.5 165 159.2 151.8 140.2 121.7 103.9 95 85.8 74.7 66.2 66.9 69.2 76 85.8 89.3 87.9 82.6 70.8 73.3 76.4 71.6 52.3 35.3 23.6 5.7 -1.8 -1.8 1.5 3.2 3.9 6.7 8.3 13 13.7 10.4 5.3 -1.8 -1.8 -1.8 -1.8 -1.8 -1.8 -1.8 -1.8 -1.8 -1.8 -1.8 -1.8 -0.6 -0.1 0.4 0.7 -0.4 -1.8 -1.8 -0.7 0.2 1.3 6.9 2.4 2.4 2.4 1.2 3.2 10.5 26.9 39.9 86.5 112.2 120.2 123.8 137.7 155.6 154.3 161 175.9 176.7 197.2 223.6 257.6 279.3 315.2 341 338.1 354.3 362.4 376.7 408 413.3 414.5 426.3 431.4 426.5 426.4 423.8 428.1 445.7 455.7 468.2 459.2 444.9 422.9 408.9 403.3 396.6 385.1 373.4 367.8 376 388.6 392.7 378.3 368.7 365 357.6 347.9 361.3 378.7 396.8 405.7 396.7 392.4 400.3 410 402 407.9 422.5 456 456.3 472.2 471.6 468.3 460.1 463.9 457.7 476.3 486 481.5
339.3 350.5 346.8 364.4 369.6 376.4 386.4 385.9 391 395.1 391.4 387.1 381.2 377.1 367 364.2 361 359.8 352.7 346.5 347.9 346.6 338.1 322 335.5 352.7 369.6 360.5 355 353.5 347.6 335.6 343.1 325.4 316.4 311.9 298.5 276.2 261.3 256.3 262.9 270.7 280.4 264.2 246 235.7 226.6 222.8 235.2 230.3 235.8 242.8 229.7 237.5 231.6 226.6 226.4 208.5 196 191.4 183.6 160.4 152.9 149.7 145.8 126 108.7 95.5 81.4 72.3 64.1 58.7 56 65.6 68.5 75.1 84.7 86.7 79.6 66.7 62.3 59.1 46.1 35 23.1 10.7 -1.8 -1.8 -1.8 -1.8 1.5 1.8 1 4.2 10 14.2 9.7 -1.8 -1.8 -1.8 -1.8 -1.8 -1.8 -1.8 -1.8 -1.8 -1.8 -1.8 -1.8 -1.8 -1.4 -0.9 -0.3 -0.3 -1.8 -1.8 -1 0 1 1.6 2.1 2.4 2.4 2.4 2.6 13.3 25.7 48.8 70.3 95.6 96.2 95.6 108.9 113.2 134.4 138.1 135.5 140.3 147.7 164 186.5 211.3 230.9 277.2 295.7 311.4 330.5 340 357.1 392.1 400.2 397.1 402.7 408.7 418.2 411.6 404.4 409.9 420.4 431.6 431.8 426.6 407.6 394.5 393.5 381.5 374.1 366.7 349.5 348.5 361 370.1 363.3 363.8 355.1 342.6 353 361 362 374.2 390.1 409.7 404 403.3 416 408.2 402.6 412.7 439.8 462 478.9 475.5 480.4 471.6 474.4 477.6 474.6 497.5 502.6 490.3
333.4 339.7 359.6 383.1 369.7 377.6 380.4 383.5 376.9 377.9 373.8 375.2 364.6 358.5 350.1 343.4 338 336.6 346.3 352.3 334.7 326.4 314.2 302.3 326.6 337.1 350.8 341.8 339.7 340.2 335 314.1 304.7 297 289.6 285.6 271.7 260.9 237.4 229.7 235.6 254.2 265.3 243.6 230.9 224.6 214.7 211.9 220.1 217.5 214.7 220.5 217.5 221.9 216.6 204.8 208.1 196.3 189.1 174.4 163.7 154.8 152.4 144 135 117.7 102.8 85.1 70.2 59.5 52.8 52.5 61.2 63.8 67.1 72.3 81.3 76.4 73.8 57.2 49.2 47.7 33.5 25.3 12.1 -1.8 -1.8 -1.8 -1.8 -1.8 -1.8 -1.8 0.4 1.4 7.9 10.8 -1.8 -1.8 -1.8 -1.8 -1.8 -1.8 -1.8 -1.8 -1.8 -1.8 -1.8 -1.8 -1.8 -1.8 -1.8 -1.7 -1.1 -1.3 -1.8 -1.2 -0.5 0.2 0.8 1.5 1.8 2.1 2.3 2.4 10.2 36.4 32.9 52.8 73.3 75 78.2 82.3 94.8 91.7 90.1 103 113 110.5 120 134.1 143.6 175.8 205.3 232.4 263.9 282.4 303.7 312.8 333 359.6 371.6 371.2 378.9 391.3 408.3 406.3 395.2 391.8 407.6 408.6 408.5 398.6 381.2 371 366.5 362 355.8 338.3 335.9 334.9 338.9 341.5 334.5 328 322.4 351.8 368.7 362.9 364.9 379.6 404.5 419.8 422.4 408.3 419.1 412.1 415 421.2 444.7 461.5 472.7 482 482.9 482.9 497.8 496.3 490.4 501.9 509.5 503.2
339 338.7 362.6 371.6 361.7 363.6 374.5 369.6 364.7 366.4 359.6 352.9 343.8 341.4 326.2 316.6 318.6 312.8 326.1 336.2 309.1 299.1 287.9 289.2 300.1 320.1 328 322.4 321.4 318.7 304 289.6 283.2 274.5 274.2 266.6 249.6 233.2 212.7 203.9 214 229 226.6 215.4 214.4 218.6 201.9 200.9 199.9 192.6 190.9 199 201.5 201.1 187.9 185.7 189.8 182.3 174.1 158.3 154 160.5 164 144.1 119.9 104.8 91.4 72 58.6 48.4 44.1 54.6 62.8 77.1 79 79 73.5 68.8 57.8 42.6 32.2 25.7 18 3.9 -1.8 -1.8 -1.8 -1.8 -1.8 -1.8 -1.8 -1.8 -1.8 -1.8 -1.8 -1.8 -1.8 -1.8 -1.8 -1.8 -1.8 -1.8 -1.8 -1.8 -1.8 -1.8 -1.8 -1.8 -1.8 8.7 0.8 -1.8 -1.8 -1.8 -1.8 -1.3 -0.6 0 0.7 1.1 1.4 1.7 2 2.3 6.1 20.9 13.5 44.7 50.8 51.4 49.5 58.8 78.8 77.7 68.7 80.6 89.8 87.8 99.9 104.8 118.8 148.6 180.4 225.9 254.6 261.9 288 290.2 316.3 340.7 351.1 353.3 356.6 363.4 374.2 376.6 378.9 381 374.5 374.5 379.7 363 349.8 343 343.4 341.1 334.6 337.6 330.7 329.9 327.6 325.3 316.1 317.2 335.2 356.2 366.3 363 366.7 390.5 409.7 420.9 420.6 413.8 425.4 426.8 444.9 442 456.2 466.3 485.9 496.3 494.6 493 499.8 511.4 512.9 521.2 522.1 522.8
350.8 350.1 359.5 361.6 361.3 353.4 360.7 346 343 349.8 348.6 340 327 325.6 300.8 294.3 290.6 288 296.4 298.9 282.6 273 276 275 284.3 307.8 307 296.3 295.6 290.2 275.9 262.9 254.7 255.4 250 236.3 229.5 213.1 195.8 189.7 192.3 198.8 189.4 200.3 194.7 188.1 177.2 188.3 172.1 176.7 170.4 182.8 187 171.1 167.7 162.7 165.2 156.1 158.6 155.2 151.8 158.3 155.5 138.7 101.4 80.4 71.4 60.2 47.2 38.2 50.7 59.3 63 70 72.7 69.3 65.9 60.7 50 30.4 16.7 7 6.9 3.9 -1.8 -1.8 -1.8 -1.8 -1.8 -1.8 -1.8 -1.8 -1.8 -1.8 -1.8 -1.8 -1.8 -1.8 -1.8 -1.8 -1.8 -1.8 -1.8 -1.8 -1.8 -1.8 -1.8 -1.8 11.6 2 -1.8 -1.8 -1.8 -1.8 -1.8 -1.4 -0.8 -0.2 0.5 0.8 1.1 1.4 1.7 1.9 2.2 3.1 2.4 16.6 34.5 33.3 25.9 37.4 40.5 53 39.1 51.8 58.7 63.1 71 68.9 90.1 106.9 156 184.7 213.1 222.7 243.8 259.9 308.3 313.3 343.2 339.4 339.2 342.3 339.5 344.4 350.3 350.3 347.3 352.7 344.5 333.6 320.3 318.8 317.2 324.4 325.9 323.6 321.2 324.6 319.2 310 312.3 317.8 337.8 353.5 367.1 360.6 377.7 401.8 424.8 438.6 439.1 433.7 440.9 442.1 454.8 472.1 479.1 487 496.3 493.8 512.5 510.7 509 530.5 528.3 530.2 530.4 527.6
348.4 346.9 344.2 347.5 350.6 341.2 334.4 324.2 317.9 323 332.4 319.3 304 295.5 277 272.8 259.7 266.7 264.3 269.6 268.9 258 261.7 267.4 282.2 284.4 278.6 268 268.3 268.8 251 224.5 221.4 229 225.4 218.2 208.6 196.4 174.9 168.8 167.1 160.1 167.5 174 166 161.9 148.9 157.8 145.4 167.2 151.4 159 152.6 142.6 138.8 134.8 141.3 143.4 142.4 131.8 135.7 132.7 118.5 127.3 96.8 61.3 51.9 46.3 34.4 31.3 37.3 44.8 56 57 52 53.8 47.7 46.2 36 17.3 -1.8 -1.8 -1.8 0 -1.8 -1.8 -1.8 -1.8 -1.8 -1.8 -1.8 -1.8 -1.8 -1.8 -1.8 -1.8 -1.8 -1.8 -1.8 -1.8 -1.8 -1.8 -1.8 -1.8 -1.8 -1.8 -1.8 -1.8 1.9 0 -1.8 -1.8 -1.8 -1.8 -1.8 -1.6 -1 -0.3 0.2 0.5 0.8 1 1.2 1.5 1.6 1.8 1.7 1.8 2 2.2 2.7 10.7 22.8 20.5 17.5 29.7 34.8 38.5 40.2 45.8 56.8 81.1 109.5 150.3 176.1 186.5 194.9 238.8 267.3 282 312 321.4 324.6 323.7 326.3 319.3 326.2 323.1 319.7 322 319.5 313.6 302.5 288.7 295.1 307.3 314.3 316.5 311.3 311.5 305.4 309 311.3 321 334.6 347.5 356.4 375.3 403.7 417.4 437.3 438 453.9 451.2 449.1 460.5 489.1 497.9 493.6 493.8 504.7 513.1 520.8 515.3 534.9 554.4 549 546.9 544.9 537.4
344 331.3 328.1 333 329.7 326 308.7 305.9 298.4 301.8 300.1 288.1 279 274.4 255.8 244.5 227.3 231.5 235.1 245 233.4 255.8 262 254.4 250.6 257.9 249.7 243.1 252.8 246.4 223.5 201.4 195.5 200.2 204.8 190.1 190.7 176.8 150.9 138 133 131.3 141.5 133.8 133.1 141.7 127.1 120.4 125.6 144.2 127.4 124.3 119.3 112.3 108.4 126.1 137.1 132.8 122 133.3 128.7 115 101.1 98.1 79.6 43.6 29.3 19 12.4 12.8 19.4 29.5 40.9 39.9 37.4 29.8 36.5 37.3 15.8 -1.8 -1.8 -1.8 -1.8 -1.8 -1.8 -1.8 -1.8 -1.8 -1.8 -1.8 -1.8 -1.8 -1.8 -1.8 -1.8 -1.8 -1.8 -1.8 -1.8 -1.8 -1.8 -1.8 -1.8 -1.8 -1.8 -1.8 -1.8 -1.8 -1.8 -1.8 -1.8 -1.8 -1.8 -1.8 -1.8 -1.8 -1.1 -0.5 -0.1 0.1 0.4 0.6 0.8 1 1.1 1.1 1.1 1.1 1.3 1.5 1.6 2 1.7 3.6 3.5 4.5 10.9 15.4 22.5 26.6 32.5 57.4 73.8 102.8 138.7 154.6 183.4 209.7 216.2 223.2 253.9 290 299.6 311.3 313.8 305.8 300.3 296.2 299.2 299.6 291.7 291.1 283.7 303.4 310.5 309 299.6 300.4 308 301.1 303.5 308.6 316 339 342.8 363.7 374.3 388.8 423.5 429.5 439.1 441.2 448.6 469.3 456.7 463 498.4 499.4 498.5 505.5 508.7 518.5 524.6 539.6 556.2 562.2 562 564.1 555.2 550.1
328.1 317.9 319 309.5 311.5 301.9 294.5 279.7 282 278.6 272.1 259.5 250.4 239.8 230.8 215 200.5 199.7 207.7 208.9 210.5 231.8 246.5 224.7 216.9 212.9 221.1 229.9 227.9 212.9 207.3 184.5 174.6 170.7 167.7 165.9 170.2 159.2 127.8 118.5 110.1 102.6 98.8 96.3 100.8 110.1 108.9 103.8 107.3 100.7 94.1 90.6 89.8 95.7 96.6 104.4 107.5 103.9 134.4 132.1 125.3 107.3 97.5 76.7 53.2 26.8 12.1 5.8 6.3 7.1 6.3 9.7 15.3 21.2 27.7 19.7 17.5 12.3 2.1 -1.8 -1.8 -1.8 -1.8 -1.8 -1.8 -1.8 -1.8 -1.8 -1.8 -1.8 -1.8 -1.8 -1.8 -1.8 -1.8 -1.8 -1.8 -1.8 -1.8 -1.8 -1.8 -1.8 -1.8 -1.8 -1.8 -1.8 -1.8 -1.8 -1.8 -1.8 -1.8 -1.8 -1.8 -1.8 -1.8 -1.8 -1.3 -0.8 -0.5 -0.3 -0.1 0.1 0.4 0.5 0.5 0.5 0.4 0.4 0.6 0.7 0.7 1.1 1.6 2 2.3 1.9 1.6 3.1 5.7 9.7 12.1 29.8 49.2 74.4 97.8 130 172 174.9 175.4 181.7 194.5 243.1 281.5 296.8 294.9 293.6 292.9 285.3 291.5 290.8 283.7 279.1 289.4 307.7 320.6 328.8 319.5 306.5 300.9 302.3 303.3 312.3 326.7 347.7 359.3 372.2 402.1 413.3 426.5 445.9 439.7 457.1 463 487.6 476.9 490 499 511.4 528.5 520.1 527.3 529.4 524.8 551.6 560.6 562.2 561.6 571.7 560.2 548.4
305.9 299.8 301.9 289.8 277.3 273.9 270.5 256.2 255.6 247 237.9 219.7 213.1 203 205.3 196.3 181.8 187.8 179.1 192 201.5 206.3 211.3 199.6 190.3 177.9 199.5 202.3 199.6 194.4 186.6 167.6 157.9 146 145.9 148.4 146 131.4 113.9 106.9 92.8 82.4 69.8 72.7 79.1 83.9 87.9 88.1 86.9 86.6 72.5 71.7 78.3 72.5 77 76.2 81.6 91.8 109.6 113.2 107 92.3 83.5 63 37.5 14.8 5.1 2.4 1.9 2.4 2.3 0.9 2.2 5.4 8.3 2.6 -1.8 -1.8 -1.8 -1.8 -1.8 -1.8 -1.8 -1.8 -1.8 -1.8 -1.8 -1.8 -1.8 -1.8 -1.8 -1.8 -1.8 -1.8 -1.8 -1.8 -1.8 -1.8 -1.8 -1.8 -1.8 -1.8 -1.8 -1.8 -1.8 -1.8 -1.8 -1.8 -1.8 -1.8 -1.8 -1.8 -1.8 -1.8 -1.8 -1.8 -1.5 -1.1 -0.9 -0.7 -0.5 -0.3 -0.1 0 -0.1 -0.1 -0.3 -0.3 -0.2 -0.1 -0.2 0.2 0.7 1.1 1.5 1.9 2.4 2.4 2.4 4.1 4.5 8.5 25.5 42.2 77.3 102.4 148 147.5 143.3 141.6 150.3 206.1 247.8 260.2 278.4 278.2 279.9 274.9 280.3 276.3 280.7 282.9 287.6 306 326.1 337.5 332.3 322.3 322.3 310.3 304.3 313 331.2 358.3 380.4 383.6 393.7 427.1 434.6 436.6 440 463.7 479.7 488.4 489.6 491.3 516.1 514 524.8 529.1 537.1 528 529.1 551.5 568.1 555.8 546.5 532 529.8 536.4
278.6 273.8 276 265.9 248.7 239.7 239.3 229.5 227.8 212.6 200.3 184.2 180.5 175.5 173 173.2 168.5 154.1 158.8 176.4 185 175.6 178.9 172.6 171.7 161.5 172.8 172.2 180.9 169.2 163 157.1 147.4 131.2 130.5 138.1 127.1 107.9 96.6 85.5 77.7 59.9 49 52.9 59.2 59.5 62.9 71.5 52.3 49.2 54.3 57.4 50.8 51.4 60.8 58.4 62.2 70.6 80.2 90 84.3 76.4 55.4 33.1 17.5 5.6 -1.8 -1.8 -1.8 -1.8 -1.8 -1.8 -1.8 -1.8 -1.8 -1.8 -1.8 -1.8 -1.8 -1.8 -1.8 -1.8 -1.8 -1.8 -1.8 -1.8 -1.8 -1.8 -1.8 -1.8 -1.8 -1.8 -1.8 -1.8 -1.8 -1.8 -1.8 -1.8 -1.8 -1.8 -1.8 -1.8 -1.8 -1.8 -1.8 -1.8 -1.8 -1.8 -1.8 -1.8 -1.8 -1.8 -1.8 -1.8 -1.8 -1.8 -1.8 -1.6 -1.4 -1.2 -0.9 -0.8 -0.6 -0.5 -0.6 -0.8 -1 -1 -0.9 -0.9 -1 -0.7 -0.2 0.3 0.6 1.2 1.9 2.4 2.4 2.6 3.7 4.8 12.1 22.2 47.5 66.3 73.3 98 108.9 111.7 112.9 157 197.2 221 246 267.1 260.1 251.1 247.1 262.5 273.4 262.8 293.6 307.3 322.6 335.3 337.5 335.5 334 328.8 314.4 319.2 338.2 391 404.9 396.4 400.6 437.1 427 433.1 432.5 458.3 480.9 486.4 493.3 505.5 520.4 518.4 519.9 539.4 539.6 522.9 549.1 548.2 547.6 532.9 513.1 504.4 490.2 491.6
252.4 255.7 257 247.6 230.5 209.2 206.5 198.9 192.5 177.1 165.3 157.7 154.1 153.6 155.6 150.1 141.6 132.8 127.8 158 147.3 144.5 143.5 148.1 148.8 153.2 154 145.7 149.1 143.8 156.2 145.8 137.4 126.8 114.4 120.6 100.8 95.5 80 69.8 58 42.4 41.8 42.8 43 45 41.9 30 23.8 34.4 46.7 43.6 31 26.4 34.9 47.4 60.3 55.2 50.7 57.1 62 51.9 36.9 13.9 5.4 -1.8 -1.8 -1.8 -1.8 -1.8 -1.8 -1.8 -1.8 -1.8 -1.8 -1.8 -1.8 -1.8 -1.8 -1.8 -1.8 -1.8 -1.8 -1.8 -1.8 -1.8 -1.8 -1.8 -1.8 -1.8 -1.8 -1.8 -1.8 -1.8 -1.8 -1.8 -1.8 -1.8 -1.8 -1.8 -1.8 -1.8 -1.8 -1.8 -1.8 -1.8 -1.8 -1.8 -1.8 -1.8 -1.8 -1.8 -1.8 -1.8 -1.8 -1.8 -1.8 -1.8 -1.8 -1.8 -1.4 -1.3 -1.1 -1.1 -1.2 -1.4 -1.8 -1.8 -1.7 -1.7 -1.8 -1.8 -1 -0.5 -0.2 0.4 1.2 1.9 2.4 2.7 4 4.8 5.2 9 12.6 22.1 34 50 72.4 79 81 111 138.3 170.6 198 214.3 222.6 220.5 211.8 237.6 262.1 251.5 290 315.7 315.3 323.9 322.2 327.4 330.3 328.4 324.1 323.2 347.1 386.4 399.4 402 407.6 418.3 413.6 417.3 421.7 438.9 449.3 477.2 512.2 507.8 518.8 521.4 521.9 528.7 527.7 513.5 518.1 528 526.1 517 489.4 472.7 458.8 452
227.9 231.3 231.3 225.4 207.2 183.7 170.3 160.3 157.7 145 136.9 133.5 138 133.4 131.3 124.8 113.9 109.3 96.5 101.5 105.2 111.4 115.3 125.7 134.8 138 140.4 118.2 120.1 128 130.1 120.7 111.5 113.7 101 95.2 93.7 75.8 56.6 51 39.8 33.8 34.6 32.2 29 29.9 16.7 3.3 5.1 16.4 19.9 16.7 11.4 14.4 27.5 30.1 36.5 27.3 31.8 39 32 18.8 5.6 1.5 -1.8 -1.8 -1.8 -1.8 -1.8 -1.8 -1.8 -1.8 -1.8 -1.8 -1.8 -1.8 -1.8 -1.8 -1.8 -1.8 -1.8 -1.8 -1.8 -1.8 -1.8 -1.8 -1.8 -1.8 -1.8 -1.8 -1.8 -1.8 -1.8 -1.8 -1.8 -1.8 -1.8 -1.8 -1.8 -1.8 -1.8 -1.8 -1.8 -1.8 -1.8 -1.8 -1.8 -1.8 -1.8 -1.8 -1.8 -1.8 -1.8 -1.8 -1.8 -1.8 -1.8 -1.8 -1.8 -1.8 -1.8 -1.8 -1.8 -1.8 -1.8 -1.8 -1.8 -0.9 -1 -1 -1.1 -1.8 -1.8 -1.8 -1 -0.3 0.6 1.9 2.4 2.6 3 4.2 4.4 5.7 7.3 8.8 13.9 24.4 30.2 48.4 54.6 66 88.9 138 164.2 173.2 176.2 186 190.5 215.7 248.3 237.6 272 295.5 290.8 303.3 310.6 322 331.7 324.5 331.8 334.5 336.9 348.4 376 383.3 391.2 402.8 404.1 397.1 398.3 415.5 418.3 476.9 496.2 489.2 490 508.1 523.2 516.5 510.4 499.6 494.3 500.3 499.9 501.3 476.9 460.6 443.6 429.8
202.3 201.6 203.5 191.9 177.1 151.4 142.6 139.3 126 122.6 109.5 109.6 111.6 120 106.4 96.7 84.7 78.1 62.2 75.2 75.5 93.5 102.3 104.7 113.6 111 109.6 90.4 95.3 100 103.3 90.6 91.9 91 86.6 83 72.6 57 36.5 30.1 20.2 23.2 31 26.3 17.1 12.1 -1.8 -1.8 -1.8 -1.8 -1.8 5.2 2.4 12.5 11.9 12.1 4.2 7 13.1 20.3 18.5 -1.8 -1.8 -1.8 -1.8 -1.8 -1.8 -1.8 -1.8 -1.8 -1.8 -1.8 -1.8 -1.8 -1.8 -1.8 -1.8 -1.8 -1.8 -1.8 -1.8 -1.8 -1.8 -1.8 -1.8 -1.8 -1.8 -1.8 -1.8 -1.8 -1.8 -1.8 -1.8 -1.8 -1.8 -1.8 -1.8 -1.8 -1.8 -1.8 -1.8 -1.8 -1.8 -1.8 -1.8 -1.8 -1.8 -1.8 -1.8 -1.8 -1.8 -1.8 -1.8 -1.8 -1.8 -1.8 -1.8 -1.8 -1.8 -1.8 -1.8 -1.8 -1.8 -1.8 -1.8 -0.1 0.4 0.5 0.3 0.3 0.1 -0.4 -1.8 -1.8 -1.8 -1.8 0 0.2 2.4 2.4 2.4 3.9 4.2 5.6 5.5 7.9 8.1 11.6 17 24 30.7 38.2 55.1 83.8 123.4 147.1 146.4 174.4 177 194 217.4 225 241.7 245 274.6 292.1 293.2 304.1 311.6 317.7 314.6 313.9 309.5 317.1 328.5 364.9 367.7 389.5 393 390.7 379.4 377.8 408.6 452 462.8 474.5 477.7 477.4 494.7 494.1 494.6 489.6 480.2 464.3 456.8 454.6 446 431.3 422 411.3
174.1 166.6 163.7 151.3 142.7 123.3 111.3 118.2 108.1 100 89.7 78 83.6 86.4 70.8 58.5 55.3 47.5 33.2 46.2 56.2 80.9 89 81.9 87 84 92.1 84.1 75.5 86.5 86 74.8 76.1 78.4 78.6 56.1 50 33.9 16 5.3 7 16.1 19.4 10.4 -1.8 -1.8 -1.8 -1.8 -1.8 -1.8 -1.8 -1.8 -1.8 -1.8 -1.8 -1.8 -1.8 -1.8 -1.8 -1.8 -1.8 -1.8 -1.8 -1.8 -1.8 -1.8 -1.8 -1.8 -1.8 -1.8 -1.8 -1.8 -1.8 -1.8 -1.8 -1.8 -1.8 -1.8 -1.8 -1.8 -1.8 -1.8 -1.8 -1.8 -1.8 -1.8 -1.8 -1.8 -1.8 -1.8 -1.8 -1.8 -1.8 -1.8 -1.8 -1.8 -1.8 -1.8 -1.8 -1.8 -1.8 -1.8 -1.8 -1.8 -1.8 -1.8 -1.8 -1.8 -1.8 -1.8 -1.8 -1.8 -1.8 -1.8 -1.8 -1.8 -1.8 -1.8 -1.8 -1.8 0.5 1.5 2 1.8 2.2 2 2 1.8 1.5 1.5 1.4 1.1 1.3 1.5 -1.8 -1.8 -1.8 -1.8 -1.8 2.4 2.4 3.8 4.4 10 6.8 7.7 9.1 8.6 10.8 14.4 19.6 27.1 38.3 49.5 62.7 85.9 117.1 126.2 132.1 166.3 177 201.9 197.3 230 250.3 261.8 278.7 286.1 290.9 294.5 298.5 304.9 293.6 298.9 301.1 324.1 335.4 364.8 361.2 362.5 353.2 370.7 395.2 432.7 449.7 456.9 474.5 478.8 492.6 498.8 491.3 485 461.9 446.5 426.4 420.9 412.4 407.6 397.3 391
141 133 117.5 114.6 106.3 97.2 88.9 97.5 93.4 86.4 67.1 49.4 50.4 56.7 39.6 26.6 24.8 31.6 19.7 26 32.1 51 57.7 49.5 56.3 71.7 71.1 70.9 76.1 70.9 70.5 55.1 70.2 73.2 66.8 44.1 21.9 9.5 -1.8 -1.8 0.9 7.1 -1.8 -1.8 -1.8 -1.8 -1.8 -1.8 -1.8 -1.8 -1.8 -1.8 -1.8 -1.8 -1.8 -1.8 -1.8 -1.8 -1.8 -1.8 -1.8 -1.8 -1.8 -1.8 -1.8 -1.8 -1.8 -1.8 -1.8 -1.8 -1.8 -1.8 -1.8 -1.8 -1.8 -1.8 -1.8 -1.8 -1.8 -1.8 -1.8 -1.8 -1.8 -1.8 -1.8 -1.8 -1.8 -1.8 -1.8 -1.8 -1.8 -1.8 -1.8 -1.8 -1.8 -1.8 -1.8 -1.8 -1.8 -1.8 -1.8 -1.8 -1.8 -1.8 -1.8 -1.8 -1.8 -1.8 -1.8 -1.8 -1.8 -1.8 -1.8 -1.8 -1.8 -1.8 -1.8 4.7 1.5 6.6 6.5 15.2 15.2 29.2 29.3 28.2 15.3 13 3.1 1.5 2.7 1.9 4.1 5.8 4 -1.8 -1.8 -1.8 -1.8 2.4 2.7 3.4 5.8 14.7 8.3 8.4 9.3 10.7 12 12 15.8 24.4 39.3 62 73.6 91.1 95.9 92.5 105.4 138.5 137.6 154.2 168.2 197.1 212.2 240.7 249 253.5 251.9 260.9 268.1 273.1 280.3 289.8 288.5 291.4 284.3 286.5 309.9 323.5 338.3 348.5 386.8 417 433 447.2 475.2 478.1 464.7 473.3 454.2 446.2 438.7 434.9 402.6 377.2 372.8 364.1 360.8 358.7
108.8 103.4 85.9 83.2 80.5 87.5 80.7 79.8 83.9 72.6 42.1 21.3 22 29.7 15.6 8.6 9.2 10.6 12.6 14.8 16.7 42.4 40.6 24 29.7 48.3 56.1 68.1 75.7 74.5 39.1 39.4 53.5 58.5 45.2 24.2 2.5 -1.8 -1.8 -1.8 -1.8 -1.3 -1.8 -1.8 -1.8 -1.8 -1.8 -1.8 -1.8 -1.8 -1.8 -1.8 -1.8 -1.8 -1.8 -1.8 -1.8 -1.8 -1.8 -1.8 -1.8 -1.8 -1.8 -1.8 -1.8 -1.8 -1.8 -1.8 -1.8 -1.8 -1.8 -1.8 -1.8 -1.8 -1.8 -1.8 -1.8 -1.8 -1.8 -1.8 -1.8 -1.8 -1.8 -1.8 -1.8 -1.8 -1.8 -1.8 -1.8 -1.8 -1.8 -1.8 -1.8 -1.8 -1.8 -1.8 -1.8 -1.8 -1.8 -1.8 -1.8 -1.8 -1.8 -1.8 -1.8 -1.8 -1.8 -1.8 -1.8 -1.8 -1.8 -1.8 5.5 5.3 10.5 7.5 18.6 20.7 34.5 35.9 32.3 47.9 44.8 58.4 60.6 53.2 44.9 41.7 28.3 18.8 18.5 20.3 16.5 10.4 7.1 4.2 -1.8 -1.8 2.9 3.3 3.1 4.7 7.3 19 19 9.8 11.4 11.5 12.9 13.9 19.3 31.9 49.1 72.9 82.4 91.3 99.3 97.3 110.1 111.2 117.3 151.1 154 162.4 188.5 229.8 225.6 233.4 243.7 262.5 264.6 264.6 265.4 284.6 275.5 264.7 252 275.6 301.2 312.6 309.2 322.2 340.9 357.5 406.5 434 457.2 459.5 443.6 421.2 406.5 410.4 404.9 379.2 358.9 337.3 328.1 333.3 332 333.5
84.1 68.7 61.4 57.8 65.7 79.2 73.2 70.8 67.5 48.4 19.6 8.6 8 7.2 7.7 8.2 7.9 9 9.8 10 9.8 12.4 22.8 11.4 17.3 38.1 51.2 56.3 69.7 62.4 35.2 28.5 31.1 30 10.5 -1.8 -1.8 -1.8 -1.8 -1.8 -1.8 -1.8 -1.8 -1.8 -1.8 -1.8 -1.8 -1.8 -1.8 -1.8 -1.8 -1.8 -1.8 -1.8 -1.8 -1.8 -1.8 -1.8 -1.8 -1.8 -1.8 -1.8 -1.8 -1.8 -1.8 -1.8 -1.8 -1.8 -1.8 -1.8 -1.8 -1.8 -1.8 -1.8 -1.8 -1.8 -1.8 -1.8 -1.8 -1.8 -1.8 -1.8 -1.8 -1.8 -1.8 -1.8 -1.8 -1.8 -1.8 -1.8 -1.8 -1.8 -1.8 -1.8 -1.8 -1.8 -1.8 -1.8 -1.8 -1.8 -1.8 -1.8 -1.8 -1.8 -1.8 -1.8 -1.8 -1.8 -1.8 -1.8 -1.8 14.7 23.3 24.6 30 36.2 38.1 43.2 55.3 55.9 67.3 76.7 80.8 84.2 84.8 78.2 72.7 64.7 52.7 47.1 42.4 36.8 27.5 16.4 9.5 8.6 6.6 5.2 4.8 5.6 10.2 6.9 9.8 17.3 22.3 15.3 14.2 14.5 14.8 18 20.4 30 38.9 54.7 61.9 69.3 76.6 88.5 83.4 105.5 112.2 150.4 155.9 156 179 196.6 192.9 202.5 218 236 236.3 247.8 254.6 263.3 248.7 237.3 233.5 251.8 275.9 302.1 288.9 313.2 318.8 317.1 349.4 363.2 395.7 422.1 415.8 403.5 384.4 371.9 346 337 315.2 300.9 296.4 303.6 312.7 310.1
59.4 49.8 45.1 50.3 70.3 77.8 75.3 62.5 50.2 30.5 8.8 7.5 7.6 7.9 8.4 8.6 8.4 9.2 9.2 9.7 10.7 10.6 11.4 11.5 12.6 24.9 36.8 46.8 58.7 47.6 26.8 21 8.6 -1.8 -1.8 -1.8 -1.8 -1.8 -1.8 -1.8 -1.8 -1.8 -1.8 -1.8 -1.8 -1.8 -1.8 -1.8 -1.8 -1.8 -1.8 -1.8 -1.8 -1.8 -1.8 -1.8 -1.8 -1.8 -1.8 -1.8 -1.8 -1.8 -1.8 -1.8 -1.8 -1.8 -1.8 -1.8 -1.8 -1.8 -1.8 -1.8 -1.8 -1.8 -1.8 -1.8 -1.8 -1.8 -1.8 -1.8 -1.8 -1.8 -1.8 -1.8 -1.8 -1.8 -1.8 -1.8 -1.8 -1.8 -1.8 -1.8 -1.8 -1.8 -1.8 -1.8 -1.8 -1.8 -1.8 -1.8 -1.8 -1.8 -1.8 -1.8 -1.8 -1.8 1.8 10.5 6.3 24.6 40.2 48.4 55.9 58.2 60.4 70.1 77.3 75.9 87.7 90.3 101.7 115.3 117.2 113.5 113.7 109.8 105.4 92.4 83.1 73.6 63.6 53.9 45.9 35.7 28.3 21.9 16.9 16 15.3 20.2 21.5 15.2 18.6 25.6 32.1 23.9 20.9 18.1 20.3 25 23.1 34 41.6 49.4 57.2 67.1 65.7 63.5 85.9 82.9 105.1 121.3 138.1 150.9 159.9 166.8 174.8 185.4 197.5 220 230.9 232.8 227.6 222.6 235.1 237 234.1 234.9 235.4 243.4 256.1 301.8 296.7 296.9 301.4 318.7 371.7 362.3 383.6 372.9 368 328.9 311.6 291.3 276.8 281 277.9 284.3 290.4 290.9
35.1 35.3 48.6 65.9 93.1 95.6 89.4 67.1 46.2 24.3 9.2 6.8 7.5 8.3 8.6 8.8 9 9.4 9.9 10.3 10.6 10.7 10.9 11.5 12.2 15.2 19.6 28 29.1 24.6 12 6.1 -1.8 -1.8 -1.8 -1.8 -1.8 -1.8 -1.8 -1.8 -1.8 -1.8 -1.8 -1.8 -1.8 -1.8 -1.8 -1.8 -1.8 -1.8 -1.8 -1.8 -1.8 -1.8 -1.8 -1.8 -1.8 -1.8 -1.8 -1.8 -1.8 -1.8 -1.8 -1.8 -1.8 -1.8 -1.8 -1.8 -1.8 -1.8 -1.8 -1.8 -1.8 -1.8 -1.8 -1.8 -1.8 -1.8 -1.8 -1.8 -1.8 -1.8 -1.8 -1.8 -1.8 -1.8 -1.8 -1.8 -1.8 -1.8 -1.8 -1.8 -1.8 -1.8 -1.8 -1.8 -1.8 -1.8 -1.8 -1.8 -1.8 -1.8 -1.8 -1.8 4.8 11.1 33.1 34 35.9 63.5 86.8 88.7 95 101.7 101.2 110.5 113.9 115.6 129.7 136.3 140 155.2 159 162.3 164 150.1 140 128.3 124.8 109.7 100.4 84.7 70.5 71.8 80.5 56.9 38.7 31.6 32.3 42.6 41.2 30.1 35.6 38.9 40.8 30.7 30.4 31.4 28.3 30.4 26.9 35.7 42.7 50.7 54 58.7 50.4 57.8 61.9 88 113.3 135.5 140.6 156 161.9 159 172.8 181 185 203.4 215.9 220.9 243.2 245.7 254.8 259.6 250.9 243.3 236.9 236.5 238.3 243.1 248 250.9 266.9 284 303.4 339.4 346.2 337.1 318.8 298.4 285.4 272.7 262.7 268 267.3 274.8 275.6 276.1
34.2 44.6 42.3 70.5 91.4 80.2 84.8 66.1 39.2 19.3 6.5 7.8 8.1 8.6 9.1 9.3 9.4 9.6 10.2 10.8 11.2 11.1 11.5 12.7 24.5 22.1 25.1 26.4 27 20.2 4.3 -1.8 -1.8 -1.8 -1.8 -1.8 -1.8 -1.8 -1.8 -1.8 -1.8 -1.8 -1.8 -1.8 -1.8 -1.8 -1.8 -1.8 -1.8 -1.8 -1.8 -1.8 -1.8 -1.8 -1.8 -1.8 -1.8 -1.8 -1.8 -1.8 -1.8 -1.8 -1.8 -1.8 -1.8 -1.8 -1.8 -1.8 -1.8 -1.8 -1.8 -1.8 -1.8 -1.8 -1.8 -1.8 -1.8 -1.8 -1.8 -1.8 -1.8 -1.8 -1.8 -1.8 -1.8 -1.8 -1.8 -1.8 -1.8 -1.8 -1.8 -1.8 -1.8 -1.8 -1.8 -1.8 -1.8 -1.8 -1.8 -1.8 -1.8 2.3 4.6 11.7 23.7 39.1 55.5 57.5 75.1 99.8 116.8 134.8 147 149.4 157.5 160.1 169.2 165.5 181.4 189.8 165.1 189.2 193.2 193.2 198.8 190.4 178.2 168 155.9 144.7 136.5 121.3 106.1 105 96.6 76.2 62.5 52.8 55.7 59.8 53.9 52.8 55.5 57.7 59 45.8 43 41 38.6 37.3 34.8 30.3 34.9 35.5 38.4 50.9 66.5 73.5 69 88 104 102.2 118.7 142.1 151.7 147.7 161.6 161.2 183.9 208.4 231.3 253.6 269.8 282.2 291.7 281.5 275.3 255.8 247.3 238.8 242.2 241.2 244.2 242.3 245.4 258.5 281.2 310.3 304.7 302.6 290.7 276.4 275.6 263.7 261.2 261.2 263.3 271.6 264.2 268
25.6 33.1 32.3 51.7 76.8 65.3 67.9 52.9 31.6 8.3 7.1 7.3 8 9 9.5 9.7 9.8 10 10.8 11.3 11.7 12 18 34.6 35.4 35.8 38 33.3 24.2 4.3 -1.8 -1.8 -1.8 -1.8 -1.8 -1.8 -1.8 -1.8 -1.8 -1.8 -1.8 -1.8 -1.8 -1.8 -1.8 -1.8 -1.8 -1.8 -1.8 -1.8 -1.8 -1.8 -1.8 -1.8 -1.8 -1.8 -1.8 -1.8 -1.8 -1.8 -1.8 -1.8 -1.8 -1.8 -1.8 -1.8 -1.8 -1.8 -1.8 -1.8 -1.8 -1.8 -1.8 -1.8 -1.8 -1.8 -1.8 -1.8 -1.8 -1.8 -1.8 -1.8 -1.8 -1.8 -1.8 -1.8 -1.8 -1.8 -1.8 -1.8 1.5 3.8 8.1 4.4 6.5 4.9 6 6.3 7.5 17.4 25.9 28.4 33 43.9 52.1 68.3 78.6 85.1 118.3 139.6 157.9 169.4 184.2 192.8 199.7 198.3 210 228.9 235.9 237.5 216.5 213.8 222.5 235.2 234.8 224 212.3 198.6 182.3 170.4 152.7 149 128.4 118.5 103.9 90.4 80.1 77.5 76.2 76.2 75.1 93.4 98.9 77.1 80.6 65.5 57 57.4 59.5 53.8 48.3 46 41.7 42.1 50.8 63.2 78 90.7 86.8 88.3 99.3 120.9 135 132.5 140.8 145 153.9 167.1 180.2 206.4 239.7 274.3 294.3 319.1 312.2 295.2 285.6 272 268.9 257.8 249.3 252.6 243.7 245.8 251.5 267.1 281 282.3 267 266.7 269.6 267.1 261.2 263.7 261.2 261.2 261.2 261.2 261.2 265.5
17.8 27.3 19.3 47.4 59.3 60.9 65 58.4 20.8 7.5 7.2 7.9 8.5 9.2 9.8 10.1 10.2 10.4 11.2 11.6 12 12.7 13.1 20.9 23.1 21.2 31.9 34.3 18.9 2 -1.8 -1.8 -1.8 -1.8 -1.8 -1.8 -1.8 -1.8 -1.8 -1.8 -1.8 -1.8 -1.8 -1.8 -1.8 -1.8 -1.8 -1.8 -1.8 -1.8 -1.8 -1.8 -1.8 -1.8 -1.8 -1.8 -1.8 -1.8 -1.8 -1.8 -1.8 -1.8 -1.8 -1.8 -1.8 -1.8 -1.8 -1.8 -1.8 -1.8 -1.8 -1.8 -1.8 -1.8 -1.8 -1.8 -1.8 -1.8 -1.8 -1.8 -1.8 -1.8 -1.8 -1.8 -1.8 -1.8 -1.8 -1.8 -1.8 11.3 26.6 28.5 26.7 14.5 19.4 20 18.5 24.2 28.2 30.5 42.1 53.6 65.6 87.5 101.5 111 114.2 123.6 142.1 170.9 188.5 201.9 215.5 226.1 241.9 236.8 251.7 269.1 283.8 281.9 268.1 250.5 260.8 267 275.6 268.8 250.2 230.2 210.8 198.3 188.4 172.1 155 138.8 129.1 117.7 120.3 111.1 100.1 104.3 104.6 122.9 127.2 110.9 90.9 81.4 77.8 82.5 82.8 68.2 60.5 56.5 49.4 54 65.9 79.7 93.4 105.4 104.2 102.5 118.3 145.3 158.6 160.5 156.3 150.5 154.6 170.1 186.4 200.2 231.5 278.1 311.6 328.3 322.6 312.8 301.3 282.5 290 272 264.3 256.2 246.9 247 250.6 253.2 260.7 265 265 264.9 264.6 261.7 261.2 261.2 261.7 261.6 261.2 261.8 270.8 283.5
9.3 9.2 10.3 31.5 52.7 63.4 66.6 60.3 15.3 6.2 7.6 8.4 9 9.1 9.5 10.2 10.5 10.9 11.4 11.8 12.5 13.3 15.3 16.4 16.4 23.8 33.6 32.8 9.9 -1.8 -1.8 -1.8 -1.8 -1.8 -1.8 -1.8 -1.8 -1.8 -1.8 -1.8 -1.8 -1.8 -1.8 -1.8 -1.8 -1.8 -1.8 -1.8 -1.8 -1.8 -1.8 -1.8 -1.8 -1.8 -1.8 -1.8 -1.8 -1.8 -1.8 -1.8 -1.8 -1.8 -1.8 -1.8 -1.8 -1.8 -1.8 -1.8 -1.8 -1.8 -1.8 -1.8 -1.8 -1.8 -1.8 -1.8 -1.8 -1.8 -1.8 -1.8 -1.8 -1.8 -1.8 -1.8 -1.8 -1.8 -1.8 9.3 37.1 42.6 54.3 74.9 63 39.9 34.5 36.3 43.3 53.7 51.9 46.1 58.3 77.7 95 118.9 141.5 148.2 154.3 173.4 189.6 205 234 248 257.7 268.9 283.3 275.9 302.4 316.6 317.1 314.6 314.3 298.9 295.5 301 300.3 277.6 270.4 243.3 225.6 217.9 205.9 187.2 175.4 166.7 162 151.1 149 144.5 148.1 143.6 139.5 150.2 148.2 127.2 111.7 100.4 99.2 105.7 95.5 80.1 73.3 68.8 64.4 76.5 90.7 98.6 107.5 119.7 125.1 114.3 137.1 170.7 177 175.5 173.7 171.8 173.4 189 200.2 210.3 233.3 285.9 319.8 331.7 328 318.5 308.4 296.8 296.9 287.7 269.7 257.4 250.6 250.7 259.9 261.5 268 269.8 271.2 271.7 272.2 275.2 277.5 276.7 274 271.6 283.9 279.6 286.5 296.4
13.1 6.7 7.9 22.7 47.9 54.6 63.2 53.5 15.8 6.6 7.5 7.9 9 9.7 9.7 10.3 10.6 10.9 11.3 11.6 11.9 10.8 10.6 11.5 15.9 24.5 25.7 11.6 -1.8 -1.8 -1.8 -1.8 -1.8 -1.8 -1.8 -1.8 -1.8 -1.8 -1.8 -1.8 -1.8 -1.8 -1.8 -1.8 -1.8 -1.8 -1.8 -1.8 -1.8 -1.8 -1.8 -1.8 -1.8 -1.8 -1.8 -1.8 -1.8 -1.8 -1.8 -1.8 -1.8 -1.8 -1.8 -1.8 -1.8 -1.8 -1.8 -1.8 -1.8 -1.8 -1.8 -1.8 -1.8 -1.8 -1.8 -1.8 -1.8 -1.8 -1.8 -1.8 -1.8 -1.8 -1.8 -1.8 4.9 27.2 40.9 35.8 53.6 63.5 82.3 105.2 91.5 66.6 52.1 50.7 59.1 70 69.3 65.2 80.2 98.6 120.7 137.7 162 179.4 192.9 205.1 222.1 243.5 257.2 272.3 294.3 301.3 304.1 312.3 327.5 339.1 341.5 360.8 361.1 350.1 328.2 336.7 327.1 310.5 295.8 276.8 257.3 240.7 228.2 224.6 198.3 184.7 175.8 175.9 191.3 187 182.1 170.9 177.5 179.8 164 146.7 132.2 121.4 117.7 111.5 104.5 92.7 85.1 79.8 84.7 99.6 118.2 121.8 122.8 136.1 145.1 151 162.7 164.8 177.7 184.2 183.5 194.7 193 211.6 224.9 220.4 229.2 257.6 303.4 298 304.6 307.5 311.9 311.5 306.6 304.6 281.1 270.3 259.4 258.3 274.3 276.4 276.6 277.8 281.4 287.6 303.6 314.8 298.9 292.8 281 289.7 292.2 294.6 311.4 318.2
5 4.3 5.2 12.2 14.2 24.5 44.4 35 7.4 6.5 7.1 7.7 8.7 10.1 10.5 10.9 10.6 10.9 11.2 8.6 6.5 3.1 3 4.7 15.3 15.8 14.3 -1.8 -1.8 -1.8 -1.8 -1.8 -1.8 -1.8 -1.8 -1.8 -1.8 -1.8 -1.8 -1.8 -1.8 -1.8 -1.8 -1.8 -1.8 -1.8 -1.8 -1.8 -1.8 -1.8 -1.8 -1.8 -1.8 -1.8 -1.8 -1.8 -1.8 -1.8 -1.8 -1.8 -1.8 -1.8 -1.8 -1.8 -1.8 -1.8 -1.8 -1.8 -1.8 -1.8 -1.8 -1.8 -1.8 -1.8 -1.8 -1.8 -1.8 -1.8 -1.8 -1.8 -1.8 -1.8 -1.8 6.9 21 37.7 47 57.6 71.1 78.2 109 124.8 116 99.6 88.4 67.2 69.4 85.9 93.8 93.9 106.1 123.9 141 166 180.4 195.7 214.5 228.4 248.4 270.2 289.2 312 319.4 324 330.2 326 328.7 338.2 352.7 362.1 367.1 363.4 352.6 345.7 340.6 336.4 325.4 293.2 271.9 258.9 248.2 236.3 223.4 211.1 202.5 208.5 212.4 211.5 211.7 204.9 204.1 192.8 178.1 174.5 152.2 141.4 131 122.9 116.3 109.4 110.3 103.8 112.3 124.1 139.5 144.5 142.1 152 164.5 172.4 174 180.6 189.7 191.1 193.1 204.7 204.4 207 212.6 224.1 235.6 246.3 263 293 322.9 326.4 330.9 334.1 323.6 310.5 302.3 288.3 275.8 269.4 278.1 286.9 287.4 291.8 299.5 305.7 321.4 329.2 313.2 306.6 293 303.1 314.2 346.8 359 368.1
1.5 2.6 4 5.7 7.5 9.1 29.6 33.1 6.1 6.4 7.1 7.8 8.6 10.4 11.2 11.1 10.8 10.3 8.4 3.2 -1.8 -1.8 -1.8 -1.8 -1.8 -1.8 -1.8 -1.8 -1.8 -1.8 -1.8 -1.8 -1.8 -1.8 -1.8 -1.8 -1.8 -1.8 -1.8 -1.8 -1.8 -1.8 -1.8 -1.8 -1.8 -1.8 -1.8 -1.8 -1.8 -1.8 -1.8 -1.8 -1.8 -1.8 -1.8 -1.8 -1.8 -1.8 -1.8 -1.8 -1.8 -1.8 -1.8 -1.8 -1.8 -1.8 -1.8 -1.8 -1.8 -1.8 -1.8 -1.8 -1.8 -1.8 -1.8 -1.8 -1.8 -1.8 -1.8 -1.8 -1.8 2.3 13.7 28.1 45.5 65.9 80 96.4 99.3 99.7 104.9 118.7 130.6 124.8 124.8 96.6 76.4 93.5 110 120 128.1 142.3 154.7 174 194.2 218.6 228.4 243.5 277 296.9 328.2 335.1 340.3 344.4 349.3 351.3 355.1 364 360.8 363.7 365.4 357.6 352.6 348.8 351.5 346 337.5 315.8 299.4 290.4 275.4 261.3 252 235.2 237.1 242.2 243.3 227.9 239 236.3 222.8 207.1 202.7 194.4 171.7 154.1 151.4 142.4 130.3 134.6 136.3 139.1 140.8 152.9 153.7 156.3 157.5 161.4 181.2 188.5 188.6 190.1 190.2 191.2 196.4 209.2 219.2 228 236.8 243.8 258.5 268.1 278.8 292.3 316.7 340.5 342.6 342.9 336.5 318.9 315 319.8 300.8 291.8 285.7 300.3 305.1 312 314.6 334.7 332 328.3 320.9 313.2 312 325.7 353.9 378.1 386.7 388.7
2.3 2 4.6 6.4 6.6 7.5 15.3 16.5 5.9 6.5 7.3 8.7 9.3 10.6 11.2 10.8 10.7 8.7 2.4 -1.8 -1.8 -1.8 -1.8 -1.8 -1.8 -1.8 -1.8 -1.8 -1.8 -1.8 -1.8 -1.8 -1.8 -1.8 -1.8 -1.8 -1.8 -1.8 -1.8 -1.8 -1.8 -1.8 -1.8 -1.8 -1.8 -1.8 -1.8 -1.8 -1.8 -1.8 -1.8 -1.8 -1.8 -1.8 -1.8 -1.8 -1.8 -1.8 -1.8 -1.8 -1.8 -1.8 -1.8 -1.8 -1.8 -1.8 -1.8 -1.8 -1.8 -1.8 -1.8 -1.8 -1.8 -1.8 -1.8 -1.8 -1.8 -1.8 -1.8 4.3 8 14.4 33.4 48.9 61.1 82.4 102.9 119.5 137.2 130.4 130.5 133.7 135.5 141.6 138.5 112.9 96.8 87.7 120.4 134.3 142 157.2 168.8 182.4 199.6 217.7 234.1 244.4 271.9 302.9 329.2 343.2 358.9 367.2 368.2 363.5 376.5 378.1 377.1 371.6 364.2 358.4 362.2 373 370.6 364.5 356.8 343.4 319.7 313.3 295.7 284.8 273.3 269.6 264.7 258.7 255.7 249.5 258.3 244.1 230.6 223.3 220 201.9 186.6 165.6 171.6 160.3 159.1 160.4 165.8 171.3 171.2 171.4 181.8 184.8 184.6 185.4 194.5 198.9 201.2 204 198.1 208 222.4 243.3 268.1 273.9 270.7 292.6 298.3 303 313.8 317.7 311 343.3 350.6 344.8 348.2 338.9 336.2 327.7 322.8 320.2 313.3 305.7 316.5 323.8 330.2 355.4 346.6 335.3 328.6 326.3 332 352.1 399.1 417.4 411.3 401
1.8 2.4 3.1 4.5 6 7 7.7 7 5.3 6.2 8 8.9 8.8 8.9 8.9 6.3 4.3 -1.8 -1.8 -1.8 -1.8 -1.8 -1.8 -1.8 -1.8 -1.8 -1.8 -1.8 -1.8 -1.8 -1.8 -1.8 -1.8 -1.8 -1.8 -1.8 -1.8 -1.8 -1.8 -1.8 -1.8 -1.8 -1.8 -1.8 -1.8 -1.8 -1.8 -1.8 -1.8 -1.8 -1.8 -1.8 -1.8 -1.8 -1.8 -1.8 -1.8 -1.8 -1.8 -1.8 -1.8 -1.8 -1.8 -1.8 -1.8 -1.8 -1.8 -1.8 -1.8 -1.8 -1.8 -1.8 -1.8 -1.8 -1.8 -1.8 1.2 10.3 29.8 32.6 40.5 53.4 65.4 81 86.2 122 139.7 163.4 183.1 174.1 166.2 165.3 161.3 157.5 143.8 121.6 111 104.9 120 133.8 153.6 171.5 182.8 190 198.1 216.2 237.5 255 270.8 303.2 331.3 345.3 360.5 370.4 372 371.9 373.8 374.6 374.4 372.5 371.2 364.4 372.2 377.5 376.8 379.9 377.6 367 358.7 346.2 335.9 319.9 306.4 299.1 286.5 281.7 272.2 273.5 270.8 255 243.9 243.6 238 217.2 197 180.9 180.3 177.8 177.7 181.6 185.6 190.9 188.9 195.6 206.2 225.4 233.8 241 246.6 252.2 248.8 221.4 226.6 241.6 270.9 278.4 294.1 297.5 297.2 306.7 318.4 330.2 340.8 342.6 336.3 348.4 356 368 357.5 350.6 352.7 358.1 343.8 345.8 333.3 332.1 333.5 342.3 355.8 370.8 359.5 347.5 342.4 350.7 356.1 381.1 429.8 437.1 428 426.6
1.4 2.1 2.6 4.2 5.2 6.3 5.8 4.8 6 7.4 7.8 6.8 5.2 2.6 -1.8 -1.8 -1.8 -1.8 -1.8 -1.8 -1.8 -1.8 -1.8 -1.8 -1.8 -1.8 -1.8 -1.8 -1.8 -1.8 -1.8 -1.8 -1.8 -1.8 -1.8 -1.8 -1.8 -1.8 -1.8 -1.8 -1.8 -1.8 -1.8 -1.8 -1.8 -1.8 -1.8 -1.8 -1.8 -1.8 -1.8 -1.8 -1.8 -1.8 -1.8 -1.8 -1.8 -1.8 -1.8 -1.8 -1.8 -1.8 -1.8 -1.8 -1.8 -1.8 -1.8 -1.8 11.7 14.5 13.4 23.3 25.1 13.7 11.6 15.8 22.7 36.3 51.4 58 76.9 95 105.7 117.2 113.6 147.1 168.4 186.7 215.1 210.4 191.7 181.9 176.5 166.5 154.4 135.9 120.3 121 123.1 139.9 157.6 177.4 189.8 198.9 210.3 228.9 246.7 268.9 289.8 312.8 336.4 345.8 360.3 366.9 382.4 386.2 387.4 379.7 379.5 383.7 382.7 385.6 391.2 397.3 399.9 404.3 401 393.3 381.9 373.2 359.1 343.6 333.9 320.4 314.1 299.8 296.4 291 277.9 266.7 263 261.2 249.2 231.1 211.1 199.6 195.2 195.5 196.9 203.5 209.6 216.2 223 225.2 245.7 260.7 276.9 284.9 287 280.5 269.1 245.3 250.8 272.2 299.5 307.4 312.8 326 332.7 343.2 353.3 354.3 357.4 352.4 359.4 365.9 365.5 384.3 374.6 389.8 390.3 383.2 376.4 372 360.7 356.9 363 350.2 380.4 374.4 367.5 367.6 370.7 382.9 388.1 432.8 455.4 451.3 441.1 469.5
1 1.6 2.6 4.2 4.5 5.3 5.6 4.6 6.5 6.6 4 -1.8 -1.8 -1.8 -1.8 -1.8 -1.8 -1.8 -1.8 -1.8 -1.8 -1.8 -1.8 -1.8 -1.8 -1.8 -1.8 -1.8 -1.8 -1.8 -1.8 -1.8 -1.8 -1.8 -1.8 -1.8 -1.8 -1.8 -1.8 -1.8 -1.8 -1.8 -1.8 -1.8 -1.8 -1.8 -1.8 -1.8 -1.8 -1.8 -1.8 -1.8 -1.8 -1.8 -1.8 -1.8 -1.8 -1.8 -1.8 -1.8 -1.8 -1.8 -1.8 -1.8 -1.8 -1.8 -1.8 4.6 27 31.2 34.8 38.7 39.6 39.2 42.2 40.8 48.5 65.6 79.9 84.9 107.4 131.7 140.4 139.2 141.1 168.2 200.5 227.2 231.9 235.9 214.1 191.7 178.6 158 153.5 143 137.1 137.9 137.1 148.8 168.4 188.4 202.7 214.4 225.5 246.2 266.5 281.7 302.7 319.6 335.2 350.8 369.1 379 394.7 401.2 396.5 399.1 389 394.2 396.1 407.9 424.1 423.6 429.7 427.7 423.3 418.7 408.9 394 369.1 360.5 350.9 338.2 325.1 316.4 312.5 303.2 290.6 286.7 287.7 285.4 266.9 241.4 223.9 221.8 221.9 219.7 219.6 228.6 239.5 252.3 269.3 267.5 281.2 297.9 313.2 321.6 317.1 310.5 296 277.7 280.5 291.9 312.8 326.9 344.3 349.6 359.5 368.5 377.1 382.7 379.4 377.1 384.1 387.5 380.3 397.6 399.4 396.5 404.3 402.9 402.7 394.1 387.6 386.5 383.3 391.7 378.6 393.6 387.8 396.5 400.6 412.2 427.4 461.9 476.3 464 469.9 509.3
0.5 1.3 2.3 2.9 4.3 2.3 2.8 5.7 3.9 -1.8 -1.8 -1.8 -1.8 -1.8 -1.8 -1.8 -1.8 -1.8 -1.8 -1.8 -1.8 -1.8 -1.8 -1.8 -1.8 -1.8 -1.8 -1.8 -1.8 -1.8 -1.8 -1.8 -1.8 -1.8 -1.8 -1.8 -1.8 -1.8 -1.8 -1.8 -1.8 -1.8 -1.8 -1.8 -1.8 -1.8 -1.8 -1.8 -1.8 -1.8 -1.8 -1.8 -1.8 -1.8 -1.8 -1.8 -1.8 -1.8 -1.8 -1.8 -1.8 -1.8 -1.8 -1.8 -1.8 -1.8 7.1 18.2 40.5 48.1 53 62.3 67.7 66.6 68.1 76.5 82.4 96.3 111.2 118.3 148.4 173.2 171.6 162.9 177.2 204.8 230.3 249 255.6 233.8 214 198.1 180.3 179.9 170.9 160.6 155.7 158.9 157.6 163.5 170.3 193.5 215.5 231.6 241.4 267.7 278.4 299.9 316.2 325.3 337.1 352.8 363.7 377 387.9 394.1 396.7 403.9 404.7 399.7 411.9 431.3 438.5 449.5 445.3 440.8 434.7 431.6 416.3 399.2 387.1 380.5 371.9 360.3 348 337.5 330.3 320.4 318.9 321.3 313.4 293.8 279.7 262.4 253.8 252.3 249.3 240.9 237.1 257.1 266.7 288.6 303.5 308 315.8 337.4 350.4 348 339.8 333.8 326.6 315.9 320.8 331.1 329.3 335.7 357.4 364.4 387.1 397.3 396.4 394.1 393.1 404.7 408.3 400.1 404.4 401.1 407.5 410.4 417.7 428.3 429.1 432.6 421.1 413.1 416.4 424.2 406.5 403.4 410.5 431.1 439.3 444.7 488.3 496.4 486.8 484.2 495.6 529.1
0.1 1 1.9 3.4 3.8 3.2 -1.8 4.8 -1.8 -1.8 -1.8 -1.8 -1.8 -1.8 -1.8 -1.8 -1.8 -1.8 -1.8 -1.8 -1.8 0.3 0.6 -1.8 -1.8 -1.8 -1.8 -1.8 -1.8 -1.8 -1.8 -1.8 -1.8 -1.8 -1.8 -1.8 -1.8 -1.8 -1.8 -1.8 -1.8 -1.8 -1.8 -1.8 -1.8 -1.8 -1.8 -1.8 -1.8 -1.8 -1.8 -1.8 -1.8 -1.8 -1.8 -1.8 -1.8 -1.8 -1.8 -1.8 -1.8 -1.8 8.4 3.7 3.4 6.9 25 41.1 53.1 67.9 76.7 99 97.2 93.7 104.3 116 123.2 132.3 135.3 153.3 188.3 200 195.5 192.2 209.8 239.8 256 271.9 275.5 254.9 233.4 210.8 206.1 216.7 212.6 194.9 190.6 188.2 196.9 203.8 201.8 208.2 218.7 236.3 257.3 285.7 293.9 313.8 331 340.5 354.5 367 374.1 381.2 386.1 394.5 398.6 404.1 409.4 414.8 421.6 437.9 443.9 450.8 455.2 457.8 448.2 444.9 437.1 425.8 410.6 406.6 393.2 381.2 366.7 364.2 356.5 348.8 356.1 346.9 333.7 316.4 298.3 286 278.7 277.3 271.1 261.9 270.3 276.1 298 312.8 325.7 349.5 362.1 377.3 382 375.4 373.5 364.3 353.5 356.4 363.2 361.5 355 350.4 373.6 395.2 414.4 429.1 419.3 412.3 412.3 425.2 415.8 415.6 413.8 411.8 419 418 444.7 444.7 450.7 459.7 453.3 449.1 447 445.8 435.9 416 432.1 455.3 468.5 470.9 511.4 512.9 512.6 506.4 528.3 549.7
-0.4 0.6 1.5 2 2.4 2.7 -1.8 -1.8 -1.8 -1.8 -1.8 -1.8 -1.8 -1.8 -1.8 -1.8 -1.8 2.3 -1.8 21.1 9.3 4.7 12.4 -1.8 -1.8 -1.8 -1.8 -1.8 -1.8 -1.8 -1.8 -1.8 -1.8 -1.8 -1.8 -1.8 -1.8 -1.8 -1.8 -1.8 -1.8 -1.8 -1.8 -1.8 -1.8 -1.8 -1.8 -1.8 -1.8 -1.8 -1.8 -1.8 -1.8 -1.8 -1.8 -1.8 -1.8 -1.8 -1.8 -1.8 13.9 39.1 30.1 15.2 18.4 28.2 49.5 63.7 67 87.5 105.1 118.5 115.8 129.7 140.9 151.4 166.8 167.7 174.7 202.5 223 235.2 216.7 225.9 239.1 265.9 284 295.5 291.6 267.8 246.5 223 228.4 243.6 240.1 224 228.6 231.4 232.5 239.2 234.8 230.4 227.9 233.9 263.2 288.4 307.3 320.6 338 360.1 367.4 376.3 378.7 383.3 401.5 407.7 417.7 421.2 434 433.2 437 441.3 449.4 452.1 457.4 457.2 460.9 459.1 460.9 453.8 439.3 423.3 411 398.8 398.4 396.7 383.5 378.8 378.4 369.9 348.5 334.1 320.8 310.6 301.8 304 299.8 296.3 303.2 290.1 319.2 339.7 360.2 377.1 389.2 400.6 407.4 410.4 411.4 404.3 387 387 388 387.7 383.1 369 388.5 409.3 432.5 440.3 440.5 449.6 463.2 464.9 453.6 437 434.6 430.3 434.2 439.9 465.7 463.8 478.6 484.5 485.7 476.7 471.4 464.8 452.7 440.9 460.3 472.7 492.1 490.9 523.6 530.5 532.2 553.5 572.5 577.1
-0.8 0.2 0.6 0.9 1.1 1.8 -1.8 -1.8 -1.8 -1.8 -1.8 -1.8 -1.8 -1.8 -1.8 3.9 11.1 19.8 39.7 46.9 46.3 33.3 21.9 5.5 3.1 1.4 0.8 1.7 -1.8 -1.8 -1.8 -1.8 -1.8 -1.8 -1.8 -1.8 -1.8 -1.8 -1.8 -1.8 -1.8 -1.8 -1.8 -1.8 -1.8 -1.8 -1.8 -1.8 -1.8 -1.8 -1.8 -1.8 3.5 3.2 2 -1.8 -1.8 -1.8 6.2 23.6 45.7 52 46.9 40 49 54.2 71 87.1 96.3 95 120.5 131 137.5 157.9 171.5 179.9 192.7 201 227.1 246.8 265.8 275.2 257.5 251.9 269.7 288.5 320.8 319.1 303.8 280.5 256.7 235 246.4 258.1 259.2 262.7 261.7 273.1 268.9 265.3 257.6 245.9 245.4 248 252.7 281.1 300.4 320.5 339 364.4 374.4 377.5 384.3 400.1 413.8 417.7 429.3 438.2 451.3 454 455.4 454.6 457.5 452.7 461.6 461.8 469 466.5 482.2 474.2 456.4 446 426.6 426.3 437.2 431.7 423 418.2 422.6 385.8 370.9 365.4 350.5 344.1 328.1 332.7 336.3 329.2 333.9 331 343.7 368.8 391.1 401.5 407.8 417.3 438.9 447.3 444.4 437.8 439 422.2 417.8 412 410.9 402.5 406.1 432.9 446.5 459.8 472 481 481.8 480.2 468.1 461.2 451.8 452 441.2 452.8 481.5 485.7 503.7 508.1 511 509.4 504.5 485.3 465.8 464.7 470.8 496.9 520.7 526.2 540.9 551.9 572.7 589.2 595.3 606.8
-1.1 -0.7 -0.5 -0.3 -0.1 0.4 0.2 -1.8 -1.8 -1.8 -1.8 -1.8 -1.8 -0.9 6.4 13.1 25.5 33.1 58.2 67.3 77.3 61.4 40 43.5 26.9 18.2 10.6 6.8 8 8.1 -1.8 -1.8 -1.8 -1.8 -1.8 -1.8 -1.8 -1.8 -1.8 -1.8 -1.8 -1.8 -1.8 -1.8 -1.8 -1.8 -1.8 -1.8 -1.8 -1.8 -1.8 1.6 9 12 7 4.7 3.2 8.8 24.6 49.3 64.9 77 59.8 66.3 74.4 70.3 83.7 100.7 124.5 125.9 136.4 144.8 170.4 187.5 204.3 209.6 222.1 231.6 265.2 290.8 313.2 301.1 292.3 291.2 304.9 324.6 344.9 331.8 308.6 287.1 262.3 256.7 272.2 277.8 283.4 294.7 300.9 302.3 301.8 291.6 275.6 270.1 276.1 277.7 277.2 277.7 294.4 311.3 334.5 354.3 376.5 392.9 402.8 408.2 414.4 426 440.5 454.2 460 462.8 456.8 457.7 464.5 467.7 461.1 466.6 473.8 480.7 494.3 488 476.8 465.5 459.1 463.5 472.3 476.4 469.8 439.9 423.1 411.6 395.5 383 375.8 371.8 360.9 364.8 361.4 355.7 363.3 359.6 365.9 391 413.7 426.5 437.4 450.4 458 461.2 465.1 469.7 464 449.8 441.2 439.8 429.9 423 423.3 456.4 464.3 481.8 504.7 510.4 512.1 505.8 483.8 471.4 475 467.2 465.6 483.1 489 518.2 533.2 536.8 537.8 529 514.8 504.7 495.3 492.3 479.8 518.3 538.1 551.3 554.3 576.9 601.7 615.5 616 619.1
-1.8 -1.8 -1.8 -1.8 -1.8 -1.8 -1.8 -1.8 -1.8 -1.8 -1.8 -1.8 2 4.8 11.3 25.9 41.1 54.1 66.2 86.9 102.2 70.7 72.3 83.3 62.3 36.3 30.7 25.2 14.7 9.7 2.4 -1.8 -1.8 -1.8 -1.8 -1.8 -1.8 -1.8 -1.8 -1.8 -1.8 -1.8 -1.8 -1.8 -1.8 -1.8 -1.8 -1.8 -1.8 -1.8 -1.8 6 17 14.3 13.4 9.3 16.9 26.4 50.5 78.4 90.1 89 81.3 87.7 85.8 82.9 90.4 114.5 133.6 145.7 148.9 165.8 193 209.5 225.5 237.5 259 268.4 300.2 333 352.1 327.5 330.7 340.9 343.9 360.8 356.2 333.4 315.9 294.1 278.5 279.6 301.3 298.9 321.4 329.8 329.8 324.2 325.3 317.6 301.6 301 306.7 309 306.8 307.1 303.9 317.4 333.3 354.1 377.7 392 392.6 407.3 418.3 442.8 463.8 470 466.4 464.2 463.8 466.6 474.9 473.7 471.8 469.9 471.3 482.1 484.3 490.4 495.6 501.9 505.1 510.1 516 505 477.4 450.3 434.8 424.1 411.2 399.5 395.1 385.6 383.4 387.4 383 392.8 394.9 390.8 379.3 412 434.7 452.1 469.8 483.5 491.8 492.3 503.2 509.7 509.3 490.1 473.3 464.5 463.8 453.5 443 467.1 492.6 518.6 532.3 535.4 533.2 524.8 503.3 495.5 485.4 480.5 494.4 508.9 511 533.5 549.4 566.7 555.5 544.6 553.4 557.2 556.1 536.3 516.5 529.8 546.6 567.9 580.6 604 618.9 619.1 618.1 617.3
-1.8 -1.8 -1.8 -1.8 -1.8 -1.8 -1.8 -1.8 -1.8 -1.8 -0.4 1.9 4.2 6.4 24.4 43.3 59.6 71.2 84.9 103 110.4 107.4 122.6 120.4 103.8 76.1 50.5 42.2 28.4 8.8 7.2 20.2 10.8 7.2 -1.8 -1.8 -1.8 -1.8 -1.8 -1.8 -1.8 -1.8 -1.8 -1.8 -1.8 -1.8 -1.8 -1.8 -1.8 -1.8 2 12.8 21.7 21.8 21.7 27.6 39.9 60.2 78.8 109.9 116.8 98.3 105.8 103.1 97.2 99.3 106.8 124.2 143.2 161.2 168.6 186.6 205.9 229.2 245.7 265.3 293.1 309.3 337 365.1 379.8 345 373.5 369.4 383.8 399.6 373.8 339.4 319.9 304.5 300.5 287.8 311.5 326.2 366.9 363.7 354.2 354.3 347.3 335.7 336.4 333.2 332.9 333.6 329.2 325.4 326.8 328.2 337.8 351.8 365.8 376.2 387.6 401.6 432.8 456.6 467.4 469.5 471 473.7 475 477.2 480.9 487.1 482 485.6 496.4 503.8 496.9 503 515.5 536.8 551.5 551.1 540.1 501.5 485.8 473.6 461.3 441.9 426.2 425.5 413.7 407.8 407.1 404.7 411.8 413.6 415.4 419.9 429.9 419 459.7 481.1 502.1 512.7 515.9 525.2 535.5 542.6 541.8 530.7 505.5 495.4 486.8 480.5 475.7 486.8 499.2 534.9 550.4 555.1 549.6 530.6 529.9 519.9 524.7 520.5 525.5 545.1 548.1 565.6 572.2 574 567.3 573.4 591.8 597.1 596.3 563.6 546.3 534.9 561.7 586 607.4 624.2 628.5 624.9 619.2 608.8
-1.8 -1.8 -1.8 -1.8 -1.8 -1.8 -1.8 -1.8 -1.8 -0.3 2.2 3.9 5.1 11.6 34.9 51.9 69.5 82 95.5 118.4 112.3 138.5 151.5 145.9 144.4 125.9 88.8 65.4 36.4 17.3 22 33.3 26.1 22 21.1 -1.8 -1.8 -1.8 -1.8 -1.8 -1.8 -1.8 -1.8 -1.8 -1.8 -1.8 -1.8 -1.8 -1.8 0.9 9.1 25 26.1 34.3 32.5 42.6 56 76.1 107.6 124.8 125.9 124.6 127.1 130.1 130.5 129.1 132.8 147.5 167.6 186.6 193.3 212.8 221.4 248.9 263.7 289.9 316.3 345.4 370.9 394.6 404.6 400.9 400 391.6 403.6 418.3 404.7 355.5 335.3 321.8 322.2 309.7 328.9 361 387.5 378.5 367.3 361.8 356.1 347 353.7 356.3 358.8 353.4 346 347.4 346.6 344.8 350 356.5 366.7 377.6 388.9 404.1 438 459.9 474.5 478 483.3 481.8 487.5 487.8 495.2 497.5 497 498.8 501.6 515 523.7 535.6 542.2 561.6 568.2 568.4 541.3 519.2 502.7 480.6 467.8 450.2 439.5 434.7 428.7 431.4 435.4 429.2 428.4 426.8 431.1 443.3 452.4 459.1 480.9 500.5 523.2 536.7 542.8 553.6 564 571 577.1 571 554 530.1 517.8 516 516.9 516.9 519.7 548.7 564.5 562.2 562.2 548.7 557.1 552.2 544 564.1 577.7 591 598.4 600.1 598 595.6 608.1 629.8 631.7 637.3 617.8 603.8 588.2 553.2 576.9 605.2 625.1 624.1 635.1 636 610.7 600.7
-1.8 -1.8 -1.8 -1.8 -1.8 -1.8 -1.8 -1.8 -0.4 1.9 2.9 4.2 5.1 21.3 29.6 60.7 66.5 87.6 99.4 119 137.2 154.3 165.6 167.6 170.4 156.2 124 87.1 61.6 37.2 32.5 35.9 39.1 35.9 36.9 -1.8 -1.8 -1.8 -1.8 -1.8 -1.8 -1.8 -1.8 6.7 7.1 3.2 3 2.4 2.4 6 24.3 31.1 39.8 49.1 49.9 54.5 72.2 87.1 105.7 127.8 135.4 153.5 166.5 160.6 154.8 155.5 159 174.5 193.3 203 220.9 239 244.8 260.4 285.5 316.5 343.6 373.9 401.1 415.6 419.3 415.1 419.2 416 422.6 430.4 419.3 384.9 363.2 341.5 330.8 320.9 346.2 364.1 375.4 381.3 379.6 373.1 364.3 362.6 370.1 372.5 375.4 370 366.8 368.2 366.2 367.6 362.6 374.8 383.2 391.9 402.7 409.1 432.9 454.5 482.2 492.7 498.7 502.6 504.2 501.9 505.8 514.4 513 508.2 532 548.3 554.8 556.5 562.8 585.7 591.7 567.3 543.7 524.1 512.9 490.8 475.3 464.7 461.2 456.1 458.2 459.4 453.7 446.4 443.4 442.8 454.6 467.1 480.5 495.3 500.6 515.3 539.9 556.1 565.6 583.3 599.1 613.9 612.4 608.5 587.6 567.6 555 554.3 553.7 551.1 546.9 566.1 589.5 583.3 576.9 580.9 580.7 566.9 579.7 600 614.3 639.5 646.5 643.3 637.7 628.7 656.8 651.5 657.8 656.2 643.7 627.9 618.9 582.1 602 621.6 638.1 644.1 639.9 629.4 600.7 579.4
-1.8 -1.8 -1.8 -1.8 -1.8 -1.8 -1.8 -1.8 1 2.4 2.7 4.4 5.6 20.5 41.6 62.6 81.3 100.7 118.6 130.9 159.6 164.4 180.1 189.7 191.3 177.2 146.7 112 84.2 62.7 55.9 48.9 46.7 39.7 27.5 7.3 -1.8 -1.8 -1.8 -1.8 -1.8 7.1 21.2 23.7 22 14.3 14.9 17.2 17.3 22.2 36.7 53.8 58.4 67.3 66.8 76.4 87.6 98.8 117.6 136.2 152.3 175.7 191.4 185.4 179.1 184.3 189.8 200.4 209.1 225.3 249.2 265 276.7 286.4 307.8 342.6 371.7 400.5 413.7 422.9 435.4 426.6 425.2 430.1 443 445.3 428.3 399.9 377.4 365.3 341.3 341.9 343.8 350.7 366.9 384.4 387.3 380.7 375.2 378.6 391.2 392 399.7 399.6 398.4 406 403.3 389.2 387.8 386.2 399.1 401.6 415.8 433.2 442.2 456 485.1 506.1 509.9 514.1 509.1 513.7 516.5 523.3 529.4 535 552.4 555.9 573.5 580.3 597.8 607.4 607.4 576.8 554.1 530.9 515.1 499.1 499.1 494.6 492.3 481.8 479.6 471.8 461.3 459.5 460 468.6 480.5 492.3 500.1 516.2 525.9 533.6 556.2 581.7 592 608.6 634 649.6 655.4 652.4 633.5 604.7 598.5 591.9 594.5 584.9 591 597 604.6 598.5 604.2 603.7 601.7 610.5 615.8 630 665.6 677.8 675.9 673.9 664.1 665.8 684.4 677.5 681.8 672.8 668.7 651 636 607.4 620 635.9 646.3 653.1 655.9 642.9 607.2 572.4
-1.8 -1.8 -1.8 -1.8 -1.8 -1.8 -1.8 -0.1 2.3 2.5 2.7 4.5 5.8 6.1 47.7 76.2 89.2 106.7 122.2 147.8 179.9 193.4 199.7 194.9 200.2 192 160.5 133.5 111.3 92.9 91.7 74.7 57.6 43.4 33.7 26.9 18.1 8.4 6 7.5 12.7 31.2 41.7 41.1 37.9 35.7 35.1 34.3 33.5 43.2 63.8 71.8 77.6 79.7 82.2 102.7 107 111.9 130 152.2 168.7 194 210 212.6 212.3 210.5 220.6 226.7 230.4 248.4 275.5 293.4 304.2 311.2 331.8 362.3 394.9 418.1 426.5 435.8 446 433.2 436 447.1 448.6 449.9 445.3 411.1 388.9 368.7 359.7 352.4 354.3 365.3 369.6 366.9 381.4 386.8 384.4 391.7 408.4 421.3 434.6 426.9 431.8 436.5 431.9 417.9 414.2 416 414.3 432.5 440.6 466.5 469.5 481 498.6 516.3 525.4 519.8 524.3 533.9 530 541.5 558.4 566 580.9 587.6 593.6 611.2 607.1 622.7 606.2 586 564.5 549.7 535.6 521.7 521.9 518.5 514.2 504.9 489.6 483 479.5 478 482.2 493 505 513.7 526.9 541.3 558.7 552.1 568 599.8 612.5 632.2 658.3 682.2 691.5 693.3 673.8 643.3 643.5 640.9 648.6 648.3 646.6 645.1 627.1 622 628.3 626.3 626 632.8 644 659.9 691 692.9 695.1 693.3 682.9 678.5 695.3 695.8 696.5 692.9 686.8 666.1 648.6 635.3 641.6 654.7 661.5 656.5 663.2 639.5 598.1 570.4
-1.8 -1.8 -1.8 -1.8 -1.8 -1.8 -1.8 1.1 2.4 2.9 3.4 4 5.5 7 52.6 79.2 82.9 106 118 146.1 175.5 198.8 214.9 227.1 216.1 199.5 181 161.9 135 119.8 124.8 111.4 83.7 62.8 57.8 56.8 45.7 32.6 28.2 22 34.8 48.8 57.6 75.2 60.4 59.9 55.5 51.6 54.5 64.5 85.5 102.7 105.6 98.6 93.9 106 122.3 127.7 139.7 157.3 180.2 207.6 226.8 239.4 237.6 233.8 241.5 252 256.1 276.4 298.9 314.3 322.1 333.2 357.4 383.3 411.1 440.5 453.9 459.8 452.2 441.1 440.1 453.4 455.6 457 450.4 429.7 405.5 388 378.1 372.7 371 370 382.5 380.9 381.1 384.6 385 402 427 446.1 459.7 464 471.3 469.9 469.7 458.1 443.6 443.8 437.3 452.5 480.6 490.7 481.3 503.3 515 523.5 527.4 534.9 544.5 549.9 558.6 571.4 584 589 598.3 622.8 631.4 627.4 640.1 656 625.3 596.3 578.4 564.1 559.5 554.1 548.5 542 539.1 527.9 516.8 507.4 502.7 503.7 509.1 519.2 529.1 537.5 556 572.7 582.3 583.3 589.8 612.4 631.1 660.1 691.1 714.5 726.2 715.1 698.1 702 692.4 680.3 672.8 678.2 685.1 676 652.2 653.3 661.7 664 670.2 680.2 675.7 700.6 723.4 723.9 720.6 713.6 703.9 693.5 695 697.9 707.3 706.2 689.2 667.8 667.3 671.2 654 663 670.5 660.5 648.9 628.1 584 569.6
-1.8 -1.8 -1.8 -1.8 -1.8 -0.9 0.3 1.6 2.4 2.4 3.2 4.6 6.6 8.8 37.6 62.5 76.9 97.3 117.8 150.9 170.9 202.5 214.9 230.7 229.2 216.8 204.4 186.7 155 147.6 148.9 126.6 108.4 92.4 78.8 71 65.4 55.1 49.1 40.9 49.2 64.9 82.4 94.3 83.1 79.8 74.5 69 76.1 86.6 109.8 135.6 133.2 120.6 119.9 111.6 132.2 142.1 153.8 167.7 189.7 218.2 245.9 254.1 260.6 259.5 274.7 278.6 296.5 317.1 326.1 340.1 352.8 359.4 381.7 403.6 432.5 453.7 461.3 473.7 464.3 464.6 462 472.8 470.9 471.2 463.6 443.2 420.8 415.9 413.9 399 392.4 384.7 391.5 394.2 390 389.2 387.2 406 421.8 453.1 462 465.4 471 482.9 498.3 494.5 479.6 469.7 472.8 470.5 488.6 499.3 499.9 509.9 518.6 529.3 549.2 555.3 561 572.2 585.4 599.2 611.1 611.6 636.7 642.4 646.7 660.1 674.6 683.6 646.7 620.7 606.9 596.2 586.8 583.4 576.9 577.6 568.4 560.9 544.7 539.7 535.9 537.3 538.3 542.9 550.7 565 585.3 603 615.3 622.6 620.8 632.1 654.6 685 716.1 743.8 756 749.6 751.9 743.1 743.1 721.5 715.3 711.8 716.5 700.1 677.4 683.8 685.1 695.5 706.2 701.9 712.6 728.6 752.1 750.9 736.9 728 715 704.8 697.2 702.6 701.8 694.9 688.4 678.2 672.6 678.3 667 665 668.9 651.8 632.8 599.3 570.6 556.1
-1.8 -1.8 -1.8 -1.8 -1.2 0 1.1 2.4 2 2.6 4 5.8 11.6 38.7 33.9 56.7 80.5 99.7 119.1 145.5 169.3 198.7 216 231.7 234 228.6 220.1 193.2 185 187 183.3 164.4 143.4 129 109.8 93.2 81.3 79.3 74.9 66.1 69.1 85.7 97.8 102.9 100.6 99.7 88.8 83.9 90.3 109.5 136.9 155.8 155.4 156.8 142.8 134.8 132.7 149.4 165.3 179.5 199.2 234.7 262.8 277.7 286 292 301.5 317 334.6 344.8 350.4 357.9 365.1 376.2 399.7 420 439.5 455 466.8 485.3 476.5 486.9 483.7 501.2 495.6 492.6 478.9 457.7 445.1 440.7 423.3 409.5 401.5 398.6 413.9 408.5 404.2 396 401.1 403 409.1 420.7 435.3 456.7 480.4 503.6 506.6 516.4 504.9 493.4 506.3 495.7 493.5 516.9 516.5 539.2 551.2 558.8 578 582.8 588 604.1 618.6 627.7 634.5 646.8 658.9 666.6 681.5 697 698.7 700 666.4 645.3 634.3 621.7 615.8 611.9 617.1 615.5 604.5 591.3 579.2 573.8 571.6 571.1 573 585 587.5 600.3 617.9 632.9 644.1 648.7 656.3 657.1 676.3 704.6 733.4 767.3 773.5 786.2 791.9 795 767.7 754.1 758.3 749.3 746.4 725.6 706.2 710 720.2 731 732.1 731.8 746 762.8 770.4 767.1 757.2 744.9 735.6 727.5 710.2 707.8 701 698.9 686.8 678.8 683.6 666.5 659 655 632 610.8 598.5 568.8 554.3 531
-1.8 -1.8 -1.8 -1.8 -0.2 0.6 1.7 2.3 2 3.9 7.2 10.3 37.6 55.2 77.8 76.6 86.1 106.3 128.5 154.1 186.6 221.2 239.8 232.9 235.3 241.9 223.5 210 208.9 214.4 208.6 193.7 174.3 166.8 149.8 132.3 109.1 99.8 96.4 94.4 90.1 102.1 113.4 119 120.9 111.4 101.6 99.4 109.5 128.4 161.7 175.4 175 169.5 163 161.4 160.5 161.6 163.7 189.2 214.5 247.7 278.1 302.2 312.5 313.9 321.8 343.9 363.3 369.3 367.1 374 379.1 394.2 412.8 434.6 453.3 466.7 482.7 493.4 489.6 504.8 510.2 515.3 506.9 499.4 489.5 473.1 463.4 451.9 432.6 417.8 411.4 414.1 418.6 421.3 416.8 418.3 413.1 408.4 411.3 411.8 422.8 437.6 462.5 488.8 519.4 522.3 517 516.8 529.1 531.6 518.2 529.9 540.4 559.6 582.7 600.3 609.6 612.8 629 637.6 647.5 659.6 663.6 675.4 677.3 701 711.9 717.1 724 715.5 687.7 668.3 658.8 649.6 651.1 658.3 660 652.9 636.5 622.7 614.1 609.5 608.4 604.9 613 623.2 629.6 635.8 646.7 663.8 672.3 679.8 681.7 680.9 701.6 727.7 753.6 768.7 787.5 812.7 826 837.8 804.6 785.1 786.7 780.6 764.9 745.6 739.2 755.5 757.4 756.6 752.2 752.8 780.7 789.8 800.8 793.7 775.3 763.7 754 742.4 716.7 705.6 708.6 701.3 681 670 664.2 657.6 645.5 632.9 612.6 594.4 573.3 546.5 525.7 502.6
-1.8 -1.8 -1.8 1.1 1.6 2.1 2.4 3.8 4.9 14.2 23.6 29.2 50.7 81.2 99.8 115.8 118.5 122.3 133 160.9 189.1 223.4 237.2 239.3 238.6 243.2 229.1 224.4 232.4 245.8 237.1 211.9 200.5 194.9 180.9 162.2 139.6 128.5 119.9 113.7 111.1 120.2 126.6 136.4 134.7 123.6 119.1 121.9 131.7 147.9 181.7 193.2 192.6 191.4 190.6 185.6 182.8 188.3 191 192.6 225.2 255.4 282.8 310.6 324.4 328.5 336.8 356.9 378.9 386.8 384 388.1 398.1 415.4 430.3 449.3 470.3 488 497.3 498.2 503.6 523.4 525.3 524.8 524.9 518.4 501.3 486.5 475.5 461.9 450.2 445.2 439.7 426.1 429.4 426.9 426.3 424.5 429.5 419 417.6 418.1 421.3 432.1 452.3 480.1 512.1 534.5 540.4 544.6 534.6 541.3 538.7 546.3 557 578.5 606.9 623.6 632.8 639.2 659.6 667.3 675.9 683.9 690.1 707 714.1 720.5 725.8 736.7 733.7 715 698.9 695 692.4 688.2 693.5 691.3 683.1 677.5 664.9 656.6 647.6 642.2 642.4 644.8 657.6 664.5 663.5 667.8 679.2 693.6 707.4 711.9 709.2 714.2 729.7 753.1 770.9 785.5 799 819.2 842 855.5 838.6 831.5 826.8 818.6 803 784.1 784 792.5 790.6 783.2 783.9 797.1 814.6 819.9 820.4 813.7 793.4 776.1 775.2 768 752.2 730.8 725 695.4 670.9 642.4 627 612.8 605.6 608.1 593.3 572.6 539.7 524.2 507.7 483.4
-1.8 -1.8 2.7 18.8 11.2 22.5 12.3 14.2 20.1 27.7 40.8 53.2 83.1 107.3 124.5 144 170.5 187.5 171.8 164 179.1 202.9 223.6 237 247.2 242.6 232.4 239.5 255.8 255.2 238.9 220.8 219.9 217.2 202.3 187.3 169.4 157.1 145.3 131.1 129.7 136 143.4 150.6 148.4 146.3 140.5 147 160.8 181.7 206 216.7 220.5 220 217.6 216 208.1 212.2 220.2 209.2 239.2 263.5 287 316.3 334.2 347.6 368.3 376 390.5 390.9 399 414.7 436.8 445.7 455.7 467.9 491.1 506.6 515.2 515.9 516.3 527.2 532.5 530.5 532 529.4 525.9 509.5 494.9 499.4 482.9 472.7 461.6 450.2 442.4 439.5 436.8 437.4 443.1 439.2 433 433.3 420.8 432.5 445.2 472.5 505.1 532 540.9 551.5 550 551.2 558.8 566.3 585.4 607.1 617.2 634.7 645.8 662.4 680.2 688.3 699.1 695.7 710.9 723.1 730.3 735.2 740.5 733.1 720.3 705.1 700.7 698.4 703.3 698.5 704.7 695.9 691 684.9 681.7 676.3 670.2 666.2 660.7 659.1 670.3 676.7 685.4 696.3 711.1 720 731.2 727.7 739.4 746.3 748.8 760.9 770.3 773 780.4 798.7 806.4 809.5 816.5 820.8 818.9 806.9 803.2 804.6 819.9 831.5 816.9 813.8 810.1 827.9 840.4 855.6 859.1 827.1 810.9 795.7 787.2 777.4 769.6 753 721.9 688.1 660 636.4 607.4 591.2 573.4 557.6 541.8 525.3 515.5 496.1 481.3 466.2
2 3.7 17.9 43.9 32.8 38.3 49.1 32.6 34.2 50.6 60 76.2 108.4 132.7 146.2 177.3 233 246.1 237.4 211.8 196.3 219.6 231.9 235.7 248.3 233.5 236.8 250.8 258.6 255.1 247.1 236.7 231.1 226.4 218.8 204.2 192 179.8 164.5 153.4 149.1 149.3 155.7 164 170.7 171.3 171.4 180.4 197.1 221.9 238.3 243.7 248.2 247.8 247.1 240.5 234.3 237.7 240.3 229.1 250.1 272.3 293.8 323.2 337.9 351.1 372.6 392 390.2 399.7 422.5 442.1 457.1 466 478.7 490 500.9 516.9 526.2 529.9 534.3 541.3 555.3 562.7 548.7 558.3 556.7 529.1 519.6 511.2 500.6 498.9 488.1 467.5 459.8 467 466.7 470 462.5 454.9 446.9 439.8 434.8 436.4 446.9 460.4 484.2 518.6 527.9 542.5 554 561.1 569.6 578.8 597.8 609.5 625.4 638.3 651.4 665.8 684.8 701.3 705.7 705.9 721.2 724.2 726 734 741.5 735.1 721.1 704.6 696.6 692.9 693.5 696.5 692.6 682.2 660.6 648.3 671.2 673.3 670.5 675.5 673 672.7 680.4 680.6 692.6 706.9 716 719.1 701 690.1 723.4 741.5 747 745.1 739.4 744.2 746.5 762.4 767.7 770.9 775.2 780.5 777.3 779.8 790.7 796.4 796.5 807.4 816.1 830.2 836.4 844.9 856 835.9 826.9 819.9 812.7 804 795.4 783.6 752.1 734.2 704 670.9 648.4 620.8 600.1 578.9 567.9 544.4 523.8 502.9 483.8 464.2 441.2 423.4
5.8 12.9 35.5 53.6 67.2 61.2 66.3 65.9 60.6 65.8 79.3 114.4 136.4 151.7 173.6 224 250.1 262.9 265.8 254.4 238.4 232.8 249.9 259.9 248.9 236.2 238.2 250.4 253.4 250.7 248.5 253.1 256.3 259.7 245.6 228.7 218.3 200.6 183 174.2 172.5 171.3 176.3 187.5 191.4 198.1 208.4 220 233.7 244.8 258.7 272.9 280.3 275.5 272.4 270.3 264.5 263.5 266.7 256.3 261.7 284.8 304 316.9 328.3 354.7 368.3 383.3 401.4 418.7 439.9 457.9 476.3 482.8 494.5 505.6 514.6 528.9 536 545.8 547.6 556.1 573.6 584.5 571.1 572.8 579.6 550.3 535 527.8 522.5 516.8 516.1 491.7 484.1 489.6 495.1 492.7 483.1 473.2 459 449.3 444.8 436 448.4 453.2 467.2 494.6 516.9 529.3 539.1 555.6 568.6 582.8 594 604.4 627.2 640.7 650.7 667.9 683.1 705.1 712.6 712.2 730.8 722.5 719.2 725 726.3 722.9 704.6 695 689 682.6 676.5 673.2 663 646.2 640.5 637.7 635.6 639.5 658.6 665.7 670 677.3 675.1 678.3 679.1 681.1 686.4 671.6 667.9 655.5 691.5 713.1 703.4 707 693.3 694.7 709.5 736.7 745.7 752.8 756.5 759.1 761.5 753.6 753.6 764.7 777.5 777.8 783.9 795.6 807.3 812 808.5 794 783.5 793.8 791.6 780.2 765.4 742.4 720.6 692.9 664.2 641.6 637.6 620.4 599.7 576.4 542.4 526.4 514.4 498.5 467.5 448.5 427.5 394.4
43.3 36 46.7 66.5 89.6 95.8 91.7 90.8 92.2 98.4 112.8 140.5 153.9 183 195.6 235.3 254.5 266.2 279.3 272 266.3 257.8 248.3 256.6 255.8 249.1 256.3 263.2 257.5 257.7 264.2 271 271 268.6 267 250.1 232.6 217.4 206.4 201.8 199.3 192.1 197.6 203.7 211.2 226.6 241.3 247.4 257.2 273.2 286.1 294.7 307.6 316.1 320.1 309 297 283.8 279.8 274.8 278.6 291.7 302.4 314.2 327.5 357.7 375.9 402.3 416.8 441 459.7 471.8 484.5 498.9 506.7 513.5 521.2 537.1 542.8 555.1 559.5 567.1 578.8 585 589.9 587.4 587.8 569.8 552.3 548.1 547.2 532.7 528 510.9 510.1 514.8 519.4 513.2 503.2 490.7 472.4 465.2 452 446.7 447.3 452.6 459.7 472.4 492.9 520.5 536.7 554.8 571.8 584.5 594.5 603.2 626.8 645.3 653.2 667 677.1 697.1 704.8 706.5 712.7 722.4 722.7 721 718.9 708.5 695.3 679.9 679.6 670.9 661.1 642.7 629.3 618.5 623.6 634.5 623.7 626.2 622.7 638.6 655.4 661.2 655 655.2 643 642.9 644.7 631.7 634.3 616 647.1 658.4 659.7 659.8 649.9 657.8 689.2 706.8 692.2 704.2 713.2 716.6 723 713.1 731.1 742.8 740.7 733.6 739.5 748.9 754.7 765 761.8 760.7 752.8 738.7 741.6 754.1 735.9 714.5 691.3 664 635.2 613.3 619.1 585.5 570.9 547.3 518.5 494.6 478.4 450 429.9 408.6 386.7 357
75.8 79.3 70.7 71.2 104.2 114.8 113.2 113.7 125.9 147.5 175.3 188.5 195.2 207.4 217.5 239.9 268.7 280 288.3 288.3 278.9 271.4 255 261.2 261.9 261.8 266.8 273.1 272.3 266.6 270.3 269.4 283.4 301 305.6 286.3 256.8 239.5 232.6 229.2 222.8 219.9 224.4 230 234.6 242.6 253.7 270.7 299.6 310.9 322 321.4 330.9 341.5 353.3 348.1 324.6 310.2 300 291.1 292.1 295.6 306.3 319.4 326.4 348.7 371.7 401.5 433.1 453.8 473 481.4 487.6 500.9 511.7 521.3 531.5 541.8 549.1 559.5 561.8 576.8 594.7 600.4 603.3 595.8 597.7 583.5 579.5 576.2 576.6 563.8 549.3 540.9 549.7 544.8 545.5 533.3 519.6 502.2 486.8 473.4 458.3 454.8 453.8 453.7 459.6 462.7 475.4 497.1 512.5 540.2 563.5 578.7 587.5 602.3 619.2 631 647 665.6 681.1 688 700.8 701.2 712.7 721.3 717.5 707.2 694.8 690 680.1 667.4 652.5 646.7 639.9 624 603.6 583.2 594.9 601.9 601.8 596.9 591 601 609.6 617.9 617.1 611.6 598.6 606.2 612 586.4 591.5 580.3 602.9 607.9 621.9 621.2 602.9 624.9 650.9 646.1 649.1 652.9 664.6 670.7 683.2 685.9 687.4 692.9 692.3 701.1 693.2 700.2 705.8 724.1 721.5 722.4 719.3 711 711.4 704.4 695.3 683 660.3 630.8 605.6 576.1 555.7 537.7 526.4 505.1 481 459.4 446.3 426 398.7 377.5 348.9 331
100.2 115.2 105.7 100.6 103.1 118.4 133.5 138.4 169.4 199.5 222.7 248.8 256 246.3 254.5 266.4 279.2 289 300.1 293.2 286.4 275.3 262 260.5 271.1 279.6 283.9 282.4 279.5 276.7 275.6 279.9 306.3 336.2 325.3 319.7 288.8 269.5 260 255.2 252.3 250.2 249.4 253.3 260.4 268.5 274.4 286.1 302.6 316.9 330.5 343.9 356.1 364.1 370.7 371 350.4 332.7 319.4 306.4 306.5 307.6 316 324.4 337.4 358.6 374.1 400.7 446.4 471.3 481 484.7 489.1 507.7 521.3 527.9 536.9 545.7 559.3 567.6 574.4 596.3 603 610.8 605.3 599.8 600.6 601.1 609.3 603.8 597.6 601.2 584.1 577.5 578.6 567.3 557.9 548.6 531 513.3 494.6 479.5 468.5 463.1 459.1 457.2 460.3 465.3 474 486.2 500.9 521.1 547.5 563.7 578.5 594.4 613.8 632.4 654.3 674.4 692.1 708 708.4 707.1 703.5 706 692.9 684 666.1 655.3 651.7 649.4 633.1 621.4 604.7 594.1 575 556.7 555.2 566 570 574.4 552.3 560.7 569.9 576.7 585.9 581 560.1 569.5 571.8 545.6 554 545.5 555.8 578.9 586.1 567.5 540.7 574.5 585.4 607.8 608 610 637 613.4 627.4 622.5 632.8 642.8 643.7 651.7 653.2 669.5 678.4 678.2 673.8 669.1 677.6 682.6 680.7 681.5 673 646.7 624.7 602.2 578.5 557.4 537 516.3 498.4 477.1 454.5 441.9 420.4 397 377.7 354.6 325.4 298.4
143.7 141.4 124 120.6 119.1 137 160.6 172.1 203.5 229.1 250.6 266.1 271.3 271.4 274.1 277.1 288.9 298.6 304.9 294.8 283.1 272.4 272.2 278.8 282.5 281.5 287.8 290.8 287.6 282.1 285.8 298.2 333.5 348.2 342.9 340.3 327.1 314.4 292.2 283.6 275.4 276.7 274.2 277.2 294.8 301.2 314.3 316.6 317.1 335.1 343.6 357 363.8 371.7 385.7 393.6 377.6 361.9 341.4 332 327.8 327.5 332.2 341.6 349.4 362.7 382.1 409.5 454.8 472.5 482.2 491.4 495.3 510.1 530 533.9 543.5 547.5 576.9 578.5 588.1 598.3 605.5 609.3 607 609.4 609.6 620.4 617 627 626.3 618.1 611.3 608 601 589.7 571.9 557.3 536.7 519 506.7 496.3 480.1 477.9 472 469.1 463.4 465.5 477.4 481.7 494.6 510.7 535.4 550.1 576.9 600.5 628.1 648.5 658.5 677.3 701.7 718.7 715.1 717.3 708.8 692.9 674.1 654.7 638.3 624.9 615.8 611.4 607.2 583.3 576.5 566.3 552.3 534.5 525.8 531.5 536.4 527.4 516.6 520.8 536.2 554.1 559.4 542.1 515.6 521.9 521.2 504 516.2 506.5 529.9 544 535.7 514.2 504 523.8 537.1 542 547.9 566.9 550.8 546 556.7 555.7 568.2 590.1 605 613.1 622.5 623.1 626.6 634.7 647.4 652.3 648.2 655.3 650.7 636.5 616.6 607.5 594.4 575.3 557.2 551.7 510.1 471 436.4 427.7 435.2 410 393.2 371.8 344.9 318.4 301.8 279.2
190 177.4 158.3 141.7 143 160.6 195.5 223.3 240.6 238.7 254.8 270.9 279.3 284.5 285.2 281 297.5 307.5 307.8 292.2 282.5 281.6 284.7 288.5 281.7 280 281.7 284.1 288.4 290.7 294.7 315.8 349.3 353.7 358.3 357.9 348.9 336 318.4 309.8 301.3 304 314.6 316.4 333.5 351.7 357.2 358.6 361.3 364.9 371 376.9 393.1 400.3 406.4 419.3 399.4 379 371.2 358.4 351.1 351.6 353.5 356.7 365.1 375 391.1 416.8 455.3 478.4 487.6 495.9 513.4 520.3 537.5 543.9 554.2 553.2 564.5 578 585.6 602.6 609.3 626.8 615.2 622.8 628.2 624 621.1 630.4 638 638 627.5 622.2 616.7 612.9 586.2 562.3 538.4 525.2 518 506.3 495.4 492.7 492.4 481.3 473 473.1 475.4 483.5 498.8 512.9 530.1 549.8 575.3 600.3 635.6 658.2 664.4 675.5 695.7 698.4 706.2 710.9 701.9 684.2 666.3 646.3 623.6 607.5 593.3 584.5 572.7 555.8 548 542.8 528.8 511.5 491.9 484.7 482.7 485.9 486.5 486.2 487.5 499.5 511.1 511.8 479.6 478.3 477.1 471.4 470.6 465.8 496.2 489.6 479.5 466 456.1 480.2 492.4 475.7 494.6 507.4 521.8 465.7 476.7 482 505.6 525.7 538 551.4 555.7 574.1 579.8 593.2 609.8 618.6 616.7 620 608.2 604.9 592.8 581.4 569 556.6 544.5 512.4 482.6 446.3 412.7 376.6 360.3 354.3 345.1 333 308.1 290.1 273.3 253
208.9 196.1 192.9 187.8 168.7 177.3 211 241 264 280.7 267.7 267.6 275.7 283.7 293.6 298.5 315.3 317.4 311.7 297.4 297.8 301.1 297.1 281.8 280 280 284.2 294.3 292 297.5 309.7 338.7 359.8 361.9 376.6 380.1 364.9 353.2 347 333.7 329.7 339.6 355.3 344.8 355.8 380.5 398.9 398.5 397.4 401.1 404.8 407.7 417.1 433.2 445.5 449.4 426.3 407 400.2 388.2 378.6 378 374.8 371.2 377.7 390.7 398.9 419.6 448.9 480.1 497.7 508.5 515.5 527.8 540.4 552 558.7 560.7 574.9 588.5 596.7 604.8 622.2 632.8 621.5 636.8 632.9 633 626.7 632.4 646.8 651.1 648.9 635.8 632.3 630.2 596.1 567.9 547.2 535.4 527.1 515.3 505.7 502.1 501.8 495.5 488.5 482.4 487.8 495.4 505.8 512.7 536.4 552.9 577.6 606.4 634.8 654.9 667 668.4 684.2 693.5 692.9 699.9 674.6 661.6 649.2 631.5 612.2 595.9 565.4 557.5 546.5 536 509 504.4 493 481.2 464.1 453.5 447.8 448.7 444.8 436.1 438.6 452 462.9 467 435.9 428.9 431.1 430.3 423.4 448.3 452.1 435.6 436.5 422.1 420.8 433 438.4 438.6 419.2 426 419.8 424.4 422.5 450.9 476.1 484 494.4 491 498.7 523.1 541.7 548.7 559.9 586.2 590.9 591.8 578.5 576.2 562.9 550.4 537.8 527.4 511.4 485.5 458.8 423.3 382.1 349.5 328.3 306.5 288.3 287.5 293.2 255.2 243.3 239.3
249.3 238.8 240.9 229.5 210.6 204.9 206.4 249.2 272.5 292.8 287.4 292.1 277.2 288.8 303.1 317.1 315.1 315.5 307.9 301.2 298.7 308.4 296.7 284.7 280 280.3 294.7 300.9 298.9 307.6 328.9 361.3 373.5 389.3 398.4 395 374.8 376 370.3 359.1 359.8 376.3 382.5 368.8 383.7 407.9 420.2 431 436.5 444.6 447.1 446 450.8 468.1 468.1 464.1 453.2 437.6 428.1 415.5 405.8 402.8 391.9 389.8 393.9 404.1 418.5 427.2 454.7 487.5 502.3 518.1 522.3 534.6 549.9 563.1 563.8 575.5 579.7 587.3 598.7 611.8 627.6 632.4 632.5 645.6 647.2 638.6 637.2 643.8 659.5 666.6 663.9 656.3 648.9 634.8 611.1 585.7 568.3 560.7 548.7 535.9 524.9 516.4 514.2 509.4 501.5 495.3 505 514.5 529 533.4 546.8 560.5 584.3 603.4 632.9 653.2 663.8 666.8 676 682 670.6 649.7 630.8 623.1 609.4 599.3 588.9 572 550 524.4 511.3 498.3 482.5 478.2 465.8 457.7 443.2 427.4 411.4 403.1 401.2 399.2 395.6 406.2 413.3 392.8 390 386 386.2 390.4 376.1 394.8 408.1 399.1 382.9 378.2 385.8 399.9 381.8 376 365.3 363.3 375 373.6 373 390.4 403.2 422.4 443.6 429.7 439 438.2 497.8 513.6 513.4 543 548 550.3 547 556.9 546.8 533.1 526.4 503.9 476.4 454 434.9 393.8 350.6 329 301.7 281.2 263 250.7 240.2 221.7 223.2 224.3
291 284.4 280 276.7 267.8 241 235.9 230.9 269.2 304.5 301.4 305.1 298.7 295.4 312.1 322.8 316.2 314.5 308.6 302.6 301.5 303.2 297 296.9 289.3 294.6 318.8 311.5 305.7 316.2 345.2 370.6 393.4 409.6 416.2 402.2 389.4 389.6 388.6 381.1 389.1 402.5 406.4 398.8 409.7 410 428.6 442.3 449.8 468.2 476.7 469.1 469.6 483.3 490.4 486.5 477.5 464.1 449.9 436.1 429 423.5 415.5 411.6 414 419.9 433.1 451.3 469.3 502.2 510 528.3 539.8 550.9 556.6 567.7 570.9 579.7 588 596.7 610.1 622.5 634.3 635.8 643 648.1 656.3 660.7 656.1 667.5 680.6 690.2 680.6 670.8 661.2 657.3 630.6 609.3 595 585.8 571.9 555 542.3 536.5 531.3 522.5 519.7 518.9 529.3 543.8 557.5 559 563.2 574.2 593.6 621.3 636.5 646.6 660.2 663.8 680.8 664.9 650.5 624 607.2 582.8 567.5 569.8 556.7 544.8 524.1 505.4 484.7 470.6 461.7 450 439 430.3 416.7 404.6 395.7 377.9 369.2 362.5 360.8 360.1 356.2 356.2 359.9 360.1 362.7 347.6 341.1 343.1 348.9 333 336.6 348.5 351.7 334.8 329.1 329.3 307.8 298.4 305.4 320.8 320.2 334.9 345.2 359.1 371.1 374.1 377.4 389.9 425.6 444.6 463.4 470.5 483.7 515.8 525.9 505.3 504.2 509.5 491.9 478.2 425.2 417 385.1 351 322.2 299 275.6 256.7 241.1 222.4 209 204.7 211.9 218.6
323.2 328.2 325.6 322.1 306.1 291.8 286.7 271.9 254.7 294 308.2 318.2 315 313.6 311.7 323.5 317 316.5 316.6 311.7 304 308.2 295.4 303.8 300.6 307.3 318.7 315.7 323.9 326.9 363.1 378.1 406.3 423.3 424.2 409 403.2 407 405.8 405.5 415.8 422.6 426.8 423.7 419.3 426.7 445.8 455.1 463.9 475.7 483.3 488.4 499.3 510.7 513.5 514.7 515 497.3 482.6 462.4 448.1 437.5 433.4 428.9 434.9 439.7 452 467.9 485.7 512.7 524.7 546.4 556.9 559.1 565.7 570.5 570.5 592.1 596.7 610.6 619.7 624.2 636 644.8 650 651 668.2 672.2 675.9 678.1 690.9 701.5 701.5 696.7 687 669.3 657.1 635.6 618.7 605.1 598.5 578.2 561.6 549.4 544.2 546 539.6 540.7 544.3 573.1 583.6 587.3 587.6 600.3 603.5 630.1 644 644.2 661 663.3 670 639.1 628.4 603.8 577.4 564.2 548.7 533.7 519.8 507.1 494.6 482.8 462.8 448.3 430.2 419.2 410.6 396.1 382.9 369.9 365.4 363 358.4 345.4 330.9 325.3 319.1 329.3 316 316.9 305.4 306.1 305.6 298.4 296.4 303.5 306.1 313.9 309.9 294.6 278.8 264.1 261.9 250.7 250.9 265.6 271.8 276.6 282.2 290.4 298.7 330.2 343.9 345.3 363.4 384.5 408.8 426.3 438.2 448.4 484.2 481 465.4 461.7 443.2 420.4 392.1 368.8 345.3 322.2 295.1 273.8 241.3 227.7 215.6 198.2 189.3 192.8 197.8 203.5
340.9 351.6 349 347.3 336.6 325.9 324.4 315.9 296.9 281.1 290.6 315.8 322.1 328.5 334.3 323.5 317.6 322.2 326.2 322.4 314.8 301.3 298.9 303.9 314.9 313.2 332 326.7 331.5 339.6 369.5 382.9 407.9 423.8 422.7 427 425.2 413.8 415.9 417.8 422.1 428.7 432.6 431.2 436.5 449.6 464.7 471.6 484.6 496.8 505.2 513.6 523.3 526.1 529.9 533.1 534.2 526.2 508.2 477.8 456.6 449.3 444.3 449.7 455.1 458.6 468.5 490.3 497.3 529.8 534.4 562 565.2 567.1 575.5 573.9 573.9 592.2 603.3 618.4 622.5 631.5 640.5 653.7 649.5 657.3 672.3 687.6 692.1 693.2 703.9 710.5 719.2 721 706.3 692.6 684.8 668.7 647.2 627.7 615.5 597.6 586.8 576.6 574.9 567.3 561.8 569.9 577.2 576.7 597.7 610.1 615.2 621.6 621 640.4 645.6 655 664.2 659.4 642.6 616.3 600.5 563.3 546 532.3 526 510.2 493.5 482.7 468.1 461.9 446.6 432.1 410 400.9 384.7 369 356.7 340.4 330.5 327.3 322.5 323.5 319.1 300.7 292.3 282.2 278.3 270.4 269.3 273.9 270.4 265.1 262.3 256.7 264.5 278.8 267.5 249.7 238.4 229.4 220 217.6 218.1 225.6 231.6 235.5 237.8 238.5 245.7 265.4 276.3 306.6 329.2 354.1 371.3 382.8 398.3 421.9 463.1 448.9 428.9 412.3 412.6 403.2 360.3 333.5 314.2 294.3 264.8 241.8 217.9 211.1 198.9 190.6 186.6 187.8 186.4 186.2
341.7 359.6 360 355.8 361 353.9 343.9 342.2 329.3 310.1 297.2 292 316.5 317.4 328.5 337.1 328.1 321.9 319.8 318.3 312.9 314.5 315.6 309.1 320 320 320.4 335.6 339.2 354.4 375.2 389.6 416.6 425.4 423.3 436.7 428.6 423.6 427.2 421.1 426.1 426.5 433.8 451.8 457.5 463.4 473 487 510.2 514.6 518.8 530 538.1 539.9 539.7 542.5 546.7 532.1 519.1 500.9 482.6 467.5 466 475.3 477.1 482.9 487 503.4 521.3 548.3 554.5 573.9 569.1 574.9 585.5 579.2 586.3 600.2 610.1 621.8 621.8 642.2 660.8 659 648.5 660.4 681.8 700.4 714.3 712.9 708.4 716.1 718.5 725.8 717.2 706.7 703.8 690.9 675.8 659.3 638.6 626.4 614.1 608.8 600.2 594.9 597.2 612.3 612.4 608.5 610.9 619.4 639.4 645.2 636.8 646.2 657.8 670.2 664.7 655.5 618.2 595.2 568 541.7 523.9 508.5 498.3 482.2 467.6 459.5 446.7 433.8 423.4 412.5 395.9 375.9 364.4 347.3 335 316.2 306.6 299.6 299 292.5 287 272 256 251.4 247.1 243.1 247.5 244.5 240.4 231.7 226.3 227.7 242.7 251.7 237.8 222.4 206.8 201 203.1 198.8 194.7 196.8 198.5 201 207.5 211.1 215 228.7 247.7 278.8 300.7 318.9 332.6 341.5 357.3 387.4 412.9 422.5 411 389.5 371.3 361.3 339.7 312.2 287.3 260.4 240.6 219.9 202.6 201.8 195.8 188 185.5 185.2 186.9 189.5
345.2 360.4 369.6 370.8 363.8 364 361.4 353.9 337.9 335.6 323.9 315.3 302.3 306.4 321.1 335.7 330.9 324.9 314.9 313.3 313.3 319.7 323.9 330.1 321 326.5 317.1 334.2 345 365.4 385.3 403 418.8 428.7 417.7 417.5 424.8 434.8 432.1 430.4 427.6 436.2 460.2 464.1 468.6 480.2 486.2 504.7 519.3 527.3 530.8 538.3 545.1 552.5 550.1 564.4 557.7 559.3 560.3 532 515.1 498.9 495.6 503.4 512.7 514.2 519.2 530.1 553.6 575 588.2 581.7 586 590.8 594.4 589 604.1 612.6 617.4 623.7 624.6 653.1 666.1 657.9 658.2 670.4 689.6 710.8 714 716.4 710.4 722.7 724.5 721.5 716.9 716.4 712.6 709.9 703.6 685.8 669.7 652.9 642.6 642.8 631.7 644.1 645.3 644.8 635.4 645.6 642.7 639.1 645.9 648.2 645.9 650 655.3 659.1 661.7 634.6 604.1 578 553.4 526.9 502.9 488.5 474.9 452.7 440.6 433.8 422.6 409.2 398.6 380.3 365.7 355 340.4 326.1 308.1 293.1 284.6 274.6 275.6 279.5 267.6 248.4 231.4 224.6 224.5 222.9 214.9 213.5 211.8 214.1 205.8 215.6 226 228.6 211.3 190.6 179.1 181.8 178.9 178.9 178.4 177.6 177.7 178.1 183.7 186.3 191 207.1 224.9 259.6 274.6 309.7 318.8 329.2 323.4 336.1 339.1 351.5 358.7 343.9 344.1 327.7 301.1 283.2 271.4 237.9 216.1 207.4 194.9 186.5 186.4 185.8 186 186.4 193.6 204.8
342.4 362.1 377.7 379.6 367.8 365.2 367.2 360 353.9 349.4 342.9 331.8 319.3 310.9 306.5 322.1 326.1 323 317.5 313.3 313.3 316.3 328.3 336.3 334.7 328.5 326.1 325.7 346.1 376.2 388.6 400 416 421.8 417.5 417.5 418.3 435.6 429.6 429.8 440.3 452.1 471.5 492.8 493 500 507.1 518.1 528 535.9 534.9 535.3 537.5 546.8 557.5 564.6 560 573.3 575 573.1 552.5 533.7 533.9 538.5 552.4 565.2 568.8 570.2 588.9 601.4 595.7 601.2 594.1 602 602 599 619.9 624.1 625.5 629.3 646.8 665.2 666.2 654.9 667 671.1 693.5 712.5 720.2 712.3 704.5 708.6 706.7 705.2 702.5 708.4 709.2 699.5 693.6 687.7 688.9 686.5 678.8 669.1 669.3 672.5 671.2 673.3 664 669.8 662.6 661.1 654 655 651.9 655.7 659.9 663.3 652 624.8 602.1 570.3 533.4 505.3 486.7 464.4 443.9 424.9 412.1 401.9 390.1 381.2 376 358.3 337.5 324.4 318.5 308.6 295.6 282.4 268.9 256.1 255.4 257.4 243.1 226.9 218.8 210.3 205.6 208.1 195.3 198.7 191.8 199.5 207.6 226.2 208.9 195.9 172.7 164.3 172.8 159.7 162 163.8 164.4 176.8 189.9 191.1 177.7 179.1 183.4 191.3 206.5 231.4 255.7 288.2 298.4 314.6 299.7 319.7 317 316.6 314.1 301.5 291 275 258.7 254.6 247.4 216.1 194.9 195.8 190.8 185.7 184.8 185.1 188.1 201.6 220.8 235.6
339.6 358.5 374.9 383.4 376.7 370.3 372.4 368.7 360.9 359.6 360.4 349.6 334.8 321.3 333.5 317.4 317.8 318.6 320.8 322.9 315.9 319 329.5 335.5 344.7 345.5 336.8 330.9 353.8 386.9 389.6 398.1 414.7 421.5 421.9 417.5 424.6 435.7 441.7 442 454.2 464 485.3 511.2 513.8 520.7 531.8 537.1 539.1 541.6 545.3 556.3 562 562.7 565.4 568.7 576.5 586.8 583 578.5 571 567.6 573.8 577.1 581.9 591 598.3 606.2 611.9 608 600.2 604.8 605.3 609.3 607.5 618.6 627.8 629.5 634.1 651.6 663.9 660.8 662.4 655.5 663.1 670.7 700.2 708.7 702.8 683.6 672.3 677.3 687.3 682.4 671.6 681.9 685.4 680.5 678.6 673.8 678.1 699 699.1 683.4 680.8 678.9 692.1 694.5 684 678.6 667.3 660.8 658.5 660.7 662.4 656.5 660.3 647.6 632 612.4 587.9 557.3 527.6 502.9 474.6 447.7 424.8 407.4 390.3 379.9 367.5 360.7 349.4 327.4 306.1 297.3 307.5 297.9 283.2 268.1 255.3 242.3 233.9 225.4 219.6 216.1 210.8 198.8 195.7 181.5 162.4 162 169 164.6 187.3 179.1 178.3 160.4 146.1 139.9 147.2 150 150.2 152.5 155.3 158.7 196.2 202.7 193.6 181.8 179.4 185.2 193.2 217.4 244.2 264.2 275.6 292.2 276 305.3 298.3 288.8 301.6 295.7 267 251.6 239.2 217.2 211.4 197.4 185.1 185 186.2 196.6 204.5 215 221.1 232.3 249.5 255.5
336 359 373.5 375.3 373.5 375.3 375.4 373.1 364 366.2 361 352.7 339.7 341.9 344.7 331.8 324.2 320.3 333 342.5 338.3 336.4 326.6 334.6 342.4 346.6 353.4 350.2 362.7 385 396.1 414.8 421.2 417.5 419.9 417.5 432.6 443.9 451.5 447.7 466.7 480.6 498.1 511.9 513.1 533.3 543 550.6 554.4 554.6 559.6 572.2 576.2 573.1 575.9 583.4 581.1 581.7 579.5 578.2 585.2 581.1 587.7 594.1 595.9 608.4 609 620.8 619.7 613 612.6 612.6 614.9 614.3 618.9 632.5 635.4 634.6 646.6 647.3 647.5 649.5 640.1 636.4 641.7 643.8 645.1 656.5 654.9 642.3 646.1 651.2 656.8 653.8 652.3 664.6 672.9 666.7 660.7 661.7 668.6 680.1 701.3 687 677.8 669.6 678.6 681.3 679.7 669.4 659.4 664 657.8 648.7 649.7 658.6 642.2 630.6 628.1 612.8 567.6 530.1 504.5 486.7 458.4 432.3 412.3 390.9 375.6 365.1 343.8 330.2 311.7 295.8 276.3 269.3 275.3 260 251.5 254.7 240.5 232.1 227.1 219.5 213.1 207 205.3 190.9 177.5 161.5 137.9 131.3 132.3 133.3 153 161.5 147.9 128.3 123.3 129.6 149.9 152.4 148.8 151.7 163.3 185.7 209 214.3 209.6 206.1 185 181.2 186.7 201.7 221.3 252.7 254.7 269 248.9 286.8 260.3 277.9 269.4 252.1 238.1 230.2 219.7 198.4 190.3 184.3 186.4 197.2 215.2 242 237.7 242.1 247.7 260.1 270.9 271.7
342 353.1 373.6 382.4 383.6 375.5 373.7 374.7 362.9 366.4 364.4 357.3 346.5 343 343.8 337.5 339 337.8 331.8 344 343.4 349.7 340.1 337.1 348.3 352.3 361.8 362.1 370.7 393.9 403.7 423.7 427.5 419.7 419.5 435.9 445.6 450.7 459 463.5 468.6 483.1 496.1 517.2 534.3 544.7 555.5 564.5 568 579.2 579.3 594.7 590.6 576.4 574.4 578.1 581.9 578.2 578.2 578.2 579.3 582.2 596 595.9 593.9 598.7 603.8 615.2 612.4 615.6 616 619.1 620.1 618.8 634 636.7 628.6 618.2 618.9 616.1 614 612.6 611.8 608.9 602 613.6 614.4 619 615.8 616.6 629.9 630.9 629.2 630.9 628.7 640.7 643 653.2 649.5 651.6 653.7 660.1 674.9 662.9 658 648.9 646.6 653.2 647.1 640.6 646.3 640.9 629.6 628.4 631.4 625.8 623.8 619.4 608.2 570.7 536.5 505.9 477.5 466.3 442.8 411.9 393.3 372.6 352.1 335.3 320.5 302 280.1 267.7 249.2 236 233.3 240.3 230.4 229.2 226.3 223.6 215.6 206.9 199 201.8 192.4 174.7 150 142.6 118.1 108.3 104.9 105.8 124.1 133.8 126 115.4 125.6 138.9 147.5 162.3 157.8 160.4 179.5 206.4 226.8 230.3 236.1 230 212.3 182.9 185 191.1 202.8 236 245.2 245.4 222.3 229.3 223.9 218.3 247.2 225.3 206 210 201 184.7 184.4 187.4 207.5 218.8 248.2 258 262.5 268.2 281.9 301.6 300.9 303.7
365.5 346.4 364.7 379.4 381.1 373.9 373 369.7 360.7 363.1 362.3 353.5 345.2 339.6 337.5 339 347.6 346.1 344.6 339.5 341 346.5 348 352 356.8 356.7 366.1 362.8 368.5 387.9 412.1 427.5 418.3 414 438.7 452.1 464.2 467.6 467.3 476.9 474.4 481.3 509.9 534.7 543.8 555.3 561.4 565.1 574.4 585.8 601.6 606.4 592.4 575.9 573.4 572.5 577.9 583.8 582.9 589.5 592.5 591 591.9 590.3 586.3 589.9 595.1 604.2 599.9 605.6 609.5 614.2 616.7 614.4 620.4 623.4 607.7 602.7 600.4 593.2 589.3 587.7 586.5 583.3 579.8 579.8 582.1 590.9 599.2 592.6 605.8 609.7 610.9 615.1 616.6 618.4 626.1 639.9 639 644.7 645.5 652.6 658.6 648.4 644.1 637.8 644.1 637.5 634.8 631.8 627.7 616 601.7 595.9 595.6 592.3 586 577.2 558.3 534.8 511.6 480.1 452.1 432.1 415.1 396.9 380.5 358.7 333 312.9 299.3 283.7 263.7 243.4 224.6 212.9 202.2 204.5 204.6 216.6 219.2 206.9 192.7 184.9 189.6 183.5 167.5 145.1 136.2 125.8 98.8 92.2 90.4 99.6 122.5 124.8 111.2 145 176.4 178.9 172.7 170.4 187.4 186.9 194 220.9 241.5 248.4 260.4 256.9 233.5 207 185.5 184.8 188.5 215 214.1 211.2 198.9 192.2 187.6 186.1 206.4 193 186.6 184.4 184.5 186.4 192.3 212.2 229.5 232.3 263.6 274.2 279.5 296 305 318.8 328.7 342.5
370.9 369.3 357.1 361 368.4 370.8 363.3 361.1 361.5 359.3 358.1 348.9 342.8 342.4 337.5 337.5 340.9 347.2 345 352 354.8 342.7 346.2 350.1 363.2 367.2 360.7 356 366.8 389.5 408.7 402.9 399.3 415.7 446.7 470.2 476.1 473.7 469.1 478.6 479.5 492.2 507.6 531.1 548.1 555.1 566.4 567.4 583.4 598.3 602.7 596.4 587 567.4 567.8 566 568 570.6 575.8 578.6 583.7 583.3 585.4 581.9 577.7 574.8 589 587.1 597.5 597.4 602.7 598.3 592.8 597.5 601.2 602.5 603.5 605.6 606.9 592.5 582.6 573 573.5 574.4 569.2 554.4 557.9 565.2 579.1 573.1 581.6 581.9 579.2 590.7 593.7 603.1 608.6 616.8 629.2 632.2 633.6 643.7 638.4 624.4 623.9 621 625 611.2 614.6 604.9 595.3 586.6 572.9 571.6 570.5 563.9 557.7 547.9 528.8 503.8 476.1 449 425.4 406 395.7 382 364.4 338.6 317 288.1 275 256.2 232.4 219.1 205 191.9 182.3 182.1 196.8 193.5 195 179.6 161.6 161.1 167 159.7 147.4 124.5 119.3 100.8 80.8 76.6 81.2 95.5 115.5 105.3 141.4 174.2 213 216.3 206.7 209.8 223 211.9 210.1 242.1 267.5 277.5 283.5 274.9 252.4 232.3 207.6 189.2 183.5 183.5 183.5 183.5 183.5 183.5 183.5 183.5 183.5 183.5 183.5 184.7 187.3 190.5 205.5 220.4 242.1 249 263.6 277.2 299.6 319.8 329.8 358.3 378.6 372.7
376.3 371.2 370.3 351.4 352.2 359.9 353.9 352.8 351.4 350.1 348.3 333.8 341.1 341.6 341.1 339.8 339.2 340 349.9 359.7 361.7 351.3 343.1 341.7 351.1 358.4 355.6 356.7 367 379.7 372.2 381 394.2 415.4 439.3 458.2 469.5 477.5 472.6 477.5 488.7 493.6 506.8 524.6 539.4 552.4 562.4 566.2 576.9 581.5 576.5 581.9 580.6 554.9 554.3 551.7 544.2 554.6 560.7 555.8 558.6 556.6 555.4 555.3 565.9 562.8 567.9 585.1 584.3 586.9 595.1 583 580.3 578.3 591 589.1 600 601.3 597.2 584.5 565.6 562.7 558.2 556.7 550.1 541.1 532.5 545.2 558.8 564.1 562.5 570.1 558.7 561.9 575 575.4 585.9 588.4 607.6 616 619.2 616.3 613.8 603.7 595.8 596.2 599.1 597.9 597.7 594.7 575.7 573.9 558.6 559.9 556.8 556.1 544.9 521.5 502.3 475.9 447 423 401 382.3 365.6 352.1 333.5 308.4 290.1 272.4 256.3 234.9 213.6 197.1 185.8 176.6 163 162 158.5 155.1 155.7 155.3 137.5 144.6 154.2 143.4 122.4 110.2 95.7 78.6 63.7 65.1 81 98.3 106.2 135.6 163.2 203.1 220.3 256.6 240.1 248.7 247.5 238.1 232.9 263.4 303.4 312 310 287.6 274.6 252.8 242.7 211.6 193.3 186.6 183.5 183.5 183.5 183.5 183.5 183.5 183.5 183.6 184.4 189.7 190.6 193.8 203.1 229.7 251.7 261.4 294.9 291.1 305.5 341.3 342.1 362.1 386.5 400.3
367.8 367 367.2 355.9 351.3 333.2 338.2 344.5 346.3 335.2 328.1 330.8 328.6 332.4 334.4 336.2 331 326.3 340.2 350.8 357 357.2 349.7 352.5 349 353.7 352 358.9 361.9 359 359.5 363.6 390.8 420.1 447 464.5 477.2 482.6 473.4 474.8 492.6 499.6 504.7 523.1 535.4 547.8 547.9 554.3 563.8 557.6 548.4 561.1 563 540.3 528.2 522.4 527.4 530.7 526.3 522.8 527.2 537.6 531 538.8 540 543.3 556.1 571.9 567 564.3 582.9 559.8 552.5 552.3 567.4 567.3 573.2 576.9 565.8 544.7 534.5 543.4 535.7 535.4 529.6 519.9 511.2 525 543.2 540.4 542.5 545.6 541.8 544.5 549.5 554.5 565.2 573.7 592.1 601.1 608.9 604.2 590.3 578.3 580.5 586.6 580.2 581.3 581.7 574.8 565.4 555.5 545.4 542.7 540.1 532.8 520 498.7 479.3 457.5 426.5 399.3 379.7 358.9 347.3 326.8 301.6 280.6 266.4 243.7 229.1 212.5 197.1 185.3 165.3 155.6 144.9 146.5 146.7 138.1 134.2 128 111.5 122.4 130.3 118.8 111.8 88.9 73.3 62.7 64.3 80.2 111 128.8 141.2 157.5 192.4 230.1 284.5 278.1 265.4 294.1 287.5 267.9 271.5 276.9 294.3 319.2 328.4 303.1 294.1 294.1 276.3 252 218.5 199.1 188.9 186.2 184.4 183.5 183.5 183.5 183.5 186.3 186.5 188.8 191.5 199.9 215.2 244.8 267.8 277.7 292.9 302.3 313.3 344.8 352.9 370.7 388.1 402.1
348.4 360.3 362.6 361.8 345.1 336 321.7 332.9 325.8 317.9 320.4 317.5 314.9 316.9 327 334.5 330 323.7 332.7 342.3 342.5 353.2 351.4 363.8 359.6 350.8 350.9 351.3 351 357 363.2 368.5 396.5 426.1 443.9 459.9 470.6 477.9 474.4 469.5 488 493.7 492.5 499.3 510.4 523.9 530.7 532.8 539.5 513.5 512.1 530.1 537.1 523.2 508.2 495.1 486.8 490.8 495.7 486.4 512.5 514.3 513.4 517.9 518.3 523 534.2 541.8 542.2 538.7 560 536.6 520.1 522.8 539.6 538.1 558.7 542.3 531.1 520.4 503.4 501.4 508 507.5 509 496.7 480.9 490.5 514.5 515.3 520.8 518.5 524.1 537.1 546.4 547 558.5 565.7 573.7 578.5 580.6 586.9 584.3 565.2 547.5 548.9 552.4 552.9 571.2 567.2 555.2 540.5 532.9 521.9 527.6 513.8 499.7 474.9 452.9 434.4 392.1 385.3 361.4 333.6 315.5 298.2 281.3 259.2 242.1 226 212.8 198.6 183.8 162.1 148.9 137.9 129 125.5 129.4 122.2 124.7 110.8 92 99.2 109.1 100.9 85.3 72.8 61.5 57.7 83.2 102.1 132.2 177.6 185.5 189.2 209.8 281.8 304.3 291.5 294.5 329.2 312.2 337.8 322.9 314 323.6 329.1 342.4 327 318.8 303.5 283 265.3 242.4 223.6 216.9 209.6 198.2 190.9 186.3 184.7 186.4 189.2 190.5 192.5 196 207.1 227.1 263.3 287 290.2 298.7 309 323.4 346.7 362.8 393.3 417.2 425.6
315.4 328.3 333.8 337.6 330.7 336.1 321.1 304.3 307.8 311.8 305.7 305.5 300.4 303.9 317.8 331.7 328.3 325.4 321.6 325.1 333.2 336.6 343.9 365 370.7 356 358.1 365.9 357.1 362.3 364.6 379.8 401.4 417.4 434 450.2 464.5 470.7 454.2 455.4 465.8 478.5 482.8 478.7 492.4 498.4 505.2 499.7 492.6 466.5 477.8 490.3 498.8 490.1 471.4 473.5 456.8 450.7 445.1 454 473.8 476.4 476.4 481.4 499.4 500.1 511.2 514.3 514.6 509.1 513.2 499.2 495.2 493.4 512.8 517.8 532.4 527 502.9 497.6 479.2 471 475.9 485.9 485.8 471.8 453.6 460.3 482.4 490.5 489.4 499 506.9 520.4 537.9 536.6 541 547.2 557.8 568.2 565.1 561.4 560.6 548 535.3 537.7 521.5 526.5 542.4 552.2 524.2 514.1 508.2 502.2 501.7 487.8 468.2 438.6 411 385.3 363.9 346.1 330.1 313.4 295.5 274.5 258.8 241 226.9 209.9 201.1 188 163.6 144.6 127.7 121.3 127 107 112.6 102.4 103.3 97.6 84.3 77.1 97.2 83.4 63.5 61.5 52.9 85.8 105.8 136.1 163 205.2 222.1 229.2 237.8 299.6 330.7 325.9 340.8 354.5 368.4 377.7 374.5 365.2 359.6 358.2 355.3 348.4 340.5 324.5 310.2 291.6 269.5 258.3 245.9 226.2 214.7 210.1 200 195.3 194 195.5 197.8 200.4 210.9 219 235.8 252.7 270.3 298.5 314.4 323.2 335.8 352.8 380.8 406.6 437.3 460.4
278.1 287.5 296.1 303.3 310.2 321.4 317.5 306.1 284.4 285 285.2 294.9 285.6 290.5 304 316.3 320.2 330.1 318.8 311.9 315.2 325.1 328.3 343.9 360.7 362.3 358.8 362.6 375.1 373.8 381.5 393.4 409.9 419.8 432.7 450 458.6 453.9 421.2 427.8 438.7 454.9 458.6 461.5 450.7 460.9 468.9 464.6 445 425 429.7 437.6 444.7 451.2 448.8 426.5 422.2 409.5 411.6 421.1 436.8 439.4 439.7 469.8 481 478.8 472.2 488.5 493.7 488.4 492 476.6 461.5 466.7 480.5 493.7 511.4 498.8 486.3 465 455.6 452.7 456.2 468 464.1 452.1 436.6 431.8 448 466.4 475.8 479 481.9 493.8 508.3 506.5 517.2 521.6 543.1 550.2 553.7 540 544.1 545.9 531.7 515.8 510.5 503.5 508 517.5 499.3 487 478.5 462.9 459.1 448.6 430.4 412.2 392.4 375.5 353 326.1 309.1 296.3 277.1 258.7 242.1 224.1 203.9 192.9 184.3 163.2 140.9 122.4 112.6 104.8 96.9 83.5 91.7 84.6 89.4 83.1 69.2 63.3 82.4 75.2 48.1 56.8 71.3 94.6 121.4 153.1 188.9 234.5 249.6 255.1 274.9 327.4 344.9 361.9 369.3 375.7 402.5 407.5 401.7 393.5 388.9 379.2 367.9 366.9 364.9 351 333.2 315.4 298.5 285.3 262.5 243.6 234.8 224.5 219.8 217.3 213.3 211.9 212 217 225.5 233.8 249.9 264.2 281.8 304.1 336.2 347.8 352 363.8 398.1 425.6 457.2 480.3
230.9 243 251.4 266.2 300 307.9 312.7 312.2 292 267.2 264.8 265.7 265.5 274.9 282.2 287.6 307.3 307.8 310.3 309.5 298.3 299 308.7 316 346.8 351.9 344.3 350.1 369.3 385.2 397.5 404.4 404.9 414.4 422.8 438 433.6 433.6 401.1 395.8 398 414.1 409.6 406.5 415.7 428 425.5 420.7 391.6 389 395.8 398.6 406.1 411.1 408.6 394.4 381.4 373.7 374.2 382.1 390.9 400.7 413.9 447 455.7 450.7 447 462.4 473 470.6 463.9 451 438.3 441.3 445.5 471 476.2 463.5 457.6 447.2 437.8 443.9 443.4 449.1 442.7 428.6 418.4 403.5 417.9 434.5 458.8 460.4 461.3 468.3 480.8 485.5 495.5 516.8 532.7 535.1 528.7 532.3 523.7 525 513.3 505.6 504.1 499.5 494.2 489.1 478.2 463.7 459.7 448 441.9 435.1 422.8 405.9 388.6 369.7 336.3 315.5 289 275 261.2 248.4 233.3 203.3 186.5 171.8 160.1 141.6 121 104 91.3 87.7 78.4 63.1 67.5 77.2 82.5 73.3 49.8 66 77.9 55.5 56.6 69.8 92.4 114.9 151 175.8 227.2 261 275.6 299 332.2 341.7 360.9 386.4 388 398.3 426.1 420.7 425.7 422.3 412.8 424.4 413.9 399.4 382.8 377.8 360.9 342.5 325.5 296 279.9 266.7 257.2 247 242.1 236.8 237.8 235.8 239.1 238.8 246.6 256.7 272.1 288.1 303.5 331.9 361.6 371.3 381.4 395.2 403 445.8 474.9 502.3
205.2 211.4 229.4 256.8 274.6 287.9 296.2 288.8 277.7 268 249.6 244.9 246.6 252.5 261.2 262 275.1 294.4 297.5 306.5 290.8 278.6 286 296.9 313 314.7 328.4 340.6 354.3 373.2 394.7 404.6 418.6 422.3 413.5 413.2 413.2 409.2 380.7 362.6 360 359.1 359.1 369 394.9 407.2 404.9 378 359.7 364.7 362.3 370.6 374.1 376.4 371.5 373 355.2 341.2 338.2 350.6 353.8 371.9 392.9 416.1 425.5 427 428.1 442.6 452.7 447.3 433.5 424.6 409.9 419.7 416.7 442.4 445.4 435.9 439 435.2 421.3 429.7 426.1 433.3 423.1 411.3 399.6 388.3 393.1 403.4 432.8 438.3 438.4 449.8 457.7 463.4 477.2 493 507.2 515.7 520.4 499.6 504.4 510.8 497.8 490 497.7 488.2 483.1 478.3 469.5 455.8 446.7 440.9 422.9 416.8 407.3 384.9 368.1 341.7 319.9 298.4 275.1 258.6 240.3 228.2 207.5 183.6 164.5 151.4 134.3 119 102.1 91.9 82.2 66.1 52.6 51.3 56.1 67.9 73.8 61.5 40.7 43.1 47.2 46.2 60.9 81.6 114.2 133.1 173.4 218 257.7 286.3 302.1 332 348.2 359.5 379 393.1 411.1 422.9 434.3 440.6 450.1 450.7 456.4 448.9 427.4 418.3 399.1 389.2 379.9 356.3 332.1 316.6 315.5 303.1 290.9 273.1 264.5 258.2 256 257.8 265.9 269.4 276.3 284.9 301.4 316.7 333 359.5 381.2 394.1 406 426 436.7 463.6 488.1 522.9
186.8 211.1 214.7 225.6 252.8 261 266.5 266.3 262.6 250.7 243.9 229.2 229.7 238.7 236.7 248 259.2 280.2 278.7 282.7 268.1 263.7 263.7 269.8 289.1 306.9 315.5 326.6 344.7 354.4 374.9 393.1 411.3 435.4 428 423.3 400.8 378.5 359.7 337.6 329.3 318.1 326.1 345.6 370.8 383.8 366.1 354.9 341.7 339.1 342.3 339.7 336 335 340 348.1 332.4 316.2 309.5 313.4 324.7 340.1 370.4 383.8 403.7 397.8 400.3 416.7 432.7 416.6 403.6 393 390.8 400.4 402.8 422.4 412.4 413.9 416.8 416 401.3 407.7 403.9 404.2 404.3 396 381.4 370.2 375.8 385.6 402.2 413.8 423.5 424.8 433.8 447 463.1 486.2 491.5 499.6 504.6 495.1 475.4 471.8 474.5 470.2 460.7 459.3 457.2 448.9 448.2 440.3 441.7 430.9 405.8 397.1 380.8 365 350.8 332.4 310.3 286.2 261.4 235.3 221.3 202.6 185 165.3 150.3 129.8 112 95.5 84.6 79.2 74.4 45.9 38.9 45.1 49.7 58.2 63.2 53.9 33.7 37.8 48.8 66.3 78.9 103.5 133.8 151.4 205.4 256.8 293.8 317.6 327.2 330.1 355.3 371.1 396.4 410.2 426.8 444.7 457.9 471.9 473.6 475.9 466.4 459 444.3 424.3 405.1 394.9 379.5 368 354.4 358.6 349.1 332.1 314.8 294.6 285.3 281.3 277.5 280 284.3 295.4 306.5 315.1 329.7 348.7 367.7 390.4 411.3 442.4 443 452.1 467.1 475.1 505.8 541.9
165.4 195.8 204.5 208.5 218.4 225.6 236.2 235.6 233.1 227.2 228.2 222 209.3 208.2 214.4 233.3 245.2 248.1 253.2 256.6 252.6 247.6 241.3 251.7 272.8 291.9 300.1 308 317.4 328.3 349.7 361.9 388.2 405.7 403.6 400.4 397.1 375.8 342.8 314.2 295.6 294.3 291.1 306 329.5 349.4 305.1 302.9 295.3 302.1 301 300.1 309.2 299.3 311.6 317.4 316.3 290.8 282.2 284.3 294.6 319 335 351.7 364.8 374 370.7 388.1 402.3 379.4 367.3 359.4 365.9 366.1 381.3 387.6 375.4 385.9 392.4 392.3 387.4 387.8 376.6 382.7 387.8 380.2 358.7 349.2 352.2 364.7 381.8 394.4 398.9 405.4 420.5 427.1 447.7 471.8 480.4 475.8 481.8 488 465.6 449.8 439 437.9 428.3 427.8 420.3 429.9 422.3 419.4 417 401.5 384.1 375.5 372.2 359.7 338.5 323 301.1 281.1 258.3 230.5 211.4 194.1 169.1 154.5 138.4 117.3 101 79.9 67.8 67.4 51.5 27.1 25.5 32.1 38 43.9 46.7 42.5 30.1 45 56.7 70.7 89.8 110.2 134.4 165.2 218.6 284.4 314.1 330.9 347 350.5 371.6 394.3 421.2 435.8 450.1 456.9 472.5 489.7 492.6 501 496.7 486.6 462.7 441.1 425.8 410.6 402.1 398 397.9 389.5 379.6 364.9 327.9 316.8 311.5 309.3 308.7 307 304.5 323.5 342.5 357.6 374.7 390 426 439.7 457.2 467.9 470.2 481.9 492.6 501.5 518.7 549.7
134.2 170.9 179.9 189.5 192.4 197 201.9 220.8 223.8 203.3 203.5 201.2 193.6 189.3 189.5 206.1 217.8 228.5 222.8 237.3 232.5 233.3 232.8 239.9 267.9 280.4 288.3 291.1 310.8 303.5 326.6 338.7 358.8 367.7 373.2 376.5 378.3 361.9 340.1 305.3 279.4 264 262.1 268.2 281.6 291.2 253.2 248.4 255.1 262.3 273.7 265.8 262.4 261.2 277.4 302.2 284.6 271.1 257.3 256.4 269.2 287.6 303.6 322.6 344.9 349.4 344.5 368.8 367.7 344.5 337.2 324 338.8 339.5 350.4 353 350.2 354.3 359.7 370.8 369.7 360.2 353.2 368.2 367.8 359.5 338 333.6 334.6 347.8 359.5 365.6 379.8 384.7 394.4 409.6 436.5 449.7 456.5 440.5 449.6 458.8 439.1 420.1 413.4 391.8 390.8 381.6 391.8 387.1 383.8 381.1 388.1 384.3 369.8 360.5 346.1 335.3 319.3 300 280.7 262.6 243 223.6 203.3 180.3 160.2 141.7 122.9 107.4 86.2 66.6 52.7 47.8 32 21.8 22.9 24.2 25.2 27.1 40.2 35.8 32.7 48.7 70.7 80.6 103.4 120.5 155.2 182.1 220.5 278.5 328.2 348.8 365.7 379.3 397 421.4 445.2 459.5 474.8 472.6 499.5 509.3 526.1 518 502.3 502.5 482.9 462.1 448.7 441.4 439 435.5 431.7 412.7 389.8 368.2 352.6 342.8 337.6 339.3 338.8 337.7 342.5 363.2 372.2 399.3 406.3 442.5 460.8 480.4 494.8 499.3 502.1 512.9 520.4 532.2 533.7 556.9
106.6 126.3 139.6 145.1 156.8 162.3 175.2 185.2 190.2 179.5 175.8 174.6 154.9 166.6 173 194.5 190.7 204.2 202.7 214.4 206.3 204.1 209.8 226.3 248.6 251.4 255 261 280.2 289.8 301.4 307.7 322.5 340.6 350.5 343.7 346.7 348.1 333.7 300.9 269.2 251.2 237.9 234.9 232.7 217.7 212.2 205.9 215.3 236.6 245.3 226.8 222.1 230.4 249.4 258.2 244.8 235.7 234.3 229.5 241 254.7 273.8 306.5 314.1 320.4 319.1 340.6 334.4 317.3 309 291.5 308.3 313.1 318.6 324.2 326.9 332.9 338.3 349.6 346.5 340.2 333 340.5 342.3 329.5 315.1 318.9 322.3 335.5 340.1 351.3 358.5 366.6 377.3 385.4 410.2 420.9 420.8 415.4 415.9 415.7 399 389.9 373.5 362.5 347.7 347.1 350.7 349.3 351.2 369.3 375.6 359.9 343.7 347.2 322.5 308.9 305.2 280.4 268.1 256.4 235.9 213.4 193.2 172.5 152.8 134.3 105.3 87.5 74 54.3 43 33.8 25 20 20.7 20.4 22.9 26.3 42.6 24.3 37 52.4 72.4 87.7 116.9 140.4 178.2 187.3 241.3 282.5 334.5 362.4 383.9 406.6 420.9 439.9 457.4 481.7 494.2 499.9 510.4 521.2 526.2 530.9 528 515.7 495.5 495 484.5 472.5 485.1 478.4 449.9 428.1 404.8 398.1 387 373 371.4 372.3 368.1 377.3 384 395.2 410 422.4 436 462 494.2 511.3 522.1 523.2 529.7 547.6 555.2 555.2 560.9 570.6
67.1 84 94.5 113.2 130.6 130.8 153.7 153.7 163.5 167.4 153.8 150.9 142 145.2 149.8 166.8 177.5 180.3 184.4 183.5 183.5 179.1 199.6 210.6 221.9 229.2 233.5 232.9 240.6 260.1 266.6 274.1 289.5 298.2 306.7 317.7 316.5 315.6 312.2 287.7 252.7 240.4 230.3 206.7 199.2 188.5 176.2 170.2 185.4 200.7 196.2 197.1 189.1 191.4 196.6 193.7 188.2 192.3 197 198.8 212.4 235.1 263.2 277.9 286.9 293.5 296.6 312.1 308 291.8 282 273.5 281.5 292 299.3 298 297.3 303.1 319 333.7 326.9 319.4 316.8 310.1 310.9 296.9 291.3 306.8 301.9 317.9 316.1 321.4 332.5 347.4 354.1 360.9 375.1 386.8 387 371.8 376.5 380.1 358.5 348.6 342.2 342.3 322.2 311 324.1 320.2 328 336.2 346.3 331.1 324 320.2 291 299.9 278.6 275.6 263.2 240.9 219.5 204.9 180.6 162.1 145.9 122.1 97.4 74.4 57.4 43.2 35.7 27.7 21.4 18.8 18.9 19.4 21.2 19.9 22.4 28.5 41.2 57.1 74.7 98.1 133.5 159.6 184.7 214.3 261 294.7 345.1 372.3 405.7 431.2 446.5 455.8 475.7 499.1 520.8 524.2 531.5 543.7 548.7 562.3 562.9 548.3 537.3 529.9 532.4 515.3 517.6 489.9 470 450.2 445.9 438.9 428.6 405.7 406.7 410.1 415.9 438.9 428.3 412.8 440.8 456.7 464.8 486.9 527.5 539.4 549.7 552.1 557.4 566.8 575.4 582.9 594.4 587.1
