ncols 200
nrows 82
xllcorner 230000
yllcorner 764550
cellsize 50
430.2 418.1 383.3 348.7 321.9 300.9 278 265.3 259 258.6 259.4 265.3 267.5 274.4 273.7 275.1 273.5 271.5 271 272 286.4 299.4 311.3 326.6 332.5 351 356.6 362.9 367 367.1 371.8 370.6 362.5 353.2 334.4 317.6 304.1 294.5 280.8 266.9 260.2 264.5 269.6 280.7 296.6 297.7 298.3 308.6 312.4 318.6 328.8 340.3 357.5 344.7 321.2 309.4 303.3 293.6 305.9 316.7 333.4 351.4 369.7 382.7 392 408.4 424.7 442.1 464.8 480 491.9 500.7 509 513.9 518.1 515.3 516.6 516.6 517.8 516.9 513.5 511.1 502.2 496.1 488 480.6 478.7 475 472.1 468.2 468.3 466.5 465.2 463.6 458.2 449.6 459.7 459.3 463 469.1 477.4 483.9 489.2 494.2 500.8 506.2 513.9 523 536.8 548.9 559.2 566.1 579.9 595.5 605.3 618.5 631.5 641.4 650.2 658.3 667.9 672.7 676.6 679 681.7 683.2 685.3 685.3 686.4 687.6 687.1 686.4 683.1 681.2 679 677.1 676.9 676 674.7 672.9 671.3 669.8 669.3 667.8 665.6 661.8 658.3 654.8 649.4 642.7 632.6 625 615.9 607 595.7 584.4 576.2 569.4 561.6 554.5 544.8 535 525.7 515.5 506.1 496.8 487.7 483.3 477.3 470.7 462.1 455.5 448.9 444.2 441.2 441.2 439.7 438 436.7 434.7 432.1 432.4 433.6 430.9 429.3 423.8 417.5 412.5 408.3 402.3 398.4 396 390.2 388 388 388 388 388 388 388
418.6 394.6 361.9 331.1 316 290.9 268.2 259.3 261.5 261.8 264.6 273.4 277.8 283.8 276.5 277.3 281 278.5 276.7 285.4 299.4 312 322.4 336 346 360.1 365.4 373.9 377 375.6 380.1 377.8 364.9 349.8 338.4 334.8 321.8 312.3 281.1 263.7 258.5 271.6 276.7 288.7 302.6 305.8 310 326.5 331.7 332.7 347 356.3 367.7 356.9 328.1 318.5 309.2 301.6 307.6 320.5 336.1 348.7 362.7 377 391.2 407.2 419.7 437.1 456.2 470 485.2 489.7 495.8 499.9 505.2 502.9 505.1 505 502.2 503.1 494 489.8 484.8 476.3 472.6 468.5 465.3 460.2 461 458.2 457.7 458.4 456.1 454.3 447.3 450.6 453 457.1 464.4 471.3 477 483.7 490.4 497.4 502.9 509.3 515.8 524.4 534.3 545.4 559.1 577.9 587 600.6 616.4 624.8 633.3 640.7 651.1 656.6 661.3 664 667.5 670.3 670.7 671.2 673.2 673.4 673.6 673.8 673.9 671.8 669.4 668.2 666.2 665 663.4 661.4 658.9 659.3 656.8 655.9 654.9 652.6 649.4 647.3 642.5 637.7 630.1 622.9 614.5 605.8 594 586.8 577.4 571.6 562.6 555.6 548.4 538.8 531.3 522.4 514.1 502.5 493.1 485.4 474.9 468.1 460.3 455.2 449 442.6 440 436.2 434 435.4 433.1 434.2 430.2 428.2 427.6 426.3 423.4 419.7 416.2 413.2 406.5 402.5 399.5 395.6 393.8 390.5 388 388 388 388 388 388 388 388
409 382.6 347.9 324 302.8 279 265.4 260.7 262.1 263.6 270.2 275.9 284.7 288.1 285.8 288.4 284.5 280 287.4 298.2 310.8 319.7 334.9 344.6 354.1 358 367.4 377.1 381.7 384.6 382.5 375.8 370.1 353.6 345.5 337.6 318.5 294.1 269.8 261 263 282.8 284.7 295 305.8 312.9 325.5 347.1 342.4 345.3 358.4 378.4 377.2 354.5 334.8 322.3 315.3 310 306.8 322.3 333.1 344.8 359.9 371.7 386.4 403.6 420.6 439.1 450.3 462.6 472.1 477.5 483.3 487.9 490.6 493.2 491.6 492.8 490.1 481.4 479.3 476.2 470.5 465 460.7 459.5 456.4 455.5 453 453 451 450.4 447.8 446.3 441.4 444.5 451.1 456.9 466.7 473.7 481.5 487.1 491.9 496.5 499.7 508 516.1 532.6 547 553.9 570.5 581.7 597 608.3 616.6 624.1 632.7 639.7 645.5 649.8 653.6 656.5 659.2 660.8 662.4 662.6 661.8 663 662.5 661.4 659.4 658.7 657.6 654.6 652.8 650.3 649.7 646.5 645.3 646.4 645.8 643.7 641.6 638.2 633.2 628.5 624.1 618.5 612.6 608.5 598.5 589.2 578.4 570.7 563.4 557 548.6 539.6 533.1 524.8 516.2 510.3 501.5 492.1 482.1 472.5 463.5 457.1 449.5 446.1 442.4 438.2 435.7 430.5 427.7 427.6 425.3 424.8 421.9 423.4 421.6 416.7 412.3 408.7 405.5 402 398.8 395.9 393.3 389.9 388 388 388 388 388 388 388 388 388 388
388.5 366.9 336.5 324.3 296.8 278.6 267 261.7 263.7 270.8 273.2 281.1 287.9 295.3 297.2 292.6 286.7 288.8 298 310.9 319.5 329 341.6 347.1 357.8 361.5 370 378.6 385.6 386.1 377.7 372.6 370.2 348.9 336.6 320.8 302.8 278.5 263.5 263 266.4 282.7 288.7 300.7 311.8 325 344.3 350.7 352 366.3 375 381.5 370.7 356 340.8 330.3 321.8 316 310.1 322.1 331.6 341.6 353.1 366.8 381.6 402.4 417.3 430.8 441.8 452.5 463.3 471.4 472.2 474.2 477 478.5 480 477.2 466.5 468.1 463.6 459.8 455.9 454 451.4 451.3 446.6 445.2 444.1 445.1 441 439.8 438 439.3 436.7 444 452.9 459.4 463.8 470.2 475.6 481.9 486.6 492.8 505.4 516.1 528.1 539.9 553.9 561.8 574.3 587.9 597.9 609.2 617 627.1 631.4 635.7 638.3 643.7 645.6 647.3 649.4 652.4 653.2 651.6 652.8 652 651 649.8 648.4 647.5 645.9 642.7 640 637.3 634.8 633.3 630.9 631.2 630.7 627.5 626.2 622.4 617.7 611.7 607.7 602.9 597.2 590.3 579.2 572.2 563.7 555.4 544.8 536.4 531.4 524 516.6 511.8 503.3 495.1 486.7 477.2 470.2 462.4 455.9 447.8 440.1 438.4 436.5 433.3 429.3 426.1 421.8 419.7 419.6 416.3 413.3 414.7 411.8 409.6 405.1 403.2 400.3 398.3 390.6 388 388 388 388 388 388 388 388 388 388 388 388 388
365.9 344 338.3 310.6 290.3 276.8 265.7 262.2 270.1 270.2 276.3 283.6 301.5 299.8 299.9 292.6 293.6 299.9 311.7 323.3 330.5 340.9 343.7 350.8 356.5 363.2 369.6 381.6 380.9 377.2 372.5 372 356.9 336.8 319.9 308 286.2 269.6 264.3 264.9 268.5 283 295 307.4 323.3 337.2 347.2 355.7 366.5 382.9 405.9 399.9 377.3 357.9 347.2 338.1 328.9 323.3 316.1 319.3 328.3 336 346 359.8 373.6 391.4 405.5 417.2 433.4 442.4 449.4 454.2 459 461.8 466.6 467.8 466.3 456.2 457.9 455.3 449.9 445.7 444.2 442.6 439.8 438.3 439.1 438.8 438.2 435.5 431.9 429.3 430.8 432 434.3 446.6 452.7 459.3 466 472.5 478 483.4 492.1 503.9 513.5 526.2 533 544.4 560 568.3 577.9 588.2 597.9 608.3 616.3 620.5 624.4 625.9 630.7 633 636.4 639 641.3 641.5 642.6 640.7 642.1 640.5 640.2 639.9 637.4 635.3 631.9 629 625.5 622.2 620.5 619 617.3 615.4 615.1 609.5 608.2 605.8 601.4 596.3 590.3 587.1 578.4 569.9 562.7 552.6 544.7 537.2 529.7 525.7 516.8 509.8 504.2 496.8 490.8 485.8 475.9 463.6 458.2 453.3 445 438.7 432.8 428.3 426 423.3 420.1 417.3 414.4 412.7 412.5 410.2 407.4 408 408.1 404.9 403.8 400.4 397.9 394.9 390.5 388.7 388 388 388 388 388 388 388 388 388 388 388 388
345.6 336.1 329.3 299.5 288.1 272.5 264.5 261 269 273.1 280.3 294 302.6 298.7 295.5 294.8 300.9 312.6 324.6 332.8 337.5 345 344.8 352.3 361 369.5 369.7 376.7 375.4 370.4 369.6 357.6 340.1 322.4 309.7 290.7 278.4 268.7 265.2 270.1 279 292.3 303 315.7 329.5 342.9 353.4 367.3 377.8 401.3 406.3 400 383 371.1 359 350.7 337.4 325.7 320.3 316.7 322.8 333.7 343.6 356 368.7 382.1 395 410.7 423.8 432.1 435.6 442.3 447.5 454.1 455.1 455.2 450.9 447.7 444.5 443 438.2 434.7 431.8 430.7 430.9 433 432.4 428.7 427.7 424.9 422.3 419.4 419 430.6 438.8 447.6 455.2 461.4 466.9 472 480.3 487.9 497.5 511.1 518.5 527.6 539.1 547.7 560.2 570 579 587.9 592.9 598.9 606.3 612.1 614.5 619.1 620.5 622.4 625.2 626.7 630.2 632.5 632 632.3 630.8 630.7 630.2 626.3 622.5 619.9 616.6 613.8 611.3 609.1 606.9 605.3 603.3 601.3 598.8 595.1 593.7 589.2 584.9 580.1 573.2 567.7 560.2 550.3 543.8 537.7 530.2 523.3 517.2 510.7 504 498.3 492.2 487.6 478.4 470.8 462 453.8 445.8 444.4 436.9 430.6 426.5 419.3 415.6 413.1 411.1 409.1 408.1 407.5 407.9 405.7 404.1 402.9 403.1 398.6 396.4 396.2 395.9 393 389.5 388 388 388 388 388 388 388 388 388 388 388 388 388
339.7 341.3 318.8 299.5 282.3 270.6 265.2 262 273.4 275.4 284 292 296.6 297.3 296.8 304.9 311 320.7 328.6 335 343 341.7 351.8 354.7 366.6 365.4 365.4 368 364.7 361.2 357.3 339.6 325.7 308.8 294.3 280.2 272 267.5 269.5 277.3 288.1 300.8 312 324.6 334.3 355 377.6 376.7 385.3 400.9 400.3 398.4 384.3 376.9 372 359.2 342 332.6 327 320.6 322.8 329.2 341.8 349 362.2 376 392.2 400.6 412.5 420.1 426 436.2 443.8 445.4 443.2 443.7 439.3 433.1 433.3 429.1 424.5 422.5 421.4 419.6 419.9 420.3 422.3 420.5 416.6 415.5 411.8 416.9 424.2 431 441.2 449.8 455.5 460.9 467.2 472.6 480.6 489 499.8 506.5 513.7 524.1 533.8 544.3 556 567.1 572.4 577.4 582.3 593.4 601 604.1 607.4 609.6 609.4 611.2 612.7 615.3 619.5 620.8 621.8 622 619.2 616.6 612.8 609.1 607.8 605.1 601.9 599.1 597.9 596.1 594 591.8 588 585.7 582.7 581.5 576.2 571.9 566.4 563 555.8 547.4 541.1 534.7 527.3 520.9 515 510.9 506.5 500.7 493.9 487.2 481.5 475.7 467.6 458.2 451 443.7 437 432.7 429.8 424.4 420 415 409.1 408.8 405.1 403.1 405 404.5 404.5 402.3 401.6 397.3 398.4 394.7 390.2 389.8 390.5 388 388 388 388 388 388 388 388 388 388 388 388 388 388 388
356.6 349.6 318.9 299.1 279.4 270.8 265.7 263 272.7 278.5 286.1 291.8 293.3 295.1 302.9 310 319.9 328.6 331.2 340.3 341.8 346.8 351.3 357.8 363 363.8 361.5 360.6 355.3 348.5 339.7 327.1 311.9 298.1 286.8 278.1 271.1 271.3 276.6 285.8 294.6 309 319.4 329.6 357.1 373.1 375 381.5 389.3 399.6 396.9 392.9 383.5 378.8 372.4 358.4 349.1 342.4 337 329 319.8 330.4 335.7 344.4 356.4 368.6 381.8 394.1 403.7 409.5 418.9 426.4 431 431.9 433.7 426.1 423.2 422.3 419.3 417.1 413.7 411.7 411.5 409.9 411.1 410.3 410.3 409.2 406.9 405.4 402.7 418.9 425.2 431.5 439.5 447.4 453.3 459.6 466.5 472 477.8 483 491.6 499.6 506.4 515.4 527.9 540.2 547.7 556 563.8 573.8 583.6 588.6 590.3 593.2 596.7 597.4 598.8 599.9 602.5 604.4 606.1 605.1 607.1 604.3 603.9 600.9 598 594.9 592.4 590 587.9 586.1 584.9 583.1 580.6 578 573.1 571 568.7 563.4 559.8 555.1 550.3 544.2 536.9 530 524.9 516.1 511.2 506.7 502.9 499.3 493.7 484.8 479.7 474.8 469.7 464.6 455.7 445.3 440.2 434.4 427.8 421.9 423.8 415.8 411.8 409.3 408 405.8 405.3 402.3 400.3 399 397.2 395 395.9 396.7 392.2 390.2 388 388 388 388 388 388 388 388 388 388 388 388 388 388 388 388 388 388
363.7 358.5 313.9 298.6 277.8 272.1 263.7 271 273.7 279.5 286.6 289.4 291.3 300.8 309.9 315.9 326.8 331.7 335 342.7 348.5 347.5 351.8 357.8 359.7 358.3 355.8 349.9 344 335.1 324.7 314 305.5 291.2 284.8 276.6 270.9 274.2 284.4 294.7 304.9 315.5 328.5 339.5 363.5 371.7 380.9 388.3 393.6 398.1 393.5 391.4 385.3 379.8 373.6 359.9 354 351.4 345.1 336.1 328.1 324.7 333.1 343.7 352.1 361.1 373.4 384 392.2 402 411.9 412.5 418.9 417 414.5 408.1 408.9 409.5 408.4 401.6 400.9 400.9 401 398.6 399.7 399.9 395.3 390.9 392.9 396 411.9 419.2 425.9 433 439.2 443.8 450.4 454.5 462.7 467.3 474.4 482.7 486.7 495 502.3 513.5 524.5 534.6 543.3 554.6 561.2 571.6 573.4 577.1 578.9 583.7 584.4 586.5 587.7 589.7 593.3 592.1 592.9 592.6 591.5 590.8 587.7 585.7 581.7 580.5 577.5 575.5 574.6 572.4 570.7 567.3 565 562.1 558.8 555.5 551.5 548.6 543.6 539.3 532.5 527.2 521.7 513 509.9 501.4 498.8 493.2 489.9 482.3 477.8 470.7 469.4 463.9 458.4 450.3 444.5 434.1 428.1 424 419.5 414.7 415 409.2 405.7 403.8 404.2 399.6 396.7 397 394.3 395 394.6 393.7 390.9 389.3 388 388 388 388 388 388 388 388 388 388 388 388 388 388 388 388 388 388 388 388
357.2 344 312 295.6 277 269.4 268.7 272.5 276.4 280.3 287.1 290.8 298.6 307.1 311.7 317.8 327.2 332.4 343.1 354.4 347 346.6 351.8 356.1 353.4 351 348.6 339.8 330.4 323.5 314 305 294.6 287.6 283.3 280.2 274.6 281.5 292.1 306.1 314.7 327.2 335.8 349.4 369.1 386.1 385.7 391 395.5 397.4 392.1 388.4 384.5 381.1 375.9 367.3 365 362.1 350.5 342.5 334.4 328.1 334.3 340.5 348.1 357.8 365.5 374.3 383.3 392.3 401 395.4 402.3 395.7 394.1 391.9 394.4 393.5 392.2 389.4 386.3 386.6 389.2 389.6 390.1 386.3 386.6 395.2 401.1 406.2 413.7 420.3 425.5 432.5 436.6 443.6 448.6 454.5 460.5 466 474.3 479 484.1 491 500.1 510.2 520.2 530 539.3 546 553.2 557.8 563.7 565.2 570.1 574.8 576.8 576.7 577.1 579.8 580.7 580.2 578.7 577.6 576.6 575.6 573.6 570.2 568.2 565.9 566.3 562.5 562 558.8 556.4 554.9 551.1 548.8 544.6 540.4 536.9 533.1 526.1 521.4 519.1 511.4 506.2 497.7 491.7 488.8 487.4 478 476.1 469.3 465.7 461.9 459 455.4 448.4 440.2 432.8 426 421.1 413.2 409.3 405.7 405 404.3 402.6 398.7 397.6 398.3 395.4 392.3 391.6 391 391 388.6 388 388 388 388 388 388 388 388 388 388 388 388 388 388 388 388 388 388 388 388 388 388
344.4 320 309.7 280.7 274.8 267.9 270 275.5 279.2 283.5 294.2 293.2 301.5 311.2 312.7 320.3 332.2 343.9 351.1 354.3 343.8 348.5 350.6 350.3 347.1 343.7 335.3 327.1 322.2 316.7 309.8 298.6 291.5 288.7 285.5 275.4 282.1 290.1 300.7 314.1 328.2 336.5 341 353.8 371.7 382.6 386.8 392.9 395 397.1 392.3 388.7 384.2 380.1 374.2 373.9 367.3 360.7 355.4 350.7 345.4 337.7 331 339.4 346 352.1 360.8 366.5 372 377.5 380.7 382.8 383.4 382.2 382.4 378.1 378.1 378.5 379.4 377.6 377.9 379.1 383.1 383.1 380 383.8 387 394.3 399.8 405.6 412.5 418.3 423.8 429.6 435.6 441.6 445.5 451.5 458.9 464.6 471.2 475.7 482.7 490.1 500.8 508.4 517.4 524.8 533.5 539.1 544.8 548.6 552.9 557.4 560.2 563.2 566.2 567.2 568.4 568.8 568.1 566 564.9 563 560.8 559.9 559.3 555.9 553.5 551.7 549.8 548.7 547.5 547.2 542.6 541.3 538.3 534.2 530.6 524 522.5 517 509.8 505.3 501.5 497.1 492.8 488.1 476.8 475.8 470.6 465.2 461.9 458.5 454 451.7 449.1 441.8 434.1 427.1 420.1 416.2 412.7 405.8 400.2 403 399.2 400.1 395.8 393.2 392.1 390.5 391.2 388 388.7 388 388 388 388 388 388 388 388 388 388 388 388 388 388 388 388 388 388 388 388 388 388 388 388 388
335.7 311.5 297.3 275.1 269.6 270.5 270.6 275.8 282.2 294.9 293.8 296.1 300 309.5 315.4 326.9 335.4 342.5 348 344.6 341.9 348.8 348.8 345.1 343.7 334.1 325.6 321.6 312.2 307.3 302.6 296.3 291.7 288.3 284.2 284.4 294.7 302.9 314.8 330 344 346 352.8 360 367.6 376.1 385 392.6 394.3 395.3 392.5 388.1 385 381 375.4 372.4 366.8 367.2 367.5 360.2 352.5 345.8 339.4 336 337.1 340.9 349.1 357.2 360.7 368.2 365.5 368.2 373.2 372.3 370.5 369.4 374 373.9 375.4 371.2 372.6 375.5 376.5 378.6 380.1 385.4 389.8 394.2 401.2 406.3 409.9 416.1 419.9 426.3 432.4 438.2 444.3 449 454.9 462.7 466.3 472.3 479.8 487.5 494.6 501.3 511.3 518.6 523.3 528.2 533.8 538.9 543.1 545.3 549.8 553.4 555.6 555 555.6 556 554.3 553.4 551.8 550.8 549 545.8 545 542.8 539.6 537.4 535.5 535.6 533.3 530.9 528.7 525.6 522.7 520.2 515.2 511.6 506.6 500 494.9 489.7 486.4 483.9 479.8 472 463.9 460.8 456.3 452.2 447.5 444.6 440.2 439.1 436.6 426 421.2 416.8 409.9 407.5 403.9 403.3 397.7 400.8 395.1 393.1 391.4 389.2 390.8 390.1 388 388 388 388 388 388 388 388 388 388 388 388 388 388 388 388 388 388 388 388 388 388 388 388 388 388 388 388
324.4 305.1 281.7 274 271 268.5 274.8 281.7 286.5 290.4 294.5 297.1 297.7 311.6 318.1 327.8 338.2 346.4 350.6 341.1 340.2 340.1 344.5 338.5 335.8 323.7 317.5 311.7 306.3 302.6 299.3 296.8 292.8 290.6 291.6 288.8 299.2 315.1 330.8 344.3 358.5 355.6 359.8 364.5 368.2 377.6 384.3 390.8 392.1 393.3 390.6 387.7 386.3 382.5 378.3 374.8 370.2 373.3 368.6 361 361 356.7 349.6 345.1 345.7 344.5 343.3 345.4 347.9 350.2 353.3 355.9 358.3 361.6 363.1 365.2 367.8 370.3 373.6 374.6 377.9 375.5 379.4 379 382.8 383.7 386.5 392.2 397.8 404.3 411.1 414.3 418.4 423.6 431.8 436.3 441.7 446.6 452 455 461.7 468.2 474.7 483.4 489.7 497.7 504.1 509.4 515.5 521.4 527.9 532 535.5 539.3 540.7 542.9 543.6 545.1 545 543.9 544.2 542.5 540.3 539 536 533.8 531 529.2 526.9 523.5 521.7 521.1 518.5 517.8 513.8 510.2 508.7 503.9 500.5 496.6 490.4 485.1 481.7 475.7 471.6 468.4 462.6 458 451.9 448.4 445 441.4 436.4 431.7 428.8 422.7 418.5 412.3 409.4 406 402.9 399.5 398.1 398.4 394.6 390.1 390.7 390.1 388 388 388 388 388 388 388 388 388 388 388 388 388 388 388 388 388 388 388 388 388 388 388 388 388 388 388 388 388 388 388 397.9
311.9 297.5 283.9 272.8 271.9 271.1 269.8 278.6 287.3 292.4 295.6 300.2 301.6 314 323.7 331.6 340.7 350.9 343.3 340.8 340.5 338.7 340.2 338.8 325.3 317.3 311 311.4 305.5 300.5 299.8 299.1 297.5 293.2 295.3 297.1 302.9 323.1 342.9 365.1 369.4 364.5 368.4 370.8 373.2 377.9 381.9 390.2 391.4 391.2 388.3 387.4 382.4 382.4 383.8 375.2 377.4 375.7 370.4 367 368.4 364.7 362.9 361.1 357.7 355.7 354 355.7 358.9 359.4 362 362.9 363.9 363.2 364.1 363.9 366 366.5 367.8 373.4 374.2 374.1 377 376 378.8 377.7 381.2 387 393.9 404.5 408.9 413.9 416.7 422.1 427.7 431.7 439.5 444.8 446.8 451.6 458.7 466.1 470.6 478.9 487.9 493 498.9 505 510.4 514.8 519.9 523.9 526.6 529 532.4 533.2 534.6 534.9 534.6 534.5 533.7 531.5 529.8 526.9 525.1 523.5 521.2 518 515.7 513.3 511 507.4 505.5 502.6 500.5 497.6 493.4 489.1 484.8 480.9 477.3 471.5 467.5 463.6 459.1 454.5 451.5 443.2 439.3 435.5 432 426 422 418.2 413.6 411.1 406.5 403.9 402.4 396.9 397.6 393.4 394.8 394.6 393.3 393.7 389.2 388 388 388 388 388 388 388 388 388 388 388 388 388 388 388 388 388 388 388 388 388 388 388 388 388 388 388 388 388 388 390.4 399.7 412.1
299.3 289.5 278.3 273.2 272.4 270.9 278 285 289.7 297.3 305.3 303.5 305.5 315.6 327.5 334.4 340.7 343.9 342 341.4 340.5 339.7 334.7 329.1 322.3 318.4 310.7 307.2 303 301.3 300.5 301.3 300.9 302 300.8 303.8 315.4 333.2 353.7 367 374.1 376.2 376.2 381.5 386.5 380.8 382.3 389.6 391.8 392.2 389.6 384.3 387.6 388.6 385.4 382.4 382 375.9 372.4 374.4 374.8 372.8 371.9 370.7 370.6 369.9 369.4 370.2 371.3 371.5 371.8 371.3 369.6 369.2 370.3 369.2 370.7 371.2 368.8 370 375.6 374.3 378.7 373.9 374.1 376.2 379 384.4 392.5 400.4 406 409.5 414.3 418.4 423.7 429.8 436.7 437.9 444.4 449.5 453.3 460.9 469 476.8 483.9 489.2 496.8 501.4 505.2 508.6 512.3 516.3 518.4 521.2 523.2 524.1 525.2 525.3 525 524.5 522.7 521.2 520.1 516.6 515.1 511.1 509.8 506.5 504.2 502.5 498.7 495.6 491.7 488.5 486.1 482.9 479.3 476.2 473.3 467.8 463.3 460.4 455.2 449.9 448.5 440.2 437.8 432.9 427.1 422.7 418 413.3 410.3 408.5 402.1 401.4 401.5 397 393.6 393.8 388 389.3 389.4 390 389.4 388 388.5 388 388 388 388 388 388 388 388 388 388 388 388 388 388 388 388 388 388 388 388 388 388 388 388 388 388 388 388 390.4 398 402.1 413.8 427.7
275.4 275.8 273.7 271.7 271.8 275.3 280.7 285.8 287.5 297.3 302 303.7 309.4 318.8 327.7 334.4 340.3 343.6 342.4 340.7 340.1 338.8 332 324.6 319.8 314.5 310.4 308.1 306.7 304.4 305.2 305.3 305.7 306.6 301.5 308.5 325.6 345.9 361.7 370.1 378.7 383.5 386 387.4 389.4 388.8 388.2 391 393.8 390.6 390.2 386.5 390.6 390.8 388.4 385.4 380.9 381.9 384.3 383.1 382.9 383.1 383.9 383.4 379.9 381.4 380.2 379.7 378.6 377.3 378.3 379.9 381.3 379.2 378.3 376.6 375.4 375.6 370.8 370.3 369.5 370.9 371.5 373.4 375.9 380.2 383.9 388.5 387.1 393.5 398.1 404.2 407.6 412.7 416.8 425.2 429.7 434.3 442.9 445.2 449.1 456.3 463.1 472.3 477.9 483.3 489.4 494.2 497.4 499.9 504 507.6 510.8 514 514.8 516.1 516.9 516 516.6 515.4 513.7 511 510.4 507 505.1 502 498.7 495.4 492.7 488.9 487.5 482.4 478.7 477.4 474.3 471.1 466 465.9 460.4 458.6 454.5 449.3 445.2 440.9 435.6 428.3 424.2 421 416.1 412.6 410.3 405.4 401.7 401 396.9 396.2 392.6 389.8 388 388 388 388 388 388 388 388 388 388 388 388 388 388 388 388 388 388 388 388 388 388 388 388 388 388 388 388 388 388 388 388 388 388 388 388 395.9 401.3 408.7 417.6 429.5 445.7
280 279.9 280.4 276.9 275.1 280 281.8 282.4 290.2 295.9 300.5 307 315.1 321.9 329.1 334.4 341.6 341.8 342 341.8 339.7 337.9 332.8 325.3 320 314.4 312.9 313.3 310.3 309.6 310.1 309.9 312.8 313.6 310.7 316.3 333.8 352.1 365.5 374.6 384.2 390 392.6 398.2 393.6 394.3 391.3 391.6 391.4 390.9 390.3 387.3 393 393.1 387.6 387.2 384.6 387.1 391.1 391.8 388.9 389.6 392.8 389.6 390.1 387.9 386.4 386.1 384.6 382.5 387.9 387.2 389.9 389.2 386.2 382.5 378.7 377.1 373.8 373.9 374.3 375.1 374.5 374.7 378.4 383.9 381.7 386 385.5 391.5 392.3 395.6 401.6 407.5 412.1 421.4 424.9 430.2 438.4 439.3 447.3 452 458.6 467.5 470.4 478 483.4 486.5 491.2 493 497.3 499.8 504.2 506.2 508.4 509.4 509.4 509.1 507.1 505.9 504.3 503.9 500.2 497.4 495.3 491.1 487.4 485.4 481.6 479.4 475.1 471.1 469.2 467.7 463.6 459.4 456.2 452.4 452 448.9 441.2 437.7 434.8 428.2 421.3 417.7 412.1 409.5 410.4 405.5 399.3 397.7 397.2 393.3 392.1 388.3 388 388 388 388 388 388 388 388 388 388 388 388 388 388 388 388 388 388 388 388 388 388 388 388 388 388 388 388 388 388 388 388 388 388 388 391.6 395.6 395.5 406.8 414.5 420.4 430.2 446.1 465
296.2 291.8 289.3 283.6 278.9 284.3 290.5 286.3 293.9 296.2 303.6 309.6 315.3 324.2 330.3 334.3 338.8 341.2 340.5 341.4 340.9 336.5 332.5 327.1 320.8 318.3 316.8 317.7 315.9 316.5 316.8 317.7 315.2 314.9 314.4 324.5 343.2 359.7 370.6 376.9 388.3 395.9 406.6 406.7 400.5 398.1 394.9 392.1 391.6 391.4 388.4 389.2 393.3 393.4 390.1 390.2 387.2 389.7 394.4 392.1 392.1 392.4 397.5 397.1 397.7 395.4 394.3 393.3 392.2 392.9 393.9 392.7 396.5 395.4 391.4 386.8 384.1 378.8 378.2 379.5 380.4 379.6 377.2 379.5 379.9 381.8 382.8 387.1 385.9 386.3 392.8 396.9 396.7 401.7 408.6 414.8 415.1 424.1 426 434 439.6 446.4 452.6 457.5 463.3 470.3 474.8 478.1 483.5 487.1 492.3 496.5 497.9 498.8 501 501.6 499.9 501.1 498.9 496.8 495.3 492.9 489.7 485.8 482.6 480 477.7 474.1 471.8 467.9 463.1 461.5 459.4 456.8 450.3 446.4 445.1 443.1 439.4 432.5 427.2 424.8 423.6 418 411.7 409.2 404.9 400.4 399.8 398.1 394.9 391 391.5 388.7 388 388 388 388 388 388 388 388 388 388 388 388 388 388 388 388 388 388 388 388 388 388 388 388 388 388 388 388 388 388 388 388 388 388 388 391.2 396.5 400 407.3 409.9 418.9 427 438.3 448.2 466.4 482.7
314.4 303.5 295.6 287.5 284.8 285.6 287.8 293.8 292.5 300.5 305.7 313.8 320.2 325.3 329.6 334.6 338 339.9 341.2 340.6 340.6 337.6 333.4 326.4 323 323.9 323.3 324.1 323.7 324 324 323 323.1 319.7 320.3 332.8 350.9 364 373.7 384.6 393.3 402 414.7 406.2 406.4 403.8 398.3 394 391.2 390.6 389.6 392.4 393.4 396.5 393 396.9 395.4 392.2 398.2 398.1 399.9 404 404.3 404.5 402.4 399.8 399 397.6 397.9 397.9 397 398.4 399 397.1 396.1 389.1 391.1 389.4 385.3 382.6 385.6 385.7 382.2 383.5 382.4 382 384.5 386.2 384.1 388 389.1 390 393.6 401.4 404.9 405 409.2 414.3 420.5 428.1 433.8 438.7 445.4 450.4 458.1 462.5 468.4 472.8 478.1 483.8 486.8 490.5 491.2 491.8 491.7 493.2 492.6 491.5 489.5 487.4 484.7 481 479.6 477.3 473.4 471.2 469.1 463.2 461.3 459.4 457.1 452.7 449 444.5 441.3 439.1 434.6 432.6 426.1 421.4 418.3 416.1 411.9 409 405.5 400 404.4 396.8 392.4 391.7 388 388 388 388 388 388 388 388 388 388 388 388 388 388 388 388 388 388 388 388 388 388 388 388 388 388 388 388 388 388 388 388 388 388 388 388 392.5 392.5 398.4 400.3 404.1 409.6 417.8 425.2 431.7 444.3 457.6 465.6 482.7 501.8
330.5 314.9 301.7 297.5 294.8 296.4 295.9 303.1 305.9 300.1 307.5 316.9 327.5 327.1 331.1 335.9 337.6 340 340.4 341.2 339.4 335.7 330.8 329.2 328.1 328.1 329.9 330.4 333.4 333.5 331.1 327.2 329 322.6 327.5 342 356.1 369 380.7 394.4 399.1 408.3 410 407 413.3 407.4 402 396.3 392 390.9 396.6 393.8 393.4 398.7 395.1 399.6 400.7 401.4 401.3 401.3 405.6 409.4 408.4 406.8 405.1 403.9 402 400.9 403 401 401 402.6 400.7 399.6 394.6 394.4 398 394.2 392.4 388.8 386.9 385.9 386.5 388.6 389.9 386.2 383.8 383.5 383.3 390.3 391.3 393.8 398.5 399.5 401.1 401.8 405.4 410.4 415.6 422.6 426.9 432.7 439.2 443.6 447.5 455.3 462.1 467.9 473.3 477.7 479.8 481.9 481.9 483.4 482.7 482.6 482.8 483.1 480.1 478 474.1 471.5 471.5 466.9 462.7 460.8 458.2 454.7 453.1 449.6 446.3 443.4 439.7 436.1 434.4 430.4 425 422.8 418.2 415 410.8 407.9 405.4 404 400.1 393.5 391.3 390.6 390.9 388 388 388 388 388 388 388 388 388 388 388 388 388 388 388 388 388 388 388 388 388 388 388 388 388 388 388 388 388 388 388 388 388 389.3 392.3 394.9 396.9 403.6 406.5 409.9 411.7 416.2 423.4 430.4 438.6 448.8 457.6 470.4 483.9 496.5 516.2
335.4 323.6 309.7 303.8 304 304.1 308.1 311.9 312.9 313.2 307.9 315.7 328.2 328.6 333.6 336.3 339.6 342.3 345.4 344.3 340.5 336 334.5 333.3 334.4 335.6 337.6 338.7 340.8 339.1 339.3 335 335.4 331.6 334.6 352 363.4 382.3 391.1 392.7 403 409.7 409.3 411.5 416.2 410 404.8 397.4 391.1 391.5 396.3 396 396.6 398.9 396 401.9 405.7 410.3 407.7 407.2 410.3 412 411.7 409.5 408.4 408.1 406.1 404.7 406.1 404.9 405.7 405.6 403.5 400.6 403.1 401.4 399.9 397.9 395.8 400.8 392.8 389.8 386.5 391.4 390.1 391.1 386.2 386.6 386.5 384.5 385.5 387.3 394.9 398.8 397.1 403.4 403.1 408.7 412.4 416.4 422.5 425.6 431.2 436.3 442.5 449.5 454.9 461.2 463.8 467.8 471.1 472.8 474.8 474 474.2 474.8 475 474.5 471.4 468.7 466.4 462.9 461.8 458.4 455.8 454.5 452.7 448.1 441.4 439.4 436.3 433.2 432.1 428.3 426 422.3 417.2 414.4 411 408.6 406.7 402.8 403.5 398.4 395.5 396.5 392.2 388 388 388 388 388 388 388 388 388 388 388 388 388 388 388 388 388 388 388 388 388 388 388 388 388 388 388 388 388 388 388 388 388 391.6 392.8 398.6 401.9 402.8 405.8 411.6 416.5 422.5 426 431.4 436.4 450.1 459.3 471.3 484.3 505.2 515.9 516.8 527.1
343.8 330.5 320.2 313.1 314 311.7 318.1 321.4 322.2 318.9 317.5 320.8 326.8 332.4 334.8 339.9 344.1 348.7 349.3 346.4 341.5 339.6 339 340.5 340.6 343.5 345.7 350.5 350.1 348.5 343 342.9 340.1 346.4 341.3 360.1 374.8 394 400.3 401.6 407.3 414.2 414.1 414 415.7 411.6 406.9 400.9 394.9 392.4 396.2 394.6 398.2 402.8 402.7 407 410.8 411.3 411.1 412 411 411.5 412 411.5 412.5 411.6 411.5 410.6 409.7 411 411.9 409 407.8 405.4 405.9 403.7 402.9 401.1 398.2 400.6 400.6 394.7 391.7 395 391.3 388.7 387.9 395.4 385.6 384.1 385.7 387 392.2 393.7 392.3 400.9 402.1 405.5 405.5 410.7 416.2 419.2 426.8 432.1 436.3 443.3 446 450.3 455.7 458.2 461.3 463.2 464.6 467.1 468.5 467.8 469.2 467.6 460.7 461.3 459.3 456.7 455.2 452 448.8 446.3 440.8 437.5 433.5 431.3 429.1 428.3 425.8 421 418.2 414.9 412.8 407.9 409.4 407.1 400.9 400.6 395.5 393.9 391 388 388.8 388 388 388 388 388 388 388 388 388 388 388 388 388 388 388 388 388 388 388 388 388 388 388 388 388 388 388 388 388 388 388 389.5 392.2 395.9 401.2 407.5 409.9 411.6 414.6 420.8 428.4 435 440.1 444 459.9 472 486.7 500 511.8 522.6 538.5 546.2 554.3
352.3 341.4 329.6 324.2 322.6 324.2 331.7 331.4 328.2 326.4 321.4 327.1 331.6 336.8 340.7 344.6 351 351.4 350.5 350.1 343.4 344.4 345.7 344.8 349.6 352.2 357.4 360.6 359.8 355.4 354.4 350.6 347.3 341.6 353.1 367.1 386.1 406.2 409 412.8 415.1 421.5 415.8 417.8 421.8 413.7 409.8 402.4 396.5 394.3 394.2 395.9 407.5 409.1 406.6 410.6 413.2 414.3 412.2 410.8 411.6 413.3 414.4 415.4 418.6 419.1 416.4 415.4 414.6 418.4 414 413.1 408.1 411.8 407.1 408.6 404.7 401.9 403.7 402.5 402.8 399.9 399.1 396.7 393.7 394.1 390 389.6 387.3 386.1 385.7 387.8 386.5 388.2 396.3 399.3 401.4 399.6 398.4 406.1 413.9 417 420.9 425 429.9 436.6 440.1 443.4 445 447 451.4 456.1 457.2 461.4 459.5 459 459.7 454.1 453.3 452.5 453.5 448.8 445.5 443.4 441.8 437.7 436.3 432.1 431.2 427.2 425.9 423.2 419.3 416.1 414 410.9 407.5 403.4 401 400.8 397.9 391.9 389.1 389.5 388 388 388 388 388 388 388 388 388 388 388 388 388 388 388 388 388 388 388 388 388 388 388 388 388 388 388 388.7 390.5 390.1 388 388 389.3 392.7 393.7 398.8 403.8 408.8 414.6 418.7 422.3 426.6 432.6 439.1 445.5 449.6 459.1 471.1 488.9 510.5 528.4 540.2 548.2 561.8 570.4 590.2
357.2 348.1 337.8 335.2 339 339.5 344.4 341.8 339.3 331.3 328.2 331.7 336.7 341.1 346.3 352.2 354 354 353 350.8 351.3 351.7 353.8 353.3 359.4 361.4 366.6 371.2 367.3 363 360.4 356.1 354.1 352 358.9 377 394.9 409.5 416.1 417.2 423.7 430.9 418.5 418.8 423.4 416.5 411.9 407.3 400.3 395.9 397.7 397.8 408.1 411.2 411.4 416.3 418.7 419.5 418 416.3 415.4 418.8 418.8 422.3 423.8 422.5 419 420.1 423.1 420.1 419.3 415.3 412.8 414.4 410 412.3 409.2 409 408.5 407.7 405.1 406.8 403.2 398.5 397.8 393.8 394.9 394.1 391.8 390.2 388.3 388.3 388.9 389.4 389.4 393.8 398.8 399 400.3 405.9 409.7 409 413.3 419.7 426.2 428.1 433.8 436.6 435.5 438.4 443.4 445.2 447.1 447.2 450.4 447.4 450.5 446.4 446.6 449.1 445.4 442.9 441.6 440.1 434.9 431.5 429 426 420.8 422.4 422.6 417.7 413.7 413.4 410.2 406.5 401.9 400.9 398.4 395.9 391.9 392.6 390.3 388 388 388 388 388 388 388 388 388 388 388 388 388 388 388 388 388 388 388 388 388 388 388 388 388 388 391.5 392.9 392.4 391.4 392.4 392.3 398 394.5 396.6 401.6 405.6 411 419 425.3 430.5 435.1 441.4 445.3 451.7 456.4 465.7 476.8 491.4 509.9 535.1 551.4 562.3 577.6 579.4 590.4 600.3
365.4 354.8 352.8 347.5 355.6 361.1 356.8 351.4 344.3 340.7 335.3 345.2 342.6 348.8 352.6 355.3 360.1 360 359.2 359.6 360.1 361 360.4 361.3 367.4 371.6 372.2 376.5 373.6 365.9 366 361.4 357.5 355.9 367.5 382.8 400.8 410 416.4 419.3 430.3 431.3 420.1 420.1 418.1 418.2 413.2 406.3 401.8 396.9 402.7 400.8 404.2 414.2 417.4 422.7 423 423.4 421.6 420 420.9 423.5 424.2 427.5 426.1 426.4 425.9 425.9 424.6 424.2 424.6 420.1 418.7 415.6 414.1 414.8 413.3 413.5 415.4 411.7 413.7 411 404.6 402.2 401.7 399.5 399.4 395.9 395.8 394.4 391.6 390.9 391 392.5 392.5 393.5 393.8 399.5 401.3 405.9 406.3 406.3 410.1 415.8 420.5 426.1 425.1 427.9 429.9 431.6 437.4 436.1 436.7 435.5 436.3 434.5 441.8 439.6 440.5 440.1 438.3 436 433.6 430.6 429.2 426.2 420.8 418 417 415.4 414.8 413.3 408.5 408.2 407.1 406 401.7 395.8 395.3 389.2 392 390.3 388.2 388 388 388 388 388 388 388 388 388 388 388 388 388 388 388 388 388 388 388 388 388 388 388 388 389 391 391.3 392 393.5 392.6 394 396.1 400.3 402.3 407 409.7 414 420.3 429.2 435.7 441.4 446.9 453.9 458.2 466.4 471.9 486 501.2 516.2 531.9 552.7 572.4 586.1 593 596.5 606.6 621.4
368.7 363.5 360.5 359.7 371.9 370.6 361.2 359.3 354.5 347.6 347.6 346.6 358.3 355.1 359.1 362.7 364.2 365.5 371.7 369.7 367 371.4 366.7 369.8 375.4 376.1 379.9 379.3 376.1 374.6 368.4 369.2 364.4 356.3 374.2 392.2 405.4 414.1 419 422.3 429.1 422.8 426.3 420.8 419.1 417.5 412.5 410.3 404.7 399.2 400.9 404.7 410 415.9 423.9 428.7 427.2 426.1 425.1 423.7 425.6 427.9 430.9 432.6 430.9 429.9 430.4 426.9 427.5 428.8 425.1 421.4 421.5 420.5 422.7 423.3 419.7 419.9 419.6 417.1 415.2 411.7 411.6 409.8 406.8 407.3 406.4 402.9 401.4 398.8 394.5 394.1 395.8 394.8 395.4 395.7 397 396.9 397.4 399.3 398.9 407.6 412.2 414 416.6 422.4 418.2 420.5 423 426.4 424.2 424.1 426.1 427.5 429.9 433.2 437.1 434.6 434.8 433.3 430.8 427.9 427.2 422.5 419.6 418.9 416.4 413.4 413.9 413.1 413.2 411.7 406.7 402 401.5 402.3 401.9 396.8 390.8 389.8 388 388 388 388 388 388 388 388 388 388 388 388 388 388 388 388 388 388 388 388 388 388 388 388 388.1 391.3 393.4 396.3 396.9 395.5 396.1 399.5 397.4 401.3 403 407.8 412.5 417.3 420.5 426.5 433.8 442 448.2 452.6 457.3 463.1 468.3 475.5 485.9 504.4 523.1 535.6 552.1 571.1 593.5 602.4 609.4 619.3 625.5 639
378.2 371.3 367.6 370.5 371.8 374.1 368 365.9 360.9 357.5 355.7 353.8 364.4 366 370.2 372 376.1 376 381 379 378.2 378.3 376.6 376.1 383.4 384.4 382.9 381.5 379.1 379.6 374.2 369.9 365.2 366.5 382.7 401.2 412.4 417.2 420.2 424.7 426.1 423.4 425.4 422.2 420.7 416.8 411.4 408.3 404.6 401.2 405.9 407.5 414.2 423.8 427.1 429.9 432.5 432.4 430.1 426.6 430.5 432.2 437.5 438 438.5 436.4 433.8 432.6 432.1 427.3 428.6 424.9 425.2 425 425 428 425.1 424.8 423.9 418.2 418.2 417.5 418.2 418.4 416.6 412.2 411.3 407.4 404.8 401.5 400.4 400.2 400.4 398.8 398.2 399.7 399.8 399.4 399.7 406.2 403.9 409.6 411.9 413.5 415.1 409.4 411.2 415.2 416.1 420.1 418.7 426 424.7 424.5 429.4 429.2 429.6 428.1 428.3 425.8 423.4 422.3 420.2 419.7 413.9 416.3 412.6 413.9 415.4 408.7 409.7 408.5 404 400.8 402 401.7 397.7 393.7 389.4 388 389.7 388.7 388 388 388 388 388 388 388 388 388 388 388 388 388 388 388 388 388 388 388 389.8 391.5 392.9 395.5 397.9 398.1 401.3 402.3 402.9 403.2 404.7 405.4 410 413.7 418.8 426.4 429.2 433.8 439.9 447.3 451.5 457.8 461.9 469.6 472.7 477.6 487.1 503.9 516.5 532.3 549.8 572 590.1 607.2 617.4 625.7 636.9 646.7 654.1
390.2 381 382.5 384.1 385.7 383.4 376.3 370.5 369.1 365.8 365.6 368 369.4 375.9 382.5 384.6 389.8 391.9 390.8 391.2 389.6 391 387 388.1 388.5 389.5 388.6 384.8 379.6 378.5 378.6 373.1 364.6 376.9 393.5 409.8 416.4 418.7 424.3 429.9 432.6 426.5 426.4 424.1 420.2 412.4 409.1 405.5 406.4 406.2 411.2 412.1 417.8 425.3 428.6 434.9 435.8 433.9 434.7 433.5 435.3 440.6 440.5 440.4 440.7 438.7 437.2 435.6 432.9 429.6 430.5 430.4 430.3 430.7 429 430.3 431.6 431 427.1 426.2 424.8 424.7 425.8 424.4 420.2 419.5 416.4 414.1 410.8 407 405.6 405.6 405.6 403.6 401.7 402.7 403.9 401.8 400.3 401 402.2 403.8 409.5 407.7 405.7 407.9 411.2 413 414 414.6 419.2 418.1 419.1 418.5 421.5 422.7 422.3 422 423.4 423.5 420.6 419.9 415.7 415.1 414.9 410.4 412.6 414.2 406.1 408.4 406.1 404.4 402.9 397.9 396.3 394 388.4 388.4 390.2 391.9 390 388 388 388.6 388 388 388 388 388 388 388 388 388 388 388 388 388 389.6 388.1 392.8 391.6 393.5 398.9 398.9 401.6 406.2 407.1 407.7 409.8 410.6 413.8 418.8 421.5 423.9 423.4 430.3 437.3 442.6 446.3 448.9 455 460 468 473.4 474.9 479.5 488 496.7 509.4 527.3 544.7 563.9 579.7 597.5 612.3 623.2 635.2 645 655.8 665.4
394.3 392.8 391.6 392.5 387.3 386.5 379.9 376.9 377.6 376.4 376.6 379.5 381.9 385.8 394.4 399.1 403.9 403.4 402 399.7 398 397.9 399.5 398.5 399.4 397.5 394.5 391.9 386.3 381.6 380.7 371 372 387.7 404 413.5 419.1 422.7 427.1 434.6 437.5 430.8 428.1 424.3 420.7 410 406.9 407.2 408.4 410.4 414.9 417.4 422.7 427.6 430.6 436 438.2 439.1 439.2 437.3 441.3 444.5 444.6 443.4 440.2 438.8 436.9 435.7 436.2 437.8 436.2 437.3 436 434.1 436 439.7 438.1 434.7 434.7 434.1 435.1 432.1 432.6 429.1 426.3 425 419.8 419.7 416.3 415.5 414.8 411 408.1 406.9 407.7 406.6 407.3 403.2 402.4 404.5 405.6 403.6 406.7 404.2 404.7 409.2 406.9 409.1 410.6 415.2 415.6 415.5 414.6 418.3 420.2 420.8 421.8 421.3 420.2 418.9 413.4 412 413.9 414.2 407.8 409.4 409.5 402.4 402 402.2 403.2 402.3 393.2 389.3 389 388.7 391 393.1 391.3 388.2 388 388 388 388 388 388 388 388 388 388 388 388 388 388 388 388 388 389.5 393.8 396.2 396.4 398.1 399.5 402.9 410 411.3 413.5 416.9 420.5 424.3 427.1 431.6 430.3 434.1 436.5 442.5 443.6 450.3 454.7 460.7 462.2 467.7 476.4 480.2 486.3 488.6 493.5 505.9 521.3 535.1 551.3 568.1 583.5 599.1 613 625 636.9 646.6 659.5 667.3
404 401.2 403.3 403.2 398.7 394.9 389.8 391 388.4 386.5 389.4 391.6 396.9 401.8 408.9 414.2 418.4 417.1 415.7 414.3 410.8 409 411.4 411.8 410.5 408.6 401.9 396.6 387.1 385 379.7 368.2 378.6 394.9 409.1 418.9 423.9 429.5 433.2 444.1 433.2 430 425.3 421.8 412.6 409.5 409.3 410.3 414.5 414 418 426.8 430.9 431.1 433.8 439.3 442.1 443.3 444.1 443.6 445.3 446.8 444.8 441.1 440.2 440 441.3 443.7 444.9 443 442 445.5 443.5 442.7 442.9 443.4 443.7 441.4 442.8 440.3 440.2 438.1 438 434.5 434.3 430.7 430.2 428.2 421 422.7 418 415.9 412.3 408.9 407.6 408 404.3 403.1 408.6 404.6 404.6 406.1 403.7 407.1 406.5 407.8 410.6 413.7 415.2 413.2 414.9 415.3 414.7 418 415 416.2 419.2 416.2 415.9 414.4 410.3 410.4 413.2 409.2 404.4 405.8 404.7 402.2 401.7 402.7 402.5 394.4 389.4 394.6 391.8 393.5 393.1 388.9 388 392.3 389.3 388.4 388 388 388 388 388 388 388 388 388 388 388 388 388 388 391.3 394.7 397.3 401.5 403.7 406 410.7 413.3 416.5 421 421.5 423.4 430.9 434.5 439.7 443.1 441.8 443 446 451.3 454.4 461.3 464.1 468.7 467 474.2 479.6 484.6 489.2 495.5 499.5 512.8 526.4 545.1 558.3 574.7 588.2 599.7 611.7 623.6 636.9 644.5 654.3 663
418.2 413.2 420.9 415.9 410.6 409.9 406.3 405.6 400.4 400.8 404.2 408.2 411.8 417.6 423.2 429.1 431.4 429.9 427.3 428.7 429.1 428.4 426.1 425.8 427.2 420.8 412.4 399.4 391.1 383.8 376.3 375.6 386.9 403.9 413.5 422.2 431.1 433.4 441.7 442.9 435.5 431 425.5 419 413 410 410.6 414.7 415.9 418.7 420.7 423.4 429.6 437.6 440.3 442.4 442.5 445.9 448.9 451.5 453.8 446.8 446.8 444.6 445.9 444.2 448.1 449.1 448.1 448.1 451.5 449.4 452.8 449.7 450.4 449.5 453 450.6 449.1 447 446.5 447.7 445.7 444.6 443.6 440 437.9 435 435.5 432.8 427.1 423.2 416.2 414.2 410.8 404.4 405.6 405.3 403.5 404.7 407.6 409.2 407.7 408 409.6 411.4 408.1 408.6 411.7 412.8 409.9 416 419.3 413.7 414.8 416.1 419.3 416.7 414.3 411.4 408.4 406.7 409.9 403.6 401.8 403.6 401.3 401.4 403.8 400.3 396.1 390.6 389.2 393.9 393.2 391.1 389.2 388 388.2 388 388 388 388 388 388 388 388 388 389.2 388 388 388 388 390.6 392.7 394.3 396.5 400.9 404.9 407.4 411.9 415.2 420.1 424.4 427.3 429 433.5 439.6 446.1 451.2 453.9 452.5 449.8 451.7 455.7 458.9 463.9 469.5 473.5 475 475.4 478.7 484.8 488.9 491.3 496.7 506 517.7 528.3 543.7 558.4 573.5 585.2 597.5 610.3 620.8 630.2 642.1 652.1 659.4
424.4 430.4 433.9 428.3 425.4 429.9 420.4 416.3 415.7 418.3 420.1 424.7 428.7 434.3 431.5 443.2 445.7 445.1 443.4 445.3 442.6 446.9 441.5 444.2 442 430.5 420.9 407.2 394 387.7 376.6 377.6 395 407.1 420.4 427.9 436.3 436.9 440.6 445.7 433.7 428.8 423.6 418.5 414.8 413 412.8 415.6 421.3 424.7 426 428.9 435.5 439.7 444.9 446.7 447.9 449 452.1 453.3 452.7 449 450.4 450.1 451.2 451.4 454.8 455 454.2 457.7 458.9 453.2 456.3 457.4 457.3 462.2 463.3 460.8 462.5 462.7 462.9 461.4 459.5 459.7 458.7 455.7 455.5 449.5 447.7 440.8 432.7 428.9 418.3 406.1 405.7 410.1 407.3 404.8 404.1 408.1 415.9 411.6 407 408.4 408.3 408.2 410.3 417.9 410.2 410 416.2 413.1 413.6 413.6 415.2 415.3 413.3 408.5 408.3 405.7 407.9 404.4 403.6 401.5 400.1 402.2 404.5 405.1 398.5 389.7 389.3 392.6 392.6 393.6 392 390.4 388.4 390.8 390.4 389.1 388.4 388.8 388.6 389.2 388 388 388 388 388 388 389.9 392 394.8 396.4 398.3 398.8 400.8 405.9 408.7 414.3 418.2 422.8 428.1 431.2 436.6 440.8 446.7 456.7 463.3 466.2 462.4 461.9 459.9 459.2 461.7 465.8 470.2 476.2 479 479.7 482.7 481.7 486 489.1 493.9 500.5 508.5 520.6 531.4 543.6 556.5 568.1 584.2 598.5 611.2 623.1 632.9 641.4 648.6 656.8
436.1 440.4 447.1 439.5 439.6 437.2 435.5 434.3 431.5 433.5 437.7 441.8 445.4 449.6 454.8 457.4 461.1 459.2 460 462.3 462.2 464.6 458.3 455.4 453.4 437.8 436.1 415.4 397.1 382.5 373.5 386 398.9 410.5 422.9 430.9 437.6 437.4 440.6 443.5 433.6 426.8 421.8 419 414.3 415.4 417.2 421.4 426.1 430.8 434.4 433.9 440.9 446.4 447.8 453 453.3 453.4 457.7 455.1 452.3 455.7 458.6 459.5 459.1 460 461.8 459.8 462.7 468.7 462.5 459.7 463.3 466 472.6 474 476.7 478.1 481 478.1 481.2 478.7 477.6 475.6 472.6 475.1 471 463.1 453.5 446 438.3 425.3 415.9 409.2 413.6 409.8 407.2 407.7 407.6 409.6 408 406.8 407.6 408 407.8 412.9 410.4 409 411.1 411 413.1 412.5 412.6 416.8 411.8 412.4 406 405 407.4 404.3 404.1 403.2 405.7 403.5 398.4 404.6 403.6 391.4 390.8 392.7 394.9 396.2 396.9 393.4 392.3 390.1 391.9 391 391.7 391 390.5 388.7 389.3 388.1 389.7 388 390.8 389.1 390.4 390.3 393.4 398.6 401.8 404.4 407.7 407.9 410.2 414 416.2 419.6 426.4 433.6 440.8 441.7 446 455.9 461.2 467.1 472.4 474.1 470.4 467.2 464.9 464 465.5 470.3 473.6 479.6 481.7 483.8 483.9 484.3 488.3 490.8 494.6 502.9 510.5 520.6 531.9 545.3 559 572.4 585.2 597.4 608.6 618.6 628 637.8 645.5 652.8
453.1 453.6 452.4 451.9 451.8 451.9 451.7 451.4 447.7 450.8 454.6 458.3 464.8 467.1 467 469.2 477.4 478.7 477.4 483.3 479.6 480.6 471.5 466.2 457.3 444.3 437.3 418.3 399 388.1 375.8 387.5 403.6 416.9 427.1 431.7 436.6 436.9 440.3 435.2 431.6 425.6 421.9 420.3 418.6 418.2 420.9 424.9 430.8 432.4 438.3 440 446.6 449.7 450.1 453.7 456.6 457.1 458.9 458.3 458.4 460.4 465.3 465 464.6 466.1 468.4 467.1 473.8 470 469.3 469.3 472.9 476.6 476.4 479.9 483.9 486.1 495.2 495.3 497.8 499.6 501.1 496.2 493.2 492 484.5 470.6 460.8 449.8 439.5 426.7 417.8 419.3 410.5 412.5 408.2 408.9 409 411.7 409.1 407.4 407.3 410.5 410.5 410.7 411.1 412.5 412.9 412.9 413 413.2 410.8 409.9 407.3 405.8 405.4 406.2 408.9 405.9 404.5 404 401.6 400.4 398.9 394.5 393 395 396.8 397.5 398.3 400.1 397.8 398.1 392.5 393.2 391.8 391.5 390.7 390 389 390.4 390.5 390.6 389.6 388.7 392.1 392.9 393.6 393.4 396.4 401.8 404.1 406.3 408.1 411.4 417.1 424 426.9 428.4 436.6 443.7 451 450.5 458.5 468.5 472.4 477.1 480.6 478.4 476.5 471.4 468.5 466.6 469.8 471.7 475.6 476.7 478.9 483.3 486 484.5 494.1 494.4 495.7 501.2 509.4 520.4 534.2 547.6 558.6 566.3 582.7 594.6 606.2 616.1 626.2 633.7 641.5 648.6
466.2 467.8 463.3 464.2 465.6 466.3 466.5 467 466.6 471.1 471.6 476.1 482 484.8 485.6 486.2 493.6 496.6 501.4 504.6 499.4 495.9 485 477.2 458.2 447.2 435.6 419.1 401.8 391.1 379.1 390.1 404.7 420.1 428.1 434.6 434.6 437.3 439.9 432.3 427.8 423.7 423.4 421.4 421.7 424.6 429.4 430.7 435.9 437.4 442.3 446.8 451.8 455.2 455.5 460 458.5 458.3 460.3 463.5 468.1 468.2 470.9 471 470 473.2 474.3 476.5 479.3 478.3 480.7 486.3 493.9 493.1 494.1 492.8 496.6 502.7 508.6 515.3 518.5 516.7 515.2 511.8 506.7 495.7 483.8 471.7 462.7 451.2 439.4 435.5 432.7 420.4 412.8 413.9 412.2 413.6 410.8 412.1 409 407.3 408.6 414.4 413.4 412.3 411.8 412.6 413.1 413.3 413.7 411.2 408.7 408.3 406.7 405.8 407 409.3 407 405.9 408.2 403.8 400.7 400 402.5 398.1 399.3 400.4 401.1 402.4 401.9 399.7 394.3 394.4 394.8 397.7 399.7 398 397.9 393.6 391.4 389.7 391.3 392.8 392.4 392.6 393.3 396.7 400 395.5 396.7 400.4 403.4 409.5 410.5 419.4 426.4 432.9 440.6 442.9 448.2 452.2 458.3 464.9 473.7 483.4 484.2 484.2 485.4 481.1 475.3 471.4 469.5 469.6 471.9 473.7 475.2 477.1 482.3 488.4 484.8 483.6 485.6 487.6 492.7 501.2 512.2 523.6 533.3 544.9 559 570.5 580.9 593.5 604.1 614.1 623 630.6 636.2 643.3
484.4 477.8 478.9 476.6 479.7 483.1 483.8 482.3 485.7 488.4 491.2 492.2 497.7 498.3 503.1 508.9 509.3 511.2 518 522.6 519.1 514.6 504.3 481.5 464.9 453.5 437.8 418.2 401.7 392.2 383.1 394.8 408.5 418.7 426.9 432.2 432 436.8 434.3 430.9 428.2 427.6 426.5 423.9 426.2 430.1 431.4 438.6 438.7 445.4 447.9 452.5 457.2 462.6 462.2 460.7 461.5 462.1 466.7 469.2 474.5 478.7 478.1 480.3 479.9 480.4 483.5 485.9 486.3 489.3 497.2 498.6 501.9 506.8 508.9 505.7 510.6 517.1 524.4 528.5 529.5 526.6 524.8 523.5 523.2 508.8 492.8 480.6 469.8 459.9 450.1 444.1 433.9 424.3 417.4 419 414.1 413.5 412.6 413.6 410.8 411.2 409.5 412.4 412.2 412.2 414.1 415.8 413.1 412.2 411.7 409.1 408.6 407.5 406.5 406.8 409.6 407.7 407.4 407.6 405.2 404.1 403.2 399.7 400.3 401.8 402.7 404.5 402 398.6 402.6 397.6 396.2 400.4 399.6 400.1 395.4 392.5 392.7 390.9 391.5 393.6 391.6 391.4 393.6 400.3 404.1 400.4 399.8 398.2 399.9 402.1 407.8 413.5 419.6 429.5 435.7 443.4 449.2 453.2 460.6 466 471.3 481.8 487 497.9 491.8 489 489.1 482.3 476.7 471.5 471.1 470.1 470.5 473.3 475.1 476.8 477.4 483.3 481.7 480.6 481.7 488.5 493.5 501.2 509 521 532.4 543.9 556 567.7 578.7 590.5 601.3 609.1 617.3 625.5 633.4 639
495.9 494.6 493.4 492.8 495.7 497.7 500 499.7 502 505.6 511.5 510.5 512.8 517.6 523.3 524.3 523.8 530.2 532.6 535.9 540.1 538.9 532.5 487 466.2 452.6 436.4 420 402.8 391.8 390.2 398 411.4 418.2 424.2 428.5 428.9 432.5 430.6 429.8 429 429.1 428.6 428.6 432.4 437.4 439 442.8 445.7 450.7 455.5 457.5 462.9 466.5 465.1 466.9 467.3 471.2 473.4 477 483 485 485.5 489.6 491.3 494.7 496.7 497.9 496.6 501.6 506.9 511.6 518.6 518.5 517.5 521.5 525.7 532.2 537.3 537.2 543.9 551.4 548.4 539.8 526 514.7 505.6 490.7 480.9 468 456 447.4 438.7 428.2 420.3 418.5 418.3 415.8 413.8 417.3 414.6 417.5 410.9 410.6 411.2 411.1 413.3 411.1 413.3 409.5 408.7 408.4 408.9 408.7 407.5 408.3 407.9 408.7 413.3 409.3 403.5 403 401.8 405.4 407.7 405.1 404.7 402 401.7 402.1 400.2 397.8 397.6 398.8 400.2 396.7 393.2 393.2 394.3 392.3 398.3 394.1 397.1 395 403.2 394.5 394.7 396.6 399 400.2 404.2 408.7 414.4 423.7 431.5 442.9 449.1 455.5 460.3 468.3 475.6 490.7 504.9 511.8 520.1 519.7 504.6 493.1 489.1 481.8 477 471.3 468.7 467.7 469.3 467.9 465.5 468.4 470.9 475 477.6 480.3 481.1 484.8 488.9 496.3 508.1 517.9 530.5 541.9 553.9 565.4 576.7 586.8 594.9 605.6 614.2 619.2 626.3 632.5
510.1 511.2 509 512.5 512.5 516.4 516 516.7 520.5 525.7 530.6 532.2 533.1 536.9 542.7 546.9 542.5 546.2 549.5 552.5 553.2 549.5 533.7 504 472.2 450.8 439.5 421 398.5 389.4 397 408.9 413.7 421.1 423.5 424.9 427.5 429.5 430.1 430.9 431 431.1 430.8 433.1 437.6 446.5 447.2 451.8 453.1 456.7 459.2 464.4 466.7 470.4 469.9 473.5 476.4 480.2 483.7 487.3 490.4 491.8 495.5 499.3 504.8 506.2 509.6 507.3 509.1 513.5 522.1 525.2 530.8 531.2 533.2 538.9 543 546.9 554.7 558.3 554.4 554.4 544.9 535.7 525.9 515.6 504.8 492.1 481.7 468.9 457.2 450.3 440.3 431.6 428 421.1 417.2 415.3 414.4 413.5 411.8 413.9 412.4 411.2 411.6 411.5 410.3 410 409 409.3 411 411.1 412.2 409.2 407.4 408.2 409 409 405.3 403.8 405.5 406.7 407.3 407.2 407.7 405.5 404.2 403.9 402.2 401.4 399.8 400.2 399.6 401.4 398.5 395 394.6 391.9 393 394.1 393.4 393.3 393 393.2 396.5 395.9 395.7 397.6 401.6 405 412.8 418.3 424.7 436.3 446.5 459 466.5 478.6 486.4 494.4 508.3 541.5 558.6 559.6 542.8 531.8 521.6 510.2 499.1 490.3 476.8 470.2 467.2 463.9 462.7 463.1 464.3 466.9 471.7 473.8 474.7 479.1 479.9 483.8 491.8 498.4 508.7 517.2 529.1 541.1 554.1 563.7 574.5 583.9 592 599.2 607.8 615.3 620.1 627.3
524.7 526.7 530.8 529.1 527.5 530.8 534.2 535.4 539.8 545.4 548.4 553.7 555.6 556.4 562.2 565.9 563 561.7 569.7 567.1 563.9 553.7 535.2 504.8 482.2 454.8 436.8 416 397 391.6 401.7 409.5 417 420.2 420.7 424.2 427 428.9 431.9 432.8 433.4 432.5 435.7 438.9 446.1 450.3 455.8 463.6 462.1 459.7 466.4 469.4 470.4 475.5 479.3 481.6 485.9 490.9 492.9 493.9 497.1 502.2 508.2 515.3 519.3 520.3 517.8 519.7 523.2 528.6 531.8 533.5 537.2 540.1 544.6 550.4 560.3 564.2 563.2 558.2 557 550.2 540.8 528.9 519.5 507.7 497.9 488.8 477 465.6 455.5 448.7 440.9 431.3 425.7 419.9 415.5 417.2 415.5 414.2 412.3 414.8 412.5 413.2 412.1 412.5 412 412.6 409.4 410 410.4 410.4 410.4 408.3 407.6 408.6 407.4 404.9 405.8 407.9 408.3 408.8 408.1 408 407.7 409.1 404 400.9 400.2 399.9 400.3 400.6 398.8 402.2 396.3 394.3 392.1 392.8 393.2 393.1 393.7 394.2 394 394.2 400.2 401.2 399.6 403.4 405.6 410.4 418.1 427.6 439.3 449.9 461 474.8 491.6 508.2 521.9 529.7 572.3 578.8 575.3 559.1 549.9 568.2 552.2 529.9 508.3 494.4 485.9 474.8 467.1 462.9 462 462.8 465.6 469.5 471.6 470.2 471.5 473.8 475.9 481.8 487.9 496 503.4 515.6 528.9 539.8 551.3 560.9 569.6 577.6 587.9 596.3 606.2 612.9 623.8 631
538.7 542 546.8 542.7 542.4 551.6 550.3 553.4 561.1 563.8 565.2 572.9 578.1 581.4 574.8 582.3 573.6 574.4 582.3 578.9 575.1 559.3 542.6 497.7 476.3 452.1 429.7 403.5 394.2 395.2 402.6 414 417.5 419 422 422.8 425.4 430.6 432.3 434.9 437.9 436.6 439.4 443 452.7 460.1 465.6 470.4 469.3 468.8 469.4 472.7 474.6 480.5 487.3 490 495.9 497.5 500.5 505.9 511 513.1 517.7 525.9 529.7 529.9 529.3 531.5 535.1 539.4 541.8 547.4 549.8 551.8 556 566.2 567.3 566.6 560.4 558.1 555 544.3 536.5 527.3 514.8 503.4 490.6 480.5 471.3 462.2 453.9 445.4 438.5 428.6 424.6 419.2 417.9 417.4 415.5 414.9 413.5 414.2 413.8 412.9 412.5 414.4 413.4 411.8 409.9 410.1 409.9 410.7 411.4 409 408.9 406.9 406.9 408.3 409.8 410.1 410.6 410.8 410 409.3 408.5 405.7 402.9 401.7 400.1 399.1 398.8 398.8 397.5 401.6 395.4 394.2 393.1 393.5 394.3 394 394.2 400.4 399.7 399.1 398.5 402.6 406.5 408 414.4 419.4 428.6 439.2 452.3 463.8 477.1 496.3 516.5 539 560.9 571 577.2 578 572.7 574.2 572.2 561.8 539.3 521.1 509.6 499.5 487.4 472.4 467.4 462.1 461.4 461.7 465 465.8 465.5 466.4 470 470.3 474.4 482.9 487.9 494.9 505.2 517.1 527.3 538.2 548.9 557.4 567.3 577.3 586.2 596.9 606 615.2 623.1 632.6
556.1 553.9 553.3 556.9 559.5 561.2 564.4 571.5 572.7 579.2 585.2 587.2 594.9 600.4 588.6 585.7 585.4 581.9 581.7 577.8 574.7 560.6 522.8 494.4 465.2 440.2 416.6 400.4 396.2 400.5 405 414 417.4 419.3 423.4 422.5 425.8 432.6 436.4 439.5 442.1 445.7 449.2 453.7 458.7 469 472.6 474.7 476.1 473.4 471.8 475.3 478.6 487.5 493.2 496.8 500.6 506.5 513.9 519.8 522.1 528.3 534.5 538.3 538.3 542.9 544.1 547 553.4 552.8 556.4 561.7 560.2 564.2 569.8 570.4 566.7 562.3 560.4 552.8 548.8 543.4 529.3 518.6 507.4 495.2 485 475.5 468.6 461.4 452.8 444.3 434.5 429.6 425.8 423.8 421.4 419.8 417.2 415.4 415.5 415.5 415 413.9 417 414.8 411.5 411.4 411 410.4 409.6 409.4 411.4 409.7 407.8 407.5 410.5 411.2 411.4 411.8 413.8 412.6 410.4 409.9 408.4 406.9 403.1 401.6 401.3 402.3 398.4 397.2 395.7 394.8 394.3 394.1 394.5 395.6 396.2 399.2 400.1 396.4 397.1 398.4 399.9 402.1 406.4 413.1 422 428.1 437.5 450.3 463.5 476.5 492.9 518.1 544.4 559.8 564 568.4 572.2 571.4 573.3 564.4 556.3 544.1 533.1 519.8 506.7 493.2 481.7 470.4 462.9 460.6 460.5 461.2 462.1 461 464.3 466.1 468.7 471.6 476.9 481.4 487.6 493.9 504.1 516.4 526 537.6 548.2 559.8 568.1 578.2 588.4 596.7 607.1 615.8 625.3 634.9
565.1 563.4 564.8 569.6 572.1 575.6 579.9 583 589.4 596.1 603.1 603.6 609.4 606.2 593.8 591.4 587 585.9 578.4 578.7 571.7 556.5 524.9 477.6 451.8 427.8 409.9 398.1 395.9 403 407.5 412 416.9 420.9 423.1 424 427.6 434.2 436.6 440.6 447.8 450 460.8 471.1 474 480.6 481.6 479.5 476.8 474.6 479.2 483.7 484.6 491.9 497.7 501.7 509.8 518.2 528.8 535 540.1 545.9 551 550.7 554.2 554.3 556.7 562 566.4 569.3 574 570.9 572.6 578 574.4 572.7 564.3 560.5 557.1 551.8 542.1 530.7 519.1 510.4 502.2 492.9 483.3 472.7 462.2 455.8 448.2 442.7 438 435.7 432 426.8 423.8 421.6 419.9 419.4 418 416.7 415.6 413.8 414.3 412.6 411.3 411.6 411 410.4 409.4 409.8 410.2 409.7 409.7 411.5 411.3 412 413.5 413.8 413.5 412.7 411.1 410.1 409.5 406.6 404.4 402.1 402.3 400.7 399.8 397.9 398 395.3 396.3 396.5 397.1 400.1 398.5 396.4 396.4 396.4 398.3 401.7 405.6 407.4 410.6 417.4 426.6 437.1 449.1 458.9 473.1 488.8 512.9 530.3 543.6 556.8 564 565.7 575.7 567.6 565.9 559.6 550.7 536.7 526.9 515.6 504.3 493 480.4 468.4 461.9 459.8 460.5 460.8 461.1 462 464.9 467 469.5 473.6 478.9 480 485.4 496.1 506.1 516.8 525.3 538.2 548.9 559.3 568.4 577.5 589.4 600.8 608.4 618.1 626.9 637.5
564.4 568.8 572.9 579.5 581 587.7 590.7 594.8 597.7 607 615.8 615 615.6 615.5 612.1 601.4 600.8 587.4 577.3 572.6 564.9 544.9 514.1 469.3 439.3 418.6 405.6 399.6 398.2 405.8 412.3 415.1 419 421.1 423.4 426.3 428.8 432.8 435.4 443.1 448.4 453.1 461.1 477.7 482.5 483.6 483.3 478.6 476.8 478.1 481.4 492 495 498.4 504 511.1 522.3 535.7 539.7 547.9 555.9 565.7 568 563.2 566.3 566.8 572.5 579.9 584.1 587.7 587.3 586.1 584.3 581.5 574.1 565.2 558.4 552.5 547.3 541.6 530.7 521.8 513.8 506.5 499.6 489.4 480.5 472.2 465.7 457.6 450.6 448 444.7 439.9 435.3 432 426.4 423.2 424.6 418.6 421.9 419.1 416.3 415.5 414.4 414.2 413.1 411 411.1 408.1 408.6 409.1 409.7 412.5 413.9 412.9 413.3 413.5 414.5 415.6 414 412.5 411 410.1 408.4 406.4 404.6 402 399.9 399.5 399.3 399.1 397.9 397.7 397.4 401.4 400.1 401 397.9 396.6 396.4 403.1 404.4 406.1 409.5 411.2 415.2 423.1 433.8 445.4 457.5 467.9 482.3 501.1 515.6 532 542.8 552.8 558.9 567.1 569.9 567.8 571.5 558.8 548.8 537.2 523.8 509.2 497.3 484.8 475.6 468 462.1 460.3 460.4 460.9 460.5 461.8 463.9 468.8 471.4 473.9 477.2 481.5 485.7 494.1 504.8 515.6 527.2 537 548.5 559.4 569.1 580.4 589.3 599.9 609 621.3 631.3 641.7
568.4 573.8 578.9 583.9 590 597.4 601.7 604.9 611.7 619 621.7 623 620.2 623.3 623.9 615.7 604.9 584.9 579.5 560.9 547.9 524 495.8 467.1 432.5 408.5 400 399.8 401.3 405.6 412.2 414.8 423.2 423.9 427.7 429.7 430.9 435 441.1 445.3 450.4 458.3 464.1 474.4 480.1 483.7 484 482.2 482 484.3 487.9 496.2 504.9 509.3 512.2 521.8 532.8 542.6 548.6 559.2 569.9 577 575.3 576.5 580.8 587.3 597.2 605.8 602.3 598.8 596.7 593 587.9 577.7 565.5 557.2 552.6 545.6 538.7 530.1 522.9 515.4 510.3 500.4 493.9 486.7 480.2 471.6 464.1 456.3 450.4 448.2 445.9 442.6 437.9 432.2 428.8 425.6 426.2 424.2 422.2 420.1 417.6 417.6 417.7 414.7 412.2 408.7 407.8 407.9 408.3 408.3 410 409.2 408.2 408.2 413.2 414.8 415.3 415.2 413.2 412.4 411.3 410.4 408.3 405.8 404.1 401.6 400.2 398.9 397.9 398.5 399.9 400.1 400.9 400.9 400.3 400 400.2 401.6 402.3 401 400.7 401.2 406.1 412.2 419.4 428.4 438.4 451.5 465 474.5 490 506.8 520.4 531.5 540.4 550.2 559.6 562.9 568 570.6 564.2 555 545.1 528 517.4 509 491.9 478.8 471.5 465.6 462.5 461.7 460 460.3 460.3 460.9 465.3 469.4 471.5 476.8 477.1 480.1 487 493.4 503.4 512.8 525.6 536.5 546.6 558.8 570.5 579.6 589.7 600.5 611.2 621.3 632.2 643.8
567.7 576 582.4 586.2 594.2 604.4 608 615.4 616.2 622 624.9 624.3 627.6 626.6 624.9 611.8 603.1 583.4 570.8 543.3 517.6 499.3 476 446.4 419.4 403.2 400.1 399.5 402.2 407.2 414.2 420 423.5 425.4 428.5 430.9 435.4 438.2 441.9 449 452.5 460.3 466.9 472.4 476.8 478.2 478.3 482.2 487.4 490.9 498.8 505.2 513.5 520.6 526.2 536.1 544.4 553.6 561.5 572.7 580.9 582.8 587.6 594 598.8 609 616.5 618.4 613.3 613.4 603.1 588.4 579.9 568.5 559.1 550.1 543.2 534.3 529.6 522.4 517.8 510.8 504.3 494.9 488.3 484.4 478.6 471 463.2 458.2 452.5 451.6 447.6 445.6 440.1 438.5 431.3 427 424.9 424.9 424 422.4 419.6 418 418.5 412.9 410.8 409 406.9 407.7 407.6 408.3 409.7 408.9 408.2 408.2 413.5 414.5 414.8 412.4 411.3 411.1 410.9 411.5 407.9 405.1 403.8 402.2 401.2 399.3 398.5 399.3 402 400 402.5 401.9 401.3 400.9 401.6 400.2 399.6 399.9 400.6 405.6 409.7 415 424.9 434.1 443.4 458.5 469.7 480.1 492.7 506.4 519.6 529.3 538 546.9 553.4 563.8 566.2 562.9 555.9 544.2 532.5 523.1 516.2 505 486.7 476 469 466 462.8 459.9 458.5 458.3 459.3 462 465.2 470.8 471.3 473.4 475.8 481.4 486.5 493.9 502.5 516.9 525.7 538 548.8 560.5 569.3 583.2 593.2 603.4 613.2 624.9 636.2 645
566.5 574 583.2 590.4 598.1 605.5 612.5 618.7 623.6 622.4 626.3 626.9 631.4 629.4 617.4 611.4 602.2 575.9 550.4 530.5 499.9 475.3 456.6 432.6 409 403 402.1 401.2 403.1 412.9 416.7 424.7 426.7 427.4 430 434.7 436.4 441.1 445.4 450.7 453.8 461.6 468.4 471.5 474.4 478.1 482.1 489.6 493.9 499.5 507.2 515.5 521.2 529.6 541 549.8 562.5 573.8 585.1 590.7 591.7 600 608.1 614.9 625.3 632.6 637 634 630.5 619.9 596.9 584.7 569.4 558.7 547.2 540.9 534.1 525 519.6 516 508 503.5 496.9 491.3 484.3 480.1 474.4 468.8 464.2 457.6 455.1 453.2 448.4 444.8 441.2 437.4 431.3 427.9 426.2 425.8 424.1 425.3 421.9 417.1 415 414.4 412.8 408.8 409 406.9 406.6 406.4 406 407.6 411.1 410.3 412.4 412.2 412 411.6 410.4 410.5 409.9 409.8 409.1 405.9 403.7 403 402.2 399.7 398.9 399.2 398.7 399.6 402.3 403 402.9 402 400.9 400.3 401.2 403.2 405.7 409.1 414.9 419.9 429.7 438.2 446.5 461 472 481.8 494 505.4 518.2 528.4 538.3 545.9 553.9 558 556.9 552.2 545.6 537.4 527.9 518.1 508 489.5 479.2 476.8 469.4 464.3 462.4 458.3 458.3 459 459.2 460.3 464.4 468 470.8 475.1 480 481.4 486.4 496.7 510 516.7 527.5 537.1 547 559 570.6 583.4 596.9 606.8 615.2 627.2 636.9 648.4
570.2 574.5 584.5 594.4 604 606.9 611.5 620.4 623.5 624.5 626.3 628.3 629.7 621 611.5 612.2 598.5 565.8 529.1 504.1 481.1 459.4 435.5 418.1 406.1 401.8 403.5 405.8 410.9 419.8 423.4 427.2 430.6 431.5 433.1 436.9 442.4 444.6 450.1 455.1 457.7 463.3 468 469 476 481.4 490.1 492.8 499.8 506.3 517.7 526.6 536.8 543.5 553 563.1 575.8 585.7 596.3 602 609.6 621.6 629 633.8 644.1 655.4 654.7 649.1 638.8 610.1 589.7 574.5 560.5 547.4 538.4 528.9 518.8 513.5 509.8 504.4 501.2 496 490.4 487.1 483.1 480 477 473.4 465.2 461.6 457.3 453.8 449.8 444.3 440.3 434.8 431.6 429.7 430.3 428.3 425.7 424.6 418.9 417.3 415.1 414 411.3 410.6 409.3 406.9 407.1 406.7 405.7 408.1 410.3 410.3 413.1 412 411.6 410.9 409.7 409.5 408.3 407.5 407.4 406.2 404.6 403.1 403 402.1 402.4 400.5 400.9 399 400.5 401.9 400 399.8 399.9 401.9 401.2 401.4 403.3 407.2 412.6 421.2 432.8 438 449.5 460.3 473 482.7 496 505.4 516.2 526.3 536.1 543.3 549.4 552 547.1 541.9 537.7 531.9 524.8 508.7 500.9 486.8 476 472.5 467.5 463.6 460.2 459.2 458.2 458.7 459.2 460.3 464.1 466.8 471.9 475.5 480.8 484.4 490.9 498.5 509.7 518 528.3 538.8 550.5 563.2 578.1 589.8 601.7 608.9 619.8 630.3 642.7 651.6
571.1 573.8 584.7 593.2 601.8 609.6 612.5 618.4 621.7 621.3 626.4 624.8 622.5 613.4 606.1 601.5 573.5 541.8 514.8 485.3 462.4 438.8 419 407.6 404 404.8 407.2 413.8 420.7 425.6 429.6 436.3 435.8 436.9 438.2 439.4 444.3 451.4 454.2 458.3 459.3 461.1 467.2 472.6 477.3 486.1 495.3 504.8 511.7 517.7 526.9 541.4 549.3 558.3 568 579.1 592 600.9 609 621.1 633 640.4 646.7 655.7 658.9 670.4 664.7 651.7 629.1 602.4 579.4 564 552.5 537.2 528.6 520.2 510.4 503.9 499.3 497.8 494.1 489.3 488 484.4 479.7 477.6 475.9 471.2 466.1 460.8 459.5 452.4 445.9 443.7 442.4 438.4 434.2 434.2 431.8 428.7 424.6 420.7 420.1 418.4 416.6 417 414 414.5 411.6 411.7 408.7 408.2 407 405.7 407.9 408 407.7 408.3 410.1 411.5 410.8 407.4 407 406.9 405.8 405.1 403.7 402.4 402.7 402.8 403.5 402.4 402.7 401.3 402.3 401.7 400.1 400 401.5 400.4 401.3 401.7 403 407 412.1 423.5 430.7 441.1 452.5 464.4 472.2 482.7 493.1 502.7 512.3 522.3 531.3 537.6 541.3 541 537.8 535.2 529.7 523.6 514.3 505 498.5 482.1 478.9 469.7 467 461.5 460.5 461.7 459.3 457.9 460 460.7 464.6 467.4 471.1 479.3 482.7 487.9 493.4 502 511.6 523.1 530.1 541.4 555 567.9 582.1 591.7 603.2 609.3 620.7 635.8 645.9 656.7
568.6 575.1 584.6 595 601.2 611.6 614.7 616.2 619 618 622.1 618.6 608.8 603 597.3 587.1 565 535.2 499.2 466.9 445.1 423.3 410 407.2 405 406.6 412.2 418.7 425.4 431.7 434.5 436.6 439.1 442.4 444 444.9 448.5 452.3 455.8 459.2 459.3 462.1 467.8 478.4 487.5 495.8 502.9 513.1 523.1 528.8 539.1 551.4 561.7 568.3 577.4 589.5 602.4 612.7 626.7 636.7 645.5 654 664.9 670.7 677.2 676.1 666.4 654.7 624.4 593.1 569.6 554.5 541.1 531.7 520.3 509.1 502.1 495.5 491.3 492.3 488.5 486.3 483.9 480 478.6 475.8 473.4 470.5 464.5 459.9 458.3 454.8 451 449.8 447.2 442.7 440.8 437.2 433.1 428.5 427.8 425.2 422.5 420.3 420.1 417.5 416.3 415.3 412.4 414 410.7 410.1 411.6 411.4 410.5 405.6 405.7 406 405.4 408.3 407.9 406.9 405.4 406 404.5 404.8 403.7 402.9 402.4 402.2 402.3 402.7 402.6 402.5 402.6 402.9 404.9 402.6 401 400.3 400.5 401.4 403 406.9 413.9 419.5 431.5 440.8 451.2 462.8 474.6 481.9 490.6 499.9 508.4 518.5 526.6 531.3 534.1 535.3 532.5 531.8 523.3 514.8 507.9 497.6 489.6 480 476.4 473.7 465.7 461.8 460.4 460.8 458.8 459.1 461.5 462.9 462.5 465.6 470 475.6 484.3 490.5 494.6 505.2 515.1 522.6 533.2 543.6 556.5 569.7 584.3 593.1 601.2 613.2 624.6 637.1 648.8 661.3
569.5 577.7 586.3 594.7 601.4 607.7 615.3 617 618.8 618.1 619 612.2 606.4 597.5 583.1 566.2 543.7 515.9 487 448.2 427.2 410.7 403 402.5 405.9 408.7 416 423.8 432 434.8 437.4 439.7 443.4 444.5 447.4 448.3 449.4 452.6 455.7 460.6 464.2 471.1 475.3 483 495 503.9 513.8 526.2 537.5 546.8 551 564.7 572.1 578.8 588.7 597.2 612.6 626.5 640.3 652.2 660.3 668 677.5 685 685.6 679.1 664.3 634 607.4 582.3 557.7 540.5 528.7 516 507.3 501.1 496.5 492 489.3 488 485.8 483.4 481.7 479 476.1 472.6 471.2 467 462.9 462.7 460 457.5 456.6 454 447.2 445 444.3 437.8 438.5 437 432.7 428.1 424.3 421.3 420.3 418.5 416.2 415.1 412.9 413.3 413 413.2 413.2 413.5 413.3 410.8 409.3 406.6 404.2 406.3 409.1 405.8 404.8 404.6 405.4 403.4 403.6 404 402.6 402.1 403.4 402.7 403.1 402.7 407.9 402.9 402.8 403.3 401.7 402.2 401.3 403.9 407.1 409.9 413.6 418.7 428.2 438 451 462.7 472.4 478.9 488.3 497.2 504.2 512.6 519.1 522.6 525.9 527.7 526.4 521.9 517 508.8 503.4 496.9 486.8 480.6 483 472 463.9 462.3 460.2 459.6 459.8 461.1 462.8 463.3 463.2 464.3 469.7 477.3 479.3 485.4 495.9 507.3 515.1 522 533.4 548.4 559.2 571.2 582.2 591 603.2 614.8 625.8 638.4 652.7 668.2
570.1 579.1 590.8 598.1 604.1 608.8 612.4 613.3 616.2 615.9 613.8 603.9 597.9 585.6 567.6 542.2 520.6 490.8 463.3 436.6 413.2 403.8 402.7 403.1 407 414.8 426.2 431.1 436.1 441.5 444.3 446.5 443.6 444.8 446.3 447.2 450.1 452.7 456.8 463.1 468.3 475.1 484.6 492.8 501.5 511.9 525.6 537.5 548.7 562.1 570.4 577.6 585.8 593.7 598.2 613 628.7 643.9 654.8 664 672.8 680.1 688.6 693.4 688.4 675 648.1 618.1 592 567.2 547.1 533.8 520.3 510.3 499.9 497.2 492.5 488.6 486.5 484 482.2 480.8 478.9 476 474 471.7 470.8 467.9 467.3 463.7 464 463.2 458.4 453.8 451 448.6 448 448.6 445.1 440.6 437.1 430.8 429 426 423.9 421.8 418.2 415.9 416.1 416.3 415.3 416.2 413.9 413.2 412.9 413.3 406.8 404.4 404.2 403.4 405.4 404.7 402.7 401.7 401.1 401.8 402 402.8 402.2 402.5 401.2 401.3 404 403.1 401.7 402.9 402.9 402.2 402.8 401.9 402.4 405.7 406.4 408.5 412.2 421.3 429.6 439.2 453.2 462.6 468.8 478.5 488.8 495.7 501.4 506.1 510 513.3 516.3 518.3 518.2 516 512.1 507.6 502.9 494.7 485.2 478.1 474.4 468.1 464.3 462.3 458.4 458.7 457.4 459.6 461.4 462.4 462.7 465.2 473.2 474.4 478.6 486.6 496.2 507.3 515.5 523.7 537.4 550.1 561.4 573 582.8 591.7 602.8 615 627 641.2 655.8 673.5
571 579.6 589.3 596.1 603.2 607.4 610.4 615.1 613.6 611.4 607.3 598.1 585.6 570.4 547.9 524.5 500.7 475.6 443.8 425.1 408.7 401.6 402.3 403.1 410.7 419 427.7 433.4 442.7 445.3 445.5 445 443.2 443.6 445.3 447.6 450.8 454.1 459.3 465.4 473.7 482.1 490.3 502.3 513 521.6 534.6 546.9 557.6 570.4 578.2 587.3 597 603.9 619.8 634.7 647.9 659.3 671.1 678.7 685.7 690.4 699.4 699.4 690.5 665.9 633 602.2 576.4 556.1 538 522 511.7 499.9 494.7 490.8 486.7 487.7 484.7 483 481.2 478.2 475.1 475.3 474.1 473.8 470.4 471.9 468.5 466.7 467.3 463.7 462.1 458.9 454.4 455.8 451.7 451.3 448.4 443.9 442.8 437.4 431.8 430.8 426.6 423.1 421.2 418.3 418.5 418.2 418.1 417 416.8 412.9 411.3 410.9 408.4 407.3 403.4 399.2 398.6 397.8 400.8 399.9 399.4 398.7 400.6 402.7 403.1 401.2 401.2 401.2 401.2 402.7 401.7 402.8 403.8 401.4 402.2 404.5 406.7 408.6 409.5 414.7 416.4 423.6 431.1 442.2 450.4 460.3 467.6 475.6 482.9 489.3 496.4 500.9 505.1 507.8 511 512.9 513.4 511 505.9 501.6 497.6 492 484 474.7 466.8 462.6 461.8 461.9 459.3 457.8 456.8 457.8 458.9 460.2 461 465.3 464.4 472.4 477.9 485.4 495.1 504.7 516.1 527.9 537.6 550.4 562.4 573.8 583.7 592.4 605.5 617.3 628.8 642.8 657.2 674.8
573.2 580 589.8 598.4 605.1 609.5 612.2 616.4 611 607.8 599.5 586.4 566.7 544.6 523.4 505.4 478.8 457.9 437.7 419.2 405.1 400.3 402.4 406.1 409.2 419.5 426.3 432 440.1 443.4 444.1 442.4 444 443.8 446.5 451.5 453.6 458.2 463.1 472 481.4 492.6 501.2 512.1 522.5 534.2 543.7 554.9 564.1 577.7 585.7 596.2 612.1 624.7 639.8 653.4 664.2 673.1 683.8 692.6 699.7 704.8 707.1 701.4 683.5 649.1 614.1 587.3 564.7 546.6 530.5 516.4 507 499.4 490.9 486.8 484.2 483.1 484.6 483.6 479.1 480.8 480.3 478.6 476.5 476.1 474.2 474.3 473.3 471.9 470.8 466.4 464.4 463.3 458.2 458.5 456.2 453.3 451.6 446 442.9 437.8 436.9 433.2 432 427.3 423.7 423.1 421.3 421.9 421 418.2 415 412.8 411.1 408.7 404.9 404.4 400 398.2 397.8 399.5 401.5 399.6 399.8 399.4 397.8 403.3 401.7 401.2 401.2 401.2 401.3 401.5 401.7 402.9 401.5 402.5 403.2 405.1 402.2 404.1 404.5 407.8 412.8 419.7 428.7 437.4 449.3 458.1 463 472.8 479.4 486.6 491.3 497.7 502.9 504.6 508.2 508.6 507.2 503.9 500.7 501 497 494.9 484.8 473.4 465 462.3 462 465.4 461 459.4 456.6 455.8 456.8 457.8 458.1 460.7 467 469.9 478 487.7 497.1 507.1 517.7 528.8 539.9 551.4 563.6 574.4 583.1 595.1 604.3 615.7 628.7 646.2 660.4 675
576.6 585.2 593.9 600.8 604.9 609.3 613 612.6 607.6 600.9 587 568.5 545.5 529.6 502.4 480.5 469.9 451.1 428.7 412.7 400.1 397.6 404.3 408.5 413.3 416.9 421.3 427.5 433.5 434.7 438.1 442.6 446.7 447.7 449.4 453.9 459.4 464.1 470.3 479.7 489.6 501.8 512.4 524 533 543.3 553.9 564.6 576.6 589.4 602.8 617.3 632.6 646.9 658.3 670.2 679.8 687.8 696.1 703.6 710 713.3 712.3 694.2 664.5 631.3 600.6 578.5 557.8 538.7 525.1 514.6 505 492.9 489.3 486.8 484.9 483.3 481.2 479.9 483.3 482.4 481.4 481.7 480.9 478.9 480.7 481 475.2 475 472.6 472.1 469.9 466.6 462.1 461.2 460.1 456.6 453.9 450.3 443.5 440 440.6 438.9 434.9 432.3 428.4 426 424.2 422.6 419.3 417.6 415.6 413.3 412.9 409.6 407 403.7 400.5 399.6 400.5 403.1 401.3 398.7 399.5 399.9 397.8 400.4 403.1 403.7 403.4 402.2 402.6 402.7 403.2 401.7 401.5 402 400.9 401.9 397.8 401.2 403.4 409.1 414 418.8 428.9 439 448.8 454.7 461.1 470.3 476.9 481.7 487.1 491.3 496.2 501.2 503.9 504 502.3 501.5 499 499 499.4 491.6 483.3 471.9 466.3 462.7 462.9 463.7 462.8 458.7 456.4 457.4 457.9 460.2 460.6 462.8 466.1 473.2 482.1 489.3 498.4 509.3 517.2 528.6 541.4 551.8 561.9 574.3 584.3 593 604.9 616.5 632.6 648.3 659.7 672.6
576.6 586.5 593.8 599 602.4 607.9 609.7 608.3 601.5 594.1 576 563.3 538.4 522.4 495.1 475.5 452.7 435.8 421.5 407.6 397.8 396.5 401.8 407 416.8 422.8 425 428.4 433.1 436.9 439.8 440.9 445.3 448.7 451.4 458.2 465.2 474.5 482.4 492.8 502.7 512.7 524.6 536.5 543.6 552.5 563.6 577.9 588 607.6 624.9 640.9 654.1 661.3 673.9 684.5 693.5 702.6 710.8 717.6 721.5 721.2 711.8 682.7 646.3 615.9 591.1 569.2 548.6 532.4 519.8 509 499.6 491.5 490.3 488.2 485.4 486.4 485.6 485 484.4 483.6 483.1 482 484.9 485 484.4 482.5 479.9 475.8 476.8 475.8 473.9 469 468 466.5 463.5 461.4 457.9 453.2 449 446.8 445.2 444.4 441.3 435.8 431.8 428 425.3 423.2 420 419.3 415.9 413.9 412.2 410.6 408.9 407.7 404.7 407.5 404.7 403.7 402.7 401.6 399.2 397.8 397.8 399.7 400.5 402.4 402.4 402.9 403.4 404.6 404 401.9 400.5 397.8 397.8 397.8 398.6 403.9 408.3 412.3 415.3 417.8 429.6 439.9 446.1 451.3 458.1 465.3 471.6 477.2 485 489.6 491.9 495 498.2 500.7 499.6 498.4 496.9 493.6 491.2 490.1 481.1 471.2 468.1 465.4 464.2 463.6 463 459 457.6 458.6 459.4 458.5 459.9 462.4 469 476 485 492.4 498.7 509.4 520.7 532.4 541.2 552.4 565.3 573.3 583.7 594 605.8 618.8 632.8 645 655.5 668.1
578.6 587 594.8 598.9 603.7 605.9 605.2 603.1 597 584.1 570.7 559.3 532.4 511.2 493 465.7 445.4 430.3 416.6 404.5 397.8 395.8 399.3 405.6 416.8 421.9 425.7 428.8 433.9 439.1 442.8 446.2 446.5 451.1 456.3 465.1 471.8 484.8 493 506.3 519.2 526.4 536.8 547.2 556 567.7 581.1 592.2 603.5 626 646.5 659.3 666 679 691.3 700.1 708.9 716 723.3 727.5 730 726.6 708.5 670.1 640.3 605 579.5 560.3 542.3 525.3 514.4 505.9 497.3 493.5 490.4 487.4 487.2 486.7 487 487.3 487.3 485.9 486.1 489 490.5 490 490.5 486.2 483.4 481.9 483.6 479.4 476.2 474.5 474.4 471.1 469 465.1 462.1 457.3 454.6 452.9 449.2 446.3 441.7 437.1 436 430.5 428 425.1 421 418.3 416.8 412.8 411.4 408.5 407.6 407.6 404.6 403.6 405.8 404.8 397.8 397.8 397.8 397.8 400.1 399 400 399.8 401.4 402 402.6 403.5 398.5 400.1 397.8 397.8 397.8 397.8 403.2 405.9 409.3 411.9 413.6 418.4 426.8 438.1 444.1 450.5 456.2 462.9 468.8 473.7 478 484 486.1 490.9 494.9 496.4 497.2 498.7 500.8 493.4 487.8 481.3 475.9 470.8 470.5 468.8 465.6 464.7 462.4 457.5 454.8 454.3 454.5 457.7 460 464 469.7 478 484 490.9 501.1 510.4 521 531.7 542.5 551.5 559.9 571 581 593.1 605 617.7 629.7 639.7 652.6 663.5
582.2 590.3 595.7 598.3 602.5 606.2 603.5 599.4 592.2 582.4 566.3 543.5 521.7 500.4 474.2 451.7 434.4 418.7 408.8 396.1 395 395.8 404.8 412 418.4 422.3 428.9 432.3 434.3 440.1 443.9 448.4 453.5 458.7 466.9 473.6 482.7 497.8 509.2 521.3 532.9 540.4 552.9 560.2 572.3 585.5 598 612.6 625.6 644.3 664.9 680.2 692 703.3 710.1 716.6 722.1 729.6 733.8 736.5 734.1 726.8 700.1 660.8 625.3 597.5 571.3 551.2 536.6 523.1 515 503 495.7 494 489.6 488.1 488.5 487.8 489.6 490.1 491.7 490.2 492.1 492.4 493.6 494.4 493.1 490.1 488.7 489 485.3 482.4 479.1 478.3 479.2 476 472.8 468.9 465.4 462 459.4 457.3 454 449.5 445.1 441.7 438.8 434.7 431.3 429.4 426.3 422.9 417.9 413.4 412.6 412.1 408.3 404.8 402 401.1 401 401 399.9 399 397.8 397.8 397.8 397.8 397.8 397.8 400.2 400.4 397.8 400.6 397.8 397.8 397.8 397.8 397.8 400.7 405.8 407.5 408.3 410.3 413.3 415.4 422.8 435.2 439.4 445 454.2 458.8 462.8 469.9 473.7 477.8 481.1 486.5 490.3 494.8 495.1 496 493.3 489.8 485 480.4 475.8 472.6 472.7 470.9 464.5 462.1 459.8 453.5 452.8 453.3 454.9 459.7 460.8 465.1 470.4 477.5 485 493.2 502.2 513.1 519.4 528.1 538.9 549.3 562.6 571.1 579.6 590.5 602.4 615.1 625.2 634.8 647.2 658.9
583.9 591 595.6 599.9 601.9 603.8 601.7 596.6 585.3 573.8 562.3 542.2 519.3 491 462.6 441.1 428 412.9 401 394.4 395 398.9 405.6 414.1 421.5 424.9 430.6 435.1 436.7 440 444.7 451.4 457.6 466.8 475.3 487.5 497.4 509.6 524 537.4 546.1 552.5 565.4 577.8 590.9 607 621.9 633.6 647.2 667.8 683.7 699.3 712.7 724 729.5 733.5 735.6 739.7 742 738.5 733.9 720.4 693.3 661.6 612.1 587.2 565.8 547.2 532.3 519 510.9 500.9 496.4 493.8 491.1 490.5 491.1 491.5 492.9 495.5 494.2 497.5 495.9 499.7 498.2 496.5 495.8 496.2 496.6 491.4 488.1 487.6 487.6 484.4 482.9 480.8 478.4 474.1 471 467.1 462.6 459.1 457.4 453.4 450.2 445.9 443.4 439.8 436.5 431.7 432 426.7 419.9 415.8 415.3 411.2 406.3 403.7 403.7 403.6 403.9 398.8 398.5 399.2 397.8 397.8 397.8 397.8 397.8 399.8 397.8 397.8 400.5 397.8 397.8 397.8 397.8 397.8 397.8 399.5 403 405.1 407.1 409.9 411.4 415.8 423.2 432.1 439.1 445.2 452.6 455.7 460.1 467.7 471.5 475.7 478.5 481.9 486.3 490.4 490.7 491.2 489.4 488.1 487 481.6 477.2 473.5 470.8 469.4 461.6 459.7 455.7 453.7 453.2 453.1 457.2 458 460.8 465.9 475 477.2 485.3 493.3 500.1 509.7 517.3 527.6 538.4 547.9 556.8 567.7 577.8 588.5 600 610 621.1 631.3 642.5 655.7
582.1 589 593.4 597 598.7 601.9 599.4 593 587.8 577.5 553.5 532.1 507.3 483.6 460.2 439 420.1 405.6 395.9 393.7 395.1 404.7 408.7 412.8 421.7 427.9 434.3 437.9 439.8 443.2 450.1 457.7 467.1 475.9 487.7 500.3 511.8 526.2 539 553.6 557.2 568.1 578.2 591.7 608.9 629.1 639 649.3 668.5 682.4 697 713.5 727.1 737 741.6 745.5 747.3 749.2 747.6 743.1 730.3 706.5 673.4 637.6 606 582.5 559.5 543.8 526.5 515.5 507.8 501.9 497.3 495.6 492.4 494.1 496 498 498 498 496.7 499.5 501.9 502 499.6 501.4 501.2 500.5 497.7 496.6 495.9 494.5 492.3 488.9 487.5 485.9 483.7 480.2 475.1 472.4 467.4 463.2 461.9 456.5 453.3 449.8 447.3 442.2 439.5 434.9 432.2 426.9 423.4 418.7 415.2 411 408 406.2 405.1 401.7 402.2 400.9 399.7 397.8 397.8 397.8 397.8 397.8 397.8 399.2 400 397.8 397.8 397.8 397.8 397.8 397.8 397.8 401.3 402.3 403.3 404.9 407 405 409.4 415.5 421.9 428.5 439.8 444.2 447 450.2 456.1 464.2 470 472.6 476.4 479.7 482.6 485.1 484.9 485.9 485.9 486.5 486.8 481.4 476.4 471.5 467 463.7 461.5 461.6 456.4 455 453.4 455.6 458.5 457.4 462 468.2 470.5 475.4 485 490.6 499.2 509.7 518.1 527.3 533.1 544.6 555 564.4 574.8 586.7 597.6 608.4 618.8 629.6 639.8 648.5
582.1 587.4 592.5 596.1 597.4 597.3 594.1 589 581.9 568.8 546.1 519.1 491.9 473.7 453 434.8 414.9 398.7 392.8 395.4 397 405.5 409.4 418.4 424.5 428.7 436.5 440.6 447 451 459.2 468.8 477.8 489.1 501.6 512.8 525.1 542 552.8 564.4 575.1 586.6 598.4 611.3 626.5 644.7 657.1 667.8 682.1 695.4 708.9 722.7 734.9 744 750.5 754.5 756.7 752.5 751.9 744.1 722 689.3 665 627.8 601.3 576.8 555.3 537.7 526.4 515 509.7 504.2 499.5 498.4 495.2 499 500.5 499.9 502.5 503.5 504.9 507.8 508.6 505 503.9 504 503.2 503 502 499.8 500.3 498.1 495.4 491.9 491.2 490.8 489.6 484.6 480.5 478.5 471 466.5 461.4 458.2 454.9 453.3 448.7 446.2 442.2 436.8 432.6 427.5 426.8 422.8 418.1 413.1 409.7 409.6 408.7 406.5 403.7 400.7 398.5 402.1 401.7 401.2 401.8 401.2 400.5 400.3 400.8 402 401.4 397.8 397.8 397.8 397.8 397.8 399.6 403.6 402.7 402.9 402.7 403.3 408.9 413.3 421.1 426.8 432.9 436.9 440.4 445.6 452.2 457.9 463.6 466.6 470.1 475.3 478.7 480.4 480.8 482.2 482.3 482.8 480 477.5 475.7 472.1 467.4 463.5 463.3 462.5 458.3 454.4 453.8 454.4 456.7 455.6 463.1 468 472.1 475.5 480.9 488.9 496 503.7 512.9 524.2 533.7 542 553.7 563.8 577.5 583.6 593 605.9 616.2 625.8 635.3 642.6
583 587.1 592.2 595.3 596.7 595.2 592.6 587.8 586.6 566.9 541.4 518.7 483.9 458 442.1 427.5 405.4 393.3 392.9 395 400.3 406.9 413.8 419.4 426 431.4 439 445.2 452.6 460.4 469.5 480.4 491.9 502.9 513.4 528.6 541.1 553.5 565.7 577.5 589.7 604.3 617.8 632.6 646.3 656 667.8 681.7 692.9 705.3 719.2 731.3 743.2 753.2 757.8 761.2 762.1 758.8 750.2 736.5 713.7 684.4 648.3 622.6 595.6 577.4 555 536 522.8 518.4 512.6 505.1 499.2 500.5 502.9 503.7 505.8 508 509.2 509 512 513.6 510.7 512 510.6 509.2 506.6 506.4 505.9 504.5 502.4 500.6 500.9 501.5 499.7 493.3 491.1 487.5 485.4 479.6 476.3 470.5 465.5 461.8 458.1 455.1 452.1 447.3 443 439.3 436 432.3 428.7 425.2 419.6 414.6 411.2 410.7 410 405.9 405.3 403 399.7 402.3 402.7 402.3 403 402.5 403.1 401.3 399.5 398.2 397.8 400.6 400 397.8 397.8 397.8 397.8 399.5 401 401 402.5 406.4 408.3 414.5 422.1 424.7 430.3 435.8 441.1 445.9 449.7 453.1 458.3 462.1 465.3 469 474.9 475.8 478.4 479 478.1 478.2 475.5 472.5 471.8 471.5 466.7 462.2 461.8 462.3 457.7 451.8 450.1 450.1 451.8 451.9 459.9 464 465.7 473 477.8 485.5 493.4 502.5 512.8 521.9 529.4 539.6 550.9 559.9 569.3 577.6 588.9 599.2 609.2 620.6 630.8 635.6
582.5 587 592.1 595.1 595.1 594.3 590.9 587.4 587.3 565.6 535 505.1 478.5 454.4 432.6 414.3 400.6 394.5 393.3 396 401.7 410.2 416.5 422.7 431.6 435 442.7 451.8 459.8 471.1 481.7 493.7 504.8 515.6 529.6 545.1 555.9 567.4 579.7 593.4 605.8 622.9 637.6 649.5 662.5 671 683.6 693.4 704.2 715.6 726.7 739.1 748.8 758.5 763.8 765.3 765.5 761.1 749.2 722 692.4 667.1 640.8 617.4 593.7 572.9 548.5 531.9 525.5 521.6 511.7 503.4 503.8 503.9 504.9 508.2 510.4 512.2 516.1 519.8 517.3 517.1 516.9 514.2 514.3 513.5 514.3 512.8 512.3 509.9 507.9 507 508 505.1 500.1 496.3 491.8 487.7 484.4 478.5 476.6 474.2 470.3 465 461.6 458.6 454.8 451.5 446.6 444.6 439.8 435.3 432.2 427.8 423.3 416.8 415 413.2 410.5 411.3 409.8 409.4 401.9 403.2 403.3 403.3 403.3 403.5 401.2 400.5 400 401.7 400 400.8 401.1 399 397.8 398.7 400 398 399.5 401.4 403.9 407.3 409.8 412.6 418.1 422.9 428.8 433.7 439 444.3 447.5 451.3 455.1 458.7 461.9 465 468.2 471.2 474.3 475.1 474.6 472.9 470.3 469 467.3 465.6 462.5 460.8 458.4 456 451.9 449.6 447.8 447.6 449 451.3 455.2 458.6 460.4 467.1 474.8 482.2 489 498.8 510.7 518 527.5 537 548.6 555.7 562.2 573.7 582.5 593.3 607.2 617.3 623 626.4
584 586.4 590.6 597.2 592.4 590.7 589.6 586.8 579.7 557.9 527.1 493.6 467.4 444.6 426.6 408.2 396.3 392 394 397 401.4 411.5 416.5 421 429 445.2 452.6 460.2 470.6 481.2 493.5 506.3 517.7 532.3 543.6 555.1 567.9 580.2 592.7 608.6 625.1 638.9 655.6 667.7 673.3 685 695 705.5 715.2 725.6 736.5 746.6 754.6 761.8 766.2 768 767.3 759.2 737.4 705.6 681.1 661.7 631.1 603.9 582.6 563.4 543.6 533.6 522.6 515.6 508.1 504.3 506.4 509.4 512.8 516 517.9 520.6 523.6 524 525.9 524.8 524.7 523.3 520.8 519.8 523 518.2 517 515.5 514.5 513.4 509.4 506 501.5 500.7 497.2 492.1 487.2 482.6 479.8 477.1 474.9 468.9 465 462.1 458.4 453 451.2 450.1 444.9 440.8 435.9 431.5 425.7 420.9 419.2 415 412.8 409.3 407.3 405.7 408.5 405.4 403.9 403 402.9 401.3 400.1 400.4 400.2 405.9 401.7 402.3 401.6 400.6 399.8 401.6 401.7 400.6 401.2 402.2 403.9 406.8 411.4 413.2 415.3 421.2 428.4 432.1 437 441 444.5 448.4 451.1 454.8 456.8 462.5 464.9 467.2 470.3 469.7 469.4 468.1 467.9 468.6 466.3 463 461.3 459.3 456.1 452.2 449 447.1 445.9 446.2 447.1 449.1 452.3 455.5 459.7 465 472.6 479.4 489.4 497.2 508.1 514.9 522.7 534.2 540.8 548.6 558 567.7 577.4 589.1 600.9 607.2 613.1 615.2
579 585.8 588.8 590.9 592.9 588.9 587.9 588.2 570.7 557.9 513.2 487.8 454.9 431.6 413.8 401.5 393 390.9 394.9 398.8 405 411.2 424.8 425.9 437.1 447 459.9 473.4 481.8 494.3 507.5 519.6 531.1 544.7 555.9 565.9 578.5 593.1 606.4 621.7 640.7 654.2 664.4 675.3 688.9 696.1 707.3 716.6 726.8 736.8 745.9 753.4 760 766.3 768.7 766.8 762.5 753.3 727.2 697.5 670.5 649.6 620 591.5 570.4 552.8 543.2 530.2 523.2 515.3 512.8 512.1 512.6 516.2 517.1 522 526.2 529.5 530.4 533.5 533.5 536.2 534.7 532.3 528.3 525.2 525.1 524 523.5 522.4 522.7 522.7 518 515.4 511 507.4 502.2 501.5 496.1 489.7 484 482.2 477.2 474.1 470.2 462.7 459.2 456.6 455.4 454.3 448.8 446.1 438.7 434 430.1 425.3 421.7 418.4 415.8 411.4 411.3 411.3 408.4 409.1 407.3 405 403 403.8 401.7 401 398.5 400.9 400.8 402.3 402.2 401.3 401.2 401.4 401.5 401.7 402.5 404.1 403.9 406 409.2 410.3 412.7 419.5 423.8 429.5 434.4 436.4 441.6 443.8 445.4 448.8 451.5 456.9 460.5 462 465.2 466.1 465.5 465 464.3 465.1 463.3 461.3 459.1 455.1 451.8 449.4 448.2 446.2 444 443.1 443.8 446.5 448.9 453.5 459.9 463.7 470.9 477.5 484.9 494 504.1 511.8 520.1 525.9 534 544.2 553.9 562.7 573.8 582.3 592.7 597.8 603.2 607.3
578.2 585.9 587.3 586.9 591.5 586 587.6 586.5 565.6 526.4 497.8 467.6 441.1 426.3 408.9 394.7 390.5 390.6 395.2 398.4 408.6 415.1 426.6 436.2 445.7 455.6 469 482.1 496.8 506.8 519.4 532.5 548.1 554.6 565.7 578.4 594 608.2 622.3 638.3 653.5 664.8 675.6 686.3 698.5 711 718.2 728.6 737.4 746.5 755.1 761.6 768.1 773.4 771.9 767.9 758.4 737.4 715.5 687.6 661.8 635.3 604.4 581.9 562.8 549.2 535.8 527.1 524.9 517.5 510.9 517.8 519.1 521.8 526 530.7 535 539.6 541.6 542.4 542.4 541.1 539.9 536.9 534.8 533.6 529.9 531.4 530.5 529.2 531.4 532.8 531.9 524.6 518.7 515.4 512.1 509.1 502.5 496.2 493.6 488.4 485.1 483.8 474.9 470 464.1 459.6 457.9 455.4 450.8 447.2 441.6 435.8 433.9 429.3 426.5 421.6 419.2 416.7 416.9 415.7 411.9 412.7 409.6 410.2 406.1 403.3 401 401.3 400.6 399.5 398.5 400.5 400.4 401.5 401.6 401.9 401.3 402.1 401.6 401.5 402.5 403.5 404.7 406.6 409.7 416.3 420.6 424.3 430.7 433.5 433.8 435.4 441.3 443.6 446.8 451.4 454.1 454.8 457.9 459.1 460.1 461.5 460.6 460.3 457.8 454.8 454.9 450.6 448.2 447 447.5 445 442.9 441.7 443.5 446.3 449.7 451 456.2 460.1 465.8 471.9 481.2 490.1 501.5 509.2 515.8 522.9 531.4 541.7 551.8 559.8 566.6 574.9 583.2 590.1 595 598.8
575.9 582.1 591.9 588.7 586.5 584.8 584.3 579.1 558.5 513.6 481.9 450.9 432 410.5 395.3 389.9 388.2 390.3 395.8 401.1 411 419.8 429.1 443.1 456.2 469.6 481.8 496.4 508.8 519.8 534.8 544.4 553 565.1 577.4 594.4 608.1 621 638 653.6 665.2 679.3 691.4 701.4 712 722.3 733.3 741.9 749.4 759.2 767.1 772.1 775.9 776 772.6 764.8 750.9 731.1 697.3 672.9 645.7 615.4 595.2 576.1 556.6 545 535 531 523.9 515 517.9 523.5 528 533.3 536.3 542.3 547 550.6 552.2 551.8 551.4 548.1 548.3 545.5 544.8 541.8 539 539.9 536.8 537.8 538.8 539.5 539.5 534.6 530.9 526 520.1 514.2 509.6 503.7 501.9 496.5 491.9 483.8 479.3 475.5 470.4 466.5 462.9 462.1 456.6 450.6 446.2 442.2 437.9 434.2 430.7 427.1 425.8 423.4 421.7 419.6 414.9 413.6 413.3 410.9 407.9 402.6 400.9 402.2 401.1 400.7 399.3 397.2 398.8 399 399.4 398.6 399 399.8 400.5 400.8 401.7 400.3 401.1 404 408 414.8 418.4 421.6 424.1 424 425.7 433 436.1 440.3 443.4 444.9 447.1 448.4 450.2 452.2 454.5 454.9 454.3 454.9 452.6 450.3 447.5 445.8 445.2 444.4 442.9 442.2 437.7 440.9 442 444.5 450.9 452.8 457.4 460.4 467.4 473.2 478.8 486.9 495.7 504.5 511.3 516.9 526.5 537.2 545.8 553.7 561 568.5 576.5 581.1 587.3 590.7
576 581.5 587.7 589.1 587.3 585.2 580.3 560.4 534.4 501.6 469.5 439.8 417.7 402.7 390.3 388.5 389.4 390.7 399.6 406.4 415.2 425.8 437.8 452 467 480.5 495.8 510 521 533.9 544.4 551.7 563.5 578.6 591.4 608.9 622.6 637.1 654.5 666.1 679.2 693 701.2 714.4 724.4 736.3 746 753.8 763.9 770.7 775.4 778.4 778.4 776.4 769 759 742.6 720.9 687.6 659.2 631.2 604.2 586.7 567.9 552.9 540.8 533.5 527 519.6 523.6 528 534.3 537.8 542.4 548 554.1 558.3 561.2 561.6 561.9 560.3 558.6 555.6 553.5 551.4 549.6 548.9 547.3 546.9 547 548 548 545.1 543.3 536.5 533.1 527.8 524.1 520.3 516 507.3 499.2 493.1 490.6 487.2 480.1 476.4 472.8 468.3 462.7 458 455.1 450.9 446.3 442.5 438.3 436.4 435.3 431.9 430.8 428.4 423.8 419 414.9 413.9 410.9 409.9 405.2 403.4 402.5 399.4 398.3 399.4 397.8 398.3 397.5 397.6 397 396.8 397.6 398.3 399.7 399.4 399.3 400.5 403 405.8 409.9 417.2 419.5 420 421.1 422.9 426 429.3 434.4 437.5 439.4 442.5 444.2 445.4 447.6 450.2 450 448.4 447 446.9 443.9 443.8 443.5 443.3 441.3 439.7 438.5 438.3 439.3 442.4 444.1 447.6 450.5 452.2 454.3 463.8 469.4 475.8 483.6 491.9 499.8 505.7 514.4 520.7 529.8 537 544.5 551.9 559.3 564.2 569.2 573.8 576.7
575 578.9 581.1 581.8 580.8 581.3 565.8 546.5 514.7 489.9 464.1 432.5 405.6 395.8 388.5 387.6 392.3 394.9 400.5 410 421 434.3 450.4 463.5 478.3 496.6 512.3 526.2 534.7 540.1 553.5 566.6 576.3 591.6 607.7 622.7 639.2 654 665.8 680 693.5 705.2 717.1 722.3 736.6 750.3 757.2 767 775.8 780.3 781.8 782.7 779.6 774.9 765.8 752 731.9 704.6 677.4 640.2 616.5 593.5 577.4 561.3 547.8 538.9 530 523.2 528.1 532.8 538.2 542.3 546.4 554.4 562.1 567.8 572.6 574 574.3 573.6 573.5 567.4 565.7 562.1 559.2 559.3 559 556.6 558.4 559 554.9 556.1 555.5 550.3 547.1 542.4 537.4 533 526.6 521.1 512.6 508.6 501.4 495.5 490.3 485.2 480.3 475.3 468.4 464.5 460.9 457.9 453.1 452.4 447.2 444.3 441.5 440 437.7 435.1 433.5 428.6 423.6 417.5 415 413.5 408.4 407.5 404.6 403.7 401 396.3 395.4 396.3 399.6 395.8 396.5 395.8 395.2 395.2 395.9 396 399.3 399.9 400.1 402 404.8 408.9 412.2 416.6 419.1 420.5 420.7 422.6 427.8 428 429.2 432.7 437.6 442.2 443.1 445.1 447 444.7 444.3 442.9 441.3 440.7 439.7 440 438.8 438.4 436.1 435.3 435.9 440 445 445.2 444.1 445.4 449.6 454.9 458.5 467.2 475.9 481.7 487.6 493 499 506.3 513.9 521 529.3 537.3 542.2 547.7 552.6 557.7 563.1 565.1
572 576.6 578.3 576.7 575.2 569 550 523.1 498.6 472.1 441.8 417.6 398.1 386.2 389.7 389.8 396.6 400.7 407.3 417.1 430.9 448 460.6 477.6 493.1 511.6 524.7 534.7 544.3 555.8 571.1 578.3 591.3 606.1 621.6 641.6 654.1 665.9 680.6 694.5 707.1 719 732.3 744.9 754.3 765.4 772.4 779.4 785.1 786.7 787.3 784.2 777.1 768.1 755.3 737.6 714.1 689.2 656.5 631.5 603.8 585.4 569.5 554.2 542.5 534.1 529.9 530.7 532.5 537.8 544.6 552.7 558.6 567.5 576.3 580.2 583.2 585.8 588.1 584.6 583.9 580.9 580.9 575.3 572.3 570.6 571.2 567.9 569.2 568.3 568.8 566.1 562.6 557.2 553.7 553.3 550.9 541 532.4 527.5 522.4 510.5 502 495.5 490.3 483.8 478.3 476.1 473.7 468.7 464.7 461 458.6 456.5 451.1 451.2 447.7 446.2 442 440.7 437.3 429 425.7 419.9 415.7 415.1 410.7 407.1 404.4 400.7 398.2 397 396.5 393.5 393.9 394.5 393.8 393.2 392.4 392.5 394.2 395.8 397.5 399 398.2 400.8 402.4 407.6 409.5 413.7 415.2 418.3 417.2 420.5 424.7 423.4 426.4 429.2 433.1 433.7 437.2 438.9 440 441.9 440.7 440.3 437.1 435.4 434.5 435 434.8 436.3 433.7 432.8 434.4 436.8 439.8 445 441.6 442.7 448.7 457.4 459.6 465.7 471.9 476.4 481.3 486.8 492.8 498 505 512.6 520.7 528.7 533.1 539.2 544.7 549.4 551.9 554
569.7 572 569.9 570.2 565.8 549.2 528.8 507.5 480.4 452.5 427.2 404.3 390 384.5 386.9 392.5 400 405.4 416.5 430.3 447.6 457.9 474.8 493.8 512.6 524 536.2 545.3 561 576 584.1 596 608 622.3 638 652.4 666 679.4 692.7 707.1 720 729.8 744.8 757.4 773 781.7 785.9 792.3 794.6 792 789.1 782.9 774.1 761.4 744.3 724.9 706.2 681.1 645.4 620.5 597 575.6 558.1 543.7 534.5 533.4 531.4 529.9 537 545.3 554.2 563 570.3 577.2 584.7 590.9 596.8 598.4 600.1 601.9 602.3 604 594.6 590 585.5 585.2 583.2 585.3 583.9 584.4 579.5 574.5 570.3 565.8 559.5 553.8 550.6 542.5 535.5 526.7 518.8 512.3 505.4 496.8 489.2 484.1 481.9 479.8 479.2 473.9 471 467.2 464.9 461 458.3 456.9 453.2 449.9 448.3 443.6 435.3 429.8 424.2 421.4 417.1 415 410.7 406.2 403.4 402 400.5 398.8 394.7 394.1 393.1 393 392.1 392 392.9 394.2 396.4 396.1 395.3 397.2 398.6 400.2 401.1 402.8 408.6 413.3 414 413.6 416.9 417.8 419.6 423.2 427.1 428.9 430 429.8 431.6 434.3 437.8 437.5 436.6 434.9 435.8 434.1 432 430.8 431.6 438.8 432.2 431.4 432.5 435.2 438.3 442.9 439.8 442.4 449.2 451.4 456.4 462.5 469 474.4 477.4 483 487.9 492.4 498.4 506.2 514.4 520.5 525.8 530.8 533.8 536.8 540.8 542.7
569.6 574.9 567.2 561.2 547.9 526.5 504.9 484.7 461 435.9 411.4 394.7 383.8 383.9 388.5 395.4 406.5 416.1 428.6 448 461.9 477.7 493.8 511.7 526.9 540.2 552.3 565.1 579.5 593 599 610.4 624.2 637.6 655.8 665.8 678.8 691.2 707.2 717.6 732.7 745.7 761 776 787.8 792.5 798.9 800.6 797 793.8 787.2 779 766.1 750 731.7 712.1 692 666.9 631.6 604.6 583.1 565.5 550.5 539.3 535 534.8 531.6 536.3 546.6 555.5 564.2 572.4 584.5 590.3 598.6 605.2 610.9 614.1 619.4 628.1 635.8 640.1 623.8 611.1 606 605.4 605.9 603.9 600.7 594.1 589.3 582.4 575.9 568.7 560.6 558.7 546.9 538.6 530 522.9 516.6 510.8 504.1 497 491.2 486.6 485.4 488 487.5 478.7 476.7 473.7 469.9 468.6 467.3 463.3 460.9 453.1 446.8 442.6 434.4 432.7 426.6 420.6 416.4 414 410.1 408.9 405.9 403.3 400.4 396 395.3 393.3 392.3 392.6 392.7 392.4 393.4 394.4 395.3 393.7 395.2 397 398.3 400.8 401.6 404.2 404.8 411.9 415 414.1 413.9 417.3 419.1 422.7 423.5 426 425.2 426.4 427.6 429.8 431.2 431.9 430.9 430.1 428.4 428.4 428.6 429.5 429.8 431.8 432.7 428.4 432 434.1 435.1 439.4 439.6 441.6 449.2 453.5 452.9 458.5 462.9 468.6 472.9 476.7 482.9 486.3 491.2 498.6 508.1 513.1 517.4 520.4 523.1 526.9 530.7 533.3
568.3 568 556 550.2 526.6 506.8 484.1 463.7 440.8 417.8 398.1 387.3 383.7 390.4 393.7 403.5 415.8 429 447.4 461.1 477.9 495.8 517 528.5 542.1 557.2 571 585.1 596.6 607.5 614.5 623.3 638.5 654.1 666.2 679.1 690.6 706.9 720.3 731.5 745 760.7 776.3 789.9 798.4 803.1 805.9 802 798.6 793 785.4 773.7 756.5 740.3 723 700.7 667.8 644.6 619.6 595.2 575.4 560.5 549.7 542.1 538.4 534.1 535.6 545.4 559.5 565.8 572.4 582.1 591.6 601 611 618.6 624.8 633.3 643.6 649.7 657 655.8 654.6 640.8 635.7 633.8 632.9 626.9 626 607.4 600.8 589.7 574.5 564.6 560 551.4 540.6 534.8 527 521.9 514.8 511.5 504.6 499.1 497.3 490.4 490.5 494 490.9 482.7 481.2 479.5 478.8 476.9 477.2 470.8 463.4 456.5 449.1 441.8 437.3 431.8 425.3 421.1 415.4 412.1 410 408.2 404.7 403.8 398.2 399.6 398.4 394.6 393.2 393.1 391.7 392.9 393.4 393.3 393.6 394 394.7 396.9 397.3 397 398.6 399.3 402.6 403.8 409.1 413.3 414.1 415.2 416.4 417.9 420.1 421.8 423.5 423.7 425.9 425.1 425 426.2 427.7 427.6 425.9 426.7 423.6 426.4 427.4 427.6 429.9 428.8 428.8 432.8 434.3 436 438.1 440.8 449.5 451.5 449.3 452.2 458.2 462.1 466.3 469.7 476.3 481.2 486.7 494.1 499.6 502.7 506.9 511.1 514.2 520.5 522.7 527.2
563.1 557.7 547 532.4 509.9 485.7 463.6 442.1 419.2 401.1 390.3 381.9 387 392.1 400 409.8 426 446.3 458.2 478.4 495.7 518.3 531.4 549.1 561.3 580.2 594.5 603.3 613.2 621.2 630.8 639.6 651.9 664.7 676.1 688.6 705.3 717.6 731.6 742.4 760.5 775.6 789.7 800.9 806 806.8 806.3 803.2 796.2 790.4 781.2 768.3 753.3 739.7 725.1 700.2 668.4 636.9 610.5 589.1 571.8 558.6 548.4 543 542.6 544.6 549.5 560.4 568.4 576.3 582.6 593.6 602.6 611.7 623.5 633.5 644.6 654 664.1 678 686.8 683.6 677.6 673 669.1 667.2 659.1 642.4 634.3 614.7 599.4 584.3 569.5 564.6 556.5 547.1 540.2 535.4 526.3 519.4 515.4 512.4 506.2 504.4 498.9 495.4 496.6 499.2 493.7 489.1 489.6 492 486.5 484.5 484.8 478.8 468.4 459.1 449.4 442 437.4 431.9 427.8 422.9 415.8 412 410.2 407.6 404.6 402 402.3 399.8 398.1 395.6 394.2 393 393.1 391.3 392 393 393.6 395 393.6 394.4 395.3 396.8 397 397.7 399.9 400.8 405.9 410.2 411.2 413.1 414.9 416 419.6 421.1 420.3 420.6 423.3 423 422.2 420.8 422 421 423.6 421.3 420.5 422 423.4 424.8 426.1 428.3 427.7 430.7 432 435.5 437.2 438.5 445 448.9 446.4 449.4 451.9 456.5 460.9 465.4 469.8 475.1 481.8 486.6 492.6 494.8 499.5 504.6 507.6 511.4 517.1 521
559.6 546.5 535.4 516.4 488.5 466 440.9 421.8 401.1 388.4 380.9 380.4 386.7 395 410.8 420.9 437.5 457.6 475.3 492.7 510.2 529.6 547.3 565.7 587 602.9 612.1 621.8 630.8 635.1 647 657.1 664.2 672.5 683.5 698.8 714.7 727.1 741.7 755.7 771.5 785.9 802.1 807.9 811.2 809.5 807.9 803.3 797.2 789.7 778.2 767.1 752.1 735.6 715.8 690 663.1 634.4 610.2 587.3 566.7 555.4 549 545.8 549.8 555 562 571.4 578.8 585.1 595.5 604.3 612.3 626.9 641 650.5 668.3 678.3 692.5 706.6 711.7 703.8 699.6 702.2 696.2 678 663.3 648.9 629.4 608.9 593.8 579 568.5 562.7 553.9 546.6 542.1 534.7 528 522.7 517.4 510.9 505.7 502.4 499.9 497.8 500.6 501 498.1 498.7 496.7 497.1 493.3 487.3 484 481.8 473 457.5 449.6 444 438.4 431.5 427 421.3 417.3 414.9 411.7 408.2 406.9 403.5 402.7 402.2 400.7 399.2 397.2 395.2 393.3 392.1 393.2 392.5 392.2 392.3 394.1 393.4 393.2 394.5 397 396.7 397 399.2 401.3 406.3 409.6 413.1 413.1 414.8 417.2 418 420.2 418 418.7 418.5 419.3 417.7 417.8 418.9 419.1 419.5 419.4 419.7 421 422 424.4 425.5 426.1 428.2 430.4 432 435.7 436.8 441 444.4 445.8 447.1 449.3 452.5 457.2 462.6 467.5 471.6 475.4 480.3 485.2 488.2 492.7 496.9 501.7 504.7 507.9 513.1
541.5 528 512 490.3 462.5 442.4 423.3 402.9 388 384.7 379.2 380.9 388.3 401 418.7 433.6 454.7 472.9 492.9 511.9 526.1 547.3 565.9 590.1 607.7 618.3 630.4 637.3 643 650.7 664.9 667.8 677.2 682.2 694.6 708.5 722.8 736.6 750 764.4 779.9 794.7 805.4 812.2 814.5 815.6 812.2 804.9 797.1 786.9 776.1 763.2 747.5 729.9 707 685 659.8 629.2 606.2 585.1 568.1 562.1 559.4 562 566 568.7 572.3 579.8 587.3 594.9 604.7 616.5 632.3 644.9 657 674.9 692.4 706.3 726.9 740.3 732.6 727.8 717.1 704.6 693.5 680.2 664.6 644.6 621.5 609.1 587 576 565.2 559 551 545.8 541.2 535.6 528.3 525.7 518.5 515.1 508.5 505.8 503.7 505.9 504.6 505.7 505.2 504.1 502.6 498.1 493.7 487 483.6 477.9 467 456.9 451.3 445.8 438.4 434.6 428.6 423.7 417.5 413.6 412.2 409.8 406.7 407.1 405.1 400.9 401.6 400.3 398.8 397.4 396.1 394 392.6 392.2 390.2 392.5 394.3 392.5 391.9 392.7 393.8 395.6 395.3 398.2 400.7 404.4 407.2 410.9 410.1 411.5 412.1 414.1 415.6 417.7 413.9 414.8 416.4 416.7 416.5 415.4 415.1 416.7 415.8 416.8 420.3 423 424.7 425.3 427.7 429 428.1 429.7 432 432 435.3 439.3 442.4 443.5 444.9 449.4 453.7 457.4 462.9 465.1 469.9 474.4 478.8 482.7 485.9 490.8 493.8 499 502 505
529.1 507.6 482.8 460.9 441.3 417.9 402 387 379.6 378.6 381.1 386 395.7 411.7 428.5 447.3 467.4 492.2 511.6 528 547.4 565 588.4 604.3 620.1 631 646 657.2 666.3 670.6 677 681.1 687.3 696 708.6 718.8 732.1 745.4 759.1 774.4 787.9 801.7 810.4 818 821.1 821.5 816.6 807.4 798.2 784.5 772.5 760.7 739.1 724.1 702.5 679.1 652.8 626.8 605.2 588.2 579.5 574.8 579.1 579.4 575.4 579 581.6 585.9 594.9 607.8 621 636.8 651.9 668.4 684.6 702.7 722.1 736.2 747.6 755.9 751.6 734.7 716.8 706.2 687.1 669.8 650.8 632.2 614 601.4 583.1 572.6 567.1 557.1 552.2 546.4 543.2 539.3 528.8 524.2 518.9 516.5 514.6 510.1 505.7 505.5 507.4 509.4 506.9 508.1 504.6 499.4 495 491.5 481.4 472.9 465.7 456.9 452.1 446.1 440.9 436.9 430 427.4 422.6 415.9 412.9 410.7 407.4 406.9 404.9 401.6 400.2 398.2 397.2 396.9 397.1 393.8 392.2 391.2 391 391.6 392.3 391.7 390.3 391.3 393.1 393.9 394.4 398.9 402.5 402.6 404.8 409.3 408.6 409.1 411.4 412.1 410 409.7 413.3 411.8 412.2 413.1 413.6 416.4 416 414 416.4 419.1 420.9 423.3 425 426.1 425.6 426.6 426 427.4 429.5 432.6 435.3 440.4 441.8 441.1 441.6 446.1 451.9 455.3 458.6 462.7 466.1 470 474.1 477.1 481.8 484.9 489.2 491.4 494.4 497.1
501 483 455.9 433.4 416.7 397 386.4 379.6 375.6 378.7 383.6 396.3 408.4 424.7 444.2 465.8 483 508.5 532.7 549.1 562.9 584.5 609.5 628.7 647.7 660.8 665.1 672.3 683.4 689.7 691.1 695.2 699.3 708.5 720.3 732.4 742.1 757.7 769.3 782.6 795.7 806.6 815.4 821.9 825.3 823.5 816.2 807 795.1 780.9 770.4 752.4 736.7 720.2 697.3 673.7 648.7 628 613.1 602.3 597.8 590.9 588 584.5 583.2 583.8 590.1 598.5 608.5 626.4 641.5 658.5 675.9 695.4 712.9 733.5 747.8 758.7 770.9 775.3 765.7 734.7 716.3 694.8 675.7 655.4 636.9 622.3 609.8 596 583.4 571.7 563.6 559 551.3 546.2 541.2 537.4 532.3 528.2 525.7 517.7 514.6 510.9 507.9 511.3 512.8 510.5 510.2 511.1 504.4 500.1 494.4 490.2 485.3 473.4 466.3 457.3 452.8 447.4 442.9 437.1 433.2 433.2 424.1 417.8 413.5 409.7 409.2 407.9 404.1 402.7 399.7 396 395.2 395.5 395.7 396.3 394.9 392.8 395.2 390.1 390.6 390.3 390.3 391 391.6 393.7 396.1 398.2 400.6 401.1 402.8 404 406.5 407 408.3 410.6 409 408.6 409.8 409.3 410.4 410.1 411.2 413.2 412.9 414.3 415.2 417.1 421.8 422.7 422.8 423 424.1 426.4 428.2 428.9 430.6 437.2 436.9 435.9 439.8 440.6 440.5 444.2 450.6 452 455.4 459.2 462.9 465.9 468.7 472.2 475.2 479.4 483.5 484 487.3 490.8
475.9 454.4 434.5 412.7 396 380.7 373.6 374.8 378.9 383.8 395.6 410.3 425.5 444.7 464.8 486 506.2 526.2 547 564 585.3 613.9 628.6 649.8 666 676.3 681.6 689.8 696.8 702.7 707.5 708.2 712.5 723.2 735 744.5 756.6 768.7 778.7 791.8 805 812.8 819.2 826.8 828.9 824.3 817.6 806.1 792.8 778.1 764.8 750.6 733 714.7 694.3 671.1 652.8 635.4 623.1 616 607.7 598.9 594.3 589.7 592.1 599.1 604.9 613.7 627.6 640.8 661.2 685.4 704.1 729.3 754 768.7 778.3 787.7 795.1 783.7 758.9 726 703.5 686.3 671.1 654.6 633.2 617.5 609.8 595.1 580.4 569.1 563.5 561.8 552.3 548.4 546.1 539.2 535.4 531 526.8 521.1 513.1 510.9 512.6 515.6 516.1 514.9 514.8 510.3 506 501.4 495.2 491.6 483.8 473 465.7 458.1 453.8 450.2 445.6 440.3 435.3 430 424.1 419.2 415.2 414.8 414.5 406.5 404 404.1 399 398.8 395.8 392.7 392.8 396.9 393.8 393.2 392.7 394.6 391.1 389.9 390 391.1 392.1 393.8 396.9 397.8 398.6 400.4 401.2 403.2 404.4 404.9 405.9 406.3 407.1 409.1 408.5 408.1 409.2 408.7 410 409 413.8 414.3 418.4 420.4 421.8 421 421.5 423.9 425.1 425.6 428.4 428.8 429.5 433.2 435.9 435.3 436 439 441 442.2 446 449.7 452.7 457.1 461.5 462.7 465.8 469.1 472.9 476.3 478.4 480.3 484.4 487.8
451.9 432.3 409.2 393 380 372.8 373.9 376.9 386.4 394.9 409.8 425.9 443.4 463.9 487.8 506.9 526.3 546.3 565.8 591.9 611.5 629.1 647.1 662.9 679.6 693.4 702.6 707.5 715.5 721.8 721 723.1 730.5 740.1 749 756.6 772.6 782.7 788.4 801.7 810.5 817.6 824.1 827.9 829.1 822.1 814.3 804.8 790.4 775.3 762.1 746.6 730.8 714.3 691.5 678.3 664.6 653.9 641.9 627.4 616.2 607.7 601.1 601.4 603 610.7 622.6 635.6 653.3 684.5 694.4 711.1 735.8 764.6 785.7 799.9 811.1 816.3 809.5 784.2 745.6 723.4 698 682.7 663.7 643.4 626.7 610.8 604 591.2 578 568.4 561.2 560.2 551 544.2 543.6 539.1 536.7 528.7 525.5 518.4 512.1 513 514.4 514.2 518.3 515.1 512.6 508.2 505 500.5 496.6 491.3 481.7 474 468.7 462.7 458.2 452.8 447.8 441.3 435.8 430.3 424.7 420.3 416.9 412.2 409.7 406.3 402.3 400.6 399.8 399.8 396.2 393.9 392.4 390.9 392.1 391 390.3 394.4 392.2 391.6 390.6 390.8 392.1 395.2 395.8 396.1 399.1 398.2 401.7 403.3 403 405.7 406 409.1 406.8 408.4 408.2 407.4 407.3 407.4 408.6 407 411.1 413.3 420.4 423.5 423.2 424.1 426.9 424.4 423.7 425.7 426.6 427.3 427.9 430.1 432.3 433.8 436.6 440.3 441.9 443.5 446.2 447.8 450.8 454.1 457.8 460 463.1 465.7 468.9 470.5 473.7 477.8 479.8 484.4
428 405.2 390.8 376.4 372.8 372.8 375 380.6 398.6 410.1 422.7 442.9 464.2 487.3 508.3 529.2 547.7 571.6 594.3 611.4 631.8 648.4 664.9 680 698.5 713.1 723.2 729.5 734.7 737.7 740.1 747.3 751.2 759.9 764.9 775.8 787.4 795.2 800.4 809.3 817.2 823.1 826.8 829.9 826.7 817.6 809.3 799.4 785.1 772.5 758.9 744.8 728.2 715.7 704.2 689.4 677.2 660.9 648.5 634.8 623.7 618.8 614.3 616.3 618.5 627.8 637.3 656.5 685.3 707.2 725 749.3 774 794 812 829.4 838.5 826.2 794 762.7 732.8 713.5 697.3 674.9 656.1 644.2 627 607.8 595.7 584.4 577.6 568.2 563.6 557.3 554 549.4 547.3 539.6 533.1 527.6 521.3 517.9 513.3 513.6 513.7 514.7 516.4 515.4 510.5 506.9 505.1 501.7 497.3 489.6 481.9 476.4 471.4 466.3 460.9 452.8 446.8 442.6 438 430.5 424.9 422.9 415.9 411.8 408.8 404.2 404.7 402 400 400.8 396.5 394.8 392.8 390.4 389.8 389.1 389 391.4 391 390 392.9 393 391.4 394 395 396.1 398.6 398.6 399.4 400.3 401.2 401.4 401.9 403.7 403.6 405.2 405.7 406.5 407.4 408.6 409.7 409.2 412.2 413.9 417 422 423.4 422.9 423.4 426.1 424.8 425.8 427.1 427.2 429.7 429.8 431.7 434.8 437 439 439.7 442 443.1 446.2 449.1 451.9 454.7 457.7 461.4 464.4 465.5 467.3 469.3 471.7 474.8 478.5
404.5 389 374.7 371.5 371.3 371.6 383.4 395 411.3 424.1 437.7 462.5 486.6 508.1 528.9 550 573.2 596 613.1 633.7 643.3 667.2 686.4 700.5 718.1 732 741.9 748.8 754.5 763.6 764 771.8 778 782.1 786.5 794.3 799.2 804.2 810.2 817.5 823.7 827.8 834.1 831.7 824.5 814.4 806.7 794.4 780.8 770.7 759.2 743.5 731.4 724.3 714 698.8 685.6 676.7 661.9 651.3 638.9 635.1 630.4 628.4 637.7 642.5 657.3 677.7 704.9 731.4 754.7 779.8 800.6 824.9 841.8 855.9 835 807.7 773 742.7 727.6 707.7 690.1 674.6 659.4 640.7 623 612.7 602.4 584.7 575.8 565.7 558.6 553.9 555.1 546.6 540.3 535.7 532.1 525.6 517.9 516.7 513.1 511.7 512.8 514.2 516.6 515.2 508.5 504.7 505.1 501.5 494.1 488.1 481.2 474.9 471.4 464.3 457.9 450.5 448.4 441.4 434.4 430.7 426.4 419.5 414.4 410.3 408 407.1 408.4 404.5 401.5 398 398.3 392.7 393.6 392.2 389.8 389 388.6 389.9 390.1 389.8 393 393 392.1 392.1 392.8 395.7 398.4 403.2 398.7 398.9 398.6 399 399.2 401.5 400.4 402.5 403.4 406.4 403.1 407.2 409.8 410.3 411.6 413.7 415.2 419.4 419.8 421 421.5 421.4 423.9 423.9 425.5 427.2 429.3 430.8 431.5 432.7 436.6 437.9 439.8 442.3 442.7 446.9 447.4 449.1 452.4 455.6 459.4 462 463.5 463.2 464.3 470.7 473.5 475
383.8 371.1 370 370.3 372.3 381.6 393.5 407 421.6 442 462.6 482.1 508.9 527.6 549.5 571.6 592.9 619.1 633 650.2 671 691 708.8 722.7 737.7 750.6 759.8 767.5 776.8 786.5 792.8 799.1 800.1 802.8 810.2 811.4 811.2 816.1 824.2 828.4 833.4 838.4 836.1 830.9 820.3 811.6 804.7 792.6 779.2 772.6 759.6 748.8 740.9 732.5 724.1 713.3 707.6 697.6 684.7 677.3 666.9 656.9 660.7 661.9 668.5 678.5 686.9 702.7 725.4 749.5 779.4 807.4 836.1 858.1 860.7 847.3 826.6 790.1 764.9 739.3 716 699.8 685.7 669.3 652 636.1 625.2 614.3 601.3 585.2 572.6 564.1 558.7 553.7 544.7 537.2 533.9 532.7 529.1 524 518.2 512.3 509.4 510 509.2 511.6 513 510.7 504.6 503.1 500.5 497.8 493.7 486.6 478.7 472.3 469.4 461.5 454.3 451.5 445.4 438.3 432.7 428.7 422.7 417.1 412.2 410.9 411.9 411.4 409 405.8 401.4 398.3 396.1 392.8 393.7 391.9 389.5 389.8 388.5 388.9 388.5 388.9 389.7 391.6 391.9 392.3 391.2 391.4 394 399.3 398.1 396.6 396.4 396.7 396.5 398.1 399.3 400.2 401.7 403.7 404.3 406 407.9 408.9 411.6 412.6 414.1 416.4 416.5 417.9 418.5 418.8 421 422.5 424.2 426 427.5 428.8 430.6 431.3 434.2 437.9 440.3 441.2 442.4 443.5 447.7 446.4 450.9 456.3 456.8 458.8 460.3 460.2 462.9 466.4 469.2 472.1
