ncols 200
nrows 82
xllcorner 220000
yllcorner 723800
cellsize 50
66.7 61.6 62.8 67.3 72.4 75.9 75.7 76.7 78.7 83.4 85.7 98.3 111.6 113.8 119.5 128 138.5 145.9 148.4 151.8 160.6 176.2 188 197.3 206.7 218.8 228.1 239.4 244.1 250.4 264.1 273.3 284 292.1 302.8 307.3 311.6 320.7 329.4 333 332.6 339.7 346.6 356.2 357 360.9 367.2 375.9 385.2 389.6 397.1 406.7 408.3 407.6 404 397.4 382.2 363.8 357.1 346.6 344.6 325.8 319.8 308.2 300.2 291.3 275.3 270 256.3 243.9 235.7 223.4 216.1 209.1 203.9 204.3 191.2 187.8 187 185.6 185.3 186.8 187.3 193.1 201.8 211.2 218.3 226.1 235.9 247.5 258.3 279.7 300.1 314.4 330.2 340.9 348.8 354.8 362.4 368.5 370.4 373.2 373.9 374.9 378.4 382.4 384.5 385.7 386.8 387.2 387.8 387.9 390 390.4 385.8 383.9 382.8 378.5 377.7 380.8 383.2 395.6 407.8 417.3 430.2 434.7 437.1 439.5 440 431.3 429.4 428.3 426.8 425.9 425 424.6 424.2 425.8 427.6 426.2 429.6 436 436.2 441.5 447.2 456.5 466.7 471.6 474.6 479.4 485.8 488.2 492.3 496.9 502.8 507.5 515.9 517.6 518.2 522.5 521.2 519.6 517.4 517.2 512.2 506.3 502 496.5 490.5 486.9 479.1 475.4 469.9 466.1 458.7 449.6 440.7 428.7 419.6 406.4 394.8 384.5 370.5 363.1 348.4 342.1 331.4 322.8 313.2 304.4 297.4 291.7 289.6 290.7 285.7 281.5 280.1 276.7 278.9 283.4
61.8 63 64.7 68.2 73.1 75.4 78 80.9 81.7 83.2 86.8 90.6 98.8 107.6 118.5 125 132.1 137.3 142.8 151.7 163.3 172.6 181.2 191.5 203.6 214.6 223.7 229.6 236.4 242.2 249.3 258.3 265.2 276.5 289.7 297.7 294.8 304.1 313.1 313.4 313.7 318.2 326.1 329.2 333 343 350.4 360.3 369.2 366.1 370.9 376.3 377.5 379.7 378 363.6 349.3 343 334.7 326.7 318.3 315.7 297.4 295.2 279.6 272.3 260.6 251 241.6 231.3 224.1 218.6 209.5 201 199.4 191.7 187.5 185.3 186.9 186.1 184.7 186.2 190 200 205.9 212.5 221.2 231.6 242.6 259.1 275.8 293.1 306.7 319.4 331.3 340.2 344.9 349.7 355.3 359.3 360.9 363.3 364.8 365.7 369.5 374 374.7 376.3 377.2 376.8 376.5 374.3 376.9 372.9 367.6 363.9 367.8 370.3 375.2 377.9 384.3 394.7 406.5 420 431.1 432.3 435.5 435.9 434.7 435.5 429.5 430.7 430.5 436.7 437.2 439.7 429.8 423.7 419.9 417.9 421.1 425 425 429.2 434 437.4 442.2 450.6 454.2 459.1 465.4 467.3 471.6 477 480.2 485.4 487.7 492.2 491.9 493 494.2 493.8 493.5 490.7 484.4 481.8 475.6 470.4 465.5 463.7 455.3 453.1 447.1 445.6 439.3 428 424.9 409.5 401 393.9 381.5 369.8 361.9 347.4 339.7 329.7 320.4 313.1 306.2 298.6 294.1 289.2 287.1 288.9 288.3 283.5 278.7 278.1 280.7 286.6
61.8 64.1 67.4 69.7 71 77.1 79.8 81.6 82.2 81.6 83.6 90 97.1 101.2 108.1 116.8 122.1 132.4 137.5 146.4 156 166 176.2 189.8 200.6 207.9 211.4 215.7 216.1 224.2 235.9 242.3 252.4 253.7 266.4 275.1 273.9 279.7 295.5 291.1 301.9 303 307.9 310.7 321.3 327.5 334.5 338.1 340.7 339.8 345.5 350.6 353.4 351.8 345.9 332.9 326.4 321 312.9 305.9 296.1 292.5 285.1 279.6 267.2 255.5 245.7 240.1 228.8 219.1 213.9 208 205.1 201.2 190.1 188.2 184.9 185.5 185.7 185.5 185.8 188.9 195.5 202.7 209.6 215.8 226.1 242.1 257.8 276.1 289.1 299.8 310.3 318.7 327.9 332.5 336.4 341.8 349.2 351.6 353 353.5 355.6 359.7 363 365.2 366 367.4 368.6 368.2 366.6 362.8 364.6 361.3 359.5 365 373.2 381.5 385.1 386.2 393.7 399.6 406.6 420.8 428 431.7 433.8 434 434.3 434.8 433.6 438.6 446.2 458.1 462.9 462.4 451.7 438.3 426 422.7 417.7 416.7 418 420 422 424.9 427.4 434.5 438.3 443.5 447.2 449.3 451.8 455.8 458.7 464.3 465 464.5 468.1 469.8 467.6 468 467.7 463.5 459.8 457.4 453.4 448.8 444.5 440.7 439.5 431.5 426.8 420.9 419.2 414.4 405.5 395.2 384.7 376.8 366.6 357.5 349.1 340.1 330 320.9 313.9 308.2 303.5 296.3 293 294.2 286.9 284.5 283.9 279.9 278 277.9 285.6 296.2
60.7 64.3 68.6 70.7 74.5 78.2 80 79.6 79.5 81.1 85.4 90.6 95.3 105.8 107.5 113.9 118.8 121.7 130.7 138.6 144.2 159.1 168.7 181.3 187.8 189.2 192.8 196.1 199.1 207.4 217 225.5 235.2 243.8 248.2 248.6 259.3 265.8 269.3 278.5 285.1 288 290.1 301.7 308.1 313.6 316.1 317.3 319.7 320.4 323.6 326.6 327.2 323.6 318 314.5 304.9 304.2 294.3 287.9 277.5 275.6 268 263.1 252.6 241.8 234.8 224.6 218.8 211 205.1 201.5 197.5 191.6 189.9 185 184.7 185 185.3 184.1 187 193.1 200.9 206.7 210.9 223.2 238.5 255.3 272.9 287.7 294.3 301.9 307.7 314.9 321.9 327.1 329.2 334 340.3 342.8 343.3 343.6 350.3 353.9 356.4 357.8 356.6 357.5 358.8 358.9 355.3 353 352.1 359.1 363.9 374.8 387.6 397.3 406 403.2 416.6 422.8 426.9 432.3 432.6 436.4 437.5 439.7 443.7 444.9 444.9 449.6 459.3 469.1 473.1 473.7 469.3 456.2 448.2 441.9 424.6 419.3 411.5 414.5 415.3 418 418.7 421.9 426.3 429.6 432.6 432.9 435.8 440.6 442.2 442.4 443.3 442.2 442.7 445.8 443.7 442.4 443.3 440.5 437.9 434.3 430.3 424.8 420.7 419 419.1 412.6 405 401.7 403.3 396.2 387.7 380.6 373.6 362.5 354 345.9 339.3 329.3 320.1 314 305.4 302 299.6 294.9 289.8 289.6 284.8 282.8 281.1 279.9 279.1 286.3 291.7 303.4
60.8 64.1 67.3 71.7 77.4 78.9 79.5 78.4 79.3 81.5 85.5 89.7 93.1 97.6 100.1 104.2 112.3 114.2 121.3 124 138.4 149.2 160.9 167.6 173.6 175.6 175.4 181.9 191.6 201.2 207.9 213.9 216.9 229.2 231.3 236.4 241.7 248.4 256.7 262.3 268.4 276 278.9 284.1 288.7 294.9 297.6 298.7 299.9 298 302 307.2 304.8 298.8 296.5 294.1 285 281.5 278.8 264.9 258.2 257.7 250.8 241.7 239.6 230 221.4 216 209.2 203.2 199.5 197.1 193.2 187.9 187.1 184 184.4 184.7 183.8 186.9 190.9 194.3 202 207.3 218.9 232.8 246.2 263.6 276 285.6 292.2 296.5 302.8 309.5 315.1 319.3 322.2 325.4 328.7 331.6 335.8 338.2 343.2 345.6 347.2 347.3 346.8 349.5 352.1 350.3 345.8 351.4 358.9 367.5 371.3 381.9 396.1 402.7 411.2 423.7 434.2 435.7 437.2 443.7 446.4 450.2 452.9 457.8 459.8 459.6 464.6 467 471.4 481.2 490.7 492.6 485.8 473.6 456.6 444.6 432.4 421.7 413.5 409 410 411.7 412.7 412.4 415.5 418.4 418.8 418.7 420.6 423.7 423.1 424.2 424.2 422.3 424.5 422.1 424.1 420.9 421.7 418.5 417.8 413.9 410.4 406.7 405.9 400.5 401.1 397.5 390.3 389.1 386.3 379.4 375.6 367.5 361.3 354.1 344.2 334.3 326.8 322.1 315.9 306.7 307.3 299.2 298.3 291.1 287.1 286.8 285.1 281.6 280.7 279.8 282.9 290.3 302.9 318.7
61.9 64.7 64.6 69.8 74.3 78.3 78.7 78.5 80.9 83.9 86.3 88.9 93.4 94.8 100 103.3 109.2 109.6 112.4 120.9 135.5 144.8 151.2 157.7 162.5 165.5 167.9 176.9 185.7 191.9 197.4 201.5 204.3 217.2 224.4 229.5 230.2 238.8 244.9 251.2 254.7 261.7 264.6 269.4 272.4 275.6 276.9 279.3 283.8 281.7 284.9 285.4 282.3 279.3 275.9 271.8 267.1 266.9 261.6 254.5 244.1 243.9 236.7 231.1 223.5 217.8 210.6 205.3 201.7 197.1 194 192.2 189.1 186.3 183.4 183.9 183.7 183.5 186.3 191.2 195.7 199.8 205.2 212.8 227.3 240.8 248.9 260.9 271.8 278.5 285.3 289.9 296.8 302.1 307 312.2 316.5 313.8 319.7 325 328.4 332.3 336.4 336.7 336.5 338.4 340.5 343.7 345.4 343.4 348.2 359.2 369.3 374.9 380 393.2 405.5 419.7 435.3 452.8 454.5 451.3 456.5 457 459.7 465.2 470 481.6 483 488.7 496.9 509.4 511.5 510.8 515.2 507.7 500.8 491.4 473.5 452.9 438.6 427 417.6 410.3 405.4 403.8 404.6 404.7 406.2 410.5 409.9 408.9 410.5 410.3 409.4 406.2 405.7 405.8 406.8 405.9 404.1 400.9 401.2 397 401.5 396.2 393.4 391 387.6 386.7 384.8 384.4 380.4 379.1 371.6 367.2 360.9 359.7 350.5 341.3 331.5 326.4 318.3 314.6 306.6 298.9 298.2 297.9 292.9 289.7 285 283.8 283.3 280.8 280.6 284.6 291.5 301.1 315.1 333.7
65.4 73.9 66.1 73.8 73.2 75.2 79.5 83.2 87.8 92.6 94 97.2 100.6 102.9 103.8 103 105.6 106.3 108.2 119.8 129.8 139.5 142.4 151.8 158.6 162.3 164.3 168.9 175.1 178.2 185.2 189.1 200.6 208.6 222.3 225.4 225.7 229.3 235.8 240.8 242.1 248 251.3 254.1 257.5 260.4 261.3 265.4 268.8 270.9 269.9 271.3 266.9 264.3 260.4 257.2 251.3 251.2 245.4 238.5 232.1 226 224.5 217.9 210.7 206.7 203.4 199.2 196.1 193.7 190.2 192.2 186.3 183.1 183.8 183.6 185 186.2 187 192.2 198.9 204.8 212.6 222.1 235.3 245.6 251.6 259.6 268 273.3 277.8 283.8 288.7 295.1 299.4 303.8 307.7 306 313 318.5 321.2 324.7 327.4 328.6 330.6 335.3 338.4 337.9 340 347.7 357.4 371 380.7 392.7 397.1 411.1 426.7 438.6 455.5 460.7 467.3 475.3 480.3 488.8 491.6 493.6 495.6 499.3 507.7 525.5 549.4 558.4 554.4 544.6 530.3 518.5 509.7 500.1 481.3 462.4 445.9 434.7 425 414.5 408.8 406.9 403.6 401 399.7 399.7 399.2 396.3 396.9 397.1 395.9 395.2 393.4 394 395.2 392.5 389.7 389.6 385.5 385.4 383 387.1 381 378.3 379 378.5 375.8 373.9 371.6 366.4 362.2 359.2 356.7 350.1 344.1 333.6 322.1 315.7 309.7 307.3 302.7 304.3 294.1 294.7 296.7 284.6 283.3 283.8 285.3 281.2 283.7 286.9 296.9 314.8 332.8 353.4
64.1 69.9 76.4 70.8 78.2 85.3 84.5 86.9 91.7 94.7 95.5 100.2 103.4 106.8 111 112.7 109.5 113.7 115.4 115.3 126.7 131.3 132.6 140.5 149.4 156.7 161.6 163.6 164.6 169.3 182.6 189.6 195.7 199.8 208 213.4 218.5 219.4 225.9 231.4 232.6 232.9 237 242.2 244.8 247 250.1 252.6 252.3 252.3 251.2 255.2 253.1 250.5 245.1 241.9 241.1 234.7 232.1 224.5 218.5 213.7 211.6 206.7 203.3 199.5 197.1 193.1 189.4 188.5 188.3 185.2 181.2 182.9 183.4 183.6 187 187.6 190.8 193.2 203.5 214.6 218.7 225.6 234.6 244.5 251.6 257 261.8 266 271.8 277.3 280.6 287.5 294.3 297.5 301.6 304.4 306.4 313.3 318.2 319.1 319.1 323.3 326.3 329 333.5 344.1 351.1 359.4 374.2 393.4 407.3 414.8 424.1 430.9 440.6 457.9 475.9 491 499.1 499.1 506.5 514.5 512.2 517.3 525.7 530.5 533 537 551.1 552.3 551.6 552.7 543.7 531.9 519.1 502.4 489.6 475.1 461.8 444.9 433.8 425.2 416.2 410.5 406.3 404.2 401.3 399.3 397.1 393.9 389.8 387.6 387.3 386.2 384.4 384.7 383.3 381 379.8 377.8 375.7 374.4 374.8 378.2 371.1 369.9 369.6 367.7 367.6 366.9 361.6 358.8 355.5 356.1 356 353.5 350.7 347.5 330.1 315.7 307.3 306.8 301.2 299.6 295.1 290.7 287.1 286.2 285.7 286.8 283.9 283.9 287.7 295.2 315 332.2 350.6 369.1
70.8 72.7 76.5 82.7 81.8 82.6 83.7 84.4 87.4 92.1 93.9 96.1 99 107 111 115.4 117 117.4 122.7 118 120.8 128.1 137.7 141.6 141.9 145.1 152.8 157.5 163.9 168.5 173.9 184.7 186.8 190.2 195.2 206.2 210.1 209.7 214.8 219.6 216.8 221.8 224.5 231.1 233 234.1 240 240.1 238.8 237.1 235 240.1 239.4 237.4 232.3 228.5 232.2 226.2 225.8 212.3 207.2 204.7 199.6 197 193.5 193 188.6 186.6 184.4 182.6 182.9 181.4 182.4 182.9 183.9 187.3 188.6 189.8 192.7 200.3 202.6 212 217.3 223.7 227 232.2 245 250.6 255.5 259.3 263.8 269.1 274.7 278.7 287.3 288.9 294.2 297.4 301.2 308.2 313.9 317.6 322.5 329.5 331.9 333.9 343.6 355.8 361.3 381.2 394.8 409.4 424.7 437 446.1 453.8 461.5 475.1 501.2 512 516 521.6 529.5 531 537.6 541.7 550.1 554.5 558.2 564.2 569.9 566.9 564.2 571.1 557.6 541.2 530.4 516.5 503.6 488.3 471.6 460 449.5 436.5 427.5 419.7 410.8 406 406 403.7 401.9 399.6 397.2 393.8 385.4 381.6 377.6 376.1 376.4 373.5 374.5 368.1 364.8 366.4 370.3 366.8 363.5 364.6 363.9 363.4 357.2 354.5 354.7 352.8 352 354.1 353.1 359.2 350.2 345.5 336 321.5 309.8 304.6 297.5 295.8 291.9 287.9 286.4 288.8 288.3 287.5 286.5 289 292.9 307.7 325.4 348.6 367.3 380.4
68.8 75.2 77.1 79.1 74.8 77.9 78.3 81.2 83.7 90.1 92.9 94.2 95.7 101.8 104.7 110.6 118.7 123.6 121.6 122.1 120.5 133.9 137.9 134.7 136.1 138.2 145.5 154.6 160.4 165.7 168.2 174.4 179.5 185.8 185.8 195.5 198.9 204.5 210.5 210.5 210.1 213 215.3 221.6 223.9 225.1 228 227.8 225.8 226.2 225.6 223 224.9 224.4 222.3 217.9 219.3 212.5 203.2 203 196.6 194.4 193.2 191.7 190.5 186.9 183.9 180.7 186.5 181.5 180.3 182.1 182.1 183.7 185.3 187.6 190.5 196.7 199.3 207.7 211.7 218.5 223.2 229.1 234.8 239.2 245.8 251.2 261.2 266.4 272.6 278.2 281.8 282.9 287.4 293 296.8 302.7 307.6 312.6 317.5 321.2 327.8 338.9 342.4 347.5 358.4 369.3 384.8 402.9 414.1 423.8 436.2 451.7 462.7 475.7 488.5 498.5 513 520.7 540.5 551 561.6 573.2 581.4 589.8 597 593.8 606.9 635.7 628.5 621.4 608.8 584.9 568.7 558 545.3 533.4 522.7 512.9 496.5 476.8 463.8 451 439.3 429 422.3 413.7 411.3 410 406.4 404.4 403.2 398.7 391.3 385.3 379.7 373.7 365.4 364.5 365 361.9 358.4 363.4 359.2 355.9 351.3 357.5 355.4 354.9 351.3 348.7 348.2 345.2 347.7 347.6 343.5 345 345.1 334.9 335.7 321 306.3 299.3 291.1 292.5 290 289.2 289.8 290.4 290.2 288.7 289.9 296.2 304.4 327.6 342.9 361.5 376.7 397.3
66.7 69.5 70.5 70.9 73.4 74.6 74.3 77.7 83 86.7 89.8 96 98.7 103.1 104.5 108.7 113 122.5 123.2 121.7 120.3 124.4 127.2 130.3 135.3 142.1 143.2 147.2 154.9 160.2 164.8 167.8 174.8 178.4 179.1 185.9 191.9 197 201.4 201.4 202.1 203.1 205.6 211.5 210.5 214.5 217.6 217.3 217.7 218 217.1 214 216.7 213.8 211.5 209.6 210.4 201.2 196 191.5 191.2 188.4 185.8 185 182.6 180.4 180.4 180.2 180.9 181.8 181.2 181.7 186 188 187.1 189.7 193.9 201.1 205.9 212 215.6 221.7 238.6 233.2 240.6 247.9 251.8 261.8 266.6 276.3 280 285.5 289.7 292.1 298.2 298.3 303.6 306.4 314.3 319.2 322.8 330.2 341.8 353.5 368.4 371 380.4 390.4 407.6 415.6 430.7 443.8 458 472.6 485.5 494.1 501.1 518.1 537.3 564 589.9 639.2 642.9 650.4 658.9 661.4 659.4 660.8 658.6 659 643.9 631.8 618.9 602.2 585.6 569.6 561.7 547.4 534.9 523.7 512 496.2 483.4 468.2 458.5 447.8 433.1 424 418.6 418.1 418.9 414.8 412.1 408 403.7 396.3 390.1 383.1 374.6 369.1 365.3 359.3 355.5 352 348.1 346.2 342.8 345.3 342.3 344.1 343.8 342.1 343 340.3 342.3 340.3 338 337.1 338.4 328.2 320.4 312.4 303.3 297.8 295.9 295.4 292.4 296.6 295.1 293.3 293.5 294.4 301 310.9 325.8 338.7 360.1 376.8 395.2 415.2
61.9 64.7 64.6 66.7 69.5 73.2 76.3 83.7 86.4 95 98.1 96.9 102.9 102.7 104.5 107.6 111.2 116.3 122.8 121.4 121.6 122.7 124.9 127.9 132.7 138.8 141.9 145 151.6 154.3 158.4 163.6 174.3 171.5 175.2 178.8 184.2 190.3 193 192.3 193.8 196 197.3 200 202 206.4 208.5 207.2 206.9 210.1 205.1 206.2 207 205.2 202.7 202.7 201.3 192.9 188.9 187.3 187.6 179.2 179.3 178.2 178.8 180.4 179 180.4 180.2 181.2 182.6 186.2 193.5 193.2 193.7 192.5 205.9 206.8 210.7 215.8 221.3 230.8 235.5 242.5 248.4 256.9 264.4 271.3 275.6 281.8 288.5 288 296.2 299.6 304.3 305.9 309.3 313.9 322.2 329.6 335.2 342.6 357.3 371.6 385.5 391.2 400.7 411.1 420.7 429.5 446.6 463.4 472.4 486.2 495.3 512.7 539.5 588.7 590.3 593.2 628.6 649.8 658.5 663.2 672.3 675.2 674.4 670.7 666.3 656.6 647.3 643.6 634.7 619.6 616.2 610.7 586 565.7 546 535.5 530.2 516.2 498.1 484.6 474.2 458.7 448.6 439 431.1 426.7 422.8 421.6 420.5 416.5 413.3 406.2 397.3 387.8 378.6 371.6 364.8 359.5 350.7 349.5 342.5 340.6 337.9 337.2 338.1 336.1 337.3 335.1 334.2 333.2 333.1 333.3 328.8 326.9 328.1 317.8 312 305 299.7 300 299.7 297.1 300.1 301 302.2 301 301.2 307.3 313.9 324.6 337.6 354.9 370.3 390 409.6 428.9
58.2 60.5 62.2 62.5 62 62.3 64.6 64.8 75.2 82.3 86.2 89.8 94.3 99.5 104.1 103.7 108.4 113.3 119.6 120.4 126.4 128.6 132.7 135.8 138.4 141.5 147.9 147.9 151.4 154.8 159.6 161.8 163.9 165.5 171.5 174.7 179 182.9 185.3 186.8 188.8 189.7 190.1 192 195.3 198.7 200.4 200.7 198.3 201 200.1 199 199.1 200.3 198.7 197 206.6 190.7 186 183 178.2 178.2 178.3 179.4 179.3 179.3 182.1 183.6 183 184.1 188 190.7 195.3 195.8 201.5 197.4 204.8 209.6 216.6 223.5 232.4 240.7 247.2 251 257.5 265.4 271.7 277.5 282.9 288 292.5 298.7 299.3 304.1 310.3 317.1 321.9 327.2 335.6 346.7 351.5 363.1 374.5 385.9 396 405.9 417.3 429.9 438.3 452.7 464.9 477.5 485.6 500.4 525.4 541.6 573.1 600.3 625.9 632.6 641.6 651.6 656.4 664.4 673.4 677.5 681.5 684.7 683.9 674.5 667.9 651.8 643.6 649.2 648.1 647.1 626.8 615.8 574.6 551.7 537.7 525 513.7 501.2 485.3 469.4 458 452.5 442.7 434.9 430 428.4 425.6 421.8 416.2 407.2 398.8 391 383.3 373.1 365.2 360.2 351.9 344.8 340.8 336.4 335.9 332.8 332.1 330.8 330 332.5 332.2 324.1 325.4 322.6 320 320.8 317 315 310 308.9 307.6 304.8 304.2 303.4 303.5 306.6 308.2 309.8 307.4 309.7 319.7 335.4 346.6 365.5 389.6 405 421.2 444.4
57 63.4 62.8 66.7 68.6 71.1 72.1 73.3 75.8 75.5 78.3 72 89.8 95 99 101.7 106 110.8 116.8 117.7 123.3 124.8 128.8 133.2 136.9 139.9 141.4 146.4 148 153.4 157.1 158.9 160.4 161.4 164.5 169 176.8 178.9 180.6 182.8 181.3 182.5 184.2 186.3 190 193.9 194.3 194.2 194.9 195.4 195.8 193.4 194.5 192.3 189.2 196.4 189.3 185.7 184 180.3 178.2 179 183 183.2 185.7 186.5 187 185.7 187.3 190 192.1 193.3 196.5 201.6 205.5 206.4 208 217.5 228.5 235.2 242.5 248.4 256.4 261.1 268 276 282.5 289.3 294.4 299.3 305.7 310.7 313.6 316.4 323.5 329.4 335.1 341.9 356 367.6 373.5 383.5 391.2 400.2 412.4 422.6 433.2 449 462 473.8 483.2 492.8 512.9 527.7 552.9 571.6 596.1 610.6 620.3 630.5 639.2 656.5 674.1 695.1 715.9 727.4 736.5 737.7 730.5 717.2 709.2 694.2 684.4 668.3 655.6 650.2 647.4 625 599.2 576.9 558.5 543 530.2 516.9 502 487.4 476.7 465.4 460 455.1 452 442.1 436 430.1 424.9 415.7 405.6 398 392.5 386 374.5 364.7 357 347.1 343 340.1 337.1 334.8 330.6 329.7 325.2 322.9 323.3 320.1 319.1 317.5 316.5 314.8 315.1 315.3 316.2 313.3 312.4 312.6 311.6 308.9 310.5 316 313.9 313.7 311.3 321.3 335.1 349.2 365.3 383.4 402.7 422.9 441.1 461.8
67.6 61.1 63 62.6 68.7 71.4 74.5 76.3 78.8 80.3 81 85.2 75.7 92.2 94 99 101.9 108.8 113.6 120.9 123.7 125.7 129.2 134.7 137.4 142.3 146.9 146.1 147.3 153.8 156.1 157.6 159 162 161.4 164 167.9 170 173.7 174.1 176 177.9 178.5 179.4 181.8 187.5 189.7 190 190.9 192.1 190.8 188.4 185.9 187.4 185 184.8 183.5 183.9 181.7 177 178.2 181.4 183.4 185 187 190.6 198.8 194.1 192 198.9 197.5 201.8 209.9 216 224.6 232.4 224.9 227.1 241.3 249.4 257 264 266.9 271.3 280.7 289.5 295.1 301.7 307.4 316.4 319.9 325.5 328.7 331.9 336.4 343.8 350.9 358 371.8 385.8 390.3 398.3 407.7 422.5 434.1 445.7 458.1 470.2 482.1 493.9 505.9 520.3 539.8 556.3 574.4 593.5 608.4 618.3 634.2 661.5 684.9 707.2 723.6 742.9 759.8 768.5 764.8 756.5 740.1 736.6 729.2 715.2 708.6 702.2 693.1 677.1 661.2 640 613.4 599.3 577.2 562.4 545.9 532.4 521.3 507.9 493.5 485.3 475.8 474.5 470.4 456.5 450.9 443.6 437.1 430.5 422.8 421.4 412.9 396.4 385.2 371.5 361.8 353.5 344.7 341.5 338.9 337.4 331.5 330.1 326.5 322.7 322.3 320.7 320.6 317.4 317.7 317.6 317.8 318.9 319.6 317.3 314 315.5 317.6 316.2 318 318.2 318 320 318.4 328.8 342.8 361.2 378.6 399.9 419.2 438.9 458.2 481.1
80.1 80.1 71.8 66.4 66.3 70.8 73.5 77.5 79.4 80.5 82.8 86.2 86.3 82 90.6 96.2 101.4 107.7 117.2 118.8 124.1 129.4 133.8 137 140.1 141.8 145.2 147 147.6 150.4 152.8 155.2 154.3 166.2 156.7 159.2 161.5 162.7 166.2 170.2 173.9 175.9 175 173.2 174.1 178.4 179.8 181.5 182.9 185.4 185.5 186 183 181.7 181 181.4 179.7 181.4 182.2 176.7 181.3 182.6 184 191.9 188.9 192.5 198.1 197.4 203.9 213.3 217 220.6 218.8 227.3 230 239.3 237.4 242.7 254 262.1 272.2 277.1 282.3 292.6 298.5 300.5 309.1 315.8 322.1 327.9 333.3 339.2 342.7 342.4 349.5 358.5 366.4 374.3 389.5 399 406.9 415.1 424.4 442.1 455 466.3 485.2 503.9 513.8 530.1 544.8 554 565.7 580.7 592.6 608.9 628 651.8 671.8 697.5 711.5 729.5 748.1 756.7 772.5 786.1 776.9 767.8 752.2 741.4 736.3 735 735.9 728.3 721.8 718.9 697.1 676.2 668.9 649.5 621.7 583.9 566 556 536.7 524.4 510 503.2 499.4 498.4 495.2 485.7 473.6 469 465.5 451.4 441.2 430.1 418.4 408.9 392.9 377.5 365.3 354.5 346.5 341.7 340 335.8 329.5 327.7 325.1 323.7 323.7 323.1 322.3 320.1 320.2 318.4 319.6 321.9 323.2 323.9 320.5 320 321.8 321.5 321.5 319.9 320.7 326.8 325.4 341.2 355.2 372.9 390.4 412.6 430.8 450 472.2 493.8
75.2 76 74.6 75 71.7 70.7 73.9 77.3 79.2 81.7 85.1 88.9 89.4 80.9 84.9 82.5 98.9 106.4 113.4 117.2 122.4 127.3 134 139.5 140.3 138.9 139.9 142.2 143.9 144.4 145.8 146.5 148.3 152 150.9 154.2 153.9 147.4 153.6 164.3 170.1 172.5 173.1 170.3 171.7 172.6 173.6 175.7 175.7 176.5 177.9 178.3 177.6 177 177.6 176.7 176.9 176.6 178.3 178.9 181.7 184.1 190.9 195.6 197.1 201 207.4 203.8 212.6 217.3 227.6 233 234.7 238.2 241.3 245.8 250.5 260.2 262 271 278.2 287.7 296.3 301.9 311.1 318 321.4 328.8 333 340 345.6 350.8 357.4 355.8 369 372.6 379.6 388.6 399.6 409.5 420.6 432.4 445.1 466.3 471.7 486.4 502.5 515.5 533.3 542.8 553.8 577 586.7 599.8 619 644 663.5 689.3 713.6 728.9 749 764.8 781.8 796 804.7 804.8 798.7 790.8 787 773.5 762 755.3 767.9 776 776 774.4 768.8 743.7 717 707.4 672.3 650.3 635.3 609.1 591.1 581.1 556.9 531.6 517.9 507.5 498.1 492.3 490.4 480.1 473.9 463.7 456.1 446 433.1 419.8 403.2 388.7 373.1 357.6 349.7 343 337.6 335 334 333.7 330.3 328.8 325.6 325 323.8 322.6 323.7 322.8 322.4 325.4 328 328.9 326.7 324.7 327.8 330.4 327.4 328.2 329.7 332.2 337.5 351.8 365 379.3 402.3 421.9 441.9 462.4 487.1 515.9
74.3 77.4 78.5 78.7 77.8 71 70.5 75.6 83.1 83.4 86.5 89.7 91.1 91.2 92.5 90.8 83.6 106 108.3 112.7 117.1 122.7 126.4 128 126.1 123.7 121.2 126.2 125 122.9 123.4 123.9 121.5 122.7 134.4 137.2 134.1 136 134.4 149 157.2 161.1 168.8 167 168.2 166 161.9 157.2 154.1 154.9 159.5 165.6 169.2 169.9 175.8 177.5 178.8 181.1 181 182.8 185 192.3 201.9 211.5 202.5 212.2 215.8 219.5 214.6 225.1 230.4 239.9 241.5 247.7 251.1 255 259.7 271.2 275.1 283.6 294.2 297.8 310.3 319.3 327.6 333.1 338.7 345.5 350.2 355.9 361.4 366.8 373 372.1 380 385 393.9 402.2 410.1 419.8 431.6 442.5 457 471.5 490.2 503.7 517.2 532.8 544.7 560.5 579.1 596.9 618.3 633.1 651.3 671.1 692.6 710.6 728.3 759.6 787.2 805.3 821 831.3 834.3 828 819.4 815.2 809.8 806.6 806 808.9 812.8 821.2 824.4 822.4 814.7 800.3 796.3 760.6 716.7 725.1 694.7 670.6 640.4 622.7 601.1 569.8 566.7 550 525.7 503 493.4 490.9 483.3 468.5 460.5 452.6 441.3 426.7 413.7 398.2 381.8 364.9 352 344 339.1 339.5 341.5 340.3 339 336.6 330.8 331.5 330.3 332.1 333.3 333.4 335.1 337 336.7 338.5 337.7 336.4 339 341 342.1 345.6 350.5 355.1 345.7 361.6 375.7 391.9 409.8 429.1 449.8 473.6 506.7 533.3
78 78.8 81.2 84.8 83.9 81.2 77.9 74 87.9 84 87.2 90.9 91.2 94.3 94.6 96.2 94.9 86.4 89 93.3 103 100.1 100.6 106.7 118.7 123.7 128 129.3 132.3 140.5 141.7 145.5 146.2 148.1 143.8 144.3 150.9 155.3 156.5 135.6 146.2 144.5 156.2 147.9 158.9 167.7 171.6 173.2 171.9 173.6 174.7 174.8 176.4 181.2 180.2 183.9 194.6 188.8 191.2 191.5 195 202.6 210 218.2 213.9 220.4 223.5 233.1 231.9 229.3 238.4 243.8 247.9 253.3 257 262.3 274.3 282.5 291 297.1 310 318.2 326.7 336.1 344.1 351.6 359 363.3 368.1 372.2 376.8 380.6 383.7 388 386.3 396.7 406.1 415.4 425.9 431.3 444.1 458.9 470.2 485.2 501.2 518.4 529.1 548.4 579 582.9 593.4 614.4 632.4 650.6 672.3 693.5 714.2 734.2 755.2 790 813.9 832.7 848.5 861 863.1 858.2 847.2 844.6 844 834.6 836.5 841.2 850.6 857.8 864.5 871 877.1 864.2 847.9 816.7 767.8 767.3 737.8 704.2 672.1 641.4 626 605.5 609.8 593 565.6 543.4 518.6 506.6 491.3 481 469 456.9 443.5 430.6 418.2 401 387 369.8 358 352.6 338.6 347 348.4 349.6 349.5 351.2 346.2 347.3 348.1 352.4 353.2 358.6 361 368.4 360.6 353 353.9 354.2 357.4 359.6 366.5 368.6 367.3 368.8 352.5 366.8 381.2 399.7 419.4 439.1 460 489.8 521 548
81.3 81.2 83.7 90 89.4 87.3 88.8 77 86.2 90.4 92 92.5 92.8 96.6 98.3 98.9 100.5 101.1 101.5 103.9 109.7 115.6 120.2 127 130.3 132.9 138.3 141 144.9 147.3 149.6 152.5 156.3 162.4 162 163 164.5 169.7 170.8 168.9 171.5 171.2 167.9 170.9 167.2 164.9 168.2 173.3 175.1 178.7 181 184.6 185.2 193.2 187.6 193.4 199.8 203.5 201.8 202.9 208.2 209.5 216.3 223.6 216.7 228.2 235.1 235.1 237.4 238.7 244.1 250.6 255.4 258.4 266.7 280.8 286.2 298.9 310.4 317.7 327.7 335.5 343.9 352.4 362.2 369.9 377 381.4 384.1 386.1 388.4 395.2 402.9 401.4 400 410.3 419.6 426.2 436.7 446 458.5 473.7 483.4 497.2 512.5 534.3 552 570.9 584.8 596.6 613.1 627.9 649.3 670.1 690.7 717.1 739 755.5 783.4 814.8 839.4 858.3 873 884.9 894.4 894.6 891.5 880.1 873.9 867.9 873.7 875.8 882.3 898.3 907.7 924.3 923.7 904.9 870.7 845.3 822.3 794.2 754.9 713.7 684.9 654.5 629.9 632 612 598.6 578.3 561.6 544.2 525.6 523.7 512.3 493.3 465.7 448.4 434.5 420 403.4 389.2 375.9 361.9 355.1 346.7 358.6 358.9 362.5 368.1 370.3 369.1 371.1 372.7 374.9 385.6 390.1 396 396.5 375 378.9 378 384.8 385.2 381.1 393.1 392.9 386.7 372.9 359.4 374.4 389.5 405.8 425.8 447.3 475.5 506.5 533.4 557.8
85.6 85.9 88.6 92.4 95 97.6 92.8 79.2 88.3 91.9 95.7 96.7 97.2 98.9 100.1 100.7 104.6 110.2 113.1 116.9 115.4 116.4 122.2 127.4 132 136.6 138.5 144.6 146.6 149.8 154.6 164 165.8 165.9 170.2 174.1 178.6 180.6 182.3 180.3 185.5 184.9 184.7 189.2 185.7 182.9 182.2 183 181.5 182.1 186.7 191.4 196.5 204 202.1 199 210.5 217.4 213.8 217.2 215.4 222.8 216.5 222.8 231.3 236.8 235.1 236.1 244 248.2 253.5 258.4 264.9 267.9 279 290.6 303.4 316.8 320.7 339.6 346 352.7 359.7 368.7 378.5 387.6 392.2 399.1 401.7 403.8 406.4 414.3 418.4 416.1 409.2 419.7 431.2 438.6 447.4 459.2 470.2 483.6 491.1 513.2 530.4 546.8 564.4 583.6 594.6 610.3 627.8 643.6 663.5 687.6 714.5 737.7 758.6 780.6 800.6 828.5 854.5 877.5 900.3 912.6 920.4 919.4 912.4 908.7 902.6 900.7 898 903 915.4 931.7 951.7 939 902.8 879.8 842.9 818.7 801 782.7 748.3 714.6 684.3 653.7 638.1 634.8 621.9 601.2 584.1 573.3 559.2 549.5 538.1 526.9 511.1 489.2 459.6 438.3 418.5 402.8 387.5 373 364 353 359.4 369 376.8 377.8 389.1 396.8 406.3 409.2 412.5 412.6 419.4 419.2 416.9 407.9 397.6 403.6 402.9 405.8 406.5 403.3 409.8 410.5 396.1 377.5 370 381.3 397.8 412.2 441.4 460 488 518.7 541.5 567.5
88.8 89.8 97.1 96.9 101.7 106 94.7 82.9 89 94.7 98.8 100.7 102.9 100.4 102.1 103.6 107.1 112.8 116.8 121.3 124.4 129.7 129.1 131.4 134.4 139 142.5 145.9 150.5 153.2 156.9 163.8 170 174 177.5 180.8 184.2 187 190.6 192.5 195.3 195.2 195.7 195.2 196.2 195.7 197.4 194.1 193 190 196.1 197.6 205.4 203.1 214.5 213.9 214.8 223.3 223.5 227.5 234.7 232.8 231.2 231.6 235.5 244 242.7 242.6 249.7 256.8 262.9 268.9 276.4 282.4 290.7 304.1 322.9 338.1 346.2 353.2 364.1 370.1 377.4 385.4 395.3 402.9 406.9 415.4 419.4 421.5 424.2 427.3 431.5 431.2 426.6 425.5 440.2 448 456.5 467.8 477.7 490.1 503 517.9 533.1 551.8 567.8 585.4 603.1 620.7 640.5 660 679.2 703.2 729.1 755.9 782.3 802.7 826.6 842.6 861.3 884.5 910.4 924.7 941.3 945.3 937.6 922.5 912.1 911.2 911.8 915.7 941.5 955.2 946.1 910.4 879.1 851.2 823.5 792.8 778.4 762.9 741 717.5 694.2 664 651.5 638.7 629.1 615.3 607 591.4 585.6 569.7 548 531.4 514 494.1 470 445.6 424.5 406.3 392.1 375.4 365.7 351.7 367.2 374.8 388.7 396.8 411.3 420.9 433.9 443.9 446.2 442.8 440.2 437.9 429.7 423.3 421.4 422.5 420.5 418.7 418.6 417.9 423.3 418.1 404.9 390.9 390.8 397.2 411.5 434 458.1 477.8 502.6 527.9 552.5 576
89.5 90.2 92.1 94.2 95.4 96.2 96.6 92.4 90.6 99.7 100.8 102.1 104.8 107.7 106.4 109 111.3 115.2 120.5 122.7 128.4 135.5 139.3 146.1 148.8 149.6 153 158 156.4 156.1 159.2 163.4 169.5 173.6 176.9 180.9 186.8 191.9 193.6 196.5 199.7 203.8 204.6 204.3 207.3 207.8 207 209.3 206.1 201.9 213.4 207.6 214.1 211.5 217.6 222.3 231.6 233.6 236.7 235.2 244.9 240.9 239.5 242.7 243.1 249.7 251.8 257.4 262.5 268.3 275.7 281.2 290.8 302.6 316.1 335.5 352.4 361.1 368.5 365.9 379.1 386 393.5 402.2 411.2 419 430.5 434.9 436.5 438 440.4 443 445.2 440.7 441.1 437.1 445.2 454.3 460.6 467.1 475.6 490.3 502.5 517.9 534 552.9 569.8 587.3 608.2 628.7 646.8 667.2 686.9 708.4 742.2 767 794.6 814.8 834.8 849.9 863.8 892.8 916.1 933.9 951.7 962.6 954.4 936 922 914.8 918.4 924.6 943.4 944.5 918.8 887.6 855 824.3 803.6 780.3 766.8 752.7 739.7 726.4 697.3 680.2 663.8 648.1 641.8 632.2 624.2 614.8 602.4 589.2 562.8 537.3 516.4 496 476.7 454.5 432.2 408.6 392 377.1 362.9 355 370.9 385.7 398.9 411.4 431.2 443.9 451.9 457.4 460 457.3 454.6 454 449.8 438.8 445.3 444.4 444.6 443.6 439.5 438 439.1 430.1 415.9 412.5 413.1 412.4 432.7 452.9 472.7 493.1 515.2 538.6 559.1 580.4
88.7 90.3 92.4 93.9 94.8 95.2 95.8 91.3 94.8 100 102.6 103.4 106.1 112.5 111.5 113 117.2 121.6 124.8 131.9 133.5 140.1 147.2 150.8 159.4 167.3 168.6 169.6 165 161.4 162.1 168.4 169.4 173.4 175.7 182.7 186.6 189.6 191.5 195.6 200.6 204.5 206.3 209.5 217.2 218 218.1 217 218.6 212.9 216.2 219.8 224.2 226.9 230.9 233.3 235 237.3 247.4 249.2 251.4 257.2 249.5 251.7 252.8 258 263.3 269.2 275.3 279.8 289 299.2 309.4 329 343.4 354.4 365.6 370.3 379.7 390.7 395.6 402.1 409.7 417.9 426 434.1 443 448.1 453 456 458 457.4 455.1 451.4 450.3 450.6 445.1 456.7 464 470.6 479.7 490.2 505.3 519.4 536.1 552.4 572 591.5 609.3 627.6 642.3 667.7 691.3 712.7 743.5 772.2 795.5 814.4 836.1 856.1 872.6 896.6 919.6 937.3 962.8 983.8 972.2 947.8 926.6 930.8 932.7 936.6 955.7 936.1 892.9 865.4 846 813.6 789.9 772.7 764 751.8 737.8 712 694 675.2 660.6 654.6 651.5 651.9 652.8 639.1 621.4 597.2 566.4 539.3 518.5 496.6 474.5 453.9 435.8 412.2 392.7 377.8 362.2 361.2 378.4 393.7 414.5 428.5 445.8 458.2 467.7 475.7 478.9 484.7 491.2 492.4 488.7 473.3 474.6 477.1 470.9 468.8 458.4 456.2 450.8 440.1 433.7 432.6 433.4 431.1 447.3 466.5 483.6 505.4 524.7 546.3 567.3 586.1
95 97.6 96.9 96.9 95 95.7 95.7 95.9 93.8 98.1 102.4 104.6 108.7 112.3 118.6 120 125.1 132.1 133.6 135.5 140.7 143.4 151 158 162.8 167.2 169.2 172.9 172.1 166.5 167.5 169.4 177 180.7 180.1 184.3 189.1 192.4 194.7 197.7 198.2 203.5 208 214 218.5 220.9 220.8 222.3 222.1 221.4 220.9 226.4 231.5 235.7 239.5 244 248 249.3 246.9 253.4 259.6 266 261.8 259.7 263.9 269.2 275.5 278.9 288.2 295.2 305.8 318.4 331.7 345.3 358.7 370.3 376.6 385.3 392.3 401.9 408.8 415.4 422.4 431.1 441 448.7 456.7 468.8 484.5 485.1 477.1 471 467.7 462.6 459.5 458.7 459.2 456.3 466.5 473.7 483.2 495.3 508.2 523.2 537.5 554.5 570.8 588.9 604.9 624.7 642.7 665.2 691 714.5 741.2 766.7 793.2 818.2 836 859.4 880.5 899.1 919.1 935.8 966.8 988.8 997.6 977.7 960.2 954.9 957.4 968.5 981.5 925.3 890.1 857.3 819.2 796.2 780.3 765.5 750.8 742.1 726.5 710.4 691 676.3 677 680.8 683.2 675.5 663.9 641.7 625.4 597.6 566 543.5 516.1 494.3 470.4 449.1 433.7 411.1 391 374.6 361.7 367.1 381.3 403.8 422.7 442.1 461.6 481.6 500.8 511.2 520.1 528.6 522.1 523.2 507.8 501.7 499 496.9 496 488.4 470.6 467.3 459.6 452 449.8 451 454.2 458.5 463.8 478.7 494.7 514.3 533.1 551.4 573.1 595.3
95.7 98.3 98.4 100 98.8 97.1 97.3 98.5 97.8 93.3 101.6 106.4 113.1 119.3 122.8 130.1 132.4 135.9 146.9 137.3 143.3 147.3 150.1 158 162.4 166.1 167.4 170.5 171.6 171.9 172 172.1 178.3 184 190.9 196.4 197.3 199.2 204.1 206.7 211.9 209.8 213.4 218.2 221.6 223.5 225.9 227.1 228.8 228.6 232 233.7 241 244.7 249.1 254.2 258.2 257.7 257.2 260 260.9 264 265 268.9 273.5 279 285.8 291.3 299.6 311 324.4 339.7 349.7 360.7 375.5 383.6 390.1 398.8 405.5 415.8 424.9 428.3 441.5 448.9 460.1 470.4 497.8 516.5 521.6 518.5 497.7 486.8 478.8 473.6 470.5 469.6 468.2 466.9 466.6 472 480.6 492.6 507.1 520.7 536 555 574.5 587.8 602.9 623.1 646.2 665.1 686.5 713.2 737.1 764.3 789.8 814.3 833.7 853.4 870 889.5 910 927.1 956.5 990.7 1024.5 1006.6 990.7 978.6 984.2 997.3 985.7 924 886 854.1 828 806 787 778.8 761.9 739.7 722.8 708.3 699.5 703.9 709.6 722.8 728.7 707.3 684.6 657.6 624.4 595.4 569 539.9 515.1 493.2 469 447 426.6 406.9 389.5 372.6 363.3 370.1 389.1 411 431.3 452.1 478.4 500.8 520.8 536.4 545.4 558.9 555.6 546.9 534.8 526.6 521.7 517.4 520.9 502.6 492.8 482.2 473.7 469.3 466 471 480.9 484.7 485 491.2 504.5 522.4 540.6 561 580.6 599.1
105 102.5 102.7 103.4 106 103 103.6 103.7 103.3 104.4 101.8 106.1 111.1 117.7 122.3 131.2 133.3 137.3 141.2 140.7 142.1 147.4 150.6 153.1 156.3 159.8 162.7 165.9 169.9 176.3 173.2 177.6 182.1 191.5 197.3 200.4 206 210.2 215 214.7 220.3 217.1 224 229 231.2 231.7 234 237.4 241.1 240.2 242.2 246.4 251.2 252.4 255.5 260.6 265.7 269.6 268.6 268.1 270.4 272.5 274.5 280.9 285.3 291 299.3 308.6 314.4 328.5 341.8 353 363.8 375.3 387.2 396.1 406.4 418.5 429.4 438.1 449.4 455.8 462.5 470.1 481 498.7 516.5 534.6 533.8 525.4 515.6 505.3 494.2 488.9 484.7 481.4 479.9 476.8 472.7 477.1 481.9 491.8 503.7 516.1 533.4 551.3 568.6 587 602.7 622 640.2 661 682.9 710.7 732.5 755.9 783.9 807.9 827.2 849.5 864.7 880.5 900.2 919.2 952.8 988.4 1021.6 1041.5 1022.7 1013.2 1014.9 1021.4 999 945.8 900.2 869.6 843.9 819.9 799.3 785.6 771.1 745.3 732.5 723.6 714.6 727.4 752.5 773.6 765.2 735.8 703.4 664.3 630.6 598.8 575.8 538.9 513.5 485.7 465.3 443.2 422.4 402.1 386 370.2 364.7 376.5 392.7 419.2 440.6 462.6 489.8 514.6 538.8 557 568.8 579.9 582.5 569.9 559 554.9 549.7 545.9 532 513.9 509.8 500.3 497.1 493.5 489.3 489.5 499.1 505.9 507.3 504.8 519.1 530.2 549.2 569.2 586.5 604.5
109 104.3 106.2 104.7 104.8 108 102.9 103.9 107.9 110 107.2 106.4 110.5 115.2 119.6 123.3 127.9 132.7 137 137.7 142.2 144.4 147.5 149.7 153.8 160.1 163.6 164.8 168.4 173.8 178 181.1 191 198.6 207.2 215.8 223.3 226.5 229.6 228.2 229.9 227.2 236.9 240.5 241.1 239.8 246.1 251.1 255.8 258.1 261.6 262.6 265.4 267.3 270.3 276.5 276.6 282.5 283.6 282.1 282 285.5 291.3 295.6 302.3 310.1 316.8 327.5 339.6 348.7 359.7 371.2 383.9 397.2 406.8 418.7 432 446.6 456.2 465.9 475.5 476.8 481.8 497.9 514.9 538 544.5 546.8 545.9 544.1 543.2 536.8 531.7 521.6 511.1 501.4 496.2 491 485.2 487.8 490.5 497.1 507.9 518.3 536.2 552.6 568.2 585.1 601.9 616.4 636.1 656.3 681.5 704.9 727.4 750 772.3 797 815.9 834.5 857.9 875.2 900.6 922.7 948.6 979 1015.5 1049.1 1056.1 1045.8 1046.7 1056 1043.2 971.7 918.9 892.8 859.4 832.5 809.5 791.4 776.1 760.6 743.4 736.1 737 755.1 787.7 788.9 760.1 731.1 698 665.5 634.6 604.4 572.9 538.3 509 484.5 459.6 439.1 417.6 398.9 383.1 367.5 370.9 381.3 398.1 425.2 448.9 468.9 496.9 523.9 553.2 572.3 592.7 603.2 598.1 590.5 584.7 580.8 573.6 563.3 528.9 536.3 530 524.4 523.7 526.1 520.1 516.3 517.5 521.9 526 530.4 536.2 544.2 557.8 575.3 593.2 611.6
109.4 107.2 111.1 111.9 110.3 107.8 109.8 110.5 109 109.8 113.7 108.2 109.2 112.3 110.9 112.7 122.9 118.5 120.3 127.3 139 141.2 145.8 148.2 150.7 159.8 165.1 165.6 177.9 174 176.5 189.8 203.9 208.8 214.5 217.1 226.3 234.5 244.4 243.1 240.6 240.4 248 252.2 254.7 259.4 263.2 266 270.9 273.8 279.2 281.7 286.3 287.2 289.6 290.9 291.7 295.9 297.1 299.4 301.5 304.6 314.3 318.9 325.2 335.4 341 356 366.8 372.1 385.8 406 415.6 432.2 434.5 449.1 466.1 472.9 480 479.7 490.3 516.3 512.8 533.6 543.9 558.1 562 557.7 560.1 567.3 571.1 572.4 578 558.3 544 531.7 521.7 510.8 500.4 494.1 492.1 500.5 512.5 523.3 535.1 552.2 567 582.3 598.5 615.3 631.4 653.1 678.4 701 721.9 739.8 756.9 776.5 792.7 812.9 838.5 866.4 898.9 926.2 948.5 975.9 1011 1047.8 1077.6 1088.9 1093.4 1075.7 1028.8 994.5 942.4 907.6 875.8 842.9 826.8 812.6 791.6 771.1 758.3 774.7 776.3 794.1 788.3 767.4 745.5 719.8 690.9 661.4 629.3 604.5 573.7 542.7 509.6 480.1 456.5 432.5 411.5 392 380 371.9 376.9 390 405.9 430 455.9 478.8 506.1 535.7 569.6 595.3 608 616.1 612.4 607.7 606.3 600.2 589.1 555.5 568.1 565.3 555.5 560.9 566.6 561.1 554.3 545.2 541.4 543 545.5 546.1 546.3 554.9 566.6 581.5 602.2 619.5
114.6 116.7 114.6 116.1 117.6 117.3 117.1 112.2 115 114.1 114.4 116.2 118.7 117.7 122.7 124.7 118.6 125.8 133.3 132.7 136.6 135.6 131.3 131.2 135.6 139.2 148.8 153.2 164.7 170.1 176.6 181.3 191.7 200.6 210.1 212.5 220.7 230.7 233.6 237.7 249.2 249.7 255.1 261.8 265.7 273.6 279.6 282.4 287.3 291.1 291 298.6 305.2 307.8 309.8 312.3 314.2 314 319.7 321 327 335.1 339.3 346 351.5 357.1 370.4 385 390.6 403 414.9 433.7 443.9 458 464.8 475.2 480.5 492.5 496.4 501.5 520 528 535.8 555.3 560.2 567 569.4 578.5 587.8 603.8 612.9 617.5 624.5 606.9 588.4 565.5 548 535 521.4 509.3 506.4 504.1 515.6 525.9 536.7 549.3 564.8 581.3 600.3 615 632.1 650.6 668.8 690.2 708.2 721.8 741 757.3 776.4 798.4 824.2 857 892.2 922.1 947.6 972.3 1009 1044.8 1074.9 1111 1125.7 1088.7 1041.6 999.8 958.9 930.5 920.7 884.9 861.5 843.1 814.7 791.2 798.8 805.8 810.3 790.7 766.5 745.7 724 701.8 674.2 647.5 621.7 599.8 573.5 546.1 510.8 481.3 457 430.1 406.2 388.8 376.9 374.6 382.9 392.8 412.9 435.5 457.8 485.6 518 547.6 580.2 610.8 625.3 632.3 630.6 623.7 621.2 614.6 587.5 593.9 600.1 599.1 597.6 605.2 604.2 589.5 586 585.4 582 570.1 562.8 559.8 559.9 563.2 574.8 592.6 609.4 622.4
129.5 129 127.9 129.7 128.4 127.8 125.4 121.8 119.2 123.2 126.7 125.6 127.3 127.5 130.5 131.8 134.4 136.6 141.3 142.5 141.7 146.3 152.7 151 154.3 151 146.1 144.5 146 152.2 173.3 181.8 186.1 193 199.6 211.3 220.3 229.9 241.3 256 264.1 265.2 265.9 275.8 278.3 284.7 293.3 299.6 304.4 309.7 316.6 322.5 327.5 330.3 334.1 334.9 338.9 342.3 349.5 351.4 353.2 364.3 373.8 379.2 382.9 392.2 414.3 424.3 436.3 452.3 461.9 471.9 490.9 503.4 506.1 512 521.2 516.1 520.1 529.5 540.1 550.2 555.9 564.3 572.2 578.6 584 594.3 612.4 630.9 641.4 647.1 663.3 655.2 626.8 600.5 577.1 557.9 542.1 531.7 520.4 512.9 519.9 529.1 541.2 548.4 567.7 583.6 601.9 613.9 628.3 643.4 662.4 681.3 694 708.5 728.4 746.9 766.3 786.4 817.2 850.9 888.7 921.6 950.4 980.9 1007.7 1040.7 1073.5 1098.8 1116.4 1108 1068.3 1039 1006.8 987.1 986.8 938.1 897 873.3 844.9 833.9 826.9 809.4 785.6 762.5 740.7 721.5 700.2 684.5 662.4 638.8 617.8 594.6 571.3 545.6 514.5 481.8 453.8 430.9 403.9 387.2 376.9 378.1 387.9 404.1 424.7 447.6 471.5 502.2 532.6 558.9 593.2 623.9 641.5 650.2 653.3 643.8 629.8 615.6 619.9 625.7 634.5 645.7 648.9 651.6 632.1 614.8 602.7 600.4 601 593.3 581.4 571.9 568.6 574.3 580.8 595.8 612.5 630.5
141.1 141.6 143.9 143.4 143.8 141.1 136.3 131 123.8 128.6 130.8 130.7 132.9 136.9 137.3 139 143.4 143.8 144.6 146.9 149.7 151.5 153.3 155.3 157.5 160.3 162.9 164.5 161.3 154.5 164.5 184.5 191 198.2 200.9 213.5 227.4 238.1 248 252.9 268.2 276.2 282.2 288 288 295.8 304.9 310.8 318.3 327.9 334.5 339.9 346.4 351.8 358.2 367.3 364.7 366.5 372.3 380.4 389.5 394.5 405.6 416.7 429.7 443.1 450.6 462.3 473.5 485 500.3 512.9 522.9 535.7 545.3 549.9 548 556.6 553.1 559.6 566.4 573.6 582.4 582.3 592.3 599.7 605.3 620.2 634.1 652.7 668 685.5 706.4 700.7 664.6 636.9 609.1 581.9 564.9 549.5 539.8 526 519.7 531.3 545.4 554.5 570.5 589.1 601 611.8 626.2 640.2 655.5 668.8 683.4 702.4 719.9 739.2 763.3 788.7 818 850.4 887.5 924.5 959.7 986.3 1003.7 1032 1058 1084.4 1100.1 1116.7 1099.4 1080.2 1060.7 1046 1001.6 961.7 959.1 905.3 865.9 831.1 799.1 777 753.4 733.1 719.4 703.6 681.4 662.3 647.2 626.5 610.1 589 568.5 541.7 512.5 481.8 453.1 426.8 405.3 389.2 380.6 384.5 398 416.6 437.3 460.5 487.8 517 544 577.6 610 638.7 658.2 675.5 666.7 647 632.7 629.3 635.5 649.3 685.9 701 687.5 708.4 669.2 642.6 624.5 615.2 610.2 606.9 595.7 584.7 579.4 582.3 587.2 599.4 617.8 634.3
154.2 156.9 160.1 158.9 159 157.5 148.8 144.5 131 133.1 134.4 136 137.4 139.1 139.1 142.1 145.5 146.1 147.8 151.4 153.5 155.6 161.1 163 163.3 165.6 168.5 169.5 174.5 173.2 160.4 170.5 183.7 198.7 204.8 210.9 223.6 239.5 254.4 261.4 261.1 272.2 288.6 297.4 298.7 302.5 309.6 320.5 331.4 344.9 348.6 356.9 363.1 368.6 377.9 383.3 388.7 389.7 396 406.1 420.6 432.8 439.3 449.6 473.3 482.1 496.6 503.1 508.3 526.1 539.4 543.7 553.6 563.2 571.4 580.6 580.8 585.6 583.7 581.8 586.2 591.6 598.2 606.9 612.9 619.8 633.3 649.2 678.3 699.5 714.6 729.3 749.4 740.9 713.8 673.5 634.4 604.4 584.1 565.4 553.5 541.4 534.1 534.3 546.5 561.7 575.1 589.5 605.3 613.7 627.4 636.4 648.5 665.6 678.8 692.2 716.1 745.2 765.7 789.3 822.6 857 893.6 935.4 964.7 983.2 998.7 1015.3 1042.8 1066.1 1086.4 1102.8 1118 1098.8 1060.3 1024.9 1008.6 987.3 957.1 915 859.6 820.7 787.7 758.8 737 723.7 704.6 690 668.7 650.6 635.3 619.6 602.1 580.3 560.8 537.3 508.8 481.8 452.6 429.7 406.8 391.2 384.6 395.1 408.8 433 453.9 474.2 498.2 527.4 559.7 587.9 625.9 657.3 683.1 696.9 680 652.8 640.1 640.4 650.9 667.5 694.5 725.8 735.4 744.6 716.8 679.7 655.7 644.7 635.8 618.8 610.2 602.4 596.7 598.7 601.8 610 624 639.3
171.1 172.3 171.8 173.7 171.9 168.9 161.4 158.4 143.7 138.9 141.8 142.4 141.9 141.5 143.3 143.8 147.7 154.7 159.6 168.2 170.6 162.7 168.8 174.5 170.3 173.5 174.9 178 179.7 185.7 183.8 182.4 173.5 190.2 208.8 209.4 217.9 233.4 251.2 262.5 266.7 272.3 280.2 294.5 305.5 309.2 318 328.5 344.5 354.6 365.1 374.8 384.8 394.5 401.6 415.2 416.4 415.2 423 437.5 451.8 460.9 474.1 488.8 495.2 516.8 518.4 529.4 550.6 560.6 569.5 580.8 590.3 594 604.3 605.5 605.2 606.7 605.4 605.1 604.3 608.9 618.4 624.2 630.9 645.7 663.3 692 713.3 736.3 762.1 789 796.1 797.1 777.3 726.8 678.8 631.5 597.9 570.8 559.8 550.8 545.1 544.9 551.8 566.5 581.7 595.1 610.9 622.4 630 639.6 653.6 669.3 681.4 694.5 714.4 743.8 771.8 800.8 835.4 876.5 925.3 943.2 958.5 971.6 991.5 1004.6 1024.5 1045.7 1066.6 1087.9 1099.4 1086.9 1047 1019.3 988.6 972.6 947.7 913.2 862.3 831.8 794.8 758.4 728.6 709 692.6 672.8 652.6 638.5 625.8 611.5 593.6 574.3 555.3 532.3 504.5 477.5 452.2 429.4 408.2 389.8 392.9 409.7 424.2 444.7 460.9 487.6 513 539.4 574.5 611.9 645.9 674.1 702.1 711.5 688.8 664.4 655.6 658.6 667.9 686.9 695.3 728.5 750.1 766 771.6 749 714.6 684.6 663.4 652.9 637 627.1 626.1 629.2 631.6 636.1 641.3 654.4
188.3 194.5 194.1 193.2 188.6 180 173.3 169.1 159.3 143.5 152.8 153.2 155.8 153.3 155 156.6 163.1 166.7 171.4 172.7 176.3 178.4 179.8 188.7 185 189 189.4 194.7 189.9 191.3 194.9 195.7 191.4 178.8 201.1 207.1 217.1 227.8 243.6 255 266.1 280.4 287.5 298 309 318.4 330.1 348.2 359.8 370 381.3 390.7 401.8 409 418.6 423.1 430.8 436.5 444 460.2 475.2 489.3 501.2 514.5 523.8 528.3 548.8 561.8 578.5 586.3 598.7 601.7 611.9 617 619.1 622.3 626.3 632.4 634.6 635.1 637.4 632.9 635.4 642.8 654.3 676.5 698.5 725.5 751.4 777.5 799.2 813.9 823.6 826.8 797.9 756.4 692.8 673.3 627.6 591.7 575.3 561.9 554.2 555.2 557.6 572.2 585.5 599.1 612.5 624.9 634.5 647 661.4 675.4 690.1 701.9 726.1 753.3 787.8 819 872.9 900.2 917.8 935.1 949.5 965.6 981.3 996.1 1005.4 1025.4 1045.7 1061.1 1078.2 1078.3 1039.2 1009.3 977.4 966.7 940.8 911.6 881.4 847.5 805.7 773.2 737.3 705.9 682.8 657.9 638.9 626.9 616.2 601.9 584.9 566.8 549.9 524 500.1 473.4 448.9 427.9 407.2 386.7 397.5 418.4 431.2 453.3 473.8 495.1 521.7 559.2 596 631.2 660 689.1 710.3 721.2 712.2 695.8 687.1 683.2 687 699.7 709.1 729.7 766.7 797.4 809 791.7 769.8 727.8 716.2 693.7 678.7 659.4 651.1 650.2 652.5 655.8 660.1 668.2
203.1 205.8 208.9 210.5 205.4 196.3 190.8 179.9 170.4 164.4 177.3 174.9 173.8 166.9 172.9 178.9 181.5 178.6 182.4 184.9 188.8 193.6 197.1 203.1 202.2 204.8 207.1 205.9 206.1 206.7 208.2 207.8 203.9 202.9 192.3 187.8 211.8 227.2 241.8 254.3 260.1 277 289.6 301.3 312.5 326.6 342.2 345.7 356.6 363 382.2 395.6 403.7 418.4 430.4 435.6 445.5 453.2 462.7 482.1 497.8 516.1 527.8 546.1 558.5 564.7 573.7 586.7 598.8 610.4 623.7 624.7 626.7 634 639.6 645.5 652.6 652.6 654.2 657 658.1 657.8 653.2 663.9 678.1 700.1 728.4 750.9 773.6 801 823.1 835.6 845.9 846.1 806.1 772 729.5 685.9 650 615.1 587.2 573.4 561.6 562.8 566.6 576.1 590 600.6 608.8 618.4 632 644.7 664.5 685.2 699.2 715 740.4 770.9 807.8 850.2 876.9 897.2 912.7 929.1 941.8 955.4 969.3 983.6 993.8 1009.6 1023.1 1039.5 1052.8 1066.7 1027.7 997.1 978.7 962.1 925.2 909.1 891.7 847.4 813.2 777.6 745.7 709.5 677.8 658.4 635.3 613.9 602.8 592.4 575.7 557.6 539.6 517.3 496.2 472.9 448.2 423 401.9 393.4 409.5 426 440.3 462.5 485.9 508.4 542.8 586.8 618.7 647.6 675.6 699.7 720.7 740.8 750.9 731.7 718.5 712.3 717.3 725 736.3 755.6 791.5 826.5 841.9 821.9 794.3 768 750.3 743.1 733.1 701.3 683.6 676.4 675.9 676.1 680.4 687.2
207.7 216.3 215.7 211.8 210.3 206 204.1 189.2 179.5 183.1 186.3 184.2 187.5 189.7 199.4 201.7 199.7 202 201.7 203.6 205.2 206.9 208.9 214.2 218.1 217.8 222.3 222.5 219.3 224.6 224.9 224.6 216.2 212.4 207.8 198.9 201 220.3 234.7 249.3 256.8 264.5 281.9 296.2 304.2 316 331.8 344.1 360 367.3 382.4 402.9 419.8 429.3 433.5 440.2 453 474 481.3 499.2 509.9 528.4 551.6 560.6 572.2 585.2 592.3 601.1 615.1 628.9 636.1 636.5 641.9 649 658.1 658.1 663.3 669.8 672.3 675.6 675.3 678.4 678.1 684.4 701.9 721.5 745.5 770.9 796.2 822.3 839.7 852.9 866.7 866.1 840.6 797.1 771.1 746 689 642.2 609.8 591.2 579.1 575.1 581.6 585 596.3 604.3 613.2 622.2 637.1 661.6 687.1 706.8 726.6 744.8 773 803.3 827.1 855.8 869.3 887.5 903.7 916.9 928.2 942.4 955.5 967.4 976.4 988 998.3 1015.7 1027.5 1038.2 1037.7 1006.7 982.5 954.9 917.9 902 890.1 862 825.9 781.9 748.6 710.1 669.9 647.7 630.2 607.3 592.9 580 563.9 549.2 531.3 511.2 491.7 466.8 440.9 418.4 397.2 400.3 415 436.6 454.5 475.9 505.5 538.7 572 603.1 633.7 663.2 687.2 710 735.7 760.6 778.2 762.8 766.5 747.5 751 775 787.8 812.5 840.8 863.6 865.4 856.7 814.5 788.2 771.5 772.9 762.8 744 718.8 711.6 705.7 704.3 707.7 721.7
210 207.1 208.6 210.7 211.5 211.3 209.8 200.9 187.7 197.9 199.5 200.4 198.5 207.9 212 215.4 217.6 219.9 221.9 222.8 221.9 223.7 223.5 227.8 227 229 230.9 231.3 234.5 233.5 241.7 241 234.5 227 222.9 214.7 201.4 208.7 225.9 238.5 251.8 260.9 273.1 294.2 304 314.5 334.3 341.6 355.8 371.2 387.2 402.6 414.2 432.6 433.8 440.2 463.1 477.2 482.7 504.9 524.4 537.1 553.3 570.6 581.9 593.5 607.7 619.3 626.2 634.4 642.8 645.9 649.7 655.6 664.3 675 687.3 692.4 692.2 696.6 696.2 701.5 702.5 710.9 724.2 741.1 763.6 791.3 820.9 839.7 854.3 869.2 877.1 879.8 872.1 832.4 815.9 770.4 724.2 683.4 653.3 628.8 605.6 600.4 602 602.7 617.4 626 635.7 649.5 664.5 680.8 702.3 723.8 745.5 778.3 800.6 815.2 833.8 849.8 862.3 875.5 889.4 901.4 916.3 929.1 939.9 951 956.8 965.6 975.2 989.4 1000.2 1015.8 1022.6 1019.7 990.9 963.9 927 910.6 881.9 861.4 819.8 789.9 750.4 716.5 683.2 644.5 622.7 606.1 585.9 567.4 551.4 539.5 524.1 505.7 486.2 463.1 435.3 412.7 397.5 412.2 430.1 451.8 469.3 491.9 529.1 558 585.9 615.8 647 672.4 695.3 719.9 750.4 779.9 796.2 807.3 796.1 807.9 820.9 833.5 827 863.8 877.7 881.6 877.3 867.1 836.1 797.9 786.3 789.2 779.5 777.9 764.9 751.9 741.2 734.5 749.4 789.7
232.9 228.5 225.1 221 221.6 221.4 219.9 214.3 208.8 211 214.7 217.3 224.3 236.6 239.9 234.7 235.9 231.1 233.5 234.6 237.9 237.4 236.2 236.8 239.4 239.4 239.3 244.2 242.1 245.1 243.7 246 244.7 239.9 238.2 228 219.2 205.5 213.5 229 243.6 255.8 272.8 285.9 304.4 317.7 325.2 344.5 355.7 378.3 385.5 406.4 415.1 428.1 436.2 436.9 459.6 477.1 484.2 516.5 529.5 540.8 552.3 568.2 579.4 597.2 610.9 626.7 638.1 645.2 645.1 649.4 656.6 666.9 678.9 691.5 702.4 710.8 715.8 721.5 724.6 728.8 729.7 738 753.8 768.1 780.5 805.5 832.2 850.2 865.8 876.7 882.7 885 882.3 844.2 799.6 776.2 754.2 739.3 699.6 673.1 654.4 644 636.9 645.4 648.4 661.9 671.4 684.2 696.9 712.5 731.8 749.7 772.9 786.7 799.1 807.5 822.1 830.4 847.5 857.9 871.7 886.4 900.2 912.4 923.3 932.7 938.5 946.1 956.5 967.5 977.4 992.9 1002.9 1005.6 998 971.4 947.3 932.4 901.7 860.4 829 791.1 749.9 708.3 678.8 649.2 622.1 599.1 579.8 555.7 542.5 526.7 514.6 497.7 478 454.7 430.6 408.7 411 425 449.1 472 491.8 514.8 540.7 571.6 601.6 630.3 656.4 684.2 708.8 735 765.5 793.9 815.3 834 847 843.5 856.5 873.5 885.3 905.1 906.7 894 878.1 860.5 833.7 804.2 798.3 801.7 800.2 779.8 774 773.5 773 772.3 786.8 814.2
242.5 250.6 246 241.5 238.8 237.9 234.8 227.4 220.4 220.3 225.9 233.7 246.8 250 255.8 258 254 250.9 252.2 248.9 251.7 251.5 252.2 250.5 250.4 250.3 253.6 253.4 253.7 251.2 251.6 256.7 248.6 252.1 249 241.9 235 222.9 206.9 220.7 241 250.7 262.5 272.7 288.8 304.3 317.8 336.7 345.5 356.2 374.9 392.1 399.5 415 427.6 438.3 453.1 464.8 480.5 499.6 517.1 534.4 550.5 570.8 587.3 603.6 619.5 629.4 638.2 639 644.8 652.3 664.6 675.6 688 695.9 706.7 716.8 726.2 733.8 743.3 752.2 759.1 766.7 777.2 791.8 807.3 823.3 839.6 854.1 867.4 879 886.3 886.5 887.5 879.3 847.8 830.1 814 783.6 751.2 729.3 710.3 692.7 686.5 689.2 692.3 698.5 709.2 728.2 743.4 750.5 760.2 775.2 779.3 783.3 785.9 791.4 803.6 816.6 830.5 838.9 849.7 867 881.5 893.9 906.2 916 924.3 929.6 937.5 946.1 955.9 969.7 980.3 987 987.5 982.2 975.9 957.9 930.5 890.9 853.8 800.3 770.3 731.2 684.2 644.4 624.8 599.3 572.4 549.9 535.1 521.1 502.9 486.5 467.6 448.2 426.3 404.5 419.8 438.3 459.2 485.9 510 539.9 559.4 586.8 613.1 642.3 669.6 699.9 724.1 756.1 786.7 815.3 837 856 874 893 909.7 923.7 922.1 920.3 914.6 893.4 878.5 860.5 842.6 817.4 802.1 795.9 795.2 779.7 781.6 780.7 777.3 779.9 800.4 829.9
246.6 256.3 262 262.2 267.3 269.1 254.8 244.5 231.9 226.7 234.9 245.5 258.8 263.8 265.5 267 266.6 268.2 268.2 266.9 268.4 268.7 267 265 261.6 262.9 263.8 263.4 260.5 264.4 262.9 262.6 263 258.9 260.7 250.4 243.2 233.1 224.8 210.4 229.8 243 256 267.8 278 292 304.3 320.4 328.4 344.1 359.8 377.7 391.8 405.9 416.2 431.4 444.9 462.8 483.3 501.6 518.6 533.7 551.4 566.8 586.1 598.1 609.2 619.6 628.4 633.6 635.9 649.3 658.9 674.1 688.7 697.1 708.6 721.1 731.7 741.3 751.4 761.5 770.3 780.6 794.1 805.6 817 830.2 844.4 856.2 864.8 875.9 887.1 893.5 895.5 896.1 888.5 855.8 828.6 811.9 802.1 782.3 757.8 745.5 731.4 736.1 757.2 749.3 772.4 797.7 796.5 796.3 781.9 776.5 775.2 770.2 768.9 772.3 782.3 798 807.5 818 832.7 848.1 862.6 877 889.7 897.7 906.4 913.9 917.7 926.7 938.5 952.9 963.5 969.2 972.9 979.9 982.8 967.3 947 915.6 884.9 837.4 773.1 734.7 696.6 652.3 626 603.6 575.7 544.3 528.4 511.7 495.7 479.5 459.7 438.4 419.1 414.3 435.9 452.8 474.5 494.9 517 545.6 577.1 602.8 631.3 655.5 683.2 711.8 739.8 775.7 808.1 836.4 861.4 882.7 901.4 907 924.8 939.6 937 930.2 913.7 897 882.7 865 841.2 818.8 798 797 783.6 783.7 780 781.6 783.4 788.7 806.6 830.2
247.4 253.4 266.6 270.5 274.6 281.5 284.9 259.5 249.9 236.3 251.4 259.4 265.1 271.7 273.1 274.4 279.6 283.1 281.6 282.2 284 286.9 281.7 279.4 276.7 275.8 272.3 274 270.9 267.9 270.9 272.5 268.6 267.7 264.2 257.9 252 244.1 234.1 224.8 221.1 233.8 247.1 258.7 270.6 282.4 295.5 307.8 322.9 334.2 349.9 365.8 382.3 398.1 412.6 429.5 446.3 457.8 480 500.7 508.9 522.4 538.6 551.2 563.8 579.2 596.2 606.9 614.4 619.1 629.2 643.2 654.3 671.8 689.6 698.7 708.7 721.4 733.7 747.3 755.2 764.9 775.4 785.4 791.8 804 815.5 823.6 838.5 848.9 860.8 872.8 885.6 892.4 900.4 904.8 899.6 876.4 854.2 842.9 835.2 832.7 831.3 798.7 778.3 782.8 810.7 838.3 808.6 830.9 820.1 804.1 778.8 769.6 760 753.8 750.6 752.5 762 777.5 786 800 814.5 831.3 847.4 861.5 871.6 880 887.6 894.8 900.8 910.3 923.9 935.9 945.3 952.8 961.9 983.4 983.2 971.8 952.3 927.9 904.1 861.9 789 743.2 700.9 655.6 625.2 602.3 566.5 541.8 524.5 506.7 487.2 464 451.9 433.7 416 425.4 443 463.8 486 506.6 535.3 559 590.7 617.9 645.7 673.8 697.3 721.4 751.4 792.5 830.8 861.2 885.3 905.7 917.3 916.8 921 937.2 939.5 929.1 904.1 890 882 861 834.6 813.9 786 788.4 784.9 769.1 773.9 776.8 777.9 781.9 802.3 812.3
255.6 255.1 265.1 269.1 270.9 273.9 274.7 267.2 253.1 248.1 260.2 268.9 271.8 275.9 286.3 286.4 290 295.9 293.8 296.2 293.3 297.8 295.7 295.4 293 290 288.5 286.7 280.5 281.1 277.4 277.4 273.6 272.1 268.6 263.3 257.3 250.6 242.2 233.7 219.7 228.2 240.1 249.3 263.6 273.4 281.9 297.7 313 325.2 342 359.1 376.1 391.5 404.2 424.1 435.9 449.5 465.7 481.5 490.6 504.5 520.4 532.5 546 561.2 575.2 590.1 595.2 603.3 612.3 625.7 653.2 669.4 675.9 689.9 701.6 717.6 735.4 745.4 753.7 765 775.3 785 791.8 796.8 807.4 815.4 826.5 836.4 847.5 859.9 874.1 888.7 901 908 909.4 904.9 890.1 880 874.1 866.4 861.4 836.8 835.4 835.7 847.5 865.3 858.7 835.2 819.7 794.6 769.3 752.6 743.3 735.2 736.5 737.7 743.4 751.3 763.2 781.2 798.6 814.9 830.9 845.2 854.2 861.8 867.8 872.7 883.7 895.6 907.1 918.4 929.9 941.7 962.1 971.9 977.1 973.1 960 931.6 911.6 879.1 830.8 771.9 731.2 668.3 626.3 599.7 569.4 542.2 520.4 495.1 476.7 459.6 441.8 425.7 418.4 433.3 453.2 474.5 498.7 522 545.8 583.3 610 637.1 662.5 684.4 706.7 735.7 784.2 815.1 852.4 886 910.5 927.1 930.6 916.2 912.3 920.5 926.7 922.6 904.2 880.4 864.8 842.7 817 791.4 779.5 785.6 768.8 746.9 738.4 739.6 742.6 753.8 781.3 798.9
268.4 268.9 268.9 270.1 279.6 280.6 279.2 273 258.3 266.8 274.2 278.5 284.9 283.5 287.8 295.9 298.2 302.8 308.1 310.4 308.9 305.6 307.1 306.7 306.8 300.7 295.3 295.9 294.3 292.7 285.6 281.8 278.8 278.1 276.7 267.7 263 255.3 248.1 239.7 226.4 229.5 236.9 242.5 249.9 264.5 274.1 289.4 304.8 323.7 336.6 351 365.9 380.6 392.1 407.5 419.9 436.6 446.3 461 470.1 486 498.3 518.3 530 543.8 557.3 570 577 591.4 602.7 611.4 628.2 642.6 661.2 674 689.5 705.3 728.4 742.9 752.9 763.5 770.3 776.3 782.4 785.7 792 800.8 810.4 822.1 833.1 843.7 853.1 868.8 882.6 897.2 906.7 910 909 900.2 897.3 891.5 889 888.5 888.2 890.2 877.9 881.1 859 827.3 808.1 780.6 756.3 735.6 723.7 721.3 717.5 719.6 725.1 735 749.3 764.7 782.2 800.1 813.2 827.8 837.8 840.5 845.7 853.3 865.7 876.9 893.3 904.6 918.5 938.2 947.4 955.1 963.5 965 959.3 950.3 916 885.1 849.4 802 729.7 679.7 636 601 571.1 545.4 520.4 495.7 471 449.4 437.2 427.9 427.1 449.9 470.7 499 525.8 548.7 572 599.7 626.6 654.9 680 700.7 723.4 761.3 806.9 846.4 884.6 910.2 933.1 947.7 939.9 917.1 905 898 903.4 904.7 901.5 875.9 853.6 829.7 808.6 789 774.4 767.5 748.5 732.5 722.2 724 717.5 728.4 756.9 776.3
281.9 280.8 284.9 283.6 290.8 293.9 294.2 276.7 273.2 277.5 286.5 291.9 294.6 293.3 298.7 302.4 313.3 313.2 316.3 319 317.5 316.6 317.1 315.9 315.8 310.6 306.5 306.4 306 300.7 295.6 291.9 287.7 285.7 279.6 273.5 268.2 260.5 252.5 249.5 236.9 238.6 240.1 244.5 250.6 257.4 268.4 278.9 297 315.3 326.2 341.3 354.6 367.9 381.3 394 407.3 420.3 432.7 442.8 453.2 465.5 480.3 497.6 510.2 525.1 543.9 549.8 564.5 575.8 592 603.1 621.7 636.9 655 664.7 679 695.9 713.7 726.9 739.8 744.7 751.8 755.8 767.1 771.1 778.9 785.6 795.5 807 815.2 823.6 835.1 847.6 861.3 879.8 896.4 907.3 912.7 907.1 905.7 901.1 900.4 903.3 902.9 904 896.8 878.7 847.9 817.6 794 770.7 739.6 721.9 708.7 702.1 698.6 700.2 709.6 722.2 732.5 748.5 764.4 779.1 795.1 808.8 818.3 822.1 826.1 833.6 847 865.8 882.1 894.6 909 926.4 932.2 937.7 942.7 946 954.9 955.1 925.8 889.1 849 806.9 759.7 708.9 658.4 612.9 577.8 552.4 521.5 498 468.2 448.2 436.8 427.3 448.9 472.5 492.6 515.9 540 566.2 591.9 620.2 646.7 671.3 694.5 716.8 741.3 796.6 843.1 882.1 911.7 932.5 954 967.8 950.4 925.1 899.7 885 873.2 884.3 879.9 860.2 847.5 835.5 809.5 797.3 779.1 748.1 736.2 716.4 710.2 705.4 698.7 696.2 706.7 719.7
300.8 297.2 296.6 292.5 292.9 294.2 295 282.3 295.3 299.1 296.8 302.4 304.3 303.5 311.2 315.5 319.4 320.4 321.9 324 324.2 326.4 328.6 326.5 326.4 322.5 316 315.7 314.6 308 305.2 299.9 293.7 291.1 285.4 278 271.2 264.2 257.4 254 246.3 242.1 244.4 247.6 253.7 257.9 262.7 272.5 289.1 300.4 319.6 332 345.1 356.1 368.5 381.3 393.7 405.7 418 428.4 436.7 450.8 465 477.2 494.5 512 524.2 539.6 547.8 569.1 574.5 597.4 617.9 629.2 643.3 652.2 664.4 683.7 701.1 710.8 715.7 720.7 731.3 738.1 742.9 749.9 755 763 776.7 786.2 790.8 795.6 812 824.3 841.5 865.4 880 894.6 902.2 907.8 914.4 911.7 911.4 909.5 904.8 901.4 885.8 860 823.1 791.1 769.2 747.6 733.1 713.9 700.6 693.5 687.6 689.7 695.1 707.7 717 727 742.6 758.5 772.3 786.2 799.2 807.3 810 822.7 832.1 849.6 871.5 888.1 899.6 913.3 914.8 919.3 927.1 934.7 947.8 950.3 918.7 892.9 851.5 807.6 760.2 720.1 663.8 622.4 591.9 564.5 525.4 495.8 469.7 450.3 441.2 438.3 459.8 489.4 511.6 534 557.2 581.6 614 638.9 663.8 687.6 711.4 732 768.5 831 874.1 903 931.2 954 974.5 975.6 958.7 930.7 905.4 873.8 860.2 862.9 849.5 843.5 842.1 829.5 814.8 801.7 765.2 734.5 720 709.9 693.3 681.7 676.2 674.7 681.3 691.2
302 310.6 311.9 303.8 298.9 298.5 293.9 299.4 309.2 307.1 311.7 312.2 316.7 313.4 318.8 322.5 329.1 331 332 330.4 332.1 332 337 336.4 334.3 331.8 329.4 327.1 319.9 316.3 312.3 308.5 306.4 297.7 290.9 282.4 274.8 267.4 260.9 256.8 250.3 246.6 248.2 251.5 254.9 262.7 270.5 269.3 282.5 300.8 313.5 325.3 337.6 348.5 359.3 371.4 381.4 390.5 400.8 414.5 423.5 434.5 455 473 480.9 491.6 505.5 524 535.5 549 565.3 585.8 603 613.3 629.2 645.7 662.5 676.4 679.8 686 693.9 703.3 710.5 717.7 724.7 722 730.2 739.6 754.6 763.4 772.7 780.6 791.2 806.5 821.5 849.2 870.8 888.5 893.2 901.6 909.4 912.8 913.5 907.1 888.9 883.5 852.6 831.6 802.1 771.2 755.3 735.2 712.6 700.7 689.9 681.2 674.3 674.1 681.3 690.4 699.2 707.4 722.3 736 752.4 766.6 783.5 797.5 798.2 811.5 823.8 846.6 863.3 879.7 887.7 896.7 897.7 903.1 911.8 922.7 936.5 944.8 924.8 878 843.5 808.8 764.2 718.6 669.7 622.9 589.2 561.7 533.9 500.2 471.9 453.2 442.1 450.8 468.9 493.8 520.1 540.7 567.1 594.9 622.8 651.6 677 701.7 727.8 761.7 818.6 864.3 895 923.2 950 976.1 997.1 982.5 961.6 931.6 893.6 866.1 848.3 835.7 836.5 836.6 839 833.6 822.6 794 751.9 727.3 715.6 694 676.8 668.5 667.1 667.8 670.4 674.3
304.6 307.2 310.2 310.6 311 300.2 300.4 307.6 312.3 319 321.1 324.8 329.6 333.6 327.3 334.3 336.4 335.7 338.7 337.2 348.5 353.7 358.3 353.7 350.4 347.9 343.9 335.9 329.3 326.5 325.8 323.5 318.5 311.1 298.1 288.1 278.7 272.2 264.1 258.8 253.1 249.6 248.8 255.3 259.5 264.9 275.4 276.6 276.5 290.5 308.1 320.7 333.6 345.4 353.4 363.7 373.3 379.7 387.7 402.6 410.8 427 445.1 448.8 462.3 479.3 495.9 511.1 521.3 532.9 551 568.2 587.3 599.3 612.8 627.1 634.6 643.2 654.4 665.5 673.5 683.1 688.1 697.9 703.9 707.9 713.8 724.4 744 756.1 761.6 770.2 778.9 795.2 817.2 841.5 863.1 876.4 887.9 895.8 906.7 909.1 908.3 894.7 861.1 836.5 817.8 800.1 790.4 758.3 733.5 714.5 702.8 690.5 680.7 669.8 663.2 661.6 668.3 677.3 683.7 692.6 702.5 714.8 730.2 751.8 771.7 785.8 788 803 818.1 842.3 854.9 867 871.5 876.5 887.1 893.4 903.7 913 924.1 936.7 917.4 868.3 839 804.3 759.5 725.4 677.1 625.2 587.4 558.1 534.2 507.1 477.7 461.7 445.7 459 484.4 509.3 532 552 573 601.6 629.3 659.6 689.5 716.8 748.6 796.6 842 877.1 911.8 940.4 968.8 998.4 1004.9 984.6 955.1 925.7 883.1 849.3 836.5 833.8 834.2 839.6 838.6 832.3 817 791 747.5 721 702.4 682.5 671.9 667.1 663.6 664.1 665.5 666.3
312 317.6 321.1 319 315.3 311.1 312.1 316.8 323.6 330.3 334.3 340.9 347.6 349.8 344.4 346.9 348 352.4 352.5 354.4 358.5 363.8 368.9 367.5 359.1 358.3 357 352.2 341.1 338 331.9 327.5 322.6 318.4 306.4 295.5 280.4 275.3 267.3 263 257.2 251.4 250.6 256.3 263.2 266.9 274.5 281.4 287.6 290.8 296.1 312.3 328.7 340.5 349.1 357.4 368.3 371.9 380.5 389.5 399.1 412.9 424.4 435.3 449.9 465.4 485.6 500.9 513 521.9 534.8 546.8 563.1 575.7 588.7 599.8 610.1 621.7 631.7 645.1 655 663.3 664.9 679.9 689.2 694.9 703.1 719.5 739 751 754.9 759.1 766.6 785.3 822.5 835.1 851 865.1 877.2 890.2 901.5 905.7 900.9 870.6 839.6 814 799.6 783.7 770.6 746.1 721.6 708.5 692.8 685 669.9 658.2 650.3 647.4 655.3 663.4 669.6 677.3 687.9 698.8 714.5 733 758.5 773.5 777.2 793 817.5 832.9 843.3 849.7 856.9 863.6 872 883.9 894.1 897.1 911.7 924 907.2 864.4 831.4 790 748.9 713.3 673.9 635.1 586.9 558.6 532.4 508.8 484.9 464.3 454.4 469.8 497.5 520.1 543.2 564.6 587.7 612.1 638.4 675.2 702.5 734.7 773.2 823 862.4 897.3 929.5 961.7 989.8 1018.1 1008.4 976.2 940.2 903.4 872.8 851.9 846.3 839.4 831.5 825.8 830.1 825.9 807.4 778.1 743.3 717.9 701 685.1 672.4 662.5 659.8 661.3 657.3 653.7
328.3 328.2 330.1 325.4 320.5 321.1 323.3 327.7 332.5 339.6 346.3 352.1 354.4 356.4 358.8 359.8 366.6 367.5 367.9 368.4 366.8 374.1 378.5 379.8 372.4 366.6 367 366.9 355.5 352.2 343.3 335.5 324.7 317.8 306.8 294.8 285.3 280.6 272.5 265.4 260.5 253.1 249.7 256.4 263.7 269.5 280.3 284.3 291.7 297.8 302.9 305.8 318 333.1 342.7 351.8 357.9 369.2 377.7 384.2 388.3 401.2 416.2 431.2 444.6 454 467.5 482.4 495.6 507.9 519.2 532.2 543.8 557 564.7 576.8 585.5 597.9 609.2 625.5 634 649.9 659.7 670 680 694 704.4 718 735.2 745.1 747.5 750.2 755.3 769.1 806.2 837.1 844.5 855 866.3 880.5 889.8 894.4 882.9 848.2 831.3 797.5 781.3 753.2 748.4 723 705.6 694.3 687.5 676.2 665.8 654.6 643.9 638.9 644.7 651.6 656.8 662.2 674.1 686.8 701.4 715.2 737.3 749 773.1 788.4 805.8 819 831.2 835.6 845.5 853.9 858.1 873.1 878.2 888.9 905.4 910.8 901 857.6 817.7 778.6 741.5 704.6 675 640.4 591.2 556.2 531.2 504.1 485.4 467.3 469.3 487.9 510.5 533.7 553.4 576 598.8 622.9 651 683.1 719.6 759.5 802.7 852.3 885.8 918.7 948 978 1010.3 1026.1 1011.9 966.1 927.9 895.1 881 863.3 847.8 832.1 826 811.8 810.8 812.6 797.3 775.5 740.4 719.6 706.1 689.5 673.4 662.7 657.1 653.9 642.9 636.7
349.3 338.6 338.3 336.1 323.9 323.4 329.9 337.5 345.4 354.6 360.3 363 360.7 369.8 375.9 372.9 380.5 385 383.7 380.8 381.5 378.6 381.8 383.8 379.8 376.7 380.3 378.2 371.1 364.7 356.2 343.1 330.7 322.1 311.2 299.1 287.3 282.3 273.8 269.1 262.1 254.7 250.8 257.5 265.8 271.4 276.8 288.2 294.8 300.5 304.1 312.9 315.4 330.2 337.1 346.1 355.8 362.9 373.1 374.3 386.5 396.4 406.3 419.8 429.8 443.5 456.8 467.9 477.8 491.5 503 513.4 526.8 537.8 547.5 556.4 566 575.8 587.4 603.2 618.2 634.5 645.6 660.6 671.9 685.9 698.1 713.2 730.4 738.3 737.9 740.2 751.1 771.2 798.4 827.6 844.8 845.1 853.7 864 873.1 878 874.8 836.5 806.6 784.8 754.8 733.7 719.1 705.8 695.5 687.5 675.5 666.3 656.7 643.6 635 628.8 633.7 639.4 645.1 649.9 658.2 668.9 684.9 710.4 723.8 744.4 760.8 773.4 791.1 806.4 817.6 823.4 834.5 844.3 846.5 861.9 866.4 883.4 896.8 897.4 885.9 849.6 803.7 760.6 728.3 701.3 674.1 645.5 594.7 558.5 529.9 506.4 483.7 465.7 479.7 497.7 520.1 543.9 565.4 585.8 610.1 633.5 662.2 688.9 732.5 771.3 815 864.6 898 937.1 963.6 995.8 1019.7 1028 1009.3 967.7 926.6 906.1 885.6 860.9 846.5 831.7 825.8 811.4 802.9 793.9 788.3 772.3 747.6 723.7 710.6 692.5 677.8 665.1 659.3 648.7 636.9 636.7
350.7 351.5 350.7 341.9 334.2 334.6 342.5 347.3 354.2 361 364.1 369.9 374.6 378.9 383.9 386.3 389.2 397.4 397.6 394.7 392.5 391.2 387.4 388.3 388.2 388 388.7 391.3 383.6 372.7 365.8 351.9 338.9 322.1 311.5 300.8 289.5 283 279 273.3 266.3 258.8 253.8 256.3 265.9 271.9 280.9 287.9 292.2 303.8 307.8 315.4 319.9 324.4 337.3 341.8 349.2 357.4 360.7 371 378.3 388.4 397.8 410.4 421.3 434.3 447.5 458.7 466.8 477.1 487.5 496.7 511.8 520.1 528.8 541.9 550.8 558.6 572.2 591.4 605.4 621.3 633.9 651.6 667.1 679 686.5 703.6 721.5 729.1 727.5 732.3 741.4 757.1 788.6 806.9 828.7 828.6 836.3 849.5 859 861.1 853.7 822.9 796.1 771.8 743.8 722.8 710.4 696.3 687.3 676.9 667.4 659.9 650.3 637.1 627.4 617.7 620.6 627.1 630.5 637 645.7 659.8 674.7 688.6 710 724.9 740.4 759.7 774.9 791.9 803.6 811.6 821.2 829.6 836.1 847.5 853.2 867 869.9 872.8 862.9 827.4 785.7 755 724.1 697.1 666.2 642.5 603.4 562.6 529.3 504.9 482.6 476.9 488.7 506.4 532.4 553.5 574.2 594.4 618 643.4 668.7 695.7 738.1 774.2 824.8 875.8 900.7 933.4 963.9 999.6 1018.1 1029.4 1004.8 969.1 938.4 903.9 879.6 852.6 835.5 830.7 821 808.9 798.9 792.8 775.2 758.5 746.2 722.1 704.6 692.4 679 664.2 650.2 638.8 636.7 636.7
347.6 355.3 357.4 349.1 336.4 344.7 352.8 360.1 362.3 366.9 370.4 375.7 382.5 388.8 393.8 398 401.3 409.2 410.7 410.3 405.7 401.1 397.1 391.8 391.3 394 390.8 390.5 387 376.9 365.7 353.8 339.5 330.8 316.7 305.1 294.1 283.8 277.3 276.9 269.6 263.4 255 257.1 261.2 268 282 289 291.8 298.1 307.2 314.3 319.1 320.9 333.5 340.2 341.8 345 356.3 362.7 371.7 380.6 389.9 400.2 412.4 422.8 436.2 448.4 455.3 467.6 475.5 485.6 494.1 502.7 513.7 523.7 533.6 541.4 562.6 578.9 593.6 608.7 622.6 644.9 660.2 672.4 681.3 692.5 703.4 710 710.7 716.8 728.6 741.5 764.4 784.8 798.2 816.1 826.9 836.7 841.6 846.4 835 809.3 782 759.8 731.2 711.5 707.4 692.1 682.1 671.8 662.8 655 641.3 631.8 623 614 612.4 616 619.2 624.3 632.9 643.3 661.9 676.4 691.1 708.8 725.8 743.2 761.6 773.7 788 798.2 806.9 815.9 821.7 833.5 844.2 850.2 854.2 849.7 838.4 812.1 775.1 747.5 727.6 694.4 654.5 626 598 558.4 527.7 500.3 485.6 486.9 499.1 521.2 544.7 561.1 581.1 603.2 628.2 648.5 672.5 709.8 747.7 782.3 831.7 868 899.9 932.9 965.1 994.1 1006.4 1016.8 1012.3 973.9 935.2 904.1 869.7 844.2 829 823 815.7 801.1 797.6 792.7 779.5 764.4 746.1 722.7 705.1 691.7 677.4 652.9 647.3 640.9 636.7 636.7
357.9 356.5 360.7 359.6 348.8 353.1 362.6 375 386.8 392.6 393.1 390.1 393.7 400.2 406 407.1 415.8 416.3 419.2 422.2 419.3 414.3 407.4 404.3 401.7 399.4 395.7 389.6 388.3 375.9 364.4 351 342 338.1 323.7 309 298.9 288.9 280.3 276.5 272.5 268.2 263.3 256.9 259.4 264.7 277.4 286.6 290.6 296.8 303.9 311.7 316.1 319.4 327 330.3 337.6 337.7 347.3 357 365.8 375 382.3 392.2 401.7 414.1 429.1 432.4 444.8 454.8 468.6 472 480.5 488.8 496.6 506.8 520 527.5 547.4 563.2 576.4 595.1 614.7 628.5 649.6 661.9 672.6 680 689.1 693.2 695.8 700.3 710.6 728.9 751.6 770.7 784.4 803.3 818.4 826.9 829.7 830.7 820.1 793.6 775.6 744 725.6 705.3 688.2 683.1 678.6 669.4 660.1 647.5 638 628.7 619.8 608.5 603.2 606.9 608.5 612.9 620.5 632.9 645.1 663.5 674.6 692.3 707.7 728.9 747.8 757.6 775.5 788.6 799 804.5 811.8 825.4 834.2 838.4 840.7 831.9 816.4 793.8 764.6 739.1 720.5 697.2 655.2 620 591.8 555 528.2 502.8 488.3 497.1 513.7 531.1 553.2 567.2 590.4 610.4 633.1 654.4 683.9 724 746 793.5 821.8 855.5 894.4 931.3 960.5 977.5 986.6 1001 998.2 975.4 942.2 909.8 864.3 842.4 832.2 818.6 809.6 801.1 793.7 786.8 778.3 765.2 746.5 727.2 707.8 691 676.5 661.8 650.1 639.6 636.7 636.7
370.1 364.1 367.8 364.3 365.4 369.7 382 390.7 393.2 403.3 408.5 419.3 419.9 421.7 420.3 421.3 423.2 426.9 428 431.9 431.2 424.4 416.1 411.7 409.6 404.4 397.4 386.2 384.9 374.9 362.5 350.4 344.2 338.1 327.6 320.5 310.6 303 289.3 280 275 270.8 266.4 266.4 261.8 264.4 268 272.3 284.7 293.1 297 308.3 312.7 316.6 323.1 324.9 330 333.4 340.8 347 356 364.9 373.9 383.1 392.9 403.8 410.8 420.6 431.5 442.4 451.2 459.5 467.6 476.1 484 495 504.9 514.7 533.5 550.3 570.7 582.4 598.8 614.6 634.7 643.2 650.9 660.4 669.8 672.1 685 695.1 713.2 725.1 741.7 760.5 778.6 793.4 802.6 813 816.8 813.4 809.6 786.1 757.4 734.2 719 702.5 690.3 679 672.5 664.6 656.8 650.6 634.1 628.1 620.4 607.7 601.4 597.8 598.7 605.1 614.6 622.1 633.9 646.3 663 679.6 694.1 713.9 727.8 751.9 765.1 778.6 787.7 795.2 806.5 817.7 828.3 833.7 833 820 806.5 786.6 756.6 723.4 705 697.2 655.6 620.5 583.9 555.8 530.6 509.4 495.7 507.7 522.2 545.2 564.2 580.6 593.8 615.1 639 665.3 691.5 725.8 753.3 785.2 817.3 847.7 885.2 918.3 940.6 969.7 972.8 980.2 982 969.1 944.3 916.6 874.9 842.8 829.1 816.8 799.7 795.5 792.7 783 772.8 761.9 747.3 727.8 708.8 691.5 678.5 667.2 653.9 641.7 636.7 636.7
378 369 375.2 372.2 375.3 383.7 389.1 396.2 399.1 409.5 417.7 431.5 440.6 449.8 454.2 447.2 436.7 436.1 438.2 438.1 439.9 437.7 431.3 420.8 413.1 408.8 398.7 391.6 377.9 370.1 362.9 347.5 342.4 341.2 332 329.1 322.9 313.9 300.8 289 281.1 273.2 272.5 270.9 267.7 263.3 272 279 284.2 291.3 297.9 302.2 305.4 311.4 317 317.7 321.8 329.1 334.6 343.6 351.5 355.4 363.8 373.1 381.7 390.2 402.1 408.7 415.6 429.6 441.4 450.6 455.8 463.3 473.1 482.8 495.9 505.1 521.9 537.9 552.4 566.2 582.4 598.7 613.8 624.4 633.2 642.7 647.4 656.7 675.9 691.3 713.5 726.2 737.8 755.3 766.4 776.3 787 795.8 802 799 793.9 780.9 750.4 728.9 714.4 706 687.5 679.7 666.6 657.8 651.7 639.3 634.7 628.6 619.6 612.8 600.3 592.3 593.9 600.5 605.2 612.3 621.8 634.3 648.2 665.2 681.7 701.4 718.7 736.8 753.7 766.2 777.6 787.5 797.7 808.4 817.3 819.9 818.7 812.1 796.7 774.5 751.4 716 694.1 673.3 648.8 620.7 586 552.7 530.6 511.9 506 516 531.5 552.5 572.5 589.2 613.7 626.8 636.3 673.9 697.6 726.7 764.4 785 809.6 842.7 876.8 910.5 934.8 943.5 952.2 954.3 953.8 952.1 935.4 919.6 881 846.4 829.7 812.9 800.9 796.3 788.6 774 764.2 753 743.8 725.6 710.3 694.9 682.2 669.4 655.8 642.9 636.7 636.7
386.4 380.1 384.6 380.7 385.3 390 396.6 402.7 414.1 417.2 430 439.4 446.3 454.3 462.2 464 461.6 466 449.6 447.7 446.1 442.6 440.7 426.9 418.6 412.5 402.9 389.8 378.6 371.6 366.6 355 349.3 346.4 341.9 336 333.6 329.3 309 296.9 284.9 277.2 274.1 272.1 275 268.3 276.3 282 286.3 292.8 302.1 308.4 314 320.6 327 329.9 330.4 332.4 336.2 332.6 339 349.2 357.3 365.5 371.8 378.9 388.8 393.5 400.5 412.3 423.3 434.8 445.4 450.8 461.5 472.6 482.6 492.9 507.4 524.8 539 549.6 564.6 582.6 595.6 610.2 620.4 630.1 642.4 653.3 668.7 686.5 701.4 713.1 725.8 740.5 754.4 763.6 772.4 781.7 788.2 783.5 780.3 764 741.1 723.4 705.7 692.3 679.7 672 663.2 650.1 643.3 633.7 627.7 617.4 612.5 606.2 601 591.8 589.4 590.1 594.4 600.2 605.7 617.2 634 647.6 669.6 686.2 703.1 722.4 739.2 755.8 766.6 778.6 787.9 795 807 811.9 813.6 807.2 794.6 774.8 743.7 713.1 679.9 655.9 633.4 615 594.6 567.6 542.1 518.8 519.5 526.2 545.6 562.5 588.7 604.5 621.2 637.4 663.1 689.2 705.5 734.3 769.4 788.8 809 829.9 875 906 921.6 928.7 933.9 935.5 934.8 935.3 926.7 916 888.9 854.2 832 811.5 800.1 788.3 773.6 764.5 756.3 745.5 740.6 722.2 708.5 694.3 682.4 671.9 657.1 646.6 637.4 636.7
399.4 388 394.5 396.3 396.7 402.2 410.1 420.1 425 429.2 432 444 449.5 461.8 467.3 467 474.3 475.7 467.5 468.7 456.8 449 444 434.3 423.7 415.5 403.5 391.9 380.4 378.8 370.8 365.7 357.3 356.2 351.3 344.2 339.7 334.8 323.9 307.8 293.2 283.8 278.1 274 278.4 272.3 278 288.9 294.1 300.2 304.9 315 323.9 330.2 337.1 342.2 345.4 347.3 345.6 347.1 348.7 349.7 351 361 366.6 373.1 379.3 386.5 390.9 398.4 407 417.5 428.8 442.7 452 460 469.3 482.3 490.1 505.7 517.8 536.4 554.2 568.9 578.9 594.5 610.1 622.4 636.6 653.6 664.5 675.1 684.7 695.2 704.8 718.2 735 749.6 759.6 765.7 766.8 762.8 760.2 747.2 729.7 714.9 701.4 682.7 668.4 664.1 654.3 646.6 636.5 626.1 621.9 612.4 604.4 599.1 588.2 579.3 568.7 575.9 578.5 583.5 593.3 604.1 618.6 638.5 654.8 673.4 690.7 711.4 727.4 742.7 756.2 767.9 778.3 789.8 797 801.9 801.8 790.4 781.7 766.7 742.8 719 684.3 655.6 633.5 612 589.8 565.9 544.1 526.4 534.9 543.9 557.4 576.4 593.6 620.4 633.7 653.6 677.6 704.9 728.7 734.7 771.6 788.3 805.6 835 874.3 901.2 909.7 918.4 921.1 922 926.3 922.2 919.7 908.6 888.2 859.2 835.3 810.2 792.4 778.8 766.6 751.4 747.1 740.9 732.1 723.9 710.3 695 686.9 670.8 657.4 647.2 641.4 636
406.9 402.4 407.2 409.6 411.7 419.3 429.7 437.9 435.4 434 446.5 456 461.8 467.5 473.7 475.3 475.2 479 481.3 490.1 478.1 461.3 450.6 440.7 430.2 421.1 409.7 398.2 392.4 383.7 383.8 379.7 378.2 365.8 359 355.7 349.2 339.4 334.6 321.9 306.5 293.9 282.7 277.1 279.8 277.1 282.7 291.3 303 305.7 317.9 325.3 337 344 350.9 355.3 359.1 362.4 363.2 365 363.7 359.9 355.1 355.9 357.3 370 373.9 377.8 384.2 389.1 392.4 401.2 413.7 424.8 438.1 446.8 457.2 468.8 479.3 490.5 501.9 513.1 538 551.9 556.9 574.7 597.3 606.2 620.1 627.1 636 649.9 667.2 675.5 683.7 695.1 711.8 727.9 736.4 742.4 745.8 742.8 743 733 719.6 707.6 693 686.2 666.2 658 640.5 641.2 625.5 621.4 614.5 605.9 598.7 585.6 577.4 567.4 559 566.7 566.9 571.1 580.4 589.4 604.6 625.2 642 663.3 679.4 693.2 714 729.7 749.1 757.8 766.6 778.7 786 786.7 786.2 784.4 775.7 758.8 740.6 716 698.9 659.1 629.3 609.3 589.7 567 550.7 548.2 551.1 561.5 575.3 596.3 611.1 631.8 650.3 674.7 696.5 733.8 761.5 775.6 788.8 793.7 813 851.2 883.7 897.4 906.7 911.5 917.4 914.1 913.3 911.1 910 899.8 887.3 862.2 842.4 812.2 794.6 774.8 763.3 748.9 735.8 730.8 724.3 720.8 705.6 693.9 683 668.3 659.5 653.1 647.2 644.6
412.4 412.5 415.1 421.1 423.6 431.9 438.4 443.8 447.2 446.2 450.6 458.2 467.4 475.4 479.9 481.1 478.8 481.2 483.3 492.7 487.1 475.4 457.9 443.3 433.2 423.8 412 407.5 405.3 399.1 395.8 377.7 378.8 374 366.6 364.2 356.5 349.4 344 333.6 317.5 304.2 293 285.2 281.9 280.9 287 293.9 304.2 314 327.8 337.4 346.1 352.5 360.5 367.9 373.4 375.8 378.5 378.8 381.1 374.6 375 371.3 373.6 364.1 364.5 374.3 374.6 379.7 383.5 389.7 399.7 412.1 422.3 432.3 443.5 460 468.5 476.8 487.7 510.9 526.9 538.3 553 563.7 577.9 581.2 590.5 603.1 608.1 627.2 643.3 653.1 659.3 675.4 689.4 704.2 715.1 720.7 724.9 722 724.6 721.1 709.6 701 692.9 679.4 659.8 646.9 636.9 625.6 614.3 604.9 602.2 596 585.7 578 568.4 559.8 553.5 556.3 556.3 561.2 567.9 579.8 592.6 614.2 631.5 647.6 658.1 681.8 701.8 720.9 736 746.2 754 764.7 772.7 777 773.2 770.1 763.6 751.7 737.3 713.9 688.7 660.3 634 612.8 592.3 571.1 560.7 573.9 581.1 583.7 592.2 610.6 632.3 656.2 679.7 698.1 734.1 782.2 795.6 812 819.5 818.8 827.1 859.6 878.7 892.7 904.1 911.1 910 905.9 903.4 900.5 897.2 887.3 882 859.7 843.9 818.3 791.4 773 756.9 738.8 728.1 722.9 720.3 715.4 703.6 691.2 680.1 671.9 665.3 654.6 652.4 644.6
418.7 423 425.7 429.4 435.1 440.4 447.3 456.1 461.6 461.6 462.9 466.3 473.4 486.5 489.6 490.1 486.7 485.2 485.8 486.2 483.4 476.4 469.3 447.9 435.5 430.7 424.5 417.8 412.7 407.2 407.5 401.4 395.5 387.5 375.5 373.1 368 357.6 349.4 340.2 327.2 312.1 302.3 291 288.9 282 290.3 296 309.2 323.8 337.4 343.8 354.3 361.9 371.4 377.1 384.1 388.6 388.9 391.4 394.4 388.1 385.5 387.2 383.6 380 376.4 374.6 373.2 381.6 385 385.6 391.4 400 408.1 414.9 429.9 442.5 453.5 464.1 478.7 501 520.1 527.5 541.1 550 551.9 564.2 572.6 584.2 592.2 602.7 612.1 631.2 646.6 663.2 674.2 683.5 691.9 697.6 703 706.8 704.7 704.9 697.8 685.7 678.9 667.8 659.5 647.5 634.4 625.7 612.7 602.8 599.7 589.8 584.4 572.5 560.6 553.6 548.4 548.2 548.1 555.5 560.5 570.3 580.5 598.5 617.5 628.9 648.6 666.8 688.2 705.3 721.5 733.1 742.1 749.1 758.8 764.7 760.1 756 747.9 738.3 730.7 710.4 680.5 663.9 643.1 625.2 599.1 582.8 585.5 599.2 600.3 595.8 622.4 643.1 681.7 711.4 736.6 767.6 794.3 817.6 820.2 834.2 845.6 847.9 854.9 863.4 877.8 879.8 893.7 900.2 897.7 897.7 896.6 889.7 880.2 875.2 874.8 861.2 842.4 822.7 793.6 771.9 752.5 735.7 719.5 718.7 710.5 702.1 697.1 684.4 679.6 669.5 660.4 651.8 647.3 642.4
430.8 443.5 444.6 445 447.3 453.8 457.2 461.7 471 475 476.4 484.9 491.6 500.9 502.8 496.5 491 490.4 485.6 484.8 479.6 471.7 465.2 457.3 447.4 439.6 429.3 423 418.6 415.8 414.3 414.2 409.7 406.7 391.1 378.1 372.9 362.3 352.5 343.4 336.2 322.8 313 302.6 299.5 289.7 299.9 300 317.8 332.8 343.9 349.4 358.6 366.5 376.4 383.9 391.9 397.2 405.9 407.1 405.1 406.2 406.1 405.3 399.9 397.8 393.4 388.3 382.3 381.1 380.6 382.7 386.8 391 400.7 408.8 416.7 429.4 441.3 451.5 466.8 482.4 494.2 504.9 514.6 523.7 532.2 546.6 559.6 573 584 595.8 602.3 615.3 622.9 635.4 648 658.3 668.9 680 684.8 692 686.8 685.8 677.9 670.9 666.6 661.8 652.8 639.6 632 622.4 610.3 601.3 593.7 585.7 571.8 564.8 554.7 545.4 542.2 541.5 546.5 547.7 554.4 562.4 567.3 587.7 597.2 615.1 635.9 656.8 674.2 690.3 706.1 721.3 726.2 738 740.5 740.8 742.7 744.4 738.7 727.8 716.2 705.9 679.6 666.7 658.2 643.9 614.3 602.9 599.9 613.5 622.9 633.9 656.3 676.5 719.2 741.7 770.8 790 808.1 820.6 839.3 854.4 861.7 864 865.4 866.6 867.7 869.9 883.4 886.7 890.7 892 886.7 881.7 872 868.2 865.1 860.8 839.5 822.4 795 766.7 747.5 728.2 709.4 703.9 697.8 694.7 692.6 682.3 675 666.1 655.6 654.2 648.6 643.3
449 454.6 460.9 462.8 463.4 468.3 470.6 474 482.2 485.4 488.7 497 502.9 510.3 512.7 501.7 495.9 493.9 488.1 487.1 480.5 473.9 463.6 463 461.3 455.7 436.6 429.7 426.3 422 421.9 419.5 414.8 411.6 400.7 385.7 371.9 361.2 355 347 341.4 330.2 320.5 312.7 305.6 300.2 303.7 308.9 320 332.2 342.1 351 361.7 369.1 376.3 387.3 392.9 399.3 406.4 409.2 412 413.7 415.5 417.2 419.6 416.6 415.2 409.9 404 397.1 396.6 394.3 392.7 393.9 394.8 407.1 416.1 423.3 430.1 439.9 450.4 462.5 477.7 487.7 501.7 512 526.5 538.6 546.1 562.6 573.8 584 591.8 602.2 613.2 625.7 635.4 645.4 656 661.4 667.8 671.7 674.3 672 665 660.5 657.6 654.2 646.5 631.7 624.3 618.6 606.5 596.4 587.4 577.8 571.2 560.3 549.3 543.3 539.7 538 540.3 541 543.3 549.7 556.7 570.6 591.5 608 622.5 640.2 658.4 676.6 693.9 708.8 711.4 715.1 720.9 723.5 730 733.2 725.4 717.8 707.1 691.6 684.5 673.2 666.2 648 643.7 634.2 624.5 633 646.7 666.9 675.9 694.5 722 745.4 770.2 795.1 819.2 833.9 850.5 861.7 869.9 873 872.1 871.8 872.6 871.2 876.6 881.3 883.6 881.2 876.5 871.4 864.7 858 854.4 852.2 840 821.1 788 761.2 739.3 718.7 702.4 694.9 691.9 688.3 686.6 679.2 675.5 666.8 658.4 650.6 646 642
460.6 463.9 468.4 472.7 479.4 485.5 489.8 489.9 498 499.9 500.7 505.6 511.6 512.5 511.1 510.9 508 498.3 493.1 490.1 486.6 469.1 467.2 466.1 467.6 458.8 453.9 443.8 432.4 428.8 425.6 423.4 417.7 410.8 402.3 392.1 376.8 364.3 355.5 347.4 341.8 332.5 325.5 318.7 307.9 305.7 315 323.4 330.8 336.8 344.9 356.6 366.4 378.6 386.2 395.1 403.2 412 414.7 418 421.5 422.4 428 430.1 432.6 434.2 431.4 433 430.7 424.1 417.2 413.3 405.4 402.3 402.8 403.7 412.9 420.9 426.6 437 442.6 449.9 461.4 472.7 484.2 498.5 510.5 524.9 538.8 550.4 562.3 572.9 583.1 587.2 599.8 614.4 626.2 634 643.1 649.3 655.2 661 659.1 661.1 658.2 647.7 644.7 639.6 631.9 622.5 612 608.3 597.5 589.9 582.3 571.8 564.2 552.8 545.9 540 531 527.5 531.4 532.9 533.4 539.2 550.2 563 576 592.5 606.7 625.8 642 662.2 675.3 688.6 699.9 707.1 709.9 711.3 712 712.9 709.8 704.7 697.8 690.9 693.2 688.1 674.8 667.2 660.1 654.5 657.1 666.1 676.7 681.9 695.8 711.9 739.9 763.3 788.7 814.5 819.6 834.2 857.1 867.5 872.6 874.7 875.9 875.5 870.3 872.6 868.9 871.5 872.1 868 866.3 858.1 855.5 850.8 847.8 840.9 826.2 808.2 783.1 752.9 726.4 704.6 693.2 688 685.3 684.3 685.2 677 674.8 675 654.3 644.5 640.7 638.7
471.6 475.6 480.8 481.5 488.9 493.9 498.8 504.8 509.4 509.4 512.9 513 515.4 514.7 515.1 517.8 513 502.8 494.2 487.9 480.8 472.8 470 466.4 468 469.5 465.3 456.8 446.2 434.7 426.6 421.7 419.1 410 401.4 389.8 377.5 368.2 355.7 347.9 341 335.4 328.4 316.3 316.5 316.8 321.2 324.6 334.7 341.6 350.4 363.5 372.4 382.5 393.5 403.8 414 427.8 433.9 439.5 445.3 445 443.3 445.3 447.7 451.7 454.3 454.1 453.5 450.6 439.5 433.5 428.9 425.8 419.3 416.4 415.3 415.1 421.7 431.9 439.1 443.1 450 460.1 472.6 484.7 502.7 518.1 531.7 542 554 563.7 571.8 585.3 593.3 604.6 614.5 622.2 631.6 637.8 645.4 647.1 650 648.8 645.3 640.3 634.2 626.2 623.6 613.9 610.1 595.1 589.4 583.7 572.3 563.9 556.9 547.1 540.3 532.4 525.4 519.9 520.9 522.5 524.8 532.9 537.9 548 561 575.9 590.4 609.3 628.8 646.6 663.1 674.4 683.3 697 701.1 700.8 702 700.3 702.4 703.6 695.5 692.3 693.4 685.4 684.7 681 678.3 678.4 674.3 685.8 696.2 699.2 719.1 734.3 757.8 776.1 797.5 820.6 824.3 830.8 847.5 859 860.7 867.8 869.2 871.2 867.6 863.8 859.1 863.3 863.7 860.7 852.5 849.7 849.1 845.3 843.5 832 815.6 798.4 774.8 747.2 718.6 695.8 688.5 682.7 680.1 680.8 681 668.9 668 666.1 651.4 646.2 643.8 637.3
493.9 499.7 494.9 496.7 503.2 514.4 519.8 518.8 522.6 522.5 523.1 524.1 523.8 520.5 518.8 520.5 515.3 504.7 497.7 489.9 478.4 474 472.7 471.6 467.9 468.5 470.9 470 467.3 442.3 430.9 422.3 417.6 409 399.2 388.5 378.2 367.6 356.8 350.2 343.4 337.3 323.9 325.1 324.3 326.6 327.6 332.7 339.4 351.4 362.7 372.5 384.3 394 403.9 415.7 429.5 439.5 450.6 462.8 468.9 472.3 470.4 474.3 477.8 474 478.1 479.4 485.3 483.1 477 458.6 452.9 448.2 443.3 437.4 433.3 429.3 428.8 432.9 436.4 439.9 447.9 453.8 463.8 475.3 493.6 507.2 518.4 530.8 542.7 553.9 564.1 571.7 583.5 592.1 603.6 614.1 619.3 627.8 631.4 636.2 638.7 637.7 631.3 627.2 625.7 619.9 610.5 605.7 598.9 593.2 581.6 575.9 569.1 561.6 549.4 542.8 534.6 525.6 519.9 516 513.5 516.4 519.1 522.6 530.2 539.1 554.5 565.7 583.7 599 615 629.3 646.3 661.2 671 680.7 689.7 692.5 694 692.6 695.1 693.4 687.9 690 695.4 688.6 688.9 683.1 691.9 692.6 691.9 706.3 714.2 720.5 733.5 754.1 770.4 793.1 804.1 814.7 824.4 834.5 835.6 845.2 852.8 858.8 859.5 860.7 856.4 854.4 851.8 854.1 851.2 851.3 845.5 842.4 840.4 838.4 835.6 824.4 802 786.5 765.5 744.3 716.8 699.3 690.6 685.7 676.5 673.5 669.6 669.6 661.4 653.4 648.1 645.1 638.6 634.6
509.7 517.9 511.7 515.6 518.1 523.5 533.6 537.7 535.8 533.5 535.1 535 532.9 530 524.1 521 514.6 510.1 502.1 494 480.2 474.5 474.9 476.9 471.8 471.3 470.4 471.9 472.9 449.4 436.8 424.6 415.5 406.4 395.6 385.7 375.3 367 359 349.9 343.7 337.8 325.6 329.8 330.7 330.8 332 336.4 348.8 358.7 369.8 381.4 394.6 402.9 417 426.9 445.8 459.7 476.7 493.4 507.4 519.3 522.9 506.6 505.4 504.2 507.7 522.3 525.9 526.5 509.2 490.6 475.8 473.5 472.6 460.8 452.3 446.7 443.6 442.5 440.2 440.2 443.7 448.7 452.5 463.1 474.9 493.3 505.6 520.4 534.2 546.3 559.3 567.7 578.8 590.4 597.5 605.1 609.4 616.2 618.7 623 628.1 629.1 627.2 620.5 617 612.3 608 602 597.4 586.9 574.3 568.9 560.8 555.1 546.1 538.5 530.6 525.4 519.6 513.7 506.6 513.2 513.5 515.8 520.8 527.1 536.3 552.5 567.9 583.7 602.2 618.5 636.1 648.3 661.1 669.1 677.6 684.7 689.9 686.8 685.1 684.6 688.5 689.2 691.9 690.8 690.2 693.4 697.9 701.3 705.2 723.4 730.5 731.3 744.1 760.3 775.2 793.5 801.1 807.1 819.7 827.7 833.1 833.3 837.6 848 851.9 852.9 851.4 847.6 843.3 846.4 845.8 840.4 838.9 838.6 836.5 832 828 812.6 790 779.9 759.8 744.3 721.5 703.5 691.1 686.2 676.6 673.1 668.5 665.5 659.7 655 652.6 646.8 639.7 628.5
515.2 522.4 530 536.8 542.9 543.7 551.4 555.8 547.9 543.8 539.9 539.9 538 534.8 530.7 525.9 518.5 510.3 505 493.2 485.5 480.4 476.8 476.7 477.8 470.5 471.4 470 465.3 453.3 444.6 427.1 417.1 403.8 394 383.1 374.7 365.8 356.4 349.3 343.6 323 336.3 336 336 336.9 338.7 344.9 355.8 365.6 378.7 388.7 403.4 417.7 429.8 445.2 463.2 484.1 501.3 520.8 536.1 549.6 558.6 550.8 535.1 532.8 537.2 550.5 552.8 552.6 543.6 521 500.9 493.4 483.4 477.2 473.2 467.1 460 454.9 452.7 450.1 445.6 445.9 448.8 455.9 469.3 486.6 499.6 513.3 526.8 538.8 549.9 559.2 572 581.6 588.6 598.4 605.2 606.4 612.1 616.1 618.8 620.3 622.8 615 611.5 609.4 602.4 595.1 586.5 577.8 570.2 565.1 553.5 548 542.2 534.4 525.1 521.1 512.6 507.5 508.5 507.6 508.6 506.1 512.1 520.1 529.5 540.2 555.1 572.5 590.6 610.9 623.5 636.4 648.1 659.6 668 673.8 680.2 682.5 676 679.6 681.7 683.9 688.5 689.5 691.5 696.4 700.9 706 711.5 720.7 725.6 742.2 748.2 760.1 778.1 786.8 796.6 802.8 811.1 823.1 826.6 826 824.4 830.5 839 840.8 842.5 837.3 835.8 839.8 839.8 834.1 832.3 828.5 826.9 822.6 815.2 799.5 781.1 767.9 756.2 738.9 716.1 705.3 693.5 687.5 673.3 670.9 664.4 660.2 657.6 655.9 651.9 648.4 636.6 624.8
527.7 527.8 542 546 553 563.6 574.2 576 565.6 556.2 550.2 544 540.6 534.6 531 527.2 521.6 509.5 501.3 496.5 493.8 488.6 481.5 477.1 475.8 473.1 475.1 473.2 467 454.4 446.4 427.7 415.3 401.3 389.5 378.5 368.6 360.9 354.4 348.3 341 344.4 342.6 340.2 341.8 344.8 348.4 354.9 365.4 376.9 387.4 402.7 416.1 432 447.7 461.2 482.1 501.2 527.4 546.2 567 586 598.9 601 591.5 591.3 571.1 569.3 577.1 577.9 570.8 556.7 523.1 506.2 497.7 490 482.6 481.6 476.5 468.7 467 462.6 460 454.7 454.5 456.5 466.1 476.9 490 503.3 518.2 534.2 543.2 550.4 563 571.9 578.9 587.2 593.9 599.1 600.2 605.8 607.5 610 613.6 611.5 606.8 603.1 598.3 589.3 583.4 573.7 564.9 558.3 549.9 540.5 532.8 528.5 520.7 516.4 505.8 501.5 499.7 497.3 500.5 499.8 505.4 516.7 527.8 534.4 545.9 564.2 579.7 598.1 613.4 622.1 638.3 649.5 658.7 664.4 671.8 675.1 670.3 676.9 681.7 681 687.8 686.3 697.7 697.4 704.4 716.9 723.6 723 729 746.5 744 750.5 766.2 776.8 791.3 789.7 804 815.5 821.4 820.3 815.9 814 818.1 825.6 828.7 829.9 826.9 830.6 830.5 828.2 828.8 821.2 820.5 816.5 806.3 789.6 778.2 760.2 745.3 730.1 720.9 707.2 692.8 682.1 674.7 674 667 659.8 658.1 654.8 653 651.9 647.2 630.2
535.9 540.4 541.6 547.4 558.8 570.8 581.7 583.1 577.1 565.9 562.6 555.8 546 537.8 529.4 526.1 521.9 511.6 502.8 502.3 504.2 496.9 486.2 482.2 475.6 470.9 473.1 470.6 466.4 450.3 441.7 427.9 413 398 383 373.2 365.7 358.1 352.8 349.3 338.7 349.7 347.5 350.5 353.2 359.3 362.7 364.7 377 386.6 400.7 413.5 431.6 451.2 473.1 488.7 504.2 525.6 551.2 585 619.4 643.1 660.8 652.5 641 639.1 638.2 620.2 594.1 594.5 589.8 576.8 551.7 523.8 511.4 508.1 498.1 489.6 483.8 480.2 476.4 472.9 466.5 464 460.2 459 461.8 470.7 485 499.1 510.8 519.2 530.1 541.9 553.7 562.3 570.5 579.4 581.4 588.1 593.8 596.7 600.9 604.1 607.9 607.2 602.1 594.9 588.2 583 580.1 569.7 560.6 550.2 547.8 536.1 525.2 519 514.7 508.6 507.2 502 497.2 497.7 497.8 495.8 501.7 510.8 522.4 533 543.2 555.1 570.5 590.2 604.7 615 626.2 643.4 653.4 660.9 660.8 660.1 663.7 668.2 676 679.3 679.2 691.9 692.2 699 708.7 714.9 722.1 730.9 727.6 723 737.1 746 757.4 768.8 775.8 776.6 793.1 806.3 813.4 817.1 817.8 813.6 811.9 810 815.6 815.5 815.4 823.1 819.4 820.4 820.9 814.4 811.7 805.5 799.5 790.8 780 754.7 743.1 727.3 716 708.3 694.9 685.5 681.5 680.8 672.1 661.5 657.8 645.3 642.2 634.1 627.2 621.5
541.1 544.4 550.2 557.5 562.5 572.1 582.6 588.4 585.1 575 567.1 559.3 550.9 541.6 530.9 521.9 517.4 509.4 507.2 506.3 505.8 500.3 495.1 488.7 478.8 471 466.4 463.7 458.2 448.4 434.8 425 412.7 399.2 384.8 372.5 363.9 357.5 351 350.5 351.1 356.7 362.1 364.1 371 376.2 380.1 387.7 394.7 403.8 416.6 432.5 457.9 476.9 494.3 529 547.5 560.4 594.1 623.7 652.5 678 694 703 693.7 692.2 678.2 667.2 645.6 611.1 611.1 608.6 599.1 565.9 530 523.9 516.2 505 492.5 489.2 485.2 480.3 473.3 468.3 465.9 460.1 467.1 470.3 480.4 493 506.5 519.2 530.8 541.8 550 555.2 560.8 572.4 575.1 579.3 584.4 589.6 595.6 599 600.4 599.5 595.7 591 583.1 575.6 573.3 570.1 563.4 552.9 540.4 530.7 521.2 516.2 510.9 501.7 496.9 495.1 494.1 490.9 497 493.2 501 510.4 515.6 527.2 546.4 554.2 565.7 579.9 593.9 604.9 617.7 629.8 642.7 647.5 651.4 653.9 658 663.2 667.6 672.5 681.9 687.9 692.8 695.5 697 714.5 723.5 711.6 704.8 715.5 724 735.1 745.9 763.1 763.9 770.3 779.5 789.9 800.4 805.8 810.5 808.3 802.7 795.2 794.6 791.3 807 809 808.4 808.3 805.7 805.1 804 799.8 789.7 781.4 767.3 751.8 738.8 727.1 714.3 701.6 692.4 689.7 683 666.9 652.7 645.6 635.7 630.6 630.1 627.8 617.5 616.6
549.2 551.8 561 569.6 577.4 578.8 583.4 589.6 588.2 583.9 579.5 568.4 554.9 543.2 532.4 522.8 519.1 511.3 513.2 514.4 506.7 497.5 495.3 493.5 478.4 466.9 463.1 457.5 449.8 441.8 432.2 422.8 409.5 402 389.2 373.3 365.1 356.3 355.1 354.2 359.2 369.2 375.1 379.1 389.7 393.7 401.4 410 418.1 422.8 440 452.5 471.1 506.2 538.2 559.9 578.8 575.5 606.8 637.8 658.1 683.7 700.6 714.6 722.7 716.8 715.1 700.4 680.9 651.5 627.6 622.5 614.1 583.6 562.4 536 531.5 518.5 500.7 491.2 489.5 484.5 484.2 475 472.6 464.1 468.9 471 480.5 496.2 508.2 518.5 531.1 541 544.9 549.4 555 562.1 564.8 570.5 576.7 583.6 590.1 591.3 593 591.8 589.9 585.2 578.5 571.2 568.1 564.3 553.6 544.4 536 526.8 516.8 512.7 506.8 500.6 496.4 489.9 493.4 487.6 487.6 491.3 497.3 504.8 515 520.6 531.5 547.9 562.4 575.5 586.3 597.3 609 618.5 629.6 640.7 644.1 645.6 653 654.1 658.1 663.1 674.6 676.8 681.3 683.8 693.4 694.6 699.1 689.7 694.9 709.9 716 725.2 740.8 747.2 755.5 765.5 770.2 778.9 784.9 784.6 790.2 789.1 788.7 779.5 778.1 774.8 789 786.7 789.7 791.2 792.3 788.4 790.5 781.2 775 768 754.8 741.8 734.9 732.1 723.5 711.4 698.6 686.2 672.5 659.7 654.5 649.8 635.1 625.5 616.1 615.6 605.9 610.3
567.4 570.9 576.7 579.5 591.8 596.3 594.5 593.1 593.9 590 588.9 578.3 562.7 546.7 531.4 525.4 516.5 515.3 513.9 512.1 503 494 489.8 485.1 474.5 464.3 459.4 454.4 446.6 435.8 430.2 419.6 406.2 401.7 391 375.6 365.1 359.6 362 367.3 375.1 383.1 392.1 396.9 406.1 410.9 423.5 426.9 436.8 446 455.2 473.8 498.5 532.6 554.1 571.9 590.6 605.2 622.5 641 658.1 675 697.7 713.9 722.9 722.1 720.2 720.9 703.5 685.4 662.6 628.3 626.5 608.2 585.1 560.9 537.7 525 507.3 491.5 487.8 486.8 485.9 482.5 476 470.5 472.2 473.6 483.7 496.8 505 514.4 521.3 528.5 536.5 543.9 550 556.7 561.9 566.6 570.3 577.2 585 586.7 587.2 588.2 587.1 582.2 576.6 567.5 562.4 556.8 547.1 534 526.7 522.2 515.4 505.7 500.2 495.7 496.5 494.7 485.7 487 483.6 487.4 491.2 498.9 505.5 516.4 531.3 539.7 552.4 566.6 577 590.5 601.3 612.9 619.8 626.2 630.1 633.9 641.2 647.1 642.4 662 664.3 667.5 668.5 673.7 687.4 689.3 690.8 683.4 694.9 707.2 712.7 722.4 726.8 737.1 744.3 749.8 755.4 761.9 764.7 765.9 772.2 768.8 770.6 769.6 760.9 763.7 773.5 771.4 768 772.7 773.4 774.7 767.2 764.3 755.6 752.2 742.9 732.7 728.5 720.3 710 703.1 691.5 679.3 671.2 664.5 655.2 650.7 643.1 634.5 614.4 598.8 603.4 596.2
563.1 580.9 590.6 589 596.6 606.9 604.8 604 599.3 592.4 587 580 568.3 546.9 531.5 519.1 510.6 511.1 511.4 507.2 499.1 489.5 482.6 476.3 467.9 460.9 454.7 449.2 442.2 436.2 428.7 420.6 409.1 398.5 386.2 378 372 364.1 373.2 381.5 392.4 397.6 406.5 413 422.7 433.1 441 447.6 456.3 471.4 485.6 501 519.2 546.4 568.7 582.6 598 614.1 625.4 638.5 652.9 666.7 682.2 695.9 710.9 721.7 727 733.3 739.3 733.1 711.7 663.5 634.2 622.6 607 577.8 545.9 528.1 513.5 499.3 490.6 487.5 488.7 484.7 476.5 473.5 473.6 476.7 484.6 491.6 501.8 506.5 514.9 522.9 527.3 534.7 539.4 545.2 553.8 560.6 564.6 574.7 577.1 578.3 579.8 583 582.8 580 574.3 564.5 555.5 550.7 542.6 531.7 525.1 517 513.7 506.8 498.9 495.1 488.9 489.4 482.5 482.4 484.3 490.1 490.9 495.6 505.3 511.8 530.3 535.7 547.3 557.7 569 578.7 593.4 602.5 607.1 612.1 617.1 628.4 630.6 629.1 643.7 650.9 654.5 662.6 661 664.1 669.8 671.1 670.8 679.3 690.5 706.4 715.1 719.5 724.4 722.9 720.8 733 739.5 745.3 747 749.3 753 756.7 758.6 755.6 748.4 749.8 758.2 757 752 756.4 754.6 761.7 756.4 749.3 742.2 739.5 733.2 731.5 727.8 714.5 710.3 702.4 690.2 680.2 673.8 666.8 660.1 640.5 632.1 624.8 610.3 597.4 588.9 587.8
566.2 577.4 587.7 599.6 607.5 614.1 621.5 610.2 600.3 595.3 585.1 578 567 553.1 531.3 518.2 507.5 502.3 501.4 498.7 491.8 486.9 478.2 468.8 462.7 458.6 451.6 444.1 439.5 431.6 423.2 417.8 411.6 401.3 390.4 383.9 372.6 385.3 395 403.9 416.7 426.2 434.1 436.4 442.6 452.5 464.8 469.4 481.1 495.6 512.4 532.3 556.2 560.9 574 593.1 606.2 619.9 630.9 642.4 652.2 663.3 675.1 690.3 700.8 717.6 729.9 739.1 742.6 741.2 725.2 694.9 655.3 641.3 626.5 594.4 554.2 537.3 520.8 507.3 496.9 491.9 487.8 486.4 480.6 476.8 475.3 479.2 483.8 488.2 494.6 504.5 510.3 517.2 523 532.6 540.1 544 548 551.6 554.6 559.1 569.7 568 570.3 574 576.4 574.6 569.6 564.4 555 545.4 537.6 526.1 518.3 512.6 506.6 500 497.2 491 489.3 483.8 482.2 478.9 488.1 486.4 487 493.3 502.7 509.9 518.8 529.5 544.3 549.1 559.9 570.6 580.9 589.6 597.5 601.4 607.4 617.5 617.6 627 643.2 643.8 648.9 650.7 654.7 657.4 663.8 666.7 668.6 674.1 685.6 692.6 709.8 704.9 702.3 707.4 706.8 715.2 718.2 722.1 726.6 728 727.8 738.6 742.3 733.1 735 739.3 737.2 734.9 742.2 744.3 742.3 744 736.4 730 726.7 725.6 729.1 724.4 715.1 711.8 704.9 696.2 689.5 680.9 672.3 666.9 647.3 632.2 624.4 620 608.1 601.9 593.1 580.3
571.4 577.1 582 604.5 627.3 632.5 632.9 617.7 609.3 594.3 587.1 579.1 565.1 550 533.3 516.9 504.4 499.1 493.9 493.9 489.1 482.6 474.6 463.3 456.2 453.2 446.8 441 436.2 430.3 422.7 417.3 410.9 400.5 396.5 381 395.2 403.7 415.9 424.8 436.7 445.5 451.9 466.7 477.2 487.6 489.2 502.4 510.6 516 529.1 548.9 572.6 588.3 601.5 611.1 619.3 628 638 644.9 654.6 664.9 676.5 687.5 697.7 710.1 723.2 735.3 739.8 738.3 731.7 710.1 679.9 661.1 635 612.5 579.2 544.4 527.9 515.2 503.7 497.2 491.6 487.7 484.1 479.1 479.2 479.2 482.9 485.7 493.6 500.6 507.8 515.9 523.7 530.8 536.8 542.4 547.4 550.8 552.4 554.6 559.5 563.2 565.1 567.6 570.2 565.9 559.9 556 551.1 542.4 533.6 524 514.8 509.1 502.7 495.6 492.3 484.9 482.1 483.5 481.8 479.2 483 480.1 483.5 489.4 498.1 504 515.7 524.5 532.2 543.3 553.8 563.7 573.7 579.9 582 589.8 598 605.4 611.4 622.9 631 634 632.9 638.1 642.7 643.8 651 653.5 657.9 664 672.9 679.6 690.9 692.7 690.1 696.8 706.1 707.9 703.2 700 703.5 711 717.3 722.9 723.2 724 719.5 717.3 720.2 720.5 721.1 720 721.3 719.7 719.4 715.6 714.6 711 710 707.4 705 706.9 699.8 688.7 679.3 664.2 658.1 649.8 635.8 631.4 622.6 618.6 612.2 596.7 586.6 573.4
574.7 577.5 582.2 593.3 623.9 621.1 623.4 611.8 606.1 598.4 593.6 581.8 567 551.9 541.1 525 507.8 495.3 488.9 487 484.1 475.4 467.3 458.3 452.6 446.1 442.6 436.5 433.6 428.3 421.9 417.7 415.5 408 394.8 405.8 414.2 424.9 434.6 447.8 459.4 463.7 474.4 487.5 501.5 510.2 517.4 525.7 535.4 544.2 554.7 568.5 582.9 594.8 609.6 620.2 627.4 637.1 644.3 651.6 659.5 669 677.7 688.5 697.6 703.3 712.5 725.7 730.5 727.3 726.6 733 718.1 687.4 647 615.9 583.9 551.3 536.5 522.3 512 501 495.2 491.3 486.6 481 479.6 479 482.1 485.1 492.1 497.1 504.1 513 519.9 525.4 531 538.9 541.8 544.2 549.3 550 556.5 559.9 560.7 561.1 556.5 555.7 554.6 550.3 544.5 539.5 532.7 525.3 516.2 508.8 502.9 494.2 490.6 484.6 479 475.3 472.5 472.6 475.6 475 480 488.9 502.2 507.4 517.6 524 530.3 536.4 544.5 552.3 565.7 568.8 572.1 581.7 586.5 596.5 603.1 613.7 616.5 619.9 625.6 628.3 629.5 633.2 633.8 641.5 645.4 652.7 658.4 658.5 671.3 681 675.7 674.6 682.9 683 686.6 690.4 697.9 693.3 693.9 700.8 699.7 699.4 704.4 708.7 714.4 713.3 714.6 711.2 711.1 710.9 708.5 704.1 701.4 701.4 700.5 694.9 697.3 690.4 687.7 677.6 656.6 644.7 636.7 628.7 623.1 614 608.4 610.4 605.5 599.2 587 574.2
570.7 574.2 582.1 588.5 609.7 625.2 614.8 608.7 608.2 601.2 595.4 582.4 570.3 558.3 536.9 524.2 503.3 490.5 481.9 477.9 474.2 468.5 460 450.9 448.2 444.8 437.3 435.5 429 426.7 425.4 420.9 420.3 415.7 418.6 419.3 429.3 443.8 450.7 466 477.1 489.3 496.7 505.2 517.2 525.3 533.7 545.1 552.4 561.2 575 582.2 593.7 605.1 614.6 624.1 633.5 639.6 647.2 653.9 660 669.2 677.6 684.2 688.9 696 702.1 708.6 709.2 711.5 734.2 743.8 736.6 717.8 679 627.1 592.7 556.7 544.5 529.4 516.7 506.9 499.2 492.8 488.9 482.4 480 479.5 480.3 483.9 488.8 496.1 502.8 508.8 514 517.9 524 527.1 532.9 538.8 543.9 548.4 551.1 553 554.9 556.7 553 549.2 545.1 543.7 538 533.7 530.6 524.8 518.6 508.4 500.9 494.7 486.5 480.1 476.3 473.3 470.8 467.4 470.1 473 475.7 481.9 489.9 501.9 512.1 520.9 529.5 538.3 541.6 546.1 552.4 557.5 564.9 570.9 578.4 586.8 592.5 603.4 605.6 605.1 610.9 612.6 619 621.7 625.2 632.7 635.2 642.1 642.2 644.3 650.2 649.5 650.8 658.3 662.8 667.6 676.5 671.9 675.3 676.1 682.1 682.4 685.9 691.3 692.5 694.2 696.9 700 702.3 701.4 702 700.3 697.7 695.9 694.2 692.8 683.8 682.1 680.1 669.5 671.8 669.4 655.1 645.7 638.9 631.6 624 617.9 615.7 608.9 593.8 592.6 573.9 564.2
567.7 575.5 584 584.6 593 609.5 601.9 607 611.6 601.2 596.4 576 571.4 559.7 536.7 520.3 501.2 485.4 477.1 468.2 464.1 457.7 451.8 445.9 442.9 441.2 434.8 431.7 427.8 426.4 426 426.3 430.7 434.3 438.3 443.5 447.6 459.6 471.4 481.6 499.9 507 515.4 531.3 536.9 544.7 549.3 557.4 566.6 574.3 586.7 597.3 606.6 614.3 621.8 629.8 637.1 645.1 649.5 655.2 659.7 665.3 668.7 673.5 678.9 683.8 689.2 692.7 698.1 708.1 729.6 737.9 737.1 724.5 704.1 626.4 593.4 563.5 544.5 534.6 520.8 512.7 504.9 496.5 493.8 486.5 481.5 481.1 480.7 482.2 487.7 493.3 498.3 501.8 503.5 508.7 516.3 521 528.1 532.4 537.6 545 548.2 547.2 550 549.8 545.2 544.5 540.9 539.1 533.2 532.6 528.5 520.3 514.1 509.7 500.1 492.1 483.7 479.5 480.2 474 470.7 466.1 467.6 471.4 475.3 480.8 486.3 494 503.1 510.5 521 531 536.6 544 549.5 550.4 558.3 561.3 567.4 577.7 580.2 585.8 590.8 598.5 600.3 606.3 610.6 611.3 615.1 616.5 622 625.1 626.7 628.2 632.6 641.3 641.7 650.5 657.4 667.2 664.4 662.9 668.5 668.9 672.4 678.8 678.9 682.3 687.1 680.8 688.2 692.6 691.3 692.4 692.2 688.3 685.7 683.5 674.6 671.9 676.2 672.2 663.2 661.7 654.7 649.9 652.4 643 637 629.9 622.1 617.2 608.3 603.9 590.8 577.1 569.3 564.2
564.7 571.3 579.8 585.5 578.7 590.8 584.9 583.4 602.1 592.3 582.3 568.9 563.5 555.9 539.2 514.9 497.5 480.9 470.5 464.1 459.2 451.5 445.2 441.1 436.3 433.6 431.9 428 428.5 429.3 433.4 441.4 454.2 452.4 454.9 461.9 466.2 474.7 484.4 496.2 508.8 518.4 523.4 533.3 544.1 552.3 560 565.1 575.8 583.1 597.1 603.2 613.4 623.2 627.3 636.2 641.8 649.3 653.2 655.4 654.9 658.1 661.7 665.8 672.2 672.9 677.2 682.2 692.5 706.6 722.7 728.4 729 720.8 719.1 678 608.8 573.3 549.9 537.3 525 516.2 506 500 494 487.2 482.7 480.5 479.6 481.1 482.3 488.6 491 499.1 498.2 502.1 511.2 514.9 520.7 528.7 529.5 536.1 539.7 542.3 543.1 542 538.5 537.1 535.9 530.8 529 523.5 520.4 517 511.9 505.3 500.6 487.8 479 474.3 472.6 469.9 469.8 466.1 466.2 471.5 475.5 478.4 484.2 489.5 499 504.1 512.9 521.3 529.3 536.1 544.8 546.6 551.2 555.2 558.4 566 568.9 572.3 578.6 583.5 589.7 593 598.5 599.8 600.5 601.3 602.8 606.3 609.8 616.9 624.5 634 631.9 642.9 643.2 646.9 652.4 652.8 653.3 658.9 658.7 659.5 660.2 662.1 666.9 669.2 674.3 676.5 672.6 668.6 666.4 663.8 663.6 662.7 660.7 657.6 650.8 653.4 651.9 646.1 644.9 642.5 640.3 635.5 624.6 617.2 610.7 602.9 597.9 593.5 586.9 580.3 577.8 575.1
562.9 558.1 570 577 568.1 578.5 583.4 573.7 583.2 577.7 567.7 561.2 552.5 548.3 533.7 509.8 493.7 479 467.6 457.9 452.2 447.1 440 436.7 433.3 428.5 427.3 426.5 426.8 434.4 444.2 452.7 460 464.2 466.4 472.6 477 478 490.3 496.9 510.5 524.2 529.1 538.2 550.9 556.7 561.7 569.6 578.1 586.5 598.7 606.8 613.4 621.1 627.5 638 645.2 650.2 652.3 653.3 653.1 653.7 655.9 658 662.5 666.9 671.3 680.2 685.1 694.1 705.3 711.9 709.2 712.7 707.8 696.1 620.5 590.6 556.7 542.2 531.6 521.2 511.1 501.5 495.3 488.7 485.7 482.3 479.7 480 480.1 483.9 485.7 494.7 492.7 496.9 505.4 509 515.8 521.3 520.1 528.6 527.1 534.9 535.3 535.9 534.1 530 528.2 526.2 524.4 514.9 513.1 510 507.9 501 495.4 491.4 481.5 470.5 470.4 471.7 467.2 466.4 460.4 470.3 478.7 484.8 488.2 491.8 498.9 507.5 514.6 516.7 523.9 529 538.5 543.8 547.9 549.2 549.1 553.1 559 562.9 568.2 571.8 575.5 582.3 585.6 585.4 588.2 588.6 589.8 592.7 598.9 606.9 619.4 620.9 617.6 627 631.5 631.5 639.1 638.3 644.9 645.1 644 647.3 651.5 653.5 654.3 659.3 658.1 657.7 662.1 662.4 658.1 657.9 654.3 651.3 650.5 645.7 643.2 641.6 642.3 637 630.8 629.3 629 629.6 621.9 617.8 614.5 615.3 603.5 594 583.7 578.9 570.9 566.4
559.8 547.1 547.1 551.6 550.1 569.9 570.8 575.5 571.7 573.8 555.5 548.1 540.3 535 528.6 505.3 492.4 479.1 468.2 456.4 447.9 443.7 437.3 431.5 429.2 427.3 424.3 423.8 430.6 444.3 451.7 457.6 463.6 467.6 469.5 474.6 481.7 488.6 494.5 506.3 514.2 521.2 532.4 540.7 548.4 558.3 564.9 578.1 586.8 589.5 598.2 603.8 609.2 617.1 624.1 634.2 639.3 643.3 645.9 648.1 649.1 648.9 649.9 651.3 653.4 655.9 662.5 671.5 677.2 680.6 688.5 693.7 693.4 697.4 700.4 701.1 681 601.7 570.2 551.8 538 526.1 517 506.9 500.5 490.6 487.4 483 481.2 476.6 478 481 482.3 485.4 485.5 498.3 501.5 502 510 510.6 513.9 515.5 518.9 523.1 528.6 525.3 526.5 522.3 521.6 520.1 515.9 509.5 505.1 503.8 499.6 498.1 488.9 482.8 484.4 475.7 466.2 464.4 465.4 461.6 458.8 468.3 472.6 479.2 490.3 496.6 502.9 506.7 510.1 512.3 522 529.2 530.3 533.3 537.2 537.7 541.5 543.8 548 551.5 554.7 559 563.3 568.8 572.2 572.7 573.3 574.9 577.5 581.2 586.2 593.2 594.5 600.9 603.8 615 617.5 621.9 625.4 628.5 632.7 638.6 638.5 639 639.2 641.1 642.1 646.7 649.1 651.9 652.9 648 644.3 643.4 642.5 641.4 639 637.6 637.6 638.6 639.8 632.5 627.2 622.9 624.2 622.3 618.5 612 607.2 608.3 599.7 586 576.8 574 569.6 563.8
