ncols 200
nrows 86
xllcorner 260000
yllcorner 561150
cellsize 50
143.2 143.1 142.9 142.8 142.6 142 142.4 143.4 147.4 151.3 155.3 161.1 169.3 176.9 183.9 190.6 195.5 201.1 204.9 207.4 209.3 210.5 210.3 211.3 214.1 214.7 211.2 208 207 201.5 193.1 187.2 182 178.4 174.2 168.8 164.6 159.6 155.7 153.4 152.1 151.9 151.7 151.2 151.1 152.1 154.3 160.9 170.1 178 185.9 192.8 196.8 211.3 222.5 236.1 247.5 258.9 263.9 265.2 272.9 277.3 277.1 278.7 275.4 272.6 263.8 257.8 256 256.8 258.4 252.5 246.7 241.3 235.8 230.2 226.4 222.9 218.6 213.7 208.1 202.8 199.6 199.4 199.2 200.7 201.5 202.1 200.2 199.4 199.4 201.8 204.7 204.5 199.4 196.6 193.1 191.9 190.8 189.4 186.4 182.5 178.7 177.8 177.6 177.8 179.2 180.4 181 180.4 180.2 179 177.5 175.6 173.7 172 170.2 168.3 166.6 165 162.8 160.2 158.3 156.4 154.4 152.1 148.1 144.4 140.4 135.4 134.8 131.3 128.4 127.8 124.9 121.3 119 117 116.6 116.8 112.4 109.3 111.1 112.4 108.7 105 97.8 89.5 81.3 74.6 67.1 68.3 67.2 64.3 61.2 59.6 56 54.8 54.5 55.1 55.8 59.8 62 57.8 57 61.9 69.5 71.8 69.8 74.1 81.6 88.1 94.5 104.4 111.1 116.9 111.4 113.3 108.1 105.4 101.6 104.2 106.7 107 106.1 107.4 108 107.8 107.2 107 105.3 103 103.3 101.6 101.4 101.5 99.4 97.2 96.1 95.8
142.7 142.4 142.2 142.3 142.2 141.3 142 143 146 150.3 154.4 160.5 166.2 173 180 186.4 191.5 196 199.3 202.3 204 205 205.5 208.7 212.3 211.1 209 208.1 207.2 202.3 193.9 188.5 183.6 180.6 176 171.1 167 161.8 157.1 154.6 153.2 152.4 152 151.2 151.2 152.1 154.7 161.5 170.2 178.3 185.4 192.4 198.1 213.9 223.2 236.8 250.7 264.4 266.3 269.5 272.8 277.6 282.1 281.7 277.5 271.8 266.4 264.8 264 261.4 258.5 253.8 248.8 242.2 236.5 231 227.7 226.5 221.2 213.4 210.4 206 203.9 199.4 200.7 201.8 201.8 201.2 200.5 200.3 200.4 199.5 201 199.5 195.4 192.8 191.1 190.4 189.9 188.2 185.8 181.1 177.8 176.9 176 175.8 176.4 177.2 177.8 177.6 177.1 176.2 175.1 173.9 172.5 170.8 169 167.6 166 164.2 162.3 160.4 158.4 156.2 153.9 151.4 146.3 140.3 138 134.7 133.3 130.6 130.6 129.5 126.6 123.2 120.1 120.5 120.8 121.7 118.8 111.4 115.7 107.1 105.3 100.2 93.7 87.6 82.6 75.1 67.4 73.5 67.8 64.1 61.6 58.6 55.8 54.7 54.6 55.5 55.9 64.1 62.2 59.4 59.6 66.2 69.5 70.9 70.8 74.5 77.7 83.9 89.3 96.4 103.8 112.4 109.4 110.3 105.8 101.7 99.4 102.1 102.5 103.3 104 103.6 103.8 103.1 102.2 102.4 101.3 99.4 99 98 96.1 97.5 98.7 96.7 95.9 93.2
142.2 141.7 141 142.1 141.8 140.5 141.5 142.5 145.4 149.6 153.9 159.2 164.7 170.2 175.8 180.6 185.9 191.7 196.8 197.5 198.4 200 201.3 204.2 208.4 208.1 208.1 207.3 205.6 201.5 195 189.7 186.8 183.1 178.9 173.6 169.8 164.4 159.4 155.8 154.3 153.1 152.3 151.5 151.5 152.4 155.6 160.7 167.1 177.2 187.5 191 197.6 210.9 224.2 239.2 251.3 264.4 268.2 271.4 276 281.2 287 283.5 278.2 274.1 272.3 269.7 267.4 264.3 260.2 255.4 250.3 243.5 237 231.6 231.7 229.3 219.4 216.2 215.5 210.1 208.9 203.9 200 201.1 201.1 201.5 201.1 200.8 200.6 200.1 198.3 196.2 193.2 190.7 189.9 189.9 189.5 187.9 185.3 181.6 178.3 176.5 175.3 174.4 175.1 175.9 175.8 175.8 175.3 174.8 173.7 172.4 171 169.9 168.4 167.1 165.6 163.9 162 159.9 157.8 155.6 153.4 151 145.4 138.2 135.8 134.9 133.1 133.2 132.7 130 126.4 122.3 121.5 124.4 125.2 123.9 117.6 113.6 113 105.6 102.8 101 91.6 85.2 80.3 77 77.4 71.7 68.7 65.8 61.5 56.1 55.6 56 55.4 55.7 55.8 57.6 59.3 59 63.5 66.4 69.8 71.1 70.9 74.5 76.9 82.5 86.7 91.4 99.6 105.7 107.1 106.7 104.8 98.2 98.1 99 100.1 101.1 102.9 103.4 102.7 102.3 99.3 100.2 99.2 98.3 97.5 95.8 94.2 93 93 94.1 92.6 89.9
141.4 140.7 141.1 141.8 141.5 140.4 141 142.7 145.6 148.4 153 158.5 163.2 168 173.1 177 182.1 188.9 195.9 194.2 194.1 196.1 197.3 201.3 205 206.3 206.3 206.1 203.9 201.2 195.8 192.3 189.3 185.7 182.7 178 172.2 167.7 161.5 156.2 154.1 153.1 152.6 151.8 151.6 152.2 155.5 159 168.1 178.4 187.3 189.4 198.3 207.6 222.9 238.8 253.3 263.3 270.2 275.7 280.8 284.2 285.8 282.1 283 278.4 275.8 272.4 268.8 265.7 261.7 257 252.1 244.4 238.7 234.1 232.9 228.9 223.8 222 221 214.8 214.3 208.5 201.1 199.8 200.4 201.2 202.1 201.9 200.5 200.2 194.9 193.7 191.4 190.7 190.9 190.2 189.4 187.7 185.2 182 179 176.6 175.7 175.3 174.9 175.3 174.8 174.5 173.9 173.3 172.2 170.8 169.5 168.7 167.8 166.5 165 163.6 161.5 159.5 157.3 155 152.8 150.2 143.8 137.4 136.2 134.7 135.1 135.8 134.2 131.3 126.6 123 126.6 127.5 123.9 125.9 120.4 109.9 108.9 102.7 101 91.5 91.9 84.7 81.1 78.3 74.8 70.6 68.2 65.6 61.4 56.1 57.1 60.6 58.1 62 56.6 55.9 56.3 59.3 65.7 67.5 69.2 71.5 70.8 74.1 78.3 83.9 83.7 88.6 94.1 99.9 102.4 104.9 102.8 97.3 95.8 98.8 98.6 99.4 99.7 99.9 99.2 99.2 97.6 98 97.2 97 96 96 91.8 88.9 89.2 90.2 90.4 89.3
140.8 140.2 140.8 141.2 141 140.5 140.6 143.5 145.7 147.4 151.6 157 162.3 166 170.8 175.2 180.8 188.7 192.4 190.4 189.9 192.5 194.2 198.3 201.7 204.1 203.7 203.9 202.8 200.5 197.2 195 192.2 188.3 185.5 180.5 174.3 169.3 162.9 157.4 154.8 153.3 152.6 151.9 151.5 151.8 154.4 160.9 170.9 180.5 185.2 188.7 195 206.3 223.5 240.4 253.2 263.1 274.2 278.4 280.3 288.5 288.4 286.8 283.3 280.8 278.1 274.1 270 266.4 262.1 257.4 254.7 249.8 240.1 235.5 233.7 233 230.1 224.2 222.4 218.2 214.7 209.3 201.8 199 199.9 200.8 202.4 202.5 200.8 198.7 196.1 191.8 192.5 192.2 191.8 191 189.6 187.8 185.3 182.4 179.5 177.4 177.1 176.6 176.2 174.9 173.9 173.2 172.7 172 170.4 169.2 167.9 166.6 166.1 165.1 163.6 162.2 160.8 158.9 156.6 154 151.9 149.2 144.7 141.7 137.5 136.1 137.5 137.7 135.7 132.3 127.4 126.7 128.8 128.4 125.9 123 119.7 110.5 106.3 101.3 97.8 93.6 90.4 90.3 82 79 74.5 69.2 67.3 65.1 58.2 56.9 58.8 62.2 62.9 62.9 57.6 57 56 62.7 67.4 68.3 67.6 68.8 71.9 73 78 82.3 81.9 85.1 89.2 94.6 99.8 96.9 99.5 93.4 94.2 94.5 94.3 95.2 96.3 96.3 96.2 95.3 95.5 96.4 97.1 98.2 95.7 93.1 88.2 86.9 86.6 88.3 88.6 88.2
140 139.6 139.9 139.9 140.1 140 140.4 143.4 146 147.3 148.8 155.4 161.3 164.4 168.7 173.1 179.7 187.3 188.8 187.6 187.2 189.3 191.6 194.5 198.5 200.5 202 202 201.9 200.2 198.5 199.2 197.4 193.7 189 182.7 175.2 170.8 164.9 159.9 156 154.1 152.5 151.8 151.8 151.8 154.2 160.6 171.3 177.9 184.6 189.9 197.6 208.4 220 239.4 254.1 266.2 273 277.3 282.1 289.1 287.3 286 284.1 282.3 279.9 275.2 270.2 264.6 260.6 258.4 258.3 252.4 242.4 240.1 240.3 239.2 235.1 227.5 224.4 221.1 216.1 207.2 201.6 199.4 199.3 200.6 201.6 200.1 198.1 196.6 194.7 194.3 194.8 194 192.7 190.5 189.3 187.9 185.4 182.8 180 178.7 178.4 178 176.9 175.2 172.4 172 171.5 170.4 168.6 167.2 165.3 164.3 164.2 163.4 162.2 160.7 159.4 157.2 155.2 153.2 150.7 148.6 145.6 143 140.5 139.2 138.6 138 136.6 132 126.3 129.8 132.4 128.4 125.7 123.8 114.8 112 105.7 100.6 95.5 93.3 93.1 88.5 83 80 76.2 67.8 66.3 63.8 57.3 57.2 59.2 65.2 70.4 68.5 61.6 62.8 59.9 61.3 67.6 68.7 68.4 70.3 71.1 74.6 76.2 77.3 79.2 81.6 85.3 90.1 95.8 95.1 96 89.9 93.7 92.1 92.6 93 93.9 94.3 94.5 93 94.6 95.6 95.5 94.9 90.8 88.2 89.2 87.5 87 85.9 86.8 88.4
139.3 139 139.2 139.5 139.7 140 140.4 142.9 145.3 146.3 148.3 153.5 159.1 163.4 167.9 172.8 179.8 185.4 185.8 184.6 185.2 187.5 189.7 192.9 195.8 198.6 200.7 201.3 201.2 200.4 200.5 203.7 202.7 199.5 193.5 186.8 180.8 174.7 169.2 162.8 156.5 153.8 152.4 151.9 151.6 152 153.9 163.6 171.8 179 185.6 193.6 202.4 213.2 219.6 240.9 254.7 264.1 270.5 278.6 283.9 283.3 284.3 284.8 283.4 281.1 279 274 269.1 263.4 259.9 264.1 258.2 251.2 244.7 242.4 244.9 242.9 237.6 232.2 226.3 221.7 212.2 206.7 203.6 200.9 199.5 199.3 199.5 198.5 197.3 196.9 198.9 199.1 197.5 195.9 193.3 190 189.1 187.2 185.6 183.1 181.1 180.2 179.7 178.6 177.6 175.7 175.1 173.4 171.4 169.6 167.9 165.7 164.7 162.6 162.3 161.3 160.2 159.2 157.9 155.5 153.3 151.8 150.6 149.7 147.4 146.3 144.6 143.7 142.1 139.5 135.2 130.1 126.6 131.6 133.2 128 126.9 127.2 116.3 117 111.5 110.2 104.4 93.8 92.4 90 86.2 80.7 77 69.1 63.5 60.4 57 57.4 61.5 69.4 73.4 74 68.5 65.7 63.6 58.2 63.3 66.1 70.4 71.7 72.3 75.2 76 77.4 77.8 79.2 80.5 85.9 90.9 92.8 92.1 88.5 91.2 90.2 90.2 90.7 90.8 91.4 90.2 89.6 91 91.9 91.2 89.4 86.4 86.1 87.7 87.7 86.4 85.1 85.1 88.9
138.5 138.6 138.3 139.5 139.7 140.2 140.7 141.2 142.9 145 148.2 153 157.5 161.1 166 172.7 179.2 183.3 183.7 182.5 183.8 186.8 189 192.7 195.8 198.7 201 203.5 203.7 204.1 205.8 207.7 206.3 203.8 197.5 190.5 186.2 178.9 171.6 164.6 157.4 153.9 153 152 150.8 152.5 155.6 165.1 172 181.1 189.4 197.8 206.5 214.1 223.2 240.5 251.9 261.4 272 277.6 280.1 283.4 283.8 282.6 281.4 280.1 278.2 273.8 269.4 265.1 261.1 259.5 255.7 249.2 243.5 243.6 245.4 242.7 238.2 233.6 227.6 219.1 210.3 207.5 205.6 203 200.1 199.5 198.1 198.5 197.1 201.3 203 199.6 197.6 196 193.5 189.7 188.9 187.7 186.3 184.1 182 180.6 179.4 179.1 177.2 174.6 173.8 172.1 171.4 169.4 167.9 167.7 168.2 166.4 163.8 162.6 160.5 157.6 156.5 155.1 152.8 153.3 153.5 152.2 150.7 149.5 148 146.1 144.4 140.8 137.1 132 129.2 129.4 132.5 128 125.6 120.7 123.6 118.9 115.7 117.9 109.3 97.7 91.6 90.7 85.4 80.5 75 69.6 61.5 58.8 56.7 56.5 65.4 71.7 74.3 72.1 65.5 62 58.7 57.6 59.9 64.7 70.4 72 75 75.2 74.7 76.1 77.4 78 76.9 83.8 88.4 90.4 88.7 89.9 90.7 88.5 84.8 86.9 87.8 86.9 84.4 84.4 84.9 86.9 86.6 87.7 85.5 86.7 88.4 86.2 84.1 83.9 84 86.3
138.3 138.8 139.5 140.1 140.9 140.7 141 141.3 142 144.4 149 151.8 155 159 166 172.1 177.6 180.7 180.7 181.1 183.2 186.3 188.8 192.9 197.1 200.3 203.7 206.6 208 209.3 211.3 212.8 210.7 207.8 201.1 195.1 189.4 181.7 173.5 166.2 159 154.4 153.4 152.2 151.1 152.6 155.2 163.1 171.9 183.1 192.4 202.2 214.1 220.5 229.8 241.5 252.2 260.5 267.8 275.3 281.1 281.9 281.8 281.1 280.7 279.9 278.1 274.4 270 265.6 260.9 256.3 251.5 245.9 242.1 243.7 243.8 240.1 237.6 231.7 224.7 215.3 209.6 205.8 203.9 204.9 202.9 200.3 199.5 201 198.4 199.2 200.7 198.9 196.9 195.3 193.6 191.8 189.8 188.6 187 184.5 182.1 180.6 178.5 176.6 175.3 174.5 173.6 172.2 170.8 170.4 171.8 171 171.2 170.9 166.4 164.8 164.8 159.4 157.6 155.5 154.8 156.3 156.2 154.5 152.5 150.8 149 146.7 144.8 141.9 138.2 138.5 130.9 129.3 132.3 126.7 121.6 126.5 126.9 124.2 121.1 118.5 112.7 102.5 93.9 85.8 86.7 76.5 68 64.4 61.1 58.2 56.7 57 68.1 73.7 74.4 68 61 60.5 58.3 57.7 60.7 67.1 69.7 71.3 73.6 75.7 74.8 76.2 76.7 76.4 77.6 81.8 85.4 86.9 85.2 90.8 88.2 86 83.7 82.7 82.8 81.7 82 82.2 82.8 83.7 86.8 86 86.7 82.7 84.4 83.9 84.3 83.3 83.1 83.7
139.4 140.1 140.8 141.5 141.8 141.1 141.2 141.3 142 144.4 150.2 152.4 154.3 158.1 166.4 171.8 176.6 177.2 176.9 179.7 182.4 186.3 189.6 194.8 198.6 202.1 207 211.3 212.8 214.4 216.8 217.9 216 210.5 205 200.7 192.7 183.8 175.4 167.2 159.1 154.3 153.1 152.2 152 152.4 155.6 162.5 172.3 185.1 192.2 205.2 216 223.4 235.4 242.8 250.6 257.4 267.4 273.4 277.3 278.6 279.2 279.4 278.8 277.8 278 274.8 270.6 265.5 259.4 253.6 247.4 241.9 241.5 243.2 240.8 236.8 233.3 225.2 220.2 214.5 210.4 207.5 206.3 202.7 202.2 200.8 199.9 199.5 198.3 199.2 199.5 198.6 197 195.5 194.2 192.9 191.3 189.4 186.9 184.4 181.3 179 177.6 176.6 175.3 174.9 174.1 172.9 172.3 173.1 174.3 172.9 171.7 169.3 167.4 166.3 166.2 162.5 161.6 161.4 158.9 161.1 158.4 155.7 152.7 151.6 150.4 146 145.3 142.6 139.6 135.8 134.5 130.6 129 124.3 123.4 127.5 130.4 128 123.3 120.4 115.3 105.3 95.1 83.2 79.3 72.9 68.3 65.9 61.2 57.3 56.4 57.2 64.6 70.1 70.5 65.1 60.2 62.6 60.9 61.9 62.4 66.1 69 69.4 73 74.9 74 77.2 74.4 75.2 77.9 81 83.6 85.2 83.8 87.6 87.6 85.4 83 77.6 77.9 80.7 82.9 83.4 82.9 83.9 84.5 82.8 83.4 83 85.5 85.2 84.1 82.8 81.9 82.4
140.7 141.3 142 142.6 142.2 141.5 141.7 141.8 142.5 144.4 150.4 151.7 154.6 160 166.1 169.7 173.5 173.4 175.9 179.4 182.9 188 192.2 197.4 201.1 205.2 212.1 214.9 217.4 219.6 222 222.8 220.3 214.3 208.3 202.9 196.9 187.6 177.1 167.3 159.7 154.4 153.2 152.4 152.1 152.5 155.1 161.5 175.2 185.7 193.6 207.3 217.1 226.1 238.1 243 251.2 258 262.9 267.8 272.3 275.2 275.7 276.4 275.6 275.1 276.7 274.9 269.9 264 256.8 250.2 243.2 237.7 237.6 240.8 236.7 232.2 224.9 222.7 217.3 215.3 210.5 210.7 209.7 204.9 202.9 201.7 199.9 199.3 199.8 200 199.4 198.7 197.3 195.9 194.5 193.3 191.2 188.9 186.4 183.3 181 178.7 177.6 176.4 175.3 176.7 175 173.5 174.2 174.8 175.6 176 173.7 171.6 168.9 167.6 168.5 164.7 162.5 163 160.9 159.1 159.1 156 153.3 151.8 151 147.1 145.3 144.2 143.3 145.9 135.4 129.7 129.1 130.2 126.6 124.6 128 129.8 124.5 122.7 114.7 104.6 93.7 81.4 77.3 74 70.1 69.7 64.8 60.3 56.7 57.5 63.9 65.1 63.8 64.8 64.4 65 62.4 68.6 66.2 68.5 67.4 68.3 71.6 72 72.2 76.6 75.2 74.3 76.2 78.7 82 82.5 82.8 83.8 84.4 84 79.9 76.2 77.8 81.7 83.5 84.2 83.7 83 82 81 79.8 81.7 84.6 84.6 83.1 81.7 80.6 80.6
141.7 142.2 142.8 142.9 142.1 142 142.2 142.6 143.4 145 149.8 151.1 155.1 160.8 165.2 167 169.2 171.9 177.7 181.8 185.1 189.2 195.3 200.3 204.6 210.7 216.6 219.6 222.2 224.7 227.9 227.3 224.7 218.2 210 204.6 197.8 188.5 178.1 168.3 160.5 154.6 153 152.6 151.6 152.9 154.6 159.5 173.4 184.8 197.4 210.1 218.5 227.5 238.2 249.4 253.9 255.7 258.6 264.3 266.2 269.7 270.4 272.4 271.6 271.8 272.3 269.9 266.2 259.5 253.3 245.9 238.3 232.7 232.6 237.5 231.7 223.8 223.1 222.5 220.2 218 215.5 213.3 211.6 207 203.5 200.2 200.8 199.3 199.6 200.1 199.8 199.1 197.7 196.3 194.9 193.5 191 188.4 185.6 182.3 180.4 178.9 177.6 177.2 178.1 179.1 178.7 179.4 176.4 176.9 177.6 180.3 178.2 175.7 172.3 170.1 168.9 166.3 164.2 163 160.5 159.3 158 157.6 156 154.6 153 150.7 149 147.5 146.5 149 139 134 130.9 134.5 127.2 125.2 123.7 124.5 122.7 121.7 114.9 100.7 83.2 77.2 75.8 73.1 71.8 71 67.5 67.9 59.3 58.1 59.1 59.7 66.3 69.5 68.4 71.1 63.4 65.4 66.5 65.8 64.9 64.1 66.4 69.6 72.2 74.5 74.1 72.1 74.9 76.8 79.9 80.1 82.2 82.9 83.8 78.9 74.7 74.9 76.5 79.2 80.7 82 81.5 81 79.8 79.7 80.1 80.8 81.4 81.8 81.8 81.5 80.2 79.5
142.9 143.2 144.8 143.2 142.4 142.3 142.5 143.7 144.9 146.5 150.2 152.5 155.5 160.1 163 164.2 169.4 176 180.8 185.1 188.1 191.3 200.6 205.5 210.3 216.5 221.7 225.2 228.5 230.2 232.2 231.3 228.2 221.3 212.4 206 198.1 189.2 180.3 168.5 160.2 154.3 152.8 152.4 152.3 153.2 154.4 161.6 176 186.4 200 209.7 219.4 231 241.5 248.4 253.6 253.6 255.3 259.5 258.4 261.7 263.7 268.3 268.3 268.6 267.9 266 263 256.1 249 241.2 232.5 227.4 227.1 231.3 223 222.6 222.8 221.4 219.3 218.5 214.9 213 210.2 210.1 206.4 202 200.8 200.2 200.3 200.1 200.3 199.5 198.2 196.3 194.4 192.5 189.6 187.2 185 182 179.4 178.3 177.8 177.7 179.3 180.1 181.2 181.2 178.9 178.8 180 183.3 181.4 178 175.8 172.4 170 167.7 165.5 163.4 161.7 159.9 158.3 160 159.9 158.2 155.1 153.1 152.2 150.8 149 146.7 142.5 135.6 131.5 135.5 128.6 127.3 126.3 121 121 117.5 108.7 93.5 79.9 76.3 77.3 78 75.1 76.6 77.6 66.1 60.7 58.7 59.7 60.7 64.5 68.5 67.3 70.5 68.8 65.6 63.4 63.6 64.4 63.8 67.8 69.8 72.2 72.8 71.3 72.4 74.2 75.6 77.9 77.9 81.2 79.4 77.3 76.4 75.1 76.3 77.6 77.4 78.7 80.3 80 79.3 79.4 80 80.3 80.1 80.6 81.6 81.9 81.5 80.2 79.2
144 145.7 147.7 144.1 142.6 143 143.9 145.8 147.5 148.4 149.7 153.7 154.7 161.9 161.9 167.2 174.1 178.5 183.6 187.5 191.4 195.4 204.7 209.4 217.5 223 227.3 231 234.3 235.8 236.7 235.1 232.1 225.2 214.6 207 199.1 189.4 180.2 168.6 160.6 154.2 152.8 151.4 152.3 153.4 154.9 164.9 177.9 187.7 198.6 212.2 222.5 232.9 242.8 251.4 254.4 247 248.4 249.5 251 256.5 261.5 264.7 265.5 264.2 263.2 261.5 258.6 252 245.9 237.4 230.8 223.9 223.3 224 222.8 223.1 223 222 219.9 215.6 213.4 211.3 209.8 208.7 205.2 202.3 200.6 200.3 200.4 200.8 200.9 200.1 198.8 196.7 194.3 192.4 189.1 185.8 184.3 182.8 178.5 178.3 178.3 178.2 179 180.5 182.3 183.9 181 180.7 183.1 186 185.9 181.2 179.5 174.6 171.7 169.3 167 164.8 163.2 163.1 163.5 163.6 163.5 161.9 156.8 154.6 155.5 152.7 151 150.4 140.6 133.3 131.4 132.3 129.6 126.6 121.1 119.8 118.2 112.2 100.2 94.7 84.6 78.4 83.2 85.9 87.7 77.2 72.3 70.3 65.5 62.5 62 63.2 64.6 65.5 67.5 69.5 71 69 64.4 62.8 63.3 64.7 66.4 68.2 68.8 68.6 69.4 71.4 72.7 74.4 75.8 74.7 75.5 76.5 78 75.1 72.9 73.7 75.3 77 81.9 84.7 80.9 79.1 79.6 80.4 80.6 81 81.4 82.4 82.2 81.5 80.5 79.8
145.5 149.3 148.2 144.1 143.4 144.5 145.9 147.6 149.7 151.3 151 151.3 155.6 161.7 163.8 171.2 176.5 181.4 187.7 192.9 194.3 199.3 207.3 213.6 221.4 226.8 230.9 236.2 238.8 240 240.8 238.8 235.1 227.5 217.4 208.9 199.1 188.4 178.7 169.3 162 154.5 152.8 152.4 152.3 153.4 156.2 166.6 180.5 190.2 201 214.2 224.2 234.3 245.5 253.3 250.8 243.4 243.1 245.4 250.4 256 258.5 261.5 260.6 259.3 258.6 256.4 253.7 247.9 241.9 236.9 225.2 220.6 219.9 221.3 221.3 222.9 222.3 220.6 216.9 213.9 211.2 208.5 206.8 205.6 205.2 204 201.2 201.1 201.4 201.8 201.9 200.9 199.4 197.4 194.8 192.3 189.9 187.2 186 184.7 182.9 181.7 181.1 180.7 181.1 181.5 181.7 183.3 183.7 183.9 186 188.3 188.3 186.7 183.2 178.3 174.4 171.1 168.7 167.1 165.9 167 166.6 165.6 166.1 166.6 165.9 158.5 155.6 152.4 150.9 151 140.8 135.1 131.7 125.5 128.1 123.5 117 109.3 110.8 104 101.2 97.8 88.6 82.3 84.4 90.6 91.5 83.6 69.7 69 65.9 65.5 65.8 64.8 66.1 67.4 67.5 70.6 70.9 68.5 65.2 63.6 63.3 63.5 65.1 64.6 67.6 67.8 68.4 72.7 73.6 74.9 75.3 71 73.4 75.9 75.3 72.6 70.5 72.3 73.9 75.4 83.7 86.1 85.3 78.5 79.5 80.1 80.7 81.9 83.3 83.3 82.4 82.1 81.8 81.6
148.4 151.1 146.4 145 145.4 147.2 149 150.1 152 154 155.9 155.5 155.4 158.9 163.7 172.3 179.7 186.6 192.1 199.1 200.7 204.2 211.9 217.8 224.6 230 235.6 241.1 243.8 246.1 245.9 243.7 237.7 229.8 219.9 209.6 200.9 190.6 180.8 171.8 163.8 154.1 152.4 152.2 152.9 152.9 156.8 168 180.8 190.9 202.4 213.3 224.4 236.4 245.3 251.9 248.6 242.6 242.6 251 254.2 255.7 256.8 256.6 255.3 254.2 254.1 249 248.4 243.9 236.8 229.8 224 219.9 218.5 219.5 222.5 222.4 218.2 217.1 214.9 212.4 210.1 208.4 206.6 206.4 208.1 205.7 202.2 202 202.4 202.8 202.8 201.7 200.1 198.1 195.5 193.1 191.5 189.6 188.5 187.5 185.8 184.6 183.9 183.2 182.8 182.9 183.3 184.5 184.8 185.1 186.5 189.7 189.9 189.4 188.3 185 179.6 175.4 171.3 169.4 168.3 167.9 167.3 167 168 173 174.6 165.7 155.2 151.8 146.7 142.6 136.4 130.4 125.2 124.6 120.6 122.9 112.4 106.4 104.9 104 104.1 103.4 94.6 87.7 89 89.8 92.8 87.9 73.7 69 67.7 67.6 68 65.5 66 69 66.9 72.1 71 68 65.9 64.4 63.3 63.5 64.4 65 68.2 69.4 67.8 72.5 74.1 74.6 73.9 68.5 70.2 70.4 71.1 70.7 71.2 73.3 74.5 75.5 81.7 84.8 85.1 79.3 78.4 79.5 79.9 81.7 83.1 83.7 82.9 82.3 82.1 82.4
151 151.5 148.5 147.5 149.3 152 153.7 154.2 155.1 157.4 159.6 159.5 158.6 158.4 164 173.1 183.1 189.6 196.5 203.6 206.5 209.2 216.5 222.8 228.9 234.2 239.4 245.1 250.8 252.7 252.7 249.1 242.8 234.4 223.6 214.2 202.7 192.4 182.8 173.5 161.9 153.1 153.5 153.1 153.1 152.9 157.9 164.5 176.8 189.7 200.5 212.7 224 233 241.3 249.8 253.8 245.2 246.7 255.6 252 251.9 251.7 249.7 248.7 249.4 250.1 243.5 240.4 236.8 231.4 226.7 222.2 218.5 216.8 217.8 219.1 217.6 215.6 214.5 213.5 211.7 209.6 207.8 206.4 206.6 206.5 204.9 203.1 202.8 203.2 203.6 203.6 202.5 200.9 199.3 196.6 194.6 193.2 192.1 190.9 190 188.7 187.5 186.5 185.6 184.6 184.5 184.9 185.7 186.2 187 187.5 188.7 189.1 188 188.1 190 182.9 180.9 175.6 170.6 169 167.6 167.6 167.4 170.4 175.1 173.2 164.7 156.4 151.3 145.7 140.1 132.9 125.8 123.4 125.6 113.9 113.4 107.9 105.6 105.3 104.5 104.8 104.9 100.7 93.7 91.7 89.3 89.8 81.9 78.6 68.8 67 68.5 68.4 64.9 68 68.7 65.8 67.3 70.5 66.6 65.1 64.6 63.4 63.9 67.9 68.7 71.1 71.5 69.8 72.7 72.4 72.8 71.6 66.8 67.7 70.9 72.2 71.4 72.3 73.6 74.8 74.7 77.6 81.6 82.2 79.4 78.3 80.1 79.2 80.1 81.8 82.6 83.5 83 82.5 82.1
153.6 152.8 152.4 152.9 155.6 156.4 158.9 159.6 160.1 162.1 164.2 164.1 163 161.7 166.1 175.4 188.2 196.3 202.4 209.3 213 216.2 224.5 231.5 235.5 239.1 244.5 252.8 256.1 258.1 258.6 254.8 249 240.4 228 216.9 205.1 193 182.2 171 160.5 153.6 154.3 153.3 154 153.9 157.5 163.8 172.7 184.7 198.6 211.9 223.1 231.2 238.3 250.6 255.9 241.9 250.3 250.1 248 247.1 246 245.7 244.9 244.7 245.8 238.9 234.9 230.3 226.9 224.1 219.4 217.2 216.2 215.9 216.1 215.3 214.6 213.3 211.9 210 208 206.9 206.2 204.6 204.3 203.7 202.7 203.4 204 205 204.6 203.2 201.6 200 198.3 196.4 195.5 194.5 193.4 192.4 191.2 189.6 188.2 187.3 186.5 186.4 186.5 186.8 187.2 187.7 188.2 188.2 187.9 187 186.3 185.4 182.2 180.6 177.6 172.3 169.2 167.9 169.2 169.2 169.5 169.9 167.6 161.2 154.9 150 145 138.9 134.1 128 120.7 116.5 113.2 116.1 109.7 106.7 105.8 105 105.1 105.5 101.7 97.2 95.1 90.8 88.8 81.3 78 69.3 67.9 71 68.9 68.9 68.2 68.5 67.8 67.3 68.5 69.2 69.2 65.6 63.6 63.6 66.3 68.6 70.3 70.3 70.4 72.8 72.4 69.4 68.2 66.5 70.9 74.3 74.3 71.4 73.3 72.1 72.9 72.1 72.3 77.2 79 78.2 77.7 79.3 79.3 81.5 83.5 84.4 83.7 83.8 83.6 82.3
156.3 157.9 159.2 160.9 160.4 162.5 164.2 165.3 166.2 167.8 168.6 168.7 168.3 167.9 172.9 179.9 188.7 200.8 209 216.4 219.7 222.9 232 239.7 241.9 245.6 251.2 256.9 261.3 264.2 263.1 261.8 255 242.6 230.4 218.2 205.4 193.4 182.5 171.2 161.3 153.9 154.4 153.9 153.8 154.8 157.7 164.1 170.7 183.9 198.1 210.1 221.7 230.9 240.7 248.9 248.1 238.1 247.2 244.4 243.5 242 241.3 241.3 240.4 239.6 236.5 234.5 229.3 226.3 224.5 220.9 218.6 217.7 216.7 215.8 215.6 214.5 213.6 212 210.3 208.3 206.4 205.2 205.3 203.5 203.1 203.5 203.6 203.9 205.8 206 205.6 203.9 202.3 200.7 199.5 198.8 198 197.1 195.4 193.8 192.6 191.2 189.7 188.9 188.4 188.2 188.1 188.3 188.4 188.4 188.9 189.4 188.4 185.6 185.2 181.8 181.7 176 174.8 171 167.7 168 169.7 170.2 169.9 166.9 162.8 153.8 151.1 147.5 143.7 138.7 135 129.3 120.8 113.6 113.6 119.9 108.6 108.8 106 105.9 109.1 105.5 101.1 99.3 98.9 93.2 93.5 81.1 74.2 68.5 68.3 70 68.4 68.8 69.9 67.5 68.5 68.1 68.8 73.1 71.6 65.2 63.6 63.4 64.2 67 68.6 67.7 67.5 71.4 69.4 65.8 65.7 66.9 72.6 73.7 72.6 71.7 71.8 71.8 71.8 72.2 71.9 73.4 76.8 76.7 77.3 78.2 81.7 83.8 85.2 86.6 86.4 85.3 84.7 82.7
161.9 163.8 164.9 166.7 166.7 168.8 170.3 171.3 172.3 172.6 172.8 173.1 173.2 173.3 179.6 189.3 197.5 205.6 215 223.4 228.9 231.2 242.2 248.1 251 254.8 258.9 263.2 269.5 273.5 271.4 267 256.1 242.7 230.1 218.6 206.9 194.6 183.5 173.5 164.3 157.5 155.6 155.1 154.9 155.2 156.7 162.9 170.6 182.3 196 211.8 225.2 231.6 236.4 241 242.3 234.7 241.4 240.3 237.1 237.4 236.6 235.6 234.8 232.9 231.2 227.8 225.7 223.6 221.5 217.4 218.3 217.8 216.9 216.1 215 213.9 212.4 210.4 209.3 206.9 206 204.7 203.9 204 203.8 202.4 203.7 206.6 207.7 207.5 206.7 205 202.7 202.4 201.4 200.4 200 199.2 197.3 195.3 193.7 192.2 190.8 190.1 189.9 189.9 189.9 189.8 189.9 189.3 189.7 190.1 189.1 185.7 182.3 181.5 178.9 175.1 171.8 168.6 167.2 168 168.7 170.7 168.7 163.3 157.3 153.1 150.3 146.7 142.7 139.4 135.7 129.3 122.8 116.6 110.5 113.7 108.4 106.7 107.4 107.6 110.2 105.3 102.6 99.2 98.4 95.7 85.9 82.2 72 72.1 70.3 69.2 68.6 69.2 71.7 70.1 67.1 67.1 68.5 71 72.1 66.5 63.9 63.7 64.4 66.1 68.3 68.3 65 65.1 64.9 65.3 66.2 66.7 71.1 71.6 70.9 71.1 71.3 71.5 72.5 72.9 72.8 72.3 74.1 75.7 76.6 78.6 82.5 84.7 85.1 85.6 85.7 86.3 84.9 83.3
166.5 168.5 170.1 170.6 172.2 174.9 176.1 177.2 178.5 178.4 177.1 177.1 179.8 181.1 187 199 206.2 213.3 221.3 228.7 236.4 245.1 252.2 256.1 261.6 264.5 270.6 276.2 280.3 280 275.9 269.2 257.6 241.8 228.8 220.2 209.8 197 185.7 175.5 166.4 159.2 156.6 155.8 155.3 155.5 156.9 163.1 169.7 180.2 195.5 212.6 220.8 226.2 231.5 235.6 235.6 231.9 238.4 235 233 232.9 231.6 230.5 227.8 227 225.4 224.4 223.1 221.3 218.4 217.8 218 218 217.1 215.9 214.7 213.1 211.1 209.1 208.1 207 205.5 204.8 204.2 205.1 207.2 208 209.4 209.2 209.2 209 208 206.6 204.8 202.7 201.8 201 200.4 199.2 197.3 195.6 194 192.5 191.3 191.3 191.5 191.2 190.6 190 189.8 190.2 190.6 190.9 189.9 186.8 181.9 179.6 174.8 171.3 168.4 166.6 165.6 166.3 165.9 166.1 164.8 160.5 156.1 152.3 148.5 145.6 142 139.7 136 132.9 127 122.1 116.6 109.4 111.5 107.4 111.9 109.1 106.4 103.8 101.3 98.3 100.2 96.9 85.6 80.4 71.5 75.1 71.4 70.6 69.1 70.4 69.9 70.6 67.3 71 69.7 67 70.7 71.1 65.8 65.5 66.6 65.2 66.9 65.4 64.4 64.5 64.5 65.9 67.4 69.7 70.2 71.4 71.1 71.8 73 73.4 74.4 73.6 74.4 73.8 75 76.3 78.1 79.8 82.3 83.3 83.8 84.7 84.7 85.3 85 84.1
168.5 171.4 174.6 176.3 177.6 179.6 181.2 183.2 185.4 185.3 184.6 186 188.1 189.7 191.5 202.3 208.6 215.8 228.1 235.3 242.7 252.7 259.8 266.6 271.6 275.9 280 283.5 284.6 282.6 278.5 271.9 261.7 245.9 232 220.7 208.7 198.6 187.8 178.5 168.7 162.4 158.7 156 155.9 155.6 156.9 163.1 170.2 179.5 191.1 204.8 214.8 221.4 230.4 230.3 231.2 227.8 232.6 230.6 228.1 227.5 226.2 223.9 223.6 223.8 223.4 222 220.3 218.7 218 218.8 218.9 218.6 217.2 215.6 213.5 211.5 210.5 210.2 209.1 208.1 206.7 204.3 206.3 208.2 209.4 209.3 210.2 210 210.1 210.3 209.7 208.8 206.4 202.3 201.4 200.7 200.2 199.1 197.5 195.9 194.3 192.7 191.9 192.7 193.2 192.6 191.6 191.2 191.2 191.4 193.3 191.5 190.8 188.1 183.3 177.5 172.1 167.9 165.8 164.5 163 162.1 161.1 161.1 160.6 157.3 153.8 149.8 147.6 144.7 141.6 139.8 137.6 136.3 132.5 127.5 121.6 108.9 108.7 108.7 111.9 107.7 102.5 99.1 96.8 96.6 98.3 91.2 84.5 77.2 71.4 74.4 74.2 73.6 72.4 73.3 72.1 70.2 69.7 68.5 65.2 66.4 70.2 69.6 65.2 63.6 63.6 63.9 64.2 64.5 64.1 64 66 67.7 69.2 72 74.8 75.4 73.8 73.4 75.8 75.4 77.1 77.2 74.9 75.8 77.5 77.2 77.3 78.5 79.6 80.8 82.7 83.7 83.8 84.8 85.5 84.3
172.6 176.4 180 181.3 183.2 184.4 186.9 190.4 193.7 193.3 194.3 196.1 199.4 199.4 201 204.1 211.8 221.8 233 240.9 248.3 259.9 268.2 274.7 282 287.4 288.9 288.1 286.6 284 280.8 274.9 263.9 250.8 234.2 221.7 209.8 200.6 188.8 178.3 169.2 163.2 158.6 157.1 156.2 155.7 158.2 165.4 172.6 182.6 189.4 201.2 210.2 217.3 222.1 225 225.8 222.6 226.5 225.1 222.2 220.3 220.5 220.1 220.8 222 221.2 220.1 219.5 219.6 219.6 219.8 220.1 218.8 216.9 215.2 213.8 212.7 210.5 210.9 210.5 209.3 206.7 206.1 210.6 210.7 210.2 209.8 210.7 210.8 211.1 211.4 211.1 210.2 209.2 206.1 202.2 200 198.3 199.5 198.6 196.2 194.6 193.1 193.2 194.5 195 195.5 193.6 192 192.1 191.5 192.3 192.1 192.6 191.2 185.6 177.8 171.1 167.7 164.9 163.5 161.1 159.6 158.6 158.6 157.1 154.2 151.3 148.3 147 144.5 142 140.3 139.1 138.6 136.4 131.8 127.1 116.8 102.2 104.7 102.6 97.4 94.3 92.1 89.9 89.3 88.1 86.4 82.1 76.9 74.1 72.7 68.9 69.1 68.5 67 67.3 66.5 65.8 66.9 64.8 64.7 65 66.4 65.4 63.7 63.5 63.9 64 64.2 64.4 64.2 66.3 68.7 70.7 73.5 78.6 80.4 77.2 75.1 80.3 79.9 79.3 79.2 76.2 76.8 77.4 77.3 77.1 77.7 78.4 82.4 82.4 82.7 83.7 85.9 84.8 84
178.6 181.7 184.8 187 188.9 191.2 194 199.1 200.6 201.4 203.6 205.3 208.3 209.1 211 212.4 218.9 225.5 230.9 241 254.2 267 277.8 285.9 292 295.4 293.9 289.7 285.8 283.1 281.8 274.8 262.5 248.3 228.5 217.3 208.8 200.2 189.9 178.3 169.8 164.7 161.1 158.4 156.6 156.3 159.7 167.7 176.1 183 191 199.1 207.3 209.8 215.1 219.4 220.1 219.2 220.1 219.1 216.4 216.1 217.5 218.2 219.3 220.6 221.5 220.8 221.2 221.4 221.5 221.3 221.3 218.3 216.6 214.8 215.3 213.5 212.1 211.3 211.5 211.6 210.7 211.5 211.5 211.4 211.1 211 211.5 211.9 212.3 212.5 212.5 211.8 210.8 208.8 206.9 201.3 199.6 198.3 198.2 197.1 195.1 194.4 195.3 196.6 197.8 198.6 199.5 198 199.1 195.8 193.5 196 197.9 198.3 193 184.8 177 169.5 166.5 162.7 159.7 159.2 156.9 155.5 153.6 151 148.9 146.9 145.7 144.3 142.5 140.7 139.9 140.3 137.6 134.8 129.7 118.1 102 99.8 96.6 96.4 96.7 94.5 92.5 85.1 84.7 83.6 81.1 72.1 71.4 72 70.5 69.9 68.2 68.9 68.5 69.9 69.5 69 66.9 66.1 65 64.6 64.6 63.5 63.7 63.7 64.1 64.1 65.4 66.8 65.3 68.8 71.5 74.5 79.6 82.4 79.9 76.6 81.2 80 79 78.9 77.8 77.3 78 78.8 78.2 78.1 78.7 81.7 82.1 83 83.4 83.8 85.2 84.8
185.8 188.2 190.6 192.8 194.9 198.7 203 206 207.7 209.5 211.4 213.5 215 214.5 218.1 219.9 217.3 226.7 231.8 245.1 263.4 278.2 288.9 295 299.2 300.6 296.7 290.4 283.3 276.5 276.3 263.8 251.1 235.9 224.6 216.2 209.4 197 188.2 179.6 172.8 168 167 161.9 157.6 157.1 159.8 168.5 177.8 184.9 192 197.6 202.4 204.7 210.8 216.9 218 217.2 215.7 214.8 214.6 215.3 215.9 216.5 218.6 220.2 221.4 222.5 222.9 223.1 223.3 223.1 221.8 217.7 216.3 216.7 216.4 215.4 214.5 212.6 212.8 212.9 213.1 212.9 212.7 212.3 212 212.4 212.8 213.1 213.6 213.6 213.3 213 212.1 210.1 207.6 205.1 201.8 198.5 198.3 199.8 198.8 197.3 197.7 199.2 199.6 202.5 204.3 208.2 207.7 206.3 203.4 206.7 212.1 211.8 204.4 193.4 183.8 173.7 166.3 165 156.6 156.4 154.3 152.9 151.1 149.2 148.1 147.1 145.2 144.4 143.5 141.9 140.3 140.8 138.6 135.9 130.7 121.3 102.3 102.5 109.4 107.6 102.3 99.7 97.6 92.2 83.5 80.1 81.2 73.6 72.2 71 75.3 74.3 73.9 73.2 71.8 73.8 73 70.7 69.3 68.8 66 64.3 64.2 64.2 64.2 63.8 64.1 64.2 66 69.7 65.9 67.9 71.9 75.3 79.2 82.9 80.2 77.2 79.2 79.7 78.9 79.1 78.3 78.3 80 83.2 79.3 78.9 78.7 82.7 82.4 82.6 83.1 84.8 86.4 83.5
191.7 194.5 196.3 199.6 202.9 206.4 210.1 212.2 214.4 216.1 217.9 219.5 219.3 219.5 224.3 227.5 223.7 223.9 239 251.3 268.5 281.8 295.3 299.3 297.9 295.4 291.2 285.1 273.5 265.3 260.6 252.4 243.4 234.5 224.6 215.4 208.6 198.8 189.8 181.6 173.8 168.4 165.2 160.4 157.8 157.9 161.4 169.9 176.9 184.9 188.2 195 199.6 201.7 208.8 217.7 217.9 217.5 213.6 212.4 213.5 214.7 215.1 216 217.9 221 222.8 224 224.6 224.8 225 224.1 220 218 217.7 217.9 216.9 215.8 214.8 214.2 214.7 215.3 215.2 214.7 214.5 214.1 213.9 213.9 214.3 214.5 214.2 214 214 213.8 212.7 211 208.6 206.3 204.1 201.9 200.6 202.1 205.7 204.4 205.4 205.4 206.8 208.1 211.3 213.7 214 211.5 211.4 220.7 225.4 228.2 216.5 197.1 185.8 175.5 165.3 155.2 153.9 152.7 151.8 150.7 149.4 149 148.5 147.6 145.8 144.9 144.2 142.7 140.3 139.5 138.4 136 133.3 124.1 105.8 108 110.5 107.5 108.8 108.8 104.9 95.2 82.8 77.7 75.5 74 71.4 74.6 84.7 83.3 77.8 75.8 74.9 75.8 76.7 75.5 71.9 71 69.5 64.8 64.7 64.3 64 63.8 63.9 64.3 65.6 69.1 67.2 68 73.2 75.4 78.8 82.2 79.9 77.1 77.9 78.6 78.7 78.8 78.8 79.9 86.2 89 82.3 80.1 79.7 80.4 82.4 83 83.1 84.2 83.8 83.7
197.5 200.5 201.8 205.6 208.8 213 216.3 218.5 221.1 222 223.9 225.7 227 229.2 232.3 234.9 233.8 228.6 238 251.1 271.5 285.7 295.5 293.3 289.7 283.4 278 272 260.6 254.4 251.9 244.9 238.2 229.2 221 214.3 208.2 196.3 188.4 182.4 174.7 170.1 166.6 161.6 158.4 158.8 167.1 176 179.7 182.9 185.7 190.6 195.8 199.7 208.4 216.2 217.1 216.8 211.9 211 212.4 214.4 215.7 216.8 217.1 220.8 224.2 225.3 226.5 226.8 227.1 227.1 224.2 223.8 221.4 220.4 217.2 216.2 215.2 215 215.9 217.1 217 216.7 216.3 216.1 215.9 215.7 215.2 215.2 214.5 214 213.6 213.3 212.6 211.3 209.6 207.8 206.4 205.1 203.6 207.7 211 212.3 213.7 214 213.9 214.6 218.2 220.5 221.7 220 221.6 229 232.6 232.1 223.5 198.6 185.9 173.7 165 156.5 151.7 149.9 149.2 148.8 148.3 148.4 148.3 148.3 147.4 146.3 145.8 144.2 141.5 138.7 137.6 135.3 131.8 111.6 110.6 112.6 116.4 115.6 115.2 113.2 107.6 97.2 84.7 80.7 76.1 74 73.2 74.8 79.3 82.3 77.6 77 76.9 76.2 77 77.4 75.3 71.3 72.2 67.5 66.6 64.4 64.6 64.4 64.4 64.5 65.9 66.8 66.2 66.4 72.5 75.1 77.8 80.5 79.6 77.7 78.2 78.6 79.3 79.7 79.8 80.7 86.5 90.3 83.4 81.7 81.1 80.8 80.8 83 83.1 83.2 83.5 83.3
203.5 206.8 208.6 211.3 214.4 218.6 221.9 224.2 227.7 228.5 231.1 232.4 235 237.1 239.3 241 244.9 241 245.3 256.9 275.1 283.3 287.5 281.6 276.4 270.3 263.4 255.1 248.6 246.9 244 236.5 229.7 222.9 216.6 212.6 208.1 197.6 188.2 182.8 176.5 171 168.3 164.9 158.9 161 170.4 170.6 177.3 179.4 182.5 187.6 193.7 199.9 208 214 215.4 214.9 210.8 209.4 212.1 214.4 216.6 217.8 218.4 223.3 225.9 227.3 228.8 229.1 229.4 229.3 228.2 226.8 225.4 223 219.9 216.7 215.7 216.6 216.8 217.6 217.8 217.9 218 217.7 217.4 217 216.5 215.8 214.9 214.1 213.8 213.4 212.7 211.8 210.5 209.3 208.1 207.2 206.1 212.4 216 215.8 218.4 221.5 222.7 224.2 225.9 233.7 235.8 235.1 228.3 229.6 231.9 232.7 221.9 194.4 177.8 174 164.4 155.9 148.3 145.9 146.3 146.9 147.5 148 148.6 149 148.5 147.8 146.6 145.8 143 139.4 135.3 132.4 128.6 110.4 121.6 117.9 122.5 122.8 117.9 116 104.8 102 94 82.7 80.6 74.2 72.4 77.2 78.6 79.6 79 79.2 78.4 77.3 80.7 79.3 74.6 69.8 69.2 68.3 69.8 67.1 64.7 64.3 64.4 64.5 67 68.9 67.7 67.2 69.5 72.8 75.7 77.8 78.4 78.1 78.7 79.2 79.8 80.3 80.7 80.3 84.2 89.5 84.3 82.6 82.1 82.4 82.5 82.3 82.5 83.5 85 85.6
209.6 212.7 215.1 217.4 220.1 223.3 227 230.3 233.2 234.2 237.1 238.8 240.2 243.9 247.9 251.2 252.7 251.3 253.6 262.1 271.8 272.9 275.6 270.3 263.7 256 250.7 247.4 241.4 241.2 235.7 227.7 222.3 217.5 214 210.1 209.1 199.5 189 183.6 175.5 171 169 164.6 159.3 159.4 163.2 169.4 173.7 176.1 181.1 186.5 194.5 201.8 208.2 212.7 215.1 212 208.4 208.6 212.4 214.9 217.3 218.2 221 225 228 229.7 231.1 231.4 232 231.8 231 229.8 228.3 226 223.2 219.8 219.6 220.1 219.2 219.3 219.4 219.6 219.7 219.1 218.8 218.1 216.9 215.9 215.1 214.3 213.9 213.4 212.7 212.4 211.8 210.9 209.8 209 208.3 213.9 218.6 220.1 223.5 228 232.3 236.3 237.4 240.1 239.1 237.6 227.5 229 230 231.4 223.3 198 176.8 173.2 161.9 153.7 146.7 144.6 144.8 145.1 145.8 147.1 147.6 147.7 147.7 146.9 144.9 144 143.5 140.5 136 129.8 119.5 114.7 123.5 119 121.2 122.8 119.5 118.8 109.4 107.7 103.7 87.7 78.2 78.6 72.9 71.8 80.7 82.3 79.3 79.3 79.3 79 80.8 83.9 77 74 67.5 67.6 71.1 66.8 64.3 64.2 64.1 65.3 67.9 67.5 69.5 68.7 69.5 70.4 72.9 75.6 77.8 78.3 78.9 79.7 80.3 80.8 80.9 80.7 81.6 87.3 85 83.3 82.8 83.1 83.5 83.8 83.4 85.4 85.5 85.8
216.4 219.7 222 223.6 225.8 228.3 232 236.5 239.5 239.4 242.6 243.3 246.4 251.9 257.4 261.7 261.7 258.9 255.2 261 266.4 267.6 264.8 259.5 250.4 244.7 243.8 240 236.3 236.1 228.5 219.9 215.3 212.3 211.5 206.3 203.4 195 187.5 183.4 174.9 172.7 170.9 165.5 162.2 160.1 161.6 167.6 169.8 173.9 180.6 187.5 196.7 204.6 208.4 213.3 214.8 211.5 207.7 209.8 214.5 216.7 218.3 218.5 223.3 227.5 230.1 232.1 233.4 234 234.6 234.4 233.8 232.5 230.9 228.6 226.4 223 222.9 221.4 221.1 221 220.8 221.1 221.3 220.5 219.2 218 216.9 216 215 214.2 213.5 213 213.3 213.6 213 212.4 211.8 211.1 210.3 215.4 220.2 225.6 231.6 234 239.9 239.5 236.8 237.2 237.3 236.3 222.9 225 226.7 230.6 223.1 196.4 180.5 172.8 163.6 152.1 144.5 144.1 143.8 143.8 144.3 145.6 146.3 146.4 145.5 143.9 142 141.3 140.5 138.9 137.5 130.5 120.5 114.8 120.2 119.9 124.4 120.5 121.8 122.9 116.7 104.6 104.6 93.6 82.4 79.1 74.7 71.6 79 82.1 79.6 78.6 79.4 79 78.5 84.5 79.2 76.6 73.6 64.7 64.9 64.1 64.1 64.5 64.2 64.9 68.4 69 70.6 72.5 73.1 70.8 72.9 75.3 77.7 78.5 79 79.3 79.8 80.9 81.1 81.1 81.5 83.7 84.3 83.3 83.5 83.8 84.1 84.3 83.4 84 85.9 85.6
224.1 227 228.9 229.9 231.4 234.7 238.4 244.7 246.4 246.9 249.8 252.4 260.2 264.3 270.2 273.3 274.6 267.7 257.4 258.3 257.6 255 254.1 251.6 243.9 238.5 237.8 234.1 232.3 230.7 224 215 209.3 207 205.2 201.2 196.8 189.6 185.5 180.8 175.2 173.7 169.6 164.9 163.5 161.6 160.5 165.9 168.8 174.8 183.2 190.7 199.8 206.4 209.6 212.7 213.6 211 207.4 208.7 215.9 218 219.6 220.3 226 230 232.6 234.6 236.5 236.8 237.5 237.7 237.2 235.2 233.4 230.7 228.4 225.8 222.8 222.5 222.2 222.2 222.3 222.5 223.2 221.3 219.2 218 217.1 215.8 214.4 213.6 212.9 212.6 212.7 213.1 213.8 213.5 213.4 212.9 212.5 213.3 218.7 227.6 238.2 239.5 242.9 237.3 231 232 231.5 230.3 218.1 221.9 221.5 222.1 210.1 184.7 181.1 169.4 163.4 153.2 145.5 144.5 143.9 143.4 142.7 143.6 144.3 145 142.9 140.5 139.8 137.2 137 136.8 137.9 137 123.4 119.1 120.9 122.7 125 118.9 119.6 119.3 116.4 109 97 100.8 91.9 80.7 78.5 73 72.2 77 79.3 77.8 78.1 77.1 77 81 78.4 74.9 72.6 66.1 64.1 63.6 63.7 64.6 64.7 64.5 66.9 70.4 67.9 71 71.5 69.4 72.8 76.2 77 78.8 78.5 78.5 79.4 80.5 80.9 81 81.9 82.9 84.1 83.8 84 84.2 84.6 84.4 83.8 86.3 86.6 86.6
232.2 234.8 236.3 237.2 237.4 242.2 246.6 252.9 256.7 258.4 260.7 264.9 270.4 275 281.5 283.8 283.3 275.6 261.8 252.3 245.4 242.1 244.7 241.9 235 230.6 230.6 228.9 228 225.7 218.4 210.9 203.5 200.3 198.2 196.9 193.1 186.5 183 177.6 173.5 171.4 168 163.6 162.3 161.2 162.4 164.4 169.4 177.4 184.4 193.3 202.7 208.9 208 209.7 209.7 207.4 206.9 209.7 215.5 218 220.5 223.1 227.3 231.6 234.7 237.2 239.3 240.1 241.2 241 240.4 238.5 236.3 233 230.4 227.9 224.6 223.6 223.2 223.1 222.9 222.6 222.5 221.9 219.7 218.1 216.7 215.3 213.8 212.5 212.1 211.9 211.9 212.6 213.7 214.2 215.1 214.6 213.9 212 212.8 224.6 239.2 236.4 243.1 234.9 230.4 227.8 225.6 223.1 213.1 214.5 214.6 214.5 208 181.7 181.7 171.8 163.9 156.6 145.7 144.5 143.8 143.3 142.7 142.3 142.4 142.5 141 140.5 139.8 137.8 137 137.7 138.1 137.9 131.2 124.9 128.1 126.4 122.2 119 118.8 119.6 117.2 115.9 103.5 91 87.3 80.6 79.7 75.9 73.6 75.1 76.5 77.2 77.4 77.6 77.5 79.2 77.2 72.4 75.6 72 64.4 63.8 63.2 63.9 64.7 63.5 65.6 66.6 66.5 69.6 69 68.8 71.8 76.5 76.6 78.4 78.2 77.9 78.9 80.1 80.8 81.7 82.5 83.3 84 84.2 84.3 84.6 84.8 84.7 84.1 86.1 87.2 85.4
242.4 242.7 243.9 244.1 245.1 250.6 256.4 262.7 268.2 268.5 271.7 277.4 283.7 287 290.4 289.1 284 280.9 269.9 249.9 244.7 238.9 234 231.9 226.9 225 224.4 222.3 222.3 219.8 213 205 200.2 198.1 196.3 195.3 191.1 183.2 179.7 176.2 171.3 168.1 166.3 162.7 161.6 161.8 163.1 167.4 171.9 178.6 183.9 192.5 203.7 206.7 204.1 206.6 206.8 205.8 206.7 210.9 215.2 218.2 221.1 226.4 228.7 232.5 236 239.6 242.6 244.9 245.3 245.2 244.7 243.5 238.5 234.7 232.7 229.5 225.9 225 223.9 223.4 223.2 222.9 222.5 221.2 219.1 217.1 215.8 214.3 212.9 211.5 211.8 211.2 211.2 211.4 213.5 213.8 214.6 215.9 217.4 214.4 211.2 215.3 228 230.6 240.6 233.7 226.6 225.5 219.3 217.7 207.9 209.1 207 207.6 204.6 180.3 176.7 174.4 166.8 159.6 146.4 144.4 144.1 143.7 143.1 143.3 143 142.4 141.3 140.1 138.7 137.7 137.3 137.4 138.9 140 129.4 132.1 135.5 131.1 127 122.6 120.5 121.4 122.3 117.1 107.9 96.5 84.5 79.8 78.4 78.7 75.9 76.1 77.8 75.3 77.3 76.6 77.4 77.2 77 71.4 70.6 74 65.8 63.9 63.1 63.6 64.1 64.6 64.4 64.6 65.9 66.7 66.6 67.4 68.7 74.6 77.3 77 77.7 77.8 78.6 80.4 81.2 82.1 82.9 83.7 84.2 84.4 84.5 84.8 84.9 84.9 84.5 84.8 85.3 85.5
252.6 253 252.7 252.4 253.9 261.1 268.9 274 277.9 279.5 282.9 288.7 294.4 293.8 295.4 292.1 288 281.6 264.9 245.4 244.4 238.5 228.5 223 221.5 221.5 220.7 216.1 216.6 212.9 207.6 201.9 199.8 198.1 196.4 193.8 188.5 181.4 176 172.8 168.9 166.7 165.2 162.4 162.8 163.9 164.5 167.3 171.2 178 181.7 190.6 200 201.8 201.4 204.5 204.7 205.4 207.7 212.2 214.1 216.3 221.3 226.2 230.1 233.3 237.3 241.9 246 249.4 251.4 251.4 249.1 246.3 239.6 235.8 233.5 229.2 225.9 225.3 224.4 223.9 223.4 223.1 222.6 220.4 218.3 216.2 214.1 212.4 211.6 211.3 211.8 211.3 208.1 209.5 211.5 212.6 213.6 214.8 216.3 216.4 212.2 210.9 218.9 224.2 230.1 229.9 222.2 218.3 214.4 211.6 203.2 204.5 203.3 202.2 202.1 176.9 173.7 174.4 168.3 162.1 146.2 144.4 144 143.9 143.9 143.6 143.6 143 142 140.8 139.4 141.6 142.2 141.1 134.4 130.8 138.3 140.2 142.8 136 134.9 128.3 120.5 119.2 119.8 122 123.2 100.8 89.4 81.6 80.9 79.8 77.9 77.8 78.4 74.6 76.9 75.3 76.3 75.4 76.5 72 68.5 66.8 65.2 64.3 63.5 63.8 64.3 64.6 64.7 64.9 68.5 67.1 66.2 66.9 68.3 71.4 73.3 75.8 77.1 76.6 78.6 80.7 81.6 82.4 83.2 83.9 84.3 84.5 84.7 84.9 85.1 85.1 84.8 84.9 85.3 85.3
264.1 264.2 263.4 262.3 265 272.8 279.5 282.9 286.3 289.2 293 296.8 302.6 302.6 298.7 291.5 284.6 275.3 260 240.8 242.1 238 229.9 223.8 218.2 217.4 215.1 210.3 210.9 207 203.1 198.1 198 201.2 198.5 194.4 184.5 176.2 171.8 168.9 166.7 165.1 165 172.6 168.5 166.8 166.6 168 170.9 174.8 180 188.8 196.2 198.2 199.1 201.8 203.6 205.6 208.4 210.6 212.4 215.4 220.6 223.2 229.2 234.3 239.3 243.5 249 255.1 257.4 256.3 253.3 247.3 239.2 233.9 230.5 226.9 225.4 225 224.3 223.6 223.1 222.7 221.5 219.5 217.3 214.7 212.1 210.7 210.8 211.1 211.4 209.6 206.6 207.5 209.4 210.8 211.8 212.3 212.6 212.8 211.2 208.4 212.1 216.4 222.2 224.7 219.4 212.4 209.8 207.3 199.5 199.4 195.3 194.3 194.9 175.4 170.3 168.7 165.2 160.5 149.3 147.1 146.9 143.7 143.5 143.8 143.7 142.5 142.4 141.5 143 148.3 149.3 147.4 141.4 138 138.2 141.7 143.2 135.8 134.8 131.2 122.7 118.6 117.3 118.2 111.1 98 90 81.9 81.8 80.8 79.4 75 74.4 74.1 74.2 74.7 74.8 74.8 73.3 72.8 71.5 66.6 66 64.8 64.1 64.2 64.6 65 65 65.3 70.1 69.4 69.1 68.9 70.7 73.8 73.4 75.8 76.5 76.3 78.9 80.8 81.9 82.7 83.5 84.1 84.5 84.7 84.9 85.1 85.3 85.2 84.4 84.2 84.7 85.2
276.8 276 273.5 272.6 276.1 282.4 289.3 293.8 294.4 297.4 299.6 302.5 306.9 299.1 292.1 285 275.7 266.8 255 237.4 234.4 231.9 227.1 221 216.1 211.2 209.8 207.5 205.6 202.5 199 194.3 195.3 196.8 193.3 188.6 180.7 172.5 169.6 166.6 164.5 164.9 167.5 167.8 168.6 168.8 168.3 169.9 175.6 178.8 177.6 187 194.3 195.6 197.4 200.4 203.1 205.2 208.6 210.4 212 216.5 221.2 224.2 228.1 235.4 242.6 249 252.9 257 259.4 259.1 254.7 246.9 238.6 233.4 228.3 225.4 224.9 224.5 223.9 222.6 222.2 221.9 220.4 218.4 215.7 213.1 210.5 208.9 209.2 209.7 208.8 206.3 203.7 206 207.5 208.9 209.6 210.1 210 210.1 208.5 206.3 207.7 209.1 216.1 223.1 224.9 214.3 210 206 199.2 196.8 192.6 187.4 186.8 174.2 168.6 166.6 165.6 161.9 155 151.1 151.3 145.6 145 144.4 144 143 142.6 142.6 146.9 152.5 154.5 153.9 146.1 142.4 138 139.7 138.7 137.3 134.6 125.4 121.4 115.4 111.1 112.4 108.1 96.8 90.1 82.2 81.4 82.1 81.6 75.8 73.8 73.8 73.9 76.2 76.9 77.3 76.7 74.5 76.9 69.7 65.7 65.5 65.3 65.5 66.3 65.4 65.3 65.5 70.2 68 68.9 72.6 74 74 73.9 75.3 74.1 76.8 79.2 80.8 82.2 83 83.6 84.3 84.6 84.8 85 85.2 85.4 85.3 84.9 83.8 83.9 85.2
287.1 287 284.3 283.4 284.3 294 303.3 310.7 302.8 298.8 297.5 300.7 298.4 290.5 283.9 274.3 264.9 254.4 243.9 233.7 231.2 229.6 224.2 217.2 214 210.6 205 202.4 201.3 199.5 194.4 190.4 189.8 189.2 186.5 180.7 174 169.8 167.5 165.1 166.1 165.6 167.4 168.7 169.6 170.1 170 171.4 177 181.5 183 186.9 191.5 195.1 197.1 199.8 202.4 205 208.8 212.5 215.4 218.9 223 228 232.9 245 250.4 251.9 254.2 256.6 258.7 259.6 252.4 244.6 238.4 231.2 226.9 224.9 224.5 224 222.7 220.9 220.8 219.9 218.5 216.4 213.8 211.3 208.8 207.3 206 206.1 205.5 203.5 201.6 203.7 206.1 207 207.6 207.6 207.5 207.2 205.5 203.1 203.4 205.2 215 221.2 223.5 215.4 206.2 201.2 197.5 195.7 192.7 186.4 180.3 175.6 172 171.5 169.9 165.8 161.6 158.4 157.9 151.9 148.6 146.4 145.2 144.3 145 145.7 148.7 151.3 158.2 156.8 148.1 142.3 141.1 140.3 137.3 137.2 135.3 123.3 116.7 114.9 109.4 108 103.3 96.3 90 82.6 80.6 80.7 79.7 73.6 72.9 73.9 73.9 75.7 74.3 77.3 75.1 74.5 75.4 70.6 65.1 64.8 64.4 65.4 65.1 65.6 65.5 65.7 69.5 69.3 67.2 72.1 73.9 71.3 71.4 73.1 76.9 76.6 79.1 80.8 82.4 83.2 83.8 84.5 84.7 84.9 85.1 85.4 85.6 85.5 85 84.1 83.8 83.9
298.6 297.8 295.7 294.8 296.9 303.2 317.5 317.4 300.9 292.8 291.1 291.5 287.5 279 271.9 260.9 254.4 248 239 230.1 229.9 226.9 219.5 213.5 210.1 206.1 202.5 198.9 196.6 195 191.6 188.2 185.8 181.4 178.7 173.6 169.7 167.6 166.1 165.2 167.2 167.3 167.7 169.4 170.5 171.5 173 173.6 181.4 185.2 187.1 189.9 192.6 194.3 197 199.4 202.6 206.5 211.5 214.6 218 221.5 225.7 231.4 239.4 248.2 253.6 254.4 253.2 255.2 257.5 257 250.4 243 236.2 230 226.1 224.5 223.9 223.1 221.5 220.6 221 218.4 218.4 219.7 216 211.1 207.8 204.1 203.1 203.3 203 201.4 199.8 202.6 204.2 204.9 205.3 205.2 204.9 204 201.8 198.9 195.6 197.4 207.1 217.6 218 212.8 200.6 195.5 194 194.7 191.8 187 182.2 178.6 176.2 174.9 173 170.8 166.5 163.2 162.2 157.9 151.7 149 147.6 147.6 148.2 148.4 148.7 149.1 154.5 155.1 148.2 144.1 143.6 138.5 134.8 132.9 132.2 122.5 117.8 116.6 109.1 105.5 100.3 91.1 86.9 81.8 78.5 78.4 76.4 72.1 70.5 72.5 73.4 72.1 70.5 76.9 74.2 74.2 72.3 67.8 65.1 65.7 64.7 65.2 64.9 65.5 65.5 65.7 68.1 67.2 66.8 67.1 69.2 71 71.4 71.5 76.1 76.2 78.9 80.9 82.3 83.4 84.1 84.6 84.8 84.9 85.1 85.2 85.1 85.1 85 83.3 84.1 83.9
309.2 309.5 311.3 309.6 309.5 316.6 319.1 311.5 297.7 289.1 286.1 279.3 275.9 268.3 260.2 249.8 245.9 241.3 236.5 230.2 227.6 225.1 216.5 212.8 210.2 208.1 203.4 200.6 196.9 193.2 189.3 186.2 184.7 174.2 174.1 171 169 167 165.2 166.8 167.9 168.3 169.1 169.7 172.8 174.3 178.5 181.6 185.6 188.4 190.2 191.6 193 194.4 196.6 201.9 206.6 210.7 213.8 217 220.4 224 228 232.2 237.5 247 251 251.3 251.3 253.5 255.7 254.3 247.8 241.2 234.8 230.3 226.2 224.8 223.5 222.2 220.9 221.2 221.1 220.3 221.2 221.4 218.7 213 208.7 204 200.9 200 201 199.5 198.9 200.8 202.3 202.9 202.9 202.5 201.6 200.7 198.1 195.5 193 190.9 194.8 207.1 209.1 204.5 196.9 192.2 191.7 190.7 190.3 187.3 183.5 181.7 179.6 177.5 175.3 173.2 170.4 166.5 161.8 158.9 154.9 150.8 150.1 150.1 149.8 149.7 148.6 148.4 149.2 152.7 148.7 145.1 143.1 141.7 133.7 131.2 129.8 123.2 117.4 112.7 107.4 104.2 97.7 88.6 82.3 76.6 73.1 74.5 71.6 70.9 70.7 69.8 70.1 70.8 70.3 74.6 72.1 73.3 74.1 65.5 68.4 66.5 65.1 65 64.9 65.7 66 66.1 66.2 66.9 67.8 67.6 69.4 75 75.8 73.4 75.5 76.3 78.8 80.7 82.3 83.3 84 84.4 84.3 84.4 84.5 84.2 84.5 84.3 83.5 83.4 85 84.9
318.8 322 324 324.3 315.2 321.1 317.9 309.3 295.8 285.3 278.2 271.6 265.8 257.4 251.6 243.9 239.3 235.8 233.6 229.5 226.8 220.9 215.8 213.5 209.9 205.3 202.6 201 198.7 196.6 191.6 188.9 186.5 181.1 173.8 169.4 168.2 166.7 166 167.5 168.7 169.1 170.6 171.1 175.1 179.9 184.5 186.1 187.9 190 190.7 191.4 192.6 193.7 199.8 205.9 211.3 214.3 216.8 219.3 222.6 225.5 229.4 232.7 236.3 244.2 246.9 247.3 248.5 251 254 252.9 246 240.3 235.6 231.2 227 224.9 223.2 222.5 222.1 222.5 222.3 221.9 222.2 221.9 218.7 214.8 210.6 206.3 203 201.5 200.7 198.8 196.9 199.2 200.3 200.3 199.8 198.8 197.7 196.5 194.6 192.2 190 188.1 188.1 196.4 202.4 197.9 191.1 188.4 188.5 188.7 188.6 187.4 184.4 184.8 182.5 179.4 176.5 174 171.3 165.4 160.6 157.7 154.6 151.4 150.9 151.3 151.8 151.5 149.4 150.8 148.3 151.3 146.9 145.8 143 146.2 135.4 127.1 125.3 127.9 118.1 111.2 108.9 104.2 98.1 88.1 80.9 78.1 76.1 72.3 70 70.3 71.3 70.3 70 72.3 70 70.6 72.3 72.7 69.5 66.3 68 67.1 65.1 65 66.3 66.5 66.6 66.7 66.8 70.3 70.5 70.5 69.3 76 76.8 76.6 75.5 76.3 78.4 80.6 82.2 83.2 83.9 84.2 84.1 83.9 83.3 83.1 83.2 82.9 82.6 82.9 84.8 86
329.6 332.8 335.3 329.1 310.7 317 311.7 301.9 294 282.2 273.2 264.1 256.9 250 244.9 241.8 238.9 234.8 231.8 228.6 224.8 220.4 217.4 212.9 209.8 205.6 203.4 202.1 199.7 196.8 194.1 190.7 188.2 184.3 174.2 168.6 168.1 166.8 168 168.1 173 171.9 172.7 171.6 176.6 181.7 184.8 186.7 188.9 189.9 190.2 191 192.2 201.4 204.1 210 215.3 218.4 220.1 222.4 224.8 226.7 229.2 231.2 234.9 241.6 242.1 243.8 246.2 250.7 252.7 250.9 245.2 239.5 235.9 232.3 227.8 224.2 223 222.8 223 223.1 223.5 223.3 223.2 222.1 219.8 216 212.2 208 204.7 202.3 200.9 199.8 196.6 197.2 197.5 196.8 195.7 194.5 193.5 192.4 190.5 188.8 187.2 185.7 184.7 189.3 198 193.9 186.5 185.1 185 184.1 185.3 184.9 184.1 187.5 185.2 181.9 178.8 175.9 172.3 167.3 162.9 159.2 156.2 152.6 151.9 152 153.9 154.6 150.7 148.4 147 148.6 143.4 146.1 141.9 142.8 134.1 131.2 125.5 120.6 118.2 111.2 108.4 105.6 100.5 89.7 81.7 77.6 73.3 71.4 70.3 70.7 71.2 70.9 74.5 69.3 69.1 69.4 70.5 70.1 67.6 66.6 70.3 67.6 68.5 67 66.7 67.3 67.4 67.6 67.2 71.7 71.9 70.7 70.2 73.4 76.8 77.1 76.8 76.5 78.4 80.6 82.1 83 83.7 83.9 83.6 82.8 82 81.7 81.9 81.9 82 82.3 83.6 82.7
335.3 340.5 337.1 324.7 308.4 307.7 302.3 296.1 290.1 278.3 268.9 260.9 251.7 244.4 240.9 240 237.8 234 231.1 231.3 226.2 221.3 218.5 213 208.9 205 203.1 201.7 200.4 197.6 194.5 192.5 188.5 181.1 171.3 168 167.3 167.7 168.3 169.3 173.2 178.7 179.4 175.6 177.9 182.1 185.5 187.7 189.8 190.5 190.7 192.5 194.2 202.1 209.4 214.1 218.9 220.8 222.2 223.9 225.5 227.4 228.4 229.2 232.6 238 238.4 240.8 244.9 249 251.2 249.9 246.5 241 235.3 231.7 228.6 224.2 223.4 222.9 223.2 223.7 224.5 225.1 223.3 220.8 217.4 213.8 209.7 206.6 203.8 202.2 200.6 198.7 196.6 194.6 194.3 192.9 191.9 191.1 190.1 189.1 188 186.4 184.8 183.6 182.7 181.9 190.9 189.7 182.5 181.7 179.9 179.8 181.2 181.9 182.1 188 186.1 184.2 180.5 177 173.3 169.2 165.1 160.7 157 153.8 152.5 152.9 154 153.5 152.1 148.5 146.7 145.8 141.1 139.9 137 136.7 136.9 133.7 129.6 121.3 116.5 114 111 107.3 101.9 91.4 81.1 75.4 72.5 71.2 70.3 70.6 70.6 71.2 74.7 70.3 68.7 69.5 70 70 68.7 68.2 69.7 69.4 69.3 67.5 69.5 67.4 68.1 68.4 68.1 71.2 71.9 72.3 71.3 74.7 79.4 77.8 78 77.3 78.4 81 83.5 84.5 84.7 83.7 83.3 82.7 82.2 81.8 81.4 81.6 82 82.3 82.2 81.5
335.7 334 329.1 319.9 303 299.2 295.9 289.8 284.3 275.5 266.1 259 247.2 241.7 240.8 240.3 238.6 235.7 235.2 233.9 228.2 221.4 216.7 212.6 207 203.9 203.9 201.7 199.6 196.9 193.9 189.2 185.5 176.2 169.4 167.9 168.3 168.1 168.8 171.2 176.3 177.7 182.6 179.6 179.2 182.8 186.3 188.4 190.4 190.4 191.5 194.9 199.5 204 213.2 218.5 220.9 222.6 223.9 225 226.4 227.6 228.2 228.6 230.4 234.9 234.7 238.2 242.6 246.1 248.8 248.3 247.2 240.8 234.1 230.1 227.3 225.2 222.6 222 221 222.2 223.8 224.7 224 220.8 217.1 212.5 208.3 206.2 205.2 202.7 199.6 197.4 195.2 193.6 192 189.9 188.9 187.8 186.7 186.5 185.6 184 182.5 181.6 180.6 179.4 184.4 180.6 181.4 177 176 174.7 176.9 177.9 178.9 185.5 185.8 184.5 180.4 176.3 173.2 170.3 167.4 163 157 153.4 152.5 153 153.4 151.9 151.8 147.4 143.5 142.7 140.7 138.6 135.4 136.9 137.4 138 132.1 124.9 118.7 114.6 115.1 106.8 100.6 91.5 81.8 77.2 71.2 72.1 69.9 71.1 71.1 71.6 74.3 70.1 68.5 69.8 70.6 71.2 70.3 70.2 74.7 75.2 70.5 70.9 69.1 69 69.2 69.8 69.7 71.4 72.8 75.2 74 73.3 77.6 78.5 78.5 77.8 78.6 82 85.1 87.6 85.8 83.5 83.1 82.7 82.3 82.4 82.1 81.7 82.1 83.5 82.1 81.4
330.6 327.8 320.5 305.9 297.5 291.8 287.5 285.3 284.9 279.6 267.9 257.7 245.5 241.9 241.8 242.5 241.1 237.9 235.7 233.1 227.4 221.6 217.3 210 208 203.2 201.6 200.9 197.1 192.8 188.9 185.3 179.5 171.3 168.4 168.3 171.4 171.5 170.4 172.8 178.2 180.6 183.2 181.3 180.3 184 186.6 188.4 190 191.4 193.4 200.1 206 211.4 217.1 220.6 222.3 224 224.9 225.6 226.3 227.2 227.9 228.2 229.3 231.8 232.8 235.8 240.2 242.9 245.3 244.9 243.3 237.3 231.3 227 225.8 223.6 220.6 218.6 219.4 220.3 221.3 222.1 222.9 221.3 218.1 213.1 208.4 207.9 207.9 205.5 200.6 196.9 193.8 190.9 188.3 186.4 185.2 184.6 184.8 183.6 183.1 181.5 180.5 179.4 178.1 177 179.2 181.6 173 172.7 173.2 171.5 173.1 175.5 176.9 182 183.6 182.9 180.4 175.4 172.3 171 169 165.4 158.7 154 153.4 153.6 154.5 155.7 149.8 144.2 141.5 139 140.5 139.9 135.1 136.7 140.6 139 138.8 127.1 114.5 116.3 113.3 102.1 91.7 85.8 80.8 77.4 71.9 72.4 71.1 71.6 71.5 72.3 72.2 70.8 68.6 71.2 70.7 72.7 71 69.4 72.5 75.2 73.8 73.5 71.4 70.9 70.5 71.4 70 72.5 75.5 75.3 74.8 74 77.4 78 81.4 80.1 79.3 81.4 85.4 86.7 85.6 84 82.5 82 81.4 81.6 81.3 81.5 81.1 82.3 80 78.1
325.8 320.3 310.1 295.8 292.9 285.3 278.8 280.1 284.3 281.9 271.9 260.7 250.6 246.4 243.9 243 241.5 239.2 236.7 234.3 231 225.1 212.4 206.8 204.8 204.4 201.2 198.2 193.7 188.2 186.3 181.1 175.9 169.7 168.5 171 171 172.9 173.2 173.6 176.9 180.2 182.5 184.3 183 184.4 186.8 188.9 191.8 195.5 200.6 206.2 211.5 215.7 220 222.4 224 224.6 224.8 225.5 226.3 227 227.5 228.4 229.4 230.3 232 233.8 236.9 239.1 240.9 238.9 236.3 231.1 227.8 224.7 222.9 220 217.2 217.5 218.5 218.7 219.3 220.1 220.8 221.3 220.2 215 211.4 210.9 210.6 208.6 204.3 199.7 198.9 194.7 188.7 184.6 183 182.7 182.9 181.8 180.5 179.4 178.3 177.3 176.1 174.6 174.2 178.1 175.7 171 170.1 170.6 174.8 175.9 176.5 179.8 181.1 184.3 183.4 177.9 172.1 169.9 168.7 166.9 161.2 155.3 154.4 154.3 153.8 154.4 153.4 147.8 142.9 140.6 137.9 141.4 136.9 133.8 133.9 136.4 134 125.9 114.4 112.5 112 106.5 97.1 87.7 81.5 77.5 71.8 73.1 70.2 71.1 72.4 72.8 72.5 70.3 69 68.6 68.7 72 72.7 70.2 71.4 74.7 75.1 74.9 71.7 71.4 70.6 71.1 71.4 71.2 74.7 75.6 76.3 75.7 79 80.8 81.4 80.7 80.6 80.9 84.3 86.5 85.6 83.7 82.1 81.2 79.7 79.4 79.2 80.3 80.3 81.1 78.8 77.8
317.3 311.2 301.5 286.5 288.1 280.8 272.7 277.5 282 285.7 275.1 265.7 252.9 248.8 246 244.7 243.4 240.6 238.3 234.6 231.4 225.7 208 205 204.2 203.9 198.3 192.2 190.2 185.5 180.6 174 170.3 169.2 170.8 173.2 175.2 174 175.4 175.5 176.9 179.2 182.3 184.6 184.9 184.9 187.1 191.2 199 200.4 205.2 210.2 214.4 218.7 222.5 223.8 224.4 225 225.3 225.3 226.1 226.9 227.6 228.3 228.8 229.8 230.8 232.3 233.8 234.6 234.4 231 230.1 229 224.7 221.2 218.9 216.3 216.8 216.7 216.9 217 217.4 218.2 219.3 219.6 218.9 218.1 213.8 213.2 212.6 210.1 206.1 200 198.8 195.9 191.3 185.9 182.6 180.9 181 179.9 178.5 177.5 176.5 175.1 173.4 170.9 171.6 173.7 172.5 171.2 169.4 168.6 170.1 173.5 176.3 177.9 179.5 183.3 182.6 179.8 174.9 170.3 167.5 164.2 163.2 156.4 154.2 154 151.9 150.2 152.4 147.6 141.6 142.2 139.2 137.2 138 133.1 130.7 130.8 134.1 124.6 115 110.5 112.4 111.2 101.7 90.3 82.5 75.4 70.9 73 70.2 70.6 71.7 75.5 73.9 73.3 70.7 69 68.7 70.8 72.8 71.3 70.4 72 75.1 74.9 74.5 71.8 70.7 70.8 70.7 71 73.9 76.9 78 77.6 76.8 81.2 81.6 80.9 81.6 83.5 86.4 88.2 91.2 87.6 83.5 80.8 79.2 79 78.8 79.1 78.6 78.3 77.4 78
311.7 304.6 294.4 278.5 279.5 273.8 269.2 273.3 275.5 278.4 270.4 261.5 253.8 250.7 248.4 246.5 244.7 241.9 239.9 235.2 231.6 221.2 206.9 204 203.3 201.4 194.5 192.7 183 178.8 174.9 171.8 169.9 169.1 173.3 175 176.4 176.6 177 177.4 178.5 180.9 183.2 185.5 189.3 192 190.2 197.9 202.8 204.3 208.7 212.7 216.8 221.2 223.6 224.2 224.9 225.5 225.8 225.7 226 227 228.1 228.7 229.3 229.8 229.4 230.2 231 230.4 228.6 228.5 228.2 224.4 220.8 217.7 216.1 215.2 215.1 215.2 215.4 215.7 215.8 217 218.2 219.3 218 215 212.2 211.8 210.8 208.2 203.2 198 195.7 191.7 187.8 183.9 181.3 180.3 180 178.4 176.5 175 174 172.1 170.3 167.8 165.5 168.2 171.3 171.2 170.4 168.1 168.5 171.5 172.9 176.2 178.4 179.9 179.6 177.2 173.7 171.3 168.3 164.7 160.5 156.4 153.6 152.7 150.8 148.2 146.7 146.8 140.9 140.5 140.1 134.1 135.2 133.8 127.9 126.8 126.5 124 113 105.8 112 110.1 106.4 91.9 83.5 76.6 71.2 70.4 70.2 70.5 71.1 73.8 75.3 76.2 73.7 69.6 69.3 70.6 75.2 75.6 74.9 71.3 73.3 73.4 73.8 73.8 71 72.3 72.2 71.9 73.6 77 79.1 77.7 77.2 80 83.4 83.6 82.5 84.3 87.1 89.3 91.2 89.1 87 82.6 80.3 78.9 78.4 77.8 77.2 76.7 76 76
308.7 300.1 286.5 269.2 267.3 261.6 260.2 261 264 266 263.3 260.6 255 253 251.9 248.5 245.1 242.5 238.8 232.6 225.6 219.2 209.6 202.9 201.1 198 193.4 189.1 183.4 177.9 174.3 171.4 170.3 170.7 174.2 177.7 176.9 178.4 179.3 180.5 181.3 182.7 186.7 191.1 194 198.2 199.5 197.1 203.5 207.2 210.8 214.8 219.1 223 225.5 225.7 225.9 226.1 226.3 227.1 228 228.9 230.2 230.3 230.5 230.9 229.6 229 228.1 227.7 227.4 227.3 225.9 224 221.3 218.2 214.7 214.5 213.4 213.9 214.2 214.4 214.4 215.4 216.8 218.3 216.8 213.2 210.6 209.3 208.1 205 200.7 197.2 192.8 190.5 183.9 183 181.5 181.1 179.2 178.6 177.7 176.2 173.9 170.4 166.4 164.7 163.7 165 170.1 175.9 174.9 167.9 167.5 168 169.4 171.5 173.7 175.6 176.8 175.7 173.9 172.2 170 166.2 161 156 153 151.1 149.7 147.9 144 142.9 138.7 138.5 138.1 135.2 132.5 133.3 128.1 123.6 122.7 118.7 112.9 103.8 112.7 102.7 97.5 90.1 83.1 74.6 77.6 76.1 72.6 72.2 73.1 72.2 73.4 76.9 76.6 69.9 69.3 70.7 75.4 75.6 75.1 74.7 71.9 71.5 72 73.1 73.6 73.6 72.6 70.7 74.6 76.3 77.8 78.6 77.2 79.2 84.1 84.1 83.7 83.9 87.3 89.2 92 90.9 89 84.6 81.3 78.5 77.8 76.8 76 75 73.6 71.9
302.5 296.2 283.9 259.1 252.2 243.4 244.5 246.7 252.7 257 258.4 262.6 257.9 255.2 252.9 249.7 244.9 241 236.2 229.6 226.8 223.6 211.5 198.4 196.5 193.7 191.7 188.7 185.7 181.2 176.2 173.6 172.4 174.2 175.2 178.1 177.7 180.3 181.9 186.3 187.7 188.1 191.2 195.2 199.6 203.3 206.5 204.7 205.4 209.6 212.8 216.3 220.1 223.7 226.2 226.9 227.7 228.4 229.3 229.9 230.8 231.8 232.4 232.3 232.4 231.5 229.4 227.2 226.7 226.8 226.9 225.9 223.2 220.4 216.8 215.3 215.4 215.2 214 212.6 212.9 212.9 213.1 213.7 214.9 216.1 214.6 210.9 209 207.1 204.8 201 198 194.6 194.9 192.5 187.7 184.2 182.6 181.8 180.9 179.7 178.6 177.4 175.4 172.5 169.4 167.3 165.1 162.4 165.9 170.8 176 169 168.6 167.6 167.9 170.2 171.8 174.7 175.3 174.2 172.4 171.2 169.9 166.1 160.6 154.6 154.5 148.6 148.6 145.8 140.9 136.1 134.7 134.3 134.2 131 128.6 130.8 126.8 121.9 118.3 114.8 111.7 102.1 104.5 108.1 94.7 86.4 83.5 76.7 77.8 77.3 77.4 77.2 77 76.7 74.2 74.9 76 71.2 69.4 71 75 75.7 75.6 75.4 73.8 71.4 72.7 74.6 74.3 73.8 72.8 71 74.9 76.3 77.2 77.7 77.8 79.3 82 82.9 83.6 84.7 87.5 90.1 92.7 92.2 91.2 90 82 79.1 77.2 75.6 73.9 72.1 70.6 69.4
283.7 278.9 270 250.4 237.1 233.5 235 238.3 240.2 250.4 258.4 262.3 256.3 253.4 252.4 251 247 242.3 236.1 232.1 226.5 222.6 209.1 195.2 191.1 191.1 191.5 191.8 189.6 182.8 179.6 176.6 174.2 175 178.5 179.7 181.3 185.7 188.1 190.3 192.3 192.5 196.4 200.2 203.2 205.9 207.2 208 205.7 210 213.7 217 221.1 225.3 227.9 229.5 230.4 231.3 232.3 232.9 234 235.6 236.8 237.3 235.5 232.5 228.3 225.7 226.1 226.5 226.1 224.2 221.5 218.7 215.1 215.5 216.2 215.4 213.9 212.3 211.1 211.8 212 211.9 212.2 212.2 210.7 209.6 207.7 205.6 202.4 197.4 198.3 196.3 195.8 193 188.4 184.4 183.2 182.8 182.4 181.3 180.2 178.9 176.9 174.7 172 169.5 166.8 163.2 163 171.6 171.9 168.8 169 170.5 167.5 171.6 172.6 172.3 172.9 173.4 172.1 170.2 168 164.4 159 152.9 153.2 149 146.6 144.8 140.4 135.5 133.2 130.9 128.6 124.4 126.7 125.5 123.4 121 117.7 112.9 106.4 99.4 98.9 106.9 98.1 87 83.4 75.5 76.4 77.1 77.5 77.3 77 76.9 76 74.5 75.8 73.5 70.5 71.4 74.2 75.4 75.4 75.3 74.6 72.2 73.8 74.6 73.9 73.3 72.3 70.9 74 76.2 77 79.8 78.5 80.5 85.3 85.3 85.4 87.7 92.8 92.8 96.8 96.5 95.7 91.6 88.3 78.4 75.1 71.5 71.1 71 69.2 68.4
267.4 260.8 257.4 242.8 225.9 224.2 223.5 227.4 234.4 251.5 255.5 256.3 255.2 255.8 254.9 252.6 249 244.7 238.2 234.2 229.4 228.1 210.3 190.3 189 191.9 194 190.7 185.9 186 184.6 180.4 177 179.4 186.1 187.6 187.6 189.9 193.4 193.9 195.8 196.8 200.3 202.6 206 209.9 211.7 211.4 210 210.3 215.4 217.8 222.2 227 230.2 231.7 233.2 234.3 235.3 236.9 239.2 241.1 242.1 239.5 236.7 232.8 227.5 224.9 225.1 225.8 225.1 222.5 219.3 216.5 215.5 216.4 216.6 215 213.3 211.7 210.2 210.6 211.3 210.7 210 210.3 209.4 208.5 206.6 204.7 203.7 200 199.6 197.7 195.6 192.4 188.3 185.1 182.7 184.5 183.8 182.9 181.8 180.3 178.3 176.2 174 171.3 168.6 164.8 161.4 165.3 171 173.3 167.5 170.2 168 169.8 175 170.8 170.5 173.9 173 169.6 165.7 162.1 158.3 152.1 148.7 147.7 143.9 143 140 135.8 131.8 131.5 127.8 121.5 125.1 123 121.9 121.1 117.4 113.3 107 101.5 95.7 104.7 102.9 85.8 83.4 75.9 73.2 76.3 76.8 76.9 76.8 76.7 75.2 74.5 76.2 74.2 70.4 73.2 75.1 75.1 75.1 75.1 74.8 73.8 74.2 73.8 73.4 72.8 71.3 71.2 71.9 75 77.8 80.1 78.7 82.2 86.9 86.1 85.9 91.9 98.2 95.9 99 98.7 96.6 93.3 90.3 78.1 71.5 69.2 69.4 68.8 68.5 68.3
250 246 242.7 231.9 217.8 214.4 214 221.7 230.1 243.7 257.8 261.6 262.7 262 257.6 255.2 252.4 249.5 245.7 242.8 235.7 227.8 209.9 187.5 187.7 189.8 188.5 186.1 186.1 186.6 186.5 184.9 181.9 183.9 188.9 190.4 193 194 196.9 199 200.9 201.7 204.5 205.1 207.7 210.9 212.8 213.4 213.4 211.9 216.3 219.6 223.8 228.2 231.7 234.4 236.6 238.2 240.2 242.9 244.6 244.6 243.3 240.3 237.2 232.4 227.6 225.1 223.7 224.1 223.6 221.3 218.6 216.4 216.2 217.3 216.8 215.2 212.9 211.2 210 210 210.3 209.2 208.6 208.9 207.6 207.3 205.3 204.3 203.6 201.4 200.8 197.3 197.1 193.2 189.2 185.4 183.7 184.4 184.8 183.9 183.1 181.6 179.4 177.8 175.5 172.9 170.4 166.8 162.1 160.9 171.1 174 166.7 166.7 167.3 166.5 171.4 167.9 169.5 172.8 171.1 168.9 165.5 160.7 155.4 150.3 147.4 143.7 141.6 141.5 139.5 136.6 131.1 129.9 129.4 125.3 116.2 116.1 116.2 116.2 115.4 110.7 106.6 103.3 96.2 95.4 95.4 86.3 81.2 81.1 73.2 73.3 76.1 76.3 76.3 76.3 75.8 74.5 75.1 75.2 71.4 74.4 75 75.2 75.1 75.2 75.1 73.5 73.6 73.6 73.3 72.3 71.3 71.3 71.8 75.5 79.5 81.2 79.8 79.4 84 86.1 86.2 93.4 99.9 98.7 101.9 101.2 100.4 99.7 92.6 78.4 71.7 69.2 68.8 68.8 68.6 68.4
235.6 229.3 225.9 216.7 204.4 205.2 208.9 216.6 229.4 240.6 258.7 264.8 265.4 264.9 262.9 264.2 262.6 259.3 255.3 245.1 234.5 221.9 203.9 185 185.2 185.2 185.5 185.5 185.8 186.3 187.2 187.3 185.6 188.2 191.6 193.4 196.1 198.7 200.3 202.3 203.6 203.7 205.5 206.2 209.3 211.4 213.6 214.7 215.4 212.7 217.3 221.6 225.2 229.5 233.4 237.2 239.4 241.4 244.9 246.3 246.5 246 244 241.6 237.7 232.1 228.7 226.6 224.3 222.5 222 220.5 218.6 217.3 217.1 217.9 217.7 216 213.2 211.4 210.1 209.1 209 209.3 209.5 207.5 205.3 204.9 203.6 203 202.4 201.6 199.6 196.8 195.7 194.4 190.4 186.1 183.9 184.6 185.2 185.1 184.5 182.4 180.8 179.5 177.5 176.1 172.4 169.1 164.6 160.7 169.8 174.3 169.4 165.2 164.7 163.7 166.6 167.2 170.9 171.8 170.1 167.5 164 158.8 154.3 149.5 146.7 143.5 139.2 140.7 139.7 136.5 130.1 127.7 126.1 123.9 119.6 112.2 110.6 110.7 110.9 109.2 105.1 101 97.8 89.8 92.1 84.1 80.3 77.2 73.3 73.5 73.4 73.3 73.5 74 74.2 73.8 75.1 74.8 74.7 75 76.7 76.5 77.4 74.7 74.5 73.2 73.2 73.2 72.3 71.5 73.6 72.3 72.4 76.6 79.9 79.5 79 81.3 83.9 86.7 87.8 93.8 97.6 98.7 101.7 102.9 102.7 97.9 89.4 76.3 71.3 69.2 68.6 68.6 68.7 68.5
217.7 211.8 212.2 208.4 199.6 203.2 207.5 217.2 228.4 240.2 259.8 268.4 276.9 279.2 268.3 267.3 255.9 246.6 256.7 249.8 228.8 211.7 196.7 184.6 184.7 184.9 185.2 185.3 185.7 186.3 187.5 188.7 188.2 190.7 193.6 195.7 198.7 201 202.6 204.2 206.1 206.5 207.3 208.9 210.8 213.4 214.9 216.2 216.8 213.7 221 222.2 225.7 230 233.7 237.6 241 243.9 246.7 248.2 248.5 247.3 244.9 242.2 237.3 232.8 229.9 227.5 225.8 224.4 223.6 220.6 219.8 219 218.4 218.5 218.7 217.2 218.3 217.3 214.3 213.3 210.8 208.3 207.4 206 206.2 204.8 203.3 201.7 202.2 201.9 200.3 197 195.8 194.8 193.1 188.9 186.7 185.4 188.5 186.6 185.4 183.3 183 183.6 180.5 180.2 174.5 172.1 167.5 161.4 164.9 172.6 171.3 164.1 162.8 161.6 164.9 167.3 170.8 172 169.1 166 162.9 158.2 152.9 148.7 147 141.2 139 138.3 138.7 135.9 128.9 125.4 122.3 121.5 119.1 116.9 111.1 105.2 107.2 105.8 103 98.4 95.8 88.3 90.6 83.3 78.1 74.8 73.3 73.4 72.7 72.2 72.4 73 72.6 73 74.4 74.1 74.8 76.7 75.5 75.1 76.8 73.7 73 72.9 73 73 71.8 71.7 72.7 75.4 74.2 76.7 80.8 80.7 78.9 81.3 81.9 85.6 88.7 92.9 94.5 97.3 100.5 105.3 103 92.9 87.1 78.2 73.3 70.8 68.4 68.6 69 68.6
200.8 205.4 207.9 204.7 197.4 198.5 207.4 220.5 226.6 238.8 260.5 266.1 278.4 270.9 253.5 255 240.9 233.8 241.1 240.8 223.2 207.8 187.3 184.3 184.5 184.6 184.8 185 185.6 186.3 187.4 188.5 190.2 192.6 195.9 197.9 200.5 203 204.5 206.6 208.1 208.6 209.1 211.4 213.5 214.9 216.3 217 217.3 216 218.2 222.5 226.2 229.5 233.2 237.4 242 244.6 247.2 249.5 250.1 247.8 245.3 242.3 237.9 234.2 230.9 226.9 225.7 227.2 226.5 222.6 220.9 223.5 222.9 220.9 219.9 223.1 225.6 224 221.5 219.2 216.1 212.2 211.1 208.9 208.5 206 204.6 203.2 202.1 202.1 202 200.1 198.3 196.7 193.6 192.8 190.2 191.4 193.4 191.1 187 188 188.6 186.4 182 178.8 176.9 176.6 170.8 163.3 158.4 167 168 163 162.2 160.2 165.7 168.9 169.8 169.7 168.8 166.9 162.4 158.9 153.4 150.3 147.1 141.3 138.6 136.1 135.9 133.4 129.9 122.5 119.6 117 116 115.6 114.4 108.1 100.7 103 100.3 96.7 94 87.7 86 81.4 79 77.3 74.3 72.2 71.9 71.9 72.1 72.2 72.7 72.8 74.3 74.5 74.4 77.3 76.2 75.7 76.8 72.9 72.6 72.7 72.9 72.2 72.7 73.1 72.8 75.8 75.5 78.3 81.2 83.1 79.1 79.9 81.5 83.3 85.2 89.6 97.2 101.9 104.3 110.3 105.3 97.7 90.8 82 76.2 71.5 68.8 69.2 71.4 68.4
195.6 202.9 205.3 203.3 189.9 195.4 206.7 216.8 216.5 228.8 244.8 252.2 263.4 244.6 234.2 235.1 224.9 217 224.4 222.8 211.5 194.6 184.3 184.3 184.3 184.3 184.6 184.9 185.5 186.2 188 189.7 192 194.5 197.9 201.8 204.1 206.2 207.8 209 210.3 210.8 212.2 213.5 216.6 218.3 220 219.6 218.8 218.5 218.1 221.9 226.2 228.9 232 235.7 239.7 243.4 247.2 249.7 250.3 247.6 244.4 241.7 238.6 235.6 232.5 227 227.6 229.5 227.8 222.9 222.9 225 227.4 227.4 228.1 229.9 231.1 229.5 226.9 224.3 221.1 218.5 215.3 212.3 210.4 207.8 205.7 204.2 202.5 202.5 203.1 200.8 200.8 198.6 197 195.2 194.9 195.6 192.1 190.4 189.7 188.4 188.9 187.9 183.5 181.2 178.4 175.9 174.8 166.3 158.2 160.1 165.2 161.4 160.9 159.1 165.9 169.2 169.3 170.6 169.8 169.1 163.6 158.7 152.9 149.3 147.1 142.9 138 138.7 131.8 129.6 128 125.7 118.4 115.8 113.3 112 113.1 110.3 103 95.7 96.7 96.9 93.3 87.8 83.5 81.5 79.3 77.9 72.6 71.9 71.9 72.6 72.3 72.2 72.8 73.1 77 77.9 76.3 77.4 76.9 76.6 78.2 74 72.5 72.5 72.3 72.1 73.5 75.2 75.8 77 75.4 79.8 81.9 83.3 80.2 80.6 80.7 82.7 86.8 91.8 98.5 101.1 105 114.2 106.5 98.3 92.6 83.9 75.4 71 68.3 68.4 71.5 68.9
197.6 205.2 202.9 201.3 180.1 186.2 193.9 199.5 202.3 213.8 224.9 232.9 236 221.8 214.3 214.6 209.1 201.8 207.5 203.7 201.9 190.1 184.3 184 184.3 185.4 185.7 185.7 185.6 186.3 189.1 191.5 193.9 197.2 200.2 204.2 207.2 209.7 210.6 211.2 212.6 215.4 216.4 218 221.3 222.4 221.8 221.3 220.6 220.1 220.4 221.4 225.5 227.4 228.8 232 236.7 241.1 244.1 246.7 249.8 246.5 242.7 240.1 238.2 235.5 233.5 227.9 228.8 229.8 227.2 223.9 225.1 228.4 230.9 232.5 233.8 234.9 236.2 234.5 231.6 229.8 226.2 224.5 219.7 216.6 214.5 210.5 207.2 204.8 202.8 202.7 202.7 202.1 202.7 201.8 200.5 198.1 195.5 192.6 195.2 197 195.4 192.4 190.9 190 187.6 183.2 182.5 180.9 175.1 168.4 163 158 158.2 160 160.1 158.7 166.5 168.4 168.8 170.9 170.4 168.1 163.6 157.5 153.8 148.9 146.9 142.8 139 135.8 132.1 128 125.8 125 118.6 115.4 113.3 110.5 109.2 110.7 105.6 97.8 92.7 94.5 91.7 87.2 84.5 82.4 78.7 75.3 73.2 72.8 72.1 72.9 73.2 72.8 72.4 72.8 77.5 77.8 76.7 77.8 75.5 75.8 74.2 75.6 76 72.3 72.1 72.3 72.8 72.9 76.3 77.4 76.5 78.8 82 80.7 79.2 79.4 79.8 81.6 82.9 87.4 94.2 99.3 105.9 112.3 111 100.3 90.6 83.7 76.1 72.9 68.9 68.2 68.5 68.7
189.1 190.4 193.1 189.2 172 174.8 180 185.4 189.8 198.7 208.1 213.2 214.8 208 202.1 200.3 197.6 192.2 193.9 193.5 189.6 184.8 183.7 183.8 185.3 188 189.1 187.7 186.3 186.4 190.7 193.9 195.8 199.3 203.1 206.2 210.1 212.3 213.4 215.1 217.6 219.7 221.6 222.7 224.5 224.9 224.6 224.7 224.6 223.4 225 224.8 224.4 225.6 225.7 227.6 232.3 236 238.6 241.5 244.2 244.9 241.2 238.5 236.7 234.5 232.7 227.9 228.2 228.3 225.9 225.3 228.3 231.1 233.7 235.8 237.2 238.2 239.2 237.3 234.9 232.7 230.1 229.2 225.3 222.6 220.2 215.5 209.2 206.6 204.1 203.3 203.1 203.5 205.2 204.5 204.6 202.9 199.1 194.5 195.4 200.9 199.6 198.6 198.5 195.4 194.1 190.4 186.2 185 180.6 172.5 167.2 164 159.5 154.6 158.7 155.7 164.2 168.2 168 170.7 171.6 172.4 170 159.8 152.6 149.1 146.9 142.9 139.6 134.9 132.7 128.8 126 123.3 117.3 114 112.8 109 107.6 108.9 106.4 99.6 92.9 91.1 87.8 85.6 84.4 81.9 75.7 72.9 72.4 72.5 72.9 73 75.1 73.2 72.1 72.4 78.4 77 77 77.4 76.5 75 74.5 74.6 76.6 78.4 73.7 72.5 73.2 74 76.3 75.5 74.1 76.3 78.6 78 76.6 76.1 79 80.2 82.9 86.2 92.6 99.1 103.3 108.4 109 101.8 94.5 83.1 77.1 72.3 68.8 68 67.8 68.3
176.8 177.7 184.2 179.1 164.4 165 171.7 176.2 182.4 186.6 192.6 198.2 203.7 202.3 192.4 191.2 190.6 187.4 185.9 183.6 183.4 183.7 184 185 187.5 190 191 190.8 187.8 188.1 192.8 197.3 199.2 201.7 206.3 210.6 212.9 215.5 218.1 220.6 223.4 225.3 226 227 228.4 228 227.2 227.9 230 227.1 225 224.3 223.8 224.7 225 226.1 228.3 231.3 234.5 238.1 240.9 241.1 239.4 237.6 235.6 233.8 230.5 228.7 229.1 229.3 228.9 228.4 232.9 234.5 235.7 237.8 240 241 241.2 240.7 237.8 235 233.4 232.6 231.7 229.6 224.2 219.8 214.1 209.7 207 204 202.9 204.4 205.8 206.2 206.1 205.9 202.9 201.3 201.8 202.7 204 202.8 202.5 199.7 196.7 194.6 189.8 187.4 182.9 179.3 171.2 166.4 162.3 154.7 155.9 156.7 162.7 165.7 167.7 172.2 172 171.5 169.1 161.3 152.9 149.4 146 143.2 138.9 133.3 133 128.9 125.1 126.1 120.5 113.3 110.5 107.8 106.1 106.3 106.3 102 95 89.5 86 85.2 84.4 81.3 77.7 74.9 72.7 72.7 72.7 73.3 76.7 75.3 72 72.8 76.1 77.6 78.1 77.6 77.2 75.6 75.5 76.9 76.6 78 77.4 75.8 73.3 73.2 75.6 76.5 74.2 75.5 76.7 76.5 74.5 75 77.4 79.8 82 85.7 91 96.3 101 104.7 104.5 97.2 90.9 82.7 78.5 71.7 68.2 67.6 67.5 67.4
166.7 165.4 167.4 163.1 160.2 158.2 163.5 169.3 175.1 180.6 182.1 185.3 192.2 194.3 189 188 186.1 183.7 182.6 183.8 184.7 185.1 186.4 188.2 190.8 191.5 192.4 190.2 190.7 192.6 196.1 200.6 203.9 206.3 210 215.1 218.5 221.6 224.2 227 228.9 230.6 231.6 232.4 232.8 231.6 229.8 229.2 230.7 227.5 226.7 225 224.5 224.4 224.3 224.5 226 228.6 232.7 235.9 239 239.5 238.3 236.5 235.1 233.9 232 230.3 230.4 230.7 228.9 229 234.9 236.8 237.6 239.4 241.1 242.3 242.7 241.9 239.1 238.1 235.8 235.4 235 233.7 226.6 223.3 219.7 216.8 212.5 206.9 203.2 204 207.8 206.9 207.6 209.2 209 209.2 209.1 205.7 205.9 205.3 204.4 201.1 199.2 196.3 191.3 188 183.8 181.7 177.7 168.8 162.8 156.9 152.3 158.1 162.2 164.6 166 171.9 172.9 170.3 168.8 164.3 156.1 149.8 147.4 145.4 140.4 135 133.2 129.8 126.3 120.9 118 114.7 110.2 107.4 105.4 103.9 103.9 103 94.9 89.2 87.6 83.6 82.1 80.8 79.1 73.4 72.6 77.3 77.6 76.7 78.9 76.4 72.9 72.3 76.6 77.3 77.3 77.9 78.5 77.1 76.6 77.5 77.4 75 74.3 73.7 73.4 73 73.6 75.3 74.3 75.3 76 76.6 76.4 77 77.8 80.1 81.8 85.5 90.6 94.7 100.5 101.1 101.9 96 89.5 82.6 79.7 74.3 67.7 67.6 67.8 67.6
155 153.7 158.6 156.6 155 152 154.4 159.5 164.9 171.3 175 181.6 184.2 183.1 182.1 181 183.6 186.2 186.4 188.7 189.8 188.8 191.9 192.3 195.8 197.4 195.9 194.2 195.8 198 202.2 206.4 208.2 211.3 217 222.4 226.8 229 230.9 232 234 236.2 237.8 238.6 238.3 235.3 232.6 231.2 229.8 228.5 227.9 225.7 225.1 224.8 224.4 224.2 225.4 227.6 231.1 234.3 237.5 237.8 237.1 235.8 234.9 234 232.9 231.7 231.3 231.2 231.3 230.3 235.4 236.8 238 239.5 241.4 242.9 243.1 240.7 239.1 237.5 235.6 234 233.4 232 227.9 225.4 222.8 220.4 217.6 212.5 204.3 204.5 210.5 208 208.8 210.6 211.5 212.4 210.6 207.1 208.6 206.1 207.5 204.6 201.8 197.6 193.4 190.4 186.8 183.1 180 172.4 164.4 160.9 148.6 158.1 159.4 162.3 164.9 170.3 173.8 171.8 169.2 165.7 160.7 151.8 147.5 144.5 140.9 136.2 135.1 131.3 127.3 121.9 117.8 114.4 109.1 106.4 104.4 102.7 101 99.6 94.1 90.9 88.2 83.5 81.4 79.8 78.1 77.1 75.9 79.7 78.5 78.5 78.9 77.7 72.1 73.1 74.1 76.9 77 78 78.5 76.7 76.1 77.3 77.3 75.2 73.6 74.1 73 72.9 73.3 73.6 74.9 75.2 75.6 77.2 77.2 77 77.4 79.5 82 85.1 90.9 94.6 97.5 98.6 99.2 94.9 88.4 82.3 78.6 80.1 67.8 68 67.4 67.7
142.8 145.4 151.4 149.9 148.3 148 151.4 154.6 153.3 155.2 160.9 170.9 174.8 172 180.5 186.8 191 193.7 193.5 196.8 196.5 193.3 193.7 200.2 201.2 201.2 198.6 199.1 201 204.5 208.2 211.9 215.4 219.1 224 229.1 234.1 233.6 235.2 236.9 240.2 242.1 243.2 242.5 239.9 237.5 234.2 232.4 230.7 229.3 228.8 226.8 225.9 225.3 224.6 224.3 224.9 226.9 229.9 232.9 235.3 235.9 236.2 236 235.1 234.2 233.4 232.8 232.2 231.5 231.6 232.8 234.7 236 237.4 239.5 241.4 243.1 242.1 239.8 238 236 234.6 231.8 231.1 230.3 229.8 230.5 225.3 221.8 220.2 215.4 206.5 205.5 212.4 210.1 210.2 211.8 213.7 213.9 211.8 209.1 209.6 208.2 208.7 206.8 203.7 199.4 193.7 190.2 186.4 182.8 179.6 174.6 166.1 162 160.6 153.2 157.1 160.9 165 170.4 173.8 172.8 170.3 166.2 162.6 155.5 148.7 145.9 139.7 136.4 135 132.8 127.7 123.6 120.6 119.6 114.4 105.4 103.3 100.3 98.5 96.3 94.2 96.4 90.6 82.2 80.2 79.2 77.2 78.9 78.7 79.5 77.4 78.4 79 74.6 71.9 72.8 75.3 76.6 76.8 77.5 78 75.6 75 76.1 75 73.5 73.6 73.7 72.9 72.6 72.9 73.3 74.8 75.1 75.8 76.5 76.5 76 76 78 81 83.8 90.5 96.5 96.9 96.1 96.9 97.8 93.3 84.2 81.3 77 67.8 67.8 67.2 67.2
131.6 131.2 140.6 141.6 145 151.3 156.7 165.3 169.3 172 170.2 167.7 174 181.2 187.2 193.9 198.4 200.7 203.1 203 199.9 196.6 200.6 206.1 206.3 204.7 203 204.6 207.2 211.3 215.6 219.8 223.8 227.5 232.5 235.3 237.2 238.1 241.1 243.5 246.3 249.5 246 243.5 242.6 242.1 239 233.5 231.7 230.1 229.2 228 227.2 226.2 225.2 224.8 225 226.4 229 231.6 234.4 235.3 235.8 235.7 235.4 234.7 233.9 233 232.4 231.8 232 232.8 233.3 235 236.7 239 241 241.7 241.8 238.8 236.5 234.1 231.6 229.5 228.6 228 230 232.3 227.4 223.8 221.9 221.1 209.9 206.3 210 210.2 209.3 210.1 212.3 210.7 210.1 208 208.1 208.2 207.2 207.4 205.7 200.3 192.9 188.2 185.1 181.9 179.2 175.5 169.2 162.9 157.9 149.1 155.4 159.6 162.3 168.1 173.7 178.5 173.7 169.4 164 160 150.2 147.4 144 137.9 134.8 131.6 127.9 125.2 124.7 122.4 116 110.2 105.1 101.9 101.1 98.8 96 95.8 91.2 83.6 79.7 77.6 76.2 78.1 80.1 75.5 72.9 77.9 78.2 74.9 71.8 73.5 74.9 75.4 75.4 76.2 76.7 74.8 74.6 76 75.1 73.2 72.9 72.7 72.7 73.1 73.1 73.7 75 75.6 75.6 76.6 75.8 75.4 75.3 76.4 78.1 80.7 87.4 95.2 97.2 92.9 91.7 87.6 82.8 75.8 70.8 69.7 68.1 68 67.6 67.8
134.3 138.5 147.4 153.6 157 160.4 164 169 173.1 176.1 177.7 181.4 185.3 188.9 194.2 200.7 204.1 207 205.9 206.9 202.5 197.8 203.3 212.6 211.7 209.4 207.2 209.4 212.4 218.7 223.2 226.6 230.1 233.6 237 239.3 241.3 243.3 246.8 248.7 249.5 249.5 248.5 249.6 248 244.8 240.7 236.2 233.2 229 228.4 229.3 229.5 228.8 226.1 225.4 225.6 226.2 227.8 230.7 233.2 235 236.1 236.3 236.1 235.3 234.5 233.5 232.7 232.1 232.1 232.4 232.8 233.8 235.9 237.9 239.4 240.9 241.7 238.5 235.4 233 230.4 227.8 226.3 226.3 227.9 230.8 227.4 223.5 221.7 220.7 211.6 206.6 206.2 208.8 207.2 207.9 210.9 208.7 207.8 205.4 205.2 206.1 204.3 204.8 202.4 198.4 192 186.6 183.2 181.3 178.7 175.7 171.5 165.6 157.1 148.8 152.5 156.3 160.3 165.7 174 176.1 174.7 170.4 165.4 162.7 151.8 153.8 146 141.9 137.3 133.1 129.6 127.3 124.8 121.7 116 109.6 108.4 107.2 105.8 99.5 95.5 93.6 89.7 82.7 78 76.1 75.3 74.8 79.4 73.3 72.2 74.8 76.8 76 72.2 72.1 76.8 76.7 76 75.7 76.9 75.2 75.3 75.8 74.8 72.9 72.6 73.1 74 73.9 74 73.6 73.9 75.1 76.1 75.1 75.2 75.1 75.2 75.7 76.2 76.4 80.8 88.2 91.6 88.3 86.4 84.2 78.5 74.1 70 69 68.7 68.1 68.1 68
144.8 148.7 156.7 162.5 165.2 171.1 173.7 178.1 181.2 182.8 184.5 188.4 191.3 195.1 201.4 204.8 207.2 207.3 212.2 214 205.1 199 204.4 216.4 213.2 210.8 209.9 212.6 219.7 226.5 228.4 230.5 233.8 238.1 240.8 244.1 246.4 248.6 251.3 251.7 252 251.7 251.7 251.1 249.3 247 243.6 241 238.6 230.7 230.4 231 231.1 231.3 228.7 225.7 226.2 228.2 230.2 232.3 234.2 236.3 236.9 237.4 236.9 236.4 235.3 234.3 233.3 231.9 231.5 231.8 231.5 231.8 234.1 235.5 237 238.4 240.5 239.9 236.6 232.5 229.7 227 224.5 223.6 224.3 228.2 226 222.2 220.9 218.8 211.2 207.7 205 205.5 205 205.2 207.7 208.3 206.2 203.1 202.5 203 200.4 200.4 199.5 196.8 191.2 186.6 184.5 181 178.2 175.6 171.3 164.5 157.4 150.5 147.6 152.8 158.1 162.6 170.8 175.7 174.8 170.7 165 162.3 157 151.7 149.1 145.2 140.3 135.8 132.9 128.2 122.8 119.7 117.1 109.3 109.2 110.3 106.7 100.8 99.3 97.7 93.2 84 79.3 75.3 73.8 73.7 75.2 72.9 71.9 72.4 73.4 72.1 71.4 71.7 72.1 75 75.6 75.7 75.7 76.2 74.3 73.9 73.1 72.6 72.6 73.5 75.1 74.7 75.2 75 74.3 74 74.8 75 75 75 75 75.1 75 75.1 75.7 79.7 83.7 81.4 80.9 82.7 81.9 76.7 70.9 70.9 69.6 67.1 67.9 68.6
149.2 155 161.7 167.6 172.3 177.5 181.4 184.5 187.1 188.2 189.4 191.7 194.8 200 205.8 210.6 210.8 212.5 217.4 211.9 202.8 198.7 206.9 209.2 211.7 212.6 212.2 217.7 226.7 231.8 234.6 236.6 238.6 243 246.8 252.3 252.7 253.5 254.3 255.2 252.7 253.1 252.2 250.2 247.6 246.9 245.9 242.5 239.5 234.1 234.2 233.5 233.6 233.9 232.7 229.7 229.5 231.9 233.4 235.1 236.4 237.8 238.5 238.4 238.1 237.4 236.2 235.1 233.9 232.3 230.3 230 229.6 229.4 230.5 232.3 233.8 235.4 237.5 238.5 237.8 235 230.6 225.8 222.6 219.9 220.6 224.5 223.1 221.4 219.7 216.7 210.7 210 204.5 204.3 203.5 204.4 205.2 204.9 203.5 202.8 200.4 199 199.1 198 196.4 195.1 189 184.5 182.9 180.8 177.2 174.1 171.6 165.5 157.9 155.1 143.7 148.4 154.3 160.1 166.5 175.2 172.9 168.7 164.8 161.2 156.1 151.3 150.2 147.1 141.8 138.3 136.6 128.3 120.2 116.1 115.9 110.8 106.8 106.7 106 100.4 100 101.8 95.6 90.3 80.8 75.5 73.2 73.2 73.6 73.9 71.6 71.8 73.1 72.2 71.3 72.1 75.6 76.2 76.3 75.8 75.8 76 74.4 75 74.9 72.5 73.1 73.1 74.6 76.5 76.7 76.8 74.8 74.3 74.5 75.1 74.9 74.9 74.8 74.8 74.6 74.4 74.1 75.8 79 77.8 78 82.9 83 76.9 75.1 70.6 69.7 68.1 68.1 68.6
154.4 162.2 167.7 173.7 178.9 183.8 188.5 189.9 191.7 192.7 193.6 195.9 199.8 204.8 212 219.3 216.2 214.4 217.1 208.5 196.4 197.3 205.4 211.9 216.5 217.3 217 222.9 234.7 239.4 241.9 243.7 245.4 248.1 250.9 253 254.4 258 255.8 256.6 253.1 254.2 250.4 248.3 248.5 248.9 247.2 245.5 241 238.1 237.5 236.4 237.5 237.3 236.1 234.8 234.8 236.1 236.9 238.7 239.4 240 240.2 239.2 238.8 238.1 237.2 236.1 234 232.3 229 227.5 226.9 226.5 227.2 229 230.5 231.4 232.2 232.2 232.8 234.1 231.2 225.2 221.3 218.7 218 220.7 221.8 218.5 217.3 215.9 214.2 210.7 204.4 206 205.1 203 203.6 204.2 201.5 200.2 197.8 197.1 197.2 198.1 196.1 193.6 187.5 182.5 180.4 178.2 176.5 173.8 170.7 167.6 159 152.1 144 144.4 149.5 155.7 163.2 167.8 168.9 166.4 162.9 160.7 157 154.7 149.5 146.2 142.7 142.5 134.7 128.9 126.1 121.6 116.4 110 105.9 103.7 103.1 101.4 99.8 103.1 100.5 92.8 84.8 79.3 74.5 75 73.3 72.9 71.7 71.3 71.1 71.8 71.7 73.1 73.6 75.8 76.3 76.4 76.1 76.2 75.6 75.8 76.1 72.3 73.9 73.7 74 76.2 76.3 76.1 74.9 74.5 75.5 74.8 74.8 74.9 74.8 74.4 73.9 72.5 71.6 71.2 73.9 76.1 77.1 81.4 80 77.5 73 71.5 70.3 68.5 68.1 68.5
163.1 169.4 175 181 185.9 190.7 194.3 195.5 197.2 197.4 197.8 199.8 202.9 207.8 213.3 222.5 223.9 217.1 210.2 202.9 196.3 198.1 210.3 213.5 221.2 221.9 224 232.8 242.8 245.7 248.6 250.5 252.4 253.5 254.7 254.9 255.7 256.2 253.8 253.7 250.5 250.7 248.1 249.9 251.7 250.8 249.5 246.3 242.2 239.6 238.6 238.4 237.9 238.3 238.4 239 239.4 239.3 239.8 240.3 241.1 241.8 242.8 241.6 239.4 238.5 238.2 237.5 235 232.1 228.6 226.6 225.2 223.4 224.5 225.9 227.5 227 226.7 226.5 227.2 228.1 227.8 223.5 219.5 215.8 215.2 218.4 219.6 216.5 215.7 214.5 212 209.5 204.7 208.7 206.5 204.7 202.8 202.3 201.6 200.8 197.6 195.1 193.7 195.4 194.5 192.2 188.2 183.3 180 177.8 174.8 172.9 170.9 167.5 156.2 148.7 148 142.2 145.9 149.6 155.3 163.2 168.2 165.1 161.2 158.4 158.4 156.5 151.7 147.9 142.6 141.1 133.6 128.8 127 128.9 122.4 112.8 106.2 103.5 102 101.6 100.1 99.1 100.3 97 91.5 82.9 77.2 75.9 72.7 71.7 71.3 71.1 71.2 70.6 71.6 73.8 74.7 76.1 76.6 77.2 76.4 76.1 77.5 77.7 78.4 72.7 74.2 73.4 73.8 75.4 77 74.7 74.4 74.2 77.2 77.8 74.9 74.8 74.7 74 73.4 71.2 71.2 71.2 71.2 74.8 75.7 79.8 80.1 76.5 72.7 72.7 73.1 68.8 68.1 68.5
169.6 179.2 185.3 189.8 193.6 197.7 200 201.2 202.4 202.6 201.5 203.2 205.6 208 212.7 219.7 217.1 212.1 208.8 199.3 195.9 200 207.3 214.7 222.5 230.4 230.6 240.3 251 255.8 258.1 258.4 258.7 259.5 258.3 256.5 255.5 254.3 252.2 249.6 247.1 246.4 247.9 251.1 250.9 252.5 251.6 247.4 242.4 239.3 237.8 236.8 237 238.8 239.9 241 241.6 241.1 240.4 241 242 243.5 244.3 244.4 242.3 239.9 238.8 238.9 236.2 232.9 228.9 227.3 226.4 224.4 221.9 222.7 224.1 224.2 222.6 221.5 221.7 222.6 223.1 219.6 216.2 212.1 211.9 216.1 216.6 215.7 214.1 212.6 210.7 206.3 205.1 207.4 207.2 206.3 203.9 202.7 201.7 201.8 197 193.6 192.8 192 192 190 188.1 184.5 180 177.7 174.5 171.5 170 166.6 159.7 149.3 143 139.4 141.7 148.3 150.1 157.9 165.1 161.8 157.9 156.7 155.9 156.7 154.5 148.2 143.9 140 133.6 128.7 129.2 125.6 123.7 117.7 109.8 104.6 101.8 100.5 99.6 98.9 98.9 97 91.9 86.2 79.2 75.3 72 71.5 72 71.2 70.3 70.7 75.6 74.3 74.9 76.2 76.7 76.5 76.4 76.2 75.8 79.3 76.4 72 74.5 74.7 73.5 75.3 75.3 74.5 74.1 74.3 77.3 79.5 75.6 74.5 72.5 72.8 71.3 71.2 71.2 71.2 71.2 73.5 74.3 77.9 77.6 75.5 73.1 72.4 72.3 69.1 67.9 68.3
178.2 189.1 194.5 196.8 199 203 204.5 206.5 208.3 210.5 211.8 209.6 212.4 213.2 214.1 215.7 214.8 209.4 207.6 195.7 197.5 204.5 210.3 219 226.1 237.3 237.9 250.4 260.4 267 266.9 266.1 265.7 261.4 260.4 256.7 254.8 252.6 249.2 246.2 245.5 243.9 247 248 250.1 254.2 252.8 245.8 240.9 233.2 233.4 233.4 234.7 237.3 240.3 241.6 241.9 240.6 239.9 241.6 243.3 245.1 245.5 245.7 245 242.9 240.9 238.7 237.1 233.5 228.8 228.9 228.6 226.5 224.2 220.5 220.7 220.8 219.2 218.8 218.1 218.1 218 216.1 213.2 209.8 210.1 213.7 215.1 214.4 213.9 212.2 209.9 207 205.7 208.3 208.7 206.6 204.5 201.9 201.3 199.1 195.1 192.2 191.3 190.6 190.7 188.7 186.6 183.4 179.7 176.3 172.5 171 167.9 165.5 162 153.3 144.1 139.9 139.8 142.7 142.8 150.5 158.6 158.6 154.1 156 153.9 152.9 154.4 150 147 140.2 136.1 129.4 129.9 127.7 121.9 120.5 115.1 108.9 102.2 99.7 100.1 99 99 96.3 91.1 85 76.9 75.1 72.4 71.5 72.4 71.9 71.2 71.4 76.2 75 75.7 78.2 77.2 76.6 77 78.8 76.9 77.6 73.6 71.8 74.9 75.2 73.8 74 74 73.8 73.6 74 74.8 77.2 73.1 71.2 71.2 71.2 71.2 71.2 71.2 71.2 71.2 71.2 71.2 74.8 75.2 74.4 72.6 71.1 70.3 68.9 68.3 68.1
186.5 196 202 204.1 204.8 210.8 215.1 216.5 217.8 218.7 217.5 217.2 218.1 216.4 217.5 216.4 215 208.6 200.6 194.2 199.5 209.2 216.1 226.3 232.6 236.6 249.5 260.8 269.2 274.7 272.7 267.2 264.1 259.5 257.3 253.2 251.9 249.9 246.1 243.6 242.9 242.7 244.2 244.6 245.3 248 246.4 241.7 235.7 229.4 231.6 231.5 232.6 236.5 239.8 241.6 241.9 239.6 238.7 241.1 243 245.1 246.1 246.6 246.7 245.3 243.9 241.8 237.5 233 231.3 230.8 230.4 229 226.8 223.1 218 216.7 217.4 217.1 215.9 215.1 214.5 212.9 210.6 208 209.1 212.1 213 213.3 213.7 212.8 211.7 208.1 205.9 208.4 209.8 208.7 207.9 204.7 200.6 200.5 195.9 190.7 189.6 189.3 189.4 187.2 184.1 180.6 177.1 174.7 171.2 168.5 166.1 164.9 162.8 156.8 144.8 137.5 138.6 139.1 139.8 143.3 150.3 154.5 153.9 151.9 151.6 152.2 152.8 152.3 149.9 142 138.2 130.9 127.8 130.3 120.5 121.7 115.6 112.2 105.7 100.6 102.5 100.7 97 94.4 94 84.6 76 73.7 71.5 71.2 73 71.5 71 73.2 75 75 77.2 78.3 78.5 77 76.9 77.2 77.8 75.7 73.3 72.5 76.5 75 74.1 73.9 73.8 73.5 73.4 73.7 75.5 75.5 71.2 71.2 71.2 71.2 71.2 71.2 71.2 71.2 71.2 71.2 71.2 75.3 74.5 74 73.2 71.8 70.6 68.9 68.9 68.3
196.3 205.9 213.1 215.9 215.9 217.6 223.9 224.8 223.5 221.4 220 220.8 218.4 212.4 212.2 210.3 214.1 211.4 196 193.7 202.4 210.5 217.4 227.2 233.6 239.7 258.5 269.9 273.3 273.7 274.1 267 261.4 257.9 253.8 250.7 248.5 246.3 243.1 241.1 239.7 239.7 240.7 237.9 239.6 243.2 242.1 237.5 231.7 224.4 226 228 230.6 234.2 237.3 239.9 241.1 237.3 237.3 239.9 241.5 243.2 246 247 247.6 247.7 246.3 244.1 241.1 234.8 233.6 233.3 233.2 232.2 230.1 227 222.3 215.6 215.3 215.3 214.6 213.7 213.1 210.8 208.6 206.6 206.9 209.8 211.8 212.1 213.6 213.6 213 211.8 207.2 206.7 207.6 211.6 210.1 205.9 202.1 199.4 197 190.3 188.9 189.2 188 185.8 184.5 178.7 174.4 173.2 171.4 167.6 165.5 165.1 159.1 156.1 143.6 138.8 136.9 138.1 139.4 140.1 140.4 149.7 150.5 148.2 146.6 150.6 152.6 153.5 153.1 144.4 138.7 133.7 128.1 129.1 121 118.9 114.5 109.6 107.2 104.3 101.4 96.9 96.2 92.1 91 84.8 76.5 73.7 71.8 71.1 72.1 71.5 71.2 73 74.7 75.1 79.6 78 78.6 78.2 77.8 78.6 77.1 75 72.1 75.4 74.9 73.8 73.4 73.2 73.5 73.7 73.9 73.5 73.9 71.2 71.2 71.2 71.2 71.2 71.2 71.2 71.2 71.2 71.2 71.2 73.1 75.9 76.1 74.4 73.1 71.9 71 69.1 68.5 68.5
207.5 216.5 218 220.8 224.5 219.8 230.8 227.8 224.9 222 224.1 221.4 216.7 207.6 203.9 205.6 212.4 209.5 192.3 193.7 200.9 210.1 220.5 226.4 235.5 244.6 261.5 270.4 275.3 277 274.9 270.1 263.9 259 253.2 248.5 245.7 243.3 240.2 238 237.7 235.8 234.8 233.6 235.7 237.3 236.4 234.2 229.9 223.4 222.5 225.7 228.6 231.7 234.4 235.8 236.4 235.7 235.5 237 238.7 241.1 244 246.6 247.9 248.5 248.7 246.4 243.3 239.3 236.5 236.4 235.9 235.3 233.3 230.8 226.5 220.7 214.7 214.3 213.2 212.3 211.6 209.6 207.4 205.5 204.4 207.5 210.4 211.6 212.7 213.6 213 211.1 210.4 207.8 208 212.4 211.4 208.9 206.1 203 200.5 197.7 189.3 187.9 186.4 185.4 183.5 180 177.7 173.6 170.6 167.8 165.8 163.3 160.3 157.4 145.2 139.3 137.3 137.4 138.8 138.9 140.8 143.1 143.4 142.8 143.5 146.2 148.7 153.5 153.1 148.4 137.9 131.9 127.5 128.5 121.1 118 113.7 115.7 108.1 105.2 106.2 97.5 94.7 93.5 93.6 83.9 76.4 74.2 71.6 71.3 71.1 71.8 71.6 75.6 74.8 75.5 78.2 78.2 78.1 77.8 82.4 81 79.1 77.7 73.1 75.4 75.5 73.4 72.9 73.3 74 76.2 74.7 74.1 73.4 71.2 71.2 71.2 71.2 71.2 71.2 71.2 71.2 71.2 71.2 71.2 71.2 73.1 76.3 74.6 73.6 71.8 70.8 69.1 68.5 68.5
213.7 223.7 220.5 218.8 225.4 219.4 218.5 218.8 218.2 214.9 218 219.3 210.9 200.4 197 198.4 204.1 198.7 190 193.6 201.4 213.3 220.7 226.2 234.9 249.4 271.3 283.8 290.5 284.4 282.3 272.9 266.4 259 251.8 245.9 243.4 240.7 238.2 236.4 235.1 234 233 231.7 231.5 232.2 230.9 229.9 227 222 221.8 223.7 226.6 228.8 230.9 232.3 233.3 233.5 233.4 233.9 236.1 238.9 242.3 245.4 247.4 248.3 249.3 248.1 245.5 242.5 239 239.3 238.7 238.2 236.7 234.8 231.4 225.9 218.8 212.7 211.3 210.6 210.1 208.5 206.6 204.8 203.6 204.4 207 212.2 212 213.2 212.7 213.4 215.9 212.3 210 216.4 212.4 210.7 207.3 205.4 201.3 197.6 190.2 188.4 187.5 187.1 186 182.1 177.7 173.3 169.8 167.3 165.7 162.9 160.5 157.7 146.2 140.1 137.7 134.8 136.5 137.8 137.9 140.1 138.3 140.3 140.5 143.9 147.5 152 152.8 150.1 139.3 131.4 126.8 128.3 123.9 121.6 115.9 114.5 109.8 104.5 101.6 100 98.5 92.1 88.7 85.3 78.7 73.1 71.7 71.8 71.3 71 70.8 75.6 75 74.5 75.9 78.4 77.1 78.9 82.7 82.1 80.6 76.5 72.1 73.7 75.2 73.5 72.8 73 74.4 80.9 75 74.7 74.4 73.6 71.5 71.2 71.2 71.2 71.2 71.2 71.2 71.2 71.2 71.2 72.6 74.5 75.8 75.2 74.6 74.7 72.5 70.1 69.2 68.4
210 215.2 214.3 209.5 211.4 210.7 209.5 206.4 207.9 205.1 204.7 206 200.5 190.7 187.3 191.6 193.7 191.5 188.3 192.7 199.7 214.7 222.5 227 234.6 254.2 283.4 290.3 289.7 284.9 279.6 272.4 261.7 254.6 246.9 243.8 241.3 238.8 236.6 235.2 234.2 233 231.7 231 231.2 230.3 228.9 226.2 223.4 221.2 221.4 222.8 225.4 226.9 228.3 229.4 230.4 230.8 230.8 231.2 233.9 236.7 240.3 243.4 246.6 249.4 249.7 249.2 247.5 244.9 242.1 241.2 241.1 241 240.2 238.7 235.7 231 224.5 218.4 213.9 209.1 208.7 207.7 206.2 204.4 202.9 202.9 204.3 209.1 210.6 211.9 213.1 213.9 218.7 216.9 211.1 220.8 214.2 211.8 209.8 205.4 203.2 199.7 192.2 189.4 189.6 188.3 186.3 182.1 177.1 173.2 169.8 167.3 165.6 162.8 158.8 155.6 146.2 141.1 138.4 134.2 134.7 135.7 137.2 134 136.4 135.8 136.6 144.9 149.2 151 151 148.6 141.5 131.1 124.3 125.8 124.4 120.5 115.4 112.5 110 102.7 100.8 96.5 98.8 92.8 85.1 82.2 82.4 74.8 72.6 72.3 72.1 71.4 70.3 74 74 73.5 78.2 76.8 77 81.6 83.8 82.9 81 79.2 72.4 75 73.8 73.5 72.6 73 77.3 83 75.5 75.1 75.6 74.6 72 71.2 71.2 71.2 71.2 71.2 71.2 71.2 71.2 71.2 74.8 74.7 75.6 75.1 74.9 75.5 74 71.6 69.1 68.4
197.8 204.7 205.5 201 201.1 202.1 202.8 194.2 195.7 195.4 193.4 193.2 187.4 181.8 179.5 183.5 187.2 185.1 188.4 193.5 203.2 220.3 228.9 228.3 232 259.6 278.5 283.4 282.1 277.6 272.3 262.4 254.3 248.9 244.5 242.4 240.2 237.7 235.3 234.2 233.2 232.2 231.9 229.6 230 227.8 225.6 223 221 220 220.5 222 223.8 225.2 226.4 227.3 228.2 228.8 229 229 231.8 234.4 237.8 242.4 247.1 250 251.1 250.7 249.3 246.7 244.3 242.2 242.3 242.8 243.1 242.1 238.8 234.1 228.5 222.8 216.9 209.9 206.8 206.4 205.7 204.1 201.6 200.8 202.1 207.5 211.5 211.9 212.1 214.7 222.3 221 213.9 225.7 223.1 214.5 212.7 213 208 202.2 196.3 191.4 191.6 189 186 182.4 177.6 173.1 170.3 167.8 165 161.9 158.6 155.4 146 143.1 141.1 133.4 135.4 135.1 136.9 133.4 131.3 132.2 137.9 147 149.5 150.7 150.8 147.3 143.5 131.8 123.7 124.3 123.9 121.8 116.3 111.6 109 99.8 96.3 94.6 94 89.9 85.1 81.8 79.7 75.8 73.3 72.1 71.8 71.4 70.7 73 75.9 73.7 77 78.1 76.6 76.6 83.4 82.4 80.5 76.8 72.3 74.3 73.1 75.4 72.4 72.7 77.1 83.2 79 75.6 76.1 75.4 73.9 71.2 71.2 71.2 71.2 73.6 71.2 71.2 71.2 71.6 75.4 75.6 75.4 75 75 74.8 73.1 70.2 68.9 68.4
189.5 191.6 193.3 190.4 194.7 195.3 196.3 190.3 186.6 188.1 183.3 184.6 183.1 179 174.2 178.1 180.5 183 186.7 193.9 207.1 221.1 233.2 227.1 229.2 255.7 268.1 265.3 262 262.5 258.6 253.8 249.1 247.1 244.5 242 239.3 236.8 235.2 233.8 232.5 232.4 232.2 229.1 227.1 225.1 222.8 221.4 220.3 219.5 220 221.4 222.3 223.7 224.6 225.4 226.2 226.9 227.1 227.2 230.1 232.8 236.5 241.5 247.4 251.4 252.6 252.2 251.1 248.5 246 243.5 242 243.2 243.7 243.2 241.9 237 230.9 225 219.2 213.2 206.8 205.9 204.1 202 200.6 199.1 199.9 207.4 210.8 210.9 211.4 214.9 223.1 223.3 212.3 227 225.3 218.3 214.5 212.9 209.8 204.6 199.7 193.3 192.3 188.8 185.3 182.3 178.7 175 170.9 167.9 164.8 161.2 157.9 153 148.1 143 142.9 136.2 133.5 135.4 141.4 135.1 130.1 130.2 134.8 144.2 148.1 150.6 149.6 147.3 141 134.2 125.1 122.5 121.7 119.1 113.8 109.1 104.8 99.6 96.8 95.3 92 93.4 86.4 80.6 79 78.3 79.7 72.8 71.7 71.3 71.2 73.5 78.6 79.5 77.4 78.6 77.9 76.1 81.3 80.2 80.1 76.6 71.7 73.1 73.7 75.3 73.7 72.4 76.8 82.7 83.2 75.8 76 76 74.4 73.4 77.2 74.2 77.8 77.8 77.4 71.2 71.2 71.2 75.4 76 76.4 75.1 74.3 73.5 71.5 69.4 68.9 68.5
181.8 184.2 184.3 184.6 190.2 190.7 190.6 186.5 180.2 176.3 174.3 177.3 181.2 174.8 171.3 172.1 177.7 182.5 185.2 191.4 202.8 215.7 228.5 222.9 226.8 242.2 246.8 248.9 248.1 248.5 249.5 249.8 249.2 248.6 245.5 242.4 239.5 236.6 234.9 233.7 232.1 230.8 229.2 226.8 224 223.4 221.5 220.1 219.5 219 219.6 220.7 221.9 222.3 223.2 224.1 224.8 225.1 225.2 225.3 228 231.5 235.6 240.6 245.5 250.1 251.8 251.2 250.4 248.7 246.1 243.4 239.8 242.1 242.7 242.5 241.4 236.8 231.4 225.4 219.7 213.9 209.9 208.2 205.7 202.7 200.3 199 199.7 209.2 210.4 210.6 209.9 212.1 219.1 222.8 210.7 228.2 226.7 221.6 216.6 213.2 210.4 204.9 201.8 195.4 192.7 189.1 186 183.3 179.7 175.8 171.3 168.5 165.9 162.1 159.6 153.4 146.9 140.9 138.4 135.3 132 132 134.2 133.1 126.4 126.9 132.2 141.3 144.5 147 145.9 144 138.7 133.8 125.6 121.3 120 114.9 109.5 106.9 105.2 102.8 97.8 96 91.2 88 84.9 80.7 78.5 78.2 79 74 71.5 70.9 70.7 72.8 74.9 75.1 73.6 72.9 75.4 75.7 79.8 76.9 75.7 71.9 72.2 75 75 78.1 78.6 72 78.4 82.8 85.4 77.3 76 75.9 76.2 75.8 80.5 83.2 83.2 82.5 80.7 78.8 75.8 77.1 76.2 78.8 77.2 74.4 73.4 72.1 69.9 69 68.8 68.6
182.2 181.6 180.8 181.3 188.1 184.1 183.4 180.4 175.6 172.7 171.7 170.9 174.1 170.6 168.5 171.3 178.4 181 183.1 188 197.7 212.1 219.5 213.6 219.4 231.4 240.1 243.2 246.8 249 249.9 250.5 254.1 254.3 247.8 243.9 238.8 237.1 235.8 234.9 234.1 230.3 229.8 225.6 223 222.7 221.3 220.2 219.3 218.9 219.6 220.8 221.5 221.7 221.9 222.8 223.3 223.6 223.6 223.8 226.7 230.2 234.9 239.5 243.3 247.2 249.5 249.4 248.8 248 245.6 242.3 237.7 239.5 242.2 242.5 239.9 235.8 231.1 225.3 219.7 214 210.8 208.4 205.8 203.5 199.8 197.2 199.9 204.3 206.9 208.7 209.7 210.8 216.3 218.6 207.4 223 227.2 223 217.4 214.9 211.5 206.8 203 197.5 195.2 191.6 187.3 184.7 181.2 176.1 171.8 168.7 166.5 163.9 159.7 153.8 148.4 140.5 137.3 133.4 129.4 132.9 131.7 131.9 126.4 126.4 129.5 140.1 138.3 143.4 145.6 144.5 138.4 133 128.5 122.5 123.7 118 110.8 107.4 106.4 108.6 100.8 95.4 94.9 91.2 87.4 83.6 81.3 82.4 78.1 72.6 71.5 71.2 70.4 71 70.9 71 71.1 71.2 74.1 75.7 78.3 77.9 73.9 70.8 72 77.6 82.3 83.1 81.3 72.3 78.2 84.3 83.8 76.5 76.3 76.4 76.7 83.8 86.5 88.6 86.7 84.4 83.4 82.6 78 79.5 76.4 77.7 75.1 73.9 71.2 70.8 69.4 68.9 68.7 68.5
176.7 177.8 178.7 175.8 180.5 178.3 175.8 173.9 171.5 167.2 165.3 164.5 166.4 165.3 166.8 170.6 176.5 179.7 181.7 184.7 195 209.2 211.7 207.4 218.6 229.3 236.8 245.4 252.1 252.2 253.9 253.2 259.9 253 246.8 245.2 240.4 239.2 238.1 237 233.1 228.8 226.9 225.8 224.7 222.2 221.5 220.5 219.5 218.7 219.7 220.8 221 221.2 221.4 221.5 221.7 222 222.1 222.9 225.7 229 233.4 237.6 241.3 244.2 247.1 251.3 252.6 250.4 246.3 240.6 237.7 234.9 239.7 240.4 238.2 234.5 230.2 225.1 219.5 214.4 210.7 207.5 205.2 203 199.6 197.8 199 200.9 203.9 204.3 208.2 207.7 214.2 212.4 207.5 215.2 224.9 224 217.5 215.4 210.6 207.1 203.7 200.7 197.2 192.7 187.6 185.2 180.1 176.1 172 169.5 166.9 163.8 161.2 156.1 153.9 144.6 138.7 135.1 130.2 131.3 133.2 129.6 126.4 126.4 128.7 134.6 136.9 142.2 147 146.4 140.1 133.7 129.7 124.9 121.1 118.1 113.1 111.2 106.4 109.1 103.5 98.5 94.8 91.2 89.9 88.7 83.5 82.7 76.1 74.7 77.9 71.2 70.4 70.7 70.5 70.5 71 71 74.5 76.6 79 78.6 73.7 71.2 72.1 75 82.5 77.1 74.8 72.1 75.5 82 80.2 78.4 76.3 76.6 83.8 90.8 95.6 96.4 91.6 88.1 86.9 81.9 77.8 76.9 75.7 74.7 73.6 72.3 70.5 69.9 69.3 68.9 68.7 68.5
170.3 170.7 176.3 171.5 175.6 176.2 167.5 166.8 167.4 161.7 159.8 160.5 162.9 163.8 166.1 170.3 175.6 179.4 180.2 181.9 191.7 201.9 202.6 202.3 218.7 227.9 239.1 249.8 255 256.1 257.3 255.5 255.6 251.7 248.2 247.5 245.3 242.5 241.3 238.1 233.3 229.7 226.4 225.4 224.2 222.3 221.8 220.8 219.7 218.6 219.6 220.2 220.3 220.5 220.7 220.7 220.4 220.5 220.4 220.9 222.5 225.5 230.6 234.2 238.2 241.9 245.4 249.3 252.8 249.1 243.2 239.8 237.4 233.2 236 237.3 235.5 232.5 230.4 224.7 219.4 215.2 211.7 207.8 204.7 202.5 199.4 194.9 197.8 197.1 200.7 200.3 204 205.7 209.8 211.5 207.7 212.6 224.3 223.5 218.4 213.7 211.2 209.9 207.7 203.1 197.3 193.5 187.7 185.3 180.1 177.2 173.2 170.3 167.9 164.1 160.8 157.2 155.4 146.7 139.4 135.5 131.6 130.5 130.7 129.7 126.4 126.4 128.1 132 138.3 141.8 147.1 146.9 140.7 134.9 129.7 126.1 121.9 120.6 119.5 113.6 107.8 103.5 102.8 104.8 101.1 93.2 89.1 90.2 86 86.5 78.5 74.1 74.2 71.1 70.2 71.7 70.8 72.3 71.5 70.8 71.8 73 78.4 77.6 73.9 70 69.9 73.4 80.1 75.4 71.8 71.6 72.9 75.4 75.3 77.2 78.1 82.4 91.5 98.9 104.2 101.6 96 91.1 85 80.2 77.5 77.2 75.9 74.5 73.2 71.2 70.4 70.2 69.8 70 69.4 69.2
161.7 161.4 166.3 162.5 173.3 172.4 159.6 159.8 160.8 157.6 158.4 159.2 160.8 162.8 165.8 170.4 175.9 179.2 179.1 178.3 185.5 193.8 193.3 201.2 217.2 228.2 242.3 247.9 257 257.6 256.4 256.5 255.6 253.9 252.4 251.3 250.4 246.6 244.2 239.1 233.9 229.9 227.1 224.4 224.5 222.6 221.9 220.7 219.7 219.2 219 219.5 219.7 219.8 220 220 219.5 219.4 218.8 219.5 219.7 219.9 223.8 229.1 233.9 238.5 243.2 244.7 246.7 244 239.6 236.7 235 232.9 228.5 231.2 231.5 230.2 230.5 228 219.8 216.9 215.2 209.7 204.1 202.4 199.2 196.5 194.9 195.3 197.2 197.9 199.9 201.6 206.1 210.5 206 211.8 221 221.2 217.9 213.9 214 214.3 211.3 204.3 198.2 193.5 188.9 186.1 183 179.5 175.3 170.9 168.1 164.5 161.6 158.2 154.6 145.8 140.7 136.5 131.8 127.4 126.4 127.2 126.4 126.4 126.4 129.9 137.2 141.7 145.5 144.7 140.1 135.9 130.2 127.6 124 120.5 117.7 114.8 110.7 108.4 107.8 106.4 102.8 96.7 92.7 86 85.8 85.1 77.2 70.9 70.9 70.4 69.9 69.7 69.6 75.2 74.1 71.1 71.2 71.5 75.8 74 74.7 72.9 68 74.3 75.8 72.5 71.6 74.7 75.3 74.4 74.7 76.2 84.3 89.3 96.9 104.3 106.1 102.8 98.3 93.7 85.6 79.9 78.4 76.6 75.4 74.5 72.8 71.2 70.9 71 71.9 72.1 71.7 71
153 152.9 156.8 154.8 162.3 162.1 155.1 153.3 155.4 156 157.1 158.6 160.5 163.9 166.5 171 176.8 180 179.4 175.1 178.9 185.6 186.8 199.5 215.3 227.3 238.7 244.6 257.9 256.6 254.2 258 257.7 259.7 259.6 258.8 258.2 253 248.3 240.7 235.2 228.4 225.6 222.9 221.9 221.5 220.8 220.5 220.2 218.9 218.5 218.9 219 219.2 219.3 219.3 218.8 218.2 217.3 217.1 216.9 217.2 219.4 223.8 228.8 233 238.3 240.2 240.9 238.6 233.5 232.5 230.7 228.1 226.1 225.6 225.8 226.5 226.5 225.1 221.9 217.8 215.4 210.8 205.4 202.3 198.8 194.1 193.4 193.4 193 194.4 195.3 197.1 201.2 206.9 205.8 206.6 216.1 219.1 218.9 213.9 214.3 216.4 212.9 207.7 199.2 195.1 190.3 186.5 183.7 181.3 176.6 170.7 168.3 165.1 161.9 158.5 154.1 147.6 141.8 137.3 134.9 129.5 127.8 126.4 126.4 126.4 126.4 128.8 135.3 142 144.6 143.3 139.9 136.3 130.3 127.9 124.6 121.6 117.5 115.9 113.2 111.1 111.1 108 103.9 93.9 89.8 83.7 81.4 80.5 74.9 71.8 70.7 70.4 69.7 68.4 72.4 78.9 76.2 72.2 70.7 71.4 72.9 71.9 72.9 72.2 67.7 70.2 69.9 71.9 79.4 81.3 83.8 81.3 77.2 80.3 85.8 92.4 100.1 106.4 105.9 103.2 98.8 92.2 85 80.1 78.2 76.6 75.2 74.4 73.1 71.8 71.6 72 73.7 74.4 74.2 73
144.6 147.1 148.9 149.3 153.6 156.3 152.1 150.1 152.3 153.4 156.3 158.7 160.2 164.5 167.8 171.7 176.6 179.2 178.6 173.1 171.1 178.8 181.2 196 210 223.5 229.7 238.1 249.7 252.1 249.7 253.4 260.2 267.1 265.8 265.2 264.1 259 251.6 243.6 235.9 229.5 222.8 221.6 221 220.2 219.4 219.5 219.2 218.6 218 217.6 217.9 218.5 218.7 218.5 218 217.2 216.3 215.4 215.3 214.6 216 220 223.8 226.9 232.2 234.3 234.8 233.4 230.4 228.7 225.6 222.6 220.9 220.4 220.5 221.1 222.3 222.4 220.7 216.5 214 211 206 201.7 197.8 193.5 191.6 188.6 190.2 190.6 191 192.3 197.9 201.5 203.1 206.2 211.3 216.6 218.3 218.3 215.1 217.2 213.3 208.6 201.7 197.4 191.2 187.3 184.3 182.6 178.2 172 169.7 165.9 162.8 159.8 156 147.6 143 139 135.9 133.7 128 126.4 126.4 126.4 126.4 128.6 132.9 140.4 142.1 143.1 139.8 135.3 130.6 128.7 124.3 119.8 119 118.8 115.9 113.1 109.7 107.5 101.5 86.6 76.8 78.2 76.5 75.3 72.9 72 71.1 70.1 69.7 69.4 76.9 86 79.1 72.9 71.2 74.1 72.6 70.7 74.2 70.1 66.8 67.7 71.6 76.3 88.3 91.4 94.3 93.5 87.7 88.2 90.2 90.9 99.1 105.4 105.1 102.9 97.1 86.9 84.2 80.6 78.1 76.1 74.8 74.2 73.3 72.6 74.7 73.6 74.9 76.5 76.2 75
136.6 139.3 143.8 142.5 148 151.9 152.7 149.6 148.6 150.4 158.2 158.9 160.5 164.4 167.2 171.2 175.7 176.3 175.2 169.5 167.3 172.2 175.8 192.7 204.1 214.2 221.8 231.4 239.1 243.1 244.7 249.2 259.1 266.4 273.5 271.8 268.7 262 254.1 245.4 236.6 228.9 221.5 219.8 219.6 218.8 218.1 217.7 217.9 217.2 216.9 216.4 217.8 218 218.5 217.7 217.1 216.2 215.4 214.5 213.9 212.7 212.8 216 219.2 222.3 226.3 228.6 229.3 228.8 226.7 223.8 218 218.1 217.2 215.7 215 215 218 220.8 219.2 215.9 213.7 211.2 205.6 200.2 197 193.3 189.6 186.6 187 186.7 187.5 187.6 193.1 197.9 199.4 203.8 206.3 211.8 216.4 219.4 214.4 216.6 213.2 208.7 203.2 199.6 193.3 189.6 185.1 183.1 179.9 173.8 169.7 166.7 164 160.8 157.2 149.6 146 141.7 137.1 133.9 130.7 132.9 126.4 126.4 126.4 128.4 132.8 136 136.8 141.4 140.2 134.3 131.4 129.5 125.3 119.3 119.2 117.4 115.9 109.4 107.7 93.9 100.7 98.6 88.5 83.7 80.7 76 69.4 71.3 70.3 69.7 69.3 71.6 82 86.9 81.9 74.8 72 75.2 75.8 70.1 69.7 68 66.4 67.9 71.4 82 96.4 99.9 108.1 108.4 95.8 95 95.1 94 98.6 104 104.4 102 96.6 90.3 83.6 80 77.2 75 74.3 75 74.7 72.7 73.3 74.9 76.7 78.8 78.2 75.3
129.2 133.1 137.5 139 143 147.8 153.8 149.4 146.2 149.2 156 159.5 162 163.9 167.4 171.2 175.1 174.8 171.1 166.1 164.1 165.5 172.8 186.5 196.6 204.9 212.5 221.8 230.3 236.7 237.8 240.5 248.7 259.2 269.3 275.9 276.1 262.2 254.4 246.5 233.3 225.7 222 217.4 218.3 218 217.6 216.4 216.4 216.4 216.4 216.4 219.2 218.9 218.1 217.1 216.1 215.1 214.2 213.2 212.6 211.2 211.7 213.1 215.4 218.2 221.2 224 224.7 224.5 222.5 219.5 216.2 215.1 213 211.2 210.9 210.5 213.4 217.4 216.1 214.4 212.7 209.8 204.5 198.9 195.9 191.5 187 187.3 184.7 183.8 183.8 186.3 189.4 193.7 196.4 199.5 200.4 207 212.5 215.7 212.9 215.5 213 208.4 203.3 200.7 195 190.2 185.1 183.1 179.6 173.7 170.6 167.2 164.8 161.5 161.3 157.3 153.1 149.2 139 135.1 133.5 132.2 127.3 126.4 126.4 127.9 131.9 133.6 135.1 137 136.5 131.5 133.8 131.2 126.2 115.8 104.5 102.5 102 99.4 99.7 109.3 107.5 105.8 98.2 86.1 83.1 77.6 72.4 68.9 69 69.4 69.6 75.5 86.1 86.6 82.2 74 73.1 72.9 73.9 68.9 67.4 66.5 66 66.3 77.8 95.7 106 117.5 124.8 118.3 110.9 103.8 97.6 102 98 103.2 103.9 99.2 94.4 88.9 84.3 80.1 76.1 74.9 75.2 75.8 75.1 73.4 73.6 76.1 78.6 80.9 80.1 76.3
