ncols 200
nrows 82
xllcorner 200000
yllcorner 835350
cellsize 50
259.1 264.6 272.3 272.7 278.9 280.7 288.1 294.9 289.9 286.3 287.2 288.6 290.4 291.6 294.7 298.8 300.6 297.5 285 271.6 259.7 251.6 241.6 229.8 224.5 220.5 218 213.7 212.9 215 216 216.5 222.2 225.3 231.1 241.5 251.1 252 253.5 257.4 266.5 273.6 274.5 275.9 278.5 279.1 283.4 284.5 293.7 303.7 312.9 324.5 332.4 341.5 344.5 355.5 351.2 359 370.8 367.4 369.8 370.1 369.9 371.8 373.9 373.9 372.9 376.3 378.3 379 381.1 382.2 384.1 384.7 383.9 395.1 412 423.7 422.2 424 419.2 413.3 406.5 402.9 397.8 394.4 389.1 380.1 374.6 371.1 367.9 362.9 365.4 368.5 367.5 365 368.7 374.5 380.1 389.5 401.4 408.5 414.1 422.2 429 438.4 446.5 463.3 478.1 495 511.7 531.9 548.8 553 559.3 582.8 603.4 621.7 633.6 646.5 658 661.8 660.7 658.4 657.4 654.9 655.3 655.5 656.8 657.4 662.3 667.8 670.3 678.9 691.6 705.8 710.8 715 697.3 679.3 660.7 647.5 636.6 625.7 616.3 607.3 600.5 593.1 584.6 577 569 565.4 562.5 559.2 561.1 562.2 560.8 557.6 553.2 554.3 556.9 558 559.9 560.3 560.1 558.3 554.9 548.9 543.7 531 516.9 497.6 480.6 465.7 453.4 443.3 433.6 423.9 416.3 407.3 398.9 390 384.3 377.9 370.4 362.1 364 363.8 360.5 360.5 358.5 353.1 348.8 344.5 338.1 338 336.5 331.9 329.6 322.2
259.1 266.2 268.2 272.3 273.5 278.9 278.6 278 277.9 281.4 286.2 288.8 292.2 293.1 293.3 301.8 300.3 289.5 272.3 262 246.4 240.9 226.8 222 220.6 217.3 215 212.2 213 214.2 214.8 216.3 222.3 222.7 226.3 236 240.7 250.1 250.6 254.6 260.5 267.1 268.6 271.2 271.8 272.8 277.1 279.9 295 301 313.6 322.8 330 330.5 331.7 340.1 343.6 352.2 355.2 362.3 358.1 358.7 357 357.1 359.4 361.3 363.3 367 370.7 374.4 372 370.3 370 371.1 373.9 383.1 388.9 395.4 398.9 400.6 401 394.6 389.9 384.4 376.3 373.1 369 367.3 363.2 362.4 358.5 354.2 360.1 359 357.1 355.4 357.5 362.1 368.4 378.3 387.2 393.7 400.1 406.1 412.5 421.9 428.2 446.6 462.5 482.4 494.7 511.8 523 520.2 547.6 561.9 586.1 604.9 621 633.5 646.5 653.7 651.8 649 648.8 648.1 649 648.4 646.3 646.6 652.8 656.6 658.5 673.3 687.6 700.6 708.7 712 694.6 674.7 656.6 643.7 632.1 621.6 611 602 594.8 587.2 580 571.9 565.1 558.5 554.2 551.1 551.5 552.1 550 547 542.9 542.2 540.1 543.4 545.5 545.7 545.5 545 539.8 534.3 530.8 518.9 504.3 483.6 469.9 460.8 445.8 437.5 423.9 416.1 408.2 400.2 389.5 382.6 377.4 370.2 362.5 357.4 355.7 355 353.4 352.4 351 347 339 334.9 330.2 328.8 327.6 324.2 319.9 315
261.2 263.7 265.3 265.7 272.7 271.1 271.6 272.4 276.5 283.1 286.5 296.9 295 292.2 286 287.6 281.4 270.4 259.9 246.3 238.5 229.6 221.1 217.3 217.8 215.9 211.2 211.9 212 213.6 214 219 220.3 221.7 223.3 229 237.1 243.1 245.6 250.3 257 263.4 263.7 269.4 268.8 269 269.6 277.7 292.7 302.9 313.4 319.5 320.4 319.9 323.7 331.9 339.6 339.8 346.8 346.3 344.5 345.4 346.6 349.1 351.4 354.7 352.7 358.8 360.4 358.3 358.2 358.8 358.9 366.4 370.7 375.1 376.9 384.4 384.7 383.9 379.4 372.3 369.7 363.4 360 358.2 357.3 354.4 354.8 351.9 352.8 352.1 353.8 352.3 350.4 349.8 351.1 351.4 359.1 368.4 370.6 376.2 385 388.9 398.5 406.1 416.1 430.1 446.7 464 474.6 487.3 497.8 503.4 522.3 543.4 564.6 586 601.9 620.9 636.9 645.8 645.6 645.5 643.4 642.4 640.9 639.1 637.2 637.3 639.7 640.9 650 666 679.3 694.6 700.2 704.6 685.8 668.1 651.5 639.8 629 619.5 607.9 597.2 588.7 581.2 572.9 567 561 555.9 549.2 545.2 542.7 544.3 538.7 536.4 534.7 531.4 527.3 528.5 530.8 531.5 531.8 529.2 523.3 520.9 512 500.4 488 473.5 459.4 448.8 440.4 427.3 416.4 406.2 399 391.7 384.5 376.7 372.9 362.7 357 351.1 345.6 346.6 343.9 343.7 338.8 336.1 332.2 327.4 322 318 314.7 312.3 309.1 306.3
257.7 259.2 259.6 266.6 266 266.5 267.2 269.8 274 277.3 281.3 289.1 292.2 299.1 287.6 275.9 269 254.5 243.6 236 229.7 220.4 216 213.1 213.3 211 211.2 211 212.5 213 213.6 214.4 217.1 219.8 220.9 225.3 229.8 235.1 244.1 248.4 253.8 257.2 260.4 263.2 264.4 269.2 268.4 276.3 285 297.7 301.8 305.4 314.3 312.8 314.7 325.2 329.8 330.2 332.3 332.5 330.1 339.3 342.5 344.2 347.2 346.4 349.8 354.9 357.4 357.9 359.2 358.7 358.4 362.2 362 363.6 363.9 365.7 367.6 364.9 360.6 360.1 357.1 354.8 354.4 354.1 354.4 346.4 343.9 343.9 344.5 346 344.3 345.8 346.1 343.9 343.9 343.9 346.2 352.2 358.1 365.4 372.5 380.7 389 396.7 401.8 413.9 429.1 441.8 457.1 467.7 476.8 487.4 505.1 531 554.1 577 599.1 627.8 643.2 650.4 646.9 644 638 634.3 631.4 628.7 628.7 628.7 627 630.2 641.1 653.2 665.8 681.9 687.1 690.6 677.8 661.8 648 635.9 627.7 617.3 606.1 595.5 584.7 576.3 568.6 563.2 558.4 552.4 545.2 539.4 535.8 535.8 532.4 528.8 524.1 519.9 516.1 514.6 514.3 515.9 517.1 513.7 510.4 504.1 495.5 481.9 473 462.8 450.3 440.4 428.7 418 406.9 399.2 392.2 384 379 371.8 365 356.6 348.7 344.6 335.3 336.6 336.4 336 332.1 328.9 322.7 319.1 313.2 310.8 309.5 306.2 304.1 296.2
250.6 253.1 255.5 260.7 262 264.8 269.2 272.3 272.6 271 273.6 279.5 287.4 287.7 275.5 268.4 254.5 244.1 234.6 228.5 222 215 211.5 210 208.5 209.3 210.8 211.2 211.8 212.4 213 213.5 214.1 216.1 219.5 220.3 227.5 233.8 238.6 244.5 247.6 250.5 254.9 258.8 260.8 262.2 267.4 271.9 278.1 283.1 290.2 297.4 295.3 300.7 308.8 313.9 310.8 322.2 325.4 333.5 339.2 343.1 346.2 350.6 353.5 363.1 364.8 361.8 364 366.6 362 359.8 360.8 361.2 362.1 361.8 365.9 364.6 362.6 359.7 356.8 358.5 358.2 354.8 353 348.2 343.9 343.9 343.9 343.9 343.9 343.9 343.9 343.9 343.9 343.9 343.9 343.9 343.9 345.1 351.6 357.5 364.2 377.2 381.3 389 399.2 407.8 413.2 426.5 444.3 453.6 457 480.6 501.2 522.9 548.2 569.7 593 619.7 637.5 649.6 645.1 638.8 633.5 627.1 621.9 619.2 618.6 619.6 618.7 621.9 631.6 645.2 656.2 669.3 677.4 684.2 673.3 658 643.8 633.3 623.6 613.1 603.6 593.4 582.8 574.1 567.2 559.9 555.3 550 540.2 533.5 526.1 526 523.7 520.8 515 509.3 504.9 503.3 502.8 503.5 502.3 498.7 492.8 485.3 477.5 471.7 458.9 454 440.4 427.4 417.8 409 399.9 391.2 385.1 377.2 369.9 364 355.8 350.4 343.7 337 332.1 327.2 328.4 326.1 323.4 318.8 313.9 309.2 306.5 309 304.4 300.8 294.5 291.4
244.7 247.5 251.5 253.6 257.4 260.9 270.5 269.8 267.3 264 265.5 271.9 274 277.6 270.4 257.4 246.4 234.4 227.1 220.1 215.8 211.4 209.9 208.5 209 208.9 209.8 210.3 210.5 211.2 213 213.5 214.8 215.3 216.7 221.2 224.7 230 234.5 241 244.7 248.3 253 255.9 258.9 261.3 266 271.5 275.6 282.4 280 281.5 294.8 302.9 312.3 320.7 326.1 331.6 329.9 340.7 348.1 352.4 355.8 364.8 382.9 394.5 392.8 387.9 389.3 383.9 380.5 376.6 372.1 370.9 366.1 364.6 365.5 367.5 364.3 357.1 355.1 356.3 356 360.5 353 345.4 343.9 343.9 343.9 343.9 343.9 343.9 343.9 343.9 343.9 343.9 343.9 343.9 343.9 343.9 344.3 349.4 353.7 361.4 366.7 373 380.4 392.2 400.6 411.6 424.5 439.7 451 467.4 485.6 506.1 527.1 555.2 572.8 593.9 625.5 638.4 636.6 633.2 628.3 623.2 612.1 608.3 608.7 613.7 613 616.9 624.4 628.5 645.4 655.3 669.8 674.5 667.7 653.5 639.3 630.1 620.5 610 601.1 592.6 582.9 573.7 565.6 559.4 552.6 544.7 534.3 527.6 518.5 517.2 515.1 513 507.3 500.8 494.9 494.4 494.2 492.2 490 484.5 479 471.8 465.4 457.1 449.4 436.3 425 417 406.6 399.2 392.2 385.7 379 370.1 363.7 354.5 349.1 344.1 337.6 332.4 326.6 323.5 319.4 319.1 314.9 311.5 307.6 301.9 305.1 299.3 296.8 291.9 289 285.4
235.8 241.7 244.5 245 245.5 250.9 260.1 260.8 257.1 260.3 260.5 265.1 267.1 264.9 255.3 244.8 237.4 226.6 217.8 214.5 210.4 207.8 208 207.6 208 208.5 209.9 210.4 210.8 212.4 212.9 213.5 214.8 215.9 216.9 220.5 229 233.8 238.7 241.5 243.9 245.4 248.6 250.8 250.7 258.7 258.5 268 270 277.3 284.7 292 303.3 312.7 322.3 331.3 333.6 340.2 349.5 351.6 359.3 363.1 378.8 406.5 424.3 434.1 434.8 435.7 417.7 407.8 396.8 394.9 390.1 387.1 380.6 378.2 377.3 380.3 374.2 361.4 353.4 351.1 353.1 352.7 345.1 343.9 343.9 343.9 343.9 343.9 343.9 343.9 343.9 343.9 343.9 343.9 343.9 343.9 343.9 343.9 343.9 344.4 345.2 351.2 357.3 364.4 373.4 380.2 391.4 402.8 411.6 414.6 434.8 448.5 465.8 485.7 502 526.6 550.2 571.6 598.6 618.1 622.3 622.6 617.7 611.8 604.5 596 601.9 603.3 610.2 613.8 618.4 624.1 633.9 644.8 657.2 662.3 659.8 650.7 637.6 626.2 617 609 599.9 590.7 582.3 574 566.2 557.8 549 539.5 529.9 521.4 512.3 511.3 506 503.4 497.8 492.4 488.5 486.8 485.1 482.9 479.4 473.1 464.7 459 453.7 445.5 436 425.1 417.2 407.1 400.7 393.1 386 378 371.5 365.3 356 348.5 342.2 338 332.6 330 326.5 317.6 310.2 310 309.7 304.6 301.1 298.5 298.7 298.4 294 289.8 286.2 283.5
233.2 238.6 238.4 236.2 238.8 243 247.7 250.4 253.6 254.4 255.6 254.8 251.1 244.5 239.3 232.8 224.1 219.6 214.3 210 208.6 207 207.8 207.1 207.5 208.2 209.6 210 210.3 211.8 212.4 213 214.2 215.6 221 230.1 234.2 238.7 241.7 245.7 251.5 252.6 256.2 257.4 261.8 261.2 269 272.4 278.3 283.9 292.6 302.7 313.6 332 336.3 344.8 349.9 347.6 358 361.7 373.6 391.4 410.7 436.6 469.7 476.9 466.9 451.8 442.3 425.2 425.8 420.7 409.7 399.9 399.4 407.8 399.9 388.6 382.8 371.1 359.1 349.3 347.4 346.5 343.9 343.9 343.9 343.9 343.9 343.9 343.9 343.9 343.9 343.9 343.9 343.9 343.9 343.9 343.9 343.9 343.9 343.9 343.9 345.9 350.8 358.1 362.6 370.7 383.1 389.6 397.9 405.6 418.1 431.2 446.7 464 480 499.3 523.8 544.6 567.5 592.1 600.7 605.5 600.8 596.4 590.8 581.5 585.9 591.9 597.6 603.3 611.6 620.8 631.4 640.6 648.6 652.6 651.2 644.2 633.8 623 614.5 606 596.9 588.7 580.5 573.5 565.8 556.3 545.9 535.4 525.4 514.3 509.3 503.1 498.7 492.6 487.4 483.8 481.4 478.9 476.1 471.1 467.3 460.3 453 447.9 442.2 436.9 428.7 421.5 412.1 403.9 389.4 381.8 376.7 367.3 361.6 357.2 348 340.4 336.9 330.9 326.9 324.7 321.1 315.2 309.3 304.1 304.1 301.9 298.4 296.5 294.5 291.3 288.7 287.7 282.5 279.8
229 236.8 231.6 228.7 231.7 235.7 239.9 244.2 243.8 245.5 249.1 245.5 245.1 238.4 234.1 224.9 218.5 210.9 214.9 208.1 207.5 207.2 207.1 206.9 207.3 207.6 208.6 209.5 210.1 211.2 212.2 212.5 214.7 220 228.5 234.9 243.8 245.2 248.6 250.6 257.6 260.2 259.2 264.2 270.4 275 280.1 282 286.9 300.4 311.6 316.1 328 348.7 359.9 368 366.3 367.1 371 381.6 399.1 412.2 431.7 478.2 485.7 477.8 462.7 457.5 454.3 446.1 433.6 427.4 419.7 409.4 412.6 418.4 407.8 395.1 389.6 382.7 371 361.5 356 355.8 350.6 344.4 343.9 343.9 343.9 343.9 343.9 343.9 343.9 343.9 343.9 343.9 343.9 343.9 343.9 343.9 343.9 343.9 343.9 343.9 343.9 351.5 354.7 362.7 371.9 378.5 385.2 392.6 405.1 417.6 432 445.7 465.6 476.9 492.4 528.1 541.1 561.1 574.7 583.6 582.8 578 575.4 573.4 561.9 576.1 583.2 591.7 599.2 609.2 623.1 633.9 643.6 652.6 647.1 639.2 630.3 621.7 610.4 602 594.4 587.1 579.1 572.3 564.1 553.9 542 530.5 520.1 511.8 505.3 494 490 483.4 479.3 478.1 474.8 469 464.5 461 455.3 447.6 443.8 438.8 432.3 426.4 417.8 408.7 402.5 389.2 379.9 372.1 365.5 358.4 352.4 347.5 340.7 335.6 330.3 324.2 320.8 318.4 314.4 309.3 307.4 300.8 299.5 298.3 292.5 290 290.6 291.5 290.4 289.5 284.5 278.7
220.6 225.5 223.7 221.7 224.1 225 232.2 231.8 231.5 234.7 237.3 236.4 231.4 222.1 217.3 213.7 210.1 207.1 206.7 207.3 207.1 205.6 206.2 206.6 206.9 207.2 207.9 208.9 210 211.2 213.3 215.7 221.9 230.9 238.4 246.7 250 253.7 257.1 262.1 264.2 272.5 273.2 271.7 283.9 290.7 298.9 306 311.3 323.4 335.1 343.1 349.5 364.5 379 384.9 387.2 384.6 382.4 398 407.4 434.6 465.1 475.2 475.9 467.3 461.2 456.4 450.3 444.8 439.3 432.1 423.3 421.1 417.4 415.8 414.4 407.3 398.9 388.6 380.4 374.8 366.8 359.8 353.7 350.2 346.1 343.9 343.9 343.9 343.9 343.9 343.9 343.9 343.9 343.9 343.9 343.9 343.9 343.9 343.9 343.9 343.9 343.9 343.9 344.7 348.4 354.7 362.6 367.5 373.5 378.6 391.6 404.6 420.6 432.1 444.5 453.6 463 489 508.5 528.7 545.7 556.8 562.4 560.2 561.2 557 546.4 562.8 571.6 577.9 589.3 596.7 605.3 617.3 632.3 638.5 639.5 634.6 627.9 619 609 600.1 593.1 585 577.2 568.7 560.8 550.9 539 528.7 517.3 509.7 499.7 489.4 476.5 476.2 471.6 468.9 466.4 461.5 454.9 449.7 442.7 438.9 430.9 425.7 420.2 413.4 405.8 399.5 387.2 379 369.4 361.9 356.3 350.3 344.3 338.6 335.1 330.8 322.8 317.2 315.5 313.1 311.4 305.4 301.4 298.7 292.1 292.5 289.7 287.1 283.7 285.8 286.6 285 281.2 275.3
209.9 211.7 211.7 214.5 217.2 219.6 220.8 221.9 221.8 222.5 221.5 222.5 218.9 212.9 213.5 207.3 210.1 205.6 204.7 205.1 205.4 205.8 206.5 206.3 206.3 206.9 208.6 209.3 210.3 212.1 216.9 229.8 234.9 242.5 248.7 253 257.9 264.7 269.1 274.8 276.3 280.9 284.3 293.8 297.7 312.2 322.3 333 345.9 361.3 364.5 372.3 373.7 381.6 392.1 399 405.1 403.6 403.5 409.6 422.6 449.3 458.8 464.8 467.7 462.8 464 458.8 453.7 454.3 456 447.7 437.1 431.1 436.9 433.3 430.4 419.9 409.1 405.3 392.6 382.4 378.5 374.4 367.7 357.8 350.7 348.4 343.9 343.9 343.9 343.9 343.9 343.9 343.9 343.9 343.9 343.9 343.9 343.9 343.9 343.9 343.9 343.9 343.9 343.9 343.9 351 355.3 359.6 361.7 365.9 382.4 394.1 406.7 419.1 428.1 432.8 443.2 464.8 485.6 504.4 518.8 531.4 540.4 540 540 537.5 539.8 549 557.8 565.6 576.3 584.7 593.8 604.6 613.4 620.7 624.7 623.5 620.3 615.5 607.8 599 590.7 582.3 573.1 564.6 555 544.9 535.6 526.1 514.3 504.1 492.8 482.8 479.8 470.5 464.9 462.1 455.7 449.4 443.9 435.4 431.5 424.8 418.9 411.9 406.9 401.7 392.6 388.4 377.3 369.5 360 354.7 345.5 341.7 336.3 332.8 326.7 323.6 317.3 311.6 310.6 312.2 308.9 302.7 295 293.2 290 289.3 287.9 284.5 281.7 284.3 280.9 276.9 274.4 270.3
202.7 203.9 206.1 209.9 209.4 211.1 213.8 214.1 212.1 212.3 214.5 213.6 216 210.2 209 203.9 204 204.2 205.2 204.9 205.6 206 205.7 205.9 208.2 208.9 210.6 211.2 214.6 223.5 229.3 232.7 244.5 253.3 260.1 264.9 267.6 277 285.6 286.5 285.4 290.5 299.6 310.6 318.7 335.8 351.3 367.7 378.3 386.1 392.2 397 401.3 401.2 408.4 412 413.6 425.7 427.1 430.4 435.9 449.7 457.6 459.5 461.3 462.2 471.5 473.6 471.1 482.7 478.5 469.2 464 452.6 443.2 438.1 427.6 426.1 417.9 413.5 409.7 396.4 382.5 378.8 376.5 370.7 361.1 354 349.3 345.6 347 345.1 343.9 343.9 343.9 343.9 343.9 343.9 343.9 343.9 343.9 343.9 343.9 343.9 343.9 343.9 343.9 347.2 351.1 353.8 354.7 357.3 368 380.3 390.9 400.4 409.1 415.9 430.1 448.1 464.8 480.4 497.1 504.7 514.3 514.5 517.5 510.9 524.2 532.2 539.6 546.8 555.5 567.6 577.6 586.5 593.4 599.9 602.6 604.7 603.5 604.7 601 593.3 584.6 577.2 568.5 558.8 550 540.3 530.6 519.7 511.1 499 487.7 476.5 475.3 467.6 460 453.2 441.2 436.4 429.9 424.2 416.2 409 402.9 399.2 395.6 386.8 381 374.6 368.8 362 351.7 343.6 341.1 336.8 331.7 326 318.8 314.8 312 305.4 299.8 299 299.7 295.7 289.3 288.1 287.5 282.9 281.7 282.2 281.7 281.7 276.9 274.3 268.4 261.9
201.5 202.5 200.8 202.5 205.5 207.4 207.1 205.9 205.8 204.3 207.4 207.8 205.1 205.7 207.5 205 204.7 206.9 210.1 208.7 207 207.9 206.5 207.2 207.7 209.9 212.1 215.4 222.8 231.2 239.2 245.2 260.8 269 274.9 281.4 283.1 288.7 292.3 295.2 295.9 308.3 312.1 333.6 345.8 354.7 371.2 384.5 393.2 396.1 399.5 405 406.8 409.8 413.5 419.4 428.1 440 456.7 461.6 458.2 464.8 475.7 471.8 473.3 476.5 483.2 492.4 497.4 505.4 508.7 498.8 497.1 489 479.1 462 451.4 439.5 426.6 422.8 416.6 410.7 394.8 386.1 379.9 373.1 367.4 363.5 357.6 354.7 350.1 347.7 343.9 343.9 343.9 343.9 343.9 343.9 343.9 343.9 343.9 343.9 343.9 343.9 343.9 343.9 343.9 343.9 347.3 349.8 349.4 350.6 359.1 369.1 379.4 385.8 392.6 402.4 415.3 430.9 448.5 461.8 471.9 478.1 489.2 493.8 492.7 479.3 503.9 511.4 516.2 532.8 541.7 549.3 556.7 567 575 579.5 583.1 588.2 591.1 592.1 589.4 581.7 574.7 567.4 563.5 557 548.1 534.8 526.3 515.5 501.1 492.3 482.6 472.9 466.5 461 453 442.7 436.1 417.3 415.6 408.1 402.2 395.9 391.3 385.3 379.3 373.7 370.5 366.9 359.3 349.7 340.7 337.4 334.2 326.6 322.6 317.5 311.6 308 302.7 301.8 296.7 294.4 290.9 289.2 288.3 285.9 284.4 284.7 277.6 280.5 280.9 279 275.8 272.9 266.1 266.3
201 200 199.5 200.7 203.2 205.1 205.7 202.5 203.2 204 205.3 202.5 207.4 213.2 220.5 212.9 208.8 210.4 211.5 212.7 214.5 212.9 210.2 209.2 211.8 215.2 217.3 223.4 228.4 238.2 256.2 265 274.6 281.6 287.8 293 298.3 300.7 309.3 315 317.8 321.1 337.1 345 355.8 362.8 369.2 376.7 379.1 392.4 400.6 405.1 407.9 419.5 429.2 438.4 454.1 474 495 507.9 520.3 515.2 502.5 494 498.8 500.5 506.2 513.4 514.1 522.6 520.4 517.5 511.8 503.8 506.9 497.5 470.9 457.9 450.4 440.6 428.5 431.3 424.5 416.7 392.2 383.9 377.4 372.8 367.2 361.3 355.7 353.5 349.5 345.3 343.9 343.9 343.9 343.9 343.9 343.9 343.9 343.9 343.9 343.9 343.9 343.9 343.9 343.9 344.3 345.2 344.4 345.9 347.7 355.7 361.7 370.7 379 387.5 399.8 413.9 430.3 446.8 449.5 458 461.9 468.4 470 454 478.1 490.2 498.3 511.3 523 533.1 539.2 548.7 557.6 564.3 568.1 571.4 573.2 573.7 572.2 566.9 565.8 561.4 557.6 548.1 538.4 528.6 517.8 507.9 497.9 490 479.8 469 458.4 453.3 442.7 431 421.6 412 398.2 395 389.1 380.8 375.5 371.2 365.9 361.8 356.6 350.1 344 338.3 332.5 330.3 322.8 320.3 315.5 310.4 307.3 299.3 295.5 294.5 291.2 291 287.2 286.8 283.3 283.1 279.5 277.5 279.5 272.5 272.7 271.6 270.2 271.1 269.4 264.9
200.3 202.2 198.9 200.3 201 199.9 199.8 200 201.2 201.4 200.6 207.5 209.9 216.1 216.9 221.5 219.8 216.1 217.5 217.3 217.7 215.8 214 212.4 221.8 220.7 228 235 245 252.7 270 281.9 289.7 296.6 302.1 308.6 311.2 312.7 320.2 326.7 326.6 337.6 349 355.9 364.7 370.6 375 389.9 401.1 416.4 417.4 421.9 435.5 440.1 449.2 466.6 482.2 507.2 520.8 527.9 529.6 522.4 514.8 523.7 527.4 532 534.8 537 533.3 530.2 528.9 526.9 524.8 533 524.3 508 493.3 479.1 476.1 465.4 457.3 443.9 438.1 427.4 413.1 405.8 401.5 390 383.2 374.8 370.3 367.4 359.4 354.8 349.9 348.4 348.1 343.9 343.9 343.9 343.9 343.9 343.9 343.9 343.9 343.9 343.9 343.9 343.9 343.9 343.9 343.9 343.9 343.9 349.9 364.9 366.9 372.9 383.1 398.8 415.2 427.4 429.5 437.5 439.9 447.2 447.1 447.1 461.2 474 479.5 492.5 506.5 514.2 521.7 529.8 538.7 544.9 545.4 546.9 551.2 552.2 552.9 552.1 551.8 548.6 543.9 540.9 531.3 519.3 507.4 499.8 491 483.4 474.3 463.3 452.5 442.6 431.9 417.7 406 398 383.5 379.7 374.6 369.3 365.1 361.7 354.8 349.8 346.9 341.5 333.1 330.5 325.2 318.5 315.9 309.5 307.4 304.3 302.5 295.7 293 292.8 287.7 285.6 282.8 281.7 278.9 275.2 274.3 272.8 270.9 268.4 268.2 269 263.7 264.9 268.1 267.7
199.2 199.5 200.7 198.2 197.3 198.8 198.9 198.9 200.4 207.1 211.4 213.8 216.1 225 223.3 223.5 223.7 225.7 223 223.9 228.5 224.6 219.6 216.3 224.4 232.5 238.1 247.7 258 269.2 284.1 292.5 299 302.9 306.6 313.6 322.2 321.8 325.6 335.2 344.4 352.7 369.1 370.5 378.3 386.3 393.7 416.7 429.2 436.7 445.3 448.5 451.7 456.4 479.2 497.5 513.5 527.9 528.1 523.1 528.3 525.2 526.7 529.7 533.3 541 553.3 561.9 565.4 576.5 559 551.3 550 549 533.3 524 516 505.6 493.9 490.6 482.7 472.8 455.4 448.3 438.9 426.3 420.1 410.8 401.1 392.7 385.5 375.5 369.2 363 359.8 353.3 351.3 346.4 343.9 343.9 343.9 343.9 343.9 343.9 343.9 343.9 343.9 343.9 343.9 343.9 343.9 343.9 343.9 343.9 343.9 358.4 361.8 365.1 371.7 383 393.3 405.9 409.7 419.7 425 424.4 422.5 428.1 443.8 455.9 463.9 476 483 494.3 501.6 506 515.5 520.3 520.5 523.7 528.2 527 529.9 532.3 533.8 532.2 526.9 529.8 518.3 504.7 497.5 487.1 480.2 475.9 463.3 452 442.1 429.8 413 404.6 394.9 386.2 374 368 365.4 357.1 351.4 349.9 344.2 339.3 335.4 332.3 324.7 320.7 314.9 310.8 308.5 304 299.9 296.9 296.3 290.9 288.9 288 280.8 279 277.6 278.1 272.7 269.9 269.2 269.6 268.4 263.9 265.1 263.3 261.3 260.6 262.8 262.3
198.4 197.6 197.5 196.4 196.7 197.8 200.3 199.5 201.3 208.4 211.8 217.7 219.8 222 225.4 225.2 224.2 226.4 227.1 227 227.6 228.4 227.1 229.8 238.1 250.7 253.9 266.7 281.5 291.3 296.7 300.6 305.4 310.5 314.6 321.2 325.9 330.3 338.2 353.3 370 365.7 377 384 401.9 412.5 419.4 440.1 449.3 452.4 462.8 466.1 475.9 497.9 507.1 510.7 518.4 527.9 530.1 529 533.4 534.7 533.4 532.6 547 563.4 582.6 601.9 604.4 605 609.7 603.8 605 594.2 579.1 556 540 517.8 512.9 505.6 498.9 493.4 485.2 477.5 479 472.1 447.6 430.7 415.6 408.2 399.6 390.8 384.1 375.7 371.9 367.2 362.8 357 357.1 352.8 347 343.9 343.9 343.9 343.9 343.9 343.9 343.9 343.9 343.9 343.9 343.9 343.9 343.9 343.9 349.7 354.6 361.6 364.1 369.1 377.6 385.2 391.3 402.4 406.6 404.9 407.7 420.4 430.5 437.5 446.3 456.3 460.8 473.8 481.9 486.6 493.5 497.3 498 501.3 501.6 505.9 504.6 504.3 509.7 508.5 502.4 504.1 495 488.9 479.5 473.2 466.5 458.1 447.9 438 427.6 413.8 401 393.1 382.6 374.6 368 358.6 353.3 349.4 343.7 338.2 333.5 329.4 328.4 323.2 316.6 313.6 308.8 306.4 301.6 299.3 296.2 292.3 290 287.3 285 286.5 278.1 272.9 271.3 271 270 268.7 264.9 267.2 266.6 261.9 265.3 261.9 260 258.4 258.3 257.3
207.4 202.2 196.9 196.8 195.5 198 199 199.7 202.8 210.1 214.3 217.6 220.4 222.6 224.4 226.5 227.8 229.3 233.8 233.3 233.6 233 235 241.8 250.8 260.2 271.2 282.8 294.5 303 303.8 310.6 315.7 320 333.1 333.3 340.4 345.1 354 360.5 376.2 384.4 400.3 412.8 422.8 433.3 444.1 462.3 476.8 478.2 481.6 492.8 506.3 515.5 520.3 521.6 527.2 530.2 534.8 539.1 543.3 539.1 538.1 557.7 582.6 595.2 611 628.6 633.1 631.6 631.5 644.1 650.1 640.3 618.2 591.1 572.7 555.4 537.4 522.2 513.4 501.6 493.8 487.9 486.8 498.9 473.1 448.8 434.3 427.9 417.2 406.1 399.4 394 389.2 378.8 372 367.1 363.2 356.5 354 348.5 343.9 343.9 343.9 343.9 343.9 343.9 343.9 343.9 343.9 343.9 343.9 343.9 343.9 343.9 347.6 355.2 356.5 360.4 366.5 374 377.5 385.2 388.6 390.9 397.7 404.6 415.1 420.6 429.6 436.1 445 454.6 458.8 465.4 471.4 470.8 476.1 477.3 477.5 484.7 485.3 483.2 481 481.2 478.1 481.1 476.9 467.6 459.6 450.8 446.8 438.3 430.3 423 413.1 402 390.8 380.9 372.4 361.9 356.6 349.5 342.9 337.1 333.9 329.9 325.8 318.5 313.1 313.9 309.8 309.8 307 300.6 294.6 292.1 288.9 285.7 284.4 284.4 283.1 282.8 274.9 269.4 268.2 267.9 267.2 264.6 263.2 263.1 264.4 260.2 260.4 260.3 260.2 258.6 257.8 255.9
213.8 207.4 199.6 196.2 195 194.8 197.6 201.4 205.8 210.5 214.3 217.9 221.5 223 225 227.7 231 233.8 236.6 239.2 243.8 243.5 245.9 253.5 264.6 273.4 283.6 295.9 301.4 308.2 316.4 321.2 326.5 336.7 341.7 345.9 352 360.2 364.1 378.8 398.2 415.4 413.5 429.8 440.9 451.3 469.9 490.5 499.7 503.4 515.1 518 526.5 530.4 532 536 538.2 540.5 543.5 545.8 547.2 548.9 571.5 595.5 606.5 626.7 643.4 647.9 658.3 666.2 664.9 670.8 676.1 679.3 647.3 653.2 644 614.8 584.5 565.1 550.6 546 528.3 509.2 496.4 497 482.4 468.7 458.3 449.9 435.8 429 418.7 408.7 402 393.6 387.1 381.3 374.2 365.2 359.3 355.1 351.7 349.6 347.1 343.9 343.9 343.9 343.9 343.9 343.9 343.9 343.9 343.9 343.9 343.9 343.9 350.9 353.1 354.6 357.2 364 366.3 374.7 379.7 383.1 385.2 395.8 404.6 408.9 417.5 423.1 428.6 438.3 443.1 446.3 454 451.6 456.2 454 458.3 466.5 459.6 461.3 460.7 460.7 455.1 456.7 450.6 442 434.6 429 425.2 419.8 411.5 405.6 398.2 391.2 382.2 370.7 363.8 356.3 348.1 341.8 332.3 328.2 326.3 320.4 320 315 306.7 303.3 301.8 299.4 300 292.1 289.5 286.2 284.4 281.5 281.4 278.2 275.5 276 269 267 266.5 264.3 262.7 260.9 259.7 261.3 263.8 258.5 259.2 258.6 257.6 256.8 256.5 255.1
220.7 215.7 207.1 198.2 195.9 194.8 198.4 202.2 209 214.4 217.4 219.4 221.4 223.6 228.2 230.8 234.7 238.1 239.7 245.4 247.3 251.8 259.8 270.9 280.6 287.6 295 305.2 308.5 322.4 330.9 332.6 342.8 346.9 352.4 356.8 364.9 378.4 390.6 406.5 420.2 431.7 442.2 452.4 462.4 469.6 487.9 505.2 521.7 528.1 527.9 531.8 539.5 553.8 551.5 550 548.1 552.7 560.8 568.9 576.1 592.9 604.7 631.5 641.5 653.8 661.9 667.6 687.2 695.5 695.8 699.2 701 699.4 697.6 697.9 685.2 659.3 615.8 596.8 593.7 592.5 575.9 558.4 529.4 515 497.1 480.6 472.3 460.9 453.4 446.7 434.6 433.1 425.4 413.1 401.4 392.2 385.9 379.7 375.3 368.2 364.8 360.5 358.6 352.4 351.6 348.2 344.8 343.9 343.9 343.9 343.9 343.9 343.9 343.9 343.9 344.2 349.6 351.1 352.6 358.2 360.3 365.2 369.3 372.1 378.9 386.6 395.6 398.8 404 408 414.8 418.1 422.3 428 434.3 434.2 436 434.2 436.8 439.5 434.4 440.1 435.1 436.9 434.8 429.5 427.5 418.9 414 410.5 405.2 401 394.5 390.2 385.4 378.7 371.9 362.7 354.4 347.5 343.3 338.3 327.5 318 316.8 312.5 308.8 309.7 302.3 298.3 292.3 295.4 294.4 287.5 285.7 284.5 283.3 278 276.5 275 271.6 268.8 263.1 262.2 263.8 263.8 263.6 259 257.5 257.7 258.9 258.5 256.2 257.5 256.1 255.7 255.3 254.7
224.6 222.7 215.1 202.2 196.3 195.2 200.5 206 212.4 215.1 220.7 221.8 222.1 225.8 228.3 231.9 236.6 240.1 243.5 248.4 255.5 263.8 268.1 279.3 289.1 296 305.2 313.7 324.7 340.6 342.8 348.3 352.5 356 365.4 374.4 388.8 404.3 416 431.6 447.8 459.4 473.3 456.4 488.3 494.9 506.6 527.6 539.9 540.8 547.4 558.9 561.9 562.9 562.9 567.2 570.1 579 586.9 592.9 612.8 627.2 631.2 646.7 663.9 678.9 686.2 690.4 700.2 705.7 712.3 726.6 727.8 733.9 729.7 732.3 718.1 681.4 638.2 643.3 635.2 628.5 607.4 583.9 567.3 549.6 539.2 524.2 499.5 485.5 475.7 467.2 466.3 466.1 456.6 444.3 430.5 422 412.6 402.2 392.3 381.7 378.9 368.9 365.3 361.1 356.5 353.1 350.5 344.1 344.3 343.9 343.9 343.9 343.9 343.9 343.9 343.9 347.1 348.2 350.3 354.2 354.7 358.5 361.5 365.2 368.7 376.5 383.6 387 388 394.4 400.1 402.1 403.4 408.8 412.1 416.1 416.4 414.6 415.9 419.1 413.6 417.4 414.6 411 414.3 407.7 403.7 402.1 394.2 390.1 386.4 380.7 378.1 373.3 370.9 367.9 360.5 352.4 347.6 338.4 335.8 330 322.6 316.2 313 306.5 303.6 299.9 298.4 297.8 292.3 288.9 287.3 285.5 285.6 282.5 279.7 276.1 273.4 270.4 269.9 265.2 260.9 262.1 261 261.6 263.3 262.2 256.9 256.3 257 255.5 255.4 256 255 254.7 254.9 254.7
229.2 226.5 222.4 211 198.2 194.8 200.5 208.6 213.5 217 219.6 222.3 223.6 228.7 231.7 233.5 236.4 243.1 247.2 255.6 262 270.5 279 287 297.2 307.7 316.2 329.5 340.3 349.6 356.9 360.7 362.8 365.7 392.8 402 414.7 429.1 443.2 455.2 470.8 486.6 506.5 505 514.7 522.4 534.4 540.9 549.1 559.9 565.9 568.5 578.6 577.7 585.5 593.8 607.5 610.7 619.4 629.2 646.4 646.2 660.4 671.4 678.8 688.8 697 709.6 718.1 722.4 736.7 747.4 750.3 755.7 750.1 753.5 747.6 698.5 680.8 687.7 681 662 636.6 615.9 605 577.3 573.9 560 545 533.8 515.6 508.4 509.3 492.7 483.5 480.8 468.7 455.6 440.4 425.6 409.4 398 389.5 379.1 373.2 369 363.6 362.2 355.5 351.7 349.9 348.3 343.9 343.9 350.1 343.9 344.8 346.3 347.9 350.4 349 350.6 352.2 354.7 357 356.9 361.8 369.1 372.6 376.3 375.3 378.2 384.1 386.1 392.4 391.5 393.8 394.9 395.1 398.8 399.3 396.9 394.1 396.8 393.8 389.7 392.6 389.9 384.7 381.2 376.6 373 371.2 364.7 361.3 358.7 356.4 352.4 350.9 339.8 339.5 331 326.5 321.6 311.5 310.4 311 299.8 296.3 293.8 296.8 297.2 293.7 286.1 284.8 283.1 281.1 280.9 277.2 273.6 268.5 265.9 266.1 264 256.9 256.9 258.2 256 260.2 261 258.8 255.9 254.9 255.5 255 254.7 254.1 254.3 254.5 254.5
232.7 230.7 225.6 214.5 203.2 194.8 203.8 210.6 215.8 217.8 219.6 222.5 225.2 231.6 233.1 236.5 238.4 242.9 251 261.6 268.8 279.9 290.7 298.1 305.5 322 330 338 350.9 360.8 365.2 371.4 373.8 394.1 409.2 414.6 441.7 448.1 460.4 481.8 502 516.4 527.8 529.2 536.7 541.9 547.4 552.8 563.7 571.1 581.5 590.8 592.4 602.3 612.1 618.5 623 641.3 646.6 650.3 662.9 669.3 686.6 690.5 701.5 705.7 722.2 733.4 737.4 747.1 741.3 751.8 763.9 765.7 769.4 771.1 761.1 738.4 734.4 736.3 730.9 695.2 673.1 652.3 634.3 619.1 610.6 597.4 585.5 560.4 556.3 560.8 547.9 532.1 527.3 512.9 487.4 471.5 466.1 450.7 436 421.3 405 394.6 387.7 379.1 371.4 365.8 364.3 358.4 354.6 352.6 351.7 346.4 347.2 343.9 343.9 345.5 347.6 350.7 347 347.9 350.4 352 352 353.7 356.1 356.8 361.1 364.8 364.4 363.8 367.9 374.3 375.7 380.5 380 376.6 378.9 380.5 387.2 381.5 376.8 376 375.7 370.2 370.9 373.9 366.7 371.1 363.7 358.6 357 350.5 346.1 345.8 342.5 335.8 333.2 329.9 328.7 320.1 319.3 309.7 305.9 301.2 297.4 292.8 289.2 286.8 286.8 290.8 286.2 282.7 280 279.6 279.9 277.5 273.2 269.5 266.6 264 263.7 259.3 253.8 253.8 253.8 253.8 253.8 253.8 258.3 258.1 256.5 254.9 254.5 254.3 253.8 254.2 254.3 254
236.2 232.9 227.1 219.6 206.8 193.5 204.3 212.3 216.5 220.5 222.7 228 230 232.2 236.2 240.9 243 250.6 255.8 267.1 278.9 289 296.9 308.5 316.7 327.5 340.9 352.1 366.2 370.7 376.9 382.9 397.3 411.8 432 452.8 463.3 472.6 493 510.1 532.3 543.8 546.4 548.7 550.8 560.7 565.7 572.2 580.6 594.6 609 611.6 618.5 628.1 624.2 632.7 642.6 656 662 666.2 678.3 687.3 695.3 699.3 706.3 714.4 724 729.9 739.5 744.7 751.8 762.5 767.3 777 780.5 783 777.8 765.7 760.9 747.8 736.9 729.4 715.6 683.3 662.4 655.2 644 631.8 610.5 594.1 606.7 604.7 589.7 567.4 552.6 535.3 517.3 502.6 482.8 467.6 450.7 437 423.1 407.7 399.8 389.8 380.6 372.9 371.1 364.9 359.3 359.4 357.1 349.9 348.9 345.5 344 344.5 346.2 347.9 346.5 346.7 348.9 349.8 348.7 346.4 349.9 350.7 352.6 353.4 355.6 354.3 357.1 360.1 361.6 364.6 362.5 361.8 360.3 365.9 367.2 364.8 360.4 356.9 353.5 356.3 356 353.3 351.2 352.1 348 346.4 341.7 339.3 335.9 332.2 328.7 324.9 322.4 323.4 316.7 315 309.1 303.2 297.3 291.8 288.5 285.1 286.4 281.5 283.7 281.5 278.7 276.4 274.8 271.9 279.9 274.7 268.1 265.2 261.7 261.2 261.2 261.3 253.8 253.8 253.8 253.8 253.8 253.8 253.8 253.8 253.8 257.5 257.2 256 254.2 254.5 254.2 254.7
238.9 236 228.2 222.5 212.8 193 201.3 213.3 218.4 220 225.1 228.6 233.4 237.5 241.7 245.7 247 253.5 262.7 274.3 285.6 297.8 309.4 321.2 331.5 342.4 353.9 368.8 374.2 387.9 391.9 401.4 421.3 433.3 455.3 473.4 486.1 503.1 518.7 545.7 554.3 562.7 565.3 569.4 566.4 578 582.2 583.5 601.9 612 617.9 631.2 638.8 633.3 633.1 640.5 647 652.2 661.1 665.6 673.5 686.8 690.8 699.6 722.5 727.7 735.8 746.4 756.1 762.1 765.6 768.4 778.3 788.8 786.6 780 774.8 768.7 759.6 751 739.1 732.1 723.5 711.4 700.5 691.7 679.3 665.5 647.3 645.6 642.4 634.6 626.2 611.2 590.3 581.7 556.7 533.2 516.9 496.1 479.4 454.5 436.4 421.7 408.5 397.9 388.9 381.5 377.8 373.6 363.8 366.1 364.2 354.1 354.2 347.8 347.5 347 345.4 345.2 348 345.3 346.1 346.4 344.7 343.4 347.2 345.5 346.8 345.4 345.2 346.8 345.6 350.6 350.3 352.2 350.8 346.7 351.1 351.1 347.3 351 346.8 341.1 338.8 344 339.4 337 338.4 337.7 336.8 334 331.2 330.1 326.4 322.1 319.2 315.4 314.7 310.1 303.1 306.4 300.7 295.3 293.7 286.4 284.4 279.7 275.8 280.5 278.4 274.7 271.9 270.6 270.7 267.5 267 266.1 262.6 264 261.8 258.7 256.9 260.7 261.1 256.7 253.8 253.8 253.8 253.8 253.8 253.8 253.8 258.7 260 260.1 254.4 254.1 259.2 265.3
243.8 238.2 228.8 220.7 207.9 186.6 204.3 211.3 218.3 221 228 233.4 239.9 244.9 246.3 251.3 254.5 261.1 270.1 283.1 296.6 311 324.3 333.4 343.3 356.6 368.2 378.4 387.3 397.2 409.7 422 437.3 455.3 475.9 494.4 506.8 520.6 541.9 559.7 575.5 581.9 585.9 590.9 588.4 597.4 605.5 610.7 610.2 618.7 625.9 634.9 633.2 634.9 639.6 645.9 651.9 660.8 658.6 668.6 680.3 686.3 701.5 717.6 733 737.1 747.9 756.8 765.4 766.9 765.3 773.9 782.9 792.5 790 787 777.3 770.2 754.9 751.1 744.3 728 719.5 709.6 697.5 689.6 683 674.3 671 670.9 668.6 661.6 657.3 652.9 642.5 624.8 602 574.1 555.8 533.4 506.4 479.1 457.3 439.2 423.8 409.2 398.9 391.4 384.3 380.2 373.5 369.7 368.3 358.3 358.4 356 349.6 348.5 346.3 343.6 344.4 342.2 342.5 342 340.8 339.4 339.2 340.2 338.9 338.8 338.2 338.6 336.3 341.9 338.4 341.6 339.1 336.3 337 337.3 337.7 333.5 336.4 331.6 326.2 333 328.7 326.3 325.5 323.3 326.3 321.1 319.4 319.6 315.6 307.8 305.9 304.7 301.3 298.7 292.7 294.8 290.4 287.8 284.9 282.7 281.4 277.9 272.4 273.9 271.7 269.5 268.9 268.8 267.5 265.6 267 267.2 261.4 259.5 261.7 259.1 257.3 253.8 258.4 254.3 253.8 253.8 253.8 253.8 253.8 253.8 253.8 255.5 260.2 258.4 254.7 262 269.1 275.7
246.8 236.4 226.7 217.6 197.7 194.4 212.3 210 215.3 223.5 234.1 241.6 246.9 253 256.7 260.3 267.2 274.9 282 299.1 306.2 320.7 331.3 343.2 358 365.6 378.1 390.1 400.5 413.1 428.3 443.1 460 481.9 496.5 514.1 521.1 541.6 562 577.1 592.4 602.1 603.1 601.2 604.9 608.6 613.6 617.8 621.2 622.3 628.3 631.8 636.1 637.4 646.1 647.4 653.3 658.7 665.1 681.2 691.2 705 722.5 741.4 745.1 753.9 758.2 759.8 759.6 754.5 752.8 757.5 770.6 781.4 785.5 785.6 775.7 761.1 746.8 737.1 733.8 724.1 708.5 697.7 691.4 684.2 674.3 670.1 666.5 661.3 662.4 658.8 660.9 655.4 650.1 650.9 638.2 620.3 598.2 573.3 543.4 515.8 491.8 469.8 457.6 438 412.7 401.9 394.1 387.7 381.6 375.6 371.8 366.9 362.4 357.8 353 350.5 347.2 346 341.3 340.5 338.7 339.5 338 337.3 334.8 335.6 334.2 334.7 332.4 331.2 329.1 331.1 330.4 329.9 325.6 327.3 327.3 327.3 327.2 322.9 324.9 321.7 314.1 319.6 319.5 314.3 313.2 311.5 315.5 313.7 310.4 310.6 304.4 302 298.6 296.7 293.7 290.5 287.7 288.3 285.1 277.3 279.4 286.1 283.6 284.8 275 268.6 271.8 268.1 267.4 265.1 263.8 263.8 263.7 258.9 256.2 253.8 256.5 256.3 253.8 253.8 253.8 253.8 253.8 253.8 253.8 253.8 253.8 253.8 253.8 253.8 254.7 254.8 257.1 265.9 275.1 284
247 233.9 221.5 208.6 185.3 199 207.1 217.8 219 228 244.9 252.2 256.3 260.4 266.3 269.5 272.7 284.9 295.8 305.3 315 326.9 336.5 353.6 371.9 384.9 397.7 410.6 416.3 428 443.3 469.8 484.7 506.7 523.7 531.8 549.4 569.5 585.8 598.7 610.2 611 613.4 614.9 618.8 615.2 625.5 629.3 635.2 631.2 632.6 635.9 640.1 641.6 646.4 651.1 661.3 668.8 692 701.7 713.3 731.7 746.2 751.8 753.1 754 755.6 756.1 752.9 742.2 741.2 753.3 765.4 767.9 774.4 768.7 758.3 748.2 731 722.6 715.8 710.2 702.4 687.6 677.3 670.6 661.8 655.2 650.1 647 646.1 646.8 646.7 642.4 637.8 635.4 632.6 626 612.8 601.9 585.6 558.6 533.5 504.9 485.2 455.7 432.3 415.3 405.3 396.3 390 384.2 379.5 373.4 365.6 364.2 357.6 352.7 350 345.8 342.2 337.3 336 337.4 336 336.7 334.1 332.5 332.1 329.2 327.1 327.8 322.9 325.8 322.9 321 317.4 321.3 319.2 319.3 317.1 314.2 310.2 312.9 305.3 310.4 308.9 305.1 302 302 310.3 310.4 306.6 302.7 297.2 295.2 291.9 292.8 290.5 285.9 284.6 283.1 280.3 268.4 272.2 276.5 276.9 277.3 272.9 266 269 264.2 264.1 261.2 259.1 262.1 259.1 259 259.8 258.5 253.9 253.8 253.8 253.8 253.8 253.8 253.8 253.8 253.8 253.8 253.8 253.8 253.8 253.8 253.8 259.1 264.7 273.1 284.4 293
242.4 230.6 215.5 200.6 190.6 200 209.7 220.1 227.6 231 248 257.1 261.1 271 269.8 273.6 279.7 288.8 301.5 311 321.5 331.7 347.8 362.4 380.9 396.4 411.6 419.9 431.5 448.8 471.1 487.6 505.1 529 536.7 550.9 575.9 588.2 600.6 613.4 616 622.3 633.5 630.3 634.5 633.3 631.7 641.2 647.2 650.5 643.3 643.4 647.8 658.5 652.4 662.3 671.2 681.9 704.4 727.7 742.2 751.9 750.6 761.6 764 761.4 756.1 756.8 750.4 736.4 733.3 743.3 754.3 756.1 757.7 748.8 740 727.9 717.5 706.5 699.5 696 683.4 671.7 661.1 659 649.5 641.3 636.4 632.1 629 630.4 623.2 620.8 623.6 624.7 625.2 619 613 609.7 595.2 579 544.8 516.3 494.9 469.5 446 425.1 414.7 406.4 397.6 390.7 384.2 377.8 370.6 366.2 359.8 355.6 352.5 349.8 345.1 341.9 340.4 333.1 335.2 333 331.7 329.2 329.7 325.6 322.1 320.4 320 322.4 318.3 318.3 311.3 312.1 314.4 311.6 307.7 303.2 306 307.2 302.6 305.2 301.4 294.3 294.4 300.8 306 304.6 297.8 293.1 296.1 299.2 287.7 283.4 283.4 281.1 279.4 278.8 277 267.8 263.3 270.3 270.7 268.3 269.3 265.7 263.8 261 259.9 260 257.8 255.4 256.8 257.4 260.6 256.9 253.8 253.8 253.8 253.8 253.8 254.3 253.8 253.8 253.8 253.8 253.8 253.8 253.8 253.8 260.1 267.1 272.5 283.7 293.3 304.7
242.3 222.1 212.8 196.8 182.3 199.6 209 220.7 230.8 236.9 250.5 256.6 265 275 278 278.2 286.9 294.7 305.7 316.5 327.3 342.8 360 378.5 394.8 407.9 423.8 438.1 454.9 472.7 492.3 507.8 534.5 547.2 561.9 582.6 594.8 600.9 614.9 618.7 625.8 637.2 644.1 643.4 648.3 642.9 638.2 643.7 648.8 650.9 653.6 655.7 656.8 657.1 660.1 671.6 675.6 699 724.6 742.8 748.1 745.8 753 758.3 756.8 750.9 744 743.3 736 726 728.7 733.8 736.8 739.8 740 728.6 714.9 712.2 697.8 687.7 680.7 673.2 662.1 654.6 651 640.5 633.3 626.4 622.7 617.2 615 609.2 603 599.3 598.8 604.6 610.8 609.2 605 602 588.6 576.2 551.6 522.3 499.2 481.1 460.5 443.5 426.6 415.8 407 396.1 388.2 380.6 373.6 368.2 362 358 353.4 349.7 349.2 340.9 338.1 333.9 328.9 330.4 328.6 326.3 321.9 324 317 316.4 317.4 314.4 314.7 311.5 306.6 307.3 307 305.2 299.7 296.5 299.9 303 300.1 293.7 291 290.2 291.1 293.3 299.7 294 290.7 288.7 291 289.7 284.3 279.7 276.7 279.2 276.6 274.2 270.1 267.5 262.1 262.2 266 267.5 269.2 261.3 259.9 261.7 257.4 256.2 256.3 257.7 255.7 255.5 259.7 261.7 253.8 253.8 253.8 253.8 253.8 253.8 253.8 253.8 253.8 253.8 253.8 253.8 255 256.4 264.6 273.8 282.4 292.6 303.6 314
233.9 217.5 209.9 187 185.4 201.2 210.2 220.5 230.7 245.9 252.8 261.6 275.8 281.4 288.2 283.4 290.6 299.3 313.3 324 336.6 355.9 374.5 391.1 410.1 422.5 436.4 459.9 482.8 498.2 512.3 534.3 554.7 572.6 586.4 600.1 611.9 621.8 624.9 627.8 644 655.4 653.4 660.1 655.1 654.8 651.3 654.5 656.6 659.8 665.6 673.2 672.6 665.1 665.5 671.7 685.9 716.5 728.7 744.4 739.4 736.6 748.4 746.7 741.8 732.4 730.2 723.9 716.3 719.3 721.5 722.9 721.1 717.7 715.1 707.1 695.1 688.1 675 668.6 665 656.6 646.9 642.4 640.1 635.1 617 609.3 605.4 601.1 597.9 590.4 586.6 583 581 580.4 593.3 591.7 591.4 587.1 579.6 573.5 562.9 540.6 520.4 503 480.4 456.8 440.5 425.7 414.6 402.6 392.7 385.4 377.8 370.3 362.7 359.2 353.4 349.4 344.8 341.1 337.9 333.6 328.8 324.7 324.2 323.6 319.8 318.2 316 311.2 311.7 311.1 311 305.9 301.6 302.9 306.2 301.2 296.3 290.8 294.4 295.4 294.7 287.5 284.3 288.7 293.5 291.2 291.1 288.2 286.2 286.1 284.3 282.2 277.4 274.4 275.2 273.9 272.6 268.9 266.8 267.1 265 262.7 259.8 268.3 264.7 259.6 258.6 258.6 255.5 255.7 255.3 256.2 255.1 255.2 255.4 263.1 253.8 253.8 253.8 253.8 253.8 253.8 253.8 253.8 253.8 253.8 253.8 253.8 260.7 263.6 272.9 283.4 297.5 307 316.9 328.1
227.4 210.1 199 179.3 184.7 201.3 215 224.1 237.2 248.6 258.3 271.1 287.1 287.4 290.7 291.6 295.7 307.6 319.3 332 350.1 369.1 386.6 402.4 420.7 434.1 457.3 481.8 498.4 517.5 540.2 558.7 574.8 591.9 605.9 620.4 626.9 630.7 630.4 648.5 665.2 667.2 664 664.4 669.2 676 675.8 672.1 671.2 672.1 675.8 683.6 684.2 679.8 687.1 687.3 698.9 715.2 730.2 734.7 728.4 724.3 732.2 730.9 725 717.2 712.6 705.7 697.9 712.9 714.6 711.4 705.1 699.6 696.4 691.7 677.4 671.2 659.6 649.9 645.6 640.3 630.4 624 622.4 613 601.3 594.5 589.9 582.9 576.5 573 572.2 568.1 566.4 567 580.6 575.8 576.8 571.6 565.7 561.5 564.3 565.6 546.4 530.9 509 478.1 453.3 439.2 427 413.8 399.9 390.3 380.9 373.3 366.8 361.4 353.7 347.7 343.6 336.5 334.4 332.1 328.1 322.1 320.2 317.8 315.4 313.7 313.1 309.6 307.5 305.6 308.2 300 297.2 297.9 303.7 298 290.3 283.6 294.3 296.1 294.5 286 280.1 288.9 290 288.8 286.4 281.9 281.9 282.4 280 277.6 275.3 274.3 272.3 272.2 273.1 272.9 276.3 275.3 265.7 265.5 262.3 258.8 259.5 259.1 257.8 258 256.4 254.9 255.7 254.1 254.9 255 255 259 253.8 253.8 253.8 253.8 253.8 253.8 253.8 254.5 253.8 253.8 253.8 253.8 265.9 272.9 282.7 294.7 306.4 318.8 326.6 342.1
215 204 189.4 185.1 201 209.3 216 227 241.8 253.5 266.1 280.4 293.4 293.1 290.5 294.9 302.3 313.7 324.2 340.9 359.1 380.6 400.4 420.2 438.7 456.7 478.1 499.2 521.1 542.2 564.4 580.9 598.2 606.8 622.1 632.5 638 637.4 645.1 656.4 664.4 665.9 668.7 681.2 686.9 690.1 688.5 683.2 677.6 671.1 674.8 683.9 681.6 686.1 694.9 706.9 710.9 713.3 724.9 733.7 724.7 721.3 718 719.2 712.2 700.8 691.7 686.9 691.7 704.9 698.3 698.3 690.6 688.1 688.8 681.7 668.3 654.1 645.1 635.9 628.4 621.5 611.2 604.7 600.9 597 591.5 581.9 576.3 566 560.4 557.1 559.6 557.5 556.1 555.9 557.9 561.4 565.5 565.3 564.5 569.8 566.6 555.9 548.9 538.9 521.8 501.6 475.7 458.5 440.6 423.9 408.8 396.5 386.2 377.1 369.3 362.9 354.7 347.1 344.1 335.9 330.9 330.4 322.9 319.8 317.3 311.7 312.9 309.9 308.9 305.7 305.3 301.2 295.9 292.4 293.7 295.8 297.3 294.5 285.6 282.4 291.6 290 289.9 282.4 279.7 291.1 286.6 284.3 281.8 277.1 278.5 277.7 277.2 273.6 272.6 275 275.2 274.9 277.9 281.5 279.7 275.9 265.9 263.5 260.2 262.5 261 261.8 263.3 263.5 259.5 258.3 255.5 254.8 254.4 254.5 253.9 253.7 253.8 253.8 253.8 253.8 253.8 253.8 253.8 253.8 253.8 253.8 255.1 264.5 271.7 280.3 298.3 309.3 321.5 331 344.7 357.1
206.2 191.3 179.8 195.6 205.9 211.8 219.8 233.8 244.3 260.1 274.1 288.2 294.3 298.6 293.9 296.5 306.6 316.7 333.8 351.7 370.4 393.5 408.6 431 458 480 496.6 515.6 537 563.3 585.4 602.9 611.9 616.7 637.1 646 649.3 662.7 665.8 672.2 668.1 670.2 670.5 675 684.6 685.5 682.7 678.6 674.9 667 666.2 670.4 675 687.5 695.6 708.4 715.1 718.7 718.2 717.3 716.2 714.8 711.3 708 695 684.1 682.6 682.8 685 688.5 683.7 680.3 676.2 674.2 668.7 662.3 652 641.3 630.6 620.2 610.5 604.9 600.7 593.9 590.4 582.8 575.7 571.1 562.9 554.3 548.7 544.8 544.2 547.3 545.9 545.8 548.1 546.1 551.3 555.7 562.3 559.3 554.4 547.6 536.4 529.7 522.9 507.5 487.8 479.7 461.5 435.4 413.5 401.2 390.2 379.7 369.4 360.9 355.7 348 340.3 335.2 330.7 325.9 322.7 316.5 313.5 310.1 309.3 306.5 306.4 304.6 300.7 297.3 291.7 290.4 291.7 292.4 290.5 285.2 282.2 281.5 286.9 286.2 285.2 280.8 284.3 283.3 284.1 283.8 278.1 273.8 274 276 273.5 273.8 272.7 275.4 279.2 278.7 278.2 277.8 276.7 276.6 266.6 267.1 265.6 266.9 270.3 269.7 272.1 267.3 267.1 266.5 262.4 254.9 254.6 253.8 253.8 253.8 254 253.8 253.8 257.1 253.8 253.8 253.8 253.8 260.6 257.2 268 275.8 282.9 298 311.3 322.3 332.5 346.3 358.3 374
194.3 181.4 189.2 200.2 211 220 224.9 236.3 251 267.2 279.7 291.8 299.5 300.4 294.4 299.2 310.7 324.8 343 361.8 384.5 402.8 420.7 446.7 476.8 500.6 515.3 539.4 551.7 579.3 598.9 617.5 622.4 630.7 654.2 657.6 665.7 676.8 672.7 666.9 672.9 674.2 674.4 672.4 674.2 679.4 682.2 676.7 669.5 661.1 656.2 657.1 664.5 679 695.5 706.5 716.6 720.8 717 711.1 706.6 704.6 700.9 697.6 691.9 682.5 678.8 678.3 678.5 673.1 667.1 665.5 660.7 665.8 659.7 648.5 637.7 628.8 620.9 611.9 605.3 596.1 590.7 582.9 577 571.4 566.2 561.2 552 539.4 536.5 530.7 532.4 530.5 537 532.6 534.4 529.5 535.3 539.8 540.8 544.3 545 528.3 522.1 512.7 502.1 494.3 480.9 475.5 459.6 439.9 419.2 401.6 388.6 378.3 369.1 361 354.9 347 341.2 334.4 328.6 325 321 316.9 313 308 310.2 302.3 304.5 303.9 298.9 299.2 289.5 287.4 288.4 285.8 284.7 283.2 282.2 281.5 282.4 284.4 282.5 279.2 279.4 276.4 279.2 275.4 274 273.7 273.3 276.3 272.5 273.4 275.1 275.7 276.7 278.9 278 277.9 272.8 271.9 270.7 268.3 270.5 271.1 276.7 274.1 274.2 270.8 272.2 271.5 264.6 259.5 254.6 253.8 253.8 253.8 253.8 253.8 253.8 255.9 253.8 253.8 253.8 256.3 266.3 264.3 274.7 284.9 298.6 310.8 321.4 333.6 345 356.9 371.2 385.6
185.9 180.1 199.8 207.9 215.6 224.4 232.4 245.6 256.4 271.2 284.5 292.7 299.5 298.5 296.5 300.8 311 329.4 351.7 369.3 388.8 409.9 433.7 461.2 487.4 518 540.6 559.8 572.7 587.2 608.8 620.8 636.8 642.3 660 672.8 678.6 683.8 679.9 674.7 668.2 667.3 668.3 668.2 668.4 671.1 675.5 671.8 666.3 657 655 649.6 657.2 664.3 672.8 684.3 691.3 695 695.1 696.5 691.2 685.7 683.2 683.2 682.5 672.9 671.7 668.8 662.1 657.5 649.6 643.6 644.2 649.6 641.4 624.8 615.7 609.5 603.9 601.1 596 586.4 578.1 569.6 560.7 556.9 551.8 549.9 539.2 529.4 520.6 515.9 515.5 516.7 513.5 518.7 522.2 516.7 518.6 526 521.5 523.3 515.5 507.3 500.3 490.4 484.2 481.8 472 459 443.6 435 421.7 401 386.8 377.9 368.2 357.6 350.6 344.5 339 332.6 324.9 322.6 318.2 314.8 309.6 306.8 304.7 300.6 300.7 296.3 298.5 291.5 287.3 284.9 284.4 285 285.7 285.2 283.7 280.3 281.7 284.9 281.9 278.8 273.7 272.9 272.3 274.1 273.7 273.1 271.6 272.2 274.1 278.1 277.7 278.3 279.2 278.7 278.2 275.2 268.9 268.9 274 269.6 270.2 274.9 278 279.7 275.1 272.9 272.8 267.9 262.3 260.1 258.4 254.7 253.8 253.8 253.8 253.8 253.8 253.8 256.7 255.6 257.2 263 272.3 278.5 281.6 298.8 308.6 318.7 329.8 343.3 354 365.6 379.3 393.4
174.8 196.6 199.3 212.7 218.1 226.9 241.2 253.2 263.9 274.7 283.2 290.4 295.1 295.1 297.1 307 323.2 338.5 354.8 373.3 393.5 419.1 447.4 477.9 495.5 522 545.6 566.3 586.2 597.3 609.4 625.7 643.5 651.1 658 674.1 682.2 682.6 683.8 679.8 670.1 663.2 666.3 668.3 669.8 669.6 668.7 663.3 657.2 653.1 651.6 644.2 646.7 648.4 653.5 660.4 658.8 662.8 663.3 664.6 673.5 673.6 669.6 663.2 664.6 659.5 652.9 653.4 647.2 643.1 635.5 627.9 628.1 629.1 618.4 602.5 601.3 595.2 589.5 584.8 582.5 577.8 573 558.2 554.3 546.5 541.1 537.2 526.6 519.7 515.8 503.5 502.4 502.4 495.8 502.7 507.1 502.8 503.3 508.3 505.7 503.6 499.7 488.8 477.8 468.4 460.8 461.7 459.7 447.5 430.5 419 405.9 392.3 380.3 370.4 362.4 354.5 347.6 341.7 337.4 331.2 325.9 323.4 317.8 315.2 311.4 306 301.5 297.9 292.8 293.3 291.3 288.7 287.7 284.7 284 284.4 283 279.7 282.2 279.5 278.2 277.8 276.2 274.4 273.2 272.6 273.7 274 274.9 276.7 279.5 276.8 281.7 285.1 286.8 286 292.7 287.9 281.2 272.1 268.9 268.9 268.9 270.2 268.9 276.8 277.9 279.4 278.4 276.7 275.3 270.3 267.7 261.7 257.4 255.1 254 253.8 253.8 253.8 253.8 254.3 260.1 268.4 261.2 267.2 274.2 286.1 291.9 304.2 315.7 325.3 336.3 349.3 360.6 373.9 390.9 410.2
181.1 196.7 197.8 209.7 223.2 230.2 248.2 259.3 269.1 280.2 289.3 294.1 295.5 295.1 301.9 311.3 327.3 342.6 361.5 381.1 394.3 423.4 454.4 485.4 500.4 524.1 548.7 572.1 587.7 597 610 625.6 638.6 644.1 652 668.5 677.2 683.4 682.9 678.3 676.5 666.9 657.8 661.3 667.3 659.3 659.1 652.5 642.9 649.2 644.8 636.4 635.6 636.5 635.3 635.2 636.8 639.9 638 637.4 635.8 644.5 653 644 636.7 636.6 635.6 634.5 632 627.4 623.9 613.8 612.7 610 599.8 590.3 589.6 586.3 576.3 573.5 573.8 568.2 557.8 550.4 535.6 534.5 527.7 524.6 513.8 507.8 497 491.2 492.2 484.1 480.8 483 487.5 488.4 484 488.5 484.6 486.8 481.8 473.9 457.4 448.9 445.3 436.8 433.9 424.4 417.7 406.5 394.7 383.6 377.4 365.6 357.2 350.8 344.1 336 332.2 329.9 323 319.6 318.1 312.9 310 305 298.9 294 292.8 292.6 288.4 288.7 285.9 283.6 284.3 283.8 289 278.8 277.2 276.7 276.6 276 273.7 273.5 277.5 273.6 274.2 276.1 279.5 280.4 279.8 278.6 284.3 285 284.2 282.1 283.8 287.1 283.4 275.6 268.8 268.9 268.9 268.9 268.9 268.9 277.6 283.9 277.6 273.6 275.8 276.8 266 257.1 254.7 254.7 255.7 255.6 259.5 257.5 257.1 263.1 261.1 273.7 271.8 275.7 282.5 294.2 300.8 310.9 322.3 331.6 343.2 357.4 370.7 389.5 401.6 418.8
178.9 195.2 206 214.8 223.7 237.1 252.5 264.6 276 283.3 291.9 294 295.9 298.2 308 320.4 329.8 346.8 366.9 387.1 399.9 425.4 455.2 486.6 507.8 524.8 545.9 565.1 580.7 598.6 612.1 615.8 623.9 631.8 631 645 663 672.8 675 669.2 668 661.2 653.3 644.3 640.6 639.4 630.8 625.9 618.9 626 620.3 613.5 609.7 608.9 609.3 606 605.2 611 605.7 609.1 609 612.7 617.7 621.8 612.9 612.1 603.4 610.4 610.7 605.7 602.1 598.1 594.9 588.7 582.4 576.9 578.7 572.7 564.9 561.4 561 558.2 544.6 535.2 528.6 519 517 514.9 503.8 494.9 487.5 477.3 477 469 466.9 465 466.5 468.3 467.2 464.5 463.8 460.1 460.6 452.7 442.6 437.2 432.7 423.5 417 410.3 398.7 393.7 385.9 379.4 371 358.3 348.5 344.3 341.2 334.1 330 325.7 324.1 316.9 314.7 312.2 307.8 304.2 297.3 293.7 290.8 288.2 288.2 287.4 285.2 283.2 283.5 283.6 282.3 277.8 276.7 276 274.8 274.2 275 277.9 278.8 278.8 279.7 280.7 282.7 281.1 279.6 277.9 279.1 283 279.5 273.6 278.9 283.1 286.7 278 275.9 269.9 268.9 271.3 272.9 275.8 278.8 283.2 276.3 266.5 261.1 272.7 262.2 256.4 255.5 255.5 256.5 258.5 265.1 265.1 260.8 265.9 265.3 271.3 274.5 279.5 290.5 299.2 308.6 315.3 327 338.9 350.9 367.7 381 395.4 412.1 435.9
175.6 191.4 200.2 214 227.2 245 259.1 271.7 279.1 284.5 290.5 294.3 298.5 301.9 312.3 325.1 335.8 352.6 368.3 383.1 410.4 432.6 456.6 483.6 501.6 528.7 546.9 559.8 574.7 590.5 596.8 606.1 606.1 612 615.3 621 631.7 652.7 651.1 656.2 651.4 642.6 638.5 631.4 614.1 606.2 604.1 605.4 601 600.7 598.9 592.3 585.9 582.1 580.8 576.4 573.9 574.8 574.7 580.4 581.5 582.1 587.6 592.2 587.9 584.7 587.6 583.8 590 584.8 584.3 583.3 575.2 571 568.5 559.3 562.6 558.7 555.2 554.7 547.4 542.3 533.2 527.4 518.8 510.5 506.4 501.9 494.8 481.2 475 467.4 462 456.5 454.5 455.9 453 445.8 443.4 445.2 447.7 439.3 437.1 434.4 429.4 425.7 417.6 410.1 406.2 398.8 386.7 375.7 371.9 368 358.8 349.2 345.6 337.6 330.4 325.9 324.4 325.9 320.6 316.3 310.9 308.8 307.8 300.4 297.3 292.7 291.1 290.4 286.3 285.9 284.8 284.6 283.5 283 280.6 277.3 276.8 277.6 280.2 282.9 285.7 286.6 282.9 283.5 284.5 287 287 284.2 286 282.3 279 274.1 269 267.6 272 281.6 276.6 276 270.6 276 275 274 281.4 281.2 287.1 290.6 281.1 267.5 261.2 261.4 257.6 256.5 256.3 256.4 257.3 259.4 262.1 265.1 267.3 265.8 266.1 269.4 274.5 283.3 296.6 303.9 314.5 323.6 334.6 349 364.1 374.8 387.8 406.9 427.5 449.2
168.3 180.3 194.3 211.1 227.6 247.8 259.7 273 281.3 287.2 289.6 295.8 299.8 305.1 316.3 328.4 342.3 355.1 368.3 383.1 410 438.3 457.5 475.5 497.4 524.7 541.9 556.5 563.8 573.8 584.7 593.4 590.8 585.8 596 605.6 615.6 627.3 635.5 642.5 632.8 628.3 621.7 614.1 599.6 588.8 585.7 580.7 577.7 574.7 571.2 565 562.2 562.6 561.1 555.6 552 548.5 549.8 557.5 557.3 557.5 555.7 559.3 564 570.9 581.1 576.3 564.2 565 565.5 567.5 563.6 557.1 555.8 546.9 543.1 541.7 542 538.6 532.9 530.4 524.8 517 512.1 501 491.6 486.1 478.3 466.5 461.3 454.7 442.1 441.7 440.9 437.6 435.2 426.4 423.9 424.2 426.5 425.4 423.7 414.3 409.4 409.1 398.6 389.6 390.6 383.4 373.9 366.4 363.3 357.3 347.1 337.3 334 329.2 324.5 320.9 317.6 313.6 313.9 317.1 310 301.1 301.4 300.2 299.3 292.4 289.1 287.5 290 288.3 286.6 286.3 285.5 282.8 282.8 283.8 280 282.8 291 291.5 290.4 291.4 291.2 291.6 293.9 295.8 300.1 293.9 288.1 285.7 279.3 274.3 269.7 266.2 267.2 272.1 266.9 265.7 265.1 268.8 269.3 266.9 269.9 274.7 283.9 290.8 279.7 266.2 260 258.1 256.3 257.7 257.8 258.6 258.8 259.5 269.7 268.6 270.6 269.4 270.1 272.7 284.7 292.2 300.1 312.2 321.5 332.2 345 358.8 370.9 386.3 402.7 421.9 447.2 468.1
157.5 181.9 191.2 209.3 228.7 246.8 261.1 271.2 280.9 285.5 290 295.5 298.6 305.8 318.5 326.3 339.1 351.6 370.7 389.3 411.1 435.5 452.8 467 488.7 513.5 526.5 540.6 551.4 556.8 566.7 570.5 572.5 570.5 574.2 586.2 598.6 609.1 612.8 614.4 606.1 604.5 597.5 589.4 576.4 564.2 561.8 559.5 550.1 544.1 545.6 538.2 541.2 542.4 534.4 534.5 537.1 539.1 535.3 531.5 533.6 533.2 533.5 535.4 545.3 558.1 573 574.7 564.6 548.8 548.1 544.8 543.7 541.4 539.7 527.7 529 527.1 528.5 525.4 519.3 514.1 511.6 511.4 505.5 492.8 478.9 471.6 462.1 454.7 445 440.6 433.6 429.1 430.8 427.3 420.1 413.1 408.6 407.8 404.5 406 409.6 401.3 393.8 395 387.2 378.3 378.6 368.3 358.1 354 351.1 345.6 336.5 329.9 327.7 323.9 325 316.6 314.3 311.4 308.9 306.1 300.5 298.9 300.8 296.9 293.9 290 288.2 288.6 285.8 285.3 289.7 289 285.5 284.9 287.1 285.7 285.9 294.7 297.3 300.2 295.6 292.1 292.5 293.4 293.9 299.4 295.7 294.4 291.7 295.4 280.9 284.4 275.3 266.8 265.6 264.6 261 261.6 259.3 265.3 259.4 258.1 257.1 275.3 274.1 274.1 269.2 264.3 259 256.3 256.6 258.2 259.9 261.7 264.5 267.5 273.9 273.9 274.9 273.4 271.1 278.3 290.5 300.1 310.3 318.5 328.3 341.7 351.7 365.1 379.4 399.6 422.4 440.4 462.3 483.2
158.1 182.4 189.1 203.7 221.7 241.3 255.9 268.8 276.9 278.2 288.7 294.3 300.4 306 318.6 325.3 341.4 355.8 376 391.2 410.3 431.1 449 464.1 473.5 493.9 516 533.8 545.3 542.9 535.7 543.9 547 557.4 558.6 565.4 583.5 593.3 597.7 598.2 588.9 581.1 572.6 565.7 551.5 543.9 540.2 538.3 528.5 524.4 525 515.4 517.7 517 514.6 511.9 512.8 519.1 523.2 520.4 523.9 522.2 519.9 526.2 536 541.8 548.4 551.8 546.3 546.2 533.7 532.1 537.5 532.3 530.3 522.9 524.6 521.3 515.5 511.1 513.6 504.3 501.4 496.2 489.5 477.3 466.6 461 453.5 440.5 434.9 431.5 432.6 416 415.2 416.9 409.2 401.7 397.7 398.9 398.3 395.5 390.2 385.8 384 381.7 376.2 368.1 365.5 358.9 351 346.4 340 333.8 331.3 324.4 319.8 316.7 312.7 310.9 306.2 304.1 300.4 298.3 293 291.9 291.1 287 288.4 285 290.5 289.3 284.2 283 282.3 282.5 287.2 288.6 290.9 293.7 293.9 296.3 297.2 295.9 291.5 288.7 289.1 291.7 297.3 293.7 290.5 288.2 285.6 284.7 281.6 283.7 278.6 276.1 272.7 272.7 263.2 258 258 258.6 258.9 257.8 256.3 265.3 262.8 261 260.3 261 258.6 256.3 259 262.1 266 264.5 272.5 275.6 279.7 282.5 282.4 280.6 284.8 290 300.1 309.7 316 326.9 338.5 353.6 362.1 376.8 396.2 416 430.3 448.9 472.3 493.9
153.6 169 187.7 200.5 218.5 234.4 245.9 253.7 262.3 271.8 279.8 290.8 301 313.3 318.1 329.2 347.9 363.2 375.7 390.7 413.3 429.8 439.8 453.9 467.6 482.4 504.6 519.1 525.9 525.3 519 524.2 531.5 543 552.8 558.5 563.5 588.4 597 589.4 573 565.8 555 545.5 532.4 523.8 517 511.7 507 502.6 496.8 493.8 492.5 497.1 491 489.7 494.4 497.4 499.8 498.3 499.6 506.4 506.6 512.7 519.1 522.8 528.8 525.8 527.6 530.3 524.9 515.8 517 518.5 515.4 513.1 510.6 507 503 497.9 503.6 499.2 494.2 485.6 477.4 464.4 456.7 453.3 447.6 441.8 431.4 420.7 420.7 412.5 405.7 403.4 399.5 391.9 386.9 385.5 386.7 381.7 377.2 379.2 379.9 371.9 371.5 360.4 354.8 348.5 344.7 337.6 331.1 327.8 327.9 326.4 316.2 310.5 308.8 305.8 296.3 294.3 292.6 288.1 286.2 287.3 287.2 286.8 290.2 281.8 291.4 286.6 283 284 285.7 286.3 285.5 288.9 288.9 292.3 297 294 293 291.5 288.5 288.5 290.6 286.1 285.6 285.3 285.1 283.5 282.5 279.9 280.9 272.8 271.7 274.4 272 277.8 264.5 259.4 257.5 259.1 261.8 256.3 256.3 256.3 256.3 256.2 256.3 256.3 256.3 256.3 258.6 263.4 266.5 271.5 272.9 277.9 280.1 284.6 283.7 286 292.1 295.9 310.5 317.2 323.8 336.7 349.9 362.2 378.3 399.6 411.8 420.6 438.3 459.3 479.6 503.7
150 172.3 182.3 196.8 213.1 228.8 240 249.4 257.9 267.7 278.4 289.6 297 308.5 314.8 331.5 348.2 366.6 376.2 392.6 412.4 424.2 435 448.1 468 475.6 483.5 496 501.5 505.6 500.7 506.9 511.9 529.8 543.6 549.6 550.2 558.3 573.1 576.6 559.3 545.3 537.2 526.7 516.7 506.8 496.8 492.7 487.4 481.4 476 476.7 474.6 474.7 473.4 470.5 470.8 473.9 478.6 477.2 486.8 486.7 488.2 492 502.2 503.9 505.1 505.6 510.1 514.1 511.3 505.2 505.9 504.7 500.7 495.8 494.4 489.6 487.8 485.7 490.8 485.8 481 473.2 462.9 457.4 447.4 443.5 434.8 434.3 424.7 417.4 410.3 402.1 394.6 392 388.5 385 378.8 378.4 381.5 372.8 366.7 365.5 364.8 363.5 355.2 349 345.8 340.3 335.3 332.1 332.7 324.7 316.9 319.6 309.1 304 304.5 296.6 291.5 288.1 286.8 285.8 282.4 281.1 280.2 279.3 278.2 281.6 279.8 281.5 288.5 284.9 284.2 283.3 284.8 285.7 287.4 289.9 293.3 292.7 295.6 290 288.5 290 292.2 289.9 288.4 291.4 289.6 289.6 284.2 282.3 279 270.3 263 271.2 262.6 260.8 261.2 256.9 258.4 256.2 256.3 256.3 256.3 256.3 256.3 256.3 256.3 256.3 256.3 256.3 259.2 263.6 267.8 272.7 275.4 276.5 280.6 285.1 288.9 287.3 295.5 303.1 310.8 318.8 331 341.4 356.4 371.8 395.5 409.6 419.7 435.1 449.2 464.1 480.8 500.4
163.1 168.9 179.5 196 211.2 229 241.7 250.8 260 274.1 282.6 288 297.2 306.2 318.1 329.6 342.9 364.7 374.8 388.8 409.6 420.6 431.4 443.4 463.3 467.7 470 481.2 480.3 485 486.2 489.7 490.4 504.2 513 520.2 526.4 534.3 539.5 536.9 532.4 529.1 522.1 515 499.9 489.9 478.5 473.8 471 464.1 459.6 455.6 454.1 455.7 451.7 452.5 454.6 451.7 453.1 457.4 465.5 465.9 466.3 474.7 478.9 484.5 484.5 495.8 493.6 495.4 498.1 496.3 485 487.4 480.6 478.2 475.4 473.7 473.4 470.3 473.9 473.7 468.5 461.2 452.9 442.2 438.9 430.8 426.9 421.4 412.2 405 402.8 398 388.5 381.2 379.1 373.8 371.8 368.8 369.9 368.1 357.3 359 362.5 351.5 345.5 341.7 339.6 334.3 328.8 327.6 323.3 319.3 313 310 304.6 300.3 299 300.7 289.5 288.6 282.7 280.8 279.3 278.4 275.7 275.2 275.7 276.2 277.8 277.9 283.7 281.3 281.4 281.4 281.4 284.6 287.1 290 290.9 295 291.8 289.8 289.6 293.5 292.3 293.6 294.7 296.5 297.2 300.4 301.5 291.5 279.6 267.9 264.4 264.4 257.1 258.3 256.9 257.6 263.7 259.3 256.3 256.3 258.8 256.3 256.3 256.3 256.3 256.3 258.2 261.1 261.4 265.1 273 275.9 278.1 282.6 280.1 284 287.7 291.6 295.9 300.3 311.4 322.4 335.2 348.9 366.9 385.1 400.3 414.6 425.6 440.5 452.5 465.3 479.4 494.6
158.9 164.7 175.8 193.4 211.7 227.6 242.9 253.9 263.9 281.3 288.7 290.9 300.5 310.4 322.4 331.6 343 348.8 367.1 384.8 403.5 417 422.1 437.9 454.8 455.1 463 469.2 466.2 474.9 481.4 475 481 485 491.7 497.1 510.7 518.5 524.3 516.5 515.7 513.4 507.4 496.4 481.1 468.9 458.7 453.9 447.4 443.8 440.9 440.3 436.7 437.1 435.5 431 432.6 436.3 437.2 436.6 444.5 446.1 444 454.8 458.3 466.2 470.6 475.4 482.7 483.6 484.8 485.2 481.2 463.4 465.5 464 464.7 461.9 462.8 461.4 466.6 465 458.5 451.8 445.9 436.2 427.3 421.4 416.1 414.4 405.4 398 392.5 386.1 378.3 376.5 368.2 364.9 362.7 359.1 357.9 353.5 347.5 348 347.9 338.6 336.4 339.1 334.2 327.8 323.9 324.3 314.7 317.2 311.6 303.5 301.4 296.3 293.9 292.9 288.4 285.6 285.1 281.5 281.1 280.5 275.8 275.6 276.7 275.2 276.8 275.7 281 282.5 283.4 281.4 282.3 287.7 293.7 306 305.8 297.5 295.1 292.2 295.6 297 298.3 303 303.2 299.3 291.3 288.8 290.8 289.8 278 266.3 262.7 256.9 256.9 256.9 262.7 266.1 264.6 258.5 256.3 260.4 258.9 256.4 256.3 256.3 256.3 256.3 260 262.1 265.2 270 272.5 277.3 279.6 284.2 283.8 290 292.5 297.8 308.8 314.6 322.8 328 342.4 356.7 369.3 382.7 397.1 411.4 424 438.6 450.8 461.9 475.5 486.9
154 159.6 172.9 189.6 207.5 226.1 240.7 248.5 260.9 286.2 288.5 292.5 300.7 307.9 327.8 333.6 342 349.7 356.1 380 392.9 402.2 412.8 424.9 440.2 448.4 454.1 464.9 458.7 455.7 462.4 464.1 469.7 473.6 475 479.9 483.8 494.2 500.1 502.3 498.6 494.1 487.6 480.2 464 448.7 438.9 436.2 432.5 428.8 427.3 424.3 418.6 419.7 419.9 419.2 418.5 419.6 418.2 417.6 415.5 419 420.5 425.4 433.6 446.3 452.6 470.5 479.2 466.9 466.7 466 466.1 458 450.5 455.8 455.7 450.4 449.4 450.1 452.9 453.8 448.3 439.6 436.9 428.3 418.8 414.1 409.9 401.8 395.6 396.3 383.7 377.2 374.4 369.4 363 356.1 354.4 353.2 349.9 344 338.3 337.8 333.4 331 332.3 336.5 326.8 322.9 319.1 320.6 312.5 311.2 310.1 300.6 296.4 297 290.9 288.3 285.9 286.5 288.9 288.4 284.5 284.2 273.4 273.2 274 275.3 277.9 278.9 284.4 285.7 287.4 285.6 288.5 291.2 306.1 316.6 306.2 298.7 300.5 299.8 303.6 302.1 300 301.6 299.8 293.8 285.5 282.9 283.9 279.6 276.4 266.1 256.9 256.9 256.9 256.9 256.9 259.7 260.6 260.9 261.6 258.8 257.6 258.8 256.3 256.3 256.3 256.3 262.2 263.9 271.6 274.9 276.4 280.5 282 287.3 290.4 293.2 302.3 314.8 321.1 330.6 340.8 345.4 346.4 367.8 380 392.5 406.3 419.1 428.3 437.7 444.7 453 469.8 484
150.8 156.1 168.3 187.1 201.9 221.7 234.3 239.4 253 271.3 278.1 294.9 304.4 305.6 318.8 333.5 345.5 352 355.6 366.7 382.9 394.5 400.3 410.1 427.6 436.1 440.1 452.1 444.9 437.7 438.4 448.5 450 453.2 456.1 463.3 466.1 471.4 476.3 482.6 476.5 467.7 462.8 456.7 447 430.8 422.1 418.9 416 411.7 408.1 406.1 402.3 401.4 400.1 395.8 398.4 396.9 396.7 397.8 398.8 404 400.9 403.4 411.7 424.1 430.8 450 458.3 454.7 451.1 446.8 448.1 444.4 440.2 433.9 435.1 442.6 439.6 434.7 437.1 436.7 432.5 428 425.7 418 412 409.7 405.4 394.4 390.8 383.8 376.1 375 368.1 359.9 355.5 347.6 351 346.7 342.4 339.1 336.6 331.7 329.2 329.7 329.7 328.7 326.2 326.1 325.3 317 312.6 308 307.7 300.6 296.4 293.4 290.8 288 285.5 284.8 285.7 287.1 278.2 272.2 271.1 276.4 273.4 275.3 279.9 281.7 286.3 286.4 285.5 284.6 287.3 291 296.4 296.1 297.1 302.2 301.7 303.6 303.3 300.3 301.6 298.8 295.4 292.2 284.2 281.2 285.2 278 269.7 259.5 256.9 256.9 256.9 256.9 256.9 256.9 259.8 260.7 259.6 256.3 256.3 256.3 256.3 256.3 257.5 262.2 267.4 270.6 275.2 281.9 283.3 287.3 289.9 294 300 299.8 311.5 321.6 329.7 338.8 349.6 358.9 370.5 379.4 387.1 396.5 409.3 416.9 426.9 432.8 440.9 453.7 466.4 481
149.6 152.8 165.4 182.8 197.6 212.6 222.2 235.3 236.8 259.2 277 299.1 310.4 306.7 314 330.5 340 347.1 355.5 358.5 373.6 386.1 394.3 398.4 411.3 417.3 420.6 424 429.1 422.6 420 426.1 428.9 437 440.6 446 451 450.2 453.1 458.7 458.2 448.2 439.3 432.6 425.8 418.4 409.4 402.5 399.5 395 391.2 387.8 385.6 384.5 382.6 379.2 379.3 379 377.4 377.3 372.7 381 379.3 386.9 396 406.7 416.2 435.6 440.1 436.9 433.9 430.7 428.7 428.3 431.7 428.2 417.5 425.6 428.3 423.1 424.4 423.4 420.5 416.6 419.3 412.6 407.4 401.9 399.4 390.6 381.6 374.2 368.9 368.4 362.1 353.1 352.9 344.2 341.2 337.5 335 333.3 330.2 328.3 331.1 329 329.4 327.1 325.9 326.9 320.9 318.6 314.7 305.8 305.1 300 295.8 293.2 289.7 281.1 280.6 281.9 275.7 271.1 270.2 270.9 268.2 275.6 274.9 278.7 276.8 279.1 279.5 279.7 278.4 279.3 281.5 285.1 287.9 291.7 297.5 296.4 297.4 299.7 301.1 299.9 303.6 295 291.3 287.7 282.2 280.3 283.9 272.6 266.5 271.3 256.9 256.9 256.9 256.9 256.9 256.9 256.9 259.9 258.1 257.7 257 257.3 256.7 262.3 265 272.5 273.7 275.3 278.4 287.7 290 293.2 298 307.3 311 314.2 321.5 330.5 337.3 345.2 356.5 365.9 378.9 386 391.9 402.4 413.4 426.2 430.2 430.6 443.4 454.8 467.5 482.8
145.1 152.2 161.3 179.2 195.8 206.6 217 221.3 229.9 252.4 270.4 297.5 308.8 303.9 316.4 326.5 337.3 340.3 348.9 356 367 377 384.2 387.5 399.3 404.9 408.1 406.1 412.2 408.7 410.6 412.3 415.5 421.9 426.7 430.9 431.5 432.6 430.8 434 436.4 428.4 419.7 413.9 407.8 401.5 394 390.3 385.9 380.6 373.4 370.4 371.1 367.7 365.7 364.7 363.9 360.2 359.7 357.7 356.7 355.7 356.9 365.8 379.3 391.1 402.8 415.9 425.3 419.3 415.5 411.8 414.3 411.3 413.7 411.6 411 412.4 416.3 414.8 410.6 408.5 407.2 407.7 408.1 404.9 402 392.2 387.6 381.7 371.5 365.8 361.9 355.5 349.4 344.5 347.5 333.9 334 328.7 326.6 323.7 329.2 327.2 327.3 327.8 323.9 323.6 321.2 321.4 322.4 320.1 311.1 306.5 300.7 297.1 290.8 287.7 284.6 280.7 279.6 274.3 266.1 265.9 264.3 267.6 267 270.1 275.5 277.9 275.8 273.4 276.1 276.8 276.5 277.9 281.3 281.9 283.8 290.5 295.8 294.8 298.7 301.4 300.6 299.1 298.6 291.1 287.6 285.1 283.8 280.3 279.5 274.6 269.4 264.2 256.9 256.9 256.9 256.9 256.9 256.9 256.9 256.9 257.9 258.3 261.1 258.9 260.6 270.2 270.7 274.9 278.6 280.6 281.5 289.7 292.2 301.5 312.3 317.5 320.8 324.3 333.2 339.8 347.4 353.4 362 375 385.7 393.5 396.8 407.4 417.5 425 431.6 437.9 443 458.8 470.9 492
139.7 151.1 162 176 191.4 201.9 207.8 212.8 222.3 244.4 263.4 289.6 296.2 296.5 315.1 327.3 332.1 336.3 343 355.1 358.5 362 370.1 375.3 385.2 391 391.2 390.4 388.9 389 396.5 399.4 399.8 404.9 411.8 414.8 415.1 410.6 412.8 413.5 414.9 410.7 404.5 396.8 391.9 388 383.6 377.1 373.1 361.3 355.5 355.5 356.8 356.3 354.8 349.2 345.7 340.7 340.5 339 335.9 336 341.8 351.4 369.6 383.5 392.7 398.7 402.9 400.5 399.3 398.3 397.7 398.4 397.6 396.5 396.2 402.8 405.7 402.3 401.4 399.3 395.6 396.4 395 395 390.8 384.5 377.4 373.3 365.9 360.9 354.8 347.9 345.4 336.6 329.6 326.8 323.7 325.1 321.4 319.8 322.4 323.6 325.9 321.4 324.4 316.8 318.5 318.6 323.1 313.4 304.9 304.1 299.3 294.3 287 281.1 276.8 273.7 279.2 273.7 263 262.3 261.7 264.4 264.8 266.1 281.2 280 281.5 272 274.5 275.6 275.8 280.3 279.3 281.1 283.5 287.2 295.5 303.8 305.3 304.1 302.7 297.2 293.9 289.5 291.4 285.5 289.7 283.1 276.1 274.7 268.4 268.6 256.9 256.9 258.4 261.6 257.8 256.9 256.9 259.7 257.2 260.4 262 261.9 262.8 267.4 270.1 271.8 278 282.9 285.6 292.7 300.7 307.8 315.8 320.1 323.9 330 338.8 348.5 354.9 359.9 371.3 381.2 391.5 400.7 408.6 412.6 420.1 425.4 438.1 440.8 452.4 465.7 479.1 495.1
135.5 146.5 158.8 179.2 192.1 199.9 204.5 208.7 215.8 239.1 257.9 279.8 287.2 289 314.5 320.7 327 329.1 332.4 340.9 351.6 353.7 357 361.8 373.5 378.1 376.7 374.5 371.4 370.1 379.5 380.2 383.6 389 391.6 397.9 398.8 398.4 395.9 396.7 397.4 392.5 384.8 377.4 374.3 369.8 365.4 358.4 349.7 345.5 345.7 343.5 343.3 342 337.7 330.8 324.5 319.8 323.3 322.1 314.9 322.9 331.4 347.6 364.4 378.1 381.8 389.2 385.7 385.7 383.1 384 381.9 379.4 385.4 383.5 385.9 397.8 397.9 394.5 391.5 389 388.6 383.7 383.1 382.3 379 376.8 371 368.2 363.1 357.5 347.6 345.9 338.8 329.8 322.2 320.6 318.5 317.7 317 317.3 318.2 320.9 321.6 310.9 309.8 309.2 311.3 314.3 309.7 302 297.5 295.1 292.9 288 281.3 278.2 276 271.2 271.1 265.2 261.9 261.5 259.9 261.3 267 272.5 278.2 274.8 269.4 269.7 273 276.3 278.5 277.4 278.3 281.7 282.7 290.2 295.4 308.3 310.4 305.2 299.9 298.6 297 291.8 289.6 283.1 280.8 277.8 275.5 273.2 265.9 260.6 256.9 266.5 263.7 262.1 263.9 263.5 259 257 258.1 259.9 262.6 263.3 266 267.4 269.4 271.6 279.8 287 290.8 296.4 304.1 310.7 318.8 325 332.7 341.3 345.3 353.9 360.8 369.3 380.9 391.5 397.7 409.1 414.3 421.8 425.4 437.4 442.8 449.9 457.2 468.9 482 499.4
129 141.9 154.2 177.6 191.7 202.4 206.2 206.4 208 223.7 247.1 272.1 280.8 285.5 306.1 311.8 318.1 321.2 326.1 333 338.3 344.6 347.1 347.7 357.6 363.1 360.1 358 356.5 357.3 363.6 365.8 367.4 370.3 372.7 380.5 383.7 384.1 381.9 382 382.3 379 372.8 366.1 359.5 356 349.5 345.3 337.2 335.8 327.8 325.1 324.1 320 315.8 310.8 303.9 313.5 306.5 299.1 301.4 312.8 325.7 341.2 357.3 373.9 374.2 372.5 374.4 381.2 372.1 372.9 373.3 371.4 368.8 372.3 376.6 383.4 387.2 385.8 381.9 381 379.5 377.2 380.3 380.1 371.5 366 362 361.6 358.5 351.3 345.9 339.1 331.2 320.3 319.7 319.6 316.2 311.6 308.3 308.4 309.5 310.5 310.6 300.8 302.7 302.9 304.1 301.9 300.1 297.8 293 290.9 291.1 287.5 279.6 277.3 274.9 273 264.2 262.6 262.2 261.6 259.2 261.3 260.8 260.6 266.6 262.4 262.6 264.7 269.3 271.3 275.6 278.5 277.3 277.2 278.4 283.4 289.5 297.6 296.1 296.3 296.9 297.4 297.4 292.8 290.3 281.6 277.3 273.6 268 265.5 264.5 259.2 261.9 263.6 262.6 262.7 269.8 267.1 264.9 262.8 258.7 261.8 264.6 267.3 270.6 268.7 272.8 279 286.9 293.9 300.6 306.1 313.4 317.2 322.3 327.2 335.8 343.5 351.1 362.2 372.9 379.8 393.4 400.1 410.5 418.5 424.8 431 434.5 439.8 448.8 457.8 464.7 473.9 490.8 506.4
123.5 133.3 150.9 172.9 189.5 203.8 208.8 208.5 205.1 208 231.2 264.7 275 278.6 298.2 304.5 308.8 313.4 319.5 328.1 333.8 334.4 339.3 334.9 338.6 348.1 343.9 340.1 339.9 339.2 348 351.7 352.2 352.8 356.1 368 366 366 366.9 364.3 367.9 366.5 360.3 353.8 345.9 342.7 339.2 327.8 323.9 319.4 314.4 318.8 312.9 307.9 301 293.3 290.6 282.4 284.4 283.2 301.7 309.8 322 334.1 345.9 359.5 352.7 353.8 367.5 367.7 359.2 356.2 357.8 360.6 360.9 369.6 376.3 380.1 379.5 378.2 373.5 371.3 369.9 368.5 369.1 369.3 368.9 360.2 354.1 348.2 346.5 342.6 339.3 330.9 321.8 318.1 318 314.7 309.2 309.2 305.4 302.7 302.4 299.3 296.2 293.8 295 296.1 296.5 295.1 294.8 297 289.4 280.8 276.2 272.6 274.3 273.5 272.8 272.3 267.1 265.6 265.1 263.4 257.2 256.8 256.1 256.8 257.8 259.2 262.2 260.2 265 267.7 276.8 279.5 274.2 272.7 276.6 279.2 281.5 284.9 287.9 291.8 293.5 294.8 296.1 287 283.3 277.4 274.9 272 267.8 270.6 262.7 263.4 263.1 263.4 264.5 267.5 271.4 276.4 267.4 265.4 263.8 265.5 266.3 267.2 270.8 271.3 277.4 286.7 290.5 296.4 305.1 309.5 312.7 316.6 325 330.3 341.2 358.4 364.9 376 383.7 392.2 401.3 408.8 417.5 428.4 431.8 440.6 444.1 447.4 453.9 464.1 470.1 480.4 490.9 506
109.9 127.6 141.1 168.9 185.4 199.1 204.3 213.8 203.3 201.2 220.7 251.2 263.6 271.9 291.7 293.6 301.9 304.9 311.9 319.6 328 326.5 324.7 321 323.2 322.4 325.9 316.7 316.6 315.7 324.7 328.4 337.6 335.8 340.1 343.2 345.4 346.7 350.6 351.9 354.4 354.3 348.1 345.1 334.3 326.6 320.7 316.6 311 304.5 298.4 297.7 292.8 286.8 281.9 275 265.8 273.4 271.7 276.3 293.4 306.8 315.6 326.6 334.5 334.1 333.6 342.3 357.5 350.9 341.5 344.9 348.9 351.8 359.5 364.1 369 366.3 366.4 367 363.2 363.5 359.5 358.7 357.1 357.3 356.9 352.1 344.4 341.6 335.2 331.4 329.5 323.3 318.7 318.5 314.8 315.4 310.3 306.7 304.2 297.6 297.2 295.9 292.7 288.2 287.6 289.3 290.4 286 289.1 286.4 273.6 276.2 268.4 269.5 270.4 270.2 266.6 263.6 265.2 263.1 266.3 262.3 257 256.5 255.7 260.5 256.4 258.5 257 259.4 263.1 267.6 272 281.9 274.1 269.3 271.1 274.7 278.7 281.1 285.8 289.2 293.5 293.6 295.6 290 282.5 275.5 271.1 271.2 266.8 266.2 263.7 263.2 264.4 267.7 267.6 268.8 273.8 274 270.2 268.5 266.1 264 266.2 269.3 269.8 272.9 275.6 284.8 291.1 294.6 300.5 305.9 312.8 320.7 329.8 336.9 352.9 364.9 375.1 388.1 398.1 405.5 411.4 420.1 427.8 436.3 446.3 450.2 453.7 456.2 465.3 473.2 478.4 487.2 490.7 505.4
112.6 118.6 130.3 153.6 175.9 187.6 201.3 204.3 195.5 193.8 209.8 239.4 249.2 262.6 268.8 288 294.5 298 299.1 307.2 315.7 314.8 311.1 307.7 302.2 303.5 302.1 297.1 295.4 295 299 309.1 319.2 316.7 326.2 324 327.9 334.8 336.6 338.9 336.8 338.2 336.3 329.8 322.2 315.3 306.9 300.7 292.5 292 281 277.1 270.8 266 261.1 258.5 257.9 261.7 257.5 270.9 284 298.3 309.5 330.1 323.9 316.3 319.5 325.2 339.2 330.3 322.8 328.4 339.4 346.7 358.6 362.8 357.8 355.2 354.1 355.4 355.4 350.4 350 350.4 343.6 343.4 342.9 344.4 335.3 337.1 330.2 323.6 322.1 316.9 315 313.9 315.5 320.4 310 304.7 297.6 295.3 291.3 292.2 287.4 282.6 281 280.4 280.2 274.8 273.1 273.9 267.7 269.1 262.4 265.6 262.6 261.8 258.9 260.5 258.7 260.6 259.3 256.5 256.5 255.5 255.1 255.7 256.1 256.2 257.1 260.9 265.4 269.9 273.2 283.8 274.2 267.6 270.2 272.3 276.2 280.3 284.5 289.9 293.1 300.9 308.4 297.4 279 271 266.1 261.9 262.9 262.9 262.7 262.8 264.3 264.9 268 270.3 271.8 273.3 269.3 267.4 267 266.1 265.5 268 270.4 272.1 274.7 279.1 288.7 295 300.6 307.2 315.3 325.4 334.6 343.5 360.7 376.8 389.5 398.7 406.3 414.1 422.9 435.6 443.1 448.8 456.7 458.9 464.3 468.3 477.1 484.9 488.9 489.1 492.8 504
112.1 113.9 119.8 136.3 155.2 177 190.1 193.7 187.5 181 196.8 222.9 238.6 256.9 254.1 279.3 288.4 290.2 290.5 297.7 301.9 303 297.4 292 287.8 284.7 281.5 275.8 278.5 274.9 275 284.2 289.9 300.3 311.7 309.5 308.3 324.5 327.1 326.5 326.1 325.5 323.1 317.6 305 299.1 287.4 281.5 274.1 266.9 262.5 256.5 255.7 249.2 247.3 243.2 245.2 245 248.6 258.8 269.6 281.3 297 312 307 297.2 301.3 307.8 313.3 308.2 309.5 321.8 339.5 341.3 347.4 348.3 348.1 345.4 343.6 342.2 345.3 342.6 343.3 340.9 334 334 335.6 334.9 327.6 325.7 321.9 314.1 313.2 311.8 311.5 308.8 310.8 312.5 304.5 296.6 294.3 291 286.1 283 282.1 276.1 274.2 272.6 273.8 267 265.5 265.3 262.8 264.4 261.4 257.8 256.5 255 254.9 255.7 255.6 255.6 256.1 256.1 255.9 254.6 254.4 254.7 255.9 256 256.3 258.2 261.3 263.4 266.1 267.2 269.4 263.8 265.5 272.7 273.2 276.7 284.2 293.2 295.8 300.9 293.8 286 273.5 268.6 268.2 261.6 263.4 265.1 262.3 264 262.7 265.9 267.8 268.4 270.5 270 269.2 266.4 266.4 265.7 265.7 269 272.8 271.7 273.8 281.5 291 298 304.6 312.5 322.4 332.6 342.9 353.6 368.2 384.5 397.9 408.9 416.3 429.1 439.8 449.3 457.1 463.7 468 469.5 476.2 482.8 488.1 493.1 491.5 492.1 491.6 495.8
111.8 107.3 111.4 123.5 137.1 153.9 166.7 175.2 171.3 165.4 178.8 205.3 221.2 249 240.4 265.8 274.9 280 283.4 286 282.1 284.4 280.9 276.3 271.5 265.6 264.1 260.4 262.4 250.3 250 256.1 266.8 280.4 290.2 298.3 292.4 299.8 302.4 309.6 314.6 313.2 306.1 293.5 283 280.2 271.8 266.7 259.2 250.7 245.3 239.9 249.5 237 235.1 232.6 230.6 236 243.3 252.1 261.4 272.6 287.9 299.4 298.7 295 286.6 288.4 286.7 289.8 291.7 300.7 320.4 332 335.9 336.5 335.6 326.7 327.3 327.8 331 336.4 326.7 324.3 326.9 326 328.9 325.7 319.6 319.3 310.4 305.8 305.4 309.3 309.3 301 297.5 297.3 301.5 288.7 287.2 282.1 278 275 280 273.2 271.3 267.5 272.9 265.9 258.9 259.5 258.7 256.6 256 255.9 255.3 255.1 254.9 255.6 256.2 255.3 255 255.3 254.8 255.1 254.9 254.4 255.5 255.5 255 255.6 259 259.6 261.9 259.9 259.7 259 263.2 263.8 268.1 273.9 277.7 294 291.3 281.6 283.4 279.1 267.4 265.5 261.6 261.4 261.7 262.1 263.5 264.8 267 267.9 268.6 268.8 268.6 273.5 268.9 266.2 266.1 268.5 266.6 269.2 275.9 276.9 277.6 288.1 295.9 305.3 317.2 324.3 338.6 345.4 353.9 364.8 381.3 399.3 414.7 423.9 432.6 448.1 457.7 464.6 470.9 476.3 482.2 483.9 487.9 492.8 494.3 498.8 493.6 491.6 492.7 494.8
110.7 110.4 109.9 112.4 122.6 130.9 135.4 151.1 150.6 142.9 151.5 169.5 202.5 219 227.9 250.1 260.8 270.5 271.9 271.9 268.1 273 267 257.1 251.6 243.4 246.8 243.2 241.3 227 224 228.9 245.3 261.3 273.8 276 283.2 286.1 290.6 304.1 299.1 295.7 284.1 278.4 269.4 260.4 258 249.5 243.1 238.7 229.5 227 224.3 225.4 226 224.1 223.9 227.8 234.9 246 258.3 265.7 280.7 300.5 301.4 285.5 274.1 269.5 269 277.7 276.4 283.7 292.3 309.9 315.9 317.8 315.8 305.9 309.8 310.3 316.1 312.9 311.5 311.2 314.2 315.8 321.9 316.5 309.9 305.4 299.6 296.9 297.6 299.7 298 290.2 287.9 287.1 285.9 278.6 278.3 282.4 272.9 266.7 267.9 267.9 266.1 263.5 258.9 260.7 257.7 258.4 259 261 262.8 256.7 256.3 255.2 254.7 254.4 254.4 254.4 255.2 255.7 255.4 255.3 255.8 256 254.8 255 255.5 257.6 259.4 259.3 258.9 259.5 258.2 257 258.1 260.5 262.2 264.4 266.9 272.9 278.7 275.1 273.4 267.9 261.7 261.7 261.6 264.3 261.9 262.3 263.1 266.2 265.1 269.8 269.3 269.1 269.3 270.8 268.3 268.8 270.1 277.9 270.5 272.4 278.9 282 285.7 297.9 309.9 315.8 331 337.3 346.2 357.4 367 377.9 399.1 415.3 429.1 440.5 457.2 464.6 472.8 478.9 482.6 486.7 489.9 494.7 492.6 495 494.8 494.9 494 493 495.4 500.8
110.1 109.6 106.6 107.3 111 118.8 127 121.1 122.4 123.7 134.4 149.4 171.6 195.9 213.3 212.3 248.6 259 257.6 255 253 254.2 248.5 235.6 226.6 224.6 224.4 224.6 218.1 209.2 196.7 203.7 219.7 242.8 259.1 261.4 266.5 276.5 287.8 289.3 282.6 277 271.6 264.1 254 247.2 240.9 235.6 231.2 225.9 222.6 221.6 221.1 222 220.3 220.8 220.5 221.7 226.4 233.9 246.7 255.5 265.3 289.5 284.2 270.5 260.6 258.6 257.2 255 264.1 273.4 276.5 286.2 302.8 310.9 308.4 295.4 296.8 300 299.5 296.8 298.5 304.7 304 306.1 314.8 305.6 302.5 301.8 291.6 290.7 288.5 289.2 290.2 281.7 278.3 277.3 269 274.4 274.2 270.5 269.9 262.4 261.1 257.9 257.3 254.4 254.3 254.3 254.3 254.3 254.3 256.9 254.3 254.3 254.6 255.3 254.4 254.4 254.4 255.5 256.4 259.1 257.2 257.9 258.2 259.8 259.7 261 262.5 264.2 270.3 274 270.1 265.4 262.3 261.7 261.7 259.6 262.5 260.2 260.3 262 262.8 261.6 262.2 261 261.3 260.3 261.4 263 261.6 262.6 264.8 264.9 264 266.3 269.9 271.7 276 271.6 270.2 272.5 273.2 274.6 275.1 277.2 283.4 288.1 298.9 309.2 321.3 334.8 343.4 353.2 370.6 393.4 398 402.7 417.7 432.6 448.5 463.2 475.6 487.7 494 496.6 499.3 501.1 504 503.7 499.8 499.4 505.1 501.4 504.9 507.8 510.1 512.4
108.4 106.2 110.3 112.6 114 112.7 119.3 123.1 114.9 118.7 120.8 135.2 153.1 177.9 195.3 188.6 210.5 243.7 243 235.4 240 236.3 224.9 213.1 207.3 203.9 196.6 191.2 185.6 190.3 180.7 182.7 199.4 220.6 245.9 248.7 259.7 269.9 279.7 275.2 273.1 268.9 258.7 249.2 237.4 235.3 228.2 237 222.3 222 220.4 219.9 220.5 219.7 220 221.4 221.5 221.7 223.5 228.9 236.3 243.9 251.3 268.9 267.1 251.5 253.6 244.5 246.1 246.3 249.6 257.4 265 271 285.5 292 291.3 290.6 297.4 303.7 293.2 286.6 287.7 290 295.3 295.9 296.2 293.6 292.4 290.1 283.3 284.4 283.6 282.9 279.2 272.1 267.1 266.8 265.1 264.5 263.9 260.6 256.9 256.1 255.8 254.9 254.3 254.3 254.3 254.3 254.3 254.3 254.3 254.3 254.3 254.3 254.3 254.3 254.9 254.8 254.4 254.4 258.7 259.5 261.1 263 264.8 267.2 269.6 268.6 270.7 274.1 293.2 302.1 293.7 283.2 282.1 280 276.9 269.1 266.8 266 262.9 262.2 261.6 261.8 261.2 261.3 260.4 261.5 262.3 262.2 263.3 260.6 262.2 264 263.5 267.3 276.6 276.3 276 274.1 273.7 272.2 277.4 276.2 290.8 290.8 291.5 297.3 308.5 322.6 337 350.7 363.7 383.2 402.2 417.8 426 430.7 440.5 455.7 471.1 485.8 496.1 506.9 513.7 516.4 516.7 516.9 514.5 512.5 507 506.6 509.3 509.1 507.7 514.9 516.5 519.6
106.4 110.8 118.4 120.4 120 123.4 139.3 135.8 128.1 117.1 120.7 125.5 137.9 155.7 167.3 167.8 183 221 227.9 219.1 219.9 215.4 205.6 195.1 186.8 182.3 169.2 175.9 182.6 188.5 203.8 194 185.8 206.2 229.4 240.6 256.8 264.6 271.1 276.4 266.1 261.2 247.7 234 226.3 222.9 225.2 222.6 219.2 220.9 221.1 221.5 219.6 219.9 220.4 221.2 222.8 222.8 222.1 224.4 237.7 238.8 241.6 256.2 251.7 244.1 240.1 238 239.4 240.4 242 249.7 258.9 266.4 275.3 277.4 274.8 278.1 281.4 292.4 288 279.9 276.5 279.6 279.7 284.5 287.8 284.3 282.6 282.4 283 273.9 274.6 271.8 268.8 266.1 260.9 265.5 254.9 255.2 256.2 256.7 256.1 255.1 254.7 254.4 254.3 254.3 254.3 254.3 254.3 254.3 254.3 254.3 254.3 254.3 254.3 254.4 256.6 256.5 256 257.1 259.9 263 268.5 271.1 270.3 272.6 273.5 273.1 278.7 289.1 306.3 313 307.5 305.9 292.8 292.2 292.2 288.4 278.7 272.1 270.2 266.1 270 261.1 261.1 261.7 260.9 261.4 262.2 262.9 265 261.8 261.2 262.7 264.9 266.7 269.8 274.5 274.5 277.2 278.1 281.5 282.8 280.5 285.9 289.1 295.8 313.5 334.2 354 376.3 388.7 393.6 409.5 426.1 442.1 451.2 454.2 465.9 478.9 495.2 513.6 519.7 527 531.9 534.3 534.4 533.1 530.2 527.3 521.6 518.9 521.2 520.9 523.2 525.3 524.8 527.1
108.3 118.7 126.5 129.2 132.7 138.7 149.4 149.1 141.7 135 123 119.2 126.9 141.5 142.7 141.7 154.6 191.4 210.8 206.5 199 191.6 184.4 183.3 174.8 163.3 173.8 190.3 210.3 212.8 214.3 209.7 198.1 186.8 209.8 229.3 248.8 263.9 265.6 259.3 259.7 248.4 236.6 224 220 219 222.1 219.4 223.4 224 224.2 223.4 226.2 224.5 225.2 227.2 224.7 225.4 224 222.2 247.7 246.1 237.1 247.4 252.3 241.3 240.1 241.2 237.5 236.6 237 241 246.7 254 264.2 264.6 267.7 264.9 268.5 274 274.4 272.1 270.6 271.2 271.6 273.6 276.1 283.6 291.3 283.4 273.5 266.8 267.1 265.8 259 259.8 254.8 255.2 255.7 256 255.8 255.6 255.5 256 255 254.4 254.3 254.3 254.3 254.3 254.3 254.3 254.3 254.3 254.3 254.3 254.3 256.5 258.3 258.7 260.1 262.3 265.3 267.3 274.1 275.4 277.9 279 278.5 287 292.4 302.3 310.6 311.1 312.3 313 311.2 313.1 315.3 309.3 304.3 285.8 273.4 268.4 265.7 261.2 261.3 261.8 262.2 262.3 262.5 263 263.3 262.7 261.5 261.4 265.6 266.8 267.7 274.9 278.8 276.7 274.5 283.5 280.2 280.7 283.6 290.7 306.8 331.9 358.2 367.2 384 401.5 417.4 436.6 450.2 463.2 470.5 477.5 487 502.5 519.4 540.6 547.3 549.8 551.7 551.1 548.7 547.2 544.8 542.7 537.3 535.6 535.9 533.8 533.4 534.1 533.8 535.6
117.1 132.9 143.6 146.8 149.1 160.5 173.9 175.2 159.4 149.6 139.1 132.5 130.9 124.3 131.7 131.4 141.1 165 181.7 186.5 177.8 173.6 169.4 166.1 157.4 165.3 185.2 204.8 219.2 214.8 217.3 216.1 215.4 212.8 190.2 214.8 236.3 251.7 250.9 246.6 245.8 241.1 230.2 222.9 218.8 221.4 228.6 226.4 229 228.5 230.8 230.5 238 239.8 236.2 233.6 233.5 234.3 230.9 224.2 224.4 230.9 228 238 243.6 239.1 239 237.1 236.1 236 237.9 239 241.9 245.3 253.6 256 257 258.7 260 262.7 261.7 260.6 259.9 262.5 264.8 262.9 265.6 271.6 280.1 278.9 263.4 259.2 259.9 258.4 256.8 255.4 255.3 255.3 255.4 256.7 256.4 256.4 256.1 255.5 256.1 255.3 255 254.3 254.3 254.3 254.3 254.3 254.3 254.3 254.3 254.3 256.2 258.4 260.3 261.9 263.5 269.1 270.1 273.9 275.8 279.8 282 285.8 288 294.8 301.9 315.1 316.4 316.9 317 318.1 318.9 313.3 308.7 306.1 300.8 293.8 283.8 275.4 268.4 262.6 261.2 261.6 261.9 262.3 262.6 263 263.3 263.4 262.7 261.7 265.5 267.6 266.9 272.5 271 270.9 271.1 279.2 274.5 276.6 283.3 303.9 323.8 346.2 363.6 372.4 400.1 423.8 438.8 454.7 470.8 484.1 496 514.6 519.3 528.6 543 561.9 572.3 571.4 569 567.2 564.1 560.9 557.1 556.1 554 549.1 547 545.5 548.2 549.2 549.1 550.8
156.1 172.5 184.1 176.6 186.4 202.2 203.4 191.5 176.9 164.5 156.6 148.2 148.3 147.6 150.7 144.7 131.7 151.8 160.6 164.7 160.8 151.6 148.6 160 166 173.9 192.4 209.9 217.1 216.2 219.3 223.2 227.1 224.8 222 196.1 216.4 235.8 235.8 229.5 228.6 228.7 226.4 218.8 219.7 234.8 236.8 232.8 236.3 238 238.1 241 253.3 252.8 248.7 243.3 238.6 245.9 241.6 231.2 231.6 223.3 228.8 229.5 236.1 236.9 235.7 237.4 235.6 237.3 239.5 242.6 248.2 250.3 246.2 249.8 252 257.5 255.2 258.5 253.2 253.4 254.7 254.2 254.3 254.7 256.3 255.7 256.9 258.2 255.5 254.2 258.7 256.8 260.5 255.3 254.5 254.8 255.2 256.2 257 257.1 257 256.2 256.8 256.3 255.8 254.8 254.3 254.3 254.3 254.3 254.3 254.3 254.3 254.6 259 261.3 262.6 266.2 271.4 278 281.9 287.2 289.8 291.2 298.9 296.8 298.1 307.3 317.3 329.5 328.1 328.8 324.9 323.2 320.4 318.2 314.8 309.9 308.2 303.7 294.2 289.5 280.2 272.3 266.2 263 261.5 261.9 262.3 262.3 262.5 263 262.9 262.3 262.7 265.7 268.1 270.4 269.1 270.9 272.2 273.4 274.8 277.5 288.7 306.5 327.4 346 361 382.7 410.2 430.7 446.3 466.7 493.2 508.9 530.1 549.4 555.1 559.7 568.7 574.4 586.2 593.9 587.6 584.5 581.3 577.2 572.7 570.6 567.7 565.3 569.9 574.8 569.1 571.5 572.6 562
182.4 196.3 202.7 204.7 216.1 234.4 224.2 205.8 203.2 191.5 189.8 177.1 169.1 162.5 157.7 148.7 132.5 140.2 147.3 147.4 143.7 150.1 153.4 156.4 165.2 172.9 185.8 202.9 221.4 228.6 236.8 237.5 239 234.6 230.8 219.6 198 208.4 212.7 217.5 216.7 217.5 218.7 236.5 248.7 250.4 251.1 245.7 247.7 249.2 247.6 256.8 261.9 259.1 259.4 253 253.4 243.3 240.9 238.3 239.5 240.2 239.7 242.1 231.3 236.9 243.4 239.9 238.6 240.3 243.2 248.6 252.7 252.1 245.6 247.5 247 252.6 252.9 252.4 249.8 248.6 250.8 253.7 254.3 252.5 252.3 252.7 253 253.2 254.2 253.9 254.8 255.5 255.2 256.8 256.3 256.8 256.5 256.8 257.2 257.5 257.8 256.5 257.4 257.1 256.6 258.5 255.6 254.6 254.4 256.6 256.5 257.9 255.2 259.6 264.8 267.7 273.9 280.9 286.7 296.1 302.1 305 308.3 307.8 315.5 319.9 321 340.7 338.1 342.9 345 342.9 337.6 332.8 329.5 326.4 323.4 322.1 320.1 313.1 302.6 297.9 292.9 280.4 272.6 266 265.6 263.1 262.6 263.4 262.6 262 263.9 262.6 265 265.6 268.8 273.2 273 270.3 275.1 274.1 278 284.5 296.6 320.8 332.9 348.2 376.1 392 413.2 435.3 455.6 480.8 507.4 531.4 558.3 573.3 581.3 587.4 591.4 597.3 605.9 614.9 612 600.6 598.8 594 591.4 586.9 584 581.3 581.7 581.9 578.4 583.3 580.3 547.6
194.8 203.5 213.6 216 227.7 234.7 238.3 230.8 224.7 215.7 211 205.1 190.2 179.8 171.3 161.6 138.6 134.1 139 143 155 160.6 163 167.7 171.2 178.7 191 206.2 218.6 239.1 253 255.1 255.7 247.4 244.3 231.7 223.3 224 219.4 209.8 218.6 224.6 242.5 272.2 276.7 269.8 262.7 263.8 262.1 262.5 264.9 270.7 272.5 279.7 276.4 265.6 256.5 255.2 249.6 246.6 248.1 249.4 245.9 243.1 241.5 243.3 246.4 249.9 246.3 245.8 251.3 254.2 255.3 253.2 247.6 247.8 249 248.3 248 252 256 256.1 254.9 256.8 256.4 256.7 255.9 255.3 254.3 256.4 255.3 255.3 253.2 253.7 258.8 257.4 258.6 257.5 257.9 257.6 257.7 257.5 258.4 258.4 258.4 260 259.7 262.3 258.6 259.2 258.5 260 261.3 259.6 261.8 264.8 274.5 284.6 288.9 298.4 307.1 311.3 317.2 325.7 332 338.4 341.1 342.8 346.6 360.8 359.2 355.9 353.4 351 348.2 345.4 340.8 336.9 331 327.6 322.4 316.2 309.5 304 302 291 281.4 273.6 270.4 267.4 265.9 265.1 264.5 264.7 263.9 263.4 265.3 267.3 269.3 271.3 271.5 273.7 280.3 285.8 288.4 292.1 308.3 325.5 335.2 342.7 378.3 395.8 409 434.2 465.2 492.4 516.9 541.5 573.4 595.2 601.5 609.6 617.1 622.6 626.6 632.6 635.7 623.7 616.2 612.2 608.7 603.5 598.3 596.9 596.9 597.5 592.1 587.9 581.8 543.3
207.2 219.2 231.6 235.5 241.1 239.5 242 251.9 247.9 230.7 223 213.4 207.3 198.8 186.7 172.9 149.3 140 142.9 155.4 161.4 166.9 177.1 186.7 192.4 193.9 203.4 218.4 231 252.9 276.2 275.6 282.1 271.5 252.9 245.6 236.9 240.6 240.2 231 238 246.8 270.6 301.5 296.4 289.5 274 275.9 272.7 272.9 276.9 280.6 302 304.2 292.9 283.4 268.4 262.5 253.3 257.1 259.6 255.6 256.8 254.9 255.6 258.3 257.7 262.8 260.4 278.2 272.9 266.7 262.6 256.8 250.2 252.9 254.3 256.3 258.6 260.1 258.4 257.5 258.5 257.6 257.4 259.1 258.7 261 264.5 263.3 262.4 256.5 257.6 261.7 265.1 259.6 259 259.2 257.7 257.3 258.3 258.8 259.8 260.3 260.5 260 260.9 260.3 259.7 260.3 261.7 264.4 265.6 265.6 268.4 277.1 285.2 295.5 305.1 316.1 322.8 332.1 342.7 348.2 351.2 354.2 359.3 361.1 364.6 375.3 371.3 364.8 361.1 358.4 357.4 354.2 349 344.5 341.3 337.1 328.9 320.4 317.3 314.4 310.8 302.4 293.5 287.6 278.8 272.9 270.7 268.7 268.6 267 266.6 266.3 265.4 267.6 268.3 270.7 273.7 275.7 283.1 289.6 295.8 299.4 308.3 322.4 328.8 340.7 363.5 382.8 411.5 444.4 476.5 504.3 525.4 547.3 581.3 598 617.4 631.8 642.7 647.2 654 661.1 656.6 653 642 633.6 627.9 620.2 619.7 614.9 618.5 610 598.8 587.4 573.3 536.4
228.8 230.8 245.1 250.2 251.8 253.8 253.1 259.3 256.6 238.1 229.8 224.5 226.7 215.8 202.7 186.9 170 148.7 146.9 159.9 165.3 177 188.7 200 205.4 219.1 226.8 235.7 254.6 279.4 284.2 297.6 293.3 287.8 269.4 253.2 255.3 248.1 256.5 254.5 256.8 264.9 291.3 316.8 320.4 302.6 294.1 282.8 280.3 285.6 291.9 295.8 301.4 297.8 297.1 290.8 278.7 266.5 263.5 263.4 268 267.7 269.3 266.4 270.2 275.7 276.2 289 289.3 292.3 290.5 286.1 287.8 269.7 258.3 256.5 262.2 269.1 277 275.4 273.9 263.7 262.7 261.4 260.3 264.1 266.7 261.5 264.1 265 261.3 256.8 259.4 262.7 262.1 262.3 260.7 259.5 259.1 259.9 260.9 260.4 262.2 262.7 260.7 261.7 262.9 261.8 261.9 261.9 266 267.4 271.8 275.6 282.1 287 294.4 312.8 333.2 337 351.9 355.5 362.9 364.6 366.5 369.2 374.5 374.3 380.8 381.5 373.8 370.3 368.9 370.5 370.2 367.1 361.8 355.8 350.9 346.2 340.1 329 325.9 319 316.7 310.5 308.5 300.8 285.1 279.6 276 274.1 271.9 272.1 271.3 268.3 268.3 265.5 270.1 270.8 273.5 275.2 280.3 291.9 297.6 303.6 308.2 323.1 330.3 338 356.6 382.1 423.1 457.6 487.1 511.5 531.3 551.5 576.1 603.6 621.4 643.7 661.8 669.5 680.2 685.9 675.6 672.9 663.3 655.5 642.9 642.3 636 629.5 627.2 613.8 590.3 566.6 547.5 521.7
234.1 256.2 273.3 266.9 265.1 263.6 260.9 265.5 264.5 249.7 241.9 236.6 231.8 222.5 210.1 198 187.5 167.1 142.7 161.4 170.8 182.9 198.5 212.5 220.9 226.7 241.3 253.3 263.2 274.4 285.1 297.9 293.3 285.9 276.8 265 267.5 262 259.2 269.3 275.1 285 307.3 327.6 330.6 320 307.5 303.5 309.3 310.1 305.3 305.2 300.5 303.3 302.7 301.7 294.6 277.7 271.6 273.1 273.8 275 275.3 276.4 280.2 287.2 289.5 305.1 325.6 328.1 317.1 313 302.7 290.7 273.2 270.7 282.7 283.9 282.5 288 292.6 284.4 283.4 273.3 276.4 275.5 271.6 265.2 265.2 261.7 262.3 262 263.4 264.3 263 264 264.4 260.5 260.4 263.1 264.4 266.1 267.3 265 267 265.7 266 266.8 265.9 267 271.5 273.1 278.2 284.4 292.9 296.9 310.5 336.4 349.2 357.6 369.4 379.4 379.7 381.1 385.7 388.1 387.9 384.7 386.7 383.7 380.6 379.1 374.6 374.8 375.6 376.3 372.2 369.1 361.8 356.7 351.1 343.1 338.7 327.8 320.3 314 314.4 306.5 297.9 288.8 283.6 279.2 278.5 275 275.6 270 271.9 271.7 269.3 272 273.2 277.2 281.7 289.2 297.5 303.3 312.4 323.4 330.8 339.2 355.4 390.4 416.5 444.6 476.5 502.1 526.6 550.9 579.8 607.8 625 644.8 666.2 681.2 686.5 689.1 687.8 690.9 688.5 682.1 663.9 660.1 655.3 645.9 632.8 608.4 577.4 550.3 527.7 509.9
253.1 285.6 286.9 281.3 275.7 266.8 264.5 265 260.2 253.8 251.2 242 236.2 226.6 218.5 209.6 195.7 190.7 167.4 147.4 171.4 190.3 204.6 219.9 225.5 239.9 263.3 267.5 270.4 278.5 298 301.1 292 291.9 287.6 278.9 285.1 279.9 276.3 277.6 289.2 302.4 323.9 337.5 330.3 326.2 327.4 325.1 337 342.7 328.3 325 315.7 316.7 317.8 312.2 308.9 299.4 288.7 285.3 285.9 289.1 292.8 297.7 299 298.9 303.2 307.5 323.9 338.6 332.6 334.1 321.8 306.3 292.5 291 295.8 297.5 295.8 301.9 310.8 306.2 299.3 296.5 302.3 304 289.5 276.3 267.9 266 265.7 269.2 286.3 275.1 266.7 265.8 263.7 261.5 261.8 262.9 265.9 267.5 269.7 266.7 273 270.8 270.8 275.7 271.3 275.2 280.5 282.3 287.2 297.9 307.2 312.7 326.5 352.2 365.9 366.2 376.4 387.6 393.5 392.9 393.3 398 399.5 392.9 386.8 386.2 382.8 383 380.4 379.7 377.7 376.3 376.6 370.9 365.7 361.1 356.6 347.7 343.5 336 325.1 317.4 316.8 312.5 304.1 294.6 287 285.7 282 278.7 274.8 272 271.9 272.6 271 274.2 274.6 276.3 279.1 285.8 297.1 303.4 310.3 318.6 326.5 335.8 352 380.3 403.6 434 463 490.6 511.2 546.5 581.8 603.1 619.2 645 665.2 680.2 680 682.3 693.8 706.3 699.6 689.8 676.1 670.4 661.8 639.4 618.9 599.7 575.2 543.3 513.6 497.4
274.2 281.3 284.6 288 286.2 274.1 271.9 272.5 270.4 263.7 261.8 251.9 240.8 233.4 225.5 218.1 211.1 199.6 188 166.6 161.1 188 205.9 226.2 232.2 253.5 277.6 287.2 278.5 276.8 285.3 295.1 309.7 302.1 302.3 297.1 303 302.1 305.7 298.8 311.1 319.6 327.9 334.7 341 351.4 345.4 351.9 356.6 357.6 359.6 349.5 342.8 334.3 330.8 327.8 322.2 315.7 313.2 302.9 309.1 313.3 319.3 314.2 317 315 316 319.7 319.2 330.4 334.2 331.5 331.8 329.3 320.4 316 318.6 312.8 313.3 312.9 314.3 316.2 316.7 325.3 333.7 312.2 298.2 288.6 275.3 271.2 273.6 280.5 290.9 282.2 271.8 265.8 264.4 264.2 264 266.8 267.9 269.4 271.4 273 275.4 276.7 277.9 280.3 280.7 285.4 288 292.7 299.2 311.9 319.4 323.7 337.8 369.8 378.4 376.9 387.4 394.3 394.5 394.7 396.1 398.4 392.3 389.9 390.6 392.3 391.3 393.6 390.2 393.9 397.3 399.9 396.8 382.2 376.5 372 365.8 356.9 349.6 342.9 333.3 322.9 318.7 320.1 309.7 303.4 292.1 286.9 284.8 279.9 277 274.5 272.9 273.5 272.5 273.3 272.9 274.6 276.6 282.2 287.7 296.3 305.4 314.1 321.1 330.1 343.6 361.2 393.8 424.6 453.9 475.9 499.3 528.7 567.2 591.4 609.1 635.1 650.3 659.9 662.6 665.6 680 685.9 687.6 684.4 674.5 667.4 651.8 622.5 602.3 581.9 556.5 532.4 509.2 494.2
286.9 284 288.3 296.7 289.1 276.7 280.5 282 281.1 286.3 275.3 262.9 248.1 239.5 232 226.3 216.3 209 197.5 178.8 159.3 185.4 201.4 219.9 235.8 263.7 274.8 274.9 276.2 280.2 291 302.2 312.2 313.7 316.7 313.2 325.9 325.2 326.3 321.3 331.7 340.7 344.8 352.7 358 365.3 371.8 382.1 383.5 376.4 388.7 388.8 367.8 359.8 361 352.2 352.7 347.8 341.1 331.8 332.3 333.5 334 336.6 345.1 336.1 333.3 337.3 329.6 330.3 334 340.1 344.6 346.8 348.2 343.5 343.2 339.6 333.3 327.5 324.4 321.4 326.8 332.3 323.5 313.8 301.4 295.9 284.9 283.3 276.5 284.9 285 280.9 270 267.8 268.5 269 270.7 271.7 271.8 271.3 273.4 272.5 270 275.8 282.9 283 287.6 296 295.2 300.3 312.5 323.6 330.4 343.1 360 369.4 381.2 388.1 391.4 394.8 397.3 399.7 395.2 398.1 391 393.3 395.9 396.6 395.1 399.8 400.1 404 415.6 418.4 415.3 401.3 406.1 399.2 388.4 373.6 359.8 353.1 347.8 338.7 324.8 319.4 310.9 306.2 296.8 291.4 287.3 282.1 279.3 274.4 274.2 274.6 278.1 277.5 279 276.1 276.4 278.8 284.5 292.6 300.2 308.3 317.4 324 334.7 346.3 380.4 409.8 435.7 458.4 487.5 509.6 537.9 566.6 593.9 612.8 623.7 635.1 638.9 638 648.9 653.8 654.9 655 649.5 642.6 627.5 603.2 584.3 561.4 542.6 519.5 498.6 489.9
282.1 284.5 287.5 292.9 284.9 284.1 286.5 289.3 291 291.1 279.2 267.6 255.9 248 239.3 230.6 221.9 215.3 203.2 181.6 162.8 190.8 200.2 215.8 233 249.8 267.7 273.9 279.5 284.1 290.4 302.4 313 312.8 311 315.9 328.5 346.7 347.8 341.8 341.1 358.9 356.2 369.7 376.6 396.8 405.2 420.1 411.3 412.7 412.3 411.4 403.9 383.8 380.3 383 379.1 381 373.8 365.6 358.5 375.1 364.3 360.2 366.6 365.9 355.4 348.6 340.1 348.7 352.2 364.3 370.6 365 365.2 361.5 364 364.5 368.4 349.8 340.2 333.9 335.3 333.7 324.1 311.8 310.1 299.1 302.7 295.6 286.1 289.7 283.2 277.9 275.6 275.8 273 276.6 275.9 276 276.9 274.9 275.5 276.4 275.6 275.9 280.2 288 289.4 299.1 301.8 312.5 320.2 329.4 338.9 356.6 366.8 378.4 388.5 392.2 394.7 398.6 398.9 396.6 393.7 391.7 391.2 395.6 400.7 404.2 415.5 416.2 418.7 423.1 421 419.3 421.7 421.9 423.1 419.2 404.5 393.9 389.5 377.8 364.2 359.5 338.8 327.8 318.6 307.2 298 293.9 291.9 284.7 282.3 279.2 278 276.7 277 282.5 285.1 280.9 282 281.3 284.6 287.6 294.7 302.9 309.9 316.1 323.1 341.3 362.5 392.8 416 441.2 465.8 487.9 514.7 552.3 572.9 581.1 597.8 608.4 612.1 607.6 612.5 618.2 621.4 622.3 617.7 612.2 599.7 584.2 563.1 542.8 527 507.1 494.1 487.9
286.9 284.7 284.1 288.6 289.4 288.8 289.5 292.5 290.7 283.9 278.2 272.4 266.5 257.1 246.8 238 230.3 222 210.6 203.3 173.5 189.9 208.9 219.2 239.8 257.8 270 281.1 289.2 291.7 291.8 298.5 303.9 309.3 312.6 318.2 328.4 362.4 361.4 377.5 373.3 380.5 388 389.6 389.1 412 429.5 424.1 430.9 437.3 436.6 448.7 433.4 415.7 417.3 417.6 416.7 416.6 406.7 400 388.7 401.2 392 384.2 382.3 384.1 377.1 370.9 360.9 371.7 367.3 375.8 379.5 380.5 384 390.1 393.6 384.7 380.7 367.2 355 343 346.8 337.6 331.9 324.1 314.2 312.1 308.8 300.2 295.8 287.1 287.4 280.5 286.9 282.1 283.1 282.9 284.6 282.6 281.5 279.9 281.4 279.2 277.4 281.7 283.8 283.9 290 296.6 303.6 312.3 323.3 331.5 342.9 355.8 369.5 382.7 386.2 387.1 385.6 391.3 398.6 392.4 394.2 394.3 395.5 402.3 405.9 417.2 424.6 429 428.9 439.1 437.2 434.7 433.5 441.3 440.2 430.8 418 418.2 416.4 401.3 388.6 382.2 365.8 353.2 337.1 317.3 306.1 299.9 299 291 287.4 288.9 282.6 280.7 281.3 281.2 286.4 288 286.3 286 283.5 285.5 291.1 295.6 299.3 309.5 323 341.1 357.6 377.8 400.1 425.3 449.1 472 495.3 521.4 546.5 556.4 571.5 581 583.1 579 581.3 585.3 589 589 586 580.4 572.1 564.1 547.2 525.6 512.7 498.6 487.6 483.1
287 291.7 289.8 301.5 302.8 295.7 296.2 293.4 291.5 283.1 280 276.7 272.3 262.5 254.8 248.5 239.6 232.8 222.5 211.2 193.7 180.9 212.7 226.7 242.9 259.1 275.5 286.4 289.7 289.8 289.8 302.9 314.8 323.5 316.9 318.8 331.4 361.5 370.5 390.5 412.2 417.5 415 415.7 417.2 418.9 432.9 442.5 450.2 456.3 453.9 456.1 458.7 449.8 458.7 461.9 459.2 446.4 436.9 443.8 428.5 411.2 409.2 417.1 407.6 403.4 401.7 391 386.5 387.9 390.5 393.7 398 403.4 407.2 409.3 411.9 401.1 391.8 378.6 363.9 356.2 350 342.2 336.3 339.4 331 326.9 315 306.5 299 291.2 287.9 283.5 289.6 291.7 292 290.8 290.3 288.1 288.1 285.8 285.3 283.9 282.9 287.2 291.4 291.3 291.3 296.5 303.7 310 322.2 333.4 346.7 360.4 367 373.3 380.1 385.9 387.9 392.6 392.1 386.6 385.5 388.5 399.6 407.9 420.7 427.2 426.8 436 443.3 450.2 446.5 441.2 445.1 452.2 450.8 448.2 446.9 445.4 437 439 430.1 419.7 400.4 386 356.6 337.2 327.7 315.1 304.8 302.9 301.7 295.7 290.1 286.7 285.9 285.4 290.1 296.4 292.7 290 289.5 289 290 293 298.4 305.8 317.9 331.9 353.2 369.2 390.6 415.8 439.2 455.4 480.6 501 521.5 536 544.2 551 554.1 552.1 556.1 557.5 555.4 557.4 555.2 550.9 545 534 524 508.8 497.2 487.5 482 474.6
296.5 297.2 301.6 306.7 306.8 299.4 298.6 294.7 289.6 286.5 287.4 282.6 273.1 275.4 266.3 258.2 252.1 242.6 230.6 223.2 202.3 179.8 218.4 234.2 244.2 256.5 267.6 280.2 281.2 283 293.8 312.1 330.7 319.8 314.2 322 336.9 363.4 378.4 401.8 415.9 422.7 434.1 435.5 432.3 436 454.8 478.4 493.4 495.8 497.9 508.4 502.9 492.9 489.4 484.6 477.6 464.8 458.4 451.1 443.8 440.8 430.1 430.9 431.1 429.8 426.6 419.1 407.7 408.2 408.3 415.3 417.5 414.5 420.2 421.7 415.3 405.6 394.1 381.8 377.6 365.7 357.3 349.3 343.2 334.7 331.3 321.7 315.2 308.9 302.2 294.7 290.2 289.1 291.7 295.5 298 295.7 294.9 296.2 292.3 292.1 289.4 290.6 290.4 293.1 295.5 293.9 294.6 298.3 301.7 311.6 322.7 335.2 350 364.2 371 376.5 384.4 387.9 382.9 384.9 380.9 382 388 396.4 403.4 413.5 427 430.3 431.3 445.3 451 453.7 447.5 450.4 458.8 467 474.3 472 469.7 469.2 464.6 459.6 449.6 434.8 420.7 422.5 402.7 388.3 364.5 342.7 330.9 316.8 308.5 305.3 297.9 294.5 293.4 294.6 299.3 305.3 304.5 298.8 292.3 291.1 292.9 292.3 297.4 304.8 316 329 344.7 365.4 388.3 411.4 436.3 444.3 459.1 481.6 498.7 512.2 520.3 527.4 531 533.2 534 533.3 533.2 533.6 531 526.2 521.8 514 504.9 493.2 483.6 479.7 478.1 466.8
306 310.2 307.1 305.7 309.4 305.9 306.2 297.4 292.1 294.1 292.4 285 280 278.8 271.2 265.2 258.8 250.7 240.8 228.8 204 191.9 209.7 235.9 242.3 252.3 258.2 269.1 276.8 282.1 286.9 290.7 303 307.9 314.2 320.8 333.5 353.4 375 394.5 416.9 428.2 443.1 459.5 459.8 460.2 462.8 487 506.4 508.7 530.9 527.9 524.6 529.9 516.2 496.5 486.2 483 471.2 464.3 462.6 459 450.7 446.3 450.4 444.8 441.5 435.4 425.2 422.7 423.1 427.8 426.4 427.4 427.4 422.9 417.2 410.3 401.4 395.1 384.4 375.1 364.2 356.2 346.2 338.8 329.8 322 313.9 306.9 301.4 301.1 294.1 290.9 292.9 296.3 299.4 301.9 303.7 301.8 300 296.9 296.5 295.5 297.3 302.7 304 304.6 305.1 308.9 314 318.8 328.5 339.3 354.6 371.8 382.2 391 391.8 385.9 382.4 381 381.1 386.4 391.4 397.3 408 420.7 429.7 429.3 443.6 448.5 448.4 447.8 458.1 465.6 474.4 484.5 500.8 493.3 485.7 481.7 474.1 465.2 451.2 449.7 447.2 443.6 426.2 409.3 390.7 371 355.6 344.7 324.1 315.5 309.9 305 304.7 302.6 309.3 317 322 310 297.9 296.8 297.7 297.8 294.4 304.5 312.2 323.7 339.8 357.8 380.6 409.8 427 433 450.5 473.4 489.3 498.4 508.3 516.5 519.4 518.9 518 519.9 518.8 516.6 514.2 510.5 506.6 498.4 488.7 481.1 477.3 473.9 470.6 461.3
309.4 311.7 311.8 317.3 311.2 313.7 308.3 299.8 297.8 298.2 294.6 288.3 288.7 285.3 275.8 270.8 265.1 256.6 248.5 241.6 214.3 215 206.4 241.1 248.6 257.3 264.8 274.8 281.6 283.4 282.9 286.8 298.4 309.1 314.6 320.8 331.7 350.8 371.7 397.2 414.8 433.9 453.1 471.3 476.8 483.7 492.1 494.5 505.1 534.7 540.1 549.2 541.6 532.5 523.1 515.4 506.1 497.6 493.5 485.4 483.2 474.8 469.8 459.4 458.9 455 447.4 441.6 441.8 438.2 441.8 442.3 442.6 442.5 440.3 433 423.9 413.2 408.9 400.4 389.3 382.4 370.3 358.7 349.9 341.3 330.1 322 319.3 307.9 303.6 303 297.7 296.7 298.7 303.8 304.1 305.9 307.4 307.2 304.7 304.2 304.9 303.4 298.8 311.9 317.3 314.9 319.1 322.2 327.7 329.4 333.6 338.8 354 371.9 382.3 389.9 386.8 383.8 381.9 382.2 387.8 390.2 390.2 397.9 403.5 414.6 417 428.8 443.7 448.3 440.6 448.4 462 477.4 486.1 505.1 512.5 507.7 500.4 495.9 483.2 479.4 476.5 470.8 460.9 452.1 432.6 415.8 401.3 386.5 369.2 355.2 349.4 337.8 321.1 316 314.4 314.4 317.6 320.8 321.4 313.6 305.8 300.7 301.4 301.9 303.1 302.7 313.7 324.8 338.6 351.1 371.6 400.9 417.5 429.8 445.5 460.7 480.5 491.9 500.5 506.6 509.4 508.2 507.5 507.2 505.7 504.3 499.8 497.9 493.8 490.4 483 473.7 471.5 467.6 466.3 459.6
319.1 317.3 314.7 315.5 314.3 311.2 305.9 305.5 301.3 302 301.9 300.6 295.8 287.2 282.9 277 268.8 261.5 255.9 247.1 233.1 228.8 217.3 236 247.6 255.7 263.7 273 277.1 278.8 281 290.3 305.7 317.3 325.9 328.4 341.5 356.3 384.3 405.7 420.4 440.7 463.7 467.4 491.1 503.7 498.2 503.4 516.2 531.1 544.6 555.1 547.6 540.7 538 537.6 528.7 522.9 510.1 498.7 490 483.1 473.9 469.4 470.3 469 463.1 461.2 457.8 460.1 463.5 459.4 457 453.1 448.5 441.3 431.3 421.5 415 402.1 393.9 386.2 374.4 362.6 352.5 341.5 332.7 322.4 315.9 312.1 307.8 306 299.6 303.2 304.9 314.2 317.5 314.5 318.1 315 315.7 316.8 311.7 311.3 307.2 316.8 321.5 325.5 329.4 332.7 337.6 340 340.5 349 359 367.4 381.8 380 378.6 375.9 380.1 386.2 391.4 392.9 390.6 391.9 399.8 410.6 419.9 428.7 439.1 435.8 442.9 452.7 472.3 483.1 493.9 513.8 512.5 506.2 507 504.8 500.9 497.4 497.6 482 470.2 460.6 447.4 432.2 413.4 400.4 387.7 381.1 364.7 354.5 339.9 327.7 327.2 321.3 318.7 319.1 318.9 318.9 309.2 306.3 305.2 304.7 305.2 301.4 314.3 327.6 338.8 348.5 365.4 387.4 404.6 419 433.9 455.5 475.4 485.4 492.5 501.5 503.5 499.8 497.8 496.1 494 492.7 489.6 488.5 485 478.7 476.6 471.6 467.8 464.6 462 456.3
320 318.5 321.2 317.8 315.4 314.8 313.9 309.8 308.9 306.2 306.3 303.7 296.8 290.6 287.4 283.7 277.9 271.3 264.1 256.9 247.1 213.8 241.2 246.2 253 263.2 272 278.1 286 286.3 288.8 296.8 310.8 321.6 330.8 338.7 348.3 364.2 386.3 411.1 431.7 449.1 464.3 482.7 504.7 518.4 519.3 516.1 520.6 537.8 556.6 570.6 571 568.6 557.5 544.8 537.9 531.2 521.2 507.5 498.9 494.1 486.4 478.9 474.6 471.9 471.3 472.7 470.7 474.9 477.7 475.6 471.8 472 463.4 451.9 441.4 430.4 414.8 408.1 397.1 390 381.5 366.9 354 343 333.5 326.2 319 315 309.4 305.6 309.7 308.3 316.8 318.6 325.9 326.9 328.6 324.1 321.2 322.9 317.8 311.8 322.7 328.8 329.7 334.5 336.2 340.3 344.8 350 348.7 351.1 360.6 366.5 371.1 373.3 371.1 372.1 379 381.6 391 391.2 391.5 393 400.1 409.2 413.7 423.5 424.5 430.3 440.3 458.6 477.6 494.4 503.9 515.9 508.9 505.6 508.3 513.9 513.3 508.7 505.4 499.9 487.2 479 462 447.5 424.2 411.7 406.4 392.2 382.8 367.1 350.4 339.2 337.1 334 328.4 325.9 321.4 317.6 311.4 313.2 310.6 308.6 308.4 308.8 312.6 320.6 337.7 343.2 361 382 391.9 413 429.6 456.5 465.2 474.9 486.4 498.9 497.8 492 490.2 487.6 485.7 485.9 483.5 481.8 478.2 473.5 471 466.5 462.9 460.5 455 448.7
