ncols 200
nrows 86
xllcorner 180000
yllcorner 770300
cellsize 50
469.3 454.8 440.4 421.6 408.8 400.7 386.1 373.9 372.8 387 400.1 410 413.6 421.9 435.7 443.6 456.8 467 473.2 479.7 492.6 503.3 508.1 512.4 514.8 512.9 505 498.8 465.1 431.2 406.1 370.2 335.4 305 289.5 260.8 209 168.4 131.1 97 68.7 47.2 31 19.1 11.9 9.5 10.9 10.7 9.6 11.1 12 12.4 13.8 28.7 34.1 50.7 67.9 80.5 88.1 104.3 111.2 110 94.5 89.8 78.6 55.6 49.1 22.2 2.5 2.5 2.5 2.5 2.5 2.5 2.5 2.5 2.5 2.5 2.5 2.5 2.5 2.5 2.5 2.5 2.5 2.5 2.5 4.7 15.2 30.2 51.8 79.6 109 132.4 155.5 185.4 220.3 245 275.1 300.8 339.2 377.4 405.9 415.8 433.6 456.6 482.3 509 537 549.7 571.3 584.9 594.7 602.9 635.1 660.8 679.1 691 696.1 712.1 715.4 719.4 728.2 736.4 737 731.3 724.8 710.2 697.5 682 666.8 648.5 644.3 634.3 624.3 605.6 585.7 587.7 591.3 582.9 580.8 564.9 550.6 542 541.7 543.2 541.2 539.6 539.1 532.2 525.2 519.6 507.6 502.8 489.5 488.3 485.4 478.6 476.8 483.8 476 470.4 464.4 460.2 455.7 451.5 430.7 412 398.7 390.6 386.8 382.7 384 385.9 384 385.5 382 383.6 377.2 374.9 370.4 360.1 361.9 353.9 349.6 350.5 347.8 356.6 366 370.6 364.7 367 363.4 366.5 361.6 365.1 375.7 390.8 397.1 408.5
459.4 441.7 430.2 413.1 401.1 387.9 377.7 369.9 368.6 381.4 399.5 408.2 418.5 433.4 440.5 446.2 458.8 471 478.1 482.4 497.1 507.8 511 516.5 520 518.9 513.3 500.4 481 453.4 428.4 401.5 356 329.4 299.1 255.1 213.9 169 133.8 99.6 67.2 45.9 29.4 21.5 15.9 9.3 9.4 9.9 10 10.4 10.9 11.8 13.6 16.6 23 47.2 69.4 72.1 84.3 97.2 104.6 86 74.4 63.9 55 34.8 21.5 2.5 2.5 2.5 2.5 2.5 2.5 2.5 2.5 2.5 2.5 2.5 2.5 2.5 2.5 2.5 2.5 2.5 2.5 2.5 2.5 10.7 25.3 37.9 62.8 92.7 123.9 144.5 173.8 204.2 239 265.6 297.7 326.7 361.8 392.9 412.7 429.6 448.3 470.6 500.3 522.7 547.3 561.1 578.4 596.7 600.2 615.5 630.2 655.4 669.1 680.6 686.5 696.4 707.2 714.7 724 731.4 729.1 714.3 696.6 685.5 673.4 657.3 644.3 626.5 625.4 614.7 607.6 577.9 562 558.8 558.9 558.7 549 535.3 525.6 515.2 512.6 515.5 514.3 517.6 515.2 508.3 499.1 489.8 481 475.7 468.6 460.1 459.8 451.3 449.6 456.3 453.4 440.9 435.8 431.5 428.1 417.7 404.7 394.1 382.3 376.1 373.8 370.2 364 364.6 364.9 368 363.6 357.9 356.1 356.3 349.8 345.1 345.5 340.3 339.1 335.9 332.4 341 344.2 352.2 349.9 350.8 346.5 349.9 353.9 371.3 386.1 398.5 412 425
448.2 435.7 418.7 400.9 390.7 377.3 366.7 363.2 365.6 385.8 401 415.4 426.3 441.1 451.2 454.9 461.6 471.4 483.7 487.7 502.8 507.5 509.3 514.4 519.3 520.3 510.1 503.7 487.7 466.9 440 411.5 374 338.6 306.6 260.2 211.2 169.6 130.7 96.4 66.5 45.6 28.3 18.2 10.8 8.2 8.7 9.3 9.9 10.5 11.2 11.4 11.2 11.8 17.1 40.3 64.8 70.3 75.5 85.9 76 63.7 55.3 42.1 23.5 16.2 7.3 2.5 2.5 2.5 2.5 2.5 2.5 2.5 2.5 2.5 2.5 2.5 2.5 2.5 2.5 2.5 2.5 2.5 2.5 2.5 2.5 21.7 38.8 52.9 72.4 105.3 132.8 158.6 198.3 238.4 263.8 299.9 323.3 358.3 385.1 414 427.8 442.8 461.8 487.5 513 539.4 559.1 574.9 588 599.5 598 618 634.6 643.3 659.2 676.1 681.3 688.8 701.1 709.4 708.8 712.6 701.5 693.4 679.3 655.8 639 625.1 617 600.6 603.4 589.8 576.4 557.9 534.5 523.7 525.4 521.3 520.3 510.4 507.2 493.5 483.4 486.2 493.1 496.8 496 488.7 471.5 465.4 453.6 448.3 446 440.5 442.8 433.7 433.7 434.8 434 420.3 407.2 408.6 400.9 395.4 383.6 375.2 370.8 366.7 364.2 362.9 356 344.8 348.8 346.1 344.9 340.4 340.2 338.5 331.3 331 327.1 326.4 327.4 321.4 315.6 320.2 324.1 331.2 329.2 331.3 328.5 326 356.8 374.2 392.3 400.7 399.6 422.1
429.2 421.8 408.9 395.9 380.5 372 359.8 358.7 373.2 382.3 403 425.3 436 446.6 452.8 459 466 473.2 483.5 485.3 506.5 510.7 507.2 510.6 515.1 508.8 507.5 500.5 488.3 471.4 440.1 404.9 369.5 338.8 303.5 264.8 209.5 168.2 127.6 94.5 65.1 43.5 26.5 16.5 9.4 8.5 9.6 9.5 9.5 9.4 10.4 11.2 10.4 10.8 13.4 41.5 64.4 62.3 67.9 77.2 59.1 39.9 31.9 20.1 5.7 2.5 2.5 2.5 2.5 2.5 2.5 2.5 2.5 2.5 2.5 2.5 2.5 2.5 2.5 2.5 2.5 2.5 2.5 2.5 2.5 2.5 13.2 35.1 53.2 69 91.4 114.6 140.6 172.8 217.6 256.6 291 322.4 350.7 374.7 401.1 427.5 447.9 466.2 483 502.5 529 553.7 573.6 583.4 596.6 593 596.5 610.8 625.1 636.5 648.8 662.1 670.8 675.1 690.3 693 699 683.9 683.1 673.4 652.8 622.5 602.6 591.1 580.8 578.2 563.2 568.2 552.8 533.3 519.6 502.9 496.5 501.6 497 491.8 487.6 476.6 461.1 467.8 473.7 465 478.1 469.3 446.4 440 432.6 430.7 431.4 424 422.9 420.7 415.2 413.1 406.4 401.6 396.7 384.2 377.5 374.3 369.9 368.1 360.2 357.9 354 345.2 339.1 332.8 326.8 325.8 326.3 321.4 322.3 319 317.6 316.1 307.5 310.3 311.4 308.6 301.7 303.8 303.6 305 306.5 302.4 308.3 332.6 342.2 355.5 378.9 378.6 387.7 401.7
412.3 407.2 391.2 386.6 375.1 365.5 353.6 357 358.9 381.4 399.1 427.9 442.9 452.3 458.1 461.1 470.2 476 483.7 485.8 507.4 507.1 501.9 503.3 504.6 500.9 499.2 493.9 484 470.8 428.4 395.9 359.5 328.1 299.1 259.9 211.1 158.7 123.1 84.1 58.8 38.3 26.4 17.4 10 8.4 8.6 8.5 8.3 8.8 10 10.9 10.2 10.2 14.5 33.6 51.6 49.4 60.9 59.5 44.8 26.1 10.9 2.5 2.5 2.5 2.5 2.5 2.5 2.5 2.5 2.5 2.5 2.5 2.5 2.5 2.5 2.5 2.5 2.5 2.5 2.5 2.5 2.5 2.5 17.7 31.6 50.2 71.5 85.4 105.7 133.8 159.1 192.2 229 273.4 310.5 345.5 375.2 394.4 422.2 441 464.7 485.1 502.7 521.8 547.8 570 582.9 591.6 591.7 578.4 592.1 602.2 618.1 627.8 639.7 655.3 666.3 671.3 675.8 680.4 682 666.6 662.1 639.4 619.8 593.6 574.4 561.1 543.9 539 528.7 536.2 530.3 527 507.7 483.7 479.9 479.8 478.2 481.7 471.9 463 440.5 448.7 453.7 449.1 444 451.3 435.5 426.5 423.9 419 412 407.6 404.9 403.4 391.8 390 386.1 385.8 377.8 372.9 356.9 356.5 353.8 352 344.9 340.6 329.5 325.6 318.5 316.6 311.2 308.5 309.5 307.4 306.9 302.5 301.9 299.6 296.9 293.8 295.6 293.8 288.1 294.8 295.4 288.6 289.1 295.1 308.4 322.3 331.7 337.9 349 356.1 364.1 374.3
398.8 392.8 378.4 371.7 371 361.1 348.7 350.9 356.4 379.1 402 429.4 444.6 453.8 456.7 463.1 471.3 478.3 481.4 481.8 498.9 501.3 497.7 501.2 496.1 497.3 491.6 489 476.8 454.3 418.5 381.9 343 306.9 276.5 241.1 197.4 150.2 114.3 79.9 53.2 35.1 25.2 18.3 9.3 8 8.3 7.3 6.7 8 9.3 9.7 9.4 9.8 20 34.7 31.6 36.7 54.1 46.6 26.7 12.1 2.5 2.5 2.5 2.5 2.5 2.5 2.5 2.5 2.5 2.5 2.5 2.5 2.5 2.5 2.5 2.5 2.5 2.5 2.5 2.5 2.5 2.5 13.3 34.2 51 69.1 90.2 108.8 121.1 149.8 179.4 210.5 246.8 288.1 335.6 365 391.7 415.8 443.2 463.5 487.1 497.1 516.9 534.4 561.3 579.4 582.2 584.9 566.4 570.7 586.5 598.7 609.3 622.7 634.6 642.2 649.9 662.9 670.1 670.4 666.5 647.4 638.5 615.2 585.4 565.5 547.9 537.2 520.2 511.3 502.3 501.5 500.7 501.6 489.2 466.5 459.4 459.8 459.6 457.2 457 448.2 429.7 425.4 441.9 432.6 423.3 425.2 421.9 407.6 410.1 409.5 404 395.7 395.3 388.5 375 376 373.6 371.2 367.3 360 349.7 341.8 338.5 335 333 324.9 321.2 310.8 307.1 306.3 299.3 295.5 293 294.8 294.7 290.8 290.1 286.9 284.5 282.5 280.6 279.9 274.8 281.9 281.7 279.9 277.4 283.5 294.6 305.5 311.6 317.5 329.3 330.6 336.7 348
382.3 378.5 364.8 362.9 361.4 353.8 345.5 353.7 357.3 377.5 397.4 424.1 438.7 448.8 455.1 463.3 473.5 479.6 485.6 486.2 487 489.1 490 488.4 490.7 489.4 485.1 476.7 463.6 432.8 401.2 369.3 329.7 297 260.2 220.8 176.4 141 104.9 72.6 48.1 33.3 25.9 17.1 10.4 7.6 7.2 6.8 6.3 6.6 8.5 9.4 8.6 8.8 12.1 24.5 15.6 28.7 38.9 25.2 7.7 2.5 2.5 2.5 2.5 2.5 2.5 2.5 2.5 2.5 2.5 2.5 2.5 2.5 2.5 2.5 2.5 2.5 2.5 2.5 2.5 2.5 2.5 2.9 24.6 47.2 67.7 88.8 112.9 137 154.6 172.5 190.4 229.5 268.9 317.9 353 382.2 410.9 434.4 457.8 479.8 499.4 512.3 526.7 554.2 572.1 582.6 575.8 565.4 544.2 558.4 575.5 589.9 603.2 616.6 625.5 633.2 641 651.3 666.7 660.6 649.7 626.9 610.8 590 567.5 542.4 530.4 520.2 509.1 496.9 483.8 480.6 478.4 477.3 470.4 453 444 446.1 446.6 439.4 439 437.2 422.8 407.2 403.6 411.1 406.4 402.4 399.1 397 392.4 395.7 389 385.5 377.2 373 361.7 354.7 355.9 353.4 347.2 343.8 335.1 324.9 323.2 319.6 316.9 312.6 307 298 296.7 296 291.2 285.9 284.4 283.4 281.3 279.9 278.1 276.2 273.7 271.2 275.1 268.4 265.9 269.5 270.9 264.7 263.3 272 279 285.5 292.9 297.6 305.6 306.7 319.1 326.2
366.9 358.7 352.6 354.1 352.4 342.5 347.2 355.7 357.8 376.2 400.6 423.6 438.7 449.5 457.8 462.4 471.8 482.8 488.1 492.4 489.1 485 489.5 486.7 489.3 482.8 474.8 464.5 435.5 415.8 379.5 345.9 311.7 282.5 247.9 211.2 169.3 128.1 94 62.4 42.5 31.2 26 20.7 11.2 7 6.2 6.8 6.3 5.7 7.5 9.4 8.4 8.2 9.8 11.2 12.8 27.1 21.2 10.3 2.5 2.5 2.5 2.5 2.5 2.5 2.5 2.5 2.5 2.5 2.5 2.5 2.5 2.5 2.5 2.5 2.5 2.5 2.5 2.5 2.5 2.5 2.5 19 31.7 61.3 92.8 112.9 136.6 167 180.4 196.2 216.2 240.3 287.1 323.6 362.2 392.2 421.5 443.5 471.2 490.1 503.5 520.6 541.7 565.3 578.7 578.1 558.8 539.9 526.3 536 562.5 576.9 584.4 599.9 611.4 618.2 628.3 640.4 652.9 658.4 639.1 616.3 600.9 568.8 546.9 526.6 511.6 496.1 481.3 473.1 470.1 465.1 470.7 465.8 458.1 445 434.1 435.1 434.7 426 420.4 418.7 405.5 394.3 393.4 397.9 391.5 383.9 381.2 381.3 375.7 372.2 369.9 366.4 357.5 353.1 346.7 340.7 338.5 336.5 332.6 328.3 322.5 313.2 311.3 309.9 307.3 303.5 298.5 288 287.8 286 281.9 278.4 277 273.6 270.4 270.6 268.7 268.1 263.7 262.9 263.6 259 256.7 255.7 256.9 256.2 260.1 262.5 266.6 271.4 276.6 280.3 286 291.7 297.8 310.3
352.2 348.5 344 347.4 341.3 337.6 350.8 353.4 369.6 388 416.9 435.4 448.6 453.1 458.6 463.5 473.8 481.9 491.3 493.9 487.3 482.8 487.2 483.8 476.8 470.9 458.5 441.6 415.8 390.5 355.3 319.4 289.2 265.4 231.2 198 156.4 116.5 80.5 54.4 36.1 29.1 25.3 20.1 14.6 6.3 6.6 6.5 6.3 5.8 6.9 9 8.3 7.9 8.2 9.2 9.8 28.5 4.7 2.5 2.5 2.5 2.5 2.5 2.5 2.5 2.5 2.5 2.5 2.5 2.5 2.5 2.5 2.5 2.5 2.5 2.5 2.5 2.5 2.5 2.5 2.5 12.7 24.8 46.8 79.7 111.1 135.8 154.7 181.3 196.9 222.3 245.1 274.8 296.9 333.5 369.3 400.4 437.9 457.6 473.4 493.3 514.7 527.1 545 564.3 566.7 550.7 535.8 512.5 506.5 517.3 540.6 549.7 563.9 585.8 592.5 606.3 617.1 630.6 644.9 654.7 633.8 616.2 600.7 572.9 545.1 521.7 501 483.5 472.3 464.9 462.1 459.4 462.2 469.8 454.4 436.9 424.5 420.1 418 411.8 404.2 402.3 396.3 383.9 383 376.8 373.8 370.9 367.6 366.9 363 350.1 356 351 344.1 345.6 334.9 329.5 327.5 326.1 317 311.6 314 310 302.4 302.1 298.3 294.6 289.6 281.1 279.2 277.4 274.9 272.5 268.7 268 264.1 260.9 258.8 257.8 258 257.1 256.7 251.8 250.7 250.7 251 252 254.9 257.3 258.6 259.8 262.7 265.8 271.3 277.6 283.2 284.2
344.9 342.8 339.1 342.1 329.8 334.9 345.4 365.7 379.7 403.3 419.4 448.3 456.2 461.1 462.6 466 470.7 483.9 489.9 487.3 478.2 483.9 480.1 472.4 461.3 446.1 437.7 416.3 395.1 356.4 323.4 291.1 266.5 242.1 214.2 181.1 137.4 101.2 69.3 45.1 27.6 23.8 23.3 21.2 10.6 5.7 6.6 6 5.5 4.9 2.7 2.5 5.8 7.2 5.9 6.3 2.5 2.5 2.5 2.5 2.5 2.5 2.5 2.5 2.5 2.5 2.5 2.5 2.5 2.5 2.5 2.5 2.5 2.5 2.5 2.5 2.5 2.5 2.5 2.5 2.5 2.5 15.6 39 60.8 92.1 121.9 148.9 173.6 197.8 216.9 245.7 269.6 296.2 323.1 341.5 371.1 402.9 437.2 455.3 478.8 492.1 516.1 530.6 543.2 550.5 538.1 521.1 504.8 489.8 486.8 493.9 513.6 528.5 543.3 557.1 569.7 580.9 594.6 609.3 625.9 639.8 618 619 603 571.4 542.7 522 498.9 482.7 470.1 461.9 456.2 453.2 449.9 464 448.7 437.2 420.7 414.3 407.9 403 395.6 393.1 386.1 375 371.8 368.7 363.3 354.6 352.6 351.7 346.3 343 341.8 340.7 333.5 332.9 325.2 318.7 319 316.6 310 304.9 302.8 302 295.9 293.4 291.3 287.3 281.6 276.8 271.6 268.3 266.6 264.7 261.8 259.7 258.1 256.9 256.5 254.7 253.2 251.7 250 248.8 248.4 247.7 246.2 249.3 252.5 250.5 251.1 251.7 254.6 256.2 258.8 263.8 267 268.4
341.3 338.8 338.1 338.6 325.4 329.7 340.9 363.8 394.6 421.7 434.1 444.3 462.3 467.8 467.2 471.7 474.1 479 485.1 476.8 469.6 469.6 466.3 458.3 438.2 430.4 409.1 392 361.4 328.1 297.1 264 237.2 212.8 193.1 156.3 119.3 87.2 57.7 35.5 18.5 17.3 21.6 17.8 8.8 6.3 6.7 5.9 6 4.8 3.8 4.8 2.5 2.5 2.5 2.5 2.5 2.5 2.5 2.5 2.5 2.5 2.5 2.5 2.5 2.5 2.5 2.5 2.5 2.5 2.5 2.5 2.5 2.5 2.5 2.5 2.5 2.5 2.5 2.5 2.5 15.8 21.4 55 81.7 110.4 134.3 164.3 189.7 213.3 235.4 260.4 285.8 312.1 342.1 363.7 384.8 406.9 435.9 453.7 479.4 497.5 513.9 522.3 535 527.7 510 484.5 472.4 467.9 464.7 475.7 483.7 500.6 517.2 527.9 542 558.1 570.8 586.5 606.9 613.7 607.3 613.8 604.2 578.3 551.3 523.3 504.8 479.9 473.2 471.4 456.5 449.6 442 445.4 446 429.3 416.5 410.9 405.9 401.8 397.8 388.6 380.9 368.4 367.1 361.4 356.8 348.4 342.7 341.6 334.7 330.5 327.9 328.1 324 320.2 314.9 312.3 311.4 308.9 303.6 300.5 297.6 294.8 290.8 287 284.5 283.9 276.1 270.9 267.7 264.5 261.7 259.5 260.3 256.4 255.2 254.2 253 251.5 250.7 251.4 250.8 248.6 248.2 247.7 246 246.8 247.4 247.1 246.2 246.6 247.2 247.4 248.9 252.1 254.6 254.6
335.6 337.8 336.4 331.1 323.1 327.5 339.1 363.7 394.1 424.4 437.2 459.5 466.6 467.9 469.4 473.8 481.1 478.5 477.3 477.4 468.4 461.3 459 440 425.2 406.6 383.5 359.8 330.5 301.1 268.1 234.1 210 186.7 172 134.3 96.5 67.2 46 27.3 13.2 15.4 23.9 15.4 6.7 4.9 6.5 6.2 5.5 4.9 4.5 2.5 2.5 2.5 2.5 2.5 2.5 2.5 2.5 2.5 2.5 2.5 2.5 2.5 2.5 2.5 2.5 2.5 2.5 2.5 2.5 2.5 2.5 2.5 2.5 2.5 2.5 2.5 2.5 2.5 11.7 21.2 36.6 67.4 101.3 131 162 194.3 224.2 243 261.3 293.3 318.9 339.7 364.8 384.8 398.7 418.9 431 450.3 470.9 489.3 493.7 507.4 512.7 498.4 480.8 460 445.7 449 450.3 459.7 475.8 483 486.4 504.9 517.8 537.7 551.7 563.4 578.6 588.8 594.7 601.9 600.9 587.3 556.3 535.4 510.3 492.4 496.1 489.9 474.3 453.1 445.4 433.1 433.2 423.9 415.5 411.4 412.5 405.7 398.8 394.7 385.1 370 360.3 357.8 350.8 343.4 338.3 334.1 328.5 325.7 322.6 321.9 318.6 312.1 308.3 304.2 301.5 299.4 296.3 293.7 291.1 285.5 284.4 282.1 278.8 275.9 271.7 267.1 266.2 263.7 260.3 259.3 257 255 254.1 252.5 252.3 252.8 252.8 252.9 251.9 251.8 251.4 249.6 245.5 244.7 244 245.6 243.4 241.7 242.4 243.5 243.8 243.6 242.8 242.7
340.7 337.3 339.4 329.9 321.9 321.3 333.1 353.3 385.7 412.7 434.8 452.3 462.1 460.8 465 464.5 468 466.9 468.3 473.7 465.7 449.2 435.2 417.8 403.1 386.6 355.8 326.5 300.3 277 248.7 215.4 186.8 163.3 137.2 109.5 78.7 52.9 36.7 16.3 12.9 16.7 15.1 15.1 5.4 3.8 4.5 4.1 3 2.5 2.5 2.5 2.5 2.5 2.5 2.5 2.5 2.5 2.5 2.5 2.5 2.5 2.5 2.5 2.5 2.5 2.5 2.5 2.5 2.5 2.5 2.5 2.5 2.5 2.5 2.5 2.5 2.5 2.5 9.4 16.9 27.4 45.7 75.4 117.5 151.1 183 213.3 240.2 269.8 288.2 321.6 337.9 356.3 368.7 389.3 400.2 412.3 427.1 432.6 443.1 456.4 472.7 481.5 487.8 468.8 450.2 415.7 421 427.4 430.3 437.8 463.2 468.5 473 485.6 503.1 515.5 536.2 545.1 560.2 572.3 577.4 586.9 595 589.9 557.1 538.5 517.3 508.3 518.6 510.1 491.3 473.8 465 444.8 429 424.3 415.7 413.8 414 406.6 401.6 394.7 385.9 367.9 357.3 351.8 346.8 341.3 336.8 332.7 324.7 321.4 310.3 312.2 312.6 308.6 302.4 298.7 294.7 293 289.9 289.5 286.7 283.1 281.4 280.6 276 272.7 268 267.9 265.6 266.5 264 259.6 257.2 255.2 254.3 253.2 253.9 256.9 256.4 254.9 254.3 255.2 253.8 251.4 250 251.1 251.8 250.2 250 248.4 244.5 240.4 241.2 236.4 233.8 233
335.2 336.6 332.4 325.9 319.6 324.8 331 346.3 379.1 406.4 427.5 444.5 453.8 456.3 455.3 455.2 458.2 460.2 462.1 462.5 455 433.1 418.6 403.7 383.2 361.5 331.2 302.5 274.2 253.9 225.1 197 162.9 136.7 114.3 85.2 60.1 43 27.2 9.5 8.3 13.6 11.3 12.1 2.5 2.5 3.5 4.7 2.5 2.5 2.5 2.5 2.5 2.5 2.5 2.5 2.5 2.5 2.5 2.5 2.5 2.5 2.5 2.5 2.5 2.5 2.5 2.5 2.5 2.5 2.5 2.5 2.5 2.5 2.5 2.5 2.5 2.5 2.5 11.4 18.4 33.7 53.8 82.2 129.9 162.4 194.9 226.6 254.8 272.8 294.1 311.3 330.3 331.3 338.6 350.5 365.5 375.1 384.3 401.2 420.5 439.5 441.7 450 457.6 441.3 396.1 375.6 389.6 400.9 402.3 427 442.6 443.2 457.3 474 489.8 508.3 519.2 533.1 551.6 560.5 565.6 580.9 593.1 572.5 547.8 536.9 511.8 518.6 525 545 525.3 501.7 484.2 461.6 441.8 431.9 422.7 419.9 413.5 406.4 399.5 390.3 376.8 366 358.3 353.1 345.7 338.1 331.9 329.8 322.5 322.7 319.6 316.4 306.6 303.1 302.4 300.1 296.5 293.7 292.7 288.7 283.9 283.6 280.8 279.1 277.7 273.5 272.8 269.8 267.3 265.3 262.4 259.8 259.7 260.2 259.7 258.4 261 263 260.6 260.6 259.4 259.4 257.6 255.7 258.2 258.9 259.2 262.3 258.8 255.8 253.1 249.5 246.4 241 237.4 233.1
337.2 336.4 326.5 319.5 319.3 325.6 326.9 343.2 359.4 380.5 406.8 428.9 446.6 448.7 447.7 446 450.5 457.9 457.4 453.4 423.4 409.7 401.9 380 365.8 334 306.9 276.3 249.1 226.3 201.4 168.6 140.8 113.8 88.2 64.2 46.3 32.2 18.1 3.6 4.1 13.8 7.4 2.5 2.5 2.5 2.5 2.5 2.5 2.5 2.5 2.5 2.5 2.5 2.5 2.5 2.5 2.5 2.5 2.5 2.5 2.5 2.5 2.5 2.5 2.5 2.5 2.5 2.5 2.5 2.5 2.5 2.5 2.5 2.5 2.5 2.5 2.5 8.2 10.1 18.8 35.6 56.1 83.6 118 152.8 191.7 225.5 240.2 243 267.4 276.7 285.4 290 305.1 318.9 322.9 335 350.5 372.9 395 409.2 428.3 430.8 430.2 400.8 362.5 338.4 354.6 375.3 389.8 408.1 422 432.5 453.7 464.9 481.6 494.1 507.6 524.8 543.7 546.6 552.1 571.8 586.7 558.1 539.7 518.6 520.2 547.8 548.9 569.8 544.9 519.9 500.3 473.7 454.7 442 428.6 422.4 416.2 411 401.3 392.3 378.4 369.1 360.1 358.8 349.6 340.9 334.9 330.8 326.7 323.4 318.3 314.2 309.9 307.9 306.7 303.5 302.2 298.2 293.2 289.6 286 286.8 285.8 283.2 279.4 276.1 275.4 272.2 269.5 268.2 265.3 265.9 267 267.6 267.9 267.6 268.9 271 270.5 271.6 270.9 263.9 263.1 266.7 269.1 272 274.3 270.1 272.2 271.4 267.2 261.4 258.2 255.2 251.9 241.1
338 325.8 315 315.4 318.3 323 326.5 343.2 353.7 372 386 407.2 423.5 430.4 437.2 441.2 445.6 447.8 446.1 412.7 399.4 388.9 377 364.8 331.8 307.6 277.8 248.5 225.1 205.3 173.4 143.7 116.6 93 66 48.3 34.7 22.3 8.1 2.5 3.6 15.3 4.8 2.5 2.5 2.5 2.5 2.5 2.5 2.5 2.5 2.5 2.5 2.5 2.5 2.5 2.5 2.5 2.5 2.5 2.5 2.5 2.5 2.5 2.5 2.5 2.5 2.5 2.5 2.5 2.5 2.5 2.5 2.5 2.5 2.5 2.5 4.7 13.3 12.5 18.3 33.4 54.2 79.5 105.2 138.9 180.9 197.8 194.8 213.3 236.3 241.5 250.2 256.8 268.6 280.2 291.8 313.1 328.9 350.7 365.1 378.1 393 405.3 401.5 369.1 335.3 320.5 360.1 376 396.7 406.8 418.3 432.2 453.2 471.2 474.5 488.5 500.5 513.4 531.8 531 544.3 560.2 573.2 545.9 521 506.4 537.5 567.4 565.9 586.4 563.6 535.3 511.3 483.3 470.6 453 438 428.1 421.2 413.8 404.1 394.5 379.9 372.9 366.2 361.8 353.2 346.9 343.5 338 332.3 325.5 320.8 316.5 316.1 311.3 310.6 307.5 302.8 300 294.8 293.2 288.7 290.2 288.9 286.9 286.2 279.1 276 275.4 272.8 275 274.2 276.5 276.3 276.6 282.1 280.2 278.7 278 281.4 282.1 272.9 272.6 276.1 280.5 284.6 294.5 289 284.4 288.1 286.3 281.6 281.9 279.5 275.3 268.8 260.7
330.1 318.4 309.8 314.4 318.8 320 325 340.5 358.7 368.1 391 409 415.7 420.8 430 441.5 439.7 432.5 411.7 382.7 378.2 364.6 354.4 341 318.8 286.9 258.7 226.5 202.2 182.2 149.9 121.3 96.6 76.5 53 34 23.1 14.8 8.1 2.5 3.8 2.5 2.5 2.5 2.5 2.5 2.5 2.5 2.5 2.5 2.5 2.5 2.5 2.5 2.5 2.5 2.5 2.5 2.5 2.5 2.5 2.5 2.5 2.5 2.5 2.5 2.5 2.5 2.5 2.5 2.5 2.5 2.5 2.5 2.5 2.5 4.1 11.5 14.4 14 21.3 35 50.9 71.9 92.7 127.5 155.3 157.4 166.4 181.3 195.6 207.1 220.9 229.5 231.6 252.2 270.6 287.2 299.6 314 335.3 357.2 366.9 382.9 373.8 346.5 304 324.3 348.4 370.3 390.5 406 421.2 432.3 442.6 462.9 473.8 482 493.7 502 522.6 521.1 544 551.4 560.4 540.1 506.1 515.8 543.1 573.7 574.2 578.8 575.9 549.4 524.1 506.6 488.3 471.1 449.6 436.1 428.4 416.6 407.8 400.1 388.2 377.5 374.4 368 362.3 354.4 348.5 346.4 340.5 332.9 326.4 323.6 318.3 315.7 312.6 310.7 306 301.8 298.3 294 291.8 293.3 293.3 293.2 286.2 282.9 284.5 283.4 283.6 286.1 284.9 285.4 290 291.3 295.3 293 287.4 285 287.4 284 283.6 289.1 294.2 297 305.4 310.8 299.2 304.5 305.4 306 306.4 305.4 300.7 296.8 289.4 273.6
313.1 308.6 310.3 314.6 316.4 318.6 320.7 336.6 356.9 373.2 395.2 406.4 413.6 411.9 420.5 416.1 410.9 398 378.9 362.1 343.1 337.5 335.7 309.5 293.4 265.6 235.3 207.6 181.3 156 127.8 102.9 79.7 58.2 42.1 27.4 15.4 8.6 8.3 2.5 2.5 2.5 2.5 2.5 2.5 2.5 2.5 2.5 2.5 2.5 2.5 2.5 2.5 2.5 2.5 2.5 2.5 2.5 2.5 2.5 2.5 2.5 2.5 2.5 2.5 2.5 2.5 2.5 2.5 2.5 2.5 2.5 2.5 2.5 2.5 2.5 7.7 14 14.4 16.8 23.2 33.5 53.2 67.4 75 95.1 109.2 125.6 135.3 147.6 158.5 172.5 183.3 191.5 207.8 236.6 255.1 267.2 277.6 291.3 311.9 320.4 332.2 348.2 347.3 310.3 281 318.1 337.5 359.3 382.8 394.9 412.9 421.4 440.4 458.8 466.7 472.1 484.5 494.7 507.6 513.3 530 534.3 529.9 534.3 503.2 513.4 533.1 565.1 568.2 579.1 583.1 565.4 546.1 531.8 510.6 485.8 465.7 446.1 433.1 423.4 415.7 407.9 395.9 385.6 378.6 375.1 370.2 362.8 361.8 353.6 347.6 343.2 337.3 328.1 325 321.5 318.3 315 313.8 309.7 305.2 301 301.7 301 297 291.6 294 295.1 295.2 294.7 296.6 296.9 297.9 300.5 305.8 304.1 304.9 301.5 300.8 301.8 296.4 297.6 304 304.7 312 316.8 325.9 324.1 320.3 322.3 328.6 330.4 331.3 329.7 320.6 312.5 308 287.9
307.3 308.5 312.5 319.3 319.1 322.5 326.7 339.1 349.8 368.9 384.8 401.9 407.6 411 405.4 401.5 397.1 377.3 352.7 336.4 330.5 319.4 300.6 292.5 257.7 237.2 221.9 189.5 163.4 130.7 109.8 88.5 64.7 44.6 29.2 22 11.9 2.5 2.5 2.5 2.5 2.5 2.5 2.5 2.5 2.5 2.5 2.5 2.5 2.5 2.5 2.5 2.5 2.5 2.5 2.5 2.5 2.5 2.5 2.5 2.5 2.5 2.5 2.5 2.5 2.5 2.5 2.5 2.5 2.5 2.5 2.5 2.5 2.5 2.5 2.5 7.2 12.1 13.9 17.1 22.4 34.4 53.4 59 68.6 76 90.5 104.3 110.9 120.8 130.2 138.9 149 163 182.2 214.9 226.7 249.5 252.6 263.1 270.8 282.6 298.8 311.3 318.8 282.5 282.2 316.6 331.7 346.8 370.8 384.7 396.7 408.4 426.9 443.9 458.7 466.6 471.9 487 495.2 500.5 509.1 512.3 514.3 525.7 495.5 508.3 515.1 553.6 567.4 587.5 591.5 589.8 573.4 555.1 530.9 507.2 484.6 463.6 449.7 435.7 426.6 415.9 407.8 393.5 390.3 384.6 378.1 374.4 372.7 365.8 358 348.9 340 336.4 331.7 326 324.7 321.2 318.9 315.8 312.6 312.6 309.4 303.6 302 301.9 303.8 304.5 306.2 308 311.4 312 314.9 316.8 319.6 316.4 316.8 318.7 324.6 310.9 313 321.5 319.4 327.1 332.2 337.1 344.9 339.4 343.6 349.6 357.7 364.9 367.2 366.9 366.1 333 318.2 288.4
314.3 311.7 315.7 323.4 326.4 329.2 339.8 346.8 357.8 368.1 386.2 400.5 400.3 401.5 386.7 386.1 378.1 348.3 324.4 308.5 304.3 289.8 277.1 262.6 235 220.5 203.3 170.9 142.9 115.4 94 67.1 47.2 33.9 18.4 11.7 4 2.5 2.5 2.5 2.5 2.5 2.5 2.5 2.5 2.5 2.5 2.5 2.5 2.5 2.5 2.5 2.5 2.5 2.5 2.5 2.5 2.5 2.5 2.5 2.5 2.5 2.5 2.5 2.5 2.5 2.5 2.5 2.5 2.5 2.5 2.5 2.5 2.5 2.5 5.5 8.2 13.7 14.5 17.3 22.5 32.6 44.9 52.4 61.1 66.9 72.9 84.7 90.5 95.9 102.7 113.5 123.5 141.8 157.1 184.8 197.5 207 217.4 223.2 238.8 250.7 263.1 279.2 299.2 256.9 277.6 303.1 319.5 333.4 357.6 372.5 376 389.9 410.2 432 446.1 457.9 464.3 471.6 472.7 480.9 492.4 498.3 507.1 511.8 487.6 501.1 509.5 533.2 565.1 598.8 599.1 599.6 605.5 591.2 562.6 528.2 501.9 486.7 466.1 455 452.1 434.8 421.6 412.6 404.3 404.3 398.9 392.2 385.5 374.9 363.3 355.4 349.9 343.3 336.7 337 332.2 330.2 327.3 325.7 322.3 315.6 317 314.8 312 314.6 317.2 318.2 320.7 325.4 326.5 330.8 330.3 329.9 331.2 330.9 332.4 335 336.2 316.6 332.9 333.8 337.9 346.4 354.4 357.9 358.3 368.7 373.1 377.5 393.7 409.7 413 402.7 381.2 339.7 311.8 290.1
311.7 318 323.2 328.9 337 340.3 346.2 352.6 361.6 374.6 385.2 394.6 392.7 381.3 362.7 355.7 344.4 342.9 318.7 301.9 284.6 271.5 257.4 236.5 221.5 204 180.8 148.6 116.8 98.6 73 53.5 35.3 26.4 10.7 5.2 2.5 2.5 2.5 2.5 2.5 2.5 2.5 2.5 2.5 2.5 2.5 2.5 2.5 2.5 2.5 2.5 2.5 2.5 2.5 2.5 2.5 2.5 2.5 2.5 2.5 2.5 2.5 2.5 2.5 2.5 2.5 2.5 2.5 2.5 2.5 2.5 2.5 2.5 2.5 9.4 7.2 12.7 14 17.8 22.8 30.7 38.7 45.9 52.2 57.6 63.8 70.7 77.2 79.8 86.6 97.2 109.6 119.4 133.2 151.8 167.6 175.5 182.6 192.9 203.6 217.8 234.3 254.8 262 239.8 265.8 287.1 304.9 322.1 342.7 359.4 367.7 378.6 399 426.9 439.1 450.8 460.6 466.3 464 474.2 486.8 492.3 503.3 502.4 488 491.5 505 535.3 564.9 593.6 599.1 605.6 610.5 595 567.7 533.5 514.1 493.5 483.5 474.5 465.3 458.7 456 434.6 414 426.2 418.4 407.9 395.1 388.9 374 366.2 357.6 352.3 347.8 347 342 340.2 337 329.5 327.5 328.3 327 325.9 322.9 329.8 332.1 338.7 342.4 345 345.2 345.2 343.6 343.1 344 344.6 344.2 345.4 327.4 339.3 346 350.2 359.9 366.4 372.2 373.8 385.1 403.1 403.1 416.1 433.6 441.3 440.8 405 362.8 331.9 313.9 293.4
305.4 312.1 324.7 330 345.6 348.4 352.6 360 365 372.7 375.1 380.6 373.8 352.9 334.5 330.8 328.3 317.9 298.4 290.1 279.2 262 240.4 205.1 193.6 177.4 148.1 121.3 101.5 75.7 55.9 38.1 21 12.2 2.5 2.5 2.5 2.5 2.5 2.5 2.5 2.5 2.5 2.5 2.5 2.5 2.5 2.5 2.5 2.5 2.5 2.5 2.5 2.5 2.5 2.5 2.5 2.5 2.5 2.5 2.5 2.5 2.5 2.5 2.5 2.5 2.5 2.5 2.5 2.5 2.5 2.5 2.5 2.5 8.2 12.2 15.5 12.5 14.3 14.6 17.8 27.1 34.6 41.1 46.5 50.6 56.2 60.8 64.9 69.7 76.2 83 93.8 103.4 113.5 127 139.5 150 158.7 170.7 179.9 192.3 207.4 225.5 232 233.5 246.7 258.2 285.8 303.7 317.3 338 350.9 361.8 399.7 415.7 430.8 443.3 451.7 455.6 458.5 458.8 468.1 475.4 483.9 494.5 473.4 479.7 500.6 554.3 579.9 586.7 592.6 609 618.5 607.4 577.3 546.5 526.9 514.3 503.8 496.4 492.7 493.8 475.4 450.7 432.8 442.6 435 423.8 414.5 405.1 392.6 386.5 368.2 365.7 360.4 357.8 353.7 347.2 342.9 339.7 338.3 337.4 338.4 340.1 341.5 344.4 350.6 357.9 361.9 364.3 362.7 362.1 365.7 369 359.9 360.4 358.8 344.4 348.8 354.6 363.8 368.8 382.4 385 391.1 399.9 413.9 423.6 430.8 456.4 468.5 466.4 436.3 399.9 365.3 337.8 319.2 308.8
295.3 309 317.6 331.7 345.1 352.2 348.4 353.3 354.5 352.3 361.2 363.1 336.8 318 316.3 306.5 294.9 291.1 283.2 274.9 260.6 239.3 231.8 210.3 176 152 124.1 104.1 81.5 54.5 42.1 25.4 11.8 2.5 2.5 2.5 2.5 2.5 2.5 2.5 2.5 2.5 2.5 2.5 2.5 2.5 2.5 2.5 2.5 2.5 2.5 2.5 2.5 2.5 2.5 2.5 2.5 2.5 2.5 2.5 2.5 2.5 2.5 2.5 2.5 2.5 2.5 2.5 2.5 2.5 2.5 2.5 2.5 2.5 9.2 15 18.5 19.5 20.2 20 26.3 27 29.2 34.3 38.4 43.9 50.9 55.4 59.2 62.6 65.4 72.6 84.1 92.1 102.6 111.3 119.1 131.5 140.9 152.1 162.3 172.6 187.4 202.8 207.1 219 228.7 242.2 260.6 284.6 297.3 310.6 330.7 344.6 377.9 402.5 421.1 433.9 438.4 436.9 442.7 444.5 455.5 467.5 473.6 481.7 454.4 461.7 487.7 527.6 572.9 591.7 599.2 610.1 616.5 611.6 585.9 572.9 547.5 545.7 531.6 532.6 520.7 501.3 484.1 460.9 452.5 464.1 450.9 442.8 434.2 429.6 414.9 397.5 385 380.5 372.7 368.4 364.2 359.6 356.1 354.9 350.7 351.4 352.7 357.7 356.6 360 367 372.1 379.4 383.7 383.3 389.3 401.1 402.3 378.5 381.4 363.3 361.1 363.6 370.2 378.2 385.4 398.6 407.8 414.5 425.4 442.9 449.3 474.1 488.8 491.6 482.3 446.1 415.3 380.6 348.9 336.8 333.4
290.4 290.8 308.4 329.9 338.8 341.5 338.2 334.3 334.3 337.3 340.1 312.5 301.2 305.5 292 281.8 269.8 263 265.8 243 230.7 224.4 215.1 192.8 163.5 130 101.2 82.7 59.5 40.4 23.1 10 2.5 2.5 2.5 2.5 2.5 2.5 2.5 2.5 2.5 2.5 2.5 2.5 2.5 2.5 2.5 2.5 2.5 2.5 2.5 2.5 2.5 2.5 2.5 2.5 2.5 2.5 2.5 2.5 2.5 2.5 2.5 2.5 2.5 2.5 2.5 2.5 2.5 2.5 2.5 2.5 2.5 10.1 14.7 19.4 24.5 25.6 25.7 26.2 30.4 33.3 33.8 38.5 42.2 46 49.6 52.4 54.4 60 66.3 70.8 75.8 85.6 99.2 108 116.7 125.1 131.9 142.4 151.7 161 174.3 186.9 192.1 206.7 216.9 228.6 242.1 258.8 277.4 292.9 308.4 326.7 355.8 381.4 402.7 421.2 425.4 419.9 421.2 421.8 426.4 452.4 455.5 462.9 445.7 449.4 466.1 504.1 560.6 589.1 605.9 616.4 627.3 625.3 612.9 589.9 578.1 569.8 554.4 544.9 526.8 508.5 490.2 481.5 472.4 485.5 471.8 469.7 458.4 442 423.4 399.5 404.6 394.1 387.2 380.4 378.5 374.1 375.8 372.2 368.5 369 370.1 370.1 373 373.3 380.1 392.1 401.9 412 417 422.6 435.1 429.4 400.6 384 382.8 380 384.7 391.9 398 409.8 420.9 435.8 446.9 457.9 466 472.8 484.7 501.8 507.3 500.9 459.6 423 388.9 371.7 367.1 361.5
280.9 279.9 289.9 294.4 297.6 308.4 313.7 311.6 314.2 317.2 291.5 285.1 290.7 280.3 273 254.1 235.3 229.4 221.5 211.8 207.2 204.4 198.2 167 139 113.6 86 50.5 36.6 18 10.6 2.5 2.5 2.5 2.5 2.5 2.5 2.5 2.5 2.5 2.5 2.5 2.5 2.5 2.5 2.5 2.5 2.5 2.5 2.5 2.5 2.5 2.5 2.5 2.5 2.5 2.5 2.5 2.5 2.5 2.5 2.5 2.5 2.5 2.5 2.5 2.5 2.5 2.5 2.5 2.5 10.1 12.5 20.5 26.7 27 33.9 35.9 32.9 41.1 49.3 54 47.5 50.2 54.4 56.4 59.6 61.2 65.2 69.5 74.4 81.2 84.7 84.3 90.2 102.2 113.2 120.5 127.9 136 144.8 153.2 163.3 173.7 186.3 198 206.8 219.5 232.3 248 265.8 282.1 295.7 312.7 337.7 360.5 383.4 405.2 409 408.8 406.7 406.5 405.9 413.4 425.8 431.3 432.3 443.4 461.2 502.1 545.4 592.7 612.2 624.9 633.4 640.5 627.3 602.8 590.8 585.5 572.6 558.1 544.5 520.5 505.4 502.7 497.7 503.1 493.3 489.3 476.3 456.6 436.8 404.7 419.7 408.6 400.9 398.2 396.1 394.6 394.4 393.8 391.1 391.9 390.4 392.7 388.5 392.7 398.8 408.5 426.5 436.5 444.9 449.4 444 422.9 397.1 408.5 406.9 404.5 414.1 418.4 422.3 435.4 454.6 473 482.2 495 515 521.3 523 523.8 520.3 493.8 464.3 440 421.5 408.1 391.5 390.2
277.8 274 274.1 277.4 279.3 278.5 296.4 291.4 287 270.2 268.7 261.4 253.3 248.9 240.3 224.3 212.7 209.9 198.6 180.7 187.6 191.5 166.3 139.6 122.8 96.6 61.3 32.5 15.3 7.4 2.5 2.5 2.5 2.5 2.5 2.5 2.5 2.5 2.5 2.5 2.5 2.5 2.5 2.5 2.5 2.5 2.5 2.5 2.5 2.5 2.5 2.5 2.5 2.5 2.5 2.5 2.5 2.5 2.5 2.5 2.5 2.5 2.5 2.5 2.5 2.5 2.5 2.5 2.5 10.6 16.8 21.5 26.6 36.9 43.3 46.3 48.1 50.7 50.4 59.7 67.4 75.2 71.9 71.5 82.3 81.5 80.3 83.4 89.8 86.7 88.2 89.9 93.4 97.3 97.8 100.3 103.8 109.8 122.1 130 137.1 147.7 158.5 168.2 183.5 196.9 207.9 221.6 233.3 245.8 262.6 278 291.3 304.9 323.6 354.1 370.8 390.7 400.9 398.8 398.2 393.6 386.6 400.3 415.1 426.3 437.6 451.7 461.3 498.1 542.5 588.2 605.2 619.9 630.9 642.4 650.2 624.7 619.5 611.7 593.5 570.7 555.4 539.7 523.3 526.4 520.9 527.4 519.9 503 484.7 449.5 436.9 437.3 433.3 427.7 421.3 423.8 421.6 421.5 420.3 417.1 413.4 407.5 415.5 414.6 412.6 416.1 420.2 430.7 450.4 462.5 474.7 462.8 434 423.3 431 433.4 430.4 429.7 436.3 444.2 452 465 499.5 508 520.8 549.5 558.1 555.6 561.2 559.5 544.1 520.1 488.6 462.5 450.1 432.3 417.6 408.4
262.5 264.7 257.9 270.7 267 258.8 262.9 254 245.8 249.1 232.9 228.1 222.6 210.8 209.6 199.5 195.3 181.7 172.7 168.1 168.8 159.3 141 124.6 93.4 54.5 29 7.5 2.5 2.5 2.5 2.5 2.5 2.5 2.5 2.5 2.5 2.5 2.5 2.5 2.5 2.5 2.5 2.5 2.5 2.5 2.5 2.5 2.5 2.5 2.5 2.5 2.5 2.5 2.5 2.5 2.5 2.5 2.5 2.5 2.5 2.5 2.5 2.5 2.5 2.5 2.5 10.7 20.2 29.8 38 41.3 52.4 66.9 61.2 66.6 69.3 66.9 69.8 78.2 98.3 105.6 102.7 104.4 113.5 113.7 109.8 108.2 112.5 111.8 109.1 108.7 108.3 112.7 112.3 114 117.2 121.2 126 133.3 137.2 147.2 160.2 172.2 184.5 197.3 209.2 220.3 233.8 249 264.4 277.6 292.7 302 322.6 347.1 369.1 382.4 385.7 388.8 374.9 387.9 400.3 412.4 420.8 430.1 438.7 457.6 468.1 496 544 588.3 607 631 644.5 653.3 656 651.4 638 623.2 606.9 594.3 577.3 563.3 549.6 544.4 538.3 531 520.5 500.5 484.9 474.9 462.9 455.5 456.1 450.7 445.1 445.5 453.6 459.6 449.7 439.1 429.4 432.7 439.2 441.5 439.4 444.7 447.3 463.9 477.4 485.3 476.5 463.1 452.9 451.4 454.4 456.9 457.6 458.2 469.5 464.9 477.4 495.9 531.1 549.5 568.8 582.4 590.5 589.9 585.5 576 564.8 550.1 515.9 488.1 472.9 457.5 439.8 425
245 241.4 233 243.7 236.5 233.7 234.4 231.1 223.7 213.8 200.9 190.8 177.1 171.1 173 180.1 181.9 176.4 171.9 145.6 143.3 132.4 113 85.9 48 22.9 2.5 2.5 2.5 2.5 2.5 2.5 2.5 2.5 2.5 2.5 2.5 2.5 2.5 2.5 2.5 2.5 2.5 2.5 2.5 2.5 2.5 2.5 2.5 2.5 2.5 2.5 2.5 2.5 2.5 2.5 2.5 2.5 2.5 2.5 2.5 2.5 2.5 2.5 2.5 11.7 21.7 30.1 36.4 51.6 60.1 66.7 73.7 86.4 83.9 91.5 88.7 83 90.2 103.5 118.2 136.9 138.5 145.4 153.4 156.7 148.3 138.2 144.4 144 136 135.8 132.3 133.5 139.5 139.8 134 136.9 145.1 145 149.8 157.3 156.3 173.5 188 202.6 211.8 221.7 236.1 253.9 265.7 281.1 296.5 305.5 321.8 344.3 368.8 380.4 376.2 362.6 390.4 396.2 409.5 424.8 431.8 432.9 439.5 458.5 480.9 502 552.8 587.7 609.4 633.2 650.3 660.3 668.1 664.4 662.2 641.9 628.8 614.9 596.1 573.5 566.6 557.3 548.8 538.7 527.2 517.8 507.3 490.1 474.9 479.7 480.5 478.2 471.2 469.6 477.4 480.7 467.2 465.1 462 466.8 468.9 483.6 484.4 481.6 478.9 492.6 497.8 494.9 485.6 480.9 484.7 484.9 481.9 491.8 487.9 493.5 497.9 493.1 498.8 522.2 561.2 587.5 606.5 612.8 613.4 610.3 598.4 589.6 581.5 556.5 531.1 505.4 495.1 475.3 465 450.4
212.6 212.5 209.1 211.7 208 214.4 222.7 214.2 196.7 184.3 177.8 170.6 162.9 165.5 174.3 183.3 188.9 172.8 155.4 134 92.2 79.1 59.1 39.2 13.6 2.5 2.5 2.5 2.5 2.5 2.5 2.5 2.5 2.5 2.5 2.5 2.5 2.5 2.5 2.5 2.5 2.5 2.5 2.5 2.5 2.5 2.5 2.5 2.5 2.5 2.5 2.5 2.5 2.5 2.5 2.5 2.5 2.5 2.5 2.5 2.5 2.5 2.5 13.1 24.7 35.3 45.7 48.7 57.3 68.9 77.2 85.3 95.7 99.7 104 113.9 108.3 101.4 106.2 131.2 135.1 154.4 164.1 178.3 194.6 202.1 197.6 184.7 186.6 182.1 170.3 165.6 166.6 162.4 162 162.7 160.8 163.3 163.1 165.3 167.6 171.4 170 169 185 202.1 213.8 222.8 235 250.1 267.7 283.2 298.9 305.8 319.6 342.5 350.2 357.9 349.4 369.8 390.6 419 426.9 428.4 434 434.1 439.9 466.1 514.2 533.3 547.1 584.2 608.6 634.1 650.8 662.1 674.2 674.3 671.9 658.9 656.1 636.7 617.7 595 585.6 574.9 563.8 550.4 543.4 537.5 525.5 500.7 502.7 500.9 509 512.5 496.2 499.7 507.4 493.7 494.5 499.6 501.1 498.2 505.8 516.5 511.7 504.5 502.6 507.5 508.8 510.7 497.2 511.3 528.4 529.1 522.4 528.6 528.9 528.3 526.7 510.9 539.2 553.3 595.7 621.1 632.4 636.3 628.4 620.3 611.1 595 585.2 564.6 533.9 510.8 498.5 482.4 459.9 445.9
186.5 186.4 176.5 177.8 179.3 180.5 186.8 180.4 181.6 169.4 159.7 155.4 156.2 147.7 166.9 178.9 173.6 139.6 95.4 75.8 70.9 39 21.1 2.5 2.5 2.5 2.5 2.5 2.5 2.5 2.5 2.5 2.5 2.5 2.5 2.5 2.5 2.5 2.5 2.5 2.5 2.5 2.5 2.5 2.5 2.5 2.5 2.5 2.5 2.5 2.5 2.5 2.5 2.5 2.5 2.5 2.5 2.5 2.5 2.5 4.9 11.7 21.5 34.1 47.3 56.4 70.6 68.1 78.5 90.8 98.1 104.9 112.4 116.2 122.5 137.2 125.1 120.3 116.7 137.6 153.5 160.8 178.5 192.8 215.5 229.9 238.3 230 234.7 217.7 212.5 197.5 203.4 197.9 191.1 184.2 186.7 198.6 192.1 193 190 189.2 196.2 189.2 188.4 199.4 212.1 223.4 234.2 248.4 268 287.3 301.8 306.8 318.9 337.7 341.5 344 353.4 366.1 391.6 421 429.2 430.8 429.2 434.5 441 467.9 518.5 551 566.1 588.9 611.3 641.4 660.7 675.9 685.9 679.5 679 683.4 678.9 667.9 648.4 623.2 609.4 600.5 579.9 577.4 564.3 556.4 539.1 529.7 523.8 527.3 535.9 530.2 525 530.4 532.2 521.4 527.8 537.1 536.3 539.2 544.7 543.3 532.2 521 520.4 523.1 543.1 512.1 529 547.4 561.4 564.3 554.6 564.8 567.5 564.4 537.8 545.1 571.8 583.6 624.6 648.9 656.5 651.5 642.5 630.5 618.7 601.8 573.9 557 529.6 516.8 500.5 472.6 452.6 433.9
152.4 148.6 157.5 157.7 151 151.4 149.8 146.2 146.2 149.8 138.6 147.1 145.5 141.3 121.8 105.5 109 76.9 68.2 40.7 24.6 11.8 2.5 2.5 2.5 2.5 2.5 2.5 2.5 2.5 2.5 2.5 2.5 2.5 2.5 2.5 2.5 2.5 2.5 2.5 2.5 2.5 2.5 2.5 2.5 2.5 2.5 2.5 2.5 2.5 2.5 2.5 2.5 3.3 8.1 9.2 8 8.7 9.4 12.1 21.2 31.1 40.3 50.9 60 71 82.1 86.6 102.1 111.2 118.5 129 130.8 141.3 151 156.4 150.2 142.7 132.2 150.1 164.4 171.8 187.4 201.5 218.2 242.6 252.4 262.6 270.5 268 253.7 233.1 233.2 229.3 227.2 225.1 219 222.5 217.8 217 220.8 214.9 216.8 210.8 209.5 209.1 214.8 216.4 231.8 246.9 265 283.8 307 311.6 318.6 331.7 333.3 338.2 349 361.7 382.9 400.9 411.5 419.8 436.3 447.1 452.8 474.6 516.6 553.4 578 591.5 627 661 679.8 688.3 676.4 661.9 652.3 666.2 667.9 668.2 660.6 645.8 632.1 623.7 616.2 601.6 587.1 573.4 565.8 561.3 551.4 555.1 556.3 558.7 546.2 552.4 558.3 554.6 561.2 568.6 568 566.4 559.7 549.3 536.9 545.2 551.2 561.2 539 553 566 578.5 596.1 601.6 600.9 604.3 591 570.6 578.3 564.7 600 617.8 651.8 676.8 677.7 667.8 659.1 635.4 604.5 583.7 562.7 538.9 522.9 510.3 493.2 461.7 446.9 429.4
133.7 130.9 137.5 132.1 127.6 130.3 125.5 119.5 126.3 132.9 123.7 118.2 120.8 107 91.4 69.4 46.8 32.2 20.9 8.3 2.5 2.5 2.5 2.5 2.5 2.5 2.5 2.5 2.5 2.5 2.5 2.5 2.5 2.5 2.5 2.5 2.5 2.5 2.5 2.5 2.5 2.5 2.5 2.5 2.5 2.5 2.5 2.5 2.5 2.5 3.7 7 10.7 10.7 12.4 11 12.6 11 16.3 23.7 33.7 45.4 57.8 67.4 73.1 81.4 91.6 100.5 119.6 137.4 143.6 154 158 171.6 182.6 182.4 173.7 164 159.2 158.8 181.8 190.2 204.2 221.3 229.7 253.5 263.7 278.1 289.8 302.9 293.5 275.1 261.1 263.7 257.2 261.5 260.6 254.1 247 247.7 247.2 241.7 234.3 230.2 222.6 224.2 232.2 240.9 237.7 241.6 259.9 279.3 295.2 303.6 313.6 324 322.1 335.3 347.2 361.2 375.4 392.6 407 424.3 444.5 464 471 480.9 514.7 543.8 575 599.4 621.8 657.4 678 687.2 670.4 653.1 639.5 641.2 641.7 642.4 646.9 655.4 657.2 655.6 648.5 623.2 606.3 598 595 587.7 575.7 576.4 580.7 582.8 578.4 583.6 591.7 587.5 598.4 595.8 586.3 570.8 564.5 560 566.4 581.9 588.6 560.2 568.2 585.3 592.5 612.6 633.7 642.8 639.4 620.1 604 605.6 606.2 598.3 624.3 638.5 673.8 692 691.3 678.9 646.9 622.8 595.9 579.2 547.5 526.9 505.6 495.6 475.3 454.1 429.2 408.3
108 114.2 120.8 111.8 102.8 104.4 108.7 111.5 112.3 113.1 106.9 91 78.9 75.4 54.4 34.7 15.4 6.2 2.5 2.5 2.5 2.5 2.5 2.5 2.5 2.5 2.5 2.5 2.5 2.5 2.5 2.5 2.5 2.5 2.5 2.5 2.5 2.5 2.5 2.5 2.5 2.5 2.5 2.5 2.5 2.5 2.5 2.5 2.5 2.5 8.5 13.1 13.6 14.3 15.2 16.2 16.3 17.9 24 34 43.4 58.9 72.1 80.1 83.2 90.5 103.9 112.2 130.5 157.7 168.5 166.7 186.8 195.1 206.7 212.5 200.1 190.4 187.5 177.3 182.7 203.6 219.5 233.7 248.2 267.6 276.3 287 304.8 321.9 330.9 320.4 304 294.6 295.2 291.9 290 289.8 286.1 285.1 271 266 250.4 244.7 237.3 239.8 246.5 254.1 256.6 258.8 266.1 279.8 292.9 300.1 308.5 313.5 324.6 335.8 348.7 363.2 376.8 393 411.5 439 468.8 473.5 486.9 500.2 521.9 543.3 581.3 612.3 634.1 669.1 686.7 692.4 672.4 647.1 631 626.3 626.9 628.8 640.1 658.8 668.6 669.9 660.2 652.8 644.2 632.4 627.3 619 608.1 600.5 612.5 608.5 617.9 623 627.8 619.1 615.5 601.9 591.8 591.5 602.4 598.1 602.9 616.4 589.5 586.9 593.9 613.3 627.6 653.4 670 669.5 658.5 637.6 624.8 636 623.9 629.3 648 667.9 697.2 702.3 689.6 665 636.7 617.5 595.5 572.1 537.2 516.8 496.2 478.1 455.9 431.3 413.9 393.9
93.2 99.9 102.6 90.6 85 87.4 86.7 86.2 86.3 87.3 83.4 66.9 53 36.6 23.2 2.5 2.5 2.5 2.5 2.5 2.5 2.5 2.5 2.5 2.5 2.5 2.5 2.5 2.5 2.5 2.5 2.5 2.5 2.5 2.5 2.5 2.5 2.5 2.5 2.5 2.5 2.5 2.5 2.5 2.5 2.5 2.5 2.5 2.5 2.5 8.5 15.1 14.7 15.4 16.8 17.8 21.6 23.8 32.7 44.6 55.4 68.1 85.9 96.3 97.9 105.3 117 127.8 141.6 165.1 177.4 188 211.3 219.9 229.5 237.5 237.2 222.3 210.4 198.5 195.2 208.6 227.5 243.1 266.6 279.9 288.3 298.1 312.8 328.1 337.9 349.8 351.8 332.9 328.2 333.8 324.9 322.1 319 311.8 291.2 276.1 265.8 258.9 258.4 261.6 268.1 272.5 272.7 275.6 273.1 286 298.7 309.9 314.1 321 329.9 343.2 354.8 367.7 381 396 416.2 447.3 471.4 494.8 510.7 527 546.7 574.2 602.1 634.9 657.1 675.7 690.4 680 665.3 639.5 624.7 618.7 616.4 620.3 628.3 644.5 674 675.1 684.5 693.9 675.3 666.8 657.5 641.6 629.8 637.4 637 642.3 652.6 656.3 654.1 637.2 630.3 627.1 625.5 634.3 633.5 638.2 634 617.4 615.2 618.2 636.9 648.1 670.7 683 689.3 700.3 669.6 652.6 661.2 660.2 647.8 659.6 673.5 707.7 711.1 704.6 677.6 650.3 629.5 609.2 585.5 561.2 534.8 511.1 485 482.4 473.6 450.8 425.2 401.5
84.5 99.1 96.5 79.1 76.3 68.9 67.2 63.5 67.4 67.4 59.3 49.5 35.2 14.2 2.5 2.5 2.5 2.5 2.5 2.5 2.5 2.5 2.5 2.5 2.5 2.5 2.5 2.5 2.5 2.5 2.5 2.5 2.5 2.5 2.5 2.5 2.5 2.5 2.5 2.5 2.5 2.5 2.5 2.5 2.5 2.5 2.5 2.5 2.5 2.5 10.8 13.7 15.6 15 17.1 22.6 27.6 29 42.2 51.4 64.2 75.5 93.6 106.5 116.3 127.7 135.6 143.4 163.7 177.5 193.7 212.6 224.6 238.2 252.7 258.2 270.2 249.1 235.5 225.7 212.4 219.6 229.7 246 268.9 289.6 296.1 312.2 320.7 335.4 353.4 362.8 373.5 374 358.5 363.4 361.7 350.2 344.1 319.7 299.7 291.1 284.7 277 276.3 281.9 289.1 292 289.6 295 293 301.3 308.3 316.5 321.7 330.3 342 355.6 366.1 379 390.3 409.9 429.6 455.1 488.3 516.3 532 554.9 580.7 601.1 630 652.9 673.8 679 678.4 662.3 647.3 623.5 611.8 608.1 605.6 612.7 619.3 637.6 658.4 684.3 708 722.3 727.9 711.9 684.6 665 666.6 665.1 666.3 673.9 691.4 687.4 679 666.6 656.2 652.9 657.2 673.6 674.8 657.1 639.7 639.4 637.5 652.4 674.4 686 699.5 706.4 721.6 714.9 686.6 680.8 693.6 688.7 671.4 686.2 703.7 713.4 709.3 698.4 675.8 649.7 629.4 613.7 593.5 570.4 548 524.3 510.9 501.9 477.1 449.7 426 408.7
66.3 72.2 73 76.8 75.8 75.5 60.6 41 44.1 43.9 37.7 29.9 3.4 2.5 2.5 2.5 2.5 2.5 2.5 2.5 2.5 2.5 2.5 2.5 2.5 2.5 2.5 2.5 2.5 2.5 2.5 2.5 2.5 2.5 2.5 2.5 2.5 2.5 2.5 2.5 2.5 2.5 2.5 2.5 2.5 2.5 2.5 3 2.5 5.7 9.4 11.8 13.1 14.3 19 26.6 32.4 35.5 40.8 54 68.8 82.9 97.2 110.7 126 145.1 147.7 156 175.4 191.1 200.1 227.7 240.5 261.1 269.8 281.6 294.5 274.8 255.6 241.6 232.9 234.2 238.3 249.4 268.1 284.8 296.8 311.7 320.9 331.3 350.3 367.3 384.7 387.8 392.4 388.6 386.8 368.3 345.7 326.7 311 306.6 300.3 299 298.9 300.1 302.7 312.3 310.2 304.7 308.6 312.8 323.3 326.8 329.4 336.7 358 362.4 378 394.9 405 421.3 446.3 469.1 498.9 525.8 549.2 577.2 605.1 621.4 646.2 667.1 676.2 683.5 668.3 652.6 629.1 608.2 600.8 595.4 596.9 602.3 610.9 625.7 651 683.7 720.1 741 754.6 735.2 724 706.7 701.3 707.4 710.5 708 711.8 713.4 717.8 704.6 689.9 688 697.9 694.2 676.1 658.6 651.5 653.7 667.5 680 699.8 711.3 724 733.4 738.9 725.4 725.6 725.7 729.8 711.4 703.9 712 718.6 722.6 720.4 706.3 692.3 666.3 643.3 626.8 609 579.9 551.6 525.3 519.4 492.4 463.5 445.1 425.1 398.1
47.2 55.9 48.1 47.8 55.6 63 51.3 35.5 20.5 12.9 8.4 2.5 2.5 2.5 2.5 2.5 2.5 2.5 2.5 2.5 2.5 2.5 2.5 2.5 2.5 2.5 2.5 2.5 2.5 2.5 2.5 2.5 2.5 2.5 2.5 2.5 2.5 2.5 2.5 2.5 2.5 2.5 2.5 2.5 2.5 2.5 7.1 3.5 3.2 6.1 7.9 10.5 12.6 16.9 22.6 30.3 35.6 41.4 49.6 58.1 70.8 86.1 102.6 115.7 128.7 145.6 150.7 164.1 173.6 192.1 210 243.2 257.3 278.5 290.4 298.6 317 307.6 276 263.1 251.5 250 254.6 256.5 271.6 286.6 298.7 306.7 315.2 331.8 345.6 362.3 385.9 396.6 401.2 404.8 404.5 385.5 358.1 338.4 327.2 329.9 319.6 328.1 327.1 332.6 330.3 326.2 321.4 321 329.7 321.7 333.3 342.5 339.6 349.2 368.6 380.7 394.2 404.8 433.3 453.2 466.3 485.9 514.3 555.9 570.4 598.1 627.8 643.6 662.4 673.8 685.5 681.4 664.7 637.7 617.3 601.4 593.3 590.3 586.1 590.9 598.7 618.3 642.3 663.7 690 740.3 759 762 756.2 734.4 726.5 725.9 723.7 722 728.2 726.2 725.3 728.3 718.2 702.6 691.4 681.3 673.2 653.2 658.6 670.6 682.8 703.9 706.6 734.2 746.2 756.1 753.4 750.5 752.7 756.6 751 730.4 727.6 725.8 732.1 738.1 724 709.5 707.7 677.9 647.5 617.9 589.8 562.1 540.7 512.4 500.8 477.4 457.1 433.3 409.5 388
39.8 38.9 32.2 35.6 35.9 41.6 34.9 28.4 7.8 2.5 2.5 2.5 2.5 2.5 2.5 2.5 2.5 2.5 2.5 2.5 2.5 2.5 2.5 2.5 2.5 2.5 2.5 2.5 2.5 2.5 2.5 2.5 2.5 2.5 2.5 2.5 2.5 2.5 2.5 2.5 2.5 2.5 2.5 2.5 2.5 2.5 2.5 2.5 3.7 7.6 9 10.4 14.5 19.1 25 31.6 38.2 46.9 57.8 68.6 80.4 88.7 101.7 117.2 128.4 147.3 155 178.3 181 193.6 219.6 259.8 277.6 291.7 301.2 317.1 335.3 334.4 317.5 284.8 279.3 275.2 272.6 276.6 282.8 294.7 298.3 311.2 318 330.5 345.4 361 384.2 399.8 409.1 420.1 424.4 403.7 372.8 358.4 350 347.1 345.9 347.5 353 358.6 352.2 347.9 349.1 343.9 343.5 332.3 340.7 353.6 350.3 365.8 380.2 395.1 416.7 421.1 440.5 475.8 497.5 512.2 534.2 577.2 595.5 618.9 639.3 654.1 669.9 686.7 683.5 671.1 649.5 625.4 606.1 593.9 589 582.9 574.1 580.6 588.2 605.1 624.9 642.3 663 712.4 755.3 763.4 744.4 729.5 728.2 729.2 727.4 716.4 722.1 736.5 735.9 725.3 710.2 693.9 677.8 661.1 649.1 642.7 655.6 672.7 686.2 695.5 698 711.2 732.4 750 747.8 743.1 749.2 747 748.1 750.6 732.6 731 739.3 729.3 719.5 707.8 694.5 665.6 636.5 609.4 573.9 545.8 526.4 493.3 479.4 459.8 447.4 424.8 401 373
28.9 23.1 21.4 19.3 18.9 15.3 7.2 2.5 2.5 2.5 2.5 2.5 2.5 2.5 2.5 2.5 2.5 2.5 2.5 2.5 2.5 2.5 2.5 2.5 2.5 2.5 2.5 2.5 2.5 2.5 2.5 2.5 2.5 2.5 2.5 2.5 2.5 2.5 2.5 2.5 2.5 2.5 2.5 2.5 2.5 2.5 2.5 2.5 2.5 8.5 10.5 11.9 13 20.5 28.5 35.7 45.1 55.8 68.5 80.6 94.6 96.6 106.2 123.5 135 151.3 162.9 180.1 187.4 206.2 230.5 257.1 293 309 322.3 333.9 350.8 352.6 343.4 318.2 301.6 301 295.5 297 302.1 305.1 307 308.7 319.9 330.6 344 358.8 378.8 394.2 401 424 436 428.9 390.1 375 368.2 369.8 364.2 366.1 370.2 380.6 377.8 370.4 370.7 375.8 370.9 344.9 363.7 371.5 367.5 381.7 393.6 413.8 429.6 438.8 458.8 481.2 512.3 530.7 557.5 595.9 613.2 639.1 652.2 669.5 678.7 687.6 684.5 664.7 637.9 617.3 601.5 593.2 583.2 573.9 565.8 571.4 575.7 584.1 597.4 615.9 640.2 691.8 728.4 748.6 736.6 720.6 710.2 714.9 714.9 707.4 716.5 725.3 729.7 703 690.8 677.7 666.1 645.2 632.7 634.7 651.1 660.2 668.4 673.3 677.8 690.2 707.7 717.6 726 716.3 724.1 740.2 752.2 742.2 737.4 734 726.9 719.1 707 698.8 676.3 646.3 615.4 581.5 551.6 524.3 507.4 478.7 465.7 451.8 438.8 409.4 382.8 360.9
18.7 13.9 13.8 10.5 2.5 2.5 2.5 2.5 2.5 2.5 2.5 2.5 2.5 2.5 2.5 2.5 2.5 2.5 2.5 2.5 2.5 2.5 2.5 2.5 2.5 2.5 2.5 2.5 2.5 2.5 2.5 2.5 2.5 2.5 2.5 2.5 2.5 2.5 2.5 2.5 2.5 2.5 2.5 2.5 2.5 2.5 2.5 2.5 4.1 9.4 11.8 13.3 15.1 22.9 31.3 40.5 52.5 67.2 80.7 90.7 105.8 114.3 115.6 128 144 159.7 172.7 183.6 199 218.5 251 270.6 303.6 323.8 337.1 350.1 366 374.4 376.1 357.1 334.3 325.7 325 323.2 318.8 318.8 318.4 317.8 324.1 335.3 350.5 368 382.7 396.6 404.1 413.7 437.6 447.8 411.7 404.3 397.9 399.9 394.8 388 398.4 402.7 394.1 388.6 387.7 396.2 393.2 374 377.9 390.6 392.7 407.7 416.4 435.4 449.4 456.6 482 503.9 530.3 556.9 588 604.8 620.5 643.4 657.9 673.8 685.9 691 685.5 661.2 637 614.5 601.1 591.2 579.5 567.9 559.4 562 566.8 573 578.7 593.3 614.6 658.3 693.8 712.2 718.5 700.6 688.6 695.3 707.7 700 700.6 702.8 682.8 679.5 676.1 663.9 644.8 631.2 616.6 626.1 633.6 640.7 648 652.5 655.1 664.1 686 688.5 691 688 719.8 726.4 751.8 737.9 725.2 731.8 721.6 706.4 691.5 686.2 648.3 614.8 584.8 560.6 532.2 515.6 492.5 473.3 464.4 441.7 424.6 394.2 366.9 344.6
10.6 10.5 6.9 6.4 2.5 2.5 2.5 2.5 2.5 2.5 2.5 2.5 2.5 2.5 2.5 2.5 2.5 2.5 2.5 2.5 2.5 2.5 2.5 2.5 2.5 2.5 2.5 2.5 2.5 2.5 2.5 2.5 2.5 2.5 2.5 2.5 2.5 2.5 2.5 2.5 2.5 2.5 2.5 2.5 2.5 2.5 2.5 2.5 5 9.7 12.6 16.5 20.9 25.2 35.3 47.7 60.5 74.3 89.4 100.6 113.5 127.3 134.9 136.7 152.8 171.3 181.8 197.2 209.5 243.6 271.3 291.4 319.4 333.9 353.2 365.1 385.6 395.7 396.6 392 368.6 356.2 351.7 349.9 342.2 338.1 333.3 334.5 339.5 344.4 358 370.2 387.4 400 415.8 427.8 432.6 440.4 446 425.8 427.5 427.6 426.3 415.9 420.3 427.1 419.1 416.6 413.1 423.1 415.2 385.9 388 401.3 412 427.4 437.3 455.5 468.3 477.1 500.5 526.6 552.2 579.6 602.2 627.6 637 648 654.2 672.9 684.1 688.6 681.6 662.6 636.1 618.2 599.8 587.8 576.5 564.5 558.4 550.7 556.6 559.4 562.7 574.9 593.1 616.9 639 667.3 682.6 676.6 666.7 669.3 692.3 689.8 673.7 665.3 654.5 653 647.2 636.7 624 612.8 609.2 617.8 620.5 615.1 621.5 630 630.7 638.7 650.6 659.6 660.6 670.6 700.2 711.7 733.9 733.4 720.2 720 717.8 694 681.2 659.1 630.2 611.1 576.3 552.7 524.2 509.4 490.4 458.3 441.4 427 404.4 377.5 353.8 340.9
2.5 2.5 2.5 2.5 2.5 2.5 2.5 2.5 2.5 2.5 2.5 2.5 2.5 2.5 2.5 2.5 2.5 2.5 2.5 2.5 2.5 2.5 2.5 2.5 2.5 2.5 2.5 2.5 2.5 2.5 2.5 2.5 2.5 2.5 2.5 2.5 2.5 2.5 2.5 2.5 2.5 2.5 2.5 2.5 2.5 2.5 2.5 2.5 6.1 11.3 17.4 24.1 31.7 35.1 41.5 54.1 70.1 83.7 97.6 111.2 129.5 142.2 154.4 155.3 164 181.2 189.4 207 222.3 266.2 294 311.5 332.6 352.7 366.1 386 406.5 415.6 417 431 402.9 387.1 385.2 379.7 373.9 370.9 359.1 355.5 357.5 351.9 368.2 380.6 397.7 407.2 417.4 439.4 446.1 451 453.9 453.6 447.8 454.2 447.2 444.8 445.4 447.4 447.8 443.1 442.6 436.4 425.6 402.1 399.5 415.5 430.6 442.3 461.2 473.5 489.4 499.3 525.8 551.8 578.8 604.7 623.2 639.9 647.9 657.5 663.3 670 677.5 679.9 677.1 666.9 641.9 623 606.7 593.8 575.4 565.7 557.5 548.8 545.8 548.5 547.1 552.7 570.7 597.9 609.1 624.7 650.2 646 646.6 653.1 670.5 667.6 646.6 638 628.2 622.8 621 614.1 607 594.3 593.4 598.6 599 603.9 603.2 604.8 612.5 611.7 617.1 621.9 624.6 658.5 680.9 691.6 705.4 710.9 701.6 701.4 694.6 684.4 658 640.6 612.2 587.5 564.3 535.3 516.7 497 471.8 449.5 432.3 415 394.3 371.2 355.5 356.8
2.5 2.5 2.5 2.5 2.5 2.5 2.5 2.5 2.5 2.5 2.5 2.5 2.5 2.5 2.5 2.5 2.5 2.5 2.5 2.5 2.5 2.5 2.5 2.5 2.5 2.5 2.5 2.5 2.5 2.5 2.5 6.8 2.5 2.5 2.5 2.5 2.5 2.5 2.5 2.5 2.5 2.5 2.5 2.5 2.5 2.5 2.5 7.6 10 16.3 26.3 36.8 45.2 49.8 50.7 60.9 77.7 95.3 110.1 125.1 145.3 161.2 170.2 180.4 166.8 183.5 201.8 223.9 246.5 277.7 309.9 334.1 348.7 361.4 378.2 404.6 422.3 432.5 451.8 462.2 449.6 423.1 419.4 410.6 412.2 410.7 394.3 376.3 372 367.4 377.9 395.4 407.1 415.4 426.8 440.8 455.5 465.1 471.5 478.1 467.6 463.9 461.1 466.2 470.9 463.5 468.2 470.6 463.3 454.9 439 413.1 407.3 427 441.2 456.1 474.3 494.9 508 525.6 547.9 575.9 596 618.3 635.2 649.5 653.5 663.8 669.5 685.5 685.9 682.4 675.8 665.2 645.7 620.6 605.9 595.4 581.3 568 559.3 550.1 532.9 529.9 530.6 529.2 541.1 554.9 581.7 586.4 609.6 612.8 626.4 642.4 653.3 643.5 624.6 611.5 606.5 602.3 603 592.4 582.3 571.2 582.9 583.8 586.5 590.1 586.7 587.7 593.3 585.1 590.2 590.7 617.7 652.2 663.6 667.4 664.9 689.9 685 694.8 677.5 666.8 650.5 630.2 614.2 582.1 550.1 528 509.7 484 466.2 440.7 419 399.3 380.7 372 376.4 371.5
2.5 2.5 2.5 2.5 2.5 2.5 2.5 2.5 2.5 2.5 2.5 2.5 2.5 2.5 2.5 2.5 2.5 2.5 2.5 2.5 2.5 2.5 2.5 2.5 2.5 2.5 2.5 2.5 2.5 2.5 2.5 2.5 2.5 2.5 2.5 2.5 2.5 2.5 2.5 2.5 2.5 2.5 2.5 2.5 2.5 2.5 5.4 10.7 16.8 28.6 38.5 47 57.9 64.6 65.6 72.4 89.6 110.5 125.4 139.3 154.2 172.1 183.6 195.4 193 195 211.1 230.5 262.1 296.4 323.1 346.9 358.9 378.8 392.9 411.5 428.2 449.1 471.5 482.3 485.8 460 456.2 447.2 443.4 438.6 426 402.5 392 387 387.5 408 420.7 425.9 435.2 451.9 462.4 476.1 484.9 496.3 494.1 487.4 485.6 487 486 487.1 485.2 487 480.2 473.6 451.2 427.4 412.3 435.5 453.2 467.3 484.2 504.7 524.5 549.6 562.2 589.7 602.2 625.4 636.6 650.2 656.2 669.4 677.1 687.1 692.8 697.8 690.8 674.5 648.5 625.1 604.3 591.4 583 573.5 568.2 556.4 540.7 522.7 516.5 518 522.8 526.6 547 569.3 577 593.4 613.7 617 621.3 620.5 606.4 595.5 587.8 581.6 574.1 570 554.7 562.9 562.6 562.6 562.7 567.7 563.4 562.1 566.7 557.6 557.4 566.6 606.6 635.4 630.1 644 635.4 658.3 666.6 672.1 670.4 652.5 645.7 632.4 608.9 586.1 549.3 526.6 507.6 483 458.8 440.6 421.9 401.3 378.8 389.2 392.2 392.7
2.5 2.5 2.5 2.5 2.5 2.5 2.5 2.5 2.5 2.5 2.5 2.5 2.5 2.5 2.5 2.5 2.5 2.5 2.5 2.5 2.5 2.5 2.5 2.5 2.5 2.5 2.5 2.5 3 2.5 2.5 6.6 2.5 2.5 2.5 2.5 2.5 2.5 2.5 2.5 2.5 2.5 2.5 2.5 2.5 6.9 13.6 19.1 29.8 41.6 52 62.8 74.2 78.5 81.8 92.7 107.2 126.5 141.3 153.8 165.4 175.9 186.3 200.1 211 204.8 221.4 237.5 260 300.2 326.8 349.6 370.1 391.3 408.6 421 434.9 455.1 480.6 497.9 504.4 501.4 491.6 480.9 481.2 463.4 443.3 421.4 409.8 402.4 398.9 412.8 429.9 434.4 447.5 463.8 484.1 497.7 508.6 517.1 525.2 522.6 516.4 516.9 511.8 504 498.1 495.9 488.4 476.1 461.9 437.5 426.3 440.3 456.9 475.4 495.9 511.7 532.2 560.8 574 599.2 614.7 627.9 638.7 648.5 662.2 673.6 685.1 694.8 699.5 697.2 694.2 671.3 651.8 631.4 608.6 593.4 580.7 584.5 575.8 562.1 537.7 518.5 509.4 503.7 508.6 513.6 526.3 540.6 560.2 571.1 593.4 586 585.9 593 582.6 577.1 564.4 559.7 557.3 547.7 524.4 532.2 536.5 538 538.9 542.2 539 530.3 534.7 529.4 520.9 563.7 588.3 610.2 609.5 618.4 612.5 635.8 652 664.4 661.1 651.1 630.8 619.6 586.8 560.8 540.2 516.7 492.6 478.5 457.6 438.8 420.9 400.3 397 406.2 417.2 418.9
2.5 2.5 2.5 2.5 2.5 2.5 2.5 2.5 2.5 2.5 2.5 2.5 2.5 2.5 2.5 2.5 2.5 2.5 2.5 2.5 2.5 2.5 2.5 2.5 2.5 2.5 2.5 2.5 2.5 2.5 2.5 2.5 2.5 3.4 8.8 5.9 2.5 2.5 2.5 3.7 4.3 5.1 5.2 6.2 8.9 14.6 20.3 28.8 40.5 51.7 64 78.4 85.6 90.2 98.8 110.7 125.3 142.5 156.1 167 177.4 190.1 202.7 220 232.4 222.5 236.6 254.5 276.6 313.6 338.4 357.1 385.5 400.9 415.2 428.1 451.5 474.5 497.9 516.3 522.3 527.8 526.7 521 511.9 479.7 450.9 436.6 432.9 421.3 416.2 422.1 437.7 446 451.1 466.4 491.9 514.2 531.7 542 548.4 550.4 547.3 546.4 536.6 529.5 525 517.9 502.7 493.8 473 447 451.1 464.5 476.1 489.4 503.5 527.5 542 561.5 578.9 601.5 617.3 630.6 644.7 650.3 661.5 680.9 687.3 697.3 694.2 686.7 679.1 664.6 644.3 630.2 612.3 593.4 588.8 583.8 570.5 547.7 529.8 512.2 501.9 491.5 494.3 498.4 505.4 522.6 535 557.6 566 557.1 551.5 567.4 554.8 549.4 537.7 533.6 529 524.1 498.3 510.3 516.3 515.4 512.2 512.7 507.8 504.4 505.9 500.8 521.9 542.3 563.5 585.3 594.5 593.7 596.9 630.1 635.6 643.3 645 639.3 625.9 610.8 586.1 560.6 537.3 515.1 490.4 473.9 461.3 444.7 423.4 406.4 416.6 427.5 443.2 445.7
2.5 2.5 2.5 2.5 2.5 2.5 2.5 2.5 2.5 2.5 2.5 2.5 2.5 2.5 2.5 2.5 2.5 2.5 2.5 2.5 2.5 2.5 2.5 2.5 2.5 2.5 2.5 2.5 2.5 2.5 2.5 2.5 2.5 4.7 7.1 3.4 4.1 2.7 9.3 10.7 10.7 12.2 15.3 13.3 16.5 22 28.7 37.1 49.1 61.7 74.9 86.9 97 103.2 114.9 128.6 144.1 160.2 172.1 178.8 189.2 204.4 225.6 243.7 248.3 252.5 242.7 274 295.3 322.6 347 372.2 393.6 413.9 434.8 444.7 461.9 496.2 513.7 536.7 545.5 558.2 559.6 558.5 539.5 498.8 466.5 452.2 448.9 438 429.4 428.6 443.8 449.6 457.9 475.7 505.2 528.8 550.7 563.2 572.2 575.4 573 575.9 575.2 561 550.3 537 521.1 502 487.7 458.4 472.1 488.4 502.8 515.3 516.2 540 555.4 570.2 586.1 603.2 614.7 639.8 653.1 665.6 672.3 674.2 678.5 681.6 674.8 669.3 651.2 635.1 622 614.9 598.8 596 598.7 585.4 576.8 552.1 524.8 512.6 500.6 486.7 483.9 482.5 486.9 499.3 510.3 537.8 540 534.2 527.6 528.5 524.6 518.5 511.2 511 508.2 499.2 475.7 483.7 483.2 477.7 479 482.9 478.7 477.1 479.8 474.8 511.2 531.1 538.8 559.1 564.6 560.9 582.3 617.7 621.1 624 627.1 617.4 619.4 600.3 581.8 565.7 545.8 518.6 497.8 476.5 459.4 443.6 427.7 422.6 435.3 449.2 466.2 471.7
2.5 2.5 2.5 2.5 2.5 2.5 2.5 2.5 2.5 2.5 2.5 2.5 2.5 2.5 2.5 2.5 2.5 2.5 2.5 2.5 2.5 2.5 2.5 3.8 2.5 2.5 2.5 2.5 2.5 2.5 2.5 2.5 2.5 3.2 8.7 7.9 7 11.7 14.9 18.1 17 19 19.5 20 24 30.1 37.9 46.8 58.7 72.1 85.9 96.9 108.2 115.8 131.8 149.2 163.6 178.1 187.5 194.8 207.5 224.7 246 265 275.1 275.1 265 291.7 314.2 336 361.3 391.2 408.1 428.5 441.1 458 475.5 506 535.6 556.5 571.1 578.3 581.4 583.1 559.2 515.4 483.6 472.5 465.4 458.6 442.9 437.4 448.7 457.3 468.9 492.5 522.1 549 569 583.2 592.8 599 599.9 604.3 599.4 586.5 570.9 554.4 534.9 517.9 497.4 479.3 492.7 505.9 521.4 529 545.8 550.2 565 579.4 595.2 608.7 622.5 642.8 650 647.8 654.4 659.6 660.8 658.6 656.5 635.5 622.6 612.5 603.4 596.5 595.6 601 603.2 589.5 562.4 539.2 519.6 510.3 501.8 486.3 473.3 471.5 471 477.1 486.6 511.4 501 501.4 500.6 498.4 496.1 488.8 483.7 488.5 481.2 472.2 455.2 460.4 453.6 447.9 447.5 450.6 454.7 445.9 437 474.5 490 509.9 520.2 527.4 540.6 534.5 568.3 601.4 611.4 600.6 613.4 611.7 604.8 598.1 571.3 563.5 545.3 523.5 496.1 480.2 472.8 448.4 431.2 440.2 452.5 476.8 493 501.9
2.5 2.5 2.5 2.5 2.5 2.5 2.5 2.5 2.5 2.5 2.5 2.5 2.5 2.5 2.5 2.5 2.5 2.5 2.5 2.5 2.5 2.5 2.5 2.5 2.5 2.5 2.5 2.5 2.5 2.5 2.5 2.5 2.5 7.4 11.7 14.3 13.6 19.2 22 24.6 23.5 25.3 28.6 30.6 33.8 38.3 46.7 57.4 69.5 81.6 96.8 108 117.8 129.2 147 166.9 180.6 190 198.9 215 229 244.9 264.8 279.8 293.9 296.4 296 305 333.9 358.1 379.3 405 428 445.1 456.7 477.8 503.1 521.7 549.4 570.8 590.8 599.4 599.9 595.6 570.6 534.3 502 490.7 486 471.8 455.7 447.7 456.7 471.1 484.5 511 539 571.2 587.7 603.8 612.7 619.6 629.2 630.4 625.9 605 587.2 568.8 549.9 529.1 508.6 502.5 508.4 524.3 533.7 553.2 566.6 577.8 578 590.7 604 615.5 624.7 636.2 646.4 626.3 628.5 627 625.9 622.9 619.6 601.1 592.8 589.4 572.3 569.2 596.4 603.5 601.9 594.6 571.3 537.7 519.8 505.4 494.8 482 467.5 457.2 461.4 462.4 465.9 475.5 471.7 474.4 474.1 471 466.4 459.4 455.7 464.3 465 444.1 440.1 429.9 418.5 420.1 415.9 423.9 421.3 420 440 458.7 464.3 482.1 497.1 503.4 508 514.3 546.4 579.1 573.7 573.2 599.8 603.1 587.1 580.8 557.6 554.5 537.5 520.3 508.3 485.8 479.2 457.7 449 452.1 466.2 502.2 522.5 529.4
2.5 2.5 2.5 2.5 2.5 2.5 2.5 2.5 2.5 2.5 2.5 2.5 2.5 2.5 2.5 2.5 2.5 2.5 2.5 2.5 2.5 2.5 2.5 2.5 2.5 2.5 2.5 2.5 2.5 2.5 2.5 2.5 5.1 10.8 14.2 17.8 21.2 25.6 29.9 32.9 30.8 31.1 36.6 38.1 41.6 46.5 54.3 68.4 80.6 92.4 109.1 125 130.6 142.1 161.7 179.4 193 199.6 215.3 233 247.8 262.2 281.7 302.1 318.2 327.6 326.6 312.1 342.1 376.1 396.7 421.1 443.1 459.4 475.3 499.9 519.1 537.6 562 585.7 603.6 615.6 619 611.8 587.9 553.9 527.5 510.8 500 482.3 466 455.8 469.4 485.7 504.3 534.1 563 589.3 611.6 622.2 632.7 640.8 649.5 649.7 638.6 616.4 596.2 576.5 559.2 538.3 520.4 520.3 531.2 540.3 555 568.3 586 594.3 601.7 601.1 615.3 621.9 637.5 626.1 610.6 594 585.5 595.6 589.5 581.8 581.3 570 565.9 556.6 541.9 551 565.9 578.4 590.1 581.5 564 537.7 513.7 499 483.4 466.4 456.8 446.1 447.8 448.3 448.7 448.8 447.8 449.1 450.6 447.6 446.5 442.8 432 438.7 427.8 413.7 409.5 397.1 392.5 399.8 381.9 391.1 397.2 398.1 429.6 445.9 447.9 458.6 464.6 476.7 477.9 504.3 525.8 547 528.7 550.7 569.4 579.6 575.3 559.2 544.9 533 530.1 523.3 505.8 495.4 484.5 465.4 466.7 472.9 488.2 514 536.9 558.3
2.5 2.5 2.5 2.5 2.5 2.5 2.5 2.5 2.5 2.5 2.5 2.5 2.5 2.5 2.5 2.5 2.5 2.5 2.5 2.5 2.5 2.5 2.5 2.5 2.5 2.5 2.5 2.5 2.5 2.5 2.5 3.2 8 11.5 15.6 19.8 23.9 28.9 31.3 32.4 34.3 35.8 40.6 45.4 53 58.9 68.9 80.5 92.4 104.5 119.5 134.9 145.2 159.5 177.2 190.4 198.8 211.3 229.9 247.1 264.5 282 302.3 326.1 340.7 354.2 359.5 349.7 341.1 381.1 407.2 436.4 455.4 472.6 493 513.5 533.9 552.1 576.9 597.9 617.3 628.9 641.1 627.9 604.7 581.1 561.7 530.1 507.5 487.8 474.4 466.5 479.3 493.9 519.5 548.7 577.1 606.6 628.4 640.1 649.5 658.2 667.5 666.1 646.3 621.6 600.2 579.6 561.9 548 535.4 537.9 547.8 558.3 570.3 588.7 602.4 612 617.9 614.5 621.1 619.8 621.1 603.4 582.4 568.2 565.5 562.8 556.3 551.4 548 544.6 540.2 536 517.6 517.7 526.7 546.9 573.2 563.7 550.4 532.2 515 498.5 478.1 462.5 447.9 435.5 431.6 434.4 432.9 430.5 429 429.8 431.6 430.8 431.4 430.1 408.4 409.4 403.8 389.5 382.4 377.5 372.2 376.8 366.3 370.8 368.4 406.1 420.7 431.8 432.1 429.9 437.5 447.6 458.3 490.5 501.1 496.8 484.1 521.2 542.6 555.9 559.8 546.1 533.4 520.6 518.1 518.6 503.3 502.6 487.9 486.8 490.8 501.6 513.2 533 554.9 583.2
2.5 2.5 2.5 2.5 2.5 2.5 2.5 2.5 2.5 2.5 2.5 2.5 2.5 2.5 2.5 2.5 2.5 2.5 2.5 2.5 2.5 2.5 2.5 2.5 2.5 2.5 2.5 2.5 2.5 2.5 2.5 5.2 7.7 11.1 14.5 18.4 22.6 26.1 29.6 30.1 34.2 37.8 43.1 50.2 61.8 71.3 81.9 92.4 101.3 112 127.2 140.3 153.8 172.4 188.7 203.1 209.5 227.4 242.5 259.5 277.7 298.2 320.5 342 360.5 372.9 388.3 383.7 377 392.4 419.3 445.4 465.8 483.8 504 530.6 543.2 565 586.5 604.3 626.9 646.4 652.4 640.4 615.6 588.2 549 523.6 508.2 491.6 478.2 475.6 488.1 506.5 524.8 554.2 590.2 626.2 643 655.2 663.1 668.4 677.5 672.9 645.5 624.8 603.6 583.2 567 557.1 550.7 553.3 566.7 578.4 597.9 612.4 618.4 615.5 620.3 623.3 615 607 600.6 584.9 565.8 548.6 541.1 537.4 526 521.1 518.8 513.2 513.3 505.5 500.6 505.9 513.2 526.6 536.8 543.7 540 525.4 514.2 492.3 475.5 457.1 442.4 427.7 420.4 421.7 419.5 416.2 412.5 413.7 412.9 411.7 411.3 410.9 400.5 382.9 380.1 366.9 360.5 355.7 347.8 347.3 342.7 347.5 370 390.6 407.5 417.9 418.3 414.2 415.9 420.8 440.8 465.8 476.5 461.7 459.5 500.6 519.7 530.2 538.2 526.8 512.6 509.4 514.9 517 509 507.5 511.4 509.1 513.4 522.9 533.8 550.1 565.7 596
2.5 2.5 2.5 2.5 2.5 2.5 2.5 2.5 2.5 2.5 2.5 2.5 2.5 2.5 2.5 2.5 2.5 2.5 2.5 2.5 2.5 2.5 2.5 2.5 2.5 2.5 2.5 2.5 2.5 2.5 6.6 8.1 9.1 11.5 13.8 18.3 19.9 25.2 29.1 32.5 36.7 40.3 47.3 56.5 66.7 81.3 91.6 102.8 114.3 124.6 134.8 148.7 165.9 186.8 204.8 219.7 230.2 244.6 261.1 276.9 293.2 317.4 341.1 361.1 374.2 395.2 416.1 420.6 412.3 399.7 432.9 452.4 474.6 498.2 518.1 544.5 560.8 580.2 603.5 628.9 645.9 659 659.9 638.4 606.2 566 540 523.3 510.4 495.3 488.4 493.5 501.2 521.7 540.2 564.4 598.9 634.4 655.4 673.9 677.9 681.7 687.9 677.9 649.9 627.7 610.1 590.4 574.9 567.4 567.9 573.8 582.3 596.6 614.8 629.2 624 623.5 616.3 614 601.4 583.7 574.1 558 541.2 528.9 513.9 514.3 503.9 499.6 498.7 494.5 493.4 489.5 489.6 492.3 510.3 519.8 528.8 533 529.6 528 511.5 498.7 481.6 458.3 441.6 424 413.5 410.7 407.1 403.4 401.1 399.8 396.5 391.4 390.9 390.8 384.6 371.2 349.1 341 333.9 332.7 330.7 326.2 330.8 344.8 357.3 372.3 390 395.4 395.6 390.3 403.3 403.8 411.7 441 457.7 430 439.3 474.2 497.2 510.8 521.6 510.5 499.1 494.9 505.4 512.5 509.8 528.5 532 530.5 539.7 542.5 549.3 561.8 584.9 597.9
2.5 2.5 2.5 2.5 2.5 2.5 2.5 2.5 2.5 2.5 2.5 2.5 2.5 2.5 2.5 2.5 2.5 2.5 2.5 2.5 2.5 2.5 2.5 2.5 2.5 2.5 2.5 2.5 2.5 2.5 6.8 9.4 10.9 13.4 16.8 22.9 28.3 27.6 32.2 38.5 42.6 47.8 58.3 71.5 80.4 90.4 101.9 116.1 125.2 136.6 146.6 158.1 179.9 204 226.4 239.3 248.3 260.6 275.2 290.1 310.1 336.7 360.5 370.8 392.6 413.8 432.9 445.5 448.9 439.1 445.1 463.1 483.4 503.8 534 552.3 577.5 598.3 613.4 640.4 659.8 662.1 647.4 611.8 573.1 551.3 536.9 529.7 516 510.1 505.1 514.7 531.2 547.8 560.2 584.4 614.5 643.3 666.3 688 690.3 694 693.6 691.4 666.9 641.9 629.5 610.9 598.8 590.6 592.6 589.6 600.1 612.9 626.9 628.9 626.4 619.2 601.8 587.6 581.4 560.7 541.1 528 515.9 506 489 489.1 483.6 477.9 486.2 485.9 476.7 475.3 476.8 479.5 491.9 513.5 530.2 538.7 532.3 524.8 505.1 487.7 468 449.5 434.3 420.8 409.1 399.3 394.9 392.8 388.9 385.5 380 374.3 372.2 369.8 364.3 353.6 337.1 318.6 307.8 312.8 311.2 311.3 324.4 336.2 347.3 356.2 378.1 370.5 369 366 370.3 381.8 379.7 412.9 419.8 385.5 417.1 446.1 473.2 488.5 496.1 486.9 481.6 481.3 488.2 502.9 525.9 541.7 549.7 551.3 555.1 561.3 558 563.5 581 615.9
2.5 2.5 2.5 2.5 2.5 2.5 2.5 2.5 2.5 2.5 2.5 2.5 2.5 2.5 2.5 2.5 2.5 2.5 2.5 2.5 2.5 2.5 2.5 2.5 2.5 2.5 2.5 2.5 2.5 2.5 8.1 11.5 14.1 17.1 23.6 29.7 32.5 32.3 34.4 41.4 49.8 61.9 70.7 82.1 92.1 100 111.5 124.3 135.5 147.7 161.6 183.2 198 222.2 249.3 253.1 264.5 274.6 287.7 304.2 330.4 352.6 377.9 390.3 419.4 437 451.8 462.5 465.7 462.6 465 476.1 491.7 509.4 536.3 559.1 586.9 610.8 626.4 653.9 670.5 673.3 637.1 597.4 564.3 553 547.5 541.5 536.2 537.4 541.9 542.9 562.7 577.1 590.1 612.8 638.8 657 678 691.5 701.5 707.3 698.3 690.5 685.8 673.3 665.1 651.3 636.1 624.6 618.8 620.5 623 627.6 631.3 628.5 615.2 596.6 574.6 564 551.2 538 517.9 507.2 490.5 477.7 465.5 460.7 457.6 474.7 484.6 469.1 457.7 458.7 461.2 485.9 498.5 511.9 518.7 527.1 528.2 514.1 494.3 479.6 464.4 449.1 433.3 420.5 408.8 399.7 392.7 387 378.4 374.8 369.4 362 357.7 350.7 343.7 335.1 320.8 305.8 297.8 295.3 298.4 303.6 313.6 322.8 328.4 334.9 352.5 350.5 350.3 343.9 342 350.1 350.9 369.5 377.7 361.8 377.4 401.9 439.8 464.5 469.4 466.7 464.4 458 473.1 513.6 534.2 547.2 557.8 559.7 557.9 559.7 562.2 561.8 591.3 615.7
2.5 2.5 2.5 2.5 2.5 2.5 2.5 2.5 2.5 2.5 2.5 8.7 2.5 2.5 2.5 2.5 2.5 2.5 2.5 2.5 2.5 2.5 2.5 2.5 2.5 5.4 2.7 4.6 5 10.6 14.6 15.7 18.6 23.5 31.2 37.5 42 41.3 41.1 46.6 63 74.9 83.3 93 101.6 113.3 123.8 133.5 144.3 159.6 177.6 200.7 219.9 234.2 250.3 261.3 274 286.6 299 322.5 347.8 368.6 388.4 407.3 432.2 454.4 471.8 484.6 484.1 480.9 483.1 488.3 502.1 517.6 536.9 563.1 594.3 619.2 640.5 663.7 674.4 672 638.5 601 574.7 566.3 563.9 558.7 559.5 574.6 588.6 574.8 591.9 609.9 629.5 646 659.4 674.3 692.1 709.2 707.2 694.9 692.7 701.3 689.4 680.4 675.7 664.1 651.3 642.1 637 635 626.5 616 608.5 598.1 583 566.1 556 542.9 526.9 513.2 498.7 487.2 470 454.7 450 438.4 447.6 456.4 458.1 445.2 434.1 438.8 454.6 482.6 520.9 533.7 533.8 528.3 520.3 511.2 501 484.6 467.1 451.3 438.8 425.4 412.6 402.4 391.9 386.6 376.6 365.9 365 352.5 343.6 335 326.1 315.5 304.2 292.5 285.9 278.6 284.6 292.3 298.4 306.2 308.4 312.4 319.9 324.3 319.5 317.2 313.5 320 323.6 334.6 327.5 339.7 347.9 370.3 398.5 422.7 438 444.5 429.7 438.5 468.8 494.5 521.7 541.2 553.9 550.7 553.5 549.4 546.7 554.8 589.1 603.8
2.5 2.5 2.5 2.5 2.5 2.5 2.5 2.5 2.6 7.4 10.8 8.3 6.5 3 2.5 3.1 5.4 7 2.5 2.5 2.5 2.5 3 5.5 4.6 7.4 11 12.2 14.5 19.3 21.1 22.2 29 35.2 41.3 46.8 51.5 54.9 60 61.5 70.4 82 96.3 110.4 117.7 127.4 140.3 150.5 158 173.7 191.3 214.4 236.4 249.3 258 269.4 281.7 301.9 316.8 339.6 366.5 386.3 403.1 421.3 447.2 472.5 487.8 496.1 507.4 502.4 501 506.9 514.7 529.1 547.4 565.7 610 635.7 649.6 672.5 684.1 684.4 646.7 615.1 590.4 583.4 582.8 583.3 590.4 603.6 615.1 610.5 621.6 652.3 666.3 672.6 677 691.7 699.7 696.4 679.9 674.4 675.1 671.3 665.2 663.3 670.4 654.5 648.2 638.3 629 623.9 606.3 595.6 589.6 581.7 562.3 549.3 533.5 520.9 503.9 493 486.8 474.9 457.2 439.4 420.6 417.6 429.4 433.2 427 415.4 404.9 428.3 451.3 486.9 523.7 540 545.7 540 531.1 513 509.2 497.8 477.6 457.1 440.3 430.1 421.6 405 389.3 384.4 366.3 355.8 348.7 339.5 332.2 317.5 309.3 299 290 278.7 270.9 263 269.1 275.9 281.9 289.2 286.9 290.8 293.9 294.3 295.2 292.8 289.1 294.4 298.3 301.5 298 304.6 318.9 341 370.5 385.1 400.2 403.8 398.5 426.1 444.9 468.9 481.3 509.1 537.3 532.3 539.5 537 531.2 544.3 578.4 601.4
2.5 2.5 2.5 2.5 2.5 2.5 2.5 2.5 3.2 7.2 10.2 10.1 8.8 8.3 13.1 16.8 16 14.1 10.9 9.6 9.7 12.8 15.3 16.3 14.9 15 16.3 18.3 22.3 26.3 29.6 36 42.8 47.6 55.6 57 62.9 70.5 77.6 82.3 85.7 92.6 113.3 130.6 139.3 146.2 159.5 169.4 175.6 189.3 206.4 232.2 250.3 263.5 271.8 283.1 293.6 313 332 362.3 383.3 401.2 416.8 438.3 464.7 488.6 505.4 520.1 527.8 522.2 519.8 522.5 532.2 551.3 561 586.6 618.4 643.5 660.9 679.2 690.6 687.6 661.9 630.9 610.1 605.3 598.5 611.5 618.4 634.7 649.4 648.4 660.5 679.7 688.2 696.1 696.3 690.7 683.4 672.5 665.2 662.7 647.8 638.1 639.3 636.8 635.5 631.9 625.4 617 611.6 601.1 580.8 574.6 564.8 548.4 536.3 524.4 513.8 500.5 483.6 471.1 458.6 450.8 436.6 414.2 371.7 401.3 412.2 405.3 394.2 388.1 405.5 428.4 463.9 499 531.5 545 553.7 544.4 538 534.4 517 501 480 463.4 448 431.6 421.1 405.3 386.2 379.6 365.1 348.2 332.4 325.1 315.6 307.2 295.6 286.5 278.2 266.2 261 258.3 255.7 260.5 263.9 266.6 270.3 275.3 277.8 274.1 271.3 273.2 269.2 268.7 272.6 276.3 273.3 280.5 290.7 304.5 331 344.5 362.2 364.7 372.8 403.6 414.1 432.2 442 470.6 510.1 510.4 510.5 520.4 509.1 521.9 551.7 566.4
2.5 2.5 2.5 2.5 2.5 2.5 2.5 2.5 5.5 9.7 12.1 13.6 13.5 17.6 23.5 25.3 25.7 26.4 24.7 23.8 26 28.2 32.8 33.1 30.6 31.7 28.4 27.7 32.4 38.8 43.8 49.2 58.1 62.4 67.1 72.4 78.8 87.6 94.8 102 103.7 110.4 126.7 152.6 159.1 167.4 179.5 188.9 192.9 208.4 229.3 252.3 266.9 275.5 288.4 295 308.8 324.8 349.5 383.1 404.5 420.4 437.6 461.9 480.8 499.2 522.9 539.1 550.2 549.3 544.8 541.9 550.2 557.8 580.5 603.3 622.8 653.8 675.5 690.7 707.6 703.4 682 652.6 637.5 623.1 622 626.6 654.1 680.3 679 688.4 691 694.7 700.6 690.7 677.7 665.6 654.6 655.5 649.1 640 621.4 610 607.8 607.8 609.5 604.8 609.2 597.4 587.4 574.3 561.1 545.2 534.5 521 509.6 497.4 489.6 478.4 464.1 449.1 436 423.7 412.2 391.9 357.7 375 386.1 377 365.4 377.7 413.4 440.8 487 512.8 540 553.8 564.6 565.8 543.4 532.2 521.6 510.1 497.4 476.2 451.8 433.7 419.5 403.5 388.3 380.3 357.2 343.2 328 309.5 300 291.5 284.1 275 266.6 254.9 251.4 249.6 241.6 247.4 249 251 254.3 258.7 258.2 256 250.6 248.9 248.9 247.5 250.3 254.2 253.5 256.4 265.5 279.4 301 313.6 325.4 339.8 346 365.5 378.2 394.9 409 439 466.1 478.2 473.7 488.9 482.6 501.6 519.9 527.4
2.5 4.3 4.7 7.7 13.1 18.4 20.9 22.1 22.1 23.6 24 25.5 30.9 36.2 35.3 30.4 36.4 37 36.8 39.4 40.8 42.6 45.5 47.3 47.2 43.7 41.7 40.9 45.7 53.4 56.9 62.9 75 78.4 80.3 85.2 91.8 104.5 111.2 119.2 121.9 127.6 143.3 166.8 178.8 187.6 202.7 214.4 216.8 231.6 250.9 269.5 282.2 291.2 302.4 306.9 325.6 342.5 368.6 399.6 422.9 439.4 458.3 475.5 496.2 511.5 533.6 554.3 574.3 573.6 574 571.1 577.7 581.5 590.9 614.1 639.3 671.1 688 703.3 716.3 725.9 708.8 685.9 657.2 651.3 648.4 653.6 679 689.2 686.7 696.4 697.3 692 689.8 676.9 661.1 647.8 640.3 637 625.7 618.2 608.9 599 592.7 594.8 593.2 591.9 584.1 577.8 563.8 553.2 532.3 520.6 507.9 502 491.8 480.7 467.4 452.1 439 426.6 415.4 404.4 391.6 376.2 355 344.2 358.1 345.8 343.4 390.6 425.9 459 488 509.6 533.4 556.7 567.9 558.8 543.8 548 546.6 536.4 511.8 484.3 459.7 439.8 426.2 406.1 389.2 374.8 352.8 334.6 325.8 309 289.4 271.3 268.8 262.5 256.3 247.3 242.7 239.8 234.4 235.2 235.3 234.7 236.2 238.6 239.1 237.6 233.2 229.6 230 231.4 231.4 233.2 232.8 234.3 245.7 254.2 269.8 283.5 294.3 310.1 319.1 335.7 345 358.6 373 399.8 414.3 442.5 439 452.4 449.7 474.1 489.8 498.7
20.3 24 28.3 29.3 29.4 34.8 37.8 39.1 39.1 37.3 28.8 40.8 48.5 53.2 51.5 46.6 43.4 48.1 52.8 56.5 57.5 58.6 60.7 60.7 61.8 59.8 59 59.2 59.4 64.8 71.7 78.7 89 94.4 92.5 101.3 110.8 115.9 127.7 135.2 139 146.7 163.6 185 196.6 207.3 222.8 239 244.6 254.5 272.3 293.2 298.4 307.8 317.2 321.8 338.3 359.7 380.1 415.6 439.8 457.7 474.1 495.2 511.5 533.6 558.7 576.8 595 598.8 598.3 600.7 611 611.5 617.2 625.1 652.2 679.4 701.6 717.2 728.6 739.6 727.1 701.9 690.8 683.1 681.6 690.6 696.9 693.7 699.9 700.2 688.6 681.4 673.7 657.4 646.2 634.2 631.3 626.8 614.3 601.7 592.5 582.3 572.8 570.5 570.9 572.5 564.9 556.1 541.6 536.1 514.7 503.7 489.2 477.5 467.3 458.4 439.1 428.1 415.5 405.1 392.2 383.2 373.9 361.2 346.7 310.8 324.8 306.1 353.5 398 433.3 444.3 450.6 470.2 514.6 525.3 540.4 540.5 536.6 532.3 551.3 540.2 510.5 488.2 471.2 448.7 430.5 410.7 390.7 369.9 351.1 334.3 315.6 301.3 288.9 272.1 256.5 248.7 244.5 239.5 236.3 228.8 225.8 224.8 223 222.6 223 222.1 221.9 220.3 218.3 213.9 215.6 218.2 218.8 216.8 215.3 219.6 235.3 237 250 263 272.9 285.8 296.4 307.2 314.8 327.5 340.5 358 377.6 395 408 414.2 420.4 437.5 457.8 470.5
42.1 44.4 42.7 43.2 42.4 47 48.3 46.2 44.1 40 45.6 57.8 65.6 73.2 62 59.1 62.5 66.8 71.9 73.2 74.5 73.8 71.9 76 76.5 76.4 76.6 77.7 79.6 81.6 89.6 95.4 105.4 113.2 113.2 116.8 127.1 130.6 138.7 150 156.5 162.1 173.2 195.3 212.3 236.9 247.8 265.3 267.8 280.5 298.6 315.1 319.1 323.6 332.6 339.4 352.9 378 394.3 425 460.1 474.1 496.4 518 535.7 563.9 588.4 606.1 619.8 625.5 629.6 635.2 636.9 646.4 650.9 655.4 675.7 699.3 723.2 736.7 748.6 750.9 730.3 724.1 728.5 722.4 725.3 723.6 713.3 704 696.7 685.7 675.9 673.4 663.9 644.5 629.3 618 613.7 609.1 593.3 578.3 568.7 566.5 558.3 552.5 544.4 548.7 542.8 531.9 522.7 508.7 492.7 479.5 464.6 452.8 439.8 427.9 414.5 402.4 391.7 381.3 369.1 365 357.5 342.2 333.3 314.4 278.6 319 361.5 388.2 385.9 406.4 410.5 428.8 455.4 482 496.6 513.9 505.8 507.1 534.2 541.7 525.8 502.5 481.7 462.9 446.6 420.6 396.6 372.2 352.2 332.9 316.1 299.5 287.4 271.9 254.6 236.8 232.1 231.5 228.6 223.2 218.5 209.6 209.8 210 211.5 211 209.4 206.9 204.2 202.7 204.1 206.7 204.6 202.5 202.2 208 218.2 227.4 243.5 255.8 267.8 279.9 282.5 286.7 292.5 303.9 310.6 326.9 344.1 359 370.1 381.2 387.1 399.8 425 436.2
61.8 54.2 52.3 54.9 54.7 59.2 57.1 53.1 54.3 54 52.3 75.3 85.9 76.7 66.4 74.5 78.6 80.1 86 91.3 91.7 90.4 87.1 90.6 94.1 97.2 98 100.2 103.6 109 113.7 114.1 118 127.4 127.2 133.2 142.1 147.5 155.7 164.8 171.4 179.9 192.6 211.9 231.3 256.7 269.4 285.4 293 304.9 322.8 331.3 335.2 340.7 345.5 358 366.6 394.2 412 439.9 471.3 489.2 515 536.4 557.6 593.3 614 625.8 638.2 646.1 652.4 658.9 670.3 684.8 688.9 695.1 707.3 728.1 740.7 751.1 752.9 737.3 726.2 728.9 725.8 735.7 729.6 712.2 694.8 686.7 676.9 667 652.4 644.5 636.7 623.7 606.5 593.7 590.2 581.3 569.9 557 548.9 547.7 545.3 533.4 525.1 523.7 520.2 508.7 495.6 483 468.8 454.1 440.7 426.6 418.6 399.6 385.7 375.5 364 357.2 345 341.3 331.1 318.5 316.1 308.5 264.5 306.5 345.3 351.2 355.5 361.9 372.2 391.1 402.4 428.1 455.4 474.2 467.5 471 501.6 536.5 530.1 513.7 496.8 478.1 460.1 429.9 397.9 374.7 353.1 326.8 309.4 292.3 277.6 261.6 246.1 232.8 210.9 218.8 216.8 212.6 203.7 198.9 194.5 196.7 199.2 198.2 196.7 195.1 195.4 197.7 195.4 193.9 197.8 204.9 203.9 203.7 210.6 224.2 237.2 254.1 254.3 272.1 275.6 282.6 279.2 293.1 298.3 314.2 321.7 332 341.1 351 359.2 377.3 395.2 410.8
57.3 56.7 60.7 64.4 66.4 71.7 68.2 64.3 71.9 74.4 75.3 69.4 80.4 75.7 80.8 89.9 93.8 95.9 99.5 104.3 106.1 110.4 110.9 110 118.9 117.4 116.6 119.4 123.8 131.7 132.7 130.4 131.1 139.6 145 151.6 157.7 165.2 172.2 181.5 191.1 203.1 216 233.4 250.1 273 285.9 303.9 313.5 327.9 339.9 345.3 347.5 357.9 364.2 378.7 397.1 413.1 435.3 461.3 488 509.6 531 553.4 581.5 610.3 624 639.4 653.3 661.1 670.6 682.1 696.1 719.8 721.6 730.1 737.4 744.5 749.6 753.9 743 723.3 719.7 720.5 724.7 722.5 710.7 694.2 673.9 665.4 655.2 645.7 630.8 620.5 606.3 591.4 580.6 574.3 569.3 554.3 544.5 534.8 535.6 527.9 527.1 520.1 516 507.7 499.2 484.9 475.3 459.5 442 430.9 419.1 402.2 389.7 372.8 357.1 349.2 337.4 331 324.7 315.1 306.9 299.1 294 294.3 268.5 259 295.7 309.4 312.1 326 335.6 345.5 367.8 392.3 421.7 442.7 433.3 443 482.6 503.4 509 510.4 500.7 476.9 450.5 427.1 399.5 374.6 347.6 323.8 304.3 286.8 266.9 252.6 240.6 227.2 215.4 201.9 203.4 198.7 194.7 191.9 189.5 187.5 187.8 186.2 187.2 188.7 191.2 190.6 191.4 198.9 205.7 209.2 213.2 208.3 205.5 215.9 227 235.4 244.6 263.2 262.4 266.8 260.1 276 285.3 293.8 305.3 315.2 332.7 338.5 352.9 358.3 369.1 381.4
54.4 62.8 70.9 79.4 85.5 80.1 77.3 76.2 86.1 94 89.3 83.1 81.6 92.1 96.7 107 115.6 122.3 125.5 128.9 129.6 132.1 132.2 132.1 140.9 142.4 142.7 145.9 150.6 153.2 152.9 147.4 150.6 158.9 162.2 166 174.2 185.9 191.8 199.7 205.6 218.3 236.2 250.9 267.6 285.2 305.7 323.6 330.8 346.3 353.7 362 364.6 375.9 384 402.7 423.8 439.9 458.8 484.5 505.4 530.9 551.3 568.6 596.9 623.5 635.3 655.3 670.9 679 694.2 709.7 723.3 735.3 734.9 743.8 750.1 748 740 735.3 722.4 706.8 720.5 729.5 725.1 710.8 696.6 676.6 657.5 651.4 633.8 622.7 604.4 589.3 575.2 561.6 553.2 551.8 544.3 536.5 526.4 519 513.6 506 503.4 499.8 493.4 486.1 470.3 456.4 448.8 434 418.4 404.2 393.4 375.3 359.2 341.8 329 318.4 311.3 303.3 297.7 290.8 283.6 275.7 273.6 277.2 265.4 223.6 251.4 275.8 278.2 291.1 302.7 318 338.4 366.7 398.6 412.7 396.7 414 473.6 496.1 498.1 499.4 497.2 484.7 458.7 437 418.4 383.4 351.4 317.2 299.3 282.7 263.8 247.4 230.4 220.2 209.6 189 193.1 189.3 186.5 185.9 186.1 183.3 181.6 181.3 182.5 188.5 189.9 188.5 199.7 216.6 221.4 218.5 219.1 215.3 210.3 209.3 215.8 222.1 235.6 251.1 244.9 249.2 248.2 257.6 267.6 277.3 280.7 296.5 311.2 324.7 335.1 342.9 348.8 360.4
63.6 76.4 89.7 98.5 88.7 82.3 89 88.1 96.4 98.2 99.3 98.6 92.9 107.3 118.7 124.4 134.3 138.8 152.6 152.5 151.1 150.7 152.7 153.3 156.5 161.5 167.9 172.7 174.7 176.8 174 173.1 178.9 178.8 179.7 184.3 196 208.7 218.3 226.9 229.6 240.6 256.5 273.6 291.7 315.4 325.9 341.7 349.8 360.3 368.8 375.2 380.3 393.2 407.3 429.1 452 467.9 485.4 509.8 531.9 560.1 574.3 591.4 620.1 640.9 655 675.9 681.7 687.2 703.5 717 723.1 721.5 726.2 733.2 733.1 730.3 724.4 716.3 705.1 697.9 708.9 715.8 701 693.3 677.4 657.3 636.5 629.6 614.3 603.6 588 567.9 550.1 532.2 520.2 518.1 516 512.6 502.6 500.5 495.9 486.9 482.3 476.6 467.9 457.5 441.1 428.5 422.3 409.4 390.8 372.7 361.8 347.2 331.6 318.2 300.8 294.9 294.5 281.4 271.3 265.7 256.7 256.1 252.7 250.9 245.8 217 229.5 243.7 248.8 263.2 274.3 288.3 313.3 343.2 360.9 375.1 360.4 376.3 433.1 468.5 482.1 474.9 468.9 456.7 439.8 415.8 392.8 374.9 345 311 293.6 279.6 259 240.7 226 212 200.1 183.6 185.4 185.6 182.2 181.6 182.1 180.9 178.5 179.6 182.1 188.4 184.8 204.4 222.3 232.2 245.5 234.6 227.2 224.8 217.5 212.7 211.2 218.6 224.9 229.7 232 231.4 236.4 241.4 250.4 257.4 265.9 275.9 291.6 305.2 316.2 322.6 328.6 342.7
73.7 89 94 87.5 82.2 88.9 98.2 107.9 109.7 106.9 108.9 113.5 114.9 117.5 135.8 143.1 152.4 163.2 171.6 168.7 171.8 171.8 174.3 173.8 172.6 181.2 193 198.7 195.9 196.4 196.7 197.8 199.2 197.4 196.3 208.3 215.8 233.2 242.6 248.6 255 269.4 286.1 301.7 321.2 340.8 346.7 358.4 368.6 378 388.6 396.8 404.3 417.1 437.4 457.3 480.1 496.7 527.8 536.8 559.7 576.6 591.3 613 634.8 658.4 673.4 680.8 687.1 696.3 709 710.8 708.4 700.4 710.1 716.2 717.9 714.1 711.5 699 686 687.6 692.3 685.8 681.1 672.2 653 636 628.6 616.5 600.5 587.4 566 549.9 533.8 516.3 505.3 491.5 486 482 477.5 477.1 476.1 470.5 459.7 451 438.6 426.4 413 402.2 392.7 381.3 358.3 342 331.3 319.6 305.9 292.1 280.1 275.8 270.6 261 248.2 240.2 230.3 233.5 224.5 227.2 223.9 215.4 193.6 213.6 221.3 234.9 247.1 261 279.8 297.6 313.7 328.1 324.8 333.2 383.7 406.1 447.9 443.7 456.8 454.7 433 406.9 381.5 351.4 321.6 302.6 285.2 267.5 247.1 234.2 220.1 206.3 192.8 180.8 180.4 183.5 180.7 178.7 178.2 177.4 177.7 179.9 180.2 185.8 199.7 227.6 250.3 253.9 257.5 249.1 240.6 233.8 226.9 223.4 226.6 224.3 226.6 229 228.7 228.7 229.8 232.6 235.1 244.1 253.2 267.3 276.3 284.5 293.9 306.3 309.1 326
62.3 74 82.7 78.6 85.6 98 108.9 115.9 119.2 120.3 120.2 124.7 130.1 134.3 145.8 164.7 176 178.5 182.3 184.6 186.6 191 191.6 191.4 196.1 207.4 215.2 218.8 219.5 216.6 215.3 213.2 215.3 214.7 215.2 226.8 236.2 253.7 260.8 268.6 280.7 298.5 314 335 344.9 358.8 366.4 377.2 389.9 402.8 414.6 420.9 430 446.5 465.4 487.4 508.1 531.3 554.1 574.6 592.2 604.5 620.2 632 651.2 666 681.5 678.7 680.2 695.3 692.7 693 690.3 698.6 704.2 703.6 703.1 699.5 689.9 687.6 677.1 675.6 678 674.6 672 650.8 634.2 623.8 615.8 603.5 587.3 565.9 549.5 536.9 523.8 506.2 485.8 467.2 453.1 446.3 444.6 445.4 446.8 446.3 440.3 428.4 406.7 391.5 388.5 377.6 363.3 350.6 334.7 318.4 302.9 291.2 277.3 269.1 258.5 254.5 247.3 238.7 226.7 221.8 206.8 200.6 194.5 193.7 192.3 191.6 186.1 195 204.9 211.8 221.7 235.4 252.1 268.3 278.3 284.7 287.2 305.7 331.2 362.5 392.9 409.7 447.3 435.8 427.2 394.5 366.5 340 313 290.8 273.3 251.9 237.3 227.6 212.5 201.1 186.6 178.7 177 176 177.1 175.2 173.9 177.5 179.1 182.1 188.1 196.6 209.3 236.1 262.3 270.2 261.9 263.2 250.8 246.5 238.4 234.8 242.9 235.7 246.6 238.4 228.7 228.7 229.1 228.7 230.5 235.9 246.6 255.4 262.1 272.5 278.1 286.3 292.3 308.2
52.1 57.1 62.9 79.1 95.3 104.9 113.7 118.8 122.5 127.4 133.7 137.7 152.5 162.6 156.2 177.2 185.2 194.3 201.5 199.9 205.6 209.4 210.7 209.9 219.6 227.7 235.4 240.8 239.5 236.4 231.5 229.3 231.7 234.1 238.1 243.9 258.3 274.1 281.4 290.9 306.4 324.7 348.6 363.4 379.2 383.1 390.1 402.4 419.8 435.6 445.4 453.5 463.1 476.2 497.4 517.8 551.7 568.6 590.1 606 616.5 632.1 648.2 654.8 667.4 676.2 678.4 674.6 673.6 680.5 678.4 677.5 677.3 688 693.2 695 692 689.8 684.1 672.6 659.2 657.7 666.8 662.3 642.7 629.5 618.9 606.3 598.5 585.6 571.3 552.6 540.7 523.7 505.8 492.9 474.6 455.2 437.5 423.6 413.3 412.9 413.1 414.5 412.6 405.6 388.3 361.4 365.1 351.4 333.3 321.5 306.4 291.3 276.6 263.8 253.2 246.5 239 231.7 223.1 215.2 206 196.7 192.5 189.3 183.1 178.6 173 171.7 171.3 169.9 179.6 184.5 198.7 214.5 235.5 251 250.9 253.6 258.2 274.8 308 336.4 363.3 379.6 408.5 407.5 405.8 381.5 349 326.8 303.4 281.1 262.4 244.1 227.2 217.7 205.2 194.4 182.5 174.6 174 174.3 173.6 173 174.6 179.3 181.8 188.3 194.7 207 227.3 247.4 275.7 286.8 269.3 271.2 275.4 262.5 253.3 249 248.9 247.2 253.5 243.5 232.4 228.7 228.7 228.7 228.7 231.9 242.7 244.9 255.8 260.9 264.6 270.2 274.7 287.1
58.2 61 67 87.4 98.2 108.8 116.8 128.1 140.4 148.9 164.2 168.6 173.7 182.3 181.6 185 197.9 207.2 213.7 221.9 223 225.3 224.5 233 240.6 246.2 254.3 257.9 258 256.6 251.5 248.7 249.3 254.3 260.9 263.2 276 288.7 300 313.5 330.8 354.4 375.1 392.8 406.4 406.6 414.2 431.9 448.5 461.6 472.4 484.8 495.9 511.2 532.7 565.8 580.8 595.4 610.3 623.7 634.9 653.1 666.8 668 666.7 670.5 672.8 662.2 663.5 664.1 662.3 665 672.7 680.7 682.8 683.9 680.3 680.6 667.3 656.2 635.9 645.6 647.2 644.2 623.9 610.1 598.5 591 579.8 563.3 551.4 544 525.5 511.1 488.6 475.2 463.4 442.7 423.8 410.5 395 387.4 389 387.8 387.1 379.7 365.1 351.8 333.3 322.1 309.4 294.6 277.7 265.6 253.7 245.1 233.2 225.9 223.7 213.1 200.9 193.7 183.3 175.6 174.6 174.6 170.7 168.6 164.8 154 148.3 153 155.9 162.1 178.1 197.3 229.2 227.7 224.1 226.1 237.1 247.9 290.7 334 335.9 358.8 391.6 401.7 400.8 375.1 350.9 332.5 300.8 280.1 257.7 236.9 220.4 215.3 207.4 193.4 181.1 172.6 172.9 170.8 172.3 175.2 177.5 183.7 194.4 204.8 210.7 218.2 242.9 286.5 287 295.6 281.6 290.4 282.8 275.8 267.3 259.2 257.8 253.8 253.7 246.4 235.8 228.7 228.7 228.7 228.7 229.6 232.8 235.4 241.1 243.3 254.5 261.3 261.2 270.2
73.3 70.5 76.4 85.5 99.8 116 123.4 135.9 151.8 165.2 178.9 194.2 204.3 204.3 206.7 211.1 214 222.6 226.8 237.4 241 245.9 251.4 254.3 257.6 262.6 269 273.8 278.4 276.9 270.5 270.4 268.8 272.3 281.9 287.4 296.7 310.6 325.1 340 356.6 381.6 403.3 419.5 428.2 431.2 438.8 456.8 477.2 493.6 499.2 510.2 523.8 544.7 567.8 593 608.8 621.4 634.8 650.6 662.4 667.9 667.8 661.5 660.3 658.9 653.2 652.4 652.4 648.4 649.7 657.4 666.4 670.1 675.4 675.4 671.7 666.3 652.7 641.5 626.9 636.3 631.8 615.3 600.7 589.9 579.6 568 553.9 541.3 526.2 511.6 500.4 490.4 474.7 463.3 448.4 432.3 411.5 397.3 380.6 362.3 355.5 358.1 353.5 349 343.8 337.6 317.9 296 287.6 269 254.4 241.9 229 221.1 213.8 208.3 206.1 194.6 181.2 172.7 164 158.6 156.9 154.9 150.5 149.2 147.4 139.1 135 138.6 136.9 144 160.6 188.8 217.5 201.8 198.4 198.7 211.6 224 263.6 289 295.4 325.7 341.6 380.8 363 363.1 339.6 309.6 294.1 269.4 252.4 226.4 208.5 204.5 206 187.2 174.3 170.6 170.6 170.3 173.1 181.1 188.2 197.5 216 225.9 233.3 240 265.6 316.2 311.2 303.4 296.6 307.4 293.6 285.9 278.3 273.5 266.4 260.9 253.3 246.8 240 234.6 234.1 231.7 230.1 228.7 228.7 228.7 228.7 235.6 237.9 245.5 248.8 255.6
74.9 80.9 89 95.4 106.3 125.2 135.7 149.1 156.2 169.3 188.3 212 216.4 221.5 228.8 233.6 232.5 233.9 242.9 247.6 256.3 262.7 269.1 270.9 275.6 280.3 286.3 297 298.8 295.5 291.6 293.4 295.6 298.5 307.6 314.3 325.4 335.6 349.2 365.7 382.8 400.5 427 450.3 460.4 467.7 477.7 496.2 509.3 525.2 531.5 538 561.4 578 599.8 617.4 637 640.5 653.4 667.9 669.4 667.8 654.3 652 644.8 640.2 637.2 639.4 643.6 640.8 642.9 650.1 657.8 660.2 666.8 663.6 661.6 650.2 636.3 624.2 620.2 622.4 616.4 606.8 590.6 573.5 563.9 551 536.7 522.6 504.8 486.8 476.6 462.6 453.7 454.3 436.2 413.6 396.2 380.8 364.8 345.1 332.1 331.1 324 321 323.1 313.9 294.2 272.3 251.2 244.9 232 220.7 211.2 201.6 193.9 188.7 186.3 173.5 163.7 154.1 141.6 143.2 144 136.7 138.8 136.5 132.7 126.8 120.5 124.2 126.4 130.7 145.2 167.9 180.8 178.3 173.6 179.2 189.6 201.1 221.7 246.3 274.8 303.3 306.3 328.6 339.7 325.8 320.7 285.5 270.9 252.4 233.5 213.5 196.7 193.5 196.7 176.2 169.2 168.3 169.5 174 187.7 197.8 210.4 230.7 247.3 255.6 261.9 268.4 294.8 319 333 315.6 306.5 307.8 304.2 297.4 288 287.7 279.2 270.6 259 251.4 243.9 239.5 238 234.9 232.6 229.8 228.7 228.7 228.7 228.7 231.6 235.9 239.7 244.7
81 95.1 111.1 117.8 130.3 142.8 158.2 165.3 169.2 178.8 195.4 214.4 226.8 236.4 246.1 247.4 244.1 255.6 262.7 268 277.6 279.2 284.2 285.4 291.1 296.8 306.7 317.7 316.7 315 314.7 319.3 323.2 327.2 334 343.2 353.5 363.3 370.4 392.1 405.3 422.9 451.9 475.7 486.4 493.5 507.5 529.4 541.5 554.9 567.5 573.1 586.6 603.7 626.9 634.5 649.7 653.4 663.3 665.2 659.2 643.5 637.6 637.1 630.6 626.2 624.1 623.4 628.2 624.5 631.7 640.7 648.3 655.7 657.9 647.7 638.1 627.3 616.7 597.2 615 613.9 602.2 593.9 578.2 561.4 549.5 536.5 521.9 501.4 483.8 467.3 453.5 439.1 428.9 424.2 420.7 407 382.1 362.4 345.7 328.2 312.6 305.5 299 294.4 296.4 285 271.8 255.6 239.8 221.3 212.2 202.9 192.1 182.6 174.1 167.9 164.6 155.5 149.9 136.6 126 125.5 121.4 123.6 124.7 122.5 119.6 111.1 114.1 118.9 116 123 130.3 139.1 144.8 149.1 154.3 160.6 169.9 181.2 200.4 219.4 246.1 275.4 277 279.2 301 289.8 291.3 267.9 242.4 230.5 211.3 192 184.3 180.7 182.4 171.2 168.3 168.5 179.7 192.4 208.3 221.7 249.5 263 286.4 287.5 290.3 298.3 318.3 343.5 338.7 320.3 322.1 320.9 315.9 306.4 301 298 294.2 279.4 268.3 257.1 250 245.1 241.7 237.1 234.8 232.9 230.2 229 228.7 228.7 228.7 231.5 231.7 233.7
101.2 120.4 131.1 140.3 151 168.5 188 198.8 201.3 209.7 229.4 239.5 247.8 254.4 263 267.3 266.4 270.1 274.3 285.7 295.5 306.1 309.1 314.2 313.4 316 323 331.1 336.4 335.6 340.9 343.6 348.1 358.6 368.2 381.3 386.7 393.7 399.6 416.5 431 453.2 472.9 493.8 505.8 519.1 535.7 556.6 571.5 584.9 596.9 605.7 619.2 626.2 632.5 645.4 660 666.4 667.1 653.7 639 627.2 619.1 614.7 612.1 604.9 603.2 609.3 610.1 608.7 619.4 632.6 650.8 649.6 645.8 634.8 623.3 607.3 592.7 594.5 608.6 598 591.4 585.5 572.1 552.5 539.4 525 502.3 479.7 463 444.9 429 415.2 405.4 391.8 382.1 377.6 367.6 349 326.1 314.9 297.1 281.3 274 271.3 272 261.2 248.6 231.8 219.5 211.7 192 183.3 173.9 164.5 155.9 149.8 148.5 147 138.9 122.9 111.9 112.8 111.3 113.4 110.9 105.4 102.3 117 132.2 134 126.1 119.8 120.9 124.3 128 133.8 139 146.3 156.6 169.1 179.7 204.2 264.4 259.3 246.1 241.8 258.8 267.1 246.1 230.9 216.1 197 190.1 174.6 173.8 168.3 168.9 168.2 166.9 170.3 187.5 210.7 234.6 248.9 280.7 300 312.8 323.2 325.5 338.1 361.1 375 362.5 329.9 338.3 344.4 336.3 322.7 315.5 314 313.6 293.2 280 265.2 257.7 252.7 247.9 243.5 239.9 236.2 237.9 234.7 230.3 228.7 228.7 228.7 228.7 228.7
127.1 140.3 150.5 166.1 177.5 188.6 205.8 220 223.4 231.2 245.6 261.5 267.6 273.1 285.3 289.2 286.1 277.8 287.5 302.9 312.9 325.2 331.1 331.3 336.7 342.5 345.6 352.6 360.9 360.9 364.4 367.3 377.2 389.6 402.4 416 420 426.7 436.1 449.9 462.5 484.3 504.6 521.1 532.1 544 561.4 583.3 595.2 605.5 614.5 624 634.3 643.5 652.1 659.6 658.4 662.7 646.7 634.5 623.5 612.5 603.3 600.1 598.5 591.1 587.9 591.9 594.6 600.1 616.2 629.1 635.1 639.2 627.5 617 606.8 589.7 577.5 592.4 591.4 578 585.4 574.9 560 549.6 531.9 502.4 475.3 458.6 440.7 425.9 411 398.4 384.2 369.4 354.7 341.8 334.4 327.4 314.6 293.2 281.1 268.7 252.3 247.1 242.4 238.7 223.1 210.9 202.7 193.2 186.6 165 157.5 146.8 139.9 143.9 144.1 139.6 126.2 108 105.9 104.5 102 99.6 94.6 96 117.2 132.5 149.9 152.3 142.5 132.8 127.6 124.3 124.7 124.3 126.3 132.3 139.6 151.9 162.4 182 224 222.6 219.8 207.8 217.2 243.3 230.8 209.4 195.7 178.1 168.7 164.5 166.7 169.2 168.5 169.2 176.3 183.2 211 263.6 268.1 279.3 333.5 339.1 377.4 369.8 364.2 385.3 398.2 394.4 368.2 343.2 367.5 371.7 353.5 339 330.4 330.6 331 303.4 289.5 274.7 265.4 258.6 254.3 250 245.4 241.9 241.1 238.6 232.6 230.5 230.4 228.7 228.7 228.7
151.3 158.9 174.8 190.4 198.3 205.4 219.4 238.5 246.7 254.5 262 271.5 279.8 293.9 302.8 302.5 301.5 297.5 304 314.6 328.6 340 347.1 355 364.4 369.2 369.4 376.2 385.2 388.1 386.7 393.9 404.2 417.6 432.5 441.8 447.7 459.3 471 482.8 500.4 522.4 535.7 545 551.7 568.9 588.5 602.3 610.1 618.7 625.8 634.1 646.3 652.5 657.2 651.2 649.2 636.7 631.1 619.2 604.3 596.4 589.9 586.1 584 580.4 579.1 577.8 580.1 586.1 603.1 612.6 617.4 619.1 614.9 601.8 585.5 577.3 570.4 579 572.4 577 570.7 558.9 550.5 538.7 517.7 486.7 452.2 440.3 422.8 406 395.2 380.5 365.2 350.7 335.3 321.1 307.5 296.8 286.5 274.2 263.9 252.3 238.6 227 221.5 214 202.4 192.9 183.6 174.3 168.5 155.9 142 134.4 133.2 135.6 136 129.9 112.5 98.8 95.8 95.6 88.7 76.1 99.6 107.7 122 139.7 160.8 170.1 159.7 144.9 138.8 134 132.6 132.6 131.9 129.2 127.9 134.7 145.1 157.7 169.5 191.7 189.7 183.6 185.7 212.8 213.3 196.9 179.7 167.3 164.2 166.2 171.5 175.2 181.3 187.4 199.2 205.2 260.5 306.7 311.8 325.5 375.4 397.2 415.5 403.9 425 424 424.4 396.1 372.2 361.8 386.5 395.1 380 359.1 345.1 340.1 332.8 320.4 300.3 281.6 276.2 268.4 262.1 256.3 252 250.3 248.2 242.7 236.6 232.8 230 228.7 228.7 228.7
176.2 186.2 206.4 216.1 222.1 229.4 241.2 253.6 260.8 268.4 284.7 295.1 301.1 305.7 308.1 312.7 314.7 320.2 323.5 331 338.2 348.9 360.4 366.4 378.2 382.4 387.2 391.6 398.6 404.2 406.8 417.2 433.7 444.9 459.4 469.6 481.4 492.6 508.9 525.2 540 552.7 554 557.1 566.5 594.6 607.1 614.2 620.7 632.1 635.4 639.3 650.6 655.2 651.6 639.1 632.1 620 610.3 595.6 579.7 578.3 575.4 571.8 569.5 569.1 570.4 572.1 577.2 579.8 590.9 608.3 609.6 606.4 589.8 582.6 567.5 551.8 562.8 562.5 571.9 561 546 552.5 541.5 521.4 495.8 469.2 442.5 405.1 403.9 386.9 371.8 358.1 345.4 333.3 315.3 295.1 280.4 274.3 264.6 254.1 244.9 236.6 227.3 205.5 202.2 193 183 173.9 163.5 153.2 148.1 142.4 129.7 129 129.1 127.9 129.5 114.8 97 87.5 89.5 80.6 75.1 88 100.7 112.1 123.1 140.3 161.8 177.2 170.7 154.4 146.5 142 140.6 140.6 138.1 135.9 134.8 133.8 131.7 140.1 145.8 156.1 161.7 162.5 168.1 185.9 201 182.7 166.9 164.6 169.3 172 183.5 186.4 193.5 201.2 207.5 227.7 262.9 338.9 364.1 348.4 410 449.9 462.6 442.2 471.4 465 436.9 410 375.7 378.4 405.4 410.8 391.5 368.6 359.3 351.8 341.8 332.5 309.1 299.2 291.3 286.3 274.5 268.5 261.9 257.7 254 246.2 239.7 235.4 232.6 231.4 229.1 228.7
188.7 206.2 228 231.9 239.1 250.3 261.4 269 281.4 294.1 304.8 311.9 317.9 322 328.1 333.6 337 340.2 351 349.1 354.5 360 368.6 376.4 384.7 396 409.3 413.8 420.2 422.4 432.4 442.4 459.7 474.9 486.9 496.4 505.5 520.8 538.6 547.9 557.4 568 568.7 570.7 579.8 600.6 614.4 615.6 622.7 636.9 640.3 640 647.9 652.1 645.1 626.2 614.4 606.4 587.7 570.4 565 560.8 558.7 556.4 554 552.4 553.2 561 563.3 582.8 591 589.8 596.2 583.2 568 564.3 548.2 542.5 555.9 564.6 554.2 539.1 532 533.8 523.5 502.3 476 451.9 428 403.5 365.3 356 348.1 336.1 324 308.6 289.3 268.4 256.4 250.2 245 237.7 226.4 220.1 207 187 178.6 171.8 165.1 154.1 143 133 126.7 123.1 125.8 129.8 133.3 123 110.4 97.1 87 83.7 75.6 74.2 82.5 87.3 95.4 105.5 116.8 130.4 144 161.7 163.1 162.4 153.3 150 154.3 159.1 148.2 143.6 142.8 143.1 139.2 137.7 137.6 137.1 139.3 146.4 157.4 180.9 198.3 177.3 161.2 169 175.9 185.4 193 198.4 205.6 214.9 224.1 245 270.9 323.8 400.1 391.8 436.2 483.2 494.2 487.3 499.2 485.6 448.2 411.6 381.8 392.4 417.1 421.8 407 390.4 378.9 372.7 360.4 338.3 322.5 318.3 309.6 296.5 286.9 281.8 271.4 265.4 262.2 258.6 247.5 244 238.1 235.5 232.8 233.2
214.8 228.4 242 248.6 254.1 264.1 276.4 291 304.7 314.9 327.2 330.1 330 337.5 342.3 350.8 354.9 361.6 367.1 374.5 370.5 387.6 393.5 391.8 400 412.1 422.5 430.8 435.9 445 454.2 467.4 482.8 498.6 506.9 515.1 531.8 548.3 554.7 557.9 572.6 577.8 576.8 580.5 587.4 599.9 612.7 615.7 616.4 632.2 630.1 640.3 640.2 639.4 634.4 615.5 608.9 589.2 575.1 563.3 550.6 541.6 540.3 534.6 538 537.5 540.8 552.2 565.2 575.4 579.1 581.2 576.2 565.7 556.3 546.8 535 534.2 554.9 560 540.8 527 524.3 520.3 507.4 488.8 457.4 433.3 412.9 389.9 367.7 328.3 319.1 303.4 292.1 280 259.8 240.9 233 228.2 223.1 216.3 211.5 203.8 192.5 180.5 162.8 150.4 144.8 133.6 123.1 117.6 112.1 112.8 121.9 133.6 131.4 115.2 101.5 88.8 81.8 70.6 74.8 79.2 81.3 85.5 92.9 100.3 110.3 125.6 138.9 151.2 160.6 169.7 167 160.8 161.2 160.8 157.9 152.9 149.6 149.6 149.6 147.9 147.7 146.6 146.4 144.5 146 161.4 190.2 173.4 166.6 176.8 187.2 194.9 208.5 214 221 233.4 248.1 266.9 303.8 348.7 422.5 443 470.9 514.5 524.2 534.1 527.3 489.6 449.5 420.9 389.9 411.3 435.2 439.8 419.3 413 399.5 406.4 371.6 351.2 333.7 330 321.1 306.3 302.9 296.5 287.2 278.6 271.6 265.1 261.1 256.2 248.8 244.4 240.4 242.6
240.9 260.3 268.9 274.3 281.3 284.9 291.2 303.5 321.6 336.6 341.8 345.1 349.4 353.2 356.5 364.9 368 372.8 382 388.9 399.4 414.5 416.8 420.2 428.1 428.6 441.3 449.7 456.1 468.8 482.9 493.8 502.1 514.7 522.4 532.5 549.8 561 565.4 573.1 577 584.3 578.2 582.7 591.3 595.5 608.5 612.5 612.5 617.3 624.1 631.8 632.4 622.2 619.2 607.6 592.5 578.3 561.6 555.9 544.4 535.3 531.8 520.5 517.8 522.6 537.6 549.6 564.9 578.1 579.4 570.5 562.9 549.7 547.9 527.4 516.9 531.6 546.6 542 537.1 521.2 520.7 507.8 489.3 469.7 436.9 416.8 397 374.9 354.1 324.4 290.2 272.7 261.6 249.2 232.4 218.7 208.8 202.4 197.5 196.3 191.3 186.4 174.7 161.1 146.3 132.2 124.3 113.8 102.5 99.3 101.4 110.8 122.5 130.7 117.3 105.6 94 84.8 68.8 73.8 77.5 79.5 81.1 85.1 92.5 104.2 117.8 129.7 146.9 160.9 174.5 181.7 185.1 174.6 172.7 174.7 173.1 170.5 170.3 166.5 169.2 170.6 164.1 160.1 160.3 163.7 160.6 155.4 155.1 162.9 174.8 196.7 213 209.6 219.1 229.7 240 258.3 273.6 293.4 327.1 372.3 438.9 485.5 506.2 547.2 553.6 558 534 494 458.9 426.7 396.8 428.3 452.9 449.2 442.2 440.2 427.2 414.5 391.3 368.4 354.4 350.2 337.6 326 317.1 309.1 300.9 292.5 293.3 283.3 277 273.6 265.6 258 258.5 250.5
261.1 276.9 286.8 290.1 298.9 311.6 318.7 330.4 333 344.2 354 357 366 371.1 377.4 381.3 386.4 394 396.7 406.4 418.4 422.5 431.6 443 445 452 464.4 466.1 472.4 484 496.6 510.8 517 528.2 537.6 544.9 563.3 571.8 575.7 582 580.2 581.5 580.1 580.4 590.2 594.6 595.8 599.7 604.9 610.9 614.5 618.1 619.1 610.3 607.9 597.9 579.3 563.7 552.1 544 532.6 523.1 516.3 515 515.4 518.6 529.1 538.9 549.8 558.9 571.6 557.2 543.7 542 527.7 509.8 527.1 534.6 533.1 531.7 530.9 514.7 507.2 489.2 473.7 452.5 422 402.9 381.6 359.1 337.7 313.7 290.5 265.6 232.6 209.9 210.9 200.1 190.1 184 178.9 179 172.7 168 154.5 139.9 126.4 114.7 105.9 97 90.9 91.1 97.3 108.4 121.9 110 101.3 95.5 87 71.9 67.8 74.5 77.8 80.8 83.8 86.5 98.3 110.2 119.2 140.1 155.9 173.3 186 199.4 203 196.1 194.3 196.2 189.6 202.8 198.3 192.7 199 197.4 183 182.8 184.5 181 176 167.8 164.9 165.7 174.7 213.9 229.4 226.8 235 246.5 261.2 276.1 296.8 322.6 359.5 408.6 458.3 510.7 541.1 563.5 575.2 561.8 544.3 500.2 462.8 432.9 418.6 448.6 463.8 470.4 473.2 462.8 448.3 436.1 412.1 389.6 378.9 363.3 341.4 340.2 336.2 329 319.7 315.6 312.7 304.5 295.5 303.2 292.5 279.3 271.6 262
283.1 294.6 305.9 309.4 326.5 335.4 343.2 354.5 354.3 355.7 361.8 370.9 379.1 387.5 390.4 398.4 404.4 410 416.1 426.9 428.7 438.8 451.8 461.7 465 475.2 479.3 482.7 498.2 508.3 515.4 522.9 536.5 545.1 556.1 557.5 572.6 575.1 585.7 585.9 580 576.7 572.7 579.3 590.1 590.6 587.6 594.5 596.7 596.6 602.1 602.9 608.9 606.9 595.2 584.8 567.5 547.9 543.2 535.9 524.4 510.4 503.8 502.5 509 509.6 522.1 527.5 536.3 547 542.8 537.7 530.3 521.5 511 495.7 511.8 520 522 529.1 528.4 510.9 487.5 472 455.8 433.5 407.9 382.7 361.1 341.7 319.9 299.6 282.3 260.4 237.1 215.9 188.1 182.6 175.7 166.8 159.3 157.8 152.7 146.4 136.6 120.5 109.6 99.3 87.9 85 83.9 88.7 93.9 105.1 102.7 91.4 86.3 81 72.3 63.9 71.4 76.6 81 85.2 88.1 95.3 107.2 118.4 128.2 146.3 176 205.7 212 220.3 223.3 231.7 208.4 218.5 219.4 241.3 249.4 220.1 223.3 221.4 212.9 216.1 215.6 206 195 183.4 189.2 189.5 200.8 209.3 229 241.2 255.1 271.3 284.7 304.6 322.7 344.3 383 421.7 474.3 537.6 560 576.3 578.9 566.9 546.4 510.3 478 437.9 442.7 468.9 482.6 496.8 506.3 489.4 466 457 433 402.1 395.8 379.8 369.5 359.7 359.9 363.2 356.5 353.5 336.9 331 325.8 336.4 311.1 299 288.8 276.2
303.1 314.3 324.6 332.3 345.6 354.5 367.4 370 372.4 379.1 381.8 385.3 389.3 400.4 404.8 416 422.2 426.8 440.3 444.3 454 463.8 471.3 475.1 485.9 490.2 490.6 499.8 508.6 522.4 526.7 532.8 546.2 557.9 562.6 558.6 566.7 570.4 578.7 580.2 576.5 570.9 568.9 575 575.9 581.6 580.5 586.9 588.4 589.7 592.1 592.3 598.6 597.7 582.5 567.2 551.5 537.5 524.9 518.8 510.1 495.6 484.6 490.4 500 507.9 510.7 517 520.8 525.5 522.9 519.2 508.3 506.5 494.3 499 506 510.4 519.6 524.4 515.6 494.6 474.2 457.1 439.1 415.6 386.4 364.9 344.2 320.8 304.5 289.3 272.4 251.3 225.3 198.8 185.5 169.7 157 148.2 139 136.2 132.1 125.9 118.1 105 95.2 87.7 79.3 75.8 78.7 84.6 91.8 93.6 90.7 83.2 76 69.6 62.2 69.4 76.2 81.4 88.3 91 94.3 103.8 112.7 122.4 133.9 165.2 198.8 223.1 234.9 241 259.4 260.8 243.3 241.9 250.8 271.4 272.3 250.6 245.7 245.4 233.6 246 239.7 227 213.9 201.2 214.5 216.5 224.3 234.5 236.1 257.3 274.7 299.2 311 330.1 347.8 374.6 405.3 443.2 505.5 559.3 578.8 593.2 580.6 573.8 545.1 506.4 467.5 472.8 477 493.9 510.7 534.3 538.8 514.8 487.7 476.4 454.1 437.5 408.7 397.7 398.5 388.6 392.7 407.7 414.9 388.3 371.4 355.5 359.2 349.8 332.7 324.4 310.9 292
317.5 330.1 340.2 349.9 364.5 378.2 387.4 391.8 392.6 398 400.7 410.1 412 413.9 426.8 438.9 442.2 451 456.4 460.2 478.1 488.3 491.2 492.4 499.7 500.1 505.2 517.6 526.2 533.7 542 545.3 543 550.1 549.7 549 559.5 563.3 574.9 571.4 568.7 558.4 560.7 560.8 567.1 568.8 574.8 579.9 585.3 585.2 585 583.2 583.9 582.4 563.6 545.5 534.2 521.1 509.1 499.8 496.1 481.3 465.1 473.9 484.7 490.9 502.3 502.9 500.7 504.6 503.5 496.8 501.2 492.4 470 497.7 497.9 510 519.3 516.1 498.9 480.1 458.9 443.9 424.7 397.7 363.9 351.1 330.2 310 294.7 279.2 261.2 240.4 211.1 184.3 170 158.6 147.7 133.1 124.3 120.7 113.2 107.8 102.4 92.8 83.6 75.5 69.7 67.4 73.1 79.3 83.5 87 84.1 75.3 67.7 62.8 67.5 75.6 82 88 94.2 98.6 107.4 114.6 121.2 133.6 157.8 183.3 213 238.4 246.2 266.2 289 293.4 275.8 264.9 302.2 298.1 299 287.9 278.8 268.7 264.3 271.1 258.7 242.2 237.8 220.7 254.9 246.7 250.7 253.2 250.7 274.3 292.4 319.5 333.4 354.7 376.2 401.8 430.5 471.3 532 576 593.4 599.1 579.4 557.4 537 506.7 506.1 515.3 518 528.7 546.6 567 559.5 533.4 517.2 496.6 464 450.6 432.8 422.4 427 438 427.6 449.5 443.1 416.6 400.3 392.2 385.7 363.8 362.7 359.2 334.1 314.7
325.8 342.3 360.5 368.3 382.1 396.9 402.2 415.2 417.2 418.4 423.7 429.2 429.5 437.2 455.9 458.4 463 462.7 465.7 476.4 491.2 500.5 503.6 505.1 509.2 516.7 525.6 532 535.4 549.7 549.9 546.1 539.7 537.6 539.2 541.1 544.6 549.1 552.5 555.4 551.6 546.9 549.7 549.8 548.4 558.1 562.1 570.4 579.2 584 583.5 576 576.7 563.9 550.4 530.7 516.1 506.5 489.8 485.4 477.2 469.1 457.7 459.5 471.2 470.5 483.5 483 488.1 485.3 485.3 488.6 491.3 475.4 479.1 493.9 499.3 506 507.4 503.2 483.7 464.1 449.3 432 406.5 377.9 351.4 338.6 317.3 297.8 282.8 267 246.6 223.6 195.8 175.3 155.9 145.9 136.4 125.8 111.7 107.3 105.9 97.9 90.7 79.5 70.4 64.6 63.1 62.1 65.1 69.2 76.2 78.9 76.7 64.4 59.6 67 76.3 83.9 90.3 97.5 103.5 113.7 124.1 128.5 142.1 156.7 175.4 208.8 239.7 256.2 270.5 284.7 306.1 324.8 315.8 287.4 323.9 322 311.4 311.2 309.2 309.9 297 290.8 280.1 274.1 262.3 244 279.5 277.2 275.4 276.9 286.6 299.1 317.3 336.1 359.5 379.2 401.7 428.2 458 498 538 583.3 600.5 596.8 575.4 562.2 564.7 557.2 542.1 559.3 570.4 575.4 587.7 601.1 600 555.8 529.3 505.5 488.9 466.1 456.9 455.7 466.4 491.3 469.7 478.8 464.8 438.3 431.2 417.4 404.7 409.8 398.2 386.8 355.7 329.1
347.8 356.3 371.6 383.9 399.1 410.8 421 430.9 436.3 438.7 442.8 443.2 450.1 462.8 473.4 481 476.7 472.9 481.9 492.2 501.5 506.9 513 514.6 514.2 522.5 535.3 530.4 544 549.4 543.3 540.2 531.8 533.5 527.1 524.8 535.9 538.1 539 543.5 542 540.3 543.1 545.3 539 562.2 557.7 560.3 573.1 574.9 580.8 567 565.2 558.1 541.4 517.6 501.1 488.4 478.3 472.2 461.2 456.7 457 445.3 447.7 451.9 461.1 466.7 470.6 471.5 473.3 485 474.9 458.2 477 499.8 500.4 505.8 503.2 494.3 470.6 452.6 441.7 418 391.2 362 340.9 322.8 302.9 286 269.9 252.3 230.9 207.4 186.1 163.7 148.1 134.8 122.4 111.9 102.6 97.3 98.2 89.2 74.4 65.2 57.6 56.2 56.3 57 57.3 60.7 63.9 64 60.7 61.5 69.8 78.2 84.8 91.1 97.3 107.8 120.5 130.7 136.5 145.7 156.4 172 204.7 238.7 258.8 276.7 297.9 317.6 338.5 348.6 347 311.6 351.8 342.4 335.4 333.7 335.3 337.4 319.6 312.3 296.1 287.6 284 272.5 292.3 298.5 298.2 304.6 318.1 323.9 344.7 366.1 383.7 401.9 436.6 457.5 490.3 540.1 583.7 602 609.2 592.4 586 581.7 585 586.3 572.7 585.5 602.2 612.2 619 626 615.6 568.6 539.3 528.6 518.5 504.5 488 487.6 509.6 542.6 514.3 499.8 486.7 477.4 458.5 448.4 443 431.6 429.9 401.6 369.8 340.9
