ncols 200
nrows 82
xllcorner 450000
yllcorner 483950
cellsize 50
167.7 173.4 182.2 184.4 190 193.7 197.9 206.7 219.4 232.6 244.7 255.7 281.5 304.7 310.2 313.2 312.5 310.7 309.8 307.9 306.6 305.7 304.9 304.6 303.4 301.3 302.1 303.5 303.7 303.1 301.9 300.8 299 298.1 297 296.2 295.8 295.2 294.9 294 293.1 292 290.4 289.5 288.3 286.7 285 283 280.7 278.6 276.3 273.8 271.7 269.7 267.1 264.8 262.4 261.1 261.4 261.2 260.7 260 258 257 255.8 254 253 251.9 251.3 249.8 248.6 248.4 247.4 247.2 245.9 245.4 244.9 244.2 243 241.8 240.7 238.7 237.4 234.5 234.5 233.8 231.9 231.6 231.9 232.1 232.9 233.5 234.2 234.5 234.2 234.6 235.6 236 236.4 236.4 236.7 237 237.3 237.5 236.9 236.5 235 232.6 223.6 214.2 198.1 177.4 160.2 150 145.9 142.3 138.2 132.6 122.7 114.5 103.8 94.1 91.4 92.2 102.1 110.2 119 125.1 129.7 136.7 143.8 148.7 148.6 147.4 163.6 188.6 203.1 210.1 213.6 217.3 220.2 223.1 221.5 224.2 223.2 222.2 220.8 218.6 216.7 210.6 209.7 214.1 215.6 215.8 215.5 213.7 213.7 216.3 217.7 218.8 219.9 219.1 219.2 218.8 218.2 217.3 216.3 215.9 212 202.4 207.8 213.9 215.4 216.1 216.9 216.8 216.5 216.3 216.2 215.9 215.1 213.2 212.8 204.1 185.1 182.3 212.9 217.4 219 220.1 220.6 221.4 221.5 221.3 220.9 220.2 219.3 218.5 215.3 212.2
170.3 165.6 171.4 176.2 185.8 191.8 197.2 205 217.4 231.8 239.8 251.1 276.2 299.1 306.7 311.3 311.8 312 309.5 308.5 306.5 305.3 304.2 303.4 302.3 300.8 300 301.6 301.9 301.4 300.3 299 297.6 295.7 294.9 294.2 293.7 293.3 293.4 292.4 292.4 291.7 290.7 289.9 289 287.5 285.8 284 281.7 279.5 277.3 275.1 272.9 270.5 268.1 265.3 263 260.5 258.8 259.8 259.6 259.1 257.9 256.9 255.8 254.7 253.5 252.2 251.4 249.4 248.2 247.9 247.2 246.8 246.4 244.8 244.5 243.3 242.6 241.6 240.2 238.6 237.2 234.3 233.7 232.4 229.5 229.4 229.7 229.6 230.3 230.9 231.5 232.2 232.9 233.1 233.3 233.4 234.5 235.3 235.6 235.7 236 236 235.7 235.2 234.9 233.3 230.5 221.2 211.7 193.9 174.7 158.6 149.9 146.1 141 135.4 125.4 113.3 105.7 96.8 91.8 91.1 94.6 103.6 110.8 117 123 127.9 132.3 136.2 136.3 141.4 161.4 181.9 196.6 204.8 209.8 213.7 217.7 220.2 221.9 222.8 222.4 221.8 220.5 218.5 216.3 212.4 205.5 210.9 212.4 212.9 212.9 211.1 210.2 212.8 215 216.1 217.1 217.1 217.6 217.4 216.8 216.3 215.4 214.7 213.3 210.7 200.4 208.4 212.7 213.5 214.4 214.8 214.8 214.9 214.5 214.2 213.8 211.4 211.2 205.2 181.9 187.6 215.1 216.7 218.4 219 219.4 220 219.9 219.7 219.2 218.7 217.9 217 214.4 212
171.9 163.7 171.1 182.3 192 204.8 208.6 213.4 220 230.9 238.6 249.3 272 293.4 302.4 307.6 311.4 311.3 309 308.6 307 305.8 305 303.4 301.9 300.1 298.1 298.7 299.2 298.8 298.1 297 295.6 293.8 292.8 292.2 292 291.8 291.3 291.2 290.5 290.7 290.3 289.4 288.6 288 285.9 284.4 282.3 280.2 278.1 276.4 274.2 271.6 268.5 266 263.6 261.1 258.8 257.7 257.9 257.7 256.9 256 255.2 254.2 253.4 252.6 250.4 248.6 247.8 246.9 245.7 245.4 244.8 244.5 243.4 242.8 242 240.8 239.4 238.4 236.7 234.1 232.7 228.7 227.3 227.3 227.2 227.2 227.6 228.3 229 229.2 230.1 231.2 231.7 231.5 231.5 232.8 233.8 234.1 234.6 234.5 233.7 233.5 233.2 232.9 231.4 227 217.9 210.1 190.4 170 156.1 147.3 141 135.2 126.1 119.5 113.9 109.4 97.3 91 90.3 94.1 102.5 109.6 115 119.3 124 125.4 128.6 139.3 155.4 168.1 187.6 198.5 206.1 210 214.3 217.4 219 220.2 221.2 220.3 219.8 217.9 216.2 213 205.7 205.4 209.3 210.1 210.5 208.7 207.4 209.6 212.1 214.3 214.9 214.1 215.5 215.9 215.4 214.7 214.6 214.1 212.4 210.9 209.2 198.2 206 211.8 212.9 213 213 212.6 213.2 212.9 212 210.4 209.7 200.4 170.5 198.9 213.7 215.3 217.3 217.7 218.2 218.5 218.4 218.2 217.7 217.2 216.1 215.1 213.6 211.1
170.5 162.2 170.8 182.5 192.7 205.3 211 212.6 218.3 227.5 236.1 246.6 264.5 289.6 299.7 304.2 309.3 310.6 308.8 308.3 307.3 306.3 305.3 303.9 302.4 301.1 300 297.7 295.7 295 294.8 294.2 293 291 289.7 289.7 290.1 290.3 290.2 289.3 289.1 289.3 288.7 288.2 288.3 288.1 286.3 285.9 283.8 281.2 279.4 277.3 275.3 272.6 269.9 267.1 264.4 261.7 259.3 257.1 256.3 256.2 255.4 254.5 253.9 253.3 252.5 251.7 249.9 247.9 246.8 246.2 244.8 244.6 243.7 243.2 242.6 241.1 240.2 238.6 237.6 236.2 234.9 233.6 231.8 229.3 225 223.6 223.5 223.7 225.2 225.9 226.1 226.4 227.4 228.4 229.4 230.2 230.5 230.8 231.8 231.9 232.6 232.3 232.5 232.4 232.1 231.4 230.5 229 224 216.1 201 182.8 166.3 153.7 143.9 139.3 134.6 129 120.5 119.8 108.3 95.1 90.8 90.6 94.6 101.3 107 111.2 115 114.7 121.6 133.8 148.3 163.2 175.5 188.4 200.1 206.3 210.9 214.1 216.4 217.7 218.6 218.9 218.5 217.3 215.7 214 209.3 201.5 204.3 207.4 208 206.7 205.8 207.4 209.7 211.5 212.8 213.2 213.4 213.7 213.5 213.3 213.2 213.1 212.1 210.9 210.7 202.4 197.8 207.7 210.8 210.8 210.4 210.5 211 211.5 210.9 210.2 208.5 187.2 174.7 201.4 211.4 213.5 215.7 216.2 216.6 217 217 216.7 216.3 215.9 214.9 213.6 211.4 209.6
169.9 162 168.1 181.3 188.5 202.7 205.2 207.8 214.3 224.2 232.2 242.1 257 281.6 295.5 300.4 307.7 308.8 307.2 306.7 305.9 305.1 303.8 303.1 302.6 301.5 300.4 299 297.2 294.5 292.2 290.2 288.7 286.6 284.5 283.6 286.9 288 288.3 288.2 287.8 287.7 287.3 287.5 287.5 287.1 285.5 285.5 284.3 282.5 279.9 277.3 275.3 273.2 271.2 267.9 265 262.2 259.7 257.1 255 253.1 253.6 253.3 252.6 252 251.4 250.6 249.1 247.6 246.3 245.4 243.9 243.7 242.6 241.6 241 240.1 239 237.8 237 235.5 234.4 232.7 230.6 228.8 226.2 221.2 218.9 220.6 222.1 223.2 223.2 223.6 224.6 226.1 226.7 227.4 228.2 229.1 229.8 230.3 230.6 230.8 231.1 231.3 230.9 230.3 229.5 228 226.5 221.7 212.6 199.2 183.5 166.8 153.3 145.5 141.8 136.6 131.3 126.4 118.2 105.2 90.9 90.4 91.3 92.6 96.9 102.6 104.7 107.6 117.8 128.1 141.2 153.6 166.5 178.9 191.1 201.3 206.8 210.8 213.6 215.3 216.5 217 216.8 216.4 215.1 213.9 211.3 206.9 197.7 203.3 204.7 204.7 204.1 205.2 207.8 210 211.2 211.7 212.1 212.3 212.1 212 212 212 210.8 210.2 209.7 208.5 198.1 197.5 205.5 208.3 207.7 208.3 208.9 209.6 209.3 208.8 207.8 185 175.1 200.6 210.3 212.1 214 214.4 214.5 215 215.2 214.8 214.5 214.2 213.5 212.2 209.8 207.7
171.9 162.3 163.1 175.5 183.3 191.9 195.5 200.5 210.1 220.2 228.8 237.4 247.5 262.7 286.6 297.4 304 306.2 306.9 305.2 304.5 303.5 303.4 302.1 301 300.8 299.9 298.9 297.5 296.1 294.7 293 291.4 289.8 288.8 285.7 276.3 284 285.8 286.1 285.7 286.1 286.4 285.6 286.1 286 284.7 284.4 283.4 282.5 280.5 277.6 275.8 273.2 270.2 268.1 265.6 262.5 260.4 258.9 256.8 254.5 251.5 250.7 251.1 250.3 250.2 249.4 248.1 246.2 245.2 244.4 243.4 242.7 241.6 240.5 239.6 239 238.4 237.1 235.6 234.2 233.1 231.9 230.3 228.1 226.3 223.6 220.2 213.1 218.7 220.2 220.3 220.8 222.6 223.6 224.1 224.6 225.4 226.2 227.1 228.2 228.8 229 229.5 229.6 229.4 229.2 228.5 227.3 226.2 222.9 217.8 211.2 199.8 185.4 171.1 155.6 148.2 143.7 139.1 133.1 124.7 118.5 108.2 96.2 90.2 90.6 91.3 92.2 97.7 101.8 110.9 120.8 132.7 145 156.7 168.3 180.2 195.1 202.3 207 210.9 213 214.6 214.9 215 215 214.4 213.5 211.7 209.2 204.2 195.6 201.5 202.1 200 203.2 205.6 208.4 209.5 210.1 210.6 210.9 210.9 210.9 211 210.7 209.8 209.8 209.2 207.9 204.3 194.8 197.8 205.4 205.1 205.3 206.9 207.7 207.6 207.5 206.7 187 167 198 209 210.8 212.2 212.5 212.5 213 213.3 213 212.7 212.5 211.5 210 208.6 206.1
176.2 165.1 159.8 165.8 174.6 180.3 188.5 193.5 202.5 216.1 225.1 233.1 243.6 254.9 275.4 292.5 301.6 304.6 304.5 303.6 302.5 301.7 300.8 299.8 299.3 299 298.5 297.6 296.5 295.3 294.1 293.1 292 290.6 289.1 287.4 284.3 265.4 282.9 284 283.6 284.2 284.9 284.4 284.7 284.6 284.2 283.6 282.6 281.7 280.5 278.2 276.1 273.8 270.9 268.3 266.5 264.7 263.1 261.2 258.3 256.6 254.1 251 247.9 247.5 248.3 248.2 246.6 245.1 244 243 242.6 241.6 240.5 239.5 238.4 237.2 236.3 235.8 234.9 233.7 232.3 231.1 229.9 228.5 226.4 224.7 222.3 218.7 202.3 216.7 216.7 219.1 220.4 221 221.4 221.8 222.5 223.2 224 225.3 226.4 226.9 227.4 227.6 227.4 227.2 226.8 226.4 225.3 223.9 222 216.9 210.5 197.6 184.1 171.4 160.5 153.8 148.9 141.1 134.3 128.2 125.1 115 107.1 99.3 90.4 90.2 91.6 94 99.2 110.6 122.1 132.8 144.6 156 167.7 182.5 195.7 203.3 207.5 210.1 212.3 213.5 213.9 213.7 213.2 212.2 211.4 209.6 207 201.1 194.9 198.3 197.1 201.3 204.4 206.6 207.5 208 208.5 208.9 209.4 209.9 209.9 209.5 209.5 209.4 208.6 207.4 205.7 201.8 192.5 197.5 203.1 202.6 204.4 205.5 205.8 205.8 204.9 186.7 166.1 193.2 207.9 209.3 210.4 210.5 210.5 211 211.4 211.2 210.8 211 210.1 208.6 206.7 205
181.1 170.3 160.1 158.5 165.6 174.7 181.2 190 200 211.5 221.5 231.7 241.3 250.1 274.2 288.3 299.4 302.6 303 301.8 300.7 299.8 298.9 298 297.5 297.2 296.7 295.9 295.1 294.6 293.8 292.8 291.6 290.5 289.4 288.2 286.6 278.9 256.3 264.7 278.5 282.7 283.5 283.3 284.1 283.3 282.5 281.9 281.1 280.4 279.5 278 276.3 274 270.8 268.9 266.6 264.7 263.1 262 260.1 258.4 255.6 253 250.5 247.1 243.8 245.1 245 244 242.9 241.7 241.3 240.3 239.2 238.3 237.1 235.8 235.2 234.5 234 232.9 232 230.8 229.3 228 226 225.1 222.8 220.5 213.5 189.1 193.1 217.8 219.3 218.9 218 218.1 219.2 220.3 221 222.2 223.4 223.9 224.5 225.2 225.2 224.8 224.3 223.9 223.5 222.4 220.4 219.4 216 206.3 192.7 182 172.1 164 159.3 152.3 143.6 136.9 131.2 125.9 122.8 111.1 100.8 91.4 89.5 89.4 89.2 92.8 107.3 121.3 133.8 144.2 155.3 167.5 184 199.2 204 207.4 210.1 212.2 212.7 212.5 211.9 211.6 210.5 208.7 207.3 204.3 198.5 192 193.6 198.8 202.2 204.2 205 205.7 206.2 206.8 207.4 207.9 208.4 208.6 208.8 208.9 208 207.2 205.6 204.1 200 187 194.9 199.5 202.2 203.3 203.6 203.9 203 186.1 165.2 187.6 205.6 207.5 208.3 208 208.2 209 209.5 209.2 209.3 209.3 208.4 207.3 205.6 203.7
186.6 177.3 165.4 157.8 159.4 170.7 178.3 188.7 199.6 210.4 221.2 229.5 240.6 249.7 272.3 287.3 297.5 301.6 300.8 301.1 299.6 298 297.1 296.3 295.6 294.7 293.7 293.5 292.7 292.7 292.4 291.6 290.9 290.3 289.5 288.4 287.2 285.6 277 258.8 243.9 265.2 281.8 282.1 282.3 281.4 280.9 279.7 279.6 278.8 277.9 276.4 275.4 272.8 271.2 268.6 266.3 265 263.5 261.8 260.4 258.8 257.2 254.8 252.2 249.7 247.3 243.8 240.6 241.3 241.7 240.3 239.4 238.4 237.3 236.2 235.5 234.2 232.8 232.5 232.3 231.6 230.9 229.8 228.6 227.3 225.2 224.5 222.3 220.1 215.6 190.8 173.2 204.6 214.8 215.7 215.8 215.7 216 217.2 218 219 219.9 220.8 221.8 222.3 222.6 222.3 221.9 221.3 220.7 220.2 218.4 217.5 215.6 214.2 204.1 193 184 174.4 168.6 163.5 156.9 146.7 140 135.4 130.8 125.3 115.9 104.9 96.5 89.9 89.3 89.2 90.9 104.8 123.3 135.2 146.1 157.6 174.9 192.9 200.3 205 208.3 210.6 211.5 211.7 211.6 211 209.8 208.7 207 205.3 202.9 197.9 188.4 193.4 196.5 199.7 202.3 203.1 204.6 205.3 205.9 206.5 206.6 206.8 207.1 207.5 207.2 206.6 205.7 204.3 202.3 196.8 189.2 196.4 200.1 201.8 202.1 202.3 200.8 188.5 162.1 186.9 204.2 205.5 206.2 205.3 205.7 206.7 207.3 207.6 207.9 207.6 207.1 205.6 204.3 199.1
186.2 178.1 164.9 156.4 157.2 166.9 178.4 188.2 199.1 210 221.1 228.5 239.8 252.2 275.3 287.9 297.5 299.7 299.8 299.8 298.9 297.1 295.5 294.3 292.7 291.9 291.1 291 290.5 290.7 290.1 289.8 289.2 288.5 288.5 287.9 287 286.1 284 275.8 250.5 243.4 271.9 281.4 281.7 280.5 279.7 278 277.6 277.2 276.2 274.5 272.5 270.8 269.7 267.6 265.7 263.5 262.6 261.4 260.2 259 257.1 255.5 254.5 252.6 249.9 246.7 243.5 239.2 236.2 236.9 236.4 236.4 235.3 234.2 233.7 232.6 230.6 230 230.2 229.9 229 228 227.3 225.6 224 222.5 221.1 219.5 215.4 188.4 161.6 185.4 207.3 211.9 211.5 209.6 214.6 215.3 215.6 216 216.5 216.8 218.3 219.1 219.3 219.4 219 218.4 217.8 217.3 216.5 216.8 215.5 213.6 210.6 204.9 197.4 186.7 179.8 172.9 167.2 160.3 151.3 142.8 138.1 132 124.1 114.3 105.5 99.2 89.9 89.3 89.6 91.6 109.7 125.4 138.8 149.4 165.9 183.5 196.6 202.7 207.3 209.8 210.6 211 210.5 210.2 209.4 208.6 207.1 205.4 204 201.1 197.6 188.4 191.2 194.1 198 201.1 202.4 203.4 204.1 204.6 204.8 205.2 205.6 206 206.4 205.8 205.4 204 202.2 199.2 186.9 192.7 198.4 200.6 201.1 200.5 199.1 181.6 162.3 185.8 202.5 203.8 203.1 202.9 203.1 204.5 205.1 205.4 206.2 206.1 205.6 204.7 201.9 201.3
185.1 175.6 162.6 155.4 156.3 168.1 178.8 187.9 198.4 208.3 219.3 228.7 241.1 256.5 276.8 289.7 295.8 300 299.8 299.8 298.9 297.6 296.1 294.1 292 290.6 289 288.6 288.8 288.7 287.4 286.9 287.1 287.1 287 286.4 285.7 285.1 283.6 280.8 257 228.5 252.1 278.9 279.7 279.1 278.3 277.5 276.7 275 273.8 272.6 270.6 266.9 261.5 250.7 251.6 258.6 259.9 259.5 259.3 258.9 257.2 256.2 254.6 253.1 251.1 248.7 246 242.9 240.2 235.9 232 231.1 231.8 232.6 232 230.7 228.5 227.4 228.3 228.3 227.3 226.5 225 224.3 222.7 221 219.5 218 208.9 185.3 158.1 167.2 194.6 202.5 198.4 204.9 209.4 211 211.7 213.1 212.6 213 214.6 215.7 216 216.3 216 215.4 214.6 213.8 212.9 212.8 212.1 210 207.9 205.2 203.9 198.6 188.7 180.4 174.7 169.9 163.8 154.6 145.3 137.7 128.7 120.5 112.3 103.8 96.5 89.2 89.5 89.8 98.1 116.4 130.5 142.8 157.7 175.9 193.4 199.8 205.4 207.5 208.9 209.3 209.6 209.3 208.6 207.9 206.9 205.9 204.7 202.4 200 196.7 186.3 187.9 191.8 197.8 199.9 201.2 201.9 202.7 203.5 203.9 204.3 204.7 205 204.7 204.2 203.4 201.6 198.8 190.4 187.3 196.9 199.5 200.4 199.4 197.4 177.2 163.1 186.4 200.5 201.8 201.7 201.1 199.7 202.4 203.3 204 204.6 204.5 204.1 203.1 200.7 199.5
184.3 171.9 158.8 153.3 155.2 164.1 176.4 186 196.6 208 217.6 230.5 245.5 262.1 280.8 288.7 297.1 300.2 300.6 300.6 300.3 298.5 296.9 295.4 293.8 291.8 289.2 287.6 288.9 288.2 287.7 285.8 286.1 285.2 285 284.5 284 283.5 282.1 280 261.1 230.6 235.5 257.8 276.4 276.4 276.2 275.3 274.7 273.6 273.1 271.6 270.4 267.9 261 250.6 237.8 235.2 238.6 247.1 256.8 258.3 257.4 256.8 255.4 253.6 251.4 249.1 246.6 244.8 241.9 239.6 236.9 233.9 228.8 227.1 229.5 229.3 227.4 224.8 226.5 227.2 225.9 224.4 222.9 221.6 220.4 219.1 211.5 203.4 190 175.3 153.3 157.2 177.6 192.5 185.7 194.9 204.2 204 206.5 208.2 207.9 208.8 210.8 210.3 212 211.9 211.7 211.1 209.9 209.3 208.6 207.6 207.4 206.6 205.6 202.9 200.7 201.1 194.4 187.2 178.8 174.1 170.7 165.3 156.2 145.6 135 123.6 116.3 107.9 100.8 91 89.3 89.5 90 103.1 125.7 137.5 152.4 169.5 186.3 197.4 202.9 204.7 206.5 207.6 208 207.9 207.5 207.1 206.4 205.7 204.8 203 201 198.7 196.1 184.7 187 194.4 196.9 198.7 200 201 202.3 202.8 203.1 203.4 203.4 203.5 202.9 202.3 201 198.6 191.8 181.3 195.3 198.5 199.4 198.1 195.6 172.4 160.4 188.1 198.3 199.4 200 199.1 198.5 200.8 201.5 202.2 203.1 203 202.4 201.5 199.5 197.8
177.2 164.3 154.4 152.5 156 164.7 176.9 186.8 197.6 209 218.3 231 245.5 264.7 281.3 291.1 296 300.8 300.8 300.7 300.2 298.4 297.2 295.6 294.1 292.4 289.8 286.3 286.7 287.4 286.8 286.1 284.7 284.1 282.7 282.7 282.1 281.2 279.9 276.8 266.5 235.8 219.6 237.4 253.6 264.5 271.1 270.8 265.6 260.2 258.7 257.9 266.9 268.2 266.7 264.6 255.2 240.4 226.9 223.4 238 256.5 257.9 256.9 255.7 253.8 251.5 249.1 246.3 244.6 242.7 240.7 238.2 235.5 232.6 228.7 223.5 226.1 226 223.1 224 224.9 224.3 222.9 221.5 218.4 211.7 198.1 184.4 175.3 166.3 156.7 146 146.9 164.8 177.9 171.2 180.3 188.9 191.9 196.3 196.9 201 203 203.9 205.7 206.4 206.8 206 205.2 204.4 203.7 202.1 200.3 198.4 197.2 196 194.8 192.9 192.4 193.5 192.6 186.3 178.5 174.8 171.7 164.8 153.6 141.4 126.3 118.7 111.1 104.1 99.6 94.2 88 88.7 94.6 119 131.8 148.1 163.7 181.7 194.8 200.2 202.7 204.6 206.1 206.5 206.9 206.2 206.2 205.2 204.6 203.9 203.4 201.8 199.8 197.7 195 179.6 187.9 193.8 196.2 197.9 199.8 200.9 201.5 201.8 202 201.9 201.9 201.7 201 200.1 197.4 190.3 177.2 193.8 198.1 198.6 197 194.1 174.2 153.8 185.5 196.5 197.1 197.5 196.2 196.9 199.7 200.8 201.5 202.2 201.9 201.4 200.7 198.3 195.8
167.8 157.1 151.7 151.6 157 166.7 178.4 188.9 199.4 211 222.4 233.5 246.3 265.4 282.4 292.7 296.8 301.2 300.7 300.1 299.6 298.2 296.7 295.3 293.8 292.3 290.3 287.8 284.7 285.1 285.5 285.1 283.4 282.2 280.8 280.5 279.9 279 278.3 275.3 272.6 241.2 215.1 217.4 227.9 236.3 243.3 242.7 237.4 231.7 227.2 230.8 239.3 249.8 257.8 261.7 262.1 257.4 243.4 220.2 217.4 239 257.2 256.8 255.4 253.2 251.3 248.9 246.3 244 241.9 240.3 238.5 235.7 232.8 229.8 226.4 218.3 223 220.9 221.9 222.5 222.7 221.4 220 208.6 186.7 171.4 159.8 153 148.7 145.2 142.2 140.6 147.8 159.9 150.6 165.2 176.2 179.7 184 186.9 193.5 198.4 201.7 202.4 202.5 202.5 201.3 199.6 195.8 193.4 190.9 189.9 188.6 188.4 186.8 185.3 186.6 186.3 187.5 187.7 186.6 182 177.9 174.1 168.3 158.4 144.7 130.4 120.4 113.6 106.5 100.7 96.7 89.7 88 88.9 114.6 128.8 140 158.4 177.7 191.9 197.3 201 203.8 204.6 205.1 205.7 205.3 205.1 204.1 203.9 203.4 202.6 201.7 200.2 198.6 195.9 188.7 181.8 191.6 194.3 196.9 198.5 199.4 200.1 200.4 200.2 200.3 200.4 200.4 199.7 198.9 195.6 184 177.3 193.7 197.1 197.6 196.5 193.6 176.5 149.6 181.6 193.6 194.2 194.2 192 195.5 198 199.9 200.8 201.4 201.1 200.3 199.4 197 195.3
158.9 152.6 150.4 151.6 160.6 171.9 182.3 191.2 201.6 213.4 225.2 234.8 246.9 266.3 284.5 296.8 295.9 301.5 300.8 300.1 299.3 298.4 296.5 295.4 293.4 292.3 290.1 287.8 284.8 283.8 284.9 284.5 283.4 281.5 280 278 278 277.2 276.1 274.9 271.5 253.3 227.2 208.6 207.7 214.9 217.8 215.2 210.7 204.7 202.6 203.4 208 216.2 226.6 236.9 245.1 251.6 247.7 220.7 203.3 222.2 245.5 255 254.4 252.4 249.6 247.3 245.2 243.4 241.5 239.3 237.2 235.3 232.3 229.6 227.5 225.4 209.8 201.5 203.3 211.5 210.1 209.9 204.2 189.6 166.6 157 162.4 166.3 166.7 167 160.2 151.4 141.4 138.1 138.4 148.3 160.4 166.2 170.2 175.3 183.3 189.4 192.2 194.4 194.1 190.8 189.8 187.9 186 182.7 179.3 176.6 175.1 172.2 169.6 168.2 169 170.9 172.6 173.6 174.2 174.7 172.6 171.4 168.5 160.9 148.1 133.2 121.8 114 109.2 101.9 97.3 92 88.5 88 106.1 122.8 137.1 156.3 174.8 190.1 196 200.1 202.5 203.5 204 204.2 204.4 203.5 203.6 203.4 202.7 201.9 200.6 200.1 198.6 196.3 192.4 174.4 189.6 192.9 195.4 197 197.9 198.6 199 198.7 198.8 199 198.9 198.2 197.3 192.5 175.9 180.1 193.2 196.3 196.4 196 193.5 183.3 153.4 170.2 188.9 191.4 191.5 189.9 194.2 196.9 199 199.7 200.2 199.9 199.4 198.5 196.7 194.4
153.5 150 150.4 154.1 165.8 179.2 190.3 195.6 206.5 216.1 228 237.2 252.7 270.7 286.1 298.8 298.9 302.1 301.3 300.5 299.7 298.6 296.7 294.9 293.2 291.9 289.7 286.9 284.3 283.2 283.8 283.9 282.8 282.2 280.8 278.7 276.2 275.1 274.1 273.3 270.8 267.5 246.6 226 207 199.6 199.9 196.7 194.3 190.9 189.6 189.9 191.1 195 201.6 210.9 216.3 226.1 229.2 218.1 197.6 209 234.4 252.6 252.2 250.6 248.2 246 243.7 242.1 240.3 238.3 236.8 235 232.6 230.4 230 227.1 224.6 221.4 204.3 184 185.3 184.5 178.4 167.9 165.2 178.3 187 191.6 191.3 191.4 183.4 169.5 156.3 146.6 134.6 136.6 142 150.6 156.8 166.9 176 182.1 185.6 186.2 184.8 181.9 179.7 180.7 177.7 171.9 168.2 165.2 162.2 159.9 158.2 156.9 155.2 155.6 156.1 157.6 158.9 158.8 160 160.7 159.2 155 146.9 134.6 121.6 114.9 110.3 105.6 97.8 93 87.7 88 102.9 123.2 138.8 155.8 172.7 188.5 196.2 199.7 201.3 202.6 203.4 202.9 202.6 202.6 202.5 201.9 201.1 200.4 200.2 198.9 197.7 196 192.7 179.8 182.8 190.6 193.3 195.4 196.5 197.4 197.1 197.5 197.5 197.6 197.3 196.8 195.1 191.3 170.3 182.6 193.1 195.2 195.3 195.6 193.7 190.2 162.3 154.2 177.7 189 188.7 186.1 192.9 195.9 198 198.6 198.9 198.7 198.5 197.6 195.5 193.5
149.5 149.2 151.8 158.5 169.5 183.3 194.9 199 208.7 219 230.3 245.5 262.7 279.5 290.5 300.4 302.1 302.5 301.7 300.9 300.3 298.4 296.5 294.8 293.2 291.5 289.3 287.1 284.9 281.4 281.9 282.9 282.9 282 280.7 279 277 274.5 272.3 271.6 269.4 265.7 262.3 247.2 212.6 198.6 194.5 195.3 198.2 197.5 198.3 193.8 190.6 187.6 189.8 197.2 201 203.8 209 205.3 190.8 199.6 223.5 244.9 248.3 246.9 244.3 242.5 240.9 239.8 238.2 236.6 235.3 234.3 233.2 231.3 230.4 228.5 226.6 224.5 222.8 213.9 197.3 185.4 181.5 185.1 191.8 205.3 211.3 209.5 207.9 204.1 196.6 186.7 173.9 163.4 150 137.7 128.6 132.9 138.4 157.3 164.3 172 176.1 175.4 175.4 172.5 167.7 167.4 165.8 163 161.7 157 153 148.9 148.3 145.5 143.2 143.1 141.9 142.1 142.2 140 141 142.6 145.4 145 141.3 133.4 122.8 116.5 111.2 108.4 100.2 93.2 88.1 88 102.4 119.1 135.9 153.2 170.9 185.9 194.9 199.2 200.8 201.8 201.5 202.2 201.8 201.4 201.4 201 200.5 199.3 198.6 197.9 196.5 195.3 193.1 186.2 174 188 191.5 194.1 195.1 195.9 195.7 195.8 195.9 196.1 195.7 195.2 193.7 188.3 163.3 183.8 192.1 193.8 194.5 194.7 193.7 190.9 177.7 149.5 158.8 176.3 184.5 181.7 191.6 194.2 196 196.9 197.3 197.3 197.2 196.4 194.3 192.4
147.8 148.6 152.2 161.3 172.2 184.7 200.9 203.6 212.3 224.8 237 252.9 272.3 284.5 295.5 301.8 303.2 302.5 301.7 301.3 300.2 298.5 296.7 294.9 293.2 290.9 289 286.7 284.3 282.3 279.6 281.7 281.9 281.2 279.3 278.3 276.5 274.7 272.3 267.9 266.7 264 251.7 230.3 206.8 195.5 199.9 207.7 211.8 212.6 211 207.4 202.4 194.8 187.6 187.2 186 188.4 194.7 190.6 184 192.7 209.4 228.3 241.5 241.5 239.2 237.2 236.7 236.1 235.9 234.9 233.6 232.8 232 230.8 230.1 228.9 227.5 226.1 224.5 223.3 222.2 219.4 213.6 216.2 216.2 214.3 212 210 208.2 206.3 202.5 196.7 191.3 178.6 162.6 150.5 138.1 127.5 130.5 140.4 149.6 158 159.9 156.7 156 155.2 148.9 149.9 150.5 146.1 144.2 140.3 134.7 133.5 134.3 132.4 126.3 124.4 125.1 124.3 124 122.6 122.6 125 128.5 132.1 132.2 127 120.2 114 111.4 109.5 102.6 93 88.7 88 98.8 117.8 133.4 151.3 169.4 184.4 194.5 199.7 200.8 201.2 201.2 201 201.1 200.4 199.8 199.7 199.2 198.2 197.6 197 196.1 194.8 193.1 190.2 167.5 183.8 190.3 192.7 193.6 194.5 194.2 194 193.9 194.4 194 193.3 192.1 182.7 161.7 181.5 191.5 192.5 192.9 192.9 192.4 191.2 188.3 165.2 142 156.7 176.4 178.2 189.2 192.5 194 195.2 195.5 195.7 195.6 195.2 193.4 191.5
145.6 147.3 152.6 165.9 177.8 192 204.2 205 214.2 229.4 240.1 253.7 272.5 287.6 300.1 302.1 304 303.2 302.4 301.4 300.4 298.7 297.3 294.8 292.7 290.4 288.3 285.2 282.8 280.7 278 280.9 281 280.2 278.9 277.2 275.5 273.7 271.6 268.6 262.2 261.2 236.1 214.5 204.9 200.5 214.2 227.2 233.8 230.1 227.6 219.7 214.2 207.4 198.5 188 184 181.2 179.6 180.4 179 188.5 205.8 216 222.5 224.8 232.3 230 230.4 231.3 231.9 231.7 231.7 231.1 230.3 229.7 228.7 228 227.1 225.7 224.5 223.6 221.7 220.5 218.6 217 214.9 212.8 210.5 208.1 206.3 204 203.2 199.9 194.1 189.2 176.2 160.6 147.1 134.6 124.8 128.8 137.2 142.5 143 144.8 142.3 141.1 134.2 133.1 131.4 127.6 124.8 120.5 114.5 113.9 113.8 109.5 107.5 105 104.1 104.8 104.9 104.9 106.2 110.1 113.4 113.5 116 113.7 111.6 109.7 108.7 107.8 104.7 92.2 88 87.8 99.1 118.8 133.1 151.2 169.3 185 195.5 198.7 199.7 200.6 200.5 199.9 199.6 199.2 198.7 198.3 197.9 197.2 196.6 196 195.4 194.1 192.3 189.6 175.6 175.3 186.6 190.7 192.1 193 192.8 191.9 191.5 192.2 192.1 191.4 190.4 176.8 156 179.2 190 191.2 192 192.1 191.5 190.6 189 184.4 161.6 139.5 152.8 172.8 186.3 190.5 191.8 193.2 193.8 194.1 194.5 194 192.4 190.9
146.2 148.4 156.9 171.9 186.6 199.6 206.5 206.6 219.1 231.5 242.8 256.2 274.3 290.5 303.2 303.9 305.4 304.5 303.4 302 300.6 298.9 297.2 294.6 292.6 290.6 288.5 285.7 282.8 280.7 277.3 278.4 279.9 279.9 278.7 277.3 275.4 273.5 271.6 269.2 264.4 243.5 221.2 212.9 206.3 219.8 237.6 248.4 254.6 248.4 242.2 230.2 221.7 214.9 208.7 199.2 191.2 185.5 176.4 173.2 173.7 184.2 196 201.6 206.6 209.4 211.3 214 216.2 222.5 227.6 228.3 228.3 228.3 228.2 227.6 226.8 225.7 225.2 224.1 222.8 221.5 220.8 218.8 216.5 214.9 212.8 210.6 208.5 206.2 204.3 202.5 200 197.5 194.1 187.9 178.3 168.8 158.8 141.4 128.2 120.8 125 128 127.3 124.7 124.7 121 117.8 112.8 111.5 110 112.9 112.2 110.6 110.8 110.7 112.2 111.8 112 110.3 108.2 104.7 101.3 101.2 97.2 97.9 97.4 98.6 99.7 100.1 100.6 102.7 104.4 103.4 93.9 88 87.8 95.8 116.7 133.7 151.1 169.2 186.2 194.1 196.9 198.3 198.9 199.1 199.4 198.7 198.3 197.8 197.4 196.9 196.3 195.6 195 194.3 193.6 191.9 189.6 183.3 163.2 181.8 188.1 189.9 190.4 190.9 190.1 188.8 190.7 191.3 190.8 188.7 178.2 152 176.5 188.4 189.4 190.5 191.3 191 190.3 189.2 187.7 179.5 157.7 137.2 149.9 170.2 186.2 189.9 190.7 191.5 192.5 192.8 192.7 191.7 189.9
147 151.1 163.4 177.9 192.8 207.5 208 210.2 225.6 235.5 247.3 259.7 277.2 292.9 305.2 307.4 306.6 305.5 304.1 302.6 301 299.5 297.1 295.2 292.9 290.8 288.6 286.3 283.6 282 279.2 274.9 278.3 278.7 278.6 277.2 275.7 273.9 272 269.9 266.7 254.1 223.8 213.3 223 241 260.3 259.7 258.1 256 249.5 243.7 235.4 227.4 219.1 210.7 201.6 192.9 184.4 174.4 171.3 174.7 185.8 190 192.6 195.3 193.5 196.3 197.9 205 212.7 218.5 224.1 225.1 224.7 224 224 222.8 222.1 221.3 220.2 218.5 216.3 213.6 212.1 210.6 209.2 207.5 205.4 203.8 201.7 199 195.8 193.1 187.9 182 172 163.8 156.5 146.2 133.9 129.6 120.4 120.7 120.7 121.3 123.8 125.4 125.8 129.9 131.2 132.8 131.6 132.2 132.2 133.4 132.3 131.4 129.7 130.9 128.6 124 119.5 118 114.6 108.2 105.1 102 97.6 95.9 94.9 94.4 94.5 99.2 101.7 95 88.1 88.2 94.7 116.8 135.5 155.2 172.5 188.1 192.6 195.5 197.2 197.6 198.3 198.3 198 197.5 197.1 196.6 196.2 195.6 194.9 193.6 193.2 192.9 191.4 189.3 185.8 168.5 169.6 184.4 187.4 188.8 188.5 187.8 187.5 189.6 190.3 189.2 186.2 173.7 147 176.7 188.4 189.6 190.7 190.9 190.8 189.9 188.9 187.8 185.8 177.1 156.4 136 148.3 172 186.7 188.8 189.9 190.9 191.3 190.9 190.4 188.7
148.5 156.3 168.1 184 198.7 209.7 211.2 217.8 231.2 241.1 253.5 266.4 284.4 300.6 309.3 309.2 307.7 306.7 304.8 303 301.7 299.8 297.1 294.8 292.9 290.8 287.9 285.8 283.9 281.9 279.5 275.7 273.4 275.9 277.4 276.8 275.5 274.2 272.3 269.8 267.4 250.1 221.2 222.7 244.6 261.3 262.2 261.1 259.5 257.5 254.3 251 247.5 237.5 228.9 218.3 208.1 198.2 190 178.4 169.9 167.8 173 176.7 180.7 178.7 181.1 184.3 184.4 186.2 191.6 198.9 207.3 219.9 221.5 220.4 220 218.8 217.3 216.3 214.3 211.5 208.4 206.5 205.5 206.6 204.4 200.5 201.9 200.3 197.3 194.4 190.6 185.5 179.3 170.2 162.8 157.7 151.3 139.5 130.3 123.3 125 130.6 136.2 140.7 144.7 146 147.5 150.5 150.9 150.7 150.8 151.3 149.5 149.2 148.6 148.8 150 149.8 147.1 139.3 134.6 134.2 131.6 124.3 118.7 114.9 110.7 108.6 103 94.4 91.9 90.6 92.6 88.2 87.6 86.8 93.8 116.7 137.8 156 175.9 189.6 193.8 196.3 196.9 197 197.3 197.3 197.3 196.8 196.4 195.9 195.4 195 194.1 192.2 191.2 191.4 190.5 188.9 185.9 177.4 156.5 176.3 184.2 186 186.6 185.1 186.1 188 189 186.7 183.2 162.9 142.5 176.1 188.1 190 190.1 190.2 190.3 189.9 188.7 187.5 186 184.6 176.7 155.3 134.1 155.5 181.9 187.3 188.2 189.2 189.7 189 188.4 187.6
151.7 159.8 172 188.7 202.2 209.4 214 226.3 237.4 248.2 258.5 273.8 292.2 308.4 311.5 310.6 309 307.8 306 304.2 302.3 299.7 297.6 296 293.5 290.8 288 285.6 282.6 280.5 277.7 275.1 273.1 270.3 274.5 275.3 274.7 273.7 271.8 269.2 262.3 236.6 224.1 241.5 262.4 265.3 263.8 261.7 258.9 257.1 254 249.7 246 233.7 219.3 209.3 200.9 192.6 185.8 177.3 173.1 167.2 164.9 164.6 165.7 164.9 168.4 170.8 171.1 173.5 178.5 182.9 190.2 205.3 217.8 216.7 214.2 212.7 208.6 208.3 205.2 198.9 193.5 182.4 179.6 179.1 183.2 186.4 189.3 191 190.4 188.3 183.1 175.5 166.1 160.9 156.8 151.7 140.6 129 124.5 131.1 138.5 150 156.3 157.5 159.6 162.1 164.6 163 163 162.7 165.1 168.9 170 171.9 172.2 171.6 168.5 168.8 165.4 160 156.4 153.2 148.1 140.7 132.7 128 123.6 117.8 110.2 102.1 92.9 90.1 89.2 87.9 86.8 86.2 98.2 120 140.6 160.5 180.4 191.2 194.8 195.9 196.6 197.2 197.1 197.1 197.1 196.6 195.8 195.3 194.7 194.2 193.1 191.8 189.3 188.6 189.2 187.6 185.3 181.6 163.2 165.8 180.2 183.2 184.3 182.6 184 185.3 186.6 184.2 174.1 151.1 147.5 177 187.5 188.9 189 189.2 189.3 189.4 188.9 188.1 186.7 185.2 183.1 168.5 144.7 134.7 158.8 181.9 186.7 187.7 188.2 187.6 187.2 186.5
154.7 163 177.2 191.9 203.3 209.7 221.6 231.1 242.4 252 267.9 282.8 297.2 311.4 312.4 311.5 310.3 308.7 306.8 304.9 302.6 300.8 298.7 296.8 294.3 291.7 289.4 287.2 284.9 283 281.2 279 276.6 273.5 267.8 272 272.8 271.5 270 261.4 239.5 235 251.2 268.4 267.1 265.4 263.8 261.5 258.8 256.3 253 247.8 233.1 218.2 208.4 200.5 192.6 184.9 177.3 175.3 174.9 168.2 169.8 169.6 167.2 160.3 159.3 158.5 159.3 160.3 164.6 172.8 179.6 187 199.6 211 209.3 204.7 199 192.6 187 180.3 171.1 166.2 164.3 162.9 163.4 168.4 171.5 174.5 173.8 174 169.4 163.4 158.7 154.6 150 146.2 130.1 125.8 135.6 147.1 156 163.1 180.3 181.4 177.5 176.7 185.9 179.4 179.1 181.7 182.6 181.7 177.8 180.8 185.1 185.5 185.2 184.1 182.1 177.3 176.1 171.3 164.2 157.1 149.2 141.5 136.5 125.3 113.8 106.5 98.6 92.5 88.9 88 86.7 85.9 100.3 120.3 141.9 165.1 182 191.3 193.5 194.3 195.1 196 196.4 196.3 196.1 196 195.3 194.7 194.2 193.6 192.8 191.8 190.2 187.3 186 186.3 184.1 180.6 170 153.6 170.8 179.2 181.4 179.7 181.4 183.3 183.5 181.7 160.5 137.2 157.4 183.3 186.7 187.8 187.9 188 188.3 188.6 188.3 187.6 186.8 185.7 184 181.4 160.2 138.3 140.3 167.2 182.8 185.7 186.6 186.4 186 185.4
156.5 165.4 179.2 195.9 203.9 212.8 225.6 236.3 245.5 256.4 273.5 290.3 303.9 312.5 312.8 311.9 310.8 309.3 307.4 305.5 303.4 301.7 299.9 298 295.9 293.3 291 288.7 286.5 284.4 282.2 279.8 277.4 275.2 272.6 265.3 263.7 259.8 251.1 255.2 263.6 269.2 269.2 267.9 266.6 265.3 263.3 261 258.5 255.4 250.6 241.4 220.1 205.2 197.3 190 183.9 179.4 178.2 179.1 179.9 179.2 182.4 181.3 179.1 175.3 173.9 169.6 163.7 157.1 156.2 160.4 168 177.2 183.6 189.1 192.3 187.8 181.6 176.4 170.7 163.3 156.8 153.2 148 146.9 151.9 154.1 156.6 157.4 159.1 160.1 160.7 156.7 149 141.6 137.9 130.5 125.8 138.6 148.3 154.8 163.1 179.6 182.2 188.4 193.6 197.6 196.2 195.7 194.8 194 193.5 192.2 190.9 190.2 188.8 187.5 186.5 186.2 185.3 183.9 181.9 179.2 176.8 170.4 163.8 154.6 145.4 133.8 118.7 110.4 105.5 102.6 89.8 87.5 86.3 86.1 101.8 123.9 141.7 167.1 180.6 190.4 191.9 192.9 194 194.4 194.8 195.2 195.1 195 194.8 194.2 193.6 193.1 192.2 191.3 190.3 188.7 184.2 179.9 179.8 176.2 166.4 148.9 161 176.2 178.7 177.1 178.4 181.7 181.5 179.8 152.5 136.6 165.3 181.7 185 186.5 186.8 187.2 187.5 187.7 187.5 186.9 186.2 185.2 184.3 182.6 174.2 150.3 129.9 149.9 178.3 182.6 185.1 185.2 184.9 184.3
158.1 167.5 180.8 197.9 207.5 214.5 227.8 239.7 249.4 260.4 276.9 292.2 305.4 312.3 313.1 312.3 311.2 310.1 308.1 306.2 304.7 302.5 300.5 299 297.3 294.7 292 289.7 287.7 285.6 283.3 280.5 278.4 275.1 271.3 271.1 270.7 270.8 270.4 270.4 270.5 269.5 268.6 266.8 265.7 264.5 263 260.8 257.4 253.7 249.7 232.8 211 200.2 190.1 185.8 187.5 189.5 191 191.9 193.1 194.3 193.5 193.3 191.9 189.3 186.1 180.1 170.9 165.5 158.4 153 158.7 164.4 170.8 176.8 177.6 174.5 168.3 164.5 160.6 155.4 144.7 140.9 138.9 138.6 139.7 138.9 139.1 143.6 145 144 143.7 143.5 137.7 132.8 128.3 131.2 141.7 148.4 155.5 170.1 185.3 194 198.8 197.9 197.5 196.6 196.3 196.1 195.3 194.5 194.3 192.6 192.1 191.4 190.5 188.8 187.7 187.1 186.3 185 182.7 180 176.7 172.9 165.7 157.5 147.6 135.6 123 113.3 108.3 103 96.9 87 85.5 86.7 104.7 122 139.1 163.1 182.2 188.9 190.8 191.8 192.6 192.9 193.3 193.6 194 194 193.8 193.6 193 192.5 191.6 190.7 190 188.6 185.5 182.2 174.5 174.5 169.6 151.7 152.1 170.2 175.1 172.3 176.8 180.8 179.5 177.4 150.6 132.6 158.7 179 182.7 184.2 185.5 186.1 186.6 186.9 186.5 186.1 185.6 184.8 183.9 182.8 180.2 164.7 137.8 133 162.9 180.2 183.9 183.9 183.6 183.3
159.7 169.8 183.8 199.1 209.5 215.2 227.8 241 251.9 263.5 277.5 293.7 305.9 311.4 312.7 312.5 311.6 310.8 308.8 307.6 305.5 303.3 301.1 299.5 297.8 295.2 293 290.9 288.9 286.7 284 281.2 278.4 275.3 274.9 274 273.2 271.8 270.8 271.1 270.3 268.9 267.3 265.5 264.2 262.8 261.1 258.8 256 251.8 237.4 216.4 203.8 194.9 189.5 195.3 199 202.3 204 204.9 207.3 207.8 208.9 204.6 200.8 196.4 191.6 186.1 177.6 170.3 165.8 159.3 153.4 155.1 159.9 164.4 164 161.6 159.6 157.4 153.9 145.7 142.1 143.7 146.3 144.2 141.4 139.5 135.1 132.4 133 131.6 131.7 131.8 129.8 133.9 138.9 144.8 150.4 164.8 178.2 191.1 201.8 201.2 199.7 198.9 198.1 196.8 195.8 195.6 195.1 194.7 194.1 193 192.6 191.9 191 188.8 188 187.1 186.3 185 182.4 178.9 175.5 171.1 165.1 156.1 144.7 132.6 121 110.4 104.3 95 87.3 86.7 85.2 95.7 100.3 114.1 131.2 153 179.1 186.8 189.7 190.8 190.9 191.3 191.7 192.1 192.7 193 192.9 192.6 192.2 191.8 191.3 190.6 189.8 188.3 186.1 183.7 182.1 181.6 178.7 160.2 141.8 158.9 170.9 165.2 175.9 180.6 178.3 176.2 151.8 129.6 152.1 175.8 180.3 181.8 183.3 184.1 185.1 185.5 185.6 185.2 184.8 184.4 183.6 182.6 180.8 175.9 152 129.8 146.3 178.5 182.3 183.2 182.6 182
162.6 172.7 185.4 198.7 208.5 216.8 225.8 239.4 248.7 260.7 276.3 291.5 304.2 310.2 310.8 311.5 311.6 310.9 309.5 307.9 306.2 304.2 301.9 299.8 297.9 296.4 294.2 291.9 289.8 286.9 284.8 282 279.5 278.1 276.9 274.9 273.4 271.6 270.3 269.4 267.5 266.2 263.7 261.4 261.9 260.3 258.2 256.7 254 234.9 218.6 205.8 195.2 195.5 203.1 210.6 214.5 219.5 222.8 223.9 224.4 225 223.8 219.3 211.9 205.5 199.1 192.4 186 179 171.6 168.1 160.6 153 150 153.3 153.7 149.8 147.9 148 145.1 146 151.1 159.7 161.4 159.9 155.1 151 147.3 144.3 143.1 141 142.2 142.1 143.1 148.4 153.1 156.6 172.9 187.7 200.7 204.1 203 202 200.9 199.7 198.4 197.1 195.8 195 194.7 194.3 193.1 192.4 191.9 191.4 190.3 188.4 187.4 186.3 185.2 183.7 181.9 178.5 174.6 168.8 162.5 152.6 139.4 126.5 114.7 104.4 91 86.4 86.4 86.2 87.9 104 116.1 127.7 137.1 141.9 158.4 182.1 187.8 189.2 189.4 189.9 190.4 191 191.6 191.9 191.9 191.7 191.3 190.8 190.4 190 189.4 188.3 186.9 184.7 185 184.2 182.2 169.5 147.9 145.2 161.5 168.3 176.2 180.3 180.4 176 153.6 127.2 143.2 165.2 176.6 179.1 180.4 181.9 183.1 183.9 184.2 184 183.8 183.4 182.8 182.1 180.1 177.4 161.8 135.7 136.8 169.8 180.6 182.6 182.4 181.4
166.9 176.8 187.8 200.2 207.7 214 222.1 235.2 246.1 254.5 266.6 283 298.9 306.9 310.1 311.3 311.4 310.6 309.5 307.8 306.2 304.6 302.1 299.8 298.2 296.6 294 291.8 290 287.8 285.8 283.3 281 279.1 276.3 273.1 269.1 267.3 265.1 262.9 261.2 258.7 257.1 252.7 249.3 245.8 239.4 232.4 226 209.6 203.6 197.5 200.1 209.9 218.6 225.5 235.3 241.7 242.8 242.7 241.8 238.4 234.9 231.8 226.4 222.2 215.1 205.7 195.2 188.4 183 177.2 170.8 164.2 159.3 153.9 150.7 149.4 149.5 151.6 155.5 163.8 169.9 175.7 177.1 175.5 171.2 166.7 162.5 159.5 157.8 158.6 158.6 158.3 159.8 163.7 169.7 187.3 199.2 205.2 204.8 204.2 203.1 201.8 200.7 199.4 198.1 196.9 195.8 194.6 194.2 193.5 192.1 191.2 190.7 190.2 189.1 187.7 186 185.2 184 182.1 181.1 178 173.4 167.9 160.3 146.8 131.5 118.7 106.9 95 86.3 85.8 86.2 85.1 92.4 110.8 129.2 145.6 165.4 171.4 168 169.1 185.4 187.2 188.2 188.8 189.3 189.9 190.4 190.7 191 190.7 190.1 189.9 189.5 189.1 188.4 187.8 187.1 186.4 186.2 185 183.4 179.5 158.8 136.6 145.1 164.8 174.6 178.2 178.8 175.4 154.5 130.8 134.8 158 172.4 174.8 177.3 179.8 181 182.2 182.6 182.7 182.5 182.3 181.8 181 179.1 176.3 165.4 138.5 133.8 159 178.9 181.4 181.6 180.4
168 175.7 186.6 197.8 203.5 209.5 215.3 222.1 235.3 248.8 260 271.6 294 304.2 308.2 311.1 311.2 310.5 309.4 307.8 306.1 304.5 302.5 300.1 297.8 296.5 293.5 291.8 290.3 288 286.4 283.9 281.3 278.4 273.7 272.9 274.1 273.1 271.3 269.6 268.4 267.3 265.7 263.3 259.8 255.3 230.1 211.1 206.8 199.6 197.4 205.8 213 224 233.7 249.1 250.5 249.2 247.5 246.3 244.3 241.6 240 237.7 236.1 233.6 229.8 221.2 212.5 202.6 193.6 187.2 181.7 176.2 173.3 171.6 170.1 168.8 170.3 172.3 176.5 182.3 188.9 193 194 191.8 187.4 182.2 177.3 172.4 171 171 173.8 175.3 178.4 184.5 196.3 206.2 206.8 205.6 204.6 203.8 202.4 201 199.9 198.9 197.3 196.2 195.1 194.2 193.5 192.7 191.1 190 189.4 188.5 187.3 185.8 184.5 184.1 182.8 180.7 179.5 177.1 172.2 166.8 156.6 137.8 121.1 110.4 101.7 87.9 85.9 85.4 85.6 89.7 103.2 121.3 140.7 157.7 177.7 182.9 184 181.8 181.6 185.7 187.3 187.8 188.2 188.8 189.2 189.5 189.9 189.5 189.1 188.9 188.6 188.1 187.4 186.9 186.9 186.5 186.1 185.7 182.7 177.1 156.9 135.2 134.6 152.4 170.5 175 176.5 173.1 155.1 134.2 123.7 145.5 162.4 170.2 174.1 177.6 179.5 180.3 180.6 180.9 180.6 180.3 180.5 179.6 177.8 174.5 161.8 135.9 132.7 154.6 176.9 180.4 180.5 179.7
161.5 168 175.9 186.6 195.5 201 207.5 210.2 218.4 235.1 252.6 262.8 284.4 299.8 307.7 310.3 311 310 308.6 307.8 306.1 303.7 301.5 299.5 297.4 295.9 293.3 291.8 290.3 288.2 286.5 284.4 280.8 276 275.2 277.1 276.6 275.3 273.9 272.7 271.4 270 268.4 265.9 262.7 250.1 228.4 211.9 207.1 210.4 218.4 229.8 239.1 249.6 255.1 254.2 253.2 251.8 250.4 249 247.8 246.2 244.7 243.6 242.1 240.1 237.8 235.1 227.7 221.4 210.8 200 192.9 188.5 187.5 187 186.5 185.9 187.6 189.8 193.2 198.7 206.4 210.5 208.9 205.9 203.8 200.6 199.3 192.4 190.8 188.9 191.4 196.6 200.3 203.6 208.8 208.3 207.2 205.7 204.1 202.6 201.1 199.7 198.4 197.2 196.1 194.9 194.2 193.3 193 191.9 190.3 188.9 187.8 186.4 183.8 175 169.4 170.7 180.7 180.5 177.8 175.8 171.1 159.5 142.3 126 115.3 104.7 94.1 86.2 86 85.2 85.6 99.1 113.8 132.3 150.5 173.6 180.9 181.7 182.7 183.6 183.4 184.7 187 186.9 187.3 187.9 188.3 188.4 188.5 188.6 188.2 188 187.7 187.1 186.7 186.4 186.5 186.1 185.3 183.6 180.9 166.8 141.5 149 131.4 138.2 155.1 163.2 158.8 152.5 144.1 130.1 121.1 129.9 142.9 154.6 168.4 173.7 176.7 178.2 178.6 178.8 178.8 178.6 178.4 178.1 176.7 173.1 157.7 132.9 130.9 153.5 175.7 179.4 179.1 178.8
153.4 158.2 164.8 170.7 180.9 190.1 197.8 204.6 212.1 223.1 245.3 258.3 270.2 294.2 303.5 308.6 309.9 309.8 308.6 307.6 305.9 303.9 301.8 299.6 297.5 295.3 292.8 291 288.9 287.1 286.2 283.5 279.3 277.2 279.5 278.9 277.9 276.2 274.9 273.5 272.3 271.1 269.3 266.6 256.5 227.9 218.5 223 230.4 239.4 249.3 258.4 260.2 259.1 258.4 257.2 255.9 254.7 253.6 252.5 251.5 250.4 249.3 248.3 246 245 243.3 241 237.9 234.3 230.9 223.5 212.6 205.1 201.9 202.5 203.1 205.8 206.4 208.9 213.8 219.2 222 221.3 225.1 223.7 223.1 219.6 218.2 216.1 216.6 216.5 216.6 215.5 213.3 212.3 210.8 209.6 207.8 206.5 205 203.5 202.2 201.2 200.2 199 197.6 196.3 194.9 193 190.5 190.3 189.6 187.6 186.3 185.1 165.1 153 149.1 139.6 155.7 176.8 176.9 173.1 162.7 142.9 129.8 120.5 111 99.6 86.3 86.2 85.4 85.2 94.7 109.2 129.5 148.1 165.6 179 180.8 181.5 182.4 183.3 184.5 185.2 186.3 186.9 187.2 187.6 188.1 188.1 188.2 188.2 188.1 187.7 187.1 186.6 186.3 186.2 185.3 184.7 183.5 180.9 174.1 151.4 167.5 168.3 146.5 127.6 134.8 140.5 136.9 130.8 124.8 118.2 118.4 117.2 122.9 135.1 151 170.1 174.5 175.7 176.6 176.6 176.9 176.9 176.6 176.2 175.8 172.9 154.7 128.5 128.8 150.4 173.8 177.9 177.8 177.6
151.1 153.1 158.2 164.8 172.7 180.5 189.5 199.6 207.4 214.9 229.6 253.1 261.7 286.3 300.8 307.9 309.1 308.7 308.3 307.3 305.6 303.8 302 299.8 297.4 295.1 292.9 290.4 287.6 286.2 284 280.9 278.5 281.1 280.8 279.7 278.6 277.2 275.8 274.5 273.2 271.6 269.1 264.8 243.9 234.6 244.5 251.1 258.7 264.9 264.5 263.8 262.9 261.8 260.8 259.3 258 256.7 255.4 254.4 253.5 252.5 251.2 250.2 248.1 247.1 246.3 244.2 242.6 240.7 237.2 233.7 230.7 228.1 222.9 221.5 221.6 222.4 224.6 226.9 228.3 229.8 230.5 230.5 227.8 228.4 226.9 226.1 223.8 223.1 222.2 220.8 219.4 218.1 216.3 214.4 213.6 211.9 209.8 208 206.8 205.7 204.4 202.8 201.6 200.3 199 197.9 196.5 194.5 192.9 190.1 187.4 186 181.2 185 184.2 181.7 172.2 142.3 136.4 161.8 175.5 159.5 143.9 132 125.1 114.8 102.2 90.6 86.3 85.3 84.7 89 108 120.5 145.9 160.7 175 180 180.4 181.3 182.1 183 184.2 185.5 186.2 188 188.3 188.8 189.2 189.2 189.2 189.2 188.9 188.6 187.5 186.5 185.8 184.8 183.6 181.9 179.3 168.8 169.1 172.5 182.2 182.8 162.7 137.7 126.2 123.7 121.3 122.8 126.9 128.5 123.5 116.2 114.5 119.1 138.7 160.2 171.9 172.7 173.4 173.8 175.2 175.3 175 175 174.3 171.8 149.1 122.9 129.2 150.7 171.1 176 176.7 176.4
155.8 157.2 161.8 167.2 171.8 177.6 183.5 196.3 205.9 213.9 227.9 248.8 261.6 276.1 297.2 307.5 308.3 307.9 307.3 306.8 305.2 303.3 301.3 299 296.6 294.3 291.8 288.2 285.1 283.4 281.5 282.1 283 282.4 281 279.7 278.6 277.1 275.8 274.4 272.9 271.4 269.2 265.3 240.7 257.6 265.8 267.2 267.5 267.3 266.6 265.6 264.6 263.7 262.7 261.3 260 258.4 256.8 255.8 254.7 253.3 252.4 251.6 250.4 248.9 247.2 245.5 243.7 241.8 240.4 238.7 237 235.2 232.1 228.4 225.8 225.2 225.9 228.3 230.3 231.7 231.7 231.6 231.1 230.3 229.2 228.1 226.6 224.8 223.7 222.6 221.3 219.3 218.3 216.6 215.8 213.9 211.8 209.6 208.3 207.1 205.6 204 202.7 201.2 199.8 199.1 197.4 195.5 194 192.1 190.1 188.5 187.7 185.9 183.6 181 174.8 144.9 124.1 144.5 152.3 140.6 130.3 122.6 114.8 106.2 92.8 86.2 85.3 83.9 86.5 100.8 114.8 133.6 154.4 168.3 174.9 179.9 180.3 180.9 181.8 182.7 184 185.4 186.5 188.2 189.6 190.1 190.4 190.5 190.5 190.4 189.8 189.1 188 187 185.8 184.5 183.4 182.6 183.3 184 183.5 184.1 183.8 183.9 183.6 161.6 151.7 146.6 145.7 148.2 152.4 154 149.7 136.5 116.1 114.3 130 151.1 167.9 168.5 169.4 170.3 171.7 173.6 173.5 174 172.1 170.1 145.9 115.4 130.6 151.1 171.4 175 176.6 176.2
159.8 159.5 165.4 170.9 177.8 183.1 186.9 197.5 208 216 233.4 250.5 262.6 275.1 300.1 308.9 309.4 308.1 306.7 305.1 303.8 301.8 299.3 297.7 295.7 292.3 289.5 288.1 287.5 286.4 284.9 285 283.9 283.1 281.2 279.5 278.1 276.5 275.2 272.8 272.1 270.4 268.1 264.7 254.9 267.1 268.7 268.4 268.2 268.1 267.3 266.5 265.9 264.9 263.8 262.5 260.9 259.3 257.7 256.5 254.8 253.5 252.3 251.4 250.3 249 247.3 245.7 244.1 242.5 241 239.2 237.5 236.3 235.6 233.7 233.7 233.4 233.2 233 233.1 232.3 231.5 232 231.7 230.7 229.8 228.7 227.3 226 224.8 223.4 221.6 219.9 218.8 218 217 215.3 213.5 211.6 209.7 208.4 206.8 204.8 203.3 201.9 200.4 199.4 198.2 196.6 194.9 193.3 191.7 190.4 188.6 185.9 182.6 179.4 168.4 140.3 120 122.2 127.6 125.5 117.1 107.9 102.7 97.5 87.5 85.7 84.7 84.4 94.8 106.1 120.2 146 162.4 170.1 174.2 179.5 180.2 180.6 181.5 182.8 184.8 186 187.2 189.1 190.1 191.2 191.6 191.9 191.8 191.8 191.1 189.7 188.6 187.6 186.3 185.2 184.5 184.5 184.5 184.6 184.7 184.9 185.1 185 184.6 182.4 177.8 170.6 170.4 173.5 178.2 177.1 167.9 146.6 125 111.6 127.6 144.8 157.9 158.8 157.6 161.4 167.2 170 172.4 172.7 170.9 168.8 145.4 118.5 125.5 150.8 169.7 173.7 176.2 176.5
159 164 168.7 173.2 180.9 186 194.6 202.1 211.8 221.7 234.8 255.2 263.6 277.5 294.3 310 310.5 309.1 307.2 304.6 302.7 300.9 298.2 295.4 293 291.4 291.6 290.6 289.2 288.1 287 286.6 285.1 283.7 281.5 279.3 276.5 275.3 273.7 270.9 267.9 264.7 260.6 261 267.4 268.9 268.3 268.6 268.6 268.1 267.2 266.2 265.4 264.4 263.6 262.6 261.2 259.7 258.2 256.6 255 253.8 252.6 251.3 249.9 248.2 246.4 244.8 243.2 241.7 240.1 238.7 237.7 236.5 235.2 234.2 233.1 232.2 232.7 232.3 231.9 231.2 230.5 230.7 230.2 229.5 228.5 227.6 226.5 225.5 224.3 223.1 222 220.4 219 218.2 217.1 215.9 214.5 212.9 211.2 209.3 207.3 205.2 203.5 202.2 200.5 198.9 197.9 196.7 195.3 193.8 191.8 190.3 188.8 186.5 183.5 180.5 173 150.7 127.8 113.8 112.6 111.8 103.9 100.8 97.8 94.5 87.3 84.6 82.7 85.1 100.8 109.2 127.3 148.5 163.1 169.5 174.9 178.3 179.2 180.2 181.6 183 184.9 187 188.4 189.9 190.8 192.1 192.5 192.9 192.6 192.2 191.7 190.9 190 188.8 187.6 187.3 186.5 186.7 186.8 186.8 186.6 186.5 186.4 186.4 185.8 185.6 185.1 184.8 183.6 183 183.2 180.4 175.8 156 132.6 111 116.6 130.3 136.7 135.9 137.9 143 151.5 163.9 169.7 171.4 170.2 167.8 149.8 123.1 118.4 141.6 161.3 171.7 175 176.4
163.1 167.6 175.4 177.1 180.3 188.3 198.1 207.9 217.2 221.3 233.4 255.6 268.6 280.9 304.9 312 311.8 310.3 308 306.4 305.3 304.2 300.6 297.5 296.5 295.5 294.3 292.4 290.3 288.8 288.2 287.2 285.6 283.7 281.8 279.3 275.3 272.1 269.2 270 271 269.7 269.8 269.1 269.5 269.1 268.2 267.4 267.3 267.3 266.8 265.8 264.7 263.4 262.4 261.7 260.6 259.3 257.9 256.6 255.3 253.8 252.3 250.8 249.2 247.4 245.6 243.9 242.3 240.9 239.4 237.6 236.2 235.1 234.2 233.4 232.4 231.4 231.1 230.7 230.6 230.1 229.5 229.1 228.4 227.4 226.6 225.8 224.9 224.1 223.1 222.2 221.1 220 218.8 217.5 216.2 214.9 213.8 212.8 211.4 209 207.8 205.7 203.7 202.5 200.7 199 197.4 196.6 195.2 193.8 191.9 190.7 189.9 188 185.3 182.4 179.1 167.1 147.4 134.5 126.1 120.6 119.6 113.5 104.9 93.5 84.8 82.5 82.8 85.6 100.6 108.3 126 146.7 160.6 167.9 172.9 176.3 177.9 179 180.8 182.9 184.9 187.3 189.2 190.7 191.8 192.9 193 193.3 193 192.6 192.2 191.4 190.8 190 189.5 189.4 189 189.3 189.3 189.3 189.2 189.1 189.1 188.7 188.2 187.7 186.5 186.2 185.1 184.8 184 182.3 179.1 162.2 138.7 117.2 108.6 113.2 113.9 114.1 117.3 123.8 134.2 148.3 166.1 170.5 170.1 167.2 153.8 129.1 112 131 151.3 168.7 173.8 175.8
158.5 171.7 177 183.4 185.7 194.8 203.3 213.1 226 223.4 232.4 250.7 272.6 284 305.9 313.7 313.8 312.1 310.1 308.2 307.9 306 302.8 299.7 299.3 297.9 295.5 293.6 290.9 288.8 288.6 287.2 285.5 283 281.1 277.3 273.9 275 275.1 274.9 274.6 273.4 271.9 271.5 271 269.6 267.8 265.5 264.8 265 264.9 263.7 263.4 262.3 261.2 260.6 259.1 258.6 257.3 255.9 254.5 253.1 251.6 250 248.1 246.4 244.7 243 241.5 240.1 238.7 237.1 235.3 233.5 232.3 232 231 230.1 230 229.2 229 228.3 227.6 227.1 226.2 225.4 224.6 223.9 222.9 222.5 221.3 220.7 219.7 218.7 217.5 216.5 215.3 213.7 212.7 211.1 209.5 208.7 207.2 205.7 204.1 202.6 200.9 199.2 197 196.1 194.9 193.5 192.1 191.5 190.8 188.9 186.5 184.1 181.6 179.8 170.8 158.8 151.4 146.6 139.4 125.3 108 92.9 84.4 82.6 83.8 83.7 98 105.8 120 140.8 156.7 164.6 165.2 173.2 175.6 177.8 179.7 181.4 184.1 186.6 189.2 190.6 191.8 192.9 193.5 193.8 193.4 193 192.6 192.1 191.4 190.7 190.7 190.9 190.8 190.9 191.1 191.3 191.5 191.4 191.3 191.2 190.6 189.7 188.6 187.7 187 185.2 183.9 182 178.4 165.2 142.1 128.1 115 107.6 106 106.3 107 107.7 117.1 135.8 157.1 166.7 170.1 167.7 163.5 137.8 111.7 121.6 140.4 159.2 171.4 175
165.4 170.8 181.2 188.2 198.3 199.7 205.6 214.4 230.1 227.7 231 244.6 268.6 288.9 309 316.1 315.6 314.3 312.4 310.7 309.1 307.6 305 302.8 300.9 300 296.3 293.3 290.4 288.9 287.5 286.3 284.1 281.3 278.9 278.3 278.3 277.7 277.1 276.8 275.2 274.7 272.9 271.5 270.4 268.8 266 259.3 259.3 260.2 261.5 262.1 261.2 259.2 258.7 258.4 257.8 256.8 255.7 254.6 253.6 252.3 250.8 249 247.1 245.4 243.7 242.1 241.1 239.8 238.1 236.9 235.5 234.1 231.9 229.8 228 227.6 227.4 227.2 226.8 226.2 225.5 224.8 224.1 223.5 222.6 222.1 221.3 220.3 219.6 218.5 217.6 216.4 215.3 214.4 213.6 212.5 210.9 209.4 207.8 206.5 205.8 204.1 202.1 201 199.4 197.9 196.9 195.4 193.8 192.4 191.1 191.2 190.8 189.2 187.5 185.4 183.1 181.3 179.3 176.1 173.3 170.4 157.7 133 110.8 93.9 84 82.4 83.6 83.3 90.3 99.8 108.8 125.5 141.8 146.7 162.7 170.3 173 175.7 177.8 180.5 183.1 185.8 188.5 190.1 191.4 192.6 193.2 193.7 193.5 193.2 193 192.8 192.1 191.5 191.8 191.9 192.1 192.2 192.3 192.4 193.2 193.2 193.1 193 192.7 192 190.8 189.6 188.4 186.7 184.9 181.7 177.7 168.8 159.8 148.1 135.8 123.6 112.6 112 104.5 103.1 108.9 126 146.3 163.1 168.7 168.6 165.1 146.2 120.6 110.6 128.4 145.2 163.5 172.9
175.3 175.5 177.1 187.1 197.2 204 211.5 220.7 230.2 229.8 234.5 242.2 265.1 288.4 311.5 318 316.7 315.3 313.7 311.7 310.7 308.5 306.7 305.6 303.1 300.9 298.3 295.3 292 288.9 286.9 285.1 282.5 281.6 282 281.1 280 279.1 278.3 277.1 275.6 274.4 272.2 270.5 268.7 268.3 268 267.4 265.6 263.5 261.6 259.8 257.6 256.2 254.5 253.8 254 254.6 253.3 252.4 251.4 250 248.6 247.2 246.4 244.8 243.2 241.5 239.6 237.9 236.5 235.5 234.1 232.6 230.8 229 226.9 224.9 225.3 225.3 224.9 224.4 223.6 222.9 222.2 221.6 220.8 219.9 219.3 218.4 217.3 216.4 215.5 214.6 212.5 211.5 210.7 210.3 209.1 207.5 206 203.3 202.6 201.9 200.2 199.3 197.8 196.8 195.9 194.1 192.7 191.2 189.7 190.2 189.9 189.2 187.7 185.9 183.9 182.2 180 177.1 173.8 170.2 165.5 134.8 112.5 98.2 84 82.8 83.4 83.5 83.3 93.2 102.3 112.4 123.2 144.5 157.2 166.9 169.6 172.8 175.6 178.6 181.3 184.1 187.8 189.4 190.7 191.9 192.3 193.2 193 192.8 192.6 192.5 192.2 192.1 191.6 192.3 192.3 192.8 193.2 193.4 194.3 195.1 194.9 194.8 194.5 194 193.1 191.5 190 188.2 185.9 183.4 181.4 179.8 178.4 168.2 156.7 146.3 137.4 132.3 122.6 109.9 102 117.5 138.4 158.2 167.5 168.3 165.6 156.7 131.8 109 116.1 133 152.7 169.6
188.6 194 193.7 198 201.9 210.5 217.3 227.6 235.2 231.5 240.6 246.1 265.8 286.9 319.2 319.7 318.5 317.1 315.3 313.4 311.7 310.2 308.7 307.6 304.5 302.3 299.6 297.3 293.6 291.3 289.3 287.5 284.5 285.2 284.5 283 281.3 280.2 279.5 277.7 275.8 274.1 271.5 269.8 269.4 270.1 269.3 267.8 266 265.3 264.2 262.9 261.5 260.3 258.3 253.7 250.7 249.8 250.1 249 247.8 247.7 246.2 245.2 244.3 242.7 240.9 239.3 237.8 235.6 233.6 232.6 231.5 230.5 229.1 227.5 225.9 224.4 222.3 223.2 223.1 222.6 221.7 220.6 219.2 217.9 218 216.8 216 215.8 214.9 213.9 212.9 211.9 209.8 208.6 208.1 207.2 206.3 205.6 203.2 201.4 200.6 199.2 198.1 197.1 196.7 195.8 194.1 193.1 191.7 189.9 187.6 187.9 188.3 188.6 187.6 186.4 184.6 182.9 180.3 177.4 174.1 170.5 166.9 140.6 117.9 104.6 88.9 83.1 82.1 82.8 83.2 84.4 94 101.4 116.2 132.3 146.1 162.7 166.3 170.1 173.3 176.3 179.3 182.3 185.9 188.4 189.9 190.9 191.6 191.9 192.6 192.4 192.2 192.1 192.2 192.3 192.7 193.1 192.3 193 193.8 194.7 196 196.9 196.9 197.1 196.5 196.6 195.4 194.1 192.1 190.4 188 186.2 184.3 182.9 181.2 179.2 177 171.6 161.2 152.3 140.7 123.7 103.8 109.3 127.7 146.3 160.6 167.2 165.6 160.9 145.8 120.8 106.2 121.3 141.5 163.2
207 217 215.5 217.8 220 218.5 223.4 231.3 232.8 237.9 249.1 253.4 272.5 295.1 323.6 321.4 320.4 319 317 315.1 313.6 312.1 310.7 308.7 305.6 302.6 300.3 298.7 296.2 294.1 291.9 288.2 287.2 288.2 286 284.8 283.4 282 280.8 278.9 276.1 274.1 271.4 270.4 270.5 270.2 270.2 268 266.3 265.4 264.7 264.5 262.2 260.6 258.8 255.7 250.4 248.1 244.5 244.2 244.2 244.3 243 242.6 241.4 240.8 239.2 237.7 236.2 233.1 230.7 229.9 229.4 227.8 226.7 225.5 224.2 222.3 219.2 220.3 220.4 219.9 219.2 217.3 215.3 214.2 214 213 212.5 211.7 211.4 210.2 209.2 208.1 206.5 205.4 204.2 203.2 202.2 200.3 199.9 199.1 196.7 195.9 194.4 194.2 194.3 193.8 192.7 192 190.4 187.9 186.9 185.6 187 187.7 187 185.8 184.4 183 180.7 177.7 174.6 170.6 167 152.5 127.8 110.2 98.1 83.5 82.7 83.1 82.7 81.9 82.9 92.7 102.2 118.6 130.7 148.1 162.4 166.3 170.3 172.8 176.5 180.3 183.6 186.5 188.1 189.5 190.3 190.7 191.7 191.6 191.4 192 192.4 192.5 192.6 192.5 192.6 193.2 195.1 196.5 197.4 197.6 198.4 198.8 198.8 198.3 198 196.8 194.6 192.7 190.7 189 187.2 185.3 183.2 180.7 178.3 175.4 171.6 168.1 155.9 135 112.3 99.3 113.9 129.7 149.4 167.5 165.8 162.8 159.6 135 110 109.7 133 153.6
217 227.8 227.3 228.1 228.4 227.4 231.5 237.3 241.1 249.2 257.4 262.7 285.8 314.1 325 323.5 322.3 320.8 318.8 316.9 315.5 314 311.9 309.1 305.6 303.6 302 300.3 298.2 295.9 292.6 290.7 290 289.6 288.2 286.5 284.7 282.8 281.4 278.6 276 273.9 272.9 272.6 272.5 271.8 270.2 268.3 266.6 265.4 264.1 263.5 261.1 259 256.8 253.6 251 249.6 246 240.9 238.8 239.3 239.9 239.5 238.5 237.2 235.8 234.7 233.5 232.7 229.9 227.9 227.7 226.4 225 223.1 222 219.8 217.1 216.8 217.1 216.5 215.8 214.3 212.6 210.8 209.7 209.2 208.8 207.7 207.9 206.6 205.2 203.9 202.9 201.3 200.8 199.2 198.7 197.4 196.2 195.2 194.2 192.8 191.6 190.8 190.7 190.9 190 189.4 188.2 186.7 185.7 183.9 185.3 186.4 186.1 185.4 184.1 182.8 180.3 178 174.7 171.2 167.4 162.9 137.5 115.7 103.4 88.8 82.8 82.9 82.6 81.8 82.7 82.8 86.8 102.4 117.5 136 155.1 162.7 166.3 169.5 173.1 177.5 180.8 184 186.2 187.5 188.7 189.4 190.1 190.4 190.3 190.9 191.6 191.8 191.7 191.7 192.7 194.3 196.6 197.6 198.3 198.7 199 199.1 199.1 199.1 199 198.1 196.9 195.1 193.3 191.2 189.1 187.1 184.6 182.2 179.5 176.7 174.2 171.4 166.8 146.2 121.7 104.4 101.5 118.9 138.8 157.9 166.2 163.3 159.5 144.2 122 103.6 123.5 146.2
226.7 233.3 234.2 235.2 236.3 236.6 239.3 245.1 251.1 256 264 276.3 291.6 325.1 326.3 325 323.6 322.3 320.5 318.4 316.8 314.5 312 309.7 308.1 306.5 304.7 302.3 300.2 296.8 293.7 293.3 292.3 291.2 289.4 287.7 285.8 283.8 281.9 278.9 276.8 274.9 273.8 273.3 272.6 271.2 269.8 267.9 266.5 265 263.7 262.3 259.5 256.9 254.8 251.6 250.3 248.4 245.7 243 239 234 235.3 235.7 235.2 233.8 232 230.8 230.9 228.7 227.5 224.9 223.9 223.9 222.5 221.1 219.9 218.1 215.3 213 213.6 213 211.9 210.4 208.8 207.4 206 206.3 205.1 205.2 204.1 203.1 202 201 199.5 197.7 196.9 195.6 195.7 193.6 192.9 191.9 190.8 189.7 189 188.1 187.8 188 187.3 186.6 185.5 184.5 184.9 183 182.5 184.2 184.9 184.6 183.5 182.5 180.4 178.1 175.6 172.4 168.7 164.3 148.1 123.3 110.9 101.3 89.9 83.7 83 82.1 82 82.1 82.2 91.8 105.9 121.8 142.2 157.9 162.1 165.8 170.2 174.3 177.6 180.8 184 185.4 186.6 187.4 188.2 189 189.3 189.6 189.9 190 189.8 190.1 191.7 194.7 196.8 198.2 198.7 199.1 199.2 199.1 199.1 199 198.6 198.6 197.7 196.8 195.2 192.9 190.8 188.6 186.1 183.5 180.7 178.1 175.5 173 169.3 156.9 134.6 112.3 97.9 110.8 129.2 148.6 165.2 163.7 159.1 153.1 130.7 106.6 114.3 140.3
234.5 236.6 238.9 240.7 242.1 243.6 246.6 252.6 259.1 270.5 282.7 295 307.5 328.6 327.2 325.8 324.5 323.4 321.6 319.8 317.8 315.8 313.8 312.3 310.8 309.1 306.7 304.3 301.5 298.3 297.5 296.3 294.4 292.2 290.4 288.1 286.5 284.4 282.5 280.4 277.9 275.8 274 272.5 270.9 269.4 268.6 267.4 265.8 264.1 262.5 260.8 257.7 255.1 252.6 250.8 249.1 247.4 244.8 242.1 238.7 235.2 230.3 231.6 231.3 230.3 228.6 226 226.4 225.1 224.2 222.2 220.2 220.4 219.8 218.5 217.2 215.7 213.8 209.8 210 209.2 208 206.4 204.7 203.4 202 202.5 201.7 201 199.9 199.1 198.4 197.2 196.1 194.6 192.7 192.6 192.1 190.9 189.7 188.8 188 186.4 184.8 184.7 185.3 185.7 185 184.5 182.4 183.1 183.5 181.6 177.5 182.8 184.3 184 183.1 182 180.5 178.2 175.8 173.2 169.2 164.8 160.6 134.9 119.8 109.1 99.8 90 83.3 82.4 82.1 81.8 82.5 83 94.7 110.6 124 145.3 157.9 161.9 166.3 170.1 173.7 177.9 181 183.1 184 184.8 185.5 186.2 186.3 186.9 187.6 187.8 187.2 188.4 190.3 194.3 197.1 198.1 198.6 198.7 198.8 199.1 199.2 198.8 198.9 198.8 198.4 197.5 196.4 194.4 192.2 190 187.2 184.5 181.5 178.5 175.8 173.4 170.3 164.3 142.5 120.8 100.5 101.7 121.1 140 159 162.1 158.2 150 129.1 108 108.5 136.9
236.5 239 245 246 247 247.6 253.1 261 270.7 281.3 295.9 311.6 329.2 329.6 328.2 326.5 325.3 324.5 322.5 320.4 318.5 317.1 316.1 314.7 312.8 310.4 308.3 305.4 302.2 301.1 299.9 298 295.4 293.1 291.4 288.9 286.9 284.9 283 280.8 278.5 276.1 273.5 271.4 269.3 267.8 266.8 265.7 264.4 262.5 261.1 259.7 256.5 253.9 252.2 250.6 248.3 245.3 243.1 239.8 236 232.2 228.2 225.3 226 225.9 223.4 221.4 220.6 219.6 218.7 217.7 215.9 215.1 214.3 212.3 211.8 210.1 208.8 206.5 204.6 203.8 202.4 200.9 199.7 199.1 198.3 198.3 197.5 196.3 195.3 194.2 193.5 192.6 190.6 188 188.5 188.9 184.6 183.1 185.9 185.2 183.8 182 180.7 181.4 182.8 183.3 183.1 182.2 180.1 181.1 180.1 173.9 165.6 178.9 183.8 183.1 182.8 181.8 180.3 178.5 176.7 173.4 168.9 164.7 159.2 145.4 129.3 122.5 111.1 100 89.2 82 81.8 80.8 82.3 81.6 87.6 102 112.1 127.5 145.8 158.5 163 166.4 170.8 175.2 178.2 179.9 181.3 181.8 182.4 183 183.9 185 185.4 185.3 185.1 186.9 188.7 191.8 196.2 198 198.3 198.3 198.3 198.5 198.8 199.1 198.8 198.4 198.2 197 196.3 194.9 192.9 190.3 187.6 184.9 182.2 178.8 176.1 173.5 170.4 166.9 149.9 128.1 105.3 96.7 114.2 133.3 153.6 163.3 158.3 143.7 122.2 102.6 109 137.6
234.9 238.4 245 248.1 250.6 252.7 257.9 268 282.8 292.6 304 321 330.5 330.2 328.8 327.1 326.2 324.5 323.5 321.5 318.5 318.9 318.2 316.7 313.8 311.3 308.6 306.1 304.9 303.9 302.1 299.1 296.3 293.8 291.3 289 286.7 284.4 282.3 280.7 277.2 275.8 274 272.6 270.4 268.9 266.7 263.7 263.1 261 260.5 258.2 255.5 253.4 251.4 250.2 247.5 243.2 238.1 233.9 234.6 232.3 231.5 228.9 225.2 223.6 221.5 220.9 219.9 219.7 217.5 215.1 212.5 211.7 211.6 211.3 209.8 207.6 205 203.3 202.2 198.8 197 196.3 194.7 194 191.7 190.4 189.9 189 187.4 185.9 183.5 179.4 177.2 174.5 172.3 169.5 167.4 164.1 165.4 166.7 167.7 165.2 163.7 169.6 173.8 177.5 175.3 168.8 158.1 153.3 151.6 145.6 140.7 149.7 158.5 168.4 182 181.4 180.3 179.1 177.3 175.2 173.1 168.6 163.9 157.1 145.9 134.1 121.7 110.2 101 90 81.9 81.7 82.2 81.9 83.1 95.1 104.9 119.3 134.7 147.3 157.8 162.8 167.4 171.7 174.6 176.5 177.8 178.5 178.1 178.6 179.6 180.6 182.1 182.4 181.9 184.1 186.9 189.1 192.8 196.4 197.9 197.9 197.8 197.9 198.1 198.5 198 197.6 197.5 196.9 196.2 194.9 192.9 190.5 187.9 185.2 182.3 179.3 176.1 173.1 170 166.6 155.2 128.1 108.7 94.9 108.5 128.3 148.4 162.3 157.2 138 114.2 100.5 114.2 138.2
227 236.4 241.6 247.4 251.3 254 260.4 267.5 283.6 299.7 314.4 328 330.7 330.6 329.3 327.8 326.1 324.4 323.5 322.3 320.3 320 318.9 317.6 314.8 312.1 309.9 308.6 307.2 305.7 303.6 300.5 297 294.5 292.5 289.4 287.4 284.3 283.1 280.1 278.6 277.5 276.2 273.7 271.8 268.6 266 263.8 259.4 258.7 257.3 255.2 252.8 251.9 250.1 246.8 242.6 238.2 239.5 240.2 239.3 237.3 235.5 233.6 231 229.1 228.2 226.8 224.8 223.7 222 220 218.4 217.1 216.7 215.8 214.2 212 210.1 209.1 207.7 205.6 204.5 202.4 201.4 200 199.2 197.6 195.8 194.2 189.5 193.2 191.5 190.5 189.8 189.5 188.9 187.3 186 184.3 178 170.8 169.4 162.4 154.4 147 145.4 148.1 146.7 142.1 134.8 132.8 132.1 131.3 129.3 128 129.1 142.3 155.8 170.1 178.7 179 178.7 177.6 175.9 172.6 168.7 162.5 156.4 144.2 132.2 122.1 110.1 100.8 84.8 81.1 82 81.7 81.3 86.5 99.4 112.5 126.2 136.5 150.3 158.4 163.2 167.3 170.1 172.3 174.2 174.3 174 174.4 175.4 176.8 177.4 178.3 177.9 181 184 186.6 189.4 193.3 195.5 196.9 197.4 197.2 197.3 197.2 197.6 196.9 196.6 195.9 194.9 194.3 192.4 190 187.6 185 181.6 178.4 175.2 172.3 168.9 165.7 160.6 131 109.5 95.2 103 122.6 142.7 160.2 155 133.6 107.1 99.7 119.4 140.3
215.4 231.9 238.4 242.6 247.1 250.4 258.1 267.1 282.8 299.1 315.1 328.1 331.3 330.4 329.4 327.9 325.8 324.3 323.4 322.5 321.6 320.7 317.7 316.6 314.5 313 312.4 310.9 308.9 306.5 304.5 301.5 298.5 295.8 293.6 290.5 288 284.9 283 279.5 278 276.1 274.9 272.5 269.6 267.2 264.9 262.4 259.7 256.8 253.1 251.1 248.3 246 244.6 244.2 245.3 246.1 245.7 244.2 241.5 238.7 237 235.4 232.7 231.5 230.2 228.7 226.3 224.5 222.3 220.3 218.5 217.3 216.2 215.2 213.9 212.6 210.9 209.6 208.3 207.1 206.3 205.2 203.8 202.8 201.6 200.9 199.4 198.8 198.6 198.4 197 195.8 194.5 193 191.6 190.4 188.8 187.1 184.5 183.1 181.1 179.8 175.7 170.5 164.3 158.1 154.2 152.2 154.4 153 153.1 152.5 149.3 142.6 134 122.7 130.1 145.9 158.8 166.9 174.5 177 177.3 174.4 171.1 167.7 162 154.4 143.1 132 117.9 106.6 92.9 82.6 81.4 81.9 81 82.5 90 104.1 115.1 125.1 142.4 152.4 158.4 162.6 165.2 166.8 168.7 169.9 170 169.7 171.9 172.8 173.7 174.3 174.3 177.3 180.8 184.1 186.3 189.1 191.7 193.7 194.5 196.1 196.4 196 195.8 196.2 195.6 194.8 194.3 193.5 192.2 189.8 187.4 184.8 181.5 178 175.1 172.3 169.1 166.1 162.8 143.3 116.8 97.4 94.8 114.3 135.9 157.3 152.7 131.6 103.7 100 119.3 139.3
204.1 220.1 233 235.7 239.4 243.7 253 265.5 279 292 305.8 321.5 328.5 329 328.4 327.2 325.6 324.1 322.4 322.6 321.7 320.7 318.3 316.2 314 313.8 313.3 312 309.8 307.7 305.7 302.6 299.9 297.2 294.3 291.4 288.5 286 282.7 279.7 276.7 273.4 270.5 267.9 265.3 263.1 261.1 259.4 255.4 253.1 252.2 252.7 252.6 251.9 250.7 249.2 249 248.1 246.4 245.3 242.7 240 238.3 236.4 234.1 232.7 231.2 229.3 226.3 223.7 222 220.1 217.6 215.9 214.6 213 212.2 211.3 210.3 209.6 208.5 207.1 206 205.2 203.7 202.9 202.1 200.9 200.4 199.8 199 198.7 197.5 196.3 195 193.5 191.8 191.1 189.6 188.3 186.5 184.6 183 181 178.9 179.7 180.5 180.6 180.2 178.4 177.8 177.2 175 173.4 168.8 160.2 149.7 137.4 124.3 123.2 137.4 144.5 151.3 157.5 163.5 168.8 171.1 168.9 165.9 159.1 152.2 142.9 128 113.2 99.1 87.3 81.6 81.5 81.1 80.8 82.2 97.1 103.6 111.9 125.1 140 153.1 157.4 160.5 161.1 163.3 165.3 164.5 165.9 168.9 169.5 170.2 170.2 169.7 174 177.5 181.1 183.3 185.5 187 189.2 191.3 192.8 194.3 194.8 194.9 194.4 194.5 193.9 193.1 192.2 191.3 189.7 187.2 184.5 181.6 178.6 175.7 172.1 169.2 166.3 162.9 149.5 122.6 103.7 93 106.4 126.9 147 149.8 131.6 102.2 98.2 119.7 139.6
189 205.1 223.1 230.1 237.3 238.6 244 257 269.8 283.1 295.4 308.2 324.2 326.7 326.3 325.8 324.4 323.3 323 322.1 321.7 321.1 319 316.6 315.7 314.9 313.5 312.3 310.6 308.3 305.9 303.8 300.8 297.7 294.9 291.7 288.9 286.1 282.7 279.3 275.8 273.7 273 270.5 268.3 266 263.4 259 259.5 259 259.5 259 258 255.8 253.4 251.5 249.6 248.2 247 244.9 242.5 240.1 238.7 236.8 235.3 233.8 231.9 229.4 226.5 224.8 222.8 219.6 217.4 215.4 213.3 211.2 209.9 209.1 208.2 207.2 206.3 204.4 203.9 203.2 203 202.2 201.2 200.5 199.9 199.7 198.3 197.9 197.3 196 194.5 193.8 191.7 190.2 188.8 187.4 185.8 184.2 183.2 182.3 181.5 181.7 182.2 182.2 181.4 180.1 178.2 177.5 176.6 177.7 177.5 174.9 165.6 154.6 142.4 131 119.9 121.8 129.4 136.6 143 148.9 154.8 158.2 158.2 155.7 153.6 148.9 136.4 122.7 106.8 93.9 84.1 81.3 80.9 80.9 80.8 86.6 97.3 104.6 114.6 127.6 140.9 150.7 153.6 156.2 158.2 160.1 159.4 163.1 165.5 165.5 165.8 166.4 163.9 169.6 173.5 177.8 180.4 182.2 184.4 185.9 187.7 188.8 189.8 191.9 193 193.4 193.5 193.4 192.5 191.7 190.9 189.2 187 184.1 181 178.2 174.6 170.7 168.2 165.7 162.8 156.6 134.8 114.3 92.6 95.6 115.4 133.4 146.6 131.1 104.7 95.5 118.8 137.9
177.5 192.9 215.4 234.8 243.2 239 242.7 251.1 264.9 278.8 292.6 302.1 309.7 322.3 324.1 324 323.5 322.9 323.1 322.8 322.5 321.7 320.7 319.3 317.7 317 315.3 313.3 310.9 308.6 306.3 303.9 300.8 298 295.1 290.3 287.3 285.5 282.1 278.9 278.4 278.2 276.5 274.6 272 268.9 263.5 264.8 265.4 264.6 263.4 261.8 260.1 257.7 255.8 253.6 251.4 248.4 246.1 243.3 241 239 237.7 237.4 236.6 234.5 231.8 230.1 227.5 224.6 222.9 220.9 217.8 216 213.9 211.6 209.4 207.8 206.7 204.9 203.1 201.7 201.5 201.5 201.3 200.6 199.6 198.4 198.3 197.9 197.4 197.1 196.4 195.6 194.3 193.2 191.9 190.2 189 187.7 185.8 184.1 183.7 182.8 182.5 182.3 182.5 182.1 181.1 178.9 177.6 174.6 177.4 177.1 177.4 175.7 175.1 171.7 161.7 150.2 138.7 130.7 120 116.5 120.9 126.6 130.7 134 135.7 134.9 132.7 131.5 138.4 129.3 115.6 102.7 89.3 81.9 81.3 81.6 80.9 81.4 89.6 97.8 105.8 115.2 126.1 134 142.4 149.4 151.5 153.2 155.4 159.4 160.5 160.8 157.7 160.9 159 166.4 170.7 175.4 177.5 179.4 181.3 183 184.1 185.2 186.3 188.9 191 191.8 192.4 192.3 191.9 191.1 190.3 188.8 186.6 183.4 179.9 177 173.1 169.7 167.2 164.7 161.9 159.2 146.2 126 101 91.4 101.1 116.2 128.2 127.9 106.6 96.1 116.3 133.9
175.3 190.9 212.9 234.2 242 238.9 236.5 246.9 260.9 273.6 285.3 295.1 300.2 310.4 320.1 322.2 322.1 322.9 323.4 323.4 323.5 322.9 321.9 320.7 319.1 317.2 315.8 313.5 311.1 308.8 306.5 304.2 300.3 298.1 295.6 291.9 289.7 287.7 283.8 282.6 282 279.9 278.3 276.5 273.4 270.2 266.5 269.1 268.6 267.7 266.3 264.1 262.1 259.2 256.3 254.7 252.2 249.3 245.4 242.6 240.2 238.5 236.2 234.7 235 233.4 230.7 229.6 227.7 225.7 223.8 221.4 218.6 216.8 214.8 212.1 210.8 209.7 208 206.5 204.6 202.4 198.8 196.9 198.6 198.9 197.6 197 196.8 196.5 196.3 196.2 195.4 194.7 193.8 192.7 191.4 189.6 188.4 187.4 185.4 184.3 183.6 182.8 182.2 182.2 181.8 181.2 180 177.7 176.9 176.9 177.1 176.8 175.9 174.8 174 173.7 172.5 167.8 158.8 151.7 140.8 131 122.2 113.6 113.4 113.4 112.1 116.3 113.3 117.3 125.3 132.5 124 110.2 95.8 82.6 81.8 81.3 80.1 80.6 81.5 84.8 94.2 100.9 108.9 115.9 123.8 132.8 135.7 142.5 151.3 155.3 146.4 138.5 135.2 139.8 153.9 161.7 168.2 172.7 174.6 177.1 179 180.7 181.4 182.2 183.3 186.1 188.7 189.8 191.5 191.3 191.1 190.6 189.6 187.8 185.6 183.4 179.8 175.9 171.6 168.5 165.7 162.9 159.2 157.5 154.6 134 106.7 93 92 98.8 110.7 115.8 103.6 93.9 109.9 129.2
177 187.8 206.8 233.9 240 238.6 233.7 242.1 254.2 264.6 273.5 283 293.4 298.5 311.9 317.4 319.4 321.8 323.5 324.1 323.6 322.6 321.7 320.9 319.5 317.9 315.6 313.7 311.4 309 306.7 304.8 301.7 299 296.5 293.7 290.8 288 285.6 285.6 283.9 281.5 279.3 277.2 274.4 270 271 272 271 269.6 267.8 265.6 263.5 260.6 257.1 254.1 251 248.1 246.4 243.9 242.6 240.7 238.4 235.2 230.9 230.5 228.3 228.1 226.7 225 222.7 220.7 217.8 215.9 214 212.4 211.2 210 208.6 206.8 205.6 203.9 201.2 196.8 193.1 197 197.3 196.1 195.7 195.2 194.8 194.6 194.1 193.7 192.9 192.2 190.5 189.7 188.4 187.2 185.7 184.3 183.5 182.7 182.1 181.2 180.4 179.7 178.9 176.7 175.5 175.6 175.1 175.1 174.4 173.6 173 172.8 171.6 170.1 168.9 168.9 161.3 150.4 143 132.6 123.8 118.9 116.3 115.2 107.4 105.2 111.2 125.4 132.3 121.3 107.9 92.7 81.2 80.9 80.1 79.4 79.5 80.3 81.6 91 97.8 102.6 108 113.9 120.2 129.4 142.3 140.8 127.6 116.4 127.3 142.1 158.3 164.1 166.6 169.3 172.3 175 176.7 178.5 178.8 179.7 181.1 183.6 187 189.9 190.8 190.7 190.3 190 188.9 187.1 184.8 182.6 180 176.4 172.3 167.3 163.9 161 156.9 154.7 150 124.9 113.7 107 95.6 90.6 91.3 97.8 98.6 93.7 105.4 125
172.4 186.1 193.4 225.4 236.9 236.2 231 236.7 243.7 252.1 260.9 271.6 283.7 292.3 300.7 313.5 317 320.3 322 322.5 323.3 321.8 321 320.3 319.3 318.1 315.9 314.3 311.8 309.2 306.4 304.9 301.9 299.4 296.9 294.2 291 288.9 289.2 287.8 285.8 283.8 282.2 279.2 275.7 272.3 274.4 273.8 272.1 270.7 268.7 265.7 263.2 260.6 256.9 253.2 251.4 250.6 248.8 246.9 243.4 241.1 238.7 235.7 232.1 228.7 225.6 225.1 225.2 224.5 222.5 220.4 216.6 215.2 213.2 211.2 210.2 207.6 207.9 206 204.5 203.5 201.5 199.6 190.8 191.8 195.1 190.8 188 193 194 194 193.8 193.4 192.7 191.2 189.6 189.3 187.6 186.1 184.9 184.5 182.8 181.2 179.9 178.9 177.9 176.7 175.4 174.6 173.3 173 173.3 172.9 172.3 171.1 170.1 170.7 169.6 168.7 167.8 167.8 167 165.6 163.3 155.4 149.9 145.1 139.7 135.6 126.2 110.5 103.5 113.7 129.7 133.7 119.2 103.4 88 80.8 80.1 79.7 78.9 80.3 80 83.3 89.2 94.4 99.9 102 108.4 118.1 124.7 119.6 112.4 112.4 129.7 149.2 158.7 163.4 167.1 169.1 171.5 174.1 174.9 176.3 176.8 177.7 179.1 181.4 185.4 188.9 190 190 189.5 189.3 188.2 186.6 184.6 182.2 179.3 176.4 172.2 168 163.2 159.3 155.2 153.2 152.4 149.8 143.2 132.2 120.5 108.6 94.7 89.9 92.4 91.4 103 124.6
160 176.1 184.8 207.7 231.7 231.6 226.7 233.7 239.2 240.3 248.4 256.7 266.3 283.2 291.8 306.8 313.9 317.9 319.8 321.6 321.8 321.3 320.7 320.3 318.9 318 315.9 313.5 311.4 309.2 306 303.8 302.2 299.2 297.3 295 294 292.3 290.9 288.5 286.7 284.5 282.6 280.1 275.3 275.8 276.7 275.4 272.2 271.4 268.7 265.2 262.2 259.1 256.4 255 254.2 252.6 249.9 248.1 244.8 241.9 239.7 237.5 234.9 232.1 228.8 224.9 220.9 220.1 218.6 214.7 213.1 212.3 211.2 209.8 207.5 204.4 205.2 204.1 201.6 200.8 200.1 198.2 189.6 165.8 170.6 162.6 158.9 167 177.9 191.2 192.9 192.4 191.9 190.9 190.5 189.2 188 186.2 185.8 185.5 184.2 182.1 179.1 176.3 174.8 173.3 171 170.2 169.5 171.2 171.4 170.7 170.5 169.1 168 168.4 168 167 166.3 166.6 165.7 166.5 166 164.8 163.1 162.1 160.3 153.6 136.7 116.4 103.2 102.4 118.7 135.8 131.9 116.8 100.5 83.7 80 78.4 78.1 79.1 80 79.5 80.2 83.9 91 95.1 100 108 110.1 105.2 102.3 107.6 119.9 135.2 152.2 163.5 166 168.9 170.9 172.4 173.8 174.1 175.1 176.6 178.3 181.4 184.8 188.1 189 189.6 188.7 188.2 187.1 186.1 184.4 181.4 178.4 176.1 172.1 168.3 165 160.6 159.1 157.5 155.4 153.8 151.1 147.6 143.6 130.9 113.2 92.1 88.8 90.6 109.9 127.9
154.6 169.4 179.8 196.9 225 225.7 223.1 227.6 235.3 237.9 239 242.6 253.6 271.2 282.5 297.5 310.9 315.3 317.7 319.2 320 320.1 320 319.3 319.1 317.2 315.8 313.4 311.1 309.1 306.9 304.2 302.1 299.9 298.7 297.6 295.6 293.5 292 289.5 287 284.8 281.8 278.7 278.2 278.8 277.5 275.6 273.4 271.2 268.4 264.9 260.9 260.6 258.9 256.7 255.4 253.7 250.7 248.7 246.2 243.6 241.3 238.6 236.5 234.4 231.7 228.9 225.3 224.1 221.4 218.7 212.9 198.5 200.7 201.1 197.6 187.2 181.6 184.1 185.2 192.9 192.9 184.1 170.6 154.8 149.5 143.7 142 142.7 155.2 168 181.4 191.1 190.4 190.3 189.2 187.8 186.4 185.8 185.7 185.4 183.8 182.1 179.9 177.3 175 173.2 171.4 167.5 166.7 168.1 169.3 168.5 168 167.6 166.7 166.6 166.4 166 165.5 165.3 165.7 166.4 165.9 165.3 165.5 165.9 164.7 160.6 144.7 124.9 105.9 100.7 107.9 123.3 135.6 130.4 114.4 97.5 81.6 78.4 77.9 78.8 79.5 78.9 79.2 79.5 82.2 86.3 94.6 99.6 98.9 97.9 100.8 110.8 118.1 124.6 142.5 151.4 155.3 161 165.6 165.9 168.1 171.2 174.6 176.3 178.2 181.3 184.3 188.2 188.2 188 187.6 187.1 186.2 185.4 183.3 180.7 178.5 176.1 173.2 170.2 167.7 165.7 163.2 161.1 159.2 155.9 151.7 147.6 142.6 136.1 116.5 96.8 88.5 97.5 118.7 134.1
149.2 164.4 177.7 187.9 208.2 215.6 213.2 222.2 228.4 233.6 232.1 239.4 245.1 262.3 277.9 288.5 306.7 310.4 314 316.1 317 318.7 318.6 318.4 318.5 317.4 316.2 314.3 312.2 310 307.7 305.5 302.6 301 300.4 298.3 296.2 294.2 291.8 288.5 285 282.8 281.8 282.2 280.8 279.2 277.6 275.5 272.3 269.7 266.5 265.1 264.3 263.2 260.9 259.1 257.1 254.8 252.6 250.1 247.5 244.7 242.5 239.7 237.4 234.8 232.7 230.3 227.6 224.9 223.4 219.9 216.1 211.6 196.8 197.2 195.2 190.4 184.2 168.9 160.4 165 165.4 156.3 152.5 155 161.8 163 162.2 154.9 139.6 144 157.9 172.6 185 187.9 186.7 185.6 184 184.6 185 184.6 183.6 182.1 180.3 178.2 176.1 174.6 172.7 170.6 167 164.6 166.7 167.5 167.3 166.4 164.6 164.9 165.8 165.3 164.9 164.9 165.5 166.2 165.8 166.1 166.5 167.1 167.2 165.4 155.6 137.2 120 104.2 99.7 111.2 124.4 133.8 129.1 112.7 95.1 79.3 79.7 79.1 78.9 79.1 78.8 78.8 79 79.7 85.5 90.2 93.3 97.3 107.6 124.7 139 138.4 136.6 140.7 149.4 154.3 157.8 170.2 171.5 172.8 174.1 175.9 178.1 181.1 184 187.1 187.2 186.6 186.3 185.7 185 183.7 182.8 180.9 179 177 174.1 173 170.5 168 165.9 163.1 161 157.6 154.2 149.1 143.5 137.1 118.3 98.8 87 96 116.3 131.1
146 160.4 170.9 181.7 187.3 190.2 198.2 212.4 218.3 221.3 224.5 233.1 239.6 251.6 267.7 283.4 296.5 305.8 309.6 313.9 315.6 317.5 318.2 318.7 318.4 317.7 316.5 314.7 312.8 310.7 308.6 306.4 304.3 301.8 300.7 298 295.1 291.8 289.2 288.1 287.2 286.8 285.6 284.5 282.3 280 278.2 275.7 272.6 269.3 268.6 267.8 266.7 264.8 262.8 260.5 258.2 256 253.5 250.7 247.8 245.2 242.6 240.2 237.7 235.2 233.2 230.8 228.3 225.8 222.5 218.7 213 201.3 212 212.3 209.9 207.9 204.1 197.6 170 158.4 158.1 164.1 171.5 180 186.5 186.4 186.3 175.8 161.3 145.9 136 149.3 163 176.3 184 183 182.4 183 183.3 183.4 182.6 181 179.6 178.5 176.7 174.4 173.7 171.7 169 164.1 163.7 166.7 166.6 165.8 163.8 164.2 165.6 165.2 165.8 165.7 165.4 166 165.9 166.1 167.1 168 168.7 167.8 164.7 154.3 137 120.6 102.8 103.2 113.5 123.4 139.7 128 109.9 88.9 77.6 79.2 79.3 79.2 78.3 78.7 78.8 80.1 79.9 85.1 90 97.5 111.9 127.2 139.6 154 168.4 168.9 169.3 169.6 171 171.2 171.8 172.7 173.9 175.6 177.7 180.2 183.7 186.1 186 185.6 185 184.3 183.5 183.1 182.3 181.2 178.7 177.3 175.9 174.6 172.2 169.7 168.1 165.3 162.8 159.4 155.8 149.9 145 137.9 121.5 102.4 85.6 88.4 105.7 118
139.3 153.8 164.2 173.3 176.2 178.5 182.6 195.5 204.7 209.6 216.6 225.6 230.5 245.9 260.7 274.2 286.6 300.1 305.3 310.7 314.4 316.4 318 318.1 318.2 317.6 316.1 314.7 313.2 311.3 308.9 306.4 303.7 302.4 299.2 296.8 294.9 293.6 292.3 290.6 290.3 289.1 287.4 285.6 283.1 280.7 278.9 276.7 273.7 272.1 271.4 270.4 268.4 266 263.3 261.6 259.8 257.1 254.3 251.4 248.7 246.3 243.7 241.3 238.8 235.8 233.6 230.9 228.1 225 221.3 216.3 205.9 213.4 214.4 213.3 210.5 206.8 201.8 184 163.8 172.3 185.2 192 197.4 200.4 198.7 196.6 194 190.6 180.3 163.8 148.3 134.6 142.8 157.3 174.1 180.5 180.4 180.4 182.5 181.8 181.2 180.5 179 178 176.4 174 173.1 171.5 169.1 165.6 161.3 165.5 165.4 164.7 162.4 164 165.7 165.8 166.1 165.8 164.5 165.1 165.6 166.3 167 167.7 168.4 168.4 167.1 164.2 155.2 141.2 120 104.3 103.1 118.5 135.5 143.9 124.3 108 92.7 81.2 78.3 79 78.3 78.6 78.7 79.9 81.9 85.3 87.1 90.5 104 112.4 134 150.1 168.6 169.3 170.3 170.8 170.6 171.4 171.6 172.4 173.7 175.7 178 179.9 182.4 184.4 184.6 183.9 183.3 182.8 182.7 182 180.8 180.2 178.4 177.8 173.1 175.2 173.2 171.4 168.7 166.7 163.9 160.6 157 152.2 146.7 140.3 128.5 111.2 93.5 84.7 94.4 105.4
132.5 147.2 159.4 161.2 160 161.3 169.5 181.4 191 201.3 214.6 221.9 229.5 240.6 253.7 268.5 278.2 293.7 303.1 309.4 313.7 316.1 317.2 317.4 317.4 316.4 315.9 314.7 313.3 311.4 309.1 307 305 303.3 300.4 298 296.5 295.7 294.2 292.7 292 290.6 288.2 286 283.7 281.6 279.6 277.4 275.4 273.8 272.4 271 269.1 266.5 264.1 262.3 260 257.7 255 251.9 249.6 247.3 244.4 241.5 238.8 236.4 233.7 230.6 227.2 223.4 218.8 212.4 212.3 216.3 215.4 212.7 209 204.2 192.7 169.6 179 195.7 205.2 204.6 203.3 201.9 200 197.9 195.2 193.1 190.2 181.6 166.3 152 135.7 139.8 156.3 170.9 175.9 177.1 179.6 180.1 179.6 178.7 177.3 176.1 175.2 173.1 172 170.8 168.1 165.2 152.6 162.3 163.2 162.7 159.6 162.7 164.9 165.4 165.7 164.7 163.1 163.3 165.2 166 166.7 167.4 168.1 168.3 167.7 165.7 162.2 151.2 133.7 110.6 96.4 113.7 131.3 149.1 145 130.1 115 102.9 88.9 77.2 77.7 78.4 78 77.7 79.3 80.6 85.9 87.8 97.7 110.8 126.1 143.6 165.5 169.7 170.7 171 170.5 171.5 171.7 172.6 174.7 176.3 178.2 180 181.5 182.4 181.8 182 181.7 181.7 180.7 179.9 179.7 178.6 177.5 176.3 175.9 175.3 173.4 171.3 169.5 166.2 164.6 161.4 157.9 153.3 149.6 145.6 135.8 121.6 104.7 88.2 84 93.6
128.7 146.4 151.8 151.7 151.6 155.3 168.1 178 183.9 197.7 210.9 221.2 227.4 231.5 242.4 257.9 270.8 285 299.9 307.2 311.7 314.8 316.2 316.9 316.6 316.4 315.1 315.3 314.1 312.6 310.8 307.9 305.7 304.1 301.7 299.8 298.4 297.2 295.6 294.2 293 291.1 289.1 286.9 284.6 282.6 280.3 278.2 276.5 274.8 272.8 271.3 268.8 266.2 263.7 261.1 258.7 256 253.9 250.9 248.2 245.4 242.9 240.3 237.6 234.9 231.6 228.1 224.7 220.2 212.4 214.7 217.6 217.9 215.2 211.3 205.5 191.8 178.1 192 206.1 208.5 207.2 205.3 203.9 201.4 199.5 197.3 194.6 191.8 189.6 186.5 182.6 166.5 149 132.4 135.3 150.1 157.3 164.7 173.4 175.4 176.4 176.1 175.2 173.7 173.2 172.4 171.1 170 168 166 160.6 142.8 152.6 159.9 156.2 161 163.4 164.3 164.6 163.5 161.5 162.3 164.1 165.6 166.3 167 167.8 168 167.7 166.9 163.8 154.5 137.7 114.2 97.9 108.2 124.9 145.9 160.5 150.7 139.8 125.5 111 99.7 83.9 76.7 78.5 78.7 78.8 77.9 83.4 86 93.1 106.8 121.2 138.4 160.9 168.8 171.3 171.5 171.1 171.3 171.9 173.2 174.5 176.2 177.9 179.3 180 180.5 180.2 180.3 179.4 180.3 179.2 178.7 177.5 176.9 175.5 175.1 174.7 173.7 172.7 171.5 169.5 167.8 165 162.3 159.3 156.5 153.3 149.9 144.3 134.3 118.5 102.7 88 82.7
128.2 145.7 147.4 146.1 146.1 151.8 163.3 173.1 174.8 187.1 207.9 218.1 221.5 224.2 230.1 245.8 262.5 277.4 292.7 304.1 309.9 313.7 315 315.7 315.6 315.4 315.7 315.4 314.8 313.4 311.7 308.8 306.9 305.6 303.2 301.6 300.1 298.8 297.4 295.5 293.2 291.4 288.8 286.7 284.5 282.3 280.7 278.6 276.4 274 271.8 268.7 266.7 263.9 260.1 256.8 253.8 251 248.1 245.6 243.3 241.4 239.3 236.6 233.3 230.9 227.6 224.5 218.5 215.1 220 221 220.5 217.5 213.4 204.8 189.9 193 205.4 210.1 210.6 209.2 207.2 205 202.8 199.8 197.5 195.4 192.8 190.3 187.5 186.4 184.2 179.8 162.6 145 130.6 127.3 138.2 144.5 151.9 159.3 165.4 169 170.2 169.4 169.6 170.2 169.7 168.7 166.8 165.2 162.7 155.4 131.6 143.3 142.5 159.6 162 162.6 162.7 161.5 159.8 160.7 162.8 164.4 166 166.8 167.6 168 167.9 166.8 162.8 150.5 135.8 111.8 94.8 100.4 123.6 144.2 162.4 163.1 159.8 148.5 132.1 125.3 106.4 86.5 76.8 78.7 78.5 78.1 81.2 83.9 89.8 102.4 119.1 138.5 162.3 168 171.1 170.4 170.3 170.5 171.5 173.2 174.3 175.6 176.8 178 177.9 178.3 178.6 178.6 177.9 177.4 177.1 177.1 175.9 175.3 174.4 174.1 173.7 172.8 171.8 170.3 168.6 168.3 166.4 163.3 160.9 158.7 156.2 152.4 149.5 145.3 131.9 118.7 104.9 92.4
137.1 144 143.6 140.6 141 148.1 155 161.4 162.7 178.5 199.8 211 210.4 216.2 222.3 236.6 253.6 271.7 284.2 297.7 307 311.6 314.1 313.8 314.5 315.3 315.8 315.5 315.1 313.8 311.7 310 308.3 306.6 304.1 302.3 300.5 299 297.4 295.4 293.5 291.4 288.6 286.5 284.3 282.2 280.1 277.3 274.7 271.8 269.2 265.9 263.8 261.9 260 258.1 255.8 253.6 250.4 246.9 242.7 239 235.5 231.5 227.7 224.9 222.6 218.9 221.8 224.4 224.8 223.4 220.4 215.6 207.9 195.1 202.4 211.2 213.5 212.6 210.4 208.1 205.9 203.8 201 198 194.9 192.8 190.5 188.4 187 185.3 184.6 182 178.3 164.2 150.8 138.5 125.3 127 128.1 135.3 143.4 148.3 151.8 156.9 162.2 166.1 166.1 165.5 164.4 163.4 162.3 158.7 142.9 123.2 134.8 154.2 159.9 160.1 159.4 157.7 142 157.9 160.6 163.9 164.2 166.8 167.8 168.3 167.8 165.4 158.8 144.2 124.5 104.3 92.6 109.4 128.3 148.4 162.5 163.9 163 159.8 152.2 141 128.2 107.6 78.6 77.7 78.1 78.1 78.4 80.1 87.2 100 119.7 142.7 164.5 167.3 169.7 169.1 168.2 168.6 171 173.3 174.6 175.7 176 176.1 176.1 175.7 176.3 176.9 176.5 176.2 175.6 173.5 174.5 173.3 173 172.8 172.6 172.1 171.3 170.2 168.8 167.6 165.6 163.3 162.3 160.1 157.8 155.2 153.3 150.3 146.2 135.5 122.3 107
138.2 142.7 140 137.3 137.9 142.5 150.1 153.9 157.1 168.8 190.4 197.8 203.3 214.4 216.1 230.2 246.2 258.8 273.6 288.5 300.9 309 311.9 312.9 314.1 315.3 315.7 315.3 314.9 312.8 311.6 309.8 307.6 305.4 304 301.2 299.2 298 296.2 294.6 292.7 290.1 288.3 285.7 283 280.5 278.2 275.7 272.6 270.3 269 267.7 266.1 264.1 261.7 259 256.7 253.5 250.8 247.5 244.8 241.3 237.9 233.7 227.8 224.5 225.9 227.7 228.4 228.3 225.9 222.3 217.1 209.6 200.2 211.2 216.5 216.1 214.4 212.6 209.7 207.2 204.7 202 199.1 196.3 193 190.6 188.4 186.1 183.9 183.1 182 181.8 179.9 177.6 173.1 160.3 146.5 134.9 125.5 120.8 120.6 125.3 128.7 134.9 141.1 146.3 149.4 155.3 160.6 160.1 159.5 158 151.3 126.4 123.7 146.9 157.1 157.1 155.8 146.3 127.3 142.9 149.9 152.5 159.3 164.8 166.5 166.8 165.5 160.3 150.7 135.5 114.8 95.7 94.7 115.5 135.4 154.9 160.9 162.6 162.9 161.8 155.7 150.8 145 120.8 93.8 75.8 78 77.6 78.4 78.5 84.8 101.2 124.3 147.9 164.6 167.7 170.3 169.1 167.8 168.3 170.5 171.7 172.7 173.6 174.4 174.2 173.9 173.1 173.1 174.1 174.7 174.5 174.1 172.9 170.5 171.2 171 171.3 171.1 170.8 170.1 169.2 168.1 166.9 165.3 163 161.4 160.3 158.9 156.9 155.8 154.2 152.9 148.7 138.7 123.9
132.3 135.4 135.9 134.6 134.3 138.2 149.8 147.2 151.2 160.8 178.2 188.4 198.6 211.8 216.2 221.7 234.6 249.7 263.5 278.6 291.6 303.7 307.4 310.2 312.8 314.4 315.1 314.6 314.4 312.4 310.9 309.5 307.4 305.4 303.9 302.1 299.3 296.7 294.5 291.7 289.5 288.1 286.1 283.6 281 278.7 276.2 274.5 273 271.3 269.7 268 266.1 263.4 260.8 257.4 254.7 251.4 248.6 244.6 241 236.7 234.3 230.8 231.2 233.3 233 232.9 231.6 229.1 224.7 218.1 208.7 207.8 217.4 219.9 218.7 216.4 214.1 211.1 208.1 204.7 201.5 199.2 197.1 195 193.3 191.5 190.5 188.5 185.7 182.7 176.9 177.2 177.7 177.7 176.7 173.7 169 157.7 147.1 137.8 128.8 116.4 114.2 115 118.1 121.8 127.1 131.5 138 145.6 151.1 152.1 146.3 124.6 116.5 142.2 146.1 139.7 132.7 125.5 113.8 120.7 123.6 126.5 132.9 143.3 151.1 154.9 158.5 153.9 147.6 128 108.5 90.7 99.8 122.1 143.9 156.6 160.1 161.3 162.9 161.6 155.9 150.1 144.3 129.9 101 76.2 77.3 77.1 76.9 77 80.6 106.9 130.2 152.5 164.2 167.4 168.5 168.4 166.2 166.4 168 169.4 171 172.5 172.8 172.3 171.8 170.7 170.2 171.2 171.8 172 171.7 170.7 169.9 167.6 168.6 169.1 169.5 169.1 168.5 167.6 166.7 165.7 164.4 162.3 160.5 159.9 158.5 157 155.5 155.1 154.1 152.2 149 143.2
125.5 127.9 131 132.7 131.9 134.7 142.1 145.3 154.3 160.5 170.4 184.2 197.2 207.5 217.1 217.4 221.8 237.8 252.9 261.2 280.6 298.8 307.4 309.6 312.3 314.4 314.5 314.5 314 313.1 311.2 308.6 306.9 305.4 303.7 302.4 299.5 297.2 295.1 292.2 288.9 286.2 283.6 281.4 279 277 276 275.2 273.4 271.1 268.1 265.3 262.7 260.7 257.1 254.2 250.3 246 243.2 242 241.3 240.1 239 237.9 238.8 238 236.8 235.6 232.4 227.7 220.1 209.7 214 221 222.7 221 218.1 215.5 212.9 209.6 207.2 205.3 202.8 199.9 197.7 195.8 194 192.8 191.1 188.4 186 183.4 179.7 174.5 170.5 172.9 172.9 172.8 170 165 156.9 144.5 133.1 121 116.9 115 113.9 112.2 111.8 110.3 115.7 122.9 127.4 127.3 126.1 116.8 110.2 124.6 119.4 113.8 106.7 102.1 100.9 100.5 100.6 104.6 110.3 117.2 126.2 133.5 137.7 141.9 143.3 123.3 101.8 88.5 102.5 125.2 150.7 156.6 160.1 161.8 162.4 159 152.5 146 137.9 120.1 98.7 75.6 76.1 76.8 76.6 77.2 79.2 109.1 137 159.5 163.8 166.3 167 165.8 164.3 163.3 165.3 167.4 169 170.4 170.9 170.7 170.1 168.3 167.7 168.2 168.8 169.1 168.8 168.7 168 166.6 166.3 165.9 167.2 167.3 166.7 165.8 165 164.1 162.5 161.1 159.6 158.6 156.9 155.7 154.9 153.5 153.1 151.3 149.2 145.7
121 125.1 129.3 131.8 130.8 131.8 137.8 146.1 151.7 156 162.1 177.8 193.7 203.8 204.6 209.8 213.3 224.1 239.5 254.2 271.5 294.7 306 309.7 313.1 315 315.5 314.9 313.9 312.9 311.5 308.9 307.1 305.3 303.4 302 299.2 296.7 294.3 291.3 288.1 285.5 283.4 280.4 278.8 276 274.1 271.9 269.8 267.7 266.2 263.8 260.9 257.2 254.5 253.2 252.2 250.9 250.3 249.4 248.2 246.3 244.9 243.9 242 240 238.3 236 232.4 226.4 214.8 215.8 224.9 225.4 223.5 220.4 217.5 215.7 213.3 211 208.9 206.3 203.7 201.1 198.6 196.7 194.8 193.2 190.7 187 184.2 181.3 177.3 173.5 165.3 159.9 161.3 166.1 166 153.9 137.1 124.3 120.5 122.9 127.7 131.4 135.9 135.9 130.3 123 111.4 108.2 106.8 106.3 105.5 105.1 104.7 104.7 102.5 101.2 99.4 100 100 100 97.9 97.9 95.7 94.9 100.4 106.5 111.2 121.6 133.7 123.4 100 87.7 102 125 148.9 153.9 158 161 160.2 154.6 147.7 138.1 121 105.4 87 76.1 76.9 76.7 76.3 76.6 91.8 117.8 142.2 161.2 162.5 163.5 163.9 162.9 162 161 162.3 164.3 166.3 167.6 167.8 168 167.6 166.2 166.2 167 167.1 166.4 166.1 166.4 166.5 165.3 163.6 163.3 164.8 164.9 164.7 163.9 163.1 162.1 160.2 158.6 157.3 155.8 154.8 153.5 153 150.7 150.6 149 146.9 143.6
117.6 122.1 126.9 132.5 131.4 129.6 135 138.9 142.5 143.3 156.6 167 183.2 192.5 193.4 199.1 206 218.7 234 249.8 268.2 290.2 304.6 309 312.5 314.8 315.2 314.9 313.9 312.8 311.4 308.7 306.5 304.5 302.8 301.2 297.6 294.9 293.1 290.5 287.3 284.4 282.2 280.3 278.5 276.8 275.1 273 272.9 271.8 269 267.1 263 261.2 260.8 259.9 258.2 256.1 253.6 252.8 250.8 248.9 247.4 244.8 242.8 239.8 238.3 235.9 231.4 222.8 214.1 227.2 228 225.8 223.5 221.1 218.8 216.2 214.8 212.2 209.7 206.7 204.1 202.1 200.3 197.9 195.5 193.2 190.8 189 185 182 179.4 176.5 173.7 169.7 153.1 142.3 148.6 133.2 124.4 124.6 133.6 140.7 148.1 151.9 154.7 154.4 152.4 145.2 128 109.9 107.3 106.9 105.7 105.3 105 104.4 103.1 103.6 105.6 106.3 106.5 105 101.2 99.7 95.8 94.7 94 93.2 91.8 98.2 112.6 116.1 98.4 86.8 97.3 120 143.6 151.7 154.4 158.1 155.9 150 139 120.5 105.1 95.6 82.6 76.8 76.9 76.9 76.3 76.2 102.9 128 153.7 160.8 160.7 160.6 160.7 160.1 159.3 158.6 159.2 161.1 163 164.7 165.7 165.8 165.4 164.5 164.2 165.1 165.2 164.5 164.3 163.9 164.1 164 161.6 160.5 161.3 162.5 162.3 161.4 160.5 159.2 157.5 155.8 154.8 153.2 151.9 150.2 149.1 148.4 148.4 147.3 144.8 140.9
112.2 118 123.4 129.1 128.9 126 131.9 135.1 137.4 141.4 150.1 161.6 169.8 178.9 184.7 193.9 205.4 219.8 235.4 250.7 268.3 289.8 303.3 308.2 311.9 314 315 314.8 313.8 312.4 310.9 308.1 305.8 303.6 301.4 299.2 296.1 293.4 291.4 290.2 288.1 286.8 284.7 282.3 280.9 279.5 278.4 277.1 275.1 273.1 270.4 268.6 266.9 265.3 263.6 261.4 259.4 257.6 255.9 254.3 252.2 250.4 247.3 245.1 241.8 238.7 235.4 232.2 227.4 216.6 225.4 231 229.9 227.2 224.9 222.4 220 217.3 215.9 213.1 210.4 206.8 204.7 202.5 200.7 198.4 196.1 194.3 192 189.8 186.8 183.9 181.2 178.5 176.6 172.8 165.3 143.3 130.2 127.3 132.4 144.7 153.2 159.1 160 159.6 159.3 158.1 149.2 130.3 113.7 111.4 119.9 126.5 131.9 130 129 130.5 130.3 129.8 133.2 135.3 133.6 131.7 128.4 120.7 101.3 95 93.9 93.7 92.2 91.3 92.7 96.1 91.9 87.2 87.7 106.7 126.9 134.8 137.7 146.3 151 142.2 124.8 106.3 95.3 87.9 77.6 76.4 76.5 76.6 76.4 92.4 117.7 137.1 159.4 160.3 159.6 159.2 158.8 158.3 157.5 156.7 157.1 158.1 159.7 161.4 163 163.7 163.8 162.5 162.1 162.7 163.9 163.6 162.7 161.8 161.9 162.2 159.9 157.1 157.3 158.5 158.9 157.9 157.2 155.9 153.9 152.6 151.4 150 148.4 146.8 146.2 145.2 144.8 144.1 141.9 139.2
109.9 112 119.3 125.1 124.9 124.9 129.5 133.8 136.9 142.7 151.6 161.2 167.7 174.3 182.2 194.9 205.9 221.9 237.4 253.1 272.8 292.8 303.7 308.5 311.9 314 314.5 314.5 313.3 311.9 309.8 307.5 305.2 302.9 300.6 299.1 297.6 296 294.1 292.4 290.2 288.6 286.6 283.9 282.4 281.2 279.3 277.9 276.2 273.8 271.9 270.3 268.7 267 265.3 262.9 260.7 259.1 257.1 254.5 252.2 249.4 246.9 244.7 241.6 237.6 234.6 231.2 224.1 220.4 232.1 232.3 231 228.5 226.4 224 221.4 218.4 216.4 213.6 210.8 208 205.8 203.5 201 198.7 196.3 194.2 192 189.3 187.4 184.4 181.3 179 175.2 160.9 145.4 132 131.5 138.4 148.1 163.6 165.5 164.5 163.8 163 160.7 152.8 131 112.7 115.6 126.1 137.5 146 152.5 152.1 152 151.9 150.9 152.3 152.5 151.1 148.4 144.9 138.3 124.3 102.9 96.5 98.9 99.4 96.6 90.8 90.3 88.5 87.5 86.5 86.1 87.5 95.4 102.9 105.9 115.2 120.9 113.5 101.5 92.2 85 81 75.8 75.8 76.3 77.1 77.8 109.4 128.9 145.4 158.7 159.1 158.7 158.1 157.2 156.4 155.5 154.9 155.6 156.4 157.5 158.5 160.1 162.1 162.3 161.2 160.1 160.3 161.3 161.1 160.5 160.4 159.5 159.7 158.8 155.9 153.5 155.3 154.8 153.8 153 152.6 151.1 149.3 148.4 146.4 144.6 143.2 142.8 143 143.5 143.2 141.3 138.6
115.7 110.1 116.1 123.1 124.2 122 129.2 134.1 137.2 142.8 149.8 158.1 164.6 172.6 187.4 200.5 210.2 225.8 243.4 259.2 277.7 297.9 305.2 309.7 312.9 313.6 314 314.2 312.6 311.1 309.6 307.7 305.7 303.9 302.5 301.5 299.4 297.3 295.1 292.6 290.8 288.6 287.4 285.6 283.9 281.8 279.6 278.1 276.7 274.9 273.6 271.9 270.4 268.8 267 265.1 262 260.5 258.1 255.3 252.4 250.3 247.8 246 243.4 240.5 237.4 233.8 224 227 233.8 233.7 231.6 229.7 227.7 224.5 221.2 219.1 216.6 213.8 210.9 208.5 205.8 203.4 200.8 198.5 196.5 194.2 191.8 190.1 187.3 184.1 181.2 167.9 152.1 135.9 133 142.2 150.7 158.8 166.4 169.7 168.9 167.9 166.4 163.4 158.6 142.8 119.9 118.6 132.3 143.6 153.8 159.1 160.1 160.1 159.4 159.8 159.1 158.1 156.2 151.3 146.1 139.1 127 111.9 99.3 111.3 120.6 119.5 109.6 98.6 90.1 89 87.6 86.5 85.4 84.6 84.6 82.3 83.7 83.3 84.2 81.3 80.2 79.3 78.5 78.4 77.7 74.8 75.7 76.7 90.4 120.1 147 157.8 158.5 158.2 157.7 157.2 156.1 154 152.9 150.6 152.9 156 156 157.2 158.2 160.4 161.1 160.7 160.2 158 158.4 159.3 159.4 159.2 157.6 157 155.9 152.8 150.2 150.7 150.6 150.5 150.4 150.3 148.8 146 145.5 142.9 141.2 139.9 140.4 141.8 142.2 142 140.4 138
119.4 109.9 112.8 121.4 119.4 122.5 133.8 138.9 142.2 147.1 153.2 161 168.4 179 191.1 205.8 218.1 232.9 249 266.6 284.1 300.8 307 311.3 313.6 312.7 314 314 312.4 311.5 310.4 308.7 307 305.2 303.4 301.6 299.9 296.8 294.3 293.2 291.5 288.5 287 285.9 283.4 281.7 280 278.6 277.5 276.3 274.6 273.2 272 269.8 268.4 265.7 263.2 261.2 258.4 256.3 253.8 251.6 249.5 246.5 243.7 240.6 237.1 232.8 224 231 235.3 234.2 232.2 230.2 227.5 224.2 220.9 218.9 216.7 213.5 210.7 207.8 205.7 203.2 200.7 198.1 195.8 193.4 191.1 188.9 186.1 176.8 158.3 142.7 136.6 141.4 152 161.5 173.3 174.3 174.3 173 171.3 169.7 167.2 163.4 156.3 138.2 117.3 125.3 146.3 156.5 162 163.9 163.4 162.5 161.6 159.8 158.2 155.4 151.5 145.8 137.9 126.1 112.8 102.5 117.9 130.3 140 138.8 128.8 115.6 103 96.4 90.3 88 86.3 85.6 84.2 83.4 83 82.5 80 79.6 79.2 78.2 78.6 77.7 77.7 74.7 75.9 75.9 92.5 129.7 157 156.7 158.1 157.9 157.5 156.3 154.5 151.3 148.6 146.5 152.1 155 155.4 156.2 158.3 160.1 160.2 159.9 159.3 157.8 156.4 157.4 158.2 157.3 154.9 153.7 153.1 150.4 147.7 147.2 147.4 147.2 147.5 147.1 145.3 143 140.5 138.1 138.2 137.9 138.6 140 140.7 140.4 139.4 137.6
109.5 109.8 110.9 114.9 116 128.6 138.1 140 146.8 156.4 162.6 170.2 179.1 189.2 199.2 209.8 223.2 239.2 254.1 271.6 289.1 303.2 308.7 312.4 313.5 311.5 315.3 314.3 313.2 312.1 311.1 309 307.4 305.5 303.2 300.9 298.7 297.2 295.4 293.1 290.4 285.8 286.7 284.9 282.8 280.7 279.5 279.1 278.1 277 276 274.3 272.4 270.9 268.8 266.5 263.7 261.4 258.8 257 254.9 252.6 249.4 246.7 243.6 239.7 235.9 231 226.7 234 236 234.6 232.4 230 227.3 224.1 221.3 218.9 215.5 212.3 209.5 206.8 204.4 202.5 200.2 197.2 194.5 191.7 188.7 185.5 171.8 152.5 140.8 141.5 151.6 163 172.9 178.3 178 177.3 175.7 174.1 172.5 170.5 167.5 163.6 156.1 136.4 118.9 131.7 155.2 164.2 164.7 164 163.2 161.4 159.3 157.4 153.7 149.7 140.7 130.3 122.3 111.6 110.3 126 138.4 149.7 153.2 149.5 146 133.2 123 115.1 106.8 101 96.6 92.6 88.4 85.9 85.6 84.7 83.1 82.6 81.4 79.5 77.3 76.7 74.8 74.7 75.1 76 94.1 131.2 153.8 155.6 157 157.7 157.1 156 152.6 146.4 133.2 150 154 154.8 155.6 156.5 157.9 159.2 158.9 159 158.3 157.1 155.1 155 155.9 155 153 150.9 150 148.3 145.9 144.1 144.6 144.5 144.5 143.3 141.8 139.5 137.1 135.7 134.2 134.2 137.3 137.4 138.9 138.9 138.1 136.3
118.1 118.1 117.6 115.3 122.3 129.4 136 141.7 150 166.9 174.6 182.7 191.8 199.9 208.6 218.3 231.4 245.8 262.4 279.7 295 304.9 310.2 313.6 313.1 316.1 315 314.3 313.7 312.1 310.5 309.4 307.4 305.1 301.9 300.6 297.3 294.5 292.4 288.8 286.9 287 285.8 283.8 281.2 279.3 277.9 276.8 275.9 275.5 275 273.6 271.8 271.1 269 267.1 264.5 262.3 259.8 257 254 252 248.2 245.6 241.9 238 234.7 229.7 231.1 236 236.3 234.3 231.7 229 227.1 224.3 221.7 218.8 214.9 211.5 208.6 205.9 203.2 200.1 197 193.8 190 185.9 178.5 170 152.5 142.7 151.9 162.3 172.3 181.5 181.4 180.6 179.9 178.7 177.1 175 173 170.1 166.5 162.9 146.3 128.8 122.4 141.8 162.1 165 163.7 161.7 159.6 155.1 153.9 151.8 144.6 134.9 122.3 113.5 110.1 118.8 131 144.8 154.4 160 158.3 156.4 154 148.9 142.8 137.2 130.8 122 116.5 108.9 97.6 91 87.6 86.7 85 84.1 82.6 80.6 78.8 76.2 74.7 74.8 75.3 76.3 87.9 118.4 142.4 151.3 153.9 155 155.4 153.4 148.4 134.7 136 150.6 154.9 155.8 157.6 158.3 158.9 158.7 158.6 157.6 157.1 155.9 154.6 152 153 151.7 150.3 148.6 147.4 146.6 144.3 142.4 142 142.4 141.7 140.6 139.4 137.1 134.1 132.3 131.8 130.6 133.5 135.2 136.3 136.8 136.4 134.9
132.9 128.2 122.4 117.9 126.4 133.9 141.3 148.9 160.7 175.1 186.9 196.1 204.8 211.5 220.7 228.6 241.5 257.2 272.9 287.8 302.3 308.1 312 314.4 316 317 315.7 315.1 313.6 311.7 310.4 308.6 306 302.8 301 300.2 298.7 296.9 294.5 292.8 289.6 287 284.4 281.3 280.2 280.2 279.2 277.3 274.2 271.9 272.7 272.9 272.2 271.3 269.5 267 264.6 261.9 259 256.5 253.3 250 247 244.4 240.3 236.3 231.5 230.6 235.5 236.7 235 233.8 231.2 229 226.7 224.5 221.4 218.3 214.4 211.6 209.2 205.7 202.5 201 199.3 196.3 192.4 187.6 175.9 151.6 144.6 158 170.7 181.7 185 185.1 183.8 182.2 180.5 178.9 177.2 174.9 172.3 168.8 163.6 146.2 130.3 123.5 138.2 157.4 165.9 165 162.3 146.8 135.8 131.3 133 130.3 125.3 118.2 121.5 119.7 128.6 140.2 152.6 161.8 164 163.7 162.4 160.6 158.4 156.3 152.5 148.2 141.9 136.6 131.3 123.1 107.4 93.8 89.7 88.6 87 85.6 83.8 81.9 80.3 78.4 76.9 75.4 75.7 75.8 79.5 102 124.1 138.9 147.4 149.3 150.4 147.4 138.2 119.2 137.4 150 153.6 156.3 158.3 158.9 159.3 158.6 158.3 157.3 155.8 154.9 154.3 152.1 149.8 149 147.7 146.7 145.2 144 142.9 140.8 141 141.2 140.6 139.1 137.9 135.8 133.5 131.8 130.4 128.5 129.4 132.3 133.1 133.5 133.9 132.4
142.1 134.1 126.1 123.4 131.9 140.9 153.1 163.6 174.7 186 196.8 207.9 214.8 219.6 230.5 242.5 254.3 270.1 280.1 299 306 310.3 313.7 314.1 315.8 317.2 316.6 315.4 313.5 311.7 310.1 307.8 305.1 304.4 303.4 301.6 299.8 298 295.4 293.6 290.5 287.8 284.4 284.2 284 282.7 281.3 279.2 276.7 274.4 270.1 271.6 272.5 271.6 269.1 267.3 264.6 261.8 259.1 256.3 252.8 249.3 244.8 241.8 237.3 233.3 234.1 236.5 237.6 237.4 235.7 233.7 231.4 229.2 226.9 224 221 217.5 214.5 212.3 209.4 206.7 203.8 201.4 198.2 191.2 178.6 164.4 152.1 148.8 162.7 177.3 188.7 189 188 186.6 184.8 183.2 181.3 179.3 177.4 174.9 172.4 168.2 154.3 129 130.3 141.8 154.4 167 167.6 164.1 142.6 130.6 136.1 137.5 131.7 128.1 129.8 137.5 144.6 130.2 143.7 158.6 164.8 166.3 166.6 166.1 164.6 163.3 161.4 158.8 154.9 149.2 142.7 136.2 126.6 109.4 98.3 91.6 92 91.8 90.6 88 85.2 83.9 82.5 73.6 74.2 75.2 75 75.5 76.2 83.7 98.2 115.2 130.8 139.6 140.3 138.9 123.8 112.6 136.6 148 153.3 156.4 158.4 159.4 159.4 158.9 157.8 157.4 156 154.2 152.8 150.9 148.5 147 145.7 144.6 143.3 141.2 140.7 138.9 140.6 141.3 140.6 139.3 138.1 138.1 136.4 135 132 128.8 126.3 127.3 131.5 131.2 130 128
153.7 139.3 130.5 127 138.4 148.2 158.3 173.9 187 199.1 210.2 219 223.6 228.6 241.9 255.3 267.7 280.1 294.6 305.5 310 313.3 314.5 316 317.1 317.5 317.2 315.4 313.7 312 310.1 308.5 307 306.9 305 303.6 301.4 298.9 296.1 293.9 291 288.3 287.6 286.8 285.2 282.8 280.1 278.5 275.6 273.9 271.8 266.8 269.5 270 268.5 265.9 262.7 260.2 257.4 252.6 249.1 245.6 241.6 239.2 237.9 239.8 240.1 239.7 238.9 237.8 236.1 233.9 231.3 229.1 226.9 223.8 220.4 217 213.8 211.8 209.1 206.2 203.6 199.9 184.9 170.1 156.3 152 159.1 169.9 181.9 191.8 192.4 191.1 189.8 188.4 186.5 184.2 182.3 180.4 178.5 175.7 172.3 164.9 143.6 129.6 147.7 159.5 169 169.4 166.2 159.4 135.5 143 152.2 155.3 153.6 149.7 151.6 155.3 154.7 140.5 150.7 164 167.3 168.7 168.9 167.7 166.2 164.4 161.5 158 153.2 145.8 136.1 124.1 109.1 97.6 98.8 104.6 106.9 102.7 95.3 90.7 87.7 85.8 84 73.5 75 74.6 74.7 74.8 76.2 75.3 81 97.3 112.9 122.4 127.8 124.3 109.3 115.2 134.9 149.5 154 157.6 158.6 159.6 159.7 159.7 158.6 157.2 155.9 154.1 152.7 150.6 148.3 146.1 144 142.1 140.6 139.1 137.6 137 140.6 141 140.1 139.3 139.5 139.6 137.9 136.1 133.9 131.2 126.6 124 124.4 126.7 126.2 124.5
160.8 146.3 137.1 130.9 141.3 150.4 163.6 179.2 195.3 209.7 223.5 228.6 232.2 240.7 252.6 266.3 278.6 292.6 305.3 310.4 313.1 315 315.2 315.6 316.7 317.6 316.6 315.1 313.6 312.1 310.2 309.1 309.1 307.9 305.9 303.9 301.9 299.3 297 293.7 290.8 290.5 289.2 287 284.4 281.3 278.5 276.2 273.7 271.3 269.2 266.8 264 261.6 261.4 259.6 258.3 254.8 251.7 248.5 247.4 246.2 245.6 245.2 245.1 243.4 242.2 241 239.9 237.9 235.6 233.8 231.4 228.5 225.8 222.3 219 215.7 212.9 208.9 205.7 202.9 199.4 183.7 165.3 154.9 161.9 172.6 180.2 190.7 195.8 195.5 194.4 193 191.4 189.5 187.3 185.1 183.2 180.9 178.6 175.4 169.1 152.6 131.7 140.6 162.6 171.5 171.4 168.8 163.9 151.9 138 147 166.3 165.4 164.3 164.1 164.2 163.5 161 145.5 159.8 166.3 169.4 170.5 170 167.9 165.8 163.8 160.3 156.4 146.1 131.5 116.3 101.3 103.9 111 119.9 123.7 116.4 105.8 97.8 91.9 88.7 86.4 83.3 74.9 75 74.5 74.6 74.5 74.6 74.6 74.3 81.2 94.4 105.2 109.1 106.4 98.3 122.3 139.1 148.8 155.6 158.2 159.2 160.1 160.4 159.7 158.7 157.1 155.6 154.2 152.6 150.6 148.3 146.9 145 143.8 142.7 141.7 139.3 135.4 139.2 140.4 139.3 139.3 139.6 139.3 138 136.2 134.5 132.3 128.6 125.3 122 120.5 122.1 121.3
166.5 154.6 145.4 134.8 142.6 153.2 168.6 184.2 200.4 216.5 232.3 238.4 245.3 257.1 269.1 280.4 293 305 310.8 313.7 315 316.3 316.3 316.7 317.8 318.3 316.3 314.6 313.2 311.4 310.4 309.7 309.1 307.4 305.9 303.7 301.5 298.8 295.8 293.3 292.9 291.2 288.7 286.1 285.1 284 281.8 279.6 277.6 273.9 274.3 273.6 271.2 267.1 261.3 258.4 257 254.6 254.7 253.9 253.7 252.3 251.2 249.6 247.5 245.4 243.3 242.1 240.3 238 235.6 232.8 229.5 226.8 223.9 220.7 217.4 214.1 211 208.1 204.6 198.1 180.1 165.8 158.3 171.7 184.4 194.5 200.5 200.1 199.5 197.6 196 193.6 191.9 189.5 187.1 185.1 182.8 180.5 177.5 173.5 158 140.9 137.9 159.2 174.1 173.1 171.6 168.8 165.3 163.5 146.2 146.6 169.9 169.2 168.7 168.9 168.5 166.8 163 155 165.8 168.6 170.6 171.1 169.5 167.4 165.1 162.1 157.9 149.2 128.9 111.4 102.9 110.7 120.4 132.2 129.5 116.3 105 95.8 92 89.7 87.2 85.4 80.2 74.4 74.8 74.8 74.6 74.2 74.6 74.2 73.7 74.3 79.3 90 91.1 91.2 104.5 123.2 138.6 148.5 156.1 158.9 159.7 160.2 160.6 159.2 158.2 156.5 155.4 154.2 152.5 150.5 149.1 147.9 146.6 145.6 144.5 143.2 141.1 136.1 134 137.9 138.4 139 139.3 138.8 138.2 136.5 134.7 132.2 129.7 127.8 125.4 120.5 115.8 114.5
165 162.8 151 137.7 144.4 157.7 173.4 189.7 206.9 224.1 241.2 250.7 260.2 272.2 284.3 297 306.7 311.8 314 315.7 316.8 317.4 317.7 318.1 318.9 318.6 316.8 313.3 312.5 311.1 311 310.3 308.6 306.3 304.4 302.2 300 297.4 296.2 294.7 292.4 291.2 290.1 290 288 285.7 284 282.4 280.5 278.3 277.2 274.9 272 268.5 266.1 263.8 261.5 260 259.4 257.9 256.3 254.2 252.7 251.2 249.7 247.5 245.2 243.1 240.4 238.2 235.4 232.1 229.3 226.9 224.2 221.6 218.2 216.3 214.1 211.5 207.3 191 170.9 165.9 180.6 193.9 204.6 205.6 204.3 202.8 200 198.2 195.5 193.3 190.7 188.8 187.2 184 182.1 178.5 174.1 157.5 140.2 138.6 157.3 175.2 175.9 174.3 172.6 170.1 168.4 164.7 149.1 150.7 172.3 172.5 172 172.5 171.2 169.1 162 165.8 168.9 170.3 171 170.9 169 166.6 164.1 161.2 148.1 132 112.6 111.1 119.7 129.4 138.7 135.1 116.5 102.5 99 99.3 98.8 95.4 93.4 88.9 79.4 74.2 74.4 74.6 74.5 74.1 74.5 74 73.4 73.1 74.5 78.4 84.1 90.1 101.6 116.2 132.1 144.8 154.7 158.7 160.4 160.2 159.3 158.4 157.6 156.5 155.3 154.1 152.9 151.5 149.7 148 146.5 145.3 144.1 143.1 141.5 139.5 133.4 132.5 136.4 138.6 139 137.9 137.2 136.3 134.2 132.1 129.6 127.2 125.1 123.4 119.5 114.3
157.9 160.6 150.5 139.7 147.8 162.5 180 197.5 214.9 232.3 249.6 266.8 275.6 287.1 299.7 309.2 313 314.3 315.6 317.1 317.9 318.3 319.8 320.6 320.2 319 317.9 316.3 314.7 312.9 311.4 309.5 307.8 305.7 303.4 302 300.6 298.8 297.7 296.7 294.6 294 292.9 291.8 289.4 287 285.4 283.7 281.9 279.9 277.6 274.9 273 271.8 268.6 266.3 264.8 263.4 261.1 259.6 257.6 255.3 253.8 251.9 250.2 248.1 246.1 244 241.6 238.8 236.2 233.5 231.3 228.6 226 223.2 219.9 217.6 214.6 210.2 196.3 176.1 167.4 184.5 201.9 210.6 209.5 208.2 206.2 203.5 200.4 197.6 194.9 192.1 189.2 186.5 184.9 179.1 177.6 172.7 157.2 142.6 145.1 159.2 177.4 177.6 176.4 174.8 173.8 173.4 170.8 166.6 145.9 159.6 175.6 176.1 175 174.3 171.3 167.6 167.7 170.7 171.2 171.8 172.3 171.7 170.8 169 166.4 153.9 134.1 116.2 115.5 128.4 138.1 147.7 147.2 128.5 104 109.1 115.7 118.6 117.1 109.8 103.2 96.5 89 73.8 72.9 72.2 72.4 73.9 73.8 73.9 73.6 73.1 72.9 73.4 80.9 87.2 95.5 110.6 126.6 138.6 152.3 158 160.1 160 159.1 158.1 157.1 156 154.6 153.4 152.1 150.9 149.1 147.7 146.1 144.8 143.5 142.5 141.7 140 137.6 130 132 136 137.5 136.8 136.1 134.9 133.6 131.6 129.6 127 124.6 122.9 120.3 116.8
