ncols 200
nrows 83
xllcorner 210000
yllcorner 701800
cellsize 50
-1.4 -1.4 -1.4 -1.4 -1.4 -1.4 -1.4 7.9 13 20.8 28.3 34 40.6 47 52.9 59.1 67.6 68.1 61.5 59.9 61.5 64 68.4 77.5 84 90.8 98.4 107.1 114.6 123.4 131.3 139 147.6 156.4 162.9 169 173 178 184.3 191.2 198.7 207.2 210.7 219.6 228 229.4 235.5 239.5 245.8 250.1 253.7 258.8 264 266.6 272.4 275.2 276.8 279 276.6 274.3 274.7 276.2 277.2 280 285.8 289.6 290 297.1 306.4 311.1 316.5 320.9 331.2 342.2 357.2 364.6 372.5 384.8 393.4 402.5 409 420.9 431.6 441.4 456 460.5 467.2 475.6 479.7 484.5 489.7 494.6 498.5 503 503.3 506.3 519.5 529.6 541 539.1 543.1 537.3 529.6 511.5 487 455.9 438.7 424.6 410.3 397.1 403.9 402.4 401.6 395.4 399 403.4 420.6 431 435 440.8 449.6 465 480.8 494.1 504.1 513.6 528.2 539.1 545.7 555.3 559.9 563.6 563.1 557.9 536.5 528.9 517.5 500.8 489.3 430.4 411.3 384.2 338.6 305.3 303.6 296.3 293.2 281.5 275.4 282.3 257.6 250 223 205.4 180.3 183.8 176.3 175.1 171.5 163.6 152.4 148.7 138.5 123.4 127.2 144.8 163.1 180 197.4 219.2 234.9 247.6 261.4 271.6 272.4 265.2 245.7 224.2 218.5 199 188.5 185.8 198.9 217.2 219.6 219.7 217.5 212.1 200.6 188.2 172.3 154.9 137.9 118.2 112.6 104.7 99.3 89.6 84.5 79.6
-1.4 -1.4 -1.4 -1.4 -1.4 1.6 8.3 13.4 22.2 28.8 33.7 39.4 39.5 43.9 50.4 57.7 60.9 58.6 59.1 61.4 63.8 67.5 74.6 80.9 89.2 97.5 105 112.7 122.5 130.8 139.9 150.7 157.6 163.8 169.8 173.2 179.4 187.2 194 201.1 208.5 214.5 219.4 221.7 232.4 237.3 243.3 248.4 252.2 256.2 261.7 266.3 271 273 278.1 281.1 284.4 282.6 281.8 279.2 279.3 282 282.4 286.8 293 298.8 303.6 308.6 313.7 320.9 328.1 334.1 343.8 355.2 369.7 371.3 385 393.6 399.8 410.4 420.6 431.8 440.2 452.7 460.3 466.5 475.1 481.1 486.3 491.6 497.5 503.3 508.5 510.5 511.8 518 531.7 544.6 548.9 548.1 540.1 541.9 529.7 518.9 488.2 473.6 445.4 432.2 420.6 410.3 416.4 415.5 411.1 411.9 408.5 421.9 437.3 441.7 447.8 449.9 462.9 473.6 487.2 496.3 504.9 515.3 523.7 534.9 543.7 556.9 568.5 568.1 569.3 564.2 550 540.3 532.9 501.6 470.6 432.6 416.2 381.5 348.3 327.9 321 324.6 317.8 300.3 291.1 284.2 275.4 264.8 238.6 218.8 193.3 206.2 199.1 196.2 196.2 187.3 176.3 172.2 152.5 134.9 107.4 126.8 141.6 162.3 181.2 199 212.7 233.7 253.7 271 279 271.6 247.5 223.2 190.1 180 150 153 181.6 194.9 200 200.7 194.3 191.9 179.6 164.5 147.6 136.2 114.5 104.9 100.3 97.3 91.4 83.1 80 86
-1.4 -1.4 -1.4 -1.4 -1.4 7.3 11 15 28.4 34.2 34.8 38.9 36.7 40.3 44.1 51.1 59.6 60.2 61.7 63 67 70.9 80.4 87 97.6 105.2 114 124.1 132.4 140.6 148.5 158.8 163.5 170.8 174.5 182.4 186.3 197.4 203.8 210.1 217 221.1 228.5 234.4 238.9 244.3 248.7 253.1 256.9 262.6 267.7 273.1 276.2 278.2 283.5 287.7 288.7 287.8 287.7 281.9 286.1 285 289.3 291.1 296.1 303.5 311.2 318.1 325.3 332.6 340.1 348.7 358.1 368.1 380.1 386.7 393 403.5 409.2 418.5 429 440 448.5 459.6 468 473.3 481.1 487.4 490.1 498.3 506.1 511.1 517.5 520.2 522 534.7 549.1 555.5 552.3 547.3 549.2 540.2 541.3 520.2 496.8 475.3 455.3 439.9 426.8 423.7 427.5 421.5 410.7 416.9 417.4 431.9 438.5 442.5 447.1 457.9 469.7 478.4 489.8 497.8 507.5 516.4 523.4 528.7 538.2 552.2 565.4 573.2 570.3 565.8 563.4 558.2 547.7 525.5 469.4 438 425.3 396.2 367.9 348 341.1 347.8 344.2 334.9 310 306.6 291.8 277.6 251.8 216.8 229 231.7 223.2 213.5 213.1 206.8 198 180.3 162.3 142.8 110.7 105.3 120.4 145.9 163.4 177.7 196.5 212.1 237.9 257.2 268.7 271.7 230.1 204 180.8 159.8 142.5 149.5 172.9 180.5 182.4 178.7 171.2 167 156.3 143.7 131.7 108.8 94.5 92.1 88.5 80.6 79.2 77 83.1 95
-1.4 -1.4 -1.4 -1.4 7.5 9.5 11.9 16.5 29.5 28.5 29.1 27.7 29.2 36.2 45.3 60.6 66.5 65.2 65.1 67.7 71.9 78.3 86.5 95.3 102.8 113.1 124.1 130.7 139.5 147.9 157.6 167 171.4 175.7 183 190.3 198.2 206.1 212.5 219 224 228.7 235.5 240.9 246.2 252.4 255.6 259.7 263.8 267.7 273.1 278.1 282.7 285.3 289.4 291.2 291.8 292.7 291.9 287.3 290.6 291.7 295.1 300.2 308.5 314.5 321.4 329.2 337.8 345.7 353.7 365.1 372 379.3 390 396.3 402.2 410.9 420 425.8 436.5 448.4 457.4 465.8 472 479.6 487.4 490.9 496.2 504.3 511.6 517.4 526.4 529.6 537.4 551.8 560.4 562.6 551.4 557.6 548.8 547.8 537.9 526.9 493.8 472.2 463.6 446.1 433.5 433.8 432.5 419.8 417.2 420.9 423.4 432.6 442 442.6 445.7 460.8 469.6 479.3 488.2 496.5 506.7 516.6 522.2 531.1 535.4 547.9 558 574 576.7 574.7 574.1 570.8 560.3 551.5 500.8 454.6 436.6 409.8 376 373.7 368.2 363.9 366.4 359.4 333.9 322.9 300.2 292.7 266.1 253.3 260.2 254 244.4 232.9 227.8 231.2 223.7 198.6 174.6 156.6 131.3 109.8 101.3 117.3 143.8 151.7 175.6 191.8 193.6 219.1 231.4 222.8 207.5 185.5 161.3 141.5 126.7 150.3 162.6 163.5 163.9 159.9 148 143.4 132.2 126.3 116.3 90.6 85.7 79.9 76.7 72.2 75.7 85.9 96.2 111.3
-1.4 -1.4 -1.4 -1.4 1.1 8.4 11.2 15.7 19.3 17.1 20.1 24.1 31.4 42.5 54.6 65.7 67.2 67.2 68.5 72.3 79.2 85.7 94.5 103.3 112.3 120.8 131.3 138.2 146.6 157.3 165.6 171.8 178.4 185.2 191 200.4 208 215.5 222.4 226 231.8 236.4 242.9 249.8 256.4 259.3 261.7 266.5 270.5 274.6 280.3 283.7 287.8 290.8 295.9 295.1 295.6 296.3 297.5 292.4 294.6 298.2 300.7 308.9 316.2 324.4 331.9 340.9 348.9 357.3 368.1 377.7 382.9 385.9 394.9 407 409.2 421 433.4 438.8 444 452 459.9 469.3 475.5 484.8 491.6 494.1 502.7 511.4 517.9 524.2 531.8 538.3 552.6 562.3 563.6 553.8 560.1 552.8 551.9 548.4 541.2 520.2 484 473.9 459.7 446.3 437.6 438.1 430.2 421.6 421 422 425.5 433 438.7 441.3 440.1 459.4 465.8 473.8 487.2 492.8 502.1 514 523.4 528.9 534.3 546.6 557.6 573.7 577.4 574.1 580.9 584.4 581.8 573 537.1 475.1 451.3 425.3 412.3 394.6 406.2 395.4 395.1 384.3 366.5 341.3 308.2 295.5 281.5 287.5 294.6 277.3 268.3 256.2 251.6 260.2 252.4 220.6 201 176.9 149.2 134.8 118.1 100.1 109.7 132.2 153 166.5 175.7 186.2 194.5 188.9 178.3 158.8 141.9 112.9 131.4 147 151.1 153 145.2 146.1 138.7 129.6 121.5 109.1 96.1 78.8 77.3 74.9 69.8 77.8 86.7 96.5 112.9 127.7
-1.4 -1.4 -1.4 -1.4 -1.4 4.5 9.6 12.8 12.4 17.7 23.4 31.4 40.2 53 60.2 66.1 67.1 70.3 71.9 79.1 87.2 95.3 102.8 112.1 121.4 131.2 139.5 144.4 156.3 164.5 172.6 179.6 185.9 193.8 202.2 210.9 218.5 223.4 228.2 234.8 239.1 244.6 250.3 257.3 262.2 259.7 267.2 271.6 276.7 280.8 285.4 290 295.2 296.5 291.3 297.7 299.6 302.3 300.1 296.1 299.5 304.1 309 319.7 328.7 335.5 343.1 351.8 360.8 371.4 381.4 386.7 390.8 396.3 403 415.3 419.1 426.2 433.6 442.7 451 456.5 462.7 469.8 476.7 485.1 490.8 496.7 506.6 513.6 520.9 528.9 538.6 553.3 559.2 560.3 555.4 563.6 557.6 554.8 550.4 540.7 537 503.4 478 468.2 455.5 448.3 441.7 439.4 425.6 423.5 422.9 423.2 426.5 433.3 436.2 434.7 435.8 447.9 458.3 470.3 480.3 489 496.6 506.1 514.1 523.9 539 548.2 554.4 563.9 566.7 579.9 594.1 598.2 600.4 594.9 575.3 504.8 471.7 451.6 444.8 425.4 438.9 432.6 411.7 382.7 364.7 345.8 328 305.5 298.5 315 321.1 297.4 286.7 271.7 272.2 278.7 267.3 250.2 220.2 188.8 169.2 152.4 125.8 109.7 103.5 109 137.8 138.3 145.6 161.1 165.4 161.2 157.9 136 119.2 110.1 127.1 130.8 135.8 137.4 136.1 129.4 126.2 116.6 108.1 95.7 69.4 73.5 68.8 67.5 77.4 87.5 97.2 112.1 127.9 146.4
-1.4 -1.4 -1.4 -1.4 -0.3 1.6 5.5 11.9 16 19.3 25.2 33.6 45.1 55.4 62.1 65.4 68.6 73.6 77.8 85.1 95.3 104 111 121.1 129.9 137.5 147 154.9 165.2 172.6 178.3 188.2 194.5 203.7 212 219.8 227 231.4 236.7 241.5 246.3 252.3 258.2 263.3 266.9 268 269.1 275.7 281.5 286.7 288.7 293.7 298 299.3 299.9 303 304.7 305.3 301.4 303.7 305.1 312 321.8 330.6 338.2 347.5 355.7 364.3 374.9 386.8 392.6 395.8 406.8 412.3 416.4 422.8 429.3 436.7 447.9 450.9 453.9 458.9 465.6 474.8 480.7 485.3 493.6 500.7 507.7 516.7 525.4 532.8 547.4 553.8 554.4 551.4 554 556.2 551 546.5 534.2 524 512.9 487.9 468 461.3 459.1 445.4 442.4 433.5 428 429.7 421.5 422.3 423.3 429.9 431.8 426.1 428.1 438.7 447.7 457.7 470.9 473 489.6 499.6 512.5 514.9 531 536.2 544.6 554.1 565.5 579.1 594.1 603.5 606.5 607.4 599.7 555.6 500.4 476.9 465.4 464.9 452.2 436.6 414.1 386.2 373.7 362.5 336.7 312.6 323 341.2 344.1 316.7 310.7 295.2 293.9 294.4 290.3 264.5 239.8 213.9 185.7 173.3 148 138.9 123.8 97.4 102.4 118.2 126.3 131.4 133.4 135 134.5 121.8 102.8 106.8 115.7 116 114.9 119.7 120.1 118.8 114.1 110.6 101.4 81.4 68.9 64.5 65.1 77.3 85 97.2 113.5 128.2 147.1 161.8
-1.4 -1.4 -1.4 -1.4 0.2 3.2 8.7 15.3 20.5 26.3 31.4 39.2 47.7 56.2 63.9 68.2 70.2 79 85.9 93.4 99 112 120.9 132 138.9 147.9 156.3 159.1 173.1 181.6 188.1 197.7 206.1 215 224.4 232.2 236.9 240.4 245.2 249.7 255.3 261 265.7 269.5 271.7 274 273.5 282.4 287.3 291.6 295.1 299.8 302.3 302.6 304.3 306.3 309.4 309.7 308.7 310.8 315.6 322.4 332.5 340.5 351.1 358.9 368 377.5 390.3 396.9 402.3 409.3 417.2 420.5 423.4 430.9 441.5 451.5 457.2 461.7 463.5 470 478.1 484 487.3 492.8 500 504.1 509.9 514.9 523.9 530 540.1 541.9 541.7 540.9 542.4 543.2 541.5 530.2 513.7 505.2 490.4 471.7 460.1 455 450 442.3 439.9 431.1 429.6 425.5 415.4 421.5 418.5 419.6 420.7 417.5 418.6 429.9 437.8 442 448.9 456.8 469.2 485.8 499.9 510.1 512.9 521.9 535.5 554.9 568.5 574.1 587 594.8 600.6 606.3 596.9 550.1 514.5 499.9 496.4 487.8 454.1 435.3 418.1 400.6 389.3 377.6 352.4 339.3 343.7 356.5 362 334.3 323.5 310.3 309.6 313.2 317.8 289.4 263.6 238 209.3 199.4 171.6 167.1 145.2 115.7 94.7 98.7 103.2 109.2 111.6 113.3 112.1 103.2 89.3 96.9 98.9 97.4 97.4 103.3 106.5 109.4 106.2 102.2 86.4 61.6 63.6 64.2 73.3 83.8 96.6 109.9 126.9 144.5 161.1 176.6
-1.4 -1.4 -1.4 -1.4 0.7 7.6 11.6 22 26.4 29.4 35.1 42 52 61.3 65.2 71.8 79.4 85.4 93.8 102.4 109.5 119.4 123.4 138.4 145.6 153.5 165.7 173.5 181.4 186.3 196.1 205.6 215.9 225.3 235.4 241.6 245.5 243.1 253.9 257.7 264 268.6 272.4 274 276.1 278.9 282.8 282 290.4 297.2 300.7 303.8 306.6 305.6 308.5 311.4 314.4 310.7 313.8 318.2 327.1 335 343.3 349.8 362.9 371.1 381.2 391.7 399.7 402 411.2 417.8 422.6 428.3 432.6 443.4 450.4 458.9 463.6 467.4 471.4 478.3 482.9 486.4 492.5 497.8 503.7 507.3 513.2 515.1 519 524.7 530 529.3 533 532.7 537.9 540.1 529.6 508.8 495.5 481.4 467.9 455.1 451.5 447.4 443.1 439.9 434.7 429.7 423.7 418.6 412.5 414.6 408.8 408 407.2 406.8 412.4 427.4 431.1 429.5 437.3 448.1 457.2 472 483.9 494 505.4 518.7 535.2 551.4 563 574.9 583 585.2 596 605.2 598.2 547.6 525.2 516.8 510.7 496.7 461.7 445.2 429.9 417 399.5 377.8 380 359.5 367.6 370.1 362.9 351 345.3 335.4 324.6 330.8 339.3 306.2 280.1 248.1 231.3 224.4 193.7 190.6 169.4 140.9 116.4 105.1 87.8 94.3 97.2 98.4 98.1 86.6 86.5 88.6 90.6 87.6 85.3 84.4 86 85.3 87.9 88.6 68.4 60.2 58.4 69.4 82 92.4 104.3 120.6 142.7 158.9 174.7 188.8
-1.4 -1.4 -1.4 -1.4 6.3 12.1 20.8 27.1 31.7 34.5 41.5 50.6 60.9 69.5 74.3 79.4 85.9 95.7 101.4 110.6 119.8 129.1 137.1 146.4 151.2 165.2 173.3 182.1 189.4 197.9 204.9 217.2 227.4 236.8 246.7 250.9 253.9 256.4 258.1 265 272.1 275.4 277.4 278.8 282.2 285.4 289.2 293.6 286 302.1 304.8 307.5 309 309.8 309.5 316.9 318.3 316.8 320.5 328 335.4 346.1 353 361.1 373 382.4 390.9 398.8 403.1 411.5 419 426.5 429.5 436.3 441.5 451.2 457.4 461.9 466.6 472.2 474.7 479.7 483.6 488.6 492.3 496.3 502.4 505.5 511.1 513.7 521.3 524.7 519.1 519.1 521.2 528.1 527.6 524.4 509 491.5 478.5 468.3 452.9 444.5 439.6 435.2 435 434.7 427.1 426.8 419 407.9 406.2 406.7 400.2 401.6 397.6 392 400.1 409 411.6 419.3 430.9 436.4 446.3 458.1 469.4 485.5 499.2 510.9 527.3 544.2 555.4 568.7 580.6 587.1 566.3 571.6 570.2 533 526.9 515.8 503.1 492 475.1 455.4 440.3 424.8 408.4 402 390.8 381.3 385.1 392.2 378.7 360.1 351.6 346.3 338.8 334.2 348.9 327.3 287.2 266.7 254.4 245.8 221 205 194.4 179.5 145.1 127 110.3 95.7 84.9 85 79.4 84.8 72.9 70.7 70.1 70.2 69.3 69.2 68.3 67.6 70.5 66.9 42.7 57.3 64.6 77.2 88 99 113.7 129.7 151.3 170.4 186.5 201.2
-1.4 -1.4 -1.4 6.2 12 19.9 30 35.1 39.2 45.1 51.7 62.7 72.6 82.5 87.4 92.2 98 107.8 116.5 122 130.3 139.1 147 153.2 164.4 170.1 182.1 190.7 199.9 207.5 218.2 227.6 237.9 250 255 258.5 262.2 266 269.5 273.8 278.7 281 281.7 284 286.8 290.2 295 299 303.5 302.9 309.5 311.2 312.4 314.7 317.7 321.1 322 322.5 328.5 337.1 344.2 353.2 361.4 371 381.1 388.1 396 402.1 410.7 417.1 424.7 432.5 438.8 442.6 450 456 459.1 464.5 468.4 472.1 474.6 477.7 482 485.7 488.5 494 499.2 501.3 501.1 509.7 513.6 511.9 515.9 513.8 517.9 520.8 512 501.8 488.3 471 457.2 448.7 440.9 433.2 427.5 428.2 427.2 422.6 421.8 416.8 406.8 396.5 394.1 394.2 390.3 389 385.1 384.7 390.6 394.8 399.4 405.8 416.8 429.3 436.9 447.5 455.1 465.8 481.6 499.2 514.2 527.8 535.5 562 571.6 579.1 579.7 535.8 525.2 517 512.7 512 503.4 486.9 478.6 463.3 446.7 432.3 415.2 414.4 404.6 405.4 406.3 413.8 396.9 367.1 361.6 359.1 351.6 348.4 349.5 346.1 303.6 283.1 275.3 263.9 244.9 234 225.5 216.1 179 164.2 136.8 119.4 106 98.2 94 97.4 100.5 96.2 90.2 71.3 68.1 56.3 51 55.4 55.9 48 49.8 62.9 72.6 85.8 97.1 109.8 122.4 143.4 161.4 182.5 197.8 213
-1.4 -1.4 3.9 10.8 20 29.8 37.9 46.8 53.2 59.9 66.8 77.8 87.9 96.2 105.3 110.3 112.1 119.7 127.1 133 139.2 145.7 155.3 166.7 174 182.5 191.8 201.7 210.4 220.3 227.9 240.4 250.3 256.9 261.8 266.1 270.3 274.5 278.4 281.1 284.2 285.4 286.5 288.8 292 296.5 300.6 305.2 310.1 313.5 311.6 315 316.8 320.2 327.8 323.8 326.9 329 336 343.5 353.8 362.7 370.3 378.9 387.1 394.6 402.2 409.7 418.7 424.9 430.4 438.9 446 449.2 453.5 457.2 460.6 464.5 467.9 470.6 471.9 475.7 478.1 480.1 485.3 489.3 492.4 491.3 493.2 499.2 499.6 505.9 506.3 502.1 507 513.4 503.6 484 467.2 447.5 438.3 432.4 426.6 422.9 419.5 416.5 416.2 411.5 410 409 397.8 388.2 381.8 379.4 377.8 378.6 374.6 371 382.4 383.5 391.8 401 407.7 418.1 420.5 431.4 444 454.1 466.7 485.1 502.9 512.5 524.8 533.4 537.1 548.5 537.4 526.2 503.9 502.6 504.3 498.8 500.6 484.9 478.9 460.5 450.9 438.9 430.2 433.9 431.2 453.1 445.4 429.3 416.2 385.6 371.2 372.8 366.5 368 361.3 356.1 336.2 307 291 284 267.4 272.9 247.5 244.4 215.2 194.3 166.6 145.2 131.5 104.5 93.6 98 100.2 100.2 93.6 84.3 76.8 65.2 55.8 45.1 42.1 37.2 58.9 71.3 81.7 93.5 105.4 117 129.7 150.5 168.4 191.7 209.2 224.6
-1.4 6.3 12.1 21.5 31 41 50.2 60.1 67 77.2 87.2 98.7 107.3 116.5 122.2 122.6 126.5 131.6 140.9 147 151 158.4 168.9 177 185.3 194 205.6 211.4 222.5 231.2 242.8 252.1 258 265.4 269.4 274.6 278 282.1 286.5 287.6 288.7 289.8 291.3 294.1 298.4 302.8 307.1 311.9 316.3 317 317.5 318.2 322.1 327 329.3 327.4 330.9 338.6 345.2 352.2 362.1 370.1 378.4 388.3 394.9 401.7 412.6 419.2 429.9 433.4 437.7 445 450.2 454.5 457.6 460 461.8 462 464.9 466.9 467.4 466.9 470.3 474 477.3 480.7 481.4 484.4 484 487 487.9 493.3 490.2 489.8 488.8 489.3 477.9 460.4 443.4 431.8 422.2 418.2 413.7 411.9 409.7 406.8 404.4 406 400.7 397.2 388.5 382.2 371.9 364.5 367 362.7 358.8 359.8 367 376.6 384.4 394.8 396.7 399.6 410.1 421.5 430.7 437.1 448.8 457 471.7 477.9 495.8 497.4 500.3 504 493.8 497.3 489.3 481 476.1 480.4 485.6 481.8 471.1 460.4 451.2 445.9 455.2 460.8 463.5 471.6 469.2 443.5 439.7 413.6 398.2 384.9 379.6 381 380.4 365 348.3 334.8 316.1 303.7 306.4 309.3 278 263.6 247.6 215.7 190.9 170 141.8 117.3 97.6 95.9 99.9 99.4 94.1 85.5 75.8 66.6 54.6 44.5 39.6 49.1 67.6 81.2 93.7 104 112.1 123.1 138.7 156.5 173.9 194.9 216.6 235.5
5.1 11.9 22.7 31.2 41.7 51.9 62 70.3 78 91.3 103.7 117.3 123.5 130.9 141.3 139.6 141 148.7 157.4 162.5 167.4 173.4 179.4 190.4 200.7 209.3 218.3 226.5 235.1 245.6 253.6 261.4 268.4 272.2 276.9 281.1 285.1 290.1 292.8 292.9 292.8 294.2 296.5 300.7 305.4 309.2 313.8 318.6 320.7 321.9 322.2 323.4 327.4 331 331.7 331.8 337.4 343.8 353.5 361.6 367.8 376.4 384.9 396.6 401.8 411 417.8 425.2 432.9 440.3 443 449.2 453 456.5 458 459.2 460 460.4 461.7 462.8 461.6 460.4 461.9 465.3 467.9 472 471 472.4 474.1 473.6 476.6 476.2 477 475.3 472.4 469.9 459.2 439.9 427.8 418 410.2 405.7 402.6 400.4 396.9 396.4 398.5 398.9 390.6 383.6 377.2 370 361.5 351.7 349.3 350.6 349.8 353.9 363.6 367.2 376.2 380.6 384.8 394 401.4 410 418.3 422.3 432.4 436.8 442.7 452.2 464.5 469.2 465.7 469 475 474 465.8 469.4 467.7 462.2 466.6 469.5 464.8 458.7 446.8 454.7 470.5 468.8 486.9 484.1 482.4 464.6 452.1 439.9 424.7 415.5 405.6 406.5 402.5 383.7 363.5 355.3 342.4 321.3 322 327.8 303.4 285.9 267 233.9 207.4 184.9 154.8 127 104.5 90.5 89 89.7 88.4 82.4 73.7 59.1 51.3 36.5 46.4 57.2 78.6 89.5 105.4 114.5 126 135.7 139.3 154.9 176.2 195.5 218.7 247.4
11 20.1 29.6 41.6 51.6 62.5 70.2 77 87.3 99.1 112.5 122.4 129.9 140.7 147.8 150.3 152.7 161.7 170 178.2 181.2 186.2 195 202.9 213.6 221.9 229.6 239.1 248.7 255.6 263.3 270.5 275.1 281.5 284 288 292.5 296.5 297.9 297.5 298.1 299.4 303.4 307.4 311.5 315.5 320.3 323.2 324.7 325.7 326.5 329.5 333.1 334.1 333.4 338 345.4 353.2 360.8 369.4 375.4 383.3 390.8 399.5 408 419.6 424.3 435.1 441.5 447.1 448.7 452.2 454.5 455.9 456.8 456.6 454.9 454.1 456.2 456.5 457.3 456.5 455.8 459.1 460.3 459.4 459.8 462.3 462 465.2 464 464.9 458.7 458.5 450.1 437.5 428.1 418.4 412.6 403.3 396.5 394.3 393.4 388.1 386.7 384.9 385.5 380.7 377.7 370.2 368 362.9 354.5 343.4 344.6 344.6 346 350.8 351.6 359.9 361 365.6 366.9 379.8 391.3 391.2 396.6 402.9 411.8 419.8 428.1 435.6 441.2 443.4 449.4 456.8 456.1 447.1 450.1 457.6 449.5 450.4 443.8 455.6 456.4 447.1 440 456 461.1 476.4 500.4 476.9 486.6 484.7 474.7 465.2 452.3 439.2 432.8 424.9 422.2 412.5 391.8 379.3 363.8 340.7 348.4 352.2 334 317.8 278 253.2 221.6 204.4 174.9 137.3 118 106.1 77 82.7 82.5 76.1 65.4 53.1 43.2 44.5 51.4 62.3 78.5 96.7 114.1 127 139.2 142 152.7 170.7 176.2 199.8 221.1 245.9
18.4 29.7 39.7 50.2 60 69.8 76.1 84.9 95.8 108.1 121 128.2 137.5 148.3 155.1 159.2 165.2 174 182.5 187.8 192.3 198.6 207.1 216.5 218.9 233.4 241.3 249.2 257.1 264.7 273.4 279.6 284.3 287.4 291.5 294.8 299.2 302.4 302.3 302.7 304.8 306.1 310 313.8 318.2 322.8 326.2 328.6 329.9 330.7 332.3 335.4 333.4 336.2 337.9 343.8 352.9 364.4 367.1 374.9 383.8 389.9 399.2 409.4 417.1 428 433.4 443.6 447.1 451.7 454.5 455.3 454.7 455.6 455.8 454 450.3 448.3 449.7 449.5 449.5 450.3 449.6 453.1 452.4 449.7 451.7 449 451.1 450.2 448.1 447.7 441.8 432.9 425.6 416.3 407.6 405.2 401.2 391.9 386.4 384.1 377.9 377.9 375.4 371 371.3 368.1 364.2 356.6 356 350.3 341.4 336.2 336.7 336.4 335.6 343.2 345 351.2 351.6 352.9 361.1 371.5 372.3 377.3 375.9 386.3 396.5 407.7 416.1 422.7 428.8 435.8 441.1 442.7 440.9 434.3 438.8 436.6 435.3 435.9 434.4 433.7 431.2 425.5 426.2 433.4 445.9 458.5 458.9 458.7 464.4 477.3 490.2 493.3 477.9 468.5 449.2 445.7 439 422.7 407.3 398.9 379 361.3 359.5 366.8 351 329.6 294.9 270 237.3 203.1 183.4 148.7 136 118.6 87 69.4 71.3 62.6 54.8 46.1 40 52.3 47.2 60.7 75.9 96.8 120.7 128.9 136 145.5 160.9 181.8 196.1 209.7 216.2 245.3
28.4 36.6 49.3 59.3 65.7 74.9 85.6 95.8 103.9 116.5 126.1 136.9 146.5 154.4 161.9 167.5 173.6 183.4 190.3 196.4 203.4 210.5 218.7 228.3 236.7 243.3 251.9 259.8 267.5 276.3 280.7 285.5 290.6 294.7 297.2 301.4 305.8 306.6 307.7 307.5 310.6 313.7 316.9 320.4 324.7 329 331.8 334 335.2 335 332.9 338.6 337.6 339.7 345.4 351.1 362.3 369 376.7 381.5 390.6 398.2 409.2 417.9 427.9 435.8 442.8 452 454.9 457.1 457 455.7 454.5 453 450.9 447.9 445.3 444.8 443.9 441.6 442 440.6 442 441.4 441.7 439.3 436.4 437.9 438.8 431.3 431.2 425.7 420.4 412.7 403.9 398.9 392.5 389.5 382.2 377.6 371.9 373.1 366 365 364.7 360.9 358.2 356.4 352.4 347.5 342.3 335.6 331.2 329 328.4 327.2 330.4 335.6 339.2 343.7 345.6 352.6 354.2 349.6 350.2 351.4 357 371.7 378.7 388.7 398 407.6 412.1 416.9 423.7 423 416.5 424.2 428.2 426.8 426.3 426.7 428.3 420.3 415.5 416.8 417.7 424.1 421.3 426.4 427.7 433 441 456.6 476.9 487.3 496.4 493.2 488.6 471.7 466.4 456.6 435.6 426.4 396.9 382 383 370.2 366.8 335.1 306.7 266.7 236.1 210.6 187.4 164.2 149.8 127.2 94.9 59 59 51.6 46.3 28.3 47.3 51.3 55 70.1 81.6 94.6 113.6 123.7 133 150.1 163.7 188.5 212.7 230.5 241.4 254
35.3 44.7 54.9 65.5 74.4 80.5 90.3 96.2 115.5 123.9 133.8 140 153.5 162.8 167.8 175.5 185.7 193.3 199.8 206.3 213.7 221.9 231.9 239.5 247.2 254.8 262.1 269.4 278 283.4 288.5 293 296 299.5 304.2 306.3 309.6 309.8 311 312.7 316.8 320.8 324.2 328.8 333.1 337.5 338.8 339.3 339.6 340.5 341.4 340.6 340.7 344 349.5 359.3 367.9 376.4 384.9 389.2 399 407.3 415.9 426 436.6 442.8 451.2 456.7 457.7 458.5 458 455.3 453.4 450.4 445 441.4 438.1 437.8 436.5 435.5 433.8 433 430.3 428.4 427.6 424 422.2 419.6 419.8 414.5 407.8 406 397.1 394.2 387.2 383.3 382 380.3 372.7 366.9 362.2 357.4 354.1 352.9 352.6 351.5 350.2 347.2 342.1 335.5 331.6 328.7 326.5 325.5 326.3 325.5 328.5 330.6 329.9 331.7 341.9 343.6 336.8 333.2 334.5 335.1 342.7 354.5 359.9 370.7 383.9 389.6 397 400.9 407.2 399.3 401.9 409.3 410.3 412.5 412.4 413.7 413.7 410.2 403.7 400.5 408.4 417.2 416.2 408.6 408.3 412.9 423.4 443.7 455.9 468.9 490.3 502.6 495 480.5 486.6 474.5 469.7 448.6 430.1 410.5 397.6 373.5 365.8 333.3 305.1 259.4 235.7 216.4 190 177.9 156.8 131 99.5 66.1 43.9 42.2 36.3 39.6 51.8 45.6 60.8 75.5 92.1 105 116.4 129.2 137.8 151.4 166.1 192.2 217.1 235.9 254.4 275.7
43.3 52.5 63.5 71.7 80 90.6 100.6 114.5 121.1 125.2 137.4 148.2 158.2 168 174.5 186.5 194.7 201.1 209.2 216.8 225.5 234.3 242.2 249.3 256.6 263.8 269.7 279.5 286.5 290.2 295.2 298.2 301.7 306.1 310.5 311.6 313.9 315.2 315.3 319.1 323.3 328.8 332.7 337.2 342.7 344.2 344.8 345.4 344.8 345 344 342.9 344.1 349.2 354 364.8 372.2 381 389.1 397.9 407.9 414.8 423 433.6 444.7 449.6 458.4 461.4 463.1 460.7 459.4 452.3 450.5 445.2 439.7 435.6 431 427.8 426.9 425.3 422.6 420.2 419.2 413.3 416.2 414.2 410.1 406 398.8 396.6 391.9 385.7 383.8 378.8 374.8 371.8 370.9 367.6 360.5 355.7 351.9 347.5 346.8 345.9 341.4 340.2 340.1 334.9 331.5 329.2 329.5 326.5 324.1 323.4 323.1 324.8 326.8 327.6 328.7 330.1 329.5 329.5 326 321.3 321.7 325.2 328.9 331.3 334.6 345.2 362.3 370.1 379.7 383.1 383.1 392.8 396.9 398 397.4 395 392.3 394.2 393 394.6 391.5 387.2 393.8 411.2 411.3 407.5 401.4 400.1 408.5 422.2 433.4 446.2 468.6 493.3 497.1 483 483.2 482.2 474.6 446.3 430.1 420.4 405.8 377.4 351.2 327 299.7 275.1 240 220.2 197.3 184.9 155 130 100.1 67 38.2 36.2 27.9 44.9 50.2 50 72.1 85.5 102.2 114.5 126.5 136.6 143.7 154.2 170.3 182.7 203.5 225.2 250.4 281.4
52.6 61.7 70.3 79.1 88.5 99 111.2 121 127.5 138.2 146.8 146.3 159.7 167.8 182.4 193.6 202 209.4 217.6 225 234.4 242.1 250 256.9 265.1 272.5 281.3 286 292.2 295.3 299.7 304 305.9 310.2 313.6 315.9 317.8 318.8 322.3 326.3 332.9 338.8 343.2 346.9 350.5 351.1 351.6 350.6 349.6 348.1 341.8 346.1 351.9 357.8 368.1 373.1 383.4 392.8 395.1 405 414.5 420.4 434.2 446.1 453.3 455.7 461.7 465.4 465.9 461.7 458.5 450.5 446.1 441 434.6 429.5 423.9 418.4 414 412.7 410.9 408.7 404.9 397.9 400.6 394.9 393.1 389.7 385.3 381.3 378.5 371.7 372.7 369.7 365 364 360.3 354.6 349 344.8 339.8 338.3 340.1 339 335.8 331 329.1 325.8 325 324.4 323.2 322 321.9 323.1 324.2 324.5 325.5 326.5 327.6 328 327.5 324.8 322 322.5 318.6 313.7 314.4 307.2 305.7 319.9 327.1 337.9 354.6 360.1 366.1 375 382.7 388.5 389.8 385.7 382.6 378 374.5 374.4 372.7 376.6 381.3 382.5 397.6 398.3 395.3 393.8 404.4 413 423.4 436.3 452.7 464.6 470 476 486 483.3 462 439.5 410.2 409.1 402.2 380.3 364.5 336.2 301.6 279.7 247.9 221.9 208.7 181.4 152.2 129.9 97.3 69.3 42.5 30.1 32.5 45.5 46.1 58.6 82.6 96.6 107.1 119.9 130.9 140 141.9 157.4 171.8 186.3 202.7 222.8 239.7 274.9
61.4 70.3 80.4 91.4 100.1 109.3 119.4 129.6 138.5 144.6 149.7 158.1 164 179.3 187.3 200.5 209.5 220.2 228.9 236 244.5 250.6 257.4 266.3 275.2 286.2 289.9 293.7 297.8 301.3 304.6 308.3 310.7 314.6 317.6 319.4 321.2 323.9 328.4 334.8 342.7 347.7 353.5 354.3 357.2 359 355.7 352.6 353.4 347.2 346.1 350.6 354.6 364.6 376 381.8 390.3 398 403.3 411.4 422 430.4 443.4 453.7 457.3 459.5 465 468 466.5 461.1 453.8 447.6 441.4 434.1 426.8 419.9 413.1 408.2 405.1 399.7 398.2 394.7 390.8 383.3 386.1 382.3 381 375.1 374.8 373.2 366.6 357.8 358.9 352.5 351.5 350 347.1 345.8 340.9 335.8 333.7 335.6 331.4 331.1 327.8 325.1 325.7 324.2 321.3 320.7 322.8 324 326.7 325.9 326.8 326.5 327.1 328.8 329.7 330.8 329.1 326.6 329.2 329.9 328.6 321.4 316.2 310.6 295.2 289.3 293.5 310.8 325.6 332.7 338 359.9 370.4 373.5 374.2 372 353.6 356 359.3 348.6 354.2 361 366.5 369.7 373.2 382.1 383.8 383 390.7 410 424 441.3 446.4 463.5 469.5 471 473.4 474.7 452 418.2 395.4 406 391 376.5 357.6 338.2 303.3 270.8 251.1 223.9 203.7 179.8 153.8 121.6 91.4 69.8 40.1 28.4 32.6 35.8 36.6 60.9 81.5 93.7 106.5 119.4 129.2 136.6 141.6 159.2 173.4 183.7 196.7 219.7 233.6 253.1
65.9 77.8 90 99.5 107.2 113.8 125.9 136.2 142.8 148.7 157.1 166 176.2 185.8 196.7 207 215.4 226.6 237.9 244.9 251.7 257.4 268.4 277.2 286.2 294.2 296.7 299.9 304.7 308.7 311.3 312.6 315.7 319.8 322.3 324.4 326.8 330.2 335.3 343.2 349.9 354.8 358 359.9 362.2 360.9 358.4 356.5 352.4 349.8 350.9 354.9 361.5 372.2 378 389 397.2 402.5 408.4 417.9 428 440.8 452.7 457.8 462 461.7 468.4 468.2 464.3 456.6 448.7 443.2 435.9 427.3 418.8 409.2 402.4 394.1 390 389.3 385.3 379.4 372.8 376.3 372.1 365.9 363.8 358.7 356.2 352.1 351.5 350.2 350.2 345.3 345.4 340.6 340.1 338.6 331.2 326 325.4 327.5 324.4 323.9 322.8 323.3 322.3 321.3 319.2 323 325.5 327.8 329.3 329.2 329.2 331 333.4 334.7 334.2 339.5 330.2 334.5 339.3 341.8 346.2 343.6 339.9 333 318.4 298.2 275.8 284.3 299.3 304.4 326.2 346.4 358.1 362.3 363.3 353.3 341.3 324.6 324.9 321.3 333 343.6 350.5 359.3 364.2 366.3 371.6 378.2 393.5 413.3 425.7 434.8 442.5 445.5 456.4 453.5 452.2 457.7 444.8 398.8 383.9 386.1 382.8 364.8 350.4 331.7 299.1 267.7 246 228 210.3 184.1 151.4 113.9 87.5 62.1 37.4 24.9 33.9 37.2 41.3 56.2 69.3 89.2 84.5 106.3 122.8 122.3 129 145 159.5 171.6 184.2 208.6 222.8 246.1
78.7 87.5 96.6 104.6 112.5 123.9 133.5 140.7 147.3 156.9 167.7 180.3 185.6 193.7 204.9 214 223.8 234.2 242.1 250.4 259.3 268.6 277.8 285 294.6 298 303.2 306.4 311.5 314.2 317.9 319.2 321.9 324.5 327.1 330.4 332.8 335.8 341.3 347.8 352.5 357.2 360.8 362.5 362.9 361.7 360.2 359.6 350.8 353.2 355.5 362.6 369.9 379.3 386.5 397.9 404.2 407.4 414.9 425.8 436.7 451.5 456.1 460.9 463.1 465.5 468.6 467.5 460.5 451.3 444.4 437.9 429.7 418.1 410.1 397 391.6 381.6 372.4 377.6 373.6 369.3 360.4 358.4 355.6 348.8 349.4 345.7 347.1 345.4 341.1 336.7 336.1 334.8 334.3 331.1 328.6 327 321.4 320.2 318.3 321.8 321.2 320.8 321.7 318.2 317.4 319.1 322.2 324 324.4 328.9 331.4 333.3 333.3 336.5 339.7 340.9 339.5 339.9 340 344.3 348.7 355.1 359.7 363.3 360.5 354.3 351.1 329.6 300.3 260.7 266.4 286.5 306.3 317 337 346.2 343 320.9 308.1 303.5 295 310.4 319 327.7 335.9 341.8 347.4 352.3 357.6 366.8 382.6 402.9 413.9 420.1 428.7 430.3 433.8 431.5 436.6 428.6 426.4 388 354.1 355.5 367.3 352.3 339.6 322.3 287.6 262.1 243.8 234.7 216.6 181.6 145.2 108.4 91.3 52.6 39.2 30.4 29.6 38.5 48 61 73.3 78.8 81.5 90 106.5 114.9 123.4 134.3 145.4 155 174.2 189.8 219 237.6
90.6 96.6 102.2 110.1 118.2 129.8 137.9 147.9 155.7 165.2 176.9 186.6 193.8 202.1 213.6 225.2 234.1 241.5 249.6 257 267.2 277.1 285.6 293.7 300 302.8 308.4 311.9 314.7 317.7 322.2 326.2 328.7 329.7 332.4 334.8 337.2 341.6 345.5 348.8 353.4 359.6 362.3 364.6 364.3 363.6 362.4 357.4 354.6 356.2 360.4 369 381.3 385 395.8 404 410.1 414.3 424.1 434.1 445.9 454.5 459.3 465.8 467.1 471.3 469.7 464.7 460.6 448 442.6 435.6 425.2 412.9 400.2 386.3 377.1 370 359.2 355 356.3 354 346.3 345.9 341.8 339.4 337.5 336.8 339.1 336.1 331.3 328.5 324.9 327.1 323.6 321.9 318.8 316.1 315.8 312.4 312.5 317 318.6 315.8 313.9 317.2 319.9 321.7 323.2 326.5 329.6 330.1 334.8 336.5 338.1 340.3 345.3 345.1 349.1 349.9 346.7 354 361 369 370.6 375.3 377.8 377.5 375 364.9 316 282 250.5 256.2 267.6 283.4 315.2 319 310.2 282.7 273.6 274.7 270.3 287.6 298.8 310.9 318.7 329.8 333 339.3 345.5 353.5 363.9 374.8 390.2 402.6 406 414 410.3 418.3 404.9 396.7 391.6 364.2 344.6 322.2 341.6 335.6 320.9 297.2 272.9 255.2 248.5 240.7 211.2 177.7 141.7 104.2 78.3 47 39.8 33.2 24.7 40 50.9 64.4 75.6 78.1 77.8 88.7 95.7 100.2 105.7 119.4 132 144.2 159.4 182.9 205.2 234.9
95.8 103.2 110 115.8 127.4 134.5 142.2 154 165.5 175.4 184.2 191.7 200.5 210.9 222.5 235.2 242.3 250.4 258.9 266.3 275.9 284.1 293.2 301.6 303.7 308 313.1 319.6 319.4 322.7 326.8 332.4 332.7 334.1 337.1 339.6 342.9 344.8 346.8 350 354.9 360.3 365.1 364.9 364.3 363.9 360.9 353.8 357.5 362.8 366.4 377.8 386.8 392.7 402.8 409.8 416.2 425.7 436.1 444.6 454.6 458.8 464.9 470.4 470.2 474.2 473.8 465.1 456.9 443.5 439.7 427.9 411.6 401.5 387.1 373 363 355.9 345.7 342 340 337.2 331.2 332 334.6 336.2 327.2 326.3 328.1 325 320.4 314.7 312.3 314.5 310.6 312.2 305.1 310.7 311.4 303.1 307.9 306.1 313.7 319.8 321.3 319.5 322.5 325.4 327.5 331.2 336.6 338.3 335.5 341.8 349.7 351.9 352.9 350.1 359.9 363.3 359.3 359.6 368.2 373.1 381.6 390.2 394.2 393.5 397.6 391.7 329.3 293.3 272.5 237.4 239.3 249 261.8 264.3 261.3 255.1 251.7 247.6 258.9 269.4 278.4 289.9 302.2 311.7 318.8 323.2 334.3 337.8 342.2 349.3 360.9 370 378.7 381.7 382.1 388.6 379.4 373.2 355.4 341.7 329 283.9 309.9 311.3 286.2 269.7 263.4 248.7 249.4 233.5 206.7 162.2 122.5 100.2 54.3 46.8 36.4 31 23.4 37.6 50.9 64.3 78 86.9 72.7 80.9 77.8 85.1 95.1 105.8 117.2 135.5 150.6 178.9 197.6 225.1
99 108.2 118.8 129.9 133 140.9 152.9 164.9 173.2 183.4 190.3 199.7 209.5 220.1 231.4 240.2 248.3 257.8 265.2 274.9 284.9 293 300.2 305.8 309.1 315.4 318.9 322.2 324.8 328.3 334.6 335.3 335.4 336.7 338.4 340.8 343.3 344.2 347.3 352.2 357.7 361.8 364 364.7 364.8 363.9 357.3 358.9 362.9 369.7 374.3 385.6 398.2 403 410.1 414.8 426 436.2 447 454.5 462.4 467 472.6 474.7 472.6 474.1 470.1 460.5 451.8 437.8 431.3 417.2 399 385.9 371.7 359.6 348.9 341.1 332.2 327.4 331.1 323.5 322 326.5 325.7 324.8 319.1 318 314.6 313.1 312.8 303.8 301.3 304.6 302.3 297.9 292.2 293.6 294.9 308.2 318.8 322 322 327.1 328.2 327.4 329.7 330.6 335.4 339 342.8 345.5 343.6 352.3 358.1 362.4 360.6 360.8 367.7 370.7 372.3 373.6 373 383.2 389.5 396.2 399.1 403 412.1 401.3 340 312.3 295.5 257.4 232.6 220.5 229.5 238.5 243.6 232.8 218.8 223.6 238.2 247.4 255.9 266.5 283 295.1 303.1 310.4 316.9 321.9 321 326.7 333 342.6 348.9 349.2 359.6 367.3 358.9 342.5 329.3 329.3 313.9 283.1 262.5 277.2 269.5 241.5 242.5 238.9 241.6 218.1 185.7 142.2 116.4 78.7 53 46.9 37.4 30 24.7 42.8 51.7 66.8 79 87.2 79.3 60.4 63.9 71.8 95.1 106.2 115.8 125.7 144.9 169.5 189.7 211
109.5 115.4 121.8 129.9 136.9 151.1 160.9 173.4 182.7 191 199.2 205.5 218.1 227.8 239.2 246.9 255.3 264.7 274.7 283.5 292.1 299.4 304.6 311.2 315.1 319.7 323.9 328.2 329.4 334.2 336 335.9 337.2 336.1 338.2 340.4 342.6 344.8 348.9 353 357.4 360.8 362.8 363.9 363.9 361.8 359.5 360.7 370.3 379 384.3 394.6 402.5 409.4 415.3 421.4 435.2 444.1 457.1 464.9 470 475.1 478.6 477.1 473.4 475.6 467.3 456.1 445.7 430.8 422.7 407.7 384.4 370.9 358.2 346.8 335.7 337.3 320 321.6 309.7 314.9 312.9 316.4 313.7 314 307 306.7 303.9 299.6 299.4 294.1 294.5 293.5 290.9 293.2 309.4 316 313.8 316 321.7 326.5 329.9 334.3 336.1 336.8 340.5 342 347.7 349.5 354.5 355.9 356.6 363 364.7 373.3 373.3 371.5 376.4 380.6 386.8 385 388.7 392 396.5 398.7 403.8 408 409.1 405.3 351.5 339.2 315.3 287.4 256.9 225.3 206.2 220.5 225 208.1 199.8 206.2 218 228.2 238.5 248.1 256.4 272.3 281.2 290.1 297 298.7 305.5 303.5 307.6 317 323.8 321.7 328.4 335.9 329.2 322.6 311.9 304.5 283.5 256.8 236.1 243.8 238.7 219.5 218 222.7 210 185.1 152.8 128 101.9 54.3 52.9 48 37.4 22.4 27 40.8 51.2 63.5 77.5 80.2 75 59.6 54.8 67 85.8 103.8 111 124 139.5 162.7 185.6 202.5
116.4 118.7 125.3 133.8 145.1 158.8 170.2 180.4 188.9 197.4 205.9 216.1 225.8 235.7 246.3 253.8 263.2 272.7 283.2 290.8 298.5 306.5 309.9 315.1 319.8 324 330.2 331.7 333.9 335.4 335.7 337.4 335.5 336 337.8 339.5 341.4 343.8 348.4 353.7 357.3 361.5 363.2 364.7 363.7 362.9 362.4 368.5 377.7 387.9 394.1 405 411.5 416.5 421.4 430.4 440.4 452.3 467 472.5 478.8 481.2 480.4 476.3 472.4 472.7 465 451.3 436.8 422.6 409.5 387.8 369.9 357.4 344.9 329.8 325.8 319.6 312.1 308 306.6 301.2 303.9 307.1 304 302.9 298.3 291.6 291.1 285.5 287.7 286.6 283.3 286.9 305.5 311 313.8 315.6 324.5 327.9 331.1 337.1 340.6 343.1 346.2 348.1 351.3 355.9 358.9 363.6 366.4 363.9 372.1 377.8 378.5 383.3 385.5 381.7 390.6 395.1 401.2 404.8 407.1 408.1 409.5 409.7 403 397.5 391.9 384 363.7 356.6 334.8 310.3 276 235.2 212.6 199.9 197.7 197.4 190.9 191.3 199 208.2 216 225 231.4 249 255.9 265.9 273.9 281.2 280.1 282.3 284.7 293.7 295.2 289 298.6 304.9 305.4 308.2 290.7 264.8 254.4 233.2 215.4 210.7 206.6 197.2 196.7 190.8 175.4 147.6 129.2 109.3 80.2 50.9 48 41.8 31.4 19.4 27.2 40.2 53 61 68.3 69.5 63.9 58.1 53.9 60.6 66.8 89.5 103.2 118.7 131.6 153.2 179.1 200.4
113 121.2 131.1 139.4 155.4 169 179.9 187.7 197.1 204.8 213.4 223.4 234.2 242.2 250.5 260.9 271.1 280.3 290.2 298.4 306.1 312.4 316.1 320.6 324.7 329.5 332.3 333.9 334.8 334.9 336.2 336.6 333.9 333.2 334.6 336.6 338.5 342.1 348.3 353.9 358.1 361.1 363.4 364.6 363.8 364.5 367.5 373.1 384.9 392.1 401.1 413.7 419.3 422 426.6 439.6 452.5 460.8 473.3 478.1 482.2 482.9 479.2 474.8 470.3 464.9 453.1 443 420.9 411.4 394.4 373.1 358 345 335.7 324.6 312.4 305.8 305.7 294.6 296.8 291.6 293.8 295.4 293.7 286.8 284.8 279.7 279.5 275.9 275 291.4 298.4 304.4 301.9 309.1 316.8 326.3 328.8 337.5 338.9 346.6 349.3 355.8 359.2 360.8 367.5 369.7 373.4 377.4 380.4 379.8 388.5 390.7 392.3 394.7 399.4 398.6 403 408.6 414.8 417.7 421.5 422.1 421.9 432.2 425.7 406.7 395.7 390.3 383.6 377.3 360.2 323.4 291.5 259.4 223.3 210.8 193 185.8 182.6 180.9 181.4 186.3 192.2 199.2 210.9 221.6 238 248.9 253.1 256.1 257.7 259.1 265.2 263.9 262.8 259.5 271.9 281.2 279.7 275 261 229.7 225.3 209.7 195.5 189.8 184.3 176.2 182.4 176.4 160.9 141 125.2 102.4 73.9 51.1 40.2 30.3 20.6 21.2 28 43.2 58 63.7 62 57.3 52 49.9 51.1 57.7 60.8 69.4 89.7 106.9 125.2 139.6 162.5 186.8
114.6 125.4 138.2 152.8 166.4 176.8 186.5 196.1 204.9 211.8 221 230.8 239.2 247.9 257.9 267.1 275.3 286.8 297.4 306.3 312 318 320.5 326.1 328.5 331.4 331.9 333.1 332.8 333.2 335.4 333.4 330.4 329.2 331.5 333.5 335.7 341.9 348.4 354.6 358.2 359.9 362.3 363 364.9 368.6 378.1 386.8 391.2 403.7 409.6 420.9 425.9 426.6 432.6 447.3 460.3 464.1 475.7 478.9 480.7 480.5 478.3 473.2 464.5 454.9 445.6 424 409 393 375.7 358.4 345.6 329.3 318.4 314.9 307.6 297.8 297.3 297.5 289.5 281.2 284.4 284.8 281.3 274.7 270.1 269.3 266.9 279.8 294.8 301.2 304.4 308.7 311.6 320.9 326.2 336.6 343.1 348.7 349.7 357.6 365.9 371.8 374.5 377.3 382.6 386 388.9 391.7 394.8 395.9 402.2 403.4 406.8 409.4 412.7 412.8 415.4 420.3 426.3 430.7 436.6 437 438.3 441.3 441.9 439.5 415.7 404.5 402 400.7 391.4 366.4 306.4 266.6 242.7 233.3 205.9 194.2 188.8 182.4 178.9 173.7 171.1 175.8 183.8 191.3 215.9 221.1 230.6 228.4 225.9 236.8 238.9 230.9 219.1 227.8 243.2 247.8 246.7 236.4 218.5 207.8 190.3 187.6 177.9 162.1 158.9 156.7 168.2 161.2 150 133.4 112.2 87.1 64.5 51.4 37.7 22.4 20.6 19.2 26.8 42.8 63 65.2 62.9 50.9 41.2 42.6 46 50.9 56.5 60.7 67.9 86.4 108.4 129.7 144.7 177
120.5 136.5 149 160.9 174.6 184.4 193.3 203.1 211.1 220.1 228.6 237.1 245.2 254.3 264.5 273.9 283.4 293 303.1 311.9 318.4 323.2 325.9 330.3 332.5 334.5 332.6 330.5 330.2 331.8 331.1 327.6 324.6 324.5 326.6 328.9 334.6 341.7 348.4 353.7 357.6 358.9 358.7 363.5 367.1 375.9 385.8 393.9 403.2 409.5 419.9 426.4 429.5 431.1 440.1 452.9 460.6 467.2 476.8 477.2 477 479 481.5 471.3 459.7 448.8 433.9 412.4 397.9 379 359.1 346.1 336.8 325.4 315 304.7 298.9 294.8 286.2 285.9 277 272.5 274.5 273.9 269.7 262.7 269.8 277.9 280.2 291.6 299.4 304.5 314.5 321.3 327.7 332.5 338.3 346.3 352.4 361.5 367.8 375 382.8 387.1 388.1 388.7 397.1 402.3 409.2 413.1 411.7 406.1 414.1 418.6 421.3 424.2 425.5 428.7 427.6 435.7 439.3 443.5 447.7 453.1 454.8 454.4 458.7 455.3 440.2 427.8 415.3 412.5 405.5 406.6 346.6 297.4 274.6 244.2 229.9 211.7 204 190.7 177.3 164.7 159.8 159.7 167.2 168.1 186.3 198.9 200.5 204.5 204.3 202.7 207.3 190.2 185.6 201.3 213.3 216.8 207.4 198.5 184.8 179.6 171.8 166.5 163.2 144.2 140.4 146.4 152.3 149.4 136.5 117.9 96.5 71.6 55.5 41.3 27.7 18.4 18.5 18.9 21.8 33.6 60.3 67.7 67.8 48.2 29.6 28.5 34 39.7 48.2 53.2 58.5 72.1 96.7 116 137.5 156.5
130 144.4 156.1 168.4 179.8 190.4 201.1 210.5 219.6 226 234.5 243.7 252.1 260.1 269.8 279.2 289.2 299.1 309.1 318.2 323.3 327.9 333.4 335.7 335 337.7 333.7 327.3 327.2 327.6 323 320.2 317.5 320.1 321.4 327.8 334.8 341.1 346.6 353.8 355.2 352.4 357.8 363.6 372.1 381.2 392.8 403.1 413 417.3 422.6 428.3 430.7 434.5 446.8 452.4 457.8 465.6 474.1 474.7 477 478.8 472.5 457.6 447.1 436.8 415.4 401.4 384.4 370.3 351.9 338 328.4 314.3 308.7 298 294.1 283.5 280 271.9 267.1 264.9 265.3 262.4 257.6 275.7 281.3 288.1 296 301.1 307.4 318.7 326.7 330.9 338 341.3 349.8 357.4 365.5 377.5 382 384.7 390.1 398.3 400.2 403.3 410.7 417.6 424.5 429 430.5 424.6 428.2 432 433.5 438.3 437.9 441.7 445.9 450.7 455.2 462.5 464.3 467 469.1 465.8 474.4 474.2 456.3 464.1 434.9 419.2 414.5 418.3 396.2 330.8 286.3 263 234.9 235.9 230.2 217.6 205.1 196.4 179.2 159.3 151 149.9 157.7 168.1 177.8 179.7 177.1 166.7 162.7 160.1 154 164.4 180.5 183.9 177.3 164.8 155.4 152.1 147.5 131.6 129.8 118.6 124.7 130.7 134.9 143.3 128.5 105.6 79.2 58.5 48.3 33.9 19.1 17.9 16.2 17.2 18.3 23.9 53.4 65.2 60.9 42.8 24.1 16.9 18.8 29.1 38.2 45 47.9 64.5 83.9 104.3 125.1 143.6
138.7 153.4 166.6 179.2 187.6 196.8 208.5 219.2 227.2 233.7 240.9 249.7 258.4 268.3 277.4 286.4 295.6 305.6 316.3 323.4 328.3 333.2 334.8 334.2 336.2 335.9 330.5 324.6 323.6 321 315 313.4 311.1 312.8 320.6 327.9 334 339.4 346.7 351 347.2 356.6 361.7 367.7 379.6 386.7 399.2 411 421.4 425.5 430.3 430.9 432.7 437.9 446.6 450.9 456.9 463.4 468.5 473.1 477.3 471.7 461.9 448.4 438.4 426.7 404.2 386.7 373.2 356.8 342.7 332 320.9 309.5 298.1 288.4 283.9 282 270.8 260.3 258.6 257.3 253.4 261.1 272.8 283.9 284.6 291.7 298.9 310.8 319.3 326.4 334.1 337.8 345.5 352.3 358.2 372 376 386.4 396.7 404.5 409.2 416.6 424 428.4 431.5 440.8 447 446.8 444.4 443 446.1 446.9 449.7 453.8 457.3 458.1 461 468.8 475.3 477.1 480.2 487.1 487.9 488.9 489.7 483.7 481.1 484.7 460.7 441.2 426.8 393.3 386.9 345.3 302.5 286.4 269.5 265.9 248.5 238.3 226.6 223 214.9 194.3 177.4 150.2 140 148.4 155.5 156.7 153.2 155.2 136.6 132.4 133.7 139.9 151.4 150.2 148.2 141.5 130.9 120 118.9 114.7 105 106.4 106.7 114.5 118.7 130.3 122.3 93.8 69.8 50.3 40.9 23.2 18.1 17.3 17.2 15.7 17.2 19.8 38.5 53 52.2 24.9 16.3 15.7 15.5 16.9 26.3 38.4 40.3 55 78 99.9 120.4 135.4
150.8 161.3 172.6 183.5 193.9 205 215.4 224.7 231.7 238.6 247.2 255.8 265.3 274.7 284.7 293.4 301.9 312.1 320.6 328.6 332.4 332.7 332.9 334.2 334.3 329.9 324.3 317.9 317.8 312.2 307.6 305.1 304.3 311.5 320 327 332.5 338.9 344.6 340.8 351.6 359.4 363.9 373.9 384.5 393.9 404 417 424.9 430.9 433.2 433.9 435.1 441.4 447 450.3 455.2 459.4 463.8 473.2 475.9 465.3 452.1 438.2 427.8 410.4 387.6 372.4 362.4 347.8 336.6 322.4 308 300.4 292.3 283 275.5 266.7 260.9 250.7 251 250.5 265.4 267.4 278.9 283.4 293.1 299.3 309.6 317.9 327.1 336.3 346.2 347.7 356.1 363.9 371.7 383.4 394.9 402.5 411.3 420.3 425.8 433.8 441.2 445.9 448.8 457.8 462.5 462 459.1 460.1 461.9 461.6 465.4 468.9 474.2 476.6 478.8 482.7 489.1 494.9 496.5 502.6 508.9 508.7 503.6 497.9 504.3 503.8 483.1 463.8 437 399.2 357.9 335.9 314.6 296.9 292.9 279.8 268.5 257 250.9 244.3 232.1 214.8 202.4 178.4 152.7 137.2 136.8 138.7 144.1 138.9 129.6 123 118.7 115.2 117.2 121.7 121.2 117.3 111.7 106.5 103.2 99.8 93.3 94.8 97.7 99.9 99.9 108.9 111.5 88.1 64.7 47.9 34.1 23.7 20 17.5 16.1 15.9 15.6 16.7 17.2 33 30 17 15.4 15.1 15 14.8 15.4 17.5 30.8 44.8 66.3 93.2 118.1 132.3
155.8 168.3 178.3 188.1 198.2 209.2 220.6 229.5 235.7 243.2 253.3 262.6 272.1 281.8 292 299.6 307.8 316.6 325.8 331.9 334.2 331.1 329.5 330.8 328.8 321.9 317.2 312.1 309.9 305.3 300.3 298.5 306.9 312.8 318.8 325.7 332.8 338.3 342 347.3 353.2 359.8 371.2 382.3 389.8 400.4 410.2 420.3 426.9 432.9 433.8 439.6 438.7 443.5 449.8 451.9 454.3 456.9 461.3 475 467.5 456.7 445.1 425.4 411.5 392.7 374.6 360.9 346.3 338.8 330.7 318.8 304.2 292.8 281.8 275 267.2 253.9 254.2 245.5 249.7 260.3 274.1 279.2 283.9 290.4 299.7 308 319.9 327 335.4 347 355.9 360.7 369.8 374.3 385.3 396.7 402.7 414.7 429.1 436.4 444 450.3 455.6 461 464.1 476.4 483.3 483 474.5 475.2 474.6 477.1 481.3 485.1 491.8 496.2 498.7 502.1 507.7 513.9 519.3 521 525.4 525.5 518.7 522.4 533.6 529.1 514.8 476.4 442.6 409.1 366.5 339.4 326.3 316.9 311.3 299.5 291.7 287.3 273.8 261.7 246.5 228.1 216 191.9 162 150.3 145.1 142.3 132.9 132.6 126.9 118.2 114.2 110.1 109.8 100 99.3 94.2 95.3 93.5 91.1 86.5 81.8 85.1 86.9 87.8 88 90 90.6 72.8 66.3 49.8 28.1 24 20.2 16.9 15.4 15.3 14.9 14.3 14 15.3 16.1 15 13.9 14.6 14.5 14.4 14.6 15.7 17.5 34.9 52.1 86.3 111.2 124.6
161.4 173.2 184.2 196.5 208.6 219.2 225.9 232.7 240.7 248.6 258.1 269 278.5 288.2 295.9 304.2 314.4 323.4 330.2 332.8 332.4 327.6 326.7 325.8 319.7 314.4 308.9 306 300.4 295.7 294.8 296.6 302.3 310.4 318.1 324.7 331.9 333.9 343.6 353.2 357.6 365 374.7 387.8 396.6 404.7 416.6 425.1 429 433.7 438.2 441.2 444.8 446.3 452.2 454.5 457.4 455.7 463.4 463.5 458.8 451.8 435.8 412 397.7 385.6 371.1 355.6 343.6 332.9 320.2 308.1 302.7 288.7 274.7 264.3 255.1 244.9 241.9 248.4 260.8 267.7 272.5 278.4 289.8 293 305.5 317.5 329.3 340 346.3 356.9 365.3 372.4 379.3 388.5 394.6 408.6 415.8 428 442.6 454.8 460.4 468 473.5 477.7 481.1 494.4 504.6 503 488.7 491.2 490.3 495.8 498 507.3 515.2 513.8 516.6 517.3 524.6 530.2 535.9 539 541.9 544.1 534.4 547.7 551.8 546.1 509.4 478.4 433.7 399.3 364.1 352 345.3 327.2 321.6 314.8 313.4 308.2 292.8 283.1 258.3 245.5 235 211.9 194.5 172.5 159.1 151.6 148.9 144.6 141.1 135.1 129.1 123.4 119.6 110.6 109.7 106.8 99.2 94.8 89.1 83.9 82.1 71.4 77.7 77.8 79.4 78 76.9 70.7 62 46.4 36.2 29.3 22.2 16.7 14.6 14.2 12.2 13.2 13.7 13.7 13.7 13.7 14.1 14 13.9 13.8 13.9 15.2 17.1 27.1 41.9 75.8 105.8 122.9
169.7 181.9 192 204.5 214.5 223.7 230.7 237.7 245.5 254.6 265 274.9 284.5 293.6 302.8 312.1 321.2 328.5 331.7 331 327.4 324.1 320.2 316.6 311.7 306 301.5 296.7 288.2 287.5 290.3 294.4 301.5 310.8 320.7 325.8 327 336.6 345.5 352.8 360.8 372.5 380.2 392.1 399.3 408.9 421.5 426.9 431 435.8 441.6 444.6 449.8 450.6 452.5 457.7 458 455.2 458.7 461 457.9 438.9 415.3 401.4 388.8 374.5 360.3 344.2 336.9 327.8 317.6 302.2 294.6 282 268.9 252.6 247.9 238.5 245.7 256.8 263.7 270.3 280.3 286.8 297.7 306.2 318 329.5 340.5 349.8 359.9 369 372.7 381.3 391.3 399.1 405.4 415.6 429.9 443.2 457.8 470.1 475.7 484.8 489.6 489.7 497.2 508.7 516.8 515.6 503.7 504 508.9 512.1 515.4 524 526.4 524.3 527 536.4 536.9 545 553.6 556.6 555.4 557.5 555.4 558.9 560.3 554.6 502.6 469.3 439.1 402 388.7 367.1 355.1 340.4 335.2 332.3 325.2 318.7 310 295.7 278.4 258 250.8 239 218.4 202.5 186 176 173.2 167.1 162.6 156.9 149.7 138.6 134.8 132.8 128.7 124.6 118.4 107.1 101.2 95.1 90.4 82.6 71.5 61.4 62.3 68.1 60.1 60 53.8 42.8 48.5 39.3 26.8 17.9 14.3 15.5 14.5 14.1 13.7 11.1 13.1 12.9 13.3 13.3 13.3 13.2 13.4 14.3 16.1 21.9 35.2 63.1 92.6 120.1
176.7 187.6 199.9 210.7 222.1 229.2 235.5 242.9 251.1 261.6 271 281 290.7 298.4 308.3 318.8 328.1 329.9 329.4 326.9 323.9 319.1 312.6 306.7 302.1 297.2 291.2 284.6 279.7 279.7 284 293.5 300 310 316.4 325.1 328 341.5 349.6 355.3 364.6 377.3 388.8 399 407 412.7 424 427.7 434.5 439.1 442.2 447.8 451.7 453.7 456.7 459 455.9 452.2 454 460.1 443 423.8 406.8 396.9 382.2 366.2 349.4 337 327 321.1 307.5 296.9 284.6 271.4 260.7 247.2 236.8 244.3 252.1 260.7 272.2 279.3 288.9 295.9 305.4 319.7 330 334.9 346.3 357.6 366.6 377.6 382.4 388.8 396.2 411.5 418.5 428 441.4 453.2 469.1 480.9 491.7 500.8 499.4 502 510.5 517.9 524.3 521.9 513.8 516.1 520.7 520.1 523.3 530.7 534 531.6 544.5 546.9 551.7 560.1 566.4 565.8 566 564.5 570.6 572.9 571.4 554.6 507.6 477.9 435.5 421.7 401.8 403.4 385.6 357.7 351.2 346.3 339.7 334.6 326.1 309.3 299.6 280.4 265.9 256.6 246.5 234.4 218.4 207.1 198.8 189.7 181.2 175.5 167.2 156.5 155.1 151.7 147.1 137.4 131.3 123.5 114 105.4 99.7 91.6 83.6 78.2 68.3 57.6 56.8 59.2 57.5 58.1 55.6 48.6 35.9 25.3 18.7 16.3 14.4 14 13.5 13.5 13.1 12.9 12.9 13 12.9 12.7 12.9 13.6 15.4 18.3 27.2 49 81.1 110.6
180.9 194.1 207.7 218.7 227.4 233.7 240.5 248.1 258 268.6 277.7 287.6 295.5 304 314.7 325 328.9 329 328 323.7 319.8 311.9 304.1 297.8 292.1 287.9 282.9 275.7 276.5 277.7 287.6 295.5 301.5 310.2 313.6 321.8 331.2 344.2 352.6 359.7 374.6 384 392.7 405.3 413 418.5 427.7 431.4 435.2 440.1 445.2 452.3 455.5 460.1 463.9 460.3 451.7 448.7 450 440.8 426.8 414.4 399.3 384.1 371.1 355.8 341.3 331.5 320 310.4 298.8 291.5 278.6 260.5 250.4 240.2 237.3 244.4 254.6 268.8 274.8 282.1 292.1 299.1 316.8 324.5 333.8 342.5 352.6 365.4 377.5 385.8 393.3 398.9 405 413.3 430 441.1 455.1 472.8 484.3 493.6 504.6 508 505.1 507.8 513 519.2 523.6 523.2 517.6 519.2 524.4 526.6 527.8 530.4 535.8 540.3 549.1 559.3 566.1 573.9 578.7 574 567.1 576.3 580.6 580.8 578.9 541.9 514.3 472.4 457.8 440.5 436.4 426.7 405.7 377.3 372.2 360.4 355.3 349.8 342.9 326.4 319.1 299.7 283.7 276.7 264.1 253 249.3 238.1 234.8 216.7 202 192.6 188.6 180.5 174.8 170.7 162.1 153.9 142.7 135.8 120.4 114.4 108.2 104.2 95.2 85.8 79.1 74.2 74.8 75.3 75 75.6 69.5 57 48.3 31.6 24.2 16.8 14.4 13.4 11.1 11.4 13 13.1 13 12.8 12.3 12.2 12.5 12.9 14.1 16.6 23.2 41.8 75.6 100.3
190.1 201.2 214.8 224.6 232.5 239 246.3 256.3 265.8 275.4 284.7 292.7 301.3 311.7 321.6 327.8 329 328.5 323.9 319.3 311.7 303.7 295 287.6 283.8 279.6 273.3 267.2 264.8 279.6 289.1 295.9 302.7 308.9 318.1 327.7 337.1 345.4 355.4 364.4 380 390.6 398.7 410.6 417.4 424.5 431.1 434.9 442.2 444.8 449.3 454.8 464.9 469.1 473.4 468.4 448.7 444.3 441.4 428.8 420.6 408.7 386 369.8 357.3 345.6 334.4 325.3 313.3 303.8 289.2 281.5 267.6 253.1 241.1 232 240.4 249.8 259.4 268.8 275 286.8 296.7 310 319.3 329.6 342.2 349.7 361.2 374.5 384.5 392.4 398.2 409.2 416.6 422.4 438.4 454.3 465 482.3 495.5 502.4 510.7 513.4 505.7 507 512.1 515.7 518.3 516.6 518.7 519.8 526.5 530.3 528.9 533.2 535.8 546.4 549.2 559 566.7 572.5 570.7 569.3 573.9 577.8 578.7 584.2 580.5 554 504.7 485.8 484.7 481.7 461.4 443.4 410.6 400 391 372.9 368.5 363.4 357.6 348.8 340.8 325 306.7 296.6 287.1 276.7 271.7 258.5 251.2 243.1 228.3 215.7 206.7 201.8 194.9 187.6 179.7 168.2 153.6 140.7 129 123.5 113.7 113.7 105.8 96 89.9 84 89.4 92.2 91.8 90.1 82.8 69.8 60.1 44.8 33.8 23.9 19.3 15.6 12.6 11.6 12.5 12.9 12.8 12.6 12.6 11.9 12.3 12.8 14.1 16.3 21.1 42 66.4 92.9
198.6 211.2 217.5 230.9 237.4 244.5 252.2 263.1 272.7 281.6 291.4 300.4 310 320.5 326.9 329 328.2 324.3 318.2 312.4 302.7 293.5 284.1 278.7 276.4 270.8 262.6 265.5 270.3 276.8 285.2 287 302 309.8 316.1 328.4 340.2 350 358.3 372.8 384.1 392.1 406.1 414.8 420.3 429.4 435.5 439.3 446.5 447.7 451.7 463.9 470.1 474.4 472.9 459.2 443.8 437.7 432 426.8 415.2 392 374.9 360.1 348.9 339.1 331.1 317.4 307.2 296.9 286.3 274.2 258.3 244.1 234.4 223.1 241.9 252.7 262.8 274.1 284.3 291.1 302 316.6 325.4 340.4 352.7 359.7 371.6 382.5 392.5 401 406.5 415.7 425.5 436.9 447 462 478.5 488.3 497.6 508.2 514.8 510.7 503.3 504.7 510.4 511.2 511.7 512 511.7 517.4 522.8 525.1 528.7 533.6 537.2 542.1 543.7 548.7 554.1 558.1 560.2 561.3 567.8 574.8 574.1 582 575.2 546.7 517.1 508.6 502.3 492.7 472.7 448.8 430.1 419.1 403.2 385.2 383.5 378.2 376.9 363.5 362.4 348 331.9 320.8 312.3 311.8 301.9 285.5 273.3 252.6 246.6 232.9 226.5 223.4 213 206 195.6 181.3 167 146.6 136.8 125.6 125.5 122.3 116.7 108.4 106.2 100.5 106 107.2 108.5 104.3 96.4 84.3 70.8 57.7 45.5 36.2 26.6 20.7 14.3 10.9 12.3 12.5 12.1 12.2 11.9 12.3 12.1 12.5 13.1 15 16.3 39.1 65.2 84.8
206.8 219.3 228.9 236.4 242.6 250.1 258.9 270.7 278.9 289.1 298.5 307.6 318.6 326.4 329.4 328.2 323.6 318.5 311.2 302.1 292.1 282.4 275.1 268.6 268.3 260.6 253.8 265.2 269.7 262.2 280.1 289.2 299.5 310.7 324.9 335 344.8 353.4 364.5 379 391.2 398 411.9 418.2 424.2 436 438.7 443 447.1 448.6 454 466.7 471.1 472.6 466 455.1 441.1 435.1 430 424.7 403.7 380.8 366.9 353.7 344 329.2 319 309.6 298.8 289.3 279.6 266.8 250.2 234.2 225.2 232.8 246.6 255 267.7 278.5 291.3 299.4 307.4 323.3 336.1 347.3 359.3 366 377 385.9 397.1 405.2 414.3 424.8 438.3 450.2 457.6 469.7 488.8 496.3 499.8 507.8 512 507.6 500 500.3 504.6 506 504.2 505.3 506.6 513.9 515.9 517.9 526.1 529.3 533.5 533.7 537 539 542.5 544.5 547 553.9 560.4 565.9 569.6 577.2 572 553.8 547.6 533.1 513.3 501.3 481.5 465.7 445.3 434.2 415.2 404.7 404.3 403.2 402.7 395 381.7 377.8 371 358.4 336 323.8 315.4 313.8 309.1 275.5 261.1 242.5 246.9 246.4 236.7 225.2 211.4 196.2 180.1 162.4 143 132.8 134.2 132.1 126.8 120.6 118.1 117.5 118 118.7 121.9 117.5 109.8 99.8 85 68.8 57.8 45.3 38.3 34.4 27.9 17.9 12.6 12.1 10.6 11.8 11.6 11.7 12.1 11.9 12.3 12.7 14.8 28.6 56.9 77.3
215.3 226.6 235.7 242.4 248.8 255.7 266.6 277.1 288.6 297.8 306.5 316 324.8 329.3 328.5 323.1 318.2 312.7 302.8 291.1 282.8 273.5 265.6 259.6 257.9 250.1 251.4 252.4 262.9 274.5 285.5 297.9 307.1 312.6 327.6 337.3 345.1 356.1 368.9 381.7 392.6 399.9 411.6 416.1 424.9 436.1 438.7 443.5 447 451.5 461 467.1 469.2 469.9 460.9 453.3 446.9 435.9 427.1 407.4 391.9 369.2 356.6 347.8 333.7 325.1 311.4 298.2 289.5 280.3 270.8 256.6 240.2 228 220.3 234.4 249.2 258.8 268.8 280.7 293.9 302.8 316 332.5 340.7 348.2 360.5 372 385 396 402.8 411.8 422.1 432.8 447.3 460.2 470.1 481.5 493.7 497.5 503 503.7 502.6 500.5 491.4 494.5 497.7 500.5 494.8 498.2 501.2 507.5 513.7 512.7 517.4 519.8 525 526.6 529 531.1 533 533.6 539.9 550.2 557 558.6 567.2 571.2 568.2 564 558.8 541.9 521.9 517.7 496.2 478.2 456 441.7 433.6 426 424.5 426.7 409.4 405.6 400.6 391.3 382.1 385.6 364.1 337.9 331.8 316.2 311.8 305.6 282.2 264 266.4 267.6 257 245.3 234.6 212.7 195.4 174.4 151.8 141.3 144.1 141.6 137.8 131.6 128.1 127.7 127.6 129.4 130.7 129.9 123.9 116.1 98.5 84.1 69.5 57.6 48.9 44.3 38.7 32.5 27 11.9 11.9 10 11.4 11.3 11.1 11.5 11.8 12.3 14.8 23.9 44.3 70.3
224.3 234.1 242.6 248.1 255.4 265.7 275.4 285.3 296.6 304.3 314.4 322.8 329.3 328.4 324.3 318.6 313.2 304 294.8 282.8 274.5 264.8 255.6 250.3 247.5 242 247.8 259.8 264.2 274.4 285 294 307 322 331.6 338.5 350.9 361.5 370.9 382.4 391.6 400.9 411 421 430.8 435 438.9 443.5 449.9 456.7 462.1 465 466.8 463.5 460 455.6 449 430.2 413.7 396.5 370.6 357.4 349.1 336.4 327.4 316 305.7 292.9 281.2 270.8 259.5 246.8 228.9 217.5 224.8 236.2 247.7 259.4 271.4 282.9 297.2 308.7 319.2 336.4 347.4 358.2 369.8 382.4 392 401.9 408.9 415.5 428.7 441.3 457.5 467.8 478.6 490.3 494.2 495.9 498.4 495.5 491.7 490.2 484.7 487.2 489 485.8 486.3 490.2 495.7 500.3 500.9 502.3 506.9 508.2 512.7 515 518.6 522.1 523 524.4 533.2 535.6 544.4 550.7 558.9 563.6 561.8 565 562 542.6 527.3 514.3 500.2 482.7 459.7 453.6 449.8 446.1 438.9 435.6 430.5 420.8 412.8 405.8 400.8 381.9 371.2 350.3 337.7 328.8 317 311.7 302 286.5 283.2 280.7 275.4 265.4 271.1 247.8 218.8 196.8 160.6 153.6 155.3 153 148 139.4 138.3 136.6 138.4 139.8 140.6 140.4 137.6 128.7 112.7 96.8 80.4 65.5 57.7 52 45.9 42.5 36.2 28.2 12 11.4 11.2 11.4 10.8 12 12.1 11.7 14.3 19.2 35.3 59.2
233.3 241.8 248.5 254.5 263.2 273.7 282.3 291.5 302.9 312.7 322.8 330.3 329.5 325.9 319.9 314 304.8 294.8 285.5 275.9 264.6 255.3 251.8 249.9 227.4 239.3 248.6 251.9 269.9 282.1 291 301.4 314.7 325.4 336.8 346.7 354.7 366.2 373.6 381.5 392.4 407.3 415.3 422.6 431.3 436.1 441.1 448.3 452.3 461.3 463.2 467.4 464.5 462.5 459.6 455.4 435.7 417.8 400.3 385.6 367.4 349.4 341.4 326.6 315.2 303.6 294.6 285.1 273.9 264.8 248.6 231.9 222.2 210.6 228 241.6 251.2 265.3 278.6 290.2 302.9 309 326.3 339.6 353.3 366.8 374.2 388.3 396 405.3 416.5 425.9 434.3 451.5 462.6 473.8 484.6 493.1 493.4 493.6 492.9 488.6 485.1 482.6 477.1 477.5 479 476.5 481.9 482.5 488 488.8 491.3 493.7 494 496.1 499.7 504.3 508.6 511 510.5 516.1 523.5 527.4 530.9 538.1 548.4 557.2 561.9 567.9 566.4 561.9 547.3 536.3 525.2 500.9 482.2 467 464.4 471 472.8 469.6 470.6 453.5 454.9 438.5 418.6 396.3 374.8 361.4 346.8 338 327.4 318.4 312.6 311.3 301.5 297.3 300.3 287.8 290.3 286.1 235.4 211.8 173.8 169.9 167.7 163.4 158.2 151.4 150.4 145.8 146.8 149.6 152.1 152.4 149.1 143 126.9 109 92.1 71.3 62.4 58.1 53.4 50.2 43.2 36.2 27.5 11.4 11.5 10.9 10.8 11.7 11.2 11.7 13 14.3 29.5 49.7
241.5 249.9 255.4 260.7 271.6 281.8 290.6 300.3 309.6 321.1 330.5 329.8 327.5 322.4 315.1 307 298.2 288.7 277.3 265.3 256.4 249.5 245.9 237.6 233.6 243.7 250.1 258.4 267.1 281.4 295.2 302.8 317.8 330.8 339.7 348.7 357.6 367.9 374.9 386.8 400.3 407.5 418.3 425.4 431.4 438.4 451.4 454 459 463 464.5 466.4 467.2 463.9 460 445.3 425.2 407.8 390.2 376.2 353.8 344.4 330 320.9 306.7 294 284.4 276.5 266.1 253.1 237.4 225.6 215.3 213.8 230.5 240.8 255.3 265.6 279.8 292.9 303.4 316 329.5 343.2 355.6 368.7 381.2 393 403.1 413.4 423.2 432.7 442.6 454.2 464.8 477.5 487.9 493.4 491.9 488.4 487.5 484.4 479.4 473.5 468.8 469.5 465.2 468.3 472.8 473.5 477.6 481.3 480.7 480.5 480.7 483.5 486.5 490.5 494.4 495.9 500.2 505.7 513 518.1 527.3 534.3 541.9 548.2 553.4 562 572.6 576.3 575.9 556.2 542.6 544.1 514.4 503.2 492.6 491.3 495.7 497.3 499.7 494.5 485.7 471 458.5 438.1 419.1 403.5 378.4 358.6 345.1 337.1 330.8 326.4 328.9 327 324.3 313.2 315.6 301.7 250.9 228.5 188.3 181.9 176.2 169.6 164.5 161.1 160 162.5 152.7 157.3 161.3 167.5 162.2 159.2 144.1 128.4 101 84.5 66.5 58.6 54.6 51.7 47.1 39.5 32 23 11 11.3 10.8 11.2 10.3 10.4 13.2 15.8 27.9 46.3
249.5 256.3 262.4 268.3 279.9 289.8 299 310.7 320 327.5 330.1 327.9 324.1 316.4 308.6 299.3 289.9 276.2 266.6 254.5 249.5 242.2 236.3 221.4 239.1 242.9 251.5 259.3 259.7 274.5 292 308.2 324.3 335.3 343.8 351.1 360.4 370.9 382.8 393.8 403 410.1 420.2 425.9 433 444.7 454.5 456 459.9 464.4 468.1 472.2 467.8 465.6 458.2 441 418.8 401 380.7 366.7 351.2 339.8 324.3 312 299.8 287.6 275.4 265.3 251.7 238.2 228.2 218.7 209.4 219.1 230.6 244.7 257.5 268.6 282.6 297.4 308.2 323 337.4 350.8 364.6 376 382.9 398.5 410.5 418 428.3 437.7 450.2 460.6 471.3 480.8 487.3 487.1 487.6 486.8 482.7 475.8 469.6 465.8 458 459 457.9 462.1 465.9 464.9 468.1 469 468.3 466.6 469.5 472.6 479.4 479.8 484.9 483.9 494.2 500.2 507.1 510.4 515 527.8 534.2 540.8 545.8 555.1 561.9 577.1 588.9 583.6 566 559.8 547 536.9 524.3 522.3 517.6 520.2 529.5 527.6 514.6 502.8 499.9 479.9 465.3 438.8 416.8 391 369.4 358.8 348.9 355.2 352.8 352.2 345.2 336.4 335.2 303.3 257 231.3 200.1 191.3 183.6 177.5 173.4 168.9 165.1 167.2 159 164.7 169.9 172.3 170.2 167.1 156.5 139.9 112.5 92.9 73.3 56.3 53.3 49.5 45.6 42.8 35.3 26.3 13.7 11.6 11.1 10.5 10.1 11.2 13.3 17.2 25.9 41.5
255.9 262.2 268.3 277.9 288.2 299.3 308.8 320.4 326.8 329.8 328.7 325.5 320.6 309.8 301.1 291.1 278.6 263.7 255.3 243.2 236.6 232.5 228.8 226.7 235.3 242.1 250 257.9 274.6 288.1 301.9 312.6 322 332.5 343.8 351.6 363.7 376 385.3 396.4 408.7 414 421.8 426.9 438.8 449.7 455 455.9 459.9 466.2 472.5 468.2 466.7 463.5 454.5 435.9 414.5 391.6 372.8 357.8 346.3 334.6 319.8 306.2 294 281.9 268.1 255.6 239.8 227.2 217.1 209.5 201 217.3 237.5 244.4 258.6 272.4 291.4 306.3 314.1 325.3 338.3 350.6 368 378.7 386.1 397.7 410.3 422.5 430.1 444.3 454.6 464.7 477.3 484.6 486.3 487.4 484.2 481.5 477.8 472.1 465 456.9 449.8 450.5 451.3 454.7 456.9 454.9 459.5 459.4 459.6 458.2 458.8 464.2 465.8 468.5 472.6 478.7 488.6 494.5 497.7 499.9 506 515.6 524.9 530.8 539.5 547.5 558 573.1 582.9 585.5 589.3 582.4 578.5 575.8 562.4 542.8 536.7 538.2 547.2 550.8 541.4 532.7 515.8 515.1 489.8 469.4 447.9 409.1 390.8 379.4 373 374.5 378 371.4 376.3 362.9 350.9 312.4 264.4 233.3 210.1 200.7 191.5 186.9 181.5 182.5 173.8 170.3 164.6 171 181.9 177.5 173.2 171.2 165.4 149.3 125.8 102.8 84.1 61.9 52.1 48.2 43.8 39.7 35.5 29.2 11.9 11.1 10 10.6 11.2 11.7 13.4 16.7 31.1 41.9
261.4 267.4 274.7 285.2 296 307.7 317.2 323.5 328.8 329.5 327 320.9 313.5 302.1 293.1 280.3 267.7 255.2 243.7 234 229.2 231.1 221.5 229.5 240.3 232.5 249.1 264.4 279.1 290.1 308.2 318.9 329 340 346.7 358.3 362.7 374.5 385.3 397.8 407.2 414.7 421.5 427.8 444.5 455.7 454.6 455.8 461.8 470.6 466.1 462.2 465.1 459.5 445.6 432.1 409.5 383.1 363.5 354.7 341.4 325.9 311.5 299.8 285.9 272.3 257.1 244.9 227.7 216.6 207.1 200.3 203.7 219.1 233.1 250.7 264.8 277.9 288.4 303.5 317.6 332.2 346.7 359 372.8 384.9 392 401.5 413.5 425 435.8 450.6 460.1 468.1 476.2 483.1 486 484.7 481 477.8 475 467.6 459.7 450.9 441.3 437.1 444.4 445.8 446.6 445.2 447 448.8 450.6 453.6 456.8 457.6 457.1 457.9 464.9 475 479.3 481.9 485.4 492.1 500.2 507.2 514 520.5 529.7 539.2 549.1 560.9 572 581.5 589.5 595.2 602.5 600.5 591.8 580.8 565.1 565.8 557.1 556.4 557.2 551.3 544 530.7 523.3 489.8 448.8 428 417.9 414.4 399.5 390.8 396.7 393.3 392.9 386.2 372.1 343 278.2 239.4 219.5 208.7 200.5 193.5 191.9 190.6 180.2 176.5 169.8 176.7 186.1 184.2 181 177.3 172.6 158.3 137.6 115.7 98.3 72.5 56.3 43.7 38.3 35.3 32.8 29.6 11.6 10.3 9.9 10.6 11.1 11.6 12.9 15.8 29.6 41.6
265.9 272.3 281.7 291.7 303.8 314 321.7 327 331.1 330.5 324 314.9 306 295.5 283.1 272.1 258.9 246.6 237.4 229.7 221.5 217.9 209.3 218.6 221.2 244.8 258.3 270.5 285.8 296.9 308.7 322.8 334.6 340.4 349.4 361.5 370.1 378.8 389.7 400.3 408.8 416.9 421.4 432.5 446.5 452.3 449.7 458 465.4 462.4 458.4 456.8 457.5 452.6 434.5 418 399 377.2 360.4 349.3 337 321.7 308.1 290.8 275.2 259 244.7 234.9 219 207.8 199.8 191.6 206.8 219.1 234.5 246 261.6 277.7 289.3 307.9 323.5 337.1 352.4 361 373.2 386.4 397.3 406.1 413.7 424.7 437 448.5 460.2 473.3 479.3 479.4 481.8 479.7 475.9 474.4 471 464.4 454.2 443.1 433.9 434.4 435.5 437.2 436.7 437.2 439 441.2 443.3 447.5 448.5 451.2 450.9 451.8 460.1 467.2 469.9 472 478.2 483.9 489.4 497.6 506.5 512.2 521.7 534.2 544.2 551.4 559.2 575.4 585.6 597.2 604.4 613.3 602 608.1 615.6 602.3 587.9 583.9 581.1 566.3 561.7 550.2 529.1 499.8 477.4 452.4 448.9 439 419.5 411.3 408.7 406.5 408.6 406.9 389.8 370 326.9 247.7 228.3 216.7 206.3 199.3 198.8 196.1 189.1 183.8 175.8 179 184.4 186.4 185.8 182.8 178.7 166.4 147.5 123.9 108.7 86.7 67.8 53.1 33.9 27.3 29.2 25.9 15.1 9 8.5 10.7 11 11.4 12.1 16.9 28.9 39.4
268.7 277.1 288 298.1 309.8 319.3 326 331.4 333.9 329.9 317.5 308.7 298 286.7 274.5 258.2 246.1 235.6 228.4 222.4 216.7 202.1 217.5 225.3 233.7 253.1 264.3 281.8 294.2 308.1 318.7 329.3 338.5 346.1 353.9 367.2 380.4 390.9 397.1 405.5 410.9 416.2 424.8 433.8 443.8 443.1 447.7 457.4 457.4 457 453.2 452.8 449.2 440.2 421.8 402.4 385 369.2 352.6 341.2 329.3 315.5 299.2 282.2 267.3 251.8 237.5 220.4 208.7 199.9 192 196.8 214 224.8 245.8 258.4 270.1 278.3 295 309 323.1 341 351 361.2 374 386.6 399.5 409 417.3 427.4 439.9 450.9 461.5 471.3 476.8 477.9 476.4 474.7 470.8 468.8 465.2 457.3 446.5 436.3 426.1 425.6 426.5 428 429.2 430.9 432.8 433.2 433.7 438.2 439.5 442.2 444 447 453.6 458 461.9 468.1 474 481.7 489.5 491.9 498 505.6 513 523.6 534.7 538.7 555.9 570.3 580.9 585.2 594.4 596.5 602.5 615.2 622.7 629.6 639.7 623.7 623.7 619.1 595.3 566.5 543.1 538.4 521.7 482 476.2 457.3 438.9 428.7 422.5 419.5 419.2 414.1 404.8 382.1 340.8 253.9 234.5 221.9 210.8 205.5 203.2 198.5 200.8 206.7 184.5 181.6 185.3 188.3 190.4 188.2 184.3 171.3 150.3 129.1 116.2 96.1 78.3 62.6 46.9 30.6 18.4 20.3 14.5 9.1 10.9 10.6 11 11.3 12.2 15.1 24.4 38.5
273.2 283.4 293.9 304.4 315.1 323.8 329.5 332.8 329.8 320.3 312 303 289.9 277.5 263.4 252.3 238.9 229.8 219.3 214.3 201.4 209.3 216.6 231.4 246.4 259.2 273.1 286.1 297.2 312 323.6 333.8 342.7 351.9 360.1 369.8 381 395 402 407.9 413 421.4 429.2 439.2 440.8 442.3 446.8 450.5 452.6 452.4 452.3 451.8 448.7 440.6 426.4 396 371.8 360.3 346 333.9 320.2 305.7 288.4 268.6 255.8 242.4 224.9 209.4 197.7 192.1 184.9 205 216.5 230.1 248 266.2 273.7 282.2 298.1 309.7 323.3 338.5 350.5 366.4 376.4 384.8 398.1 408.6 418.7 431.8 443.2 453.6 462.5 469 475.1 477.3 475.7 470.9 463.3 459.2 453.7 446.6 435.7 427.3 418.8 416.9 418.4 420.7 421.5 424.1 424.7 424.3 423.1 427.8 430.2 432.5 439.4 445.3 446.2 456 459.9 463.7 470 477.8 481.7 486.5 495.3 499.3 500.6 510 521.5 527.9 542.7 558.1 565.4 576 584.6 590.2 593.4 597.8 606.9 610.6 618.7 615.1 603.4 602.7 595.3 562.5 558.7 558.2 545.6 513.3 519.8 484.7 468.7 455.5 441.9 437.1 431.6 418.6 408 380.7 329.5 261.7 240.4 224.1 214.8 211 207.9 208.2 210.1 209.6 188.9 183.2 187.3 190.7 193.7 194.9 190.7 181.6 167.2 148.6 130.4 110.1 92.7 73.1 57.8 45.3 31.4 15.6 13.5 10.7 10.6 10.3 10.6 10.6 11.9 13.9 23.2 35.7
278.1 287.6 298 308.4 321.1 325.7 328.3 327.2 320.1 310.6 303.2 293.7 281.3 268.5 254.7 243.5 231 223 210.9 199.4 202.9 206.5 213.5 229.6 241.9 253.7 275.3 294.3 306.5 319.5 329.6 339 348.1 356.8 367.6 376.6 384.8 395.2 402.1 410.3 415.3 427.2 435.7 439 440.5 444.6 448.2 451.1 451.8 453.9 456.3 455.6 451.6 443.2 427.6 389 369.4 357.4 340.2 319 308 292.2 275.7 258.5 240.9 227.5 210.1 198.9 188.4 182.4 193.4 212.3 222.1 233.7 247.6 263.2 273.3 283.9 303.3 314.5 331.1 344.2 353.6 365.9 379.5 387.2 397.4 408.2 421.3 431.2 444.6 457.6 465.6 471.8 474 474.9 472.1 466.1 456.6 449.4 441.5 433.9 425.6 417.5 411.3 407 410.7 412.9 414.2 414.9 416.7 416.4 418.1 422.2 427 431.5 435.8 438.6 447.1 452.6 457 462.6 469.7 472.3 476.3 483 487.4 489.4 491.9 498 508.9 521.8 532.7 545 553.9 563 574.4 575.1 576.8 578.5 582.1 593 590.5 597.8 592 577.3 556.8 562.7 569.1 568.3 562.9 532.9 533.8 520.9 513.2 484.7 474.7 461 437.1 414.8 398.5 379.8 322.1 267.7 245.6 224.7 216.5 214.1 212.2 213.6 210.5 204.5 193.3 183.6 189.1 192 198 201.6 198.2 194.8 184.3 164.7 146.1 125.2 105.9 88.8 68.7 50.2 40.6 26.6 13.4 10.3 10.7 10 9.9 11.2 12.1 13.6 17.4 30.3
281.8 293 304 313.4 323.8 325.5 325.3 319.2 311.4 302.5 295.2 284 269.5 258.4 244.9 230.2 219.5 211.5 201.2 196.1 201.8 218 226.2 237.1 251 266.1 282.8 294 309.4 324 334.6 344.6 354.2 363.9 375.1 380.4 388.2 398.1 406.6 414.7 421.7 432.5 439.1 439.1 445.2 449.5 451.6 453.9 453.6 456.3 458.7 454.6 449.2 440.2 416.5 381.7 363 347.5 328.7 315.8 296 279.4 262.2 247.6 232.1 215.2 198.9 184.7 179.9 183.9 200.5 215.7 225.9 240 252.2 265 275 289.7 307.6 319.1 330.1 343.6 354.2 367.3 377.8 385.9 395 406.8 418.1 430.8 446 458 465.9 470.3 472.8 476.5 470 461.6 450.9 438.8 428.6 423 413.5 408.6 402.4 387.9 403.5 404.4 404.2 408.3 409.9 409.2 411.9 411.6 419.1 423.2 431.2 435.9 442 447.9 453.3 461.1 464.9 465.6 474.4 480.1 480.8 482.5 485.7 491.5 502.1 511.4 522.5 526.9 537.2 548.1 561.1 565.1 563.8 565.5 566.4 560.2 559.7 547.4 558.1 537.5 538 538 549.7 555.4 552.9 527.7 526.2 535.5 521.2 498.9 490.5 469.9 446.9 422.2 388.7 375.7 301.3 269.2 244.3 224.4 218.8 215.3 213.9 211.8 207.3 212.2 189.6 181.9 188.9 191.8 196.6 200.2 208.6 209.4 199.5 178.2 155.1 140 123.3 101.6 79.4 64.5 49.1 33.9 19.8 11.9 11.4 10.3 10 10.6 11.5 13.4 17.9 26.5
285.2 296.9 307.2 312.8 320.6 322.9 318.4 312.4 302.2 294.7 285.9 270.3 259.8 249.4 238 225.3 208.4 199.1 194.5 195.8 202.9 216.2 231.7 250.2 266.1 274.8 289.2 306.8 319.9 328.9 340.5 351.3 358.7 367.6 380.2 387.2 397.6 403.2 410.6 418.9 426.5 436.8 436.8 441.3 449.1 455.4 453.4 453.6 454.7 455.7 453.1 449.7 444.8 429 396.9 374.3 353.8 339.4 319.4 305.7 290.3 272.4 251.9 232.3 217.3 199.4 185.8 177.1 174.6 193.6 204.7 219.5 232.3 245.6 255.3 265.7 279.3 292.6 308.2 318.7 329.3 342.4 353.7 365.4 373.9 383.6 392.3 405.4 416.4 432.4 445.9 454.4 459.7 467.7 467.6 468.1 461.7 450.2 442.6 432 418.7 411.7 404.8 399.5 391.2 380.6 392 393 394.3 397.9 398.7 399.9 401.4 405.9 409.2 420.5 421.7 435 440.6 443.1 446.2 458.4 461 468.3 470.7 474 475.3 478 481.6 486.2 494.8 503.9 511.1 517.7 522.3 529.1 540.2 543 542.5 551.6 546.1 541 528.8 505.7 509.6 522.8 519.5 517.3 511 522.5 523.2 530.4 506.6 519.2 510.5 491.1 480.4 479.6 444.6 416.8 391.4 352.9 289 262.8 242.2 227.9 221.2 217.4 209.1 205.9 204.6 197.2 181.9 179 187.5 192.3 198.8 201.7 218.4 223.5 219 199.9 163.3 147.1 130.8 110 92.7 74 58 43.9 27.3 14.7 12 11.4 10 10.5 10.7 11 14.2 23.8
287.7 298.6 306.5 312.5 315.9 314.4 309.8 303.5 293.8 281.8 271.1 260.9 249.4 240 229.8 214.7 199.3 194.9 194.9 199.9 207.2 217.4 230.5 243.6 264.4 281.8 298 309 323.6 335.9 347.6 355.7 358.2 372.2 384.5 389.8 396.9 404.1 414.8 423.3 429.2 435.8 440.3 444.3 453.2 455.6 452.4 453.2 454.8 451.9 450.7 448.9 440.7 410.8 384.5 362.5 346.1 329.3 312.7 297 281.4 257.9 239.6 216.7 201.4 183.1 171.5 169.1 187.4 198 208.9 221.1 233.8 244.8 256.1 267.6 281.3 291.6 306.7 317.6 328.9 341.4 351.7 358.4 367.7 378.7 389.1 400.8 414.5 426.6 441.4 449 452.1 456.3 459.1 458.3 450.2 437.3 426.5 417.4 410.3 400.5 395.2 389.4 379.2 368.4 374.4 380.3 385.7 385.6 386 388.1 397.8 410.3 414.5 417.6 429.2 434.5 443 448.9 457.4 464.8 469.8 474.4 476.7 477.4 477.8 479 481.7 485.9 492.7 497.3 500 502.6 502.2 505.8 519.7 515.5 504.6 494.5 501.6 496.9 486.6 476.8 483.7 493.1 487.2 497.1 501.4 496.9 502.4 494.4 500.9 484 483.8 477.2 472.6 470.7 441.5 399 374.9 324.5 291.1 265.3 249 229.6 223.1 220 209.3 202.2 206.3 193.6 179.1 176.5 186.7 195.8 201 205.3 218.4 233.4 228.4 205.2 172.1 154.5 137.6 119.3 102.1 85.5 67.2 53.1 38.2 27.6 15.4 13.3 10.7 10 10.3 10.2 11.2 20.4
289.4 298.6 305.4 309.4 308.5 304.7 298.8 295.4 279 269.4 261.6 251.8 240.9 231.6 220.7 208.5 196.5 194.9 197 201 213.3 225.4 239.7 252.4 271.9 289.3 306.8 319.4 325.9 341.6 353.9 362 367.8 373.9 386 391.6 397.7 408.8 417.3 423.4 427.8 436 440.2 446.9 453.8 453.4 451.4 453.4 449.4 448.2 448.1 440.9 422 390.2 366.4 352.5 336.7 318.9 301.5 286.9 269.6 243.8 224.2 204.3 178.1 160.8 165.3 179.9 192.4 202.3 211.1 222.5 234.2 243.7 257.4 271.2 282.2 292.4 307.7 317.9 326.9 339.5 346.6 353.8 361.7 371.3 382.2 394.7 403.8 413.1 431 438.9 443.2 447.6 447.6 444.6 434.4 421.5 413.3 406.2 398.1 389.7 379.9 374.1 366.5 353.7 361.4 366.6 368.6 372 386.2 395.7 408.1 417.6 423.7 428.1 433.9 438.3 445.5 452.7 460.1 468.8 475.8 482.2 486.1 488.3 488.9 488.4 489.8 491.6 494.8 498.6 496.9 493.4 485.7 477.4 469.2 462.7 457.3 453 450.1 451.7 449.1 450.8 461.4 463.9 464.1 469.4 475.2 479.5 467.8 469 466.2 464 464.6 471.7 458.7 438.1 424.1 386.4 370.6 324.6 290.6 269.7 250.8 230.6 221.6 218.1 210.7 196.5 193.9 184.7 173.1 171.1 180.5 194.2 201.7 209.7 222.7 237.3 232.2 210.1 185.2 166.9 151.5 126.4 108.8 96.7 81.5 68.9 54.3 38.3 25.3 11.9 11.9 10.4 10.6 10.2 10.5 15.7
288.3 296 299.6 300.6 298.7 291.8 288.4 275.3 267.1 258.8 251.4 242.4 232.1 222.7 213.9 199.9 194.3 199.5 199.4 204.9 221 229 247.2 266.8 281.3 299.1 312.4 325.3 338.2 348.4 354.4 366.9 373.9 377.6 384.3 393.8 400 411.9 420.2 426.1 431.6 436.8 440.5 447.8 448.9 450 448.8 445.1 445.2 442.3 437.6 425.6 395.1 370.1 354.5 341.3 324 307.9 293.7 274.4 255.1 231.4 214.9 194.9 167.8 158.3 169.9 181.9 190.6 201.5 215.8 223.6 232.5 245.2 259.8 272.7 282.4 292.2 305.2 315.9 323.6 332.5 339.1 346.3 354.4 366.4 375.3 387.1 395 404.7 419.1 430 428.5 432.2 430.7 426 416.8 411.6 403.1 391 384.3 374.6 364.6 356.8 345.9 339 337.7 355.1 371.7 383.2 392 405.8 414.4 420.7 426.3 431.8 437.4 445.1 451.5 461.2 469.1 476.9 483.9 489.8 494.4 498.2 499.5 499 500.2 503.8 506.8 507 507.5 503.2 500.7 490.8 482.5 478 468.9 447.7 434.5 427.9 428.4 430 432.4 431.1 437.6 440 441 450.7 448.6 447.6 444.9 449.1 434.1 443.8 425.5 417.4 399.5 383.7 361.5 310 293.5 270 252 232.2 225 218 210.1 199.4 188.3 191.2 169.3 168.6 177.2 188.5 197.2 218.3 227.6 242.8 242.6 225.7 205 180.9 165.6 135.6 118.5 105.7 93.5 80.3 65 50.7 37.4 21.2 12.1 10.5 10 10 10 11.3
284.5 290.5 291.6 289.8 284.2 276.6 270.3 262.1 254.9 247.7 240.3 232.4 224.6 216.2 207.3 192.6 186.3 192.5 198.9 206.9 219.8 234.8 255.6 274.4 288.4 306.1 318 332.7 345.2 355.4 363.1 369 374.9 383.3 386.3 396 404.6 415.6 421.6 428 431.6 436.3 440.4 444.9 448.5 448.4 443.1 441.8 441.9 439.4 422.5 397 377.6 359 340.8 329.3 313.4 299.5 282.2 262.6 244.5 222.9 206.3 186.5 155.2 159.4 175.9 183.6 192.1 201.9 214 224 233.5 243 260.2 274.4 285.3 293.3 301.5 310.1 319.4 326.9 331.2 335.9 348.7 358.7 365.9 379.3 387.5 394.7 404.8 408.9 413.3 413.7 411.3 407.6 402.7 396.2 382.3 377.7 371.7 360.8 348.3 341.1 322.5 336.7 358.6 371.6 383.4 393.5 402.2 410 419.3 425.2 432.1 435.9 446.3 452.7 459.9 471.4 478.7 486.1 493.7 499.9 506 508.1 509.5 510.3 513 516.7 519.8 523.7 522.1 521.4 509.7 505.2 492.5 479.5 456.5 439.1 425.7 421.5 419.1 411.7 410.2 414.7 417.2 419 423.3 423.5 425.6 421.1 421.1 422.3 419.3 413.4 407.4 397.6 381.3 367 341.4 302.2 292 268.7 253.5 236.1 231.2 222.5 210 197.4 181.5 174.4 165.5 167.9 173.5 182.1 196.8 218.2 228.4 241.7 245.8 236.8 219.9 201.5 177.9 144.4 125.8 111.9 99.4 89.8 74 63.5 53.3 37.8 17.4 9.3 9.5 9.2 9.7 10.5
277.9 280.8 281.5 276 269.7 262.9 255.6 251.2 243.9 236.6 229.1 223.8 215.9 208.5 198.5 185.6 188.9 192.1 200 213.1 228.8 246.1 264 279.8 294.5 310.3 326 338.1 349.1 360.4 368.5 373.2 376.3 386.9 390.8 397.8 407.2 416.8 421.5 426.5 431 436 441.5 444.9 447.4 445.9 436 435.7 431 418.1 401.1 377.3 361.4 344.2 329.1 315.9 302 288.8 269.3 250 231.1 208.2 197 176.2 148.9 160.1 172.2 183.6 194 202.2 210.6 220.6 234.7 246.6 256.5 265.3 280.3 287.2 299.6 309.1 314.5 317 318.3 327.6 337.2 346.3 353.4 356.6 358.8 371.4 379.4 386.1 392.2 395.5 397.6 394.1 388.1 378.4 370.7 360.6 351.4 341.3 331 319.1 326.3 350 365.2 377 386.8 399.6 408 419.6 427.5 433.1 438.5 447.8 456 462.1 474.6 482.7 491.8 499.7 504.6 516.5 519.2 518.7 519.5 522.9 526.5 529.3 535.1 542.9 547.4 529 522.3 512.6 495.1 473.8 461.9 448.5 440.8 429 423.5 419.1 415.8 395.1 401.8 408.7 405.5 403.6 406.5 406.7 398.4 396.1 389.5 383.2 382.3 382.1 367.5 348.6 316 294.6 280.2 260.5 249.4 237.2 235.5 228.9 206.2 196.1 181 170.9 160.8 164.5 168.9 180.3 198.1 217 228.9 238.1 237.5 240.5 233.3 211.5 189.4 159.9 136.1 117.8 108.9 96.4 86.4 77.5 66.3 51 31.6 10.1 9.5 9.4 9.2 9.9
270.9 271.1 266.8 260.6 254.6 247.8 244.2 239.9 232.9 226.4 221.4 214.5 208.2 202 192.1 184.8 188.6 194 205.2 225.5 243.5 257.3 272.2 290.3 303.9 317.4 330 342.6 355.4 362.9 372.1 378.9 382.4 389.5 395 401.3 408.4 416.2 419.5 425.6 431.7 436.6 444.6 444.2 443.7 438.5 427.5 416.7 406.4 389.3 370.7 353.1 346 330.9 317.6 305.3 290.2 272.3 255.3 236.9 215.4 199 185.9 165.5 151.4 160.5 171.5 182.9 192.4 202.2 208.9 217.7 232.8 248 252.6 263.4 275.3 285.3 292.6 297.1 303.3 302.2 305 311 318.6 326.7 332 338.5 340.4 348.4 357.3 369.4 378 379 378.9 375.8 372.5 363.8 354.7 341.9 330.3 318.5 314.2 325.4 340.1 354.7 369.8 382.7 394.7 405.5 416.1 429.3 435.4 443 451 458.4 466.1 476.5 490.7 502.8 514.7 514.6 523.9 532.2 533.7 530.6 531.1 535 540.7 546.5 550.9 564.5 565.7 550.5 536.1 510.6 498.9 490.9 478.6 463.5 447.2 440.6 431.6 422.7 416.4 405 393.9 384.8 388.3 387.7 392.2 385.7 383.8 382.2 379 373.9 369 366.8 353.8 335.9 309.1 289.8 265.3 255.1 235.1 239.8 233.1 231.7 223.7 213.5 196.3 178.6 156.1 161 163.7 175.9 195.7 217.5 231.6 226.5 235.3 242.8 236.5 213.8 191 167.7 145.1 127.7 115.3 102.4 94.1 84.5 74.3 58 43.2 25.6 8.6 8.9 9.2 9.2
260.3 257.8 250.9 244.2 239.4 236.8 232.5 228.3 220.2 217 213.6 208.1 199.5 193.7 177.4 185.4 189.4 195.9 207.9 226.9 249.9 265.6 284.4 298.1 313.8 326 338 350.2 361.2 368.2 373.7 380.8 386.9 394.2 398.3 403.9 408.3 413.1 418.6 424.9 432.3 437.6 439.5 435.6 431.7 420.4 405.5 394.6 383.7 367.1 354.2 341.5 328.5 317 303.5 287.6 273.7 254.5 238.6 217.8 203.4 188.6 173.4 155.6 150.1 158.3 169.5 179.6 190.4 199.1 205.5 213 227.4 239.1 250 261.1 266.8 273.8 278.9 283.9 285.2 285.9 288.6 294.7 300.8 306.2 314.1 320.2 324 330.2 341.3 348.9 353.1 355.6 358.3 356.7 354.9 347.3 331.4 319.8 306.8 308.4 324.7 335.5 348.8 361.9 373.7 387.9 400.9 411.4 422.5 434.9 445.1 452.3 462.7 471.9 480.5 492.1 507.9 522.6 533.5 534.8 545.6 545.7 542.9 539.7 546.1 555.3 562.5 561.5 566.2 578.4 579 561.1 542.7 527.4 514 504.5 496.8 479.1 461.8 450.8 444.5 433.1 425.7 412.3 404.9 396.4 384.7 379.5 374.2 375.9 368.8 365.8 367.4 366.2 360.8 343.8 334.9 326.1 307.6 287.1 267.2 252 248.7 256 247.5 244.2 229.4 218.5 203.6 181.8 156.6 153.2 155.8 172 195.6 217.6 224.9 221.5 227 238.1 237.7 213.7 193.3 170.5 154.4 133.6 119.6 110.1 101.7 91.8 82.5 67.4 54.3 37.4 17.6 9.4 9.7 9.6
244.2 238.1 232.7 228.4 225.7 224.1 220.5 215.9 210.1 208 205.1 199.5 194.2 189.1 177.9 183.3 190.2 197.3 217.2 237 252.8 271.7 286.3 303.8 319.2 333.4 344.7 355.1 364 371.2 379.5 385.6 394.8 396.5 400.5 404 408.5 413.4 419.8 425.7 432.5 436.7 437.3 427.5 412 398.4 389 379.7 370.2 355.4 341.1 327.6 314.4 302.4 285.3 268.7 252.3 236.9 220.9 205.9 192.8 176.4 162.1 148.5 148.7 156.5 165.1 177.2 189.5 196.8 201.4 210.3 222.4 231.2 240.7 248.5 255.5 262.8 264.5 267.9 270.1 266.6 271.6 277 283 287.7 294.3 301.3 305.1 311.3 318.2 323.9 331.3 332.1 333 336.5 331.6 326.4 303.3 295.7 303.2 321.5 334.5 343.2 353.6 367.7 380.2 394.6 408.4 420 432.9 445.5 454.6 461.4 471.5 484.6 497 512.2 529.9 544.2 547 549.8 558.9 554.3 549.5 553.2 563 567.7 575.7 575.7 583 584.4 584.3 577.7 559.5 541.7 538.6 520.5 512.9 495.8 479.1 473 470.3 461 450.6 443.3 421.1 405.3 392.8 389.9 382.5 361.9 355.5 354.1 354.2 349.8 337.7 334.3 322.3 312.4 299 287.7 264.1 266.3 275.3 257.9 250 245.3 229.4 220.8 206.8 187.2 158.1 145.1 147.9 167.4 187.4 210.4 219.3 216.4 220 235.5 228.6 208.3 190.7 175.3 161.5 139.2 123.5 115.5 109.1 100.3 89 72.7 58.8 46.1 28.8 9.6 9.4 8.4
224.8 221.4 217.5 215.3 213.5 211 207.5 203.8 201.1 200.1 197 191.1 187 176.6 158.2 181.3 190.4 204.1 221.4 241.9 265.9 279.8 297.1 309.6 322.9 335.7 349.6 360.5 368.2 375.6 383.9 394.1 397.3 399.9 402.3 407.3 411.5 416.6 421.3 427.5 431.6 435.4 428.5 411.6 396 384.4 373.7 365 354.8 342.2 325.4 313.9 302.8 284.8 269.3 253.3 239.6 223.4 211.2 191.5 180.5 166.2 154.1 144.3 145 153.3 161.1 169.9 182.4 185.3 196.4 208 219 226.7 231.4 236.8 242.7 246.8 248.9 249 249.1 250.4 254.6 258.6 263.1 268.2 273.6 279.1 286.1 291.4 297.2 302.6 308.3 313 317.2 315.9 309.9 298.4 284.5 303 317.6 330.3 340.1 351.3 363.4 376 389.3 402.4 414.4 426.7 439.8 452.8 461 469.3 484.2 498.2 510.9 528.6 546 555 557.4 559.2 562.3 553 558 554.8 570.5 577 584.9 582.5 585.7 584.1 582.4 582.1 571.7 562 560.5 542.5 528.1 517.2 498.1 495 495.2 488.9 476.9 462 437 426.2 406.5 397.4 394.7 378.2 370.8 368.2 356.2 341.7 325.7 322.7 319.5 317.7 303.1 292.5 281.5 287.1 289.7 267.5 251 241.5 231.6 220.9 213.8 203.3 161.1 139.7 141 162.2 179.4 197.2 208.7 209.9 210.5 219.8 213.7 203.5 193.6 181.6 165.5 143.2 129.5 119.7 112.8 103.9 90.9 77.1 63.6 50.2 30.9 9.2 9.7 9.4
209.6 205.7 202.9 202.8 200.7 199.1 196.9 194.1 194.2 194.1 189.6 179.6 176.7 166.9 158 177.2 191.3 211.1 227.2 246.3 268.9 286.1 304.4 317.5 330.3 344 355.3 363.4 370.5 380.4 389.6 395.8 400.1 403.6 405.6 414.2 416.9 420.4 423.3 427.3 426.1 421.3 407.4 392.3 382.6 370.3 359.1 347.5 331.7 325.8 312.1 299.4 282.8 265 249.1 233.3 222.1 209.7 191.4 183.9 168.1 155.7 143.8 131.2 142.4 150.6 161 169.8 177.4 185.2 194 206.2 214.7 217.9 225.1 227.1 230.5 229.8 232.2 232.8 234.2 233.8 236 238.3 242.6 245.6 252 260 266.1 270.8 275.6 281.5 287.3 292.8 298.1 297.6 289.9 267.8 291.1 311.6 326.7 336.4 347.3 358.1 371.4 385.3 396.1 407.5 421.6 434 446.5 457 466.3 480.6 496.2 510.3 524.6 543.6 555.1 558.9 557 559.6 554.6 556.4 558.5 546.1 562.1 578 578 578.1 580 584.7 588.8 586.8 587.1 589.5 592.3 585.6 551.9 545.4 529.5 520.8 513.4 509.8 497.4 474.6 463.1 433.7 416.8 409.3 397.6 384.9 376.3 376.7 362.9 357.1 337.1 329.3 326.9 324.6 316.7 298 293.7 296 296.8 283.1 255.3 238.4 226.8 219.5 216.7 214 161.7 133 134.3 149.7 173.2 187.4 202.7 206.5 205.7 208.4 212.3 211.4 203.6 185.3 164.7 148.5 136 126.4 116.8 106.9 92.8 81.2 69.1 53.6 33 9.9 9.5 8.9
192.2 191 189.6 189 188.8 188.1 186.2 188 187.8 188.7 180.1 171.7 159.6 142.8 168.5 181.3 201.8 219.9 239.3 257.7 275.5 288.5 305.5 322.4 335.2 348.3 358.6 367.4 375.7 383.8 394 400.2 402.3 404.9 413.5 419.3 422.6 423 422.7 422 420 406.3 391.2 378.7 366.2 355.1 343.7 328.6 315.3 308 294.1 281.6 263.1 246.6 231 218 205.8 194 180 168.9 154.5 143.6 131.7 132.9 139.6 150.6 158.9 167.5 175.8 182.2 191.1 197.2 204.1 207.5 211.6 211 206.2 204.7 212.9 215.5 215.9 216.3 218.8 221.1 221.3 223.6 231.2 238.3 244.7 252 256.2 261.9 267.5 272.7 278.1 272.6 257.8 280 298.9 314.1 330.2 341.4 352.6 366 378.8 391.5 403.3 414.5 426.3 440.9 451.8 461.8 474 490.2 503.8 520.6 535.4 547.2 554.6 553.7 551.3 554.9 541.8 546.9 548.5 540.6 535.7 552.6 565.5 558.2 567.8 576.7 578.9 594.3 602.2 604.8 615.3 611.1 591.6 569.7 552.9 539.5 537.3 532 525.4 500.1 484.1 449.5 433.2 422.1 408.5 400.7 385.4 384.2 367.8 362.7 334.3 328.6 332.6 330.2 314.5 313.7 304.8 298.3 293.8 289.8 274 238.1 217.1 211.5 210.4 200.4 157.5 126.9 134.9 147.9 156.2 171 186.7 190.1 207.6 204.8 217 222.8 208 187.6 166 152.2 141.3 132.9 121.3 110.2 98 84.3 72.2 57.1 35.1 10.4 9.3 9.4
177.2 177 177.5 177.6 177.8 177.9 182.4 184 180.9 176.6 169.5 155.4 135.6 155.6 174.6 195.7 209.1 222.9 242.9 259.2 278.6 297 312.6 327.1 341.5 351.7 362.3 372.5 380.8 389.2 397 400.9 403.7 410.1 418.7 424.5 429.1 424 420.5 414.5 404.3 389.4 378.2 365 349.8 339.5 328.1 315.1 304.4 292.2 276.2 259.7 241.6 229.6 216.4 202 189.7 176.9 171.9 156.8 143.4 132.8 124.6 129.3 136.8 144.4 154 164.8 172.7 177.2 181.1 188.1 191.6 197 193.8 187.8 180.5 183.5 193.5 195.3 197.2 197 196.8 196.5 196.4 201.2 210.3 220 226.6 232 237.9 243.6 249.6 253.4 253.7 245.8 261.9 279.3 298.6 314 328.8 343.6 357.5 369.1 383.6 394.8 407.4 417.5 430.1 442.7 452.3 466.9 480.8 496.5 514.3 526.7 536 544.4 545.3 544.3 542.6 542.4 530.5 533.7 531.9 526.9 525.5 528.2 531.5 541.1 552.2 557.3 575.4 582.9 600 621 626.5 632.4 617.8 591.6 580.7 562.5 569.6 561.6 550.3 533.5 515.5 469.7 453.1 437.1 425.9 415.9 402 391.1 380 353.7 333.9 334.1 335.6 328.6 326.7 322.7 306.2 307.9 301.2 288 266 236.2 226 209 200.5 190.9 148.5 131.3 131.8 143.7 157.5 150.2 160.8 181.6 198.9 201.7 219.4 226.7 215.4 186.8 165.2 151.5 144.8 129.6 121 113.3 99.6 88.5 73.7 55.5 32.7 11.2 9.8 9.8
163.2 164.7 165.7 166.6 166.9 168.4 174.5 177.1 171 163 155 134.4 135.4 156 174.9 193.6 215.1 233 247.8 260.6 280.4 301.4 317.6 332.1 344.6 354.8 366.4 374.9 383.9 392.1 399.1 402 410.3 415.7 422.6 428.4 429.4 419.3 414.7 401.5 382.1 368.9 358.8 349.1 335 321.4 310.8 297.5 285.1 272.3 259.5 236.8 224 212.9 198.6 188 173.6 166.5 156 144.2 132.9 124.4 125.1 128.1 134.3 140.1 144.2 154.7 164.7 172.2 174.7 177.7 180.5 181 169.1 167.3 166.9 168.1 172.7 175.6 175.5 172.3 173.9 175.6 176.9 189.5 195.2 202.6 208.6 214.6 222.1 227 230.3 235.8 221.6 242.1 260.2 278.1 296.6 313.1 325.8 340.4 355.2 368.3 383.7 397.6 409 420.4 433.7 447.4 457.5 472.4 487.6 500 513.8 525.3 532.3 536.4 533.9 536.1 531.4 515.8 515.9 515.4 512.9 511.8 512.1 509.4 515.4 528.9 539.9 542.4 550.9 563.5 591.7 621.2 636.9 644.5 633.1 602.5 596.2 576.7 582 580.8 583.4 559.1 536.2 507.1 474.2 455.8 443.7 430.1 413.1 403.3 383 354.9 337.9 336.5 335.7 334.2 329.8 324.5 320.9 320.2 323.4 309.6 277.3 241.1 216.6 205.9 196.6 173.8 150.3 134.9 125.5 138.5 148.3 141.1 150.7 167.9 189.9 203.8 205.6 227.3 203.1 180.6 161.2 147 141.5 127.2 117.7 115.8 102.3 89.5 66.6 51.2 31.3 13 9.6 9.3
150.4 152.6 154.2 156.7 156.3 161.1 167.5 166.6 159.3 150.5 136.8 126.9 144.6 161.7 180.8 198.1 216.5 233.3 251.7 271.5 287.5 302.6 319 335.1 347.6 358.2 367.8 378.7 385 394.7 399.7 405.7 415.2 421.3 427.3 429.1 421.1 408.5 395 381.4 365.6 353.4 338.6 328.4 318.6 304.3 291.8 278.9 265.8 252.1 232.2 217.5 206.7 195.5 181.6 168.5 161.2 152.5 142.4 132.4 124.5 114.3 121.4 125.5 130.3 136.3 140.3 149.9 155.3 164.4 167.7 168.5 170.8 166.9 154.7 154.7 156.9 156.3 156.1 155.4 156 154 151.6 161.3 163.5 167.7 177.1 182.2 192.7 198.7 204.6 210.5 214.9 199.9 226.3 240.3 254.8 271.7 286.5 303.3 316.1 334.5 349.7 367 385.8 398.2 409.9 422 433.7 448.9 460.3 475.9 490.1 502.2 505.9 515.2 522.1 516.5 515.6 512.9 510.6 500.2 504.2 502.8 499.1 492.7 489.9 500.1 505.8 510.8 522.2 528.5 539.8 552.1 575.4 582.6 616.4 654.8 649.5 620.9 598.7 591.6 589.6 592.3 603.8 584.5 566.1 533.3 515 474.5 459.4 435.7 428.2 408.4 386.8 351.2 340.8 341.2 339.6 340.8 342 335.1 328.7 336.3 334.2 313.9 280.1 243.4 222 202.1 190.2 175.8 158.5 133.5 117.6 134.2 136 134.7 148.8 163.4 179.1 195.2 188.6 205 191.9 173.4 156.1 137.4 130.1 114.8 110.4 109.4 100.3 88 61.4 50.6 39.7 16.3 9.5 7.5
138 139.4 143.2 148.8 145.8 152.4 155.6 155.2 148.5 134.6 119 135.3 154.1 168.5 191.4 207.5 224.7 243.3 259.8 276 292.1 309.2 323.9 338.2 350.7 362.1 372.2 379 387.7 396 400.1 412.5 419.4 426.9 429.6 424.6 401 387.3 375 361.7 348.2 337.5 324 311.6 298.5 285.5 272.7 259.3 246.2 232.9 217.7 202.7 190.9 178.6 165.8 156.9 146.9 137.6 132.6 124.9 116.5 113.8 117.4 121.7 127.1 132.9 137.1 141.4 146 150 155.8 155.5 152.4 146.3 143.2 143.7 139.4 140.8 135.7 139 141.6 145.9 150.6 151.1 151.6 155.3 157.5 168.6 178.1 181.7 191.3 198.9 192.6 200.4 218.9 232.8 249.3 264.2 275.4 294.7 311.3 327.1 343.6 364.3 380.4 394.2 407.6 421.7 434.8 450.2 459.6 474.9 487.6 497.9 494.3 498.6 497.8 497.3 494.7 488.9 485.9 486 489.2 486.6 484.2 478.8 485 490 491.7 500.3 507.6 521.8 531.6 534.9 546.1 558.9 585 611.3 622.1 630.1 611.3 605.2 601.9 602.8 613.5 607.4 591.9 569.9 531 490 475 444 434.4 415.2 390 357.8 347.8 345.7 344.5 347.2 348.6 341.7 340.1 350.5 348.3 318.6 282.3 254.9 229.2 208.3 183.8 177.7 161.7 131.3 113 131.4 130.3 128.6 142.2 159.5 178.7 185.8 179.3 184.5 177.3 166.2 148.6 131.2 123.3 112.8 103.1 100.7 90.9 80.3 64.4 55.3 46.3 21.9 11 10.2
126.9 129 133.5 140.3 138.8 140.8 144.2 141.8 131.4 120.7 114 142.5 158.2 171.6 192 213.9 230.4 249.4 265.1 281.6 298.6 313.6 326.5 340.7 353.1 364.9 372.7 379.9 388.6 394.7 405.1 416.3 421.5 424.2 419.9 406 377.7 367.7 353.6 341.1 329.7 317.1 307.4 295.1 282.8 268.9 254.9 241.6 229.1 217.2 204 189.4 175.2 161.8 150.2 141.4 131.3 123.8 120 115.9 109.9 109.8 113.2 119.4 122.9 128 130.8 134.6 136.1 141.1 144.1 137.9 134.9 130.6 132.1 133.4 134.4 140.9 145.4 153.2 160.3 162.2 165.3 168.6 169.7 169.7 168.8 164.2 162.8 167.2 178.5 186.5 190.6 202 213.5 223.4 233.9 252.2 267.2 285.7 303.1 318.7 337.4 357.8 372.5 389.6 404.8 418.4 434.6 445.7 453.6 467 475.8 477.1 476 478.5 485.9 481.7 477.1 475.7 473.5 480.8 478.4 472.1 472.1 476.1 481.2 483.5 480.9 487.1 496.6 509.3 515.7 526.6 536.7 548.6 564.4 578.8 595.8 607 618.6 620.7 613.4 614.4 613.7 612.3 609.3 588.8 551.5 505.3 478.3 445.8 435.1 419.3 384.8 359.7 351.7 351.5 351.7 354 354.1 349.3 349.8 361.3 353.5 330.2 305.2 263.3 232.5 208.2 184.7 174.4 160.4 132.5 116.2 123.8 128.3 121.7 137 153.5 183.7 188.2 176.4 179.7 175.3 164.5 150.9 129.9 121.8 112.3 101.1 90.3 76.6 72.1 70.2 59.3 48.6 29.4 14.9 10.4
117.1 119.4 126.1 128.6 128 132.4 130.7 127.9 117.8 110.2 122.5 145.9 161.1 181.1 195.7 214.8 234.6 251.6 267.7 284.3 300 314.3 328.5 342.2 354.1 363.5 369.4 376.3 384.9 395.7 407.5 414.2 411.3 406.4 393.7 366.2 357.3 344.8 334.8 323.5 311.9 301.6 289.7 277.8 264.5 250.7 238.3 225.3 210.8 198.1 187.2 171.7 158.6 145.3 133 127.1 119.4 112.2 108.1 105.4 108.1 109.3 111 114.9 118.4 121.8 119.7 122.1 124.6 123.1 124.9 126.3 129.8 131.9 139.3 143.2 150.1 153.8 155.3 162.9 169.7 174.6 178.8 182.5 184.5 184.8 185.9 183.2 179.6 175.2 172.8 179.3 188.1 199.1 206 218.5 232.9 246.9 261.3 276.9 293.8 310.5 328.3 345.6 364.8 385.4 399.8 413.9 426.6 437.7 440.2 454.2 459.8 457.4 457.4 465 465.1 465.1 464.7 467.3 468.8 467.8 467.1 465.4 465 471.1 474 470.8 470.3 483.7 492.9 499.4 505.9 511.2 524.9 539.3 555.4 566.9 584.5 599.5 620.3 632.2 617.4 620.1 618.2 616.1 613.7 599.4 564.2 540.3 501.5 458.7 430.5 407 382.9 362.3 358.2 358.6 360.3 359.7 358.3 353.9 359 370.9 362.1 338 300.7 262.1 234.4 216.1 190.9 172.4 158.3 137.2 122.7 117.3 126.8 113.5 126.5 143.4 181.3 180.6 171.2 174.3 171.8 164.9 143.7 128.9 122.5 111.4 100.7 88.8 73.9 63.3 58.5 51.9 44.6 32.9 25.7 11.8
111.2 113 117 117.5 119.5 121.8 119.4 115.3 101.5 103.9 128.6 147.8 165.1 184.5 204.2 221.2 237.6 254.9 269.7 287.4 303.2 315.2 329.1 342.6 353.1 359.3 365.2 374 384.2 394 401.6 396.9 391.6 376.5 355.4 343 335.4 324.7 314.9 305.7 291.9 279.6 271.4 259.7 246.8 233.9 219.7 208.1 192.8 181.6 168.7 154.9 141.9 131.7 118.4 109.6 106.8 102.2 104.6 110.9 114.8 119.6 121.5 119.4 115.8 125.8 130.7 132.7 131.9 127.6 130.4 138.9 137.6 145.1 148.3 151.5 158.1 165 171.4 183.8 188.1 189.6 195.3 199.9 200.5 199.1 199.9 198.4 194.8 191.4 187.5 180.3 179.7 195.3 204.2 212.8 226.6 240.5 254.7 270.9 286 303.2 319 336.7 356.8 377.3 396.9 410.6 419.4 428.1 431.8 429.5 431.8 439.1 446.7 453.2 453.1 456.9 458.4 460.3 458.1 458 459.5 457.4 461.9 462.5 462.9 463.9 468.8 476 485.3 491.8 492.8 504.3 514.6 524.2 539.9 553.7 567 581.3 599.1 611.9 619.4 626.7 626.2 610.7 613.5 613.9 581.9 555.9 510.9 478 462.5 423.9 390.5 370.8 367.6 367.1 367 368.4 364.8 360.6 367.7 377.6 374.2 350.4 300.5 262.7 240.9 223 195.6 177.6 160 146 130.6 111.1 115.1 112.3 118.9 127.9 153 173.1 169.1 165.3 167.3 158.6 140.4 135.3 123.4 109.4 97.4 87.1 73.2 62.9 58.3 52 46.3 39.6 32 18.5
100.7 107 107.8 109.2 111.6 110.4 108.9 100.8 88.8 118.1 137.2 155 173.7 191.7 208.7 226.8 242.4 258.2 274.2 289.1 303.9 317.3 329.8 341.6 348.7 353.7 360.3 370.7 379.9 386.8 379.3 363.4 356.2 342.3 329.5 322.2 316 304.2 293.6 283.2 272.9 260.9 251.6 241.3 227.7 216.9 202.8 190.1 176.6 163 151.3 137.2 127.1 114.5 108.9 103 100.5 105 108.5 110.9 114.9 120.6 127.6 130.6 131.8 136.2 139.3 144 147.5 145.1 144.3 144.7 153.6 156.1 158.6 164.4 172.7 178.9 186.4 194.9 203.6 213.2 217.1 216.6 220.2 223.1 221.3 216.2 213.8 210.2 205 197.4 195.1 190.7 185.9 206.4 218 230.8 248.1 262.1 279 293.5 311.8 329 346.7 367.9 389.1 402.6 413.6 422 413.8 402 418.8 428.9 432.6 438.6 442.6 448.3 450.9 450.7 443.8 448.6 452.4 453.8 455 456.6 457.3 463 468.1 471.3 473.7 478.2 482.8 492.5 504.7 514.8 533.7 544.7 560 574.5 586 598 609.2 625.8 626.1 620.9 602.3 606.2 578.1 543.3 508.3 482.4 480.3 446.7 403.8 383.4 377.8 378.2 373.9 374.3 372.5 369.6 375.7 386.7 377.7 348.6 300.5 267.5 248.9 230.9 214.3 188.8 168.7 155.6 138.1 115.2 106.7 108.5 107.7 119.5 134.8 155 164 156.9 161.1 149.1 139.5 134.3 122.5 106.3 96.6 88.3 76.5 62.3 52.2 52.1 47.9 44 36.2 24.9
94.4 97.8 101.3 101.8 101.7 102.9 94.3 82 111.5 128.2 145.2 162 177.8 194.7 210.9 229.8 245.8 260.6 276.1 290.6 304.2 315.1 327 335.7 341.2 347.6 354.3 360.4 362 357.9 345.9 332.3 324.2 314.7 305.6 300 293.3 286 273.1 263.2 255 245.5 232.6 220.9 210.9 197.3 186.3 171.1 156.9 147.4 132 120.6 110.8 105.5 98.4 101.9 105.4 107.5 111.6 116.8 124.3 131.9 138.4 143.8 144.8 147.5 153.4 156.4 158.1 157.6 157.3 156.4 166.9 164.8 173 182.6 189.5 200.1 212.2 215.8 218 233 244.3 248.1 243.8 247.5 246.5 247.3 232.5 231.4 225.5 216.4 212.8 207.9 203.4 191.6 209.6 222.9 240.4 254.9 271.3 284.1 299.1 315.1 337.8 357.6 375 387.5 397.4 402.2 380.8 401.8 405.7 412.5 425.3 426.9 430.2 433.8 439.7 444.9 452.4 457.6 460.3 462.1 463.3 466.2 465.8 467.1 466 466.3 469 471.7 476.5 486.4 496.3 503.6 509.3 523.8 540.7 553.2 560.7 568.1 589.8 603 603.5 610.4 601.6 584.3 579.1 567.6 534.7 495.4 484.6 444.3 405.5 399.3 389.3 389.3 382.7 380.3 375.9 380.2 388.6 394.2 378.9 348.7 298.7 271.5 254.5 240.9 218 189.6 170.5 154.5 141.1 123.1 100 101.4 99.1 102 118.3 133.6 144.7 152.8 156.1 144.1 138.8 133.9 121.9 108.5 94.2 86.2 70.9 58.7 49.6 51.2 49.8 47.5 43.7 29.3
86 89.9 90.3 93.4 96.1 88.9 76.9 100 118.2 133 150.3 166.7 184.6 201.3 215.9 232.8 247.2 260.8 275.5 289.1 298.7 309.1 320.2 327.1 333.1 338.1 341.9 345.9 333.9 323.3 315.6 305.6 294.5 292.6 285.7 278.8 266.4 262.2 253.6 243.6 231.5 225 217 204.8 192.9 180.6 167.9 155.5 143.2 127.7 115.6 104.5 100.1 96.8 99.9 104.1 109.4 114.6 123.1 131.2 138 143.4 150.7 154.3 155.9 161.2 168.3 174.4 173.3 173.7 174.2 177 181.2 180.7 195.7 198.9 212.9 223 228.7 236.2 245.7 249.6 260.8 269.7 276 272.1 273.7 272.1 265 253.7 247.4 239.3 234.5 228.5 218.8 210 208.1 211.7 228.2 243.4 260 274.2 289.1 307 324.8 343.5 359.4 366.8 372.6 374.5 382.4 403.9 418.1 426.4 434.3 437.4 441.9 445.2 447.9 453.3 458 462.5 467.3 470.2 470.6 470.8 471.2 473.5 472 472 472.3 472.8 475.1 480.7 486.3 488.1 500.1 517.9 524 541.1 546.2 554.9 565 574.9 582.5 586.2 592.3 572.2 561.1 556.9 546.3 512.9 490.5 449 422.2 411.5 403.1 397.9 402.2 386.7 380.9 389.3 399.2 396.7 377.5 336.6 298.3 279.2 266.9 247.7 222.6 196.7 179.8 158.5 138.5 120.9 107 101.2 92.3 96.9 105.7 120.6 138.7 153 153.6 139.6 136.9 131 123.2 108.4 90.8 79.6 68.9 56.9 46.5 49.3 50.7 50.6 45.4 33.8
79.3 84.2 85.4 87.2 85.9 71.7 94.7 109.3 122.3 135.2 153.8 168.9 185.5 201.3 216.8 233.8 248.1 261.4 274.1 283.5 292.5 303 311.3 316.6 321.5 324 321.6 316.9 305.5 294.6 284.3 276.3 272.3 269.2 263.5 253.9 244.9 238.3 231.2 220 216 204.2 196.8 188.2 175 164.2 150.1 140.1 128.6 115.3 102 96.8 97.2 99.6 101.8 111.5 118.9 127.1 134.1 141.7 147.9 158 163.6 164.8 168.9 174.9 183.8 189.2 191.5 193 186.7 196.7 199.9 200.7 212.6 221.6 230.3 240.8 250.3 256.6 265.4 270.4 274 287.8 295.8 299.8 302.7 297.4 288.7 275.6 265.3 263.5 255.7 246.3 235.5 225.4 220 225.3 218.1 231.6 246 262.8 278.5 294.2 312.7 328.3 339.9 338.8 350 367.2 389.5 404.9 415 425.2 434 441.9 446 450.2 452 458.2 463.7 468.9 474.7 477.8 477.6 479.2 478.2 481 481.1 482.7 482.6 484.3 485.2 489 491.2 490.3 496.3 501.3 512.3 521.3 525.1 537.7 548.5 547.8 537.1 540 557.8 547.7 557.5 530.1 529.4 524.5 492.7 448.8 436.7 416.8 416.8 405.4 412.1 391.7 387.1 395.8 403.6 395 363.3 326.9 304.1 290.4 275.3 255.1 226.8 203.9 184.8 165.3 146.9 128.9 110.5 100.5 94.5 95.8 104.5 117.7 134.5 147.9 150.9 139.5 132.3 127.3 121.3 105.7 91.2 77.5 69.7 63.3 51.9 38.5 37.2 31.1 37 29.4
71.7 77.4 80.4 80.1 64.4 85.6 100.5 114.4 130.8 146.2 160.6 171.7 187.9 205.2 218.6 232.8 247 258.4 269.3 276.3 287.1 295.9 302 306.4 307.9 307 295.9 289.8 281.5 271.8 263 255.3 250.5 244.9 237.6 231.4 224.1 216.2 209.6 201.4 194.9 183.9 172.2 168.6 156.9 148.8 137.7 131.5 120.9 106.2 94.2 96.3 99.9 105.3 112.9 120.6 125.2 133.8 142.4 150.9 159.9 170.7 177.7 179.9 183 193.2 196.9 203.1 208.9 211.3 211.6 214.9 214.4 221.7 230.6 244.7 247.4 259.2 265.9 274.7 284.4 295.1 301.8 301.1 306.1 318.4 325.7 318.8 307.7 293.8 285.8 279.8 271.6 261.9 248.2 241.6 236.8 233.1 228.9 226.1 237.7 253.1 267.4 273 293.8 314.2 329.1 342.4 358.5 374.5 389.7 403.6 413.2 424 435.3 444.3 450.8 456.6 460 466 472.3 475.9 480.7 483.8 486.6 491.1 492.1 491.2 491.2 494.5 496 499.7 500.6 503.9 506.9 512.4 504.6 509.1 515 509.1 502.6 501 496 508.4 495.8 492 498 502.2 502.4 501 505.8 506.3 480.6 456.6 441.7 427.5 424.5 414 409.8 396.9 394.9 406.8 401.6 388.8 361.5 335.5 321.8 304.7 287.4 259.1 229.5 212.6 196.3 175.2 152.8 131.6 112.1 97.6 91.6 95.3 103.9 113.7 128.5 142.6 144.5 134.8 128.2 123.8 116.8 102.8 87.7 76.6 69.9 64 55.2 37.3 21 15.3 14.8 13.8
69.4 72.5 75.7 65.3 75.9 90.4 102.5 115.9 130.5 147 161.1 173.6 186.9 202.1 218.3 232.1 243.2 252.5 263.6 270 280.6 286.3 289.9 292.4 288.4 283.9 272.7 264.3 256.8 249.4 238.9 231.9 227.7 220.1 216.7 211.6 206.6 199.4 191.8 183.9 176.9 168 157.5 148.9 142.9 139.3 129.3 122.4 113.5 98.9 93.2 97.4 103.6 111.6 119.6 129.3 136.3 143.4 154.9 161.4 170.1 180.3 186.3 190.5 200.2 208.8 213 219.3 226.7 228.7 228.8 231.1 227.9 235.1 249.5 257.4 264.9 276.3 282.4 293.8 303.1 309.8 321.3 330.6 339.4 344.2 346.1 340.4 324.5 304.6 299.9 292.7 283.2 274.3 264.9 258.3 251 244 238.7 227.2 235.8 256.1 273.9 285.9 299.1 316 333.2 347.9 362.7 376.6 387.4 399.9 413.7 425.2 437.8 446.5 453.5 461.6 468 474.9 480.5 485.2 487.8 491.8 494.9 501.2 504.4 504.2 502.4 505.4 508.7 513.7 519.1 522.4 519.2 525.1 520.1 517 519 508.4 497.6 488 479.3 476.9 484.9 470.6 474.6 475.6 480.9 480.7 489 493.6 473.5 470.5 449.3 441.1 427.8 417.7 407 404.8 412.5 413.9 406.6 394.1 373.8 360.5 339.2 321 300.3 264.6 236.2 217.3 196.1 175.8 155.9 133.1 114.4 97.3 79.4 91.7 99.4 108.3 123.6 135.4 137.1 129.8 120.4 116.9 112 98.5 81.2 79.6 73.4 66 54.2 36.9 17.4 13.5 17.2 15.2
62.1 65.6 59.7 67.3 82.5 91.5 105.1 117.3 130.3 145.7 161 174.4 187.9 200 216.4 229.2 236.7 246.5 257.5 263.7 269.4 275.3 273.6 271.1 267 259.2 252.6 243.5 233.8 224.3 214.6 212.4 208.1 199.8 197.3 192.8 183.3 181.1 174.6 169.5 161.1 150.8 141.9 137 133.1 130 117.7 113.3 107.1 95.7 93.9 103.2 111.5 116.6 126.8 137.8 147.9 152.2 166.5 173.1 183.4 192.1 197.8 204.2 211.6 220.4 228.2 240.1 246.2 244.9 234.4 249.4 256.6 259 268.9 278 286 293.3 300.6 309.9 317.4 326.7 341.3 348.4 354.6 365.3 365 354.5 335.7 326.8 316 304.9 294.7 284.2 276.5 270.6 260 256.7 248.4 246.9 233.7 253.7 270.5 285.4 299.5 315.4 329.2 345.4 359.3 373.9 385.9 400.7 414.1 428 438.1 448.5 457.8 464.9 472.1 479.8 485.9 490.4 495.3 500.1 505.5 512.5 517.1 520.5 520.3 524 523.2 526.3 534.1 538.4 538.6 538 534.3 536.6 536.9 525.9 508.9 480.8 469.7 448.6 444 440.9 463.1 456.8 463.9 464.9 472.1 474.1 477.4 470.5 460.1 447.4 445.1 424.2 412.1 421.1 432 434.3 425.2 404.6 380.4 370 346.5 328.9 304.7 271.2 233.6 223.6 188.3 171.6 150 134 121.6 98.6 73.4 85.5 91.5 102.8 118.1 125.6 125.9 121 109.5 107.8 103.3 94 80 74.8 68.2 57.5 51.2 39.1 18.8 11.4 12.8 15.6
54.8 47.1 61.3 78.6 86 95.5 107.6 118.3 131.3 145.6 161.9 176.4 186.6 199.3 213.4 223 230.6 239.9 249.1 256.6 259.6 257.4 252.4 249.1 245.5 236.8 231.3 222.8 212.6 200 193.7 191 187.1 181.6 177.2 174 163.1 161.6 153.1 147.6 143.9 138.6 129.5 126.3 125.6 119.6 114.5 103.6 99.3 90.9 101.7 111.7 118.4 124.3 136.4 144.4 158.5 163.1 176.2 183.8 195.1 203.4 211.8 218.9 225.1 232.3 245 257.2 260.1 260.1 257 267.4 275.2 282.3 290.1 296.7 303.6 316.2 322.5 328.8 339.2 348.2 359.1 365 371.8 378.6 378.5 364.2 350.5 340.8 330.8 321.1 306.8 296.2 288.5 282.5 274.6 267.1 258.4 255 257.5 256.7 267 285.4 299.7 315.2 328.5 341.1 355.3 371.1 384.7 400 414.2 427.2 437.7 449.2 458.7 468.3 475.6 483.9 491.7 496.2 501.2 508.3 516.8 523.4 530.4 534.7 536 544.7 546.1 543.7 548.1 554 556.5 558.7 548.8 553.4 545.4 511.2 487.1 458.3 442.1 422.2 422.8 422.8 429.3 432.8 430.1 448 456.5 475 489.9 481.4 472.5 457.1 454.7 430 433.6 444.8 444.4 445.6 427.4 403.3 384 375.9 355.9 335.8 295.6 262.2 233 218.4 184.3 165.4 143.7 131 118.7 99.5 69.4 76.3 79.4 90.4 109.6 114.8 117.1 115 97.3 94.1 91.7 78.7 73 66.9 57.8 49.2 47.8 36.5 15.9 11.3 12.8 9.3
44.8 54.6 63.6 80.4 87.9 95.4 105.9 118.7 136.2 149 160.3 174.2 181.9 196 206.6 214 222.6 232.1 239.7 245.7 245.9 242.3 236.5 234.4 228.6 217.8 210.9 201 189.2 181.6 174 170.8 166 159.9 153.9 151.1 144.8 141.7 140.5 131.6 127.6 123.4 116.3 113.9 111.9 110.2 105.7 93 92.1 100.1 107.7 118.5 125.3 136 145.5 152.7 165.7 176.2 183.7 192.5 202.7 212.9 224.8 232.6 237.5 250.1 258.7 269.5 276.1 270.9 273.7 282 291.4 300.6 310.7 314.5 321.5 328.7 337.7 348.3 360.1 369.9 377 385.8 392.9 392.2 391.6 366.4 366.7 353.9 343.6 331.8 317.4 307.6 298.9 290.9 284.8 277.3 268 269.5 265.1 270.1 273.2 279.2 295.4 311.4 324.7 339.4 353.5 367.5 381.4 396.3 412 425.7 438.3 448.9 459.2 470.4 478.1 485.8 495.6 505.7 510.6 518.1 529.5 536.7 546.3 548.7 550.7 560.3 561.2 567.1 564.4 572.2 578.8 575.5 560.4 557 539.6 468.6 450.6 426.4 410.8 392.6 388.1 390.8 399.5 397.6 409.7 421.6 434.2 450.7 470.2 479.4 472.7 458.4 460.4 438.4 453.6 461.7 460.7 447.5 427.5 399.4 386.8 377.9 358.8 346.8 302.6 253.6 229.3 213.5 182.4 155.3 137 123.6 113.7 107.6 80.1 59.1 68.2 80.3 93.5 102.6 108.9 102.9 89.6 80.1 73.2 68.7 59.1 54.3 49.6 42.2 42.8 30.2 4.9 5.1 5.1 5
50.8 54.4 62.3 74.3 82.5 92.7 105.7 117.5 130.1 140 151.9 162.9 177.3 191 198.5 209.7 219 224.5 229 231.2 229.2 229.5 227.1 222.4 208.9 200.9 192.1 180.5 171.4 163.2 152.8 148.9 144 140.2 132.3 130 127.5 122.9 123.2 118.7 114.3 110.8 107.1 103.4 101.7 100.2 88.1 92.9 97.5 106.8 110.6 126.7 133 142 153 160.5 176.3 190 199.9 204.6 214.6 226.4 235.2 243.6 254.4 265 272.3 282.5 288.4 285.8 291 298.3 305.6 319.2 330.4 333.4 339 346.5 354.6 365.1 376.6 386.9 398.1 406.7 413.7 405.6 398.2 388.5 380.8 368.6 354.7 340.8 330.6 318 306.6 300.9 294.3 284.8 277.6 278.2 279.1 285.3 283.6 285.1 295.4 310.9 324.2 335.8 350.3 365.7 380.9 394.5 409.8 424.2 437.2 449 461.6 472.2 480.2 491.8 502.7 517.1 527.8 530.6 541.9 552.4 561.9 563.8 564.6 575.7 574.5 579.7 584.5 584 591.3 589.2 558.6 531.8 467.5 438.6 419.3 397 382.9 374.1 372.1 369.7 372.8 384.6 395.4 410.2 418.1 441.6 454.6 464 469.5 453.9 456.2 449.7 471.5 465.4 469.5 446.5 424.5 400.7 388.6 379.2 366.2 349 297.3 261.2 231.8 210.9 185.1 158.9 141.3 125.8 109.9 101 82.8 41.2 65.5 70.4 79.5 91.4 96 91.9 83.4 66.2 60.7 58 55.4 51.2 44.3 39.8 33.3 19.7 5.3 5.7 2.1 11.5
