ncols 200
nrows 93
xllcorner 210000
yllcorner 50050
cellsize 50
94.6 99.7 105.1 110.8 116.5 121.1 123.6 123.3 120.6 115.6 108.5 102 97.1 95.6 93.4 90.9 88 85.7 84.3 84.6 84.2 83.3 83 82.4 82.4 82.7 83.8 85 86.5 88.6 89.7 91.7 93.9 96.1 98.9 99.6 98 94.2 87.9 80.2 70.2 57.4 44.4 31.9 21.7 14.9 1.8 1.4 0.1 -1.7 -1.7 -1.7 -1.7 13.6 32.1 50.7 67 76.5 82.1 84.4 82.9 77.9 71.9 65.2 57 45.1 28.2 14.5 14 23 37.9 51.8 59.8 64.4 67.5 69.2 70.1 70.1 69.7 69.2 69 69.3 69 71.1 74.6 76.2 76 74.2 72.3 71.3 69.6 66 61 49.2 33.1 16.6 6.9 14.1 23 32.6 40.7 44.7 46.7 51.3 55.6 57.9 57.2 53.9 52 56.3 61.5 59.2 52.4 49 56.8 59.7 61 62.2 65.2 70.1 74.8 78.2 81.4 83.4 84.8 85.3 84.8 82.6 79.9 75.9 71.7 68.6 71 72.6 74.6 76.2 76.6 77.3 76.1 74.5 71.3 67.5 60.3 52.5 55.3 63.5 67.7 73.1 79.2 85.4 89.3 92.8 96.5 99.7 102.9 104.7 105.6 105.2 104.9 104.9 105.1 105.5 105.4 106.2 108.8 114 119.4 124.4 126.8 128.5 129.8 130.8 131.9 132.4 132 131.2 130 128.5 126.7 125.1 122.6 120 118.6 118.1 118 118.5 119.3 120.2 121.3 121.6 120.7 120 118.3 115.8 113.3 109.9 104.2 98 104.2 109
93.9 98.6 104.4 110.6 115.6 120.4 122.9 122.9 121.5 118.3 112.5 107.7 103.2 100.1 96.6 92.8 89.7 87.3 85.7 84.3 82.5 80.9 79.5 78.4 77.7 78.3 79.7 82.7 86.7 90.3 94 96.7 99.6 102.2 105.3 106.6 105.8 101.4 94.9 86.8 76.5 64.4 52.1 40.2 32.9 25.5 12.6 1.7 0 -1.7 -1.7 -1.7 -1.7 23.6 43.7 60.6 71 78.1 83.1 85.1 83.2 79.4 73.9 67 58.7 48.3 32.8 17.2 8.3 14.5 27.7 44.6 54.1 59.3 63.6 65.4 66.2 66.1 64.8 63.6 63.4 63 62.1 61.2 63.2 66.2 68.2 67.6 64.7 62.9 60.3 57.1 49.1 35.8 20.4 7.1 11.8 25 37.7 46.5 49.9 52.3 57.1 61.3 63.9 65.6 65.4 62.7 59.4 61.4 64.3 62.2 54 52.9 61 64 65.2 65.9 66.7 69.1 73.5 76.7 79.1 80.7 81.9 81.9 81 78.9 76.9 74.2 70.2 66.1 63.9 66.9 69.9 72.8 74.7 75.2 74.7 72.7 69 60.5 51.8 54.2 62.5 68.7 69.8 73 78.6 84.5 89.2 93 96.9 101.1 105.3 107.3 109 109.7 110.1 109.8 109.1 109.1 110 110.7 112.5 115.7 119.6 122.7 124.6 126.3 127.7 129.3 130.6 131.6 131.4 130.3 129.1 127.7 126 124.1 122 119.7 118.2 116.7 116 116.5 117.9 119.4 120.8 122.1 121.8 121.1 119.5 116.9 113.8 110 105.1 97.2 101.7 106.3
90.1 96.6 103.6 110.5 115.5 119.7 122.4 123.5 122.9 120.9 116.5 112 107.3 103.3 99.1 94.3 90.7 87.3 84.7 81.8 79.9 77.8 75.7 73.3 72.4 72.9 76 80.9 87.6 92.9 97.2 100.7 104 107.6 111 112.1 111.4 107.5 101.3 93 83.1 72.4 61.4 53.6 45.4 36.2 20.5 3.6 0 -1.7 -1.7 -1.7 7.9 29.4 48.3 59.7 68.3 75.2 79.5 80.6 79.9 77.1 73.8 68.3 60.5 50.9 37.9 23 8 6.5 18.7 36.1 46.9 54.5 60.1 62.8 63.1 62.1 60.3 58.1 56.8 56.2 55.5 53.8 52.5 52.8 53.1 51.1 47.4 45.9 46.2 43.3 35.1 23.6 9.9 6.2 14.2 30 45.2 52.3 56.2 58.5 62.4 66.2 68.3 69.5 70.1 68.9 66.6 66.4 66.6 64.2 57.4 55.9 63.2 66.1 67.9 69.3 70.4 70.9 72.9 75.3 77.6 79.1 80 79.3 77.9 76.2 74.4 72 67.8 64.7 62.1 63.1 66 69.1 72.2 74.1 74 72.1 68.1 53.3 51 59.5 67 69 68.9 71.4 75.7 81 86 91.7 97.1 101.6 105.4 108 110.5 112.4 113 113.4 113.8 113.7 114.7 115.4 116.1 117.6 119.3 120.8 122.1 123.7 126.1 127.9 129.3 129.9 129.7 128.5 127.1 125.6 123.9 122.5 120.8 118.8 117.3 115.7 114.5 115.2 117.4 119.3 121.1 122.4 122.2 121.1 119.3 116.3 112 106 98 97.3 100.7 100.9
88.6 96.8 104.5 110.3 115.6 120 123.3 124.4 124 123 119.8 115.6 110.5 105 100 94.7 90.6 86.3 82.3 77.7 74.6 72.8 70.4 68.5 67.4 68.4 74.2 81.3 87.9 94 98.4 102.8 106.7 110.6 114.2 115.7 115.6 112.7 107.3 100.1 91.3 82.7 75.6 67.3 58.8 48.3 34.3 5.9 -1.7 -1.7 -1.7 -1.7 9.5 28 41.9 51.7 60.5 67 71.2 74.2 75 73.4 70.7 67 60.8 52.1 41 28.5 15.1 1.8 10.4 29.7 40.8 49.1 56.1 59.9 60.3 58.8 56.8 52.8 50.5 49.5 48.9 47.6 44.5 40.8 37.1 32.7 30 29 28.3 26.4 22.2 14.1 5.2 7.1 14 25.9 41.3 50.6 57.5 61.5 64.3 67.1 68.4 69.5 70.6 70.8 70.1 70.1 69.9 68.3 62.4 56.3 64 66.6 69.5 71.9 73 74 75.4 77.3 78.6 79.4 79.2 78.1 75.7 73 71.1 68.9 66.2 63.3 61.5 60 59.1 63.7 69 72 72.6 70.6 60.4 48.7 57.2 64.8 67 66.8 65.6 66.4 70.3 75.5 82.6 88.9 94 98.7 102.6 106.8 110 112.1 113.5 113.9 114.2 115.7 117.2 117.3 117.2 117.9 118.5 118.9 118.5 121.8 124.9 126.7 127.8 128.2 128 127 125.4 123.7 122 120.4 118.8 117 115.4 114.2 113.1 114.5 116.7 119.1 121.1 122.5 122.2 121.7 119 115.2 110 101.8 96 105.9 108.8 106.9
93.6 99.4 106 111.8 117.1 121 123.9 125.5 125.5 124.3 121.2 117 112.1 105.8 99.5 93.1 89.5 85.6 80.6 77.8 76.3 74.5 71.7 68.3 64.4 64.7 72.4 80.2 86.4 91.7 96.5 101.9 106.9 111.1 114.7 117.1 118.7 117.2 113.4 107 99.9 92.9 86.4 79.6 70.8 59.1 41.9 18.8 -1.7 -1.7 -1.7 -1.7 7.2 20 29.6 37.7 44.9 53.3 60.1 65.5 68.2 68.1 66.2 63.2 58.9 52.7 43.1 32.3 20.2 3 1.8 22.9 33.9 42.4 50.1 55.2 57.5 57 54.4 50.2 45.6 43.5 44.4 42.8 38.6 33.4 28.9 25.2 23.1 21.3 17.1 15.3 10.6 -1.7 3.5 13.5 19.3 22.3 32.3 42.8 51.7 57.7 62.9 64.7 66.5 68 69.8 70.8 71.4 71.8 71.6 70.1 64.2 58.9 65.5 67.7 71 74.9 76.7 78 79.1 79.6 80.4 80 79.3 76.8 73.7 71.8 69.4 67.4 66.7 67.4 67.5 65.2 60.3 56.7 63.5 67.3 67.9 62.3 52.1 51.2 57.4 60.4 60.6 60.2 59.8 62.5 66.1 71.6 77.8 83.3 88.5 93.2 98.2 102.4 105.3 107.8 110.1 111.6 112.9 114.4 115.7 116.1 116.4 116.4 116.1 114.6 116.5 120.1 123.2 125.2 126.1 126.4 126.3 125.8 124.4 122.8 120.6 118.7 117.4 116.4 115.4 113.8 112.4 113.5 115.9 118.8 121.5 123.2 123.5 122.7 119.7 115.6 110.2 102.9 95.7 102.6 109.1 109.5
99.3 104.1 108.9 114 118.2 121.9 124.7 126.4 126.1 124.7 121.5 117.2 111.6 104.4 97.7 93.4 89.7 86.5 83 82.5 81.1 79.2 76.2 72.2 66.4 62.2 69.2 77.3 83.2 89.2 94.4 99.7 105.2 110.5 114.6 117.4 119.6 119.6 117.5 113.5 108.4 102.5 95.7 88.1 77.3 62.4 43 18.1 -1.7 -1.7 -1.7 -1.7 -1.7 6.8 14.1 20.1 26.5 35.5 45.9 53.9 58.6 60.2 58.7 56.2 52.9 48.1 41.8 32.5 20.3 5.8 1.6 11.5 20.9 29.3 38.1 46.3 52.5 54.4 53.1 48.9 42.6 38.9 42 41.8 36.9 30.5 25.3 21.4 18.7 14.8 13.1 8.8 3.9 -1.7 9.8 23.8 30.4 32.9 42.5 50.8 54.2 57.6 60.4 63.3 66 68.4 69.8 71.3 72.3 72.9 72.4 70.5 64.9 61 66.4 68.5 71.2 74.7 77 78.7 80.1 81.1 81.6 81.2 79.6 78.1 76.3 74.1 72 70.2 71.1 72.1 72.7 70.7 65.5 54.3 56.7 61.5 55.4 48.6 48.3 49.9 51.9 53.3 54.7 55.3 55.3 57.8 61.4 64.7 69.4 74.3 80.1 86.5 91.2 93.8 95.9 99.1 102 105.3 108.5 110.8 112.5 113.4 113.8 113.4 110.7 111 115.4 118.4 120.5 122.7 124.1 125 125.7 125.5 124.7 122.8 120.9 119.4 118.4 117.8 116.7 114.7 112.1 112 115.6 118.9 121.9 124.3 125.6 125.1 122.4 118.8 113.9 105.9 95.5 98.7 106 109.9
103.5 107.7 111.4 115.5 119.6 122.6 125 126.2 125.9 124.7 122 117.7 111 103.7 99.1 95.2 91.4 89.5 88.4 86.9 84.6 82.4 78.6 73.6 67.5 60.8 65.1 73.3 79.4 84.7 90.3 96.4 102.2 107.8 112.1 115.4 117.5 118.5 118.6 117.4 113.9 108.3 101 92.1 79.4 59.9 37.9 9.9 -1.7 -1.7 -1.7 -1.7 -1.7 -1.7 -1.7 -1.7 9.4 18.4 29.1 38.4 44.7 47.5 47.2 45.9 42.2 37.9 31.5 18.5 6.4 -1.7 -1.6 -1.7 -1.7 10.3 19.8 31.5 41.4 48.1 48.9 47.3 40.7 34.4 40.4 41.8 37.9 31.5 25.2 19.6 15.2 13.5 10.5 4.7 -1.7 -1.7 13.7 25.1 34.3 45.2 55.7 63.6 66.2 66.7 65.6 67.2 68.8 70.3 71.7 73 73.9 73.9 73.4 71.5 67.5 64.2 64.8 66.4 69.1 71.7 75.3 78.2 80.2 82 83.1 82.9 82.4 81.5 80.4 78.6 76.1 75.9 77.1 77.3 75.2 72 67.6 60.4 50.3 49 46.8 47 52 57.2 59.5 60.1 60.6 59 55.6 55 56.2 59.3 62.7 66.9 72.5 77.9 80.4 79.9 80.9 85.9 92.5 98.2 102.8 105.9 108 109.3 109.1 106.9 104 109.9 113 115.3 117.7 120.5 123.5 124.6 125.7 125.7 125.3 123.8 122.3 121.1 120.4 119.8 117.8 115.4 112.5 110.6 114.9 119 122.6 125.6 127.3 127 124.9 121.3 116.9 107.9 96.5 103.4 109.7 111.6
104.6 109 112.8 116.9 120.6 123.1 125.2 126 126 124.8 122.6 119 113.9 107.9 103.2 98.9 96.2 95 93.7 90.6 88.1 85.3 81.7 77.2 72.1 63.2 61 68.3 74.7 79 83.6 90.4 97.2 103 107.7 111.7 114.4 115.3 115.8 115.2 112.8 108.4 101.9 92.6 78.6 56.9 32.2 -1.7 -1.7 -1.7 -1.7 -1.7 -1.7 -0.1 -0.5 -1.7 -1.7 1.6 11 19.5 27 31.9 32.9 32 28.3 22.6 12.4 1.5 -0.1 -1.7 0.1 0.1 -1.7 -1.7 -1.7 -1.7 26.4 36.6 42.5 43.5 37.5 28.7 36.3 38.7 35.9 30.5 23.8 17.6 11.6 8.7 6.7 -1.7 -1.7 8.9 14.6 25 37.3 54 65.7 70.6 73.2 73.9 72.7 73.3 74.7 76 75.7 76.6 76.9 76.3 75.6 73.8 71.4 69.7 70.1 71.5 71.4 72.3 76.3 79.2 82.3 84.4 85.5 85.6 85.5 84.9 83.6 82.1 81.1 80.9 80.6 78.5 74.4 69.1 64.3 59.3 48.3 46.3 47.6 53.2 61.6 67.6 69.7 69.5 68.7 63.3 58.6 53.5 56 57.5 59.6 62 65 68 72 76.2 81 83.8 85.6 87.9 94.6 99.2 99.7 98.3 97.7 98.6 101.5 106.7 110.3 112.8 115.7 119.4 122.6 124.7 125.7 126.5 126.2 125 124.1 123.6 123.1 122 120 117.6 115.1 111.6 113.1 118.3 122.5 126 127.2 126.6 124.8 121.7 117.5 107 95.8 108.8 112.7 113.5
104.7 109.2 113.7 118 121.4 123.9 125.7 126.2 125.9 124.9 123.2 120.6 116.5 111.9 106.6 102.4 100.3 99.1 97.4 94.4 91.2 87.7 83.4 75.7 68.3 62.3 57.6 61.4 66.9 70.2 74.3 80.1 87 95.8 101.8 106.3 109 110 110.7 110.5 109.1 105.5 100 92 79 56.2 29.4 -1.7 -1.7 -1.7 -1.7 -1.7 0.7 1.4 1.2 0.1 -1.7 -0.1 0.4 0.9 7.3 13.7 17.4 17.4 13.5 5.5 1.2 0.4 -1 -1.7 1.5 7.2 3.5 1.5 -1.7 -1.7 -1.7 23 30.8 35 31.2 22.8 30.8 32.4 30.3 25.5 16.9 7.5 -1.7 -1.7 -1.7 -1.7 12.1 18.8 21.5 28.3 40.9 59 70.1 74.6 76.8 78 77.7 77.5 77.7 78.5 79.3 79.4 79.7 79.5 79.1 78.3 77.7 77.2 78 78 77 75.7 77.6 80.8 83.1 85.3 86.4 87.1 87.4 86.8 85.6 84.2 83.1 81.7 79.5 74.3 65 57.9 53.3 48.8 47.8 51.5 56.8 64.5 70.9 74.2 75.6 74.6 71.8 66.2 62.1 58.2 58 58.6 60 62.9 66.2 71.7 79.7 88 94.5 96.6 95.7 90.9 87 90.2 91.1 95.5 99 102.2 103.7 104 108 112 115.4 119.3 123.1 125.6 127.1 127.7 127.4 126.9 126.5 126.3 125.9 125.3 123.7 121.6 119.3 114.8 109.4 115 120 124.6 126 125.8 123.9 120.6 115.8 103.1 93.9 106.6 112.9 114.8
103.3 109.2 114.2 118.7 122.8 125.1 126.3 126.2 125.2 124.5 122.9 120.6 117.6 113.3 108 104.4 102.1 100.5 98.9 96.1 92.1 82.6 73.9 70.4 67.8 65.4 61.9 53.8 56.2 58.1 59.1 63.9 73.1 84.2 92.8 98.6 101.3 103.4 104.5 104.5 103.4 100.1 95.5 88.5 76.7 55.3 27.8 -1.7 -1.7 -1.7 -1.7 -1.7 9.8 17.1 15.2 9.5 -1.7 -1.7 -1.7 -1.7 -1.7 0.2 1.2 1.5 0.6 0 -0.3 -1.7 -1.7 -1.7 13 18.4 20.5 15.7 8.7 1.3 -1.7 1.6 15.7 22.4 21 14.1 19.8 19.2 16.6 11.9 -1.7 -1.7 -1.7 -1.7 -1.7 11.6 18.6 25.3 29.3 35.7 49.1 64.3 73.4 77.5 79.2 79.3 78.7 78.1 77.9 78.1 78.7 79.3 79.7 79.9 80.2 80.9 81.2 81.7 81.2 80.7 79.6 78.6 80.5 82.7 84.6 86.1 87.2 88.1 88.4 88.1 87.5 85.9 83.7 79.9 72.2 59.5 49.8 45.7 45.7 48.5 55.2 60.1 65.1 70.6 75.2 78.6 79.4 77.8 74.7 70.3 65.5 61.2 60.8 61.2 62.9 66.1 69.7 77.3 89.2 100.4 105.4 105.6 104.3 101.2 95.7 92.6 93.3 94.1 100 105.7 107.9 108.6 109.9 112.9 116.6 120.5 124 126.5 128.7 129.4 129.5 129.6 129.3 129.5 129.3 128.6 127 125.5 122.6 118.4 111.3 108.4 114.2 121.3 124 124 122.2 118.1 113.1 99.7 93.5 106.5 111.7 114.4
102.2 108.3 113.6 118.8 122.1 124.6 126 125.5 124 122.6 121.2 118.9 115.8 111.3 104.9 102 100.1 99 97.6 94.5 83.6 77.5 81.1 82.8 82.6 79.4 72.8 65.6 59.2 53.7 47.5 48.9 58.9 71.4 82.2 89.2 93.2 95.2 96.9 97.1 95.9 93.7 90.1 83.8 71.4 51.6 25.2 -1.7 -1.7 -1.7 -1.7 -1.7 15.6 30.9 31.3 29.2 24.6 16 5.9 1.2 -1.7 -1.7 -1.7 -1.7 -1.7 -1.7 -1.7 -1.7 1.7 16.3 24.1 29.6 32.4 29.8 22.6 14.4 4.4 -1.7 -1.7 -1.7 -1.7 -1.7 -1.7 3.5 -1.7 -1.7 -1.7 3.5 11.1 10.9 10.6 19.4 24.4 30.3 36.9 45.4 58.9 70.4 76.8 79.8 80 79.5 78.2 77.5 76.7 76.5 76.9 77.2 77.7 77.9 79.1 80.8 82.5 83.6 83 82.4 81.8 81.5 82.8 84.7 86.7 87.8 88.8 89.3 89.4 89.2 88.8 86.6 81.7 71.8 57.8 45.8 45.5 48.3 52.9 58.8 64.2 68.6 72.2 76.4 79.9 83.2 83.9 82 78.7 75 69.9 64.8 67.3 69.9 74.1 77.8 79.9 83.1 98 106.3 110.1 110.1 109.1 106.8 103.4 100.6 98 96.4 100.8 106.9 109.9 111.3 112.9 115.6 119.4 123.3 126.3 128.6 130.8 131.2 131.6 133.1 133.6 133.4 132.7 131.4 129.6 127.5 125.4 122.3 117.7 109.6 106.4 116.1 121.4 121.9 119.4 115.7 109.4 95.2 95 104.6 110.2 114.5
102.3 102.3 112.6 117.4 120.1 121.6 122.4 122.3 121.1 119.6 118.1 116.3 113.2 108.6 102.8 97.6 94.8 93.9 92.8 87.5 80.3 88.1 96.4 98.7 97.3 93.2 87.8 80.7 74.5 68.2 58.8 46.7 47.3 58.1 70.6 78.3 82.6 85.4 86.7 86.8 86.8 85.6 82.6 77.2 66.7 46.4 20.9 -1.7 -1.7 -1.7 -1.7 -1.7 18.2 37.1 45.1 45.9 44 38.2 30.8 23 15.2 9.8 -1.7 1 1.5 5.9 10.3 0.9 11.6 24.7 33.5 40.5 45 45.1 39.1 30.7 22.2 14.1 -1.7 -1.7 -1.7 -1.7 -1.7 -1.7 -1.7 11.7 14.3 18.9 20.8 18.6 14.7 21.1 28.4 34.5 44 56.2 66.9 74.1 77.8 79.8 79.7 78.5 77.5 76.2 75.3 74.7 74.7 75 74.9 75.1 76.4 78.4 80.6 82.2 84 85.8 86.5 86.4 86.8 87.6 89.4 90.2 90.7 89.4 88.3 87.4 82.3 76.3 68.5 56.7 45.9 45.8 56.3 62.4 67.4 72.5 76.5 79.1 81.4 83.5 86.6 89.3 89.7 87.9 85.1 81.5 75.9 72.1 78.9 81.9 87.3 91.6 94.7 93.2 98 110.4 115.2 116 113.7 110.8 108.3 106.1 103.4 103.4 106.1 109.3 112.9 115.2 117.8 120.9 123.9 126.7 129.1 131.6 133.4 134.1 135 136.3 136.7 135.7 134 132.7 131 129.1 127.4 124.9 121.9 116.8 106.3 109.6 118.4 119.1 116.8 112.9 102.6 91.6 100.1 109.3 112.5 115.2
95.2 105.6 111.8 115.5 117.1 117.9 118 117 116.8 115 113.1 112 110.1 106.5 101.4 95.8 90.9 87.7 84.9 82.6 87.5 101 106.5 106.9 105 101.6 97.4 91.8 86.9 79.6 70.3 58.5 44.7 47.3 58.4 66.8 70.2 71.1 72.7 73.2 74.8 74.9 73.8 69.9 61.1 43 17.6 -1.7 -1.7 -1.7 -1.7 1.6 21.9 38.9 50.1 54.7 55.3 53.5 49.4 42.9 36 30.9 29 25.7 22.7 21.6 20.1 10.6 16.7 31.1 40.1 47.7 53.9 57.7 56.8 50 42.2 33.9 27.6 22.9 21 18.7 10 21.1 28.9 29.5 30.4 30.9 27.3 24.6 21.6 21.3 28 36.5 48.4 62.3 70.8 75.9 78.3 78.8 78.1 77.1 75.6 74.1 73.1 72.4 71.8 70.9 71.5 72.3 73.8 76 78.3 79.9 82.2 84.8 87.9 90.7 92.2 94.1 94.5 93.3 91.3 86 76.8 69.3 61.8 55.2 49.4 44.3 44.2 54.6 68.2 75.9 81.8 86.4 89.2 90.5 90.9 92 93.9 95.3 95.9 95 92.9 89.9 81.9 79 89.7 93.3 98.9 103.6 107.5 108 103.8 112.8 119.2 121.6 120.6 117.3 114.5 111.1 108.5 109 111.1 115 117.8 121.5 124.6 127.6 129.5 131.1 132.7 134.5 135.5 136.1 136.7 137.5 137.3 136 134.7 133.4 131.9 130.3 128.5 126.7 124.1 120.2 109.6 102.9 113 114.9 113.3 109.1 96.2 93.6 106.7 110.8 113.2 115.7
95.6 104.4 109.7 112.6 113.8 114.3 114.4 113.4 111.2 109.4 108.3 107.9 107 104.7 101.2 96.6 91.1 87.6 87.5 90.6 99.2 106.3 109.7 109.9 108 105.2 101.8 97.4 92.7 86.6 78.9 68.4 55.6 42.2 45.5 53.4 53.4 51 51.7 52.5 57.4 62.6 64.2 62.8 56.9 41.2 14.9 -1.7 -1.7 -1.7 -1.7 8 24.2 37.2 50.1 60.5 65.1 65.5 62.8 56.8 50.9 47 44.4 40.3 35.9 31.2 25.7 14.7 22.4 35.9 44.6 52 59 65 66.9 64.6 59.9 52.4 46.2 40.9 36.7 30.8 16.8 30.3 37.9 40.3 40.9 40.8 36 30.1 26.5 24.7 30.3 38.8 50.7 64.3 72.3 77 78.9 78.6 77.4 75.5 73.8 71.9 70.2 68.6 68.1 68 68 69.5 71.2 73.6 75.9 77.7 80.3 83.5 87 90.3 93.2 95.9 96.4 94.1 86.1 71.6 59.5 51.3 45.7 42.4 41.9 44.2 51.5 65.4 80 88.5 93.3 96.6 97.9 99.1 99.5 99.6 100.6 101.8 103.1 103.8 103 99.9 88.1 83.7 96.7 102.4 107.1 111.7 115.3 117.1 114.9 114.3 121.7 125 125.6 124.5 122.3 119.1 115 117 119.5 121.8 124.1 126.9 130.1 132.3 133.6 134.4 135.2 135.8 135.6 135.9 136.2 136.4 136.5 135.3 133.8 132.3 131.2 129.7 128.3 126.9 125.2 122.8 115.8 98.1 103.9 109.3 106.8 95.8 89.7 94.6 102.1 106.2 109.7 111.7
96.4 103.6 106.8 109.4 111.8 112 111.1 107.2 104.5 103 103.3 104.4 105.2 104.5 102.2 98.6 95.7 94 95.8 100.2 104.2 107.1 109.4 109.4 108 105.7 102.5 98.8 94.6 89.9 83.2 75.6 64.2 48.4 36.5 34.2 33.9 32.8 33.2 33.8 38.3 45.1 51.2 52.8 50.3 37.5 13.1 -1.7 -1.7 -1.7 -1.7 6.7 20.4 34.4 49.5 63.2 71.3 72.2 70.5 66.2 60.6 56.4 52.3 47.1 41.6 35.6 27.1 17.6 27.8 39.9 48.6 56.1 63.3 69.9 72.5 71.9 69.1 64.8 60.3 55.6 50.8 44.2 30.3 32.7 43.3 47 48.7 48.7 44.7 36.8 31.5 28.6 32.3 42.1 56.2 66.2 74 78.2 79.2 78.6 77.2 75 72.9 70.2 68.1 66.4 65.2 65.3 65.5 66.8 68.6 70.8 73 75.5 79.2 83.1 86.7 89.8 92.2 93.8 93.4 88.8 71.5 55.3 45.3 40.9 41.8 45.8 50.7 54.2 60.3 76.1 90.7 97 100.7 103.1 104.5 105.6 106.3 106.9 108 109.8 111.4 112.6 112.5 108.8 96.1 87.2 101.2 108.7 114 118.8 122.8 124.8 125.3 121.6 123.8 128.8 130.5 130.2 128.7 126.8 122.5 124.2 127.3 128.7 130 132.6 134.3 135.4 135.9 136 135.8 134.7 133.9 133.7 133.8 133.7 133.3 132.2 130.6 129.4 128.5 127.3 126.1 125 123.6 122 118.4 106.6 93.7 96.5 90.9 88.2 91 94.3 97 98.6 102.7 105.7
95.5 102 103 104.3 106.6 106.1 102.4 100.2 97.3 94.9 97 99.7 103.3 104.2 103.5 102.9 101.7 101.7 103.2 104.2 106 107.1 107.8 107.6 106.6 105 102.2 98.9 94.8 90.1 84.9 79.1 69.8 53.7 42.2 39.3 36.2 32.8 28.4 22.9 18.9 23.5 31.5 37.1 35.5 29.6 13.3 -1.7 -1.7 -1.7 -1.7 1.4 16.7 32.3 48.5 63.8 74.7 77 74.9 71.1 66.4 61.2 56.6 51 45.3 36.7 27.9 21.1 32.5 43.1 52.1 60.5 67.3 73 76.7 77 74.6 71.4 67.7 63.1 58.5 51.9 39.9 34.3 48.2 51.5 53 53 49.5 44 38 34.2 37.7 48.2 59.8 69.4 76.6 80.1 81 79.4 77.5 75.2 72.6 69.8 67.5 65.3 63.9 63.3 63.7 64.8 66.4 68.5 70.7 74 78.7 84.1 87 89.5 91.4 90.6 88.9 79.9 58.4 44 41.9 46 53.5 61.5 67.8 72.5 78 85.3 98 104.5 107.1 109.6 111 112.5 113.2 114.2 116.2 117.9 119.4 120 119.4 117.2 111.1 97.4 104.3 114.5 120.2 125.2 128.4 130.2 130.4 127.9 127.8 132.5 134.6 134.9 134.7 132.9 128.9 130.6 134 135.4 136.4 136.8 137.5 137.4 137.1 136.4 135.6 133.9 131.7 131.2 130.4 129.7 127.9 125.7 123.8 123.4 123 122 121.5 120.6 120 119.1 116.5 112.2 100 89 87.2 92.8 100.2 106.6 108.1 106.8 102.8 101.6
92.3 96.6 97.7 97.4 97.6 96.3 95 93.2 90.7 87.3 91.8 95.8 100.6 103.8 105.1 106.1 106.3 106 106.1 105.7 105.6 105.6 105.6 105.6 104.8 103.7 100.9 97.4 92.7 87.3 81.9 76.9 69 55.3 51.4 52 50.7 47.7 44 38.5 28.8 16.1 9.5 -1.7 10.3 12.5 5.1 -1.7 -1.7 -1.7 -1.7 -1.7 14.8 31.1 47.5 64 77.2 80.8 79.2 75.5 70.9 65.4 59.8 54.1 47.9 42.3 33 28.4 37.8 47.2 56 64.4 70.3 75.5 78.6 79.3 77.9 75.4 72 67.5 62.7 56.7 46.5 40.7 54.6 57.4 58 57.5 55.5 51.7 47 42.6 45.6 55.4 64.1 73.2 80.5 84.8 84.2 81.4 79 76.7 73.6 70.5 67.6 65.2 62.8 61.7 62 63.3 65.2 67.2 69.4 73.2 79.9 85.5 88 89.2 88.7 86.8 83 72.7 50.9 44.7 55.8 65.2 72.8 83.1 88.5 91.8 97.2 100.6 106.8 112.5 115.3 116.5 117.9 118.7 119.7 121.2 122.8 124.1 125.3 125.6 125 123.6 120.7 114.5 104 116.6 125.3 129.9 132.7 134 134 131.9 131.2 135.9 138.3 139.7 139.8 138.8 136.5 137.3 139.8 140.8 140.7 140.6 139.9 138.4 137.5 136.8 135.4 133.3 130.1 127.6 125.5 123.4 118.6 114.4 111.6 111.3 113.3 113.6 115 114.8 114.1 113.4 112.3 107.2 91.4 86.3 91.7 102.4 110.9 115.2 115.1 112.5 107.9 103.8
87.4 90.5 91.5 91.3 90.2 88.5 86.8 83.8 80.4 80.4 87 93.8 98.9 103.3 106.1 108.1 108.4 107 106.1 105.4 104.4 102.8 101.2 102.3 102.2 101.5 99.5 95.3 90.2 84.5 77.4 69.7 64.1 61.7 62.6 64.9 66.6 66 62.1 55.1 45.6 32.2 19.8 -1.7 -1.7 -1.7 -1.7 -1.7 -1.7 -1.7 -1.7 -1.7 15.2 31 48.6 65.1 78.7 83.5 82.4 79.6 74.7 68.4 62.4 57.4 52.3 46.3 40 36 40 50.7 59.7 67 72.8 77.4 80.3 81.2 79.6 77.2 73.8 69.8 64.8 58.5 49.6 45.9 57.9 61 62.4 62.5 62.1 60.9 57.1 52.7 51.2 59.7 67.3 76.4 84.7 89 89.6 85.6 81.1 78.6 74.8 71.5 68.6 65.4 62.4 60.5 60.6 62.9 64.9 67.2 69.5 74.1 81.4 87.2 88.8 88.5 86.3 82.8 78 64.9 46.1 44.5 58.3 70.6 80.9 92.4 100.9 105.8 109.6 113 116.2 119.8 121.5 122.7 123.5 124.4 124.9 126 127.3 128.3 129.2 129.7 129 128.2 127.1 122.5 112.1 114.1 126.9 133 136 137.4 137.3 135.3 135.1 138.9 141.6 143.8 144.7 144.2 142.6 142.2 143.7 144 144 143.5 141.8 140 138.3 137 135.5 133.3 129.4 125.7 122.5 122 122.5 119.6 115.8 112 107.4 104.1 103.6 104.4 102.9 102.2 103.3 98.7 88 92.5 103.5 113.6 119.9 121 119 115.4 110.6 107.1
75.9 81.2 82.9 84.3 84 82.4 79.6 76.9 74 78.5 86.6 92.5 97 101.4 105.7 107.8 108.3 107 105.1 103.3 101 98.1 96.5 98.4 99.4 99.8 98.8 94.9 90 84.9 82 78.2 73.6 72.4 75 77.5 80.7 82.4 78.7 70.4 61.1 52.2 41.1 29.5 21 14.6 -1.7 -1.7 -1.7 -1.7 -1.7 -1.7 15 31.7 51.1 68.9 81.2 84.7 84.7 82.7 78.8 73.9 67.6 63.9 59.3 54.7 51 48.3 47.1 53 62.8 69.4 74.5 78.6 81.8 82.7 81.7 79.1 76 72.2 68.2 63.1 54.9 54.2 61 63.8 65.4 66.4 68.7 68.3 66.6 64 60.7 64.1 72.7 81.4 88.1 92 93.3 90.7 85.9 81.8 77.6 73.6 69.2 65.6 62.3 59.2 60.3 63.2 65.7 68.1 70.5 76.1 82.6 88.6 89.4 87.2 83.9 79 71 55.7 41.7 40.2 53.6 66.7 79.5 92.5 103.1 110.2 115 119 123.1 125.5 126.4 127.1 127.5 128.2 128.5 128.8 129.4 130.7 131.7 132.1 131.8 131.8 131.7 129.3 123.1 118.7 126.7 134.8 138.6 139.9 140.1 139.7 139.9 141.9 144.5 147.8 149 148.8 147.9 146.9 146.8 146.4 145.9 144.5 142.8 140.9 139 137.1 135 131.7 128.5 129.4 129.9 129.5 128.5 124 118.8 115.5 112.1 109.1 103.9 97.8 95.7 92.3 90.4 88.7 86.7 98.8 112.1 122.2 125.1 124.3 121.7 117.9 113.7 110.2
60.8 66.3 71.4 74.7 75.9 74.9 71.9 67.9 68.7 77.4 84 89.2 93.5 98.4 103.4 106.7 107.4 106.4 103.9 100.4 96.6 93.3 92.6 95.2 97.8 99.5 99.1 97.3 93.7 91.1 88.4 85.1 82 81.3 82.9 85.4 89 92.6 93.2 86.5 78.8 69.2 59.8 50.8 44.7 38.1 27.1 -1.7 -1.7 -1.7 -1.7 -1.7 13.8 32.9 54.5 74.6 83.3 85.6 85.7 84.4 82 78.7 74.9 71 67.4 63.9 61.5 59.3 58.2 60.4 65.6 70.7 75.3 79 81.8 84 83.7 82.1 79.3 76.2 72.2 67.1 59.4 58.3 64.4 68 71.1 74.2 75.9 76 75.5 74.6 71.8 74.3 77.3 85.9 91.1 94.7 95.7 94.2 90.9 86.7 81.9 76.5 71.4 67.2 62.7 57.8 61.4 64.9 67.1 69.5 73.1 79.5 84.5 87.9 87.5 85.1 80.9 74.1 62.5 48.1 37.4 39.9 52.4 64.7 76.7 91.8 103.6 112.1 118 122.6 126.2 128.9 129.4 129.3 129.4 129.7 129.3 129.2 129.7 131 132.9 133.4 133.8 133.9 133.7 132.5 131.5 130.4 133.2 137.2 141.2 143.5 144.1 144.2 144.9 146.5 148.9 152.1 152.9 152.6 150.9 150.1 149.3 148.2 146.9 145.4 143.3 141.4 139.1 136.5 133.7 132.2 134.5 135.2 134.1 132 129.3 125.2 120.1 116 113 108 102.7 104.8 108 104.2 95.1 86.1 87.6 101.2 116.8 126.6 127.8 126.4 123.6 119.9 115.9 112.2
44.7 50.8 56.6 61.4 62.4 62.2 62.9 64.9 65.9 72.3 79.9 86.1 91.2 96.4 102.5 106.3 106.9 105.3 101.8 97.8 92.4 87.5 86.4 91.4 96.8 99.2 99.9 99.3 97.7 95.4 93.2 91.1 89.3 88.3 89.2 91.9 95.2 98.6 99.5 97.2 91.9 85.3 76.7 69.1 63 54.5 41.6 21.5 -1.7 -1.7 -1.7 -1.7 12.2 33.7 56.2 76.3 84.8 86.3 85.8 84.2 82.2 79.9 77.7 75.3 72.5 70.1 66.9 65.1 64.9 65.6 68.4 71.2 74.9 77.4 81 83.9 85 84 82.4 79.5 75.9 69.8 62.7 64.3 69.9 76.5 81.3 83.9 84.8 84.3 84.1 83.3 82.1 84.8 85.7 90.7 94.7 97.5 98 96.8 93.8 90.2 85.4 80 74.5 69.7 63.4 57.2 64.3 68.5 70.7 73.6 78.2 82.5 84.5 85.7 84.1 81.3 76.3 69 56.1 42.9 36.3 43.9 56.3 66.6 78.6 93.1 104.3 112.6 119.2 123.9 126.9 129.3 129.9 129.7 129.5 129.1 128.8 128.3 128.8 130.7 132 133 133.5 133.2 133.3 133.4 134.7 135.5 137.4 140.9 144.5 147.3 148.1 148.5 149.7 151.4 154.2 156.2 157 156.3 154.6 152.1 150.7 149.6 148 146.2 144.3 142.5 140.6 138.2 135.6 136.7 138.3 138.2 136.3 133.4 129.5 125.3 120.7 116.8 112 107.4 110.7 113 114.7 112.1 99.5 83.4 87.8 105.9 122.2 129.1 129.7 128.2 125.3 122 117.9 115
45.3 45.1 48.6 52 55.7 62.6 69.6 72.4 71.6 70.6 78.4 86.8 92.3 98 103.2 105.9 105.6 103.6 100.4 95.7 89 82 81 89.2 95.5 98.2 100 100 98.8 97 95.7 94.3 94 93.3 94 96.2 99 100.6 101.2 99.7 96.4 92 88.2 82.1 74.6 64.3 53.1 32.7 -1.7 -1.7 -1.7 -1.7 -1.7 32.8 54.5 75.2 83.9 84.9 83.8 81.4 79.5 77.6 76 74.8 72.9 70.8 68.8 66.8 66.2 66.8 68.4 70.9 73.3 75.8 79.7 83.1 84.9 84.4 83.4 80.9 77.9 72.3 68.8 72.7 77 84.5 89.3 91.5 92 91.7 90.6 89.7 89.5 91.9 92.6 95.4 98.1 100 100.4 99.5 97 93 88.2 83.4 77.2 71 64.6 56.7 63.3 71.6 74.7 78.6 81.6 83.2 83.8 82.4 79.7 75.7 68.5 58.4 48.8 36.9 36.5 50.8 63.9 72.1 82.3 93.4 103.6 111.8 118.1 122 124.9 126.5 127.2 127.8 128 127.4 126.7 125.9 127.1 128.9 130.6 131.2 131.2 131.1 131.6 132.6 134.8 137.6 140.3 143.3 146.6 149.4 150.8 151.4 152.4 154.7 156.5 157.9 158.5 158.3 156.9 155.5 153.5 151.8 149.9 147.9 146.3 144.4 142.3 139.9 139.1 140.2 141.1 141.1 139.2 135.8 131.7 127.3 121.8 115.8 112.2 114.5 118 119 118.2 113.2 93.8 81.1 92.5 109.7 124 129.1 129.9 129 127.7 125.6 123.1 119.7
65.8 64.1 65 66.4 70.8 76.5 81.2 84.2 84.2 80.3 82.6 87.8 93.5 98.8 102.7 104.4 103.6 101.1 98 93.6 87.5 79.8 79.3 88.1 93.8 96.8 98.7 98.9 98.5 97 96.2 95.5 95.7 95.9 96.7 97.9 99.5 100.7 101.1 100.1 98.1 95 91.8 87.8 82.4 74.9 63.4 40.1 16.3 -1.7 -1.7 -1.7 -1.7 29.1 50.3 71.6 80.3 80.9 79.1 77 75.2 72.9 71.8 71 69.8 69 67.7 66.6 65.6 65.9 66.7 68.2 70.7 73.7 78 81.8 84.4 84.9 84.2 82.3 79.5 75.3 74.7 79.1 84 90.9 93.9 96.3 97.3 96.8 95.8 94.8 95.4 96.4 96.7 99.3 101 102.2 102.7 102 99.9 95.5 90 85.4 80 74.3 68.1 57.8 56.2 69.2 76.3 79.3 82 82.7 80.9 77.3 68.2 59.6 51.6 44.5 36.9 35.2 43.3 60 68.9 75.2 83.5 91.5 100.5 107.9 113.1 116.9 119.5 121 122.9 123.8 124.2 124.2 123.6 123 124.5 126.3 127.2 127.5 127.8 127.7 128.2 130.5 134 137.2 140.4 143.3 146.6 149.3 150.7 151.4 152.3 154 155.4 156.5 157.2 157.4 156.9 156.3 155.3 153.6 151.6 149.7 148.3 146.5 144.2 142.6 143.5 144.1 144.3 144.1 141.9 138.4 134.1 129.1 122.6 118.7 119 120.9 122.5 121.8 119.1 111 91.1 80.3 90.2 105.2 121 127.4 129.1 129.2 129.1 128.2 126.7 125.4
80.8 81 83.2 83.8 86.4 89.4 91 90.3 89.5 86.6 82.6 85.5 92.4 97.7 101.3 102.1 100.9 98 94.2 89.8 84.8 75.8 77.4 87.1 91.9 94.8 96.5 97 96.7 96 95.1 94.2 94.9 95.3 96.1 97 98.2 99.1 99.6 99.3 97.7 95.7 93.1 89.7 85.1 79.2 66 42.4 19.2 -1.7 -1.7 -1.7 -1.7 23.4 45.8 68.3 76.1 75.7 73.8 70.9 68.2 66.3 65.7 66 65.9 65.5 64.8 63.5 63.4 63.8 64.6 66 67.9 72.1 76.3 81 84 84.9 85.1 83.8 81.9 79.9 81 84.8 90.9 96.1 99 100.2 100.8 100.1 99.1 98.3 98.4 98.7 99.6 101.3 102.3 103 103.2 102.8 101.1 98 92.4 87.9 83 78.6 73 64.5 52.7 56.7 71.5 77.6 80 79.8 74.6 59.9 48.1 40 36 34.8 37 43.9 54 64.2 69.2 74.4 80.2 87.6 94.5 100.8 106.2 110.1 112.5 114.6 116.8 119.1 119.6 119.9 119.3 119.8 121.6 123.1 123.1 123.4 123.6 122 123.4 128 133 136.6 139.9 142.9 145.9 147.7 148.9 149.6 150.4 151.5 152.7 153.6 154.3 154.9 155.4 155.6 155.2 154.2 152.6 151.4 150.1 148.7 147.2 147 147.4 147.8 147.7 147.1 144.5 140.9 136.6 131.9 127.3 125.4 125.8 126.2 125.9 124.5 121.1 112.2 93.6 80 83.6 96.6 112.1 123.1 127.1 128.8 129.5 129.7 129.5 129.2
89.4 91.1 92.7 94 95.1 95.2 94.3 92 90 84.4 80.6 86.4 92.6 97.3 99.9 100.5 98.4 94.8 90.6 85.6 79.9 71.2 74.9 84.8 89.5 92.5 94.3 95.3 95 93.9 91.9 90.5 91.6 93.1 94.1 95 95.5 96 96.9 97.1 96.5 95.4 93 90 85.6 79.7 65.5 42.6 21.1 -1.7 -1.7 -1.7 -1.7 17.2 42.6 65.8 72.8 72.1 68.9 65.7 62.9 61.1 61.3 62.3 62.6 62.2 61.2 59.6 59.2 60.1 60.6 60.4 64.4 69.8 74.2 79.1 83.6 85.3 86.3 86.6 86.3 87 89.1 92.3 97.7 100.9 102.7 103 102.7 101.7 100.6 99 98.4 97.9 98.1 98.3 100.6 101.9 102.3 102.2 101.1 99.1 95.1 90.5 86.1 81.7 77 70.2 56.8 47.2 59.5 73.5 75.5 74.7 61.1 40.5 34.6 35.2 35.8 35.1 41.3 51.2 57.1 61.6 65.7 70.2 75.3 80.8 87.3 93.2 98.1 102.1 105.1 107.3 109.3 111.6 113.5 114 114.3 116.8 118.5 119.4 119.4 119.3 119.3 118.4 121.1 126.4 131.6 135.7 139.3 142.1 143.7 145.1 146.1 146.7 147.2 148 148.7 149.5 150.2 150.8 151.8 152.7 153.2 153.7 153.6 152.9 151.9 150.9 150.6 150.3 150.9 150.7 150.6 149.8 148.1 144.8 140.9 136.8 133.1 132.1 131.5 130.9 130 128.3 124.4 116.8 99.3 82.1 77.9 88.7 102.9 117.4 124.8 127.5 128.9 129.8 130.7 131.1
92.5 95 97.1 98.1 98 97.1 95.6 92.2 86.6 84 88.5 92.4 95.5 98 99.5 98.6 96.1 91.9 87.2 81.8 76 67.7 70.2 79.7 85.1 89.3 91.9 93.4 93.6 92 89 85.7 87.4 89 90.2 91.2 91.7 92.3 93.5 94.3 95 94.1 92.3 89.3 85.5 79.7 64.4 42.1 20.6 -1.7 -1.7 -1.7 -1.7 12.8 37.9 61.7 70.3 69 66.4 63.1 59.6 57.4 57.5 58.6 58.8 58.4 57.1 55.3 53 53.3 55.1 53.8 60.8 66.6 72.3 77.6 82.7 86.2 88.2 90.3 92.4 94.4 96.8 99.7 102.1 103.7 104.1 104 103.3 102.2 100.1 98.2 96.1 94.6 94.1 95 97.4 98.5 99.6 100 99.5 98.5 95.9 91.8 87.8 83.5 78.8 73.1 61 44.2 50.7 66.9 70 67.4 48.4 32.3 41.6 47.2 48 39.7 38 45 50.8 54.5 59.3 64.3 69.5 74.8 79.9 85.5 90.2 93.8 96 97.1 99.2 102 104.4 105.7 109.3 112.9 114.3 115.1 114.7 114.1 114.1 115.4 118.7 123.1 128.8 133.4 137.1 139.5 140.9 141.9 142.2 142.1 143 144.1 144.7 145.2 145.7 146.3 147.4 148.7 149.9 151.6 152.9 153.3 153 152.9 152.7 153.3 153.5 153.9 153.4 152.6 151.1 148.9 145.5 141.7 139.3 138.9 137.4 135.9 134.6 132.1 128.2 122.1 107.8 87 76.7 81.8 94.5 111.3 121.5 124.8 127.2 128.7 130.1 130.9
92.4 95.6 98.1 99.1 99.2 98.3 95.8 92.9 88.7 90.6 94.5 96.1 98.1 99.4 99.6 98 95.1 90.2 84 78.5 71.5 66.5 64.9 72.9 79.6 84.5 88.4 91 91.7 90.6 87.1 81.5 82.2 83.3 84.9 85.3 86.1 87 88.5 90.6 91.9 92.2 90.4 87.5 83.8 78.2 62.2 39.6 17.6 -1.7 -1.7 -1.7 -1.7 -1.7 33.1 56.9 67.3 65.9 62.9 59.4 55.2 51.8 51.6 52.9 53.7 53.7 52.8 48.9 44.7 45.6 47.5 50 55.7 62.2 68.1 74.1 79.8 84.8 89.1 93 96.7 99.7 102.2 104.2 105.2 105.2 104.6 104.1 102.9 101 98.3 94.2 90.8 89.3 90 91.1 92.2 93.4 94.3 95.9 96.6 96.3 94.7 91.7 87.8 83.5 78.5 72.3 60.1 41.4 48.2 60.6 61.8 53.8 36.1 33.8 46.2 55.9 59.8 54.3 45 39.1 40.2 44.8 50.3 57.2 63.8 69 73.4 78 82.2 83.2 84.2 85.5 87.5 90.5 93.5 97.8 103.4 106.6 109.2 109.9 109.5 108.9 109.2 112.6 116.8 120.2 125.4 129.7 133.2 135.2 136.8 137.3 137.2 137.6 138.7 139.9 140.3 140.8 141.3 141.6 142.4 143.8 146.6 149.3 151.6 152.7 153.8 153.7 154.1 155.2 155.4 155.3 155.1 153.9 152.8 151.3 148.8 146.3 145 143.8 141.8 139.7 137.5 134.4 130.3 124.4 114.8 95 78.5 75.9 87.5 105.3 117.4 121.9 124.5 126.4 128.1 129.3
89.2 94.1 98.2 100 100.9 100.8 98.5 95.8 93.7 93.6 96.6 98.7 99.7 100.1 99.8 97.8 95.1 90.3 84.5 80 76.8 72.1 62 65.7 73.6 79.4 83.6 87.5 89.8 89.5 86.8 81.8 76.4 76.1 78.3 78.9 79.5 79.6 82.1 86 88 88.6 87.2 84.5 80.5 74.4 58.2 35.4 12.6 -1.7 -1.7 -1.7 -1.7 -1.7 31.6 62.1 64.8 62.7 59.4 54.2 48.3 43.1 44.1 46.5 47 47.5 47.1 44.3 38.9 38.4 40.5 44.8 50.6 56.9 63.3 69.1 75.9 82.4 89.1 94.2 98.3 101.8 103.9 105.2 105.7 105.3 104.3 103.1 101.1 98.4 94 89 86 84.6 84.6 84.9 86 87 88.2 90 92 92.4 92.1 89.8 86.3 82.1 77 70.8 57.9 38.6 41 50 46.8 38.2 29.8 36.5 49.2 60.9 65.2 64.1 59.4 51.4 46.4 43.7 42.2 46.1 54.8 62.9 67.6 71.5 74.4 74.7 74.9 76.6 78.8 81.3 86.1 91.5 96.6 100.3 102.8 104.1 104 104.7 107 110.6 114.3 117.7 121.6 125.4 128.4 130.3 131.2 131.4 131.7 132.9 134.5 135.5 135.7 136.1 136.5 136.1 136.2 138.8 143.3 147.3 150.3 152.2 153.4 154.3 154.6 155.1 155.1 155.1 155 154.7 153.8 152.3 150.7 149.2 147.9 146.4 144.2 142 139.6 136 131.2 125.4 117 101.6 82 74.5 82.8 100.3 113.3 117.7 120.5 122.7 124.3 126.5
79.8 91.5 98.1 100.9 102.6 102.9 102.3 100.6 98.9 98.6 99.4 100.7 101 100.9 99.9 97.7 95 91.9 88.2 85.4 82.5 77.8 63.3 59.4 67 74.4 78.9 83 86.6 87.4 85.8 81.5 73.4 69.6 70.8 71.2 72 72.4 76.6 81.3 84 84.8 83.2 80.8 76.8 70.4 54.3 30.9 8.4 -1.7 -1.7 -1.7 -1.7 -1.7 38.9 61.2 62.8 59.9 55.8 50 41.7 36.8 37.8 39 39.5 39.9 39.8 36 30.7 34.6 38.9 42.5 47.8 52.9 59.7 66.9 74.1 81 87.9 93.8 98.5 101.6 103.4 104.2 105 104.4 102.9 100.7 98.3 94.7 89.4 84.3 81.7 80.2 78.9 78.4 78.4 79.6 80.3 82.7 85.6 87.6 87.9 86.7 83.2 79 74.1 67.3 56 40.8 32.6 38.6 33.8 28 28.9 40.1 54.9 65.9 69 69.1 67.1 63.7 60.2 58.5 53.8 46.1 45.3 53.2 59.2 63.5 67 68.7 69 70.1 73.4 76.3 79.8 85 89.7 93.8 96.8 98.6 101 102.8 105.3 108.6 112.1 116.3 119.6 121.6 123.3 124.4 124.9 125.5 126.4 128 130 130.8 130.7 129.3 129.4 128.7 129.1 134.7 140.7 145.2 148.7 151 152.6 153.5 154.2 154.4 154.2 154.3 154.5 154.4 153.6 152.6 151.7 150.8 149.4 147.5 145.6 143.7 140.8 136.6 131.2 125 114.8 98.6 82.5 74.3 78.3 94.2 108 112.7 115.5 117.7 120 122.9
82.4 93.4 99.7 102.8 104.3 104.8 104.7 104.1 103.2 102.8 102.2 102.2 102.3 101.1 100 97.5 95 92.5 89.6 86.6 82.9 79 70.6 55.7 61 69.3 73.3 76.9 80.7 83.3 82.9 79.7 73.7 64 62 63.6 64.3 66.5 72.4 77.8 80.4 81.9 80.9 78.3 73.8 65.8 48.9 26.5 4.5 -1.7 -1.7 -1.7 -1.7 12.7 47.8 58.1 59.5 56.1 51.5 45.2 37.4 29.6 29.1 28.1 25.7 24.3 24.8 26 31.1 38.4 42.2 45.4 48.9 52.7 58.9 65.7 73.1 79.4 85.7 91.9 96.8 100.4 102.1 102.8 103.2 102.5 100.6 98.4 95.7 92 87.3 82 78.3 73.9 70.7 70.7 70.6 72.2 73.6 75.9 78.9 80.9 82.3 82.1 79.1 74.9 69 61.4 53.2 44 32.5 29.2 27.2 27.9 33.7 47.8 60.3 67.5 71.2 72.6 73.2 72.2 71.9 70.7 67.4 60.8 52.1 46.9 47.6 50.3 55.4 59.8 61.1 63.2 67 71.2 75.1 79.2 83.5 88 93.1 96.7 98.6 100.4 102.5 105.9 110.2 113.9 116.5 117.9 119 119 118.9 119.5 121 122.8 124.8 125.5 125.2 123.9 123 121 125.3 131.6 137.8 143 146.7 149.5 151.3 152.4 153.1 153.1 152.5 152.4 152.4 153.4 153 152.6 152 150.8 149.6 148.1 146.5 144.3 141.1 136.3 130.6 123.2 112 99.3 87.2 74.6 74.8 88.6 100.8 105.9 108.2 110.1 112.7 115.5
87.8 96.1 101 104.5 106.1 106.3 106.1 105.8 105.5 105.1 104.5 103.8 102.8 101.6 99.5 97.1 94.1 91.8 88.8 85.5 80.7 75.1 68.3 60.4 55 63.3 66.4 69.7 72.5 76.4 77.6 76.3 71.2 62.1 54.5 56.5 57.2 63.8 70.2 75.1 78.3 80.1 79.5 77 71.6 60.9 42.8 21.6 -1.7 -1.7 -1.7 -1.7 -1.7 21.9 50.9 54.2 53.7 50.8 46.6 41.3 34 24.3 18.8 15.6 13.4 17.5 23.5 31.7 37.7 41.9 45.1 47.9 50.9 55 59.9 65.8 71.9 78.8 84.7 89.9 94.9 98.4 100.3 101.1 101.3 100.2 98.4 96.1 93.8 90.3 85.9 80.9 76.2 70.1 64.4 60.8 61.6 62.9 66.8 69.8 72.3 74.7 76.6 76.3 74 69.6 61 49.6 41.6 34.5 28.4 26.6 27.2 31.3 41.4 51.1 62 67.3 70.7 73.9 76.2 78.3 78.6 77.8 75.8 71.7 65 57.9 55.2 53.4 50.8 52.1 54.8 59.3 64.9 69.7 73.8 78.1 83.2 88.3 91.9 93.4 94 94.8 97.7 102.3 106.5 109.2 111.2 112.3 112.8 112.6 111.4 112.1 114 116.3 118.6 119.7 119.6 118.7 116 115.8 121.6 128.2 134.4 139.9 144.8 148.1 149.9 151.2 151.4 150.9 150.1 150 150.1 150.9 151.5 151.2 150.6 149.4 148.3 147.4 146.2 144.3 141.2 137.4 131.5 123.9 116.3 107.5 93.2 77.2 73.6 83.8 92.7 94.9 94.7 95.7 98.7 104.2
90.3 97.8 102.1 105.6 106.9 107.5 107.3 106.8 106.4 106 105.3 104.3 102.8 100.7 98.1 94.8 91.9 89.8 87.4 83.8 78.5 72 65.7 58 50.6 56.5 59.3 61.3 63.8 68 71.1 71.4 67.7 60 51 50.7 55.2 62.3 68.7 73.7 76.9 79.1 79 77 71.9 62.5 41.8 20 -1.7 -1.7 -1.7 -1.7 9.9 41.2 46.3 48.1 46.2 43.4 40.6 36.7 30.1 22.9 10 -1.7 15.1 26.6 36.5 41.9 43.3 44.1 46 48.6 51 54.3 59.1 65.4 71.6 77.8 84.3 89.4 93.5 96.6 98.2 99 99 97.6 95.6 93.7 91.7 88.6 85 81.1 77.1 72.7 67 58.8 50.9 52.4 57 62.2 65 67.3 69.4 68.8 65.8 57.5 45.9 34.2 28.5 26 25.5 26.3 30.6 39 48.4 55.2 60.6 64.5 68.3 72.3 77.2 81.1 82.1 81.6 79.6 76 71.5 66.6 64 61.5 58.6 55.3 52.7 56.7 64.2 69.6 73.8 77.7 82.1 85.3 87 87.5 87.6 88.9 92.5 96.9 100.7 103 104.4 104.8 105 104 102.2 102.8 106.7 109.4 111.5 112.4 111.8 110.1 107.3 110.3 116.5 123.9 130.6 137.3 142.5 146.5 148.5 149 149.4 148.4 147.5 146.2 146.2 147.1 148 148 147.6 147 146.4 145.7 144.6 143.4 141 138 133.8 128.5 121.5 113.5 100 85 73.6 76.3 79.2 77.8 75.4 77.6 80.9 87.6
91.8 99 103.5 106.1 107.5 108.1 107.9 107.3 106.9 105.8 104.8 103.3 101.1 98.8 95.3 91.3 87.7 85.4 84.3 81.5 77.4 71.8 65.5 58.7 52.1 46.7 46.6 47.1 52.4 58.1 61.2 62.4 60.5 55.4 45.6 44.5 52.5 59.6 66.7 72.1 75.5 77.9 78.6 77 73.9 67.3 47.2 19.6 -1.7 -1.7 -1.7 -1.7 23.4 30.7 35 35.4 34.5 33.1 31.8 28.8 23.3 14.8 -1.7 -1.7 20.1 33.2 40.2 44.7 47.2 46.4 46.4 47.3 49.2 52.5 57.9 63.8 70.4 77.3 84 89.3 92.7 94.8 96 96.3 96.3 95 93 91.3 89.6 87.2 84 81.2 78.5 75.2 70.1 64 56 45.8 44 52.3 57.5 59.1 59 55.2 48.9 40.9 33 26.9 25.3 25.6 26.7 26.9 36.1 44.5 50.2 54.2 57.6 60.9 64.1 69.6 76.6 81.9 84.5 84.5 82.3 79.7 76.9 73.8 70.2 66.6 65.9 66 60.4 55.4 58.7 64.7 69.6 74 77.8 80.2 81.1 81.5 81.6 83.3 87.1 90.9 94.3 96.3 96.9 97.1 97.1 96 94.5 95.4 99 102.5 104.4 103.2 101.8 101 101.1 105.5 112 119.9 127.4 134.6 140.4 144.1 146.5 147.1 147.3 146.2 144.5 141.9 141.3 142.5 143.4 143.8 143.8 143.8 143.4 143 142.6 141.9 140.2 137.8 134.9 130.9 125.9 119.7 112.3 100 86.7 76.4 72.5 72.9 73.9 69.6 67 71.4
93.2 99.9 104.4 106.9 107.8 108.2 108.2 107.5 106.7 105.2 103.5 101.4 99.1 95.7 91.6 87.3 83.2 80 78.9 77 73.5 68.5 61.5 56.8 51.5 46.6 50.6 50.4 46 41.4 43.4 43.7 42.8 41 39.7 39.7 46.8 56.4 63.9 69.4 73.4 76.1 77.7 77.8 76.1 72.2 57.1 24.4 -1.7 -1.7 -1.7 6.7 11.2 16.2 18.2 17.6 17.7 17.8 19.5 17.3 10.2 1.8 1.8 8.6 25 33.4 40 44.5 46.7 46.5 44.1 42.6 45.3 50.2 55.6 63 69.8 77 83.9 88.6 91.3 92.7 93.2 93.5 93.2 92.3 90.5 88.8 86.7 84.4 82 80.6 79.1 76.9 72.9 67.6 61.4 53.2 41.6 41.5 48.5 47.4 42 35 30 25.5 24.5 27.6 26.6 27.5 29.6 29.5 35.3 41.6 46.1 49.8 53.9 57.2 60.8 67.6 76.4 83.9 87.4 88.1 86.9 84.1 81.9 79.2 75.2 70.8 69.1 68.7 64.6 58 58.6 60.8 63.3 66.7 70.4 73.4 74.8 75.4 75.6 79.6 83 86.4 89.1 90.6 91.1 91.5 90.6 89.3 88.6 89.9 92.2 95.4 97.2 97.5 95.6 96.9 99.7 104 110.2 117.7 124.8 131.9 137.7 141.7 144.5 145.5 146.3 145.5 143.6 140.1 137.1 137 137.8 138.2 138.9 139.5 139.6 139.8 139.6 139.3 138.2 137.1 135.2 132.5 129.3 125.3 120.6 113.9 104.6 93.7 90.5 92.2 92.6 82.3 70.8 64.8
93.9 99.8 104.3 106.5 107.7 108.1 108.4 107.6 106.1 104.1 101.3 99.1 96.2 92.5 87.9 82.7 77.5 72.5 70.7 69.1 65.9 59.7 54.1 49.6 51.6 57.7 62.9 63.8 60.4 54.1 49.7 46.7 45.9 42.7 38.5 36 37.8 49.7 60.1 66.1 70.5 74.3 76.9 78.4 79.1 78.2 69 36.7 -1.7 -1.7 -1.7 -1.7 -1.7 -1.7 -1.7 -1.7 -1.7 4.3 6.4 1.7 0.5 0 1.7 14.3 24.8 31.1 36.9 40.4 41.4 39.9 39.8 43.1 44.9 48.6 55.5 63.9 71.4 78.3 83.8 87.4 89.2 89.7 90 90.1 89.8 89.1 87.8 86.1 83.8 81.4 79.1 78.2 78.3 76.7 74.7 70.6 65.5 59.2 47.8 30.4 35.4 30.6 24.3 24.5 29.7 34 35.9 36.4 35.7 34.1 34.7 34.8 33.5 37.4 41.6 46 49.5 54.6 61.3 69.8 79.9 87.5 90.9 92.4 91.6 89.2 85.8 82.4 78.9 74.2 70.6 66.7 61.8 60.1 62.1 64.2 66.2 66.6 67.8 67.9 67.8 68.6 70.4 74.4 77.9 81.2 83.9 85.3 85.4 85.1 83.9 82.5 83.3 84.2 86.3 88.3 90.1 91.2 92 96 100.3 104.5 110.5 117 123.6 129.7 135.1 139.7 142.6 144.5 145.7 145.6 144.3 141.5 138.1 134.3 132.8 132.7 133.2 134.3 134.7 134.8 135.3 136 136 135.5 134.7 133.2 131.2 128.6 125.1 120.4 113.9 110.6 109.3 107.4 105 97.2 84.1 70.6
93.6 98.3 102.5 105.4 107.3 108.2 108.3 107.5 105.5 103.4 100.7 96.7 92.8 88.7 83.5 76.9 71.3 65.9 62.7 59.9 56.8 55.2 57.3 59.3 64 69.6 71.3 71 70.5 68.2 64.6 60.8 56.7 52 46.4 38.8 33.9 44 54.8 62.3 67 71.6 75.4 78.7 80.9 82.1 75.6 50.9 6.3 -1.7 -1.7 -1.7 -1.7 -1.7 -1.7 -1.7 -1.7 -1.7 -1.7 -0.4 -1.7 0.1 1.6 3.4 14.8 21.5 26.1 28.8 29.8 35 44.1 47.7 48.2 50.8 58.3 66.7 73.6 79.3 82.9 84.8 85.7 86.1 86 86 86.1 85.5 84.2 82.3 80.3 78.2 75.9 75 75.9 76.1 75.3 73 69.1 62.7 53.3 38.6 25.5 22.5 30.1 37.6 44.4 49 52.8 51.6 46.3 40.9 39.8 39.6 37.9 35.7 39.8 43.2 47.9 54.6 68.1 79.6 86.1 91.1 94.5 95.7 95.2 93.1 89.4 85.1 80.6 76.1 70.9 66.1 63.8 63.6 66.1 69 72.9 74.3 75.3 74.3 71.2 68.3 67.9 68.9 71.9 73.9 76.6 76.7 77.5 78.7 80.1 80.9 82.1 83.4 84.5 85.6 87 89.1 91.5 94.3 98.3 102.7 108.3 114.4 120.6 127 132.7 138.1 141.6 144 145.5 145.5 144.8 142.8 139.9 136.5 132.8 129.3 127.4 127.6 128.4 128.6 130.5 132.1 133 133.2 133.6 133 132.5 131 128.4 125.2 123.1 122.6 121.3 118.5 116.1 110.4 99.1 83.2
92.4 96.1 100.3 103.7 106.2 107.8 108.1 107.6 105.7 103.6 100.6 96.8 91.7 86.1 80.5 74.9 69.2 70.1 68.5 66.9 67.4 69.2 71.8 71.4 74 75.2 74.9 73.9 73 71.5 69.6 67 63.5 59.4 54.5 45 33.2 38.2 49.4 57.7 63.6 68.5 72.8 76.6 79.8 82.2 79.3 58.9 27.8 3.3 -1.7 -1.7 -1.7 -1.7 -1.7 -1.7 -1.7 -1.7 -1.7 -1.7 -1.7 9.7 13.1 13.2 13.7 17.1 22.1 29.1 37.6 45.6 50.8 54.3 56.6 60.3 65 71.3 75.5 78.5 80.5 80.9 81 81.1 81.1 81.3 81.3 80.9 79.8 78.3 76.5 74.3 72.4 70.8 72.7 74 74 72.7 69.7 64.3 54.7 40.7 25.4 29.6 40.2 54.3 61.9 66.5 69.6 66.8 58.5 48.4 44.9 43.9 43 39.9 39.9 43.5 48.9 59.3 74.4 84.2 90.8 94.9 97.5 98.2 97.2 95.6 92.7 88.5 83.1 80 75.7 71.7 70.1 69 70 73 77.6 80.9 83.1 83 81.1 77.8 76.8 76.1 75 74.2 74.5 76.2 78.1 80.4 84 87.1 87.5 87.4 87.8 88.7 90.3 92.3 94 96.4 101 106.9 110.1 113.8 119.8 126.4 132.8 138.6 141.9 143.9 145.6 145.6 145 143.2 140.3 137.2 133.8 130 126.6 123.4 121.4 122.9 125.6 128.3 129.4 130.4 131.2 132 131.9 131.1 129.9 128.8 128.2 127.6 126.3 124.1 120.7 115.8 108.6 94.6
89.7 93.2 97.9 101.3 104.7 106.8 107.9 107.7 106.1 103.8 100.4 96.2 91.5 86.4 81 74.9 75 82.1 83.3 83.6 83.4 82.2 80.6 78.6 77.4 76.5 75.2 74.3 73.1 71.5 69.3 67.3 64.9 61.6 56.6 47.4 34.6 34.1 44.7 53.6 60 64.6 69 73.5 77.5 80.4 80.6 70.1 44.6 22.7 13.9 -1.7 -1.7 -1.7 -1.7 -1.7 -1.7 -1.7 -1.7 -1.7 -1.7 17.6 23.7 27.5 29.8 33.4 39.6 45.2 51.6 56 57.8 60.1 62.8 67.3 71.6 75.1 76.4 77.2 77.2 76.4 75 74.8 74.8 75.3 75.7 75.6 74.9 73.8 72 69.7 66.6 65.9 68.6 70.2 70.9 70.5 69 65.4 56 39 22.6 36.3 48.9 64.6 74.1 78.7 80.2 78.4 72.2 61.1 51.3 48.3 47.1 44.1 41.5 45.4 52.1 63.3 75.8 86.4 93.4 97.6 100 100.1 99.4 97.9 95.9 92.8 88.7 86.3 84.7 82.4 79.6 77.3 75.3 76.4 79.8 84.7 87.3 88.9 89.1 89.5 89.7 88.5 86.1 83.9 83.3 84.3 85.6 87.2 90.6 94.3 94.7 93.7 93.3 94.1 95.2 96.2 98 100.6 105.9 112.7 116.4 118.8 122.1 128.4 134.7 139.3 142.7 145 145.8 145.9 144.9 143.3 140.6 137 133.5 130.2 127.4 124.5 120.9 117.7 120.8 123.5 125.3 126.6 127.6 128.7 129.4 129.2 129.1 129 129.5 129.9 129 126.6 123.4 119.2 113 103
85.4 89.8 95 98.9 102.4 105.2 106.9 107.1 106.6 104.5 101.3 97.3 93.1 88.6 83.9 77.5 80.8 87.7 91.5 92.2 90.6 87.5 84 80.6 77.4 75.2 73.3 72.4 71 69.3 66.8 65.2 63 60 55.7 48.3 34.9 31.7 41.7 50.3 56.3 61.2 65.7 70.2 74.8 78.7 81.5 80.5 64.4 52.8 43.6 34 23.4 17.7 5.3 3.1 -1.7 -1.7 -1.7 -1.7 -1.7 24.3 32.3 38.2 43.2 48.8 53.4 57 59.6 61.6 62.5 64.2 67.5 71.4 75.4 76.8 76.4 75.4 73.9 71.8 69.3 68.4 68.3 68.6 69.3 69.1 69 68.1 66.4 64.5 61.3 60.5 63 64.6 65.4 64.5 63.9 62 54.2 37.1 21.7 35.5 53.6 70.8 79.3 83.2 85.4 84.1 80.8 73.3 60.4 51.8 48.8 46.4 43.9 46.1 51.9 61.5 75.9 87.4 95.2 99.8 102.4 103 102.9 101.6 100.2 99 97.1 94.5 92.9 91.5 88.6 85 82.9 80.7 80.4 84.7 88.3 90.9 92.7 95.1 96.5 96.3 94.4 92.3 91.7 92.7 96 98.2 98.2 103 103.8 102.3 101.6 101.9 102 102.1 104 107.7 112 117.4 122.5 125.2 127.8 131.5 135.9 140.6 143.9 145.5 146 146 144.1 142.9 140.7 136.8 133.2 130.3 127.8 126 123 118.2 114.6 117 119.6 121.3 122.6 124.5 125.3 126.1 126.5 128.2 129.4 130.2 130.3 128.9 126.1 123.1 119.6 114.6
82.8 87.4 92.3 96.4 100.1 103.1 105.3 106.7 106.6 105.2 102.3 98.1 94 89.8 85.1 79.9 83.7 89.5 93.5 94.5 93 89.8 85.9 81.6 77 72.4 69.2 68.1 67.2 65.7 63.8 61.7 59.5 57.1 53.3 46.6 35 28.9 38.3 46.1 52.3 57.5 62.5 67 72.1 76.7 81.2 84.2 83.1 78.7 70.3 62.3 53.7 40.9 21.8 5.5 5.6 -1.7 -1.7 -1.7 -1.7 22 36.3 43.9 51 56.3 59.9 61.9 63.8 65.2 66.3 67.8 70.5 74.8 77.7 77.9 77.4 74.1 71.1 68.1 64.2 62.1 61.5 61.3 62.1 62.6 62.4 61.9 60.6 58.5 55.4 53.2 55.9 56.3 54.4 45.8 44.2 44.7 41.9 31.8 20.3 35.5 57.9 73.2 79.6 83.7 86.4 86.3 84.3 79.1 68.3 56 50.5 47.9 45.5 47.4 52.6 60.7 74.9 88.4 96.9 101.9 105 106.2 106.5 106.6 106.2 105.3 104 101.5 99.5 98 95.1 91.2 89.5 87.9 85.8 85.6 88 91.3 95 98.1 100.6 101.4 100.5 99.2 98.7 100.8 104.6 106.2 104.5 107.4 109.4 109.6 109.4 109.7 110.1 111.2 113.5 117.2 120.5 122.4 126.6 131.1 134.2 136.4 139.4 142.4 144.2 145.4 145.7 145.1 143.8 142.3 139.1 135.6 132.4 129.6 126.8 124.7 122.4 119.4 113.9 109.7 112.6 114.5 116.6 119 120.9 122.3 124.3 126.7 128.8 130.3 131 130.7 129.6 127.5 124.9 121.5
81.1 85.8 90.1 93.5 96.9 100.2 102.8 104.8 105.8 105.6 103.3 99.7 95.2 90.8 87.1 83.8 86 90.4 93.9 95.2 94 91.1 86.5 81.7 76.4 71.4 66.3 62.8 61.7 60.8 58.7 56.6 55.1 53.1 50.9 46.3 35.7 25.6 34.1 41.8 47.8 52.9 57.9 64 69.6 75 79.6 83.3 84.1 82.1 76.4 69.5 61.7 51.2 34.9 15.9 5.9 -1.7 -1.7 -1.7 -1.7 26.5 37.1 46.7 53.6 58.5 62.2 64.7 66.3 67.9 69.5 71.2 75 78.2 80.5 79.7 77.7 74.2 70.2 66 61.6 57.1 53.4 53.3 54.1 54.7 55.2 55.4 54.4 51.7 48.4 44.3 44.2 42.7 33.2 24.4 21.8 23.7 25 19.8 20.4 37.3 58.3 71 78.3 82.7 86.2 87.3 86.5 82.5 74.4 62 54.5 50.2 47.9 49.7 55 64.2 78.4 90.5 98.2 103.4 106.6 108.5 109.4 110 110.1 109.5 108.8 107.4 105.5 103.4 100.1 96.8 95 93.3 90.4 88.6 89.1 92.1 96.5 100.4 103.4 105.7 106 106.2 106.6 108.8 111 111.9 110.7 110.6 113.3 114.7 115.6 117.2 118.9 120.6 123.4 125.8 127.9 128.5 130 134.5 138.4 140.2 141.6 143.7 144.8 145 144.9 143.4 141.5 138.3 135.9 133.5 130.5 126.4 122.7 120.4 118.7 116.7 112.2 106.1 104.5 106.5 109.4 112.4 114.8 117.4 122.5 126.5 129 130.8 131.8 132 131.7 130.8 128.7 125.7
78.5 83.2 87.2 90.4 93 96.2 99.3 101.9 103.7 104.9 103.7 101.2 97.9 93.5 89.5 87 87.5 90 93.3 94.5 92.8 90.1 85.5 80.3 75.1 69.7 64.2 58.7 55.6 53.7 51.5 51 50.1 49.3 48.3 44.9 36.9 24.5 30.3 37.4 43.1 47.8 54.3 61.2 68.2 73.4 77.8 81.3 81.9 79.7 74.9 68.2 60.2 49.2 35.2 18.6 -1.7 -1.7 -1.7 -1.7 -1.7 23.9 34.9 45.6 52.7 58.6 62.5 64.9 67.2 69.2 71.2 74.5 79.4 82 82.5 81 78 74.1 70.1 66.1 62 57.7 52.8 47 43.6 44.1 46.4 47.1 46.3 44.1 42.9 39.8 31.3 22.2 17.1 14.1 17.8 19.4 20.6 24.6 34.1 49.6 60.3 68.9 78 83 86.7 88.8 88.6 85.3 79.5 69.1 59.2 53.7 50.8 52.9 58.4 69.8 82.6 92.2 98.4 103.5 106.7 108.8 110 111.2 111.6 112.2 112.1 111.2 109.7 107.2 104.6 101.9 99.1 96.3 93.1 91.3 92.1 94.5 98.6 102.9 106.6 109.8 111.5 112.5 113 114.3 115.8 116.4 115.6 114.9 116.6 118.4 120.4 123.9 128.3 131.1 133.1 134 134.4 134.3 134.7 138.1 141.3 142.9 144 144.9 145.1 144.8 144.2 141.8 139 135.5 133 130.5 128 125.2 122 117.9 114.2 111 108.2 105.2 101.4 99.3 100.9 104.7 107.5 115.5 122.1 126 128.1 130.1 131.4 131.8 131.7 131.3 130.6 128.3
76.5 80.3 83.2 85.5 87.8 91.2 94.9 98.5 101.5 103.6 103.8 102.3 99.4 95.4 91.6 89 88 89 92.2 93 91.4 87.6 83.2 78.1 72.8 67.1 61 55 50.2 46.7 45.6 46 45.2 44.6 44 42.3 37.5 25.2 28.1 34.5 40.7 45.4 52.6 60.1 66.5 71.6 75.7 78.9 79.5 77.2 72.9 66.2 57.4 44.9 30.8 12.2 -1.7 -1.7 -1.7 -1.7 0.9 22 36.6 46.3 52.7 58.8 63 65.8 68.1 69.8 72 77.6 82.9 85.1 84.8 81.7 77.9 74 69.9 65.6 60.5 55.5 51.2 46.8 40.9 34.6 35.5 38.3 37.9 35.4 33.9 28.6 18.7 12.5 21.5 32.6 38.2 39.5 38.8 42.6 51.9 63 69.4 75.6 81 85 88.4 90.5 90.8 88.4 83.9 75.3 65.2 57.8 54.9 57 62.6 74.3 85.6 93.4 98.7 102.7 105.5 108.2 109.9 111.3 112.5 113.6 114 113.5 112.1 109.9 107.7 105.5 102.4 99.1 96.4 95.3 96.5 98 101.8 106.2 110.6 114.4 116.8 118.4 119.2 120.3 120.7 121.2 121 120.9 121.6 123.2 125.6 129.7 135 138.5 139.9 140.3 139.4 139.2 139.8 141.5 143.4 144.7 145.6 146.2 146 145.6 144.4 142.5 140 137 134.1 131.7 129.8 128.3 125.4 121.4 118.3 115.4 113.1 110.8 107.9 102.5 96.5 95 99.9 110.6 119.2 123.6 126.3 128 129.1 129.9 130.6 130.6 130 128.6
76.8 79.8 82 82.4 83.8 85.7 90.4 94.7 98.9 102.2 103.5 102.7 99.9 96.7 92.3 89 87 87.1 89.7 90.4 88.7 85.2 80.9 75.2 69.5 63.9 57.5 51.5 46.6 42.9 41.7 40.7 39.6 39.1 38.5 36.6 32.6 25.6 28 37.3 44.3 49.2 55.5 61.1 66.1 70 73.3 75.9 76.7 74.2 69.9 63.3 53.5 39.7 24.7 -1.7 -1.7 -1.7 -1.7 -1.7 10.7 34.8 48 54.9 58 61.9 64.5 67.2 69.5 71.8 76 83.7 87.6 89.1 88 84.1 78.7 74.2 69.8 64.2 58 51.4 45.7 42.1 38 30.3 24.1 30.3 26.2 22 19 14.5 16.9 30.8 43.6 53.6 57.4 57.8 57.4 60.6 68.3 73.2 77.1 80.9 84.8 87.9 90.9 92.8 93.2 91.5 87.5 80.6 70.3 62.3 59.4 62.2 67.7 78.5 88.4 94.5 98.8 101.6 104.2 106.4 108.7 110.4 112 113.3 114 114.2 113.9 112.6 110.6 108.5 106.3 103.7 101 100.3 101.8 103.3 106.2 111.3 115.8 120.1 122.8 124.4 125.5 126.1 126.7 127 127.9 128.4 129.4 130.4 131.9 135.9 139.7 142.5 144 143.9 143.4 143 143.1 143.6 144.9 145.9 146.8 147.3 147 146.6 145.6 143.9 141.3 138.7 136.5 134.3 132.6 130.7 128.3 125.6 123.3 121 118.5 116 113.2 109.1 101.5 93.4 90.9 98.9 111.1 118.7 122.5 125 126.2 127.1 128 128.6 128.6 127.7
77.5 79 79.2 79.4 78.5 80 86.2 91 95.4 100.2 102.6 103 101.1 98.2 93.8 89.4 85.8 84.8 86.2 87.5 86.4 83.6 79.6 73.7 66.6 60.6 54.2 49.1 44.6 41.1 39.2 36.6 33.8 32.5 31.7 29.4 27.1 24.3 28 39.4 45.5 50.5 54.8 59 62.5 65.8 69.7 72.8 73.4 71 66.6 59.8 49.9 33.5 11.6 -1.7 -1.7 -1.7 -1.7 -1.7 35.8 49.5 55.1 58.7 61.5 64 66.5 69 71.8 76 81.6 87.9 91.6 93.1 91.5 87.2 80.6 74.7 68.9 64 58.6 51.7 45.6 40.1 32.4 23.2 19 13.8 14.5 13.4 12.7 15.8 31.3 44.1 52.6 58.7 62.4 65.5 67.8 71 74.9 78 81.2 84.4 87.4 90.2 92.9 94.8 95.9 94.4 90.7 84.8 75.5 68 66.9 70 74.9 82.3 90.2 95.2 98 99.8 101.6 103.6 106.3 108.7 110.5 112.1 113.8 114.8 114.5 114.4 113 111.7 110.9 109.4 107 106.4 108.2 109.9 112.1 116.2 120.5 123.7 126.7 128.7 129.9 131.1 132.3 133.2 134 135 135.5 136.7 138.2 141.6 143.7 145.4 146.1 146.1 145.5 144.5 144.4 145 146.1 147.1 147.7 148.4 148.2 147.8 147.1 145.6 142.9 140.3 138.2 136.6 134.9 132.9 130.8 128.8 126.7 124.5 122.2 119.3 115.6 110.6 106.1 102.8 92.2 88.8 100 110.9 116.8 120.8 122.3 123.1 124.7 125.6 126.9 126.5
76.9 76.9 75.1 74 72.3 74.9 82.7 88.2 93.2 97.6 100.7 102.5 102.1 99.6 95.7 91.2 86.7 81.1 80.3 83.4 84.2 82.4 78.6 73.5 67.2 61.5 57.4 53.4 48.4 43.9 40.1 37.7 33.9 29.3 28.2 26.5 25 22.8 26.8 38.5 43.8 47.8 50.4 52.3 53.1 53.7 56.8 61.6 65.9 65.6 61.4 54.7 45.6 28.4 -1.7 -1.7 -1.7 -1.7 -1.7 27.2 48.1 53.4 57.1 59.7 62.5 65.3 67.6 71.1 76.2 81.6 86.5 91.4 94.4 95.5 94 89 81.6 74.6 67.9 62.8 59.3 54.4 48.9 41 30.7 35.3 21.5 11.5 12.3 18.4 19.7 16.7 27.8 38.2 46 51.5 57.7 62.7 67.1 71.3 74.9 78.8 82.4 85.8 88.9 91.9 94.5 96.4 97.1 96.3 93.7 88.4 81.2 76.6 76.9 79.1 82.5 87.8 92.2 95.1 97.2 98.4 98.8 100.2 103.1 105.9 108.1 110.7 112.6 114.2 115.2 115.6 115.5 115.2 115.1 114.7 113.9 113.2 114.7 116 117.3 120.3 123.5 126.4 129.1 130.9 132.1 133.8 135.5 136.8 138.1 139.6 141.2 142.3 143.8 145.4 146.5 147.2 147.2 146.9 146.3 145.2 144.4 145.2 146.5 147.4 148.1 148.8 148.6 148.2 147.4 146 144.4 142.5 140.4 138.5 136.5 134.5 132.2 130.4 128.2 126 123.7 120.3 116.8 113.3 112.9 110 99.2 85.6 90.8 105 112 115.1 116.4 117.9 120.1 123.2 124.9 126.1
76 74.4 71.5 68.2 67.7 73.6 81 85.3 89.7 93.9 98 100.9 102.2 101.2 97.6 93.4 88.7 82.7 74.3 77.1 82.9 82.3 79.5 75.5 71 66.3 61.7 57 52 47.4 42.7 38.9 34.5 30.5 34.7 35.7 33.1 26.2 23.3 32.6 38.2 41.6 41.8 31.6 28.6 26.4 27.8 35.7 46.8 53.4 51.5 46.3 38 23.4 -1.7 -1.7 -1.7 -1.7 21.9 39.7 48.7 53.9 56.9 59.1 61.5 64 67.3 71.8 78.9 85.7 91.2 94.6 97 97.3 95.9 90.8 82.1 72.8 65.3 60.3 57.1 54 49.3 39.2 45.1 38.9 18.3 10.6 26.4 33.1 35.1 28.1 22.3 25.3 31.4 37.6 44.9 53.7 60.9 66.9 72.6 77.4 82.1 86 89.7 92.9 95.7 97.4 98 97.3 95.3 91.8 86.7 82.7 82.8 84.6 87.8 91.1 93.4 95 96.1 96.5 96.7 97.1 99.1 101.7 105.3 108.3 110.9 113.1 114.6 115.5 115.5 116 116.4 116 116.3 116.1 117.2 118.7 120.7 122.6 125.4 127.9 130.3 132 133.2 134.9 136.4 138.2 140.2 142.3 144.2 145.9 147.4 148.1 148.5 148.8 148.4 147.6 146.7 145.3 143.9 144.2 145.4 146.4 147 147.4 146.8 146.4 146.2 145 143.8 142.4 140.6 138.9 137.1 134.7 132.5 130.4 128.3 126.2 124.5 122.2 120.2 118.7 116.8 112.7 103.3 86.8 84.6 98.8 105.8 108.7 109.1 111 116 120.3 123.2 125.2
74.6 72.4 68 62 66.2 73.7 78.9 82.5 85.7 89.3 93.5 98.3 100.9 101.7 99.6 95.9 91.3 85.3 76.1 71.1 80.3 82.1 80.2 77.2 73.5 69.7 65.4 60.5 54.9 50.8 45.7 40.6 34.8 33.2 38 40 38 31.3 23.9 21.9 25.5 31.5 20.6 12.1 11 10.6 9.3 9.1 22.2 31 34.7 31 26.2 12.4 -1.7 -1.7 -1.7 -1.7 35.2 42.1 48.3 52.4 54.6 56.5 59.2 61.7 65.7 71.8 79.3 87.2 93.1 97 99.1 99 96.7 92.3 83.9 73 64 58.4 54.5 51.1 48.1 49.8 52.9 45.8 23.9 9.2 23 43.4 50.6 44.8 38.8 33 28 25.8 32.4 41.4 51.7 60.9 68.2 73.8 79.2 84.5 88.8 92 94.8 96.4 97.1 96.5 94.7 91.3 87.7 86 85.9 87 89.2 91.4 93 94 94.6 94.6 94.2 94.1 95.3 98.1 102.6 105.7 108.5 110.7 112.7 114.4 114.9 115.4 115.4 115.6 116.1 116.9 118.1 119.5 121.7 123.9 126.4 128.4 130.2 131.5 132.7 133.9 136.3 138.5 140.8 143.4 145.6 147.6 149.3 149.7 150.1 150 149.7 148.9 147.8 146.2 144 142.5 142.9 144 144.8 145 144.8 144.4 143.7 142.9 141.9 140.8 139 137.8 136.1 133.8 131.8 129.8 127.9 126 124.6 123.1 121.7 120.3 118.3 114.8 107.3 90.4 79.3 87.7 96.7 101 101.9 105.8 112.5 118.3 121.5 123.4
72.6 69.7 63.4 59.5 67.8 72.8 76.8 79.4 82.4 85.4 89 94.1 98.8 101 100 97.4 93.1 87.1 78.4 68.9 77.3 80.7 79.9 78 75 71.9 68.3 63 57.8 52.6 47 41.4 36 36.1 40.8 42.1 40 34.8 29.7 28.3 23 19.6 19.9 25 28.7 30.2 26.8 18.3 8.3 8.2 9.9 9.8 7.4 4.9 -1.7 -1.7 -1.7 -1.7 28.7 37.4 42.8 46.8 49.6 52 54.8 58.6 63.1 70 79.9 88.5 95.2 99.3 101.3 100.4 97.5 93.4 87.4 78.2 67.9 60.4 56.1 54.5 56.6 60 61.5 55 33.3 8.1 14 30.1 46.5 56.5 56.1 50.8 46.2 40.5 30.6 31.4 40.2 51.8 62.8 69.6 75.1 80.3 85.1 88.5 91.3 93.1 94.1 94.3 92 88.4 86.4 85.5 86 87.4 88.8 90.5 91.3 91.9 92 91.7 91 90.8 92.7 94.9 97.9 101.6 104.6 107.5 110.1 111.4 112.6 112.8 112.8 113 111.9 115 117.7 119.9 121.9 124.3 126.7 128 129 129.5 130.5 132 134.4 137.2 140.5 143.8 146.2 148.7 150.1 151 151.4 151.2 151 150.2 149.3 147.7 145.6 143.1 140.7 140.2 141 141.2 140.9 140.3 139.6 138.6 137.3 136.9 135.9 134.6 133.6 131.7 129.7 128.6 127.5 126.5 125.2 123.5 121.2 119.7 117.6 114.6 109.6 98.6 82.9 76.1 82.1 87.7 95.3 103.9 110 115.2 118.8 121.2
68.4 65.3 55.9 60.1 69.5 72.1 72.8 74.7 77.9 81.9 86 91 95.6 98.9 99 96.5 92.4 85.7 75.8 65.9 73.6 79.6 79.4 78.5 76.4 73.2 69.5 64.8 59.6 53.7 48 42.6 37.3 38.5 42.7 43.6 42.4 39 39.2 39.9 39.3 37.8 42.3 47.2 46.7 46.9 44.5 34.9 20.7 9.2 7.5 6.5 4.6 4 -1.7 -1.7 -1.7 -1.7 15.1 29.7 35.5 37.5 41.4 46.7 50.8 54.9 59.8 68.3 80.1 90.2 97 101.4 103.1 102.3 99.3 95.3 89.4 82.9 75 66.8 62.4 63.7 66.9 69.4 68.7 62.4 42.5 18.9 6.8 23.5 41.8 59.2 65.3 65.1 61.9 56.3 48.7 40.6 33.6 40.8 53 63.3 69.6 74.6 79 81.6 84.8 87.9 89.5 90 88.7 84.5 81.9 81.3 82.1 84.1 86.1 87.9 89.2 89.7 89.4 88.8 87.6 87.8 90 92.6 95.2 97.3 100 102.9 105.8 107.9 109.3 109.9 110.1 110.1 111.9 114.4 116.8 119.1 121.5 123.7 125.2 126.1 126.3 125.7 126 127.6 130.5 134.6 139.6 143.8 146.6 149.4 150.7 151.5 152.1 152 152.2 151.5 150.5 149.1 147.4 145.2 142 138.2 135.7 135.8 135.6 134.7 133.9 133.1 132.4 131.8 131.1 130.3 129.7 128.9 128.1 128.1 127.5 126.5 125.1 122.5 118.6 115.8 113.4 110.5 107 101 92.1 80.1 72.2 82.4 95.1 100.7 106 111.3 115.5 117.7
63.1 56.8 52.3 64.6 69.6 69.9 68.6 68 71.1 77.5 82.3 87.2 92.8 96.3 96.7 93.8 88.9 79.7 68.6 60.5 70.6 77.9 79.2 78.3 76.6 73.3 69.2 64.1 58.8 53.2 47.8 43.1 40.2 42.9 45.4 46.3 45.6 44.8 47.4 52 54.2 56.8 60.4 63.5 62.4 60.3 55.5 48.4 37.9 27 15.4 9.6 9 11.8 9.1 -1.7 -1.7 -1.7 -1.7 9.8 21.1 33.4 39.2 45.4 49 53.1 57.5 68.4 80 90.6 97.3 101.4 102.2 101.2 98.8 94.7 89.9 85 79.8 75.3 72.3 71.6 72.1 72.5 72.1 67.3 51.8 25.3 6.5 17.9 39 59 67.4 70.7 71.4 69.4 63.9 55.9 46.5 36 42.4 52.7 62.2 66.9 71.2 73.9 77 80.5 83.8 84.5 84.2 81.4 78.4 75.4 75.5 77.7 80.8 84 86 86.6 86.4 85.6 83.9 85.1 87.7 89.7 91.8 93.7 95.7 97.8 101.1 104 105.5 106 106.2 108.7 111.3 113.8 116.1 118.4 120.6 122 123.2 123.5 122.9 120.7 120 123.1 127.8 133.6 139.1 143.5 147.3 150 151.3 152 152.8 152.9 152.7 152.5 151.6 150.4 148.7 146.6 144 140.7 135.9 131.2 129.3 128.4 127.1 126.3 126.1 125.5 124.1 124.1 124.7 125.5 126.6 127.3 127 125.9 124.5 121.7 117.7 112 106.1 104.4 101 97.5 92.8 87.7 73.9 78.5 87 90.4 96.3 104.3 110.2 113.4
55.8 48.5 56.2 65.8 68.2 67.6 64 62.5 66.3 72.3 78.2 84.6 90.6 94.1 94.2 90.5 83.6 71.1 58.2 60.9 72.1 77.7 78.7 78.1 76.3 73 68.6 62.9 57.3 51.8 46.5 43 44.6 46.2 48.1 49.7 51 53.4 57.9 63.3 67.5 70 71.7 72.1 70.3 66.5 61 54.2 47 37.9 27.5 24.8 26.9 28.5 26.1 -1.7 -1.7 -1.7 -1.7 23 41.7 45.4 48 49.7 51.8 55 59.3 69.6 81 89.8 95.8 99.5 100.2 99.1 96.5 93.2 89.3 84.8 80.5 77 74.9 73.7 73.6 73.7 72.7 68.9 53 29.9 9.6 14.8 38.5 58.4 65.8 70.6 74.3 75.7 74.6 70.3 62 50.9 38.5 40.7 50.4 55.8 59.6 61.4 66.4 71.2 74.9 77.7 77.8 76.5 73.8 70.4 70.1 71.8 74.9 78.8 81.5 82.9 82.9 81.5 79.4 81.6 83.9 84.9 86.2 87.7 90 92.6 95.6 99.1 101.1 101.1 104 107.6 110.2 112.7 114.9 117 119 120.1 120.7 120.8 119.3 116.2 117.1 121.8 127.9 133.7 139.7 144 148 151 152.5 153.4 153.8 153.8 153.5 153.3 152.9 151.6 149.9 148.1 145.2 141.6 137.2 132.6 127.5 124 120.6 118.9 117.6 116.7 114.1 115.4 118.2 120.8 123.8 125.5 125.3 124.6 122.7 119.9 116.4 111 102.5 94.6 90.4 82.8 78.8 78.3 74.9 67.4 70.3 72.2 78.8 90 100.7 107.6
49.1 47.1 60.5 67.2 67.5 65.3 61 58 62 69.3 76.2 82.6 88.2 91.9 92.2 88.3 78.3 61.4 51.2 63.1 73 76.7 77.9 77.4 75.2 72.2 68 63.3 58.1 52.9 47.5 46.6 49.3 50.7 52 53.8 56.7 61.2 66.5 70.9 73.5 75.3 76.8 76.4 74 69.8 63.8 56.9 50.5 43.9 37.2 35.9 36.2 35.4 30.3 5.9 -1.7 -1.7 -1.7 19 46.8 49.9 52.6 54.7 56.6 58.7 65 72.6 81.5 89.1 94.4 97.2 97.5 96.3 93.8 90.5 86.7 82.6 78.3 75 72.8 71.9 71.7 71.4 70.9 68.4 54.6 32.5 10.2 12.4 38.4 55.8 62.9 69.1 74.4 77.8 78.8 77 72.7 65.8 53.6 44.2 41.3 43.4 45 47.5 51.2 56.6 62.4 66.4 67.5 67.3 66.6 64.6 64.6 66.9 70.6 73.8 76.7 78.1 77.4 74.4 74.5 77 78.6 79.7 80.7 81.8 83.6 86 88.4 91.8 94.4 98.6 102.9 106.3 108.7 110.2 112.2 114.1 115.6 116.4 116.5 115.6 113.6 111.8 116 121.5 127.3 134 140.2 144.9 149.2 151.9 153.6 154.6 154.7 154.6 154.4 154.1 153.8 152.7 150.9 148.6 145.4 141.5 137 132.8 129.4 128.6 126.6 123.9 119.2 116.2 113.2 108.8 109.3 115.5 119.8 121.8 122.4 121.8 120 116.7 112.3 106.2 98.8 89.3 79.1 73.6 74.7 72.3 69.4 67.5 68.8 64.4 62.7 73 84.5 95.1
42 50.6 64.5 68 67.3 63.7 56.9 53.7 57.7 66 72.9 79.4 84.5 87.8 88.6 85.6 74.4 58.6 50.5 63.5 70.9 74.6 76.3 76.4 75 72.2 67.5 62.9 57.9 52.9 49.7 50.2 53.2 54.9 56.4 58.6 61.7 65.6 70.2 73.1 74.9 76.4 77.2 76 73.5 69.8 64.4 58 51.9 48.1 44.1 43.3 40 35.8 27.7 -1.7 -1.7 -1.7 -1.7 -1.7 45.5 51 54.9 58.2 61.4 65.3 70.7 76.7 83.6 89.5 93.5 95.8 95 93.2 90.4 86.6 82.4 78.2 73.8 69.9 67.1 66.3 66.5 66.2 65.3 62.4 51.8 32.1 7.6 12.9 35.1 52 60.1 67.1 73.7 78.9 80.8 79.9 77.5 74.1 67.8 58.6 48.1 48.1 53.1 55 53.9 52.4 53.2 56.3 56.9 57.7 58.9 59.8 61 62.5 64.6 68 70.4 71.6 69.9 68.8 70.3 72 73.8 75.4 77 77.8 78.8 80.5 82.7 86.7 91.9 97.2 101.3 104.1 105.3 106.2 107.5 109.1 109.5 109.7 108 105.8 106.5 112.3 116.5 120.7 126.1 132.9 139.3 145.4 149.7 152.6 154.2 154.8 155.1 155.3 155.2 154.6 154.1 153.1 151.1 148.6 145.4 141.9 138.1 135.4 134.4 133.5 131.8 130.1 127.3 123.9 120 114.1 106.5 107.9 113.4 115.4 116 115.8 114.5 111 103 91.1 83.8 80.4 76.4 86.2 90.2 87.9 85 84.9 86.2 78.2 60.5 59.5 67.8 79.6
45.8 57.9 64.9 68 66.9 62.6 55.1 50.5 52.6 60.4 67.9 73.8 79 82.6 83.7 80.9 71.5 56.4 45.2 56 67.9 72.6 74.4 74.6 74.1 71.6 68.3 63.4 59.2 55.6 52.6 53.9 56.8 58.1 61.4 64.2 66.4 69.1 71.3 73 74 74.5 74.5 73.3 70.6 67.1 61.9 56.8 51.1 48.5 46.1 43.3 39.1 33.1 16.3 -1.7 -1.7 -1.7 -1.7 -1.7 41 50.4 57.3 62.2 65.8 70.5 74.8 79.4 84.1 88.1 90.4 92.1 91.8 89.5 85.7 81.5 76.7 71.4 65.8 61.4 57.3 56.8 56.6 54.7 50.4 45.1 40.8 26.7 -1.7 12.9 32.6 49.6 57.9 66.2 74.1 79.2 82.3 82.8 80.9 78.1 74.9 68.8 56.7 54.6 66.2 69.7 68.4 64.8 60.7 57 55.4 55.9 56.1 57.1 59.1 60.7 62.3 62.9 63.8 64.8 66 66.6 67.3 69.2 70.7 72.1 73.9 74.7 75.5 77.2 80.4 84.7 90.5 95 98.3 100 100.8 99.8 99.2 98.7 98.1 98.6 102.6 109 115.3 118.7 121.3 123.5 127.6 133.2 139.6 146.2 150.3 152.4 153.4 154 154.3 154.4 154.2 154.4 154 152.6 150.6 148.6 145.9 143.3 140.8 139.3 138.8 137.7 136 134.4 131.1 126.7 122.6 117.8 111.3 103.6 101.3 101.1 102.9 102.9 102.5 100.8 90.2 82.3 83.6 83.9 88.3 98.1 102.2 102.8 102.2 101.9 99.1 89.8 73.3 63.5 55.7 66.3
51.3 59.2 65.1 68.1 66.8 62.5 55.3 49.1 48.4 52.7 60.8 68.1 73.2 77 78.7 76.4 68.9 54.4 42.1 52.9 65.7 69.5 71.8 72.6 72.5 71 68.9 65.5 61.7 58.5 56.4 57.2 58.3 60.1 61.9 64.5 67.3 69.1 70.5 71.5 71.2 71.9 71.2 69.6 66.5 62.4 57.5 52.3 48.1 45.5 44.1 40.6 35.5 28.3 9.8 -1.7 -1.7 -1.7 -1.7 -1.7 41.9 50.9 58.5 64.6 68.9 73.1 76.7 80.5 83.6 85.7 86.1 86.9 86.5 84.3 80 73.6 67.4 61 54.5 50.5 46.6 41.6 35.1 26.9 -1.7 -1.7 16.2 11.4 -1.7 15.4 35.5 49 57.8 66.1 74.6 79.5 82.5 83.9 83.4 81.4 77.9 72.8 62.4 57 70.2 75.3 77.2 76.9 73.8 68.1 62.6 58.6 57.3 56.9 58.6 59.9 61.1 62 63.2 66.5 69.8 69.5 68.7 68.5 69.2 70.5 71.4 72.2 72.9 75.3 78.2 82.2 86.5 91.1 94 95.9 95.8 89.7 86.3 93.2 100.8 107 112.2 118.1 121.6 124.3 126.4 128.5 131.5 135.3 140.6 146.1 149.9 151.6 152.3 153.1 153.3 153.2 152.9 152.9 152.3 151.5 149.6 147.4 145.5 143.5 142.9 142.4 141.5 140.9 139.2 136.7 132.6 127.8 123.3 119.8 114.9 111.8 108.2 101 95.5 91.9 89.7 87.6 84.3 91.8 97 98.3 101.6 106.5 109.1 110.9 111.1 109.8 107.3 101.1 92.2 80.5 62.4 54.6
51.3 58.7 63.7 66.4 65.8 61.7 55.7 49.5 45 45.9 51.8 61.3 68.1 73.1 74.6 72.9 66 51.9 39.1 49.5 60.4 65.4 67.8 69.5 70.4 70 68.1 65.9 63.3 60.4 57.8 57.4 57.5 58.2 60.1 63.3 67.2 69 70.4 71 70.4 69.8 65.5 65.3 61.4 56.9 51.1 45.3 41.9 40.8 39.8 36.3 29.9 18.1 -1.7 -1.7 -1.7 -1.7 -1.7 25 43.6 54 61.4 67.2 71.3 74.9 77.5 79.1 80.4 80.4 80.4 81.2 80 77 72.6 67.5 61.6 53.9 42.5 34.7 30 18.9 -1.7 -1.7 -1.7 -1.7 -1.7 -1.7 -1.7 24.6 39.3 49.9 60.2 69 76.2 80.6 83.3 85.1 85.1 84 80.6 76.2 66.7 57.7 70 78.5 82.2 82.7 80.2 75.2 68.9 62.7 60 58.8 59.5 61 61.9 63.8 66.7 71.1 74.6 75.2 73.9 72.3 71.4 70.7 70.8 69.4 70.9 73.3 76.1 78.1 82 85.9 89.1 89.7 85.1 82.4 96.5 104.7 110.2 115 119.3 122.7 124.8 126.5 128.4 130.5 132.8 136.9 141.3 145.5 149.2 151.1 151.8 152.3 152.4 152.2 151.8 150.9 150.2 149 147.4 145.7 144.8 143.8 143 142.9 142.6 141.9 140.2 137.1 133 127.9 123.9 120.8 119.3 118.6 115 110.2 104.2 98.7 93.9 88.7 92 101.3 103.5 104.4 107.7 110.9 112.8 113.5 113.8 113.3 112.1 110 104.5 92 73.2 56.2
50.2 57.3 61.9 65.3 65.4 62.7 57.2 50.7 44.2 41.6 43.9 53 62.1 67.7 70 67.3 59.1 43.9 40.8 51.1 58.9 62.1 64.8 66.6 67.7 67.7 66.1 63.4 60.5 58.2 56.7 55.8 55.1 55.7 57.9 61.6 65.5 68.2 69.7 70.5 70.8 70.2 67.5 63.7 52.9 46.3 39.6 36.5 35.5 34.9 33.8 29.8 22 -1.7 -1.7 -1.7 -1.7 -1.7 -1.7 22.8 42.9 54.3 62.9 69.4 73.2 75 74 72.4 70.3 64.4 61.8 65.5 67.7 67.4 63.7 61.1 55.3 45.8 31.6 18.5 10.1 1.1 -1.7 1.1 8.6 14.1 9.5 15.3 26.8 35.2 41.7 52.1 63.2 71.7 77.3 81.4 84.2 86.3 86.6 85.5 83 79.5 70.8 60.2 69.6 81.6 86.8 87.5 85.6 81.2 75.2 67.6 63 60.9 61.4 62.6 64.9 68 71.3 75.7 79.9 81.6 80 77 74.1 72.2 71.1 67.4 66.2 70.7 73.2 74.9 76.4 79.5 82.4 77.1 74.6 89.7 101 107.8 112.5 117 120.6 123.4 124.8 125.7 127.4 128.6 131.8 135.6 139.9 144.3 147.7 150.1 151.2 151.4 151.8 151.3 150.5 149.1 147.7 145.4 143.6 141.6 141.7 142.4 142.2 141.9 141.7 140.7 138.7 135.7 131.9 127.8 124.8 123.2 122.5 120 116.8 111.8 106.3 98.8 92.7 92.3 101 106.3 108.2 109.8 111.3 112.1 112.5 111.6 111.4 110.6 109.9 109 106.2 99.5 84.8 65.6
49.7 56 61 64.2 66.5 65.6 61.8 55.3 47.6 41.3 39.7 43.8 53.6 60 60.9 56.7 46.9 35.7 48.6 60.9 63.1 63.4 64.4 64.8 65.1 65.4 63.7 60.7 57.7 54.7 52.7 51.3 50.3 49.8 52.5 56.8 62.1 66.5 69 70.5 71.5 70.9 68.5 66.3 60.6 54.3 44.3 33.7 28.1 27.2 24.7 21.5 5.8 -1.7 -1.7 -1.7 -1.7 -1.7 -1.7 -1.7 40.4 52.7 62.6 68.6 71.1 69.6 63.5 50.5 44 37.4 34.7 38 41.3 45.7 48.3 48.1 40.8 29 16 -1.7 -1.7 -1.7 -1.7 12 22.5 30.7 28 22.4 30.3 38.8 46.1 56 64.7 72.4 77.7 81.1 84 86.1 87.1 86.9 85.3 81.9 72 64.2 74.3 86.5 91 92.5 90.5 86.9 81.7 74 66.5 63.5 63.3 65.1 67.8 70.9 74.4 78.2 82.4 84.8 83.4 80 76.7 74.5 71.9 67.9 60.7 62.1 66.9 68.1 68.9 69.3 67.2 65.3 78.9 92.1 100.2 106.2 111.4 116.3 120.2 122.9 123.9 124 124.4 125.5 128 131.9 137.1 141.7 145.7 148.6 150.7 151.3 151.8 151.1 150 147.6 144.6 141 136.9 136.1 137.9 139.4 139.6 139.7 139.5 138.3 136.2 133.5 131 128.2 126.1 124.5 122.7 119.8 115.9 111.7 106 97.9 95.1 103.8 110.2 111.8 111.8 111.2 110.9 109.8 108.6 107.3 106 104.7 103.6 102.1 99.7 94.4 85.4 70.6
46.3 52.8 57.8 62.1 66.3 68.5 66.3 61.2 54.4 46.5 38.7 37.9 44 50.2 48 39 32.3 42.8 57.3 64.5 65.8 65.4 64.6 63 61.8 61.6 60.6 58.1 55.1 50.9 47.4 44.4 40.4 44.4 52 58.3 63.2 67 69.5 71.8 73.1 72.7 70.9 68.8 64.2 58.3 49.8 38.3 24 16.8 15.1 6.7 4 -1.7 -1.7 -1.7 -1.7 -1.7 -1.7 -1.7 40.6 52.6 59.2 63.3 63.3 57.8 42.1 26.5 -1.7 -1.7 -1.7 -1.7 -1.7 18.8 24.6 27.8 22.4 11.6 -1.7 -1.7 -1.7 -1.7 17.8 28.2 38.1 43.5 42.6 33.7 29.5 35 44.6 55.3 63.5 70.4 75.9 79.7 82.9 85.6 87.2 87.6 87.3 82.7 70.5 71 82.3 89.8 93.7 95.3 94.1 91.1 86.8 80.1 71.4 67.1 65.9 67.2 70 73.1 75.9 79 83.2 87 87.3 84.3 79.8 76.7 73.7 70 63.9 53.7 54.4 59.1 57.7 53.3 61.2 72.1 80.9 90.4 98 103.5 109.2 114.7 118.9 121.2 122 121.3 121.1 122.3 124.7 128.7 133.9 139.4 144.1 147.7 150.3 151.2 151.6 150.9 149.2 145.8 141.7 134.5 131 132.6 135.1 136.6 137.2 137.3 137 135.9 134.2 132.2 130.1 127.6 125.9 124.5 122.3 118.8 114.3 109 103.5 98.1 105.2 112.9 114.1 113.9 112.9 110.9 108 105.4 102.6 100.6 98.8 97.6 95.6 90.5 81.8 72.2 64.3 59.2
40.4 47.3 53.2 58.9 63.5 67 67 65 61 55.1 46.1 36.7 35.8 39.1 36.1 28.7 44.2 54.4 62.3 66.8 68.1 67.8 66.5 63.8 60.8 58.4 57 54.4 51.2 48.9 43.9 37.2 46.7 52.7 59.3 64.1 68.3 72.2 73.8 75.1 75.8 74.9 72.3 69.4 64.6 58.4 51.1 41.2 29.5 17.7 9.1 3.2 -1.7 -1.7 -1.7 -1.7 -1.7 -1.7 -1.7 -1.7 37.1 46.9 48.7 47.7 45.9 36.2 17 -1.7 -1.7 -1.7 -1.7 -1.7 -1.7 -1.7 -1.7 2.5 3.8 -1.7 -1.7 7.3 19.2 26.6 36.9 47 53.9 58.9 57.2 51.8 44.9 38.5 45.3 55.7 63.2 68.2 73.1 78.1 82.3 85.4 87.5 88.6 88.8 85.3 72.5 77.3 87.4 91.6 94.3 95.9 95.6 93.1 89.4 83.9 76 70.8 69 69.6 71.8 74 76.3 79.4 83 87.1 88.6 87.6 83.9 79.6 75.6 72.6 68 61.5 55.6 46.2 42.6 53 64.4 72 79.4 87.6 94.7 100 105.6 112 116.4 118.6 119.3 118.6 117.8 118.9 123.1 128.2 133.9 139.3 144.2 147.4 149.9 150.9 151.1 150 147.7 144.1 138.4 128.9 125.1 129.7 131.7 132.8 133.9 134.9 134.6 133.7 132.5 130.1 127.8 125.5 124 122.7 120.4 116.5 111.4 105.3 101.9 105.5 114.2 116.5 116.3 114.5 112 108.8 105 101.2 96.9 93.5 91.4 90.2 86 71.6 62.3 52.6 49.9 47.6
31.3 38.1 45.7 53.7 59.4 63.2 65.3 65.7 64.1 60.7 55.3 46.1 35.9 29.1 26.9 32 48.6 61.9 66.8 69 69.8 69.4 67.6 64.5 60.9 58.7 56 52.8 48.8 44.6 37.7 42.1 52.8 58.9 63.6 67.9 71.6 74.8 76.3 76.4 76 74.1 71 67.3 61.6 55.1 48.6 39.5 30.8 17.9 8.1 -1.7 -1.7 -1.7 -1.7 -1.7 -1.7 -1.7 -1.7 4.5 19.1 27 27.6 28.1 25.5 13 -1.7 -1.7 -1.7 -1.7 -1.7 -1.7 -1.7 -1.6 -1.7 -1.7 -1.7 -1.7 0.4 17 33.6 45 55.8 63.3 68.1 69.9 68.7 64.5 57.1 48.1 46.9 57 65.1 71 75.8 80.4 84 87.3 89 90.4 90.3 89.5 77.8 76.1 86.8 91.4 93.8 95.2 96.1 94.3 91.7 86.9 80.1 74.7 72.2 71.5 72.1 73.7 75.9 78.3 81.5 84.5 86.9 87.5 86.3 82.8 78.1 74.5 71.1 67.5 61.6 46.1 36.5 43.5 52.8 63.7 74.4 84.3 91.7 97.6 103.8 109.7 113.8 116.3 115.9 114.5 113.9 117.6 123.1 129.2 135.4 140.7 145.1 148.1 150.1 150.6 150.5 148.9 146.3 141.8 135.7 124.1 120.8 126.2 127.8 129.1 131.9 134.2 134.5 133.2 131.9 129.3 126.3 122.9 120.9 118.9 115.8 111.1 107.6 106.2 109.9 115 118 118.8 117.9 116.1 112.5 108.3 104.1 99.9 96.2 92.1 86.8 81.7 74.5 58.2 64.9 67.5 66.7 62.5
27.6 28 34.9 44.6 53.1 58.7 62.2 64.6 64.4 62.5 59.3 54.4 45 32.4 24 33.3 49.1 65.3 71.4 73 72.3 70.7 68.4 66 64.4 63.6 60.8 56.7 52.9 48 37.7 37.9 51.5 58.3 62.6 66.7 70.1 73.3 74.5 73.3 72.6 71.5 68.2 63.4 57.3 50.3 43 30.9 17.4 -1.7 -1.7 -1.7 -1.7 -1.7 -1.7 -1.7 -1.7 -1.7 -1.7 -1.7 -1.4 0.7 1.1 2.1 1.1 -1.7 -1.7 -1.7 -1.7 -1.7 -1.7 0.8 0.7 0.4 0.1 -0.4 -0.5 -1.7 4.9 24.8 42.1 59.1 69.8 75.1 76.9 76.9 75.4 71.8 65.9 57.4 50 56.4 65.5 72.9 78.3 82.7 86.4 89.6 91.7 93.1 93 92.8 86 76.9 84.4 89.8 92.7 94.6 96 95.3 92.5 88.6 83.4 77.5 74.1 72.6 71.5 71.6 72.1 74.2 77.5 79.7 82.3 84.4 85.5 83.7 80 76.4 72.9 68.5 59.1 44.4 33.6 33.7 41.3 52.6 64.2 76.4 87.3 95.1 101.9 107.5 112 113.9 113.2 111.1 112.1 117.8 123.4 130.3 136.6 141.5 145.9 148.5 150 150.1 149.1 147.2 143.8 138.9 131.7 116.7 115.4 120.9 124.7 129.1 132.8 134.8 134.7 133.7 132 129.4 125.7 121.9 117.9 115.6 112.5 111.7 112.5 116.3 119 119.9 120.4 120.1 119.4 117.3 113.9 109.7 105.7 101.8 97.8 93.1 88.5 74 62.1 70.5 81.3 85.4 84.3 78.6
38.1 27.4 24.6 32.9 45.7 53.3 59.3 62.6 63.4 62.5 59.5 54.1 43.7 31.5 26.7 37.2 53 66.7 73.2 75.5 75.3 73.4 71.4 69 67.3 65.4 62.2 57.8 53.7 46.8 35.2 35 47.8 55.6 60.2 64 67.2 70.1 71.6 71.5 71.2 67.7 62 55.6 48.1 40.9 29 15.9 -1.7 -1.7 -1.7 -1.7 -1.7 -1.7 -1.7 -1.7 -1.7 -1.7 -1.7 -1.7 -1.7 -1.7 -1.7 -1.7 -1.7 -1.7 -1.7 -1.7 -1.7 17.2 8 16 19.2 13.8 6.7 1.5 1.6 11.2 22.4 37.6 54.8 69.4 77.8 82.2 83.7 82.4 79.8 76 71.7 65.4 57.6 56.7 64.4 72.7 79.1 84.5 88.2 91.6 94.4 95.8 95.7 95.3 90.9 82.3 82.7 87 90.3 93 95.1 95.4 93.1 89.1 84.5 79.4 75.6 72.3 69.6 67.7 66.3 66.7 69.3 72 75 79.2 82.6 83 81.2 78 73.3 69 61.6 45.9 31.3 29.9 36.5 46.9 54.7 69.1 80.2 89.7 97.7 104.4 109.2 110.9 109.7 108.4 112.5 118.3 124.5 131 136.8 141.8 145.8 148 148.9 148.5 147 144.3 140.2 134.3 127.1 112.9 107.4 118.4 127.1 132.2 134.7 135.3 135.1 133.8 131.9 128.7 125.1 122.6 121 119.8 118.5 117.8 117.7 119 119.4 119.6 119.1 118.5 117.7 116 113.2 109.5 106 102.3 97.2 90.7 81.6 68.7 72 83.7 96 100.4 99.8 93.6
43.1 38.6 28.9 24 41.1 49.9 56.7 60.8 62.5 61.9 58.3 49.1 38.2 25.3 31.9 43.1 59.2 71.1 74.8 75.8 75.7 75.5 74.4 71.5 68.8 66.3 62.4 58.3 53.3 45.3 32.7 31.5 43.2 51.7 57.3 61.2 64.3 66.5 67.7 69 67.4 61.6 54.9 46.6 37.8 27.1 15.8 -1.7 -1.7 -1.7 -1.7 -1.7 -1.7 -1.7 -1.7 -1.7 -1.7 -1.7 -1.7 -1.7 -1.7 -1.7 -1.7 -1.7 -1.7 -1.7 -1.7 -1.7 17.7 32.3 20.9 24.8 37.9 36.8 33.6 30.1 26.9 29.9 39.8 53.8 67.6 78.5 84.4 87.4 87.5 86.8 83.9 80.4 75.8 70.9 65.3 63.2 66.1 73 80.1 85.5 90 94.1 97.1 99.1 98.9 97.7 94.5 88.2 83.9 85.4 88.8 92.1 94.7 95.2 94 90.1 85.7 81.4 77 72.8 68 63.5 60 57.1 57.2 61.1 66.8 72 75.5 78.2 79 77 70.9 65.8 58.6 41.2 24.8 27.5 38.6 58.5 75.4 76.3 73.4 82.3 91.7 98.1 103.3 105.2 105.4 108.5 113.9 119.7 125.8 131.3 137.1 141.9 145.2 146.8 147.4 146.5 144.4 140.8 136 129.4 118 104.1 105.1 123 130 133 134.7 135.3 135.1 134.1 131.5 129.1 127.1 125.8 124.6 123.3 122.1 120.9 120 119.7 118.3 117.5 116.7 115.9 114.9 113.5 111.7 108.9 105.6 102.1 97.6 89.4 75.3 71 82.1 95.3 102.4 105.3 106.6 104.5
41.9 38.3 31.7 23.6 30.2 44.5 53.8 58.9 61.1 59.6 52.3 40.5 29 27.8 42 53.4 66.6 75 77.7 78.3 77.7 77.2 76.2 73.6 70.8 67.4 62.9 57.6 50.7 43.5 31.3 27.3 39.6 48.4 54.2 58 60.6 62.4 63.4 63.7 61.3 55.8 47.4 36.8 22.8 14.6 -1.7 -1.7 -1.7 -1.7 -1.7 -1.7 -1.7 -1.7 -1.7 -1.7 -1.7 -1.7 -1.7 -1.7 -1.7 -1.7 -1.7 -1.7 2.1 6.6 7.8 5.3 13.7 32.2 33.8 30.7 45.6 51.3 51.8 51.1 51.1 54.3 60.1 69.5 80.3 87.5 90.5 92 92 91.3 89.7 86.6 82.5 77.8 72.5 70.9 71.6 74.6 80 85.8 91 96.5 99.8 102.4 102.3 101.7 97.7 92.3 88.9 88.5 90.8 94.5 96.4 97.1 96.4 93.1 89.6 85.2 80.7 73.9 67.1 61.8 55.6 50.7 49 52.9 60.6 65.7 68.8 70.9 72.3 70.6 66 60.2 52 35.5 21.7 26.6 43 64.5 82.9 87.7 83.8 83.9 89.2 94.7 100.1 105.3 108.3 113.3 117.5 122.1 127.2 132.5 137.7 141.5 144 145.6 145.3 143.6 140.1 135.6 125.6 109.3 99.6 95.3 105.5 121.4 128.7 132.8 134.3 135.6 135.7 135 133.7 132.3 130.8 129.3 127.9 126.4 125 123.4 121.9 119.1 117.4 114.4 113.3 112.3 111.8 111.2 110.1 108.1 105.1 101.5 96.9 90.2 77.1 73.1 85.3 94.2 101.1 106 109.2 110.4
33.1 28.5 24.6 20.9 26.1 38.9 49.9 56.5 59 55.9 42.7 30 21.1 34.4 49.8 63.2 72.4 78.2 81.1 80.9 80.1 79.7 78.4 75.9 72.7 69.5 65.1 59.8 50.9 40.9 29.2 23.6 38 45.8 50.5 54.2 56.3 57.5 58.5 58.8 56.2 49.6 38.4 21.8 -1.7 -1.7 -1.7 -1.7 -1.7 -1.7 -1.7 -1.7 -1.7 -1.7 -1.7 -1.7 -1.7 -1.7 -1.7 -1.7 1 1.6 15 21.3 26.7 29.2 28.1 25 23 34.8 44.3 41.9 49.6 60.3 66 68.4 70.6 74.6 80.3 86.9 93.3 96.3 97.8 99 100.2 100.4 99.5 95.2 90.6 85.8 81 78.2 78.9 80.8 83.1 86.9 91.8 97.1 101.4 104.7 106.6 106 102.4 97.3 93.3 93.4 95.3 97.1 98.7 99.9 100.1 98.9 96.7 92.6 87.1 75.7 65.2 58.7 52.8 47.8 41.2 44.6 54.9 59.9 62.6 64.1 65.4 64.2 59.3 53.4 47 31.1 19 25.6 46.4 71.6 85.4 90.8 94.1 97.4 103.6 108.8 112.3 115.4 118.5 121.3 123.1 125.6 129.2 133.9 137.9 141.2 143.1 143.5 142.3 139.6 135 124.9 106.7 93.3 88.3 96.5 110.2 122 127.9 132.5 135.4 137 137.8 137.3 136.4 135.1 133.6 131.7 129.8 128.1 126.4 124.7 122 118.7 115.1 111.7 109.7 108.8 108.4 108.3 107.7 106.2 102.9 98.9 93.9 85.2 75.8 73.7 82.4 90.2 98.1 103.9 108.6 110.1
33.2 34.3 32.2 21.7 22.5 32.5 44 52.1 55.3 50.5 35.1 23.2 24.2 40.3 55.6 69 76 80.7 83.2 82.9 81.9 82.1 80.6 78.7 75.5 72 67.7 62.8 56.3 47 32.4 18.5 33.9 42.6 46.7 49.8 51.5 52.2 52.3 51.1 47.4 36.2 -1.7 -1.7 -1.7 -1.7 -1.7 -1.7 -1.7 -1.7 -1.7 -1.7 -1.7 -1.7 -1.7 -1.7 -1.7 -1.7 10.3 20.7 24.3 29.5 36.2 44 49.9 50.8 49.5 46.6 43.2 44.2 51.7 54.9 56.2 63.9 72.1 76.7 80 85.7 92 96.7 101 104.9 107.8 110.4 112.4 112.5 110 105 99.4 95.3 92.3 90.6 91.7 93 92.2 93.3 96.6 100.1 103.8 107.9 110.2 110.6 108.5 104.4 100.3 98.3 98.7 99.3 101.1 103.5 104.8 104.7 101.2 94.4 86.8 76 62.9 54.1 48.4 45 44.5 33.3 44.6 52 55.5 58.2 59.5 58.1 54.2 48.6 43.7 31.2 15.9 27.8 50.1 70.6 80 87.6 95.1 102.6 109.8 116.5 120.7 123.8 127.2 128.5 129.2 129.9 132 135.8 138.8 141 142 141.3 138.9 134.7 127.3 107.2 91 82.2 88.4 102.2 116.5 123.7 128.8 132.8 136.4 138.4 138.7 137.8 136.6 134.9 133.3 131.4 129.6 128.2 126.4 124.2 121 117.4 113.4 109.4 106.2 105.3 105.3 105.5 105 102.8 98.5 93.4 85.3 77.9 74.4 76.8 83.2 90.1 96.8 102.6 106.9 109.8
44.3 45.7 43.6 29.9 19.5 26.6 37 46.2 50 45.6 30.5 19.3 29.2 45.4 61.2 71.8 77 80.2 82.6 83.2 81.7 82.5 82.3 80.8 78.5 75.1 71 66.5 60.9 52.3 37.3 19.4 29 37.8 41.5 44.6 46.7 46.9 45.2 42.5 31.9 -1.7 -1.7 -1.7 -1.7 -1.7 -1.7 -1.7 -1.7 -1.7 -1.7 -1.7 -1.7 -1.7 -1.7 -1.7 -1.7 -1.7 29 38.6 43.7 51.1 58 64.6 69.4 70.9 69.5 66 61.4 57.6 60.3 63.9 65 66.7 71.4 76.5 81.7 88.3 94.2 99.7 105 110.4 114 116.6 117.8 116.8 113.4 109.2 105.8 103.5 103.1 103.4 103.8 104.4 104.4 104.3 105.5 107.5 109.4 112.5 114.3 114.6 113.5 111.2 107.6 105.2 103.5 103.8 104.4 106.5 108.1 107.6 104 94.8 86.2 76.9 63 47 36.7 36.6 36.1 28.1 31.7 39.5 42.6 48.3 51.9 51.4 47.7 40.5 34.8 21.5 8.3 32 50.2 58.7 69.4 83.3 95.3 105.3 112.2 119.6 126 129.6 132.4 134.1 135.1 135.5 136.4 138.4 140.9 141.8 140.8 138.7 134.6 128.3 112.9 91.2 78 80.9 92.4 108.4 117 123.3 127.6 132.2 135.6 137.1 137.2 136.4 134.9 133 131.3 130.2 128.6 127.1 125.2 123 119.6 116.1 112.2 107.9 104.2 101.8 102.4 102.3 101 97.8 93.5 86.2 79.4 76.8 78.3 80.6 85.1 90.2 96.2 102 105.9 108.6
50.9 52.9 51.6 39.1 22.2 19 28.6 38.6 43.7 40.1 25.7 17.4 32.5 48.6 63.9 72.3 76.5 79.2 80.2 80.5 80.7 82 82.4 81.7 80.5 77.9 73.7 69.8 65.4 57.6 43.6 25.9 17 27.1 33.7 38.8 42.2 41.9 40.3 35.6 23.7 -1.7 -1.7 -1.7 -1.7 -1.7 -1.7 -1.7 -1.7 -1.7 -1.7 -1.7 -1.7 -1.7 -1.7 -1.7 -1.7 25.9 40.2 48.7 58.6 66.6 71.2 75 78.6 81.5 81.1 77.7 72.9 68.5 68.6 70.8 71.7 72.3 75.2 79.7 84.3 89.6 94.7 99.6 105.4 110.9 114.6 117.6 118.7 116.8 112.5 108.5 106.3 106.3 107.3 109.3 111.2 111.3 111.4 112.2 113.3 115 116.2 117.3 118.2 119 118.4 117.1 114.5 112.5 110.6 110 109.9 110.4 111.3 110.1 105.5 98.3 85.3 74 61.7 42.8 23.4 13 12.9 15.4 6.6 11.7 27.7 23.5 38.9 39.5 33.9 20.7 1.8 -1.7 1.6 32.6 39.9 44.2 58.1 73.6 87.2 98.6 109.9 119.3 127.6 132 134.7 137 138.5 139 139.4 140.5 141.1 140.9 139.2 136.3 130.7 121.7 102.3 80.5 74.3 88.8 102.1 110.5 116 121.3 125.8 129.2 132.5 134 134.1 133.7 132.5 130.8 129.4 128.2 126.8 125.2 123.4 121.2 118.1 114.7 110.7 106.6 102.6 99.6 98 98.1 96.8 93.5 88.1 81.8 80.5 82.3 83.5 85.3 88.1 92.3 97.5 102.9 106.5 108.2
53.2 55.5 55.7 49.3 33.4 16.9 19 27.8 34.8 30.3 18.7 19.7 35.1 50.4 65 72.1 76.2 78.1 77.5 74.9 75.4 78.2 80.2 81 81.7 80.5 77.7 74.5 69.6 63.1 52.4 35 15.1 12.4 18.5 27.8 33.7 35 32 25.9 -1.7 -1.7 -1.7 -1.7 -1.7 -1.7 -1.7 -1.7 -1.7 -1.7 -1.7 -1.7 -1.7 -1.7 -1.7 -1.7 5.5 35.3 47.2 58.9 68.1 75.2 81 84.7 86.7 88.8 89.5 86.2 81.9 77.9 76.6 77.3 78.3 78.9 82.1 86.5 89.9 94 97.6 101.4 105.9 110.9 113.7 115.4 115.7 112.8 107 103 102.7 102.6 105.8 109.8 113.1 114.6 115.3 116.1 118.2 120.2 121.1 122.1 122.8 123.2 123.1 122.4 121.2 120 118.9 117.6 116.9 117 116.5 112.6 106.5 98.3 82.4 63.2 44.5 29.2 8.8 -1.7 -1.7 -1.7 -1.7 -1.7 -1.7 8.2 22 17.5 -1.7 -1.7 -1.7 -1.7 1.8 18.8 20 11.5 42.5 54.8 65.1 78.9 96.7 112.1 121.8 130.8 134.4 138.1 140.3 140.2 139.6 139.6 139.9 138.9 136.9 133.7 129.1 121.6 101.1 74 69.9 87.3 101 107.4 113 118 122.2 125.7 128.2 130.1 130.5 130.4 129.7 128.7 127.5 126.2 124.6 122.9 121 118.8 116.3 113.2 109.3 105 101.7 98.5 95.9 93.5 92.2 88.6 84.6 87.4 90.6 93 94.3 94 94.4 96.8 101.4 104.9 107.1 108.3
54.8 57.1 58.3 55.5 46.7 27.2 15.5 19.2 24.7 19.7 14.2 22.6 37.7 53.2 65.9 72.4 75.7 76.8 75.8 70.8 66 68.3 71.5 76.2 78.8 80.7 80.2 77.8 74.2 67.9 57.9 48.8 30 13.6 7.8 10.8 18.3 24.2 22 -1.7 -1.7 -1.7 -1.7 -1.7 -1.7 -1.7 -1.7 -1.7 -1.7 -1.7 -1.7 -1.7 -1.7 -1.7 -1.7 9.2 26.5 42.1 57 67.9 76.6 84.1 90.2 94.4 97.1 97.4 96 92 88.7 85.8 85.6 86.4 87.6 88.9 91.5 94.3 96.8 99.1 102.4 106.2 109.3 112.2 112 110.8 109 105.1 96.8 91.9 90.6 91 95.8 103 108 111.6 112.6 114.2 117.5 120.8 123.9 125.9 127 127.2 127 126.6 125.9 125.1 124.3 123 120.4 118 116.2 112.6 101.5 82.3 62.7 43 28 12.3 -1.7 -1.7 -1.7 -1.7 -1.7 -1.7 -1.7 6.1 4.3 -1.7 -1.7 -1.7 -1.7 -1.7 1 -1.7 -1.7 0.7 25.1 38.3 46 57.8 71.5 85.9 96.8 105.4 117.8 131.5 138.1 139.3 139 138.8 138.6 137.2 134.5 130.7 125.1 115.2 92 66.8 61.5 78.3 91.9 100.8 108.1 113.6 117.5 120.8 123.4 125.7 127.3 127.7 127.5 126.8 125.8 124.7 122.9 121.2 118.6 115.8 113.2 110 106.5 102.9 99.5 96.5 94.2 91.8 88.7 87.3 92.5 99 103.5 105.6 106.2 105.1 103.6 103.5 106 108.3 108.5 107.6
56.3 59.5 60.5 58.6 51.5 36.9 21.2 13.4 16 13.1 16.4 27 41.5 56.2 66.5 72.1 75 75.2 73.4 69.3 60 56.1 57.6 64.9 71.5 74.7 76.8 76.6 74 70.2 63.1 56.6 47.9 31 15.3 6.2 0.1 -1.7 -1.7 -1.7 -1.7 -1.7 -1.7 -1.7 -1.7 -1.7 -1.7 -1.7 -1.7 -1.7 -1.7 -1.7 -1.7 -1.7 16.2 29.4 43.9 57.1 67.7 75.9 82.4 88.8 94.4 99.1 102.5 102.7 100 96.3 93.4 92.2 92.9 94.1 94.3 94.7 97 100.5 103.5 105.6 107.4 109.9 112.3 113.3 110.9 107 103.6 98.5 90.1 82.3 79.1 77.8 79.2 85.7 92.4 99.6 102.1 104.4 107.7 112.8 121 127.9 130.2 130.6 131 130.7 130.4 129.7 127.7 123.3 118.4 112.7 107.3 99.1 75.8 60 42.2 -1.7 -1.7 -1.7 -1.7 -1.7 -1.7 -1.7 -1.7 -1.7 -1.7 -1.7 -1.7 -1.7 -1.7 -1.7 -1.7 -1.7 -1.7 -1.7 -1.7 -1.7 8.2 23.2 14.5 36.4 48.4 62.3 70 80.3 98.5 119.5 131.1 135.6 137.4 136.8 135.1 132.2 129.2 124.1 114.7 98 80.7 60.3 55.1 69.2 81.4 93 101.3 106.7 111.6 115.5 119.2 122.6 124.5 125.5 125.8 125.1 124.3 123.4 121.8 120.3 117.5 114.3 111.5 108.6 105.4 102 98.7 95.3 93 91.1 90.1 93.7 99.3 104.5 109.1 111 111.6 111.3 110.4 110 110.7 110.8 109.4 106.9
55.9 59.1 61.1 59.2 51.9 41.8 26 10.8 11 16.4 26.6 36.6 48.3 60.5 68 71.5 73.3 72.7 70.9 67.6 60.7 49 44.3 48.4 56.7 65.3 69.2 70.6 70.2 68.5 65.8 62 55.7 49 36.7 20 -1.7 -1.7 -1.7 -1.7 -1.7 -1.7 -1.7 -1.7 -1.7 -1.7 10.2 15.8 -1.7 -1.7 -1.7 -1.7 1.5 11.8 30.3 46.7 58.4 67.9 76.5 82.1 85.7 90.2 95.2 99.6 103.2 105.6 103.5 99.7 96.6 96.5 99.1 99.9 99.2 99.5 101.5 105 108 109.6 111.3 113 113.8 112.9 109 102.8 96.8 91.9 85.4 77 71.2 68.8 66.8 68.1 72.8 79.5 81.8 85.9 93.3 102.8 114.3 124.1 129 130.4 131.6 134.1 134.9 134.5 129.5 122.1 113.6 104.3 95.3 79.2 57.9 41.2 1.8 -1.7 -1.7 -1.7 -1.7 -1.7 -1.7 -1.7 -1.7 -1.7 -1.7 -1.7 -1.7 -1.7 -1.7 -1.7 -1.7 -1.7 -1.7 -1.7 -1.7 -1.7 -1.7 -1.7 7.4 5.2 21.4 31.4 45.1 58.9 81.4 103.1 117.9 127.7 132.4 132.1 126.7 121.4 112.7 102.6 91.4 78.9 67.1 52.8 50.1 62.5 72.4 82.8 91.4 98.5 104.8 110.4 115.8 120.6 122.6 123.2 123.6 123.8 123.3 122.9 122.2 121 118.8 116.5 114.7 112 108.8 104.6 100.7 97.9 95.8 94.2 93.5 95.2 98.9 105 111 113.7 114.7 115 114.6 114.4 114.5 113.8 111.5 109.1
55 58 60.2 58.3 50.1 38.7 21.3 9.3 15 26.9 39.4 49.5 58.8 65.3 69.3 70.9 71.2 69.1 67.6 64.8 60.8 51 38.7 34.3 38.3 46.4 56.5 62.1 64.1 65.1 64.2 62.2 59 54 47.6 40.8 25.9 -1.7 -1.7 -1.7 -1.7 -1.7 -1.7 -1.7 -1.7 9.2 20.1 25.5 22.5 17.5 15.9 12.8 11.5 21.2 39.8 56.4 67.7 75.5 82.5 87.9 91.2 94 96.6 99.1 102.5 105.4 106.6 104.1 101.4 102 105.2 105.7 105.3 106 107.7 109.3 112 113.8 114.4 114.4 113 108.8 103 95.7 87.6 82.9 78.2 68.2 60 55.9 54 54.1 55.1 57 57.7 63.1 68.1 84.2 100.8 115.8 123.7 126.2 127.5 129 129 127.4 123 115.3 106.1 94.9 77.8 59.9 43.8 25.4 0.5 -1.7 -1.7 -1.7 -1.7 -1.7 -1.7 -1.7 -1.7 -1.7 -1.7 -1.7 -1.7 -1.7 -1.7 -1.7 -1.7 -1.7 -1.7 -1.7 -1.7 -1.7 -1.7 -1.7 -1.7 -1.7 -1.7 3.8 24.5 41 58.5 75.9 94.9 112.7 121.5 126.6 116.9 98.6 85.1 75.1 66.4 58.1 50.6 44.1 46.8 53.7 63.8 74 83.7 93.4 102.3 109.2 115.2 118.9 120.6 120.8 121.2 122 122.8 123 122.8 122 120.6 118.9 117.2 115.1 111.4 107.9 105.1 102.2 99.8 97.4 96.4 97.3 100.6 106.7 112.3 115.1 116.1 116.7 117.5 117.7 117.8 117 115.3 112.4
52.9 56.7 59.1 57 47.4 31.3 12.8 10.4 20.4 36.9 52.3 60 65 68.4 70.1 70.3 68.6 66.3 63.7 61.1 58.1 53.8 44.4 30.9 24.2 27.4 36.7 49.9 54.8 57.7 59 57.5 55.7 51.2 45.6 38.3 28.2 19.3 -1.7 -1.7 -1.7 -1.7 -1.7 -1.7 -1.7 13.8 30.8 34.7 36 35.2 33.5 24.8 19.8 28.8 44.8 59.2 71.3 79.5 86.2 92.2 95.1 97.5 99 99.9 101.7 104.3 105.8 105.4 106.1 108.1 110.2 111 112 112.9 113.4 114.2 114.8 114.9 115 113.7 109.5 97.5 85.3 73.6 63.6 59.2 52.8 42.6 36.5 21 33.2 5.7 34.6 31.6 6.9 5.8 14.4 61.2 85.3 103.5 112.1 116 118.5 119.6 116.4 110.8 104.1 95 84.5 73.3 59.9 42.4 4.1 -1.7 -1.7 -1.7 -1.7 -1.7 -1.7 -1.7 -1.7 -1.7 -1.7 -1.7 -1.7 -1.7 -1.7 -1.7 -1.7 -1.7 -1.7 -1.7 -1.7 -1.7 -1.7 -1.7 -1.7 -1.7 -1.7 -1.7 -1.7 1.6 4.5 17.6 28.4 52.1 69.3 82.8 96.3 107.6 111 92.1 69.9 53.3 43.7 39.5 40.6 42.7 46.9 53.1 62.7 75.2 88.5 100.5 109 113.7 117.2 118.3 117.7 116.9 116.8 119.2 122.2 123.5 123.7 123.4 122.7 121 119.2 116.7 113.5 111.3 109.8 107.8 104.6 101.7 100.8 101.3 103.9 108.9 112.6 115.6 116.7 118 119.4 120.4 120.7 120.4 119.2 117
49.9 53.4 55.5 54.2 44.3 26.5 10.1 11.6 24.5 41.7 56.3 63.2 67.4 69.6 69.7 68.8 66.8 64 60.2 56.2 53.6 51.4 48.8 38.5 24.7 13.9 20 34.9 42.6 45.8 49.3 49.4 47.4 42.9 1.8 -1.7 -1.7 -1.7 -1.7 -1.7 -1.7 -1.7 -1.7 -1.7 -1.7 32.3 38.6 40.5 42.6 46.9 45.5 36.4 28.5 32.3 45.4 59.9 71.3 80 86.6 92.6 96.1 98.8 100.1 100.9 101.7 102.7 104.3 106.6 108.5 110.7 112.7 114.3 115.8 117.9 118.2 117.7 115.8 114.5 111.9 109 95.1 77.6 60.8 48.7 41.9 34.9 19 1.8 -1.7 -1.7 -1.7 -1.7 -1.7 -1.7 0.5 1.1 4.6 36.1 72.3 91.7 99.8 102.3 102.9 101.2 97.2 89.8 82.1 73 64.2 53.6 42.7 31.2 -1.7 -1.7 -1.7 -1.7 -1.7 -1.7 -1.7 -1.7 -1.7 -1.7 -1.7 -1.7 -1.7 -1.7 -1.7 -1.7 -1.7 -1.7 -1.7 -1.7 -1.7 -1.7 -1.7 -1.7 -1.7 -1.7 -1.7 -1.7 -1.7 -1.7 -1.7 -1.7 6.4 25.2 44.7 57.6 68.7 78.4 84.3 76.9 55.8 37.3 31.4 41.8 49.3 49.1 53 57.8 67.4 81.1 94.2 104.8 112.4 116.5 117.7 116.3 114.8 112.4 112.2 115.9 120 123.5 124.6 124.9 124.6 123 120.9 118.1 115.5 114.3 112.9 111.2 108.8 107.1 105.6 105.6 108.1 111.5 114 116 117.5 118.6 120 121.5 122.5 123.1 122.9 121.5
46.4 49.8 51.2 50.4 42.6 24.6 9.2 10.1 22.3 37.9 52.5 62 67.2 69 68.8 66.9 64.3 60.8 56.1 51.6 46 45.9 45.9 42.7 34.4 21.7 7.5 19.7 31.4 33.4 11.4 3.5 -1.7 28.6 -1.7 -1.7 -1.7 -1.7 -1.7 -1.7 -1.7 -1.7 -1.7 -1.7 -1.7 20.4 36.6 44.4 50.3 56.9 57.5 49.8 39.9 36.9 45.8 59.5 69.9 78.5 84 91.1 95.5 98.1 99.7 100.6 100.3 101.2 103.5 106.4 109.2 111.3 113.2 115.3 117.3 119.4 120.2 119.1 116.5 112.6 107.5 97.5 75.4 54.9 15.1 -1.7 -1.7 -1.7 -1.7 -1.7 -1.7 -1.7 -1.7 -1.7 -1.7 -1.7 -1.7 -1.7 16.5 42.9 61.3 76.5 87.9 94.4 91.9 84.3 76.7 68.5 58.8 48.9 39.9 28.6 11.4 10.7 1.8 -1.7 -1.7 -1.7 -1.7 -1.7 -1.7 -1.7 -1.7 -1.7 -1.7 -1.7 -1.7 -1.7 -1.7 -1.7 -1.7 -1.7 -1.7 -1.7 -1.7 -1.7 -1.7 -1.7 -1.7 -1.7 -1.7 -1.7 -1.7 -1.7 -1.7 -1.7 -1.7 -1.7 15 10.7 41.7 49.9 55.3 53.1 38.7 24.4 30.4 50.7 56.6 53 51.7 55.8 66.6 79.6 92.7 104.6 113 117 116.9 114.5 110.3 107.2 107.6 112.3 118 122.7 124.5 125.8 125.6 123.5 121.8 119.6 118.5 117.8 116.6 115.3 114.1 112.7 111.1 111.2 113 114.8 115.8 116.9 117.4 118.3 118.9 120.5 122.3 123.9 125 124.4
42.5 46 47.7 47.2 40.7 21.5 7.7 8.9 19.9 33.5 47.9 59.8 65.8 68.4 67.7 65.4 61.7 57.1 52.9 47.9 40.8 38.4 40.5 38.9 34.8 25.7 1 -1.7 1.3 0.9 -1.7 -1.7 -1.7 -0.2 -1.7 -1.7 -1.7 -1.7 -1.7 -1.7 -1.7 -1.7 -1.7 -1.7 -1.7 -1.7 20.7 40.6 49.2 56.5 62 60.9 53 46.8 48.9 58.2 66.9 73.4 80.9 87.6 92.5 95.7 97.7 98.1 97.8 100.3 102.6 106 108.7 111.5 113.5 115.8 117.7 119.4 120 119.1 115.8 110.7 100.8 85 59.7 -1.7 -1.7 -1.7 -1.7 -1.7 -1.7 -1.7 -1.7 -1.7 -1.7 -1.7 -1.7 -1.7 -1.7 -1.7 -1.7 33.3 47.4 59.7 72.5 86.1 87.6 76.2 63 51 40.2 16.4 3 -1.7 1.2 -1.7 -1.7 -1.7 -1.7 -1.7 -1.7 -1.7 -1.7 -1.7 -1.7 -1.7 -1.7 -1.7 -1.7 -1.7 -1.7 -1.7 -1.7 -1.7 -1.7 -1.7 -1.7 -1.7 -1.7 -1.7 -1.7 -1.7 -1.7 -1.7 -1.7 -1.7 -1.7 -1.7 -1.7 -1.7 -1.7 2.9 1.8 24 32.3 30.9 22.7 16.2 25.2 38.2 47 46.1 46.2 48.3 57 69.6 85.3 102.7 112.8 115.9 114.5 111.7 107.6 102.8 105.3 111.7 117.5 121.9 124.1 125.9 125.6 123.7 122.2 121 121 121.4 121.3 120.4 119.2 117.7 116.3 115.7 115.6 115.5 115.5 116.1 116.3 115.9 115.9 116.9 119.5 122.5 125.2 127
37.9 41.1 43.7 43.7 39.1 21.2 7.5 7.9 21.5 34.2 47.6 59.1 65 67.8 67.2 64.8 60.6 54.2 48.3 43.6 36.4 31.3 31.7 31.1 29.1 25.5 -1.7 -1.7 -1.2 -1.7 -1.7 -1.7 -1.7 -1.7 -1.7 -1.7 -1.7 -1.7 -1.7 -1.7 -1.7 -1.7 -1.7 -1.7 -1.7 -1.7 31.6 33.8 39.1 48.9 55.8 58.9 58.5 56.4 56.2 59.7 64.9 71.1 77.4 83 87.3 90.9 93.3 93.9 96.1 98.8 102.1 105.1 108.2 111 114.2 116.5 118 119.2 119.9 118.4 114.5 107.4 94.7 69.9 45.8 -1.7 -1.7 -1.7 -1.7 -1.7 -1.7 -1.7 -1.7 -1.7 -1.7 -1.7 -1.7 -1.7 -1.7 -1.7 -1.7 -1.7 20.9 48 62.5 77.9 87.8 72.5 55.8 39.2 15.6 3.2 -1.7 -1.7 -1.7 -1.7 -1.7 -1.7 -1.7 -1.7 -1.7 -1.7 -1.7 -1.7 -1.7 -1.7 -1.7 -1.7 -1.7 -1.7 -1.7 -1.7 -1.7 -1.7 -1.7 -1.7 -1.7 -1.7 -1.7 -1.7 -1.7 -1.7 -1.7 -1.7 -1.7 -1.7 -1.7 -1.7 -1.7 -1.7 -1.7 -1.7 -1.7 -1.7 -1.7 1.5 4.6 3.2 5.4 21.9 32.6 35.7 35.5 41.3 51.1 65.8 83.9 102 111.8 114.1 112.4 109.5 105.1 97 102.9 111.6 117.3 121.4 123.9 125.5 124.6 123.1 121.3 120.3 121.2 123 124.8 125 124.1 122.5 120.3 118.7 117.8 115.9 114.8 114 113.4 112.4 111 110.5 113.3 118.9 123.1 127.1
31.6 35.1 37.8 39.4 38.2 25 9 3.5 17.9 32.6 48.2 58.9 64.4 67.3 66.9 65.2 61.7 55.3 47.3 39.1 31.8 26.9 21.8 18.4 15 11.8 -0.3 -1.7 -1.7 -1.7 -1.7 -1.7 -1.7 -1.7 -1.7 -1.7 -1.7 -1.7 -1.7 -1.7 -1.7 -1.7 -1.7 -1.7 -1.7 -1.7 -1.7 -1.7 -1.7 36 47.1 52.2 52 55.1 60.3 65 69 71.6 74.5 78.3 81.7 85.6 88.5 90.9 95.4 98.5 100.9 103.1 105.3 109.2 113.4 116.4 117.9 118.9 119.5 117 111 102 85.2 56.8 19.2 -1.7 -1.7 -1.7 -1.7 -1.7 -1.7 -1.7 -1.7 -1.7 -1.7 -1.7 -1.7 -1.7 -1.7 -1.7 -1.7 -1.7 0.9 29.1 60.7 76.6 82.4 65.4 46.6 22 -1.7 -1.7 -1.7 -1.7 -1.7 -1.7 -1.7 -1.7 -1.7 -1.7 -1.7 -1.7 -1.7 -1.7 -1.7 -1.7 -1.7 -1.7 -1.7 -1.7 -1.7 -1.7 -1.7 -1.7 -1.7 -1.7 -1.7 -1.7 -1.7 -1.7 -1.7 -1.7 -1.7 -1.7 -1.7 -1.7 -1.7 -1.7 -1.7 -1.7 -1.7 -1.7 -1.7 -1.7 -1.7 -1.7 -1.7 -1.7 -1.7 -1.7 3.2 6.5 11.6 7.6 46.7 66.2 82.2 97.4 109.2 112.3 109.3 105.2 99.5 90.9 101.1 110.8 117.5 121.7 123.5 124.9 122.9 121.3 120 119.5 119.4 121.1 123 125.1 126.9 126.6 125 122.7 120.3 115.9 112.3 109.9 108.1 106.8 104.7 102.9 106 112.2 118.5 123.5
23.3 27.9 31.2 33.7 34.5 25 8.3 3.3 15.5 31.2 48.5 58.6 64.2 67.9 68.3 66.2 63 59 52.5 44.6 39.7 37.1 31.6 25.4 19.6 1.6 -1.7 -1.7 -1.7 -1.7 -1.7 -1.7 -1.7 -1.7 -1.7 -1.7 -1.7 -1.7 -1.7 -1.7 -1.7 -1.7 -1.7 -1.7 -1.7 -1.7 -1.7 -1.7 -1.7 -1.7 28.5 36.4 11.5 46.1 56.1 61.3 65.8 67.7 71.4 74.2 68.6 81.4 84.9 90.5 95.1 98.6 98.1 95.2 96.8 104 110.5 114.3 116.8 118.5 118.3 115.1 107.3 91.5 67.6 46 -1.7 -1.7 -1.7 -1.7 -1.7 -1.7 -1.7 -1.7 -1.7 -1.7 -1.7 -1.7 -1.7 -1.7 -1.7 -1.7 -1.7 -1.7 1.7 45.5 63.9 81.3 73.3 55.3 27.6 -1.7 -1.7 -1.7 -1.7 -1.7 -1.7 -1.7 -1.7 -1.7 -1.7 -1.7 -1.7 -1.7 -1.7 -1.7 -1.7 -1.7 -1.7 -1.7 -1.7 -1.7 -1.7 -1.7 -1.7 -1.7 -1.7 -1.7 -1.7 -1.7 -1.7 -1.7 -1.7 -1.7 -1.7 -1.7 -1.7 -1.7 -1.7 -1.7 -1.7 -1.7 -1.7 -1.7 -1.7 -1.7 -1.7 -1.7 -1.7 -1.7 -1.7 -1.7 -1.7 -1.7 -1.7 1.4 44.8 64 79 92.1 105.9 108 103.7 98.5 88.8 84.1 101.7 113.2 119.6 123.7 125 124.2 121.9 119.7 117.5 116.8 116.5 118.3 120.7 123.6 126.8 129.8 128.9 126.1 121.3 115.3 110.6 105.8 101.1 98.5 95.1 92.4 97.6 103.4 109.6 115.5
14.1 19.3 23.5 26.6 28 21.2 6.9 3.3 13.5 31.1 49.3 57.1 62.6 66.5 68 66.4 63.5 59.4 54.9 50.4 48.3 46.9 42.4 37.5 30 18.9 -1.7 -1.7 -1.7 -1.7 -1.7 -1.7 -1.7 -1.7 -1.7 -1.7 -1.7 -1.7 -1.7 -1.7 -1.7 -1.7 -1.7 -1.7 -1.7 -1.7 -1.7 -1.7 -1.7 -1.7 -1.7 -1.7 -1.7 35.6 43.4 49 53.1 53.6 51.5 51.1 52.6 68.4 74.3 80.9 91 94.5 90.5 77 79.7 93.9 103.4 106.3 108.1 111.3 107.7 101.1 93.6 74.8 51.2 -1.7 -1.7 -1.7 -1.7 -1.7 -1.7 -1.7 -1.7 -1.7 -1.7 -1.7 -1.7 -1.7 -1.7 -1.7 -1.7 -1.7 -1.7 -1.7 24 49.6 66.8 77.2 64.5 46.9 7.3 -1.7 -1.7 -1.7 -1.7 -1.7 -1.7 -1.7 -1.7 -1.7 -1.7 -1.7 -1.7 -1.7 -1.7 -1.7 -1.7 -1.7 -1.7 -1.7 -1.7 -1.7 -1.7 -1.7 -1.7 -1.7 -1.7 -1.7 -1.7 -1.7 -1.7 -1.7 -1.7 -1.7 -1.7 -1.7 -1.7 -1.7 -1.7 -1.7 -1.7 -1.7 -1.7 -1.7 -1.7 -1.7 -1.7 -1.7 -1.7 -1.7 -1.7 -1.7 -1.7 -1.7 -1.7 0.5 28 45.8 62.8 78.6 93 98.7 97 88.3 73.8 82.5 101.8 114.5 121.1 124.5 124.6 122.9 119.4 117.1 115 113.8 113.2 115 117.4 120.9 125.7 130.4 130 126.2 120.3 114.3 107.7 100.2 92.5 87.1 82.6 79.9 86.3 93.5 100.1 105.9
14.7 12 15.5 19.2 20.7 16.2 6.9 3.3 14.4 33.7 47.6 53.8 57.6 61.3 63.7 63.2 61 56.5 52.9 49.8 46.6 44.5 40.2 33.6 20.5 1.4 -1.7 -1.7 -1.7 -1.7 -1.7 -1.7 -1.7 -1.7 -1.7 -1.7 -1.7 -1.7 -1.7 -1.7 -1.7 -1.7 -1.7 -1.7 -1.7 -1.7 -1.7 -1.7 -1.7 -1.7 -1.7 -1.7 -1.7 -1.7 28.4 33.4 36.5 36.4 -1.7 -1.7 41.1 53 56.3 60.6 65.9 69.3 65.4 52.9 57.6 73.6 78.6 75.1 75.1 81 78.5 71.2 63.9 50.5 30.7 -1.7 -1.7 -1.7 -1.7 -1.7 -1.7 -1.7 -1.7 -1.7 -1.7 -1.7 -1.7 -1.7 -1.7 -1.7 -1.7 -1.7 -1.7 16.7 44.4 57 68.5 71.7 59.1 41.2 10.9 -1.7 -1.7 -1.7 -1.7 -1.7 -1.7 -1.7 -1.7 -1.7 -1.7 -1.7 -1.7 -1.7 -1.7 -1.7 -1.7 -1.7 -1.7 -1.7 -1.7 -1.7 -1.7 -1.7 -1.7 -1.7 -1.7 -1.7 -1.7 -1.7 -1.7 -1.7 -1.7 -1.7 -1.7 -1.7 -1.7 -1.7 -1.7 -1.7 -1.7 -1.7 -1.7 -1.7 -1.7 -1.7 -1.7 -1.7 -1.7 -1.7 -1.7 -1.7 -1.7 -1.7 -1.7 -1.7 -1.7 19.6 35.3 54 70.5 78.4 80 66.6 62.1 81.5 98.8 112.7 120.4 123.4 122.5 120 116.6 114.1 112 110.4 108.9 111.5 113.9 117.7 123.5 128.2 127 122.7 116.2 109 101.9 93.4 82.8 74.8 70.2 68.2 76.5 85.2 92.3 98.3
21.5 14.1 10.1 11.4 12.7 10.2 1.8 1.8 17.5 36.1 44.8 47.8 50 52.5 53.9 54.7 52.9 50.3 45.4 42.2 39 34.2 29.4 23.1 3.8 -1.7 -1.7 -1.7 -1.7 -1.7 -1.7 -1.7 -1.7 -1.7 -1.7 -1.7 -1.7 -1.7 -1.7 -1.7 -1.7 -1.7 -1.7 -1.7 -1.7 -1.7 -1.7 -1.7 -1.7 -1.7 -1.7 -1.7 -1.7 -1.7 1.2 5.8 7.4 0.9 -1.7 -1.7 -1.7 -1.7 31.1 40 39.1 40.1 -1.7 -1.7 8.6 34.2 41.2 41.9 46 46.6 42.4 39.3 29.6 -1.7 -1.7 -1.7 -1.7 -1.7 -1.7 -1.7 -1.7 -1.7 -1.7 -1.7 -1.7 -1.7 -1.7 -1.7 -1.7 -1.7 -1.7 -1.7 -1.7 19 50.6 61.1 67.6 68.7 58 40.3 11 -1.7 -1.7 -1.7 -1.7 -1.7 -1.7 -1.7 -1.7 -1.7 -1.7 -1.7 -1.7 -1.7 -1.7 -1.7 -1.7 -1.7 -1.7 -1.7 -1.7 -1.7 -1.7 -1.7 -1.7 -1.7 -1.7 -1.7 -1.7 -1.7 -1.7 -1.7 -1.7 -1.7 -1.7 -1.7 -1.7 -1.7 -1.7 -1.7 -1.7 -1.7 -1.7 -1.7 -1.7 -1.7 -1.7 -1.7 -1.7 -1.7 -1.7 -1.7 -1.7 -1.7 -1.7 -1.7 -1.7 -1.7 -1.7 -1.7 38.7 50.3 45.8 43.8 44.5 62.7 85.3 104.7 116 118.9 117.9 114.4 110.3 107.1 105.4 104 102.3 105.9 107.9 110.6 115.6 120.5 119.8 116.6 110.2 103.1 95.7 87.1 78.2 66.2 56.1 53.4 66.7 79.7 86.5 88.2
26.3 18.8 11.9 6.2 1.8 1.7 -0.1 1 23 34.8 38 40 41 41.5 41 34.3 13.4 8.4 7.5 14.8 16.1 21.5 5.5 0.5 -1.7 -1.7 -1.7 -1.7 -1.7 -1.7 -1.7 -1.7 -1.7 -1.7 -1.7 -1.7 -1.7 -1.7 -1.7 -1.7 -1.7 -1.7 -1.7 -1.7 -1.7 -1.7 -1.7 -1.7 -1.7 -1.7 -1.7 -1.7 -1.7 -1.7 -1.7 -1.7 -1.7 -1.7 -1.7 -1.7 -1.7 -1.7 -1.7 0.6 1.5 6.4 -1.7 -1.7 -1.7 -1.7 -1.7 -1.7 -1.7 5.2 -1.7 -1.7 -1.7 -1.7 -1.7 -1.7 -1.7 -1.7 -1.7 -1.7 -1.7 -1.7 -1.7 -1.7 -1.7 -1.7 -1.7 -1.7 -1.7 -1.7 -1.7 -1.7 -1.7 -1.7 25.4 38.8 47.6 49.8 56.3 38.9 8.8 -1.7 -1.7 -1.7 -1.7 -1.7 -1.7 -1.7 -1.7 -1.7 -1.7 -1.7 -1.7 -1.7 -1.7 -1.7 -1.7 -1.7 -1.7 -1.7 -1.7 -1.7 -1.7 -1.7 -1.7 -1.7 -1.7 -1.7 -1.7 -1.7 -1.7 -1.7 -1.7 -1.7 -1.7 -1.7 -1.7 -1.7 -1.7 -1.7 -1.7 -1.7 -1.7 -1.7 -1.7 -1.7 -1.7 -1.7 -1.7 -1.7 -1.7 -1.7 -1.7 -1.7 -1.7 -1.7 -1.7 -1.7 -1.7 -1.7 -1.7 -1.7 -1.7 -1.7 16 3.7 36.3 91.5 105.8 108.8 106.2 97.9 89.6 86.9 86.6 84.8 90.2 96.8 97.1 96.9 100.9 105.1 107.3 106.9 102.1 95.9 89.2 82.2 73.7 63.5 46.9 42.7 59.9 74.9 75.4 71.9
26.1 21.1 14.4 2.7 1.5 -1.7 -1.7 -1.7 10.3 27.6 29.7 30.1 30.1 29.6 27 -0.6 -1.7 -1.7 -1.7 -1.7 -1.7 -1.7 -1.7 -1.7 -1.7 -1.7 -1.7 -1.7 -1.7 -1.7 -1.7 -1.7 -1.7 -1.7 -1.7 -1.7 -1.7 -1.7 -1.7 -1.7 -1.7 -1.7 -1.7 -1.7 -1.7 -1.7 -1.7 -1.7 -1.7 -1.7 -1.7 -1.7 -1.7 -1.7 -1.7 -1.7 -1.7 -1.7 -1.7 -1.7 -1.7 -1.7 -1.7 -1.7 -1.7 -1.7 -1.7 -1.7 -1.7 -1.7 -1.7 -1.7 -1.7 -1.7 -1.7 -1.7 -1.7 -1.7 -1.7 -1.7 -1.7 -1.7 -1.7 -1.7 -1.7 -1.7 -1.7 -1.7 -1.7 -1.7 -1.7 -1.7 -1.7 -1.7 -1.7 -1.7 -1.7 -1.7 -1.7 -1.7 -1.7 -1.7 -1.7 -1.7 -1.7 -1.7 -1.7 -1.7 -1.7 -1.7 -1.7 -1.7 -1.7 -1.7 -1.7 -1.7 -1.7 -1.7 -1.7 -1.7 -1.7 -1.7 -1.7 -1.7 -1.7 -1.7 -1.7 -1.7 -1.7 -1.7 -1.7 -1.7 -1.7 -1.7 -1.7 -1.7 -1.7 -1.7 -1.7 -1.7 -1.7 -1.7 -1.7 -1.7 -1.7 -1.7 -1.7 -1.7 -1.7 -1.7 -1.7 -1.7 -1.7 -1.7 -1.7 -1.7 -1.7 -1.7 -1.7 -1.7 -1.7 -1.7 -1.7 -1.7 -1.7 -1.7 -1.7 -1.7 -1.7 9.2 50.7 76.6 86.1 89.9 86.3 72.7 63.2 59.2 57.8 56.9 67.8 84.2 88 80.4 76.4 75.2 83.1 92.1 92.7 85.9 78.6 71 61.5 53.5 45.1 32.6 47.3 58.3 54.4 39.2
27.6 23.7 19.1 4.5 1 -1.7 -1.7 -1.7 0.9 19.8 19.7 7 13.2 1.4 0.9 -1.7 -1.7 -1.7 -1.7 -1.7 -1.7 -1.7 -1.7 -1.7 -1.7 -1.7 -1.7 -1.7 -1.7 -1.7 -1.7 -1.7 -1.7 -1.7 -1.7 -1.7 -1.7 -1.7 -1.7 -1.7 -1.7 -1.7 -1.7 -1.7 -1.7 -1.7 -1.7 -1.7 -1.7 -1.7 -1.7 -1.7 -1.7 -1.7 -1.7 -1.7 -1.7 -1.7 -1.7 -1.7 -1.7 -1.7 -1.7 -1.7 -1.7 -1.7 -1.7 -1.7 -1.7 -1.7 -1.7 -1.7 -1.7 -1.7 -1.7 -1.7 -1.7 -1.7 -1.7 -1.7 -1.7 -1.7 -1.7 -1.7 -1.7 -1.7 -1.7 -1.7 -1.7 -1.7 -1.7 -1.7 -1.7 -1.7 -1.7 -1.7 -1.7 -1.7 -1.7 -1.7 -1.7 -1.7 -1.7 -1.7 -1.7 -1.7 -1.7 -1.7 -1.7 -1.7 -1.7 -1.7 -1.7 -1.7 -1.7 -1.7 -1.7 -1.7 -1.7 -1.7 -1.7 -1.7 -1.7 -1.7 -1.7 -1.7 -1.7 -1.7 -1.7 -1.7 -1.7 -1.7 -1.7 -1.7 -1.7 -1.7 -1.7 -1.7 -1.7 -1.7 -1.7 -1.7 -1.7 -1.7 -1.7 -1.7 -1.7 -1.7 -1.7 -1.7 -1.7 -1.7 -1.7 -1.7 -1.7 -1.7 -1.7 -1.7 -1.7 -1.7 -1.7 -1.7 -1.7 -1.7 -1.7 -1.7 -1.7 -1.7 -1.7 -1.7 36.6 61.1 60.9 62.5 58.6 45.4 21.7 25.4 31.3 -1.7 6.2 65.4 74.6 54.9 45.4 46.7 56.8 73.6 80.7 69 59.6 48.4 37.7 28.5 19 -1.7 -1.7 -1.7 21.2 -1.7
26.2 22.6 18.7 1.8 0.1 -1.7 -1.7 -1.7 1.1 12.6 0.5 -1.7 -1.7 -1.7 -1.7 -1.7 -1.7 -1.7 -1.7 -1.7 -1.7 -1.7 -1.7 -1.7 -1.7 -1.7 -1.7 -1.7 -1.7 -1.7 -1.7 -1.7 -1.7 -1.7 -1.7 -1.7 -1.7 -1.7 -1.7 -1.7 -1.7 -1.7 -1.7 -1.7 -1.7 -1.7 -1.7 -1.7 -1.7 -1.7 -1.7 -1.7 -1.7 -1.7 -1.7 -1.7 -1.7 -1.7 -1.7 -1.7 -1.7 -1.7 -1.7 -1.7 -1.7 -1.7 -1.7 -1.7 -1.7 -1.7 -1.7 -1.7 -1.7 -1.7 -1.7 -1.7 -1.7 -1.7 -1.7 -1.7 -1.7 -1.7 -1.7 -1.7 -1.7 -1.7 -1.7 -1.7 -1.7 -1.7 -1.7 -1.7 -1.7 -1.7 -1.7 -1.7 -1.7 -1.7 -1.7 -1.7 -1.7 -1.7 -1.7 -1.7 -1.7 -1.7 -1.7 -1.7 -1.7 -1.7 -1.7 -1.7 -1.7 -1.7 -1.7 -1.7 -1.7 -1.7 -1.7 -1.7 -1.7 -1.7 -1.7 -1.7 -1.7 -1.7 -1.7 -1.7 -1.7 -1.7 -1.7 -1.7 -1.7 -1.7 -1.7 -1.7 -1.7 -1.7 -1.7 -1.7 -1.7 -1.7 -1.7 -1.7 -1.7 -1.7 -1.7 -1.7 -1.7 -1.7 -1.7 -1.7 -1.7 -1.7 -1.7 -1.7 -1.7 -1.7 -1.7 -1.7 -1.7 -1.7 -1.7 -1.7 -1.7 -1.7 -1.7 -1.7 -1.7 -1.7 16.3 25.6 24.8 30.9 35.3 9.4 -1.7 -1.7 -1.7 -1.7 -1.7 46.6 38.8 22.4 -1.7 -1.7 5.9 53.3 55.5 45 23.2 23.5 -1.7 -1.7 -1.7 -1.7 -1.7 -1.7 -1.7 -1.7
23.1 19.2 14.6 1.8 0.3 -1.7 -1.7 -1.7 -1.7 -1.7 -1.7 -1.7 -1.7 -1.7 -1.7 -1.7 -1.7 -1.7 -1.7 -1.7 -1.7 -1.7 -1.7 -1.7 -1.7 -1.7 -1.7 -1.7 -1.7 -1.7 -1.7 -1.7 -1.7 -1.7 -1.7 -1.7 -1.7 -1.7 -1.7 -1.7 -1.7 -1.7 -1.7 -1.7 -1.7 -1.7 -1.7 -1.7 -1.7 -1.7 -1.7 -1.7 -1.7 -1.7 -1.7 -1.7 -1.7 -1.7 -1.7 -1.7 -1.7 -1.7 -1.7 -1.7 -1.7 -1.7 -1.7 -1.7 -1.7 -1.7 -1.7 -1.7 -1.7 -1.7 -1.7 -1.7 -1.7 -1.7 -1.7 -1.7 -1.7 -1.7 -1.7 -1.7 -1.7 -1.7 -1.7 -1.7 -1.7 -1.7 -1.7 -1.7 -1.7 -1.7 -1.7 -1.7 -1.7 -1.7 -1.7 -1.7 -1.7 -1.7 -1.7 -1.7 -1.7 -1.7 -1.7 -1.7 -1.7 -1.7 -1.7 -1.7 -1.7 -1.7 -1.7 -1.7 -1.7 -1.7 -1.7 -1.7 -1.7 -1.7 -1.7 -1.7 -1.7 -1.7 -1.7 -1.7 -1.7 -1.7 -1.7 -1.7 -1.7 -1.7 -1.7 -1.7 -1.7 -1.7 -1.7 -1.7 -1.7 -1.7 -1.7 -1.7 -1.7 -1.7 -1.7 -1.7 -1.7 -1.7 -1.7 -1.7 -1.7 -1.7 -1.7 -1.7 -1.7 -1.7 -1.7 -1.7 -1.7 -1.7 -1.7 -1.7 -1.7 -1.7 -1.7 -1.7 -1.7 -1.7 -1.7 -1.7 -1.7 -1.7 -1.5 -1.7 -1.7 -1.7 -1.7 -1.7 -1.7 0.3 -1.7 -1.7 -1.7 -1.7 -1.7 -1.7 28 -1.7 -1.7 -1.7 -1.7 -1.7 -1.7 -1.7 -1.7 -1.7 -1.7 -1.7
17.7 15.8 1.5 1.1 2.2 -1.7 -1.7 -1.7 -1.7 -1.7 -1.7 -1.7 -1.7 -1.7 -1.7 -1.7 -1.7 -1.7 -1.7 -1.7 -1.7 -1.7 -1.7 -1.7 -1.7 -1.7 -1.7 -1.7 -1.7 -1.7 -1.7 -1.7 -1.7 -1.7 -1.7 -1.7 -1.7 -1.7 -1.7 -1.7 -1.7 -1.7 -1.7 -1.7 -1.7 -1.7 -1.7 -1.7 -1.7 -1.7 -1.7 -1.7 -1.7 -1.7 -1.7 -1.7 -1.7 -1.7 -1.7 -1.7 -1.7 -1.7 -1.7 -1.7 -1.7 -1.7 -1.7 -1.7 -1.7 -1.7 -1.7 -1.7 -1.7 -1.7 -1.7 -1.7 -1.7 -1.7 -1.7 -1.7 -1.7 -1.7 -1.7 -1.7 -1.7 -1.7 -1.7 -1.7 -1.7 -1.7 -1.7 -1.7 -1.7 -1.7 -1.7 -1.7 -1.7 -1.7 -1.7 -1.7 -1.7 -1.7 -1.7 -1.7 -1.7 -1.7 -1.7 -1.7 -1.7 -1.7 -1.7 -1.7 -1.7 -1.7 -1.7 -1.7 -1.7 -1.7 -1.7 -1.7 -1.7 -1.7 -1.7 -1.7 -1.7 -1.7 -1.7 -1.7 -1.7 -1.7 -1.7 -1.7 -1.7 -1.7 -1.7 -1.7 -1.7 -1.7 -1.7 -1.7 -1.7 -1.7 -1.7 -1.7 -1.7 -1.7 -1.7 -1.7 -1.7 -1.7 -1.7 -1.7 -1.7 -1.7 -1.7 -1.7 -1.7 -1.7 -1.7 -1.7 -1.7 -1.7 -1.7 -1.7 -1.7 -1.7 -1.7 -1.7 -1.7 -1.7 -1.7 -1.7 -1.7 -1.7 -1.7 -1.7 -1.7 -1.7 -1.7 -1.7 -1.7 -1.7 -1.7 -1.7 -1.7 -1.7 -1.7 -1.7 -1.7 -1.7 -1.7 -1.7 -1.7 -1.7 -1.7 -1.7 -1.7 -1.7 -1.7 -1.7
12.5 2.3 0 -1.7 -1.7 -1.7 -1.7 -1.7 -1.7 -1.7 -1.7 -1.7 -1.7 -1.7 -1.7 -1.7 -1.7 -1.7 -1.7 -1.7 -1.7 -1.7 -1.7 -1.7 -1.7 -1.7 -1.7 -1.7 -1.7 -1.7 -1.7 -1.7 -1.7 -1.7 -1.7 -1.7 -1.7 -1.7 -1.7 -1.7 -1.7 -1.7 -1.7 -1.7 -1.7 -1.7 -1.7 -1.7 -1.7 -1.7 -1.7 -1.7 -1.7 -1.7 -1.7 -1.7 -1.7 -1.7 -1.7 -1.7 -1.7 -1.7 -1.7 -1.7 -1.7 -1.7 -1.7 -1.7 -1.7 -1.7 -1.7 -1.7 -1.7 -1.7 -1.7 -1.7 -1.7 -1.7 -1.7 -1.7 -1.7 -1.7 -1.7 -1.7 -1.7 -1.7 -1.7 -1.7 -1.7 -1.7 -1.7 -1.7 -1.7 -1.7 -1.7 -1.7 -1.7 -1.7 -1.7 -1.7 -1.7 -1.7 -1.7 -1.7 -1.7 -1.7 -1.7 -1.7 -1.7 -1.7 -1.7 -1.7 -1.7 -1.7 -1.7 -1.7 -1.7 -1.7 -1.7 -1.7 -1.7 -1.7 -1.7 -1.7 -1.7 -1.7 -1.7 -1.7 -1.7 -1.7 -1.7 -1.7 -1.7 -1.7 -1.7 -1.7 -1.7 -1.7 -1.7 -1.7 -1.7 -1.7 -1.7 -1.7 -1.7 -1.7 -1.7 -1.7 -1.7 -1.7 -1.7 -1.7 -1.7 -1.7 -1.7 -1.7 -1.7 -1.7 -1.7 -1.7 -1.7 -1.7 -1.7 -1.7 -1.7 -1.7 -1.7 -1.7 -1.7 -1.7 -1.7 -1.7 -1.7 -1.7 -1.7 -1.7 -1.7 -1.7 -1.7 -1.7 -1.7 -1.7 -1.7 -1.7 -1.7 -1.7 -1.7 -1.7 -1.7 -1.7 -1.7 -1.7 -1.7 -1.7 -1.7 -1.7 -1.7 -1.7 -1.7 -1.7
20.1 1.4 -0.7 -1.7 -1.7 -1.7 -1.7 -1.7 -1.7 -1.7 -1.7 -1.7 -1.7 -1.7 -1.7 -1.7 -1.7 -1.7 -1.7 -1.7 -1.7 -1.7 -1.7 -1.7 -1.7 -1.7 -1.7 -1.7 -1.7 -1.7 -1.7 -1.7 -1.7 -1.7 -1.7 -1.7 -1.7 -1.7 -1.7 -1.7 -1.7 -1.7 -1.7 -1.7 -1.7 -1.7 -1.7 -1.7 -1.7 -1.7 -1.7 -1.7 -1.7 -1.7 -1.7 -1.7 -1.7 -1.7 -1.7 -1.7 -1.7 -1.7 -1.7 -1.7 -1.7 -1.7 -1.7 -1.7 -1.7 -1.7 -1.7 -1.7 -1.7 -1.7 -1.7 -1.7 -1.7 -1.7 -1.7 -1.7 -1.7 -1.7 -1.7 -1.7 -1.7 -1.7 -1.7 -1.7 -1.7 -1.7 -1.7 -1.7 -1.7 -1.7 -1.7 -1.7 -1.7 -1.7 -1.7 -1.7 -1.7 -1.7 -1.7 -1.7 -1.7 -1.7 -1.7 -1.7 -1.7 -1.7 -1.7 -1.7 -1.7 -1.7 -1.7 -1.7 -1.7 -1.7 -1.7 -1.7 -1.7 -1.7 -1.7 -1.7 -1.7 -1.7 -1.7 -1.7 -1.7 -1.7 -1.7 -1.7 -1.7 -1.7 -1.7 -1.7 -1.7 -1.7 -1.7 -1.7 -1.7 -1.7 -1.7 -1.7 -1.7 -1.7 -1.7 -1.7 -1.7 -1.7 -1.7 -1.7 -1.7 -1.7 -1.7 -1.7 -1.7 -1.7 -1.7 -1.7 -1.7 -1.7 -1.7 -1.7 -1.7 -1.7 -1.7 -1.7 -1.7 -1.7 -1.7 -1.7 -1.7 -1.7 -1.7 -1.7 -1.7 -1.7 -1.7 -1.7 -1.7 -1.7 -1.7 -1.7 -1.7 -1.7 -1.7 -1.7 -1.7 -1.7 -1.7 -1.7 -1.7 -1.7 -1.7 -1.7 -1.7 -1.7 -1.7 -1.7
