ncols 200
nrows 91
xllcorner 370000
yllcorner 763700
cellsize 50
85.7 86.3 86.6 86.3 86.1 85.9 86 87.4 88.5 89.4 90.7 92.9 96 101 108.7 117 125.4 134.6 146 157.1 166.3 170.9 175 182.6 188.5 193.2 202.5 209.3 214.9 216.8 216.6 216.7 214.8 214.1 212.3 209.6 206.8 204.6 202.4 200.2 197.8 194.2 192.9 190.6 188.9 188.4 190.9 193.8 196.5 200.8 205.3 214.1 219.5 225 225.3 221.8 212.9 207 204.5 203.7 203.3 203.5 204.2 204.2 204.1 204.5 205.6 205.9 204.6 201.5 197.8 194 189.8 188.1 185.4 183.1 180.2 177.9 176 173 172 169.9 167.8 167 166.3 165.5 164.2 162.3 159.9 157.3 154.5 153.2 152.3 151.4 150.5 149.6 148.6 147.7 146.8 145.9 145 144.4 143.8 142.7 141.2 140.4 140 140.6 139.8 139 137.9 137.7 133.5 133.6 133.5 135.4 134.9 132.7 131.1 128.9 126.1 117.4 123.7 123.8 123.7 123.3 122.9 122.2 121.2 119.6 118.6 117.5 116.3 114.9 115 108.2 95.7 96 105.4 114.2 116.6 120.2 124.3 128.4 132.5 137.1 141.8 146.7 148.4 146.5 139.5 135.1 130.9 127.2 123.5 121 119.9 121.2 123.1 125.1 126.3 127.6 128.7 130.7 131.1 132.5 131.4 127.8 122.8 117.7 112.6 107.4 102.4 97.5 93.7 91.4 89.1 87.5 86.6 85.7 85 84.5 83.7 83 83.3 82.9 82.8 81.6 79.9 77.3 75.6 75.7 75.9 74.4 72.9 72 69.6 68.2 66.5 64.7
84.1 84.6 85 84.7 84.4 85.1 85.7 87.6 89.4 90.4 91.9 95.2 99.4 104.1 112.4 120.1 132.6 149.7 158.8 163.9 166.6 168.4 173.9 182 188.3 193.7 200.1 206.7 211.7 212.8 210.9 210.6 210.9 209.1 206 204.1 202.6 200.8 198.8 195.2 191.5 187.9 184.6 186.6 185.3 188.1 190.4 192.5 197 201.9 206.6 212.3 218.8 221.1 216.6 211 206.7 203.9 202.7 202 201.8 201.5 202.7 205.6 207.4 206.9 207.7 205.9 202.9 199.4 196.4 193.9 191.4 188.7 185.3 183.3 180.6 178.8 176.6 173.6 170.7 168.8 166.7 165.5 163.8 162.7 161.4 159.7 157.8 155.6 153.9 152.6 151.8 150.9 149.9 149 148.2 147.8 147.5 146.9 146 144.6 143.1 141.7 140.3 139.6 139.2 138.1 137.8 136.9 135.2 134.2 135.7 138.3 137.7 137.5 135.6 132.4 129.7 127.6 125.4 116 116.3 123.2 123.5 123.3 122.8 122 120.7 119.3 117.1 115.9 114.6 113.2 113.2 111.5 94.4 94 99.2 116.3 117.5 119.2 122.8 126.7 130.9 137.9 145.4 149.3 148.9 142 136.9 132 129.1 123.1 120.6 119.6 120.4 122.5 124.7 126.6 128.3 129.8 130.9 132.8 137 136.9 131.3 126 121 116 110.8 105.2 99.5 95.2 92.4 90.1 87.7 86.3 85.6 85 84.8 84.6 85.1 84.3 83.5 82.2 81 79.8 78.2 75.8 72.7 73.6 74.7 73 71.2 69.2 67.6 65.9 64.2 62.4
82.7 83.1 83.3 83.2 83.2 84.5 86.4 86.6 89.2 90.7 93.5 98 103.4 108.9 115.6 126.4 140.9 154.4 158 161.2 164.2 168 176 184.2 191.5 199.6 205.7 208.2 209.1 208.9 209.1 207.1 204.8 203 200.8 199.4 197.8 195.2 192 189.1 185.3 182.8 180.5 182.8 184.7 184.7 187.6 190.5 194.7 198.6 203.7 208.4 213.6 215.7 212.5 206.2 202.9 201.5 200.8 200.3 202.2 204.6 209.3 212.2 210.8 207.9 205.2 203.2 199.9 196.1 193.9 190.6 186.9 184.3 182.6 181.3 179.9 177.3 174.1 171.3 169.3 166.5 164 162.1 160.7 159.7 158.6 157 155.1 154.4 153.3 152.1 151.2 150.9 151 150.7 150.4 150.1 149.6 148.6 146.5 144.2 142.2 140.7 139.5 139.2 138.7 137.7 136.7 136.8 137 138.6 140.7 141.5 140.4 138 134.2 130.9 128.2 126.2 124.7 111.4 109.9 122.7 123.4 123.3 122.8 121.4 120 118.5 116.3 114.5 113.1 111.6 110.2 106.9 94.4 91.8 109 116.7 118.7 120.3 123.6 126.9 130 139.8 143.6 145.6 143.4 139.5 134.1 127.9 122.9 120.4 119.7 120.1 121.3 123.5 125.7 128.2 131 132.6 136.3 140.2 140.7 136.6 130.7 124.1 119 113.2 107.4 102.4 98.2 94.2 91.7 89.1 87.2 86.3 85.6 85.6 86.2 86.6 85.6 83.2 82.4 80.8 79 77.6 75.9 74 71.7 71.6 71.9 70.2 68.5 67 65.6 63.7 61.9 60.1
81.2 81.6 79.3 81.7 82.4 84 85.8 87.7 89.2 89.5 93.2 101.9 107.9 114 120.6 126.2 135.2 142.5 151.9 160.1 165.8 172.1 175.4 180.7 188.8 198.5 204.7 206.5 207.9 201.8 199.8 200.9 199.4 197 194.4 193.1 189.8 187 184.2 182.3 180.9 179.7 176.4 178.6 179.7 180.1 182.1 183.2 186.7 191.2 196.6 202 206.6 209.1 206.9 201.3 200 200.5 201.1 203.1 205.1 210.2 212.7 210.3 205.2 201.1 198.1 195.3 192.8 190.5 187.6 185.5 182.2 180.1 179.2 177.6 173.3 171.6 172.2 169.6 165.2 163 160.8 158.7 157.6 156.6 155.7 154.9 154.1 153.4 152.4 152 152 152 152.3 152.4 152.2 151.9 150.8 148.8 146.4 144.1 141.6 139.8 139 138.9 138.3 138 138.3 139.1 141 142.6 143.5 142.9 140.9 137.5 133.4 129.7 126.9 125.1 123.4 113.8 108.9 123.4 123.3 123.1 121.7 120.3 118.8 117.1 115.2 111.7 112 110.3 106.3 100.8 94.1 91 113 117.9 119.3 121.2 123.3 125.7 135.2 139.7 142 142.8 140.2 135.9 129.1 123.4 120.5 119.9 119.2 120.3 122.4 125.5 128.2 131 135.2 137.9 142.6 143.6 142.9 138.1 131.8 124.1 117.2 110.8 105.9 101.3 97.2 93.6 91 88.5 87.3 87.2 87.6 87.6 87.3 87.7 85.5 82.1 81 79.3 77.6 76.2 75.7 73.8 71.5 69.7 69.2 67.5 66.6 65.7 64.1 62 59.9 57.9
78.7 78.2 79.5 82.1 83.8 85 87.8 90.1 90.8 95.9 91.2 102.8 110.9 119 126.8 134 143.5 151.3 157.1 162.3 165 171.9 177.8 175.3 180.6 184.8 186.4 187.5 190.5 191 196.8 198.1 196.2 189.8 186.3 183.1 181.6 179.6 177.6 176 174.9 173.8 170.5 172.6 173.1 173.6 174.9 176.7 179.1 185.4 191.4 197.3 202.3 201.6 197.5 203.3 203.9 205.3 208.7 209.6 208.8 206.5 203.4 200.6 197.6 194.8 191.4 188.2 185.3 182.8 182.5 182.2 182.2 179.5 176.6 174.9 173.9 170.2 165.6 163.6 161.3 159.6 157.9 157.1 156.2 155.3 154.2 152.9 152.9 152.4 151.5 151.6 152.5 152.8 153.1 153.1 152.8 151.6 149.9 147.8 145.2 142.7 140.5 139.4 139 139.1 140 140.9 141.9 142.3 144.2 145.2 144.7 143.7 140.3 136.7 132.9 129 126.5 124 119.7 109.2 112.6 123.4 122.5 121.5 120.4 119.1 117.4 115.8 113.5 111.1 109.4 107.7 102.2 91.4 91.6 96.3 115.3 116.6 117.9 119.7 121.9 126.8 134.9 138.5 140.4 140 135 128.7 125.3 123.1 120.9 119.4 118.7 120.5 122.8 126.8 130.3 134.6 140.5 143.9 146.4 147 144.1 138.9 132.5 125.1 117.7 110.5 104.9 100.2 96.2 93 90.6 88.9 89.5 89.5 89.8 89.6 88.8 87.3 84.7 81 79.6 78.1 76.7 75.5 74.5 72.8 70.3 66.7 66.9 65.9 65.5 63.9 61.9 60.1 58.4 56.3
76.1 77.9 81.9 83.4 84.8 86.3 89.9 93.1 97.6 102.7 103.6 102.4 112.2 119.4 125.8 130.5 143.1 144.9 143 143.5 151.3 156.6 160.5 164.5 171.2 175.9 179.8 182.9 189.4 193.9 193.3 186 178.7 176.6 173.9 172.2 170.5 170 169.7 169.4 168.4 167.8 164.2 168.4 169.1 169.6 171.2 173 175.9 179.9 186 187.9 193.4 204.3 210.9 214.5 213.9 213.6 212.4 208.9 204.8 200.1 196.6 194.9 190.3 187.7 184.6 183.9 182.5 182.3 183.6 183.8 183 181.8 179.9 177.7 176 173 169.3 164.9 161.3 158.1 156.9 155.9 154.9 153.8 152.5 151.9 150.2 150.2 151 151.1 150.8 151.1 151.4 152 150.7 148.8 147.2 145.7 143.8 141.6 140.4 140.4 141.2 141.7 143.6 144.6 145.3 145.6 146.4 146.5 145.3 143.2 139.3 135.6 132 128.7 126.2 123.1 114.2 106.2 121.8 121.5 120.2 118.7 117.6 116.3 115.4 114.3 111.5 109.1 105.8 101.1 90.6 90.1 93.1 107.1 114.1 115.3 116.4 118.1 120.4 124.6 132.4 137.9 138 133.9 129.4 126.9 124.4 122.2 121.2 119.8 119 120.4 123.2 127.6 134.6 139.8 144.5 147.5 147.8 147.3 143.2 139.3 132.6 123.8 117.3 110.5 103.9 99.1 95.3 92.7 90.9 91.6 92.3 92.4 91.7 89.7 87.4 84.6 82 80.2 78.5 77.7 76.3 74 71.3 69.3 67.5 65.1 63.9 63.5 62.7 61.6 58.6 53.8 42.7 44.1
80.9 82.3 82.9 84.5 86.6 90 93.8 99.1 107.3 112.9 111.2 102.7 98.6 102.1 112 116.3 122.8 126.7 129.7 132.3 134.1 138.5 147.4 159 165.4 168.4 173.5 178.1 180 174.9 169.8 166.2 163.4 160.8 160.2 161 162.3 163 163.2 162.8 163 164 161.8 163.9 164.7 165.9 168.1 170.9 173.9 178.5 184.1 191.1 199.9 208.7 212.8 213.5 212.9 211.2 207.2 201.6 196.5 191.6 187.5 185.3 182.8 183 183.4 182.4 183.3 184.4 185.5 185.4 184.6 182.8 178.8 176.3 173.9 170.4 167 163.4 159.9 157.8 156.5 155.5 154.7 153.2 153.7 153.2 151.8 149.4 147.3 147.9 148.1 148.3 148.6 148.1 147.3 145.6 144.1 142.8 142.2 142.9 141.9 142.2 143.4 145.1 146.6 146.2 145.6 145.9 146.7 146.7 145.8 143.4 139.9 136.3 131.7 128.4 125.9 123.4 115.5 105.7 121.9 119.7 118.5 116.8 115 115.1 114.3 112.7 110.5 107.1 104 92.1 89.5 88.3 110.9 113.3 112.7 113.8 115 116.7 119.2 121.6 129.2 133.5 131.1 130.5 129.2 126.2 123.9 121.7 120.7 118.9 118.5 120.3 123.2 129.2 136.6 143.7 147.7 148.9 149 145.6 141.3 136.9 130.4 123.3 116 108.6 101.9 97.7 94.9 93.5 94.2 94.3 94.5 92.1 89.5 87.7 85.1 83 81.2 79.6 77.3 75.1 73.5 71.3 71.2 69.8 69.2 66.6 64.4 62.8 59.4 53.9 52.2 56.5 54.2 51
80.7 82.6 83.9 86.1 90.8 94.8 100.5 108.7 116.2 123 123.5 116.2 112.2 107 103.3 106.4 113.7 119.6 123.3 126 128.2 134.3 140.5 146.4 150.9 152.2 153.1 153.8 155 151.9 152.3 152.9 152.4 152.9 154.6 155.6 156.5 157.1 157.6 158.9 159.9 160.7 159 160.3 162.5 164.6 167.3 170.9 175.8 181.5 188 195.1 204.4 208.5 211.6 211.3 209.3 204.4 198.3 192.9 189.2 185.6 182.6 181.3 181.3 182.1 183.4 184.4 186 187.3 187.6 186.6 183.8 178.9 176.2 173.9 172 168.4 165.3 162.2 160.2 158.5 157.3 156.4 156.3 156 155.3 153.7 151.7 148.5 143.5 145.2 145.2 144.9 145.1 144.4 143.9 143 141.7 141.5 141.9 143.2 143.8 145.1 146.6 148.1 147.4 146.1 144.9 145.6 146.6 146.5 145.9 143.5 140.5 136.4 131.4 128.2 125.5 123.2 117.6 103.6 114.2 118.9 116.8 115.9 115.5 114.3 112.8 111.2 109.6 106.1 97.1 88 87.9 99.5 112.3 112 111.1 112.3 113.6 115.6 117.5 120.3 123.4 127.4 130.7 132.7 129.2 126.5 124 120.6 118.6 116.7 116.4 119.2 122.6 130.6 138.6 144.5 147.3 147.4 145.1 142.3 138 133.7 128 119.1 110.8 104.4 100.6 97.8 96.7 97.8 97.1 96.3 95.1 91.7 88.5 86.2 84.5 82.8 81 78.3 76.6 76.7 75.7 74.3 73.5 72.6 70 67.3 64.6 63.1 61.4 59 56.4 54.1 51.4 48.6
80.3 82.3 85.5 88.3 94 102.4 108.7 117.1 124.9 130.6 131.9 126 121.5 116.1 110.9 106.5 107.4 112.1 114.9 119.7 120.8 123.7 127.1 130.8 135.7 137.6 139.8 141.3 142.4 143.2 144.2 145.6 147.3 149.7 151.3 152.3 153 153.3 153.5 154.8 156.3 157.3 156.3 160 163.2 166.4 169.6 172.9 178.7 184.6 192.2 199.6 205 208.7 210.6 208.9 203.5 196.7 190 184.9 182.2 181.8 181.8 182.3 183.8 186 186.5 187.3 188.1 186.3 185.1 183.6 179.7 177.2 175.3 172.8 170.3 167.6 164.7 163 161.5 159.9 159.2 158.8 159 158.1 156.2 153 149.8 146.6 143.4 142.3 142.2 141.5 141.4 140.9 140.7 140.6 140.8 141 141.5 142.5 144.4 145.9 146.3 145.9 144.5 144.1 145.1 146 147.3 146.7 145.7 143.4 141.1 136.5 131.4 127.8 125.2 123.1 121.1 102.8 101 117.5 116 115.1 113.9 112.6 110.9 108.9 107.8 104.8 95.1 86.3 86.4 108.4 110 110.4 109.6 110.7 112.4 114.4 116.4 118.4 123.2 130.1 130.2 129.2 129.4 124.8 120.5 118.1 115.9 113.7 115.2 118.3 121.8 129.7 136.4 140.6 141.6 142.1 140.7 138.3 133.9 129.3 122.1 113.1 107.8 102.9 101.3 100.2 100.9 99.8 98.7 95.4 92.1 89.3 87 86 83.9 82.4 80 78.5 78.8 78.4 77.7 76.7 75.3 72.1 69.4 66.7 63.7 61.2 59.5 57.2 54.6 52.2 48.8 44.6
80.8 82.6 86.9 91.8 99.1 105.7 114 122.7 127.1 128.2 126.9 126 124.5 122.4 119.3 116.5 115 114.4 114.9 109.8 112.6 115.6 122.1 125.4 128.9 131.5 134.2 136 137.1 141 142 142.2 143.9 146.4 147.6 148.9 149 149.2 149.9 151.4 152.6 153.7 155.6 161.1 164.8 167.8 170.9 175.2 183.1 191.4 198.8 203.8 206.4 207.6 207.9 200.5 192.7 185.8 182.8 181.8 181.7 182.1 182.9 184.9 188.8 188.4 186.5 185.6 183.4 182.3 181.2 179.6 177.3 175.9 174.5 172 170.1 168.7 166.2 163.8 162.5 162 161.6 161.2 160.1 158.2 155.7 151.7 147.8 144.6 141.2 139.4 139.2 138.2 138 138.1 138.6 138.7 139.1 139.8 140.2 140.6 141.2 142.1 142.6 143.3 142.9 144.8 146.6 147.8 148.1 148.2 146.8 145 140.9 134.9 131.1 126.8 123.1 121.4 119 112 100.4 114.5 115.4 112.8 106.5 110.4 108.7 100.2 97.3 93.1 89.3 85.6 85.4 108.2 107.8 108.2 108 109.3 111.3 113.2 115.2 117.1 122 124.4 126.7 127.4 125.6 121.2 117.7 115.5 113.4 112 114.6 117.1 120.2 125.1 130.3 132.5 135.2 136.4 135.5 131.4 127.8 123.2 117.7 113 109.2 107.5 106 104.5 103.5 99.9 96.5 92.9 90.4 88.3 87.4 86.2 83.8 82.2 80.3 79.7 80 79.2 78.4 77.4 74.6 71.5 68.9 66 63 60.5 57.6 55.2 51.9 49.1 46 42
80.3 83.3 86.5 92.5 99.4 106 112.2 119.2 120.4 121.3 122.6 124.5 126.1 126.6 127.1 126.4 125.5 124.7 124.4 123.4 121.8 120.8 116.1 116.5 118.7 122.5 123.8 128.2 134.9 136.9 138.9 139.5 140.4 141.9 143.1 144.3 144.9 145.6 146.4 148.2 149.5 155 160.2 163.4 166.4 169.5 172.7 179.8 187.7 195.6 201.5 203 204.5 199.7 193.3 187.1 183 181.5 181.1 182 182.9 184.4 185.5 189.5 192.1 190.3 187.4 182.5 179.8 178.6 178 176.8 176.5 175.1 175.2 173.7 171.9 169.6 167 164.6 164.4 163.8 162.7 160.9 159.3 157.3 154 150.3 146.5 142.7 139.6 137.9 136.7 135.7 136.1 136.7 137.1 136.7 136.7 136.7 137.1 137.2 137.8 137.5 140 141.4 144.4 146.5 148.3 149.4 149.7 149.2 147.4 143.9 139.2 134 128.8 124.9 121.5 119.3 117.8 114 101.1 99.1 100.7 97.4 94.7 93.2 92.3 91.2 88.9 87.3 86.7 85 84.2 101.7 104.8 105.5 106.4 108.1 109.9 111.4 112.9 114.4 117.9 122.9 123.9 122.8 119.5 115.9 114.7 112.9 111.2 111.5 113.6 115.9 118.4 122.2 125.2 128 128.9 130 132.2 130.5 126.4 123.7 120.2 117.7 115.8 112.6 110.5 106.3 101.6 96.8 93.5 91.1 89.9 89.2 88.3 86.8 85.1 82.9 81.7 82 81.1 80.2 79.4 76.8 73.9 71.1 68.2 65.3 62.3 59.3 55.8 53.1 49.9 45.7 41.8 36.5
80.5 83.6 86.8 91.7 97.8 104.1 109.6 115.6 119.9 121.6 124.3 127 129.9 132.9 135.6 137.9 137.1 136.7 135.6 133 131.8 129.8 128.8 127.9 127.6 125.8 126.5 123.9 125.4 126.4 129.6 131.8 135 137.3 139 140.2 141 141.8 143.3 146 151.5 156.8 161 164.8 168 171.2 176.7 184.9 193 197.9 201.1 199.3 193.5 187.5 183.8 181.7 180.2 181.2 182.6 184.2 186.6 189 192.4 195 194 190.3 184.9 179 176.9 176.4 176.5 177.2 178.1 178 176.9 174.7 172.7 170.6 167.7 165.3 164.4 162.9 161.7 159.9 158.1 155.3 152 148.3 144.6 141 137.8 136.7 135.7 134.5 134.7 135.3 135.1 134.8 134.4 134.2 134 134.9 136.6 137.9 140.3 141.8 145.3 147.9 149.5 150.5 150.6 149 146.2 141.8 136.5 130.4 125.3 122.1 119.1 117.3 115.2 112 104.3 97.5 96.5 93.6 94.1 94.4 97.6 95.5 104.2 90.3 89.1 84.7 83.8 82.9 93.2 99.9 104.9 105.8 107.3 108.8 110.3 111.6 115.1 117.8 117.8 116.1 113.6 112.5 111.5 110.6 109.4 110.9 112.5 114.2 116.7 119.9 122.7 124.9 126.4 128.4 129 128.6 129.5 128.7 126.5 123.5 119.3 113.6 106.9 101.7 97.1 94.2 91.8 91.2 90.6 89.9 89.2 86.8 85.4 85.4 84.2 83.3 82.3 81.3 79.3 76.4 73.6 70.6 66.9 63.9 61.6 58.6 55.1 51.1 46.4 41.6 35.2 28.8
80.5 83.7 87.5 92 96.3 101.7 107.9 114.5 120.5 123.6 127.9 130.8 135.3 141.2 144.6 147.5 148.9 150.5 148.1 143.6 141.4 140.1 138.2 137 136.7 135.6 136.2 136.6 133.5 134.6 135 135.4 132.3 134.5 136.2 137.9 140 142.1 145 148.9 153 157.2 161.6 165.9 169.5 174.4 181.9 188.4 193.3 195.6 195.6 190.5 186.7 182.7 180.4 179.4 181.3 183.4 185.3 186.8 192.8 196.5 198 196.5 191.7 186.9 183 178.4 179.2 179.7 180 180.1 180 179.1 178.3 176.2 174.8 171.7 168.7 165.7 162.4 159.9 158.7 157.7 156.1 153.4 150 146.5 143.2 140 137.4 136 135.2 134.4 133.3 133.5 133.2 132.8 132.7 133.1 134.2 135.3 136.7 138.3 140.3 141.8 144.6 147.3 149.4 150.5 150.3 147.3 144 138.3 132.7 126.7 122 118.9 116.7 114.5 111.4 112 115.4 114.9 114.8 115.3 111.5 112.5 110.3 109.7 107.8 106.1 101.3 85.1 84.2 83.2 82.5 93.7 103.6 104.5 105.3 106.2 107.7 108.3 109.9 111.8 111.6 111.7 111.3 110.8 110 108.7 108 109.9 111.7 113.4 115.1 118.2 121.3 124.2 126.1 128.1 130.5 132.3 133 133 130.8 124.3 116.6 109.2 102.7 97.2 94.4 92.6 91.2 90.6 90.7 89.3 89.2 88.4 88.9 88.4 87.1 84.5 83.7 82.3 79.4 76.5 73.5 70.1 66.6 62.1 58.8 55.5 52.7 48.2 40.7 33.4 27.5 24.3
80.7 84.5 88.3 92.8 97.6 102 109.2 114.7 120.5 125.2 131.6 137.2 143.2 148.8 153.6 156.8 160.5 164.5 162.4 155.6 150.3 147.8 145.7 143.9 142.8 141.6 141.1 139.7 136.5 137.7 137.5 137.9 137.6 136.8 137.8 140 142.8 147 149.4 153.4 157.8 160.9 164.4 168.6 174.3 182.8 186.8 188.8 192.5 193 188.6 185.1 181.9 179.4 177.9 181.4 183.9 185.3 188.3 192.8 198.4 198.5 196.4 193.9 191.1 187.7 185.3 183.7 184.9 184.1 183.2 182.3 181.9 181.2 179.6 177.3 173.1 168.9 164.7 161.3 158.9 157.1 156.3 155.5 154 151.3 148.7 145.4 141.2 139.2 137.2 136.5 135.8 135 133.9 132.3 132.3 131.7 131.9 132.5 132.9 134.1 135.4 136.4 138.4 140.1 142.5 145.9 147.5 151.1 149.7 145.5 139.9 134.1 128.4 122.9 119.4 117.1 115 113.6 115.7 117.6 118 117.6 116.8 115.5 113.9 112.3 110.6 108.9 107.3 105.6 104 102.4 90.5 82.7 81.1 82.2 101.7 103.1 103.9 104.6 105.2 105.9 107.2 108.5 109.2 109.7 109.2 108.7 108.1 107.5 104 108.1 110.3 112.5 114.6 117.9 121.2 124 126.6 130.3 134 135.9 135.8 133.3 128.2 116.9 109.3 103 98.1 95.2 92.4 91.1 90.3 89.5 88.4 89.3 90.8 90.5 90.3 89.9 88.6 87.4 84.8 81.5 79.1 76.4 73 69.5 66.1 61.9 57.3 53.6 49 40.9 33.8 28.5 23.8 21.8
81.9 86.1 90.1 95.3 100.2 105.1 111.6 117.1 123.1 130.2 137.1 143.5 149.5 155.7 161.8 165.8 167.3 168.8 166.2 162.5 157 151.4 149.3 146.5 145.2 144 142.6 141.4 139.7 140.6 140.4 141 141.1 141 142.4 144.7 147.8 151.9 154.9 158 161.3 163.9 167.4 172.6 180.8 186 186.3 187.5 188.4 185.5 180.8 177.8 175.7 174.3 180.1 183.9 185.8 187.5 191.6 194.5 197.6 198.1 196.6 194.2 190.3 188 188 188.5 187.6 186.5 185.6 184.6 184.1 181.8 177.4 172.7 168.1 164.2 159.9 157.8 156 155 154.2 153.1 151.8 149.3 147.7 144.9 140.7 141.3 139.9 138.1 136.6 134.6 133.8 133.1 131.9 130.4 131 131.2 131.1 131.4 132.6 133.7 135.2 137.5 141.4 144.4 148.2 149.7 146.8 141.3 135.8 129.9 124.7 119.9 117.5 115.6 116.5 117.6 118 117.6 117.9 117.5 116.3 114.7 113.1 111.4 110.2 108.6 107.1 105.4 103.8 102.1 101 83.7 80.1 79.9 86.6 101.1 101.8 102.5 103 103.6 104.9 106.1 106.8 106.7 106.6 106.3 105.7 104.1 103.4 106.7 110 112.1 115 118 121 124.3 129.6 133.7 137.4 136.7 132.5 127.1 117.5 108.6 103.3 99.8 96.2 93.1 90.6 89.6 88.7 89.7 90.6 90.8 92.6 91.7 90.7 90.4 89.9 87.9 83.8 80.3 78.3 75.5 71.3 67.3 63.6 59.2 54.8 47.3 39.5 33.2 28.1 23.7 21.5 19.8
83 87.2 91.7 97.9 103.4 108.5 113.9 120.8 127.8 135.2 142.8 149.7 155.9 162.1 168.3 170.7 170.9 168.6 165.3 161.9 158 154.9 152.2 149.2 147.4 146.1 144.9 144.1 143 143.3 143.3 143.9 144.6 145.3 147.3 149.8 152.9 156.8 159.1 161.5 163.4 166.3 171.4 179.4 182.9 182.5 181.7 179.3 176.5 173.2 171.1 170.2 171.5 176.8 180.3 183.6 186.2 189.1 193.7 195.8 197.7 200.4 199.3 191 189 189.3 190 189.8 189.4 188.6 184.7 183.8 180.9 176.4 172 167.4 163.7 160.4 157 155.4 154.1 152.9 152 150.7 149.5 147.6 145.2 143.8 144.4 142.5 140.2 137.6 135.7 134.6 134.1 133.5 131.8 130.4 130 129.4 129.4 129.3 129.8 130.9 132.6 135.2 140.4 146 144.5 146.5 142.3 137.1 131.6 126 121.2 117.8 117.1 118.9 119.7 119.8 118.7 117.8 117.4 117.1 115.5 113.8 112.1 110.7 109.6 108.2 106.7 105.1 103.5 101.8 100 92.9 83.6 79.8 79.5 98.9 99.8 100.4 100.8 101.3 102.4 102.3 102.2 102.9 103.7 103.5 102.4 99.2 103.7 106.1 108.5 112.4 115.4 118.4 121.5 125.9 131.9 134.1 135.1 131 126.4 117.4 107 103.4 99.8 96.2 93.6 91 89.1 89.5 90.3 91.1 91.6 91.8 91.9 92.2 92.2 91.4 88.8 86.1 82.5 79.1 76.6 74.7 70.5 66.4 61.2 55.8 47 40.5 33.9 27.2 23.5 21.4 19.6 17.8
84.3 88.9 93.8 100.1 105.9 112.2 118.7 125.6 132.6 140.2 148.7 156.9 163.1 169 172.1 172.3 170 166.7 163.3 160 156.8 154.5 152.7 151.8 149.7 148.2 147 146.2 145.9 145.3 145.4 146.4 147.9 149.2 151.4 153.3 155.4 157.8 160.7 163.1 165.6 171 177.5 180.6 179.6 176.9 175 171.7 169.3 166.5 165.6 168 173.6 176.9 179.1 182.4 187.2 192.9 195.8 196.9 201.5 194.1 188.8 188.3 189.1 190.5 190.3 189.5 187.5 185 182.4 179.1 175.4 170.9 166.8 163.2 160.3 158 155.3 153.8 152.6 151.3 149.9 148.7 147.8 147.1 147.8 146.4 145 142.2 139.3 136.6 135.6 134.8 134.3 132.7 130.7 130.3 129.8 129.2 129.1 129 128.5 128 129.4 134.4 137.6 139.9 142.2 140.9 136.8 131.7 127.2 123.1 120.2 120.4 120.2 122.1 122.6 121.3 120.1 118.9 117.7 116.3 114.6 112.9 111.2 110.1 109 107.8 106.3 104.7 103.2 101.6 99.4 98.6 78.9 77.9 78.9 97.6 98.2 98.6 99 99 98.9 99.1 99 98.3 98.8 97.8 93.6 101.3 104.5 107.3 110 112.9 116 119.1 122.4 127.6 130 131 129.2 124.8 114.8 107.1 102.5 99.8 96.2 93 90.3 88.8 89.8 90.6 91.4 92.2 92.6 92.8 92.8 93.8 91.9 89.7 86.4 83.3 81 78 75.3 73 67.5 63.7 55 46 39.1 34 28.4 23.7 21.4 19.3 18.7 16.5
85.9 90.6 97 103.3 109.5 116 123.3 131.2 139.1 147.8 156.8 164.4 169.5 173.2 173.3 170.6 167.3 163.9 160.6 157.6 155.7 153.6 152.2 151.5 150.7 149.7 148.5 148.2 148.5 147.5 146.6 147.2 148.6 149.9 151.4 153.4 155.9 158.7 161.7 164.7 170.1 176 179.1 177.8 174.6 170.9 168.5 165.6 164.3 162.1 163.9 168.6 171.7 174.9 179.3 185.1 190.4 193.8 194.9 193.3 188.8 187.2 187.3 189.1 189.6 188.7 186.6 185.1 183.3 179 176.7 173.3 169.1 165.6 163.2 160.8 158.4 156.5 154.3 152.5 151.1 149.8 149.5 149.2 149.4 149.7 149.5 146.2 144.4 141.5 139.7 138.9 137 135.1 133.4 131.7 129.9 129.9 129.6 129.1 128.8 128.4 128.2 129.7 130 128.3 132.3 135.4 137.2 135.4 131.2 127.9 124.4 120.8 120.1 123 123.4 122.7 121.6 120.4 119.2 118 116.8 115.3 113.6 111.9 110.7 109.6 108.5 107.3 105.8 104.3 102.7 100.9 98.6 95.6 86.8 77.3 76.7 85.2 95.9 97.2 97.2 96.3 96.2 95.9 95.8 95.1 93.6 96.3 100.1 102.7 105.2 107.6 109 111.7 116.1 119.7 124.3 126.2 128.2 126.9 122.9 114.9 109.2 104.1 100.6 96.6 93.2 90.5 88.6 88.2 89.2 90.8 92.4 93.3 93.6 93 91.9 90.1 88.5 86.3 83.6 80.4 78.2 75.7 72.6 70.2 62.7 54.1 46.2 39.3 34 26.2 23.8 21.6 19.9 17.2 17 15.9
87.5 93.2 100.4 107 114.4 121.8 128.7 137.3 146.4 155.1 163.6 169.6 173.1 173.6 171.3 168 164.6 161.2 158.4 156.2 154.5 152.5 151.8 151 150.2 149.3 148.6 148.2 148 145.9 145.6 145.8 147.3 148.6 151.5 154.1 156.7 160.6 164.6 168.7 174.1 175.2 174.5 171.8 167.5 165 161.8 159.9 158.6 158.9 163.2 166.4 170.2 175.1 182.5 187.2 190.1 190.8 190.2 188 185.6 185.3 188.1 187.8 186.8 184.3 181.5 180.1 177.2 173 171.9 169.8 165.6 162.1 159.9 158.4 156.5 154.6 153.3 151.4 149.9 151.2 151.3 151.5 152 152.2 148.7 145.9 144 142.6 142.2 141.9 140.2 137.2 133.2 130.8 129.4 129.5 129.1 128.8 128.4 128.3 128.3 129.8 132.6 133 127.2 130.4 129.8 127.7 125.3 123 120 118 117 122.9 122.6 121.9 120.8 119.6 118.4 117.2 116 114.4 112.7 111.2 110.1 109 107.9 106.8 105.4 103.9 102.2 100.3 99.2 98.6 97.7 85.2 75.5 75 92.8 95.3 95.2 93.6 93.9 91.5 91.4 88.8 95.2 98.9 101.3 103.1 104.6 106 107.6 110.6 114.1 118.7 122.2 123.4 122.8 120.8 116.6 111.2 105.6 100.5 97.4 93.8 90.5 89.1 88.2 89.1 89.9 91.3 92.7 93 92.1 90.9 89.3 87.4 85 83 80.5 78.2 75.8 72.6 68.2 63.1 53.9 48.6 41.9 36.3 30 24.4 20.8 19.3 16.4 15 15.2 13.5
91.7 97.1 105.6 113.6 120.6 127.6 135.1 145.5 153.9 161.2 167.8 171.4 172.9 171.2 168.3 164.9 161.6 159 156.7 155 153.4 152.1 150.6 149 148.2 147.3 146.8 146.2 145.6 144.8 144.2 144.6 146.4 149.5 153.2 156.2 160 164.1 168.2 170.8 171.1 170.8 168.5 164.5 160.5 157.2 155.2 155.2 154.5 158.8 163.1 166.7 171.9 179 182.1 184.1 186.4 187.5 184.7 182.1 182 182.4 183.3 183.6 183.2 182 177.2 173.9 170.9 168.1 168.1 166.2 162.1 158.9 157 155.5 154.4 152.8 151.6 151 152.4 153.7 153.8 153.6 153.2 152.4 147.8 146.2 144.9 145.2 145.1 144.8 143.2 139 135.4 133 131.1 130.1 129.1 128.9 128.8 128.6 128.4 129.7 132.4 134.6 132.6 125.7 124.6 123.7 122.2 127.5 123.4 122.7 114.4 120.6 120.9 120.3 119.4 118.6 117.5 116.3 115.1 113.4 111.9 110.7 109.5 108.4 107.3 106.2 105 103.4 101.6 100.9 101 100.3 99.6 96.4 78 74.4 74.1 92.7 92.4 91.8 91.3 86.4 90.2 96.4 98.3 99.4 100.2 101.6 103 104.3 106.6 109.5 112.1 114.8 117.8 119.4 120.9 119 112.3 105.9 99.9 96 93.6 90.4 89.4 88.6 87.5 88.1 90 90.6 91 90.8 89.6 88.1 86.6 84.8 82.4 80.7 78.5 75.1 71.9 67.4 60.5 54.1 48.4 43 36.3 31.2 23.4 21.1 18.8 18.1 17.1 15.8 14.1 8.3
98.2 104 112.9 120.4 127.3 134.9 145.4 155.8 162 166.1 169.2 170.3 169.9 167.5 164.7 161.9 158.6 156.2 154.6 152.9 151.3 149.4 148 146.7 145.4 143.9 143.5 143.1 142.5 142.9 142.4 145.1 147.8 151.3 155.6 159.5 162.3 164 165.1 166.5 163.9 161.7 158 154.6 152.9 151.2 150.9 151.5 155.9 159.7 163.9 169.2 174.7 177.1 179.5 180.7 181.9 180.9 178 178.2 178.3 179 179.9 180.1 179.7 176.9 172.5 169.7 166.5 164.7 164.4 162.2 158.5 157.4 155.8 154 152.7 152.2 152.4 153.6 154.6 155 154.8 154.4 153.6 150.9 149.8 148.1 147.4 148 148.3 148.3 145.9 141.6 139.4 137 136.3 135.3 132.4 131.5 130.1 129.7 129.7 130.9 132.4 134.1 134.6 132.1 133.2 132.1 131 128.4 125.7 122.9 114.9 118.8 119.5 118.8 117.8 116.9 116.1 115.2 114.2 113.1 111.9 110.7 109.3 108 106.8 105.6 104.5 102.9 102.5 102.5 102.1 101.3 100.5 98.2 87.1 73.6 73.6 72.7 91.4 87.1 78.7 90.6 95.4 96.8 97.4 98.2 98.7 100 101.3 102.7 105 107.2 109.6 112 117.1 121.2 119.1 113.3 104.3 98.3 94 92.4 90.4 89.3 86.5 87.2 86.9 87.1 87.8 88.2 88.7 88.2 86.7 85.3 83.7 81.9 79.8 77.6 74.7 71.1 66.6 61.9 54.7 49 43.8 38.2 31.2 24.3 24.1 19 18 16.7 14.1 12.2 7.4 5.8
103.7 111.9 120 127.5 134.8 143 153.2 160.6 163.5 167 168.7 168.4 166 162.3 158.8 156.7 155.8 153.6 152 149.4 147.5 145.4 143.3 141.7 140.2 138.8 138.7 138.9 140.1 139.9 143.7 147.6 151.3 154.9 157.5 160.6 161.7 160.7 160.4 158.8 156 153.6 151.9 150.2 148.5 148.4 149.2 154.1 156.8 160.6 164.6 169.8 173 175.1 176.2 175 173.1 172.7 173.8 174.3 175.1 177.2 178.9 177.2 175.1 171.7 168.1 165.6 163.8 162.5 161.2 159.3 157 155.9 154.2 153.6 153.5 153.7 154.5 154.8 155.1 155.5 155.8 155.2 153 151.5 151.1 150.9 151.8 150.9 153.2 152.6 149.9 147.8 146.4 145.9 144.6 140.6 136.8 134.2 132.3 131.7 131 131.8 133.3 134.4 135.6 135 133.9 130.1 128.2 126.5 123.7 121.2 115.4 115.1 117.6 117.1 116.1 115.3 114.5 114 113.1 111.7 110.5 109.6 109.2 107.9 106.7 105.4 104.1 104.3 104.3 104.1 103 102.2 101.4 99.7 96.5 79.6 72.6 72.2 86.9 78.5 92.7 94.4 96.4 96.6 96.6 96.6 98 99.2 100.9 100.8 102 104.6 107 109.7 116.2 115.5 111.7 102.6 97.7 92.1 90.4 90 89.9 89 84.9 84.3 84.9 85.2 85.5 85.3 85.3 84.5 83.4 82 80.3 78.5 75.2 73.3 70.4 66.8 62.8 55.8 49.2 43.2 37.7 32 23.3 19.5 19.3 17.8 13.2 9 8.4 7.2 5.6 5.2
111.2 119.3 126.5 134 141.7 148.7 155.8 161.3 164.4 166.8 166 161.8 157.5 154.6 153.4 152.4 151 150.7 147.8 144.6 141.4 138.2 136.1 134.9 133.7 132.6 133 135.2 138.9 142.5 146.1 149.6 152.4 155.6 157.4 159.1 158.7 157.4 155.1 153.8 151.2 148.9 147.6 146.1 145.5 146.7 149.9 152.7 156.3 159.1 162.9 166.3 168 169.5 167.8 167.4 167.7 169.5 171.3 172.5 173.8 176.7 174.6 172.1 169.8 167.6 165.4 163.3 161.3 159.9 158.6 157.2 155.8 154.7 154.6 154.5 154.4 154.4 153.7 154.2 155.3 156.1 156.3 154.8 153.6 153.6 153.5 154.1 155.6 157.8 159.4 159 157.3 156.2 155.5 155.3 152.7 148.1 141.4 137.1 134.3 132.8 132.6 133 133.3 133.6 133.4 132.1 129.8 127.4 125 123.2 121.5 118.2 113.6 110.6 112.2 113.9 114.6 114 113.5 112.8 112.2 111 109.4 108.9 107.6 106.9 105.7 105.6 105.5 105.8 106.2 105.9 105 104 102.9 101.3 98.7 90.3 73.9 70.9 72.7 72.4 86 91.8 93.3 96.7 97.5 97.4 99 100.9 102.9 102.9 99.6 99.9 103 109 109.9 106 99.2 94.2 91.7 89.1 87.3 87.2 86.1 84 81 81.4 81.9 81.6 81.3 81.3 81.5 80.5 79.4 78.2 76.5 74.1 71.2 68.5 65.8 62.6 55.4 49 44.6 38.2 31.7 22.2 19.4 17.2 11.2 9.1 7.1 6.6 6.9 4.7 5.1 2
118.7 126 132.8 139.7 146.4 151.5 157.1 160.3 160.2 158.3 154.9 151.7 148.7 147.7 147.4 148.7 146.2 143 139.3 136.3 133.3 130.7 129.7 128.6 129.2 130.1 131.2 134.4 139.2 143.7 146.8 149.8 148.8 150.9 152.8 153.8 152.9 150.5 147.9 146.3 144.8 142.7 141.7 141.9 145.2 148.6 150.2 152.9 154.8 156.5 159.4 161.6 162.8 162.7 162.4 162.7 164.2 166.6 169.8 171.3 172 170.4 167.8 166.7 165.9 164.2 162 160.3 158.9 157.3 156 154.9 154.1 154.3 154.2 154.2 153.8 152.9 152.8 153 155.2 156.3 156.9 156 154.9 154.3 155.2 158 161.4 164.3 165.3 165.6 165.7 165.4 164.5 163.3 159.9 153.6 146 141.2 136.3 134.5 134.1 133.8 132.9 132.6 130.6 128.7 126.8 125 122.8 121.2 119.7 117.8 116 111.7 109.7 108.7 113.4 112.8 112.1 111.3 110.6 110.1 109.6 108.4 106.6 106.4 106.9 107 106.9 107.1 107.6 107.4 106.8 105.4 103.9 102.3 100.3 98.3 91.8 69.8 70.3 71.3 88.3 94.5 94 95.7 96.7 96.9 97.6 99.5 101.2 101.6 99.5 96.2 99.6 99.3 96.6 95.7 93.5 91 88.8 86.6 84.8 82.4 79.9 78.7 77.3 78 78.1 77.4 77.4 77.6 77.7 76.5 75.3 74.3 72.1 69.6 67.1 64.7 60.9 54.8 49.6 44.1 38.7 32 24.3 20.6 12.1 8 6.2 6 5.6 5.2 5 1.7 1.1 0.7
125.2 132.1 138.6 145.3 149.6 153.8 154.2 153 150.2 146.6 144.2 142.9 141.8 143.6 143.1 139 135.7 133 130.4 127.8 125.7 124.6 124.4 124.5 125.5 128.3 132.2 135.6 138.9 142.8 145.7 146 146.5 143.7 144 145.4 143.6 141.7 140.7 139.5 138.1 137.1 142.6 145.6 147.5 148.7 149.3 150.5 152.3 153.8 155.5 157.2 157.1 156.9 156 159 161.9 165 169.1 169.5 167.9 165.9 163.7 162.5 161.4 160.6 158.5 156.9 155.5 154.9 154.1 153.3 153.5 153.7 153.7 153 152.1 151.2 151.5 153.1 156 157 157.2 157.4 156.7 156.5 157.5 162.4 165.8 169.5 171.6 172.4 172.4 172.7 172.7 171.4 167.2 159.1 150.4 145 139.4 136.6 134.9 133.6 131.9 130 128.3 126.4 124.5 122.6 121 119.4 118 116.7 115.8 115.3 112 106.5 111.9 111.3 110.5 109.7 109 108.5 107.7 106.8 107.2 106.8 107.2 108 108.2 108.5 108.8 108.8 108.3 107.4 105.6 103.9 102.1 100.8 98.7 84 68.9 67.7 74 92.4 93 93.6 94.3 95.9 96.7 96.6 98.3 98.9 95.8 94.4 93.5 92.8 91.9 91.9 93.1 88.8 87.5 85 82 78.9 76.2 74.4 74.1 73.9 73.8 73.5 73.7 73.8 73.7 72.5 71.4 69.3 67.8 64.4 62.4 58.9 55.5 49.1 44.1 38.9 31.8 24.6 19.7 12.4 6.2 4 4.4 1.9 1.4 1.1 0.9 0.4 -0.1 -0.6
131.6 135.9 142.7 145.8 147.4 147.7 145.8 144 141.1 138.8 138.3 139.1 138.6 136.9 131.9 128.2 126 123.5 121.7 120.7 120.7 120.3 121.2 121.1 124.4 128.3 132.1 135.6 138 139.8 140.7 140.5 139.6 136.4 135.1 135.1 135.4 134.1 134.1 134.1 134.6 140.3 143.9 146.1 146.6 147.6 148.2 149.4 150 150.8 151.5 151.4 151.3 151.5 154.3 159.7 164.8 167.8 168.3 165.5 163.5 161.5 159.8 158.6 157.4 156.3 155.1 153.4 152.9 152.5 152.3 151.9 152.1 152.3 152.1 151.3 150.4 149.5 150.9 154.3 156.7 157.4 157.6 157.8 157.9 158.3 162 167 170.4 174.2 176.6 178.5 178.9 178.7 177.6 175.6 172.6 162.6 154.1 146.8 140.6 136.3 133.4 131.3 129.2 127.5 125.9 124.2 122.2 121 119.2 117.6 117.3 116 115.3 114 111.8 104.3 109.1 109.6 109 108.2 107.4 106.8 106.2 106.5 107 107.4 107.5 108.4 109.2 109.8 110.1 110.3 109.8 109.4 107.7 106.7 104.3 101.4 98.7 93.9 75.8 67.7 68.4 84.9 91 91.7 92.1 92.8 93.2 92.4 93.1 92.3 91.5 90.2 89.7 88.2 85.4 84 83.8 83.3 83 82.3 78.3 75 72.5 70.6 69.5 69.6 69.2 69.3 70.1 70.1 70.1 68.7 67.2 64.2 60.8 57.6 55.8 52.7 47.4 42.3 38.3 31.4 24 19.5 17.9 6.9 4.6 2.1 0.1 -0.3 -0.5 -0.4 -0.6 -1 -1.9 -1.9
135.6 138.9 140.9 141.4 140.4 139.1 137.3 135.4 134.4 134.1 136.4 132.6 128.5 124.4 121.9 119.7 117.9 115.7 115 115.2 115.4 115.8 119.3 122.3 125.4 128.5 131.2 132.5 134.5 133.8 134 133.3 132.8 131.1 130.2 130.7 132.3 130.2 129.3 130.9 135.3 139.2 142.1 143.7 145.1 145.9 146.7 146.4 146.1 145.8 146.6 146.7 147.5 151.5 155.3 159.6 165.9 165.6 163.9 161 159 157.1 155.7 154.6 153.4 152.2 151.1 150.6 150.3 150.5 150.9 150.9 150.2 149.7 149.3 148.9 148.4 149.6 152.1 155.4 156.3 157.2 158 158.1 158.2 162.6 167.9 172.5 175.7 178.9 181.5 182.3 182 180.4 178 175.3 171.3 163.2 153.4 145 138.5 133.5 129.6 128 126.4 124.8 123.2 121.7 120.7 119.5 117.7 115.9 115.9 115.2 113.9 112.6 110.9 103.6 106.8 107.1 106.8 106.2 105.7 105.6 105.8 106.1 106.7 107.2 107.7 108.4 109.1 109.9 110.8 111.7 111.5 111 109.8 108.8 105.8 101.1 97.4 92.7 82.7 69.2 66.9 72.2 87.9 88.6 88.5 88.2 87.3 86.6 86.7 86.8 86 85.1 83.2 81.6 79.8 78 76.6 75.6 76.1 76 73.4 70.4 68.4 66.8 64.6 64.6 64.8 65.4 65.6 65.5 64.8 63.3 61.5 58.1 54.7 51.4 49.4 45.2 41.1 36 30 24.3 19.4 17.3 8.8 5.6 2.1 -1.9 -1.9 -1.9 -1.9 -1.9 -1.9 -1.9 -1.9 -1.9
134.1 135.1 134.8 133.6 132 130.7 129.1 128 128.9 129.6 125.7 123 119.3 117.1 113.1 111.6 109.4 108.9 108.8 110.8 112.9 115.4 119 122.6 124.7 126.6 128.2 128.4 128.4 127.3 126.2 125.5 125.1 124.7 125.5 126.7 129 129.2 128.4 130.7 133 135.6 138.2 140.6 142.6 143.9 143 143.2 142.8 142.2 142 143.9 148.4 152.6 156.7 162.1 160.8 159.9 157.7 156.4 154.5 152.6 150.8 149.6 148.5 147.6 147.2 146.8 147.1 149 149.6 150 149.3 148.4 147.1 146.5 146.8 149.8 152.8 153.6 154.6 155.9 157 157.9 158.7 166.5 171.9 177.3 180.2 182.6 183.5 183.4 182.2 180.6 177.7 173.6 168.6 158.1 147.8 139.2 133.6 129.2 125.8 124.1 123 122.1 120.5 119.6 118.8 118.1 116.8 115.7 114.6 114 112.6 111.3 109.7 102.7 102.1 104.6 104.7 104.1 103.7 103.7 105.5 105.8 106.1 106.5 107.4 108.2 108.9 109.7 111.6 113.9 114.2 113.3 110 106.6 103.1 98 95.1 90.9 84.2 74.1 65.3 75.2 83.2 84.8 84.9 83.7 84 83 82.4 82.3 81.8 80.9 78.7 76.1 74.4 72.9 71.7 70.4 69.2 68.8 67.6 66.2 64.1 62 60.1 60.8 61.1 61.4 61.4 60.6 60 57.5 55.1 52.4 49.1 45.9 43 38.9 34.9 30.1 26 19.1 17.1 10.7 6.1 4.7 1.5 -0.7 -1.9 -1.9 -1.9 -1.9 -1.9 -1.9 -1.9 -1.9
129.1 128.4 126.4 124.6 123.3 122.2 123.3 123.1 121.7 120.2 117 113.8 110 106.9 105.3 104.9 104.7 104.1 106 109.4 112.3 115.3 118 120.1 121 123 122.3 121.2 121.2 120.2 120.3 121.3 121.2 120.8 121.9 123.3 125.2 126.6 128.2 129.5 130.4 132.9 137.2 139.1 140.9 141.1 140.3 139.4 139.2 139 141 145.1 149.3 153 156.3 156.6 155.4 154.6 151.6 150.9 149.8 148 146.1 144.7 144.2 143.8 143.4 143.3 145 147.4 148 148.7 148.3 147.1 145.7 144.3 146.7 149.6 151.8 152.4 152.2 153.8 155 156.8 161.4 168.7 173.4 178.9 182 183.4 183.6 183.4 182.3 179.4 175.9 170.6 161.4 150.4 141.2 133.8 129.3 124.9 122.3 120.1 119.2 119.1 118.4 117.6 116.7 116.1 115 113.7 112.6 112.4 111.4 109.8 107.5 104.6 100 101.8 102.8 103.2 102.2 101.6 103.9 104.8 105.2 106.1 107.1 108 108.7 109.7 112.1 116.5 113.5 108.8 105.1 102 98.6 94.9 91.5 88.1 84.3 76.8 68.6 80.9 80 80.7 81.5 80.8 80.6 80.4 79 77.7 77.1 75.7 74.1 71.5 70 68.5 67.6 66.1 64.9 63.3 62.8 61.7 60.1 58.2 57.3 57 57.4 57.2 56 54.9 53.7 50.8 48 46.5 43.6 40.4 36.6 32.5 28.8 22.8 18.3 14.4 9.8 6 5 2.1 0.2 -1.9 -1.9 -1.9 -1.9 -1.9 -1.9 -1.9 -1.9 -1.9
121.6 121.2 119.2 117.9 118.3 118.5 117.3 115.5 113.7 111.4 108.4 105.4 102.7 101.1 100.6 100.2 100.1 104.2 106.4 109.2 112.3 113.9 116.5 117.8 118.4 118.5 117.8 116.6 115.4 116 116.7 117.5 117.4 117.7 119 120.8 123.3 125.5 128.1 129.6 130.9 132.9 136 136.8 137.4 137.6 137.1 136.4 136.3 138.1 141.6 144.8 147.7 150.8 152.5 152 151.1 148.5 146 145.5 144.9 143.2 141.4 140.3 139.9 139.7 139.9 139.6 142.4 145.5 147.7 147.1 145.9 143.9 141.9 144.2 146.1 146.5 147.4 148.5 149.1 149.3 152.3 158.1 163.9 170.5 175 178.3 181.1 183.2 183.1 182.1 180 177 168 163.8 153.4 143.8 135.6 129.3 124.5 121.1 118.7 116.8 115.9 115.8 115.1 114.7 114.7 113.8 112.7 111.6 110.5 109.7 109.3 107.8 106.1 104.5 102.9 98.1 93 103 102.4 100.3 103.5 103.7 104.8 105.7 106.7 107.7 108.3 109.9 112.2 111.4 108.3 103.8 100.1 96.9 93.9 91.1 88.2 84.7 80.8 68.3 77.4 79.4 78 76.9 77.8 77.5 77.1 75.8 73.3 72.2 71.3 70.3 68.9 67.4 65.8 64.7 63.4 61.8 59.9 58 57.8 57 55.9 55.3 53.8 52.9 53.6 52.4 51.2 50 48.1 44.5 42.5 40 38 35.3 32.2 25.2 15.9 9.9 7.2 6.2 6.2 3.6 1.8 0.3 -1.9 -1.9 -1.9 -1.9 -1.9 -1.9 -1.9 -1.9 -1.9 -1.9
113.6 114 114.3 114.8 114.3 112.3 109.6 107.7 105.9 102.5 99.7 97.6 97.2 96.6 96.5 98.2 101.3 104.1 107.4 110.8 112.5 113.9 115 115.8 115.7 115.4 115.2 114.5 114 114.3 114.6 115.3 116.2 117.2 118.8 121.5 124.1 127.1 128.5 129.7 131.3 132.4 134.2 134.3 134 134.1 133.9 133.5 135.7 138.8 141.5 144.2 146.7 148 147.3 146.4 144.9 142.5 140.5 140 139.4 138.4 136.6 136.4 136.6 136.8 137.1 137 139.9 142.9 144.1 143.6 142.5 141.7 139.1 142.4 142.8 143.1 143.4 144.3 145.4 148.1 153.6 159.5 165.2 170.2 174.8 176.8 179.1 180 179.7 177.9 175.5 172.4 166 157.2 146.8 137.6 129.5 124.5 120.7 117.5 115.6 114.3 113.5 113 113.2 113.2 113 111.9 110.8 109.9 108.7 107.4 106.4 105.4 104.8 104.8 103.7 89.8 92.6 101.6 99.8 98.4 101.5 102.8 103.9 104.5 105.5 106.5 107.1 107.7 107.2 105.1 103 98.8 95 91.9 89 86.3 83.5 80.7 77.7 68.4 75.8 76.2 75.9 73 73.2 73.5 72.6 70.5 68.7 67.1 65.5 64.7 64.4 63 61.7 60 59 57.8 55.4 53.1 52.4 51.9 51.5 51.6 50 48.3 49.3 48.2 46.9 45.6 43.7 40.8 38.5 36.2 32.4 27.1 16.4 8.9 7.3 5.7 3.5 1.7 1.2 0.8 -0.1 -1.9 -1.9 -1.9 -1.9 -1.9 -1.9 -1.9 -1.9 -1.9 -1.9 -1.9
107.5 108.2 109.6 109.4 108.4 105.7 103 100.2 97.6 95.2 94 93.3 93.7 95.9 98.8 101.4 105.5 108.5 111.5 113.4 115.3 117.6 118 117.1 115.5 114.4 114.2 113.6 113.5 113.7 113.9 114.5 115.6 116.7 119.3 121.9 124.5 126.8 128.4 129.4 130.3 131.1 131.7 132.3 132.2 131.5 131.1 133.3 135.3 137.5 139.8 140.7 142.3 142.8 141.6 139.5 137.8 136 135 134.5 134 133.4 133.5 133.5 133.7 134 134.2 134.6 137.4 139.9 140 140 138.9 137.9 137.8 138.7 139.5 139.9 139.8 140.7 143.2 148.6 154.7 159.4 163.1 168.3 171.6 173.1 175 176.2 176.4 173.4 170.3 165.4 158.2 149.5 140.1 132.3 126 121.1 117.4 115.2 112.9 112 111.3 111.1 110.8 111.3 111.2 110.1 109.1 108.2 107.2 106.4 105.5 103.9 103.8 104.3 94 88.5 92.4 95 97.8 96.5 100 101 101.9 101.4 102 102.9 103.5 102.8 100.8 98.8 96.7 93.4 90 87.1 84.2 81.9 79.5 77.2 74 68.5 73.7 74.1 72.9 71.2 70.4 69.4 67.8 66.1 65 63.4 61.8 61.2 60 59.2 58.1 55.9 54.6 53.4 51.9 49 47 46.6 45.8 46.9 46.1 43.1 44.3 43.4 42.4 41.1 39.3 37.2 34.1 31.3 17.8 9.6 8.3 6.2 1.8 1.9 0.4 0 -0.6 -1.1 -1.9 -1.9 -1.9 -1.9 -1.9 -1.9 -1.9 -1.9 -1.9 -1.9 -1.9 -1.9
103.8 105.2 104.4 102.7 100.5 98.6 96.7 94.8 92.7 92.6 91.5 93.4 95 98.7 103.4 107 110.5 113.7 117.4 119.7 120.9 120.8 120.1 118.9 116.1 113.7 113.2 113.1 112.9 113.1 113.4 113.9 114.9 115.9 118.3 120.9 123.2 126 127.9 128.6 129.5 129.1 128.9 129.5 129.6 129.8 129.7 131.9 133.8 135.2 136.8 137.5 138.1 137.2 136.2 134.9 133.6 132.2 131.8 131.7 131.5 131.4 131 130.9 130.9 131.6 132.6 133.7 136.5 137.3 136.6 136 135.3 134.2 135.8 135.9 136 136.4 137.4 139.3 144.2 150.2 154.1 158.1 161.2 164.5 167 168.7 170.8 170.9 169.5 167.2 164 157.5 150.3 142.1 133.7 125.9 121.5 116.8 114.6 112.5 110.5 109.8 109.4 109.1 108.8 108.5 108.5 109 108.5 107.4 106.6 106.2 105.6 103.4 103.1 101.9 97.6 97.1 97.9 89.1 94.2 95 98.3 99.1 99.3 98.8 98.5 99.3 98.4 96.4 94.4 92.5 90.4 87.1 84.4 81.9 79.8 78.2 75.9 73.6 70.8 63.3 70.4 70.2 69.3 68.2 65.9 64.7 63.7 62.1 61.3 59.9 58.7 57.5 56.2 55.5 54.5 52.5 50.3 49 47.5 45.7 44.9 44.8 44.2 42.7 42.2 38.5 39.4 38.5 37.5 36.6 35.2 33.5 24.8 12.7 6.6 4.5 1.8 0.9 0.1 -1.9 -1.9 -1.9 -1.9 -1.9 -1.9 -1.9 -1.9 -1.9 -1.9 -1.9 -1.9 -1.9 -1.9 -1.9 -1.9 -1.9
100.2 100 98.4 96.7 94.9 93.5 91.6 90.7 90.4 89.7 91.7 94.2 98.2 104.2 108.6 112.8 116.3 121.3 123.3 124.3 123.8 120.7 117.7 116.7 115.5 113 112.9 112.7 112.7 113.3 113.9 114.8 115.8 117 118.4 120.3 123.7 126.9 127.1 127.3 128.6 127.3 126.9 126.7 126.9 127.4 127.7 129.4 131.2 132.4 133.7 134 133.8 133.1 132.2 131 130.3 129.9 129.9 129.8 129.6 129.5 129.2 129.6 129.8 130.7 131.7 132.8 135 134.6 134.1 133.4 132.9 132.9 133.8 133.9 134.5 135.4 136.7 140.4 146 150.2 152.5 154.6 157.3 159.3 160.7 162.1 163.3 163.4 162.7 159.7 155.3 148.9 142.2 134.2 127.8 121.3 117.1 113.9 111.5 109.5 108.7 108.6 108.4 108.2 107.8 107.8 108.1 109 107.9 106.5 105.6 105.4 104.5 102.5 99.1 97.5 87.1 95.9 95.7 94.1 87.6 93.8 96.1 96.3 95.9 95.7 95.4 94.1 92.2 90.2 88.2 86.2 84.2 81.9 79.4 77.1 75.4 74.1 72.3 69.8 67.6 49.6 66.3 66.2 65.5 65 62.2 60.8 60 59.3 58 57 55.4 54.3 53.1 51.9 50.9 49.1 46.6 45.2 44.5 44.5 44.3 44.4 43.6 41.6 38.9 36.2 35.2 35.1 34.1 33.2 28.2 20.3 10.3 4.8 1.4 0.7 0.1 -0.8 -1.9 -1.9 -1.9 -1.9 -1.9 -1.9 -1.9 -1.9 -1.9 -1.9 -1.9 -1.9 -1.9 -1.9 -1.9 -1.9 -1.9 -1.9
95.8 94.8 93.6 92.8 91.4 90 89.1 89.3 89.2 91.4 93.8 97.5 102.1 107.1 113.6 118.9 125 126.6 125.6 122.9 121.5 118.9 115.3 114.1 112.6 112.9 113.2 114.1 115 115.4 115.9 116.6 117.6 118.8 120.3 122.6 125.5 126.8 128.3 125.7 125.8 125.6 125.2 124.7 124.9 125.3 126.3 127.6 129 130.1 130.7 130.7 130.4 129.8 129.4 128.7 128 127.8 127.8 127.9 127.8 127.6 127.3 128.1 129.2 129.8 130.9 131.9 132.4 132 131.6 131.2 132.9 133.4 133.3 133.3 133.5 134.4 135.8 140.4 144.2 145.9 148.2 150 151.7 153.1 154.6 155 154.3 154.3 152.3 150 145.8 139.4 133.5 127.9 121.8 117.1 113.8 110.6 109.4 108.2 107.7 107.6 107.5 107.4 107.2 108.3 108.8 107.9 105.8 103.8 102.5 102.2 100.5 99 97.2 94 94.8 92 92.9 91.5 81.4 90.7 92.8 93.1 92.4 90.9 90.7 89.5 87.5 85.6 83.5 81.4 79.3 76.9 74.8 73 71 69.8 67.6 65.9 64 49.4 61 62.3 61.5 60.5 58.8 58.4 57.2 56.8 54.6 54.1 52.2 51 49.9 48.7 47.6 46.3 44.6 43.8 44.4 43.7 42.9 41.3 40.5 39.2 38.1 35.1 28.8 29.4 29.5 27.4 12.4 8.1 2 0.8 0.1 -1.9 -1.9 -1.9 -1.9 -1.9 -1.9 -1.9 -1.9 -1.9 -1.9 -1.9 -1.9 -1.9 -1.9 -1.9 -1.9 -1.9 -1.9 -1.9 -1.9 -1.9
92.2 91.1 90.4 90.2 89 87.6 87 88.4 90.8 93.8 97.3 101.9 107.9 113.9 119.4 125.5 126.8 125.8 123.4 120.5 117.7 115.3 113.4 110.3 113.3 113.3 115.1 116.6 117.4 117.8 118.5 119.2 120 120.9 122.9 125.3 126.2 126 126.1 124.8 124.4 124 123.5 123.4 123.7 124.2 125.7 126.5 127.2 128.3 128.3 128.2 127.7 127.1 126.7 126.5 125.8 125.7 125.7 125.7 125.8 125.7 125.5 126.5 127.7 129 130.4 130.1 129.8 129.4 129.3 129.9 132.5 133.9 134.3 133.7 133.1 133.3 136.1 140 142.5 143.9 144.7 145.3 146.3 147.7 148.4 148.2 147.4 146.2 143.2 140.1 136.7 131.6 126.4 120.8 116.9 113.3 109.8 108.7 107.7 107.2 106.4 106.5 106.4 106.6 108 109.1 107.6 105.3 102.9 101.3 99.9 98.3 96.8 95.4 93.6 93.6 92.4 91.8 90.1 88.9 81.4 87.7 89.3 89.7 88.5 87.9 86 84.9 82.9 80.8 78.7 76.6 74.5 72.8 71 69 67.1 65.4 64.2 62.4 60.1 48.9 54.6 57.3 58.3 58.3 55.7 55.2 54.8 53.9 52.5 51.1 49.3 47.8 46.6 45.7 44.8 44.2 43.6 41.8 42.1 41 39.7 38.5 37.7 36.1 35.3 35 33.1 29.7 17 11 5.4 1.7 0.4 -0.7 -1.9 -1.9 -1.9 -1.9 -1.9 -1.9 -1.9 -1.9 -1.9 -1.9 -1.9 -1.9 -1.9 -1.9 -1.9 -1.9 -1.9 -1.9 -1.9 -1.9 -1.9 -1.9
88.6 87.6 87 87.1 86.7 85.2 87.2 90.1 93.6 98.3 103.2 109.2 116.5 122.4 125.9 126.1 125.5 124.1 121.4 118.8 116.8 115.3 113.3 113.6 114.3 115.3 117.2 119.1 119.8 120.4 121.1 121.8 122.7 124.7 126.4 127.1 126.8 125.7 124.1 123.4 122.9 122.3 121.9 122.4 123 123.6 124.7 125 125.8 125.8 125.5 125.3 124.9 124.4 123.9 123.7 123.6 123.5 123.6 123.6 123.7 123.7 123.8 125 126.3 127.9 127.3 127.2 127.9 128.8 129.6 131.8 134.2 134.8 133.8 133 132.2 132.8 136.3 137.7 140.1 140.5 140.6 140.7 141.4 141.8 141.6 141.3 140 138.8 136.1 132.6 128.9 124.3 120 116.1 113.2 110.2 108.3 107.1 106.2 106.1 106.6 107.4 107.1 106.3 106.9 106.1 104.1 102.9 100.2 98.5 96.8 95.7 94.7 92.7 91.7 90.2 89.1 88.3 87.5 86 73.7 84.4 85.3 85.3 85.4 83.9 82.7 80.7 79 76.9 74.8 72.9 71.1 69 67.5 66.3 64 62.3 61.6 60.1 58 38.7 49.8 53.4 54.3 54.9 53.6 53.2 51.7 49.4 48.7 47.9 45.7 44.7 43.9 43 42.2 42.7 41 39.4 38.9 38.1 36.4 33.9 34.1 33.6 32.9 31.4 27.1 19.9 11.3 5.9 1.6 -1.9 -1.9 -1.9 -1.9 -1.9 -1.9 -1.9 -1.9 -1.9 -1.9 -1.9 -1.9 -1.9 -1.9 -1.9 -1.9 -1.9 -1.9 -1.9 -1.9 -1.9 -1.9 -1.9 -1.9 -1.9
85.2 84.3 83.7 83.4 84.4 85.4 89.3 93.2 99.6 104.4 111.7 119 125.2 127.1 127.8 126.9 125.3 122.7 121.2 119.4 117.4 115.5 112.9 114.4 115.9 117 118.3 121.6 123 123.5 124.2 124 125.5 127.4 127.9 127.6 126.7 125.2 123.5 122.5 121.9 121.4 121.2 121.5 122.4 123.1 123.6 123.4 123.4 122.9 122.8 122.4 121.9 121.7 121.1 121 121.7 121.1 121.1 121.2 121.3 121.4 123.6 124.2 125.6 126.7 127.7 128.9 129.3 129.6 131 133.7 135.2 134.6 133.3 132.2 131.4 131.9 134 135.1 135.6 136.2 136.3 136.5 138 137.7 137.3 136.4 134.3 132.3 129.4 126.2 123 119 116.1 113.5 111 108.1 106.8 105.8 105.4 106.1 107.5 108.3 107.9 105.1 103.9 102.6 101 99.8 97.9 95.8 94.3 92.5 91.4 90.5 88.9 87.7 86.9 86.1 85.1 84.1 81.8 69.5 80.3 80.8 81.3 80.5 78.7 76.3 75 73 71.2 69.5 67.6 66.3 64.3 62.8 61.2 60.5 59.4 57.6 55.2 36.7 41.7 49.2 49.6 52.4 51.9 50.1 49.3 47.1 45.1 43.8 43 42.1 41.3 40.5 40.3 40.5 38.5 36.5 35.8 35.1 33.5 29.9 28.8 27.3 23.3 20.4 7.8 4.2 2.1 2 -1.9 -1.9 -1.9 -1.9 -1.9 -1.9 -1.9 -1.9 -1.9 -1.9 -1.9 -1.9 -1.9 -1.9 -1.9 -1.9 -1.9 -1.9 -1.9 -1.9 -1.9 -1.9 -1.9 -1.9 -1.9 -1.9
81.9 80.9 81.2 81.5 85.2 88.2 92.6 97.7 105.3 113.1 120.9 126.6 129.7 130.3 130 127.6 125.1 122.2 118.9 117 115.5 114 110.5 114.1 116.5 118.1 120.6 124.7 125.4 126.1 125.6 126.5 128.2 128.6 128.2 126.6 125 123.6 122.2 121.4 121.4 120.6 120.6 120.7 121.2 121.7 121.5 119.8 119.8 118.9 120.1 119.5 118.9 118.7 118.4 119.1 119.9 119.2 118.9 119.1 119.4 121.4 123.9 126.3 128.3 129 129.6 129.3 129.3 129.5 133 135.1 135.3 134.2 132.8 131.5 130.7 130.1 131.5 131.6 131.8 132.2 133.1 134 134.2 133.5 132.7 131.8 130.4 127.9 125 121.6 118.7 115.9 112.9 110 108.3 108 106.9 105.3 105.7 107 106.7 105.8 104.4 102.9 101.2 99.4 97.9 97.1 95 93.9 92.9 90.2 88.7 87.6 86.4 85.6 84.9 83.9 82.9 81.8 80.8 64.9 76.4 76.4 77.2 76.3 75 72.8 71.4 69.5 67.8 66.2 64.5 63.4 61.5 60.3 59.5 58 56.9 53.8 52.6 47 21.6 45.4 47.2 48.6 49.1 47.2 46.1 44.6 42.3 41.2 40.4 39.6 39.3 37.9 37.9 37.6 35.7 33.7 33.7 32.5 26.7 21 19 18.4 12.7 7 4.1 1.3 -1.9 -1.9 -1.9 -1.9 -1.9 -1.9 -1.9 -1.9 -1.9 -1.9 -1.9 -1.9 -1.9 -1.9 -1.9 -1.9 -1.9 -1.9 -1.9 -1.9 -1.9 -1.9 -1.9 -1.9 -1.9 -1.9 -1.9 -1.9
78.7 78.3 79.5 82.5 86.7 91.2 96.6 103.8 114.4 122.7 128.2 129.7 130.6 128.8 124.5 121.4 118.9 116.4 114.6 113.4 112.1 110.2 104 113.8 118.5 124.1 125.1 125.7 126.5 126.7 127.6 129.1 128.9 128.5 126.6 124.9 123.2 121.9 120.5 120.4 120 120 120.4 120.8 120.9 120.8 120.3 120.9 119.8 118 115.6 114.6 117.6 117 116.4 117.1 118.1 117.4 118.1 118.7 121.2 124.6 129.7 130.3 129.3 129.2 129 128.6 129.5 131.2 134.9 135.5 135 133.7 132.2 130.6 130 129.1 129 129 129.2 129.8 130.7 130.8 130.1 129.2 128 127.2 126.3 124 121.2 118.3 115.3 112.4 109.8 107.6 107 107.1 108.6 104.5 104.1 103.5 103.2 101.7 101.8 100.5 98.6 96.4 95 93.6 92.1 91.7 90 88.4 86.7 85 84.1 83.3 82.5 81.5 80.2 79.1 78 61.5 71 72.4 73.7 72.9 71.8 69.3 67.9 66.3 64.7 63.3 61.8 60.4 59.1 58 56.8 54.3 53.9 52.8 49.7 43.2 29.2 20.5 36.9 45.7 46.8 44.5 44 41.7 40.5 39.2 38.3 37.7 36.8 35.3 34.5 34 33.1 31.3 30.6 19.5 9.2 2.6 6.4 5.3 15 1.9 -1.9 -1.9 -1.9 -1.9 -1.9 -1.9 -1.9 -1.9 -1.9 -1.9 -1.9 -1.9 -1.9 -1.9 -1.9 -1.9 -1.9 -1.9 -1.9 -1.9 -1.9 -1.9 -1.9 -1.9 -1.9 -1.9 -1.9 -1.9 -1.9 -1.9
75.5 78.9 81.5 85.2 89.3 94.9 103.7 112.5 122.6 128 129.2 127.3 125.2 122.4 118.8 115 112.5 110.5 108.9 107.9 102.5 105.3 113.5 119.2 120 125.5 125.9 126.2 126.8 127.9 128.7 129.7 128.3 127.4 125 123.1 121.5 120.2 119.1 120.9 121.6 122.4 122.6 122.1 122.4 122.8 123.2 122.5 120.7 119.4 117.8 113.2 116.5 117.2 116.3 116.3 116.3 117 117.6 120.4 123.4 126.6 128.5 128.2 128 128 128 129.2 131.8 134 135.2 134.2 133 131.6 130.2 130.2 129.6 128.6 127.7 127.9 127.5 127.4 127.3 127.5 127.7 127.8 125.9 124.1 122.4 120.4 118.2 116.2 113.8 111.6 109.7 107 105.4 106.3 104.4 103 99.9 99.5 99 98.6 97.5 97 96.1 93.7 92.5 91 90.4 89.6 87.8 85.9 84.2 82.6 81.8 81 80.1 79.1 77.9 76.6 73.7 63.3 57.7 64.7 70.1 69.8 68.7 67.5 65.6 63.7 62.5 60.4 58.8 58.7 55.5 53.8 52.6 51.4 50.8 49.8 48.3 41.6 24.6 13 30.4 43.5 44.5 43.3 40.9 39.7 38.7 37.7 36.7 35.7 34.7 34.3 32.3 30.3 25.1 8 7.9 6.4 1.4 0.4 0.1 -1.9 -1.9 -1.9 -1.9 -1.9 -1.9 -1.9 -1.9 -1.9 -1.9 -1.9 -1.9 -1.9 -1.9 -1.9 -1.9 -1.9 -1.9 -1.9 -1.9 -1.9 -1.9 -1.9 -1.9 -1.9 -1.9 -1.9 -1.9 -1.9 -1.9 -1.9 -1.9 -1.9
76 80.2 83.6 87.6 92 101.2 110.3 119.9 124.5 126 124.1 121.4 118.3 115.5 112.2 108.7 106.6 105 103.4 96.6 108.9 116.8 121 124.1 125.4 125.8 126.2 126.7 127.8 129.6 131.1 130 128.2 126.3 123.9 121.6 119.8 119 118.3 118.6 120.5 122 122.3 122.6 122.5 121 120.1 117.7 116.1 115.8 114.9 109.8 115.2 115 116 116.8 115.7 116.5 118.5 122 124.3 125.2 125.7 126 125.8 125.6 125.8 130.9 133.1 133.2 133.8 132.9 131.6 131.4 130.5 129.9 129.1 127.9 126.7 126.8 126.3 126 126 126.2 126.4 126.3 124.9 122.5 120.7 119.2 117.8 115.5 112.9 110.8 107.1 103.5 102.5 100.8 99.8 98.2 96.7 96.4 95.8 95.9 95 94.1 93.3 92 89.8 89.1 88.6 86.9 85.2 83.4 81.8 80.1 79.4 78.6 77.8 76.7 75.2 73.3 71.6 65.3 56.1 59.4 68 66.5 65.5 64.8 63.2 61.1 59.8 58.2 59 54.9 54.1 52.5 50.9 49.3 48.5 47.9 46.7 43.3 26.1 11.8 20.2 38.8 41.9 40.6 38.8 37.6 36.6 36.1 35.9 34.6 33.9 32.6 31 29.2 26.5 5.3 5.7 1.9 0.4 -1.9 -1.9 -1.9 -1.9 -1.9 -1.9 -1.9 -1.9 -1.9 -1.9 -1.9 -1.9 -1.9 -1.9 -1.9 -1.9 -1.9 -1.9 -1.9 -1.9 -1.9 -1.9 -1.9 -1.9 -1.9 -1.9 -1.9 -1.9 -1.9 -1.9 -1.9 -1.9 -1.9 -1.9 -1.9
78.3 81.9 85.1 89.2 96.2 105.8 115.3 119.2 119.1 119.3 117 113.9 111.1 108.3 105.2 102.2 100.9 96.1 100.4 111.6 118.9 122.1 123.5 124.7 125.9 126.4 127.6 128.7 130.1 131.2 129.6 128.7 126.6 123.3 121 119.7 119.1 118.6 119.4 119 119.9 116.8 121.7 121.7 119.8 116.8 115.1 112.9 112 111.8 111.3 109 113.6 115.4 117.6 117.4 115.8 115.5 118.8 121 121.4 121.5 122.7 123.6 123.7 123.8 127.2 131.3 132 132 132.4 131.5 130.4 129.5 129.6 128.6 127.8 126.6 125.6 126.2 125.5 125.1 124.9 125 124.6 123.3 120.7 117.1 118.9 118.6 117.1 114.3 111.3 107.4 103.8 100.9 98.5 97.7 96.9 96 92.6 94 93.8 93.4 92.2 91.4 90.7 90.3 89 87.7 85.9 84.3 82.5 81.4 80 78.6 76.7 76.2 75.6 73.4 72.7 71.4 70.1 67.3 55.3 58.2 66.3 64.8 63.6 62.6 59.3 59.2 58 55.9 54.3 54.7 51.8 50.3 48.7 47.6 46.8 46 45.2 43.2 30.3 12.8 11 29.6 39.4 39 37.2 35.7 35.5 35.2 35 33.7 32.5 31.3 24.4 27.3 6.8 5.7 4.5 1.5 0.2 -1.9 -1.9 -1.9 -1.9 -1.9 -1.9 -1.9 -1.9 -1.9 -1.9 -1.9 -1.9 -1.9 -1.9 -1.9 -1.9 -1.9 -1.9 -1.9 -1.9 -1.9 -1.9 -1.9 -1.9 -1.9 -1.9 -1.9 -1.9 -1.9 -1.9 -1.9 -1.9 -1.9 -1.9 -1.9
79.7 83 86.7 92.7 102.5 110.3 113.4 114.5 113.5 110.9 108.4 107.1 104.1 101.1 98.2 95.9 88.9 103.5 113.9 118.7 121 122.6 123.7 124.7 127.3 128.5 129.9 130.4 129.9 128.8 127.3 125.2 123.9 121 119.8 119.1 119 120.7 121.5 121.6 121.4 115.5 119.1 117.9 114.9 112.7 110.8 108.9 107.8 107.5 107 107.8 110.3 114.5 117.1 117.9 116.1 115.1 117.1 118.5 118.7 119.7 120.7 121 122.5 126.4 129.8 132 133.1 132.3 131.2 130.2 129.2 128.3 127.4 126.8 126.2 125.3 124.2 124.3 125.5 125.6 125.1 124.5 124.6 125.1 123.8 121.2 112.8 115.4 113 110.1 106.7 104.8 101.5 98.4 95.6 95 94.1 93.3 91.5 92.4 92.1 91.8 91.1 89.7 88.6 87.5 86.7 85 82.6 81.7 79.9 79.4 78 76.8 75.4 74.7 73.3 71.7 69.8 68.5 68.1 67.2 57.8 51 61 62.4 61.2 59.2 57.4 57.1 54.8 53.8 52.2 50.5 49.2 48.2 46.9 45.9 45.4 44.7 43.6 42.1 36.9 12.5 12 16.9 36.4 37 35.9 34.2 33.4 33.5 33.6 32.5 31.2 30.2 26 11.1 5.6 4.3 1.9 0.8 -0.3 -1.9 -1.9 -1.9 -1.9 -1.9 -1.9 -1.9 -1.9 -1.9 -1.9 -1.9 -1.9 -1.9 -1.9 -1.9 -1.9 -1.9 -1.9 -1.9 -1.9 -1.9 -1.9 -1.9 -1.9 -1.9 -1.9 -1.9 -1.9 -1.9 -1.9 -1.9 -1.9 -1.9 -1.9 -1.9
80.5 84.1 89.6 97.4 104.4 106.5 106.1 104.6 104.2 101.7 99.3 98.2 97.4 95.1 85.5 91.7 103.7 112.8 117.7 119.8 121.2 122.9 124 126.4 128.9 128.3 127.9 127.7 127.3 127.3 126 124.5 121.7 120.5 119.6 119.5 119.8 121 121.4 120.4 119 116.2 114.6 114.2 111.2 109.9 107.7 105.8 104.8 103.7 104.2 104.2 107.6 110.2 113.7 117.9 118 115.5 115.2 115.9 117 118.6 120.3 122.7 125.2 125.2 127.4 132.4 131.8 130.7 129.9 128.9 128.2 127.2 126.1 125.6 125.6 125.7 124.5 123.3 126 126.1 126.7 128 127.1 126.1 124.1 120.1 115 105.7 106.2 105.3 103 101.4 98.6 95.7 93.3 92.3 91.9 91.2 90.5 89.5 90.2 90.1 88.3 87.7 85.5 84.6 83.5 82 79.5 78.6 77.2 77.4 76.1 75.1 74.1 72.2 70.9 69.6 67.3 66 65.1 64.2 60.6 62.4 51.9 60.3 59.7 57.8 54.3 53.1 52.6 51.9 50.4 48.6 47 46.1 45.2 45 44.8 44.2 42.9 39.4 34.7 12.7 9.7 11.1 33.1 33.4 33.7 33.4 30.4 30.3 33.3 31.4 31 28.5 26.1 10.6 6.6 3.9 1.2 0.1 -0.8 -1.9 -1.9 -1.9 -1.9 -1.9 -1.9 -1.9 -1.9 -1.9 -1.9 -1.9 -1.9 -1.9 -1.9 -1.9 -1.9 -1.9 -1.9 -1.9 -1.9 -1.9 -1.9 -1.9 -1.9 -1.9 -1.9 -1.9 -1.9 -1.9 -1.9 -1.9 -1.9 -1.9 -1.9 -1.9
81.1 85.3 91.5 96.9 96.2 96.8 95.6 94.4 94.2 92.8 91.2 90.1 89.6 83 97.8 104 110.8 115.2 118.4 120.1 121.6 123.2 125.2 127.2 128.4 128.3 127.5 126.8 126.9 126.2 125.6 125.5 123.3 122.1 121.5 120.9 121.4 121.6 121.3 120.3 117.8 115.3 109.9 108.9 108.2 107 104.8 103.2 102.5 103 103.5 104.2 104.2 106.6 110.4 115.6 118.4 117.9 113 115.7 118 120.3 123.6 126.6 128.8 131.1 131.5 131.2 130.7 129.2 128.5 128 127.6 127.2 127.4 126.1 124.9 124.3 122 120.3 127.5 128.2 128.2 125.1 122.9 120 116.9 115.1 110.1 102.1 102 101.7 99.9 97.8 95.5 92.9 90.9 90.2 90.5 89.8 88.8 86.2 87.7 87.2 85.6 84.1 82.7 82 80 78.7 77.6 75.3 74 74.2 73.8 73.4 72.4 71.1 68.1 67.1 65.2 63.3 62.4 62.2 61.2 53.6 52.2 49.4 57.3 55.2 53.2 52.1 50.4 49.7 48.7 46.9 45.6 44.6 44 44 43.6 43 41.9 40.7 35.6 10.1 8.6 9.9 34.3 34.2 33.8 32.9 16.1 13.2 15.8 20.6 28.9 26.7 17.8 7.5 6.1 1.9 0.7 -0.5 -1.9 -1.9 -1.9 -1.9 -1.9 -1.9 -1.9 -1.9 -1.9 -1.9 -1.9 -1.9 -1.9 -1.9 -1.9 -1.9 -1.9 -1.9 -1.9 -1.9 -1.9 -1.9 -1.9 -1.9 -1.9 -1.9 -1.9 -1.9 -1.9 -1.9 -1.9 -1.9 -1.9 -1.9 -1.9 -1.9
79 84.2 86.1 86.1 86.6 87.6 86.9 86 85.7 85.4 84.8 82.7 83 96.6 103.5 108.6 112.7 115.1 117.9 119.8 122.2 124.6 126.1 127.6 127.8 128 127.6 128.2 128.7 128.6 127.9 126.9 125.4 124.7 122.9 122 122.3 122.5 121 119.6 117.5 114.9 111.7 109.9 102.2 102.9 103.3 102.1 100.7 101.3 100.1 101.3 104.6 104.2 107.5 113.4 117.2 117.6 112.7 117.9 120.8 123.3 126.5 129 131.3 131.9 130.5 130.1 129.6 129 129.2 130.2 131 129.5 128.2 126.9 125.2 123.4 120.7 118.4 122.3 122.7 121.1 119.5 117.1 114.4 112.1 109 106.1 99.7 95.5 97.6 96.7 94.6 92.9 90.8 88.8 88.1 89.1 88.5 86.8 83.1 84.7 84.1 82.9 80.8 78.8 76.9 76.1 74.9 73.8 72.8 70.7 70.8 70.7 71.2 70 68.8 65.6 64.3 62.8 61.8 60 60.7 58.3 54.4 45.2 52.5 54.5 53.9 52.9 51 48.9 47.4 46.9 46.6 45.5 44 42.9 42.5 41.8 41.2 40.7 39.4 28.3 9.7 8.9 8.8 33.6 33.1 33 13.3 8.9 6.9 5.5 13.5 25.7 25.1 21 7.8 4.3 1.3 0.2 -1 -1.9 -1.9 -1.9 -1.9 -1.9 -1.9 -1.9 -1.9 -1.9 -1.9 -1.9 -1.9 -1.9 -1.9 -1.9 -1.9 -1.9 -1.9 -1.9 -1.9 -1.9 -1.9 -1.9 -1.9 -1.9 -1.9 -1.9 -1.9 -1.9 -1.9 -1.9 -1.9 -1.9 -1.9 -1.9 -1.9
77.8 79.2 80.4 80.9 81.4 81.4 81.3 80.8 80.6 79.8 78.2 84.4 93.9 101.1 105.8 108.9 111.8 114 118.4 121.1 123.7 126.2 127.5 127.9 128 128.1 128.7 129.3 131.3 130.3 128.4 126.4 124.3 124.5 122.6 121.8 122.3 120.1 118.5 118.2 116.3 112.8 110.1 108.1 105.7 102.4 96.7 101.4 99.4 97.8 98.7 100.6 102.7 107.1 109.4 109.1 113.4 112.7 114 120.1 123.4 126.5 129 131.2 133.2 133.8 131.8 129.5 130.3 131 132.2 131.8 131.6 129.7 127.4 125.9 124.3 122.7 120.5 117.4 118.4 117.8 116.1 114.1 112.1 109.7 107.5 104.5 101.8 95.3 89.6 93.1 94 92.4 91.3 89.5 87.4 86.9 87.5 86.8 85.2 81 82.4 81.2 80.3 78.3 76.6 77.8 75.5 73.7 72.6 71.4 70 69.1 69.8 68.6 67.4 66.3 64.9 62.7 61.8 60.7 58.7 57.1 57.1 55.4 49.1 41.5 46.1 51.4 50.6 49.1 47 45.5 44.9 44.4 44.6 43.2 41.9 40.8 39.7 39.7 38.7 37.5 36.2 20.9 9.7 6.5 31.6 30.2 11.8 6.5 6.7 4.8 3 3.8 10.8 22.8 19.7 7 3.6 1 -0.5 -1.9 -1.9 -1.9 -1.9 -1.9 -1.9 -1.9 -1.9 -1.9 -1.9 -1.9 -1.9 -1.9 -1.9 -1.9 -1.9 -1.9 -1.9 -1.9 -1.9 -1.9 -1.9 -1.9 -1.9 -1.9 -1.9 -1.9 -1.9 -1.9 -1.9 -1.9 -1.9 -1.9 -1.9 -1.9 -1.9 -1.9
73.5 74.8 76.7 77.2 77.7 77.2 76.9 76.3 73.4 75.2 88 91.7 97.4 101.6 105.7 108.8 112.1 117.4 122.2 123.7 126.3 127 128.3 128.5 127.2 126.9 127.7 129.1 126.8 124.2 122.3 122.1 122.1 122.8 122.4 121.9 120 117.9 115.8 115.2 113.1 109.7 107.9 106.2 104 97.5 93.4 95 95.3 100.4 102.7 106.5 110.1 114.3 116.6 115.2 116.4 114.7 119 121.7 126.5 128.3 130.2 133.5 134.9 135.7 133.6 133.4 133.2 133.9 133.8 132.5 132 130.2 127.6 124.7 123.6 122 119.5 117.3 115.5 112.9 111.2 109.1 107.3 105.2 102.9 100.3 97.5 91.4 86.7 87.5 91.5 90.3 89.2 88 86.8 86.4 85.3 84.2 83 80.5 80.4 80.1 78.4 76.3 76.5 76.1 74.8 72.7 70.7 69.7 67.6 66.7 66.6 66 64.7 64.2 62.5 60.3 59.9 58.5 57.6 55.8 54.7 53.4 51.5 42.9 39.1 48.6 48.4 46.8 45.2 43.8 42.9 42.4 41.8 41.2 40.9 39.8 38.4 37.6 37.3 36.4 35 19.1 8.1 7.1 24.8 19.9 6.5 4.7 4.7 3.4 4.2 2 1.4 1.6 2.7 2.3 1.8 0.7 -0.7 -1.9 -1.9 -1.9 -1.9 -1.9 -1.9 -1.9 -1.9 -1.9 -1.9 -1.9 -1.9 -1.9 -1.9 -1.9 -1.9 -1.9 -1.9 -1.9 -1.9 -1.9 -1.9 -1.9 -1.9 -1.9 -1.9 -1.9 -1.9 -1.9 -1.9 -1.9 -1.9 -1.9 -1.9 -1.9 -1.9 -1.9
70.5 71.1 72.9 73.5 74 73 71.1 70.4 78.2 85.5 90.8 94.1 98.2 101.5 105.4 110.8 116.9 121.5 125 126.7 126.8 127.4 125.2 124.9 123.8 123.6 122.7 121.2 118.7 118.2 118.2 119.4 120.4 120.9 121.3 119.8 117.6 115.4 113.2 111.2 109.1 106.9 105 104.1 99.4 90.7 97 104.9 104.6 104.1 106.5 109.9 113.6 119 120.9 118 120.3 120.5 122.6 125.1 127.7 129.7 133.2 137.5 136.6 138.1 137.7 136.9 136.4 136.5 136.4 134.3 132.3 129.8 126.9 123.9 121.4 118.7 115.9 114.2 111.8 108.9 106.6 105.1 103.5 102.2 100.9 98.6 95.8 93.8 88.2 83.4 88.1 89.5 88.3 86.9 82.9 83 82.4 81.5 80.5 79.2 77.9 78.5 76.4 74.6 73.7 72.9 71.4 70.2 68.6 66.8 64.5 63.5 63.5 63.3 61.8 62 59.5 58.8 57.3 55.4 53.9 53.9 52.4 51.4 50.3 47.4 36.5 46.1 46.2 44.9 43.5 42.2 41 40.4 40 38.6 38.1 38.8 37.4 35.8 34.5 35.2 35.2 33.8 9.5 6.5 7.5 8.9 5.5 4.3 3.3 2.4 1.6 1.1 0.1 -1.9 -1.9 0.2 0.6 0.2 -0.9 -1.9 -1.9 -1.9 -1.9 -1.9 -1.9 -1.9 -1.9 -1.9 -1.9 -1.9 -1.9 -1.9 -1.9 -1.9 -1.9 -1.9 -1.9 -1.9 -1.9 -1.9 -1.9 -1.9 -1.9 -1.9 -1.9 -1.9 -1.9 -1.9 -1.9 -1.9 -1.9 -1.9 -1.9 -1.9 -1.9 -1.9
67.9 68.5 69.2 69.8 69.8 66.9 68.6 78.5 84.4 88.8 91.9 95.6 101.6 105.3 111.2 116.1 120.9 124.7 126.5 124.8 124.4 122.4 120 119.3 117.7 116.2 115.1 114 113.9 114.8 116.1 117.9 118.1 118.4 117.6 116 113.8 111.7 109.1 107.7 105.7 100.4 95 91.2 88.8 97.8 106.3 106.7 107.2 106.6 107.2 110.4 114.8 120.7 120.5 122.1 122.6 122.9 125.8 127.7 130 132.4 136.9 140.6 141.7 141.5 141.8 140.3 138.4 136.7 135.9 133.7 130.3 127.2 124 120.8 117.7 114.8 112.3 110 108.2 106.9 104.9 103.2 101.6 100.9 99.8 97.6 95.5 93.5 90.4 85.2 82.7 86.7 85.5 84.2 80.6 80.2 81.3 80.3 79.2 77.4 74.4 75.2 73.8 71.3 70.5 69.5 68.2 67 65.7 64.4 62.1 60.2 60 59.6 58 56.7 57.3 55.6 55.6 54.1 52.8 52.4 49.9 49.2 48.8 48.2 35 35.2 41.6 43.2 41.9 40.5 39.2 39.2 39 38.5 31.8 37.6 37.8 35.9 34.6 33 34.4 34.4 25 6.3 4.3 5.4 4.9 4.6 4.8 1.6 0.8 0.1 -0.6 -1.9 -1.9 -1.9 -0.7 -0.7 -1.9 -1.9 -1.9 -1.9 -1.9 -1.9 -1.9 -1.9 -1.9 -1.9 -1.9 -1.9 -1.9 -1.9 -1.9 -1.9 -1.9 -1.9 -1.9 -1.9 -1.9 -1.9 -1.9 -1.9 -1.9 -1.9 -1.9 -1.9 -1.9 -1.9 -1.9 -1.9 -1.9 -1.9 -1.9 -1.9 -1.9 -1.9
65.4 65.9 66.8 65.9 64.9 66.4 74.8 82.9 86.8 90.5 94 98.6 104.6 110.2 115.4 119.3 122.6 124.5 123.3 121.3 119.2 117.2 115.3 113.7 112.5 111.9 111.1 110.9 112.1 113.2 114.4 115.5 115.1 114.3 112.9 111.4 109.6 107.8 105.3 104.3 99.9 89.7 86.1 90.9 97.9 106.2 105.4 106 106.1 105.3 107.1 109.8 114.7 120.7 121.9 123.6 123.9 123.9 126.1 128.3 130.5 135 139.9 142.6 143.3 144.3 142.4 140.7 137.4 134.8 132.3 129.4 125.7 122.4 119.1 116.4 113.6 110.7 108.8 107.3 106.2 105.2 103.7 101.6 99.7 99.2 98.3 96.2 95.2 92.7 91.3 87.8 80.9 80.3 80.2 79.9 78.2 77.6 79.7 78.1 76.9 75 70.6 72.9 71 68.6 67.2 66.1 65 63.8 62.6 61.3 60 57.6 57.4 55.7 54.5 53.7 52.9 55.8 51.5 51.6 50.5 49.4 47.9 47.4 47.1 46.7 39.1 33.6 33.7 42.4 41 39.3 35.6 36 32.1 28.1 22.4 31.4 35.7 35.3 33.1 29.4 31.9 33.1 32.9 12.4 4.7 -1.9 4.5 4.9 1.8 0.8 0.1 -0.7 -1.9 -1.9 -1.9 -1.9 -1.9 -1.9 -1.9 -1.9 -1.9 -1.9 -1.9 -1.9 -1.9 -1.9 -1.9 -1.9 -1.9 -1.9 -1.9 -1.9 -1.9 -1.9 -1.9 -1.9 -1.9 -1.9 -1.9 -1.9 -1.9 -1.9 -1.9 -1.9 -1.9 -1.9 -1.9 -1.9 -1.9 -1.9 -1.9 -1.9 -1.9 -1.9 -1.9 -1.9
62.9 63.9 64.5 63 68.6 76.8 81.9 85.3 88.8 92.5 98.5 102.6 106.7 113.8 118.1 121.6 121 121.5 120.1 118 115.6 114.3 113.2 111.7 109.8 109.2 109.5 110 110.9 111.9 112.4 111.6 110.8 109.9 107.4 105.4 103.4 101.8 101.8 103 99.9 84.3 97.7 103.4 103.5 103 103.4 103.8 103.9 103.2 105.9 108.2 112.2 119.4 121.7 122.9 123.9 124.8 126.7 128.2 132.1 136.4 140.4 143.2 143.9 143.9 141.8 139.4 135.5 131.9 128.1 124.4 120.8 117.4 114.5 111.8 109.8 107.9 106.4 105.3 104.3 103.2 102 100.5 98.5 98.5 96.5 94.7 92.4 90.5 89.1 86.8 83.9 79 76.7 75.1 74.1 73.2 74.9 74.6 73.1 71.8 69.9 69.5 68.8 66.4 64 62.9 61.7 60.6 59.4 58.4 57.7 55.8 53.4 52.9 52.2 51.6 50.7 49.9 48.7 48.8 48.1 47.2 45.9 45.5 45.2 44.2 43.8 32.2 31.9 37.8 40.3 38.1 32.9 23.9 22.5 19.5 18.4 17.1 23.6 33.8 31.5 30.3 29.9 31.8 31.4 19.7 5.3 -1.9 -1.9 -1.9 1.4 0.3 -0.8 -1.9 -1.9 -1.9 -1.9 -1.9 -1.9 -1.9 -1.9 -1.9 -1.9 -1.9 -1.9 -1.9 -1.9 -1.9 -1.9 -1.9 -1.9 -1.9 -1.9 -1.9 -1.9 -1.9 -1.9 -1.9 -1.9 -1.9 -1.9 -1.9 -1.9 -1.9 -1.9 -1.9 -1.9 -1.9 -1.9 -1.9 -1.9 -1.9 -1.9 -1.9 -1.9 -1.9 -1.9 -1.9
58.1 61.1 65.8 73.9 77.1 80.7 83.8 87.2 90.2 94.4 102.1 107.7 113 116.2 119.8 120.7 119.8 119.5 118.1 115.1 113.3 112.6 111.5 110.4 108.8 107.9 108.2 108.9 108.7 108.5 108.5 107.8 106.7 105.2 101.9 99.1 98 97 97 97.8 97.6 84.6 89.8 98.1 99.5 99.8 99.5 99.8 100.3 99 102.8 105.8 110.1 117.3 121.6 122.5 123.1 124.5 125.9 127.3 131.8 135.8 139.4 141.3 142.6 140.4 139.7 135.2 129.6 125.9 122.1 118.3 115 113.4 111.5 109.5 107.5 105.7 104.4 103.4 102.4 101.3 100.2 98.8 96.7 95.3 94.5 92 89.4 87.3 86.8 84.6 82.3 80.1 78.6 77.7 76.3 73.1 69.9 69.9 70.4 70 67.6 66.1 66.6 64.2 62 60.8 59.7 59.1 58.6 56.9 55.4 54.6 52.1 50.3 50.1 49.9 48.9 48 46.9 45.9 45.3 44.9 44.7 41.4 43 40.1 38.2 40.7 29.9 28.9 28.9 26.6 23.9 22.6 22.5 23.7 30.1 24.6 15.6 30.1 27.6 23 19.7 30.9 30.1 14 4.6 4.6 -1.9 -1.9 -1.1 -1.8 -1.9 -1.9 -1.9 -1.9 -1.9 -1.9 -1.9 -1.9 -1.9 -1.9 -1.9 -1.9 -1.9 -1.9 -1.9 -1.9 -1.9 -1.9 -1.9 -1.9 -1.9 -1.9 -1.9 -1.9 -1.9 -1.9 -1.9 -1.9 -1.9 -1.9 -1.9 -1.9 -1.9 -1.9 -1.9 -1.9 -1.9 -1.9 -1.9 -1.9 -1.9 -1.9 -1.9 -1.9 -1.9 -1.9
61.9 66.9 72.2 77.9 80.8 83.9 86.9 89.5 94 100 107.1 112.7 115.7 118.3 120.5 119.8 119 118.1 115.7 113.2 110.3 109.6 109 108.3 107.6 106.8 106.5 106.5 104.9 103.6 103.5 103.2 101.8 99.6 97.1 96.1 95 93.8 92 91 89.8 86.4 84.5 91.6 93.4 94.1 93.9 94.2 95.1 94.5 99.8 104.8 111.5 118 121 121.3 121.6 122.9 124.5 127.3 131.3 134.8 136.5 137.9 137.3 134.8 131.5 127 123.4 120.2 117.1 114.5 112.2 109.9 108.7 107.3 105.3 103.4 102.5 101.5 100.4 99.4 98.3 96.7 93.8 91 91.3 88.7 86.9 84.4 84.4 82.6 80.5 78.1 76.5 75.6 73.4 72.3 70.3 66.6 69 69.4 67.1 63.3 63.5 62.1 60.5 59.5 58.8 59.5 57.7 54.9 52.1 49.4 48.9 48.6 49 48.8 47.8 47.2 47.5 45.7 45.3 45 45.6 45.7 45.1 44.3 42.8 40.9 40.1 33.7 28.5 25.6 24 35.1 37.2 38 37.2 36.9 16.1 13.5 17.5 12.5 8.9 13.9 27 7.6 4.5 4.5 2.9 -1.9 -1.9 -1.9 -1.9 -1.9 -1.9 -1.9 -1.9 -1.9 -1.9 -1.9 -1.9 -1.9 -1.9 -1.9 -1.9 -1.9 -1.9 -1.9 -1.9 -1.9 -1.9 -1.9 -1.9 -1.9 -1.9 -1.9 -1.9 -1.9 -1.9 -1.9 -1.9 -1.9 -1.9 -1.9 -1.9 -1.9 -1.9 -1.9 -1.9 -1.9 -1.9 -1.9 -1.9 -1.9 -1.9 -1.9 -1.9 -1.9
64.4 69.4 74.3 79.9 84.9 87.7 90.6 93.1 98.7 106 112.5 117.6 119.9 121.9 121.2 120.5 119.2 116.4 113.8 111.2 108.2 106.7 106 105.3 104.5 104 103.2 103.3 101.4 99.5 97.6 96.2 93.8 92.1 90.9 89.3 88.8 89 89.1 87.7 86.4 82.3 84.7 86.7 88 89.1 89.8 91.2 93.1 97.1 101.9 107.6 113.4 119.6 120.2 119.8 120.1 121.3 124.2 127.5 130 132.4 133 133.2 130.1 127.4 125.1 122.4 119.3 115.6 112.9 110.3 108.4 106.7 105 104 103 101.5 100.5 99.6 98.5 97 95.5 93.2 90.7 88.5 88.8 85.5 83.3 81.3 81.6 80.8 78.5 77.7 74.9 71.6 69.9 69.2 68.8 65.4 64.7 64.6 63.8 61.7 61.3 59.5 58.2 57.4 60.5 56 54 51.3 49.6 47.3 47.3 46.6 46.9 47.1 47.6 47.8 48.9 46.4 45.4 46 46.6 46.2 45.4 45.5 44.4 43.3 42.6 42 40.5 39.5 39.7 39.3 38.9 38.1 37.1 36.1 35 25.9 18.5 27.3 27.3 7.9 6.3 5 5.1 3.7 2.2 1.3 -0.6 -1.9 -1.9 -1.9 -1.9 -1.9 -1.9 -1.9 -1.9 -1.9 -1.9 -1.9 -1.9 -1.9 -1.9 -1.9 -1.9 -1.9 -1.9 -1.9 -1.9 -1.9 -1.9 -1.9 -1.9 -1.9 -1.9 -1.9 -1.9 -1.9 -1.9 -1.9 -1.9 -1.9 -1.9 -1.9 -1.9 -1.9 -1.9 -1.9 -1.9 -1.9 -1.9 -1.9 -1.9 -1.9 -1.9 -1.9
68.8 73.9 78.4 82.8 87.7 91.8 95.8 98.7 105.8 113.6 118.7 122.2 123.6 123.5 122.3 120 117.2 114.6 111.9 109.2 106.2 103.7 103 103.8 101.1 98.2 97.3 98.2 96.3 95.3 93.7 90.6 88.2 85.9 84.6 83.1 81.6 82 83.1 84.6 86.1 78.8 79.7 82 83.7 86.9 90.1 93 96 99.5 105.1 110.2 113.8 117.9 119.5 119.5 119 120.6 123.7 126.7 128.5 129.7 129.5 128.7 125.8 122.9 120.2 118.2 114.4 111.4 108.6 106.3 104.6 103 101.3 100.3 99.2 98.3 97.8 96.3 95 93.9 92.3 90.5 88.9 87 85.3 82.5 81 80 78.3 77.1 76.2 76 73.3 71.3 70.7 70.5 69.1 69.2 66.6 63.3 61.1 60.1 59.3 57.2 61.5 54 53.5 53.3 51.8 49.5 48 46.7 46 45.1 45.1 46.2 47.6 48.5 48.8 46.6 46.1 46.1 46.1 46 45.7 45.8 45.9 44.8 44.1 43.1 41.9 40.5 40.2 39.3 38 37 36 34.7 33.6 32.8 30.8 29.9 22.7 7.7 6.5 5.8 4.5 3.7 1.5 0.6 -0.5 -1.9 -1.9 -1.9 -1.9 -1.9 -1.9 -1.9 -1.9 -1.9 -1.9 -1.9 -1.9 -1.9 -1.9 -1.9 -1.9 -1.9 -1.9 -1.9 -1.9 -1.9 -1.9 -1.9 -1.9 -1.9 -1.9 -1.9 -1.9 -1.9 -1.9 -1.9 -1.9 -1.9 -1.9 -1.9 -1.9 -1.9 -1.9 -1.9 -1.9 -1.9 -1.9 -1.9 -1.9 -1.9 -1.9 -1.9
73.8 78.5 82.9 87.3 91.6 96.1 99.4 107.7 117.1 121.4 123.8 124.7 125.3 123.7 121.3 118 115.4 112.5 109.5 106.2 103.6 101 100.8 101.6 97.4 92 90.2 91.2 89.5 89.4 87.7 84.9 83 80.8 79.4 77.5 77.1 77.5 79 81 75.2 78.5 83.8 87 88.1 91 93.3 96.2 99.2 103 107.8 110.9 113.1 115.7 117.3 118.9 118.8 118.9 122.1 124.9 126.6 126.1 125.9 123.9 121 118.1 115.2 112.8 109.7 107.1 104.8 102.6 101.1 99.5 98 97 95.8 94.7 94.9 93.6 91.7 90.5 90 88.7 87.8 85.9 84.6 82.7 80.9 80.1 78.9 77.8 76.6 75.3 74.1 72.5 71.8 72 71.9 70.5 68.8 66.8 64.6 63.3 62.8 62.1 59 56.3 54.4 50.4 50.3 48.3 46.9 45.6 44.3 42.8 44.4 46.1 48.5 48.8 48.1 47.8 47.1 47.1 47.2 47.4 47.2 46.9 46.6 46.2 44.9 43.5 42.1 40.7 39.5 38.2 36.9 35.9 34.6 33.3 31.9 31.3 29.9 13.9 7.3 5.7 5.9 5.7 5.4 1.9 0.9 -0.1 -1.1 -1.9 -1.9 -1.9 -1.9 -1.9 -1.9 -1.9 -1.9 -1.9 -1.9 -1.9 -1.9 -1.9 -1.9 -1.9 -1.9 -1.9 -1.9 -1.9 -1.9 -1.9 -1.9 -1.9 -1.9 -1.9 -1.9 -1.9 -1.9 -1.9 -1.9 -1.9 -1.9 -1.9 -1.9 -1.9 -1.9 -1.9 -1.9 -1.9 -1.9 -1.9 -1.9 -1.9 -1.9 -1.9 -1.9 -1.9
76.3 81.4 86.7 91 95.5 101.5 109.3 116.7 120.2 122.5 123.7 124.6 124 121.6 118.2 114.7 111.2 108.4 105.6 102.3 99.7 97.1 94.4 93.9 90.2 87.3 85.1 84.8 83.9 82.4 80.9 79.5 78.2 76.9 73 68.7 71.3 72 74.2 73.6 80.9 86.6 90.7 92.3 93.3 94.6 96.8 99.5 102.6 106.3 109.1 111.1 113.2 114.8 115.7 117.2 117.1 118.2 120.7 122.4 120.9 120 118.9 117.5 115.4 112.5 110.5 108.9 105.8 103.8 101.2 99.2 97.7 96.4 95.5 94.5 93.4 92.5 92 91.6 90.7 88.8 87.7 87.8 87.3 84.7 83.4 82.1 80.9 78.5 77.9 77.4 76.8 75.3 74.2 73.6 72.8 72.2 70.5 69.2 67.4 66 64.7 64.2 62.9 60.9 58.9 56.4 54.2 50.5 47.6 46.8 45 47.2 45.2 47.3 41 45 48 48.5 48.2 48.5 48.3 48.1 48.4 48.7 48.6 47.6 46.4 44.7 43.9 42.5 41.1 39.6 38.2 37 35.8 34.6 33.2 31.8 30.5 28.9 10.1 5.8 5.8 5.8 5 2.2 1.8 1.2 0.6 -0.4 -1.9 -1.9 -1.9 -1.9 -1.9 -1.9 -1.9 -1.9 -1.9 -1.9 -1.9 -1.9 -1.9 -1.9 -1.9 -1.9 -1.9 -1.9 -1.9 -1.9 -1.9 -1.9 -1.9 -1.9 -1.9 -1.9 -1.9 -1.9 -1.9 -1.9 -1.9 -1.9 -1.9 -1.9 -1.9 -1.9 -1.9 -1.9 -1.9 -1.9 -1.9 -1.9 -1.9 -1.9 -1.9 -1.9 -1.9 -1.9
78.2 83.9 89.6 94.7 101.1 108.6 113.4 116.9 118.7 119.4 120.4 120.2 118.8 115.9 112.6 109.5 106.5 103.4 100.4 97.5 95.2 92.6 89.7 87.1 85.2 83.6 81.6 79.3 80.1 78.7 77.2 75.7 74.2 65.2 64.9 70.3 75.7 78.1 79.2 84 88.4 92.4 96.1 97.5 98.3 98.9 100.8 102.7 106.1 109.3 111.5 112.7 113.9 114.7 115.1 115.1 114.8 116.6 118.1 117.4 116 114.8 112.7 110.8 109.7 107.2 105.8 104.5 102.4 101.6 99.5 98.1 97 95.5 94.9 93.7 92.4 91.2 90.4 90 89.1 87.8 87.3 87.6 85.7 83.6 82.3 81 79.8 78.3 77.7 77.2 75.3 73.6 72.6 71.9 71.6 70.4 68.8 67 66.2 64.7 62.6 61.1 59.7 57.1 55.5 52.7 51.4 53 53.5 52.9 50.9 49.1 48 48 46.1 38.5 43.2 46.4 48.3 48.6 49 49.2 49.2 49.1 48 46.5 45.1 43.1 42.3 41.5 39.9 38.6 37.2 35.8 34.5 33.1 31.8 30.3 28.8 14.4 6.4 4.7 5.6 1.5 -1.9 -1.9 0.2 -0.3 -0.7 -1 -1.4 -1.9 -1.9 -1.9 -1.9 -1.9 -1.9 -1.9 -1.9 -1.9 -1.9 -1.9 -1.9 -1.9 -1.9 -1.9 -1.9 -1.9 -1.9 -1.9 -1.9 -1.9 -1.9 -1.9 -1.9 -1.9 -1.9 -1.9 -1.9 -1.9 -1.9 -1.9 -1.9 -1.9 -1.9 -1.9 -1.9 -1.9 -1.9 -1.9 -1.9 -1.9 -1.9 -1.9 -1.9 -1.9 -1.9 -1.9
80.4 86.5 93 99.6 106.3 110.7 113 115.2 116.3 116.8 116.5 114.5 112.3 109.8 107 103.9 101.9 99.2 96.3 93.4 90.5 87.6 85.2 83.8 82.6 81.2 78.6 75.6 76.3 75.1 73.6 68.4 64.9 65.4 78.6 79.8 83.1 83.8 88 92.4 96.6 100.3 102.6 103.2 102.9 103.4 104.7 106.9 110.3 112 113.8 114.9 115.6 114.1 114.1 113.4 113.3 114.1 114.8 114 111.8 109.8 107.8 105.9 104.3 103.1 101.7 100.2 99.3 99 98.9 97.5 96.2 94.9 93.9 92.6 91.4 90.1 88.9 88.9 88.1 87.7 86.9 87.3 85.9 83.5 81.8 79.9 78.8 78.2 77.6 75.5 74.4 73.3 71.8 70.2 69.6 68.6 67.3 65.4 64.5 61.8 60.9 61.4 61.2 59.1 58.3 55.9 56.3 55.1 54.4 53.2 52.1 51 49.1 46.8 45.3 44.4 38.6 35.4 44.9 47.3 48 49.3 49 48.4 46.8 44.7 42.5 41 40.3 40.3 38.9 37.5 35.8 34.1 32.1 30.2 28.3 26.8 25.7 8.6 5.1 5.3 1.1 -1.9 -1.9 -1.9 -1.9 -1.8 -1.9 -1.9 -1.9 -1.9 -1.9 -1.9 -1.9 -1.9 -1.9 -1.9 -1.9 -1.9 -1.9 -1.9 -1.9 -1.9 -1.9 -1.9 -1.9 -1.9 -1.9 -1.9 -1.9 -1.9 -1.9 -1.9 -1.9 -1.9 -1.9 -1.9 -1.9 -1.9 -1.9 -1.9 -1.9 -1.9 -1.9 -1.9 -1.9 -1.9 -1.9 -1.9 -1.9 -1.9 -1.9 -1.9 -1.9 -1.9 -1.9 -1.9
84 90.7 96.8 101.7 105.1 109.4 111.2 112.9 112.7 111.7 110.3 107.9 105.6 103.2 100.7 99.8 97.8 95 92.2 89.3 86.4 84.1 82.6 80.7 79.6 78.2 76.7 74.3 69.3 68.5 63.8 58.9 65.3 79.4 81.8 83.8 88 92.5 96.6 100.8 104.6 106.5 107.6 107.8 106.9 107.9 108.4 111.3 114.1 114.7 115.2 115.8 115.2 113.7 113.9 113 111.3 111.5 109.9 109 107.3 105.4 103.8 102.1 100.8 99.5 98.6 97.7 97.3 96.7 96.7 96 94.4 93 92.2 91.4 90.3 89 87.6 85.9 88 87.3 86.6 87.1 86 83.6 82.2 80.4 79 77.6 76.9 75.5 74.7 72.5 71.6 69.6 67.8 71.3 65 65.8 67.4 65.2 64.6 64 63.1 61.5 59.8 58.9 58.8 57.3 55.2 53.9 52.8 51.7 50.6 49.3 47.5 47.7 48.1 46.7 35.5 43.3 48.5 48.1 47.3 46.5 44.7 42.4 41.5 40 38.9 37.8 36.5 34.6 32.8 32 28.9 27.9 26 23.9 20 7.3 4.9 1.8 -1.9 -1.9 -1.9 -1.9 -1.9 -1.9 -1.9 -1.9 -1.9 -1.9 -1.9 -1.9 -1.9 -1.9 -1.9 -1.9 -1.9 -1.9 -1.9 -1.9 -1.9 -1.9 -1.9 -1.9 -1.9 -1.9 -1.9 -1.9 -1.9 -1.9 -1.9 -1.9 -1.9 -1.9 -1.9 -1.9 -1.9 -1.9 -1.9 -1.9 -1.9 -1.9 -1.9 -1.9 -1.9 -1.9 -1.9 -1.9 -1.9 -1.9 -1.9 -1.9 -1.9 -1.9 -1.9 -1.9
86.6 89.1 93.9 99 102.3 106.3 107.4 106.4 104.9 104.2 103.6 101.7 100 98.3 97.5 96.4 93.6 90.9 88 85.2 82.2 80.4 78.8 78 76.6 75.3 74.6 70.9 63.8 58.7 72.5 76.2 79.7 83.8 87 90.3 94.8 100.1 104.2 108.4 111.1 112.5 112.6 111.4 110.8 111.3 112.1 115.6 117.1 117.1 117.2 117.4 118 117.3 115.9 113.7 111.2 109.9 107.4 105.3 104.6 103.5 103.3 102.5 102.5 101.9 101.6 101 99.3 97.2 95.1 94.5 93.3 92.4 91.4 90.4 89.7 87.8 88.6 84.4 85.2 86.7 86.3 86.9 85.3 83.3 82.1 80.5 78.5 77.4 75.3 74.2 72.4 71.1 70.1 68.2 69.6 70.1 69.6 69.3 68.8 66.2 65.6 64.9 64.2 62.9 61.4 60.4 60.5 59.2 56.7 54.7 53.6 52.5 51 49.4 49 49.2 48.8 47.7 44.5 33.1 44.1 45.8 45.4 44.6 43.2 42.5 40.9 38.7 36.2 34.9 33.5 31.7 29.7 27.7 25.9 25.5 23.4 21.4 19.5 5.3 3.2 0.2 -1.9 -1.9 -1.9 -1.9 -1.9 -1.9 -1.9 -1.9 -1.9 -1.9 -1.9 -1.9 -1.9 -1.9 -1.9 -1.9 -1.9 -1.9 -1.9 -1.9 -1.9 -1.9 -1.9 -1.9 -1.9 -1.9 -1.9 -1.9 -1.9 -1.9 -1.9 -1.9 -1.9 -1.9 -1.9 -1.9 -1.9 -1.9 -1.9 -1.9 -1.9 -1.9 -1.9 -1.9 -1.9 -1.9 -1.9 -1.9 -1.9 -1.9 -1.9 -1.9 -1.9 -1.9 -1.9 -1.9
83.6 87.4 91.2 94.3 97.4 98.3 98.2 97.8 97.4 96.8 95.9 96.3 96.1 95.1 94.4 91.9 89.4 86.6 83.6 80.6 78.1 77.1 75.1 75.4 74.7 72.1 73.2 60.5 69.8 80.5 81.6 83.3 86.6 90.2 93.6 98.4 103.2 107.8 111.7 114.2 115.7 116.4 115.4 113.9 113.2 114 116.1 118.2 120.1 120.4 120.5 120.6 122.3 121.1 121 119.2 114.7 113.3 112.4 108.4 106.4 105.3 104.4 104.4 102.4 101.7 100.8 100 99.1 98.2 97.5 96.5 95.3 93.8 92.9 92.2 91.4 90.3 89.5 86.3 82.7 83.8 84.3 86.5 84.8 82.3 79.9 78.1 76.5 75.2 74 73.1 72.8 72 68.6 72.3 72.8 72.5 71.2 70.7 69.3 67.2 66.6 65.9 65.1 64.4 63.7 63 62.1 61 58.4 55.7 53.9 52.3 50.8 49.1 48 48.1 47.2 46.3 45.4 43 38.8 42 42.1 42.2 41 39.8 38.5 36.5 33.7 31.9 30.2 28.5 26.4 24.5 23.4 22.8 21.2 19.1 16.5 5.7 1.8 0 -1.9 -1.9 -1.9 -1.9 -1.9 -1.9 -1.9 -1.9 -1.9 -1.9 -1.9 -1.9 -1.9 -1.9 -1.9 -1.9 -1.9 -1.9 -1.9 -1.9 -1.9 -1.9 -1.9 -1.9 -1.9 -1.9 -1.9 -1.9 -1.9 -1.9 -1.9 -1.9 -1.9 -1.9 -1.9 -1.9 -1.9 -1.9 -1.9 -1.9 -1.9 -1.9 -1.9 -1.9 -1.9 -1.9 -1.9 -1.9 -1.9 -1.9 -1.9 -1.9 -1.9 -1.9 -1.9 -1.9
79.3 83.2 85.4 87.4 88.5 89.4 90 89.9 91.2 92.4 92.7 92.8 92.1 90.8 88.6 86.3 83.7 81.3 79 76 74.4 73.9 71.9 72.8 71 65.5 61.2 64.3 80.8 84.2 86.3 88.3 92.3 96.1 100.8 105.3 109.7 114 117.4 118.5 118.5 118.8 117.7 116.6 115.5 117.3 121 122.6 122.8 123.6 124.5 125.5 126.7 126.2 125.6 123.6 118.1 113.6 111.6 111.5 107.6 105.6 104.5 103.2 102.4 101.5 100.5 99.5 98.7 98.4 98.1 97.5 96.5 95.9 94.8 93.7 92.3 91.3 89.4 86.9 85.2 82.1 82.3 84.4 83 81.7 79.2 77.1 75.5 74.3 73.8 74.1 73.8 70.3 73.3 73.9 73.4 73.3 72.6 71.5 69.8 68.3 68.1 68.2 67.9 67.8 67.4 66.6 65.3 63.2 60.6 56.9 53.5 51.7 50 48.5 47.1 46.2 45.2 44.1 43.4 41.7 34.4 40.9 40.6 39.7 38 36 32.5 32.6 28.8 27.1 26.5 25 23.6 22.5 21.3 20.2 19.1 17.9 10.5 4.5 1.3 -0.4 -1.9 -1.9 -1.9 -1.9 -1.9 -1.9 -1.9 -1.9 -1.9 -1.9 -1.9 -1.9 -1.9 -1.9 -1.9 -1.9 -1.9 -1.9 -1.9 -1.9 -1.9 -1.9 -1.9 -1.9 -1.9 -1.9 -1.9 -1.9 -1.9 -1.9 -1.9 -1.9 -1.9 -1.9 -1.9 -1.9 -1.9 -1.9 -1.9 -1.9 -1.9 -1.9 -1.9 -1.9 -1.9 -1.9 -1.9 -1.9 -1.9 -1.9 -1.9 -1.9 -1.9 -1.9 -1.9 -1.9
75.6 77.5 79.1 80.3 81.6 82.8 83.6 85 86.4 87.5 88.3 87 85.3 83.8 82 79.8 77.5 75.1 73.7 71.3 70.6 70.3 68.9 70.2 58.8 49.9 67.7 78.9 84.2 87.7 91.5 95.4 97.7 101.3 106.2 111 115.5 119.5 122.1 121.7 121.7 120.3 119.1 118.4 118.1 121.8 125 125.8 126.5 128.2 129.2 130.4 132.6 131.7 130 127.8 122.3 118.7 115.6 111.8 109.1 106.4 104.4 103.7 102.5 102.1 101.3 100.4 99.6 99 98.6 98 96.8 95.8 94.5 93.7 92.2 90.7 88.4 86.8 85.7 83.1 80.9 81.6 80.4 79.3 77.8 76 74.8 73.9 73.6 74 73.9 69.3 73.4 74.3 74.1 73.2 72.1 72.1 71.6 71.1 71.8 71.6 71.5 71.4 71.2 69.9 67.8 65.2 62.2 57.7 54.4 51.3 49.4 47.6 46 44.4 43.3 42 37 33.8 19 17.6 32 36 33.1 24.1 0.9 -1.9 -1.9 24.7 24.3 23.4 22.2 21.1 20 18.8 17.6 16.8 7.5 5.1 1.4 0.3 -0.9 -1.9 -1.9 -1.9 -1.9 -1.9 -1.9 -1.9 -1.9 -1.9 -1.9 -1.9 -1.9 -1.9 -1.9 -1.9 -1.9 -1.9 -1.9 -1.9 -1.9 -1.9 -1.9 -1.9 -1.9 -1.9 -1.9 -1.9 -1.9 -1.9 -1.9 -1.9 -1.9 -1.9 -1.9 -1.9 -1.9 -1.9 -1.9 -1.9 -1.9 -1.9 -1.9 -1.9 -1.9 -1.9 -1.9 -1.9 -1.9 -1.9 -1.9 -1.9 -1.9 -1.9 -1.9 -1.9
70.3 71.5 73 74.6 75.7 76.9 78.7 80 80.3 80.6 81.1 79.4 77.6 76 74.4 72.9 72 69.8 68.1 67.3 66.9 66.6 67.1 56.4 48.4 62.3 78.4 82.1 85.3 89.8 94.4 99.3 102.4 106.5 111.3 116 119.7 123.3 124.5 124 122.5 121.4 119.7 118.8 121.7 125.7 127.9 129.1 129.9 131.8 134.4 137.2 138.6 138.4 136.5 132.5 126 120.6 116.5 112.6 109.9 107.8 105.9 104.6 102.9 102.1 101.8 101.2 100.4 99.8 98.8 97.1 95.8 94.2 92.7 92.2 91.2 89.3 87.2 84.8 83.6 82.2 80.2 79 78.4 77.5 76 75.2 74.8 73.9 73.4 73.4 73.7 72.5 73 75.4 73.7 73.5 73.1 73.8 73.5 74.7 74.9 75 75 74.9 74.2 72.3 69.3 65.8 61.2 57.8 54.3 51.5 48.4 25.7 13.3 4.6 23.6 21.1 4.9 2.4 1.9 0.9 2.3 10.1 8.3 -1.9 -1.9 -1.9 -1.9 14.4 24 22.3 21.1 20 18.9 17.5 16.3 14.4 7.2 4.4 1.9 0.7 -0.4 -1.9 -1.9 -1.9 -1.9 -1.9 -1.9 -1.9 -1.9 -1.9 -1.9 -1.9 -1.9 -1.9 -1.9 -1.9 -1.9 -1.9 -1.9 -1.9 -1.9 -1.9 -1.9 -1.9 -1.9 -1.9 -1.9 -1.9 -1.9 -1.9 -1.9 -1.9 -1.9 -1.9 -1.9 -1.9 -1.9 -1.9 -1.9 -1.9 -1.9 -1.9 -1.9 -1.9 -1.9 -1.9 -1.9 -1.9 -1.9 -1.9 -1.9 -1.9 -1.9 -1.9 -1.9 -1.9
65 66.3 67.5 69.1 70.1 71.6 73.3 73.3 73.3 73.8 73.4 72 70.1 68.2 67.3 67 66.3 65 64.8 63.9 63.7 63 47.7 43 59.6 76.5 80.7 82.8 86.9 92.1 98.4 102.8 106.7 111.5 116.2 120.8 124.1 125.5 125.3 123.9 122.2 121.1 120.4 120.6 125.2 128 130 131.8 134.1 137.9 140.6 142.6 144.2 142.7 139.6 134.3 127.8 120.9 117.1 113.1 110.6 109.1 107.7 106.3 103.4 102.1 101.8 101.5 100.8 99.6 98.4 95.4 94.3 90.9 88.5 87.6 86.5 86.4 84.9 83 82.4 81.7 81.8 80 77.5 76.5 75.6 74.8 74.5 73.8 73.2 73.3 73.2 72.4 74.1 74 74 74.5 74.7 75.7 76.9 77.3 77.5 78.1 78.2 77.2 75.7 72.9 69.2 64.8 60.5 57 46.7 37.1 31.4 7.3 2.1 1.3 1.1 1.7 -1.9 -1.9 -1.9 -1.9 -1.9 -1.9 -1.9 -1.9 -1.9 -1.9 -1.9 -1.9 10 21.3 20.1 18.9 17.5 16.2 14.7 10 6.8 4.7 2.1 1.1 -0.2 -1.6 -1.9 -1.9 -1.9 -1.9 -1.9 -1.9 -1.9 -1.9 -1.9 -1.9 -1.9 -1.9 -1.9 -1.9 -1.9 -1.9 -1.9 -1.9 -1.9 -1.9 -1.9 -1.9 -1.9 -1.9 -1.9 -1.9 -1.9 -1.9 -1.9 -1.9 -1.9 -1.9 -1.9 -1.9 -1.9 -1.9 -1.9 -1.9 -1.9 -1.9 -1.9 -1.9 -1.9 -1.9 -1.9 -1.9 -1.9 -1.9 -1.9 -1.9 -1.9 -1.9 -1.9 -1.9
62.2 63.4 64.9 65.4 65.6 67 68.2 67.5 67 66.5 65.8 64.5 63.2 62.5 62.5 62.6 61.6 61.1 61.4 61.8 60.3 50.4 40.1 54.8 71.6 78.4 84.1 85.8 90.3 96.2 102.9 106.9 111.6 116.2 121.3 124.8 126.3 124.7 123.4 123.2 121.9 120.7 120.8 123.6 127.6 130.9 133 135.9 138.3 141.4 144.2 146.4 146.7 143.7 139.2 133.1 128.2 122.3 117.3 113.3 110 108.1 106.3 104.6 102.9 102.1 101.1 99.8 98.8 98.3 97.8 95.8 91 88.2 84.9 83.9 83.7 83.4 83.4 82.5 82.5 81.6 79.8 77.9 77.1 76.2 75.2 74.4 74.2 73.8 73.1 73.1 72.4 74.2 74.6 75 75.1 76.7 76.7 78.1 79.3 79.9 80.6 80.4 79.6 78 75.6 72.8 67.7 64.2 60 53.9 24.2 7.8 7.2 3.5 1.4 0.2 -1 -1.9 -1.9 -1.9 -1.9 -1.9 -1.9 -1.9 -1.9 -1.9 -1.9 -1.9 -1.9 -1.9 -1.9 -1.9 2.5 12 16 14.3 10.5 7.9 5.8 4.6 3 1.1 -0.6 -1.9 -1.9 -1.9 -1.9 -1.9 -1.9 -1.9 -1.9 -1.9 -1.9 -1.9 -1.9 -1.9 -1.9 -1.9 -1.9 -1.9 -1.9 -1.9 -1.9 -1.9 -1.9 -1.9 -1.9 -1.9 -1.9 -1.9 -1.9 -1.9 -1.9 -1.9 -1.9 -1.9 -1.9 -1.9 -1.9 -1.9 -1.9 -1.9 -1.9 -1.9 -1.9 -1.9 -1.9 -1.9 -1.9 -1.9 -1.9 -1.9 -1.9 -1.9 -1.9 -1.9 -1.9 -1.9
59 61.2 62.1 62.5 63.1 63.7 64.4 64.5 63.2 62 61.5 59.9 59.6 58.5 57.9 58.3 58.8 58.7 58.8 59.3 53.3 39.5 51.7 68.1 72.3 79.3 85.4 89.8 94.4 100.9 105.6 110.1 115.6 120.9 124.7 124.7 123.7 121.8 121.9 121.9 122.6 123.1 123.7 127.7 130.2 132.1 133.9 136.6 139.5 142.6 145.6 147.8 147.5 142.5 138 130.8 124.3 118.1 114.6 109.4 106.5 105 103.2 101.7 100.3 99.6 96.3 95.1 94.1 93 92.9 94 90.5 86.6 84.2 82.4 82.3 82.2 82.1 81.9 82.7 80.9 78.3 77.5 76.6 75.8 74.9 74.1 73.8 73.6 72.9 72.5 74.2 75.1 75.7 77.2 78.7 78.9 80 81.2 83.1 83.2 82.5 81.1 79.9 77.5 74.2 71 67 60.1 35.6 12.5 2 1.8 1.4 1.3 0.6 -0.3 -1.9 -1.9 -1.9 -1.9 -1.9 -1.9 -1.9 -1.9 -1.9 -1.9 -1.9 -1.9 -1.9 -1.9 -1.9 -1.9 -1.9 -1.9 2.1 4 7.9 6.6 4.5 3.6 2.9 1 -0.8 -1.9 -1.9 -1.9 -1.9 -1.9 -1.9 -1.9 -1.9 -1.9 -1.9 -1.9 -1.9 -1.9 -1.9 -1.9 -1.9 -1.9 -1.9 -1.9 -1.9 -1.9 -1.9 -1.9 -1.9 -1.9 -1.9 -1.9 -1.9 -1.9 -1.9 -1.9 -1.9 -1.9 -1.9 -1.9 -1.9 -1.9 -1.9 -1.9 -1.9 -1.9 -1.9 -1.9 -1.9 -1.9 -1.9 -1.9 -1.9 -1.9 -1.9 -1.9 -1.9 -1.9 -1.9 -1.9
57.7 59.3 59.9 60.6 61.2 61.4 61.5 60.7 60.4 59.2 58.6 58.3 58.1 57.9 56.9 57.3 57.1 55.8 55.2 52.8 44.7 46.6 62.7 67 72 78 85.8 91.8 98.9 104.4 107.4 112.6 117.2 121.2 121 120.2 119.6 120 120.5 122.5 123.2 123.1 124.8 127.7 128.8 131 133.3 134.6 138.6 143.1 144.3 144.6 142.5 136.2 130.5 124.4 117.6 112.1 108.5 104.6 101.9 100.8 99.8 97.9 95.2 93.9 91.4 90.8 90.5 89.9 89.2 89.9 90.3 86.9 85.1 81.9 81.6 81.3 81.2 81.2 80.3 78.5 77.4 77.2 76.7 75.8 74.8 73.8 73.6 73.3 73.8 74.9 76.4 77.3 77.6 79 80.6 81.4 82.9 83 83.3 83.2 82 80.3 78.4 76 72.9 67.8 33.8 19.8 8.5 1.7 1.1 0.9 0.4 0 -0.6 -1.9 -1.9 -1.9 -1.9 -1.9 -1.9 -1.9 -1.9 -1.9 -1.9 -1.9 -1.9 -1.9 -1.9 -1.9 -1.9 -1.9 -1.9 -1.9 -1.9 -0.4 1.2 1 0.6 0.9 0.9 -0.3 -1.9 -1.9 -1.9 -1.9 -1.9 -1.9 -1.9 -1.9 -1.9 -1.9 -1.9 -1.9 -1.9 -1.9 -1.9 -1.9 -1.9 -1.9 -1.9 -1.9 -1.9 -1.9 -1.9 -1.9 -1.9 -1.9 -1.9 -1.9 -1.9 -1.9 -1.9 -1.9 -1.9 -1.9 -1.9 -1.9 -1.9 -1.9 -1.9 -1.9 -1.9 -1.9 -1.9 -1.9 -1.9 -1.9 -1.9 -1.9 -1.9 -1.9 -1.9 -1.9 -1.9 -1.9 -1.9 -1.9
55.8 57.4 58 58.6 58.9 59.2 58.7 58 57.3 57.1 57 56.8 56.5 56.3 55.8 55.7 54.3 47.6 40.9 40.5 41.7 51.3 58.7 65.7 71 77.2 86.1 92.8 99.5 105.2 109.4 115.7 119.4 119.5 119.1 119.2 118.8 119.4 121.4 124.5 126.4 125.8 125.1 127.3 128.4 129.1 131.4 133.2 135.1 137.6 137.6 135.5 132.4 123.9 118.6 113.7 109.1 104.1 100.8 98.6 96.6 94.1 92.1 90.1 88.9 88.1 87.8 87.2 87.1 86.8 86.4 86.7 87.9 86.9 85.2 82.6 81.2 80.4 80.6 81 80.4 79.1 76.6 76.3 76.1 75.9 74.8 73.6 73.7 74 75.1 76.8 78.8 79.5 76.8 81.6 82.3 82.6 82.9 82.9 83.1 82.5 81.4 79.4 77 62.7 37.1 29.8 13.3 3.3 1.6 1.1 0.5 0 -0.4 -1.1 -1.9 -1.9 -1.9 -1.9 -1.9 -1.9 -1.9 -1.9 -1.9 -1.9 -1.9 -1.9 -1.9 -1.9 -1.9 -1.9 -1.9 -1.9 -1.9 -1.9 -1.9 -1.9 -1 -1 -1.5 -1.9 -1.9 -1.9 -1.9 -1.9 -1.9 -1.9 -1.9 -1.9 -1.9 -1.9 -1.9 -1.9 -1.9 -1.9 -1.9 -1.9 -1.9 -1.9 -1.9 -1.9 -1.9 -1.9 -1.9 -1.9 -1.9 -1.9 -1.9 -1.9 -1.9 -1.9 -1.9 -1.9 -1.9 -1.9 -1.9 -1.9 -1.9 -1.9 -1.9 -1.9 -1.9 -1.9 -1.9 -1.9 -1.9 -1.9 -1.9 -1.9 -1.9 -1.9 -1.9 -1.9 -1.9 -1.9 -1.9 -1.9 -1.9 -1.9
53.1 54.4 55.8 56.4 56.6 56.7 55.9 55.1 55.2 55.3 55.4 55.1 54.9 54.6 54.1 52.2 40.9 36.2 38.8 49.4 59.8 63 65.9 69 73.4 78.7 85.7 93.2 99.7 106.2 114.3 114.8 119.2 117.6 117.7 117.8 118.3 119.7 124 125.6 126.8 128.5 126.5 124.7 124.7 125.7 127.5 128.6 130 129.2 126.5 119.6 115.6 112.1 107.9 103.2 99.4 95.8 93.2 90.8 89.7 88 85.6 85.1 85.6 84.2 84.2 83.8 83.7 83.6 83.2 84.1 83.6 84.3 85.1 84.9 83.3 81.4 80.6 80.7 80.4 78.5 77.6 76.5 75.3 75.1 74.3 74.9 75.3 76.3 77.8 79 80 81.4 81.4 82 82 81.9 82.3 82.7 82.5 81.1 79.6 76.5 47.3 25.3 8.6 7.4 2.1 1.4 0.8 0.4 -0.2 -0.8 -1.2 -1.9 -1.9 -1.9 -1.9 -1.9 -1.9 -1.9 -1.9 -1.9 -1.9 -1.9 -1.9 -1.9 -1.9 -1.9 -1.9 -1.9 -1.9 -1.9 -1.9 -1.9 -1.9 -1.9 -1.9 -1.9 -1.9 -1.9 -1.9 -1.9 -1.9 -1.9 -1.9 -1.9 -1.9 -1.9 -1.9 -1.9 -1.9 -1.9 -1.9 -1.9 -1.9 -1.9 -1.9 -1.9 -1.9 -1.9 -1.9 -1.9 -1.9 -1.9 -1.9 -1.9 -1.9 -1.9 -1.9 -1.9 -1.9 -1.9 -1.9 -1.9 -1.9 -1.9 -1.9 -1.9 -1.9 -1.9 -1.9 -1.9 -1.9 -1.9 -1.9 -1.9 -1.9 -1.9 -1.9 -1.9 -1.9 -1.9 -1.9 -1.9 -1.9 -1.9 -1.9 -1.9
50.4 51.2 52.4 53.5 53.8 53.5 53.2 53.4 53.6 53.8 54 53.9 53.5 53.1 49 35.9 29.1 41 56.6 59.1 61.6 65.3 68.7 72.9 78.4 83.1 87.4 94.6 101.8 109 114.2 116.6 117.7 117.6 117.3 117.7 118.7 122.6 124.2 123.8 124.2 123.5 122.9 122 121.7 122.3 123.6 123.5 120.5 115.7 112 108.4 106 102.4 97.6 94.8 91.4 88.3 86.4 84.8 83.2 81.8 81.7 81.8 82.3 81 80.6 80.4 80.3 80.6 80.3 81.2 81.9 82.2 83.8 85.8 84.4 82.9 80.8 80.1 80.3 78.9 77.4 76.6 76 75.6 77.2 77.6 78.2 79.2 80.2 80.8 80.2 81.1 81.3 81.5 81.3 81.2 81.6 81.4 80.7 80.1 75.5 42.8 20.8 6.6 7.2 2.3 1.4 0.7 0.1 -0.5 -0.8 -1.9 -1.9 -1.9 -1.9 -1.9 -1.9 -1.9 -1.9 -1.9 -1.9 -1.9 -1.9 -1.9 -1.9 -1.9 -1.9 -1.9 -1.9 -1.9 -1.9 -1.9 -1.9 -1.9 -1.9 -1.9 -1.9 -1.9 -1.9 -1.9 -1.9 -1.9 -1.9 -1.9 -1.9 -1.9 -1.9 -1.9 -1.9 -1.9 -1.9 -1.9 -1.9 -1.9 -1.9 -1.9 -1.9 -1.9 -1.9 -1.9 -1.9 -1.9 -1.9 -1.9 -1.9 -1.9 -1.9 -1.9 -1.9 -1.9 -1.9 -1.9 -1.9 -1.9 -1.9 -1.9 -1.9 -1.9 -1.9 -1.9 -1.9 -1.9 -1.9 -1.9 -1.9 -1.9 -1.9 -1.9 -1.9 -1.9 -1.9 -1.9 -1.9 -1.9 -1.9 -1.9 -1.9 -1.9
47.7 48.6 49.4 50.3 50.8 50.9 51.2 51.7 52.2 52.4 52.7 52.7 52.1 51.3 42.6 27.9 40.2 55.3 56.7 59.7 63.5 66.8 69.7 74.3 77 81.9 89.4 96 106.1 111.1 113.1 114.5 115.6 115.9 116.2 118.6 120.5 121.4 121.9 121.6 121.3 121 120.8 120.1 119.4 118.7 118.4 114.5 109.7 106 102.7 99.6 95.9 93.3 90.5 87.8 86.1 84 82.5 82.3 80.6 78.9 78.8 78.7 79 78.1 77.6 78.1 78.5 77.8 78.7 79.9 82.1 82 84 84.7 84 82.1 81.5 79.8 80.5 79.7 79 77.9 78.5 79 79.9 80.3 81.3 81.7 81.4 81 80.5 80.1 80.4 81 80.7 80.5 80.4 79.6 78.9 69.9 40.3 16.2 5.4 7 2.7 1.4 0.7 0 -0.7 -1.3 -1.9 -1.9 -1.9 -1.9 -1.9 -1.9 -1.9 -1.9 -1.9 -1.9 -1.9 -1.9 -1.9 -1.9 -1.9 -1.9 -1.9 -1.9 -1.9 -1.9 -1.9 -1.9 -1.9 -1.9 -1.9 -1.9 -1.9 -1.9 -1.9 -1.9 -1.9 -1.9 -1.9 -1.9 -1.9 -1.9 -1.9 -1.9 -1.9 -1.9 -1.9 -1.9 -1.9 -1.9 -1.9 -1.9 -1.9 -1.9 -1.9 -1.9 -1.9 -1.9 -1.9 -1.9 -1.9 -1.9 -1.9 -1.9 -1.9 -1.9 -1.9 -1.9 -1.9 -1.9 -1.9 -1.9 -1.9 -1.9 -1.9 -1.9 -1.9 -1.9 -1.9 -1.9 -1.9 -1.9 -1.9 -1.9 -1.9 -1.9 -1.9 -1.9 -1.9 -1.9 -1.9 -1.9 -1.9 -1.9
45 45.9 46.7 47.6 48.6 48.9 49.2 49.6 50.1 50.7 50.2 51 50.2 46.8 37.3 29.3 46.4 54.1 56.8 60.2 64.7 67 69.9 72.8 76.4 82.6 90.7 100.4 105.8 106.4 109.3 110.8 111.9 112.7 116.7 119 120 120.4 120.3 119.9 120.7 119.2 118 116.3 114.9 111.4 107.5 104.5 101.3 98.1 95.1 93.1 89.2 87.1 85.4 83 81.1 80.5 78.9 80.3 78.1 76.2 75.9 75.8 75.7 75.1 75.2 75.3 77 76.9 77.9 79.6 82 83.3 84.1 83.8 84 83.4 82.2 81.2 80.6 81.2 80.2 81.1 81.6 82 82.4 82.4 82.2 82 81.7 81.2 80.6 80 79.1 80.3 80.3 79.6 78.3 77.5 76.2 38.7 15.4 6.2 6.8 4.3 1.5 0.8 0 -0.7 -1.9 -1.9 -1.9 -1.9 -1.9 -1.9 -1.9 -1.9 -1.9 -1.9 -1.9 -1.9 -1.9 -1.9 -1.9 -1.9 -1.9 -1.9 -1.9 -1.9 -1.9 -1.9 -1.9 -1.9 -1.9 -1.9 -1.9 -1.9 -1.9 -1.9 -1.9 -1.9 -1.9 -1.9 -1.9 -1.9 -1.9 -1.9 -1.9 -1.9 -1.9 -1.9 -1.9 -1.9 -1.9 -1.9 -1.9 -1.9 -1.9 -1.9 -1.9 -1.9 -1.9 -1.9 -1.9 -1.9 -1.9 -1.9 -1.9 -1.9 -1.9 -1.9 -1.9 -1.9 -1.9 -1.9 -1.9 -1.9 -1.9 -1.9 -1.9 -1.9 -1.9 -1.9 -1.9 -1.9 -1.9 -1.9 -1.9 -1.9 -1.9 -1.9 -1.9 -1.9 -1.9 -1.9 -1.9 -1.9 -1.9 -1.9
42.3 43.2 44.1 45 46.1 47 47.3 47.6 48 48.3 47 48.4 48.9 44.7 34 24.4 42.2 53.6 55.4 58.7 63.2 65.9 68 71.4 76.3 83.1 89.6 94.9 96.8 98.9 101.5 103.9 106.8 112.8 116.7 118.5 119.4 120.2 119.7 119.5 118.5 116.5 113.9 111 107.4 102.4 98.9 96.4 93.9 90.9 88 86.2 82.9 80.9 79.4 78.3 76.7 76.1 75.2 74.5 73.7 73.6 73.3 73 73.2 73.6 74 75.4 76.1 76.6 78 79.7 81.7 83.3 83.5 84.1 84.3 84.2 83 82.7 83.3 84.5 83.4 82.7 83.6 84 83.4 83 82.8 82.5 82.1 81.4 80.7 80.2 79.2 78.1 79.3 78.2 77.2 73.3 46.5 9.8 6.3 6 5.7 1.6 0.9 0.1 -0.7 -1.9 -1.9 -1.9 -1.9 -1.9 -1.9 -1.9 -1.9 -1.9 -1.9 -1.9 -1.9 -1.9 -1.9 -1.9 -1.9 -1.9 -1.9 -1.9 -1.9 -1.9 -1.9 -1.9 -1.9 -1.9 -1.9 -1.9 -1.9 -1.9 -1.9 -1.9 -1.9 -1.9 -1.9 -1.9 -1.9 -1.9 -1.9 -1.9 -1.9 -1.9 -1.9 -1.9 -1.9 -1.9 -1.9 -1.9 -1.9 -1.9 -1.9 -1.9 -1.9 -1.9 -1.9 -1.9 -1.9 -1.9 -1.9 -1.9 -1.9 -1.9 -1.9 -1.9 -1.9 -1.9 -1.9 -1.9 -1.9 -1.9 -1.9 -1.9 -1.9 -1.9 -1.9 -1.9 -1.9 -1.9 -1.9 -1.9 -1.9 -1.9 -1.9 -1.9 -1.9 -1.9 -1.9 -1.9 -1.9 -1.9 -1.9 -1.9
39.6 40.9 42.3 42.9 43.7 44.8 45.5 45.8 46.1 46.2 46.1 46.7 47.2 44.2 27.3 24.2 49.9 51.4 53.8 57.2 61 64 66.2 70.1 74.4 80.1 83.7 86.9 90.2 92.4 94 99.7 107.1 111.3 114.2 116.6 117.8 118.8 117.2 116.7 113.3 110.7 106.3 101.4 97.5 93.5 90.6 88.3 85.7 83.7 80.2 78 76.5 75.1 74.2 73.3 72.4 72.9 72.1 71.4 71.2 70.9 71.2 71.6 72.1 72.6 74.2 75.6 76.3 76.7 78.4 80.3 81.8 83.1 83.7 84.4 84.5 84.6 84.2 84 85.4 86 85.9 85.3 85.6 85.1 84.3 83.7 83.2 82.8 82.4 81.6 80.9 80.2 79.3 72.6 77.6 74.6 46.7 39.4 6.3 5.1 6.8 7.8 1.8 1 0.3 -0.5 -1.9 -1.9 -1.9 -1.9 -1.9 -1.9 -1.9 -1.9 -1.9 -1.9 -1.9 -1.9 -1.9 -1.9 -1.9 -1.9 -1.9 -1.9 -1.9 -1.9 -1.9 -1.9 -1.9 -1.9 -1.9 -1.9 -1.9 -1.9 -1.9 -1.9 -1.9 -1.9 -1.9 -1.9 -1.9 -1.9 -1.9 -1.9 -1.9 -1.9 -1.9 -1.9 -1.9 -1.9 -1.9 -1.9 -1.9 -1.9 -1.9 -1.9 -1.9 -1.9 -1.9 -1.9 -1.9 -1.9 -1.9 -1.9 -1.9 -1.9 -1.9 -1.9 -1.9 -1.9 -1.9 -1.9 -1.9 -1.9 -1.9 -1.9 -1.9 -1.9 -1.9 -1.9 -1.9 -1.9 -1.9 -1.9 -1.9 -1.9 -1.9 -1.9 -1.9 -1.9 -1.9 -1.9 -1.9 -1.9 -1.9 -1.9 -1.9 -1.9
38.1 39.7 41.2 41.9 42.4 42.7 43.4 44 44 44.4 45 45.3 46.1 39.5 22.4 30.6 48.5 50.1 52.3 56.1 59.5 62 64.4 68.3 72.4 76.1 79.5 83.5 85.6 86.1 92.3 98.4 102.2 106 110.4 114.4 115.1 114.9 113.2 109.5 102.6 95.9 93.6 89.2 85.8 82.3 80 79.3 77.2 75.4 73.5 72.6 72.1 71.1 70.7 69.7 69.6 70.1 69.6 69.2 70 70.1 70.2 70.4 70.9 72 73.3 74.9 76.2 76.8 78.8 80.9 82.3 83 84 84.8 85.2 86 86.6 86.7 87.7 88.1 87.9 87.3 86.9 86.2 85.5 84.8 83.5 83.1 82.6 81.9 81.1 80.1 78.8 41.1 28.7 23.9 9.1 4 5.9 5.9 6.8 2 1.2 0.4 -0.3 -1.1 -1.9 -1.9 -1.9 -1.9 -1.9 -1.9 -1.9 -1.9 -1.9 -1.9 -1.9 -1.9 -1.9 -1.9 -1.9 -1.9 -1.9 -1.9 -1.9 -1.9 -1.9 -1.9 -1.9 -1.9 -1.9 -1.9 -1.9 -1.9 -1.9 -1.9 -1.9 -1.9 -1.9 -1.9 -1.9 -1.9 -1.9 -1.9 -1.9 -1.9 -1.9 -1.9 -1.9 -1.9 -1.9 -1.9 -1.9 -1.9 -1.9 -1.9 -1.9 -1.9 -1.9 -1.9 -1.9 -1.9 -1.9 -1.9 -1.9 -1.9 -1.9 -1.9 -1.9 -1.9 -1.9 -1.9 -1.9 -1.9 -1.9 -1.9 -1.9 -1.9 -1.9 -1.9 -1.9 -1.9 -1.9 -1.9 -1.9 -1.9 -1.9 -1.9 -1.9 -1.9 -1.9 -1.9 -1.9 -1.9 -1.9 -1.9 -1.9 -1.9
36.5 38.1 39.3 40 40.7 41.2 41.7 41.8 41.9 42.5 43 43.9 44.2 35.9 20.1 44.5 44.9 48.4 51 54.9 59.5 61.5 63.4 67.2 71.5 74.9 77.2 78.8 80.8 84.2 88.4 90.7 94.7 99.6 101.7 103.5 103.1 100 93.9 88.3 86.2 82.8 79.8 77.4 75.5 73.7 72.6 72.4 71.6 70.2 69.6 69.2 70.3 71.7 72.4 70.8 68.6 67.4 67.5 67.4 67.9 68.6 68.7 69.2 70.3 71.4 72.6 74.7 75.7 77.1 78.8 80.5 81.6 82.8 83.8 85.8 87.3 88.1 88.7 89.3 89.4 89.1 88.5 88.2 88 87.5 86.8 86 84.7 83.4 82.8 81.8 80.4 79.3 46.7 16.7 11.4 5.8 4.4 5.9 5.3 6.4 3.2 1.4 0.6 -0.2 -1 -1.9 -1.9 -1.9 -1.9 -1.9 -1.9 -1.9 -1.9 -1.9 -1.9 -1.9 -1.9 -1.9 -1.9 -1.9 -1.9 -1.9 -1.9 -1.9 -1.9 -1.9 -1.9 -1.9 -1.9 -1.9 -1.9 -1.9 -1.9 -1.9 -1.9 -1.9 -1.9 -1.9 -1.9 -1.9 -1.9 -1.9 -1.9 -1.9 -1.9 -1.9 -1.9 -1.9 -1.9 -1.9 -1.9 -1.9 -1.9 -1.9 -1.9 -1.9 -1.9 -1.9 -1.9 -1.9 -1.9 -1.9 -1.9 -1.9 -1.9 -1.9 -1.9 -1.9 -1.9 -1.9 -1.9 -1.9 -1.9 -1.9 -1.9 -1.9 -1.9 -1.9 -1.9 -1.9 -1.9 -1.9 -1.9 -1.9 -1.9 -1.9 -1.9 -1.9 -1.9 -1.9 -1.9 -1.9 -1.9 -1.9 -1.9 -1.9 -1.9 -1.9
34.9 36.2 37.3 38.1 38.8 39.5 40 39.4 40.1 40.9 41.7 42.5 42.8 30.6 18.8 24.5 40.3 49.4 52.2 54.9 60 62.4 64.3 66.8 70.4 73.9 75 76.5 77.7 79.5 80.9 83.2 85.1 83.6 84.8 84 80.1 78.3 77.1 76.2 75.5 75.3 74.1 71.7 70.9 69.7 69.1 68.8 68.1 66.9 66.8 66.7 68.9 70 70.2 68.5 66.9 66.3 66.5 66.2 66 66.4 67.3 68.5 69.7 70.8 72 75.1 76.1 76.1 77.8 79.5 81.2 81.7 83.5 86.5 88.6 89.1 89.1 89.1 90 89.6 89.3 89.2 89 88.7 88 87.2 86.2 84.1 82.5 81 79.4 78.4 41.9 15.9 5.9 4.6 5.4 4.9 6.4 6.1 1.7 0.9 0.1 -0.7 -1.9 -1.9 -1.9 -1.9 -1.9 -1.9 -1.9 -1.9 -1.9 -1.9 -1.9 -1.9 -1.9 -1.9 -1.9 -1.9 -1.9 -1.9 -1.9 -1.9 -1.9 -1.9 -1.9 -1.9 -1.9 -1.9 -1.9 -1.9 -1.9 -1.9 -1.9 -1.9 -1.9 -1.9 -1.9 -1.9 -1.9 -1.9 -1.9 -1.9 -1.9 -1.9 -1.9 -1.9 -1.9 -1.9 -1.9 -1.9 -1.9 -1.9 -1.9 -1.9 -1.9 -1.9 -1.9 -1.9 -1.9 -1.9 -1.9 -1.9 -1.9 -1.9 -1.9 -1.9 -1.9 -1.9 -1.9 -1.9 -1.9 -1.9 -1.9 -1.9 -1.9 -1.9 -1.9 -1.9 -1.9 -1.9 -1.9 -1.9 -1.9 -1.9 -1.9 -1.9 -1.9 -1.9 -1.9 -1.9 -1.9 -1.9 -1.9 -1.9 -1.9 -1.9
33.2 34.3 35.3 36.1 36.7 37.5 38.3 37.4 38.5 39.4 40.3 41.1 39.5 21.7 19.6 40.8 48.6 50.9 53.1 55.6 59.1 62.6 65 67.5 70 72.1 73.4 73.5 73.7 75.2 74.5 73.9 73.9 74.4 72.6 71.5 71.2 70.7 69.9 69.6 70.8 70.3 69.8 68.1 67.1 66.4 65.8 65.2 64.6 64 64 63.9 65.3 65.7 66.1 65.9 65.1 65.3 65.4 64.9 65.1 65.6 66.7 67.8 68.9 70.2 71.5 74.1 75.2 75.7 76.8 78.5 80 81.6 83.1 85.9 87.6 88.4 88.6 88.8 89.9 90.4 90.3 90.2 90 89.8 89.1 87.9 85.9 83.7 81.6 78.7 78.8 75.7 28.7 8.7 4.7 5 5.7 5 7.4 1.8 1.1 0.4 -0.4 -1.2 -1.9 -1.9 -1.9 -1.9 -1.9 -1.9 -1.9 -1.9 -1.9 -1.9 -1.9 -1.9 -1.9 -1.9 -1.9 -1.9 -1.9 -1.9 -1.9 -1.9 -1.9 -1.9 -1.9 -1.9 -1.9 -1.9 -1.9 -1.9 -1.9 -1.9 -1.9 -1.9 -1.9 -1.9 -1.9 -1.9 -1.9 -1.9 -1.9 -1.9 -1.9 -1.9 -1.9 -1.9 -1.9 -1.9 -1.9 -1.9 -1.9 -1.9 -1.9 -1.9 -1.9 -1.9 -1.9 -1.9 -1.9 -1.9 -1.9 -1.9 -1.9 -1.9 -1.9 -1.9 -1.9 -1.9 -1.9 -1.9 -1.9 -1.9 -1.9 -1.9 -1.9 -1.9 -1.9 -1.9 -1.9 -1.9 -1.9 -1.9 -1.9 -1.9 -1.9 -1.9 -1.9 -1.9 -1.9 -1.9 -1.9 -1.9 -1.9 -1.9 -1.9 -1.9
30.2 31.9 33.4 34.1 34.8 35.4 36 35.3 36.7 37.5 38.4 38.8 35.8 20.2 18.5 43.8 48 50.4 52.4 54.2 55.9 60.1 62.6 64.7 66.7 69 70.2 70.6 70.6 71 70.4 69.2 68.1 67.2 66 65.1 64.7 64.4 63.7 64.1 66.6 66.6 65.9 65.1 64.1 63.2 62.4 61.8 61.1 61.1 61.1 61.1 61.7 63.4 65.7 65.9 64 62.5 62.8 63.7 64.6 65.5 66 67.1 67.9 68.8 70.3 71.8 73.1 74.4 75.9 77.8 79.4 81.3 83.2 85.5 86.9 87.6 88 88.8 89.7 90.6 90.9 90.6 90.3 89.9 89 86.7 84.4 81.5 76.7 77.3 75.5 36.3 13.5 3.9 4.3 4.5 4.7 7.3 2 1.3 0.7 0 -0.8 -1.9 -1.9 -1.9 -1.9 -1.9 -1.9 -1.9 -1.9 -1.9 -1.9 -1.9 -1.9 -1.9 -1.9 -1.9 -1.9 -1.9 -1.9 -1.9 -1.9 -1.9 -1.9 -1.9 -1.9 -1.9 -1.9 -1.9 -1.9 -1.9 -1.9 -1.9 -1.9 -1.9 -1.9 -1.9 -1.9 -1.9 -1.9 -1.9 -1.9 -1.9 -1.9 -1.9 -1.9 -1.9 -1.9 -1.9 -1.9 -1.9 -1.9 -1.9 -1.9 -1.9 -1.9 -1.9 -1.9 -1.9 -1.9 -1.9 -1.9 -1.9 -1.9 -1.9 -1.9 -1.9 -1.9 -1.9 -1.9 -1.9 -1.9 -1.9 -1.9 -1.9 -1.9 -1.9 -1.9 -1.9 -1.9 -1.9 -1.9 -1.9 -1.9 -1.9 -1.9 -1.9 -1.9 -1.9 -1.9 -1.9 -1.9 -1.9 -1.9 -1.9 -1.9 -1.9
26.4 28.3 30 31.4 32.4 33 33.7 33.8 34.3 35.7 36.1 36.4 22.2 17 28 44.6 47.4 49.7 51.1 52.5 54.4 57.4 60.5 62.6 64.7 66.7 67.7 67.6 68.4 68.8 68.1 66.6 65.2 64.1 62.9 61.7 60 58.7 58.8 59.1 60.8 61.8 62.1 61.3 59.6 59 58.9 58.5 58.5 58.2 58.2 59.1 60.3 62.3 63.4 65.8 64 63.5 64.3 64.8 66.1 67.4 66.9 67.3 68.6 69.4 70.1 71 72.3 73.9 75.6 77.1 79 81.2 83.3 85.2 86.5 87.2 89.3 88.5 89.4 90.2 90.3 90 89.4 88.2 87 85.1 82.5 79.2 77 48.1 43.7 14.1 3.9 5.7 4.7 5.6 6.1 3.4 1.5 0.8 0.2 -0.5 -1.2 -1.9 -1.9 -1.9 -1.9 -1.9 -1.9 -1.9 -1.9 -1.9 -1.9 -1.9 -1.9 -1.9 -1.9 -1.9 -1.9 -1.9 -1.9 -1.9 -1.9 -1.9 -1.9 -1.9 -1.9 -1.9 -1.9 -1.9 -1.9 -1.9 -1.9 -1.9 -1.9 -1.9 -1.9 -1.9 -1.9 -1.9 -1.9 -1.9 -1.9 -1.9 -1.9 -1.9 -1.9 -1.9 -1.9 -1.9 -1.9 -1.9 -1.9 -1.9 -1.9 -1.9 -1.9 -1.9 -1.9 -1.9 -1.9 -1.9 -1.9 -1.9 -1.9 -1.9 -1.9 -1.9 -1.9 -1.9 -1.9 -1.9 -1.9 -1.9 -1.9 -1.9 -1.9 -1.9 -1.9 -1.9 -1.9 -1.9 -1.9 -1.9 -1.9 -1.9 -1.9 -1.9 -1.9 -1.9 -1.9 -1.9 -1.9 -1.9 -1.9 -1.9 -1.9 -1.9
19 20.7 23.5 26.5 26 30.5 30.9 32.3 30.9 34.2 34.1 34.5 15.2 27 39.7 43.3 44.9 48 49.2 51 52.9 54.8 58.4 60.5 62.6 64.1 65 65.9 66.2 66.8 66.6 65.1 63.6 62 60.7 59.4 58.4 57 56.8 56.2 55.6 56.3 57.2 57.5 57.1 56.7 56.2 56.5 56.3 56 56.2 57.4 58.5 60.3 62.1 64.9 64.9 65.1 65.3 66.4 67.3 67.8 67.9 68.7 69.2 69.8 70.4 71 72 73.7 74.9 76.3 78.2 80.4 82.5 84.6 85.7 86.7 88.5 88.3 89 89.5 89.7 89.1 87.4 86.1 84.6 82.1 79.3 76.9 34.1 13.5 9.6 4.7 3.9 5.7 4.9 5.5 7.8 1.7 1 0.4 -0.3 -1 -1.9 -1.9 -1.9 -1.9 -1.9 -1.9 -1.9 -1.9 -1.9 -1.9 -1.9 -1.9 -1.9 -1.9 -1.9 -1.9 -1.9 -1.9 -1.9 -1.9 -1.9 -1.9 -1.9 -1.9 -1.9 -1.9 -1.9 -1.9 -1.9 -1.9 -1.9 -1.9 -1.9 -1.9 -1.9 -1.9 -1.9 -1.9 -1.9 -1.9 -1.9 -1.9 -1.9 -1.9 -1.9 -1.9 -1.9 -1.9 -1.9 -1.9 -1.9 -1.9 -1.9 -1.9 -1.9 -1.9 -1.9 -1.9 -1.9 -1.9 -1.9 -1.9 -1.9 -1.9 -1.9 -1.9 -1.9 -1.9 -1.9 -1.9 -1.9 -1.9 -1.9 -1.9 -1.9 -1.9 -1.9 -1.9 -1.9 -1.9 -1.9 -1.9 -1.9 -1.9 -1.9 -1.9 -1.9 -1.9 -1.9 -1.9 -1.9 -1.9 -1.9 -1.9 -1.9 -1.9
10.3 13.4 15.2 15.4 17 21.8 26.3 26.4 30.4 33.5 33.3 30.2 17 16 39.7 41.3 43.4 45.5 47.6 49.5 51.4 53.3 56.1 58.4 60.5 61.4 62.3 63.3 65.1 64.7 65 63.6 62.1 60.4 59 58 57 56 55.1 54.8 54.3 54.3 54.7 55.3 55.4 54.9 54 54.4 54 53.7 53.9 53.5 57.5 61.1 65.5 64.7 64.5 64.7 67.1 67.7 68.2 68.3 68.4 69 69.4 69.6 70.2 70.6 72 73.1 74.7 76 77.4 79.3 81.3 83.4 84.5 85.1 86.7 87.8 88.8 89.1 88.6 87.7 85.4 83.6 81.1 78.3 65.6 50.2 15.1 7.9 4.6 5.6 6.3 3.9 4.7 6.8 1.9 1.3 0.6 -0.1 -0.8 -1.9 -1.9 -1.9 -1.9 -1.9 -1.9 -1.9 -1.9 -1.9 -1.9 -1.9 -1.9 -1.9 -1.9 -1.9 -1.9 -1.9 -1.9 -1.9 -1.9 -1.9 -1.9 -1.9 -1.9 -1.9 -1.9 -1.9 -1.9 -1.9 -1.9 -1.9 -1.9 -1.9 -1.9 -1.9 -1.9 -1.9 -1.9 -1.9 -1.9 -1.9 -1.9 -1.9 -1.9 -1.9 -1.9 -1.9 -1.9 -1.9 -1.9 -1.9 -1.9 -1.9 -1.9 -1.9 -1.9 -1.9 -1.9 -1.9 -1.9 -1.9 -1.9 -1.9 -1.9 -1.9 -1.9 -1.9 -1.9 -1.9 -1.9 -1.9 -1.9 -1.9 -1.9 -1.9 -1.9 -1.9 -1.9 -1.9 -1.9 -1.9 -1.9 -1.9 -1.9 -1.9 -1.9 -1.9 -1.9 -1.9 -1.9 -1.9 -1.9 -1.9 -1.9 -1.9 -1.9 -1.9
11.2 10.3 10.3 10.9 11.9 14.1 14.1 14.6 16.2 22.9 29.4 15.3 13.9 33.7 38 39.6 41.5 43.6 45.8 47.8 49.9 51.8 53.7 56.3 57.8 58.8 60.1 61.5 64.5 63.5 63 62.2 60.4 58.7 58 56.7 55.7 55.4 55.1 54.7 54.1 53.6 52.8 53 53.3 52.6 51.9 51.7 51.3 50.9 53 53.7 57 61.5 67.4 66.9 65.8 66.6 67 67.9 68.7 68.9 69 69.3 69.5 69.3 69.3 70.6 71.9 73.1 74.7 75.9 77.2 79 80.3 80.9 82.9 85.6 87 87.3 87.1 86.7 85.5 83.9 82.2 79.9 77.3 74.6 33.9 19.1 10.2 6.7 4.3 4.2 4.2 3.9 6.3 2.1 1.3 0.8 0.1 -0.6 -1.2 -1.9 -1.9 -1.9 -1.9 -1.9 -1.9 -1.9 -1.9 -1.9 -1.9 -1.9 -1.9 -1.9 -1.9 -1.9 -1.9 -1.9 -1.9 -1.9 -1.9 -1.9 -1.9 -1.9 -1.9 -1.9 -1.9 -1.9 -1.9 -1.9 -1.9 -1.9 -1.9 -1.9 -1.9 -1.9 -1.9 -1.9 -1.9 -1.9 -1.9 -1.9 -1.9 -1.9 -1.9 -1.9 -1.9 -1.9 -1.9 -1.9 -1.9 -1.9 -1.9 -1.9 -1.9 -1.9 -1.9 -1.9 -1.9 -1.9 -1.9 -1.9 -1.9 -1.9 -1.9 -1.9 -1.9 -1.9 -1.9 -1.9 -1.9 -1.9 -1.9 -1.9 -1.9 -1.9 -1.9 -1.9 -1.9 -1.9 -1.9 -1.9 -1.9 -1.9 -1.9 -1.9 -1.9 -1.9 -1.9 -1.9 -1.9 -1.9 -1.9 -1.9 -1.9 -1.9 -1.9 -1.9
27.2 15.9 18.9 13 9.2 9.4 9.5 9.8 10.1 11.3 13.2 12.6 33.3 35.4 35.9 39 40.9 43.1 44.6 46.4 48.3 50.1 52.1 54.2 55.5 56.8 58.2 60.7 62.8 62.9 61.9 60.6 58.7 58 57.5 56.5 55.6 55.3 54.7 54.4 53.6 52.3 50.9 51 51.2 50.1 49.7 49 48.5 48.6 51.4 53.6 57.8 62.8 67.7 67.8 67 67.8 66.7 67.6 68.6 68.9 69 69.6 69.4 68.9 69.3 70.5 71.2 71.9 73.4 74.4 75.3 77.5 78.4 80.6 84.1 83.6 84.7 84.2 83.8 82.9 81.5 79.4 77.3 75.4 70.6 29.8 12.9 10 8.6 3.3 3.1 2.9 3.5 4.6 7.7 1.5 0.5 0 -0.4 -1 -1.9 -1.9 -1.9 -1.9 -1.9 -1.9 -1.9 -1.9 -1.9 -1.9 -1.9 -1.9 -1.9 -1.9 -1.9 -1.9 -1.9 -1.9 -1.9 -1.9 -1.9 -1.9 -1.9 -1.9 -1.9 -1.9 -1.9 -1.9 -1.9 -1.9 -1.9 -1.9 -1.9 -1.9 -1.9 -1.9 -1.9 -1.9 -1.9 -1.9 -1.9 -1.9 -1.9 -1.9 -1.9 -1.9 -1.9 -1.9 -1.9 -1.9 -1.9 -1.9 -1.9 -1.9 -1.9 -1.9 -1.9 -1.9 -1.9 -1.9 -1.9 -1.9 -1.9 -1.9 -1.9 -1.9 -1.9 -1.9 -1.9 -1.9 -1.9 -1.9 -1.9 -1.9 -1.9 -1.9 -1.9 -1.9 -1.9 -1.9 -1.9 -1.9 -1.9 -1.9 -1.9 -1.9 -1.9 -1.9 -1.9 -1.9 -1.9 -1.9 -1.9 -1.9 -1.9 -1.9 -1.9 -1.9
29.5 25.1 20.5 24.9 24.8 18.2 15 12.5 9 9 9.6 12.2 31.4 31.3 36.7 37.9 40.8 43.5 43.8 45.7 47.5 49.3 50.8 52.1 53.6 55 56.8 58.5 60 59.9 60.8 59.6 57.9 56.8 56.4 56 55.7 55.1 54.6 54.1 52.9 51.9 50.7 48.3 48.7 46.9 47.2 47.6 47.8 49.2 51.9 55.8 59.6 63 65.1 66.9 68.4 68 66.1 67.6 68.9 69.2 69.7 69.7 69.6 68.2 69.2 69.7 69.6 70.9 72.3 73.8 74.9 76.2 77.7 78.6 79.5 79.6 80.2 80.4 80.1 78.2 76.1 74.1 72.3 68.3 42.7 12.9 6.4 7.4 4.1 2.4 3 3 4 6.7 1.9 0.9 -0.1 -0.9 -1.3 -1.9 -1.9 -1.9 -1.9 -1.9 -1.9 -1.9 -1.9 -1.9 -1.9 -1.9 -1.9 -1.9 -1.9 -1.9 -1.9 -1.9 -1.9 -1.9 -1.9 -1.9 -1.9 -1.9 -1.9 -1.9 -1.9 -1.9 -1.9 -1.9 -1.9 -1.9 -1.9 -1.9 -1.9 -1.9 -1.9 -1.9 -1.9 -1.9 -1.9 -1.9 -1.9 -1.9 -1.9 -1.9 -1.9 -1.9 -1.9 -1.9 -1.9 -1.9 -1.9 -1.9 -1.9 -1.9 -1.9 -1.9 -1.9 -1.9 -1.9 -1.9 -1.9 -1.9 -1.9 -1.9 -1.9 -1.9 -1.9 -1.9 -1.9 -1.9 -1.9 -1.9 -1.9 -1.9 -1.9 -1.9 -1.9 -1.9 -1.9 -1.9 -1.9 -1.9 -1.9 -1.9 -1.9 -1.9 -1.9 -1.9 -1.9 -1.9 -1.9 -1.9 -1.9 -1.9 -1.9 -1.9 -1.9 -1.9
28.8 30.1 24 30.2 30.2 27.7 20.8 16.6 14.6 14 11.8 9.4 10.2 28.7 35.1 36 38.9 42.3 42.7 44.5 46.1 47.7 49.2 50 51.5 53 54 55.2 56.6 56.3 57 57.4 57.1 55.7 55.1 54.3 54.2 54 53.5 53 52.1 50.6 49.6 45.9 46.7 45.9 46.9 47.7 49.1 50.9 55 58.8 63.5 64 64.4 66.7 68.7 69.7 68.8 69.1 69.7 69.5 68.5 68 67.7 67.7 68.4 68.8 69.4 71.8 72.9 73.1 74.2 74.2 73.2 73.4 75.6 76.1 76.4 76.4 74.5 72.5 70.5 67.7 64.5 63.6 21 7.1 5.7 7.5 2.5 2.4 3.4 4.6 5.8 7.4 1.3 0.3 -0.8 -1.9 -1.9 -1.9 -1.9 -1.9 -1.9 -1.9 -1.9 -1.9 -1.9 -1.9 -1.9 -1.9 -1.9 -1.9 -1.9 -1.9 -1.9 -1.9 -1.9 -1.9 -1.9 -1.9 -1.9 -1.9 -1.9 -1.9 -1.9 -1.9 -1.9 -1.9 -1.9 -1.9 -1.9 -1.9 -1.9 -1.9 -1.9 -1.9 -1.9 -1.9 -1.9 -1.9 -1.9 -1.9 -1.9 -1.9 -1.9 -1.9 -1.9 -1.9 -1.9 -1.9 -1.9 -1.9 -1.9 -1.9 -1.9 -1.9 -1.9 -1.9 -1.9 -1.9 -1.9 -1.9 -1.9 -1.9 -1.9 -1.9 -1.9 -1.9 -1.9 -1.9 -1.9 -1.9 -1.9 -1.9 -1.9 -1.9 -1.9 -1.9 -1.9 -1.9 -1.9 -1.9 -1.9 -1.9 -1.9 -1.9 -1.9 -1.9 -1.9 -1.9 -1.9 -1.9 -1.9 -1.9 -1.9 -1.9 -1.9 -1.9
28.9 28.4 29.3 30.4 29.6 27.2 21.1 19.1 16.5 14.7 13.5 13 10.9 9.4 24.6 34.1 37 39.7 40.2 42.9 44.5 46.1 46.8 47.9 49.5 51 52.1 52.9 52.8 52.7 53.3 53.8 54 54.4 53.6 52.9 52.2 51.9 51.4 50.9 50 48.8 47.4 42.9 48.6 49.9 50.6 52.8 53.6 56.9 60.4 64.8 66.8 66.7 68.7 69.4 70.3 70.1 68.8 68.7 67.8 66.8 67.2 67.7 66.9 67.7 68.4 68.7 68.7 69.8 70.4 71.4 71.7 71.7 71.2 70.3 71.4 72.5 72.4 71.1 68.4 66.5 64.6 58.6 57.2 34.3 8.9 5.8 7 2.4 2.5 2.5 4.1 5.7 6.6 1.7 0.7 -0.3 -1.3 -1.9 -1.9 -1.9 -1.9 -1.9 -1.9 -1.9 -1.9 -1.9 -1.9 -1.9 -1.9 -1.9 -1.9 -1.9 -1.9 -1.9 -1.9 -1.9 -1.9 -1.9 -1.9 -1.9 -1.9 -1.9 -1.9 -1.9 -1.9 -1.9 -1.9 -1.9 -1.9 -1.9 -1.9 -1.9 -1.9 -1.9 -1.9 -1.9 -1.9 -1.9 -1.9 -1.9 -1.9 -1.9 -1.9 -1.9 -1.9 -1.9 -1.9 -1.9 -1.9 -1.9 -1.9 -1.9 -1.9 -1.9 -1.9 -1.9 -1.9 -1.9 -1.9 -1.9 -1.9 -1.9 -1.9 -1.9 -1.9 -1.9 -1.9 -1.9 -1.9 -1.9 -1.9 -1.9 -1.9 -1.9 -1.9 -1.9 -1.9 -1.9 -1.9 -1.9 -1.9 -1.9 -1.9 -1.9 -1.9 -1.9 -1.9 -1.9 -1.9 -1.9 -1.9 -1.9 -1.9 -1.9 -1.9 -1.9 -1.9 -1.9
