ncols 200
nrows 82
xllcorner 260000
yllcorner 874100
cellsize 50
503.1 488.7 475 461.1 452.9 449.4 441 439.4 439.9 440 443.9 446.3 443.7 440.6 437.8 441.1 452 463.2 472.7 484.6 494.8 501.8 509.8 516.5 524.2 529.3 535.7 541.4 547.9 555.4 558.1 552.2 543.7 531.9 516.8 499.8 485.3 474.5 465.1 448.8 436 427.6 416.2 404.8 391.3 380.4 371.6 367.3 356.8 343.4 335 330 326.4 321.7 316.9 312.6 308.9 305.7 302.8 300.6 298.4 295.5 292.8 290.8 289.4 289.6 291.2 292.4 291.8 289.3 286.2 283 280.9 278.4 276.5 274.4 270.4 267.6 265.5 263.3 261.7 260.4 259.3 256.2 251.2 254.2 254 252.5 250.2 238.9 244.2 235.2 231 230 229.8 224.7 227.4 229.8 232.2 233.7 235.9 237.2 238.2 239 239.5 239 238.1 236.9 222 213.7 225.2 234.9 234.4 235.4 236.7 238.2 239.3 241.1 242.7 244 244.8 245.9 246.7 247.1 246.4 245.3 243.1 240.6 238.2 236.3 233.7 230.5 225.9 220.9 219.6 214.7 213.9 213.6 216.6 223.3 224.6 221.5 217.7 198.7 186.4 194.7 198.4 187.9 177.9 172.3 165 164.4 164.4 167 174.8 187.3 203.8 224.8 247.4 269.6 289.2 306.5 320.5 328.8 333.6 335.7 333.5 330.5 326.3 323.6 322.6 322.2 319.9 317.3 314.7 313 312.2 311.1 320.7 328.9 336.4 343.9 350.4 356 360.9 365.7 370.4 373 374.4 375.2 377.4 374.9 370.8 365.3 358.9 353.6 349.7 345.8 341.7 338.9
510.6 494.9 479.6 464.1 453.1 447.6 442 434.1 428.1 431.9 430.7 431.7 430.5 429.6 427.4 431.3 438.2 446.5 455 463.7 474.7 483.5 492.1 498.3 505.7 512.7 520.3 526.5 534 541.5 545.1 543.2 537.3 525.2 506.8 491.9 477 466.4 454.5 443.5 436.4 429.3 417.7 405.1 392.7 382.5 374.7 366.9 355.7 343.9 336.2 329.7 325.5 322 318.2 314.1 311.4 308.6 305 301.9 298.4 294.9 291.9 289.8 288.3 290 291.1 292 289.1 284.7 281.3 278.5 277.8 276.2 274.1 271.8 269.1 267.3 265.7 264.1 262.3 260.6 258.5 255.5 256.6 256.7 255.6 253.9 253.2 251.2 250 247.2 240.9 232.5 240.4 238.4 227.4 217.2 222 224.8 229.6 231.2 232.3 233.6 233.7 233.6 233.6 231.6 213.7 214.8 230.6 230 228.6 230.1 231.8 232.9 233.8 235.4 236.9 238.3 239.5 240.5 241.3 241.7 241.7 240.6 238.1 234.9 232.4 231.1 229.6 227.2 222.7 214.8 215.8 213.1 215.1 218.4 222.7 224.1 222.6 217.6 214.6 199.2 185.7 192.8 198.9 186.6 179.2 172.5 165.1 164.4 164.4 167.1 174.3 188.2 205.2 225.9 249.1 272 290.4 305.4 317.5 325.2 329.6 330.3 328.8 325.4 321 318 316.1 316 314.1 311.7 309.5 307.7 303.1 309.7 318.9 327.6 334.7 342.3 349 354.9 359.9 364.9 369 371.2 371.8 373.4 374.9 372.1 368.4 363 356.6 350.7 347.5 344.5 341.6 338.9
521.8 502.6 485.4 470 457.8 450.8 444.6 437.5 431.5 423.3 424.1 423.9 422.3 419 417.4 421.7 425.9 431.6 437.6 446.1 455.6 465.5 474.1 481.3 488.9 497 504.4 510.9 519.4 527.1 531.9 533 528.9 515.2 500.5 485.9 469.7 454.9 444.5 438.7 431.6 425.3 415 403 392.8 386.4 376.4 365.7 354.5 344.1 336.8 330 325 321.3 317.9 314.1 311.8 309.1 305.2 301.2 296.5 292.4 289.6 287.6 285.7 287.1 287.4 286.2 283.1 278.7 277.3 276.1 275.2 273.8 272.2 270.3 268.5 267.1 265.9 264.9 263 259.9 258.9 259.5 259.3 258.8 256.7 255.7 254.5 252.7 251 248.2 244.8 242.8 241.7 238.5 234.7 229.5 219.1 214.7 217.8 226.7 226.9 228.2 227.7 228.5 228.8 226 213.6 211.7 224.5 225 224.4 225.4 226.6 227.3 228.5 230.1 231.1 232.3 233.8 234.9 235.4 235.8 236.1 235.2 233.1 229 225.7 223.1 223.4 224.1 219.9 210.8 212.7 213.4 218.4 220.7 220.7 220.2 217.3 212.5 204.1 192.6 186.6 198.1 200.7 188.8 180.5 173.3 165.2 164.4 164.4 167 174.3 190.2 208.3 229.3 252.9 274.4 289.6 303.2 313.9 321.2 324.4 323.9 322.8 320.5 316.2 313.6 311.1 310.3 308.9 306.5 304.6 303.1 295.3 307.6 317 325.5 333.7 340.7 347.5 354.3 360.1 364.5 367.6 368.9 369.8 371.1 371 368.7 365.2 360.6 355 349 345.8 343.2 340.6 337.8
534 514 494.3 478.4 465.9 459 452.4 445.7 437.9 429.6 421.3 413.1 415.1 411.9 409.7 412.3 415.3 419.8 423.2 429.8 438 446.5 456.2 465 473.6 481.9 489.2 495.7 503.7 511.7 517 520.4 516.3 505.1 493.2 478 460.1 446.6 436.9 431.1 423.6 418.4 409.2 400.3 394.3 383.8 374.1 362.4 354.4 345.4 337.5 329.4 323.9 320 316.1 312.2 309.9 305.9 301.8 297.5 292.8 289.8 287.3 284.9 282.7 280.9 280 279.5 278.6 276.9 275.9 274.7 273.3 272.5 271.2 269.8 268.4 267.3 266.2 265.1 263.4 263.2 262.4 261 260.8 259.2 257.6 256.9 255.9 254.2 251.4 248.2 245.3 244 241.6 237.9 235.3 233 228.2 211.7 211.3 213.8 222.8 225.1 223.5 223.8 224.1 222.9 210.9 210.5 221 222.8 222.5 222.4 222.3 222.7 223 224.1 224.7 226.1 227.7 228.8 229.5 229.5 229.5 229.9 229.4 223.6 216.7 215.5 216.4 218.2 217 207.2 208.5 216.8 217.5 217.4 216.9 216.2 211.3 202 194.8 185.9 190.9 202.8 200.6 190.3 181 172.1 164.7 164.4 164.4 166.2 175.8 190.4 208.9 231 252.4 271.6 286.3 299.5 310 316.3 319.1 318.5 317.6 315.7 312.2 309.6 307.8 306.8 304.2 301.2 299.7 298.3 293.9 306.3 316.6 324.7 332.8 339.5 346.2 352.6 358.4 362.4 365.4 366.8 367.8 369.4 369.7 366.7 363 358.8 354 348.7 345.4 342.7 340 336.8
547.3 524.6 503.6 487.9 477.3 471.8 463.7 454.8 447.1 438 430 421.5 413.3 405.7 401.3 402.6 403.6 407.4 411.2 417 424 431.4 439.2 448 457 466.5 475.2 482 489.4 497.8 504.4 508.3 503.3 495.5 484.4 465.2 450 438.7 429.3 421.4 413.6 409.3 402.6 396 388.7 380.4 370 360.5 352.7 345.4 337.1 328.8 322.7 318.3 313.6 308.6 304.8 300.6 297.2 293.6 291.1 288.7 286.4 283.8 281.4 278.8 278.1 278.2 277.6 276.2 274.5 273.4 272.6 271 270.7 269.4 268.5 267.4 266.3 264.9 263.1 264.7 264.4 263.1 262.7 260.6 258.6 258 256.3 253.7 251.1 248 245.1 243.7 240.5 236.7 234.5 232.1 228.9 223.6 215.6 207.8 222 222.3 221.7 219.7 220 217.2 208.3 211.3 215.4 221.6 221.2 220.6 219.7 217.9 217 218 219.1 220.1 221.1 221.7 222.5 222.4 222.5 224 225 217.1 215.5 214.6 214 214.3 214.5 210.2 204.9 212.2 213.7 213.3 212.6 212.7 202.4 199.4 195 183 195.5 206.1 200.9 189.7 179.3 170.7 164.4 164.4 164.4 167 175.4 189.4 207.5 230.5 252.1 270.7 283.7 295.8 306.1 310.9 314 313.7 312.8 311.6 308.8 306.2 305.1 303.6 300.7 297.9 295.2 294 290.2 303 313.4 323.2 330.9 337.4 343.5 349.5 354.8 359.1 362 363.7 365.9 368.1 368.3 365.3 361.5 357.2 352.7 348.5 345.3 342.2 339.2 335.7
560.1 536.3 515 499.9 496.8 491.5 481.6 470.8 460.3 449.8 438.6 430 421.5 414.8 408.3 400.4 392.6 394.6 399.4 405.8 412.9 419.8 426.5 433.6 441.9 452 462.7 471.6 480.5 487.8 494.2 498.2 493.5 485.8 473.3 455 443.2 433.5 424.4 415.5 406.6 399.9 396 391 382.9 374.2 364.9 356.9 349.7 342.1 333.6 326.1 319.9 313.7 307.7 302.6 298.7 295.3 293.9 292.6 290.7 288.1 285.5 282.9 280.4 277.9 275.7 276.9 276.5 275.3 273.6 272.9 271.8 270.9 270.5 269.6 268.7 267.3 266.4 264.2 265.2 265.4 265 264.8 263.1 260.8 260.3 258.3 255.8 253.6 251.5 248.1 245.2 243.1 239 236.5 234.3 232.3 229.1 225.8 213.3 205.9 207.8 217.9 218.5 216.3 218.2 218 206.7 207.6 208.6 207.1 206.4 213.8 218 212.2 210.8 211 212 212.6 213.8 214.2 215.2 215.5 216.7 218.4 218.7 215 214 213.2 212.6 212 211.9 209.9 201.3 207.8 209.8 208.9 208 205.6 196.7 196.7 194.7 181.6 200.9 205.5 201.6 191.2 179.4 177.9 170 164.4 164.4 166.4 174.6 190.2 207.2 231.3 253.4 269.7 281.4 291.5 300.3 305.8 309.5 310.9 310.2 308.3 305.4 303.3 302.3 300.5 297.6 294.7 291.9 289.5 285.7 298.5 309.4 320.1 328 334.2 340.3 346.3 351.8 356.2 359.4 361.1 363.4 366.7 366.2 363.7 359.9 355.7 351.1 347.3 344.8 341.7 337.7 334
569.1 546.8 528.8 520.3 517.6 511.4 499.1 486.8 473.9 461.5 450.2 439.9 430.1 423.1 417.1 409.9 403.8 394.9 388.9 391.6 399.5 408.4 416.3 423.7 431.5 440.6 451.5 460.9 470.9 479.8 484.9 488.3 482.7 474.5 462.6 449 438.8 429.3 418.6 408.2 396.8 387.7 387.3 384.2 378.7 369.5 362.1 355 347 337.8 330.5 323.1 315.6 308.6 302.5 297.5 293.7 293.1 292.8 291.7 290 287.7 284.9 282.2 279.7 277.6 275.8 274.7 274.3 274.5 273.4 272.8 272.3 271.4 270.5 269.9 268.4 266.5 265.7 265.7 266.8 267.2 265.7 264.8 262.6 261.3 259.3 257.4 255.6 253.5 250 247.3 245 242.7 238.5 236.4 234.3 231.7 229.3 227.9 214.8 206 202.5 215.4 215 213.3 216 219.2 211.4 205.9 204.2 203 202 203.4 206.3 206.8 205.5 203.9 205.1 205.7 205.6 205.7 206.6 207.9 209.1 211 212.4 212.5 211.7 211.6 211.4 210.9 211.2 209.6 202.2 204.5 205 204.5 200.6 195.9 193.6 193.4 185.6 185.7 198 194.3 187.9 181.2 177.5 172.3 173.5 167.9 164.4 165.8 174.1 189.5 207.1 230.8 252.4 266.1 276.3 285.7 294.1 300.5 305.3 307.2 306.7 304.5 301.9 300.5 299.6 297 293.4 289.9 287.2 283.8 281.2 293.8 304.9 315.9 324.8 331 337.1 343.3 349.1 352.9 355.7 357.4 359.9 363.5 364.1 362.1 358.2 354 349.6 345.4 343.6 340.5 336.3 332.5
579 560.4 547.9 542.7 536.3 525 512.7 499.5 486.2 473.6 461.6 449.7 440.2 432 426.1 418.7 411.1 402.6 394.8 382.5 386.9 394.7 402.6 410 417.9 429.7 442.3 453 464.2 474.8 479.2 479 472.5 464.7 454.3 443.6 434.8 422.9 413.9 401.6 387.1 380.6 381.4 376.6 371.3 363 357 351.5 342.6 334.7 326.6 318.4 311 304 297.5 293.4 292 291.7 291.2 290.4 289 287.1 284.4 281.9 279.6 277.8 276.3 275.3 274.4 273.4 272.7 272.4 271.9 270.5 269.1 268.6 268.4 268.2 268 267.8 267.5 267.5 265.9 263.8 261.8 260.2 258.1 256.4 255.3 251.4 248.6 246.3 243.8 240.9 237.9 236 233.8 230.3 228.8 225.9 217.9 206.6 201.9 212.5 210.2 210.4 212.4 212.1 211.8 211.4 211.2 206.5 205.6 200 201.9 201.1 199.9 198.6 197.4 196.6 196.1 197.2 195.9 198.3 199.2 202.5 205.1 207 207.2 207.7 208.9 210.1 208.3 205 199.5 199 200.5 196.9 191.5 191.6 190.8 187.8 180.8 190.6 194.2 187.9 181.5 179.2 173.4 168.1 164.9 163.3 161.4 166 173.5 188.4 205.6 228.8 249.9 261.7 271.2 279.8 287.8 295 299.1 302.8 302 300.2 297.9 296.7 296 292.5 289 286.3 284.1 279.7 274.7 288.2 300 310.7 320.6 327.9 333.9 339.7 345.1 348.7 351.5 353.6 356.3 359.8 361 359.8 355.9 351.5 347.1 343.3 341.9 340 335.4 329.8
592.4 577.1 565.2 557.4 548.2 536.5 523 509.9 496.7 483.9 471.8 461.1 451.7 443.5 435.4 427.8 418.9 411.2 403.1 392.4 377.1 383.2 390.4 398.5 408.6 421.2 432.7 445.7 460.4 471.4 473.6 470.7 463.6 456.2 446 436.9 426.8 417.7 408.9 397.3 380.6 376.7 374.8 369.5 363.8 356.3 350.2 344.1 337.6 329.3 321.1 312.3 305.1 299.5 294.6 292 292.2 292 291.2 289.3 287.8 286.4 284 282 279.6 277.9 276.6 275.7 274.9 273.8 273.4 272.7 272.1 271.6 271.8 272 270.8 270.1 269.2 269 268.1 267.4 265.5 262.9 261.1 259.1 257.5 255.7 253.4 249.8 247.2 245.1 243.4 241.5 238.3 235.6 232.1 229.2 226.8 223.6 215.8 208.4 201.7 203.5 205.1 204 206.2 216.1 207.7 206.6 201.4 200.8 208.1 196.9 198.2 198.6 197 196.4 195 193.3 190.8 192.1 190.4 188.6 189.2 192.4 193.9 195.6 196.7 198.1 198.1 200.2 196.2 195.7 193.8 192.6 192.4 191 189.9 190.1 186.8 183.6 178 186 185.3 182.2 180 177.1 172.6 167.7 162.7 162.4 161.2 165.7 172 187.7 203.9 225.7 246.5 257.6 266.9 275.1 282.5 289.2 294.8 298 297.7 295.9 294.1 292.6 291.9 288.5 284.6 282.5 280.5 276.2 262.2 281.4 294.6 305.2 315.9 324.2 330.3 336.1 340.7 344.6 347.2 349.1 351.1 355.2 357.3 357.2 353.7 349.1 344.6 341.3 339.8 338.1 333.5 327.4
607.8 594.6 582.7 572.3 559.6 547.6 532.3 519.1 504.8 493.1 482.7 473.3 463.1 454.3 445.3 435.9 426.7 419.1 409.9 398.9 389.4 374 377.1 386.5 399 412.6 425.2 439.9 457.2 469.6 471.6 465 458 447.9 436.4 426 418.9 411.2 401.6 388.7 379.2 375.9 369 363.6 356.4 348.7 342.8 338 331.3 323.2 315.4 307.8 302.2 297.5 293.7 292.8 292.1 291.5 291.1 288.7 287 285.5 283.7 282 279.6 278 277.1 276.1 275.1 274.7 274.6 274.1 273.6 273.7 273.5 273.4 272.6 272.1 270.9 269.7 268.4 266.8 264.3 262.5 260.9 257.7 255.8 254.6 251.6 248.6 245.7 244.5 243.3 240.9 237.7 234 230.2 227.3 223.8 221.3 219.2 209.3 204.5 198.5 196.9 199.8 195.4 195.5 196.2 200.5 199.7 199.9 207.4 196.2 197.3 192.1 190.4 191.6 193 191.6 187.3 184.4 184.4 183.8 184 185.5 186.3 185.9 186.2 185.2 185.4 185.2 185.9 185.7 189.7 190.8 186.8 185 188.9 186.7 183.7 180.6 176.1 180.3 181.3 179.1 178 174.7 171.1 167.1 162.6 162.3 161 165.2 171.1 185.4 201.1 220.3 241.2 253 262 270.7 277.8 284.5 290 293.1 292.8 291 289 288.4 287.8 284.8 281.1 279.4 277.7 274.2 257.7 270.9 287.3 300.9 312.2 320.4 326.6 332.2 336.9 340.5 343.2 344.7 346.8 350.7 353.2 353.3 350.5 346.3 342.1 339.3 337.4 335.7 330.5 323.6
619.2 609.1 597.7 586 573.5 560.1 544.6 529.1 514.3 504.8 496 483.6 471.3 460 451 440 432 423 411.8 401.6 393.2 386.7 367.4 373.5 388.8 403.6 419.1 435.3 453.7 465.2 467 458.7 451.6 439.6 427.9 418.3 409.6 402.1 392.2 384.2 377.9 372.3 363.7 356.5 347.9 341 335.7 331.8 325 316.8 310.4 304.8 300 297.2 294.7 293.1 291.8 290.2 289 288.2 286.5 284.5 282.4 280.9 279.4 278 276.9 275.9 275 274.4 274.7 275 274.7 274.7 274.5 274.3 273.9 273 271.8 269.3 267.5 265.9 263.8 261.4 259.8 256.1 253.7 252.9 250.5 247.1 244.6 243.6 241.9 238.8 235.5 231.7 226.4 224.3 222.5 219.6 216.8 210.8 206.8 203.8 201.7 194.7 196.5 195.5 194.4 201.4 199.8 203.7 203.2 191.9 185.9 185.2 183.1 182.2 182.8 183 182.5 181.7 181.4 180.7 180 178.7 179 179.9 180 179.2 178.4 178.3 177.9 178.6 179.2 182.1 184.4 186.6 185 185.7 181.2 176.7 176 178.9 179.4 176.9 175.2 172.6 169.6 166.5 162.8 162.2 161.4 161.2 170.3 182.9 197.6 214.2 234.5 246.3 255.1 264.5 273 279.5 284.7 287.1 287.4 285.4 283.5 284.2 283.6 280.2 276.5 273.4 271.8 270.6 260.2 259.7 280.1 297 307.8 316.6 322.5 328.1 332.7 336.7 339.7 340.9 343.8 347.3 349 348.6 346.7 343.1 339.9 337.4 335.1 331.8 326.3 319
626.2 614.5 603.6 593.3 583.7 572.1 557.9 540.4 526.2 515.6 502.8 488.2 471.9 459.5 452.3 439 428.1 418.7 409.8 398.8 391 386.5 380.5 363 377.9 395.8 411.7 429.9 448.1 458.9 459.2 452.6 443.6 431.2 420 410.5 400.4 391.7 386.8 381.9 374.9 367.3 358.9 351 342.9 334.9 328.9 323 317.7 312.2 306.5 301.8 299.1 296.7 294.1 292.1 290.8 289.3 287.3 286.5 285.5 283.6 281.7 280.2 278.5 277.8 276.9 275.8 274.8 274.3 274.3 274.7 275.2 275.5 275.4 275.2 274.5 273.1 271.7 268.7 266.3 264.9 261.6 259.1 257.5 254.1 251.8 251.1 248.3 245.9 243.6 242.4 239.1 235.4 232.3 227.5 223.4 221.8 220.7 219.8 218.1 217 214.2 207.9 205.7 201.3 197.2 191.7 193.2 191.1 190.7 190.3 190.5 187.1 186 184.9 183.8 182.4 181.6 181.4 182.3 181.1 180.4 179.6 178.7 178 177.1 176.1 175.9 175.8 175.3 174.9 174.2 173.6 174.6 175.9 178.8 181.6 183 181.2 179.8 174.5 176 178.1 176.4 173.8 172.7 170.8 168.6 165.9 162.6 162.2 161.3 161.6 167.1 177 191.2 206.4 222.4 238.6 249.5 259 267.1 272.4 276.8 280.4 280.6 279.1 277.9 278.5 277.6 273.9 270.4 267.1 265.4 264.5 253 256.5 275.1 292 302.7 311.2 317.8 323.3 328.5 332.5 335.6 337.6 340 343.9 345.8 344.3 341.5 338.7 336.4 335 331.1 327.2 321.1 313.8
627.2 615.9 605.7 597.1 588.8 577.3 567.2 553.1 539.6 523.4 506.7 486.8 467.8 455.5 446.5 433.7 422 410.9 402.5 394.5 387.4 383.4 380.1 367.1 366.1 387 405.4 424.1 440 451.5 452 446.5 436.1 423.2 412 402.5 392.5 384.4 379.5 376.3 368.6 362.5 353.7 344.8 336.9 328.7 321.4 316.6 312.1 307.5 302.9 299.7 296.7 294.8 292.5 290.3 289 287.6 285.6 284.2 283.7 282.3 280.4 278.9 277.8 277.1 276.4 275.7 274.7 274.3 274 274.4 275.2 275.5 275.8 276.1 275 272.9 270.2 267.3 265.1 263.1 260 257 254.5 251.5 250.3 249.2 246.4 243.5 240.2 239.5 236 232.7 229.1 224.3 220.3 216.7 214.6 217.4 218.2 217.4 216.8 215.7 212.3 204.1 198.9 193.5 191.5 190.3 189.2 188.8 188.4 186.8 185.6 184 185.6 183.5 182.3 181.1 178.9 179.4 178.1 177.8 177.7 177.9 176.1 176 175.1 175 174.7 174 173.4 173.2 172.7 172.6 173.6 176.8 181 180.4 179.1 173 176 174.5 173.2 171 170.2 169.6 167.7 165.7 162.8 162.4 162.4 161 164.4 170.7 184 196.2 210.1 226.4 241.6 251 258.6 263.8 268.3 273.2 274.5 273 271.4 271.7 271.5 267.5 263.5 260 257 256.5 248.9 251.2 270.4 286.4 297.3 306.1 312.8 318.6 324.1 328.3 331.2 333.6 336.4 340.2 341.7 340.9 337.6 335.3 333.7 332.1 327.4 322.4 316.3 308.3
625.4 614.2 605 597.3 588.6 580.8 573.5 563.6 547.1 527 510.1 488.3 467.4 451.4 439.6 426.7 414.4 403.2 393.9 388 382.3 379.3 377.1 371.8 355.9 380.4 399.1 416.5 431.1 439.4 441.2 437.8 429.4 416.3 405.5 394.8 385.1 376.8 371.9 369.2 363.5 356.3 347.9 338.4 331.3 323.4 315.8 309.3 306.4 302.3 299.9 297.2 294.5 292.1 290.2 288.2 286.7 285.3 283.2 281.8 281.1 280.8 279.1 278 277.2 276.5 275.8 275.1 274.4 274.1 273.8 274 274.5 275.2 275.4 276.1 275.4 272.2 268.4 266.1 263 260.5 257.3 252.7 248.1 247.1 247.8 247.5 245 241.2 238.1 234.9 230.7 227.9 224.9 221.5 216.5 220.4 216.8 212.8 209.7 207.7 208.8 213.2 210.6 208.8 206.3 195.7 191.9 190.4 189.8 187.3 186.9 185.1 190.1 191.5 191.4 191.1 190.7 189.9 188.5 188.2 184.2 179.4 178.3 176.7 175.9 174.8 174.1 173.9 174 172.5 173.2 172.8 172 171.4 171.4 173 174.1 177.6 176.9 172.6 175 172 170.2 168.7 168.6 167.1 165.9 163.7 162.6 162.8 162.5 161.2 160.7 165.1 172.6 182.7 196.6 213.6 228.8 241.5 250.1 256.5 261.9 266.7 268.5 267.5 266.5 267 265.5 261.8 257.5 251.5 247.2 242.5 233.7 245.5 265.2 281.9 291.9 300.5 307.9 313.9 319.8 324.4 327.2 329 331.8 335 336.3 336.5 334.5 332.2 330.4 327.3 322.3 316.5 309.9 301.7
619.5 610.8 601.7 595 585.4 579.9 574.1 565.3 547 527 508.3 487.5 467.7 450.2 435.2 420.6 407.9 395.7 387.7 381.4 376.8 373.8 372.2 370.9 353.4 375.1 392.6 408.6 421.3 426.7 429.3 427.2 421.9 411.3 399.6 389.1 379 370.1 364.9 361.7 356.1 349 340.9 333.1 325.1 316.8 311.3 304.5 299.4 298.1 296 294.1 292.3 290 287.9 285.8 284.2 282.8 281.2 280.2 278.7 278.4 278.1 277.2 276.3 275.8 275.1 274.4 273.6 273.2 273.2 273.3 273.5 273.4 273.5 273.9 273.1 270.2 267.6 265.3 261.5 258.4 254 249.5 242.9 241.6 242.8 245.4 238.9 235.4 232.8 228.9 225.5 223.7 220.3 225.7 224 223.4 223.1 220.5 216.4 215.6 210.1 204.1 206.2 210.1 200.3 195.6 191.3 190.7 192.1 194.9 199.2 202.3 203.3 203.6 204.3 203.8 202.9 201.4 199.6 197.8 195.1 192.4 190.3 183.9 184 179.2 175.6 175 173.7 173 171.6 170.9 170.5 169.7 170.3 170.5 169.4 168.4 171.4 170.9 170 169.3 167.6 166.9 165.7 164.9 163.4 162.2 162.4 162.2 162 161.7 160.3 159.3 164.9 169.7 182.2 198.8 213.6 227.2 240.2 248.1 255.8 261 262.1 260.7 260 261.1 259.3 256.3 252.5 244.4 238.4 228.5 234 250.4 265 278.4 286.7 295.2 303.6 309.8 315.7 320.5 323.3 324.6 326.5 329.9 331.5 332.5 331.1 329.1 325.6 321 315.4 309.9 303.9 294.6
614.8 606.7 598.5 589.6 580.5 574.5 570.2 558.4 542.3 525 505 483 463.6 446.1 430.7 417 402.6 390.9 382.3 375.8 371.6 369.2 368.1 361.1 350.5 371 386.1 399.8 410.4 415.4 418.5 418.2 414.2 404.5 394.1 384.8 374 364.4 359.9 356.4 351.1 343.2 334.9 326.2 318.7 311.8 306.3 300.8 296.3 294.1 292.4 290.8 289.2 287.5 285.5 283.5 281.9 280.2 279.4 278.6 276.9 276.8 276.1 276.1 275.5 275.1 274.4 273.7 272.9 272.2 272.4 272.5 272.2 271.2 270.7 271.1 270 267.9 265.5 262.1 258.5 255.5 252.7 247.4 243.7 247.5 242.6 237.1 236.6 237.3 235.4 235.9 233.9 232.5 230.7 230.1 230 227.3 226.9 222.8 220.1 218 215.9 212 199.6 200.9 199.7 195.3 200.2 203.1 206 208.5 211.1 212.9 213.1 213.1 213.2 212.4 211.1 209.2 206.9 204.1 201.2 197.6 194.7 191.3 187.9 183.5 179.1 177 174.7 173.8 173.3 172.5 171 169.9 169 170.3 168.5 166.8 167.1 167.4 166.5 166.3 166.2 165.2 163.4 162.9 162.4 162.5 160.8 160.9 161.2 161.4 161.5 159.5 159.9 164.6 168.1 183.2 198.4 212.4 227.4 239.4 247.4 253.1 255.5 254.3 253.5 254.3 253.5 251 246.5 236.9 226.1 224.1 241.2 251.9 262.6 273.7 282.3 290.7 298.5 305.1 311.3 316.1 318.6 320.4 322.8 325.2 326.7 328.2 326.8 324.5 320.2 314.9 309.4 302.9 296 287
609.9 599.9 592.5 581.3 571.5 565.2 561.7 551.8 537.8 522.3 502.1 480 460.6 441.3 426.3 411.6 398.7 387.1 377.6 371 366.9 364.6 364.2 352.9 350.1 363.2 378.4 391.2 398.9 404.7 408 407.7 404.7 398 389.7 380 369.4 361.3 357.1 352.6 345.7 338 328.5 320.4 313.1 307 301.8 297.4 293.6 290.6 289.4 287.8 286.2 284.6 282.9 281.5 279.9 276.2 274.4 273.8 272.8 274.1 273.7 273.1 272.9 271.8 272.5 272 271.7 271.3 270.2 270.5 270.2 269.2 268.2 267.3 265.9 263.7 261.8 258.5 256.1 252.3 247.9 245.3 249 249.4 247.7 244.1 243.9 241.9 241 240.2 239.9 238.9 237.8 235.1 232.7 229.8 228.8 224.2 221.7 219.9 216.1 213.7 209.8 204.2 197.7 204.4 210.7 213.7 216.6 218.6 219.6 220.5 220.5 220.5 220.5 219.9 218.2 216.3 213.7 210.3 207.3 203.9 200.2 196.1 192.5 188.1 184.9 181.5 178.4 176.3 174 172 171.2 170.9 170.4 168.6 169.3 168.3 166.7 166.3 165.7 165.3 165.3 165 163.4 163.7 164 164.4 163 162 160.6 162.3 161.6 159.9 160.8 159.3 163.5 168.4 183.4 198.5 213.5 227.5 237.1 242 246.6 247 247.3 247.4 247.5 245.1 239 229.5 220 222.1 239.7 249.3 258.2 268.1 277.4 286 293.8 300.6 306.8 311.5 314.5 317 319.3 321 322.1 322.8 322.1 318.9 313.9 308.4 301.3 294.2 287 278.2
600.8 590 581.4 570.2 560.2 555 551.8 542.3 529.3 516.5 500.2 482.2 460.9 440.2 421.8 406.8 395 383.4 373.3 366.8 362.3 361.1 360.4 355.5 343.2 357.5 370.8 383.3 390.1 394.9 398.3 397.5 395.9 391.6 384.5 376.1 366.9 359.2 354.8 348.6 341.1 331.7 322.5 315.1 307.9 302.5 297.7 293.3 290.1 287.9 286.6 285.3 283.3 282.3 281.3 279.8 277.9 274.3 275.3 274.1 272.9 269.2 267.9 266.4 266.2 267.4 268.8 269.9 269.4 268.8 268.5 268.9 267.6 266.3 264.4 262.6 261.2 254.2 251.2 251.8 249.6 248.8 252.1 251 251.5 251 249.3 248.4 247.7 246.6 247.7 246.7 244.7 242.5 240.9 239 235.9 233.4 229.3 225.4 222.9 219.4 215 211.6 209 204.5 206.9 214.7 221.1 223.5 225.2 225.8 226.4 226.8 226.4 226.7 227 226.2 224.8 221.8 219.5 216.1 213.1 210.1 206 201.6 197.2 193.6 190.1 185.9 182.1 179.4 176.9 174 171.5 170.7 170.3 168.9 168.6 168.6 167.4 166.8 165.7 164.6 165.2 164.8 163 163.3 165.6 166.4 165.9 161.9 160.4 160.1 159.1 160.1 158 158.1 159.2 163 168.2 184.1 200.5 213.9 222.3 229.6 235.4 238.5 239.9 240.4 239.8 238.4 232 221 209 226.1 236.4 243.4 252.3 262.4 272.2 280.8 288.7 295.8 302.1 306.8 310.3 313.1 315.4 315.6 316.4 317.6 317.1 312.6 307.4 301.6 293.6 285.7 277.7 268.3
588.3 578.7 569.5 560.8 551.1 544.8 541.6 533.7 522.1 509.6 497 480.4 459.5 440.2 422.7 406.4 393.5 381.4 371.3 363.4 358.4 357.2 356.2 353.7 341.2 351.3 365.1 376.4 383.1 386.9 390.3 389.4 387.1 383.6 377 370.1 363.4 357.5 352.5 345.5 337.6 327.6 318.7 310.8 303.4 297.7 293.4 290.2 288.1 286.1 284.2 282.7 281 279.7 278.7 277.7 275.1 274.3 278.8 277 275.4 273.5 271.2 271.3 267.3 264.7 266.1 267.3 266.6 265.9 264.7 264 260.5 258.8 256.7 255.3 255.2 251.1 251.2 251.7 252.9 254.4 254.7 254 254 253.3 252.2 251.5 251.3 252.9 253.9 251.7 249.4 246.8 243.5 240.5 237.9 234.3 230.1 225.9 221.7 219 215.8 212.4 208.6 205.6 211.8 221.1 227.7 231.8 232.1 231.7 231.5 231.5 231.4 231.7 232.2 232.2 230.1 228.3 225.8 222.6 219.4 216.1 211.6 207 202.4 198.5 194.8 190.4 186.1 183 179.9 176.7 173.1 170.8 169.9 169.1 168.8 168.4 167.8 167.2 166.7 165.4 163.6 164.6 164.7 165 166.4 167.5 168.3 165.5 161.8 160.1 159.4 161.2 160 158.8 159.8 160.4 163.4 168.5 184.3 199.1 209.5 216.7 223.4 227.9 229.6 231.3 231 229.1 225.1 208.2 207.3 227.1 231.2 236.9 246.2 256.4 266.1 273.2 281.9 289.8 296.3 301.9 305.5 308.2 310.2 310.2 311 312.4 310.8 306.2 300.8 293.9 285.1 275.6 267.3 258
574 564.3 557.4 550.8 541.1 535.2 533.2 525.7 516.2 504.7 490.6 474.6 456.5 439.5 422.8 406.9 394 382 370.8 362.9 358.3 354.9 351.8 350.4 338.7 350.5 359.2 368 375.5 379.3 382.5 381.4 378.6 374.3 369.6 364.2 358.1 354.3 349.5 343.5 333.8 324.3 315.1 307 300.5 294 290.4 288.3 286.9 285.5 284.1 282.9 281.2 278.9 277.5 275.8 275.7 276.3 276.9 276.7 274.5 273.9 273.3 272 269.7 266.3 263.5 263.8 262.4 261.6 259.9 259.3 256.8 255.1 253.6 252.6 251.7 254.4 256.2 257.1 258.4 259.5 259.7 258.9 258.8 257.4 256.1 256.1 257 258.4 258.1 255.5 252.8 249.6 245.5 241.6 238.5 232.7 228.4 225.1 222.2 220 216.8 213.4 210.9 207.3 214.7 224.5 232.2 238 238 236.5 235.8 236.1 236.6 237.2 237.8 237.5 236.7 234.9 232.4 228.8 225.4 222.1 218 212.8 207.5 203.3 199.2 194.9 191.3 188.2 185.1 181.6 178.2 174.1 170.7 169.3 168.9 168.3 167.7 167.4 166.7 164.7 164.4 165.6 167.2 167.8 170 170.2 169.9 168.5 166.9 164 165 164.1 162.6 161.9 157 157.1 158.2 155.9 168.8 179.6 193.5 201.9 208.8 214.4 217.3 219.4 220.1 216.5 211.2 195.5 207.3 221.9 226 229.4 238.4 247.5 256.7 263.8 268.7 280.8 290.1 296.1 299.3 300.3 299.8 301.6 305.4 304.8 299.9 294.8 288.8 282.7 273.8 264.7 255.9 247.4
558.4 551.2 547.6 539.7 528.9 525.2 522.2 517.2 510.9 501.9 487.3 472.6 455.6 440.2 426.8 408 392.6 380.2 370.8 362.1 358.6 355.3 350.3 345 332.4 348.3 354.6 360.6 366.3 372.5 376.7 375.8 371.9 367.2 362 357.5 353.2 350.7 346.4 339.8 330.1 320.6 311.1 302 296.1 291.5 288.7 287 286 285.4 284.2 282.9 281.6 278.7 277.2 277.5 277.5 277 276.2 276 274.7 273.4 272 269.7 267.4 263.9 261.1 261.1 260.4 259 258.1 257.5 255.2 254.3 254.4 255.4 257.7 260.7 263.5 264.5 265.1 265.4 265.3 264.4 263.5 261.3 260.3 261.4 262 261.8 259.6 257.4 254.5 250.1 246.9 242.2 238.2 233.3 230.2 226.7 223.6 220.1 217.8 214.6 213.9 209.5 216.9 226.3 235.4 241.3 242.4 241.3 240.9 241.9 242.2 242.8 243.4 243.5 242.2 240.3 237.9 234.7 231.4 227.9 224.3 219.4 214.5 210.6 206.5 202 197.9 194.7 191.4 187.8 184.2 181 178.4 175.8 174.6 173.7 173.4 173.1 173.1 171 170.7 171.5 172.4 174.3 174 172.4 174.7 174.9 175.7 176.5 176.2 174.4 171.5 166.5 163.1 160.7 159.5 158 158.3 162.3 170.8 180.8 190.8 198.7 203.4 207.2 208 205.5 200.5 187 195.5 214.1 216.5 219.2 226 234.2 243.3 251.1 260.9 268.9 276.8 284.9 288.8 289.2 289.4 293 292.4 289.7 283.9 275.9 270.3 266.1 261 253.9 245.1 238.1
546.9 540.3 535.6 526.9 518.7 515.8 512.6 511.4 508.1 497.5 484.8 473.4 458.5 437.9 421.5 406.3 390.8 377.7 368.1 361.5 357 353.3 348.1 338.3 336 346.6 349 353.6 359 366.3 370.5 368.3 364.7 361.1 356.3 352.4 349.1 346.7 342 335.4 326.3 317.1 307.8 299.6 294.2 290 287.4 285.9 285 284 282.9 282.1 281.1 279.1 279.4 278.4 277.9 277.2 276.3 275.1 273.8 272.1 270.1 268.1 265.5 263.3 261.2 259.1 258.3 256.8 256.2 255.4 255.1 255.9 257.3 262.6 266.3 268.9 270 270.7 271.3 270.9 270.3 269.1 267.5 265.3 264.6 265.5 265.4 263.2 260.3 257.3 254.7 250.3 245.3 241.9 238.1 233.2 230.5 226.8 223.8 221.1 218.9 215 211.3 212.2 217.5 226.3 235.1 241.5 243.8 244.9 246 247.6 247.9 248.5 248.8 248.8 248.2 245.9 243.6 240.6 237.8 234.8 230.9 226 222.6 218.3 213.8 209.3 205.4 202.5 199.2 195.7 191.9 188.4 186.2 183.6 181.8 180.7 180 180.1 180.5 178.9 181.4 183.9 183.4 182 178.9 175.7 180.6 182.2 185.6 188.5 188 186.8 184.4 178.9 172.9 166.9 159.2 158.3 156.8 155.7 160.7 162.6 170.3 177.6 184.5 191.2 194.1 194.7 193 188.1 187.3 203.9 206.1 202.9 201.1 209.4 223.9 236.7 246.8 258.3 264.2 260.5 261.7 269.4 278 280.8 279.7 274.5 268.1 261 254.6 250.9 248 244.4 238.6 230.7
531.1 526.3 521.8 514.5 509.6 508.5 504.6 503.4 503.7 493.8 483.5 471.9 456.7 438.1 420.1 403.7 388.1 376.6 367.6 361.5 355.6 351.5 347.2 335.9 332.7 342.1 342.8 345.6 350.4 356.4 359.2 358.5 357.1 354.7 352.1 348.6 344.8 341.7 337.1 329.5 322 313.9 306 297.7 292.7 289.2 287.5 286.3 285 283.9 283.1 283 281.8 280.8 280.6 279.3 278.2 277.1 276 274.9 273.2 271.3 269 266.9 264.9 262.7 261.2 258.9 258.5 258.6 258.2 258.4 259.1 263.1 268.3 271.1 273.1 274.5 275.6 276.1 275.8 275.2 273.9 271.7 270.2 268.2 268.5 268.8 266.6 264 260.6 257.2 254.4 249.5 245.7 242.2 238.3 234 231.2 228 225.1 220.1 217.2 214.5 212.7 213.9 217.7 224.5 232.6 238.7 242.6 247.4 250.5 253.1 253.6 253.6 253.7 253.8 252.7 251.1 249.2 246.8 244.2 240.4 237.5 233.9 230 226.2 222.4 218.4 215.4 212.6 209.2 205.7 202.2 199.1 196.3 194 191.8 190.2 188.1 187.5 187.9 189.2 191.5 192.2 189.7 187 181.2 180.9 186.8 191.3 195.4 198.6 198.9 197.9 195.4 191 185.2 180.2 173.4 161.5 157.4 156.8 155.6 156.7 155.7 156.4 165.3 173.8 178.3 183.2 185.1 183.7 177 190.2 192.8 180.8 183.1 186.8 205.3 215.1 226.7 239.9 248.7 249 249.5 256.6 261.3 263.5 266 263.4 257.5 250.4 245.7 243.2 237.4 229.1 224.5 222.4
520.6 516.3 509.6 502.4 502.2 499.1 494.8 496 497.2 491.7 483.3 470.9 455.3 436.8 419.3 403.3 389.1 376.9 368.8 362.4 357.3 351.9 346.5 339.2 325 332.8 332.8 338.3 341.6 346.4 349.6 348.9 349.2 348.2 346.4 343.3 340 336.6 331.5 324.3 317.2 310.4 303.4 296.4 291.4 290.3 289.4 288.1 286.8 285.4 284.2 283.5 283.2 282.1 280.9 279.8 278.1 276.8 275.7 274.6 272.6 270.6 268.1 265.9 264.3 262.2 260.3 263.3 262 263.8 264.6 266.2 268.8 271.5 274 276.7 278.3 279.4 280 279.8 279.4 277.9 275.9 273.8 272.1 271.4 271.3 270.2 267.6 264.1 260.4 256.3 253.3 250.6 247.6 243 238.9 235.5 232.2 228.6 224.7 220.5 216.6 214.5 214.5 213.8 215.5 221.5 229 236.3 242.4 249.7 253.9 256.9 258 258.3 258.8 258.7 257.9 256.8 255.1 252.6 250.5 248 245.1 242.5 239.7 237.1 233.7 229.7 226.5 223.3 220.3 217 214 211.9 209.8 207.7 205.2 202 199.4 196.9 197.3 199.9 201.1 199.3 195.6 192 183.7 190.2 197 201.3 205.2 207.6 209.1 208.3 205.8 202.9 198.5 193.4 188.3 181.7 171.8 158.6 156.7 155.3 154.6 153.1 152.5 155.4 161.3 167.5 171.6 171.6 168.5 176 180.2 179.7 185.2 174.1 189 194.3 204.2 216.2 227.7 236.8 244.8 247.6 247.4 245.7 247.2 248.8 248.1 245.2 242.7 241 242.8 245.7 246 248.1
512.3 507.4 499.1 493.8 494.4 488.3 486.3 489 490.6 488.7 480.8 470.2 454.9 436.4 419.3 404.4 391.6 380.5 371 365.1 359 353.5 348.3 343.8 339.5 328.2 319.3 325.1 333.7 336.2 339.8 340.7 341.5 340.9 339.6 337.3 334.3 330.6 325.8 320.1 313.1 307 300 295 292.5 290.7 289.4 288.9 287.6 286.3 285 283.6 282.9 281.6 280.2 279 277.3 275.6 274.7 273 270.9 268.8 266.8 264.4 262.9 261.8 263.3 265.3 268.7 269.7 270.4 271.3 273.8 276.3 278.4 280.9 282.3 282.7 283.1 282.7 281.6 279.6 277.6 275.6 274 273.1 272.7 269.7 266.4 262.7 259.5 256.2 253.5 251.5 247.3 243.6 239.9 235.7 231.9 227.5 222.1 220.1 216.6 214.5 213.6 213.1 214.8 218 225.3 233.2 240.8 249.1 255.8 259.3 262.4 263.6 263.9 264.1 263.5 262.8 261.3 259.7 258.8 256.6 254.5 252.4 250 248 245.4 242.9 240.3 237.7 235.5 233.3 230.5 228.3 225.3 222.6 219.5 216.4 213.3 210.9 209.1 208.9 208.4 205.2 200.9 190.3 191.2 203.5 208.3 211 214.6 217.3 218.9 218.9 216.5 213.3 209.2 204.6 202.2 197.3 190.7 180.6 171.7 167.7 165.2 163 157.8 153.8 151.6 154.7 158.2 161.1 161.2 162.1 164.3 164.1 168.5 164.7 175.1 180.8 185.7 193.2 203.1 219.6 240.1 255.3 262.5 263.2 260 256.9 253.3 254.5 257.2 257.8 261.2 260.8 253.9 245
507.7 502.4 491.6 485.4 482.4 478 478.6 482.1 485.1 484.4 479.7 469.6 455.3 438.4 421.6 406.6 395.4 383.6 374.8 367.5 360.9 355.7 351.1 346.5 342.1 336.8 326 309.6 322.5 326.6 330.3 332.6 333 333 332.2 330.4 328.6 325.4 319.8 314.5 309.6 303.8 298.2 293.9 291.9 290.5 289.4 289 288.4 287.1 285.7 284.3 282.9 281.3 280 278.7 277 275.3 272.8 270.9 267.6 266 263.8 265.2 264.8 265.1 266.6 270.8 270.9 271.3 273.5 275.5 277.6 280.4 282.8 284.9 285.4 285.7 285.1 284.1 282.6 280.9 279 277.1 275.3 273.7 271 268 265.2 262.6 259.5 256.9 253.8 251.2 247.5 243.7 239.9 235.3 231.1 226.3 222.5 219.1 215.2 213.9 212.9 212.2 213.5 216.2 221.9 228.7 236 245.8 255 261 265.6 267.9 268.6 269.3 269.1 268.3 267.9 267 266 265.6 264.5 263.4 262.6 261.7 260.4 259 257.2 254.5 252.8 249 245.4 241 237.2 234.4 231.6 228.2 225.1 221.8 218.8 216.2 212.8 209.3 204.6 193.2 205.5 213.7 218.2 220.9 223.9 226.5 227.6 226 225 221.4 217 213.8 210.2 206.9 202.6 195.7 187 177.5 170.7 166.4 163.2 159 154.1 152.1 152.9 155.9 156.2 154.8 153.8 150.6 147.7 162 166.9 172 178.6 182.5 192.9 206.9 230.8 253.7 266.1 267.8 267.2 265.1 266.2 268.7 270.3 265.9 253.3 259.1 248.9 240.1
499.2 494.8 484.1 475.4 469.9 468.9 471 475.7 480.3 482.2 478.1 468.5 456.9 442 426.7 411.9 398 387.1 378 370.9 365.2 359.2 353.9 348.6 343.2 338.3 331.8 321.2 307.3 316.8 320.8 323.6 325 325.3 324.9 324.3 322.7 319.5 315.2 310.8 306.1 300.7 296.6 292.8 291.8 290.3 289.3 289 288.7 287.6 286.3 285.1 283.7 282.4 281.2 279 277.1 274.9 272.5 270.6 267.7 267.9 266 268.7 269.7 269.9 272.5 274 274.2 275.5 277.4 279.6 281.7 284.3 286.1 287.7 288.3 287.6 286.4 285 283.5 282 280.1 278 275.7 273.2 270.5 267.6 265 262.3 259.6 256.6 253.5 250.6 246.7 243.1 239.1 234.5 230.2 226.1 221.9 217.4 214.5 213.3 212.2 211.4 212.5 214.2 217.8 223.3 231.5 241.1 251.3 260.9 267.5 271.4 273.8 274.7 275.1 274.9 274.6 275.1 275.7 276.4 277.1 276.7 276.7 276.7 276 274.9 272.1 268.6 264.8 261.2 256.6 252.1 248.1 245.1 241.6 237.8 233.3 228.8 225.5 221.7 217.3 213.1 206.5 198.2 215.4 221.7 227.2 229.9 232.3 232.4 231.8 230.5 228.7 226.5 224.3 221.9 219.1 215.7 211.2 205.7 198.8 188.6 180 171.2 165.9 161.1 158.9 153.9 152.4 151.3 152.3 151.8 150.2 148.9 148.8 151.5 160.1 162.9 170.2 174.8 182.3 192.2 216.6 243.1 262.6 266.4 267.2 275.4 275.7 274.2 271.8 267.7 239.9 231.8 239.3 229.4
487.7 482.2 474.1 467.2 461.9 460.2 463 468.9 474.8 476 472.4 466.1 457.1 443.8 430.2 416.8 403.1 391.8 382.4 374.4 368.3 361.9 355.7 349.4 343.4 336.3 330.2 324.6 317 301.3 313.9 316 318.1 318.5 318 317.5 316.6 314.4 311.1 307.8 303.6 298.4 294.7 292 291.4 290.3 289.1 288.5 287.8 287.5 286.7 285.5 284.5 283.7 281.9 279.6 277.2 275.3 273.4 271.5 270.1 269.3 267.4 269.9 272 275.4 277.1 277.9 278.6 279.4 281.4 283.7 285.8 287.3 288.9 289.5 289.4 288.2 286.6 285.2 283.8 282.5 280.6 277.8 275.7 273.3 270.5 268.3 264.9 262.1 259.1 256.7 252.4 249.5 245.1 241.9 237.6 233.5 228 224.1 220.6 216.9 214.4 212.6 211.5 210.9 210.6 211.7 214.3 219.4 225.9 236.1 247.1 258.3 267.1 273 278.7 281.1 281.6 281.8 282 283.9 285.5 287.2 288.9 289.9 290.7 290.7 289.6 287.9 284.8 280.3 275.1 270.3 265.6 261.3 257.3 252 247.6 243.2 238.9 234.8 231 226.6 221.7 217 206.4 211.9 222.7 229.4 234.4 236.2 236.2 235.5 234.6 234.6 234.4 233.5 232 228.9 225.1 220.5 215.5 209.7 202.9 194.4 185 174.9 166.2 168.5 166.1 162.9 155.2 150 149.7 148.8 148.6 149.7 148.9 147.9 149.1 158.6 163.9 170.3 178.1 184.9 204.6 232.2 253.2 258.6 261.2 269.2 270.2 267.2 262.2 254.2 243.4 212 213.9 214.2
476.1 469.7 463.1 458.3 455.6 454.4 458 461.8 467 469.2 467.4 464.2 458.1 446.4 435.7 424.7 410.8 398.5 387.3 378.7 371.8 365.7 356.6 349.4 341.3 332.8 326.4 321.2 316.7 299.5 305.5 309.1 310.9 312.3 312 311.4 310.7 308.7 306.2 303.5 299.6 295.2 292.5 290.7 290 289.8 288.9 288.2 287.4 286.9 286.3 285.4 284.6 283.8 282.5 280.3 278.1 276.4 274.7 272.8 271.7 270.8 270.6 272 273.8 276.7 280.5 281.1 282.8 284.5 286.3 287.6 288.9 290 290.6 290.4 289.7 288.3 286.9 285.4 284.1 282 279.9 277.2 275 272.6 269.7 266.7 262.3 260.8 258.3 255.2 251.1 247.8 243.7 239.8 235.6 230.5 227 223.6 220.1 216.9 214.3 212.3 210.8 210.5 210.1 210.5 212.9 216 222 231 241.6 251.9 261.8 273 282.7 286.9 288.3 289.2 290.8 293 296 298.2 300.4 301.7 302.2 302.8 301.4 298.3 293.5 288.4 283.1 277 272 267.3 261.9 256.6 252.1 247.9 243.6 239.5 235.6 231.5 226.6 221.1 203.6 217.3 228.7 237.2 240 240 239 238.4 240.1 242.2 241.9 241.2 238.1 234 230 225.5 221.1 214.6 204 194.2 184.9 177.3 182.4 182.9 181.7 178.6 173.5 170.4 166.6 163.8 160.1 156.7 153.7 146.4 147.6 155.5 159.9 166.1 172.5 180.2 195.9 222.6 242.9 248.4 247 246.7 245.8 238.6 232 227.1 220.9 211.3 195.4 186.5
464.1 459.3 454 451 449.1 449.9 453.9 456.9 462.1 465.3 466.2 466.2 463.4 456.9 446.6 436.3 421.7 407.2 393 382.2 374.5 366.6 356.9 347.1 338.2 329.8 322.8 316.7 312.2 306.2 292 302 304.4 305.9 305.6 305.6 305.6 303.7 301.4 298.7 295.5 292.1 289.6 288.6 288.7 288.6 288.3 287.7 287.1 286.3 285.1 284.1 283.5 283.3 282.5 281 279.3 278 276.6 274.5 272.7 272.1 272 272.5 274.9 278.6 282.5 284.9 286.8 288.5 289.8 290.7 291.5 292 292.3 291.1 289.7 288.4 287 285.4 282.6 281 278.8 277 274.9 272.5 269.7 265.9 261.7 259.5 256.8 253.8 250 245.7 241.9 238.4 234.3 229.6 226.4 223 219.7 216.6 214.6 211.9 210.3 209.9 209.5 209.5 210.8 214.2 220.1 229.7 239.6 248.4 258.5 273.9 286 293.9 297.2 298.8 301 304 307.2 309.8 312 313.3 313.2 312.6 309.6 305 299.5 293.6 287.7 281.6 275.9 271 265.8 260.5 256.2 252.2 248.1 243.7 239.8 235.2 230.4 223.9 209.5 223.8 237.5 243.2 244.6 244.4 245.1 247.1 249.4 249.9 248.7 246.4 243.2 240.4 236.6 231.3 224.7 215.3 205.5 196.5 183.1 195.9 201.4 203.6 202.8 199.6 195.7 192.4 188.4 185.6 182.6 179.4 172.1 162.7 146.8 146.6 152.7 161.2 166.8 173.6 188.7 212.1 229 233.8 231.9 225.9 217.9 204.2 196.1 191.8 186.7 180.6 174 162.3
453.2 450.1 446.2 444.1 443.6 446.2 448.8 452.2 456.9 462.4 468.2 471.5 471.8 468 461.9 448.7 432.6 414 399 386.2 375.7 366.3 356.7 346.6 336.4 327.3 320.1 314.1 308.5 304.6 298.5 290.7 297.9 299.5 299.1 300.5 300.9 299.4 297.1 294.7 291.6 289 286.8 286.8 286.7 286.9 286.7 285.9 285.5 284.4 283.1 282.4 282.7 282.7 282.5 281.8 280.6 278.8 277 275 273.6 273.1 273.1 273.9 276.4 280.6 284.3 287 289.3 291 291.9 292.6 293.2 293.5 293.4 291.7 290.1 288.7 287.9 285.7 282.9 280 278.4 277.3 274.3 270.7 268.7 265.3 260.9 258.2 255.7 252.4 247.9 243.9 240.6 237 233.3 229.3 225.8 222.5 219.6 216.9 214.1 212.5 209.1 209.2 209 209 209.3 213 218.6 228.6 239.9 250.7 263.6 279.2 293.4 303.3 307 310.4 313.3 316.3 318.7 321.2 322.8 322.7 321.4 318.2 313.9 308.8 303 297.1 291.2 284.7 279.5 274.6 269.3 264.6 261 256.8 252.2 247.7 244 239 233.9 218.4 222.1 236.3 244.5 248.1 251 253.5 255.3 257.2 257.7 256.7 255.1 253.6 251.1 247.4 242.2 236.4 229.4 217.5 207.6 194.3 200.9 214.9 222.2 224.8 223.4 221.5 219.1 216.8 214.3 210.8 206.5 198.4 187.6 176.1 161.9 145.7 147.4 152.2 157.8 165.2 177.3 195.8 209.1 215.6 215.6 209.8 190.8 169.6 163.8 161.5 160.6 160.6 158.3 155.5
441.8 439.7 436.3 435.3 435.7 439.7 442.7 444.9 449.2 457.5 464.7 471 474.4 476.6 475.1 460.2 441.5 422.6 404.2 389 378.2 367.1 356.4 345.8 335.2 326.2 319.3 312.3 306.3 302 296.6 283.7 291.9 295.1 297.3 297.3 296.4 295.1 292.9 290.6 287.8 284.4 283.8 284.1 284.4 284.5 283.7 283 282.1 281.7 281 281.1 281.5 282 282.2 281.9 280.9 278.5 277.1 275.7 274.2 274 274.1 275.9 278.8 282.4 286.6 289 291 292.2 293.1 293.9 294.7 294.8 294.5 293.2 290.7 289 288 285.8 283.1 280.8 278.7 276.2 274.6 271.4 267.7 263.5 259.2 258.1 251.5 249.7 245.8 242.5 239 235.7 232.1 228.1 225 222.3 219.8 217.2 214.2 212.5 210.1 207 207.3 208 209 211.2 215.8 226.2 239.9 255 270.7 288 303.1 313.2 319.5 323 326.8 328.6 330.4 331.9 331.4 328.8 325.8 321.8 317.5 312.3 306.4 300.6 294.6 288.9 283.5 278.1 273.4 268.9 264.7 260.4 256.1 252 247.7 241.7 227.7 221.5 238 246.9 252.3 256.9 260 262.6 265.4 266.5 266.5 265.7 264 261.8 258 253.8 248.3 241.5 232.9 218.2 208.4 198.9 218.6 230.5 235.4 236 236.2 238.5 239.1 239.1 238.4 233.9 225.3 213.1 199.1 182.8 170.1 154.3 142.9 145.9 147.8 151.7 162.3 175.5 182.1 182.7 185.8 183.1 168.6 161.1 159.3 158.3 154.2 153.4 147.1 138.5
430.8 429.5 427.3 426.4 426.5 428.6 430.9 433.8 439.3 449.1 457.3 463.9 470 475.9 476.7 466.5 450.5 431.5 411.5 393 378.3 367 356.3 345.1 334.8 326.5 318.7 311 304.4 299.2 295 280.4 288.5 291.5 292.5 293 291.8 290.3 288.3 285.7 282.4 280.4 280.1 280.4 280.7 280.7 279.3 278.5 277.4 276.1 276.3 279.7 280.5 281.1 281.7 281.6 280.5 277.7 276.6 275.7 274.9 274.9 276.3 278.9 281.5 285 288.1 290.5 291.9 293.5 294.2 295.1 295.9 295.8 295.7 294.3 292.3 290.5 288.1 285.7 283.6 281.4 278.4 276 273.7 271.2 267.9 264.6 260.6 257.1 253 246.2 240.7 237.7 235.2 232.6 229.7 227.5 225.2 222.9 219.7 217.2 215.4 213 210.2 207 204.6 204.7 208.8 209.3 214.3 224.4 240 256.4 275.3 295.9 312.1 323 330.4 335.8 338.5 340.1 340.8 339.9 336.9 333.9 329.6 325.1 320.3 315.2 309.4 303.6 297.7 292 286.3 280.6 275.9 271.7 267.5 263.2 258.9 254.9 250.6 241.7 220.5 239.7 251.1 257 261.7 265.8 269.2 272.5 274.6 275.7 275.5 274.8 272.8 268.7 263.6 257.7 251.5 244.9 235.2 219.8 208.6 213.3 231.9 240.9 243.4 246 250.1 253.2 256.2 259 257.4 253.1 243.9 230.7 213.2 195.6 176.8 162.9 152.3 143.3 145.7 145.3 145.2 155.9 158.3 156.7 157.4 160.3 159.6 156.4 150.9 140.6 134.8 135.3 134.8 134.5
417.4 418.2 418.6 418.5 417.2 416.3 417.5 421.7 429.3 439.5 446.5 453.2 460.7 467.6 470.4 464.3 453.7 438.8 419.2 398.4 381 367.7 355.5 344.5 334.2 324.6 315 308 301.5 296.4 292.7 281.4 283.7 288 288.1 288 287.1 285.3 283.7 281.2 278.8 277.6 276.5 276.5 276 275.1 273.6 272.5 271.8 269.1 270.5 276.4 279.6 280.6 281.4 281.2 279.7 277.8 276.6 276 275.6 275.7 278.5 281.1 284.1 288.2 291.1 293.8 294.9 295.9 296.1 296.7 297.1 297.2 297.1 296.1 294.3 290.9 288.8 286.1 283.8 280.9 278 275.3 272.8 270.3 266.9 263.5 259.8 255.8 251.8 246.7 243.2 239.3 236.7 234 230.3 227.1 224.7 222 219.1 217.4 215.8 214.2 209.3 206.5 205.1 203.6 205.9 207.4 213.1 223.2 238.7 257.3 279.8 302.4 321.2 331.8 340.3 346.2 348.9 348.8 347.8 345.1 341.6 337 332.3 327.1 321.9 316.6 310.8 304.6 298.7 293.2 287.8 282.5 277.7 273.2 268.6 265.1 261.2 256.6 249.3 234.2 235.7 252.1 260.2 265.9 270.7 273.8 278.4 281.8 283.8 284 283.8 282 278 272.4 265.8 259.3 253.7 246.5 235.7 222.6 208.6 224.9 241.8 248.3 251.5 256.7 258.7 264.4 268.3 268.7 265.8 261.1 253 241.5 226.8 207.3 186.2 168.4 157.1 146.5 141.8 144.9 144.5 143.7 142.9 148.1 149 148 146.7 144.2 137.5 136.1 137.3 136.9 136 134
403.8 405.7 407.5 409 407.2 407 406.9 410.4 417.7 427.6 435 441.7 447.8 455.1 457.8 455.2 448.8 439 422.9 402.9 384.7 370 356.5 345.7 335.3 324.4 313.9 305.7 298.5 293.5 289.6 284.7 273.2 281.4 282.3 282.6 281.6 280.3 278.7 277.1 275 273.9 272.8 270.8 270 269 268 266.9 266.2 265.2 266.9 275.9 279 280.6 281.6 281.2 280 278.3 276.7 276.1 276.3 276.5 279.7 284 287.9 291.6 294.3 296.6 297.8 298.8 298.8 298.9 299.7 300.1 299.2 298.1 295.5 293.1 290 286.5 283.2 280.1 277.2 274.3 271.7 268.7 265.3 261.4 257.6 253.7 250.1 245.6 241.9 238.5 234.9 233 228.8 226.1 223.8 220.9 218.3 217 215.2 212.5 209.6 207.1 206.1 203.9 201.5 205 211.8 222.6 239.9 262.3 286.3 309.2 327.4 339.6 348.2 354.4 356 355.3 353 349 343.9 338.9 333.5 327.9 322.2 316.5 310.9 304.9 299 293.6 288.1 282.3 277.5 273.6 269.6 265.3 260.1 253.9 234.1 243.2 251.9 262 269.3 274.2 278.8 283.5 287.5 290.3 291.2 290.9 289 285.3 280.4 273.3 266.3 260.4 254.9 247.3 236.1 224.3 215.3 237.3 249.7 254.8 259.9 262.7 269 274.1 276.2 275.9 273.2 267.6 260.8 251.2 238.9 221.8 199.7 178.5 162.1 151.3 143.4 141.5 140.7 140.7 141.9 141.5 141 140.4 139.2 139.1 136.6 137.5 136.4 136.5 136.1 136.6
388.3 392.1 394.2 396.6 394.9 395 396.2 401.4 407 413.4 420.3 428.1 434.2 440.4 444.3 443.1 439.4 432.2 420.7 404.3 387.3 373.5 359.5 347.3 334.3 322.8 312.3 303.9 295.9 290.5 286.4 282 272.6 275 277.8 278.2 276.8 275.4 273.9 272.2 270.4 268.7 267.7 265.7 264.6 262.4 260.6 262.5 263.2 263.3 269.7 273.9 278.3 280.7 280.8 280.3 279.4 277.8 276.5 276.2 276.5 277.5 282.4 287.2 291.9 295.2 297.6 299.4 300.3 301.1 301.9 302.4 302.8 302.7 301.8 300.7 298 295 290.7 286.2 282.6 278.5 275.9 272.3 269.9 266.6 263.1 259.3 255.5 252 248.2 243 238.6 235.7 234.6 232.8 229.7 226.7 223.8 220.8 217.4 214.9 212.3 210.8 207.4 208 208.6 202.7 199.9 202.8 210.9 223 244.7 269.5 294.4 316 333.3 344.3 353 358.9 361.1 359.5 355.8 350.3 344.8 339.3 333.4 327.4 321.3 315.6 309.9 304.3 298.4 292.5 286.7 281.2 276.3 272.9 269.2 264 259.4 243.2 248.5 256.5 263.7 271.6 275.8 280.9 286.6 291.9 295.4 297.1 296.9 295.4 291.9 286.4 279.4 272.8 268 262.3 256.3 249.7 237.5 220.4 232.2 248.3 255.1 260.3 264.5 271.1 277.9 281.6 283.1 282.9 282.3 278.5 272.6 264.1 251.6 234.1 214.8 193.6 176.1 165.3 152.6 144.1 142.2 141.7 139.8 142.1 140.4 139.5 139 139.1 139.3 140.6 142.5 146.3 150.1 153.6
375.3 377.9 379 381 380.5 383.1 386 391.7 396.9 401 405.6 412.7 419.5 424.9 428 428.7 427.3 423.1 415.1 402.1 389.1 375.5 361.4 346.6 332.6 320.8 309.9 301.2 293.4 287.1 282.7 278.8 274.1 267.3 274.6 274.2 272.9 270.9 269 267.3 265.6 263.9 262.6 261.3 260.4 259.4 258.2 258.6 259.7 262.6 265.7 271.9 276.2 278.8 279.2 278.8 277.8 276.6 276.3 276.8 278 280.2 285.6 290.6 295 297.9 300.2 302.1 303.5 304.3 305.6 306.7 307.4 307.1 306 304.5 301.7 297.9 292.9 287.7 282.6 278.4 273.8 270.2 267.3 264.3 260.8 256.5 253.5 248.8 244.5 244.1 240.2 238 235.9 233.3 230.5 227.5 224.5 221.3 217.8 214 209.2 206.8 204.9 204.3 201.1 198.7 199.1 202.8 211 225.7 250.9 276.8 300.8 320.5 336.9 347.4 355 360.8 363.4 359.5 355.1 349.9 344.3 338.6 332.9 327 320.8 314.9 309.1 303.3 297.4 291.1 285.5 280.1 275.5 271.8 267.7 262.3 246.8 254.6 261.8 267 272.7 276.9 281.4 287.9 293.5 298.2 301.2 302 300.3 296.7 290.4 284.7 280 276.4 271.1 265 259.3 254.2 244.7 224 243.1 254 261 265.5 271.3 280.1 284.9 288.4 289.8 290.8 290.5 288.8 285 277.9 267.1 250.8 231.9 213.7 196 185.4 172.8 160.3 151.3 143.5 141.8 140.1 140.7 138.2 140.4 140.4 146.2 151.3 156.3 161.8 165.3 168.2
363.5 364.7 366 366.7 367.3 372.6 377.3 381.1 384.9 390 394.2 399 405.3 409.4 412.6 413.8 414.7 412.6 405.3 394.6 384.3 373 360.2 344.6 330.4 317.8 306.6 297.9 289.8 283.5 278.7 274.6 270.9 261.9 269.4 270.1 269.5 266.7 265.1 263.5 262.1 261.8 260.9 259.8 258 257.3 256.6 256.8 257.3 259.4 263.1 268.1 271.7 274.4 275.8 275.9 275.9 275.2 275.7 278.3 280.7 283.5 288.4 293.3 297.3 300 302.4 304.2 306.3 307.8 309.4 311 312 311.7 310.1 307.7 304.4 300.4 294.9 289.2 284.2 278.4 272.7 268.2 265.1 262 258.8 255.2 251.5 248.3 245.9 242.8 240.6 238.4 236.3 233.8 231.4 227.9 224.9 221.6 217.6 212.8 208.1 205.2 202 201.6 199.3 197.5 198.7 203.8 212.8 231 257.6 283.4 305.8 323.5 337.2 347.7 354.9 359.2 360.9 357.4 353.8 349.1 344.1 338.4 332.3 326.3 320.3 313.9 308 302 296 290 284.6 279.3 274.3 269.6 263 250.3 263 267.7 272 276.1 279.6 282.1 289 294.4 298.7 302.6 304.7 304.5 300.7 294.9 289.4 287.4 284.2 278.1 271.5 266.7 263.3 259.4 251.6 229.4 248.3 258.3 265.5 269.8 280.3 286.1 290.3 293.3 296 297.8 299.1 296.4 292.7 287 279.7 267.7 254.9 239.5 223.5 209.7 197.1 186.4 176.9 167.8 159.9 153 149.3 145.7 148.8 156.8 160.4 165.8 171.2 176.1 180.2 183.3
354.7 354 354.1 354.7 358.1 363.5 366.3 370.3 373.4 378.7 383.2 388.3 392.4 396 397.8 400.1 401.5 398.7 392.8 385.2 376.1 365 352.4 338.1 325.4 313.7 303.1 294.3 286.1 279.9 274.7 271.1 266.9 262.5 261.2 265.9 264.6 263.2 262.2 261.2 260.4 259.9 258.9 257.8 256.8 255.7 255 255.1 255.2 256.8 259.4 263.9 266.8 269.5 271.3 272.3 273 274 275.4 278.6 282.3 286.1 291.1 295.6 298.8 301.7 303.9 305.9 307.7 309.9 312.2 314.4 316.3 315.2 312.9 310.2 306.5 302.2 296.1 290 283.8 278.2 272.2 268.1 264.3 260.5 256.9 253.1 249.8 247 244 241.9 240 238.1 235.7 233.8 232.1 227.8 223.5 219.9 215.3 210.6 205.2 203.4 201.7 198.7 197.6 197.5 200.4 206.1 216.2 235.8 262.5 287.5 307.2 323.7 335.7 344.7 352 355.7 357.5 355 352.3 348.6 343.7 337.4 331 325.1 318.9 312.2 306.3 300.3 294.6 289.5 284 278.6 273.1 261.2 262.7 270 274.2 277 280.6 283.2 286.1 290 295.7 300.1 303.9 306 307 304 299.5 296.4 293.1 288.6 283.6 278.7 274.1 269.7 266.6 262.2 256 237.9 252.1 262.5 267.5 277.5 285.5 290.4 294.6 297.9 301.4 304.4 305.5 303.7 300 295.4 289.2 282.6 274 263.8 253.2 240.3 227.1 215 203 191.6 180.4 172.8 169.7 168.5 168.4 170.4 175.5 182.1 187.7 193.1 197.8 201.8
349.9 349 347.1 347.9 349.6 352.3 354.1 357 359.8 365.9 370.3 374.1 378.6 381.9 383.5 386.1 387 384.4 379.2 373.5 364.9 353.8 341.8 330.5 318.3 307.2 297.8 289.6 282 275 271.1 267.5 264.7 261.1 259.4 261.6 261.2 260.7 260.3 259.6 258.9 257.8 256.8 255.7 254.9 253.8 253.4 253.1 253.4 254.4 257.2 260.2 263.2 265.9 267.5 269.1 270.9 273 275.7 279.1 283.2 288 292.5 296.9 299.8 302.3 304.9 307 309 311.5 314.6 317.6 318.5 316.9 313.9 311 306.9 301.9 295.6 289.6 283.5 278.1 271.6 266.8 263 258.1 254.4 251 247.6 244.4 241.4 238.7 236.9 234.7 232.8 231.5 228.9 223.8 219.5 215.4 211.5 207.7 204 201.6 200.5 198.4 196.5 198.1 201.7 207.9 218.3 239 263.2 286.1 303.5 319.7 332.1 341.4 348.9 352.8 354.9 354.1 351.7 347.7 342.6 336.2 329.7 323.7 317.5 311.1 304.9 299 294.3 289.4 284.2 275.5 266.7 272.6 276.2 279.7 282.7 285.1 286.8 290.4 294.6 298.2 302.7 306.3 308.3 309.8 307.9 305.6 303 299.9 294.9 290.7 286.8 282.4 276.3 271.4 267.5 262.8 258.2 241 256.1 264.4 272.2 282.4 288.6 294.1 298.7 302.8 306.4 309.2 310.4 308.8 305.5 301.9 298.9 293.2 287 280.6 273.4 264 251.9 238.2 224.3 211.2 200.5 190.8 185.7 183.7 182.4 184.4 191.4 197.9 203.7 209.9 216.2 220.7
346.6 345.1 344 343.6 343.6 343.5 341.9 344.4 348.6 351.9 356.3 360 363.7 366.6 369.1 371.1 371 369.4 365.5 360.6 352.4 341.9 332.3 322 311.1 300.7 292.4 284.9 278.1 271.7 267.2 263.6 260.9 257.9 258.1 257.6 258.5 258.2 257.9 257.6 256.8 255.7 254.6 253.7 252.9 252.3 251.8 251.3 251.3 252.4 254.5 257.8 260.3 262.8 264.4 266 268.5 271.3 275.6 279.4 284.1 289.4 293.5 297.2 300 302.4 304.8 307.5 309.4 311.9 315.2 317.7 318.1 316.4 314 310.2 306 300.8 294.2 288.6 283.1 277.5 270.8 266.5 261.2 255.7 251.6 247.9 244.4 240.8 237.8 232.9 231.9 230.5 227.6 224.9 221.8 218.3 215.2 211.6 208.2 206.1 203 200.9 199.3 197.2 196.8 198.7 202.5 210 220.4 239.1 257.9 276 292.6 310.4 327.6 338.3 345.9 350.5 352.8 353.7 351.1 346.6 341.2 335 329 322.7 316.9 310.8 304.8 299.3 294.7 290.1 285.7 270.7 278.3 280.6 284.3 287 288.7 290.8 295.6 299.4 302.9 306.2 309.8 311.7 313 312.3 311.6 309.9 305.9 301.7 297 292.9 287.2 280.7 275 271.5 268 262.6 254 245.4 259.7 266 277 284.9 291.1 296.9 302.5 307 310.9 313.6 314.6 313 311 308.5 307.2 304.1 297.3 290.2 283.5 275.6 266.8 256.2 245.2 231.6 218.8 208.7 202.1 199.4 198.8 200.8 206.9 213.1 220.6 228.4 232.5 231.8
342.1 342.3 341.7 340.6 339.4 337.6 335.3 335 338.9 340 342.2 345.2 348.9 350.8 353.1 354.3 354.1 351.7 351.5 346.8 339.9 330.8 323.2 314 303.1 294.4 287.7 280.7 274.4 268.6 263.4 260.4 256.9 251 256 256.6 257.1 256.6 256 255.5 254.6 253.6 252.5 251.7 250.8 249.7 249.1 248.7 249.1 250.2 252.5 255.4 257.7 259.2 261.1 263.2 265.7 269 273.8 278.9 284.7 289.5 293.6 296.3 298.8 301.6 304.3 307 309.2 310.9 313.5 314.9 315.1 313.9 311.9 308.3 304.3 298.7 292.2 286.7 281.2 275.7 270 265.1 259.3 253.6 249.1 244.8 239.8 237 234.1 228.4 227.4 225.3 222.3 219.5 217.2 215.1 211.9 208.8 205.9 205 202.3 199.5 197.4 195.8 197 199.5 203.6 212.2 223.5 237 251.2 265.7 280.9 300.4 320.8 334.9 343.1 348.5 351.6 353.2 350.3 346.3 341.1 335 329.2 323.5 317.3 311.2 305.4 300.1 296 292.2 288.4 278.3 284 288.1 290.7 292.1 295.9 300.4 303.7 307.2 310.6 313.8 316.5 317.8 317.8 317.8 316.3 312 308.6 304.8 298.6 292.3 285.6 279.7 275.3 272.4 267.6 264.2 261.3 256.8 262.8 270.1 280 287.2 293.8 299.8 305.5 310.7 314.9 317.1 317.8 317 315.9 314.6 313.3 309.6 304.6 298.1 290.3 283 275 267.6 259.1 249.1 237.1 225.9 219.2 216.6 216.6 217.5 222.2 229.6 237.2 239.8 237.8 235.5
338.1 339.4 340.1 339.2 337.7 335.5 332.7 329.3 327.9 328.9 330.7 333.2 335.5 336.4 337.6 337.7 337 337.1 337.9 334.1 327.4 320.9 314.1 305.5 296.6 289.3 283.2 277 270.9 265.6 260.6 257 253.2 254.3 254.8 255.4 255.7 255.3 254.9 253.7 252.2 251.2 250.4 249.4 248.4 247.1 246.5 246.3 246.9 248 250.6 252.5 253.9 255.4 257.1 259.5 262.1 266.1 271.5 277.1 282.5 287.6 291.4 294.1 297.1 299.9 302.3 304.7 306.8 308.4 309.7 310.5 310.8 309.8 307.5 304.7 300.5 295.6 290 285.7 279.2 273.6 267.8 262.1 256.2 251.5 246.8 241.8 237.3 233.2 230.4 226.9 221.8 220.2 217.8 215.4 213.9 211.8 208.8 206.8 204.6 202.3 198.9 197 195.6 195.4 197.4 200.4 204.9 215.3 227.2 243.6 260.6 274.8 289.4 300.7 319 331.5 340.8 346.3 350.3 352.3 350.1 346.4 341.6 336.2 330.6 324.6 318.5 312.6 307 301.8 298.1 294.3 290.4 288.6 291.2 293.8 295.9 300.4 304.3 308.2 311.3 314.9 318.3 321.5 323 323.6 323.2 322.6 320.4 317.4 311.8 305 298.4 291.9 285.8 280.8 276.9 274 270.4 268.9 267.4 266.4 266.8 274.5 282.1 289.5 296.4 302.4 308.1 313.7 317.7 319.8 320.5 320 320.4 320.1 316.7 311.6 306.2 300.5 295 288.2 281.7 274.9 267.9 260.7 250.8 241.1 234 230.8 230.6 231.5 237.4 243.3 244.7 244 241.1 237.4
339.9 342.5 343.1 342 340 337.5 334.1 329.7 326 321.6 322.1 322.5 322.3 324 324.3 323.1 322.6 321.2 320.9 319.4 314.4 310.1 304.2 297 290 283.4 277.8 272.3 267.4 261.6 257.7 254.2 248.2 253.4 253.8 254.4 253.6 253.2 252.2 251.3 249.7 249.1 248.2 247.2 246.1 245 244.8 244.5 245.1 245.5 247.4 249 250.3 251.1 252.7 255.4 258.3 262.9 268.1 273.1 278.7 283.8 288.2 291.4 293.8 295.9 298.3 300.8 302.3 303.5 304.5 304.9 304.8 303.4 302 299.6 295.5 291 287.1 281.9 275.4 269.7 263.7 258.5 253.5 248.9 243.1 237.6 232.8 229.5 226.9 224.1 219.5 216.1 214.8 212.3 210.8 207.9 205.7 203 200.9 199.2 197.3 196.5 195.6 195.4 198.1 201.8 207.3 218.8 231.9 249.6 268.9 283.6 297.5 308.2 319.5 329.9 337.6 344.2 349.1 352.4 351.4 347.5 342.9 337.8 332 326 319.9 314.1 308.8 303.9 299.9 296.3 288.9 294.3 296.8 301.1 305.2 308.6 312 315.5 319.1 322.7 326.1 328.8 330.2 331.1 330.5 329 325.6 320.2 313.4 306.8 299.9 293.7 288.2 283.4 280 277.3 275.5 273.7 272.6 272.2 270.7 278 284.4 291.4 298.6 304.9 310.4 315.5 319.7 322 323.4 322.8 322.3 321.8 317.8 312.6 307 301.8 297 291.9 287.6 282.2 275.2 268.2 259.7 251.7 245.8 242.8 241.4 244.2 248.4 248.8 248.1 245.5 241.2 236.1
337.9 342.1 343.2 343.2 341.1 338.6 334.6 331.4 328 322.8 315.5 312.3 311 311.1 310.6 309.6 309.8 309.1 307.2 304.7 300.6 296.8 293 287.5 281.3 276 272.2 267.5 262.6 257.5 253.9 251.4 243.3 251.9 252.9 253.1 252.1 252 250.9 249.2 247.9 247.3 246.7 245.8 244.5 243.1 242.7 242.2 242.7 243.1 243.5 245 245.7 246.3 248.3 250.3 252.7 256.6 261.8 267.5 273.3 278.3 283.6 286.9 289.7 291.2 293.9 296 297.1 298 298 297.9 297.4 296 294.1 291 287.7 284.6 281.8 275.7 270.8 265.1 259.9 255.3 251 245.4 238.9 234.1 230.3 226.3 224.2 220.8 216.3 212.7 210.7 208.4 206 203.9 200.7 198.5 198 197.1 196 195.5 194.9 196.1 199.2 204.5 212 223.1 236.7 253.5 269.4 283.9 297.2 307.9 318.4 328 336.4 343.8 349 353.2 352.9 348.9 344.3 339.2 333.4 327.4 321.3 315.8 310.9 306 301.8 296 298 299.7 305 309.4 313.2 316.5 319.7 322.9 326.7 330.4 333.1 335.9 338.2 339.2 338.3 335.9 330.2 323 316.3 309.2 301.8 295.6 290.4 286 282.9 280.7 278.9 277 277.4 277.2 274.5 280.9 287.3 293.5 300.5 306.5 312 316.8 320.8 324.2 326.1 325.7 323.9 321.7 317.8 312.9 308 302.9 298.1 294.7 292.1 288.1 282.4 275.2 266.7 258.8 252.8 250.2 249.9 251.6 252.3 250.7 247.7 243.2 238.4 234
334.2 339.6 343.3 343.9 342.1 338.6 335.4 333.6 330.8 326.5 319.5 312.2 305.8 302 299.4 298.8 298.1 296.7 294.7 291.9 287.9 283.9 281.1 277.1 273 267.9 264.7 261 256 252 248.7 246.1 239.3 248.4 250.5 251.8 251.3 250.6 249.5 247.5 246 245.4 244.8 244 242.8 241.3 240.8 239 239.3 239.6 239.5 240.3 241.3 242.6 243.4 244.7 246.3 249.3 253.6 259 264.5 268.7 275.6 281.3 284.9 286.7 287.9 289.2 289.7 290.5 290.8 290.5 289.4 287.8 285.2 282 278.9 276.6 273.6 269.3 264.3 259.8 255.4 251.7 247.6 241.1 234.4 229.4 225.8 223.1 220.2 216.8 212.9 209.4 206.1 203.9 202.3 200.5 197.6 195.8 196.3 195.4 195.3 194.3 194.8 198 201.9 207.1 215.1 225.2 239.5 254.1 267.4 282.2 295.3 306.4 317.1 326.3 335.1 343.1 349.1 353.1 354.3 350.4 345.6 340.5 334.7 328.9 322.8 317.5 312.4 307.3 304 302.5 304.4 308 312.5 316.9 320.5 323.5 326.8 329.9 333.6 338.3 342.2 345.2 348.3 347.6 346 342 335.7 327.9 319.5 311.5 304.1 297.5 293.1 288.6 285.6 283.2 281.3 281.8 282.1 282.2 280.4 284.7 290.4 295.7 302.1 308.2 313.4 317.8 322.4 326.1 328.2 326.9 323.6 320.6 317 313.7 309.9 304.4 299.2 297.1 295.2 292.6 287.7 280.4 272.1 264.3 258.6 256 255.1 254.7 252.8 249 244.4 239.8 235.3 230.7
331 336.4 340.1 341.8 340.9 338.5 336.5 335.8 333.3 329.8 321.7 312.6 305.1 297.7 292.3 288.9 286.9 286.9 283.9 281.4 278.2 274.2 271 268.6 264.1 260.4 257.6 254.1 250.6 247.3 244 239.6 237.2 245.6 247.6 249.3 249.9 249.1 247.9 245.8 244.1 243.5 242.9 242.1 240.5 238.9 237.5 235.6 236.2 236.2 236.3 237 238.2 239.6 239.9 240.9 241.8 243.3 246.3 250.4 254.4 258.3 264.5 270.2 275.4 280.2 280.9 280.8 281.8 282.1 281.9 281.7 280.8 278.5 275.9 272.4 270.2 268.3 265.2 261.6 257 253 249.6 246.6 241.8 236.1 229.8 224.7 221.9 218.4 216.6 213 209.6 205.6 202.7 200.1 199.1 196.6 195.2 194.3 194 193 192.9 193.9 195.5 199.4 203.6 208.6 216.2 227.8 240.9 253.8 266.8 280.6 292.9 304 314.8 324.7 333.4 341.7 347.9 352.8 355.7 352 347.3 341.6 335.9 330.2 324.3 319.1 314 309.6 308.1 308.9 310.8 315 319.9 323.8 327.3 330.5 334.1 337 340.5 345.7 350.6 355 357.1 355.5 353.2 348.4 340.6 332.9 324.3 315.3 307.4 300.4 295.5 291.2 288.7 286.7 286.3 286.5 286.6 286.8 286 288.4 292.5 297.9 304.1 309.5 314.5 319 323.8 327.8 328.5 326.6 323.4 320.1 316.4 313.2 308.9 303.9 300.5 299 297.3 294.6 289.3 282.5 274.7 266.8 261.3 258.7 257.7 255.9 251.2 246 240.9 236.3 231.5 226.5
325.8 330.8 334.1 335.6 336.2 336.1 336.6 335.8 332.6 327.9 321 313.9 305.9 298 290.2 282.2 278.6 276.1 271.8 271.9 268.4 266.4 263.4 260.4 256.3 253.2 251.1 248.5 245.5 242.4 239.4 235.7 235 241.8 244 245.8 246.4 246.7 246.3 244.3 242.4 241.1 240.8 239.9 238.3 236.7 234.5 233 233.2 233.6 234.6 235.6 236.5 237.5 238.1 238.7 239.4 239.8 241 243.2 245.5 247.7 251.7 257.3 263.1 269.4 272 272.6 273.5 273.9 273.2 272.4 271.5 269 266.4 262.8 260.5 259.6 257.3 254.5 249.6 245.3 242 239.6 233.9 228.2 223.4 219.8 217.4 214.7 211.3 208 204.3 201.9 200.5 198.3 196.8 195.5 194.9 193.9 195 196.1 193.7 193.9 196.8 199.4 204.7 209.6 217.6 229.3 241.9 254.3 266 278.1 290.2 301.4 312.1 321.8 331.2 339.6 346.4 352.1 356.5 353.3 348.4 342.9 337.1 331.3 325.6 320.6 315.9 312.3 311.6 313.1 316.3 320.9 325.8 328.9 333 336.8 340.7 344.5 349.2 354.5 359.3 362.8 364.5 363.9 360.7 354 346.4 337.8 329.1 320.5 312.5 305.9 301.3 297.7 294.7 292.4 291.4 291.3 291.6 291.4 290.4 292.4 295.4 299.7 305 310.6 315.4 320 324.7 328.1 328 326.3 323.3 320 315.6 311.1 307 303.2 300.7 299.2 297.4 293 287.5 280.5 273.4 267.3 262.1 260.1 256.6 252.3 248.1 242.4 237.1 232.7 227.7 222.4
321.1 323.5 325.7 327.7 329.1 329.3 330 329.1 326.4 321.7 316.6 311.1 303.8 296.1 288 280.2 274 269.6 266.2 263.1 260.1 258.4 256.9 253.9 250.8 248 245.8 243.1 240.2 237.1 234.9 232.3 231.1 237.4 240.1 242.1 243 243.7 243.5 243 241.1 239.4 238.7 237.7 236.2 234.8 233.4 232.2 231.5 232.5 233.8 235.2 236.1 237 237.5 237.8 238 238.2 238.5 238.6 239.6 240.5 242.5 245.9 250 255.2 260.3 263 265.2 265.3 264.3 262.9 262.2 260.1 257.2 253.6 251.2 248.8 246.6 245.4 242.1 237.2 233.2 227.2 223.7 220.5 217.5 215.1 213.1 208.9 206.5 203.3 201.6 199.3 198.6 198 195.5 194.1 195.6 196.4 197.3 197.3 195.6 192.8 196.3 199.2 203.7 210.2 218.3 230 241.5 253.3 264.3 275.6 287.1 298.2 308.6 318.5 328.2 337.3 344.2 350.6 355.5 353.1 348.6 344 337.7 332.5 327.3 322.2 317.5 314.3 315.9 317.7 321.7 326.4 330.3 334.2 338.5 342.6 346.9 352.7 357.7 362.5 367.2 369.9 371.7 371.3 368.3 360.2 351.6 342.8 332.1 324 316.7 311.2 306.7 302.7 299.7 297.9 296.6 296.4 296 295.2 294.9 295.1 298 300.8 305.8 311.5 316.3 320.9 325.4 327.6 326.9 325.3 323 319.7 314.5 309.9 305 302.4 301 299.3 296.8 292 285.2 278.8 272.9 267.2 261.7 257.4 251.2 247.2 243.6 238.1 232.6 228.7 223.3 217.7
313.6 315.3 316.9 318.7 320.3 320.1 319.1 317.7 314.9 312.1 307.7 303.3 297.7 291.4 284.2 277.4 270.8 265.9 260.7 257 253.7 251.9 250.7 249.1 246.5 243.5 240.5 237.7 234.8 231.8 230.5 230.6 226.4 233.7 236 237.6 238.9 240.4 240.8 240.5 239.7 238.3 236.9 236 235.4 234.1 232.3 231.4 230.8 231.5 232.8 234.1 235.4 236.4 237 237.2 237.4 237.5 237.4 236.8 236 235.5 236.4 238.1 240.4 243.8 247.1 250.4 254.4 255.6 255.4 253.3 253.1 250.6 247.8 244.5 241.6 238.4 235.7 234.2 230.7 226.4 223.1 220.2 217.7 215.7 212.6 208.8 207.2 204.9 201.8 199.7 198 197.3 197.4 196.2 197.4 197.2 198.3 197.4 196.2 197.4 195.8 192.6 195.1 197.8 202.6 209.1 217.8 228.1 239.5 250.6 261.8 273.1 283.8 294.3 304.6 315.1 325.2 335.1 342.7 349.1 353.8 353.1 349.7 345.2 339.3 334.1 329 324.7 319.8 318.9 320 322.5 326.7 330.9 336.1 340 344.3 349.7 354.9 360.5 365.1 369.8 374.2 377.3 378.7 378.3 374.9 366.5 356.4 345.5 334.5 326.4 320 314.5 310.3 306.6 303.7 302 300.6 299.6 298.9 298.2 298 298.1 300.6 302.9 307 312.3 317.1 321.8 326.1 327.4 325.5 323.9 321.7 318.8 314.1 308.6 304 301.9 300.7 299.3 294.9 288.9 282.5 276.8 270.5 264.9 259.2 253.2 247.1 242.5 237.5 232.7 227.8 223.8 218.6 212.9
306.4 308.1 309.4 310.8 310.2 309.4 308.2 306.8 303.9 301.1 297.6 293.5 289.8 285 278.3 272.4 267.5 262.4 256.2 252.5 249.3 246.4 245.5 243.8 241.3 238.6 235.5 232.8 229.9 227.9 227 226.1 219.5 229.9 231.5 232.7 234.3 236.1 238 238.3 238 237.1 235.8 234.8 234.2 232.9 231.2 230.6 230.1 230.5 231.8 233.1 234.5 235.2 235.9 236.2 237.1 237.7 238 236.9 235.2 233.5 231.7 231.9 234 236.8 238 238.9 242.8 243.8 244.3 243 242 240.3 237.1 232.5 230.5 228.8 227 224.5 222.5 219.5 216.7 214.4 212.5 209.6 206 203.7 202.4 200.4 199 197.6 196.7 197.7 198.1 199.5 200 199.8 200 199.4 197.3 194.7 193.7 192.5 194.5 196.5 201.4 207.4 215.2 225 236.2 247.4 258.8 269.1 279.7 290 299.9 310.5 321.7 332.1 340.5 346.7 352.2 352.9 350.1 346.5 341.2 336.2 332 327.9 324.3 323.7 324.1 327.7 332.1 337.4 342 347.5 353.2 358.8 363.5 368.1 372.4 376.8 380.8 383.5 384.7 383.2 378.2 369.6 358.6 347.5 337.3 329.9 323.1 318 313.8 310.1 306.3 304.3 303.1 302 300.9 300.8 300.6 300.7 302.5 304.4 307.6 312.8 317.7 322.4 326.6 326.9 324.4 322.5 320 316.3 312.3 307.7 303.2 301.3 299.6 297.2 291.3 284.5 278.7 272.8 266.5 260.8 255.2 249.7 243.9 237.8 230.6 225.9 221.6 217.8 213.8 207.8
299.5 300.8 300.9 300.3 299.6 298.7 297.5 296.1 293.4 290.4 287.2 283.4 279.4 274.3 270.5 264.9 260.9 256.7 251.6 248.3 245.1 242 240 238.1 235.8 233 230.6 227.8 225.1 224.1 223.3 221.2 218.6 225.4 226.9 227.9 229.4 232.2 233.9 235.6 235.5 235.3 234.6 233.7 232.7 231.7 230.3 229.8 229.5 229.8 230.8 232.1 233.4 234.2 235.3 236.2 237.1 238.5 239.1 237.5 236.2 234 231.8 228.4 228.6 230.1 231.5 231.4 231.5 229.5 229.8 228.7 229.3 228.1 227.5 225.2 223.7 221.8 220.4 217.5 215.5 213.1 210.8 208.2 206.9 204.5 202.7 201 201.2 201.1 201.5 201.2 201.5 201.5 201.3 201.5 201.9 201 200 198 196.6 194.2 192 191 193.8 195.1 199.2 204.6 212.3 221.7 231.4 241.8 253.4 264.3 274.3 284.5 294.9 305.8 317.7 329 338.4 345.4 351.5 353.3 350.9 347.4 342.8 338.6 334.1 330.7 328.2 328.3 330.3 333.8 338.2 343.2 348.7 354.3 360.1 365.9 370.6 375.4 380 384 386.9 388.7 389 384.9 379.2 370.6 359.7 348.9 340.3 333 326.2 321.2 316.9 313.2 309.4 306.5 304.7 303.4 302.1 302.3 302 302.9 303.9 305.5 308.3 312.9 317.7 322.6 326.3 326.2 323.2 320.9 317.1 313.8 309.9 305.2 301.8 299.1 297.1 293.2 286.5 279.7 274.3 268.4 262.4 256.7 251.1 245.4 238.9 232.6 225.3 218 214.3 210.5 206.4 200.6
292.6 292.5 291.4 290.3 289.2 288.2 287.3 285.7 282.7 279.6 276.8 272.7 268.3 264.3 261.5 257.7 253.7 249.1 246 242.6 240.6 237.7 235.1 234 231.7 227.7 226.3 223.6 220.9 220.5 219.5 217.6 214.3 220.3 223 224 225.2 227.5 230.3 231.7 232.7 233.2 232.8 231.9 231 230.8 229.5 229.1 229.1 229.3 229.9 231.2 232 233.3 234.3 236 237.6 239.2 240.3 239.5 238.7 237.4 235.3 232.7 229.3 227.7 226.2 226.5 225.9 224.5 222 220.4 219.6 219.8 218.9 219 218.4 215.2 213.8 211.7 210 208.5 206.2 204.4 204.3 204.1 204.6 204.6 204.7 205.2 205.4 205.1 204.8 204.6 204.3 203.4 203.2 202.7 201 198.7 196.7 194.4 191.9 190.8 192 193.7 197.6 202.3 208.4 215.7 224.9 234.8 246.4 258.5 269 279.9 290.9 301.9 314.2 326.2 336.1 343.8 350.1 352.6 351.9 348.4 344.3 339.9 336.7 333.3 332.3 334.2 337.2 340.6 344.5 349.8 355.5 361.2 366.9 372.1 377.2 382 386.6 390.2 392.2 393.6 391.7 385.8 378.5 370.2 360.1 351.3 342.7 335 329.2 324.7 320 316 311.7 308.7 306.2 304.5 303.3 303.2 303.5 304.2 304.9 305.8 308.5 311.7 316.2 322.6 325.3 324.8 322.8 319.3 314.2 310.2 307.5 303.5 299.4 296 293 288.4 281.5 274.6 269.1 264.2 258.6 252.7 246.7 240.4 233.4 226.7 220.2 212.8 207.2 202.7 198.3 192.7
284.4 284.7 283.4 282.2 280.6 279.5 278.1 275.4 272.5 269.5 266.1 262.2 257.7 254.3 251.5 249.9 246.2 241.9 238.9 236.7 235 232.5 229.9 227.7 224.5 222.4 221.6 219.7 217.2 216.6 214.7 212.7 211.4 215.7 219.1 220.3 221.7 224.7 226.3 227.7 229.7 230.9 231 230.2 229.3 229.3 228.7 228.6 228.6 228.8 229 230.3 230.3 231.3 234.3 236.5 239.7 242.3 243.5 243.6 243.8 243.2 241.4 238.7 235.5 232.5 229.3 226.2 223.8 222 219.7 219.7 217.6 216.3 216 214.2 213.6 212.1 212.3 211.8 211.8 210.1 208.7 208.2 208.2 208 208 208.7 209.4 209.6 209.6 208.6 208 207.8 207.1 206 204.7 203.3 201.4 199.3 197 194.5 192.8 187.4 190.4 192.4 196 200.5 206.2 212.2 218.6 229.5 241.5 253.6 265.2 275.6 287 298.3 310.6 323.3 335 342.3 348.1 352.2 352.9 349.5 345.5 342.3 339.3 337.7 338.6 340.5 343.8 347 351.5 357.1 362.8 367.9 372.9 378.1 383.1 387.6 391.7 394.7 396.6 395.4 391.1 384.8 377.5 369 360.9 352.6 344.4 336.7 333.1 328.2 322.6 318 314.2 310.9 308.3 306 304.5 304.4 304.6 305.2 306 306.7 307.8 310 315.8 322.1 323.7 323.2 322.3 317.4 311 306.5 304.8 301.4 297.4 293.2 288.6 283.4 276.8 269.8 264.4 259.3 254 248.1 241.7 235.3 228.2 221.2 214.6 208.6 202.3 196.6 191.4 186.3
275.1 274.8 275.3 274.1 273.2 271.5 269.5 266.7 263.3 259.9 256.8 252.7 249.1 246.6 244.1 241.3 238.5 234.9 232.5 230.6 229 227.3 224.6 221 217.8 216 215.1 214.5 212.5 212.2 210.8 209 210.9 212 213.9 217.2 219.9 222.3 222.8 224.8 226.9 227.9 228.8 228.2 227.8 227.4 228.2 228.2 228.2 228.3 228.3 228.7 230.8 233.5 236.1 238.9 242.7 245.6 246.9 248.3 249.6 249.7 248.7 247.1 245.3 241.8 238.1 235 232.2 228.9 226.2 224 222 221.3 221 220.8 220 220.7 221.3 220 218.1 215.4 213.2 213.4 213.6 213.5 214 214.4 214.3 214 213.3 212 211.1 210.2 209.1 207.3 205.9 203.7 201.5 199.4 196.6 194.4 192.7 187.8 189.2 191.5 194.7 198.8 203.3 208.3 215.3 226.3 237.9 249.9 261.2 271 282.1 294.3 307.1 320.6 332.3 339.9 346 351 352.5 350 347.4 345.1 343.2 343.7 345 347.2 350.2 354.4 359.4 364 368.7 373.4 378.4 383.4 387.9 391.9 395.3 396.8 396.5 392.8 387.4 381.5 375.7 369.2 362.1 352.6 346.3 342 336.6 330.5 324.9 320.3 316.7 313.4 310.5 308 307 306.9 306.1 306.2 306.9 307.6 308.7 309.5 314.8 321.2 321.7 321.4 319.5 313.7 307 304.4 302.7 298.6 294.9 289.6 283.7 278.3 271.8 265 259.6 254.4 249 243.4 236.8 230.1 223 215.9 209.4 203.5 197.7 192.1 186.6 180.7
267.4 266.6 266.2 266.3 266 263.8 261.3 258.4 255.3 251.6 248.1 244.9 242.3 240.3 238 234.9 231.4 229 227.1 225.2 223.3 221.2 218.5 216.8 215.2 211.7 210.1 209.4 208 207.9 207.9 207 208.3 208.6 210.4 213.1 216.5 219.8 220 222.3 223.9 225.5 227.5 227.3 226.9 226 226.2 227.6 226.7 228.3 229.7 231 233.3 235.6 238 241.5 245.8 249.5 251.8 253.5 255.1 256.3 255.5 253.9 252.9 248.1 245 242.2 238.5 234 231.4 229.9 228.5 229.6 230.2 230.5 230.5 231.5 230.3 227.5 224.3 221.4 219.7 218.9 218.4 218.8 219.2 219 218.5 217.6 216.4 215.1 213.6 212.5 211 209.2 206.6 203.6 201.3 198.8 196 194.1 192.3 184.7 188.5 190.4 193.4 197.3 201.2 206 213.8 224.1 235.1 246.1 256.6 266.8 277.4 290.2 303.8 317.1 328.6 337.6 344.4 350 352.1 351 349.6 348.8 348.5 348.7 350.3 353.5 357.5 362.1 366.6 371 375.1 379.3 383.7 388 391.6 394.7 394.6 394.8 392 388.2 382.9 377.2 373 367.5 360.6 354.3 350.2 345.1 339 333.1 327.8 322.8 319.2 316.2 313.8 312.3 310.8 309.7 309.1 308.6 308.2 307.9 308.8 309.7 316 319.7 319.3 319 316.3 309.8 303.9 303.4 299.2 297.1 292 285.6 279.5 273.8 266.7 259.4 254.8 249.9 244.3 238.1 231.4 224.3 216.8 209.9 203.5 197.6 192 186.7 181.1 175.5
261.6 261.7 260.6 259.7 258.3 255.8 253.4 250.6 247.6 244.2 240.8 238.5 236.6 234.5 232.1 229.3 226.2 224.7 222.8 220.9 218.6 216.1 214 213.5 212.3 208.9 207 205.1 204.8 205.5 205.8 202.7 206.6 206 207.3 210.6 212.6 216.1 217.5 219.9 222.1 224 226 225.7 226 226.1 226.6 228.3 229.1 231 232.4 233.8 235.9 238.3 241 245 249.5 253.4 256.5 259.1 260.6 262.2 262.4 260.4 257.5 254.2 250.2 246.9 243.2 238.7 237.1 236.9 237.3 238.3 238.8 238.1 237.8 237.8 235.6 232.2 228.5 225.9 224.8 223.4 223.4 223.6 223.5 222.6 221.5 220 218.9 218 216.4 214.9 212.9 210.4 207.5 204.5 200.7 197.4 195.1 193.1 190.5 181.9 188.3 189.2 192 195.3 198.8 203.9 211.8 222.2 232.3 242.6 252.7 263.1 274.5 286.8 300.3 314.2 326.6 336.2 343.8 349.6 351 351.8 352.9 353.2 352.7 353.7 356.3 360.3 364.6 369.1 373.5 377.8 381.5 384.5 387.8 391.4 393 392.8 391.4 389.2 385.8 381.8 377.4 373 368.7 363.8 359.1 356.2 351.1 345.6 340.2 335.7 330.7 325.6 320.3 318.9 317.3 315.5 313.9 312.7 311.8 310.2 309 308.9 308.7 311.3 317 318.4 315.5 315.8 312.3 306 300.2 301.1 295.7 293.9 288.2 281.3 275.4 268.8 261.4 254.1 249.1 244.6 239.4 232.2 225.2 217.5 210.3 204.4 198.1 192.3 187.4 181 175.2 168.6
255.2 255.3 253.8 252.3 250.8 248.3 245.7 243 240 237.3 234.7 232.8 230.9 228.6 226.2 223.7 222.4 220.5 219 217.3 215.3 213.1 210.9 209.6 208 206.1 204.5 202.9 203.4 204.1 204 201.5 204.7 204.1 204 206.5 209.8 213.1 215.2 217.3 219.5 220.3 222.6 226.5 227.8 228.6 229.6 230.4 231.3 233.4 235.1 236.9 238.9 240.9 244.3 248.7 253.1 257.7 261.3 264.1 266.1 267.7 268.3 265.7 261.8 257.4 253.6 249.9 246.4 243.8 244.4 247.1 248.8 248.8 246.9 243.2 243 242.7 240 235.8 232.4 230.1 228.7 227.6 227.6 227.5 226.5 225.4 223.9 222.4 221 220.2 219 217.4 214.8 211.6 208.3 205.1 200.6 196.2 193.5 190.6 186.4 182.6 188 187.5 189.5 192.9 196.3 201.2 209.3 220.1 230.9 240.3 250.7 260.9 272.5 284.7 297.7 311.4 324.4 334.5 342.4 348.6 350.3 352.6 354.2 355.8 357.1 359.1 361.9 366.1 370.4 375.2 379.4 383.1 385.9 387.7 389.8 391.3 390.8 388.6 385.2 382.3 379 375 371.1 367.8 365.1 359.4 358.8 356.7 352.5 347.5 342.2 337.1 331.1 325.2 321.6 320.5 318.5 317.1 315.7 313.9 312 310.1 309.3 309 309.7 315.1 316.6 315.6 311.4 311.5 307.8 301.3 295.2 296.5 291 288.6 282.6 276.4 270.5 263.4 255.8 248.8 242.9 238.5 233.5 225.7 218.2 211.1 205.6 199.9 193.5 187.2 180.8 174 167.6 159.5
246.8 246.8 245.9 244.9 243.1 241.4 238.6 236.3 234.1 231.9 229.5 227.3 225.5 224.3 222.1 220.2 220 217.4 215.9 214.1 212 210.5 208.5 206.7 205.2 203.6 202.1 201.2 202 202.6 202.3 201.2 202 202.3 202.1 203.5 207 210 213 214.4 215.1 219.7 225 227 229.1 230 231.2 232.5 233.8 236 237.4 239.1 241 243.8 248.3 252.6 257 261.9 266.2 269.1 271.2 273.2 272.1 269.1 264.8 259.8 255.1 251 249.4 250.6 253.5 257.7 260.2 259.1 255.1 250.1 247.8 246.9 244.2 240.2 237.3 235.4 233.4 232.3 232 230.9 229.1 227.7 226.2 224.7 223.2 222.2 221.1 219.9 216.9 213.1 209.4 205.7 201.4 197.2 193.1 188.5 183.2 182.2 187.4 185.8 187.5 190.3 193.8 198 205.7 215.5 226.3 237.3 247.9 258.5 270.1 282.5 296 309.8 322.5 332.9 341.3 346.9 349.4 352.4 355.3 357.7 360.2 362.2 365 370.3 375.5 379.6 383.4 387.2 388.8 387.3 387.5 386.8 385 382.6 378.7 375.2 372.1 368.5 365.1 362.7 360.4 357.9 358.6 354.8 352.3 347.8 342.6 336.8 330.4 324.6 322.8 321.5 319.7 318.4 316.9 313.8 311.5 308.9 308.5 309.5 314.2 314.9 314.5 311.6 307.2 307 303.4 296.5 291.2 291.8 286.2 282.8 277.9 271.8 265.3 258.6 250.6 244 238.5 232.3 226.4 219.2 212.9 206.6 200.9 193.4 186.8 179.6 172.3 165.8 159.5 153.5
237.6 238.1 237.2 236.6 235.1 234.3 232.1 230 228.5 226.3 224.7 223.7 222.3 220.8 219.3 217.5 215.9 214.4 213.1 211.6 209.1 207.5 206 204.2 203 201.4 199.7 199.7 200.6 201.1 200.5 199.8 197.3 200.2 200.2 201.2 204.1 207.6 210.6 208.4 216.2 220.8 224.5 227.3 229.6 231.5 232.7 233.5 235.6 238.1 239.8 241.7 243.8 247.6 251.9 256.5 260.9 266 271.1 274.3 276.5 276.1 274.1 270.8 266.8 261.5 255.8 252.3 254 257.8 262.8 266 266.9 265.9 262.7 257.8 253.6 250.6 248.1 245.6 242.8 240.8 239.9 238.9 236.9 235.4 232.8 230.2 228.1 226.4 224.4 223.6 222.5 221.6 218.8 214.5 210.3 205.7 201.3 197.9 193.5 190 184.1 180.1 180.7 183.7 185.3 188 191.4 195.2 202.8 212.8 223.7 234.9 245.4 255.8 266.6 279.7 294.5 308.6 320.8 331.6 339.4 344.7 348.1 351.7 354.6 357.8 361.1 363.7 367.7 373 377.7 381.7 385.8 387.5 387 383.8 382.4 380.2 378.3 375.6 371.3 368.1 365 361.8 359.2 357.2 355.1 354.6 355.4 352.7 349.9 345.7 340.6 335.3 330 325.3 323.5 322.3 320.9 319.6 317.7 313.3 311.5 308.2 308.9 311.7 314.6 312.4 310.3 307 302.8 302.6 299 291.4 286.5 285.9 282 275.9 272.4 265.8 259.9 254.8 247.6 239.9 233 227.6 220.6 214 208 201.7 192.8 184.4 177.9 171.4 165.5 159.5 153.7 147.2
230.3 230 229.2 228.2 227.5 226.8 226.1 224.2 222.9 222.1 221.4 221.6 220.3 218.4 217.3 214.9 213.1 211.4 208.9 207.2 205.1 205 204.7 204.2 203 200.2 198.8 198.9 199.4 199.5 199.2 198.5 196.8 198.4 198.2 198.5 199.4 200.4 204.2 212.4 215.9 220.5 224.2 226.9 229.5 231.4 233 234.7 237.1 239.6 242.3 244.6 247 251.7 256 260.4 265.1 270.1 275 278.2 280.2 278 275.6 272.3 268.3 262.8 257.1 255.5 258.9 265.8 269.6 270.9 271.9 270.8 269.9 265.8 261.2 256.6 254.1 252.2 249.6 247.2 245.3 243.5 241.1 239.3 236.1 232.4 230.4 228 225.2 224.1 223.7 222.8 219.9 215.3 210.5 205.7 201.3 197.3 193 189.9 186.6 182.7 180.5 179.6 184 187.5 190.7 193.3 200.3 210.8 221.8 232.9 243.3 254.2 264.8 277.6 292.9 307.4 319.3 329.8 336.9 341.8 345.5 349.2 352.7 356.7 360.1 363.6 368.5 374.8 379 382.3 385.2 384.2 383.1 378.2 375.8 373.6 371.8 369.5 365.5 361.8 358.7 355.7 352.9 351.4 349.6 349.8 351 350 347 344 339.8 335 330.2 326.1 324 322.8 321.7 319.7 315.8 312.3 309.6 308.5 309.7 314.6 312.2 309.5 307 302.6 298.7 298.8 294 287.1 282.4 281.3 277.4 270.1 265.7 260.3 254.5 250.7 243.1 235.1 228 223.5 216 209.5 201.2 191.5 182.7 176 170.3 165 159.2 153.3 147.9 141.9
223.8 223.2 221.8 221.3 221.2 220.6 220.1 219.5 218.8 218.7 219.2 219 218.1 216.1 214.2 212.4 210.6 208.3 205.1 205.1 205.1 205.1 204.8 204.7 203.8 201.2 198.4 197.7 198 197.9 197.7 196.5 195.8 196.1 196.5 197.2 201.4 206.7 208.2 211.5 215.9 220.1 223.9 226.7 229.6 231.6 233.3 235.8 238.3 241.2 244.4 247.1 251.1 255.9 259.8 263.5 268 273.3 277.4 280.3 281 278.7 275.8 272.3 268.6 263 260.2 260.7 263.5 270.3 275.5 278.3 279.9 279.5 278.6 274.8 269 264.3 262.2 260.6 258.4 254.4 251.4 248.5 246 241.7 237.9 234.3 230.9 228.5 225.2 223.6 223.3 223.2 220.6 216.1 210.9 206.6 202.2 197.5 193.3 190.7 188.2 184.1 181.6 178.1 182.1 186.2 189.2 192 197.9 208.7 220 230.8 242.1 253.1 263.6 275.3 291.1 306.1 317 326.1 333.7 338.2 341.4 344.8 348.3 353.1 357.8 362.9 368.2 372.7 376.4 379.4 380.3 379.2 377.8 372.3 367.5 366.7 365.7 363.2 359.7 355.7 352.7 349.9 346.9 344.4 342.2 343.8 346.1 346.4 344.3 341.3 338.1 335 330.2 326.2 323.8 322.1 320.5 317.9 315.2 311.3 308.7 308.9 314.4 313.5 310.2 306.6 302.4 298.4 294.9 294.9 289.2 282.3 275.3 272.6 272 265.3 258.5 253.3 249 245.3 237.9 230.6 222.7 217.8 211.5 201.3 188.4 180.1 174.3 168.9 163.6 158.3 153.5 147.8 140.3 133.2
218.5 217.6 216.9 216.8 216.4 216 215.9 215.9 215.6 215.7 216.4 216.7 215.8 213.5 211.8 210 208.2 205.1 205.1 205.1 205.1 205.1 204.8 204.7 204.2 202.4 198.3 198 196.9 196.8 196.4 195.1 195.1 192.9 194.6 194.6 200 205.2 205.6 209.9 214.8 219 223 226.8 229.7 231.9 234.2 236.9 239.7 242.7 246.1 250 255.4 259.2 262.5 265.3 269.2 273.6 277.1 277.9 277 275.6 274.4 270.8 266.6 262.5 261.7 263.1 267.6 274.7 281.5 285.6 288.7 289.4 287.4 283.6 278.4 272.7 270.5 268.7 266 261.7 258.5 254.8 249.5 244.4 239.3 234.8 230.9 228 224.7 223.1 223 223.6 220.7 216.3 211.6 207.5 202.7 197.9 194.5 191.8 189.3 186.2 180.5 172.7 178.9 184.9 187.1 190.7 195.9 204.9 217.4 228.7 240 251 261.7 273.2 289 303.9 314.4 322.7 330.8 334.1 336.1 338.9 343.5 349.5 354.5 360.2 365.3 369.2 372.3 374.9 374.1 372.6 370.6 366.5 361.8 360.7 358.7 357 353.5 349.6 346.1 343.3 340.1 336.6 332.3 334.5 341.2 344.5 342.6 340.3 337.8 333.9 329.4 324.7 322.4 320.6 318.9 316.9 314.2 308.4 307.5 313.6 314.5 311.5 307 302.6 298.4 293 291.1 289.8 283.3 276.6 269.1 264.4 265.1 259 252.6 247.3 243.2 238.5 232.1 224.6 215.3 207.8 197.6 186.2 179.1 173.6 168 162.5 157 151.3 146.1 138.2 131.5 126.7
213.6 212.9 212.6 212.5 212.2 211.9 212.7 212.8 212.5 212.2 213.5 213.9 213.1 210.9 208.9 207.7 206.5 205.1 205.1 205.1 205.1 205.1 205.2 205.4 204.8 203.5 198.9 199.6 198.6 196 194.6 193.9 193.8 192.6 194.4 197.9 199.4 202.2 204.9 209.7 214.3 218.2 222 226 229.5 232.8 235.7 238.7 241.2 243.9 247.3 251.6 256.5 261.2 264.6 267 269.7 272.1 273.1 273 271.9 270.5 269.7 267.1 263.2 261.2 261.5 264.6 271.5 279.2 287.4 295.1 300.5 299.9 296.5 292.3 286.6 279.4 276.9 275 271.4 268.8 265.9 261.3 254.1 247.3 241.2 235.2 231.1 227.7 224.9 222.9 221.2 221.1 219.7 215.9 211.7 207.6 203.2 198.8 195.7 192.8 190.5 187.3 182.5 173.5 176.9 183.4 185.6 189.4 194.1 202.3 214.6 226.2 237.4 248.3 259.5 271.2 286.5 301.6 311.4 319.8 327.7 330.2 330.8 332.8 338.1 344.4 350.3 355.5 360.4 364.8 367.5 369 367.3 365.5 362.4 360 356.2 353.9 351.5 349.5 347.1 343.4 339.6 336 332.6 327.7 322.7 325.1 335 340.7 339.8 338.4 335.8 331.8 326.1 322.4 320.8 318.9 316.9 315 310.9 306.6 307.2 312.6 310.8 307.5 303.3 299.5 294 287.7 286.3 284.6 277.1 269.7 261.5 256.4 250.7 247.3 244.7 239.2 234.8 230.3 225.9 214.9 203.9 192.4 183.7 177 171.6 166.6 160.7 154.6 149.3 141.9 134.6 128.9 124.4 120.6
208.4 208.4 208.3 208.2 208.1 207.9 208.7 208.9 208.5 209.5 210.3 210.2 209.5 207.8 206.3 204.5 205.1 205.9 205.5 205.5 206.4 206 205.9 207 205.8 203.8 202.1 199.6 199 198.1 196.3 194.2 192.8 191.5 192.8 197.8 199 201.7 204.7 208.8 213.6 217.6 221.7 226 230.4 233.7 237.3 240.3 242.8 245.6 249 253.2 257.1 261.3 265.6 269.2 271.3 272.3 271 269.4 268.7 267.4 265.5 263.3 261.4 261.1 263 269 275.7 283.3 294.2 304.4 309.1 308.4 304.3 298.1 290.8 283.5 282 280.8 277.8 275.3 271.4 265.3 258.1 250.2 243.1 236.7 231.8 227.8 225.6 223.6 221.3 219.2 217.8 215.2 211.5 207.7 203.8 199.8 196.8 193.5 190.8 187.6 183.9 175.1 172.2 182.4 184.3 187.8 192.9 200.5 211.1 222.8 234.3 245.6 257.3 269.2 283.8 298.1 308.3 317.3 324.2 325.6 324.8 326.3 332.5 339.1 344.8 349.3 354.3 358.2 360.8 361.7 360.1 356.9 354.1 351.5 348.6 346.2 344.5 342.4 340 337 333.2 329.2 324.7 320.8 316.9 318.7 329.2 335.7 335.9 335.2 332.9 327.9 322.1 319 318.5 316.2 313.8 311.6 306.8 304.3 307.3 310.1 307.5 304.1 300.8 295.7 290 283.4 280.1 279 271.9 264.6 257.3 248.6 242.3 237 230.7 229.1 226.2 222.6 208.8 194.6 184.1 179.1 172.8 167 161.8 156.1 150.7 144.8 138.4 131.3 125.5 121.6 118.3 114.4
204 204 203.9 203.9 203.8 203.9 204 204.1 204.3 205.3 205.9 205.9 205.2 203.7 202.8 203 203.5 203.9 204.6 205.4 206.7 207.1 207.3 207.5 207.1 204.7 204.2 202.9 200.7 199.8 196.8 194.4 193.5 191.5 192.7 196 197.4 199.9 203 207.3 212.8 218.3 222.5 227.3 231.7 235.2 239.5 242.5 245.2 248.1 251.1 253.4 256.6 259.8 263.7 267.8 270.4 269.4 268.5 267.3 266.6 265 263.4 261.3 260 262.1 267 273.8 280.4 288.1 300.1 309.2 313.1 312 308 301.2 293.5 286.3 284.2 283.2 280.2 276.5 272.4 266.7 259.9 252.5 245.2 238.6 233.8 229.5 225.6 223.1 221.2 218.7 216.2 213.8 211.3 208.3 204.2 200.7 197.6 194.1 191 187.8 184.4 176.5 167.5 179.6 183.3 186.6 191.3 197.6 207.5 219.1 230.9 242.2 254.6 267.1 280.1 294.3 304.6 313.9 320.1 320.4 317.3 318.6 325.9 331.4 337.5 342.9 346.9 349.7 351.9 351.4 351 348.6 345.9 343.2 340.1 336.6 334.5 333.9 332.1 328.9 325.8 321.8 317.6 315.1 312.2 315.5 323.5 330.2 332.2 331.4 328.6 323.4 317.4 315.7 316 313.4 310.3 307.7 302.6 301.5 307.7 307.4 304.4 299.8 296.4 291.5 285.8 278.8 275 273.5 267.6 260 252.8 245.2 238.1 228.8 222.1 214.4 208.1 198.2 184.9 177.7 172.5 166.5 161.8 157.3 151.8 145.7 140.4 134.2 128.7 122.8 118.5 115.1 112.2 109.3
199.1 198.9 198.7 198.7 198.7 198.9 199.2 199.3 199.4 200.2 200.5 200.6 199.9 198.2 199.2 200.5 201.7 202.4 204.3 205.6 206.5 207.2 208.4 208.8 207.2 206.5 205.8 205 203.8 200.4 197.3 194.6 193.4 192.1 191.1 195.2 195.2 197.1 201.5 206.3 211.4 217.6 223.4 227.9 232.4 236.7 241.3 244.5 247.6 250.8 253.1 255.4 256.4 257.8 259.4 262.4 264 264.1 263.9 264.2 264 263 261.2 259.4 259.8 263.7 270.5 278.1 285.3 293.6 305.2 312.6 314.9 313.6 308.5 302.6 296.1 290.2 285.6 283 279.6 275.5 271.5 266.7 260.7 254 246.8 240 233.7 229.1 224.6 221.8 220.3 219.4 218.1 215.2 212.2 208.7 204.8 201.6 198.4 194.7 190.9 187.3 183.9 177.3 167.2 176.4 182.2 185.6 191 196 205.4 216.4 228.1 239 251.4 263.9 276.7 289.8 298.9 307.9 313.7 314 310.4 311.3 316.7 321.6 330 335.4 338 339.9 340.6 340.7 341.3 339.9 337.2 334.2 330.9 326.6 322.5 321 319.4 317.1 315.3 313 310 308.2 307.4 312.3 318.1 324.6 327.3 326.7 323.2 318 313.1 312.1 312.5 310.1 307.2 303.5 298.7 298.8 304.2 304.1 300 295.8 292.4 287.1 281.2 273.7 266.1 263 261.2 255.4 247.7 240.4 230.2 218.4 208.2 198.3 186.4 179.6 175.3 170.8 165.5 159.6 153.9 147.7 143.2 136.3 130.5 125.7 121.6 116.9 113.6 110.4 107.3 104.9
193.4 193.7 193.6 193.4 193.3 193.3 193.4 193.9 193.8 194.2 193.8 193.3 193.4 194.1 195.3 197.2 199.5 198.9 201.8 203.8 205 206 207.8 208.4 208.1 207 206.1 204.5 203.9 201.9 199 196.6 195.6 192.5 186.7 192.4 192.9 195.4 199.4 204.6 210.8 217.7 223.8 228.7 233.7 238.1 242.4 246.4 250.5 253.6 255.1 255.7 256.5 256.6 256.4 256.9 257.9 258.5 259.1 259.8 260 259.7 258.2 257.8 260.4 265.7 272.9 282.1 290.7 301.7 311.9 316 316.2 314.2 309.3 303.2 297.4 291.2 284.9 281.7 278.1 274.3 270.4 266 260.3 254.2 247.9 240.3 232.6 225.1 221.2 218.9 219.3 218.7 217.5 215.8 212.8 209.1 205.4 201.5 197.6 193.6 189.7 186.2 182.4 173.8 165.3 177.4 181.1 184.2 189.5 195.6 203.4 214.4 225.3 236 247.1 259.1 272 284.1 293.2 300.4 305.4 306.6 303.6 304.8 309.8 314.3 322 327.4 329.8 331.2 332.3 331.4 331.5 331.6 328.7 324.9 321.2 317 312.6 308.7 306.3 304.2 302.4 301 299.6 298.8 302.3 308 313.4 319.5 322.4 321.5 317.8 312.9 309.5 308.4 307.8 305.4 302.8 299.5 294.8 294.7 300.1 300.1 296.3 292 287.5 282.4 276.3 268.3 260.6 253.4 247.6 241.9 235.5 230 217.7 208.3 199.1 190.3 179.8 173.8 169 164.2 158.6 152.6 146.3 139.7 134 128.7 124.1 119.4 115.7 112.3 108.9 105.6 102.8 101.6
187.6 188 187.7 186.8 186.9 187.3 187.5 188.4 188.5 188.3 188.4 188 188.7 189.9 191.5 193.5 196 197.6 199.3 201.1 202 203.8 205.3 206.4 206.7 206.3 205.1 203.5 203 200.5 199.5 196.4 195.3 195 182.4 186.2 187.6 194.9 198.4 203.6 210.4 217.4 223.8 229.5 235.1 239.9 245.2 250.1 254.1 255.5 256.5 256.6 256.1 255.6 254.6 254.3 254.5 255.1 255.6 256.3 256.6 256.3 256.3 257.6 262.3 269 276.1 285 295 307.2 317.1 319 314.8 311.5 308.1 303.2 296.3 289.4 282.3 278.7 276 272.5 268.8 264.7 259.2 253.1 246.4 239 229.6 220.9 216.1 214.9 215.7 214.3 213.6 213.8 212 207.4 202.9 198.8 195.1 191.2 187.5 183.9 180.7 170.2 163.4 176.4 180.6 183.3 189.6 195.6 202.2 212.1 222.8 232.9 243.1 254.3 266.7 279.4 287 291.7 295.4 297.6 296.8 298.6 303.7 307.3 313 317.9 320.7 322.6 324.3 323.9 324.1 325 322.3 317.5 312.9 308.9 305 301.1 296.6 292.7 289.6 288.4 288.4 290.3 296.5 302.5 308.7 314.8 317.1 315.9 313 308.7 305.7 303.3 302 299.5 297.3 295.2 290.7 289.7 291 293.8 291.3 286.2 280.3 275.7 269 262.2 254.5 246.7 238.4 230.8 223.7 216.5 209.5 201.1 192.5 183.5 174.5 168.8 162.2 156.1 149.8 143.6 136.4 130.5 124.9 120.3 117.8 114.6 111.3 107.9 104.4 100.9 98.2 97.2
181.8 181.4 180 179.8 180.8 181.3 181.8 182.6 183.3 184.4 184.3 184.8 185.5 186.5 188.3 190.6 192.9 195.6 197.6 197.4 199.3 201 202.8 203.6 204.3 203.5 203.3 201.8 200.7 198.9 197.8 195.9 194.8 194.8 193.6 180.4 184.9 194.1 197.4 202.5 209.5 216.8 224.2 230.7 236.6 242.8 248.8 254.8 257.8 258 257.7 256.7 255.7 254.2 253.3 253.2 253.5 253.7 253.6 254.1 254 254 254.9 258.3 264.6 271.7 278.5 286.7 296.9 310 321.1 324 319.1 309.9 305.5 300.6 293.7 285.3 277.9 275.4 274.1 270.7 266.4 261.5 256.6 251.7 244.8 237.3 227.8 217.7 211.5 211.4 211.4 209.1 209.9 210.8 209.9 204.7 199.5 195.9 192.6 189.4 185.8 181.5 178.3 172.3 160.7 174.6 180.1 183.8 189.6 194.9 201.2 210.5 220.2 230 239.6 249.2 261.5 272.7 280.6 284.4 286.1 286.5 287.7 291 293.8 298.4 302.5 307.9 312.6 312.5 313 315.3 316.2 317.8 316.4 311.5 306.6 302.1 298 294.1 290.2 285.5 281 277.2 276.8 282.8 290.8 296.8 303.8 309.9 312 310.9 308.5 305 301.1 297.8 296 294.2 292.7 290.3 285.7 283.2 282.5 285 283.1 279.1 273.6 268.5 262.1 256.5 249.9 241.7 233.4 225.2 217.4 210.9 203.1 194.9 186.8 179.1 169.4 160.8 153.1 146.1 139.6 132.7 127.1 123 119.1 115.3 112.7 109.8 106.6 102.8 99.6 96.1 94 92.7
174.8 174.1 173.3 173.8 175 176 176.4 177.2 178.7 180.5 180.9 181.6 184.1 184.6 185.2 187.4 190.3 192.4 192.8 196.2 197 197.4 198.6 200.8 201.8 201 200 199.2 198.3 197 195.5 194.9 194.5 194 192 180.7 187.6 192.6 196.4 202 209.2 216.9 225.4 231.9 238.8 247.1 254.6 259.7 261.7 261.5 260.6 258.2 255.7 254.1 253.6 253 252.8 253.1 252.9 252.2 251.8 252.1 254.9 259.3 266 272.6 278.4 286.9 297.3 311.2 320.7 323.5 321.3 312.9 303.5 297.9 289.2 280.1 273.9 271.2 270 267.2 262.8 258 253.1 248.2 242.5 236.6 228.5 216.5 208.2 207 205.9 203.6 204.6 206.3 205.5 201 196.7 194.1 191.1 187.6 183.9 179 175.5 171.2 160.7 169.4 178.9 183.8 189 193.4 199.3 208.5 217.6 226.4 235 244.1 254.6 265.2 272.9 277.1 276.8 276.7 279.6 281.2 282.4 287.4 292.2 297.2 302.5 302.9 304.5 307.8 308.8 308.7 308.5 305.4 300.8 296.4 291.8 287.7 283.9 279.4 274.9 271 270 276.3 284.4 291.1 298.2 305 306.8 306.5 303.8 300 296.1 292.7 291.4 290 288.6 285.3 279.7 277.6 275 275.5 274.4 271.3 267.4 261.1 255.2 250.8 244.8 237.5 229.1 221 212.9 205.8 198.1 190.3 178.1 163.9 157.2 150.6 143.5 135.6 129.2 124.2 119.4 116.8 114.7 111.3 108 104.4 100.8 97.3 95 93.2 92 91
165.9 166.5 168.1 168.9 170.1 171.3 172 172.4 174.1 176.3 177.3 178.6 181.4 182.4 182.2 184.3 187.6 189.4 190.4 191.6 193.7 195 196.6 197.9 197.7 197.6 197.4 196.1 195.7 195 193.4 193.1 193 192.1 183.6 179.8 186.3 190.5 194.8 201.5 209.2 217.6 226.1 234.7 243.6 253.7 261.2 265.6 266.8 265.2 263.4 260.1 256.5 254.5 252 251.2 251.2 251.6 251.2 250.2 249.5 250.5 253.9 259.3 265.7 271.7 278.1 286.8 297.5 310.3 318.5 319.3 317 312.8 303.9 295.1 284.2 272.8 267.7 265.9 264.2 261.5 257.6 253.3 248.2 243.4 238.6 235 229.3 216.4 206.2 202.1 201.4 198.8 196 200.2 201.3 197.9 194.7 192 189 185.4 181.7 176.8 173.5 167.6 155.6 167.5 177 182.5 186.6 190.2 196.3 205.5 214 222.1 229.4 238.4 247.9 257.5 265.1 268.7 267.1 265.4 269.1 273.4 273.9 275.7 280.1 286.4 290 293 296.4 300.3 301.4 299.9 299.3 298.1 295 290.7 286.3 282.4 278.4 273.8 269.2 266.2 266 271 278.4 285.7 292.9 299.8 302.5 301.9 299.3 295.8 292 289.2 287.8 286.4 284.5 279.5 273.3 268 265.8 265.7 264.8 263.8 259.4 253.6 247.6 243.5 240.2 232.9 224.5 217 209.5 199.5 187 172.3 161.3 153.3 145.4 138.4 131.5 126.1 121.1 117.2 114.1 111.9 109.7 106.6 103.3 99.9 96.4 94.4 93 91.8 90.4 89.6
155.4 160 162.6 164.2 165.6 166.7 168 168.4 169.6 171.5 172.8 174.6 177.3 178.4 177.9 180.3 184.1 186.9 188.2 189.4 190.3 192.4 195 196.9 196.1 196.2 196.1 194.1 193 192.5 191.9 191.3 190.5 189.4 183.8 176.6 183.1 188.9 194.3 201 210 218.6 227.2 237.3 250.3 261.2 268.6 271.8 272.9 268.4 265.2 260.2 256.5 253.7 250.7 249.1 249.3 249.1 248.5 247.5 246.1 247.4 251.2 257 263.1 269.6 277.5 286.1 295.8 307 314.6 314.7 312 307.9 300.7 292.4 281.1 269.6 261.9 260.5 257.9 253.4 249.8 245.8 241.7 237.5 233.6 230.3 226.2 217.6 206.2 199.6 197.8 195.3 192.3 193.3 197.1 195.2 192.4 189.6 186.5 183.2 178.9 174.1 170.3 166 152.9 162.4 175.7 179.7 183.6 186.4 192.8 201.6 210.1 217.8 224.5 232.2 241.1 250.4 257.3 260.3 258 254.5 257.9 264 266.2 266.6 270.1 275.1 278.9 283.1 287.1 287.3 288.9 289.1 289.2 289.1 287.3 284.5 280.8 277.1 273.4 268.6 264.2 262.4 262.5 266.5 272.9 280.1 287.1 294.1 297.8 297.2 294.8 291.8 288.6 285.6 284.2 282.3 280.1 274.4 267.6 261.2 253.1 251.3 253 252.2 250.8 246.4 239.5 235.6 232.5 226.8 218.1 206.7 193.2 177.6 165.5 157.8 150.6 141.3 132.9 127.8 122.4 117.5 114.2 112 109.3 106.9 104.3 101.1 97.9 96 94.2 92.9 91.6 90.4 89.4 89.2
147.3 152.7 155.8 157.7 159.5 161.1 162.4 163.7 162.7 165 168.1 169.9 172.4 173.8 173.7 176 179.3 182.4 184.5 185.7 186.8 188.1 190.5 191.4 192.5 194 192.7 191.5 190.1 190.1 189.7 189.5 188 186.1 176.8 173.2 180.8 188.3 194 201.9 210.4 218.9 229 242.8 257.3 269.2 277.6 277.9 275.5 270.1 264.7 259.8 255.9 252.6 249.4 246.9 245.8 244.7 243.3 242.2 241.6 243.4 247.5 253.4 259.8 267.9 276.2 284.6 294.1 303.4 309.7 310.2 307.7 302.6 296.1 287.8 278.3 267.7 258.5 252.7 247.4 242.2 239.8 237.4 234.7 231.5 228.2 224.4 220.3 214.3 204.8 197.2 192.1 189.9 188.4 188.1 191.8 191.5 189.5 187.2 183.8 180.4 177 172.9 169.4 165.1 151.8 154.4 174 177.8 180.7 182.9 188.1 196.7 205.6 213.3 219.3 225.7 233.8 242.2 249.5 252.2 250.9 247.8 248.2 251.1 253.9 257.1 261.6 265.8 268.6 272.9 275.9 276.9 275.2 276.7 278.2 278.4 279 277.6 274.5 271.3 268 262.9 259.8 258.4 258.5 260.9 267 274.3 281.4 287.8 292 291.6 289.2 287.1 285.1 282.2 279.9 278.5 275.2 269 262 254.2 244.8 238.2 241.8 241.6 241.4 236.4 230.8 226.7 223.9 207.3 194.8 181.7 167.2 158.2 153.5 146.2 137.7 130.6 123.4 120.2 114.5 111.7 109.3 107 104.4 101.5 98.8 96.6 95.1 94.1 92.8 91.5 90 88.9 88.1 88.4
143.2 145.9 147.3 148.5 149.9 152.6 154.6 155.1 155.2 157.9 161.6 164.3 167.6 169.2 169.5 170.9 173.8 176.5 178 178.9 180.1 182 184.6 185.8 187.2 188.7 187.4 187.8 188.7 188 187.7 187.7 186.5 182.7 170.5 173.9 181.2 188.3 194.1 201.5 209.5 218.6 231.5 247.3 261.6 270.1 273.7 271.9 268.5 265.5 261.8 258 254.6 250.7 246.9 243.7 241.3 239.4 237.9 236.8 236.3 238.5 242.7 249.4 256.1 264.8 273.7 282.8 291.9 300.6 304.7 303.8 300.5 294.8 288.8 282.1 272.6 264.2 254 243 236.2 230.6 228.4 227.5 226.8 224.5 220.5 216.7 213.1 208 202.9 195.6 189 184.3 182.5 182.3 185.6 187.4 186.2 184.4 180.7 178.5 176.7 173.9 170.1 165.4 157.3 151.3 170.1 174.4 176.7 179.4 184.2 190.9 199.4 207.7 213.8 220.1 226.4 233.9 241.2 244.5 244 242.9 241.8 241.3 241.3 246.2 251.7 255.7 258.2 261.9 265.5 267.9 266.8 266.5 267.2 268.8 269.7 269.3 268 264.8 261.7 257.7 255.3 254 253.5 254.3 259.7 267.6 275.6 282.3 285.1 285.4 283.8 282.2 280.7 278.6 275.7 274.1 270 263.3 255.7 247 238.2 230.4 232.2 228.8 224.8 220.4 211.6 202.3 191.3 179.5 170.2 161.9 154.5 148.8 141.1 133.8 125.5 120.3 115.8 113.1 110.2 107.3 104.8 102.1 99.7 97.6 95.9 95.1 93.8 92.8 91.2 90.7 88.6 88.7 88.8 88.8
140.4 141.7 142.2 141.8 141.4 143.7 145.7 147.4 149.6 152.7 155.9 159.4 162.2 164 164.9 165.9 167.6 170.1 171.5 172.2 174 176.3 178.1 179.9 181.5 182.8 183.6 183.6 184.6 184.2 184.5 185.5 183.8 180.7 169.6 173.4 183.6 189.2 195 199.1 205.8 215.2 228.6 244.1 252.3 257.3 259.6 261.3 258.7 257.5 256.4 253.2 250.7 247.3 243.4 240 237 234.1 232.1 231.1 230.6 233.5 238.8 245.5 253.3 261.3 269.4 277.8 288.3 297.1 299.3 296.8 292.6 286.9 280.5 272.9 264 256.2 247 236.6 227 220.4 216.8 215.6 215.6 215.1 213.2 210.8 207.1 202.8 199.2 194.1 187.9 181.8 177.9 175.7 178.2 181.1 181.9 181.2 179 177.1 175.7 173.6 171.1 166.2 158.9 149.4 166 169.4 172 175 179 183.9 192.1 200.2 207.2 213.3 219.4 225.6 231.9 236.4 237.5 236.8 235.8 235.1 234.4 236.2 241 244.8 247.7 250.9 254.2 257.5 259 257.5 257.9 259.6 261.2 261.9 261.4 258.4 255.2 251.8 249.9 248.7 248.5 249.7 253.6 261.3 269.6 276.9 279.2 279.8 278.7 277.6 275.8 274.2 271.5 267.3 261 253.9 245.9 238 230.5 221.4 222.6 217.3 208.6 198.4 186.6 178.1 172.2 165.2 157.5 149.8 143.2 135.8 129 121.6 117 114.5 111.3 108.6 105.4 102.6 100.1 98.1 96.8 95.7 95.2 93.6 91.7 90.8 90.1 90.4 89.9 89.6 89.6 89.5
138.3 139.1 139.8 139.1 138.1 137.8 139.1 141.6 143.9 146.5 149.3 153.9 156.7 158.6 159.4 159.6 161.3 164.3 165.5 165.5 168.1 170.1 170.7 172.7 175 176.8 177.9 178.8 179.3 180 181.1 181.1 179.2 177.4 166.4 174.1 182.6 187.8 191.9 196.1 203.2 209.6 219.4 229.1 238.5 240.6 243.7 244.5 247 248 248.5 246.1 244.5 241.3 238.6 235.5 232.5 229.4 227.4 225.7 224.7 228 234.6 241.8 249 257 264.9 272.3 282 290.9 292.5 288.8 284 278.3 271.8 263.5 255.7 248 240.3 231 222.6 213.8 207 204.9 205.5 205.7 206.6 204.5 201.5 197.8 194.9 190.7 185.6 180.3 175.8 172.5 172.4 174.7 176.8 177.1 176.1 175.1 174.1 172.6 170.6 167 159.5 150.7 152.7 163.3 166.5 169.4 172.9 177.5 184 192.2 199.6 205.3 210.7 217.2 221.8 225.8 228.3 229.1 229.6 230 229.6 230 231.6 234.1 237.8 241 244.1 246.8 249.4 248.9 249.8 251.5 253.7 254.7 254.4 251.4 248.2 245.4 243.9 243.2 243.2 244.7 248.6 256.2 265.4 271.5 274.5 274.7 273.7 272.9 271 269 265 258 251.4 243.9 236.2 228.6 220.3 210.3 207.7 199.2 187.5 177.9 169.4 162.6 155.9 150 143.6 137 131.1 123.8 119.2 115.1 111.1 109.1 106.4 103.7 101.2 98.3 97.5 96.4 95.5 94.9 93.3 91.6 91.2 91.5 91 91 90.8 90.6 90.6 90.9
136.4 137.8 137.1 136.3 136.3 135.8 136.1 137.2 138.3 140.4 143.1 147.8 151.4 153.2 153.3 153.7 155.7 158.5 159.1 158.5 161.4 162.1 162.3 164.3 166.8 169.9 171.6 173.4 174.1 175.1 176.3 176.7 174.2 172 163.3 173.9 180.9 185.5 187.6 193.1 199.4 203.8 207.2 211.9 217.8 222.9 228.2 231.4 233.7 236.1 237.8 237.6 235.7 234.3 232 229.7 227.2 224.7 222.4 220.5 218.9 223 230 237.2 244.2 251 258.2 265.5 274.1 281.7 283.7 280.5 275.5 269.6 263.3 255.9 248.2 240.4 232.6 225.6 217 208.3 201 196.3 197 198.2 199.6 198.8 196.1 192.5 190.2 186.9 182.3 179.1 174.6 170.9 168.5 170.2 172.5 172.9 173 172.8 172 171.3 169.5 167.1 160.7 152.7 144.7 152.8 160.8 163.3 166.5 170.9 177 184.1 190.4 196.5 201.9 207.2 211.9 214.4 216.8 219.4 221.2 223.4 224.8 225.1 226 226.2 228.7 231.5 234.2 235.9 238.8 239.3 240.8 243.4 245.7 247 246.8 244.4 240.9 237.7 237.7 238.1 238.6 240.8 246.4 254.6 262.4 267.9 269.4 268.9 268.2 267.4 265.1 262.7 256.7 249.5 241.6 234.2 226.5 216.2 205.8 195 184.9 179.4 170.7 163.1 156.3 150.8 144.6 138 131 124.8 120.5 116.3 112.5 109 106.4 104.2 101.4 99.9 98.4 96.7 95.9 95.2 94.3 92.9 93.2 92.7 92.8 92.8 92.4 91.9 91.8 91.8 91.9 92.2
130.6 129.6 132.9 134.5 134.9 134.8 134.6 134.3 134.3 135.1 137.7 144.4 147.8 148.7 148 148.4 150.6 152.8 152.8 153.3 153.9 155.6 156.2 156.7 159.9 163.6 165.5 167.3 169.3 170.3 172.3 171.8 168.6 166.9 162.3 171.1 175.3 177.9 182.9 189.1 195.2 196.3 197.1 201.6 203.6 208.3 213.4 217 221.5 222.7 226 226.7 226.6 225.9 224.8 223.3 221.1 219 217.1 215.8 214.5 218.4 225.4 232.4 238.2 243.9 250.6 257.6 265.2 270.9 273.4 271.4 267.7 262.2 255.7 248.3 241 233.2 225.8 220.1 211.1 201.9 195.4 190.2 188.6 190.7 192.8 193.3 190.7 187.5 185.6 182.9 179.2 177 174.6 170.5 166.3 165.2 167.3 169.1 169.9 170.5 170.4 169.6 167.1 165.4 161.5 155.7 147.6 135.9 152 157.7 159.7 163.7 170.5 176.6 182.3 187 191.4 196.2 201.5 204.7 206.6 209.2 212.7 215.8 217.9 219 218.9 219 220.2 222.5 225.1 226.4 227.9 229.2 230.6 233.5 236.1 237.9 238.2 236.1 231.9 230.2 231 231.9 233.6 238.6 246.1 254.1 258.8 262.6 264 263 262 260 256.4 253.4 247 239.8 231.2 221.7 210.2 199.6 189 181.4 172.4 165.8 158.8 152.8 147.3 140.9 132.6 127.2 121.6 118.1 114.5 111.7 109 105.4 102.1 100.4 99.6 97.9 96.5 95.6 94.6 93.9 94.4 93.8 93.8 94 94.1 93.9 93.6 93.2 93.2 93.2 93.2 93.1
137.8 133.3 127.5 127.4 130.5 133.6 133.4 132.4 132.3 131.9 133.7 138.7 141.7 143.1 143.8 144.9 146 148.5 149.4 149.8 150.6 153.7 155 155.4 157.1 160.1 160.8 162.1 164.4 165.9 167.7 166 163.4 151.8 163.1 168.7 170.8 174 178.6 183.8 188.3 187.6 191 194.8 197 200.3 203 203.6 206.8 210.5 213.9 215.4 216.7 217.3 217.2 216.6 215.2 213.2 211.2 210 209.2 213.3 219.8 226.4 231.5 235.3 242.1 248.8 254.2 259 260.9 260.4 258.3 253.9 246.8 239.2 232.5 225.6 219.4 213.8 205.8 196.4 189.4 184.8 182.6 184.3 186.4 187.2 184.9 182.8 181.4 178.8 176.3 174 171.8 168.7 165.9 162.9 162.1 165.3 167.7 168.8 168.9 167 164.9 163.4 160 156 151.6 143.7 136.6 152.4 153.6 158.1 162.8 168.5 173.6 178 182.2 186.3 190.5 195.2 197.7 200.8 204.2 207 208.8 210.6 211.1 211.9 212.8 214.8 216.8 218 218.6 219.5 221.1 222 224.8 227 227.7 226.4 223.6 223.6 224.4 225.3 230.5 237.8 245.7 252.4 255.7 257.2 258.2 257.7 256.3 252.1 247.5 241.7 234.3 225.7 215.3 205.2 194.9 186.2 178.1 170.8 162.9 151.2 150.2 143.4 136.5 130.6 123.6 120 116.3 113.8 111 108.2 105.3 102.3 99.9 98.4 97.1 96.3 95.2 94.4 96 95.5 95 95.2 95.4 95.4 95.2 94.9 94.7 94.4 94.5 94.7 94.3 93.9
142.1 138.4 135 131.9 129.6 126.7 126.2 132.3 132.4 131 130.8 128.6 127.3 122.2 132.2 136.5 141.3 144.9 146.2 146.4 149.1 152.9 154.6 153.7 154.1 156 156 156.7 158.3 159.9 161.1 160.4 146.7 149.2 159.8 164.5 166.7 170.9 174.1 177.6 179.5 180.7 183.9 186.8 190 193.1 192.6 192.8 198.8 202.3 202.9 205.4 207.7 208.6 209.2 209.1 208.8 207.8 205.8 204.9 204.8 207.7 214 220 224.6 227.6 231.1 237.4 242.3 246.2 248 247.4 245.2 241.3 235.5 229.1 222.7 216.3 210.6 205.1 198.6 191 184.3 179.7 177.5 178.3 180.4 181.1 179.2 178.4 177.1 175.5 173.4 171.2 168.9 166.3 163.7 161.1 159.1 161.5 164 166.1 166.1 164 162.4 161.2 158.8 155.9 151.5 145.7 138.1 144.6 147.2 151.9 154.5 159.9 164.8 168.3 173.3 176.7 180.7 185.7 190.6 194 196.5 198.5 200.3 202 203.3 204.4 205.5 206.7 208.3 208.7 208.5 209.4 211 211.8 213.1 215 216.7 216.7 216.2 216.2 217.5 220.9 228.7 236.9 243 248.8 251.1 252.2 252.8 252.5 250 245.2 237.3 229.5 220.3 210.9 202.3 193.7 185.5 176.7 168.3 159.7 150 140.4 136.1 133.2 127.6 123.2 119.6 115.7 111.4 108.6 106.7 104.9 102.4 100.3 98.5 97.3 95.4 94.7 95.2 96.2 96.2 96.3 96.4 96.6 96.7 96.4 96.1 95.8 95.6 95.4 96 95.7 94.7 94.1
148 146.1 143.7 141 136.1 130.5 128 124.3 131.9 130.8 128.2 127.1 120.8 124.2 121.4 118.6 123.2 125.4 129.3 140.1 145.4 151.4 154.1 154.8 151.9 152 151.7 151.8 153.9 155 156.1 153.8 137.5 146.4 155.6 160.1 163.3 167.2 170.4 173.6 174.2 173.6 175.6 178.1 181.4 183.9 183.3 186.4 191.7 192.7 194.5 197 198.7 200.1 201 201.6 201.7 202 201.5 200.8 201 202.5 207 212.2 216.3 219.5 222.8 226.9 230.5 234.6 235.5 234.2 231.7 228 223.2 217.3 211.5 205 199.7 194.4 188.9 183.6 178.4 174.4 172.2 172.3 174.4 174.5 174.1 173.8 173.2 171.5 169.8 167.6 165.7 163.6 161.6 159.3 157.4 157.5 160.5 162.2 163.1 161.2 159.7 158.2 156.3 155.1 151.6 147.5 141.9 132.4 136.9 145.3 148.7 152.7 156 159.1 164.3 167.6 170.9 175.7 180.5 183.9 187 189.2 191.3 193.3 195.1 196.8 198.2 199.2 199.4 199.4 199 199.4 200.8 202 203 204.6 205.8 206.8 207.9 208.4 210.3 217.4 226.8 234.5 240.3 244.8 246.6 247.6 248.1 246.4 242.3 234.8 226.6 218.6 210.3 202.3 193.4 183.3 173.3 163.8 155.8 148.2 140.4 130.6 125.9 123.7 120.1 117.1 114.1 111.1 106.5 104.2 102 101.4 99.7 97.7 96.6 95.4 95.6 95.7 96.2 97 97.3 97.5 97.7 97.7 97.7 97.4 97 96.7 96.5 96.6 96.6 95.6 94.6 93.5
