ncols 200
nrows 82
xllcorner 260000
yllcorner 323050
cellsize 50
44.6 58 46.7 69.6 79.5 78.8 78.1 81.4 91 95.6 101 101.9 102.6 98.2 90.8 87.7 87.1 88.7 89.7 92.4 98.8 114.2 125.5 134.4 132 139.6 131.8 129.6 130 132.9 146.5 145.5 151.3 167.8 171.3 178.6 184.1 182.7 176.8 173.5 172.9 173.6 169.1 163.3 160.6 154.9 159.8 167.9 175.2 173.1 173.5 179.5 191.7 201.5 223.2 236.3 245.9 255.9 273.6 276.4 298.5 311.3 338 374.4 391 390.4 387 382.5 367.7 344.3 320.2 305.9 288.4 270.4 259.8 257 248.9 244.6 237 227.4 220.6 213.1 208 201.6 203.8 201.1 199.7 196.7 201.8 205.3 206.9 208.5 210 213.4 215.9 219.4 225.4 233.2 238.8 249.9 253.3 256.3 262.1 269.4 271.7 279.9 287.5 303.1 320 343.6 361.3 380.2 399.7 416.1 431.9 444.1 453.7 461.1 477.5 488.6 486.4 488.7 497 514.6 512.6 544.9 593.7 621.4 651.7 677.1 692 693.6 679.2 658.4 641.4 621.4 595.6 576.5 561.4 541.1 521.5 506.1 499.8 492.9 479.5 470.1 467.8 463.3 458.1 448 426.3 417 411.9 406.4 402.5 398.9 398.3 396 395.5 398 395.8 397.1 401.8 403.5 404.4 399.7 385.8 377.2 363.5 345.8 330.1 320 315 309.8 304.6 303 303.4 303.9 303.3 305 308.2 311.6 315.2 318 320.6 327.6 337.7 350.7 360.1 368.2 364.3 365.4 366 368.2 368.3 367.5 370.2 371.6 361.5 348.9
63.6 66.9 62.4 73.9 83.7 84 81.4 85.5 93.3 95.3 98.3 95.6 90.5 84.8 84.5 85.1 86.3 87.5 89.5 92.9 99.7 111.7 124.1 131.1 132.7 142.4 135.1 129.5 129.5 128.7 130.5 136.4 149.4 161.2 169.3 173.4 177 171.4 164.7 164.3 162.9 163.3 157.6 153.3 153.7 150.9 154 163.4 170.6 165.9 168.1 174.6 193.2 192.6 198.1 223.1 249.4 250.6 264.1 271.5 289.5 315 354.1 378.9 382.2 378.6 374.2 369.2 356.3 332.7 308 289.7 276 262 253.5 250.7 241.2 236.3 229.7 222.7 215.1 205.7 198.7 196 199.1 198.4 194.9 195 198.9 205.8 206.3 207.4 209.4 212.7 221.9 230.1 240.3 247.7 255.4 260.2 262.4 266.7 270.9 281.4 290 295.5 305.8 320.3 335.6 350.1 371.5 382.5 398.6 415.1 435.8 441.2 449.7 464.5 478.9 503.4 496.4 495.2 498 501.1 512.7 549.4 588.2 621.8 660.2 690.8 703.5 689.6 674.4 650.2 635.3 618.4 597.7 581.1 565 549.6 528.4 515 508.7 497 483.3 478.5 472.9 467.3 458.1 446.9 431.3 420.4 415.7 409.6 404.8 401.6 397.9 396.8 398.9 399.3 397.3 397.6 401.4 404.1 402.3 399.4 387 373.2 363.2 347.3 332 321.5 316.6 311.6 307.3 304.9 304.3 305.7 306 307.6 311 314.4 317.3 319.7 325.7 332.3 341.6 355.9 368.5 373.3 368.6 370.2 376.2 375.1 374.6 369.2 371.7 372.2 369.7 356.3
69.5 70.3 74.9 55.5 87.9 87.2 84.9 93.1 94.9 92.8 86.1 80.2 81.8 80.6 81.3 83.8 85.1 86.7 91.8 101.3 102.7 107.7 121.4 134.7 136 139.4 131.9 129.2 129 128.8 128.8 133.3 153.8 157.7 161.4 161.3 163.5 164.9 157.1 156.5 153 148.9 148.2 148.5 152 150 152.8 153.6 159.9 161 162.9 169.4 185.8 187.6 181.3 208.1 224.8 240.7 261.7 270.8 290.8 322.7 351.8 373.3 370.7 369.2 365 360.4 345.9 326.4 305.3 285.2 269 257.1 247.8 242 234.5 230.7 223.6 217.7 210.6 201.7 194.5 190.8 193.1 194.4 192.7 191.3 193.2 200.7 204.8 207.6 214.4 223.3 223.9 235.7 249.8 254.2 262.4 266.3 273.4 279.8 292.9 297 308.6 316.8 321 333.8 348.7 364.7 376 387.5 396.7 414.1 430.8 439.7 451.8 469.9 482.2 510.4 518.2 505.2 504.2 501.9 509.2 543.4 582.6 620.5 669 709.1 703.3 681.6 665.4 652.7 632.8 616.2 596.2 579.9 569 553.4 534.1 520.9 516 503.2 490 483.4 477.7 470.5 459.8 451.9 432.7 426.1 420 412.6 407 400.3 398.4 397.2 396.6 398.4 398.6 398.1 401.2 403.4 402.9 397.4 384.8 374.3 363.8 349.7 335.7 325.4 320.2 314.1 310.2 308 306.5 307.6 308.7 310.7 312.9 316.3 319.3 321.1 331.7 337.2 349 364.4 371.8 374.4 371.1 379.6 381.6 380.2 381.3 377 378.2 376.1 370.8 361.1
73.7 78.5 85.5 52.7 86.9 88.8 87.2 94.7 91.8 83 78.1 80.5 80.7 79.9 80.7 81.4 84.5 87.4 100.3 111.8 110.1 113.2 120.5 132.3 138.1 141.5 130.5 129 128.9 128.8 128.7 134.5 148.7 148.1 149.8 152.6 155.3 158.3 156.6 151.8 147.8 143.5 143.5 145.5 152.1 146.3 149.2 146.2 151.3 158.2 160.9 169.6 165.6 170.3 171.5 187.2 212.6 236.8 269.3 279.1 304.5 326.6 348.9 362 358.1 351.2 356.7 348.8 338.6 323 302.5 282.3 263.9 253.8 242.9 233.8 228.1 223.7 218.4 212 204.2 199.2 189 186.5 189.7 190.1 189.9 189.7 192.1 197.6 202.8 208.3 214.6 220.2 233.8 243.9 259.5 263.3 270.8 278 283 300.8 307.8 312.1 316.8 329.8 340.9 351 356.8 366.1 380.1 390.7 402 416.1 425.2 440.5 458.8 472.8 488.7 508 523.7 514.4 507.1 505 515.6 542 578.2 615 671.7 704.9 687.4 672.8 661.8 649.8 627.3 613.4 593.1 577.5 570.4 551.3 540.1 527.1 515.4 506.2 495.4 487.6 481.6 472.3 464.2 451.7 435.6 428.6 420.6 413.7 407 400 398.6 397.3 395.9 397.8 399.6 398.6 397.9 402.6 402.5 400 386.3 375.9 364.9 351.6 339 328 322.3 317 312.9 310.7 308.4 310.9 312.3 313.8 316.7 319 322.7 327.8 334.9 341.3 356.8 368.2 372.4 378 382.6 385.7 387.1 384.9 384.1 383.6 382.9 380.7 373.5 368
79.6 82 92.5 65.8 80.2 84.6 86.4 90.7 77.8 73.3 85.1 84.7 82.3 80.8 81.8 81.9 84.9 92 108 116 119 116.4 121.8 135.4 140.4 136.6 129.5 129 128.8 128.7 128.6 129.3 139.6 139.7 140.6 145 153 153.6 151.1 149.5 146.5 140.5 140.4 146.7 148.2 142.8 142.9 139.5 139.8 153.9 151.1 159.3 160.2 156.1 166.2 179.6 208 251.3 273 305.7 320.9 330.7 339.5 345.1 342.5 336.4 336.2 332.6 323.3 314.6 298.5 277.8 258.8 247.3 236.5 228.8 221.6 216.9 212.7 204.7 197.9 192.7 183.6 182.7 185.1 187.2 188.4 187.8 189.9 194.7 202.5 207 218.6 227.8 238.2 252.5 263 273.7 284.7 290.7 298 302.9 316.3 330.9 335.9 346.4 351.9 356.9 358.4 369.1 377.9 389.8 404.2 418.5 421.7 442.4 453.6 466.4 488.4 504.5 523.2 533 516.1 515.4 520.5 541.5 574.5 605.1 657.3 668.8 666 665.9 664 641.6 630.2 606.5 590.4 576.8 566.3 546.8 540.8 525.4 515.8 504.2 500.6 489.1 482.7 472.9 465.1 450.1 438.3 427.7 419.9 412 407.4 399.8 398.5 397.2 396.1 395.4 399 398.7 396.9 399.6 401.6 392.6 386.2 376.9 364.3 351.9 341.3 332.2 324.6 318.6 315.6 313.5 311.9 312.5 314.9 317.3 320.3 323.5 328.1 334.3 341.8 347.9 361.2 368.8 373 383.3 394.4 394.3 393.2 391 388.9 392.9 391.3 386.3 380.2 377.3
83.6 87.7 89 81.5 61.6 70.1 70.1 72.6 71.5 85.9 93 91.5 84.8 82.2 83.5 84.3 85.1 99.1 113.2 127.8 118.6 119.9 128.5 134.5 136.2 139.3 131.4 129 128.8 128.6 127.8 128.6 133.6 133.3 133.9 138.4 142.7 145 140 142.7 139.4 139 138.7 144.9 143.2 138.9 138.1 137.8 138.1 144.2 143.5 145.2 147.5 145.8 159.1 175.5 202.2 253.1 280.1 293.4 320.5 329.3 331.5 330.9 329.2 320.2 314 309.7 308.1 297.3 284.5 267.1 249.5 240.7 227.1 219.8 214.1 209.8 206 198.8 189.6 184.9 181.7 182.2 185.3 186.3 185.9 184.3 190.1 194.6 200 207.9 222.9 238.2 245.5 256.2 265.7 282.9 290.1 294.9 308.6 311.1 322.3 333.8 345.7 353.4 359.2 359.6 363 371.5 379.4 388.1 401.6 416.6 420.5 440.9 449.3 466.4 479 504.1 516.8 530.6 533 522.8 538.9 543.7 564.7 587 617.1 624.9 647 659.3 660.3 629.6 613 602.7 585.9 571 558.8 540.6 532.6 523.4 510.8 502.2 499.4 488.5 481 473.6 462.6 451.3 436.8 424.2 417.5 410 406.5 399.6 398.3 397.2 396.1 395.5 396.7 399.4 396.7 396 395.6 394.1 389.4 379.2 366.3 353.5 345.3 337.5 328.7 321.3 318.4 316 314.4 313.6 317.3 320.9 323.8 328.5 334.2 341.5 348.2 356 366 372.3 376.4 389.2 404.8 405.9 399.9 402.6 400 397.3 395.6 393.2 395.1 379.6
82.8 85.5 88.6 89.5 85.2 71.6 70.1 70.1 85.9 94.9 99.7 94 90.2 83.5 84.5 85 86.5 107.4 122.3 124.5 118.4 125.7 135.3 130.5 134.9 139.6 132.3 128.6 128 128 130.2 130.2 131 131.9 133.9 137.2 138.2 137.1 137.9 138.3 137.9 138 141 138.8 138.5 137.8 137.7 137.1 137.1 137.8 138.5 139 138.4 140 150 171.4 197.6 244.1 272.5 300.7 316.5 323 322.7 315.6 309.5 305 297.9 292.7 287.1 278.9 268.2 254.8 243.3 231.7 219.1 211.2 205.7 202.5 199.3 191.9 184 179 179.8 181 182.7 184.4 183.7 186.4 190.1 194.5 201 210.8 225.8 237.1 248.8 260.7 266.9 283.2 295.2 303.5 313.1 320.4 328.5 339.3 354.2 361.7 365.8 365.9 368.6 379.1 389.3 395 403.6 413.3 423.6 436.2 444 459.9 480.1 501.6 513.5 524 539.9 543.5 532.5 542.3 548.7 558.7 573.7 594.2 614.6 636.8 632.6 619.6 598.5 585 572.1 555 541.3 527.3 526.7 514.3 507.4 498.8 494.2 484 476.4 471.7 462.5 454.2 433.2 420.8 414.1 407.4 404.4 398.8 398 397.1 396.6 395.9 399.3 398.2 396.3 395.3 395.2 395.1 392.9 381 369.4 357.3 348.7 342 333.1 324 321.3 319.6 319.5 319.5 321.5 326.9 332 337.1 342.2 348.7 354 361.5 367.5 373.9 383.9 400.9 407.8 407.9 411.3 410.6 406.9 404.4 401.3 401.4 395.7 387.7
80.3 84.4 91.6 94.6 89.6 83.8 78.2 85.7 91.1 100.6 104.2 97.6 94.7 87.6 84.8 85.3 90.2 110.9 120.5 116 121.4 125.8 133.2 130.4 132.8 134.3 129.2 129 128.5 131.4 134.1 133.2 132.6 132.1 133.2 135 136.6 136.5 136.8 137.5 137.9 137.8 138.2 137.2 137.8 137.8 137.6 137 136.2 136.9 137.1 137.7 138 140 153.3 171.8 201.6 234.8 264.3 294.3 309.7 311.9 310.5 304.5 296.4 291.8 284.3 279.9 268.7 260.3 249 239.9 231.8 222.6 211 203 194.4 189.3 187.8 183.4 178 178.4 178.7 180 181.8 182.1 183 185.5 189.9 195 202 212.2 224.1 242.3 253.1 262.9 275.7 291.4 302.1 308.1 314.1 321.3 329.9 347.5 374.5 386.4 375.6 376.5 377.9 384.7 393.5 406.3 411.5 411.9 424.2 432.8 444.2 461.4 480.6 499.6 516.1 531.3 545.5 554.5 533 534.1 533 533.8 543.7 563.6 585.3 609.6 608.8 596.5 579.4 562 551 538 526.3 514.4 510.9 504.1 494.8 490.7 483.9 479.9 470.3 469.3 460.8 451.6 429.1 417.4 410.9 404.4 401.3 397.2 396.2 395.9 396.6 396.1 395.9 396.1 395.9 394.7 397 398.4 394 384.5 373.6 362.4 353 345.1 338.4 331.4 326.7 325.8 327.1 327.6 332.1 337.5 343.3 346.9 352.6 358.2 362.3 367 371.1 379.7 394 408.7 415.3 418.4 421.1 414.9 412.8 409 406.9 403.2 396.4 388.5
88 89.5 89.7 91.2 90.8 91 93 93.4 95.6 103.8 107.2 101.3 97 98.4 91.9 88.5 101.6 115.7 121.1 115.4 122.7 125.8 133.2 126.8 128.6 127.7 127.1 128.9 129 133.2 135.6 135.3 134 133.9 133.8 135.6 136.6 136.6 137.2 137.6 137.7 137 136.4 136.3 137.2 136.2 136.9 137.2 136.7 137.5 137.9 138 137.9 139.2 152 174 201.3 231.4 254.2 276.8 297.2 298.9 299.9 298.4 292.5 287.5 279.2 269.6 261 248.8 235.1 226.2 222.6 214.6 202 189.7 184.9 179.6 180.9 176.7 176.4 177.1 177.8 179.1 180.9 181.2 181.9 185.7 189.6 193.5 203.6 212.5 226.9 243.3 257.1 267.8 280.6 293.2 299.1 308.6 314.9 319.1 329.3 350.7 374.4 388 392.8 391.9 396.3 402.7 405 414.2 416.4 427.7 434.1 431.3 451.7 464 477.7 499.7 516.9 531.6 546.8 544.8 533 533 533 533 533 536.9 562.1 582.6 585.4 570.4 555.3 535.3 523 514.8 501.1 496.6 497.9 486 480.1 478.4 472.2 464.3 469.7 465 449 437.9 421.9 414.6 406.9 402 398 394.8 394.1 394.8 395.8 395.8 396.7 396.2 396.3 395 397.2 394.6 391.9 385.3 379.1 369.5 358.9 352.1 343.6 338.8 335.1 335.5 338.1 342 346 352.2 357.9 362.9 366.6 368.7 370.6 373.8 379.4 387.7 400.8 411 423.2 429.5 427.3 422.6 415.2 411.9 406.8 401.9 393.1 389.5
95.8 97.7 95.1 95.1 94.9 95.2 96.4 97.3 98.8 103.6 104.2 105.1 101 103.6 99.8 93.9 111.5 110.7 116.9 115.5 119.5 125.6 125.8 125.3 125.8 128 128.4 128.3 129.1 132.9 135.8 134.8 135.6 135.3 135.7 138 140.7 137.5 137.1 137.2 137.5 138 136.3 136.6 137.4 136.7 137.5 138.1 137.6 138.2 137.7 138.2 137.8 151.8 159.5 172.9 200.1 224 250.7 262.7 284.2 292 288.9 290.3 283.2 278.3 267.8 259 248.6 236.8 227.9 218.7 212.4 204.9 192.9 179.9 176 175.2 176.1 174.8 175.4 175.9 177.7 178.6 179.7 179.6 180.9 184.9 190.9 197.8 214 225.5 233.9 248.4 257.7 269 283.3 291.8 301.1 308.8 317.6 322.7 335.1 346.2 369.8 404.3 414.9 407.3 408.1 410.9 417.2 420.8 423.1 431.6 439 448.6 451.3 469.5 479.5 491.2 505.9 528.1 536.2 542.9 534.6 533 533 533 533 533 563.6 572.3 574.5 553 532 512.6 497.4 489.4 481.4 481.4 481.9 469.7 467.2 463.5 458.8 453.8 460 457.9 439.3 425.6 414.2 409.1 403 398.9 394.8 392.7 392.2 392.9 396.8 395 396 396.3 398.7 394.8 388.1 390.4 391 385.6 380.2 375.2 367.7 359.1 350.3 347.4 346.8 348.1 353.2 356.9 363.1 367.7 371.3 374.5 377 377.7 379.5 378.6 383.2 395.2 403.7 418.1 433.5 437.8 432.2 424.7 419.9 417 410.7 404.5 398 389
104.6 104.4 107.8 102.4 101.8 103.7 103.3 104.7 107.1 107.8 106.2 107.6 106.7 105 101.5 99.6 114.3 110.6 114 115.1 119.7 123.8 125.9 126.7 126.4 129.4 129.5 129.4 130.1 133 134.6 136.5 142.1 140.5 138.6 142.2 141.6 138.5 138 137.8 138 137.3 136.9 137.3 137.8 137.7 137.5 137.7 138.5 137.8 138.1 139 140.6 152.2 167.7 177.3 190.1 222 238.4 265.9 278.3 283.1 282.3 275 267 263.4 255.6 246.7 235.9 226.1 221.4 212.6 201.6 193.1 181.9 176.6 174.3 173.6 173.3 174.2 174.9 175.1 176.5 177.2 177.5 177.9 179.7 182.7 191.5 206 216 228.4 243.8 252.9 263.6 275.9 286.7 294.2 299.9 306.6 317.1 328.4 342.7 355.5 376.3 410 427.6 427.1 417.5 415.5 425.5 431.1 432.3 440.4 444.5 450.3 464.5 467.3 474.5 482 494.2 507.4 522.9 532.2 538.7 533 533 533 533 533 563.8 567.7 569.3 536.2 511.1 488.4 472.2 467.8 464.6 464.4 464.9 460.4 457.7 451.3 445.2 448.1 450.9 446.4 429.4 415.3 407.8 403.4 400.1 396.3 393.4 391.2 391.3 392.3 399.1 395.2 395.6 396.5 399.5 399.5 383.2 384 391.3 385.7 381 377.7 375.1 365.7 359.1 358.3 359.4 362.3 365 369.5 374.2 376.6 378.9 382.3 384.5 386 383.2 385.3 390.6 395.9 409.5 427.5 432.4 443.4 433.8 432.1 429.3 420.6 412.2 406.8 402.5 391.5
111.9 111.1 111.9 107.9 107.9 106.8 105.1 108.9 110.8 111 112.2 110.6 109.2 106.3 103.5 105.8 115.6 114.1 113.6 115.5 117.4 122.3 125.1 127.2 127.6 129.3 131.1 130.8 135.3 139.8 140.8 139.1 145.5 145.6 148.8 144.5 140.6 139.6 139.6 139.3 138.3 137.9 137.5 137.7 137.9 138.3 138.4 138 138.5 138.7 136.9 138.5 139.1 146.2 167.1 184.4 211.4 222.8 233.5 249.1 265.4 271.8 265.7 264.7 258.8 253.3 247.7 235 226.1 218.1 212.3 204.4 195.3 187 181.1 174.7 173.2 172.3 173 173.5 174.5 174.6 175.5 176.2 176.9 177.7 180.2 187.5 199.9 214.7 223.7 235.5 248 257.7 271.6 278.1 290.8 298.2 302.8 307.1 319.1 334.7 347.5 364.4 381.8 408.7 434.5 439.9 440.1 432.6 431.4 442.2 448.7 450.7 450.5 447.4 466.6 477.4 482 480.8 493.6 509.1 508.3 520.3 543.9 558.3 542 533 533 536.9 553.1 564.5 543.7 519.4 495.6 471.7 459 450.2 453.2 450.5 454.6 451.9 450 441.8 439 437.9 434 430.2 424.1 410.7 401.7 400 398.1 394.2 391.3 389.9 390.6 391.9 397.3 392 392.7 395.6 394.8 393.7 377.7 376.1 385 381.7 379.3 379.7 381 373.2 365.8 367 369.4 373.2 376 379 380.5 382.2 385.3 388.9 390.4 391.2 388.6 390.6 395.9 400.2 415.2 429.1 442.1 444.2 437.3 435.5 431.2 424.3 415.3 411.3 404.3 390.8
114.1 112.9 112.3 111.6 110.2 108.9 109.9 112.6 113.8 114.9 114.7 112.7 109.1 106 106.2 113.7 116.5 116 117.3 113.8 117.8 122.7 127.7 128.9 130.5 131.7 133.1 132.8 141.1 150.6 151.8 151.7 155.3 154.5 155.8 147.2 143.8 142.1 141.8 141.3 139.9 138.6 138.1 138.1 138.2 138.3 138.5 138.8 138.7 138.6 138.5 137.4 138.5 140.9 160.9 177.9 203 210.8 218.5 224.8 250.4 247.4 248.5 243.2 244.8 240.2 230.8 221.4 213.6 208.9 206.9 197.8 188.6 184.3 179.8 173.3 171.4 172 172.7 173.3 174 174.1 174.7 174.8 176.5 179.9 183.8 196.7 207 221.2 231.6 242.2 254.5 265.2 275.9 285.2 297.5 304.5 309.8 318.8 323.2 335.4 347.3 363.7 394.9 424.9 439.4 446 450.5 456.7 447 453 456.5 455.8 457 461.2 468.4 479.3 476.3 475.4 488.9 495.9 510.6 524 539.7 560.7 556.9 533 533 533.1 559.9 555.9 531.5 505.6 480.7 462.2 449.5 441.7 444.2 440.2 443.3 441 443.3 438.9 439.8 432.1 427 424.4 417.1 405.9 399 396.9 393.7 391.1 389.2 388.5 389.5 390.6 392.1 389 387.4 390.3 387.8 384.5 373.1 371.9 376.3 377 377.2 378.7 381.1 377.6 370.2 372.6 376.6 379.7 381.9 383.2 385.3 387.3 389.8 392.2 394.1 392.8 391 394.6 401.7 410.2 420.7 437.2 436.4 439.3 439.7 436.7 435.9 426.2 418.2 411.5 401.8 391.2
117.2 116.9 115.4 113.3 111.7 110.6 112.9 113.7 114.8 115.2 114.7 111.9 108.4 106 109.4 116.2 118.6 118.6 123.8 119.4 120.7 130.8 134 131.2 136.8 141.2 138.4 137.4 147.7 156.3 161.3 158.9 164.4 165.2 164.1 157.4 153.7 148.8 148.8 144.8 141.6 139.5 138.7 138.4 138.6 138.8 138.8 137.9 138.8 139 138.8 137.9 138 139.4 154.8 164.3 175.5 188.5 189.2 201.9 203.5 215.1 217.9 220.9 217.2 212.8 213.3 214.5 209.9 197.9 197.8 191.3 183.8 180 175.2 171.9 171.2 171.4 172.4 173 173.5 173.6 174.9 175.8 177.2 184.5 188.8 201.9 216.8 233.1 238.9 247.1 260 278.9 281.9 292.6 305.1 312.7 318.5 325.8 329 338.5 349.5 361.9 387.2 417.7 436 445.2 456 465.3 475.1 464.2 457.7 455.6 456.3 458.2 465.1 466.6 467.9 467.5 473.5 488.3 514.4 535.2 563.1 574.4 583.2 555.2 539.6 540.3 568 554.8 528.5 498.3 471.6 454.8 444.8 439 439 439 439 439 439.9 435 437.2 426.8 422.9 417.3 409.7 402.4 396.1 392.9 390.7 388.7 386.9 386.7 387.3 387.9 385.7 384.6 385.5 382.6 380.8 370.5 370 368.8 369.5 371.1 373.6 376 378.9 377.5 374.6 378.4 382.7 383.2 384.8 385.5 387.2 388.8 391.4 394.2 395.2 394 393.5 397.6 414 416.4 415.4 435.9 427.3 437.1 436.8 435.8 434.9 424.1 418.5 415.9 402.1 390.1
119.9 118.9 117.2 115.3 113.3 113.3 114 114.7 115.6 115.5 115 113 108.4 106.1 114.5 117.4 123.1 126.4 126.6 125.3 129.7 137 137.7 134.2 136.1 142.9 142.8 151.8 163.8 163.1 170.4 169.6 175.7 178.9 170.3 166.5 162.3 157.8 154.3 150.3 143 140.6 138.7 138.7 138.9 138.9 138.8 138.7 139 139.3 139.2 138.4 138 139 147.3 155.2 155.8 157.3 163.6 171.8 187.4 177.8 183.1 190.8 196.1 202.2 211.7 209.4 203.2 194.9 187.8 184.3 179.7 172.8 171.4 171.1 171.5 171.2 171.4 172.8 173.3 173.7 174.8 176.3 183.9 198.2 210.2 213.1 225.4 238.9 248.2 258.5 272.5 284.2 289.7 297.6 312.1 321.1 324.1 332.6 341 346.1 353.6 364.3 389.1 415.1 441.9 457.5 466.8 478.4 484.1 485.7 478.7 462.2 459.5 457.4 473.8 465.6 465.6 465.6 474.6 495.6 506.7 547.8 574.6 589.3 603 578.5 563.4 576.2 580.9 566.4 532.7 499.8 469.6 457.2 442.7 439 439 439 439 440.6 438.5 434 432.7 429.4 422.9 417.5 411.5 401.4 392.6 391.2 388.9 386.6 384.6 384.8 385.5 384.7 383.7 381.3 380.3 378.6 368.8 367.1 367.8 367.4 365.4 365.1 368 373.7 376.8 376.2 372.9 384.9 383.3 385.8 385.8 386.2 388 389.4 390.6 394.3 394.5 393.8 392.3 397.7 414.2 412.7 407.8 419.5 430.8 434.5 436 433.7 429.7 423.6 417.9 413.4 407.2 396.6
121 119.5 117.2 115.4 113.9 113.6 114.1 114.8 115.4 115.5 114.7 112.2 108.9 107.9 116.2 120.8 126.7 127.9 127.4 127.4 130.9 145.8 142.5 135.8 140.6 144.6 149 161.8 174.3 174.2 175.8 182.2 187.9 184.3 177.2 171.4 165.9 163 159.2 152.7 144.6 141.8 140 139.7 139.3 139.1 139 139.2 139.1 139 139.2 139.1 138.6 138.7 139.1 139.5 139.7 140.7 154.3 161.1 165.7 168.1 172.6 182.4 179.9 193.7 195.3 197.5 194.3 186 181.8 179.2 173.7 170.8 170.9 171 171.6 171.9 171.2 172.2 173.2 174.8 183.1 192.4 198.6 210.6 218.7 230.8 231.8 245.8 256.5 263.5 278.6 290.1 299.5 316.1 323.8 332.6 341.9 346.8 353.2 355.1 358.4 374.5 393.2 417.1 444.4 456.8 477.4 489.4 502.8 510.6 507 498.6 487.2 479 473.8 467 465.6 470.2 491.4 513.6 523.9 551.6 587.8 610.3 616.7 601.3 584.7 581.7 592.2 581.9 551.6 521.4 480.7 459.8 446.5 441.3 439 439 439 445.2 443.6 439.2 436.1 433.5 427.1 422.1 412.2 400 392.2 388.4 387.4 384.5 382.4 383 383.3 383.6 382.5 380 374.8 368.4 363.5 365.2 367.7 371.9 364.6 361.8 364.5 371.1 373 371.2 375.3 379.2 382.3 386.6 386 386.4 387 388.3 389.4 391.8 392.8 392.6 390.7 398.2 406.8 407.8 405.9 418.1 432.1 433.9 437.8 435 426.9 421.3 418.5 416.6 413.6 403.3
121.8 119.7 117.4 115.4 114.2 114 114 114.1 114.8 114.8 112.9 110.3 109.2 108.6 118.3 125.3 130.9 131.6 129.3 130.5 135.1 153.8 146.8 143.6 145.7 145.9 153.5 163.9 175.3 180.8 185.8 191.2 201 189.3 181.8 175.6 170.9 167.4 161.9 155.5 147.4 143.6 140.8 140.3 140.6 139.6 140.5 140.4 139.9 139.5 139 139.3 139.2 139 139.1 139.1 139.4 140.2 151 160.6 165.1 169.2 172 177.6 178.8 182 180.4 183.1 183.8 177.1 172.4 171.6 170.2 169.9 170.8 170.5 170.8 171.4 172.2 174.5 178.4 186.6 196.1 202.6 211.6 224.1 229 240.7 246.7 256.3 263.2 274.9 289.4 302 311.8 322.3 341.6 346.7 352.3 358.3 364.2 364.2 364.9 379.1 396.7 416.2 436 448.8 477.6 492.7 508.9 527.3 529.7 534.4 543.8 509.7 494.7 484.5 497.3 490.5 517.4 538 551.1 575.5 598.8 623.5 625.3 618.5 608.4 610.4 600.3 611 568 530.2 495.9 470.9 457.7 453.4 448.9 449.5 451.7 452.1 451.9 448 444.1 438.8 432.7 425.4 412.6 401.3 392.7 390.7 388.4 386.3 383.6 380.2 381.4 382 380.8 378 371.7 364.3 361.2 359.2 362.7 367 361.1 359 362.3 367.2 366.5 367.1 373.1 373.9 380.6 384.4 383.6 386.6 386.7 386.2 386.8 389.1 389.1 389.4 389.2 395.2 401 403.6 405.7 414.3 426.6 433.4 438.5 432 421.1 421.4 423.5 418 410.9 401.6
119.5 119.8 117.6 115.5 114.7 114.5 114.4 114.4 114.4 113 110.8 109.2 108.6 110.3 122.2 130.1 131.8 134.2 131.8 143.3 139.7 149.2 148.1 149.2 150.2 147.7 155.2 166.2 174.7 183.2 192.2 200.1 203.9 192.6 183.7 179.8 176.6 173.6 167.6 162.1 151 149 144.1 141.5 141.7 141.6 142.5 141.5 142.3 140.6 139.7 139.3 139.3 139.4 139.2 139.8 140.4 144.9 154 161.8 169 179.7 177.3 174.3 176.2 184.6 174.8 174.7 179 171.5 170.2 170 169.3 169.7 170.6 169.9 171.1 171.4 173 179.4 188.4 198.7 206.1 217.1 222.9 234.5 239.6 249.8 251.9 260.4 267.2 292.3 303.8 315.2 322.2 328.2 344.9 353.3 358.6 364.1 370.4 372.1 375.5 385.9 404.3 424.1 433.1 451.9 484.2 511.2 531.9 545.9 554.1 553.5 570.5 540.8 527.7 515.6 517.1 520 540.2 555.6 573.2 598.3 610.2 635.5 641.7 639.6 621.7 634.3 636.8 628.4 580.6 538.1 512.7 493.2 474.9 468.4 465.2 468.5 467.7 462.5 461.4 458.8 452.3 447.2 441.1 427.7 414.5 401.1 394.1 391.3 388.3 386.5 383.4 378.4 377.5 378.2 377.6 375.4 370 364.3 360.4 357.9 355.9 360.4 358.8 356.7 360.2 361.7 363.8 364.9 369 370.9 375 377.6 382 384.2 386.1 384.8 385 387.9 387 385.3 387.1 390.6 396.9 404.3 404.3 419.2 422.8 432.4 434.7 423.9 415.3 418.9 416.4 410.3 404.9 395.8
116.6 120.5 117.9 115.6 115.2 115 114.9 114.9 113.9 111.4 109.6 109 108.6 113 129.9 134.1 135.8 136.2 137.2 144.8 143.2 150.8 149.1 150.8 154.5 153.5 158 169 175.1 180.3 190.4 203.6 204.3 194.5 188 185 181.8 178.7 172.2 166 157.8 157 155 151.1 149.8 148 149.2 148.8 147.9 145.4 141.7 140 139.9 140.1 140.9 140.4 144.8 152.5 157.1 159.1 165.7 177.9 177.5 173.9 175.8 181 172.6 172.6 174.9 170.8 169.8 169.3 169.7 170.3 171.5 171.7 172.7 175.4 181.6 190.9 194.7 205.8 215.4 223.9 234.8 244.6 256 259.9 260.1 269.5 295.8 297 314.1 320.2 326.8 331.2 342.4 353.2 361.4 369.6 374 376.6 378.5 391.1 406.7 425 442.1 476.1 510.1 527.9 543.6 565.1 581.6 590.8 599.8 575.4 568.5 557.6 547.9 546.9 560.4 575.8 595.7 612.8 633.7 648.2 660.8 661.5 649.7 667.2 661.8 643 604.6 568.6 533.4 510.9 494.8 485.7 486.2 490.4 487.9 479.7 473.3 469.9 463.4 458 455.6 430.2 410.6 401.5 394.2 391.7 388.4 385.4 380.3 376.8 371.1 375.2 375.5 372.3 368.1 364 359.9 356.8 354.1 355.6 355.9 353.5 357.3 360.5 362.1 365.1 368.9 371.4 373.6 375.9 378.8 381.6 381.8 384 383.8 388 385.9 382.3 379.3 383.7 393.3 401.2 409.7 413.9 421.8 435.4 433.2 416.3 414.1 416.8 410.9 404.6 401.1 397.2
112.9 118 117 115.9 115.5 115.5 115.3 115 112.7 110.9 109.7 109.3 109.1 115.2 132.3 138.7 139.7 141.1 146 146.6 146.1 151.1 149.5 154.1 157.3 158.3 159.4 169.3 175.7 178.1 196.3 212.2 206.5 201.5 194 192 187.1 181.8 175.3 171.1 164 162.4 161.8 159.8 158.8 160.9 159.5 157.4 156.4 151.5 148.6 145.7 143.2 142 142.1 142 147.4 152.1 159.3 157.9 163.7 171.1 172.1 178.7 170.4 172.9 170.4 170.5 170.4 170.1 169.8 170.8 170.3 171.1 174.2 176.1 179 183.8 194.2 199.3 208.8 216.2 223.7 228.6 240 255.6 269.5 275.8 274.8 284.3 308.5 312.5 316.8 324.7 332.4 342.8 348.6 358.6 367.2 373.8 377.5 383 387.3 394.7 407.8 423.4 450.9 478.9 509 539.3 583.7 600.3 614.2 621.1 623.7 623.8 609.5 605.2 597.7 585.8 583.3 592.6 612.5 627.1 650.7 661.3 679.2 686.1 684.3 695.3 705.1 669.8 642.1 600 558.6 533.8 514.1 512.7 513.8 509.9 505.5 489.2 487.3 476.7 470.3 460.4 449.4 422.8 407.3 404.1 394.5 389.5 388 382.4 375.6 372 369.8 370.8 371.2 370.3 367.7 361.9 359.5 355.7 352.9 352.3 351.8 351.5 353.6 356.6 360.8 362.7 365 368.7 373 375.3 379.3 379.8 379.8 380 379.8 384.8 382 378 377.9 377.1 390.6 397.1 397.2 405.6 413.5 428.6 423.2 409.5 413.2 416 409.2 404 403.4 405.9
111.2 116.9 116.5 116.5 115.8 115.5 115.6 115.1 113 111 109.9 109.6 111.2 119.6 131 139.5 141.3 144 151.9 152.7 150.9 151 153.8 157 159.8 157.8 160.3 171.7 176.8 182.2 200.8 212.7 209.1 206.5 201.8 197.9 193.6 188 181.2 176.6 169.9 171.1 171.6 172.7 171.1 170.2 168.3 167.3 165.6 159.7 157.4 156.1 154.1 149.9 145.3 146.8 147.8 154.9 157.1 157.1 159.8 163.6 164.5 170.2 166 167.1 169.6 170.7 170.6 170.4 170.7 171.1 171.4 175.9 183.8 184.2 190 196.4 205.1 211 219.4 227.8 231 233.8 253.1 264.8 279.6 285.5 289.4 303 325.5 331.1 336.1 343.9 343.8 351.9 359.3 367.6 375 381.1 387.5 393.3 397.9 402.8 411.9 425.1 447.2 473.8 510 546.2 591 624.5 631 631.8 636.2 645.1 652.2 650 639.7 627.8 622.3 620.4 631.7 648.8 676.6 683.6 697.1 703 713.2 723.5 717.8 694.9 657.8 616.1 581.3 556.4 541.6 539.8 543.9 519.6 508.4 501.8 489.5 476 468.7 460.8 439.4 415.5 403.8 399 390.1 386.3 382.7 379.1 370.8 368.6 368.1 364.7 364.4 363.7 363.5 359.2 355.2 353.9 352.3 350.4 349.5 350.4 350.8 354.1 358.6 356.7 359.8 363.3 371 372.2 377.2 376.4 376.7 377.4 375.8 378.5 377.7 374.1 375 373.6 383.2 385.2 390.5 398 406.1 422.3 412.7 403.4 411.7 407.3 405.8 408.9 413.1 414.4
115.5 117.1 118 117.3 117.3 117.4 116.4 116.2 114.6 112.2 111.1 110.2 109.8 121.6 141.7 142.6 142.1 146.6 158.8 156.8 152.8 151.7 155.7 159.2 160.3 159.4 169.8 177.5 180.4 188.3 199.7 216.2 214 213 209.6 205.7 200.9 196.5 189 182.9 177.2 181.9 183.2 182.8 181.8 179.4 177.2 174.5 173.1 170.5 167.4 164.5 161.8 160.4 155.9 152.9 154.9 152.8 154 155.3 156.1 158.9 162.7 167.1 170 171.6 172.7 172.3 172.9 171.8 172.6 172.9 179 182.6 189.7 192.4 202.8 208.2 210.8 215.6 230 237.3 236.7 249.3 257.8 284.9 299.7 304.7 306.9 320 336.5 342.1 351.6 355.6 358.1 361.3 365.2 373.9 383.8 391.3 400.4 406.4 411.8 418.4 426 439.3 452.6 489.5 519.1 552.2 590.2 624.3 627.6 633.1 639.4 650.5 663.6 679.2 682.2 668.8 664.3 674.6 685.8 695 709.7 715.4 731 733.6 730.7 725.3 713.1 695.3 660.5 619.8 584.2 569.2 560.1 548.7 544.9 526.1 509.6 502.4 485.1 476.2 466.7 444.3 422.7 406.8 400.3 389.8 381.6 380.7 375.2 367.1 366.3 366.3 362.4 360.1 359.8 358.4 358.1 353.4 351.9 351.5 351.2 349 344.8 347 348.6 351.6 353.7 352.4 356.5 357.8 363.9 368.1 370.8 369.6 371.3 374.4 372.2 372.3 372.5 371.7 372.9 359.2 375.5 380.2 384.5 387 395.2 405.4 402.3 398.8 403.9 403.5 407.9 408.9 418.5 419
119.3 119.1 118.7 118.5 119.3 119.8 118.8 118.6 117.3 114.5 111.7 110.8 111.1 120.7 143.3 141.2 146.1 149.4 161.2 158.8 154.5 153.2 157.9 165 162.3 160.9 174.3 180.9 185.2 198.2 216.8 223.5 218.5 218.5 214.8 210.5 205.7 202.2 196.5 188.9 186.4 189.9 190.8 190.5 189.8 188.3 185.7 185 183.6 180.9 179 175.1 171.7 168.6 166.8 163.4 161.5 158.3 157.3 158.2 160.5 162.3 165 167.9 169.7 172.2 173.7 174.1 174.6 174.3 176.3 182 182.2 190.6 193.5 196.5 214.9 220.9 221.1 224 232.1 240.4 253.6 268.9 282.7 289.9 300.6 312.7 327.8 340.7 350.4 355.8 360.1 364.3 365.9 368 375.4 386 394.4 401.3 408.5 415.3 422.7 433 444 455 466.3 483.9 511.9 546.4 582.8 613.7 623.9 632.3 640.2 650.6 667.7 687 697.1 699.7 702.9 714.8 724.7 731.4 731.6 738.8 741.5 737 732.4 720.1 705.6 682.8 649.9 615 587 576.7 564.3 551.2 533 524.7 514.1 492.6 478.1 465.5 452.8 436.6 413.6 401.8 397.1 384.6 375.3 370.2 370.7 362.3 361.9 362 358.5 357.3 355.1 356.2 352.1 350 349.9 350 348.5 344.5 340.4 345.1 346.5 347.5 344.2 347.6 352.3 353.3 355.3 367.3 365.3 365.4 369.4 369.8 368.6 370.5 369 367.8 369.9 360.3 365 378.3 377.2 378.8 383.8 392.4 387.5 388.9 394.9 403.6 411.1 408.7 409.6 410.8
122.5 120.5 120.1 119.9 120.9 122 121.8 122.2 120.7 117.9 115.3 112.8 111.3 118.5 133.5 145.2 149.9 153.6 160.3 156.8 154.8 156.4 158.6 167.2 164.5 164.5 178.8 186.4 195.7 219.8 229.3 230 225.3 223.6 221 216.2 211.9 207.1 203.8 198.9 196.2 196.8 197.9 198.2 197.2 195.9 193.7 193.3 189.7 188 185.8 182.9 180.4 175.9 175.4 170.5 167.2 164.8 161.1 160.5 163.1 165.9 168 169.4 170.2 173.2 174.5 176.2 176.8 176.8 183.3 185.9 190 193.2 194.1 200.3 218.3 229.1 234.5 233.8 244.4 254 267.2 275.4 286.7 305.5 315.1 327.8 345.6 354.1 360.3 364.5 368.1 371.7 374.2 374.9 381.6 389.3 397.6 404.5 410.5 419 431.9 447.2 459.8 472.5 483.7 494.7 515.6 542.1 571 602.8 618.3 628.9 636.8 649.3 670.6 692.1 706.3 708.9 716 728.2 738.4 747 750.1 748.3 745 735.1 728.2 714.2 696.5 672 639.6 613.7 586.8 573.6 556.1 541.6 525 515.9 505.9 483.6 470.7 452.4 444.7 436.8 404.9 396.6 393.8 373.1 369 363.4 358.3 353.7 357.5 359.8 355.6 349.1 354.3 353.9 349.3 348.1 347.8 348.3 346.4 341.4 336.9 341.2 343.9 342.2 339.7 343.8 344.6 347.4 352.1 366.4 359.6 359.1 362.5 363.1 363.2 363.9 362.6 362.7 367.8 354.5 355.5 364.2 371.9 372.8 373.1 376.3 376.7 385.2 398.3 408 406.6 413.5 406.7 412.5
125.5 122.2 121.5 121.6 121.8 123.1 124.7 125.6 124.2 121.5 118.1 114.1 112.9 115 126.8 143.2 149.4 153.9 159.2 152.9 158.6 158.6 165.5 171.1 170.7 174.1 192.6 199.4 200.6 219.1 234.1 239.6 234.7 230 226.5 221.1 216.6 211.6 208.3 204.3 201.8 202 203.4 203.7 203.5 202.7 201.6 200.8 198.7 197.1 195.1 189.9 189.5 186.3 184.8 181.1 177.8 171.5 168.2 166.9 167.7 170.6 171.8 172.3 176.4 176.9 176.1 179.1 182.8 181.9 187.2 194 193.7 194.7 202.9 213.2 224.3 232.5 240.1 240.9 246.9 266.8 273.2 286.5 300 312 327.5 343.2 353.9 364 369.6 373.2 376.8 379.2 381 383.4 388 394.7 401.1 406.5 411.5 422.2 437.4 454 468.1 480.9 488.2 495.5 518.9 532.4 553.8 580.6 609.2 621.8 633 648.9 669.1 691.5 707.2 715.2 724.4 736.4 746.7 752.1 752.1 749.3 739.9 728.4 716.8 704.2 683.9 660.7 634.9 611.2 587.6 571.1 546.6 528.7 516.2 506.4 494 476.6 459.9 442.3 430.7 419 394.3 388.9 377.2 368.6 362.8 360.2 351.7 352.7 356.7 356.6 347.5 347.9 348.3 352.6 347.4 345.7 346.2 345.7 343.1 336.9 333.8 339.2 340.8 338.2 334.6 340.6 341.6 343.1 349 351.6 352.8 353.6 357 357.7 356.7 359.7 358.2 357.1 357.8 349.7 344 355.2 363.7 363.2 363.7 364.1 377.9 391.3 397.2 404.2 403 409.5 403.1 405.2
126.5 125.3 123.3 125.2 124 123.9 125.3 127 126.9 124.1 118.9 116.6 114.1 120.3 137.2 146.7 150.6 152.2 151.8 151.9 158.8 163.2 170.4 177.8 181.8 183.4 196 197.8 203.5 220.2 240 244 243 236.8 232.2 226.1 221.4 215.6 211.4 207 205.3 205.6 207.2 208.7 209 208.8 207.9 207.5 205.9 203.1 200.8 200.2 197 194.9 193.7 191.2 186.5 183.1 179.3 174.6 174.7 178 179.1 183.3 185.6 186 181.7 180.8 184.2 188.2 190 192.9 199.8 202.7 214.9 220 232.9 242.7 248.6 244.8 255.8 275.9 288.7 304.3 314.9 326.7 343.2 357.2 365 373.5 377.7 381 382.7 384.6 385.5 391.7 398.8 403.6 408.9 410.1 413.3 423.7 439.1 455 470.9 481.1 486.3 494.8 507.4 518.1 534.8 561.3 588.6 607.4 626.5 645.8 667.1 688.8 703.2 716 727.6 739.8 750.3 754.1 751.6 740.9 728.9 717.4 704.4 691 666.6 645 623.7 601.4 578.7 556.5 540.1 520.8 508.7 497.8 482.4 465.7 448.2 433.2 419.6 404.4 388.5 381.9 369.4 362.1 359.5 356.8 349.5 349 354.9 346.5 342.9 343.9 345.5 346.5 345.2 344.8 344.9 342.6 341.2 330.9 331.1 335 336.1 333.6 330.1 333.7 336.2 341.2 344.5 345.4 346.9 349.2 353.2 350.4 349.7 350.4 355.2 350.7 348.7 343.2 334.4 342.6 350 358.7 355.5 364.7 372.1 386.3 399 403.9 398.6 404.3 403.1 403.1
127.2 127 128.3 128.8 128 126.5 126.6 128.3 127.7 124.4 120.3 119.4 117.6 118.6 134.3 146 147.2 152.6 150.3 150.9 160.6 168.3 171.8 179.2 186.2 187.5 200.3 201.7 211.4 225.8 249.6 251.5 249 242.9 236.7 230.7 225.2 219.7 213.4 209.6 208.2 208 208.6 210.4 212.6 213.4 212 212.3 212 211.1 208.2 206.7 206.1 203.7 201.4 199.1 196.7 192.8 191 188.6 186.5 187.3 190.9 194 196.1 194.8 191.3 189.8 189 190.8 193.3 203 216 216.5 219.7 229.4 244.1 252.7 251.4 260.3 281 288.4 311.1 323.4 327.1 336 347.1 354.7 362.8 382.8 384.9 387 389.2 390.3 389.2 399.2 408.2 410.9 414.8 414.2 413.9 425.8 446 464.6 476.4 478.5 483 489 499.7 514.4 530.6 548.8 568.5 587.8 607.9 633.2 661.3 683.4 703.6 717.9 731.3 744.2 753.5 753.4 744.2 730.7 717.8 704.8 688.7 671.2 650.1 631.3 604.6 586 564.5 547.8 532.7 514.9 505.2 490.7 473.5 456.7 438.4 424.1 411.4 398 383.3 377.4 364 357.4 356.8 355.4 346.9 344 347 340.1 339.4 339.8 339.7 341.5 343.3 343.8 343.2 340.5 335.9 328.9 327 330.8 331.3 329.2 324.3 327 331.5 336.3 340.6 338.7 338.6 344.5 352.5 345.5 343.7 345.8 349.9 344.1 338.7 337.3 332.4 335.4 340.7 348.2 353.4 364.9 366.3 380.9 395.2 393.9 396.2 404.1 403.6 403.1
126.9 128.3 131.8 131.6 130.3 129.3 129.4 129.7 128.5 125.8 122.6 121.5 119.7 120.2 135.1 148.5 149.8 150.9 149.6 150.5 163.9 170.6 174.4 184.7 197.4 192.7 201.9 206.7 215.4 232.8 259.3 255.9 251.9 247 240.7 235.3 232.8 224.2 218.2 213 211.3 209.4 211.1 218.7 223.1 219.5 216.3 217.1 217 216.1 214.2 212.8 212.5 209.8 207.3 204.9 203.6 200.5 199.4 198.5 197.5 197.7 200.7 202.4 203 204.7 204.5 202.3 199.5 199.1 200.5 209.9 220.3 222.7 226.6 241.7 250.3 259.6 274.9 275.4 288 299.9 319 322.3 330.9 342.1 349.8 357 366.5 372.9 384 390.2 399.2 400.9 400.3 409.4 419 424 425.6 429.1 431.7 441.1 461.7 482.7 482.9 481.9 482.4 485.3 490.6 502.3 521.9 545.1 563.2 578 596.4 620.9 649.5 677.8 702.4 719.7 732.1 745.4 755 749.5 734.8 720.4 705.6 689.8 671.4 653.9 632 614.3 593.3 573.3 554.3 540 526.7 512.4 502.1 487.7 472.9 452 432.5 417.4 402 391.7 379.1 374 359.5 352.7 350.6 348.6 343.4 338.3 334.3 336.4 335.4 333.1 335.3 336.9 341.7 343.1 341.4 338.2 334.7 327.4 325.7 326.4 328 323.4 318.7 319.6 321.5 327.7 333.8 332.5 333.9 342.1 342.5 339.9 339.8 338.7 342.2 338 332.3 332.6 326.6 326.2 335.9 339.9 350.9 360.7 361.4 364.5 380.1 389.7 399.1 405.9 409 409
127.1 129.7 133.1 133.2 133.9 132 132 131.5 129.5 129.4 129.2 127.3 124.5 127 132.7 147.9 151.5 150.9 149.6 152.4 166 171.5 175.8 189.7 194 192.1 199.8 206.6 216.1 235.6 262 256.4 257 251.6 245.3 241.8 236.4 231.2 219.9 215 212.5 212 222.3 228.5 221.6 218.9 217.8 219.2 220 220.3 219.3 218.6 217.4 215.4 213.1 211.7 210.6 208.3 209.1 209.1 209.9 210.2 210 211 214 215.2 215.5 213.5 209.9 212 211.5 219.2 227 232.3 237.5 248.1 260.4 282.8 287.7 295.6 299.3 304.4 314.9 328.2 336.2 347.1 353.2 359.7 372.8 388.9 405 413.7 412.2 415.4 416.6 426 441.2 454.6 453.9 466.2 469.1 478.2 489.5 502.1 488.5 484.8 487.3 486.8 488.7 496.6 526.2 544 562 582.5 602.1 616.9 636.7 670.6 701 718.3 728.5 739.9 745.5 735.8 721.9 707.9 690.7 668.3 647.4 634.5 612.4 594.9 581.7 565.3 548.2 534.6 520.9 509 501.4 487.6 475.8 454.9 430.7 409.5 396.7 382.3 373 368.7 354.4 348.2 347.7 343.3 338.6 335.8 332.4 334.2 331.9 329.4 331 333.5 339.8 340.4 338.2 334.9 331.1 325.6 315.9 320.8 320.4 321.7 315.6 310.8 315.2 322.2 327.5 326 329.4 340.7 337.7 332.1 332.5 331.8 332.6 331.2 325 326.7 328.8 322.6 330.3 339.7 348.9 351 352.7 355.7 369.9 387.4 401.3 406.9 409.1 413.2
125.6 128.5 135.2 135 135.8 136.1 134.2 133.6 133.2 133.2 133 132.8 129.5 127.7 135.9 151.2 152.3 151.3 151.3 153.7 169.6 172.1 178.7 183.8 189.8 194.5 201.3 211.4 219.1 235.1 254.7 260.7 263.2 258.7 251.1 250.2 245.8 238 228.4 218.9 216.7 224.9 228.4 225.1 221.9 222 222 225.5 231.3 232.4 230.1 228.6 223.2 223.6 219.9 218.5 218.5 219.8 222.6 224.6 220.7 219.6 219.9 221.2 222.2 224.5 224.9 224.1 222.5 223.5 225.1 231.4 240 247.8 251.3 258.8 284.8 292.6 301.8 306.6 319.2 318.2 324.6 331.4 346.4 355.1 363.9 390.6 399.5 416.8 426.8 440.6 433.7 432.9 446.1 460 468.4 475.6 481.3 476.1 481.7 489.8 500.8 504.1 492.4 488.7 492.8 500.6 498.3 508.3 525.4 542.9 564.2 579.4 602.6 629.4 646.2 667.1 696 713.3 721.3 727.3 726.3 713.2 698 683.3 660.1 637.5 615.8 607.5 590.5 578.1 575.5 561.2 544.5 530.3 517.8 508.1 499 489.8 475.1 455.4 435.7 407.2 387.9 379.6 370.5 361.6 349.9 346.1 344.8 343.4 336.2 331.1 330.7 329.1 328.2 324.9 325.7 330.5 330.6 335.6 335.2 331.3 326.8 319.3 312.7 314.4 313.3 314.2 307.7 304.7 310.5 320.7 318.4 317.7 317.7 324.4 331 322.5 323.6 321.6 324.9 324.9 316.8 319.5 324.1 321.4 321.9 335.3 349.2 346.9 346.9 348.8 368.8 381.3 398.1 404.3 410.2 412.3
127 138.6 137.1 136.2 137.1 138.3 138 137.3 137.2 136.4 136.5 135.9 133.5 133.5 146.4 154.1 154.6 152.5 152.1 153.6 169.2 172.6 181.1 181.8 188.2 199.6 203.6 212.2 221.1 231.9 248.9 264.7 270.1 265 257.9 258.6 255.6 248.4 234.2 225.6 225.1 227.1 227.7 230.7 230.2 233.4 236.2 240.9 245.7 253.9 252.2 247 231.1 231.3 228.3 229.6 233.8 232.2 232 231.7 230.2 228.8 228.8 232.2 233.1 233.4 234.9 235.9 233 235.6 237.7 248.8 258.3 266.7 270.8 277.7 292.3 303.3 310 326 331.8 335.7 340.8 349 358.6 377.6 393.6 405.5 416.5 436.5 449.8 456.3 456.8 452.8 463.6 477.9 491 491.6 486 484.9 487 495.4 501.1 503.1 500.1 503 508.5 515 525.6 536 540.3 549.1 564.2 585.6 609.3 628.3 651.6 674.8 681.9 699.3 707.5 708.9 696.7 680.4 663.2 643.6 620.1 604.9 584.7 578.2 570.5 567.4 568 555.4 537.9 525.5 516.2 506.5 498 488.4 477.7 458.3 436.2 408.8 387.4 373.9 370.6 358.1 347.6 345.6 341.6 338.9 331.5 329.9 329.1 328.1 327.3 324.7 322.7 328.9 329.3 331.2 332.1 329.3 318.8 314.2 307.6 307.8 307.3 305 304.8 300.4 300.1 306.7 309.8 309.7 312.7 321.9 321.3 313.2 318 317.6 316.3 314 312 314.6 321.3 317.8 316.9 328.5 342.8 341.7 341.3 347.6 368.8 379.6 397.7 404.3 408.8 404.5
133.3 138.8 139.6 138.2 138.6 139.1 140.1 141.1 140.4 139.9 139.8 138.9 137.8 139 154.1 157.9 157.6 155.6 154 158.2 166.7 174.7 181.1 184.5 190.8 202 206.7 214.9 222.4 239.3 247.2 268.3 273.8 270.7 267.4 269.9 267.1 260.6 243.9 236.1 239.4 238 240.8 244.9 248.4 255.7 259.3 263.8 262.9 266 266.4 258.1 251.3 248.6 251.3 246.1 240.6 236.4 236.3 238.9 239.3 241.3 242.2 245.2 244.4 246.6 247 248.6 249.7 253.6 261.1 272.1 279 286.8 292.4 300.3 308.6 313.9 327.9 339.3 344.1 348.5 354.2 362.3 376.6 396.8 414.2 429.3 445.2 457.5 469.6 476.7 479.9 476.3 479.4 492.4 504.2 510.8 505.6 500.6 499.6 499.9 504.7 514.5 525.2 532.9 534.2 538.4 542.1 550.2 556.2 560.5 572.6 588.3 610.1 637.1 657.1 669.2 678.6 688.4 690.4 684.4 666.3 640.9 622.2 602.6 585.1 577.7 566.3 561.4 558.3 557.2 556.3 544 534 522.6 514.1 504.6 496.1 486.1 476.2 459.7 443.6 408 386.1 372.8 368.6 358.9 344.9 342.3 341.4 334.9 330.4 329.5 328.4 329 325.8 321.7 316.5 322.1 324.4 326.6 325.7 320.1 313.2 310.4 306.7 302.9 302.8 301 299.2 297.6 295.3 298.2 301.2 300 307.7 315.2 310.9 301.7 313.1 312.9 308 309.1 306.9 308.7 313.1 311.9 315.7 323.3 328 333.1 334.3 347.7 366.2 374.1 386.9 396 397.6 398.5
137.1 137 139.2 140.9 140.8 142 143.1 141.9 142.4 143 142.7 144.4 143.6 144.3 154.9 160.9 160.7 161.3 163.6 166.6 173.9 183.2 184.9 191.2 192.5 205.5 208.9 220.5 227.4 246.3 253.3 272 279.1 275.8 280.4 283.1 280.7 275.4 266.5 261 254.8 260 273.6 273 288.4 294.9 299.8 303.3 307.5 299.5 288.4 280 278.4 277.4 267.7 261.9 253.1 252.7 252.5 248.7 252 255.3 257 256.2 256.5 258 260.1 263.6 269.4 273.8 281.3 289.8 299.9 305.8 309.7 316.9 322 325.9 341.3 350.6 353.8 357.8 364.8 379.3 399.9 413.4 436.3 453.5 466.3 476 485 492.9 498.8 498.5 498.7 513 523.6 529.6 534.3 534.5 526.4 526.7 536 538.6 538.8 544.5 555.7 564.3 565.5 567.8 577.6 585.1 592.3 606.2 631.4 643.2 655.9 662.5 671.5 681.2 683 670.3 630.8 603.2 584.9 569.8 559.3 557 554 554.7 549.2 546.3 544.4 537.4 529.7 521.3 511.3 503.8 495.2 484.4 471.1 458.2 431.2 403.7 387.7 373.2 368 358.3 347.9 342.8 342.6 338.4 333.1 329.1 328 327.4 323.1 318.5 315.8 321.6 317.8 320.3 316.9 313.6 310 307.3 303.5 298 297.6 292.8 291.5 292.1 292.3 292.4 293.4 292.6 301.2 306.9 300.1 294.9 305 312.1 299.6 300.7 300.3 301.6 300.7 308.8 314.6 316.3 318.2 322.3 327.2 338.1 361.9 371.8 391.6 389 387 390.5
136.3 140.5 144.7 146.8 145.9 144.8 145 144.9 144.5 145.1 146.3 146.6 146.5 146.2 151.3 159.9 164.5 166.6 168.6 171.6 181.2 188 191.9 197.8 201 211.9 222.2 225.4 235.8 253.1 265.3 277.2 284.6 286.6 286.8 298.7 293.2 288.2 283.5 267.6 267.8 280 292.5 302 320.4 332.4 336.4 338.7 349.8 343.7 326 335 318.1 302.1 293.7 281.6 271.7 263.6 265.6 265.7 266.1 267.3 267.4 267.4 268.1 270.6 273.7 278.8 284.6 291.7 296.9 292.7 311 317.5 322 327.3 332.6 340.3 348.8 357.7 360.6 365.7 374.9 391.3 408.5 431.3 448.2 467.5 479 487 495.8 505.8 513.2 517.6 522.5 532.4 540.2 545.2 547 550.3 554.1 557.1 560 564.1 566.4 572 576.4 583.8 590.5 604 612.7 623.3 636.2 645.7 649.5 652.8 657.8 660.4 666.2 673.6 674.6 665.7 621.7 583.2 565.5 552.2 549.4 546.5 547.2 541.3 540.1 536.6 536.1 527.8 523.2 518 511.2 503 493.2 483.2 467.2 453.2 433.8 410 399.2 374.7 367.2 359.9 349.5 344.9 342.9 337.3 334.5 329.8 329.6 327 323.1 313.7 312.3 315.9 315 314.2 306.9 306.1 308.3 304.9 300.3 295.8 294.4 290.4 289.4 289.4 288.4 286.9 285.7 286.8 293.3 298.9 295.2 291.7 295.6 297.5 290.9 294.3 294 292.4 295.1 303.8 309.5 313.1 313.2 314.6 319.2 332.2 359.4 367.6 392.1 384.7 382.3 382
146.9 151 156.2 156.4 153.9 151.7 151.8 154.6 155.4 155.7 153.2 150 150.3 147.7 157.3 164.2 168.6 171.2 173.7 175.5 184.2 195.5 197.7 200.4 207.2 218.4 227.6 228.2 241.8 263.7 274.1 286.9 293.5 291.9 295.8 305.6 303.4 294.4 281.6 270.9 288.2 298.1 307.5 324.8 337 344.3 358.6 367.6 376.1 378.6 368.3 352.1 342.3 318.2 302.2 292.1 286.7 282.1 278 277.2 279.4 279.6 276.2 278.1 278.9 283.7 290.1 295.9 299.8 305.6 309.3 302 320.7 327.3 332.3 337.5 342.4 348.7 355.7 364.8 367 371.6 385.2 402 424.4 442.1 460.3 477.5 487.3 495.9 504.9 514 521.5 527.5 534.7 544.8 551 553.1 556.1 560.4 563.5 566.5 569.5 573.3 581.7 590.4 597.2 600.8 609 615.7 623.2 639.3 645.7 650.5 653.4 656.6 657.7 658 662.7 667.9 666.6 667.9 621.1 581.5 558.5 548.4 544 538.4 535 532.8 529 526.5 522.5 520 517 514 507.4 498.8 489.7 480.5 464.9 451.9 435 420.6 396.9 381.5 369.5 362.2 350.7 346.5 346.2 343 335.7 331.5 330.9 327.5 323.9 313.8 307.4 309.8 311.7 306.8 301.9 302.4 305.1 300.5 296.1 291.3 291.2 289.8 288.4 286.6 286 285.1 282.6 283 289 289.9 288.9 283.9 288 290.6 283.8 284.8 287.4 287 291.4 297.4 302.4 309.4 309.7 309.9 313.6 329 345.9 363.2 382 376.9 372.3 371.9
153.3 158.2 162.5 164.5 162.8 161.2 161.3 163.1 164.3 164 163.8 161.4 158.1 153.2 164.1 171.7 174.8 177.3 176.4 177.9 188.6 196.6 202.5 203.5 210.5 224.5 230.4 235.1 250.6 271 278.5 296.3 300.5 302.7 305.6 309.9 310.5 304.9 289.6 292.4 310.2 323.2 335.1 352.4 355.3 366.9 382.6 398.5 406.3 401.1 384.3 368.3 344.9 322.8 309.9 305.4 298.8 294.7 288.4 285.6 286.3 287.8 285.2 289.1 293 296.5 301.9 304.6 310 315.4 319.9 322.9 328.8 335.2 340.1 344.7 349.7 355.7 362.4 369.3 372.8 380.5 393 411.7 434.7 450.7 470.5 482.7 492.1 500.9 509.6 519 526.9 534 542.8 551.3 555.1 558.1 560.6 564.7 567.6 571.3 576 580.7 589.3 598.9 605.5 612.9 620.9 631.4 643.1 648.7 649.9 653.1 655.4 657.6 658 656.3 655.6 658.7 657.4 664.8 629.5 593.1 568.6 548.9 536.7 529 523 522.9 517.3 515.7 512.5 511.5 512 509.8 506.8 498.4 486.8 476.6 464.2 449.1 436.4 419.4 398.7 380.3 373.4 363.9 354.4 348.8 349.1 343.2 338.7 331.4 333 328.7 321.1 314.1 307.9 304.4 306.8 301.2 299.1 299.3 304.3 298.3 290.1 288.5 287.5 286 286.3 285.6 284.5 282.8 279.4 280.6 284.6 285.1 282.2 280.1 280.3 280.8 278.8 279.2 283.6 283.9 287.4 287.3 292.2 299.1 304 307.3 304.8 326.5 337.6 349.6 370 364.3 361.3 352.7
155.1 162.5 167.5 169.2 167.7 166.9 167.5 170.6 171.2 171.8 171.3 168.7 165.5 161.9 172.9 181 186.1 188 185.3 182.3 188.2 201.5 208.9 209.8 215.6 222.1 232.2 243.8 258.5 274.9 287.8 299.9 303.3 305.4 309.2 311.8 314.2 314.5 305.1 319.7 335 345.9 359.2 370.9 374.1 383.1 404.8 421 420.9 408.2 393.6 373.9 352.6 337.6 324.3 317.6 311 303.2 297.4 295.1 295.1 295.8 296.6 300.1 303.4 307.4 311.4 314.8 318.6 323.4 328 332.3 335.6 339.4 344.8 349.5 355.6 361.1 366.6 372.8 378.6 384.9 401.3 420.4 438.5 457.5 473.1 484.8 493.5 504.3 513.9 522.1 530.8 539.5 545.1 552 556.2 559.1 561.8 566 570.7 574.5 579.2 585.8 593.8 601.9 609.7 618.7 631.9 639.6 645 649.8 650.4 651.5 651.7 653.3 653.9 652.3 651.3 653.3 651.8 654 651.5 616.2 589.2 554.4 534.4 520.9 514 508.3 507.3 503.9 502.3 502.6 501.3 501.9 499.3 493.6 487.6 474 464.6 447.8 438.3 424.4 406.7 388.8 377.1 370.8 358.4 350.6 349.7 346.3 339.2 328.5 331.1 327.7 319.1 311.8 306 301.1 299.7 297.6 296.6 297.5 299 292.4 287.1 286.6 285.9 285.1 284.1 283 280.8 277 273.7 276.5 279.8 280.9 279.4 273.7 272.1 275 274.4 276.5 277.4 280.9 281.5 280.8 282.6 288.2 294.8 299.3 305.1 314 325.5 333.5 350.7 350.6 348 333.6
150.7 156.1 162.4 166 169.1 168.7 166.8 166.1 169.2 172.2 175.5 176.1 170.9 171.7 178.9 185.9 191.5 193.5 192.6 188.7 194.8 206.5 210.1 209 220.3 226.5 237.9 249 266.9 284.2 295 297.8 304.3 311.6 315.1 320.7 320.7 325.3 321.1 344.5 352.9 361.3 370.2 385.2 400.9 419.6 435.1 436.7 426.8 416.5 403.3 383.9 367.2 354.3 342 331 323.2 317 319.3 310.9 306.9 304.7 302.1 308.8 312.4 315.4 317.9 321.8 325.6 329.9 334.5 338.2 341.2 344.6 348.9 354.4 359.6 364.1 368.8 376.8 391.2 397.5 409.7 424.3 440.7 458.8 473.6 485.4 494.8 506.2 515.4 525 532.8 539.5 545.5 551.3 555.9 559.7 562.9 566.6 571.4 576.8 582.3 590.1 595.8 602.7 611.7 622.3 634.9 641.7 646.7 646.6 646.9 647.4 647.6 647.5 647.9 646.9 647.2 648.2 647.2 651.1 655.4 640.8 622.2 575 548.2 518.8 504.2 496.7 494.9 493.5 492.2 488.6 488.1 489.8 489.7 487.1 483.4 472.3 459.8 448.9 440 425.2 414.4 401.9 380.8 372.6 360.8 353.9 350.1 350.7 336 328 322.3 326.4 313.8 307.1 304.2 301.5 299.5 295.9 293.4 295 293.5 288.2 286.9 285.2 284.3 284.8 282.6 280.6 282.3 277 267.8 271.4 277.1 277 280.7 272.2 268.8 272.4 272.4 271.5 275.2 273.2 274.6 277 273.5 279.1 285.9 294.1 303.5 303.9 313.1 318.4 335.2 333 325.3 306.2
149 155.2 159.3 161.2 161 161.6 162.2 161.2 161.8 163.1 164.9 166 168.9 170.3 172.8 180.1 186.2 189.7 192.8 194.4 196.2 200 203.7 208.4 221.8 231.3 241.6 256.7 274.9 287.8 298.8 300.4 308.7 316.8 322.8 326.3 331.1 339.3 341.5 352.1 369.3 376.4 393.1 411.6 431.5 446.3 453.1 458 449.4 441.6 428.2 406.6 387.7 372.9 355 343.1 334.9 330.1 331 323 317.8 313.7 311 313.9 317.3 320.7 324 327.9 331.4 335.7 340.3 344.1 346.9 350.9 355.1 360 363 370.9 380.8 390.3 395.9 401.7 410.7 422.8 440.2 459 473 484.3 494 504.2 514.3 524.5 532.2 539.1 544.1 548.6 553.9 558.2 562.1 567.1 572.6 578 584.4 590.8 596 602.8 609.4 624.5 635.4 640.3 641.9 641.7 642 642.6 641.3 639.6 640.2 642.8 643.1 645.5 645.4 646.1 654.2 663.5 640.6 602.7 563 521.2 503.2 488.1 482.2 481.6 480.9 479.1 480.9 481.1 480.8 483 482.2 472 459.3 452.1 439.1 428.6 418.2 403.8 388.7 377.3 364.3 355.3 350.5 351.7 333.4 322.4 318.2 319.3 309.7 303.8 302 300.4 299.9 297.5 294.9 290.9 287.8 286.2 285.6 284.6 283 284.1 282.3 282.4 282.9 274.7 266.8 265.6 271.3 274.4 275.4 266 266.2 270.2 268.8 265.4 269.4 264.7 265.9 268.3 265 268.9 275.9 287.7 290.8 295.4 298.3 304.2 307.7 320 304.2 286.9
147.7 153.6 157.4 159 157.9 158.4 159.6 159.3 160.9 161.9 162.9 163.9 165.1 166.9 170.8 182.1 187.4 189 190.4 192.2 193.9 195.6 198.7 219.4 225.6 233.1 245.4 259.6 276.7 287.9 300 306.3 316.9 325.3 333.5 337.5 341.3 352.4 353.4 363.1 379.5 396.6 412.9 430.5 452.3 467.5 478.6 480.8 475.2 465.5 449.9 427.4 401.7 383.7 363 353.4 347 342.5 339.8 333.4 326.7 321.7 319.3 321.3 322.7 325.8 330 334.9 339.2 342.1 346.2 350.1 355.5 359.4 361.9 363.7 372.4 380.7 389 393.1 399.4 404.6 410.5 421.4 437.6 456.7 470.6 482.1 491.3 500.2 509.9 519.5 527.4 535.5 540 545.2 550.6 555.5 560.6 565.4 572.1 578 584.5 589.9 594.9 600.9 607.2 619 632.3 636.2 636.1 636 635.9 635.4 634.1 631.7 634.1 636.5 636.7 640.9 643.6 647.9 660.3 668.6 661.2 623.7 573.7 536.3 510.1 490.8 475.6 474.3 472.6 471.2 472.5 470.9 474.4 478.5 478.5 474.7 463.4 452.4 442 428.6 421.5 405.5 400.3 381.9 366.4 356.7 349 345.4 331.1 321.3 316.6 312.5 306.3 305.1 300.8 299.6 298.2 295.7 293.9 292.3 289.1 286.6 283.5 282.7 282.1 283 282.7 284 279.4 268.9 265.3 264.7 271.2 269.7 271.4 264.4 264.6 265.3 265.3 262.7 265.3 261.8 259.5 257.7 258.4 256.1 265.1 274.6 273.9 279.6 282.7 285.5 289.5 302.5 290.2 272.6
148.7 150.3 154.2 155.7 156.1 157.1 158.3 159.3 160.4 161.3 162.5 163.7 165 166.6 172.2 184.2 187.6 190 192 193.6 196.4 197.9 205.2 221.2 230.2 237.1 247.3 258.3 272.9 286.2 299.4 312.6 325.7 337.1 344 349.1 358.7 366.4 365.1 389.5 400.6 410.5 430.9 449.9 470.4 487 498.9 500.4 496.6 484.7 467.1 438.7 410.4 385.4 371.2 364.5 356.3 351.9 346.1 339.8 332.8 326.6 325.2 326.5 329.1 333.4 336.9 342.2 346.5 349.5 356 360.3 362.8 365 367.9 373.9 378.6 383.4 389.2 394.4 399.6 403.9 411 419.8 436.1 454.3 468 478.2 487.1 494.3 503.4 512 520.3 528.2 534.8 540.3 546.9 552.5 558.9 564.4 571.3 578.1 583.5 588.6 593.7 598.9 605.5 614.8 625.3 627.6 628.1 628.7 628.7 627 623.7 623.5 623.6 627.6 630 633.9 638.6 641.9 654 665.8 672.4 642.9 591.7 553.6 525.4 490.4 477.8 472.6 469.9 465.9 465 464.4 469.1 474.6 474.6 469 462.9 450.9 442.5 426.8 420.1 413.3 401 386.1 368.3 359.8 348.9 344.5 330.4 323.1 313.1 310.7 309.2 308.3 301.6 300.7 299.6 295.9 293.3 293.4 290.2 287.1 284.5 280.9 281.1 286.2 284.7 281.9 273.6 265.3 265.7 264.3 266.8 265.6 265 262.8 262.6 263 263.7 262.2 260 257.6 253.1 250.6 249.7 246.4 254.7 259.2 264.4 267.4 270 270.3 273.6 272.9 269.5 259.2
150.4 152.5 153.2 154.7 157 158.2 159.3 160.4 161.4 162.2 163.1 163.9 165 168.1 177.8 188.7 192.1 194 195.5 198.5 202.2 205.6 212.6 221.9 231.5 238.2 246.9 255.8 272.8 289.6 305.2 324.9 336.9 347.4 355.7 358.3 368.6 372.9 379.1 399.1 411.4 422.6 442.8 463.6 487.6 505.1 517.6 521.2 515.6 500.4 482.2 453.7 422.3 402.2 385.2 374.2 366.5 360.3 353.8 345.4 336 327.7 328.1 331.3 335.4 340.7 344.4 348.8 353.8 358.7 363.4 367.6 369.6 371.3 376.1 379.9 383.2 387.7 392.8 395.3 398.6 402.1 408.5 418.8 434 450.1 462.9 472.3 481.8 488.5 496 503.9 512 519.3 528.8 536.4 543.2 549.6 557.1 563.6 570.4 577.2 582.3 587.3 592.4 596.5 604 611.3 616 619 620.4 620.8 621.1 621.1 621.3 620 618.1 619.9 624.4 626.7 630.3 636.5 650.2 657.7 673.2 654.2 611 573.2 535.4 499.9 485.1 473.8 467.5 465.9 464.4 463.6 465.1 469.1 471.6 465.8 458.3 452.4 438.7 430.8 417.7 416.6 397.9 380.4 369.5 363.2 351.8 343 334 326 311.8 311.1 311 309.4 302.6 300.1 299.8 294.8 292.3 293.1 291.1 287.6 282.6 279.5 282.3 285.7 280.5 274 266.7 264.8 264 263.7 263.2 263.4 262 261.7 261.4 263 262.5 259.7 257.7 253.7 248.6 247.4 246.9 244.5 247.3 249.3 254.1 256.9 260.8 262.1 261.2 257.8 260.3 249.2
153 154.3 157.2 157.9 158.5 159.2 160.4 161.6 162.6 163.2 163.7 164.6 165.5 170.6 183.4 190.2 194.3 196.8 199.5 202.7 207.6 213.7 217.7 225.3 234.5 239.6 245.1 258.9 280.1 297.2 314.4 331.7 344.1 353.9 361.3 365 375.5 378.6 382 404.9 417.3 427.8 454.1 482.6 502.9 520.5 533.9 536.7 530.2 514.6 496.7 472.1 436.6 408 393.9 391.5 385.2 374 361 349.9 334.6 328.6 328.8 331 337 345.3 351.4 355 360.1 364.1 369.7 374.8 377 381.5 385.4 384.9 389.6 393.6 395 398 402.3 405.5 410.7 419.4 434.1 445.6 456.8 465.3 473.4 478.5 483.8 492.2 503.8 517 525.8 534.5 540.7 546.8 553.6 560.6 568.2 575.2 581 586 590.1 593.9 600.6 605.5 608.2 609.6 611.8 611.5 613.3 615 613.6 615.2 613.9 611.7 614.3 618.3 622.3 626.5 640.9 651.8 660 672.5 643.4 595.6 559.6 516.4 496.5 484.4 477.4 471.2 466 463.6 462.6 462.8 463.4 462.7 459.2 448.8 435.1 428.8 412.4 414.3 400.1 379.6 367.1 361.6 351.6 343.3 337 325.4 313.1 311.6 311.1 308.4 304 299.6 298.8 295 289.6 290 288.5 283.4 280.7 277.9 283.7 286.6 279.1 270.8 265.4 264.7 264.2 263.7 262.8 261.5 262.7 261.8 261.1 260.5 260.2 254.6 253.2 249.4 246 245.2 244.8 244.1 244.3 246.6 249.7 252.6 255 250.9 251.8 253.1 251.3 242.5
156.5 156.6 158.5 158.9 159.8 160.6 161.5 162.3 163 163.5 163.9 164.4 168.1 176.8 183.3 188.3 194.3 199.7 202.5 207.6 213.9 218.8 224.2 230.1 235.1 241.7 249.5 266.6 286.2 303.2 319.5 337.2 350.9 358.1 365.6 371.7 382.5 385.9 393.6 409.1 425.6 445.3 469.3 493.6 514.5 532.8 547.3 550 541.6 529.1 514 488.6 453.7 427.2 411.5 408.1 401.4 388.6 369.7 351 333.9 328.8 328.7 329.6 335.3 345.5 355.4 360.9 365.3 369.7 375.5 380.4 385.9 390.1 390.4 390.6 395.6 400.9 401.2 403.4 406 409.1 415.2 424.9 434.2 441.4 450.7 459.2 465.2 470.3 481.9 491.7 504.9 516.5 524.4 531.6 537.7 544 550.8 557.5 566.1 572.6 578.8 583.8 587.6 591 594.9 599 600.1 601.3 600.9 602 601.6 600.5 602.2 607.7 606.8 602.4 607.7 612.6 616.8 620.8 632.2 646.8 655.9 665.8 660.9 623.5 581.9 541.8 521.6 499.9 492.2 482.6 475.2 468.8 462.9 460.5 461 459.4 453.2 443.3 428.3 423.2 410.4 409.4 397.6 375.8 365.1 360.7 349.9 343.8 337.1 325.3 314.3 311.9 310.6 306.7 301.6 298.8 295 293.2 291.3 288.6 286.6 282.1 282.3 277.1 280.7 284.4 279.8 269.4 265.6 265 264.3 263.8 262.2 262.8 262.9 262.6 261.9 261.6 264.1 259.5 254.8 255.5 248 244.2 243.9 243.2 243.7 246 245.5 245 246.4 247.2 247.2 248.5 246.4 240.9
158.2 158.7 159.1 158.9 157.8 157.9 158.7 160.4 160.9 161.9 162.5 164.2 172 178.7 184.1 190.8 198.2 204.1 207.1 212 216.5 220.5 226.8 232.4 239.5 250.3 259 273.7 290.8 304.9 323.4 341.1 354.7 362.8 371.1 375.8 390 398.9 408.6 420.1 435.5 456.5 479.7 500.4 522.8 543.9 558.9 563.2 557.8 547.4 532.8 508 475.3 447.6 433.4 427 412.8 395.8 380.9 360.8 345.6 339.2 332.8 346.2 347.1 352.8 361.6 366.2 370.5 375.8 381.4 386.8 392 390.7 391.9 395 401.8 403.4 405.5 407.1 408.4 413.5 422.5 432.6 440.2 449.2 457.5 466.3 471.4 475.2 483 496.1 506 516 522.2 527.3 534.5 541.1 547.8 554.9 562.5 568.6 575.8 581.1 584.8 586.6 588.8 590.1 591.8 592.3 591.2 586.9 583.8 582.6 591.2 594.2 595.9 597.8 602.6 606.5 612.4 619.6 626.3 638.9 650.2 656.8 675.7 652.9 610.2 567.2 536.2 514.4 504 493.2 483.3 473.9 466.1 459.9 456.9 451.2 446.9 440 420.7 416.5 407.4 403.8 393.9 372 360.8 360.3 346.2 343.5 342.5 327.2 320.5 311.8 307.9 307.4 305.5 303.3 298.8 297.9 292.7 289.9 288.4 287.1 284.2 280 277.2 279.9 277.6 267.3 265.8 265.2 264.5 262.4 262 263 262.8 262.4 262.1 261.9 266.8 263.4 256.8 264.4 250.2 244.5 243.7 243.3 243 243.2 245 245 244.6 244 244.1 245.5 245.7 235.3
158.3 157 155.4 154.1 154.1 154.5 155.7 157.3 158.7 160.4 162.4 166.7 175.5 184.3 191.2 196.6 201.6 202.5 207.5 209 218.7 224.6 229.6 237.1 248.1 256.6 263.5 277.3 293.7 310.1 330.1 344.1 356.6 366.3 373.1 385.3 397 404.5 417.6 428.6 443.8 462.8 485.7 508 529.7 552 567.8 573.5 569.5 562.1 549.4 527.7 497.9 471.2 452.1 444.7 430.8 410.8 403 389.5 371.2 376.6 375.9 368.8 361.6 361.3 367.7 371.6 376 381.3 386 390.8 395.2 395.2 396.5 401.3 404.6 406.9 409.1 411 414 422.1 433 440.3 447.9 457.6 465.1 468 472.3 477.8 488 499.9 505.8 512.2 517.9 521.8 528.5 535.9 543.3 549.4 557.1 561.4 565.9 572.9 577.6 577.7 577.6 578.6 580.7 580.1 574.4 570.2 566.8 572.4 578.5 584.5 592.5 595.9 600.1 604.6 610 613 625 631.4 642.4 650.1 664.7 677.8 637.1 598.5 558.7 535.3 514.4 500.8 488.3 476.2 465.4 459.9 456.7 452.7 449.6 437.5 413.4 411.5 402.9 395 389.5 371.7 361.8 351.1 344.1 340.9 341.6 328.1 323.9 315 314.2 314.8 313.9 309.4 300.1 298.2 294.8 291.3 286.8 284.2 281.6 277.6 273.6 274.1 272.6 266.6 265.6 264.9 262.9 264.3 263.4 263.1 262.7 262.3 261.9 261.9 266.7 264.1 260.1 261.8 251.8 244.9 244.4 244.3 243.8 243.4 243.5 243.2 243.3 242.9 241.8 241.4 240.1 235.9
157.9 155.4 152.8 150.8 150.6 152.4 155.9 159 164.1 166.5 170.7 174.8 178.6 183.4 188.1 193.2 196.3 199.8 204.3 212 220.6 226.1 233.3 242.2 252 262.5 269.6 282.7 297 313.9 332.7 345.3 357.2 365.2 377.7 389 397 407.7 419.6 430.9 448.3 466.7 489.8 512.3 533.4 554.6 572 577.9 578.6 573.8 564.8 548.3 523.2 500 483.1 476.9 468.1 444.9 439.6 416.6 419 404.9 394.7 390.1 382.9 381.2 386.8 381.4 379.1 387.6 391.8 395.6 401.1 401.6 404.4 405.1 408.2 410.4 412.6 416.5 422.8 431.6 439.8 448.4 455.3 463.7 467.7 471.2 477.8 484.1 492.9 499 503.6 507.3 510.9 513.5 519.4 528 536.3 541 548.5 553.1 554.5 556.9 562.5 566.7 564 566.8 566.7 564.1 566.1 558.2 559.5 568 580.8 591.1 592.9 592.6 595.1 601.1 605.4 610.3 621.4 629.2 636.3 645.9 649.3 675 662.2 627.6 586.4 559.2 535.8 515.6 503.5 480.5 466.7 457.8 450.1 448.8 443.8 431 407.3 404.6 399.2 381.8 380.1 372.8 365 350.7 340.6 335.1 334.7 328.9 322.4 322.6 318.6 319.1 318.5 313.8 304.2 298.5 294.9 289.7 285.9 282.2 278.9 274 271.5 272.3 271.8 265.9 263.4 264.3 264.3 263.8 263.6 263.3 262.9 262.5 262.1 262.6 264.4 265.5 260.8 259.9 249.8 245.2 244.6 244.3 244.3 243.7 243.6 244.5 243.7 241.5 241.2 240 237.2 235.1
152.9 150.1 150 149.1 153.2 156 160.6 164.7 168.5 171.7 174.4 176.8 177.6 182 186.4 190.9 197.2 202.8 210.5 215.1 221.7 228.8 236.3 246 256.6 267.1 274.2 287.8 300.5 316.9 334.1 346.9 356.5 366.4 377.6 386.9 394.6 405.2 417.8 432 448.7 468.5 492.3 512.8 533.2 553 570.8 579.6 582.1 581.3 574.3 563.8 547 530.9 519.6 510 503.9 496.8 478 473.1 458.4 437.6 433 431.1 416.1 419.4 414.2 404.2 394.4 394.8 398.3 401.9 402.9 405.2 409.5 410.6 413.7 416.5 419.6 426.3 433.1 441 446.6 453.6 459 466.2 469.6 475.7 482.3 488.7 493.3 497.1 498.3 500.1 501.3 501.1 509.6 517.2 525.1 527.6 530.7 533.7 538.3 541.5 544.8 543.7 542.2 540.9 549.1 552.2 548.5 546.7 554.2 564 570.6 575 580.8 584.7 587.5 590.5 594.1 603.4 613.4 624.6 627.4 639.5 643.4 660 670 650 616.3 584.4 556.9 532.4 501.7 482.9 471.1 455.9 444 436.2 431.1 410.4 410 396.6 393.8 371.5 373.4 370.6 365.4 352.8 338.8 333.8 332.5 330.5 327.6 326.4 323.9 322.9 320 314.5 308.4 297.8 296 293.1 286.1 283.1 276.3 272.4 269.5 271.3 269.7 265.1 265.2 264.6 264.4 264.3 263.8 265.4 263.2 262.8 262.5 262.2 263.7 262.2 259.9 259.4 250 246 245.1 244.2 244.4 244.8 244.4 244.3 243.5 241.8 240.1 238.5 235.9 235.2
146.8 144.9 145.5 150.2 153.3 158 163.3 167.1 169.4 172.1 174 173.4 176.1 183.3 189.4 194.7 201.4 206.6 211.8 217.1 223.6 231 239.6 250.1 260.5 270.2 279.1 292.4 304.7 319 335.3 346.2 356.5 369.1 377.6 382.6 387.9 400.1 414.9 432 448 465.8 488.2 508.7 527.5 547.9 564.8 575.8 581.7 582.4 577.7 571.1 564.1 554 551.2 536.4 527.6 519.4 509.9 499.8 487.8 478.3 472 463.7 452.2 453 444.6 433.1 416.7 410.6 410.2 408.9 409.7 410.8 412.9 415.3 417.9 422.9 426.7 432.6 439.1 445.9 450 456.4 463 469.8 475.2 481.9 488 489.3 491.2 493.4 492.1 490.2 487.8 490.6 496.2 507.5 513.2 514.9 514.3 519.8 525.9 527.7 526.8 524.2 528.3 526.3 536.8 536.7 535.2 539.2 549.3 556.4 556.2 560.3 570.9 576.8 582.8 582.6 583 587.9 595.1 615.8 622.9 631.6 638.2 644.6 665.4 665.3 637.4 609.6 582.8 546.4 512.7 486.6 475.6 460 443 423.1 421.3 407.7 397.1 390.3 387.3 362.5 367.1 364.2 368.3 360.1 337.9 334.4 334.3 332.6 333 331.7 329.5 327.3 321.2 315.3 306.6 298.8 294.1 293.1 288.3 282.6 276.3 272.2 269.4 269.4 266 266.7 265.9 265.3 267.6 269.6 270.8 269.1 264 262.6 262.3 266 270.2 261.8 259.5 254.4 253 254.2 247.3 245.1 245.2 247.4 248.7 247.3 247 245.5 243.5 241.5 235.5 233.4
140.7 144.7 149.4 152.5 155.5 161.1 164.6 164.7 162.6 164.4 167.7 174.7 181 186.3 191.2 196.9 202.7 207.4 212.6 218.6 225.3 232.7 242.6 252.8 263 272.9 281.3 293.4 305.8 322.3 334.6 347.3 359.3 368.4 374.5 379 381.3 394.6 408 428.5 443.6 460.8 481.1 501.3 519.5 540 556.8 569.2 576.2 579.3 578.1 577.2 574.4 575.3 566.3 558.1 547.6 538.2 529.1 517.4 508.6 502.4 494.4 486.8 481.6 476.1 469.1 459 450.8 440.5 426.9 419.9 419.6 417.8 418.7 421 423 428.6 432.8 437.1 441.8 446.2 450.3 457.3 465.9 474.9 480.1 485.8 486.4 484.9 488.2 486.8 481.3 475.9 468.3 476 477.8 485.6 495.1 501.2 505.1 512 513.4 513.8 515.7 514.6 516.3 520.9 522.3 525.5 529 536.2 543.3 545.3 546.8 549.6 561.6 570.2 572.5 572.2 569 572.2 572.3 594.4 614.3 623.8 628.9 639.4 652.7 653.4 650.4 628.3 597.3 556.8 522.7 483.5 477.4 458.8 433.3 413.4 410.2 403.6 396.8 384.4 373.5 358.8 351.7 359 372.1 353.4 341.9 336.2 335.8 340.1 340.3 336.8 332.6 328.4 321.8 315.7 308.6 302 293.7 289.3 285 279.4 277.9 276.5 271.9 268.3 269.9 269.2 270.1 269.3 273.9 275.1 278.5 270.1 266.7 263.5 263.7 264 265.9 263.5 259.7 259.1 264.1 266.3 255.1 249.9 249.9 252 255.8 252.5 250.9 249.5 246.5 242.8 236.6 232.9
141.4 148.1 151.6 153.1 154.3 157.8 160 158.9 162.3 167.5 173.1 179.3 183.9 187.8 191.8 196.8 203.9 208.5 214.3 220.3 226.8 235.5 244.8 254.3 264.3 274.2 282.6 292.9 309 323.7 336.4 348.2 357.3 365.5 370.7 373.6 376.7 386.1 401.1 419.9 437.7 451.8 472.3 491 509.5 530 547.5 560.3 566.7 573.3 577.7 582.1 584.8 583.5 577.7 570.1 560.1 553.6 545.2 527.7 518 509.9 501 494.1 490.5 488 483.3 476.2 467.8 456.5 444.6 431 427.9 424.1 424.2 426.7 429.1 432.8 436 437.3 439.6 443.5 449.4 456 463.3 472.7 478.7 481.3 482.8 478.3 479.1 473.1 466.3 460.9 456.7 460.4 460 467.2 472.8 482.6 495.4 497.1 498.1 501.2 502.3 505.7 510.6 515.6 520 520.2 526.8 532.5 533.5 539.8 538.1 542.4 554.6 558.9 563.3 563 557.9 552.8 554.2 571.4 588.2 612.8 619.8 639.5 642.8 638.8 648 642.2 605.4 556.8 519.4 475.7 459.9 447.7 428.2 407.7 402 403.3 391.2 375.5 365.8 350.5 349.6 351.4 363.7 351.6 346.7 339.5 343 345.8 342.5 336.9 332.9 328.6 322.3 315.8 310.9 304.7 296.8 288.3 283.4 280.5 280.8 277.9 274.8 271.6 273.6 276.4 278.3 280.9 283.6 286.7 283.3 276.6 272.4 263.9 266 266.9 266 268.6 267.2 268.1 270.3 264.8 261 258.1 259.8 258 259.9 259.5 256.5 253.3 247.9 242 239 233.3
142 145.9 148.9 149.4 151.3 155 159.7 163.1 166.6 171.1 176 180.3 184.8 189 192.9 198.1 204.7 209.8 215.7 221.9 228.1 237.9 245.8 255.8 265.2 274.4 283.8 295.1 307.2 323.2 336.1 345.9 353.5 359.3 364.5 366.5 370.3 379.8 388.2 409.5 425.9 443 461.3 482 502.7 520.8 538.9 554.3 564.7 572.2 576.9 581 586.4 584.9 579.4 571.1 562.9 558.6 548 526 514.9 506.2 498.1 495.6 495.3 497 493.1 483.7 474 463.2 452 442.2 433.5 429.1 427.7 427.6 429.2 431.6 433 434.3 435.8 438.9 441.9 451.3 457.9 457.9 463.1 471.4 469.9 468.5 467.4 462.7 456.4 447.3 444.9 440.8 444.9 447 452.3 462 473.9 476.6 481.5 484.4 486.1 490.5 505.2 510 514.8 518.6 518.6 522.6 530.2 536.1 535.5 537.8 548.4 553.1 555.6 555 549.6 542 538.3 551.3 565.2 592.8 614.3 628.3 635.9 630.7 634.4 638.6 598.8 557.6 513.5 472.9 449.2 443.6 418.8 399.8 394.5 394.3 383.1 371.4 353.2 350.3 349.7 349.3 358.3 347.1 343.2 344.6 345.4 346.4 341.7 336.6 333.2 329.5 325.2 320.9 312.9 306.6 300.7 291.9 288.5 289.9 284.2 280.1 277.3 276.4 282.1 284.9 289.1 293.7 295.1 296.7 294.1 284.5 280.9 267 268.6 273.1 273.2 274.7 274.5 276 280.5 271 271 271 269.3 264.7 262.6 263.6 261.8 258.5 255.7 248.9 241.9 237
145 148 150.9 154.8 157.7 161.6 164.3 166.8 169 172.8 176.5 181 185.6 190.1 194.1 199.6 205 210.6 216.9 223.3 230.6 238.8 246.8 255.8 265 274.2 284 295.4 308.8 322.5 332.7 341.4 348.3 354.2 358 360.7 364.6 371.4 384.5 403.9 420.9 438.5 454.1 476.7 495.7 512.8 529.2 548.4 561.3 569 571.8 571.4 571.5 572.8 569.1 561.1 550.9 544.4 532.6 516.6 504.6 499.6 496.6 494 493.6 495.8 490.2 480.8 474 463.8 452.6 445.6 436.5 432.1 429.2 425.2 423.8 424.3 426.7 427.5 428.5 430.2 433.7 440.3 444.7 444.8 448.6 454.6 457.1 456.3 449.7 449.2 440.4 436 430.7 422.6 429.5 436.9 440.3 446.5 455.5 459.5 465 466.9 476 480.7 498.6 501.5 509.5 517 512 515.7 525.7 531.7 528.9 534.2 541.4 544.9 546.3 549.2 546.1 537 530.2 533.5 545.4 567.5 596.7 616.9 626.7 623 622.8 626.1 594.9 552.6 513.7 479.6 446.1 436 417 395 387.6 383.2 375.3 363.5 354.3 348.5 349.1 349.6 348.4 349.9 344.2 346.1 347.4 346.1 340.2 333.2 331.3 328.4 328.8 326.1 316.3 307.1 302.7 295.7 293.7 294.2 288.8 285.1 284.4 287.7 292.7 297.4 301 307.8 308.3 310.1 303.9 294.3 288.3 273.4 269.5 277.2 282.3 284.4 281.6 280.9 283 282.3 280.8 278.3 277.4 272.1 266.8 269.2 268.5 263.8 261.3 257 250 244.2
150.5 152.6 154.6 156.9 159.3 161.5 163 165.5 168.7 173.2 177.3 181.8 186.3 190.8 195.2 200.5 205.4 212.7 217.8 224.1 232.5 240.4 247.7 256 264.9 273.5 285.6 298.6 310.8 320.7 328.6 337.9 343.6 349.2 352.2 355.8 360.4 368.4 380.4 397.9 416.9 433.5 449 471.3 490.8 505.6 523.6 541.4 554.1 559.6 561 558 554.9 555.6 557.3 546.8 536.7 526.2 517.3 507 499.4 493.5 488.3 488.2 487.9 485.6 479.8 475.5 466.3 457.5 449.9 440.5 433.3 427.7 424.1 419 416.4 416.6 418.5 420.1 420.8 421.4 421.3 423.5 427.2 430.4 435.6 436 438.2 433 432.4 429.8 428.9 425.9 416.4 413.7 417 422 433.1 436 437 446.2 452.2 454.2 466.2 474.4 488.3 495.5 500.1 509.8 503 510.4 518.8 524.1 519.4 515.5 533.7 534 538.4 540.7 540.3 534.5 530.2 530.2 530.2 548.7 578.8 604 616.7 612.7 611 614.5 595 545.3 514.3 478.6 443.2 430.1 412.1 391.7 382.7 375.6 368.9 363.3 354.5 350.5 349.8 350 349.8 350.1 344.7 347.1 349.8 347 336.3 331.6 330.5 329.4 332.8 334.3 316.6 306.5 303.7 294.7 293.9 291.6 290.1 289.4 295.5 304.6 308.6 310.2 313.5 318.5 318.7 316.9 310.9 300.4 287.7 277.6 273.7 278.8 290.4 291.3 289.9 289.4 289 289.7 287.2 287.3 287.3 281.9 275.8 274.9 276.6 274.5 268.5 263.2 257.9 250.7
151.3 151.9 153.5 154.8 157.1 159.1 161.4 164.9 168.5 173.6 177.9 182.8 187.2 191.7 196.1 200.9 207.6 214.2 220.4 226.9 233.2 241.1 248.7 256.5 265.5 275.2 287.4 299.9 309.2 318.5 326.3 332.3 339.2 342.9 346.7 350.8 356.2 365.3 376.4 391.8 409.5 427.1 446.7 464.1 480.7 497 513.1 529.5 539.4 543.1 544.2 543.1 538.3 535.3 532.5 527.6 520.2 514.5 506.3 499 492.6 485.2 481.3 478.6 475.6 472.5 466.6 461.7 453.9 448.4 439 431.1 421 417 410.8 407.6 407 407 409.6 411 413 413.5 413.6 413.8 413.4 416.6 418.9 421.2 419.7 419.1 419.7 416.8 414.9 412.8 402 404.4 408 409.3 414.2 419.6 427.4 437.1 444.2 446.7 453.3 456.9 473.2 487 492.3 498.9 498.7 504.7 509.3 514.9 511.8 515 523.3 525 528.6 533 536.4 534.5 530.2 530.2 531.9 540.2 562.5 587.6 594.5 603.9 602 603.5 588.5 546.4 512.1 478.2 449 428.4 409.7 393.8 382.5 372.9 370.7 360.6 358.6 352.3 349.4 350.3 350.2 350.8 348.5 349.5 349.8 345.8 336.6 329.5 327.9 330.7 338.3 336.3 319.7 307.1 306.2 297.2 294.8 297.5 297 302.5 311.1 316.9 319.2 319.5 323.4 325.2 324.1 320.1 316.2 308.8 287.3 283.2 281.4 285.2 292.4 295 294.5 295.7 296 294.7 291.6 294 297.7 293.9 283.4 281.6 283.3 282.4 278.1 272.4 266.9 260.1
149.2 150.2 149.7 151.4 154.5 157.9 161.4 165 169.7 174.4 178.4 183.8 188.2 192.7 197.1 203.1 209.7 215.9 222.1 227.9 235.1 241.5 249.1 256.9 266.5 277.7 289.1 298.5 306.5 315.9 321.9 327.9 334.1 337.5 341.3 345.3 350.2 358.7 374.3 386.8 403.1 420.1 439.2 456.9 474.2 486.7 499.7 510.8 518.5 523.1 523.4 523 521.6 519.4 515.4 512.3 511.4 504.6 497.5 490.3 481.1 473 470 465.8 463.3 457.8 450.1 443 437.5 427.7 420.8 414.3 410.3 405.3 400.6 396 395 397.5 400.3 401.3 403.5 405 403.6 402.5 404.3 408.2 410.3 412.6 412.4 411.1 408.8 406.9 404.5 399.1 394.9 396.1 399.1 402.6 406.1 415.8 422.9 434.7 439.1 440.9 443.4 453.4 456.7 477.6 484.9 491.7 494.8 492.7 499.4 506.9 506.5 506.1 511.5 516.1 521.4 525.9 529.7 532.4 531 530.2 530.2 534 550.6 564.6 587.1 599.7 598.8 598.7 601.2 551.2 512 483.1 458.5 445.7 417.1 397.9 385 381.4 369.7 363.7 361.8 363.3 356.5 350.9 352.9 356.1 356.5 351.4 348.8 344.1 334.4 329.2 326.8 327.2 329.7 330.8 322.4 307.5 308.7 304.9 305.7 305.7 306.8 314.1 319.7 323.9 326.7 330.6 330.3 329.3 328.4 323.6 318 308.1 285.1 286.6 290.9 286.5 297.1 299.3 302.5 305.2 308 308.1 306.3 308.1 304.3 301.8 295.2 289.6 289.5 288.5 286.2 279.9 276.1 271.8
145.7 147.1 148.3 151.4 154.5 157.9 161.4 166.2 171 174.8 178.9 184 189.1 193.4 199.6 205.3 211 217.6 223.6 229.3 235.8 242.7 249.3 258.2 268.1 279.2 288.1 296.9 304.1 311.9 317.8 323.1 328.2 332.7 335.4 339.1 344.9 355.6 370.6 382.1 397.5 413.1 431.4 448.5 462.3 473.6 483.5 492.2 497.2 501.9 503.4 503.9 500.8 500.8 500.8 499.9 497.2 492.5 485.7 477.8 468 459.9 456.1 447.3 441.4 433.9 426.9 418.4 413.7 407.5 404.1 399.4 394.9 392 389.7 387.6 387.8 389.8 392.5 393.7 394.5 396.1 396.1 396.4 399.3 403.8 406.4 406.5 405.6 401.7 399.1 398.9 394.7 390.9 388.4 389.3 393 395.6 400.6 408.7 413.8 430.9 434.5 435.9 437 446.9 449.9 474.8 476.6 479.7 486.7 484.4 488 494.8 494.7 495 500.2 509.4 517.4 520.9 524.9 529.8 532 530.2 530.2 534.9 539.3 554.5 591 598.6 598.4 598.7 606.2 566.9 524.7 497.6 479.4 459.2 436.5 409.8 393 383.2 374.6 369.9 372.1 363.2 357.9 356.3 356.8 357.9 360.1 356.4 347.5 343.4 332.2 326 322.9 320.5 320.5 321.7 317.1 309.2 309.4 309.7 310.6 308.4 317.1 324.5 328.5 328.1 330.8 334.6 335.4 337.6 336.3 330.1 323 304.9 289.4 296.1 296.6 296.5 300 300.6 307.4 318.1 320 318.9 317.7 316.4 312.8 310.2 300.6 300.8 296.1 295.1 292.6 289 285.5 281
142.7 145.9 149 152.1 155.5 158.4 162.7 167.6 171.3 175.1 180.5 184.9 190.2 194.6 200.4 206.1 211.9 218 224.2 229.6 235.2 242.1 249.5 259.2 269.7 278.4 286.4 294.1 301.9 307.7 313.3 318.3 322.2 326.1 329.2 333.1 339.3 349 363.5 376.3 392.3 406 421.6 437.2 448.4 458.6 465.3 472.4 475.6 478.9 481.8 481.1 482 483.6 483.7 484 481.5 476.5 470.3 463.7 454.1 444.5 433.7 423.7 416.8 413.7 406.6 399.2 396.1 393.2 388.1 384.2 382.5 380.3 379.5 379.9 380.5 382.1 384.6 386.5 387.3 388.1 390 392 396 400.2 401.2 400.8 398.5 395.1 395.8 396.5 392.2 387.7 382.3 382.3 387.3 390.7 394.1 402.9 406.9 423.1 427.3 429 432.7 437.2 443.1 452.7 467.6 470.5 472.2 474 473.8 480.9 480.4 481.2 495.5 503.3 514.9 521.4 527.2 533.4 537.4 540.4 539.4 542 547 559.4 590.1 598.2 598.3 600.5 615.3 583.3 539.8 513.6 501.4 476.2 451.5 425 409.8 396.2 380.6 375.3 372.9 364.8 359 358 360.3 364 358.2 356.3 350.2 344.9 332.5 321.5 318.3 314.5 313 313.4 311.1 311.5 313.6 314.4 313.8 315.7 325.1 329.6 331.6 331.9 334.6 338.9 341.5 343.5 342.1 336 325.3 305.2 295.2 304.9 307.5 301.2 300.7 308 317 334 329.9 325.4 323.1 320.5 321.2 314.1 309.4 306.3 304.1 303.1 301 296.4 292.7 287.9
144 147.2 150.3 153.7 157.2 159.8 163.7 168 171.6 176 181.1 185.6 190.4 195.2 201.1 206.9 212.8 218.8 224.5 229.7 234.6 241 250.4 259.9 270.3 276.8 283.3 290.3 297 303.2 308.8 313.7 316.9 319.9 323.6 327.8 334.6 343.9 356.2 370.3 384.5 396.3 409.8 422.9 434.3 441.9 447.9 451 454.6 458.4 460.7 462.9 463.4 465.1 464.9 464.6 461 457.1 445.8 435.3 427.5 416.1 414 403.8 397.4 399.1 394.1 384.3 378.7 375.9 375.1 373.4 371.4 371.9 373 374.1 374.1 375.6 377.8 379.3 380.3 382.7 385.4 387.8 391.5 394.8 396 395.5 393.7 392.6 393.7 394.3 391.3 385.6 382.3 382.3 382.3 382.3 391.3 396 399.3 413.3 416.4 419.9 426.9 430.7 438.2 440.3 452.8 461.1 462.7 463.6 463.8 461.9 463.4 473.6 485.9 495.9 511.9 521.6 530.6 538 544.4 549.6 553.2 552.2 557.8 569.1 585.7 598.7 600.2 612.6 628.4 603.4 563.6 539.4 520.5 499.7 474.8 443.4 427.3 406.2 388.6 384.8 382.3 369.5 365.7 362.6 362.8 366.3 359.2 357.1 352.4 345.4 332.1 314.9 311.1 310.1 309.5 309.6 308.9 310.2 311.1 312.3 316 320.6 327.9 333.2 335.6 338.1 340.7 343.5 346.4 347.7 345.7 340.7 328 308.6 300.3 308.3 307.3 304.2 306.1 319.4 327.1 342 338.4 346 334.5 331.4 327.4 318.6 322 316.6 317.2 310.7 309.3 304.9 302.1 298
145.1 148.4 151.7 154.5 157.2 160.2 163.8 168.5 172.5 177.2 182.1 186.9 190.5 196.1 201.9 207.8 213.6 219.6 223.6 228.7 233.2 242.3 250.5 261.2 269.4 273.1 281.4 288.5 293.5 298.7 304.1 308.7 311.5 314.3 317.7 321.9 328.4 338.6 348.5 359.1 373.5 386.5 397.5 409.4 417.7 422.5 428.8 431.1 434.7 439.9 444.2 444.5 444 442.6 441.2 438.4 437.2 430.2 414.8 408.9 399.8 392.5 393.1 380.7 378.6 380.4 382.1 373 370.8 367.9 365.4 365 366.3 366.8 367.2 367.9 368.8 370.5 371.9 373.3 375.3 377.8 380.5 383.3 387.4 390 391 391 390.8 389.9 390.7 391.3 388.1 382.3 382.3 382.3 382.3 382.3 384 388.8 393.7 397.5 406.4 413.9 419.2 422.9 429.4 432.7 436.3 449.9 454.3 454.3 452.3 449 450.1 462.2 478.7 492.5 515.4 523.6 533.5 541.9 549.4 556.7 563.4 567.1 573.6 588.6 599.1 604.1 607.4 629.4 641.2 623.8 588.4 560.8 532.6 515.5 487 456.3 441.6 418.3 400.1 390.7 386.9 381.9 374.2 368.7 365 365 360.9 356.7 347.8 338.5 325.7 308.5 300 303.2 305.2 305.5 306.7 308 308.2 312.1 319.1 327.2 332.3 337 340.4 343.2 344.7 347.5 349.6 351.2 348.3 342.8 330.9 312.8 308.4 311.8 306.6 308.1 313.6 326.4 339.7 343.1 346 350.2 345.5 337.6 331.8 325.9 325.6 326.5 329.6 324.9 318.1 318.1 316.6 311.7
146.3 149.2 151.8 154.6 157.4 160.5 164.7 168.7 173.3 177.9 182.6 187.2 191 197.1 202.9 208.7 214.5 219.4 223.1 227.6 233.6 241.9 251.3 261.3 266.4 271.7 281.1 286.1 290.9 295.8 300.2 303.2 305.9 308.6 312 316 320.2 330.1 338.4 350.3 361.6 375.6 387.9 398.1 406.2 410.7 409.6 414.4 418.6 420.6 424.3 424.7 422.2 422 411.5 411.3 411.4 403.5 397 392.1 386.3 376.1 376.4 366.8 369.4 367.3 366.3 363.3 362.1 359.4 358.9 360.7 362.3 362.2 362.7 363.1 363.9 365.6 367.1 369.1 370.9 373.1 376.2 380.2 383.1 386.1 386 386.1 387 388 388.7 389.6 389.2 382.3 382.3 382.3 382.3 382.3 382.3 386.4 389.1 392.4 396.2 403.8 409.9 414.7 420.8 428.2 430.7 434 439.2 442.5 441.7 442.4 444.8 454.7 469.8 493.7 526 531.6 542 546.2 553.5 563.4 570.8 577.4 588.5 606.1 612.7 612.5 614.4 636.7 648 642.1 616.9 581.5 551.9 528.6 504 465.7 438.8 425.2 414.9 398.5 386.4 389.1 392.5 373.9 367.1 366.3 359.7 351.7 341.5 331.7 319.7 303.8 295.3 293.9 298.2 299.9 301.6 302.9 306.1 313.6 324.1 331.2 335.9 340.7 344.1 347.3 349.4 352.9 355.1 353.9 349.9 343.5 328.9 315.9 316.9 319.2 315.1 320.3 323.3 336.6 347.5 352.9 351.6 356.2 356.1 347 336 333.8 335.9 339.1 345.1 330.2 327.5 324.8 324.7 321.9
146.3 149 151.9 154.7 157.7 161 164.5 168.7 173.4 178.2 182.8 187.4 192 197.3 202.9 208.7 214.6 219.4 223.1 227.1 234 241.3 251.4 260.1 264.6 270.1 278.1 283.6 288.4 293.1 297.3 299.9 302.2 304.6 307.9 311 315 322 331.3 339.8 352.7 363.2 375.2 384.9 391.8 396.9 395.8 397.4 399.2 400.5 401.8 405.8 403.3 401.8 392.7 383.3 384.9 380 380.4 376.7 373.9 364.5 358.7 357.9 357.3 356.8 355.9 355.4 354.2 353.3 353.6 355.3 357.4 359.1 358.4 358.1 359.5 361.5 363.7 365.4 367.2 369.6 372.7 377.4 380.3 382.7 383.7 384.7 385.6 386.5 387.9 388.8 390.6 382.3 382.3 382.3 382.3 382.3 382.3 382.3 386.5 388.3 395.2 400.8 405.8 409.3 413.7 420.6 426.9 431.9 435.1 436.3 438.7 440.3 443.4 446.5 467.3 500.9 543.7 561.5 566.2 572.1 571.8 572.3 574.6 589.1 603.5 613.3 619.1 619.3 622.1 644.1 651 653.4 642.5 605.3 564.4 539.7 512.2 474.9 441.6 426.9 413.7 398.3 391.5 385.6 382.5 371.1 368.8 370.1 359.9 349.3 337.1 327.8 316.3 299.9 291.6 288.7 289.8 292.5 294.2 297.5 306.8 319.7 327.4 333.9 339.6 344.1 347.8 351.4 354.1 357.5 359.2 356.1 349 342.6 330.8 323.6 319.6 325 327.3 329.9 330.3 345.2 349.5 357.5 367.7 364.7 361.2 351.1 341.4 344.4 343.5 348.9 345.9 336.2 332 336.6 336.5 335.6
147.8 150.1 152.3 155 158 161.3 165.3 169.6 173.3 177.9 182.6 187.3 191.2 197.8 202.5 208.2 214.4 219.3 223.3 227.6 234.4 242.3 250.9 258.3 263.7 269.7 275 281 285.8 290.4 294 296.8 299.2 301.6 303.9 307.4 311.4 316.5 324.2 332.4 342.8 353.5 364.8 374.4 379.6 383.8 383.8 383.3 383.9 380.7 384.3 385 383.6 379.7 373.7 368.9 367.2 366 365.4 364.9 364 359.6 356.7 354.8 352.4 351.1 349.7 349 348.3 349 349.4 350.9 352.7 354 354.2 354.4 355.8 357.5 359.7 361.7 363.7 366.9 370.2 375.4 377.9 380.3 382.3 383.3 384.2 386.4 388.5 389.7 392.7 386.5 382.3 382.3 382.3 382.3 382.3 382.3 384.3 387.9 392.2 397.3 402.2 405.2 409.9 417.7 422.4 430.2 432.6 434.7 438 441.7 443.5 454.5 474.8 515.7 563 587.3 587.9 596.3 594.4 593.1 597.8 604.4 613 619.1 625.3 626.5 630.4 640.7 656.3 662.2 649.5 617 578.3 546.6 519.1 484.5 453.8 428.2 413.2 401.3 388.3 382.6 385.2 363.4 370.5 373.5 363.8 348 332.1 323.1 312.9 296.7 287.4 285.3 285.3 287.7 291.4 298 307.5 317 327.6 335.7 343.1 348.5 352.7 357.2 359.1 361.3 363.7 358.4 346.5 338.4 329.6 327.1 322.9 330.6 338 334.9 344.7 351.1 357.8 368.2 379.6 371.3 367.8 365.3 353.8 359.5 354.5 353.5 356.5 348.9 355.3 356.2 354.3 352.5
147.4 150 152.5 155.6 159.2 161.5 165.2 169.1 173.1 177.7 182.3 186.8 191.3 198.3 203.5 208.6 214.2 218.9 223.6 228.3 235.9 242.7 250.8 256.5 260.8 269 274 278.4 283.1 287.5 290.7 293.6 296.2 298.5 300.9 303.5 307.6 312.2 318.6 324 331.9 342.9 352.4 359.9 367.2 370.6 370.2 367.5 367.1 368.4 370 369.8 366.8 358.5 354.3 357.5 360.5 361.4 360.9 360.7 358.4 357.3 354.2 351.2 348.3 345.7 344.2 343.1 343.9 344.6 345.2 346.5 348.3 349.4 349.8 350.7 351.9 353.4 355.7 358.5 362 364.8 370.1 374.5 376.6 378.5 380.4 382.1 384.2 386.1 387.4 388.8 392.5 389.4 382.3 382.3 382.3 382.3 382.3 382.3 384.1 386.9 388.9 393.6 398 401 406.9 416 426 431.2 433.7 438.1 442.5 449.5 453.4 477.1 508.9 528 577.4 600.9 613.2 614.6 614.5 613.7 618.9 620.7 633.2 629.7 633.1 635.4 642.2 649.4 663.2 672.1 656.8 612 572.9 545.9 526.3 492.7 466.4 433.7 415.4 413.5 394.3 381.4 374.3 357.1 367.1 373.9 362 348.3 322.8 313.5 308.5 292.9 282.3 279.3 280.2 284 289 294 304.3 315 330.1 340.9 348.8 356.3 359.2 359 362.7 370.5 368.1 358.5 345.9 337.1 332.4 330.1 331.4 332 339.8 344.4 356.3 364.3 377 380.5 380.8 381.3 375.3 374.6 362.5 360.8 358.7 359.7 364 370.7 382.3 366.2 364.3 363.9
147.1 149.7 152.8 156.9 159.3 161.7 165.7 169.5 173.5 178.2 182.8 187.1 191.7 198.3 204.6 209.8 214.7 219.4 224.1 229 235.6 242.3 250.1 255.4 260.9 267.3 271.6 275.9 280.5 284.6 287.5 290.3 293.1 295.5 297.9 300.2 304 308.5 313.2 319 323.3 331.9 341.7 347 355 357.4 357.2 356.1 356.8 358.5 359 358.7 356.6 352.1 352 353 357.9 359.4 359.6 358.7 355.6 354.7 350.2 347.4 344.4 340.7 339.5 338.6 339.5 340.4 340.9 342.1 343.9 345.1 345.8 347 348.5 350.7 353.2 357 360.4 365.1 370.1 373.6 375.7 377.2 378.3 380 381.8 383.9 385.3 387.5 389.9 390.9 382.3 382.3 382.3 382.3 382.3 382.3 384 386.5 388.1 391.9 394.9 401.1 407.5 415.6 425.9 432.8 439.5 449 458.2 465.2 472.2 497.8 532.5 572.5 601.3 627.3 632.9 635.3 627.3 629.2 639.9 641.1 648.7 643.7 645.9 648.6 653.1 661.8 672.2 684.8 655.5 607.5 571.9 539.6 513 498 473.7 434.4 422.3 407.2 392.9 373.2 367.5 354.8 365.2 382.8 351.6 335.9 318.1 306.3 299.4 289.2 277.2 277.1 277.1 279.9 286.5 291.7 303.8 314.8 326.4 345.3 350.4 358.7 356.2 356.7 372.4 368.3 360.8 354.6 347.3 342.2 335.6 333.3 331.9 331.8 345 352.5 360.5 380 389.7 399.5 392.6 384.3 381.9 378.8 369 366.3 366 366.4 372.7 381.3 386.7 377.4 372.8 370.3
147.2 150.6 153.4 155.8 159.1 161.8 166.2 170 174 178.8 183.5 187.8 192.7 198.9 204.9 210.1 215.1 220 224.8 230.7 236.1 243.2 248.9 254.7 261 265.4 269.4 273.5 277.7 281.8 284.7 287.3 289.9 292.5 294.3 297.4 300.9 304.4 308.8 313.6 317.8 322.7 330.4 336.4 340.3 343.8 346.1 345.8 345.5 348.7 349 350 350.7 351.1 350.7 352.3 356.4 360 359.3 357.4 352.9 348.4 345.5 343.6 340.1 337.5 335.7 334.9 335.2 336.1 336.7 338 340.6 341.6 343.3 344.9 346.7 349.6 352.6 356.6 361.1 365.8 369.2 372.8 373.8 373.7 374.4 376.1 377.9 378.7 382.5 384.9 388.1 382.3 382.3 382.3 382.3 382.3 382.3 382.3 382.9 387.9 387.4 389.6 395.7 404 412.2 420.4 428.9 440 450.3 465.1 471.6 479.6 498.3 524.3 575.9 604.6 634.6 645.3 648.3 648.3 640.8 644.8 650.6 662.7 669 667.2 659.9 664.5 668.4 673.2 676.3 681.9 656.1 610.2 569.4 537 512.1 500.8 475.2 442.4 427.8 406.7 390.2 367.2 371.4 353.3 355.3 370.2 345.5 327.8 324 297.1 294.8 286.5 277.1 277.1 277.1 277.1 282.6 292.9 300.5 303.3 318.6 329.2 343.4 346.6 345.5 361.9 357.6 356.9 357 353.3 353.1 346.3 335.6 334.2 335.4 342.9 354.3 360.8 366.1 380.4 396.9 412 418.6 392.5 384 382.7 377.1 376 376.3 369.7 379.4 385.1 398.4 395 379.8 377.9
147.4 150.3 153.5 156.2 159.1 162.2 166.5 170.4 174.1 179.5 184.1 189.5 194.7 199.8 204.6 209.7 214.8 220.1 225.4 230.9 236.2 244.3 249.3 255.5 260.1 264.7 268.8 272.2 276.2 279 282.2 284.9 286.6 288.4 291.5 294.8 298.3 301.8 305.3 308.5 312.2 315.9 320.7 323.7 325.8 329 332 333.7 336.1 339.6 340.9 343.3 345.5 346.9 349.7 352.9 358.4 361.5 356.5 354.4 347.9 344.8 342.1 339.6 337.5 334.9 333.2 333 332.8 332.3 333.1 334.8 337.7 338.9 341.2 344.1 346.1 349.7 354 357.8 361.3 364.6 367.3 369.6 369 369 369.5 370.6 373.1 374.5 377.1 381.1 382.7 382.3 382.3 382.3 382.3 382.3 382.3 382.3 382.3 386.9 388.7 389.5 401.7 413.4 421.9 434 446.5 461.2 473 490.7 506.1 516.6 545 569.2 612.3 634.8 650.5 653.6 656.2 656.5 661.4 671 680.4 680.8 690.6 688.1 680.9 674.5 677.6 679.4 675.4 672.4 644.7 598.9 564.6 538.9 515.5 497.4 467.9 451.4 430.8 413.7 388.1 363.8 358.1 348.6 349.5 360.1 340.8 317 320.4 290 286.1 279.3 277.1 277.1 277.1 277.1 281.1 293.3 296.9 304 313.1 326.7 326.8 336.3 345.5 348.3 351.8 354.6 360.2 370.7 363.4 352.3 336.8 342.4 344.9 355.9 362.9 373.2 377.4 392.9 402.8 417 422.3 405.9 399.1 390.9 385.4 383.7 383.3 376.7 380.5 393 398.5 399 385.8 384.6
148.2 150.6 153.2 156.5 159.7 163.6 167 170.8 175.7 180.7 185.5 189.8 196.5 201.4 206 210.6 215.2 219.8 225.3 231.5 236.3 244 248.7 253.9 259.6 263.3 266.7 270.5 274.5 277.3 279.8 281 283.5 286.3 288.8 292.2 295.7 298.7 301.7 304.6 307.7 311.6 315.1 316.2 317.3 319.7 320.5 324.4 328 329.9 332.9 336.9 341.2 346.6 350.4 353 355.2 356.7 352.3 347.4 343.9 340.9 338.4 336.9 335.4 332.3 330.3 329.9 329.4 329.9 330.9 332.4 334.4 337.7 341 344.3 345.8 350 354.1 357.3 360.1 362.2 364.8 365.8 365.7 365.5 366 367 368.5 372.1 375.7 378.6 381.1 382.3 382.3 382.3 382.3 382.3 382.3 382.3 382.6 386.8 394.9 398.1 432.6 441.9 451.3 467.8 477.1 485.7 494.7 512 533.4 540.8 562.8 602 623.5 652.5 658.6 663.5 667.4 673 682.7 687.2 700.4 713 711.4 703 662.7 658.3 662.4 662.5 655.2 637.4 627.2 584.5 554.2 527.3 514.1 499.8 479.2 454.3 428.6 413.4 383.6 367.6 342.9 341.5 339.2 350.5 334.5 311.8 306.6 285.8 281 277.1 277.1 277.1 277.1 282 288.4 290.9 293 296.3 307 311.7 324.7 331.4 341.2 344.6 348.3 356 373.1 370 363.3 351.6 343.3 348 351.2 359.2 376.3 386.3 393.5 398.4 407.2 410.8 416 419.8 409.7 394.8 393.1 391.6 386.8 385.1 384.2 391.5 396.1 398 402.4 402.4
150.1 152.3 154.4 157.4 160.4 164.4 168.1 172.8 177.6 182 185.9 191 197.1 202.9 207.5 212.1 216.7 221.3 226.1 231.7 237.5 243.3 247.1 252.2 258.1 260.9 263.8 269.2 272.3 273.1 275.9 279 281.6 285.2 286.1 289.1 292.1 295 298 300.8 303.1 305.4 305.8 308.5 309.7 310.8 313.8 315 318.8 323.2 327.7 333.1 340.9 345.9 350.3 351.8 352.5 352.2 345.8 343.1 340 337 335.3 334.1 332.8 329.9 327.5 326.5 327 327.6 327.7 330 334 337 340.4 342.4 347.2 349.7 353.5 356.4 358.2 359.8 362.1 362.9 363.7 364 366.6 369.9 373.1 377.7 381.7 386.5 390.6 389.9 382.3 382.3 382.3 382.3 382.3 390.5 391 411.8 426.7 446.7 471.2 477.9 494.2 503.4 510 519.2 531.9 533.9 542.3 561.9 599.1 621.5 645.2 655.4 665.8 674.5 682.8 695.4 701.7 709.7 717.8 725 718.7 680.4 640.1 630.4 640.7 640.6 635 619.1 590.8 561.9 546.4 526.1 515 498.5 488.7 464.4 436.4 409.3 387 361.7 345.6 344.2 334.3 339.8 335.9 310.1 294.2 283.4 280.7 277.1 277.1 279 282.7 287 286.5 288.8 289.7 292.2 299.2 305.6 319.1 331.8 339.8 344.8 359.5 366.5 367.2 366.6 365.4 345.9 342.7 348.5 352.6 360 369.9 385.1 399.9 404.7 409.4 409.9 418.7 428.1 414.6 403 404.1 400.4 401.7 403.6 400.2 406.8 411 414.3 415.6 414.7
152.1 154.2 156.4 159.6 163.1 165.8 170.2 173.7 178.4 182.5 187.4 192.1 198.5 203.6 208.3 212.9 217.5 222.1 226.6 232 237.4 242.7 245.9 252 256.3 259.2 262.2 266.7 267.4 271.5 274.4 276.8 278.9 281.3 283 286 288.9 291.8 294.7 296.6 298.9 300.8 301.4 301.3 301.2 303.1 304.8 307.8 312.5 315.9 326 335.5 341.3 345.7 350.1 350.1 350.2 347.5 341.8 338.8 336 333.6 332.5 331.3 330.2 327.1 325.8 324.3 324.8 325.2 325.8 328.2 333.5 338 341.7 344.6 347.9 352.2 355.6 357.2 358.5 359.4 359.8 361.1 362.5 364.4 373.4 377.3 380.3 385.2 392.3 396.5 404.8 408.8 404.5 394.5 393.3 384.5 395.9 398.4 443.8 461.9 480 488.7 497.3 507.2 517.4 525.8 529.6 541.2 548.3 557.9 573.5 582.3 609.6 630.8 644.8 656.5 672.8 681.5 693.2 705.7 716.9 726.3 731.5 723.3 690.4 643.4 619.9 609.8 620 622.2 610.4 604.4 583.7 553.6 541.3 526.7 503.9 499.6 487.7 465.1 443.2 404.5 376.6 362 350.5 340.3 333.8 334.8 331.1 308.6 293.6 280.8 279 277.1 277.1 277.3 282.6 283.7 283.8 285.4 286.8 289.5 295.9 304.7 315.5 331.2 350.4 362.3 368 369.5 368.9 360.3 353 341.3 343.6 351.8 359.1 355.7 373.9 372 402.9 411.7 406.3 407.8 419.5 426.7 414.8 406.7 407.9 411.6 415.7 417.9 422.2 430.1 431.6 429.8 427.1 425.4
154.1 156.2 158.3 161.7 164.9 168 171 174.9 179 184 188.5 192.9 199 203.8 208.7 213.4 218 222.5 226.8 232.2 237.5 241.8 245.6 249.2 253.3 257.7 261.2 263.8 265.6 269.5 272.1 274 275.6 277.6 279.8 282.9 285.9 288.8 291.3 293 294.8 296.1 295.6 294.4 293.9 295.5 299.5 303.5 308.4 316.1 326.9 335.6 342.9 347 348.7 349.3 351.4 344.1 338.1 335.1 332.2 330.7 329.5 328.1 327.3 323.9 323.2 322.5 322.4 319.6 320 327.6 333.4 338.4 342.3 345.5 349.2 354.5 358.5 360 361 361.6 362.2 363 363.9 365.2 380.3 383.1 387.2 393.1 406.7 414.7 430.9 446.8 435.6 421.9 418.5 414.3 447.3 472.8 512.8 506.1 501.3 502 508.6 515.3 526.6 537.7 545.9 550.8 566.1 574.5 575.1 595.2 614.8 636.9 651.6 668.3 680.7 694 705.3 717.4 731.4 740 731.8 699.5 660.6 619.8 608.2 592.6 600.7 599.6 593.5 575 569.8 551.4 535.4 516.1 495.9 486.2 477.9 461.8 435.8 409.5 383.3 365.6 358.2 348.5 331.3 332.4 325.6 303.5 297.3 286.6 280.3 277.1 277.1 277.3 281.1 281 281.3 281.9 284.5 287.6 293.4 305.1 326.5 341.8 346.7 354 359.7 359.8 357.5 350.8 344.6 342.2 346.3 349.5 357.3 355.7 365.7 365.7 393.9 413 400.5 409.2 417.8 427.1 419.8 410.1 410.8 422.9 434.5 436.7 437.5 444.5 448.2 442.3 440.5 437.3
156.1 158.2 160.3 163.4 166.5 169.6 172.7 175.6 180.6 185 189.2 193.7 199.3 204 208.9 213.7 218.3 222.6 227 231.6 236.3 239.6 242.2 246.4 251.5 256.4 260.8 261.7 264 267.4 269.5 271 272.6 274.1 276.7 279.7 282.8 285.8 288.1 290 291.6 290.8 289.4 288 288.3 292.3 297.3 302 307.9 317.6 329.7 337.7 344.1 346.5 347.2 350.4 351.7 339.5 335.4 331.6 329.3 327.5 326.3 324.6 322.7 321.4 320.7 320.1 316.5 314 321.1 327.8 333 338.2 342.4 346.7 351.9 356.9 361.5 363.3 364.4 364.4 364.6 366.1 368.2 373.5 380.2 386.5 395.8 408.1 430.6 434.5 461 472.3 473.8 467.9 457.9 489 527.3 535.3 524.2 518.5 509.4 509.7 517.5 518.9 526.1 541.6 556.9 559.6 560.2 577.1 589.4 594.3 617.4 639.8 660.6 672.8 689.9 700.7 715.3 728.9 741.5 747.4 713.7 673.3 634 598.8 589.2 578.1 584.7 576.2 580.8 560.3 546.9 540.7 532.4 509.1 485.8 470.7 460.5 453.3 427.4 414.6 393.5 374.2 359.8 348.1 329.3 325.3 320.3 304.6 300.6 294.2 283.3 277.1 277.1 277.5 279.8 280.3 279.6 279.6 282.1 286.9 297.2 311.4 326.5 332.5 332 335.7 343.4 343.4 351.3 345.6 341.4 338.6 345.7 344.4 355.6 355.7 364.4 365 391.3 397.6 396 403.1 413.8 417 415.4 408.2 411 426.1 441.5 455 451.7 457.4 462.7 457.6 447.5 445.5
158.4 160.3 162.4 165.3 168.4 170.7 173.6 177.1 181.6 185.6 190.1 194.6 199.3 204.2 208.6 212.8 217.8 222.1 226.4 229.7 233.9 237.6 241.1 245.6 250.1 254.7 257.4 259.1 262 264.7 266.1 267.4 268.7 271.6 273.8 277.1 280.6 283.9 286.1 287.3 288.1 286.2 284.2 282.5 286.3 293.9 295 300.1 307.8 322.7 334.7 339.8 344.5 346.4 345.1 343.6 341.6 333.9 331.7 329.6 326.5 324.3 323.1 321.2 319.8 318.3 318.1 316.6 314.7 318.3 324.2 329.3 333.9 338.9 344.5 350.2 354.8 360.7 365 366.7 367.9 368.1 368.5 371.8 379.1 384.6 391.1 401.6 409.6 418.7 435 455 472.2 489.2 495.8 497.9 483.6 529 542.9 543 544.5 534 526.7 531.9 521.2 523.2 530.8 541.9 555.5 570.6 574.5 576.8 591.3 605 616.2 642.2 662.2 677.6 689.2 704.2 719.3 734.4 745.8 734.5 697.7 659.2 614.4 583.5 572.6 569.9 568 559 560.9 545.2 529.7 522.2 523.8 499.8 483.3 465.3 459.6 444.8 430.5 412.5 395 368 363.9 355.2 323.7 318.2 320.3 310.1 302.8 298 289.8 279.5 277.1 277.1 279.5 279.8 279 279.4 280.2 286.9 298.5 307 319.9 316.5 313.4 318.3 328.7 331 336.4 339.9 343.4 339.9 339.3 341.3 353.5 368.2 367 365.7 373 380.3 391.3 402.5 415.1 410.5 414.1 407.1 419.6 433 448.9 455.9 467.7 468.3 470.5 463 460.3 458.4
160.3 162.3 164.4 167.1 169.9 171.5 174.5 178.2 182.2 184.3 189.1 194.1 199.1 203.2 207.3 212.4 217.3 221.6 226 229.1 232.4 237.3 241.6 245.8 248.4 251.2 254.4 256.3 259.4 261.1 262 263.7 266.6 269.6 272.2 275.4 278.9 281.8 283.8 284.2 283.7 281.7 278.8 278.1 283.7 287.8 290.9 302 312.6 327.6 336.9 342.8 345.1 346 342.1 337.1 331.5 330 328.4 326.4 324 321.5 319.6 318.4 317.1 315.6 314.8 311.2 314.7 320.4 325.7 330.3 337.1 342.5 348.4 355.2 360.3 365.5 367.8 369.3 373.6 378 379.4 383 392 399.1 409.9 422.9 433.1 448.6 457.9 471.3 486 500.5 508.8 525.8 533.1 542.9 551.1 555.7 554.5 544.9 537.4 540.3 533.2 540.4 536.6 539.9 555.4 569.5 574.9 585.7 598.2 610.3 614.5 638.7 663.9 680.6 694.1 706.2 723 738.9 749 724.4 682.3 641.9 599.5 569.1 560.2 558.5 554.1 542.8 538.1 524.6 509.1 503.4 505.3 491.9 480.1 463.7 444.8 443.7 430.3 409.2 393.9 370.9 352.2 353.2 334.6 317.9 317.8 315.3 305.8 298.2 293.1 287.1 280.8 278.6 278.9 279.2 278.7 278.6 279.2 285.4 295.9 300 302.2 300.3 298.8 299.3 309.4 318.3 320.4 338 343.2 330.4 333.6 338.3 350.2 366 364.4 366.3 367.6 371.8 387.8 387.4 389.5 387.5 401 408 421.4 435.3 447 462.5 473.2 484.9 486.7 477.4 475.5 469.8
161.1 163.9 165.7 168.7 171.5 173.7 175.8 180 181.8 185.4 190.2 194.4 198.2 202.3 207 212.4 216.8 221.2 225.6 229 233.4 237 241.2 244.3 247.2 249.2 251.5 254.7 257 257.8 258.7 261.5 264.4 267.4 270.7 273.9 277 279.7 280.9 281.3 278.9 275.6 272.4 272.7 277.6 285 293.6 304.1 316.5 330.6 341 346.4 348 343.9 335.6 330.9 329.2 326.7 325.1 323.2 320.9 318.5 317 315.9 314.1 312.1 309 311.6 316.4 322 327.2 332.7 339.5 345.5 351.3 358.6 363.9 367.3 370.1 374.3 384 389.9 395 399.3 409 422.7 437.5 449.4 458.9 472.6 481.5 495.5 503.4 523.3 541.6 555.1 559.4 557.1 568.5 567.4 564.9 553.1 547.9 545.4 557.3 556.3 563 552.6 560.9 567.7 580.1 590.3 599.4 613.4 618.4 633.4 658.6 677.4 692.2 707 723.1 739.4 749.5 712.1 671.3 632.7 588.7 559.1 541.3 545.2 537.8 531.5 518.3 502.9 499.6 491.3 495.2 481.5 470 445.1 434 431.2 429.2 414 390.4 377 347.4 347.3 342.7 329.9 317 315.9 311.8 303.2 296.8 292.4 287.1 283.1 279.6 278.5 277.9 278.1 280.6 285.4 291.4 294.2 290.6 287.1 286.7 290.4 295.9 302.6 314.9 336 340.5 318.1 315.1 319.1 338.8 359.3 363 366.5 368.6 371.8 383.1 373.5 378.7 372.5 393.2 402.2 420.4 433.5 443.3 448 457.7 481.8 489.9 492.8 482.8 479.6
161.2 163.9 166.9 169.7 172.5 175.3 177.8 180 182 184.9 190.3 194.2 197.7 204.1 209.2 214.4 218.9 223.2 227.3 231.5 234.8 235.6 240 243.1 246.1 247.8 250.3 253.4 254.1 254.9 256.5 259.1 262.1 265.4 268.7 272 275.1 277.6 278.6 278.2 274.7 271.2 268.1 268.8 279.8 288.1 296.4 306 320 332.3 342.1 348.2 353.1 340.6 332.5 329.9 327.7 325 321.8 320.1 317.7 316 314.4 312.7 310.1 308.4 309.1 313 317.8 323.4 330.1 335.8 341.3 347.6 356.2 364.1 367 369.6 372.4 377.7 390.6 400.1 409.7 416.5 429.3 438.8 448.5 458.3 474.1 489.8 498.9 509.4 522.6 544.1 566.4 577.3 577.4 575.4 577.5 579.8 578.2 574.9 557 559.8 561.7 563 571.2 571.5 566.4 576.2 584.3 597.6 600.5 619.5 625.5 631.8 655.3 674.9 692.7 706.8 723.6 737.5 741.3 692 651.1 616.2 585.3 548.8 524.6 526.1 525 516.2 500.4 490.4 485.8 474.4 475.1 471.2 466.6 433.9 426.8 411.7 418.4 413 382.5 367.5 347.7 355.8 353.4 337.8 329.9 318.3 314.6 308 297.9 294.4 291.8 287 283.2 279.1 278.2 278.7 282 285.6 287.2 286.9 281.3 280.8 280.7 280.7 283.5 290.5 305.3 341.8 328.5 303.7 298.4 308.3 343.1 356.5 355.1 368.1 370.1 370.2 370.8 368.3 367.4 366.9 381.9 396.5 412.4 429.9 437.5 444.5 461.1 469 489.5 483.7 486.2 487.9
161.4 164.2 167.5 170.6 173.4 176.3 179.2 181.5 183.1 186.9 190.9 195 199.2 207.3 211.4 216.4 220 223.3 228.6 232 234.6 236.4 238.7 242.7 245.3 247.2 248.7 251.8 251.7 252.6 254.2 256.8 260.1 263.4 266.7 270 273.2 275.6 276.3 274.6 271.1 267.6 265.3 266.5 274 285.3 296 307.9 324.2 333.2 340.9 351.2 346.6 335.8 331.5 329 326.5 323.5 320.1 316.9 315.2 313.6 311.9 309.4 307.5 306.9 312.9 315.1 319.2 325.3 332.3 339.3 345.1 351.1 359.1 365.5 369.9 372.9 377.2 388 403.8 413.6 421.1 428.7 437.9 447.3 458.3 467.6 483.9 496.5 507.4 519.6 536.7 559.3 582.6 591.7 593.4 591.5 591.4 590.7 591.3 587.4 582.1 571.6 581.4 580.6 576.3 576.7 576.9 584.4 591.5 596.6 616.1 621 630.9 637.1 659.7 673.6 693.2 706.5 722.5 736.7 717.5 669.7 634 595.1 576.3 538.2 508.8 503.6 503 491.5 475.6 469.2 466.5 460 446.7 437.2 443.5 417.3 415.2 400.1 404.4 400.2 382 366.3 352.4 360.4 354.6 348.5 335.1 319.7 317.4 313.4 303 296.9 295.3 292.6 286.8 280.1 276.5 277.7 282.1 283.7 279.7 277 276.3 271.5 272.4 270.3 269.6 276.1 293.1 322.6 305.5 284.1 282 298.9 321 344.8 361.9 370.4 370.6 370.1 369.3 366.9 364.2 366 386 401.5 415.8 428.9 434.4 446.4 456.2 465 476.4 484.1 488.8 498
161.4 164.4 168 171.1 174.2 177.2 180.2 183.3 186.5 189.8 193 196.4 203.8 208.4 212.8 218.2 221.6 225.9 228.9 231.8 234.7 237.2 239.6 242.2 244.5 246.6 247.7 250.1 249.5 250.2 251.8 254.5 258.2 261.5 264.8 268 271.2 273.4 273.8 271.7 267.5 265 262.9 264.5 268.6 283 296.1 310.1 324.9 331.5 340.9 351.1 340.2 332.8 329.6 327.1 324.1 320.6 317.2 315 313 311.2 309.6 306.5 304.7 307.7 313.6 316.7 320.7 327.2 334.4 341.7 347.1 352.2 358 364 371.7 381.4 390.7 406.3 419.8 429.2 437.1 445.4 452.1 457.7 466.7 474 484.8 496.9 513.6 531.3 548.9 572.1 590.8 599 602.4 602.7 601.4 599.6 597.4 598.1 595.3 592.8 587.3 590.4 590.5 589.3 588.4 588.9 598.7 610.7 623.5 625.7 636.8 649.6 662.2 673.4 692 708.9 722.9 735.6 695.7 649.2 600.6 568.9 550.5 531 496.3 488.4 482.3 465.4 456.8 452.6 446.2 441.2 433.6 414 409.3 405.7 414.5 392 379.3 382.9 372.3 361.3 355 355.5 355.3 354.5 346.6 330.4 320.1 314.2 308.5 305 301.5 299.6 292.6 284.3 277.9 277.9 286.4 285.4 279.1 269.5 267.5 265.7 264.6 263.7 262.9 270.1 282.9 293.3 284.1 269.7 275.4 288.9 301.7 335.1 353.2 370.4 367.2 369.8 371.7 366.1 363.6 368 389.8 412.3 421.1 439 439.8 446.6 454.3 464 478.2 491.2 494.3 506.8
161.4 164.7 168.3 171.6 174.7 177.9 181.8 185 188.1 191.2 194.8 200.9 205.8 210.6 215.6 220.4 223.4 227.9 230.4 232.1 233 235.5 238 241 244 245.9 246.9 248.5 248 247.9 249.4 252.1 255.9 259.6 262.8 266 269.2 271.1 271.5 268.4 264.7 262.3 261.2 264 269.3 280.6 292.4 312 321.3 332.5 343.4 344.8 332.9 328.9 327.7 324.7 321.3 318 315 313.2 311.1 309.2 306.7 304.3 306.2 312.1 314.9 318.6 321.6 327.6 335.4 341.8 347.1 351.6 355.9 370.9 383.8 396.7 409.5 422 433.3 440.3 451.2 457.2 465.8 468.6 471.3 476.7 490 512.2 528.8 548.2 565.9 582.5 597.4 604.9 608.3 608.1 608.8 608 608.9 605.2 603.5 605.1 602.8 598 602.9 601 602.1 602.3 615.7 621.8 624.8 636.1 645 655.8 663.9 676 689.5 705.9 721.4 730.2 676.8 628.5 586 556.2 536.9 526.1 490.5 477.9 469.8 459.4 448 440.2 429.4 420.8 413 401.7 385.1 390.5 397.6 373.8 356.8 360.7 357.2 356.8 355.4 359.9 362.2 358.4 350.6 337.1 324.4 314.2 310.3 308.4 305.1 303.2 300 292.8 284 271.7 281 282.7 278.5 268.2 262.2 260.6 258.7 257.5 259.7 266.4 269.5 271.1 269.5 255.9 264.6 273.7 291 314 334.2 360.6 364.4 367.4 372.5 366.8 363.5 365.5 390.9 419 431 440.9 449 448.9 454.9 464.3 480.5 492.9 502.7 515.2
161.4 165.1 168.2 172.1 175.5 178.7 182 186.7 189.3 193.1 198.4 202.9 207.6 213.5 217.7 221.6 225.4 228.5 230.3 231.3 230.7 233 235.9 239.5 242.5 245 246.1 247 246.8 246.4 247.3 249.9 253.6 257.4 261.1 264 267.1 269 268 265 261.6 259.4 258.7 263.2 270.8 281.1 294.8 310.3 325.5 339.1 348.4 340.1 328.9 326.9 325.4 322.2 318.9 315.6 312.4 310.4 309.2 307.5 304 303.2 307.5 313 316.1 319.4 324.1 330.1 335.8 341.2 345.7 352.2 365.7 381 396.7 413.9 428.4 439.3 446.3 451.3 458.7 465.2 474.4 475.8 474.4 481 507.5 516.9 530.7 555.2 582.2 595.5 607 613.2 616 614 614.7 614.9 613.8 612.2 611.1 609.7 609.1 608 612.1 615.8 614.8 616.1 621.6 626.5 633.7 642.3 651.2 658.2 665.4 676.6 691.2 703.5 717.6 723.9 676.4 622 579.9 549.3 528.5 521.2 496.2 472.6 463.4 455.8 443.6 431.9 417.3 406.4 394.6 386.7 373.8 371.8 364 350.3 350.6 343.5 348.3 351.4 353.5 357.8 367.6 356.9 351.2 337.7 328.4 318.8 313.8 309.3 306.2 303.9 301.1 296.9 288.9 277.5 264.6 272.3 272.4 264.5 258.4 256.8 254.7 255 255.8 261.8 262.2 259.2 255 246.8 254.3 265.7 280.7 321.4 323.8 341.3 358.3 372.7 363.6 362.5 360.7 364.5 374.1 404.5 440.5 446.6 454.9 457.9 456.6 470.3 488.2 499.7 512.9 523.2
160 163.6 167.7 171.9 175 179 182.3 185.8 190.4 195.4 199.2 203.4 208.3 213.8 217.9 222 225.5 228.5 229.3 230.2 230.1 230.6 234.9 237.7 240.5 243.1 244.8 245.4 244.9 244.3 245.3 248 251.6 255.4 259.9 262.7 265.3 265.4 263.6 261 258.2 256.2 255.4 258 264.3 276.3 295.8 311.8 327.4 348.8 349.1 336.4 328.1 324.9 323 319.7 316.4 313.2 310 307.8 305.9 303.2 303.1 306.2 311.2 313.6 316.9 320.4 326.8 332.6 336 342.4 348.2 357.3 373.4 394 412.4 430.3 445.1 451.6 457.6 464.5 469.4 475.5 477.8 483.3 485.9 499.1 512.7 526.6 544.2 568.7 592 605.3 617.2 623.9 625 622 619.7 619.2 618.8 617.2 616 613.9 615.1 616.2 620.5 626.5 628 628.8 632.4 637.6 641.7 646.9 654 661.6 667.3 674.1 685.7 699.2 709.2 711.7 688.1 623.2 581.9 549.3 522.7 512.9 500.2 464.5 461 456.1 441.3 422.9 407 393.8 381.2 376.1 361.3 348.9 353.9 338.2 335 335.5 342.4 345.1 352.3 359.8 359.2 354.7 345.3 338.4 328.8 322.2 313.6 309.4 306.9 303.3 299.7 294.6 290.3 283.8 271.6 255.6 263.8 259.6 254.9 251.2 251.5 252.4 252.9 257.1 250.8 248.4 241.8 239.6 246.2 255.8 270.7 308.5 314 342.7 367.2 367.6 358.5 359.2 360.6 366.3 383.9 400.3 436.2 457.5 463.9 460.2 463.9 480.7 490 502.6 522.9 533.4
158.8 163.2 167.6 171.4 175.1 178.7 182.1 185.4 190.9 194.8 198.7 203.5 208.4 213 217.2 221.3 225.4 226.9 227.7 228.5 228.2 228.9 232.9 235.7 238.5 240.8 241.8 241.8 241.9 242 243.2 246.1 249.8 253.4 256.8 259.9 261.7 261.4 259.4 256.4 252.9 252.4 252.7 258 268.3 282.7 302 318.5 332.6 349.3 343.7 330.7 323.8 322.3 320.5 317.2 314 311.1 308.7 305.8 302 301.7 302.5 307 312.3 315.5 318.7 323.5 329.9 333 336.4 341.3 349.5 360.8 379.9 407.3 432.2 446.9 453.1 457.5 465.7 474.3 480.2 489.6 494.1 504.4 509.7 513.6 525.2 538.2 556.7 577.4 598.3 613.8 624.3 630.3 631.6 629 625.1 624.6 622.2 620 619 618.6 619.4 623.4 628.2 631.2 633.6 636.5 639.6 642.4 647.3 650.9 659.7 665.3 668.8 673.3 683.8 692.7 697.1 694.2 686.8 634.5 587.8 554.5 528.6 504.7 486.1 463.4 458.4 454.7 436.4 417.8 399.6 384.4 368.4 364.4 346.8 334.2 336.4 333 332.8 330.8 334.1 342.5 352.4 356.2 354.4 352.9 343 333.7 327.8 321.6 314.4 312.3 309.6 303.9 298.8 295.7 289.5 285 274 260.7 253 256.5 254.4 246.8 249.2 251.9 251.3 247.7 242.4 238.4 234 233.7 238.6 242 265.6 294.1 298.4 318.4 350.3 360.2 352.9 352.8 354.3 371.8 393.9 410.7 436.2 460.5 464.4 465.7 470.3 487.9 498.7 513 528.8 557.2
