ncols 200
nrows 83
xllcorner 290000
yllcorner 755600
cellsize 50
322.1 323.2 314.3 313.3 323 307.8 287.2 267.1 254.7 232.9 210.5 191.1 179.3 170.9 169.7 167.8 163.6 158.4 149.2 145.7 141.9 134.4 125.5 121.2 112.8 108.1 98.9 93 92.5 89.3 89.3 89.3 91.1 90.8 89.3 89.3 89.3 89.3 89.8 89.3 106.9 118.6 128.6 136.5 148.5 155.9 164.4 168.3 176 185.7 195 206.7 217.9 225 231.6 236.3 240 243 246.6 257 270.3 285.2 295.3 291.6 283.4 265 245.8 247 248.5 248.7 248.9 247.2 241.6 237.6 235.9 234.5 233.4 233.9 232 225.3 212.8 193.1 188.8 190.4 194.1 195.5 196.9 198 188 202.2 203.8 203.8 204.4 208.8 214.6 224.4 231.2 235.5 239.9 245.1 251.9 258.2 261.5 264.7 267 269.8 271.5 272.3 274 275 275.2 274.7 274.6 275.1 276.2 275.1 260 279.7 280.7 281.8 284.9 288.6 295.1 297.8 297.4 299 303.3 307.3 310.2 312.7 318.1 317.1 317.9 318 323.1 326.9 327.5 328.5 331.4 331.7 330.5 328.4 327.7 327.7 328 326.8 324.8 324.2 325.2 327.3 327.3 329.9 331.3 332.7 331.7 329.4 330.6 332.1 333 333.6 332.1 335.7 340.5 345.7 350.2 353.9 358.9 361.9 365.4 370.3 372.2 376 380.2 385.7 390 392.7 396.6 401 404.5 407.5 410.7 415.2 420 425.3 430.5 436.7 443.8 451.7 460.5 466.9 475 476.8 473.6 475.2 473.9 470.8 465.6 461 456.6 454.8
322 318.3 309.2 305.7 298.7 288.7 267.6 257.2 247.8 235.8 220.2 207.8 200.9 193.4 186.9 182.6 178.5 167.9 158 158.7 155.6 149.3 143.2 127.9 125.2 123.7 113.6 98.7 92.9 92.9 89.3 89.3 89.3 89.3 89.3 89.3 89.3 89.3 89.3 89.3 109.5 116.7 128.5 135.9 141.9 153.3 163.7 169 175.9 183.6 194.7 207.4 219.4 228.5 235.4 239.4 240.9 241.8 240 247.2 257.5 269.2 277.8 273.1 260.3 239.6 236.7 236.1 238.7 238.9 238.1 235.7 232.5 229.1 224.3 221.5 220.6 220.9 221.9 221.5 211.1 191.8 183.7 184.6 188.3 191.4 192.2 189.9 185.1 196.4 197 197.1 197.5 202.2 206.8 213.3 220.1 225.8 231.8 237.9 244.9 251.9 255.9 260.2 262.4 264.3 265.5 266.4 268.4 270.8 270.9 270.4 271.9 272.7 274 268.9 254.1 272.2 275.1 278.6 281.6 285.9 294.4 297.4 298.1 299.6 302.1 305.2 307.4 310.6 315.1 314.6 316.1 318.1 323.2 326.7 327.3 327.3 328.7 329.9 330.3 328.6 328.2 330.4 329.4 327.6 325 324.2 325.5 323.5 321.7 325.6 329.9 332.7 333.1 332.6 333.6 335 335.7 335.9 334.4 338.4 343.4 347.5 352 357.5 362.2 365.4 368.1 369.4 372 375.5 379.4 384.8 389.1 394.5 398.9 403.6 407.1 409.7 413.4 418.2 423 427.4 432.8 440.6 448.8 457.6 465.3 471.4 480.6 477.8 473.9 474.9 474.5 471.8 465.1 460 457.6 451.8
319.9 311 304.5 296.6 285.7 276.4 265.1 262.3 253.5 248.7 234.3 226.6 220 214.5 210.4 201.9 193.5 182.2 167.9 179 169.5 156 154.7 151.5 143.6 136.4 125.9 113.1 99.6 94.3 92.9 92.9 93.5 93.6 93.4 90.4 89.3 89.3 89.3 95 109.8 119.2 127.3 135.1 138.4 151.4 159.8 166.9 174.1 182.1 195.1 208.6 219.8 232.9 239.6 244.7 244.4 244.1 238.9 238.5 242.3 250.9 254.5 248.1 239.2 231.9 226.6 225.3 227.9 230.1 230.6 228.4 224.9 220.7 215.6 211.2 209.3 209.3 209.8 210.9 206.1 190.3 179.1 181.7 184.8 186.2 187.7 183.9 184.1 189.4 191.1 190.5 193.3 195.4 198.5 204.3 211.6 217 223.3 229.6 237.9 245 250 253.2 255.3 257 259.2 261.8 263.4 266.7 267.3 267.4 267.8 268.6 270.7 268.3 252.4 269.8 272.3 274 277.3 282.9 290.3 294.2 297.4 299.6 303.6 306.2 307.5 309 312.2 312.9 314.7 318.2 322.1 325.4 326.1 326.8 328.3 329.7 329.6 329.1 329 331.3 331.9 329.4 327.2 324.7 322.9 320.6 321.8 324.3 327.5 331.5 333.8 335.2 334.4 335.6 337.6 337.3 336.6 341.3 346.5 350.3 354 358.3 362.5 366.2 370.1 371.2 372.9 376 380.1 384 387.5 393.8 399.2 404.5 409.3 412.9 416.1 421.8 425.5 429.3 437.2 445.5 454.3 462.1 471 477.6 480.3 477.8 472.5 474.7 473.3 471.5 465 459.1 456.6 451.6
322.3 312.4 307.3 302.3 291.4 282.5 282.8 277.7 269.4 263.2 251 244.1 240.5 238.4 236.7 229.1 222 200.3 179.8 187.5 175.3 158.9 171.1 170.4 167.6 157.6 149.9 134.1 116.9 113.5 105 103.3 98.3 93.3 91.2 90.1 90.8 89.3 89.3 98.7 108.6 117.8 127.5 135.1 134.8 144.4 155.2 162.9 171.2 181.3 192.1 207.1 220.1 235.9 245.2 253.5 252.8 250.1 239.2 235.3 234.7 234.4 236.7 234.7 229.8 224.3 219.5 216.4 215.5 220.8 222.5 222 218.4 213.3 206.9 202.8 201.1 200.4 200.5 200.4 198 186.5 175.3 177.8 179.8 180.8 182.7 177.4 178.2 185 186.4 185.3 188 190.1 193.1 197.7 203.2 209.8 217.2 223.9 231.4 239.3 244.3 247 248.3 250.2 253.3 255.3 256 260.8 262.7 263.5 263.1 264.2 266.7 257.3 252.6 269.3 271.3 272.8 274.9 278.5 285 288.4 294.3 299.2 302.9 306.2 307.3 308.1 310.8 312.2 315.1 319.6 322.7 325.2 325.8 326.9 329.2 330.2 330.2 329.2 328.3 331 330.7 328.8 326.3 324.2 318.4 321.8 322.3 322.7 324.5 328.2 331.3 333.4 333 336.4 338.1 338.2 340 344.6 349.1 354.5 359.1 363.3 367.7 371.6 373.6 373.6 374 378.2 381.9 385.4 389.4 393.7 397.6 404.2 411.3 414.1 418 425.2 427.8 433 440.8 448.1 456.8 462.7 467.9 473.8 473.9 471.3 470 473.6 470.8 468.6 463.8 459.3 454.8 452.2
321.9 321.1 317.5 315.3 303.4 301.3 296.1 293.4 286.4 277.2 270.2 270.6 271.9 269 268.3 265.1 246.2 216.2 190.4 187.2 182.1 175.5 177.4 181.1 181.3 178.8 181.2 177.4 143.5 121.1 119.3 118.4 105.6 91.2 90.1 90.5 89.3 89.3 90.7 99.5 108.7 117.1 128.4 133.8 135.2 147.3 155.1 155.5 166.5 183.4 193.4 205.8 221.6 235.8 249.9 259.1 261.1 256.4 238.8 235.3 234.5 231.4 230.2 229.8 226.1 219.7 213.9 210.4 208.3 210.7 212 214.2 210.8 206.3 201.7 197.1 193.9 194 194.2 193.3 190.4 183.9 173.2 173 174.6 175.9 177.3 176.6 172.5 178.8 181.1 180 181.7 184.3 187.6 191.1 195.3 201.6 209.6 218.3 226.3 233.8 238 239.3 239.8 241.5 245.9 249.5 250.8 253.1 255.8 257.3 258.4 259.4 261.3 247.2 255.6 267.9 270.7 272.3 275.9 278.1 282.2 284.3 290.8 295.4 300.7 304.7 305.7 307.8 311 313.9 316.8 320 322 324.2 325.7 328.5 330.6 330.1 329.8 328.4 326.6 326.1 325.1 324 322.8 319.2 322.8 323.1 324.1 323.7 327.3 328.6 330.6 330.5 331.1 335.8 338.1 339.7 343.2 349.9 355.8 359.4 362.3 366.4 371.1 376 376.5 376.1 378.9 383.4 385.8 389 394.7 398.2 399.7 402.8 409.6 414.1 417.9 423.5 428.8 435.2 442 447.9 455.1 461.1 465.9 470.2 470.7 471 465.3 469.4 467.8 464.6 461.4 459.7 456.8 450.9
335.9 336.5 333.7 323.5 316.6 315.5 312.5 306.9 300.5 296 292.1 293.2 293.3 295.4 295.1 282.6 253.5 220.9 200.2 187 187.9 187.2 184 190 194.5 198.8 203.5 203.2 167.9 122.6 120.5 118 104.3 90.9 90.3 89.3 89.3 97.7 102.4 101.5 109.1 116.4 125.8 133 135.9 144 151.4 155 158.8 168 183.5 198.2 219.5 236.8 249.9 260.6 260.7 248.3 235.6 238.9 234.8 232.8 226.4 228.1 224.5 217.9 210.9 206.8 203.3 201.8 202.3 202.3 201.7 199.1 197.4 193.8 189.2 188.6 189.2 188.4 186.3 182.4 173.7 171.3 171.2 171.4 172.6 170.8 170.1 173.7 175.7 175.2 176.2 176.7 178.7 183.1 188.2 195.4 203 212.1 219.8 226.2 228.9 229.7 229.9 232.2 236.9 240.1 243.5 246 249.4 251 251.2 253.4 255.9 234.9 254.5 264.6 268.5 272.1 275.8 278.2 280.4 281.6 288.7 292.6 296.8 300.6 304.6 309.3 315 317.7 320 321 321.9 323.9 324.6 324.8 326.9 327 327.5 326.3 324.4 323.4 322.4 321.7 321.4 320.5 315 317.6 320.3 325.2 329 332.4 332.3 328.9 330.3 334.7 338.2 341.2 346 351.9 356.7 360.2 365.7 370.9 374 377.3 377.5 380.4 383.9 388.7 392.2 397 401.4 401.9 402 403.1 411.3 415 418.6 425.5 431.5 437.9 441.2 447.8 452.9 459.2 465.4 466.5 467.2 466.4 463 463.9 463.1 462 461.7 459.1 456.2 451.3
347.4 343.8 339.7 335 324.8 327 325.2 319.9 317 317.1 319.8 314.6 311.5 312.6 306.8 277.6 245.8 219 203.7 196.7 187.9 186.9 190.5 197.5 205.7 214.3 226.6 199.9 162.1 134.9 123.7 116.3 98.5 90.7 89.3 89.3 94.5 108.9 106.8 101.5 108.5 116.2 121.3 134.5 133.6 135.9 145.1 146.2 153.3 162.2 176.7 195.4 218.3 238.2 249.1 255.6 258 214.6 218.3 230.7 230.3 230.2 226.3 220.6 221.4 215.9 209.9 204.8 200.5 197.4 196.4 195.2 193.9 193.8 193.8 190.5 186.4 185.2 184.9 183.6 181.8 179.7 174.6 170.2 167.7 167.3 167.5 166.7 166 169.5 169.7 170.4 171.9 170.1 171 174.9 180 186.9 195.8 204.6 209.8 214.9 217.6 218.4 221.1 224.9 229.3 233.8 236.5 240 243 244.5 245.5 247.3 244.3 235.4 253.1 258.9 265.2 270.3 274.2 276.9 278.6 278.8 285.3 290.1 293.4 298.6 304.5 310.5 316.5 319.6 321.4 322.4 323.2 324 324.2 324.2 324.4 324.6 324.5 323.8 322.9 322.5 321.7 321.2 320 319.2 314.5 313.3 317.2 323.2 325.6 329.9 329.8 325.9 329.4 334 337.3 341.8 347.2 352.4 356.9 362 368.3 371.9 375.5 377.2 380.6 383.1 387.5 393.4 398.4 403.1 405.4 406.5 402.9 406.3 412.9 417.7 422.2 427.2 435.1 438.9 442.3 448.9 449.9 453 455.4 457.3 458.8 459.2 458.5 459.6 459.9 458.8 457 457.3 453 450.2
352.7 350.5 346.8 341.6 340.3 339.6 338.6 337.9 334.3 333.3 332.3 330.4 325.9 314.7 289.6 265 243.4 225.6 215.8 208.2 199.3 186.8 192 205.4 218.1 221.3 226.1 184.7 152.6 149.4 139.4 118.9 97.5 89.3 89.3 90.9 105.5 109.3 103.7 101.4 108.2 115.4 120.1 133.3 129.9 129.6 136 142.5 146.8 156.2 171.2 192.9 216.9 237.7 245.4 249.4 212.3 195.7 204.9 213 222.7 223.3 223.3 219.1 212 210.7 205.3 202.1 198.8 194 193.1 192.8 191.8 190.3 189.4 185 182.9 182.3 181 179.9 179.2 177.5 173.3 168.2 164.9 164.7 163.9 161.5 163 164.9 166 165.6 166.8 165.7 167 167.2 171.3 178.3 184.2 192.7 198.8 204.7 207.4 209.9 213.8 217.8 222.4 227.1 230.5 233.9 236.2 237.9 240.1 241.5 229.5 236.2 248 252 258.7 266 271.3 275.2 278.4 275.9 287.3 289.8 293 298.5 304.3 310.2 316 319.2 322.2 324 325.7 326.9 326.2 325.9 325.1 323.7 322.2 322 321.6 321.4 321.1 319.9 318.4 318.1 316.1 312.1 310.3 317.8 319.7 321.5 323.6 326 329.4 332.3 336.4 342 348.3 352.9 357.9 363.5 369.1 375.1 378 376.8 381.4 384.5 390.5 396.9 401.8 407.3 408.2 402.9 404.1 409 412.4 417.9 423.1 428.3 434.9 436.8 443.3 449 447.6 446.3 447.6 449.8 451.4 453.3 452.9 452.8 454.4 455.7 453.5 454.9 450.9 448.8
358 355.1 352 348.7 352.1 350.9 353.1 352.6 350.6 350.2 348.3 351.7 347.5 326 295.7 273.5 257.6 242.9 231 220 209.8 195 189.4 211.8 223.5 217.6 204.6 168.9 164.3 167.2 142.1 117.6 109.5 89.3 89.3 90.6 96.6 99.9 100.2 103 107.7 115.2 118.4 126.7 125 126.7 130 134.1 138.6 149.3 162.9 185.2 214.4 228.7 225.6 202.1 182.3 180.5 190.2 203.4 219.6 220 218.5 217.2 214.4 206.3 200.7 196.4 192.8 190.2 188.5 188.8 188.6 188.8 186.1 181.7 180.6 179.4 177.3 175.7 176.8 175.6 171.4 163 162.2 162.9 160.6 158.5 158.8 157.7 158.8 160.7 161.7 162.5 165 164.8 166.6 171.2 177.1 184.7 187.9 192.2 197.3 201.5 206.2 210.8 215.8 220.8 224.3 227.5 230.1 232.7 234.5 223.8 225.1 240.3 243 245.9 250.9 257.9 265.5 271.6 272.5 274.8 285.3 288.9 292.9 297.7 304 309.1 314.3 318.1 323.2 326.9 329.4 331.4 332.6 333 330 325.5 322.8 319.9 318.6 317.3 317.6 316.2 314.2 313.5 313 311.3 309.3 313.1 314.6 316.7 320 325.6 327.3 329.9 335.7 342.7 349.2 353 357.2 364.1 369.5 373.6 375.8 376.8 381.2 385.8 391.6 396.7 399.4 401.5 401.4 402 404.5 409.3 411.7 417.1 423.6 427.4 428.5 435.4 440.4 444.1 441.3 441.7 445.1 449.6 450.7 450.2 449.6 449.3 450.7 451.8 452 451.4 449.9 446.2
360.1 358.9 355 358.4 362.1 364.4 365.1 365.7 365.5 363 366.1 360.9 356.3 349.1 321.7 295.3 283.2 267.7 255.2 243.3 224.5 208.3 190.6 196 207.8 198.5 179.5 169.3 162.5 153 130.8 118.3 108.3 89.3 89.3 94 98.9 102.8 107 106.1 108.3 111.7 118.9 119.2 133.6 124.2 124.9 126.6 129.9 142.6 155.6 172.2 196.6 205.2 178.9 169.4 160.7 168.9 185.1 206.7 218.4 217 214.3 210.2 206.6 203.1 195.2 189.4 186.7 184.7 182.7 184 185.2 185.1 184.4 180 178.6 175.8 173.5 172.5 173 172.1 165.6 161 161.2 161.9 160.1 155.8 155.3 155.1 155.6 156.6 159.9 160.1 158.7 158.4 162.8 166.6 170.8 175.2 179.8 183.4 188.2 194.4 199.5 205.1 211.9 214.8 218.5 221.4 224.4 226.3 229.1 218.2 232.4 237 239.6 242.5 246.5 252.4 259.3 264.5 267 279.3 283.7 288.3 292.7 295.6 300.2 305.6 311.4 318.2 322.5 327.4 331.6 336.2 336.2 335.9 334 331.2 325.8 324.9 322 317 314.4 312.7 311.7 312.4 310.3 308.9 308.2 309.4 311.7 313.4 315.9 321.8 323.9 328.8 335.3 340.8 345.3 349.8 355.4 361.3 366.5 370.4 374.9 379.1 379.5 385.4 390.7 393.2 391.9 394.7 398.8 402.2 405.3 408.8 411 416.4 422.3 426.5 427.2 431.8 433.7 436 438 440.3 444 445.7 446.7 448.5 449.8 449.6 449.4 450.5 450.1 450 448.3 444.1
363.4 360 362.8 369.2 373 377.5 379.3 379.8 382.9 378.5 379.7 378.3 370.7 362.4 337.9 320.7 315.1 295.5 287.7 279.2 251.9 228.5 206.9 194.3 196.6 192 175.3 165.4 156.1 140.5 125.4 116.4 102.3 89.3 89.3 99.9 108 110.5 110.4 104.2 106.3 111.1 116.6 118.5 124.1 125.2 123.2 123.2 123 133.6 147.1 162 175.7 174.2 156.3 146.5 151.7 158.1 175.7 203.1 213 212.1 207.9 203.1 197.3 193.1 187.5 180.9 178.5 176.9 178 180.6 179.5 179 177 175.2 173.6 170.9 171.2 171.2 170.8 169.2 163.6 159.5 160.4 160.3 156.4 153.7 153.8 152.2 152.7 154.2 156.1 153.7 152.2 154 157.9 162 166 170.1 173.7 176.9 182.6 189 193.5 200 206.7 210.8 213.6 216.3 218.6 221.7 218.5 216.9 230.7 233.6 237.1 240.5 244.4 250.3 255.1 259.1 267 274.8 280.7 286.4 291.4 294.3 297.7 300.9 307.6 311.9 316.8 325.1 335.3 337 336.5 334.3 330.4 329.8 329 328.9 327.6 322.5 316.6 313.2 312.2 310.2 308.6 307.6 307.6 309.5 310.9 312.8 311.8 318 321.5 325.7 332.4 338.2 343.3 348.6 354.2 359.6 364.5 368.9 373 374.9 378 382.9 384.6 391.1 390.8 395.4 400.1 400.9 405.2 408.2 410 414.3 418.8 423 425.9 427.2 430.7 433.5 437 441.3 444.3 445.6 446.5 447.3 448.4 449.4 449.1 449.2 449.7 449 446.4 442
365.5 368.6 371 377.5 383.6 388.5 396.2 398.1 390 387.6 389.1 388.1 374.8 353 344.3 343.4 325.5 316.9 309.9 291.5 262.3 234.7 214.6 207.5 197.6 190.8 174.4 169.8 154.9 130.4 121.4 110.1 93.7 89.3 91.2 104.9 110.4 110.8 106.2 106.3 106.3 112.3 113.3 116.1 116.3 128 121.5 120.6 119.9 123.4 140.3 152.9 158.5 150.1 143.3 142.5 144.3 149.6 167.7 187.6 198.3 203 200.3 197 193.9 185.9 179.4 176.9 175.3 174.7 175.3 174.5 172.2 168.9 170.5 171.1 166.5 166.8 171.4 170.5 171 167.9 162.9 158.2 158.6 157.5 151.7 151.6 150.6 149.7 149.8 152.3 151.8 148.5 148.5 150.9 154.4 159 162.6 165.4 169 173.5 178.6 183.4 189.1 197.1 201.8 205.8 208.5 211.7 213.7 213.6 211.6 222.7 226.3 230.2 234.2 238.4 242.7 247.2 251.2 256.4 261.1 269.5 275.6 281.8 287.4 291.7 295.2 298.8 302.6 306.5 310.4 317.2 325.5 330.7 332.9 332.7 330.8 331.1 328.5 329.9 329.9 327 322 316.1 314.4 313.1 308.4 307.6 306.8 307.7 309 310.8 310 318.1 321 323.3 327 333.8 340.2 345.9 352.2 357.3 362.4 366.4 368.6 372.2 376.3 379.6 381.9 386.4 394 392.8 397 399.8 404.8 407.6 409.8 414.3 416.8 419.9 423.2 425.4 430 433.6 438.2 441.7 444.7 446 446.2 447.8 447.4 448.6 447.7 447.1 448 447.5 444.9 442.6
375.2 378 383.4 386.8 391.3 400.7 410.1 409.7 402.1 397.7 398.1 391.6 361.1 354.6 356.5 352.7 335.1 322.7 299.3 271.9 243.1 223 216 204.5 194.3 188 179.4 172.3 145.9 129.1 120.2 105.6 90 89.3 92 104.3 111.2 113.2 112.8 108.8 106.3 112.6 112.4 115.2 116.1 114.6 127.7 121.4 118.6 127.7 141.9 146.3 140.6 139.3 137.5 135 138.3 145.4 164.8 177.5 189.3 192.5 192.4 193.5 188.5 183.7 179.6 177.5 181.3 176.9 175.9 171.4 167.2 164.6 167.2 164 160.7 164.8 168.6 170.7 169.9 165.6 158.6 158.6 157.9 153.9 149.5 149.2 149.5 149.1 147.9 148.3 146.6 144.5 145.7 147.4 150.6 155.6 159.4 162.7 166.6 171 175.6 181.6 187.9 194.7 198.5 201 205 208.4 209.3 207.5 211.3 219.2 222.6 226.4 230.5 235.4 239.8 244.1 249.1 253.7 255.6 263.7 270.5 275 281.8 286.6 290.6 293.8 298.2 302.6 305.9 310.1 315.7 319.4 322.6 325.3 329.7 332.3 329.3 330 328.7 325.4 322.5 317.8 316.9 316 311.5 308.3 306.9 306.4 307 307.7 313.1 318.2 321.2 323.3 327.4 332.7 336.7 341 347.6 354.3 358.4 362.8 367.3 369.1 372.6 377.4 381.6 389.3 386.7 391.4 397.6 399.5 402.2 406.7 410.4 414 416.9 420 424.5 426.7 431.5 434.4 437.4 440.2 444.2 444.9 445.1 446.6 446.9 447 446.5 446.4 449.4 446.2 444.5 442.9
385.7 387.4 389.6 393.8 398.3 406.3 414.9 414.6 411.3 407.3 404.1 375.9 363.7 364 366.9 354.3 337.7 298.9 275.8 252.7 231 223.5 213 195.8 190.1 187.2 181 162.4 145.2 128.2 115.1 101.9 89.3 89.3 95.9 107.5 117.8 121.2 126.3 120.5 106.8 107.3 112 116.7 117.7 116.3 114.6 122.5 126.8 120.2 129.5 129.4 128.4 124.2 126.4 127.8 133.4 142.8 158.3 170.8 184.4 191.7 192.1 190.5 186.5 183.7 178.5 176.7 182.4 186.3 177.4 168.1 162.8 163.6 162.3 158.8 160.2 163.7 164.4 165 164.9 161.3 155.1 156.9 155.8 150.4 147.6 148 148.9 148 146.2 145.2 143.9 142.9 143.9 143.9 145.6 150.6 155.8 160.3 164.5 168.7 174.7 179.4 184.8 190.9 195.4 197.7 200.8 204 205.1 199.9 209 216.1 219.4 222.5 225.4 231.9 238 242.4 246.5 250.1 252.8 259 265.4 270.7 274.5 281.2 285.4 288.8 291.8 294.5 298.4 301.8 304.8 307.3 311.4 314.8 319.4 320.1 321.7 327 327.2 325.7 322.4 320 318.7 314.6 312 310.5 311.4 310.4 307.1 305.6 309.2 317.2 320.4 323.4 329.9 334.4 336.7 339.2 343.2 348.9 353.1 358.4 363.7 368.9 371 377.2 381.4 384.6 384.4 390.7 395.7 397.7 401.1 405.3 408.3 412.9 416.3 420.1 423.3 425.2 430.4 433.6 436.1 439.8 442.6 443.1 444.2 444.4 446.2 444.9 445.5 443.9 448.9 449 445.2 441.7
394 394.3 395.9 398.6 402.9 408 418.7 421.7 420.2 411.2 402.2 376.9 368.8 367.2 355.7 337.3 302.7 280.9 267.3 257.6 246.8 243.8 225.3 201.1 188.5 173.4 160.4 155 143.3 124.1 109.7 96.9 89.3 89.3 96.2 108.5 121.3 135.6 139.7 129.4 114.1 106.3 109.8 117.8 127.3 130.4 124.1 117.6 119 123.2 123.3 121 120.2 120.8 121.3 123.3 128.1 138.5 152.9 169.6 180.9 191.5 197.7 192.6 185.2 182.4 179.9 175.8 174.4 183.3 179 164.7 160.5 159.9 157.9 157.7 162.5 161.6 159.6 162.2 162.5 159 153.7 153.7 151 144.6 145.1 149 149 148.2 145 144.1 143.2 142.3 141.9 141.2 143.1 147.2 150.8 155.3 160.6 165.9 172.3 178.1 182.8 188.5 192.8 195.9 198.2 201.2 197.7 202.1 209.7 212.9 215.8 219.9 224.1 230.3 236.3 239.8 243.6 246.9 250.4 256.2 260.7 265 268.7 273.7 279.6 283.3 286.6 290.4 293.7 295.4 297.4 299.9 301.1 305 307.4 305.9 309.9 313.7 319.6 320.2 316.4 316.1 313.4 309.5 314.3 313.3 310.6 309.9 307.2 304.6 307.3 315.7 320.2 323.5 326 330.9 335.4 338.5 341.6 344.5 347 353.3 360.2 366.3 369 374.8 378.2 380.8 383.9 390.2 396.9 397.7 401.2 404.2 406.4 412.4 416.9 421.4 423.3 423.9 428.6 431.8 436.6 438.4 440.1 441.9 442.6 445.6 446.8 445.1 445.1 442.6 447.7 447.9 444.6 440
403.8 400.8 400.9 402.8 406.4 411.2 419.8 425.5 425.8 415.3 400.8 382.3 371.4 360.7 334.5 305.8 284.1 276.9 269 257.5 247.7 236.1 215.7 189 191.4 179.1 171.6 157.8 140.7 130 114.4 101.2 89.3 89.3 95.8 109.6 124.4 144.7 148.3 132.7 118.4 106.3 107.6 118.6 133.7 134.4 127.7 120.9 117.3 118.7 120.7 121.4 119.9 119.8 119.8 120.6 124.2 135.2 145.4 165.3 178.5 187.5 195.3 194.2 186.8 183.8 181.8 175.2 171.5 174.3 174.4 169 162.8 158.8 154.9 155.6 162.2 159.3 158.5 163.2 163.7 158.9 147.7 146.2 142.3 142.9 150.1 151.2 150.7 148.2 146.9 146.6 142.6 141.7 140.8 140.2 140.9 143.9 146.1 150.8 156 160.4 166.8 174.3 180.8 187.1 192.6 195.3 196.4 196.5 189.5 202.5 205.5 207.5 213.7 218.2 223.2 228.7 233.6 236.5 240.1 244.8 250 252.7 256.2 259.5 262.7 267 272.8 276.3 280.1 284.7 287.3 289.8 291.9 293.5 295.8 299.3 299.9 301.7 302.1 302.6 302.8 301 302.7 303.1 308.9 313.1 312.7 311.7 310.7 309.7 308.4 305.5 305.1 317.7 322.4 323.6 324.5 327.4 332.3 336.9 340.1 342.2 346.2 352.2 358.4 363.8 369.1 373 375.2 378.9 383.3 389.9 392.9 396.7 402.7 403 406.8 413.6 417.4 421.5 423.1 424.5 429.2 431.8 435.7 440.1 442.8 442.9 445.1 447.6 446.6 444.3 442.1 441.3 443.4 445.6 443.3 439
411.8 406.7 404.7 405.7 409.1 413.2 417.6 421 418.7 410.9 392.5 380 376.5 339.6 313.1 295.7 288.1 280.5 261.7 248.7 239.7 224.3 213.7 212.5 209.5 195.7 180.9 161.6 146.4 135.5 120.2 102.9 89.3 89.3 96.6 112.1 126.6 145.2 146.6 132.8 119.4 106.3 106.3 113.1 121.1 129 125.6 122.1 119 116.9 118.1 118.6 118.5 119.1 116.6 117.6 119.9 127.7 138.1 154 169.8 182.9 188.3 190.3 191.2 186.2 180.7 176.6 173.7 172.7 171.8 167.5 161.9 158.2 154.9 153.5 157.5 154.6 160.8 164.5 162.6 155.9 145.6 139.5 139.9 143.5 148.2 151.2 150.4 149.1 148.3 146.5 141.5 141 140.6 139.6 139.3 141.1 144.5 147.3 150.9 155.6 162.6 168.6 177.4 183.1 187.3 190 191.6 189.4 192.9 197.8 199.4 206.7 210.7 215 221.1 226.4 230.7 233.7 237 241 246.8 250 253.3 255.5 257.2 259.8 265.9 270 272.3 276 280.3 284.3 286.1 286.6 287.9 291.3 291.1 293.6 296 296 294.7 293.8 295.8 297.1 299.7 302.6 305.4 309.5 311.5 310.8 309.6 304.1 307.8 315.6 321.8 322.4 323.5 326.3 331.3 335 339 340.9 345.9 352.7 360.4 364.7 367.1 368.4 373 379.1 382.7 388.5 393.6 397.6 402.1 403.4 407.4 414.5 419.2 420.4 422.8 426.9 429.2 432 436.4 442.2 444.8 447.7 449 449.2 445.8 443.3 441 440.1 441 444 442.6 439.5
421 413 408.8 408.8 410.1 412.9 415.6 418 412.2 393.6 386.2 383.2 355.2 323 309.9 300.1 291.7 270.7 253.5 244.5 234.3 245.2 242.1 235.9 230.3 216.8 193.8 170.2 151 138.7 123.1 100.9 89.3 89.3 94 108.7 122.1 138.9 144.8 130.3 116.4 109.1 105.6 106.7 113.8 119 121.5 122.3 119.8 117.1 112.5 115.4 114 115 115.8 110.1 109.7 114 119.5 136.6 156.6 171.5 178 178.8 178 179.3 179.4 173.7 169.8 166.3 165.7 162.5 159.6 157.1 153.4 149.8 153.2 158.9 165.9 163.3 159.5 150.1 138.4 135.5 139.9 144.2 149.1 150.8 150 148.5 145.5 140.9 139.3 139.3 139.4 138.7 138.5 139.4 141.2 144 148.1 151.9 158.4 164.4 170.6 176.5 180.9 183.5 185.5 181.2 188 196.7 199 202.2 206.8 212.3 217.5 222.8 226.9 230.1 233.5 238 243.3 247.1 251 252.1 254.1 255.9 260.5 264.4 267.2 270.3 274.1 278.5 280.7 281.3 281.4 282.5 284.3 284.1 287 287.6 287.4 287.6 287.8 289.1 292.9 297.7 298.5 300.1 302.3 300.9 299.8 307.3 312.8 315.8 316.6 321.5 324.1 328.1 333.1 336.1 340.2 343 348.7 352.8 356.5 360.4 364.1 366.9 372 376.6 380.6 387.6 393.7 397.6 403.9 404.8 408.7 414.5 418.4 420.6 425.2 427.3 431.2 433.5 438.4 444.9 448.7 451.7 452.9 452.1 449.7 444.5 439.8 438.1 438 437.9 437.1 437.4
431.6 422.5 416 413.7 411.7 412.8 414.1 416.6 410.5 391.4 381.8 358.5 338.2 324 314.9 303 286.6 265.2 261.7 244.2 249.9 247.5 244.6 238.1 232.4 231.3 210.4 183.2 159.7 142.5 122.4 100.5 89.3 89.3 91.3 100.5 115.1 123.8 131.3 126.4 116.1 108.3 104.8 106.5 109.1 113.9 117.1 119.1 120.9 117.2 112.9 109.6 110.8 110.3 114.6 108.2 108.9 109.7 113 116.5 130.7 150.9 167.3 167 172.5 175.1 157.7 153.8 153.7 155.6 155.8 153.4 151.8 151 147.9 147.3 151.3 163.4 163.3 157.9 152 143.6 136.5 136.1 138.4 146.4 149.5 149.4 147.7 144.4 142.6 139.3 138.4 138.1 138.3 137.7 137.6 137.6 138.3 139.7 144.3 146.4 152.2 157.8 163.8 169.3 173.9 177.4 175.2 182.8 189.8 194 196.4 199.1 203.7 209.2 214.4 219 222.7 226.5 231 235.4 239.8 243.1 246.5 249 251.1 253 257.2 261.1 264.2 266.2 269.3 272.2 274.1 273.9 274.7 276.7 278.8 276.2 276.9 278.8 278.5 280.7 278.4 281.2 288 283.9 294.5 294.3 294.9 295.7 300.6 306 315.7 316.9 319.5 322 325.7 328.8 331.3 334.6 340.2 345.9 351.8 353.1 355.1 360.1 365.3 368 371.9 375.9 380.4 387.9 393.9 397.5 400.8 404.6 409.6 413.9 418.8 422 425.4 428.6 433.1 437.5 444.7 450.8 454.4 456.8 457 454.8 452.2 446.9 443.9 436.4 435.9 436.3 434.6 433.1
443.6 434.3 430.2 420 411.6 412.5 410.6 405.8 392.3 385.3 365.5 340.5 331.4 319.7 305.9 289.4 271.6 260.1 263.3 256.8 257.7 256.5 254.2 243.5 229.5 226 219.5 194.5 166.6 145.7 124.1 105.1 89.3 89.3 90.8 94.2 102.8 111.6 119.9 120.6 112.4 106.5 103.8 102.4 103.8 109 112.7 115.4 117.6 117.6 113.6 111.3 106.8 99.7 104.8 112.7 98.9 96 109 113.9 115.2 123.1 133.8 147.1 149 143.2 134.9 140.6 139.4 145.6 148.8 144.3 145.9 145.9 145.9 152.4 160.5 162.9 157.2 148.6 144.7 138.6 133 136.9 141.7 145.7 146.8 146.2 145.2 142.2 140.7 139.1 139.3 139.5 137.9 137.2 136.9 136.8 136.9 138.1 140.1 141.6 147.1 151.7 157.4 163.7 169.7 168.2 173 182.2 186.3 190.3 193.8 196.6 201 206.3 212.3 215.9 220 224.4 228.7 231.9 236.2 239.3 242.3 245 248.1 250.7 254.4 258 260.9 263.1 265.6 269.5 269.7 268.3 267.4 268.4 271.4 269.1 268.6 274.3 269.7 263.1 261.9 264 266.3 271.2 279.3 280.2 288.8 286.6 299.6 303.8 311.4 314.6 316.6 319.2 325.1 327.8 329.7 333.7 339.1 343.1 347.6 350.9 355.7 361.5 366.8 370.5 374.4 377.9 380.3 386.9 392.2 394.5 400.3 402.2 407.6 414.3 418.3 422.8 426.5 432.7 435.9 443.2 451.4 456.3 459.2 460.6 459.6 457.5 454 450.2 447.7 439.9 437.2 433.3 430.9 428.2
452.1 444.8 433.1 414.5 410.5 408.6 401.6 391.5 390.7 371.2 350 345 333.2 328.6 315 294.4 287.4 280.3 274.5 272.6 267.1 263.9 267.4 252.7 227.7 214 207.6 192.9 166.2 146.7 126.2 111.2 94.6 89.3 89.3 90.9 89.4 91.6 103.7 113 105.5 102.8 99.6 90.7 90.7 90.5 91.6 98.7 98.9 112.5 112.6 103.9 89.6 92.7 97.6 112.4 102.9 93.3 93.5 107 111.7 112.8 114.5 114.8 119.3 126.7 128.5 129.7 140.4 151.2 157 150.8 146.2 145.9 145.9 161.7 165.5 159.4 147.5 142.3 140.5 133.2 130.4 132.8 141.6 145.9 144.7 144.3 141.9 140.4 139.7 139.3 141.6 139.5 136.9 136.6 136.2 136.2 135.2 135.7 136.8 139.5 144 147.9 153.5 157.6 162.7 162.7 172.7 178.8 183.6 187.3 191.5 195.6 199.4 203.5 208.4 213.1 217 221.3 226.2 229.6 232.7 235.7 238.8 241.6 244.3 247.3 253.5 255 258.6 260.5 263.8 267.4 268.5 265.7 263.1 261.9 261.1 262 260.4 267.6 256.9 255.1 276.7 268.6 278.9 292.9 293.4 290.7 283.8 289.8 296.9 300.3 308.9 312.4 316.1 320.9 324.9 327.4 329.3 333.8 339.4 343.7 347.6 351.5 355.7 361.2 366.9 370.8 373.6 376.3 379.2 383.7 389.5 392 397.4 401.6 405.3 412.9 419.5 425.5 429.8 434.9 442.7 450.7 456.4 461.4 462.5 464.1 463 460.6 459.2 459 453.8 446.2 440.3 433.7 425.8 423.6
452.6 432.8 426.9 414.7 411.2 409 403.4 404.5 391.6 385.8 370 345.7 334.3 319.2 304.9 297 290.4 287.4 287.8 279 274.2 276.2 270.9 244.5 218.8 205.3 190.9 176.8 155.7 138.6 125.5 117.6 101.9 89.3 89.3 89.3 89.4 89.4 89.4 95.4 96.9 96.9 92.7 91.3 89.6 89.6 89.6 89.6 89.6 89.6 89.6 89.6 89.6 89.6 94.3 108.7 106.6 95.8 91 97.8 105.4 108.6 110.5 112.9 114 124.6 125.8 127.8 133.6 143.9 154.7 156.9 153.3 150.7 146.8 161.9 162.7 154.7 143.7 141.7 140 129.6 129.4 133.6 142.1 145.8 142.7 141.2 139.4 138.9 139 141.2 142.6 141.5 139.4 136.1 135.2 135.2 135 134.5 135.7 138.5 142.4 146.9 151.1 153.5 155.4 161.2 169.1 173.9 179.4 184.6 189.8 193.9 197.4 201.3 205.6 211 214.4 217.9 222.5 225 228.5 233.1 235.6 238.3 240.1 243.3 248.3 251.4 255.7 257.9 258.9 262.4 264 261.3 256.6 255.4 255.1 253.7 255.4 251.8 253.3 268.7 278 285.3 291.1 293.9 294.6 294.1 294.9 295.3 297.4 302.2 307 311.4 315.4 321.3 325.5 328.2 330.6 335.5 340.3 345.1 348.5 352.2 355.9 361.6 366.8 369.6 369.9 372.9 377.1 383.1 386.7 392.6 397.7 400.6 404.9 412.9 421.6 428 433.9 440.6 448.4 454.8 460 464.5 466.6 467.4 466.3 464.9 464.7 468.1 456.5 447.5 440.5 433 422.4 418.2
435.9 436.9 426.7 414.6 414.9 413.5 413.4 407.7 408.4 398.1 367.1 348.4 331.6 315.2 305.7 299.7 295.9 290.6 282.4 274.6 267.3 275.6 267 241.4 220 196.2 170.1 160.8 158.8 151.6 141.6 130.2 116.4 103.4 92.7 89.3 89.4 89.4 89.4 89.4 89.5 92.1 91.6 91.5 91.7 89.6 89.6 89.6 89.6 89.6 89.6 89.6 89.6 89.6 89.6 95.7 95.1 91 91 91 96.3 102.1 103.5 109.9 111.7 117.2 126.8 128.3 131.5 136.9 148.5 153.7 152.8 150.5 146.1 155.9 159.5 149.2 139.7 138.3 136.4 129.3 128.9 136.9 142.2 143.9 141.5 139.6 139 138.7 137.9 139.4 142.4 143.5 138.7 135.8 134.8 134.1 133.8 132.5 136.1 138.7 141.5 145.6 148.8 146.6 153.5 160.6 165.3 169.9 176 182.5 187.8 191.6 195.2 198.9 203.1 208.8 211.4 214.3 217.8 220.5 224.4 229.6 232.6 235.2 236.8 240.2 243.9 246.6 250.1 252.8 255 254.5 253.8 252.8 250.1 250.2 250 243.7 247 248.9 256.8 266.3 275.5 283.6 290.8 293.9 296.3 297.9 298.6 299.9 305.4 308.6 311.4 313.3 316 322 326.5 330.5 334.6 338.7 343.6 347.1 350.4 354 357.9 362.5 365.6 367.3 369.6 371.3 375.5 382.5 387.2 390.8 393.9 398.7 406.5 415.2 425.8 432.9 439.7 446.3 454.1 459.5 464.1 469.8 476.2 478.5 473.5 466.9 466.8 468.2 456.4 446.5 438.9 431.7 422.6 414.6
435.6 426.5 423.5 422.1 423.1 426.4 420.3 417.5 407.3 380.8 352 340.5 325.8 316.6 314.1 309 300.6 289.6 276.4 267.3 260 257.7 259.2 240.3 215.6 190.7 181.6 182.5 170 162.4 154.6 142.6 132.4 113.9 104.8 93 95.7 91.3 89.4 89.5 89.5 89.5 89.5 89.6 89.6 89.6 89.6 89.6 89.6 89.6 89.6 89.6 89.6 89.6 89.6 89.6 91 91 91 91 91 100.4 99.3 104.6 109.9 112.8 121.4 128.2 129.3 129.8 136.7 148.6 152.8 143.1 140.8 150.2 155.7 145.7 132.2 127.7 135.1 128.8 129 140.9 143.1 143.1 139.8 139.4 139.5 138.5 137.5 137.2 141.2 142.2 138.7 136.6 136.9 135.1 132.9 133.6 136.2 138.5 140.2 143.4 141.3 144.4 151 157.5 162.5 168.3 174.6 180.9 186.2 190.5 193.9 198.1 201.9 206.5 208.9 211.4 213.5 215.5 221.8 225.9 229.8 233.1 234.7 237.4 240.4 242.5 244.6 246.8 248.3 248.8 248.1 246.7 242.1 239.9 243.1 246.3 249.5 254.1 257.4 264.9 275.6 283.5 289.2 294 297.7 300.7 303.2 307.4 312.2 314.8 316.7 318.1 320.1 320.4 327.4 332.5 338 341.7 345.1 346.1 349.8 355 358.9 363.1 367.3 367.1 368.4 371.3 376.8 380.6 388.7 388.6 391.9 398.5 408.3 418.8 429.6 437.1 443.3 452.1 459.4 465.5 468.8 472.9 482 485.5 478.3 471.5 468.2 466.2 453.1 443.4 436.7 429.9 421.1 413
439.4 434.8 433.5 433.5 430.9 430 427.6 419.3 381.7 355.9 344.2 330.6 331.6 332.4 323.9 311.7 296.5 282.2 271 265.7 262.8 260.5 252.6 235.5 210.2 191 193.3 180.1 165.8 167.7 165.7 155.4 139.9 124.2 109.5 106.8 109.3 105.1 100.9 91.8 89.5 89.5 89.5 89.6 89.6 91.8 93.2 89.6 89.6 89.6 99.2 100.9 100.7 101.8 99.9 98.4 98.8 92.7 91 91 91 91 100.8 102.1 108.2 110.6 115.9 119.8 121.8 124.4 128.1 133.1 141.5 135.7 133.1 147.9 146.3 137.6 125.6 124.6 128.1 130.7 126.2 137.6 141.6 141.7 140 138.3 139.9 139.3 136.5 135.2 138.9 138.3 136.9 136.4 135.5 133.3 132.8 134.6 136.1 137.3 138.4 138.9 134.8 141.8 148.5 153.4 160 167.6 174.2 179.9 185.8 190.9 194.7 197.6 200.9 205.4 207.6 209.7 211 213.4 217.6 221.5 225.2 229.8 232.1 234.2 237.3 238.5 240 241 242.7 243.6 244.2 241.3 239.2 244 247.3 250.4 253.6 256.6 262.6 268.3 277.5 284.6 289.5 294.7 299.7 305 308.4 313.7 316.8 319.1 321.3 323.5 326.1 329.7 329 336.3 341.4 345.3 344.6 345.2 348.5 354.7 358.6 361.8 365 367.2 370 372.4 377 380.8 383.3 387.2 393.2 402 411.5 422.8 432 440.4 447.9 456.9 463.4 469.1 473 475.5 485.6 486.7 477.4 476 471 464.7 446.5 438.3 431.1 424.7 416.5 409.6
442.2 440.6 441.1 444.9 433.7 435.1 428.9 399.6 369 352.7 343.2 342 340.2 342.9 333.1 309.6 292 279.4 275.3 275.9 273.2 269.6 254.5 228.8 209.2 195.1 185 176.9 169 159.6 156.2 143.1 125 105.7 112.4 117.1 115.7 115.2 115.9 114.4 107.7 103.4 100.9 102.6 113.7 112.2 110.7 109.7 104.7 106.4 109.6 109.8 109.5 109.2 108.6 108.2 107.5 100.2 91 91 91 91 100.2 100 104.6 108.2 109.8 112.6 113.4 117.1 120.3 130.1 132.6 129.2 128.2 142.5 135.4 130.8 123.3 122 122.1 121.4 123.5 127.1 138.2 141 139.3 137.2 136.3 133.6 133.4 133.1 136 134.6 132.9 134.5 127.9 134 134.8 136.3 137.7 135.8 135.3 131.9 133.8 141.2 144.8 149.8 157.4 165.8 172.7 178.2 184.1 190.1 194.1 197.1 200.5 205.2 206.9 209 209.7 212.3 216.3 217.8 220.7 224.7 228.9 230.9 233.1 235.3 236.4 237.1 238.1 239.3 228.5 237.7 244.9 247.8 250.1 252.6 257.8 264.6 269.1 274.7 281.3 287.1 291.3 296.4 301.8 307.9 314.5 319.2 319.7 322.1 326.2 328.8 330 332.9 335.2 338.9 343.6 345.1 344.1 345.9 348.3 353.1 358.1 360.9 363.6 367.6 371.3 374.4 377.8 381.1 385.8 393.4 399.2 406.6 416.2 425.9 433.9 442.4 454 461.1 466.7 472.3 475.1 477 481.8 482.1 480.7 480.1 475.1 465.3 447.1 436.7 427.8 419.3 408.7 401.7
450.3 450.7 452.1 442 434.1 434 416.7 385.5 371 354.9 352.9 344.9 348.2 342.1 328.2 308.7 292.1 287.9 282.6 284.9 281.2 271.6 253.2 227.8 204.7 181.8 172.1 160.4 147 136.9 126.7 122 121 113.3 128.8 133.9 131.1 126.8 124.5 120.1 115.1 114.3 115.7 118.9 117.2 114.7 120.1 125.2 115.7 109.9 111 112.3 111.7 111.2 110.1 109.2 105.5 100.4 91 91 91 91 95.9 99.5 100.9 103.5 109 109.2 111 111.7 124.6 119.6 124.6 122.3 123.3 133.2 130.5 125.6 120.9 117.2 117.8 119.8 121.2 121.3 133.9 136.2 136 136 134.1 130.1 129.8 132.7 133.7 130.8 127.8 124.1 135.3 135.1 135.8 138.6 139.3 134.6 129.6 124.8 136 139.6 143.3 148.5 154.9 163.5 171.7 177.5 182.4 188.2 192.2 195.5 199.9 205.2 206.3 207.7 208.6 211.3 213.3 214.4 216.7 220.4 224.7 227.1 228.8 231 232.9 233.3 226.6 225.5 239.6 244.9 247.1 249.7 253.3 258.7 264.5 270 273.8 279.7 284.9 290.2 294.4 298.8 304 309.6 314.3 319.5 322.1 327 330.8 332.8 334.6 336.2 341.4 343.7 342.6 343.1 344.4 346.9 350.7 354.7 358.4 360.8 363.7 367.3 372.5 376.6 378.5 382.2 389.2 396.8 402.8 409.3 419.4 429.3 436 444.1 458.5 464 469.5 474.5 476.6 481.8 481.1 480.6 483.3 483.3 477 462.8 446.1 435.2 426.7 418 407.1 400.6
461.6 459.2 454.1 440.1 431.8 420.3 400 385.5 366.9 369.9 362.8 350.6 337.5 327.6 315 306.5 300.1 288.3 287.9 285.7 280.8 264.9 246.9 221.4 207.7 193.8 178.4 167.7 158.5 151.5 144.8 138.6 131.9 124.6 148.5 148.3 143.1 140.3 133.6 124.9 122.8 126.9 130.9 131.3 128.4 123.6 130.4 130.9 119.9 115.8 115.1 114.4 113.7 113 113.2 113.1 105.4 101.1 91 91 91 91 95.4 100 99.7 103.5 108.3 110.4 108.4 111.2 111.6 111.8 111.6 114.6 118.3 122.6 122.4 118 115.2 114.9 115.8 117.5 117.5 119.3 127.7 132 130.5 128.3 128 126.9 125.3 130.8 131.6 124.5 121.7 131.4 133.3 133.4 134.8 138.3 138.4 133.2 126.3 127.9 136.3 139.2 143.9 149.3 155.8 163 169.4 175.5 180.9 186.1 190.6 194.6 199.2 203.1 205 205.5 206.5 209.4 210.6 211.5 214.4 217.9 221.5 223.6 224.7 227 225.3 218.5 220.4 236.4 241.4 245 247.9 253 259.3 265.2 270.6 276.5 280.8 285.8 290.4 294.4 298.7 302.4 306.7 309.6 314.7 319.9 325.1 329.8 334.4 338.6 341.9 342.9 344.7 345 343.3 343.8 345.8 349.4 351.4 355.4 359 362 365.5 369.9 375.4 380 381.6 384.2 391.2 397.7 405 411.9 421.3 431.6 439.2 446.6 459.1 465.4 472 476.5 479 483.1 479.4 479.7 483.3 482.8 476.3 454.6 444.2 432.8 424.3 416.2 407.3 398.6
471.8 469.5 458.7 446 434 409.1 397.8 386.3 388.2 382 362.8 342.8 326.6 316.3 309.9 303 297.2 291.1 288.3 285.4 276.8 262.8 245.5 226.9 233.5 207.2 187.4 176.4 167.4 161.3 155.6 149.7 143.4 140.6 152.5 154.3 150.1 144.8 141.5 136.4 139.2 137.6 131.9 131.3 124.3 122.2 125.6 129 120.5 117.7 123.8 125.2 119.4 118.1 116.2 114.4 109.2 101 91 91 91 91 94 104 98.8 98.6 106.4 106.7 108.6 106.3 110.3 109.9 110.1 109.6 109.3 111.8 113.4 112.5 111.5 112.1 112.8 115.1 112.6 115 126.5 123.8 121.8 120.7 123.3 121 122.2 129.8 127.6 124.5 121 128.5 132.2 131.5 132.6 134.5 134.8 130.5 120.2 131.2 135.6 138.7 142.6 148.5 155.6 163.1 168.9 174.7 181.1 186.3 189.8 193.1 198 200.4 202.5 202.9 204.3 206.3 208.1 210.2 212.7 215.6 218.7 220.8 215.5 211.9 214.6 223.2 234.1 238.7 241.8 245.5 250.5 257.7 264.7 270.5 277.4 281.7 286.2 291.6 296 299.4 302.6 306.1 309.8 313.6 318.8 324.4 330.3 336.1 340.9 343.2 345.8 347.7 347.8 346.7 346.4 346.6 349.9 352.1 353.4 355.6 359.3 362.6 367.1 371.8 376.9 380.2 383.6 386.8 392.2 399.7 408.2 415.8 423.5 432.7 439.8 447.5 460.4 466.2 475.7 478.9 481 479.5 476.7 474.2 475.3 478.4 471.5 449.9 439 428.9 421.9 413.3 403.9 396.1
478 475.5 460.6 451.5 431.4 408.6 399 403.1 384.8 365.8 349.5 337 331.1 316.9 313.4 308.5 301.6 294.4 289.2 283 277 264.5 254.9 249.3 236.5 213.6 198.9 186.8 180.7 172.9 164.6 158.6 151.2 152.7 153.7 155.3 153.9 149.6 153.9 156.5 149.7 140.1 136 130 124.9 129 126.4 127.3 121.3 125.1 128.1 124.9 121.4 123 125 117.8 111.1 101.4 91 91 91 91 91 104.9 102.8 98.6 97.8 102.8 102.8 101.2 104.7 102.4 103.6 105.4 105.6 105.9 106 106.7 105.5 110.3 113.8 107.5 109.1 113 118.1 118.7 117.8 119.4 121.1 119.5 124.4 131.5 126.4 120 119.9 125.1 127.3 129.8 130.2 131.6 131.5 120.8 124.4 132.6 135.2 139.1 143.2 148.8 156.5 164.9 170.4 175.3 180.1 185.3 188.4 191.7 194.4 197.8 200.2 201 202.7 205.1 207.3 209.5 211.5 214.2 216.5 213.2 207.1 209.9 225.2 229.7 235.4 240.1 244 249.2 255.3 262.1 267.8 275.4 280 285.1 290.2 293.9 297.3 301.5 304.6 308.8 313.7 317.8 323.3 329.9 336.1 341.5 343.7 345.7 350.6 353 351 350.6 349.5 349.5 351.7 353.8 355.4 356.8 360.4 363 367.5 371.5 375.5 379.7 383.5 387.8 393.4 401.9 410.4 417.9 425.1 433.3 440.5 449.8 461.4 470.5 477.2 483.5 482.1 477.4 477.1 475.1 467.9 469.4 462.3 446 433.5 423.6 416.7 408.3 399.1 390.8
484.7 467.5 454.2 442.2 420.7 412.7 426 420.4 386.7 357.5 353.3 346.1 332.3 322.9 318.7 314.6 310 303.9 293.2 286.1 276.7 269.1 261.4 259.5 248.3 226.6 222.1 210.8 201.5 193.4 184.7 171.3 162.7 168 172 170.8 166.1 166.6 166.2 167.9 162.5 152.2 143.9 137.1 134.1 132.8 132 130.9 125.4 131.5 133.8 127.9 126.8 129 129 119 112.4 103.8 100 91 91 91 91 93.7 103.3 100.9 97 96.6 96.4 96.9 96.4 104.7 103.1 103.3 103 103.8 104.3 103.6 103.2 102.7 104.8 106.1 107.8 110.5 113.7 115.3 116.8 116.7 117.8 118.3 127.1 126.2 122.6 114.5 114.2 120.3 129.8 131.3 129.3 129.4 124.5 115.7 127.3 131.6 134.6 138.2 143.5 149.7 157.3 165.8 171.9 175.3 178.6 182.6 185.4 190 193.4 196.8 199 199.5 201.6 204.2 206 207.6 208 204.1 201.5 205.9 216.7 225 227.7 232.7 238.3 241.9 246.8 253.1 259.3 265.3 270.7 277.3 282.2 287.1 290.8 293.7 298.1 302 306.6 311.4 316.4 321.4 328.4 334 338 341.5 345 350.8 357.5 357.2 352.9 352.6 353.9 352.9 353.1 356 356.7 357.9 360.6 363.1 366.9 370.8 375.4 379.9 384.2 389 394.8 403 410.9 418.1 426.2 434.3 440.6 450.7 463.3 471.5 476.5 484.2 484.1 477.3 476.2 474.8 466.4 457.1 448.5 437.9 426.9 416.7 408.4 401.1 392.2 385.3
468.6 453.2 445.6 429.9 430.3 437.2 415.7 397.4 377.6 360.4 352.4 346 339.1 330.9 326.1 322.3 317.8 309.7 298 291.7 273.2 270.7 273.1 270.3 256.6 247.7 242.8 236 225.7 220.7 204.7 187.3 173.9 182.4 188.2 187.9 187.1 186.6 185.2 189.4 185.7 172.5 163.1 150.1 137.2 133 131.8 128.2 130.9 138 140.2 132.9 133.8 131.1 127.8 116.1 113.3 105.2 103.6 91 91 91 91 91 91 97.5 98.4 97 96.8 95.4 98.1 98.6 103.5 103.8 103.6 101.1 101.2 101.1 99.9 97.9 100.6 102.1 103.5 109.4 111.2 112.5 117.3 117.5 121.4 119.2 122.8 124.2 114.9 110.9 114.8 117.7 130 133.3 128 125.2 112.3 119.7 125.8 130.5 133.8 139.3 145.3 150.6 158.4 164 170.5 173.3 175.6 179.3 183.7 186.9 190.5 193.8 196.8 198.7 200.7 203.1 204.4 200 195.2 200.3 209.5 219 221.9 225.6 231 236.9 243.6 247.4 252.5 258.6 264.4 269.5 274.3 278.9 284 288.6 291.6 295.5 300 304.3 307.8 313.2 317.6 322.6 328.3 333.8 338.6 344.1 349 357.4 360.5 360.1 352.8 352.4 354.9 355.2 354.9 356.3 356.6 358 360.3 363.6 367.3 371.9 377 381.6 385.8 390.1 396.4 402.5 410 417.9 427.4 435.4 442.6 453.5 464.3 474.4 478.6 481.1 481.7 475 474.2 472.8 466 448.9 438.7 430.5 419.7 407.9 399.6 391.8 384.8 376.7
463 453.4 443.2 449.8 442 422.8 410.7 403.7 376.4 363.2 356.5 351.6 348 341.4 332.1 329.6 323.4 311.7 302.8 292.7 276.1 282 279 275.1 272.2 267 261.8 257.2 249.5 239.5 226.4 205.7 189.1 200.8 205.3 203.2 206.4 207.5 205.7 205.3 202.4 191.5 177.4 165.3 145.8 137.6 137.9 136.4 140.1 146.5 145.7 135.8 132.7 130 124.2 114.5 113.7 106.2 105.1 91 91 91 91 91 91 91 91 93.7 96.3 93.8 92.1 95.8 102.6 103.7 103.8 103.2 102 100.7 100.6 98 97.6 98.1 99.8 101.1 109.3 110.6 115.2 111.3 119 120.9 120.4 121.6 113.4 110.8 112.6 116.6 124.6 128.1 125.9 113.5 115.4 123.1 126.9 129.6 134.6 140.5 146.5 150.5 159.3 163.8 167.5 170.4 174.1 178.1 181.8 185.8 189.2 192.5 194.7 197.2 199.5 200 191.4 192.7 202.7 211.8 215.3 218.7 222.3 228.4 233 240.3 247.2 253 256.9 262.1 268 274.2 278.4 282.1 286.8 290 293.4 296.9 300.9 305.7 309.7 315 318.2 322.4 329.1 335.2 341 346.6 353 358.1 362.4 358.3 355.5 357.8 358.7 358.6 357.6 357.6 357.5 358.3 361.1 365.2 369 373.3 378 382.7 387 391.7 397.6 403.8 411 420.9 428.7 437.5 449.1 459.6 468.9 478.5 480.7 480.6 480.6 471.5 471.8 471.3 464 443.4 434.7 424.9 414 401 392 385.8 378.3 375
465.4 457.2 453.8 452.5 438.6 436.2 428 417.9 386.4 375.1 364.1 354.9 352.6 347.2 343.5 341.2 333.8 316.7 307.4 291.3 285 285.9 286.2 285.8 283.4 282.3 280.3 280 274.6 266.4 244.7 222.1 202.2 215.3 222.7 221.1 222.4 226.7 225.4 218.8 214.7 206.3 193 176.5 159.4 154.1 151.6 149.4 147.1 147.1 139.3 134.7 130.7 124.2 116.8 114.4 113.1 108.6 106.5 91 91 91 91 91 91 91 91 91 91 91 101.1 103.6 102.6 102.7 92.4 96.3 104.1 103.4 94.7 93.3 96.5 97.9 99.4 99.9 100.9 104.4 107.6 107.5 111.4 116.8 116.7 119.9 110.9 107.2 109.3 114.9 122.2 123.9 115.3 102.3 118.2 125.5 127.6 129.2 134.6 142.4 149 155.7 160.5 164.7 166.3 169.1 174.7 179.5 182.5 186 189.3 191 192 193.1 187.4 188.5 189.6 196.8 210.1 213.2 217 220.6 225 231 236.7 242.8 249.2 254.4 259.6 263.3 270.9 277 282.1 287.6 289.3 291.6 296.2 299.9 303.7 307.9 312.9 316.5 319.4 323.5 330.5 337.1 342.9 348.9 355.3 360.3 362.2 355.8 361.6 366.8 364.6 360.4 358.8 359.2 358.9 358.9 361 365.1 369.9 373.7 378.3 383.5 388.8 393.3 399.2 406.1 412.4 419.9 429.2 439.6 454.5 465.6 474.5 478.6 480.6 481.5 478.4 471.8 469.5 468 462 438.3 428.5 422.1 411.6 399.1 391.3 383.3 376.8 372.4
462.5 461.2 458.9 455 452.9 452.2 445 415 398.2 382.1 369.5 360.1 358.5 352 353.1 355.1 344.1 324.8 306.5 297.2 287.5 293 293.2 295.1 295.8 296.6 294.7 296.7 295.2 280.6 264 241.3 216.3 221.8 236.5 237.5 237.5 237 236.5 233.9 230.6 223.4 207.5 187 177 174.9 168.5 159.1 147.6 142.9 140.5 136 126.9 119.7 117.8 120.7 115.6 110 107 92.6 91 91 91 91 91 91 91 91 91 92.5 93.2 95.3 95 101 90.9 90.8 96.2 95.5 92.9 97 97.8 99.4 99.2 98.4 99 99.2 100.8 104 107.1 108.2 107.9 109.5 107.4 104.9 109.9 125.3 122.5 119.1 105 107.2 118.4 125.2 127.6 129.8 133.3 140.4 148.9 156.9 161.9 164.8 168.3 171.8 176.2 180.5 182.5 184.9 186.3 187.1 186 182.3 185.5 187.6 192.4 206 211.2 214.7 218.4 223.4 229.6 234.4 239.3 245.3 251.5 256.5 261.1 265.3 272.7 277.8 283.3 288.1 291.7 295.3 299.1 302.5 305.6 311.1 315.3 318 321.7 325.8 330.9 337.5 343.8 349.5 355.6 359.8 361.6 359.2 365.1 369.3 367.6 364.6 362 360.7 360.4 360.5 361 365.4 369.6 373.7 378.9 383.1 388.4 394.1 400.2 405.6 413.3 422 431 441.5 455.9 466.3 475.1 479 479.1 479.1 479 474.2 466.8 459.8 453.1 431.7 424.4 417.4 407 397.7 390.1 383.5 376.8 370.9
471.4 471.6 467.2 478.4 472.6 457.6 431.2 419.2 403.9 385.2 372.2 365.9 358.6 357.2 360.4 361.7 343.3 322.1 307.7 297.4 300.4 301.1 300.5 303 304.8 305.6 307.1 301.6 299.9 294.1 276.3 256.5 229.4 235 245.1 247.7 253.8 248.2 250.2 245.2 242.7 234.2 220.6 204.9 196.6 188.1 180.9 168.3 150 145.9 141.6 135.5 126.1 121.2 122 123 119 116.3 108.3 108.7 91 91 91 91 91 91 91 91 91 98.3 92.3 95.8 90.4 91.2 91.4 90.4 91.5 95.5 94.3 91.7 93.5 97.6 98.6 99.8 99.2 99.1 99.4 99.1 99.9 101.3 106.5 109 101.8 112.5 125.3 123.1 120.3 108.2 96.7 108.4 116.4 120.9 126.4 131.1 131.9 134.4 146.7 156 163.4 166.8 169.3 174.1 177.1 178.8 179.2 180.8 181.8 180.4 178.9 182.5 193.3 196.3 201 206.9 212.7 216.4 220.4 226.4 232.1 237.6 243 249.1 253.6 258.2 262.7 268.3 273.3 277.7 283.8 291 295.9 299 302.4 304.3 308.1 312.6 316.9 320.2 324 328.3 333.4 338.2 343.6 347.8 353.4 358 358.7 360.8 365.1 367.2 369 365.7 363.1 360.2 361.8 361.4 361.1 364.2 369.1 371.5 377.3 382.1 386.7 393.5 399.8 404 413.3 422.8 432.8 441.8 454.6 465.5 473.8 476.3 475.5 475.2 478.4 472.2 466.2 456 443.3 428.8 418.4 410.3 401.6 394.7 387.2 379.1 374 368.6
481.2 474.3 471.6 479.5 463.7 439.5 426.6 412.3 401 382.7 373.9 367.3 364.1 363.8 365.6 355.1 338 322.9 308.5 311.1 308 307.8 308.1 311.3 316.7 318.4 314.9 306 298.8 293.7 283.6 263.1 240.4 249.7 257.2 256.9 257.1 257.8 258.6 260.4 256.9 249.5 235.4 221 210.4 200.6 190.7 176.4 160.5 151.9 146 136.4 132.7 130.1 125.5 123.5 118.4 118.7 109 109.6 106.9 91 91 91 91 91 91 91 91 92.6 102.4 97.5 96.1 94.4 92.4 90.8 96.5 96.7 98.9 100.2 90.7 87.6 89.3 99.5 96.7 98.6 97.8 95.7 94.6 97.6 102.9 103.5 94.4 116.9 117.9 116.5 109.4 94.2 98.4 110.7 115.6 117.1 117.5 127.9 127.9 133.6 143.4 154.4 163.3 165.9 165.7 166.7 166.7 171.4 173.3 176.1 173.8 174.9 177.2 189.2 192.5 197.1 201.9 206.1 211.9 217.9 222 227.4 233.1 239.5 245.9 250.5 255.3 259.7 263.8 269.8 275.3 279.6 283 290.1 295.4 300.5 302.9 306.4 311.1 316.6 320.9 323.5 327.1 331.4 335.5 340.2 344 347 351.7 355.6 357.9 359.9 363.8 366.3 367.4 365.4 359.1 360.2 360.8 361.3 361.1 364.8 367.4 370.6 375.7 379.8 384.8 390.5 398.3 404.1 411.6 421.9 431.4 441.5 453.9 465.3 469.9 472 471.5 473.5 470.6 466.1 464.3 453.8 443.2 423.6 417.4 406.1 397.7 389 381.9 375.1 371.3 367.5
480.3 479.8 472.3 459.4 449.5 440.1 426.6 412.7 397.9 382.4 379.7 375.1 368.9 364.1 355.3 342.1 331.2 319.3 320.4 318.1 317.1 315.9 314.6 315.6 323.4 327.2 325.6 312.1 299.8 290.9 281.1 266.9 251 257.7 264 266 265.4 265.5 268.9 277 262.7 257.9 244 233.8 223.4 212.9 201.1 187.1 167.8 155.2 149.2 139.2 135.8 132.5 127.4 124.9 120.9 119.2 115.3 109.6 113.4 91 91 91 91 91 91 91 91 91 102.7 100.4 100.9 99.1 93.3 95.2 93.5 92.9 95.7 98.1 90.3 87 85.1 95.3 96.7 96.5 96.3 95.7 94.8 91.1 90.1 91.3 96.4 110.8 110.5 104.6 97.1 92.6 100.1 106.9 110.8 112.4 110.8 123.6 127.5 132.4 142.6 153 157.6 162.3 168.8 172.3 169.4 172.1 174.7 173 175.3 179.1 182.6 186.6 189.7 195.3 201 205 210.5 217.6 223.9 229.4 234 239.6 245.5 249.1 252.5 258 265 271 276.4 281.8 286.9 289.9 296 301.2 306 310 316.3 321.5 325.4 328.3 331 335.2 338.7 341.7 345.2 346.5 349.5 354.2 355.1 356.8 360.7 362.9 361.7 361.9 359.3 359.1 361.3 360.6 362.6 363.3 364.9 369.2 372.6 376.1 381.7 389.5 395 401.7 411.1 419 429.5 440.2 452.6 463.6 468.7 469.4 467.9 470.3 464.7 462.5 457.7 449.5 426.8 422.2 416.5 407.4 397.4 389.7 379.6 375.5 370.6 365.2
495.3 484.6 463.8 458.3 454.8 447.2 431 423.3 410.7 397.1 390.1 389.1 379.4 359.2 350.3 333.7 329.4 327.3 329.5 325.7 323.2 326.7 322.3 318.2 321.4 323.5 323.4 315.4 300.4 291.7 277.4 272.2 270 262.5 275.1 273.9 275.6 278 281.7 281.1 267.5 259 257.2 243.6 234.2 221.7 208.1 191.7 171.5 161.5 153.8 145 139.2 134 130.7 125.9 125.2 126 125.8 110 110.6 111.1 91 91 91 91 91 91 91 91 91 89.9 93.5 92 85.9 81.3 81.3 80.7 80.9 84.1 82.8 82.5 83.3 92.6 96.4 96.1 95.7 95.5 96.2 94.8 87 94.5 97.9 103 99.3 93.3 87.9 93.9 101.7 103.5 107 108.7 108 115.3 122.8 130.8 138.9 144.6 152.4 160.6 168.4 171.7 176 177.7 178.4 177.4 178.7 180.9 184 187.4 190.6 195.6 200.7 205.8 211.5 218.6 225.5 232.2 236.8 240.7 246.2 249.8 253.1 259.3 264.8 271.4 277.9 282 287.3 290.5 296.1 303.5 308.9 315.4 321.4 325.5 329.3 332.4 335.5 338.3 341.8 346.3 349.7 350.4 351.3 352.4 355.2 355.4 355.5 355.3 357.8 357.5 356.4 357.3 358.5 360.7 362.1 363.3 364.2 367.5 369.6 371.1 379.1 386.5 393.9 400 409.3 416.9 428.1 439.1 452 461.5 466.5 469.2 461.9 458.7 456.9 455.1 450.3 442.9 422 418.7 412.9 403.9 396.4 387.6 379.6 375.7 367.6 363.3
504.3 475.7 464.3 465 459.3 455.5 447.2 441.2 429.5 413 397.9 386.5 375.9 355.6 343 342.9 339.6 335.2 335.2 331 332.9 331.7 327.4 321.9 322.8 319.9 317.3 312.6 300.8 287 289.3 286.8 278.6 266 276.5 280.4 281.6 284.8 288.2 280.5 274.4 275.5 275.1 261.4 238.3 221.6 204.7 187.6 175.1 166.7 161 154.4 148.1 141.2 134.9 126.5 128.1 132.2 133.7 123.8 110.1 112 96.9 91 91 91 91 91 91 91 91 75.5 75.5 81.6 81.1 81 80.9 80.7 80.7 80.9 80.6 81.2 80.5 80.1 81 87.3 90.9 92.7 92.6 88.1 85.7 84.7 88.9 92.8 88.7 83.7 89.1 96.8 101.5 103.3 103.6 105.9 107.4 111.9 121 129.4 126.9 133.9 151.8 160.2 164.5 168.3 173.9 179 180.2 180.9 182 184.4 187.6 191.6 195.4 199.2 203 208.3 214.1 219.6 226.7 233 238.9 243.4 248.3 252.5 256.5 260.7 266.8 271.5 277.8 283 287.7 292 297.2 304.5 312.2 318.9 324.6 329.8 334.8 339.1 341.7 344.6 347.9 351.9 355.2 356.1 354.1 352.6 355 354 352.7 352.5 353.2 354 354.7 355.6 356.9 359.7 361.8 362.5 364.1 366.5 366.9 370.9 377.4 384 390.9 398.3 407.3 415.7 426.8 437.6 448.9 459.2 463.9 462.6 454.1 451.7 449.8 447.9 442.6 423.8 418.9 415.8 405.4 399.8 392.7 383.9 379.6 373.6 366.2 362.4
488.8 476.4 469.3 470.2 470 464 462.1 450.1 439.7 415.1 395.3 378.4 367.4 361.6 357.8 354.6 350.9 345.9 342.4 338.6 335.6 333.8 331 325 319.6 319.6 312.6 305.6 299.2 295.1 300.3 299.3 283.3 275.5 277.4 281.5 283.2 286.7 284.4 283.9 282.7 291.6 288.4 254.5 237.7 223 205.1 192.9 180.2 175.2 168.4 161.9 155.6 147.1 140.4 134 134.8 137.1 135.5 132 118 110.2 111.2 91 91 91 91 91 91 91 85 75.5 75.5 75.4 74.9 77.2 76.6 74.5 78.6 79.3 78.9 79.9 80.4 80 79.6 79.1 79.5 78.8 79.9 87.5 83.8 83.7 85.1 86 80.7 91.6 88.8 100.2 101.7 102.1 103 103.2 105.6 110.7 117.6 126 117.3 136.7 151.2 154.1 158.3 164.6 171 175.3 177.9 179 181.8 186.6 190.3 193.3 201.3 205 207.9 211.7 215.9 220.9 226.4 232.1 238.8 245.3 250.8 255.9 257.7 261.9 268.2 272.5 277 283.5 288.6 293.5 298.9 306.5 314.3 323.3 331.2 337.9 341.7 345.7 349 351.9 355 357 357.9 358 354.7 355.7 358.3 359.2 355.8 352.5 350.2 351.9 351.4 352.2 355.3 358 361.1 362.3 364 365.3 362.5 367.5 373.9 380.8 388.1 396.7 406.6 415.4 426 436.1 449.5 457.3 459.4 456.9 448.9 445.5 444.9 441.4 433.3 419.2 416.2 407.2 400.5 393.6 386.6 382.7 378.5 371 366.4 361.9
487.7 485.1 476.5 473.9 475.5 466.5 460.3 447.3 433.9 408.1 390.4 385.9 374.3 375.8 373.3 368.1 363.6 359.7 352.6 339.8 336.7 332.8 333.6 326.6 318.7 315.7 312.2 308.9 298.5 301.6 300.4 296.5 294.3 286 287.6 289.3 287 285.7 287.9 286.9 287.2 286.6 271.2 253.3 234.2 219 208.4 200.2 190.6 185.1 178.8 172.4 161.8 155.5 147.7 142 141.7 142.5 139.3 133.9 128.5 114.2 110.3 104.3 100.1 100.5 105 106.8 107.5 106.5 104 98.4 86.9 82.2 76 77.1 78.2 75 74.5 74.5 74.7 78.5 79.8 79.8 79.9 79.8 79.6 78.8 78.6 78.9 81.7 81.7 81.7 81.9 82.8 85.1 94.1 99.4 101.2 100.2 100.2 101.2 100.7 101.6 105 111.1 120.1 139.1 149.3 151 156.1 162.2 167 171.3 174 176 178.7 183.2 187.6 194.6 203.7 208.7 214.6 218.6 221.5 224.2 227.5 233 237.3 244.9 251.7 256.6 258.4 263.2 269.2 273 277.5 282.6 287.8 294.5 300.8 308.2 318.3 330 339.5 347.3 349.9 352.3 355 357.2 359 358.5 359.4 358.5 355.3 360.2 362.6 363.2 355.1 352.2 350.5 350.6 349.6 351.2 352.2 356 358.1 361.3 363.9 360 359 365.8 372.1 378.7 387.1 395.7 405.3 413.7 424 435.6 446.2 454.5 454.5 452.7 442.9 437.8 437.6 432.1 422 416.8 411.4 402.9 396.8 389.9 383.9 381.5 375.4 367.9 360.7 358.1
486.5 481.9 472.3 478.1 472.3 461.8 445.2 429.6 416.5 405.4 398.3 392.4 391.4 391.9 386.2 381.9 378.4 368.1 361.1 346.5 343.7 337.1 329.7 327.1 321.8 320.4 317 307 302.7 303.9 305 295.7 292.2 294.3 299 297.2 291.2 289.4 291.6 291.3 287.1 273.6 261.5 251.8 235.3 228 226.2 214.4 203.3 196.6 187.6 181.6 173.1 168 161.1 158.8 154 146.8 143.1 139 137.8 122.6 113 109.7 108.1 105.9 108.4 106.6 107.1 107.5 107.4 107 102.3 88.3 90.5 83.1 83.2 82.9 80.5 79.6 74.6 74.6 74.6 78.6 78.9 79.7 79.8 79.4 78.8 78.9 79.4 78.9 77.7 80.4 81.3 83.5 97.5 102.6 96.6 96.3 94.8 93.1 94.5 100.3 109.2 119.2 133.4 142.6 145 149.5 154.4 159.6 163.6 166.8 170.2 172.1 174.5 179.7 185.3 191.8 200.1 206.9 213.4 219.3 223.9 227.5 231.1 234.6 238.5 244.3 249.9 254.9 256.8 263.4 263.5 273.3 278 282.6 288.9 296.6 302.4 311 323 335.6 347.4 354.4 357.6 359.7 361.1 361.6 358.3 358.6 358.5 357.6 356.7 360.6 362.7 357.1 353.3 352.6 352.7 352.5 349.4 349.3 350.7 353.2 356.3 359.2 356.4 353.3 358.6 364.7 370.6 376.5 384.7 393.6 403.3 412.7 422.2 435.7 442.5 450 450.8 447.5 435.8 434.2 431.7 424.7 420.1 417 407.6 401.6 395.6 388.2 381.4 376.7 372 366.2 362.1 355.7
480.5 473 464.7 470.5 462.2 450.6 438.2 429.1 423 421.6 414 402 402 401.2 400.3 395.6 386 384.3 370.6 356.7 351.2 338.6 333.5 330.3 325.3 326 318.3 314.5 308.2 312 307.3 304.5 302.8 298.5 303.2 296.8 292.1 296.2 296.3 290.6 281.2 277.8 270.5 257.7 251.5 239.9 235.6 228.1 219 208 199.9 191.8 185.6 180 174.2 171.5 165.1 155.5 148.7 143.5 137.3 131.6 122.4 115.8 110.4 108.8 108.6 107.3 107.1 106.1 103.3 102.1 102.5 105.2 104.3 96.4 87.1 87.3 87.5 86.8 81.1 78.9 76.3 74.6 74.6 74.6 78.3 78.6 78.8 81.8 78.4 79.5 78.8 80.1 80.5 87.7 95.4 88.3 83.1 90.4 87.5 91.2 94.3 105.3 116.9 126.5 133.4 139.2 140.7 147.2 153.8 156.9 159.3 163.2 166.4 168 170.8 176 182.3 189.1 197 204.7 211.2 217.1 222.4 227.7 233.2 237.5 241.2 244.3 248.3 252.9 254.6 261.5 263.5 271.1 277 284.5 289.2 296.5 305 314.1 326.3 339.1 351.7 355.6 360.4 361.9 364.9 364.5 358.5 354.8 355.8 355.8 359.2 363.8 357.9 355.4 356.9 356.5 354.3 353.3 349.4 347.5 347.7 350.1 354.2 355.7 351.9 350.4 356.7 362.6 368 373.8 383 392.7 401.7 411.1 420.4 432.2 438 445.2 447.7 444.4 432.9 428.9 427.8 424.8 420.5 415.2 406.2 402.5 396.3 388.7 381.4 372 368.2 363.7 358.3 356.2
479.6 462.5 451.8 453.9 453.5 448.9 447.9 441.3 433.4 421.4 417.1 414.7 411.5 409.3 406.9 403.3 394.5 385.5 372.4 367 357 349.2 342.3 340.4 330.4 330.9 326.9 320.7 318.3 315.9 311.7 315 308.7 303.2 299.3 298.8 303.8 302.6 296.6 294.4 294.4 295.4 291 279.3 269.9 262.5 256.2 249 237.9 225.7 215.1 205.1 194.7 189 184.4 179.2 171.1 163.2 157.8 147.8 144.3 138.4 132 124.4 120.1 117.2 110.5 108.2 108.1 107.5 106.9 107.3 106.1 107.5 106.2 105.9 97.2 93.5 90.5 88.7 86.9 85.3 78.8 79.3 78.6 74.6 74.6 74.6 74.6 78.3 76.9 77.4 78.1 78.6 79.6 80 80.9 81.2 81.9 83 80.6 89 93.6 108.6 118.5 124.5 130.3 134.9 139.1 140.4 146.8 152.4 157 160.1 161.8 165 168.8 171.5 177.3 185.2 193.6 202 209.2 215.5 222.3 228 234.3 239.4 243.3 247.2 249.5 251.8 254.7 258.8 265.4 270.8 277.4 283.9 288.9 295 304.6 313.6 326.5 341.2 350.4 354.4 359.8 364.4 366.3 363.5 353.4 352 354.2 356.7 358.6 358.6 359 359.9 359.6 358.1 356.1 353.3 348.8 347.5 345.7 346.9 351.3 354.2 349.6 347.5 353 358.2 365.2 372.2 380.5 389.8 399.2 407.8 416.7 427.9 435.1 441.2 442.3 438.1 431.7 426.5 426.1 428.1 423.3 414.1 405.9 404.8 399.2 390.3 380.5 374.7 367.8 361.3 357.8 355.8
465.5 451 449.7 448.7 451.5 458.7 452 443.5 434.6 423.6 419.7 419.9 417.9 412.6 406.8 403.5 396.9 384.6 380.8 371 363.8 360.9 354.7 348 338.2 339.8 332.4 332.5 324.4 322.3 322.1 321.2 315.3 305 304.5 307.2 308.1 303.4 304.4 305 309.1 310.3 308.6 298.4 289.7 280.4 274.4 266.6 255.1 241.9 229.7 211.4 197.9 193.9 190.4 182.1 175.6 167.3 161 152.4 147.2 142.8 132.6 135.8 129.2 131.1 122.1 119.3 115.6 112.8 111.5 110.2 107.2 106.4 106.6 106.3 106.3 105.6 105.4 105.1 103.3 97.4 92.8 82 78.7 79.4 79.6 79 74.6 74.6 74.5 74.5 76.5 77.3 77.8 78.7 78.9 78.4 78.7 79.7 80 88.1 95.2 108 117.8 123 127 130.9 133.8 136.4 142.9 150 154 154.6 160.5 165.1 166 168.3 173.2 180.9 190.9 199.1 205.6 213.4 221.4 227.1 231.7 238.3 242.8 247.5 251.7 255.1 257.6 260.4 265.4 270.9 277.1 281.5 285.9 292.8 302.2 311.5 324.2 340.1 347.6 351.8 359.4 365.4 364.6 361.9 349.8 349.2 352.6 357.3 359 361 362.6 364.1 362.8 360.8 357.6 350.3 348.6 346.9 344.9 345.8 350 350.8 347.1 343.6 348.5 354.4 360.9 366.2 376.2 387.2 396.1 405.5 414.9 424.6 432.6 436.9 437.2 432.5 426.6 425.4 425.4 425.9 418.8 408.9 410 410.2 400.2 387.6 382.3 377 371.4 360.4 356.1 354
455.2 451.4 450.8 450.5 446.2 450.5 451.6 438.2 436.6 435.6 422.8 423.2 422.6 420.9 409.8 405.5 401 391.4 385.1 376.7 369.8 368.2 363 351.2 347.5 345.6 342 332.3 330.1 330.2 329.8 325.6 317.1 313.1 314.2 316.5 309.6 310.6 314.9 314.2 319.2 324.8 326.7 318.3 305.9 298.5 290.8 283.3 270.4 252.1 235.1 215.2 199.8 194.9 191.2 183.7 173.5 166 161 157.7 152.3 145.4 141.5 142.3 138.1 140.8 135.5 134.3 129.1 127.3 125.5 123.1 119.8 112.5 108.7 106.1 105 104.3 104.9 104.5 104 104.4 98.8 94.4 80.4 78.5 79.4 79.6 82.3 79.1 79.7 74.5 74.5 74.4 74.4 74.3 76.3 77.5 78.6 77.2 77.3 78.7 88.9 105.4 116.4 121.6 124.4 126.6 129.1 133.3 136.7 142.3 146.7 149.8 159.1 161.5 163.3 166 170.7 177.4 186.9 194.7 202 210.3 218.6 223.9 229.1 235.3 240.9 246.4 251.8 255.6 258.4 260.6 265.7 270.7 276.4 281.4 285.7 290.6 298.4 306.7 316.4 330.7 341.6 348.1 358.2 364.8 365 360.9 346.7 346.7 351.3 357.1 361.3 363.9 366.6 368.8 366.9 362.2 356.9 350.5 348.8 348.1 345.3 344.4 347.2 346.9 343.4 342.1 346.6 352.1 360.2 367.2 376.3 386.7 394.8 402.7 413.6 423.9 432.1 433.9 430.4 425.2 425.4 424.6 424.4 423.7 417.4 409 411.2 407.3 398.5 387 382.5 377.4 370.2 359.3 356 352.6
456 452.4 452.7 449.3 444.3 442.6 441.1 440.7 439.9 436.5 423.8 420.5 425.4 418.1 411.5 410.6 405.5 397.5 392.9 390.5 378.4 372.8 365.5 358.3 354.1 351.8 349.5 339.8 340.3 338.6 336.1 326.1 322.1 325.2 326.2 323.9 316.8 321.3 322.5 324.2 333.3 335.4 335.4 322.7 318.4 312.1 305.3 297.7 284 262.5 235.2 212.2 197.8 192.2 185.2 177.9 166.7 160.7 157.3 156.9 152.1 145.5 145.3 144.5 142.6 143 143.5 140.7 139.1 139.4 137.4 131.6 125.9 121.1 118.1 113.9 109.4 108.5 103.3 103.7 104 105.4 98.4 95.9 92.6 81.4 78.6 79.6 79.2 78.4 78.7 78.4 77.8 77.5 74.4 74.2 74 73.7 73.5 72.6 77 77.5 78.3 101.5 113.6 120.5 122.7 122.9 123.6 127.3 133.4 138.5 144.8 153.4 156.6 159.4 159.5 162.2 168.1 174.6 182.1 190.6 198.5 206.5 211.1 217.6 225.8 232.8 239.2 244.5 249.5 251.4 253.8 264.6 270.5 274.4 278 282.1 285.9 289.8 296.4 303.4 312.6 323.4 335.3 345.6 354.4 363.9 364 350 344.7 346.7 351.5 357 361.8 364.7 367.5 370.9 368.6 362.8 357.1 356.7 354.1 348.9 342.7 342.2 342.7 343.5 340.4 341.3 347.2 351 356.9 366.3 376.4 386.7 394.9 403 414 424.5 431.8 431.6 425.9 422.3 423.8 426.7 427.3 422.7 414 408.5 411.1 405.1 392.8 386.2 381.8 374.2 366.3 360.7 356.4 352.6
457 455.2 455.2 451 447.6 445.3 442.9 440 436.4 431.4 423.3 416.2 421.1 426.9 422.8 424.4 413.2 416.4 406.6 395.1 383.4 377.3 374.4 365.6 358.5 356.8 352.2 344.7 345.6 346.3 340 331.4 333.9 334.8 333.4 325.6 325.9 328 328.1 327.9 333.8 339.4 338.7 330.9 329 325.9 319.7 310.4 294.2 267.9 236 219.5 212.3 199.6 191.2 179.9 173.8 166.2 162.4 156 151.7 149.8 148.9 145.9 144.8 143.4 142.1 142.7 143 140.5 139.1 137.9 130.6 127.2 126.4 118.4 111.8 111.7 110.7 108 102.5 103.1 103 99.5 96.8 92 86.2 79.3 79.1 79 78.8 78.2 77.8 77.4 77.2 77.3 77.2 76.9 76.5 72.6 72.5 72.5 77.2 85.3 110.2 117.8 121.7 122.3 121.1 122.9 129.2 137.7 145.5 149.4 151.3 155.7 156.7 160.5 165.4 171.6 179.6 186.2 193.5 201 202.5 215.7 223.2 230.5 236.8 241.6 244.4 248.1 258.7 264.3 269.9 274.6 279.1 283.3 286.7 289.9 294.8 301.2 308.2 319.2 330.1 338.2 349.1 351.5 349.1 342.3 343.1 347.2 351.9 357 360.1 364.1 368.5 370.3 368.4 361.7 360 360.7 354.2 347.5 341.4 339.4 339.8 339.2 337.5 340.3 344.9 349.6 354.7 363.3 374.7 385.4 391.5 400.9 410.9 420.7 427.4 427 419.9 419.5 428.1 430.4 426.3 416.7 410 407.7 405.6 395.4 390.2 382.3 377.4 371.2 364.9 360.3 357.3 353.8
458.3 457.6 464.3 461 455.9 449 446.5 439.4 433.5 427.6 422.2 412.2 407.4 409.6 411.4 417.4 430.9 428.7 419.9 402.2 390.1 382.9 382.4 370.8 366.9 365.4 358.6 353.7 354.2 353.5 339.2 338.3 342 343.3 336.3 335 338 337.4 338.4 333.4 339.6 344 343.6 340.5 338 336.6 322.8 319.8 296.5 267.6 241 233.1 223.1 212.5 203 192.2 183 172.3 169.6 163 157.8 155.7 152.5 148.6 146.6 144.1 144.9 147.4 147.8 145.2 143.3 142.7 141.1 133.1 127.8 121 119.6 117.7 117.4 115.5 107.5 101.7 102.2 101.3 99.1 96.7 92.8 81.8 78.5 78.6 78.4 77.6 77.3 77.3 77 77.1 77.2 77.2 76.8 76.4 76.9 72.5 72.5 80.7 103.2 114.2 118.7 119 117.6 118.1 124.5 132.3 141.1 144.9 144.4 149.3 156 159.4 163.4 168.2 176.3 182.7 189.3 193.7 202.4 211.5 217.8 226.1 231.1 233.7 243.2 251.5 257.9 262.4 266.9 272.2 277.4 283 286.8 289.7 293 298.7 304.6 311.5 320.4 326.4 336.2 339.7 336.5 335 340.6 347 351.9 356.2 359.4 362.8 367.3 367.8 365.2 359.8 360.6 360.7 352.3 342.7 340.1 338.6 339.6 337.3 335.3 337 341.2 347.4 352.5 359 367.2 377 385.2 395.2 405.7 414.6 419.8 419.1 415.3 417.6 429.3 428.1 422 412 410.2 406.1 399.7 393.1 384.8 378.6 373.6 368.5 362.7 359.9 355.3 353.1
459.9 459.5 470.9 470.6 461.5 449.5 443.2 435.1 429.3 425.6 418.5 410.4 402.9 396.4 400.7 421.1 427 433.9 423.6 412.7 401.9 388.8 383.1 379.5 377.2 370.2 364.1 361.4 359.6 354.5 342.8 343.1 345.9 345.7 343.8 346.6 343.1 341.2 342.8 340.7 342.2 345 343.3 340.5 341.9 340.1 324.9 309.4 292.4 267.6 244.2 241.4 233.8 223.1 214 203.2 192.8 184.7 173.8 165 162.1 160.9 157.5 151.7 149.5 147.6 150.6 152.5 153.5 152.3 150.2 147.5 143.6 137.6 131.7 128.1 126.7 122.4 119.3 114.5 109.8 107.8 101.4 101.2 99.6 96.7 93.1 81.7 79 79 79 77.6 77.4 77.2 76.9 76.7 76.8 76.7 76.6 76.7 76.8 76.2 72.5 72.5 87.6 108.6 114.1 115.6 112.6 115.5 120.3 127.2 134.3 137.8 139.5 144.4 153.6 153.9 159 164.7 172.3 178.7 184.9 191.2 199.1 207.2 215.1 215.7 224.9 235.6 238.4 248.1 255.4 260.4 264.9 269.2 274.7 280.5 285.2 288.4 291.6 295.7 302 307.8 315.7 322.7 330.1 329.1 328.7 335.8 340.6 344 350 353.7 357.1 359.9 360.8 361.5 360.2 356 357.1 357 347.3 340.6 338.5 339 338.9 336.7 333.8 335.3 338.1 343 347.8 353.7 362.1 372.4 381.5 391.3 401.1 408.2 412.5 413.1 410.7 417.5 426.4 422.9 415.5 410.6 405.9 401.8 395.8 389.8 381 375.9 371.5 365.7 360.6 357.6 353.6 350.9
460.9 460.3 462.4 468.2 461.5 445.4 437.7 433.8 427.9 422.4 415.4 411.3 403.3 388.1 393.1 407.6 429.8 434.7 434.3 421.8 410.2 396.3 388.9 381.3 378.3 376 369.7 368.4 360.4 350.7 349 348.2 348.9 349.9 351.5 352.1 348 349 346 345.8 349.3 346.9 340.4 342.6 349.4 338.6 317.6 302.7 286.1 264.1 249 244.5 237.7 231.9 222.4 212.1 200.3 190.8 176 175.6 165.9 161.6 159.3 153.8 152.2 153.1 155.6 157.5 159.3 157.4 154.2 150.9 143.9 139.4 135.9 132.1 129 128.1 121.9 116.1 113.9 112 109.2 100.1 99.4 96.9 93.5 89.7 79.9 80.3 79 77.8 77.3 77 76.8 76.5 76.4 76.3 76.3 76.4 76.5 76.5 75.9 72.5 79.9 103.2 108.1 110.2 110.3 112.8 117.7 123.8 129.3 131.6 133.7 135.4 142.6 147.9 154 160.5 168.4 173.5 179.8 190.1 196.1 202.5 205.6 217.7 224.6 233.1 239.8 245.6 252.3 257.7 262.3 267.5 271.8 276.6 281.9 286.1 288.9 292.6 298.4 305 312.2 318.9 323.3 325.1 329.5 338.4 339.8 342.8 347.4 351.7 352.9 352.5 354 356.2 353 350.7 351.6 349.1 341.3 337.9 337.4 336.7 337.1 336.5 331.8 332.7 336.3 340.7 344.8 351.4 360.3 368.6 377.2 387.7 394.8 402.7 404.8 404.7 406.9 414 416.3 413.2 409.1 407.7 402.5 397 391.8 386.8 380 376.3 369.3 364.6 358.7 356 352.7 349.4
464.3 459.3 464.2 466 458.4 445.1 441.8 442.9 435 422.5 415.9 410.4 399.4 387.4 385 390.2 410.9 425.2 441.8 429.1 413.3 402.6 390.3 388.1 384.7 379.8 371.9 370.8 357.6 356.1 361.7 354.5 354.3 355.3 360.5 359.6 353.4 350.1 350.8 349.5 350 347.2 348.6 337.2 342.4 342 316.2 296.2 282.2 265.4 254.2 247.4 241.4 234.6 225.3 213.7 206.2 193.3 187.6 181.3 173.2 165.7 161.5 155.7 156.8 159.7 161.5 162.7 162.6 159.7 157.1 154.3 146.8 141.1 137.8 135.5 129.7 128.9 124.3 120.4 117.7 117 115.8 109.6 99.3 96.3 93.3 91.3 81.8 80.5 79.1 78.1 77.4 76.7 76.3 76.2 76.1 76 75.9 76.1 76.2 76.3 75.9 72.5 72.5 91.6 102.5 107.1 111.2 112.8 116.1 120 124.4 126.6 129.5 130.8 137.7 141.7 147.5 155.2 163 168.7 178.5 185.6 191.4 195.9 205.3 210 216.2 229.1 235.6 241.8 247.9 254.2 259.2 264.4 269.4 274.8 278.8 282.7 285.8 289.7 295.9 301.7 307.5 315.9 322.5 327.8 331.5 337.2 336.7 341.7 347.1 349.2 349.5 347.1 351.4 351.2 346.9 343.8 344.3 343.2 336.9 334.4 334.7 336.5 337 336.5 332.2 330.6 335 339.6 341.9 347.3 354.7 363.3 373.4 382.9 392 400 404.6 401.1 402.8 406.2 404.1 400.3 398.8 395.5 394.8 391.7 388.4 383.5 379.7 374 368.5 365.3 361.1 355.1 351.9 347.6
466.4 457.2 459 458.8 462.3 459 457.2 455.9 443.2 427 413.7 403.8 397.8 388.3 379.5 384.5 391.4 410.3 424.5 433.8 417.5 403.5 396.5 393.1 391.8 385.1 368.2 366.7 362.8 371.3 371.5 363 366.3 369.7 367.5 365.7 359.9 355.8 353.9 354.1 355.2 354.6 359.2 353.3 334 329.4 314.6 299.6 284.2 269.9 255.9 246.8 241.9 234.4 223.9 213 212.9 206.2 202.3 191.5 179 172 166.9 158.9 158.2 164.1 166.2 164.8 164.2 162.8 160.2 154.4 148.2 144.6 145.1 140.6 133.9 131.7 128.6 126.9 125.1 123.1 121.2 114.5 108 98.5 92.2 90.2 83.7 81.3 79.7 78.8 78 77.2 76.5 75.9 75.8 75.7 75.6 75.8 76 76.1 76.1 72.9 72.5 83.3 95.7 103.3 109.8 114.6 115.8 116.3 120.3 121.8 125 129.1 134.3 137.8 141.7 147.4 156.2 164.5 172.7 177.7 184.8 192.5 199.1 206.2 216.1 223 230.2 237 243.8 249.8 255.3 260.6 265.7 271.7 276.4 279.9 282.7 285.8 291.5 299.4 307.3 316.5 324 329.7 332.3 332.4 331.1 338.2 343.3 343.4 341.2 340.7 344.6 342.5 339.1 338.7 339.4 337.7 334.4 332.1 332.8 333 334 334 328.5 325.2 331.4 336.4 340.7 343.9 351.2 360.2 370.6 380.7 390.1 397.8 402.8 399.4 393.4 397.8 394.8 393.8 394.3 395 396.5 392.7 389.7 383.5 379.4 374.3 368.9 364.9 360.9 354.8 351.9 347.5
467.9 455.2 455.5 464.3 472.9 463.4 451.7 462 445.2 426.7 415.2 401.8 389.7 381.5 368.1 372.6 379.2 394 403.8 415 424.7 411.4 399.7 385.1 382.8 369.8 363.5 363.8 371.9 380 368.2 368.6 377.2 376.9 376.7 371.7 367 364.3 360.7 359.4 360.1 363.7 364.5 360.6 352.4 324.5 311 299.1 285.4 274.5 265.8 253.5 240.9 233.7 224.7 219.7 215.7 213.2 205.3 197.9 187 182 178.7 169.9 165.4 167.2 165.8 167.4 168.3 166.2 160.9 154.9 150.8 150.2 147.7 141.3 137.8 135.3 132.5 133.2 129.3 125 121.4 114.2 108 103.2 96.4 88.6 84.5 81.9 79.4 78.6 77.9 77.2 76.6 75.7 75.6 75.5 75.5 75.7 75.9 75.7 75.7 75.8 72.5 76.6 94.3 101.2 109.1 111.9 112.4 113.8 115 121.5 124 125.1 129.5 133.9 136.3 142.4 148.8 158 163.2 171.1 179.9 186.5 193.2 200.4 209.6 217.7 224.4 232 239 245.4 251.2 256.6 261.3 267.5 274.2 279.7 279.8 283.4 288.5 294.4 304.8 314.3 322.2 329.1 330.5 327.3 326.4 334.4 338.2 337.2 330.7 334.1 338 337 334.7 334.3 336.6 333.6 328.4 327.7 329.9 330 328.7 326.2 320.6 319.7 326.4 330.8 335.5 341.7 348.6 357.5 368.8 379.1 388.6 396.7 398.2 386.8 389.3 391.2 391.7 392.4 393.5 394.2 396.2 393.7 390.7 385.7 382.8 378.1 371.1 362.9 358.2 354.2 352.1 349.2
466.7 449.5 461.1 469.8 467.5 458.6 444.7 442.6 443.7 422.2 407.8 394.1 382.3 373.2 362.7 365.9 369.2 380 386.8 395.3 403.6 398.4 388.2 373.8 362.6 361.8 361.4 365.8 382.9 377 370.1 373.8 383.2 382.9 384.7 377.5 374.1 369.9 367.1 368.5 369.1 365.9 365.5 364.4 365.2 336.2 312.7 300.3 288.7 281 272.6 262.8 252.7 241.4 232.8 229.1 222.8 217.9 215.4 207.8 203.1 196.5 188.6 180.8 174.8 169.9 170.6 172.4 172.9 169.8 162.9 157.2 154.9 155 151.7 145.3 142.9 140.5 136.4 133.6 128.4 124.6 114.3 110.7 106.9 103.6 94.9 94 89.9 83.3 80.2 78.2 77.4 76.9 76.4 75.9 75.5 75.4 75.4 75.6 75.7 75.3 75.7 75.6 72.5 72.5 82.5 97 106.8 109.4 110.7 112.1 114.5 119.1 121.2 118.6 123.2 126.9 130.2 138.4 144.2 150.2 158.5 165.4 173.3 180.1 187.5 194.6 202.8 211.7 218.2 225 232.8 240.1 246.8 252.3 256.8 261.5 267.7 273.3 277.1 280.5 285.8 289.7 299.3 311.8 319.9 325.5 325.1 318.5 323 330.6 333.1 328.1 325.5 327.2 330.2 332.5 332.3 332.1 334.5 331.3 325.4 327.5 326.6 324.5 321 319.4 319.8 317.6 320.4 326.2 332.6 339 348.3 359 368.1 377.8 387.1 392.8 388.6 384.8 386.6 390.9 395.4 393.9 391.2 391.7 394.8 395.7 395.2 390.7 388.1 382.6 376.2 368.6 358.9 355.3 352.6 350.6
443.1 437.3 452.1 471.3 467.2 453.1 438.2 424.9 416.5 414.1 400.3 387.8 376.9 366.9 359.5 356.4 360.1 366.5 379.9 386.1 384.5 379.4 372.6 362.6 361.2 360.9 360.2 362.1 369.6 368.8 370.5 379.6 382.9 386.1 382.4 381.5 380.3 376.5 374.1 373.5 380.5 379.4 374 366.6 352.8 335 324 312.3 300.3 291 281.3 272.7 264 253 244.1 239.1 235.6 231.3 226.8 222.1 212.7 204.3 195.4 186 180.5 178.5 175.7 175.1 173.4 170.4 167 163.4 159.6 157.7 154.2 150.4 146.3 141.4 135.8 131.4 125.9 119.2 116.1 111.4 107.3 95.7 101.3 101.9 94.4 90.2 79.5 77.7 77.2 76.6 76.2 75.8 75.3 75.3 75.3 75.5 75.1 75.2 75.3 75.2 72.4 72.4 81.4 95 104.3 110.3 111.7 111.4 113 116.1 115.7 116.8 122.2 125.3 128.8 133.8 138.8 144.5 151.8 159 166 172.1 180.5 189.3 196.5 204.6 211.3 218.1 225.6 233.7 243 248.3 253.1 258.7 262.9 267.3 273.2 277.8 284.9 287.7 293.7 304.5 313.7 315.8 316.8 315.8 318.7 322.3 323.5 325.2 324.8 324.9 328.9 331.5 331.8 331.2 329.7 327 322.6 321.6 319.8 316.7 316.8 317.2 318.2 317.1 317 323.5 329.8 337.7 349.2 359.8 368.4 376.2 386 383.5 380.2 384.6 388.5 393.3 397.4 397.4 391.7 389.8 393.7 396.1 393.7 390.5 387.4 382.3 375 369.7 362.7 358.2 355.9 350.6
427.2 426.7 443.9 454.6 454.7 445.4 429.4 417.2 406 396.7 391.5 381.7 372.5 366.7 364.1 354.7 359.6 368.1 372.7 374.4 369.2 362.9 361.6 360.8 361.5 361 356.5 359 362.3 366.9 371.4 383.5 386.6 390 386.2 382.7 381 378.9 380.2 382.9 384.4 388.1 381.3 365.2 346.8 344.3 335.8 323.7 315.7 301.7 288.8 280.5 272 264.1 255.5 251.8 248.5 243.3 237.3 232.8 226.9 217.6 210.2 197.2 190.8 184.9 179.1 176.7 175.1 173 168.6 165.7 165.5 164.6 159.7 152 144.9 141.6 136.7 132.9 127.7 123.8 118.1 113.1 102.2 107.7 111.3 105.9 101.8 93.5 90.2 80.7 77 76.4 76.1 75.6 75.2 75.2 75.2 75.2 75.1 75 75.3 72.3 72.3 75.5 76.7 85.9 101.3 107.1 110.1 110.3 113 113.2 112.4 117.9 120.9 124.6 127.3 129.7 133.8 139.8 144.6 151.9 159.6 164.4 175.5 184.2 190.6 198.4 204 210.9 218.4 228 236.4 242.8 247.7 252.3 258.4 264.2 269.3 274.1 280.1 286.4 290.8 296.3 305.3 310.6 311.3 314.8 318.1 322.4 326.6 328.1 325.5 323.2 327 330.3 330.9 329.5 324.5 322.3 318.8 317.4 316.5 313.2 312.8 313.1 314.9 315.1 317.5 324.1 331.8 339.3 349.1 359.2 367.1 375.4 377.6 376.9 382 385.9 390.7 393.1 393.3 394.6 394.2 389.2 392.1 390.3 388.4 385.4 382.8 377.7 373.2 367.1 362.5 358.2 358.4 352.9
412.4 415.7 433.1 445.4 445.7 436 423.4 409.4 399.5 388.5 378.9 372.7 369 366.1 362.6 350 356.4 358.9 362.9 362.1 359.3 357.6 359.7 361 360.2 352.9 358.2 360.5 365.5 367.4 374.7 377.3 386 388.6 383.1 388.5 384.2 380.7 383.2 386.7 390.1 390.7 383.8 360.2 353.4 356.1 344.9 338.2 326.5 311.3 299.8 290.6 282 273.5 267.7 263.5 259.8 255.4 252.5 247.5 240.5 230.7 220.2 207.4 199.4 193.7 186.9 182.9 178.2 177.1 172.8 169.4 169.7 169.7 158.9 151.7 148.8 147.4 141.7 135.8 131.1 124.9 115.1 114.7 118.6 118.2 114.4 109.5 104.1 100.7 91.1 83.7 87.5 84.7 75.9 75.4 75.1 75 74.8 74.8 74.8 74.9 75.3 72.2 72.2 76.4 74.8 76.4 92.4 102.3 102.2 108 109.1 109.3 108.2 112.3 116.1 120.9 124.7 124.4 129.5 135.7 140.7 146.4 154.6 162.3 169.5 179.1 186.1 191 197.9 203.7 212.2 221.3 227.5 234.1 239.8 245.8 253.6 258.4 264.2 269.1 277 283.5 287.1 292.3 299.1 307.6 307.4 313.3 317.1 323.7 327.8 329.4 325.3 322.2 322.7 326.1 328.5 326.5 318.3 317.3 316.5 313.6 310.1 308.6 309.4 309.8 310.6 315.8 321 327.6 333.1 340.5 348.7 357.3 364.9 373 372.1 379 385.4 389.1 391.5 392.4 393.3 392.7 390.8 387.9 384.5 381.7 381.6 379.3 378.2 372.3 367.6 364.1 358.7 356.9 358.2 353.7
398.4 400.2 423.8 436.4 438.2 430.5 415.7 403.6 391 379.1 368.8 364.2 359.3 353 351.5 348.7 350.5 353.8 354.5 353.8 355 358.9 360.7 358.6 351.1 350 356.5 362.7 363.2 370.6 375.4 379.5 381.1 382.6 384.4 382 377 377.5 377.6 393.1 396.7 385.4 370 365 362 357.8 359.7 353.1 337.2 326.4 311.6 300.6 295.3 287.9 281.9 276.7 271.7 267.5 264.5 259.2 252.8 243.9 232.7 222.3 211.6 204.7 198.1 192.2 184.3 178.8 173.6 172.3 174.4 166.9 159.9 154.8 152.6 148.5 139.9 134.5 129.3 127.5 122.7 121.1 124.2 122.6 115.9 110 104.4 101.7 100.1 88.2 79.5 77.9 78.3 83.2 82.1 75 75.3 74.8 74.7 74.9 73.7 72.1 72.1 76.8 74.5 77.2 77.2 94.6 97.6 105.9 103.2 103.5 103.7 108.8 114.4 118.4 119.7 119.3 124.6 132.5 137.4 143 149.8 156.7 164.2 171.5 180.1 186.4 193.1 198.3 205.5 215 220.8 226.8 232.7 239.6 247.5 253.1 257.6 264 270.1 276.6 284.9 288.8 294.4 300.6 305.8 313 318.8 326.3 328.4 328.2 322 319.8 320.7 322.7 324.8 323.3 316.9 316.2 315.8 311.5 308.9 306.9 306.6 306 309.6 316.2 322.9 328.4 333.3 340.2 347.3 356.6 362.7 365.5 373.2 381.4 388.7 391.2 392.1 397.7 397.4 393.1 389.1 383.2 378 378.3 378.2 375.7 370.3 365.6 363.1 360.7 358.1 353.1 355.2 353.4
391.3 390.3 404.9 417 418.9 413.1 403.7 389.8 382.2 371.1 360.3 356.1 348.6 346.6 342.2 344.2 346.7 350.1 351.4 355.3 357.1 354.1 351.1 343.7 345.1 351 355.7 357 357.2 367.4 369.2 374.9 378.1 382 380.6 377.2 376 375.8 376.8 376.9 380.6 376.6 369.2 368.2 370.3 371.5 374.3 369.8 348 335.9 323 312.1 304.8 298 293.3 288 282.7 277.8 273.4 269.3 263.3 256 245.3 234.6 224.7 214.2 206.7 199.5 192.3 184.5 178.8 175.7 172 169.1 162.6 159.8 153.2 146.3 148.6 146 140.8 136.4 126.8 127.3 126.4 123.9 118.8 112.2 104.9 101.8 99 98.6 89 78.2 75.1 75 75.1 75.4 82.7 81.7 76.2 74.8 72 72 76.6 79.2 74.9 74.4 75.1 78.6 88.6 100.8 100.1 99.7 100.8 108.8 111.5 115.9 115 117 124.5 131.7 135.6 139.4 145.4 151.4 158.1 165.6 172.6 181.7 187.2 194.5 200.5 208.1 214.3 221.2 227.5 232 239.5 247.6 251.8 258.8 265.3 272.4 280.7 287.1 292.7 299.5 306 309.2 318.7 327.1 322.9 317.6 318.5 318.9 318.9 319.7 319.9 318.3 316.6 316 316 312.1 309.4 305.7 304.4 305.1 309.5 315.8 320.9 329.6 334.9 343.7 351.7 358 360.4 368.9 378.5 385.3 390.3 390.2 391 396.6 398.7 392.5 387.5 380 375.2 375.4 373.5 369.5 364.5 360.8 359.6 356.1 353.4 349.4 352.2 352.3
386.4 379.9 385.4 400.5 403.4 399.8 387.3 385.2 380.8 372.7 358.3 347.6 340.5 339.2 340.5 345 346 351.7 354.7 354.9 351.2 346.7 340.9 343.2 350.3 356.6 354.4 354.3 357.3 365.3 369 370.4 367.7 368.7 369.1 374.5 373.3 373.6 373.7 373.9 374.9 374.6 372.8 371.8 374.2 380.5 382.9 377.5 355.6 344.4 329.5 314.3 309.3 305.3 304.6 299.6 293.4 288.1 283.7 280.2 275 267.4 257.4 246.5 234.9 224.3 215.6 206.9 199.2 192.2 186.6 181.3 176.7 174.3 168.9 163.1 155 154.6 155.6 150.8 142.9 135.2 131.7 132.6 127.3 124.5 120.6 110.5 105.4 102.7 102.7 101.7 92.9 88.2 75.6 74.9 74.8 74.7 74.6 75 75.9 72.6 72 75.7 77.5 79.4 74.8 74.2 74.9 76.4 76.1 83.3 98.2 91.4 97.9 101.6 108 111.5 112.4 118.7 122.2 126.5 131.8 137.2 141.7 146.9 153.5 160.5 168.1 175.8 183.4 190.5 196.3 201.9 208.5 214.9 220.4 225.9 234.2 239.8 246.4 251.6 259 268.2 277 283.8 288 296.8 304.1 308.5 307 309.7 313.6 314.9 315.9 316 314.4 315.9 315.5 316.1 315.7 314.8 313.7 311.7 307.9 304.4 303.7 305.2 308.8 313.2 320.4 329.3 337.2 345.2 352.6 355 362.3 372.4 381.5 387 390 390.7 391.2 392.3 394.1 388.6 383.2 377.4 372.2 372.5 369.8 365.8 360 356.3 355.4 351.8 348.7 346.1 347.4 348.6
374.7 363.3 373.3 383.5 390.8 386.2 374.1 372.2 376.4 371.9 362.6 348.9 338.6 337.4 342 340.2 341 341.1 344.5 347.7 345.4 339.6 340.2 343.7 354.7 355.3 352.1 353 360.3 367.5 366.8 366.8 366.1 365.2 366.2 371.2 372 374.1 373.1 375.1 374.8 375.3 375.9 376 380.1 386.9 386 379.5 362.2 350.5 324.6 316.1 314.7 312.5 312.8 309.7 303.9 299.2 296.1 293.7 288.5 280.5 269.5 257.4 243.4 233.5 223.7 214 207.3 200.2 192.6 185.7 180.1 174 169.7 164.1 159.4 159.5 159.7 155.6 144.6 136.5 138.5 132.8 128.8 124.4 116.6 112 107.1 103.7 102.8 101.6 96.9 82 78.1 75 74.5 74.3 74 74.7 75 71.9 71.9 76.7 82.3 84.4 84.8 79.8 74.2 75.1 75.1 75.2 78.9 85.7 92.4 95.9 101.7 106 110.7 114.4 116.4 121.8 128.7 133.3 138.5 144 149.5 155.6 164.1 171 176.6 185.2 191.7 197.5 203.6 208.4 213.8 220.1 228 235.2 240.7 246.1 252.3 261.8 269.2 275.5 285.5 294.2 301.6 303.2 300.9 305.8 309 313.2 313.3 310.8 309.3 312.4 315.2 314.7 314.1 313.1 311.3 310 305.4 303.3 302.3 303 305.5 311.9 318.6 328.7 336.6 344 347.6 352.7 363.5 375 379.6 384.7 388.2 390.9 391.1 392.6 391.6 385.7 379.2 374.8 370 369.8 366.1 361.9 354.2 353.6 351.1 347.9 344.6 343.9 341.6 342.2
371.7 356.5 356.9 360.2 368.2 372 367.7 363 364.2 365 361.8 351.7 339.1 337 335.7 334.6 335.3 339 337.8 338.1 335 334.8 337.2 342.3 351.2 349.9 349.3 354.8 358.9 365.2 367.3 364.6 364.3 364.6 366.5 369.7 370.8 372.8 374.3 375.9 375 376.2 378 379.5 384.7 393.6 392.5 383.6 367.2 347.6 327.6 328.7 325.8 327 323.9 316.4 312.1 309.4 308.6 307.1 302.9 295.1 283.7 270.7 256.9 242.7 231.4 221.7 213 207.1 199.9 191.9 183.9 177.7 173.4 168.7 163.9 162.7 159.2 151.2 143.7 139.5 139.7 133 128.3 123.6 117.5 114.9 108.7 103.6 102.4 102.1 101.4 85.2 87.4 75.9 74.3 73.7 73.8 74.4 74.9 71.8 73 75.6 78 79.3 80.9 83.9 83.9 75.7 74.8 73.6 75.1 79.6 88 92.3 94.7 101.2 104.5 110.1 115.7 120.5 124.1 132 137.1 142.4 146.5 153.8 160.1 165.4 171 179.3 187.3 194 198.4 202.8 206.7 213.3 220.7 228.1 234.2 240 247.2 255.4 263.1 270.8 280.2 287.3 299.5 295.7 294.1 300.7 306.3 309.1 308 305.3 306.6 309.7 313.6 312.1 311.1 310.4 308.8 306.1 302.7 302.7 302 302.9 305.6 310.7 319.5 328.6 335.3 334.3 340.4 351.5 363.8 375 378.4 381.4 387.6 393.8 392.7 391.4 385.4 380.7 375.4 370.7 367.9 366.3 362.7 358.4 351.5 349.8 347.4 344.8 342.5 341.7 337.1 335.9
363 352.1 346.3 346.8 353.8 355.4 358.8 355.5 352.7 354.7 356.4 348.7 342.7 338.5 336.6 334.4 334.7 333.2 333.6 333.1 330.8 335.8 338.8 340.3 343.4 345 349.5 355.7 360.6 364.1 368.4 364 363.8 363.9 365.5 369.9 372 373.1 375.8 378.8 377.5 379.1 380.3 383.7 393.4 393.9 396.5 388.7 372.5 341.8 339.7 340 336.1 335.7 331.5 322.6 318.1 319.9 320.2 320.1 317.6 310.8 298.5 285.4 270.2 254.3 239.7 228.5 220.2 213.5 204.4 195.3 190.5 186.7 181.4 175.4 170.8 167.6 161.6 153.9 144.7 143.6 141.4 131.9 127.8 123.1 120.2 119.5 109.6 103.5 101.4 99.9 100.2 88.8 90.5 82.6 73.4 73.4 74.1 74.1 71.7 71.7 73.1 74.5 74.2 77.3 74.3 74 74.2 81.1 83.6 77.9 74.6 74.7 80.1 91 90.4 94.4 101.4 107.4 112.2 117.6 123.6 131.2 137.2 141.8 145.3 151.2 156.5 161 166.7 173.7 181.1 186.9 193.6 197.7 202.6 207.3 213.2 219.7 226.5 233.6 241 248.9 255.4 265.4 272.5 279.4 285.7 289.5 290.3 296.9 303.3 305.1 301.6 302.9 305.1 307.8 310.4 310.9 310.5 308.2 307.1 304.6 303.7 301.6 301 301.5 303.9 309.6 319.6 324.6 327.2 328.9 338 347.1 360 369.8 376.8 380.2 392.1 394.9 393 386.1 378.5 374.9 371.8 367.6 365.1 363.2 358.2 354.4 349.6 347.5 346.3 342.9 339.9 337.1 331.3 331.5
351.6 345.6 343.8 342.6 343 343.5 344.2 347.4 346.6 345.5 347.4 345.4 341.6 339.1 337.3 336.5 335.7 333.6 331.9 330.8 330.5 331.8 333.8 338.1 340.5 344.8 356.6 360.5 358.2 361.4 362.8 363.8 362.8 363.4 365.3 370.2 374.3 375.9 377.7 374.3 377.4 378.4 382.7 383.8 392.8 401.1 403.2 390.6 368.4 349.4 349.8 350.4 347.6 343.8 337.8 332.1 327.8 328 329.3 338.5 336.4 325.2 312.9 297.6 282.4 266.5 248.6 232.3 226.1 218.3 206.6 205.1 203.6 196.8 189.6 182.2 176.7 171.4 165.5 159.4 149.5 144.2 140.8 136.5 134.5 130 122.8 117.4 110.4 108.8 103.2 98.3 94.3 92 90.1 89.5 80.7 73.7 73.8 73.5 71.6 72.6 72.4 73.1 74.2 74.2 73.8 73.5 73.7 74.1 76.5 83.1 78.4 74.7 74.2 77.4 94.1 96.8 97.2 99.6 103.6 110.4 117.6 129.2 136.5 140.3 141.5 149.5 154.6 158.1 162.2 170.9 176.2 181 188.5 194.3 199.1 204.6 209.1 213.2 218 225.4 234.3 241.2 247.9 256.2 265.3 273.1 276.3 279.2 284.8 290.4 297.8 301.2 297.5 300.7 303.8 306.2 307.1 306.6 308.1 306.4 307.8 306.8 305.3 303.1 300.8 301 301.8 306.4 315.5 322.1 318.9 326.9 336.8 345 366.8 369.6 372.6 384.6 392.9 389.1 381.5 377.6 374.8 372.1 368.6 366 362.9 360.2 356 354.1 346.3 345.5 346.3 340.8 333.8 330.8 328.1 325.4
343.2 341 340.7 339.9 341.9 342.7 343.6 342.2 341.4 339.4 337.3 337.5 341.9 341.2 338 335.4 335.7 331.9 330.2 330.6 331.4 331.1 333.3 335.2 341.8 344.1 349.5 353.3 356.3 358.9 357.6 363.1 361.8 364.1 367 370.4 373.5 374.4 374.7 371.2 374.7 377.1 377.9 378.4 382.2 395.5 399.3 388.2 365.1 361.6 360.8 359.2 354.7 353 346.4 341.1 338.7 336.2 340.8 347.4 343.6 334.4 323.4 306.3 290.6 272.9 255.5 242.4 231.5 221.1 218.9 218.2 215.6 206.8 198.7 190.3 184.8 180.2 173.1 166.4 155.6 150.4 143.9 143.5 139.4 131.4 121.9 116.8 113.2 112 108.4 101 96.7 92.9 88.9 86.1 80.2 78.7 74.5 73.6 71.6 72.1 71.7 72.1 74.8 73.4 73.6 73.4 73.6 73.9 73.7 74.2 81.7 78.2 73.8 73.4 79.6 94.8 97.4 97.3 99.5 103.3 113.5 122.1 132.3 130.5 141 149.3 154.3 157.3 160.2 165.2 172.9 177.5 183.3 189.8 195.7 201.2 205.4 209.4 212.7 220.7 228.4 234.9 240.1 246.8 254.7 264.8 270 272.2 279.8 286.1 288.5 291.7 294.1 297.2 300 303 303 303.6 305.8 307.4 307.9 305.6 305.1 304.2 302.4 300.9 300.9 303.2 311.2 314.8 316.8 325.9 335.2 344.3 356.7 364.4 368.7 375.1 381.4 377.2 374.3 374.7 371 367.6 362.9 361.4 360 357.9 355.4 351.3 345.2 341.9 343.3 337.4 330.2 324.9 323 322.1
339.4 337.6 337.8 340.7 343.5 341.3 339.5 338 335 334.6 334.9 340.4 341.5 338 336.4 334.6 332.5 331.9 328.6 329.1 330.4 330.7 331.9 340.1 348.2 352.7 346.6 352.2 356.9 354.9 355.4 360.8 361.1 367.8 368.1 370.5 368.6 368.6 369.5 366.8 370.3 374.2 374.5 375.4 375.1 380.4 388.2 383 368.4 371.8 367.2 362.7 360.6 360.6 357.1 349.7 348.6 348.3 348.7 353.3 348.7 342.9 327.4 312.4 293.6 275.1 259.9 246.7 235.3 228.3 231 228.1 224.2 215.9 207.8 201.1 193.5 186.7 181.7 174 163.6 155.3 148.1 148.6 142.3 131.7 126.2 121 115.6 111.8 107.5 102.9 97.7 94.8 92.4 89.9 88.2 87.3 86.3 74.5 71.5 71.8 70.9 71.3 73.7 73.3 73.4 73.2 73.4 73.6 73.4 73.3 74 80.6 73.1 72.5 72.1 78.4 95.3 93.4 94.5 99.7 106 114.4 126.1 133.3 141.4 147.9 153.4 157.6 159.5 162.3 167.8 174.2 179.5 186.3 192.4 197.7 202.1 205.1 208.9 215.7 223.2 229.2 234.2 240.5 247.1 252.5 258.2 265.1 270.6 278.6 281.9 284.3 289.2 293.3 295.9 298.6 299.5 301 303.2 303.4 303.9 303.7 303.5 303.6 303.3 302.5 300.3 301.8 306.6 308.7 316.6 324.2 332.4 337.4 348.5 356.6 364.6 368.5 372.5 369.6 369.3 368.6 366.4 363.2 359.3 357.2 356.5 357.2 352.6 348 345.7 337 338.6 333.5 326.2 319.9 320.8 322.9
334.4 334.4 335.2 335.9 335.5 337.8 336.5 334.7 332.1 331.5 334.9 335.5 335.8 336.8 334.4 331.8 330.5 328.8 330.4 331.9 333.6 333.8 332.6 342.4 351.8 346.9 345.7 348.8 354.4 354.1 356.7 359.3 360.5 361.8 362.8 363.9 362.3 358.5 360.1 361.2 365.5 369.9 372 372.7 374.1 375 374.7 377.6 374.6 372.8 370.8 372.9 371.7 368.5 363.4 357.9 357.6 359.4 357.5 356.2 355.1 342.4 325.9 314.3 296.5 277.1 261.3 249.4 239 236.9 240 237.3 232.7 225.3 217.7 211.8 205.2 198 190.2 182 169.6 159.6 154.3 151.3 145.2 135.4 132 125.2 118.4 113.4 109.5 104.3 100.3 98 96 94.5 91.5 89.2 88 84.8 77.5 71.3 71.2 71.1 73 73.2 73.3 73.1 73.3 73.2 73.1 72.9 72.9 73.8 79.2 72 72.3 72.5 76.2 83.9 88.4 95.1 106.8 116.5 121.7 133 138.8 146.8 151.7 155.8 158 159.8 163.9 168.4 177 183.1 189 195.1 198.6 201.2 204.8 211.6 218.4 224.7 228.8 234.1 240.3 245.3 251.4 256.3 263.3 268.9 273.6 278.3 284 286.1 291.6 294.2 295.9 298.9 298.6 300.8 301.2 300.7 299.9 300.7 303.5 303 300.6 300.4 303.4 307.7 315.6 322.7 325.8 329.9 339.4 352.2 363.2 365.2 364 361.8 363.7 363.1 361.3 360 355.8 353 353.1 354 349.7 345.2 342.4 334.2 331.1 326.6 320.7 319.3 320.9 325.3
329.1 330.3 334 332.9 334.7 330.9 334 331.9 331.8 331.5 332.8 331.3 331.7 331.7 330.6 327.9 324.6 331.3 336.5 337.1 339.2 336.6 335.4 340.5 348 345.5 344.8 346.2 350.6 354.3 355.8 356.8 356.1 360 356.9 356.7 356.6 356.6 359.7 361.4 363.5 367.3 370.2 369.4 371.1 372 373.5 372.9 373.2 372.8 378.9 382.6 379.9 375.6 370 365 366.6 371.1 368.8 360 354.9 340.4 326.1 314.4 297.4 280.7 262.5 251.2 243.3 245.8 246.8 245.7 241.6 236.1 229.3 222.6 216 208.5 199.1 190.2 179.7 165.3 160.3 154.8 147.8 138.4 135.1 128.6 122.6 119 111.8 108.5 104.4 101.5 99.8 98.3 95.4 92.1 91 91 86.7 77.9 71.1 71.3 73.1 73.3 73.1 73 73.1 72.9 72.8 72.6 72.5 72.3 74.4 78 72.4 72.3 73.4 78.7 87 87.9 102.2 109 117.4 127.7 135.9 142.6 148.3 151.6 156.2 157.8 160.8 164.7 170.9 178.9 185.6 191.3 194.7 196.8 200.8 208.1 214.2 220.1 223.3 228.5 233.8 239.2 246.6 251 256.6 262.1 266.2 271.5 276.1 280.9 285.8 289.5 291.2 293.4 295.7 297 297.6 296.9 294.9 296.4 300.6 302.8 301.5 299 302.8 306.2 311 318.6 319.6 324.8 333.3 343.2 361.4 359.8 358 359.1 356.9 356 355.3 354.4 350.4 347 347.5 348.7 345.2 341.6 339 332.8 324.7 322 317.2 317.6 323.8 333
324 325.7 328 331.1 334.2 329.4 332.5 331 332.2 329.8 329.1 331.2 326.4 326.5 325.3 322.4 320.7 333.6 340 343.5 346.2 343.8 340.8 340.2 344.5 345.3 344 344.4 350.5 355 355.1 357 355.5 357.3 357 356 356.2 356 361.4 362.2 363.8 366.8 365.4 366.2 367.5 368.4 369.6 371.8 371.9 373.8 376 379.9 380.1 376.7 372.2 370.6 371.2 374 372.8 366.1 358.7 341.4 327.8 316.6 300.7 283.9 265 255.1 251 252.6 254.5 253.2 249.9 244.7 239.5 233.1 225.6 219.1 210.8 202.8 190.6 179.5 170.7 163.6 156.8 148.3 140.9 134.5 129.6 125.8 118.4 112.6 109.3 106.1 103.4 100.4 98.7 98 96.6 93.1 91 85.5 77.5 71 72.9 73.3 73 72.8 72.7 72.6 72.5 72.5 72.4 72.3 72.3 73.3 77.5 72.2 73.4 75.8 81.5 83.1 91.7 101.4 106.4 120.8 131.9 137.7 144.5 147.4 153.1 156.6 159.3 162.7 167 172.4 180.5 186.8 189.8 191.3 194.9 203.3 209.8 214.2 217.8 222.9 228.4 233.6 240.8 246.1 250.5 255 261.3 265.9 268.9 274.3 279.2 283.3 286.2 289.1 291.3 292.6 293.8 294 291.8 294.2 298.3 299.9 301.9 297.7 301.6 305.2 310.4 314.4 316 320.4 326.8 334.7 347.4 350.4 353.7 354.8 352.8 352 351 349.7 345.1 340.4 341.6 343 340.9 336.6 335.5 330 322.9 318.8 318.3 322.3 328 333.4
320 319.3 324.4 332.8 333.2 332 330.6 330.3 330.9 330.1 325.1 324.5 323.1 321.5 319.8 316.9 323 332.6 338.3 346.5 351.6 352.2 349.9 348.5 347.2 344.5 344.1 344.4 346.7 352 354.8 354.5 355 355.4 356.3 356 354.8 355.3 355.7 359.4 361.2 362.3 362.1 362.2 363.1 364 367.2 369.1 370.8 372.9 373.6 373 375.1 374.7 375.7 373.3 367.1 365.8 365.3 361.5 357.8 340.9 329.5 318.7 302.8 287 270.9 261.2 257.2 259.9 261.1 260 257.2 252.9 248.9 242.8 236 228.9 221 213.4 199.8 192.4 187.3 183.6 171.3 161.7 153 145 138.9 130.9 123.5 117.5 116.9 112 106.8 105 103.2 99.8 98.1 97.4 94.6 90.4 85.5 70.8 70.8 72.7 72.8 72.7 72.6 72.5 72.5 72.4 72.3 72.2 72.2 72.4 73.5 76.6 73 73.9 78.3 79.5 85 96.8 100.4 110.8 123.5 128.9 135.2 146.3 150.9 156.7 157.5 160 162.9 166.4 172.9 180.1 184.3 186.6 190.9 197.4 204.3 209.6 213.4 218.1 223.6 229.2 234.5 241.1 245.5 250.3 255.7 259.9 264 267.4 272.3 276 279.9 283.1 286.4 289.1 290.8 291.2 289.4 293 295.2 297.3 297.4 298.2 299.6 303.7 308.9 315.2 311.9 316.7 321.6 327 336.3 344.9 346.5 349.6 348.4 347.9 346 343.8 339.3 333.4 335.1 337.5 336.3 331.6 329.4 323.3 320.2 317 322.1 328.2 336.4 341.8
316.6 316.9 322.9 326.8 328.6 329.8 330.3 330.6 331.1 330.6 323.9 320.4 318.3 317.4 315.7 320.6 325.7 331.7 337 344.1 352.9 352.5 353.2 354.5 355.2 353 350.1 345.3 347.1 350.6 352.8 355 355.6 356 357.1 356.5 355.5 355.7 355.2 359.6 358 358.9 358.7 359.1 358.4 356.9 360.5 365.4 369.3 369.8 369 369 371.2 374.3 371.4 367.9 363.6 365.8 360.8 354.8 355.3 338.8 328.3 316.4 304.8 289.8 276.1 268.2 266.2 267.1 266.2 267.7 264.6 261.3 258 252 246.1 238 231.2 224.5 211.8 206.2 199.8 194.7 183.9 172.9 166 156.7 149.7 142.2 133 124.9 122.7 117.9 112.8 110.2 104.8 100.8 98.5 97.2 96 93.9 91.9 83.8 70.7 72.8 72.6 72.7 72.8 72.4 72.3 72.2 72.3 72.2 72.2 72.4 72.3 73.5 74.8 72.4 73.1 74.5 78.4 90.4 97 103.4 110 121.7 132.4 139.5 146.6 151.1 153.1 157 160.1 163.6 168.1 172.6 177.8 182.2 187.5 193.1 198.7 204.9 209.5 214.5 219.3 224 230.1 235.6 241 246 251 254.7 258.4 262.8 266.4 270.9 274.3 277.2 280.9 284.9 287.2 288.8 287.1 290.5 292.4 294.4 294.8 292.2 297.9 301.5 306.2 309.5 310.2 314.6 317.8 322.2 336.5 339.3 340.9 341.2 341.6 340.5 341 337.2 333.8 328.1 329.5 331 325.4 323.2 320.1 320.2 314.6 323.5 326.9 334.3 341.1 343.6
312.2 313.2 319.3 322.9 323.2 325.6 328.4 328.4 327.8 325.3 323.4 320.7 317 314.3 317.5 324 329 331.7 337.5 342.4 348.4 353.3 354.6 356 357.6 357.8 358.2 355.6 350 351.8 354.7 355.5 357.4 358.8 358.4 357.5 356.8 354.7 355.1 355.7 354.8 355.5 355.9 355.1 353.2 350.6 356.3 360.9 362.5 365.2 364 363.7 365.1 364.8 362.3 358.5 359.1 364.4 356.4 351.9 349.3 336.3 326.6 315 306.7 294.4 281.7 279.5 277.5 275 272.4 273.8 272.2 271.5 266.3 259 254 248.7 242.2 235.9 225.7 221.5 213.8 207 196.2 187.3 179.6 173.7 166.1 153.8 142.3 133.6 130.9 125.1 117.8 112.6 106.9 102.7 100.1 101.3 102.5 99.4 96.6 94.4 72.6 70.5 72.7 72.7 72.7 72.8 72.2 72.2 72.4 72.3 72.3 72.3 72.1 72.1 75.1 73.2 71.8 71.9 73.2 77.5 83.5 94.4 104 114 122.7 133.5 137.3 145.6 149 153.8 157.3 161.2 166.1 169.3 173.1 178.9 183.9 188.4 194.2 199.6 205.5 209.2 215.2 218.8 224.1 229.1 237.2 242.5 247 251.4 254.8 259 262.7 266.2 270.8 273.5 276.8 281.6 284.6 277.8 277 277.8 278.9 283.2 287.4 293.4 295 298.3 303 305.8 308 312.7 314.7 319.3 332.3 333.3 335.5 335.2 336.1 333.5 333.9 332.3 329.2 324.5 325.3 320.1 318.1 317.9 317.8 314.6 317.4 325.2 330.7 338.1 339.8 341.3
308.9 306.6 311 317.9 321.1 324.7 328.1 328.2 325.3 321 319 319.4 316.7 309.9 316.8 324.9 331.8 335.5 339 342.5 346.6 351.3 354.8 358 359.6 359.9 361 360.7 358 356.9 355.3 355.3 357.6 357.6 358.3 357.5 356 355 353.9 352.3 352.1 351.4 350.9 350.3 349.4 349.6 351.7 356.4 358.7 359.1 359.1 359.6 361.1 356.9 354.7 353.5 353.6 357.4 349.4 341.9 340.4 329.2 322.4 314.1 306.9 296.7 292.1 291.5 288.4 281.8 278.7 279.2 281.1 280.7 276.2 268.7 261.7 257.6 252.4 247.3 241 237 229.8 224.4 214.3 204.1 195.8 189.3 179.9 167.8 150.4 140.3 136.8 129.9 122.3 116.4 112.4 109.3 110.3 108.1 104.6 99.8 95.8 95.6 74.1 70.4 70.3 72.6 72.8 72.8 72.2 72.3 72.3 72 72.3 72.3 72.1 71.7 71.9 75.7 71.9 71.7 71.6 72.8 77.4 88.1 99.2 105.5 114 123.9 134.4 138 141.9 150 154.3 159.6 164.4 168.5 171.6 176.1 180.3 187.1 193.5 198.4 203.3 204.4 209.9 215 219.2 224.1 230.5 237 242 246.4 251.4 255.3 259.2 263.4 268.6 270.5 271.1 270.4 277 272.4 286.8 289.8 291.5 292.9 293.1 291.9 293.7 298.4 303.8 303.9 307.1 309.7 313 316.6 326.1 328.4 331 332.1 331.2 328.9 328.1 327.3 320.9 318.7 317.4 315.7 315.1 313.7 313 317.8 324.5 329.8 332.1 337.1 341.4 342.9
302.4 302.9 310.1 315.1 317.4 319.1 321.2 322.9 321.5 319.8 316.9 312.1 309.4 307 313.1 324.4 331.6 337.3 340.3 343.4 347.2 350.6 354.3 357.7 359.8 362.1 365 365.3 360.6 360.1 361.3 358.9 357 357 357.3 356.4 356 354.6 353.1 351.3 350.8 350.2 349.2 349.5 349.6 349.5 349.5 353.4 355.4 358.5 359 354.4 354.5 352.9 350.7 351.1 352.8 351 344.2 335.2 329.2 324.5 318.3 312.7 306 302.1 300.8 301.8 299.5 291.3 286.1 287.1 288.8 287.9 285.4 276.4 271.8 267.3 263.4 259.4 253.9 247.9 242.9 238.2 229.6 218.4 207.9 196.4 184.5 172.2 160.1 149.7 142.7 133.9 124.9 118.4 115.5 114.4 112 108.6 103.2 98.6 96.5 96 78.9 73.7 70.2 70.6 72.8 72.5 72.1 72 71.8 71.7 71.3 72.2 71.8 71.5 71.3 71.8 75.4 71.5 71.4 71.5 72.7 89.2 95.2 98.4 108.6 116.8 125.1 130.5 133.2 142.1 150.8 156.3 161.6 165.9 169.3 173.4 177.6 183.9 190.8 196.4 199.8 204.1 209.2 215 219.5 223.6 229.2 234.4 237.9 241.8 246.4 252 256.7 259.6 254.1 258.2 269.6 277.8 279.8 283.3 286.3 290.4 292 293.8 294.9 297.7 295.7 298.4 300.5 301.7 304.9 306.6 310 314.3 322.4 326.4 327.3 327.3 325.4 324 324.8 319.6 314.8 312.8 313.2 311.8 311.4 310.5 313.6 317.7 326.2 333.7 335.2 339.9 344.7 346.6
297.1 301.9 308 308.9 311.3 311.7 313.1 313 315.2 315.1 313.4 308.3 307.1 306.5 311.3 321.1 329.5 341 341.2 343.8 347.1 350.2 353.7 357.7 359.9 362.2 365 366 365.3 363.9 364.8 364.4 361.1 358.4 357.9 356.2 354.3 354.8 352.9 352.4 350.9 349.9 349.7 349.6 349.4 349.3 349.3 351.8 354.9 358.3 356.9 352.7 351.1 350.6 351.8 354.8 354.5 348.1 338.9 332.7 327.6 329.6 325.3 318.8 311 308.8 307.8 310 308.9 299.1 292.3 294.5 295.8 294.4 291.4 283.6 280.2 277.5 273.5 268.1 263.3 257.7 252 245.6 240.1 230 220.1 211.9 198.9 184.5 168 159.3 153.4 146.3 135.9 126.5 118.3 115.1 111.4 105.7 101.4 97.7 96.7 95.8 85.3 75.5 72.9 70.1 71 72 72.1 72 71.9 71.9 71.8 71.3 71.9 71.5 71.2 71 72.7 75.1 71.2 71 70.8 71.1 79.3 97 101.1 112.4 121.4 131.1 130.6 135.6 146.1 153.3 157.7 161.1 166.4 171.5 175.3 180.1 186.4 191.6 197.4 202.3 207.5 212.5 217.4 222.1 227.4 232.1 235.7 238.7 243.1 247.9 250.4 249.2 261.1 269 274.1 277.4 282 287 287.9 292.2 295.9 296.8 300.1 300.6 299.3 298.9 299.2 299.8 302.4 303.6 306.3 311.1 319.2 324.9 325.7 324.4 322.8 319.2 319.6 314 312.7 308.7 306 308 308.7 311.8 316.7 322.4 330.4 335.4 338.4 343.6 348.2 350.9
295.1 302.4 303.8 303.5 303.7 305.4 307.6 303.2 303.2 303.6 306.3 305 305.2 307.1 311.6 320.2 326.3 332.9 340.9 343.6 348.1 350.7 354.2 357.7 359.5 361 363.1 365.9 365.5 365.6 364.7 365.4 363.8 361.2 360.4 358.9 357.3 355.3 355.1 355.1 353.7 351.5 349.7 349.5 349.5 350.2 349.2 352.5 357.2 356.4 352.2 351.2 351.1 351.3 352.3 354.1 351.3 344.9 336.1 329.3 332 331.2 328.9 332.2 323 321.4 317.9 323 319.4 310.8 306.6 304.8 303.1 301.7 297.9 292.9 289.8 288.1 284.5 276.8 271.9 267.1 262.3 256.1 250.4 242.2 233.2 226.7 215.3 202.1 186 173.8 165.5 156.2 147.2 138.6 130.2 121.5 112.6 105.4 100 98.3 97 95.1 94.2 79.8 72.9 70 69.9 70.7 72.2 72.1 72.1 71.9 71.9 71.7 71.4 72 71.1 70.8 70.8 72.3 74.6 71.1 70.8 70.4 72.5 87.2 91.7 104 114.6 122.7 128.7 134.3 140.9 148.9 149.4 153.2 161.6 168 172 176.1 180.6 188.1 194.2 200.3 205.1 206.9 208.3 217.6 225.2 229.5 232.7 235.6 238.5 242.7 243.8 254 259.9 265.9 271.8 276.6 281.1 287 289.9 297.4 301.2 310.9 305.9 303.1 301.9 300.2 299.2 299.4 301 303.3 305.9 309.6 313.3 317.8 321.9 321.2 319.2 315.4 314.5 313.1 310.9 304.8 309.6 311.6 313.3 317.2 324.4 328.4 335.5 340.5 341.3 347 349.3 351.5
292.2 293.3 296.3 296.9 298 298.8 297.1 296.5 298.4 303.8 303.2 301.2 305.3 309.4 314.5 319.4 324.9 331.1 339.4 342.9 348.1 350.4 354.6 357.4 358.7 360.2 361.6 364.4 365 365 365.1 365.4 365 364.9 363.9 362.7 361 359 358.3 356.9 356.1 355.3 352.7 350 350.2 350.8 349.9 351.1 353.3 352 352.2 350.3 350.3 349.5 351.1 349.9 347.6 339.8 332.1 335.4 334 332.2 335.7 336.3 334.7 333.9 327.4 334.4 330.5 321.6 313.7 312.9 312.9 310.9 307.1 305 300.7 296.8 293.1 289.3 281.1 277.4 273.4 267.8 262.1 255.1 248.5 241.3 229.9 218.1 203.6 189.3 177.9 167 158.7 150.5 142.1 133.5 124.4 114.7 105.8 100.3 97.9 95.1 92.7 83.3 75.3 72.4 69.8 69.7 69.7 72.2 72 71.9 71.9 71.8 71.9 71.4 71.1 71 70.8 70.4 71.8 74.4 70.7 70.7 70.7 76.5 89.1 96.8 107.2 116.2 122.8 133.3 139 143.5 142.7 147.9 155.7 164.6 168.4 170.7 175.8 184.8 190.2 195.5 197.4 200.2 212.1 218 222.6 226.6 229.6 226.8 233 243.1 246.6 250.5 255.6 261.5 267.2 273.5 280.6 286.3 293 299.4 305.9 314.8 318.3 311.2 306.6 299.8 299.5 299.7 300.1 302.4 304.8 308.7 311.9 313.2 316.7 317.2 314.8 315.3 312.8 311.1 300.7 304.6 312.5 315.3 320.1 326.8 331.1 333.7 340.1 343 344.9 349.6 351.6 352.6
292 291.6 291.4 292.5 294.9 294.4 293.9 293 298.5 296.5 296.8 298.6 306 311.1 316.5 321.1 325.5 331 336.6 341.6 346.3 350.4 354 356.8 358.9 360.2 360.9 362.2 363.6 364.8 365.3 365.8 364.5 365.7 364.3 363.8 362.6 361.6 360.8 359.6 358 357.5 356.3 354.4 350.6 349.1 350.3 348.5 349.6 352.1 351 348.8 348.6 345.8 344.8 344.9 342 336.5 334.3 339 333.9 336 340.8 339 344.6 344 332 341.3 340.9 332.3 323 326.4 325.2 321.8 317 314.9 308.7 304.9 301.1 297.6 288.8 285.1 280.1 278.1 274.8 270.6 264.6 254.3 243.3 231.4 216.6 202.3 190 178.4 170.3 162.1 153.7 145.2 136.3 126.9 117.5 107.6 102.6 100.1 98.3 92 82.4 73.6 73.6 69.6 69.6 70.6 71.8 71.7 71.6 71.6 71.6 71.3 71.1 71.2 70.7 70.8 70.8 71.2 73.6 70.6 70.5 71.2 84.1 91.4 100.1 109 115.4 130.4 130.8 133.5 138.4 144 150.6 159.7 164.7 165.1 173.8 181.6 187.1 191.1 195.6 203.3 209.8 215.9 219.1 214.1 222.5 230.9 236 241 244.5 247.4 251.8 256.9 262.2 267.5 276.1 282.8 290 297.5 307.4 316.7 321 316.5 310 300.4 299.9 299.8 300.1 302 304.2 305.9 308.6 309.5 312.4 311.4 315.1 313 308.5 298.6 305 313.8 317.7 320.7 326.2 331.7 337.2 342.3 343.4 346.7 348.3 355.4 354.2 354.6
290.9 291.3 291.2 291.1 291.1 291 291.2 291.4 291.5 293.4 294.6 295.9 308.5 313.6 318.3 322.2 326.3 330.6 335.7 340.6 342.8 348.1 352.6 356.6 358.5 360.1 361 361.8 363 362.7 365 364.5 364.5 365.3 365.1 364.8 363.7 362.8 361.9 360.7 359.6 359.5 358.9 357.1 354.9 349.8 348.8 348.3 349.1 352 351.2 348.9 346.5 343 340.3 339.6 337.9 335.1 336.9 336.6 340.3 343 347.1 351.1 351.2 346.9 342.9 341.8 344.1 340.3 336.2 335 334.8 331.9 327.4 323.5 318 312.5 308.7 306.1 296.7 291.3 285.6 284.8 284.5 279 272.8 265.2 255.8 245.4 229.5 214.8 202.6 191.1 182.1 172.5 164.4 155.8 147.2 138.4 129 119.9 113.4 109.2 102.5 98.3 88 77.2 72.2 72.4 69.5 69.4 69.3 71.7 71.3 71.4 71.3 71.2 71 71 70.9 70.7 70.9 70.7 71.4 71.2 70.3 70.4 71.8 83.8 88.9 101.4 110.7 123.3 130.6 130.2 135.5 141.1 145.7 153 156.1 162.4 171.1 177.9 182.7 187.9 194.9 201 206.7 211.7 212.2 219.9 226.8 230.6 235.1 237.7 241.3 244.9 248.6 253.6 258.4 263.8 269.6 276.2 283.4 296.9 304.6 312.5 318 311.6 306.1 305.6 301.4 300.9 300.9 302.3 304.4 305.2 306.2 307.8 308.8 310.5 308.1 298.1 297.4 308.7 315.6 317.9 321.3 325.2 330.2 338.6 343.2 346.5 350.1 350.7 355.4 356.9 356 355.8
292.6 290.9 290.5 290.6 290.4 290.4 290.8 291.4 291.1 292.1 294.1 303.7 309.7 314.8 319.2 323.2 326 329 333.6 339.1 343.1 346.8 351.7 354.7 356.8 358.8 360.6 361.6 362.5 363.4 362.4 362.4 364.4 364.2 364.7 364.3 364 362.9 362.6 362.1 360.9 360.3 359.2 357.1 357.8 355.7 351.7 349.5 348.5 349.5 348.4 345.8 343.8 340.1 337.2 336.8 336.5 337 343 344.7 344 346.8 350 354.9 354 349.9 351.3 350.4 351.7 351.4 348 345.9 344.8 344.4 338.9 333.5 326.1 319.3 317.5 314.5 306.4 301.5 296.7 294.4 292.7 288.8 282.9 275.8 270.2 257.9 241.6 228 215.5 204.1 194.1 184.2 174.9 166.1 155.9 147 138.1 129.3 122.1 118.1 110.2 99.6 93.5 88.9 73.4 71.7 71.9 69.3 69.3 69.2 70.5 71.4 71 71.1 71.3 70.5 70.7 70.7 70.9 70.6 71.3 72.2 70.5 70.2 70.5 76.1 94.2 96.1 101.9 114.4 120.4 122.6 133.6 138.4 140.7 147.4 149.9 159.8 170.1 175.8 179.6 184.8 191.2 196.9 201.9 206 208.1 219.1 224.6 228.5 231.2 234 239.1 242.5 245.8 250.1 255 259.3 263 267.5 276 288 296.8 300.4 301.1 300.6 304.1 313 312.6 305.1 304.4 305.5 307.6 305.8 307 304.5 304 306.4 293.6 301.5 315.4 319.3 321.8 323.4 326.4 330.5 335.6 342.5 347.3 350.2 352.1 352.7 356.1 358.6 361.1 362.4
292.3 290.9 291 293.6 293 291.1 290.2 290.4 290.7 293.4 298.2 304.6 310 314.5 318.9 323 326.9 328 332.7 336.6 340.3 345.4 349.2 352.4 355.3 356.8 358.8 360.7 362 362.6 362.9 362.6 362.4 363 363.4 363.6 363.6 363.3 363 362.7 362.3 360.5 358.6 357.1 356.7 356.8 354.4 353.4 350.7 349.5 346.8 341.8 339.7 337.5 337.1 337.6 337.6 341 344.8 346.5 346.6 347.2 349.2 353.1 355.4 353.5 353.7 357.2 359.8 359.8 356.5 353.7 354.1 353.1 349.1 344.7 335.1 330.2 326.2 322.1 318 313.3 307.9 302.3 299.3 296.6 292.6 287.8 280.7 270.6 256.4 244.5 231.1 217.3 204.6 194.1 184.5 174.4 163.7 154 145.2 137.3 127.2 122.8 117.8 110.6 100.8 91.9 79.9 71.8 71.5 71.9 71.5 69.1 69.1 69 69.6 69.4 70 70 69.2 70.8 70.9 70.8 70.7 71.7 72.7 69.8 69.6 69.6 85.1 85.2 96.4 107.7 113 118.8 130.4 135.3 135.4 142.5 148.3 157.4 167.2 173.7 176.4 181.3 187.2 191.5 196.4 198.2 208.6 215.5 221.3 225.5 228 232.5 237 240.2 243 246.9 250.8 256 257.1 261 267.2 275.2 280.4 284.4 290.2 296.2 302.9 308.8 308.7 307.6 305.7 305.2 306.1 305.2 304.9 302.3 303.4 293.1 295.4 309.1 315.3 321.1 326.1 328.6 332.4 336.7 339.6 345.9 349.3 353.9 355.7 358.2 362.7 367 374.6 375.8
