ncols 200
nrows 90
xllcorner 200000
yllcorner 571400
cellsize 50
-1.1 -1.1 -1.1 -1.1 -1.1 -1.1 -1.1 -1.1 -1.1 -1.1 -1.1 -1.1 -1.1 -1.1 -1.1 -1.1 -1.1 -1.1 -1.1 -1.1 -1.1 -1.1 -1.1 -1.1 -1.1 -1.1 -1.1 -1.1 -1.1 -1.1 -1.1 -1.1 -1.1 -1.1 -1.1 -1.1 -1.1 -1.1 -1.1 -1.1 -1.1 -1.1 -1.1 -1.1 -1.1 -1.1 -1.1 -1.1 -1.1 -1.1 -1.1 -1.1 -1.1 -1.1 -1.1 -1.1 -1.1 -1.1 -1.1 -1.1 -1.1 -1.1 -1.1 -1.1 -1.1 -1.1 -1.1 -1.1 -1.1 -1.1 -1.1 -1.1 -1.1 -1.1 -1.1 -1.1 -1.1 -1.1 -1.1 -1.1 -1.1 -1.1 -1.1 -1.1 -1.1 -1.1 -1.1 -1.1 -1.1 -1.1 -1.1 -1.1 -1.1 -1.1 -1.1 -1.1 -1.1 -1.1 -1.1 38.1 65.5 95.9 107.6 112.4 119 124.2 123.6 127.9 132.6 138.7 145.3 150.4 155.3 159.2 163.6 168.4 172.2 176.6 180.6 184.1 189.1 192.5 196.4 202.2 207.6 209.7 209.9 209.8 210.7 213.6 215.3 216.1 216.7 217 217.6 218.3 220.1 222.6 224.6 227.3 230.5 233.6 236.4 240.1 244.8 248.4 251.5 254.9 258 261.9 265.6 268.9 274.7 282.4 287.7 286.3 282.2 279 275.5 267.7 258.5 249.6 239.1 224.8 210 190.4 169.3 146.4 123.2 97.6 81.9 83.1 84.3 88.7 92 101.9 113.8 124.9 130 158.2 170.8 177.9 183.3 188.9 194.5 199.4 203.5 206.9 209.7 209.4 205.3 199.9 193.3 185.9 176.5 177.8 184.6 193.6 203.7 213.4
-1.1 -1.1 -1.1 -1.1 -1.1 -1.1 -1.1 -1.1 -1.1 -1.1 -1.1 -1.1 -1.1 -1.1 -1.1 -1.1 -1.1 -1.1 -1.1 -1.1 -1.1 -1.1 -1.1 -1.1 -1.1 -1.1 -1.1 -1.1 -1.1 -1.1 -1.1 -1.1 -1.1 -1.1 -1.1 -1.1 -1.1 -1.1 -1.1 -1.1 -1.1 -1.1 -1.1 -1.1 -1.1 -1.1 -1.1 -1.1 -1.1 -1.1 -1.1 -1.1 -1.1 -1.1 -1.1 -1.1 -1.1 -1.1 -1.1 -1.1 -1.1 -1.1 -1.1 -1.1 -1.1 -1.1 -1.1 -1.1 -1.1 -1.1 -1.1 -1.1 -1.1 -1.1 -1.1 -1.1 -1.1 -1.1 -1.1 -1.1 -1.1 -1.1 -1.1 -1.1 -1.1 -1.1 -1.1 -1.1 -1.1 -1.1 -1.1 -1.1 -1.1 -1.1 -1.1 -1.1 -1.1 -1.1 18.7 47.2 74.3 103.5 111.8 119.6 126.5 132.5 131.2 132.9 136.9 142.6 147.7 152.9 155.8 160.8 164.5 169.3 174.2 178.6 182.5 186.3 191.6 195.2 198.4 203.8 208.6 212 212.2 211.2 212.1 214.4 215.3 216.9 217.4 218.3 219.1 221 223.6 225.6 229.4 232 235.3 238.6 242.3 245.8 250.2 253 256.5 259.6 261.4 263.7 264.7 268.6 273.5 276 276.3 274.5 271.2 267.7 264.1 259.2 251.9 242.5 231.6 217 197.4 171.9 148.2 126.4 100.2 81.3 81.8 83.1 84.4 90 94.5 109.1 132.3 147.1 155.6 161.2 177.9 184.7 191.1 196.5 201.8 207.3 211.9 215.7 217.4 217.4 214.3 209.8 202.6 195 186.7 173.4 185.9 192.9 202.7 209.2
-1.1 -1.1 -1.1 -1.1 -1.1 -1.1 -1.1 -1.1 -1.1 -1.1 -1.1 -1.1 -1.1 -1.1 -1.1 -1.1 -1.1 -1.1 -1.1 -1.1 -1.1 -1.1 -1.1 -1.1 -1.1 -1.1 -1.1 -1.1 -1.1 -1.1 -1.1 -1.1 -1.1 -1.1 -1.1 -1.1 -1.1 -1.1 -1.1 -1.1 -1.1 -1.1 -1.1 -1.1 -1.1 -1.1 -1.1 -1.1 -1.1 -1.1 -1.1 -1.1 -1.1 -1.1 -1.1 -1.1 -1.1 -1.1 -1.1 -1.1 -1.1 -1.1 -1.1 -1.1 -1.1 -1.1 -1.1 -1.1 -1.1 -1.1 -1.1 -1.1 -1.1 -1.1 -1.1 -1.1 -1.1 -1.1 -1.1 -1.1 -1.1 -1.1 -1.1 -1.1 -1.1 -1.1 -1.1 -1.1 -1.1 -1.1 -1.1 -1.1 -1.1 -1.1 -1.1 -1.1 -1.1 -1.1 31.3 55.6 85.5 104.2 116.9 124.4 131.8 137.4 136.3 134.6 139.7 144.4 149.2 151.5 156.4 161.5 165 171.8 175.3 180.1 183.9 188.4 192.6 196.6 200.3 204.4 208.1 211.8 213 211.5 213.2 214.7 216.5 217.7 218.4 219.8 223.7 226.9 229 231.1 234 237.4 240.5 244.4 246.5 250.1 252.2 254.4 257.5 261.1 263.5 264 263.9 269.3 268.6 266.6 265.8 263.5 260.1 256.4 252.6 248.4 241.4 233.4 221.6 200.9 175.9 150.3 124.3 102.7 84.7 80.2 81.4 83.3 87.6 94.4 108.5 130.8 149.4 164.8 172.7 177.9 183.3 191.2 198.5 203.8 209 214.5 219.8 222.8 224.5 224.6 223.1 218.4 212.2 205 196.1 185 185 193.5 201 207
-1.1 -1.1 -1.1 -1.1 -1.1 -1.1 -1.1 -1.1 -1.1 -1.1 -1.1 -1.1 -1.1 -1.1 -1.1 -1.1 -1.1 -1.1 -1.1 -1.1 -1.1 -1.1 -1.1 -1.1 -1.1 -1.1 -1.1 -1.1 -1.1 -1.1 -1.1 -1.1 -1.1 -1.1 -1.1 -1.1 -1.1 -1.1 -1.1 -1.1 -1.1 -1.1 -1.1 -1.1 -1.1 -1.1 -1.1 -1.1 -1.1 -1.1 -1.1 -1.1 -1.1 -1.1 -1.1 -1.1 -1.1 -1.1 -1.1 -1.1 -1.1 -1.1 -1.1 -1.1 -1.1 -1.1 -1.1 -1.1 -1.1 -1.1 -1.1 -1.1 -1.1 -1.1 -1.1 -1.1 -1.1 -1.1 -1.1 -1.1 -1.1 -1.1 -1.1 -1.1 -1.1 -1.1 -1.1 -1.1 -1.1 -1.1 -1.1 -1.1 -1.1 -1.1 -1.1 -1.1 -1.1 -1.1 40.6 64.9 93.2 107.8 120.9 127.7 134 139.4 140.5 140.9 140.3 144.6 147.7 151.4 157 161.8 166.3 171.5 174.6 178.9 184.4 188 191.8 196.2 201.5 204.2 208 210.6 210.2 210.2 214 215.7 216.7 218.5 221.4 225.6 228.8 231.6 234.3 236.9 240 244.7 250.3 253.9 253.6 253.7 251.9 251.7 256.5 258.7 262.7 261.1 259.7 262.2 259.2 256.6 254.7 252.5 248.1 244.5 240.6 235.1 228.5 218.2 202.1 180 155.2 130.5 103.7 87.5 78.9 79.8 81.6 85 90 101.9 125 144.4 165.8 175.2 180.3 186.6 192.5 199.8 205.9 211.3 216.3 221.4 225.3 228.4 230.7 231 229.2 226.1 221 214.2 205.7 196.1 187.4 191.1 201.1 205.6
-1.1 -1.1 -1.1 -1.1 -1.1 -1.1 -1.1 -1.1 -1.1 -1.1 -1.1 -1.1 -1.1 -1.1 -1.1 -1.1 -1.1 -1.1 -1.1 -1.1 -1.1 -1.1 -1.1 -1.1 -1.1 -1.1 -1.1 -1.1 -1.1 -1.1 -1.1 -1.1 -1.1 -1.1 -1.1 -1.1 -1.1 -1.1 -1.1 -1.1 -1.1 -1.1 -1.1 -1.1 -1.1 -1.1 -1.1 -1.1 -1.1 -1.1 -1.1 -1.1 -1.1 -1.1 -1.1 -1.1 -1.1 -1.1 -1.1 -1.1 -1.1 -1.1 -1.1 -1.1 -1.1 -1.1 -1.1 -1.1 -1.1 -1.1 -1.1 -1.1 -1.1 -1.1 -1.1 -1.1 -1.1 -1.1 -1.1 -1.1 -1.1 -1.1 -1.1 -1.1 -1.1 -1.1 -1.1 -1.1 -1.1 -1.1 -1.1 -1.1 -1.1 -1.1 -1.1 -1.1 -1.1 -1.1 46.3 73.3 99.3 112.8 124.9 130.6 137.1 141.4 144.1 145.3 145.8 147.1 149.5 152.3 155.6 159.4 165.7 171.1 175.3 179.6 183.2 186.5 191.5 196.4 201.2 202.9 206.2 207.9 206.9 210.9 214 217.7 220.5 223 225.8 229.7 234 238.5 240.9 245.3 250.9 256.7 261 261.7 259.8 257.8 253.2 247.7 249.8 253.4 256.2 256.1 254 252.8 249.7 247.2 244.1 241.4 235.4 229.8 226 220.2 211.8 197 177.4 157.1 133.4 110 92.2 78.6 78.7 82.4 84.9 90 95.1 115.5 132.3 158.1 174.4 182.6 188.6 195.7 200.9 206.8 213.1 217.8 222.5 226.7 230.1 233.4 235.1 235.2 234.6 232.7 228.6 221.4 213.4 204.9 196.9 188.9 198.2 201
-1.1 -1.1 -1.1 -1.1 -1.1 -1.1 -1.1 -1.1 -1.1 -1.1 -1.1 -1.1 -1.1 -1.1 -1.1 -1.1 -1.1 -1.1 -1.1 -1.1 -1.1 -1.1 -1.1 -1.1 -1.1 -1.1 -1.1 -1.1 -1.1 -1.1 -1.1 -1.1 -1.1 -1.1 -1.1 -1.1 -1.1 -1.1 -1.1 -1.1 -1.1 -1.1 -1.1 -1.1 -1.1 -1.1 -1.1 -1.1 -1.1 -1.1 -1.1 -1.1 -1.1 -1.1 -1.1 -1.1 -1.1 -1.1 -1.1 -1.1 -1.1 -1.1 -1.1 -1.1 -1.1 -1.1 -1.1 -1.1 -1.1 -1.1 -1.1 -1.1 -1.1 -1.1 -1.1 -1.1 -1.1 -1.1 -1.1 -1.1 -1.1 -1.1 -1.1 -1.1 -1.1 -1.1 -1.1 -1.1 -1.1 -1.1 -1.1 -1.1 -1.1 -1.1 -1.1 -1.1 -1.1 -1.1 50.3 82.8 104.9 116.5 125.6 136.1 141.1 146.1 149 149.5 149.9 150.9 153.6 155.7 159.8 163 166.4 171.7 175.4 180 184.5 188.6 192.9 196.5 200.8 202 204.5 208.1 210.5 212.9 217.2 220.7 223.5 226.7 230.4 234.6 240.8 246.1 252 258.8 266.3 270.4 271.6 268.9 263.9 259 251.9 245.8 243 246 248.2 249.3 247.5 246.1 243.2 239.2 236 230.8 222.8 215.1 210 202.6 191.8 172.1 151.3 130.3 110.3 93.8 81 77.6 80.4 83.7 89.4 92.9 101.2 123.1 149.5 163 170.6 190.2 198.4 203.2 208.9 214.4 220.3 223.9 228.2 231.6 234.4 236.9 238.5 239 239.3 238.7 233.9 227 219.2 211.8 203.2 192.4 197.3 204.2
-1.1 -1.1 -1.1 -1.1 -1.1 -1.1 -1.1 -1.1 -1.1 -1.1 -1.1 -1.1 -1.1 -1.1 -1.1 -1.1 -1.1 -1.1 -1.1 -1.1 -1.1 -1.1 -1.1 -1.1 -1.1 -1.1 -1.1 -1.1 -1.1 -1.1 -1.1 -1.1 -1.1 -1.1 -1.1 -1.1 -1.1 -1.1 -1.1 -1.1 -1.1 -1.1 -1.1 -1.1 -1.1 -1.1 -1.1 -1.1 -1.1 -1.1 -1.1 -1.1 -1.1 -1.1 -1.1 -1.1 -1.1 -1.1 -1.1 -1.1 -1.1 -1.1 -1.1 -1.1 -1.1 -1.1 -1.1 -1.1 -1.1 -1.1 -1.1 -1.1 -1.1 -1.1 -1.1 -1.1 -1.1 -1.1 -1.1 -1.1 -1.1 -1.1 -1.1 -1.1 -1.1 -1.1 -1.1 -1.1 -1.1 -1.1 -1.1 -1.1 -1.1 -1.1 -1.1 -1.1 -1.1 37.1 56.3 87.7 106.6 118.1 130.9 143.4 153.3 154 153.2 152.7 154 156.8 159 161 163.6 166.8 169.9 174.1 177.5 181.8 185.1 189.4 194.5 197.6 199.4 204.1 207 211.1 213.7 216.5 220.2 223.3 226.9 231.5 236.7 243.9 254.2 263.5 271.2 276.2 279.7 282.2 281.2 275.3 269.5 261.3 251.2 243.7 236.4 237.5 239.7 241 241.5 239 235.9 232.6 228.2 222 211.9 203.4 195.4 183.6 167.1 147.1 127.4 108.7 90.6 79.2 76.7 77.4 82.6 82.6 90 99.8 116.1 131 152 175.3 190.1 199.3 207.1 212.1 216.8 222.1 226.3 229.9 233.1 236.4 239.3 241.7 243.2 243.9 244.1 243.4 238.1 231.3 224.5 217.6 209.9 201.6 205 196.8
-1.1 -1.1 -1.1 -1.1 -1.1 -1.1 -1.1 -1.1 -1.1 -1.1 -1.1 -1.1 -1.1 -1.1 -1.1 -1.1 -1.1 -1.1 -1.1 -1.1 -1.1 -1.1 -1.1 -1.1 -1.1 -1.1 -1.1 -1.1 -1.1 -1.1 -1.1 -1.1 -1.1 -1.1 -1.1 -1.1 -1.1 -1.1 -1.1 -1.1 -1.1 -1.1 -1.1 -1.1 -1.1 -1.1 -1.1 -1.1 -1.1 -1.1 -1.1 -1.1 -1.1 -1.1 -1.1 -1.1 -1.1 -1.1 -1.1 -1.1 -1.1 -1.1 -1.1 -1.1 -1.1 -1.1 -1.1 -1.1 -1.1 -1.1 -1.1 -1.1 -1.1 -1.1 -1.1 -1.1 -1.1 -1.1 -1.1 -1.1 -1.1 -1.1 -1.1 -1.1 -1.1 -1.1 -1.1 -1.1 -1.1 -1.1 -1.1 -1.1 -1.1 -1.1 -1.1 -1.1 9 44.9 66.5 90.8 109.5 124.1 136.7 156.8 160.7 160 159.2 157.2 159.7 161.5 162.6 164.6 167.1 172.1 174.1 176.5 180 185.6 188.2 191.1 195.4 200.8 206.2 208.4 210.9 214.8 217.8 220.3 224 227.9 233.7 240.6 249.8 260.5 272.8 281 288.1 288.6 291.9 290 287.7 282.1 272 261.4 250 241 232.9 228.7 229.6 231.5 232.7 231.7 228.3 225 219.8 213.1 202.6 186.5 176.2 161.2 140.8 121.3 106 90 77 75.3 76.4 80.6 83.6 91.3 99.7 113.2 130 148.7 168.9 187.1 200 209.8 216.2 222.3 224.9 228.1 231.7 234.9 237.9 241.2 244.2 246.2 247.7 248.9 248.8 247.1 242.3 235.8 228.9 222.4 216.4 211.7 210.5 208.8
-1.1 -1.1 -1.1 -1.1 -1.1 -1.1 -1.1 -1.1 -1.1 -1.1 -1.1 -1.1 -1.1 -1.1 -1.1 -1.1 -1.1 -1.1 -1.1 -1.1 -1.1 -1.1 -1.1 -1.1 -1.1 -1.1 -1.1 -1.1 -1.1 -1.1 -1.1 -1.1 -1.1 -1.1 -1.1 -1.1 -1.1 -1.1 -1.1 -1.1 -1.1 -1.1 -1.1 -1.1 -1.1 -1.1 -1.1 -1.1 -1.1 -1.1 -1.1 -1.1 -1.1 -1.1 -1.1 -1.1 -1.1 -1.1 -1.1 -1.1 -1.1 -1.1 -1.1 -1.1 -1.1 -1.1 -1.1 -1.1 -1.1 -1.1 -1.1 -1.1 -1.1 -1.1 -1.1 -1.1 -1.1 -1.1 -1.1 -1.1 -1.1 -1.1 -1.1 -1.1 -1.1 -1.1 -1.1 -1.1 -1.1 -1.1 -1.1 -1.1 -1.1 -1.1 -1.1 -1.1 14.2 56.4 76.3 95 113.9 131.3 150.3 164.7 165.8 164.8 164 162.1 163.3 164.4 165.4 167.3 171.4 174.7 179.1 181.6 185.7 189.1 191.8 196.5 203.6 209 212.2 213.7 216.2 219.9 222.7 227.1 231.8 238.5 247 256.7 269 279.2 288 294.2 298.1 298.6 298 297.2 293.8 285.9 273.6 261 248.1 237.4 228 220 219.6 221.4 223.8 223.3 218.8 217 212.3 204.6 189.7 168.3 151.5 133.2 114.5 98.8 83.7 73.4 74.1 75 80.8 83.2 87.7 97.6 109.3 122.9 139.5 158.8 178.4 193.9 207.6 216.1 222.3 227.3 231 233.8 236.9 239.6 242.6 245.9 249.1 250.6 251.5 252.5 252.4 250.4 245.9 240.3 233.3 227 221.8 217.2 214.3 212.2
-1.1 -1.1 -1.1 -1.1 -1.1 -1.1 -1.1 -1.1 -1.1 -1.1 -1.1 -1.1 -1.1 -1.1 -1.1 -1.1 -1.1 -1.1 -1.1 -1.1 -1.1 -1.1 -1.1 -1.1 -1.1 -1.1 -1.1 -1.1 -1.1 -1.1 -1.1 -1.1 -1.1 -1.1 -1.1 -1.1 -1.1 -1.1 -1.1 -1.1 -1.1 -1.1 -1.1 -1.1 -1.1 -1.1 -1.1 -1.1 -1.1 -1.1 -1.1 -1.1 -1.1 -1.1 -1.1 -1.1 -1.1 -1.1 -1.1 -1.1 -1.1 -1.1 -1.1 -1.1 -1.1 -1.1 -1.1 -1.1 -1.1 -1.1 -1.1 -1.1 -1.1 -1.1 -1.1 -1.1 -1.1 -1.1 -1.1 -1.1 -1.1 -1.1 -1.1 -1.1 -1.1 -1.1 -1.1 -1.1 -1.1 -1.1 -1.1 -1.1 -1.1 -1.1 -1.1 2.7 25.4 62.7 82.7 103 123.8 140.2 155.8 165.1 165.9 166.4 165.9 160.7 162.8 164.5 166.9 170.7 174.8 178.4 183.3 187.1 191.5 196.5 200.3 205.3 210.4 214.8 218.5 220.3 223.2 228 232.6 237.7 245.3 253.9 263.6 276.4 285.6 291.8 297.9 303.8 307.9 307.1 305.1 304.5 298.7 289.2 275.9 260.1 246.4 235.2 224.7 215.4 211.1 210.5 212.4 210.2 208.5 207.7 201.1 191 173.7 152.6 130.3 109.6 89.1 75 73.1 73.8 74.7 79.7 83.1 87.2 92.6 102.9 117.4 132.9 149.3 167.5 186.7 201.4 212.8 220.5 226.9 231.7 236.5 240.2 242.3 244.3 247.4 250.7 253.4 254.8 255.6 256.5 256.1 253.7 249.6 244.5 237.7 232.4 227 222.3 219.6 216.8
-1.1 -1.1 -1.1 -1.1 -1.1 -1.1 -1.1 -1.1 -1.1 -1.1 -1.1 -1.1 -1.1 -1.1 -1.1 -1.1 -1.1 -1.1 -1.1 -1.1 -1.1 -1.1 -1.1 -1.1 -1.1 -1.1 -1.1 -1.1 -1.1 -1.1 -1.1 -1.1 -1.1 -1.1 -1.1 -1.1 -1.1 -1.1 -1.1 -1.1 -1.1 -1.1 -1.1 -1.1 -1.1 -1.1 -1.1 -1.1 -1.1 -1.1 -1.1 -1.1 -1.1 -1.1 -1.1 -1.1 -1.1 -1.1 -1.1 -1.1 -1.1 -1.1 -1.1 -1.1 -1.1 -1.1 -1.1 -1.1 -1.1 -1.1 -1.1 -1.1 -1.1 -1.1 -1.1 -1.1 -1.1 -1.1 -1.1 -1.1 -1.1 -1.1 -1.1 -1.1 -1.1 -1.1 -1.1 -1.1 -1.1 -1.1 -1.1 -1.1 -1.1 -1.1 -1.1 -1.1 40.8 66.6 89.2 113.1 130.9 143.1 155.8 161.2 163.9 165 162.7 159.7 161.9 165 168 171 176.2 182.9 186.8 191.8 197.5 204.2 209.2 215.1 220.7 223.8 225 228.4 234.3 241.3 248.3 254.1 261.6 271.9 281.5 288.9 294.4 297.7 300.4 308 311.3 310.8 308.3 306.5 300.5 289.4 278 261.9 246.8 234.5 222.4 212.5 204.5 199.2 200.8 198.5 199.3 194.9 184.3 169.5 150.3 128.6 109.4 91.3 72.4 71.7 74.2 76 79.7 82.4 87.2 93 99 111.5 124.7 142.3 158.8 179.1 193.8 206.8 216.5 223.2 230.1 236.1 241.7 243.9 247.1 248.8 251.5 254.6 257.2 259.7 260.6 261.2 260 257.1 253.3 248.6 242.9 237.2 231.8 227 224.1 221.1
-1.1 -1.1 -1.1 -1.1 -1.1 -1.1 -1.1 -1.1 -1.1 -1.1 -1.1 -1.1 -1.1 -1.1 -1.1 -1.1 -1.1 -1.1 -1.1 -1.1 -1.1 -1.1 -1.1 -1.1 -1.1 -1.1 -1.1 -1.1 -1.1 -1.1 -1.1 -1.1 -1.1 -1.1 -1.1 -1.1 -1.1 -1.1 -1.1 -1.1 -1.1 -1.1 -1.1 -1.1 -1.1 -1.1 -1.1 -1.1 -1.1 -1.1 -1.1 -1.1 -1.1 -1.1 -1.1 -1.1 -1.1 -1.1 -1.1 -1.1 -1.1 -1.1 -1.1 -1.1 -1.1 -1.1 -1.1 -1.1 -1.1 -1.1 -1.1 -1.1 -1.1 -1.1 -1.1 -1.1 -1.1 -1.1 -1.1 -1.1 -1.1 -1.1 -1.1 -1.1 -1.1 -1.1 -1.1 -1.1 -1.1 -1.1 -1.1 -1.1 -1.1 -1.1 -1.1 -1.1 23.8 68.6 99.4 119.3 132.3 144.1 153 159.7 161.3 161.1 159.9 159.6 162.3 164.1 168.2 171.6 176.5 182.8 191.1 197 203.8 211.5 213.9 220.2 227.3 232.5 234 238.5 247.4 256.2 263.9 272.7 280.9 286.6 291.7 297.8 301 301.1 300.5 305.6 309.4 310.4 306.4 304.7 297.9 289.8 278.8 265.5 250.5 235.1 222.8 213.7 199.3 189.2 187.7 188.8 186.6 178.9 166.2 147.6 126.1 102.7 87.1 75.7 70.2 72.2 75.8 78.3 82.2 85.9 90.7 97.2 104.6 116.4 133.1 149.4 166.9 185.7 199.5 211.1 219.6 226.6 233.6 240.7 243.8 247.1 250.6 253.3 255.2 257.7 260.5 263.3 265.7 265.5 263.6 260.3 256.9 253 248.1 242.2 236.6 231.6 228.2 225.2
-1.1 -1.1 -1.1 -1.1 -1.1 -1.1 -1.1 -1.1 -1.1 -1.1 -1.1 -1.1 -1.1 -1.1 -1.1 -1.1 -1.1 -1.1 -1.1 -1.1 -1.1 -1.1 -1.1 -1.1 -1.1 -1.1 -1.1 -1.1 -1.1 -1.1 -1.1 -1.1 -1.1 -1.1 -1.1 -1.1 -1.1 -1.1 -1.1 -1.1 -1.1 -1.1 -1.1 -1.1 -1.1 -1.1 -1.1 -1.1 -1.1 -1.1 -1.1 -1.1 -1.1 -1.1 -1.1 -1.1 -1.1 -1.1 -1.1 -1.1 -1.1 -1.1 -1.1 -1.1 -1.1 -1.1 -1.1 -1.1 -1.1 -1.1 -1.1 -1.1 -1.1 -1.1 -1.1 -1.1 -1.1 -1.1 -1.1 -1.1 -1.1 -1.1 -1.1 -1.1 -1.1 -1.1 -1.1 -1.1 -1.1 -1.1 -1.1 -1.1 -1.1 -1.1 -1.1 10.7 38.2 72.9 103.6 121.3 133 143.4 151 157.2 158.4 156.8 156.4 160 161.9 165.7 170.1 172.7 178.3 186.4 193.3 201.1 208 212.5 217.6 225 230.4 236 242.2 249.8 259.4 272.1 281.1 288.2 294.6 297.5 298.2 301.8 304.9 301.9 298.5 299.4 302.7 303.8 301 301.7 293.9 287.9 277.6 266.8 253.5 238.8 226.9 214.3 199.1 181.7 173.1 177.5 174.5 159.8 141.2 120.4 100 84.7 74 66.8 70.1 73.4 76.4 79.3 83.9 87.3 90.6 97.1 99 122.2 136.9 151.8 170.6 189.6 203.1 213 221.1 228.8 235.9 240.4 244.7 248 251.8 255.4 256.8 258.4 261.4 264.4 268.3 269.4 266.9 263.7 260.6 257.1 252.7 247.4 241.3 236.1 232.7 229.3
-1.1 -1.1 -1.1 -1.1 -1.1 -1.1 -1.1 -1.1 -1.1 -1.1 -1.1 -1.1 -1.1 -1.1 -1.1 -1.1 -1.1 -1.1 -1.1 -1.1 -1.1 -1.1 -1.1 -1.1 -1.1 -1.1 -1.1 -1.1 -1.1 -1.1 -1.1 -1.1 -1.1 -1.1 -1.1 -1.1 -1.1 -1.1 -1.1 -1.1 -1.1 -1.1 -1.1 -1.1 -1.1 -1.1 -1.1 -1.1 -1.1 -1.1 -1.1 -1.1 -1.1 -1.1 -1.1 -1.1 -1.1 -1.1 -1.1 -1.1 -1.1 -1.1 -1.1 -1.1 -1.1 -1.1 -1.1 -1.1 -1.1 -1.1 -1.1 -1.1 -1.1 -1.1 -1.1 -1.1 -1.1 -1.1 -1.1 -1.1 -1.1 -1.1 -1.1 -1.1 -1.1 -1.1 -1.1 -1.1 -1.1 -1.1 -1.1 -1.1 -1.1 -1.1 34.8 49.7 68.5 84.9 108.4 122.4 132.8 142.5 148.2 152.6 154.9 152.2 155 158.3 162.8 166.3 172.1 177.3 182.4 189.1 197.8 202.6 210.1 215.3 223.4 229.8 235.8 242.9 251.1 260 267.4 278.7 290.6 297.9 301.8 304 303 302.6 303.3 299.7 296 295.4 295.4 293.2 291 289.2 285.5 280.6 274.8 269.4 258 244.8 231 215.4 199.3 179.7 153.8 159.7 153.7 138.2 116.1 95.8 79.3 69.1 65.8 68.2 70.4 73.3 76.1 82 87 91.9 96 101.3 108.2 111.6 115.4 136.7 170.9 192.1 204.2 214.6 222.5 229.5 235.3 240.2 244 247.9 251.9 254.9 257.7 259.9 262.1 265.5 269.3 271.3 270.4 267.5 264.4 261 255.7 250.3 245 240.7 236.6 232.3
-1.1 -1.1 -1.1 -1.1 -1.1 -1.1 -1.1 -1.1 -1.1 -1.1 -1.1 -1.1 -1.1 -1.1 -1.1 -1.1 -1.1 -1.1 -1.1 -1.1 -1.1 -1.1 -1.1 -1.1 -1.1 -1.1 -1.1 -1.1 -1.1 -1.1 -1.1 -1.1 -1.1 -1.1 -1.1 -1.1 -1.1 -1.1 -1.1 -1.1 -1.1 -1.1 -1.1 -1.1 -1.1 -1.1 -1.1 -1.1 -1.1 -1.1 -1.1 -1.1 -1.1 -1.1 -1.1 -1.1 -1.1 -1.1 -1.1 -1.1 -1.1 -1.1 -1.1 -1.1 -1.1 -1.1 -1.1 -1.1 -1.1 -1.1 -1.1 -1.1 -1.1 -1.1 -1.1 -1.1 -1.1 -1.1 -1.1 -1.1 -1.1 -1.1 -1.1 -1.1 -1.1 -1.1 -1.1 -1.1 -1.1 -1.1 -1.1 -1.1 -1.1 22.8 50.4 65.6 81.9 97.3 112.7 123.3 131.3 140 145.2 148.1 150.1 149.5 152.6 158.9 165.8 170.1 175.9 180.6 184.4 190.2 198.9 204.3 212.4 219.5 227.3 233.8 241.1 249.6 260.2 266.6 272.9 282.3 295.8 301.7 305.5 308.4 308.3 303.6 302.4 297.7 290.9 286.7 284.9 283.2 277.7 275.7 274.2 272.3 275.2 271.3 256.1 248.1 235 216.5 197.2 175.5 143.2 137.7 130.9 113.9 94.4 79 66.3 65.7 67.2 68.7 70.9 73.7 79.4 88.1 97 105.3 111.7 113.5 119.3 130.3 137.2 138.7 167.7 192.2 204.2 214.5 222.7 228.6 233.9 238.8 243 246.8 250.2 253.4 256.3 259.3 262 265.3 269.6 272.5 271.9 269.7 267.4 263 257.9 253.3 248.8 244.4 239.8 234.9
-1.1 -1.1 -1.1 -1.1 -1.1 -1.1 -1.1 -1.1 -1.1 -1.1 -1.1 -1.1 -1.1 -1.1 -1.1 -1.1 -1.1 -1.1 -1.1 -1.1 -1.1 -1.1 -1.1 -1.1 -1.1 -1.1 -1.1 -1.1 -1.1 -1.1 -1.1 -1.1 -1.1 -1.1 -1.1 -1.1 -1.1 -1.1 -1.1 -1.1 -1.1 -1.1 -1.1 -1.1 -1.1 -1.1 -1.1 -1.1 -1.1 -1.1 -1.1 -1.1 -1.1 -1.1 -1.1 -1.1 -1.1 -1.1 -1.1 -1.1 -1.1 -1.1 -1.1 -1.1 -1.1 -1.1 -1.1 -1.1 -1.1 -1.1 -1.1 -1.1 -1.1 -1.1 -1.1 -1.1 -1.1 -1.1 -1.1 -1.1 -1.1 -1.1 -1.1 -1.1 -1.1 -1.1 -1.1 -1.1 -1.1 -1.1 -1.1 -1.1 -1.1 36.6 60.1 77.6 91.4 108.6 116.5 125.9 131.8 137.8 142.6 144.7 144.8 148.1 151.9 159.7 168 172.9 179.4 183.7 185.9 193.8 200.9 206.7 213.4 220.1 227.6 238.4 245.4 252.2 259.5 266.1 274.2 281.9 294.9 304.2 305 308.7 309.7 303.2 299.8 293.5 283.9 276.6 271.4 267.1 263.7 263.5 263.3 265.5 268.8 264.9 256.8 245.4 232.5 213.8 191.6 167.6 136.9 113 109.7 97.1 79 70.2 65.3 65.5 67.4 69.5 72.9 81.4 90.2 101 110.3 119.8 127.7 133.8 142.7 151.3 157.8 162.3 155.4 191.6 202.6 212.8 219.7 224.6 230.7 235.8 240.2 244.6 248.5 251.9 254.7 257.7 261 265.5 269.6 272 271.8 270.5 268 264.5 259.9 255.4 250.9 246.9 242.6 237.8
-1.1 -1.1 -1.1 -1.1 -1.1 -1.1 -1.1 -1.1 -1.1 -1.1 -1.1 -1.1 -1.1 -1.1 -1.1 -1.1 -1.1 -1.1 -1.1 -1.1 -1.1 -1.1 -1.1 -1.1 -1.1 -1.1 -1.1 -1.1 -1.1 -1.1 -1.1 -1.1 -1.1 -1.1 -1.1 -1.1 -1.1 -1.1 -1.1 -1.1 -1.1 -1.1 -1.1 -1.1 -1.1 -1.1 -1.1 -1.1 -1.1 -1.1 -1.1 -1.1 -1.1 -1.1 -1.1 -1.1 -1.1 -1.1 -1.1 -1.1 -1.1 -1.1 -1.1 -1.1 -1.1 -1.1 -1.1 -1.1 -1.1 -1.1 -1.1 -1.1 -1.1 -1.1 -1.1 -1.1 -1.1 -1.1 -1.1 -1.1 -1.1 -1.1 -1.1 -1.1 -1.1 -1.1 -1.1 -1.1 -1.1 -1.1 -1.1 -1.1 24.6 40.5 63.9 83.6 97.3 111.8 119.2 128.1 131.5 136.7 139.9 141 142.3 146.8 153.9 162.1 168.9 177.8 181.9 183.7 187.6 196 203.3 208.3 212.6 218.2 227.7 238.3 244.8 249.6 255.2 261.8 272.4 277.6 289.3 295.4 297.9 303.1 303.5 301.1 294.4 289 276.4 265.1 257.3 252.8 251.3 251.7 253.5 256.8 261.9 262.2 253.3 240 223 203.5 179.6 155.2 128.2 96.6 91.1 81.6 72.6 65 64 65.7 67.8 74.1 84 92.4 105 116.2 127.3 136.5 146.8 156.1 164.5 171.1 177.1 177.9 168.4 190 201.9 209 215.6 222 227.8 232.8 237.2 241.5 245.3 248 250.9 254.7 258.8 262.6 266.9 269.3 269.6 268.6 267.6 265.2 261.8 257.6 253.4 249.4 245.1 240.8
-1.1 -1.1 -1.1 -1.1 -1.1 -1.1 -1.1 -1.1 -1.1 -1.1 -1.1 -1.1 -1.1 -1.1 -1.1 -1.1 -1.1 -1.1 -1.1 -1.1 -1.1 -1.1 -1.1 -1.1 -1.1 -1.1 -1.1 -1.1 -1.1 -1.1 -1.1 -1.1 -1.1 -1.1 -1.1 -1.1 -1.1 -1.1 -1.1 -1.1 -1.1 -1.1 -1.1 -1.1 -1.1 -1.1 -1.1 -1.1 -1.1 -1.1 -1.1 -1.1 -1.1 -1.1 -1.1 -1.1 -1.1 -1.1 -1.1 -1.1 -1.1 -1.1 -1.1 -1.1 -1.1 -1.1 -1.1 -1.1 -1.1 -1.1 -1.1 -1.1 -1.1 -1.1 -1.1 -1.1 -1.1 -1.1 -1.1 -1.1 -1.1 -1.1 -1.1 -1.1 -1.1 -1.1 -1.1 -1.1 -1.1 -1.1 -1.1 -1.1 14.2 34.1 52.3 84.9 100.4 112.1 119.5 126.6 130.2 134.7 137 139.4 140.3 152.3 158.4 166.1 172.8 178.8 182.2 186.8 191.1 196.8 205.5 207.9 211.4 216.4 224.3 233.2 239.9 245.1 250.6 256.4 262.7 269.6 277.2 283 288.8 295.3 296.5 295.2 288.2 282.9 272.9 262 250.8 243.8 239.3 238.6 241.3 245.9 255.3 255.7 244.3 225.2 204.7 186.1 161.9 133.9 107.8 85.9 79.3 72.9 64.9 63 63.9 65.6 73.4 85 95.7 105.7 120.5 134.5 145.9 158.4 169 177 182.2 186.7 189.8 190.4 188.6 198.3 199.5 208.1 214.3 219.6 224.6 229.6 234.2 238.4 241.4 243.9 246.5 250.6 254.5 258.4 262.5 265.2 266.5 266.4 265.6 264.3 262.4 258.7 255.1 251.3 247 242.7
-1.1 -1.1 -1.1 -1.1 -1.1 -1.1 -1.1 -1.1 -1.1 -1.1 -1.1 -1.1 -1.1 -1.1 -1.1 -1.1 -1.1 -1.1 -1.1 -1.1 -1.1 -1.1 -1.1 -1.1 -1.1 -1.1 -1.1 -1.1 -1.1 -1.1 -1.1 -1.1 -1.1 -1.1 -1.1 -1.1 -1.1 -1.1 -1.1 -1.1 -1.1 -1.1 -1.1 -1.1 -1.1 -1.1 -1.1 -1.1 -1.1 -1.1 -1.1 -1.1 -1.1 -1.1 -1.1 -1.1 -1.1 -1.1 -1.1 -1.1 -1.1 -1.1 -1.1 -1.1 -1.1 -1.1 -1.1 -1.1 -1.1 -1.1 -1.1 -1.1 -1.1 -1.1 -1.1 -1.1 -1.1 -1.1 -1.1 -1.1 -1.1 -1.1 -1.1 -1.1 -1.1 -1.1 -1.1 -1.1 -1.1 -1.1 -1.1 -1.1 41.4 66.2 79.4 82.1 92.3 112.8 119.6 126.1 127.8 132 134.8 136.6 144.9 153.6 163 170.2 176.2 181.6 185.6 189.5 193.6 197.4 204.7 205.5 208.8 214.6 221.3 228.3 236.1 242.4 247.4 252.2 255.9 259.6 263.7 270.2 275.9 284.8 285.7 284.5 281.3 276.6 270.8 260 245 234.3 227.9 226.9 229.6 234.6 242.2 239.5 226.6 206.4 184.7 161.9 137.1 110.4 88.5 74.2 71.7 65.2 61.5 62.7 63.7 66.8 84.7 95.8 108 122.6 138.4 151.9 166.9 178.5 186.8 193.2 196.5 199 200.6 200.3 200.1 196.6 205.6 210.4 214.8 219.2 223.8 228.1 231.9 234.9 237.5 240.1 242.9 246.3 250.1 253.8 257.4 259.8 262.1 263.6 263.2 262.6 261.1 259.3 256.4 252.9 248.8 244.9
-1.1 -1.1 -1.1 -1.1 -1.1 -1.1 -1.1 -1.1 -1.1 -1.1 -1.1 -1.1 -1.1 -1.1 -1.1 -1.1 -1.1 -1.1 -1.1 -1.1 -1.1 -1.1 -1.1 -1.1 -1.1 -1.1 -1.1 -1.1 -1.1 -1.1 -1.1 -1.1 -1.1 -1.1 -1.1 -1.1 -1.1 -1.1 -1.1 -1.1 -1.1 -1.1 -1.1 -1.1 -1.1 -1.1 -1.1 -1.1 -1.1 -1.1 -1.1 -1.1 -1.1 -1.1 -1.1 -1.1 -1.1 -1.1 -1.1 -1.1 -1.1 -1.1 -1.1 -1.1 -1.1 -1.1 -1.1 -1.1 -1.1 -1.1 -1.1 -1.1 -1.1 -1.1 -1.1 -1.1 -1.1 -1.1 -1.1 -1.1 -1.1 -1.1 -1.1 -1.1 -1.1 -1.1 -1.1 -1.1 -1.1 -1.1 -1.1 -1.1 59 86.6 96.4 100.7 99.2 102.4 117 123.2 124 128.9 134.1 139.1 145.3 156.6 167 173 178.7 183.1 188.5 193.1 195.1 197.4 201.1 202.8 206.8 212.7 218.7 226.1 235.1 242.2 247.4 251.1 252 251.4 254.5 258 264.2 268 271.7 273.1 276 271.2 265.4 255.4 241.2 228.6 216 214.3 215.4 219.5 222.9 219.7 204.9 184 160.5 136.6 113.5 90.8 71.7 68.3 65.5 59.6 61.1 62.6 64.1 80.6 94.7 107.8 125.7 142.1 155.5 171.8 184.3 192.4 198.3 203.3 206.7 207.7 208.4 209 208.8 207.4 204.7 211.2 215.2 218.8 222.5 226.6 230 231.8 233.9 236.7 239.6 242.5 246.2 249.9 252.9 255.8 258.3 260.3 260.5 260.1 259.3 257.9 256.5 253.8 249.8 247.3
-1.1 -1.1 -1.1 -1.1 -1.1 -1.1 -1.1 -1.1 -1.1 -1.1 -1.1 -1.1 -1.1 -1.1 -1.1 -1.1 -1.1 -1.1 -1.1 -1.1 -1.1 -1.1 -1.1 -1.1 -1.1 -1.1 -1.1 -1.1 -1.1 -1.1 -1.1 -1.1 -1.1 -1.1 -1.1 -1.1 -1.1 -1.1 -1.1 -1.1 -1.1 -1.1 -1.1 -1.1 -1.1 -1.1 -1.1 -1.1 -1.1 -1.1 -1.1 -1.1 -1.1 -1.1 -1.1 -1.1 -1.1 -1.1 -1.1 -1.1 -1.1 -1.1 -1.1 -1.1 -1.1 -1.1 -1.1 -1.1 -1.1 -1.1 -1.1 -1.1 -1.1 -1.1 -1.1 -1.1 -1.1 -1.1 -1.1 -1.1 -1.1 -1.1 -1.1 -1.1 -1.1 -1.1 -1.1 -1.1 -1.1 -1.1 -1.1 38.6 71 96.1 105.3 108.3 109.2 109.5 118.8 123.2 126.4 130.8 134.2 140.7 148.1 158.1 167.7 173.9 180.4 189.4 195 194.1 194.4 196.3 198.8 201.3 205.1 210.7 217.9 226.3 236.9 244.2 248.8 251.7 250.8 247.6 247.9 247.2 251.9 256 260.6 264.4 267.9 266.4 259.6 250.8 238.5 225.5 212.5 197.1 201.3 205.3 205.6 198.3 181.4 159.1 136.5 113 94 74.4 63.4 61.3 60.7 59.5 60.9 63.3 81.5 94.8 109.5 125.2 144.8 159.7 172.1 184.8 194.9 202.9 207.9 211.8 214.7 215.9 216.5 216.3 215.7 213.6 211.6 211.4 214.2 217.5 221.1 224.5 226.5 228.3 230.7 233.2 236.2 239.1 242.4 245.5 248.4 251.3 254.2 256.7 257.7 257.5 256.8 256.6 256.2 254 251.4 249
-1.1 -1.1 -1.1 -1.1 -1.1 -1.1 -1.1 -1.1 -1.1 -1.1 -1.1 -1.1 -1.1 -1.1 -1.1 -1.1 -1.1 -1.1 -1.1 -1.1 -1.1 -1.1 -1.1 -1.1 -1.1 -1.1 -1.1 -1.1 -1.1 -1.1 -1.1 -1.1 -1.1 -1.1 -1.1 -1.1 -1.1 -1.1 -1.1 -1.1 -1.1 -1.1 -1.1 -1.1 -1.1 -1.1 -1.1 -1.1 -1.1 -1.1 -1.1 -1.1 -1.1 -1.1 -1.1 -1.1 -1.1 -1.1 -1.1 -1.1 -1.1 -1.1 -1.1 -1.1 -1.1 -1.1 -1.1 -1.1 -1.1 -1.1 -1.1 -1.1 -1.1 -1.1 -1.1 -1.1 -1.1 -1.1 -1.1 -1.1 -1.1 -1.1 -1.1 -1.1 -1.1 -1.1 -1.1 -1.1 -1.1 -1.1 16.9 47.7 72.6 99.3 118.2 117.8 114.4 117.1 119.6 122.6 126.6 131.3 135.4 142.6 149.9 162.2 170.1 176.3 182.2 190.1 194.9 194 192.6 193.8 196.8 199.8 203.8 209.8 217.6 226.8 238.6 245.8 248.8 251.4 249.5 244.5 242.9 239 241.2 245.7 251.7 258 261 260.6 254.5 245.2 233.7 220.3 205 189.3 186.6 189.6 186 174.9 156.4 134.7 114.3 92.9 74.5 58.8 58.1 58.8 59.5 59.6 70.4 82 96.6 114.4 129.3 146.5 162.8 173.7 182.9 192.7 200.8 206.6 213.1 217.1 220.8 222.9 223.1 222.9 221.7 219.8 217 214.1 213.6 215.9 217.9 220.7 223 225.3 227.8 229.7 232.5 235.4 238.6 241.2 243.9 246.9 250.1 253.4 254.4 255.1 255.2 255.5 256.1 255.4 253 250.6
-1.1 -1.1 -1.1 -1.1 -1.1 -1.1 -1.1 -1.1 -1.1 -1.1 -1.1 -1.1 -1.1 -1.1 -1.1 -1.1 -1.1 -1.1 -1.1 -1.1 -1.1 -1.1 -1.1 -1.1 -1.1 -1.1 -1.1 -1.1 -1.1 -1.1 -1.1 -1.1 -1.1 -1.1 -1.1 -1.1 -1.1 -1.1 -1.1 -1.1 -1.1 -1.1 -1.1 -1.1 -1.1 -1.1 -1.1 -1.1 -1.1 -1.1 -1.1 -1.1 -1.1 -1.1 -1.1 -1.1 -1.1 -1.1 -1.1 -1.1 -1.1 -1.1 -1.1 -1.1 -1.1 -1.1 -1.1 -1.1 -1.1 -1.1 -1.1 -1.1 -1.1 -1.1 -1.1 -1.1 -1.1 -1.1 -1.1 -1.1 -1.1 -1.1 -1.1 -1.1 -1.1 -1.1 -1.1 -1.1 -1.1 -1.1 8.8 43.5 72.2 96.3 118.9 127.8 121.7 121.8 124 125.5 127.7 131.6 139.5 146.9 155.9 165.5 172 177.1 183.9 189.1 192.4 191.5 190.8 191.9 195.6 197.9 202.4 210 218.1 226.9 238.5 245 247.8 250.1 247.6 242.3 238 233.7 234.2 237.2 242.8 248.6 251.8 251.8 246.7 238.6 228.4 214.7 198 178 165.8 171.7 163.9 150.6 132.5 112.9 92.4 74.7 57.1 55.1 54.2 56.5 59.1 71.1 81.6 92 110.1 127.7 143.6 161.2 173.3 182.9 191.4 199.2 204.3 209.4 215.1 218.7 221.8 224.8 225.9 226.2 225.4 223 220.6 218.6 216.3 215.2 216 217.4 219.4 222.5 224.8 226.8 228.7 231.7 235.1 238.5 241.3 244.5 248.1 250.8 252.7 253.9 254.6 255.4 256.6 257.4 255.1 252.5
-1.1 -1.1 -1.1 -1.1 -1.1 -1.1 -1.1 -1.1 -1.1 -1.1 -1.1 -1.1 -1.1 -1.1 -1.1 -1.1 -1.1 -1.1 -1.1 -1.1 -1.1 -1.1 -1.1 -1.1 -1.1 -1.1 -1.1 -1.1 -1.1 -1.1 -1.1 -1.1 -1.1 -1.1 -1.1 -1.1 -1.1 -1.1 -1.1 -1.1 -1.1 -1.1 -1.1 -1.1 -1.1 -1.1 -1.1 -1.1 -1.1 -1.1 -1.1 -1.1 -1.1 -1.1 -1.1 -1.1 -1.1 -1.1 -1.1 -1.1 -1.1 -1.1 -1.1 -1.1 -1.1 -1.1 -1.1 -1.1 -1.1 -1.1 -1.1 -1.1 -1.1 -1.1 -1.1 -1.1 -1.1 -1.1 -1.1 -1.1 -1.1 -1.1 -1.1 -1.1 -1.1 -1.1 -1.1 -1.1 -1.1 -1.1 28.9 41.8 63.1 91.7 120.7 128.6 126.5 124.9 126.9 127.8 129.6 137.2 142.6 151.9 160.3 167.3 172.4 176.8 182.4 186.4 189.2 189.1 189.6 191.1 194.5 197.3 201.7 209.9 218.2 226.3 235.1 243.3 246.5 248.5 246.3 241.1 236.3 231.2 228.3 229.8 232.7 235.9 238 237.6 237 231.9 220.5 204.6 186.6 166.7 140.6 147.9 141 126.3 108.9 90.1 70.9 56.6 54.3 51.8 56.4 64.6 68.9 78.1 89.1 100.7 116.8 135.2 153.1 168.1 179.3 188.5 196.1 202.4 207.8 211.7 215 218.4 221.7 225.1 226.3 227 226.3 225.1 223.2 221.5 220.3 219 217.9 218.4 219.2 220.8 222.2 224.2 226.3 228.6 232.1 235.9 240.2 244.9 248.4 250.9 253.3 254.4 255.3 256.4 257.6 258.2 256.7 254
-1.1 -1.1 -1.1 -1.1 -1.1 -1.1 -1.1 -1.1 -1.1 -1.1 -1.1 -1.1 -1.1 -1.1 -1.1 -1.1 -1.1 -1.1 -1.1 -1.1 -1.1 -1.1 -1.1 -1.1 -1.1 -1.1 -1.1 -1.1 -1.1 -1.1 -1.1 -1.1 -1.1 -1.1 -1.1 -1.1 -1.1 -1.1 -1.1 -1.1 -1.1 -1.1 -1.1 -1.1 -1.1 -1.1 -1.1 -1.1 -1.1 -1.1 -1.1 -1.1 -1.1 -1.1 -1.1 -1.1 -1.1 -1.1 -1.1 -1.1 -1.1 -1.1 -1.1 -1.1 -1.1 -1.1 -1.1 -1.1 -1.1 -1.1 -1.1 -1.1 -1.1 -1.1 -1.1 -1.1 -1.1 -1.1 -1.1 -1.1 -1.1 -1.1 -1.1 -1.1 -1.1 -1.1 -1.1 -1.1 -1.1 -1.1 38.6 55.8 74.1 85.1 112.3 133.1 129.7 127.2 128.4 130 132.7 139.8 146 154.7 162.2 168.2 172.3 176.5 182.1 185 188.2 188.3 188.8 190.2 193.1 195.7 201.5 209.4 217.9 226.2 233.1 241.3 242.7 243.6 243.7 240.2 234.5 228.7 223.5 223 223.3 224 226.6 227.1 226.5 219.1 207.6 191.8 174.4 156.7 132.3 124.2 116.9 104.3 87.8 69.8 53.6 50.1 55.4 56.9 65.9 68.1 74.3 84.3 94.4 104.3 118.2 136.5 157.1 171.2 180.9 189.4 196.5 202.5 207.2 210.8 214 217.5 221 223.1 224.9 225.6 225.9 225 224.1 223.7 222.4 221.7 221.6 222.4 223.4 224.5 225.2 226 227.5 230.4 233.7 238.3 243.3 247.4 249.8 252.2 254.7 255.9 256.7 257.7 258.8 258.8 257 254.5
-1.1 -1.1 -1.1 -1.1 -1.1 -1.1 -1.1 -1.1 -1.1 -1.1 -1.1 -1.1 -1.1 -1.1 -1.1 -1.1 -1.1 -1.1 -1.1 -1.1 -1.1 -1.1 -1.1 -1.1 -1.1 -1.1 -1.1 -1.1 -1.1 -1.1 -1.1 -1.1 -1.1 -1.1 -1.1 -1.1 -1.1 -1.1 -1.1 -1.1 -1.1 -1.1 -1.1 -1.1 -1.1 -1.1 -1.1 -1.1 -1.1 -1.1 -1.1 -1.1 -1.1 -1.1 -1.1 -1.1 -1.1 -1.1 -1.1 -1.1 -1.1 -1.1 -1.1 -1.1 -1.1 -1.1 -1.1 -1.1 -1.1 -1.1 -1.1 -1.1 -1.1 -1.1 -1.1 -1.1 -1.1 -1.1 -1.1 -1.1 -1.1 -1.1 -1.1 -1.1 -1.1 -1.1 -1.1 -1.1 -1.1 -1.1 36.5 58.6 79.3 104.6 119.2 131.3 130.9 128.9 129.9 131.4 135.2 143.7 149.4 156.6 163.7 168.6 172.7 176.9 181.6 185.5 187.6 187.2 187.6 189.4 192.1 196.2 202.9 211.2 219 225.4 233.2 238.4 240.2 241.4 242.1 240 233.1 226.9 221.3 214.3 214.6 214.1 215.1 215.9 212.1 202.8 190.2 174.6 157.5 139.8 120.2 100.5 98.6 84.7 69.2 52.1 51.9 55.6 58.9 64 67 70.3 77 84 92.4 99.4 112.4 132.2 153.2 169.5 179.6 188.8 195.7 200.5 205.3 209 212.7 216 219 221 223 224.2 224.3 224.4 224.3 223.8 223.8 223.7 223.7 226.2 227.8 229.1 230.1 231 232.4 235.3 238.7 243.2 247.2 249.8 252 254.2 256.4 257.5 258.2 259.1 260.3 258.9 257.3 255
-1.1 -1.1 -1.1 -1.1 -1.1 -1.1 -1.1 -1.1 -1.1 -1.1 -1.1 -1.1 -1.1 -1.1 -1.1 -1.1 -1.1 -1.1 -1.1 -1.1 -1.1 -1.1 -1.1 -1.1 -1.1 -1.1 -1.1 -1.1 -1.1 -1.1 -1.1 -1.1 -1.1 -1.1 -1.1 -1.1 -1.1 -1.1 -1.1 -1.1 -1.1 -1.1 -1.1 -1.1 -1.1 -1.1 -1.1 -1.1 -1.1 -1.1 -1.1 -1.1 -1.1 -1.1 -1.1 -1.1 -1.1 -1.1 -1.1 -1.1 -1.1 -1.1 -1.1 -1.1 -1.1 -1.1 -1.1 -1.1 -1.1 -1.1 -1.1 -1.1 -1.1 -1.1 -1.1 -1.1 -1.1 -1.1 -1.1 -1.1 -1.1 -1.1 -1.1 -1.1 -1.1 -1.1 -1.1 -1.1 -1.1 -1.1 37.3 58.2 82.9 106.5 128.2 134.8 131.5 131 131.5 134.1 141.3 147.1 152.3 158.6 164.5 169.2 173.4 177.5 182.3 186 187 186.4 186.7 188.5 192.1 197.4 204.4 214 220.7 226.7 234.3 238.1 239.8 240.3 241.4 238.6 230.9 226.5 219.9 212.7 204.8 204.6 202.9 200.8 195 184.3 170.7 154.6 138.6 119.7 102 88.9 80.1 69.7 52.3 48.7 54.3 57.8 59.5 60 64.1 69.1 74.3 75.3 80.2 86.5 85.8 109.8 140.3 166.1 179 187.7 193.5 198.3 203.1 207.1 210.6 214 216.9 218.9 220.7 222.1 222.6 222.8 223 223.6 224 224.8 226.9 229.4 231.9 233.7 235 235.9 237.6 240.2 244.1 247.6 250.5 252.7 254.7 256.6 258.8 259.9 260.5 261.6 261.5 259.7 258.1 255.7
-1.1 -1.1 -1.1 -1.1 -1.1 -1.1 -1.1 -1.1 -1.1 -1.1 -1.1 -1.1 -1.1 -1.1 -1.1 -1.1 -1.1 -1.1 -1.1 -1.1 -1.1 -1.1 -1.1 -1.1 -1.1 -1.1 -1.1 -1.1 -1.1 -1.1 -1.1 -1.1 -1.1 -1.1 -1.1 -1.1 -1.1 -1.1 -1.1 -1.1 -1.1 -1.1 -1.1 -1.1 -1.1 -1.1 -1.1 -1.1 -1.1 -1.1 -1.1 -1.1 -1.1 -1.1 -1.1 -1.1 -1.1 -1.1 -1.1 -1.1 -1.1 -1.1 -1.1 -1.1 -1.1 -1.1 -1.1 -1.1 -1.1 -1.1 -1.1 -1.1 -1.1 -1.1 -1.1 -1.1 -1.1 -1.1 -1.1 -1.1 -1.1 -1.1 -1.1 -1.1 -1.1 -1.1 -1.1 -1.1 -1.1 -1.1 16 60.2 83.5 107 126.6 137.1 136.5 135 134.5 136.7 146 151.6 155.4 160.1 165.8 170.7 174.3 178.9 182.4 185.6 185.6 185.6 186.2 188.9 193.9 201.4 209.3 218.1 223.8 229 236.6 238.3 238.8 238.5 237.9 234.6 230 225.2 218.9 210.2 200.9 193.5 189.6 183.5 175.5 163.4 147.8 131.7 115.5 98.6 86.5 73.8 63.9 58 50.7 50.1 53.6 59.3 61.6 66 69.7 75.2 82.2 93.8 98.6 108.7 110.3 112.2 127.6 160.4 176.4 185.1 191.4 196.1 200.9 205 208.4 211.9 214.8 216.6 218.3 219.9 220.3 220.7 221.3 221.9 222.9 225.9 229.5 232.3 234.6 236.4 238.2 240.2 241.7 244.3 247.5 250.7 253.4 255.8 257.7 259.5 261.4 263.2 264.2 265.1 263.8 260.8 258.9 256.4
-1.1 -1.1 -1.1 -1.1 -1.1 -1.1 -1.1 -1.1 -1.1 -1.1 -1.1 -1.1 -1.1 -1.1 -1.1 -1.1 -1.1 -1.1 -1.1 -1.1 -1.1 -1.1 -1.1 -1.1 -1.1 -1.1 -1.1 -1.1 -1.1 -1.1 -1.1 -1.1 -1.1 -1.1 -1.1 -1.1 -1.1 -1.1 -1.1 -1.1 -1.1 -1.1 -1.1 -1.1 -1.1 -1.1 -1.1 -1.1 -1.1 -1.1 -1.1 -1.1 -1.1 -1.1 -1.1 -1.1 -1.1 -1.1 -1.1 -1.1 -1.1 -1.1 -1.1 -1.1 -1.1 -1.1 -1.1 -1.1 -1.1 -1.1 -1.1 -1.1 -1.1 -1.1 -1.1 -1.1 -1.1 -1.1 -1.1 -1.1 -1.1 -1.1 -1.1 -1.1 -1.1 -1.1 -1.1 -1.1 -1.1 -1.1 31.8 56.9 82.5 107.1 127 137.7 139.6 137.4 137.2 139.3 147.9 156.1 158.8 164.2 173.5 178.2 179.8 180.2 183.2 185.5 186.3 185.2 185.6 189.2 196.2 203.7 213.6 222 226.7 233.3 239.8 240.1 239.1 238.3 233.8 229.9 227.8 222 215.3 204.8 192.3 176.6 171.1 165.4 153.8 139 123.6 108.1 94.2 82.9 70.5 59.7 56.6 48.8 48.3 49.4 52.4 60.7 66.6 73.7 81.7 91 102.4 113 120.3 131.8 135 136.6 123.9 155 174 181.7 189 194.4 199.1 202.8 206.2 209.7 212.6 214.3 216 217.7 218.4 218.9 219.4 220.7 223.4 227.1 230.7 233.3 235.9 238.7 241.2 243.1 244.3 247 249.8 252.5 255.3 258.3 260.2 262 264.1 265.9 267.5 268.3 266.7 262.9 259.5 257.1
-1.1 -1.1 -1.1 -1.1 -1.1 -1.1 -1.1 -1.1 -1.1 -1.1 -1.1 -1.1 -1.1 -1.1 -1.1 -1.1 -1.1 -1.1 -1.1 -1.1 -1.1 -1.1 -1.1 -1.1 -1.1 -1.1 -1.1 -1.1 -1.1 -1.1 -1.1 -1.1 -1.1 -1.1 -1.1 -1.1 -1.1 -1.1 -1.1 -1.1 -1.1 -1.1 -1.1 -1.1 -1.1 -1.1 -1.1 -1.1 -1.1 -1.1 -1.1 -1.1 -1.1 -1.1 -1.1 -1.1 -1.1 -1.1 -1.1 -1.1 -1.1 -1.1 -1.1 -1.1 -1.1 -1.1 -1.1 -1.1 -1.1 -1.1 -1.1 -1.1 -1.1 -1.1 -1.1 -1.1 -1.1 -1.1 -1.1 -1.1 -1.1 -1.1 -1.1 -1.1 -1.1 -1.1 -1.1 -1.1 -1.1 -1.1 31.8 57.8 80 101.3 124.9 136.8 140.6 138.4 139.3 141.9 148.3 157.6 163.5 171.7 182.4 188.4 190.1 186.3 185.1 185.9 186 184.3 184.7 190.2 198.7 206.9 216.2 225 231.5 237.2 241.4 242 239 235.4 229.5 225.1 223.3 214.2 204.3 190.1 175.9 161.3 151.2 142.4 129.4 114.6 99.6 87.5 75.3 64.2 54.4 45.6 45.9 46.1 47 49.7 60.1 68.2 76.2 82.1 95.2 106.6 117.9 131.9 140.4 146.7 150.5 150.9 141.8 154 172.2 179.5 186.6 192.6 196.7 200.5 204 207.5 210.4 212.1 213.8 215.1 216.1 216.7 218.1 220 223.4 227.1 230.8 233.7 237 240.3 243.6 245.3 246.7 248.9 251.4 254.3 257 260.1 262.6 264.7 266.8 268 268.3 268.3 266.4 263.5 259.7 256.8
-1.1 -1.1 -1.1 -1.1 -1.1 -1.1 -1.1 -1.1 -1.1 -1.1 -1.1 -1.1 -1.1 -1.1 -1.1 -1.1 -1.1 -1.1 -1.1 -1.1 -1.1 -1.1 -1.1 -1.1 -1.1 -1.1 -1.1 -1.1 -1.1 -1.1 -1.1 -1.1 -1.1 -1.1 -1.1 -1.1 -1.1 -1.1 -1.1 -1.1 -1.1 -1.1 -1.1 -1.1 -1.1 -1.1 -1.1 -1.1 -1.1 -1.1 -1.1 -1.1 -1.1 -1.1 -1.1 -1.1 -1.1 -1.1 -1.1 -1.1 -1.1 -1.1 -1.1 -1.1 -1.1 -1.1 -1.1 -1.1 -1.1 -1.1 -1.1 -1.1 -1.1 -1.1 -1.1 -1.1 -1.1 -1.1 -1.1 -1.1 -1.1 -1.1 -1.1 -1.1 -1.1 -1.1 -1.1 -1.1 -1.1 -1.1 31.1 55.1 78.2 102.7 125 137.1 140.4 139 141.4 145.1 151.6 159.7 166 175.1 186.1 192.8 196.2 194.3 189.1 187.5 186.5 183.4 184.8 190 200.5 209.4 218.2 226.8 237 243 243.2 240.2 233.5 228.1 223.1 217.3 211.3 199.4 187.7 171.9 155.4 140.6 127.4 118.1 105.3 92.2 80.2 67.7 57.2 49.8 44.6 44.5 42.2 45.9 48.3 60.6 66.3 75 84.1 93.3 107.8 120.1 132.7 143.8 151 155.5 158.9 159.3 152.9 157.2 173.3 178.9 185.3 190.4 194.3 198.2 201.7 205.2 208.1 209.8 211.2 212.6 213.9 215.2 217.3 219.4 222.9 226.3 229.7 233.3 237 240.6 243.8 245.1 247 250.1 253.1 255.8 258.7 261 263.7 266.6 268.1 267.8 266.9 265.9 263.9 261.7 258.3 255.8
-1.1 -1.1 -1.1 -1.1 -1.1 -1.1 -1.1 -1.1 -1.1 -1.1 -1.1 -1.1 -1.1 -1.1 -1.1 -1.1 -1.1 -1.1 -1.1 -1.1 -1.1 -1.1 -1.1 -1.1 -1.1 -1.1 -1.1 -1.1 -1.1 -1.1 -1.1 -1.1 -1.1 -1.1 -1.1 -1.1 -1.1 -1.1 -1.1 -1.1 -1.1 -1.1 -1.1 -1.1 -1.1 -1.1 -1.1 -1.1 -1.1 -1.1 -1.1 -1.1 -1.1 -1.1 -1.1 -1.1 -1.1 -1.1 -1.1 -1.1 -1.1 -1.1 -1.1 -1.1 -1.1 -1.1 -1.1 -1.1 -1.1 -1.1 -1.1 -1.1 -1.1 -1.1 -1.1 -1.1 -1.1 -1.1 -1.1 -1.1 -1.1 -1.1 -1.1 -1.1 -1.1 -1.1 -1.1 -1.1 -1.1 -1.1 17.8 51 75.6 102 126.5 141.1 141.9 139.2 142.5 146.2 155.8 162.4 170.7 179.8 189.4 195 199.5 201 193.4 188.9 184.6 179.8 184 189.8 200.3 209.2 218.3 226.6 240.9 245.4 243.5 236 227.3 220.5 214.4 206.4 193.4 181.9 166.4 148.8 131.3 116.3 105.1 94.3 84.8 73.6 61 54.1 50.2 42.9 43.8 44.3 50.7 56.8 60.4 59.9 69.2 80.8 93.1 105.7 119.3 130.4 142.4 151.9 159.6 163 165.2 165.5 163 158.1 172.9 178.4 183.7 188 191.9 195.9 199.5 202.8 205.5 207.2 208.7 210.1 211.6 213.9 216 218.1 221.4 224.7 228.1 231.6 235.3 239.2 242.7 244 246.6 249.6 253 256 258.5 260.8 263.5 265 265.7 265.4 264 262.8 261.2 259.3 256.7 254.5
-1.1 -1.1 -1.1 -1.1 -1.1 -1.1 -1.1 -1.1 -1.1 -1.1 -1.1 -1.1 -1.1 -1.1 -1.1 -1.1 -1.1 -1.1 -1.1 -1.1 -1.1 -1.1 -1.1 -1.1 -1.1 -1.1 -1.1 -1.1 -1.1 -1.1 -1.1 -1.1 -1.1 -1.1 -1.1 -1.1 -1.1 -1.1 -1.1 -1.1 -1.1 -1.1 -1.1 -1.1 -1.1 -1.1 -1.1 -1.1 -1.1 -1.1 -1.1 -1.1 -1.1 -1.1 -1.1 -1.1 -1.1 -1.1 -1.1 -1.1 -1.1 -1.1 -1.1 -1.1 -1.1 -1.1 -1.1 -1.1 -1.1 -1.1 -1.1 -1.1 -1.1 -1.1 -1.1 -1.1 -1.1 -1.1 -1.1 -1.1 -1.1 -1.1 -1.1 -1.1 -1.1 -1.1 -1.1 -1.1 -1.1 -1.1 11.6 43.8 70.1 102.2 128.1 141.4 137.5 140.6 141.9 148.7 156.9 163.8 172.9 184.2 191.9 198.1 203.1 206.9 198.8 190 184.3 178.3 180.5 188.7 198.1 206.3 215.1 224.3 238.7 244.5 241.9 230.9 222.5 213.6 201.7 188 173.1 159.7 140.8 122.8 107.3 95.6 86.4 76.2 66.9 56.5 51.4 49.9 47.5 42.3 44.6 49.4 57.3 61.2 66.7 71.3 76.5 81.1 89.5 115.6 129.5 140.6 150.2 158.9 165.1 167.8 169.9 171.3 170.7 169.5 165 176.5 181.3 185.5 189.4 193.3 196.9 200.2 202.5 204.2 205.9 207.5 210 212.3 214.7 216.8 220 223.4 226.6 230.2 233.8 237.4 240.9 243.7 246.3 249 252.1 255.1 257.7 260.2 261.7 262.2 262.7 262.4 261.1 259.6 258 256.4 254.8 253
-1.1 -1.1 -1.1 -1.1 -1.1 -1.1 -1.1 -1.1 -1.1 -1.1 -1.1 -1.1 -1.1 -1.1 -1.1 -1.1 -1.1 -1.1 -1.1 -1.1 -1.1 -1.1 -1.1 -1.1 -1.1 -1.1 -1.1 -1.1 -1.1 -1.1 -1.1 -1.1 -1.1 -1.1 -1.1 -1.1 -1.1 -1.1 -1.1 -1.1 -1.1 -1.1 -1.1 -1.1 -1.1 -1.1 -1.1 -1.1 -1.1 -1.1 -1.1 -1.1 -1.1 -1.1 -1.1 -1.1 -1.1 -1.1 -1.1 -1.1 -1.1 -1.1 -1.1 -1.1 -1.1 -1.1 -1.1 -1.1 -1.1 -1.1 -1.1 -1.1 -1.1 -1.1 -1.1 -1.1 -1.1 -1.1 -1.1 -1.1 -1.1 -1.1 -1.1 -1.1 -1.1 -1.1 -1.1 -1.1 -1.1 -1.1 -1.1 36.8 63.6 99.6 125.3 136.1 131.2 133 142.7 152 159.8 169.4 177 184.6 192 199.1 204.1 207.8 203.6 189.1 181.5 175 176.3 184.4 193.5 201.3 210.6 219.9 234.4 240.5 236.5 225.2 212.7 199.2 181.6 165.3 151.2 134.1 114.6 97.6 83.7 75.4 69 61 52.6 48.1 47.9 46.3 40.9 41.7 46.6 56.2 63 69.9 76.9 85.2 92.7 99.8 100.5 109 133.8 146.6 155.2 162.4 167.6 170.9 173.2 174.5 174.5 174.3 173.1 169.8 177.5 182.8 186.7 190.8 194.2 197.5 199.4 201.2 202.9 204.8 208.3 211 213.3 215.4 218.6 221.8 225.2 229.1 232.8 236.4 239.9 243.3 246 248.6 251.3 254.1 256.9 259.4 260.1 259.4 259.6 258.9 257.8 256.6 255.1 253.6 252.2 251.2
-1.1 -1.1 -1.1 -1.1 -1.1 -1.1 -1.1 -1.1 -1.1 -1.1 -1.1 -1.1 -1.1 -1.1 -1.1 -1.1 -1.1 -1.1 -1.1 -1.1 -1.1 -1.1 -1.1 -1.1 -1.1 -1.1 -1.1 -1.1 -1.1 -1.1 -1.1 -1.1 -1.1 -1.1 -1.1 -1.1 -1.1 -1.1 -1.1 -1.1 -1.1 -1.1 -1.1 -1.1 -1.1 -1.1 -1.1 -1.1 -1.1 -1.1 -1.1 -1.1 -1.1 -1.1 -1.1 -1.1 -1.1 -1.1 -1.1 -1.1 -1.1 -1.1 -1.1 -1.1 -1.1 -1.1 -1.1 -1.1 -1.1 -1.1 -1.1 -1.1 -1.1 -1.1 -1.1 -1.1 -1.1 -1.1 -1.1 -1.1 -1.1 -1.1 -1.1 -1.1 -1.1 -1.1 -1.1 -1.1 -1.1 -1.1 -1.1 33.8 62.9 93.6 121.4 124.4 117.5 135.3 149.6 157.3 164 172.7 180.3 186.4 192.7 197.3 202.6 204.5 201 186.3 174.3 167 166.9 178.4 185.5 194 203.8 212.2 225.4 229.6 223.5 212.2 197.1 178.6 158.9 139.4 123.9 106.7 89.7 75.8 64 57 53.1 47.3 39.6 39.5 38.8 40.4 40.8 42.4 54 63.3 73.8 83.2 94.3 105.9 113.7 121.2 123.8 106.6 131.2 148.9 158.8 165.1 169.6 172.8 175.9 177.6 177.8 178.3 178.2 177.2 174.6 179.5 184 188.1 191.6 194.4 196.4 198.2 200.2 203 206.6 209.8 211.8 213.8 217 220.2 224 227.9 231.8 235.4 238.9 242.6 245.4 247.8 250.5 253.3 255.7 256.4 256 255.5 255.6 255.3 254.6 253.4 252.1 250.7 249.7 249.5
-1.1 -1.1 -1.1 -1.1 -1.1 -1.1 -1.1 -1.1 -1.1 -1.1 -1.1 -1.1 -1.1 -1.1 -1.1 -1.1 -1.1 -1.1 -1.1 -1.1 -1.1 -1.1 -1.1 -1.1 -1.1 -1.1 -1.1 -1.1 -1.1 -1.1 -1.1 -1.1 -1.1 -1.1 -1.1 -1.1 -1.1 -1.1 -1.1 -1.1 -1.1 -1.1 -1.1 -1.1 -1.1 -1.1 -1.1 -1.1 -1.1 -1.1 -1.1 -1.1 -1.1 -1.1 -1.1 -1.1 -1.1 -1.1 -1.1 -1.1 -1.1 -1.1 -1.1 -1.1 -1.1 -1.1 -1.1 -1.1 -1.1 -1.1 -1.1 -1.1 -1.1 -1.1 -1.1 -1.1 -1.1 -1.1 -1.1 -1.1 -1.1 -1.1 -1.1 -1.1 -1.1 -1.1 -1.1 -1.1 -1.1 -1.1 -1.1 31.1 58.7 87 104.1 98.9 123.3 136.9 150.2 161.5 168.3 175.1 181.8 188.5 192.6 196.4 199.3 199 193.6 180.5 158.2 157.9 162.2 172.9 178.8 186.7 195 203.7 212.3 213.6 205.2 192.5 174.7 154.3 134.2 113 97.8 83.2 69.5 56.5 48.9 45 40.2 37.2 37.5 36.9 38.4 42.6 44.8 52.1 61.3 75.9 86.3 101.6 113.4 125.2 135.4 138.4 139.9 132.1 130.7 153.9 161.8 167.3 171.8 175 178 180 180.7 180.9 181.1 181 179.5 179 180.7 185.6 188.9 191.3 193.6 196.1 198.6 201.3 204.6 207.8 210 212.2 215.4 218.9 222.8 226.8 230.7 234.9 238.6 241.5 244.3 247 249.7 251.3 251.9 251.8 251.4 251.2 251.3 251.3 250.6 249.3 248.2 247.8 247.7 248.8
-1.1 -1.1 -1.1 -1.1 -1.1 -1.1 -1.1 -1.1 -1.1 -1.1 -1.1 -1.1 -1.1 -1.1 -1.1 -1.1 -1.1 -1.1 -1.1 -1.1 -1.1 -1.1 -1.1 -1.1 -1.1 -1.1 -1.1 -1.1 -1.1 -1.1 -1.1 -1.1 -1.1 -1.1 -1.1 -1.1 -1.1 -1.1 -1.1 -1.1 -1.1 -1.1 -1.1 -1.1 -1.1 -1.1 -1.1 -1.1 -1.1 -1.1 -1.1 -1.1 -1.1 -1.1 -1.1 -1.1 -1.1 -1.1 -1.1 -1.1 -1.1 -1.1 -1.1 -1.1 -1.1 -1.1 -1.1 -1.1 -1.1 -1.1 -1.1 -1.1 -1.1 -1.1 -1.1 -1.1 -1.1 -1.1 -1.1 -1.1 -1.1 -1.1 -1.1 -1.1 -1.1 -1.1 -1.1 -1.1 -1.1 -1.1 -1.1 8.3 48.5 63.6 84.9 103.2 121.5 136 147.2 161.1 168 176.3 183.3 188.3 190.4 193.3 194.7 191.8 186 175.1 144.9 122.9 158.5 167.5 172.1 177 185.4 193.6 199 193.9 185.1 170 150.1 129.8 109 90.3 77.1 64 51.1 43.8 34.4 34.7 35.2 36.3 36.8 38.5 48.1 47.9 53 58.9 73.4 89.3 106.2 121.6 133.3 142.2 146.8 148.9 150.9 148.9 151.2 157.4 165.6 169.9 174.1 177.3 179.8 181.4 182.8 183.2 183.3 183.1 182.9 181.9 181.5 182.5 186.1 188.7 191.7 194.5 197.1 199.8 202.6 205.6 207.9 210.7 213.9 217.7 221.7 225.9 230 234.4 237.5 240.3 242.9 245.7 247 247.2 247.1 247.1 246.7 246.8 246.9 247.3 246.3 245.2 244.6 245.5 246.7 248.3
-1.1 -1.1 -1.1 -1.1 -1.1 -1.1 -1.1 -1.1 -1.1 -1.1 -1.1 -1.1 -1.1 -1.1 -1.1 -1.1 -1.1 -1.1 -1.1 -1.1 -1.1 -1.1 -1.1 -1.1 -1.1 -1.1 -1.1 -1.1 -1.1 -1.1 -1.1 -1.1 -1.1 -1.1 -1.1 -1.1 -1.1 -1.1 -1.1 -1.1 -1.1 -1.1 -1.1 -1.1 -1.1 -1.1 -1.1 -1.1 -1.1 -1.1 -1.1 -1.1 -1.1 -1.1 -1.1 -1.1 -1.1 -1.1 -1.1 -1.1 -1.1 -1.1 -1.1 -1.1 -1.1 -1.1 -1.1 -1.1 -1.1 -1.1 -1.1 -1.1 -1.1 -1.1 -1.1 -1.1 -1.1 -1.1 -1.1 -1.1 -1.1 -1.1 -1.1 -1.1 -1.1 -1.1 -1.1 -1.1 -1.1 -1.1 -1.1 -1.1 25.9 53.2 79.1 97.2 115 134.9 146.3 155.4 164.4 172.8 181.4 182.7 186.3 189 189.4 187.2 180.2 168.4 137.5 113.2 151.2 159.8 164.5 169.2 175.3 181.2 183.5 176.2 163.9 144.6 123.9 104.2 86.2 71.9 59.6 49.2 42 34.5 33.5 34.5 33 33.2 36.5 50.1 52.6 46.6 58.5 73.4 87.6 104.6 122.9 136.4 145.7 150.9 153.9 157.7 158.6 158.6 160 164.5 168.7 172.7 176.4 179.5 181.2 182.8 184.3 185.6 185.4 185.3 185.2 185.2 185.5 186.7 187.6 189.5 191.5 194 196.4 198.7 201 203.4 206 209.2 212.8 216.7 220.9 225.1 229.4 233.1 235.9 238.8 241.1 242.7 242.6 242.7 242.6 242.4 242.4 242.7 243 243.7 243.2 242.4 242.9 246 247.3 248.3
-1.1 -1.1 -1.1 -1.1 -1.1 -1.1 -1.1 -1.1 -1.1 -1.1 -1.1 -1.1 -1.1 -1.1 -1.1 -1.1 -1.1 -1.1 -1.1 -1.1 -1.1 -1.1 -1.1 -1.1 -1.1 -1.1 -1.1 -1.1 -1.1 -1.1 -1.1 -1.1 -1.1 -1.1 -1.1 -1.1 -1.1 -1.1 -1.1 -1.1 -1.1 -1.1 -1.1 -1.1 -1.1 -1.1 -1.1 -1.1 -1.1 -1.1 -1.1 -1.1 -1.1 -1.1 -1.1 -1.1 -1.1 -1.1 -1.1 -1.1 -1.1 -1.1 -1.1 -1.1 -1.1 -1.1 -1.1 -1.1 -1.1 -1.1 -1.1 -1.1 -1.1 -1.1 -1.1 -1.1 -1.1 -1.1 -1.1 -1.1 -1.1 -1.1 -1.1 -1.1 -1.1 -1.1 -1.1 -1.1 -1.1 -1.1 -1.1 -1.1 26.9 49.4 68.8 89 110.4 128.4 141.8 150 159.3 167.3 173.4 175 178 183.7 184.2 181.7 175 158.4 123.7 108.1 143.1 154.1 157.4 160.9 166.4 169.4 168.8 156.8 138.6 118.4 99.8 82.6 68.8 55.6 45.9 40.5 34.4 33.1 33.3 32.1 35.7 44.8 47.6 51.5 55.2 58.9 57.9 81.6 99.9 118.7 133 144.3 151.1 155.6 159.8 162.9 164 164.6 164.9 166.8 170.8 174.7 178.3 180.9 182.5 184.1 185.7 187.1 188 188.5 188.4 188.6 189.2 190.2 191.1 191.6 192.9 194.2 196.5 198.9 200.8 202.6 204.9 208 211.8 215.8 219.9 224.2 228.2 230.9 232.9 235 237.4 238 238.1 238.4 238.4 238.4 238.5 238.7 239.4 240.1 240.2 239.8 242.2 245.2 246.9 247.9
-1.1 -1.1 -1.1 -1.1 -1.1 -1.1 -1.1 -1.1 -1.1 -1.1 -1.1 -1.1 -1.1 -1.1 -1.1 -1.1 -1.1 -1.1 -1.1 -1.1 -1.1 -1.1 -1.1 -1.1 -1.1 -1.1 -1.1 -1.1 -1.1 -1.1 -1.1 -1.1 -1.1 -1.1 -1.1 -1.1 -1.1 -1.1 -1.1 -1.1 -1.1 -1.1 -1.1 -1.1 -1.1 -1.1 -1.1 -1.1 -1.1 -1.1 -1.1 -1.1 -1.1 -1.1 -1.1 -1.1 -1.1 -1.1 -1.1 -1.1 -1.1 -1.1 -1.1 -1.1 -1.1 -1.1 -1.1 -1.1 -1.1 -1.1 -1.1 -1.1 -1.1 -1.1 -1.1 -1.1 -1.1 -1.1 -1.1 -1.1 -1.1 -1.1 -1.1 -1.1 -1.1 -1.1 -1.1 -1.1 -1.1 -1.1 -1.1 -1.1 -1.1 38.3 58.6 82.6 103.5 120.6 134 144.6 153.1 159.8 163.8 166.1 168.6 175.1 175.7 173 166.7 150.7 114.6 104.4 135.4 146.1 148.7 154.1 156.5 156.6 150.2 133.3 114.2 96.9 80.5 65.3 53.4 42.9 37.4 32.5 31.7 32.5 32.6 34.3 43.6 45.6 50.6 57.8 65.9 71.6 70.9 68.9 88.2 115.9 138.9 147.6 154.3 159.8 163.4 165.8 167 168.2 168.6 169 172.4 176.1 179.9 182.2 183.9 185.6 187.2 188.6 189.9 190.4 190.8 192.1 192.6 193.4 194.2 194.4 195.1 196.3 197.5 198.7 200.4 202.1 204.1 207.3 210.8 214.8 218.9 223 226.2 227.4 229.1 231 233.1 233.3 233.7 234.1 234.5 234.5 234.6 235.7 236.4 237 237.5 238.3 239.9 242.8 245.7 247.8
-1.1 -1.1 -1.1 -1.1 -1.1 -1.1 -1.1 -1.1 -1.1 -1.1 -1.1 -1.1 -1.1 -1.1 -1.1 -1.1 -1.1 -1.1 -1.1 -1.1 -1.1 -1.1 -1.1 -1.1 -1.1 -1.1 -1.1 -1.1 -1.1 -1.1 -1.1 -1.1 -1.1 -1.1 -1.1 -1.1 -1.1 -1.1 -1.1 -1.1 -1.1 -1.1 -1.1 -1.1 -1.1 -1.1 -1.1 -1.1 -1.1 -1.1 -1.1 -1.1 -1.1 -1.1 -1.1 -1.1 -1.1 -1.1 -1.1 -1.1 -1.1 -1.1 -1.1 -1.1 -1.1 -1.1 -1.1 -1.1 -1.1 -1.1 -1.1 -1.1 -1.1 -1.1 -1.1 -1.1 -1.1 -1.1 -1.1 -1.1 -1.1 -1.1 -1.1 -1.1 -1.1 -1.1 -1.1 -1.1 -1.1 -1.1 -1.1 -1.1 -1.1 7.4 51.3 75.9 96.6 114.3 128.8 137.4 144.1 150.2 154.1 155.6 157.5 161.8 161.3 163.2 156.5 144.9 114.8 81.6 118.4 133.9 141.2 143.7 144.2 138.7 125.9 108 91 74.6 59.8 50.2 42.9 33.6 29.8 30.3 30.6 31.6 32.5 42.7 45 52.6 61.8 76.3 84.4 91.8 94.6 93.1 94.7 108.4 137 148.9 156 161.5 164.7 167.8 169.5 171.2 171.8 172.3 174.5 178.2 181 183.2 185.2 187.1 188.8 190.2 191.6 192.1 192.4 194.1 195.4 196.7 197.2 197.3 197.4 198.4 198.8 198.8 199.8 201.5 203.7 207 209.4 213.7 217.9 220.9 223.4 224.6 225.6 227.1 229 229.5 230.3 230.3 230.3 230.6 231.2 232.5 233.5 234.6 235.4 236.7 239.2 242.2 245.1 247.6
-1.1 -1.1 -1.1 -1.1 -1.1 -1.1 -1.1 -1.1 -1.1 -1.1 -1.1 -1.1 -1.1 -1.1 -1.1 -1.1 -1.1 -1.1 -1.1 -1.1 -1.1 -1.1 -1.1 -1.1 -1.1 -1.1 -1.1 -1.1 -1.1 -1.1 -1.1 -1.1 -1.1 -1.1 -1.1 -1.1 -1.1 -1.1 -1.1 -1.1 -1.1 -1.1 -1.1 -1.1 -1.1 -1.1 -1.1 -1.1 -1.1 -1.1 -1.1 -1.1 -1.1 -1.1 -1.1 -1.1 -1.1 -1.1 -1.1 -1.1 -1.1 -1.1 -1.1 -1.1 -1.1 -1.1 -1.1 -1.1 -1.1 -1.1 -1.1 -1.1 -1.1 -1.1 -1.1 -1.1 -1.1 -1.1 -1.1 -1.1 -1.1 -1.1 -1.1 -1.1 -1.1 -1.1 -1.1 -1.1 -1.1 -1.1 -1.1 -1.1 -1.1 26.2 48.7 70.2 88.2 108 122.8 129.8 135.2 140.5 144.2 145.3 145.4 147.5 149.3 148.7 145.6 133.8 105.3 74.4 109.8 125.6 130 131.2 127.5 116.2 102.9 83.9 67.2 50.2 40.3 39.8 39.6 28.1 28.9 29.9 30 30.1 41.1 45.8 54.7 68.1 82.4 96.1 107.7 118 119.4 118.2 117.7 109.3 125.5 149 157.2 162.7 166.2 169.2 172.1 173.7 175.1 175.6 176.6 179 181.4 183.6 185.8 188 190.1 191.8 193.2 193.8 194 196.1 197.4 198.7 199.8 200.1 200.3 200.2 199.8 199.5 199.1 200.8 203.6 206.3 207.9 211.8 215.6 218.6 220.7 221.8 222.8 223.8 224.9 225.8 226.7 226.9 227 226.9 228.3 229.8 231.7 232.7 233.1 235.5 237.4 241.4 245 246.8
-1.1 -1.1 -1.1 -1.1 -1.1 -1.1 -1.1 -1.1 -1.1 -1.1 -1.1 -1.1 -1.1 -1.1 -1.1 -1.1 -1.1 -1.1 -1.1 -1.1 -1.1 -1.1 -1.1 -1.1 -1.1 -1.1 -1.1 -1.1 -1.1 -1.1 -1.1 -1.1 -1.1 -1.1 -1.1 -1.1 -1.1 -1.1 -1.1 -1.1 -1.1 -1.1 -1.1 -1.1 -1.1 -1.1 -1.1 -1.1 -1.1 -1.1 -1.1 -1.1 -1.1 -1.1 -1.1 -1.1 -1.1 -1.1 -1.1 -1.1 -1.1 -1.1 -1.1 -1.1 -1.1 -1.1 -1.1 -1.1 -1.1 -1.1 -1.1 -1.1 -1.1 -1.1 -1.1 -1.1 -1.1 -1.1 -1.1 -1.1 -1.1 -1.1 -1.1 -1.1 -1.1 -1.1 -1.1 -1.1 -1.1 -1.1 -1.1 -1.1 -1.1 1.3 42.6 63.5 82.8 100.4 114.4 120.6 126.3 131 133.4 134.9 133.6 133.6 134.4 134.6 132.9 121.2 94.2 68.6 102.6 112.2 114.7 115.9 107.4 94.5 80.8 63.5 43.6 38.9 38.7 38.7 29.1 27.6 28.4 29.3 29.9 31.8 45.8 55.2 71.4 89.8 102 117.7 129.5 141.2 145.1 141.5 136.8 132.8 117.4 146.5 157.6 163.5 167.5 170.6 173.6 176.1 177.3 177.9 178.4 180.3 182.6 184.8 187 189.2 191.2 193 194.7 195.4 195.7 198.1 199.4 200.7 201.6 202.5 203 202.6 201.7 200.2 199.4 200.3 202.9 205 206.4 209.9 213.2 216 217.9 219 219.9 220.8 222 222.4 223 223.5 223.6 224.9 227.1 229.5 231.1 230.7 231.2 234.7 238.6 240.8 244.1 247.4
-1.1 -1.1 -1.1 -1.1 -1.1 -1.1 -1.1 -1.1 -1.1 -1.1 -1.1 -1.1 -1.1 -1.1 -1.1 -1.1 -1.1 -1.1 -1.1 -1.1 -1.1 -1.1 -1.1 -1.1 -1.1 -1.1 -1.1 -1.1 -1.1 -1.1 -1.1 -1.1 -1.1 -1.1 -1.1 -1.1 -1.1 -1.1 -1.1 -1.1 -1.1 -1.1 -1.1 -1.1 -1.1 -1.1 -1.1 -1.1 -1.1 -1.1 -1.1 -1.1 -1.1 -1.1 -1.1 -1.1 -1.1 -1.1 -1.1 -1.1 -1.1 -1.1 -1.1 -1.1 -1.1 -1.1 -1.1 -1.1 -1.1 -1.1 -1.1 -1.1 -1.1 -1.1 -1.1 -1.1 -1.1 -1.1 -1.1 -1.1 -1.1 -1.1 -1.1 -1.1 -1.1 -1.1 -1.1 -1.1 -1.1 -1.1 -1.1 -1.1 -1.1 -1.1 36.2 55.2 77.1 92.9 106.4 111.8 115.2 122 123.5 123.4 121.6 121 121.6 121.6 120.1 112.3 90.6 65.8 98.7 101.2 100.6 96.6 88.3 75.4 62.2 45 38.1 37.6 38 37.4 26.9 27 27.8 27.2 28.7 46.6 55.3 71.1 90.7 108.4 121 136.5 148.4 155.6 158.2 153.8 149.4 145.7 136 135.2 158.8 164.7 169.1 172.7 175.8 178.3 179.3 179.9 180.5 181.5 183.7 186 188.2 190.4 192.2 193.9 195.1 195.7 197.4 199.8 201.4 202.6 203.5 204.4 205.3 204.5 203.5 201.9 200.4 200.2 201.9 203.5 204.9 207.7 210.5 212.9 215 215.8 216.7 217.9 219.2 219.8 220.2 220.7 221.3 224.8 228.4 231 231.1 229.3 230 234.8 239.2 242.1 244.7 246.3
-1.1 -1.1 -1.1 -1.1 -1.1 -1.1 -1.1 -1.1 -1.1 -1.1 -1.1 -1.1 -1.1 -1.1 -1.1 -1.1 -1.1 -1.1 -1.1 -1.1 -1.1 -1.1 -1.1 -1.1 -1.1 -1.1 11.4 -1.1 -1.1 14.3 -1.1 -1.1 -1.1 -1.1 -1.1 -1.1 12.7 13.6 6 1 -1.1 -1.1 -1.1 -1.1 -1.1 -1.1 -1.1 -1.1 -1.1 -1.1 -1.1 -1.1 -1.1 -1.1 -1.1 -1.1 -1.1 -1.1 -1.1 -1.1 -1.1 -1.1 -1.1 -1.1 -1.1 -1.1 -1.1 -1.1 -1.1 -1.1 -1.1 -1.1 -1.1 -1.1 -1.1 -1.1 -1.1 -1.1 -1.1 -1.1 -1.1 -1.1 -1.1 -1.1 -1.1 -1.1 -1.1 -1.1 -1.1 -1.1 -1.1 -1.1 -1.1 -1.1 27.7 48.2 68.7 86.6 99.3 103.1 106.1 112.3 113.7 112.3 109.9 109.2 108.5 108.6 107.5 100.7 83.7 58.1 86.6 87.4 83.6 76.5 69.7 59.9 47.2 37.7 36.6 36.9 37 26.7 25.9 26.5 26.7 27.1 46.2 55.2 67.2 90.9 109.6 125.1 136.2 149.2 157.7 163.7 163.2 162.6 158.4 154.1 147.4 139.3 156.4 166.4 170.7 174.9 178 180.3 181.2 182.1 182.7 183.7 184.9 187.1 189.3 191.3 193.1 194.8 195.9 196.6 198.4 200.7 202.8 204.5 205.4 206.3 206.9 206.3 205.2 203.6 202.8 202.2 201.6 202.4 203.7 204.9 207.5 209.9 212.1 212.9 214 215.4 216.8 217.9 218.8 218.9 222.1 226.7 230.3 232.7 231.2 227.5 229.8 234.3 237.6 241.7 244.4 246
-1.1 -1.1 -1.1 -1.1 -1.1 -1.1 -1.1 -1.1 -1.1 -1.1 -1.1 -1.1 -1.1 -1.1 -1.1 -1.1 -1.1 -1.1 -1.1 -1.1 -1.1 -1.1 -1.1 -1.1 6.9 19.4 24.1 24.4 27 23.4 15.2 6.8 3.7 -1.1 -1.1 8.1 23.3 22.1 17 10.4 4.8 -1.1 -1.1 -1.1 -1.1 -1.1 -1.1 -1.1 -1.1 -1.1 -1.1 -1.1 -1.1 -1.1 -1.1 -1.1 -1.1 -1.1 -1.1 -1.1 -1.1 -1.1 -1.1 -1.1 -1.1 -1.1 -1.1 -1.1 -1.1 -1.1 -1.1 -1.1 -1.1 -1.1 -1.1 -1.1 -1.1 -1.1 -1.1 -1.1 -1.1 -1.1 -1.1 -1.1 -1.1 -1.1 -1.1 -1.1 -1.1 -1.1 -1.1 -1.1 -1.1 -1.1 -1.1 40.4 60.6 77.9 88.2 91.9 98.2 104 104.1 100.3 98.7 97.3 96.9 95.9 93.4 86.6 74.6 53.7 72.2 72.6 68.2 59.3 52.8 44.8 37.3 35.7 35.9 36.1 27.2 25.4 25.1 25.9 24.9 42.3 55 69.2 87.3 107.9 125 136.4 147.3 156.8 163.7 167.7 169.8 168.5 164 160.4 159.1 157.4 149.4 165 171.9 176 179.1 181.7 183 183.9 184.9 185.8 186.5 187.7 190 192 193.7 195.3 196.6 197.8 199.4 201.5 203.7 205.7 207.2 208.1 208.5 207.8 206.9 206.1 205.3 204.6 204 203.5 203 203.7 204.8 207 209.2 210.9 211.8 213.8 215.6 216.8 217.5 220.1 224.1 228.4 231.7 233.1 228.3 226.5 229.4 234 238.1 241.1 243.9 246.4
-1.1 -1.1 -1.1 -1.1 -1.1 -1.1 -1.1 -1.1 -1.1 -1.1 -1.1 -1.1 -1.1 -1.1 -1.1 -1.1 -1.1 -1.1 -1.1 -1.1 -1.1 -1.1 5.1 21.5 29 31.6 33.6 32.8 31.1 27.7 22.9 22.6 23.7 19.3 9.5 23.3 28.9 30.2 25 16.3 10.9 3.2 1.3 1.2 -1.1 -1.1 -1.1 -1.1 -1.1 -1.1 -1.1 -1.1 -1.1 -1.1 -1.1 -1.1 -1.1 -1.1 -1.1 -1.1 -1.1 -1.1 -1.1 -1.1 -1.1 -1.1 -1.1 -1.1 -1.1 -1.1 -1.1 -1.1 -1.1 -1.1 -1.1 -1.1 -1.1 -1.1 -1.1 -1.1 -1.1 -1.1 -1.1 -1.1 -1.1 -1.1 -1.1 -1.1 -1.1 -1.1 -1.1 -1.1 -1.1 -1.1 -1.1 33.3 51.6 67.9 78.4 85.1 89.8 92.6 94 91.9 87.4 85.2 83.8 83.8 82.2 78.2 67.5 49.4 58.5 59.3 55.4 47.5 44.3 35.2 34.6 34.4 33.4 25.1 24.7 24.3 24.4 31.5 44.1 54.8 71.9 89.1 106.9 122.5 135.4 145.4 154.6 162.1 168.9 172.4 174.1 172.5 169.7 166.8 166.1 166.8 164.5 160.1 172.9 176.7 180.1 182.8 184.8 185.7 187 187.8 188.6 189 190.6 192.6 194.1 195.6 197.3 199 200.6 202.4 204.5 206.6 208.3 209.8 210.1 209.6 209.2 208.5 207.7 207 206.6 206.2 205.8 205.2 205.1 206.6 208.3 210.2 212.1 214 215.8 216.1 218 220.3 224.1 228.8 231.1 229.5 223.4 224.6 229.3 234.5 238.8 240.5 242.8 245
-1.1 -1.1 -1.1 -1.1 -1.1 -1.1 -1.1 -1.1 -1.1 -1.1 -1.1 -1.1 -1.1 -1.1 -1.1 -1.1 -1.1 -1.1 -1.1 -1.1 8.3 15.7 24.6 30.2 34.8 38.1 38.1 37.2 34.6 32.9 30.3 30.5 31.9 25.7 23.7 29.4 31.9 33.8 28.9 20.1 14.7 7.8 6.4 4.3 -1.1 -1.1 -1.1 -1.1 -1.1 -1.1 -1.1 -1.1 -1.1 -1.1 -1.1 -1.1 -1.1 -1.1 -1.1 -1.1 -1.1 -1.1 -1.1 -1.1 -1.1 -1.1 -1.1 -1.1 -1.1 -1.1 -1.1 -1.1 -1.1 -1.1 -1.1 -1.1 -1.1 -1.1 -1.1 -1.1 -1.1 -1.1 -1.1 -1.1 -1.1 -1.1 -1.1 -1.1 -1.1 -1.1 -1.1 -1.1 -1.1 -1.1 -1.1 21.5 44.7 55.7 68.8 80.8 83.3 86.3 87.7 85.4 82 78 75.8 75.5 73.3 68.4 61.2 52 46.5 47.4 44.2 43.1 34.9 28.6 23 22.5 22.6 22.7 23.5 20.8 35.1 48.5 54.8 73.8 89.6 108.2 126.5 139.8 146.1 153.5 159.6 166.8 171.7 175.9 177.2 175.5 173.4 173.2 172 172.5 173.6 172.3 171.4 177.3 180.9 183.8 186.2 187.5 188.9 189.9 190.7 191.1 191.4 193.1 194.9 196.8 198.7 200.4 202 203.6 205.6 207.6 209 210.3 211.5 211.7 211.2 210.7 209.9 209.4 209.2 208.9 208.6 208.1 208.1 208.8 209.3 211.5 213.2 214.8 215.9 216 217.7 219.9 223.5 226.6 227.4 224.2 219.9 223.5 229.7 233.7 237.4 239.4 240.1 242.3
-1.1 -1.1 -1.1 -1.1 -1.1 -1.1 -1.1 -1.1 -1.1 -1.1 -1.1 -1.1 -1.1 -1.1 -1.1 -1.1 -1.1 -1.1 6.2 14.2 22.3 25.5 31.1 36.8 40.2 41.9 40.8 41.4 38.8 38.5 36.2 35.1 38.3 30.3 25.7 32.9 34 33.9 29.7 21.4 15.7 11.3 9.3 5.5 -1.1 -1.1 -1.1 -1.1 -1.1 -1.1 -1.1 -1.1 -1.1 -1.1 -1.1 -1.1 -1.1 -1.1 -1.1 -1.1 -1.1 -1.1 -1.1 -1.1 -1.1 -1.1 -1.1 -1.1 -1.1 -1.1 -1.1 -1.1 -1.1 -1.1 -1.1 -1.1 -1.1 -1.1 -1.1 -1.1 -1.1 -1.1 -1.1 -1.1 -1.1 -1.1 -1.1 -1.1 -1.1 -1.1 -1.1 -1.1 -1.1 -1.1 -1.1 8.1 35.6 50.2 60.7 74.2 79.5 81.2 82 83.2 83.7 79.3 75 67.3 62.5 56.8 53.8 48.5 39.2 38.2 35 32.8 22.8 20.5 20.9 20.9 21.5 22.5 22.9 38.6 52 64 77.9 90.7 110.6 128.2 143.5 150.3 154.5 158.9 164.7 170 175.4 178.4 179.7 179.2 177.9 177.8 177.4 177.2 177.5 177.6 175.2 177.9 181.6 184.9 187.3 189.4 190.9 192.1 192.8 193.2 193.4 194.2 196.1 198.1 200 201.8 203.4 205 206.7 208.2 209.5 210.8 212.3 212.8 213.2 212.9 212.2 211.8 211.4 211.3 211.2 211.1 211.1 211.7 212.5 213.3 213.8 215.4 215.7 215.9 217.8 218.9 221.5 222.3 222 218.6 219 224.4 228.5 232 235 237.1 238.7 238.8
-1.1 -1.1 -1.1 -1.1 -1.1 -1.1 -1.1 -1.1 -1.1 -1.1 -1.1 -1.1 -1.1 -1.1 -1.1 -1.1 -1.1 16.9 15 26.2 27.1 32.7 37.4 41.5 45.1 46.7 45.5 47.8 43.9 43.1 39.8 38.6 39.9 33.7 29.3 34.7 36.7 33.6 29.9 23.3 18.4 16.8 15.6 10.8 -1.1 -1.1 -1.1 -1.1 -1.1 -1.1 -1.1 -1.1 -1.1 -1.1 -1.1 -1.1 -1.1 -1.1 -1.1 -1.1 -1.1 -1.1 -1.1 -1.1 -1.1 -1.1 -1.1 -1.1 -1.1 -1.1 -1.1 -1.1 -1.1 -1.1 -1.1 -1.1 -1.1 -1.1 -1.1 -1.1 -1.1 -1.1 -1.1 -1.1 -1.1 -1.1 -1.1 -1.1 -1.1 -1.1 -1.1 -1.1 -1.1 -1.1 -1.1 -1.1 31.3 45.1 56.7 67.2 75.4 80.4 86.6 89.4 90.3 85.2 78.2 68.9 51.2 44.5 44.1 39.8 35.5 35.3 33.3 30.8 19.2 19.7 20.5 20.5 21.3 25.1 42.5 53.8 69.7 83.8 96.2 111.3 130.3 143.6 152.2 158 161.2 165 169 173.9 178 180.2 181.8 182.3 181.9 181.6 181.1 181.2 182.4 183.1 180.5 180 183 186.3 188.9 190.9 192.6 194.2 194.9 195.1 195.3 195.4 197.1 199.2 201.2 203.1 204.5 206.2 207.4 208.7 210 211.4 212.8 213.7 214 214.4 214.5 214.1 213.8 213.5 213.9 214.3 214.5 215 215.1 215.1 215 215.9 215.5 216 217.2 217.7 217.4 218.2 216.5 215.9 219.1 223.4 226.7 230.1 232.7 234.1 235 235.4
-1.1 -1.1 -1.1 -1.1 -1.1 -1.1 -1.1 -1.1 -1.1 -1.1 -1.1 -1.1 -1.1 -1.1 -1.1 3.4 3.9 24.6 27 30.6 32.8 38.6 41.8 47.1 52.7 51 49.7 48.9 46.7 45.3 43 41.4 40.7 36.8 32.7 36.8 38.7 33.3 29.3 24.9 20.5 21 25.3 23.4 11.3 -1.1 -1.1 -1.1 -1.1 -1.1 -1.1 -1.1 -1.1 -1.1 -1.1 -1.1 -1.1 -1.1 -1.1 -1.1 -1.1 -1.1 -1.1 -1.1 -1.1 -1.1 -1.1 -1.1 -1.1 -1.1 -1.1 -1.1 -1.1 -1.1 -1.1 -1.1 -1.1 -1.1 -1.1 -1.1 -1.1 -1.1 -1.1 -1.1 -1.1 -1.1 -1.1 -1.1 -1.1 -1.1 -1.1 -1.1 -1.1 -1.1 -1.1 -1.1 30.8 46.2 57.8 67.9 75.7 83.5 89.9 93.5 96.1 90.1 79.1 63.2 44.3 34.8 35.4 32.2 30.9 28.1 26.6 18.8 18.3 18.9 19.7 20.5 27 45.7 54.7 77.5 91.4 102.3 117.7 134.5 146.1 152.9 159.5 165.4 167.9 170.9 174.3 177.5 180 181.9 183.8 184.4 184.9 184.8 184.5 185.3 185.8 186.6 185.2 182.4 184.9 187.7 190.6 192.3 194.1 195.9 196.4 197 197.2 197.4 198.3 200.4 202.4 204.5 205.6 206.7 207.8 209.2 210.5 211.9 213.4 214.6 215 215.5 216 216.4 216.1 216 216.3 216 216.8 217.1 217 216.9 216.8 216.2 215.7 215.3 215.8 214.9 214.2 213.8 213.2 215.1 218.5 221.5 224.8 228 229.9 231.1 232.6 232.9
-1.1 -1.1 -1.1 -1.1 -1.1 -1.1 -1.1 -1.1 -1.1 -1.1 -1.1 -1.1 -1.1 1.7 22.8 19.1 22.9 27.6 30.4 32.6 37.8 42.7 45.2 51 54.4 54.6 52.9 51.2 48.9 46.2 44.2 42.2 41.3 39.2 35.1 39.8 41.2 34.2 30.1 29.1 24.4 24 27.3 28 21.4 5.7 -1.1 -1.1 -1.1 -1.1 -1.1 -1.1 -1.1 -1.1 -1.1 -1.1 -1.1 -1.1 -1.1 -1.1 -1.1 -1.1 -1.1 -1.1 -1.1 -1.1 -1.1 -1.1 -1.1 -1.1 -1.1 -1.1 -1.1 -1.1 -1.1 -1.1 -1.1 -1.1 -1.1 -1.1 -1.1 -1.1 -1.1 -1.1 -1.1 -1.1 -1.1 -1.1 -1.1 -1.1 -1.1 -1.1 -1.1 -1.1 -1.1 15.3 37.6 54.4 65.6 73.7 81.4 88.7 93.7 99.3 98.7 88 70.3 51.2 35.7 29.7 27.9 24.7 19 19.1 16.4 16.7 17.3 18.2 15.9 28.4 50.4 64.5 84.3 98.5 110.5 125.1 139.1 148.8 154.3 161.1 166.9 171.6 173.8 176.6 179.3 180.9 182.6 184.2 185.9 186.9 187.7 187.3 186.8 187.9 188.6 189.3 187.9 185.1 187.2 189.6 192 193.8 195.7 197.3 197.8 198.4 199 199.2 199.4 201.2 203 204.6 205.5 206.7 208.1 209.5 210.9 212.4 214 215.4 216.3 216.8 217.3 217.8 218 217.9 217.6 217.9 218.5 219.1 219.1 218.7 218.2 217.4 216.5 215.9 214.3 212.9 211.9 211.3 211.1 213.1 215.5 217.8 222.2 225 226.5 228 230.9 231.6
-1.1 -1.1 -1.1 -1.1 -1.1 -1.1 -1.1 -1.1 -1.1 -1.1 -1.1 -1.1 6.5 24.3 27.3 30.2 28.5 29.8 32.9 36.1 39.9 43.6 48.2 53.7 55.3 57.4 55.1 51.3 50 47.4 44.7 43.1 42.2 42 39.1 40.6 42.7 37 32.5 30.4 27.8 29.5 31.2 32.9 31.2 20.5 2.4 -1.1 -1.1 -1.1 -1.1 -1.1 -1.1 -1.1 -1.1 -1.1 -1.1 -1.1 -1.1 -1.1 -1.1 -1.1 -1.1 -1.1 -1.1 -1.1 -1.1 -1.1 -1.1 -1.1 -1.1 -1.1 -1.1 -1.1 -1.1 -1.1 -1.1 -1.1 -1.1 -1.1 -1.1 -1.1 -1.1 -1.1 -1.1 -1.1 -1.1 -1.1 -1.1 -1.1 -1.1 -1.1 -1.1 -1.1 -1.1 15.6 43.4 61.6 71.8 80.4 85.4 90.8 95.5 100 95.1 74.9 55.4 35.1 26.1 23.4 13.4 13.7 14.8 15.1 15.8 15.4 18 22.8 37 52.3 72.3 89.8 106.4 121.8 132.5 142.6 151 156.5 162.1 168.5 173.1 176.6 178.9 181.1 182.5 183.7 185.4 187 188.1 189 189.7 189.4 189 189.6 190.2 189.9 189 187.3 188.1 191.1 193.3 195.2 197 198.6 199.2 199.8 200.4 200.5 200.8 202.1 203.5 203.9 205.2 206.7 208.2 209.6 211.3 213.1 214.6 216 217.3 218.2 218.7 219.3 219.3 219.1 218.9 219.8 220.8 221.1 221.2 220.8 220.1 218.7 217.4 216.2 214.7 213.6 212.2 210.3 209.5 209.7 211 214.1 218.5 221 222.8 225.1 228.3 230.5
-1.1 -1.1 -1.1 -1.1 -1.1 -1.1 -1.1 -1.1 -1.1 7.3 14.7 19.5 10.4 30.6 31.5 33 33.4 35.7 36.2 38.8 41.3 46.7 52 54.6 57 58 57 51.8 50 47.4 45.6 44.9 45.8 45.9 42.7 42.5 43.8 39 35 33.2 32.5 37.1 36.4 37.6 37.1 31.7 22.1 -1.1 -1.1 -1.1 -1.1 -1.1 -1.1 -1.1 -1.1 -1.1 -1.1 -1.1 -1.1 -1.1 -1.1 -1.1 -1.1 -1.1 -1.1 -1.1 -1.1 -1.1 -1.1 -1.1 -1.1 -1.1 -1.1 -1.1 -1.1 -1.1 -1.1 -1.1 -1.1 -1.1 -1.1 -1.1 -1.1 -1.1 -1.1 -1.1 -1.1 -1.1 -1.1 -1.1 -1.1 -1.1 -1.1 -1.1 -1.1 21.1 45.3 62.8 72.5 81.7 86 89.6 94.1 93.7 76.8 57.6 38.2 22.9 18.3 12.5 12.6 13.2 14.1 14.9 15.2 18.3 29.9 45.2 56.8 78.2 96.8 114.4 127.9 137.3 144.1 151.9 157.4 163.7 169.4 174.8 178.2 180.9 183.2 185 185.9 186.8 188.2 189.3 190.2 191.1 191.8 191.4 191.1 191.2 191.6 191.3 191.1 190.9 190.3 192.4 194 195.7 197.3 199 200.3 201.2 201.9 202.2 202.5 203.4 204.8 204.6 205.7 207.1 208.6 210.2 212 213.7 215.3 216.7 217.9 219.2 220.2 220.6 220.5 220.4 220.8 221.8 222.8 223.4 223.8 224.4 223.1 222.1 220.6 218.9 217 214.8 211.8 209.7 207.7 207.9 208.6 210.1 213.5 216.6 219.2 223.4 226.3 228.3
-1.1 -1.1 -1.1 -1.1 -1.1 -1.1 -1.1 -1.1 -1.1 1.8 23.1 29.6 33.4 36.3 35.4 35.4 38.7 38.9 38.6 40.8 44.1 49.7 53.4 56.5 59.1 59.4 58.7 55.4 50.5 47.6 47.3 48.5 50.3 49.8 45.6 44.6 45 42.3 42.2 38.8 37.4 41 42.7 42.8 43 42.7 32.1 18.7 -1.1 -1.1 -1.1 -1.1 -1.1 -1.1 -1.1 -1.1 -1.1 -1.1 -1.1 -1.1 -1.1 -1.1 -1.1 -1.1 -1.1 -1.1 -1.1 -1.1 -1.1 -1.1 -1.1 -1.1 -1.1 -1.1 -1.1 -1.1 -1.1 -1.1 -1.1 -1.1 -1.1 -1.1 -1.1 -1.1 -1.1 -1.1 -1.1 -1.1 -1.1 -1.1 -1.1 -1.1 -1.1 -1.1 -1.1 24.8 45.7 63.1 73.2 82.2 84.5 83.2 86 76.7 58.1 40.4 25.4 14.6 12.3 11.1 12.2 13.2 13.9 11.7 19.6 36.9 46.8 65.8 83.5 101.9 119.8 132.4 139.4 146.7 152.5 157.7 163.8 170.5 175.6 179.7 182.4 185 187.4 188.4 189.3 190.2 190.9 191.4 192.3 193.2 193.9 193.5 193.2 192.9 193.3 193.2 193 192.6 192.2 192.9 194.4 196.1 197.9 199.8 200.8 201.8 202.7 203.8 204.1 204.7 205.4 205.9 206.5 207.9 209.4 211 212.7 214.4 216 217.3 218.6 219.9 221.1 221.8 221.8 221.7 222.7 223.7 224.7 225.6 226.2 226.9 227.4 225.6 223.9 222.4 220.3 217.2 213.2 209.7 207.8 206.2 206.5 208.3 209.4 212.5 217.7 221.8 224.7 226
-1.1 -1.1 -1.1 -1.1 -1.1 -1.1 -1.1 -1.1 -1.1 15 28.6 34.4 38.2 40.8 42.8 38.9 40 40.4 39.6 41.8 46 51 55.2 57.9 61 62.9 61.6 57.9 53 50.9 51.2 53.3 54.3 51.6 48.4 46.9 46.3 47.6 49.4 46.4 43.7 43.7 46.5 48.5 49.2 49.4 44.4 30.5 -1.1 -1.1 -1.1 -1.1 -1.1 -1.1 -1.1 -1.1 -1.1 -1.1 -1.1 -1.1 -1.1 -1.1 -1.1 -1.1 -1.1 -1.1 -1.1 -1.1 -1.1 -1.1 -1.1 -1.1 -1.1 -1.1 -1.1 -1.1 -1.1 -1.1 -1.1 -1.1 -1.1 -1.1 -1.1 -1.1 -1.1 -1.1 -1.1 -1.1 -1.1 -1.1 -1.1 -1.1 -1.1 -1.1 -1.1 10.7 46.2 62.8 72.4 78.8 77.4 71.7 68.6 57.3 40.4 25.5 13.6 10.3 10.6 11 11.9 9.2 11.2 19.8 35.7 44.4 67.1 86.1 104.4 122.6 138.1 143.9 148.7 152.9 158.2 164 170 177.1 179.8 183.3 186.5 189 190.7 191.7 192.7 193.5 193.7 194.1 194.5 195.3 196 195.7 195.4 195.1 195.2 194.5 193.9 193.4 193 193.6 194.9 196.9 198.8 200.4 201.4 202.3 203.3 204.3 205.3 206.1 206.7 207.3 208 209 210.3 211.9 213.7 215.4 216.7 217.8 219.1 220.4 221.7 222.5 223 223.7 224.6 225.5 226.4 227.4 228.3 228.9 229.5 229.1 227.4 225.8 223.1 220.1 216.1 211.9 208.7 207.1 206.2 206.8 207.8 209.2 215.5 219.9 222.6 224
-1.1 -1.1 -1.1 -1.1 -1.1 -1.1 -1.1 -1.1 -1.1 22.3 30.9 37.2 41.1 43.8 46.6 42.1 41.2 40.8 40.8 42.8 48.2 53 56.9 59.2 62.8 66.6 67.1 61.9 58.2 55.3 54.9 57.9 58.3 54.5 50 47.8 48.6 52.3 55.6 53.7 49.1 48 51.3 54.3 55.4 53.9 49.7 39.4 13.4 -1.1 -1.1 -1.1 -1.1 -1.1 -1.1 -1.1 -1.1 -1.1 -1.1 -1.1 -1.1 -1.1 -1.1 -1.1 -1.1 -1.1 -1.1 -1.1 -1.1 -1.1 -1.1 -1.1 -1.1 -1.1 -1.1 -1.1 -1.1 -1.1 -1.1 -1.1 -1.1 -1.1 -1.1 -1.1 -1.1 -1.1 -1.1 -1.1 -1.1 -1.1 -1.1 -1.1 -1.1 -1.1 -1.1 20 46.3 61.3 69.3 72.4 67.2 59 50.3 39.3 25.8 13.6 9 9.8 10.5 10.4 9.1 10.3 18.7 33.1 42.6 65.2 85.7 105.9 125.1 141.1 148.2 151.9 156 159.9 164.3 169.7 176.9 180.7 182.9 186.8 190.1 192 193.6 194.9 196.1 196.3 196.6 197 197.2 197.9 197.9 197.9 197.7 197.3 197 196.2 195.3 194.5 193.8 194.5 195.9 197.8 199.5 201.1 202 202.9 203.8 204.9 205.9 207.2 208.4 209 209.6 210.6 211.7 213.3 215 216.5 217.7 218.7 219.7 220.9 222.2 223.1 223.8 224.8 225.7 226.6 227.6 228.9 230.2 231 231.7 232.1 230.8 229.1 226.2 223.7 219.8 215 210.5 207.7 206.3 205.6 206.3 207.6 212.5 217.8 220.4 222.4
-1.1 -1.1 -1.1 -1.1 -1.1 -1.1 -1.1 -1.1 2.9 25.4 33.6 38.7 42 46.1 46.8 44.6 43.3 43 42.9 44.9 50.5 55.2 59.1 62.6 67.7 72.7 73.7 67.8 64.7 59.6 59.1 60.9 62 57.2 52.3 49.5 51.6 56.9 61 58.7 54.1 53.1 55.6 58.9 60.1 56.9 51.4 45.4 27 -1.1 -1.1 -1.1 -1.1 -1.1 -1.1 -1.1 -1.1 -1.1 -1.1 -1.1 -1.1 -1.1 -1.1 -1.1 -1.1 -1.1 -1.1 -1.1 -1.1 -1.1 -1.1 -1.1 -1.1 -1.1 -1.1 -1.1 -1.1 -1.1 -1.1 -1.1 -1.1 -1.1 -1.1 -1.1 -1.1 -1.1 -1.1 -1.1 -1.1 -1.1 -1.1 -1.1 -1.1 -1.1 -1.1 19.5 44 58.4 55.5 60.4 52.8 43.1 33.3 24.2 12.1 7.8 8.7 9.5 9.5 7.9 6.7 16.1 30.4 41.1 64.2 83 103.8 126.7 143.8 150.8 154.7 159.3 163.3 166.4 170.4 176 180.8 183.2 186.8 190 192.5 194.3 196.3 198.3 199.1 199.2 199.4 199.6 199.9 199.9 199.8 199.6 199.3 199.2 198.8 198 197.2 196.4 195.6 195.5 197.1 198.6 200.2 201.7 202.6 203.5 204.5 205.5 206.6 208.2 210 211.3 212.4 212.6 213.5 215 216.7 218.1 218.7 219.7 220.7 221.7 222.7 223.7 224.7 225.8 226.8 227.8 229 230.3 231.7 233.2 233.9 234.7 233.7 232.3 229.9 227.5 223.4 218 212.4 209 206.8 205.7 204.7 206.2 209.4 214.5 219 221.5
-1.1 -1.1 -1.1 -1.1 -1.1 7.5 7.9 4.4 9.8 29.6 34.8 39.8 43.8 45.8 47.1 46.3 44.1 44.6 44.3 46.6 53.2 58.8 65 69.9 75.4 80.5 76.7 70.5 67.9 63.1 64 66.6 65.2 61 55.6 52.5 53.4 59.7 64.8 62.1 57 56.6 59 61.8 61.9 58.7 52.1 44.6 25.8 -1.1 -1.1 -1.1 -1.1 -1.1 -1.1 -1.1 -1.1 -1.1 -1.1 -1.1 -1.1 -1.1 -1.1 -1.1 -1.1 -1.1 -1.1 -1.1 -1.1 -1.1 -1.1 -1.1 -1.1 -1.1 -1.1 -1.1 -1.1 -1.1 -1.1 -1.1 -1.1 -1.1 -1.1 -1.1 -1.1 -1.1 -1.1 -1.1 -1.1 -1.1 -1.1 -1.1 -1.1 -1.1 -1.1 17.9 41 54.3 47.4 42.6 38.4 30.3 23.3 9.8 6.7 7 8.2 8.3 5.7 6 12.2 27.4 39.8 59.2 79.5 99.8 122.1 145.6 156.1 160.1 163.7 166.7 170 173.8 177.7 181.2 184.3 186.7 189.8 193 195.3 196.8 199.1 201.7 202 202 201.9 202.1 201.7 201.5 201.3 200.6 200.5 200.4 200.1 199.6 199.2 198.5 197.7 197 198.4 200.2 201.2 202.3 203.2 204.2 205.2 206.2 207.5 209.3 211.7 213.9 215.4 215.3 217.2 218.4 219.4 219.8 220.1 220.4 221.4 222.5 223.5 224.6 225.6 226.7 228 229.6 231 232.4 233.9 235.4 236.7 237.3 236.3 234.7 232.7 229.3 224.8 219.4 214.2 210 207.3 206.2 204.9 204.6 206.6 211.6 216 220
-1.1 -1.1 8.3 7.4 17.2 20.1 20.7 10.1 21.4 32.5 37.9 42 44.6 46.8 48.6 47 45.2 45.5 46.3 48.9 56.2 65.7 71.7 77.4 83 84.1 79.6 72.8 70.4 68.2 66.1 68.7 67.9 66.6 60.7 53.5 54.7 61 66.2 64.4 59.8 60.1 61.5 63.2 61.9 58.5 52.9 46.2 36.1 -1.1 -1.1 -1.1 -1.1 -1.1 -1.1 -1.1 -1.1 -1.1 -1.1 -1.1 -1.1 -1.1 -1.1 -1.1 -1.1 -1.1 -1.1 -1.1 -1.1 -1.1 -1.1 -1.1 -1.1 -1.1 -1.1 -1.1 -1.1 -1.1 -1.1 -1.1 -1.1 -1.1 -1.1 -1.1 -1.1 -1.1 -1.1 -1.1 -1.1 -1.1 -1.1 -1.1 -1.1 -1.1 -1.1 15.6 38.2 48.4 40.9 27.7 26.5 17.6 4.9 5.6 6 6.3 7 4.7 7.7 11.3 23.8 35.9 51.9 73.3 93.1 115.6 140.8 159.2 165.1 169.2 170.2 172.7 176.5 179.8 182.5 185.1 187.9 190 192.6 195.6 198.1 199.8 202.4 204.3 204.7 204.6 204.5 204.4 203.6 202.9 202.2 201.8 201.7 201.6 201.3 200.9 200.4 200 199.5 199.5 201 201.8 202.1 202.8 203.9 204.9 205.9 206.9 209 211.3 213.7 215.9 217.9 219 219.9 220.8 221 221.1 221.4 221.9 222.2 223.2 224.3 225.5 226.5 227.7 229.7 231.4 233 234.5 236.1 237.6 239 239.8 238.5 235.9 232.8 229.1 224.9 220.1 215.6 211.2 207.8 206.4 205.3 204.4 205.6 209.1 214.2 217.6
22.5 22 22 24.4 26 30.8 28.1 22.7 28 36.2 40.9 44.2 46.5 48.7 50.5 49.3 47.6 49.1 53.6 54.9 62 72.3 77 82.8 85.6 85.4 81.4 76.3 74.5 74.1 71.6 72.6 71.9 70.4 65.5 55.2 55 60.7 67.1 66.2 62.5 62.6 64.1 64.1 61.8 58.4 53.8 48.5 39.2 20.2 -1.1 -1.1 -1.1 -1.1 -1.1 -1.1 -1.1 -1.1 -1.1 -1.1 -1.1 -1.1 -1.1 -1.1 -1.1 -1.1 -1.1 -1.1 -1.1 -1.1 -1.1 -1.1 -1.1 -1.1 -1.1 -1.1 -1.1 -1.1 -1.1 -1.1 -1.1 -1.1 -1.1 -1.1 -1.1 -1.1 -1.1 -1.1 -1.1 -1.1 -1.1 -1.1 -1.1 -1.1 -1.1 6.1 32.3 36.5 29.5 18.9 8.3 3.9 3.9 4.4 5.2 5.5 2.5 9 22.5 26.4 32.3 45 65.3 86.2 107.6 133.3 154.9 165.5 172.2 174.2 177 180 182.6 185.2 186.9 189.1 191.6 193.6 195.8 197.9 200.6 203.5 205.1 206.6 207.1 207.2 207 206 204.3 203.7 203.2 203.1 202.9 202.8 202.6 202.1 201.7 201.2 200.5 200.6 202 202.2 202.5 203.1 204.5 205.9 206.7 208.5 210.9 213.3 215.6 217.9 219.8 220.6 221.6 222.4 222.4 222.5 222.5 223 223.4 224.4 225.5 226.6 227.8 229.4 231.4 233.2 234.8 236.3 237.9 239 240.3 239.7 238.2 235.5 231.8 228 224.1 220.1 217.1 212.6 209 206.6 205.3 204.3 204.6 206.4 211.9 214.9
32 33 28 28.2 32.9 36.3 33.4 28.5 31.1 39.1 44.1 46.7 48.4 52.1 55.8 52.8 52 53.9 60.3 62.2 66.5 77.3 81.5 84.3 86.4 86.2 83 79.9 80 80.9 76.8 78.8 77.5 75.3 67.6 57.2 55.5 60.4 67.9 67.5 64.8 64.2 65.1 64.7 62.7 59.9 55.9 50.5 42.3 26.1 -1.1 -1.1 -1.1 -1.1 -1.1 -1.1 -1.1 -1.1 -1.1 -1.1 -1.1 -1.1 -1.1 -1.1 -1.1 -1.1 -1.1 -1.1 -1.1 -1.1 -1.1 -1.1 -1.1 -1.1 -1.1 -1.1 -1.1 -1.1 -1.1 -1.1 -1.1 -1.1 -1.1 -1.1 -1.1 -1.1 -1.1 -1.1 -1.1 -1.1 -1.1 -1.1 -1.1 -1.1 -1.1 -1.1 21.3 25.7 8.4 1.9 3.3 3.5 3.6 4 4.4 4 6.5 14 25.6 30.2 37.6 57.9 76.8 97.8 122.5 146.4 160.9 170.7 176.2 180.3 184.2 187.2 188 189.3 191.2 193.3 195.5 196.8 198.4 200.1 203.3 205.7 207.9 207.8 208.3 208 207.4 206 205 204.4 204.2 204.3 204.1 204 203.8 203.3 202.6 202 201.3 200.9 202.2 202.7 202.9 203.5 204.8 206.2 207.7 210.4 211.6 215.4 217.2 219.2 220.9 222.2 223.4 224.3 224 223.9 223.7 224.1 224.8 225.8 227.2 228.5 229.9 231.2 233.1 235.1 236.6 238.2 239.6 240.2 240.4 238.8 236.4 233.6 230.7 226.9 223.2 220.2 217.1 214.1 210.4 207.1 205.6 204.9 204.2 204.6 209.1 212
36.2 39 36.4 33.6 39.5 40.9 38.7 33.4 33.3 40.8 46.6 49.1 50.2 54.3 57.1 58.1 56.6 57.4 63.6 66.4 70.3 77.2 82 84.5 87.7 86.8 83.6 83.8 84.9 85.5 81.8 83 80.5 77.4 68.6 58 56.5 60.5 68.2 69.7 67 66.3 66.8 66.6 64.8 61.7 57.9 52.6 46.4 28.7 -1.1 -1.1 -1.1 -1.1 -1.1 -1.1 -1.1 -1.1 -1.1 -1.1 -1.1 -1.1 -1.1 -1.1 -1.1 -1.1 -1.1 -1.1 -1.1 -1.1 -1.1 -1.1 -1.1 -1.1 -1.1 -1.1 -1.1 -1.1 -1.1 -1.1 -1.1 -1.1 -1.1 -1.1 -1.1 -1.1 -1.1 -1.1 -1.1 -1.1 -1.1 -1.1 -1.1 -1.1 -1.1 -1.1 -1.1 -1.1 -1.1 -1.1 0.5 2.5 -1.1 -1.1 7.2 6.5 6.2 17.3 26.8 31.6 51.6 70.2 89.2 111.6 136.9 154.2 165.5 172.6 177.9 184.5 190.3 193.1 192.9 194.3 195.3 197.4 199.3 200.3 201 202.4 204.3 206.8 208.2 207.4 207.1 206.7 206.7 205.7 205.4 205 205.2 205.5 205.3 205.2 204.6 203.7 203 202.5 202 201.3 202 202.9 203.3 203.8 205.2 206.6 208.3 211.2 212.7 216.2 218.5 220.2 221.7 223.4 225.1 225.9 225.8 225 224.6 225.4 226.1 227.3 229 230.8 232.5 233.7 235.4 237 238.5 240 240.8 240.2 239.3 236.3 233.7 231.1 228.6 226 222.9 220.3 217.4 214.4 210.9 207.5 206 205.4 204.7 204.3 206.4 208.8
39.5 42.8 43.4 39.4 44.2 44.5 42.9 41.2 36.6 42.6 48.3 50.9 51.4 54.1 57.6 59.9 59.4 61.1 66.9 70.1 71.8 76.4 81.1 84.3 87.7 87.7 86.2 86.6 87.6 86.2 84.5 85.7 81.5 77.1 69.8 61.2 57.5 60.7 67.9 70.4 69.1 68.5 68.6 68.6 68 64.5 59 52.9 48.7 24.9 -1.1 -1.1 -1.1 -1.1 -1.1 -1.1 -1.1 -1.1 -1.1 -1.1 -1.1 -1.1 -1.1 -1.1 -1.1 -1.1 -1.1 -1.1 -1.1 -1.1 -1.1 -1.1 -1.1 -1.1 -1.1 -1.1 -1.1 -1.1 -1.1 -1.1 -1.1 -1.1 -1.1 -1.1 -1.1 -1.1 -1.1 -1.1 -1.1 -1.1 -1.1 -1.1 -1.1 -1.1 -1.1 -1.1 -1.1 -1.1 -1.1 -1.1 -1.1 0.7 -1.1 5.1 8.3 9.1 9.9 18 28.6 45 64.1 83.6 104.7 128.9 149 158.5 167.9 175.6 182.1 188.4 194.1 195.5 196.5 198.5 198.7 201.2 202.6 204.1 203.3 205.3 204.6 206.1 206.3 206.1 205.4 205 205.3 205.4 205 205.4 205.7 206 206.4 206.2 205.3 204.4 203.7 203.3 202.8 201.9 201.8 202.8 203.7 204.2 205.5 206.9 209.1 211.1 213.4 216.1 218.4 220.7 222.5 224.2 226 226.9 226.5 225.9 225.5 226.4 227.4 229.4 231.3 233.1 234.8 236.4 237.9 239 240.5 240.5 240.2 237.3 236.5 233.8 231 229 227.5 225.7 222.7 220.1 217.5 214.7 211 208.1 206.2 205.5 204.8 204.1 205 206
41.7 43.5 45.4 44.9 47.8 47.6 49.2 50.3 43.4 44.7 49.9 52.8 53.5 54.7 57.7 60.2 60.6 64.6 69 72.2 73.9 76.7 81.6 85.6 88.6 88.5 87.5 88.6 90.5 86.8 85.8 85.2 81.8 77.2 71 62.4 58.4 60.6 67 70.7 69.8 70.4 71.1 72 71.2 67.9 62 55.2 49.7 39.5 -1.1 -1.1 -1.1 -1.1 -1.1 -1.1 -1.1 -1.1 -1.1 -1.1 -1.1 -1.1 -1.1 -1.1 -1.1 -1.1 -1.1 -1.1 -1.1 -1.1 -1.1 -1.1 -1.1 -1.1 -1.1 -1.1 -1.1 -1.1 -1.1 -1.1 -1.1 -1.1 -1.1 -1.1 -1.1 -1.1 -1.1 -1.1 -1.1 -1.1 -1.1 -1.1 -1.1 -1.1 -1.1 -1.1 -1.1 -1.1 -1.1 -1.1 -1.1 -1.1 -1.1 7.1 8.3 9.3 12.1 24.4 38.5 59.7 79.9 100.9 123.9 143.6 156.4 162.6 171.5 178.1 185 191.7 196.4 199.4 200.8 202.1 202.6 204 205.4 204.6 204.6 205.4 203.8 204.5 204.5 204.1 203.5 203.4 203.6 203.8 204.2 205.3 205.9 206.4 207.1 206.9 206.2 205.6 205 204.3 203.7 203.1 202.4 202.7 203.6 204.4 205.2 206.7 209 211.1 213.3 215.7 218.2 220.4 222.5 224.6 226 226.4 226.4 226 226.1 227.5 228.8 231.2 233.6 235.4 237.1 238.9 240.3 240.7 240.7 240.7 237.4 233.5 233.2 231.3 229.5 228.1 226.7 225.1 222.5 219.9 217.3 214.4 210.9 207.8 206.2 205.6 204.9 204.2 203.5 203.6
44 44.7 46.6 48.1 49.8 50.9 54.8 54.2 49 48.1 52.3 54.2 54.2 55.2 58.6 61.8 63 68.2 70.8 73.6 76.6 79.8 84.8 88.8 89.9 89.3 89.1 89.4 91.2 87.7 85.8 84.3 81.6 77.2 71.6 63.6 59.4 61.7 65.7 69.8 70.6 72.9 74.2 75.2 73.9 71.2 64.6 56.8 50.7 42.1 24.3 -1.1 -1.1 -1.1 -1.1 -1.1 -1.1 -1.1 -1.1 -1.1 -1.1 -1.1 -1.1 -1.1 -1.1 -1.1 -1.1 -1.1 -1.1 -1.1 -1.1 -1.1 -1.1 -1.1 -1.1 -1.1 -1.1 -1.1 -1.1 -1.1 -1.1 -1.1 -1.1 -1.1 -1.1 -1.1 -1.1 -1.1 -1.1 -1.1 -1.1 -1.1 -1.1 -1.1 -1.1 -1.1 -1.1 -1.1 -1.1 -1.1 -1.1 -1.1 2.8 7.6 8.4 10.1 19.9 34.3 55.8 76.8 98.4 119 138 153.6 161.7 169.7 175.8 182.4 187.5 193.4 199.3 202.1 204 204.1 205.1 206.2 205.7 204 204.4 204.2 203.3 203.3 202.5 202.1 201.6 201.8 202 202.2 203.3 204.5 205.7 206.4 207 207.3 206.9 206.2 205.6 204.9 204.4 204.1 203.5 203 203.3 203.6 204.4 206.5 208.8 211.1 213.3 215.6 217.7 219.4 221.4 223.4 225.3 225.6 226.1 226.2 226.8 228.3 230.3 232.7 235.1 237.5 239.9 241.5 241.6 241.7 241.8 241.7 241.1 234.2 232.3 230.1 228.5 227.1 225.7 224.3 222.1 219.3 216.4 213.6 210.7 207.5 206.3 205.6 205 204.3 203.8 203.2
45 45.9 48.1 50.3 51.7 53.4 56.6 55.5 52.8 52.7 54.4 53.9 53.8 55.9 59.5 63 65.4 69.9 71.9 75.6 78.7 81.7 87.3 91.5 91.6 89.8 89.2 90.2 91 88.7 86.8 85.2 82.1 77.6 72.5 65.4 60.6 62.7 65.7 69.5 71.8 75.2 76.5 77.3 76.3 73.6 67 58.4 51.8 45.7 30.9 -1.1 -1.1 -1.1 -1.1 -1.1 -1.1 -1.1 -1.1 -1.1 -1.1 -1.1 -1.1 -1.1 -1.1 -1.1 -1.1 -1.1 -1.1 -1.1 -1.1 -1.1 -1.1 -1.1 -1.1 -1.1 -1.1 -1.1 -1.1 -1.1 -1.1 -1.1 -1.1 -1.1 -1.1 -1.1 -1.1 -1.1 -1.1 -1.1 -1.1 -1.1 -1.1 -1.1 -1.1 -1.1 -1.1 -1.1 -1.1 -1.1 -1.1 -1.1 2.4 8.1 9 18.1 24.8 52.1 73.3 95.5 117.4 136.4 149.3 159.9 169.2 175.2 178.3 182.4 187.6 194.4 200.6 203.1 205.4 205.4 205.4 205.3 203.6 202.6 202.9 202.2 201.8 201.3 200.7 200.3 200.3 200.6 200.8 201.3 202.5 203.8 205.1 206.1 206.7 206.9 207.1 206.7 206 205.4 204.9 204.6 204.3 203.9 203.8 203.2 204 206.3 208.6 210.8 213.1 215.4 217.5 219.2 220.8 222.5 224.4 225.1 225.5 226.2 227.4 228.8 230.5 232.9 235.8 238.2 240.6 242.1 242.5 242.6 242.8 242.9 242 238.9 234.9 230.5 228.5 227.1 225.6 223.6 221.4 218.7 215.9 213 210.1 207.5 206.4 205.7 205.1 204.8 204.6 203.9
44.7 47 49.5 52.3 54.3 57.7 58.8 57 55.6 56.8 54.5 53.8 54.7 56.9 60.5 63.1 65.1 70.2 73.5 77.4 80.7 83.6 88.3 92.2 91.7 91.2 90.4 90.9 91.3 91.1 89.7 86.5 83.3 77.7 74 67.1 62.3 63.6 66.3 69.9 73.2 77.2 78.8 79.6 78.1 75.6 70.1 60.5 52.7 45.2 32.8 -1.1 -1.1 -1.1 -1.1 -1.1 -1.1 -1.1 -1.1 -1.1 -1.1 -1.1 -1.1 -1.1 -1.1 -1.1 -1.1 -1.1 -1.1 -1.1 -1.1 -1.1 -1.1 -1.1 -1.1 -1.1 -1.1 -1.1 -1.1 -1.1 -1.1 -1.1 -1.1 -1.1 -1.1 -1.1 -1.1 -1.1 -1.1 -1.1 -1.1 -1.1 -1.1 -1.1 -1.1 -1.1 -1.1 -1.1 -1.1 -1.1 -1.1 -1.1 3.8 9.1 14.5 23.3 42.1 65.9 90 112.1 131.1 145.3 156 165.1 172.5 177.1 177.9 182.4 188.3 194.1 199.3 202.5 205.7 206.3 204.6 202.5 201.6 200.8 200.9 200 199.7 199.2 199 198.7 198.9 199.2 199.5 200.6 201.9 203.2 204.5 205.7 206.3 206.5 206.6 206.8 206.5 205.9 205.3 205 204.7 204.2 204.1 203.5 203.9 206 208.3 210.5 212.9 215.3 217.3 219 220.6 222.2 223.7 225.1 226 226.9 227.9 229.4 231.2 232.9 235.5 238.4 241.2 242.2 243.1 242.9 243 243.5 242.6 240.1 237.5 233.3 228.9 226.6 224.7 222.7 220.4 218.1 215.4 212.5 209.6 207.7 206.5 206.1 205.9 205.7 205.4 204.9
46.7 50.2 51.8 54.8 56.5 59.3 61.3 59.1 57.8 58.3 56.6 54.7 55.5 58.7 61.1 63.5 66 71 74.6 79 82.2 83.8 88.8 90.6 91.3 91.4 91.7 91.9 92.2 93.1 91.9 87 82.9 79.6 76.9 70.1 64 64.9 66.9 70.5 74.9 78.1 80.1 80.9 79.2 76.5 71.7 62.6 53.6 45.2 33.1 9.8 -1.1 -1.1 -1.1 -1.1 -1.1 -1.1 -1.1 -1.1 -1.1 -1.1 -1.1 -1.1 -1.1 -1.1 -1.1 -1.1 -1.1 -1.1 -1.1 -1.1 -1.1 -1.1 -1.1 -1.1 -1.1 -1.1 -1.1 -1.1 -1.1 -1.1 -1.1 -1.1 -1.1 -1.1 -1.1 -1.1 -1.1 -1.1 -1.1 -1.1 -1.1 -1.1 -1.1 -1.1 -1.1 -1.1 -1.1 -1.1 -1.1 -1.1 5.3 14 21.3 33.6 53.5 79.4 103.4 125.1 139.9 151.1 159 164.9 171.3 175.6 177.2 181.8 186.8 193.6 198.2 201.4 204.4 204.9 202.2 200.3 200.6 199.5 199.3 197.6 197 197.3 197.3 197.2 197.6 198.1 199.1 200.5 201.4 202.6 203.9 205.1 205.9 206.1 206.2 206.4 206.5 206.4 205.8 205.5 204.9 204.4 204.3 204.3 205.3 206.3 207.9 210.3 212.8 215.3 217.1 218.7 220.2 221.6 223 224.6 226.2 227.2 228.1 229.7 231.6 233.5 235.3 237.9 239.9 241.7 242.3 243.2 243.8 244.8 244.2 242.7 240.6 238.4 233.8 229.1 225.2 221.9 219.4 217.1 214.7 212 209.1 207.8 206.8 206.7 206.6 206.6 206.3 206.3
47.8 51.1 54.4 57.2 58.2 60.2 62.5 61.2 60.1 60 58 56.1 57.4 59.7 61.9 64.1 67.8 71.4 75.7 80.4 83.6 84.6 88.4 90.3 90.6 90.8 92.1 93 94.5 96.2 92.2 87.2 83.8 81 81.9 77.8 69.4 65.9 68 71.6 76.3 78.7 80.2 80.9 79.5 76.8 72 63.7 53.8 44.7 37.4 13.4 -1.1 -1.1 -1.1 -1.1 -1.1 -1.1 -1.1 -1.1 -1.1 -1.1 -1.1 -1.1 -1.1 -1.1 -1.1 -1.1 -1.1 -1.1 -1.1 -1.1 -1.1 -1.1 -1.1 -1.1 -1.1 -1.1 -1.1 -1.1 -1.1 -1.1 -1.1 -1.1 -1.1 -1.1 -1.1 -1.1 -1.1 -1.1 -1.1 -1.1 -1.1 -1.1 -1.1 -1.1 -1.1 -1.1 -1.1 -1.1 -1.1 0.9 8.5 19.2 22.8 39.8 63 87.8 112.4 132.4 142.7 152.1 158 162.5 169.6 172.8 176.7 181.3 187.2 193.7 197.6 200 202.4 203.6 199.8 199.4 198.6 198.4 196.9 195.3 195.2 195.4 195.6 196.1 196.6 197.2 198.9 200.6 201.6 202.5 203.5 204.5 205.6 205.7 205.8 205.9 206.1 206.2 206.2 205.7 205.1 204.6 204.4 204.3 205 206 207.2 209.9 212.7 215.2 216.3 217.4 218.8 220.4 223.1 224.9 226.2 227.1 228 229.8 231.5 233.2 234.8 237 239.3 241.3 242.7 245 246.4 247.2 245.9 244.7 243.5 240.9 237 232.6 227.2 223 219 216.2 213.8 211.3 209.1 207.9 207.3 207.2 207.8 208.4 208.6 208
48.3 52.5 55.3 58 58.6 60 61.8 60.7 57.4 60 58.9 58.4 60.4 61.3 63.6 65.5 68.6 73.1 78.5 82.3 84 84.9 87.7 89.8 90.4 91.3 92.7 93.9 97.3 98 92.1 86.8 83.3 82 83 83.6 74.7 67.9 69.2 72.9 76.8 78.1 79.2 79.9 79.1 77.5 72.4 65 54.9 45.1 34.8 15.8 -1.1 -1.1 -1.1 -1.1 -1.1 -1.1 -1.1 -1.1 -1.1 -1.1 -1.1 -1.1 -1.1 -1.1 -1.1 -1.1 -1.1 -1.1 -1.1 -1.1 -1.1 -1.1 -1.1 -1.1 -1.1 -1.1 -1.1 -1.1 -1.1 -1.1 -1.1 -1.1 -1.1 -1.1 -1.1 -1.1 -1.1 -1.1 -1.1 -1.1 -1.1 -1.1 -1.1 -1.1 -1.1 -1.1 -1.1 -1.1 -1.1 -1.1 8.5 17.7 22.1 47.4 71.2 93.8 118.7 135.7 143.4 152.6 155.9 159.4 166.9 171.2 176.2 180.7 186 191.5 195.6 198.8 200.7 200.8 198.8 198.2 197.4 196.8 195.2 194 193.6 193.8 194.5 195.1 195.7 196.9 198.7 200.6 201.8 202.7 203.7 204.6 205.2 205.4 205.6 205.7 205.8 206 206.2 205.7 205.3 204.8 204.5 204.4 204.5 205.2 205.8 208.5 212.3 214 215.2 216.2 217.4 220 223.2 225.3 226.3 227.3 228 229.3 230.9 232.6 234.3 236.1 238.4 241.1 244.4 247.2 249.6 250.3 249.2 247.9 246.4 243.2 239.5 235.2 230.7 225.9 220.9 216.6 213.9 211.4 209.5 208.8 208.9 209.2 209.8 210.6 211.1 209.2
49.1 52.8 56.7 57.6 58.7 60.2 61.7 61.1 60.5 60.1 59.4 59.6 63.7 64.6 65.9 68.2 69.8 72.9 78.9 82.5 84.7 85 87 89 89.6 90.2 91.7 94.5 97.5 97.1 92.6 88.6 84.3 81.3 81.6 86.2 78 70 70.4 74.6 76.7 77.5 78.4 78.9 78.5 76.7 71.8 65.5 55.2 44.8 35.9 29.3 -1.1 -1.1 -1.1 -1.1 -1.1 -1.1 -1.1 -1.1 -1.1 -1.1 -1.1 -1.1 -1.1 -1.1 -1.1 -1.1 -1.1 -1.1 -1.1 -1.1 -1.1 -1.1 -1.1 -1.1 -1.1 -1.1 -1.1 -1.1 -1.1 -1.1 -1.1 -1.1 -1.1 -1.1 -1.1 -1.1 -1.1 -1.1 -1.1 -1.1 -1.1 -1.1 -1.1 -1.1 -1.1 -1.1 -1.1 -1.1 -1.1 -1.1 1.9 16.3 23 53.3 78.4 100.3 123.1 138.1 144.1 151.1 154.2 156.8 163.4 169.6 175.1 179.2 184.7 189.3 194 196.9 197.9 198.4 197.7 196.2 196.3 195.2 193.6 192.3 191.9 192.5 193.6 194.2 195.1 196.9 198.6 200.4 202 202.9 203.7 204.3 204.8 205.2 205.3 205.5 205.6 205.8 206 205.7 205.3 204.8 204.7 204.8 205.4 206.2 206.5 208.2 211.3 212.6 213.9 215.8 217.7 220.5 223.6 225.7 226.6 227.3 228 228.9 230.4 232 233.7 235.5 238.6 242.4 246.2 249.8 252.6 253.5 252.6 251.5 249 245.1 241.5 237.8 233.5 228.8 223.9 219.7 216.2 213.4 211.6 211 211.3 211.5 211.7 212.5 212.5 209.8
50.1 54.8 59.2 59.4 59.2 59.7 61.2 62.3 61.6 61.3 60.2 60.7 66.6 69.8 73.7 75.4 74.4 75.3 79.5 82.4 84.5 85 86.4 87.9 88.8 89.3 91 94.1 96.7 95.7 92.6 90.1 85.7 80.5 80.1 85.6 80.6 71.7 72.4 75.4 76.6 77.5 78.2 78.6 77.8 75.7 71.1 64.9 55.3 44.3 36 19.3 -1.1 -1.1 -1.1 -1.1 -1.1 -1.1 -1.1 -1.1 -1.1 -1.1 -1.1 -1.1 -1.1 -1.1 -1.1 -1.1 -1.1 -1.1 -1.1 -1.1 -1.1 -1.1 -1.1 -1.1 -1.1 -1.1 -1.1 -1.1 -1.1 -1.1 -1.1 -1.1 -1.1 -1.1 -1.1 -1.1 -1.1 -1.1 -1.1 -1.1 -1.1 -1.1 -1.1 -1.1 -1.1 -1.1 -1.1 -1.1 -1.1 -1.1 -1.1 11.4 24.4 58.8 82.3 104.7 124.8 138.3 144.2 151.8 152.4 154.6 160.6 167.3 173.5 178.4 183 187.6 192.6 195.1 196.5 196.4 195.7 194.5 194.4 193.5 191.8 190.6 190.4 191.6 192.7 193.4 195.1 196.8 198.6 200.3 202.1 202.8 203.4 203.9 204.4 204.9 205.1 205.3 205.5 205.6 205.8 205.7 205.3 205.1 205.2 205.3 206.1 206.8 207.4 208.9 210.4 212.2 214.1 216 218.1 221.1 224.3 226.2 226.7 227.4 228 228.7 229.7 231 233 235.3 240 244.2 248.1 252.3 255.4 256.7 254.6 252.3 249.5 246.2 242.7 239.1 235.6 232 227.9 224.5 221.2 217.3 214.1 213.7 213.7 213.8 213.9 214.3 212.4 208.9
50.5 55.6 58.7 59.9 59.1 59.1 61.4 62.6 63.3 63.4 61.1 62.8 70.4 76.6 81.5 83.4 80.4 79.9 81 82.2 83.1 83.9 84.9 87.1 88.1 88.4 90.1 93 94.4 93.9 91.7 89.4 86.2 79.2 78.2 83.2 81.1 73.3 72.8 75.6 76.5 77.5 78 78.4 77 74.7 70.6 64.4 55.7 44.2 31.5 24.2 -1.1 -1.1 -1.1 -1.1 -1.1 -1.1 -1.1 -1.1 -1.1 -1.1 -1.1 -1.1 -1.1 -1.1 -1.1 -1.1 -1.1 -1.1 -1.1 -1.1 -1.1 -1.1 -1.1 -1.1 -1.1 -1.1 -1.1 -1.1 -1.1 -1.1 -1.1 -1.1 -1.1 -1.1 -1.1 -1.1 -1.1 -1.1 -1.1 -1.1 -1.1 -1.1 -1.1 -1.1 -1.1 -1.1 -1.1 -1.1 -1.1 -1.1 -1.1 12.3 21.8 59.8 83.7 104.8 119.7 132.6 141.4 149.2 149.2 153.4 159.4 165.7 172.6 177.3 183.1 186.6 191.7 193.8 195 195 194.1 192.8 192.3 191.5 189.8 189 189.1 190.5 191.7 193.3 195 196.8 198.5 200.3 201.5 202.4 203 203.5 204 204.5 204.9 205.1 205.3 205.5 205.7 205.7 205.4 205.5 205.5 205.5 206 206.5 207.6 209.1 210.8 212.4 214.8 216.8 219.1 222.4 225.1 226.5 226.8 227.5 228.2 228.5 229 230.2 232.1 236.5 241.4 245.7 249.3 253.3 256.6 257.5 255.2 252.9 250 247.2 244 240.8 237.7 235.4 231.6 229.7 226.5 222 217.3 215.5 215.2 215.1 215.2 213.8 211 206.7
51.6 56.3 59.2 59.6 59.1 59.3 62.1 63.8 65.1 65.4 64.7 69.5 76.9 85.3 89 89.3 85.6 83.5 81.3 80.7 81 82.2 83.9 86.3 87.8 87.6 89 91.6 92.6 92.2 90 87.7 85.4 79.1 76.6 79.8 80.5 74.4 73.2 75.7 76.1 76.6 77.1 77.1 75.8 73.5 69.6 63.4 55.4 43.9 35.1 29.2 22.8 -1.1 -1.1 -1.1 -1.1 -1.1 -1.1 -1.1 -1.1 -1.1 -1.1 -1.1 -1.1 -1.1 -1.1 -1.1 -1.1 -1.1 -1.1 -1.1 -1.1 -1.1 -1.1 -1.1 -1.1 -1.1 -1.1 -1.1 -1.1 -1.1 -1.1 -1.1 -1.1 -1.1 -1.1 -1.1 -1.1 -1.1 -1.1 -1.1 -1.1 -1.1 -1.1 -1.1 -1.1 -1.1 -1.1 -1.1 -1.1 -1.1 -1.1 8.8 25 54 81.2 101.4 114.7 126.5 137.6 146.3 144.4 150.3 158.2 164.2 171 177.2 180.6 186.4 190.9 193.1 193.4 193.7 192.5 191.3 190.4 189.4 187.8 187.5 188 190.3 191.4 193.2 195 196.7 198.4 199.7 200.8 201.7 202.5 203.1 203.6 204.2 204.8 204.8 205 205.2 205.4 205.6 205.4 205.2 204.9 205 205.6 206.2 207.7 209.3 210.8 212.4 214.9 217.4 220.4 223.8 226 226.8 227 227.7 228.1 228.4 228.6 229.7 233.2 238 242.9 245.3 249.5 253.7 255.9 256.5 255.4 253.9 251.4 248.8 246.1 242.9 240.3 237.9 235.2 232.9 228.8 222.8 218.1 215.8 215.1 215.1 214.1 212.4 208.1 203.5
53.7 57.2 59.2 60.1 59.7 60.3 61.1 63.2 64.9 66.3 70.2 77.3 83.2 89.1 90.4 89.5 86.4 82.2 80.6 80.1 80.8 82 82.7 85.6 87.4 87.5 89.5 90.8 91.4 90.6 88.3 86 84.5 79.1 75.4 76.8 78.5 75 73 74.6 74.9 75.4 75.9 76 74.5 72.1 67.7 62 53.6 43.3 33.7 27.2 20.2 1.6 -1.1 -1.1 -1.1 -1.1 -1.1 -1.1 -1.1 -1.1 -1.1 -1.1 -1.1 -1.1 -1.1 -1.1 -1.1 -1.1 -1.1 -1.1 -1.1 -1.1 -1.1 -1.1 -1.1 -1.1 -1.1 -1.1 -1.1 -1.1 -1.1 -1.1 -1.1 -1.1 -1.1 -1.1 -1.1 -1.1 -1.1 -1.1 -1.1 -1.1 -1.1 -1.1 -1.1 -1.1 -1.1 -1.1 -1.1 -1.1 -1.1 -1.1 21 33.1 70 94.1 111.9 124.5 137 145.5 137.6 149.3 156.1 163.6 170.4 176.3 180.7 186.6 190.3 192.3 193.1 192.5 191.4 189.8 189.1 187.1 185.6 185.7 188.2 190.4 191.3 192.7 194.5 196.5 198 199 200.1 201.1 201.8 202.8 203.7 204.3 204.6 204.5 204.5 204.7 204.9 205.1 204.9 204.6 204.3 204.6 205.4 206.7 208 209.3 210.9 212.4 215 218.2 221.5 224.9 226.5 227.1 227.2 227.8 228 228.2 228.3 230.2 234.6 239.1 243.1 245 248.3 251.3 253.6 255.4 255.4 254.1 253.1 250.7 248.2 245.3 242.9 240.2 237.2 234 229.6 224.1 218.7 215.7 214.4 214.3 212.9 209.6 205.7 200.7
53.5 57 59.1 59.2 60 62.1 63.3 63.7 65.5 68.3 73.4 80 86.2 89.7 89.6 88.9 86.2 81.9 80.4 80.1 80.2 82.5 83.3 85.4 88.9 88.2 88.8 89.9 90.6 89.2 86.3 84 82.1 79 75.1 75.3 76.5 74.8 73 73.7 74.3 74.6 74.9 74.9 73.1 69.7 66.3 60.6 52.9 43.1 33.1 26.8 15.8 7.3 -1.1 -1.1 -1.1 -1.1 -1.1 -1.1 -1.1 -1.1 -1.1 -1.1 -1.1 -1.1 -1.1 -1.1 -1.1 -1.1 -1.1 -1.1 -1.1 -1.1 -1.1 -1.1 -1.1 -1.1 -1.1 -1.1 -1.1 -1.1 -1.1 -1.1 -1.1 -1.1 -1.1 -1.1 -1.1 -1.1 -1.1 -1.1 -1.1 -1.1 -1.1 -1.1 -1.1 -1.1 -1.1 -1.1 -1.1 -1.1 -1.1 -1.1 12.9 30.2 59.9 88.6 106.5 120.5 136.5 140.7 129.2 145.3 154.2 162.5 168.8 174 180.9 186.7 189.4 191.5 191.8 192 189.9 188.2 185.9 184.4 183.6 185.8 188.4 190.1 191.1 192.5 194.1 196.6 197.8 198.6 199.5 200.4 201.6 202.7 203.7 204.3 204.4 204.3 204.3 204.2 204.5 204.6 204.3 204 203.8 204.5 205.9 207.2 208.6 209.9 211.2 212.7 216 219.3 222.7 225 226 226.6 227.2 227.3 227.3 227.2 227.9 231.3 235.3 239.4 242 244 246.1 249.2 252.2 253.6 254.6 254.2 253.4 252.4 249.9 246.8 243.9 240.9 237.8 233.9 229.2 223.4 218.1 215.3 214.2 213.4 210.3 206.5 203 199.1
53 56.9 59.3 59.6 60.2 63 65.2 66.5 67.8 70.3 74.7 80.2 85.5 87.3 87.4 86.8 84.8 81.2 80.4 80.2 80.5 83.6 83.4 84.6 90 90 88.4 89.3 91.1 88.1 84.3 81.8 80.4 79.4 75.5 74.6 76.1 74.6 72.7 73.4 74 74.3 74 73.5 71.6 68.2 63.3 59.1 52.5 43.1 31.4 25.9 23.3 18.3 6.6 -1.1 -1.1 -1.1 -1.1 -1.1 -1.1 -1.1 -1.1 -1.1 -1.1 -1.1 -1.1 -1.1 -1.1 -1.1 -1.1 -1.1 -1.1 -1.1 -1.1 -1.1 -1.1 -1.1 -1.1 -1.1 -1.1 -1.1 -1.1 -1.1 -1.1 -1.1 -1.1 -1.1 -1.1 -1.1 -1.1 -1.1 -1.1 -1.1 -1.1 -1.1 -1.1 -1.1 -1.1 -1.1 -1.1 -1.1 -1.1 -1.1 -1.1 26.9 51 76.1 100.7 115.9 128 129.1 127.2 141.9 151.2 160.2 167.4 174.6 180.3 184.7 187.8 190 191 190.9 188.5 186.1 184.3 183.4 182.2 184.7 187.2 189.3 190.9 192.2 194.4 196.7 197.6 198.5 199.5 200.7 201.5 202.6 203.7 204.1 204.2 204.1 204.1 204 204 204 203.7 203.1 203.5 205.1 206.4 207.7 209.1 210.4 211.7 213.3 216.8 220.3 223.2 224.9 225.5 225.8 226.1 226.2 226.2 226.4 228.1 231.7 234.4 238 240.3 242.4 244.4 247.4 250.7 252.3 254 254.8 254.5 253.6 250.4 247.4 244.5 241.2 237.2 233.3 228.7 222.9 217.9 215.2 213.7 211.3 207.2 203.4 200 197.2
53.3 56.3 58.4 59.6 61.2 63.8 66.1 68 69.2 71.3 74.9 78.4 83.2 84.8 85 85 83 81.6 80.2 80.3 80.6 81.7 81.7 83.1 88.3 90 88.4 88.6 91.1 88.3 84.4 81.2 80.1 79.3 76.4 76.1 76.1 75.6 73.3 73.4 73.4 72.9 72.5 72.1 69.8 65.3 61.2 57 51.9 43.6 33.5 26 22.4 18.3 6.9 -1.1 -1.1 -1.1 -1.1 -1.1 -1.1 -1.1 -1.1 -1.1 -1.1 -1.1 -1.1 -1.1 -1.1 -1.1 -1.1 -1.1 -1.1 -1.1 -1.1 -1.1 -1.1 -1.1 -1.1 -1.1 -1.1 -1.1 -1.1 -1.1 -1.1 -1.1 -1.1 -1.1 -1.1 -1.1 -1.1 -1.1 -1.1 -1.1 -1.1 -1.1 -1.1 -1.1 -1.1 -1.1 -1.1 -1.1 -1.1 -1.1 -1.1 20.6 34.3 64.4 89.1 106.7 113.2 107.2 122.7 136 149.2 157.8 166.3 173.5 177.6 182.6 185.6 188.1 189.1 188.4 185.4 184.2 182.4 180.5 180.7 183.5 185.8 188 190.2 192.3 194.7 196.6 197.4 198.7 200 201.2 201.7 202.5 203.6 204 204 204 203.9 203.7 203.4 202.8 202.4 202.2 203.9 205.5 207.1 208.2 209.1 210.2 211.6 214.6 218.3 221.1 223.1 224.6 224.9 224.8 225 225.1 225.4 227 228.6 230.7 232.7 235.3 237.5 239.9 242.2 246.2 249.2 251.8 254.4 255.5 255.7 253.9 250.8 247.3 243.8 240.3 236.3 232.1 227.7 222.6 218.1 214.7 212.6 208.8 204.3 201.4 199.2 199.7
54.1 57.2 60 61.2 62.3 64.9 67.4 69 69.9 71.5 73.2 75.1 82.5 83.4 82.8 82.9 82.1 80.2 80.5 80.6 80.6 81.1 81.5 81.8 86.2 89.3 88.1 89 89.8 87.7 85.7 81.7 79.9 79.9 78.2 77.1 77.1 75.2 74.1 74 74.1 73.2 72.4 71.4 68.4 64.5 60.4 56.2 51.1 42.5 34.1 26.1 22.6 12.9 5 -1.1 -1.1 -1.1 -1.1 -1.1 -1.1 -1.1 -1.1 -1.1 -1.1 -1.1 -1.1 -1.1 -1.1 -1.1 -1.1 -1.1 -1.1 -1.1 -1.1 -1.1 -1.1 -1.1 -1.1 -1.1 -1.1 -1.1 -1.1 -1.1 -1.1 -1.1 -1.1 -1.1 -1.1 -1.1 -1.1 -1.1 -1.1 -1.1 -1.1 -1.1 -1.1 -1.1 -1.1 -1.1 -1.1 -1.1 -1.1 -1.1 -1.1 -1.1 28.7 48.6 73.1 93 97 104.6 117 131.6 145.7 156 162.9 166.9 174.5 179.8 182.7 185.1 186.2 184.5 182.9 182.6 180.7 178.8 180.3 182.4 185 187.7 190.4 193.3 195.1 196.6 197.9 199.2 200.4 201.6 202.1 202.7 203.4 203.6 203.6 203 202.8 202.5 201.6 200.9 200.9 202.2 203.8 205.4 206.9 208.4 209.5 210.4 212.9 216.1 219.1 221.2 223 224.2 224.2 224.1 224.1 224.4 225.4 226.5 227.2 228.5 230.6 232.6 234.5 237.1 240.9 245.5 249.5 252.8 255.1 256.2 255.8 253.1 249.8 245.4 242.3 238.9 234.8 230.5 226 222.5 218.7 215.4 211.9 207.8 203.7 201.6 202 203.9
55.6 58.4 61 61.9 63.1 64.2 67.1 69.8 71.3 72.5 72.2 74.6 78.9 80.5 80.5 81.4 81.7 80.1 80.3 80.2 80.4 81.2 81.7 82 84.6 88 88.5 88.5 88.9 88.5 87.3 83 79.8 79.3 79.3 80.4 79.1 76.4 75.3 74.5 73.9 73.5 72.7 70.8 68.3 63.4 59.3 54.9 49.6 41.7 35 26.9 22.5 18.9 -1.1 -1.1 -1.1 -1.1 -1.1 -1.1 -1.1 -1.1 -1.1 -1.1 -1.1 -1.1 -1.1 -1.1 -1.1 -1.1 -1.1 -1.1 -1.1 -1.1 -1.1 -1.1 -1.1 -1.1 -1.1 -1.1 -1.1 -1.1 -1.1 -1.1 -1.1 -1.1 -1.1 -1.1 -1.1 -1.1 -1.1 -1.1 -1.1 -1.1 -1.1 -1.1 -1.1 -1.1 -1.1 -1.1 -1.1 -1.1 -1.1 -1.1 -1.1 -1.1 -1.1 36.8 55.6 73.7 81.7 94.6 109.7 127.5 141.7 151.2 157.9 163 170.4 175.3 180.4 182 182.8 181.9 180.5 180.1 179 177.4 179.2 181.6 184.4 187.1 189.7 192.6 194.7 196.9 198.3 199.6 200.9 202 202.6 202.9 203 203.2 203.3 202.8 202.2 200.5 199.7 199.8 200.8 202.2 203.6 204.9 206.4 207.8 209.3 210.7 213.4 216.2 218.8 220.8 222.5 223.3 222.7 222.6 222.6 223.4 224.3 225.1 225.1 226.1 228.2 230.2 233 237.3 241.4 245.6 249.9 253.2 255.4 255.4 254.2 251.6 248.9 244.4 240.2 236.2 232.6 229 225.7 222.5 219.2 215.9 212.1 208.7 205.8 204.9 206.1 206.6
56.3 57.3 58.9 60.6 62.5 64.5 68.4 71.5 71.2 71.6 69.9 73.4 76.3 79.6 79 79.2 81.4 81.4 80.4 80.2 80.5 81.2 82 82.7 84.4 86.7 88.7 88.2 88.1 88.4 86.5 83.2 79.7 79.3 80.5 82.4 81.4 78.4 76.4 75.3 74 73.7 72.9 69.8 66.6 61.6 58 53.9 48.8 41.8 35.3 27.2 23.1 8.9 -1.1 -1.1 -1.1 -1.1 -1.1 -1.1 -1.1 -1.1 -1.1 -1.1 -1.1 -1.1 -1.1 -1.1 -1.1 -1.1 -1.1 -1.1 -1.1 -1.1 -1.1 -1.1 -1.1 -1.1 -1.1 -1.1 -1.1 -1.1 -1.1 -1.1 -1.1 -1.1 -1.1 -1.1 -1.1 -1.1 -1.1 -1.1 -1.1 -1.1 -1.1 -1.1 -1.1 -1.1 -1.1 -1.1 -1.1 -1.1 -1.1 -1.1 -1.1 -1.1 -1.1 24.8 39.5 52.5 70.4 85.8 101.9 121.3 134.9 144.5 151.4 157.3 165.3 170.8 176.3 178.7 179.3 178.4 178.4 178.7 177.4 176.2 178.4 180.9 183.7 186.6 189.9 192.6 194.2 196.7 198.5 200 201.4 202.4 202.5 202.7 202.8 202.8 202.9 202.5 201 199.2 198.4 199.1 200.4 201.9 203.3 204.6 206.1 207.6 209 210.5 212.7 215.5 218.1 220.3 221.8 222 221.3 221.2 221.7 222.5 223.4 223.4 223.1 223.7 225.6 228 232.7 238.5 242 246.3 249 251.8 253.9 253.5 252.3 250.1 247.4 243.3 238.3 234.6 231.4 228.3 225.4 222.4 219.4 216.4 213.3 210.5 208.5 207.7 208.4 208.5
56.4 58.1 59.4 62.5 64.2 66.9 69.4 70.2 71 71.2 74.1 73.2 74.4 78.2 78.6 79.2 81.6 82.7 81.3 80.9 81 82.1 83.4 86.2 87.1 87.4 88.8 88 88.4 88.9 87.8 84.3 80.8 79.8 82.9 84.7 83.9 81.4 78.9 75.7 75.5 72.8 72.7 70.2 67.3 62.6 56.1 51.8 46.9 41.3 35 14.5 3.1 -1.1 -1.1 -1.1 -1.1 -1.1 -1.1 -1.1 -1.1 -1.1 -1.1 -1.1 -1.1 -1.1 -1.1 -1.1 -1.1 -1.1 -1.1 -1.1 -1.1 -1.1 -1.1 -1.1 -1.1 -1.1 -1.1 -1.1 -1.1 -1.1 -1.1 -1.1 -1.1 -1.1 -1.1 -1.1 -1.1 -1.1 -1.1 -1.1 -1.1 -1.1 -1.1 -1.1 -1.1 -1.1 -1.1 -1.1 -1.1 -1.1 -1.1 -1.1 -1.1 -1.1 -1.1 -1.1 24.6 43.3 61.5 77.3 94.4 113.3 126 135.7 145.3 153.8 159.5 166.9 171.5 174.3 175.3 175.6 175.8 176.1 175.6 175.9 178.1 180.4 184 187.9 190.6 192.6 193.6 196.3 198.6 200.2 201.6 202.2 202.3 202.4 202.6 202.6 202.6 201.8 200.1 198.5 197.7 198.4 199.7 201.4 203 204.3 205.8 207.3 208.8 210.3 212.4 214.8 217.4 219.7 221 220.6 220 220.3 221.1 221.7 222.5 221.7 220.8 221.4 223.7 228.6 234.7 239.1 242.3 245.4 247.7 250 251.1 250.9 249.8 247.9 245.3 241.7 237 233.6 230.5 227.5 224.5 221.6 219 216.8 214.6 212.6 210.4 210 209.7 208.8
56.9 57.7 61 64.8 66.8 68.3 70.5 73.4 73.2 72.6 73.3 74.1 73.3 74.7 76.2 78 81.8 84.8 84 81.9 81.6 82.2 87.3 90.1 91.7 88.7 88.5 89.7 92 92.7 90.3 86 83.9 83.9 84.1 85 84.6 83.7 81.7 76.9 76.2 76.1 75.7 72.8 66.5 62 56.3 51.3 45.3 41 24.9 8 2.5 -1.1 -1.1 -1.1 -1.1 -1.1 -1.1 -1.1 -1.1 -1.1 -1.1 -1.1 -1.1 -1.1 -1.1 -1.1 -1.1 -1.1 -1.1 -1.1 -1.1 -1.1 -1.1 -1.1 -1.1 -1.1 -1.1 -1.1 -1.1 -1.1 -1.1 -1.1 -1.1 -1.1 -1.1 -1.1 -1.1 -1.1 -1.1 -1.1 -1.1 -1.1 -1.1 -1.1 -1.1 -1.1 -1.1 -1.1 -1.1 -1.1 -1.1 -1.1 -1.1 -1.1 -1.1 -1.1 -1.1 27.2 51.3 69.4 86.1 103.2 116.4 126.8 137.9 147.4 154.3 161 166.6 169.9 171.6 172.4 173.2 173.5 174.1 175.6 178 180.7 184.7 188.2 190.4 191.5 193.3 196.5 198.5 200.4 201.8 202.1 202.2 202.2 202.4 202.4 202.1 201.3 199.9 198.3 197 197.8 199.2 200.7 202.4 204 205.5 207 208.5 210.2 212.3 214.4 216.8 218.4 219.8 219.4 218.9 220 221.3 221.8 221.4 219.2 218.5 219.9 224.1 230.7 236.5 239.6 242.1 244.2 246.4 248.2 247.8 247.7 247.1 245.1 242.9 240.1 236.6 233 229.7 226.7 223.7 221.8 220 217.3 214.8 212.9 211.3 210.4 209.9 209
57.5 59.6 64.7 68.4 71.4 73 72.9 74.3 75.2 75.4 75 76.6 74.2 75.5 77.4 79.5 82.8 86.9 87.9 84.6 82.6 83.2 87 92.1 95.4 91.7 89 90.9 93.9 96.4 93.5 88.3 86.3 85.3 84.5 84.3 84.4 83.6 82.3 78.1 75 76.4 76.5 73.5 65.3 61.2 56 51.3 46.2 39.7 22.7 8.8 5.1 1.1 -1.1 -1.1 -1.1 -1.1 -1.1 -1.1 -1.1 -1.1 -1.1 -1.1 -1.1 -1.1 -1.1 -1.1 -1.1 -1.1 -1.1 -1.1 -1.1 -1.1 -1.1 -1.1 -1.1 -1.1 -1.1 -1.1 -1.1 -1.1 -1.1 -1.1 -1.1 -1.1 -1.1 -1.1 -1.1 -1.1 -1.1 -1.1 -1.1 -1.1 -1.1 -1.1 -1.1 -1.1 -1.1 -1.1 -1.1 -1.1 -1.1 -1.1 -1.1 -1.1 -1.1 -1.1 -1.1 7.7 39.8 60.9 76.2 89.8 104.4 118.2 128.8 139.9 148.4 154.7 160.6 164.3 167.5 168.7 169.4 169.8 173.5 176 178.5 180.5 184.1 188.1 190 191.2 193.6 196.3 198.4 200.5 201.9 202 202 202.1 202.2 201.9 201.4 200.7 199.3 197.9 196.5 197 198.5 200 201.7 203.5 205.4 206.9 208.5 210.2 212.2 214.3 216.3 217.9 218.9 218.3 218.4 219.4 221.5 221.6 220.7 217.7 216.4 218 225 231.9 236.6 239.2 241.2 243.2 244.5 246.1 245.5 244.6 244.3 242.5 240.4 238.3 235.9 232.6 229.1 226.3 224.5 222.8 220.9 217.8 215 213.3 211.8 210.4 210.1 209.1
58.9 62.5 68.2 74.7 78 77.2 75 76.5 78.7 79.8 78.7 79.4 79.7 76.9 77.6 79.8 82.9 87.5 89.5 86.7 84 84.8 86 92.7 96.9 94.4 91.5 92.4 95.1 96 93.9 90.3 87.9 85.5 84.6 84.2 84.2 83.7 82 79.2 73.9 74.5 75.6 73.7 65.3 63.4 56.6 50 45.1 39.2 32.8 14.3 6.6 4.9 1 -1.1 -1.1 -1.1 -1.1 -1.1 -1.1 -1.1 -1.1 -1.1 -1.1 -1.1 -1.1 -1.1 -1.1 -1.1 -1.1 -1.1 -1.1 -1.1 -1.1 -1.1 -1.1 -1.1 -1.1 -1.1 -1.1 -1.1 -1.1 -1.1 -1.1 -1.1 -1.1 -1.1 -1.1 -1.1 -1.1 -1.1 -1.1 -1.1 -1.1 -1.1 -1.1 -1.1 -1.1 -1.1 -1.1 -1.1 -1.1 -1.1 -1.1 -1.1 -1.1 -1.1 -1.1 -1.1 21.9 47.5 63.2 76 95.4 109.1 121.3 132.7 142.3 149.9 154.9 160 163.7 164.8 166.2 170.7 174 176.9 179.6 181.5 184.7 187.9 189.7 190.9 194.1 196.8 198.6 200.5 201.8 201.8 201.9 202 201.8 201.2 200.6 199.9 198.7 197.1 195.7 196.3 197.9 199.4 201.1 203 205.2 206.9 208.4 210.1 212.2 214.3 216.4 218.1 218.5 217.4 216.5 219.5 222 222.5 220.9 216.4 214.8 218.3 225.8 232 236.3 237.8 239.8 241.6 242.6 244.1 243.6 242.6 241.7 241.1 239.7 237.3 234.3 232 228.6 226.5 225.4 223.8 222.7 218.3 215.1 213.6 212 210.6 210.1 209.3
63.3 66.4 74.3 77.7 81.6 81.4 78.3 79.3 83 82.2 81.6 83.8 80.3 78.1 78 79 82.6 86.7 90 88.5 86.2 85.1 85.9 91.9 96.9 96.7 93.5 93.1 93.7 95.2 93.2 90.9 88.7 86.4 84.8 84.3 84.2 83.6 81.9 79.4 73 72.3 72.9 71.2 62.8 62.9 56 49.5 45.3 39.5 35.8 30.1 9.1 6.5 4.7 1 -1.1 -1.1 -1.1 -1.1 -1.1 -1.1 -1.1 -1.1 -1.1 -1.1 -1.1 -1.1 -1.1 -1.1 -1.1 -1.1 -1.1 -1.1 -1.1 -1.1 -1.1 -1.1 -1.1 -1.1 -1.1 -1.1 -1.1 -1.1 -1.1 -1.1 -1.1 -1.1 -1.1 -1.1 -1.1 -1.1 -1.1 -1.1 -1.1 -1.1 -1.1 -1.1 -1.1 -1.1 -1.1 -1.1 -1.1 -1.1 -1.1 -1.1 -1.1 -1.1 -1.1 -1.1 11 32.6 53.4 68.7 86.9 100.8 113.2 124.6 135.6 144.4 149.9 155.4 157.3 161.9 165.8 170.4 173.7 177.1 180.1 181.6 184.9 187.9 189.5 190.6 194.2 196.6 198.5 200.1 201.2 201.7 201.7 201.7 201.2 200.5 200.1 199.4 197.6 195.8 195.1 196.3 197.6 199 200.4 202.4 204.7 206.8 208.4 210.1 212.2 214.4 216.5 218.3 218 216.2 216.1 219.1 222.3 222.6 219.8 215 213.5 219.6 225.9 231.8 235.2 236.6 238.5 239.8 240.8 242 241.6 240.7 241.4 241 239.6 236.7 233.4 230.4 228.1 227.3 226.7 217 216 215.8 214.5 213.3 211.9 210.7 210 209.2
68.5 71.4 75.6 80.6 83.7 83.7 82.2 81.8 83.3 82.6 84 83.2 83.3 80.8 80.3 80.3 81.4 85 90 89.3 87.3 86 87.5 90.2 95.7 97.2 95.9 94.5 95.4 95.2 93.4 91 88.7 86.8 85.2 84.5 84.3 83.6 82.1 79.4 70.7 68.7 68.8 61.9 64 62.4 55.6 49.2 44.5 39.8 36.7 31.3 24.9 10.1 6.6 3.8 1.6 -1.1 -1.1 -1.1 -1.1 -1.1 -1.1 -1.1 -1.1 -1.1 -1.1 -1.1 -1.1 -1.1 -1.1 -1.1 -1.1 -1.1 -1.1 -1.1 -1.1 -1.1 -1.1 -1.1 -1.1 -1.1 -1.1 -1.1 -1.1 -1.1 -1.1 -1.1 -1.1 -1.1 -1.1 -1.1 -1.1 -1.1 -1.1 -1.1 -1.1 -1.1 -1.1 -1.1 -1.1 -1.1 -1.1 -1.1 -1.1 -1.1 -1.1 -1.1 -1.1 -1.1 -1.1 20.1 43.6 59.5 77.2 91.8 105 116.7 127.7 137.8 145.1 148.6 156.7 161.1 165.3 169.4 173.3 176.6 179.3 181.8 185 187.8 189.5 191 193.9 196.5 198.1 199.4 200.5 201.5 201.6 201.2 200.5 199.8 199.4 198.7 196.3 195.1 195.4 196.7 198 199.3 200.3 202.1 204.3 206.4 208.3 210 212.2 214.4 216.4 217.3 216.5 215.6 215.6 217.8 220.4 220.5 216.1 212.7 214.1 219.4 225.4 230.9 233.4 235.3 236.9 238 238.9 239.9 239.6 240.1 241 240.6 239.4 236.1 232.8 229.4 227.3 226.3 224.7 220.6 216.5 215.4 214.8 213.5 212.1 210.6 209.8 209
70.8 71.2 76.8 83.2 85.2 84.8 84.2 84.3 85.8 84.9 83.5 83.6 83.9 84.4 83.2 81.4 83.1 85.4 89.2 90.1 88.2 88.3 89.7 90 94.6 96.9 97.3 97.1 97.6 96.1 93.8 91.6 88.8 87.3 85.8 84.5 84.5 83.8 81.9 77.6 68.4 64.4 65.1 58.3 62.1 60.2 55.4 51.1 46.4 43.4 40 35 30.9 24.1 15.8 7.1 5 3.1 0.8 -1.1 -1.1 -1.1 -1.1 -1.1 -1.1 -1.1 -1.1 -1.1 -1.1 -1.1 -1.1 -1.1 -1.1 -1.1 -1.1 -1.1 -1.1 -1.1 -1.1 -1.1 -1.1 -1.1 -1.1 -1.1 -1.1 -1.1 -1.1 -1.1 -1.1 -1.1 -1.1 -1.1 -1.1 -1.1 -1.1 -1.1 -1.1 -1.1 -1.1 -1.1 -1.1 -1.1 -1.1 -1.1 -1.1 -1.1 -1.1 -1.1 -1.1 -1.1 -1.1 7.7 36.3 48.3 67.1 82.3 96.5 109.2 121.8 131.9 139.4 144.7 151 159.9 164.7 169.3 173.2 176.7 179 182 185.2 187.6 189.5 191.1 193.4 196 197.5 198.7 199.8 200.9 201.1 200.4 199.7 199.1 198.4 196.9 194.6 194.9 196.1 197.2 198.2 199.1 200.1 202 204.1 206 207.8 209.4 211.5 213.7 215.1 215.1 214.7 213.8 214.4 216.7 219.1 216.8 212.6 210.8 213.8 218.5 224.1 229.5 231.8 233.9 235.3 236.2 237.1 238 238.9 239.9 240.8 240.9 239.2 235.9 232.5 228.8 226.1 224.1 222.1 218.9 216.7 215.1 214.6 214 212.6 211.1 209.7 208.7
74.3 72.7 76.7 83.8 85.3 85 85.5 84.8 85.8 86.1 85.1 84.9 86 85.2 85.4 84.3 86.2 86 89.6 91.9 90.3 89.8 90.7 91.5 93.3 96 97.3 96.3 96.7 95.6 94.1 91.8 89 87.2 85.3 84.5 84.7 83.6 81 75.4 67.2 59.9 61.5 56.3 61.1 59.1 55 50.6 47.4 43.9 42.5 42 37.3 27.5 20.8 15.8 8.8 5.9 2.9 0.6 -1.1 -1.1 -1.1 -1.1 -1.1 -1.1 -1.1 -1.1 -1.1 -1.1 -1.1 -1.1 -1.1 -1.1 -1.1 -1.1 -1.1 -1.1 -1.1 -1.1 -1.1 -1.1 -1.1 -1.1 -1.1 -1.1 -1.1 -1.1 -1.1 -1.1 -1.1 -1.1 -1.1 -1.1 -1.1 -1.1 -1.1 -1.1 -1.1 -1.1 -1.1 -1.1 -1.1 -1.1 -1.1 -1.1 -1.1 -1.1 -1.1 -1.1 -1.1 -1.1 26.9 46 56.8 72.2 87.6 100.7 111.9 122.3 123.4 146.5 154.8 159.8 164.3 168.8 173 176.9 180.1 182.5 185.7 187.6 189.4 191.2 193.5 196 198.1 199.5 200.5 200.5 200.3 199.6 198.8 197.9 197 195 193.5 195.1 196.4 197.3 198.2 199 200 201.7 203.6 205.4 207.2 208.9 210.7 212.8 213 212.6 212.4 212.5 213.3 215.4 216.6 213.7 209.6 209.5 213.3 217.8 223.2 228.2 230.8 232.8 234.5 235.5 236.4 237.7 239.2 240.6 242.4 241.3 239.1 236.2 232.5 228.4 225.2 222.4 220.3 218.2 215.8 214.5 214 213.4 212.9 211.4 209.9 208.5
