ncols 200
nrows 86
xllcorner 430000
yllcorner 242550
cellsize 50
84.1 83.5 82 79.4 77.3 77.7 78.1 78.8 78.9 79.1 79.4 79.5 79.6 79.4 79.7 79.6 80.3 80.7 82.4 84 84.5 84.2 83.8 83.5 83.2 83.3 83.3 83.1 83.7 85.3 86.5 88.1 89.4 91.4 92.9 94.8 95.9 96.2 96.6 96.3 96.7 97.3 97 96.6 96.1 96.6 98.5 99.7 100.4 101 101.7 102.5 103.3 104.1 105 106 106.8 107 106.6 106.2 105.7 106.3 105.9 106.4 106.3 106.2 106.2 106.2 106 105.7 105.8 105.2 104.7 104.2 103.7 102.8 102 101.4 100.8 100.3 100.1 99.8 99.5 99.2 98.8 98.5 98.6 98.2 97.4 98.5 99 99.9 100.2 100.6 101.4 102.2 102.9 103.2 103.7 104.3 105 105.5 106.6 108.6 109.2 108.8 109.2 110.2 111 112.1 112.7 113.3 115.6 117.7 117.6 116.6 118.9 119.9 121.4 123.3 125.9 131.7 137.2 140.3 141.2 144.5 145.9 149.6 155.8 162.7 168.6 172.6 176.3 180.5 199 209.2 211.6 212.9 213.7 208.8 209.3 209.3 209 208.6 214 212.8 211.7 206.1 194.6 187.6 184.4 179.4 181.6 188 194.2 196.5 200.5 203.9 202.7 194.5 185.2 184.2 186.8 192 195.7 190.9 183.1 176.1 169.1 162.4 157.9 155.8 154.1 154 153.5 153.3 153.2 152.2 151.4 150.5 149.3 147.9 146.9 145.8 144.7 144.1 143.5 142.2 141.7 141.8 141.2 140.7 141.6 141.3 140.4 140.7 140.9 141.7 142.6 143.7
84.3 83 81.3 79.1 78.7 79.2 78.8 79.7 80.5 81.1 81.4 81.7 81.4 81 80.1 79.9 80.1 81 83.6 85 85.5 85.6 85.2 84.8 84.4 84.3 84.3 84.2 84.3 83.6 84.4 85.7 87.1 88.8 90.5 92.4 92.7 94.1 94.4 94.5 94.5 94.6 94.5 95.2 94.7 96.3 97.4 98.4 99 99.4 99.9 100.5 101.3 102 102.6 103.4 104.4 105.1 105 104.6 104.1 104.2 104.9 105.3 105.8 105.8 105.8 105.8 105.8 105.8 106.1 105.8 105.2 104.6 104 102.9 102 101.4 100.8 100.3 99.9 99.6 99.3 98.8 98.5 98.9 99.1 98.9 98.6 99.1 99.9 100.3 100.7 101.5 102.2 103.1 103.8 104.3 104.9 105.1 105.6 106.2 106.6 108.5 108.7 109.4 110.1 111.5 112.1 113.3 114.2 114.7 117.7 120.7 119.4 117.7 119.4 122.2 124.7 128.4 129.7 132.4 137.5 141.5 146.3 151 154.6 158.6 163.5 169.6 175.1 178.5 182.1 199.5 209.5 211.8 212.6 213.5 214 214.5 214.8 214.5 208.4 212.5 212.1 208.9 199.2 192.5 186.3 181.7 179.6 176.7 177.3 180.7 184.3 185.8 190.3 196.3 199.4 192.4 183 177.9 179.1 184.6 190 186.3 179.9 173.6 166.7 160.5 156.6 154.6 153.8 152.2 152.2 151.8 151.4 150.7 149.8 148.8 147.7 146.7 145.9 144.8 143.4 143.7 142.7 143 142.5 142 141.3 140.1 139.2 139.9 139.7 139.6 139.7 140 140.7 141.3
83.5 82.2 80.5 78.5 79.3 80.3 79.9 81 82.5 83.6 83.6 83.5 83.3 82.9 81.5 80.4 80.3 81.3 82.9 84.4 85.3 85.8 85.9 85.6 85.4 85.3 85.2 85.1 85 84.7 84.5 84.5 85.2 86.9 88.4 89.5 90.6 91.6 91.8 91.9 92.4 92.4 92.6 93 94.2 95.6 96.4 97.1 97.6 98 98.4 98.9 99.3 100 100.7 101.5 102.1 102.6 102.7 102.2 102 102.3 103.7 104.4 104.9 105.2 105.4 105.4 105.3 105.8 106.3 106.4 106.1 105.3 103.9 102.8 101.9 101.2 100.7 100.9 99.8 99.3 99.3 98.7 99 99.2 99.3 99.2 99.1 99.7 100.4 100.8 101.5 102.3 103.1 104 104.7 105.4 105.4 106 106.4 106.7 107.2 107.6 108.3 109.5 110.5 112.5 113.5 114.4 115.6 116 118.2 120.6 120.4 120.1 121.1 123.7 129.1 134.4 135.9 137.6 143.6 148.6 153.6 157.3 161.7 164.1 170.2 173.9 178.8 187.2 203.4 210.7 212.1 212.9 213.5 213.9 214.3 214.6 214.6 214.3 213.1 210.8 203.4 197.2 189 184.3 179.8 175.6 173.2 172.8 173.3 175.6 177.9 178.1 181.6 186.1 189.7 186.8 180.4 173.8 174 179.2 182.5 179.3 174 167.3 162.6 157.9 155.4 153.8 153 152.1 150.5 150.8 150.2 149.2 148.3 147.5 146.4 145.5 145 144.9 144.9 144.5 144.2 144.1 143.8 143.2 142.5 141.3 140.9 140.5 140.1 139.4 138.7 138.8 139.4 140
82.6 81.4 80.8 80.1 80.6 81.1 81 81.5 83 84.3 84.7 84.9 84.8 84.5 83.2 81 80.8 81 82.5 84 85.5 86 86.3 86 85.5 86.2 86.1 86 85.9 85.7 85.5 85.3 85.5 85.4 85.9 87.4 88.4 89.4 89.7 90.2 90.8 90.9 91.7 92.4 93.7 94.7 95 95.8 96.3 96.6 97 97.4 97.9 98.5 99 99.7 100.4 100.4 100.2 100 100 100.9 102.4 103.5 104 104.5 104.7 104.9 104.9 105.5 106.3 106.9 106.7 105.3 103.7 102.7 101.8 101 100.9 100.5 99.4 99.1 98.7 98.9 99.2 99.4 99.3 99.5 99.7 100.2 100.9 101.5 102.1 103 104.1 104.8 105.6 106.1 106.6 106.9 107 107.7 108.9 109.5 109.8 110.1 110.8 113 113.9 115.6 116.5 117.2 118.6 120.4 120.8 121.5 123.7 126.5 129.9 136.4 141.5 145.9 150.4 154.4 161.1 163.6 166.4 170.2 175.2 179.2 192 207.4 211.7 212.9 213.2 213.7 214.3 214.5 214.5 214.6 214.4 214 212.3 209.5 201 193.9 189.4 185.2 181.6 179.2 176 172.7 170.1 170.2 171.3 172.4 174.4 177.6 179.8 177.9 173.5 169.6 168.2 172.9 174.9 171.5 166.1 162.2 158.6 156.4 154.1 152.6 151.9 151 150.1 150.1 149.3 148.7 146.5 147.3 146.9 146.5 146.4 146.6 146.6 146.3 145.9 145.5 145 144.5 143.1 142.5 142.3 141.7 141.2 140.2 139.6 138.8 137.2 138
82.5 81.8 81.1 81.5 81.9 82.4 82.5 82.4 83 84 84.8 86 86.6 86.4 84.6 81.8 80.8 81.1 83 85.1 87 86.6 86 85.5 85.9 86.9 87 87 86.9 86.6 86.5 86.3 86.1 86 86.1 86 86.1 87.6 88.2 88.7 89.3 89.6 90.6 91.7 92.7 93.9 94.3 94.4 95 95.3 95.5 95.9 96.5 97 97.6 98.1 98.7 98.9 98.9 98.7 98.7 99.4 100.9 102.4 103.1 103.7 103.9 104.1 104.3 104.7 105.6 105.9 105.3 104.2 102.9 102.3 101.5 100.9 100.5 100.3 99.7 99.5 99.5 99 98.4 99.5 99.8 100.1 100.4 100.8 100.6 102 102.7 103.7 104.6 105.6 106.3 107 107.6 107.8 107.9 108.4 109.7 110.7 111.1 111.4 111.5 112.9 114.8 116.5 117.7 119 120.1 121 122 125.3 127.2 130.6 133.7 140.4 145.8 151.3 158.4 164 166.5 170.3 174.6 176 180 195.8 210 212 213.1 213.6 213.9 214 214.7 214.6 214.5 214.4 214.2 213.7 213 211.8 205.6 202 203.1 196.5 189.7 184.7 178.2 175.7 173.8 171.2 168.2 166.6 167.8 168.9 170.9 170.1 167.5 165.7 164.3 165.9 166.8 165.2 160.5 158.7 156.5 154.7 153.2 152 151.1 150.6 150.1 149.2 149.1 148.9 148.8 148.4 148.1 147.8 148.1 148.3 148.7 148.4 148.1 147.8 146.9 145.7 144.6 144.2 143.8 143.3 142.4 141.6 140.7 139.3 138.8 137.9
82.9 82.3 83.2 84.1 84.7 84.3 83.8 83.8 83.8 84 84.5 85.6 86.5 86.9 84.7 82 81.1 80.3 81.4 84.5 85.6 85.2 83.9 84.1 85 86.1 86.9 87.5 87.8 87.5 87.5 87.2 87 86.7 86.5 86.5 86.9 87.2 87.7 88.2 88.7 89.3 89.9 90.5 91.4 92.3 92.7 93.1 93.6 93.8 94.1 94.6 95.2 95.7 96.2 96.7 97.3 97.4 97.5 97.8 97.7 98.3 99.8 101.3 102.2 102.8 103.1 103.2 103.4 103.5 104.1 104.4 103.9 103.1 102.3 101.8 101 100.6 100.4 100.2 99.9 99.6 99.5 99.4 98.9 99.6 99.9 100.3 100.8 101.1 101 102.3 103.3 104.2 105.1 106.1 107 107.9 108.4 108.7 108.9 109.1 110.3 111.8 111.7 112.3 113 113.4 115.1 117.6 119.5 120.5 121.1 122.2 125.5 129.6 132.2 134.6 138.6 143.9 151.3 158.9 163.4 166.4 174.1 180.1 183.7 190.6 205.1 210.4 212.3 213.4 214 214.1 214 214.1 214.7 214.3 214.1 214 213.8 213.3 213 211.3 208.9 210.2 209.5 207.9 202.8 194.6 185.6 181.6 178.1 174.3 170.8 167.8 164.9 163.8 163.9 164 163.1 164 162.3 161.3 160.9 159.4 157.5 155.8 154.8 153.6 151.9 151.8 152 151.9 151.8 151.7 151.3 150.8 150.5 149.9 149.6 149.5 149.8 150.4 151.5 150.6 150.7 150.5 148.8 147 146.7 146.3 145.8 145.1 143.9 143.5 142.5 141.1 140.3 138.8
84.2 83.9 84.7 87.8 88.6 87.1 85.6 85.4 85.1 85.1 85.1 85.3 85.4 84.9 83.4 81.8 81.3 80.7 80.5 80.5 82 81.1 81 82 81.9 83.1 84.3 85.5 86.2 87 87.7 87.9 87.8 87.7 87.5 87.1 87.5 87.1 87.4 87.9 88.2 88.8 89.8 89.9 90.7 91.2 91.2 91.4 91.8 92.1 92.6 93.5 94.2 94.7 95.2 95.8 96.2 96.1 96 96.3 96.8 97.5 98.8 100.4 101.2 101.9 102.3 102.4 102.4 102.5 102.8 102.9 102.8 102.3 101.8 101.2 100.9 100.7 100.6 100.2 100 99.8 99.5 99.8 99 99.8 100 100.9 101.7 101.8 101.9 102.6 103.6 104.7 105.7 106.6 107.3 108.3 109.4 109.9 110 110.2 110.4 111.6 112.7 113.2 113.8 114.7 115.6 118.4 120.4 120.9 122 124 128.9 134.7 137.4 139.4 143.1 149.7 158.2 163.5 166.7 174.1 180.9 200.5 205.2 208.8 210.7 212.6 213.8 214.3 214.4 214.4 214.2 214.1 214 213.8 213.7 213.5 213.9 213.3 212.8 212.3 211.8 211 210.1 209.1 207.6 205.3 197.7 190.8 183.6 177.2 171.6 167.4 165.6 165.2 164.1 161 159.7 161.6 160.7 159.1 158.6 157.5 155.6 154.3 154.2 153.8 153.9 154.1 154 154.6 154.9 154.4 154 153.1 152.4 151.9 151.5 151.5 152.1 153.3 155 154.5 154.6 153.7 151 148.7 148.8 148.4 148.3 147.7 147 146.2 144.5 143 141.9 140.3
86.2 86.1 87.6 92 92.7 90 87.7 87 86.8 86.1 85.9 85.9 85.4 84.3 83.6 82.1 81.5 81.3 80.9 81 81.2 81.4 81.2 81.8 81.8 81.7 82 83 83.8 85.2 85.9 87.1 88.4 88.6 88.5 88.2 87.6 87.6 87.5 87.4 87.8 88.3 89 89.2 89.5 90.1 90.4 90.1 90.4 91.3 91.5 92.3 93.1 93.7 94.3 94.8 95.1 95.3 95.2 95.2 95.6 96.8 97.9 99.5 100.2 101.1 101.6 101.7 101.7 101.8 101.8 101.8 101.8 102.3 101.5 100.9 100.9 100.9 100.8 100.3 100.2 100.7 100 100.3 99.6 100.5 101.2 101.6 101.9 102.2 102.6 103.2 103.8 105.1 106.2 107.1 107.9 108.8 109.7 110 110.8 111.4 112 111.7 113 114.2 114.7 115.8 117.6 118.4 120 121.3 122.8 125.4 130.6 137 139.7 142.5 149.4 157.8 164.9 168.3 177.7 184.5 204.6 209.3 211.1 212.1 213.3 214 214.6 214.7 214.7 214.7 214.3 214.6 214.2 214 213.6 213.3 212.9 212.5 212.5 212.2 211.7 211.2 210.5 209.5 208.5 207.2 205.9 203.8 189.6 178 170.1 168.7 168.6 167.6 166.2 164.4 162.4 159.5 158.4 157.5 156.7 156.7 156.4 156.1 155.7 155.3 155.2 155.7 156.9 157.9 158.3 158.5 158.4 157.8 156.1 155.1 153.9 153.6 154.6 156.5 158.5 159.3 159.7 157.9 154.8 152.5 151.7 151.7 152 152.2 151.6 150.2 148.4 145.8 145.2 143.4
90.1 90 91.3 93.1 93.8 91.6 90.7 89.7 88.7 87.5 86.6 86.3 85.8 85.1 84.6 83.6 83 82 81.8 81.6 81.6 81.7 81.6 82.1 82 81.9 81.8 82.1 82.8 82.6 84.3 85.6 87.3 88.9 89.5 89.7 89.2 88.6 88.3 88.2 88.3 88.7 88.8 88.8 88.9 89.3 90 90.3 90.7 90.9 91.2 91.3 92.2 92.1 92.5 93.2 93.6 94.3 94.5 94.8 95.3 96 97.3 98.5 99.4 100.3 100.9 100.9 100.9 101 101.1 101.1 101.1 101.4 100.8 100.8 100.9 100.9 100.9 100.6 100.6 100.8 100.9 101.3 100.8 101.6 102.1 102.6 102.9 103.1 103.3 103.8 104.1 105.3 106.5 107.6 108.5 109.3 110.1 111.1 111.9 112.6 113.1 113 113.3 114.4 115.4 117.3 120 120.1 120.9 121.6 124.4 127 131.8 135.6 140.1 144.8 153 162 168.2 171.5 186.4 206.2 209.6 212 213.4 214.3 214.4 214.7 214.8 215 214.8 214.3 214.5 214.4 214.1 213.7 213.4 213.1 212.8 212.6 212.3 211.9 211.5 211 210.5 209.8 208.8 207.9 206.1 203.1 188.1 176.7 171.6 172.8 173.3 172.3 171.5 168.9 166.5 164 162.2 160.7 160.3 159.3 158.7 157.6 157.6 157.3 157.4 158.2 160.4 162.2 163.5 164.4 164.8 163.4 162 159.8 157.6 156.7 157.8 159.9 163.6 166.2 167 163.7 160.6 158.1 156.9 156.6 157.6 158.6 158.3 156.1 152.7 150.5 149.3 146.4
94.3 94.9 94.7 93.8 93.5 93.5 92.9 92.1 90.7 89.3 88.2 87.1 86.2 85.4 85.2 85 84.4 82.9 82.1 81.8 81.8 82.2 82.2 82.3 82.3 82.2 82.4 82.4 82.4 82.7 83.3 84.6 86.3 88.8 90.3 91 90.4 90 89.7 89.5 89.5 89.7 89.8 89.9 90.5 90.8 91 91.2 91.3 91.4 91.7 92.2 92.8 93 92.5 92.6 93.2 93.8 94.1 94.5 94.9 95.4 96.6 97.5 98.3 99.2 99.8 99.9 100.2 100.2 100.5 100.5 100.6 100.7 100.7 100.6 100.5 100.5 100.7 101 100.9 101.2 101.2 101.8 101.9 102.5 103 103.4 103.9 104.1 104.1 104.4 104.4 105.5 106.5 107.4 108.4 109.5 110.5 111.5 112.2 112.9 113.6 114.9 115.4 115.1 116.2 118.2 120.1 120.8 121.5 122.8 125.5 131.7 136.1 136.8 141.6 147.3 157.3 165 171.1 182.1 202.5 209.9 212.2 213.3 214.4 214.5 214.9 214.9 214.8 214.9 214.6 214.4 215 214 213.7 213.5 213.1 212.8 212.6 212.2 211.9 211.6 211.2 210.7 210.3 209.7 208.8 207.7 203.2 196.7 184.3 175.9 177.2 179.7 181 179.6 178 175.6 173.4 170 167.2 165.3 163.7 162.5 161.8 161.1 160.4 160.4 160.9 162.1 165.1 168.6 170.8 174 177.8 176.2 171 165.5 162.4 162.3 164 166.9 170.5 176.5 181.4 177.8 170.1 164.9 164.7 164.5 165.8 167.1 167.6 165.1 159.4 155.1 150.1 145.6
98 98.5 97.7 96.8 95.8 95.1 94.8 94.4 92.3 90.2 89.1 88.3 87.4 86 85.5 85.3 84.7 83.4 82.4 82.2 82.2 82.6 82.5 82.6 82.1 82.6 82.6 82.6 82.5 82.8 83 83.9 86 89.3 91.9 93 92.5 91.7 91.4 91.1 91.2 91.3 91.4 91.5 91.9 92.3 92.5 92.6 92.7 92.8 92.8 93.2 93.8 94.1 93.7 93.6 93.8 94 94.2 94.5 94.9 95 95.5 96.4 97.3 98.1 98.7 98.6 98.5 99.5 99.9 100.2 100.1 99.8 100.1 100.1 100 100.2 100.5 100.8 101.3 101.3 102.1 102 102.6 103.3 103.8 104.3 104.8 104.7 104.8 105 105 105.5 106.2 107.2 108.5 109.7 110.7 111.6 112.4 113.2 114.2 115.5 116.6 117.2 117.1 118.7 120.4 120.8 122.1 124 126.9 132.2 138.3 140.9 143.7 151.2 160.4 168.3 176.6 194.6 209.2 212.3 213.7 214.6 215.1 215.3 215.3 215.1 215 214.8 214.6 214.3 214.4 213.7 213.4 213.1 212.8 212.5 212.1 211.8 211.6 211.2 210.9 210.5 210 209.3 208.5 207.7 201.4 191.9 182.4 182.4 188.1 195.2 198.8 196.7 196.1 191.1 185.2 178.5 173.7 170.9 169.7 168.2 167.3 166.4 166.3 165.6 165.8 167.4 172.7 180.4 187.1 187.3 188.7 186.9 181.3 172.2 169.4 170.8 173.2 178 182.6 190.2 190.3 188.3 185.9 180.8 179.9 178.9 181.7 182.2 175.6 166.2 158.1 152 147.1 143.8
100.1 103.1 102.5 99.1 97.1 97.3 97.4 96.3 94.1 91.9 90.5 89.5 87.8 86.4 85.9 85.4 84.7 83.8 83.3 83.1 82.9 83.1 83 83.1 83.1 83.2 82.9 83 83.2 83 82.8 83.8 85.5 88.8 92.7 94 93.7 93.3 93.1 92.9 92.6 92.7 92.8 92.9 93.4 94 93.9 94.1 94.2 94 94 94.5 94.9 95.2 95 94.9 94.9 95 95.1 95.3 95.6 95.6 95.5 95.9 96.3 96.9 97.6 97.5 97.9 98.8 99.3 99.7 99.3 99.1 99.4 99.5 99.7 100 100.3 100.6 101.2 101.6 102 103.1 103.5 104.1 104.8 105.3 105.1 105.2 105.5 105.6 105.7 106.1 106.7 107.6 108.7 109.9 110.8 111.8 112.7 113.5 114.7 116.1 117.2 118.3 119.4 119.7 119.5 121.1 123 125.8 128.3 130.8 137.1 142.1 147 156.3 163.1 171.1 185.1 207.5 211.6 214 214.9 215.3 215.7 215.6 215.3 215.1 215 214.8 214.3 214.2 213.7 213.4 213.1 212.9 212.4 212 211.7 211.4 211.2 210.9 210.5 210.1 209.7 209 208.3 207 203 193.1 189.1 196.7 202.6 202.4 201.8 200.4 199.9 197.8 195 188.5 184.1 179.4 180.3 179 179 176.7 177.7 175.8 173.2 174.3 184.1 191.2 191.6 191.8 191.7 191.1 188.3 184.3 184.4 186.8 188.2 190.1 190.7 191.8 191.8 191.1 190.6 189.5 189.6 189.2 187.3 178.6 166.4 158.5 153.5 148.4 145 143.1
103.4 105.7 103.5 100 99 99.4 100.9 99.4 97.3 94.5 92.7 90.7 88.5 86.8 85.5 85 84.5 84.5 84.6 84 83.6 83.5 83.5 83.6 83.7 83.7 83.6 83.7 83.4 83.1 83.1 83.1 83.8 86.1 89.8 92.5 94.4 94.5 94.3 94.3 93.8 93.7 93.8 94 94.2 94.7 95 95.3 95.4 95.2 95.2 95.7 96.1 96.3 96.3 96.2 96.3 96.4 96.6 96.5 96.3 96.1 96.1 95.8 96.1 96.4 96.9 97.2 97.5 98.1 98.8 99.2 98.8 99.1 99.1 99.1 99.5 99.7 100 100.5 101 101.9 102.4 103.5 104.1 104.6 105.2 105.8 105.9 106 106.1 106.3 106.4 106.8 107.2 108.2 109.2 110.2 111.5 112.6 113.5 114.2 115.2 116.5 118.2 119.5 120.3 120.8 121.8 121.8 125.3 130.9 135.4 136.4 136 142.5 149 158.7 166.1 174.1 196.9 210.1 213.3 214.5 215.3 215.6 215.9 215.6 215.3 215 215 215 214.3 214.4 213.7 213.1 212.9 212.6 212 211.6 211.3 211 210.8 210.5 210.1 209.8 209.4 209 208.3 207.4 202.5 196.3 200.3 204.3 205.3 203.7 203.4 202.6 201.3 200 198.7 196.1 193.7 191.1 193.3 192.3 190.5 189.1 189.6 187 185.4 185.8 191.8 193.9 193.9 193.8 193.8 193.5 192.8 191.3 192 192.1 192.5 192.7 192.8 193 193 192.5 192 191.5 191.1 190.4 185.7 173.1 161 155.7 150.2 147.6 145.6 144.1
104.9 107 105 99.2 99.8 103.8 106.4 104.2 100.2 97.4 93.9 91.4 89 87.1 85.7 85.4 85.5 85.6 85.4 84.6 84.7 84.6 84.4 84.1 84.2 84.2 84.3 84.3 83.9 83.6 83.6 82.7 83.5 83.7 86.8 89.5 92.4 94.2 94.8 94.9 94.8 94.8 94.9 95.1 94.9 95 95.1 95.3 95.5 95.6 95.5 96.5 97 97.2 97.5 97.9 97.9 97.9 98.1 98.3 97.9 97.4 96.7 96.1 96.5 96.8 97.1 97.5 97.7 98 98.4 98.6 98.6 99 99.6 99.5 99.6 99.6 99.8 100.3 101 102 102.8 104 104.6 105.1 105.6 105.9 106.5 107 107.1 107.1 107.1 107.5 108 108.7 109.6 110.8 112.8 114.6 115.3 115.7 116.5 117 118 120.1 121.1 121.2 122.1 124.2 127.8 134.9 141.6 143.1 140.2 145.4 151.7 161.4 168.3 178.2 201 212 214.2 215.1 215.6 215.8 215.9 215.5 215.2 214.9 215 215 214.4 214.1 213.6 213.3 212.7 212.3 211.6 211.2 210.9 210.7 210.4 210.1 209.8 209.4 209.1 209 208.4 207 205.1 205.1 205.9 206.6 206.8 205.2 204.2 203.6 202.4 201 200.1 199.1 197.4 196.4 196.8 196.2 195.2 194.7 194.4 194 193.1 194.4 194.8 195.8 195.7 195.6 195.5 195.1 194.7 194.7 194.1 194 193.7 193.9 194 193.9 193.8 193.4 193.1 192.8 191.9 191 186.6 175.4 166 160 154.6 149.9 147.4 145.5
105 109.2 104.2 99.5 105 107 110.3 108.2 103.6 98.9 95 92 89.6 87.3 86.3 86.5 87.1 87 86.2 85.9 85.6 85.3 85.1 84.9 84.8 84.8 84.9 84.7 84.6 84.5 84.4 83.5 83 83.5 84.3 87.1 89.3 91.2 92.9 94.3 94.2 94.5 94.8 95.1 95.2 95.2 95.3 95.4 95.5 95.9 96.4 97.1 97.7 98 99 99.5 99.5 99.5 99.7 99.5 99.2 98.2 97.2 96.9 97.1 97.4 97.7 98.1 98.3 98.3 98.5 98.5 98.6 98.8 99 99.5 99.7 99.7 100.2 100.7 101.4 102.2 103.3 104.1 105 105.5 106 106.5 107 107.4 108 108.2 108.2 108.7 108.7 109.3 109.9 111.5 114.4 117.3 117.8 117.7 118.2 118.5 118.9 120.3 121.9 122.7 123.7 126.2 132.4 137.8 143.8 144 144.2 147.9 154.3 163.4 168.9 181.2 204.9 212.9 214.6 215.2 215.5 215.8 215.6 215.2 214.9 214.7 214.6 214.5 214 213.7 213.2 213 212.5 211.8 210.9 210.5 210.2 210.5 210.1 209.8 209.4 209 208.9 208.7 208.6 207.7 206.8 206.4 206.8 206.7 206.8 206.8 205.6 204.7 204 202.6 201.6 201 200.2 198.9 198.5 198.2 197.5 197.4 197 196.6 196.7 196.5 196.8 196.5 196.5 196.4 196.4 196.3 196.2 196.3 195.5 195 194.8 194.7 194.3 194.5 194.5 194 193.6 193.5 192.4 191.3 189.2 185.2 179.3 170.3 159.5 154.2 150.5 148.5
107.9 111.5 110.3 108.7 109.7 109.6 112.1 110.8 105.6 100.4 95.7 92.4 90.1 87.4 87.4 87.7 88.4 88.1 87.3 86.7 86.3 85.9 85.9 86 86.2 86.4 86.1 85.7 85.5 85.4 85.1 84.3 83.8 83.2 83.8 84.4 86.6 88.7 90.4 91.6 92.6 93.4 94 94.7 95.1 95 94.9 94.9 95 95.7 96.5 97 98 99 99.9 100.4 100.6 100.6 100.5 100.4 99.9 98.7 98.2 97.7 97.7 98 98.3 98.7 98.9 98.8 98.7 98.9 99.1 98.9 98.8 99.3 99.6 100 100.5 100.8 101.3 101.9 102.8 104.2 105.3 106 106.3 106.9 107.3 107.7 108.3 108.9 109.1 109.1 109.2 109.8 110.4 111.5 115.4 118.7 119.8 119.7 119.5 120 120.6 121.7 121.9 123.5 125.3 128.8 135.9 142.6 144.3 145.1 146.4 149.3 155.2 162.6 170.4 185.1 207.9 213.5 214.5 215.2 215.5 215.7 215.4 215 214.5 214.3 214.6 213.9 213.5 213.2 212.8 212.5 212.1 211.3 210.4 209.5 209.8 209 209.9 209.6 209.1 208.7 208.6 208.4 208.1 207.9 207.4 206.9 206.8 206.8 206.6 206.4 206.1 204.9 204.9 202.9 202.2 201.6 200.9 200.8 200.2 199.4 198.9 198.7 198.4 198.3 198.1 197.8 197.5 197.2 197.1 197 197 197 197.4 196.8 196.7 196 195.8 195.4 195 194.6 194.5 194.1 193.7 193.8 192.8 191.9 190.6 188.5 185.5 176.1 163.8 158.2 155.6 153.4
112.2 114 113.4 113.5 113.2 112.6 113.3 112.2 105.9 100.3 95.9 92.4 89.7 88.5 88.3 88.9 89.6 89.1 88.4 87.8 87.5 87.2 86.9 86.7 87 87.3 87.2 87.1 86.9 86.3 86 85.6 84.7 83.9 83.8 83.8 84.5 87.1 88.6 90 91.3 91.9 92.6 93.5 94.1 94.1 94.2 94.2 94.5 95.3 96.1 96.9 98 99.2 100.3 100.7 100.8 100.9 100.8 100.6 100.4 99.5 99 98.8 98.9 99.1 99.2 99.4 99.4 99.2 98.9 99.1 98.8 98.6 98.6 98.6 99 99.9 100.5 101 101.6 102.3 103.4 103.9 104.7 105.7 105.8 106.5 107.5 108 108.6 109.2 109.8 110.1 110.1 110.3 110.8 111.6 115.1 117.9 120 120.3 120.4 121.2 121.9 122.9 123.2 124 126.1 130.2 136.4 141.8 144.8 145.9 147.7 150.5 155.3 162 168.1 182.3 202.7 213.9 214.3 215.2 215.5 215.4 215.1 214.8 214.3 213.9 214.3 213.5 212.9 212.6 212.4 212 211.6 210.7 210.4 208.6 207.1 206.7 208.9 209.4 208.9 208.4 208.3 208.2 207.5 206.9 207 206.8 206.7 206.7 206.3 205.9 205.9 204.8 204.7 203.2 202.3 201.6 201.2 201.2 201.5 200.1 199.7 199.6 199.3 199.1 198.8 198.5 198.2 197.9 197.8 197.4 197.1 196.9 196.5 196.8 196.7 196.5 196.1 195.5 194.9 194.6 194.5 194.1 194.2 193.8 193 192.2 191.3 189.6 186.9 179.8 171 166.1 164.6 164.3
114 115.6 116 115.8 115.8 115 113.1 107.8 102.7 99.1 95.9 92.5 90.1 89.1 89.2 89.7 91 90.7 89.9 89.1 88.9 88.9 88.3 88 88.3 88.4 88.7 88.5 88.5 87.9 87.3 86.2 85.6 85.3 84.3 83.5 84.7 85.4 87.2 88.9 90 90.6 91.4 92.1 92.5 92.9 93.5 93.6 94 94.8 95.6 96.4 97.3 98.7 100.1 100.4 100.5 100.5 100.4 100.3 100.2 99.9 99.7 99.5 99.5 99.6 99.8 99.7 99.3 99.3 99.2 99 98.5 98.3 98.2 98.7 99.2 99.8 100.7 101.4 102.2 102.8 103.6 104 104.4 104.8 105.4 106.1 106.8 108 108.8 109.5 109.9 110.3 110.7 111.3 111.9 111.9 114.1 116.9 119.6 120.6 120.3 120.3 122.3 124 124.9 125.6 125.8 130.4 135.4 142.2 145.4 147 148.5 151.8 155.8 161.4 168.6 179.4 197.6 213.1 213.8 212.8 215.4 215.2 214.9 214.6 214.2 213.2 213.3 213.4 212.6 211.8 212 211.6 211 210.1 208.3 207.9 205.2 204.9 207.9 208.6 208.7 207.9 207.9 208 207.5 207.2 206.9 206.6 206.3 206.5 206.1 205.7 205.8 204.9 203.9 203.1 202.4 201.8 201.7 201.4 201.3 200.6 199.9 200 199.5 199.7 199 198.9 198.6 198.3 197.7 197.5 197.1 196.9 196.6 196.7 196.7 196.5 195.9 195.4 194.8 194.7 194.5 194.3 194.1 193.7 193 192.2 191.3 190.1 188.6 185.8 180.4 177.3 179.4 178.5
112.2 115.8 117 117.3 117 115.1 109.7 104.1 99.9 97.4 96 93.1 91.3 89.6 90.3 90.4 91.9 92.3 91.3 90.9 91 90.6 90 89.5 89.8 90.2 90.3 90.1 90.1 89.5 88.7 88.2 87.6 86.3 84.7 84.4 84.4 84.9 86.6 87.7 88.6 89.5 90.2 90.6 91.5 92.1 92.5 92.8 93.7 94.3 95.1 95.9 96.8 98 99.2 99.8 99.9 99.8 99.8 99.7 99.7 99.7 99.7 99.7 100 100.1 99.9 99.5 99.2 99.1 98.8 98.3 97.8 97.2 98.1 98.6 99.3 100.4 101.3 101.7 102.5 102.7 103.7 104.3 104.7 105.1 106 106.6 106.9 107.9 108.8 109.7 110.4 110.9 111.2 111.7 112.2 112.8 114.2 116.5 119 120.3 120.4 120.8 121.8 124.7 126.7 127.5 128.1 130.1 133.5 138.5 143.4 146.2 148.3 151.2 155.1 160.7 168.7 178.3 197.5 213.6 211.5 211.7 215.2 214.9 214.6 214.3 213.6 213.2 213.2 213.1 212.3 211.4 211.5 211.1 210.5 209.3 205.7 203.6 202.3 205 207.4 208.3 207.9 208.6 208 207.6 207.2 206.8 206.5 206.2 205.9 205.7 205.7 205.5 205.6 205.3 204.5 203.4 202.4 201.9 201.5 201.1 200.9 201.5 200.7 199.9 199.4 199.4 199.2 198.8 198.7 198.5 197.8 197.4 197.1 197.1 196.6 196.5 196.6 196.5 195.7 195.2 195 194.6 194.3 193.9 193.7 193.4 192.9 192.3 191.3 190.1 189.1 188.1 186 184.3 184 183.3
105.7 112.7 116 117.5 117.3 114.1 108 101.4 97.9 96.4 95.3 93.9 91.4 91.4 90.6 90.9 91.9 92.3 92 92.5 93 92.3 91.6 91.1 91.4 92.1 91.9 91.7 91.6 91.5 90.4 88.9 88.4 87.5 86.4 84.9 84.2 85.3 86.6 87.2 87.7 88.5 89 90.3 90.7 91.4 91.9 92.6 93.4 93.9 94.6 95.4 96 96.8 98.2 98.8 99 99.2 99.2 99.1 99.1 99.2 99.3 99.4 99.6 99.7 99.5 99.3 99 98.4 97.9 97.4 96.9 97 97.9 98.7 99.8 100.9 101.7 102.1 102.4 102.6 103 103.8 104.5 105.3 106.2 106.6 107.1 108.3 109.2 110.1 110.6 111.3 111.7 112.1 112.5 113.3 114.4 116.3 118.7 120.1 120.5 120.8 121.4 124.2 126.7 128 129.4 131.3 133.3 135.8 138.2 143.1 146.8 149.5 154 160.5 168.9 180.6 201.6 213.3 214.8 215 214.8 214.7 214.3 213.9 213.1 212.7 212.2 212.1 210.7 210 211.2 210.7 210 209 205.4 197.1 202.5 207.8 208.1 208.2 207.8 207.6 208.1 207.3 206.8 206.5 206.1 205.8 205.6 205.3 205.2 205.3 205.2 204.9 204.9 203.3 202.3 201.5 201.2 200.8 200.6 201 200 199.6 199.2 199.1 198.9 198.7 198.6 198.2 197.8 197.3 197 196.8 196.6 196.4 196.3 196.4 195.5 195.1 194.7 194.3 193.9 193.5 193.2 193 192.5 192 191.4 190.7 189.8 188.8 187.8 186.9 186.1 185.2
98.6 105.7 111.4 114.4 116.3 113.5 106.9 100.1 96.3 95.3 94.5 93.3 92.5 92.9 92.5 92.2 91.8 92.1 92.5 93.8 94.4 93.8 93 92.2 92.6 93.5 93.1 92.9 93.2 92.9 92.2 90.4 88.9 87.8 85.7 84.8 84 85.5 86.1 88 88.1 89 89.6 90.1 90.6 91.1 91.7 92.4 93 93.5 94.1 94.4 94.8 95.9 97.2 97.8 98 98.2 98.4 98.2 98.4 98.6 98.7 98.9 99 98.8 98.6 98.4 98.1 97.6 97 96.5 96.2 97 98 99.2 100.3 101.3 101.9 102 102.1 102.3 102.9 103.5 104.2 104.9 105.8 106.5 107.4 108.6 109.5 110.4 110.8 111.2 111.5 112.1 112.8 113.8 114.8 116.1 117.4 119.7 120.1 120.4 121 122.9 125 127.5 130.3 132.6 136.7 139.9 140.7 140.5 143.7 148.7 154.6 161.6 171.6 183.9 207.5 213.1 213.7 215.1 214.7 214 213.2 213.1 213.1 212.8 212.1 210.9 207.8 207.9 210.5 210.1 208.9 203.9 197.7 196.3 203.8 207.7 207.7 207.9 208 207 206.8 207.6 206.4 206.1 205.9 205.7 205.4 205.2 205.2 205.2 205.5 204.7 204.8 203 201.8 200.9 200.7 200.5 200.2 200.1 200.2 199.4 198.9 198.6 198.3 198.6 198.4 198 197.5 197.1 196.9 196.7 196.5 196.3 196.1 195.8 195.2 194.7 194.3 193.9 193.6 193.2 192.8 192.6 192.4 192.1 191.1 190.4 189.8 189.1 188.5 187.8 187 186.2
93.1 98.6 103.5 108.5 111.4 109.1 104.3 98.6 95.1 94.7 93.8 93.4 93.2 93.6 93.6 93.3 92.7 92.6 93.2 94.2 94.9 94.7 94.2 92.8 92.6 93 92.8 93.6 94.4 94 93.1 91.8 90 87.8 85.4 84.8 84.1 85.1 86.6 87.5 88.1 88.8 89.4 89.9 90.5 90.7 91.4 92 92.5 92.9 93.2 93.6 94.3 95.4 96.4 96.8 96.9 97 97.1 97.3 97.5 97.7 97.8 97.9 98 97.9 97.7 97.3 96.9 96.7 96.5 95.7 96.3 96.8 97.6 99.1 100.3 101.1 101.4 101.5 101.6 102.1 102.7 103.3 103.9 104.5 105.5 106.5 107.8 108.9 109.9 110.7 111.1 111.5 112 112.7 113.5 114.5 115.8 117.1 118.5 119.4 119.7 120.3 121.4 123 125.6 129.1 133.1 135.1 140.3 144.4 144.4 143.2 146.9 151.6 157.5 164.1 174.4 189.5 209.6 211.4 213.8 214.4 214.3 214.2 213.7 213 212.8 212.6 211.7 210.7 207.1 202.6 205.2 206.9 205.2 196.7 191.6 202.1 203.4 207.7 207.5 207.2 206.9 206.3 206.2 206.5 207.1 206.4 206.1 205.6 205.5 205.6 205.4 205.7 205.2 204.5 204.2 203 201.5 200.1 200.4 200.2 200 199.5 199.7 198.9 198.3 198.3 197.9 198 198 197.6 197.2 196.7 196.5 196.2 196 195.8 195.6 195.4 194.8 194.3 194 193.6 193.2 192.9 192.7 192.7 192.4 191.8 191.1 190.4 189.8 189 188.3 187.8 187.1 186.6
88.6 92.1 97.4 102.1 104.6 102.7 98.9 95.8 93.6 93.4 93.8 93.5 93.9 94.3 94.6 94.1 93.6 93.3 93.4 93.8 94.3 94.5 94.3 93.4 92.6 92.5 92.9 93.6 94.9 94.8 93.9 92.7 90.7 90.4 87.6 84.9 84.4 84.8 86.1 87.1 87.7 88.4 89.1 89.7 90.1 90.4 90.9 91.4 91.9 92.3 92.4 92.8 93.7 94.6 95.4 95.9 95.9 96 96.2 96.5 96.7 96.8 96.8 96.9 97 97 96.7 96.3 95.9 95.9 95.6 95.6 96.1 96.5 97.1 98.4 99.6 100 100.6 100.8 101.3 101.9 102.4 103 103.7 104.5 105.8 107 108.1 109.1 110 110.9 111.5 111.9 112.6 113.3 114.3 115.8 117.1 118.4 119.2 119.9 120.3 120.9 122.3 124.8 127.8 132.9 137.9 139.6 141.6 146.1 147.3 147.1 148.9 154.7 160.7 168.5 179.9 196.6 210.4 213.4 213.6 213.7 213.9 213.8 213.4 212.6 212.4 212.2 211.7 211.2 209.4 204.5 198.7 196 193.3 189.6 189.9 202.7 207.5 207.1 207.5 207.2 206.7 206.3 205.6 206.4 206.7 206.2 205.6 205.6 205 204.6 204.5 205.3 204.6 204.2 203.7 203.5 201 199.3 199.5 199.9 199.8 199.5 198.7 198.2 197.7 198 197.4 197.3 197.3 197.3 196.7 196.7 196.2 195.5 195.3 195.1 195.1 195 194.9 194.1 193.7 193.3 193 192.8 192.8 192.4 191.9 191.3 190.6 189.8 189.1 188.4 188.5 187.9 187.4 186.8
85.6 88.5 91.4 95.3 99 98.5 95.5 93.6 92.8 93.5 93.8 94.1 94.4 94.8 94.8 94.3 94.5 93.8 93.8 93.8 93.7 93 92.9 92.7 92.1 92.5 92.3 93 94.7 95.4 94.7 93.7 92 90.5 88.6 86.4 84.8 84.7 85.6 86.6 87.4 88.1 88.7 89.2 89.3 89.7 90.3 90.8 91.3 91.6 91.6 92 93 93.7 94.5 94.9 95 95 95.4 95.6 96 96.1 96.1 96.2 96.2 96.1 95.9 95.3 94.8 95.4 95.5 95.8 95.9 96.4 96.7 97.4 98.5 99.2 99.8 100.7 101.3 101.7 102.1 102.9 103.7 104.5 105.7 106.8 107.9 109 110.1 111 111.7 112.6 113.7 114.6 115.4 116.7 118.1 119 119.5 120.2 121 121.9 124 127.5 131.6 137.4 142.7 144.7 144 146.9 149.4 150.8 153.4 158.7 164.6 173.7 186.1 204.9 210.1 213.6 213.7 213.5 213.5 213.5 213 212.6 212 211.8 211.6 210.9 210.3 208.8 204.8 196.7 185.5 182.2 197.2 202.6 206.7 206.6 206.6 206.8 206.4 205.8 205.7 205.5 205.3 206.3 204.7 204.8 204.2 204.5 204.5 204.4 204.4 203.7 203.4 203.5 200.9 198.8 197.4 198.6 199 197.9 197.1 197 196.7 196.6 196.7 195.8 195.7 196.2 196.8 196.3 195.8 195.1 194.6 194.2 194.5 194.5 194.5 194.3 193.5 193 192.8 192.6 192.2 191.9 191.3 190.7 190.1 189.2 188.4 188.2 187.9 187.3 187 186.5
84.4 86 86.9 89.3 92.7 94.9 93.1 90.9 93.6 94.1 95.2 94.6 93.1 92.5 92.6 93.9 95.2 94.9 93.9 93.1 93.1 92.6 92.3 92.2 92.1 91.8 91.9 92.7 93.8 94.7 95 94.2 92.9 91.2 88.7 87.8 85.2 85.5 85.2 86 86.2 86.3 87.4 87.9 88.5 89 89.5 90.1 90.7 90.8 90.9 91.4 92.1 92.8 93.6 94 94 94 94.4 94.7 95.2 95.4 95.4 95.4 95.2 95 94.8 94.6 94.6 94.9 95.2 95.5 95.9 96.2 96.7 97.3 98.4 99.3 100.4 100.9 101.9 102.6 103 103.4 103.9 104.5 105.6 106.7 107.6 108.8 109.9 111 111.9 113.3 114.7 116 116.8 117.5 118.4 119.1 119.8 120.6 121.5 123 127.4 131.7 136.8 141.5 145.6 146.5 147.7 149.6 151.9 155.4 158.1 163.6 169.8 180.8 195.1 210.5 210 213.1 213.5 213.1 213.5 212.8 212.4 212 211.7 211.4 211.1 210.6 210.2 209.4 207.9 201.8 183.6 182.7 200.3 201.5 205.7 206.3 205.9 205.7 205.4 205.1 205.3 205.1 204.9 205.1 204.5 204.4 203.8 203.6 204.9 204 204.1 203.6 202.5 202.7 201 199.4 197.1 195.5 196.7 197.1 194 192.2 192.5 193.9 195.7 195.2 194.2 192.8 195.3 195.2 194.4 194.6 194.6 193.5 193.9 193.9 193.8 193.6 193.1 192.7 192.4 192.1 191.8 191.5 191 190.2 189.5 188.7 187.8 187.1 187.1 186.8 186.4 186.1
85 85.3 83.6 84.4 87 87.5 86.6 93.1 94.8 94.3 93.1 91.8 89.7 90.5 90.5 91.8 94.7 95.5 94.8 93.8 93.1 92.5 92 91.8 91.7 91.6 91.5 92.1 92.5 92.6 93.7 93.2 91.6 90.9 89.2 87.7 86.1 84.7 85.3 85.8 85.3 85.7 86 86.5 87.1 87.9 88.5 89.1 89.7 89.9 90.2 90.5 91.2 92 92.8 93 93 93 93.4 93.9 94.4 94.6 94.5 94.3 94.2 94 93.9 94.3 94.6 94.9 95.3 95.7 96.1 96.7 97.4 98 98.6 100.1 100.8 101.6 102.4 102.9 103.7 104.4 104.9 105.3 105.5 106.7 107.4 108.5 109.7 110.8 112.2 114.2 116.2 117.4 118 118.3 119 119.6 120.3 121.5 122.8 125.7 131 137.4 142.7 145.6 147.1 148 149.3 151.9 155.6 159.9 164.1 170.1 178.9 186.8 209.1 209.6 212.6 213.1 212.5 212.8 212.5 212.2 212 211.6 211.3 210.9 210.6 210.1 209.6 209.1 207.6 199.8 180.7 182.5 186 191.6 199.4 204.1 204.5 205.1 204.9 205.6 204.8 204.6 204.5 205 204.8 204.1 203.4 202.8 203.9 203.5 203.4 203.6 201.3 202.6 200.9 199.8 198.7 197.1 190.8 192.8 195.9 188.4 186.6 192.1 195.5 195 193.6 190 194.3 194.1 193.5 192.9 193.6 192.5 194.1 193.3 193.3 193.1 192.6 192.2 191.7 191.4 191.2 191.1 190.7 190.5 189.2 188.4 187.4 185.9 185.4 186 185.5 185.3
81.6 83.3 81.6 80.9 82 82 86.4 90.6 92.6 91.6 89.4 88.1 87 88.2 89.7 90.5 93.7 95.2 95.1 94.5 94 93.2 92.7 92.3 91.9 91.6 90.8 91.4 91.5 91.7 91.6 91.6 90.5 90.2 89.8 87.4 87 85.3 85.5 86.6 87 86.9 86.8 87.1 87.1 86.3 87.5 88.4 88.4 88.8 89.3 89.7 90.4 91.1 91.5 91.9 92 92 92.4 92.9 93.2 93.2 93.3 93.2 93 93.7 94.1 94.4 94.7 95 95.3 95.8 97 98 98.3 99.1 99.8 100.9 101.6 102.1 102.5 103.1 104.1 104.9 105.5 106.2 106.6 107 107.7 108.4 109.7 111 113.4 115.6 117.5 118.2 118.5 119.2 119.8 120.6 121.6 122.8 124.3 128 135.2 141.7 145 146.8 147.9 148.8 150.9 154.2 159.2 164.9 173.2 182.9 193.9 207.4 212.1 212.9 213.1 213.1 212.3 212.4 212.1 211.9 211.6 211.3 210.9 210.5 210.1 209.6 209.1 208.7 204 194.2 181.2 181.6 176.7 181.5 187.2 197.8 203.7 203.3 204.2 204.3 204.2 204.1 204.2 204.1 202.9 203.2 202.8 201.9 202.3 202.5 195 203.4 202.5 202.3 200.4 199.6 199.2 198.9 196.9 188.8 185.4 182.8 181.4 188.6 194.4 192.7 187.5 187.9 193.7 192.4 191 191.7 192.2 192.3 192.6 192.7 192.7 192.7 192.8 192.6 191.5 190.8 190.6 190.7 190.1 189.4 188.9 188.2 186.6 184.9 183.7 184.5 184.4 184.4
77.2 78.8 78.8 78.5 79.2 80 82 85.9 88.4 88.4 86.7 85.2 87.1 86.9 87.3 90.7 93 93.8 93.8 93.5 93.8 94 93.6 93 92.6 92.3 91.4 90.7 90.7 90.7 90.6 90.3 89.9 89.4 89.8 88 85.3 85.8 85.7 86.8 88.2 88.3 88.1 88.1 88.1 87.5 87.9 88.2 87.3 87.8 88.1 89.4 89.9 90.1 90.4 90.8 90.8 91.2 91.7 91.1 92.4 92.7 92.7 93 93.3 93.7 94.1 94.5 95 95.2 96 97 97.7 98.4 99.2 99.8 100.4 100.8 102.3 102.3 102.6 103.5 104.5 105.4 106.3 106.9 107.3 107.8 108.4 109.1 110 111.4 113.9 116.6 117.8 118.3 118.7 119.1 119.9 120.9 122.3 124.1 125 128.8 135.2 140.4 143.3 145.3 147.7 149.8 152.7 156.9 162.7 170.7 182.2 199.7 210.4 211.9 212.7 213.5 213 213.1 212.2 212 211.8 211.4 211.1 210.8 210.5 210.1 209.7 209.1 208.5 208.8 204.8 200.7 195.5 185.8 178.4 176.8 178.5 185.9 199.1 201.5 202.6 202.8 202.9 202.9 203.4 203 201.8 202.1 202 200.4 201.3 202.1 194.2 202.7 202 201.1 200.4 199.3 198.9 198.6 197.5 195.8 189.2 184 178.7 177.4 183.7 185.7 181.5 188.3 192.9 191.1 186.4 188.7 190.2 189.1 191.8 192 191.6 191.2 191.3 191.1 190.6 190.3 190.1 190.2 189.7 189 188.5 188 186.9 185 182.6 182.3 182.9 182.5
76.8 76.9 76.4 77.7 77.9 78.7 79.5 82.1 84.9 86.5 85 83.7 83.4 84.6 87.4 91.5 92.9 92.7 92.2 92 92.2 93.3 95 95 94.3 92.7 91.7 91 90.4 89.9 89.7 89.2 88.4 88.1 87.2 87 87.3 87.2 86.2 86.5 88.2 89 88.8 88.9 89 89 89 89.1 89.1 89.2 89.4 89.6 89.6 89.8 90 90.6 91.1 91.7 91.9 92.6 93 93.2 93.4 93.6 93.8 94.1 94.5 94.5 94.5 95.3 96.4 97.1 98 98.7 99.6 100.4 100.7 101 102.3 103 103.1 103.9 105.1 106 106.6 107.4 108.1 108.5 109.1 109.8 110.9 112.1 114 116 117.6 118.2 118.6 119.5 120.5 121.6 123.4 125.6 126.6 128.3 132.3 136 139.5 144 147 149.3 153 158.6 165.8 175.5 191.1 209.5 211.6 212.7 213.2 213.3 212.8 212.9 211.9 211.5 211.2 210.8 210.5 210.3 210 209.6 209.2 208.8 208.4 208 206.8 205.6 201.4 194.3 185.6 176.1 174.2 178.9 186.3 197.8 200.4 198.9 200 202.6 202.5 202.3 201 201 201.2 198.7 201.2 201.8 193.5 197.4 201.9 200 199.5 198.8 198.2 197.8 197.3 196.6 195.3 193.9 187.7 173 174.5 176.2 178.7 189.7 191.9 190.7 183.9 184 186.9 185.3 190.9 191.2 190.8 189.8 190 190.3 190 189.5 188.5 188.3 188.6 189.1 188.1 187.5 187 186 184.5 182 180.1 180.2
78.5 78.9 79.1 79.1 78.4 78.5 78.9 80.1 82.2 83.7 82.8 82.2 82.3 83.4 86 89.5 90.3 90.3 90.3 90.4 91.1 92.7 94.5 95.9 95.1 93.2 92 91.2 90.6 90.1 89.5 88.5 88.8 88.9 88.9 88.7 88.6 88.2 86.7 86.4 88.4 89.1 89.4 89.5 89.5 89.6 89.5 89.6 89.7 89.8 89.8 89.3 89.5 89.8 90.6 91.5 92.2 92.6 93 93.4 93.8 94 94.1 94.3 94.5 94.7 95 95 94.8 95 95.8 97.1 98.2 98.9 99.7 100.5 101.3 101.8 102.1 103.1 103.8 104.7 105.4 106.1 106.4 107 108.2 109 109.8 110.5 111.4 112.6 114.3 115.9 116.8 117.8 118.6 119.9 121.6 123.5 125.4 127.1 128.6 129.3 130.4 132.6 138.5 144.8 145.8 148.2 151.7 157.6 166 181.2 200.7 210.5 212.3 212.9 212.9 213 212.5 212 211.3 210.9 210.6 210.2 210.1 209.9 209.6 209.2 208.8 208.5 208.2 207.8 206.9 206 204.1 199.5 192.2 180.6 173.8 174.1 179.3 187.8 193.4 193.6 193.5 200.9 201.5 201.8 200.3 197.4 199.7 197.6 200.9 201.3 193.1 192.9 201.9 199.6 199.1 198.3 197.4 196.4 196.6 196.4 195.9 194.9 191.1 179 166.7 168 176.1 187.9 190.3 190 182.9 177.4 177.4 181.1 189.6 190.1 190.1 188.4 188.1 189.3 189 188.7 188.5 187.5 187 187.6 187.7 187.5 186.8 186 185.2 183.8 180.9 178.3
81.8 82.1 82.3 81.7 80.6 79 78.6 78.5 80.4 80.7 80.6 81 81.3 82 84.1 87.5 89 88.9 88.9 89.4 91.6 93.7 94.8 96.1 95.9 93.9 92.7 91.5 90.9 90.4 89.7 89.2 89.5 89.7 89.9 89.9 89.8 89.1 87.4 86.2 88 89.2 89.6 89.8 90 90 90.1 90.2 90.3 90.4 90.6 90.8 90.8 90.6 90.8 91.9 92.7 93.2 93.6 93.9 94.2 94.5 94.8 95 95.2 95.4 95.5 95.7 95.6 94.9 95.3 96.4 97.7 98.5 99.2 100 100.8 101.6 102.2 103.3 104.2 104.9 105.5 106.1 106.1 106.6 107.8 109 110.5 111.2 112 113.2 114.9 116.1 116.8 118.2 119.4 120.9 122.7 124.6 126.6 128.1 129.7 131.8 133.4 133.8 135 139.8 143.2 146.9 151 157.1 165.5 178.4 198.8 210.7 212.2 212.8 212.8 212.8 212.1 211 210.7 210.3 210 209.8 209.6 209.4 209.1 209 208.8 208.7 207.9 207.3 206.8 206.2 204.7 202.7 196.6 187.7 176.5 171.1 174.4 179 184.9 189.9 190 198.1 201.1 201 200.7 197.6 193.3 197 200.6 200.9 193.8 193.4 201.3 199.3 198.7 198 197.4 196.5 195 195.5 194.4 194.2 192.6 183.3 172.4 164.4 168.8 174.8 183.7 188.6 187.1 175.3 171.1 176.4 187.6 187.7 188.4 186.7 181.8 188.1 187.8 187.2 187.7 187.4 185.8 185.6 186.6 186.6 186.5 185.6 184.8 184 182.6 178.7
85.9 86.2 85.9 84.7 83 80.9 79.5 79.8 79.8 80.2 80.7 80.5 80.6 81.4 82.3 84.7 87.3 87.6 87.5 89.7 93.1 94.1 93.9 94.8 96.3 94.9 93.3 92 91.2 90.6 90.3 89.9 90.1 90.1 91 91.1 90.8 89.5 88.1 87.1 88.1 89 89.9 90.2 90.6 90.8 90.7 90.8 91 91.1 91.2 91.4 91.5 91.5 90.5 91.2 92.6 93.3 93.8 94.2 94.5 94.7 94.9 95.3 95.7 95.9 96 96.2 96.3 95.9 95.5 95.7 96.6 97.9 98.8 99.1 100.2 100.9 101.5 102.9 104.1 104.9 105.5 106 106.2 106.2 107.4 108.6 109.5 111.7 112.5 113.7 114.7 115.8 117.1 118.5 119.9 121.7 123.4 125.1 126.5 128.5 131 134 136.5 138 137.7 138.4 143 147.7 152.3 157.5 165 176.5 193 210.5 211.9 212.3 212.4 212 211.5 210.7 209.9 209.4 209.1 208.9 208.9 208.7 208.4 208.3 208.4 208 207.2 206.8 206.2 205.8 204.9 203.4 200.6 194 183.3 172.4 170.1 174.2 178.3 181.4 187 195 199.7 200.3 199.8 198.3 190.9 197.5 200.2 200.4 196.3 198.6 196.2 198.9 198.3 197.7 196.9 195.1 191.4 191.1 189 183 181.2 175.5 164.8 162 161.2 165.3 171.5 177.6 184.9 175.6 166.9 170.4 183.1 183.3 185.9 186 178.4 185.8 185.8 183.1 185.9 186.4 185.8 183.9 184.1 184.7 185.4 185.3 184.1 183.1 182 179.5
88.7 88.6 88.1 87 85.2 83 81.1 79.6 79.9 80.3 80.9 81.3 81.5 82 82.3 82.7 84.5 85.2 86.3 88.2 91.7 93.6 92.5 93.3 95 96.2 94.8 92.9 91.8 91.1 90.8 90.5 90.5 90.7 91.4 91.6 91.4 90.5 88.9 87.6 88.7 90.5 91 91.3 91.6 91.7 91.8 91.7 91.7 91.7 91.7 91.6 92.2 92 91.8 90.9 92.4 93.1 93.7 94.1 94.4 94.8 95.2 95.6 95.9 96.2 96.5 96.7 96.8 96.7 96.1 95.9 96.8 97.7 98.8 99.2 100.6 100.6 101.5 102.4 103.6 104.6 105.1 105.4 105.6 106 107.2 108.1 111.5 112.1 113.4 114.6 115.5 116.4 117.5 118.7 120 121.7 123.1 124.6 127.1 130.3 134.3 137.9 140 141.2 141.6 143 143.3 146.2 151 157.3 165.4 176.8 192.7 209 211.8 212.1 211.9 211.2 210.3 210.1 209.3 207.3 206.4 208.2 208.3 208 207.6 207.6 207.6 207.2 206.6 206 205.7 205.4 204.6 203.5 201.5 198.4 189.7 178.5 169.4 170.6 174.4 179.9 189.7 196.5 198.8 199.4 199.2 193.1 190 197.5 199.8 200 198.7 201.2 198.6 198.5 197.9 197.4 196.9 195 191.6 186.8 183.4 181.7 179.2 176.9 173.4 170.3 165.8 159.1 164 168.1 172.2 170.8 165.4 166.2 176.1 175.1 180.5 184.2 173 176 182.2 179.2 178.8 183.2 184.5 184.3 181.7 181.8 183.1 183 183.2 182.3 180.7 178.4
89.7 90 89.4 88.3 86.8 84.8 82.9 81.4 80 80.2 81.1 81.7 82 82.1 82.4 82.7 83.4 84.4 85.2 86.9 89.3 91 91.4 92.4 94 96.9 96.5 94.3 92.9 92 91.5 91.1 90.7 90.8 91.2 91.5 91.7 91.4 89.7 87 89.6 91.6 92.2 92.4 92.5 92.7 92.7 92.8 92.7 92.7 92.4 92.6 92.8 92.5 92.3 92.1 91.4 92.5 93.2 93.9 94.4 95 95.5 95.8 96.2 96.5 96.7 97 97.3 97.6 96.9 96.4 97 97.9 98.9 99.5 100.8 101 101.4 103.2 103.6 104.4 104.6 104.7 105.1 105.8 107.2 109.3 111.7 113.1 114.3 115.1 116 116.9 118.4 119.4 120.5 121.8 123.1 125.5 128.9 133.1 137.9 140.9 142.2 142.9 144.5 146.4 147.9 149.6 153 159.2 166.9 177.2 198.5 209.1 211.5 211.7 211.2 210.4 209.7 209.5 209.2 205.9 204.5 206.9 207.5 207.1 206.9 206.8 206.7 206.5 205.9 205.1 204.6 204.7 204.1 203.2 201.8 199.3 193.2 181.6 169.3 168.9 172.9 179.7 190.9 195.5 197.5 198.4 197.9 188.5 186.7 197.4 199.6 199.9 199.2 203.2 198.5 198.2 197.8 197.1 196.9 196.1 194.8 192.8 191.8 190.6 190.9 188.8 186.5 181 170.8 164.9 156.7 161.8 164.4 164.4 161.6 161.4 164.7 166.1 172.7 180.7 168.2 168.5 172.7 173.1 169.3 175 182.9 182.8 182 180.3 179 177.6 177.2 181.2 179.9 177.6
90 90.1 89.6 89 87.5 85.8 84 82.2 81 80.6 81.6 82.4 82.5 82.6 82.7 82.8 83.1 83.9 84.9 86.1 87.7 90 92.1 92.2 93.6 96.5 98 96.1 94.1 93 92.3 91.7 91.2 91 90.7 90.9 91.4 91.6 89.9 87.8 89.9 92.2 93.1 93.2 93.4 93.5 93.6 93.7 93.8 93.6 93.4 93.8 93.5 93.4 93.5 92.7 92.6 92.7 92.5 93.6 94.2 94.8 95.3 95.8 96.4 96.7 97 97.2 97.6 97.9 98.3 96.7 96.8 97.8 98.5 99.3 100.6 101.2 102.1 103.3 103.6 103.5 104 104.4 104.9 105.4 107.4 109.7 112.5 114 115 115.6 116.5 117.6 119 120.2 121.4 122.6 124 126.5 131.2 136 140 142.1 143.3 145.1 147 149.6 152.2 155.4 159.1 164.2 171 184.2 205.1 210.7 211.3 211.1 210.1 209.6 209.4 208.9 208.3 204.7 200.3 205.9 206.3 206.1 205.5 205.9 206 205.7 205.2 204.7 203.3 203.2 203.3 202.4 201.4 198.7 189.7 178 169.1 167 171.7 178.4 189.1 194.1 196.1 197.4 195.3 183.7 185 195 198.6 200 200.4 203.7 198.2 197.7 197.7 196.7 195.4 193.3 192.2 191.5 191 190.2 189.5 189 188.5 188.3 183.3 170.7 163.2 155.4 157.6 158.3 157.1 157.1 158.1 160 164.3 169.5 165.9 162.4 162.9 163.4 162.1 167.6 177.8 180.2 181.6 181.3 180.4 176.5 172.2 171.3 173.5 177.3
89.3 89.3 88.8 88.6 87.8 86.1 84.3 83.1 82 81.7 82 82.7 82.9 83.1 83.2 83.1 83.4 84.2 85.2 86.7 88.6 91 93.9 93.7 94 96.1 98.8 98 95.7 93.9 93.1 92.6 92 91.4 90.7 90.4 90.2 90.5 89.2 88.2 90.3 92.4 93.4 93.8 93.9 93.9 94 94.1 94.2 94.6 94.8 94.4 94.7 94.6 94.7 93.7 93.1 93.1 93.1 93.3 94 94.5 95 95.4 96.3 97 97.6 97.5 97.8 98.2 98.5 97.7 96.7 97.5 98.3 99.1 100.4 101.8 102.6 103.1 102.6 103 104.2 104.8 104.9 106.1 108.5 110 112.6 114.1 115.2 116 116.9 118 119.4 120.9 122.1 123.5 125 127.3 132.9 137.8 140.1 142.4 144.9 147.1 150.4 153.8 157.7 161.5 165.8 170.7 181.2 199.4 209.6 210.6 210.8 210 209.6 207.9 207.5 207.6 206.1 204.3 196.2 197.3 202.2 205.6 204 204.8 205.2 204.5 204.1 204.2 203.1 201 201.8 201.8 200.8 197.8 186.6 175.1 166.7 165.4 170.8 177.5 187.8 192.3 194.6 195.2 186.9 179.1 183.9 196 198.4 199.5 199.7 202.5 197.9 197.5 195.7 193.6 192.4 192.2 191.6 191.1 190.7 189.9 189.3 188.8 188.3 187.7 187.8 181.4 173.3 165.3 159.1 155.8 154.2 153.7 154.2 154.5 156.2 159.4 160.1 158.7 156 157.8 157.5 164.1 174.4 178.2 178.6 179.6 180.3 180.1 176.6 169.8 166.4 166.8
87.9 88.1 88.1 87.8 87.2 86.3 84.8 83.4 82.2 81.7 82.2 82.7 83.3 83.5 83.6 83.6 83.8 84.4 85.7 87.8 90.4 92.7 95.2 95.5 94.9 96.2 98.7 99.7 97.3 95.7 94.2 93.4 92.7 91.9 91.1 90.3 89.7 89.2 88.6 88.7 90.3 91.8 92.7 93.2 93.3 93.6 93.7 93.8 93.9 94.2 94.4 94.9 95 95.3 95.6 94.9 94.2 94 93.9 93.7 93.3 93.9 94.7 95.4 96 96.6 97.3 97.7 98.1 98.5 98.5 98.4 97.8 97.6 98.6 99.4 101 101.3 101.6 100.5 101.2 102.6 104.3 105.1 105.6 106.8 109.1 111.4 113.3 113.8 115.7 116.5 117.3 118.4 119.9 120.9 122.5 123.8 125.3 127.7 131.5 134.6 138.5 142.4 145.9 149.8 154 159 164.3 172 181 190.4 200.7 208.7 209.8 209.4 209.7 207.9 208.5 206.4 202.8 205.8 202.3 202.3 198.3 190 194 204.2 201.9 202.7 204 203.3 202.5 203.3 203 200.4 198.8 201.5 200.2 197.2 186.5 174.1 166.3 163.6 169.4 176.1 184.4 186.3 191.3 187.7 180.2 176 182.8 196.5 198 198.1 198.6 198.9 195.3 192.9 191.9 191.7 192.1 192 191.8 191.2 191 190.2 189.4 188.8 188.6 188 187.7 187.6 186.3 180.7 173 165.7 162.6 158 152.3 151.4 150.1 152 154.7 155 151.6 152 153.7 158.7 168.1 171 173.2 175.8 177.8 178.8 178.8 176 168.5 161.9
86.4 86.9 87.1 87 86.5 86.1 85.3 84.1 82.9 82.3 82.5 82.9 83.4 83.7 83.8 83.9 84 84.1 85.5 88.2 91.9 94.2 95.9 96.4 96.5 97 98.6 101.1 99.4 97.1 95.5 94.4 93.1 92.2 91.4 90.5 89.7 89.6 89.2 88.7 89.4 90.4 91.3 92 91.9 92.1 92.3 92.5 92.5 92.8 93.6 94.1 94.8 95.7 96.1 95.2 95.7 95.3 95.1 94.8 94 94.6 95.4 96 96.5 97 97.5 98 98.1 98.6 98.9 98.9 98.6 98.3 98.3 99.2 99.8 99.9 100.4 102 102.5 103.1 103.3 105.1 106.2 107.5 109.3 111.5 112.6 113.7 114.3 115.8 117 118.3 119.4 120.4 122.2 123.9 125.8 127.6 129.8 134.3 138.8 142 146 151 156.9 164 173 184.5 199.6 207.4 209.8 209.7 209.7 209.2 205.3 205.3 205.3 202.1 197 199.6 197.6 197.5 202.5 188.5 189.1 203 200.4 198.9 200.5 201.9 200.4 202.1 202.2 199.7 195.4 198.4 199.4 197.1 187.2 175.2 167 163 166.5 171.9 174.4 177.4 181 178.3 174.2 174.3 183.6 195.5 198.1 198 197.7 197.6 192.3 191.7 191.2 191.3 191.9 191.8 191.7 191.5 191 190.2 189.3 188.7 188.5 188.6 188.2 187.1 186.4 186.5 186.2 184.5 177.2 168.9 163 155.3 151.7 149.6 149.7 149.5 149.9 149.6 150.4 155 159 161.6 164.3 167.5 172.4 175.6 176.6 176.2 174.1 165.6
85.1 86 86.4 86.4 85.9 85.5 85.1 84.5 83.4 83 82.7 83 83.5 83.9 83.9 84.2 84.4 84.3 85.2 87.2 89.7 92.8 94.6 97 99.2 99.8 100.2 101.9 101.4 98.7 97.1 95.7 93.9 92.8 91.8 90.8 90 89.6 88.9 88.8 89.4 89.8 90.2 91.4 91.7 91.7 91.9 92.5 92.6 92.5 93 93.6 94.2 95.2 96.3 96.5 96.6 96.6 96.6 96 95 94.9 96.2 97.2 97.7 97.8 98 98.2 98.6 98.8 99.3 99.3 99.4 99.1 98.8 98.1 98.7 100.1 102 103.1 103.7 104.4 104.5 103.9 104.8 106.9 108.4 110.1 111 112.4 113.6 114.5 115.9 117.4 118.9 120.2 121.8 123.3 126.3 129.4 132.9 135.2 137.1 140.6 146.2 152.2 159.3 169.9 182.7 199.1 207 209 209.7 209.7 209.6 208 204.6 199.3 196.9 194.1 190.1 189.4 189 192.8 200.6 186.6 184.9 195.7 200.7 195.1 194.5 199.5 197.6 201 201.4 199.2 192.7 195.6 198.7 197 189.2 177.1 168.6 163 162.2 165 166.5 166.8 170.8 170.8 169.3 174.6 187.2 195.9 197.7 197.5 197.4 197.1 191.5 191 190.6 191.2 191.3 191.3 191.6 191.4 190.5 190 189.1 188.6 188.5 189.1 188.1 186.9 185.9 185.3 185 184.7 185 182.6 172.6 163.4 156.7 151.6 149 148.2 147.8 147.5 147.7 149.6 152.2 153.8 155.5 158.4 164.1 169.7 172.6 174 173.4 166.7
85.1 85.4 85.6 85.6 85.3 84.8 84.3 84.6 83.9 83.6 83.4 83.2 83.6 83.9 84.1 84.4 84.9 85 85.4 86 88.3 91.1 94.7 99.7 103.1 104.3 104 102.8 102.2 100.4 99.1 97.2 95.2 93.5 92.5 91.5 90.6 90 89.6 89.5 89.7 90 90.5 90.6 90.8 91.3 92.1 92.6 92.8 92.6 93.2 93.5 93.9 95.1 96.3 97.1 97.2 97.2 97.6 97.2 96.2 94.5 96.6 98.1 98.9 99 99.1 99.3 99.4 99.5 99.6 99.7 99.9 99.9 99.8 98.9 99.6 101.3 102.4 103.5 104.3 105.2 105.6 105.9 105.8 107.6 109.2 111 112.1 112.8 113.6 114.6 115.8 117.5 119.1 120.5 121.8 123.9 127.1 131.5 135.9 138.2 140.7 143.1 148 153.8 162.8 177.7 193.4 204.9 208.2 209 209.5 209.6 209.1 207.2 204.6 201.4 198.1 194.4 191 185.8 181.1 185.7 193.1 184.6 181.3 190.7 199.4 190.9 190.3 199.6 194.7 198.5 200 195.8 188 193 197.7 196.4 191.5 180.6 170.6 163.9 160.4 161.1 162.2 163.1 164.6 164.9 169.8 179 192.2 195.9 197 197.3 197 196.6 190.9 190.4 190.4 190.7 190.8 191.1 191.6 190.9 189.9 189.7 188.9 188.6 188.5 188.9 187.6 186.7 185.7 185.1 184.9 184.5 184.7 184.6 180.8 176.4 164.9 158.9 153.4 149.8 147.6 147.3 146.3 146.3 146.5 147.8 149.7 152.7 156.9 162 166.2 168.9 170.2 165.5
85 85.1 85 84.9 84.7 84.2 83.6 83.7 84.1 84.2 83.9 83.6 84.1 84.2 84.5 85 85.6 85.4 85.7 85.4 87.3 90.6 94.5 99.2 104.4 106.2 106.6 104.4 101.7 100.4 100.7 99.5 96.8 94.7 93.1 92.2 91.4 90.7 90.2 89.9 89.8 90.2 90.5 90.7 91.3 91.8 92.1 92.6 92.6 93.2 93.4 93.9 93.9 94.7 95.9 97.1 97.5 97.8 97.9 98 97.1 95.5 96.6 98.4 99.8 100 100.2 100.4 100.6 100.6 100.7 100.7 100.7 100.6 100.7 100.4 99.8 99.8 102.5 103.8 104.8 105.6 106.2 106.6 106.7 107.1 109.1 111 111.8 112.8 113.7 114.6 116.1 117.7 118.7 119.7 121.4 125 130 134.7 138.2 140 142.6 145.8 150 155.9 166.8 185.1 201 206.3 208.2 209 209 208.9 208.3 206.8 204.4 204.1 201.8 199.9 197 190 181.4 177.3 181.6 179.8 179.2 189.2 198.5 187 187.5 197.7 189.7 196.2 198.6 192.2 184.2 188.5 197.2 196 193.2 183.6 172 165.4 160.6 159.4 159.5 159.7 162.4 166.7 174.6 187.3 193.8 195.6 196.1 197 196.6 196.2 190.5 189.9 189.5 189.7 190.2 190.9 191.4 190.4 189.4 189.1 188.7 188.6 188.5 187.7 187 186.3 185.6 185 184.6 184.4 185.2 185.7 183.5 182.2 174.2 167.4 162.7 157.9 153.4 151.2 148.6 148.1 145.8 145.6 145 148.1 151.4 155.6 159.3 162.3 164.8 161.6
84.8 84.8 84.5 84.2 83.9 83.3 82.7 82.7 83 83.5 84.2 84.1 85.2 85.4 85.5 85.7 86.3 86.1 85.8 85.9 86.3 87.8 91.7 95.9 99.9 103.3 105.6 102.9 99.8 99.7 101.6 101.4 98.2 96 94.3 93.4 92.8 91.8 90.9 90.4 90.2 90.6 91 91.3 91.4 91.8 92 92.2 92.9 93.2 93.9 93.6 93.9 94.6 95.6 96.7 97.4 97.9 98.2 98.3 97.6 95.8 96.4 98.3 99.6 100 100.4 101 101.7 101.8 101.8 101.8 101.8 101.8 101.7 101.6 101.3 100 101.5 103.5 104.5 105.4 106.3 107.4 108.2 108.6 108.7 110.9 111.2 111.8 112.1 112.7 114.9 116.2 117.5 119.3 121.4 126.2 132.2 137.2 139 140.6 142.9 146.6 152.8 160.5 173.4 189.6 203.2 206.3 208 208.5 208.3 207 206.5 205.4 204.5 204.3 203.8 202.7 200.4 193.2 182.4 176.4 173.6 172 178.6 188.7 194.5 182.8 184.6 192.1 184 190.5 197.2 190.9 181.6 184.5 195.5 195.7 193.6 188.3 177.8 170 165.1 161.4 157.9 158.3 163.4 171 185.9 193 194.1 195.2 195.7 196.3 196 195.6 192.7 191.3 188.9 189.2 189.9 190.4 190.6 189.8 189 188.4 188.1 188.4 188 187.2 186.5 185.9 185.5 184.8 184.6 185.2 186.7 184.1 182.5 182.1 182.5 181.2 178.2 174.4 166.4 160.6 154.1 152.3 146.8 146.1 145 142.1 146.2 149.9 152.7 155.3 157.6 155.4
84.5 84.2 83.8 83.5 83.1 82.5 82.1 81.8 81.9 82.4 83 84.1 85.2 85.9 86.9 87.2 87 86.9 86.7 86.4 86.7 87.1 87.6 90.4 93.6 97.9 101.2 100.1 97.6 98.8 101.5 102.6 99.1 97.1 96.1 95.5 94.5 92.9 92.2 91 90.7 91 91.4 91.8 92.1 92.2 92.3 93 93.5 93.9 94.1 94.1 94.4 94.8 95.3 95.9 97.3 97.9 98.4 98.6 97.9 96.2 96.2 97.7 98.9 99.3 99.8 100.3 100.7 101.1 102.3 102.9 103 102.9 102.7 102.5 102.2 101.7 101.2 103.3 104.4 105.3 106.4 107.7 108.2 109.1 110.1 111.1 111.5 112.5 113.3 114.9 116 116 117.6 119.2 121.3 126.4 132.2 137.4 139.6 141 143.6 146.3 152.8 162.2 174.6 195.3 203.6 206.2 206.9 206.7 203.3 203.4 204.9 204.6 204 203.6 203.1 202.6 201.6 198.3 191.4 180.4 174.3 168.9 176.4 186.4 190.3 178.8 180.5 186.1 179.3 186.5 195.8 188.4 178.7 181.3 194.3 195.3 194.2 191.7 186.5 178.5 169.2 162.9 157.9 157.9 163.1 173.4 188.4 191.7 193.5 194.7 195.1 195.5 195.5 195.2 194.8 188.9 188.4 188.9 188.9 189.7 191.2 189.2 188.9 188.4 188.1 187.9 188 186.7 186.2 185.8 185.3 185 185.4 186.1 184.9 183.3 182 181.5 181.5 181.2 180.8 180.3 179 175.6 167.9 160.8 156.4 154.5 147.1 143.4 141.7 144 145.8 149 151.1 149.8
83.5 83.3 83.1 82.8 82.4 81.9 81.3 81.1 81.4 81.8 81.9 83 84.1 85.4 87.2 88.6 89.1 89 88.4 87.4 86.5 86.8 87.2 87.4 88.3 90.5 94.4 95.9 95.5 97.7 100.5 102.5 99.8 98.6 98.5 97.8 96.3 94.5 92.3 91.1 91.1 91.5 91.9 92.2 92.6 92.9 93 93.3 94.1 94.5 94.5 94.4 94.4 94.8 95.4 96.2 97.3 97.7 98 98.3 97.3 96.4 96.1 96.7 97.8 98.4 98.7 99 99.4 100.2 101.8 103.3 104.4 104.5 104.5 103.8 103.1 102.7 101.9 103.1 104.2 105.3 106.6 107.8 108.3 109.2 110.4 111.4 112.3 113.5 114.7 115.9 117 117.9 118.5 118.4 121.2 125.3 131.5 136.7 139.4 141 142.8 145.7 152.5 159.5 172.9 188.2 202.7 204 203.6 200.9 202.7 203.5 203.8 203.9 203.4 202.9 202.4 201.9 200.9 200 197.9 186.4 176.3 169.7 172.6 182 184.7 175.6 177.1 181.4 175.4 181.8 192.2 182.7 175.1 179.1 192.9 194.4 193.7 192.2 189.9 185.2 171.9 163.9 159.4 157.9 160.6 168.4 184.4 190.7 192.7 193.9 194.3 194.8 195.1 194.8 194.4 188.4 187.8 187.5 186.5 185.9 188.6 188.6 188.6 189.4 189.5 188.7 187.9 186.3 185.9 185.6 185.4 185.7 185.5 184.7 183.8 183.2 181.9 181.6 181.2 180.8 180.4 179.8 179.2 178.7 177.6 175.2 167.8 162 153.9 147.8 143.1 140 140.4 143.1 144.1 144.2
82.4 82.2 82 82 81.8 81.3 80.7 80.8 81.1 81.5 81.9 82.5 83.5 85.3 87.6 89.3 90.3 90.6 89.4 89.2 89 88.7 87.9 87.3 88 88.8 90.5 91.5 93.8 97.3 100.1 100.5 99.8 100.6 100.9 100.1 98.1 95.2 92.6 91.5 91.5 91.9 92.2 92.6 92.9 93.3 93.8 93.9 94.7 95 95 95 95.2 95.4 95.4 96.6 97.3 97.5 97.7 97.9 97.2 96.4 96.3 96.5 97 97.2 97.6 98.4 99.1 100.1 102.2 104.6 106.1 106.4 106.2 105.3 104.3 103.7 102.8 102.9 104 105.2 106.3 107.5 108.3 109.7 110.4 111.5 113.1 114.2 115.4 116.7 117.9 118.9 119.8 120.4 121.2 124.4 130 135.9 138.9 139.5 140.2 143.4 148 155 167.3 181.9 192 199.2 201.3 202.8 203.2 203.1 203.4 203.2 202.5 202.1 201.6 201.1 200.3 199.4 198.2 189.2 175.3 168.6 168.7 174.6 176.9 172.3 171.9 175.2 170.8 177.8 184.1 177.7 172 177 191.8 193.2 193 191.9 190.2 186 174.2 166.8 162.2 157.9 157.9 164 174.5 188 191.7 192.7 193.5 193.8 194.3 194 193.8 193.1 187 186.9 186.4 185.6 188.4 190.6 190.3 190.6 190.4 189.7 187.7 185.9 185.5 185.6 186.1 185.1 183.7 183.5 182.8 182.7 182 181.4 181.1 180.7 180.4 179.8 179.1 178.2 177.9 177.3 175.3 171.1 165 156 148.3 143.6 140 137.9 139.3 139.3
81.8 81.3 81.2 81.2 81.2 81 80.4 80.8 81.5 81.9 82.2 82.5 82.8 84.7 87.2 89.1 90.5 91.6 92.6 92.6 92.3 91.7 90.5 89.3 88.3 88.3 88.7 89.8 92.3 97.2 99.3 98.3 98.6 100.5 101.5 101.7 98.4 95.7 93 91.9 91.8 92.2 92.5 92.9 93.2 93.6 94.1 94.5 95.2 95.6 95.6 95.6 95.7 95.9 96.5 96.7 97.8 97.8 98 97.8 97.1 96.9 96.8 97 97.5 97.8 98.2 98.8 99.4 100.3 102.5 106.2 108.3 108.2 107.8 107 106 104.5 103.6 102.5 103.6 104.7 106.1 107.2 108.7 109.9 110.7 111.5 113 114.6 115.9 117.3 118.6 119.7 120.7 122 123 122.8 127.5 133.5 137.1 135.6 140.9 145.1 149.5 157.5 171.8 187.8 198.8 200.6 201.5 202.6 202.8 202.8 202.8 202 201.5 201.3 200.7 200.2 199.4 198.6 197.5 190 175.7 168.6 164 167.4 168.1 167 167.8 170.4 168.6 174.6 180.2 176.1 169.1 174 185.3 191.4 191.3 190.6 189.9 187.4 180 171 164.4 158.6 156.1 160.7 169.9 185.3 190.7 192.1 192.7 193 193.3 193.5 193.1 192.5 186.8 186.7 186.8 186.4 191 191 190 189.7 190.3 189.8 188.9 187 187.4 187.1 185.1 184.3 183.8 183.4 182.5 182.2 181.7 181.4 181 180.4 180.2 179.7 178.9 178.2 177.8 177.5 177 175.6 172.4 168.1 156.9 149.2 144 139.9 137.2 139.3
81.3 81.1 80.6 80.5 80.1 80.1 80.5 80.6 81.4 82 82.5 82.7 83.1 84.1 85.6 87.3 88.9 91 93.5 93.9 93.8 94.2 92.9 91.5 90.6 89.1 88.3 88.6 89.6 92.8 95.1 95.2 96.2 98 100.3 100.5 98.1 94.8 93 92.3 92.2 92.5 92.9 93.2 93.5 93.9 94.4 95 95.7 96 96.1 96.1 96.2 96.4 96.8 97.5 97.8 98 98 97.6 97 97.5 97.5 97.5 97.8 98.2 98.6 99.1 99.7 100.6 103.5 107.5 109.8 109.9 109.4 108.5 107.2 105.6 104.6 103.3 102.5 104.4 106.2 107.3 108.3 109.6 110.6 111.4 113 114.4 115.7 116.8 118.4 119.8 121.6 123.5 125.2 125.5 125.1 128.1 131.4 137.3 141.2 143.4 148 156.6 169.3 178.5 189 200.7 201.3 201.5 201.1 201.5 201.8 200.8 200.5 200.3 199.8 199.3 198.6 197.6 196.8 192.6 179.4 170.9 165.3 162.3 161.8 161.7 162.6 163.9 165.2 170.9 175.4 173.9 167.3 168.2 176.7 188 187.9 188.9 188.8 187 180.2 169.7 163.4 157.8 154.8 159.5 169.4 187 190.6 191.2 191.7 192.1 192.1 192.8 191.9 186.1 186.4 186.5 186.1 187.7 189.8 190.1 189 189.3 189.5 188.8 188.1 187.9 187.7 184.8 183.9 183.9 183.7 183.2 182.2 181.7 180.9 180.4 180.9 179.8 180.2 181 179.5 178.5 177.8 177.6 177.4 177.7 175.6 173.5 168.5 158 150.6 144.5 140.9 138.4
80.6 80.6 79.9 79.7 79.4 79.8 80.5 80.6 81.2 81.8 82.3 83 83.6 84.3 85.3 86.9 88.5 90.3 92.3 94.1 94.9 95.2 95 94.1 93.4 92 90.4 88.2 89.4 89.8 91.5 92.5 94.2 95.3 97.1 98.7 98.2 94.9 93.2 92.5 92.5 92.7 93.2 93.5 93.8 94.3 94.9 95.6 96.1 96.4 96.5 96.7 96.7 96.8 97 97.8 98 98.3 98.7 98.1 98.2 98.3 98.3 98.2 98.3 98.6 99 99.4 100 101.5 104.3 108.6 111.2 111.2 110.7 109.6 108.1 106.6 105.4 104.3 104.1 105.4 107 107.4 108.4 109.2 110.3 111.3 112.8 114.2 115.7 116.7 118.4 120.5 123.4 126.1 128 129.7 130.3 130.8 130 133.6 138 141.6 146.3 153.4 161.8 169.2 179.2 193.8 200.9 201.7 201.8 201.6 201.2 199.8 198.7 199 198.8 198.5 197.6 196.4 195.9 194.7 187.9 176.9 170.2 167 164.3 161 159 158.4 162.3 165.8 169 168.3 164.7 165 172.5 183.5 181.8 183.3 185.7 182.7 174.1 165.6 161.1 155.8 153.5 160 170.9 186.9 189.2 190.9 191 190.9 191 191.7 185.6 185.4 185.5 185.8 185.4 186.4 188.3 188.9 187.4 188.5 188.3 188.1 186.3 186 186.3 184.9 182.7 183 183.2 182.8 182.4 181 180 179.2 180.5 179.3 180.5 183.1 183 182 180.2 178.3 177.8 178.7 177.8 175.8 173.2 169.2 161.5 150.2 144.4 140.6
79.7 79.6 79.6 79.5 79.5 80 80.5 80.8 81.6 82.5 83.3 84.1 84.4 85.3 86.5 87.9 89.2 90.4 91.9 93.6 94.9 95.5 95.6 95.3 95.3 94.1 92.8 91 89.8 89.8 90 91.2 93.1 93.6 94.7 96.2 97.4 94.8 93 92.6 92.8 93 93 93.4 94.1 94.6 95.2 95.8 96.3 96.7 96.8 97 97.2 97.3 97.4 97.7 98.1 98.5 98.9 98.7 98.7 98.9 99 98.8 98.9 99.2 99.5 99.9 100.6 101.9 104.7 108.2 110.9 111.8 111.5 110.3 108.8 107.3 106.4 105.1 105.3 105.7 106.8 107 108.8 109.4 110.4 111.3 112.3 114 115.5 116.6 119.5 123.1 126 128.4 130.4 132.2 133.3 134.3 135.5 135.3 137.1 139.6 144.4 149.8 153.8 161.8 173.8 192.4 201 201.5 201.3 201.1 200.8 198.7 195.2 195.1 196.6 197.4 196.1 194.7 193.3 192.9 192.6 186.4 177.3 171.9 168.9 165.9 162.2 156.9 158.7 159.9 160.4 161.7 160.2 163.9 171.3 175.1 174.8 176.3 182.6 177.2 167.8 160.8 157.4 152.7 155.1 162 175.6 187.3 189.3 190 189.8 189.5 189.7 190.3 185.1 184.9 184.7 185 184.6 185.7 186.7 188.2 186.1 187.4 187.7 187.3 186.3 184.1 184.1 183 181.4 181.3 181.5 182.1 181.8 180.8 180 177.5 178.3 179.1 181.5 182.7 182.4 182.2 181.9 181.4 180.5 179.3 178.5 177.1 175.4 172.6 167.5 157 149.6 144.5
79 79.5 78.7 78.6 79.2 79.8 80.5 81.6 82.6 83.5 84.4 85.2 86 87 87.9 89 90.1 91.3 92.1 93.4 94.7 95.2 95.4 95.5 96.2 96 94.9 93.1 91 90 90.2 90.5 91.7 92.3 93 94.1 94.7 94.5 92.9 92.8 92.9 93.2 93.3 93.8 94.4 94.9 95.4 96 96.6 96.9 97.1 97.3 97.6 97.8 97.9 98.1 98.4 98.7 99.1 99.2 99.1 99.2 99.7 99.4 99.5 99.9 100.2 100.6 101.3 102.6 104.9 107.6 110.2 111.2 111.8 111 109.3 108.5 107 106.1 106.4 107.4 106.4 107.3 109.1 110.1 111.1 112 113.5 115 116.2 118.3 121.7 125.4 128.5 130.5 132.2 134.4 135.9 136.8 138.2 138.9 140.4 141.9 144.3 147.6 152.5 161.4 176 195.5 200.4 201.1 200.8 200.5 199.9 198.5 194.3 190 190.6 194.1 190.7 189 190.4 186.6 188.2 188.5 180.7 173.5 169.6 167.4 164 159 155.2 156.8 156.6 156.2 157.3 164.4 169.5 172 170.4 171.1 177.8 172.2 162.7 157.1 153.5 152.7 157.4 165.4 181.6 187.3 188.4 188.9 188.6 188.3 188.7 189.1 187.9 183.7 183.9 183.9 183.9 184.2 185.9 187.3 184.9 185 186.8 186.9 185.9 183.9 180.8 179.9 180.4 178.8 180.2 181.5 181.1 180.4 179.7 177.6 173.2 176.8 181.8 182.1 181.8 181.9 181.5 181 180.4 179.6 179.3 177.9 176.6 174.8 171.4 167.2 161.1 153
78.9 79 78.9 78.7 79.6 80.1 81 82.3 83.8 85.2 86.4 87 87.9 88.8 89.8 90.6 91.4 91.9 92.7 93.7 94.5 94.9 95.2 95.3 95.6 96.1 95.9 95 92.9 91.2 90.7 90.8 91 91.5 92.3 93.2 94.1 94 93.4 93 93.1 93.3 93.6 94.2 94.7 95.2 95.7 96.2 96.8 97.2 97.4 97.7 98 98.3 98.4 98.6 98.9 99.2 99.4 99.7 99.6 99.5 99.5 99.7 100.2 100.6 100.9 101.4 102.5 104.2 106.4 108.6 109.9 110.8 111.2 111.2 109.8 108.6 107.9 106.9 106.6 107.6 107.1 107.9 109.6 110.9 111.9 112.6 114.7 116.2 117.7 119.9 122.5 126 129.6 132.1 133.6 136.3 137.9 139.3 141 142.8 143.2 146.1 148.9 153.2 158.6 166.7 182.1 198.1 199.8 200.7 200.4 200.1 198.7 197.5 195.5 189.7 185.4 186.1 184.3 182.2 183.3 179.5 178.2 176.8 173.2 169.5 164.4 162.7 159.9 157.5 155 154.3 154.7 152.9 156.6 162 165.2 166.3 164.2 166 168.2 164.7 159.4 154.9 151.4 153.6 160.3 171.9 184.7 187.1 187.8 188 187.6 187.1 187.7 188 188.3 182.7 182.8 182.9 182.9 183 183.9 185.7 184 183.5 185.8 185.3 184.8 184.6 181.3 176.9 177.3 176 177.2 180.7 180.2 179.5 178.8 177.5 171.2 172.3 180.8 181.1 181.4 181.5 181 180.5 180 179.8 179.2 178.3 177.6 176.3 174.4 171.8 168.4 163.3
79.3 78.7 78.8 79.2 80.1 80.3 81.8 83.7 85.5 86.8 87.9 88.5 89.2 89.9 90.7 91.4 91.9 92.4 93 93.7 94.2 94.6 94.8 95.1 95.3 95.7 96.2 96.2 95.1 93 91.8 90.2 91.2 91.6 92.1 93.2 94.1 94.3 94.1 93.7 93.4 93.6 94 94.5 95 95.5 96 96.5 97 97.5 97.8 98.1 98.4 98.8 98.9 99.2 99.4 99.7 99.9 100.1 100 100.1 100.2 100.4 100.5 101.3 101.9 102.9 104.1 106.2 107.2 109.5 110.2 111.1 111 110.7 110.2 109 107.9 107.6 107.2 107.4 108.8 108.3 109.9 111.6 112.9 114.1 116 117.7 119.8 122 125.2 128.5 131 133.5 135.8 137.8 140.2 142.2 144.8 147.5 148 150.6 154.5 158.8 164.9 175 191.1 198.8 199.6 199.8 199.8 199.6 198.4 196.3 192.8 188 182.7 179.5 177 174.3 174.2 171.7 170.1 169.1 167.4 164.5 160.2 156.5 155.4 154.9 153.7 153.2 152.1 152.4 154.5 157.2 159.4 160.5 158.8 161.5 161.1 159.5 156 152.2 149.5 155.4 164.3 179.8 185.2 186.4 186.7 187 187.1 185.8 186.1 186.7 187.1 181.9 182 182 182.1 182.1 182.7 183.3 182.9 180.8 184.4 184 182.9 183 181.7 176.9 173 171.1 173.9 179.2 179.2 178.5 177.8 176.5 169.4 167.8 178.6 180.2 180.1 180.5 180.3 180.1 179.8 179.5 179.2 178.4 177.8 177 175.6 174.1 171.6 168.8
79.8 79.9 78.7 79.2 79.7 80.6 82.7 84.9 86.6 87.9 88.7 89.4 90 90.7 90.9 91.4 92 92.5 92.9 93.4 94 94.2 94.5 94.7 94.9 95.3 96.3 97 96.2 94.2 92.8 92 91.5 91.8 92 93.5 94.9 95.8 95.6 94.5 94.2 94.3 94.3 94.8 94.9 95.7 96.3 96.8 97.3 97.8 98.2 98.5 98.8 99.2 99.4 99.7 99.9 100.2 100.5 100.5 100.5 100.7 100.9 101.1 101.6 102.1 103.5 104.3 106.2 108.1 109.1 109.9 110.6 111.4 110.7 110.3 109.8 108.8 108 107.7 107.9 108.6 109.4 109.4 110.3 112.5 113.8 114.9 116.6 120 123.3 127.4 129.3 130.7 132.4 135.2 137.7 141.6 144.3 146.6 149.9 152.9 154.5 156.5 160.3 165.4 172.8 186.4 197.5 199.1 199.3 199.1 199.3 199 197.5 196.9 194.6 190.3 185.4 180.9 173.6 171 169.6 167.7 166.2 164.4 161.4 159.9 159 158.9 158.6 157.4 156.3 154.8 153.2 151.2 151.4 153.1 154.6 154.5 154.9 156.6 155.3 154.9 152 149.4 151.7 157.8 169.3 181.9 184.2 185.7 185.9 186.1 186.2 184.8 185 185.6 185.8 181.5 181.1 180.9 181.1 181.2 182.7 179.9 179.2 178.6 183.3 182.7 181.1 181.1 181.6 178.3 172.3 168.5 171.7 177.8 178 177.4 176.5 174.8 167.6 163.5 172.3 178.6 178.1 179.5 179.7 179.4 178.8 177.6 178.3 178.3 177.6 177 176.2 174.9 173.5 171
80.6 80.1 79.8 79.6 79 80.7 82.4 84.7 87.2 88.3 89 89.6 90.2 90.8 91 91.3 91.8 92.2 92.7 93.2 93.6 93.9 94.1 94.4 94.6 95 95.8 97 96.8 95.3 93.6 92.8 92 91.9 92.1 92.9 94.7 96.5 97.2 96.5 95.8 95.3 95.3 95.4 95.6 95.9 96.2 96.6 97.1 98.1 98.6 98.9 99.3 99.6 99.8 100.2 100.4 100.7 101 100.9 101.1 101.3 101.5 102.1 102.5 103.1 104.6 105.9 107.8 109.6 110.3 110.8 111.4 111.4 110.9 110.1 109.9 109.4 108.7 108.2 109.6 109.9 110.4 110.5 110.6 111 113.8 115 117.8 121.9 126.1 129.2 130 130.6 133.2 135.5 138.9 144.7 151.1 154.3 157.8 160.1 162.5 163.6 168 175.8 188.6 197.4 198.9 198.9 199 198.6 198.2 198.2 196.7 196.2 195.6 193.6 188.7 181.3 177 179.4 177.6 174.5 172.2 169.7 168.1 166.2 165 164 162.9 162.9 161.5 159.5 156.4 153.6 150.6 148.6 150.4 150.6 151 152.1 151.7 150.3 148.9 148.9 154.1 160.9 172.9 181.3 183.9 185.1 185.1 185.2 185.3 184.4 183.5 184.1 184.5 185.2 180.5 179.6 180 179.4 182.5 178.3 175.4 177.4 181.9 181.2 179.1 178.6 180.6 178.7 174.1 168.2 168.9 176.4 177 177 175.2 170.5 164.9 160.2 164.7 170.9 173.2 177.3 178.6 178.6 178 176.3 177.5 177.7 177.3 176.6 176.3 175.5 174.4 172.4
80.9 80.4 80.6 79.8 79.1 80.5 82.3 84.1 86.6 88.3 88.9 89.5 90.1 90.5 91.1 91.1 91.5 91.9 92.4 92.8 93.2 93.6 93.8 94 94.4 94.8 95.2 96.1 96.8 95.9 94.3 93.4 92.7 92.3 92.4 93 94.1 95.9 97.4 97.6 97.8 97.4 96.9 96.3 96.5 96.8 97.1 97.4 97.8 98.4 98.9 99.4 99.7 99.8 100 100.5 100.9 101.2 101.4 101.5 101.6 101.8 102 102.2 103 104.2 105.8 107.5 109.3 110.6 111.2 111.6 111.5 111.3 110.9 110.7 109.5 109.7 108.4 109.8 110.3 110.8 111.4 111.6 112 111.8 111.6 114.7 118.7 121.9 125 127.1 128.6 129.8 132.4 135.6 139.3 146.2 155.9 167.4 171.2 172.2 174.3 179.8 185.7 193.6 197.7 198.7 198.8 198.8 198.7 198.3 197.9 197.3 196 194.3 193 191.3 184.4 181.3 186.5 189.4 189.3 189 186.9 184.1 181.9 179.7 177.2 174.6 172.8 170.4 167.3 163 159.1 155.4 152.9 150.5 148.5 146.9 148.6 149 148.5 147.8 146.7 151.6 157 166.7 178.5 182.4 183.9 184.2 184.3 184.3 184.3 183.4 181.3 183.8 184 184.2 180.7 179.4 178.8 179.1 181 178.5 173.8 177.1 181.2 180.5 177.7 175.1 178 178.4 175.4 168.2 165 171.4 176.3 176.6 173.3 166.4 161.4 156.8 159.2 165.6 172.9 176.9 177.6 177.5 176.7 174.2 175.7 176.9 176.6 176.3 175.8 175.2 174.2 173
81.3 81.2 80.9 80.5 80 80.4 81.9 83.5 85.8 88.1 88.8 89.4 90 90.1 90.8 91.5 91.2 91.6 92 92.4 92.8 93.2 93.5 93.8 94.2 94.6 95 95.5 96.2 96.2 95 94.2 93.4 92.8 92.8 93.2 93.5 94.9 96.5 98.2 98.9 99.7 99.2 98.4 98.3 98.5 98.6 98.8 99 99.6 99.8 99.9 100 100 100.2 100.7 101.2 101.7 101.9 102 102.2 102.4 102.6 103.2 104 105.1 106.5 108.8 110.7 111.4 112 112.2 111.9 111.9 111.5 110.5 109.3 110.6 109.6 110.8 111.2 112 112.4 112.8 113.2 113.4 112.5 115.3 117.6 120.5 123.6 126.5 129.4 131.2 133.3 136.3 140.1 146.7 157.6 171.9 184.3 189.4 191.3 195.4 196.6 197.3 198.2 198.6 198.6 198.5 198.4 198.6 197.8 197.1 195.9 193.7 192.3 191.6 187.4 189.9 193.4 193.3 192.7 192.2 191.6 190.5 189.8 188.8 187.3 185.1 182.1 176.2 170.8 165.2 160.9 156.6 153 150.7 148.7 146.8 145.6 146.7 146.9 146.3 148.7 153.9 164.3 174.9 180.8 182.7 183.2 183.4 183.4 183.1 181.3 179 181.1 182.8 183.4 183 180.8 178.7 177.5 177 180.2 178.8 172.7 174.2 179.2 179.2 175.9 171 174.5 176.9 175.7 169 161.4 167.8 175.7 175.8 173.1 164.5 158.5 153.5 157.9 169.3 174.9 176.1 176 175.8 174.8 171.8 173.9 175.4 175.6 175.5 174.8 174.5 173.6 172.8
81.7 81.5 81.4 81.4 80.7 79.6 81.7 83 85.2 87.4 88.6 89.4 89.6 89.8 90.5 90.5 90.8 91.3 91.7 92 92.4 92.8 93.2 93.6 93.9 94.3 94.7 95.1 95.8 96.2 95.8 95 94.2 93.6 93.2 93.4 93.7 94.2 95.1 97.1 99.3 100.5 100.9 100.4 100.2 100.4 100.5 100.7 101.2 101.7 101.3 100.9 101 101 101.1 101.3 101.8 102.2 102.4 102.6 102.8 103 103.3 103.8 104.8 105.8 107.6 109.9 111.6 112.1 112.4 112.7 112.4 112.3 111.9 111.4 111.6 111.1 110.6 110.7 111.9 112.8 113.6 114.1 114.4 115 115.3 115.8 118.6 121.8 125.8 128.8 130.7 132.5 134.7 137.5 141.2 146.7 154.7 166.2 181.2 193 196.2 197.4 197.8 202.4 198.3 198.1 198.1 198.1 198.1 197.8 197.3 196.9 196.2 195.2 195 193.7 192.6 194.2 194 193.5 192.8 192.6 191.7 191.3 190.4 189.6 188.8 186.3 181.4 175.5 168.8 163.6 157.9 154 151.8 149.6 150.4 149.6 148.6 145.9 144.8 146.2 151.6 161.3 173.3 178.9 181.2 182.2 182.6 181.8 182.2 180.4 173.3 174.6 180.9 182.5 182.5 182.3 181.6 177.9 176.3 176 177.9 179 172.2 171.7 176.8 176.6 172.2 166.5 167.8 170.1 172.4 168.1 161.4 164.2 172.7 174.1 171.5 162.7 154.9 150.4 159.9 173 174.1 174.2 174.2 174.2 173.5 169.5 171.3 173.4 173.8 173.3 172.9 172.7 172.4 172
82.3 81.9 81.9 81.9 81.4 79.5 81.1 82.8 84.6 86.7 88 89.1 89.3 89.5 89.8 90.1 90.5 90.9 91.4 91.8 92.2 92.6 92.8 93.1 93.4 93.7 94.2 94.7 95.7 96.7 96.5 95.6 94.7 93.9 93.8 93.7 93.8 94.2 94.8 96.3 98.7 100.3 101.4 102.3 102.3 102.4 102.5 102.2 103 103.3 103.3 102.7 101.8 101.8 101.8 101.7 102.2 102.7 103.4 103.3 103.5 103.8 104.2 104.6 105.3 106.6 108.7 110.6 112.4 112.6 112.6 113 113 113 112.5 112 112.1 112.3 112.1 112 112 113.4 114.5 115.2 116.1 116.5 116.2 114.6 117.5 121.9 126.1 129.1 131.3 132.7 135.3 138 142.6 146.7 152 160.2 171.3 181.1 191.6 197.3 197.8 198.3 197.9 197.8 197.4 197.4 197.3 197.5 197.2 196.9 195.6 196 195.9 194.8 194.1 194.2 193.9 193.2 192.5 192.1 191.6 190.7 189.3 188.1 185.3 178.6 171.8 166.4 162.7 157.6 155.9 155.5 155.5 154.3 154.4 153.5 152.5 150.9 144.3 146.2 153.7 168.4 176.4 179.4 180.7 181.5 181.1 175.9 171.4 169.6 170.7 180.5 181.7 181.7 181.8 181 180.6 180.3 176.3 175.6 174.7 176.6 170.4 168.3 173.8 169.5 164.4 161.6 159.2 160 165.3 169.7 161 159.7 165.9 170.4 167 158.8 151.6 150.7 163.8 170.1 171.2 172.1 172.1 172.1 171.2 166.3 169 171.2 171.7 171.2 170.5 170.3 169.9 170.1
82.9 82.7 82.6 82.1 81.5 80.7 80.9 82.9 85.1 86.2 87.4 88.5 88.8 89 89.4 89.7 90.1 90.5 91.2 91.6 91.9 92.1 92.2 92.6 92.9 93.2 93.7 94.4 95.5 96.8 96.4 95.9 95.1 94.3 94.2 93.9 94.1 94.5 94.9 95.6 97.4 99.6 100.6 102.1 102.9 103.2 103.7 102.7 102.8 103.8 104.4 104.3 102.9 102.5 102.2 102.3 102.6 103.1 103.4 103.5 104.4 104.7 105.1 105.5 106.3 107.6 109.6 111.4 112.8 112.9 113 113.1 113.3 113.4 113.4 112.9 113 113.1 113.1 113 113.3 113.9 115.1 115.9 117.2 117.4 117.4 118 116.1 121 124.1 127.5 130.1 132.4 135 138 141.1 144.8 149.8 156.2 163 170.5 179.9 191.2 197.2 197.4 197.4 197.3 197 196.7 196.8 197 196.8 196.6 194.4 194.5 195 195.3 194.5 194.3 193.2 192.5 191.8 191.4 191.1 189.8 186 181.7 176.1 169.8 163.2 162 162.5 162.9 163.2 162.2 161.2 160.8 161.4 159.3 157.8 154.4 147.4 144.8 151.5 164.7 173.4 177.5 179.3 177.8 170.3 164.7 162.6 166.3 176.2 180.7 181.1 180.9 181 180.7 179.7 179.2 178.5 174.7 173.2 170.5 164.1 164 163.9 162 158.9 160.4 161 157 156.8 165.5 163.6 153.1 157.8 160.8 157.6 153.9 148.4 148.4 152.6 155.8 161.4 168.3 169 169.4 168.5 162.5 166.6 169 169.9 169.5 167 167.1 166.3 167.6
83.6 83.5 83.3 82.9 81.9 81.4 81.5 82.7 84.2 86.3 86.9 88 88.2 88.6 89 89.4 89.8 90.2 90.7 91.3 91.5 91.6 91.7 92 92.4 92.7 93.2 94 94.9 95.8 95.9 95.7 95.4 95 94.1 94.3 94.4 94.8 95.2 95.5 96.5 98.5 100.1 100.8 101.8 102.6 102.5 101.6 102.1 103.4 106.2 106.1 104.2 103.2 102.7 102.8 103 103.4 103.6 104.1 105 105.4 105.8 106.2 107.2 108.6 110.5 112.4 113.6 113.6 113.9 114.1 113.9 113.8 113.8 113.8 113.8 113.9 114 114 114.1 114.5 115.2 116.7 117.2 118.3 118.6 118.8 119.9 117.5 122.6 125.7 127.8 130 133.3 136.4 140.3 144.2 148.8 153.2 157.6 162.6 169.4 180.8 194.2 196.1 196.7 196.8 196.7 196.4 195 194.7 196 195.1 192 192.3 192.8 193.6 193.8 192.8 192.5 192.1 191.6 190.8 190.1 188.4 186.3 178 171 168.6 170.8 172.5 174.6 176.4 176.2 173.1 172.4 171 168 165.3 162.1 157.4 150.4 143.2 149.5 159.3 169 174.4 176.6 167.1 159.6 158.8 164.8 174.7 179.5 180.3 180.5 180.4 180.3 179.8 179 178.2 177.6 176.2 173.2 171.8 166 164.5 163.7 165.1 168.6 170.2 169.1 161.7 155.2 156.6 160.6 152.5 149.9 151.8 149.5 145.8 142.7 141.3 143.2 145.3 149.4 154.2 161.8 166.4 163.9 158.5 161.5 166.5 168.5 167.8 164.4 161.5 163.9 166.5
84.2 84.1 83.8 83.1 82.2 80.5 81.2 82.8 84.1 85.7 87 87.4 87.6 87.9 88.7 89.1 89.4 89.8 90.4 91 91 91.1 91.2 91.5 91.8 92.2 92.9 93.7 94.5 94.8 95.1 95.2 95.1 94.7 94.4 94.6 94.8 95.2 95.4 95.6 95.8 97.2 99.3 100 100.5 101.1 100.9 100.8 101.4 103 106.3 107.8 106.1 104.2 103.2 103.2 103 103.6 103.8 104.2 105.3 105.8 106.2 106.7 108.2 110.2 111.9 113.9 114.3 114 114.7 114.8 114.7 114.5 114.4 114.3 114.5 114.6 114.7 114.8 114.4 114.9 115.6 116.7 118.5 119 119.3 120.3 120.7 121.5 119.1 122.4 125.7 129.8 133.2 136.3 139 142.5 146.2 149.5 152.7 156.6 162.7 171.8 186.1 194.6 195.5 195.7 195.5 194.3 192.9 193.4 195.5 195.4 191.6 191.5 190.2 190.6 191.7 192.2 192.1 191.8 191.5 190.6 188.7 184.2 178.1 172.9 173 179.2 183.3 183.5 184 183.3 182 180.6 179.3 175.1 170.2 165 160.6 156.1 150.1 142.7 147.2 154.8 163.8 169.8 167.1 159.1 156.7 162.4 173.9 178.6 179.3 179.7 179.8 179.6 178.9 178.8 178.3 177.2 176.7 176.1 172.5 171.6 170.4 169.4 170.8 170 168.7 168.2 168 165.1 157.2 155.1 148.4 146.6 145.1 146.7 147.6 149.8 151.2 150.7 146.9 141.9 140.2 145 151.1 158.4 155.4 152.7 160.2 166.1 167.1 166.1 162.7 157.7 163.7 165.2
85.7 85 84 83.2 82.5 81.5 80.8 82.6 84.1 85.6 86.9 86.9 87 87.5 87.9 88.8 89.4 90 90.2 90.5 90.6 90.6 90.7 90.9 91.3 91.7 92.5 93.4 93.8 94.2 94.5 94.8 94.7 94.8 94.9 95 95.2 95.7 96 96.3 96.5 96.6 97.9 98.9 100.7 100.8 99.9 100.3 100.9 102.4 105.4 108.5 107.3 105.4 104 103.8 103.6 104 104.2 104.6 105.3 106.1 106.5 107.7 108.9 111.6 113.4 114.4 114.7 114.8 115.1 114.9 115.1 115.3 114.8 115 114.7 115.3 115.4 115.5 115.7 114.9 116 117 118.2 119.3 120.4 121.1 122 123.4 125.1 125.1 122.5 129.6 133.4 136.1 138.3 140.4 142.6 145.2 148.8 152.4 158.3 166.8 180.5 185.9 186.4 188.7 191.5 193.9 193.3 192.7 195.7 193.4 191.8 190.4 189.5 189.5 190.2 191 191.5 191.2 190.2 190 184.9 179.3 179.5 180.4 182.5 185.2 185.9 184.6 184.1 184.4 183.8 182.6 180 170.5 163.5 158.4 155.8 151.9 147.7 143.4 145.6 151.3 157.6 163.9 160.7 153.8 155.5 168.2 176.2 177.6 178.3 178.7 178.7 178.3 178 177.7 177.6 176.1 175.1 174.4 174.4 172.3 170.7 170.2 170 169 167.9 167 166.7 166.2 163.3 157.3 152.3 151.2 158.2 161.6 163.1 164.3 164 163.6 158.9 151.6 145.4 139 141.6 146.6 148.2 153.3 163.8 164.8 164.8 164.4 161.4 153.9 156.7 161.8
87 85.6 84.3 83.6 83.5 82.8 81.7 82.3 83.9 84.6 85.8 85.9 86.3 87.3 88.1 89 89.8 90 90 90 90.1 90.1 90.2 90.7 91 91.4 92.1 93 93.5 93.9 94.2 94.5 94.6 94.9 95.3 95.4 95.8 96.5 96.8 97 96.6 96.6 97.3 98.3 100 100.1 99.4 99.8 100.6 102.2 104.4 107 108.7 106.8 105.5 104.4 104.3 104.4 104.6 104.9 105.5 106.2 107 108.3 110.1 112.4 114.5 114.5 115 114.9 115.5 115.4 115.6 116.4 115.5 115.5 115.4 115.5 116.1 116.2 116.1 116.4 116.6 117.5 118.7 119.7 121.9 122.5 123.9 125.6 127 128.4 128.6 126.2 128.7 131.6 134.7 135.7 138.9 142.1 144.5 149.3 156.3 163.5 170.2 173 172.9 175 183.7 191.6 193.4 194.2 194.1 192.1 191.7 190.6 189.6 189.7 189.4 190.2 190.6 190.1 188.4 186.7 182.3 183.5 183.2 183.4 185.3 185.4 183.8 183.2 183.8 184.7 184.6 182.8 175.2 167.7 167.5 164.5 159.1 152.9 148.3 145.5 141.6 147.7 152.6 155.7 153.8 148.3 154.6 167.7 174.6 176.5 177.3 177.8 177.8 177.5 177.2 176.9 176.3 175.1 174 173.7 173.9 174.7 175.4 168.4 168.7 168.4 167.2 166.2 165.4 165.3 165.7 158.2 156.1 164.3 164.3 164.3 163.8 163.5 163.1 162.4 162 161.4 153.2 144.3 138.7 139.1 144.1 153.5 160.3 161.3 160.3 161.6 160.6 153.1 148.3 153.5
87.8 86.4 85.1 84.7 84.4 83.5 82.6 82.2 83.6 84 84.7 85.9 87 87.6 88.5 89.3 89.8 89.7 89.4 89.4 89.4 89.5 89.8 90.4 90.8 91.1 92 92.7 93.2 93.6 93.9 94.2 94.4 94.6 95.1 95.8 96.7 97.2 97.6 97.5 97.5 97.2 97.1 97.9 98.4 99.4 101.2 101.6 101.7 102.2 103.7 106.1 108.5 108.2 106.8 106.3 106 105.8 105.4 105.2 105.7 106.2 106.9 108.6 111 113.2 114.4 114.9 115.2 114.7 114.9 115.3 116.5 116.2 116.5 115.8 115.8 116.4 117.1 116.9 117.1 117.3 117.5 118.1 119.6 121.6 122.6 123.5 125.7 127.5 129.4 131.3 132.1 130.7 133.6 135.8 136.5 135.9 135.7 136.9 141.1 145.6 152.8 158.3 161.4 161.1 160.3 166.3 174.8 181.9 188.9 190.9 191.9 190.7 191.7 191.1 189 189.6 189.3 190 190.4 190 187.9 186.8 186.4 185.9 185.2 184.8 183.6 183.8 183.8 183.9 184.2 185.1 184.7 179.7 175.3 178.3 177.5 173.2 163.3 156 151.9 148.3 142.3 142.8 145.7 148.5 148 145.4 152.7 166.2 172.8 175.2 176.5 177.1 176.9 176.6 176.4 176.1 175.5 174.7 174.5 174.8 175.3 174.9 174.5 174.2 167.3 168.2 167.3 165.8 165.4 165 164.6 159.9 164.3 164.3 164.4 163.8 163.5 163 162.5 162 161.9 161.6 151.5 143.7 140.6 136.4 138.5 144.6 150.3 153.2 153.1 155.4 156 152.3 144.5 146
88.2 86.9 86.5 86.2 84.9 83.7 83.3 82.6 82.9 83.8 84.6 85.7 87.1 87.9 88.7 89.3 89.5 89.1 88.8 88.7 88.8 89.1 89.5 90.2 90.5 91.3 91.9 92.3 92.8 93.3 93.3 93.4 93.7 94.3 94.9 96.1 97.1 97.8 98.3 98.2 98 97.8 97.5 97.9 98.6 100.6 102.9 103.5 103 103.4 103.5 104.9 106.5 107.6 108.5 108.9 108.3 107.8 107.4 106.7 106.3 106.5 106.9 108.5 110.8 113.1 113.7 114.1 113.3 113.8 113.2 113.4 115.1 116.1 117.5 117.1 117.3 117.7 117.9 118 118.1 118.3 118.5 119.3 121.4 122.4 123.9 125.5 127.5 127.9 131 133.3 134.3 134.3 134.3 138.4 140.2 141 141.2 142.7 142.2 141.4 147.4 151.7 153.1 152.7 160.5 166.6 171.8 178.7 184.7 190.7 191.3 190.6 191.1 191.5 190.3 188.8 189.4 189.7 189.8 189.7 189 188.4 187.8 187.3 186.8 187.2 186.4 185.7 186.2 186 185.6 185.2 184.8 182.3 182 181.3 178.2 171.8 164.9 160.8 158.2 153.3 147.8 142.2 140.8 143.2 143.8 145.1 151.2 161.3 170.8 174.2 175.6 176.5 176.3 176.2 176.1 175.9 175.5 174.9 175.2 175.3 175 174.5 173.7 173.2 172.7 168.9 167.1 166.8 165.8 165.2 164.5 164.4 164.9 164.5 164.1 163.4 163 162.5 162 161.6 161.8 156 147 144.8 147.4 145.8 139.2 136.6 141 144.6 145.2 146.9 147.2 146.1 141.3 139.5
89.1 88.1 87.9 87 86.3 85.6 84.5 83.1 82.9 83.7 85 86.4 87.1 88.2 88.8 89.2 88.9 88.5 88.2 88.1 88.4 88.7 89.2 89.9 90.4 91.5 91.6 92.1 92.4 92.8 92.7 92.4 93.1 93.8 95.2 96.4 97.3 98.1 98.3 98.6 98.5 98.3 98.1 98.2 98.6 100.1 102.6 104.2 104.3 104.1 103.8 104 104.9 106.5 108.6 110.1 110.9 110.6 110.1 109.3 108.7 108 107.3 107.5 107.6 109 109.9 111.1 111 112.1 111.8 112.8 113.6 115 116.8 117.8 118.2 118.9 118.6 119 119.1 119.3 119.8 121.4 123 124.6 126.5 128.5 130.1 130.9 131.5 133.5 136 137.2 136.4 138.8 142.1 144.8 145.7 146.9 148.2 146.2 143.5 143.9 148.2 155.3 165.2 175.2 183.7 191.9 193.1 192.5 191.1 190.6 190.9 191.2 190.7 188.8 189.3 189 188.8 189 188.9 188.9 188.8 188 187.6 188.9 188.5 187.7 186.7 186.3 185.6 184.3 183 184.2 184 182 179.9 177.2 174.2 172 170.7 162.5 153.8 147 144.2 139.6 139.9 143.8 148.8 160 170.8 173.1 174.9 175.8 176 175.8 175.6 175.5 175.9 175.3 175.3 175 174.7 174 173.2 172.7 172.2 172.4 171.2 166.1 166.3 165.6 164.9 164.3 164.5 164.1 163.6 163.1 162.7 162.3 161.8 161.3 158 150.6 150.6 156.9 159.9 158.4 148.5 138.2 135.7 136.8 137.8 139.1 139.2 138.5 136.4 134
90.2 89.2 88.8 88.2 87.9 87.2 86.2 84.2 82.9 83.8 85.8 87 87.6 88.2 88.7 88.7 88.3 87.9 87.5 87.9 88.4 88.8 89.2 89.7 90.6 91.7 91.4 91.9 92.3 92.2 92.1 92.1 92.8 93.8 95.6 97 98 98.1 98.3 98.8 98.8 98.7 98.7 98.9 99 99.6 101.6 103.6 104.6 104.2 103.9 104.2 104.5 105.8 107.9 109.5 111.3 112.4 112.6 112 111.4 110.8 110.2 110.1 109.8 109.9 109.1 109.7 109.9 110.1 111.5 112.2 112.8 113.8 116.2 117 117.5 119 119.4 120.1 120.2 120.1 121.4 122.8 125.5 128.4 130.8 132.9 134 133.5 133.5 134.3 137.3 139.9 141 143.4 146.7 150.7 152.5 153.4 153.3 151.9 151 148.6 149.1 157.3 168.8 183 192 193.7 193.9 193.2 191.9 190.7 190.9 191.3 192.2 192.1 188.8 187.5 187.3 187.9 188 188.4 188 187 188.3 188.9 188.5 188.1 187.3 186.5 185 183.8 183 182.6 184.1 183.9 182.2 181.1 179.2 177.1 174.2 170.3 163.3 154.4 148.2 144.7 141.7 139.2 146.4 156.7 168.5 171.9 174.1 175.2 175.7 175.5 175.3 175.7 177.8 174.9 175.9 175.5 175 174.4 174.1 173.2 172.4 172.2 172.5 165.3 165.6 165.9 165.3 164.3 164.3 163.8 163.2 162.7 162.4 162 161.6 158.2 153.8 157.6 159.8 160.1 159.6 158.5 148 146.7 145.8 141.9 136.9 134.8 133.3 133.5 132.7 131.8
91.7 90.8 89.8 89.6 89.3 88.8 87 85.1 83.3 84.2 86.1 87.2 87.7 88.2 88.4 88 87.7 87.1 87.3 88.2 88.7 89 89.4 89.9 90.4 90.9 91.5 91.8 91.8 91.5 91.5 92.3 92.9 94.3 96.3 97.6 98.2 98.1 98.4 98.9 99.5 99.7 99.5 99.5 99.4 99.9 100.9 102.5 104.1 104.1 104.2 104.5 105.1 106 107 108.6 110.3 112.1 113.4 114.2 114.1 113.4 113.2 112.8 114 113.1 112.8 112.1 114.1 113.6 111.9 111.3 112.3 113.8 114.7 116.4 117.2 119.6 120.1 120.8 121.2 121.1 122.3 125.6 129.6 133.1 135.1 135.9 135.9 135.8 135.8 137 138.5 142.1 145.6 149 155.6 160 161.9 162.4 161.5 159.8 158.8 157.8 156 156.7 166.4 183 191.9 194.2 194.4 192.7 192.4 192.8 193 193 192.9 192.9 192.8 188.7 187.3 187.3 186.1 185.5 184.4 184.2 189.6 189.3 188.3 187 185.7 184.8 184 182.9 185 183.6 183.1 183.9 183.7 182 180.8 179.2 176.9 173.9 169.5 162.3 152.8 147.6 143.5 139.9 143.4 152 162.4 170.2 172.9 174.9 175.5 175.7 175.8 175.9 175.1 172.4 176 175.9 175.8 175.5 174.9 174.3 172 171.8 171.9 165.2 165.4 165.8 165.7 164.6 164 163.4 162.9 162.4 162.1 161.8 161.3 158.8 160.1 160.4 160.8 160.1 159.5 158.1 154.1 157.5 157.5 156.7 154.9 149.7 144.4 146.7 142.7 136.4
93 91.7 90.7 90.2 89.6 88.7 87.3 85.4 83.6 84.1 85.7 86.8 87.4 88 87.9 87.3 86.6 86.6 87.2 88.2 88.9 89.2 89.6 90.1 90.5 90.8 91.1 91.3 91.5 91.7 91.9 92.5 93.1 94.6 96.4 97.3 97.1 97.8 98.6 99.3 100.1 100.5 100.4 100.3 100.1 100.4 101 102.2 103.2 103.8 104.5 105.4 106.2 107.2 108.1 108.9 110.2 111.6 113.2 114.8 115.9 115.7 116 115.8 116.1 115.3 115.2 115.5 115 114.6 114.1 113.8 113.1 113.3 114.1 115.6 117.2 118.8 120.5 121.7 122.4 122.6 124.4 128 133 136 136.5 136.4 136.9 137.3 138.4 139.9 141.4 145.4 150.1 156.6 167.8 175.1 176.5 176.3 173.7 170.7 169.2 169 167.3 163.4 170.5 187.6 193.4 194.4 193.2 192.8 193.3 194 193.7 193.3 193.1 192.9 192.7 192.1 186.9 191 185.6 185.5 184.9 190.4 190.1 189.2 188.6 187.2 185.2 183.6 183.1 182.2 182.2 184.5 182.9 183.9 183.5 182.3 181.2 179.9 178.3 175.9 172.1 166.3 156.9 148.5 143.4 139.9 139.1 149.1 160.6 170 172.7 174.6 175.2 175.6 175.9 175.7 174.4 171.1 176.9 177 177 176.5 175.8 174.9 172.8 171.2 171.7 172.1 165.5 165.5 165.2 164.2 163.9 163.3 162.8 162.4 162 161.7 161.2 161.1 161.2 160.4 160.7 160.9 160.3 159.7 159.1 158.6 158 157 156.4 153.9 154.2 155.2 146.9 141.4
93.8 92.3 90.9 89.9 89.1 88.1 86.6 85.3 83.7 83.5 84.6 86 87.2 87.2 86.7 86 86.2 87.1 88 88.7 89.1 89.3 89.6 89.9 90.2 90.4 90.7 91.4 91.7 91.9 92 92.6 93.3 94.2 94.9 96.5 97.7 98.5 99.3 100.3 101.1 101.6 101.2 101 100.8 100.8 101.5 102.4 103.7 104.9 105.5 106.6 108.8 111.7 111.6 111.8 112.4 112.1 113.2 114.9 116.2 117.1 117.5 117.3 117.3 117.1 117.4 117.3 117.1 116.4 116 114.5 115 115.4 114.6 115.7 117 117.7 119.5 120.9 122.3 123.3 124.6 128.3 133 135.2 136.2 136.2 137.1 138.9 140.8 142.8 145.9 149.2 154.1 161.2 175.6 188 190.1 190.6 189.3 187.6 186.7 186 181.9 175.2 175.4 188.6 195 194 192.9 192.8 194.1 193.5 193.4 193.1 192.9 192.6 192.5 192.7 192.7 192.3 189.5 184.8 190.7 190.5 189.9 189.2 188.6 188.1 187.1 185.2 183.3 181.9 181.4 183.2 182.7 183.3 181.7 180.3 180.6 180.3 178.9 177 173.5 168.4 159.5 149.1 143.5 139.6 139.7 148.1 160.2 170.2 173 174.4 175.3 175.7 175.7 175.3 173.7 179.4 180.6 181.2 180.8 178.8 177.7 176.5 173.6 170.3 169.6 166.7 166.7 165.2 164.6 164 163.8 163.2 162.8 162.4 162.1 161.7 161.6 161.2 162.6 160.8 160.5 160.7 160.4 159.9 159.6 159.1 158.7 158 157.3 156.6 155.5 156.2 148.1 148
93.5 92.3 90.8 89.2 88.2 87.3 86 84.4 84.8 84.6 83.9 85.1 85.5 85.3 85.5 85.6 86.8 87.6 88.2 88.8 89 89 90 90.3 90.5 90.7 91.1 91.9 92 92.1 92.2 92.7 93.9 95.1 96.4 97.9 99 99.9 100.5 101.3 102.1 102.4 102.4 101.8 101.4 101.3 101.9 103.1 104.9 106.1 107.1 109 114.5 117.9 116.6 115.9 115.4 114.8 114.9 115.7 116.7 117.8 118.9 119.1 119 119 119 119 118.9 118.3 117.7 116.3 117 117.9 117.6 115.7 115.9 117.4 118.3 120.1 121.5 123.7 125.2 127.7 130.2 133.3 134.8 135.9 137.6 140.2 143.3 147.9 150.9 154.4 159.8 169.8 183.7 190.8 192 193 193.2 193.4 193.7 193.8 193 187 184.7 188.2 194.6 193.7 193.1 192.9 194.1 193.4 193.3 193 192.6 192.3 192.4 192.7 192.7 192.2 191.5 191.3 190.8 190.1 189.5 188.9 188.5 188 187.4 186.3 182.9 181.7 183.5 182.5 183.2 183.4 179.6 173.4 174.3 178.8 178.5 176.8 173.7 168.4 160 149.8 144 138.6 139.8 147.3 160.2 169.9 172.9 174.5 175.5 175.5 175.4 175.2 173.8 179.7 180.6 181.4 181 179.6 178.1 176.7 174.6 170.9 167.6 167.2 171.9 165.9 165.2 164.2 163.7 163.2 162.9 162.6 162.2 161.9 161.6 161.1 166.4 162.7 160.6 160.4 160.1 159.9 159.9 159.5 158.9 158.7 158.2 157.5 156.6 156.7 149.9 153.8
92.9 91.7 90.3 88.8 87.2 86 85.3 85.7 86 85.9 84.9 84.6 85 85.3 85.5 85 86.3 87 87.4 88.3 88.5 88.9 90.1 90.4 90.4 90.5 91.2 91.9 92.3 92.4 92.5 93 94 95.5 97.4 99.6 101 101.5 102.3 103 103 103.3 103.5 102.9 102.4 101.8 102.6 103.6 105 106.5 108.3 109.2 117.1 121.1 119.3 119.1 117.9 117.5 117.6 118.3 119.5 120.9 121.8 122.7 123 123.1 123 122.4 121.6 120.9 119.8 117.8 118.2 120.4 119.3 118.5 118.5 118.1 118.5 118.4 120.8 123.2 125.4 128.5 131.8 133.5 134.5 136.6 139.6 142.8 148.9 155.9 160 162.6 170.1 181.3 189.9 191.9 193.5 194.1 194.6 194.9 195.5 195.2 195 195.1 194.1 194.8 194.8 194.3 193 192.8 193.5 193.5 193.2 192.9 192.5 192.1 192.6 192.6 192.4 191.9 191.2 190.8 190.3 189.7 189.2 188.6 188.2 187.8 187.2 186.5 184.7 183.7 183 182.5 183.3 183.4 181.6 177.2 167 166.3 174.2 175.4 171.7 168.2 159 149.2 143.3 137 140.6 147.5 160.1 169.6 172.5 174.2 174.6 175.2 175.3 175.2 175.1 178.8 179.3 179.4 178.9 178.2 177.8 177 174.5 171.9 167.5 165.9 169.1 168.8 165.2 164.8 163.9 163.4 163.1 162.8 162.5 162.1 161.8 161.5 160.9 160.4 166.8 160 159.9 159.8 159.4 158.9 158.8 158.4 158 157.7 157.1 156.3 150.9 156.6
92.3 90.8 89.6 88.5 87.9 87.5 86.6 87 87.3 87 86.6 85.7 86.3 86.4 86.5 86.6 86.9 86.9 86.8 87.9 88.4 89.3 90.2 90.2 90.2 90.3 91.1 91.9 92.4 92.7 92.9 93.3 94.1 95.9 97.7 100.7 103.1 103.3 103.5 103.8 103.8 104 104.3 103.5 102.9 102.7 102.9 104.2 105 106.1 107.3 110.1 112.9 116.2 116.7 117.9 118.7 120.2 121.6 122.9 123.8 125.7 126.9 128 128 128.1 127.4 126.2 124.8 123 121.2 119.4 120 121.5 121 119.8 120.3 120.9 122 122.3 118.7 120.7 124.2 128.2 133 134.4 135.1 136 139.5 145.3 154.7 163.2 170.3 176 183.4 188.6 189.9 193.1 194.3 195 195.9 196.2 195.9 195.9 195.4 195.6 194.7 194.4 195 194.3 193.3 192.7 192.3 193.5 193.1 192.8 192.3 192.2 192.1 191.8 191.6 191.1 190.5 190 189.6 189.2 188.8 188.3 187.9 187.5 187 186.4 185.8 183.6 182.4 182.4 183.6 182.4 178.9 179.9 169 160.6 161.3 166.5 163.4 157.4 152.2 146 141.5 137.6 140.3 147.5 161.2 169 172 173.6 174.6 175 174.9 174.9 176 176.5 176.8 176.5 177.1 177.1 172.8 171.2 170.5 167.8 168.1 166.2 165.6 172.9 164.8 164.8 164.6 163.4 163.1 162.9 162.8 162.5 162.2 161.8 161.4 160.8 160.7 163.4 164.1 163 158.8 159.1 158.5 158.2 157.8 157.7 157.4 156.7 155.9 156.6
92.2 90.7 90.2 89.5 89.1 88.7 87.8 88.3 88.5 88.3 87.2 86.9 87.3 87.4 87.6 87.8 87.7 87.6 87.5 87.6 88.4 89.3 89.9 90.1 90 90.4 91 91.8 92.6 92.9 93.1 93.5 94 95.2 97.2 99.9 102 102.8 103.3 104.1 104.5 105.2 105.1 104.4 103.9 103.8 103.3 103.9 105 106.1 107.7 109.3 110.7 112.2 113.9 115.5 118 121.7 125.5 127.7 128.8 130.3 132.1 133.3 133.3 132.4 131.5 129.8 127.7 124.8 122.5 120.9 120.7 122.6 122.1 121.8 122.7 123.4 124.2 124.1 123.4 121.4 120.9 124.7 128.8 132.1 133.7 135.2 139.3 145.2 155.7 166.8 175.2 183.3 189.8 191.8 192.9 193.7 194.9 195.7 192.7 196.1 195.9 195.9 195.9 195.7 195.1 194.5 194.9 194.4 193.9 193.2 192.7 193.4 192.9 192.7 192 191.9 191.5 191.1 190.8 190.3 189.8 189.2 188.9 188.5 188.1 187.8 187.5 187.1 186.7 186.2 185.7 184.7 183.4 183.2 183.3 182.2 174.5 173.1 174.9 160.2 154.4 154.7 153.1 149.8 146.5 143.5 140.3 137.4 140.1 148.5 163.2 168.9 171.4 172.9 174.4 174.6 174.4 174.5 176.7 177.2 178 180.1 178.9 179.2 171.3 165.7 166.8 165.7 167.8 166.2 167.8 168 171.3 164.4 164.5 163.8 163.1 162.9 162.8 162.8 162.6 162.2 161.8 161.2 161.4 161.9 161.5 161.1 160.5 159.5 159.2 158.7 157.9 157.4 157.3 157.1 157 157
92.2 91.5 91.2 90.8 90.3 89.4 88.8 89.2 89.5 89 87.9 88 88.2 88.3 88.5 88.4 88.3 88.3 88.2 88.2 88.5 88.5 88.8 90 89.9 90.5 91.1 91.9 92.7 93.2 93.6 93.7 94.1 94.9 96.3 97.6 99.4 100.4 101.7 103.7 105.5 106.2 105.9 104.6 104.7 104.4 103.9 103.6 105.1 107.2 109.3 110.9 112.6 115.1 115.5 115 117.5 121.2 125.6 128.7 130.3 131.6 133.1 134.5 136 136.6 135 132.8 130.4 127.7 125.4 123.9 121.3 123.4 124.2 124.6 126.1 126.5 127 126.6 125.3 124.3 123.8 122.9 123.9 127.7 129.5 132.6 136.6 142.9 149.5 154.5 165.8 177.6 188.1 191.8 192.7 193.8 194.7 195.4 193.1 195.9 195.6 195.6 195.4 195 194.5 194.6 194.8 194.3 194.4 193.9 193.5 193.4 192.3 192.2 192 191.3 190.9 190.6 190.1 189.7 189.2 188.7 188.5 188 187.6 187.3 187.2 186.7 186.3 185.8 185.2 184.4 184 183.5 182.6 181.8 176.8 166.4 163.1 157.5 152.2 149.2 148.1 145.6 143.9 141.5 139 136.3 142.1 151.1 165.4 168.4 170.7 172.2 173.6 174.1 174.7 174.8 176.4 177.7 178.3 182.4 182.5 183.1 174.3 165.3 165.1 164.7 166.8 166.3 166.1 164.3 169.6 170.1 164.3 164 163.3 162.9 162.8 162.6 162.4 162.3 161.8 161.4 166.9 162 161.7 161.4 160.5 160 159.5 159.4 158.3 157.7 157.4 157.3 157.2 157.1
92.9 92.5 92.1 91.7 91.2 89.9 89.9 89.9 89.7 89.2 88.5 88.7 89.2 89.1 89.3 89 88.9 88.8 88.8 88.7 89.2 89.5 89.6 89.8 90.1 90.7 91.3 91.9 92.8 93.7 93.9 94.1 94.2 94.6 95.9 96.9 97.6 98.7 100.1 102.2 104.9 106.3 105.5 104.6 104.7 104.9 104.4 104 105.4 107.5 110.1 111.5 112.5 116.3 118.7 117.6 117.1 119.7 123.1 125.8 127.8 130.3 131.9 133.7 135.3 137.4 137.1 135 132 129.4 129.2 127 122.7 125.1 126.9 127.6 129.3 129.9 129.8 129.3 127.4 126.3 126.7 127.1 128.4 127.7 126.2 129.3 133.6 138.8 143.9 149 156.6 166.9 179.6 189 190.5 187.4 185.1 188.7 193.6 195 194.4 195.3 194.8 194.5 194.2 194.7 194.8 194.4 194.7 194.5 194.6 193.9 193.4 192.7 192 191.3 190.7 190.2 189.7 189.3 188.9 188.3 188 187.7 187.2 186.8 186.8 186.3 185.8 185.3 184.7 184.2 183.8 183.3 180 179.4 172.5 164.9 159.2 153.3 148 144.6 144.6 142.5 141.3 140.1 137.8 136.5 143 151.8 159.8 167.3 169 170.7 172.6 173.7 174.1 174.4 171 167.9 167.4 181.3 180.5 178.4 173.1 167.7 167.6 167.4 166.8 164.2 163.6 166.5 162 169.5 167.4 163.8 163.2 162.8 162.5 162.3 162.1 162.2 164 161.5 163.3 162.7 162.1 161.5 161 160.5 160 159.9 158.8 158.2 157.6 157.4 157.1 157
94 93.4 93 92.7 91.4 90.7 90.3 90 89.7 89.5 89.4 89.5 89.8 90 89.9 89.6 89.4 89.3 89.3 89.5 90 90.2 90.3 90.5 90.7 90.8 91.1 91.9 92.8 93.6 94.3 94.9 95 95 95.7 96.6 97.4 98.4 99.7 102 104 105 104.8 104.9 105.4 105.5 105.4 104.6 105.3 107.8 109.7 111.3 112.6 115.5 119.4 120.2 119.2 121.1 125.3 129 132.3 133.5 135 136.9 137.4 137.8 138.5 136.9 134.2 133.3 132.3 129.1 123.9 127.7 130.1 131.8 132.5 133.3 132.9 131.5 130 129.5 129.9 129.1 131.3 132.1 132.1 129.6 129.9 134.6 139.5 146.7 152.6 159.7 169.9 181 183.6 176.1 171.9 174.9 179.2 182.1 186.1 191.4 193.9 194.2 194.2 194.5 195 194.8 195.1 195.5 195.5 194.4 194.5 192.6 191.9 191.3 190.5 190.1 189.3 188.9 188.4 187.8 187.5 187.2 187 186.5 185.8 185.8 185.2 184.7 184.2 183.8 182.9 179.2 179.2 178.6 176.5 169.7 162.1 158 155.7 152.8 149.5 144.7 142.3 139.4 138.2 135.8 140.2 144.7 150.6 160.9 166.6 169.3 171.4 173 173.7 173.8 168.7 168.1 168 167.2 168.8 167.8 167.7 167.3 166.9 166.5 166.3 164 163.3 163.2 162.9 162.6 169 165.4 163 162.6 162.5 162.4 162.1 161.7 166.4 166.6 163.4 163 162.3 161.5 161.2 160.9 160.4 159.6 159.2 158.6 158 157.6 157.4 157
95.1 94.3 93.5 92.6 91.3 90.7 90.4 89.9 89.8 89.8 89.5 89.9 90.5 90.4 90.5 90.2 90 89.9 89.8 90.3 90.6 90.9 91.1 91.2 91.3 91.2 91.2 92 92.8 93.7 94.5 95.2 95.5 95.8 95.9 96.6 97.5 98.3 99.4 101.2 102.4 103.4 104 104.6 106.7 106.4 105.6 105 105.4 107.9 109.4 111.1 112.7 115.6 120.2 121.5 121.6 125.7 131.7 137.6 140.4 141.7 143.1 143.3 142.4 142.1 140.1 138.7 136.9 136.5 135 130.7 125.4 130.5 133.2 134.7 135.3 134.9 134.4 133.4 132.1 131 131.6 130.4 132.9 134.5 134.7 134.2 132.3 130.7 136.7 143.3 148.8 154.4 161.4 169.7 171.2 165.2 160.9 162.9 168.2 174.4 182.2 190.4 193.5 193.7 194.1 194.8 195.3 195.6 196.2 196.4 196.5 195.8 195.2 193.5 192 191.3 190.2 189.4 188.9 188.5 187.9 187.3 187 186.7 186.5 186 185.4 185.3 184.8 184.2 183.6 183 182.6 180.6 180.1 178.9 179.7 175 170.1 170.1 168.1 165.5 160.5 154.2 147.7 144 140 135.7 136.6 141.1 144.9 151.4 159.7 166.7 170 172.2 173.2 173.6 169.3 168.5 168.4 168.1 167.7 167 166.9 166.4 165.9 165.7 167 164.4 167 163.9 162.8 162.3 169.5 168.7 166.4 162.5 162.3 162.2 162.1 161.8 162.4 166.1 162.7 162.6 162.3 161.8 161.1 160.9 160.7 160.1 159.6 159 158.4 158 157.7 157.2
95.1 93.9 92.8 91.8 91 90.4 90.1 89.8 89.7 90 90.2 90.5 90.4 90.5 90.6 90.7 90.6 90.4 90.5 91.2 91.3 91.5 91.8 91.8 91.8 91.6 91.6 92.2 93.1 94 94.8 95.8 96.1 96.8 96.9 96.9 97.7 98.6 99.5 100.5 101.4 102.7 104 104 107.7 107.6 106.9 105.5 106.2 108.3 110.2 111.2 112.8 116.5 122 124.1 125.5 132.1 140.5 146.9 149.1 150.1 151.1 151 149.5 147.8 144.1 141 139.6 138.1 136.7 133.4 128.1 132.1 135.7 136.5 136.7 136 134.8 133.7 132.7 132.9 133.2 132.3 132.9 134 135.5 136.2 135.6 132.9 132.8 138.2 143.7 149.2 154.7 159.6 160.9 156.9 153.9 159.9 169.4 178.9 190.2 192.7 193.3 193.7 194.6 195.5 196.5 197.7 199.1 199.6 200 199.3 196.3 194.3 192.6 191.2 190.2 189.2 189.1 188.1 187.4 186.8 186.5 186.1 185.9 185.2 185.3 184.7 184.5 183.9 182.9 181.8 182 181.3 180.5 180.1 179.8 178.6 177 175 173.5 172 170 164.5 155.2 147.3 142.2 138.2 135.5 135.4 140.9 146.2 154.3 164.7 168.6 171.2 172.6 173.3 171.5 168.9 167.9 167.5 167 166.6 166.1 165.5 165.3 165.2 166.8 168.7 170.2 171.2 172.3 169.7 169 167 165.8 168.7 161.9 161.7 161.6 161.7 161.5 162.8 162 161.8 161.6 161.3 161 160.9 160.8 160.4 160 159.4 158.8 158.3 157.9 157.4
94.8 93.6 92.2 91.5 90.7 90.1 89.8 89.6 89.8 90.3 90.5 90.4 90.4 90.5 90.6 90.7 90.8 90.9 91.4 91.9 91.8 91.9 92.1 92.3 92.3 92 92 92.8 93.7 94.5 95.4 96.3 97.1 97.7 97.8 97.8 98.3 99.5 100.3 101.3 102 103.1 104 106.2 108.4 109.1 108.4 105.5 106.5 108.6 110.6 112.1 113.8 117.8 123.1 126.3 129.3 138.7 147.2 151.9 154.5 156.8 158.4 157.4 156.9 155.1 149.7 145 142.4 140.3 138.3 135.6 131 132.7 137.3 137.5 137.3 136.1 134.9 134.5 134.6 134.6 135.5 134.9 134.7 135.5 136.7 137.5 137.9 136.7 136 133.3 139 142.9 147.9 150.8 151.8 147.6 151 157.6 166.8 178.3 188.4 192 192.7 193.5 194.9 196.9 198.3 200.7 203.3 204.6 205.6 202.8 197.9 195 193 191.7 190.1 189.1 188.5 187.6 186.9 186.3 186 185.3 184.7 183.9 184.6 184.4 184 183.4 182.5 180.8 180.6 181 180.5 180.3 179.6 178.3 178 176.1 175.1 172.1 171 166.1 159.3 150.6 146 143.3 138.6 134.9 136.4 142.4 146.8 161.1 167.3 170.3 172.1 173.1 173.3 173.2 167.5 166.9 166.4 165.7 165.2 165 164.9 165.2 168.6 170.2 169.5 168.7 164.5 163.3 163.4 163 162.6 163.5 168.6 161.9 161 161.2 161.8 160.9 160.9 161 160.9 160.7 160.5 160.4 160.4 160.3 160 159.6 159.1 158.6 158.1 157.6
94 92.9 91.8 91.3 90.5 89.7 89.6 89.7 89.5 90 90.1 90.3 90.4 90.4 90.5 90.6 90.7 90.8 91.1 91.7 91.7 91.7 92 92.4 92.9 92.6 92.6 93.5 94.2 95 95.9 96.8 97.6 98.3 98.6 98.7 100.1 100.9 101 102.7 104.1 105 105.9 107.9 109.6 110.7 109.8 107 106.5 109.4 110.8 112.9 114.9 118.2 122.9 126.9 130.5 138.2 145.5 152.2 157.8 162 164.8 164.6 163 160.2 155.4 150.6 146.2 142.5 140.4 137.5 133.1 132 136.9 138.2 138.1 137.3 135.8 135.9 136.1 136.5 136.9 137.2 137.6 138.2 139.1 139.6 140.5 139.9 138.4 136.5 132.7 136 140.3 141.6 142.1 146.6 151.9 159.9 165.7 173.6 181.6 189.4 192.5 193.4 195.1 197.3 201.3 205.8 209.5 212.8 213.7 206.5 199.6 195.6 193.2 191.3 189.7 188.7 187.8 187.1 186.4 185.9 185.4 184.4 183.4 181.7 184 183.9 183.4 182.7 181.6 179.6 179.3 180.7 180.4 179.6 179.4 178.8 177.1 176.4 174.9 172.1 169.6 166.1 162.1 158.5 153.9 149.4 141.3 136.6 134.2 138.2 145.6 153 166.6 169.6 171.5 172.3 172.6 173.6 173.8 165.8 165.6 164.8 168.7 170 169.4 169 168.4 168.2 164.2 163.5 163.1 162.9 162.5 162.4 161.9 161.4 161.9 167.2 167.4 163.1 165.8 160.4 160.9 160.9 160.5 160.2 160 160 159.9 159.9 159.8 159.6 159.1 158.6 158.5 158.2
93 92 91.4 90.9 90.3 89.7 89.7 89.8 89.3 89.6 89.9 90 90.1 90.2 90.3 90.4 90.5 90.7 91.1 91.4 91.6 91.6 91.9 92.4 93.4 93.5 93.4 94.2 94.8 95.8 96.7 97.6 98.3 98.7 99.5 99.1 101.8 103.7 103.1 104.2 107.3 108.4 108.8 110.9 112.5 112.4 110.6 108.7 107 109.2 111.6 113.6 115.6 118.2 122.1 126.6 130.8 137.2 146.7 154.3 161.4 168.5 173 172.6 169.5 165 159.8 155.6 150.2 144.9 142.1 139.1 134.5 133.9 137.2 139.1 139.2 138.7 136.9 137.2 137.6 138.6 139.6 140.7 142.2 143.5 145.5 146 146.2 145.6 143.9 143.4 141.1 138.9 138.6 138.1 143.7 151.9 160.4 168.2 177 183.1 189.4 191.6 191.9 193 194.8 197.7 202.8 210.3 217.4 223 216.1 208.5 201.2 195.8 192.9 190.8 189.4 188.2 187.3 188.3 186 185.5 184.7 183.6 178.1 176.2 182.9 183.3 182.9 182.3 180.9 175 176.9 180.2 179.7 179.5 179.2 178.9 178.3 176 174.3 172.7 171.6 170.1 167.3 163 158.5 151 142.1 136.3 134.2 137.3 143.9 153.9 162.3 169 170.7 171.3 171.4 172.2 171.8 170.6 170.8 168 167.7 167.1 165.7 165.5 165.6 164.9 163.7 163 162.6 162.4 162.1 161.7 161.3 160.9 159.8 158.8 165.1 166.6 163.8 161.5 160.2 160.4 160.5 160.4 159.6 159.4 159.4 159.4 159.3 159.3 159.1 158.6 158.6 158.7
92.1 91.7 91.3 90.5 90.1 89.8 89.3 89.6 89.9 89.5 89.7 89.8 89.9 90 90.1 90.2 90.4 90.6 91 91.2 91.5 91.7 92.1 92.8 93.9 94.2 94.3 94.9 95.9 97.3 98 98.6 100.1 101.5 102.8 101.4 100.7 103.7 104.5 107.2 111.5 111.9 112.5 113.8 114.7 113.8 112 110.3 107.9 108.6 111.6 113.6 115.3 118.7 124.2 129.9 133.1 138.4 147.4 155.1 162.4 171.7 181 180.5 175.2 169.3 163.6 158.7 154.3 148.3 142.9 138.8 138 137.9 137 140 140.6 140.4 139.7 139.8 140.7 142.3 144.2 146 149.4 153.9 156 155.5 155.1 154.1 153.4 152.1 148.2 145.4 146.2 138.6 142.1 152.1 163.1 173.5 184.3 188.4 190.2 191.2 191.5 192.9 194.8 198.1 203.7 212.3 224.9 224.9 217 208.5 201.4 196 192.9 190.4 189 187.7 186.7 186.2 185.5 184.9 184.2 183.9 181.4 174.4 180.5 182.3 182.2 181.8 180.5 175.8 172.6 177 179.3 178.8 178.4 178.3 177.6 175.9 174.9 173.5 170.6 169.6 164.7 156.6 147.6 144.7 140 135.2 134.4 136.6 142.9 154.8 166.1 168.9 169.3 170.2 170.6 170.2 170.5 169.7 168.1 166.1 164.3 164.3 164.5 164.6 164.5 163.7 163.1 162.5 162.2 161.9 161.7 161.2 160.7 159.5 159.1 158.7 159.4 165.3 166.1 165.8 159.2 159.6 159.7 159.7 159.3 159.2 158.9 158.6 158.7 158.7 158.7 158.7 158.6 158.6
91.6 91.3 91 89.8 89.9 89.6 89.2 89 89.2 89.3 89.4 89.5 89.7 89.8 89.9 90.1 90.3 90.4 91 91.2 91.5 92.1 92.5 93.7 94.6 95 95.1 95.7 97.3 98.8 100.1 101.7 103.2 105.3 106.7 104 102.4 103.2 104 107.8 111.7 114.1 114.3 114.6 114.8 114.5 113.2 111.4 110 108.7 111.6 113.5 115.5 119.6 126.4 133 135.6 138.4 145.5 152.4 159.8 168.2 180.9 182.1 178.8 172.1 166.2 161.6 156.7 150.5 143 142.6 142.2 141.4 138.7 142 143.4 143.9 144.3 144.6 145.8 149.7 152.9 155 158.1 162.9 165 165.6 165.7 164.7 163.4 159.9 155.9 153.4 150.2 142.9 143 151.3 161.1 174.3 185.7 188 190 190.7 191.1 192 194.5 197.6 203.2 211 219.2 224.1 216.3 207 199.8 194.9 192.2 190.2 188.6 187.2 186.4 185.7 185 184.6 184.4 184.1 183.2 178.4 171.9 174.7 180 179.7 179.4 174.3 168.1 176 174.3 173.8 175.6 177.7 176.7 176.5 175.3 173.6 168.2 162.2 155.4 148.6 143.8 140.3 137.3 134 133.4 136.8 142.8 156.1 166.1 168.2 168.3 168.3 170.3 169.9 168.7 168.8 167.5 165.9 163.9 163.7 163.9 164.1 164.1 163 162.3 161.9 161.6 161.2 161 160.9 157.8 158.8 158.4 158.3 160 164.9 164.7 165.4 166.1 159 159.1 159.1 159 158.9 158.7 158.4 158.1 157.8 157.8 157.9 157.8 158.3
90.8 90.6 90.3 89.9 89.6 89.2 88.8 88.5 88.5 88.9 89.1 89.2 89.9 89.7 89.8 90 90.1 90.3 90.8 91 91.9 92.6 93.7 94.9 95.8 95.8 95.9 96.7 98.8 102.1 104.3 106.1 107.2 108.1 108.1 105.6 105.6 107.2 105.9 105.2 109.6 112.6 113.4 114.4 115 114.7 113.8 112.3 111.6 109.9 111.4 113.5 115.7 120.3 126.9 133.6 135.8 136.5 141.1 148.4 155.2 161.5 168.4 179.3 177.8 174.9 168.8 162.9 157.3 151.4 144.7 148.1 147.5 144.5 143.2 144.5 148.9 150.6 151.5 152.3 153.1 156.6 160.2 162.8 165.8 168.3 170.2 172 172.5 172.8 172.3 171 169.1 166.7 150.4 146.1 144.6 154.9 164.7 175.4 185.2 187.4 189.7 190.2 190.3 191.5 193.5 196.3 201.3 206.4 214.5 218.8 211.9 204 198.3 193.9 191.9 189.4 187.9 186.6 185.7 185.8 186.8 184.2 183.9 183.6 183.1 181.6 176.8 171.2 169 168.4 168.4 166.9 164.8 174.6 174 173.9 173.9 176.4 176.7 176.8 175.3 173.7 170.1 164.1 153.9 147.7 142.5 139.1 136.5 133.9 132.6 137.8 146 159.3 165.9 167.6 167.8 165.1 165.9 164.1 167.1 168.8 167.2 165.2 163.5 163.4 163.5 163.5 163 162.1 161.6 161.6 161.3 160.9 160.6 160.8 158.1 159.8 158.5 159.5 163 164.5 163.9 164.7 165 165.4 158.4 158.6 158.7 158.6 158.5 158.2 157.9 157.6 157.3 157.1 157.4 157.8
90.1 89.8 89.5 89.2 89 88.8 88.5 88.2 87.8 88.6 89.1 89.5 89.8 89.7 89.8 90 90.1 90.2 90.7 91.5 92.3 93.5 94.9 96.2 96.9 97.1 97.4 97.8 100.2 105.4 108.2 108.8 109.1 108.9 108.2 106.1 107.2 109.4 109.8 107.6 108 110.2 111.3 114.3 114.9 115 114.3 113.3 113 111.9 110.9 113.6 116 119.3 125 131.8 134.4 134.4 137.8 143.2 150.7 158.1 164.2 170.3 180.2 176 170.3 163.7 158.3 153.9 150.7 153.9 152.4 148.8 145.4 146.4 152.4 156.6 158.5 160.5 161.5 162.6 165.6 168.3 170.5 172.2 173.6 175.1 176.4 177.6 179 179 177.2 173.5 159.5 147.6 143.1 154.7 166.9 175.8 182.3 187.1 188.7 189.6 189.5 190.7 192.6 195 197.9 202 209.3 208.1 204.8 200.9 196.4 193.2 190.8 188.7 187.3 185.9 184.9 184.6 184 183.6 183.5 183.4 182.7 182 180.6 177 172.4 167.4 163.9 162.7 161.4 162.7 168 171.8 171 176.4 176.2 176.1 175.1 173.6 170.9 165.4 154.2 146.3 142.1 138.6 136 133.5 132.2 139.5 150.8 163.5 165.3 166.4 167 163.2 158.2 159.3 166.6 167.4 166.4 164.4 163.1 163.2 163.1 162.6 162.3 161.7 161.3 161.2 161.2 161 160.6 160.4 160.6 160 159.1 160.1 164.1 164.3 163.3 163.5 163.8 164.1 164.4 158.1 158.2 158.3 158.3 158 157.7 157.4 157 157.1 157 157.3
