ncols 200
nrows 82
xllcorner 310000
yllcorner 205750
cellsize 50
377.6 374.7 371.5 366.7 360.2 351.8 345.3 341.4 337 326.7 330.9 347.1 355.1 360.1 361.3 361.9 363.5 362.6 359.1 356 357.9 358.9 358.1 357.8 359.9 360.4 359.1 359.3 369.7 374 377.7 380.2 381.1 379.2 377.5 377.4 378.7 382.6 388.5 392.6 393.8 395.4 396 395.5 394.1 394.7 394.3 392.8 390.3 387.5 384.7 383.4 381.4 378.5 375.5 374.8 373.7 372.8 372.5 370.9 367.9 367.6 366.8 363.8 362.4 360.7 358.5 357.4 355.1 352.3 348.8 345.7 343.2 340.6 334.7 329.7 326.8 325.5 324.3 323.8 324.7 325.4 318.5 308.9 310.6 312.3 312.2 313.3 314.1 321.9 324.1 326.9 327.9 341.2 345.2 353.8 363.3 369.9 374.9 378.1 377.5 376.9 379.1 380.3 386.1 389.8 389.9 389.2 386.5 382.3 380.1 375.7 370.3 368 364 361 357.3 351.9 351.1 350.1 349.7 348 347.6 347.3 347.2 346.4 342.4 339.5 333.4 328.8 325.3 319.8 314.2 308.1 304.6 301.1 300.2 295.7 283.1 279.4 276.2 282.5 297.2 299.4 308.9 317.3 330.9 338.9 347.1 353.5 359.5 367.3 380.3 391.4 402.6 407.7 413.3 421.1 426.1 427.7 429.8 432.2 435.9 438.6 439.1 437.5 435.5 434 433.6 431.8 428.7 423.3 415.2 404.4 395.4 384.2 373.4 366.8 356.3 347 339.5 329.6 322.8 316.9 314.9 314.5 316.1 324.4 334.2 346.1 348.1 352.8 358.3 363.2 363.4 371.1 381.6 388.2 393.9 398.3
376.3 372.6 367.8 363.4 358 351.7 345.2 340.8 339.2 330.7 322.2 336.3 348.8 353.5 354.7 356 357.7 357.6 355.6 354.4 355.7 358.1 358 355 354.6 355.7 362.5 367.8 371.9 375.4 378.2 380.1 379.6 377.2 376 376.2 377.9 383.7 389.2 393.4 396.3 397.6 398.7 398.3 398.5 398.3 395.8 394.4 392.6 390 388.1 386.8 385.2 383.3 381.2 380.3 379.8 380 379.8 378.2 376.5 373.1 369.6 364.8 363.2 362.2 363.3 361.7 359.8 356.7 354.2 349.7 346.7 342.6 339.3 333.5 330.1 328.3 324.6 323.4 323.6 325 322.1 308.8 311.2 310.2 310.2 312.9 314 316.8 318.2 319.4 326.3 339.4 342.2 346.1 354.1 361.9 368.4 372.1 371.9 371.3 370.7 370.6 379.8 386.3 389.9 391.7 392.3 386.3 383.8 380.2 373.8 369.9 364.7 362.3 357 351.7 351.1 350.5 350 349.5 348.9 347.9 347.5 346.8 344.7 340.2 335.6 331.8 327 321.7 316.3 309.3 305.9 301.1 299.7 289.8 283.4 279.9 279.3 278.9 282.1 299.6 305.6 307.8 324.6 334.8 341.4 347 353.9 364.2 380.4 390.9 399.6 406.3 414.9 421.2 423.4 425.5 428.1 433 438.6 441.7 442.6 441.9 441 440.4 440.3 438.3 434.3 429 422.6 410.9 398.3 388.1 375 366 356.3 347.9 343.1 338.9 331.3 321.7 314.7 313.8 312.6 316.2 326.9 340.1 344.9 350.6 354.7 357.9 360.4 367.7 377.4 384.6 390 395.2
374.8 371.9 367.1 361.1 355.5 350 344.8 340.5 340.1 337.2 323.7 323.9 338.2 347.5 349.6 350 351.5 353 351.9 352.4 353.8 350.9 350.2 352.3 352.9 360.3 364.7 368.7 372.9 375.1 377.3 378 376.8 375 373.8 374.1 377.6 384.3 390.4 395.3 397.6 399.7 401.4 402.5 401.1 398.6 396.7 395.9 393.8 392.4 390.7 388.9 387.3 385.9 384 384 383.9 383.4 383.1 384.1 379.9 379.7 377 373 368.3 363.7 363.3 363 362.6 362.7 363.4 360.4 355.6 351.8 344.7 338.7 334.3 329.9 324.9 323.2 323.2 327.7 325.8 308.2 310.5 309.3 311.4 313.5 312.9 313.1 315.1 317.7 320.5 333.7 339.8 342.8 346.1 351.9 360.2 364.4 365.1 364.8 365.6 366.9 378.2 388.3 390.1 391.7 390.9 386.6 382.2 378.7 374.2 369.7 364.8 362.4 357.4 352.3 351.8 350.9 349.9 350.1 349.9 349 349.1 349.6 347.1 342.5 338 332.7 327.4 324.5 319.6 312.8 306 301.4 299.2 292.8 283.9 280.5 277.7 277.7 277.8 294.5 299.9 299.9 315.3 330.7 335 339.7 349 360.5 376.5 386.9 395.7 404.9 415.3 419.7 420.6 424.5 429.7 434.3 439.3 444.3 446.4 447.1 446.4 446 445.1 443.9 440 435.1 428.5 418.2 403.4 391.7 379.4 366.3 359.4 351.1 343.7 340.4 337.4 329.7 316.6 313.3 311.9 312.1 322.7 332.5 340.2 343.8 352.1 355.5 359.3 362.2 373.4 380 385.1 391.5
372.8 369.7 366.6 361.3 354.6 348.2 342.4 340.1 339.7 337.3 324.7 320.6 327.4 342.5 344.4 343.9 344.4 342.6 343.5 345.1 347.6 355.4 358.9 360.5 351.6 355 362.9 368.2 372.2 374.5 375.4 374.8 373.8 372.8 371.6 372.1 376.4 385.1 390.6 394.7 399 402 404.1 403.7 400.5 401 397.8 397 397.6 395.1 392.9 391.1 389.3 388.2 387.7 386.7 386.1 386.7 391.2 383.9 383 392.4 389.1 385.1 381.2 376.5 372.5 367 364 363.6 363.7 364.3 358.4 356 347.8 342.6 338 332.1 328.2 323 324.7 328.4 328.2 309.4 309.3 309.6 310.3 313.4 312.9 313.2 316.3 317.9 318.6 330.3 337.7 340.2 342.6 345.7 350.9 355.8 359.5 361.2 362.6 364.4 379.9 389.6 391.6 392 390.4 387.2 383.3 379.6 375.1 370.8 366.9 365 362.4 361.1 358 355.9 357.8 357.1 354.7 354 353.5 351.1 348.3 341.4 340.1 334.5 328.5 326.4 323 313.3 306.6 301.7 299.3 299.4 287.1 280.6 276.4 275.8 274.6 278.3 295.4 299.9 304.4 326.1 330.1 333.7 348.7 361.8 375.3 386.8 396.3 405 414.7 417.2 419.8 426 431.8 435.7 441.3 447.4 451.6 453.3 453.7 452.4 450.9 450.2 448.1 443.7 436.2 423.7 411.9 399 385.9 372.3 361.8 355.4 344 340.4 337.3 333.9 322.7 312.6 311.6 310.4 319.1 330.3 334.8 338.7 344.4 350.9 358.7 359.6 367.9 374.8 380.7 389
370.3 367.5 365 359.1 355.7 350.3 344.9 341.1 338 336.2 333.4 334.1 334.7 334.8 336.6 338.7 338.3 339.8 343.4 346.6 349.7 350 352.6 355.4 359.5 355.1 356.6 366.2 370.2 372.8 372.5 371.8 370.5 370.7 370.1 371 377.6 385.4 390.5 394.7 401.2 405.7 408.6 406.5 404.3 402.9 402.6 402.1 401.2 400.9 399 396.8 395.1 394.6 394.3 393.3 392.3 394.5 397.7 388.3 388.5 397.8 396.9 398.6 395.6 392.2 388.2 383 376.2 369 365.9 364.5 362.1 355.9 353.8 344.1 340.2 334.3 331.7 324.6 324.5 327 328.1 310.1 308.7 307.7 306.5 312.6 313.2 315.1 318.4 319.2 320.3 331.3 336.5 339.2 341.6 343.8 347 350.9 354.4 357.4 359.7 365 382.8 390.4 396.3 394.2 390.7 387.5 384.9 381.8 377.8 374.1 371.6 370.2 366.3 363.1 360.7 358.2 358.3 358.4 357.9 357.6 356.4 353.2 348.9 338.5 337.9 335.2 333.8 331 326.5 321.5 306.5 301.6 299.4 301.5 288.3 280.8 276.4 275.4 274.8 278.3 286.9 299.9 299.7 322.3 327.5 338.6 350.2 366.3 377.9 388.1 396 408.1 413.8 415.5 421.1 427.3 431.8 437.4 444 450.4 457 461.7 463.4 464.2 463.8 461.3 456.8 449.8 442 429.4 416.1 403 389.3 375.9 359.5 354.9 343.5 340 336.7 333.5 326.4 312.6 310.8 309.8 317.4 326.5 331.6 336.8 341.6 345.8 349.2 355.3 362.4 370.4 376.3 384.3
367.5 364.3 360.9 351.6 345.7 344.8 345.3 341.3 336.1 332.3 332.5 333.1 327.2 329.7 332.5 332.3 336.7 336.9 341 344.9 347.5 348.8 345.2 344.7 347.1 351.8 350.6 358.2 363.6 368.2 368.5 367.8 367.7 368.5 369.1 371.2 379.1 386.6 391.5 396.6 404 410.4 411.8 412.8 411.7 407.4 406.8 405.4 404.7 403.6 403.6 404.2 403.2 402.8 402.1 401.9 400.7 400.6 401.3 399.2 397.2 397.2 397.5 397.5 397.5 401 399.6 394.5 389.4 382.3 375.9 370.7 365.3 356.7 356.4 348.6 339.8 336.2 334.9 329.3 322.2 327.7 324 310.1 310.3 310.1 298.9 310.7 315.6 317.9 319.9 320.7 322.3 329.5 335.2 338 340.2 342.4 345.3 349.1 353.3 355.4 357.8 366.8 384.4 393 395.6 394.3 391.6 389.8 386.2 382.4 379.6 377.9 375.8 374.6 369.4 367.7 367.8 366.2 362.8 361.7 361.9 361.9 358.5 355.7 353.7 350.1 341.3 334.6 332.3 331.5 328.7 323.3 306.9 301.9 299.1 291.8 282.9 279.3 275.5 274.9 274.5 278.1 278.8 299.5 300.3 314.7 330.1 338.4 349.7 367 377.3 386.7 395.3 408.2 413 415 421.5 428.1 434.9 439.9 446.7 455.5 466.1 474.2 477.3 478.8 476.7 470.7 464.2 455.5 445.3 433.6 419.2 406.1 392.1 376.9 363.4 352.7 344.2 339.4 335.3 332.3 322.8 313.1 307.8 308.3 316.8 323.1 328 332.1 337.9 343.1 344.8 348.9 356 363.9 371.9 379.7
364.1 360.9 353.1 360.9 349.4 344.8 336.1 332.9 337.3 337.5 330.5 321.3 317.4 326.6 329 329.4 330.6 330.4 341.4 343.9 347 349 344.7 338.9 348.2 349.9 350.6 354.2 358.5 361.8 364.3 364.5 365.6 366.9 367.6 374.1 380.6 386.6 391.1 395.4 407.9 415.1 418.3 419.3 418.1 415.2 413.2 408.9 404.9 406.9 405.9 406.1 405.6 405 404.6 404.5 403.8 403.2 402.6 402.5 401.9 401 400.2 399.1 398.5 398.4 403.4 402.7 398.1 386.1 380.4 376.1 371.5 365.4 357.8 352.3 343.9 337.1 335.9 332 323.3 322.2 313.1 311.7 312 311.2 309.5 307.6 313.3 321.3 321.1 321.4 322.2 327.1 333.9 337.7 339.4 341.6 343.7 347.3 351.1 354.3 358.2 373.2 386.7 394.7 394.7 394.4 392.9 390.8 389.1 386.7 383.8 381 379.7 376.3 371.4 369.5 368.7 368.7 367.8 367.9 367.8 366.8 364.7 360.3 356.9 354.9 352 346.6 330.5 328.5 327.4 321.5 306.2 301.3 299.9 297.8 279.6 276.3 274.8 274.4 273.9 275.4 278.8 285.1 300.4 308.1 324.3 334.6 342.7 353.5 371.2 384.8 395.6 408.1 412.3 415.4 420.4 427 435.5 440.6 451.4 466.1 478 485.7 489.4 491.2 488.1 480.9 471.2 459.5 448.6 438.7 424.5 409.9 395.7 379.5 364.6 353.4 343.2 338.4 334.2 328.9 315.6 310.3 304 304.8 315 319.6 323 327.2 333.7 339.6 343 344.9 349.9 358.8 368.2 374.9
359.6 356.3 356.6 346.9 340.3 336.4 340.8 340.5 335.1 333 329.6 324.2 317.5 321 324.3 327.8 330.1 330.4 341.9 342.9 346.1 347.3 344.2 337.2 348.5 352.1 354.8 356.8 360.1 362.8 363.5 363.8 364.3 364.6 370.6 378.2 383.6 386.3 389.9 398.8 408.8 416.1 420 422.4 422.9 421.7 419 411.1 411.2 411 410.3 410.4 409.7 408.4 407.4 404.7 404.9 404.5 405 405.7 405.2 405.2 405.2 405.1 404.6 403.3 403.2 404.4 400.3 390.1 379.6 379.1 374.1 369.1 362 354.7 345.9 338 335.9 333.6 327.6 320.8 314.6 312.8 311.9 311.2 308.7 302.4 308.5 319.4 321.6 321.8 322.3 324.2 326.3 332.3 339.2 341.3 343.2 345.6 349.6 353.3 363.3 377.7 388.9 393.4 393.5 395.7 394.8 393.9 391.9 390.6 388.6 386.4 385 383.7 377.2 373.2 371.6 378.4 377.7 376.1 376 373.4 370.1 368.6 366.4 363.3 359.1 353.2 344.3 328.5 325.9 320.9 306.6 301.8 300.3 297.9 285.1 275.1 274.3 273.9 273.8 273.4 278.1 288.1 300.7 304.8 321.2 333.6 345 362.8 373.5 384.1 398.1 408.6 410.8 414.4 419.6 427.2 435.8 444.8 462.1 478.1 484.3 490.5 493.7 494.9 493.6 489.2 476.5 464.2 453.1 443.3 430.7 415.2 398.4 381.3 368.5 354.7 344.4 336.6 331.1 321.5 312 309.5 306.3 303.3 312.4 317.3 320.8 324.9 329.1 335.1 336.9 341.7 345.2 353.3 362.1 371.3
357.5 352.7 340.5 339.8 340.4 339.4 339.8 339 335.9 333.1 327.5 323.9 308.3 316.2 322.5 323.2 327.6 333.6 338.4 339.9 341.5 342.5 338.7 336 348.2 357 359 360 361.4 362.4 362.4 362.4 362.7 363.5 372.9 379.4 384.4 384.7 388.9 398.7 407.1 413.9 419.9 424.5 423.7 420.7 418.4 416.6 415.9 415.5 415.3 416 416.1 415.8 414.9 413.8 412.3 411 408.9 406.9 404 405.4 405.4 405.8 405.7 405.5 405.7 405 402.4 395.6 383.5 374.5 371 366.8 364.4 358.1 347.1 342.7 336.6 332.2 326.7 320.4 316.9 312.5 309 308.8 307.2 304.4 305.2 314.9 321.2 321.7 322.4 323.4 324.5 328.9 338.9 341.1 342.7 346.5 351 355.8 367.5 381 390 391.9 394 397.6 398.3 398.1 396.4 394.4 392.7 391.6 390.7 389.6 388.3 386.7 383.2 384.8 383.3 382.1 381.4 380.3 378.8 376.6 375.6 371.7 366.7 361.1 350.2 337.7 324.4 320.6 310.7 302.3 300.1 299.3 296.9 274.5 274.7 274.4 274.2 273.4 280.9 289.8 299.9 303.9 329.8 334.5 344.8 363.6 372.3 384.2 400.9 407 411.4 414.5 419.7 429.7 439.7 453.5 471.5 480.5 486.5 490.7 495.2 495.5 492.7 489.5 481.3 469.3 458.9 448.2 438.4 422.3 404 384.9 370.3 355.3 347.8 337.9 327.7 316.9 311.1 311.2 309.8 305.5 314.4 318.1 319.3 323.2 326.2 331 335.4 335.4 342.3 349 357.7 365.3
344.5 342 341.5 342.9 338.6 338.2 335.6 338 332.7 328.4 324.9 322.2 311.6 314.1 321.6 318 320.7 330 334.5 336.2 337.5 337.3 335.4 336.2 349.2 357.8 360.1 360.3 360.7 361.1 360.9 362.1 362.2 366.5 375.6 379.8 383.3 382.3 391.7 396.7 404 411.1 416.9 420.7 420.3 419.9 418.9 422.2 425.3 424.1 424.4 425.7 425.3 422.8 422.4 421.9 420.7 419.9 418.1 415.7 413.2 413.8 413.7 414.1 411.6 408.8 406.8 405.2 402.1 397.6 391.3 379.6 369.6 365.1 365.5 360.8 351.8 346.1 340 332.8 327.8 321.6 316.8 312.1 308.4 308.7 301.3 300.9 295.2 311.7 320.8 321.8 322.5 323.2 324.5 332.9 339.5 340.7 345.1 351.1 354.3 358.7 372.1 381.7 388.5 391.4 395.1 400.2 403.6 403.3 401.4 399.7 400.3 399.4 397.6 396 394.6 393 391 391.5 390.4 389.1 388.8 388.1 386 384.2 382.1 378.8 375.3 368.9 358 342.1 323.7 320.9 313.5 302.1 300.4 299.3 297.2 277.3 274.5 274.2 274 274.5 280.2 285.9 300.2 300.6 324.9 332 344 360.4 371.8 384.9 399.3 403.9 411.2 414.6 423.2 434.6 447.7 464.5 477.9 484.2 489.5 491 493.4 494.1 493.1 490.5 485.3 476.2 464.7 452.9 441.6 426.6 408.9 389.6 375.2 360.4 349.8 344.9 332.4 321 313.1 312.8 310.3 311.2 316.4 316.5 317.8 319.5 322.8 325.3 334.5 334 339.6 345.5 351.6 358.2
345.8 341.7 338.2 336.2 334.9 333.1 330.6 329.9 326.9 325.3 323.1 320.7 318.8 304 319.7 314.3 322.7 326.6 331.5 333.8 332 333.5 331.6 338.7 352.2 358.9 359.8 359.8 359.8 359.4 361.7 363.2 365.6 370.6 376.6 381.2 384.5 387.5 389.5 395.5 400.2 406.1 411.4 413.2 413.8 416 419.8 424.8 427.9 429.9 432.2 434.7 434.7 432.1 432.1 432.2 433.7 430.8 423.6 421.7 419 420.1 421 420.3 420 417.9 413.2 407.3 402.6 398.3 393.4 387.5 374.4 365.5 362.3 360.9 348 343.1 340.7 336.2 328.9 321.4 317.5 315.5 312.3 301.1 300.3 300.2 298.1 308.5 320.5 321.8 322.5 323.2 325.4 334.9 341.2 337.8 348.4 355.7 357.2 362.2 375.9 385.1 388.9 392.2 399.9 407.1 407.7 407.8 407.4 406.5 404.9 403.7 402.2 400.5 398.8 398.1 397.3 397.1 396.6 396.5 396.5 395.5 395.3 393.8 391.5 386.9 382.5 376.4 365 350.1 325.8 319.6 314.9 302.8 300.3 299.4 299.3 284 274.6 274.2 273.3 274.4 272 285.9 300.1 300 326 330.8 342.4 360.6 372.2 384.9 397.1 404.5 412 417 428.6 441.2 456.5 473.1 483.5 489 490.9 491.2 492.7 494.5 495.2 493.9 490.2 481.3 469.7 456.9 444.1 431.6 414.5 396.4 380.1 366.5 355.1 348.7 342.2 331.6 323.2 319.2 313.7 310 315.8 316.5 317 317.3 318.4 322.4 326 330.8 335 337 346.4 353.1
337.4 335.1 332.2 331.7 330.9 330.1 328.4 328.2 326.8 324.2 321.3 318 310.3 305.7 304.6 307.8 318.9 324.7 329.8 332.5 332.9 331 329.2 342.4 354.7 358.4 359.4 359.4 358.6 360.5 361.9 363.9 367.2 372.7 376.6 379.1 381.6 388.7 390.1 395.3 400.4 402.1 404.5 409.6 415.1 419.2 421.6 424.9 429.1 434.1 437.4 439.4 441.4 442.2 441.9 440.3 442.4 439.8 433.6 426.8 422.3 420.6 421.2 420.3 417.6 415.1 410.1 405.7 400.4 395.9 391.5 387 380.7 366 361.4 359.4 351.8 346.7 344.4 340.4 331.5 326.3 318.2 316.4 311.2 301 299.8 299.3 297.5 306.6 318.1 321.2 322.6 323.3 325.9 333.6 341.5 345.2 356.2 360.6 368.6 373.7 383 387.3 390.9 398.6 408.3 411.9 410.7 409.8 408.5 407.3 406.3 405.4 404.5 402.9 402.1 402 402.3 402.8 403.9 404.5 404.7 403.6 401.4 399.5 397.8 393.2 389.5 382.5 372.6 356.6 344.1 326.9 315.1 303.8 299.9 299.1 298.9 284.5 274.2 273.6 273.2 274.1 265.4 285.9 300 299.9 323.8 329.2 339.3 355.5 374 384.7 398.1 410.7 413.7 421.2 432 445.5 463.8 479.2 485.5 487 488.3 490.6 492.9 496 497.3 495.7 491.7 487.1 473.7 460.5 448.2 435.4 421 402 384.7 371 358.5 351.5 347.8 340.3 329.9 323.8 318.1 309.1 314.4 316.2 316.5 316.1 315.2 315.6 323.2 329 331.7 331.9 339.5 348
331.5 328.7 327 327.1 327.1 325.8 326.2 326.6 325.7 323 320.6 318.1 315.3 312.4 306.3 303.5 309.4 322.2 327.5 330.3 331.2 328.4 332 341.8 351.8 357.2 358.1 358.8 357.7 359.4 362.2 364.3 366.2 370 373.5 377.6 383 386.9 389.7 394.3 395.4 398.9 405.1 411.3 417 422 424.1 426.5 429.3 436 440.6 443 446.1 446.8 446.5 445.9 445.5 445.1 441.8 436.3 429.8 426.4 423 418.6 417.1 413.2 408.6 402.6 396.9 392.5 388.8 385.5 380.8 370.5 358.3 356.7 351.9 346.1 339.8 337.9 332.6 327 319 316.4 314.9 311.5 303 299 293.6 305.2 314.8 321.1 322.3 323.3 327.9 338.9 345.2 348.2 361.2 372.5 378.4 384.3 385.5 388.1 395.7 404.7 410.6 411 409.9 409.3 409.2 408.4 407.9 408.1 408.1 407.8 407.1 408.5 409.7 410.1 410.3 411.5 411.2 409.6 407.6 406.5 404.8 400.8 395.3 386.8 375.2 357.2 346.2 330.1 315.6 304.1 296.8 299.5 291.5 286 274.1 274 273.8 272.4 271.3 286.9 299.4 300 324.8 327.5 335.8 352.5 368 381.7 397.5 410.1 413.8 420.4 432.7 449.9 468.9 479.1 481.8 484.4 486.5 489.5 494.2 499.8 500.7 497.9 493.9 489.7 481.4 467.3 455.1 441.4 426.9 409.6 390.2 374.6 363.7 354.2 350.9 345.5 335.1 326 321.7 313.2 309.4 314.3 315.7 314.3 311.3 312.2 318.9 323.4 331.3 330.7 335.3 343.2
328 326.2 324.9 324.9 324.9 324.9 323.9 324.6 323.4 321.8 320.6 318.6 315.9 314.5 307.2 303.9 303.2 316.5 323.2 325 326.3 318.7 334.6 340.5 345.7 353.5 356.7 357.8 356.5 358.4 360.8 361.6 364.5 368.4 373 376.2 382.4 385.5 389.3 391.7 395.7 400.3 406.4 412.7 417.9 422 425.4 427.8 432.1 439.2 448.2 454.1 453.6 453 452.5 450.5 449.4 448.7 447 443.7 436.7 428.9 426.8 420.9 416.2 412.4 406.9 401 394.7 390 386.4 383.2 379.7 374 356.4 352.7 350.3 344.5 340.2 336.4 331.3 325.9 319.2 317.7 316.1 311.4 297.9 297.9 292.9 302.4 309.6 320.4 321.9 323 331.7 344 350.1 353.5 369.2 377.2 383.9 384.8 386.1 393.3 403.1 407 408.7 409.6 409.7 409.7 410.3 409.9 410.8 412.5 412.4 412 411.7 413.6 414.3 414.2 414.3 413.2 413.6 413 411.9 411.6 411.1 408.8 402.5 392.5 376.7 357.8 337.6 330.9 318.5 305.7 297.4 289.1 287.9 283.3 274.3 274.2 274.1 273.5 270.2 277.1 298.5 299.3 326.9 327.4 335.1 351.6 366.3 380.8 391.8 403.7 413.4 422.8 436.9 452.3 469.2 476.9 480.2 482.9 486.2 489.6 496.4 501.4 502.8 501.2 498.3 492.3 485.7 474.9 460.4 446.4 431.5 415.8 397.8 379.9 367.3 356.1 352.5 347.8 337.8 329 324.9 317.6 307.6 309.1 309.7 310 310.4 311 315.4 320.4 324.1 329.2 331 338.1
324.9 324.9 324.9 324.9 324.9 324.9 324.9 322.1 320.1 320.3 320.3 318.7 316.6 314.2 305.6 304.8 294.8 312.2 319.1 318.4 315.2 325.4 337 339.7 342.4 348.7 352.7 354.6 353.3 356.2 357.6 359.8 364.3 368.7 373.2 374.9 378.5 384.2 387.2 388.6 395.4 401.6 407.8 413.7 418.1 422.3 425.1 427.7 436 444.2 453.5 453.2 452.6 451.4 450.6 450.7 450.3 448.3 447.6 446.7 441.4 435.5 428.4 420.9 416.4 411.8 407.7 402.2 396.2 389.5 383.5 380.1 377.8 372.5 359.6 346.7 343.6 341.7 337.1 333.2 330.4 325.3 319.5 318.5 317.6 310.9 297.3 297.2 292.6 299 304.5 320.1 321.4 322.9 333.9 344.7 350.7 358.6 372.3 378.3 383.8 385 388.8 394.7 401.6 406.1 407.3 408.6 409.4 410.4 411.1 412.3 413 413.9 414 413.8 414.8 415.8 416.6 417.5 417.5 417.5 417.6 417.7 416.8 415.9 414.8 411.3 405 392.6 376.1 360.4 347.4 331.4 320.2 310.4 300.3 292.6 289.9 276.9 274.6 274.7 274.2 273.3 270.4 265.6 291.5 302.8 327.3 327.3 333.8 347.3 362.2 377.7 388.3 400.5 413.2 424.4 439 454.7 469.8 475.8 479 482.4 486.1 491.6 498.9 503.6 507.3 505.7 501.5 496 488.7 481.2 465.7 446.9 433 419.2 402.8 387.2 371 358.8 352.4 343.5 339.1 332.4 326.9 320.5 310.5 308.2 308.4 308.7 309.2 310 312.2 315.3 322.3 325 328.1 333.1
324.9 324.9 324.9 324.9 324.9 324.5 318.6 318.5 318 317.7 318.2 317.9 316.4 313 304 303.5 293.7 301.3 306.4 309.2 321.6 331.9 336.9 339.8 342.4 346.3 348.7 350.4 350.9 352.7 355.2 358.6 364.3 368.7 371.6 372.1 379.1 383.5 383.8 388.3 395.6 401.9 409.1 414.2 418.4 420.4 424.3 429.7 439.8 449.4 452.7 452.6 452.2 450.8 448.2 445.9 442.7 440.8 440.6 441.4 439.5 437.4 432.2 424 417.6 412.8 407.6 400.9 397.1 390.9 381.7 377.9 376.3 374.2 362.5 345.3 343.3 339.9 337.7 333.5 329.6 324.7 319.8 317.7 310 305.8 296.6 296.1 293.4 298.7 305.4 318.8 322 324 335.3 344.6 350.3 362.1 373 377.1 383.7 385.6 388.4 395.5 401 405.5 407 408.4 410.6 410.8 411 411.9 410 413.4 414.2 416.4 418.7 420.8 421.6 421.6 422.2 422.6 424 424.2 423 421.5 418.1 413.7 406.2 394.5 376.4 359 346.8 331.1 321.6 310.9 304.2 294.3 291.4 278.1 275.2 275 274.9 273.9 268.8 268.2 285 303.1 326.5 327.3 331.3 345 359.8 373.6 386.4 397.9 411.2 422.6 437.4 456.9 469.1 473.4 477.2 481.1 486.9 492.9 500.7 510.5 519.8 517.5 509.5 500.7 492.6 483.8 466.5 447.6 434.2 421.3 408.4 393 378.8 364.6 352.9 342.9 334.7 327.8 330.1 322.8 313.4 305.9 308.1 308.3 308.6 309 310.5 313.2 314.5 324.3 325.3 327.6
324.9 324.9 324.9 320 317 315.6 315 314.3 314.8 314.9 315.6 315.9 314.3 311.3 306.3 303.4 293.9 299 308.8 321.8 325.3 331 335 339.3 341.8 343.8 346.2 347.7 348.6 349.5 353 355.7 362.3 366 367.9 368.5 377.5 381 383.1 390.3 398.2 404.7 410.4 414.6 414.9 418.7 425.7 432.1 442.5 451.2 452.7 453.8 453.3 451.9 450.9 448.2 444.7 441.4 438.1 435.7 435.4 434.8 431.1 427.7 421.1 415 406.4 398.2 393.2 389.6 382.4 376.5 374.7 371.6 368.9 347.6 343.9 341.5 335.1 329.7 324.3 322.2 319.6 316.6 309.7 302.4 295.6 295.1 291 298.8 305.4 319.1 321.7 323.8 335.5 343.1 348.5 362.5 372.2 375.8 377.7 382.2 387.2 394.3 401.1 404.2 404.9 405.9 407.9 409.4 409.2 409.4 410.8 413.8 416.5 418.3 420.6 422.7 423.7 424.6 425.6 426.6 427.3 428 427.8 425.5 421.2 414.6 404.1 389.1 369.2 355.1 344.7 335.6 321.5 311.9 306.3 296.8 290.6 281.7 275.7 275.1 275.1 272.8 272.3 268.3 270.9 295.8 321.6 328.1 329.7 343.2 356 369 380.8 392.8 407.4 419.8 434 453.8 467.7 471.7 474 480 486.6 494.4 506.7 525.9 532 528.3 522.4 512.8 500.6 486.3 473.5 454.6 438.4 425.4 413.7 400.9 386.6 370.9 358.6 348.4 339.3 330.5 331.9 325 316.7 306.8 307.9 308 308.3 308.5 308.9 312.2 310.9 323.5 324.4 324.6
323.6 317.9 317.1 316.2 315.2 313.4 311.5 310.2 311.5 312.2 312.9 313.1 311.8 308 301.5 303.9 295.1 301.5 315.1 321.4 324.6 330.5 334.9 338.4 340.5 341.6 343.4 344.3 346 346.4 351.2 354.5 357.6 362.1 365.4 368.4 375.7 385 390.3 391.9 399.4 404.5 408.4 413.4 419.2 423.5 427.9 436.2 446.4 452.1 453.7 456.3 454.4 451.4 450.5 449 446.8 443.9 439.7 436.3 433.4 430.8 428.2 425.2 422.2 414.8 409.3 401.4 394.3 388.8 384.3 377 375.6 374.9 375.1 360.8 350.8 343.1 333.4 330.5 327 321.6 316.2 310.8 307.5 298.1 294.9 294.7 291.8 298.1 309.1 318.7 321.2 323.2 333.1 339.1 348.5 366.3 371 373.8 374.2 377.1 385.2 392.1 398.3 401.3 402.6 404 405.2 407.1 406.4 406.7 410.9 413.5 415.7 418.7 422.2 424.7 426.3 428.1 429.8 430.9 432.2 433.1 432.9 430 424.4 415 399.6 383.1 365.5 355.2 346.8 335.5 325.1 312.6 306.6 299.7 289.4 283 276.3 275.6 274.4 272.3 272.2 267.3 260.7 292.2 311.8 326.9 327 336.3 350.6 364.4 377.2 387.2 403 416 430.2 444.5 463.1 468.6 472.6 478.9 486 497 515.3 533.2 536.1 536 533.2 526.4 513.2 495.8 480.8 466.7 447.2 432 421.4 407.8 394 377.6 364.8 354.4 344.8 336.6 333.1 328.3 320.4 310.3 304.8 306.8 306.9 307.8 306.6 307 308.1 320.7 323.6 324
312.5 314 315.4 315 313.6 312 309.9 308.7 306.8 308.8 310.2 310.8 310.1 306.3 300.7 298.4 293.3 303.5 312.8 320.5 323.8 328.7 332.7 336.3 338.4 339.3 339.6 341 341.9 346.6 349.4 352.4 354.6 361.3 366.2 373 380.5 390.7 397.6 399.6 401.5 407 413.8 419.5 422.1 425.4 432.1 441.7 449.7 452.2 454.3 455.4 452.1 449.4 448.6 447.5 446 443.6 441.1 437.3 433.6 430.4 424 419.6 419.4 415.2 408.9 402.6 394.9 388.5 383.9 377 376.1 375.8 375.4 372 356.5 346.7 334.7 328.6 323.4 318.9 314.6 310.9 307.3 296.4 294.7 294.3 294.4 294.7 307.4 318.8 319.2 320.9 328.7 335.4 349.7 364 367.1 369.6 371.3 374.4 382.6 390.1 396.3 398.5 401.4 404.3 404.5 403.8 402.2 404.4 409.9 413.2 415.6 420 424.3 427.2 430.3 431.8 434.1 435.5 436.8 438 437.6 433.7 426.9 417.4 403 382 365 357.4 346.2 336.4 323 313.1 306.8 300.4 289.1 283 277.2 275 273.5 272.1 272.3 266.3 266 278.3 300.5 326.5 327.1 333.7 345.8 358.7 371.8 381.2 397.7 411.6 425.3 439.1 459.3 466.7 470.9 477.3 484.8 500.4 525.6 534.3 538.1 538 537.3 534 526.2 508.5 488.2 474.9 461.9 443.1 429.4 417.4 404.1 387.3 372.6 360.8 352.6 344 335.4 332 323.4 314.1 303.6 305.6 305.6 305.8 306.4 306.2 305.8 311 323.3 323.5
309.3 311.6 303 312.3 312 310.6 309.3 308 306.2 305.2 307.3 308.2 308.9 306.8 300 293.9 295.3 307.1 308.4 317.8 321.1 325.8 330.5 333.9 335.9 335.2 335.4 337.8 341.7 345.4 349.1 352.1 356.3 362.9 369.2 379.7 388.5 396.9 402.4 404.9 409.3 414.3 418 421 422.9 427.8 435.3 444.9 450.2 452.2 455.1 452.8 450.4 447.7 445.6 445.8 444.4 442.2 440.2 436.3 433.4 430 424.5 418.7 414.6 412.4 406.6 399.3 392 385.2 379.1 376.8 375.5 375.3 371.1 366.8 355.9 352.3 339.4 327.4 323 317.6 313.9 310.4 306.6 302.7 294.2 293.6 294.9 288.1 303 313.1 312.5 319.3 329 340.7 352.8 359.9 364.1 366.5 368.7 375.2 382.5 389 393.8 396.5 399.2 401 405.5 401.7 400.9 402.6 406.7 412.1 416.6 423.7 425.8 429.1 431.9 435.7 437.9 439.8 440.5 441.3 441 437 427.5 415.5 398.6 381.1 365.5 357.7 346.6 338.4 325.3 314.6 308 300.4 292 283.9 276.2 275.5 273.7 272.1 272.2 266.1 265.4 269.6 295.1 316.2 328.1 330 339.1 353.5 365.2 375.9 391.2 405.4 422.6 438.7 453.7 462.9 468.8 475.3 485.4 504 528.3 535.1 538.2 539.2 538.6 536.8 532.3 524.5 506.1 487.4 475.5 460.4 437.2 423.5 411.7 397.3 380 367.7 356.1 344.5 339 335.1 323.5 310.5 301.6 304.1 305.1 305.8 304.6 304.7 304.5 304 312.2 323.5
314.2 306 304.4 302.5 297.6 300.9 305.1 306.5 305.2 300.6 303.3 304.7 305.3 305.3 298.9 295 298.5 310.4 312.4 315.6 317.7 322.9 327.6 331.1 331.6 331.9 332 335.9 339.5 343.4 347 351.8 356.5 365.1 373.8 384.7 394.4 401.2 403.6 407.2 411.9 416.5 420 422.9 425.9 432.6 441.3 447.2 449.1 452 454.1 450.9 449.4 446.2 443.2 443.9 444.2 443.1 440.1 437.7 431.4 426.8 422.2 416.3 411.5 407.8 400.4 395.1 388.2 382.7 377.5 375.8 370.5 363.2 355.9 356.6 352.7 350.7 333.7 326 323.8 317.5 313.9 310.1 305.5 303.7 295.8 293.1 293.5 290.7 296.1 301.7 308.3 316.7 327.4 338.9 347.7 354.9 357.3 363.3 368.1 375.3 381.3 387.2 391.8 394.6 395.5 396.1 396.8 400.7 399.9 401.9 405.1 412.3 417.9 424.6 426.5 429.5 435.4 440.5 441.5 442.6 443.7 444.8 444.6 440.4 428.4 414.1 397.8 382 365.6 356.1 347.9 339.7 330.7 323.8 310.7 303.6 293.6 284.6 276.1 275.4 274.7 272.3 272.3 266.6 264.7 266.2 285 304.9 322.3 323.8 336.1 347.9 359.4 371.4 387.4 400.1 416.9 433.6 448.9 459.9 467.9 474.5 486.4 509.7 528.9 534.5 537.5 538.7 538.9 538.3 535.7 530.8 523.5 507.3 488.5 474 449.2 427.6 416.3 401.7 385.8 373.3 362.4 349.1 342.8 334.4 322.2 311.9 302.4 299.5 302.2 302.7 302.7 303 303.3 302.4 302.6 319.4
309.5 307.2 314.6 310.4 302.6 299.3 298.9 299.6 299.7 299.1 298.7 302.2 302.2 303.1 302.7 296.2 294.2 311.4 314.6 315.3 314.6 320.4 325 327.1 326.5 326.7 330.2 334.2 338.1 341.4 345.7 352.1 360.2 369.2 380.1 390.6 395.5 398.3 403.6 409.8 415.4 419 421.3 424.6 432 439.1 443.9 446.8 448.8 453 452.1 448.8 446.4 443.4 442.7 445.2 445.6 445 441.8 438.6 433.4 427.3 420.6 415.2 409.9 403.6 394.5 389.6 386.2 383.8 380.3 372.7 364.9 353.7 351.9 351.7 349.9 337.1 330.4 326 321.5 316.1 311.9 308.7 305.1 299.7 295.7 291.6 292.4 293 296.1 301.7 308.5 316 321.8 333.9 344.7 349.1 358.5 364.6 367.9 373.8 377.8 380.8 385.6 390.3 392.1 392.9 393.6 394.6 401.4 405.7 405.8 411.9 417.6 422.9 425.2 430.9 439.7 442.8 443.8 444.7 446.6 448.4 447.8 444.5 434.9 414 398.4 383.5 365.6 355.7 346.2 338.6 332.9 324.9 315.9 305 293.8 284.7 276 274.9 274.2 273.1 272.3 267.6 263.8 267.4 277.4 291.7 312.9 318 329.8 341 354.9 368.1 383 396.1 410.5 427.8 443.2 456.8 466.2 475.2 488.7 510.5 527.9 532.8 535.3 537 538.1 538.7 537.7 534.5 529.1 523 504.3 480.9 462.8 437.3 417.7 406.9 392.7 379.6 368.4 356 344.3 333 323.5 313.7 303.3 295.2 301.7 302.1 301.5 301.6 301.8 301.6 302.8 308.3
318.6 318.2 316.5 313.5 309.8 304.9 300.5 292.9 297.7 295.6 296.1 297.7 298.7 299.2 300.1 290.1 295.2 311.9 314.6 315.3 315.8 317.2 321.3 322.5 321.8 323.9 327.3 331.8 335.6 340 348.3 356.3 364.5 374.6 382.4 385.5 394.3 401 406.3 412.8 417.3 420.1 423.5 430.8 438.1 442 443.9 445.8 450.2 452.4 449 446.7 443.8 441.5 443.1 446.7 448.4 446 442.9 439.3 435.3 428.7 421.3 416.2 410.9 403.6 396.8 392.2 385.9 379.7 372.9 366.3 360.4 353.6 348 343.4 338.8 338.6 338.9 324.7 321.7 319.2 312.1 308.6 303.2 298.5 294.2 290.9 291.9 293.3 295 301.9 312.1 319.9 327 337.2 346.6 351.9 357.1 361.8 366.1 372.1 373.3 375.8 381.3 386.8 389.3 389.9 389.9 393.4 399.5 403.9 405.9 410.9 416.6 420.5 424.8 432.1 439.3 441.9 444.2 447.2 451.4 452.6 450.6 447.1 438.9 418.9 399.5 381.8 370.5 355.9 345.6 338.1 333.5 327.2 319.3 306.1 295.2 284.4 275.6 274.8 274.4 273.8 275.2 269.1 262.6 269.6 277.4 286.1 305.5 314.1 324.3 339.8 353.8 365.7 377.9 390.8 404.3 419.5 435.2 450.9 464 474.4 491.3 512.2 525.5 530.4 532.8 535.1 536.8 538.2 538.8 537.2 533.9 528.6 519 490.1 471.2 447.1 424 408 399 386.5 373.3 361.7 348.9 337.4 325.9 314.4 301.9 295.2 296.6 300.4 300.3 300.1 300.4 300.3 303.4 307.9
324.2 323.6 321.7 319.4 316.2 312.6 308.5 303.9 299.9 298.8 292.5 293.9 295.6 295.5 294.9 285.9 293.6 310.4 314.3 315.1 315.9 316.2 317.9 318.5 320.6 322.1 324.3 329.9 335.4 343 351.9 359.4 365.3 370 378.7 388.6 398.2 403.7 408.9 414.4 418.6 423.6 429.8 435.6 440.9 441.7 443.5 447 450.9 448.1 444.7 442 439.5 439.7 443.8 447.1 446.4 445.5 443.5 439.3 434.7 430.9 424.8 418.9 414.3 407.8 400.9 395 390 383.9 377.6 372.3 364.1 358.5 351.8 345.3 342.4 343 343.2 326.2 323.3 319.1 312.9 308.8 303.6 298.5 293.6 290.1 291 292.3 293.7 303 314.3 321.4 330.1 342.9 350.8 353.6 354.8 357.3 362 368.1 368.6 371.2 378.5 382.6 384.6 386.1 385.3 393.2 399 402.3 405.8 411 415.8 419.9 425.7 434.4 438.5 441.8 445.1 451.7 455.4 457.2 455.4 451 442.4 425.8 401 385.3 376.2 359.1 346.8 342 333.5 326.6 322.6 307.4 298 287.9 275.5 274.7 274.3 274.1 274.6 263.2 262.5 269 276.5 285.4 297.3 313 323.6 337.5 350.7 361.4 374.3 384.4 399.3 414.9 429.3 445.4 458.8 471.3 488.9 510.9 521.4 526.5 529.5 532 534.7 538.9 541 541.9 538.7 532.5 524.4 503.3 476.5 456.1 433.7 413.6 402.7 392.8 378.3 365.9 353.8 340.6 328.6 314.8 303.1 296.1 292 299.5 300.3 299.2 299.1 297.8 304.4 307.1
329.5 328.8 327.9 326 322.6 319.1 314.4 310.2 307.2 304.9 297.6 291.8 291.1 290.4 290.7 283.1 289.8 297.4 313.6 315.7 311.9 313.3 315.2 317 318.9 320.4 323.1 328.9 336.1 343.5 352.6 357.2 360.6 370.5 380.8 390.5 397.4 402 408.2 414.4 420.4 428.1 433.8 436.5 439.5 441.4 444.1 448.1 446.4 443.7 440.8 438.1 436.2 438.8 442.5 445 444.4 443.8 442.1 439.8 435.8 431.6 428.5 424.9 420.6 415.1 407 401.9 397.7 392.5 387.2 380.9 374.5 366.1 359.5 350.5 348.8 344.7 344.9 334.3 324 319.1 313.1 308.9 305.4 299.4 293.8 291 290.8 292 291.1 304.7 314 320.9 331.2 344.7 350.9 353.4 353.4 354.2 357.5 361.6 363.5 365.3 371.9 374.4 377.7 379.4 382.3 389.7 397.3 401.9 406.9 412.4 416.3 420 426.4 433.9 438.4 441.8 448.1 454.7 460.5 461.7 459.8 455.6 446.4 429 403.4 385.8 378 363.5 352.6 344.3 335.2 329.6 326.3 308.8 297.6 289.4 275.2 275.1 276.3 274.3 273.4 262.2 261.9 267.3 273.6 283 293.7 308.5 320.8 333.4 346 357.7 372.8 382.4 397.1 411 424.1 441.8 454.9 467.9 483 507.2 518 522 524.5 527 532.9 541.9 545 546 543.5 538.4 530.7 516.7 489.1 466.9 447.8 426.1 407.7 398.9 385.6 371.6 357.7 343.7 329.2 316.1 303.4 296.4 293.5 293.7 297.4 297.6 297 295.8 301.4 304.2
334.9 334.7 334.4 332.9 329.5 325.3 320.4 316 311.5 308.8 303.1 293.3 290.7 287.3 287.5 282 289.4 297.4 304.6 308.6 309.6 309.5 311.4 315 317.4 317.1 321.3 328.2 335.2 341.4 349.6 351.6 361 369.8 379.2 386.3 391.4 399.3 408.6 415.2 423.3 429.4 433 435.2 437.9 440.4 443.5 443 441.3 439.4 437.3 434.9 434.4 437.8 441.7 442.5 442.8 442.5 440.5 438.3 436.7 434.1 429.4 424.3 421.2 417.7 413.2 406.7 400.2 394.7 390.2 384.6 376.5 369.8 362.2 356 348.7 344.9 344.6 340.7 325.1 319.1 313.5 311.6 304.5 299.6 294.4 291.8 290 290.6 289.6 303.1 312.9 321.2 332.9 342.9 347.9 351.3 351.6 352 352.7 355.8 357.7 359.4 363.6 366.6 366.9 370.3 380.5 387.4 396 401.3 408.1 412.8 416.4 420.3 427.7 433.5 437.6 443 450.7 459 463.1 463.2 461.7 458.8 450.3 431.9 406 390.1 376.1 369.4 357 349 340.5 332.4 325 308.1 297.9 290.2 274.9 274.9 275 273.7 272.4 260.6 261.2 263.9 271.2 280.7 291.7 304.8 315.5 328.9 343 355.3 370.7 381 394.3 406 421.5 440.4 452.3 463.6 478.3 502.1 514.1 518 519.9 523.3 533.7 542.8 545.5 547.5 547.1 544 537.9 524.2 489.6 473.2 455.7 437.5 417.9 402.3 393.1 379 363.9 349.9 334.1 321.1 308 297.8 293.9 291.3 295.4 295.4 295.7 294.4 292.3 298.7
340.5 340.8 340.5 339 336.6 331.5 325.8 319.9 315 310.5 304.6 293.7 292.1 287.6 280.2 282.9 290.9 297.5 303.2 306.2 305.7 305.8 308.5 310.2 311.5 313.2 319.8 326.5 332.5 339.3 344.6 346.9 357.7 367.1 372.6 378.4 388.5 400 408.1 415.6 423.3 429.1 431.4 433 433.7 439.8 439.7 438.3 436.8 435.4 433.8 432.5 433.6 434.8 438.6 440.2 442.6 441.9 440.5 438.5 436.6 433.4 428.3 423.3 419.1 415.5 412.2 408.1 402.1 395.3 389.9 383.8 377.3 371.2 363.2 355 348 345.1 343.8 336.7 325.6 320.9 315.1 311.3 305.3 299.6 294.9 291.1 289.1 290 287.5 300.6 311.4 321.6 334.3 341.1 343.7 347.6 349.1 347.2 348 350.1 349.9 355.7 357.6 358.8 356.5 369.7 378.9 387 395.8 401.9 408.2 412.7 416.4 421.2 428.9 433.4 437.2 445.3 454.5 461.9 465.6 464.1 463.8 461.4 454.4 435.2 412.4 396.1 381 370.3 364.5 353.3 345.3 336.3 323.4 309.9 298.5 289.7 275.8 275.1 275 273.8 271.9 259.2 261.2 262.7 267.6 278 289.8 301.5 312.3 323.1 341 353.7 368.4 379.5 391.7 404.4 419.9 438.2 449.1 459.5 472.7 493.7 508.4 514.4 516.8 523.2 533 542.2 545.5 547.7 549 547.2 544 531.7 497.2 475.3 459.2 443.4 426.9 409.8 396.9 386.1 370.7 356.3 340.7 327 313.9 302.4 294.9 291.6 291.4 293.8 294.3 293.7 293.5 293.2
345.3 345.8 345.8 344.5 342.3 336.8 328.9 322.8 316.3 310.7 304.9 298.8 297.6 286.2 286.2 287.3 291.2 295.9 301.6 302.8 303 303 306 306.7 307.3 309.6 318 324.6 332.1 339.2 341.4 342.9 350.4 356.7 367.6 379.2 388.5 397.5 405.9 414.6 422.4 427.5 429.8 429.7 434 439.3 436.4 434.5 433.2 431.8 430.7 430.7 431.2 432.3 436.4 439.9 442.5 441.6 439.9 438.9 437.6 435.5 431.5 426.7 421.6 416.1 411.3 405.2 399.5 394.8 388.8 384.3 377.6 371.8 363.1 355.4 348.1 345.4 341 330.8 327.8 321.2 314.6 311 304 299 294.7 290.3 288.5 289.2 285.2 295.5 308.8 320.4 331.4 337.5 339.5 341.7 344.5 345.1 345.4 344.9 344.1 346.2 347.5 353.5 361.4 370 379.7 389.2 394.8 401.1 407 411.6 416.2 422.5 429.4 432.5 439.1 447.1 456.4 462.3 465 465.2 464.9 463.5 457.7 443.6 426 405.6 389.5 375.4 365.5 358.3 351.5 338.7 324.6 310.2 299.1 287.9 276.2 275.1 274.9 273.9 269.7 258.6 262.9 263.2 266.1 273.5 284 295.1 308 321.8 337.6 351.8 367.2 378.6 392.8 404.4 418 433.9 445.3 455.2 466.2 478 499.3 510.6 517.4 523.9 533.4 541.3 544.3 547.3 548.8 548.1 546.6 540.4 509.3 479.3 459.1 443.3 433.4 419.7 403.4 389.2 377.2 362.4 346.8 331.7 318 307.2 297 291.9 288.6 292.7 293.5 294.1 293.5 291.5
351 351 350.9 350 347 340.3 331.7 323.2 315.1 310.4 305.1 298.8 298.3 289.1 285.5 286 289.8 293.5 298.2 299.3 298.6 300.2 303.6 305.1 305.9 309.4 316.1 325.3 335.5 339.3 341.2 340.6 347.4 357.8 369.2 378.6 387.2 394.8 401.9 410.2 421.6 425.3 427.1 426.9 431.8 435.6 433.9 432.2 430.5 429.6 429.3 429.2 429 430.1 434.6 438 440.1 438.3 436.3 434.4 433.7 433.1 431 426.5 421.6 415.6 410.7 405.4 400.9 396.1 391.1 384.9 377.4 371.3 363.4 355.5 347.9 346.5 336.5 331.7 329.4 325.4 314.3 308.1 303.6 298 293.7 289.6 288.3 288.9 282.1 291.8 307.2 316.2 325.6 330.4 333.1 335.7 338.6 341.7 342.3 342 339.4 340.6 341.7 352 361 369.9 380.5 389.3 394.1 400.5 406.2 410.7 415.7 422.3 428 432.3 440.7 450.2 456.9 461.7 464.5 465.7 465.7 463.5 458.6 450.3 436.3 418.9 400.8 387.4 375.6 364.1 355.6 342.7 326 308.7 296.2 285.4 277 275.2 274.9 273.4 268.4 257.7 263 263.4 264 274 285.1 294.8 305.4 319.6 336.3 350.6 369.3 380.8 391.7 402.3 415 429.5 442.1 452 464.6 482.6 502.9 511.5 517.8 523 533.5 539.9 542.8 544.7 546.4 548.5 548.1 544.7 515.4 480.3 457.6 443.2 437.2 427 412.9 396.1 384.4 370.2 353.6 338 324.9 312.5 300.4 290.4 287.5 289.8 294.2 293.5 293.3 289.7
357 357.1 357.2 355.2 350.6 343.9 335.5 324.4 313 310.2 305.7 299 299.5 295.6 285.4 275.3 287.5 290.7 294.8 295.4 295.7 297.7 301.2 303.9 304.7 307.4 316.6 326.1 334.6 339.3 339.9 337.6 347.1 358.5 368.3 375.9 383 390.1 396.9 406.8 420.2 423 424 423.9 428.7 431.6 431 429.8 428.3 428.1 427.9 427.5 427.1 428.2 432.2 435.5 436.8 434.7 432.2 429.8 429.3 428.8 428.1 426.4 422.1 416.3 410.8 405 399.9 395.2 390.7 385.6 378.8 372.3 364.8 356.4 348 343.2 337.9 333.8 330.9 328.1 324.5 313.7 303.3 298.2 293.1 290.1 288 288.4 284.5 291.2 300.3 309.8 317 323.8 325.9 330.1 332.2 334.2 335.2 336.4 335.7 335.3 340.3 350.3 360.4 370.2 379.7 387.4 393.4 400 405.6 409.9 415.1 421.4 425.9 434.1 443.9 453 457.4 460.9 462.9 464.3 466.4 463.6 458.2 453 443.6 429.7 416.1 403.9 389.3 375.1 361.1 342.4 328.4 306.5 293.2 283.6 277 275.2 274.9 273.5 265.8 257.3 262.6 263.2 263.6 273.7 283 295.4 306.2 318 334.3 346.5 367 379.6 389.9 401.2 415 429.1 439.3 450.6 463.1 482.1 502.6 511.8 516.6 522.8 534.3 537.8 539.5 541.4 543.3 546.2 547.9 544.8 514.7 480.6 454.8 442.2 437.7 430.9 419.2 404.9 391.3 377.2 361.1 345.2 331.8 317.3 305.1 292.7 286.2 285.2 288.3 289.5 289.8 288.2
362.9 363.2 361.2 358.4 353.3 346.8 338.3 329.1 319.3 310.6 305.7 299.7 300 300.1 286.7 280.4 282.8 290.4 291.6 292.4 293.8 296.1 299.4 300.8 302.2 308.4 317.2 324.7 332.5 338.6 335.9 334.3 343 353.9 361.7 369.4 376.9 383.9 391.1 403.1 416.3 418.4 419.5 420 425.7 429.1 427.9 426.8 426.9 426.7 426.1 425.6 425.3 425.4 428.3 431.4 432.6 431.4 428.7 425.9 425.3 424.7 424.1 422.5 421 418.1 412.4 405.6 399.4 394.4 390.4 386.4 381.1 373.6 366.7 359.9 352 346 340.3 335.3 331.8 330.4 325.5 326 319 307.4 295 290.9 288 287.4 281.3 288.5 295.5 301.5 306.9 315.3 319.6 322.2 325.5 327.6 328.3 331.4 330.5 328.3 338.5 348.1 359 371.4 380.4 386.9 393.5 400.1 404.8 409.2 413.8 418.7 425.3 435 445.6 452.4 456.4 459.1 460.8 464.1 464.1 459.4 456.1 452.4 447.3 439.8 428.7 416.4 400.5 383.8 366.2 345.7 327.3 310.2 291.8 281.8 277.8 275.2 274.9 273.5 262.5 257.4 262.5 263 263.4 271.8 284.8 295.4 307 321.3 336.8 353.3 371.1 379.9 390.5 402 415.6 428.9 438 449.3 462.4 480.6 501.3 508.9 514.5 523.1 532.9 535.2 537 538.6 539.7 541.4 544.4 543.2 520.4 484.1 457.2 440.4 435.2 431.8 422.6 409.1 395.1 381.5 366.3 351 338.1 323 309.2 294.7 285.6 281.3 284.2 285 284.8 285.4
371.1 368.9 364.9 359.6 354.6 348.3 340.3 333.3 323.4 314 306.1 300 300 300.6 295.2 282.8 278.5 285.2 287.9 290.2 292.8 294.7 296.2 297.3 301.6 306.5 313 322 328.5 334.6 331.1 332.5 337.9 345.7 355.1 361.7 369.2 376 385 395.8 407.1 412 414.9 415.7 419.6 425.8 424.9 424.8 425.3 425 424.4 423.7 423.4 422.7 424.5 427 428.2 427.3 425.6 422.9 421.2 420.1 418.8 417.9 417.3 416.4 414.2 408.9 401.1 396 392.5 387.8 383.6 376.1 370.2 364.5 359.2 353 345.9 339.1 333.7 330.6 326.1 326 325.6 316.2 298.3 291.7 290.4 287.1 278.7 288.5 289.3 297.9 302.6 307.5 311.1 313.8 317.5 320.3 321.4 325.3 324.8 326.4 337.9 347.1 358.7 370.9 380.6 386.6 392.4 398.7 403.8 409.3 413.8 417.5 425 434.1 443.8 450.7 454.3 457.4 459.1 461.6 459.6 454.6 452.4 449.7 446.3 441.3 434 418.5 396.5 377.7 364.5 343.1 324.3 307.2 289.5 280.8 277.1 275.6 274.7 272.9 258.4 256.4 262.9 263 263.5 274.9 284.4 296.9 306.4 320.2 336.1 354.2 370.7 379.8 390.1 402.4 415.6 428.9 437.5 447.9 461.7 480.6 499.9 508.2 513.9 523.3 530 532.1 533.4 534.4 535.8 537.1 539.1 539.7 531.2 496.7 467.7 448.5 436.9 432.4 429.3 417.2 400.1 386 374.1 356.9 342.8 326.4 313.5 300.1 287.5 279.9 281.5 281.9 282.4 283.5
374.2 371.1 366.8 360.9 354.9 349.2 341.5 334.3 325 315.1 306.1 300.4 300.7 301 298.7 284.2 272.5 281.5 285.1 287.8 289.3 292.4 293.4 295.6 301.3 305.5 312.9 316.8 323.5 328.8 328.2 332.1 337.4 344.1 350.9 357.9 363.9 369.4 378.7 389 400.1 406 411.1 412.2 415.5 422 422.7 423.1 425.2 424.9 423.7 422.4 420.6 419.4 420.8 422.8 423 422.1 420.8 419.5 417.6 416 415.3 415.2 414 413.2 412.2 411 406.8 401.8 396 390.2 386.2 379.9 373.8 368.3 363.5 357.5 351.3 345.8 338.3 332.9 326.3 326.1 325.5 316.8 298.6 291.8 291.2 286.7 277.7 287.7 286.7 289.4 296.8 301.2 305.5 307.7 310 309.6 311.1 309.9 321.8 331.1 341.2 350.5 360.5 369.8 380.3 385.8 391.7 397.5 403 409.5 412.6 415.9 422.9 430.6 441.1 448.3 453.1 456.2 459.2 456.7 452.5 450.1 448 446.1 442.2 437.4 428.2 412 387.1 374.1 359.1 341.1 322.3 304.8 289.9 280.7 278.3 277.2 274.4 272.3 256.6 255.5 262.8 262.8 263.2 273.4 284.6 293.7 304.7 319.2 337.6 354.2 370.8 380.3 390.6 402.3 414.6 427.2 437 447.5 461.7 480.8 500.3 507.7 514.7 523.5 526.4 527.6 528.2 529.2 530.3 531.5 533.3 535.3 534.6 516.5 488.5 468.1 455.9 445.4 441.5 426 406.5 389.8 378.7 363.4 347.9 330.3 315.2 303.6 290.3 281.8 279.6 280.3 280.2 281.6
369.3 367.5 365.6 360.8 353.9 349.5 342.4 333.9 325.4 315.6 307.4 300.7 300.8 301.4 301.1 291.7 279.2 278.6 282.9 282.9 287.7 290 290.9 294.4 300 303.4 311.5 315.9 316 319 324.6 329.3 334.5 341.5 348.6 354.2 359 363.6 370.4 378.9 392 401.2 407.3 408.7 412.8 420.3 420.6 424.5 425.6 424.9 422.8 420.5 417.5 415.8 416 417.1 417.4 416.5 415.2 412.7 411.9 412.3 411.6 411.5 410 408.5 408.3 407.8 406.8 404.9 401.5 396.4 390.2 384.3 376.9 372.2 366.9 361.9 358.1 356.4 345.6 337.9 330.2 326.3 325.6 322.1 304.8 292.5 291.7 286.9 282.5 287.4 287.1 286.6 291.5 295.9 299 300.8 301.1 304.2 314.5 324.8 331.4 338.6 346.5 352.1 360 369.4 378.4 384.8 390.6 395.2 401.9 407.8 409.9 413.9 421.5 430.2 440.2 447.3 451.1 453.4 456.1 451.1 448.2 445.7 443.2 440.3 435.3 428.8 418 395.4 377.3 371.4 356.6 337 317 303.8 290.1 280.6 276.1 275.3 274.5 272.2 258.2 254.6 261.2 262.5 263.2 273.6 276.2 292.2 303.5 322.3 338.1 355.9 370.9 380.3 389.7 402.6 414.7 426.7 436.1 446.9 462 483.2 500.6 506.8 515.2 521.6 522 522 522.3 523.2 524.4 525.7 527 531.7 532.6 531.5 518.2 500.3 488.4 468.8 448.1 432.8 414.7 392.4 378.8 365.8 349.5 332.1 318 305.8 293.5 282.9 278.6 279.1 278.7 279.8
362.5 359.4 359.3 357.9 354.2 351.1 344.2 335 326.5 317.3 307.3 301.6 301.7 301.8 301.5 295.9 280.4 271.5 275.7 279.6 285.2 288 289.4 294 298.4 305.7 307.7 311.4 308.8 312.5 322.5 326.2 330.1 337.2 344.5 350.9 354.7 359.3 366.3 374 383.2 397.3 403.8 405.4 413.7 416.2 421.1 422.7 425.4 424.2 421.4 418.4 415.1 411.1 410 411.7 412.4 411.4 407.7 405.4 404.1 407.2 406.4 406.4 405.2 403.7 403.2 403.7 403.6 402.2 400.6 398.1 394.1 387.7 381.8 375.2 371.5 365.5 360.9 356.3 350.4 345.9 338.3 327.9 326.3 325.7 318.5 298.4 292 291.1 285.1 286 286.4 287.1 288.4 290.4 294.5 296.1 303.8 313.2 321.5 327.2 338.9 344.4 347.9 352 359.7 369.4 376.6 382.6 387.5 391.6 397.4 402.9 406.6 411.3 419.8 429.8 439.8 446.3 450.1 451 450.8 447 443.6 440.5 437.9 434.5 430 421.4 407.3 387.3 370.6 364 352.1 332.7 313.3 299.3 288.9 280.2 271.7 271.9 270.8 270.6 261.2 253.7 261.3 262.1 262.9 272.6 275.3 290.1 304.1 323.2 338.6 355.9 368.6 379.4 388.9 402 414.8 425.9 435.7 448.3 463.8 486.6 500.5 507.2 516.5 518.6 516 514 514.3 515.8 517.7 519.7 522.1 526.2 529.7 531.8 530.8 526.9 513.6 491.5 461 436.8 421.4 400.8 380.6 365.8 351.2 333.7 321.1 306.5 293.5 285.1 278.5 277.5 277.2 278.5
355.9 353.8 353.9 353.6 352.5 351.7 345.3 335.4 326 317.5 307.8 301.1 301.5 301.4 301.4 299.1 287.1 275.6 275.3 278.8 280.9 287.1 291 293.6 295.9 299.9 307.2 307.6 306.4 312.8 319.8 322.8 328.4 338.1 343 348.4 352 355.7 362.2 369.7 382.5 395.4 400.9 404.4 411 416.8 419.4 423.4 424.9 423.9 419.7 415.4 412.8 409.5 405.3 406.3 407.2 405.7 402.4 400.2 399.3 402.9 404.6 403 401 399.1 398.8 399.2 399.3 399.5 399 396.9 394.3 391.3 386 380.4 375.4 371.3 365.7 360.6 354.8 350.2 345.2 334.7 326.7 326.1 324 306.9 291.3 291.1 285.2 282 285.9 286.5 287.5 288.5 290.7 294.3 306.5 316.4 322.5 333.9 339.2 339.5 344.2 349.6 358.9 368.6 374.8 379.3 383.9 388.5 392.2 398.7 404.2 409.4 417.4 428.2 438.3 445 448.4 450 446.9 443.4 440.2 437.7 433.7 428.6 422.3 411.8 393.9 379.3 365.7 354.6 342.8 326.3 310 298.9 287.8 280.6 270.4 270 270.2 270.3 261.1 252.5 258.1 262 263.1 271.2 275 291.4 306.9 323.1 340.3 356.5 367.6 379 386.9 400.1 415.1 426.2 436.1 450.5 468.3 491.8 500 509.3 516.2 514.3 509.7 504 503 504.9 508.1 511.9 516 520.2 525.5 529.3 531.6 531.4 528.3 502.7 472.5 443 428.8 411.7 384.1 365.8 352.7 335.2 321 309.2 296.4 285.6 278.6 276.2 276.1 277.6
363.2 356.6 346.8 346.3 344.5 344.9 343 334.8 326.3 317.9 310.4 301.4 301.2 301.3 301.3 301.4 289.3 277.6 273.7 274.7 280.4 285.5 290.5 294.2 294.5 297.4 301.7 306 306.1 310.6 316.4 317.9 328.8 334 337.7 344 348 352.1 360 370.5 384.5 393.3 395.2 402.7 410.1 413.9 421.5 423.3 422.3 420.5 414.7 410.1 408.6 407.8 404.5 400.8 401.6 400.2 396.8 395.7 395.9 399.2 401.6 400.6 398.1 395.8 395.8 395.7 395.4 396.3 398 397.3 396 394.2 391 387 383.1 377.8 372.1 368.1 361.7 355.5 350.1 340.2 329.1 326.5 324.8 308.7 293.3 291.2 290.3 281.8 285.8 286.4 287 288 288.5 292.8 305.4 316.2 324 336.5 336.9 336.8 340.2 347.1 354.9 363.3 371 376.6 380.5 386 389 396.3 402.7 406.9 415.1 426.3 436.7 442.9 447.3 449.5 445.6 441.6 438.9 436.4 432.2 425.3 414.7 398.6 386.8 371.6 360.6 347.9 330.7 320 310.3 301.2 293.4 281 270 268.4 266.1 268.4 255 251.2 255 262.2 263.3 267.5 276.5 292.6 306.2 323.2 339.7 355.3 364.7 373.4 385.3 398.3 414.4 426.4 436.6 452 475 492.4 499.9 512 514.5 509.8 504.5 498.4 495.5 495.4 497.2 500.7 507.1 513.2 519.2 525.9 530.2 532.8 530.8 513.1 483.4 453.5 431.9 414.3 394.7 370.1 356.8 339 319.3 305 298.5 287.1 279.2 275.9 275.3 275.5
361.7 358.9 355.5 340.1 338.8 339.1 338.4 334.5 328.5 321.5 312.9 305.6 301.2 301.1 301.2 301.8 291.1 278.5 270 272.8 278 284.7 288.3 290.2 292.1 294.6 297.6 306.8 303.8 306.9 312.6 313.7 325.8 328.9 333.2 339.2 343.6 351.3 359.8 372.7 385.2 390.3 393 402.1 405.9 416 419.9 419.5 418 414.8 407.2 405.3 405.2 405.3 403.2 398.8 395.4 392.9 392.3 392 393 396.7 398.8 397.7 394.7 392.4 392.9 393 392.2 391.9 389.7 395.3 389.1 394.3 392.3 389.5 385.7 381.8 378 372.6 366.2 359.8 353 345.3 335.5 326.9 325.5 311.7 296.5 292.2 292.7 284.3 274.7 285.3 286.2 287.3 287.8 291.2 302.2 313 318.5 328.3 333.4 335.1 336.1 343.5 350.3 357.6 367.4 376.8 376.7 379.6 384.9 394.2 400.5 405.6 415 424.5 433.8 440.2 445.1 447.2 443.9 440.8 438 435.3 431.5 422.6 410.6 396.9 379.2 362.2 352.2 340.8 327.6 318.6 310.5 297 292.3 288.7 271.6 268.7 267.2 266.3 255.3 251.5 252 262.7 263.1 265.6 275.2 290.1 306.6 321.6 338.4 351 360.3 370.6 383 397.6 414.1 424.7 437.8 454.1 478.8 492.2 502 512.1 511.5 505.6 497.6 491.7 488 487 488.2 491 496.6 506.2 514.4 523.3 528.1 531.7 531.7 522.7 492.3 465.4 439.5 419.1 400.3 378.8 360.6 339.6 321.2 307.3 296.7 287.8 278.5 270.4 271.3 274.4
360.1 356 352.7 346.4 335.9 333.9 332.4 331.5 327.4 322.7 314.3 307.7 303 301.4 301.2 299.7 287.2 277.1 275.9 271.4 273.5 282.2 286.9 287.1 288.5 292 298.3 299.5 301.6 309 312.3 313 322 325.9 330.3 334.5 341.7 351.2 360.4 373.4 384 384.9 389.8 398.6 404.7 414.3 415.8 414.5 411.5 406.2 401.7 402.2 403 403 400.1 396.3 392.7 389.7 389.2 389.9 392 393.4 393.7 392.3 389.9 388.8 390.2 390.5 390 389.5 388.9 387.8 390.4 391 390.2 388.5 387.1 383.8 380.8 376.1 369.5 362.5 356.1 347.7 337.2 327.7 325.8 311.6 301.4 293.3 292.7 292.3 282.8 280.1 285.1 286.2 287.2 288.4 299.7 308.7 313.3 321.5 322.7 329.8 333.1 339 345.6 355.2 367.8 377 375.4 375.4 382.4 390.4 396.6 404.4 413.3 421.9 429.8 437.8 443.4 443.7 441.2 440.3 438.7 436.3 431.9 422.4 410.8 395.6 380.1 361.9 347.3 337.5 327.9 321.5 311.3 305.4 294.5 290.7 277.1 268.6 261.5 260.7 261.3 264.6 255.7 263 263.1 264.8 275.1 287.6 306.5 320.8 337.2 348.5 357.8 368.9 381.5 397.5 413.4 424 438 454.6 479.2 491.4 502.5 509.7 508.2 499.3 490.5 482.6 477.7 477.9 479 481.3 491.3 504.1 513.2 521 526 530 531.9 528.2 503.4 469.3 447.3 424.8 404.9 385 364.5 342 321 308 296.1 285.6 277.9 267.1 267.6 273.2
357 352.8 349 343.3 341.1 336.8 333.7 327.7 324.8 319.4 314 307.5 303.3 299.2 292.9 287.3 281.8 277 275.1 264.9 272.5 280 285.2 285.1 285.5 289.2 295 301.2 299.9 309.8 312 312.2 318.8 325.6 328.5 330.5 338.3 349.3 357 370.2 379.1 378.4 386 394.5 401.8 410.9 410.8 409.1 405.1 400.3 399 399.6 400.8 400.1 397 392.8 389.2 386.6 386.2 388.6 392.1 390.2 389.2 387.7 386.2 385.5 387.3 387.5 386.2 385.6 384.9 384.9 385 387.3 388.2 388.1 386.9 384.8 381.4 377.1 371.1 364.7 356.6 348.5 341.5 332.2 323 307.5 305.6 296 293.1 293.3 288.3 281.2 285 285.8 286.8 287.3 290.2 301.6 307.6 310.7 318.2 323.4 327.1 333.8 341.4 351.8 366.2 377.1 375.4 375.4 381 387.1 394.2 403.1 411.1 420.7 427.3 435 440.2 440.6 441.6 442.1 441.1 436.9 431.8 421.8 411.6 399.8 381.2 360.6 346.3 338 328 320.6 314.5 308.4 294.7 285.7 281.6 268.2 265.7 257.5 255.3 253.6 253.9 263 263 264.2 275.3 290.3 305.6 319 335.1 347.7 356.6 366.5 380.3 397.8 412.2 422.8 437.5 454.8 479.9 490 502.2 507.6 503.9 492.7 485.3 474.4 464.6 467.6 469 479.5 488.8 502.5 512 519.5 524.9 529.8 532.6 531.2 512.9 483.9 456.8 431.1 409.6 390 369 348 325 309 295.3 284.8 277.5 274 265.6 267.6
358.1 353.3 348.5 343.9 340.8 337.8 336.7 333.2 320 316.2 306 304.2 301.9 298.5 291.5 285.7 282.8 279.5 276.3 272.3 271.4 277.3 283.2 284.4 285.5 285.7 288.7 298.6 302 303.8 304.1 305.4 314.6 325.5 327.8 328.2 336 345 351.8 365.6 373.6 375.4 382.8 391.7 399.9 407.3 405.2 403.1 400.5 398.2 396.1 397.4 398.4 396.6 393.3 389.2 386.9 384.8 382 384.9 386.1 385.3 384.5 382.4 381.3 382.4 384.2 384.3 382.6 380.5 379.2 378.7 381.9 384.3 386.5 386.9 387 384.9 383.2 379 375 370.1 363.6 354.3 344.5 333.9 324 308.3 305.7 300.8 301.1 303.9 298.5 281.6 271.7 285 285.6 286.5 287 290.7 299.5 303.1 308.3 318.6 321.3 328.3 337.2 344 357.9 375.9 375.4 375.2 381.3 386.2 393.8 401.7 410 419.3 426 432.8 437.8 439.1 442.4 442 439.9 436.2 431.7 423.7 409.7 399.6 382.1 363.1 348.6 340.3 333.1 325.4 316.1 307.9 292.4 285.6 280.4 269.3 268.4 255.4 255.3 254 250.1 253.3 262.5 263.6 274.6 288.9 304.1 316.2 333.4 345.9 355.2 365.1 379.7 395.8 409.3 420.4 435.6 453.4 479.7 488.1 499.6 504.6 500 487.6 477.7 462.2 447.4 450.1 468.5 478.9 487 501.4 512.1 519.3 524.1 529.3 532.7 531.6 520.5 493.3 460.4 439.2 415.9 396 374.4 353 331.1 310.3 298 284.7 276.6 272.5 261.8 266.1
361.2 355.3 349 345.4 344.8 340.6 336.4 334.7 327.2 319.6 313.2 309.4 302.9 297.5 295.4 295.2 292.7 287.8 279.4 276.5 265.3 270.9 281.5 285.2 280.3 283.3 288.7 293.9 302.1 300.8 301.9 308.3 314 321.7 325.2 326.4 330.3 338.2 346.7 361.4 371.4 372.9 382.1 388.8 395.6 402.7 400.3 398.3 396.8 394.4 393.6 395.2 395.8 393.4 390.3 386.3 384.3 382.8 379 379.8 381 380.7 379.7 377.2 377.1 379 381 380.7 379.1 375.2 371.9 372.7 377.4 380.6 383.4 384.5 384.4 384.1 383.2 382.1 379.7 376.2 370 360.7 351 335.7 329.8 316.5 305.6 304.1 304.4 304.1 303.4 291.5 280.2 279.3 284.5 285.5 286.2 286.8 289.4 293.9 299.4 308.5 315.7 319.3 322.4 337.8 356.5 367 375.6 375.4 380.6 385.6 392.7 400.2 408.3 416 422.8 431.3 435.4 437.4 440.7 440.3 438.7 435.3 431.7 424.7 412.7 399.8 383.2 361.7 351.6 345.1 340.3 328 316.3 309.1 294.8 283.9 278 269.1 265.6 253.9 255.5 254.5 252.7 250.4 256 262.9 273.5 284.8 299.9 314.3 333.1 344.2 352.7 362.4 377.8 394.5 407.5 417.8 432.7 453.2 477.6 486.3 497.2 499.8 490 480.9 465.5 445.3 434.7 448 465 476.1 483.7 499.8 510.7 518.9 523.1 528.6 531.2 531.1 526.5 504.1 474.8 447.1 419.9 404.7 380.1 358.4 338.5 312.5 299.3 286.3 275.3 268.3 261.2 263.7
372.4 366.2 361.6 352.8 350.2 347.1 343.8 340.2 332.9 323.7 315.3 309 303.8 296.9 295.3 295.6 295.4 296.6 289.8 277.3 268.7 269.3 272.5 276.4 278.2 283.8 286.5 290.3 296.3 298.8 303.3 306.1 317.4 320.1 319.7 319.2 326.8 336.6 344.5 359.3 368.3 368.7 377.8 383.4 389.5 395.8 396.2 395.2 393 391.6 391.2 392.3 393.5 391.8 387.9 383.3 381.6 379.2 375.8 376.1 377.4 377.2 376.1 375.2 374.7 376.5 377.4 376.3 373.4 369.6 366.1 367.9 372.5 377.4 380.2 381.2 381.4 381.3 381.3 381.2 380.2 377.9 373.3 362.8 347.4 347.8 338.5 325.9 313.7 305.4 304.6 304.1 303.7 301.2 284.3 279.1 284 284.4 284.9 285.3 285.5 286.6 290.2 301 309.5 311.7 324.3 337.9 356.2 364.5 370.1 374.6 380.2 385 391.4 398.8 406.6 413.3 418.7 429.4 432.6 435.6 438.9 438.9 440.2 437.8 430.9 424.4 414.8 399.4 385.7 367.9 355.9 347.8 339.1 327.5 315.6 303.5 290.4 280.9 275.6 267.2 254.5 252.9 253.8 254.2 252.9 249 253.1 259.2 271 280.5 296.1 316.1 334.1 341.8 351 360.5 376.2 393.6 405.5 416.8 432.8 456.3 476.9 484.5 494.1 489.7 481.3 467.8 445.3 443.1 425.9 438.3 457.7 471.1 480 497.2 508 516.9 523.3 527.7 529.7 530.7 528.5 513.9 482.3 449.4 422 407.7 385 362.4 342.9 317.1 300.6 288.6 274.1 266 260.8 267.2
390.2 384.3 378.4 368.2 362.8 358.6 353.9 349 340.2 327.6 319.3 312 304.3 298.7 295 295.3 295.3 295.1 295.3 279.5 270.8 268.3 270.1 273.4 276.8 280.1 283.9 287.8 297.3 302.6 304.5 304.6 311 314.1 314 317 326.8 332.6 341 356.2 364.3 365.9 371.2 378 383.4 390.7 393.3 393 389.8 388.3 388.3 390.1 391.4 390.9 387 383.3 380 377.1 374.2 372 373.6 373.8 373 372.1 370.3 370.8 370.9 370.2 367.7 363.7 362.7 364.2 368.2 373.9 376.9 379 377.4 377.4 379.1 379.2 377.4 377.4 371.6 373.8 367.1 357.8 348.5 338 328 313.7 305.3 304.4 303.8 303.4 294.9 279.2 270.7 284.5 284.2 284.5 284.9 284.4 284.4 289.6 297 303.9 317.9 332.9 349.2 361.4 367.9 375.9 378.7 382.9 388.8 396.2 403.7 410.9 416.3 428.2 430.9 433.9 437.3 438.3 440.2 439 432.3 425.4 416.9 403 387.4 372.6 362.3 349 338.8 328.5 319.1 307 295 281.7 273.2 265.5 252.4 252.3 253.1 253.7 253 248.1 251.2 255.6 266.3 277.5 294.5 313.1 332 339.8 348.3 357.9 374.7 393.1 403.7 417 434.8 458.7 477.2 480.6 482.1 480.3 474.6 446.2 439.6 436.2 417.1 428 445.9 463.5 475.7 493 505.4 515.2 521.6 526.3 528.4 530 528.6 520.8 490 459 426.4 407.4 390.9 365.9 344.9 319.6 302.1 289.4 273.9 263.9 263.4 271.6
403.3 399.5 395.2 386.8 373.9 367.2 360.6 355.8 344.8 332 324 316.8 307.2 299.8 294.4 294.8 294.8 294.5 294.4 283.5 273 263.3 268 269.6 273.4 276.8 281.5 286.1 290.6 300.3 304.1 304.4 305.8 309.5 311.6 312.1 322.2 331.2 343.6 354.2 359.7 358.5 366.1 373.1 378.8 386.4 389.8 389.7 386.2 383.9 385.1 388.6 391.3 390.7 388.3 384.5 380 376.7 373.5 369.3 371.4 370.9 370.1 368.2 365.7 364.8 364.9 363.1 362.2 360.6 360 361.2 364.9 370.3 373 373.7 374.6 377.1 379.3 377.4 377.4 379 380.7 378.7 374.3 368.3 359.2 347.8 336.9 324.3 311.7 305.4 304.3 303.7 291.9 279.3 278.2 269.2 283.2 283.9 284.4 284.2 283.4 284.7 289.1 296.7 309.5 325.7 341.2 357.3 364.7 372.6 375.1 380.2 385.6 393 400.2 407.5 414.9 423.1 429.6 432.8 435.8 437.9 440.7 440.1 434.9 428.5 419.4 403.7 391.8 378.3 366.7 352 343.7 335.2 324.8 313.2 300.3 285.5 273 266.9 252.4 252.3 252.7 255.2 255.4 252.2 247.8 254.9 263.4 276.2 290.5 306.6 326.9 335.8 345.5 357.7 374 393 404.8 417.3 433.3 457.4 475.2 475.6 475 473.4 455.9 434 434.2 426.9 410.6 420.5 433.6 454.9 469.6 487.7 501.7 513.5 519.8 524.5 527.2 528.3 528.2 523.8 496.6 467.2 432.5 407.5 391.2 367.3 346.4 319.6 302.4 289.5 274 264 260.7 271.8
406.1 405.5 404.2 400.7 392.2 374.2 364.1 360.1 350.9 339 329.9 321.2 310.9 301.7 293.4 294.2 294.3 294.4 294.4 285.7 274.6 267.4 268.3 268.3 269 271.2 279.9 284.9 288.3 290.6 295.9 300.9 303.5 303.2 307 309.1 321.7 328.1 341.6 349.6 351.8 356.2 362.9 368.9 373.3 379.5 383.8 384.4 381.2 379.4 385 387.3 389.8 389.9 388.2 385.4 380.8 377.4 374.1 367.9 368.3 366.7 365.5 364.3 362 358.9 358.2 358.5 357.9 356.9 355.5 356.5 360.2 366 369 369.8 371.6 375.2 376.1 377.3 377.6 381.5 383.9 384.6 379.1 373.7 367.2 357.5 347.5 334.3 323.1 314.4 305.4 301.6 292.5 285.8 277.6 275.8 266.1 283.3 283 283.7 283.6 283.9 284.4 287.5 296.4 315.2 331.7 349.2 358.8 365.9 371 376.6 381.6 389.2 396.8 404.1 411.7 420.2 427.1 430.6 435.4 437.6 441.5 443.1 440.1 434.2 425.1 409.5 394.8 380.9 367.7 355.9 348.2 340.9 329.5 317.1 304.3 288.7 272.8 264.3 253.8 252.2 252.7 253.7 255.7 255.3 247.5 250.4 260.1 274 285.1 301.9 320.2 331.8 342 356.5 374.1 391.7 402.7 414.1 428.7 453.4 471.9 471.7 470.6 466.5 431.9 429.8 429.9 420.7 403.2 412 422.4 440.2 462.5 480.8 498 510.6 517.6 522.1 525.3 526.7 527.8 525.2 506.3 474.9 441.9 411.5 394.1 368.8 346.2 321.8 302.8 288 272.8 264.9 257.9 264.7
406.1 405 403.4 401.5 397.5 387.1 373.3 362.9 349.6 342.1 334.1 325.7 314.7 305.5 297 293.6 293.6 293.4 293.2 286.4 274.6 266.5 259.4 267 267.7 274.5 278.4 283.3 286.4 287.8 289.4 292.2 296.3 298.7 304.6 309.2 317.8 323.6 336.7 344 343.9 351.7 358.7 362.6 364.9 371.7 376.6 378 376 374.9 382.2 384.2 387.1 387.3 385.9 383.8 381.4 378.4 375.5 371.6 368.2 359 360.3 359.5 356.5 353.5 353.9 353.8 353.1 352.1 349.9 349.7 353.6 360.7 364.5 366.6 368.9 373 372.8 374 377.5 383.3 387.8 387.5 382.8 377.1 371.2 364.8 354.4 343.3 336 328.1 317.2 306.3 298.4 293.9 280.1 277.1 268.8 263.1 280.7 282.2 283.6 283.3 283.7 284.4 286.6 305.3 323.8 338.8 350.2 359 365.9 372.7 378 385.4 393.9 400.4 408.7 418.5 425.6 430.3 434.2 439.2 443.7 445.8 443.8 439.9 430.8 418.5 402.2 391.4 380.1 366.9 357.9 350.2 339.3 323.9 310.4 293.9 276.8 262.4 257.8 252.5 252.7 254.8 254.8 255.1 246.9 251.2 258.9 271.4 285.5 299 317.4 328 339.2 355.3 371.8 389 400.1 409.3 422.5 439.5 463.6 467.1 465 447.6 423.9 425.8 426.3 404.3 396.6 404.9 413.9 428.5 452 473.2 494.3 507.1 514.8 519 522.5 524.7 525.6 525.2 513.1 482 447.5 415.6 395.8 369.4 345.9 322.9 301.5 289.8 273.1 264.2 258.2 257.6
405.1 403.7 401.6 399.8 396.7 390.3 380.5 368.1 349 341.3 337.3 329.5 317.3 308 300.6 291.9 292.9 293 293.3 287.9 275.8 266.2 265.7 266.4 266.4 273.7 276.1 279.7 282.2 284.9 289 289.4 291.2 295.1 299.6 309.7 315.1 321.9 333.9 339.7 338.1 347.6 354.1 356.7 359.2 365.6 369.9 371.2 370.2 372.1 379.1 381.7 383.7 383 382.1 381 378.2 376.1 374.9 372.1 367 361 351.5 351.6 349.4 349.2 349.3 348.9 348.3 347 345.8 345.5 348.8 356.6 360.2 363.3 366.5 369.4 370 372.3 376.8 386.1 391.7 391.4 387.7 381.2 375.2 369.7 364.4 356.2 349.7 342.1 326.2 312.4 303.4 293.9 287.9 277.9 272 267.7 264 272.1 282.1 283.3 283.6 284.2 285.3 289.1 311.1 326.8 339.9 350.6 359.7 367.9 373.8 383.8 389.2 397.7 408.2 417.8 424.9 430.9 434.9 441.4 446.6 450 451.9 451.1 443 428.1 415.3 404.8 395.2 384.7 373.4 362.4 351.2 335.2 317.3 298.1 280.6 264.7 257.7 252.3 252.1 255.4 255.4 255 245.9 254.1 258 270.1 282.2 297.1 314.2 323.7 335.4 353 369.4 386 396.3 403.5 414.1 426.4 445.8 462.1 456.4 427 420.4 421.8 416.9 394.8 392.4 398.4 407.2 420.8 441.6 465.6 488.3 502.9 511.3 516.1 519.7 522 523.8 524.5 517.9 488.5 452.6 422.5 397.1 371.4 345.7 323.3 301.8 288.1 276 263.4 254.4 257.7
403.9 402.3 400.2 398.1 394.6 388.7 381.3 370.3 357.6 348.8 336.7 328.2 316.9 312.9 306.1 294.7 292.4 292.5 294.2 291.6 277.9 267 265.5 263.3 266.4 269.2 274.8 275.7 280.1 282.9 284.7 289 289.2 293.2 298.9 306.3 307.4 313.2 328.1 322.9 338.9 342.2 348.1 350.4 354.9 360 365 366.4 366 369.1 375.8 378 379.4 378.4 378.3 378.1 375.6 374.9 374.1 371.7 366.5 360.7 352.8 345.3 345.4 344 344.5 344 343.3 341.7 341.1 342.1 346.4 352.9 356.6 359.8 363.1 366.1 367.2 370.2 378.3 388.3 393.6 393.9 391 387.2 382.7 377.3 371.7 365.8 360.1 353.8 342.9 328.5 311.8 301.6 290.1 282.4 276.2 273.9 270.3 266.1 281.2 283.9 284.1 284.7 285.6 286.7 295.3 315.5 330.2 341.4 349.6 356.7 364.8 377.8 386.4 398.2 409 418.6 425.6 430.5 436.8 447.4 455.5 460.8 466.9 468.2 457.6 444.1 429.4 421.3 411.4 399.8 388.8 375.9 362.4 347.6 327.4 304.6 285.2 272.3 258.2 252.9 251.9 256.1 257.1 256.2 245.3 253.7 258.1 267.6 278.3 294.3 309.1 320.1 332.1 349.6 366.3 379.9 388.5 394.5 402.9 414.1 427.2 451.6 437.5 414.1 415.3 416.6 403 389 388.9 392.9 400.9 416.1 435.7 460.2 482.1 498.7 508.8 513.7 516.9 519.5 521.2 522 518.5 494.7 455 427 397.8 365.8 346.1 324.7 302.5 288.7 277.4 262.8 255.9 255.6
402.8 401 398.9 396.4 392.6 385.1 376 367.1 356.2 343.7 332 326.2 319.4 316.7 310.7 301.5 291.6 292.9 293.4 292.3 280.5 269 265.7 260.2 266.4 267.5 270.1 273.8 275.3 279.8 283 284.1 288.8 291.9 297.7 304.1 303.9 311.9 315.7 330.6 333.6 336.3 342.8 347.8 351.5 355 360.5 361.4 361.9 365.2 372 373.7 375.1 373.8 373.4 374.5 373.6 373.8 372.7 369.3 366.1 361.5 356 350.7 345.8 342.2 338 338.3 336.7 335.3 337.6 340.7 345.7 351.2 354.3 356.8 359 362.6 364.8 369.7 379.2 388.2 393.2 395.5 394.3 392.6 389.8 384.7 380.8 375.6 368.9 361.6 352 340.7 324.3 308.9 297.8 287.9 280.2 280.1 280.3 275.7 274.5 283.6 284.5 285.1 285.5 286.2 285.5 303.2 322.1 331.5 339.4 346.1 363.4 379.4 391 402.7 412.2 419.5 427.5 433.8 445.3 454.4 461.4 471.2 474.7 475.2 471 460 449.5 445 432.9 418 402.4 388.7 373.5 357.1 329.9 306.6 289.9 278.4 263.8 257.3 251.7 251.8 251.2 250.8 251.9 254.2 254.3 264.3 277.2 291.2 302.7 315.3 327.3 343.1 357.9 371.6 380.6 390.3 396.8 403.4 412.1 426.4 416.3 408.1 408.8 399.5 384.9 385.8 386.1 388.4 396.3 411.2 433.6 455 477.5 493.7 505.6 511.6 514.5 516.9 518.5 519.1 517.1 497.7 464.1 431 399.5 369.3 346.8 325.1 303.5 287.1 276.5 262.5 254.2 254.6
401.6 399.6 397.4 394.8 390.9 382.9 372.1 359.8 354.1 335.7 323.8 324 325.9 321.9 316.6 310.4 295 291.9 291.8 291.3 283.3 270.8 265.8 264.4 265.5 268.1 265.4 266.3 273.3 278.2 281.7 282.9 285.7 291.3 292 297.6 311.3 313.4 322.2 326.4 328.7 331.5 337.3 343.5 346.8 351.2 355.6 356.4 358.8 362.2 367.2 369.2 370.4 369.2 369 371.5 371.1 370.4 368.6 366.3 364.4 361.8 355.7 349.3 343 338 331.4 333.4 332.7 333.3 336.4 340.4 345.4 349.4 352.8 355.3 357.7 360.5 364.2 370.4 379.9 386.3 392.2 397.5 399.2 397.9 395.8 391.8 388.5 384.3 378.3 370.1 359 349.6 336.4 322.6 310 295.8 284.6 279.8 280.5 278.1 259.9 282.9 283.3 284.9 285.5 286.2 286.7 291.6 308 318.3 331.4 347.3 365 381.2 396.6 407.9 414.6 422.8 430.8 442 451.3 457.6 466.2 473.4 476.1 475.4 473.8 470.6 468.8 467.8 451.7 432.5 414.7 398.1 382.5 365.7 339.2 313.2 296 278.6 264.4 258.7 254 251.7 251.3 250.5 250.4 249.9 253.1 263.1 274.3 288.3 301.7 314.2 325.6 338.6 353.6 364.3 377.4 384.9 390.6 396.1 401.2 405.1 402.7 397 389.7 387 386.8 386.6 387.4 383.6 392.4 405.8 426.9 447.8 468.4 490.2 503 509.3 512.2 514.3 516 516.2 515.6 497.5 464.7 431.5 398.3 373.9 345.5 326 305.2 288.2 272 261.3 253.3 253.5
399.9 398.1 395.7 392.6 389.7 383.8 375.1 364.1 354.6 335.3 333.7 341 341.8 342 324.4 316.6 306.2 289.8 291.3 291.3 283.6 273.9 266.1 265.6 265.1 265.1 263.6 263.7 267.8 271.7 278.8 281.4 282.2 285.8 289.6 301.1 312.6 313.9 318.6 321.3 324.1 326.9 333 337.8 343.3 349 352 352 354.8 359.1 362.6 364.7 365.7 364.9 365.1 368.3 367.5 366.8 365.8 364 362.3 358.7 353.4 347.4 340.7 335.2 330.9 327.9 330.3 332.6 336.6 340.3 344.1 348.4 351.2 353.6 356.6 359.7 363.7 372.2 379.2 385.3 392.1 400.1 405.7 407 405.4 403.1 399.1 394 387.2 380.2 371.1 358.5 348.4 337.5 323.2 308.6 291.5 279.8 277.5 271.7 262.3 280 283.1 284.6 285.6 285.4 287.5 285.9 300.3 317 334.3 350 369.8 387.2 404.6 411.7 419.9 430.3 440 447.2 453 458.7 469.3 472.9 475.3 474.9 474.4 475.9 477.3 478.6 467.2 443.7 424 405.7 388.9 371.6 348.7 320.6 301.9 284.3 269.5 259.5 252.2 252 250.9 250.3 247.5 245.9 249.7 261.8 273.4 287 300.2 313 322.6 333.1 348.5 359.2 371.5 379.7 385.7 391.2 397.6 394.3 392.3 386.5 387.5 387.4 387.4 387.1 385.2 380.1 385.1 399.3 419.1 439.1 460.7 485.5 501.1 506.9 510.2 512.5 514.3 514.9 513.4 496.1 462.5 428.4 397.9 372.8 346.6 325.4 306.5 286.6 271.6 262.9 252.6 252.3
397.7 395.4 392.2 389.2 386.1 382.2 377.5 369.2 361.2 339.3 351 357.2 354.5 348.1 338.7 328.1 313.6 296.8 291 291 287.4 277.3 266.7 265.2 264.4 263.7 263.7 263.7 267.1 271.4 276.5 279 279.3 281.8 296.2 299 309.7 312 314.5 317.3 317.9 324 329.3 334.7 340.5 346.3 347.7 349 351.6 356.1 358.3 360.1 361.3 361 361.1 364.4 364.2 363.4 362.5 360.5 358.9 355.2 351 345.2 338.6 332.9 328.1 323.1 326.6 331.5 336.9 339.5 342.9 346.2 349.1 351.6 355.2 359.1 366.1 372.2 378.2 383.5 392.1 404.2 411.8 414.2 414.2 412.8 410.3 405.8 400.4 392.9 383.6 372.7 359.9 345.7 333.9 317.9 300.4 285.7 272.1 272 260.7 268.7 281.9 283.2 286.5 287.5 288.8 289.3 295.6 313.6 333.3 352.8 372.3 393.2 407.4 416.9 433.2 439.9 444.2 449.2 454 459.2 468.4 471.6 473.8 474.3 476.2 480.1 484.5 492.7 482.6 456.6 432.6 410.7 392.7 376 352.6 325 306.8 289.2 270.4 261.2 253.1 251.5 249.8 249.3 244.7 244.9 245.8 258.3 271.5 284 296.4 309.3 319.9 329.7 342.8 353.1 365.5 374.8 382.5 385.6 391.5 390.2 385.7 386.4 390.9 392.2 394 396.6 393.1 380.8 382.1 392.4 406.8 427.9 453.8 479.7 497.8 505.2 508 510.7 513.1 514.1 513.3 492.2 459.3 425.5 394.7 371.4 344.3 323.6 307.8 286.7 272.5 261.2 252.2 251.9
394.4 391.6 388.4 385 382.6 378.9 375 371.4 354.9 360 362 359.7 356.1 351.2 343.2 334.1 321.4 308 292.6 289.3 289.7 281.2 269.3 265 264.8 264 263.6 263.3 263.6 266.8 268 278.4 278 283.6 297.1 298.9 301.2 303.9 309.2 312.9 313.2 319.6 325 331.2 336.4 342.4 343.9 345 346.7 352.1 354.5 356.4 356.6 356.4 356.9 360.5 361 360.4 359.1 358.6 355.9 352.7 347.9 340.5 336.1 330.2 326.8 321.7 321.7 331.5 335.8 338 340.5 343.2 346.4 350 353.9 359.8 365.9 371.7 375.8 382.9 393.6 407.8 415.6 418.6 418.7 419.1 418 415.8 412.1 406.9 397.4 383.4 370.4 356.5 340.3 327.6 312.6 296.4 279.8 271.4 261.5 261.7 273.8 285.9 287.6 288.3 289.2 289.4 288 309.2 331.3 353.1 374 394.9 408.4 424.9 438 442.7 445.3 448 451.5 457.4 465 468 470.8 473.9 476.1 481.2 488.2 499.1 494.9 467.9 440.2 414.9 396.3 376.8 356 331.9 310.3 291.1 271.1 262.3 252.9 251.1 249.4 248 244 241.4 240.8 256.2 271.5 280.3 290.2 303.4 316.1 325.5 336.6 348.9 360.6 370.5 378 381.3 382.8 390.5 385 393.3 401.6 402.7 404 404.9 397.2 384.1 376 385.7 400.5 421.8 444.4 471.7 493 503.1 506.1 509.3 512.3 512.2 511.8 491.7 457.7 425.4 394.5 371.2 343.5 320.5 304.2 288.4 270.4 261 250.9 250.8
390.8 388.1 385.2 382.3 380.8 376.7 372.6 365.3 370.7 368.6 365.6 361.8 357.6 352.5 345.8 336 328.9 317.6 302.6 288.6 289.6 282.5 272.9 265.1 264.9 264.7 262 263.7 265.6 266.8 267.6 272.8 277.1 281.5 288.5 297.8 298.9 302.6 306 305.6 311.6 315.7 321.1 325.3 328.2 336.1 340.4 341.3 341.7 346.7 350.7 352.3 352.2 352.2 352.8 355.8 357.3 358.4 358.2 357.3 354.5 350.1 343.5 336.4 332.2 326 321 315.9 325.5 331.8 334.5 336.6 339 341.7 345.2 349 353.6 359.1 365 369 374.2 382.1 395.7 410.1 416.5 421.5 423.8 425.9 425.7 424.5 421.4 416.3 408.6 396.3 381.5 365.4 349.8 332.4 322.4 307.6 293.7 279.2 272 259.7 270.8 283 286.8 288.5 288.8 289.7 290.5 301.7 325.9 348.7 371.5 394.1 408.6 429.4 438.1 442.2 444.3 444.5 446.3 450.5 458.7 462.8 466.4 470.8 474.8 480.1 488.1 498.1 499.7 476.6 446.7 421 390.7 382.1 358.6 336.1 312.8 293.8 272.2 264.1 252.9 250.4 249.2 248 246.1 239.9 238.2 253.1 268.2 277 287.8 299.1 310.9 320.3 331.1 345.3 356.3 365.7 373 378.2 379.4 381.4 386.7 396.5 399.7 397.5 398.5 402.8 400.5 389.2 377.6 378.4 391.3 411.5 436.5 462.3 487.8 500.8 504.8 508 511.5 510.6 509.7 494.6 458.5 428.8 394.7 370.8 344.7 320.8 302.6 289.9 272.2 260.9 253.8 249.1
387.2 386 383.6 380.6 375.7 372.7 373.3 377.6 375.7 371.8 368.2 363.4 357.6 350.7 343.8 337.2 330.2 320.3 311.4 294.9 288.9 286.6 277 265.9 264.9 264.4 264.1 257.9 264.3 266.1 266.7 266.1 275 281.3 286.5 291.5 296.8 299.8 303.9 305.2 308.5 312.3 315.8 317.5 327.7 335.7 337.4 337.9 338 341.6 345.4 347.7 348 348.3 349.3 351.2 353.4 355.8 356.4 356.3 353.5 347.7 339.6 332 327.6 321.2 315.2 316.3 325.9 329.7 331.9 334.2 337.7 340.9 344.7 348.5 354 357.9 362.1 367.2 373.2 383 399.1 410.7 416 421.5 428.5 430.9 430.2 430 428.2 421.7 414.1 405 390.5 374.3 358.3 340.6 324.7 314.2 300.6 289 273.9 260.6 261.2 275.2 281.2 280.3 284.3 290.3 290.7 296.2 317.5 342.4 366.6 390.6 405.8 427.6 435.4 439.4 439.9 439.8 441 442.8 446.9 455.7 460.4 466.9 471.7 477.2 486.9 496 498.7 485.3 454.6 427.1 399.9 383.3 361.1 338.5 315.6 296.4 277.7 264.9 254.3 252.8 250.7 249.2 246.9 239.9 238.4 254.1 265.1 273.7 282.6 294.2 306.8 314.7 327.6 340.5 354.5 362.5 368.7 374.6 376.4 379.8 380.2 390.9 392.4 392.1 393.8 398.9 399 393.6 382.3 369.4 385 402.7 429.9 456.5 481.7 497.3 502.7 506.2 509.5 511.3 508.9 494.8 462.4 430 392.9 370.7 343.7 322.5 304 290.2 273.6 259.9 254.5 253.2
385.9 384.4 382.9 380.5 380.1 380.4 382.7 382 379.5 374.9 369.7 364.3 357.5 352 345 338.5 336.4 327.1 316.2 305 290.2 282.8 281.3 269.7 264.7 264.5 264.1 263.8 264.2 265.3 265.8 265.7 274.2 279.1 283.8 289.5 293.9 297.7 300 303.1 306.3 309.3 312 317.1 323.2 329.5 333.8 334.7 335.2 336.7 339.2 342.2 343.9 345.3 347.2 349.7 351.4 353.6 354.4 354.5 351.6 345.6 336.4 328.4 323.6 317.5 310.2 316.4 323.6 326.1 328.4 331.4 336.1 339.8 343.5 348.7 352.4 355.6 359.3 364.6 372.5 383.5 399.8 407.5 415.4 424.1 428.7 430.8 433.2 432.7 430.5 426.7 419.2 409.2 398.1 383 367.6 348.9 327.4 316.3 304.2 293.5 280.5 269.9 258.8 261.7 264.9 271.8 286.6 290 290.6 293.3 311.6 332.5 357.3 384.6 399.3 421.7 429.9 433 433.9 432.9 431.7 433 435.6 441.5 451.4 461.4 467.4 472.8 483.4 492.3 495.4 490.6 461.5 431.6 405.6 377.6 362.4 340.5 317.6 298.4 279.8 266.3 256.6 253.9 251.6 249 246.9 244.7 237.1 245.9 260 268.2 278.9 289.6 302.5 311 323.3 338 350.8 358.7 364.1 369.5 372.6 376.4 376.9 385.4 390 392.2 392.4 392.2 389.9 388.2 383 370.1 378.8 399.4 425.1 452.5 477.5 492.1 499.8 503.6 507 509.1 506.8 493.9 461.1 429 393.4 370 346.4 323.6 303.8 286.1 271.2 259.6 258.2 257.2
387.4 386.8 385.7 384.2 384.1 385.5 386.8 386.1 383.9 380.1 374.8 370 364.7 358.6 350.6 333.7 332.9 329.5 322 312.8 302.4 292.5 282.5 274.2 264.8 264.2 264 263.8 263.9 263.4 266 263.5 270.9 277 281.3 287.2 291.1 294.8 297.5 300.5 303.7 305.1 309.4 313.3 317.4 326 329.2 331.5 331.3 332.6 334.9 338.4 340.9 343.1 345.4 347.9 350.1 352.6 354.5 353.3 349.3 343.6 333.6 324.8 317.1 311.7 303.8 317.8 321.1 323.1 326 329.2 333.5 337.6 341 344.3 348.7 351.7 355.8 362.5 371.3 382.5 396.9 404.1 413.8 424.5 427.2 432.1 434.9 436.5 435.6 430.9 423.3 414.1 400.9 388.1 370.6 353.7 332.4 315.4 304.2 294.5 283.2 272.3 265.8 255.2 255.2 262.6 275.6 289 291.1 291.2 305.3 322.7 348.4 373.2 390.5 411.1 422.1 425.5 426.2 425.1 421.4 419.7 424 432.4 440.5 456.2 462.9 468.6 479.7 489.2 492.6 491.7 470.4 438.2 413 380.2 365.1 342.9 320.9 301.5 282.6 269.6 259.3 254.8 251.4 248.3 245.9 242 238 243.8 254.7 264.3 275 285.1 296.6 307.5 318.6 333.1 345.2 353.7 359.7 365.6 372 380.2 379.6 378.9 386 386.3 384.4 382.2 378.8 377.8 375.3 367.9 373.5 394.7 421.4 447.9 475.1 490.2 496.4 500.8 504.3 507 504.8 494.1 458.7 428.2 395.7 371.5 348.1 323.4 305.6 285.5 271 262.1 258.6 256.2
389.2 387.9 388.2 388.4 388.9 389.4 389 387.9 386.8 384.4 380.8 377.4 373.5 368.6 360.5 352.4 341 332.2 324.3 319.2 305.8 296.3 285.3 278.5 266.1 264.3 264.3 264.4 264.4 261.9 263 262.7 266.4 275.8 280.6 284.4 288.4 292.5 294.9 297.4 299 301.2 303.6 309.6 318.1 322 324.7 326.5 327.7 328.5 330.9 335.7 339.4 341.4 344.6 347 349.5 353.3 357 355.4 348 337.4 326.7 319.8 312.7 303.8 311.4 317.6 319.3 321 324.5 327.2 331 335 337.9 341.4 344.8 347.8 352.9 360.7 369.4 380.1 393.7 401.5 411.5 422.3 427.2 432.6 436.3 443.3 441.4 434.4 426.3 414.2 402.5 390 373.2 354 334.5 319.5 305 294.3 280 273.2 267.5 259.1 254.7 254.8 262.1 278.5 290.5 291.1 297.8 311.8 334.2 354.2 379.2 396 413 416.5 417.5 415.6 409.8 403.7 403.8 420.4 432.5 450.5 458.6 465.7 477.6 486.9 490.5 490.8 478.8 445.8 417.9 392.9 368.5 346.4 323.1 305.1 285.8 272.9 260 261.3 257.2 251.8 246.3 243.8 240.1 242.4 251.7 259.9 271.7 282.7 291.3 305 315.7 328.6 339.9 349.4 357.3 363.7 371.7 385.6 379.7 372.1 378.4 378.5 376 369.2 367 368.5 368.8 364.5 369 391.1 417.2 440.4 468.5 488.1 493.8 497 501.3 504.3 502.8 494.9 461.2 429 396.3 371.1 350.1 324.7 306.3 286 270.9 263.5 259.1 254.4
389.1 389.9 390.2 390.2 391 391.4 390.8 389.8 388.6 387.7 387 383.7 379.2 373.6 367.5 359.6 350.2 338.7 328.9 321.5 310.5 300.4 289.8 279.7 271.1 264.7 264.8 264.3 263.9 263.8 263.3 262.9 262.8 273.4 277 281.1 285.6 291.5 291.9 293.5 294.5 296.2 302.1 307 313.8 317.8 320.1 322.3 324.2 323.7 328 333.8 337.4 340.2 344.2 349.1 353.1 355.9 356.3 355.1 347.4 337.6 328.3 319.4 310.5 300.8 311.2 315.9 317.2 318.9 321.5 324.3 328 331.7 334.6 337.8 341.2 344.8 351 358.5 366.3 377.8 391.6 398.9 409.4 419.5 427.4 432.9 441.1 451.6 447.7 436.9 425.2 413.5 402.7 389.7 376.2 356.5 334.4 321.6 304.3 294.3 283.4 277.3 268.2 266.6 252.7 253.8 254.6 266.4 279.6 285.3 290.5 305.4 320.9 338.6 360.7 381.7 395.3 406.5 406.6 403 394.6 385 390.2 408.5 424.8 444.1 456.2 463 476.1 484.3 488.9 489.6 484.9 453.8 423.2 396.7 373.2 350.4 327.1 307.5 289.2 276.2 264.4 261.8 261.2 251.6 246.8 245.7 242.7 238.8 244.3 256.9 268.4 278.4 285.3 299.6 311.9 323.9 335.9 347.7 356.7 363.3 373.1 387.8 381.5 367.1 369.4 369.4 366 357.8 352 353.2 355.6 358.7 364.7 384 409.7 430.5 458.9 482.9 492 494.4 497.7 501.3 500.7 495.9 464.6 430.9 399.3 374.2 351.9 326.3 305.8 287.8 271.5 265.3 259.8 253.9
389.5 390.3 390.8 391.2 391.5 391.7 391.5 391.1 390.3 389.2 388.4 386.1 382.6 377.4 371.8 363.7 355.2 346.2 334.2 324.7 311.9 304.1 293.8 283.4 275.1 265.3 264.4 263.8 263.3 263.4 263 262.7 262.6 271.8 273.7 277.8 283.5 287.1 289.5 289.6 290.2 292.8 299 305.3 310.4 314.2 316.7 319 320.6 321.9 328.7 332.6 336.3 341.2 348.4 356.1 358.8 358.8 358.4 357 348.3 337.4 328.7 318.3 307.3 298.2 309 312.3 313.8 315.7 318.6 321.5 325.1 328.9 332.6 335.1 338.1 342.2 349.6 356.2 365.2 377.3 389 398 406.8 418.7 427.8 434.6 449.9 455.7 451.2 438.4 424.9 412.9 402.3 389.6 376.9 359.4 335.8 319.7 304.8 296.5 286.9 277.4 268.5 267.4 262.2 252.7 252.7 254.7 267.3 275.3 283.6 295.9 307.2 323.8 341.3 365 376.7 384.6 383.9 379.7 372 368.6 382.2 404 421.9 442.3 454.3 461.7 475.4 482.5 486.2 487 483.8 460.5 427.7 397.8 376.9 353.6 331.2 312.9 295.5 280 269.4 262.3 261.4 253 247.1 245.7 244.6 236.3 241.3 251.2 263.9 273 281.2 294.4 304.5 318 332.3 343.7 355.1 360.5 374 386.5 382.2 367.4 366.7 364.2 355.2 344.8 336.7 336.4 339.5 347.7 358.7 377.1 400.2 420.9 448.1 475 488.8 492.7 494.6 498.4 499.6 496 468.2 435.9 403 376.2 353.5 328.2 307.5 288.3 272.8 268.9 267 257.6
389.4 390 391.1 391.2 391.2 390.9 390.7 391.1 389.5 387.8 385.9 383.8 380.7 377.5 372.4 366.1 358.2 350.5 340.9 329 320.7 309 297.3 287.4 276.9 269.1 265.4 264.3 263.1 262.5 263.1 262.5 262.6 266.5 270.3 275.1 280 281.8 286 286.1 286.8 289.7 293.6 299.8 307.6 311.1 313.8 316.1 317 324.1 327.8 332.4 337.2 344.3 354.5 358.6 360.1 360.5 361.5 360.5 350.1 338.2 329 317.4 307.4 298 305.4 308.1 307.7 313 316 318.6 322.7 325.9 329.6 332.1 335.6 340.9 346.3 352.6 363.2 376.6 386.5 395.3 405.8 419.1 428.2 440.3 455.3 455.7 451.4 439.7 424.7 411.8 401.7 387.4 375.2 357 340.2 320.7 308.7 298.6 286.1 278.7 269.6 267.8 267.7 255.1 251.9 251.4 260.6 270.9 277.7 287.5 297.6 307.1 324.9 343.3 362.1 364.2 362.5 359.1 355 370.9 390.9 407.5 427.9 444.6 452.5 461.4 473.7 479.8 483.3 483.8 480.7 466.8 434.9 404.8 378 356.7 335.7 315.1 298.8 286.2 275.1 267.2 261.9 261 253.3 245.2 243.8 241.1 239.3 246 258.4 269.1 276.7 287.7 297.8 311 324.7 339.9 348.8 357.4 372.4 382.2 380.5 368.8 363.1 355.8 344.1 332.3 320.1 321.3 333.8 342.4 352.2 369 390.1 412.6 437.2 465.1 484 491.3 493.4 494.9 496.9 496.3 475.6 443.8 412.1 382 356.9 332.5 309.5 289.8 274.8 279.6 283.3 272.3
387.8 389.5 391.1 390.9 390.1 389.6 389.1 388.3 387.2 385.5 383.7 381.2 377.9 374.9 371.1 365.5 360.3 353.5 344.6 335.8 326.6 314.8 301.3 291.1 281 272.3 265.4 263.9 262.8 262 260.3 262.1 262.6 262.5 269 272.8 276.5 276.3 280.2 281.5 283.4 286.5 291 296.4 302.3 308 311.8 313.8 319.1 323.7 328.4 332.5 337 346.2 354.5 357.4 359.9 361.6 363.4 365.3 357.5 343.3 328.4 314.9 305.4 292.4 301.9 302.4 305.7 309.9 312.7 316.1 319.1 322.4 325.8 329.5 334.1 340.7 345.9 354.1 362.9 375.2 385.5 395 408 420.7 430.4 449.4 454.5 453.9 449.9 439.3 424.7 411.8 401.4 385.9 374.4 360.6 343.6 327.7 310.2 296.7 286.6 279.5 270 268.1 267.6 261.7 251.8 251 255.9 266.4 272.9 279.9 287.6 297.1 308.5 324.6 337 339.6 344 341.2 357 384 404.4 422.6 434.7 444 451.9 461.8 471.6 476.6 479.5 480.2 477.6 472 443.3 413.2 384.7 361.3 340.8 320.2 301.8 292.3 279 269.5 266.9 261.6 257.6 245.3 242.9 241.8 235.6 243.8 253.8 267 273 283.6 294.6 306.1 320.1 333.9 342.7 352 365.3 374.2 374.2 367.1 357.9 347.8 333.9 320 308.2 314.4 328.4 336.8 346.7 362 380.5 405.4 428 456.9 479.4 488.5 492.1 492.2 493.6 495.8 483.8 453.9 421.6 390.4 361.9 335.8 312.1 290.7 274.1 290 292.9 286.5
387.6 389.3 390.3 389.2 388.2 387.6 386.8 385.8 384.6 383.3 381.5 378.7 375.6 371.7 367.9 364.1 360.3 355.2 348.6 339.8 331.8 319.6 305.9 293.9 283.4 273.9 270.3 263.5 262.6 261.5 259.5 262.4 262.5 262.5 268.3 269.1 272.9 275 275.3 276.6 280.4 284.3 287.9 295.2 302.5 306.9 308.9 314.5 318.2 324.1 327.9 331.3 337.3 347.6 352.9 356.4 359.9 363.9 367.4 369.1 364.4 351.5 333.2 317.7 307.4 296.7 296.4 297 302.9 306.6 309.3 312.6 315.9 320.2 323.6 326.8 332.4 337.2 341.3 352.9 364.2 376.4 385.7 396 409.3 421.9 436.8 451.3 451.9 451.7 447.6 437.3 426 412.1 400.4 387.6 374.9 363.3 343 329.8 315 299.7 288.9 280.4 271.5 268.4 267.2 266.2 251.3 250.5 252.2 260 266.6 270.8 278.3 285.9 296.2 306.9 318.1 320.6 323.6 343.5 367.2 393 414.5 428 437.8 445.5 452.2 461.6 468.7 473.3 475.2 476.4 474.6 471.1 451.8 421.7 393.1 364.7 345.3 325.4 307 297 288.1 274.4 272.1 265.8 257.4 245 242.3 241.4 240.9 241.5 244.7 257.6 267.9 278.4 289.4 299.8 312.4 326.8 336.7 346.4 356.9 364.9 365.7 363.3 354.5 341.8 328.5 318.5 307.5 305.6 319 328.9 339.9 353.8 372.7 398.8 419.5 449.1 473.9 485.8 489.7 491.7 491.5 492 490.1 463.6 430.8 397.6 366.5 341.6 316 294.8 277.8 291.2 293.6 291.7
386.1 388.3 387.9 386.5 386.1 385.6 384.3 383.3 382.1 380.7 379.4 376.8 374.2 370.5 365.2 361.2 357.7 353.8 349.3 341.4 333.2 321.9 310.2 299.5 287.1 280 270.3 263.9 261.9 261.2 260.7 261.7 261.7 261.6 264.1 264.8 265.8 264.5 265.6 272.3 277 281.1 285.5 293.6 302.3 303.3 308.2 311.9 317.5 324.1 327.1 331.4 339.7 347.7 352.3 356.1 359.6 364.9 370.4 373.6 367.3 357 343.7 327 312.8 301.8 286.3 292.9 298.4 302.9 306.2 309.7 313.6 317.3 319.5 325.8 329.5 336 341 351.8 365 376.3 385.8 397.6 410.4 423.8 444.2 449.4 450.9 449.2 445.9 437.7 425.6 412.6 398.6 388.5 375.5 362.8 344.9 332.8 314.3 300.8 292.6 281.4 272.9 269 267.4 266.4 261.7 249.9 249.9 253.3 260.3 265.4 270.5 277.9 285.4 295.8 304.6 312.3 328.6 352.8 379.8 403.9 420.6 429.5 439.1 446.3 453.1 459.6 465.6 469.4 471.7 472.9 470.8 468.8 460.5 433.9 401.7 371.3 349.5 330.4 312.8 298.6 293.7 279.1 273.6 272.8 266.9 251 243.2 241.2 240.4 234.8 242.1 249.6 263.5 271.1 282.8 292.9 305.2 319 330.3 338.6 349.4 358.9 360.5 357.7 349.9 340 331.8 318.9 308.4 299.3 308.2 320.2 332.2 347.5 363.6 390.6 412.9 442.5 467.6 481.9 487.5 490.8 490.3 489.8 488.4 472.1 439.6 406.7 373.8 347.6 323.6 300 279.8 291.7 293.2 292.9
384.5 384.1 383.7 384.5 385 383.9 382.4 380.9 379.8 378.9 378.1 375.7 372.8 369.1 363.7 359.2 355.7 351.2 346.9 342 334.3 322.8 312.7 299.1 292.3 287.9 282 271 272.1 261.8 261.1 260.6 260.8 261 261.2 260.3 258.3 258.3 263.6 269.8 273.2 276.3 281.5 290.5 298.7 302.6 308.1 310.2 316.5 324 327.1 332.8 340.5 346.9 352.1 356.4 361.2 368.6 377.9 379.9 372.5 360.3 347.3 331.5 315.4 305.3 298.6 285.5 295.3 299.6 302.4 306.6 310.4 314.2 318.2 322.7 326.3 329.5 339.2 349.5 364.2 374.6 384.5 397.8 408.8 425 443.5 448.2 450 448.8 446.4 440.1 427.4 414.7 400 387.3 378 364.5 349.6 332.3 314.8 303.8 293.5 282.7 274.5 269 267.8 266.8 265.4 251.5 248.1 251 254.1 260.7 265.7 271.3 277.8 283.2 294.3 311.7 338.4 363 390.7 412.6 421.4 429.1 437.9 445.6 451.6 457.7 461.6 465.9 468.2 469.2 468.3 466.7 462.2 444.2 413.6 378.3 352 338.1 319.8 303 297.8 282.6 278.3 274.4 274.1 261.6 251.3 240.6 240.6 238.4 241.2 243.2 258.7 264.4 272.6 284.6 297.5 310.7 323.3 330.7 340.3 349.7 355.3 353.4 343.3 338.7 327.8 317 305.2 291.5 297.8 310.2 324.4 341.3 357.4 380.6 404.9 434.4 460.8 477.7 484.6 488.6 491 489.1 487 475.5 448.8 415.1 381.2 353.3 328.9 304.9 284.2 292 292.9 293.8
379.8 380.5 381.4 382.2 383 382.2 380.7 378.7 377.2 376.7 376.5 375.4 372.1 368.1 364.2 359.2 354.4 351.1 345.5 339.2 333 323.3 316.3 310.7 300.2 289.1 287.8 277.9 267.9 272.2 267.2 260.3 260.3 260.7 260.8 259.5 256.8 254.9 261 266.8 269.8 273.9 279.9 291.6 295.4 300 298.4 306 318.8 323.2 327.4 334.6 340.3 345.8 351.8 357.4 362.9 371 378.1 378.5 374 363.3 350.7 335.7 317.7 306.8 300.1 289.7 285.6 295.8 298.1 302 307.9 311.1 314.1 318.3 321.2 327.1 337 347.7 362.1 373.6 383.6 396.3 408.9 427.1 443.3 447.5 450.4 451.2 448 442.8 433.3 420.1 405.6 391.6 379.9 366.1 353.7 338.6 322.3 307.4 296.6 286.4 278.2 269.9 268.4 267.5 265.9 260.5 248.5 248.2 250.6 255.9 261.9 266.3 272.1 278 289.7 307.8 338.9 365 393.6 411.6 419.6 427.6 435.4 442.7 448.9 455.2 459.1 462.7 465.3 466 465.8 464.4 461.1 449.1 418.5 386.1 353.2 338.2 321.1 307.5 302.7 292.1 279.4 278.1 276.7 271 254.1 240.2 240.2 239.3 234.4 242.6 250.7 261.7 264.1 274.9 287.7 301.6 314.1 323.4 331.2 338.3 346.4 348.2 340.4 331.5 323.9 315.7 304.1 292.7 292.1 302.1 317.1 333.8 353.9 372.6 399.3 425.7 454.3 472.4 482.3 486.3 489.2 490.7 487.5 480.6 455.5 423 390.7 359.3 334.3 311.2 289.3 291.6 292.7 293.4
377.2 378.4 379.1 379.9 380.9 380.8 379.3 376.9 375.1 374.6 374.4 372.8 371.7 369 365.2 359.2 354.4 350.7 346.6 341.6 334.9 328.9 320.9 310.6 302.5 292.7 287.8 287.4 273.5 263.4 262.6 258 257.4 258.5 260.3 260 258.1 250.3 256.8 260.9 268.1 272.8 277.8 283.9 284 288.9 304.1 314.7 320.9 324.8 329.3 335.2 339.5 344.2 351.4 356.2 360.4 367.9 374.4 375.1 371.6 362.6 351.3 334 320.8 307.8 298.8 292.5 277.3 285.8 294.4 300.3 304.4 308.3 311.3 315 318.9 325.8 335.3 346.7 360.3 371.2 382.9 394.8 408.7 431.2 443.4 449.5 455.1 457.6 453.8 447.7 440 428.1 412.4 398.5 384.2 372.6 359.4 345.5 329.9 316.7 302.5 291.2 282.2 273 269.5 268.4 266.4 264.3 256.5 247.2 248.2 253.1 258.1 261.6 265 270.7 283 299.7 327.6 353.3 381.1 402.5 415 422.5 431.8 438.6 445.7 451.5 456.7 460.2 462.6 463.6 463.4 462.4 459 448 416.2 387.2 358.2 336.4 320.1 308.2 302.1 298.6 288 279.8 277.2 272 259.3 240.7 238.2 240 236.4 241.9 248.2 259.3 259.2 267.3 279.8 291.7 304.5 315.5 321.9 328.3 335 340.2 337.2 329.7 320.9 313.3 302.6 290.2 287.4 297.3 315.5 337 349.1 365.1 393.8 415.8 446.4 467.8 479.5 484.2 487.1 490 489.7 483.8 464.3 434.8 403.1 371.4 341 317.9 297.1 290 292.2 293
375 376.1 376.9 377.8 378.8 379.4 378 375.7 373.8 373.2 371.9 371.6 370.4 367.8 364 359.7 354.6 350 345.7 341.2 334 326.7 322.6 314.6 307.2 297 288.2 287.5 272 272.6 261.6 258.1 248.6 239.6 250.8 254.3 251.4 246.2 255.5 261.7 266.8 270.8 273.7 273.8 280.1 299.2 309.6 317.3 322.8 328.4 332.5 333.9 336.5 341.1 349.4 353.1 356.4 362.1 369.6 370.7 367.7 361.2 352 338.1 324.3 311.3 300.7 294 283.8 280.9 293.2 297.6 301.5 305.5 308.6 311.3 316 324.5 333.1 345.2 357.4 368.3 381.3 394 410.5 433.2 444 452.6 462.9 464.1 461.3 455.3 447 437.4 425.9 408.1 393.7 382.1 368.8 351.9 338.7 322.2 309 295.9 285.8 277.3 272.3 270.1 267.6 264.8 261.3 258.5 246.3 249.2 255.1 256.1 258.8 263.9 277.2 294.9 311.1 338 362.8 387.2 406.6 416.6 425.9 435.1 441.5 448.9 453.3 457.7 460 461 460.8 459.9 456.9 447.3 408.3 384.9 356.1 335.8 319.2 308.1 301.2 296.4 295.4 283.7 278.3 272.9 271.3 247.8 239.8 239.7 240.3 233.5 243.7 257.1 256.9 262.4 272.6 282.8 294.7 305.9 314.8 321.7 327.7 331.7 332.4 326.5 318.9 311.3 301.4 288.8 282.8 294.7 313.6 328.2 340.2 358.6 384.5 407 438.1 462.8 475.7 482.3 485.3 488.3 489.7 486.2 472.2 446 416.9 386.6 349.8 327.5 305.2 286 291 292.3
371.4 373.7 374.8 375.8 376.7 377.7 376.6 374.5 371.9 370.9 370.4 370.2 368.1 366.1 363.1 358.8 353.8 349.2 344 337.5 330.5 326.7 321.4 317.5 309.9 299.8 289.8 284.7 271.8 265.7 259.9 256.6 255.3 248.4 244.2 242.8 243.4 251.4 255.3 257.3 263.6 262.3 266.1 277.1 290.7 301.3 308.5 317.6 324.6 328.5 330.4 330.7 333.1 337.4 346.8 348.7 351.5 356.2 364.9 367 363.6 357.5 350.1 340.8 328.4 315.5 304.4 296.3 289.8 274.6 287.3 294.6 299 302.1 306 309 314.6 321.9 331.2 344.2 355.5 366.1 379 394.4 413.1 433.9 444.6 457.8 465.7 466.6 463.5 459.7 455.4 447.6 437.3 427.1 412.5 394.8 378.5 364 351.1 335 318.8 305.7 294.6 284.8 276.4 271.7 268.9 266.4 263.3 259.4 257.8 245 249 251.5 253.8 255.9 268.2 285.2 303.6 322.7 345.8 372.2 396.6 411.2 421.1 430.5 438.2 444.9 450.3 454.6 457.6 458.8 458.8 457.2 454.4 447 412.5 384.4 356.8 336.1 319.4 308.9 301.5 295.7 293.8 292.1 284.1 276 277.8 255.7 240.7 238.2 240.9 232.6 237.2 253.9 255.9 254.5 266 272.9 288.6 298.3 307.7 314.4 320.6 324.6 326.4 322.6 315.8 309.1 298.9 286.5 279.3 285.9 302 317.3 331.3 348.7 371.9 397.8 428.6 456.1 472.3 480.2 484.4 487.2 489.4 489.1 479.6 457.3 426.2 399.4 368.9 338.5 315.4 290.7 289.9 292.1
367.1 371.1 372.4 373.7 375 375.9 375.1 373.3 370.6 368.8 368.2 368.2 366.1 363.6 361.3 357.9 352.4 345.5 339.9 335.5 329.3 327.3 320.8 316 309.6 301.3 292 280.4 271.2 262.6 258 253.9 250.3 247.1 249.6 246.4 240.6 255.7 255.8 255.2 255 258.2 265.9 278.1 288.5 296.2 303.9 313.7 318.7 323.3 325.6 326.7 328.7 332.6 340.8 344.2 346.8 351.1 359.5 363 360.4 353 346.4 337.7 326.3 315.7 307 299 292.5 281.2 279.2 290.7 294.4 300 304.2 308.1 313.1 320 329.9 343.1 353.2 363.8 377.2 394.1 416.8 434.9 446.1 461.8 467.4 467.4 464.9 462.2 458.3 454.3 448.5 441.2 430.7 414.9 392.7 377.1 362.8 348.4 333.4 317.3 302.1 291.5 283.8 273.7 270.7 268.6 265.2 260.8 257.1 255.2 246.2 247 247.6 251 261.3 276.4 294.1 310.6 332.1 358.6 386.6 406.1 416.9 426.8 435.5 441.8 447.3 451.6 454.9 457.1 457.1 455.3 451.7 444 409.1 385.9 358.5 337.4 322.1 311 303.5 298 296.2 293.7 286.8 286.2 285.1 266.1 250.1 240.5 238.2 242.8 229.6 240.1 255.2 252.9 259.2 266.9 274.8 290.8 300.4 306.1 312.3 318.7 321 318.7 313.3 306 297.2 284.2 274.9 280.4 293.2 309.8 327 341.3 363.3 392.9 420.9 449.8 468.4 477.4 482.7 486.6 488.5 489.4 485.1 471.6 439.4 410.8 387.6 350.9 322.6 295.5 283.3 281.4
362.9 367 369.7 371 372.5 373.5 373.8 372.1 369.9 367.6 366.2 365.9 365.9 364.1 362.4 358.8 354.3 348.5 342.6 336.8 330.4 324.5 318.7 313.5 305.7 299.5 291.9 284 273 264.4 258.6 254.2 249.3 247.7 247.5 245.9 240.6 245.5 253.7 253.8 252.2 253.6 262.5 271.9 281.8 289.2 298 308.5 311.8 315.4 319.4 320.4 323.1 327.3 334.3 340 342.5 346.1 355.2 358.6 357 348.4 338.7 329.5 322.5 314.6 306.9 299 292.9 285.9 269.6 285.4 293.7 298.2 302.4 306.2 311.7 318.8 329 343.2 352.2 363.7 378 396.2 419 434.8 451.3 463.9 468 467.4 465.9 464.4 461.1 457.7 453.9 450.4 445.3 433.2 415.5 394.6 377.9 361 342.6 327.6 309.6 299.5 289.1 277.8 272.3 268.8 265.9 261.6 256.5 254.2 247.1 244.6 244.8 248.7 257 270.5 285.7 301.7 324.7 348.5 378.6 400.7 413.7 424 432.5 439.5 444.4 449 452.4 455.9 457.5 456.2 452.8 447.7 420.1 391.9 363.1 341 323.1 311.2 305.2 304.2 303.2 299.9 291.6 290.4 290.4 277.8 258.1 246.6 242.3 243.3 238.9 229.4 241.8 252.2 253.7 259.9 267.8 278.3 289.3 298.2 306.1 314.1 316.5 314.9 308.6 302.2 293 281 272.4 276.5 286.8 302.7 321.1 335.3 358.1 386.9 413.5 442.4 464.3 474.1 481.2 484.9 487.6 489.5 487.1 481.7 451.9 422.4 397.1 363 330.9 306.5 285.2 280
360.4 362.8 366.6 368.4 370.1 371.2 371.6 370.9 368.7 366.4 365.2 364.1 364.1 363.5 361.8 358.4 354.9 350.5 344.1 338 333.4 328.6 326.6 317.6 311.6 301.2 289 281.5 268.6 263 257.9 252.7 249.6 246.1 245.9 242 240.9 239 243.6 245.2 245.2 251.3 257 265.5 275 282.3 289.7 299.5 304.7 308.5 311.4 314.9 318.3 323 328.6 335.8 338.2 341.3 349.7 354.7 352.2 342.6 331 322.9 318.4 315.4 312.1 302.5 295.1 288.2 270.1 283.2 291.1 295.6 300.2 304.4 310.4 317.4 329.6 343.7 353.4 365.5 380.1 399.1 424.5 437.6 454.9 463.7 467.1 468.1 467.9 466.5 464.6 461.1 456.9 453.8 451.1 447.3 437.3 419.7 399.4 376.3 356.3 339.8 323.8 309.6 297.6 287.8 277.5 273.1 266.8 262 257.5 254.4 247.7 243.9 243.4 245.6 254 264.5 278 297.5 317.9 342.9 373.8 397.4 410.7 421 429.5 437.7 442.2 446.3 450.3 453.8 456.4 455.6 453.2 449.2 437.2 404.7 374.3 349.8 333 319.4 313.2 311.2 307.5 303 298.5 291 290.8 285.6 267.6 255.2 246.9 243.8 243.5 229.3 230.5 245 249.9 255.3 259.9 269.8 280.8 292.3 302.5 309.5 311.8 309.2 304.2 298.7 288.9 277.3 268.2 271.7 282.8 296.8 313.5 334.4 353.7 382.3 407.5 436.2 460.3 472.4 479.7 483.5 486 488.5 488 485.8 466.9 436.2 405.8 379.7 339.5 317.6 297.3 282.4
357.4 360.9 363.9 366.1 367.6 368.8 369.5 369.2 367.4 365.2 364.1 362.9 362.4 361.9 360.9 358.6 355.4 351.2 347.6 344.2 338.1 332.3 327.7 322.6 317.7 313.4 304 295.5 280 266.2 258.2 255.5 252.5 251.3 246.8 241.9 240.6 239.6 238.7 236.6 236.1 244.8 251.5 261.4 267 275.2 282.8 290.6 297.6 301.6 305.1 308.9 313.4 318.7 323.1 331.1 334.3 337 345.6 349 345 336.2 327.3 318.1 314.2 316 316.8 307.1 296 288.7 276.7 276.6 286.4 292.6 297.7 302.9 308.7 316.3 331.1 343.8 354.5 367.7 382 403.2 425.2 441.4 457.2 463 466.2 467.9 469 469.6 467.8 465.2 461.2 456.3 452.6 449.4 446.2 439.1 422.8 397.9 371.3 352.3 336.9 324 309.4 294.9 285.4 277.8 270.7 264 259.7 255.5 246.5 242.9 242.5 242.9 250 261.7 273.7 291.4 313.2 334.1 367.5 392.8 407 418.5 427.8 435.2 440.1 443.6 447.6 451.9 454.4 454.8 452.7 449.3 445 422.5 389.1 365.3 347.9 334 324.9 320.7 310.1 303.8 299.5 291.7 290.9 290.2 277.5 264 249.7 245.4 240.2 228.8 226.7 233.2 247.3 251.5 256 261.9 272.7 284.3 297.1 305 306.8 305.5 301.1 294.9 285.3 274.9 264.2 266.3 279 293.7 311.6 329.4 350.6 379.3 403.6 433 458.1 471.8 478.6 482.5 485.1 486.6 487.8 487.3 479.9 445.5 418.4 370.9 344.4 327.8 305.5 284.5
355.7 358.7 361.5 363.7 364.9 366.1 366.8 366.9 365.9 363.9 362.7 361.5 360.4 360.3 360.3 358.9 355.7 351.9 350.9 347.8 337.4 335.4 331.8 327.1 321.9 316.6 311.5 303.6 290.8 276.4 267.6 263.2 258.7 255 251.3 245.6 238 234.8 234.8 234.5 234.7 241.3 245.8 256.8 261.5 271.7 277.7 284.4 290.7 295 299.4 302.9 307.3 314.2 316.8 325.2 329.7 332.7 337.1 342.7 339 331.9 323.9 314.9 310.4 313.8 312.4 306 297.3 289.8 277.4 268.6 285.1 290.9 295.9 301.1 308.4 315.9 333.2 344.6 355.4 368.3 385.2 410.6 430.9 449 458.6 462.9 466.4 470.1 473.5 476.5 475.6 469.5 463.1 458.2 452.7 449.6 445.6 442.4 436.7 419.9 389.7 371 350 334.6 320.7 305.9 295 290.4 276.5 268.9 261.3 258.3 255.1 243.7 242.9 241.6 247.3 257.3 269.8 285.1 306.5 330.8 358.9 385.4 402.6 415.5 425.9 433.2 437.9 441.3 444.7 448.3 451.6 452.7 451.8 450.2 446.5 439.5 416 387.1 370.8 356.2 344.3 330.4 316.8 304.5 298.6 295.9 290.6 290 282 266.5 250.4 238.8 228.2 223.7 223.3 226.6 239.5 243.3 248.4 255.8 265.5 277.7 288.6 300 303.9 303.1 297.9 291.6 282.1 272.4 261.4 262.8 276.7 292 310.4 326 349.5 378.4 403.4 431.6 457.2 471.1 478 482 484.5 486.1 486.9 487.9 487.2 467.8 428.8 371.5 348.5 336 311.9 289.3
356.5 356.6 359.6 361 362.3 363.4 364.1 364.5 363.7 362.2 360.2 358.2 357.5 358.2 359.2 359.4 358.7 356.6 352.6 346.1 347 345 339.4 333.4 326.8 318.6 313.4 308.4 298.4 286.1 277.1 267.9 261.8 258.2 253.9 250.9 246.9 234.4 233.6 233.3 234.3 238.3 242.6 250.2 253.3 263.5 272 277.3 283.1 288.4 292.8 296.9 300.1 307.6 310.8 317.9 325 326.9 330.2 333.7 332.6 327.7 321.1 312.7 307.7 309.4 307.9 304.1 296.3 291 281.3 263.5 278.7 288 293.8 299 307.8 319 335 345.9 355.9 370.1 390.5 418.8 439.1 451.9 458.9 463.9 469 479 482.9 482.8 480.4 474.1 465.6 459 453.1 448.1 443.8 440.7 436.7 431.5 412.6 380.2 369.3 351.6 332.2 316.7 304.9 292.6 282.8 272.1 266.1 259.1 250.3 244.1 242.1 241.9 244 252.2 264.6 280.9 302.6 328.8 352.4 377.6 398.1 412.4 424.2 431.9 436.2 439.5 442.7 444.5 447.9 450.2 450.9 450.6 448.3 444 437.8 417.6 397.1 385.5 366.8 346.9 325.2 311.9 298.5 294.7 290.5 290.3 281.3 264.8 247.8 234.8 220.8 217.8 216.5 220.4 229.1 240.1 243.5 249.7 257 269.2 283.1 292.9 299.6 299.8 296.5 289.6 280.4 270.6 259.6 262.5 274.5 289.2 309.2 325.4 349.5 377.9 403.1 433.4 456.9 470.8 477.1 481.2 484.2 486.6 488 487.8 487.5 481.2 448.3 385.5 356.1 336.4 314.9 292.3
356.3 352.6 357.3 358.3 359.9 360.8 361.5 361.9 361.2 360.3 357.6 354.4 353.7 356.3 357.8 358.5 359 355.9 357.2 355.1 351.2 347.5 344.1 340.4 334.3 326.4 316.8 309.7 304.2 294.6 285.8 276.4 267.6 261.4 256.4 253.6 249.3 236.1 233.3 232.8 233.2 234.4 236.8 240.4 249.7 255.6 264.8 271.8 276 280.8 286.2 290 293.3 299.2 304.7 309.7 318.9 321.4 322.7 324.9 324.7 321.7 315.5 312.4 305.6 305 304.3 299.9 293.6 289 281.3 260.1 274.6 285.4 290.8 297.5 310.2 323.6 335.9 347 357.7 372.9 397 426.1 442.8 452.4 459.6 466.4 476.6 483.4 484.7 483.2 480.2 475.8 467 457.8 451.8 447 442.1 439 436.5 432.5 425.7 411.7 393.2 372 347.9 328.3 312.4 299.1 285 274.5 267.8 260.8 253.2 245.5 242.1 241.5 241.5 245.8 259.8 277.1 298.2 322.5 347 372.1 394.9 409.9 422.4 430.7 434.4 437.7 440.2 442 443.8 446.7 448.7 448.9 448.7 445.9 443.2 438.9 429.7 413.4 389.4 365.2 339.7 322.2 307.5 293.3 290.8 289.5 282.5 267.7 252.1 238 217.7 213.9 212.2 213.8 221.3 233.9 239.7 243.7 251.8 261.3 273.7 284.2 292.7 296.4 294.8 289 278.6 269.5 259.1 260.9 270.8 287.9 306.8 326.1 348.9 376.5 403.3 433.8 456.5 469.9 476 480.5 484.2 487 488.9 488 486.8 482.1 457.5 421.7 373 340.2 320.8 298.2
360.3 350.9 354.5 355.5 357.3 358.2 358.2 358 358.3 357.4 356 352.7 352.8 354.5 356.2 357.6 359.4 362.7 364.3 361.7 357.2 351.8 348.4 343.4 337.8 332.2 320.9 312.4 306.8 300.2 292.7 284.9 275.1 266.8 259.8 256.1 251.3 239.4 232.4 232 231.9 232.7 233.7 236.7 244.1 248.6 257.5 266.5 271.7 275.1 279.7 283.5 286.4 291.4 295.6 301 309.5 315.9 316.9 317 316.9 315.4 310.6 306.9 298.9 297.4 295.8 292.6 288.9 285.2 279.5 259.4 266.3 282.2 289.7 300.8 313.3 326.5 337.8 349.3 360.7 378.6 405.4 431.3 443.9 452.5 459.7 468.8 479.7 483.7 483.6 481.5 478.4 474.2 466.6 456.3 450.4 445.8 440.4 437.3 434.9 431.9 428.2 420.4 406.5 390.1 363.1 337.2 319.2 303.2 290.9 280.1 267.3 261.1 256.8 246.5 241.9 241.5 240.9 242.2 255.1 273 293.2 317.2 344.8 369.6 392.2 409.6 421.5 429.1 433.2 435.9 437.1 438.3 439.8 442.1 445.2 447 447.3 446.7 445.2 442.4 439.5 430.3 409.1 377.6 355.2 332.3 316.2 300.8 291.1 290.4 284 271.1 258.6 242.9 228.9 211.6 211.8 212.2 214 223.2 234.5 237.6 245.3 253.4 263.8 273.2 281.7 289.6 291.6 286.1 275.2 267.3 258.3 256.4 268.1 288 308.7 323.7 348.9 374.2 403 434.1 455.5 469.3 475.5 479.3 483.1 486.2 488.6 489.7 488 484.2 461.3 430.6 389.8 349.3 328.2 305.2
363.3 357.3 356.6 351.7 353 355 352.3 354.3 354.7 354.3 353.9 351.3 351.4 353.7 355.4 357.7 360.4 365.4 368.5 367.7 363.9 357.5 351.3 345.5 337.9 331.9 326 318.5 308.9 305 296.6 285.1 282 274.3 265.5 258.2 252.9 246.1 232.2 231.4 229.4 231.4 233 234 238.3 242.9 250.5 260.6 266.7 269 273.8 276.9 279 283.6 286.4 291.3 298 307.5 308.9 310 309.9 308.1 305.3 299.2 292.7 289.5 288.8 287 285.2 281.4 276.4 259.6 263.1 280.1 291.1 303.4 316.6 328.3 339.6 351.5 365 382 413 434.6 444.4 452.1 460.2 473.3 480.1 482.3 481.2 478.8 475.6 472.2 464.5 454.6 449.7 444.8 439.5 435.7 433.4 431.1 428.1 418.8 406.3 392.4 376.2 344 324.4 305.9 295.8 286 274.4 264.2 257.5 249.8 245.2 240.8 240.1 241.9 255 270.8 292.6 309.8 338.2 366.7 390.7 407.9 419.5 426.9 431.2 433.8 434.9 435.8 435.8 436.8 440.7 442.8 444.2 443.9 443.6 442.4 441.1 438 422.8 397.1 365 352.8 326 308.3 296.1 290.5 288.1 276.3 262 248.1 232.6 216.4 211.4 211.7 212.2 215.1 223.6 229.5 238.4 244.6 252.5 261.3 268.6 278 282.8 278 268.9 260.8 251.8 254.8 267.2 287.9 307.2 324.1 349 374.8 405 434.8 457.1 469.1 474.6 478.4 482 485.2 487.5 488.9 489.3 485.8 471.3 438.1 405.4 372.9 337.1 313.6
371.2 360.1 354.5 350.4 344.7 348.9 350.3 351.5 350.4 350.3 350.6 349.5 350.5 352.7 354.4 356.9 360.8 366.5 368.2 368.1 365.8 361.6 356.9 350.9 342.3 332.2 324.9 317.8 310.6 305.3 299.5 293.3 286.2 279.2 274.9 262.4 255 252.2 243.8 233.9 229.9 230.3 231.3 232.5 233.6 236.1 244.4 252.1 260.4 264.6 267.3 271.4 270.6 274.3 279.3 282 287 294.3 297.7 300.3 301.8 299 295.2 291.5 287.4 282.9 283.2 282.6 280.8 278.2 267.8 254.4 269.5 281.8 293.4 306.2 319.4 330.3 341.4 353.6 369.6 393.1 421 436.1 444.3 452.1 462.8 474.8 479 480.4 478.5 475.9 472.8 470.2 463.5 454.7 449 444.2 439 433.7 430.4 427.7 422.4 413.6 399.8 388.9 361.5 340 321.2 307.4 299.4 290.7 278.9 269.6 259.3 252.6 247.4 243.2 241.9 242.8 252.9 267.6 286.7 309 337 364.7 390.6 407.6 418.4 425.6 429.6 431.7 432.6 432.7 432.3 432.8 435.2 438.3 439.8 440.6 440.5 440.2 439.9 439.4 434.1 409.6 387.8 360.4 347 322.9 306.8 293.3 293.7 280.7 265.6 252.5 237.1 222.5 210.5 211.3 211.3 212.6 217.6 223.1 228.5 234.9 242 252.2 257.9 265.9 272 269.2 260.8 255.4 247.5 253.4 268.6 288.8 307.8 324.7 350.5 377.2 409 439.1 460.1 469.2 473.9 477.8 481.6 484.4 486.3 488.4 489 487.8 479 448.5 417.7 385.7 352.9 323.3
377.3 365 355.4 352.4 351.4 348.4 347 346 346 346.3 346.6 345.9 348.5 351.1 352 355 359.5 363.4 365.7 366.9 364.3 360.8 359.1 353.5 345.3 334.9 326.4 317.9 311.9 305.6 299.8 295.9 289.9 283.3 275 265.7 259 255.2 246.4 238.5 233.5 229.8 229.7 231 233.3 233.4 237.4 244.4 252.1 259.4 262.7 263.8 264.9 263 269 273.9 277.6 284.3 287.6 289.7 291.3 290 285.9 284 283.3 281.2 278.9 277.6 276.2 273.7 258.9 258.2 273.5 283.8 296.1 309.1 322.1 333.6 345.1 359.6 379.9 405.3 427.2 436 443.8 452.2 466.6 473.6 476 476.9 476 473.6 470.7 468 463.7 456.4 450.3 444.6 439.2 432.9 426.8 416.3 411.2 400.1 391.3 363.4 358.1 333.3 321 310.7 302.1 295.4 285.2 274.7 261.7 251.9 246.8 242.2 239.9 241.9 242.7 265 282.1 305.5 333.4 365.2 393.4 407.9 417.6 424.2 427.7 429.6 429.7 429.5 428.9 429 429.8 433 435.3 437.1 438.7 439.5 440.4 441.3 438.8 422.7 404.1 380.8 353.9 340.2 321.7 308.9 301.5 288.9 273 258.8 241.3 230.9 213.2 211.2 210.8 212 213.4 216.1 222.2 227.7 234.3 243.1 251.3 256.8 261.9 261.7 254.6 246.3 238.6 253.7 272.7 291.2 310.8 329.1 356.9 381.5 414.2 444.1 461.4 469 473.6 477.5 481.2 483.6 485.5 487 487.7 487 484.7 464.4 427.6 397.3 366.3 337.3
379.6 371 359.8 354.7 351.9 349.8 345.5 342.9 341.3 342 342.9 342.3 346.7 349.2 349.6 351.8 356.4 360.3 363.2 364.7 364.3 361 359.9 353.8 346.3 338.9 330.4 322.2 313 305.3 299.9 296.2 291.9 286.6 276.5 265.3 261.2 254.2 248.1 241.9 234.2 230.3 229.1 229.3 230.3 230.2 231.8 232.7 245.3 251.4 256.3 258.2 258 257.5 259.4 266 270.3 274.1 278.4 280.4 281.9 280.8 277.9 277.7 278.5 277.4 274.1 270.2 270.1 262.2 249.9 264.8 278.5 287.9 300.2 313.7 327.1 341 353.1 370 392 419 429.7 436 443 453.6 466.7 470.9 473.1 474.1 473.2 471.6 468.7 466.7 463.9 459.4 453.9 447.1 440.2 431.9 414 396.1 390.9 383 375.8 372.1 350.7 330 319.3 312.2 302.3 297.4 287.9 276.5 265 253.5 249.3 242.6 241.3 239.6 240.2 260.2 278.7 303 333.2 367 395.4 409.8 417 423.4 426.2 427.2 427.2 426.3 425.2 425.4 425.5 427.8 431.7 433.9 435.7 437.3 440.7 442.5 442.4 438.2 420.4 401.8 379 352.4 337 317.7 303.8 297.4 283.3 265.5 251.6 240.4 226.9 212.9 210.1 210.9 212.1 212.8 216.2 221 230.4 234 240.8 247.9 253.9 253.4 247.3 239.6 244.7 258.7 275.2 294 315.4 337.2 364.9 393.7 423.6 449.5 462.7 469 473.5 477.5 480.7 483 484.5 485.4 486.1 486.4 484.3 476.2 437.9 407.4 376.8 348.3
