ncols 200
nrows 82
xllcorner 310000
yllcorner 661750
cellsize 50
184.6 184.8 185.4 186 186.4 186.8 187.4 188.6 190 191.4 192.5 193.1 194.6 196.7 197.8 197 196.7 196.3 195.1 193.6 192.3 191.3 190.7 190.2 189.8 189.7 189.6 190 190.3 189.8 188.4 188.2 189.1 189.4 189.7 189.7 189.3 189.7 189.7 189.7 189.9 190.6 191.4 191.9 192 192 192.1 192.4 192.7 193.3 194 194.5 195.1 195.5 195.9 195.6 195.3 195.1 194.7 194.5 193.5 192.6 191.8 190.8 190.8 190.2 190.5 190.8 190 189.6 188.8 188 187.4 186.8 186.5 186.6 186.2 186.3 186.3 185.8 182.2 174.7 175.6 175.9 176.1 187.2 187.1 187 186.9 185.1 185.1 187.8 188.7 189.6 189.5 189.1 187.9 186.6 185.6 184.3 183.3 182.7 186.1 187.8 189.2 190.2 190.5 190.5 190.2 189 187.9 187.7 188.7 189.7 189.8 190.2 191.2 191.6 191.7 191.6 191.8 192.3 192.6 192.9 193.4 193.8 194.5 195 194.4 192.5 194.1 196.4 196.5 191.5 185.8 194.1 198.8 200.5 202.3 203.5 205 206.5 208.3 210.2 212.2 214.5 216.8 219.1 221.6 224.2 226.9 229.1 231.1 233.2 235 236.7 238.6 239.7 240.4 240.7 241.1 241.6 242.5 243.7 244.8 245.9 246.9 247.8 248.2 248.3 248.3 248.3 248.3 248.2 247.9 247.9 247.8 248.3 249.2 249.9 250.4 251.3 253.5 256.4 260 264.1 268.3 272.8 277.4 280.9 283.6 285.8 287.9 290 292.1 293.4 294.1 294 292.9 291.9
185.5 185.8 186.3 186.8 187.1 187.4 189.3 189.9 191.5 193 193.8 194.1 195.3 197 197.4 196.8 196.4 195.7 194.6 193.7 192.8 191.9 191.5 191 190.6 190.5 190.3 190.3 190.5 190 188.9 189.1 189.4 189.5 189.7 190.1 190.2 190.6 190.7 190.9 191.2 192.1 192.8 193.3 193.8 193.7 193.7 194 194.3 194.6 195 195.4 196 196.5 196.8 196.6 196.4 195.8 195.4 195 194.5 193.7 193.1 192.2 190.5 190.6 191 191.2 190 188.9 187.7 186.7 186.5 186.9 187.5 187.3 186.5 185.6 184.8 182.9 176.4 177 176.4 176.2 185.3 186 185.9 186.5 185.1 184.3 187.3 188.1 188.9 189.2 188.9 188.1 186.9 185.8 184.9 184.1 184.2 186.9 188.3 189.9 191 191.4 191 190.3 189.7 188.7 188.7 189.4 190.2 190.9 191.4 192 192.8 193.1 193.3 193.2 193.5 194.1 194.4 195.4 195.9 196.2 196.5 196.9 196.4 197.1 198.1 198.5 199.2 199.1 196.2 185.6 193.6 200 202.3 204.1 205.6 207.2 209 211.1 213.2 215.4 217.7 220.1 222.6 225 227.5 230 232.1 234.2 236 237.8 239.6 240.8 241.8 242.3 242.7 243.4 244.3 245.5 246.5 247.2 248.2 248.5 248.6 248.6 248.7 248.8 248.7 248.5 248.4 248.5 248.9 249.8 250.6 251.4 252 253 255.4 259 262.6 266.4 271 275 278.9 281.9 284.3 286.1 288.1 290.1 292.2 293.6 294.5 294.2 293.2 292.7
186.5 186.8 187.1 187.5 188.3 188.8 190.4 191.1 193 194.6 194.9 195.3 196.1 196.6 196.7 196.2 195.9 195.4 194.7 193.9 193.1 192.6 192.3 191.8 191.4 191.1 190.9 190.8 190.4 190.1 189.8 189.7 190.2 190.5 190.7 191.1 191.8 192.1 192.5 192.7 193 193.8 194.4 195 195.5 195.7 195.8 195.9 195.8 196.1 196.3 196.6 197.1 197.5 197.7 197.6 197.3 196.8 196.3 195.7 195.4 194.9 194.2 193.7 192.2 190.1 189.6 189.5 190.6 190.1 189.1 188.2 187.4 187.6 186.9 186.1 185.4 181.2 178.2 181.4 175.8 177.4 177.3 177.5 179.5 180.9 184.2 184.9 185.1 186.6 187.5 188.1 188.7 188.9 188.7 187.5 186.4 185.4 184.8 185.9 188.5 189.7 190.7 191.4 191.8 191.1 190.3 190 189.8 190.3 190.7 191.5 191.8 192.2 192.7 193.4 194.3 194.5 194.9 195.2 195.9 196.7 197.5 198.1 198.2 198.1 198.1 198 198.4 199.9 200.6 200.9 200.8 200.3 199.1 190.1 194.1 189.9 198.8 203.3 205.4 207.6 209.5 211.2 213.4 215.9 218.1 220.5 222.7 225.2 227.6 230.1 232.8 234.8 236.9 238.7 240.6 241.6 242.6 243.6 244.5 245.2 246 247.2 247.9 248.7 249.3 249.2 249.1 249 249 249.2 249.5 249.5 249.6 250 250.6 251.6 252.5 253.5 254 254.8 257.6 261.2 264.9 268.5 272.5 276.6 280.2 282.8 284.8 286.4 288.3 290.3 292.4 293.9 295.2 294.7 294.1 293.8
186.8 188 188.7 189.4 190.4 190.4 191.4 192.9 194 195.2 195.7 195.8 196.5 197 197.3 196.6 196.3 195.7 195.1 194.4 194 193.5 193 192.6 192.3 192.1 192 191.5 191.1 191.2 190.1 191.1 191.7 191.7 192.1 192.8 193.6 194.1 194.6 195.1 195.3 195.5 196.1 196.7 197.1 197.5 197.4 197.4 197.2 197.4 197.7 197.9 198.2 198.6 198.6 198.5 198.2 197.7 197.2 196.6 196.3 195.9 195.4 194.8 193.7 192 190.7 188.8 189 189.1 188.6 188.1 187.7 187 181.1 179.4 179.6 179.7 179.2 178.1 176.3 177.5 179 185.4 183.3 181.2 186.1 185.7 185.4 186.7 187.5 187.9 188.3 188.4 188 186.9 187 187.3 186.6 189.9 191.1 192 192.4 192.2 191.7 190.9 190.6 190.6 190.8 191.5 192.1 192.7 193.1 193.6 194.1 194.7 195.8 196.7 197.2 197.9 198.5 199.4 199.6 199.9 200.2 200.6 200.7 201.8 202.3 202.3 201.9 201.6 201.5 200.4 200 200.5 195.1 200.6 200.5 197.1 200.4 204.3 207.9 210.7 213.5 216.1 218.4 220.7 222.8 225.1 227.4 230 232.7 234.9 237.3 238.8 240.6 241.9 243.4 244.8 245.9 246.9 247.7 248.4 249.1 249.8 249.9 249.8 249.7 249.7 249.7 249.9 250.3 250.9 251.4 252 252.9 254.1 255.2 256.2 257 257.5 258.9 263.1 266.8 270.4 273.7 276.9 279.6 281.9 284.2 286.5 289 291.3 293.7 295.1 295.9 295.6 295 294.9
187.7 189.8 190.7 191.3 192 191.6 191.6 193 194.5 195.9 196.1 196.1 196.8 197.2 197.4 197 196.5 196 195.9 195.9 195.1 194.6 194.1 193.7 193.4 193.1 192.9 192.6 192.4 192.3 191.6 193.5 193.8 194 194.5 195.4 196.3 196.5 196.8 197.3 197.8 197.9 198.3 198.6 198.7 198.9 199 198.8 198.5 198.7 198.7 198.8 199.2 199.5 199.5 199.4 198.8 198.3 197.7 196.9 196.8 196.5 195.4 195 193.3 192.6 192.6 191 189.4 188.6 188.7 187.5 187.4 187.8 180.8 181.1 181 180.4 179.4 178.3 176.1 178.4 186.9 187.5 186.4 181.6 186.3 187.6 186.3 187.2 188.5 188.7 189 188.4 187.9 188.6 189.4 189.7 189.2 192.1 192.4 193 192.5 192.2 191.8 191.3 191.5 191.6 192 192.8 193.5 194 194.8 195.6 195.7 196.1 197.4 198.7 199.6 200.3 200.9 201.5 201.8 202.1 202.4 202.6 202.7 203.5 203.6 203 202.1 201.3 201.9 202.7 202.9 203.8 201.3 200.5 204.1 204.6 203.3 202.7 199.9 204.2 210.4 214.9 218 220.6 222.9 225.2 227.5 229.9 232.5 234.6 236.6 238.4 240.4 242.4 244.2 245.7 246.9 247.7 248.5 249.4 250.2 250.6 250.6 250.5 250.8 250.7 250.7 251.3 252 252.7 253.5 254.1 255.2 256.4 257.9 259 259.9 261.2 262.2 264.3 267.9 271.4 273.6 275.6 277.7 280.1 282.4 285.5 288.8 291.3 293.5 295 295.6 296.1 296 295.8
184.6 189.9 191.7 191.7 191.9 191.6 192.7 194.1 195.1 196.6 196.6 196.5 197 197.2 197.4 197.6 197.4 197.7 197.7 197.4 196.6 196 195.4 194.8 194.1 193.8 193.7 193.1 191.8 194.5 196.1 195.8 196.1 196.5 197 197.9 198.5 199 199.2 199.5 200 200.4 200.6 200.7 200.6 200.6 200.6 200.4 200.2 200 200.1 200.2 200.2 200.4 200.4 200.4 199.6 198.8 198.1 197.3 196.9 196.2 195.3 194.5 194 192.7 192.7 192 190.8 189.4 189.1 188 186.8 186 181 181.6 182.6 182.1 181.3 179.3 178.8 179.1 188 188.1 187.9 184 188.1 188.2 187.2 188.1 189.5 189.9 189.8 189.2 189.8 190.5 191.1 190 192.1 193.2 193.3 193.5 193 192.5 191.9 192.1 192.4 192.6 193 193.9 194.9 195.9 196.9 197.4 197.4 197.4 198.9 200.2 201.2 202 202.7 203.7 204 204.3 204.5 204.3 203.4 202.8 202.6 202.9 203.3 204.3 205.7 205.1 205 205.3 203.4 200.5 202.7 205.1 206.5 208.4 209.9 210.4 206.2 211.1 217.8 220.8 223.1 225.3 227.6 230 232.2 234.2 236.3 238.2 240.6 242.5 244.1 245.8 247.2 248.1 248.9 249.9 250.7 251.3 251.2 251.6 251.9 252 252.2 252.7 253.5 254.3 255.1 256.1 257.3 258.9 260.4 261.9 262.8 264.5 266 267.1 268.8 270.7 272.3 273.4 275.5 277.6 280.1 283.2 286.6 289.4 291.6 293.3 294.7 295.2 295.7 296.5
187 187.3 190.7 192 192.7 193.6 194.4 195.3 196.4 197.6 197.7 197 197.9 198.1 198.2 198.6 198.9 199.3 199.4 198.5 197.6 196.8 196.1 195.2 194.7 194.4 193.4 194.5 196.6 197.6 198.1 198.1 198.4 199 199.5 199.8 200.1 200.6 201.2 201.6 202 202.2 202.4 202.6 202.5 202.4 202.3 202.1 201.9 201.7 201.5 201.6 201.5 201.5 201.4 201.1 200.3 199.5 198.8 198.5 197.9 197 196 195.5 195.1 194.2 192.9 192.3 191.3 190.5 189 189.2 188.3 187.5 184.9 180 182.8 182.7 183.2 185.3 187.3 188.2 188.7 188.8 188.8 184.5 188.6 189 188.4 189.2 190.4 191 190.5 190.5 191.8 192 192 193 192.6 193.8 193.9 193.7 193.5 193.1 192.8 193 193.3 193.7 194 195.4 196.5 197.5 198.4 198.5 197.9 198.6 200.3 201.7 202.7 203.6 204.5 205.6 206.2 206.5 206.6 206.4 206 205.9 205.7 205.8 206.5 206.9 206.3 206.1 205.4 205 204.4 201.9 201.7 204.8 206.5 208.9 210.8 212.7 214.7 215.7 209.8 220.2 223.8 225.8 227.6 229.9 231.6 233.7 235.7 238.1 240.3 242.1 243.9 245.5 246.9 248.2 249.3 250.3 251.1 251.8 252.1 252.7 253.1 253.4 253.7 254.2 254.8 255.7 256.9 258.2 259.8 261.6 262.9 264.5 265.8 267.3 268.5 269.6 270.8 272.3 273.7 275.6 277.5 279.1 280.1 281 283.1 286.3 288.7 290.7 292.2 293.1 294.8 296.8
190.6 185.9 189.8 191.8 193.3 194.7 195.6 196.5 197.6 198.4 198.6 198.1 198.8 199.2 199.5 199.6 199.9 199.8 199 198.7 197.9 197.2 196 195.1 194.5 194.4 195.6 198.2 199.2 199.9 200.2 200.5 200.8 201.2 201.5 201.7 201.9 202 202.7 203.2 203.7 203.9 204.1 204.2 204.2 204.1 204 203.9 203.8 203.5 203.2 202.9 202.7 202.5 202.1 201.6 200.9 200.2 199.8 198.5 197.5 196.9 196.3 195.5 195.3 194.5 193 193 192.2 190.8 189.5 188.5 188.2 187.3 186.2 183.5 180.4 185.7 186.5 187.6 188.8 189.3 189.7 189.8 189.2 184.8 190.1 190.6 189.9 190.5 191.1 191.8 192 191.8 192.8 193.3 193.1 193.3 193.5 193.9 193.8 193.8 193.7 193.5 194.1 194.3 194.6 195 195.8 197.1 198.2 198.5 198.8 198.7 199.2 200.4 202.1 203.4 204.5 205.7 206.7 207.8 208.7 208.7 208.7 208.7 208.5 208.3 208.3 208.1 208.2 207.6 206.8 205.6 204.5 203.8 202.8 202.8 204 204.6 207 209.7 212 214.1 216.4 218.6 219.4 215.3 215.7 223 227.2 229.4 230.9 233 234.9 237.3 239.7 241.6 243.5 245.2 246.8 248.1 249.8 250.9 251.8 252.3 253.1 253.7 254.3 254.7 255.2 255.6 256.2 257.6 258.9 260.7 262.5 264.1 265.5 267 268.6 269.7 270.5 271.6 272.8 273.9 275.2 277 279 281 282.6 283.5 285.3 287.1 288.9 290.7 292.2 294 295.8 298.4
192.1 192.3 189.4 192.9 194.7 195.7 196.8 198.2 198.5 198.8 199.3 199.7 200.2 200.5 200.7 200.7 200.9 200.3 199.8 199.7 199 197.3 196.1 197.5 198.8 199.1 200.5 201.3 202 202.4 202.6 202.8 203.1 203.4 203.6 203.7 203.8 203.9 204.2 204.9 205.5 205.5 205.6 206.1 206 205.8 205.8 205.7 205.3 204.9 204.7 204.4 204 203.4 202.9 202.1 201.6 200.9 199.3 197.7 197.1 196.5 196.1 195.6 195.1 193.7 193 192.6 192.1 191 190 189 188.4 188.5 186.3 181.2 186 188.5 188.6 189.1 189.8 190.5 190.8 191.1 189.6 187.9 192 191.7 191.5 192.1 192 193 192.7 192.9 193.2 193.8 193.9 193.9 193.9 194.1 194.2 194.4 194.3 195 195.7 195.9 196.5 197.1 197.8 198.8 199.1 199.1 199.3 199.9 201 202.4 203.9 205.4 206.9 208 209.2 210 210.6 210.9 211.4 211.2 210.9 210.8 210.5 209.8 208.9 208.3 207.4 206.4 205.5 204.6 202.9 204.9 205.6 205.4 207.3 210.6 212.9 215.2 217.6 220 221.8 221.5 218.3 213.9 219.9 224.6 229.1 231.9 234.2 236.1 238.7 240.6 242.7 245 246.8 248.2 249.9 251.4 252.4 253.2 254 254.8 255.3 255.9 256.4 256.9 258.3 259.7 261.5 263.3 265.1 266.7 268.2 269.6 270.8 271.9 272.7 274.2 275.3 276.2 278 279.8 281.2 282.7 284.4 286.1 288.6 290.5 292 293.8 294.6 296.6 298.9 300.4
193.4 193.6 188.4 194.9 196.4 197.3 199.3 200.5 200 201.2 201.6 201.6 202 201.9 201.8 201.9 201.1 200.6 199.9 199.1 197.3 199.2 201.5 202.4 202.5 203 203.6 204.4 205.1 205.5 205.7 205.5 205.3 205.5 205.6 205.9 206 206.1 206.4 207.2 207.7 207.9 207.9 208 208.2 208 207.8 207.1 206.8 206.4 206.1 205.5 204.9 204.3 203.5 202.7 201.9 200.1 198.6 197.4 196.4 195.9 195.7 195.2 194.3 193.6 193 192.4 191.9 191.3 190.4 189.7 189.2 189.1 182.2 186 189.2 189.9 190 190.3 191.1 191.7 191.9 191.8 190.8 190 192.4 192.2 192.3 192.7 193 193.4 193.8 194.1 194.4 194.7 194.8 194.8 194.6 194.5 194.6 194.8 195.5 197 197.5 198.2 198.5 198.9 199.4 199.8 200 200.7 201.4 202.4 203.6 204.9 206 207.5 209 210.3 211.5 212.5 213.3 213.8 213.9 213.6 213.3 212.7 211.3 210.2 209.4 208.7 208.7 207.1 204.9 204 205 205.5 205.9 206.2 208.2 211.9 214.4 216.7 219.1 221.5 223.5 224.4 224.9 219.6 220.3 218 216.6 227.4 233.6 236.4 238.6 240.6 243.1 245.2 247.1 248.5 250.1 251.7 252.9 253.9 254.7 255.5 256.2 256.8 257.4 258.5 260 261.5 263.7 265.8 267.7 269.4 271 272.2 273.4 274.6 275.8 276.9 278.1 279.5 281 282.8 284.8 286.7 288.4 290.3 292.5 293.9 295.3 296.3 297.8 300.2 302.5 304.6
196.2 195.4 190 195.9 197.6 199.2 200.9 201.3 202.7 203.6 203.8 203.6 203.1 202.5 202.4 202.1 201.4 200.6 199.8 199.5 201.9 204.6 205.5 205.8 205.6 206.5 207.1 207.6 208.3 208.9 208.5 208.1 207.9 207.6 207.8 208.2 208.6 209.2 209.7 210 210.2 210.4 210.4 210.4 210.2 209.8 209.6 208.8 208.2 207.6 207 206.4 205.7 204.6 203.8 202.4 200.5 199.1 197.9 196.9 196.2 195.6 195.2 194.7 194 193.5 193 192.3 191.7 191.3 190.8 190.2 189.6 188.6 184.3 187.4 190 190.7 191.3 191.5 192.2 192.3 192.1 191.9 188.3 191 192.5 192.8 193.1 193.4 193.9 194.4 194.8 195.1 195.4 195.7 195.6 195.7 195.6 195.4 195.4 195.7 196.4 197.9 198.9 199 199.3 199.7 200.3 200.6 201.4 203 203.8 205 206.2 207.4 208.3 209.6 211 211.2 213.5 215 216 216.4 216.2 215.8 214.9 212.6 209 207.4 207.3 206.6 205.8 205.4 205.7 205.8 206.7 206.9 206.4 207.5 209.6 213.5 216.2 218.5 220.8 223.1 224.8 226.1 226.4 226.9 228.3 229 227.9 224.4 219.9 227.1 233.7 239.6 242.8 245.6 247.4 248.9 250.7 252.2 253.2 254.3 255.3 256.3 256.9 257.5 258.6 259.6 261 262.6 264.8 267 269.3 271.7 273.4 274.9 276.1 277.2 278.4 279.3 281.2 282.7 285.1 287.4 289.4 291.4 293.2 294.5 296.1 297.5 298.7 299.7 301.2 303.4 305.2 307.4
197.4 197.2 191.4 195.3 199.2 200.5 201.3 202.5 203.9 204.3 204.3 203.9 203.2 203.6 203.3 203 201.9 201 202.5 203.5 205.7 207.1 208.4 209.3 209.5 210.3 211.1 211.6 212.2 211.8 211.4 211.2 210.9 210.7 211.3 211.8 212 212 212.3 212.4 212.4 212.3 212.2 211.8 211.6 210.8 210.3 209.3 208.4 207.7 207.2 206.3 205.5 204.5 203.1 201.2 199.8 198.5 197.3 196.4 195.8 195.3 194.9 194.5 194 193.5 193.1 192.4 191.9 191.4 191.1 190.3 190 187.5 185.5 188.9 190.5 191.6 192.1 192.6 192.7 192.6 192.5 191.8 188.8 191.6 192.8 193.5 194 194.6 195.1 195.4 195.8 196.1 196.4 196.5 197.2 197.5 197.5 196.7 196.3 196.6 198.1 198.7 199.5 199.8 200 200.5 201.1 201.9 203.2 204.8 206.2 207.6 208.8 209.9 211 212.2 213.3 213.1 213.1 214.2 214.6 215.5 216.7 216.2 212.6 210.3 212.1 211.6 209.3 207.1 206.4 206.7 207.6 207.8 208.3 208.3 207.3 210.3 212.1 214.2 218 220.2 222.3 224.1 225.6 226.7 227.5 228.4 229.6 231.8 233.5 234.5 233.3 232.4 229.9 225.6 232.2 238.7 245.1 249.3 251.4 252.3 253.3 254.4 255.5 256.4 256.9 257.9 258.6 259.6 261.4 263.7 265.9 268.4 270.9 273.6 275.6 277.1 278.4 279.5 280.7 282.1 284.1 286.2 288.4 291.1 293.3 295.2 296.5 297.8 299.1 300.4 301.8 303.2 304.7 306.1 308.3 310.3
198.9 198.3 192 194.9 200.6 201.7 202.8 204.1 204.9 205.4 204.8 204.4 205.1 205.5 205.7 204.4 203.4 205.1 206.6 207.9 209.2 210.7 212.1 213.1 214.6 215.5 216 215.5 215.9 215.2 214.9 214.9 214.9 214.8 215.1 214.7 214.2 213.7 213.8 213.6 213.6 213.4 213.1 212.7 212.1 211 210.1 209.3 208.3 207.5 206.8 205.7 204.6 203.2 201.6 200.5 199.4 198.5 197.4 196.4 195.9 195.6 195.1 194.7 194 193.6 193.3 193.1 192.8 192 191.6 191.2 185 184.1 186.1 190.2 191.7 191.8 192 192.3 192.6 192.8 192.8 192.6 190.9 191.3 193.3 194.2 194.7 195.2 195.8 196.3 197 197.3 198.2 198.1 198.8 199.7 199.3 198.4 197.7 198.4 199.3 199.9 200.6 201.2 201.4 201.7 202.7 204.1 205.5 207 208.4 209.8 211.1 211.9 213.2 214.6 215.7 216.7 216.7 217.5 219.1 217.7 214.1 213.3 213.7 216.2 215.9 213.6 210.7 208.4 207.7 208.8 209.6 209.9 210.4 210.9 209.8 211 215.5 216.2 219.3 221.5 223.5 225.1 226.5 227.6 228.5 230.2 232.1 233.5 235 235.5 236.4 237.7 239.4 238.5 236.8 234.1 235.9 247 251.3 252.4 253.3 254 254.7 255.6 256.3 257.5 258.5 259.7 261.7 264.2 266 268.7 272.3 275 276.7 278.3 279.5 280.6 282.3 284.3 286.5 288.4 290.4 293.5 295.1 296.9 298.6 300.2 301.3 302.2 303.7 305.1 306.6 308.2 310.5 312.4
200.2 199.2 192.4 198 201.3 202.7 203.9 205.1 205.8 205.3 205.7 206.4 206.5 206.2 205.4 206.1 207.9 209.2 210.4 212.2 213.5 215.1 216.8 218.2 219.4 220.3 220.3 219.9 219.4 218.7 218.5 218.5 218.2 217.7 217.2 216.4 215.9 215.3 214.7 213.8 213.6 213.7 213.6 212.8 211.8 210.8 209.8 208.5 207.5 206.9 206.3 204.8 203.2 201.7 200.7 199.8 198.9 198 197.2 196.4 195.9 195 195.3 194.7 194 193.8 193.9 193.8 193.3 192.3 191.9 190 184.7 184 189 192 192.5 192.4 192.4 192.5 192.6 192.8 193 193.2 193.3 192.3 193.9 194.7 195.4 195.8 196.4 197.2 197.9 199.2 200 199.9 200.5 201.5 201 199.6 199 199.6 200.4 201.1 201.8 202.4 202.8 203.6 204.6 206 207.5 208.9 210.3 211.6 212.8 214 215.5 217 218 218.8 220.2 221.9 222.6 221.9 221 219.4 217.1 215.9 214.8 212.1 210.6 209.8 209.1 210.9 211.9 212.5 213.3 213.7 213.6 211.2 213.6 215.5 219.7 222.9 224.8 226.5 228.1 229.3 231.2 232.6 234.4 235.2 236.3 237.5 239.2 241.5 243.6 245.1 245.7 243.9 244.5 249.2 249.2 251.4 252.6 253.1 253.8 254.8 255.9 257.1 258.2 259.3 261.5 263.1 264.8 268.4 271.2 273.4 275.5 277.2 278.7 280.1 282.3 284.5 286.7 289.1 291.5 293.8 295.5 297.4 299.4 301.2 302.3 303.1 304.5 306.2 308.2 310.2 312.2 314.7
198.7 194.5 197.4 200.9 201.9 203.5 204.7 206 206.6 206.4 207.6 207.8 207.2 206.1 208.1 209.5 210.6 212 213.5 215.8 217.9 219.5 220.9 221.9 222.4 222.2 222 221.7 221.3 220.6 220.1 219.6 219.1 218.1 217.5 216.8 216.2 215.6 214.5 213.5 212.9 212.5 212.9 212.3 211.3 210.3 208.9 207.6 206.9 206.3 204.8 203 201.9 200.9 200.1 199.2 198.3 197.4 196.8 196.1 195.6 194 194.5 194.5 194 191.1 189.8 190.1 187.8 187.7 187.1 186.6 183.9 185.1 188.8 191.9 193.2 193.1 192.9 192.9 193.1 193.3 193.5 193.6 194 193.1 194.2 195.2 196 196.6 197.3 198.7 200.1 200.8 201 200.6 201.2 201.7 201.1 200 200.1 200.5 201.5 202.3 203.1 203.9 204.4 205.4 206.4 207.8 209.2 210.7 212.2 213.7 215.3 216.7 218.1 219.7 220.9 222.1 223.4 224.4 223.9 222.7 221.4 218.9 217.8 216.9 214.9 213.6 213.1 212.5 210.7 213 214.5 215.2 216.9 218.4 218.2 219.5 218.5 215 217.5 224.1 226.6 228.3 230.2 231.7 233.4 235 236.4 237.4 238.4 240.4 242.8 244.9 246.6 247.7 248.8 249.5 249.2 249.2 249.2 249.9 251.4 252.6 253.5 254.5 255.8 256.9 257.7 258.9 260.5 261.9 263.4 265.4 268.1 270.3 272.6 274.8 276.6 278.6 280.7 282.7 285.2 287.2 289.3 291.7 294.3 297.2 299.2 301.2 302.9 303.7 305.1 306.9 308.8 311.3 314.1 317
195.7 197.6 201.6 202.5 203.8 205 205.8 206.1 206.8 208.3 208.8 207.5 208.1 210.5 212.3 213.2 214.3 215.8 218.2 220.7 222.7 223.9 224.5 224.1 223.6 223.4 222.9 222.2 221.6 220.9 220.3 219.8 219.2 218.2 217.6 217.1 216.4 215.5 214.5 213.5 212.8 212.3 211.7 211.9 210.6 209.4 207.7 206.9 205.7 205 203.5 202.3 201.2 200.3 199.4 198.6 198 197.4 196.6 195 193.6 192.6 191.3 192.7 191.7 188.3 187.5 186.8 186.1 184.7 184.8 184.8 184.7 186.4 190.7 191.3 193.4 193.6 193.6 193.5 194.3 194.7 194.8 194.9 194.9 195.4 193.7 195.7 196.8 198 199.4 199.9 201.3 201.7 201.4 201.3 201.3 201.4 201.2 200.9 201.4 201.8 202.6 203.6 204.6 205.4 206.2 207.3 208.4 209.7 211.2 212.8 214.3 215.9 217.5 219.4 220.6 223 224.7 225.9 226.8 226.9 226 224.8 222.5 220.5 219.6 217 216.3 215.9 215.2 214.8 213.9 213.7 217.2 219.1 220.5 221.1 220.6 220.7 220.8 220.3 220 222.7 228.4 231 233.1 234.1 234.9 236.5 237.9 239.3 241.2 243.4 245.8 247.8 248.9 249.6 249.6 249.2 249.2 249.2 249.2 249.2 250.1 251.6 252.7 253.7 254.9 255.9 256.4 257.3 258.8 260.3 261.9 263.7 265.3 267.3 269.5 271.6 273.6 275.6 277.5 279.1 281.2 283.4 285.6 288.4 291.8 294.8 297.5 299.8 302.2 303.7 304.9 307.5 309.5 312.2 316 319.1
201.1 201.7 202.6 205 205.9 207 207.6 208.5 210 209.8 209.4 212 214 215.7 217 217.9 219.1 221.4 223.7 225.8 226.7 226.1 225.8 225.5 225 224.3 223.7 222.7 222.3 221.6 221 220.6 219.9 219.1 218.5 217.8 217 216 215.1 214.2 213.3 212.5 211.7 211.6 210.2 208.7 207.8 206.7 205.3 204.8 204 202.5 201.5 200.7 199.9 199.1 198.1 196.5 196.3 194.5 193.5 192.4 190.3 189.3 188.6 187.3 186.6 186.2 188 186.8 186.2 187.3 187.2 189.3 191.5 192.4 193.1 194.3 194.3 194.7 195.3 196.1 196.2 196.2 196.3 196.8 197.3 195.4 197.9 200.3 201.4 201.7 202.1 202.3 201.7 201.7 202.6 202.7 202.2 202.2 202.6 203.2 204.4 205.4 206.4 207.1 208.3 209.4 210.5 211.7 213.3 214.9 216.5 218.2 220.3 222.3 224.5 226.5 228.2 229 229.5 228.7 227.3 225.6 221.6 220.3 219.6 219.6 219.1 218 217.3 217.8 217.3 213.1 219.4 221.8 222.8 223.5 223.6 222.3 221.9 226.2 227.5 224.6 225.1 233.2 235.3 236.2 236.9 237.9 239.9 241.8 243.8 246.3 248.5 250.1 250.7 250.9 250.5 250 249.2 249.2 249.2 249.2 249.6 250.6 251.3 252.5 253.9 254.9 255.5 255.8 257.2 258.8 260.4 262 263.5 265.3 267.1 269.1 271 272.9 274.6 276.1 277.6 279.7 281.8 285 288.4 292.2 295.1 297.9 300.7 302.4 304.3 307.1 309.8 312.8 317.1 320.9
204.6 205.2 204.5 206.6 207.7 208.5 208.9 210.1 210.8 212.1 215.3 218.2 219 220.3 222.3 223.2 225.5 226.4 227.1 227.8 227.3 227 226.6 226.5 226.5 225.5 224.3 223.3 222.9 222.5 221.9 221.4 220.6 219.7 218.8 218 217.1 216.2 215.4 214.4 213.3 212.2 211.2 210.7 211.2 210.6 209.2 207.6 206.3 205.6 204.8 203.7 202.3 201.1 200.1 199.1 197.8 195.9 193.8 193.9 192.7 191.5 190.2 186.8 187.5 187.3 188.4 188.6 189.7 190.8 190.8 192 192.4 192.1 192.8 193.9 193.5 194.6 195.4 195.9 196.5 196.9 197.4 197.8 198.2 198.8 199 196.3 198.6 201.8 202.5 202.7 202.8 202.5 203.3 202.4 203.4 204.1 203.4 203.4 204 205.1 206.2 207.1 208.2 209.3 210.2 211.3 212.5 213.8 215.7 217.3 219.2 221.1 223.1 225.4 228 229.6 230.5 231.2 230.8 229.7 228.4 226.4 222.7 221.7 223.6 222.8 221.3 220.5 218.9 220.7 220.7 216 222.3 224.1 225.1 225.7 226.7 228.1 229.9 231.6 233.3 234.2 225.4 234.4 237.2 237.9 239.4 240.8 242.8 245.2 247 248.8 250 251.2 251.6 251.4 250.8 250.1 249.2 249.4 249.2 249.2 249.2 249.8 250.3 251.4 252.8 253.8 254.6 254.8 256 257.1 258.4 260 261.6 263.4 265.1 266.9 268.7 270.5 272.1 273.7 275.1 276.5 279.3 282.6 286.2 289.5 292.4 295.6 298.7 301 303 305.9 308 313.2 318 323.1
205.9 206.4 206.9 208.1 209.2 210.5 211 211.5 213.6 216.3 219.9 221.2 221.9 224.5 226.9 227.5 228.1 228.4 228.6 228.3 227.7 227.1 226.6 226.6 226.4 226 225 223.7 223.2 222.8 222.2 221.8 221.5 220.8 219.7 218.7 217.6 216.6 215.6 214.6 213.7 212.8 212.1 211.8 212.1 211 209.5 208.2 206.6 205.3 204.5 203.7 201.6 198.5 197.2 193.9 195.2 192.5 192.1 191.5 190.5 189 187.9 188.8 188.9 189.4 189.6 190.1 191.7 192.7 193.8 193.9 193.9 194 194 195.1 195.7 197.3 196.9 197.3 197.9 198.7 199.5 199.9 200.1 200.7 200.9 196.2 199.3 202.6 203 203.3 203 203.2 204 203.4 204.7 205 204.6 204.8 205.9 206.9 208 208.9 210.1 211.4 211.6 213.6 215.2 216.9 218.1 220.1 222 224.1 226.4 228.8 230.8 231.9 232.5 232.2 231 230.2 228.5 226.8 224.4 224.9 226.8 225.1 224.1 223.3 222.7 217.6 217.6 222.9 226.1 227.1 228.2 229 230.3 232.2 233.8 235.2 236.8 233.2 227.2 235.8 239.4 240.6 242 244.2 246.7 248.7 249.7 250.6 251.7 251.9 252.2 251.7 251 250.3 250.2 250.1 249.2 249.2 249.2 249.2 249.5 250.5 251.4 252 253.2 254.7 255.9 257.3 259.1 260.8 261.8 262.8 264.6 264.6 266.6 268.4 270.1 271.3 272.9 274.8 277.9 280.9 284.3 287.6 290.6 293.9 296.4 298.9 301.2 303.9 307.5 312.8 319.9 327.6
207.4 208.4 209.7 211.1 212.1 213.1 214 215.2 217.1 220.3 223.6 224.8 227 229.2 229.6 229.9 230.1 229.7 229.1 228.3 227.7 227.1 226.6 226 225.6 225.2 225 224.6 224 223.6 223.5 223.4 223.3 222.4 221.2 220 218.9 217.6 216.5 215.4 214.3 213.4 212.5 212 211.3 210.1 208.8 207.7 206.1 204.6 203.4 199.2 197.4 194.6 193.2 193 193.7 192.8 192.3 190.7 190.2 188.1 188.7 189.8 190.1 191.6 192.6 193.1 194 195 194.9 195.1 195.2 195.7 196 196.8 197 200 199 199.5 200.5 201.4 201.9 201.9 202 202 202 197.8 197.6 202.9 203.7 203.6 203.2 203.8 204.3 204.4 204.8 205.8 206.1 206.6 207 208.8 209.8 211.1 212.4 213.6 214.2 216 218.1 219.8 221 223.1 225.1 227.5 229.5 231.4 232.3 232.7 232.7 232.1 231.1 230.1 229.3 228.4 226.7 228.9 229.1 227.7 227.2 226.4 227.2 224.5 226.3 228 229.6 230.6 231.5 232.8 234 235.7 237.1 238.1 236.6 229.8 237.6 240.6 242.2 244.8 246.6 249.1 250 250.7 251.6 252.2 252.5 252.4 252.4 251.9 251.3 250.5 250.1 249.4 249.2 249.2 249.2 249.2 249.2 249.2 249.2 250.8 253.3 255.2 257.1 258.3 260.1 261.8 263.1 264.5 266.1 266.9 265.9 266.8 269.4 271.2 272.2 273.9 277.4 280.3 283.1 286.5 290.5 293.7 295.2 297 298.3 300.7 305.2 310.3 318.7 330.6
210.8 212.1 213.7 214.3 215.6 216.8 217.8 219.8 222.2 225.7 228.1 229.6 231 232.1 232 231.4 230.5 229.9 228.8 228.2 227.7 227 226.4 226.2 226.2 226 226.2 226.3 226.2 225.9 225.3 224.6 223.7 222.7 221.4 219.9 218.9 217.9 216.9 216 214.8 213.7 212.5 211.4 210.2 208.8 207.4 205.9 200.2 195 195.4 195 193.7 193.1 193.7 192.7 191.2 192.4 192.1 190.7 188.5 191.1 191.2 192.8 193.6 193.9 194.8 195.4 195.9 196.2 196.3 196.6 197.1 197.6 198.5 199 199.3 198.7 203 203.2 203.4 204.1 203.9 203.8 203.7 203.3 203 201.8 199 202.3 204.2 203.7 203.8 205.1 206.1 205.9 206.1 207.3 207.8 208.4 208.5 209.9 212 213.3 214.6 216.7 218.1 217.8 220.9 222.3 224.2 226 228.4 230 231.9 232.7 233.3 232.9 233.1 232.6 231.7 231.4 230.7 230.1 230.7 232.1 231.5 230.6 230.1 230.2 230.4 230.7 231.1 232 233.2 234.8 235.5 236.8 237.8 237.1 237.3 236.2 238.4 240.7 243.1 245.5 247.3 249.1 250.6 251.9 252.5 253 253.5 253.4 253.2 252.9 252.3 251.5 250.6 249.6 249.2 249.2 249.2 249.2 248.8 249.1 249.7 250.4 251.8 253.3 254.9 256.9 260.9 261.8 263.4 264.7 266 267.3 268.6 269.2 269.6 270.2 270.3 271.8 273.2 274.8 278.3 282 284.8 287.5 290.4 292.7 293.3 294.7 296.2 299 302.9 310.1 322.4 334.2
214.2 216 217.7 219.3 220.9 222.5 224.2 225.7 228 230.5 232.2 234 234.6 234.4 233.4 232 231 229.8 228.8 228.2 227.7 227.4 227.6 227.8 227.8 227.8 228 228.6 228.9 228.7 227.5 225.6 223.3 221 219.4 218.4 217.4 216.5 215.6 214.4 213.3 212.5 211.7 210.4 209.1 207.8 206.3 204 194.9 196.2 196.1 195.8 194.3 194.1 193.4 192.7 191 191.9 191.1 190.8 193.3 195.4 195.4 195.9 195.8 196.1 196.5 197 197.4 197.9 198.2 198.5 199.2 200.2 201.1 201.5 202.2 201.1 204.5 206.6 207.5 207.4 206.4 206 205.5 204.9 204.4 203.8 201.1 198.8 204.2 204.2 204.6 206.3 207.5 206.9 207.9 209.4 209.7 210.4 211.1 211.1 213.9 215.6 217.1 218.9 220.4 221.7 222.3 225.2 226.7 228.7 230.3 231.9 233 233.4 233.7 233.8 233.8 233.6 233.2 233.3 233.5 234 234.2 234.7 233.7 233.4 233.6 233.8 234 234.6 235.3 236.2 238.2 238.7 239.6 239.7 240 240.3 241.8 242.8 244.3 246.8 249.1 250.5 251.4 252.4 253.4 254 254.2 254.7 254.3 253.8 253.1 252.5 251.9 250.4 249.8 249.2 249.2 249.2 249.2 249.4 250.2 251 251.9 253.4 254.9 256.5 258.6 260.8 263.1 265.8 267.7 268.9 270.1 271.2 272.2 272.4 272.2 273.1 273.9 275.6 276.9 278 279.8 283.4 286.9 288.8 290.1 291.9 291.8 292.8 294.7 297.5 302.2 310.9 327.5 337.7
218.8 221.8 224.3 226.5 228 229.4 229.8 231 232.4 233.5 235.1 236.1 235.9 235.5 234.3 232.5 231.6 230.4 229.5 229 228.9 229.7 229.9 230.1 230.1 229.9 229.8 229.9 230.2 229.4 227.5 225.5 223 220.8 218.5 217.2 216 215 213.9 212.7 211.6 210.7 209.9 208.6 207.4 205.8 199.2 196.3 196.3 197.1 196.8 196.5 195.8 195.2 194.6 195.8 190.8 190.1 195.5 197.7 197.7 197.9 197.8 198.1 197.8 197.8 198.6 199 199.6 200.2 200.4 200.5 201.5 202.7 203.4 204.7 205.4 204.1 202.6 209.8 209.6 209.5 209.1 208.5 207.4 207.7 207.5 205.1 201.4 202.7 205.1 205.9 206.6 208.3 208.7 208.5 208.8 212 212.1 212.3 213.2 213.9 215.1 217.9 219.6 221 222.7 224.5 225.4 226.9 229.2 230.4 231.9 233 233.6 234 234.3 234.4 234.1 234.6 235.5 236.2 236.7 237 237.1 237.1 236.3 236 236.1 236.5 237 238.5 239.5 240.8 241.5 241.7 241.9 242.2 242.9 244.1 245.7 247.2 249.3 251.9 253 253.9 254.6 255.3 255.8 255.6 255.4 254.7 254.3 253.6 252.8 252.2 251.6 249.2 249.2 249.2 249.2 249.3 250.1 251.3 251.9 253.1 254.9 256.5 258 259.8 262.2 264.6 266.8 269 271.3 272.2 273.3 274.1 274.7 274.5 274.9 275.2 275.7 277.2 278.5 279.4 280.6 285.2 288.6 290.6 291.6 292 291 291.9 293.8 296.2 302.1 311.5 324.6 336.7
224.1 226.4 229.6 232.4 233.1 234 234.3 234.6 235.2 236 236.8 237.3 237 236.7 235.2 233.7 232.6 231.7 230.7 230.6 231.1 232.1 232.1 231.8 231.7 231.3 230.7 230.5 229.3 227.6 225.5 224.2 222 220.4 218.8 217.3 216.1 214.9 213.4 212.2 210.8 209.8 208.4 206.6 204.6 198.3 197 197.2 197.3 197.4 198.1 197.5 199 200 199.1 199.7 198.9 199 199.8 199.5 199.6 200 200.1 200.4 200.1 200.2 200.8 201.6 202.3 203.1 203.5 203.9 204.8 205.5 206.3 208 208.3 204.8 206.9 208.2 208.9 208.6 209.7 209.3 208.8 208.6 207.1 203.6 202.2 204.3 207.1 208.2 208.9 209.9 210.8 208.8 210 214.1 214.6 214.7 215.3 216.5 217.2 219.2 221 223 224.9 226.7 228 229.2 230.2 232 233 233.6 234 234.4 234.7 235 235.4 236.3 237.4 238 238.4 238.6 238.8 238.9 238.9 238.7 238.4 239 239.6 240.8 242.3 242.8 243.3 243.8 244.6 245.5 246.3 248.2 250.2 252.6 254.4 255.6 256.5 256.9 257.5 257.3 257.4 256.9 255.6 254.9 254.3 254 253.2 252 249.2 249.2 249.2 249.2 249.6 250.8 251.9 253.1 254.5 256.1 257.8 259.9 261.9 263.8 265.8 268 270.2 272 273.8 274.9 275.7 276.3 276.6 276.5 276.7 276.4 277.1 278.1 278.6 279.7 281.1 285 289.5 292.5 293.4 292.3 289.4 288.7 290.5 293.8 298.6 308 322.2 333.4
229 231.3 234.1 236 236.6 236.6 236.4 236.3 236.9 237.7 238.1 238.4 238.2 238.1 236.7 235.6 234.7 233.8 233.5 234.3 234.6 234 233.7 233.1 232.6 232 231.1 229.5 227.9 226.4 224.6 223.2 221.6 220.2 218.6 217 215.8 214.6 213.2 212.1 211.4 210.3 209.2 207.7 203.5 197.2 198 198.1 198.1 199.1 201.2 200.9 201.3 202.1 201.1 200.9 200.6 200.7 201.5 201.3 201.6 202.5 202.5 202.8 202.7 203.3 204 204.7 205.5 206.2 206.7 208.1 209.8 210 209.9 211 210.6 207.2 210.1 209.7 209.2 209.1 209.7 210.1 208.6 206.3 204.5 203.2 204.9 206.7 207.3 209.3 209.2 210.4 211.4 209.9 211.1 215.1 216.4 217.1 217.9 218.9 219.9 220.4 223.1 225.1 227.2 229 230 230.9 231.8 232.6 233.2 234.2 234.6 234.9 235.2 235.9 236.9 237.7 238.6 239.3 239.6 239.9 240.5 240.4 240.5 240.3 240.2 240.6 241.1 242.1 243.9 244.6 245.2 246.4 247.5 249.1 250.6 252.7 255.2 256.7 258.1 258.9 259.2 259.6 259.5 259 258.3 257.6 256.7 255.8 254.7 253.6 252.4 251.7 249.2 249.2 249.5 250.3 251.9 252.8 254.2 255.6 257.3 259.5 261.8 263.9 265.9 267.6 269.5 271.3 272.9 274.2 275.6 276.9 278 278.6 278.7 278.5 278 277 276.8 275.6 276 278.1 279.9 283.2 287.6 291.3 292.7 291.2 284 282.6 282.5 285.7 290.3 304 315.6 325.1
234.1 236.1 237.9 238.8 238.7 238.6 238.6 238.4 239.1 239.7 240.2 240.9 241.6 240.9 240.2 239.4 238 237 236.6 236.8 236.5 235.8 235.3 234.3 233.4 232.2 230.8 229 227.2 225.7 224.1 223 221.6 220.2 218.4 216.8 215.3 214.1 212.7 211.9 210.9 209.7 204.9 201.6 198.3 198.5 198.7 198.7 198.9 201.6 202.6 202.9 203.7 203.7 202.7 202.6 202.3 202.8 203.2 203.5 204.2 205.1 205 205.1 205.5 206.4 207.3 208 208.6 209.3 210.3 212.2 213.2 212.3 212 212.7 211.4 207.1 212.5 210.9 209.7 210.2 210.1 209.2 207.2 206 205.7 206.3 207.9 209.1 209.3 210.5 211.1 210.7 211.1 214.4 214 216.7 218.8 219.4 220.5 221.2 222.1 222.4 224.3 227 229.4 231 232 232.9 233.5 233.7 234.3 234.9 235.2 235.4 236.1 236.9 238.2 239.4 240 240.5 240.8 241.1 241.6 241.6 241.6 241.7 241.7 242 242.7 243.7 245.6 246.7 247.9 249.7 251.6 253.5 256 257.5 259 260.3 261.1 261.5 261.5 261.5 260.6 259.9 259.1 258.3 257 255.8 254.5 253.2 251.7 250.3 249.2 249.5 250.9 251.9 253.2 254.7 256.7 258.8 260.9 263.2 265.6 267.4 269.2 270.7 272.3 274 275.7 277.3 278.6 280.2 280.7 281.1 280.8 280.1 278.4 276 270.1 264.3 263.9 266.9 272.8 280.7 283.8 287.4 289.7 289.1 277.1 272.9 275.8 279.4 282.7 294.6 307 315.2
238.4 241 241.6 241.8 241.6 241.2 241.1 240.9 241.8 242.4 243.2 243.7 244.4 244.2 243.2 242 240.8 239.9 239.2 238.4 237.7 236.7 235.9 234.3 232.7 231 229.9 228.6 226.7 225 223.5 222.2 220.7 219.8 218.1 216.7 215.5 214.1 208.6 206.8 211.2 203.5 201.5 199.2 198.7 199.9 199.5 200.2 203.9 204.4 204.1 204.5 205.2 204.6 204.3 204.3 204.1 205.5 205.8 206.3 206.9 207.7 208.2 208.5 209.2 209.9 210.7 211.3 211.9 212.3 213 214.2 214.2 214.1 214.1 213.3 210.7 209.7 212.7 211.8 210.6 211 209.6 209 206.7 207.7 209.5 209.5 209.6 211.2 212 212.1 213.9 215.4 216.7 218 215.6 218.1 220.7 221.5 222.8 223.6 224 225.8 227.6 228.5 230.1 232 233.5 234.3 234.8 235 235.4 235.7 236.2 236.5 237.2 238.1 239.3 240.6 241.2 241.7 242 242.7 243.3 242.7 242.4 242.7 243.4 246.1 247.3 246.6 248 249.5 251.4 254 256.1 258.1 259.7 260.6 261.6 262.5 262.9 263.2 263.3 262.9 262 260.8 260.2 258.6 257 255.2 253.9 252.5 249.3 249.2 249.2 251.3 252.2 253.1 254.6 257.4 260.1 262.6 264.7 266.8 268.7 270.5 272 273.7 275.3 277.3 278.7 280 281.2 282.2 282.6 281.5 280.8 277.5 273 264.4 257.1 255.6 255.7 256.4 257.6 274.9 276.5 279.7 281.1 276.2 266.5 264.8 269.3 272.6 275.2 281.8 295.3 303.6
242.4 244 244.7 244.9 244.6 244.2 244 244.1 244.5 245.1 246.4 246.8 246 245.2 244.1 242.9 241.5 241.1 240 239.3 238.1 236.5 234.6 232.7 230.9 229.3 228 226.6 225.1 223.8 222.4 221.2 219.8 218.9 217.5 216.4 215.1 201.6 202.4 201.4 202.1 201.6 200.6 199.1 201.1 203.1 206.5 205.4 206.6 206.2 205.9 206.7 207 206.8 206.9 206.8 207.3 208.4 208.9 209.4 210 211.1 212 212.3 213 213.6 214 214.6 215.2 216.1 216.7 216.6 216.1 216.3 215.8 213.1 209.4 211.5 212.2 211.5 211.2 211.1 211.5 208.1 208.7 211.1 213.9 213.7 211.9 213.8 214.4 215.2 215.5 218 218.8 218.8 216.3 219.4 221.9 223.5 225.1 226.9 228.3 229.5 230.4 231.2 231.8 232.5 233.8 234.7 235.7 236.1 236.2 236.6 237.1 237.7 239.4 239.9 240.7 241.8 242.2 242.9 243.3 243.6 243.9 243.6 243.8 245 245.6 246.6 247.1 248.4 250.9 253.4 255.6 258.2 259.9 261.1 262.2 263 263.8 264.4 264.7 264.9 264.7 264.1 262.8 261.7 260.4 258.4 256.2 254.3 253 251.5 249.2 249.6 251 252.3 253.4 254.5 256.8 260.4 263.3 265.3 267.4 269.4 271.6 273.2 274.7 276.1 277.6 279.1 280.4 281.8 282.9 283.1 282.3 280.5 275.7 267 258.5 255.5 255.5 257.1 259 259.7 256.5 258.8 259.8 262.5 260.6 257.9 258.3 259.6 261.3 264.4 269.4 275 284.2 292.6
245.3 246.7 247.6 247.8 247.6 247.2 247.5 247.7 248.5 248 248.6 248.3 247.5 246.8 245.9 244.1 242.6 241.6 239.9 238.3 237.1 235.5 233.5 231.3 229.2 227.5 226.5 225 223.4 222.2 220.9 219.7 218.8 217.8 217.2 216.3 202.5 204 203.4 203 202.6 202.8 200.2 203.5 203.8 205.5 208.5 208.5 208.2 207.9 208 209 209.4 209.7 210.4 210.7 211.3 211.8 212.4 213 213.7 214.6 215.6 216.2 216.7 217.3 217.6 218.1 218.6 218.6 218.3 217.3 216.6 215.9 212.8 212.4 213.4 213.3 212.6 211.7 212.9 211.9 214.8 210 211.9 215 216.6 216.4 215.5 217.2 217.9 217.7 216.9 219.1 219.2 217.1 218 221.5 223.8 225.9 227.7 229.5 230.8 231.9 232.5 233.1 233.6 234.3 235.1 235.9 236.6 237.2 237.6 237.9 239 239.1 240.8 241.4 241.9 242.9 243.4 243.9 244.3 244.4 244.8 246.2 247.1 247.4 247.6 248.4 249.1 252.8 254.6 256.8 259.3 260.7 261.9 262.9 264 264.7 265.4 266.3 266.6 266.5 266 264.8 263.4 261.4 259.3 256.9 254.1 253 251.7 249.2 249.2 251 252.4 253.3 254.9 257.8 260.7 263.2 265.6 268 269.8 271.6 273.1 274.8 276.2 277.6 278.7 280 281.2 282.4 283.1 282.4 280 274.3 265.4 255.5 255.5 256.5 261.9 265.5 268.3 269.4 263.7 257.3 256.8 257.3 257.3 257.5 258 257.5 257.4 257.4 261.6 270 280.1 288
249.1 249.1 249.8 250.4 250.5 251 251.5 252 251.5 251 250.3 250.1 248.6 247 246 245.1 243 242.1 240.4 238.7 236.1 234.6 232.3 230.6 229.1 228 225.7 223.9 222.8 221.6 220.1 219 218 217 215.3 207.4 202.8 203.8 204 203.6 205.4 206.6 207.1 206.6 206.2 208.3 210.2 210.3 210.1 210.3 211 211.5 211.9 213.3 213.9 214.4 214.6 214.9 215.8 216.7 217.4 218.1 220.5 220.2 220.7 221.2 221.3 221 221 220 218.8 216.7 215.1 214.5 216.5 216.9 215.5 214.6 213.9 214.2 213.4 214.8 215 211.6 216.1 218.5 219.5 219.7 219.1 220.2 220.4 220 219.3 218.8 218.7 220.4 222 223.3 226 228.3 230.2 232 233.3 234.3 234.8 235.1 235.3 235.9 236.6 237.3 238 238.8 239.5 239.7 241.6 241.3 242.9 243.4 243.2 244.2 244.8 245.2 245.4 245.5 246.2 249.2 248.7 248.1 249.7 251.4 254.2 256.6 257.9 259.8 261.2 262.4 263.4 264.4 265.7 266.7 267.6 268.1 268.5 267.6 266.6 264.9 262.6 260.4 258.2 255.8 255.5 255.5 256.6 252.1 251 252.4 253.5 255 257.7 260.3 262.5 265 267.2 269 270.4 271.7 273.1 274.7 275.7 276.7 277.9 278.8 280.9 282 281.3 279.1 274.5 267.3 255.5 255.5 258.3 264.6 268.1 271 273.7 275 274.1 267.3 260.1 257.7 258.1 258.2 258.7 259.7 258 256.5 257.4 267.1 276 284.5
250.3 251.3 253.3 253.9 254.4 255 255.3 255.1 254.4 253.4 252.1 250.8 249.2 245.3 245.5 246.1 243.5 242.1 240.2 238.3 236.7 235 233.2 231.5 230 228.4 226.8 224.9 223.5 222.3 221.3 220.1 217.9 212 207.9 206.7 203.6 205.4 204.7 207.6 207.9 208.5 210.8 210.3 211 211.6 212.4 212.7 213.4 213.4 214.1 214.6 215.3 216.2 217.2 218.2 218.6 219.1 219.6 220.4 221.5 223.5 224.1 223.4 223.7 224 224.3 223.4 222.3 221.5 220.3 218 215.3 218.6 218.7 217.6 216.1 216 216.2 216.1 213.8 217.7 213.3 216.2 219.5 221.2 221.5 221.4 221 222.2 222.2 221.6 222.3 222.7 223 224.1 225.8 226.3 227.8 230.7 233.6 234.9 235.9 236.7 236.9 237 237.2 237.5 238.2 238.7 239.3 240.4 241.3 241.7 242.3 243.4 245 245.7 244.9 245.7 246.4 246.8 246.9 247.1 247.3 250 250.7 251.3 253.2 255.5 257.4 259.1 260.3 261.2 262.5 263.5 264.7 265.8 267.2 268.6 269.6 270 269.3 268 266.4 264.2 261.8 259.2 256.8 255.5 255.5 255.5 255.5 255.5 255.5 256.1 254.4 256.6 258.3 260.7 263.4 265.3 267 268.5 269.8 271 272.2 273.1 274.1 275 276.4 277.8 279.5 279.2 276.3 274.1 267.8 260.7 255.5 256 263 268.3 270.9 274.2 278.9 282.6 285.6 281.8 276.5 270.5 274.8 276.2 274.7 274.6 270.9 258 255.8 264.7 272.9 278.6
250.9 253.3 255.2 256.3 256.9 257.9 258.2 257.7 256.6 255.1 253.2 251.3 249.7 245.3 245.4 245.5 243.8 242.2 240.5 238.3 236.5 234.4 232.8 231.4 229.6 228 226.5 225.1 223.9 222.5 221.2 220.1 219.3 208.3 207.1 205.6 207.2 210.1 210.9 211.5 212.9 212.1 213.7 214.6 214.9 215.2 215.2 215.8 216.5 217.9 219 219.2 219.8 220.5 222 223.2 223.6 224 224.6 224.7 224.7 225.3 225.3 224.6 225.4 225.3 225 224.3 223.2 222.4 221.7 219.2 215.8 219.4 220.1 218.8 216.8 218.1 218.2 216.2 217.2 220.3 214.7 221.3 222.6 223 222.7 222.3 223.2 223.8 224.1 223.8 224.8 226.2 226.7 227.6 228.8 229.1 230 232.2 237.2 238.5 238 238.5 238.7 238.9 239.1 239.7 240.1 240.4 241.9 243 243.9 244.1 244.6 245.5 246.3 247.2 246.9 247.3 247.9 248.3 248.5 248.9 249.2 250 252.1 254.2 256.3 258.2 259.6 260.4 260.9 261.7 262.8 264.5 265.7 267.2 269 270.4 270.9 270.1 269 267.6 265.5 262.9 260.1 257.3 255.6 255.5 255.5 255.5 255.5 255.5 255.5 255.5 255.5 257 259 260.7 262.8 264.4 265.9 267.5 268.3 269.1 269.8 270.5 271.2 271.5 272.1 272.5 275.9 270.3 269.5 267.1 260.1 255.5 255.5 260.3 266.3 269.7 273.4 278.4 286.3 290.3 296.9 300.8 302.4 303.9 307.3 304.4 293.6 289.6 281 268.9 257.5 260.1 267 275.5
254.7 256.5 257.7 258.8 259.8 260.3 260.6 259.7 258.2 256.1 254.3 251.9 249.9 248.1 246.7 245.3 244.1 242.3 240.5 238.4 236.8 234.7 233.1 231.6 230.2 228.7 227.2 225.9 224.7 223.6 222.4 220.9 214.6 208 207.5 207.2 217.1 211.7 215.8 215.8 216.1 216 216.2 217.1 217.9 219.5 219.1 220 221.1 222.3 223.1 223.9 224.6 225.2 226.5 227.4 227.7 227.8 227.7 227.4 227.2 226.9 226.8 225.3 225.9 225.7 225.1 224.3 223.6 222.7 221.8 219.2 218.9 221 220.8 219.3 218 219.9 218 216.8 221.4 219.9 219.6 224.8 224 225 224.8 224.3 225.1 226.1 226.7 226.2 227.5 228.9 230.1 230.7 231.4 232.2 233 234.8 238 239.3 239.9 240.2 240.7 241 241.4 242.4 242.8 243.9 245 245.6 246.5 246.6 246.8 247.8 248.1 248.7 248.9 249 249.5 249.9 250.2 250.6 251.2 252.8 255.4 257.4 258.9 259.8 260.7 261 261.5 262.2 263.2 264.8 266.6 268.6 270.4 271.5 271.2 269.2 267.7 266.8 264.2 261.3 258.4 255.4 255.5 255.5 255.5 255.5 255.5 255.5 255.5 255.5 255.5 256.8 258.8 260.4 261.8 262.8 263.9 264.6 265.2 265.5 265.1 265 264.7 265 265.9 266.2 265.8 264.9 262.8 258 255.5 255.5 259.2 265.2 271.2 276.1 280.7 290.1 302.7 314.1 323.9 329.8 333.3 335.1 333.8 323.9 310.7 292.8 283.4 274.1 261.4 254.7 262 268.1
258.1 259.9 261.1 262.4 263.3 263.6 263.4 261.9 259.9 258.1 256.2 253.4 251 249.1 247.4 246.1 244.9 243.1 240.8 238.8 236.9 235.2 233.5 231.9 230.4 228.9 227.8 226.3 224.7 223.1 220.4 215.8 210.8 208.6 206.5 220.1 219.9 217.4 217.9 218.4 218.3 218.7 218.9 220.2 221.6 222.9 224.1 225.1 225.6 227 227.7 228.6 229.3 229.9 230.5 230.5 230.6 230.5 230.3 229.7 228.6 228.2 227.6 226.2 225.1 225.7 225 224.5 223.8 223.1 220.7 219.7 222.8 222.9 222.8 220.8 219.4 219.6 217.6 222.1 224.7 219.6 224.7 226.3 226.1 226.9 228.8 226.6 228.6 230 230.1 229.6 231.2 232.1 232.8 233.5 234.5 235.9 237 238.7 239.6 241.9 242.8 243.1 243.3 243.7 244.5 245.5 246.4 247.6 248.2 248.5 248.9 249 249.2 249.8 250 250.3 250.7 251 251.4 251.8 252.5 253.2 254.6 257.1 258.9 259.5 260.2 260.9 261.1 261.3 261.6 262.4 263.3 265.2 267.2 269 270.6 271.4 271.2 269.8 267.3 264.5 262.4 259.8 257.6 255.5 255.5 255.5 255.5 255.5 255.5 255.5 255.5 255.5 255.5 255.8 257.6 258.9 259.5 260.2 260.4 261 260.4 259.8 258.7 258.7 257.9 258.8 259.6 259.9 259.1 257.6 255.5 255.5 258.7 264.4 268 272.6 283.3 296.2 308 319.1 327.6 335.8 344.1 349.7 351.9 351 345.6 331.3 313.7 298.3 285.7 275.1 262 251.8 254.2 263.5
261 261.9 263.7 264.9 265.9 266.3 266.1 264.2 262.3 259.9 257.8 255.7 253.7 251.9 250.2 247.6 246.5 244 241.6 239.4 237.3 235.5 233.8 232.3 230.9 229.5 227.8 226.2 224.4 223.2 222.9 216.2 209.6 207.9 213.4 221.1 220.5 219.8 219.4 219.9 220.5 221 222.3 224.1 225.8 227 228.2 229.5 230.4 231.5 232.3 233.1 233.6 233.7 233.9 233.4 232.8 232.3 231.7 230.5 229 227 225.2 224.7 223.8 223.6 222.8 222.9 221.7 220.9 220.7 222.9 224.3 225.4 226.1 225.8 220.7 219.7 221.9 226.6 223.5 223.5 226.9 227.9 227.9 229.8 233.4 230.5 233.1 233.6 232.5 233.2 234.3 234.8 235.7 237 238.5 240.2 241.2 242.7 242.4 244 245.3 246.3 246.5 247.1 248.3 249.5 250.2 251 251.3 251.6 251.2 251.3 251.4 251.7 252 252 252.7 253.1 253.6 254.4 255.2 256.6 258.5 260 260.5 260.6 260.8 261.1 261.4 261.7 261.9 262.2 263.8 265.8 267.7 269.5 270.8 271.1 270.6 269.5 267 263.7 260.3 257.8 255.9 255.5 255.5 255.5 255.5 255.5 255.5 255.5 255.5 255.5 255.5 255.5 255.7 256.2 256.5 257.1 256.9 257.4 256.4 255.5 255.5 255.5 255.5 255.5 255.5 255.5 255.5 255.5 257.1 261.9 267.8 273 282.7 299 314.6 328.6 341.4 350.1 353.2 354.8 358.5 360.8 360.6 357.3 350.9 335.8 317.7 301.9 289.3 275 262.1 251.5 249.6 257.5
262.7 263.6 265.2 267.4 269 269.9 269 267 264.8 262.8 260.6 258.3 256.2 254.4 252.5 250.3 247.6 244.8 242.1 239.7 237.7 235.9 234.2 232.7 231.3 230.1 229 227.8 226.9 225.7 215.7 210.7 207.2 211.5 222.3 223 222.5 221.8 221 221.4 222.7 224.3 226.3 228.4 230.5 232.3 232.7 233.7 234.9 235.7 236.2 236.8 236.7 236.7 235.9 235 234.2 233.6 233 230.2 226.6 225.9 227.6 226.7 225.4 224.6 224.4 223.9 224.2 224.3 225.2 227.1 229 229.6 230.1 230.4 227.7 226.2 227.3 227.8 220.8 226.8 230.6 231 230.5 232 235.1 237.1 234.5 235 235.8 236.5 237.2 238 239.2 241.1 242.6 243.9 244.5 245.9 245.7 243.6 248.2 249.4 249.9 251.1 252.3 253.3 253.7 253.9 254.3 254.1 253.7 253.5 253.5 253.7 253.9 253.9 254.6 255.8 257.1 258.1 258.7 260.1 261 261.5 261 261.1 261.1 261.4 261.8 262.4 262.5 262.4 264.5 266.5 268.4 270.1 270.7 270.7 269.5 267.9 265.1 261.9 259.2 256 255.5 255.5 255.5 255.5 255.5 255.5 255.5 255.5 255.5 255.5 255.5 255.5 255.5 255.5 255.5 255.5 255.5 255.5 255.5 255.5 255.5 255.5 255.6 255.5 255.5 256.9 259.5 263.7 267 271.7 278.4 292.1 310.7 330 345.3 356.7 366.5 371.3 371.9 369.8 369.7 370.4 368.1 364.4 358.1 342.1 321 303.8 292.6 278.3 264.3 254.4 249.2 249.7
265 265.7 268.5 272.1 274.1 274.3 271.8 269.3 267.2 264.9 262.8 260.4 258.3 255.8 253.7 251.1 248.6 245.6 242.9 240.6 238.5 236.5 234.7 233.2 232.1 231 230 228.8 228.1 216.6 211.8 210.3 209.4 217.1 223.7 224.3 223.3 222.7 222.8 223.6 225.6 228 230.1 232.4 234.5 236.3 236.9 237.9 238.6 239 239.3 239 238.8 237.9 237.2 236.2 235.3 234.4 232.5 227.1 228.3 229.2 229.2 228.3 227.3 227 227.2 227 227.3 228.1 228.7 231 232.4 233 233 232.4 231.5 230.7 229.8 225.2 222 229.7 232.9 233.8 233.5 235.4 237.2 237.7 237.3 238.1 239.3 240 241.2 242.5 244.2 245.4 246.8 248.1 248.4 245.9 246 245.8 251.6 253.8 255.2 255.8 256.6 256.4 256.2 256.4 256.5 256.2 256 255.8 256 256.7 257.8 259 260.3 261.1 261.3 261.8 261.9 262.4 261.9 261.4 260.9 261.4 261.9 262.3 262.7 262.9 262.4 263.1 265.1 267.3 269.1 270.6 270.6 269.9 268.2 266.2 263.1 260 257.4 255.5 255.5 255.5 255.5 255.5 255.5 255.5 255.5 255.5 255.5 255.5 255.5 255.5 255.5 255.5 255.5 255.5 255.5 255.5 255.5 255.5 257.6 258.1 259.6 263.7 268 269.2 272.3 274 277.9 286.6 301.4 320.2 341.5 357.1 370.2 381.6 390.4 393.8 391.2 387.3 383 380.6 376.8 371.6 364.7 349.6 325.3 308.6 295.6 283.2 270.7 258.1 249.2 248.3
267.9 268.8 274.6 277.8 277.6 276.2 274 271.4 268.8 266.2 263.4 260.8 258.7 256.7 254.5 251.9 249.4 246.5 244.3 242 239.8 237.6 235.6 234.3 233.1 232.1 228.9 216.5 213 209.6 210.6 210.2 214.9 223.7 225.4 224.9 224.3 224.3 225 226.4 228.2 230.8 233.6 236.1 238.3 239.8 240.3 240.8 241.3 240.8 240.4 240.2 239.1 238.1 236.8 235.7 234.7 233.9 230 227.2 231.6 231.2 230.5 229.7 229.7 230.1 230.6 230.9 231 231.6 232.3 233.3 233.6 233.6 233.1 232.5 231.9 231.1 229.2 224.4 223.9 232.8 234.9 235.8 236.6 238.4 238.8 240.8 240.1 241.5 242.8 244 245.3 247 248.1 249.8 251 252.2 253.4 251.4 249.9 253.2 257.5 258.9 259.2 259.5 259.1 258.8 258.8 258.9 258.6 258.4 258.8 259.5 261.2 263.1 264.3 264.9 265.2 264.9 264.4 263.7 263 262.5 261.3 260.9 260.7 261.2 262.2 262 262.2 262.1 262.1 263.7 265.8 267.9 269.7 270.5 270 268.8 267 264.4 261.2 258.3 255.9 255.5 255.5 255.5 255.5 255.5 255.5 255.5 255.5 255.5 255.5 255.5 255.5 255.5 255.5 255.7 255.6 255.4 255.6 255.8 256.7 259.8 262.2 263.6 267.1 273.7 278.8 281.6 282.2 286.5 295.8 309.8 329.3 351.1 366.5 380.3 394.5 406.6 410.4 409.6 406.5 402 396.5 391.3 385.5 378.9 371.3 353.4 329.2 312.8 300.5 287.9 275.3 263.9 253.5 248.6
272.9 277.4 281.5 280.9 279.5 277 274.2 271.8 269.5 267.1 263.8 261.2 258.7 257 254.7 252.5 250.2 248 245.7 243.3 241.1 238.9 237 235.6 234.2 233.2 223.7 214.9 212 212.6 211.8 213.1 221.3 226 226.7 226.3 225.9 226.4 227.3 228.5 230.8 233.5 236.4 239.2 241.6 242.5 242.8 242.9 242.6 241.8 240.7 239.5 238.4 237.1 236.4 235.3 234 230.7 228.2 234 234.2 233 232.2 231.7 232.8 233.3 234.4 234.6 234.7 235 235.2 235.1 235 234.4 233.7 232.8 232 230.2 225.8 228.8 227.8 235.7 236.7 238.2 239.4 240 240.5 241.9 244.4 245.5 247.1 247.9 248.8 250.2 251.7 253.8 255.2 257 258.4 260 260.6 261.4 262.4 262.6 262.1 262 261.7 261.7 261.6 261.3 261.6 262.2 264.2 266.1 267.7 268.7 268.9 268.4 267.4 265.9 265 263.8 262.6 261.2 260.7 260.4 260.8 261.8 261.7 261.5 261.5 261.2 261.7 263.9 266.3 268.3 269.5 270.1 268.8 267.6 265.5 263 259.9 256.9 255.5 255.5 255.5 255.5 255.5 255.5 255.5 255.5 255.5 255.5 255.5 255.5 255.5 255.2 256.8 258.1 258.1 257.7 258.7 259.7 262 265.6 271.2 274.7 278.2 283.4 288.2 290.6 296.4 303.9 315.9 335.6 356.3 371.9 387 401.6 413.4 420.7 421.8 420.3 416.3 411.6 406.3 400.1 393.1 387.2 378.1 356.7 333.3 316.1 303.5 290.7 278.8 266.4 254.6 247.9
280.2 283.4 284.9 284.3 282.3 279.2 276.9 274.1 271.4 268.9 266.8 264.4 262.4 259.9 257.1 254.3 251.5 248.8 246.8 244.7 242.4 240.3 238.5 237 235.5 227.3 219.1 214.7 213.8 215 214.7 220.6 226.7 227.2 227.7 227.7 228 228.5 229.7 231.4 233.4 235.6 238.2 240.8 243.4 244.6 244.9 244.1 242.8 241.4 240.1 239.2 238.3 236.3 236.2 234.3 230.6 232.9 229.6 234.7 235.6 234.6 233.7 234.6 235.2 235.6 236.3 236.8 236.8 236.3 236.8 236.6 236.1 235.4 234.8 233.9 232.2 227.6 231.7 233.7 228.7 236.6 238.2 240 241 241.7 242.6 244.3 246.8 248.6 249.9 250.8 252.1 253.1 255.9 257.8 260.2 262.5 264.3 265.5 266.1 266.4 266.1 265.5 265 264.8 264.8 264.7 265.1 265.4 266.2 267.7 269.5 270.8 271.3 271.4 270.9 269.4 267.6 265.7 264 262.4 260.9 260 260 260.4 261 261.9 261.2 260.7 260.5 261.2 262.2 264.1 266 267.6 268.4 268.4 267.3 265.5 263.5 261 258.3 255.5 255.5 255.5 255.5 255.5 255.5 255.5 255.5 255.5 255.5 255.5 255.5 255.5 255.7 257.7 258.9 259.8 260 261.6 264 267.6 271.4 275.8 280.2 284.5 289.3 294.2 298.6 301.8 310.4 322.3 338 356.3 371.5 384.1 398.8 413.9 424.7 429.6 430.6 428.9 424.8 420.1 414.6 407.6 398.7 389.6 379.1 357.2 335 318.6 308.1 296.5 283.8 270.7 257.1 248
287.2 290.1 289.7 288.3 285.7 283.1 280.6 277.9 275 271.9 269.2 266.6 263.6 260.4 257.6 255.1 252.4 249.5 246.9 245.2 243.5 241.5 239.5 237.9 236.6 226.2 218.1 216.2 212.9 218.2 219.7 225.7 228.8 228.8 229.2 229.5 229.7 231 232.4 233.8 235.4 237.5 239.3 241.6 243.7 244.6 244.7 244.1 242.9 241.3 239.9 239 238.2 237.2 235.1 231.9 236.3 238.3 233.1 235.7 236.8 236.1 235.5 236.7 236.5 236.7 237 237.1 235.4 232.8 234.4 236.5 236.5 236.3 235.1 232.3 229.1 232.4 237.6 232.5 235.7 238 239.8 241.4 242.8 244.2 245.6 247.4 247 250.2 252.2 253.2 254.9 256.7 259.8 263.7 266.5 268.8 270.4 270.5 269.9 269 268.5 268.1 267.8 268.3 268.2 268.8 269.3 269.8 270.6 271.8 272.9 273.1 273.2 272 270.3 268.3 265.8 263.8 262 260.5 259.2 259.2 260 260.7 261 260.7 260 259.8 260.1 261 262.4 264 264.8 265.8 266.4 266.2 264.9 263.2 261 258.3 255.5 255.5 255.5 255.5 255.5 255.5 255.5 255.5 255.5 255.5 255.5 255.5 255.5 256 258 259.5 260.9 262.6 265.6 268.4 271 275.3 279.7 284.5 289.1 293.6 297.4 301.8 307.6 315.5 326.1 341 357.7 371.9 383.6 394.5 409.4 424.4 433.5 437.8 438.6 436.4 432.6 428.1 421.7 413.8 405 394 379.7 356.5 334.6 320.2 311.5 300.7 287.8 277.3 260.1 247.8
295.7 296.1 291.9 291 288.1 285.1 282.1 278.6 275.8 272.1 269 265.1 261.3 258.6 255.7 253 250.3 248.6 246.7 244.9 243.1 241.8 240.4 238.5 235.9 226 218.6 216.5 215.2 222.3 224.1 230.5 231.2 231.1 231.2 231.5 232 233.3 234.7 235.9 237.1 238.2 240 241.5 243.2 243.6 243.3 242.7 242.1 241 239.7 238.6 237.2 235.6 234.1 237.2 239.6 239.2 233.3 236.7 238.2 237.5 237.1 237.5 237.6 236.1 235.9 235.2 235.3 234.6 232 231.7 233.3 233.2 231 230 233.8 238.5 240.1 231.4 238.6 240.5 242.2 243.9 245.5 246.9 248.3 249.5 248.1 251.8 254.7 256.2 258.7 262 265.6 269.2 271.9 273.1 273.3 273.2 272.5 271.6 270.8 270.7 271.3 271.7 271.8 272.2 272.6 272.8 273 272.8 273 272.9 272.1 270.4 268.2 266 263.7 261.6 260.2 258.8 258.1 258.5 258.9 259.1 259.1 259.1 259 259 259.7 260.9 262.2 262.8 263.7 264.3 264.1 263.2 261.9 260.1 258 256.1 255.5 255.5 255.5 255.5 255.5 255.5 255.5 255.5 255.5 255.5 255.5 255.5 257 258.3 260.8 262.5 264.9 267.8 271.1 275 278.3 282.3 286.3 291.6 296.2 300.1 305.3 310 318.2 329.1 343.1 359.7 373 384.1 393.7 405.7 421.1 436.5 445.5 449.1 449.1 446.4 441.2 435.4 427.8 419.7 410.2 397 379.1 354.6 334.8 320.8 310.6 300.7 285.9 273.2 254.9 247.8
302.7 299.6 296.1 292.5 289 285.6 282.2 278 274.2 270.1 266.2 262.3 258.5 255.6 252.9 250.3 247.9 246.4 245.1 243.9 242.6 241.2 239.6 237.7 233.4 221.8 216.5 216.7 226.7 232.1 234.7 234.8 233.9 233.3 233.5 233.6 234.4 235.8 236.7 237.9 239.1 240.1 241.1 240.8 241.5 242.1 240.9 240.7 239.9 238 236.7 235.3 234.5 235.9 238.2 239.5 239.9 238.7 234.2 237.9 239.5 239.4 238.9 238.5 238.7 237.2 237 237.5 236.3 236.6 237.5 232.6 230.8 231.3 232.8 237.7 237.3 240.2 239.2 237.9 241.5 243 244.6 246.3 248 249.3 250.3 251.4 250 250.7 256.7 259.3 262.1 265.9 269.7 272.8 274.3 274.8 275 274.9 274.9 274.4 274.2 274.1 274.7 274.9 275 274.8 274.4 273.6 273 272.2 271.6 270.7 269.5 267.8 265.6 263.4 261.3 259.2 258.1 257.3 257.1 257.4 257.5 258.1 258.2 257.8 258.1 258.6 259.5 260.7 261.7 262.2 262.8 262.8 261.9 260 258.5 256.6 255.6 255.5 255.5 255.5 255.5 255.5 255.5 255.5 255.5 255.5 255.5 255.5 257.4 263.1 261.7 262.6 265.7 268 271.1 274.4 278.3 282 285.7 288.8 292.9 297.7 302 308.3 314.1 321.6 332.9 346 358.8 374 384.4 394.3 405 417.7 433.7 447.3 456.1 459 458.4 454.7 448.6 439.9 431.4 422 411.1 396.5 375.5 351.1 332.8 321.2 309.2 298.5 285.1 267.3 255.6 248.6
306.1 302 298 294.3 289.9 285.9 281.5 276.9 272.3 267.6 263.3 259.2 255.8 252.4 249.9 247.4 245.9 244.4 243.1 241.8 239.5 237.6 235.8 230.6 224.6 225.8 218.9 215.7 221.1 231.4 237.4 237 236.3 235.2 235.4 236.2 236.8 237.9 238.7 240 241.2 242.5 243.7 243.4 242.7 240.5 240.6 240.2 238.8 239.3 240.1 239.2 239.6 240.3 240.3 240.6 240.6 238.4 235.9 239.2 240.6 240.4 239.8 239.5 239.5 239.4 239 237.6 238.5 240.3 240.4 240 239.9 239.3 238.2 240.9 240.3 240.2 234.2 241.6 243.5 244.7 246.2 248.2 250 251 251.6 251 251.4 253.6 258.2 260.9 264 268.1 271.7 274.2 275.5 276.1 277 277.2 277.2 277.2 277.1 276.7 276.5 276.3 275.9 274.9 273.8 272.4 271.3 269.9 268.6 267.4 266.2 264.5 263 260.8 259 257.4 256.7 256.2 256.4 256.5 256.9 257.5 257.8 257.3 257.7 258.3 259.3 260.4 261.4 262 262.2 262.3 260.6 256.6 255.4 255.5 255.5 255.5 255.5 255.5 255.5 255.5 255.5 255.5 255.5 255.6 256.3 258.5 262 265 266.2 267.3 268.6 272.8 277.3 280.2 284.3 287.7 290.7 295.3 299.6 304.8 312.6 320 326.9 338.2 351.7 364.2 376.1 386.6 396.7 406.5 417.2 430.1 443.7 457 465.7 467.9 466.9 462.2 454.9 445.5 435.1 422.7 409.5 391.5 368.4 347.2 331.6 319.5 309.9 298.3 287.9 274.4 265.3 254.1
309.6 305.1 300.7 295.8 291.1 285.3 280.3 275.1 270.1 265.4 261.1 257.6 254.3 251.2 248.4 245.9 244.1 242.9 241.2 239.5 239.9 238.9 238.1 237.2 236.4 230.7 223.8 218.4 219.2 217.1 223.3 235.5 237.9 237.5 237.5 238.3 238.7 239.7 241 242.1 243.2 244.3 244.2 244.3 244 244 243.9 243.8 243.6 243.2 242.4 241.8 242.2 242 241.7 241.4 239.6 236.9 238.6 240.5 241.3 241.3 241 240.9 240.3 239.8 239.9 240 241.2 241.9 242 242.5 242.1 240 241.1 242.3 242.1 240.8 237.6 243.8 245.9 247.2 248.3 249.7 251.5 252.3 252.2 253.9 255.5 258 260.8 263.2 265.8 269.1 272.4 274.9 276.2 277.3 278.4 279.1 279.2 278.6 277.9 277.4 276.6 275.7 274.8 273.3 271.6 270 268.6 267.1 265.9 264.7 263.4 261.8 260.2 258.7 257.3 256.4 256 255.6 255.9 256.1 256.3 256.1 256.1 256.1 257 258 259.1 260.1 261.1 261.4 261.5 261.6 259.2 256.1 255.4 255.5 255.5 255.5 255.5 255.5 255.5 255.5 255.7 255.9 257.4 259.5 261.8 260.8 266 268.6 270.6 272.2 275.1 277.9 281.8 285.1 288.3 292.4 296.7 301.8 306.7 315.1 324.7 334 344.8 355.8 368.2 379.5 390.1 399.7 409.6 420.3 431.5 443.3 455 466.3 473.9 476.4 474.4 468.7 458.8 447 434.3 419.9 403.3 382.6 358.8 339.5 329.8 319.6 311.6 303.2 296.3 289.5 280 268.8
312.2 307.2 301.7 296.3 290.3 284.4 278.3 272.6 267.5 262.9 259.3 256.2 253.7 250.6 248.1 246.7 245.7 244.4 243.2 243.4 243.1 241.9 240.9 239.5 238.5 234.7 223.4 228.2 222.4 221.6 221.3 225.2 237.4 238.8 239.4 240.1 240.6 240.9 242.7 243.9 244.9 244.6 244.2 244.4 244.6 244.5 244.5 244.2 244.2 243.6 243.3 242.9 242.6 242.4 242.2 240.8 237 239.6 240.3 241.2 241.8 242.3 242.3 242.3 241.6 241.4 242.1 242.2 242.6 242.7 242.2 241.9 241.8 242 242.1 241.7 241.1 237 243.1 245.9 247.7 249.6 250.9 251.4 252.5 253 253.5 256.1 258 260.2 262.4 264.8 267.4 270 272.9 274.7 276.4 278.3 279.4 279.8 279.3 278.5 277.6 276.1 275.1 274.1 272.8 271 269.2 267.4 265.9 264.6 263.4 262.2 260.9 259.4 257.9 257 256.4 255.9 255.5 255.5 255.5 255.6 254.3 254.8 255.5 255.7 256.3 257.8 258.9 259.9 260.8 261 260.1 258.4 256.8 255.4 255.4 256.1 255.5 255.5 255.5 255.5 256.2 257.1 258.1 258.3 262 264.2 266.5 265.6 269.2 272.8 274.8 277.9 280.3 282 286.2 289.6 293.4 298.6 303.7 309.8 315.8 325.3 335.8 346.9 358.7 369.5 382 394.2 405.7 415.4 424.4 436.2 446.1 455.2 464.4 472.8 480.3 482.6 479.1 470.6 457.8 443.4 427.5 409.9 391.3 370.9 348.3 334.8 326.5 319.7 314.7 308.8 304.9 299.1 287.9 274.6
313.9 307.5 301.2 294.9 288.7 282 275.8 270.1 265.1 261 257.8 255.3 253.2 251.7 250.6 249.5 248.3 247.1 246.2 246.3 245.8 244.4 242.9 241.6 240.5 238.4 233.9 235.3 229.7 223.7 220 222.8 230.9 240.4 241.3 241.5 242.8 242.1 243.7 245.5 245.6 245.5 245.1 244.6 244.3 243.5 242.6 242.4 242 242.4 243.2 243.2 243 242.5 240.2 237.8 240.4 241.4 242.2 242.8 242.8 242.8 242.8 242.9 242.4 241.5 242.3 242.4 242.4 242.2 241.9 242.6 243.6 244.1 244.3 244 243.9 239.8 245.7 247.8 249.4 250.7 252.4 252.9 253.4 254.3 255.1 257.7 259.7 261.9 264 266.4 268.9 271.3 273.1 274.8 276.4 278 279.5 279.1 278.4 277.5 276.1 274.6 273.6 272.1 270.5 268.7 266.8 265.1 263.6 262.3 261.1 260.1 259 257.6 256.5 256 255.5 255.5 255.5 255.5 255.5 255.5 255.5 255.5 255.5 255.5 256.2 257.6 258.8 259.7 260.4 259.7 257.3 255.4 255.4 255.4 255.4 255.4 255.8 256.4 256.3 258 260.7 261.8 262.8 263.2 267.4 269.6 271.6 272.9 271.8 275.9 279.1 282.3 284.6 286.3 289.5 293.8 298.9 304.1 309.9 315.9 323.6 335.5 346.8 358.3 370.6 383.1 397.1 409.6 422 432.4 441.3 448.8 457.2 465.4 472.9 478.7 483.9 485 480.8 469.2 453.4 435.8 415.9 397.1 377.6 358.5 339.9 331 324.3 318.9 312.4 306.4 302.3 286.3 279.1 282.1
314.5 307.1 299.4 293.1 286.3 279.4 273.2 267.6 263.8 260.6 257.7 255.3 254.7 253.9 252.6 250.9 249.9 248.9 248.2 248.3 247.8 246.6 245.3 243.8 242.1 233.9 240.3 240.5 238.1 235.9 222.8 220.9 226.8 238.7 243.3 244 244.1 244.1 243.8 244.2 245.1 245.1 244.4 243.7 243.7 244.6 244.8 244.5 243.3 241.7 240.9 241.7 241.6 240.5 240.1 242.1 242.5 243.1 243.9 244.3 244 243.5 243.2 242.9 242.6 242.4 242.9 243.3 243.4 243.4 243.9 244.4 245.2 246.4 247 247.1 247.1 244.1 247.3 250.2 251.3 251.5 252.9 254.2 254.3 254.7 256.9 259.2 261.3 263.5 265.6 267.8 270 271.8 273.4 274.8 276 277.1 278.2 278 277 275.7 274.3 272.9 271.4 269.9 268.3 266.6 264.5 263.1 261.6 260.3 259.2 258.4 257.5 256.5 255.7 255.2 255.5 255.8 255.5 255.5 255.5 255.5 255.5 255.5 255.5 255.5 254.8 256.7 258.5 258.5 257.9 256.4 255.4 255.4 255.4 255.4 257.8 259.7 260.1 260.2 260.9 263.4 266.1 267.4 268.5 269.3 269.4 273.2 275 276.3 273.2 278.6 282 284.8 287.2 289.7 292.6 297.1 302.8 308.2 313.7 321.1 331.7 343.8 356.3 369.2 382.7 397.3 412.1 426.8 439.9 448.9 456 459.7 467.3 475.7 483 486 487.7 485.8 477.3 462.8 445.4 424.9 403.7 384.4 365.8 347.6 337.1 328.5 321.2 315.9 304.4 301.8 299.8 297.2 293.7 288.1
312.9 305.7 297.8 290.9 284.1 277.4 271.8 266.3 262.9 260.3 257.9 256.9 255.9 255 253.7 252.4 251.4 250.4 249.7 249 248 247.3 246 244.1 240.1 241.5 242.7 242.7 242 240.9 231.5 224.5 223.3 226.7 244.4 245.4 246.1 247.2 247.3 246.3 244.5 244.7 244.8 245.5 246.8 246.6 246.2 245.8 245.3 243.8 242.6 241.3 241 242.3 244 244.4 243.8 244.4 244.7 244.8 244.2 243.6 243.8 243.5 243.4 243.9 244.4 244.9 245.1 245.1 245.7 246.3 248.7 249.8 250 250.1 249.9 247 248.8 251.8 252.7 253.1 253.8 255.2 255.2 255.5 258.3 260.8 262.9 265.1 266.8 268.7 270.6 272 273.1 274.1 275.1 276.3 276.8 276.3 275.2 273.9 272.3 270.8 269.3 267.8 266.3 264.7 263 261.3 259.6 258.4 257.4 256.6 255.9 255.9 255.5 255.3 253.9 255.5 255.5 255.5 255.5 255.5 255.5 255.5 255.5 255.5 255.4 255.4 255.4 255.5 255.4 255.4 255.4 255.7 255.6 256.1 260.7 264.6 265.1 266.1 267.1 269.2 271.1 272.4 272.7 273.5 271.9 276.5 278.3 279.6 280.7 281.4 284.1 286.7 289.5 292 295.9 301.8 307 312.8 319.3 326.3 337.6 351.2 365.9 380.3 394.7 409.8 426 441.5 452.8 461.1 468 473 475.8 483.9 489.4 491.4 489.6 483.1 471 455 436 413.1 393.4 374 356.1 342.2 333.1 322.1 315.5 313.9 314.4 314.8 312.5 308.6 302.1 297.3
310.1 302.9 295.2 287.4 280.4 274.8 269.8 266 262.7 260.3 259.7 258.1 256.8 255.6 254.2 253.5 252.5 251.6 249.9 248.8 247.8 246.7 244 242.1 242.4 244.3 244.5 244.7 244.7 244 243.6 231.5 225.2 225.7 245.3 247 247.9 249.3 249.1 248.7 247.6 247 246 246.7 247.1 247.1 247.1 246.9 246.5 246 244.8 245.2 245.4 246 246.3 246.1 245.6 245.4 245.5 245.1 244.6 244.1 244.2 244.7 245.1 245.9 246.5 247.9 247.6 247.2 247.7 248.4 250.9 252.6 252.8 252.6 252.2 250.1 248 253.2 253.7 254.1 254.6 255.9 255.8 257 259.5 262 264 265.8 267.5 269.1 270.5 271.5 272.6 273.7 274.6 275.2 275.5 274.6 273.3 272.2 270.6 269 267.5 266.1 264.6 263 261.4 259.8 258.1 256.9 256.2 255.1 254.4 254.1 254.3 255.5 255.5 255.5 255.5 255.5 255.5 255.5 255.5 255.5 255.6 255.6 255.4 255.4 255.4 255.4 255.6 257.4 258.5 258.3 259.5 258.5 261.8 267.2 269.9 271.6 272.7 273.8 274.7 275.6 276.2 277.1 275.9 277.4 281.9 284.7 284.1 283.4 286.4 289 291.7 295.2 299.7 305.8 312.6 318.3 324.9 331.7 342.9 358.3 375.5 391.4 406.6 422.4 437.5 451.5 463.7 472.2 479.4 483.7 485.9 490.3 494.7 496.3 492.3 480.8 465.3 447.5 426.8 403.4 382 364.9 351.4 342.2 333.6 330.3 328 324.8 323 321.9 320.1 316.9 312 308.6
306.4 298.8 291.1 283.9 277.5 272.1 268.5 265.8 263.2 262.2 262 260.6 258.7 257.4 255.9 254.5 253.3 252 250.4 248.9 247.6 246.1 245 244.8 244.2 244.7 245.3 245.4 245.6 245.7 239.3 227.1 224.4 230.7 246.6 248 248.9 249.7 249.7 248.9 247.9 247.3 247.2 247.7 247.9 248 248.3 248.7 248.3 247.7 247 247.3 247.7 247.6 247.1 246.5 246.2 246.7 247 246.7 246.4 246 245.8 246.4 246.8 247.8 249.6 250.5 250.4 250.2 250.2 250.8 252.5 254.2 254.3 254.2 253.5 251.6 247.2 253.5 254.6 255 255.1 256.1 256.6 258.4 260.3 262.4 264.1 265.9 267.6 268.6 270 270.9 272 273.2 273.9 274.2 273.8 273.2 271.8 270.4 268.9 267.1 265.7 264.3 262.9 261.3 259.8 258.2 256.7 256.1 255.6 253.9 254.6 255.5 255.5 255.5 255.5 255.5 255.5 255.5 255.5 255.5 255.5 256.1 256.3 256.9 257.1 257.3 256.7 256.3 258.2 261 262.5 262.6 264 264.8 265.6 270.6 274.3 276.3 276.8 277.2 277.7 278.5 279.8 281.1 279.2 279.8 286.9 289.4 286.5 286.1 289.1 291.7 295.4 299.6 305.4 311.9 317.3 322.8 327.4 336 348.9 366.6 384.6 401.3 418.1 433.2 447.3 460.6 471.5 480.3 487.3 490.3 493 495.5 497 495.3 489.9 477.2 460.4 440.7 418.8 398.1 379.5 364.6 356.2 348.1 341.1 338.1 334.6 331.7 331 329.2 327.6 324.8 320.7 317.4
302.3 295.2 287.5 280.8 275.4 271.3 268.2 266.4 264.2 264.1 264.1 262.5 260.9 259.4 257.6 255.7 254.3 253 251 249.3 248.2 247.6 246.8 245.9 245.8 246.5 247 246.5 233.1 227.9 226.7 226.2 224.1 244.5 248.7 248.7 249.1 249.3 248.8 248.3 248 248.3 248.2 249.5 249.5 249.3 249.9 250.6 250.3 249.3 248.8 248.8 248.5 247.9 247.3 248.4 248.5 248.5 248.3 248.2 248.2 248 248.5 249 249.3 250.1 252 252.8 253.3 253 252.4 253.2 254.5 255.1 255.5 254.9 254.2 253.1 247.5 253.4 255.1 255.5 255.6 256.2 257.9 259.6 261 262.5 264.2 266 267.4 268.4 269.4 270.4 271.4 272.5 273.1 273.5 272.9 271.8 270.5 269.2 267.5 265.5 264.1 262.8 261.5 259.9 258.3 256.9 255.8 254.8 254.3 254.5 255.3 255.5 255.5 255.5 255.5 255.5 255.5 255.5 255.5 255.5 255.9 257.3 258.8 259.3 259.7 260.7 260.3 260.3 262.3 265 266.4 267 268.5 271.5 271.7 273.9 277.7 279.6 279.9 280.2 280.5 281.2 283.1 284.9 282.5 282.6 289.4 293.1 291 289.1 292.4 296.1 300.3 305.2 309.9 316.3 321.7 327.4 332.3 339.6 354.5 374.5 392.2 409.5 426.8 441.3 454.5 466.8 477.6 486.4 491.9 495.5 498.1 498.5 497.5 493.4 486.1 472.2 454.3 434.7 414.7 395.9 379.3 368.2 362.2 355.5 349.2 344.9 342 339.8 338.7 337.7 335.9 330.9 328 326.2
299.2 291.9 284.9 279.2 274.8 271 268.2 266.5 266.1 266.1 265.9 264.2 262 260.3 258.9 256.9 255.4 253.6 251.4 250.4 249.7 248.7 248 247.7 248.1 248.8 249.1 236.5 228 230 230.9 230.7 234.3 249.4 249.5 249.7 249.3 248.7 248.7 248.6 248.4 249.8 249.6 250 251.3 251.4 252.2 252.6 252.2 251.1 249.3 250.4 249.1 250 250.8 250.9 250.8 250.3 249.6 249.7 250.1 250.6 250.8 252.2 252.7 253.5 254.4 255.4 255.7 255.7 255.7 255.6 255.8 256.4 256.5 255.8 255.3 254.6 249.8 254.3 255.5 255.8 256 256.7 258.3 259.8 261 262.4 264.1 265.5 266.7 267.7 268.8 269.9 270.9 272 272.4 272.7 272.1 271.1 269.7 268.2 266.5 264.9 263.2 261.5 260.1 258.6 257.1 255.9 255.4 254 255.4 255.4 255.4 255.4 255.3 255.5 255.5 255.5 255.5 255.6 256.1 256.9 258.6 260.7 261.8 263.1 263.6 265 266.8 268.3 269 270.2 271.5 273 271.1 276.5 277.6 277.5 280.9 283.1 283 283.6 284 284.8 288.3 290.8 286.5 288.4 293.2 295.5 292.3 293.3 296.7 300.3 305.2 310.5 314.9 320.5 326.4 332 337.4 344.6 361 381.1 398.4 417.5 434.7 447.7 460.6 473.5 482.9 488.9 494.2 498.3 500.9 501.1 498.1 491.4 480.2 464.4 445.9 428.4 412.9 396.9 384.1 375.5 368.4 361.7 357.9 354.4 350.9 347.8 346.1 344.9 342.6 338.6 336.5 331.8
295.4 288.9 283.4 279 274.4 271.6 270 269.5 269.2 268.8 267.7 265.5 262.7 260.5 258.8 257.5 255.9 253.8 252.7 252.1 251.1 250.2 249.9 249.8 250.3 250.2 249.5 231.9 230 235 243.3 245.8 249.1 249.7 250.3 250.6 249.7 249.6 249.6 250 250.7 252.1 251.4 251.6 253 253.6 254.4 254.7 254 253.1 251.1 251.4 253.3 253.6 253.2 252.9 252.6 252.1 252 252.4 253.2 253.9 252.3 254.5 255.6 256.4 256.8 257.1 257.2 257.3 257.3 257.1 257.1 257.7 257.5 256.9 256.2 255.8 251 255 255.9 255.9 256 256.6 258 259.5 260.9 262.3 263.6 264.9 266 267.1 268.2 269.4 270.5 271.7 272.2 271.7 271.1 270.3 268.6 267 265.3 263.9 262.3 260.6 258.7 257.4 255.9 254.1 255.7 254.8 255.1 255.4 255.4 255.4 255.4 255.5 255.9 255.7 256.1 256.8 257.6 260 262.7 265.2 266.3 267.6 268.5 269.7 272.5 273.8 274.7 275.5 277 279.1 278.9 282 283 283.6 285.5 286.6 286.1 286.8 286.9 288.4 294 297 289.2 294.3 298.3 297.3 295.9 298.3 301.1 304.5 308.9 314.2 321.4 326.1 330.7 334.3 339 347.5 365.6 384.7 403.7 422.7 439 452 465.5 477 485 491.6 495.8 499.5 501.8 501.7 499.4 492.5 477.9 460.2 441.5 423.7 411 402 393.9 386.4 378.7 369 364.4 361.2 357.8 354.7 353.3 351.9 348.6 344.6 339.6 332.7
292 287.5 283.4 278.9 274.5 273 273.1 273.1 271.8 271 269.1 266.1 263 260.9 259.2 257.8 255.9 255.2 254.4 253.2 252.4 251.9 251.6 251.4 251.3 251.1 248.7 234.9 229.9 239.1 248.2 249.4 250.1 251.1 250.8 251.2 250.4 250.6 251.7 251.7 253.9 254.3 252.8 253.6 255.7 255.9 256.4 256.3 256 255.3 255.4 256.1 256.2 256 255.2 254.8 254.7 254.8 254.8 255.6 256.6 256.6 254.8 257.3 257.8 257.9 258.1 258.5 258.5 258.6 258.5 258.3 257.7 258.3 258.5 257.9 256.9 256.5 254.3 252.8 254.7 255.4 255.9 256.6 257.6 259 260.4 261.9 263.1 264.3 265.5 266.6 267.7 268.9 270.2 271.4 271.3 270.8 270.1 269.1 267.8 266.3 264.7 262.9 261.2 259.1 257.1 255.8 254.2 254.6 255.6 255.6 255.7 255.5 255.5 255.5 255.4 255.5 256.3 256.8 257.7 258.7 260.8 264.3 268.7 271.4 272.6 273.6 275.2 276.6 277.9 279.6 282.2 283.7 284.9 286.7 285.3 287.3 287.9 288.7 290 290.5 289.4 290.1 290.7 292.6 298 300.3 291.9 297.2 300 298.8 300.4 302.6 305 308.7 314.1 318.6 324.5 329.6 333.6 337 341.2 351.2 370.6 391.4 410.2 427.3 441.3 454.8 467.4 476.9 485 491.2 495.2 498.5 499.2 500.7 497.4 487.7 471 452.3 434.2 419 411.1 405.8 398.3 393.1 386.3 375.5 370.4 368.3 365.7 362.6 359.5 356.6 352 346.3 339.4 332
290.2 285.9 283.2 280.1 278.8 276.7 276.6 275 273.1 271 268.3 266 263.3 261.2 259.6 258.2 257.2 256 254.9 254.3 253.8 253.3 252.9 252.6 252.1 251.2 249.8 240 232.3 232.2 238.1 248.9 250.5 251.3 251.5 251.9 251.4 252.7 254.1 254 253.5 253.7 254.7 256.4 257.5 258.5 258.6 257.8 257.6 257.9 258.4 258.6 258.7 258.5 257.9 257.3 257.3 257.5 257.6 258.3 258.7 258.9 257.1 258.8 259 259.1 259.7 260.2 260.1 260 259.5 259 258.3 258.1 258.3 257.9 257.2 256.7 256 255.7 254.5 253.8 255.3 256.3 257.3 258.4 259.8 261.4 262.9 264.3 265.4 266.5 267.8 269.2 270.3 270.8 270.9 270.3 269.5 268.2 266.7 264.9 263.1 261.4 259.9 258 255.4 255 254.8 255 255.7 255.8 255.8 255.5 255.5 255.5 255.4 255.7 256.6 258.5 260.1 261.7 265.5 270.4 274.3 276.6 278.8 279.9 281.2 282.8 284.6 287.3 289.3 290.1 292 292.6 289.2 292.8 292.8 293.3 294.3 294.3 293.8 294.4 297.5 298.6 300 301.1 294.3 297.8 300.7 302.1 303.6 305.7 309 314.1 319.4 324.5 330 333.2 336.7 341.2 344.7 357.2 378.5 399.7 418 431.8 443 454.6 466.5 478.1 484.7 488.4 491.3 493.1 494.4 495.5 490.7 477.8 461.2 443.1 427.4 415.2 408.8 404.8 403.7 398.8 393.6 388.4 382.2 377.4 372.8 368.1 365.3 361.6 353.1 345.6 338.7 331.5
289.9 286.8 284 283.2 280.6 279.5 277.5 275.2 272.9 270.2 267.4 265 263.5 261.5 259.8 258.7 258.2 257.1 256.2 255.6 255.1 254.6 253.9 253.3 252.3 251.4 250.5 246.5 238.4 230.4 234.1 242.7 249.9 251.2 252.2 252.5 253.1 254.2 256.3 257 256.5 255.8 256.8 258.7 260.3 261.5 262.2 260.5 259.9 261.4 262.2 262 262.2 262 261.6 260.3 260.2 260.3 260.3 260 260.2 260.1 257.7 259.2 260.1 260.5 261.1 261.7 261.1 260.6 259.9 259.3 259.4 259.4 258.6 257.4 257.3 256.9 256.6 256.2 255.6 254.1 255 255.9 257 258 259.5 261.4 263 264.3 265.4 266.5 267.8 269 269.8 270.2 269.8 269.3 268 266.7 265 263.2 261.5 259.8 258.3 256.8 254.3 255.7 255.7 255.8 255.6 255.5 255.5 255.7 255.6 255.6 256 256.5 258 260.3 263 264.8 271.6 275.7 279.8 282.4 284.5 286.2 287.7 289.3 291.9 293.5 295.2 295.7 296.9 296.6 294.8 297.5 297.3 298 298.5 296.5 299.3 300.8 304.9 304 302.5 302.1 295.4 299.8 303.5 305.1 306.8 308.7 313 318.1 324.1 328.9 334 337.7 341 345.5 350.2 365.6 385 404.4 421.8 434.1 444.5 453.7 464.5 475 480.6 482.9 483.7 485.3 486.5 485.6 478.9 464.9 448.8 432.5 416.8 402.4 395.5 395.7 399 402.1 400.9 398.6 395.2 392.3 386 378.1 374.4 368.5 357.6 346.7 335.9 327.2
290.8 288 285 283.9 281.9 279.6 277.3 274.7 271.9 269.1 267.2 264.7 263.1 261.3 260 260.4 260.1 258.8 257.9 257.1 256.5 255.7 254.4 253.6 252.5 251.4 250.3 249.6 248.7 235.5 232.7 243.4 251.6 252 252.5 253.9 255.2 256.5 257.6 257.6 257.1 257.1 258.7 260.8 262.7 264.1 264.5 264.8 264.2 264.7 265.6 265.5 265.5 265.6 264.9 263.6 262.8 262.4 261.9 260.8 260.7 259.8 259.7 260.4 261.2 261.7 261.7 261.8 261.3 261.1 261.2 261.4 261.7 261 259.5 257.7 257.6 257.2 256.4 255.9 255.4 254.3 254.9 255.7 256.7 257.8 259.5 261.6 263.2 264.4 265.6 266.8 267.5 268.7 269.3 269.3 268.7 268.1 266.7 265.1 263.3 261.5 260 258.4 256.7 255 255 255.9 256 255.6 255.5 255.6 255.5 255.7 256.1 256 257.2 258.3 261.1 264 268.6 272.4 274.7 282.3 285.9 288.2 290.6 292.5 294.7 296.2 298.2 299.4 300.4 301.2 301.6 301.6 299.5 302.1 301.9 303.2 304.8 301.8 306.9 310.2 311 308.9 305.9 303.9 300.5 296.4 304.8 308.1 310 312.3 316.7 322.3 327.7 333 337.6 341.6 344.9 350.7 358.2 373.4 390.4 405.6 422.1 434.4 444.4 452.6 462 469.8 474.2 475.8 475.4 474.4 473.4 468.7 460.6 447.7 433.4 418.1 402 388.9 379.5 381.1 390 398.6 405.3 407 406.9 405.8 401.6 396.3 392.2 387.2 371.4 352.6 336 321.3
291.5 289 285.8 283.8 281.6 279.2 276.7 273.8 271 268.2 266.3 264.5 262.9 262.1 262.1 262.2 261.4 260.6 259.3 258.5 257.5 256.4 255 253.7 252.6 251.4 250.5 250.6 250.8 238.7 233.1 244.1 253.2 253.2 253.6 255.4 256.6 257.4 257.8 257.6 257.8 259 260.9 262.8 264.6 266 266.9 267.9 268.1 268 267.5 268 267.4 266.9 266.2 265.1 264 263.1 262.6 261.4 260.6 260.7 261.1 262.1 263.2 263.8 264.3 264.4 264.2 263.5 263.9 263.7 262.4 261.2 260 258.7 256.8 256.6 256.1 255.6 255 255 255.3 255.9 256.7 258.5 260.7 262.8 263.9 264.9 266.2 266.7 267.4 268.3 268.6 268.4 267.9 266.8 265.4 263.6 261.7 259.9 258.4 257.3 255.6 255 256.1 256 255.9 255.6 255.5 255.6 255.8 255.9 256.2 257.1 258.4 260.5 264 269.1 275.3 279.1 280.9 288.2 291.8 294.9 297.3 298.8 300.3 301.5 302.6 303.7 304.9 305.5 305.6 305.8 303.5 307.5 309.2 311.6 312 309.9 311.7 311.9 313.6 311.4 308.7 308.6 308.5 298.1 303.9 311.2 313.3 315.7 320.1 325.4 330.7 336.8 341 346.5 349.1 356 368.8 382 391.1 407.3 421.4 434 443.3 451.8 459.8 466.4 470.7 469.9 466.8 462.2 457.7 451.2 441.6 429.4 415.9 400.9 385.8 375.2 365.6 366.5 377.2 390.1 401.6 408.6 411.4 410.3 405.7 400.5 394.7 386.2 372.8 358.7 336.7 317
292 288.9 285.3 282.8 280.4 278.1 275.8 272.9 270 267.8 266.4 265.3 264.1 264.1 264.4 263.7 262.5 261.4 260.3 258.8 257.6 256 254.5 253.3 252.2 251.5 251.5 251.8 251.2 237.7 236.6 243.9 252.3 253.4 254.1 255.8 257.2 258.3 258.3 258.3 259.3 261.2 263 264.7 266.3 268.4 270.6 271.6 271.2 270.7 269.4 268.2 268.3 268.4 267.7 266.5 264.8 263.5 262.6 262.2 261.7 262.1 263.1 264.3 265.2 265.7 265.8 266.2 266.1 265.8 265.6 263.9 262.2 260.9 259.3 257.6 256.5 255.6 255.3 255.4 255.4 255.7 256.7 257.7 258.8 260.4 262.3 263.5 264.3 265.5 266.2 266.5 267.1 267.7 268.1 267.6 266.9 265 263.6 261.9 260.1 258.3 257.5 256.5 255.1 255.4 256.2 256.2 256 255.8 255.5 255.8 256 256.2 256.6 257.9 260.3 263.1 267.3 273.4 279.8 284.2 288.3 289.4 296.6 299.8 302.2 304 304.9 305.9 306.9 307.6 309 309.7 309.7 310.1 309.5 312.3 315.6 316.6 314.1 312.8 312.9 312.6 312.9 312.4 312.3 312.5 312.9 299.7 306.7 314.3 317 319.3 323.2 327.7 333.3 339.7 345.5 350.3 353.7 365 378.2 392.4 404.5 413.8 421.9 431.6 441.3 449 455.7 462 463.8 462.2 456.8 449 441 432.6 422.6 411.2 397.7 383 371.9 362.1 354 355.4 367.6 381.7 394.8 404.4 408.1 404.1 397.3 388.6 380.4 370.9 357.8 344.3 327.1 309.9
291 287.6 284.1 281.4 279.2 276.9 274.4 271.7 269.5 268.1 267.4 266.9 266.5 266.5 266.3 265.3 263.7 261.9 260.3 258.7 257.2 255.5 254.1 252.9 252 252 252.3 252.2 245.4 235.9 240.6 250.2 252.4 253.9 255.1 256.3 257.5 258.3 258.9 259.8 261 263.1 264.8 266.3 268.5 271.6 274.2 274.8 273.5 272.6 271.6 270.4 269.6 269.2 268.7 267.5 266 265 264 263.4 263.4 264 265.5 266.5 266.9 266.8 266.5 266.5 266.8 266.1 264.8 263.1 262.2 260.8 258.4 256.6 256 255.8 255.5 255.4 256.1 257.3 258.2 258.9 259.9 261.6 262.9 263.8 264.2 264.9 266 266.4 266.8 267.3 267.5 266.8 265.5 263.6 261.8 260.1 258.4 257.8 256.5 255.6 255.7 256 256.3 256.3 256.2 256.3 256.2 256.2 256.5 256.7 257.3 259.6 262 265.9 271.3 278.7 285.3 289.2 293.4 296.9 298.5 303.7 306.5 308.1 308.6 309.7 310.8 311.6 312.8 314 314 315.2 315.3 316.8 318.4 317.3 316.2 315.8 315 315.2 315.3 315.6 316.1 317.5 316.2 300.1 309.4 317.1 320.3 322.9 325.9 330.2 336.2 342.7 348.9 353.8 357.9 372 387.7 402 411.5 418.3 424.4 431.8 437.8 443.9 449.5 452.8 453.8 452.4 444.9 435.2 425.5 415.2 404.7 392.8 379.5 367.7 358.5 349.3 345 347.2 359.7 376.8 388.8 397.6 399.5 394.2 384.3 373 361.2 350.1 337.9 326.7 312.9 295.6
289.4 286.4 283.3 280.4 278.1 275.5 272.9 270.9 269.7 269.3 269.1 269.2 269 268.6 267.6 266 263.5 261.3 259.7 258 256.4 255.2 253.9 253 252.8 252.7 252 240.7 236 237.1 250.3 252.2 253.7 255.3 256 257.2 258.2 259.1 260.2 262 262.9 264.4 266.2 268.4 271.7 274.6 275.5 275.2 274.5 273.3 272.4 271.8 271.4 270.8 270.3 269.7 268.5 267.2 266.2 265.7 266 266.3 266.7 268.3 268.2 268 267.7 266.6 265.9 265 262.7 260.4 259.6 259.7 259.1 257 256.2 256.1 256.1 256.5 257.4 258.3 259 259.8 261 262.2 263.5 263.2 263 263.7 265.7 266.1 266.5 266.7 266.4 265.6 264.1 262.2 260.3 258.7 257.4 257.3 255.6 255.6 256 256.3 256.5 256.5 256.5 256.7 256.7 256.8 257.1 257.3 258 260.7 264 269.1 276.9 284.6 289.7 293.5 297.5 301.2 303.1 305.8 308.4 309.6 310.5 311.7 313.3 314.7 316.3 317.7 319.4 320 319.8 318.9 319.6 319.1 318.7 318.8 318.8 319.1 319.5 319.2 319 316.5 308.2 301.2 313.4 319.5 322.1 324.7 328.7 334 340.5 346 351 356.2 363.3 379.4 394.9 408.3 416 421.6 426.4 431.7 436.5 439.1 440.5 442 441.8 438.1 430.3 420.5 410 398.8 387.2 375.6 364.7 353.5 346.3 339 335.6 340.3 356.3 372.1 382.3 387.2 387 380.5 368.1 354.9 343 332 319 306.3 293.3 277.1
288.3 285.4 282.4 279.5 277.2 274.8 273.3 272.5 271.8 271.5 271.8 271.2 270.6 269.2 267.2 265 262.3 259.9 258.3 257.5 256.3 255.1 253.9 253.3 253.1 252.8 243.4 237 239.9 250.3 252.2 254.1 255.4 256 256.9 258.4 259.3 260.2 262 263.1 264.3 265.8 267.4 270.5 273.7 276.2 276.9 277.5 277.5 276.2 275.5 274.8 273.8 272.7 272.3 271.7 270.9 269.6 269.1 269.9 270.3 270.3 267.1 270.2 269.9 268.8 267.8 266 264.1 262.9 260.7 259.2 258.5 258.3 258.2 257 257.1 256.7 257.3 258 258.9 259.6 260.2 261.3 262.6 263.6 264.5 265.1 264.9 263.3 262.8 264.4 265.4 265.9 265.3 264 262.5 260.3 258.2 257.5 256.9 256.7 256 256 256.5 256.8 256.8 256.9 257 257.1 257.3 257.5 257.9 258.9 259.6 262.8 266.6 272 281.3 288.2 293.3 297.6 301 304.2 306.3 307.9 308.6 310.8 312.1 314.2 316 317.8 319.1 319.7 320.6 321.6 320.5 320.3 322.3 322.9 321.9 320.9 320.5 320.4 320 320.4 320.7 322.7 314.7 302.5 313.6 322.4 325.3 329.4 333.6 337.8 343.4 347.7 353 359.6 369.3 385 400.6 412.1 419.1 423.2 427.3 431.3 434.7 434.8 432.5 431 428.6 423.2 415.2 406 395.4 382.3 370.8 360.2 349.5 341.2 335.2 330.2 325.7 332.7 349.5 366.5 373.2 374.2 371.4 363.2 351.8 338.1 324.8 312.9 301.9 287.6 272.4 257.3
287.9 285.2 281.9 279.3 278.2 277.3 276.3 275.4 274.6 274.3 273.8 272.2 270 267.8 265.5 263.3 261.2 259.6 258.5 257.4 256.2 254.9 254 253.7 253.2 251.8 242.4 239.1 250.2 252.5 254.4 255.9 256.8 256.8 258.1 259.1 260.1 261.4 262.7 263.9 266.1 268.7 270.4 273.4 276 278.1 279.3 279.7 279.8 279.9 279.2 278.4 277.3 276.2 275.3 275 274.4 273.4 273.7 273.6 273.1 272.1 268.7 268.5 268.6 267.2 265.8 264.5 261.9 260.5 259.9 259.6 259.2 258.7 258.5 258.3 258.3 257.9 258.6 259.4 260.2 261 261.7 262.9 264 264.9 265.7 266.5 266.6 266.7 266.2 263.5 261.8 264.5 263.7 262.4 260.7 258.6 257.9 257.6 257.3 256.5 256.7 257.3 257.2 257.1 257.3 257.5 257.5 257.9 258.1 258.3 258.7 259.7 261.9 265.6 269.7 274.9 283.6 290.6 296 300 303.1 306 308.3 309.9 311 312.3 314.8 316.7 318.5 320 320.3 321 322.4 321.4 320.5 320.9 325.5 324.6 323.5 323.1 323.8 324.3 324.8 324 324.1 324.5 318.2 304.5 318.5 327.5 330.7 334.8 338.5 341.7 345.5 349 355 362.5 374.2 390.8 405.7 415.9 421.7 424.9 428.3 433.4 434.3 431.2 427.8 423.5 417.9 411.8 402.4 390.8 379 369 359.7 347.9 338.3 333.3 327.4 321.9 314.8 325.3 345 356.4 359.9 357.9 352 341.4 330.9 320.4 307.5 297.2 284.8 270 251.5 245.4
286.6 284.5 282.8 281.4 280.6 279.9 279.1 278.3 276.8 275.4 273.7 271.2 268.5 266.5 264 262 260.6 259.5 258.2 256.8 255.7 254.6 253.8 251.7 248 242.6 238.4 243.6 252.6 254.2 256.1 257.4 257.7 257.5 258.6 259.7 260.8 262.3 263.4 265.2 268.8 271.1 273.6 276 278.5 280.6 282.2 283.5 284.5 284.7 284.1 282.8 281.7 280.8 279.9 278.7 278 277.3 276.8 275.6 274.1 272.1 269.7 266.7 265.9 264.7 263.5 262.5 261.2 261.3 261.5 262 261.6 260.8 260.6 260.2 259.7 258.9 259.7 260.7 261.7 262.4 263.2 264.2 265.4 266.2 267.1 267.9 267.8 267 266.7 265.5 261.6 261.4 261.8 261 258.9 258.4 258.2 258.2 257.9 256.9 257.1 257.7 257.7 257.7 257.9 258.3 258.4 258.6 258.9 259.4 260.2 261.8 264.3 267.6 272.8 279.4 287.5 293.5 298.3 301.3 304.1 307.2 309.9 311.8 314.3 316.1 315.7 318.8 320.8 320.9 321.1 324.4 326.1 322.2 322.6 323.2 329.9 327 327.6 328.8 329.2 330.3 331.2 331.3 331 331.1 316.9 307.4 324.7 332.7 336.6 340.2 342.1 340 341.8 345.2 350.5 364.5 380.8 395.3 410 418.9 422.1 424.6 427.6 431.6 433.1 431 426.8 420.6 414.7 407.8 399.5 391.2 383.3 368.8 351.8 341.7 334.8 324.9 316.2 308.7 304.6 314.9 334.4 341.6 341.9 337.6 328.1 317.3 306.8 298.7 289.9 279.9 265.7 257 248 254
286.9 286.2 285.2 284 283.1 281.9 280.9 279.2 277.3 274.6 272 269.3 267.3 265.3 263.4 262.2 260.7 259.1 257.7 256.3 255.2 253.7 250.8 248 245.7 239.3 242.9 252.4 251.4 254.8 256.2 257.5 257.8 257.8 259 260.3 261.7 263.5 265.6 268.7 271.5 273.9 276.2 278.5 281.5 284.1 286.5 288.1 288.7 289 288 286.7 285.3 283.7 282.9 282 281 279.7 278.3 276.3 273.8 271.4 269.1 268.9 267.2 265.3 264.1 262.6 262.1 262.3 262.6 263.6 263.4 262.6 261.4 260.8 259.8 260.2 261.3 262.4 263.4 264.2 265.1 265.8 266.7 267.6 268.8 269 267.8 266.5 265.2 264.4 261.7 260.7 260.4 259.7 259.5 259.2 259 258.7 258.4 257.8 258.2 258.2 258.4 258.2 258.4 258.9 259.4 259.8 260.4 261.1 262.6 264.4 267.4 271.8 276.2 283.1 289.7 295.1 299.4 302.3 305.2 308.3 311.7 315.1 317.4 318.9 319.2 318.6 320.3 320.8 321.3 321.4 321.6 328.2 324.5 321.3 326.4 327.8 331.9 334.6 335.3 335.3 335.4 334 331.9 323.3 308.9 314.7 327.3 334.1 340.3 345.6 341.7 332 329.8 331.7 344.2 369.2 386.1 398.3 407.9 415 418.8 421.7 425.3 428.7 430.5 430.6 427.9 424.6 419.7 413.6 407.2 401.5 393.2 376.9 357.2 342.6 333.7 326.5 319.8 311.3 297.9 296.6 315.3 323.5 321.3 314.9 303.9 291 279 267.7 267.2 267.7 265.8 249.9 256.8 273
289 288.6 287.6 286.2 284.8 283 281.1 278.8 275.9 273 270.3 268 266.1 264.4 263.1 261.6 259.7 258.3 257.1 255.7 254.3 251.7 251.5 253.3 242.8 242.4 250.4 254.3 254.6 254.4 255.6 256.6 257.3 259 260.1 261.6 263.5 265.4 268.2 271.4 273.8 276.1 278.9 282.1 286 288.2 290 291.3 291.7 291 289.9 288.5 287.1 286 285.1 283.9 282.5 280.5 278.4 276.2 273.8 271.5 270.2 269.6 269 268.2 266.4 263.5 264.5 264.2 264 263.9 263.6 262.5 261.3 260.6 260.9 262.2 263.5 264.4 265.4 266.3 267.2 267.7 268 269.1 269.8 269.3 268.1 266.3 264.4 263.4 262.4 261.5 260.8 260.5 260.2 259.7 259.3 259.4 259 257.8 259.2 259 258.8 258.7 259.3 259.7 260.2 261.1 262.1 263.6 265.6 268 271.1 275.8 280.2 286 290.9 295.1 299.1 303.1 306.4 309.9 314.1 317.6 319.6 320.8 321 321.2 322.1 323 323.2 323.3 327.9 335.2 334 326.8 322.9 324.1 332 338.5 340 336.2 328.2 321.6 314.6 310.8 310.1 311.1 313.5 322.1 332.3 338.5 330.8 324.6 319.4 318.4 332.7 360.6 384.5 395.4 403.2 407.5 411 416.5 421.4 425.7 428.1 429.3 429.6 427.8 425.1 420.2 413.2 405.3 393.9 374.6 356.1 343.7 335.5 329 322.1 314.7 305.9 288.8 286.5 298.1 300.7 291.2 277.6 267.7 267.7 267.7 267.7 267.7 267.7 259.2 276.6 286.1
290.5 290 288.6 286.9 284.3 282.1 279.7 277.1 274.3 271.5 269.4 267.4 265.7 264.2 262.3 260.5 258.7 257.4 256.2 254.7 252.7 253.3 254 252.6 244.2 247.9 254.9 255.9 255.9 256.3 256.3 256.9 258.1 260.4 261.3 263.5 265.6 267.6 270.6 273.4 275.8 278.5 281.7 286.4 289.2 291.4 292.9 293.5 293 291.5 289.9 288.9 288.1 286.7 285.7 284.7 282.6 280.7 278.5 276.2 274.1 272.1 270.9 270.2 270.1 269 266.2 264.2 265.5 265.1 264.9 264.4 263.5 262.3 261.6 262.6 263.3 264.7 266 266.8 267.8 269.2 269.8 270.2 270.5 270.4 270.1 268.9 267.3 265.3 264.8 264.3 263.6 262.5 261.5 261.1 260.7 259.8 259.7 259.8 259.4 259.1 259.4 259.6 259.5 259.8 260.1 260.5 261.2 262 263.2 265.1 267.9 271.2 274.8 279.1 283.6 288 291.6 295.3 298.9 303 307.5 312.2 316.3 319.5 321.4 322.6 323.3 324.9 326.3 326 327.5 330.1 331.6 331.6 329.6 330 326.8 324.3 325.6 339.6 341.5 328.1 319.9 321.7 324.8 318.1 316.1 318.9 315.8 317.3 317 316.4 317 316.1 314 312.8 315 342 370.2 385.5 395.5 400.8 404.7 410.5 416.5 421.5 425.4 427.9 429.2 429 428.3 424.3 417.3 406.7 391.2 369.6 353.4 343.1 336.3 329.6 322.3 313.6 306.2 297.4 286.9 278.9 270.6 267.7 267.7 267.7 267.7 267.7 267.7 269.8 277.2 285.2 297.5 308.6
290.1 289.2 287.7 285.7 283.2 280.6 278.1 275.2 272.9 270.7 268.8 266.9 264.8 262.9 261.1 259.4 257.8 255.9 254.6 253.4 253.7 254.7 254.5 253.1 244.9 247.6 256.2 256.3 256.4 257.1 257.6 258.1 259.4 261.3 262.7 265 267.2 269.8 272.5 275.3 277.9 280.8 285.4 289.3 291.7 293.7 294.6 294.1 292.8 290.8 289 288 287.6 286.7 285.8 284.7 283 281.1 279 276.9 275.2 273.3 272.3 270.9 270.8 268.5 265.7 266.2 266.3 265.9 265.2 264.5 263.9 263.7 263.9 265.5 267 268.3 269.1 269.5 270.5 272 272.4 272.4 271.5 270.9 269.6 267.9 266.4 266.2 265.9 265.1 264.3 263.3 262.3 261.5 261 259.7 259.9 260.1 259.5 260.1 260.3 260.5 261.1 262.2 262.5 261.7 262.1 263.1 264.7 266.6 269.4 272.5 278.2 282.5 285.9 288.5 292.1 295.5 298.8 302.7 308.2 313.8 317.9 320.7 322.6 324.3 326.7 328.7 330 329.4 332.5 333.5 337.8 340.2 335.5 330 329.7 330 324.9 325.1 325.7 325.7 331.2 344.9 344.9 333.8 335.2 344.1 332.2 323.9 326.2 325.2 323.1 322.1 322.6 322.3 312.3 323 349.8 368.1 385.5 393.5 399.6 405.9 410.5 414.9 420.1 423.6 426 427.9 427.8 425.3 419.2 406.3 388.8 364.9 350.8 343.6 337.5 330.4 323.8 317.3 308.8 294.3 283.9 272.8 267.7 267.7 267.7 267.7 268.2 272.6 282.1 289.4 299.7 306.4 314.5 326.2
288.2 286.8 285.3 283.6 281.4 279 276.8 274.5 272.2 269.9 268 265.5 263 261.2 259.8 258.7 257.2 255.5 254.3 255.1 255.6 255.8 255.3 249.7 243.6 247.8 256.1 256.5 257 257.7 258.3 259.2 260.6 262.2 263.9 266.5 268.9 271.4 274.4 277.3 280.4 283.6 288.1 290.9 293.7 294.5 294.2 292.8 291.4 289.6 288.7 287.8 287.2 286.5 285.7 284.6 283.4 282 280.3 278.9 277 274.9 273.3 271.6 270.1 267.9 266.5 267 266.8 266.4 266.1 265.9 266.1 266.9 268.1 269.3 270.8 271.4 271.9 272.2 272.4 273.4 273.2 272.6 271.8 270.8 269.6 268.6 268.2 267.9 267.2 266.3 265.3 264.3 263.2 261.9 260.6 259.4 259.5 260.4 260.1 261.5 261.8 262 263 264 264.6 263.7 264.6 264.7 265.4 267.2 270.9 274.3 279 282.8 285.6 288.5 292.4 295.7 299.2 302.9 308 313.7 318 321.1 323.4 326.1 329.5 333.2 335.9 334.2 338.3 339.6 342.2 341.9 336.8 338.9 341.9 342.2 335.6 334.2 335 335.9 344.2 352.8 355 354.1 353.7 354.2 355 340.5 355.4 359.6 340.1 344.7 353.9 345.6 325.9 312.4 323.2 344.9 365.2 384.3 393.6 400.1 404.3 408 411 413.9 417 420.8 421.6 421.8 415.2 402.4 384 361.5 349.4 343.8 339.4 332.6 324.9 317.8 304.3 289.7 276.6 267.7 267.7 267.7 271.3 278.3 281.1 281.3 292.6 300.9 310.8 320.9 330.6 341.3
286.3 284.9 283.1 281.5 279.7 277.7 275.4 273.1 271.3 268.7 266.3 263.9 261.5 260 259.1 258 256.6 256 256.2 256.3 256.5 256.7 256.5 246.5 245.5 244.9 255.9 256.7 257.3 258.4 259.5 260.7 262.3 264 265.9 268.2 270.6 273.1 276.2 279.5 282.7 286.3 290.1 292.7 294 293.4 292.7 291.4 290.2 289.3 288.3 287.4 286.7 286.1 285.4 284.8 284 282.8 281.4 279.8 277.7 275.8 274 271.8 269.2 267.9 268.9 268.5 268.3 268.3 268.3 268.4 269.7 271.1 272.3 273.4 274.3 274.6 275.1 274.7 273.7 273.4 273 272.5 271.8 271.3 270.2 270 269.6 269.1 268.4 267.5 266.5 265.4 262.4 261.6 262.2 261.6 262 262.1 262.3 262.8 263.5 263.9 264.9 265.9 266.5 265.2 267.3 267.6 268.2 268.9 271.6 277.6 280.7 283.2 286.5 290.8 293.3 296.3 299.6 302.7 306.6 311.9 317.8 321.8 324.8 327.8 332.2 338 342.2 339.4 343.4 344.7 345.8 342.4 341.8 349.5 350.1 351.7 351.6 354.4 357.4 356.6 360 361.9 363.6 363.2 362.7 363.3 364.6 360.2 368.1 370.5 362.5 367.1 368.2 365.1 348.7 322.9 311 326.4 346.6 368.4 382.9 392.9 398.1 401.6 403.1 405.8 410.7 414.3 415.4 413.7 408.1 396.2 375.7 353.7 344 341.5 337.6 330.8 323.2 311.6 295.8 280.2 267.7 267.7 267.7 278.4 288.1 292.9 294.9 295.3 296.7 303.8 318.8 333.6 345.2 354.6
285.2 284.7 283.7 282.4 280.8 278.3 275.4 272.8 269.3 266.5 264.4 262.3 260.6 259.3 258.3 257.3 256.8 256.7 256.7 256.9 257.1 257.7 258 254.6 248.6 246.4 248.4 254.6 257.9 259.6 261 262.5 264.1 266 268 270.1 272.4 274.9 278 281 284.1 287.9 291.8 292.1 292.3 291.7 291.3 290.3 289.3 288.4 287.4 285.8 285.8 286 285.7 285.5 285.2 284.2 282.6 280.8 278.6 277.1 274.3 270.9 269.3 271.4 272.5 270.8 271.3 271.8 272.4 271.7 273.6 274.9 276 276.6 277 277 276.8 276.2 274.8 273.4 272.8 272.4 271.8 271.3 271 271.4 271.2 270.5 269.2 268.1 267.1 264.4 263 264.6 263 263.2 264 264.1 264.4 264.7 264.9 266 266.6 267.7 268.3 267.2 269.5 270.2 271.4 272.3 272.5 277 282.4 285.3 288.9 293.1 295.6 297.3 299.5 302 305.8 310.8 317.3 322.9 325.9 327.8 333.5 339.8 345.1 343.2 345.1 343.6 344.1 346.6 353.9 356.3 358.8 361.8 363.9 368.7 376 376.8 375 373 373.7 372.6 372.4 374.6 375.3 372 376 377.2 376.1 375.8 375.4 374.9 367.8 340.5 320.5 309.4 321.3 337.8 355.9 377.5 390.5 394 393.5 397.4 404.2 408 411.1 408.4 400.5 384.5 363.2 343.4 335.6 336.4 332.4 323.2 314.2 299.4 280.6 267.7 267.7 272.4 284.6 299.3 305.7 308.5 310.2 311.4 309.2 311 319.8 339.7 357 367.8
286.5 286.1 284.7 282.6 279.7 277 274.1 271.3 267.8 265 263.1 261.5 259.8 258.9 258 257.7 257.5 257.4 257.3 257.4 257.5 257.9 258.4 255.8 246 246.9 247.5 252.1 257.8 260.6 262.4 264.2 265.9 267.8 269.9 272 274.3 276.5 279.1 281.9 285.2 289.2 290.5 290.6 290.6 290.4 290 289.2 288.3 286.8 285.2 284 282.9 283.3 286.3 286.5 286.2 285.2 283.8 282 279.6 277.2 272.6 271.2 271 275.4 275.8 274.7 275.4 275.9 275.9 276.1 277.2 277.9 278.3 278.5 278.6 278.1 277.3 276.4 275.2 273.9 273 272.9 272.5 272.1 272.5 272.8 272.2 271.2 270.2 268 264.1 262.9 265.3 266.1 264.2 264.7 265.7 266 266.5 267 266.7 268 269 269.4 270.3 269.4 271.9 274.1 275.1 276 277 276 281.3 286.1 290.8 294.3 296 297.4 298.6 303.3 307 311.6 317.6 323.3 326 328.1 333.7 339.8 346 346.4 352.3 351 358.7 362.9 367.7 372.5 376.7 380.6 387.3 394.4 399 393.4 389.5 388.7 386.1 386 385.5 386.4 384.6 383 383 382.2 381.5 381 380.5 379.4 376.2 361.2 346.6 333.1 313.3 311.9 331.2 356.5 377.3 379.9 378.5 386.9 396.2 403.4 407.5 404.9 398.3 383.5 355.3 330.1 326.6 329.9 323 309.8 296.1 279.6 267.7 267.7 275.3 288.6 303.4 317.8 326.7 329.8 328.8 327.3 324.2 323.3 325.5 341.4 361.9 382.5
287.9 286.8 284.8 281.8 278.7 275.3 272.1 268.9 266.3 264.1 262.2 260.8 259.6 258.8 258.6 258.8 258.3 257.9 257.5 258.2 258.6 258.4 257.8 252.7 247.4 250.9 257.8 250.2 257.1 261 263.4 265.6 267.4 269.5 271.7 273.8 275.8 277.8 279.8 282.2 285.3 288.9 289.1 289.1 289.2 289 288.6 287.4 285.4 284.4 283.8 283.4 282.9 282.7 285.8 287.3 286.9 285.4 283.2 279.5 276.5 273.7 272.5 275.2 277 278.5 279.5 278.5 278.9 279 279.4 279.9 280 280.1 280.3 279.8 279.3 278.6 277.7 276.7 275.7 275.2 274.7 274.3 273.7 273.8 274.7 274 272.5 270.6 268.8 265.2 266.4 267.6 267.6 266.9 265.1 265.4 266.5 267.4 269 270.4 269.6 269.3 272.1 272.4 272.8 272.4 274.7 278.4 279.6 279.8 282.1 283.6 283.8 282.4 288.3 290.9 295.5 298 300.3 302.6 306 311.2 314.1 318.7 323.9 325.3 332.2 338.2 344.6 347.1 351.7 359.1 366.1 372.5 379.7 388.2 395.6 403.3 410.6 415.5 415.9 410.7 409.1 410.5 405.4 402 399.5 395.4 392.2 390 388.9 387 386.1 385.4 383.9 381.2 378.3 373.4 366.5 352.4 334.2 305.8 312.8 342.2 361.7 355.6 356.5 378.4 390.3 399 404.3 400.9 394 378.4 351.7 320.4 313.7 320.5 308.8 294.8 279.8 267.7 267.7 281 289.6 301.1 321.8 338.9 349.8 354 353.6 349.2 344.3 340.3 339.4 344.8 364.8 388
287.8 287.1 284.6 281 277.5 274 270.5 267.4 264.9 262.6 261.4 260.4 259.6 259.3 259.3 259.1 258.3 258.6 258.2 258.3 256.9 254.6 250.1 247.9 251.6 257.5 259.8 258.6 253.4 260.4 263.1 266.2 269 271.4 273.6 275.3 277.1 278.9 280.8 283.1 286.3 287.7 288 288 288.1 287.9 287 285 284.8 284.6 285.5 287 286.8 283.1 282.4 286 285.4 281.1 278.2 276.9 275.6 277.7 280.2 279.4 279.3 281.3 282.3 281.7 281.9 282.1 282.3 282.5 282.1 282.2 281.1 280.5 279.9 279.1 278.6 278.2 277.3 276.8 276.5 276.1 276 276 276.1 274.4 272.9 270.4 267.5 268.6 269.1 268.5 269.1 267.3 266.7 267.4 267.1 269.3 270.9 273.3 272.3 270.4 274.6 275.1 276.5 274.3 275.7 281.1 285.4 285.1 285.4 287.7 289 289.9 288.2 294 299.1 301.3 304 307 308.3 310.8 315.5 321 325.2 324.6 329.5 335.7 342.1 348.4 349.9 357.4 366.3 374.7 383.8 393.1 403.1 411.9 419.9 426.1 430.4 432.6 432.5 430.9 425.5 418 409.7 403.7 398.3 394.9 392.7 391.3 390.1 389.4 386.1 380.6 377 373.4 367.6 357.9 342.1 313.9 304.5 332.8 343.9 330.2 353.6 372.6 386.2 395.3 398.7 395.1 386.6 367.5 345.4 321.3 302.8 302.4 289.8 274.1 267.7 267.7 279.2 288.7 302.2 316.2 334.9 356.4 370.6 377.3 379.9 375.5 368.2 361.8 357.4 361.8 368.5 389.2
286.4 286.3 284.5 279.9 276 272.3 268.7 266.3 263.9 262.3 261.3 260.5 260 259.7 259.6 259.5 258.2 257.1 256.2 254.5 252.8 250.9 253 254.2 257.9 260.7 261.5 261.6 255.4 259.6 262.9 265.6 269.2 272.6 274.8 276.5 278.2 280.1 281.9 284 286.5 286.9 287.1 287 286.6 286.5 285.5 285.2 285.6 287 288 288.5 288.5 287.3 281.9 281.2 280.7 279.7 280.3 284.8 285.5 283.8 281.9 280.3 281.8 283.2 283.9 284.3 284.5 284.8 285 285.1 284.3 283.3 282.1 281.3 280.7 280.3 280 279.6 279 278.4 277.4 276.9 276.4 276.7 276.2 274.6 271.9 268.1 267.6 270.5 271 269.9 269 267.6 268.7 269.6 268.8 271.3 273.3 275.8 274.5 272 273.5 277.4 276.2 275.6 278.9 280.9 287.3 289.1 288.7 290.5 291.6 293.8 294.8 296.4 300.9 304.6 306.9 309.4 310.6 312.5 315 319.9 327.9 326.6 327.3 333.8 341.9 349.6 349.7 356.6 368 376.3 386.1 396.8 406.5 416.2 425.4 433.5 438.8 441.8 442 438.3 432.3 425.3 416.3 408.9 402.4 397.8 395.8 394.5 393.1 390.6 385.6 380 375.6 371.5 366.3 358.7 340.5 318.4 303 324.1 327.2 324.4 347.4 360.7 377.3 392.4 392.1 385.3 373.5 354.7 331 312.1 298.5 282.9 267.7 267.9 268 284.7 297.2 299.2 314.1 328.3 347.1 369 385.2 398.2 404.6 400 391.2 384.4 377.6 380.7 387.7 397.4
284.4 282.1 281.2 278.1 274.1 270.4 267.5 265.5 264.2 262.7 261.4 260.7 260.3 260.1 259.9 259.7 257.1 256.4 255.4 252.6 250.7 257.3 260.4 261.3 261.3 262 262.8 263.3 263.4 258.8 257.8 262.2 267.2 272.4 276.1 278 279.8 281 282.5 284.8 285.6 285.9 286.1 285.9 285.2 285 284.8 285.7 287.2 288.1 288.7 289.3 288.2 287 285.4 282 282.8 288.1 287.5 285.5 285.7 283.8 282.4 283 284.2 285 285.8 286.6 287.1 287.5 287.3 285.9 284.9 283.9 283 282.2 281.5 281.1 280.7 280.2 279.8 279.3 278.3 277.6 276.9 276.2 275.7 273.9 269.8 271.1 272.3 272.2 270.5 269.6 269.6 270.1 272.2 271.8 270.3 274.7 273.7 277.6 278.3 274.5 273.9 278.6 279.7 279.1 281.6 284.5 288.2 292 292.5 293.8 295.1 297.6 300.6 303.6 302.4 307.6 309.2 311.4 312.8 314.4 316.8 320.5 328.3 327.4 327.5 333.1 341.2 349 351.1 356.7 368.4 377.2 387 397.1 407.6 417.8 428.6 438.1 444.9 447.5 445 441 434.4 427.9 419.6 411.2 404.5 399.9 397.7 395.4 392.4 388.5 383.4 377.9 373.7 368.6 364.3 357.7 345.5 327.9 306.7 297.9 306.4 313.7 329 349.6 364.5 376.8 381.2 370.3 355.2 333.7 312.9 293.4 284.9 268.7 269.5 272 288.4 302.6 314 318.6 321.6 339.9 360 383.2 405.8 421.1 426.9 424.8 416.6 407.8 401.2 401.1 407.9 418.4
282.1 280 278.6 276.3 273 269.7 267.8 266.1 264.8 263.1 261.7 260.8 260.4 260.1 260.4 259 257.2 255.7 253.6 251.3 258 261.7 262.4 262.5 262.6 263.2 264 265.4 267.4 269.6 269.9 265.2 261.8 268.2 274.1 279.6 281.1 282.4 282.8 283.8 284.4 284.5 284.6 284.7 284.5 284.8 285.6 287.1 287.1 287.4 288 288.8 289.4 290.2 291.3 291.6 290.7 288.1 286.2 285.5 285.1 284.7 284.8 286.2 287 287.9 288.2 289.1 289.5 289.4 288.6 287.3 285.9 284.8 283.6 282.8 282.2 281.6 281.1 280.6 280.2 279.7 279.2 278.4 277.2 276.3 275.4 273.5 270.1 273.5 273.2 271.7 271.1 271.3 271.5 272.5 274.9 275.2 271.5 277.4 277.3 277.8 281 277 276.6 281 283.8 282.6 286.7 288.5 290.4 293.9 296.1 297.6 300.6 303.7 306.7 309.1 309.8 310.4 313.5 315.2 315.4 316.9 319.4 325.6 330.4 328.3 328.1 335.1 342.2 348.6 352.1 355.7 368.3 377.8 387.4 397.8 407.2 418.8 430.6 440 447 449 445.2 439.9 434.1 427.9 420.4 412.4 405.6 401.5 398.2 394.5 389.4 384.7 380 375.7 371.3 366.5 360.5 356.6 350.8 335.8 319.6 304.4 292.4 294 311 331.1 344.6 348.3 352.5 346.2 325.1 304.5 287.9 272.2 270 270.6 280.8 291.9 301.9 317.4 328.3 334.6 326 348.1 368.7 394 419 433 444.4 451.3 445.4 431.1 428.1 425.3 433 442.4
279.3 277.6 276.6 275.2 272.8 270.7 268.9 266.5 264.7 263.2 261.7 260.6 260.3 259.9 260.4 258.5 256.7 254.7 251.5 259 260.3 261.7 262.4 263 263.8 264.5 266 267.7 269.9 272.4 274.5 276.2 277 272.9 264.4 275 282 282.4 282.2 282.7 283.1 283.4 283.7 284 284.6 285.4 286 285.8 286.3 288.3 290.5 292.9 294.2 295 295 289.9 287.2 288.7 290 292 290.9 289.6 289.5 289.9 290.4 291.1 291.1 289.6 289.5 289.1 289.1 288.7 287.6 286.2 284.5 283.4 282.6 281.9 281.5 281 280.4 279.8 279.2 278.7 277.5 276.3 275.4 272.1 272.4 273.9 273.3 272.2 272.8 273.3 273.6 275.9 278.4 275.7 273 281 281.6 278 282.1 279.8 279.8 287.8 287.7 287.3 289.6 292.1 294.4 297 299 302.7 307 309.9 312.5 314.6 316 314.4 318.8 319.3 319.6 321 326.6 330.8 333.9 329.3 329.7 337.6 343.7 348.5 352.9 355.5 368.9 377.7 388 396.3 408.2 420.1 430.8 440.2 447.2 447.5 443.5 437.7 432.2 426.6 419.2 412.3 406.9 403 399.1 393.6 386.9 380.9 376.3 372.9 368.5 363.4 357.8 352.7 349.9 344.3 340.6 333.4 299.9 288.8 286.4 295 306.4 309.4 316.9 310.4 282.6 273.9 273.7 272.3 272.4 278.9 297.4 307.2 310.5 323.3 336 344.5 343.6 348.7 371.1 395.6 418 432.5 446.9 461.1 466.5 454.8 456.1 452 460.8 468.1
279.5 278.7 278.3 276.7 273.6 271.3 269 266.6 264.3 262.7 261.4 260.5 260 259.7 258.7 257.7 254.8 251.9 259.7 261.6 262.1 262.4 262.8 263.6 264.7 266.2 267.5 269.9 272.6 275.1 277.7 279.7 280.8 281.6 279.8 268.5 276.2 280.8 281.5 282 282.6 283 283.3 283.7 285.1 285.3 284.8 285.2 288.5 291 293.5 296.4 298.2 298.8 295.1 288.1 292.5 294.5 295 294.9 294 293.1 293.1 293.5 294.1 294.8 294.8 293.2 291.7 290.2 287.7 287.3 288.5 286.9 285.4 283.7 282.5 281.9 281.3 280.8 280.6 280.1 279.4 278.5 277 275.8 274.5 272.1 274.7 274.5 273.9 274.4 275.2 275.8 276.5 279.7 281.4 279.3 274.7 284.3 282.5 280.1 286.1 284.3 283 288.2 293.1 293.7 292 295.3 299.1 301.8 305.1 309.9 312.5 315.3 318 319.8 320.9 318.7 321 322.1 324.7 327.5 330.1 333.5 335.9 330.8 330.3 340.3 345.6 350.5 354.2 356 368.5 377.8 387.2 397.5 409 419.9 430.8 445.6 448.3 444 439.6 434.4 429 423.2 416 411.7 408.9 404.4 399.8 393.6 386 378.1 372.1 367.6 362.9 357.5 352.6 347.9 343.9 342.2 333 319.7 308.4 307.5 298 288.5 281.5 281.5 283.5 281 276.1 275.4 276.4 279.1 283.2 295.1 309 320 326 327.1 340.8 353 360.2 355.4 366.1 388.5 407.1 421.3 436.2 453.4 467.3 469.7 474.4 475 482.7 488.8
282.9 281.4 278.7 275.6 273.3 271.5 269.2 266.6 264 262.6 261.6 261.2 260.6 260.6 258.5 256.3 253.7 258.4 260.3 262.2 262.1 262.4 263.2 264.5 265.6 267.6 269.7 272.4 275.4 278 280.5 281.9 283 283.5 282.9 278.2 269.7 275.9 279.8 280.9 281.9 282.5 282.9 283.2 282.8 282.5 283.6 287.3 290.7 294.2 297.5 300 300.9 298.2 290.2 292.5 296.8 297.1 296.9 296.5 296.4 296.8 297.5 297.4 297.5 297.5 297.1 296.5 295.3 293.9 292.5 288.9 286.5 286.4 285.2 283.8 282.7 281.7 281 280.2 279.6 278.1 276 277.3 275.1 274 273.3 274 275.8 275.3 274.8 276.1 276.6 278 279.2 284 284.2 282.8 276.9 280.7 282.8 285.7 286.5 290.6 288.9 284.8 295.1 298.7 298.2 298.9 303.4 307.5 311.5 315.5 318 320.1 322.4 323.4 323.5 322.9 322.4 324.2 327.1 329.5 332.3 336.4 335.4 330.6 332.8 343.1 348 352.8 354.9 359.6 370.7 378.7 387.5 397.7 407.9 419.9 432.6 441.2 444.7 439.7 434.5 429.3 424.1 418 411.5 408.5 408 403.8 398.5 392.3 384.5 375 368.2 361.8 355.9 352.3 347.8 342.1 330.7 338.5 337.2 338.3 340.9 343.7 341.3 324.9 297.7 282.7 278.5 277.7 280.5 280.1 287 294 301.9 315.1 317.6 329.4 337.3 341.9 347.7 362.3 372.3 376.5 375.5 379.5 392.9 407 422.2 445.3 467.1 477.1 484.3 488 492.1 495.6
283.4 282.4 279.3 275.5 273 272.6 270.4 266.9 263.9 262.6 262.1 262.2 262.5 262 256.3 255.5 257 259.9 259.7 261.2 261.6 262.5 263.6 265.1 266.6 268.9 272 275 278.5 281.1 283 284.1 284.4 284 283.1 282.1 280.6 272 277 279.8 281.7 282.2 282.8 281.7 280.5 281.7 285.1 290.3 294.1 298.2 301.3 302.5 298.5 290.7 293.5 298.2 299.8 299.7 299.6 299.8 300.5 301.4 301.6 301 300.7 299.9 299.4 298.9 297.6 296.3 294.5 292.1 288.7 285.7 284.6 283.5 283.1 282.9 282.1 278.7 279.4 277.1 278.3 277.2 276.9 276.6 275.8 276.5 277 276.8 276.5 277.5 279.5 281.3 281.8 287.8 288.3 287.1 281 279.9 286.4 286.3 291.7 295.8 296 294.3 290.8 299.4 302.6 302.2 307.4 312.7 316.9 320.2 322.1 324.3 325.7 327.1 328.1 327.7 327.3 327 328.4 332.5 335.4 336 334.2 331.3 334.9 346 352 355.3 355.4 364 371.6 379.3 387.1 395.8 404.6 417.5 430.1 436.5 437.7 433.6 429 423.8 418.5 411.9 406.8 403.2 402.7 400.8 395.6 388.3 379.6 371.7 362.9 357.1 352.9 347.3 338.6 333.8 341.1 350.8 350.9 351.7 354.2 358.1 361.1 358.6 335.7 305.8 294.5 292.3 286.6 292.8 302.8 311.7 319.7 327.5 333.9 334.6 347 356.3 359.6 370.7 383.2 392 397.6 402.4 410.5 424.4 440.2 458.8 476.4 483.8 489.1 491.8 489 488.2
