ncols 200
nrows 82
xllcorner 220000
yllcorner 751350
cellsize 50
742.6 711.7 660.5 596.7 570 542.2 501.3 458.6 446.4 413.4 398.4 379.3 361.8 347.2 339 328.3 324.6 316.1 310.1 305.2 301.4 305.3 304.8 308.4 298.9 297.5 294.6 296 302 307.5 307.9 309.2 319.8 327.6 333 337.6 339.9 342.2 348.6 347.5 349.2 339.6 333.3 332.6 327.3 321.9 315.4 310.6 302.9 298.3 292 288.3 285.9 282.8 280 275.5 272.1 269.4 267.4 266.1 265.6 264.5 266 265.2 263.6 262.5 263.7 263.6 263.3 263.1 265.1 269.8 271.7 274.4 276.5 278 278.5 277 276.7 273.4 273.1 275.2 276 278.1 279.6 278 280.9 280.7 281 283.3 284.6 285.9 284.4 286.1 284.7 284.5 284.9 285.3 286.6 285.2 287.1 285.6 286.2 286.2 287.3 286.1 284.6 284.2 282.7 280.2 279.7 277.7 276.6 277.9 276.4 276.9 274 272.8 273.8 275.4 277.2 277 275.1 275.6 278.6 279.2 276.7 273.9 273.3 274.5 274.8 273.7 274.8 275.7 275.9 277 275.9 277.9 276.8 281 287.8 289.9 290.1 290.6 293.2 293.9 293.4 293.9 294.7 296.8 296.2 295.1 295.3 295.4 294.6 293.3 296.1 297.5 296.9 299.3 299.6 301.6 304.2 305.7 306.9 308.9 308.6 309.1 307.1 306.8 308.3 308.4 305.2 303.2 301.8 302.2 309.3 305.3 303.5 304.8 307.4 307.6 313.1 314.1 314.2 314.8 317.5 315 316.1 318.7 319.2 321.8 321.4 322.1 322.5 323 323.4 322.6 322.4 324.4
747.9 704 650.2 614.7 580.6 540.9 475.2 451.6 430.7 407.7 389.1 374.4 358.4 346.3 337.6 329.3 328.8 319.8 310.8 305.3 312 309.4 307.8 315.5 313.7 313.3 309.7 312.7 315.3 316 314.5 316.5 325.9 326.1 337.2 343.9 346.5 352.6 355.6 360.2 355.9 352.7 351.9 345.2 337.8 329.1 323.2 318.3 313.3 315.4 301.6 300.8 295.5 290.5 286 279.6 276 272.1 269.9 268.5 266.8 268.3 265.7 265 264.6 265 263.7 262.3 263.5 263.3 262.8 266.6 269.6 271.3 272.4 273.1 274 272.6 270.6 269.9 266.2 266.7 269 271.1 273.1 273.5 272.9 273.8 274.9 276.5 277.8 276.4 277.8 277.4 278.8 276.8 278.7 277 277.8 278.7 278.3 279.9 279.6 279.8 281.3 281.4 279.1 277.7 277.5 274.6 274 273.7 273.7 272.8 271.4 270.2 268.7 269.2 270.4 271.9 273.1 271.2 270.1 272.4 274.7 272.3 272.5 270.5 271.3 269.9 271 270.1 270.3 273.8 272.8 274.2 271.9 277.8 276.2 280.8 287.2 289.7 292.1 291.9 292.9 293.3 293 292.5 293.2 294.9 295.8 293.8 293.2 293.5 292.9 293.7 292.2 298.3 297.2 297.7 298.3 299.9 303.1 304.7 305.7 308.2 308.3 307.7 304.2 306.3 308.4 306.3 306.5 300.6 303.3 299.4 302.5 307 303 303.1 303.5 307.1 309.1 313 312.6 314.8 315.2 316.3 315.2 317.3 319.9 318.1 320.1 320.9 321.4 321.7 321.9 321 321 320.5
721.8 670.6 632.4 593.7 542.4 485 457.2 434.6 413.1 394.1 379.4 366.4 354.6 345.9 338.1 335.2 326.8 316.1 306.5 311.1 314.5 313.7 314.2 328.7 324.3 326 326.4 326 334.2 325.6 327.9 327 326.4 336.3 354.5 363.6 365 364.6 369.1 372.5 373.3 382 362.8 353.8 346 341.1 333.9 329.8 324.2 318.6 314.9 311.8 303.7 298.1 292.8 286.9 283.9 280.5 277 273.8 269.5 269.6 269.1 267.1 265 264.6 264.1 263.2 262.4 262.9 262.9 263.3 269.9 264.8 267.2 268.5 268.8 268.1 266.5 264.7 263.1 262.7 261.6 264.9 266.9 268.1 267.7 268.9 269.9 272.1 271.2 271.8 271 270.9 269.3 271 271.7 270.7 272 272.5 273.8 274.2 274.8 276 275.2 274.9 273.8 274 270.5 268.1 268.7 268.3 269.1 268.8 267.2 267.2 265 266.3 266.9 269.3 268 270.6 266.3 267.6 267.1 265.5 266.7 266.3 266.1 266.1 267.1 268.7 267.8 269.5 270.1 270.1 270.9 274.6 276.1 281.8 287.4 290.6 294.9 294.6 291.7 292.3 291.5 292 292 293.2 292.6 291.5 291.4 289 291.1 291.9 290.5 292.4 295 295.3 298.1 298.2 299.2 299.7 303.8 307.1 303.3 303.8 302.2 304.9 305.6 303.5 307 304.9 301.2 299.3 302.8 304.1 308.7 303.1 303.3 305.6 307.1 309.6 310.6 313.8 313.4 311.7 313.5 316.8 319.6 319.3 319 320.1 318.9 318 318.8 318.6 318.6 319
681.9 641.6 603.8 561.6 498.3 464.2 438.2 415.5 401.3 384.8 369.9 359.1 349.8 339.7 335.2 329.1 318.5 309.5 311.8 316.8 318.8 318.1 323.9 335.7 345.9 341.3 346.6 351.9 351.5 351.3 347.2 342.7 343.1 362.2 368.2 377.3 378.5 383.5 383.7 385.2 401.8 395.4 373.9 366.8 360.9 354.5 347.7 342.5 336.1 329.9 329 322.2 315.4 307.6 299.9 297 292.1 286.9 284 279 275.4 272.6 271.1 266.2 264.8 264.7 264 263.6 263.1 263.1 262.6 263.3 262.9 259.8 260 261.9 262.2 262.8 259.2 256.9 255.5 254.7 255.2 258.3 260.1 261.2 261.9 263.9 265.1 266.2 266.3 265.7 265.7 265.6 265.1 265.8 266.2 267 266.8 269.5 270.1 270.8 271.8 272.1 273 272.9 270.5 268.3 266 263.7 263.5 264.7 266.4 263.9 263.1 262.1 262.2 263.5 263 264.9 265.2 265.5 263.6 264.8 263.2 262 262.9 263.8 265.5 266.8 266.3 267.1 265.8 267.7 269 267.4 271.1 272.8 278.5 283.3 287.8 290.9 291.5 292.2 289.4 289.1 289.1 289.7 292.1 290.3 288.3 288 287.8 286 287.4 291.8 290.3 292.1 292.9 294.2 297.3 297.2 298.1 297.5 298.9 297.3 300.1 299.1 300.7 300.8 301.9 299.2 298.8 302.5 301.5 298.9 298.1 300.7 300.6 299.8 304.5 306.4 307.2 309.3 309.3 309.6 309.8 309.9 311 313.3 316.2 318.2 316.6 316.5 316.9 316.9 316.8 317.1 317.4 317.4
647.8 611.4 571.6 519.7 474.1 444.9 421.1 402 389 374 364 350.5 341.1 335.7 328.1 319.5 310.1 314.1 317.8 325.3 325.3 327.4 337.7 346 363.5 357.6 364.1 371.4 373.1 376.3 377.5 375.6 397.2 399.4 390.6 395.9 395.7 391.3 397.1 398.4 419.4 417.6 390.7 382.5 378.2 369.3 361.8 355.2 350.5 346.3 341.7 333.9 326.8 321.1 314 304.8 301.1 295.9 295.9 288.1 282.5 277.1 270.3 269.4 264.9 264.3 264.5 263.6 263.9 263.5 261.9 260.7 260.9 257.3 257.8 255.9 254.4 252 248.3 249.1 251 251.1 251.6 254.1 255.2 257.8 257.8 261 261.5 261.2 262.4 261.9 264.3 262.8 261.9 261.8 261.3 261.7 263.2 265.3 267.3 267.1 269.8 270.2 269.7 267.1 265.8 262.4 260.9 260.1 259.3 258.8 260.1 260.4 258.9 259 258.5 260 260.5 261.4 261.2 261.5 260.7 260.7 261.1 259.8 260.3 262 261.7 261 261.7 263 264.6 266.8 267.2 266.5 270.3 271.5 275 280.6 284.4 287.8 290.3 287.5 287.5 287.5 285.9 287.4 290.2 289.4 287.5 287.3 284.1 285.7 286 287.2 289.5 291.4 292.5 292.7 293.7 295.3 295.2 294.5 293.9 295.1 295.9 295.6 296.2 296.7 297.4 297.1 296.5 296.8 296.8 298.3 298.5 296.8 297.2 304.7 304.4 304.1 304.7 306.3 308.6 308.6 309 310 310.6 312.6 314.9 315.1 315.5 313.8 312.8 314.4 314.8 315.7 315.7 315
625.7 581.1 542.8 496 456.9 429.2 408.9 390 377.4 364.9 352.8 342.5 334.1 329.3 321.3 315 316.6 320.8 325.9 330.6 334.5 339.9 348.8 358.5 376.3 378.2 382.5 386.4 396.3 399.2 404.5 407.3 422.5 453.2 447.5 428.5 416.2 414.7 417.2 419.1 429.4 424.2 414.2 405.6 398.1 392.9 379.9 373.3 369.4 364.3 359.9 345.9 337.7 330.8 324.9 315.8 309.3 306.7 305.4 297.1 288.7 284.6 278.2 275.2 268.6 267.6 266.1 265.3 264.6 263.8 264.2 262.2 261.3 261.8 261.2 262.5 257.1 253.6 249.2 244.7 247.5 248.6 249.3 250.6 252.5 253 254.6 257.1 257.4 259.7 259.1 259.1 260.2 261.1 259.5 259.4 259 258.8 258.8 261 262 262.7 265.8 264.7 262.8 260.5 259.5 257.7 255.8 255.8 253.5 253.9 256.8 256.3 254.1 255.5 257.3 258 258 259.5 259.7 258.8 259 258.2 261 258.6 259.6 260.6 261.6 258.5 263.4 263.4 264.8 265.3 267.2 266 270.3 270.3 274.5 277.9 280.6 283.4 284.9 283.7 283.6 283.2 282.6 283.2 283.5 284.5 283.8 283.6 284.1 284.2 286.8 287.3 289.2 290.2 290.9 291.3 293.2 294.6 295.7 292.7 292.4 296.8 295 295.2 294.8 295.6 297.1 296.6 295.9 295.7 295.7 296.4 295.9 296.3 296.2 298.2 300.3 304 303.4 305 309.1 309 307.7 309.8 310.1 311.5 312.8 313.5 312.8 309 310.7 312.5 313.1 313 312.9 313.2
591 551.4 514.7 488.7 444.5 411.7 394 379 363.3 352.1 343 333.1 328.3 323 315.7 320.4 323.1 329.4 334 339.4 345.5 350.3 362.4 376.8 389.2 397.3 405.6 412.6 422.9 438.8 437.2 444.4 499.3 496.1 467.4 446 434.7 428.3 428.2 454.3 461.9 447.6 439.1 432.2 428.9 415.3 407.2 399.1 388.6 385.8 373.4 360.1 352.9 344.7 337.3 332 321.1 318.3 311 305.2 301.7 293.9 287.4 279.7 273.5 271.9 270 268.6 267.1 265.6 266.1 264.1 265 264.9 264.4 263.2 259 254.1 251.6 247.4 243.7 247.1 248.3 248.9 249.7 250.4 252.6 253.3 254.7 256.6 256.6 257.1 257.3 257.4 254.7 257.2 256.6 255.4 254.4 254.9 256.9 258.1 259.2 258.1 257.8 257.2 253.8 252.9 253 251.2 249.8 251.8 250.5 251.1 251.8 253.4 254 256.9 259.3 256.8 257 257.8 257.5 255.5 260.4 260 258.6 259.3 259.1 258.4 259 261.2 262.3 263.6 265.1 264.8 268.1 270.2 273.2 275.9 277.7 281.6 282.9 282.1 281.6 283.7 282.9 283 282 283.6 282.1 283 284.2 284.8 285.3 287.1 288.1 289 290.2 291.4 292 291.4 292.4 292.6 294.7 294.7 295.5 295.6 294.6 294.8 294.7 295.1 295.7 295.7 296.1 296.3 296.2 296.2 296.4 297.8 298.8 300.7 300.6 302.5 307.1 307.5 309.1 308.8 309 311.2 311.5 311.9 311 308.7 309.1 310.4 311.2 311.7 311.2 311.8
557.1 530.6 497.1 454.1 418.1 399.1 380.4 366 352 345 335.1 330.2 323.9 318.9 321.5 324.6 329.8 334.3 345.2 350.1 354.9 365.5 378.5 398.5 413.3 422.6 432.1 441.6 451.6 470.4 480.8 553.9 542.3 504 486 473.3 472 465.1 449.5 475.1 491.7 482.1 467.9 478.5 455.9 444.2 438.3 429.2 415.7 403.1 388.8 381.8 371.5 362.9 353.6 344.4 337.6 328.6 318.5 314.1 307.9 301.8 295.8 288.2 281.4 276.2 274.7 271.9 269.1 267 268.7 267.6 269 267.1 266.1 262.6 259.8 256.5 252.2 247.3 241 245.7 246.3 247.4 247.7 249.1 250.1 250.4 252.9 253.9 254.1 255 255.4 254.7 253 253.8 253.2 252 252.6 252.2 253 254.4 256.1 254.7 253.9 253.3 251 249.1 248.6 248 247.6 249.5 249.7 249.5 248.7 250.8 250.5 252.2 253.6 254.5 256 255.6 255.5 253.4 256.2 258.5 256.3 256.6 257.6 257.1 259.2 260.5 260.6 259.4 260.7 262.3 264.1 267.1 270 273.6 278.5 281.5 281.4 279.8 280.3 280.3 280.9 280.4 283.1 280.5 280.3 283.6 285.1 284.8 284.4 285.8 285.9 287.5 288.5 289 291.8 293.8 296 295.1 299.3 301.4 299.9 296.2 297.6 298.7 297.6 295.4 295.7 295.2 295.4 295.5 295.6 296.9 296.8 296.8 298.6 300.3 301.8 301.7 304.3 305.3 307.2 307.6 308.3 310.8 310.7 311 310 307.8 308.9 310.1 310.6 309.7 309 309.7
529.7 496.8 468.3 427.8 404.3 384.7 369.8 357.2 344.4 336.4 330.4 324.9 320.7 320.2 323.6 329.6 334.5 339.7 349.9 361.2 369 381.1 394.9 415.5 434.8 450.4 461.6 478.1 493 507.9 541.7 562.8 563.5 527.8 520.6 527.6 496.3 470.3 471 499.7 512.6 511.3 512.8 520.7 500.9 481.6 481.2 459.1 441 430.3 413.5 402.7 391.1 385.2 371.1 360.9 342.6 339.3 330.7 322.3 317.2 310.2 305.8 296.9 290.6 283.1 277.3 274.1 272.6 271.7 270.8 270.6 271.1 270.4 267.1 262.6 259.4 259.9 252.8 244.5 242.5 240.5 245 246.6 247.3 248.1 248.8 249.3 250.1 251.4 252 252.8 252.9 252.7 251.4 250.4 250.4 248.9 249.3 250.4 250.6 250.4 252.1 250.4 249.9 249.8 248.1 246.7 244.7 244.6 246.2 246.9 246.9 247.5 246.3 248.1 248.5 251 251.7 252 253.5 254 254.2 252.3 253.4 252.8 253.6 254 254.5 254.2 256.4 255.3 255.4 260.7 261.2 264.3 265.1 267.8 266.9 273.3 276.9 280.1 278.5 279 277.8 279.4 280 280.3 280.3 281.7 283.2 280.7 281.1 282.9 285.9 284.5 286.1 288.7 286.9 287.6 291.1 295.3 296.5 297.1 303.6 304.5 302.8 300.4 298.6 299.5 298.2 297.5 296.2 295.4 295.6 295.3 296.2 295.8 296.4 297.7 299.5 303.2 303.8 304.1 302 302.8 304.4 306.8 307.7 310.2 310.9 310.5 309.3 306.1 307.4 308.7 310.2 309.1 308.6 309.5
499.9 465.9 443.3 411 390.3 373.3 361.2 348 338.5 333.3 327.9 323.2 321.7 324.8 327.1 332.6 338.5 349.1 360.3 374.4 384.7 400.8 416.5 438.3 466.6 478.7 492 516.5 540 567.4 567.4 586.8 579.3 560.8 587.4 542.3 505.9 470 501.5 515.5 529.7 538.8 545.2 547.9 555.1 546.9 517.8 484.4 475.7 460.6 445.6 426.7 411.8 403.3 392.1 377.2 365.7 353.8 343 333.8 325.5 316.2 312.5 306.2 295.2 289.5 283 278.7 277 276.9 274.3 274.1 273 269.9 267.1 263.9 259.9 255.3 251.1 243.8 241.8 241.1 243.6 244 245 246.9 246.5 247.1 248.2 249 249.6 250.5 249.8 248.6 248.4 249.1 246.6 246.1 244.8 245.7 246.1 245.9 246.9 246.6 249 247.1 245.6 244.8 243.4 242.6 244.5 243.8 246.3 244.9 247.1 247.6 249.5 249.6 250.4 250 250.7 251.6 251.2 251.7 251.4 251.9 251.4 251.8 251.5 252.4 253.7 255.4 256.7 258.9 261.7 265.4 266.3 268.1 270.9 274.1 277.1 276.5 278.8 278.8 280.1 278.3 278.7 280.5 280.8 281.4 285 285.3 283.6 283.4 285.5 285.3 285.9 288.4 289.1 289.2 292.7 296.3 298.8 299.1 302 305.4 304.1 300.2 299.7 302.6 299.4 298.1 298.5 297.4 296.4 297 295.7 295.2 296.1 296.9 298.8 302.2 301.7 299.2 303 302.9 304 305.5 307.2 307.7 308.6 308.2 307.2 305.3 304.6 307 308.7 307.7 307.2 310.1
467.7 445.5 416.7 397.6 378.4 364 352.3 342.8 336.1 330.3 326 323.9 327.5 328.1 332.3 338.1 346.1 357.7 370.4 386.2 400.1 415.9 438.5 462.5 487.3 509.8 542.8 572.6 595.8 620.9 625.5 629.2 609.4 610.3 615.3 544.3 510 490.9 517.2 534.8 554.4 570.8 578.7 583.7 615.3 600.2 551.5 520.1 510.9 492.3 477.3 457.1 443.5 426.5 409.8 390.9 381 368.2 356 342.9 333.8 325.9 320.6 313.2 307.1 299.2 292.6 287.8 282.9 281.3 278.7 276.5 271.9 269.5 265.4 262.1 258.3 254.4 250.3 244.1 241.4 240.4 241 241.2 243.6 244.3 244.1 244 245.4 246.2 247.3 246.9 247.6 247.7 245.5 244.6 244.4 244.8 243.6 243.7 244.8 242.9 243 243.5 244.7 245.7 245.1 241.8 240.6 240.9 242.5 241.9 243.7 245 246.2 247 247.5 247.8 247.8 248.4 249.1 249.4 249.8 249.3 249 249.2 249.2 249.7 251.4 253.7 255.5 256.8 258.1 260.3 263.7 265.6 269.2 270.3 273.2 277.8 281.2 281.5 280.2 280.5 279.4 279.8 279.6 280.6 282.3 282 284.8 287.1 285.4 284.8 286.8 286.2 287.4 287.3 289.9 290.7 294 299.4 299.9 302.3 305.3 307.7 305.6 303 303.1 302.6 299.7 298.9 298.3 297.3 297.4 296.4 296.7 295.6 296 297.1 299 299.2 298.5 299.2 299.4 308.9 308.5 304.5 305.5 306.4 307.1 306.8 305.4 304.3 304.5 307.3 306.6 307.1 308.1 310.2
448.3 424.3 400.5 381.9 365.3 353.1 343.9 337.9 332.7 327.8 326.1 326.7 331.3 331.4 338.8 346.9 356.6 370.8 383 398.7 417.4 435 458.9 484.2 512.3 551.5 579.4 604.4 635.5 661 660.6 654 644.7 619 601.5 549.2 518.6 520.9 537.1 556.9 579.4 600.7 614.9 654 651.1 606.4 567.3 559.1 548.4 530.1 512.8 494.3 479.7 448.5 418.6 411.9 394.7 382.4 368.2 352.8 342.5 333.4 328 319.5 314 307.9 300.8 296.9 295.2 287.7 281.3 277.6 274.2 269.9 265.4 262.3 259.3 255 249.3 242.6 240.1 240 239.9 240.4 242.4 243.5 243.8 243.2 244.1 244.3 244.9 245 245.5 244.2 243.2 242.3 241.6 242.7 241.6 242.1 242.1 241.9 241.3 241.7 243.1 243.5 242 241.1 239.9 243.4 240.7 241.8 243.4 243.7 244.4 246.2 247 245.5 245.6 246 247.3 248 247.5 248.3 248.8 247.6 249 249.8 251.9 253.1 256 256 260 262.2 264.7 268.2 270.7 272.3 274.3 280.1 282.2 283.3 282.4 284.1 280.4 280.6 280.8 282.3 283.2 286 289.3 292.1 291.3 289.9 289.9 291 287.9 291.8 294.7 295.2 296.2 297.8 301.5 302.7 306.3 309.4 309 306.9 306.4 305.1 301.3 299.7 298.8 297.7 296.6 295.6 295.7 296.1 296 298.5 298 296.8 297.8 298.6 299.9 300.7 301.8 306.3 306.2 306.6 305.9 305.4 304.2 303.4 305.4 307 306.4 306.3 307.4 307
425.7 405.6 387.7 370.4 359.9 346.2 338.5 333.5 329.7 328.3 334.1 337 339.2 340.5 352.9 358.8 367 381.4 395.1 411.5 431.9 450.5 478.9 506.2 540.1 587.3 612.3 644.2 670.4 682.4 695.5 666.6 644.2 612.7 594.3 553.3 522.5 540 561 580.9 603.1 633.4 670.8 701 670.5 628.6 612.2 603.1 591.8 577.2 543.9 534.4 507.1 461.2 453.5 428.8 414.9 396 380.6 363.2 350.9 341.2 334.2 328.6 322.3 315.2 310.2 303.1 301 294.8 288.8 282.8 276.7 268.8 264.6 259.7 255.5 251.3 246 242 240.7 239.9 237.9 238.8 241.6 242.1 241.8 242.8 243.7 243.5 243.2 243.5 243.4 243 241.5 240.7 240.3 240.9 239.6 240.2 240.6 240.4 240.1 239.5 240.2 240.7 239.4 239.2 240.6 239.8 240.6 241 241.4 242.7 244.3 244.3 244.3 243.7 244.5 244.8 245.2 246 245.1 245.9 246.3 248.6 249 252.1 252.1 253.1 256.3 258.2 261.1 264.9 269.8 271.9 273.3 275.3 277 282.4 287.3 287.5 286 286.6 284.9 283.4 283.7 287.1 288.7 289.5 290.9 292.5 292.4 290.6 292.7 291.6 290 293.1 297.6 295.7 298.2 298.2 300 301.7 307.6 310.5 312.4 308.9 309.2 306.8 302.9 300.9 300.1 298.2 296.8 296.2 296.3 296.3 295.4 294.9 296.1 296.5 296.1 298.1 299.3 299.4 300.1 300.6 302.2 306.8 305.5 304.2 303.2 304 304.9 305.1 303.4 304.9 305.7 306.7
416.5 399.7 383.4 364.6 350 342.2 336.6 332.3 330 338.3 341.5 344.8 346.9 347.8 362.5 369.4 381.1 392.2 410.9 429 450.6 474.9 499.4 530.1 567.6 608.5 640.2 684 694.1 717.6 731 699.2 642.8 612.2 584.5 561.1 551.5 567.2 581.8 605.1 629.1 672.9 717.1 756.6 703.1 669 660.2 660.9 644 632.3 579.3 575.5 522.1 500.5 492.8 457.3 435.5 413.1 395.3 375.5 360.2 351 343.5 334.8 330.5 319.4 315.3 308.9 305 300.3 295.1 287.3 276.7 269.3 262.9 259.1 255.1 250.8 249.8 246.4 242.1 242 238.7 238.9 239.5 241.7 240.4 242.6 242.8 244.1 242.9 243.3 243.3 242.8 242.3 242 241.5 240 239.2 240.6 238.5 239.1 239.1 239.4 238 238 238.6 241.1 240.1 240.6 240.5 240.6 241.1 240.4 241.1 242.7 242.7 242.9 244.9 245.8 246.3 244.3 245.6 246.3 248.8 248.3 250 253 254.7 256.3 259.2 260.9 264.8 267 270.6 276 278.8 278.5 283.4 286.3 287.7 289.7 288.6 289.1 288 286.2 285.9 288.8 291.6 294 295.9 299.7 298.6 295.7 297.6 298.6 295.9 296.2 295.4 299.2 298.3 298.9 300 301.7 306.9 310.1 313.7 309.1 309.1 307.2 303.6 302.8 299.9 298.7 298.4 297.1 297 296.8 295.6 295.9 295.7 296.4 296.3 297.1 298.1 299.8 299.9 299.2 300.9 302.4 304.2 303.4 302.7 302.4 303.6 304.1 303.1 303.4 304.8 305.3
404.7 386.7 371.5 358.1 346 340 334.5 331.5 337.7 339.5 345.3 348.7 351.4 357.9 368.2 379.1 392 409.8 426.2 447.6 471.3 500.2 526.4 556.6 590.8 627.5 673.6 696.8 720.4 732.7 727.6 687.5 650.8 619.2 594.6 576.5 567.7 589 606.9 628.3 658.9 697.8 762.6 771.1 754.3 723.7 716.2 726.6 702.1 651.3 639 601.7 536.1 543.9 527.1 480.9 453.2 427.1 401.5 384.7 370.6 358.9 351.7 344.8 331.3 323.2 317.6 314 307 302.6 295.7 286.5 277.5 268.4 262.3 257.7 253.7 252.9 251.4 247.5 242.7 242 239.1 239.1 239 239.3 240 240.7 242.2 241.8 241.4 242.3 242.9 242.8 241.7 242.5 241.2 240.4 238.3 236.5 236.9 236.9 237.5 237.4 237.8 238.4 238.3 238.2 239.6 240 240.4 238.8 239 239.4 239.9 240.5 241.1 241.7 242 245 243.4 245.6 246.8 247.2 250.3 251.2 254.1 253.6 259.4 260.4 263.1 264.6 268 271.8 274.1 279 282.2 283.3 288.3 288.3 289.7 291.3 291.5 292.2 291.5 292 289.9 290.1 295.2 298.6 302.1 302.8 300.8 303.6 300.6 305 303.9 302.1 299.1 298 297.8 300.3 301.2 301.5 307.8 310.3 310.4 311.4 309.5 307.8 303.9 303.1 301.4 298.8 299.6 299.4 298.6 296.5 295.8 296.3 295 297.7 296.7 296.3 296.3 298.1 297.6 299 301.9 301.8 302.9 302.4 302.7 301.4 303 304.3 303.9 302.9 305 304.9
394.6 378.3 364.1 354.6 347.3 340.4 337 338.4 337.1 343.6 348.3 354.2 358 366.4 377.9 390.3 405.5 421.1 443.2 466.2 494 521.6 556.3 589.2 610 647.3 682.5 715.4 738.4 751.5 755.9 726.1 670 627.6 611.9 592.8 594.1 603.9 625.1 654.9 684.7 732.5 785.5 803.3 808.3 778.4 780.2 777.6 726.4 708.3 650.7 594.9 575 585.5 540.3 496.8 464.7 438 412.6 395.1 379.5 367.9 353.5 341.5 331.5 325.3 318.3 312.1 307.2 300.4 293.1 284.6 276.4 268.2 262.1 259.5 257.3 254.1 252.6 248.4 241.9 241.9 239.9 237.8 237.4 237.5 237.3 239.9 241.8 240.2 241.5 241.2 241.1 241.1 240.5 239.4 236.8 237.3 238.6 236 237.9 239.7 241.2 238.9 239.4 238.8 242 240.9 240.5 239 241 240.4 241.7 241.8 242.1 243.2 243.2 242.4 244.2 242.5 243.1 244.8 245.9 249.6 249.8 249.7 252.2 254.3 258.6 261.3 265.6 266.7 273.2 277.4 279 283.9 287.6 290.1 295 295.6 295.4 294.3 295.4 296 296 295.8 293.2 295.3 299.8 301.9 305.8 305.6 303.5 306 305.2 307 307.5 306.6 304.5 301.3 300.8 302.1 301.3 301.1 305.8 308.5 310.9 308.8 307.1 304.9 302.8 300.8 299.9 300 299 299.3 297 295.7 295.8 295.6 296.1 295.5 298.7 298.1 298.6 298.7 297.8 297.9 302.2 301 302.5 302.2 300.8 301.1 302.8 303.4 302.2 303.3 304.3 305.1
378.3 369.3 356.2 349.9 344.8 338.4 342.2 339.1 341.3 347.3 353.6 361 370.7 379.1 390.9 405.8 418.2 438.1 460.6 483.4 512.6 541.2 576.1 609.3 642.6 665.6 699.3 732.2 759.9 775.5 773.6 722.6 680.8 641.8 630 601.1 614.2 631.1 649.9 676.3 708.7 761.5 796.7 826.1 840 814.8 827.4 823.7 772.6 718.4 647.9 646.1 646.5 614.3 560.4 517.3 473.4 448.1 422.6 407.3 390 372.6 357.8 346.8 336.7 327.5 319.1 311.5 305.7 299.5 292.5 288.2 277.2 267.6 262.1 259.2 257.1 254 251.2 247.1 239.9 237.9 237.7 236.4 236.5 236.4 237.5 239.6 239.4 239 241.3 241.3 239.3 237.9 238.1 235.8 233 234.9 234.7 235.6 239.8 240.8 242.6 241.1 239.7 240 244.6 243.3 244.6 243.7 245.2 243.8 242.7 243.3 241.8 243.3 244.5 244.6 244.3 247.2 247.2 245.4 247.3 251.4 253.8 255.6 256 256.4 260.3 264.6 269.2 271.7 279 281.5 282 285.9 292.4 295.3 298.5 303 301.3 302.6 300.2 299.5 298.8 299.5 298.3 299.6 302.9 305.3 306.4 304.7 306.6 306.6 306.6 310.8 310.5 310.5 306.9 305.2 306.7 301.8 301.3 301.4 306 309 308.6 307.8 306.9 305 302.1 299.7 299.7 298.6 298.2 297.5 297.5 297.4 297.8 296.6 296.2 297.4 294.8 298.3 298.8 298.7 297.8 298 299.2 300 302.1 301.8 301.1 301.9 302.2 302.3 301.6 302.8 304.3 304.6
365.3 358.8 349.9 346 340.7 341.4 344.6 346.7 352.4 354.8 360.6 370.9 381.7 394 405.8 419 432.9 452.1 477.3 505.6 537.8 568.7 601.7 638.3 663.7 691.8 724.1 753.5 784.4 804.3 789.3 738.7 691.1 659.8 638.2 616.6 635.2 661.6 682 700.1 733 772.6 813.3 852.2 869.2 855 844.1 803.5 743.4 731.6 740.4 716.5 674.7 633.4 577.9 535.7 496.9 458.7 437.3 416.3 395 379.6 364.1 349.4 338.2 329.3 321.1 310.7 305.3 298.6 294.6 287.7 278.2 268.6 263 259.1 254.3 253 249.5 245.6 238.7 235.4 235.8 236.6 233.5 238.1 238.6 238.1 238.4 237.1 238.1 238.4 238.5 235.2 234.3 231.9 235.5 236.6 236.2 237.5 240.7 241.3 241.5 243.2 241.7 245 248.8 245.8 246.4 247.3 249.4 246.8 245.6 243.6 243.1 243.8 243.6 243.5 244.9 246.4 247.1 246.4 248.2 250.2 253 253.4 256.7 259.5 264.2 268.6 271.3 276.4 280.2 283.6 285.5 289.5 293.8 296.7 301.9 305.6 307.3 303.8 303.4 304.6 301.8 299.6 301.6 301.7 307.1 308.8 309.4 307.3 308.5 309.6 310.8 310.8 311.5 308.4 307.4 305.2 304.4 304 302 302.3 307.8 308.5 308.6 307.9 305.8 304.2 302.3 300.6 299.6 297.1 299 299.7 298.5 297.7 299.3 298.2 296.8 295.9 295.9 298 299.6 299 298.5 297.7 298.4 299 299 300.1 300.6 300.8 301.7 302 302.4 303.1 303.5 304
358.6 350.7 348.7 345.4 340.3 344.8 348.1 351.8 357 363.8 372.7 382.4 392.6 404.8 418.4 435.8 451.3 471.4 499.9 541.9 569.3 595.4 630.5 659.6 691.2 721 753.9 783 810.2 837.6 823.8 766.1 706.4 674.4 656.4 643.5 670 686.9 707.7 727.4 752.4 797.2 840.3 873.6 896.4 875.4 831 802.4 847.2 837.7 834.1 740.3 679 638.8 588.3 549.5 516 481.2 450.5 423.6 398.9 382.7 366.3 352 341.3 329.9 320.6 310.2 303.2 300.3 294.5 288.3 280.8 270.3 262.7 257.9 254.3 250.8 247.9 245 237 234.8 234.2 234.3 232.3 236.6 235.6 236 238.3 236.7 237 238.2 238.9 230.6 233.6 239.1 238.6 236.5 237.1 239 244.8 242.4 244.1 245.3 247.3 246.9 249.3 248.9 247.3 249 251 248 246.1 247.4 244.8 243.3 244.5 244.2 244.4 245.4 246 247.3 247.4 251.4 253.1 257.7 263 264.5 268.3 274 277.9 277.5 282.5 286.9 286.9 289.6 294.2 297.8 303.7 306.4 312.1 306.7 308.1 303.1 302 304.6 304.9 304.9 307.5 308.3 310.3 309.7 309.4 311.9 312.3 312.7 313.1 308.8 309.1 307.9 307.8 308 304.4 304.3 311.2 311.3 311.2 308.5 306.8 304.3 302 300.4 299.3 300.7 299.4 298.7 298.4 296.7 295.9 295.9 296.9 295.9 295.9 297.2 298.3 299.5 299.3 297.7 298.4 298.6 299.1 300 300.2 300.5 300.5 300.2 300.9 301.5 302.1 303.9
353.4 354.7 349.7 342.4 353.2 352.6 354.8 360.3 365.7 374.2 384.6 398 405.4 418 434.2 451.6 470.5 496.6 542.6 573.3 604.6 627.9 654.3 683.6 714.2 749.5 782.3 805.8 834.9 859.6 844.5 779.4 728.4 688.8 674.4 675.2 686.2 713.6 731.7 754.8 779.1 826.6 873.1 905 916.7 878.3 856.7 882.3 903.1 906.6 830.1 739.2 685.9 652.1 591.8 553.4 516.2 482.3 454.4 426.8 399.5 382.9 368.4 353 342 329.7 319.9 309.9 301.5 300.8 291 289.5 279.6 270.7 260.7 256.8 252.8 250.6 247.5 241.7 238.3 235.2 233.9 233.4 231.6 235.9 234.2 233.5 235.9 234.9 236.3 238.3 237.5 230.1 231.8 237.1 235 236.5 236.6 239.5 243.5 242.9 247 249.1 251.1 252.1 253.7 253.9 252.9 254.8 255.6 251.2 249 249.5 248.9 244.4 247.7 247.7 245.4 246.7 246.5 246.8 251.4 254.1 257.2 261.8 265.3 268.1 272.1 278.1 277.3 282 281.7 286.8 289.5 290.6 294.9 299.1 304.8 304.9 308 309 307.2 305.2 304.7 307.4 305 307.3 307.5 309.3 312.2 310.3 312.7 313.2 313.4 311.7 313.3 310.7 311.9 312.3 312.5 310 309.5 307.3 314.9 314.2 311.9 308.6 306.5 306.8 304.5 301.3 302.1 300.2 299.5 298.9 298 295.9 295.9 295.9 295.9 295.9 295.9 297.9 298.2 299.9 299.4 298.3 298.5 298.8 298.7 300 299.3 300.4 300.6 300.2 301.1 301.6 301.9 303.7
358 350.8 345.1 357.1 358.2 361.7 367.5 371.6 379 387.4 398.8 412.6 422.3 432.9 448.2 467.8 483.3 518.7 564.5 596.9 631.7 656.6 684.2 713.5 742.2 772.8 808 847.9 856.6 877.2 846 772.2 729.8 707.1 682.9 704 743.8 769.2 780.2 790.1 831 876.3 905.7 933.5 933.2 898.6 898 919.5 950.7 890.1 806.2 779 734 668.6 606.6 549.6 511.2 478.1 448.4 423.4 399.9 380.5 364.3 350.1 338.4 330.7 320.3 311.1 302.8 300.6 292.1 285.2 275.4 266.5 260.7 254.5 251.3 249.4 248.4 242.7 239.3 236.4 234.6 232.6 232.6 233.5 232.9 232.8 230.7 231.9 235.1 238.6 219.8 227.2 231.8 233 236.7 238.2 241.6 245.8 244.7 246.8 251.6 253.6 253 256.5 257.8 259.4 258.2 258.8 257.1 253.9 250.8 250.3 250.1 246.3 248.6 249.1 247.9 247.5 248.8 251.1 254.9 256.9 260.3 266 266.9 272.3 274.7 278 277.8 282.5 288 291.3 291.2 292.8 296.7 300 305 305.2 307.7 308.1 306.3 306.5 305.1 305.3 306.8 308 310.6 310.2 313.5 312.1 317.6 316.3 314 312.8 312.6 310.8 312.7 312.4 311.4 311.6 311.1 312.3 316 315.1 313.3 310.1 305.4 305.7 304.4 303.8 301.5 300.3 298.7 298.3 295.9 295.9 295.9 295.9 295.9 295.9 295.9 295.9 296.4 298.8 299.2 298.9 298.9 299.6 300.2 298.5 300.3 299.7 300.5 300.6 301.8 302 302.1 302.1
352.6 347.7 360 362.2 369 373.6 379.9 385.1 393.7 401 411.4 426 435.2 450.9 469.3 488.9 523.2 555.8 560.5 606 646.8 679.2 707.1 739 771.8 807.8 851.6 876.8 879.9 881.1 829.1 773.2 751.5 725.8 717.8 739.1 772.5 804.5 823.6 860.2 887.3 909.4 933.6 951.8 957.9 940.4 945.5 970.3 969.1 891.9 886.3 787 746.5 676 601.1 539.3 503.9 472.4 444.6 419.4 395.8 379.4 363.9 345.3 332.4 327.9 321 310 303 294.8 289.1 280.7 273.5 265.1 259.3 257.1 252 250 245.1 243 241.4 238.5 236.7 233.3 229.6 229.8 230.2 229.9 228.2 229.7 231.3 218.4 229.9 234.7 236 236.6 239.7 243 246.8 247.7 248.3 252.3 256.4 256.1 257.1 261.6 263.4 264.5 264.1 262.5 259.7 257.7 252.3 253.6 249.5 248.7 247.4 247.9 249.2 249.2 249.3 253.7 255.5 259 266.6 268.7 271 275.6 276.9 276.2 277.8 283.4 287 289.6 292.2 294.7 296.5 300.4 304.5 307.1 305.5 305.7 306.2 305.5 305.1 307.1 309.5 311.3 310.8 312 313.1 313.2 315.9 317.7 315.1 312.6 312.9 311 311.2 310.6 311.6 312.4 312.1 314.9 318.2 316.1 313.8 310.6 308.9 304.2 303.4 302 301.1 298.7 298.6 295.9 295.9 295.9 295.8 297 297.3 298.4 296.9 296.6 296.5 299.1 300.2 299.5 299.5 299.5 299.7 300.7 300.4 300.9 301.6 301.5 301.8 302.3 301.7 301.9
353.5 360.1 363.2 369.6 376.2 382 389.9 396.9 404.5 414.4 425.5 439.9 456.3 474 491 515.9 549.9 582 604.6 630.1 653.1 680.5 720 756.2 798.1 851.5 887.3 896.1 892.3 886.3 824.8 789.5 760.8 750.8 754 768.7 807 842.7 872.7 900.5 920.4 936.9 954.2 969.5 984.6 991.4 1002.9 1017.6 974.5 915.4 867.9 807.6 775.1 685.5 583.7 527.3 492.1 464 438.3 412.1 389 371.8 357.9 345.5 336 324.1 314.1 306.6 298.7 293.8 288.5 281.6 273.2 263.8 262.3 258.9 255.9 249.7 246.7 242.6 240 237.8 239.6 239.3 234 232 227.2 222.4 226.7 227.4 221.4 229.1 236.6 236.3 236.6 240.6 244.3 248.9 249.2 250.4 255.7 262.2 262.2 260.2 264 268.4 268.7 270.3 267.3 267.1 262.8 259.3 258.7 254.2 252.4 251.6 249.2 250.7 250.9 251.4 252.4 252 255.8 262.2 266.2 271 274.2 275.1 276.1 275.9 279.6 284.4 286.9 291.5 295.3 296.9 297.7 302.6 305.6 307.5 306.1 306.1 307.8 307.3 306 309.8 312.5 313.8 314.3 311.9 313.2 312.5 314.6 317.6 315.5 315.2 313.4 311.3 310 309.9 310.8 313.5 311.2 316.4 318.3 315.5 313.9 311.4 306.6 302.7 301.6 300.5 298.9 296.4 295.9 295.9 295.9 295.9 295.9 296.6 297.6 298.3 298.6 298.6 298.2 299.1 299.5 299.8 300.2 300.4 300.4 300.5 300.7 301 300.8 300.7 301.1 301.5 301.3 301.3
356 364.7 371.8 376.8 384.4 390.8 400.1 410 418.6 429.2 442.3 454.9 472.8 488.6 515.5 556.5 588.2 616.4 640.4 661.1 686 713 730 768.5 816.1 856.3 890.1 898.5 897.2 878.2 838 809.2 790.5 775.5 782.4 799 867.3 888.8 909.7 923.5 939.7 954.8 975.5 992.9 1004.8 1017.9 1002.3 981 947.8 886.5 834 779.4 705 626 558.1 517.2 480.8 452.1 427.2 405.1 385.4 365.3 349.9 338.9 330.1 321.6 311.9 305.2 299 293.4 288.2 281.7 272.3 263.5 262.9 260.7 255.5 252.1 245.4 243.6 238.4 238.7 239.6 240 238.8 235.8 231.5 226.7 219.2 224.5 231.1 234.6 238.5 239.4 241.1 242.4 251.5 254.3 256 259.9 265.8 267.1 266.4 268.4 270.9 274.5 275.5 275.8 272.2 268.4 266 260.8 258.6 255.9 256.9 254.1 254.3 253.7 253.1 256.1 255.3 257.3 258.1 265.8 266.8 271 271 273.8 273.3 277.2 280.8 284.3 289 291.4 293.7 297.1 299 304.3 306.3 307.2 306.7 306.3 307.4 306.9 307.6 309.2 313.7 315.1 313.1 312.8 312.7 314 315.6 316.6 315.3 316.5 314.8 311.9 309.3 308.4 311.8 312.9 310.9 316.4 316.3 314.5 312.4 307.9 305.8 303.9 298.9 299.6 297.8 295.9 295.9 295.9 295.9 295.9 295.9 295.9 295.9 298 299.2 299.3 298.9 298.9 299.5 300.2 300.1 300.7 300.7 300.7 300.7 301 300.8 300.8 300.7 300.7 300.5 300.8
366.4 372.9 377.9 386.4 393 403 412.2 424.1 433.6 444.6 456.6 474.4 493.5 514.2 532.9 570.8 607.7 639.6 667.9 700.7 725.8 747.5 770.6 796 830.1 857.6 897.1 902.2 896.7 896.5 878.2 862.4 822.2 809.3 832.2 876.1 895.4 911.4 927.2 943.9 961.2 977.9 994.8 1008.6 1017.3 997.8 963.8 949.9 919.9 864.9 827.8 754.5 677.7 620.2 553.9 511.4 474.8 445.4 423.2 398.6 377.5 364 351.8 338.3 328 318.8 310.5 303.4 297.7 292.3 284.4 278.6 269.1 265.2 263.2 260.2 256.3 248.7 244.9 241.6 238.9 237.4 239.3 238.5 237 237.1 233.1 227.1 218 224.4 231.9 235.5 239.3 244.5 249.8 250.3 254.7 261.6 265.5 269.7 272.9 272.7 271.5 274.2 276.3 276.9 280.8 281.4 275.7 272.5 268.2 264.4 262.7 259.8 256.8 258.4 255.7 255.3 257.2 257.7 259 262.2 262.7 265.1 267.5 270.4 270.8 272.4 277.3 279.2 284.4 289.3 288.7 291.8 295.1 299.2 301.4 303.4 308.6 311.2 307.8 307.2 307.2 307.5 309 313 313.9 315.3 313.6 312.2 311.1 314.6 316 315.3 314.1 315.7 312.8 311.9 310.2 309.9 308.6 309.4 309.8 315.6 316.5 313.5 309.3 306.8 304.1 300.2 298.2 297.1 296.8 295.9 295.9 295.9 295.9 295.9 295.9 295.9 295.9 298.6 299.1 299.1 299.1 299.7 299.4 300 301 302.1 301.6 301 300.8 302.2 301.5 300.7 300.6 300.3 299.6 299.4
376.4 381.9 387.6 395 403.5 414 424.9 436.2 448.1 460.6 477.8 496.3 517.6 534.7 558.5 582.8 621.3 661 700.6 731.9 752.8 779.4 802.2 828.2 861 887.4 895.7 894.7 892.1 889.8 893.4 883.7 857.8 852.4 879.3 897.2 920.9 939.4 958.1 969.3 983.8 998.3 1008.8 1016.6 980.7 951.5 931.5 910.5 895.8 873.1 774 716.9 677.7 609.3 561.7 496.6 466.6 437.7 414.2 390.8 371.8 357.2 343.2 333.7 324 314.6 311.3 304.8 294.1 290.1 281.9 273.5 268.9 264.9 263.2 258.1 257.2 250.2 246.2 242.5 240.6 236.9 237.1 236.6 237 233.3 227 222.9 217.5 225.5 230.5 236.5 244.5 251 253.1 255.5 262.1 266.1 271 275.6 276 279.1 278.8 279 280.3 282.1 283.2 284.5 280.7 277.1 271.7 268.6 266.5 262.9 259.2 261.2 260.4 259.8 259.9 261.2 265 265.9 267.3 270.2 269.9 269.9 271.7 275.1 277.8 282.9 287.4 289 290.6 296.2 297.4 298.9 302.6 303.2 307.5 311.9 307.5 309.8 307.8 309.4 310.4 312.3 312.9 313.7 313.2 312.2 312 317.5 313.6 310 312.9 313.4 311.2 312.5 309.3 310.3 308.2 307.5 308 311.6 312.9 309.6 306.5 304.7 302.8 297.8 298.7 298 295.9 297.3 295.9 295 295.8 298.2 295.2 295.7 295.9 296.4 298.3 298.6 298.7 299.2 299.5 299.8 300.4 300.8 301.1 300.9 300.4 299.8 298.2 302.3 299.3 298.8 298.4 298.5
386.4 389.7 397.4 404.5 415.4 427.2 439.8 452.7 464.3 478.5 498.8 518.2 538.5 561.4 585.3 610.3 626.6 678.1 721 766.4 789.4 813.8 837.7 870 893.1 891.3 888.5 883.1 876.6 874 873.3 871.6 874.2 881.9 898.8 911.4 924.6 948.8 963.5 980.2 991.6 1002.2 1005.5 992.4 956 918.6 896 869.6 861.6 838.2 756.5 692 635.3 583.9 529.5 482.4 452 424.9 403.2 381.9 366 352 339.8 331.3 316.7 308.1 302.9 298.7 294.3 286.4 276.6 269.5 266.8 270.4 263.3 259.6 256.2 250.6 247.4 241.5 239.5 238.2 234.4 233.4 233.9 231.7 223 217.2 223.1 225.3 233.1 239.8 246.9 255.9 260.5 264.1 267.9 271.9 275.8 277.5 281.6 284.4 284.4 286.2 285.7 286.9 287.5 287.4 285.2 281.4 276.3 272.2 270.2 265.2 263.4 264.8 265 263.8 265 267.4 267.9 269.6 270.6 272.8 273.7 271.8 272.5 276.7 279.2 284.7 286.7 289.7 293.8 295.8 297.8 299.2 299.5 303.3 305.7 309.4 308.9 307.4 306.9 308.8 312.8 311.2 312.2 314.3 314.8 312.5 312 312.7 308.7 307.7 308.3 308.4 307.1 308.2 309.4 307.1 307.7 307 307.5 310.4 309.8 309.6 306.1 303.4 299.9 298.9 298.8 297.6 299.1 297.1 295.9 295.9 295.9 297.9 298.3 295.9 295.9 297.4 298.8 298.4 298.5 300 299.6 299.8 300.9 300.7 301.1 299.1 299.7 300.2 299.8 299.4 298.8 299.2 298.2 298
390.3 399.2 407.5 416.7 429.2 442.5 454.2 468.6 484.7 500.6 518 540.2 564.9 587.5 611.6 647.8 666.6 678.8 716.2 765.9 804.5 836.3 867.2 886.1 885 878.7 869.3 861.5 855.9 850.9 849.4 853.5 859.4 871.6 884.7 897.3 913.3 933.7 953.2 965.6 972.7 989.9 987.1 970.2 927.4 887.4 848.3 812.7 807.2 784.5 702.1 664.9 610.5 572.1 504.8 466.7 440.4 417.4 393.3 376 359.1 347.2 333.8 323.2 312.6 305.1 300.8 294.1 287.6 283.4 277.5 272.4 269.7 269.4 265.5 259.5 254.5 251.7 245.3 240.6 241.2 237.1 233.7 233.7 231.7 228.7 213.2 223.8 228.9 232.5 237.9 245.4 253.6 260.5 265.7 268.8 272.6 276.3 278.2 284.7 286.9 289.4 289.9 293.4 293.6 291.7 292.9 290.4 286.9 285.9 279.7 278.8 272.7 268.5 267.8 268.9 269.4 270.2 272.4 271.7 275.8 275.2 276.6 276.7 276 275.3 275.7 274.5 279.4 284 286.5 292.3 292.7 295.9 297.3 295.5 299.5 302.8 303.7 305.7 308.4 307.2 307.5 307.5 308 311 310.8 311.9 314.9 312.1 311.3 309.3 308 306.6 307 307.1 307.1 307.1 307.1 306.8 307.5 308.6 308.3 311.4 310.9 311.1 307.7 303.3 300.9 300 300 299.6 296.9 296.7 295.9 295.9 295.9 296.9 295.8 295.1 295.9 297 297.9 299.4 298.7 299.7 300.1 300.4 301.6 300.7 300 299 300 301.6 300.5 300.7 299.3 299.9 298.8 297.9
395.9 406.4 415.2 427.8 441.5 456.6 471.4 486.7 505 522.6 538.6 559.2 583.6 610.1 635.6 665 691.9 722.2 745.3 777.5 820.1 866.3 883 877.4 863.1 847.8 840 828.1 825.8 823 824.1 828.7 836.4 848.6 862.4 874.3 892.4 912.8 927.9 926.4 942.5 971.1 961.4 943.7 912.6 848.2 807.4 782.2 737.2 743.6 679.4 630.8 587.5 535.1 488 455.3 426 405.3 385.3 365.7 351.6 341.2 329.2 319 308.8 305.9 294 287.8 283.5 280.7 275.9 273.8 272 269.7 267.6 263.7 254.2 249.6 243.5 239.9 238 234.7 233.9 231 226.1 208.9 222.7 228.1 232.8 236.1 239.1 247.3 255.2 259.8 266.9 270.9 276.5 280.9 284.7 289.5 291.1 293.9 294.6 296.1 296.8 297.2 297.4 296.6 291.9 288.4 285.4 282.7 276.5 274.8 273.6 273.9 275.3 275.7 276.9 277.9 278.5 278.6 280.9 278.8 282 276.4 278.3 279 279.2 281.7 286.3 289.6 292.6 294 294 294.4 299.7 302.1 303.7 307.5 308.1 307 305.9 305.6 307.2 307.2 310.2 311.6 310.8 310.3 311.6 308.9 306.4 306.1 306.9 307.1 307.1 307.1 307.1 307.1 309.7 308.7 308.5 312.3 313.4 312.2 310.6 304.7 301.9 300.8 299.9 299.3 296.6 296.3 296.3 295.9 295.9 295.9 295.3 295.9 295.9 295.9 297.7 299.5 299.8 299.8 300.1 300.4 301.1 300.3 300.3 300.1 301.2 300.7 300.7 300.4 300.7 299.8 298.7 297
405.7 414.8 429.1 439.9 456.1 471.3 490.7 508.3 521.8 541.8 562 574.6 602.5 631.2 661.9 688.8 718 758 781.6 808.8 853.5 879.2 874 846.8 818.3 811.1 797.5 790 790.3 791.5 795.5 793.7 803.3 817.3 829.4 845.2 864.8 882.8 884.9 889.2 919.8 935.6 933.1 918 890.6 863.1 812.1 744.6 685.5 658.1 657.3 619.6 547.5 504.5 468.8 437.4 417.8 394.6 374.8 359.4 345.9 336.8 325.9 313.4 305.5 301.9 293.4 289 285.4 280.6 276.7 274.7 274.3 271.4 265.1 259.9 255.9 246.7 242.8 237.9 235.1 234.1 233.5 227.1 209.5 217.5 226.4 229.5 234 237.9 241 247 254.9 261.3 267.6 274.6 279.3 282.8 288.2 293.9 295.3 297.5 299.5 300.1 302.3 304 302.5 300.5 296.5 291.4 292.8 286.5 284.7 282.7 280 279.4 281.7 281.5 281.8 281.4 281.9 283.9 285.9 286 282.9 281.7 281.3 281.3 280.4 283 287.7 289.2 290.6 291.7 292.6 292.7 296.9 302.1 305.7 308.7 309.7 305.7 306.1 305.2 304.9 305.1 308.5 309.3 310.6 308.4 308.1 307.2 306.2 307.2 307.9 307.4 307.1 307.1 308.2 307.1 307.1 309 309.5 313.8 315.3 314.7 312.3 307.2 305.7 300.7 299.8 296.8 296.3 297.9 296.7 296.2 294.8 296.4 296.1 295.9 295.9 295.9 298.4 298.7 300.7 299.8 300.8 300.6 300.4 300.4 300.7 301.4 302.2 301.3 300.6 300.4 298.8 298.3 298.1 297.4
412.6 424.3 437.8 452.5 470 491.2 508.9 527.8 547.6 566.5 581.4 601.3 615.4 649.1 677.6 712.1 741 775.7 814.9 852.9 869.3 863.3 837.9 809.7 787.4 771.6 759.6 757.2 758.7 762.8 765.2 755.5 772.2 782.1 795.9 813.5 833.5 847.1 844.5 863 898.1 906.4 902.8 885.1 861.4 842.8 774.6 744.6 667.4 627.1 604 577.8 542.6 500.6 469.6 438.1 410.2 389.5 367.9 352.1 339.8 331.6 319.6 314.5 310.5 299.8 292.6 286.8 283.8 278.6 275.6 275 271.5 270.6 265.8 257.5 253.6 241.4 236.9 232.5 227.8 224.9 221.1 207.6 220 223.1 227.6 231.9 234.5 239.6 244 248.7 254.8 262.6 269.2 275.4 280.8 286 290.5 293.9 296.4 300.1 301.9 305.4 306.7 305.5 304.7 302.3 299.8 295.3 292.7 292.8 292.1 291.1 288.2 285.7 287.3 289 290.1 287.1 286.4 285.4 286.7 286.4 284.8 286.3 283.3 282.8 281.9 284.9 286.6 288.4 289.3 290.6 290.9 293.3 295.7 300.7 305.1 308.6 310.4 306.7 305.8 304.6 304.7 304 305.3 309.1 308.6 308.7 307.7 308.8 305.2 306.5 309.9 307.5 308.4 308.5 309 307.5 308.9 308.3 310.6 313.1 315.4 313.8 309.1 309.2 305.5 302.1 298.2 300.6 301.1 297.8 300.5 296.4 295.7 294.8 296.9 295.9 295.9 295.9 296.4 298.4 300 300.1 300.9 301.2 300.8 300.9 301.1 300.4 300.9 300.9 300.1 299.2 298.8 298.3 297.1 296.6
421.5 433.7 450.6 467.1 484.6 507.3 529.1 550.9 572.6 597.9 613.3 629.9 648.9 664.7 693.2 731.5 765.7 803.1 841 865.4 873.2 835.6 804.8 778.1 757.2 741.3 731.4 728.2 730.7 732.4 731.7 723.7 737 749.7 764.7 780.3 793.2 803.1 805.9 848.5 871.2 874 860.7 864.8 834.1 802.5 739.9 696.9 646.8 613.4 576.3 554.7 527.7 501 471.4 427.9 405.9 388.2 361.7 348.6 336.2 325.6 315.7 311.7 304.3 298.4 292 286.4 282 277.6 276.4 275.8 270.8 267.2 263.2 255.6 243.7 239.1 234 224.8 218 214.1 207.3 216.8 221.5 229.4 230.4 232.1 236.2 242 244.6 249.1 256.7 265.1 271.6 276.2 280.8 288 292 296.3 298.2 301.3 304 305.4 307.1 306.7 305.2 304.3 304.3 300.8 297.8 297.8 297.4 296.3 296.7 293.6 296 293.9 292.8 292 291 288 288.9 289.3 289.6 287.2 286.9 283.8 283.5 283 286.8 287.9 288.3 288.5 288.8 292.6 296.1 298.6 303.7 307.6 310.5 309.7 308 302.8 302.8 303.4 305 305.7 307.3 307.5 306.9 306 305.2 306.2 307.2 307.6 307.5 309.5 310.2 307.7 308.2 308.2 307.5 312.5 312.9 311.7 307.7 307.5 304.2 301.7 298.9 299.9 303.3 301.1 302.1 300.2 297.5 298 297.9 297.5 296.8 297.7 297.5 300.1 300.5 300.1 301.1 300 300.1 300.3 300 299.9 301.3 300.6 299.5 300 298.5 297.9 296.3 296.1
431.8 444.2 461.2 480.2 502 526.3 549.5 577.5 599.8 621.1 639.5 667.4 678.2 697 714.9 741.6 776.6 826.2 866.8 876.8 866.5 832.4 797.1 774.6 734.7 723.4 709.6 704.1 709.2 707.8 701.9 688.5 703.6 714.1 730 747.2 757.5 761.5 792.5 820.8 846.3 837.3 825.7 815.1 806.3 778.6 739.6 689.5 648.3 613.5 575.2 537.3 482.7 471.9 449.1 421.6 403.8 378.4 356.9 342.4 331.2 321.3 313.3 305.8 300.7 296 287.9 284 280.7 279 275.8 273.6 269.1 265.4 256.7 247.5 239.1 234.3 226.4 221.7 210.7 206 216.4 219.7 227.8 228.2 230.9 234.2 237.4 241.2 245.4 249.8 259.1 266.8 271.4 276.2 283.6 289.1 293.1 295.1 298.8 303.1 305.1 305.9 307.2 308.2 307 306.1 305.5 306.4 302.2 301.4 303.4 301.8 303.5 300 299.9 296.8 296.3 294.7 294.6 291.9 292.1 289.9 292.3 293.2 288.4 289.6 286.1 288 286.9 285.9 288.1 288.7 289.3 291.6 294.6 299.7 302.6 305.5 307.8 307.2 305.3 302.8 302.8 303.3 304.7 304.2 304.9 305.3 305.3 305.8 306.3 306.3 307.4 307.7 307.4 306.5 311.2 309.5 308.2 306.5 304.9 308.8 308.2 306.9 306.9 306.3 304.3 302.2 301 299.3 303 305.1 302.5 300.4 299.1 298.9 298.6 297.8 297.7 298.7 300.9 301.1 301.3 300.1 300.9 299.1 298.9 298.8 297.9 298.5 299.1 298.6 298.4 298.6 299.8 297.6 295.9 295.2
436.8 455 473 496.5 520.5 547.5 575.2 607.1 631.3 647.8 666.7 688.7 707.9 721.5 739.6 765.3 795.3 834.8 880.1 881.7 856.6 821.5 783.6 747.2 721.6 704.4 692.3 682.8 679.9 674.3 672.6 668.2 671.7 682 692.7 710.9 726.2 732.6 770.1 799.4 812.3 801.1 792.7 782.8 768.7 757.3 725.5 689.9 647.9 602.6 565 532.8 498.8 467.2 421 417.2 393 372.6 353.5 339.4 328.7 317.9 310.1 303.3 300.4 292.3 285.5 282.9 277.5 273.6 271.1 267.2 262.4 256.8 251.3 241.4 235.6 230.5 222.5 207.4 206.1 211.4 215.4 215.1 224.5 229.7 233.6 237.3 240.5 245 247.2 252.4 258.5 267.4 272.2 277.6 283.3 286.4 291.5 293.2 298.9 299.7 302.2 305.7 307.1 309.7 308.4 309.5 309.7 310 307.1 308.2 310.3 305.2 305.9 304.1 303 301.1 300.7 298.7 298.4 297.2 294.3 292.4 291.3 295.3 291.5 291.3 288.5 289.8 289.3 286.1 288 292.5 290.1 293.8 294.8 297.6 303.2 303 305.9 305.9 303.3 302.9 303.9 304.6 304.5 303.2 304 303.7 303.2 306.5 307.4 307.3 307.6 307.2 307.7 306.5 306.5 307.6 307.4 306.1 304.2 305.6 308.4 307.4 306.3 306.2 304.5 302.5 299.6 300.8 301.5 305.1 303.8 304.1 301.7 299.6 301.8 297.7 299.9 300.7 302.4 301.2 300.4 299.7 299.6 298.8 297.8 297.9 297.4 297.5 298 297.6 298 297.8 297.2 296.5 295.4 294.6
454 466.1 488.8 510.8 536.4 570.1 603.9 634.1 660.8 675.6 694.8 714.4 731.3 749.9 768.4 784.5 814.7 846.5 884.5 878.1 848.7 822.2 773.7 737.8 712.7 695.8 680.3 669.1 656.1 652.2 650.3 644.2 640.5 648.9 662.5 677.7 683 721.2 755.6 773.6 775.9 769.5 761.6 753.8 733.3 713 712.3 700 640.6 600.3 561.4 524.1 487.7 456.7 428.9 401.4 386.3 363.4 346.3 334.3 327.3 313.5 304.2 296.2 289.6 285.5 281.2 279.2 272.7 266.5 264.3 257.5 255 247.1 243.2 238.3 230.4 224.4 204.1 208.4 208.6 209.6 217.1 222 226.5 231 231.6 236.6 239.8 244.5 247.1 252.9 257.7 264.5 271.9 276.3 282.7 286.6 288.8 291.6 295.7 297.9 299.1 302.1 304.7 307.6 308.4 310.3 309.3 309.4 309.2 309.6 310.1 306.8 307.5 306.4 306.5 302.4 302.6 301.2 299.7 296.2 299.8 295.2 293.6 294.4 296.5 293.2 291.7 290.8 288.9 288.1 287.9 289.6 294.3 293 296.6 298.7 299.9 304.9 304.9 306 305 302.7 302.8 302.8 302.8 302.8 302.8 302.8 302.1 305.5 306 306.1 307.3 309.1 309.1 307.6 306.5 306.5 306.7 306.1 304.2 304.2 306.4 305.2 304.2 304.8 301.1 299.9 301.8 301.6 303.2 304.8 307.7 305.7 303.6 301.4 300.5 300.7 300.7 300.4 301.6 301.3 300.8 299.5 299 298.5 298.4 297.8 297.5 296.7 296.5 296.4 296.3 297.1 297.2 296 294.6 295
470.3 466.8 500.4 526.2 554.9 588.4 625.1 662.6 686 704.4 724.8 744.6 760 777.6 797.6 818.4 834.1 861 886.7 864.3 843.5 819 781.7 762.3 711.1 684.7 669.6 657.2 644.1 634.6 629.9 622.6 613 613.6 629.6 641.9 663.5 701.6 734.1 749.4 748.8 742.9 735 727.6 709 674.9 662.2 646.8 619.6 595.5 572.6 528.6 479.6 447.6 421.7 399.7 375 356.4 341.3 325.6 317.1 308.5 301.3 293 288.1 283.8 280.4 272.7 269.6 263.4 254.2 252.1 245.5 240.8 236.5 231.9 223.6 215.5 205.3 206.2 210.3 213.5 218.7 226.4 231.7 236.8 239 241.1 242.9 244.2 250.2 251.8 258.2 265.5 272 277.1 280.7 284.8 287.4 290.3 293.9 297 299.5 302 304.7 308.4 308.8 311.1 310.4 310.2 310.3 309.8 309.9 309.5 307.8 306.7 306.3 304.7 304 301.6 298.3 296.3 294.2 294.1 293.6 292.6 293.9 293.4 293.7 290.8 292.3 290.4 291.5 292.4 292.2 295.8 297.2 298.6 300.3 304 304.5 304.7 304.9 304.4 302.8 302.8 302.8 302.7 302.8 302.8 303 303.5 304.3 304.5 307.1 309.3 309.5 307.5 307.4 307.1 308.3 306.7 304.2 304.2 305.6 306.5 304.5 302.5 303.7 302.5 303.8 304.4 304.3 304.2 304.7 309.4 309.2 306.6 304.7 302.3 301.6 300.7 300.9 301.4 300.9 299.4 298.6 298.4 298.8 298.1 298 297.5 297.5 297.5 295.9 296.7 295.6 295.8 294.6 294.6
488.2 487.7 514.7 539.3 567.2 602.6 636.2 673.9 706.2 735.9 757.6 791.1 801.9 816.1 830.8 849.8 864.3 884.2 863.5 835.8 820.2 795.4 779.5 759.3 703.6 679.7 663 652 639.6 618 606.7 601.7 590.4 588.4 598.6 602.8 638.7 683.1 700.6 725.9 731.6 724 715.5 711 703.4 686.8 627.4 591.3 597 586.4 553.2 503.9 476.1 445.7 426.3 392.9 362.6 347.4 334.4 325.3 312.4 305.2 294.8 290.4 287.2 283 274.6 268.8 262.7 259 249.3 244.4 239.5 233.8 228.8 223.2 215.1 203.7 213.5 221.1 219.1 218.2 226.1 232.8 240.6 241 242.9 243.6 246.1 248.4 250.6 255.9 261 268 273.6 277.8 284.5 287.5 290.8 296.2 294.7 297.1 299.2 301.8 303.9 307.6 310.4 310.5 312.2 312.4 312.5 312.3 310.9 311.3 309.4 308.9 308.2 305.9 304 300 304.4 298.2 295.1 295.6 292.9 292.9 292.4 293.4 293.7 291.4 292 292.4 292.1 293 294.3 293.7 296.1 298.1 300.7 302.5 304.9 305.1 304 302.7 302.8 302.5 303.3 304.2 304.3 302.5 303.5 304.2 305.3 305.1 304.6 304.2 304.2 304.2 307.1 307.3 307.2 303.7 304.2 307.5 306.5 306.5 305.5 302.7 305.8 304.5 304.4 307.4 303.6 303.9 304.8 305.9 306 304.3 304 305.2 302.6 300.8 301.9 301.6 300.8 299.5 298.8 299.2 299.1 298.3 298.1 297.6 297.5 297.5 296.5 296 295.7 295.3 294.6 294.6
513.3 504.7 522.4 548.9 575.3 611.5 644.7 677.7 715.3 763.2 794.5 820.1 834.2 847.8 865.8 880.1 893.1 882.1 849.3 827.4 807.1 788.8 753 730 706.9 676.3 658.6 645.3 627.1 610 593.6 580.5 567.1 559.4 551.4 589.6 615.4 647.5 672.4 704.4 708 702.8 696.6 689.3 680.9 662.8 629.5 592.5 550.8 511 505.3 492.2 466.8 460.7 419.7 372.5 352 340.2 330 318.1 306.3 300.4 289.8 287.9 282.9 279.4 270.7 263.6 255.7 250.6 244.1 235.3 232.3 226.7 221.8 215 204 209.7 225.6 229.9 228 230.5 232.7 239.2 243.3 247.7 246.3 247.7 252.7 254.4 255.9 260.6 265 271.4 275.8 281.8 285.9 291.3 297.1 294.2 294.9 298.9 299.6 301.6 305.6 308.6 310.1 310.2 311.9 315.5 314.3 312.8 312.3 313.1 311.9 309.3 308 305.6 304.1 305.1 300.8 296.7 296.7 294.4 293.8 294.4 294.8 296.9 293.6 292.5 294.3 293.9 294.3 294.8 297.4 297.2 295.8 299.6 301.8 302.6 304.8 303.9 305 302.9 302.5 302.9 303.9 303.6 303.8 304.3 304.5 304.4 305 306.6 305.1 304.6 304.2 304.2 305.2 303.8 304.2 304.2 304.2 305.4 305.5 306 305.3 302.7 301.8 302.8 301.5 301.6 302.1 303.4 303.5 304 304.7 304.1 304 305.2 304.1 301.3 301.7 302.1 300.7 299.4 300 300 299.9 298.6 299.4 297.6 296.9 297.4 296.8 296.9 296.6 296.7 296.6 294.8
547.6 528.3 534.5 561.1 586.7 619.9 652.5 685.3 723.5 784 825.9 848.5 868.3 881 895.4 908.4 914.9 877.7 857.1 835.1 817.8 790.5 751.6 717.9 694.6 675.4 653.3 640.2 625.9 606.2 592.5 575.7 553.8 529.2 541.3 560.7 588.2 618.8 672.1 683.2 693.6 692.8 681.3 671.6 662.5 644.9 630.7 602.3 561.1 518.1 483 446.1 419.3 432 402.9 360.2 345.3 331.9 320.1 308.1 303.3 295.5 283.6 278.1 275.8 273 265.1 258.3 251.1 245 237.1 228.3 224.7 218.7 211.7 203.2 213.8 227.6 238.2 241 238.6 239.6 238.7 242.4 247.4 251 252.4 250.7 258 262.2 263 267.1 271.5 276.5 281 285.2 289 295.5 295.7 294.6 297.5 298 299.8 304.3 308 311.1 310.9 310 311.5 313.3 314.5 313.3 312.4 312.3 312.8 311.8 310.9 306.9 304.5 305.6 300.6 296.6 295.4 295.9 295.2 296.7 296.8 296.5 296 294 296 297.5 295.9 296.9 299.7 296 298.5 299.2 300.2 302.4 303.8 303.9 302.5 303.7 303.3 303.5 303.1 305.1 304.5 303.9 304.2 305 303.5 304.8 305.1 305.9 305.8 304.2 304.2 304.2 304.2 304.2 304.2 306.7 306.3 305.3 304.1 305.6 303.4 301.9 304.6 303.8 303.2 301.6 303.8 305.1 303.9 303.9 304 303.3 302.8 302.7 303 302.7 301.2 301.2 300.2 299.9 299.2 300.5 300.3 298.9 299.4 298 297.4 297.5 296.9 296.3 295.7 294.6
573.2 550 543.3 574.4 600.4 631.3 663.1 692.7 739.1 806.3 845.6 874.3 896.5 912.7 924.9 935.3 927 891.8 872.6 840.3 818.3 787.4 752.7 719.5 689.9 670 644.4 626.7 610.8 596 591 579.6 551.9 524.2 519.6 538.2 557.3 597.3 631.8 658.1 682 675.9 670.6 668 653.3 642.2 630.4 619.3 573.5 536.3 499 473.6 436.3 401.8 377.6 357.7 340.3 325.3 313.6 302.4 294 287.2 279.7 270.9 267.9 262.9 256.4 252.3 247.1 239.5 230.8 223.2 213.6 204 199.4 203.7 221.5 238.6 246.7 250.7 245.6 246.1 246.9 248.4 255.1 257.1 257.8 254.5 262.4 266 270.4 273 279.4 283 287.6 289.8 292.2 296.1 298.2 296.4 299.9 300.7 302.5 305.7 308.5 312.2 310.9 310.7 312.7 313.4 313.7 313.6 312.7 312.1 311.5 311.9 309.4 307 305.4 302.2 300.4 298.2 297 296.6 295.3 297.9 297.8 298.3 296.9 297.4 297.2 299.1 298 298.9 300.3 297.9 297.7 303.2 300.6 301.7 303.1 303.7 302.7 303.3 303.1 302.8 303.2 303.2 304.1 304.5 303.9 303.6 305 304.5 304.5 305.2 305.5 305.3 304.2 305 304.2 304.2 304.2 304.7 306.8 305.7 304 303.4 303.1 302.8 303.4 304.7 303.2 303.9 302.7 304.3 304.3 303.9 303.6 302.9 303.9 303.7 303.7 304.1 303.4 302.4 300.8 300.5 300.3 300.8 300.1 299.9 299.9 299.2 298.6 298.3 297.9 297.3 296.1 294.6
596.3 584.1 574.8 592.7 618.8 646.2 671.4 704.4 750.8 796.9 852.1 894.8 923.8 943.6 953.8 961.7 932.2 912.2 870.2 841.3 811.1 784.6 751.8 716.7 683.4 665.3 637.4 617.3 590.8 575.7 574.5 568.6 546.5 522.5 495.7 507.6 539.4 577.8 602.3 658 672.3 660.4 653 646.7 634.9 627.2 613.6 590.2 568.7 526.8 501.3 488.8 436.5 399.7 367.4 351.5 334.7 319.6 305.3 289.7 282 278.4 272.2 267.2 259.6 253.4 247.9 243.9 239.7 233.4 223.4 212.7 206 198.5 202.6 218.9 229.4 240.2 249.5 248 249.7 253.3 255.7 259.1 262.2 261.9 264.8 264.3 264.5 269.9 274.5 282.7 286.3 292.5 294.2 299 298.5 301.1 301.5 301.2 303.9 304.2 303.7 307.4 310 310.4 310.6 310.3 312 313.8 314.5 313.2 312.4 312.5 310.5 309.3 310.6 308.2 306.5 305.4 304.3 303 301.2 299.4 299.3 298.2 298.8 297.4 298.8 297.5 298.1 299.5 299.8 301.5 300.7 299.9 299.1 299.3 300.2 301.6 301.9 303.1 304.7 304 302.1 302.8 303.1 303.2 304.7 304.3 304.6 307.6 307 307.7 307.3 304.1 306.6 306.4 306.4 305.9 305 304.2 304.2 305.7 307.9 306 307 307 305.1 303.3 303.6 303.5 303.9 304.2 303.2 304.2 304.4 304.3 304.6 304.1 304.1 304.6 304 303.5 304.8 303.4 302.4 302.6 302.9 302.5 301.8 300.9 300.8 300.6 299.9 300.7 299.7 298.3 297 297.6
627.4 623 605.4 618.1 636 663.8 688.6 716.9 754.5 789.1 838.5 890.6 931.2 963.9 982.7 967.9 933.7 902.9 875.5 841.2 817.4 776.2 747.8 710.1 682.4 651.5 624.7 606.9 586.9 567.3 537.8 550 541.2 517.2 486.4 488.6 520.9 551.6 587.8 637.3 656.1 646.4 636.4 622.3 606.2 592 573 556.3 536 515.1 499.9 471.1 431.8 390.6 362.8 339.5 325.3 310.3 297.8 284.3 273.7 269.8 265.2 262.6 252.8 244.3 239.5 236.4 233.7 225.9 216 204.7 197.9 206.5 216.2 233.8 243.1 247.3 249.4 249.9 254.3 261.3 265.3 265.7 267.5 268 269.5 269.2 270 271.3 281.8 289 292.6 298.9 300.5 305.2 305.7 305.1 302.8 305.8 308.1 306.4 306.6 310.1 311.3 312.4 311 310.3 311.4 312.3 312.2 310.8 311.4 313.8 311 310 310.8 308.8 307.9 307 306.1 304.6 306.5 302.8 299.3 303.4 299.2 300.4 298.1 299.1 299.9 299.8 302 303.2 302.2 300.1 301.6 302.4 303.2 302.3 303.3 302.8 303.8 304.2 303.5 303.7 306.4 305.1 305 305.5 308.1 306.8 307.6 307.3 306.3 305.1 307.3 306.4 306.1 307.9 307.2 306.1 304.8 306.6 307.7 306.9 307.6 307.6 306.2 305.7 303.8 303.1 304.3 303.8 302.8 304.7 304.8 304.7 304.9 304.5 304.8 304.8 304.5 305.3 305.4 304.9 304.4 303.6 303.5 304.3 304.2 303.2 302 301.6 300.8 302.4 301.2 300 298 298
668.1 651.2 640.5 642.8 653.2 672.3 701.1 731.9 764.4 802.6 848.3 882.5 918.1 960.5 993.4 979 937.7 907.8 878.3 853.3 833.7 788.5 743.4 710.1 672.8 644.1 619.6 588 573.6 555.9 525 521.3 528.6 511 480.4 469.2 502.8 534.5 574.3 620 629.3 627 608.3 591.4 575.5 553.2 542.9 524 503.7 494.2 474.6 434.9 410.9 379.3 349.4 327.8 312.7 302.3 291.8 279.3 269.8 262 257.5 256.1 245.1 236.5 231.9 230 226.5 220.8 208.1 197.3 204.5 211.3 221.4 245.8 251.3 254.4 253.9 252.8 259.9 270.1 271.5 273 274.1 275 276.2 277.2 275.5 281.3 287.1 292.9 297.2 304.9 310.1 314.8 309.6 310.1 308.7 312.8 309.6 309.6 309.7 312.1 312 314.3 310.7 310.1 310 310.5 310.9 309.6 311.1 310.3 310.2 309.8 308.6 307.8 307.3 304.8 304.1 305.2 302.7 302.9 302.7 301.3 301 301.8 301.8 303.7 302 301.3 302.2 304.8 303.3 301.6 300.8 303.4 303.2 302.6 302.8 302.5 303.9 304 304.8 304.3 305.2 306 309.1 308.6 309.1 309.1 308.4 306 305.9 305.1 305.7 306.8 306.5 307 306.4 305.8 305.7 306.4 307.9 307.2 307.6 307.5 306.6 306 305.1 304.5 304.4 304.3 303.2 303.6 304.6 305.9 306.7 306.8 306.9 306.1 306.9 308 307 305.8 306.1 307.5 306.4 305.5 306 305 304.2 302.3 302.5 302.3 301.2 300.1 298.9 297.9
699.1 673.3 670.4 672.6 672.5 691.7 718.9 747.7 782.8 822.2 862.2 897.8 935.8 972 1002.5 989.6 950.5 932.6 911.4 883 844.7 803.2 745.6 707.2 674.5 642.1 607.1 576.6 556.3 536.8 516.1 485.8 506.2 497.9 471 450.3 484.6 519 561.8 597.9 602 595.5 579.7 559 539.4 512.4 507.7 490 471.9 449.6 427.5 408.1 395 353.6 333 314.7 303.9 293 282.7 274.8 266.3 257.5 251.2 247.6 238 225.8 226.4 222.3 220.8 214.2 196 201.1 209 224.8 238.3 249.9 256.1 257.6 258.5 261.3 269.9 274.9 278.5 280.9 280.6 281.5 283.3 283.7 286 286.4 293.3 296.1 303.9 311.8 318.6 319.9 317 315.3 313.1 316.2 316.5 314.6 315.2 315.2 314.2 313 311.4 310.1 310.5 309.8 308.6 309.3 309.9 308.2 309.5 308.3 308.5 307.6 306.7 306.3 305.6 304.3 304.5 305.6 303.8 303.9 303.9 306.1 305.1 306.4 305.7 304.6 304.9 305.4 304.8 302.5 304.2 302.6 302.7 302.5 304.8 303.2 305.7 306.2 305 305.6 307.6 308.1 309 309.9 308.8 308.8 306.4 305.7 305.8 306.1 305.8 306.2 306.5 307.4 307.2 306.1 307.1 307.3 309.5 309.4 308.9 309.4 308.9 306.9 306.4 306.3 304.9 306.1 304.7 305.4 306.8 306.6 308.6 307.5 308.4 308.5 308.2 307.7 306.2 304.9 306.5 308.1 307.3 307 307 305.4 304.3 303.4 302.6 302.3 301.7 301 300.3 298.8
721.4 701.8 707.8 705.7 693.1 714.7 739.4 765.6 806.1 839.6 878.2 914 951.9 968.8 974.9 985.5 969.1 965.3 939.7 905.5 865.6 819.3 757.1 711.4 670.4 631.2 595.2 567.3 543.3 522.5 491.7 471.1 479 483.9 456.6 437.5 471.2 513.1 546.2 571.6 577.8 570.7 555.1 531.6 509.2 488.1 473.1 460.4 438.9 417.8 391.9 370.5 352.4 332.1 318 306.5 292.3 284.2 274.1 268.3 257.4 251.2 244 236.6 225.1 221.8 216.7 216.9 212.5 206.3 197.9 206.9 219.1 236.1 252.3 262 265.9 266 263.8 273.2 277.9 282 285 286.8 287.8 289.2 291.3 290.6 293.2 297 298.2 298.7 309 318.1 322.4 324.2 321.7 321.7 321.1 324.5 324.5 321.6 323.3 322.7 320.3 316.8 314.5 313.8 313.4 310 310.2 310.7 311.1 310.8 312.2 312.5 312.7 311.2 312.9 309.3 309.7 308.5 308.8 307.3 307.2 307.3 308 308.3 308 308.9 306.6 307.2 308.1 307.1 308.4 306.9 304.8 304.9 306.4 304.1 305.2 304.7 306.9 305.6 305.7 306.4 306.4 308.2 308.1 308.4 308.6 308.4 307.1 306.8 306.2 306.3 306.7 306.8 306.7 306.7 307.8 307.5 307.3 310.1 311.3 309.7 309.5 308.8 308.6 307.5 308.6 308.4 307.1 309 307.7 307.5 310.4 309.6 307.2 308.6 308.9 309.4 308 307.7 307.4 306.8 306.6 307.5 307.9 308 308.2 305.9 304.8 302.6 301.6 301.6 301.8 301.6 299.8 298
746 740.4 743.8 729.4 716 740.9 764.5 788.5 827.8 866.4 896.8 913.9 920.4 924.9 936.1 956.3 923.6 930.5 922.8 900 855.4 807 780.9 714.7 663.9 618.5 590 564.4 538.9 513.3 482.9 454.6 445.2 461.7 448.2 424.7 460.1 490.9 528.6 557.3 563.3 549.3 529.8 504.1 483.4 458.3 442.6 431.4 419.9 392.4 367.4 348.7 330.1 316.6 307.4 295.9 284.3 273.4 268.3 259.6 252.2 243.2 238.9 230.3 221 211.9 208.2 204.9 203 198.5 209.7 216 227.7 247.4 261.5 271.4 275.5 276 277.6 281.9 284.9 288 287.2 289.4 293.4 293.7 297.7 300.3 308.2 304.7 301.6 301.5 313.1 325 330.1 330.2 330.2 334.1 333.6 336.2 333.7 330.4 332 331.1 328.8 322 319.7 316.9 313.4 311 309.4 311.3 311.8 311.6 312.7 312.7 313 313.5 312.3 312 310 312.3 307.3 306.8 304.6 305.6 305.9 307.2 307.8 308.2 307.8 308.4 307.9 307.7 310.9 309.5 307.5 306.8 305.3 304.5 305.4 305.9 307 306.3 306 305 308.2 307.9 309.4 308.8 308.9 308.4 307.5 306.9 306.6 307.1 307.1 307.1 308.8 310.2 310.6 309.9 308.7 310.6 312 310.4 309.7 309.2 309.6 309 309.4 308.8 308.6 309 314.8 309.5 312.1 308.1 306.7 307.7 308.9 308.9 307.5 309.7 313.2 309.9 308.5 308 308.8 309.6 308.2 306.2 304.9 303.5 302.4 301.4 302 300.5 297.9 297.8
777.4 774.7 763.9 745.9 759.4 775.2 794.7 818.2 846.9 872.3 877.5 877.7 880.3 886.4 922.7 927.8 888.6 882 874.7 852.2 834 808.6 765.9 711.6 651.8 620.1 590.2 561.9 533.9 510.9 481.2 449.9 418.2 442.3 435.5 414.5 448.1 480.8 517.8 540.7 541.2 528.8 506.4 481.7 456.7 435.8 413.3 399.6 379.6 363.7 346 330.8 317.6 305.6 294 283.8 272.6 268.2 261.8 254.6 246.4 237.6 232.4 224 219.4 213 200.4 195.9 196.2 205.2 215.2 230.8 247.1 254.6 268.9 277 280.5 284.8 287.1 290.8 291.8 294.9 297 301.1 300.3 302.9 307 305 310.6 309.9 305.2 306.8 314.2 325.8 336.8 341.1 342.6 345.7 346.9 348.3 345.8 350.2 346.7 343.7 338.1 330.3 324.4 321.2 319.6 314.7 311.5 310.1 313.6 315.4 315.3 314.4 314.2 314.4 314.6 312.5 312.2 312.7 311.6 308.4 307.9 308.2 308.4 309 309.8 310.5 310.3 310.1 309.5 309.2 310.2 311.1 309.3 308 307 305.4 307.4 307.9 308.2 308.6 307.8 305.7 307.6 311.2 311.4 310.4 310.9 308.6 309.2 307.6 307.7 307.8 308 308.5 308.5 311.1 313.1 314.9 312.9 312.9 313.6 312.8 311.1 310.3 310.9 310.8 309 309 312.5 310.4 310.8 310.4 310.6 307.5 312.5 308.2 309.5 309.2 308.5 310.1 311.4 311 310.5 311 310.9 310.4 309 308.1 306.7 305.8 304.8 304 301.8 299.8 304.3 297.3
817.8 801.1 773.3 775.6 779.7 805.1 825.4 824.7 822.3 830.9 837.4 838.7 845.6 854 885.1 875.9 857.8 841.9 837.8 818 804.3 777.1 740.6 694.9 659.1 625.6 599.1 568.8 540.5 514.7 486.6 449.8 418.5 424.1 419.2 408.1 438.9 469.7 507.5 527.4 524.3 505.1 484 457.3 429.4 404.1 386.9 370.7 354.7 341.4 326.8 316.4 305.5 294.9 281.4 272.4 267.5 260.3 254.1 248.8 241.1 232.6 224.4 219.3 209.3 203.9 193.1 197.6 204.1 213.8 223.6 237.7 252.6 268 277.9 286.4 289.1 295.5 301.6 303.2 303.3 302.8 305.7 306.6 308.7 311.9 312.7 312.7 315.3 317 315.5 307.6 318.3 325.9 337.9 344.7 354.6 359.5 364.5 366.5 368.4 371.7 371.8 371.7 352.4 337.7 330.7 324.3 322.3 324 315.5 311.8 311.5 313.7 314.1 316.5 313.9 313.2 314.1 314.1 313.1 314.3 312.5 311.1 311.2 312.5 310.5 310.2 310.5 311.4 311.5 312 311.8 311.2 311.3 312.5 312.3 309.7 308.5 306.8 310.1 308.7 309.7 309.4 309 307.3 308.9 310.6 311.5 311.5 311.9 312.1 309.3 308.6 308.7 308.5 308 308.4 308.6 315.5 314.6 316.2 314.6 313.5 314.2 312.5 310.5 310.9 311 310.9 310.9 310 312.5 312.9 312.3 311.6 309.9 309 311.2 309.5 310.3 311.4 311.2 314.2 312.5 312.5 312 311.9 312.5 312 309.9 308.9 308.3 306.5 306 305.5 306.8 302.4 306 302.8
841.8 814.2 790.1 795.1 803.9 815.7 797 788.8 780 791 802.2 796.9 815.9 836.2 829 833.5 820.9 798.6 796.9 777.3 768.2 741.1 721.4 701.2 674.5 640.9 603.2 577.7 555.4 522.2 499 467 426.2 391.2 404.9 392.5 424.4 451.4 494.6 513.3 502.5 480.4 454.4 424.3 402.3 378.3 364.9 348.2 336.1 325.7 311.9 302.5 293.4 281.5 270.8 263.9 258.5 250.1 246.9 243.7 234.6 225 216.7 210.7 203.4 193.6 198.3 207.2 212.5 225 237.6 247.6 262.5 276.7 288.4 293.3 297.6 309.3 312.1 313.8 313.9 312.3 315 317.5 320.8 320.1 319.7 318.7 320.2 320.6 320.6 316.9 323.3 330.1 338.8 351.5 364.6 380.6 388.2 391.2 394.9 403.6 417.9 411.3 383.2 360.2 341.5 330.9 324.9 323.8 318.7 314.7 314 313.2 315 314.6 315.4 314 312.8 313 313.2 314.6 315 315.4 315.4 316 314.6 313 313 313 313.3 313.6 313.4 313.7 312.8 315.2 315.8 313.1 311.4 309.8 312.1 311.2 312.8 310.3 310.6 311.1 310.1 311.8 314.3 313.3 312.6 312.7 311 312.1 309.2 310.1 310 310.1 313.6 313 317.1 316.8 317.5 315.6 315.2 315.2 312.7 312.8 312.6 311.4 310.5 311.2 313.1 314.8 314 313.3 312.6 309.2 312.9 309.8 312.8 312.7 314.2 314.5 314.5 313 313.3 314.4 312 311.1 310.2 309.3 309.8 308.1 307.9 306.2 309.9 307.6 307 304.4
867.1 827.8 819.3 826.7 827.9 795 774 750.4 745.1 747 752.3 755 768.2 779.8 785.7 794.6 784.8 767.9 758.7 747.6 729.3 712.4 689.2 670.8 653.5 627.5 609 579.3 552.3 531.6 507.5 479 443.6 399.3 388.1 381.4 408.8 443.1 482.2 487.1 476.6 457.9 416.4 390.4 373.3 352.3 339.9 328.8 317.6 306.8 296 286.5 277.6 268.9 261.4 257.4 250.8 247.6 243.2 237.1 224 215 206.9 199.7 194.6 201.2 213 214.4 220.8 231.5 246.5 258.6 278.7 290.2 298.8 301 312 321.2 324.2 327.1 327.4 325.6 331.3 334.6 332.7 329.4 325.5 325.5 328.3 328.3 329.3 326.5 318.3 327 339.2 349.2 367 381.7 395.7 412.1 431 445.6 450 442.9 411.7 386.4 361.7 342.9 331.6 329.7 325.6 323.2 320.4 318.5 318.9 319 320.8 318.8 315.3 313.8 315 315.4 316 317 317.8 319.6 319.2 319.7 316.1 316.7 317 317 318 316.1 316.3 317.6 317.9 317.2 315.3 316.2 313.4 313.4 313.9 313.5 313.1 313.3 312.4 313.3 313.6 314.3 313.9 314 312 312.9 311.9 313.9 313 314.7 314.5 313.9 318.5 318.6 319.8 319.5 318.9 318.1 315.1 314.2 314 313.4 311.5 312.1 312.2 312 311 312.5 313 310 311.4 309.5 310.9 312.4 314.8 315.1 313.9 314.3 314.3 314.6 312.9 312.3 310.3 309.8 311.2 313.8 307.8 306.5 311.3 309.2 306.8 308
854.6 848.2 854.8 853.9 813.7 778.9 748.3 727.6 718.6 717.4 715 712.4 721.1 736.3 755.3 759.2 749.6 735.4 722.1 709.3 690.4 676.9 658.2 641.7 623.3 603.9 588.1 565.5 545.1 526.2 509.3 480.5 445.2 409.2 368.1 371 400.6 431.7 452.5 460.7 457.7 429.4 390.7 362.5 346.1 328.1 318.2 310.7 301.1 289.6 280.5 273.9 267.9 261.5 254.8 248.7 248.4 245.3 240.8 226.4 215.6 207.8 202 193.3 196.3 212.5 219.6 222 229.5 240 252.3 272 294.3 305.4 309.4 317.2 332 339.4 340.3 343.6 345.6 345.4 350 347.6 344.6 335.5 332.1 333.1 335.8 336.9 338.1 336.2 328 334.5 331.5 345.8 365 381.7 395.2 412.2 434.3 456.4 464 461.7 449.1 453.7 387.9 357.7 340.5 334.1 332.4 329.8 329.4 324.5 324.1 324.7 325.2 323.1 320.2 316.6 318.7 318.2 317.9 319.8 321.1 321.3 321.6 323.5 321.5 321.8 320.7 321.6 319.6 319.9 320.8 320.7 320.8 319.7 319.6 317.7 317.3 316.9 315.9 316.8 315.7 314.5 314.2 313.9 316.3 315.4 315.1 314.1 314.7 313.4 313.2 312.8 314.7 315 316.3 316.9 317.3 317.7 318.5 318.3 317.6 317.6 317.6 316.8 313.9 314 314.8 314.4 315.1 314.7 314 314.4 315 312.2 312.8 312.6 312.8 311.8 313.6 313.5 314.8 316.5 315 314.7 313.6 311.9 310.4 310.7 311.6 311.5 310.1 309.9 313.4 311.7 308 308.7
835.9 839.1 847.7 844.7 801.6 764 732.4 714.2 702.3 693.2 686.2 679.3 675.8 691.9 722 723.7 716.3 702.1 682.8 677.3 657.4 642.1 626.2 610.8 593.3 578.3 562 545.2 529.3 514.7 495.7 472.5 437 412.5 376.5 364.4 389.1 410.5 423.1 432 420.4 400.3 352.2 335.9 322.4 309.4 300.8 291.2 284.7 275.1 268.2 265.3 256.8 253.5 247 245.6 243.8 239.1 232.3 218.7 208.7 200.6 191.4 201.3 209.4 217.2 223.7 229.8 238.3 250.6 265.4 281.5 300.3 313.5 325.1 333.1 349.2 357.7 365.6 373.2 368 368.4 370.3 363.8 354.3 347.5 347.5 345.6 346.3 347.8 348.5 343 337.8 340 331.1 344.6 358 373.6 392.1 412 431.6 459.7 477.7 485.6 485 482.1 415.6 379.9 356.4 342.9 339.1 338.7 337.2 333 331 331.5 330.9 327.9 327.2 324.2 322.6 323.5 324.1 324.1 325.7 327.8 326.7 327.1 324.5 325.2 325.1 324.8 322.7 324.8 323.6 324.6 323.3 323.1 321.3 319.9 318.3 318.8 319.7 319.7 316.6 316.5 316.4 318.2 315.4 316.8 316.5 316.9 315.7 314.6 315.5 314.9 318 318.1 318.1 319.4 318.6 319.7 319.7 317.5 317.2 316.9 316.3 317.5 317.3 314.8 314.5 317 314.7 313.8 316.5 316.1 315.4 320.7 313.9 313.9 316.8 312.5 314.3 314.4 315.3 315.1 315.4 314.9 314.9 313.9 311.1 312.2 311.7 312.4 314.7 313.2 312.2 314.5 311.6 310.6
812.4 820.7 831.7 834.2 797 760.2 726.4 708.1 691.1 678.8 662.1 641 638.1 666.9 686.3 690.7 680.7 669.4 659.9 638.8 625.3 609.8 596.2 581.7 567.3 551.8 537.4 520 507.7 492 473.4 449.3 431.4 406.5 375.1 347.8 375.8 389.1 391.5 396.5 374.3 344.1 326.9 313.6 302.3 291.8 282.1 275.1 270.2 258.5 256.7 249.6 246.8 243.7 244.2 240 233.8 227.4 221 206.9 197.9 190.2 206.4 215.9 225.5 227.5 232.6 241.6 250.9 261.1 275.4 294.3 309.6 325.8 334.1 350.1 364.6 382 398.1 404.9 398.1 395.7 388.4 376.9 368.1 362.2 360.6 361 356.5 355.1 354.2 352.2 349.9 345.8 345.8 347.4 359.6 369 386.1 407.9 431.2 451 475.4 490 493.1 478.6 434.6 402 376.5 360.7 353.1 350 346.2 341.2 338.8 338.1 337.1 337 334.8 329.2 329.1 328.4 329.4 330.4 332.1 332.1 331.9 332.1 329.3 329.2 329 329.9 327.6 328.3 328.3 328 326.6 326 323.5 323.5 320.4 320.6 321.2 321.5 320.6 318.4 319.2 317.8 318.4 318.4 320.1 320 318.6 317.3 319 322.8 323.3 322.1 322.4 322.5 322.2 322.5 322.1 318.6 319.5 319.7 316.9 316.7 316.7 316.5 318.6 317 317.9 315.7 317.2 316.9 318.3 317 315.1 314.8 324.7 317.6 316.2 315.3 316.5 316.4 317.1 316.5 315.5 314.7 315.6 312.1 312.8 314.4 317.4 316.1 317.2 319.3 311.1 311.6
784.5 798.6 814.1 813.6 796 756.5 730.1 702 682.3 662.2 637.8 612.2 592.7 621.4 661 661.1 650.8 634.5 620.7 602.4 593.3 580.5 568.3 553.3 538.6 526.1 514.1 498.2 484.1 470.9 454.6 430.8 412.5 392.3 371 338.7 359.9 366.9 363.3 354.6 335.1 318.8 308.7 297.6 285.7 275.6 266.8 261.7 252.9 247.3 240.3 236.4 234.6 235.6 238.6 234.7 224.9 211.5 207.3 198.1 188.5 207 220.2 228.4 231.3 235.8 243.7 250.3 261.4 274 287.1 308.6 322.6 335.3 347.1 369.4 383.8 403.2 422.5 452.6 437.9 420.7 407.1 393.4 384.3 379.4 377.6 374.3 370.1 366.7 363.8 362.5 362.4 356 351.2 348.2 358.8 370.5 382.7 405.2 427.3 448.8 470.1 485.9 491 483.2 453.6 430.9 408.2 382.8 365.8 359.7 355.4 349.7 346.5 347.2 343.6 345.7 342.8 337 335.3 336.1 336.1 336.2 336.2 336.6 335.5 334.4 334.4 337.8 333 333.3 332.2 332.8 331.3 331.3 333 329.5 328.2 324.9 325.3 323.1 323.5 324.4 324.3 322.6 321 321.1 322.3 322.2 324.6 323 322.2 321.8 324.2 324.2 324.3 325.2 324.3 322 326.5 323.4 320.7 322.4 320.4 322.8 321.3 320.1 320.5 321.8 321.3 320 317.8 318.2 317.7 320.2 318.8 320.7 321.4 317.5 322.5 320.9 317.6 321.5 319.1 318.9 319.7 317.8 316.7 316.2 316.5 319.7 315.8 315.3 317.1 320 315.7 316 315.7 314.2
754.3 777.1 791.5 789.4 780.3 762.1 729.2 699.7 671.3 647.8 618.6 588.1 538.1 579.3 603.5 633.6 615.4 601.3 589 574.5 560.6 550.4 540.4 525.2 511.2 499.6 489.2 477.4 463.4 449.5 431.4 417 395 376.6 356.8 329.5 341.1 341.3 333.9 322.1 311.8 301.7 292.3 281 272.4 257.8 255.7 247.9 241.5 234.2 229.8 224.6 222 226.4 228.4 223.2 214.9 201 189 188.5 206.3 221.7 232.2 237 240.5 246.8 251.4 260.5 271.4 285.9 306.7 321.7 331.4 346 365.2 387.8 406.8 425.5 459.6 476 465.6 445.3 424.6 410.6 403.2 395.8 391.7 386.1 382.5 380.9 377.2 372.7 370.8 367.6 362.8 353.8 363.6 377.3 386.1 400.4 423.3 449 471.9 485.8 495.6 506.6 505.4 462.9 434.5 410.4 392.6 379.6 370.9 364.9 362 360.8 356.2 357.1 350.8 347.3 345.3 344 342.8 343 341.3 340.4 341 340.3 338.3 340 338.1 338.9 335.6 336.4 336.7 336.3 337.7 335 331.8 331.4 330.1 328.3 328.3 328.5 328.5 328 327.2 325.2 326.1 326.2 328.1 327.3 326.9 326.8 326.9 326.2 325.7 326.7 326 324.2 323.9 321.7 322.4 322.8 324.9 325.7 326.1 324.6 326.7 323.8 323.4 324.6 320.8 320.4 320.7 319.4 318.8 318.6 318.3 322 319.6 320.1 320.4 319.6 321.5 323.7 323.5 323.4 320.6 319.6 318.3 321 319.1 318.4 324.1 318.8 315.8 317.4 317.2 315.9
723.8 753.7 765.5 764 756.5 742.6 723 693.9 662 635.5 613.9 584.8 548.7 541.9 564.6 582.5 577.5 568.8 558 546.3 528.7 522.3 513.8 498.4 485.2 474.6 463.9 448.6 434 426 412.6 397.5 379.1 362.6 345.8 321.4 324.9 321.7 315.1 307.6 297.4 286.3 278.6 268.6 253.5 244.8 241.1 235.8 231.1 223.1 219.5 216.4 209.8 206.6 208.7 209.4 203.8 192.2 192.8 217.4 223.9 233.8 240.7 246.3 251.7 254 262.1 271.3 284.1 305.2 320 333.1 344.4 359.2 382.1 406.2 425.8 456.4 476.8 501.6 489.4 469.5 451.1 442.4 424.9 413.8 409.5 405.3 398 394.6 391.1 389.9 388.3 382.2 377 369 369.4 376.1 389.7 402 424.1 447 472 487.6 505.2 515.1 512.8 494.3 467.4 442.7 419.2 404.4 393.7 384.5 378.4 374.5 373.1 370.4 365.2 361.4 355.1 354.6 353.5 350.4 348.8 347.5 346.3 346.2 344.9 346 344 342.8 341.4 341.6 341.9 341.7 342 339.8 339.5 337.7 335.4 334.3 333.5 334.4 334.5 333.8 333.8 333.5 331.6 330.6 331.1 330.4 329.9 329.9 329.2 329.9 330.7 329.8 328.3 327.2 326.8 324 324.9 325.4 330 327.1 326.9 327.1 327.4 326.4 324.8 323.4 322.8 322.9 322.5 321.9 321 320.4 320.2 324.6 323 324.6 325.3 325 324.3 324.6 329.9 328.6 322.6 325.5 328.6 329.3 325.1 324.9 322.1 326.9 316.3 319.4 319.3 317.5
700.6 730.1 737.2 735.5 729.7 718.1 700.6 683.5 657.1 625.1 602.1 576.7 548.1 500.6 534.2 542.2 544.2 535.4 528.6 518.5 506.2 496.6 485.1 473.7 463.2 448.9 436.1 419.9 407.1 399.3 389.3 376.2 362.8 351.9 334.2 310.3 312.7 307.7 302.2 295.6 287.7 275.9 267.7 257.6 245.6 233.8 227.9 223.6 216.6 212.1 209.6 208 203 196.3 196.4 197.4 197.7 185.8 208.7 230.4 234.2 243.5 253.3 254.3 259.4 263.5 273 284.9 299.1 315.6 333.8 349.2 363.5 375.4 400.1 427.2 450.1 476.7 509.3 530.7 517.1 500 488.3 472.3 455.3 448 435.8 422 418.5 416.7 407.1 403.7 400 394.2 387.2 383.7 354.4 379.3 394.1 402.2 420.8 448.4 471.9 492.9 514.6 519.3 516.4 507.9 497.7 477.8 455.8 432.5 418.4 410 407.9 403 398.8 392.7 382.6 374.4 370.8 366.4 363.5 361.2 358.5 355.2 353.5 353.1 351.5 351.2 348.3 344.3 348.6 347.9 347.5 347.6 347.7 345.3 342.7 341.9 341.5 341.6 340.4 340 340.6 338.3 340.3 336.6 336.6 335.8 335.4 333.5 333 332.7 332.8 333.9 334.2 333.5 330.7 331.3 331.4 331 330.4 330.1 329.6 329.7 329.3 335.4 329.4 327.8 327.8 327.5 326.4 325 326.3 326.6 324 323.9 324.7 323 330.2 328.4 330 328.7 328.1 328.9 329.9 334.3 325.2 330.6 332 330.7 335.3 328.6 324 320.5 327.3 322.5 323.6 322.3
676.7 701.9 706.4 705.7 699.5 687.7 672.1 657.6 641.2 618.3 586.6 563.3 536.1 505.1 502.6 515.3 511.7 509.1 500.8 491.1 481.5 468.6 457.4 448.4 438.3 421.5 408.9 395.3 385.7 378.2 366.6 358.2 347.3 340.2 323.8 299.1 304.9 298.1 291.9 286.6 277.1 270.1 258.7 248.9 236 225 216.4 211.2 207.4 205.6 203.4 201.2 196.2 195.5 191.1 189.2 189.1 210.6 227 235.9 246.5 255 257.7 261.8 266.8 273.8 284.6 296.3 311.5 331.8 348.8 365.5 382.3 398.7 420.2 454.2 480.6 499.6 530.4 557.6 560 538.2 518.4 501.5 488.4 473.1 459.7 447.7 442.4 433.5 421.7 412.9 413.1 404.8 398.9 397.7 382.9 389.6 392.3 402 418.9 445.6 469.8 493.7 512.3 524.6 529.8 526.4 525.4 506.5 485.6 464.5 449.8 442 440.9 435.6 428 417.9 404.8 394.6 385.6 380.7 376 371.2 366.6 362.2 359.3 357.3 356 355.7 353.5 351.3 352.2 352 354 353.1 352.5 350.9 347.3 347.2 348.3 346.7 346.4 344 343.7 343.5 344.6 343.1 342.4 343.6 341.1 340.1 337.8 339.4 339.7 339.3 340.4 338.2 335.4 334.8 334.2 332.6 332.9 332.8 335.6 333 331.9 332.5 332.2 330.4 329.6 330.2 330.9 326.9 328.9 328.2 329 327.8 325.3 325.8 328.3 330.7 331.5 331.6 331.3 330.6 331.6 330.8 329.6 328.4 328.8 329.5 329.2 329.3 327.6 328.5 327.1 328 330.5 331.7
656.4 668.8 670.6 670.3 666.6 655 642.5 627.3 613.2 595.1 571.4 544.3 517.2 490.2 465 489.5 484.2 479.6 473.6 464.6 456.3 445.1 435.6 420.8 409.8 397.6 387.2 376.9 367.4 361.1 351.6 343.9 335.5 325.2 316.2 301.1 290.5 290.3 281.8 275 267.4 259.9 250.1 240.3 229.9 216.9 208.7 201 200 197.9 196.5 194.4 193.8 189.5 184.7 194.4 211 224.5 237.2 244.5 254.8 259.2 263.5 267.4 274.3 283.7 295.1 311.2 328.1 347.1 364.1 381.7 402.1 422.3 444.2 479 515.9 539.5 562.5 585.7 610.3 592.3 571.9 535.5 519.9 503.4 487 471.4 457.8 454.1 441 425.5 415.5 414.1 410.8 417 407.5 395.5 400 403.3 416.3 435.4 468.8 497 520.3 538.1 543 548.1 559.5 555.7 535.6 505.1 501.1 488.9 481.9 475.7 460.5 447.4 436.1 417.2 406.7 399.4 392.2 382.2 375.5 371.2 366.9 361.9 360.7 360.8 359.7 357 357.5 356.4 357.8 356.1 356.6 354.8 353 352.7 352.8 353 352 349.2 350.4 350.6 349.9 348.9 348.3 348 348.2 344 342.9 344.7 346.9 345.2 342.4 341.1 340.5 340.2 339.7 337.9 339.2 337.4 340.1 339.4 336.8 335.3 335 333.1 334.3 333.3 332.2 329.5 331.4 329 329.5 328.4 329.9 329.6 330.2 331 331.1 334.3 332.4 332.9 332 331.8 332 329.8 329.7 328.8 328.7 326.9 327.1 325.2 325.8 323.6 322.7 322.6
629.4 635.6 635.1 636.4 632.4 622.1 611.6 598.9 584.5 567.9 551.4 528 502.6 474.3 439 462.6 459.1 454 447.9 440.6 432.9 424.4 411 400.2 390.4 379.4 369.5 360.1 352.7 344.5 337.1 328.5 320.8 316.3 307.8 300 282.9 280.4 271.7 264.5 259 251.9 245.5 232.6 222.9 211.4 201.8 196.2 193.3 191.2 190.4 189.3 187.1 185.2 195 204.8 219.1 232.4 240.5 250.9 256.8 263.2 269.8 275.9 283.9 295.7 310.1 323.4 341.3 361 384.6 400.6 422.6 444.1 469 502.3 536 562.8 586.2 617.5 638.4 638.1 616.6 589.2 568 539 517.6 499.8 484.3 472.1 450.5 437.9 438.4 431.7 429.9 437.2 423.7 409.1 406.8 404.4 418.6 436.5 465.4 494.6 523.3 552.6 574.6 585.4 593.8 599.9 583.4 568.8 557.2 528.7 527.5 515.7 491.5 478.6 466.2 444.8 430.2 416.6 405.3 394.2 386 378.2 373.2 369.1 368.5 365.2 365.1 363.2 362.2 360.8 362.1 360.4 360.1 359.1 358.6 359.6 357.3 358.1 358.1 357 357.6 356.5 355.2 355 354.4 352.6 351.1 350.8 348.3 349.8 351.4 350.3 347.1 344.8 343.6 347.6 345.5 342.7 343.6 343.1 341.8 342.1 341.2 339.3 337.9 336.8 336.3 334.1 333.9 332.2 330.6 331.4 332.4 332.4 331.1 330.7 333.2 337.2 331.8 332.1 334.6 334 333 332.9 332.5 332.2 330.4 328.1 327.9 326 325.5 325.3 323 322.1 320.4 318.7
599.1 602.5 601.8 598.7 594.6 585.7 578.5 566.2 554.9 541.4 528.2 515.9 495.7 465.5 439.9 436.8 438.3 432.1 427.5 419.9 410.9 403 391.2 383.7 372.9 363.6 355.5 344.4 335.4 327.4 319.2 314.2 308.3 304.9 300.3 289.8 278.7 265.2 262.8 255.8 251.4 244.2 239 225.8 215.8 203.7 197.6 195.9 190.9 184.9 184.9 186 183.2 197 206.9 216.6 229.5 236.8 246 251.6 259.1 269 276.9 284.6 294.7 306.4 322 341.3 355.7 378.5 398.6 423.8 444.5 470.6 504.2 527.5 560 590 618.4 649.5 672.9 662.1 638.5 626.1 600.9 575.9 550.8 524.7 506.7 482.1 459 457.4 458.9 439.8 455.4 455.5 439.7 419 413.1 415.3 419.2 438.6 468.3 495.9 525.8 558.3 586 610.6 621.8 624.9 623 617.5 609.7 600.4 583 561.8 537.3 522.1 499.4 476.6 451.7 436 419.5 408 397.5 386.8 380.7 376.2 374.1 373.5 370.7 369.7 370.8 371.2 367.7 366.2 366.5 368.3 365.6 366.4 364.8 364.7 363.6 364.2 363.5 362.9 361.8 361 360.9 357.9 356.4 354 354.6 354.8 353.1 354.1 353.8 351 350.5 348.5 348.9 348.1 347.3 347.1 346.8 344.6 345.4 343.5 339.8 338 338.4 337.1 335.6 336.2 334.7 334.7 334.9 332.8 333.4 335 335.7 338.5 332.7 334 334.2 334.6 336.6 335.5 333.8 331.9 329.4 327.1 325.8 325.3 323.9 322.4 321.3 321.9 321.7 319.8
568.6 570.5 570.2 566.5 559.4 549.4 541.7 533 524.4 511.8 501.4 492.2 474.7 456.3 434.5 388.9 418 413.1 407.3 400.7 388.9 380 372 365 356.7 347.3 338.8 327.5 317.6 310.5 306.6 302.5 298.2 292.3 286.8 279.1 264.1 255.4 252 249.7 242 236.2 231.5 219 206.2 200.4 196.5 188.8 184.6 183.4 182.1 187.9 200.4 208.5 213.2 221.4 234.1 240.6 249.2 256.7 267.4 277.2 284.9 295.2 307 319.4 336.4 355.6 375.1 399.3 420.2 456.7 474.6 498.1 531.5 559.7 586.2 614.9 666.5 689.7 719.9 692.5 679.1 659.7 638.2 602.5 573.8 544.4 518.6 491.7 485.5 485 471.3 462.6 468.3 467 447.1 426.8 420.6 427.3 428.5 444.2 469.9 500.2 528.7 562.2 591.3 621.4 636.8 648 650.9 649.5 646.8 644.7 628.6 603.7 570.4 551 524.5 497.3 479.7 460.4 440.2 423.2 405.3 395.1 388.5 385.1 380.8 380.8 378.1 377.6 378.6 378.4 375.7 374 375 376.6 375.5 373.9 372.7 371.5 371.1 372.4 371.4 369.3 369.5 366.4 364.5 364.1 361.3 359.2 359.7 358.9 357.4 355.8 356.7 355.6 354.3 352.1 349.9 349.8 352.1 355.7 353 348 345.7 346.3 341.2 341.3 343.1 340.5 339 339.4 338.9 338.2 337.7 338.1 340.1 338.8 343 338.9 336 337 335.7 336.8 337.1 336.9 335.3 332.4 332.5 329 326.7 327.4 326.1 325.1 324.3 323.2 322.3 321.4
533.5 539.3 540.2 536.7 527.6 518.4 510.6 499.9 491.1 485.1 475.7 462.9 452.7 439 422.9 407.5 395.7 391.1 386.9 380.8 370.9 362.3 355.6 345.2 339.4 329.4 318.4 311.3 302.8 298.9 295.5 291.1 284.6 278.1 274 267 251.3 248.8 243.6 239.1 234.6 228.9 225.7 215.1 202.4 195.1 191.2 182.1 181.3 185.4 188.3 193.2 202.6 211 216.2 225.7 232.5 244.4 254.5 262.8 275.6 282.6 291.6 304 317.1 333.2 352.1 373.9 397.5 414.3 444.5 471.4 503.3 522.6 555.4 584.6 623.3 666.3 709.8 720.3 744.9 748 714.7 674.4 647.3 616.3 579 551.3 514.9 522.5 519 499 483.6 480 484.7 475.9 457.9 439.9 432.8 436 436.5 447.6 469.9 502.7 532.9 566.7 597.1 625.1 647.6 666.3 673.7 672.9 672.3 674.3 666.1 642.2 602.9 574.9 548.1 526 501.1 482.4 463.9 444 425.6 405.2 398.9 391.6 390.3 385.5 387.9 385 386 386.7 383.5 383.2 384.7 384.6 383.6 380.8 380 379.7 380.5 380.9 378.1 376.1 376.4 373.7 372.4 371.3 368.3 365.9 365.7 361.5 360.7 360.3 360.3 358.3 358.2 358.1 357.6 353.8 352.2 356.1 355.6 350.2 347.4 344.6 343.8 346.1 346.1 343.7 341.8 342.2 343.5 343.4 342.8 341.9 341.8 339.8 341.5 340.5 339 340.2 339.4 339.4 337.7 336 336.4 337.5 333.5 331.8 328.4 329.4 327.7 328 326.8 325.5 323.7 321.7
499.2 502.6 513.5 507.4 497.3 489.5 479.8 468.1 458.1 455.9 448.3 440.3 429.2 421.6 408 396.3 366 375 367.8 361.6 353.6 342.6 336 325.3 317.5 308.9 303.8 297.2 290.7 288.5 282.9 274.7 269.5 267.2 263.5 254.7 240.9 238.1 233.4 227.7 227.9 223.6 218.5 209.2 198.6 193.8 190 181.1 183.8 187.8 192.2 196.9 203.1 211.6 223.9 229.8 236.4 246.1 258.1 270.7 281.4 290.2 299.7 312.3 330.4 348.5 373.8 401.8 422.8 442.9 472.6 508.1 535.9 554.5 578.1 609.6 671 721.6 749.7 763.6 781.6 770.1 728.3 673.9 636.9 618.4 583 549.6 554.4 544.7 531 513.2 499 507.2 508.4 488.9 469.4 453.6 443.8 441 442.5 452.5 471.5 502.5 535.2 566.7 600 628.1 655.2 674.1 687.9 688.7 692.2 695 689.9 677.2 640.5 593.5 579.1 551.6 525 505.3 492.8 470.3 446.7 425.6 412.5 404.1 402.6 400.9 398.4 395.2 396.3 397.7 393.4 393.6 394.7 397.1 393.4 388.4 386.5 385 389.3 391.4 388.9 388.2 384 381.2 379.1 378.2 374.1 371.5 367.8 367.6 367.1 365 365.7 361.7 361.1 361.3 361.8 359.9 354.1 355.9 357 354.6 352.2 348.9 346.8 348.3 349.9 348.6 346.2 345.5 347.4 347.1 344.8 343.6 344.5 344.7 344.5 343.8 343.5 342.8 340.6 340.4 337.9 340.2 338.2 338.6 335.7 332.6 328.6 330.1 329.9 329.5 328.7 325.8 327.2 323.6
452.4 470.6 487.5 482.1 472.3 463.4 452 444.1 433.5 429.7 423.1 417.7 409.6 399.4 390.5 382.3 361.1 359.3 352.1 343.5 335.8 325.7 317.5 307.1 299.1 294.6 289.1 284.5 279.1 274.5 267.3 261.7 256 251.4 247.4 239.4 227.1 226.5 221 218.4 218 216.6 209.5 201.3 194.5 189.9 184.5 179.3 183.5 187.2 192.6 198.6 206.4 213.2 219.3 229.9 242.5 251 263.7 277.3 286 299.1 311.8 326.6 344.8 368.9 411.2 449.7 453.4 485.5 508.5 545.4 571.1 575.3 603.7 645.8 724.3 772.9 787.2 820.6 815.9 786.9 711.9 678.7 643.6 615.8 590.1 575.3 581.6 564.9 548.4 529.3 518.9 536.5 525.8 504.8 480.5 466.4 456.5 454.6 446.6 454.1 476.1 500.8 534.5 566.8 600.4 630.2 655.5 682.3 697.6 704.2 709.2 709.8 710.1 700 663 621.4 598.2 575.1 548.7 531.8 519.5 496.8 468.2 447.2 430.7 419.8 413.3 413.8 409.8 407.2 406.6 406.2 403.2 404.1 405.7 407 405.5 403.4 397.7 393.2 396.4 399.1 396.9 397.1 392.6 389.8 389.7 389 380.7 379.6 376.1 373 371.6 370.3 368.9 369.4 368.7 365.8 366.3 363 358.7 359.4 358.6 358 354.1 351 351.8 354.4 353.4 351.7 351.2 351.3 352.2 356.4 347.9 348.1 348.3 347.9 347.6 347.1 346.7 343.8 342.2 341.5 340.8 341.7 342.7 341.7 339 334.8 333.8 332.6 332.7 331.3 330.3 331.1 329.4 327.4
442.1 437.7 458.2 455 447.8 439.6 433.6 423.4 415.2 407.2 399.9 394.6 384.4 377.8 371 362.7 349.5 341.6 333.7 325.6 318 309.8 298.9 290.5 283.6 279.2 274.9 271 266.1 260.9 253.3 247.6 240.2 229.9 227.7 223 219.8 216.7 213.8 209.8 210.3 208.6 202.7 195.5 191.2 183.3 180 180.6 184 191 195.2 202.1 210.9 218 226.8 233.4 241.7 254.4 266.8 279.2 292.3 305.3 321.5 341.1 361.9 397.2 442.6 473.1 495.5 540.7 564.6 589.5 613.4 603.1 634.7 674.2 751.3 790.9 834.2 870.7 828.8 776.8 716.6 687.9 656.6 627.8 619.1 614.7 606.8 591.9 570.3 546.9 544.2 547.6 534.4 510.9 488.6 480 466.1 465.3 453.7 461.8 479.4 512.1 540.8 571 602.9 635 659.5 680.7 702.3 714.5 719.6 725.2 729.2 719 698 664.5 632.1 605.4 580 558.6 549.2 526.5 496.3 474.6 455.1 440.6 426.9 427.9 423.6 422.5 419.4 416.3 415.9 417.7 417.9 418.1 418.8 417 411.1 406.5 405.9 407.4 408.7 404.4 402.9 398 398.4 396 392.2 388.7 384 381.7 379.2 376.8 375.6 375.6 373.7 374.7 372.8 368 363.4 363.1 361.9 361.6 360.9 354.5 359.5 358.7 355.5 356.7 357.3 356.2 355.3 360.1 353.5 351.6 352 351.5 350 350.2 348 346 345.9 343.6 343.7 344.9 345.7 344.7 342.5 339.8 335.5 336.1 335.3 335.6 333.9 333.4 331.1 329.3
433 405.3 426.7 429.5 426.2 418.2 411.5 403.4 396.3 389.8 384 375.4 366.1 357.9 351.4 343.1 333.5 329 320.1 310.9 301.6 291.8 282.9 274.6 267.8 262.5 259.7 257.3 252.9 245.6 238.5 231.5 224.9 218.1 210.9 212.4 212 205.8 201.6 202.7 199.8 199.6 197.4 193 181.3 177.3 177.4 181.9 186.1 195.3 204.9 209.7 217.6 222.6 233.4 242.3 247.6 258.2 276.5 286.7 300.6 312.3 332.3 353.4 379.9 413.4 446.4 486.3 527.1 568.7 608.7 625.4 656 641.1 660.7 716.3 758.4 823.8 877.1 879.3 837.8 773.1 729 698.3 679.4 653.4 647 643.6 644.4 614.7 585.5 571.3 566.1 552.1 540.5 514.3 493.9 481.7 468.2 457.8 464.8 470.8 493.5 521.6 549.8 578.8 607.9 638.1 663 682.9 701.8 715.2 726.7 736.3 740.1 734.5 725 706.2 664.9 630.3 611.8 590.1 574 544.2 526.6 502.1 481.1 459.8 449.2 444.8 442.4 439.5 434.3 432 431.1 430 431.1 432.6 430.4 429.4 427.4 423.1 419.1 419 417.5 417.1 411.6 407.3 405.1 404.1 404.2 400.6 393.9 389.5 384.1 381.1 381 382.1 382.4 382.9 378.9 374.5 371 367 365.6 364.5 363.2 360.4 363.6 361.6 360 360.5 358.8 357.6 358.4 356.7 356.8 354.3 353.8 351.9 352.3 351.2 348.7 348.5 348.4 347.7 346 348.1 347.2 346.4 343.5 341.6 342.1 339.4 339.8 337.9 334.3 334.3 334.2 332.7
417.1 379.3 393.1 403 401.8 396.2 388.7 382.1 376.7 371.2 369.9 362.4 350.9 341.4 333.4 323 316 314 307.6 297.2 286.9 278.9 270 259.2 252.8 248.5 246.3 242 237.9 229.5 226.6 220.4 208.5 204.7 203.1 199.2 198 197.1 193.7 191.9 193.8 192.2 191.2 177.9 177.3 183.3 185.7 186.1 190.9 204.5 212.2 217.5 226.4 231 240.3 252.3 265.2 267 279.3 296 309.4 321.3 342.8 366.9 395.9 426.9 461.3 511.3 548.2 589.3 638.1 665.8 683.6 676.4 712.6 725.4 775.1 821.6 890.6 883.4 837.7 780.3 740.5 717.1 706 683.4 674.4 671.8 677.7 628.6 608.2 597.1 584 564.1 541.6 522.5 506.1 489.7 475.2 472.8 480.1 493.8 507.9 533 561.9 589.1 616.4 644.5 665.7 687.1 703.6 717 730.1 738.8 745.5 741 733.8 719 698.2 675 650.7 618.7 593.7 567.8 544.4 520.9 499.2 473.7 470.9 461 458.7 455.2 453 450.5 447.2 446 447.4 450.9 447.5 444.6 440.3 435.5 432.3 428.5 428.2 427.6 421 415 412.8 409.4 409.9 405.8 400.2 395 390.5 388 386.9 390.3 388.2 387.4 383.9 382.2 378 375 372.4 368.4 368.3 363.6 365.5 365 364.1 362.3 361.4 361.4 361.4 360.3 357.6 357.2 355.3 354.8 353.9 352.7 352.2 352.7 351 351.1 350.9 348.7 349 348 344.7 346.6 346.2 343.3 342.8 338.2 337.3 336.2 335.2 335.6
396.9 379.4 353.8 380 379.5 373.5 368.3 361.8 358.8 357.7 357.3 349.4 336.2 325.1 317.2 308.3 300.8 298.5 290.8 284.8 273.6 266.1 257 246.4 241.2 234.9 230.4 227 221.8 216.8 213.7 209.5 199.2 193.8 190.4 187.3 187 190.1 184.7 185 186.5 184.8 182.4 177 179.4 183.4 193.7 199.5 202.8 213.6 218.3 227.5 232.8 240.5 250.4 265.3 274.1 289.1 288 298.1 314 329 352.4 381.1 410.4 442.4 473.9 538 571 611.8 647.9 681.1 707.8 706.7 739 762.3 789.9 843.1 894.5 898 840.7 812.4 763.6 750.9 730.2 708.8 703.4 708.4 674 644.2 633.1 635.3 605.7 574.5 549.9 530 512.4 493 478.1 486 499.1 516.1 528.4 547.8 575.1 597.6 626.1 651.8 671.6 691 704 718.7 735.3 740.8 741 744.5 732.3 714.6 702.5 682.7 658.1 633.2 614.9 583.7 559.4 533.7 510.5 500.5 491.4 481.9 477 473.2 472.1 464.6 465.8 466 463.8 467 459.6 454.7 452.7 449.7 443.7 442 433.4 433.3 428.3 425 419.6 417.9 417.7 410 405.5 397.5 393.7 392.9 393.8 394.4 397.6 395.8 392.7 388 384 378.7 376.3 373.2 372.2 367.9 371.5 370 368 367.3 363.8 362.9 364 363 360.7 358.6 356.9 356.5 356.9 355.9 354.6 354.8 354.8 353.2 351.4 350.8 352.1 350.5 347.7 349.8 347.1 345.9 342.3 342.3 342.5 340.7 341.5 338.8
376 364.2 334.7 358 359.9 355.4 346.9 343.2 339.6 340.1 340.3 336.7 320.3 307.5 298.8 292 286.3 281.2 277.1 269.9 262.2 253 245 239.6 231.7 224.9 217.5 211.3 206.4 202.8 196.1 196.5 191.5 186.2 184.3 177 176.1 180.2 178.4 180.2 180.9 177.9 174.5 182.9 191.7 195.6 207.8 215.2 219.8 227.1 227.1 236.5 243.4 251 265.9 274.5 284.5 298.4 303.6 304.2 314.7 338 361.1 389 421.8 453.7 491.9 542.1 587.8 621.7 656 704.6 728.5 746.6 761.9 789.9 823 886.3 898 905.4 885.6 846.2 807.4 792.5 755 749.6 730.5 719.7 690.9 674.9 683.6 659.7 610.3 578.4 550.9 531 511.6 492.3 488.5 502 518.9 533.9 548.1 567 587.6 612.8 639.4 662.3 680 694.6 705.9 719 737.4 743.2 742.3 736.3 721.1 707.5 693.1 679.2 657.6 634.2 620.2 595 569.3 542.3 530.6 520.1 513.4 503.2 497.4 487.2 487.5 484.9 481.7 484.9 482.1 478.8 475.2 467.3 464.3 462.4 454.8 452.7 446.1 439.3 437.8 432.3 430.7 427.6 424.2 416.6 410.1 406 402.6 399.2 400.7 401 400.6 399.8 398 392.6 391.1 385.5 382.5 380.2 377.9 374.8 373.4 374.8 371.7 369.6 367.9 366.8 366.5 364.4 362.5 360.4 361.2 360.1 359.9 359.6 358.5 357.5 357 354.7 354.1 355.7 355.7 353.9 351.9 354.8 351.3 347.1 345.5 346 345.9 345.9 343.2 341.5
358.6 350.2 336.8 326.1 338.6 335.2 328.4 324.3 321.3 317.8 316.5 312.6 300.8 291 282.9 278.5 272.4 266.1 262.3 256.5 247.8 242.9 236.1 229.5 222.8 213.5 206 195.3 192.1 189.4 185.7 180.8 175.2 170.8 168.3 161.4 163.7 167.5 171.2 174.4 175.7 173.7 184.3 193.7 204.8 213.7 220.2 228.7 234.5 239.9 243.3 248.7 253.4 265.2 276.7 285.4 297.3 311.7 319.6 318.8 320.5 344.2 370.7 397.3 429.5 462.3 498.3 548.6 594.8 630.7 666.3 716.9 752.2 776.6 796.4 819.2 864 890.2 902.3 910.5 907.9 871.7 866.2 808.6 785.4 779.1 766.9 746.2 725.7 730.1 701.3 665.6 629.4 582.5 551.2 532.2 509.8 489.4 497.4 515.3 532.2 547 562.8 585.3 602.8 623.9 651.1 673.5 687.4 699.2 709.7 719.8 731.4 734 737.1 726.4 719.1 702.8 685.4 674.4 657.5 640.6 624.8 604.7 576.1 562 554.7 542.1 538 528.4 521.9 511.4 507 503.8 499 498.1 495.9 494.4 488.4 480.4 475.3 475.5 470 460.5 455 448.1 443.6 437.6 438.7 432.6 430.3 423.7 420.7 416.2 411 406.3 405.9 407.4 407.2 403 403.1 399.3 397.6 392.4 387.9 383.3 380.1 381.5 376.9 376.6 377.5 374.9 372.9 371.7 367.4 366.5 365.2 365.2 364.1 363.3 364.6 363.2 361.9 361.3 362 359.5 358 358.9 359.6 358.8 354.7 357 353.8 350.7 350.3 347.9 347.9 348.8 345 343.3
336.3 331.1 321.5 291.4 314 314 312.1 307.9 303.8 296.6 294.3 290.9 284.4 277.3 270.3 266.6 259 253.8 250.6 241.9 239.8 230.5 226.3 219.4 211.3 199.7 192.5 186 182.6 177.1 172.8 168.6 160.2 166.4 171.1 174 177.9 180.7 183.8 178.1 178.5 189.9 198.3 210.7 219.9 227.7 234.7 241.7 248.5 253.2 260.5 263.6 269.5 280.3 290 301.2 313.3 327.8 329.9 330.5 326.5 352.2 380 407.4 434 468.2 506.4 551.8 597.7 636.7 676.1 736.5 772 801.7 832.3 859.8 886.4 901.8 910 919.3 920.7 899.2 869.4 839.2 814.9 815.8 798.1 774.7 770.9 752.1 709.1 664.1 622.2 580.8 555.8 531.1 505.3 494.1 509.4 529 539.1 562.5 581.8 603 622.7 641.3 663.4 682.4 694.8 706.6 716.1 722.2 724.9 722.7 715.9 711.9 707.3 694.9 683 670 657.4 641.8 627.1 612.4 594.7 584.1 574.5 565.1 558 549 541 531.9 527.7 523.2 519 516.8 511.1 507.8 501.4 496.2 488.1 483.1 476.4 468.3 467 459 450.5 445.7 445.1 441.4 437.9 432.3 429 425.7 417.8 415 413.3 411.5 409.3 408.5 405.8 403.1 399.4 393 388 385.8 387.6 384.6 379.6 379.8 381.3 378 375.5 372.8 371.2 369.2 367.9 369.6 369.3 368.9 367.6 368.1 365.9 363 363.2 362.2 361.7 362.2 362.7 362.9 360.2 358.2 356.3 353.9 354.8 352.5 351.4 349.4 347.5 344.9
310.7 308.1 303.4 281.4 286 294.9 290.8 291.3 285.8 278.3 278 272.5 270.4 263.9 259 254 246.6 240.4 237.9 232.1 226.2 219.6 216.4 207.5 198.6 189.4 182.2 174.8 169.5 165.6 161.4 165.1 176 181.3 182.4 184 185.2 187.9 188.7 194.8 202.5 208 213.1 226.5 234.4 242.3 252 258.4 265.8 270.5 282.3 291.9 292.4 298.2 309.6 321.1 336.5 342.3 345.3 338.6 334.4 359.8 388.9 415.2 443 474.5 511.4 557.9 598.6 646.3 697.9 742.7 788.8 824.2 852.9 881.2 899.6 915.5 926.6 943.3 939.4 906.5 886 868.4 864.8 842 835 821.6 806.4 765.1 714.8 653.6 617.8 582.3 554.2 527.4 511 510.5 522.5 542 553 578.4 600.5 622.5 642.8 656.6 678.7 690.6 701 709.6 718.7 723.3 725.7 711 708.6 705.5 695.2 688.3 676.8 668.7 658 644.8 636.1 621.6 611.6 602.2 592.1 585 579.2 569.1 561.4 553.9 546.1 542.9 536.4 534.7 522.8 518 511.5 507.6 500.6 496.1 486.7 479.7 473.3 465.9 461.9 453.3 450.5 446.7 444.6 438.5 435.9 433.7 425.9 420.6 417.9 419.4 416.1 412.3 409.1 409.3 401.6 396.1 390.6 391.8 388.2 386.8 384.5 381.9 384.9 382.1 382.6 376.4 375.9 374 375.6 373.4 372.8 372.1 371.8 372.5 367.8 367.3 368.5 365.7 370 367.4 364.6 364.7 362.6 361 359 358.3 361 355.8 353.3 350.7 349.6 352.4
283.4 279.2 279.9 275.1 260 272.1 271.6 271 267.7 263.4 259 255.4 252.8 248.4 245.8 241.6 234.5 229.2 224.8 219.4 212.1 209.9 202.5 198.3 186.4 180.2 172.5 165.3 154.4 158.4 171 176.9 185.1 193.2 196.8 195.3 192.4 192.7 200.8 209.8 217.7 226.9 234 243.6 252.3 258.9 270.1 279.1 289.2 297.2 309.5 317.1 320.3 327.5 334.3 346.6 359 361.9 357.5 344.1 345.7 368.2 396.1 421 450.4 481.3 519.7 561.4 602 661.3 701.8 740.7 782.9 822 856 889.6 911.7 928.2 942.5 954.6 952.2 933.4 910.4 898 880 868.7 855.5 839 791.6 749.5 695.1 653 618.2 584.8 552.7 528.5 497.3 528.5 537.3 557.8 578.4 600 619 640.8 657.9 678.3 692.7 702.7 708 715.1 719.6 721.5 713.3 705.1 702.6 699 689.5 686.2 679.5 672.7 664.3 654.3 644.3 630.6 629.5 619.3 612 603.6 595.7 586.7 579.5 574.4 563.5 559.8 553.4 546.9 535.7 532.7 526.6 520.9 515.3 507.1 498.7 488.6 481.4 476.9 470.5 464.4 457.6 453.1 453.9 447 447.9 439.5 432.9 429.1 424.7 424.9 423 417.9 415.4 409.2 404.9 398.8 396.3 398.8 392.2 389.3 390.6 386.8 389.9 388.2 383.6 378.8 378.5 378.3 377.1 378.2 375.5 376.9 375.7 374.3 370.7 372.6 370.1 372.1 372.9 372.4 366.9 365.8 365.4 361.8 359.1 358.8 362.9 358.1 355.1 353.5 349.8 351.4
251.8 249.7 251.4 251.5 234.5 248.6 249 250.6 250.3 245 239.9 239.7 239.3 235.2 239.1 230.4 224.2 216.8 213 209.2 203.1 196.8 190.4 182.1 176.1 170.3 162.2 152.7 164 174.2 181.5 185.4 192.8 200.7 207.2 205.3 197.1 204 216.7 224 233.9 242.6 248.4 262 272.7 283 294.2 306 318.7 328.2 340 347.8 356.7 360.5 368.6 373.6 380.8 380.5 365.1 348 350.3 377.5 401.2 430.8 459.9 494.8 529.2 565.8 612.9 661.5 710.8 754 805.7 830.1 865 899.5 922.7 939.2 953.9 964.7 969.3 956.4 933.9 909.3 884.4 868.9 848.5 813.7 776.6 739.4 692.7 655.6 616.8 583.7 549.1 530.5 524.4 544.6 559.4 576.7 596 621.6 642.3 658.9 675.9 695 708.5 713.5 716.6 719.5 718.2 712.6 704.6 700.5 700.3 697.2 692.1 688.2 682 676.5 670.7 661.5 652.2 645.4 639.3 632.8 625.5 617.9 608.7 600.5 593.7 587.8 582 575 568.2 560 552.5 547.7 541.5 535.3 525.9 519.8 507.3 501.5 490.9 487.6 481.8 474.1 469.5 461.5 459.4 454.9 450.9 446.9 440.6 435.5 433.7 429.1 428.6 425.3 422.3 415.6 410.7 405 399.5 398.8 395.6 393.5 392.5 394.4 394.6 392.5 387.9 386.1 386.8 381.2 379.4 379.5 379 379.5 378.6 374.7 375.5 375 375.7 375 374.2 372.6 369.3 367.2 365.3 365.3 363.4 360.8 363.1 361.1 356.9 354.4 351 353.4
214.6 218.2 224.2 222.5 224.3 226.5 228.7 228.9 232.1 231.7 225.1 224.3 222.3 224.8 219.6 218 212.5 203.7 202.6 195 190.8 183.3 176.5 173.2 170.4 163.2 150.9 166 171.1 185 188.4 195.8 204.2 208.9 211.1 207 213 219.3 228.8 237.7 250.6 261.7 271.9 284.7 296 306.6 321.3 333.6 350.9 361.7 376.2 393.9 405.9 405.9 402.8 407.8 404.7 389.9 371.3 349.5 363 382 411.2 438.2 468.7 495.6 530.9 568.5 612.7 665.1 702.9 733.5 775.1 816.5 855.6 898.4 929.1 948.1 963.2 976.3 986.4 960.6 932.9 903.1 878.3 856.2 828 794.3 757.9 722.8 688.6 648.6 615.7 585.1 552.2 528.8 543.5 555.3 567.3 586.5 615.5 641.1 661.4 676.2 691.8 707.1 722.5 723.8 719.2 720.1 718 708.9 703.8 700.2 699.1 695.8 691.3 685.3 683.1 677 675.6 667.5 660.3 657 653.1 647.5 640.2 630.9 621.7 613.4 605.7 599.2 596.5 589.1 585.6 578.7 570.7 565.5 558.9 552.1 540.4 529.4 521 509.7 503.2 497.3 489 484.1 477.3 470.9 473.5 464 456.4 453.3 449.5 445.2 443.5 440.3 434.5 432.2 426.6 422.7 415.1 405 402.9 405.1 400.5 400.1 395.1 400.1 399.1 397.4 393.9 392.7 390.8 385.5 384.1 386.7 385.2 383.9 380.7 380.1 379.1 377.8 379.1 378.1 378.2 377.8 375.3 373.3 371.5 370 368.7 366.8 365.2 361.2 360.3 357.2 357.4 358.2
187.8 195 199.2 201.6 205.1 205.8 210.6 212.1 216.9 214.9 210.6 209.5 210 212.6 210.7 202.2 196.1 195.3 188.4 184.2 183 172.6 167.4 164.6 157.7 153.8 164.3 171.5 181.6 189.1 195.8 205.3 214.4 218.4 217 221.2 229.3 235.4 242.3 254.7 269.2 283.6 293.8 307 320.3 335.5 350 368.4 383.3 398.6 423.7 445.3 458.7 462.3 448.8 444.3 421.6 397.7 374.7 356.5 374.7 394 419.5 448.3 474.7 505.9 539.6 578.6 626.1 665.7 706.3 745.2 777.2 818 871.8 913.6 940.1 957.6 969.7 985.3 962 939.5 911.8 887.7 864.4 841.6 814.1 781 747.7 713.4 677.9 644.6 616.2 586.5 555 534.8 548.7 559.5 577.6 600 636.8 668 685.2 692.2 706.7 720.5 727.9 724.4 718.3 712.1 709.2 704 701.3 703.1 698.5 694.1 688.1 689.3 689.1 686.5 682.1 675.1 668.9 666.6 660.9 656.4 650.3 642.6 632.2 626.6 617.3 610.9 610.5 606.5 601 590.7 583.6 578.7 570.5 564.6 553.5 541.8 536.5 528.8 517.1 507.4 501.9 497.5 489.2 479.1 478.7 474.5 469.2 460.2 453.8 451.2 452.3 446.2 444 437 432.9 427.2 417.9 410.6 408.5 407.7 405.7 406.5 403.6 406.9 403.9 401.4 399.9 398.2 393.6 391.2 391 389.9 388.6 387.7 385.6 387.2 383.1 382.4 380.5 381.1 380 381.9 379.8 373.9 374.4 375.6 372.3 370.1 366.1 364.2 363.3 361.2 361.7 362
169.2 176.9 182.2 185.6 190.8 190 194.4 197.7 201.5 199.6 196.8 200.2 200.3 202.2 197.9 191.9 187 183.8 176.1 175 170.1 164.2 159.5 152.5 147.4 156 171.6 181.7 188.9 197.8 205.7 212.8 218.8 222.4 228 237.4 246.9 253.7 262.4 276.5 289.4 302.8 317.8 331.8 350.8 366.1 386.5 406.1 424.6 433.8 457 484.1 509.5 505.2 487.4 454.3 423.9 401.4 380.8 363 384.1 402.8 428.5 456.2 484.8 513.7 549.3 584.8 623.2 663.9 707.2 744.7 782 821.7 860 895.8 938.9 962.1 974.4 959.1 918.4 894.7 874.8 857.4 840.8 823.4 795.9 767.1 739.2 710.2 674.1 640 609.9 586.1 559.6 540.2 554 569.3 590.2 625.4 656.9 684.8 702.6 712.7 721.2 731 736.4 733.1 727 708.3 701.6 699.7 697.5 696 693.4 695 695.8 693.8 691.1 690.5 687.8 682.7 678.9 676.1 670.9 665.1 660.4 652.2 644 637.5 629.7 624.4 620.9 619.5 613.2 601.6 596.6 590.7 584.6 572.7 564.4 556.7 547.6 539.1 529.1 520.7 513.6 505.5 499.6 492.4 484.5 481.5 477.1 468.9 463.7 458.1 459.1 455 451.6 444.6 438.6 432.9 422.1 416 414.3 412.9 411.9 412 409.2 411.7 408.6 407 407.1 403.2 397.4 397 396.9 392.7 391.4 392.4 391.3 392.7 388 385.9 386.3 386.9 385 388.4 384.6 379.2 378 375.8 375.9 372.5 369.3 368.5 366.9 365.3 366.6 363.1
155.7 161.4 167.8 170.8 175.7 172.9 181.2 185.1 186.3 186.3 189.2 190.7 189.3 190.4 185.7 181.1 174.8 170.8 163 161.5 159.7 157.6 150.2 143.5 161.9 170.5 184.3 191.2 199 207.6 215.3 219.3 222.9 233.8 244.3 251.5 261.4 272.4 282.9 297.2 310.7 325.1 341.4 358.2 381.9 406.2 431.3 448.3 462.4 468 492.5 515.8 533.7 519.3 484.7 450.9 426.9 405.9 384.5 370.9 390.1 411 435.9 465.4 492.8 524.3 557.6 590.8 627.8 666.9 705.5 745.1 783.9 822.4 860.8 901.4 942.6 965.2 954.9 918.5 891.6 869 845.2 829.4 813.5 799.2 777.7 754.5 729 697.6 669 637.7 611 586.2 564 550.4 564.5 582.6 611.1 639.4 684.2 703.7 723.4 730.4 735.2 739.6 742 736.9 723.3 709.1 701.5 699.7 699.3 700.7 703.5 698.9 698 698.2 696.9 694.5 692.2 689.5 683.8 681.9 679.3 675.9 669.2 663.4 656.2 649 642.4 636.6 633 632.1 628.1 615.6 610.1 599.5 594 583.4 576.3 569.6 556.1 549.7 539.8 533.7 526.5 518.1 510.8 500.6 494.1 487 483.8 481.6 474.1 467.1 463.1 462.4 459.4 451.2 446.8 437.8 426.5 421 421.7 421 417.7 417.1 413.8 415.7 412.6 411.9 410.1 407.9 403.1 398.7 398.9 397.1 395.3 392.9 393.1 391.5 389.7 391.6 389.4 389.5 386.5 387.2 388.7 383.1 381.6 379.9 378.6 374.8 371 372.2 369.5 369.9 368.3 365.1
141.9 148.2 154.6 157.4 163.1 161.5 165.6 171.3 174.8 177.6 178.6 178.3 180.9 177.3 171.6 167.8 165.1 158.2 154.3 149.2 147.9 148.1 145.7 166.7 176.2 183.1 193 198.4 209.8 221.2 222.1 232.8 244.6 252.4 261.3 268.7 280.7 294.7 303.7 318.8 333.8 350.4 369.5 386.7 410 443.9 475 494.2 497 508.1 529.3 549.1 548.6 511 475.7 450.3 430.1 410.6 390.5 377.8 395.1 422 446 474 503.2 533.7 563.2 597.1 633.6 670.5 707.4 744.5 790.5 832.3 873.7 915.2 948.3 969.7 936.2 902.4 874.9 855.3 834.9 812.9 796.6 782.4 764.6 744.7 719.7 694.6 659.1 624.7 609.6 591.4 559.5 563.1 576.1 598.8 623.9 653.5 693.8 717.7 738.3 745.4 745.2 748.3 746.2 742.4 728.9 715.4 705.3 701.6 701.9 701.6 706.8 702.7 701.7 702.5 701.6 700.3 695.4 694.4 692.9 689.9 686 681.7 678.6 673.9 668.2 662.4 655.1 650.3 647.8 644.5 640.4 629.7 623.7 611.4 603.8 595.1 588.6 581.4 573 557.5 550.6 545.6 539 528.8 521.5 514.7 503.8 496 491.2 490.1 485.6 476.1 470.1 469.6 465.2 459.2 451.7 441.2 434.7 429.4 428.7 427 425.7 421.2 418.7 415.9 416.6 416.2 412.6 408.7 406.3 402.7 400.8 400.6 396.4 398.1 395.5 394.7 393.2 394.9 391.4 391.9 391.4 391.3 388.9 385.8 386.6 383.9 382.4 377.4 376.8 375.8 371.9 374.1 370.1 368.3
133.2 138.1 143.1 147.1 150 150.5 155.7 160.8 164.5 168.3 169.2 171.5 170.3 165.8 163 154.9 151.3 148 138.6 139.4 149.7 156.6 169.9 177.8 187 194.4 204.5 213.2 217.5 226.9 238.9 250.1 261.3 268.9 278 286.4 302.5 312 324.1 339.4 358.8 379.5 402.7 422.3 439.2 467 503.7 533.9 551 555.8 561 569.7 547.9 511.5 468.7 448.1 431.8 409.7 391.9 387.6 409 433.3 458.4 484.1 510 537.6 568.5 606.2 643.5 680.1 714.9 747.3 787.6 827 873.9 909.9 948.7 970.8 930.7 896.4 877.7 861.4 827.9 811.5 789.1 772.6 754.6 740 716.7 694.4 665.9 646.4 618.9 600.1 545.3 577.4 593 618.7 647.2 681.3 703.8 729.9 752.1 760.3 758.3 759.3 755.2 751.6 739.2 730.2 716.3 704.9 704.8 704.6 709.4 704.4 704.2 706.2 707.3 706.2 704.9 703.9 699.9 699.6 696.8 691.4 687.7 685.8 677.8 671 667.6 663.2 660.7 655.5 650.8 641.3 635.8 624.6 616.3 607.4 598.6 590.8 584.4 574.1 564.2 555.6 550.5 542.1 530.2 523.4 513.2 512.2 505.3 495.3 491.4 488.3 480.5 473.1 469.5 463 454.2 446.5 440.7 435.1 430.3 433.2 432.7 426.5 422 418.1 420.4 419.2 417.5 411 410.6 406.8 402.4 401.4 398.4 397.1 398.7 400.1 398.4 397.8 395.9 394.3 393.5 392.8 391.9 391.7 390.2 388.8 384.4 381.3 379.3 378.9 377.6 375.7 372.7 368.4
122 127.3 133.6 134.8 136.2 141.7 143.5 151.8 155.4 161.2 162.7 168 163.3 159.9 155.2 147.3 141.8 138.9 148.9 154.6 163.6 171.2 178.6 187.8 197.9 206.4 212.7 223.1 227.7 242.4 255 268.7 278.2 287.2 296.4 308.1 317.9 328.6 346.7 364 386 416.4 438.1 459.3 479.6 498.5 524.2 567.6 588.8 591 588.9 579.3 535.8 496.7 464.1 448.2 429.3 405.6 390.3 401.3 419.7 441.6 462.6 490.8 519.1 546.8 574.2 610.3 649.4 686.6 723.9 762.9 802.1 839.9 876.2 915.3 950.1 975.2 935.1 898.5 877.9 865.3 832.5 807.1 793.2 780.9 766.9 743.1 722.8 698.8 676.3 646 626.6 605.4 552.4 593.9 613.6 638.5 667.7 696.2 719.8 744.6 767.1 771.9 777 772.5 769.7 765 756.5 745.4 730.3 711.3 708.2 709.6 715.3 715.3 709.9 711.9 713.6 714.2 713.8 710.4 709.7 707.9 703.3 701.4 696.6 695.2 689.3 684.2 681.7 676.1 672.1 666.2 658.8 652.3 644.3 638 624.9 618.3 611.1 598.3 591.7 583.5 576.6 571.1 557.1 550.3 542.1 532.1 524.8 518.6 515.8 506.2 497.4 495.3 491.4 482 473.8 469.1 458.5 451.7 446.3 438.6 436.1 437.4 436.5 431.5 427.5 421.3 425 425.5 419.5 413.9 411.5 409.9 408.8 403.5 401.5 399.8 402.4 402.5 400.9 401.6 402.4 400.7 397.9 398.5 397.1 396.6 394.8 392.3 387.4 387 386.9 384.5 380.6 376.3 375.9 370.5
