ncols 200
nrows 83
xllcorner 360000
yllcorner 485850
cellsize 50
200.9 203.1 205 203.6 200.9 203.5 209.6 213.2 215.1 214.1 209.9 206.4 205.9 206.9 209 211.7 216.1 218 220.6 222.2 221.4 220.2 219.2 215.4 211.8 209 205.5 197.4 189.5 179.5 167.7 160.5 152.3 143.5 135.6 128.9 121.8 112 102 95.4 94 89.8 79.3 83.4 87.4 87.7 87.1 86.6 86.1 85.7 85.2 84.7 84.4 83.1 84.1 84.5 84.5 84.8 85 76.4 79.1 78.7 78.8 83.4 90.1 99.3 103.2 107.1 107.4 107.9 107.5 110.4 116.2 123.4 131.5 139.9 150.7 161.3 173.5 186.2 196 203.6 211.9 224 236.9 248.2 246.4 243.8 244.8 247.6 249.3 256.2 263.7 267.8 270.4 274.5 277.6 279.9 280.6 276.6 267.1 258.2 252.7 247.9 241.8 233.7 226.1 214.5 197.2 180.2 162.7 153 145 135.1 129.7 120.1 110 116.6 123.5 122.2 119.2 117.4 119.6 122.8 128.2 132.5 135.3 139.1 142.9 145.5 147.4 149.7 153.7 157.7 160.8 164.3 166.8 166.6 170.1 172.8 180.2 185.6 192.4 199.2 205.2 212 220.6 230.1 241.8 249.9 250.6 254 256.6 257.5 258.1 259.6 262.7 265.7 267.9 269.2 267.1 260.1 249.8 245.4 240.6 238.2 237.7 237.5 237.4 239.5 243.6 247.8 251.1 253.9 255.5 255.5 252.9 249.2 246.3 252 257.9 266.6 274.7 281.1 285.5 286.6 285.8 284.6 283 281.6 276.9 280.2 291.9 301.6 308.6 314.8 319.6 323.1 328.7 334.3
204 206.9 208.3 204.8 199.4 204.9 211.8 217.4 220.7 217.7 213.1 211.5 208.8 207.9 208.4 209.8 214 214.2 216.1 217.1 217.4 218.3 218.3 215.7 209.5 203.5 199.5 193.7 188.9 177.5 166.1 158.5 150.9 141.8 134.2 127.5 117.5 107.7 99.3 95.5 93.9 90.9 84.5 78.6 84.9 87 86.4 86.2 85.8 85.7 85.3 84.6 83.4 83.5 83.8 83.9 84.1 84.4 84.1 82.2 77.3 78.8 79.1 90.1 97.8 100 106.5 111.2 110.4 110.4 112.4 115.2 118.8 126.7 134.9 148.2 159.3 170.4 184.3 196.2 206.3 218.2 226.6 236.8 247 253.6 257.7 256.7 261.7 262.4 270.3 278.2 281.9 284.5 286.6 288.3 290.1 290.6 291.8 283.6 276.4 269.7 262.4 255.1 247.3 239.5 231 219.1 202.3 187.4 177.2 168 154.8 146.4 135.8 126.9 118.1 110.1 116 117.3 114.5 114.9 117.7 123.4 129.2 133 136.8 139.8 143.1 143.8 142.2 142.3 145.7 148.5 153.4 158.4 159 161.4 164.8 168.2 172.5 175.7 178.7 183.1 187.5 195.5 201.3 206.7 214.2 225.7 236.8 245.5 251.9 255.9 259.5 261.5 264.4 267.4 270.7 272.1 269.4 263.3 255.1 246.4 241.2 240 239.7 238.6 237.5 237.3 238 242.6 248.9 252.6 255.1 257 257.3 255.2 249.4 247.9 254.9 261.3 269.5 279 286.9 290.4 290.6 288.9 286.8 283.7 279.9 279.9 288.6 298.1 306.1 313.3 319.1 321.2 327.8 335.3
209.9 210 208 204 197.6 202.1 210.2 218.3 222.9 220.2 218.8 217.6 214 208.9 208.7 208.2 212.4 211.1 210.5 213.6 214.6 216.3 218.1 215.7 207.4 200.3 194.6 190.4 187.8 174.3 165.2 154.8 146 136.2 130.2 124.2 115 106.1 99.1 96.6 94.6 94.8 89.5 81.3 77.3 84.8 85.9 85.7 85.7 85.4 84.9 83.6 82.5 82.2 83 83.5 83.7 83.7 83.8 82.3 78.4 78.4 78.5 100.4 104.2 107.3 110.3 111.9 111.4 112.2 114.1 117.7 124.3 131.7 139.8 153.4 164.8 177.3 191.6 203.7 215.5 227.4 238.1 248.8 258.2 266.4 276.4 279.6 282.1 282.7 283.5 285 286.1 287.3 289.6 295.2 296.7 298.4 298.4 295.6 291.8 281.7 273.8 266.9 260 252.5 240.1 226.2 211.3 198.8 188.2 179.6 170.6 152.9 142.9 131.4 122.1 116 110.5 110.5 110.5 113.4 115.4 120.9 124.7 126.9 128.7 129.9 131.5 132.9 135.1 138.4 144.6 146.7 149.6 155.6 155 155.2 160.4 164.8 169.7 173.7 176.2 176.3 177.2 180.3 184.8 193.6 199.5 207 218.6 230.5 245.3 258 264.3 266.6 268 268.6 272.8 274.9 276.5 270.2 261.2 249.8 243.7 243.7 244.1 243.2 243 241.6 236.9 237.7 243.9 249.4 253.5 256.2 257.6 257.9 254.6 247.9 252 258.3 266.2 277.1 285.7 290.6 291.8 290.5 287.8 285.5 284.2 281.7 288.2 297.7 305.4 313.4 319.7 321.8 327.8 336.2
212.5 209.9 206.5 198.8 196 198.1 205.8 215.8 221.4 223.3 224.3 222.8 218.6 214.4 208.6 208 207.1 206.3 206.9 211.4 214.8 216.8 217 213.2 203.6 196.6 188.2 187.8 188.1 175.2 163.8 153.8 141.8 134.2 127.4 121.3 113.9 106.1 98.9 96 95.1 92.9 88.8 85.2 80.4 77.4 85.2 85.8 85.7 85.1 84.5 83.2 82.5 82.8 83 83.1 83.2 82.9 83.1 82.6 81.5 75.2 82.6 105.9 106.7 110 115.6 114.2 113.1 113.6 115.9 121 127.3 135.5 149 160.2 170.3 183.9 197.1 211.7 225.3 234.9 243.2 253.4 266.8 280.5 286.4 290.2 291.3 291.6 287.7 285.8 288.9 295.5 296 298.2 303.1 309.8 315.3 317.9 313.1 302.2 292.6 280.2 268.8 260.2 248.7 236.6 220.9 210.5 199.3 189.2 181.3 168.6 154 138.2 131.7 123.6 115.9 113.2 112.4 111.8 113.1 114.2 114.9 115.4 116.3 117.4 120.5 123.7 127.3 131.8 132.6 133.9 137.7 142.9 148 155.3 162.8 168.9 174.7 179.5 181 179.5 180.3 174.1 174.9 181.2 185.3 193.8 203.8 215.3 228 242.8 261.4 271.9 269.3 273 280.4 284.4 282.4 276.4 267 255.9 250.3 248.4 250.9 250.7 250.7 246.8 240.2 237 237.9 242.2 247.7 254.5 258 259.6 258.3 253.7 249.4 253.5 264.3 274.7 283.6 288.7 289.7 289.1 286.9 285.4 286.2 283.9 290.8 299 305.8 312.4 317.6 322.1 330 338.1
210.8 206.8 201.1 195.2 195.2 195.7 199.3 210.9 217.7 226.1 229.7 225.6 221.1 216.9 211 207.7 204.7 202.9 204.3 211.1 216.2 216.6 214.9 209.7 198.7 191.2 182.7 184.5 187 176.8 163.1 149.7 139.7 130.4 123.9 118.2 110.8 102.7 97.8 97.4 96.9 91.2 88.2 87 82.6 76.8 78.3 85.2 85.5 85.3 84.8 83.5 82.4 82.3 83 82.3 82.2 82.7 82.8 81.5 76 78.5 98.2 105.7 109.5 113.5 118.3 115.1 115.9 117.6 119.3 124.1 131.3 142.1 156.4 167.2 177.2 189.5 205.4 220.9 232.3 243.4 251.3 263.9 276 285.8 288.5 289.4 290.4 292.6 295.2 296.7 298.7 306.2 311.8 315 321.9 326.1 325.4 325 321.7 312.5 300.6 289.6 277.9 268 260.1 247.1 232.5 221.6 210.4 199.8 190.3 180.9 168.3 154.8 142.3 136.6 128 121.1 116.2 113 113.1 113.7 114 116.2 115.3 111.8 113.4 113.1 117.3 119.5 120.9 123.6 127.5 134.1 142.7 149.6 155.5 161.4 166.5 170.8 172.8 171.3 167.6 166.4 167.9 172.3 175.4 180.3 191.6 202.4 213.2 223.6 237 257.8 266.3 275.8 285.6 286.3 282.7 280 270.8 262.1 257 257 259.9 261.9 258.5 253.4 251.2 248.3 244.9 238.7 240.7 252.2 259.1 262.1 261.9 257.5 251.5 251.5 261.5 269.7 277.7 283.3 283.8 282.7 280.5 280.6 283.9 288.8 294.5 300.3 306.1 311.4 318.8 326.4 333 340.3
205.5 196.7 192 191.5 193.5 193.3 194.3 202.6 215.6 225.9 230.3 226.9 221.5 217.7 213.4 208.6 204.7 200.4 202.5 209.1 214.3 213.3 209.4 202.7 193.2 184.1 177.2 180.5 179.8 170.3 158.3 144.8 133.7 122.2 119 113.6 106.6 99.5 96.3 95.5 95.5 89.2 87.8 87.5 84.4 78.4 75.6 85.4 85.2 85.4 84.9 84 81.8 81.6 81.2 81.5 82 82.4 80.5 73.9 80.8 91 104.8 110.6 114.6 118.7 119.2 116.9 119.6 121.4 123.7 128.4 135.8 148 161.5 173.1 183.3 196.4 214.8 229.8 244.1 255.3 267.1 275.5 283.7 291.1 293.1 295.8 301.8 305.6 304.6 308.2 317.2 323.6 327.1 331.3 331.2 328.2 329.7 327.5 321 312.4 305.6 298 288.4 276.8 266.4 254.3 243.4 232.4 220.7 208.9 198.7 189.7 178.9 168.9 154.7 147.8 144.6 139.8 133.8 125.6 112.8 113.7 112.8 111.2 113.7 114.5 115.4 115.2 112.7 115.3 117.8 119.7 123.4 127.4 134.7 140.8 146.1 152.1 157.2 161.2 163.2 162.9 158.9 157.3 159.7 164.5 168 170.4 173.3 184.9 198.1 210.8 225.9 241.2 256.4 269.4 277.4 280.4 279.4 279.7 273.8 270 265.4 270.2 269.4 266.9 264.2 253.9 255.3 256.4 252.7 244.8 237.5 249.1 257.5 260.2 260.6 257.1 252.5 250.7 258.1 265.7 270.6 275 275.6 276.1 275.6 278.2 282.9 288 293.9 300.1 305.7 311.6 319.1 326.2 333.5 341.1
193.7 186.1 186 187.8 190.4 191.9 193 199.8 211.3 221 225.8 224.5 220.1 217.3 213.7 209.7 204.3 198.7 200.3 206.7 209 205.5 200.5 193 184.4 173 170.3 174.6 172.1 162.6 151.6 140.4 130.1 117 111.4 108.8 102.6 98.1 97.2 95 94.1 88 87.8 87.7 86.2 81.2 80.3 81 75 84.3 84.8 84.5 81.5 81.3 81.8 82.1 82.5 78.8 73.9 78.9 82.3 94.8 108.8 112.9 118.6 121 118.7 119.3 122 124.6 127.5 133.1 140.9 151.6 164.4 177.3 188.6 202 218.6 235.5 247.6 256.5 265.6 272.8 280.2 288.1 297.7 305.6 310.7 315 319.1 319.6 323.5 325.2 326.5 326.3 324.2 322.6 321.7 321.4 319.2 315.1 312.2 307.6 300.1 285.8 275 264.6 254.3 242.3 230 218 206.6 196.9 187.2 177.6 168 163.1 157.2 150.4 144.5 137.1 128 119.8 118.9 119.3 119.8 122.3 121.9 122.2 112.4 119.6 119.3 117.4 119.2 124.5 129.8 135.1 140.2 146.6 152.5 156.4 159.7 161.2 158.4 153.8 152.4 155.5 159.9 163.3 164.5 170.1 182.2 194.9 210.7 224.1 239 256 264.8 269.7 272.1 273.2 275.6 273.3 274.3 283.3 285 278.9 268 254.2 254.2 252.7 247.5 242.4 232.1 245.8 253.5 256.3 256.5 253.5 250.5 250.5 254.1 261.3 265.3 268.1 269.7 271.9 274.1 277 280.9 284.6 289.3 295.9 302.3 308.6 315.8 322.9 331.2 338.8
184.3 182.8 185.7 186.9 189.1 189.9 191.4 194.9 203.3 212.3 216.8 217.7 215.7 215.4 213.4 209.9 204.6 196.5 198.6 202.7 201.7 195.6 190.5 183.7 175.8 164.8 165.4 168.6 164.9 157.2 148 136.9 128.1 115.8 109.9 104.2 99.2 96.6 96 97.3 93 87.5 87.2 87.3 86.4 85.9 88.7 86.2 86.3 77.9 74.5 75.3 75.1 75 75.3 78.6 82.1 72.9 78.1 80.3 87.5 101.2 110.5 115.2 121.3 122.3 118.8 120.9 124.6 128.4 131.4 136.5 143.8 154.4 166.3 178.8 190.8 205.6 221.5 235.2 244.4 254.7 265.8 271.5 278.1 293.9 311.3 317.6 321.1 324.7 329 330.9 329.7 330.9 334.2 335.1 340.3 341.2 331.2 326 328.6 329.7 326.8 319.8 309.1 297.5 282.9 271.1 261.1 251.7 237.9 227.9 218 207.3 196.3 187 178.6 168.3 156.2 148.8 141.4 137.1 134.3 133.5 133.6 131.4 130.7 130.7 128.4 125.8 116.6 115.9 116.6 115.9 118.7 121.9 126 131 135.1 139 144.6 147.8 151.7 153.2 152.7 149.4 146.7 149.2 151.2 152.4 157.4 160 169.4 181.9 194.7 206.6 219.8 235.1 249.2 253.9 258.9 265.1 271.6 273.1 282.4 290.2 298.1 289.7 271.7 253.6 251.7 247.6 242.1 235.2 227.5 243.6 249.2 251.7 252.5 251.3 250 249.6 251.7 257.8 261.6 264.4 264.8 268.2 271.4 274.3 276.9 279.2 283.8 289.6 296 304.3 312.2 320.1 329.4 336.7
181.8 181.2 184.5 187.8 188.1 187.8 188.8 190.9 195.2 201.4 205.6 208.3 209.1 211.6 211.2 208.5 200.9 193.5 196.5 197.8 193.2 186.6 181.2 175.9 167.4 160.6 162.6 163.5 160.5 153.9 146.5 136.5 126.3 118.1 111.8 105.1 97.9 96.5 96 95.5 88.8 86.7 86.9 86.9 86.6 88 97.5 96 97.5 96.5 95 88.3 82.5 80.9 80.2 78.4 74.1 72.9 79.1 82.3 93.7 106.2 111.1 116.1 123 120.7 118.8 123.4 126.9 131.3 134.3 138.8 146.7 158.9 170.5 179.7 194.5 210.9 223.8 237.1 248.6 260.9 269.3 275.6 285.7 304.1 322.8 333 334.1 329.4 331.9 331.7 335.1 344.1 346.6 348.7 345.9 339.5 334.6 331.7 331 330.7 328.8 325.5 315.1 301 285.7 274.3 266.4 256.7 244.3 234.2 225 217.1 209.5 201.6 191.8 181.1 167.7 158 148.1 141.5 139.2 137.8 136.4 134.2 132.5 129.9 126.5 119 115.4 112.4 115.2 115.2 118.2 120.1 121.8 125.3 128.4 130.8 133 136.1 139.9 141.8 141.7 140.6 142.5 144.8 146.4 146.6 150.7 150.3 155.9 167.8 177 188.2 202.3 216.7 228.3 236.8 246.7 256.5 264 275.1 287.6 292.1 298.5 290.7 270.7 254.8 246.5 241.4 235.3 224.5 231.5 241.5 246.9 250.3 251.9 251.2 249.5 248.9 250.5 253.9 257.8 259.1 258.3 263.2 268 271.1 273.8 276.9 280.2 285.2 292 300.7 307.9 316.2 326.5 335
179.9 179.6 184.1 188.2 187.1 186.4 188.1 189.3 190.7 192.6 194.6 199.2 203.6 206.3 206.7 205.2 193.8 190.2 192.5 191.9 185.9 179.9 175 171.2 163.5 158.6 159.3 163.2 164.7 157.7 150 141 129.2 121.7 116.7 108.6 101.2 98.1 93.7 90.8 86.7 86.5 86.6 86.4 86.3 90.8 94.6 90.9 96.6 103.1 105.4 101.7 86.4 82.7 81.7 80.3 74.9 73.6 81.1 82.8 95.4 105.6 110.5 117 122.7 117.9 120.7 125.6 129.6 133.7 137.6 142.9 151.1 162.3 172.1 182.9 198.3 214.1 229 244.3 252.5 260.1 267.5 277.3 288.4 309 322.7 334 342.9 338.7 340.4 347 346 345.6 343.7 343.1 345.1 347.9 340.4 335.6 335 334.8 334.9 330.6 319.1 305.6 294.2 281.7 271.2 262.2 249.4 239.1 233.3 228 222.1 214.9 203.1 192.1 184.4 172.9 163.8 156.6 147.6 143.8 141.4 139.6 138 135.7 130.8 121.6 117.5 114.6 114 115.5 117.9 118.3 118.4 119.1 120.6 123.1 126 128.9 130.4 132.3 134.3 135.2 135.6 136.7 142.2 143 142.9 139.8 144.3 153 161.6 170.5 182.9 196.7 209.6 220.9 233.3 240.7 245.2 265.2 285.9 296.1 290 282.6 262.6 249.6 243.4 234.7 220.2 218.6 230.1 237.5 247.2 250.6 251 250.1 249.8 249.7 252.6 256.2 258.7 259.4 257 259.8 265.8 269.6 272.8 275.9 279.1 282.3 288.1 294.4 301.7 310.8 319.9 328.8
178.8 178.1 181 186.8 187 185.9 187.4 189.6 190.5 190.8 190.4 192.1 197.1 199.1 196.8 193.2 190.6 190 188.3 184.6 181.1 180 180.8 175.4 166.1 157.9 158.1 169.2 171.8 163.2 152.1 143.9 131.6 123.6 118.5 111.5 102.7 98.2 94 89.6 86 85.9 86 86 86.5 92.1 90.5 89 95.3 101.8 102.8 99.4 84.3 82.9 79.4 77.9 75.8 73.8 80.3 84.6 100.4 105.7 110 117.8 119 116.9 122.4 130.3 135.7 137.7 140.8 145.8 153.8 163.7 173.5 187.1 201.5 218.4 238.4 253.9 252.9 258.7 272.1 281.7 293.7 306.2 321.4 336.8 345.2 340.6 334.4 336.3 338.2 342.7 347.9 349.6 346 339 335.5 336.4 337.4 336.3 334.8 334 331 319.4 305.7 292.7 281.8 270.2 267 260.2 249.2 239.9 231.9 221.4 210.6 202 195.9 187.7 179.4 171.1 161.2 155.8 154.9 150.9 146.9 140.1 131.3 121.8 120.7 117.1 115.1 116.7 118.2 118 118.3 117.8 117.6 121.7 122.9 127.2 126 125.3 129.5 129.2 131.1 131.6 135.3 136.5 133.6 131.7 133.3 143.8 151.6 158.5 168.9 180.4 193 205.7 215.6 221.1 225.9 246.3 265.6 284.5 287.6 280.5 263.2 247.9 240.5 227.5 200.9 218.5 224.2 232.6 244.3 244.9 244.7 245.1 248.1 251.9 255.9 259.5 260.6 260 256.4 258.3 264.2 268.2 271.6 274.8 277.7 280.5 283.5 288.1 295.1 303 311.1 319.9
178.1 177.4 178.3 182.7 186.1 184.5 188.6 192.4 194.8 195.7 194.1 191.6 192 192.3 191.5 191.5 192.4 194.4 191.5 182.1 181 185.8 184.2 175.4 168.4 160.1 161.4 169.4 173.9 167.3 153.6 144.5 135.4 126.7 120 113.3 103.4 96.1 95.7 91.9 85.9 85.6 85.6 85.8 86.8 94.9 97 94 96.8 101.2 100.6 95.9 84 80.9 77.7 77.5 76.2 74.9 78.9 91.6 99.2 105.1 108.7 112.6 116.5 120.5 126 132.9 138.9 140.2 143.2 148 155.4 164.7 176.4 192.1 206.8 224.9 239 246.7 254.4 265.9 279.9 289 297.2 306.6 317.9 331.6 337.5 332.8 329.3 332.5 336.5 338.4 338.5 337.4 334.9 334 333.1 334.1 337.4 344.6 344.3 343.7 338.4 324.6 307.7 296.4 284.6 279 278.2 273.9 268.2 257.3 247.2 236.3 227.2 217.6 208.9 201.8 191.2 180.2 173.3 167.1 162.6 157.1 149 135 127.5 126.9 125.7 118.2 116.5 113.5 115.9 115.9 116.6 116.2 116.7 119.5 117.1 117.3 116.5 122.5 126.4 123.8 126 127.7 129.4 130.2 130.4 129.6 130.9 134.3 137.9 145.5 155.6 168.9 178.2 191.2 200.3 206.6 210.6 226 241.4 258 274.9 274.3 261.8 247.2 238.2 225.8 204.3 204 218.3 229 234 234.5 235.1 238 244.6 250.1 254.3 257.1 257.4 255.7 253 253.9 260.8 265.8 269.6 272.7 275.7 278.7 282.3 286.3 290 297 303.8 309.8
181.9 177.1 177.2 179.2 182.8 187.3 191.6 197 199.5 201.3 201.3 195.3 192.2 192.2 192.5 195.2 198.6 199.6 192.4 186.8 185.6 190.1 181.8 173.7 167.7 161.4 160.6 166.1 171.6 167.9 155.3 146.4 137.7 129.1 121.9 113.8 105.3 96.4 94 92.5 85.9 85.3 87.4 90.9 90.9 93.8 94.8 94.9 94.9 98.3 98.4 94.7 84.1 77.9 77.2 77.2 77 74 78.5 86.4 94.4 104.4 112.3 116.1 118.2 121.6 127.4 137.4 142.4 141.6 144.3 149.5 156.1 166.4 182.2 197.9 214.5 229.9 245.6 259.3 267.4 271.5 278.3 285.2 293 301.7 308.5 316.5 322 318.2 316 317.9 320.4 322 323.3 323.7 324.9 329 336.4 340.8 342.3 345 349.7 349.5 343.9 328.3 309.6 293.1 287.7 285.4 284.3 281.6 276.3 267.3 256.1 249.8 244 234.4 227.5 219.1 205.1 195.9 192.6 186.3 175.1 165.1 154.4 142.2 136.8 130.7 125.5 120.4 117.2 115.7 113.3 115 115.9 115.6 116.1 116.1 116 115.3 113.8 116.7 115.9 116.4 117.1 117.8 122.3 122.3 125.5 126.6 126.8 128 131.1 136.7 140.6 150.5 159.3 170.2 178 183.4 192.4 205.3 218.4 236.5 256 263.8 254.2 246.2 238.4 223.6 210.5 194.1 211.5 221.2 222 222.5 227.3 235.1 243.6 249.8 253.8 256.2 255.5 254.7 251.5 251 254.1 260.3 265.1 268.9 271.9 275.2 279.4 283.6 287.3 292.2 299.6 305.4
187.9 177.9 176.4 177.5 183.4 192.2 197.9 203.6 205.1 204.4 203.5 199.1 194.7 193.4 196.8 202.9 205.6 199.6 192.5 187.1 190.3 188.5 179.1 171.1 166.4 159.9 156.3 161.9 167.3 168.9 157.8 146.8 137.2 128.8 121.7 115.1 108 99.8 95.2 93.3 85.6 84.7 85 89.8 93.7 90.2 88.5 89.6 95.2 98.2 97.5 92.5 83.2 77.2 76.7 76.8 77.3 74 79.2 86.5 95.2 105.2 112.2 115.2 117 121.8 131.5 140.8 142.5 142.3 145.5 152.2 159.5 169.9 186.2 204.3 220.6 234.1 248.2 256.7 259.9 264.9 269.9 277.5 287.2 296.9 304.3 310.4 311 306.4 305.8 306.2 306.6 310 315.3 321.2 326.6 331.9 339.9 350.4 357.9 363.3 365.7 361 346.5 332.2 314.4 300.6 296.4 291.7 288.4 286.4 285.2 281.6 277.5 273.2 265.2 253.4 237.8 231.7 222.9 216.3 211.4 205.1 194 184.3 169.6 159.5 150.4 141.3 131.9 123.9 119.9 116.7 114.6 114.7 113.3 114 113.9 114.1 116.1 115.7 115.7 114.4 115.8 115.9 115.9 115.9 116.5 116.6 119.4 123.2 122.2 123.7 127.2 130.9 133.2 138.8 143.4 151.7 160.1 168.2 174.9 185.4 201.7 217.6 230.2 237 236.5 237.1 231.4 220.7 208.9 188.7 202.4 205.5 211 214.7 223.2 231.3 243.1 248.5 251.2 252.1 252 253 251.7 251.6 250.2 252.6 258.1 262.3 265 270 274.9 279.7 284.6 289.5 295.1 302
190.1 180.5 175.8 180.4 190.8 200 204.1 208 206.2 203.1 202.4 198.6 195.2 193.5 197.8 203.4 205 198 191.2 186.3 189.1 182.9 178.1 168.9 162.9 155.3 150.6 157.3 161.5 165.5 158.9 148.2 138 128.1 121 114.7 108.3 104.5 100.1 97.4 95.2 85.2 84.6 85.4 90.5 92.2 89.9 92.3 96.5 97.2 95.5 87.2 82.1 79 76.7 76.7 76.9 74.9 78.7 86.4 96 105.8 111.6 113.3 116.9 124.6 133.9 142 141.9 143.4 147.4 154.6 163.7 177.6 192.6 207.2 223.4 234.3 242.3 241.9 245.6 252.9 263.3 271.8 280.4 290.5 300 305.8 306.7 304.8 307.3 306.7 308.5 311.1 316.4 324.4 331 337 344.7 354.1 359.3 360.2 363.4 359.4 347.9 336.7 324 314.3 306 298 294.1 292.2 289.9 288.7 285.9 282.1 274.2 259.6 247.1 239.1 234.4 230.8 226.5 222.2 215.1 204.9 191.8 176.7 161.8 146.7 137.8 128.6 123.3 119.2 116.2 115.7 115.3 115.4 115.7 115.7 115 113.8 115.7 115.8 115.5 116.3 116.1 116.2 116.6 116.2 116.6 116.6 117.2 117.8 120.7 122.9 125.9 131.1 134.7 140.8 150.1 156.9 161.7 171.2 184.8 196.4 205 209.1 213.3 216.5 220.2 214.4 197.7 184.1 194.9 199 206.6 214.2 220.6 229.7 237.6 241.9 243 244.6 247.5 249.3 251.4 253 250.7 249.7 250.5 250.4 255.3 262.2 269.4 276.2 281.2 286 293.1 302.1
187.4 179 175.9 183.3 196.6 202 205.2 207.3 204.1 197.5 194.9 192.2 189.9 189.3 191.5 198.8 201.5 195 186.7 184.3 185.2 178.9 172.4 164.9 155.1 148 144.6 150.1 153.9 159 159.4 148.9 137.7 128.5 119.7 110.2 106.9 104.5 102.1 102.6 104.4 94.7 83.9 84.2 86.4 89.6 88 93 93.8 93.7 90.5 82.6 81.1 78.9 77.1 76.7 76.8 74.8 76.3 87.4 98.5 106 110 111.8 118.1 127.1 136.8 142.1 141.1 143.6 149 156.8 169.2 183.6 196.9 210.2 222.8 229.9 230.6 231.8 243 253.5 261.9 268.5 278.6 289.7 296.9 302.8 305.8 301.9 307.9 310.7 310.8 307.8 309.3 311.8 318.2 325.3 334.8 341.9 348.4 352.9 354.1 355.8 356.5 348.2 335.4 324.8 315.3 306.4 304.2 302.4 302.3 293.9 286.7 280.6 274.4 267.1 259.1 251.7 248.4 243.5 240.6 236.4 231.8 225.2 214.2 197.2 175.2 160.3 145.9 138.6 131.4 122.4 118.7 116.4 115.7 115.9 115.8 115.9 115.6 115.2 116 115 114.4 116.6 116.3 116.4 116.7 116.4 116.5 116.3 116.4 117.1 118.6 120.1 121.2 124.8 127.9 132.7 138.4 142.7 149.8 160.4 166.8 175 183.9 185.9 188.8 193.2 198.1 200.3 174.3 184.7 184.4 196.4 202.7 207.5 213.1 219 224.7 227.7 233.3 240 244.5 246.2 248.6 250.4 251.1 249.9 247.7 245.7 246.1 251.7 260.2 269.2 274.1 283.1 289.9 297.5
183 178.7 177 188.6 194.9 196.9 197.1 195.7 193.6 189.6 187.2 182.5 182 181.9 183.3 190 191 188 177.4 178.9 179.4 174.5 167.6 157.9 149.7 142.1 137.6 142.3 146.6 151.3 153.8 149.1 136.8 127.6 116.9 112.1 105.8 103.3 101.2 104.3 106.6 100.3 84.2 84.1 83.8 83.9 84.3 84.8 85.2 83.8 82.8 81.9 79.3 77.6 76.6 76.6 76.6 72.2 77.9 87.7 98.9 105.5 108.9 113.6 120.7 128.7 138.4 141 140.5 144.7 151.4 160.6 174.3 187.3 201.1 209.7 218.2 222.7 226.2 232.4 246.8 255.5 262.6 270.3 279.6 288.7 294.7 296.7 296.9 296.8 301.5 301.6 299.6 305.1 311.7 316.5 324.3 332.7 339.1 344.6 349.6 352.3 354.2 356.2 360.4 359.9 348.4 334.7 323.5 317.8 314.5 312.3 308.6 309 304.1 295.7 291.1 283.2 274 269.1 265.1 255.8 249.2 245.6 242.6 236.3 228.1 207.9 195.4 185.8 171.1 158.5 145.6 138.2 127.1 124.1 116.1 115.8 116.5 116.3 115.9 116 116.3 116.6 116.8 116.3 115.7 115.4 115.5 116.8 116.8 116.4 116.4 116.4 116.7 119.1 118.5 120.1 122.4 125.1 127.5 133 138 143.2 146.6 153.9 162.4 162.6 164.4 171.2 182.7 190.1 162.7 157.2 188.8 191.1 193.5 196.4 202.2 209.1 216.2 221.8 229.2 234.2 238.7 240 242.1 243.6 246.2 246.9 245.2 245.4 240.6 240.9 250.8 258.6 268.9 276.5 284.3 291.2
176.7 175.5 180.2 184.7 187.7 188.4 186.4 185.2 184.6 183.1 180.6 176.2 174.2 174.3 175.2 176.1 174 172.9 165.7 172.1 171.5 166.5 160.3 150.5 144.7 136.3 131.4 134 139.1 143.6 147 145.3 134.5 127.6 119.4 112.2 106.5 103.5 101.6 104.4 105 95.8 85.7 83.7 83.5 83.5 83.3 83.4 82.6 82.6 82.5 79 78.1 76.6 76.2 76.2 76.4 71.6 78.7 93.3 97.7 104.3 109.2 116.5 123.3 131.3 139.1 139.7 141 147.4 154.3 164.3 178.4 190.4 202 209.5 214.6 220.9 226.3 236.3 247.3 255.5 264.6 271.4 276.4 282.4 287.1 286.1 287.5 287.9 287.7 293.6 298.3 306.8 315.4 324.7 330.4 332.4 338.1 345.9 351.4 353 356.1 357.8 358.1 357.4 355.2 342.8 338.1 331 328.9 326.2 318.8 318.3 313 303.9 295.7 291 283.1 281.3 278 271.2 259.4 252.7 249.6 245.3 237 226.4 219.7 211.3 195.6 183 170.6 162 149.2 140.2 131.9 126.4 124.1 119.9 116.5 116.1 116.1 116.7 114.5 115.1 115 114.8 117.4 114.7 116.5 116.6 116.5 116.5 116.6 116.6 117.1 117.4 117.9 118.2 119.9 123.1 127.3 130.8 131.3 137.3 143.6 146.9 149.2 161.7 172.5 174.6 159.1 159.6 177.7 183.7 186.8 184.2 194.4 206.1 213.6 219.1 223.1 225.6 229.7 232.1 234.9 236.3 240 240.4 239.2 238.2 235.3 235.3 241.9 250.9 260.6 268.2 276.4 283.8
174.5 174.5 177.3 179.7 180.4 178.7 176.5 177.5 175.6 174.3 171.4 167.6 166.5 166.4 166 163.4 162.3 159.6 155.2 162.1 161.7 157.7 152.4 143.2 136.4 130.6 126.9 127.8 129.7 134.5 140 141.1 133.9 126.6 119.6 109.6 103.9 102.8 103.8 107.7 102.8 90.7 85.1 83.6 83.3 83 82.8 81.9 82.2 82.4 79.5 76.2 75.8 75.8 75.8 75.8 73.8 72.3 81.9 93.2 99.4 104.7 113.9 124 127.1 133.7 138.9 138.6 143.8 149.5 156.7 168.5 181.9 192.1 200.4 208.9 213 218.6 228.6 239.8 246.1 254.3 260.4 265.4 268.3 271.3 273.4 275.1 275.7 278.1 285.5 290.7 296.2 303.9 313.1 318.6 322.1 323.2 328.9 336.2 343.8 350 349.3 354.6 357.5 355.3 356.5 349.7 344.8 342.6 336 333.6 325.9 315.6 310.9 308.6 306 301.5 294.3 285.2 281.9 279.5 272.2 259.4 254.3 250.8 247 242.6 238.8 233.5 220.7 208.6 195.8 186.1 173.3 159.4 150.8 143.5 138.8 134.7 128.1 119.5 116.9 114.8 116.1 114.1 116.9 117.6 117.5 115.6 116.8 116.8 116.7 116.7 116.8 116.3 116.5 117.1 117.1 117.3 117.6 118.5 120.3 121.3 122.9 125.4 130.4 133.2 135.4 142.9 147.2 151.8 144.4 158.7 165.4 171.3 178.2 184.7 184.4 197.3 205.1 212.2 216.3 219.4 223.7 225.5 227.4 229.5 230.4 231.4 232.5 231.1 232 232.6 235.8 244.1 253.2 260.7 268.5 277.5
174.1 173 172.9 171.3 171 171.2 171.1 172.7 169.5 166.3 164.1 161.1 157.3 157.7 157.8 156.6 156.9 151.9 148.5 151.8 150.6 147.8 143.9 135.5 126.4 125.2 122.5 122 121.9 127.6 133.4 138.3 132.6 124.8 117.6 110.4 105.1 103.1 104.6 106.6 98 89.3 89.8 91 86.3 82.8 82.4 78.8 75.8 75.1 74.7 75.2 75.4 75.6 75.6 75.5 71.6 76.8 87.6 98.6 103.3 109.3 119.6 127.2 130.8 136.3 138 138.8 144.9 151.8 160.9 175 184.8 191.4 198.7 207.2 211.9 218.8 226.7 232.5 238 245.8 249.7 253 257.3 258.9 261.7 265.6 271.7 275 281.5 286.9 292.8 297.3 298.6 301.2 305.4 309.3 315.4 323.3 332.1 339.9 341.6 347.8 352.3 349.5 350.5 348.9 347.5 344.2 342.4 338.5 332 323.9 325.8 325 317.2 308.6 305.8 299 289.4 283.6 279.9 271.1 268.5 263.9 259.8 256.9 252.9 247 240.3 229.4 218.6 210.4 194.8 181 171 164.9 157.1 149.4 137.7 127.3 124.4 120.5 117.3 116.8 117.6 115.6 116.7 116.5 117.2 117 116.9 116.9 116.9 116.8 116.8 117.2 117.3 117.4 117.7 118.1 118.3 118.7 120.3 122.2 124.1 125.6 127.8 131.1 133.2 134.2 138.6 148.6 157.2 164.6 176 184.8 192.1 195.6 197.9 203.6 206.8 209.9 214.8 221.7 225.4 226.1 225.5 227.3 228.6 229 231.3 230.8 228.5 235 246 253.8 261.3 271.1
173 172.3 172.4 172.6 171.4 169.1 168.3 167.1 166.1 163.6 160.6 156.1 152.1 150.4 148.7 146.9 146 143.4 140.8 141.5 140.9 138.7 131.3 140.6 137 126.8 116.5 116.6 117.4 121.3 127.6 134.4 130.5 122 114.2 105.3 105 104.2 102.6 106.5 93.7 89.8 99.2 104.5 95.2 83.6 77.9 74.6 74.4 74.7 75 75.2 75.4 75.6 75.7 71.9 73.8 88.9 96.1 102.3 108.3 114.8 122.8 131.1 132.4 136.8 137 139.7 146.6 154.8 165 176.5 184 189.3 194.3 201.4 208.2 215.9 220.2 226.5 231.8 238.5 240.4 244.5 246.5 248.9 252.1 260 267 272 280.8 285.6 288.7 287.8 287.6 288.3 292.9 299.7 307.5 316.5 326.9 333.5 335.8 338.2 344.8 344.2 344.6 346.9 349.8 353.2 350.9 340.8 336.1 333.1 334 330.7 331.7 327.4 319.6 316.9 310.9 299.1 290 284.9 284.6 282.6 278.2 274.8 266.1 255 252.8 247.8 240 231.1 216.9 203 196.3 185.5 178.4 171 159.3 147 139.3 130.7 123.4 118.7 118.1 117.9 117.6 117.7 117.6 117.3 117.1 117.1 117.1 117.2 117.3 117.4 117.5 117.5 117.7 117.9 118.1 119 120 121 121.8 123.5 125.4 127.9 130.4 132.4 135.8 143.1 148.9 156 165 169.7 179.2 190 196.8 198.9 201.9 207.8 213.3 220.1 227 228.6 225.9 223.1 223.1 223.2 225.6 228.3 227.5 229.5 238 246.7 254.8 264.4
174.8 172.7 177.4 179.1 179.1 177.7 173.6 170.6 171 168.4 165.8 159.8 153.9 151.2 150.6 152.4 150.3 146.8 142.8 139.4 138.2 139 144.3 148.3 140.1 130.1 120.8 115.5 112.3 116.5 124.2 131.2 125.5 116.4 109.8 102.7 102.3 101.5 103.8 104 96.7 98.4 107.3 106.2 92.8 84.3 79.3 74.5 74.6 74.8 75.1 75.1 75.3 75.3 73.3 71.1 87.7 99.1 102.4 105.5 111.3 119 125 131.6 131.9 134.4 137.8 142.3 150 156.9 168.2 176.7 181.1 184.7 191.5 196.1 203.3 208 213.8 223.5 224.9 229.3 233.6 235.1 238.6 239.4 245.3 255.2 262.9 270.5 277.3 280.5 282.7 286.1 286.8 290.6 298.3 306.5 313.5 319.7 323.9 329.2 332.7 332.4 334.9 339.2 340.8 344.6 348.5 346.9 338.9 336.7 334.6 334.1 335.5 342.5 346.7 345.7 340.7 330.7 323 312.2 298.9 291.7 289.4 287.7 286.9 279.7 273.8 268.2 263.5 258.6 253.3 248.4 238.7 227.5 217.3 207.6 200.9 192.3 181.9 170.6 159.5 147.6 137.4 128.1 123.2 115.3 115.3 115.3 116.4 116.2 117.4 117.4 117.3 117.4 117.5 117.5 117.5 117.6 117.8 117.9 118.1 118.7 119.2 120 121 122.7 124.6 126.7 128.3 129.6 133.9 138.6 143.7 150 158.4 168.3 164.5 179.6 188 192.5 198.3 204.9 212.1 216.8 223 225.5 224.6 221.3 218.9 217.8 217.2 221 223.8 224.9 233.3 240.6 248 258.5
173.6 177.8 180.9 183.2 184.5 182.8 180.8 176.9 172.1 166 159.2 156.4 156.4 155.8 153.3 155 154.7 150.3 146.2 144.1 142.7 146.6 152.6 151.6 140.4 132.2 123.7 116.5 110.7 116 122 128.6 122.5 113.5 106.6 100.5 98.4 96.5 101.4 99.1 98.6 104.4 107.4 100.5 91.7 83 80.3 74.3 74.8 74.9 75 75.1 75 74.1 71.1 78.1 99.4 102.4 105.8 107.5 114.9 125.9 130.1 130.6 131.9 137.6 142.8 146.4 152.1 159.2 167.1 173.7 176.2 180.8 186.3 188.9 195.1 200.9 208 215 217.1 222.3 226.4 227.7 229.6 232.9 240.7 251 259.5 264.5 267.8 275.1 282.8 288.4 287 293.9 299.8 305.4 310 316.1 321.2 328.3 333.7 328.6 326.5 326.7 329.8 332.3 331.7 330.9 333.6 336.5 340.6 349.5 354.3 354.8 351.4 350.3 342 337.4 328.1 319.2 306.5 299.8 296.9 295.4 293.6 291.1 290 283.6 283.9 276.4 268.1 259.9 254.1 247.2 238.2 230.5 223.4 215.7 206 194.7 180.8 169.6 158.3 146.8 137.7 127.9 123.1 119.5 116.6 116.2 117.8 117.7 117.7 117.4 117.6 117.7 117.7 117.8 117.9 118 118.1 118.4 118.9 119.3 120.3 121.7 123.6 125 126 127.3 130 132.7 137.3 146.5 154.1 162.9 165.1 169.6 179 184.6 191.2 199.1 207.2 210.7 214.7 218.4 218.9 216.3 215 216.1 213.4 215.6 217.4 221.3 230.9 237.1 244.4 253.8
174.1 179.5 185.8 189.5 191.1 189.4 185.7 180.7 171.8 164.4 158.6 161.2 161.3 163.2 159.7 154.1 153.4 150.4 146.9 145 147.5 153.5 156.4 153.5 140.6 129.5 119.7 115 110.1 116.6 120.2 124.3 119.5 111.6 107.2 101.1 98.4 100.4 99.9 95.5 96.2 103.6 101.7 92.5 84.9 82.2 74.4 73.8 74.1 74.4 74.5 74.4 74.2 71.1 75.4 86.9 100.5 104.5 106.4 109.8 118.6 129.9 132.5 130.4 135.4 142.9 147.7 149.7 153.4 158.7 163.8 168.8 171.8 175 178.3 182 187.6 194 200.6 204.3 208.4 213.6 216.7 219.2 220.2 227.4 237.1 246.9 252.9 256.3 261.2 268.4 275.3 279.5 285.4 291.2 295 300.6 308.8 316.8 325.1 329.4 327.3 323.4 319.2 317.7 318.7 320 324.9 337.2 347.9 346.4 349.5 353.3 360.1 356.9 358 350.2 346.7 343.8 335.5 327.9 317.2 309.4 304.8 300.9 298.6 297.6 296.9 295.5 294.8 289.1 281.8 273.7 267.2 261.3 254.4 247.8 241.1 234.4 227.4 218.7 205.1 192.4 180.5 168.3 155.9 142.8 133.1 127 122.8 117.9 115.6 118.1 117.3 117.2 117.4 117.6 117.9 118 118 118.1 118.2 118.3 118.7 119.1 119.4 120.5 122 123.4 123.8 126.3 129.5 130.5 133.2 139.9 148.1 155.9 159.6 163.3 166.6 175.7 184 194 198.6 201.7 206.1 212.5 214.1 213.9 211.6 213.6 210.8 212 215.8 220.7 227.4 232.4 239.3 246.1
176 184.7 191.6 195.6 198.3 192.8 185.9 181.4 174.7 166.1 164.3 168.5 170.9 170.2 169.1 160.1 157.4 154.3 148.2 147.2 152 156.2 156.5 153.3 138.1 126.5 118.2 114.7 108.1 114.4 117.7 120.3 115.5 110.6 108.8 102.7 98.6 99.1 99.9 95.9 95.8 97.8 96.7 88.2 82.2 79.8 73.5 73.6 73.7 73.8 73.7 73 70.9 75.6 76.6 90.2 101.9 105.7 107 111.6 121.7 129 131.3 130.1 138.2 147.7 152.7 153.2 155.1 158.4 161.2 163.9 166.9 170.1 173.5 178.5 183.3 185.3 185.7 193.8 198.6 205.9 208.6 212.4 220.1 228.6 234.7 240.8 249.1 255.3 262.2 270.2 277.1 283.9 290.7 293.5 297.1 301.8 307.1 313.2 320.2 323.8 320.7 318.8 316.9 318.8 320.8 323 327.8 338.3 346.8 347.9 349.2 354.4 358.4 362.8 362.7 364.8 366.9 361.8 352.7 341.7 328.5 323.1 316.9 316 317.3 317.6 318.1 316.4 312.8 307.1 299.4 290.1 283.5 277.5 272.3 265.4 257.4 251.2 244.8 237.5 227.5 215.1 201.8 189.5 174.8 159.9 147.8 140.5 135.1 128.7 122 118.8 118.4 117.4 117.2 117.5 118 118.2 118.1 118.2 118.3 118.5 118.6 118.9 119.3 119.5 119.7 121.1 121.3 124.2 125.7 125.1 127 132.5 140.8 148.9 155.6 157.5 160.8 166.7 175.1 185.2 192.2 197.1 201.5 210 212.5 211.3 207 208 209 212.6 216.2 217.6 221.5 227.1 233.6 240.9
178.3 189.6 199.6 203.9 201 193.6 186.6 180.7 175.7 171.5 171.5 175.4 178.5 179.1 173.3 166 161 157.8 152.6 153.3 154.9 155.3 153.3 145.9 133.4 120.3 115.2 113.3 105.9 108.2 115.4 117.9 113.2 108.6 107.7 101.4 97.5 97.3 98 95.1 93.7 92.8 92.5 87.8 81.7 76.2 73.6 74 70.4 71.9 70.7 70.4 75.2 75.2 78.3 98.8 105.7 106.1 108 112.8 121.8 127.9 128.3 131.4 141 152.2 156.9 154.3 154.5 150.7 151.6 155.2 161.4 160.6 168.1 168.7 175.8 184.7 192.3 198.1 203.6 204.7 212.1 217.2 224.5 231.8 238.4 245.8 254.3 261.9 271.3 280.7 286.2 288.9 290.8 290.9 292.4 296.6 302.5 309.9 315.4 318.7 319.5 314.8 317.8 316.3 317.5 322.4 328.3 334.3 346.6 351.4 355.2 353.8 360.5 376 388.4 387.8 386.1 381.1 371.8 353.2 340.9 335.5 328.3 325.7 326.8 327.8 325.4 325.5 327.5 324.9 319 313.2 309.3 306.7 302.9 296.6 286.1 277 268.3 259.8 250.6 237.4 222 208.7 194.3 179.1 165.1 154.9 148.4 141.1 133.1 125.7 122.4 119.7 117.9 117.4 118.1 118.5 118.4 118.4 118.5 118.7 118.8 119 119.4 119.6 119.3 119.3 119.6 119.5 120.1 124.2 124.7 128 135.4 140.8 151.7 157 157.4 160.9 166 178.4 187.8 194.5 197.4 206.9 209.8 206.9 201.9 201.1 206.6 212.3 214.8 216.6 216.6 221.4 227.3 232.3
180.1 190.8 199.6 204.3 202.6 194.1 186.8 180.8 175.7 173.6 178.9 183.6 186.2 184.4 176.8 169.5 164.4 159.8 158.2 156.5 155.9 153.3 146.7 138.4 126.9 119.6 116.1 112.8 107.6 102.5 108 115.6 109.6 106.7 104.7 98 96.8 97.4 96.4 96.6 88.6 88.3 87.2 86.5 82.3 77.6 72.5 70.4 74.1 74.3 74.4 74.3 74.9 74.8 82.6 102.9 106.6 106.3 108.9 113.2 119.5 124.8 126.8 133.3 145.2 155.7 156.8 151.4 146.9 146.3 152.6 155.6 158 165.3 174.6 180.9 186.7 195.7 202.9 207.6 211.6 211.9 216.5 222.2 228.1 232.7 240.1 250.4 261.2 270.1 275.5 280.3 282.9 283.7 283.8 286.2 289.4 293 297.4 302.6 306.5 309.6 308.6 307 311 317.2 321.1 324.6 329.4 339.7 353.7 361.3 363.3 370.5 378 387.2 390.8 391.6 391.8 385.3 370.2 358.5 346.7 337.9 335.7 330.4 328.4 328 327 326.3 328 329.6 327.5 322.9 326.6 329.9 327.7 322.9 316.5 307.4 297.5 284 268.3 256.1 239.3 225.2 212.3 200.3 183.5 167.6 160.5 155.8 148 139.3 133.5 126.8 120.9 118 118.2 119.1 118.9 118.7 118.8 118.5 118.5 119.2 119.4 119.6 119.5 119.6 119.7 119.7 119.8 120.7 122.2 125.9 134.9 141.7 154 155.5 153.6 155.6 158.7 173.2 185.3 191 191.8 199.7 204.3 202.8 196.4 198.6 204.4 208 211.3 213.9 210.7 216.1 220.3 225.2
180.4 186.9 193.3 197.1 197.6 193.7 185.7 179.1 174.9 176.8 182.5 187.8 191.1 187.5 179.7 173.5 168.4 162.2 161.7 158.5 154.6 148.6 141.6 136.9 132.4 129.3 123.7 116.1 111.7 106.1 100 104.6 107.8 105.8 100.7 96 93.9 92.6 94.9 95.1 88.5 84.5 85.2 86.7 84.7 79.9 69.4 73.5 74.6 74.9 74.7 74.9 74.7 77.1 84.8 101.1 105.6 107 110.4 115.2 121.9 125.3 125.9 133.6 146.5 155.3 151.9 145.8 143.3 147.2 151.5 157.6 166.4 173.4 182.2 190.4 198.1 204.8 209 214.7 218.9 220.2 218 222.9 228.9 235.3 243.3 254.1 262.2 266.9 268.9 271.7 273.3 274.2 276.2 279.3 282.4 285.8 290.2 295.4 298.7 301.6 304.7 309 313.5 318 323.2 327.6 332.9 344.2 353.6 360.1 367.1 373.8 377.6 381.4 385.4 390.1 388.2 384.4 373.3 359.2 351.4 344.4 341.9 338.2 332.6 329.4 331.4 329.5 327 329.5 331.4 334.6 337.8 342.6 342.1 342.7 335 327 314.6 302.3 285.8 273.5 260.6 244.3 229.3 217.3 203.5 187.2 174 169.6 162.5 156 148.5 141.6 132.3 126.5 119.1 117.5 119.1 119 119.1 118.1 118.1 118.6 119.3 119.4 118.8 119.8 119.8 119.8 119.7 119.9 120.7 123.5 133.1 142.8 149.5 149.4 146.7 149 154.7 168.2 180.7 185.1 187.7 195.1 199.4 199.8 194.8 191.4 196.3 199.8 202.4 205.3 206.4 211.4 214.6 218.8
176.9 181.9 186.8 190 191.2 188.9 183.8 174.7 171.7 173.5 177.8 181.1 185 185.3 181 177.3 173.1 166.9 165.1 161.8 159.6 156.2 150.1 145.5 140.2 134.2 129.5 122.7 116.4 110 108.5 98.5 99.2 102.5 100.4 96.1 91.8 89.5 88.4 90.1 87 82.3 83.8 85.2 81.2 79.7 69.4 73.8 74.5 74.9 74.6 74.8 74.8 78.6 89.8 104 105.2 107.8 110.4 117.2 124.2 124.4 125.2 133.4 145 149.9 145.1 140.6 141 145.9 152.7 162.6 171.8 178.3 187.4 196.3 204.3 209.7 216.3 222.9 227 226.5 225.9 223.5 232.3 242.9 249.6 255.6 260.1 262.1 262.4 262.5 267.2 271.8 276 282.3 285.7 291.7 295.9 297.3 300.3 305.6 310.3 313.6 316.7 320.9 327 330.7 336.9 345.2 354.1 359 360.8 365.2 370.3 377.4 386 392.6 391.5 387.3 380.8 372 364.7 359.5 352.3 343.4 339.3 340.5 333.7 334.6 335.5 331.8 333.6 336 338.9 343.8 348.2 352.2 346.6 339.3 332.9 320.9 310.3 299.9 285.7 271.9 255.8 238 223.4 207.7 190.3 182.8 176 170.1 163.5 155.5 147.4 140.5 132 125 121.7 120 119.5 119 118.7 118.7 118.5 118.3 118.2 119.9 119.4 119.5 119.9 120.2 120.4 121.5 128.2 136.6 143.4 141.2 139.4 144.7 152.8 166.5 176.9 181.5 181.5 186.5 192.7 196.9 192.6 185.4 184.4 184.6 190.6 194.6 199.6 204.8 207.4 211.4
172.1 175.5 180.5 184.1 184.5 182.9 178.6 168.5 167 168.3 170.7 171.7 172.8 175.8 175.6 175.6 175.5 170.4 168.4 164.4 167.2 165.5 159.7 152.8 148.2 142.3 136.3 129 123.1 115.1 110.3 102.8 96.8 94.3 98.9 95 91.6 87.3 86 84.1 83.6 81.6 82.5 81.4 80.6 78 70.7 73.7 75 74.8 74.4 74.6 74.8 82.4 99.4 104.3 105.1 107.4 110.3 118.5 123.3 121.4 125.6 133.8 142.7 143.4 138.3 135.5 140.5 146.5 155.2 166.1 176 183.1 192.2 201.2 209.8 216.6 225.8 231.6 235.2 235.6 236.3 238.6 240.2 237.4 245.9 248 252.4 256.8 265.3 271.5 275.6 278.1 280.8 286.1 292.9 299.8 300.9 301.9 304.4 308.2 311.6 314.6 318.9 322.3 329.1 336.5 344.7 351.7 359.9 366 362.2 365.5 375 378.3 384.2 390.6 393.6 390 386.2 382.2 376.9 369.8 364.4 357.6 347.9 344.8 337.5 334.3 336.2 336.5 337.7 337.1 338.3 340.8 346.2 350.5 358.1 355.3 354.4 344.8 331.3 325.4 311.4 298.2 284.4 268.6 249.6 231.3 212.6 197.7 188.1 181.8 175.6 168.1 160.9 154.3 145.9 137.1 131.4 126.8 123.1 121.1 120.6 119.5 119.2 119.2 120.3 119.4 118.9 119.7 120 120.2 120.5 120.5 121 126.4 130.9 132.4 137.3 146.7 153.2 161.8 169 171.5 171.8 176.5 180 187.4 184.2 182.1 182.5 181.4 184 189.6 194.9 198.6 202 205.1
169.9 170.8 175.5 179.8 179.1 177.7 172.7 167.3 165.9 164.9 164 163.6 163.7 163.9 166.7 169.8 172.4 168.7 165.5 165.3 168.4 167.3 164.7 162.6 153 145.5 139.4 132.1 124.8 118.7 106.3 101.6 102.8 97.4 94.4 92.4 90 88.4 84.8 85.4 81 80.2 81.7 81.7 80.7 79.4 69.5 73.8 74.8 74.6 74.3 74.5 78.2 91.1 101.8 104.6 105.4 107.2 111.5 119.2 121.1 119.4 124.6 133.7 140 137 132.2 135.3 140.4 147.2 157.6 168.5 178.9 187.6 196.5 207.4 214.9 223.4 234.3 239.4 241.8 241.3 242.7 246.2 250.4 252.6 252.9 258.4 265.2 272.3 277.3 279.7 283.8 286.4 288.7 292.6 297.1 300 303 306.3 310.1 313.7 317.1 318.1 324.6 333.6 337.2 342.1 348.2 356.4 364.9 368.1 366.8 367.5 371.2 378.3 382.8 389.5 395.4 392.5 388 385.5 381 376.5 375.4 369.5 365.1 360.4 351.7 349.2 351 345.4 344.8 347.1 348.5 351.2 352.9 356.6 356.8 356.6 355.7 355.1 348.5 341.4 329.6 320.8 309.1 293.6 277.6 260.2 240.5 218.2 202.5 193.2 186.1 180.5 174.2 166.2 158.3 150.1 143.7 136.7 130.5 125.9 123.5 120.7 120 120 120.2 120.7 119.1 120.3 120.2 120.3 120.3 120.3 120.3 122 124.5 127.8 134.9 144.6 151.7 157.5 159.6 162.8 167.5 171.7 173.6 176 182.5 186.9 183 180.7 180.9 182.3 187.3 190.2 193.3 194.8
170.1 173.8 173.1 173.9 172.5 170.2 167.4 167 166.1 165.2 162.6 161.6 160.1 158.2 157.7 160.4 160.3 158.3 155.1 153.1 161 163.3 162.4 164.4 158.8 148.2 140 133.1 126.7 121.2 113.8 104.1 103.4 98.9 100.4 97.9 93.1 89 89.7 86.5 84.9 80.6 78 77.4 79.4 80.5 69.3 73.4 74.5 74.3 74.2 74.9 81.5 97 102.7 104.8 105.7 106.8 112.7 119.9 119.3 117.7 124.4 132.8 136 131.2 130.2 133.2 138.7 148.1 158.2 168.8 179.6 189.5 200.5 210.5 217.6 226.3 234.2 240 243.4 247.7 250.8 254.4 255.8 256.5 265.1 272 277 281.7 286.7 291.2 294 297 299.4 301.8 303.7 306.7 310.3 313.8 317.4 321 324.5 330.2 336.9 339.9 344.1 346.6 353.7 361.6 367.3 369.5 370.6 371.4 370.7 377.2 381.2 384 389.9 388.1 382 379.3 380.4 384.9 387.5 387.6 380.4 373.7 368.5 361 358.8 354.1 351.3 350.1 353.3 353 353.9 358.6 363.4 361.1 365 366.8 359.6 352.7 355 347.1 337.3 321.6 305.3 286.8 266.9 241.4 217.7 205.1 199.1 192.5 185.7 178.3 170.4 162.6 154.9 148 140.7 133.4 130 126 122.9 122.1 121.4 120.1 119.9 120.4 120.1 120.5 120.5 120.6 120.6 121.1 122.1 126.5 135.2 143.1 149.4 154.5 154.7 159.2 161.5 165.4 167.9 173 181 186.3 187.3 182.9 180 178.9 180 182.4 184.9 186.1
173.9 180.1 180.9 181.9 183.6 177.7 170.1 168.5 167.2 165.3 162.1 160.6 160 158.2 157.6 158 163.9 166.3 163.3 159.7 149.4 152.6 154.6 159.3 161.5 150.9 141.4 135.1 126.9 121.9 114.6 113 107.1 100.9 103.7 104 94 88.1 91.5 86.7 85.5 82.8 80.1 76.5 75.5 78 69.3 72.5 74.3 74.1 74.3 77.2 86.5 99.7 103.1 104.8 105.8 107 113 119.1 117.1 117.2 124.1 130.8 131.3 127.3 127.9 132.3 140.3 150.1 159.2 169.9 179.5 190.1 201.3 210.9 218.3 226.1 232.6 238.6 243.8 248.8 254.2 257.8 261.5 266.1 272.1 277.7 283.2 288 292.9 296.7 300.2 304.1 306.6 309.2 310.7 311.1 312 315.8 321.7 325.8 327.6 330.8 335.5 341.2 344.5 348.9 355.1 359.8 362.4 364.4 363.8 365.3 362.7 368.2 370.3 373.1 378.1 380.4 380.3 380.3 383.3 389.2 394.6 396.6 392 385.1 377.6 374.9 375.7 378.2 374.6 372.8 371.2 371.5 369 369.8 371.7 369.9 373.3 374 374.3 366.5 365.6 366.6 364 348.9 329.8 307.1 287 262.8 233.8 216.8 209 203.4 197.2 189.8 181.8 174.3 166.6 157.6 149.5 142.2 138.2 135.1 130.2 127.6 124.5 122.9 120.4 120.4 120.4 120.8 120.9 120.9 120.8 120.7 120.7 123.4 133.9 142.2 147.4 151.2 153.9 157.2 157.4 160.7 164.2 169.8 178.3 182.4 183.6 185.2 184.3 178.7 176.9 180.8 181.8 180.6
178.1 185.3 190.8 192.2 190.4 187.1 181.4 179.2 178.1 178 170 169.3 166.7 161.6 160.6 161.8 170.7 174.8 173 168.5 159.4 152.6 140 149 155.8 154.7 144.5 136.5 129.1 121.7 119.1 114.4 107.1 103 103.5 100.4 96.6 87.6 86.3 85.5 83.9 84.6 81.4 80.3 77.8 73.5 72.7 68.9 73.8 73.9 74.1 79.6 90.4 100.9 102.9 104.3 105.1 106.7 113.5 116.9 115.5 117.7 124 129 127.8 125.3 127.3 133.5 142.1 152.3 161.6 171.6 180.4 191.6 201.7 209.5 216 222.6 228.8 236 242.4 248.5 252.6 259.5 265.7 271.1 277.1 281.9 287.3 292.2 295.7 298.9 302.6 306.2 309.9 311.3 312.3 310.8 310.3 313.8 316.4 317.4 321.3 325.7 329.1 334 338.9 345.1 352.4 352.6 353 347.6 348.8 350.6 351.2 354.2 357.7 364.4 371 374.8 381.6 383.8 388.6 395 399.6 403.8 404.4 397 391.9 393.6 389.4 383.6 385.7 384.8 376.6 374.8 374.7 374.6 376 376.8 376.8 373.7 371.2 370.2 368.3 369.8 369.5 364.2 353 334.4 308.6 281.2 253.3 229.9 218.6 213.8 209 201.1 192.8 185.1 176.8 168.7 160.3 152.5 146.3 141.4 139.7 133.2 127.9 125 120.9 120.2 121.1 121.2 121 121.2 121 121 121 122 130.7 139.1 145.7 151.3 155.1 156.7 155.5 156.6 159.9 164.8 175.7 178.7 180.4 181.5 181.3 180.6 177.1 178.6 182.7 181.7
183.4 192.3 196.5 197.6 196.5 192.7 190.1 185.6 182 178.7 175.4 174.1 171.1 171.3 168.4 168.7 176.3 182.5 185.1 178.5 168.9 158.3 148.4 131.7 144.8 150 145.3 136.9 129.9 120.8 113 112.5 108.1 105.7 100.6 95.7 92.6 87.3 85.2 84.5 83.4 82.9 80.6 79.7 79.2 79.5 75 74 68.7 73.8 77.4 80.3 96 101.5 103.7 104 105 107.6 113 114.6 115.1 118.8 123.4 127.5 124.5 123.8 129.1 135 145.9 155.6 164.4 173.5 180.4 191.2 199.1 206.2 212.7 219.1 225.3 229.9 236.7 243.5 250.5 258.2 264.6 271.9 277 282 287.3 290.7 291.6 293.8 296.3 298.7 300.9 302.6 304.9 303.9 306 308.4 307 306.7 311.3 318 321.5 328.1 332.3 336 339.2 341.2 338.8 339 338.7 341.2 344.3 345.8 351.7 357.7 365.7 376.3 383.4 387 390.9 395.1 400.8 406 408.3 408.7 405.9 403.7 402.5 394.7 390.1 388.7 384.4 377.5 377.5 376.8 375.7 375.2 374.7 377.8 373.6 376.4 376 379.4 375.5 369 367.3 353.3 333.4 303.7 271.9 244.1 229.4 222.2 216.3 210.8 202.6 195.2 187.8 179.4 171.7 164 156.6 151.6 144.3 134.6 132.9 128.6 124 121.8 120 121.3 121.2 121.4 121.2 121.3 121.3 121.7 127.4 137.5 145 150.4 157 157.4 154.3 152.7 154.8 158.9 169.7 173.4 176.5 178.7 177.6 178.6 180.4 175.7 175.9 176.9
191.3 199.6 201.2 200.8 199.8 198.4 195.6 190.3 187.6 189.8 189.3 184.8 181.6 181.8 177.9 179.3 182.9 189 191.2 187.6 176.2 163.6 152.7 140.1 127.8 138 144.2 136.6 128.7 119.3 112.3 110.6 106 101.2 95.7 92 88.8 85.6 85.1 83.8 82.9 80.9 80.3 79.6 78.8 78.2 75 73.8 69.1 72 79 83.7 97.7 102 104.9 103.6 105.1 110.5 114.7 114.8 114.8 119.3 124 123.8 121.8 123.2 128.9 138.6 149.9 158 165.4 172.5 179.9 189.4 195 201.1 205.7 212.3 219.5 224.7 231.6 238.7 246.8 253.9 261.8 267.1 270.7 275.3 279.3 281.9 283.1 285.3 286.7 287.8 290.4 293.6 296.5 296.8 298.4 300.4 300.6 300.3 305 309 311.7 318.8 319.7 321.4 325 328 328.3 328.6 333 336.2 340.5 345.2 351.2 358.1 366.5 375.5 380.7 387.4 392.2 396.7 402.2 410.4 413.8 418.9 417.1 412.3 410.3 408.2 401.5 398.4 396.4 391.4 386.9 387.2 384 380.4 378.4 380.6 379.6 379.5 383.4 389.7 389.7 382.5 377.3 367.4 349.5 325.6 289.8 257.9 239.7 230.2 223 217.5 212.3 205.1 197.8 190.1 182.9 173.9 167.5 159.9 147 150 143.4 136.8 132.6 127.8 122.9 121.4 121.6 121.6 121.4 121.5 121.6 121.8 128 139.5 145.4 150.9 156.2 154.7 149.9 148.6 149.1 150.5 158.7 163.3 166.5 169.7 169.6 172.3 176.1 180.6 178.9 174
200.5 205.6 203.4 201.7 201 200.1 196.9 191.9 194.1 198 196.6 195.2 196.1 195.8 194 187.7 186.1 187.1 188.5 186.1 177.5 167.1 155.8 143.3 131.7 124 136.6 134.8 126.3 118 111.1 106.4 102.9 97.1 89.4 87.2 84.6 81.4 83.5 83.3 81.3 79.8 79.4 79.4 78.2 78.3 74.3 73.9 72.4 71.4 79 88 96.7 101 102.6 106 110.3 115.1 115.3 114.7 114.9 119.9 123.2 120.9 120.2 124.6 133.8 143.3 152.5 159.2 165.4 171.3 179.8 187.3 191.8 197.6 202.2 209.3 215.8 223 228.4 237.3 246.1 252.5 258.5 262.3 264.4 266.7 268.9 271.4 274.3 275.6 277 280 283.6 286.9 289.8 290.2 293.7 296.1 295.7 297.2 298.5 298.6 304.4 308.2 310.8 314.3 315 314.5 317.7 321.3 322.9 329.5 332.8 336 339.3 349.4 360.5 369.5 375.7 383.3 391.5 398.5 404.6 413.3 420.2 423.1 425.9 418.9 414.3 411.7 409.9 406.5 406.1 402.8 399.6 396.9 397.6 393.2 389.9 387.2 382 384 385.6 385.7 390.7 390.7 389.5 378 364.7 341.6 309.9 273.9 251.1 237.6 232.4 226 220.6 214.4 206.8 199.6 192.3 185.3 177.2 162 161.9 159.9 153.7 146.8 139.3 132.1 124.6 122.2 121.4 121.2 121.5 121.8 122 122.1 130.7 140.4 147 152.3 154.7 148.8 144.8 143.6 144.3 144.5 146.6 152.9 158.9 162.5 164.7 168 172.3 176.3 179.5 176.4
201.2 203.9 203.8 200.4 199.9 199.1 195.7 192.3 198.4 204.1 201.9 203.7 203.3 202.4 200.1 194.9 191.3 185.1 183.4 182.3 177.1 170 158.8 146.7 133.1 119.3 124.7 128.5 122 114.3 112.2 108.6 102.2 97.9 86.7 83.5 82.7 81.8 82.1 82.6 80.4 79.2 79.3 78.4 73.8 73.4 73.6 73.8 70.4 75.9 79.8 89.2 93.4 102.6 105.4 113.6 119.1 119.1 116 114.5 115.8 119.9 121.8 118.7 120.5 128.8 137.2 145.6 153.3 160.1 166.1 171.9 179.3 185 188.7 192.8 197.6 203.1 211.4 218.7 227.2 236.3 244.6 251 254.2 254.2 254.4 257.5 259.3 261.4 262.9 264.4 269.3 272.7 275.6 278.9 281.6 282.5 283.7 284.7 283.2 285.9 289.4 294.7 298.1 300.7 303.4 303.6 305.9 307 309.2 311.3 312.8 317.3 320.3 323.8 329 339.9 351.9 362.4 367.6 375.3 386.9 396.7 402.7 411.6 419.7 422 428.2 430.6 429.3 425.1 421.3 415.3 412.4 411.6 409.8 405 404.9 404.4 404.3 403.8 397.3 389.9 384.4 384.4 385.6 384.1 387.8 387.4 374.2 352.3 324.3 290.1 262.6 246.1 239 233.7 228.3 221.7 215 208.7 202.4 196.6 180.1 177.3 174.6 168.8 162.9 155.3 146.8 137.2 129.5 124.1 122 121.2 121.8 122.2 122.3 122.3 128.4 138.2 144.2 149.4 151.5 146 138.3 136.1 139 141.1 146.2 152.3 155.9 160.2 164.3 167 169 171.9 174.3 174.6
199.9 202 202.8 199.9 199.4 196.8 191.8 196.6 202.9 207.3 206.1 211.2 209.7 210.3 209.1 203.1 198.3 192.4 193.1 188.9 183.1 173.7 161.6 150.7 136.6 122.4 111.4 118.8 116.8 111.5 109.8 104.6 99.4 95.7 87.1 84.4 83.3 82 81.4 80.6 79.6 79.1 78.8 72.7 72.8 73.4 73.6 73.5 68.5 77 84.8 87 94.5 100.9 108.8 121.1 123.8 121.4 117.7 114.4 117 119.8 117.8 117.4 123.7 131.1 138 146 153.2 159.6 165.3 171.3 178.1 182.9 186.3 189.9 194.1 200.3 208.4 217.2 226.4 234.9 243 247 247.1 245.1 243.3 245.6 248.9 251.5 254.5 257.4 260.8 263.1 266 267.3 269.2 271 270 270.7 275.4 281.2 286.6 288.9 291.2 293.2 293.5 293.8 293.4 294.4 296.2 298.1 301.6 308.9 311.2 316.2 321.9 330.9 342.2 351.4 357.8 365.7 379.1 389 399.6 410.4 419.6 423 426.7 434.3 430.8 428.9 426 424 415.2 413 411.9 410.4 409.8 410.8 409.5 411.1 407.4 405.5 400.1 389.6 385.1 383.9 379.7 382.3 382.4 366.5 342.1 304.6 274.8 254.6 246.1 240.7 234 228.4 222.6 216.8 210.7 202 186.4 192 186 177.7 171.8 165.1 157.1 148.6 139.2 130.1 124.2 121.2 121.8 122 122.4 122.9 129.7 131.5 134.7 138.3 144.3 147.6 138.7 131.5 134.2 144.3 150.3 151.1 150.4 153.9 157.9 161.5 164.7 166.9 169.2 169.3
199.9 201.4 203.7 200.4 201.2 194.2 194 202.3 204.4 206.4 209.4 214.4 212.2 215.3 214.1 210.1 205.4 200.8 199.3 195.6 190 177.7 165.6 152.9 139.9 126.5 118.6 111 106.7 106.2 103.6 95.3 91.1 88.8 86.9 85.2 83.7 82.3 81.2 80.1 79 78.8 77.9 72.2 72.9 73.4 73.8 72.7 67.8 76.8 82.3 89.1 95.8 96.5 112.9 124.2 125.6 121.6 117.5 113.7 117 118.3 114.8 118.2 126 132.1 138.7 146.8 153.4 158.2 163.3 170 176.9 180.6 184.2 186.8 191.7 197.9 205.8 215 225.8 236.1 237.3 236.8 236.2 232.9 235.3 239.3 242.9 246.5 250.9 255.4 256.7 257.5 257.9 258.2 258.2 259 259.5 265.6 271.1 277.4 281.5 280 285 283.2 283.2 282.6 281.3 281.7 285 289.2 294.7 299.6 305.4 309.7 313.6 322.5 331.4 343.1 353.9 359.6 375.2 393.2 406.4 418.3 423.9 430 436.6 441.1 435.4 434.5 434.9 431.4 429.7 413.5 412.3 412.2 413.8 419 419.4 415.3 414.1 410.1 409.2 406.7 398.9 389.3 386.1 379 377.7 367.3 352.6 317.3 284.4 261.2 252.7 245.9 239.3 234.2 228.6 223.9 213.1 208.1 208.5 204 196.6 188.3 180.4 174.3 167.9 160.4 148.9 137.6 129.5 126.9 122.1 121.7 122.8 121.7 122 123.6 123.6 123 130.9 139 134.3 127.4 135 145.2 145.3 144.6 146.8 146.5 147.4 153.6 160 164.3 167.5 169.4
200.4 201.8 201.4 202 201.4 192.6 194.6 199.8 203 206.2 209.4 212.8 212.7 215.9 221.8 216.6 209.9 205.4 202.4 197.3 192.9 185 174.3 158.1 143.7 131.8 123.6 118.5 113.2 107.4 103.5 99 95.7 91 87.3 84.7 83.1 82 80.7 79.6 78.6 78.6 78.4 72.2 73 73.6 73.3 67.8 75.5 79 87.4 93.6 95.2 105.4 115.3 123.2 123.8 119.6 115.4 112.6 115.4 114.1 113.7 119 126.8 132.8 139.4 147.4 153 157.1 161.8 168.7 174.7 177.8 181.2 183.5 189.6 195.8 204.7 215 225.7 228.4 227.4 226.6 226.4 228.9 232.7 236.7 240.9 246 252 254.2 251.8 250.2 249.6 249.9 250.5 256.1 264.5 271.5 274 275.3 273.9 273.3 272.9 271.8 271.9 270.5 270.2 274.4 278.8 283.7 288.4 293.4 299.2 306.2 314.5 322.6 332.2 342.7 353.9 364.9 373 390.4 406.1 415.9 420.3 422.8 428.8 434.5 437.3 435.4 440.6 443 438.7 430.6 425.2 419.1 417.3 418.7 422.2 419.2 416.6 415.7 415.2 412.5 407.4 402.1 398 390.3 381.8 369.2 353.3 320.5 287.6 266.2 256.7 250.6 245.4 240.7 235.2 226.6 223.7 215.2 217.9 213.7 206.1 200.1 191.3 184.2 178.4 170.2 160.6 148.7 137.7 132.8 130.8 125.3 123 123.2 123.2 123.6 123.8 123.4 122.4 125.1 126.3 126.4 133.5 134.4 135.1 138.5 143.5 144.3 145.5 150.3 156.6 161.3 164.9 166.6
200.1 201.2 199.9 200.9 198.9 193.8 195.2 199.4 204.9 208.4 211.4 212.8 213.7 219.1 224.6 221.4 214 209.4 204.7 202.6 199.6 191.5 180.4 164.9 150.2 138.8 129.8 122.3 115.6 109.2 109.6 107 98.8 93 90.9 85 82.2 81.1 80.1 79.1 78.3 78.4 77.3 71.8 72.7 73.6 71.7 67.8 76.8 79.7 89.5 93.7 98.4 106.1 114.9 121 120.2 116.8 112.3 110 112.4 111.2 114.4 121.8 128.9 133.9 140.5 148 152 155.7 160.7 167.4 172 175.3 177.4 180.7 187.4 194.4 203.9 214.8 219.8 217.9 218.4 221.2 224 227.7 231.4 235 239.6 246.5 251.3 249.8 245.7 243.6 243.1 248.2 254.8 262.7 268.8 269.6 269.5 267.1 265.1 264.2 260 262.7 263 264.1 268.1 272 276.1 280 286.1 294.7 302.8 310.5 318.7 327.3 334.8 341.8 350.7 359.3 369.1 381.8 395.7 403.4 409.2 412.6 416.4 427.1 433.4 431.7 438.4 445.1 445.8 440.7 432 429.5 428.1 428.6 424.7 420.4 422.4 422.8 418.2 417.1 411 408.3 406.5 401.2 390.9 379.4 356.1 321.8 290.2 267.6 265.5 259 252.3 248.3 240.7 236 229.1 224.7 225.7 220.8 214.6 210.4 203.2 195.5 189 181.1 173.3 163.1 150.2 140.5 136.3 132.4 129.9 128.2 126.7 125.9 126.8 127.1 127 124 124.3 122.7 124.7 125.9 125.9 130.6 137.2 140.2 144.1 148.3 153.1 158.5 162.3 164.4
199.4 199.9 200.5 204.7 206.6 203.6 204.5 207.5 210.9 212.3 214.9 215.6 215.9 221.3 223.7 220.1 215.7 212.6 208.9 205.9 200.5 194.2 184.7 171 157.9 146.6 134.1 124.2 117.4 111 109.7 110.4 101.7 87.9 82 81 80.8 79.9 79.2 78.3 77.3 78 78.1 71.6 72.6 71.9 67.7 74.9 77.5 82.3 90.4 92.8 100.5 107.3 113.8 117.8 115.5 112.4 108.2 108.2 107.7 111.3 116 123.8 130.4 135.2 142.5 147.7 150.5 153.8 160.7 165.3 167.9 171.6 172.3 177.3 184.5 192.3 201.8 211.2 209 208.7 212.9 217.7 222.5 225.6 230.9 235 235.3 243.5 243.3 241.6 238.2 240.1 245.4 253.5 260 261.1 260.5 259.1 256.8 255.2 251.4 252.2 254.3 256.6 259.1 263.8 268.7 275 282.1 289.6 294.9 300 304.9 311.2 316.4 321.4 326.8 334.5 342.3 349.9 359.7 369.1 380.5 388.1 395.6 400.7 409.3 420.4 422.9 426.8 432.6 439.2 444.7 444.2 440 433.1 431.7 431.8 432.3 429.8 425.1 424.2 422.8 419 414 412.7 412.4 407.8 398.1 387.6 358.1 322 293.4 274.4 271.3 269.3 262.6 259 250.9 244.7 234.6 229.1 228.2 228.2 225 220.7 215.4 209.1 200.2 192.1 184.3 175.7 163.1 150.6 141.7 137.5 138.5 141.3 136.9 132.3 130.5 130.5 130.5 126.6 125.4 124.7 125.1 125.4 125.8 124.9 128 134.5 139.6 144.3 149.6 155 159.6 161.9
199.9 200.2 205.8 215 214.2 210.3 213.4 213.5 214.1 216.1 216.3 215.4 216.8 221.4 220 215 211.7 211.3 208.6 206.8 201.5 194.5 184.7 174.2 161.8 149.6 135.7 125.9 118.8 116.3 109.1 107.8 103.7 83 78.2 81.5 81.5 78.9 78.4 77.6 75.9 78.2 76.8 71.3 72.3 67.8 73.8 75.3 77.7 84.4 90.3 95 102.6 107.2 111.8 113.9 111.1 107.8 105.2 106.3 108.3 115.5 120.6 127.4 132.8 137.6 144.3 146.7 148.3 152.2 158.5 163 163.9 166.2 167.3 173.5 179.7 185.8 196.7 200.2 198.5 200.5 202.1 205.7 206.3 199.3 203 216.5 229.4 236.5 235.2 233.7 236.6 243.1 248.5 252.8 252.7 249.1 245.7 245.8 242.5 243 247.2 251 253.7 259.8 263.2 272.1 279.7 287.3 291.7 294 297.2 299.5 302.7 306.6 311.5 317.9 323.4 330.7 338.5 347.5 354.7 360.6 369.3 379 388.8 394.7 401.5 410.8 416.1 420.7 426.2 432.3 438.1 443.4 444.5 443.6 440.7 442.4 443.2 441.9 441 433 424.6 420.9 414.5 413.4 412.9 409.3 401.6 390.4 359.3 323.6 296.8 280.6 270.5 266.6 264.9 258.6 261 254.2 242.3 232.7 229 232.6 233.4 228.5 224.6 220.2 213.1 206.2 196.3 185.4 174.6 161.9 150.3 145.4 145.6 151.1 148 139.4 136.7 135.1 133.3 128.4 126.7 126.5 126.4 125.9 126.3 126.2 126.3 125.9 134.8 139.7 144.5 150.1 154.8 157.8
201.2 203.7 208.5 216.3 211.9 210.1 212.1 213.1 213.7 215.6 214.8 212.8 214.4 216.9 214.8 210.3 207.2 207.9 205.5 208.8 208 202.4 195 181.1 167.2 156.2 142.1 128.8 120.5 117.7 113.5 108.5 99.6 82.7 77.7 82.7 83.3 77.7 77.4 76.7 74.6 75.6 70.7 69.4 67.2 68.9 73.5 77.4 78.4 85.2 90.7 95.6 102 105.3 107.9 109.3 107 104.4 101.9 107.5 114.6 120.6 126.1 132.8 136.3 140.3 144.9 144.4 145.4 149.5 155.4 159.6 158.2 161 162.8 166.1 161.6 168.6 180.2 180.4 179.3 180.2 179.1 179.5 178.5 173.8 181.3 200.2 214.2 220.8 225.7 232.1 236.6 238.3 243.2 239.2 233.7 231.3 235.2 237.9 242.8 248.9 253.1 259.9 266.3 259.4 272.1 281.5 286.4 290 292.6 294.7 297.1 300.8 304.7 308.5 313 318.3 324.7 332.7 339.6 346.7 355.1 362.9 369.6 378.3 385.6 390.1 395.6 401.5 406.9 414.7 423.8 434.1 440.6 444.7 450.5 455.8 460.4 461.2 456.7 454.6 454.1 450.6 444.5 436 422.8 417.5 416.4 409.8 401.1 391 362.5 328 301.8 283.3 272.2 267.2 265.9 263.4 265.3 261.7 247.9 235.8 230.8 231.1 236.2 235.6 232.2 228.8 225.3 221.1 210.3 197.6 187 172.9 161 157.9 152.2 156.8 154.9 149.9 142.6 137.6 135 130.3 128.6 128.3 128 127.6 127 126.6 126.8 125 127.5 135 140 144.8 147.7 146.2
202 206.1 211.7 212.7 208.2 209.2 212.4 211.9 211.4 209.9 208.9 209.5 209.2 210.6 210.6 204.9 205.3 209.7 205.9 207.7 206.5 198.8 190.1 178.4 167.4 157.1 144.7 129.9 121.2 117.8 115.9 112.3 102.4 82.5 77.8 78.5 77.7 77.2 76.9 75.6 74.9 73.1 70.2 67.4 68.5 73 73.8 77.7 79.2 85.8 90.5 96 100 102.2 103.8 105.2 103.1 103.3 103.6 111 118 124.5 133.7 137.8 140.1 143.2 144 141.1 141.5 147.6 152.1 153.6 151.4 149.8 142.9 145.6 152.2 150.9 164.8 159.9 163 165.3 167.5 176.7 185.6 190 193.1 193.9 201.1 209.3 218 221.3 220.9 223.8 228.9 232 236.7 241.7 244.6 246 251.7 258.9 262.6 271.4 275.4 268.2 265.2 274.9 282.6 287.5 292.2 296.3 300.3 304.7 310.3 315.8 321 326.2 333.3 339.2 345.5 351.3 357.5 364.3 371.7 377.2 382.5 388.9 393.4 398 403.9 409 416.4 425.1 433 436.5 438.9 446.7 454.8 461.6 463.8 463.3 467.3 464.8 463.4 453.1 444.2 440.4 430.5 415.4 402.5 392.4 363.4 331 306.6 283.8 275 270.4 265.1 263.8 266.2 265.7 256.6 244.6 236.6 231.4 232.2 236.9 235.6 233.3 231.8 228.4 221 211.3 200.1 185.6 171.8 165.3 161.7 159.9 159.1 155.3 145.2 140.1 137.2 133.1 131.1 130.3 129.9 129.9 128.7 127.4 126.4 125.9 126.7 130.8 136.1 140 139.8 141
200 205.4 209.1 207.9 205.5 210 213.6 211.5 206.8 204 204.4 206 207.1 203.9 202.9 198.9 201.7 203.7 201.3 203.6 203.7 195.2 181.9 172.7 163.9 154.1 144.7 129.3 120.6 117.2 116 110.5 102.2 83.2 78.8 76.8 76.9 76.7 75.5 74.8 74.4 72.1 66.8 69.6 72.6 72.4 74.8 77.3 80.5 86.1 89.6 95.3 98 101 100 100.4 100 99.5 106 114.3 120.8 130.6 139.3 140.9 142.8 143.1 140.6 136.1 139.8 144.4 141.2 135.9 137.5 144 157 163.4 169.2 172.9 174.1 177.1 179.5 185.4 193.2 202.1 210.1 212.1 213 208.1 215 221.5 223.9 218.1 227.8 237.4 242.3 246.3 251.8 254.9 255.9 258.3 261.3 269.3 270.8 272.8 273.9 275.3 273.6 272 277.5 287.7 293.5 299.7 305.5 310.9 316 321.2 325.3 329.2 334.3 338.8 342.7 348.1 352.7 359 365.8 372.3 381 390.7 397.2 403.4 404.1 405.7 408.3 414.9 423.5 427.5 431.5 436.3 441.7 449.8 456.4 459.1 465.5 469.4 467.2 455.2 451.9 446.8 442.6 432 415.7 398.2 366.4 331.7 305.9 284.8 274.8 271.9 265.2 263.8 268.8 271.9 267.3 254.1 244.2 235.5 231.5 232.9 234.7 236.2 236 234.6 230.7 223.6 213 199.3 185.6 174 168 164.1 161.1 158.7 150.7 145.4 139.7 135.9 133.9 132.9 132.2 131.3 129.8 128.3 124.4 126.7 127.1 128.1 132.2 135.1 137.7 140.3
198.9 202.5 204 202.4 205.4 209.7 211.7 210.2 206.5 205.1 204.1 202.9 202.9 198.4 194.2 192.7 195.1 197 198.7 198.7 198.9 192.4 180.1 167.3 159.4 150.6 142.3 132.4 120.6 117.4 117.2 111 99.1 82.9 79 77.3 77.2 76.1 74.7 74.2 71.7 66.8 70.9 72.3 72.4 72.1 75.9 77.5 80.7 85.5 88.8 93.8 96.5 96.8 98 96.2 95.4 103.3 109.3 117.9 127.9 139.3 142.7 142.4 142.3 140.4 135 132.7 136.8 140.5 135.8 137.7 146.9 157.1 166.7 172.8 179.8 186.2 193 199.1 204.6 210.3 218.6 227.1 231.2 230.4 226.9 224.7 228.8 232.3 235.2 231.2 231.2 245.3 252.4 257.7 262.5 266.8 269.6 271 274.2 276.9 279.8 284.1 288.5 291.4 292.9 288.5 275.5 282.6 294 299.4 304.5 309.1 313.1 316.8 320.3 323.3 327 330.8 334.8 340.4 346.5 353.1 358.9 365.8 373.1 380.2 385.9 392.3 394.1 396.6 402.8 409.9 418.3 424.9 425 429.8 437.6 442.6 450.7 457.2 466.5 471.8 471.9 463.9 459.1 454.7 446.5 437.7 421.7 407.2 375 336.6 308.2 286.6 276.7 271.4 268.2 265.4 269.9 276.3 269.7 263.1 255.2 246.6 239.2 232.7 233.2 235.3 237.8 239.1 237.6 232.4 224.8 212.1 198.1 186.4 176 169 164.2 161.3 159.9 152 146 142 138.1 135.7 134.9 132.3 130.5 129.1 127.3 125.1 127.2 127.5 128.8 132.1 135.2 138.5
198.9 201.7 202.3 203.5 209.5 213.3 214.8 212.4 209.1 208.9 204.9 201.6 200.6 197.8 192.9 190.7 190 192.8 197.1 193.5 189.4 181.9 173.5 165 157.6 148.4 139 131.1 124 120 116.7 109.7 96.3 83 77.9 77.4 76.6 74.7 74 73.8 66.8 70.7 71.6 72.3 72.3 72.1 75.6 76.7 79.8 84.3 87.5 93 95.5 96.2 96.1 95.2 102.6 109.5 115.7 124.1 134.6 141.3 142 139.8 139 136.1 128.4 128.3 125.6 127 132.7 143.4 151.8 161.1 169.1 175.9 184.4 192.1 200.5 209.6 219.5 229.2 235.9 242.2 246.6 245.9 240.5 234.2 235.3 238.1 241.6 244.4 248.3 250.7 252.9 263.4 269.7 274.9 279.9 284.9 288.3 292.6 297 300.8 307.7 309.6 310.9 310 295.2 281.2 280.8 291.3 296.8 300.6 300.1 306 309.7 310.7 316.5 319.1 325.2 333.7 339.6 346.1 353.4 359 365.5 370.8 375.2 380.5 385.7 391.5 397.9 404.4 411.8 420.1 423.8 428.3 434.5 439.4 445 452.2 462.3 473 477.4 475.3 468.2 462.8 452.8 439.6 427.3 416.3 390.4 350.6 317.7 296.3 284.8 275.6 272.2 268.8 272.1 274.8 271.5 266.8 263.5 258.4 248.9 236.2 234.9 237.8 239.7 241.9 241.6 238 232 222.5 209.6 198.3 186.4 176.7 168.3 164 162.9 160.5 155.4 148.3 142.7 138.9 136 133.3 133.2 131.5 128.4 127.3 125.9 127.1 127.6 130 133.8 136.4
199.6 203.2 204.6 206.4 212.2 216.2 217 215 213.2 211.6 206.9 205.9 205.2 201.5 194.7 190.2 189.1 192.6 194.5 191 187.7 194.6 181.6 167.9 162.2 152.4 141.4 132.1 125 118.1 115.6 107.4 93 83.3 77.9 77.7 76.4 74.6 73.4 66.6 70.4 71.3 71.7 72 72.1 72.7 75.6 76.8 79.2 82.4 84.8 93 91.9 88.5 96 99.7 105.9 112.7 119.7 127.8 136.4 140.1 138.5 136 134.1 130.2 123.7 122.4 124.7 130.7 138.8 147.6 156.8 166.2 173 178.2 186.9 194.2 203 215.6 227.5 235.6 241 249.1 252.5 251.3 248.7 245.8 243.8 245 248.8 251.9 255.9 259.5 258.7 265.8 274.3 280.8 286.8 293.3 298.5 302.4 306.2 311.5 317.9 322.3 323.9 323.2 311.3 295.4 287.6 291 292.8 295.8 306.5 310.6 311.4 318 320.8 326.5 328.5 326.7 333.5 338.6 345.4 350.3 352.2 361.3 366.5 374.5 381.2 388.2 396.7 403.3 412.5 420.7 425.1 431 434.6 440.1 444.6 452.8 458.8 465.7 470.3 470.5 472.6 472.6 465.2 454 443.7 435.3 412.3 372.4 336.8 312.6 297 284.9 276.9 274.9 277.2 278.1 274.5 273.4 273.9 268.7 257.3 242.6 236.8 242.8 245 243.9 243.5 240.7 234.8 227.4 218.2 208.7 196.9 184.5 174.6 167.7 166.1 162.9 156.3 152.1 147.6 145.5 140.9 137.1 137.3 132.8 129 127 126.9 126.7 126.8 127.3 130.9 133.3
200.6 204.1 206 208.7 214.2 217.5 218.9 220.1 219.4 218.3 212.6 210.7 209.1 202.4 194.1 188.9 189.5 192.8 190.8 189.9 189.4 192.9 190.6 170.5 163.1 155 144.2 135 127.6 120 111.2 105.8 93.1 86.5 80.4 78.8 76.9 74.6 73.8 67.5 70.2 71.2 71.6 72 72.2 73.2 74.3 75.9 78.6 81.5 83.5 85.4 85.1 92.7 96.6 99.8 106.2 114.4 122.7 130.3 135.3 136.5 133.3 131.3 128.2 121.2 119.6 121.7 128.1 136.5 143.6 152.4 161.8 169 176.5 182.1 188.5 196.4 205.7 219 228.8 236.9 243.1 249.7 255.3 257.6 260.7 258.2 257.3 255.6 255.2 257.7 261.7 265.4 269.5 269.9 269.2 285.1 291.5 295.6 301.9 307.5 313.6 321.6 327.1 331.4 334.4 333.6 323.8 310.3 293 299.7 305.9 309.4 312.9 316.6 320.4 324 328.7 332.6 335.3 337.5 336.9 339.9 342.1 349 355.7 359.7 361.1 367.9 382 390.2 397.2 403.4 411.8 419.8 425.8 432.3 438.5 444.2 447.9 455.5 459.6 462.3 465.5 465.9 469.4 471.8 474.2 463.7 453.2 448.2 437 399.4 362.4 335.6 315 301 292.9 290.5 292 291.5 287.1 286.1 284.7 277.3 264.4 248.9 238.8 242.8 247.4 247 244 240.2 237.6 232 224 215.4 206.4 195.8 182.6 172.9 168.1 164 158.8 157.4 154 150.9 146 144.1 142.8 137.1 131.9 127.6 126.7 127.4 127.7 127 127.9 128.3
201.9 205.2 206.2 211.3 216.8 219.9 221.2 223.7 226 224.5 218 214.3 211.4 203.9 195.3 188.6 187.1 188 188.6 188.6 191 190.5 183.3 170.8 164 156.9 147.3 138 129.9 122.1 107.8 98.8 91.6 86.2 82.9 80.5 78.9 77.3 73.2 66.6 69.8 70.6 70.9 71.5 72.3 73.2 74.3 75.8 77.4 79.7 81.1 82.1 87 92.8 95.4 99.4 105 115.1 123 128.8 131.2 131.4 128.6 126 119.6 116 118.4 123.3 130.7 137.9 146.7 157.1 165.2 172.4 180.3 186.3 191.6 199.3 208.3 220.3 229.2 237.5 243.6 251.7 258.7 267.9 272.7 273 270.6 267.1 265.8 266.1 268.4 270.7 276 280.1 279.7 286.6 294.1 299.5 306.4 316.4 322.9 331.2 339.7 345.8 348.4 350.2 337.3 320.2 307.5 306.5 312.8 315.3 317.2 321.8 326.5 329.1 334 338.4 341.4 344.8 348.3 351.1 355.5 361.6 364.2 369.9 375.6 377.8 383.1 384.8 396.7 403.1 410.2 416.2 424 432.3 441.7 448.5 452.5 456.9 461.1 463.8 465.3 465.7 468.7 473.3 477 475.5 470.1 465.6 460.4 430.8 393.3 366.4 347.2 333.8 321.4 316.5 313.9 310.1 306.4 304.6 299.7 288 271.6 258.3 245.7 242.7 248.2 246.2 244.2 244.4 241.2 235.4 228.4 220.7 214.5 204.1 191.3 178 171.3 166.4 165.3 162.8 158.5 154.2 148.4 148.7 146 142.6 138.9 134.2 129.9 127.8 127.5 127.8 128.3 126.4
203.2 206.6 207.5 213.8 218.9 221.5 224.2 227 229.1 226.9 222.3 218.9 214.3 206.3 197.2 188.7 184.2 185.7 189.2 190.3 189 183.9 177.1 170.8 164.4 157 148.1 138.8 129.4 120.1 112.5 101.8 93.8 88.2 85.2 83.6 83.4 81.2 72.8 66.6 68.8 69.8 70.6 71.1 71.9 72.4 74.4 76.2 77.4 79 81.1 83.6 86.9 90.8 95 98.3 104.3 113 119.8 124.4 126.8 125.6 122.2 118.8 115 114.3 118.8 124.4 132.2 141.2 151 161.6 169.3 177.6 183.1 189.1 194.1 203.8 214.7 223.8 236.3 246.7 249.8 257.9 266.9 275 281.4 285.5 287.2 279.9 275.6 275.5 277.2 277.8 284.4 287.7 290 288.7 297.5 304.7 311.9 321.2 332 341.7 349.3 354.8 361.4 363.6 352.2 330.9 312.8 316.1 323.7 323.7 326.1 331.3 336 338.6 342.4 347 352.5 356.9 358.4 360.1 363.2 367.1 372.6 377.3 381.5 386.4 391.3 396.6 399.3 405.8 408.2 415.5 422.6 429.2 435.4 443.9 450.8 456.7 464.6 471.8 474.8 475.6 480 482.5 487.9 486.1 480.4 479.1 472.9 457 427.6 403.5 390 381.2 364.4 350.3 341.1 335.7 331.1 324.6 315.4 300.1 279.2 265.2 250.7 242.4 246.3 245.7 245.8 246.3 244.1 238.4 232 225.6 217.3 209.1 196.3 185.3 177.6 173.5 170.5 166.5 163.4 158.5 155.1 152 148.4 146.6 144.4 140.8 135.3 131.7 128.9 129.6 129.2 129.4
204.6 208 210 216 219 222.2 225.9 228.7 229.2 227.3 223.7 220.7 215.7 205.4 197.4 189.4 182.8 183.5 189 186.5 184.7 185.7 174.6 168.9 162.5 154.6 147.9 139.1 128.6 117.9 109.8 99.7 94.9 90.8 86.9 85.8 86.9 83.1 71.7 66.6 66.2 70 70.5 70.7 71.4 71.3 74.2 76 77.1 77.4 81.2 83.3 85.8 89.7 93.8 96.7 100.8 110.1 115.4 119.2 120.7 119.1 115.7 112 111.8 115.5 120.8 126.6 136.1 144.6 153.4 163.1 171.2 179.6 184.9 190.8 198 207.9 218.6 229.8 243.8 252.8 256.2 264.7 273.5 280.8 287.3 294.2 299.3 297.8 289.6 285 287 289.3 292.6 294.6 297.2 300.6 293.8 308.5 316.2 328.5 339.2 348.3 356.1 363.7 371.9 373.6 363.3 346.3 323.2 318.9 336.1 332.7 335.9 337.7 343.3 347.4 351.6 357.4 362 367.5 372.6 374.9 376.5 376.2 378.8 383.3 388.5 392.8 396.6 400.2 405 409.4 415.2 418.3 425 430.2 434.7 441.7 448.5 456 464.9 476 481.3 485.9 492.5 494.7 496.3 494.8 494.3 489.9 479.4 468.3 451.5 434.8 425 414.2 398.7 384.4 375.8 363.6 349 336.3 321.9 305.7 284.1 268.6 255.2 246.4 245.4 246.2 247 246.4 244.8 240.2 233.5 226.9 220.1 211.2 199.7 188.8 189.3 182.5 171.6 169.6 165.9 163.9 164.1 156.2 152.5 150.7 148.4 146.4 142.9 139.3 136.5 136.6 135.1 133.6
205 207.8 211.4 216.5 218.6 223.1 226.7 228.7 229 227.3 224.1 220.6 214.7 203.4 192.9 187.5 182 179.4 183.9 182.8 181.5 178.8 170.7 165.5 159.4 152.6 146.4 137.1 124.1 120.7 114.2 107.5 101.4 91.5 87.2 85.9 82.9 79.6 71.6 70.6 65.8 69.9 70.3 70.6 70.6 70.6 72.7 75.7 76.2 75.9 77.2 83.8 85.5 87.8 91.2 94.4 98.7 105.7 110.5 113.6 114.1 112.1 108.8 108.6 113 119.2 124.5 130.6 139.8 145.3 155.5 162.8 171.4 180.2 186.8 194.3 205.6 215.5 225.2 235.2 246.5 256.5 262.3 276.9 286.6 293.4 302.9 311.6 315.6 314.5 314.1 309.9 305 300.8 301.8 302.9 305 307 307 310.1 318.6 331.4 345 353.2 361.8 371.9 380.5 383.6 376.9 360.6 341.4 315.8 334.6 343.8 345.4 348.4 349.9 353.4 357.7 366.5 373 379.8 386.1 388.1 391.7 394.4 392.6 394.1 397.4 402.1 407.8 410.3 412.9 414.4 420 425.8 429.3 436.1 440.2 446 453.3 460.4 469.4 480.4 487.9 494.8 499.8 505.2 506.8 508.1 503.4 498.1 483.7 469.1 455.5 442.3 432 422.4 409.8 398.6 390 375 358.8 345.1 328.1 310.1 288.2 273.7 261 251.9 246.7 248 250.1 247.4 245 239.6 231.6 226.1 219.3 209.8 203.1 199.7 193.5 178.9 176.6 172.8 167.8 171.1 168.6 165.7 164.5 165.9 162.7 162.3 157.7 148.6 143.1 140.1 137.2 134.6
205.5 207.5 212.4 216.6 219.2 223.7 226.7 228.5 229.3 227.9 225.3 221.3 214.3 202.4 190.5 186.4 183.3 178 176.3 176.2 175.6 173 165.3 161.8 156.6 151 144.1 137.3 131.4 126.5 117.8 109.1 101.5 93.6 87.2 84.4 82.2 76 70.6 71.4 66.2 69.5 70.2 70.4 70.2 70.6 71.6 73.9 74.7 75.4 75.5 81.5 86 87.6 89.5 92.7 96.5 100.4 106.1 107.6 106.9 105.5 106.9 111.5 117.7 122.7 128.1 136 143.3 147 155.7 162.7 170.9 179.1 187.4 196.6 206.6 217.6 227.6 245.8 255 261.7 266.3 278.6 288.5 296.9 309.3 321.9 328.3 330.3 330.2 332.1 328.3 322.7 316.7 311.5 312.7 313.3 314.9 308.6 322.9 332 346.4 358.2 370.6 380.3 390.5 394 388.9 375.5 355.9 336.3 321.3 340.8 350.8 354.9 357.8 360.5 363 370.3 380.2 389.8 398.1 404.5 405.9 408 411.5 412.6 414.5 419.9 427.2 429.1 428.8 429 430.3 433.6 438.3 444.2 449.6 454.6 462.7 469.6 476.7 483.6 490.3 499.9 507.1 513.3 518.1 521 517.5 503.2 483.5 468.2 453.4 442.7 433.1 422.5 409.2 398.3 386.8 375.9 362.6 350.7 334.5 314 291.9 278.7 267.9 259.5 250.5 254.6 255.9 249.1 243.7 237.8 230.9 223.4 214.9 215.8 215 207 187.8 187.4 192.7 181.8 170.5 181.1 179.3 178.6 178.5 176.5 171.5 170.5 171.9 164.7 152.1 145.6 142.2 139.2
205.7 208.1 215 219.1 220.9 224 226.8 229.1 230.6 230.9 230.5 228.5 221.4 209.4 197 191.6 187.7 180.3 176.6 179.5 177.2 173.5 166.1 161.7 157.6 151.9 146.4 143.8 135.7 126.3 117.8 109.1 102.3 95.5 87.5 82.4 81.6 71.3 67.3 67.8 70.1 66.3 69.5 69.9 69.7 70.7 72.4 73.3 74.4 75 75.8 77.6 83.8 85.2 89.1 91.2 93.7 96.3 98.9 100.7 101.5 102.9 109.4 116.5 121.3 124.7 132.6 140.4 146 148.7 156.7 163.8 170.9 178.1 187.3 196.9 206.4 215.7 227.7 239.6 248.5 257.5 261.8 275 282 296.1 311.5 327 339.5 343.2 345.8 346.2 344.1 338.4 331.4 322.2 320.5 319.8 320.8 319.9 322.7 334 348.4 361.8 377.4 389 399.7 403.7 399.1 388.4 370.4 351.9 335.8 331 349.4 355.8 361.6 365.7 370.3 375.3 384.5 396.1 405.6 413.2 418.4 423 427.3 432.3 436.3 442.5 448.2 451.4 448.3 445.7 443.9 445.3 445.4 451.6 457.5 463.4 468.4 475.6 481.9 488.4 495.7 504.3 514.4 521.6 525.6 524.6 518.9 502.5 485.3 471.8 460.7 444.3 430.5 419.9 406.7 395.8 380.9 371.5 361.2 350.2 333.4 314.2 294.1 283.4 274.5 263.6 253.7 258.8 258.3 249.7 243.4 240.1 233.6 222.5 221.5 223.1 219.8 210 190 202.1 206.4 195.6 182.2 187.9 188.9 188 185.5 182.6 178.1 175.8 175.5 177.9 171 161 153.4 148.7
203.6 210.5 217.8 220.5 222.7 226.6 229.2 231.7 234.5 237.2 238.3 237.7 232.8 222.2 210.8 202.4 195.9 186.9 180 179.1 178.6 174.1 167.7 164.2 161 156 148.3 145.1 133.1 127 118.8 110.5 103.7 97.3 86.1 79.1 73.7 67.3 68.4 68.5 69 66.1 68.5 68.8 69.4 72.7 74.8 74.3 73.8 74.8 75.7 77.3 82.4 87.8 90 92.1 94 95.3 94.8 97.6 99.2 103.7 112.2 118.3 121.3 128.2 136.4 144.3 146.9 149.5 157.3 164.3 170.1 176.5 185.5 195.2 205.3 215.3 227.4 235.5 241.4 248.9 258.5 268.8 280.1 295.6 310.3 327.4 341.9 352.7 358.1 357.6 360.1 358.1 350.8 341.7 331 325.8 327.1 326.9 323 334.5 347.3 361.8 379.1 390.9 404.6 411.9 414.8 404 386 370.4 352.3 339.1 335.5 353.7 361.8 367.6 373.5 379.6 387.9 401 411.2 419.7 426.9 435.1 441.9 448.6 456 462.1 468.1 466.7 464.7 460.6 455.8 456.5 456.1 459.1 462.7 468 473.3 478.5 483.5 489 496.2 506.2 516.7 526.3 528.3 527.5 519.9 504.8 488.1 476.1 463.1 444.8 430.6 417.3 404.8 389.2 376.8 364.5 354.6 343.2 331.9 310.1 293.2 284.4 276.9 266.1 257.7 263.5 258.2 250.5 244.2 239.1 231 221.7 223 224 216.8 199.6 200.7 212.5 213.2 207.3 196.1 186.8 194.7 193.8 190.6 186.9 185.2 185.5 184.6 183.9 180.5 174.2 167 157.7
202.6 212.1 217.4 221.6 224.8 229.5 232.6 233.8 237.2 241.5 242.4 241.8 237.6 227.9 215 205.2 198.2 188.4 180.2 178.7 177.3 175.3 167.6 166.7 165.1 158.2 149.6 144.4 133.8 127.1 119.1 110.8 102.7 95.5 89.2 74.3 69.5 66.8 69.7 68.7 69.1 68.8 65.6 68.7 70.8 73.8 74.4 74.6 74.2 75.2 75.9 76.9 80.9 87.4 89.4 91.4 92.9 92.9 98.1 96.6 102 108.1 113 117.9 123.9 130.6 139.6 145.6 145.7 150.4 158 163.8 168.9 175.3 183.7 194 202.8 212.2 222.2 230.1 236 244.2 255.8 264.7 278.3 297.4 311.4 326.4 339 349.1 355.9 359.4 366.5 369.3 364.6 356.8 347.6 340 335.1 332.9 326.2 336 347.9 366.1 386 397.7 405.6 410.1 417.1 415.6 401.9 387.6 370.3 353.4 345.8 344.6 357.6 365.5 373 379.7 386.7 400.2 414.1 425.4 433.7 444 454.7 464.9 469.5 477.3 480.9 481.8 480.4 478.1 471.7 465.3 464.8 465.1 467.9 472.9 478 483.1 487.4 492.1 500.4 511.1 519.9 527.1 529.8 528.6 518.5 504.8 489.4 477.9 461.5 445.6 429.7 412.2 397.8 381.6 366.4 353.7 344.9 338 324.4 305.2 292.8 286.5 279.4 270.6 265 265.7 259.3 252.1 243.2 232.8 226 222.7 222.9 220.3 211 208.2 216.6 219.8 218.6 216.3 200.5 189.5 199.3 200 196.3 191.2 190.5 192.1 191.9 188.8 183.9 177.9 167.9 161.7
202.1 211.7 217.1 221.9 223.8 227.8 230.6 231.8 235.5 239.8 240.1 239.2 235.9 228.6 216.7 204.9 198.6 189 178.6 175.3 173.5 171.7 168.4 170.8 169.5 164.4 151.3 145.2 138.1 130.8 121 110.6 103 90 84.9 74.1 73.4 66.8 67 68.4 69.7 70 66.2 68.4 73.4 73.8 74.4 74.6 75.2 76 76.7 78 81.8 86.8 88.9 90.3 90.2 89.4 95 96.7 103.6 109.5 113.1 117.4 125 132.6 142 144.9 144.7 150.9 158.4 163 168 174.4 182.8 190.7 199.9 209.9 217.8 225.4 232.3 241.1 253.8 264.9 277.8 292.2 305.6 320.5 334 343.1 353.5 361.4 371.9 373.8 371.6 368.4 359 349.3 343 340.7 336.9 338.5 351.8 363.2 377.8 390.3 402.9 412.9 417.9 419.4 411.5 401 388.5 372.7 357.8 346.8 349.9 362.8 369.7 375.5 383.5 396.1 412 425.9 437.7 448.9 463.4 476.2 483.5 490.4 493.7 495.7 494 492 486 477 473 470.6 471.8 476.3 482.8 489 494.3 499.4 507.2 516.3 524.5 531.6 533.2 528.8 519.5 505.2 492.6 473.3 457.6 442.4 425.5 408.2 392.2 375.3 358.4 345.8 334.7 326.7 314.1 301 293.9 288.5 281.9 273.6 270.9 267 261.6 253.6 242.8 234.7 227.3 223.8 221.4 217 213.7 217.9 221.5 224.6 224.1 221.8 209.4 200.1 208.3 208.8 207.3 199.7 195.2 198.8 199.1 195.8 190.1 181.7 172.3 167.5
201.7 209.2 214.4 218.1 220 223 226.1 227.8 231.3 236.6 238.3 238.8 236.6 230.3 217.4 203 195.2 187.9 176.1 172.3 171.5 170.1 169.9 174.4 177.6 175.8 157.4 143.8 143.2 134.9 122.4 108.1 98.8 87.9 80.7 73.9 73.1 68.9 67.5 69.2 69.3 69.3 65.4 70.3 73.7 73.6 74.3 74.7 75.4 76.3 77.9 79.6 82.7 86.4 87.6 86.6 86.8 91.4 92.4 96.7 104.7 108.8 109.7 118.9 126.5 133.8 140.6 142.8 145.6 152.9 158.2 162.2 167.7 175 183.4 191.9 199.5 207.5 215.4 222 229.5 237.2 250.3 261.2 273.4 284.6 295.8 307.3 319 331.9 346.7 354.3 367 372.9 377.4 379 372 362.8 353.6 349.1 346.7 349.6 357.4 372.1 381.1 390.4 400.1 409 416.4 422.4 421 415.7 405.8 391.7 374.3 361.8 352 352.6 365 372.4 380.8 390 404.8 421.8 438.2 452.4 466.9 479.7 491.1 499.2 503.4 508.8 507.2 503.4 497.6 488.4 481.8 478.4 478.4 482.3 487.6 494.7 500.3 506.9 515 523.3 530.6 535.6 534.4 525.7 516.9 504.2 490.9 471.8 455.9 439.3 423.8 407 387.9 370.1 352.9 336.8 324.3 314.1 305.2 299.9 295.4 291.3 282.3 279.5 274.5 269.7 262.8 254.4 247.5 237.4 228.8 224.7 220.6 218.1 218.4 222.9 224.4 226 226.3 224.3 212.7 213.8 219.7 219 218.6 211.6 206.7 210.3 211 207.7 202.7 193.1 183.8 177.4
202 209 214.8 218.4 221 223.6 226.9 228.3 230.9 235.8 238.7 239.1 236.4 231 220 204.7 193.7 185.3 174.7 171.1 171.1 171.2 171.4 175.5 177.4 168.8 151.9 141.7 138.9 131.2 118.6 106.5 95.5 84.6 77.1 72.8 73.6 67.9 68.5 68.9 69 69.1 64.8 70.8 73.2 73.8 74.3 74.8 75.6 76.9 78.6 80.3 82 84.4 84.6 85.9 88.2 90 92.9 98.3 105.5 107.9 112.4 121 127.8 134.1 138.9 143.8 148.9 154.4 160.2 162.9 168.3 175.8 185.7 192.4 198.3 205.2 213.1 220.5 227.5 236.6 245.7 257.3 269.9 279.3 288 298.4 310.3 324.1 340.1 349.2 361 374.1 384.1 387.4 384.3 377.4 363.7 361.3 360.3 362.7 369.2 380.1 388.7 396.8 406.2 415.8 424.8 430.2 433.4 429.6 419.1 407.7 393.6 380.7 369.4 363 358 360.5 376.8 386.2 395.4 410.3 429.9 448.4 465.7 480.8 494.2 505.1 512.3 516.2 516.4 515.3 511.6 504.2 492.9 487.4 488.5 491.7 494.8 501.3 508 514.3 522.5 530 537.1 540.6 536.7 529.8 519.1 506.7 489 471.7 452.3 436.4 423.4 404.4 381.2 362.9 348.4 329.7 317.2 307.3 301.2 298.6 294.6 289.8 287.4 286.2 279.1 270.6 262.4 256.6 251.8 233.8 233.8 226.7 222.3 221.3 220.6 224.7 226.8 227.7 228.7 228.1 216.8 225.2 228.1 228.7 227.6 223.4 220.6 219.1 217 214.1 209.8 204 197 190.4
201.3 207.5 213.1 216.8 218.9 220.2 223.2 225.9 230 235.5 240.2 241.5 238.7 233.9 223.6 210.1 196.3 184.2 174.5 171.2 171.5 172.6 172.3 175.5 174.7 166.6 149.3 141.5 134.6 125.6 115 103.1 92.7 81.4 78.6 72.4 73.4 67.8 68.6 68.8 68.9 67.8 64.8 71.5 73.1 73.5 73.9 74.6 75.6 77.1 78.7 80 81.6 83.1 84 86.1 89.1 91.6 95 100.9 104.4 106.9 113.9 121.1 127.1 131.2 140 145.9 149.6 155.5 160.9 163.2 167.9 174.8 182.3 190.4 198.1 204.9 212.8 220.4 228.5 236.5 244.3 253 265.2 274.2 282.4 294.6 305.8 318.1 330.6 343.9 364.2 374.7 385.8 394.6 394.4 393.9 377.2 374.2 373.9 372.7 380.9 385.9 390.9 400.3 410.8 418.3 424.3 432 446.1 452.4 444.4 428.1 411.7 397.4 388.4 380.7 375.6 371 366 382.6 390.7 401.7 419 439.1 457.4 477.4 494.7 507.3 516.9 522.6 525.2 525.4 521.8 515.6 506.8 499.5 500.3 502.8 505.9 511.2 518.7 525.4 534 543.3 549.1 549.3 542 531.5 522.4 510.8 492.5 474.1 453.3 436.2 417.6 394.7 372.4 358.4 340.9 323 310 302.1 298.5 296.4 294 293.2 293.7 294.4 283.7 271.3 262.4 256.7 250.9 245.6 238.6 234.5 226.8 225 224.6 228.2 231.4 233.4 235.4 234.1 221.1 229.8 232.9 233.8 233.1 232.7 230.2 226.5 221.1 218.7 216.7 212.7 206.9 199.5
201.9 206.7 212 215.3 217 218.9 221.5 224.1 226.9 233.5 240 241.9 240.5 236.6 227.4 215.6 199.7 184.4 175 171.5 171.3 171.8 171.6 174 171.1 160.9 148.3 140 132.4 121 111.3 96.7 88.5 81.5 78.6 72.3 72.5 68.1 68.2 68.6 68.7 65.6 69.9 72.9 72.9 72.6 73.4 74.2 75.4 76.4 77.7 79.2 80.7 82.2 84.4 86.6 89.8 92.6 95.9 98.9 102.8 107.3 111 116.3 121.4 126.2 135.1 140.3 147.7 153.4 153.8 158.2 164.4 170.2 178.4 186.2 193.6 202.7 212.4 220.6 229.2 236.9 244.2 252.9 261.2 269.9 278 289.7 303.7 321.1 334.6 344.6 365.8 378.6 388.9 399.8 400.8 396.6 385.6 381.3 382.2 383.4 388.6 393.1 395.6 401.8 413.5 418.7 426.2 435.3 444.7 451.8 454.9 449.4 433.8 420.8 411.2 402.1 395.4 386.2 376.3 373.8 388.4 398.8 411.3 429.9 452.1 474 492.7 508.2 520.1 528.2 534.5 535.7 532.6 526.1 518.8 513.8 514.2 514.6 518.5 523.2 529.4 535.9 544.2 551.4 553.6 551.3 543 534.1 525 510.6 492 473.3 453.2 432.2 409.4 387.4 369 351.3 328.8 314.5 303.6 298.3 295.5 295.6 295.5 295.6 299 297.4 286 271.5 267.4 263.6 256.9 252.1 246 241 233.3 228.2 231.3 235.4 238.8 241.5 242.4 237.8 232.6 234.4 237.6 239.9 240.1 238.5 238 235 229.3 224.7 223.5 221.1 216.5 210.2
202.3 206.5 210.2 213.1 215.8 219.3 222.5 224.4 225.3 230.5 235.5 238.2 236.2 232.3 223.2 211.6 197.4 183.8 174.4 170.9 170.4 170.3 170.6 170.1 166.6 160.7 147 138.3 131 121.4 107.8 95.5 88.3 80.5 78.1 72.3 72 70.3 68 68.3 66.5 64.7 68.6 71 71.6 71.6 72.5 73.7 74.7 75.7 77.1 78.7 80.5 82 84 86.7 89.5 93.1 96.5 101 105.7 110.3 114.8 120.5 125.6 133 137.5 142.3 147.8 149 156.6 163.2 168.7 174.2 180.9 184.8 191.8 200.3 211.9 221.2 230.9 238.7 245.7 254.7 262.5 269.8 277.9 290.5 304.6 320.7 336.1 347.5 362.4 378.3 389.5 397.1 402.8 398.9 392.8 387.2 390.1 391.9 396 400.4 402.8 409.5 418.3 426.5 433 439.5 446 454.3 463 464.9 455.8 444.2 433.1 425.2 417.1 405.4 394 378 384.6 395.7 406.1 424.4 450.1 470.7 486.8 506.4 522.1 532.8 539.7 541.9 541.4 538 532.9 528 529.2 528.8 532 536.3 543.5 549.3 554.9 558.9 557 551.8 539.9 533.3 521.7 510.6 489.3 467.1 443.6 421.5 403.2 382 358.4 336.6 321 307.6 299.2 295.3 293 295.1 295.8 298 305.9 302.2 287.8 275.9 277 270.8 263 261.3 256.4 249.2 243.6 230.3 237.9 241.8 245.1 247.4 247.1 241.3 244.4 243.6 243.9 246.1 246.9 244.7 242.8 243.5 239.7 234.6 231.2 228.1 223.7 218
201.4 205.2 207.7 210.5 213.7 217.7 220.7 223.6 224.3 227.7 231.9 235.6 235.3 230.5 220.5 208.1 196.8 185.1 176.1 170.9 169.7 168.7 169.9 168 164.5 158.9 146.7 134.8 127.2 117.7 103.5 96.7 89.2 82 78.7 77.3 71.9 71.6 68.5 67.2 65.8 68.8 68.6 69 70 70.9 72.3 73.5 74.7 75.9 77.1 78.6 80.2 81.7 83.6 86.2 89.5 92.6 97.6 102.2 105.6 109.2 113.5 119 126.9 135.7 140.7 144.3 147.2 150.2 156.9 164.2 168.8 175.4 183.4 191 200.9 210.3 216.8 219.5 230.2 240 248.4 256.2 262.5 269.1 281.4 294.1 308.2 324.2 339 349.2 362.3 376.9 390.6 398 403.3 401.1 397.1 395.4 397.8 399.5 403.6 411.6 417.5 423 429.4 434.1 441.2 447.1 453.4 466.2 476.1 479.9 473.1 465.7 456.3 448.9 439.9 427.8 412.6 394.9 380.1 392 404.6 423.4 446.3 466.2 483.7 500.4 516.6 533.8 544.4 548.1 550.3 549 546.2 544.2 543.8 545.6 549 554.1 558.6 562.7 564 562.5 556.3 544.5 535.2 525.8 515.9 501.7 478.8 453.8 432.8 413.1 388.5 364.2 342.2 326.5 312.2 301.1 295.1 292 291.5 293.1 294.9 305.2 310.7 304.2 289.3 280.8 279.5 275.7 273.3 268.6 262.4 258.2 252.3 236.2 243.3 247.5 250.9 253.1 252.2 247.8 252.1 252.8 253.9 254.9 254.5 253.7 249.4 249.8 247.9 244.5 239.3 233.6 228.2 223.2
200.6 204 206.4 209.7 212.9 216.8 219.5 222.2 223.5 227 229.5 231.8 231 226.3 216.9 206.1 195.6 184.9 175.6 170 167 166.4 167.1 164.3 161.3 157.1 144 133.4 124.3 112.6 101.7 97.4 92 83.4 82 82.3 74.8 71.5 68.7 65.9 64.7 68.1 68.1 68.5 69.5 70.6 72 73.2 74.4 75.6 76.8 78.3 79.6 80.8 82.8 86.6 89.7 93 97.2 101.5 105.1 107.9 111.5 117 125 134.3 140.8 142.8 145.1 151.4 157.8 162.6 168.2 175.8 183.2 193.1 205.8 216.6 224.9 229.5 232.3 241.4 251 257.2 263.5 273.4 288.5 301.7 314.2 329.6 339.1 348.8 365.2 377.7 387.5 397.3 402.7 402.2 401.2 402.5 405.7 409 413.6 420.2 426 432.5 440.4 446.3 450.7 455.8 461.6 469.3 479 489.5 490.8 489 483.1 473.8 461.3 447.3 431.2 412.1 391.8 388.5 405 421.3 441.5 463.3 483.2 498.4 513.5 534.1 547.8 554.5 558.5 560 559.3 560 560.1 560.1 562.4 566.1 567.6 567.9 563.1 556.2 544.5 534.1 528 518.2 506.4 489.3 465.1 442.2 422.1 397.2 371.6 347.6 330 316.6 304.4 295.6 291.1 290.2 290.8 292.5 300.3 309.1 312 302 287.1 283.3 281.5 281.2 280.8 275.1 268 262.5 254.3 243.3 246.1 253.3 255.9 258.4 257.5 256.9 255.3 258.2 260.7 262.5 260.9 258.6 256.7 256.2 255.6 252.5 246.7 241 235.9 230.7
200.6 203.6 207.3 210.3 213.3 217 219.3 221 223 226.3 227.1 225.9 224.8 220.7 212.8 203.3 192.6 181.3 171.6 167.1 164.3 164.2 164.2 161.1 157.7 150.9 141.1 129.1 119.7 108.9 100.5 95 89.7 88 84.7 84.8 75.2 71.3 69.3 64.7 68.5 67.8 68 68.3 69.2 70.5 71.6 72.7 73.9 75.2 76.4 77.5 78.6 80.3 82.9 86.8 89.4 92.6 96.7 100.4 104.1 107.1 111.2 120.1 131 137.1 140.8 140.8 143.6 152.7 156.9 161.1 170.7 181.1 190.9 201.9 214.1 224.6 231 236.9 243.8 247.6 250.6 259 266 278.9 293 306.9 319.6 332.2 340.9 349 365.3 379.1 389.9 398.9 398.4 401.1 406 411.9 413.7 417.9 423.2 428.5 433.8 438.9 447.3 455.1 458.5 463.1 470.8 480.3 488.8 497.9 502.1 501.7 499.1 491.3 479.8 465.7 449.3 429.7 407.6 389.2 404.3 420.6 441.4 467.9 485.7 501.6 514.7 536.6 551 560.1 565.9 569.5 571.3 572.5 572.9 573.6 575.5 575 572.8 568.7 558.8 547.9 532.9 523.1 513.4 499.8 484.9 465.1 443.8 422.2 401.5 377.2 353.2 333.7 319.2 308.3 297.4 290.5 289.2 289.5 289.8 295.1 305.2 309.2 308.7 296 286.7 284.8 284.3 285.6 285.6 280.2 271 264.7 258.8 256.6 242.8 259.3 260.9 261.2 263.5 262.1 257.5 264.5 265 266.1 266.7 264.1 263.1 262 262.7 261 256.2 250.2 244.7 239.7
200.4 204.6 208.3 211 213.6 217 219.1 221.3 223.1 224.9 223.7 221.2 219.2 215.4 210 200.3 189.6 178.1 167.9 163.4 162.3 160.1 160.3 157 151.9 143.4 133.4 123.2 116.1 107.3 99.8 93.3 91 90.5 89.7 88.1 75.2 71.5 67.9 64.7 66.7 67.8 69.5 69.4 69.5 70.6 71.5 72.4 73.4 74.7 75.6 76.5 77.6 79.4 83.2 86.6 89.1 92.2 96.1 100.2 103.9 108.3 113.3 121.5 131.4 136.7 138.5 137.7 144.9 151.9 153.8 161.2 171.7 184.3 195 208.2 221.5 231.4 241.4 246.7 251.3 255.8 251.8 257.6 269.2 283.2 296.1 307.5 318.9 332 341 350.6 360.8 370.1 377.8 384.2 392.8 401.2 411.4 420.3 422.5 425.9 430.2 435.7 442.2 447.2 452.3 458.7 465.6 474 481.3 489.4 499.2 507.6 512.8 512.9 512.4 505.4 496.5 482.2 464.1 443.9 421.7 396.6 403.4 420.5 443.3 469.1 492.4 507.2 518.8 537.7 552.6 563.8 572.8 578.7 581.8 583.3 584.2 584.9 584.3 579.9 571.3 560.9 546.9 534.1 521.5 509 494.3 475.7 459.1 439.3 417.8 398.1 377.2 356.6 338.5 320.5 309.6 300.1 290.9 288.5 289.1 289.1 291.4 297.7 304.5 307.8 302.2 291 285.9 286.6 287 289.4 288 281.6 273.5 267.8 264.9 263.7 247.2 265 266.3 268.1 270.3 270.5 264.6 261.1 269.6 270.1 270.9 270.7 271.1 271.2 272.3 270.1 266.6 260 252.6 247.8
199 203.3 206.8 209.5 213.2 216.8 219.7 221.1 222.2 223.2 219.9 217.4 215.2 211.2 207.3 197.4 185.6 174.8 165 160.4 159.1 156.6 153.9 152.2 148.2 140.6 131.5 122.4 116.8 108.7 98.1 96.9 95 93.2 90.9 84 76.4 72.6 69 64.8 67.1 68.9 70.6 70.7 70.6 71 71.8 72.2 73.3 74 74.8 75.6 76.5 78.7 82.9 86.2 88.8 91.7 95.8 100.3 105.1 109.7 114.9 122.8 131.2 135.7 134.8 136.4 145.3 147.8 152.6 161.5 173.3 186.7 202.2 216.6 228.3 240.9 249.3 254.4 257 261.1 265.1 268.2 265.4 283.8 294.6 305 315.1 328 338.8 347.3 355.2 366.4 374.3 385 396.4 406.3 417.5 427.6 434.6 438.3 441.4 445 449.1 453.4 460.6 468.9 475.4 483.2 491.9 501.2 509.4 517.4 521.9 525.6 525.6 520.5 511.4 499.3 478.3 456.3 432.9 406.8 408.3 425.9 445.6 467.6 489.4 508.5 524 537.3 550.3 562.7 573.7 581.1 586 588.8 590.5 590.6 586.4 577.2 562.4 546.1 528.8 512.7 500.1 488 471.1 452.8 436 415 394 375 357.2 342.1 323.7 310.7 302.6 294.3 289.1 288.4 289.9 289.8 294 299.7 304.4 304.1 295.3 287.1 286.2 287.8 289.9 292.2 289.2 282.1 275.8 272 271.4 269.3 254 269.8 272.2 274.1 276.1 277.6 277.5 263.7 268.8 275.2 275.8 277.8 280.3 281.7 280.3 278 273.7 267.1 261.2 255.7
198.4 202.4 205.6 209.1 213 216.2 218.8 221 221.1 219.5 216.6 214.2 212.1 207.5 200.7 192 181.1 170.7 162.8 158.7 156.6 155.4 150.3 148 144.3 137.1 127.6 119.9 114.7 106.6 97.6 99 100.2 97.6 93.7 87.4 79.5 72 70.8 66.7 67.4 69.3 71 71 70.9 71.1 71.6 72.1 72.7 73.2 73.8 74.6 75.2 77.3 82.6 85.7 88.1 91.2 96 101.4 106.6 111.3 116.5 123.2 130.4 134.1 131.6 137.4 143 145.1 152.8 162.3 174.5 188.1 207.4 222 233.3 245.4 254.4 260.3 266.5 269 270.9 273.3 279.4 277.3 288.3 301.5 310.9 322.6 331.5 340.5 352.2 362.7 374.5 387 398.3 409.8 419.5 431.4 440.3 446.7 450.8 454.5 458 462.2 468.6 477.9 486.6 495.2 502.8 510.2 515.4 519.6 524 527.8 528.9 524.2 517.7 506.6 488.4 466.4 443.7 419.1 409 425.7 442.2 466.1 485.6 505 519.5 531.4 544.3 556.9 569.4 579.2 586.3 590.2 592.6 591.8 582.7 566 546.9 527.9 509.3 490.6 477.2 463.2 447.7 432.8 413.5 392 373.5 355.4 338.9 324.5 312.1 303.1 296.3 290.4 288.3 290.2 288.5 290.5 297.5 302.4 302.2 298.6 288.8 286.4 286.7 289.1 292.5 292.9 290.1 285.7 279.6 277.5 277 274.2 257 275.7 277.5 280.2 284 286.1 285.2 267.9 279.5 280.5 282.9 284.9 286.9 287.3 286.6 284 279.2 275.4 270.3 264.9
199 201.8 204.6 207.9 212.6 215.4 218.1 220.5 220.4 219.3 215.8 212.6 209 203.4 195.3 186.1 177.1 167.6 160.8 157.2 154.4 152.1 147.2 142.2 137.8 129.7 122.6 115.8 110.4 101.7 97.1 101.9 104 100 95.4 87.6 79.9 71 70.4 66.2 67.3 68.9 70.6 70.9 70.7 70.8 71.3 71.8 72.2 72.6 73.1 73.7 74.2 76.2 80.9 84.7 88 91 95.1 100.8 108 113 117.1 122.9 129.5 131.8 129 136.3 140.1 144.2 151.5 163.3 175.3 189.3 205.6 221.3 233.9 246 255.6 263.4 274.2 280.8 283.8 284.3 285.1 291.8 300 299.1 306.2 317.9 326 333.6 345.2 356.4 371.2 387.1 400.4 413.4 427.2 437.7 446.9 454.4 460.8 463.8 466.8 471.1 476 483.9 493.9 504.4 512.7 518.4 520.8 523 526.8 529.2 529.9 528.1 520.7 512.2 495.8 474.8 452.7 429.3 413.8 425 441 460.3 479.9 495.9 507.8 521.1 536.4 550.4 563.1 574.7 583.8 589.6 591.5 588.6 576.5 553.4 531.8 511 490.9 472.9 456.9 442.3 426.4 407.6 387.3 369.6 352.4 336.7 325.8 314.5 304.8 296.7 291.9 288.4 288.6 288.1 288 296.3 299.2 298.7 298.7 291 286.5 286.4 288.4 291.1 293 292.8 291.5 288.3 284.4 282.7 281.2 275.2 265.5 280.5 286.6 291.7 294 292.5 289.2 274.6 283.7 286.4 288.1 288.9 289.4 291 291.2 289.9 288 284.2 279.9 274.9
200.2 203 203.5 205.6 210.6 213.9 216.5 218.7 219.1 218.4 213.9 209 204.3 198.5 190.6 181.8 173.3 164.9 158.2 154.5 151.7 149 143.6 136.9 132.8 125.9 119.2 112.6 107 100.6 99.9 103.4 105.8 102.8 96.2 86.4 82.9 70.4 70.5 64.7 66.9 67.1 68.5 70.4 70.1 70.2 70.8 71.4 71.9 72.3 72.6 73.1 73.4 75.3 79.6 82.5 87 91 95.5 103.4 111.4 114.3 116.8 121.8 128 128.8 127.9 134.7 138.1 143.7 150.6 161.7 174.4 188.7 203.7 217.2 230.3 241.7 251.2 263.6 275.6 286.1 291 297.5 299.6 300.6 305.9 308.8 317.5 320.6 329 337.3 345.6 358.1 373.4 389.4 403.6 415.9 428.6 440.8 449.9 456.4 461.5 467.5 472.7 477.5 482.4 489.6 498.5 507.2 516.3 521.6 526 528.7 529.6 531.7 529.6 527.4 522.6 514.4 500.3 480 459.8 439.6 427.1 426 439.8 454.8 471.1 483.7 495.7 509.5 526.4 544.5 559.5 571.3 580.9 586.9 588.3 584.5 569.2 543.5 519.1 498.8 479.1 458.7 441 423.5 403.7 383.8 366.4 350.4 336.2 324.9 315.1 306.6 299 292.6 288.2 287 287.9 286.8 292.8 295 295.4 295.4 290 287.3 286.8 286.8 289.8 291.9 294.6 294.9 294.4 290.8 289 286.7 281.8 271.4 282 292.2 298.3 300.8 300.5 298.4 297.1 281.6 285.4 289.4 294.4 297 299.9 301.6 300.2 297.6 296.3 293.4 288.6 283.3
203.9 208.7 204.7 204.8 208.1 211.2 213.9 216 215.8 214.7 211 206.1 200.9 195 187.6 179 170.7 163.1 158.3 154.4 151.4 146.1 142.2 132.9 129.5 123.1 115.8 109.3 104.1 100.4 101.8 104 107 103 95.9 87 84.3 74.2 69.9 63.3 67.1 67 67.8 70.2 69.7 69.7 70.4 71.1 71.6 71.9 72.2 72.5 72.7 74.8 78.2 81.8 86 91.7 96.5 104.1 111.1 113.3 115.6 120.5 125.9 124.9 127 133.1 137.5 143.2 149.7 160.9 174.3 188.1 201.3 213.4 225.9 237.3 246.5 264.3 274.9 284.9 295.7 301.5 308.5 315.2 317.2 319.1 319.5 331.1 335.2 342.7 351.9 362.1 378.6 393.1 406.3 417.9 428.5 440.8 451.4 457.9 464.8 471.7 477.9 484.1 489.6 496.5 503.3 509.3 516.1 522.3 527.6 531.4 533 535.1 533.2 531.6 528.1 520.4 504.2 485.5 466.1 451.7 443.3 436.5 436.3 447.1 458.9 476.1 490.3 506.1 525.3 543 558 569.4 579.5 585.1 584.6 580.5 564.3 537 511.2 492.2 471.4 450.2 427.4 402.8 381.1 364.1 351.3 337.7 326.4 315.6 306.7 300.3 294 289.1 285.9 285.9 286.9 290.9 290.8 291.4 293.6 291 288.1 288.3 288.1 288.2 292 294.9 296.4 297.9 296.9 296.1 292.5 286.5 278.6 286.1 296.6 302 304.7 305.4 304.7 305 303.2 295.3 290.8 302.3 306.8 310.3 313 313.6 309.1 304.3 301.9 300.8 298.7 292.4
210.8 212.5 207.4 204.1 207.3 209.8 211.7 212.9 213.2 212.1 210.4 204.8 199.3 193 185.9 177.4 169 162.7 158.7 154.9 150.2 145.1 140.3 132.9 123.7 117.7 114.9 110.2 102.2 98.9 101.4 103.1 105.3 100.9 93.5 85.4 83.1 76.8 69.5 63.3 66.9 66.9 67.2 70.3 69.9 70.8 70.6 71.3 71.5 71.8 72.2 72.5 72.8 74.2 77.4 81.7 87.2 91.9 97.1 104.6 110.4 112.1 114.4 119.4 123.2 120.3 125.7 132.9 138.5 144.1 151.1 163.3 174.2 187.3 199.5 210.4 222.1 234.3 245.9 265.4 283.2 293 297.6 300 310.6 318.1 328.9 334 333.3 336.3 345.2 350.3 359 369 380.9 390.7 404.1 417.3 427.9 442 453.9 464.4 474.6 481.6 486.3 492.7 498.6 503.4 507.3 512.4 518.7 524.8 529.9 533.2 536.3 537.5 537 537.8 533.2 525.4 509.9 494.6 480.9 469.9 461.9 455.4 447.9 458.7 474.7 489.2 502.7 514.9 529.2 545.1 558.2 570.3 580.3 585.1 583.3 576.4 559.8 534.1 507.9 486.3 464.4 441.1 414.1 386.9 362 348.4 336.4 326.9 316.5 307.1 300.7 294.8 290.5 287.2 285.7 285.6 287 287.4 288.5 291.2 289.2 289.4 289.7 290.4 290.9 291.9 297.7 299.5 300.7 301.9 301.7 299.2 292.9 290.3 286.4 298.9 303.1 306.2 307.7 309 310.7 311.1 302.1 305.3 294.4 311.8 314.4 316.3 318.3 318.3 315 312.4 309.9 306.9 304.9 301.8
213.5 214.4 208.3 207.2 207.9 208.4 209.7 210.3 210.5 209.6 208.1 205.7 199.3 191.2 185.3 177 169.1 162.9 158.4 153.8 149.7 145.9 140.6 133.6 126.7 122.8 118.7 111.6 101.5 96.6 99.1 99.5 100.3 96.5 90.4 85.8 80.8 73.1 69.3 70.5 63.3 67 66.9 69.2 69.8 72.3 71.9 71.4 71.8 71.9 72.2 72.5 72.9 74.4 78.2 85.7 89.2 92.3 97.1 104.6 109.5 110.9 113.3 118.3 118.6 121.4 128.3 134.5 139.7 145 154 164.6 173.9 185.4 197.1 207 217.8 228.6 241.8 260.1 276.1 287.1 292.9 298.3 307.8 317.3 331 340.7 344.2 339 351.4 360.1 368.2 376.6 385.2 391.7 400 413.6 424.8 442.8 457.1 470.3 481.8 489.2 495 500.6 505.3 509.4 514.1 521 526.3 529.9 534 538.2 540.3 540.6 543.1 542.1 541.3 534.6 523 510.5 499.6 490.3 482.3 474.5 467.5 462.4 481.9 497.2 509.4 520.8 534.2 548.1 561.6 573.2 582.2 585 582 572.9 551.6 526.3 500.7 477.7 453.3 426.4 398 371.3 351 334.2 323.5 315.6 307.3 298.2 293.4 289.1 286.1 283.7 286.5 286 284.2 286.1 291.1 291.5 290.4 290.9 291.7 293.7 295.1 297.1 299.9 302.1 304.1 308.9 306.9 304.3 299.7 298.5 294.8 304.5 306.7 308.7 312.1 314.7 316.2 314.5 301 312.4 309.6 310.3 316.6 317.4 319.1 320.8 321.1 320.3 320.5 315.9 310.6 307.7
216.2 215.2 209.8 207.9 208.4 207.8 209 208.5 208 207.4 207.3 206.3 199.6 192.3 186.9 181 170.6 163.7 158.7 154.1 151.1 146.6 140.6 132.8 128.5 126.8 120.4 111.5 100.1 94.7 94.8 95.7 94.1 91.2 86.8 85 78 69.7 69.4 70.2 63.3 66.4 67.1 68.3 70.5 72.5 72.6 72.6 73.1 72.2 72.5 72.7 74 75.8 80.8 87.2 89 93.1 97.5 104.4 108.8 109.5 111.2 113.4 115.7 124.3 129.2 135.3 140.1 145.8 155.5 165.5 174.1 183.5 194.8 204.9 215.6 226.2 239.8 255 268.9 279.1 286.2 294.9 306.6 317.3 332 343.6 353 356.9 356 365.9 374.5 380.1 388 394.7 403.8 413.1 423.7 445.1 461.1 474.1 486.6 494.9 502.2 507.8 513 519 524.3 528.1 530.8 533.4 539.9 544.5 546.8 548.1 551.1 551.5 549.9 544.3 536.3 527.7 520.2 510.2 502.8 494.3 485.8 473.9 489.2 503.3 515.5 526.2 540.8 551.1 564.4 576.4 584.5 584.7 579.1 560.9 536.4 510.5 486.6 461.6 435.3 407.3 378.8 352.4 335.3 321.4 310.9 304.2 297.7 292.4 288.1 284 280.9 284.7 285.4 284.2 284.2 290.5 294.9 294.4 294.3 293.1 295.3 297.8 299.3 302.4 301.8 306 311.9 312.1 311.3 309.4 305.7 304.9 298.6 306.7 310.2 313.5 317.8 318.9 318.7 317.2 307 318.1 318.7 316.2 315.5 319.3 323.1 326.5 327.7 327.4 327.5 325.2 320.7 315.3
218.8 215.8 210.6 208.2 207.7 207.6 208.2 208.4 207.6 207.1 207.7 206.3 199.1 192.5 188.1 182.4 171.8 164.4 160.3 155.6 152.2 148.6 140.4 133.3 132.9 132 120.6 113.5 106.1 98.3 92.5 88.6 88.6 86.9 84.2 83 77.4 68.7 69.4 70.1 69.7 63.5 66.5 67.8 70.5 72.4 71.9 76 76.3 74.1 72.8 74.3 75.8 78.3 84 87.4 89.1 92.8 98 103.9 107.6 106.8 109.4 114.9 120.6 126.4 131.5 136.3 141 150.4 158.9 166.2 174.8 183.6 194.4 204.1 213.1 225.6 240.8 252.9 265.5 276.5 286 297.2 307.5 321.2 336.4 351.1 362 369.9 372.6 372.1 375.2 380.2 388.3 399.2 407.3 412.3 424.8 440.8 460.3 476.1 489.6 499.7 507.6 513.8 519.7 526.1 530.9 533.2 536.7 543.3 548.7 553.1 555.6 557.9 560.1 560.8 560 556.9 552.7 546.7 539.7 529.9 520.5 510.6 501.6 489.6 496.8 512.3 523.2 534.6 545.4 557.3 569.6 579.6 584.3 580.8 568.6 544.9 519.6 492.6 465.6 436.8 410.1 383.7 357.2 335.4 318.9 308 301 294.9 289.9 284.7 281.1 277.9 280.2 281.5 281.3 285 287.5 293.7 298.1 300.7 300.3 298.7 300.8 301.1 301.1 305.6 310.6 312.4 314.7 315.2 315 314.1 312.8 308.6 303.8 311.6 316.4 318.5 320.1 322.2 322.9 322 315.7 322 322.2 321.4 321.4 326 328.7 330 330.9 330.9 331.6 331.3 319.3 314.3
219.6 215.7 211.1 209.6 207.9 207.7 207.6 207.5 207.7 207.3 208.3 206.9 199 193.3 191.5 183.8 174.7 166.2 162 156.6 153.7 149.5 140.2 134.4 137.5 132.6 122.5 114.3 106.7 101.2 93.3 92 82.5 82.8 81.9 77.8 73.9 68.3 69.2 69.9 69.5 62.6 65.3 67.9 71.3 72 73.1 78.1 78.4 77.8 75.7 76.4 77.8 81.2 85.9 88.3 90 92.8 97.5 103.5 105.1 106.2 110.8 117.8 122.9 127.9 132.7 137.6 142.9 150.9 158.6 166.4 175.2 184.1 193.1 202.2 210.7 222.9 236.8 250.7 261.8 274.9 286.7 298 310.5 325.7 338.7 354.1 366.3 377.8 384.5 386.8 388.3 390.1 397.3 404.7 408.6 421.1 426.9 440.6 460.5 476.7 490.7 502.7 511.6 518.3 524.3 532.6 540.7 544.5 549.2 553.2 556.7 562 566.4 569.4 571.4 572 571.4 570.6 566.6 560.9 553.7 543.5 535.1 526 516 503.7 507.2 522.3 532.3 541.5 552.3 563.6 576 582.6 581.9 574.2 555.2 530 501.1 471.6 440.8 412.6 386.2 361.6 338.5 321.1 308.1 296.6 291.4 287.2 282.2 277.5 273.8 278.7 281.5 284.2 285.9 286.4 289.4 294.9 300.4 304.2 302.8 302.7 303.1 303.7 305.3 310.1 314.5 316.8 318.8 318.9 318.9 319.3 318.7 318.5 313.2 318 321.2 323.3 324.5 326.9 327.2 326.8 325.4 325.5 326.1 327.2 327.6 323.4 326.4 328.9 331 331.9 331.8 324.2 325 327.1
219.3 214.7 210.4 210.4 208.4 208 207.9 207.7 207.7 207.7 210.4 208.3 199.9 196.5 196.1 186.3 176.7 168.5 163 158.1 155.3 149.9 139.1 135.7 141.5 132.3 123.2 114.7 108.1 101.7 93.4 90.8 84.9 77.7 79.9 75.1 69.6 68.7 68.8 68.8 67 62.6 65.3 69 71.9 72.6 77.7 80.4 78.1 75.8 76.7 78.3 79.8 83.3 86.1 87.9 90.4 93.2 96.6 101.9 102.5 105.4 111.2 117.7 122.5 127.4 132.8 137.7 143.6 151.2 159.6 168 176.2 185.1 193.6 202.2 208.9 220.6 235.1 247.7 260.9 274 287.9 301.1 313.2 325.3 343.1 354.4 373 384.1 397.7 406.5 407.8 408.2 409.6 411.9 417.3 424.1 433.6 443.8 458 477.6 492.6 504 512.8 519.3 525.4 535.9 545.3 548.7 552.9 557.3 562.5 569.1 572.2 576.9 578 579.1 578.5 577.7 576.8 571.6 565.2 554.7 546.3 538.1 529 520.1 520.1 533.1 541.6 549.9 560.9 571.7 581.4 584.7 579.6 563.6 539.9 510.8 480.4 448.6 418 391.3 366.5 343.8 326.2 310.8 298.9 287 281.6 279.2 276.9 271.8 274.6 280.5 285.1 287.1 287.1 288.4 292.4 301.6 305.1 306.3 306.2 306.7 306.3 308.1 311.6 315.2 318 321 323.4 324.5 327.1 328.1 328.7 325.9 321.7 319.9 326.4 328.1 329.3 331 332.4 332.4 330.2 330.8 331.8 331.6 331.4 331.5 331.5 331.7 332.8 333.1 333.4 327.8 337.9 335.3
219.1 212.4 210 209.8 209.1 208.6 208.3 208.4 208.1 208.3 211.4 208.3 204.9 202.3 199.9 191.3 178.2 169 162.7 158.6 156.9 150.2 138.5 138.5 143.2 132.8 124 115.7 107.4 101.8 95.3 87.7 80 75.8 79.5 69.5 68.3 68 66.4 63.8 62.6 65.3 68.7 71.3 71.4 77.4 82.1 81.3 78.6 75.4 77.1 78.9 80.6 82.7 84.7 87.3 90.1 92.8 95.5 98.2 101.7 106.4 111.6 116.9 121.7 126.7 132.8 137.8 144.1 152 160.6 168.6 177.9 186.9 195.5 200.9 205.7 218 234 245.5 259.4 272.5 286.3 301.9 314.4 327.2 340.2 354 370.7 382.3 400.1 411 420.2 424.5 424.2 423 424.8 431 437.8 447.3 460.5 475.8 491.6 502.5 511.4 518.2 526.1 535.3 542.6 548.4 554.3 559 565.2 570.7 574.8 581 580.3 580.9 582.4 582.3 582.8 579.5 574.6 565.9 557.3 550.4 543.1 536.4 535.4 543.7 550.3 559.4 569.9 579.5 585.3 584.7 571 548.1 522.3 491.6 458.6 426.4 397.4 371.6 349.8 330.8 315.8 302.5 289.8 280.2 274.3 273.7 271.4 268 275.3 281.8 285.8 286.5 286 287.9 295.7 300.7 304.1 308.1 309.1 309.8 310.3 313.5 316.7 320.6 325.8 325.4 328.4 331.3 335.2 338.1 336.2 332.1 329.9 323.1 331.9 333.6 334.6 335.7 337.7 338.5 334.1 336.6 336.5 337 334.8 336.7 337.3 338.3 339.4 340.2 340.8 334 341.7 340.3
216.8 211.6 214 215.3 215.6 213.1 211.7 210.3 208.5 208.6 213.8 210.5 208 205.6 201.7 193.8 179.8 168.9 162.3 158.3 155.5 148.7 139.1 139.5 142.7 135.8 125.1 115.5 106.1 98.9 92.7 84.9 78.9 75 70.8 68.1 67.6 63.9 63.4 62.7 70.1 71.4 70.7 71.1 74.5 81.5 81.9 80 76.3 75.3 77 78.8 80.4 82.8 85.4 87.3 88.8 92.9 97.2 101.8 104.3 107.4 111 115.7 120.9 126.3 131.5 137.1 143.8 152.2 160.3 169.4 178.4 186.5 194.9 200.3 205.8 214.2 229.1 241.4 257.9 270.7 284.8 299.8 313.2 325.9 337.4 354.8 373.8 384.2 398.4 410.8 423.8 431.1 433.5 434.9 434.3 438.1 444.9 450.9 460.6 476.4 488.3 496.9 507.2 514.8 525.4 534.6 542.2 549.5 556.8 561 567.4 573.9 577.1 581.6 583.6 584.3 584.7 587.2 587.9 585.6 581.1 575.3 567.3 562.3 556.7 552.7 551 556.2 562 567.9 577.4 585.9 588.3 582.8 558.1 529.3 499.7 468.3 436.5 405.7 377 355.4 335.4 319.9 306 294.3 281.5 273.9 269.8 270.4 268.2 267.2 275.7 282.8 285.3 284.4 284.8 292.3 295.1 297.9 302.7 306.2 308.8 311.2 314.9 321.8 324.2 330.7 332.9 335 337 340.1 342.5 342.9 343.1 341.5 338.3 326.7 338.1 339.5 340.7 340.8 341.1 340.6 337.9 339.6 342.1 343.6 344.3 345.7 345.6 345.9 346.7 346.7 346.5 340.9 344.7 347.1
215.1 213.9 218.2 220.4 223 223.1 219.2 216.3 213.2 212.2 215.7 213 211 208.4 202.6 194.4 180.9 169.2 160.8 156.8 153.2 145.7 136.5 138.6 140.1 135.3 124 113.4 103.6 97.6 89.7 82.2 77.2 71.9 67.6 64 62.4 62.6 66.4 69.3 70.7 70.2 73.5 77.1 82.6 86.8 83.2 79 74.7 75 76.2 77.3 78.7 81.4 84.1 85.7 87.5 91.9 96.9 101.5 104.3 106.3 109.7 112.9 117.1 124.2 130.7 137.1 146.6 154 161.6 169.3 177.4 186 194.2 201.6 207.8 214.8 224.8 238.6 253.6 267.3 281.5 294.6 310.4 323 335.4 352.6 369.3 379.8 390.3 404.6 419.6 429.8 437.3 441.2 444.6 447.9 451.5 458.2 466 473.9 485.5 496.8 507 515.8 525.4 534.9 543.1 550 558.2 561.7 567.2 574.5 578 583.3 587.5 589 588.2 589.8 591.3 590.9 585.1 580.7 575.4 571.2 566.8 564.8 564.3 566 570 577.5 585.9 591.4 587 569.6 538.6 507 476 445.7 414.6 385.4 359.4 341.4 323.8 310.6 297.7 286.1 275 267.8 266.3 266.8 263.5 266.3 275.8 280.9 284.8 280 287 286.3 294.5 299.5 304.7 308.7 311 316.5 323.9 329.4 333 334.9 337.6 340 343 344.7 346.2 347.5 348.2 347.6 343.8 329.6 339.9 343.7 344.3 344.8 344.3 343 344.1 344.7 348.4 351.5 352.7 354.8 355.2 353.7 354.5 353.9 354.6 350 347.3 356.9
