ncols 200
nrows 88
xllcorner 300000
yllcorner 180700
cellsize 50
245.9 245.3 242.7 231.3 220.8 210.5 213.9 220.1 224.8 227.1 227.1 223.7 218.4 225.8 232.6 236.5 238.4 233.9 230.3 232 232.9 227.6 220.8 213.7 207.5 200.5 191 184.2 177.6 170.9 165.9 158.2 152.9 147.3 142.2 136.9 131 126.3 121.6 117.1 112.8 108.1 99.7 92.3 90.5 83 77.7 76.1 77.8 79.2 79.8 84.1 89.6 94.9 99.2 100.5 100.1 100.9 99.8 103 103.6 103.6 101.2 99.6 95.9 94.1 92 90.4 87.5 84.3 82 79.3 77.2 75.6 75.4 74.8 73.3 72.4 71.8 72.6 74.9 74.6 73.5 67.8 73.1 77.1 77.1 77.1 77.4 77.8 77.8 78.7 80.1 87.6 94.7 99 100.8 100.1 98.5 96 94.7 93.6 92.5 93 93.8 94.9 96.5 99.3 101.6 104 106.7 110.9 116 120.8 124.8 128.4 129.2 127.5 124.4 123.4 122.9 122.2 120.8 119.8 117.5 115 111.5 107.9 104.4 100 98 96.2 95.2 94.3 94.1 93.1 84.2 84.8 94.6 103.2 108.1 111.9 118.3 119.4 120.6 118.2 112.8 106.3 103.1 100.5 96.7 93.4 88.4 85.5 84.9 85.1 84.5 81.1 75 72.9 71.9 71.3 70.5 70.3 70.5 71.7 77.4 83.6 87 87.9 85.5 82.1 78.9 78.5 79.7 81.1 82.3 85.4 85.8 85.7 87.1 87.1 87 86.8 85.1 84.6 84.9 85.3 86.4 86.9 88.7 90.8 92.1 94.6 98.1 101.2 106 107.3 111.7 121.2
248.3 251.5 249.8 241.6 231.3 214.8 204.6 216.2 218.8 215.7 214.8 211.8 205.9 212.8 221.3 226.7 237.6 235.4 227 226 226.6 221.1 215.4 210 203.4 196.7 189.2 182.3 175.7 169.7 164.1 158.1 153.3 148.8 144.5 140 134.8 129.6 124.8 119.6 115.8 111.2 103.3 98.8 99.9 95.6 87.3 79.4 74.9 76.6 78.2 79.3 84.1 87.6 92 93.9 94.4 95.7 96 97.9 97.9 97.3 95.1 92.7 92 91.1 89.9 88.3 86 83 79.7 77.2 74.6 72.8 72.2 72.2 70.5 69.5 70 69.8 70.2 71 66.7 69.7 76.9 76.6 76.9 77.1 77.4 77.4 77.7 77.9 79.3 89.2 94.4 98.9 101.9 101.6 100.2 97.6 96.3 94.8 93.7 93 93.9 95 96.5 99.2 102.8 106.6 108.1 111.4 116.8 122 126.3 128.7 129.2 126.4 122.5 122 121.2 120.3 120 118.6 116.9 115.3 113.3 109.3 106 102.9 99.1 97 95.7 96.4 96.7 95.6 93 83.4 87.1 96.9 102.8 103.3 111.6 115.3 118.1 114.4 108 103.6 99.3 97.6 96 91 87.2 84 83.4 84 82.4 75.4 72.2 70.8 70.8 70.5 70 70.2 70.4 70.8 75.4 82 85.7 86 83.6 80.3 79.8 80.8 83.4 83.4 85.6 86.8 87.5 87.6 87.9 88.2 88.4 87.9 87.6 87.6 88.6 90.3 90.6 91.5 93.2 95.3 97 98.5 102.5 107.2 112.2 114.2 117 119.7
250.7 252.4 251.3 244.5 236.6 220.8 200.2 203 212 208.9 207.5 202.3 197.6 202.9 206.4 213.4 223.8 230.6 228.1 225 222.2 218.7 213.5 208.7 203.8 199.6 193.6 186.4 180 173.5 166.6 158.3 154.9 151 147.2 143.4 138.2 132.5 126.2 120.7 117 113.3 107.9 106.8 103.6 101.7 99.1 89.9 81.4 76.4 76 75.9 79 82.7 86.1 87.7 89.5 91.8 90.7 91.8 92.1 90.9 89.3 88 87.6 87.3 86.5 85.8 84.1 81.6 78.4 74.8 72.4 70.9 70.1 69.6 69.9 69.9 69.6 69.7 70 69.1 68.7 73.7 75.7 76.6 76.9 77.1 77.4 76.9 77 77.8 78.8 85.3 93.2 98.6 102.7 102.8 101.7 98.9 96.7 94.6 93.4 93.2 94 94.7 96.4 99.4 103.3 106.6 108.9 111.8 116.6 124.2 128.4 128.9 127.8 124.7 120.7 120.6 119.6 118.6 118.4 118.5 117.4 115.3 113.6 110.6 107.9 104.8 101.4 98.5 97.2 96.6 97.6 96.4 94 91.6 83.5 86.1 88.9 94.9 101.5 108.1 110.3 105.9 102.4 98.8 95.7 94.5 92.2 89.3 85.1 82.2 80.8 81 77.4 72.4 70.2 69.5 69.6 69.7 69.9 70.1 70.4 70.9 72.1 78.4 82.5 83 81.8 80.3 82 82.7 82.8 84.5 87 88.9 90.5 90.4 90.1 89.8 90.3 89.7 90 90.7 93 94.1 94.5 95.7 97.3 99 102.8 104.5 113 116.2 118 119.5 120.4 122.8
247.9 248 246.4 242.3 237.3 225.2 210.1 187.5 197.4 199.8 197.8 193 189.5 193.9 196.4 203 220.3 233.9 232.7 232.5 230.8 226.9 218.8 212.2 207.5 203.7 197.6 190.8 184.7 177.8 171 164.3 160.9 156.7 152.3 148.2 141.7 133.9 127.1 122.1 119.4 118 117.6 115 111.5 108.6 105.1 99.3 90.3 83.9 77.3 72.6 75.7 76.3 83.3 86 87 87.8 87.8 87.2 86.8 86.3 85.3 83.3 82.1 82.8 82.5 82.8 81.6 78 74.7 72.8 71.6 70 69.6 66.9 66.2 68.6 68.8 68.5 68.1 66.1 72.7 72.4 72.5 76.1 76.9 77.1 77.2 76.6 76.8 77.7 78.8 79.4 90.9 97.6 101.5 102.4 101.3 99.4 97 94.4 93.2 93.2 93.8 94.5 96.7 99.9 103.3 107.9 109.6 113.6 116.8 125.2 128.4 128.7 126.9 123.2 119.3 118.5 117.8 117.1 116.9 117.1 115.9 115.4 114.4 111.7 109.2 106.9 103.7 100 98.6 95.5 97.1 96.9 96.5 94.6 92.8 87.2 91.5 93.8 95.2 98.6 99.6 98.3 96.4 93.4 92.6 89.6 88.2 86.2 82 80.7 79.2 77.3 73.8 70.7 69.2 69 69.3 69.5 69.7 70 70.4 71 71.6 74.1 77.3 78.8 80.3 80 81.3 82.5 84.7 86.5 88.7 91.7 93.3 94.7 94.8 95 94.8 94.4 95.3 96.9 98.1 98.8 99.8 101.7 104.3 107.5 109.9 111 117.4 119.9 122.2 122.1 123.2 125.5
245.7 245.3 244.7 242.2 238 230.8 219.5 201.5 183.5 180.7 184.7 182.5 178.6 182.7 187.1 195.5 213 234.3 238.7 243.6 242.8 235.9 228.5 221.4 215.6 209.1 202.2 194.4 189.2 182.5 176.4 170.5 165.7 160.5 154.5 148.7 141.5 134.3 128.7 129.7 129.1 129 128.3 122.9 118.2 113.8 110.5 104.9 98.8 90.9 84.3 77.6 72.6 73.7 81.8 83.3 83.4 84.4 83.6 84.1 83 83 82.7 80.9 76.8 78 78.2 80.1 76.3 71.2 69.7 70 69.5 67.4 66.9 66.5 66.5 67.3 66.7 66.6 67.3 69.8 72 71.6 72.3 72.5 75.6 76.2 76.2 76.3 76.7 77.6 78.4 79.4 87.5 95.5 100.1 101.6 100.5 99 96.3 93.8 93 93.1 93.7 94.5 97.2 100.5 104.1 107.7 110 112.7 121.7 127.8 128.5 127 125.5 120.3 117.4 117.6 116.3 115.8 115.3 115.7 115.3 114.3 113.3 111.9 110.1 109.2 105.8 101.5 99.5 95.3 96.8 97.4 98 98.2 99.7 99.8 94.4 91.2 92 94.8 94.6 92.7 90.4 88.8 86.8 86.2 84.7 82.3 78.9 79.3 77.5 75.4 72.4 70.1 68.9 68.7 68.8 69.1 69.4 69.8 70.5 71.1 71.7 73.1 77.4 78.4 79.7 81.2 82.5 84.4 86.8 88.8 91.9 94.3 96.2 98.2 99.1 100.2 101.8 102.2 103.4 104.2 104.9 105.2 106.1 108.5 112 114.6 116.5 117.4 119.6 123 124.3 124.1 126.1 129
245.3 244.3 245.4 242.3 239.4 236.3 229.1 217.8 203.3 188.8 171.7 167.2 166.9 169.9 178.2 190.1 205 230.5 239.3 243.5 244.6 240 234.7 229.4 223.1 215.4 208.1 202 196.4 189.6 183 176.9 169.5 162.3 154.5 147.4 140.6 136.4 135.2 140.2 139.3 137.8 134.4 129.3 124.1 119.8 113.8 108.6 104 97.3 92.8 85.3 75.2 72.9 72.6 82.1 81.1 79.5 80.9 80.8 80.4 80.1 80.6 77.6 72.1 72.7 73.1 72.2 69.6 68.9 67.9 67.4 67.7 66.2 66.1 66.3 66.4 66.8 66.9 65.7 69 70 72.2 72.2 72.7 74 74.6 75.2 75.3 75.8 77.1 77.8 78.3 79 87.8 94.4 98.8 100.7 100.1 98.3 95.5 93.4 92.8 92.9 93.9 94.9 96.5 100.7 104.1 106.1 109.8 116.6 125 128.5 128 126.9 124.1 118.6 116.4 116.7 116.1 114.8 113.3 114.4 115.1 115 113.8 112.9 112.1 109.5 107.2 103.5 101 96.2 98.6 99 98.8 99.4 101.2 101.9 95.2 90.4 91.4 98.3 95.5 90.6 87.4 84.1 82.7 82.2 81.6 78 76.2 76.9 76.1 74.2 71.9 69.8 69 68.4 68.4 68.6 69.2 69.9 70.7 71.3 72.6 76.4 74.7 77.8 79.9 82 83.9 86.3 88.8 91.5 94.7 97.3 101 103.3 106 107.4 108.6 109.6 111.2 111.2 111.9 111.8 113.4 116.1 118.4 120.8 122.9 124.1 125.5 129.1 127.9 127.7 129.2 134.7
244.3 241.9 242 241.6 239.5 236.9 232 227 218 204.9 184.6 168.4 156.9 159.9 169.6 183.2 198.8 224 240.9 244.4 249.6 245.7 241 235.8 229.6 222.1 215.7 209.3 203.4 196.7 189.3 183 174.5 164.1 154.8 148.1 143.6 144 145.7 146.9 149.1 146.8 142.9 134.7 128.4 124.5 119.9 113.1 108.3 103.4 97.6 92.9 84.7 77.6 70.6 71.8 76.3 82.4 77.1 78.5 78.5 78.6 78.8 72.9 72.6 70.4 68.1 69.2 68.4 67.8 66.8 65.9 65.7 65.8 65.4 65.4 65.8 66.4 67 67.6 67.8 68.8 70.4 71.8 71.9 72.7 73.7 74.5 75.2 75.6 76.1 77.4 77.9 78.9 88.2 94.2 97.8 99.7 99.5 97.6 94.9 92.9 92.3 91.9 93.3 94.7 97.2 100 102 103.9 106 119.7 126 128.2 127.9 126.6 120.7 116.3 116 116.1 115 113.6 112.6 113.4 115.4 115.3 114 112.6 112.3 110.8 108.5 105.7 102.9 97.6 97.3 97.7 98.5 99.8 100.5 100.8 95.2 90.7 91 105 99 90.1 85.9 81.8 79.9 78.5 77.2 75.2 74.3 74.8 73.6 72.6 71.5 69.7 68.9 68.4 68.6 69.1 69.5 70.4 71.8 72.5 72.7 73.8 75.6 77.5 79.8 82.9 86.4 88.2 90.7 93.5 97.5 101.6 106.5 109.7 112.2 114.8 117.5 119 120.8 121.9 123.4 124.1 124.1 125.5 127.9 130.5 131.2 132.7 133.8 136.4 138.8 138.3 134.1 136.9
241.6 238.9 237.5 236.6 236.7 235.7 231.8 227.7 221.7 209.5 188.6 169 155.9 149.5 163.3 177.1 194 216.6 239.9 244.3 248.4 250.1 247.6 243.2 237.3 231.4 225.4 218.9 211.3 204.5 195.9 186 176.4 165.7 155.6 152.3 152.3 153.3 155.2 156.6 158.2 155.6 152.6 144.1 134 126.6 121.7 117 112.9 108.8 105.1 101.8 92.5 81 79.6 72.7 71.1 74.4 75.1 73.6 73.6 79.3 72 71.8 71.6 69 67.4 67.6 67.2 66.6 65.8 64.8 64.1 64.2 63.6 63.9 64.8 65.5 64.5 65.9 67.5 68 68.9 69.6 70.9 72.9 73.7 74.1 74.6 75.3 76.1 75.6 77.4 80.6 84.9 92 96.5 98.4 98.3 96.6 94.3 92.3 91.8 92.1 93.3 94.7 97.6 98.9 101.2 103.3 107.6 122.4 126.3 127.3 125.5 122 117.5 114 114.5 114.9 113.9 112.8 112.1 113.6 115.5 115.2 113.2 111.7 111.6 111.7 110 106.8 103.4 99.2 95.6 97.1 98.2 98.6 98.8 98.2 92.9 91 91.1 101.9 95.9 87.9 83.7 80.3 78.1 76.6 74.9 73.4 73.5 72.5 72 71.3 70.6 69.7 68.7 68.5 69.4 69.7 70.9 73 73.8 77.9 76.4 77 78.5 80.9 82.9 85.9 87.5 89.2 92.3 96.3 100.4 105.6 110.7 114.5 117.4 120.5 123.4 125.8 128.1 130.7 132.6 134.7 135.9 137.1 138.2 139.2 139.7 140.8 141.9 143.4 145.4 145.5 143.5 143.8
239.3 236.5 233.5 231 231.1 230.3 226.9 222.4 215.8 200.3 181.3 164.2 153.1 143.4 158.5 174.8 194.2 211.4 232.5 243.2 245.1 246.9 249.1 245.7 244.3 239.9 234 228 219.7 209.1 198.8 187.9 177.9 167.5 160.6 160.7 162.9 165.2 167 168.5 169.3 166.8 162 155.8 142.8 133.3 125 120 115.1 109.7 104.1 95.7 96.4 95.2 90.4 82.7 73 71 74.2 72.7 69.3 69.3 69.8 71.7 71.7 71.8 67.6 67.3 66.8 65.5 64.7 63.8 63.2 62.8 62.5 63.1 63.7 64.3 64.1 64.2 65.8 67.4 68.2 68.4 70.6 72.3 72.7 73.5 75.3 72.9 73.7 74 76.6 79.3 85.3 89.8 94.2 95.6 95.5 95 93.2 91.4 91.9 93.4 93.8 94.8 97.1 97.7 100.8 102.5 114.1 121.6 125.2 126 123.1 118.6 114.7 111.9 112.5 113.7 112.8 112.9 112.8 113.7 114.7 114.9 113.1 111.8 111.8 112.2 110.4 108.1 104.3 101.4 94.2 96.7 97.7 98.4 97.7 95.3 91 90.5 94.2 102.6 93.6 86.1 82.1 79.2 77.9 76.7 73.4 72.8 71.5 70.9 71 70.5 69.8 70.1 69.7 70.7 71.4 72.3 75.2 75.4 76.3 79.1 80.1 80.4 82 84.7 86.8 88.2 89.4 90.9 93.3 97.2 102 108.4 113.5 116.3 118.2 121.6 125.4 127.9 131.1 133.9 136.9 138.9 140.5 142.4 145.1 145.9 147.5 148.7 152.2 152.8 153.6 155.1 155.6 154.8
233.3 230.7 227.2 225.1 224.8 222.6 218.6 212.7 203.4 188.1 172.4 157.5 148.3 139.5 156.7 174.2 196.5 209.4 221.8 234.3 238.3 241.4 243.2 246.8 246.1 245.5 238.5 233.2 225.2 211.6 200.4 189.6 179.8 172.8 170.4 172.9 175.6 177.7 178 178.3 179.6 176 170.3 162.8 151.8 140.8 130.6 122.8 117.1 109.5 111.3 110 108.2 105.2 100.4 93.9 84.1 78.5 76.7 73.3 69.1 68 67.5 69.2 69.1 68.1 67.1 67.2 66.5 65.3 63.7 62.9 62.7 62.4 62.2 62.3 62.5 63 63.4 63.8 64.7 66.9 67.7 68.3 68.4 69.2 71.7 74.7 77.2 77.7 76.9 76.8 76.6 79.3 84.9 88.6 87.8 88.2 89.1 90.4 90.4 90.7 93.4 95 96 96.2 95.4 96.5 99.4 102.4 115 121.2 124.7 126.2 124.4 116.1 112.3 109.6 111.2 112.8 113.9 113.6 113.5 113.9 115.1 114.1 112.8 112 112.3 112.6 110.3 107.7 103.8 101.6 93.1 96.3 96.6 96.8 96.2 93.3 88.6 79 93.1 100 93.8 83.9 80.6 78.3 76.8 77.9 75.7 70.9 70.2 69.6 69.8 69.8 69.9 71.2 73.1 74.6 75.4 79.7 78.4 77.8 77.5 79.8 82.6 83.7 85.6 87.8 90.1 90.5 91.2 92.7 94.9 99.1 105.3 110.4 113 115.3 118.5 122.8 126.4 130.1 132.5 135.5 138.2 141.4 143.8 146.2 148.8 150.4 153.5 156.5 160.4 163.2 164.4 164.7 164.4 163.5
224.6 222.3 219.3 217.4 215.9 212.1 207.2 202.1 192.3 178.5 163.5 150.5 139.3 138 156.9 174 193.7 208 217.6 222.5 227.3 235.1 240.4 243 245.4 245.5 239.2 234.7 225.8 218.3 206.4 195.9 186.8 180 183.3 187 187.3 189 189 188.3 187 181.8 174.5 165.8 157.4 144.3 135.4 126.8 117.8 121.5 122.6 121.9 118 114.8 110.5 105.3 97 97.8 95.9 88 81.1 73.2 67.8 68.3 68.4 67.3 66.3 64.2 66.3 65.9 64.8 62.4 62.5 62.3 62.3 62.2 62.3 62.6 63.4 63.5 64 66.9 68.6 68.6 70.9 73 75.6 79.6 81.3 80.8 79.5 78.2 77.6 79.1 83.2 82.8 87.6 92.1 93.5 93.5 93.4 94 95.2 96.7 97.7 95.5 95.2 96.6 98 100 112.3 120.6 123.8 124.5 119.7 112.8 108.7 108.9 110.8 111.8 114 114.3 113.2 113.4 114.3 112.9 111.3 111.7 112.2 111.9 109.4 106.8 103 100.5 92.6 95.9 95.8 95.2 94.6 91.3 85.9 76.8 87.9 96.3 88.2 81.6 79.9 77.7 75.6 75.4 77.7 73.8 68.5 68.7 69.5 71.4 72.5 74 76.5 77.5 81.6 82.3 81.8 81 80.6 82.5 86.4 88.7 88.2 92.2 93 92.8 94.8 96.8 99 103.3 106.8 110.9 113.4 115.7 118.9 122.9 127.1 130.5 133.4 136.9 140.7 144.3 147.1 149.1 152.7 156.1 159.1 162.8 165.7 169 170.9 170.9 170.8 170.8
215 214.6 209.6 208.4 205.8 202.9 198 193 182.6 169.6 155.4 144.3 132.3 142.2 159 176.3 192.6 208.1 218.1 221.5 225.4 231.8 240.1 242.7 242.6 242.3 238.7 235.7 233.6 227.1 211.3 201.8 195.4 194.1 197 200.7 200.8 201 201.1 198.6 194.3 188 180.8 169.8 159.9 149 137.2 129.7 127.8 136.8 138.8 139.3 134.7 127.8 123.6 116.6 110.4 109.4 105.5 99.7 92.7 86.6 80.2 72.1 70.8 69.2 69.1 68.8 66.2 65.2 63.6 61.9 62.2 62.6 62.5 62.3 62.2 61.7 63.6 64.5 64.6 68 68.8 69.7 72 75.1 79 82.8 84.2 83.1 81.4 79.5 78.6 79.9 83 86.8 90.4 93.3 94.4 95 94.7 94.8 96.1 97.6 98 95 94.9 95.6 96.5 99.3 111.1 117.9 116.8 119.8 114.9 108.8 106 107.4 110.2 111.3 113 113.4 112.2 112.3 112.1 111.4 110.1 109.4 110.1 111 108.5 105.9 102.2 98.9 93.6 95.6 95.4 94.7 91.7 88.3 83 76.4 82.4 87.7 81.1 78.7 78 77.2 75.3 73.2 76.6 70.7 67.6 68.5 72.2 76.3 78.2 80.7 82.9 82.8 84.4 85.3 85.9 85.6 85.6 88.2 90.9 88.8 94.6 96.2 96.3 96.4 98.1 100 103.2 105.7 107.8 110.1 112.3 115.6 118.7 122.3 127.8 131.4 134.1 138.4 143.6 147.5 151.6 154.4 157.3 159.9 163.6 166.5 169.6 174.2 175.8 176.5 177.5 177.9
208.5 205.9 201.6 198.5 194.4 188.8 185.9 181.8 173.6 161 147.8 136.6 130.8 147.3 161.4 176.6 194.2 208.5 216.7 220.6 224 229.6 237.9 242 241.4 240.4 237.3 236.8 237.1 231.7 220.6 214.1 208.9 207.6 209.7 214.4 215 215 213.2 210.1 204.6 196 186.8 173.6 161.4 150.9 140 131.6 142.8 151.7 155.2 156.1 150.7 144.8 136.4 129.2 121.7 116 110.7 106.2 101.6 96.1 88.4 78.7 71.9 70.7 69.2 68.8 67.4 60.9 63.7 63.6 62.6 62.6 62.5 62.3 62.3 61.8 62.5 64.4 67.1 68.5 69.2 70.2 74.7 78.7 82.7 84.7 86.5 86 83.7 81.4 79.8 80.9 83.9 86.6 89 91.5 93.5 93.9 93.4 94.2 95.9 97.4 99.5 95.7 93.6 95.1 96.9 99.8 105.5 110.3 109.1 113 110.6 104.2 101.7 104.9 108.3 110.9 112.8 112.6 111.2 110.6 110.1 109.9 109.2 108.6 108.7 108.7 107.2 104.9 101.2 97.2 94.5 95.3 95 90.8 89.7 84.6 80.2 76.1 76.8 78.8 77.3 76.2 76.2 75.7 74.8 72 68.6 67.8 67.2 69.3 73.8 76.5 78.8 82.9 82.8 86.7 86.9 87.3 89.2 89.4 89.5 90.5 89.4 94.5 96.6 98.8 99.6 100.5 101.4 102.8 105.1 107.1 107.8 110.4 112.3 115.6 120 123.9 128.5 132.7 136.8 141.2 145.7 149.9 153.7 156.1 158.8 161.4 164.8 167.6 172.1 177.7 180.2 183 184.9 184.8
202.8 199 194.1 189.1 183.9 175.6 173.9 171.7 162.3 150 139.2 127.1 137.8 151.8 163.8 176.2 192.8 206.1 213.8 220.1 225.6 229 234.2 240 242.7 242.4 237.7 238 237.8 236 229.7 226.6 224.6 222.7 223.7 226.4 228.7 227.9 225.4 220.6 214 204.3 191.6 176.9 163.5 151.3 143.8 141.7 155.9 165.4 168.5 169.9 166.3 158.2 151.2 143.8 134.1 125 117 111 106.4 100 91.4 82.1 74.1 70.5 69.1 68.4 67.5 60.8 64.2 63.7 62.9 62.5 62.4 62.3 62.6 61.2 65.1 67 68.5 70.5 72.9 75.9 78.9 82.7 87.1 89.2 89.6 89.1 86.8 83.6 81.1 80.8 83.3 85.3 87.2 88.7 90.6 91.6 91.8 93.7 96.5 96.4 97.8 94.8 93.1 93.7 96.1 99.1 102.1 103 107.2 108.5 106.3 101.1 99.1 101.4 105.6 109.1 111 111.7 110 109.3 108.5 107.9 108.7 108.1 107.7 107.7 107.1 103.6 100.1 93.9 91.1 91.9 87.9 87.6 86.5 83.6 77.2 75.4 76.3 76.7 75.2 75.2 75 74.8 74.1 70.6 67.4 67 67.6 69.5 74.2 77 80.3 83.3 85.2 87.5 88.1 89.3 91.3 92.7 93.4 91.7 92.5 93.8 97.3 100.7 102.2 103.4 104.8 105.6 105.6 107.3 109.5 113.5 116.8 121.7 126.1 130 131.5 134.8 138.7 143.2 147.7 151.3 154.8 156.6 159.3 161.8 165.1 169.2 174.2 180.1 183 187.2 190.4 191.2
202.8 197.1 190.8 182.3 175.1 170 165.9 160.8 151.9 141 131.7 129.1 142.3 156.1 166 175.9 192.3 205.9 214.2 221.4 227.5 228.9 232.8 237.5 241.3 242.7 238.3 239.6 240.1 240.4 239 237.3 235.5 234.5 235 237.7 238.3 236.7 233.8 229.4 223.5 211.6 197.3 182.2 167.1 155.4 145 152.9 167.5 178 181.4 182.3 179.5 170.7 160.6 153.4 144.7 133.6 123.4 116.4 110.1 103.6 95.5 85.8 75.2 70 68.9 67.8 66.6 63.2 62.1 61.5 61.7 62 62.2 62.3 60.9 61.5 66.4 68.2 71.3 75.1 79.1 81.9 84.9 87.9 90.8 92.7 92.7 91.3 88.9 85.7 82.4 81.3 82.9 84.3 85.5 86.6 88.2 89.7 89.6 91.5 96.2 96.3 96.5 94.5 92.1 92.1 94.7 97.1 98.8 101.1 104.1 104.5 104.4 97.7 96.4 98.9 103.2 106.8 108.3 109.8 109.1 107.9 106.8 106.3 107.4 107.3 107.6 107.9 105.7 101.6 95.7 91.2 87.5 85.6 84.7 84.5 83 80.3 75.9 73.4 74.5 74 73.9 74.5 74.3 74.4 72.6 69.6 66.8 67.1 67.9 69.9 73.9 77 80.6 81.1 86.1 86.9 87.9 89.5 91.8 93.3 93.3 91.6 92.9 94.8 97.4 100.9 103.2 104.9 107 107.3 105.9 107.6 112.2 117.2 122.5 126.2 130.4 134.6 134.2 136.2 140.3 144.6 150 151.1 154.3 155.3 158.3 162.1 165.9 170.9 176.7 182.3 186.1 191.3 196.8 197.1
202.7 199.1 193.8 184.9 173.6 161.9 155.1 151.6 142.6 132.7 125.7 132.4 146.7 160.1 166.9 175.8 192.4 207.3 213.8 220.2 223.1 226.2 232.6 236.3 238.6 240.3 240.9 242.4 245 246 246.4 246.1 245.8 245.1 245.4 245.9 245.2 242.9 239.6 235.1 228.6 217.8 202.5 189.2 175.8 164.2 150.3 163.9 179.4 188.3 193.7 194.5 189.5 180.1 172.2 165 155.2 143.6 131.5 121.7 114.4 108.5 99 88.5 77.2 69.8 68 66 63.8 62 61.1 60.9 60.9 60.5 61.5 61 60.4 63.4 67.6 71 76.8 82.1 85.9 88.6 89.6 92.3 94.5 95.7 95.4 93.7 91.2 87.6 83.9 82.2 82.8 83.8 84.8 85.6 86.4 87.3 88.4 90.5 95.1 96.4 97.7 94.2 92 91.9 92.6 94.7 96.1 97.8 101.7 100.9 99.9 95.8 93.6 96.1 101 104.3 106.1 107.8 106.6 105.3 104.7 105.1 106.3 106.8 107.5 107.1 104 99.9 94 89.6 85.6 83.5 82.6 81.8 80.8 78.2 74.9 72.6 72.6 73 72.6 73.3 73.3 72.5 70.2 67.3 66.9 67.2 68 70.6 73 75.5 78.6 80.4 83.8 86.2 87.3 88.1 89.7 90.9 87.3 92 93.6 95.2 96.5 98.8 101.8 104.9 108.4 108.9 106.2 107.2 113 119.4 123.6 126.9 128.7 130.1 128.9 131 137.6 143.2 146.8 148.9 151.9 154.9 156.7 160.3 165 170.7 176 180.1 184.8 190.3 196.8 199.7
200.8 197.7 192.1 186.1 173.4 160.1 146.9 140.2 132.2 126.5 124.1 135.7 150.4 160.5 168.8 178.2 193.6 204.7 212.9 216.1 220 225.5 231.8 235.3 237.9 240.5 243.1 245 248.4 250.8 251.7 251.9 250.6 250.3 250.4 250.9 250 248 245.1 240.7 233.5 224.8 211.7 201.2 189.7 176.5 160.3 172.5 187.3 197.5 205.1 206.3 199.7 190.6 184 176.4 166.8 155.2 142.8 128.4 120.4 115.7 103.6 90.7 78.9 70.6 68.2 64.3 63.5 62.2 60.6 61.2 60.4 60.8 61.3 60.1 60.1 66.7 71.2 76.9 83.1 88.8 92.4 94.3 94.7 95.5 97.5 98.7 98.2 96.1 93.6 90.7 85.2 83.2 83.9 84.8 85.6 85.8 86.2 87.2 88.7 90.6 95 96.6 97.3 93.8 91.5 91 90.7 91.6 91.5 93.1 98.7 96.4 96.3 93.2 91.3 93.5 97.8 101.6 103.9 105.5 104.3 103.4 103.1 104.1 105.3 105.6 106.6 104.9 102.1 97.1 92.6 89.1 84.7 82.2 81.2 80.6 79.6 76.8 73.4 72.1 72.1 71.8 70 71.2 72.1 71.6 69.2 67.3 68.2 68 69.5 71.1 72.4 76.1 76.8 78.9 82.7 85.2 86.3 86.4 86.3 87.7 89.6 92 94.2 95.1 96.5 98.4 101.2 105.5 108.7 109.2 105.6 107 111 117.3 120 120.8 123.3 124.2 125 128.8 134.8 138.4 141.9 146.5 150.4 154.5 153.4 158.5 163.4 169.1 174.7 179.6 184.5 189 194.8 197.9
197.9 194.1 187.3 178 164 149.8 138.8 131 126.9 126.1 129.2 141.9 155.4 164 174.5 184.3 193.6 203.1 211.4 218.6 223.3 228.5 232.2 238.2 240.7 242.4 244.1 246.9 250.5 253.7 256.1 255.2 255.1 255 254.8 254.4 253.6 252.2 250.7 247.2 240.9 232 220.9 215 206.2 192.9 174.8 180.1 194.2 204.4 211.3 213.1 212 203.5 194.8 188 178.6 168.6 153.6 138.7 127.1 124.8 113.3 98.5 81.3 74.1 69.1 64.2 63.8 62.4 60.4 60.8 60.4 60.4 60.4 61.4 58.1 68.4 75.1 82.7 89.3 94.7 97.9 99.2 99.4 98.2 100.4 101.6 101 99.4 96.9 93.7 90.2 85.1 85.3 86.1 86.9 87.2 87.7 88.3 89.8 93.1 97.1 98 96.3 92.8 91.4 90.8 90.5 90.2 89.9 89.3 91.2 90.6 91.2 89.2 89.4 90.4 93.7 98.1 101.5 103.1 102.4 101.5 101.8 103.1 104.4 105.3 105.4 104.1 100.8 95.9 91.6 88.1 85.1 82.1 79.8 78.7 77.4 74.6 72.5 71.6 71 70.7 69 69.4 69.7 71.8 70.5 70.3 66 67.5 68.9 70.4 72.3 74.1 75.3 78.6 82.5 84.7 84.7 85 86.3 86.1 91.2 94.1 96.2 97.7 98.4 100.1 102.5 105.7 108.7 107.7 104.4 105.6 107.5 110.4 112.2 114.1 116.4 118.8 121.3 126.5 134 137.9 139.6 139.3 144.2 151.6 155.7 157 161.4 168.7 176 179.3 183.4 187.8 192 195.3
193.2 188.7 177.2 164.3 149.8 138.5 128.4 124.4 123.1 123.8 131.7 149.8 159.1 169.3 181.2 189.2 197.4 205 212.2 218.9 224.4 229.8 234.9 239.1 241.6 243.1 244.5 246.9 249.6 253.3 256.4 257.3 257.3 256.9 256.7 256.6 256.4 256 254.7 253.5 248 240.6 230.1 225.2 219.6 207.7 187 194.6 205.6 214.2 216.3 218.1 217.4 213.3 206.3 198.7 191.3 181.2 167.3 150.1 133.7 130.4 124.2 107.6 84.9 77.4 71.5 63.7 63.6 62.3 60 60.4 60.3 60.2 60.2 62 61.6 69.4 79.1 87.6 94.2 99.1 103.1 103.7 102.2 101.7 103 104.1 103.6 101.9 100.1 97.2 92.6 88.9 87.3 87.7 89 89.7 90.3 92.3 94.3 95.6 99.2 99.7 97.8 95.2 92.3 90.7 90 89.3 87.5 86.5 85.8 86.1 86.6 86.3 86.8 87.8 91.1 96.4 98.9 100.4 99.6 99.3 100.6 102 103.6 104.7 103.8 103 102.2 95.1 90.4 87.2 84.9 83.3 82.1 77.5 75.7 72.7 70.8 70.4 70.5 70.7 70.2 68.1 67.7 70.7 70.1 70.3 66.8 66.9 67.9 69.8 74.5 72.7 74.6 78.3 81.2 82.6 83 84.3 88.1 91.4 93.9 96.2 98.6 100 100.3 101.6 102.5 105.2 106.8 104.3 102.7 104.7 106.4 107.9 111.1 114.5 117.8 121.9 125.4 125.3 129 137 138.6 141 144.3 145.8 155 156.8 159.6 168.8 174.7 178.7 182.3 184.9 188.6 192.1
185.3 176.8 166.2 152.8 138.7 132.3 122.8 121.4 121.6 125.5 136.2 154.3 166.2 177.3 189.1 192.7 199.2 205.1 212.2 217.8 222.6 228.4 232.1 236.4 238.8 241.1 243.3 245.2 248 252.3 255.8 258 259 258.8 258.7 258.7 258.6 258.7 258.9 257 252.5 245.4 235.8 231.5 228.2 219.4 200.3 209.8 219.1 222 224 224.1 223.2 218.8 213.3 206.8 199.6 192.1 174.7 157.9 142.5 133.7 130 111 86.8 77.8 76 63.3 62.9 61.2 59.6 60.4 60.3 60.3 60.2 59.7 62.2 70.1 82.4 90.9 98.5 103.5 107.6 107.5 103.8 104.3 105.7 106.5 105.6 103.9 104.3 100.8 97.3 93 90.5 90.3 92 93 93.9 96.2 97.4 99.6 101.2 101.5 100.5 96.6 93.6 91.3 89.9 88.3 85.9 84.8 84 83.9 84.6 84.1 83.4 84 85.7 93.8 97.6 97.9 97.5 98.2 98.6 99.9 102 103.1 103 103.3 101.9 93.5 89.3 88 86.3 84.7 82.5 80.7 78.2 74.6 71.8 69.4 69.8 71.5 69.7 67.8 68 67.7 69.6 70.4 65.7 66.2 67.7 69.5 71.8 71.6 74.4 76.9 78.3 79.1 80.5 82.9 87.4 91.2 94 97.4 100.1 100.2 101.4 102.1 102 102.7 103.1 103.1 104.2 106.7 108.9 111.3 113.9 117.2 124.6 125.7 126.3 127.6 129.6 130 130.5 140 144 149.4 152.1 155.8 157.8 169 173.6 177 180.8 182.9 183.2 187
171.6 164 154.3 141.3 131.7 126.9 119.9 119.8 121.7 128 144.8 159.6 172.7 184.1 191.3 194.7 201.6 207.4 211.6 215.4 219 224.5 228.8 232.8 236.2 238.6 240 242.6 247.2 251.5 256 259.1 260.7 260.9 260.8 260.8 260.7 259.6 258.2 255.1 250.4 244.7 239.3 235 230.6 224.9 216.8 222.3 226.7 230 231.1 230.9 229.3 225.3 218.7 209.3 201.8 194.8 179.3 163.3 148.9 131.7 117.4 101.2 89.3 79.3 76.7 64.1 62.7 61 59.4 60.6 60.4 60.3 60.2 59.2 62.2 71.6 83.2 93.3 103.5 108.3 111.7 109.8 105.5 106.3 107.8 108.4 107.1 106.4 106.7 103.8 101.2 97.4 94 94.3 96.2 96.3 98.1 99 99.8 101.3 102.3 103.1 101.2 97.7 96.5 94.4 92.3 88.6 87.6 85.9 84.3 82.4 81.5 81.1 81.4 81.2 84 89.1 92.8 94.8 95.3 93.3 94 97.3 99.9 102.1 102.9 103.6 99.7 92.1 90.1 88.6 88.4 86.3 85.3 82.4 79.5 77.2 75.4 69 68.7 69.5 67.5 67.4 67.3 67.2 67.9 69 65.5 68.2 68.8 70.4 69.1 70.8 72.7 74.6 75.2 76.9 78.5 81 87.1 89 94 98.8 99.6 99 99.3 98.2 98.3 98.9 103.2 106.6 108.8 111.2 114.8 116.5 118.9 120.5 124.5 124.9 125.5 126.3 129.4 131.7 134.8 136.3 138.8 139 151.7 155.8 163.3 167.6 171.6 173.7 175.9 177.9 179.5 184.9
159.8 154.3 145.3 134.7 128.4 127.2 117.9 117.9 121.5 132.3 148.5 163.8 176.8 186.8 190.9 194.6 200.4 205.6 210.4 214.2 216.4 220.5 225.2 231.1 236.5 240.3 241.2 241.3 246.6 251 255.3 259.3 262.7 262.5 263 262.9 261.3 259.2 256.8 253.3 248.1 243.2 239.7 237 234.1 229.9 226.2 228.7 234.3 238.2 239.1 238.7 236.1 233.3 226.9 218.2 207.8 197.2 186.6 172.5 154.7 135.2 115.9 102 92.8 82.4 76.6 65.2 61.8 60 59.3 60.1 60.3 59.9 60.3 59.7 62 72.8 84.5 95.4 110.8 115.8 116.2 113.4 109.6 108.3 109.4 109.6 107.9 107.4 108.9 107.5 105.1 101.6 99.4 98.9 100.3 99.9 102.6 102.7 102.9 103.3 104.8 105.2 102.1 101.1 100.7 98.3 96 93.1 89.7 87.5 85.4 82.9 81 79.7 79.2 79.2 82 86.5 88.6 89.4 88.8 89.1 91.9 95.3 98.1 100.6 101.3 101.2 100.2 94.7 91.1 91.9 91.1 88.2 86.9 82.9 80.7 77.6 74.2 70.3 68.1 67.6 67.2 67.2 67.4 67.8 67.4 67.8 64.4 69.4 70.4 69.6 69.8 69.7 71.7 73.2 75 76.8 78.5 80.1 86.8 90.5 92 96.4 95.3 93 92.1 95.8 100.3 103.9 109.7 110.4 112 114.7 117.6 120.2 121.3 122.4 124.8 126.3 127.7 128.6 131.5 135 138.7 142.4 145.5 147.6 147.5 149.4 153 162.2 164.8 164.9 171.4 179.6 186.6 191.4
151.4 146.7 137.1 129.5 123.6 120.3 115 116.9 123.1 134.7 149.8 164.2 178.4 185.2 188.9 191.8 197.7 203 206.3 209 211.9 218.3 223.6 228.9 233.4 237.7 241.1 238.9 243.2 248.4 252.8 257.1 261.2 263.9 264.5 264.3 261 258.1 255.4 251.8 247.1 243.1 240.2 239 237.9 235.3 233 235.5 240.1 244.2 246.7 246.6 242.8 239.8 236.5 230 219.7 207.9 196.1 181 160.4 136.2 114.9 102.3 91.1 82.2 77 66.7 61.2 56.6 59.4 59.6 59.3 58.9 58.5 56.3 61.5 71.8 85.7 98.6 114.5 121.3 121.5 118.2 114.9 113.4 112.6 110.6 108.7 108.5 109.8 109.6 108.1 105.6 103.8 103.6 103.5 103.3 105.2 106.3 106.3 107.8 106.9 107.2 106.9 106.4 105.1 101.6 98.7 95.5 91.7 87.8 85.1 83.6 78.9 77.9 77.7 77.5 79 82.7 84.9 84.7 84.3 86.6 90.9 94.1 97.2 99 99.3 99.7 96.2 94.3 92.7 98.8 96.9 89.4 86.4 84.3 81.3 77.9 76.9 72.6 67.6 66.7 66.3 68 68.5 68.3 67.9 67 64.8 70.2 70.5 71.2 71.9 71.5 71.7 73.1 74.9 76.2 77.7 79.5 82 86.5 88.7 91.2 89.7 88.9 95.4 101.7 105 109.7 111.6 112.9 112.7 114.8 119.5 122.2 124.2 124.6 126.5 128.4 130.6 133.1 136.1 141.1 143.8 146.5 149.5 152.8 155.6 159.2 161.8 164.1 167.7 172.5 178.4 185.2 191.2 196.3
144.3 137.8 132.3 127.8 120.2 113.3 112.6 117.9 125.5 137 147.7 162.6 175.2 181.8 187.2 190.1 194.4 199.2 200.3 200.9 208.2 215.5 221.5 224.9 229.2 232.6 234.3 235.4 240.3 245.9 250.3 254 256.6 259.1 259.8 258.2 254.7 251.8 249.4 247.2 245.3 242.8 241.6 241.3 239.7 237.3 236.9 238.6 243.3 247.5 251 251.8 249.3 246.1 242 236.1 228.9 218.2 202.1 187.8 159.8 130.6 110.7 97 87.6 81.5 77.3 65.7 61.9 60.1 59.5 59.7 59.8 59.5 58.3 58.8 60.3 69.9 86.2 101.4 116.7 123.4 125.2 123.4 120.7 118.6 116.4 114.3 111.5 110.7 111.1 111.2 110 108.1 106.5 107.6 105.7 106.9 107.5 110.8 111 111.4 111 111.3 110.9 109.9 107.3 104.1 99.8 97.4 93.1 89.7 85.6 80.9 78.3 76.9 76.2 76.2 77.7 78.5 80.5 81.5 81.8 86.6 91.6 94.3 95.5 96.5 97.3 96.8 97 92.7 99.1 103.2 102.7 91.4 85.9 84.1 82 80.7 79.3 73 67.3 66.8 67.8 68.7 67.9 68 68.6 67.2 69.5 70.2 71.8 72.2 73.8 73.4 72.6 72.9 74 75.1 76.7 78.5 80.7 82.1 84.1 85.2 88.8 93.5 100.2 106 108.8 111.9 114.1 114 113.4 115.1 121.2 127.2 129.4 128.8 128.9 131.6 133.9 137.5 142.2 146 149.1 151 153.3 156.5 160.4 165.5 169.3 171.1 174.6 179.6 185 190 195.6 200.7
141.1 136.6 130.3 125.8 118.9 111 112.9 119.3 128.4 136.1 143.7 155.7 168.3 177.7 184.5 186.3 189.4 194.4 194.8 195.8 205 211.9 217 220.7 224.6 226.6 227.4 228.6 233 240 246.2 249.6 251.1 251.7 250.4 248.3 245.3 244.2 241.8 239.9 238 236.8 238 240.5 240.6 239.2 239.3 240.2 244.3 248.4 252.1 253.9 253.1 250.9 246.6 240 231.5 219.4 200.2 178.8 150.9 123 106.3 91.4 82.4 78 69.3 63.3 60.7 60.4 59.5 59.4 59.7 55.1 58.1 59.2 59.6 65.7 84.7 106.2 120.2 126.9 129 129.5 129.2 126 122.1 118.3 116.8 114 111.9 112.7 111.9 110.4 109.4 110.4 111.5 112.7 112.2 113.2 114.4 116.9 115.7 114.4 114 113.1 110.4 104.9 100.9 97 93.3 89.5 85.1 81.1 78.1 76.1 75.2 74.5 78 78.3 78.7 80.1 82.2 86.7 90.3 92.9 93.5 93.7 95.2 94.9 99.2 100 103.7 105.6 105.7 96.6 88.3 90.8 87.6 84.6 80.5 74 66.9 66.6 69 69.1 69.1 69.8 68.2 67.3 71.2 71.5 72.6 74.5 74.8 74.6 73.7 72.9 73.6 74.9 78.2 79.8 82.1 83 85.3 88.3 91.5 97.3 103.9 109.9 110.8 113.2 115 116.4 117.8 118.5 121.9 128.9 131.5 129.8 131 134 137.6 142.2 147.4 152.5 157.2 159.7 160.6 162 165.8 169.1 173.3 177.1 181 186.8 191.7 198.8 204.2 207.7
141.3 138 131.1 123.5 115.1 110.7 114.6 121.6 129.4 135.7 142.2 151.1 162.2 172.2 178.3 177 182.1 187.4 186.2 193.4 201.1 206.5 211.3 216.1 219.2 220.7 221.2 222.5 226.3 230.5 236.8 240.3 240.7 240 239.9 238.5 234.7 234.4 234.7 232.4 230.8 231.1 233.1 235.4 238.7 240.1 240.4 241 242.9 245.2 248.4 252.6 255.1 251.9 248 241.9 230.4 211.3 192.1 169 141.3 118.4 101.1 88.2 79 73.7 70.3 61.7 60.7 60.3 59 59.3 57.9 54.2 58.6 59.3 59.6 64.2 84.2 106.3 122.5 129.7 135.8 137 135.8 132.5 128.4 126 124.9 119.8 115.8 113.6 113.5 112.6 111.8 112.5 112.5 113.7 113.1 115.3 119 118.5 117.8 116.9 117.6 114.4 111.8 108.2 103.8 99.7 95.8 92.5 88.5 82.4 78.1 75.8 74.3 72.5 76.3 78.8 79.2 81.5 83 83.6 89.5 90.8 91.1 88.9 92.6 97.2 100.4 101.3 101.3 102.7 103.5 100.2 87.8 89.1 86.3 82.5 78.4 73.8 69.9 69.3 69.2 67.6 65.7 68.3 64.2 71 73.1 72.7 74.5 75.7 75.6 75.4 74.3 73.5 73.7 75.2 77.5 80.4 83.4 85.7 89.8 94.7 98.1 101.1 108.6 113.2 114.4 116.8 120.2 123 122.6 123 124.7 127.8 130 132.1 134.7 137.7 142.1 149 154.1 159.4 164.5 168.4 171.4 172.5 173.6 175.5 178.8 183.3 187.2 194.3 202.4 208.5 214.6 218.9
140.7 137.9 131.6 123 113.3 103.4 114.6 122 128.3 134.4 140.5 149 158 164.8 167.9 167.4 173.2 177.9 179.6 190.2 196.5 202.6 206.5 210.8 213.7 215.7 216.5 217.9 221 224.4 226.2 227.9 229.4 231.5 232.7 232 230.6 230.8 229.5 226 224 226.5 228.6 232.1 235.7 240.2 241.5 241.4 242.1 242.4 242.6 243.8 246.9 246.8 245.1 240.6 226.7 207.9 189.4 162.9 130.7 113 97.3 85.4 77.6 70.8 66.8 62 59.9 59.8 56.6 56.6 57 58.4 58.2 58.8 59.7 61 81.2 105.9 124.4 134.2 139.8 143.3 144.3 139 134.5 133.1 132.7 127.5 119 115.5 115.1 115 114.5 113.5 113.5 114.3 116.1 118.7 119.7 119.4 118.7 118.1 117.2 116.4 115.3 111.7 107.4 102.8 98.6 95.3 91.5 86.3 80.2 76.8 77 72.7 73.8 77.9 80.3 82.8 86.5 89.6 92.8 94.3 96.1 98 99.6 102.9 101.6 104.7 107.4 107.4 107.4 97.9 89.6 91.9 88.1 86 80.7 75.1 68.4 64.2 66.9 67.4 68.1 66.3 69.4 73 74.8 75.3 76.5 77.7 77.7 77.2 76 74.3 74.9 76.1 76.8 80.2 84.9 88.9 94.3 99 102.8 106.7 110.4 114 117.5 120.4 124.7 127.8 128.3 129.6 130.9 133.1 135.8 137.2 139.5 143.1 149.9 155.9 160.8 165.9 171.2 176.2 180.2 182.9 184 185.4 187.3 191 194.9 203.1 211.7 218.6 224.2 228.8
139.2 136.7 132 123.8 111.5 102.9 116.3 122.3 127.7 132.9 140.6 149.8 158 162 162.9 164.1 167.2 168 175.1 184.9 191.1 196.2 201.3 204.7 207.6 209.2 210.1 212 215.5 218.7 221.2 222.2 223.1 225 227.9 226.7 226.1 228 225.7 220 217.8 217.3 223.4 230 233.4 237 241.1 241 240.8 240.9 240.9 241.2 242.4 243.5 243.6 239 228.1 209.2 191.2 159.4 124.1 108.1 94.1 84.9 77.2 68.6 63.4 60.5 59.5 59.5 55.4 57.1 56.5 58.4 57.4 58.5 58 59.3 77.9 101.5 124.6 135.3 143.3 146.8 149.8 146.3 143.5 138.3 135.1 130.6 123.2 117.9 118.1 120.4 118.6 116.6 115.2 116.8 120.8 122.8 123.1 121.4 120.9 120.3 119.7 119.3 118.4 115.1 111 106 101.7 97.8 93.3 85.9 80.9 77.2 74.8 70.5 73.5 76.8 80.5 86.5 86.4 87.8 94.2 98.1 100 101 103.5 105.5 104.2 97.4 96.1 99.9 101.2 95.2 95.2 93.3 92.3 88.7 84.1 78.3 72.1 66.9 63.5 65.9 66.6 68.4 71.2 74 76.6 77.8 79 79.3 79.4 79.8 79.2 76.6 75.4 76.1 77.1 81.2 86.6 92.7 98.4 102.9 108.8 113.5 116.7 120.6 122.5 124.6 128.3 131.3 133 134.5 135.6 137.2 140 141.9 145.9 150.9 156.5 162.5 167.5 172.5 177.7 183.4 188.7 194.3 196.6 196.9 199.3 203.1 207.5 214 219.6 226.1 233.5 240.6
135.2 133.2 128.8 119.3 101.8 105.4 114.9 120.8 125.6 133.6 142.5 150.7 155.8 156.8 159.8 161.4 161.2 162.9 171.6 179 184.8 189.5 194.3 197.7 199.7 202.2 203.4 205.5 209.5 212.2 214.8 216.7 218.2 218.5 220.8 222.6 223.1 222.7 216.5 208.6 211.1 213.2 216.3 225.9 228.5 231.3 236.8 239.1 238.2 238.3 238.2 239.5 240.8 242.3 242.5 237.1 231.3 210.8 190.4 153.1 125.5 106 94.5 85 76.8 66.9 61.9 60 59.1 59.3 56.1 57.7 58.7 58.5 56.5 57.6 57.5 58.3 73.4 93.3 117.6 130.9 138.2 147.6 153 150 148 145.2 140.1 135 121.9 120.1 120.5 123.5 123.7 120.9 118.8 120.5 124.2 126.4 127.7 131.2 128.7 127 124.3 122.8 121.6 118.3 114 109 104 99.1 92.9 84.7 78.7 75.6 72.4 67.4 74.1 78.7 81.4 87.7 90.9 93.7 98 100.3 101.4 101.3 99.5 105.7 100.9 97.9 98.7 98.7 98.3 98.8 98.5 95.7 94.4 91.3 88.3 81.9 75.3 70.4 64.6 63.8 65.5 68.3 71.5 74.8 77.5 81 81.9 82.7 82.4 83.8 82.9 79.2 76.6 76.2 78.6 82.1 88 97.4 104.6 109.3 114.6 118.8 123.4 127.1 129.2 129.6 131 133.5 135.8 138 140.3 142.6 145.1 149.1 153.4 158.2 163.7 169.6 174.3 178.9 184.5 192.3 198.7 204.1 208.4 211.1 213.9 216.5 220.1 224.5 229.1 235.5 244 251.4
132 129.1 122.9 114.1 95.9 105.2 112.9 118.3 126.5 135.3 142.6 148.5 150.1 155 158.2 156.2 155.1 159.4 167.6 174.3 179.6 184.5 185.7 187.2 191.8 195.3 195.6 197.4 200.6 205.1 209.1 211.8 213 214.5 217.2 218 216 209.9 202.1 199.2 203 208.5 211.8 217.8 221.3 225.7 230.5 233.1 234.1 233.7 232.8 234.2 235.7 236.4 235.3 232.1 225.3 207.7 184.9 145 122.7 104.3 94.6 84.5 77.8 66.5 61.5 60.1 59.1 59.4 56.4 58.1 58.5 58.3 57.8 55.9 57.3 57.4 66.9 82.4 100.1 120.4 136.2 145.3 154.5 158.3 158.5 151.1 143.1 136.8 125.7 123.2 126.4 130.4 129.8 125.1 122 123.2 131.4 134.3 136.9 138.8 139 137 134.1 131.1 126.6 122 116.5 109.9 104 97.4 89.5 80.6 75.4 72.5 67.6 71.1 76.3 78 83.8 89.8 94.7 97.7 100 102.6 104.6 104.4 102.7 102.8 102.4 101.5 102.8 102.3 101.9 101.1 100 98.7 96.7 95.7 92.4 86.8 79.2 73.8 68.9 65.2 64.8 67.6 71.6 75.2 79.4 85 88.5 89.9 89.2 85.9 84.9 80.5 77.6 77.1 78.2 81.4 87.8 99.4 109.5 116.6 122.2 127.5 130.7 135 138 139 139.4 140 141.3 144.2 147.2 149.4 152.4 156.7 160.3 165.8 171.7 178.3 184.2 189.3 195.4 203.4 210 215.9 220.2 223.7 227.3 230 231.9 232 236.8 243.4 251.2 258.1
124.8 123.2 118.1 109.2 91.8 102.7 111.1 116.6 127.2 135.4 141 143.7 145.6 152.3 154.2 152.5 150.4 155.9 163.9 169.1 174.3 177.2 177.2 178.5 181.6 185.4 186.5 190.8 194 198.5 201.8 203.8 207.5 211.1 214 212.6 206.7 198.5 190.5 190.1 192 201.2 206 208.7 214 218.8 222.9 224.9 225.8 223.9 222.3 224.4 225.6 226.2 225.8 222.1 213.7 197 171.1 138.4 119.1 104.5 95.5 85.1 76.7 67 60.4 58.2 59 59.6 56 57.6 58.8 58.5 57.2 55.5 57.4 56.6 59.8 71 85.2 103.4 129.7 151.4 159 158 166.1 159.1 146.5 135.4 130.1 127.9 131.9 137.5 137.7 134 133.3 129.2 140.6 144.5 147.6 149 148.6 145.3 140.6 137.1 132.4 126.4 121 111.6 103.9 96.5 87.3 77.5 72.8 67.5 70.5 75.3 77.4 80.6 85.2 91.2 97.8 101.7 104.3 106.6 107.6 107.3 106.2 105.3 104.3 104.7 105.8 105.4 104.9 103.7 102.7 101.8 99.6 99.1 97.8 93.1 85.4 78.5 73.2 68.1 63.3 68.3 68 74.5 78.2 83.3 86 88.8 88.5 84.7 83.4 81.9 79.4 78.2 77.6 81.4 86.7 94 110.1 121.5 132.3 138.7 142.9 146.5 148 148.1 150.3 152.2 150.5 151.3 154.2 157.4 159.1 163.5 168.3 173.5 178.9 185.9 193.9 201.2 207.7 214.8 220.7 225.4 229.7 234.2 238.1 239.7 240.8 240.8 244.4 248.9 257.1 264.8
119.5 118.9 113.9 105.6 88.8 102.5 109.8 117.6 127.4 134 137.4 140 142.1 148.1 148.7 147.6 144.4 152.3 160 165 168.4 170.5 172.1 173.1 174 176.2 178.8 183.2 186.4 190.5 192.9 195 198.3 203.5 207.2 205.6 199.2 188.8 181.6 184.3 187.7 194.5 199.7 203.9 208.7 212.8 215.3 215.2 215.3 212.6 210.6 210.3 212.4 215 215.1 212.1 198.2 183.9 154.4 132.5 113.3 103.7 94.9 85 77 67.5 59 57 57.4 57.7 55.4 55.4 58.6 58.4 57.3 55 55.8 56 56.3 62.9 76.2 92.8 112.1 134 157.2 167.9 165.1 159.8 151 142.4 136.5 133.5 139.2 143.8 143.8 139.7 140.3 131.3 140.2 151.3 155.4 158.2 157.4 152.6 147.9 143.7 138.3 132 126.4 117.6 104.7 95 84 74.7 69.1 70.2 72.9 78.4 83.5 89.5 93.4 95.5 100.5 103.7 105.7 108.2 116.2 117.9 115.4 111.3 108.5 108.1 109 108.6 108.2 106.4 105.4 104.6 101.9 102 101.4 97.7 90.3 86.4 79.6 73.6 65.8 62.4 67.9 69.7 74.4 78 80.3 81.7 82.9 83.7 83.3 82.7 81.1 80.1 78.1 80.5 85.5 91.6 103.1 117 131.5 142.5 148.5 153.5 159.4 160.8 162.9 163.7 161.4 159.8 158.9 161.7 163.6 168.2 173.3 179.3 187.5 192.6 202.8 210.9 217.6 223.4 228.6 232.8 236.8 239.1 243.3 245.5 247 246.7 249.4 252.9 259.8 268.1
114.4 112.7 109.4 102.9 85.3 101.4 108.2 119 126.5 131.2 134.1 136.1 138.2 142.7 142.5 140 140.9 149.5 155.1 160.2 164.2 166.4 167.9 168.1 169.1 168.8 170.3 174 177.7 182 184.9 187.7 190.6 194.5 198.1 196.1 189.6 178.2 174.6 179.6 182.9 191.7 195.2 198.8 202.5 206.4 208.3 207.5 203.9 200.8 200.5 199 201.2 203.5 202.8 198.8 182.4 165.1 143 123.8 111.5 105 95.2 85.6 77.9 68.6 60.8 56.4 56.1 56.6 55.2 56.7 58.2 57.8 51.7 54.1 53.7 54.5 55.6 58.2 69.3 86.5 102.2 111.2 137.7 164.6 172.3 172.2 168.1 156.8 147.7 143.6 145.2 147.9 146 141.9 137.7 131.8 142.4 152.3 159.7 163.7 163.7 158.6 153 148.5 143 137.2 133 123.9 105.2 92.6 80.1 71.7 65.5 69.8 74.2 81.9 90 97.9 104.7 108.1 110.8 113 113.2 111.9 115.7 121.8 124.2 122.7 119.6 117.2 115.3 113.6 111.5 110.2 108.1 107.4 106.4 104.8 104.7 102.8 98.2 93.9 87.5 80.5 68.9 62.6 60.5 60.8 70.4 73.7 75.8 77.5 82 84 83.3 82.8 82.5 81.1 78.7 78.9 83.3 90 99.3 112.6 123.5 134.2 144 152 156.6 156.2 155.7 157.4 158.5 157.9 157.7 161.6 165.2 168.6 172 176.2 185.1 193.7 204.3 214 221.7 228.3 233.2 236.7 239.9 241.8 245.1 247.9 250.8 251.4 253.1 256.7 263.7 272
108.6 107.9 105.2 99.2 85.5 100 108.4 118.2 123.5 127.1 130.4 132.8 134.3 135.7 135.1 131.9 139.1 145 150 154.3 158.6 160.8 162.2 163.6 164 163.1 163.7 167.4 172 175.2 177.3 179.6 181.4 184.6 186.7 186.3 178.5 167.4 168.3 173 179.9 186.2 188.9 191 193.6 197.9 198.7 196.3 192.4 193 191.9 190.4 190.1 190.8 189.6 184.2 169.4 150.2 133.7 119.7 112.1 106.2 97 87.2 78 69 60.6 56 55.3 55.4 52.9 56.4 58.1 52.9 53.7 53.7 53.7 54 54.9 57.9 63 75.4 88.5 101.2 118.3 137.9 151.4 166.5 172 165.9 153.5 145 147.8 150.1 149.1 145.8 139.7 128.3 139.2 151.3 157.8 162.2 162.9 159.5 156.4 152 146.1 141.8 137.3 127.4 112.7 94.5 76.1 69.1 63.3 68.1 76.2 84.1 93.4 103.3 111.7 117 123.7 128.2 129 128.2 127.5 126.6 129.7 127.1 127.1 126.3 125.7 124.5 122.8 120.6 117.9 115.2 114.2 110.5 107.3 105.8 103.9 100.6 93.9 86 74.2 68.4 63.4 60.4 67.5 67.1 69.2 74 81.5 84.2 83.2 82.7 82.2 79.4 78.6 79.8 81.7 87.5 94.4 105.5 115.4 126.6 133.6 140.5 142.8 142.8 142.6 144.4 146.6 148.7 151.1 154.7 160.2 165.8 168.7 172.3 179.9 189.2 199.3 211 219.9 228 233.3 236.7 240.1 242.7 246.6 248.7 250.7 251.2 252.9 258.2 266.1 275.1
102.8 103.8 102.6 96.1 85 95.7 105.2 112.5 117.1 121.1 124.4 126.9 128.7 129.9 126.8 124.9 131.5 138.8 145.2 149 151.8 154.8 156.3 156.6 156.7 155.6 156.6 159.9 164.3 166.7 169.6 172 175.2 177.4 177.3 177.2 169 161.5 162.8 168.6 175.5 180.7 182.6 183.2 183.9 185.3 185.4 181.1 180.4 184.9 184.1 182.5 181.3 181.9 178.8 170.5 159.1 141 129.9 120 112.8 106.1 97.2 85.8 76.4 67.5 60.6 55.6 54.6 52 53.9 56.2 52.7 53.1 53.4 53.5 54.3 54 54.1 57.4 60.9 70.6 75.3 89.3 100.8 116 131.2 148.9 159.4 160.5 144.6 137.5 137.6 139.8 142 135.9 125.9 123.3 132.4 142.9 152.9 158.8 159.7 157.2 155.6 152.9 147.8 144.1 139.8 134.6 122.5 94.8 77.3 69 63.1 66.2 78.2 88.9 97.8 108.5 117.7 125.4 130.5 136.7 140.9 141.9 143 143.8 144.1 136.4 135.4 130.3 128.9 127.9 126.6 124.5 121.8 117.4 115.6 112.7 108.8 107.5 106.2 103.6 98.8 90.9 81.4 73.5 67.5 59.9 64 63.2 66 70.6 77.7 81.1 81.5 80.8 79.9 77.5 78.6 77.7 77.7 86 91.5 99.8 107.7 115.4 122.3 128.6 131.7 132.1 133.2 134.9 136.3 138 141.9 148.2 152.8 157.2 161.5 166.2 172.9 180.3 188.4 199.9 209.6 219.1 224.8 229.8 233.7 237.7 242.3 245.5 246.9 248.3 252 258.9 266.9 274.7
98.3 99.9 98.8 91.7 81 94 98.5 104.2 107.7 109.9 113.9 117.1 118.8 119.1 115.6 115 121.5 129.1 137.2 140.5 144.6 146.6 149.3 147.8 147.1 147.1 147.9 150.9 155.4 158.7 161.1 163.9 165.7 167.1 167.1 164.2 160.2 154.9 157.4 161.9 167 170.3 172.2 173.6 173 171.6 169.9 170.1 171.3 173.1 174 173.8 174.1 173.9 169.6 163.3 152.3 138.9 129.8 117.1 111 104.3 96.1 87 74.4 64.6 57.4 53.8 53.3 51.4 52.7 50.9 53.2 53.9 53.6 54.2 54.6 54.7 55.7 59 62.9 62.9 73.8 76 85.1 96 109.7 126.4 144.6 141.2 135.2 131.2 126.5 130.3 129.3 124.4 116.5 114.4 126.3 132.6 138 143.1 144 146 148.5 148.4 147.1 145.5 142.6 137.6 114.2 93.3 79.1 70.5 63.1 65.1 76.5 89 101.4 112.1 121.3 129.7 135.2 144.2 148.6 151.7 153.9 156.3 156.3 152.9 147.7 142.8 135.7 131.4 127.7 125.1 121.8 116.7 113.5 111.2 110.3 110.1 108.6 106.9 103 96.8 91.6 82 69.5 62.9 61 61.5 63.5 66.7 72.5 75.6 76.5 74.8 75.8 76 77.7 77.7 77.7 84.8 89.2 94.3 102.4 109.4 115.5 120.7 122.4 122.9 125.3 127.2 129.7 134 143 153.5 161.2 164 165.3 167 171.2 178.3 184.3 192.4 201.2 209.7 217.9 225.4 231.4 236.8 238.9 240.7 244.6 247.1 250.6 257.2 262.3 267.3
94.6 95.2 93.8 89.7 78.6 81.2 90.4 95.2 96.3 98 100.7 102.9 105 103.9 101.8 105.7 110.9 117.7 123 126.8 132.4 138.7 140.5 140.7 139.6 138.7 138.3 141.8 145.7 147.9 151.6 155 157.2 157.6 155.8 154.4 149.3 144.8 150.9 156.1 160.2 161.5 162.1 163.8 164.5 163.3 162.1 162.8 163.5 165.6 166.8 166.8 166.5 164.6 161.7 157.2 148.4 138.6 124.8 115.9 109.3 102.1 95.2 84 71.2 61.9 54.5 52.4 52.1 51.3 53.2 53.4 53.5 54.5 54.2 54.3 55.1 55.5 57.2 60 63.9 67.6 64.5 73 75.3 78.5 89.4 101.7 117.5 120 119.8 118.6 114.3 117.6 116 110.5 107.5 107.8 112.7 122.2 126.6 128.9 128.2 126.7 126.1 125.1 123.3 121.4 119.8 118.5 107.2 93.5 84.4 71.5 63 64.1 72.2 85.1 98.6 112.5 123.4 132.9 138.7 149.1 156.3 158.5 161.1 164.8 165.2 161.8 157.5 152.9 146.1 141.2 135.5 128.6 123 116.7 112.7 111.4 113.2 112.3 111 109.4 105.8 100.1 94.3 85.2 70.7 62.8 59.6 60.6 61.3 63.9 66.8 68.4 68.2 71 73.7 74.5 78 80.4 83 86.3 87.8 92.8 96.6 101.7 107.1 110.9 114.6 115.5 122.5 134.2 143.7 152.5 155.7 154.5 154.7 164.9 169.3 170.1 176 185.8 193.2 199.1 205.4 213.3 219.1 225.8 230.1 232.8 234.2 235.8 239.5 243.4 248.6 252.4 255.8 258.8
89.5 89.6 89.2 86.5 77.9 77 81.1 85.1 86.7 88.1 88.9 88.9 91.5 93.4 92.4 95.6 99.5 103.6 108 112.7 117.9 122.4 125.1 126.8 127.8 128.2 126.5 129.9 135.2 139.3 141.2 143.5 146.2 146.5 145.2 142.4 137.6 137.1 142.4 147.3 150.4 152 154.1 156 156.4 155.5 154.7 153.9 155.5 156.8 157.2 157.5 157.6 154.8 153.3 150.1 142.1 134.1 119.9 111.6 106 99.7 92.9 79.9 67.5 57.9 51.4 50.1 52.1 53.7 55.5 54.4 54.5 55.2 54.7 55.9 56.6 56.9 58.8 61.3 65.1 68.9 69.3 65.3 71.7 70.1 71.7 81.3 88.4 96 104 102.7 101.7 99.2 99.9 96.9 91.8 89 95.5 102.7 107.7 113.7 114 111.2 110.7 111.5 113.9 113.9 115.3 114 109.3 93.2 81.8 67.4 62.4 63 70.4 80.2 93.5 107.4 121 135.1 143.8 150.1 159.2 164.4 165.7 166.7 166.9 164.6 161.4 157.1 150.6 146.4 140.3 131.9 123.4 115.1 110.2 108.8 112 112.1 111.9 110.6 107.2 101.2 95.1 83.8 69.2 62.7 60.5 60.6 61.9 63.5 64.7 66.5 69.4 72.1 72.5 76.7 79 82.6 85.3 89.2 91 92.3 94.1 97.7 101.1 106.9 115 124.7 137.5 152.8 163.9 171.2 174.4 175.2 175.5 173.9 173.4 173.6 171.9 182.6 191.4 199.2 205.2 212.5 217.3 221.3 224.2 226.5 228.7 230.4 234.1 237.7 242.5 247.4 252.4 257.2
81.2 83.6 82.9 80 75.7 74.1 74 76 79.1 80 80.5 81.4 82.8 85.3 86.6 86.4 88.2 91.6 94.2 98 100.6 105.4 108.4 110.7 111 112.4 111.8 115.4 123 127.8 131.9 134 135.8 136.5 134.1 131.3 129 132 136.7 139.4 141.1 142.2 145.7 147.6 149 149 148.2 146.2 147 148 150 148.6 147.7 144.7 143 138.5 131.3 121.5 114.3 107.6 103 97.4 90.4 78.4 64.6 52.1 52.1 55.3 57.4 58.1 58.5 56.9 55.5 55.9 56.8 57.7 58.7 59.8 61.1 63.7 67.4 69.7 70.2 68.9 68 66.4 67.7 70 75 79.4 83.5 81.6 82.2 84.1 84.1 82.9 83.4 84.2 86.3 86.3 88.8 92 92.3 91.9 93 94.1 97.8 98.5 102.3 103.4 102.5 85.1 71.6 64.3 61.8 62.2 67.5 75.4 87.8 101.2 113.4 126.2 135.1 144.1 154.8 161.8 163.9 165.8 166.9 165.4 163.3 159.5 154.3 150 144.3 133.5 123.4 115.7 107.7 105.1 108.3 109.9 110.4 109.3 106.8 98.4 91.1 81.4 68.1 61.9 60.5 60.7 61.4 62.6 62.9 66.5 67.8 72.8 75.7 82.8 87.3 88.8 92 96.1 95.2 94.2 95.4 99.8 105.2 113.3 124.1 137.9 152.2 164.2 173.4 179 183.1 186.4 188.9 189.8 188.9 186.4 184.6 184.7 187.3 195 199.7 205.2 209.7 214.7 218.9 223.5 227.5 230.8 234.4 237.5 244.8 252.2 257.4 261
74.8 76 76.2 73.7 71.9 72.7 73.2 73.3 73.2 73.7 74 75.5 77.9 80.6 81.1 81 80.8 81.7 82.7 85.8 88.7 91.8 94.3 94.5 94.8 94.9 96 99.7 106 112.3 118.1 123.5 126.4 125.6 123.9 123.1 121.1 126.2 129.5 132.3 133.7 134.6 136.8 138.1 140 141.4 140.8 140.4 140.4 139.3 138.9 138.7 136.1 133.4 130.1 125.2 119.1 113.7 107.3 101.2 96.9 92.4 85.1 75.3 62.1 50.3 56.1 60.5 61.3 58.6 60.6 59.9 59.5 57.9 58.5 61.1 62.7 64.4 65.6 66.8 68.3 71.5 71.9 70.1 66.9 65.4 66.1 66.3 67.5 70.1 69.3 71.8 72.3 76.6 78.1 80.4 83.8 84.5 85.2 81.9 80.1 77.2 74 74.5 75.9 78 79.3 81.1 85.2 85.7 81.4 71.3 64.1 61.6 61.4 60.4 63.7 71.5 81.3 93.6 104.1 112.7 121 129.3 140.7 153 161.5 164.4 164.8 162.4 160.3 157.3 153.6 150.8 142.4 130.5 122.6 114.2 105.5 102.6 104.8 106.9 107 106.2 104.9 97.7 87.8 79.7 66.5 61.1 59.6 59.9 60.3 61 65.5 67.4 70.5 77 83.7 90.3 97 97.6 98.4 100.9 98.9 93.9 94.4 100.7 106.7 115.4 129.7 145.2 156.9 167.2 175.6 182.5 188 192.6 195.9 200 200.6 198.8 196.2 193.2 192.7 193.5 198.8 204.4 210.8 216.1 221.2 224.5 229.1 230.3 232.9 235.8 243.6 251.6 256.2 257.5
67.2 67.3 66.5 67 67 68.9 70.4 72.8 72.9 72.7 72.7 73.3 74.9 76.7 76.6 76.2 75 74.2 73.1 74.5 76.1 76.1 77.5 80.8 82.2 83.3 83.1 84.7 88.5 94.4 100.9 105.7 109.9 113.7 114.5 114.1 115.2 119.6 122.3 124.8 127.6 128.7 129.8 130.9 131.9 132.1 132 131.6 129.5 128.6 127.4 126.1 122.2 120 117.6 114.3 110.5 105.8 100.3 93.2 88 83.1 78 68.6 57.1 52.3 63.9 67.9 66.7 58.8 64 63.9 64.3 64.3 64.7 68.7 70 70.3 69.7 70.8 67.5 69.4 71.8 69 65.4 63.7 64.4 65.2 63 62.7 64.9 70.3 69.5 73.6 78.3 82.1 85.1 87.4 86.2 83.4 79.3 76 71.2 69.8 68.5 68.4 68.5 67.5 69.7 73.1 69.4 63.4 60.1 59.7 58.6 59.4 62.7 67.8 74.9 83.6 91.7 100.4 107.3 114.2 122 131.6 137.4 147.8 153.8 157.8 156.1 154.5 150.5 146.3 142.5 138.5 131.6 119.1 109.4 101.9 102.1 104.4 104.3 102.8 99.7 94 85 76.2 64.2 60.3 59.5 59.4 59.9 62.4 67.7 67.4 71.7 81.6 92.3 98.3 103.6 111.1 110.4 107.3 99.9 94.4 93.5 97.9 104.3 115.5 129.3 144.3 157.2 166.1 172.9 180.7 188.2 194.2 199.4 203.7 204.3 204 202.4 198.1 197.4 198.2 199.6 202.9 207.8 212.1 216.6 219.9 223.2 226.9 229.9 232.6 236.8 243 247 248.5
65.2 66.5 66.2 66.5 67.7 67.5 67.3 68 67.9 68.3 67.3 68.5 71.4 73.4 74.6 73.4 72.8 71 70.7 70.3 69.3 68.7 71 72.5 73.7 73.9 73.8 75.2 75.9 78 85.1 89.9 93.6 96.1 97.7 93.7 105.4 110.9 114.9 117.8 120.8 121.6 122.9 123.7 124.1 124.2 123.5 121.9 122.1 120.1 119 116.7 113.3 110.7 108 105.7 101.7 96.4 90.2 82.7 77.1 71.8 66.3 59.8 53.1 53.6 67.1 72.2 71.7 63.7 67 69.2 68 68.5 70.3 72.6 71.9 71.8 71.2 70.7 66.6 65.8 65.3 63 61.7 62.9 63.1 63.1 62.2 60.5 62.5 60.1 61.7 72.8 77.1 83 86.8 88.5 88.2 86.3 82 78.9 73.7 71.1 66.8 64.8 63.9 63.4 62.6 65.2 62.1 59.3 58.1 58.3 58 60.2 63 67 71.2 76.2 82.1 87.9 91.6 96.5 104.3 117.5 127.1 137 144.4 144.4 144.1 142.6 138.1 138 138.4 134.6 127.8 114.9 107.3 100.4 97.9 99.2 100.1 99.9 96 90.2 84.1 74.2 62.6 59.3 59.4 59.4 61.1 67.6 67.8 68.4 73.3 77.3 87 106.6 107.4 115.1 114.3 113.5 104.8 96.5 93.5 96.2 101.5 109.2 120.4 131 140.3 148.6 155.8 163.1 170.5 177.1 187.9 196 201.3 204.8 205.1 204.1 203.1 203.9 205.2 208.6 211.5 214.1 216.9 217.3 218.7 222.2 225.2 230.2 233.3 237.2 238.9 238.8
63 64.4 65 66.4 67.5 67.8 67.4 66.8 66.9 67 68.3 69.6 71.8 73.2 70.2 67.4 70.5 72.6 70.4 68.4 67.2 67 65.9 67 66.7 66 67.2 66.3 67.1 67.2 69.1 73 77.7 80.5 83.6 85.9 95.5 101.5 105.1 107.6 109.2 112.5 114.2 115.1 115.4 115.4 114.5 112.9 111.2 111.1 109.4 106.3 104.1 102.2 99.7 95.9 90.8 84.4 79.1 73.9 68.3 65.1 59.2 55.7 50.5 52.4 63.8 68 72.2 66.8 68.9 69.7 69.5 69.8 73.4 74.3 71.9 71.7 69.2 67.6 65.2 63 61.2 60.9 61.6 61.9 62.2 61.1 62.1 57.6 57.4 57.7 58.6 66.1 76.7 84.5 88.5 90.7 90.1 87.5 85.2 81.2 76.9 73.2 69.7 67.2 64.7 62.1 60.5 60 59.8 56.5 56.6 56.5 58.1 58.6 62.4 64.9 68.5 72.1 74 77.4 79.8 80.5 86.5 96.3 108.8 124.6 135.6 137.8 137 135.7 134.6 135.9 135.3 130.4 124.3 118 110.6 100.8 95.2 96.4 95.7 95.7 91.4 86.1 81 70.3 60 57.3 65 66.9 68.3 67.4 69.1 69.5 72.5 82.1 96 107.7 110.6 114.4 115.7 114.4 110.7 100.3 93.9 97.5 101.6 104.8 113.9 118.7 123.8 131 139.2 146.8 153.9 159.6 165.1 169.3 171.3 175.5 180.9 185.9 192.3 195.7 198.1 199.9 204.3 206.5 211.9 213.1 211.7 209 213.3 215.6 219.4 221.7 219.7 220.5
62.7 63.4 64.1 64.8 65.9 66.3 66 66.1 67.2 69.9 73.5 76.3 77.2 78.6 78.4 78.1 77.7 74.8 72 71.2 68.5 66.6 64.9 64.7 63.7 62.7 62.4 61.6 61.9 60.4 59.5 60.6 61.8 66.9 68.6 71.1 79.4 87.7 92.9 95 97.7 100.6 103.7 104.5 105.3 105.5 103.5 99.1 98.4 101.2 99.2 97.4 95.3 92.9 90.9 85.4 78 73.8 69.9 65.3 61.2 59.3 56.6 53.9 50.7 51.4 61.5 64.1 67.6 67.6 68.2 68.6 66 66.8 69.5 72.4 70.2 68.9 65.4 63.9 61.7 61.3 60.6 60.3 61.4 62.2 62.8 61.1 60.1 60.7 56.6 56.1 56.4 57.9 70.2 77.2 83.6 88 89.6 87.2 85.4 82 77.3 73.9 72.1 69.6 66.2 60.7 57.8 56.6 56.1 55.2 55.6 62.3 59.4 55.6 58.6 58.6 61.4 65.2 66.6 67.2 68.4 69.9 75.3 85.2 94.2 103.6 114.2 121.2 121.8 122.6 125.8 133.2 131.9 126.9 119.8 114.6 106 96.7 87.8 89.5 88.1 86.7 81.3 77 72.5 65.8 59 62.3 66.5 68.5 68.6 69.1 69.5 70.1 81.4 94.4 103.7 107.9 112.1 117.1 117.7 110.7 105.7 97.7 94.2 98.5 103.1 106.6 110.2 114.4 118.6 122.3 127.6 133.8 140.4 146.4 151.6 154.7 158.2 160.6 164.7 167.9 172.1 175.4 178.2 181.4 183.6 187.2 191.1 194.1 195.4 195.1 196.9 199.4 201.5 203.9 204.6 204.1
62.6 63 64.1 64.8 65.7 65.5 66.6 70 74.1 78.1 82.2 86.1 88 88.7 86.5 82.8 79.5 75.2 74.8 75.4 75.9 76.8 75.7 74.6 73.6 69.2 69.2 62.1 59.8 58.6 57.7 57 56.7 58.8 61.7 62.4 64 67.2 73.2 81.4 85.8 90.1 92.4 94.9 96 95.6 93.8 92.5 88 87.4 88.9 88.4 85.9 83.6 80.3 75.2 70.5 64.8 61 59.3 56.8 56.3 55.8 53.5 48 51.1 54.9 59.6 61.8 61.3 61.1 62.9 60 59.8 60.5 60.7 61.5 60.4 61 61.7 61.2 60.9 59.4 59.8 62.8 63.8 63.5 61.3 59.1 58.7 58.9 55 55.4 55.9 61.2 70.7 76.9 82.3 85 82.6 83.9 81.5 78.4 74.8 73.1 69.4 65 57.6 55.7 55.4 54.8 54.4 56.1 56.5 54.3 53.4 54.2 53.6 53.4 54.9 55.3 55.2 55.4 56.3 61.9 72.7 85.2 98.6 103.7 106.1 106.6 107 110 114.6 115 111.6 106.5 101.5 95.3 87.9 78.7 81 80.1 79 75.4 71.4 66.8 61.5 58.5 60.4 65.9 67.9 68.1 64.6 66.4 72.6 81.9 92.2 102.4 105.8 109 110.5 111.3 106.1 98.5 96.3 93.9 98.4 104.4 108.1 111.8 115.1 116.7 119.4 123.2 128.4 132.5 137.2 142.1 147.5 151.3 153.7 157.3 160.6 164.3 167.9 170.7 173.4 176.6 179.6 182.7 185.7 187.5 189.8 192.8 195.3 197.3 198.2 197.9 197.2
61.5 62.3 63.7 66.6 66.4 68.5 71.9 76.1 82.6 89.5 94.9 96.5 95.4 92.3 87.8 83.8 80.8 80.2 80.5 81 82.2 82.2 81.9 81.3 80.4 76.2 73.8 71.6 68.1 63 60.3 58.2 56.5 56.7 57.3 56.9 56.3 59 62 66.7 71.9 77.4 79 80.8 82.5 84.6 83.6 82.8 80.7 77.3 78.7 78.9 77 74.9 71.9 69.1 63.9 58.7 58.1 56.9 52.9 55 54.2 52.9 50.7 49.7 53 53.9 54.4 54.8 55.3 55.2 53.4 53.8 54.2 56.5 59.7 60.7 61.4 62.5 62 61 58.8 60.1 63.3 63.8 63.4 62 59.5 57.8 57.3 57.4 54.4 54.7 57.3 62.7 71.5 76.2 76.6 76.9 78.5 77.4 74.7 73.2 71.5 67.2 57.7 55.3 54.2 53.8 53.7 53.8 54 54.2 53.2 52.7 52.5 51.8 51.2 51.1 51.2 50.9 51.9 52.6 53.5 56.9 67.9 82.7 89.1 91.5 92.1 93.9 97.9 102.4 102 99.1 94 90.6 85 78.4 71.1 72.9 72.4 71 67.4 63.6 62.2 58.7 58.1 59.1 59.8 63.6 61.5 62.3 63.4 68.6 75.2 83.8 94.3 98 102.5 102 102.1 96.9 93.1 90.4 93.4 99.6 106.3 110.4 113.5 117.1 118.8 120.3 122.3 124.4 127 130.5 134.6 138.3 143.2 146.8 148.9 153.2 158 162.5 166.2 169.9 174.6 178.3 181.1 183.1 185 187.9 190.2 192.3 193.9 192.9 190.9 188.7
62.8 64.8 68 69 71.2 74.8 79.4 84.1 91 96.5 100.4 98.7 94.6 91.3 85.5 85.1 85.2 85.9 87.3 89.4 89.4 90.3 89.6 88.5 86 81.6 79.3 77.6 74.1 71.6 69 60.4 58.7 55.6 54.1 53.7 53.6 54 56 59.5 63.8 67.3 68.1 67.8 70.3 72.5 73.3 72.3 70.6 68.6 72.4 71.6 67.6 67.8 67.3 62.4 57.7 58.3 55.7 51.4 51.1 51.3 52.8 51.3 50.4 47.8 50 51.2 52.4 53 52.6 52.2 51.7 51.5 52 56.4 59.7 60.9 61.4 62.6 62.3 60.8 58.2 61.2 63.1 63.6 63.4 62.2 59.1 58.6 55.9 56.1 55.1 55.2 57.8 58.7 67 69.7 71.3 71.2 69.9 67.4 67.2 68.1 67.4 63.1 55.1 53.2 53.3 53.3 52.6 52.6 52.5 52.4 51.8 51.4 51.1 50.8 50.6 50.1 50.5 50.7 50.9 51.4 51.8 52.8 58 65.6 70.8 72.3 73.6 73.2 78.2 85.4 85.4 79.1 76.3 74 71.4 68.9 66.2 64.2 63.1 60.6 59.1 58.6 58.6 59 59.3 60.1 61.4 63.3 62.7 63.3 64.6 67.4 70.4 73.3 79.1 83.6 88.1 90 91 89.6 88.8 91.2 95.3 103.3 109.3 112 115.2 118.8 121.6 123.4 124.7 126 127.5 130.2 131.7 134.6 138.5 140.9 143.7 147.2 150.9 155.8 159.7 163.4 167.8 170.9 174.6 177.5 180.2 182.3 184.9 186.9 188.2 188.2 186.5 183.7
67.4 69.4 70.9 73.3 75.7 81 87.8 92.1 96.4 99.7 99.5 95.3 90.4 87.3 87.2 88.8 90.8 94.4 98.1 100.4 100.8 99.9 98.9 97.1 95.3 91.8 87.7 83.6 80.2 76.9 74 69.7 63.7 57.4 54.2 52.8 52.3 51.7 52.4 54.4 57.1 58.9 59.2 59.1 59.7 60.5 62.7 62.7 63.5 63.9 61.6 59 57.4 55.8 55.6 54.4 53.2 51.9 51.5 51.2 51.2 51.2 51.4 51.2 50.6 50.2 49.3 50 51.5 52.5 52.1 51.4 51.1 50.7 51.7 54.4 58 59.1 60.5 61.8 61.7 59.5 57.4 61.1 63.6 63.3 64 61.8 60.8 58.7 55.3 55.2 55.5 54.6 57.8 57.5 58.8 64.4 64.3 65.7 62.1 61.8 60.1 60.1 61.4 56.9 52.8 52.2 52.5 52.6 51.8 51.4 51.8 51.6 51 50.6 50.8 50.5 50.4 49.7 50.1 50.6 50.9 51.2 51.2 51.7 54.7 58.7 61.2 62.3 62.5 64 67 69.3 69.3 66.6 63.9 61.6 60.6 58.8 58.8 58.7 58.1 57.2 57.6 57.7 60.4 61.2 61.7 65.4 66.5 67 65.9 64.9 65.3 67.6 69.1 70.6 74.4 78.2 80.8 82.2 82.8 85.9 88.3 91.3 99 107 111.1 113.5 116.5 120.4 124.5 127.3 128.9 130.2 131.1 132.9 135 137 138.8 141.2 143.5 146.9 150.9 155.1 157.1 159.5 163.1 166.7 170.5 173.2 176.1 179.3 182.2 185 187.3 186.7 184.6 181.5
69.9 72.7 76 79 84.7 90.9 95.6 97.8 97.6 97.4 94.6 91.3 88.9 90.5 92.5 95.1 99.2 105.6 109.3 111.6 113 111 107.6 103.9 99.9 96.4 92.5 88.5 86.2 83.9 79.8 75.5 68.7 61.7 58.4 52.8 52 51 51 50.7 51.6 55.1 56 56 54.6 53.7 54.3 56.4 57.2 57.7 54.9 55.2 55.1 55.2 55.5 54.9 52 51.5 51.3 51.1 51.3 51.1 51.1 51.1 51 50.7 50.1 46.5 50.7 51.4 50.4 51.2 50.7 50.6 50.8 52.2 55.2 56.5 57.9 59.1 59 57.3 56.5 60.1 61.3 60.3 59.6 60 59.1 58.4 54.7 54.4 54.1 54.8 52.1 52.5 53.1 57.4 58.2 59.3 59.2 57 55.9 56.3 54.7 53.3 51.6 51.5 51.9 50.8 50.8 50.7 51.1 51.2 50.5 49.9 50.1 50.2 50.2 48.2 48.4 49.3 50.5 51.1 51.3 51.7 52.3 54.2 55.6 55.9 56.8 57.1 59.2 61.4 64.7 62.8 57.3 56.7 56.1 55.9 56.3 56.7 57.6 58.8 58.4 60.7 62.3 63.4 66.4 67.5 69.4 70 68.9 67.2 66.8 68 69.4 71.6 72.5 74.7 76.9 78.9 81.4 84.3 86.9 91.9 102.3 110.3 112.9 115.2 118 123.3 127 130.6 132.2 133.5 134.9 136.6 138.3 140.8 143.4 145.9 147.6 150.8 154.5 157.7 159.3 161.1 164.4 167.2 169.7 172.8 176.4 179.3 182.1 184.9 187.6 188.2 186.9 181.8
72.6 76.9 83.6 88.7 91.1 94.1 96.5 96.2 94.5 94.1 91.9 91.1 94.2 96.8 100 103.6 108.3 113.4 115 116.8 116.3 113.8 110 105.2 101.4 97.4 93.7 92.2 90.3 87.6 83.9 79.5 73.9 67.3 61.9 56.8 55.4 50.5 50.3 49.8 49.8 49.8 49.3 49.6 50.4 53.2 52.3 52.8 54 53.4 54.4 54.8 54.4 54.6 53 52.3 51.5 51.4 51.6 51.4 51.2 51.1 50.9 50.9 51.1 51.3 50.6 49.2 49.9 50.1 50.5 50.8 50.6 50.4 50.4 50.9 51.7 53.5 54.8 55.4 55.2 54 53.2 56.4 56.3 55.2 55 55.6 54.1 54.5 54.3 53.9 53.4 53 53.9 50.6 51.3 49.9 49.4 50.9 51.8 53.6 52.2 51.9 52.8 51.4 50.5 50.9 51.1 49.8 49.3 50.1 50.4 50.8 49.9 48.9 49.2 50.4 53.7 55 52.8 49.6 49.6 51.3 51.6 52.1 52.6 53 53.4 53.6 53.9 54.1 54.5 55.7 56.2 55.6 54.9 55.3 56.2 57.3 57.8 57.9 58.2 57.8 60.2 63.5 67.3 70.6 71.3 69.9 68.1 70.9 71 69.7 69.4 70.1 71.9 73.9 74 74.7 77 78.6 81.1 83.6 86.4 94.6 105.1 112.1 114.3 116.4 120.1 126.1 129.7 131.9 134.9 136.4 138.8 141 143.5 145.2 148 150.4 152 155.5 158.9 161.4 163.1 164.9 167.7 170.2 172.3 175 178.5 181.7 183.7 186.3 189 189.8 187.1 182.5
75.8 79.6 83.7 90.2 95.2 94.8 92.2 92.1 91.7 91.6 93.8 96.6 99.9 103.1 108.5 113.3 116 118.5 118.8 118.1 115.8 113.3 109.8 104.7 100.6 97.3 95.4 94.3 93.1 91.2 87.2 82.5 77.4 72.1 65.7 60.7 55.2 53 55.5 48.5 48.6 48.6 48.4 48.3 48.3 48.2 49.3 49.7 51.4 50.8 54.3 54.4 53.7 53.7 51.7 49.7 50.4 51.2 51.1 51 50.9 50.3 50.1 50.2 49.9 50.4 49.3 48.6 46.8 49.7 50.1 50.7 50.5 50.3 50.2 50.2 50.2 50.7 51.1 51.4 51.2 50.4 50.6 51.3 51 51.1 50.5 50.1 49.9 49.7 48.9 47.7 47.7 47.8 49.3 47.9 47.2 46.3 45.1 46 47.5 50.6 48.7 49.3 49.7 50 49.6 50.3 49.9 49.5 48.7 49.5 50 49.1 49.1 49.2 50.5 55.1 58.3 59.9 57.3 55 49.6 50.5 51.9 52.4 52.6 52.9 53.2 53.6 53.8 53.9 54.1 52.2 55.5 56.1 57.6 60.7 62.9 64 60.3 66.4 65.9 65.4 67.5 69.9 74.9 79.2 81.9 78.9 74.4 71.9 72.2 73.6 74.7 76.5 75.7 76.9 76 75.3 76.6 78.1 81.2 83.4 86.3 96.2 106.6 111.9 114.8 117.5 121 126.2 130.1 133 136.4 140 142.6 145 147.5 149.4 152.4 154.5 157.1 159.9 163 165 166.8 168.6 171.2 173.3 175.3 178 180.7 184.1 186 188.5 191 190.6 187.4 183.1
79.2 82.1 85.4 89.5 90.6 91.7 92.7 92.5 93.1 95 98.4 102.1 105.7 109.5 112.3 118.1 121.7 121.9 120.6 118.1 115.2 110.8 106.8 103.1 100 97.8 96.2 95.9 94.8 93.2 89.9 84.8 79.5 73.9 68.2 63.7 59.6 54.7 50.6 50 54.6 52.3 47.8 47.7 48 48.1 48.5 49.2 49.3 49.3 48.9 48.7 49.7 49.9 50 49.8 49.4 50.4 51 51 51 50.1 49.5 49.7 49 48.8 48.7 47.6 48.9 48.9 49.5 50.5 50.4 50.2 49.5 50 50 49.9 49.2 48.8 48.7 48.5 48.1 47.7 47.7 47.7 47.1 46.8 47 47.5 47.5 47.4 47.1 47.1 47.9 48.5 53 44.9 46.4 46.5 47.6 48.6 48.4 49 49.4 49.6 51.7 50.4 49.2 48.6 48.7 49 48.8 48.9 49.4 49.5 54.1 59.2 62.6 64.2 63.2 59.1 56 52.8 51.6 50.9 52.2 52.8 53 53.4 53.4 52.2 52 55 57.9 60.8 64 66.6 68.6 69 67.3 67.5 70.1 72.2 73.8 77.4 82.3 86.8 87.4 85.2 81.6 79.2 78.1 79.3 82.3 84.5 82.4 79.4 79.9 78.1 77 77.9 81 83.3 86.7 97.2 106.8 111.3 114.5 117.8 121.1 125.6 130.4 136.2 139.5 143.6 147.1 149 151.1 153.2 156.4 158.6 162.3 165.2 167.1 168.6 169.9 172.2 174.1 176.1 178 181.5 184.9 187 187.9 189.1 189.3 189.6 187.5 185.6
82 84.2 85.8 86.3 86 88.4 92.2 93.4 95.9 98.5 102 106.9 110.5 112.7 115.2 119.1 122.4 122.7 121.4 117.1 112.4 107 103.1 99 97 95.1 95.6 96.3 95.9 94.2 91.5 86.3 81.4 76 72.9 69.2 65.6 59.7 51.9 50.6 50.3 49.7 49.6 53.4 47.5 47.7 48 48.1 48.2 48.1 48.3 48.6 48.9 49.3 49.2 48.7 48.7 49.2 50.6 50.9 50.9 49.6 49.2 49.3 48.6 47.9 47.3 47.5 50.9 49.2 49.8 50.3 50 49.7 49.6 49.5 49.7 49.4 48.8 48.4 47.5 48 47.9 47.8 46.6 46.3 45.7 46.7 46.9 47.5 47.4 47.4 47 46.8 47.8 47.3 53.9 53.9 53.6 53.4 53.6 47.7 52.3 51.7 50.6 48.7 48.6 49 48.8 48.3 49 49.2 49.3 49.2 50.6 53.5 57.1 62.1 66.1 68 67.2 63.7 61.2 57.3 52.6 52.9 52.5 53.2 51.6 53.4 53.3 54.2 56.4 58.9 62 64.8 68.2 71.4 74.3 73 72.1 71.3 74.3 77.3 79.5 81.7 84 87.8 87.8 86.5 83.9 82.5 80.8 83.5 87.9 88.4 88.6 86.3 84 82.2 78.8 77.7 80.6 82.9 87.6 97.2 105.9 110.5 114.4 117.8 121.7 126.1 133.9 141.2 145.7 148.7 150.9 154.5 156.8 158.3 160.1 162.6 166.9 169.8 171.2 172.8 173.5 175.4 176.6 178 180 181.8 183.7 186.1 186.6 186.5 186.5 185.7 184.4 184.9
81.6 82.1 83.4 84.2 86.1 88 91.1 94.6 98.4 102.2 106.9 110.7 112.7 114.2 116 117.5 118.2 117.6 116.1 113.4 107.6 100.7 98 94.9 93.6 93.4 94.5 95.9 95.6 93.7 90.7 86.8 82.6 78.5 74.1 69.9 65.6 58.3 53.2 51.1 50.4 49.5 49.1 49.2 48.6 52.7 47.7 47.8 47.8 48.2 48.1 48.3 48.4 48.8 48.4 49 48.9 48.3 48.7 50 49.9 49.4 47.9 48 48.2 48 47.8 47.6 46.8 48.7 48.9 48.8 49.1 49.4 49.3 49 49 48.7 48.8 47.8 47.2 47.8 47.9 48 46.1 46.7 47.4 46.9 45.1 45.2 47.1 48.4 49 47.9 47.9 51.3 53.9 54.1 47.9 47.7 47.7 47 47.6 47.7 47.9 45.9 46.7 48.5 48.7 48.4 49 49.1 49.6 50.7 52.6 55 59.4 64.4 67.8 70.6 71.2 68.2 65.8 64.2 61.3 58.2 55.8 56.5 56.6 56.1 56.6 57.2 59.7 62.8 66.2 69.2 72.8 75.7 78.9 79.7 75.9 74 76.8 79.9 81.6 83.7 85.1 87.2 86.7 84.8 82.5 82.1 84 85.8 86.6 87.1 88.9 88.4 87.3 85.3 80.8 77.7 79.8 83.3 90.5 98.8 105.3 110.4 114.6 118.9 122.2 126.7 133.1 140.5 148.3 156.4 160.6 163.5 165.8 167 167 168.5 169.8 171.2 171.7 173 174 175.5 176.5 176 177 178 180.2 181.4 182 181.1 180.1 178.8 179.6 178.1
81.2 82.1 83.5 85.3 87 89.5 94 98.2 101.7 106.2 110.2 112.9 114.8 116.8 116.7 116.4 114.3 113.2 112 109.2 103.7 97.8 95.7 93.7 93 93.2 93.7 95.2 94.7 92.4 89.5 85.5 81.5 77.6 72.9 66.7 61.3 56.7 52.8 50.3 50.2 49 48.6 49.2 48.5 47.7 47.5 49.3 47.8 48.9 48.8 48.6 48.1 49 48.2 48.4 48.6 48.3 48.3 48.2 47.5 47.5 47.4 47.7 47.8 47.9 47.9 47.9 47.5 47.9 47.7 48.1 48.1 48.6 48.8 48.6 48.4 48.3 48.7 47.7 47.5 47.2 46.6 47.9 45.5 45.5 45.5 45.3 45.4 45.7 45.5 45.8 46.4 47.2 47.3 47.3 47.7 47.3 47.4 45.1 47.5 47.7 47.5 47.8 48.1 48 48.3 47.9 48.3 48.2 49 50.2 51 52.3 54.5 56.7 61.4 65.8 69.3 72.3 73.7 72.9 72.5 71.4 69.2 64.4 60.9 60.7 60.7 61 61.5 62 63 66.4 71.7 76.1 77.8 80.9 83.2 83.5 78.7 74.6 76.9 80.9 83.1 84.4 85.7 86.3 85.5 83.3 79.5 78.2 80.2 81.6 83.5 87.1 90.3 91.1 90.7 89.1 83.7 78.6 79.9 85.2 93.4 104.6 110.4 117.6 122.9 123.8 125 127.5 131.6 140.5 147.9 154.5 160.6 164.1 165.9 166.5 166.9 166.2 167 167.8 167.8 168.4 168.3 168.2 168.1 168.2 168.6 169.6 171.5 171.9 173.3 174 173.5 173.4 172.7 171.5
82.2 82.7 84.4 86.4 89.3 93.1 97.7 102.3 106.1 109.5 112.6 115 117 117.4 117.1 115.4 113.5 111.5 108.8 105.2 100.1 96.3 94.5 93 92 92.1 93 94.1 93.4 91 88.1 84.1 80.1 75.6 70.5 63.8 59.2 55.6 53 51.8 51.1 50.6 50.7 50.7 49.5 48.1 47.3 47.3 51.5 49.7 49.4 49 49.1 48.2 48 48 48.1 48.2 48 47.8 47.7 47.6 47.2 47.3 47.4 47.4 47.6 47.8 45.6 46.7 47 47.4 47.8 47.6 48.6 47.7 48.2 47.7 48.2 47.7 46.6 46.1 45.9 45.2 45.2 45.2 45.4 45.2 45.3 45.4 45.9 45.8 46.2 45.3 46.9 47.8 48.2 49 49.9 55.1 48.6 48.3 47.9 48.7 49.5 49 48.9 49.6 50.1 49.1 48.6 50.5 52.2 54.3 56.4 58.4 62.5 66.7 70.1 73.1 74.9 75.4 75.9 75 74.1 69.5 65.1 64.5 63.9 64.7 65.7 66.6 67 71.9 76.1 79.3 83.2 84.7 86.4 83.9 79 73.8 75.2 79.6 82.7 83.3 83.8 84.3 83.8 81.3 76.9 75.8 77.2 79 83.5 87 90.5 93.4 93.5 91.6 86.3 80.2 79 84.1 93.1 105.8 115.6 124.9 131.1 132.5 133.3 132.7 135.5 140.2 147.7 153.3 158.5 161.5 162.6 162.7 162.9 163.1 163.1 163.7 164 164.5 163.2 162.4 162.6 163.6 164.5 165.4 166.6 167.8 168.8 168.9 169.3 168 168.1 168
83.1 83.4 85.6 88.2 92.6 96.8 101.3 105.6 108.8 112.1 114.2 115.9 116.8 117.3 115.7 114 111.6 108.5 105.5 102.7 99 95.9 94 92.6 91.3 91.4 92.3 92.2 91.9 89.3 86.1 82.6 77.9 72.6 66.8 63.6 61.7 58.6 55.4 53.9 53.4 54.3 54 53.2 52.1 50.5 47.9 46.8 47.5 49.8 49.7 49.5 49.6 48.5 48.2 48.1 48 48.4 48.2 48.1 47.9 47.7 47.3 46.9 47.2 47.4 47.6 47.5 43.5 46.4 46.5 46.8 47.2 47.5 48.7 48.1 48.3 47.2 47.3 46.5 45.6 45.7 45.7 45 44.9 45.1 45.2 45.1 45.1 45.6 46.2 48.3 50.1 51 51.4 52.4 53 53.7 55.5 55.6 54.7 51.2 51.1 53.5 55 54.4 53.2 53.8 54.2 52.3 48.9 49.8 52.1 55.9 58.2 60.2 63.6 67 70 72.9 75.3 77.1 78.1 77.8 76.3 71.6 67.6 66.9 66.7 68.7 70 71.2 72.2 75.3 78.4 81.2 83.4 84.9 86.3 83.1 78.3 73.2 72.9 77.7 80.1 81.1 81.5 82 81.8 79.5 75.8 74.1 74.8 76.9 82.8 87.3 90.8 94.6 95.5 94.1 90.6 83.3 79.4 80.6 87.8 100.9 115.1 129.5 137.8 141.7 143.9 144.4 143.2 144.7 148.7 154 157.1 159.6 160.4 160.2 159.4 158.6 159.3 160.3 161 161.5 160.4 159.4 159.7 159.9 160.5 161.2 162.6 164.4 166 165.3 164.6 164.4 165.5 166.3
86 85.2 87.2 92 96.4 100.3 104.8 107.7 110.5 112.6 114.3 115.8 116.5 116.1 114.5 112.2 109.5 106.3 103.1 100 97.2 95.6 94.1 92.6 91.4 91.2 91.1 90 88.4 87 84 80.8 76.4 72.2 68.5 65.6 62 58.4 56.1 55.7 57.9 59 58.2 57.2 54.7 52.6 50.7 48.7 47.3 47 47.4 49.6 49.2 47.8 48.2 48.2 48.1 48.3 48.6 48.3 48.2 48 48.1 47.2 47.2 47.5 47.5 47.3 47.3 46.7 46.9 47 47.1 47.1 47.5 47.5 47.2 46.5 46 45.7 45.2 45.5 45.4 44.9 44.9 44.9 45 45.1 43.7 48.2 51 53.3 54.7 55.8 57.3 61.3 62.2 63.1 62.8 62.2 57.2 55.7 55.9 57.3 58.3 57.5 56.3 56.4 56.1 53.8 49.4 49.8 53 57.1 59.5 61 64.1 66.8 69.8 72.7 75.6 78.1 79.8 78.5 75.1 71.1 68.8 67.9 69.8 72.2 72.9 73.4 72.6 74.8 77.4 80.6 82.8 84.3 85.4 82.1 77.3 70.8 71 75.9 78 78.6 79.1 79.6 79.8 78.1 75.1 72.4 73.5 76.1 81.3 86.6 91.1 94.6 96.2 95 92.4 86.2 82.1 79.1 82.6 92.8 106.4 123.6 139.6 145.8 148.6 149.4 149.6 148.1 151.4 154.8 156.7 158.2 159.3 159.1 158.4 156.3 155.6 157.4 158 158.4 158.1 158.3 158.3 158.5 158.9 159.8 160.8 162.6 163.5 163 162.2 162.3 163.4 165.5
86.6 87.4 92.3 96 98.9 102.6 107 110.4 111.6 113.3 114.6 115.6 115.3 114.9 113.3 111.4 109.4 105.2 101.5 99 96.9 95.1 94 92.7 92.5 92.2 90.5 87.1 85 83.7 81.4 77.7 73.4 69.3 64.5 61 58.2 58.3 59.4 61.3 63 64 62.7 61.6 58.3 56.4 54.2 51.8 49.4 47.6 46.7 46.9 49.3 48.6 48 47.7 48 48.2 48 48 47.8 47.7 49.3 48.4 48.3 47.7 46.9 46.6 46.9 46.6 46.7 46.8 47 47.1 46.9 46.3 46.2 46.1 45.8 45.5 45.5 45.4 45.2 44.8 45 45.7 46.8 48.2 50.5 52.8 55.6 58.3 59.6 61.2 64.9 69.5 70.6 69.5 66.4 65.2 63.3 58.8 59.1 60.4 61.5 60.2 59 57.9 57.2 54.8 50.4 50.1 53.2 58.4 60.4 61.8 63.9 66.6 69.5 72.1 74.5 77.7 80.4 78.7 75.4 70.8 68.2 68.2 69.9 71 72.5 73.3 71.4 72.3 75.7 78.7 81 82.8 83.9 80.3 74.9 69 68.8 72.9 75.3 76.2 76.7 77.5 78.1 76.9 74.4 72.8 72.5 75.6 79.6 84.6 90.3 94.5 96.1 95.8 93.8 87.7 82.2 82.2 81.5 86.4 97.8 112.5 129.1 143.4 148.2 150.9 151.4 148 140.2 156 138 141.1 150.1 149.1 161.1 155.9 153.3 154.8 156.1 157.7 158.2 158.1 158.3 159.5 160.9 161.9 162.5 163.1 163.2 161.8 160.9 160.7 161.9 162.9
89.5 94.9 96.2 99.1 102.5 105.6 109.2 111.3 112.4 113.5 115 115.8 115.4 115 112.9 110.6 108.6 105.3 101.7 98.8 95.9 93.9 93.5 93.8 92.8 91.2 88.9 85.1 80.4 77.9 75.6 71.5 67.6 64.2 61.4 61.9 63.8 64.9 66.3 68.3 69 69 67.7 66.3 63.4 61.4 59 55.6 51.7 49.6 47.3 46.1 46.3 48.8 49.1 48 47.8 48.2 47.9 47.6 47.5 48.8 49.3 49.2 49 48.5 46.9 45.6 46.5 46 46.4 46.7 46.8 46.2 46.7 46.2 45.9 45.9 45.5 45.3 45.2 44.8 44.6 43.2 48.3 50.4 50.7 52.7 55.2 57.7 60.4 63.6 65.2 66.7 70.5 73.6 73.6 72.3 70 68.2 66.1 63.6 60.3 63.5 64.7 64 62 60.5 58.1 55.6 51.2 49.8 53.6 59.6 61.4 62.2 63.8 65.5 68.3 71.1 74.1 77.6 80.1 79.3 75.2 70.6 66.7 65.7 66.8 68.6 70.4 70.4 67.6 67.7 71.2 75.4 78.4 79.9 81.4 79 73.4 68.1 66.8 70 72.7 74 74.9 75.7 76.2 75.6 74.1 72 72.4 77.7 80 83.1 90.1 93.4 95 94.8 92.6 88.7 83.2 79.9 78.7 81.8 88.8 100.8 113.5 129.1 142 148.3 148.2 139.7 124 132 139.3 144.1 146.5 162.3 159.2 153.8 153.7 155.1 156.6 158 158.6 158.7 158.8 159.3 160.7 162.4 162.8 162.9 161.8 161 159.7 159.1 159.5 159.9
95 96.6 98.4 102 105.7 108.9 110.9 112.8 113.6 114.4 115.3 115.9 115.5 115.2 113 110.6 108.2 106.7 105.1 100.4 97.5 96.1 94.2 93.2 91.2 89.4 86.4 83.2 79.1 76.8 72.7 69.5 69.5 70.6 71.2 72.4 72.8 73.3 73.9 75 74.6 74 72.7 70.9 68.6 66.4 63.7 60.1 56.2 51.7 49.8 47.6 46.2 46.3 46.8 48.5 48 48.3 48.1 47.6 47.5 48.7 49.3 49.1 48.9 48.1 46.1 45.6 45.6 46.3 46 46.3 46.5 46.3 46.3 46.1 45.8 45.6 45.3 44.9 44.5 43.8 46.8 48.3 50.3 52.7 55.6 58 60.2 62.5 65.4 68.7 71.5 72.1 74.5 76.6 76.4 75.5 74 71.5 69.3 67.5 65.5 61.1 68.3 67.6 64.9 62.5 59.6 56.6 52.6 49.5 54.4 59.2 60.7 62.1 62.9 63.8 66.5 69.5 72.9 76.9 78.9 78.1 74.1 69.6 63.7 62.4 63.6 64.3 67 67.1 63.9 63.4 67.1 72.3 75.7 77.3 78.2 77.2 72 67.1 65.8 67.9 70.9 71.6 73 73.7 74.3 74.8 73.7 71.5 72.9 75.7 78 81.3 88.3 91.7 93.2 93 92.1 89.2 84.8 81.4 77.5 79.7 82.5 90.1 99 108.9 118.8 128.7 134.3 141 132.1 139.2 141 142.3 145.5 151.4 150.8 153.3 154 155.2 155.7 157.1 157.2 156.9 157.3 158 159.5 160.7 160.4 159.8 157.7 156 156.1 156.5 157 158.3
96.4 98.4 101 104.6 108 110.2 112.1 114 114.8 115.5 116.3 116.4 115.8 115.5 113.4 111.9 109.9 108.6 107 103.1 99.6 97 95.3 91.1 85.2 82.2 80.1 78.3 75.5 75.5 77 78.1 79.6 80.8 81.5 81.6 80.5 79.8 80.2 79.9 79.3 78.7 77.3 75.5 73.6 71.2 68.5 64.6 61.6 57.4 52.3 49.9 48.1 46.4 46.2 46.5 47.8 47.9 47.6 47.8 47.6 48.4 49.1 49 48.9 46.9 45.7 45 45.2 45.2 46 45.7 45.9 46 45.8 45.5 45.3 44.7 44.4 44 46.3 47.8 49.8 52.6 55.5 58.3 61.2 63.5 65.9 68.3 70.9 75.3 76.6 76.1 76.7 78.1 78.5 78.7 77 74.4 71.6 69.8 69.6 67.4 66.8 68.7 65.8 62.7 59 56.2 53.4 49.6 55 59.9 61 61.8 61.1 62.3 65 67.8 71 75.4 77.9 76.9 72.4 68.1 61.9 59 58.9 60.3 62.6 63 60.1 59.8 63.3 68.9 71.9 74.9 76.8 75.7 71.1 66.4 64.8 66.4 68.7 70.1 71.8 72.3 73 73.7 73.5 71.6 71.6 73.5 75.9 78.7 85.5 89.3 90.4 90.2 89.6 88.6 85.7 82.2 78.3 78.7 80.9 85.5 91.5 98.3 101.1 115.8 127.1 133.6 118.1 127.1 133.5 130.7 129.8 127.3 121.6 119.5 148.8 153.2 153.9 154.1 153.5 152.5 153.4 154.8 155.4 155.6 155.1 154.2 151.6 150.3 151.2 152.8 155.9 157.6
98.7 100.1 104.5 107.6 109.7 111.7 113.4 114.7 115.7 116.5 117.2 116.9 116.8 115.8 113.1 111.2 108.9 106.9 105.7 104.3 101 97.2 93.2 93.1 90.1 87.5 83.4 83 84.3 84.7 84.9 84.5 84.4 83.9 83.6 83.4 83.2 83 82.7 82.4 81.8 81.2 80.1 78.3 76.6 74.5 72 69.3 66.6 62.5 57 52.6 49.9 48.1 46.8 46.5 46.4 46.8 47 47.2 47.3 48.4 48.9 48.8 47.7 45.9 45.3 44.6 44.9 45.6 45.6 45.3 45.2 45.2 45 44.5 43.6 43.6 46.2 48.7 50.6 52.7 55.3 58.1 61 63.6 65.7 68.5 71.3 73.8 76.7 79.5 79.8 79.1 78.8 79.1 79.5 79.8 79 76.6 73.8 72 71.3 70.4 61.8 68.1 65.1 61.9 59.6 58.5 58.9 50.1 55 59.4 61.2 61.2 60.6 60.7 63.5 66.1 69.2 74.3 76.3 76.4 71.9 67.1 59.7 56.8 56.3 57.7 59.8 60 56.8 57.4 60.4 65.3 68.8 72.5 74.6 74.3 70.4 65.6 64.2 65.4 66.9 68.4 70 71.6 72.9 73.5 72.3 71.1 71.1 72.2 74.2 76.9 82.8 86.6 87.6 87.6 87.1 86.7 84.6 81.7 78.7 77.3 78 82.2 86.1 94.5 96.2 106 95.5 94.8 95.6 97.5 99.9 100.7 102.5 103.5 104.4 104 119.8 149.5 149.3 149.4 149.1 147.4 147 147.1 146.4 146.6 146.2 146.1 145.4 145.8 147.1 151.1 154.9 156.2
99.4 101.6 106.7 110.9 113 114.3 114.5 114.8 115.5 116.5 117.5 117.2 116.8 112.7 111.2 109 107 105.7 104.7 103.8 101 98 97.6 95.8 93.3 89.3 87.2 86.4 86.5 86.3 86.1 85.8 85.5 84.9 84.6 84.4 84.2 83.9 84.1 84.4 84.4 83.7 82.7 80.8 78.9 76.9 74.3 70.6 68.1 64.7 60.9 56.6 52.5 49.9 48.3 47.5 46.6 46.3 46.6 46.5 46.7 47.2 47.9 47.4 46.2 45.4 44.6 44.2 44.4 44.7 42.5 45 44.7 44.5 43.4 44.6 46.2 47.6 50.3 53.4 56.1 58 60.5 63.2 65.7 67.7 70.2 72.8 75.7 78.5 80.8 82.5 81.8 80.3 79.7 79.9 80.2 80.3 79.1 77.2 75.2 72.9 71.3 70.3 69.5 62.4 63.9 61.6 59 58.4 57.5 49.8 54.9 58.3 60.5 60.9 60.1 59.4 62 64.6 68 72.9 74.6 73.8 71.2 66.8 59.3 55.9 55.4 55.3 57 57.1 55.7 55.6 57.6 61.6 65.6 69.8 72.2 73 70.2 65.7 64.9 66.1 66.3 67 68.7 71 72.1 73 71.8 70.3 69.8 70.8 71.9 74.6 79.8 83.6 84.9 84.2 83.3 83.6 82.5 79.9 77.9 77 77.7 80 82.7 88.5 92.7 94.4 94.2 113.1 96.9 97.7 98.3 99.5 102.9 107.4 113.1 118.2 123.8 147 144.9 144.8 144.3 141.6 139.7 137.6 137.3 138.3 139.3 139.6 140.9 142 145.4 149.8 152 153.9
99.1 102.7 107.5 111.4 113.6 114.2 114.5 114.7 115.2 115.8 117.2 116.3 115.2 110.3 108.6 107.5 106.3 104.6 104.4 105.2 103.9 100.9 99.1 96.5 93.2 90.7 88.6 87.6 87.6 87.4 87.2 86.9 86.5 86 85.6 85.3 85.1 84.8 84.8 84.7 84.4 83.6 82.6 81.3 80 78 74.5 71.2 69 66.2 62.4 59 54.9 51.5 49.7 48.6 47.5 46.3 46.1 45.6 46.1 46.3 46.3 46.2 46 45 44.1 44.3 44.4 44.5 44.4 44.5 45.3 43.9 45.9 47.8 49.8 51.3 54.2 57.2 59.7 62.2 64.7 67.1 69.6 72 74.6 77.2 80 82.3 83.9 84.9 83 80.9 80.4 80.2 80.5 79.7 78.3 76.6 73.9 71.8 69.7 68.6 67.5 62.2 63.3 60.8 59.8 57.8 52.5 52.9 53.4 55.9 60.2 60.2 59.4 58.8 59.9 62.8 66.3 70.3 72.7 72 69.9 66.8 59.4 55.5 54.7 54.2 54.9 55.1 54.7 55.3 56.5 59 63.4 66.9 69.5 71 69.5 65.4 64.7 64.5 65.7 65.2 67.9 71 71.6 72.4 71.2 69.6 69.7 70 70.7 73 76.5 80.3 81.5 80.9 80.1 79.4 78.3 77.2 75.6 75.3 76.2 78.7 80.8 86.7 91.6 90.3 95.8 116.5 108.9 99.3 99.6 114 126.6 128 129.5 135.7 140.5 140.5 140.3 140.2 139.3 136.8 134.5 132.5 132.7 133.7 134.5 135.5 136.8 140.1 143.9 147.2 149.4 150.5
100.8 101.6 105.5 108.5 111 112.6 113.2 114.5 114.4 114.6 116.1 115.8 114.1 110.4 107.8 106.8 105.9 106.5 107.3 107.6 105.5 102.5 99.7 96.7 94.6 92.3 89.9 88.9 88.6 88.6 88.7 89.2 88.8 88.6 88.3 87.2 86.5 85.7 85.4 84.4 83.4 82.4 81.1 79.8 78.2 76.7 74.2 72.1 69.9 67.7 64.5 61.6 57.1 54.4 51.6 49.8 48.7 47.1 46.2 45.5 45.5 45.9 45.6 45.6 45.6 44.7 44 44 44.1 44.1 44 44.4 42.8 46 48.4 49.9 53.2 55 58.1 60.5 63 66.1 69.2 71.7 74.3 75.9 78.4 81.4 83.4 84.4 86.3 86.4 83.8 81.6 81.1 80.8 79.4 78.9 77.5 74.1 71.2 69.4 67.8 67.2 66.8 65.7 61.9 61.8 61.8 54.1 51.6 52.1 53.1 55.4 58.3 58.4 57.2 56.5 58 60.3 63.6 66.8 69.7 70.4 69.1 65.6 61 56.8 54 54 54.1 54.3 54.9 55.6 56.1 57.5 55.5 64.3 68.1 69.7 68.4 65 65.1 64.9 64.6 65 67.2 69.9 71.1 72.1 71.1 69.4 69 69.8 71.4 72 74.4 77.1 79.4 78.9 77.8 77.1 75.4 73.8 73.6 73.1 74.8 76.5 77.6 85.6 92.4 92.7 92.6 109.2 113.4 110.2 115.9 132.6 131.4 131.5 131.7 131.6 132.8 134.9 137.1 136.1 134.2 131.7 130 128.2 128.3 129.3 130.3 132.2 136.2 139.8 143.4 145.7 147.4 147.8
104.2 102.9 104.2 106.5 109.3 111.1 112.5 113.4 113.4 113.3 113.9 113.4 111.6 109.5 109.1 109.6 109.9 109.9 109.3 108.6 105.8 102.7 99.5 97.5 95.6 93.7 92.7 91.8 91.8 92.2 92.4 93.5 93.9 93.4 93.1 91.5 90.2 88.6 87.2 85.7 84.2 82.9 81.4 79.7 78 76.3 74.4 72.8 71.1 69.4 66.7 64 60.1 56.5 53.9 51.8 49.7 48 47 46.7 46.1 45.7 45.5 45.3 45.4 44.5 44 43.7 43.7 43.7 43.7 43.2 41.8 49 51.1 53.6 56.9 58.8 61.3 63.7 66.2 70.3 74.2 76.6 78.5 79.9 81.4 84.4 86.7 87 88.7 87.8 85.3 84 83.1 81.3 79.8 78.2 75.8 71.7 68.8 67.1 66.2 66.1 65.8 65.7 61.6 61.3 58.7 54.3 49.4 51.1 53.1 55.4 56.2 55.2 53.7 54.7 56.2 57.5 59.6 63.6 67.7 69.9 68.8 65.3 61.1 57.2 53.7 53.9 54.1 54.2 54.7 55.4 56.1 56.8 57.6 60.8 65.1 67.7 67.4 62.4 66.1 66 64.3 64.6 66.1 68.8 70.1 71.8 71.3 69 68.8 70.2 72.1 72.1 72.5 74.2 76.5 77 76.1 75 73.8 72.6 72.4 72.9 74.4 75.2 76.2 85.3 96.6 96.4 93.9 94.6 114.3 114.8 124.3 126.3 125.7 124.2 126.4 127.9 129.3 131.6 133.5 131.8 129.9 127.5 126.1 123.9 124.8 126.5 128.5 132 135.9 139.6 142.7 144.6 146.3 146.7
108.5 106.1 105.2 107.8 109.3 111.1 112.5 113 112.9 112.3 111.6 111.8 111.5 112 112.4 112.2 112 111.5 110.5 108 105.3 102.4 99.4 98.7 96.7 96 94.9 95.2 95.2 95.8 96.4 97.7 98.4 100.1 99.8 98.4 95.6 93.1 90.7 87.8 85.9 83.8 82.1 80.4 78.7 77 75.5 74.8 74.1 72 69.7 67.4 64.7 60 56.8 55.8 52.4 49.7 49 47.6 46.9 46.3 45.5 44.8 45.1 44.6 44.1 43.6 43.4 43.4 43.4 42 47.4 51.5 54.7 57.3 59 60.2 63.6 66.4 70.4 74.5 78.4 80.2 81 82 83.6 86.6 88.3 89.5 90.6 88.5 87.4 86.5 85.4 83 79.9 75.7 73.7 69.2 66.4 65.5 64.9 64.8 64.8 63.5 61.8 60.1 48.5 48.5 48.5 50.7 52.7 54.7 55.5 54.8 53.1 53.5 54.1 54.8 56.4 60 63.9 68.6 68.7 64.2 59.9 56.8 53.5 53.6 54 54.2 54.5 55.3 56.3 57.3 57.2 58.1 61.1 64.8 65.1 62.2 68.1 67.6 64.8 64.7 65.5 66.3 69.1 69.6 69.3 68.7 68.6 70.4 72.2 72.8 72.2 74.2 75.8 75.8 74.8 73.6 72.2 70.8 70.6 72.4 73.3 74 75.2 81.4 94.9 105.6 95.9 94.6 99 113.4 129 127.5 121.5 118.5 121.7 124.4 125.8 129.1 130.9 128.9 126.2 123.3 120.1 118.5 120.9 125.1 129.2 133.2 136.7 140 143 144.3 145.5 147
111.4 108.8 107 108.5 110.5 112.1 112.5 113.6 112.9 111.9 110.1 110.1 110.1 111.5 112.2 111.8 111.9 111.7 109.9 107.5 104.7 101.9 100.4 99.6 98.3 96.6 95.9 97.2 96.3 97.1 98 99.7 101 101.7 101.3 100.2 97.6 95.1 91.9 90.1 87.1 85.1 83.4 81.4 79.6 78.4 78 77.6 76.9 75.5 73.2 70.9 68.4 65.7 62.2 59.1 55.5 52.2 51.8 50.5 47.6 47.7 46.4 45.4 44.7 44.9 44.5 43.7 43.4 43.4 43.4 46.5 50.3 53.6 56.4 58.4 59.4 60.5 63.4 67.6 73.7 78.7 81.4 82.7 83.1 84.4 86.1 88.7 90.2 91.7 91.3 88.2 87 87.4 86.9 84.4 82 77.7 70.5 68.7 66.3 65.8 65.8 65 64.7 63.8 62.1 60.7 48.5 48.5 48.5 48.8 52 54.5 54.8 54.4 53.5 53.5 53.2 52.6 52.8 56.3 60.3 64.9 65.6 63.5 59.4 55.2 53.3 53.3 53.7 54.3 55.1 56.1 57.2 57.4 58.2 58.4 59.4 61.6 61.1 64.8 69.7 69.1 65.9 65.9 68 67 67.6 68.1 68.4 68.6 69.6 70.9 73.2 73.8 74.4 74.4 74.8 74.6 73.6 72.5 71.1 69.6 70 71.7 72.4 72.9 73.8 75.8 89.8 105.8 105.8 96.3 99.2 126.1 127.7 122.9 117.2 115.5 118.6 120.9 123.8 126.6 128.3 126.2 122.3 118 115.1 114.9 120.3 125.9 130.2 134.5 138 141.2 143.5 144.6 145.8 147.2
112.4 110.1 108.5 109.3 111 112.9 113.5 112.6 112.4 110.3 108.6 106.5 104.6 105.9 108.8 110.3 110.4 109 107.5 105 102.8 100.9 99.8 98.6 97.5 96.1 94.9 94.5 93.5 94.2 95.8 96.8 99.1 99.7 99.4 97.8 96.1 94 92.1 90.2 89.1 87.6 86.6 84.7 81.7 80.2 80.2 80.4 79.4 77.6 75.1 73.1 70.5 67.2 62.7 58.6 56.6 54.3 53.9 51.7 48.2 47.8 46.3 44.7 44.5 44.5 44.5 44.4 43.4 43.1 46.6 48.4 51.5 54.3 57.6 58.7 58.8 59.8 62.4 68.2 74.9 80.6 83.2 83.6 83.7 85.3 86.9 89.1 90.4 90.9 89.2 86.9 84.8 85.4 86.2 84.6 83 80.4 76.4 72.8 68.9 66.6 65.9 65 64.9 68.6 65.7 62.8 59.2 58.1 56.1 52.8 51.9 54.7 55.2 54.8 54.4 54.5 53.2 52.9 52.8 53.5 56.5 60.7 63.6 61.3 57.5 54.1 53.1 53.4 54 55.2 56.4 57.4 58.1 58.6 59.5 61.1 62.4 62.5 63.5 66.7 71.6 71.5 67.8 67 68.1 70.7 71.4 71.8 71.7 73.4 75.4 74.3 76.5 77.9 76.5 74 73.5 73.5 72.5 71.3 69.9 68.2 69.6 70.8 71.4 71.9 72.9 74.4 83.3 98.7 111 101.9 110.1 124.8 123.5 119.9 114.8 112 115.2 117.6 120.4 123.8 126.3 125.6 121.6 116.5 111.8 115 122 126.7 130.9 135.2 138.9 141.6 143.7 144.9 145.9 146.4
112.5 110.9 109.3 109.9 111.5 113.4 114.5 113.9 111.4 109.8 107 106 104.3 101.3 102 102.6 103.5 103.8 102.6 101.2 99.3 98.4 97.3 96.1 94.9 93.8 91.6 88.4 87.6 87.6 90 93.9 96.9 97.5 96.6 95.5 94.7 93.4 92.4 91.3 90.3 89.4 87.5 84.6 82.2 81.1 80.3 79.5 78 76.2 73.8 72 69.2 64.6 59.9 57.2 55.7 54.4 52.4 50 47.6 46.3 44 44.3 43.4 43.7 44.4 44.4 44 40.9 46.1 48.8 51.8 54 57 56.2 56 57.9 60.7 67.8 75.7 80.2 81.5 80.8 82.5 84.9 87.1 87.6 89.2 89 87.5 84.4 83.4 84 84.6 83.4 83.1 81.8 80 75.4 69.8 67.4 65.9 65.7 66.9 67.7 65.6 66.1 59.5 58.4 56.3 53.7 52.3 52.8 55.5 55.4 55.4 54.9 54 54.7 53.9 52.9 53.7 57.3 60.7 58.8 55.7 53.6 53 53.6 55.8 58.6 60.1 61.1 61.7 62.4 63.8 66.8 67.7 66.2 65.7 67.4 72.3 73.2 70 70.2 73.1 76.4 76.5 76.1 75.1 78.8 78.2 76.5 76.3 76.6 74.9 72.8 72 71.7 71.8 70.2 67.9 66.8 67.9 69 70.5 71.3 72.3 73.4 76.5 91.7 108.7 115.3 120 120.9 118.4 114.6 110.2 107.5 111.1 114.3 117.2 121.2 124.8 124.4 120.8 115.8 110.5 114.3 122 126.9 131.5 134.7 137.7 140.2 142.3 143.5 144.5 145.2
112.7 111.5 109.8 110.1 111.9 113.9 114.6 114 112.4 109.2 105.9 104.8 101.9 98.7 97.8 97.4 96.7 97.6 97.5 97.3 96.4 95.5 94.9 94.7 93.1 91.7 89.5 85.6 82.2 82.2 84 88.3 92 93.5 95.1 94.8 94.2 93.5 92.7 92.1 90.9 89.5 86.9 83.6 80.8 79 78.3 77.2 76 74.6 72.7 70.4 67.1 62.4 59.8 57.8 56.9 53.7 50 46.5 45.4 45 44.4 43.9 43.3 43.7 43.8 43.9 44.5 44.4 45.5 48.9 51.6 53.3 54.3 52.7 51.3 54.3 58.1 66.1 74.4 77.5 77.2 77.4 80.1 83.3 83.6 84.4 86.5 85.7 84 83.1 83 83.2 82.9 82.8 82.1 80.9 79.9 76.9 68.8 66.6 65.2 64.4 62.5 62.2 65.7 61.9 60.8 59.4 57.9 54.5 52.1 52.6 53.8 54.6 55.4 54.5 52.6 55.8 56.1 55.3 53 53.9 57.8 56.3 54.5 52.8 53.5 55 59.9 63.3 64.6 65.8 65.7 66.3 69.1 72.7 71.9 68.1 66.9 67.8 72.7 75.4 73.8 75.2 79.2 80.6 78.6 77.9 78.3 79.5 79.4 77.2 75.9 74.6 72.4 70.5 69.9 70 70.7 69.1 66.4 66.6 68.3 70.2 72.3 72.4 71.6 72.7 76.2 89.5 104.9 115.8 117.9 115.7 112.5 110.8 106.2 104.7 107.1 112.3 117.5 121 124.1 123 119.2 114.4 107.2 112.6 120 125 129 132.8 136 138.9 140.9 142.2 143.5 144.2
113.2 112 111.1 110.8 112.3 114.1 114 113.6 111.6 108 104.3 101.5 98.6 95.7 94.2 93.4 94.2 95.3 95.5 95.3 95 95.2 95.4 95.5 94.8 92.7 90 86.2 81.3 78.4 80.6 84.4 90.4 96.2 96 97.2 96.5 95.6 93.9 92.2 90.6 88.7 85.1 81.8 79.1 76.4 74.9 73.8 73 72.1 70.8 68.6 67.8 64.8 60.5 58.5 53.8 49.3 46.3 43.9 44.4 44.4 44.1 42.5 42.9 43.3 43.3 43.3 40.9 44.5 44.3 47.1 49.8 51.7 51.5 47.4 46.7 50.8 54.1 61.1 69.2 72 70.7 72 76.2 78.8 79 79.5 81.5 81.7 80.6 80.5 81 81.2 80.7 80.1 79.2 78 76.5 74 66.8 64.8 64.5 55.7 55.1 68.7 66 61.8 60.9 59.9 59 55 52.2 52.4 54.2 53 52.4 51.8 52.2 52.8 56.7 56.3 54.7 53.7 54.3 53.9 53.2 53.4 55 58.4 65.6 68.7 68.8 69 69.4 70.1 72.9 75 74.5 71.4 68.3 68.2 71.5 75.4 75.9 78.5 83.1 82 79 78.5 79.3 77.1 76.5 74.9 72.6 70.7 69.6 68.7 67.9 68.3 69 67.1 65.7 68.1 70.2 72.4 73.9 73.4 71.1 71.8 76.1 88.8 102 109.9 108.5 105.3 104.1 103.8 102.4 102 108.1 115.7 119.4 121.8 123 121.1 115.6 109.1 104.5 112 117.8 122.8 126.8 130.7 134.4 137.3 139.7 141.6 142.8 143.8
113.9 113.3 112.6 111.8 112.8 113 113 113 110.2 108.3 102.1 98.8 96.6 94.1 92.2 90.9 91.8 92.5 93.2 93.6 94.4 94.3 93.6 92.7 91.6 90.1 88.9 86.4 80.5 76.6 78.8 89.4 93.9 97 98.5 98 97.6 95.6 94.3 92.9 91 88.7 85.1 80.9 77.6 74.5 72.3 70.8 69.3 70.1 69.8 69 68.1 63.5 60.1 54.4 48.6 45.6 43.8 42.9 43.4 43.5 41.9 42.2 42 42.2 42.9 43.5 45.1 45.6 46.5 43.7 49.3 49.3 45.9 43.9 43.5 43.5 48.2 58.2 62.1 63.7 63 65.8 71.8 74.3 73.3 74.7 75.2 76.5 76.5 78 78.9 79 79 77.7 75.8 74.4 72.6 67.7 63.1 61.9 68.6 70 69.5 67.8 65.1 62.4 61.4 61.4 61.5 55.8 52.3 51.7 52.6 51.8 50.5 51.6 53.6 55.9 57.3 58.5 58.5 59.4 53.4 53.5 54.6 55.6 58.2 64.5 70.9 73.2 73.1 72.7 73 74.6 76.8 77.6 77.6 74.7 72 69.2 69.7 73.7 76.2 78.5 80.8 82.4 78.5 77.7 78.3 75 73.4 71.7 69.5 68.4 67.1 66.3 65.9 67 67.8 65.2 67.1 70.9 71.3 74.1 74.1 73.5 70.4 72.2 74.7 90.8 97.4 99.6 96.8 95.4 96.3 98 97.8 105.6 112.9 117.3 120.3 121.5 121.7 119.3 112.4 104.7 103.6 110.9 116 120.8 124.1 127 131.1 134.3 136.4 139.8 142.1 143.3
112.6 112.7 112.1 111.5 110.9 111 111.6 112.5 111 106.6 101.7 98.7 95.5 93.1 91 88.8 89 89.7 91.3 92.5 92.6 91.9 89.9 89 87.9 86.3 83.7 79.1 74.4 76.1 83.9 88.5 91.2 94.2 95.1 93.8 93 91.8 91.1 91 90.6 89.1 86.5 83.1 79.3 75.5 70.5 69.3 68.5 68.2 68.4 66.7 64.3 58.4 52.7 48.1 45.7 44.7 44.2 42.9 42.9 41.5 41.9 42.2 42.2 42 42.4 40.7 45.4 46.6 47.1 48 44.4 47.2 43.5 43.2 42.9 41.3 41.5 45.8 51 55.4 55.9 61.5 66.7 67.6 67.7 68.8 69.6 69.8 71.6 75.1 77.1 78.5 77.7 76.1 74.8 71.9 68.5 63.3 61.8 59.4 66.6 67.5 66.9 65.5 63.9 62.9 63 64.1 62.7 59.2 53.3 51.2 51.2 51.3 58.3 57.9 58.3 58.5 58.9 58.9 58.9 57.3 54.3 56.3 57.9 59.7 63.6 70 74.8 76.7 77.7 76.9 77.6 79.7 80.7 81.2 79.8 78.3 76.1 70.5 69.1 71.7 74.1 76.5 79 80.9 79.5 75.5 74.8 72.7 70.5 68.7 66.1 64.5 64.2 64 64.2 65.2 66 63.7 67.9 71.4 73.4 76.1 74.5 71.8 70.6 70.9 72.1 86.1 92.4 90.7 89.8 91.9 94.9 95.7 97.7 109 114.1 117.1 119.8 120.8 120.9 118.3 108.8 99.5 98.5 104.9 109.3 111.9 115.1 119 122.6 126.8 131.8 136.3 139.8 141.7
111.2 111.4 111.5 110.7 108.2 107.8 109.5 111.1 109.3 106.1 102 98.1 94.3 92 89.7 86.9 87.2 88.6 90.1 90.4 90.4 89.3 87.5 85.3 82.5 79 75.8 72.6 72.5 75.6 79.8 83.3 87 89.6 90.4 89.7 89.3 89.2 89.1 88.9 89.3 88.7 87.5 84.6 81.1 76.6 70.4 67.8 66.1 66 65 62.2 56.7 50.5 47.6 47.4 46.6 46 44.2 43.1 42.6 41.3 41.9 42.1 42.4 42.5 40.2 45.3 46.2 46.8 47.6 47.6 47 45.7 42.8 42.6 42.3 40.8 38.4 39.2 41.7 45.6 51.2 54.7 59.2 60.1 61.4 62.9 62.2 62.6 67 72.4 75.3 77 77.4 76.8 73.6 67.7 64.1 57.7 56.6 58.3 58.1 62.3 63.2 65 70.6 70.9 65.4 67.2 67.2 64 57.2 52.9 52.8 52.8 54.5 54.5 55.8 56.2 59.5 53.9 53.4 53.4 57.8 60.3 62.4 66.5 69.4 75.4 78.7 81 81.3 80.6 81.4 83.1 84.4 85.4 80.5 80.8 71.4 70.4 69 70.9 73.3 75.1 78.5 79.6 79.2 74.4 71.3 68.5 65.6 63.3 61.8 61.6 61.3 62.2 62.4 62.9 63.9 62.3 68.1 71.7 73.2 75.5 76.3 71.3 70.2 70.5 71.9 77 86.4 88.1 87.5 91.5 95.5 91.7 97 108.9 112.5 115.4 117.8 119.2 118.6 114.3 103 95.6 94.6 97.6 101.5 104.8 107.8 111 115 121.9 129.4 134.1 137.4 139.2
106.9 106.9 105.7 105.3 104.9 104.9 105.9 106.9 106.5 103.2 101.7 97.9 93.2 90.5 87.8 85.8 86.3 86.3 87.5 87.7 87.7 86.9 85.1 82.5 78.2 73.6 71.5 71.3 71.7 73.2 76.6 79.6 83.3 85.6 86.6 86.1 86 86.3 86.6 86.9 87.1 87.2 86.1 84.7 80.6 73 69.3 66 63.8 63.8 61.2 56.6 51.1 48.5 49 49.3 48.5 46.9 45.6 42.9 41.2 41 41.7 41.6 43.1 45.1 47 46.5 46.9 46.9 47.5 47.3 46.8 46.1 43.8 42.3 39.8 41.4 39.9 37.1 38 38.2 41.3 45.6 48.2 50.3 52.2 54.4 54.2 55.6 59.2 62.2 69.5 77.1 78.5 77.2 74.4 64.6 57.5 52.5 53.2 57.3 59.9 63.6 65.2 70.7 73.4 74.3 73.5 70.5 71.1 66.3 64.4 61.1 59.9 61.5 59.2 59.9 61 60.9 62.5 60.8 62.2 63.3 65.1 67.4 68.9 72.3 75.1 79.4 82.3 84.3 84.1 83.4 84 86.5 88 70.8 71.1 71.8 71.2 71.8 69.2 69.9 72.3 74.1 73.9 73.6 71.8 67.9 63.2 59.3 57.5 57.8 58 57.9 59.2 60.3 60.5 60.9 59.8 64.6 67.7 70.5 72 73.3 73.9 71.2 69.9 69.7 70.6 75 81.1 85.2 86.7 92.1 93.8 87 96.3 107.3 110.7 111.7 113.5 114.7 114.1 106.3 97.1 92.2 92.2 95.2 98.4 101.5 104.6 108.1 116.2 123.2 129.4 133.3 134.8 135.9
104.6 104.9 104 103.4 103.2 103 105 107.6 106.1 103.7 101 97.4 91.8 89 86.2 83.5 83.3 83.4 84.2 85.2 85.1 84.5 82.9 80.1 75.4 71.1 70.2 70.3 70.8 71.3 73.7 77 80.3 82.5 82.8 81.8 81.8 81.8 82 83.5 84.9 85.1 84.7 82.7 78.7 70 67.3 64.4 61.1 59.2 56.9 52.6 51 52.7 53.9 55.5 55.5 54 52.1 47.7 42.6 38.7 39.3 43 45 47.3 47.3 47.4 47.2 47.5 48.1 47.9 48.1 48.1 48.4 47.1 44.4 41.6 38.7 38.1 37.2 35.6 36.8 36.1 39 41.5 43.7 47.2 48.4 50.5 56.5 60.8 67.5 74.4 74.5 72.2 66.7 58.1 52.9 50.4 53.5 58.1 63.1 68.1 70.9 67.3 75.2 82 84.2 75.7 75.7 76.2 69.3 67.7 67.8 67.8 65.5 64.1 64.4 65.6 68.7 69.3 70.1 69.9 71.7 73.6 74.3 76 79.3 82.3 85.1 86.6 86.5 85.9 85.8 88.4 89.4 71.3 71.5 80.8 81 75.2 69.6 68.3 68.9 68.4 67.2 66.1 63.9 61.4 59.6 58.3 56.4 54.7 55 55.9 58 58.3 58.5 60.1 62.7 65.8 68.1 69.3 70 71 73 71.1 69.6 68.3 68.8 70.8 74.2 78.6 85.6 88.7 87.2 83.6 92.4 102.4 107.2 107.4 105.7 104.9 101.1 96.4 91.7 89.1 90.8 94.5 97.9 101.2 104.6 108.3 116.4 122.6 127.6 128.7 129.8 130.4
103.6 102.8 102.2 101.9 101.8 102.8 104.9 107.1 106.5 104.7 101.4 97.1 92.2 88.5 85.7 83.2 81.1 80.7 80.8 82.4 82.7 82.2 79.7 76.5 73.5 71 70.2 69.9 70.2 70.6 73.1 75.9 77.3 77.1 75.5 75.6 76.3 77.5 79 80.7 82.7 82.9 82.3 80.4 76 69.1 65.3 61.5 57.7 55.1 52.9 51.5 54.5 57.5 58.7 59.3 58.6 56.5 53.9 48 40.6 40.9 41.3 44.3 46.6 47.1 47.1 47 46.9 47 47.1 48.4 48.6 50 51.3 50.5 46.6 42.1 40.1 38.4 41.7 34.8 37.3 36 36 37.1 38 37.2 40.5 46.1 53.1 58.9 64.7 67.6 68.3 66.9 62.6 51.8 49.5 51.7 56.8 63.5 68.9 73.4 74.7 66.8 68.4 69.1 68.6 67.1 62.6 79.9 70 72.1 72.2 73 72.4 70.3 69.3 70 74.2 76.7 79.7 80.6 81.2 80.6 79.7 80.1 82.2 84.5 86.9 87.3 87.1 86.9 86.6 88 88.9 87.6 79.5 82.6 78.7 74.5 69.1 67.6 67.6 66.1 65.3 64.5 63.5 62.5 61.9 68 65.7 60.3 57 54.8 56.9 57.6 58.5 59.6 62.1 64.9 66.8 67.4 68.2 69.4 71.8 71.8 69.8 67.9 67.1 69 71.6 73.8 78.6 82.1 80.6 79.1 85.8 92.8 99.5 95.7 93.9 93.6 92.5 90.7 87.5 90.2 93.1 96.5 100.2 103.4 106.3 109.8 114.8 117.7 119.9 119.5 118.6 118.2
100.5 100.3 101 100.5 101.3 102.4 103.3 104.9 106.7 106.6 103.6 99.2 94.2 88.5 85.8 83.3 80.8 79.6 78.4 78.8 79.5 78.8 77.1 75.7 73.1 71.1 70.2 69.9 69.8 70.7 72.1 73.7 74 72.4 70.9 71.2 72.5 73.9 75.9 78.4 80.3 80.6 79.5 77 71.8 66.4 62.9 59.2 56.1 52.8 51.1 53.5 58.7 60.8 61.3 60 58 55.5 52.1 46.8 40.6 41.2 41.8 44.5 44.8 45.5 45.7 46 45.8 45.5 46.1 47.8 48.7 49.3 51.3 45.9 43.9 42.3 40.9 35.7 37.7 44.1 41.5 40.1 38.8 37.4 34 36.5 35.4 36.3 47.3 54.6 59.5 62.2 63.2 62 56.9 49 47.3 52.1 61.7 69 73.9 83.5 83.3 77.5 62.1 49.4 46.6 46.5 46.6 75.9 78.8 71.3 73.2 77 78.5 76 74.4 74.1 77.1 80.6 86.1 86.8 86.1 84.3 83.9 83.6 84.1 85.4 86.6 87.1 87.2 86.8 86.4 86.4 85.4 82.8 81.6 78.6 75.8 72.9 69.7 68.6 69 67.9 68.4 70 72.2 70.9 70.2 68.4 65.1 60.7 55.9 54 57.4 58.2 57.9 58.6 60.5 63.4 64.5 65.2 66.3 68.1 69.6 71.2 69.6 67.7 66.3 67.2 68.6 70 71.2 73.1 74.6 74.6 78.6 83.8 87.1 88.2 87.7 87.7 87.9 88.6 89.9 93.4 96.1 99.4 102.6 106.8 110.7 113.1 114.9 114.9 113.4 110.5 107.6 104.7
97.9 98.1 99.5 100.1 101.8 103.3 104.4 106.4 107.4 107.3 105.4 102.7 97.7 90.7 85 82.5 80.4 79.1 77.3 75.9 75.8 76 76.3 75.3 72.7 71.4 70.7 70.2 70.2 69.7 69.3 69.6 69.2 71.1 70.2 67.8 67.6 72 74.7 76.8 77.7 77.3 75.6 71.4 66.1 62.9 60.4 57.2 54 51.3 50 53 59.3 60.5 59.7 57.7 55.1 52.5 48.9 45.5 43.7 40.9 40.8 42.4 43 43.3 43.1 43 43 43.3 45.1 45.8 46 42.2 39.6 38.2 41.4 41.5 40.5 36.9 38.3 47.1 45.3 43.6 41.8 39.6 37.8 37.1 35.9 34.9 41.5 50.1 54.6 57 57.6 57.1 53 47.6 47.8 56.2 67.7 76.7 84.5 65.1 62.4 61.4 59.5 46.9 46.5 46.2 47.1 67.1 82.3 71.7 77.5 80 81.9 78.7 78.1 78 77.8 81.7 84.5 87 87.2 81.9 86 85.7 85.3 85.2 85.2 85.2 85.4 85.4 85.4 83.2 81.3 79.8 78.5 77.3 76 74.5 71.3 72.2 74.2 74 73.3 72 69.8 67.5 67.4 65.8 62.6 59.4 55.6 53.8 57.8 57.7 57.3 57.2 58.2 60.9 62.5 64.2 66 67.8 69.1 70.2 69 67.4 65.6 65.8 66.6 67.1 67.7 68.7 69.9 70.7 72.4 77.6 81.4 83.4 83.6 85.3 85.9 87.8 91.8 96 99.2 102.8 107 111.6 115.3 115.9 115.4 113.7 110.1 106.8 103.7 101.1
95.6 96.3 97.9 99.5 101.6 103.7 105 105.9 106 106 105 103 99 92.9 83.3 80.3 78.6 78 76.8 75.7 73.1 73 72.8 72.3 71.7 71.3 71.2 70.6 70.8 70.4 71.8 72.8 73 73.3 73.7 70.7 66.3 66.2 72 73.9 74.1 73.2 69.8 64 61.5 60.3 56.9 53.7 50.5 48.8 49.5 53.4 56.5 56.1 55.1 53.4 51.1 48.3 44.9 43.8 43.2 38.3 40.8 40.9 39.9 40.1 40.1 40.7 40.6 41.5 44 43.9 39.2 38.6 39.2 37.7 38 37.9 38 38.2 38.3 45.6 44.9 44.7 43.1 41.4 39.6 37.6 36.8 35.3 35.1 46.7 50.5 52.2 51.8 51 47.2 46 49.4 60.5 71.6 80.5 73.5 64.8 61.9 61.2 62.6 53.6 47.2 46.7 52.8 68.4 75 78.7 72.4 80 82.3 81 79.1 79 78.1 79.1 81.9 84.1 85.5 85.6 86.3 87 84.9 82.5 81.8 81.9 81.8 82.7 82.5 78.6 76.8 75.8 76.1 74.9 76.5 75.9 75.7 76.4 75.5 73.2 70.7 68.6 66.2 64.2 63.9 62.9 60.2 59 53.8 53.1 58.3 57.6 56.4 56.2 56.1 58 60.1 62.8 65.3 67.5 68.5 68.7 67.5 65.5 65.3 65.2 65.2 65.3 65.5 65.8 66.6 67.1 67.6 72.9 76.7 78.4 77.9 80.2 84.6 89.2 94.5 98.8 103.2 108 113 117 119.4 118.8 115.6 112.2 109.1 106.9 105.8 103.9
92.2 93.2 95.4 98 100.2 101.9 103.1 103.3 103.8 103.9 103.7 102.2 96.1 91.6 82.6 74.5 75.7 76.7 76 74.8 72.2 69.9 70.6 69.9 71.9 73 73.3 74 75.3 77.1 78.4 79.4 76.9 75.4 75.6 74.4 70.2 65.8 66.1 69 68 68.3 62.9 58.6 58.6 56.2 53 49.5 46.5 46.8 46.3 46.1 46.9 47.8 48 46.3 45.1 44.6 43.6 43.4 43.5 41.2 41 40.1 39.8 39.5 40.1 40.5 40.5 40.5 43.4 40.3 39.1 38.8 39.7 38.5 39.1 38.9 41.5 42.4 45.4 44 43.4 43.8 42.9 43.5 43.2 39.8 38.7 33.9 34.9 38.9 47.6 48.3 48.4 46.8 45.1 46.3 53 64.8 75.1 81.7 74 68.2 62.5 63.1 65.9 69.3 64.3 60.9 64.4 67.1 68.8 78.1 71.6 79.1 81.3 80.1 78.7 78.2 76.3 76.4 78.2 79.5 80.3 80.4 82.8 84 81.1 77.1 76.2 75.3 74.8 75.2 75.1 73.2 72.3 71.4 71.6 71.7 73.5 75.4 75.7 74.3 72.7 69.6 66.4 64.8 63.4 62.1 60.9 60 59.3 57.5 52.3 53.6 57.8 58 56.9 55.4 55.3 55.6 57.8 61.2 64.5 67.3 68 68.6 68.5 66 65 64.9 64.9 64.8 65 65.2 64.5 64.2 64.7 67.5 70.1 72.5 74.8 83 91 98.8 103.7 107.6 110 116 121.7 122.9 122.9 121 117.6 113.5 112 111.6 111.4 109.5
88.3 89.7 92 94.6 97 97.9 99.1 99.4 99.9 100.6 101.6 99.7 96 89.6 82.6 77.4 75.8 76.2 76.1 74.8 74.2 74.6 74.4 71 72.5 75.3 75.3 76.9 78.4 79.7 80.8 82.1 77.8 76.2 74.1 73 70.7 65 61.4 63.2 63.3 62.6 58.2 55.4 54.1 51.2 48.3 45.3 43 43.3 43.8 43.5 43.1 42.8 41.2 40.6 40.3 40.4 43 43 43.3 41.7 41 40.1 39.7 39.6 40.1 40.8 40.6 40.4 40.7 38.9 39.3 40 41.4 41.8 42.7 44.5 46.6 48.9 49.7 47.7 45.2 43.6 40.7 41.6 40.9 42.5 42.2 38 33.9 32.9 46.3 47.5 46.3 44.2 43.5 49.4 58.8 68.8 75.6 81.2 75.2 67.7 66.8 70.2 69.2 68.3 70.2 72.3 71.3 69.6 78.3 72.4 67.5 73.8 76.9 76 73.7 75.9 73.3 73 73.4 72.9 73.1 73 74.4 75.7 74.2 72.2 71.7 71.3 70.5 71 70.7 70.1 69.7 68.5 68.6 69.3 72 73 73 71.7 69.7 67.1 63.4 62.4 61.6 60.3 57.8 58 57.8 53.1 51.6 55.4 58.1 58.8 58.3 55.7 54.7 54.7 55.6 58.6 62.4 65.9 67.3 67.7 67.7 66.8 65.2 65 64.5 64.5 64.5 64.6 64.4 64.5 64.1 64.9 66.8 70.7 78.7 89.7 100.8 110.1 116.5 120 121.3 124.4 126.5 127.1 125.3 123.2 121.5 120.7 120.4 121.2 122.1 120.4
85 86.4 89 91 91.7 91.6 93.3 95.1 95.9 97.4 98.4 96.7 91.9 85.9 82.2 78.3 75.9 75.9 76.1 74.8 76.8 78.5 78.6 76.7 74.4 77.1 78.1 79.5 79.9 80.5 81.5 81.4 77.8 74 71.5 69.5 65.8 61.9 59 62 62.3 60.5 55.9 51.1 49.7 47.6 46 45.7 45.3 44.9 44.6 45.2 45.2 45.1 45.9 44.2 44.1 43.2 42.9 42.9 43.4 43 38.5 39.8 39.5 39.7 40.7 40.9 40.8 36.7 37.6 38 39 45.8 50.8 52.3 53.1 53.8 56 54.3 53.9 52.9 49.2 44 41 40.3 40.7 46.7 46 37.5 37.4 35.6 45.7 47.2 46.8 44.3 43.8 51.1 58.6 67.6 74.2 77.2 80.6 80 78.5 78.1 76 75.6 74.2 73.8 72.4 80.6 74.2 65.7 61.3 70 67.2 64.9 64.6 67.1 65.5 67 65.3 65.2 66.5 67.1 68.2 70.4 70.6 69.8 69.5 69.4 69.5 69.5 70.1 69.9 69.9 68.3 66.9 68.3 71.5 74 72.9 69.8 67.1 65.6 63.2 61.9 60.6 57.7 54.7 51.9 50.7 51 55.7 57.1 58.4 60.2 60.1 57.8 55.1 54.7 54.2 55.9 59.4 63.8 66.7 66.6 66 64.9 64.7 66.5 64.9 64.1 64 64 63.8 64.2 64 64.2 65.2 69.9 79.8 91.6 105.2 116.3 121.9 123 124.4 126.6 128.1 129.9 127.8 125.3 126.3 128.5 129.9 130.4 130.2 126.7
80.4 80.9 82.3 82.2 82.8 84.7 86 87.8 91.2 93.2 93.8 91.5 87.3 83.6 81.2 79.2 76.9 76.2 74.9 75.5 78.4 80.3 82.1 83 77.9 79.9 80 81.8 81.2 80.3 79.8 78.6 76.2 73.3 70.3 65.9 60.1 58.1 58.2 59.7 55.8 53.4 51.3 47.7 47.8 47.2 46.4 46.3 48.4 48.4 48.7 50 50.5 50.9 49.9 48 45.4 44.6 44.5 45.9 46 46.1 44.4 40.8 39.9 39.9 40.7 40 39.6 39 37.7 38.2 42.1 54.5 60.6 62.6 63.5 64.1 63.2 59.9 58.3 57.3 53.7 45.8 41.4 40.5 44.5 49.2 47.7 39.3 35.2 37.3 45.2 47.4 46.8 42.7 40.8 47.7 54.4 61.3 67.3 66.5 64.9 65.5 67.6 69.4 69.8 70.7 71 72.5 76.4 76.2 67.1 59.5 56 65.7 62.6 58.1 57.7 58.6 57.9 58.7 59 59.4 62.3 62.6 65.1 66.7 69 70.7 70.7 71.2 70.3 70.8 71.9 72 71.6 70.7 67.7 67.4 71.8 73.3 72.4 69.6 66.1 65.1 63.1 60.3 58 55.5 51 49 51.2 54.7 56.4 57.4 58.6 60.6 61.6 60.2 57.5 54.3 53.1 53.9 55.1 61.3 65.4 65.5 64.3 63.3 64.2 67.5 67.4 66.1 64.6 63.9 64.1 64.7 65.1 64 62.8 65.3 72.3 85 100.1 113.8 119.9 117.4 114.2 118.8 125.3 128.8 130.4 129.7 130.9 135.1 136.7 136.1 133.6 124.7
75.8 77.1 78.4 78.9 79.7 80.8 81.8 82.9 85.2 86.4 86.5 85.1 84.4 83.9 83.1 80.8 78.2 75.9 74.8 75.9 78.3 82.1 84.6 88.2 86.3 86.1 83.7 81.7 81 75.1 75.9 73.5 71.4 69.8 66.7 61.3 58.3 56.7 58.2 55.6 52.5 52 50.7 49 48.5 48.1 49 52 55.7 54 53.6 54.2 54.5 54.3 52.7 49.8 47.5 47 48.7 48 49.6 49.7 49.5 47 42.2 41.3 40.2 38 39.4 39.3 39.4 38.7 41.5 54.6 61.9 63.8 65.2 66 65.8 63.5 61.5 59.6 53.5 45.4 42.5 42.1 47.6 50.2 48.6 40.2 35.4 32.6 38.8 45 44.2 39.6 38.6 44.4 49 54.7 56.3 56.8 56.8 57.9 59.1 61 62.9 64.9 65.6 66.6 70.2 69.7 61.8 53.8 50.5 57.3 67 52.5 53.2 53.5 54.6 55.7 56.4 57.3 58.7 60.8 62.8 64.2 68 71.5 72.6 72.6 73 74.7 74 71.9 70.9 70.2 66.6 66.4 70.8 72.3 71.7 69.3 65.8 63.7 62.4 59.2 56.8 54.2 49.8 49.7 52.7 55.5 57.1 57.8 58.9 60.8 62.8 62.1 59.5 55 52.4 52.9 54.6 58.4 64.1 64.3 63.2 62.7 63.6 68.2 70.9 69.1 66.9 65.3 64.6 65.2 65.9 63.5 60.7 61.3 63.6 72 84 96.8 101.8 101.6 100.9 106.4 117.1 124.4 126.5 131.3 135.6 137.9 138.4 137.4 133.4 120.8
75.5 76.7 77.9 79.1 80.1 80.6 81.4 82.1 82.6 83.1 82.7 83.4 83.6 84.2 83.8 82.2 80.4 77.3 75.9 78.3 81.7 87.1 90.6 91.9 91.4 89.3 86.1 82.6 80 73.8 73.7 71.9 68.9 65.5 59.9 57.9 56.6 55.9 54.8 52.4 51.3 50.7 49.8 50.4 53.5 54 55.6 57.2 58.6 58 57.7 57.4 57.3 56.3 54.3 50.5 49.4 50.5 52.4 53.3 52.9 53.1 52.9 53.6 50.5 47.7 47.2 43.9 41.4 40 37.2 37.2 40.1 52.4 60.9 63.5 64.6 64.8 63.8 61.9 59.9 58.2 52.7 46.2 44.1 43.3 47.3 49.9 49.3 41.3 36.5 32.6 36.8 37.3 38.4 37.7 37.1 38.8 41.4 47.7 49.1 48.9 47.2 45.1 47 49.9 54.2 57.5 58.5 60.4 63.6 65.8 60.8 49.9 47.1 48.9 66 53.5 52.1 53.9 56.8 57.6 57.2 57.3 58.1 59.6 60.4 62 66.2 69.7 70.5 70.1 69.9 72.5 72.3 70 68.9 68.6 66.1 65.5 69.3 70.8 70.6 68.1 65.5 63 60.9 57.4 54.8 52.4 49.4 48.5 50.8 54.9 56.9 58.4 58.9 60.2 62.3 62.7 60.7 56 52.6 52.8 54.8 57.7 62.6 63.8 62.7 61.6 63.2 68.6 73.1 73.7 71.7 68.2 67.3 66.8 66.4 66.1 61.9 58.9 59 63.7 71.6 78.2 82.8 83.3 87 92.8 102.4 111.4 115.7 117.6 120.5 125.7 124 122 119.6 113.5
