ncols 200
nrows 82
xllcorner 290000
yllcorner 643300
cellsize 50
263.7 265.7 268.9 273.7 277.6 280.2 280 278.3 277.6 276.9 275.9 274.1 271.3 268 265.5 262.5 256.9 255.9 256 254.7 253.1 251.7 251.7 251.9 252.4 252.4 252.6 254.5 256.7 254.5 252 250.5 250 249.2 246.8 244.8 243.4 242 239 234.9 233.2 232.9 230.4 226.8 223.1 220.1 218 217.2 217 217.1 217 217.6 218.8 218.3 216.2 214.8 214.2 213.4 212.9 212.8 212.6 212.3 212.3 212.5 212.8 213.4 213.6 213.3 212.8 212.5 212.3 212 211.6 210.9 210.2 209.4 208 207 205.8 206.6 206.9 206.7 206.5 206.5 206.6 206.9 210.3 213 212.2 211.1 212.9 217.4 222.2 230 229.6 229.5 229.5 229.3 229.9 232.1 233 232.6 231.3 226.1 223.7 224.5 226.5 228.1 220.5 218.6 218.7 217.8 219 219 219 222.4 226.6 220.6 222.3 224.8 220.8 219.6 224 228 226.5 220.6 218.8 218.2 218.5 218.7 218.7 219.1 220.1 222 221.9 221.2 220.6 218.5 218.3 218.2 218.3 218.2 216.5 216.5 215.1 215.2 215.2 215.4 215.3 213.8 212.2 211 209.8 209.5 209.5 209.4 208.7 208.9 209.1 209.5 207.7 207.7 209.8 212.2 215 215.4 215.6 216 216.3 215.5 215.2 215.3 216.3 218.1 219.5 220.6 221.9 223.1 224.9 226.6 228.8 231.7 234.4 236.3 238.2 238.5 237.7 237.2 237.5 238.4 240.5 242 243 244 245.4 246.6 247.9 248.6 248.9 248.5
259.8 262.6 266.6 271.5 275.6 276.8 276.7 276.7 276.1 275.3 274.2 272.4 269.3 266.7 264.4 261.2 255.6 254.3 253.8 253.8 252.1 251.3 251.2 251.5 251.8 251.5 252.4 254.5 256 255.2 253.7 250.5 249 247.9 246.1 244.8 243.5 241.2 238.5 235 232.3 231.2 230.5 226.5 222 219.4 217.6 216.5 216.6 216.5 216.4 217.5 219.1 219.5 217.8 215.3 214 213.2 212.6 212.4 211.9 211.6 211.4 211.7 212.1 212.3 212.3 212.2 211.7 211.3 210.9 210.4 210.1 209.2 208.3 207.2 205.1 206.1 206.2 206.5 206.9 206.8 206.5 206.4 206.7 210.4 213.6 212.2 213.5 220.6 229.9 229.4 229.5 229.1 234.2 232.4 229.4 220.3 219.4 220.4 221.7 222 221.7 223 225.2 222.7 220.5 219.5 218.7 218.8 219.3 219 217.9 219 217.5 221.9 225.6 226.2 226.6 222.1 217.1 219 217.3 219.9 217.4 217.4 217.5 217.5 218.2 218.6 219.4 220 220.3 221.7 220 218.6 218.4 218.3 218.2 218.1 217.8 217.3 215.5 214.9 215.1 215.2 215.2 215.2 215.3 213.8 212.4 210.9 209.6 209.5 209.4 209.4 208.8 209.1 209.1 209.2 207.7 207.7 210.2 214.2 216.6 217.6 218 218.3 218.5 218.1 216.7 217.7 219.1 220.5 220.8 221.7 223 224.4 225.6 227.1 229.3 232.3 235.1 237.5 239.2 239.5 238.6 237.4 237.2 237.7 239.6 241.8 243.5 244.7 246.1 248 249.5 250.6 250.8 249.7
256.9 260.1 264.9 269.8 272.2 272.8 273.9 274.9 274.7 273.8 272.6 270.7 267.7 265.6 263.4 259.8 254.4 252.4 252.5 252.8 251.3 250.9 250.9 251.1 250.9 250 251.1 253.5 253.9 253.3 252.7 252.3 249.4 245.8 245.2 245.3 243.8 241.4 238.2 234.6 231.6 230.6 229.6 225.7 221 219.1 217.6 216.3 216.1 215.9 216 217.2 219 219.3 218.6 215.9 213.6 212.8 212.2 211.5 211 210.8 210.7 210.8 211.1 211.2 211.2 210.9 210.5 210.3 210 209.6 209.1 208.3 207.4 206.6 206.2 205.8 206.7 206.5 206.9 206.8 206.6 207.5 210.5 218.9 217.5 217.8 224.6 228.1 228.6 229.2 233.5 229.1 233.3 224.7 220.5 218.2 218.2 218.2 218.9 218.8 219.1 221.1 219.7 218.3 218.3 218.1 218.3 219 219.9 219.9 219.4 218.4 218.3 218.5 219.5 220.7 222.5 218.1 219 219 219 219 219 219 217.8 217.6 218.1 219.2 219.9 220.5 220.1 219 218.8 218.7 218.6 218.4 218.1 217.8 217.4 216.3 216.4 215 215.1 215.2 215.2 215.1 215.1 214.1 212.6 211 209.5 209.5 209.4 209.4 209 209.1 209.1 209.1 209.4 208 212.5 216.4 218.3 219.3 219.8 220.6 220.8 220.5 220.1 220.5 221.7 222.6 222.6 223.2 224.6 225.5 226.6 227.8 230 232.9 235.7 238 239.7 240 239.1 237.6 236.5 237.3 239.1 241.8 243.9 245.4 247.1 249.4 251.1 252.2 252 250.3
255.8 258.2 263.4 266.8 268.5 269.5 270.7 273.5 273.5 273 271 268.9 266.4 264.3 262.3 258.1 253.1 250.8 250.5 250.9 250.9 250.5 250.8 250.7 250.1 249.4 250.2 252.6 252.4 251.8 251.4 251.1 249.2 246.2 245.2 243.9 243.3 241.2 237.5 233.9 230.7 230.6 229.2 224.9 220.4 218.9 217.7 216.3 215.7 215.5 215.8 216.1 217.3 217.7 217.6 215.2 213.7 212.8 211.7 211 210.7 210.5 210.4 210.4 210.3 210.4 210.2 209.9 209.8 209.4 209.3 208.9 208.2 207.4 206.7 206.3 205.9 206.4 206.5 206.5 206.6 206.8 207.5 211.4 215.7 216.9 223.2 229.2 227.8 226.6 226.5 226.5 226.6 229.7 221.8 218 217.8 217.9 217.9 217.9 218.1 218.3 218.4 218.9 218.5 218.4 217.6 216.3 216.3 218.6 218.8 219.1 219 217.4 219.7 219.1 218.7 218.5 218.3 217.2 219 219 219 219 219 219 218.6 216.7 218.1 219.6 220.5 221.4 221 218.6 218.6 218.6 218.7 218.2 217.9 217.5 217 215.4 214.4 215 215.3 215.3 215.2 215.2 215.1 214.2 212.8 211.2 209.5 209.5 209.5 209.4 209.1 209.2 209.3 209.5 211.1 212.1 215.5 217.9 219.5 220.4 221.7 222.6 223 222.6 222.3 223 223.6 224.1 224.1 225.1 226.1 226.7 227.6 228.9 231.4 233.8 236.4 238.5 240.3 240.3 239.2 237.2 236.1 236.6 239.3 242.4 244.8 246.2 248.6 250.8 252.3 253.1 252.6 250.5
255.6 257.3 261.1 263.5 264.4 265.7 267.3 270.6 271.7 271.4 270.2 267.8 265.5 263.1 260.1 256.4 251.1 249 249.1 250 250.6 250.4 250.1 249.4 248.7 248.1 248.9 251.4 251.4 250.4 250 249.7 247.8 245.2 243.4 241.4 241 239.5 236.8 233.1 230.6 230 228.9 223.5 220.5 219.4 218.2 216.8 215.5 215.4 215.9 216.1 216.5 213.6 214.4 214.7 214.1 212.7 211.5 210.9 210.5 210.2 209.9 209.8 209.6 209.5 209.3 209.2 209.3 209.1 208.6 208.3 207.5 206.8 206.4 205.9 204.6 206.5 206.6 206.5 206.8 208 213.4 218.3 217 220.2 226.8 227.9 233.5 232.5 228.3 227.1 225.9 221.7 217.7 217.4 217.4 217.4 217.5 217.6 217.8 211.6 217.4 217.9 221.5 220.7 217.8 217.6 217.3 217.1 217.5 218.1 219.7 221.2 223.3 222.6 219.6 218.3 217.4 219 218.1 219 219 219 219 219 217.9 217.4 218.9 219.7 220.6 221.5 221.6 217.9 218.4 218.6 218.8 218.2 217.7 217.2 216.8 214.5 214.6 215.2 215.7 215.7 215.5 215.5 215.3 214.3 212.9 211.3 209.5 209.5 209.5 209.4 209.3 209.4 209.6 209.9 211.3 214.4 217.7 219.4 220.9 222.1 223.3 224.6 224.7 224.4 224.4 224.7 225 225.5 226 227.1 228.2 229 229.5 230.6 232.6 235 237.4 239.2 240.7 240.5 239.1 236.7 235.7 236.6 240.1 243.5 245.6 247.1 249.8 252.2 253.5 253.7 252.9 250.7
255.1 256.6 258.2 259.7 260.6 262.7 264.7 267.3 269.3 269.5 269 267.3 265.2 261.6 258.3 254.6 249.4 247.7 248.2 249.4 250.4 249.5 248.6 247.8 247.1 246.4 246.8 249.6 250.4 249 247.7 247.1 246 244.2 242.3 240.5 239.6 237.5 236 233.8 231.4 229.7 226.6 221.8 220.7 219.7 218.8 217.2 215.7 216 216.3 217.3 216.4 214.1 213.3 213.3 213.6 212.7 211.7 210.7 210.3 209.9 209.6 209.4 209.3 209.1 208.7 208.7 208.8 208.8 208.2 207.6 206.9 206.5 206.1 205.5 206.3 206.5 206.6 207 209.1 214.6 220.6 220.3 223.3 229.5 231.3 225.3 219.7 219.6 219.6 219.1 217.8 216.7 217.3 217.2 217.1 217 217.2 216.6 210.9 215.7 216.2 217.6 210.7 211.5 214.7 215.4 214.7 216 216.8 217.1 217.9 221.8 228.9 228.9 221.2 218.7 217.3 219 219 219 219 219 219 216.7 217.5 218.4 219.3 219.8 220.3 221.1 221.3 220.2 218.2 218.3 218.5 217.9 217.4 217 216.4 215.8 215.2 215.7 216 216 215.9 215.7 215.4 214.8 213.1 211.3 209.5 209.5 209.4 209.4 209.2 209.7 210.1 210.6 213.3 216.8 219.3 220.9 222.1 223.4 224.6 226 226.2 226.2 226.5 226.7 226.4 226.8 227.8 229.1 229.9 230.6 231 232 234.1 236.2 238 239.9 241.2 240.5 238.9 236.6 235.6 237.2 241.1 244.7 246.7 247.9 250.9 253.6 254.5 254.3 253 250.6
254.9 255.9 256.1 256.6 258.2 261.4 263.4 265 267.1 268.6 268.3 266.7 263.7 259.8 256.3 252.7 249.3 247.2 247.2 248.6 249.4 248.4 246.8 245.5 245 244.6 244.5 247.6 249.8 247.4 245.4 244.6 243.7 242.8 241 239.2 238.3 238.1 235.7 234.5 231.9 228.4 224.4 221.6 220.7 220 219.1 217.6 216.3 216.7 217 217.6 216.5 214.7 213.7 213 212.7 212.7 211.9 210.5 210.1 209.7 209.3 209.2 209.3 209 208.4 208.2 208.2 208.2 207.7 207 206.5 206.5 205.4 206 206.8 207.1 210.1 212 217.8 227 228.6 227.6 230.6 236.4 226.5 218.7 218 216.8 216.4 216 215.1 213.3 213.2 212.9 212.5 211.8 210.1 210.6 210.7 210.6 210.6 210.8 210.7 210.7 210.7 209.3 211.4 214.6 216.4 217.2 217.3 218 221.1 221.5 219 218.7 217.6 216.7 219 219 219 219 217 218.5 218.8 219.2 219.5 219.9 220.4 220.9 221.2 220.7 218.3 218.3 218.2 217.5 217.1 216.7 214.8 214.7 215.8 216.2 216.4 216.3 216.2 216 215.7 215.1 213.3 211.2 209.6 209.4 209.2 209.2 209.4 210 210.5 212 215.5 218.5 220.3 221.8 223.3 224.6 226 227.2 227.4 227.6 228.1 228.7 228.7 228.2 229.6 231.1 231.5 232 232.6 233.8 235.3 236.7 238.6 241.1 241.9 240.6 238.7 236.3 235 238.6 242.8 246.2 247.8 248.7 251.8 254.5 255 254.5 253 250.6
254.3 254.9 255 255.2 257 260.1 262.9 264.8 266.9 268.2 266.7 264.8 261.7 258.5 254.2 251.4 248.8 247.1 246.6 248.5 248.5 246.9 244.6 243.1 242.6 242.1 241.4 244.7 248.5 246.3 243.8 243.3 242.5 241.8 240.1 237.3 236.4 236 235.1 233.3 231.3 227.4 223.5 221.8 221.6 220.3 219.3 218 217 217 218.1 217.8 216.6 215.4 214.1 213.6 212.4 212.5 211.9 210.5 209.9 209.4 209.5 209.8 210.5 210 208.9 207.8 207.9 207.8 207.4 206.9 206.4 205.5 205.3 206.5 207.1 211.6 217.3 219.7 221.4 225.7 228.9 230.5 234.9 232 224.6 220.2 218 216.7 215.8 214.5 212.3 211.3 211.3 211.2 211.5 209.8 209.8 209.8 209.8 209.8 209.8 213.4 212.9 213.4 212.8 213.9 214.8 215.4 215.5 219.7 220 219 218.4 219.2 218.7 218.4 218.1 217.8 219 219 219 219 219.1 219.3 219.4 219.5 219.8 220.1 220.6 221.1 221.4 221.2 220.3 219.9 218.4 217.2 216.1 215.2 214.9 215.3 216.1 216.5 216.7 216.6 216.4 216.2 216 215.3 213.2 211.2 210 209.3 209.1 209 209.7 210.3 211.5 213.8 216.8 219 220 221.5 223.8 225.7 227.2 228.2 228.7 228.9 229.3 229.6 229.6 230.1 231.5 232.6 232.5 232.9 234 235 236.1 237.5 240 242.3 242.6 240.6 238.4 235.1 235.5 240.5 245 247.4 248.7 249.8 252.9 255.1 255.1 254.7 253.1 250.6
253.9 253.6 253.6 254 255.7 258.7 261.6 263.8 267.2 266.3 263.8 262.7 259.8 257 252.8 250.1 248 246.7 246.7 248.2 246.6 244.2 242.6 241.2 240.2 239.6 239.4 241.8 245.2 244.7 242.8 242 241.8 241 239.2 235.6 233.8 233.4 233.7 231.8 229.7 227.1 224.4 222.9 221.9 220.7 219.6 218.5 218 217.9 218.7 217.4 216.9 215.8 214.5 213.2 212.4 211.2 212 210.5 209.7 209.3 209.5 209.9 210.8 210.4 209.3 207.4 207.6 207.9 207 206.6 205.7 205.3 206.4 207 209.6 219 219.2 220.1 225.2 229.8 230.7 228.4 227.1 223.9 220.1 218 216.9 216.3 215.6 214.2 210.9 209.8 209.6 209 208.3 208.4 208.5 208.9 209.2 209.5 211.2 210.3 210.4 214.6 213.6 214.2 214.4 214.4 214.5 215.6 221.4 221.4 218.7 219.5 219.2 218.8 218.6 218.3 218.4 219 219 218.4 219.6 219.7 219.8 219.9 220.1 220.4 220.9 221.3 221.5 221.3 221.1 221 219.8 218.7 216.7 215 214.6 215.7 216 216.5 216.9 216.8 216.6 216.4 216.2 215.2 213.3 211.2 210.4 209.5 208.9 209.3 210.1 210.8 211.9 214.6 216.6 217.7 218.8 220.6 224.1 226.4 228.1 228.9 229.5 230 230.2 230.3 230.2 230.8 231.5 233.4 233.4 233.6 235.5 236.4 237.4 239 241.9 243.6 243.1 241.1 238 234.1 237.1 243.9 246.8 248.4 249.7 250.9 253.2 255.5 255.8 254.8 253.2 250.7
252.5 252.1 252.3 253.2 254.5 257.3 260.4 263 266.3 265.9 261.9 259.9 258.8 256.4 253.7 248.9 247.2 245.9 245.7 245.9 243.7 242 240.9 239.6 238.3 237.6 237.5 238.9 241.1 242.2 241.5 240.7 240.7 240.7 238.7 234.4 231.7 231.4 231.8 232.2 228.9 226.7 226.2 224.7 222.3 220.6 220.1 219.3 219.5 219.2 219.1 217.8 217.4 216.5 214.4 213 212.3 211.4 210.4 208.7 209.7 209.4 209.5 209.9 210.5 210.1 209.3 208.1 207.3 207.2 206.5 205.8 204.6 206.1 206.7 207.9 215.9 221.6 220.2 224.8 232.7 229.9 227 224.9 220.8 217.6 216.3 215.3 214.1 213.1 212.1 211.2 209.9 208.5 207.7 207.6 207.8 207.9 208.1 208.5 209.2 209.7 210.2 209.8 210.1 213.2 213.1 214.3 214.3 214.5 214.6 215 215.3 217.2 218.6 219.3 219 218.9 219 219.1 219.2 219.7 220.3 220.3 220.2 220.2 220.2 220.3 220.4 220.6 221.1 221.5 221.5 221.5 221.6 221.8 223 219.6 217.4 216.1 214.5 214.7 214.9 215.6 216.2 216.3 216.4 216.4 215.8 214.3 212.5 211.4 210.9 209.5 208.9 209.6 210.4 210.8 211.4 213.6 214.8 216 217.9 219.8 223.6 227.1 228.9 229.5 230.1 230.2 230.8 230.8 230.8 230.8 231.3 231.5 231.5 236.1 237 237.9 238.6 240.8 243.6 244.9 243.8 241.4 237.1 234.1 238.2 245.8 248.5 249.1 250.4 251.9 254.8 256.4 256.8 255.3 253.3 250.9
250.2 250.4 251.3 252.9 254.2 256.7 259.1 261.7 264.9 264.5 261.2 258.7 257 255.3 252.7 248 246.9 246.3 245.5 243.7 241.9 240.5 239.2 238.1 236.5 236 236 236.9 238.8 239.7 239.8 239.8 239.7 239.6 236.9 232.7 230.7 230.6 230.7 231.8 230.7 228 228.8 226.1 223.9 221.9 220.7 220.2 221.1 220.4 219.6 218.2 217.5 216.8 215 213.6 212.5 211.6 210.8 210.5 209.8 209.5 209.8 209.7 209.9 209.8 208.8 208.4 207.8 206.7 205.7 205.1 206.6 206.7 207.2 212.5 221.5 219.3 222.3 226.4 229.5 226 227.7 223.9 217.7 215.2 214 213 212 211.1 210.3 209.7 208.9 208.1 207.2 207.6 207.6 207.7 207.9 208.3 209.1 209.7 209.6 209.9 210.2 212.8 212.5 213.9 214.4 214.5 214.6 214.5 214.9 216.1 217.6 219 219 219 219.5 219.8 220.2 220.6 221 221 220.9 220.9 220.8 220.7 220.7 220.8 221.1 222 222.5 222.4 222.6 224.7 224.5 224.6 217.8 214.1 215.8 214.6 214.8 214.4 214.5 215.2 215.5 215.8 215 213.7 211.9 212.3 210.8 209 209.2 209.6 209.4 210.4 210.6 211.3 212.6 214 216.3 218.6 222.6 226.7 229 229.4 230.1 230.2 230.6 230.7 230.9 231 231.2 231.3 232.6 237.6 238.6 239.2 239.8 242.6 245.4 245.3 244.2 241.8 238.4 233.9 237.2 247 250.1 250.2 251.1 253 256.1 258 258 255.4 253.1 251
248 249.1 251 252.6 254.1 256.5 258.7 261.4 263.6 263.2 261.5 258.6 255.5 253.7 250.3 246.4 245 245.3 245.5 243.1 240.1 239.8 238.6 237.1 235.3 234.8 234.7 235.4 236.6 238.1 238.9 239.3 239.2 237.6 234.7 230.9 229.9 230.2 230.2 230 230.2 228.6 227.4 226.5 226.2 222.2 221.6 222.7 223.3 221.5 220.2 219 218.5 217.6 215.9 213.4 211.3 210.3 210.8 209.9 210.2 208.9 209.8 211.1 212.1 210.5 208.5 207.3 206.6 205.6 205 206.3 206.8 207.3 211.1 222.4 219 221.6 229.5 227.7 226 219.8 219.9 219 214.5 213.3 212.5 211.5 210.9 210.1 209.3 208.7 208 207.3 206.6 207.2 207.1 207.1 207.3 207.9 208.5 209.7 209.6 210.4 210.7 211.7 211.9 213.1 214.2 214.3 213.8 214.2 214.2 215.2 216.5 217.8 218.9 219.2 219.9 220.3 220.8 221.1 221.2 221.3 221.7 221.7 221.4 220.9 220.9 220.8 221.6 223.1 224.3 225 225.1 226.2 223.4 223.8 219.2 223.5 217.8 216.8 215.4 214.1 213.6 213.5 214 214.1 213.2 212.3 212.4 212.8 210.5 206.6 209.9 210.8 211 210.5 210 208 210.8 212.1 214.5 217.6 221.2 224.7 227.2 229.2 230.2 230.2 230.4 230.6 230.8 231 231.1 231.1 236.1 238.8 240 240.3 241.2 244.1 246.9 246.9 245.6 242.5 238.1 233.5 235.2 245.6 251.4 251.4 252.2 254.6 257.6 259.2 258.1 255.5 253 250.9
246.1 247.3 249.7 252.2 254 256.7 259.1 261.8 262.5 262.5 261 259.1 255.8 251.5 248.5 245.6 242.6 242.8 243.7 241.5 238.9 238.8 238.1 236.4 234.5 233.5 234.1 234.8 236.4 237.6 238.3 238.6 237.8 235.1 232.2 229.5 229.4 229.7 229.7 229.5 229.3 228.8 227.6 227.3 227.2 224 221.6 222 223.2 223.7 222.2 219.4 217.6 215.8 215.8 216 214 211.2 210.8 210.1 209.8 209.6 209.8 210.4 210.4 210.1 208.4 207.7 208.6 205.2 206.5 207.7 208.5 210.8 220 219.2 221.9 225.1 228.7 223.6 217.2 211 211.6 214.1 212.4 212 211.5 210.7 210.1 209 208.2 207.5 206.8 206.2 206 206.2 206.4 206.5 206.6 207.2 208 209.4 210.5 210.8 210.9 211.1 211.4 212.5 213.6 213.4 212.9 213.8 213 213.3 214.7 216.6 217.7 219.1 219.7 220.7 221.2 221.5 221.7 222.8 223.2 222.6 221.8 221.2 220.5 220.6 222.2 224.4 226.4 228.1 227.5 227.8 225.8 225.8 213.1 221.9 220.3 219.7 218.1 215.4 213 212.9 212.7 212.9 212.5 212.4 213.8 212.9 209.9 209.6 210.9 212.1 212.4 212.3 211.5 210.8 210.8 210.8 213.9 217.3 220.6 223.5 226.4 229.2 230.1 230.5 230.6 230.7 230.9 230.9 231 237.4 237.3 239.5 240.3 240.7 242.7 245.3 247.2 247.4 246.8 242.4 237.3 233.2 234.8 243.9 251.2 252.9 254.2 256.4 258.5 259.1 258 255.3 252.8 250.8
244.4 245.8 248.4 251.2 254.1 257.1 259.9 261.4 262 262.6 262.1 259.2 253.5 248.6 245.6 243.4 241.2 240.5 241.9 240.5 237.7 237.8 237.4 235.6 233.5 232.9 233.9 234.9 235.9 236.9 237.7 237.6 235.7 232.8 230.1 228.8 228.9 229.4 229.8 229.9 229.7 229.3 228.1 226.7 226.7 223.9 221.9 221.5 222.9 224 222.6 220.2 218.2 216.2 216 216.3 215.5 212.9 210.8 209.6 208.8 209.4 209.5 209.2 209.1 207.8 206.3 205.5 208 209.4 209.7 210.5 210.7 213.3 223.7 224 225.4 226.3 219.9 211.8 209.8 209.7 210.1 210.8 211.1 211.3 210.8 210.6 210.8 208.5 207.5 207 206.6 206.4 206.4 206.5 206.7 206.7 208 210.2 210.8 209.5 213 214.8 211.5 209.3 210 211.5 212.2 213.8 215.4 217.9 218.2 215.1 211.7 213.5 215 216.6 217.5 219 221.1 221.7 223.1 224.6 224.8 223.6 221.8 219.7 218.4 219 221.3 222.3 223.8 224.7 224.5 224.8 224.1 221.8 218.2 221.4 223.3 222.2 220.1 217.2 213.5 212.3 212.1 212.1 212.5 214.2 214 212.8 209 210.9 212.5 213.5 213.7 213.3 212.2 210.8 211.3 212.8 214.8 217.1 220.3 223.1 225.9 228.7 230 230.7 230.9 231 231.1 231.1 231 231 236 239.1 239.3 240.2 242.6 244.7 246.2 247.4 247.3 242.9 236.2 232.9 233.6 241.6 251 253.9 255.8 258.4 260.3 260.1 257.7 255 252.3 250.6
242.6 245.4 247.9 251.2 254.6 257.4 259.2 260.6 261.4 262.8 262 256.9 251 246.5 243.2 241.4 239.9 239.5 240.4 239.9 237.3 235.5 235.8 234.7 232.7 232.4 234 234.9 237.1 238.1 236.7 236.1 233.5 230.8 228.9 228.5 228.7 229.2 229.6 228.9 229.4 229.6 229.1 227.8 226.4 224.8 221.2 220.6 222.2 222.3 221.8 220.4 220.4 217.9 215.9 210.4 213.7 213.4 211.8 211 207.3 209.7 209.4 208.8 207.1 204.4 207 211.2 213.2 212.9 212.3 211.7 211.9 212.9 217.6 222.3 221.1 211.7 210.2 208.8 208.6 208.8 209.2 209.8 210.2 212.3 212.2 206.6 204.8 203.9 204.5 204.9 205 205.2 206 206.5 206.8 207.4 209 209.5 208.9 209.1 209.7 211 211.3 211.5 211.6 211.3 211.1 210.8 211 211.7 212 211.9 213.8 211.5 214.6 216.1 216.6 217.2 218.3 220 220.5 221.4 221.9 220.4 218 216 215 215.4 215.7 216.8 218.5 218.9 221.4 221.4 217.7 216.6 221.3 220.6 223.7 223.2 220.4 217.5 214.7 213 212.4 212.5 214.7 215.8 214.6 211.2 208.2 212.7 214 214.7 214.7 214.2 212.6 209.9 212.1 214 215.9 217.7 220 222.8 225.6 228.3 230.1 230.7 231.2 231.3 231.4 231.1 231 231.1 233.1 236.7 237.5 239.6 241.8 244 245.7 247 246.8 242.9 235.3 232.7 232.3 238.1 250.1 253.6 256.6 259.7 261.8 260.6 257.4 254.5 251.4 249.5
242.1 245.2 248.1 252.3 254.9 256.4 257.5 258.8 260.2 261.4 259.2 254.5 248.4 244.9 241.3 240.1 239.6 239.6 239.5 239.2 237.2 234.9 233.3 233.7 232.4 232.3 233.4 235.4 237.9 238.3 236.4 233.9 231.3 228.9 228.7 228.4 228.5 229 228.3 228 228.7 229.3 229 228.9 226.9 221.9 214 213.1 207.4 205.4 205.4 213.6 220.8 218.7 203.2 206.7 207.5 205.7 203.2 206.6 207.4 207.9 208.8 207.2 205 207.3 209.1 213.6 213.5 212.8 214 214.8 216.1 215.9 217.1 215.6 210.5 209.7 208.8 208.1 207.7 207.8 208.6 209.4 207.8 209.6 200.9 202.9 203.6 204 204.2 204.6 204.9 205.6 206.3 206.7 207.2 209.5 209.8 210.6 210.1 210.2 210.7 210.9 211.2 211.4 211.5 211.3 211.1 209.3 210.1 210.1 208.7 210.9 213.7 210.8 213.5 215.9 217.4 217.7 220.5 221.7 221.5 222.3 221.6 219.9 217.7 214.3 213.5 212.9 213.2 212.2 211.4 211.8 214.6 215.5 213.6 212.7 224 224.4 224.1 222.2 220.3 218.9 217.3 213.8 212.3 212.8 215 216.5 215.3 209.3 210.9 214.2 215.5 215.7 215.5 214.6 213.6 212.4 213.4 215.4 217.2 218.8 220.6 223 225.8 228.4 230.3 231.1 231.3 231.6 231.7 231.2 231.1 231.6 232.2 234.1 235.3 237.1 239.7 241.9 244.3 246.1 245.7 241.7 234.2 231.7 231.2 235.8 247.8 252 256.8 259.9 262.3 261.1 256.9 253.2 250.4 248.4
242.4 245.9 248.6 251.1 253.3 254.6 255.4 256.9 258.1 257.4 255.3 251 245.8 243.1 241.5 240.8 239.6 239.1 239 239.2 239.5 236.1 232.5 231.9 231.7 232.1 233.9 236.3 238.7 238.1 234.8 231.6 229.5 228.5 228.3 228.2 228.1 228.2 227.9 227.9 228.5 228.9 228.7 229 227.6 207.8 206.1 205.3 205.5 205.3 205.4 205.4 207 204.9 208.6 213.8 213.7 212.8 208.8 205.9 203.4 206.6 206.4 206.1 207.3 208.8 211.3 214.5 214.4 213.3 215.2 219.8 219.2 218.3 220.2 229.3 216.5 212.1 209.4 207.5 206.9 205.2 202.4 202.3 203 203.6 204 204.5 204 204.2 204.5 204.7 205.2 206.6 207.8 207.4 208.2 214 212.5 211.4 210.7 209.5 210.2 211.4 211.7 211.5 211.4 212.6 213.2 212.2 211.2 210 209.6 214.9 212 210.8 211.6 214.4 219.2 220.8 225.4 222.6 220.2 221.7 222.2 220.5 217.2 213.3 210.8 210.5 211.4 209.5 210.7 212.7 214.1 213 211.9 216.6 219.9 222.5 223 223 223.1 223.8 222.7 219.1 214.2 211.5 213.7 215.7 213.1 206.7 214.3 215.6 216.4 216.4 216.2 215.3 214.4 213.7 214.7 216.7 218.3 219.7 221.6 223.5 226.5 228.8 230.4 231.5 231.7 231.8 232 231.1 228.5 228.5 231.1 232.3 233.7 234.8 236.5 239 241.7 242.8 243 237.6 229.8 229.3 230.3 233.8 242.7 249.3 254.9 259.1 260.7 260.3 256 251.3 248.2 246.1
242.8 245.8 247.8 249.3 250.8 251.5 251.8 253.7 254.5 253.4 251.1 246.2 243.1 243.4 242.2 240.9 239.5 238.8 238.8 239.6 239.7 237.7 233 232 231.8 232.2 233 236.1 238.9 236.9 233.3 230.5 228.9 228.2 228 227.9 227.9 227.9 228 227.9 228.5 228.6 228.6 229.6 228.2 203.2 205.1 216 217.4 214.2 210.9 206.1 205.7 206.7 215.9 216.1 215.6 214.3 210.2 207.9 206.3 206.3 206.2 206.7 208.5 211.5 213.7 214.5 215.2 214.9 214.8 216.5 219 220.5 220.4 216.5 215.1 212.6 208.7 206.7 202.2 201.3 204.8 206.9 206.5 207.9 210.5 209.8 206.2 204.6 204.9 205.4 206.5 209 211.4 206.9 208.7 209.4 209.6 209.8 210.5 210.2 210.6 210.7 209.5 211.6 211.8 213.2 213.9 212.9 212.4 212.6 213 212.8 212 210.8 210.4 211.6 215.8 218.3 218.3 220.4 220.8 222.3 222.5 220 215.8 212 209.5 208.2 207.9 208.9 211.3 210.8 210.4 211 210.2 216.1 216.5 217.7 219.4 221.5 222.5 224.3 221.7 216.5 213 210.4 210.9 212.5 209.5 208.4 214.2 216.2 216.8 216.9 216.9 216 215.1 214.8 215.8 217.3 218.6 220.4 222.4 224.4 226.9 228.9 230.3 232 232.7 233.3 233.6 233.1 233.4 232.9 232.6 232 231.9 232.9 234.1 235.7 236.8 236.8 234.6 229.5 227.6 228.3 228.9 231.6 237.2 244.2 251.3 256.5 259.3 258.1 253.6 249.1 245.3 243.2
242.1 244.9 246.3 246.8 247.4 247.7 248.4 249.7 250.6 249.4 246.1 243.1 242.6 243.3 243.4 241.3 239.5 238.8 238.6 238.5 238.6 237.1 234.3 232.4 229.8 232.4 232.7 234.8 237 236.2 232.5 230.3 229.5 227.9 227.9 227.8 227.7 227.8 227.9 228 228.3 229.2 229.3 230 227.9 206.2 204.9 215.4 219.2 221.6 221.9 221.1 219.7 218.7 218.1 217.5 217.2 215.2 211 207.6 207 206.8 206.6 208 210.9 213.8 213.8 215 217.1 217.1 216 216.3 217.4 224.2 216.1 214.7 213.4 211.4 203.7 202.2 202.2 203.7 207.7 210.1 209.6 211.5 215.4 213.3 208.7 206.1 205.5 206.7 208.7 211.6 217.6 208.8 209 208.7 208.5 208.7 209.9 210.3 210.1 210.4 210.8 211.2 211.6 212.2 212.6 212.4 212 211.8 211.5 211.3 210.9 210.2 209.8 209.8 212.6 215.8 215.7 219.4 222.4 223.1 221.8 217.6 213.6 210.4 208.3 207.1 207.3 207.5 208.2 208.3 209.4 211.6 213.7 214.8 214.1 214.4 216.7 218.7 218.8 219.4 216.6 212.5 209.4 208.5 208.9 209.1 207.7 209.9 213.8 216.1 216.8 217.4 217.4 216.7 215.8 215.9 216.4 217.4 218.7 220.8 222.9 225.6 228.3 230.4 231.3 232.2 233.4 234.1 235.6 236.1 235.5 234.9 233.6 232.6 232.1 231.4 230.9 231.5 232.2 230.3 228.1 227 227.2 227.9 228.5 229 233.3 239.7 246.8 251.1 253.6 252.5 249.9 246 242.5 240.3
241.3 243.8 243.7 243.3 243.6 244.2 245.4 246.3 247.2 247.3 244.3 242.8 243.1 244.1 244.4 242.9 241.2 240.1 238.9 237.7 237.1 235.9 234.1 232.8 231.3 231.9 232.4 232.9 234.5 235.3 231.9 229.9 229.8 229.7 228 227.9 227.1 226.8 226.9 227.7 228.1 229.4 230 230.3 227.5 220.6 203.2 204.9 217.2 223.1 224.4 221.1 220 219.7 219.3 218.3 217.5 215.4 211.1 207.5 207.1 207.7 209.1 210.7 213.2 213.9 214.8 217.8 224 221 217.3 217.5 221.1 216 213.6 212.3 211.4 209.4 203.9 202 202.6 205.4 210.9 212.5 213 215.2 218.4 217.3 214.1 210.2 207.7 209.6 211.7 214.4 221.9 222.7 218 208.2 208 208.9 209.8 210.4 209.8 209.9 210.3 212.1 213 213.5 215.3 214.6 213.2 212.2 210.8 209.9 209.4 209.2 209.3 209.4 210.4 215.1 217.2 220 221 219.7 217.3 214 210 208.7 207.3 206.6 206.5 206.8 207.3 208.3 210 211.7 212.6 212.3 211.9 212.9 214.4 216.2 217.2 216.1 213.7 209.3 207.4 206.8 207.1 206.8 209.2 211.3 213.8 215.9 216.4 217.3 217.5 216.2 216 216.7 216.8 217.8 219 221.3 224.3 227.8 231.3 233.1 233.3 233.7 234.6 235.5 236.3 236.6 235.9 234.6 233.2 232.3 231.7 230.2 228.2 227.4 227.6 227.3 226.4 226.6 227 227.7 228.7 229.6 231.5 235.2 241.9 245.3 246.5 246.2 244.4 242.3 239.2 236.8
239.5 240.6 240 239.3 240 241.1 241.7 242.4 243.7 245.8 245.1 244.4 244.5 244.9 245.1 244 242.8 241.5 240.2 239.2 237.3 235.7 234.3 233 231.6 231.3 232 232.6 233.7 234.6 232.4 229.6 228.6 229.3 228.8 227.9 226.3 225.7 225.7 226.9 227.7 229 229.4 228.3 223.5 215.3 209.6 203.4 219.3 226 227.5 224 220.8 219.6 218.6 217.3 216.2 214.3 209.9 207.6 208.3 210.8 213.5 213.8 214.7 218.2 222.9 226.2 226.4 224.1 218.9 218.1 216 213.2 211.2 210.5 209.7 207.8 205.9 202.8 202.5 206.4 214.2 218 218.8 220.3 222.8 222.4 218.7 214.3 210.9 209.6 212.9 214.4 218.1 218.5 217.3 207.4 207 210.9 210.3 210.9 209.3 208.9 211.4 213.3 214.4 215.8 218.9 218.4 216 213.5 212.1 210.9 209.5 208.8 209 209.5 210.8 215 217.4 217.1 215.6 213.8 210.7 209.2 208.5 207.4 206.7 206 205.9 206.3 206.8 208.3 210 209.6 212.2 212.1 211.5 212.2 214.7 217.1 219.5 217.2 214.1 209.3 206.9 206.4 206.8 207.9 210.1 212.1 214.3 215.8 217.3 217.7 217.1 216.3 216.3 217.1 218.2 218.7 220.1 222.1 225.9 229.7 233.1 233.4 233.7 234.8 236.5 237.5 237.5 236.7 234.9 233.6 232 230.9 230 228.1 226.4 225.9 225.8 225.8 226.1 226.5 227.3 228.2 229.2 230 231.1 232.8 236.7 240.5 241.6 240.9 239.7 238.1 236.3 234
236.1 236.6 235.8 235.7 236.8 238.3 238.6 238.8 241 243.8 244.2 246.2 246.1 246.3 246.3 245.6 244.6 243 241.4 240 238.3 236.6 235.5 233.9 232.2 231.1 229.1 231.9 232.9 233.6 232.6 230.2 229.5 229.2 228.6 226.7 224.6 223.7 223.8 225.4 227.2 227.8 227.7 225.1 208.9 205.6 204.6 203.2 223.1 225.2 227.2 226.9 223 219.4 218.6 217.6 216.7 213 208.9 208.6 212 219 221.2 222.7 224.4 225.7 225.5 226.3 227.9 223 219.4 216.7 213.5 211 209.6 208.9 208.4 207.7 206 203 201.4 205.9 213.9 220.6 220.9 221.8 223.6 223.2 220.4 217.7 213 209.7 210.3 211.6 212.5 211.6 213 215.4 214.5 211.6 209.6 208.5 207.4 208.5 212.4 214.4 214.4 216 220 220.7 216.3 214 215.3 214.3 211.6 208.3 209.7 213.1 214.8 218.2 220 218.1 214.2 211.2 208.9 207.5 207.3 206.9 205.9 205.3 205.8 205.9 206.4 208 209.8 211.3 210.3 213 212.7 210.8 212.6 219.1 224 222.2 216.1 209.3 206.5 206.6 206.8 208 210 212 213.3 214.9 216.3 216.9 216.3 216.5 216.9 217.2 218.1 218.8 220.8 223.1 226.2 230.2 232.8 233.7 234.5 236.4 238.2 239.3 239.6 237.7 235.6 232.2 229.9 228.3 228 226.4 225.1 224.9 225.3 226.1 226.5 227.3 228.1 228.8 229.2 230.1 231.5 232.1 233.3 236.4 237.1 236.7 236.3 235.2 233.6 231.2
232.3 233.5 233.4 233.4 234.5 235.9 236.4 236.5 237.9 240.3 243.4 246.7 247.9 248 247.5 246.8 246 243.7 241.4 239.4 237.8 236.9 236.1 234.6 233.3 232.9 231.6 229.6 230.2 230.4 231.4 230.6 230.8 230.7 229.6 226.1 223.2 222 222 223.4 225.1 226.3 225.7 221.5 201.5 204.3 211.4 224 224.7 225.4 225.4 226.4 225.1 221.3 218.3 216.5 213.7 210.4 208.9 211.5 218.9 224.3 228.6 227.7 225.9 225.2 224.5 224 222.1 218.1 215.9 214.4 212 210 209.1 208.6 208.6 208 205.9 203.9 201.3 204.9 209.7 215.8 218.9 219.2 220.9 223.7 223.6 220 216 213 210.2 208.5 209 209.7 209 213.1 212.1 209.9 207.4 206.5 207.9 207.6 210 214.5 214.8 214.9 219.5 222.2 220.1 217.2 219.3 218.7 213.1 206.9 210.4 215.1 218.1 221.4 224.4 220.1 215.7 212.2 209.8 208.6 207 206.3 205.1 204.7 205.2 205.4 206.3 207.4 207.1 210.9 212.9 213.7 211.9 210.2 211.5 217.4 221.7 218 211.8 208 206.3 206.5 206.7 207.8 209.9 211.2 211.3 212.3 214 214.9 215.2 215.7 216.3 217 217.8 218.9 220.8 223 226.1 229.8 233.3 233.8 234.7 237.1 238.3 239.9 240.7 238.5 236 233.4 229.2 226.6 226.2 225.5 224.5 224.6 225.4 226.4 227.3 228.1 228.9 229.4 229.8 230.7 232 232.6 232.7 233.1 234 233.7 233.7 232.6 230.7 228.5
228.8 230.5 231.1 231.4 232.5 233.8 234.3 235.6 235.8 238.1 242.4 246.9 249.2 249.3 248.1 246.6 246.2 243.7 241.1 238.7 237.3 237.4 237.6 235.9 233.2 232.7 231.9 231.5 229.7 228.8 230.8 230.6 231.2 231.9 229.5 226.2 222 220.7 220.7 222.1 224 225.4 222.9 212.7 203.6 215.7 225 225.1 225.2 225.3 224.4 224.3 223.7 221.4 217.3 214.2 211.5 212 213.5 217.1 222 225.2 226.8 228.3 226.6 223.7 221.6 220.7 217.2 214.6 213.2 211.8 210.9 209.6 209.4 209.6 211.3 209.9 206.8 206.2 202.6 202 206.4 211.3 216.3 218.5 217.4 224.4 224.6 220.7 217.3 215.8 212.2 208.2 207.5 208 206.8 208.3 207.9 207.4 205.9 205.7 206.2 206.5 206.5 209.1 211.5 213.3 217.6 221.7 222.2 222.8 223.6 222.9 215.7 204.7 210.6 215.8 217.7 219.7 221.9 219.5 216.1 212.7 211 210.4 208.7 205.9 204.5 204.4 204.3 204.9 206.1 207.7 209.1 212.9 216.2 213.3 210.7 209.7 209.5 212 213.7 211.1 208.9 207.2 206.1 206.6 206.8 207.5 209 209.8 209.7 210.3 211.6 212.9 214.6 215.5 216.2 216.9 217.6 218.6 220.1 222.1 224.7 228.5 231.5 232.9 233.7 235.7 237.2 237.1 237.8 236.9 235.4 232.7 228.6 226.4 224.9 224.2 224.2 224.5 225.8 227 228.4 229.2 229.8 230.2 230.7 231.8 232.4 232.8 232.5 232.2 232.3 231.8 231.4 230.5 228.1 225.8
225.6 227.6 228.9 229.5 230.4 232 232.3 233.6 233.8 237 242.7 246.7 248.4 248 246.4 245.6 245.7 243.4 240.2 238.2 237.9 238.6 238.8 236.4 232.4 231.7 230.9 229.3 228.4 228.3 229.5 231.3 232.3 231.3 228.7 225.8 222.3 219.7 220 221.9 223.7 225 223 212.7 203.8 220.2 225.1 224.9 224.6 223.3 222.3 221.9 220.5 218.5 216.6 216.6 216.5 216.6 218.2 220.5 223.3 225.4 225.8 226.6 221.4 219.2 219.2 217.2 215.1 212.8 211.4 210.9 210.5 210.4 211 213.4 213.9 210 207.7 205.7 203.1 200.8 203.2 205 204.7 208.4 214.2 220.5 223.1 222.6 218.2 212.7 210.2 208 206.5 205.7 205.4 206.3 206.4 205.3 205 204.8 204.6 205.1 204.8 205.7 207.5 210.5 215.7 219.8 222.4 223.6 222.4 219 213.4 205.9 211.6 216.7 216.8 218 218.5 218.2 215.9 213.7 209.7 210.1 209.4 206.2 203.9 203.7 203.7 204.3 207.3 209.1 209.8 214.7 218.3 214.6 211.5 209.8 209.5 209.5 209.5 208.6 206.7 206.3 206.3 206.5 206.8 206.8 207.6 208.3 208.3 209.1 211.1 212.9 214.7 215.7 216.1 216.7 217.2 218.2 219.5 221.7 224 227.3 230.3 231.8 233.1 234.5 235 234.8 234.5 233.2 231.9 229.4 227.7 226.2 224.6 223.8 223.8 224.6 226.1 228 229.4 230.2 230.8 231.4 231.9 232.4 232.7 232.9 232.5 232.1 231.1 230.1 229.9 228.6 227.1 225.6
223.2 225.6 227.8 229.1 228.9 228.9 229.9 231.3 234.3 238.5 243.5 245 245.3 244.8 243.5 244.2 243.8 242.3 239.5 237.8 237.7 238 238.2 234.7 231.5 230.9 228.8 226.6 227.3 229.2 230.2 233.4 232.8 230.5 227.7 224.3 221.1 219.2 220.6 222.1 224.4 226.5 222.5 214.3 204.9 220.4 223.8 223.6 222.7 221.2 219.8 219.4 218 217.3 218.1 218.9 219.9 220 220.8 222.1 224.2 223.7 220 218.3 217.8 217.7 218 216.8 214.8 213.3 212.4 211.9 212 212.2 214.8 217.2 211.3 208.8 207.4 205.6 203.4 201.7 199.6 201.3 204.4 212 212.2 217 220.7 220 214.1 209 207.5 206.7 205.4 204.7 204.5 204 203.9 203.8 203.7 203.7 203.7 203.8 204 204.4 205.5 208.7 213.4 217.6 220.2 219.4 218.3 213.8 209.3 204.9 208.8 212.3 214.2 217.8 218.3 217.8 217.3 216.2 209.3 206.2 206.5 204.5 202.9 202.8 203.1 203.7 205.6 208 212.7 215.5 218.8 218.1 213.1 211.1 211.1 210.6 209.4 207.5 206.5 206.2 206.3 206.5 206.7 206.9 206.8 207 207.6 208.9 210.8 212.8 214.8 215.3 215.6 216.1 216.9 218.1 219.6 221.2 223.8 227.2 230.3 232.1 233.1 233.4 233.5 233.4 233 231.8 229.9 228.8 227.3 225.8 224.3 223.8 224.3 226.1 228.4 229.8 230.7 231.3 231.6 231.3 231.5 232.2 232.7 233.5 231.9 231.1 230.1 229.4 228.7 227.3 225.5 225.2
221 224 226.2 228.3 226.7 225.9 227.1 230.2 234.1 238.5 242.1 243 242.8 242.6 242.2 243.8 243.5 241.4 239.1 237.5 237 237.4 236.9 233 230.5 229.1 227.1 224.2 228 230.1 232.5 234.2 231.7 229.3 225.8 222.3 219.4 218.6 220.6 222 225.4 226.6 221.1 208.4 203 220.2 223.1 222.5 220.6 219.3 217.8 216.8 216 218.2 219.4 220.2 220.1 220.2 221.3 223.7 223.5 220.3 217.7 217.7 217.6 217.6 217.6 216.6 215.3 214.3 216 216.4 215.3 215.1 213.9 210.8 207.6 209 208.3 205.6 204.7 203.1 200.9 199.8 202.4 204.5 208.2 213.9 217.2 216.2 212.9 208.6 206.7 205.4 204.7 204.6 204.2 203.8 203.6 203.4 203 203.1 203 203.1 203.3 203.6 205 208.2 211.4 212.9 213.6 214.9 214 210.8 208.2 203.8 204.2 209.9 216.2 218.3 218.5 218.2 217 216.4 211.9 205.2 203.1 202.3 201.7 202.1 202.5 203.8 206.6 211 213.4 214.3 216.1 217 213.6 213.4 216.2 215.6 212.3 208.1 206.3 206 206.3 206.5 206.7 206.9 206.9 206.7 207.1 208.1 210.3 211.6 213 214 215 216 216.9 218.1 219.6 221.2 223.3 227 230.6 232.4 233.2 233.2 232.8 232.4 231.6 230.4 229.4 228.3 226.6 224.9 223.7 223.7 225 227.6 230.1 231.8 232.6 232.4 231.7 231.3 230.8 231.3 234.1 232.9 230.1 229.2 229 228.4 227 225.7 223.8 222.9
215.6 221.8 225 226.9 224.4 223.3 224.3 227.6 232.1 235.9 239.5 240.7 241.2 240.9 240.8 243.3 243.1 241.2 239.3 237.5 235.9 235.2 233 230.9 229.8 227.9 227.1 221.5 226.8 231.5 233.8 233.7 231.2 228.4 224.3 220.8 218.6 220 220.7 221.8 224.9 224.8 219.3 204.2 209.3 222.3 223.8 221.1 217.4 216.4 215 213.5 213.4 216.4 219.8 220.4 220.3 218.9 219.9 220.9 219.7 217.9 217.4 217.6 217.5 217.4 217.4 216.7 214.3 213.2 214.1 214.9 213.6 211.3 208.6 206 206.2 208.4 207.6 206.9 206.2 205.4 202.7 198.8 201.8 205.2 209.2 211.6 213.5 213.7 212.9 209.6 207.2 205.5 204.7 204.4 204 203.6 203.3 202.8 202.3 202.3 202.3 202.4 202.7 203.4 204.8 208.4 210.1 209 208.4 208.8 210.3 209.3 208.2 203.5 203.3 210.9 216.4 217.7 217.6 216.1 213.9 212 209.4 205.1 202.5 201.6 201 201.4 202 205.6 204.7 213.6 212.6 210.9 211.4 211.9 211.6 213.1 214.5 213.7 211.3 208 206.3 205.9 206.2 206.4 206.7 206.9 206.7 206.6 206.8 207.6 209.1 210.1 211.1 212.6 214.1 215.4 216.8 217.9 219.5 221.1 222.7 225.9 230 232.5 233.5 233.4 233.1 232 231 230 229.2 227.9 225.9 224.2 223.5 223.7 225.7 228.9 231.5 233.4 234.6 234.4 233.6 231.6 230.1 230.9 232.7 231.3 228.2 227.5 227.5 227.3 226.4 224.2 220.8 220.2
218.1 219.9 214.8 223.3 221.6 220.5 221.4 223.7 228.2 232.4 236.2 237.4 237.9 238.3 238.5 241.3 241.9 240.5 239 236.7 234.1 232.2 229.8 229 227.9 226.8 225.8 220.8 228.6 234.8 234.5 232.9 230.4 227.4 222.6 219.8 219.7 220.4 220.9 220.9 223.3 222.8 208.7 203.4 218.4 224.4 222.7 218.7 214.6 214 212.6 211.4 211.5 212.3 216.9 218.6 216.3 216.3 218.5 217.6 217.9 217.4 217.4 217.5 217.7 217.6 217.2 216.6 214.3 212.8 212.9 213.3 212.1 209.9 207.6 206.1 206.7 208.4 209.3 208.6 207.6 206.1 203.6 200.6 201 204.2 207.3 210.6 212.7 213.2 213 211.1 208.6 206.5 205.3 204.3 203.9 203.6 203.1 202.5 201.6 201 201.6 201.9 202.5 203.3 204.5 207.8 208.6 206.8 205.4 206.4 208.2 208.4 207.3 203.7 202.9 207.8 213.6 214.4 214.5 211.7 210.4 209.7 207.5 204.7 202.7 201.2 200.7 201 202 206.1 210.2 214.5 211.5 210.7 210.7 210.5 210.1 209.6 209.3 208.8 207.9 206.8 206.2 205.9 206.1 206.2 206.4 206.6 206.5 206.6 206.8 206.9 208.3 208.9 209.6 211.4 213.2 214.6 216.3 217.9 219.4 220.8 222.2 224.8 228.2 231.7 233.4 233.9 233.6 232.3 230.5 229.5 228.9 227.1 225.2 223.3 223.1 224.5 226.8 229.5 231.7 233.9 236 235.8 234.7 232.6 230.8 229.9 231.2 228.6 226.1 225.3 225.6 226.5 226.2 223 218.8 217
216.9 219.1 219.2 218.2 216.1 216.5 217.8 218.9 222.5 228.2 232.8 233.7 234 234.6 236.7 240.1 241.8 238.7 236.9 235 231.7 229.3 228.9 227.5 226.6 225.8 223.6 223.1 231.1 235 233.8 231.7 229.2 225.3 220.5 218.3 217.5 216.6 215.9 216.5 217.6 217 201 213.1 220.4 222.9 218.9 214.9 212.9 212.1 210.8 209.8 209.9 210.7 211.7 214.3 216.7 216.2 214.7 215.8 218.1 217.5 217.4 217.4 217.5 217.7 217.7 216.9 214.8 212.5 211.5 213.2 213.2 210.9 209.3 206.7 207.2 208.5 209.2 207.9 206.6 204.9 202.6 201.8 199.5 202.5 204.4 208.5 212 212.3 212.1 212.3 211.7 210.7 208.5 206.1 204.6 204 203.2 202.5 200.9 199.8 200.5 202.8 203.4 203.4 204.4 206.3 207.2 205.5 203.7 204.5 206.4 206.7 204.8 201.6 201.9 205.8 210 210.7 211 210 209.2 208.2 206.6 204.8 202.8 201.1 200.5 200.8 202.4 204.7 211.7 213.7 211.6 210.9 210.8 210.5 209.7 209 208.4 207.9 207.3 206.9 206.3 205.9 205.5 205.8 206.1 206.3 206.3 206.5 206.9 207 207.4 207.7 208.7 210.3 212.2 214 215.5 217.3 219.2 220.2 222 224.8 227.2 230.3 232.9 234.1 233.7 231.9 229.8 228.8 227.9 226 224.4 223 223.9 226.9 229.2 229 231.9 234.1 236.1 236.3 234.8 232.6 230.9 229.1 227.3 224.8 223.1 222.2 222.9 223.2 224.5 222.1 217.7 215.2
214.8 215.9 213.5 211.6 211.3 211.1 212.7 213.7 215.9 220.7 225.1 229.1 229.3 232.7 234.7 236.4 238.8 237.5 235 232.9 229.3 226.9 226.4 225.9 224.1 223.6 217.9 226.7 233.1 234.5 232.9 230.7 227.9 219.6 203.2 200.5 204.3 206.8 204.9 203.8 205.1 204.4 206.9 215.7 217.9 217.4 214.9 213.4 212.2 210.6 209 208.5 208.7 209.3 210 211 212 212.6 214.3 216.5 218.4 217.2 217.4 217.6 217.7 217.5 215.7 215 215.2 212.2 209.4 210.7 211.7 211.5 209.4 206.9 207.8 207.7 207.1 205 203.9 202.6 201.7 201.2 199.4 200.8 203 206.8 210.7 211.1 210.9 211.7 212.3 212.5 212.5 212 208.5 205.4 203.2 202.1 200.2 199.6 199.6 200.7 201.7 202.6 202.2 204 204.9 203.6 201.7 203.1 205.4 205.3 203 201.2 202.1 205.6 207.8 208.3 208.3 208.3 208.1 207.6 206.1 204.7 202.9 201.1 199.7 202.1 204.7 206 214.8 214.1 211.8 211.6 212.4 211.5 209.8 209 208.2 207.7 207.4 207 206.3 205.9 205.6 205.5 205.8 206.2 206.3 207.2 207.9 208 207.4 207.5 208.2 210 211.9 213.6 215.1 217.1 218.5 219.4 222.2 225 227.3 228.9 231.6 232.9 232.8 230.4 228.1 226.5 225.6 224.4 223.4 222.8 224.4 227.1 227 228.2 231.2 234.4 235.6 236.3 234.4 232.4 230.5 228.1 225.7 223.4 222.1 220.8 219.7 218.7 216.6 216.1 214.8 213.2
210.1 211.6 209.2 209.9 212 211.8 209.7 208.1 213.6 212 214.6 217.8 224.1 228.6 230.1 231.1 233.4 234.9 233.4 230.6 227.7 225.8 224.1 222.2 219.9 217.7 222.2 229.2 234.3 234.3 232 229.6 226.6 215.6 199.7 202.4 211.9 213.9 216.1 207.6 203.8 204.2 210.8 214.1 215.3 215.1 215.6 214 210.9 208.9 207.4 207.6 208 208.5 208.9 209.5 211.5 214.1 216.3 216.8 215.8 216.2 216 217 217.6 213.9 212.3 212.6 213.3 211.7 208.3 207.2 208.9 208.1 206.6 205.9 207.4 206.9 205.6 203.7 202.3 201.3 201 200 198.9 199.7 201.2 203.8 208.4 209.4 209.3 210 210.7 211.5 212.4 212.4 210.5 205.4 202.8 201.4 199.6 199.5 199.3 199.2 199 199.5 199.9 201.7 201.8 200.9 200.6 201.5 203.9 203.3 200.9 201 203.8 206.1 207.3 207.3 207.4 207.3 207.1 206.7 205.5 204.2 203.1 201 199.7 202.9 208.9 213.3 216.2 215.5 213.1 214.1 213.5 211 209.6 208.9 208.2 207.6 207.3 206.9 206.2 205.7 205.4 205.5 205.8 206.1 206.5 207.4 208.9 208.5 207.9 207.5 208 209.8 211.8 213.3 214.8 217 218 219.2 221.9 225.2 227.4 228.6 229.7 229.8 228.8 227.3 225.6 224.1 223.5 223 222.6 222.8 223.1 224 225.2 227.9 230.9 234.2 234.9 235 233.5 232.1 229.9 227.7 224.8 223 221.7 219.9 218.1 216.3 215.3 214.8 213.3 210.6
201.8 205.5 208.4 211 212.8 211.9 209.1 209.2 209.1 208.2 212.8 210.7 213.2 217.6 222.7 226.2 229.5 231 230.2 228.8 226.4 224.2 221.9 219.3 211.8 220.1 224.8 231.4 234.2 232.4 230.1 227.4 223.2 217.7 199.2 200.7 207.4 211.9 215.4 221.5 217.3 211.6 210.8 210.4 210.1 209.4 209.8 214 208.5 206.3 206.3 207.1 207.4 207.8 208.4 209 212.3 214.9 216.7 216.4 214 213.2 213 217.1 218.5 216.8 213.4 212 210.8 209.6 207.6 205.3 205.2 204.4 204.2 204.1 205.4 206 204.8 203.3 201.5 200.9 200.1 199.1 199.1 199.9 200.3 202.7 206 208.4 208.5 208.6 209.3 210.2 210.7 209.6 207.8 204.3 202.5 201 199.8 199.7 199.8 199.9 199.4 198.8 198.6 198.6 198.8 198.9 199.3 200.7 202.5 201.3 199.5 202.5 204.7 205.6 206.4 206.4 206.5 206.1 206 205.6 204.4 203.8 203.3 202 200 203.9 203.3 214.6 216.9 216.6 214.5 212.3 210.8 210.2 209.1 208.6 208.1 207.6 207.2 206.7 206.3 205.7 205.4 205.2 205.7 206.1 206.4 206.5 206.9 207.4 207.3 207.7 208.2 209.8 211.8 213.3 214.9 216.5 217.6 218.8 221.3 223.6 226 227.6 226.2 224.6 224.2 224 223 222.5 222.6 222.4 222.2 222 222.6 223.3 225.3 227.9 229.8 234.1 234.3 234.1 233.5 232.2 230 227.8 225.9 223.8 221.2 219.1 217.3 215.6 214.6 213.9 213.4 210.6
192.1 203.7 210.8 212.9 212.3 210.2 206.3 205.3 206.8 206 206.6 207.8 210.6 207.5 212.2 217.4 224.4 227.3 226.2 224.2 222.7 221.6 219.3 218.7 209.6 219.5 224.7 232.4 233.7 230.2 227.3 223.6 219.1 215.9 210.4 200.1 198.2 203.3 208.9 219.9 213 210.3 209.3 208.5 206.3 205.8 206 207.6 205.1 205.1 206.2 207 206.7 207.1 207.8 209 211.3 213.1 215.7 215.1 214 211.2 210.1 215.3 220.9 218.2 214 210.2 208.7 207.2 204.9 203.9 201.7 201.9 202.7 202.6 203.5 204.4 203.5 202.3 201 199.9 198.9 198.3 199.2 199.9 199.9 201.1 203.7 206.4 208 208 208.2 208.8 208 206.8 205.5 203.6 202.4 201.3 200.2 200.4 200.5 201 201 200.6 199.4 198.2 197.9 197.5 199.1 200.8 200.8 199.6 198.8 201.5 203.5 204.6 205.4 206 206.6 205.8 205.3 204.8 204.4 203.9 203.4 201.2 198.9 201.4 207.5 213.5 216.4 215.9 213.8 211.6 210.2 209.3 208.8 208.5 208.2 207.6 207.4 206.8 206.1 205.7 205.4 204.9 205.3 205.8 206.4 206.2 206.4 207.3 207.7 208.1 208.6 209.9 211.8 213.4 215 216.2 217.2 218 219.8 221.6 223.5 224.3 222.7 221.8 221.7 221.7 221.7 222.1 222.2 222.2 222 221.9 222.4 223.7 225.8 228 230.1 232.9 235 235.1 233.7 232.3 230.1 228.5 227.8 224.5 220.1 218.2 216.4 214.9 214 213 211.5 210.1
183.1 206 211.6 212.7 209.6 207.2 205.9 205.1 204 203.4 203.1 203 202.6 203 209.3 211.3 215.7 221.5 221.1 219.4 217.7 216.3 215.5 212.1 208 216.6 222.2 230.7 230.4 226.5 222.3 218.4 210.4 204.3 201.9 197.8 200.2 196.2 200.2 212.1 209 208.5 208.3 206 204.4 204.5 204.6 204.8 205.2 205.3 205.6 206.2 206.3 206.4 208 210.2 209.9 210.8 212.3 212.2 212.3 211.1 208.9 213.2 217.9 215.6 211.7 207.1 205 204.7 203 201.9 199.6 200.4 201.4 201.5 202.1 202.7 202.2 201.7 200.6 199.4 196.5 198.6 199.4 199.9 199.9 200.1 200.7 202.7 204.2 205.7 205.8 206.4 205.6 204.5 203.6 202.9 203 202 201 200.7 201.5 202.2 202.5 202.4 201.1 199.2 197.5 196.7 196.9 198.4 199.1 198.2 197.8 199.3 201.3 202.6 203.2 204.8 205.4 205.3 204.8 204.4 204.1 203.8 203.3 198.9 197.6 201.6 207.7 211.9 214.4 214.2 213 211.4 210.3 209.6 209 208.7 208.5 208 207.5 207.2 206.7 206.1 205.6 204.9 204.9 205 205.6 206.4 206.8 207.5 208.2 208.7 209.6 210.1 212 213.6 214.7 215.9 216.6 216.8 218 219.2 220.5 221 220.6 220.1 220.6 221 222.2 221.9 222.1 222.3 221.5 221.9 222.5 223.6 225.7 228.5 231 233.7 236.1 236.1 235.2 232.6 230.5 228.4 225.2 222.2 219.3 217.6 215.9 214.4 213.6 212.7 211 209.1
172.9 205.8 210.7 207.9 205.7 205.5 205.6 206.5 206.4 205.1 203.3 201.9 200 198.9 202.6 206.2 210.3 210.4 212.1 212.2 212.4 211.2 204.7 212.2 212.8 214.6 216.2 222 218.9 211 207.1 198.9 195.6 197.3 198.2 196.3 197.9 198.6 198.5 206.5 201.4 201.4 201.4 204.8 204.6 204.6 204.6 203.5 205.8 206.4 206.4 206.8 208.7 208.5 208.2 211.6 211.4 210.5 208.7 208.7 210.1 207.6 210.4 212.8 214.2 212.3 210.1 207.2 205.3 203 201.6 200 197.8 198.4 200.1 200.3 200.8 201.2 201.1 200.9 199.7 200.2 201.5 200.5 198.5 197.3 197.3 198 197.8 197.8 197.9 199.7 200.2 199.9 199.4 203.5 203.5 203.5 203.5 203.5 203.2 203.6 203.6 203.3 203.1 202.2 200.7 199.1 197.3 195.9 195.8 196.3 197.5 197.5 197 197.3 199.1 200 200.9 202 202.6 203.8 203.8 204.1 203.6 202.9 199.8 198.6 198.5 201.7 206.8 210.4 212.8 213.3 212.6 211.4 210.5 209.8 209.4 209.1 209.1 208.8 208.4 208 207.4 207 207 206.1 205.1 201.8 204.8 205.6 207.1 208 209 209.9 210.6 211.2 212 213.3 214.5 215.5 215.5 215.6 216.5 217.6 218.7 218.5 218.6 218.4 219.1 220.9 222.4 222.7 222.9 222.7 221.5 221.4 222.2 223.3 226.2 229.2 231.9 234.6 236.9 237.3 236.2 233.5 230.5 226.7 223.6 220.2 218 216.4 215.1 213.9 213.2 212 210.6 207.4
174.1 204.5 206.5 204.1 205.1 206.4 207.2 207.2 205.8 203.9 203.6 202.2 199.7 197.8 198.3 200.6 202.4 205.7 208.4 209.6 208.6 201 209.9 206.8 205 208.2 210.4 207 199.6 192.3 195.9 201.3 206.9 211.3 213.6 200.1 197.1 198.6 197.7 202.4 201.4 204.4 204.6 204.6 204.6 204.3 204.4 206.3 210.8 210.3 209.1 208.3 210.6 208.6 209.8 215.4 214.8 213.4 211.2 209.9 207.2 204.5 207.1 208.5 209.9 209 207.9 206.5 204 201.6 200.2 198.5 196.1 196.5 197.8 202.6 203 200.2 200.6 200.9 199.3 198.4 198.2 198.4 199.1 199.7 200.4 201.6 203 203.8 204.2 204.3 203.9 202.4 201.7 201.4 201.1 198.9 199 205.1 205 205 204.7 204.1 204.1 203.1 201.6 199.8 197.2 195.5 195.2 195.6 197.4 198.1 196.6 196.3 196.6 197.8 199.3 199.8 199.6 201.8 203.8 200 203.4 201.8 200.5 199 197 201.4 205.5 209.4 212.5 213.1 213.1 211.8 211.2 210.8 210.5 210.2 210 209.6 209.4 208.8 208.1 208.1 208.1 207.8 207.6 206.7 205.4 204.8 207.1 208.2 209.5 211 211.4 211.8 212.6 213.3 214.1 214.9 214.4 214.7 215.3 216.1 216.9 216.6 216.4 217.1 218.6 220.8 222.3 222.9 223 222.3 220.9 221.1 222.2 223.5 226.7 230.1 233.9 236.6 238.4 238.2 236.3 234.1 229.5 225.5 222.6 220.1 217.9 215.6 213.6 213 212.3 211.8 209.7 203.4
174 198.3 200.8 202.6 206.3 206.6 206.3 206.8 205 202.6 201.2 200.2 198.2 197 197.4 197.6 198.3 198.2 198.7 201.6 204.4 207.2 203.6 202.2 198.8 196 193.4 195.3 200.9 208.4 210.3 207.1 202.7 205 206 204.8 197.9 197.1 199.8 201.2 204.6 204.6 204.6 203.3 206.9 209.2 211.6 213.6 213.2 212.1 210.8 208.4 208.8 207.5 210.2 213.9 214 212.6 211.6 210.1 208 205.5 203.3 204.4 205.4 205.6 204.5 203.2 201.5 203.1 202.2 197.3 194.1 194.2 196 197.6 198.5 199.3 199.5 199.6 199.2 198.9 198.9 200.5 201.5 202.4 203.1 203.8 204.8 205.2 205.5 205.3 205.1 204.8 203.4 202.3 202.3 202.6 202.1 201.8 198.7 198.7 204.6 204.1 202.9 202 199.8 198.9 197 195.4 194.8 195.1 197 198.5 195.9 195.7 195.8 197.1 198.1 197.9 200 200.9 202.5 203.4 201.4 200.4 199.6 197.3 197.3 198.5 202.6 207.3 211.1 212.5 213.2 212.6 212.4 212.5 212.2 211.9 211.5 210.6 210.2 209.4 209 208.9 209 209 208.6 208.5 207.6 204.8 204.3 207.9 210.2 211.7 212.1 212.2 212.2 212.6 213.4 213.8 213.6 214.4 215 215.6 215.8 215.7 215.7 216.6 218.5 220.3 221.3 222.3 222.3 221.3 216.8 220.7 221.8 224.4 227.3 231.7 236 239.3 240.8 238.8 236.6 232.7 227.9 224.6 222.1 219.8 217.6 214.8 212.7 212.1 211.4 211 207.7 197.2
172.7 194.2 196.6 201.3 204.8 205.8 205.8 205.8 203.8 201.7 199.6 197.9 196.5 196.1 196.3 196 195.5 195.4 195.7 194.6 195.1 194.8 193 193.6 195.7 199 201 205.1 202.6 203.6 200.2 200.6 203.4 209 210.5 209.4 205.8 201.7 199.3 199.8 199.8 201.4 202.4 204.2 209 211.1 211.8 212.7 211.9 211 210 208.6 208.8 205.5 208.3 210.5 211.9 210.6 209.7 208.8 207.4 206.3 205 205.3 204.2 202.1 200 198.7 198 196.6 195 194.6 194.2 194.8 195.8 197.1 198.2 198.8 198.8 198.9 198.9 198.8 198.9 201.1 201.9 202.9 203.7 204.6 205.1 205.4 205.5 205.3 205.1 205.1 205 203.9 203.8 204.2 204.4 204.6 203.7 202.9 198.7 198.5 198.4 198.3 198.5 198 197.5 194.7 194.3 194.4 196.3 197.7 196.2 194.4 194.5 199 199.5 199.1 196.5 198.9 200.8 200.9 200 199 198.7 195.2 196.9 197.5 199.2 203.6 208.6 211.4 213 214 213.8 214 213.9 213.4 212.5 211.6 210.9 209.9 209.7 209.7 209.8 209.5 209.5 209.3 208.5 206 202.7 207.1 211.1 212.3 212.3 212.2 212.2 212.2 212.5 212.9 213.4 214.3 215 215.9 216.1 216.1 215.8 215.6 217.4 218.8 220 220.9 220.6 217.8 218 219.9 222 224.9 229.2 233.9 238.3 241.5 243 240.1 235.6 230.5 226.7 223.7 221.6 218.7 215.7 213.1 211.7 210.7 209.7 206.7 200.9 199.9
163.8 172.2 173.8 177.9 202 204.7 204.8 204.9 202.5 200.4 198.3 195.6 194.1 193.2 190 191.7 192.1 192.5 192.9 193.8 193.1 195.3 199.7 201.3 205.4 209.5 208.9 210.2 207.9 202.8 201.3 203.7 207.6 210.4 210 206.7 204.3 202.3 199.3 202.1 202.4 202.9 208.5 204.4 206.8 209.1 209.9 210.7 210.1 209 208 207.8 206.1 203.3 204.6 207.4 205 205.1 205.2 205.9 205.2 203.8 202.2 200.3 198.5 197.5 196.8 196.5 196 195.1 194.4 194.1 193.8 194.2 195.1 196.5 197.9 198.4 198.6 198.6 198.6 198.6 199 200.8 201.8 202.9 204.1 204.8 205.1 205.3 205.3 205.3 205.1 205.1 205.1 204.6 204.3 204.5 204.6 204.6 204.2 203.4 202.7 202.1 198.4 198.4 198 197.3 197.2 197.6 197.3 197.7 197.8 199.3 198.2 199.4 194 195.8 195.7 195 194.1 196 197.6 197.9 197.3 196.9 195.6 195.8 195.7 196.3 197.3 199.5 204.3 209 212.1 213.4 215 215.5 215.5 215 214.1 213 211.6 210.6 209.5 208.6 208 208.5 208.6 208.9 208.2 204.1 203.1 208 211.3 212.3 212.3 212.2 212.2 212.2 212.5 212.7 213.2 214.1 215.1 216.2 216.3 216.2 216 215.9 215.7 217 218.3 219.2 218 214.9 218 220.1 222.1 225.8 230.8 236.2 240 242.1 242.7 239.9 233.5 227.7 224.5 221.5 219.1 216.5 213.4 211.8 210.7 209.4 208 205 196.2 201.4
200.3 197.6 196.3 194.4 171.3 202.7 203.8 203.6 201.2 199 195.7 193.4 191.7 190.6 190 191.6 192.5 193.1 193.9 193.8 198.3 199 202.2 203.8 206.8 209.4 210.8 210.8 211.2 207.5 205.7 207.8 209 209.5 208.6 208.1 206.9 204.5 204.7 204.8 205.5 206.2 209.8 205.1 207 207.6 207.6 207.7 207.7 207.3 205.4 207 204.1 203.1 203.4 204.8 204.9 206.7 204.9 204.5 203.8 203.2 202 200.8 198.1 197.5 196.8 195.9 194.8 194.1 193.6 193.4 193.2 193.3 194.4 196 197.7 198.2 198.4 198.5 198.5 198.5 198.8 200.2 201.5 202.6 204 204.8 204.9 205.1 205.1 205.2 205.1 205.2 205.3 205.1 204.5 204.5 204.5 204.5 203.7 202.6 201.1 200 198.7 198.2 197.9 197.2 197.2 197.5 197.3 197.5 197.2 197.2 193.1 191.4 192.7 193.6 193.8 193.2 192.9 193 194.7 194.4 194.2 194.4 193.5 194.1 193.5 194.5 195.6 196.8 200.2 205.7 210.8 213.2 215.1 216.5 217.6 218.1 217.6 214.6 212.6 211.5 210.3 208.5 204.3 199.3 198 202 202.5 199.9 204.7 209.4 212.2 213.1 212.5 212.4 212.1 212.1 212.4 212.5 212.9 214 215.7 216.9 216.7 216.5 216.1 215.8 215.3 215.5 216.6 216.1 213.6 213.2 217.9 220.1 222 225.4 230.9 235.7 237.4 237.7 237 233.2 228.7 224.2 221.3 218.3 215.6 212.8 211 209.6 208.2 208 207.4 203.9 195.2 201.5
205.5 205 203.3 199.8 195.6 174.9 196.6 202 199.9 195.5 191.9 190.8 189.9 190.6 191.2 192.1 192.6 193 193.6 196.3 204.5 203.9 202.4 202.9 204.9 208.3 209 210.1 208.7 208.3 208.1 208.1 207.9 207.6 210.9 211.3 209.3 207 206.3 205.9 207.2 208.6 209.9 206.2 206.1 208.2 208.1 207.8 208.1 208.4 207 207.3 207.5 204.5 204.7 203.8 201.4 203.3 201.8 201.7 201.1 200.8 201.7 200.7 198.8 198.2 197.3 196 194.7 193.7 192.9 192.6 192.4 192.9 194.2 196.8 198 198.4 198.5 198.4 198.4 198.5 199 200 201 201.9 203.1 204.2 204.7 204.9 205 205 205.1 205.3 205.4 205.1 204.5 204.2 204.2 203.9 202.9 201.6 200.4 199.6 198.9 198.2 197.3 197.5 196.4 197.1 196.8 197.8 195.9 192 192 191.7 192.3 192.5 192.5 192.4 192.2 192.2 192.1 191.8 192.3 192.7 192.8 192.7 193 193.7 194.4 195.6 197.5 201.5 208.2 212 214.4 216.1 218.1 219.3 218.5 215.3 213.7 213.1 212.4 210.6 197.9 199.2 206.3 205.5 203.3 204.2 208.5 210.5 212.9 212.6 212.2 212.6 212.3 212.1 212.3 212.3 212.7 214.1 215.9 217.4 217 216.5 216 215.3 214.5 214.1 213.3 211.7 209.4 213.2 217 219.2 221 223.9 227.2 229.2 229 227.8 226.9 224.1 221.5 219.1 216.1 214 211.1 209.1 208.2 207.5 204.7 203.8 203.9 201.5 194.9 200.9
207.4 207.6 206.1 203.6 199.9 192.5 177.5 188 193.3 184.7 187.5 190.9 190.9 194.1 202.3 205.9 206.3 203.2 204.2 205.2 208.2 208.6 206.6 205.4 205.7 207.2 206.5 207.5 208.4 207.7 208.2 209 210.2 211.5 212.3 211.5 210.5 208.8 206.5 205.8 206.5 210.6 207.8 205.1 207.2 208.7 208.9 209.3 209.1 208.2 208 207.3 206.3 204.9 204.7 204 200.8 200.5 199.6 199.1 198.6 198.5 199.6 199.2 199.7 198.5 198.3 196.9 194.6 193.2 192.5 191.9 192.5 193.3 196 198.5 198.3 198.4 198.4 198.4 198.4 198.5 199.1 199.9 201 202.1 202.8 203.5 204.3 204.8 205 205.1 205.2 205.3 205 204.7 204.5 204 203.6 203.3 202.5 201.5 200.8 201.3 200.7 199.3 198.4 196.2 196.8 196.5 196.1 197.2 196.1 191.9 191.8 191.3 191.6 191.8 191.8 191.8 191.7 191.6 191.7 191.7 191.9 192.1 193.6 192.7 193 193.9 195 195.7 197.1 199.6 205.1 209.7 212.9 214.6 215.9 217.5 216.2 215.3 214.4 213.1 211.6 199.6 200.3 208.4 210.5 211.6 210.6 209.9 209.4 210.5 211.3 210.9 211.3 211.8 212 212.2 212.1 212.4 212.8 214 215.6 216.6 217 216.5 216 215.5 214.5 212.8 210.6 207.9 210.1 212.9 214.9 216.5 218.3 220.7 221.5 221.9 220.8 219.7 218 216.1 214.1 212.3 210.4 208.8 206.7 206 205.6 206 201.1 195.7 196.3 195.4 198.1 200.3
209.2 209.2 208.6 206.2 202.6 199.9 193.5 186.4 192.4 197.6 198.3 199.5 206 212 212.9 210.9 209.8 209.1 209.4 209.3 209.7 208.9 206.7 206 207.2 206.5 206.1 206.7 209.9 210.7 210.8 210.1 210.7 212.2 212.8 212.2 211.5 209.6 207.5 206.6 207.8 210.5 207.3 206.9 207.7 209.1 209.2 209.1 208.8 208.1 206.8 207 206.5 204.8 205.2 203.3 202.1 201 199 198.6 198.1 196.1 196.8 196.7 200.7 198.3 198.8 198 195.2 192.7 192 192 193.2 195.1 197.6 199.8 199.2 198.4 198.4 198.6 198.7 198.9 199.5 200.2 201.7 203.4 203.9 203.7 203.7 204.3 204.4 204.3 204.5 204.6 204.3 204.1 204.1 203.5 203.1 202.6 202 201.8 202.6 203.1 201.9 200.7 199.4 197.2 195.7 194.8 195.7 195.2 194.3 191.9 191.8 191.1 190.8 191.3 191.3 191.4 191.4 191.2 191.2 191.3 191.6 191.8 192.3 193.3 194.3 195.3 196.5 197.1 198 199.4 202.6 207.6 210.3 211.8 213.4 215.1 215.2 214.4 213.5 212.4 196.2 199.7 209.2 211.3 211.8 211.9 211.6 211.4 211 211.1 211.6 211.6 211.8 211.7 211.6 212 212.2 213.3 213.6 214.4 215.4 216.3 217 216.7 216.2 215.6 214.4 213.1 210.4 206.1 209.3 210.6 211.7 213.3 215 216 216.6 216.2 215.2 213.4 211.6 209.4 206.8 204.9 203 203 202.5 202.2 202.8 202.3 194.6 197 203.1 199.8 200.4 203.4
209.7 210 208.8 206.9 205.3 203.1 199.7 198.7 200.3 203 204.6 206.2 210.9 213.6 213.3 213 214.3 213.3 213.2 212.3 210.5 209.2 207 206.6 206.2 206.2 206.4 206.7 209.9 211.3 211.6 210.6 210.6 211.9 212.2 211.9 211.4 208.3 209.2 208.5 207.9 210.4 208.1 206.8 207.9 209 208.9 208.7 208.5 208 208.4 207.9 207.1 206.3 205.6 205.3 203.2 200.3 198.6 198.4 198.7 197.7 196 195.2 195.2 197.6 199.4 197.4 194 192.4 191.8 192.1 194.6 196.3 198.3 199.9 198.8 198.2 198.7 198.7 198.7 200.1 200.6 201.2 203.1 204.6 204.4 204 203.6 203.6 203.8 203.6 203.9 204 203.7 203.8 203.7 203.1 202.9 202.5 203 203.1 203.6 202.3 201.2 200 198.7 197.3 196 194.8 194.2 195.2 195.2 192.8 193.2 191.7 190.6 190.9 190.8 190.9 191 190.7 191.5 192 192.4 194.6 193.8 194.9 195.8 197.5 198.6 199 198.7 198.7 201.7 205.4 200.8 207.2 211 213.2 214 213.2 211.6 195.8 198.3 207 211.2 211.6 211.5 211.2 211 211.1 211.3 211.4 211.6 211.8 212.1 212 211.5 211.7 211.5 213.2 214.8 215.4 215.9 216.6 217.1 216.8 216.3 215.3 213.5 212.2 210.5 207.8 206.1 207.6 208.6 210 211.4 212.6 213.1 212.4 211.2 209.3 206.9 204.1 200.8 195.7 190.2 193.8 196 198.5 199.4 197.6 195.5 196.7 207.7 206.4 205.1 206.3
210.7 210.3 209.5 208.9 207.2 204.7 202.1 203.8 206.9 209.4 211.4 213.5 215.8 214.6 214.3 215.8 216.5 215.1 213.8 212.5 211.4 210.2 208.4 207.2 206.8 207.6 208.7 208.5 209.4 211.6 211.1 210.6 210.2 211.1 212 211.7 211.5 209.6 209.8 209.5 210.6 210.5 208.7 207.3 207.7 208.5 208.7 208.7 208.6 208.7 209.3 208.6 208 207.5 205.2 204.6 201.4 199.8 199.9 199.5 199.1 198 196.9 195.1 194.6 196.6 197.6 196.1 193.4 192.2 191.7 192 193 194.4 196.8 197.8 196.9 197.9 197.9 198.3 198.6 199.4 200.5 202.3 204.2 205.6 204.8 204.3 203.9 203.8 203.8 203.8 203.9 203.9 203.9 204 203.6 202.7 202.7 202.2 203.8 204.3 204.2 203.6 202.3 200.5 198.6 198 196.2 195 194 193.7 194.9 196.4 195.3 193 190.6 190.9 190.3 190.8 190.4 190.5 191.4 192.2 193.4 194.9 195.6 196.7 198 199.2 199.2 198.6 196.8 195.5 197.8 200 199.9 199.9 206.3 209.5 211.1 209.5 205.2 197 205.2 209.7 211.2 211 210.9 210.7 210.3 210.4 210.6 210.7 211 211.7 212.1 212.5 211.9 211.5 210.5 212.2 214.7 215.8 216.7 217.3 217.3 217 216.2 214.6 212.5 210.7 208.8 206.8 203.6 204.7 206.4 208.1 209 209.7 210.1 209 208.1 205.7 202.7 198.8 193.6 192.1 192.7 193.4 194 194.3 195.9 193 195 195 206.5 209.5 210.4 210.5
212.8 212.5 211.9 211.5 210.1 208.1 207.1 209.8 213.1 215.8 218.3 220 220.4 218.3 218.5 218.2 215.9 213.5 212.6 213.7 213.5 212.2 210.1 209.1 209.2 210.7 211.4 211.2 211.1 211 210.2 209.9 209.9 210.2 210.9 211.5 211.4 211.4 213.1 212.1 211.6 210.2 208.3 207.9 208.6 209.3 209.4 209.3 209.2 209.4 209.4 209 208.5 207.8 205.7 203.2 201.6 202.3 202 201 199.2 198.2 197.3 196 194.4 195.5 196.9 195.8 193.5 191.9 191.5 191.1 192.3 193.8 195.5 196.8 198.3 199.5 199.4 198.8 198.5 198.8 200.8 204.2 207 207.5 206.4 204.8 204.6 204.1 204.2 204.8 204.8 204.6 205 204.9 204.2 202.8 202.6 203 202.4 202.8 203.4 203.6 202.6 201.7 200.5 198.7 196.8 195.4 194.8 194.8 195 195.7 195.6 193.6 194.3 190.2 190.1 190.3 190.6 190.4 191.4 190.6 190.8 193.4 196.9 197.5 196.6 197 196.6 195 193 192.9 193 193.4 194.2 195.2 197.2 201 204.6 199.6 196.1 205.2 209.8 211 212.1 212.4 211.5 210.5 210.3 210.3 210.1 210 209.9 210.8 211.4 212.3 211.6 210.6 210 212.9 215 216.5 217.6 217.8 217.9 217.3 216.4 214.5 212.1 209.5 206.3 204.2 201.6 202.6 204.9 206.3 206.8 207.6 207.9 207.1 205.7 202.5 197.5 193.1 191.8 192.8 194.6 197.3 197.7 191.1 194.6 194.7 195.3 201.2 206.7 209.2 210.6 211.4
215.8 218 218.5 216.8 213.1 213.9 215.2 216.2 219 221.8 224.5 225.1 223.6 221.5 220.9 219.2 216.1 213.7 214.4 215.6 214.8 213 210.8 209.7 210.4 211.8 212.5 213.1 212.5 215.3 213.3 209.9 209.9 210.7 210.4 210.3 211.3 212.3 213.9 211.1 209 209.5 209.5 208.9 209.7 209.9 210.1 210 209.8 209.6 209.2 209 208.6 208.3 204.3 202.1 203.6 204.8 204.2 201.9 199.5 197.6 196 195.5 193.9 195.4 197.8 197.2 194.7 192.2 191.5 191.1 193.6 195.2 197.6 198.1 200.1 201.1 200.9 200.8 199.8 199.3 201.2 205 208.2 209.6 206.9 205.8 205.7 205.2 205.6 206.3 206 205.7 206.7 207.3 206.2 204.9 205.3 205 202.6 202.6 202.8 202.9 203 203.1 201.2 198.2 196.7 195.4 195.5 196.1 196.6 197.9 198.5 197.9 189.6 189 189.1 189.1 189.7 190.6 191.8 189.9 193.3 189.5 193.3 194.9 194.2 194.1 192.8 191.6 191.4 191.3 191.8 192.1 192.7 192.6 192.3 192.1 194.8 196.4 203 208.3 210.7 211.1 212.3 213.4 212.2 211 210.7 210.7 210 209.4 208.8 209.3 210.4 211.2 211.1 210 212.3 214.9 216.6 217.9 218.8 218.7 218.5 217.7 216.3 214.4 210.7 206.9 203.5 201.8 199.7 200.6 202.6 203.6 203.7 204.2 203.8 204.3 204.6 198 192.8 191.6 192.6 200.1 203.5 204.2 204.1 205.7 194.1 194.5 195.8 202.8 203.6 205.5 208.4 210.1
219.6 224.2 225.8 222.2 218.5 221.4 222.6 222.5 224.6 226.6 225.6 225.8 223.1 221.5 220.3 219.2 216.2 215.6 217.4 217 213.5 211.2 210.1 209.4 210.3 211.4 213.3 216 217.5 214.3 212.7 210.9 210.9 214.2 213.9 209.8 210 211.5 211 208.8 208.2 209.5 209.9 210 210.3 210.5 210.6 210.4 210 209.6 209.2 208.9 208.3 207.8 203.6 204 205.1 205.7 206.3 203.4 200 198.5 196.6 195.1 193.2 195.7 198.3 197.9 195.7 192.4 191 190.9 194.1 198.5 201.2 200 201.6 201.2 202.3 202.7 201.6 200.5 201.7 205.1 208.5 209 208.2 208.3 208.2 207 207.6 208.8 207.4 207 208.6 209 207.8 206.5 207.2 207 205.4 205.4 205.1 204.6 203.2 203.1 200.8 198.9 197.4 196 195.9 196.2 196.1 195.6 193.9 190.4 188.9 188.7 188.6 188.7 188.7 191 191.5 189.4 188.2 188.6 189 192 192.2 191.4 190.6 190.3 190.1 190.7 190.9 190.9 191.3 190.9 190.6 192.1 199.4 203.3 200.5 206.3 208.3 209.9 211.5 212.8 212.2 211.1 210.7 210.2 209.4 208.7 208.4 208.8 209.4 209.9 210 211.2 213.1 215.6 217.3 218.6 219 219.1 218.6 217.9 216.5 214 208.2 203.8 201.9 200.2 198.5 198.5 199.6 199.8 200.1 200 198.5 198.9 200.2 194.7 191.1 192.5 201.2 201.3 202.3 203.2 203.6 203.2 201.1 199.3 199.9 201 200.7 203.8 205.6 206.1
218.1 222.3 224 222 220.3 222.9 224.6 224.8 227.9 225.7 223.9 224 222.5 221.1 219.4 218.3 216.6 217.5 217.4 216.4 212.7 211.4 210.1 209.5 209.3 210.7 212.9 221.1 219.8 213.9 215.4 216.3 214.5 214.6 214.5 211 209.2 208.9 208.4 207.4 208.6 210.2 210.2 210.4 210.4 210.6 210.6 210.4 210 209.6 209.2 208.7 208.5 206.9 205.4 205.7 206.2 206.4 206.5 204.3 199.6 197.9 196 193.9 191.7 198.5 199.3 197.1 195.2 193.1 191.2 191.3 194.9 200.3 202.6 201.6 203 202.4 202.4 203.3 203.6 202.4 201.9 205.2 207.5 208.1 208.2 210 209.6 208.3 209.3 210.1 209.1 208.7 210.4 210.2 210.5 209.6 209.4 208.4 207.6 208 207.8 206.8 204.4 202.9 200.7 199.9 198.9 197 196.2 196.5 195.7 195.6 196.3 193.1 188.3 188.3 188.2 188.3 188.5 188.4 189.7 192 188.2 188.3 188.4 190.1 190.6 190.2 189.8 189.7 190 190.7 190.8 190.8 189.9 189.6 190.6 196 204.5 204.7 204.4 204.3 205.2 206.8 208.2 209.1 209.7 209.9 209.5 209.6 208.8 208.3 208.3 208.9 209.1 209.5 209.7 210.5 212.1 214.2 216.1 217.2 217.6 217.9 217.9 217.2 215.8 212.5 205.1 200.8 199.8 198.5 196.5 196 197.1 197.5 197.6 197.6 197.1 196.3 194.5 191.4 191.3 193.2 197.3 198.6 198.2 199.2 198.6 198 197.9 197.2 196.8 196.4 195.5 195.3 197.1 199.2
216.6 217.4 217.8 218.9 220.1 222.2 224 224.7 225.2 224.8 225.6 224.5 221.4 219.7 218.4 217.5 218.3 219.7 219.4 214.9 212 210.2 209.8 209.7 209.9 211.2 220.5 222.4 217.6 214.3 215.2 217 216.4 214.9 211.9 210.6 207.3 207.2 207.7 208.1 209.8 210.5 210.5 210.6 210.6 210.7 210.5 210.3 210 209.6 209.2 209 208.9 206 206.9 207.2 207.2 207.3 207 203.2 198.7 196.4 194.4 193.5 192.7 197.8 197.4 195 192.5 191.7 190.8 190.8 195.9 201.8 203.5 202.4 203.3 203.3 203 203.8 204.4 204.1 202.5 204.6 206.3 206.8 208 209.7 210.2 209.6 210.9 211.2 209.9 210.3 211.8 211.7 212 212.2 211.8 210.5 209.1 208.4 209 208.2 205.6 202.7 200.5 200.3 199.5 197.5 196.6 196.2 194.8 195.1 196.3 194 188.2 188 188.1 188.3 188.4 188.3 188.2 188.2 188.2 188.2 188.2 189.4 189.7 189.4 189.3 189.5 189.6 189.8 189.9 189.4 187.8 193.6 198.9 200.6 199.9 193.3 196.3 200.9 202.2 203.9 204.7 205.4 205.6 206.7 206.9 207.7 207.5 207.4 207.4 207.6 208.8 209.2 209.7 210.2 211.2 212.5 214.6 215.7 216.2 216.6 216.6 215.7 215 209.7 202.1 198 196.2 195.8 194.4 195 194.6 196.4 196.8 195.7 195.8 194.9 192 188.9 191.7 193 193.4 193.8 195 195.7 194 193.6 193.7 193.5 193.4 193.1 192.7 192.7 193.2 193.9
215.9 215.5 216.6 219.2 220.3 219.8 222.4 223.7 224.5 226.3 223.9 220.8 218.8 218.3 218.1 218.3 217.4 217.9 216.2 214 212.1 210.9 210.8 211 212.2 217.8 225.9 224.5 221 217.5 216.1 215.7 214.5 211.2 208 206.4 205.9 207.4 208.3 209.4 210.4 211 210.9 210.8 210.8 210.7 210.5 210.2 210 209.6 209.2 208.8 209 206 208.4 208.4 208.3 208 207.2 202.7 199.4 196.6 194 193.2 192.5 192.1 192 192.1 192.3 192.4 191.5 190.7 196.3 202.4 204.4 203.6 204 205 205.8 206.1 206.5 205.4 204 205.6 205.5 206 206.6 207.6 210.1 211.1 212.2 212 211 211.5 213.4 213.3 213.4 214.1 213.4 212.4 211 209.8 209 207.5 204.8 202.1 200.1 200 199.1 197.2 196.1 194.8 193.1 193.1 189.1 188.5 188.6 187.8 187.9 188.2 188.2 188.2 188.2 188.2 188.2 188.1 188.3 188.4 189.1 189.2 189.3 189.6 189.7 189.7 189.8 189 189.3 194.7 196.6 190.9 188.7 185 186.3 185 194.1 197.2 199 200.2 200.7 201.6 201.6 203.6 204.3 204.9 207.4 208.7 208.5 209.2 209.1 209.2 209.9 211.5 212.9 213.4 214.2 214.6 213.9 213.3 211.1 205.2 199 195.3 195.7 191.5 195.3 195.1 192.7 192.6 191.5 191.1 191.2 191.3 188.8 190.9 190.9 192 192.4 192.6 192.6 192.8 192.6 192.4 192.1 192 191.7 191.5 189.1 190.5 192.1 193.2
218.9 217.3 218.8 221.7 223.4 222.5 223.8 227.2 228.1 225.2 221.1 222.1 222.3 220.9 219.5 218.6 217 216.8 215.6 214.5 212.9 211.6 211 212.2 216.8 220.1 223.7 222.6 218.9 217.2 215.4 213.4 210.4 206.7 205.2 206.2 206.2 208.1 208.9 209.6 210.4 211 211.4 210.9 210.8 210.7 210.5 210.3 210.2 210 209.2 208.6 208.7 207.4 209.2 208.7 208.1 207.3 206.3 203 198.9 196.4 194.3 193.4 193.1 193.3 193.5 193.7 194.6 195.8 193.5 190.1 195.2 202.2 205.8 205.9 208.3 211.1 212.6 213.1 213 208.1 205.4 207.3 207.2 207.5 207.8 207.4 208.4 211.6 212.5 213.3 212.4 212.2 214.5 214.8 214.7 215.3 214.9 214.3 213.2 211.2 209.2 207 204.5 202.1 200.8 198.7 197.7 196.3 195.1 193.2 190.9 188.6 188.2 188 187.9 192.4 187.9 188 188 188.1 191.4 188.2 188.1 188.1 188.7 188.8 188.9 189 189 189.1 189.4 189.4 189.1 188.9 188.2 190.4 189.5 188.8 188.3 188.1 188.1 188.2 185 189.1 192.2 194.9 195.7 196.4 198.1 197.6 198.8 203.6 207.7 209.5 209.1 209.1 209.5 207.7 208.4 210 210.2 210.7 211.2 211 210 207.9 203.9 198.3 196.2 192.1 193.1 193.2 194.5 192.4 191.2 191.3 190.6 190.7 190.7 190.7 190.9 190.7 190.9 190.9 191.1 191.3 191.5 191.7 191.8 191.5 190.9 190.8 190.9 190.9 190.9 190.9 191.8 192.5
226.3 225.6 221.9 222.7 224.2 226.1 227.6 227.6 224.2 222.1 225.9 228.4 226 222.3 221.8 221.3 221.8 220.2 217.7 216.3 214.1 212.3 213.9 212.5 216.2 220 222.6 219.7 215.8 213.2 211 209.3 207.9 205.1 203.5 203.8 206.4 208.5 209.2 210 210.8 211.6 211.9 211.8 211 210.8 210.6 210.4 210.6 210.6 209.9 208.9 208.8 209.1 209.1 208.4 207.2 206.5 204 201.2 198.7 196.7 195.1 193.6 193.8 194.5 195.2 196.4 197 195.1 192.5 189.8 193.6 203.6 210.4 212.5 213.6 215.2 216.3 217.4 217.8 212.9 207.2 207.1 208 208.5 208.8 208.8 209.6 209.8 211.8 213.3 214.1 213.5 214.3 214.9 215.3 215.7 215.6 215.2 213.8 211.8 209.5 206.7 204.2 203.4 201.8 199.3 197.2 195.9 194.9 191.4 188.6 188.2 187.7 187.8 187.9 188 187.8 187.9 188 188.2 188.2 188.2 188.2 188.4 188.7 188.8 188.9 189 188.9 188.9 189.3 189 188.7 188.6 188.6 188.6 188.9 188.8 188.5 185.4 187.3 187.3 185 187.8 189.9 191.6 192.7 193.6 193.9 195 197.2 200 204.4 207.2 208.1 207 205.6 203.7 203.6 204.5 205.8 207 207.9 206.2 204.5 200.9 196.9 193 191.2 191.3 192 193.1 192 190.9 190.8 190.8 190.7 190.6 190.9 189.9 190.2 190.4 190.7 190.9 190.9 190.9 191 190.9 191 190.4 190.6 190.9 190.9 192.3 192.6 191.8 191.4 191.7
234 234.1 229.4 227.2 226.1 225.4 225.5 224.8 225.4 229 232.5 229.5 226.3 224.6 224.9 224.4 222.6 221.4 220.4 219 216.8 217.3 213.1 214.2 215.3 217.9 220.6 217.3 212.9 212.9 210.7 207.8 205.5 202.9 200.6 202.5 206.4 208.2 209.3 210.2 211.1 211.9 212.4 212.3 211.9 210.9 210.7 210.8 211.2 210.9 210.1 209.1 209 209.1 209 208 206.8 205.6 204.5 203.6 200.1 198.6 198.4 198.7 198.3 197.7 196.7 195.1 193.5 192 189.9 191.1 197.9 209.9 214.8 214.8 214.3 215.1 215.8 216.6 216.5 215.7 210.3 208.4 209.1 209.4 209.2 210.5 212.1 211.5 210.9 212.2 213.6 213.7 213.4 214.1 214.5 215.2 215 214.6 213.1 211.2 208.1 205.4 203.9 203.1 202.1 200.3 198.4 197.6 196.2 191.3 188.2 187.9 187.9 187.9 187.9 187.9 188.9 187.8 187.9 188.2 188.5 188.3 188.3 188.6 188.5 188.5 188.7 188.9 188.9 188.8 188.8 188.6 188.4 188.3 188 189 188.9 188.8 188.7 185 185.3 187.3 187.1 185 185 185 189.5 191.7 192.3 192.8 194.1 196 199 201.6 200.1 202.1 200.7 198.4 199 198.8 198.9 198.9 198.9 198.6 197.4 200.2 193.7 191 191.1 191.2 192.6 193.2 191.7 190.4 190.3 190.3 190.6 190.5 187.9 190.1 190.2 190.4 190.9 190.9 190.9 190.9 190.9 190.9 189.6 190.8 190.1 191 192.7 197.7 194.7 192.5 191.8 189.9
237.2 235.2 230.9 229.9 232 233.2 233.6 233.1 233.6 233.2 230.8 228 226.3 226.1 229.5 228.7 224.1 224 221.3 219.2 218.7 215.2 216.6 216.4 216.3 218.5 218.9 215.4 211.9 211.3 210.7 209.3 204.1 199.5 197.8 200.1 204.6 208 209.2 210 210.8 211.7 212.6 212.7 211.7 211.4 211.3 211.5 211.2 210.9 210.4 209.6 209.1 208.8 209.6 208.7 207.4 206.5 204.2 201.9 200.2 199.1 200.3 201.4 200.4 198.6 195.7 193.2 191.3 189.7 190.4 194.8 203.3 210.3 213.1 213.2 213.9 214.7 215.4 215.3 216 216.8 213.2 209.2 209 208.7 208.9 211 212.1 212.1 211.6 211.5 212.3 212.8 212.5 213.2 212.6 212.6 212.4 212.2 210.6 208.4 205 203.2 203.2 202.7 201.8 200.5 199 197.7 195.8 191.2 188.1 186.4 186.7 187.6 187.8 187.9 187.8 192.6 186.9 188.1 188.5 188.3 188.5 188.4 188.4 188.4 188.6 188.8 188.8 188.7 188.6 188.4 188.2 188 188.5 188.9 188.9 188.8 188.6 185 187.6 187.7 187.8 187.3 187 186.9 188 190.6 191.3 191.9 192.1 192.5 194.5 196.7 198.6 196.9 194.3 193.8 193.1 192.6 193.6 194.6 193.6 192.3 191.8 191.8 190.8 190.5 190.9 191.3 191.4 190.8 190.4 190.3 190.3 189.9 190.2 190 189.6 190.2 190.7 189.8 189.1 188.8 190.2 191.8 192 192.5 193.6 194.1 193.2 191.8 193.8 197.9 197.2 193.4 192.2 191.8
235.5 233.1 233.7 236.6 238 237.6 237.1 235.3 234.3 232.5 229.9 226.8 225.2 227.7 231.4 229.3 224.3 223.3 220.8 219.2 217.1 219.1 219.9 219.6 219.3 219.4 219.5 219.4 212.4 209.7 210 209.4 204.7 198.8 196.8 197.2 201.1 205.9 208.3 209.1 210.1 211.4 212.3 212.9 211.7 211 211.5 211.6 210.9 209.7 210 209.3 208.1 208.3 209.3 209.7 208.9 207.3 204.3 201 198.4 197.5 198.2 197.6 196.5 195.5 193.6 191.5 190.1 189.2 192.2 197.3 204.1 208.2 210.5 211.1 212.6 213.9 214 214 214.3 215.2 213 209.3 208.2 207.6 208.1 210.2 211.9 212.1 210.7 208.6 209.5 209.6 210.9 214.6 212.3 211.1 210.6 210.7 208.2 205.7 203.6 202.6 201.2 200.7 199.4 198.1 196.8 195.2 193.7 191.2 183.4 183.4 183.4 186 187.1 187.1 187.1 188.6 188.7 187.9 187.9 188.4 188.4 188.4 188.4 188.4 188.5 188.7 188.7 188.5 188.4 188.2 187.6 187.8 189 188.9 188.8 188.8 188.5 185.6 187.2 187.7 188.2 187.7 187.3 187.3 188.6 190.2 190.4 190.9 191.2 191.4 191.1 192.9 192.6 191.8 191 190.7 190.6 190.9 190.8 191.3 191.1 190.4 190.4 190.4 190.1 190.1 190.3 190.1 190.1 189.6 189.4 189.4 189.7 189.5 189.4 189.7 189.3 190.1 190.7 191 192.4 194.4 195.9 198.3 199.2 198.8 197.2 196.1 194.5 193.3 193.3 194.8 198.5 198 194 192.7
237.2 237 237.4 239.4 239.6 238.8 238.9 236.4 234.5 232 229.3 226.3 224.9 227.5 230.1 229.1 224.2 222 221.4 221.1 219.7 220.1 220.8 222.4 219.1 218.8 218.8 216 210.1 206.8 206.5 207 204.9 199.4 196.6 196.1 197.5 202.1 204.8 206.9 209.4 211 211.9 212.7 211.8 210.6 211.7 212 211.9 209.8 207.8 206.6 206.1 206.9 208.8 210.2 209.8 207.8 205.1 201.5 198.1 195.9 194.4 193.7 193.5 192.5 191.3 190.1 189.3 189.9 194.1 199.2 202.6 207 209.3 208.8 210 211.8 211.9 211.5 213 213.3 211.6 208.9 208.7 208.1 206.8 208.2 209.8 210.7 206.9 203.6 203.8 205.7 210 212.8 211.9 211 212.1 212.4 211 208.4 204.8 203.7 202.3 203 202.5 201 199.2 196.5 193.4 190.5 184.8 187.3 183.4 185 186 188.1 188.2 188.2 190.5 188.8 188.8 188.5 188.4 188.4 188.3 188.3 188.5 188.6 188.5 188.3 188.2 187.8 187.4 188.3 188.6 188.7 188.7 188.4 187.8 185 188.1 188.5 186 188 187.4 186.2 187.9 189 189.5 190 190.4 190.5 189.9 190.1 189.9 189.8 189.7 189.6 189.8 189.7 189.8 189.8 189.7 189.8 190 189.8 189.7 189.8 189.3 189.1 185.9 189.8 185.9 189 189.8 189.8 189.7 188.7 189.6 192.4 194.3 194.3 195.7 197.9 199.7 201.3 201.4 200.2 198.6 197.2 195.8 194.6 194 194.4 197.3 201.9 200.1 193.3
239.3 238.4 238.9 240.6 239.7 238.9 238.2 236 234.4 231.8 228.6 225.7 225.3 227.4 228.5 228.6 224.4 222.5 223 222.3 221.1 221.4 223 221.5 217.8 218.8 216.3 211.1 206.4 205.3 205.9 205.4 202.4 198.4 196.5 195.8 195.8 198.4 200.4 203.3 207.2 209.8 210.9 211.5 210.5 210.4 211.3 212 212.7 211.6 209.2 207.2 206.5 206.6 207.3 209.5 209.6 208.2 204.4 201 198.5 196.1 194.4 193.3 192 191.5 190.3 189.3 188.9 190.7 194.4 196.5 200.1 205 207.9 205.3 208 209 209 207.7 210.1 209.8 209.1 209 209.3 208.2 206.1 205.2 206.3 205.1 202 201.3 203.4 205.9 209.1 210.8 212.3 213 213.6 214.8 215 211.7 208.2 205.1 205.2 206.2 205.7 204.3 202 198.6 192.4 188.5 183.4 186.8 187.8 183.4 186.5 187.2 188.1 188.1 188 191 188.8 188.6 188.4 188.4 188.5 188.5 188.6 188.8 188.7 188.3 187.8 186.7 187.7 187.7 187.7 187.7 187.9 187.5 185 188.4 188.1 188.2 188.3 188.3 187.8 186.9 187.8 188.6 188.9 189.2 189.5 189.5 189.6 189.6 189.4 189.4 189.3 189.3 189.3 189.4 189.4 189.5 189.4 189.4 189.6 189.3 189 189.3 189.6 189.7 189.8 189.8 189.8 187.5 189.8 189.8 191.1 191.5 194.2 198 198.8 197.2 196.5 199.6 201.6 202.4 202.4 201.1 199.9 198.7 197.4 196 194.7 194.5 195.6 201.2 203.5 198.3
238.6 237.2 238.2 240.6 239.3 238.4 236.1 234.3 233.6 232.2 228.5 225.3 225.7 227.5 228 227.9 223.3 223.8 223.2 222.8 222.2 223.8 223.3 219.3 215.8 216.5 213.9 208.3 205.2 204.5 204.5 203.6 200.4 197.9 196.6 195.9 195.3 195.3 196.2 199.7 203.1 205.8 207.8 208.6 208.4 209.4 210.3 211.1 212 211.7 211 209.8 209.3 208.9 207.3 207.2 206.9 205.7 203.6 202.5 200.9 197.3 194.9 193.7 192.2 191.2 190.2 188.9 188.7 189.6 191.3 192.6 195.7 201.1 202.6 200.3 204.9 204.8 206 204.1 205.6 207 206.6 207.3 207.7 206.7 204.1 201.6 201.6 199.7 199.6 201.8 203.7 204.7 205.6 206.7 209.8 211.7 211.1 211.7 212.3 213.1 210.7 207.1 205.8 204.4 203.1 203.2 201 196.7 190.9 188.1 183.4 186.9 187.7 187.8 183.4 186.5 187.5 188 188 187.7 191.9 188.6 188.5 188.6 188.8 188.5 188.6 188.9 188.8 188.8 185 187.5 187.5 187.7 188.3 185 185 185 188.6 188.2 188.2 188.5 188.4 188.3 188.1 187.3 187.8 188.5 188.8 189.1 189.3 189.2 189.2 189 189 189 189 189 189 189.1 189.1 189.1 189.1 189.2 189.3 189.4 189.2 189.4 189.5 189.7 189.8 189.8 190.8 192.5 193.8 194 194.5 196 197.8 199.9 200.3 199.3 198.6 199.3 201.5 202.4 203 202.5 201.4 200.4 199.5 197.7 196 195.1 195.2 196.9 201.1 204.4
237.2 236.4 236.2 238.5 238.8 238.1 235.9 234.3 233.5 232.5 227.7 226.7 226.7 227.6 227.9 224.3 225.4 224.2 223.7 223.2 222.1 223.8 220.8 215.6 215.4 214.9 212.3 208.4 205.1 204 203 202 199.9 198.5 197 196.4 196 194.8 193.9 195.6 198.6 199.6 200.8 205.1 205.1 205.5 206.8 208.1 209.9 211.1 210.9 210.3 210 209.9 209.4 208.9 208.3 207.4 205.8 204.8 203.3 199.4 195.6 194 192.8 191.8 190.6 188.8 188.5 188.8 189.7 190.7 192.2 193.8 194.8 195.9 199.3 200 201.8 199.6 202.3 203.1 203.8 205.3 205.1 204.4 202 198.2 196.4 196.5 198.9 200.1 200.5 200.8 201.4 202.8 204.9 206.1 205.9 206.4 208.6 211.3 211.4 209.4 207.3 202.5 199.7 198.3 195.1 190.9 188.6 188.2 185.9 186.7 187.4 187.9 187.8 183.4 186.6 187.6 188.4 188.4 191.2 188.8 188.6 188.8 188.8 188.6 188.6 188.8 188.9 188.9 185 188 188.5 188.5 188.6 188.4 188.4 188.4 188.8 185 186.8 187.6 187 188.8 188 188 187.8 188.6 188.9 189.1 189.1 189.1 189 188.8 188.8 188.8 188.6 188.6 188.8 188.8 188.8 188.8 188.9 188.7 189.3 189.3 189.2 189.4 189.9 190.3 190.4 192 194.4 196.4 197.7 198.6 197.8 199.5 199.6 200.8 200.8 200.4 200 200.4 201.9 203 203.5 203 202.6 202.1 201.5 200.1 198.8 197 196.2 196.8 196.6 199.6
236 235.6 234.7 235 235.6 235.6 234.8 233.8 232.9 230.9 229.1 228.2 227.2 227.5 225 226.9 226.1 224.8 223.8 222.6 221.9 220.5 218.4 213 212.4 211.7 212.2 211.6 207.3 205.1 203.4 202.4 200.8 199.5 198.5 198.4 197.1 194.2 193.1 193.2 194.6 195.6 196.5 199.5 199.5 200 201.5 203.4 205.8 207.8 208.6 209.8 209.8 210.8 211 211 210.8 209.4 207.9 207.2 205.8 202.2 198.2 195.6 193.5 192 190.3 188.6 188.4 188.7 189 189.2 189.9 191.1 191.9 192.3 193.5 195.2 196.9 196.1 197.2 197.7 199.8 203.6 202.7 201.8 198.6 195.3 193.3 193.5 194.6 195.2 196.2 196.7 197.7 199.3 201.6 201.7 201.7 202.9 205.8 208.1 210.7 211.3 209.4 204.6 201.6 198 191.7 188.6 188.4 188.2 185.6 186.6 187.5 188.2 188.2 187.8 183.4 186.5 188.4 188.6 187.5 189.2 188.7 188.8 188.7 188.6 188.6 188.6 188.8 188.7 188.7 187 188 188.6 188.8 188.9 188.9 189.1 189.4 185 187.1 187.5 187.7 185 188 186.6 188 188.6 188.9 188.9 189 189 188.9 188.7 188.7 188.7 188.6 188.4 188.6 188.5 188.4 188.6 188.7 188.7 189.3 189.2 189.3 189.6 190.2 191 193.4 196.1 198.6 199.3 199.9 200.2 200 200.8 200.7 201.1 201.3 201.6 201.3 201.9 202.7 203.3 203.4 203.5 203 202.5 202.3 202.2 201.4 199.6 196.8 197.4 197.5 197.8
233.9 234.1 232.7 232.2 232.2 232.5 232.8 232.3 231.3 229.9 228.4 227.5 227.5 225.4 227.7 226.4 225.5 225.5 223.7 221 219.1 216.7 213.1 209.4 208.8 209.5 213.5 213 209.5 205.6 203.7 202.8 202.6 202.3 200.8 199.8 196.5 194.5 193.8 192.5 192.5 192.9 193.7 195.4 195.6 195.7 196.8 199.1 201.5 203.3 205.5 207.2 208.8 210.5 211.7 212.1 211.6 210.5 209.1 207.7 207.8 204.9 200.8 197.1 194.7 192 190.1 188.3 188.3 188.5 188.7 188.8 188.9 189 189.6 189.9 190.3 191.7 193.1 192.8 192.8 192.8 194.1 196.8 196.8 196.1 193.4 191.6 190.7 190.6 190.9 191.7 192.6 193.2 194.1 196.5 198.1 197.8 198 200.1 203.1 206.3 209.1 209.5 207 204.3 201.5 194.2 188.6 188.2 188.1 187.7 186.1 186.7 188.2 188.7 188.5 188.1 187.8 185.6 186.7 187.3 187.4 187.5 188.1 187.9 187.9 188.2 188.2 188.3 188.5 188.6 188.8 188.6 185 187 188.4 189 189.1 189.2 189.3 185 187 187.5 187.6 185 185 187.7 187.8 188.5 188.8 188.7 188.8 188.9 189 189 188.8 188.7 188.8 188.6 188.4 188.4 188.3 188.3 188.3 185.9 188.8 188.7 189.2 190.2 192.3 195 197.8 199.6 200.3 200.6 201 200.9 201 201.2 201.3 201.6 201.8 202.1 202.5 202.7 203.2 203.5 203.5 203.5 203.3 202.9 202.3 201.6 200.8 199.1 199.2 198.6 198.5 199.7
232 231.4 231.1 230.8 230.6 230.6 230.5 231 230.7 228.9 227.3 228 224.5 227.1 225.6 223.6 223.8 224.1 221.4 218.5 215.5 211.9 208.3 206.9 206.6 210.1 211.9 211.7 210.3 205.4 204.1 203.4 204.3 204.4 201.4 197.5 194.4 193.3 192.7 193.1 192.7 192.5 192.2 192 192.1 192.6 193.3 195.1 197.6 200.8 203.3 204.2 204.1 207.4 210.5 211.6 211.4 210.3 208.3 206.4 206.3 205.7 201.8 198 195.6 191.9 188.6 187.9 188.1 188.3 188.4 188.5 188.6 188.5 188.4 188.4 188.3 188.4 189.2 189 189.6 189.7 190.2 191.3 190.9 190.3 189.9 189.1 189.4 189.3 189.6 190 190.5 191.4 192.6 194.2 195 194.9 195.6 197.6 201.1 204.3 206.9 206 200.4 192.9 192.2 189 188.2 188.2 188.3 188.3 186.1 186.8 187.8 188.7 188.7 188.4 188.1 187.8 183.6 186.3 187.1 187.2 190 183.4 183.4 183.4 183.4 187.6 187.7 187.2 187.7 187.6 187.6 185 188.1 189.1 189.4 189.5 189.1 187.5 185 188.2 188.1 187.9 185.1 187.8 188.1 185.6 188.4 188.5 188.8 189 189 189.2 189 188.8 188.8 188.6 188.4 188.3 188.3 188.3 188.4 188.7 188.2 188.5 189.1 190.5 193.6 196.5 198 198.8 199.7 200.9 201.3 201.5 201.2 201.2 201.3 201.7 202.3 202.5 202.5 202.8 203 203.2 203.3 203.4 203.6 203.1 202.2 201.3 200.4 201.9 202.8 202.6 201.9 202
229 229 228.7 228.8 228.6 227.9 228.1 228.8 228.4 227.3 227.6 223.9 226.8 226.7 225.5 223.6 221.9 220.7 219 216.4 214.2 209.9 206.4 205.7 207.3 209.5 210 208.5 206.9 204.1 204.3 204.5 206.2 204.3 199.9 195.8 192.8 192.5 192.9 194.1 193.3 192.9 192.6 191.8 190.6 190.8 191.6 192.9 195 197.8 200.9 201.7 200.5 203.4 205.3 207.3 208.6 208.6 206.6 203.7 206.1 204.4 196.4 191.7 190.3 188.6 187.7 187.6 187.9 188.1 188.2 188.2 188.2 187.9 187.7 187.7 187.6 187.4 185.5 186.2 187.2 187.5 187.6 187.6 187.6 187.6 187.6 187.6 187.9 188.2 188.5 188.9 189.4 190.2 191.3 192.8 193.5 193.5 194.5 196.8 199.8 201.7 201.7 195.3 190.3 188.3 188 188 188.1 188.2 188.2 188 185.8 187 188 188.7 188.8 188.6 188.3 188.2 187.9 183.4 185.8 183.4 183.4 186 187.3 186.9 187 186.8 183.4 186.1 186.5 186.9 186.7 186.5 187.9 189.2 189.6 189.5 188.9 188.2 187 188.1 188.1 188.1 187.6 188 188.5 188.6 188.2 188.4 188.7 189 189.1 189.3 189.3 189 188.7 188.5 188.3 188.3 188.3 188.4 188.4 187.6 188.5 188.8 188.7 189.5 192.2 193.3 193.9 194.4 196.8 200.5 202.6 203 202.4 200.9 201.4 201.6 202 201.7 201.3 202.5 202.6 202.9 203 203.3 203.6 203.3 202.6 202.1 203.3 204.3 205.5 206 204.2 203.5
224.7 225.3 225.1 225.2 226 225.9 226.3 226.2 226 226.6 223.4 226.6 225.7 225.9 225 223.8 221.2 217.6 215.3 212.8 209.5 206.1 205.3 206.1 208.3 209.7 207.7 207.1 205.5 203.7 204.1 204.8 205.8 203.2 198.4 194.3 192.2 192.1 193.5 194.6 194.5 194.1 194 192.1 190.5 190.4 191.4 192.9 193.3 194.6 197.2 197.7 197.5 198.2 199.2 200.9 202.4 203.6 202.8 200.4 203.3 195.8 188.7 187.8 187.5 187.4 187.5 187 187.2 187.8 188 188 187.8 187.6 187.4 187.4 187.2 186.5 186.4 187.1 186.9 187.7 187.7 187.7 187.6 187.8 187.8 187.5 187.5 187.3 187.7 188.2 188.8 189.2 190 191.2 192.2 192.5 194.7 196.8 198.5 197.9 193.1 188.4 187.6 187.9 188 188.1 188.2 188.2 188.1 187.1 182.4 187.5 188.1 188.5 189.1 189.2 189 189.1 189.3 189.9 190.4 190.1 190.9 189.5 188.3 188.4 188.4 188.1 187.9 187.8 183.4 186.3 187 183.4 188.5 189.2 189.7 189.4 189 188.4 185.4 188 188.2 188.4 188.4 187.9 185.6 188.7 188.3 188.4 187.7 188.6 189 189.2 189.3 189.1 188.7 188.4 188.3 188.2 188.6 188.8 189.9 190.5 191.4 190.5 189.5 189.1 189.6 190.1 191 191 192.8 197.8 203.5 205.5 203.8 200.3 200.2 201.2 200.9 200.1 200.7 201.9 202.4 202.7 203.1 203.4 203.7 203.6 203.4 203.8 204.6 205.6 206.3 205.6 203.8 204.5
221.3 220.6 220.5 221.1 223.6 223.8 223.7 223.2 224.7 223.3 223.6 224.9 224.8 224.4 223.1 222 219.2 212.7 209.2 206.6 205.4 205.3 206.2 205.7 205.7 206 205.7 205.2 203.9 203.6 203.9 204.6 204.8 201.9 196.5 192.8 192 192.8 194.1 195 195.1 195.4 194.3 192.6 190 190.2 192.1 193.3 192.9 192.5 193.5 193.7 193.9 194.3 195.2 196.3 195.8 195.7 195.9 195.3 195.6 189.2 187.7 187.4 187.2 187.3 187.1 187 187.4 187.3 187.8 187.5 187.3 187.2 187.1 186.8 186.7 186.5 187.4 187.4 187.8 187.9 187.8 187.7 187.7 187.8 187.9 187.5 184.1 182.4 186.2 187.8 188.4 188.7 189 189.6 190.6 191.7 194.2 196.4 196.3 192 187.9 187.3 187.3 187.4 187.7 188.1 188.2 188.1 187.2 186 184.1 187.6 188.1 189 192.3 195.1 193.2 191.9 192.4 193.6 195.2 195.2 194.4 192.6 191 189.3 189.4 189.1 189 188.8 188.5 188.3 188.4 188.8 189.1 189.3 189.6 188.9 188.5 188.3 185 188.5 188.5 188.6 188.6 188.6 188.6 188.7 185.7 188.6 185.8 188.1 188.5 188.7 188.7 189 188.2 187.8 188.4 188.3 189.1 190.3 191.5 193.6 194.2 193.3 192.5 191.9 190.2 190.1 192.2 193.5 192.5 194.4 201.7 205.5 203.3 200.3 198.8 199.4 199.4 200.4 200.9 202.1 202.7 203 203.5 203.7 204 204.2 204.3 204.5 205.3 206.1 206.5 204.4 203.5 205.4
217.4 216.9 217.5 218.3 220.8 222.7 221.1 220.9 221.6 220.8 220.8 222.9 221.8 220.4 219 216.5 212.2 207.4 206.6 205.7 205 204.9 205.1 204.2 204.1 204.9 205.6 205.2 204 203.7 203.7 204.5 203.5 200.1 194.7 192.2 191.3 192.7 194.9 196.2 196.3 194.9 189.3 185.7 186.6 187.9 190 191.2 191.4 191.6 191.9 191.5 191.5 192 192.2 192.4 192.3 192.3 192.2 191.8 189.5 187.8 187.3 187.1 187.2 187.4 187.4 187.1 187.5 187.5 187.6 187.3 187 187 187.1 187.1 187 186.9 187.3 187.4 187.6 187.9 187.9 187.8 187.8 187.5 186.8 182.4 183.8 182.4 185.5 187.1 188.1 188.4 188.7 188.8 188.9 189.7 191.3 192.7 190.8 186.3 182.4 182.4 186.2 186.4 186.9 187.7 188 187.1 182.4 182.4 186.6 187.6 189.1 192 197 200.3 198.6 196.6 197.1 197.1 198.4 198 197.1 195.4 192.6 190.2 190.4 190.5 190.2 189.9 189.7 189.6 189.3 189.3 189.4 189.4 189.5 188.3 187.8 187.3 186.7 188.3 188.5 188.6 188.6 188.6 188.7 188.7 188.8 188.7 188.6 188 188 188.4 188.2 188.8 188.5 188.8 189.7 190.5 191.1 192.5 193.2 194.7 196.2 196.3 195.5 194.6 193.5 191.7 191 196 195.7 193.1 196.8 199.4 200.1 198.9 196.9 196.9 199.4 200.1 201.1 202.2 202.9 203.3 203.8 204.2 204.5 204.8 204.8 204.9 205.7 206.4 206.1 203.5 204.5 206.7
215.1 215 214.6 214.3 216.1 218.9 219.9 215.9 215.8 215.6 214.1 214.4 213.8 212.6 211.7 209.3 207.1 206.9 206.9 207 205.6 203.3 203.1 202.9 203.1 206.8 206.8 205.9 204.2 203.4 203.7 203.3 201.1 197.3 193.1 191.4 191 192.4 195.3 196.3 195.8 188.3 186.3 186.7 187.2 187.2 187.2 188.2 189.5 189.9 190.1 189.7 189.3 189.7 189.8 190 190 189.7 189.6 188.5 187.7 187.5 187.1 187.3 187.3 187.1 187.3 187.1 187 187.5 187.8 187.5 187.1 187 187.1 187.1 187.2 187.2 187.3 187.4 187.5 187.7 187.9 187 186.7 185.8 184.9 182.4 186.6 182.4 186 186.9 187.9 188.3 188.5 188.6 188.7 188.8 188.6 188.5 182.4 184.8 184.8 184.6 184.9 182.4 185.8 185.7 185.3 182.4 185.9 186.8 187.8 187.9 190.8 196.5 201.6 202.6 200.2 200.8 201.4 201.4 201 200.5 199.5 197.6 195.3 192.3 191.5 191.5 191.2 191 191 190.5 189.9 189.7 189.7 189.6 188.9 185 187.1 187.4 187.9 188.3 188.5 188.6 188.7 188.6 188.7 188.8 188.9 188.7 188.6 188 188.8 189.3 188.6 189.4 189.8 191.3 191.9 192.7 193.6 194.4 194.9 195.4 197 197.9 198.1 197.2 196.2 195.5 192 194.8 198.4 197.1 194.5 194.4 191.9 194.4 193.5 195.8 196.1 195.6 197 199.6 201.9 203.7 204.2 204.5 204.9 205.3 205.2 205.3 205.9 205.7 204.8 204.4 206.7 207.1
213.8 213.5 213.1 213 213.6 218.2 212.6 211.7 212.3 212.7 211.4 210.4 207.7 206.3 206.5 206.8 206.8 207 207.9 209.9 206.8 202.4 202.2 202.1 202.6 204.3 205.2 204.7 202.4 201.6 202.5 200.7 198.2 194.8 192.4 191 190.9 190.8 192.9 193.7 191.5 185.9 186.9 187.4 187.4 187.3 187.2 187.3 187.5 188 188.3 188.1 187.8 187.6 187.7 187.8 187.9 187.9 187.8 187.4 187.2 187.2 187.3 187.5 187.6 187.3 187.1 187.1 186.4 185.6 186.5 187.8 187.6 187.4 187 187.1 187.2 187.3 187.4 187.4 187.4 187.7 187.9 186.9 185.4 182.4 182.4 186.5 186.6 182.4 185.6 186.6 187.6 188.2 188.3 188.4 188.4 188.4 188.2 187.9 182.4 184.8 185 185.3 186 186.5 184.7 184.5 182.4 185.8 187.2 187.9 187.9 189 193.2 198.7 203.2 203.5 203.6 205.8 205 204 203.6 202.5 201 199.4 197.6 195.4 190.7 192.4 192.3 192.1 192.3 191.8 191 191.1 190.3 189.3 185 187.3 187.4 188.2 188.3 188.3 187.3 188.5 188.6 188.7 188.7 188.9 188.9 188.7 188.8 189 188.5 189.1 189.6 190.6 192 193.1 193.6 194.3 195.1 195.9 196.8 197.5 198.4 199.1 199.5 199.1 198.5 198.1 194.5 193.4 199.2 200.2 198.7 197.9 196.9 195.5 195.6 196.2 196.7 197.4 198 198.4 198.7 201.8 203.7 204.1 204.2 204.8 205.4 205 204.9 204.8 204.7 205.8 207.2 207.2
213.6 213 212.2 211.8 215.1 211.5 210.5 211.4 212.8 212.8 211.1 208.1 205.4 204.7 205.3 206.2 206.7 207.4 208.1 209.3 205.8 202 201.8 201.6 201.7 202.4 203.5 203.5 200.7 199.5 200.6 198.6 196.6 194.2 192.3 190.8 190.5 190.2 190.8 192 190.5 185.8 187.2 187.3 187.4 187.3 187.3 187.4 187.4 187.3 187.4 187.4 187.5 187.5 187.7 187.5 187.7 187.4 187.2 187.4 187.3 187.3 187.4 187.6 187.4 187.1 186.9 182.4 182.4 182.8 184.8 187.2 187.8 187.5 187 187.1 187.2 187.2 187.2 187.2 187.4 187.6 187.9 186.3 182.4 186.6 186.9 187 186.8 182.4 185.9 186.9 187.3 187.6 188 188.1 188.1 188 187.9 187.8 182.4 185 185.4 186.1 186.5 186.8 186.6 186.9 187.1 187.9 187.9 187.9 188.9 192.3 197.3 200.2 203.8 204.8 206.1 208.5 208.5 206.8 205.5 204.1 202.8 201.1 199.3 197.6 195.9 193.7 193.5 193.2 192.9 192.6 192.3 191.7 190.9 188.6 187.4 187.2 187.9 188.3 188.4 188.4 188.3 188.3 188.5 188.7 188.8 188.9 188.9 189 189.2 189.3 189.4 189.6 191 192.9 194.2 194.9 195.3 196.7 197.4 198.1 198.9 199.7 200.3 200.5 200.5 200.2 200.2 200.1 197.2 191.6 198.6 200.8 199.9 198.9 197.1 195.8 196 196.9 198.1 199 199.2 199.8 200 199.6 199.7 201.6 202.5 203.4 204.2 204.4 204.6 205.1 205.9 206.7 207.6 208
213.1 211.8 213 209.1 211.4 211.6 211.1 211.2 211.6 211.7 209.4 206.1 204.3 203.7 203.9 205.2 206.2 206.8 207.4 208.3 205.7 202 201.4 201.2 201.1 201.7 203.1 203.7 199.9 197.4 198.2 196.8 195 193.4 191.4 190.8 190.3 189.8 189.8 190.2 189.7 183.5 186.7 187.2 187.3 187.3 187.4 187.5 187.5 187.4 187.3 187.3 187.4 187.5 187.7 187.5 187.4 187.2 187.3 187.5 187.4 187.2 186.8 186.3 185.8 185.4 182.4 186.2 186.6 182.4 182.4 185.7 187 187.8 187.5 187.1 187 187 187 187.1 187 187.1 187 182.4 186.8 187 187.1 187.2 187 182.4 186.4 186.7 186.9 187 187.3 187.6 187.6 187.5 187.3 187.1 182.4 185.7 186.2 186.5 186.7 187 187.3 187.5 187.7 187.9 187.9 188.7 192.2 198.4 201.3 202.3 204.7 206.5 208.3 210 210.7 209.9 208 206.1 204.6 203.2 201.7 200 198 193.2 194.8 194.1 193.1 192.4 192.2 191.5 190.6 186.9 186.1 187.3 188.1 188.3 188.4 188.4 188.4 188.3 188.4 188.7 188.9 189 189.2 189.4 189.4 189.4 189.6 190.1 193 195.2 196.3 196.6 197.3 198.7 199.6 200.2 200.8 201.6 201.6 201.7 201 200.8 201 201.2 198.7 193.4 197.2 199.5 199.4 198.6 197.1 196.3 197.5 198.7 199.9 201 201.2 201.5 201.5 202.3 201.9 202.2 203.5 204.3 205.2 205.9 206.3 206.9 207.9 208.7 209.2 209.6
212.7 215.2 209.2 210.7 210.1 210.7 209.9 210.3 210.9 210.6 208.2 205.1 203.9 203.1 203.7 204.8 205.9 207.1 209.1 208.5 205.5 202.5 200.9 200.8 200.7 201.3 202.5 202.3 198.9 195.9 195.8 194.5 193.2 191.9 191 190.6 190.1 189.7 189.6 189.4 188.7 188.2 186.5 187.3 187.2 187.3 187.3 187.4 187.4 187.3 187 186.9 187.1 187.5 187.7 187.4 187.1 187.2 186.8 186.8 186 185.7 182.6 182.4 182.4 186.4 187 187.5 187.5 187 182.4 182.4 186.5 187.2 187.7 187.4 187 187.3 187.7 187.9 187.7 186.8 184.5 183.2 187 187.1 187.2 187.3 187.1 186.9 182.4 183.8 186.3 186.4 186.5 186.9 187.1 187 186.9 186.1 184.9 186.3 186.6 186.9 187.2 187.5 187.7 187.9 188 188 188.9 192.6 198.2 203 204 204.4 206 208.3 210.5 211.9 212.2 212 210.4 208.4 207.4 206 204.3 202.4 199.7 197.3 192.5 194.4 193.5 192.7 192 191.5 190 187.1 187.6 187.9 185.4 185 185 188 188.2 188.5 188.6 188.8 189.1 189.3 189.4 189.4 189.4 189.4 189.4 190.6 194.3 196.8 198.2 198.5 198.9 200.2 201.3 201.9 202.4 202.7 202.7 202.6 202 201.7 201.9 201.9 198.8 195.4 198.6 199.2 199.3 199 197.5 197.4 199.2 200.4 201.7 203 203.3 203.4 204.1 204.8 205.1 204.8 205.5 206.3 207.1 207.8 208.2 208.9 210 210.4 210.7 211.2
213.7 211.1 211 210.1 208.9 208.2 207.1 207.7 210 208.9 206.4 205 203.1 202.7 203.9 206.4 206.9 207.9 208.1 206.9 204.3 202.3 201.9 200.4 200.1 201.1 201.7 200 197.9 195.1 193.2 192.1 191.5 191.1 190.7 190.3 189.8 189.6 189.4 189.1 188.5 188.1 187.8 187.6 187.4 187.2 187.3 187.3 187.4 187.1 186.8 186.6 187.3 187.5 187.5 186.7 186.3 185.6 185.2 183.8 182.4 182.4 182.4 186.5 187.4 187.3 187.5 187.6 187.6 187.4 186.5 185.8 182.4 186.4 187.5 187.5 187.4 187.9 188.1 188.1 187.9 186 182.4 187.3 187.3 187.3 187.3 187.3 187.2 187.1 187.1 186.4 185.9 182.4 182.4 186.1 186.1 186.8 185.9 185 184.5 186.7 187.2 187.5 187.7 187.8 187.9 187.8 188 189.1 193.5 198.7 201.9 204.1 205.3 205.9 207.7 210 212.3 213.4 213.7 213.6 212.6 211.5 210.3 208.7 206.9 204.2 201.3 198.6 196.3 194.5 193.9 193.1 192.3 191.5 190.7 185 187.9 185 187.6 188.3 185 187.5 188.2 188.5 188.8 189 189.3 189.4 189.4 189.4 189.4 189.4 189.4 190 194.2 198.2 199.8 200 200.4 201.6 202.8 203.4 203.7 203.9 203.9 203.5 203.2 202.9 202.8 202.4 197.3 198.6 200.6 200.7 200.6 200.4 199.3 199.6 201.2 202.4 203.6 204.8 205.5 205.9 206.2 206.5 206.8 207.2 207.6 208.4 209.1 209.7 210.1 210.7 211.5 211.8 212 211.8
212.4 211.5 210.4 209.2 207.3 207.1 206.2 206.9 208.6 207.9 206.2 204.4 202 203.1 207.2 208.8 208.1 207.6 206.5 205 203.3 202.5 203 201.3 199.5 200.6 200.3 198.9 197.1 193.9 192.3 191.7 191.9 191.6 190.8 190.4 189.8 189.4 189.2 188.9 188.5 188.2 188 187.8 187.8 187.4 187.2 187 187 186.8 186.8 187.3 187.5 187.6 187.5 182.4 182.4 182.4 182.4 186.6 186.3 187.4 187.5 187.6 187.6 187.6 187.6 187.7 187.8 187.8 187.7 187.8 184.2 182.4 187.2 187.7 188 188.1 188.1 188.1 187.5 185.9 184.9 187.3 187.3 187.2 187.2 187.3 187.2 187.3 187.6 187.6 186.8 186.7 186.9 186 182.4 184.9 184.8 184.5 183.8 187.2 187.8 187.9 187.8 187.7 187.8 187.7 189.6 194.2 200.7 203.8 204.1 204.8 206 207.1 209.5 211.8 213.9 214.8 215.2 215 214.7 214.5 213.5 211.3 208.9 205.7 202.7 199.6 197.5 192.7 194.1 193 192 191.3 190.8 185 186.3 187.3 188.4 189.1 185 185.1 187.9 188.6 189.1 189.5 189.7 189.6 189.4 189.4 189.5 189.6 189.5 190 193.5 198.2 200.6 200.7 202 203.1 204 204.4 204.8 205.1 205 205 204.1 203.8 203.5 202.5 196.1 200.6 201.8 202.3 202.5 202.6 201.7 202 203.3 204.6 205.3 206.4 206.8 207.2 207.5 208 208.5 208.9 209.5 210.4 211.1 211.2 211.7 212.3 213 213.2 213.2 212.5
212.2 210.1 209.1 208.1 206.2 204.9 204.7 206.9 206.5 205.5 204.3 202.1 201 203.8 209.5 210.6 208.7 207.8 206.3 204.7 203.4 202.7 201.8 200.5 199.1 199.5 199.9 199 196.8 193.9 193 191.9 191.1 190.6 190.5 190.5 189.8 189.3 189 188.7 188.5 188.3 188.4 189.2 190.5 189.4 187.6 186.9 186.6 186.7 187.1 187.7 187.5 182.4 182.4 186.2 186.6 187.6 188.7 189.1 187.6 187.7 187.6 187.6 187.6 187.7 187.7 187.8 188 188.1 187.9 187.9 187.7 182.4 186.8 186.8 187.5 188.1 188 187.6 186.9 182.4 187.2 187.4 187.3 187.4 187.3 187.3 187.4 187.6 187.6 187.6 187.4 187.2 187.4 187.2 186.2 182.4 182.4 186.3 187 187.1 187.7 187.8 187.7 187.9 188.8 190.5 196 201.8 203.8 204.7 205.6 206.2 207.1 208.9 211.3 213.6 215.5 216.3 216.7 216.9 216.8 217.4 216.3 213.8 210.8 207 203.6 200.7 198.4 196.2 193.7 192.6 191.6 191.1 190.6 185 187.4 187.4 188.4 189.3 189.3 189 186.6 188.7 189.1 189.6 189.9 189.6 189.4 189.5 189.7 189.8 189.8 189.6 193.6 199 201.3 201.4 202.9 204.2 204.7 205.3 205.5 205.4 206.2 206.2 204.9 204.3 203.8 201.9 200.5 202.7 203.4 204.1 204.6 204.8 204.2 204.1 205 205.9 207 207.8 208.2 208.6 209.1 209.7 210.1 210.8 211.5 212.5 212.5 212.7 213.2 213.8 214.4 214.5 214.7 214
211 208.7 207.8 207 206.2 206 205.9 205.5 204.7 203.7 203.2 203.4 200.7 204.9 210.4 210.8 209.4 208.5 206.7 204.6 203.9 203 202.9 202.4 200.8 198.6 197.8 198.2 197.9 193.9 192.2 193.2 191 190.4 190 189.4 188.9 188.7 188.9 188.6 188.5 188.5 189.2 189.5 190.6 190 188 187.1 187.1 187 186.9 185.4 182.4 186.4 187.2 187.4 187.6 188 188.6 189.7 188.3 187.7 187.6 187.7 187.8 187.8 187.8 187.9 188.2 188.5 188.5 188.2 188 186.7 184.8 186.1 186.5 187.2 187.2 187 182.4 186.4 187.1 187.6 187.8 187.8 187.7 188.3 187.9 187.6 187.5 187.5 187.5 187.5 187.6 187.4 187.4 186.9 187.1 187.1 187.5 187.6 188.2 189.5 190.8 192.3 194.1 196.1 200.2 202.8 204.2 205.3 206.4 207.5 208.8 210.4 213 215.3 217.1 217.8 218.2 218.5 218.9 219.8 218.6 215.9 212.5 208 204.8 201.9 199.4 196.7 193.7 192.1 191.1 190.4 189.6 185 188.9 185 187.6 189 189.7 189.5 188.9 187.7 188.9 189.6 189.8 189.6 189.5 189.6 189.8 189.9 189.9 189.7 192.7 199.7 202 202.2 203.3 204.9 205.4 205.6 205.6 205.4 206 205.9 204.9 204.4 203.7 200.9 203 204.5 205.1 205.6 206.1 206.6 206.3 206 206.3 207.3 208.5 209.4 209.8 210.3 210.8 211.8 212.6 213.9 214.3 214.4 213.8 214.2 214.8 215.2 215.6 215.8 217 216
209.2 207.7 207.3 206.7 206.7 206.4 206.7 206.6 206.1 203.4 203.2 203.9 200.4 204.8 208.7 210.9 210.5 210.1 206.8 204.6 203.9 203.4 203.1 202.6 201 199.3 197 196.6 196.8 193.8 191.8 191 190.1 189.9 189.8 188.8 188.5 188.5 188.8 188.7 188.6 188.8 188.3 187.4 187.1 187.1 187 187.1 187.2 187.1 187.2 182.4 186.4 187.4 187.8 187.9 188 188.2 188.5 188.7 188.6 187.7 187.8 187.8 187.9 187.9 187.9 188.4 188.6 188.8 189 188.9 188.6 188.6 182.4 182.4 182.4 182.4 182.4 182.4 186.1 187.5 188.4 189.1 190.1 191.3 192.2 193.2 194.4 193.3 191 190.4 190.3 190.5 189.7 188.8 188.2 188.7 189.2 189.4 189.8 191 193.4 196.4 197.9 200 201.6 202.4 203.9 205 205.9 206.7 207.7 209.3 211.3 213.1 215.2 216.8 218.5 219.1 219.7 220.5 221.6 221.9 220.3 217.1 212.1 208.4 206 202.8 200 196.8 193.4 193.3 190.3 189.6 189.2 185 189 189.3 187.8 188.5 189.4 189.4 189 188.4 188.7 189.3 189.9 189.7 189.7 189.7 189.9 190 189.8 189.9 192.1 198.8 202.2 202.8 203.6 204.8 205.8 205.9 205.6 205.4 205 205.1 205.1 204.6 203.9 202.3 203.8 205.3 206.1 207.4 208.3 208.4 208.2 207.9 208.1 208.7 210.6 211.1 211.4 211.7 212.8 213.7 214.6 215.8 216.2 216.3 215.9 216.2 216.1 216.2 216.8 217.8 218.2 217.1
207.5 207.4 207 206 204.8 205.4 206.9 208 207.5 204.6 202.7 202.5 198.3 203.2 206.1 210.5 211.7 210.9 207.1 203.8 202.9 202.8 202.7 201.9 201 199.9 198.4 197.2 196.1 194.6 191.3 190.8 190.2 189.6 189.8 188.5 188.2 188.6 188.9 188.4 188.4 187.6 187.1 186.9 186.9 187.1 187 187.2 187.4 187.2 182.4 186.2 187.1 186.9 187.4 187.7 188 188.3 188.5 188.4 188.1 188 187.9 187.9 187.9 188.2 188.8 190.2 190.4 190.2 190.4 190.6 190.2 190 188.9 188 187.4 187.1 188 188.3 188.9 189.8 191.1 192.7 195.6 198.1 199.6 200.1 200.7 201.8 200.4 199.5 199.4 199.9 199 197.9 196.7 197.9 198.7 198.3 200.2 203.2 206.3 207.8 208 208.1 207.7 207.3 207.4 207.7 208.2 208.8 210.1 211.9 213.8 215.7 217.1 218.6 219.9 220.8 221.5 223.3 224.6 223.5 221.3 216.4 211.5 209.3 206.5 203.1 199.9 196.5 193.8 191.2 190.1 189.6 188.9 188.2 187.7 188.6 187.7 188.6 189.1 189.4 189.1 188.8 186.6 189.2 189.9 189.8 189.8 189.9 189.9 189.8 189.7 189.7 190.4 197.1 201.8 202.5 203.5 204.8 206.1 206.6 206.2 206 205.8 205.4 205.4 205.1 204.5 203.8 205.1 206.6 207.7 209 210.1 210.2 210.1 209.7 209.5 210.9 212.6 212.8 212.8 213.5 214.8 215.6 215.9 217.2 217.7 217.8 217.8 217.6 217.5 217.6 218.6 218.6 218.1 216.9
206.9 206.9 206 204.4 204.4 205.9 206.7 207.3 207.8 204 201.6 200.6 199.1 200.3 203.4 206.7 208.9 209.1 205.2 202.3 201.7 201.8 202.1 202 202.5 201.3 199.9 200 197.5 193.9 191.5 190.9 190.2 189.6 189.1 188.5 188.8 188.7 188.9 188.4 188.2 187.8 186.9 187 187 187 187 187.3 187.4 187.2 182.4 185.7 186.9 187.2 187.5 187.8 188.1 188.4 188.4 188.3 187.9 187.9 187.9 187.9 188.3 189.5 190.5 191.6 191.5 191.4 191.7 192.4 192.7 192.6 192.7 193.5 192.4 190.6 191.5 192.4 194.1 196.7 198.2 200.3 203 205.6 206.4 206.4 206.4 206.2 206.3 206.7 207.8 208.6 208.8 207.9 206.8 206.8 206.1 206.3 208.6 210.6 211.9 212.6 212.6 212.1 211 210.5 210.5 210.7 210.8 211.4 212.8 214.6 216.3 217.8 219 220.2 221.6 222.8 223.8 225.3 225.7 224.2 220.9 215.3 211.1 208.8 206 202.2 198.6 195.3 192.7 190.8 189.7 189.3 189.4 190 185 185 185 189 189.2 189.4 189.6 189.7 186.6 189.2 189.9 190 190 189.8 189.7 189.6 189.5 189.5 190 195.4 199.9 201.8 203.4 204.7 206 207.2 207.3 207.2 206.8 206.1 205.5 205.2 205.4 206.1 206.8 208.6 209.8 211 211.6 211.8 211.7 211 211.4 213.2 213.7 214 214.5 216.3 216.4 216.6 217.3 218.4 218.9 218.5 219.1 219.1 219 219.3 219.6 219.4 218.2 217
205.1 205 204.2 204 204.1 205.2 206.9 207.2 206.6 202.8 201.6 200.9 199.4 198.9 201.4 202.1 205.2 205.6 202.3 199.8 199.5 199.7 200.1 200.3 202.2 201.8 201.3 200.6 197.7 194.2 191.9 191.3 190.6 189.8 189.3 189.1 189.4 189.2 188.8 188.7 188.8 188.7 187.9 187.2 187 186.9 187.1 187.3 187.4 187.1 182.4 185.3 186.6 187.5 187.8 188 188.2 188.3 188.3 188 187.8 188 188.1 188.1 189.1 190.6 192.7 192.7 192.5 192.5 193.2 194.2 195.4 197.2 199.9 202 200.9 195.5 196.9 198.2 200.2 202.8 205.9 208.2 210.6 211.5 211.4 211.2 211 210.7 211.1 211.7 212.9 213.9 214.5 213.6 211.5 210.6 210.1 210.8 212 213.1 214.1 214.9 215.5 214.8 213.8 213.1 212.9 212.9 212.9 213.5 215.1 216.9 218.1 219.5 220.6 221.8 223.3 224.3 225.2 226.2 225.9 224.2 218.5 212.7 209.9 207.7 204.8 200.9 197.1 194 191.3 190.1 189.1 195 191.2 193.4 193 191 189.5 189.3 189.3 189.5 189.6 189.4 189.6 186.6 189.4 189.7 189.8 189.6 189.4 189.3 189.3 189.6 189.9 194.7 200.1 202.4 203.7 204.8 206.5 208 208.3 208.5 207.9 207 205.4 205.2 205.6 206.5 208.6 210.4 211.9 212.4 213 213.2 212.7 212.4 213.6 215 214.8 216.1 217 217.1 217.3 217.5 218.7 219.7 219.5 220.1 220.4 220.7 221 221.2 220.9 220.2 219 217.8
204.1 203.8 203.7 204 203.8 204.9 206.1 206.2 204.6 201.4 199.3 199.7 199.5 195.2 198.2 198.9 198.7 199.1 198.6 197.3 197 197.1 197.3 197.6 198.4 199.3 198.5 197.8 196.5 194.1 192.1 191.1 190.5 189.9 189.7 189.2 189.7 189.7 189.7 189.6 189.6 189.9 190.5 189.8 188 187 187.2 187.4 187.4 186.9 182.4 185.2 186.2 187.3 188 188.1 188.1 188.2 188 187.8 187.8 187.9 188.1 188.3 190.4 192.3 193.7 194.3 193.9 192.9 194.5 197.4 199.7 202.1 204.5 206.5 205.3 200.4 202.3 204.3 206.2 208.3 211 213.4 215.9 215.2 214.8 214.7 215.1 215.1 215.6 216.3 217.2 217.3 217.4 215.9 214.3 213.2 212.9 213.7 214.4 215.1 216.2 217.3 218.3 217.5 216 215.3 215.1 215.1 215 215.4 217.1 218.3 219.9 221.1 222.2 223.4 224.6 225.6 226.3 226.7 225.7 221 214.4 210.1 208.5 206.9 202.5 197.7 194.8 192.5 190.8 191.6 191.1 190.1 190.3 193.7 194.7 194.3 192.6 190.3 189.4 189.3 189.2 189.1 189.3 186.6 189 189.6 189.9 189.6 189.5 189.4 189.5 189.7 190 195.2 199.9 202.8 204.1 205.6 207.2 208.6 208.9 209.2 208.3 207.2 205.6 205.7 206.2 208.1 210.4 212.7 213.6 214.3 214.8 214.6 214.3 213.8 215.4 216.5 216.8 217.7 218.2 218.2 218 219.1 220.4 220.4 220.1 221.2 222.4 222.8 223 222.7 222.4 221 219.5 218.8
