ncols 200
nrows 84
xllcorner 350000
yllcorner 450650
cellsize 50
69.9 77.1 80.3 82.4 82.6 85 90.8 85.8 91.7 101 106.1 104.4 119.8 118.5 117.5 120.2 123.5 121.5 122.2 124.5 126.4 130.3 134.4 139.5 145.7 146.1 135.8 132.6 128.4 126 128 126.9 124.7 116.7 115.6 119.7 121.3 120.1 115.5 106.7 101.1 97.7 99.6 98.6 108.6 112.9 117.4 118.5 128.3 131.4 132 131.7 132.8 132.8 132.3 132.6 132.2 131.5 130.7 129.8 129.1 129 130.4 131.3 130.1 125.2 118.8 123 131.2 136.6 134.4 133.5 128.1 123.6 116.9 121.1 132.4 137.9 141.2 144.2 145.1 146.4 148.5 150.6 152.9 156.3 158.4 157.9 158.1 149.6 165 166.7 166.6 167.1 170.2 171.7 172.5 171.7 172.8 173.4 177.6 171.4 167.1 165.1 167 166.8 162.8 160.6 162.9 163.1 164.4 164.3 163.7 163.7 162.7 159.1 158.6 154.5 158.7 158.8 158.2 157.9 146.9 138.7 133.4 126.5 118 118.3 116 119.3 130.2 136.1 136.6 142.3 152.6 154.3 155 156.2 157.2 158.2 158.4 159.8 161.5 163 165.2 167.9 170.6 174.2 175.5 178.9 180.5 181.1 180.4 179.7 179.3 179.4 179.4 179.3 178.6 178.6 179.3 179.7 180.6 181.4 182.8 185.7 188.7 191.8 196.3 199.9 203.1 205.7 207.7 210.5 212.3 213.3 215.2 216.1 216.8 218.3 220.9 223.2 225.4 228.5 229.3 229.8 230.3 231.7 232.5 236 238.8 241.3 244.3 245.8 248.2 250.6 250.9 250.5 252.3 254.2
70.6 76.6 78.4 79.9 81.1 83.8 89.9 91.2 89.8 97.4 105.7 102.9 119.2 121.1 119.2 120.5 122.9 123.4 124.3 122.6 125 128.4 133.2 139.5 144.5 143.6 138.4 134.6 131.3 129.4 129.5 129.2 127.5 125.1 124.8 125.5 126.2 124.7 122.5 118.1 114.4 112.7 108.4 98.3 95.1 102.9 103.2 116.3 123.1 128.1 130.2 130.1 131 129.5 129.8 129.6 129.6 128.6 128 126.7 126.5 126.7 127.2 129.3 126.9 119.7 117 126 130.5 132 134 129.4 118.1 115.9 129.4 133.8 135.5 137.9 140.7 142.5 144.5 146.2 147.2 148.7 151.3 154.2 157.2 156.9 156.6 149.6 158.5 166.5 165.4 166 166.9 168.6 168.1 169.9 171.7 172.4 175.3 168 165.3 162.7 162.8 162.7 159.5 157.2 158.9 159.5 160.9 161.6 161.1 161.1 160.1 158.5 155.3 149.9 155.8 156.4 155.9 151.8 137.9 131.7 127.2 121.2 117.1 117.2 114.7 122 133 144.2 150.4 153 154.1 154.4 155.5 156.3 157.3 157.3 158.2 159.5 160.9 162.7 165.4 168.1 170.5 173.8 175.5 177.1 178.3 178.8 178.3 177.8 177.5 177.7 177.8 177.8 177.9 177.8 178.5 179.2 180.3 181.5 182.7 185.3 188.6 191.6 194.5 197.5 200.4 201.7 202.9 205 206.3 208 209.6 211.3 212.1 213.4 215.7 217.7 219.6 220.8 222.7 225.4 227.8 229.9 231.8 234.7 238.4 241.9 245.7 249.1 252.3 256.9 257.4 256.3 255 259.1
71.1 75.3 76.4 77.9 79.4 82.8 87.9 97.7 91.9 98.7 100.5 102 118.3 121.1 117.9 118.4 120.2 123.4 121.2 122.6 123.2 125.8 132 138.4 144.5 144.2 140.1 136.3 133.1 130.7 130.2 131 128.7 127.1 126.5 126.7 126.7 124.7 125.1 125.6 123.7 121.8 117.9 111.5 99.2 94.8 101.1 109.8 116.1 123.2 127 128.6 128.2 126.7 126.6 127.3 126.8 125 124.4 123.9 123.8 123.8 124.8 126.7 121.5 116.3 121.8 126.5 129.8 131.6 133.5 123.4 108.1 130.5 133.5 135.3 137.4 139.3 140.9 142.3 143.9 145.6 147 147.6 150.2 153.1 156.5 156.3 156.1 149.4 156.2 164.2 163.2 164.7 165.3 165 165.9 168.3 172.7 172 169.9 165.1 160.5 160.6 162.2 159.2 156.5 154 154.6 155.8 156.9 158 157 158 157.4 155.9 153.7 144.9 153 153.8 153.7 143.5 135.2 126.7 124.6 118.1 116.2 116.3 114.3 124.5 135.8 146.4 151.8 152.9 153.3 154.2 155.1 155.6 156.3 156.8 157.8 159.4 161.1 162.9 165.6 167.8 170.4 172.4 174.2 175.1 176 176.2 176.2 176.1 175.9 175.9 176.4 176.1 176.6 177.2 178.1 179.3 180.3 181.1 183 185.3 187.7 190.3 193.2 194.8 196.8 197.8 199.4 200.5 201.9 203.1 205.5 207 207.5 209.9 212 213.9 215.3 217.7 221.3 223.4 225.4 226.7 232.2 237.4 241.7 245.6 250.8 255.7 259.6 262.4 263.8 261.9 260.9 263.4
70.4 73.8 73.9 75.2 77.6 81.8 87.4 94.1 103.7 107.5 98.6 106 122.5 117.5 114 112.9 116.2 119.9 120.1 121.2 122 124.1 129.6 138.3 145.1 145.5 139.7 136.7 134.7 132.8 132.5 130.8 128.2 126.9 125.4 124.8 124.3 123.8 124.7 127.1 126.6 125.1 121.4 113.1 103.8 92.2 91.2 103.6 109.7 117.2 122.4 126.3 125.5 123.9 123.8 123.2 123 122.2 120.8 120.7 120.7 121.8 122.7 124.1 120.6 113.8 119 122.9 128.7 132.5 129.2 105.4 116.5 132.5 133.6 135.5 137.8 139.1 141.1 142.5 143.2 144.5 145.7 147 148.7 151.9 153.6 154.6 153.7 142.8 155 159.1 160.3 162.4 162.9 162.2 164.2 167.5 169.1 165.5 163.8 161.1 158.6 162.6 160.7 156.6 154 151.7 150.6 152.9 154.1 154.6 155 154.3 154 153.6 150.9 147.2 150 150.8 151 145.9 133 124.8 122.3 116.6 114.8 113.5 117 125.6 135.5 147.7 150.5 151.9 151.5 152.4 154.1 155.1 155.3 155.9 156.8 158.4 160.5 162.7 164.9 167.4 169.4 171 172.6 173.3 173.7 174 173.9 174.2 174.1 174.5 175 174.8 175.4 175.7 177 178.7 179 180.5 182.3 184.3 185.5 187.3 189.7 190.8 192.9 194.2 195.9 197.1 199.2 200.8 202.5 204 205.2 207.8 209.4 210.7 213.5 215.1 218.3 219.1 220.3 227.8 234.5 239.2 244.5 249.8 253.6 255.1 260 263.7 267 266.5 265.7 266.2
70.6 71.9 71.9 72.8 76.2 81 85 88.7 95.2 98.5 101.4 107.3 112.3 114.8 109.1 109.7 112.3 115.3 116.4 119.2 119.4 122.5 129.1 137 141.8 138.6 136.3 136 134.8 133.2 132.2 129.7 126.9 124.7 122.8 121.6 120.8 121.3 123.7 125.3 124.9 123.4 122.1 116.4 107.9 95.1 88.7 92.1 102.5 111 119.4 123.1 123.4 122.1 120.9 119.6 119.7 118.7 117.8 117.9 117.7 118.5 120.1 121.5 122.7 116.1 115.9 120.3 127.4 132.1 116 108 129.5 132.4 133.5 134.7 136.6 138.2 139.5 141.2 142.6 143.6 144.4 145.6 147.1 149.3 151.6 152.7 147.4 141.3 151.9 156.1 158.9 158.2 159 158.7 164.3 168 164.3 161.4 160.5 156.7 159.3 160 157.7 154.6 150.8 149.1 147.9 149.7 150.8 151.3 151.4 151.5 150.2 149.9 148.9 146.9 146.7 148 148 148.2 140.4 130.5 124 118.1 113.9 114 118.5 126.4 138 147.5 149.6 150.1 150.9 151.3 151.2 151.9 152.6 153.7 155.7 157.7 159.7 161.9 164.1 166.4 168 169.5 170.6 171.2 171.6 171.8 171.9 172 172.4 173.3 173 172.4 172.8 174.4 175.8 177.4 178.6 179.8 180.5 181.7 183.7 185.5 186.4 188.5 189.3 190.6 193.3 194.8 196.5 197.3 199.9 201.3 203.4 205.4 207.7 209.7 211.6 213.4 210.6 221 226 228.5 227.8 235.4 237 241.3 247.8 256.3 261.1 265.7 270.6 271.7 269.8 269.1
69.8 71.3 70.4 70.8 75.7 78.4 81.8 86.5 89.2 92.7 94.3 98.9 104.1 106 106.7 106.7 109.6 111.5 115.1 117.8 118.7 122.8 127.7 131 133.1 133.4 133.8 133.1 132.9 131.7 130 128.4 124.4 121.2 120.1 119 119 119.8 122.2 123.7 122.2 121.1 122 120.5 114.5 104.5 92.6 87.7 90.3 107.8 115.5 119 120.7 120.5 118.4 116.7 116.3 115.8 115.2 115.1 115 115.6 116.5 117.6 117.7 115.6 114.1 118.5 124.2 129.6 106.3 110 128.2 130.3 132.2 133.4 134.1 135.3 136.9 138.4 140.7 142.1 143.2 145.3 146.3 147.4 148.7 150.4 134.6 148 150 152.4 155.3 154.5 155 159.1 163.2 165.9 159.6 157.2 158.2 154.2 157.2 156 149.8 148 147 146.2 144.3 146.9 147.4 148.1 148.3 148 147.5 146.5 145.5 144.2 141.8 145.3 145.1 145.8 145.9 137.9 128.2 115.2 110.7 114.2 117.9 128.5 139 146.5 147.7 147.5 146.3 143.8 144.4 145.8 148 150.4 151.9 154.6 157.7 159.5 161.5 164 165.7 166.9 168 168.7 169.1 169.4 169.7 169.8 170.7 171.8 171.3 171.4 171.9 173.8 175.1 175.9 177.3 178.2 178.7 180.1 182.1 182.7 184 185.8 186.7 188.9 190.5 193.1 194 195.4 197.8 198.9 201.4 203.3 205.8 208.1 210.3 210.7 217.5 223.3 228.3 232.8 237.6 239.1 243.5 248.6 253.5 258.5 264.6 270.1 274.6 273.3 272.5 272.4
68.8 70.8 69.2 70.6 73.9 77.3 79.8 84.5 87.7 89.6 92.6 98.6 100.8 103 105 104.5 107 109.7 113.3 116.1 118.1 121.4 125.4 128.8 132.2 132 131.4 130.6 130.2 130.9 130.9 126.9 122.1 119 118.4 118.5 119 118.6 121.6 121.8 120.3 119.7 120.4 120.4 118.2 112.1 101.3 89.2 86.2 98.1 110.8 115.2 117.5 118.2 115.5 114.6 113.7 113.7 113.3 112.6 112.8 112.9 113.4 114 114.2 111.3 113.8 117.2 120.3 119.7 101.8 110.9 125.5 127.3 129.3 130.9 131.5 132.3 133.6 135.3 137.6 140.5 142.5 143.7 144.7 145.5 146.7 140.5 146.4 149.2 148.4 148.8 149.3 150.4 154.8 159.2 162.3 158.1 152.4 155.5 154.5 151.3 152.3 149.6 146.7 145.9 144.6 143.5 141.8 143.9 144.8 145.4 145.1 144.2 144.5 144 142.3 141.7 137 142.5 142.4 142.7 143 140.9 130.2 112.7 111 114.9 117.8 126.2 135.8 140.6 138.6 136.5 132.7 134.6 136.1 138.2 141.8 142.9 147 150.2 155.1 157.7 159.6 161.1 162.7 163.6 165.1 166 166.3 166.7 166.9 167.3 168.4 169.5 169.5 170.4 171.2 171.6 173.4 174.2 175 175.9 177.2 178.5 179.7 180.8 182.4 184.1 186 187.8 189.7 190.4 192.3 194.1 196.4 197.1 197.7 198.1 200.8 205 209.1 212.6 216.6 222.3 228.3 236 241.2 245.7 249.4 254.2 259.6 264.7 269.5 271.9 273.1 273.9 274 274.2
66.9 70.1 68.9 69.7 73.5 77.3 80.4 83.6 86.9 90.1 94.7 97.6 101.3 100.7 102.3 104.4 105 106.8 110.8 114.2 116.1 119.9 123.4 127.3 129.4 131.6 130.1 128.9 129.7 130.8 129.4 126.9 121.9 118.8 118.8 118.2 118.5 118.7 120 121.1 119.7 118.9 119.3 119.2 118.8 115.2 105.3 96.5 84.7 90.7 104.1 111.5 114 115 113.4 112.4 112.6 111.5 110.9 110.5 111.3 111.4 111.2 112 112.2 109.4 113.2 115.3 116.8 112.8 99.6 120.4 122.9 125.2 127 128.4 129.6 130.3 131 132.1 134 135.9 138.5 140.4 141.2 142.4 143.3 134.1 145.9 149.9 148.8 148.4 147.9 150.3 154.6 157.8 156.3 151.4 147.6 150 150.8 149.9 151.2 147.6 144.3 142.7 142.1 140.8 140.4 140.8 142 142.2 142.1 142.2 141.6 141 140.9 139.7 128.8 137.7 139.8 139.8 140 139.9 128.7 112.1 110.3 112.7 115.7 125.3 129.5 128.7 128.4 127 129.4 128.2 125.3 119.1 124.1 123.5 131.4 142.2 149.5 154.1 156.4 157.9 159.1 160.1 162.3 163.1 164 164.3 164.4 164.8 166.1 167.4 167.7 168.9 170.1 170.2 171 172.4 173.2 174.1 176.2 177.4 177.3 178.9 180.3 183 184.9 186.5 187.5 189.5 190.3 189.5 191 195.4 200.6 203.6 206.5 209.5 212.9 215.1 217.9 222.3 230 238.8 244 248.5 256.2 260.8 264.4 266 267.6 270.3 272.4 271.3 270.4 270.5
64.9 67.5 68.8 70.1 73.1 76.4 79.9 82.3 87.7 90 93.9 97.5 97.9 98 100.6 103.1 103.4 105.2 108.6 112 116 118.2 122 126 127.6 129.6 129.1 128.3 129 128.3 129.7 126.6 123.5 120.2 118.9 118.6 118.7 118.8 120.4 120.7 119.5 118.9 118.7 118.7 117.4 114.4 108.9 98.8 86.2 82.5 98.7 106.7 109.1 111.3 111.6 110.5 109.9 109.3 109.2 108.8 109.3 109 110.5 110.6 108.1 110.7 111.5 111.4 113.6 101.9 110.9 118.6 120.5 122.5 124.6 126.2 128 128.7 129.9 131.2 132.7 132.7 133.9 135.1 137 138.2 139.1 132.2 145.2 149 148.3 147.8 147.1 149.3 153.5 152.8 149.8 147.2 144.4 143 143.1 149.1 149.3 145.4 141.8 139.3 138.5 137.3 137.7 138.4 138.6 139.6 139.7 139.5 139.5 139.2 138.6 137.9 136.6 123.8 135.1 136 137.5 136.3 125.6 111.4 110.9 111.6 113.7 116.3 116.2 114.8 114.6 117.6 118.7 115.4 121.6 118.9 118.5 117.1 120 124.8 130.9 136.7 144.3 148.4 153.2 154.7 157.2 157.3 159.7 161.4 161.4 162.6 164.1 164.9 165.3 167.1 168.8 169.2 170 170.5 171.2 173.2 174.2 175.1 175.5 177.2 179.8 181.8 183.6 184.6 182.7 182.8 186.9 194 194.5 197 201.1 205 208.7 211.3 215.8 219.7 222.9 227.1 232.8 240.4 246.1 251.9 255.1 258.1 259.9 263.1 263.1 265.8 267 266.4 265.8 266.3
65.9 69.3 69.7 69.9 72.5 76.4 80.3 82.4 87.7 91 93.8 97.2 96.9 97 99.9 102.2 101.9 103.5 106.4 111.3 115.6 118.5 120.7 123.4 126.2 128.4 129.4 128.9 128.2 128.6 128.1 127.5 124 122.9 122.2 121.2 119.8 119 119.8 119.6 119 118.4 117.2 117.1 115.4 113 109.4 102.5 92.4 83.4 94.3 103.5 105.6 107.6 108.6 109.3 107.9 108 107.7 107.9 107.9 107.7 108.3 108.2 108.9 110.6 110.8 111 109.9 94.9 110.3 116 118 119.8 121.8 123.6 126.4 128.2 130.4 131.9 132 133.6 133.4 134.6 134.7 132.2 130.4 131.1 145.7 149.3 149.5 148.3 146.6 147.5 148.9 147.9 145.9 143.8 142.4 140 140.9 145.9 145.8 140.4 137.6 136.4 135.8 134.9 134.5 135.6 136.7 136.1 137 137.1 137.2 137.2 136.7 136.7 135.8 133.9 126.3 122.1 133.2 127 122.8 111.8 110.9 111.2 112.2 111.2 112.6 113.6 114.5 115.3 116.3 123 125.5 127.2 128.7 129.9 123.4 123.4 122.2 122 125.5 133.5 132.7 139.8 146.1 148.7 152.6 155.4 156.5 160.6 162 157.2 162.1 163.6 165.5 166.7 168.1 168.2 170 171.2 172.4 173 174.6 176.9 179.2 180.3 180.2 179.4 184.9 186.6 190.5 191.7 194.4 196.9 200 204.1 208.1 212.6 217.1 220.8 224.7 228.7 234 239.5 243.5 245.7 248.8 251.7 258.5 260.3 259.4 259.5 259.6 259.9 259.1 259
66.4 70.1 70.3 70.7 72.7 75.9 79.3 81.6 86.4 90.3 92.4 95.2 96.1 96.6 97.9 100.9 100.9 102.8 106.1 110.9 115.7 117.9 119.6 122 125.1 127.1 128.7 128.9 128.7 128.3 128 128.1 126.8 125.1 124.1 122.3 120.5 118.6 118 117.6 117.3 116.9 116 114.6 113.6 110.9 107.8 103.1 92.9 83.1 84.8 101.4 100.9 104.5 106.2 107 106.3 105.9 106.6 107.3 106 105.4 106.3 102.9 107.8 109.6 109.8 109.8 105.9 95.2 109.8 113.3 115 117.4 119.3 121 124.4 126.9 128.5 129 131.8 133.2 134.1 130.8 127.8 122.3 118.3 137.4 143.9 147.9 150 150 145.3 146.2 146 145.3 144.7 144.1 143 139 135.5 137.9 138.6 137.8 135.3 133.9 133.1 132.5 131.7 133.4 134 134.2 134.7 134.9 135 134.7 135.3 134.6 134.7 134.2 132.3 120.4 118.1 118.3 115.4 110.2 110.4 109.8 110.6 110.1 110.9 114.1 114.6 115 117.5 125.6 129.9 131.3 132.9 133.9 132.4 130.3 128.5 128.2 129.6 124.8 125.6 127.8 130.8 136.8 142.9 148.7 152.2 156.2 158.7 157.9 162.4 163.9 164.6 165.8 166.8 166.8 168.9 170.5 170.3 172.1 173.5 175.6 177.2 175.4 174 181.6 184.2 186 188.1 191.6 193.9 196.4 199.4 203.5 207.9 211.6 216.3 221.9 225.6 227.7 232 235.8 238.8 241.5 242.1 248.7 252.4 252.7 251.1 250.5 252.7 251.8 251.8 252.5
66.6 71.3 70.4 70.8 73.4 75.7 78.6 81.6 85.6 89.5 92.5 94.9 96.2 96.4 97.7 99 100.1 100.8 104.2 110.6 115.5 117.8 119.4 120.3 123.7 126.8 129 129.2 129.9 129.6 129.6 129.8 129.4 127.4 124.8 122.8 119.9 118.6 116.9 115.9 115.6 115.1 114.2 112.7 111 108.8 105.8 102.1 93.6 83.9 81.2 95.8 97.6 101.7 103.5 103.7 103.1 105.2 106.1 106.9 106.8 100 103.5 96.7 107.3 107.9 108.5 107.7 96.3 100.1 108.2 110.8 112.4 113.9 116.2 118.8 121.5 124 126.2 128.1 131.5 133.6 134.2 127.7 121.7 110.4 131.3 137.2 141 146 148.5 148.3 144.5 145 144.9 144.8 144.3 144.2 143.7 142.4 137.4 132 134.6 133.6 132.7 131.4 130.7 127.4 130.7 131.2 131.9 132.6 132.8 133 132.5 133.2 133.3 134 134 134 130.3 120.6 114.2 112.8 113.6 109.6 108.8 107.9 109.5 110.2 110.8 112.1 110.8 116.7 121.4 129.7 135.3 137.9 139.6 139.7 138.6 137.3 136 134.1 133.8 134.8 133.4 126.8 127.6 127.8 129.6 133.2 145.9 150 152.5 156.8 159.8 161.4 162.1 163.7 164.9 165.7 167.2 168.3 168.7 170.1 171.8 172.8 171.4 175.5 178.4 180.5 182.4 185 188.1 190.8 193.4 196.2 199.2 202.8 205.8 209 212.5 217.1 220.2 225.2 227.8 229.8 231.4 232.2 233.9 237.3 239.1 240.7 242.6 243.5 245.8 246.4 246.1 247.4
68.3 72 71.7 71 73.2 75.6 77.5 80.4 84.8 89.1 91 92.9 95.6 96.2 97.6 97.9 98.9 100.4 104 109.9 115.8 118.4 118.7 118.7 121.4 126.7 129.5 130.2 131.2 131 130.5 131.5 131.3 129.6 127.4 124 120.2 118.3 116.5 115 113.7 113.9 111.5 109.8 108.4 106.2 103.3 100.4 93.9 84.9 79.8 86.5 96 98.7 100.5 99.7 101.7 105.9 106.5 104.9 96.5 98.4 89.8 103.4 103.4 107.5 107.6 99.8 88.8 100.8 105.9 104.2 100.9 103.1 111.7 114.5 117.7 120.2 122.8 126.6 128.7 132.3 132.2 125.3 113.4 119.8 128.6 132.7 136.2 140.7 145.2 144.6 143.3 144.7 144.2 143.7 143.7 143.5 143.1 142.4 139.9 132.3 128.1 130 129.9 129.6 129.1 124.2 128.8 129.6 130.4 130.9 130.9 131.1 131.6 131.6 132.1 132.4 133.1 129 120.2 112.2 112.7 110.7 109.4 109 109.2 107.7 109.4 111.7 117 121.3 128 132 134.7 137.3 139.4 143 144 144.2 144.2 144.1 143 142.1 139.7 142.8 143.6 143.4 141.9 128.2 129.7 131.1 128.4 139.6 143.2 152.9 155.1 155.9 157.3 160.6 162.6 164.5 166.4 165.7 167.7 168.2 168.2 167.5 171.2 174.4 177 179.1 182.4 184.5 188 190.6 193.3 195.9 198.6 201.5 202.3 204.8 207.3 210 212.9 215.8 219.3 219.9 220.9 223.4 225.8 228.1 229.7 231.6 234.5 238.2 239.2 241 241.5 242
69.1 72.6 72.1 71.1 71.9 75.9 78.4 80.6 84.7 87.9 89.3 91.7 95 96.6 96.4 97.2 97.6 100.4 104.8 109.8 115.3 118.8 117.5 117.4 119.8 128.8 131.9 132.8 132.7 132.4 131.6 131.5 130.5 129.9 125 121.4 118.6 117.2 116.8 114.3 111.5 112.4 109.9 107.8 105.9 103.5 101.2 98.7 96.1 90.1 82.2 85.2 94.9 97.4 97 96 101.2 103.9 104.4 100.9 86.3 92.9 97.8 95.6 93.7 95.7 97.2 94.3 84.8 100.8 79.4 80.1 80.8 81.1 81.3 88.1 107 110.1 118.7 122.6 124.9 127.1 127.3 117.8 106.3 119.3 126 127.7 130 131.3 134.2 136.3 142.9 143.5 143.5 143.3 142.8 140.5 140.2 138 133.7 131.6 129.9 124 127.6 128.8 128.3 121 126.8 127.5 128.3 129.2 129.1 129.2 130.9 129.9 131.5 130.3 119.3 115.7 110.8 109.6 108.9 109.2 108.8 109.1 109.1 107.9 109.3 110.4 120.8 131.8 134.8 136.6 138.5 140.1 141.7 143.3 145.4 145 145.9 146.8 148.3 147.7 147.3 147.4 150.1 149.6 148.1 145.7 136.9 137.8 134.6 129.6 130.7 135.3 143.3 148.6 152.8 156.5 160.1 161 161.1 164 165.6 165.3 160.9 168.8 172 174.5 176.2 178 181.7 184.2 186.4 190.1 192.6 195.8 197.9 198.7 198.9 200 201.5 203.5 205.5 207.6 210.1 210.9 213.6 216.3 219.6 221.4 224 226.4 228.8 232.4 234.5 236.3 236.9 239.5
68.9 73.2 71.6 70.5 71.6 77.1 78.4 79.6 81.8 86.2 89.2 91 94.4 95.3 95.5 96.6 97.1 100.6 104.6 108.7 114.4 117.5 116.6 117.1 120.2 130.6 133.7 134.2 134.2 133.6 132.6 130.7 128.2 124.7 120 118.1 116.8 115.2 114.5 112.8 109.3 109.4 108.5 106 103.3 101.1 98.8 96.9 93.6 87.3 77.6 82.9 94.6 93.7 89.7 98.9 100.6 102.2 102.2 91.3 79.8 78.3 78.3 84.3 85.2 87.8 88.3 85.3 83.5 78.5 80.4 80.5 81.6 81.5 82 82.1 82.8 98.1 105.5 107.5 109.4 117.1 123.7 117.7 101.7 114.5 119.7 122.5 120.8 128.8 138.3 140.4 142.1 142.6 142.5 142 136.4 132.8 132.1 130.3 129 128.7 128.3 124.3 124.5 126.6 126.6 120.6 124.1 124.9 125.5 126.9 127.5 128.2 129.9 122 120.8 114 107.7 107.7 107.7 109 108.5 109 108.6 109.5 108.1 107.7 108.2 110.4 119.6 129.8 131.8 133.1 136.1 139.9 142.3 144.5 145.6 147 147.3 148.2 149.3 149.8 150.2 150.3 151.3 152.3 151.5 150.9 148.8 147.9 145 138.3 134.9 132.8 132.2 143.7 150.7 152.1 155.3 155.2 158.2 161 161.7 162.1 159.8 166.3 169.3 172.2 174.3 176.9 180.6 182.5 185.1 188.4 191.4 193.8 194.9 195.3 195.8 195.7 196.3 198 199.9 200.6 203.7 205.4 207.6 210.9 213.7 215.7 218.9 221.5 224.4 227.8 230 231.7 233.6 234.3
67.9 72.4 71.9 71 73.1 75.3 77.9 81.3 81.7 84.6 87.2 90.1 92.9 94 94.5 95.6 96.8 99.5 104 108 112.1 116.5 117.2 118 123 130 134.9 135.5 136.6 134.8 132.2 127.7 123.9 120.5 119.4 119.2 116.5 112.6 112.1 110.8 108.6 107 106.7 104.9 102.2 99.5 97.1 94.4 88.5 82.3 76.3 87.8 94.9 90 95.7 99.6 99.4 100 88.7 77.8 77.8 77.5 78.1 78.9 79 79.4 80.5 80.9 78.6 79.5 81 81.3 81.6 83 82.9 83.7 83.5 82.4 89.6 94.5 89.2 96.9 105 111.7 102.4 106.5 112 119.4 124.9 131.4 140.1 140.4 139.6 141.5 137.4 133.8 130.5 125.8 125.1 122.1 121.4 122.7 123.8 122.7 121 122.8 122.4 116.6 122.4 122.6 124.6 126 126.9 127.7 128.5 121.6 109.6 107.7 107.7 107.7 108.9 108.5 109.3 108.9 109.1 108.7 108.5 107.8 109.1 117.2 118.9 132.4 135.4 137.2 138.7 139.6 142.2 143.9 145.9 147.3 148.5 149.2 149.7 151.1 151.9 151.7 152.7 153.1 153.5 152.1 153.9 155.6 152.4 148.2 141.6 134.9 133.2 145.4 146 147.2 150.1 154.6 156.6 157 158.5 157.1 161.6 164.6 168.2 169.6 172.9 175.5 178.3 180.7 183.3 186 188.8 190.4 192.2 192.8 192.9 193.3 194.1 194.5 196.2 196.2 198.3 200.3 203.8 206.5 209.3 211.9 213.3 217.5 220 222.4 226 226.7 228.6 228.7
65.6 69.7 70.5 70.4 72 73.9 76 78.5 81.4 84.7 86.4 88.3 91.2 93.5 94.3 95.4 95.6 99.8 104.3 108.4 112.8 116.8 117.9 120.6 126.1 131.1 136.1 138.2 139.6 134.9 131.1 126.9 123.2 121.5 120.2 118 114.9 111.3 108.7 107.7 105.8 104.5 104.4 103.1 100.6 97.8 95.2 92.8 84.4 74.5 76.7 91.9 95 85.4 93.8 94.3 92.2 91.8 77.8 75.6 77.2 76.1 74.6 74.5 74.8 77.3 79.1 79.6 76.8 79 81.2 81.3 82.2 83.2 84.4 87.2 86.5 86.3 84.2 83.8 87.2 88.6 89.5 94.9 96.1 104.1 115.6 121.1 124.3 128.9 133.1 129.4 132.9 132.8 128.9 124.7 122 116.1 115.7 114.5 115 116.4 117.9 116.2 118.3 115.5 109.9 116.3 122 123.4 123.6 124.9 125.4 125.9 125 120.3 107.7 107.7 107.7 107.7 108.8 108.2 109.4 108.9 108.8 109.2 108.4 108.5 110.6 128.5 127.8 130.3 136 138.1 140.2 141.6 141.9 143.2 145.6 147.8 150.1 151.2 152.1 152 152.8 153.7 153.5 153.6 153.4 154.6 154.6 155.3 156.5 151 137.5 134.8 138.2 142.7 142.1 148.4 152.8 154.3 154.7 153.6 157.4 159.9 161.5 164.3 166.8 168.5 171.3 173.8 176.4 179 181.8 183.7 185.5 187.3 189.6 191.3 191.1 191.4 192 192.7 193 193.5 194.9 197 200.2 202.7 204.8 206.2 211.2 214.3 216.4 217.5 220.5 222.9 224.2 224
62.8 66.8 68.7 68.5 70.5 72.5 76.2 77.7 78.8 83 85.3 87.2 89.9 92.3 92.9 95.2 96.1 99 103.7 108 112.6 116.6 118.1 121.1 125.4 131.2 136.2 139.2 136.2 130.2 127.4 124 120.6 119.3 117.1 115.4 113 110.8 105.6 104.1 100.5 101.6 101.4 100.2 98.2 95.4 92.6 89.3 82.2 72.3 83.3 92.4 90.7 77.7 76.6 76.8 77.1 76.6 71.7 73.9 75.7 77.4 78 83.2 90 88.6 75.9 76.4 76.5 80.4 81.2 82.6 86.2 90.4 96.7 96.4 92.3 90.5 90 88 86.3 88.4 88.9 90.4 94.9 107.1 115 119.9 119.5 119.3 122 121.2 122.1 120.7 115.7 110.9 107.2 105.2 105.6 105.5 105.3 108.4 111.3 107.3 107.9 105.3 110.7 112.7 115.3 112.5 109.4 115.6 118.4 124.1 126.2 117.4 107.7 107.7 108.4 108.8 109 108.1 109.3 108.6 108.5 108.2 107.7 108.8 126.9 134.5 134.1 132.3 127.1 136.5 140.2 142.6 144.4 146.1 147.5 147.5 148.9 151.8 153.7 154.3 153.8 155.4 155.3 154.1 154.4 155.3 155.9 156.2 157.4 149.9 135.9 136.1 137 136.8 137.2 137.6 140.3 152.2 153 156.4 157.4 158.8 160.5 162.4 165.9 167.9 169.8 172 174.2 177.4 179.8 181.6 182.8 185.5 187.6 189.2 189.1 189.5 189.7 189.8 189.4 190.2 191.9 195 196.7 199.1 201.5 204.7 207.9 210.5 214.1 215.7 217.8 219.6 220.9 220.1
60.2 62.9 65.1 67.2 68.5 71.1 74.9 75.2 79.9 82.5 84.6 86.3 88 91 91.7 94.5 94.3 97.8 102.6 107.6 112.1 115.8 117.9 120.4 124 129.8 134.4 136.5 131.1 126.6 123.5 119 117.1 115.7 114 112 110.2 108 103.8 100.9 97.9 98.2 98.7 97.4 95.5 94.2 91.8 83.7 74.4 70.6 73.6 76.7 79.5 74.3 74.6 74.7 75.9 74.6 75.6 76.5 80.2 82 87.7 97.2 102.7 106.2 106.3 98.6 106.6 110.9 109.5 106.1 98.6 105.3 105.3 104.8 104.8 103.5 102.5 97.5 86.8 86.7 88.4 89 87.2 86.4 90.1 95 102.9 107.7 108.9 106.5 101.8 103.4 97.5 96 96.4 96.6 97.7 96.2 97 97.2 99.6 100.6 100.2 103 103.4 103.2 103.1 103 103.8 105.9 107.5 116.8 119.2 107.7 107.7 107.7 107.9 108.1 107.7 107.8 107.7 107.7 109.1 110.5 116.1 124.9 138.2 138.4 138.4 129 134.9 133.4 140.3 143.3 145.6 147.8 149.4 150.4 150.3 151.2 153.8 155.2 155.2 156.7 157.2 155.6 155.6 156 156.4 157.2 157.5 152.2 143.1 138.4 136.9 137.6 138.5 139.5 140.7 148.9 153.2 157.3 158.1 159 160.9 163.3 165.6 167.1 168.8 171 173.4 176.3 178.7 180.7 182.9 184 185.2 187.2 187.6 188.3 188 187 186.8 189.1 189.8 191.4 193.7 197.1 199.2 202.9 205.4 207.8 210.5 213.4 215.1 216.6 217 214.9
57.3 60.1 63.4 65.2 66.7 69.8 73.7 75.7 78.9 82 82.3 83 87.3 90 90.6 93.1 94.3 97.3 101.2 105.5 110.7 113.9 116.4 118.3 121.6 125.9 130.8 131.4 128.5 123.8 118.1 114.3 112.8 111.6 110 108.1 106.9 105.3 101.4 98.6 95.1 94.9 95.6 94.4 92.8 92.2 90.4 80.9 69.7 69.8 70.2 70.8 70.6 72.5 73.6 74.4 70.5 74.6 75.5 81.1 90.6 95.6 101.3 104.8 109.7 111.8 113.5 115.1 116 115.4 114.7 113.3 111.7 109.5 109.8 110.7 111.7 113.4 114.8 116 109.7 89.1 85.9 86 85.5 87.3 88.8 85.4 88.3 95.1 97.9 93.4 93.4 93.4 94.4 92.2 94.8 94.5 94.5 95.1 95.4 94.4 97.5 98 98.3 101.9 103.9 104.8 104.7 105.3 103.4 104 105.1 107.7 107.7 107.7 107.7 109 108.9 107.7 107.7 111.4 114.3 116.4 117.2 118.9 120.5 130.4 140.3 141.2 141.6 131.5 140.1 141.1 140 144.1 146.9 149 150.9 152.4 153.2 153 153.6 155.3 156.5 157 158.8 158.5 158.3 158.1 157.9 157.6 157.9 157.4 148.7 147.6 149.2 146.6 143.2 140.1 140.4 151.7 154.7 156.9 158.4 159.6 161.7 162.9 164.3 166.1 168.5 170.6 172.9 175.4 177.4 179.7 181.7 182.6 183 185.5 186.6 187 186 183.6 184.6 185.4 185.8 189.2 192 194.1 197.3 200 202.3 205.2 208.2 210.2 212 212.6 211.4 209.1
55.4 58.9 61.1 63.6 65.2 68.6 72.7 75.7 78.7 80.4 81.8 83.1 85.9 88.2 89.8 90.8 93.8 95.6 98.5 103 107.6 111.9 114.3 115.1 118.9 122.1 125.4 123.2 121.6 116.5 112.6 110.3 108.4 107 106.1 104.7 103.8 103 100.1 96.9 93.4 91.2 92.3 91.4 90.6 85.3 79.7 68.7 69.6 70.3 70.8 71.5 71.4 72 73.5 73.3 73.6 73.2 75.3 92.5 100.5 105.4 108 111.9 115.9 118.9 121.1 122.1 121.9 121.2 120 118.6 115.8 114.9 114.2 115.7 118.3 120.1 121.2 121.3 116.1 119.3 103 106.4 100.9 90.6 90.8 91.6 90.1 89.1 88.8 90.7 88.8 90.5 90.6 91.5 91.7 91.9 91.3 92.9 92.7 91.7 93.5 94.9 94.4 94.9 94.6 98.3 99.6 98.6 97.4 95 96.8 107.7 107.7 108.8 107.7 107.7 107.7 108.9 111.8 113.9 116 119.9 120.7 122.6 125.2 136.1 141.6 142.9 138.4 136.9 142.7 142.8 145.3 145.1 147.6 149.7 151.2 153.7 155 155.1 155.4 154.7 157.2 158.1 159.6 160.6 160 159.3 159 158.7 158.7 158.1 157.6 158.6 159.2 158.8 152.2 140.6 141.8 149.9 154.4 157 158.6 159.8 161.1 162.4 163.6 165.2 167.4 169.4 171.3 173.2 174.6 176.9 177.9 179.8 181.1 183.6 184.6 184.2 182.4 179.8 178.8 181.8 185.4 186.7 188.8 192.6 195.6 198.5 199.5 201.5 204.3 205.5 206 206.4 205 201.7
52.8 56.4 59.6 62.4 63.5 66 72.1 75.8 77.1 79.1 80.7 80.7 84.1 86.9 87.9 88.1 92.5 95.5 95.5 99.8 104.9 109.6 112 111.1 114.1 116.3 119.3 117.3 113.6 111.7 109.4 106.8 105.4 103.1 102.5 100.8 100.7 99.4 98.7 96.5 92.2 88.4 89.4 88.9 85 66 66.1 68.2 69.8 70.6 71.2 70.5 71.4 72.6 72 72.8 73.1 74.3 85.7 101 106.1 109.8 114.6 118.6 121.4 124 127.2 128.3 126.8 125.5 124.6 122.6 120.7 121.4 119.6 122.3 123.9 126.4 127.3 126.6 124.5 124.8 125 123.3 115.1 107.8 95.3 99.1 99.2 97.6 93.3 91.6 89.6 88.2 90.5 91 89.2 91.5 91.6 92.6 93.1 94.1 93 94.4 94.6 95.4 95.8 93.2 93.2 96.6 98 104.3 105.7 107.7 107.7 107.7 107.8 107.7 113.1 114.3 117 119.7 120.7 123.9 124.3 124.5 131.3 141.4 143 144.9 141.6 141.1 145.4 145.6 146.6 149.6 149.5 151.9 153.6 155 156.9 157.1 157.9 157.9 157.6 159.3 160.6 161.3 161.4 161.5 160.5 160 159.5 159.8 159.2 158.7 159.1 159.1 154.1 141.9 142.6 144.7 142.3 154.6 158.5 159.1 159.5 161.2 162.6 164.3 165.9 167.3 169.3 171 172 173.7 175.4 177.1 179 180.5 180.8 180 178.1 176.6 176.7 180 180.9 184.3 186.4 190.4 193.5 195.6 196.9 198.1 199.5 199.8 200.5 200.1 196.5 194.1
51.3 54.3 57.3 61.2 62.6 67.6 70.3 73.7 75.3 78.3 79.4 79.4 82.8 84 87.6 88.4 90.8 93.1 91.5 96.2 102.1 106.6 109 108.6 108.7 111.4 112.5 111.7 110.1 107.8 105.7 104.1 102.6 100.6 98.8 97.8 96.8 96.7 96.1 95.2 91.9 87.8 85.6 86.4 68.9 68.5 68.6 69 66.5 70.6 71.5 71.4 71.9 72.4 72.1 70.3 81.1 95.3 103.4 107 112.8 116.5 118.4 123.7 125.5 127.7 129.9 131 130 128.7 127.8 126.6 125.5 125.7 126.6 128.5 130.8 132.6 131.6 130.3 128.6 128.9 129 131.2 130.4 127.3 111.3 113.1 109.3 113.6 98 101.3 96.8 103.6 98 95.7 104.8 103.2 104.6 100.1 96.6 107.3 102.5 103.4 106.1 105.9 106.4 105.3 101.5 103.1 98.3 107.5 113.1 113.4 110.2 109.8 112.3 114.1 116.1 120 123.4 125.3 126.1 126.1 126.6 134.7 142.6 143.3 145.6 147.7 147.6 142.2 148.1 148.9 148.8 151.8 153.6 154.7 156.1 157 159.2 160.3 160.6 160.3 160 161.5 161.6 162 162.6 162.5 162.9 162.3 160.5 161.4 160.1 160.6 161.5 161.2 158.8 150.3 143 143.5 142.6 149 155.7 157.5 158.3 158.8 160.4 161.8 162.2 164.5 166.1 167.5 168.4 170.4 171.6 173.1 174.6 175.9 176.2 175.6 174.2 173.9 173.7 176.3 179 181 184.5 187.8 191.3 193.2 193.2 193.8 194.3 195.2 194.9 192.5 189.2 180.9
50.6 51.6 55.7 58.5 63.7 66.8 69.6 71.2 74 76.6 78.4 78.4 81.4 85.3 87.8 87.7 88.9 90.2 88.7 94.1 98.5 102.9 106.2 106.1 105.1 106.5 108.5 107.8 107.2 105.2 103.4 101.3 100 97.8 96.4 95.2 94.3 93.4 93.5 93.4 91.5 87.6 79.3 78 64.7 67.8 69.1 69.7 69.6 67.2 70.4 72 72.5 72.2 70 81.8 98.5 104 107.2 112.1 118 120.5 124.9 125.7 127.2 128.7 130.4 131.7 132.3 131.8 130.7 129.5 129.2 129.7 131.1 132.3 134.8 136.5 135.6 133.1 132 133.5 135.7 136.4 135.2 132.3 128.8 131 123.6 125.5 95.5 123.3 123.5 125.2 125.3 121.8 118.7 119.4 121.7 119 112 119.9 128.8 129.6 128.7 127.3 126.6 118.3 110.9 104.6 98.4 107.4 114.8 118.8 117 117 118.8 117.4 119 122.2 126.2 127.2 128.7 130.2 136.2 139.5 144.3 146.1 148.1 150.4 151.2 145.1 151 152.4 153.4 153.6 156.3 157.7 158.2 159.9 160.7 163 163.8 163.2 163.2 163.1 163.3 164.1 163.8 163.5 164.1 163.6 162.8 162.5 162.2 161.8 161.6 161.7 160.5 157.1 152.3 144.3 144.3 144.6 147.7 151.2 154.4 154.2 156.5 157.3 157.7 159 161.3 163.5 163.6 164.6 165 166.9 168.4 169.9 170.7 171.7 170.5 170.1 171 172.8 175.8 178.4 181.7 184.9 187.3 189.1 188.6 189.7 190 188.1 187.2 180.6 179.6 179.6
49.7 50.8 54.8 58.7 63 65.4 67.4 68.5 71.9 73.6 76.9 76.1 80 84.1 86.3 87.1 88.9 86.7 86.2 91.3 95.1 99.5 103.1 104.1 102.6 102.8 104.6 104.7 104.6 103.8 101.8 99.7 97.5 96.3 94.9 94.4 92.4 90.9 91 90.9 84.5 81.1 73.6 68 67.2 68.1 68.9 69.6 72.3 73.9 74.1 69 69.2 74.9 84.8 95.5 101.7 105.4 110.2 114.7 119.8 124.5 126.8 127.4 127.2 128.8 130.6 132.4 135.4 135.5 134 132.9 132.6 133 134.4 135.3 139.2 140 140.2 139.5 140 139.8 139.2 139 138.3 136.8 133.3 133.7 133.7 130.4 105.4 120.4 130.8 131.8 132.2 130.2 129 127.4 127.9 128.9 125 124.4 130.2 132.6 133.2 132.3 131.6 127.2 118.9 109 101.1 107.4 114.7 119.5 127.7 123.1 123.4 122.2 125 124.9 129.7 130.4 135.2 139 140.2 142.8 146.3 149 152.2 153.4 153 147 153.3 154.8 156.1 157 158.9 160.8 161.4 162.6 164.4 165.2 166.5 165.6 165.3 165.8 165.4 165.9 165.6 164.8 164.8 165.1 164.2 163.5 163.8 163.9 163.2 161.9 160.9 157.7 155.1 151 145.2 145.2 146 146.9 147.3 148.4 149.6 149.8 148.1 151.8 157 157.9 158.7 157.9 159.9 161.3 163.2 166 167.5 168.1 167.9 165 168.4 170.5 173.6 175.1 178.1 180.1 180.9 183.5 184.2 184.5 184.3 181.3 179.4 175.5 181.5 188.7
50.2 49.9 52.9 58.4 61.7 63.9 65 66.9 69.5 71.1 72.3 75.6 78.5 82.8 84.9 85.3 88 87.3 84.4 88.2 92.5 96.8 100.6 101.9 100.2 99.4 101.5 102.4 102.1 102.9 101.5 98.8 96.7 95 94.3 93 90.9 89.6 89.7 87.2 74.6 66.3 66 65.2 67.3 68.2 68.6 70.4 72.8 73.3 80.3 84.7 87.2 88.1 93.5 98.2 102.1 107.7 112.5 116.3 120.1 125.1 128.4 128.2 128.4 128.6 130.1 133.7 138.1 138.6 137.9 136.6 136.4 137.2 137.7 141.1 141.4 141.9 143.7 144.1 143 141.6 139.9 139.5 138.7 135.5 136.9 137.5 137.6 135.2 129.5 103 131 135.4 136.2 134.9 132.7 132.9 133.1 132.4 121.1 130.3 132.5 134.7 135.2 135 134.7 135.2 131.8 117.2 108.6 108.8 116.9 119.5 130.3 131 129.5 130.6 132.2 134.7 134.9 137.4 140.5 142.1 144.8 147 149.9 153.5 155.7 156.7 155.5 153.9 156 157.7 159.2 160.5 160.6 163.2 163.8 164.7 166.7 168.6 169 168.9 168.4 169 167.5 167.5 168 167.4 166.9 167.4 165.6 165.3 165.4 164.4 163.7 163.9 162.1 158.9 156 154.2 146.3 145.8 144.8 146.3 146.7 147.8 147 148.5 149 148.6 151.1 152.4 153.1 153.4 153.5 154.3 160.3 162.2 165 165.3 163.6 165.3 166.6 168.4 170.4 171.3 173 174.6 176.9 179.2 179.8 178.1 171.7 173.1 174.5 180.7 186.6 189.8
48.9 49 51.1 56.5 59.3 61.8 63 66 67.1 70.7 73.5 74.3 78.3 81.8 83.7 83.3 85.5 85 82.7 86.5 90.4 93.3 97.9 99.4 98.7 98.2 99.2 99.1 100.3 100.7 99.8 97.9 95.9 93.6 93.2 91.2 90.2 86 76 68.1 66.1 65.6 64.3 66.5 67.3 68.9 71.4 72.1 73.6 78.7 84.2 86.5 87.9 90.3 94.3 98 102.9 108.8 114.1 117.7 120.8 125.3 128.9 129.1 129.3 129.6 130.4 134 141 141.7 141.3 140.7 142 142.8 142.2 144.5 144.1 145.2 146.5 146.1 144.8 143.3 141.6 140 137.2 137.4 139.3 140 140.4 138.4 135.6 119.1 126.8 135.1 135.8 135.9 134.7 134.5 134.8 126 131.8 132.9 134.5 136.5 136.7 136.7 136.7 136.9 135.8 122.3 113.3 105.9 118 123.4 133.6 136.8 137.3 138.4 139.4 140.2 141.1 142.7 143.9 145.7 148 152 154.3 157.2 158.4 160.1 159.2 153.2 153.9 159.8 161.9 163.6 163.9 165.4 165.9 166.9 169.2 171 172.2 172.1 171 170 171 171.2 171.1 170.1 169.9 169.1 168.2 168.1 167.7 166.4 165.9 164.4 162.9 161.2 158.7 156.4 152.9 153.1 148.5 151.2 146.4 146 149 150.3 150.4 149.6 150.2 151.8 152.6 153 153.8 154.6 155.2 159.4 161.6 162.2 161.4 163.1 164.7 166 166.8 168.5 170.1 172.1 173.5 173.6 172.1 171.3 173.3 175.9 180.6 185 188.1 191.3
50.5 48.5 50.2 53.1 56.9 60.4 63.1 64.1 67.8 70 71.8 74.2 76.9 80.8 82.5 81.2 82.8 82.5 83.1 85.9 88.1 91 95 97 97.3 96.7 96.4 96.2 97.2 98.8 98.3 96.9 94.9 93.3 92.3 90.6 85.6 68.5 65.2 65.3 66.4 71 82.2 82.8 80.6 78.8 79.8 79.5 78.8 80.9 84.5 87 89.3 92.3 94.9 99.1 103.8 108.5 114.2 118.2 121.3 125.3 129.6 131 131.1 132.5 133.7 137 143.9 144.9 145.3 144.7 144.4 146.5 146.4 144.9 144.9 146.2 148.1 147.4 146 144.2 141.3 139.8 140.3 140 140.6 142.5 142.8 140.5 138 133.5 116.7 132.3 135.6 136 134.8 135.7 133.1 132.2 134.1 134.8 136.3 137.8 138.8 138.7 138.8 138.4 137.1 130 115.7 107.2 112.3 120.2 138.9 139.5 140.4 140.4 142.2 143.7 144.6 146.7 148.3 150.3 152.2 154.9 159.1 161.6 162.5 162.3 161.6 160.8 159 161.4 163.8 165.6 166.3 167.5 167.8 168.9 170.9 173.1 174.5 175.3 174.6 173.8 174.4 173.9 173.9 173.7 171.3 170.5 169.8 169.6 169 167.9 167.2 165.8 163.9 162 159.9 155.7 155.1 153.7 151.3 151 153.5 154.3 154.7 153.2 153.5 154 149.9 151.6 152.4 154.1 156.3 155.4 153.8 155.7 156.3 158.6 160.2 162.5 163 163.9 165.5 167.1 167.4 167.7 166.8 167.5 169.2 173.5 177.6 181.3 184.8 187.6 191 194.2
52.5 48.7 48.9 50.7 52.4 57.4 62.2 63.2 66.7 68.6 70.4 73.5 76.4 78.9 80.3 80 80.4 80.3 81.8 84.6 86.6 89.5 92.4 94.8 96 95 94.4 93.5 95.1 96.2 97.1 95.7 94 93.1 91.7 89.9 74.4 64.2 64.2 66.2 67 79 86.5 88.9 90.4 90.1 90.4 87.1 85.1 84.8 87.4 89.2 91.2 93.1 95.2 99.5 103.3 108.3 113.3 117.8 123 127 130.7 132.5 133.8 136.7 139.4 142.1 147.3 148.2 148.2 147 146.9 147.3 146.5 145.7 146.7 148.8 149 147.3 145.1 142.7 141.4 141.8 142.3 142.9 143.9 144.7 144.6 142.2 140.2 137 114.9 129 134.8 136.5 136.5 135.4 134.2 134.6 135.5 136.1 138.1 139.2 140.5 140.8 140.4 139.7 138.1 134.6 123.4 116.3 112.3 119.6 132.7 142.5 143.6 143.7 144.4 146.7 148.6 150.6 152.7 156.1 158 160.7 162.6 165.6 166.8 166.4 164.8 163 163.2 162.6 163.1 166.6 168.4 169 170 171.1 172.9 175.2 177.1 178.1 178 177.1 177.8 177.6 177.8 177.4 176.9 174.2 173.1 172.1 171.9 170.4 168.6 167.5 165.7 163.7 160.9 157.4 156.7 151.6 155.1 154.9 157.4 157.2 157.5 155.6 155.6 151.4 151.6 152.3 155.4 157.5 159.7 159.6 160.2 155.7 156.5 157.5 159.7 161.6 161.6 163.2 164 164.8 164.9 165.5 166.2 170.4 171.7 175.2 179.3 183.7 186.9 191.2 195.2 197.3
50 48.7 48.5 49.6 52.4 57.6 62.1 63.4 66.3 67.6 69.4 71.5 74.3 76.5 78.5 78 78.7 79.5 79.7 82.9 85.4 87.8 90.3 93.1 94.9 93.5 91.5 90.6 92.8 94.7 95.2 94.5 93.4 92.5 91.5 84.6 73.2 62.2 64.4 66.7 71.9 83.9 87.6 89.5 92.3 93.1 93.8 91 89.5 89.3 89.9 91.5 91.6 93.4 96.2 99.6 103.6 104.3 111.4 116.7 123.2 127.9 131.7 134.5 137.9 139.7 143.6 146.8 150.1 151.3 150.1 148.3 148.7 147.9 146.8 147.1 149 149.6 148.6 146.7 143.2 141.5 142.1 143.1 145.2 145.7 146 146.9 146 143.9 142.2 139.5 119.6 128.6 137.1 137.3 136.8 136.4 135.5 136.2 137.3 138.5 139.8 141.2 142.4 142.5 142.6 141.3 140.2 137.8 137.7 128.5 120.4 113.9 135.2 142.8 145.1 145.7 147 149.9 151.9 154.5 157 159.8 162.1 164 166.5 168.5 169.4 169.4 168 166.2 166.5 166.4 164.6 168.5 170.6 170.9 172.1 173.1 175.5 178.2 180.1 180.7 181.3 181.2 181.7 182.5 182.6 182.2 181.5 180.1 179.4 177.3 175.4 173.3 170.9 169.1 167.3 163.9 161.7 158.7 158.8 157.4 157.9 157.9 159.1 158.6 159.1 158.5 158 154.4 151.7 158 158.9 160 161.8 162.6 162.8 162.3 157 157.5 158.9 158.9 160.4 162.4 162.9 163.3 164.7 165.8 168.8 170.4 172.1 175 181.1 185.1 189 193.3 196.6 199.5
47.4 48.4 46.8 49.5 50.4 55.9 61 62.9 65.2 67 69.9 69.2 72.8 74.9 75.9 76 76.9 78.1 78 81.4 83.3 85.6 88.2 91.4 93.2 91.9 90.3 89.1 90.8 92.9 94.4 94.7 93.5 92.9 90.7 82.5 71 63.8 63.9 67.4 74.3 83.9 87.4 90.2 92.6 94.3 95 94.6 93.4 92.9 92.6 92 92.1 94.8 97.3 100.8 103.6 106.2 109.6 116.4 123 128.3 131.8 135.4 139.5 141.9 144.2 148 151.4 152.3 150.4 149.1 149.1 148.1 148.8 149.9 150.5 149.8 147.3 144.3 141.8 142.2 142.5 145.7 147.2 147.6 147.9 148.5 148 146 144 139.8 123.2 132.3 139.3 139.5 139.3 138.5 137.4 138.3 139.3 140.5 141.8 143.3 144.5 145.2 145 143.9 142.3 137.2 140.6 137.4 130.8 120.5 132.5 140.9 146.3 148.1 149.9 152.2 154.8 157.8 161.6 164.1 166.5 167.4 168.9 170.1 170.8 171.6 170.6 168.2 169.8 169.8 169.4 170.3 172.5 173.5 174.3 175.5 177.7 181.4 184.2 186.1 187.2 186.5 186.9 188.6 189.2 187.9 186.8 185.2 183.2 181.5 179 176 173.8 170.8 168.3 164.5 161.7 160.7 155.6 160.1 160.2 159.8 161.1 161 161.3 160.3 160.6 160.3 160.9 160.5 160.8 163.1 165 165.4 165.3 164 157.5 156.7 157.6 157.6 159.3 160.5 162.3 163.3 164.6 165 167.6 169.2 171 175 182.1 186 190 195 198.8 201.5
45.2 45.2 45.7 48.8 51.4 56.4 62 66.1 65.7 66.7 68.8 69.5 71.1 72.7 73.2 74 75.5 76.9 76.3 79.2 81.3 83.2 85.6 88.8 91.4 92.5 91.3 87.8 88.5 91.3 92.9 94.1 93.1 92.4 89.9 81.1 66.7 62.9 60.6 65.7 73.2 84.8 87.6 90.2 92.3 94.4 95.4 95.6 94.2 93.2 93.9 93.5 94.4 96.4 98.4 101.1 103 105.2 108 114.9 122.2 127 130.3 135.6 140 142.6 144.9 147.6 150.9 151.2 150.5 149.6 149.3 149.3 149.6 151.2 151 149.5 146.2 143.3 142 142.5 146.3 148.7 149.7 150 149.6 149.8 149 147.2 145.7 140.5 124.4 134.6 141.1 141.8 142.4 141.4 140.1 140.4 141.3 142.7 144.3 145.6 146 147 146.9 145.9 144.2 141.2 143.1 144.1 138.1 126.6 129.9 141.5 146.8 150 152.5 154.5 157.3 160.7 164.4 167.2 169.2 170.7 171.7 172.1 172.7 173.3 172.3 170.8 171.9 172.2 172.3 172.3 174.3 175.5 176.4 178.2 180.7 183.9 187.4 190.9 193.3 192.8 194.2 195.2 196.1 195.4 193 190.4 188.1 186.5 184.2 178.6 175.5 172.2 170.3 166.4 163.2 162.8 157.8 162.7 161.3 162.2 163 162.6 163.9 164 163.9 163.9 164.7 166.3 166.5 168.4 168.7 169 167.9 166.6 165.3 162.3 165 165.2 161.5 159.6 161.6 162.9 162.9 163.9 165.7 168.7 170.7 175.1 180.7 186.2 190.4 195.8 200.2 202.9
43.7 45.3 45.4 46.4 50.4 56.7 62.2 64.9 65.1 65.7 66.5 67.3 69.4 70.2 71.4 71.6 73.7 76 75.9 76.5 80 81.8 83.8 86.6 89.4 91.1 90.4 87.7 87.3 89.8 92.4 93.3 93 92.2 88.8 79.4 64.3 62.9 62.5 60.5 69.4 79.5 86.9 89.6 92.1 93.5 95.7 97.4 96.9 95.3 96.8 95.1 96 97.7 99.8 102 104.5 104.8 106 113.3 120.7 126 130 136.1 139.4 142 143.9 146.1 149.9 150.6 150 149.4 149.8 150.4 150.2 151.6 151.2 147.6 144.2 141 141.6 146.4 149.1 150.3 151 150.6 150.2 150.3 150.3 148.7 146 136.4 120.9 137.3 143 143.7 144.3 144.2 143.1 144.4 144.4 145.8 147 147.3 148 148.8 148.2 147.8 145.6 144.8 146.3 146.8 144.1 133.3 129.2 139.4 148.9 152.2 154.3 157 158.8 162.2 165.7 168.6 170.6 172.2 173.3 173.4 173.9 174.3 173.3 172.7 173.3 173.6 174.6 174.9 176.3 175.8 178.2 180.7 183.4 186.9 189.9 193.2 195.5 196.8 197.7 198.4 199.1 200.6 199.8 197.7 194 191 188.4 183.1 177.9 175.6 171.8 168.7 166.1 164.2 164.7 164.8 161.7 164.5 165.1 164.5 165.8 167 166.5 167.3 169.4 170.4 172.9 174.6 175.5 176.1 173.8 171.9 170.8 169.3 168.9 168.8 170.3 160.7 161.5 162.4 163 164.1 166 168.4 167.9 172.3 177.5 183.4 189.4 195.4 200.2 204.1
43.6 45.6 43.8 44.8 49.2 53.9 59.2 63.4 64.7 65.1 64.1 65.3 67.7 68.8 69.9 70.1 71.3 74.3 75.7 75.8 79.7 81.4 83.1 85.1 88.3 89.7 89.8 88.8 87 88.7 91.4 92.6 92.7 91.8 88.6 78 62.3 62.2 62.1 61.8 68.5 76.7 86.7 88.5 91 93.4 95.4 97.1 96.6 95.5 96.6 96 96.7 98.7 101.2 103.3 104 104.2 104.9 110.9 118.8 125.1 130.9 136.6 139.4 141.2 142.1 144 147.7 150.3 150.3 149.3 150 151.1 151.1 151.1 149.8 147 142.3 140.8 144.3 148.9 150 150.8 151.4 151.1 151.7 151.7 151.1 149.8 140.4 128.5 139.9 143.3 144.3 145.2 146.2 146.7 146.6 146.9 147.9 149.1 149.6 150.4 150 150.4 150.3 149.8 149.2 147.3 148.3 149.4 149.8 141.7 130.2 134.8 149.1 154.8 156.7 158.7 160.8 164.3 167.9 170.5 171.8 173.5 174.2 174.5 174.9 174.6 173.9 174.1 174.5 175.7 176.1 177.6 177.7 179.2 180.8 182.5 185.5 188.9 192.5 194.6 197 199.5 201.1 201.4 203 204.9 205 202.9 199.4 195.6 192.8 187.5 182.5 178.4 175 170.4 168.6 164.2 167.7 166.8 165.7 167 167.7 167.9 168.1 169.7 169.4 171.3 173.2 175.6 179.2 182.6 185.9 187.3 186.5 181.7 179.2 176.6 174.2 172.9 173.3 172.3 165.9 167.9 169.5 169.5 165 166 166.7 169.1 174.7 180.2 184.8 192.8 199.1 204.4
42.7 42.7 43 44 48.4 52.7 57.9 62.1 63.8 64.2 62.8 63.4 66.2 67.8 68.6 68.4 69.4 72.5 74.4 73.6 79.5 81.1 82.1 83.9 86.6 88.6 88.5 86.5 84.9 87.5 90.1 92 92.7 92.4 89.7 75.3 61.8 62.2 61.3 62.3 72.6 79.7 85.8 87.9 90.1 92.2 93.9 95.3 95 94.8 97.1 98 98.4 99.8 103.3 102.7 102.2 102.3 103.9 109.7 116.6 123.6 131.8 137.1 139 139.2 140 141.7 145.1 149.3 149.8 150.6 150.8 151.6 151.4 150.8 149.2 143.8 140.2 140.9 147.2 150 150.4 150.8 152.5 152.8 153.7 153.5 151.9 147.3 135.1 138.3 145.6 146.3 146.9 147.5 148.6 149.3 149.5 148.8 150.8 151.5 152 152.5 153.4 153.3 152.4 151.6 151.8 150.7 151.3 151.4 152.2 150.1 141.5 131.2 145.4 155 159 160.6 162.9 166.3 169.2 171.7 172.8 173.4 174.1 174.1 174 173.3 174.7 175.1 175.6 176.6 177.6 178.2 179.3 180.5 182.1 184.4 187.3 191.4 194.2 196.8 198.6 200.8 203.4 205.7 207.6 209.7 210.2 207.9 203.4 199.7 195.9 191.1 185.8 181.9 177.2 172.5 168.3 170.7 170.6 169.2 168.9 169.6 170.5 171.4 171.5 172.9 171.3 174.5 176.9 180.6 184.2 188.3 193.4 194.8 194.1 193.7 190.7 185.3 181.2 176.6 177.8 177.5 176.6 177.1 175.9 173.5 172.6 171.2 169.6 169.8 170.6 175.1 180.7 187.8 196.5 203.8
41.3 41.6 42.4 44.1 46.9 52.7 57.1 62.1 63.6 63.8 63.2 62.3 64.7 66.4 67.4 67.4 67.9 70.3 72 73.4 77.4 80.4 81.5 82.4 84.6 86.4 87.7 86.3 84.3 86.3 88.8 91.1 92.4 92.2 84.7 64.1 61.1 59.1 61.6 66.3 76.5 81.7 85.5 87.1 88.7 90.2 92.1 93.2 93.3 95.1 98.6 99.3 99.7 100.7 103 101.3 100.9 101.2 103.1 109 114.5 121.1 131.8 137 138 137.3 137.8 140 143.6 148.9 149.1 150.6 151.2 151.5 151.1 150.7 148.9 142.8 139.3 140.2 146.6 148.8 150.2 152.2 153.7 154.8 154.8 153.7 151.5 141.1 132.8 147.4 148 147.9 148.8 149 150.1 151 151.5 150.9 152.3 153.2 153.6 154.4 155.2 155.8 154.6 154 153.7 152.8 154.2 154.6 154.2 155.4 152.2 150.4 145.3 141.2 156.1 162.4 165 168.2 170.6 172.7 173.2 173.1 173.1 173.2 172.6 173.7 173.8 174.9 175.7 176.7 177.6 178.9 180 181.8 184 186.7 190.3 193.6 196.3 199.3 201.4 202.9 205.6 209.1 212.1 214.3 213.8 211.1 206.6 203.1 198.5 193.7 189.4 186 180.5 175.4 173.7 173.8 172.8 171.2 171.1 171.5 173.9 175 175.6 175.9 175.8 177.8 179.4 182.9 188.7 193.4 198.6 201 201.3 198.7 195.3 191.3 186.3 181.7 181.7 183.2 185.5 187.5 187.7 185 178.9 176.4 175.6 171.6 171.3 172.9 176.3 182.2 191.8 201.2
41.5 42.6 43.3 45 47 51.2 56.5 62.4 65 66.7 63.5 61.8 62.9 64.3 64.8 65.8 66.8 69.5 71.8 70.2 75.7 78.9 80.1 81.1 83.1 84.7 85.8 86 83.4 85 87.5 90.1 91.9 91.6 74.1 61 58.9 61 60.7 63.8 72.5 80.6 85.5 86.6 88.3 88.9 90.6 92.4 93 97.5 100 97.4 97.4 97.4 99.4 98.5 99.9 101.5 103.4 108.4 113.2 120 129.1 135.3 136.6 135.7 135.9 138.4 142.9 148.3 148.7 149.3 149.7 150.2 150.6 150.1 148.9 145 139.1 140 146.1 148.5 150.1 152.5 154.4 156.1 155.5 154.1 149.3 135.2 148.6 149.7 149.9 149.7 149.8 150.9 151.7 152.5 152.8 152.9 153.8 154.5 154.6 156.1 156.2 157.9 157.5 157.4 157.5 155.7 156.8 157.5 157.4 157.7 158.5 158.7 158.8 157.4 139.8 159.2 166.9 169.4 171.3 172.8 172.7 172.1 172.4 171.5 172.5 172.4 173.4 174.4 175.1 176.1 177.8 179 180.8 182.8 185.7 189.7 193.1 196.9 200.9 203.8 205.9 208.2 210.8 213.4 216.5 218 216.8 214.4 209.3 205.6 200.9 196.8 193.2 189.3 183.7 175.2 178.1 176.3 175.6 173.3 174 175 177.2 178.4 180 178.7 179.2 179.4 182 186.2 189.6 194.6 198.3 201.2 202.7 201 196.9 194 188.8 187.4 187.3 187.3 189.1 191.8 193.2 193.6 188.7 183.7 180.6 178.1 174.8 173.8 175 177.4 184.2 193.2
44.7 45.7 46.8 47.8 49.7 51.2 57.2 62.2 63.6 63.7 61 60.6 61.5 62.2 61.9 63.1 65.8 68.1 69.2 68.5 73.5 77.7 79.3 79.9 81.5 83 84.7 85.2 82.6 83.7 86.2 88.9 90.1 89.9 67 60.7 58.4 60.7 62.2 62.5 66 77.6 85.3 85.7 87.7 88 89.3 91.8 92.6 96.1 97 95.5 95 95.7 96.7 97.3 99.5 101.6 103.6 107.7 112.5 118.5 126.3 134.4 135.1 134.3 134.9 137.4 141.3 146.5 148.4 148.5 148.7 148.1 148.5 148.3 147.8 147.6 142.8 140.6 146.8 148.7 150.1 153.1 155.2 156.9 156 153.4 142.3 140.5 148.1 151.5 151.4 151.3 151.9 152.1 151.8 152.4 153.9 154.2 154.4 155.5 155.8 156.9 158.7 159.2 159.2 159.3 159.4 158.1 159.3 160.1 160.4 160.6 161.2 163.1 162.9 162.2 162.7 140.2 165.2 169.4 170.8 171.7 171.5 171 170.5 170.7 171.1 171.1 172.4 173.1 174.4 176 177.8 179.8 182.2 184.6 188 192.9 197 200.9 204.5 207.1 210.7 213.7 215.5 218.7 220.3 220.2 219.3 216.3 212.6 206.4 202.1 198.2 194.4 185.1 185 184.4 182.7 179.4 178.7 176.4 176.3 177.9 180 181.6 183.5 184.3 181.8 182.8 183.5 187.9 192.2 195.9 198.3 201.7 203.3 201.8 198.6 195.1 193.6 193.1 191.8 191.4 193 195.3 197.4 197.9 195.8 190.5 186.2 183.1 179.9 174.3 174.9 176.6 179.2 187.2
46.1 46.8 47.6 49.1 50.6 50.9 57.2 59.5 63.5 62 60.3 60.5 62.6 63.7 62.1 61.1 61.7 66 68.3 65.3 72.7 76.2 78.2 78.7 79.6 81.7 83.5 83.7 82 82.1 84.5 86.9 88.1 80.3 61.2 60.6 60.2 58.3 61.9 61.9 62.8 72 82.4 85 86.8 87 88.1 90.2 91.5 95.4 95.8 94.7 94.5 94.7 95.9 97.3 99.4 101.6 103.9 107.3 112 117.7 124.5 130.8 132.8 132.7 134.7 137.8 140 144.9 147.7 147.1 147.1 146.2 146.7 146.3 147.5 147.2 143.1 138.4 146.6 149 151.6 153.7 156.3 157.3 155.8 149.8 136.7 148.2 152.3 152.9 152.9 153.2 153.4 154.4 155.2 155.4 156.6 156.5 156.1 157 157.8 158.3 159.8 160.7 160.7 161.6 160.7 160.6 161.1 161.5 162.8 163 164.5 165.3 164.1 165.4 166.6 165.3 146.7 150.7 159.1 166.9 167.7 169.2 169.4 169.3 169.3 170 170.9 172.2 173.7 175.5 177.7 180 182.6 185.7 190.5 194.9 200.1 203.5 206.9 210 213.6 215.4 219.2 221.8 222.6 221.6 221.4 218.7 213.9 207.9 203.1 199 192.2 189 190 189.3 187 183.7 181.4 180.7 179.9 180.5 182.7 184.7 186.6 188.6 189.2 189 189.7 190.1 194.8 198.3 201.7 204.3 205.4 204.2 202.1 201.3 199.8 198 197 197.1 198.7 200.1 200.1 199.2 197.9 194.7 190.3 185.8 182 178.8 175.4 177 178.6 181.5
46.2 47.4 49.3 50.4 51.5 52.6 57.6 60.2 62 59.9 59.6 60.5 61.9 64.4 63.9 62.1 60 62.7 65.3 65.9 70.8 74.9 76.9 77.6 78.4 80.3 82 82.3 81 81 82.4 84.6 85.3 65.5 59.4 59.7 59.8 59 57.5 61.5 62.5 71.5 79.8 83.3 85.6 85.9 86.3 88.5 91 94.5 95.1 95 94.1 94 94.6 97 99 101.4 103.9 107.4 110.8 115.7 121.3 127.5 130.1 130.2 132.4 135.5 140 144.8 146.5 146.3 145.2 143.5 144 144.4 145.6 145.5 140.6 137.3 146.2 149.7 152.2 154.8 156.9 157 152.7 141.2 146 150.1 153.1 153.9 154.4 154.5 155 156.3 157.1 157.5 158.1 158.1 157.9 158.4 159 159.9 160.8 161.7 162.4 162.9 162.6 162.6 162.9 164 164.8 165.6 165.5 166.5 166.7 167.1 168.4 168.8 167.2 157.1 145.8 149.2 158.1 160.2 167.3 167.8 167.8 168.4 169.3 171.1 173 175.3 177.5 180.4 183.1 186.7 192.2 196.8 202 206.2 209.8 212.5 215.8 218.7 222.6 223.9 223.7 223.1 223.3 220.2 215.5 209.4 205.3 198.8 196.7 195.2 196.2 195.1 194.1 189.8 189.5 189.4 188.1 186.7 187.3 190.6 192 193.1 196.5 193.9 194.4 195.4 194.5 200.6 204.9 207.3 207.9 207.7 206.8 205.4 205.3 204 202.8 202.2 204.3 204.7 203.2 200.2 198.3 195.8 191.6 186.2 183.2 180.8 179.8 177.2 178 180.9
45.6 47.4 49.2 50.5 52.4 53.1 55 58.8 59.6 59.7 59.1 59.9 60.6 63.2 63.5 61.8 59.3 60.9 62.9 62.1 69.1 73.4 75.6 76.5 77.8 79.4 80.5 80.8 80.5 79.3 80.2 82.3 82.7 63.5 59.5 59.4 58.9 58.7 58.2 60.4 61 70 79.8 82.3 83.6 84.8 84.4 87.6 91.1 91.4 94 93.6 93.2 93.4 94.2 95.6 98.2 100.6 103.4 106.2 108.9 113.1 118.1 123.4 127.1 129.1 131.6 135.1 139.9 144.4 145.1 143.3 142 139.6 139.4 140.9 142.9 141.8 135 142.1 147.4 150.3 153 155.4 156.9 155.5 145.4 146.6 152.3 152.9 153.6 154.4 155.5 155.8 156.5 157.8 158.6 159.1 159.7 159.9 160 160.4 161.3 162.2 162.8 163.8 164.4 165.3 164.7 164.4 165.3 165.9 166.4 167.3 166.8 167.4 168 168 169 169.4 169 165.3 159.7 147.2 149.3 154.1 159.8 163.1 164.7 166.7 166.5 171.2 173.5 175.7 177.7 180.6 184 188 193.6 198.2 204.1 208.6 212.6 215 219.5 221.5 223.9 225 225 224.9 225.7 222.4 218.2 211.8 204.6 203.8 202.4 201.1 201.4 200.8 201.5 199.5 197.9 202.6 206.2 207.1 205.3 200 201.4 201 202.2 203.7 202.8 201.6 202 204.8 207.9 211.3 211.6 211.8 211.3 210.6 211 213.1 216.7 213.5 211.9 210.7 207.9 205.3 201.3 197.4 193.1 190.5 186 184.6 182.8 180.4 179.1 181.5
45.1 47 48.8 51.2 51.1 52 52.6 57.4 58.9 59.4 58.2 57 57.7 60.4 61.6 61.2 58.6 59.4 59.8 60.7 65.9 70.2 73.9 75.1 76.4 78.2 78.8 80 79.8 78.6 78.1 79.9 79.9 75 59 59.2 58.3 57.7 56.6 58.8 61.3 70 78 81.5 82.3 82.2 83.2 86.8 89.5 90.9 93 93.6 91.3 92.3 92.5 94 96.7 99.8 102.4 105 107.5 110.7 115.3 119.3 124.3 127.4 130 133.9 139.6 143.6 141.8 138.7 137.4 136 130.2 131.9 135.9 135.4 132.7 144.1 148.1 151 153.5 155.4 156.1 150.9 144.2 154.4 154.9 155.2 155.3 156 156.7 157 156 158.6 159.9 161 161.7 162.1 162.7 163 163.6 164.8 164.9 165.6 166.3 167.1 166.5 166.7 167.2 167.8 168.1 168.2 168.7 168.5 168.3 169.3 169.7 169.7 169.4 168.4 166.2 159.1 153 149.5 155.1 153.8 155.5 157.9 167.4 171.1 173.4 175.8 178.7 182.5 185.6 190.7 195.7 201.8 206.8 211.6 215 218.8 221.1 223.5 225.4 226.4 227.4 228.2 228.6 225.1 221.2 215.4 208.2 209.5 207.9 207.5 207 208.1 207.6 208.9 203.8 213.6 219 222.2 219.3 215.5 214.3 214.1 212.1 212 213.7 210.6 208.4 211.7 213 215 216.7 217 216.9 218.4 223.1 226 227.7 225.3 219.8 216 213.9 210.1 204.6 200.6 197.1 193 191.7 190.3 186.9 184.7 183.7 180.8
43.3 49.8 51.6 51 50.4 50.4 52 56.3 58 58.9 58.8 57.3 57.3 57.2 59.3 58.5 57.9 58.5 59.1 59.8 65.3 71 73.7 74.3 75.8 76.2 77.9 78.9 78.3 78.1 76.9 78.1 77.5 74.7 62 58.8 55 57.5 58.2 58.1 60.9 71.2 77 78.2 78.7 79.8 81.4 84.9 88.7 89.3 90.3 89.1 89.9 90.8 91.9 93.7 95.8 98.1 100.8 103.3 105.5 108.3 112.3 116.5 122.1 125.3 127.4 132.4 137.4 139.4 137.2 134.5 131.9 130.8 125.9 126.4 127.5 131.1 140.9 145.5 148.9 151.3 153.6 155.2 155.2 150.3 146.9 155.2 156.4 157.4 157.9 157.7 157.7 158.5 159.1 160.1 161.6 162.7 163.8 164.9 165.4 165.5 166.3 167.5 167.9 167.5 168.3 169.2 168.3 169.1 169.2 169.7 170.3 169.9 170.3 169.7 169.8 170.2 170.1 169.9 169.1 168.3 167.4 165.6 151.5 155.7 162.5 164.9 165 167.1 169.4 167.4 173.7 177 180 183 187.3 191.9 197.5 204.7 209.5 214.5 218.1 221.5 223.7 226.5 228.5 229.6 230.6 231.7 231.2 226.5 222.6 214.5 219.3 216.8 214.4 213.3 213.1 215 216 217.4 218.5 213.7 225.6 228.5 229.5 230.3 228.6 225.1 224.4 223.3 221.2 221.1 212.8 216.9 221 222 222.6 224 227.9 233.3 237.3 240.8 238.9 236.6 226.9 222 219.6 217.4 210.1 207.1 205.6 200.3 200 198.6 196 192.2 188.9 187.4
41.4 49 49.6 51.1 51.2 50.6 51.8 56 58.3 58.8 58.6 57.7 57.1 56.7 57.3 56.8 57.6 58.2 59.1 59.7 65.8 70.4 72.6 73.9 75 76.1 76.7 77.4 77.6 75.6 74.7 75.9 75.1 72.5 61.7 57 58.2 57.8 57.8 57.6 60.3 70.8 75.1 74.9 74.8 77 79.2 82.8 84.8 84.7 84.1 88.8 93.8 93.1 92.2 93.9 95.9 97.5 99.7 102.1 103.8 107.3 110.4 114.8 119.6 122.8 125.1 129.4 133.9 135.4 132.9 130.7 127.8 123.5 124 133.4 139 140.8 142.8 146.4 149.6 151.8 153.8 155.6 154.1 150.9 151.8 155.5 157.4 158.7 159 158.9 159.2 160 161 161.5 163.6 165.5 166.4 166.1 168.2 168.4 169 170.7 171.3 171.6 171.4 171.5 170.9 170.4 171.3 172 171.9 171.5 172.7 171.4 170.8 170.4 170.9 170.1 169.3 168.2 166.9 164.6 151.2 157.3 164.1 166.6 167.4 168.4 171 173.2 173.2 177.6 180.9 184.3 189 194.3 201.6 206.6 212.6 216.8 221 224.4 226.8 230 232.2 233.2 233.8 233.8 231.7 227 221.5 225.7 226 225.8 221.8 221.9 222.5 223.5 225.1 226 226.4 225.1 228.7 232.8 236.2 238.3 240.3 240.5 236.7 231.3 229 226.2 223.4 225 229 229.9 233.8 239.2 242.6 245.9 251.2 251.8 249.8 247.3 238.6 235.6 231.5 229.1 228.2 224 222.3 217.5 210.6 207 204.2 200.2 195.2 193.3
44.2 48.7 49.7 50.8 50.7 50.9 52.2 55.1 57.2 57.5 58.3 57.6 56.4 53.9 57 56.6 56.6 58.6 58.2 57.7 64.5 69.2 72 73.2 74.2 74.8 75.2 75.5 74.8 73.7 71.6 72.7 72.1 69.5 58.3 57 57.4 57.2 57.2 56.9 59 67.3 70.2 69.6 73.2 74.7 75.9 79.3 81.9 84.1 86.4 89.6 92.3 94.2 92.9 94.9 96.6 97.9 99.2 101 102.9 106.2 109.3 113.4 117 119.4 122.9 125.8 129.6 130.5 129.6 127.7 123.9 121.6 129.9 137.9 140.6 142.2 143 146.3 149.9 152.6 154.3 155.6 154.2 152.9 145.7 155.5 157.6 159.3 160.1 158.6 160.4 160.9 161.6 163.2 165 166.6 167.8 169.5 170.6 171.5 172.8 172.8 173.7 174.5 173.7 173.2 173.3 172.8 173.1 173.7 171.8 173.9 174 172.8 172.3 171.5 171.2 170.5 169.4 167.9 165.8 156.1 153.9 162.3 165.2 167.6 169.7 171.2 172.8 175.5 177.3 180.1 182.2 186.6 191.8 197.7 202.4 208.9 213.5 220.6 225.4 226.5 228.8 232.7 235.2 236.2 235.7 234.5 230.8 226.9 229.4 230.8 232.9 233.3 231.2 231.9 233.9 235.6 235.8 234.3 234.5 232.9 233.5 238.4 243.8 246.5 249.5 248.8 245 242.1 237.7 235 233.5 239.3 249.8 251.8 245.7 258.1 260.1 266.8 269.6 267.4 259.7 258.6 256.7 251.3 248.9 246.8 242.7 238.4 235 225.3 220.2 216 210.1 206.4 201.9 199.1
47.4 48.4 49.1 49.5 50.1 51.5 52.5 54.5 57.5 57.5 56.2 56.9 57.6 53.9 56.5 55.6 55.8 56.2 58 57.3 63.6 68.2 70.8 72.4 73.5 73.7 73.8 73.2 71.1 71.3 67.8 68.5 67.7 65.2 53.9 56.7 56.5 56.9 57.1 57 59.4 63.8 67 71.9 74.6 78 80.5 83 84.9 85.8 86.9 88.2 90.7 94.2 93.8 94.8 96.5 97.9 98.5 100.1 102.5 105.3 108.6 112.1 114.9 116.6 119.6 122.1 124.4 124.2 124.8 124.1 120.9 122 134.2 139.5 141.1 141.4 142.6 146.3 150.2 153 155.1 155.6 153.9 154.8 149.6 150 157 159.3 160.4 160.9 161.3 161.9 163.1 164.8 166.6 168.2 169.7 171.2 172.7 174.3 175.3 175.5 176.5 177 175.9 174.8 174.7 174.7 175.2 175 175.2 174.7 174.9 173.2 172.5 171.8 170.8 170 169.2 167.3 159.5 156.7 162.6 164.9 166.7 168.4 171.1 172.9 175.2 176.8 180.2 182.5 185.7 188.1 193.2 199.4 205 210.6 216.7 222.7 227 228.2 231.3 236.6 239 239.2 237.6 235.2 233.5 231.9 235.1 237.1 238.7 239.5 237.1 239.6 241.6 243.5 244.2 242.6 242.7 240.4 240.6 244.1 250.3 254.2 257 256.1 256 255.5 252.1 248.5 248.9 258.4 264.5 268.3 268.5 267.6 273.7 276.5 277.8 276.8 277.5 275.7 272.2 269.6 265 260.5 255.3 249.2 241.9 235.4 230.9 226.3 221.4 215.9 212.3 208.1
46.4 47.1 47.5 49.4 51.1 52.2 53.6 54.2 56 56.5 57.6 58.1 57.2 57 55.7 55 55.1 55.8 57.8 57.2 62.6 66.8 69.5 72 72.7 73 72.3 70.6 69.6 68.7 66.2 62.8 62.5 58.9 56.5 55.5 56 55.7 56.1 56.2 60.2 67.7 71.8 73.9 77.2 79.9 81.8 83.9 86 85.5 86.6 88.5 89.8 93.8 94.3 94.6 95.7 96.3 97.7 99.7 101.9 104.5 107.3 109.9 112.5 113.7 116 118.4 119.8 120.1 118.8 119.5 120.6 127.2 135 139.5 140.7 140.5 142.5 146.4 149.9 153.5 155.5 155.8 154.7 154.6 155.1 155.6 151.7 158.2 160.2 161.3 162.1 163.1 164.4 166.1 167.8 169.8 171.6 173.3 174.1 176.3 177.1 177.5 178.5 178.8 178 177.5 177.1 177.1 177 176.7 176.3 176.2 175.6 174.1 173.3 171.9 170.8 169.7 168.8 164.7 158.4 161.7 163.8 166.6 168.1 169.3 171.8 174.1 176.6 178.3 181.5 185.3 188.1 192.1 196.8 200.3 204.5 211.5 217.8 223.2 227.8 230.7 235.5 239.2 240.6 240.4 238.3 237.9 236.6 239.2 240.5 242.9 244.5 246 242.7 244.8 247 248.2 249.4 249.7 251.6 250.5 246.8 254 258.9 262.7 263.9 268.1 269.6 269.3 268.8 268.7 266.2 263.9 273.9 275.4 275.2 275.8 280.5 282.8 287.2 290.5 291.6 290.4 288.7 285.7 282.5 275.5 266.2 257.8 253.3 250.5 249.4 246.3 242.2 236.7 228.2 221.2
44.2 46.6 49.4 51.1 52.5 52.7 53.2 54.1 55.2 56.9 58.3 59.3 60.3 59.5 57.2 55.8 55.1 55.6 56.5 57.4 61.2 65.4 67.9 70 71.8 72 70.4 68 66.9 65.6 63.4 61.1 59.1 56.8 56.6 53.3 55.8 55.7 55.1 56.2 60.9 68.5 72.8 75.8 78.1 80.5 82.4 84.2 86 85.5 86.2 90 90.7 93.6 95.2 94.3 94.6 95.4 96.8 98.6 100.7 102.7 105 107.5 109.2 109.9 110.3 111.6 114 115.2 116.9 120.9 125.8 131.7 135.3 138.2 140 139.9 142.5 146.2 150.3 154.4 156.6 156.8 155.1 155.5 156.3 157 156.5 157.5 159.7 161.4 162.3 163.3 164.9 166.9 168.7 171.2 171.7 174.5 176.5 177.8 178 179 180.3 181.2 180.9 180.1 179.7 179.6 179.1 178.7 178.4 177.6 176.7 175 173.6 172.1 170.8 169.7 167.3 158.5 162.8 160.2 166.4 168.1 169.3 171.5 172.8 176 178.2 181 184.4 187.6 192 196.1 200.7 204.9 208.7 214.6 220.1 224.9 230.1 233.8 237.3 240.5 241 241.1 240.5 242.7 243.6 245.2 246.4 248.9 250.3 251 248.2 249 251.9 254.2 255.5 256.6 257.9 259.5 259.7 263.1 265.5 271.2 275.2 281.4 284.6 287.8 285.7 286.6 283.3 281.5 284.3 283.2 280.8 284.7 289 296.3 303.8 306.8 307.3 304.9 303.2 301.5 296.7 288 279 274.8 273 270.3 267.3 262.5 258.5 252.4 245.8 234.6
45.6 47.1 50.3 52.4 52.9 52.2 54.1 54.8 56.7 59 59.8 60.7 61.1 60.1 59.1 57.9 55.8 55.8 56.2 55.1 61.8 64.2 66.6 68.7 70.3 71 67.9 65.1 64.1 62.2 60.1 53.2 56.5 56.5 56.1 55.7 52.1 55.4 55.3 55.6 59.3 69.5 73.9 76.1 78.1 80.7 82.6 84.3 86.3 86.4 86.6 88.6 91.1 91.8 93.8 94.3 94.3 94.6 95.9 97.9 100.1 101.7 102.6 104.6 106.6 108.5 112.7 115.9 118.3 120.1 123.1 126.3 130.1 133.7 136.8 139.5 140.8 140 142.8 146.7 150.9 155.1 157.6 157.3 155.2 156.1 157.6 158.5 158.4 158.4 159.3 160.9 162.5 163.7 165.6 167.6 169.6 171.9 172.6 176.1 177.8 178.5 179 180.2 181.8 183.2 182.6 181.8 181.8 181.8 181 180 179.4 178.1 177.3 176.1 174 172.6 170.5 169.5 164.1 158.1 166.1 164 168.1 169.5 171.5 173.1 175.5 178.7 181.3 185.2 189 192.6 197.4 200.2 205.2 210.2 214.6 219.6 225.7 230 233.8 237.1 240.7 242.4 242.7 243.9 245.5 247.4 250.4 250.6 253.5 254.8 257.7 257.8 254.9 256.4 259.3 261.5 263.2 264.3 266.9 266.8 267.9 272.8 276 282.6 292.2 298.1 303.4 304.5 301.6 300.2 297.5 291.8 291.4 295.4 296 301.6 305.3 309 313.1 318.4 320.7 316.9 317.2 313.8 309.5 305.2 301.5 300.7 296.9 290.3 283.1 278.4 273.2 267 260 253.6
46.7 47.5 50.2 52.5 52.8 51.2 55.8 56.2 58.5 59.3 59.9 60.6 60.9 60 59 59.6 58.6 54.3 55.9 54.2 60.5 63.2 65.3 67.4 69.1 69.1 66.5 62.4 59.6 58.5 49.7 49.7 49.7 51.2 55.3 55 55.2 55.1 55.2 55.9 66 70 73.2 75.6 78 80 82.2 83.9 85.3 86.1 86.4 88.3 90.1 90.5 92.4 93.1 93.8 95.9 96.3 97.9 99.3 102.2 106.1 109.1 111 111.1 114.5 117.7 120.1 121.8 124.5 127.3 130.7 134 136.8 139.6 142 140 142.8 147.6 151.2 154.6 157.3 157 155.1 156.9 158.1 159.9 160.4 159.9 160.5 161.6 162.6 163.8 165.7 167.9 170.2 172.2 174.7 177.2 178.7 179.8 180.4 181.7 183.6 184.3 184.3 182.8 183.1 182.9 181.8 180.8 180 178.4 177.5 176.7 174.6 172.6 171.2 167.9 161.3 166.5 168.4 168.1 169.7 171.3 172.5 175.7 178.3 181.9 185.7 190 194.9 198.8 202.4 205.7 209.4 215 221.7 226.7 230.3 234.5 237.4 240.1 242.2 244.5 247.4 249 250.9 253.8 258.2 261.8 262.9 263.3 264.3 264.5 262.7 264.5 266.9 269.7 272.3 273.4 275.5 278.3 279.5 284.9 295.6 301.6 312 316.2 317.5 316.7 312.5 310.2 308.7 308.5 308.1 310.4 310.8 315.9 318.1 321.9 327.4 331.1 334 335.4 336.4 337.7 337.8 335.1 331.9 328.8 322.5 313.5 304 301.3 297 293.3 284.3 274.9
47.7 47.8 49.1 51.8 52.3 52 57 58.8 58.6 59.1 59.7 60.2 61.6 61.5 60.3 60.9 59.5 56.8 53.2 53.5 58 61.7 63.8 65.7 66.5 66.1 63.1 59.7 57.1 48.5 49.7 49.7 49.7 49.7 52.3 54.8 54.7 54.8 55 56.2 66 70 73.3 75.7 78.3 79.6 81.1 82.9 84 85 86.8 89.2 90.2 89.5 90.5 92 93.9 95.9 96.7 98.9 102.5 105 107.8 110.1 112.4 113.5 115.8 118.9 120.3 123.2 126.3 128.2 130.1 133 136.1 139.3 141.2 139.8 142.4 147.1 150.5 153.7 156.8 156 154.8 157.4 159.7 160.9 162.3 162.3 159.4 162.9 164.1 164.6 165.9 168.3 170.5 173 175.7 178.1 179.7 180.9 181.8 183.3 185.3 185.4 185.7 185 184.5 183.8 183 181.6 180.6 178.8 177.5 176.6 174.9 172.7 170.8 162.8 163.4 168.4 170.4 171.1 168.4 172.3 174.2 177 181.4 184.9 189.9 193.5 199.7 202.5 206.9 211 217.6 221.6 226.1 230.7 233.8 238 240.2 243.2 246.7 248.8 250.9 253.1 257.7 261.6 266.2 268 270.3 269.9 271.9 271.8 272.6 271.8 275.7 278.7 282.5 287.3 293 298.7 304.5 308.6 315.2 322.4 329.9 333.5 333.3 331.9 329.9 328.9 324.8 325.8 329.3 325.9 324.5 331.1 334.5 334.6 338.4 344.9 351.1 355 357.4 358.5 357.6 354 350.9 346.6 339 332 330.3 323.8 319.2 313.5 301.6 293.3
46.1 48.9 49.6 51.4 51.9 52.6 57.2 59.3 59.7 59.7 60 61.3 62.4 62.4 62.5 61.9 60.9 60 58.6 53.7 52.7 58.9 62.7 63.8 63.9 62.6 60.4 56.8 48.4 51 49.7 49.7 49.7 49.7 49.7 49.7 54.5 54.1 51.2 58.1 65.5 69.9 73.1 75.8 78 79.3 80.1 81.6 83.2 85.4 88 88.3 86.9 90.5 91.8 92 93.6 96.2 98.3 100.4 103.4 105.9 108 110.7 113 114.9 117.9 121 122.7 123.7 127.1 128.8 129.3 131.4 134.2 137 138.4 138.5 143.8 147.7 150.1 153.7 156.2 154.7 155.6 157.5 160.2 162 163.1 164 163.4 164 165.8 166.2 166.8 169.5 171.4 173.4 176.4 178.3 180.9 181.2 183.5 184.8 186.2 186.8 186.1 185.6 184.8 184.2 183.4 182.1 181 179.2 177.5 176 174.9 172.5 166.2 163.2 166 170 172.3 173.3 173.6 175 177 180.4 186.9 189.5 194.6 199.1 202.5 205.3 210.9 217.5 223.9 227.6 231 234.7 238.2 241.2 244.7 249.3 252.3 253.6 255.5 259.2 265.1 271.3 273.4 274.3 278.3 279.9 279.1 280.8 283.8 284.2 288.2 291.3 300.8 308.4 315.7 321.3 327.6 330.4 334 339.2 345.1 348.1 348.7 351.1 350.6 351.5 349.8 347.7 347.6 341.3 336.1 343.1 346 344.7 349.3 356.7 363.4 367.9 368.8 369 367 364.8 364.4 361.9 359 354.5 349.6 343.9 335.7 326.2 313.4 300.7
48.8 50.3 50.7 52.3 51.5 52.5 56.8 59.1 60 60.2 60.2 60.9 62.1 61.3 64 63.3 62.7 61.5 60.5 56.7 51.9 55 59.6 61.2 61.2 59.9 57.4 49.4 48.2 48.2 48.2 49.7 49.7 49.7 49.7 49.7 53.6 53.7 53.5 62.8 65.6 68.6 72.4 74.9 77 79.2 79.9 80.6 82.6 85.2 87.5 83.9 87.9 91.1 92.3 92.6 93.2 95.1 97.6 99.9 103.4 105.8 108.5 110.8 112.6 116.3 120.6 123 124.9 126.1 127.1 127.6 129.3 130.8 132.5 135.6 137.1 140.6 145.7 147.8 149.8 153.5 154.7 153.2 156.8 158.7 160.9 162.4 164.5 165.2 165.1 164.6 167.3 168.4 169.2 170.3 172.5 174.5 176.9 179.5 181.6 183.2 184.3 186.2 187.5 187.7 187 186.1 185.9 184.7 183.1 182.2 180.9 179.4 177.6 175.8 174 171.1 165.4 169 168.6 170.6 173.2 175.2 176.7 177.9 180 184.8 189.3 194.6 198.7 202.3 205.4 210 217.4 222.9 228.3 232.1 235.3 238.8 242.4 245.4 248.6 252.3 255.1 257 262.7 269.7 274.4 278.1 281.8 283.6 285.2 288.3 290.4 294.4 298.4 300.1 305.3 314.4 321.9 330.2 338.6 344.2 348.9 350.8 353.7 358.1 361.5 363.4 368 369.3 370.7 370.9 371.1 369.7 367.1 361.4 349.6 352.5 353.4 357 362.6 372.2 378.6 381 383 383 382 381.6 379.5 376.9 373 368.2 362.6 353.1 342.7 330.7 317.3 304.8
51.1 52.3 51.2 53.7 54.5 54.6 55.5 57.6 58 59 60.2 61.6 62.4 64 66 65.4 65.1 63.8 62.4 60.6 55.5 51 57.3 59.2 58.9 57.7 52.3 48.2 48.2 48.2 48.2 49.7 49.7 49.7 50.5 50.7 51.1 53.9 53.7 62.3 65 68 71.1 73.4 75.6 77.7 78.9 79.8 79.5 80.2 86.6 86.6 88.2 89.6 91 92.5 92.7 94.6 98.8 101.6 104 106.5 109.1 110.8 113.8 118.3 121.8 124.2 125.9 126.7 126.3 128.6 132.3 135 135.6 136.6 139 142.9 146.1 147.6 150.1 153.7 152.8 154 156.7 159.3 161.1 163.4 164.1 166.2 167.2 166.3 168.1 170.1 171.2 171.8 173.7 175.6 177.7 179.8 182.6 184.1 185.3 187.1 188.8 188.5 187.4 187.1 186.4 185.4 184.1 183.4 181.5 179.8 177.8 175.8 173.8 169.8 170.6 170.5 170.7 172.7 173.2 176.3 179.4 181.3 179.5 188.1 193.7 198.4 202 206.4 210.3 215.5 220.4 227.2 233.5 237.2 240.7 244.1 247.7 250.2 254.3 258.2 261.5 265.7 271.7 276.7 281.7 286.6 290.7 294.5 298.4 302.1 306.8 314.3 320.8 323.9 323.2 334.7 341.9 352.1 358.9 362.5 368.6 371.2 374.6 378.7 378.2 380.4 384.1 385.5 386.8 389.3 389.3 389.5 384.8 378.4 375.3 368 368.9 377.4 382.6 388.4 392 394 394.6 394.3 393.6 392.1 388.8 384.3 381.9 376 369.3 358.7 343.6 330.1 319.7 309.3
52.5 52.8 52.8 52.3 55.5 55.9 55.5 56.4 57 58.8 59.7 61.2 62.5 64.6 67.1 68.4 67.1 65.4 64.4 63.1 61.1 53.1 53.4 56.8 56.9 55 52.3 50.9 50.1 48.8 50.3 51.3 50.8 51.9 51.5 49.4 53.6 52.5 53.9 61 63.6 66.4 68.9 72.1 74.3 76.4 76.5 76.3 80.4 85.1 88.3 87.7 88 89.3 91.2 92.3 92 95.4 99.7 102.8 105.3 106.9 110.3 110.6 115.9 119.2 122.1 124.5 125.2 124.2 127.5 130.9 133.4 136 136.8 137.5 140 142.9 145.7 147.1 149.8 152.6 151.6 154 156.3 158.6 161.3 162.8 164.9 167.5 168.9 169 168.4 170.6 172.6 173.6 174.7 176.4 178.6 180.8 183.3 185.1 186.9 188.5 190 189.7 188.2 188 187.7 186.2 185.4 184.1 182.1 180.1 178 175.7 172.5 170.2 173 172.8 173 175.3 176.8 178.4 179.5 182.9 185.2 189.9 195.6 200.7 206 210.1 213.8 217.9 224.9 232.2 237.7 241.8 246 249.8 252.3 256.1 260.1 265.5 269.5 273.3 280 285.8 292.2 299.8 304.7 310 313.7 318 324.1 333.4 339.8 344.8 348.9 351 360.7 368.6 374.6 382 386.1 387.7 389.6 392.9 392.4 394.7 396.5 399 402.3 404.9 403.7 405.3 402.3 396.5 396.2 393.4 394.9 396.4 398.7 403.6 407.5 405.9 405.7 404.6 401.5 399 395.4 391.8 388.3 382 374 362.8 344.6 329.3 320.8 306.6
52.5 52.9 52.5 53.1 52.5 57.1 56.3 56.5 57.5 59 59.3 61.2 62.9 65.6 67.5 70.3 70.8 68 65.7 64.3 63.4 57.4 51.9 53.1 54.2 52.8 49.9 49.7 48.8 50 49.2 49 49 49 52.3 51 51 51 53.4 55.9 61.3 64.6 67.2 70.8 72.9 74.6 74.2 77.6 81.7 86.3 87.9 87.9 88.8 89.1 91.3 92.1 91.3 94.6 95.4 102.3 104.7 108.2 109.5 112.9 115.4 121.1 121.1 121.1 119.8 121.4 127.9 131.7 133.4 133.9 137.1 139.2 140.1 142.9 144.1 146.5 148.3 150.5 150.6 154.4 157.1 159 161.3 163.3 164.7 167.1 169.8 170.4 170.4 170.6 173.1 175 176.2 177 179.4 182 184.2 186.1 188.3 189.5 191.1 190.9 189.4 189 188.7 188.1 186.5 184.9 183 181.2 178.7 175.6 171.7 175.4 175.3 175.4 175.5 178.8 180.7 181.8 183.2 185.3 187.7 190.6 194.7 202.3 207.1 213.2 215.2 222.4 229.7 234.7 240.9 247.8 251 254.7 257.9 263.8 268.9 273.9 278.7 282.9 289.1 298.2 307.4 317.4 324.9 328.3 333.8 340.5 345 352.6 358.4 363.9 366.7 371.4 378.9 384.7 388.7 393.7 398.6 402.4 403.7 406.9 408.8 412 412.7 415.5 414.9 415.8 416.1 416.1 413 409.7 408.5 408.4 408.8 410.3 413.6 416.9 417.3 416.8 415.1 412.1 408 404.5 400.3 397.3 392.1 385.8 376.3 363.8 346.1 329 318.4 299.4
52.7 52.7 53.2 53.7 53.3 54 56.7 57.3 57.6 58.5 59.1 60.7 62.6 65.3 67.7 69.1 71.3 70.1 66.9 64.6 61.7 56.8 50.9 51.2 51.9 50.6 42.8 48 48.7 49.2 48.6 49.9 49.9 49.9 51 51 51 51 53 58.8 58.9 61.5 64.2 66.2 70 71.5 75 77.2 80.3 84.5 86.6 87.8 88.4 89.9 91.3 92.4 90.6 94.1 97.1 100 105.2 106.7 109.4 113.7 115.9 117.7 118.3 112.3 119.9 121.7 121.4 127.4 130.8 133.2 137.2 139.6 141.8 143.9 144.6 146.4 147.6 149.6 151.6 154.7 157.4 160 162 163.4 165.8 167.2 170.1 171.7 172.2 172.5 173 175.6 177.6 178.9 180.4 183 185.4 187.4 189.4 190.6 192.6 192.5 191.2 190.3 190.1 189.6 187.5 186.2 184.1 181.8 179.9 173 177.1 177.6 177.2 177.3 179.9 182.2 184.7 186.3 187.8 190.1 192.2 194.7 193.2 202.8 209.2 214.8 222.3 229.6 236.1 244.1 250.6 254.8 259 262.7 266.1 274.8 280.8 283.7 287.2 293.9 299.6 311.3 322.6 335.7 344.1 348.8 352.9 358.8 365.2 373.5 378.8 381.2 382.5 388.1 394.3 400.5 403.5 408.9 413.8 416.9 417.5 419.9 421.4 424.2 424.8 427.3 426.5 425.3 425.6 424.8 422 419.8 420.1 419 421.5 424 425.1 426.6 425.7 425 423.1 418.4 413.8 408.6 404.5 399.8 395.5 389.7 381.3 365.9 347.3 329.8 311.2 290.6
53.5 53.1 53.3 53.8 55.4 53.1 55.8 57.4 57.5 58 57.9 59.9 62.4 64.3 66.4 67.5 69.8 70 67 64 58.7 54.1 50.7 51 48.3 46.9 42.8 48.5 47.3 49 48.7 49.9 49.9 49.9 51 51 51 51 53 55.8 61.3 67.3 68.4 69.8 71.4 73.7 75.1 77.5 80 82.7 87 87.7 88.6 89.5 91 91.1 89.2 91.6 95.1 99 103.5 103.7 109.8 114.8 111.8 104.5 108.1 117 123.2 127 129.1 127.7 126.2 131.7 135.5 138.3 141.3 144.9 146.9 147.6 148.9 149.4 151.5 154.2 157.3 160 162.8 164.9 166.9 168.8 170.7 173.3 174.2 174.3 174.4 175.9 178.2 180 181.3 184.1 186.9 189 191 192.9 193.8 194.3 193.2 192.8 191.9 191.1 189.3 187.5 185.6 183.7 180.8 176.4 179.4 179.5 179.6 180.3 184 187.1 188.9 191.1 193 194.3 197 199.6 202.1 207.4 215.3 223.5 230.7 237.9 245.9 255 259.8 264.6 269.6 274.8 281.8 288.2 291.9 299.5 307.3 313.9 321.3 333.6 339.8 348.2 358.6 366.6 367.5 374.4 384.5 390.2 395.8 398.3 401.7 404.2 407.9 414.7 419.7 425.2 428 429.9 431.2 431 432.2 433.5 435.4 436 436.1 435.7 434.5 432.3 429.4 428 427.3 429.6 433.4 433.6 434.3 434.7 432.8 432 428 423.9 417.8 412.1 406.1 401 395.2 389.2 381.4 363.9 342.9 322.4 303.7 285.8
54.8 53.3 53.1 53.8 55.1 56.3 52.9 55.4 57.8 56.3 57.3 58.9 61 63.2 64.6 66.6 68 67.9 66.2 61.8 55.6 50.2 49.9 48.8 46.4 42.8 42.8 48.6 50.7 47.3 48.7 51.3 49.9 49.9 52.3 51 51 52.3 52.4 52.4 61.5 65.7 68.3 69.7 71.1 73.2 75.2 78.9 81.5 82 84.8 86.9 88.5 87.7 90.6 90.5 88.1 91.2 92.6 97.8 99.6 102.6 107.3 111.2 100.9 114.5 113.4 121.5 125.1 128.2 131.3 132.6 132.3 133.6 135.3 136.9 139.2 141.8 144.1 146.9 148.3 150.8 153.1 155.5 157.3 160.5 163.5 166 168.8 170.9 172.6 174.9 175.5 175.9 176.7 176 179 180.9 183.3 185.9 188.3 191.4 193.4 196.3 196.9 196.4 195.1 194.2 193.7 192.6 191.2 189.8 187.5 185.2 182.9 178.3 182 181.7 182.2 185.6 189.4 192.1 193.7 195.6 199 202.4 206.8 211.5 213.2 210.2 221.6 230.6 239 247 254.4 261.9 268.1 273.8 277.2 287 295.9 304 310.3 318.4 327.1 336.6 342.9 348.6 353.6 361.1 368.5 375.8 381.3 388.9 399.4 404.9 409.1 411.5 415.5 419.8 422.8 427.8 432.8 437.2 441.9 443.5 443 442.6 440.3 440.5 442.3 442.5 443.3 442.3 441.9 440.8 437.3 435.2 436.5 440.2 441.8 441.9 441.2 440.1 438.1 436.9 432.6 429 422.4 412.5 406.1 401 394.3 381.5 368.8 354.4 333.5 314.1 299 288.5
54.4 52.8 52.6 54.4 55.2 55.9 56.6 52.2 53.3 56.7 56.9 58.4 60 61.3 63.2 64.6 65.3 64.6 62.6 57.7 51 48.9 49.1 46.7 42.8 42.8 42.8 43.3 48.7 47.2 45.6 48.7 49.9 49.9 49.9 51 51.5 51.7 52.6 56 60.5 64.6 67.5 69 70.3 72.6 74.7 81.4 81.2 81 82.8 85.7 88 88.6 89.4 84.9 86.1 85.3 90.6 89.3 92.7 97.4 98.9 96.3 111 117.5 113.8 124 128.1 129.7 132.7 135.5 136.4 138.8 140.2 141.9 145.2 147.3 149.4 151 150.6 152.1 154.9 157.7 160 161.7 165.4 168.1 170.8 173 175 177 177.7 178.4 178.9 179.4 178.5 182.1 184.9 187.3 190.5 192.9 195.8 198.9 198.2 198.2 196.9 196.1 195.5 194.5 193.5 191.5 189.2 187.6 185.2 182.5 184.2 185.1 185.4 189.8 192.6 195.9 199.9 203.9 208.3 212.7 216.9 221 225.8 226 218.7 232.5 242.6 251.8 259.6 267.6 274.8 281.6 289.6 295.6 305.8 316.4 325.9 334.3 342.6 350.8 356.1 359.1 365 372.1 378.3 385.2 392.9 405 414.2 418.5 421 424 429.1 433.7 437.2 440.5 445 447.2 449.8 452.5 453.7 453 451.2 448.5 448 447.7 449 448.5 448.1 447.6 444.3 444.2 443.8 444.7 447.5 447.1 446.4 444.7 442.2 439.6 436 429.9 422.9 414.5 406.3 400.1 393 371 372.8 361.4 334.4 319.9 298.9 301.6
54.1 51.8 52.3 54 55.7 57.1 56.3 54.6 51.3 53.6 56.3 57.1 57.7 59.2 61.4 62.3 62.5 60.8 57.1 52.9 48.3 47.7 48.2 45.6 43 42.8 42.9 43 49.9 48.1 46.8 47.6 49.9 49.9 50.3 50.7 51.7 51.7 53.4 54.3 56 57.4 59.7 60.2 62.3 69.9 73.6 77.2 78.2 79.9 81.6 84.1 87.1 86.8 87.1 83.3 86.8 89.2 92.1 94.2 95.1 97.1 102.1 108.6 114.3 119.5 122 119.8 127.4 130 133.4 137 138.8 141.4 143.1 145.4 148.9 150.9 153.8 155.1 155.7 154.9 156.9 159.7 162.8 164.9 167.3 170.6 173.5 175.7 177.7 179.4 180.3 181.1 181.7 181.5 179.9 183.8 186.3 189.1 192.4 195.3 198.4 200 200.6 200.2 198.7 198.2 198 196.8 195.5 194.3 192.3 190.2 188.4 185.4 187.1 188.2 188.4 192.7 196.8 201.6 207.6 212.7 216.7 221.1 226.3 229.8 231.2 234.1 232.7 231.4 240.4 251 263 274 284.2 291.7 303.2 312.6 321.3 330 337.5 344.1 352.2 359.6 364.9 367.9 373.2 379.3 385.8 396.2 407.9 418.4 427.3 431.3 433.3 439.3 444.8 448 449.6 451.4 453 454.4 456.8 457.7 459.7 458.4 458.4 456.1 454.9 453.2 453 452.6 453.5 450.8 449.3 450.8 451.1 451.1 450.9 451.1 449 447.2 444.1 440.4 435.1 429.3 422.6 414.8 407.8 400.9 393.4 383.7 364.4 359 334.9 318.4 331.7 324.3
54.2 52.3 51.3 52.7 53.6 54.8 54.5 56.2 51.7 50.9 55.6 55.1 55.5 57.2 58.5 59.1 58.4 55.5 52.9 48.8 48.1 46.7 47.6 44.7 43 43 43 43 43.7 49.4 47.5 44.7 47.8 50.4 50.3 50.8 52.6 51.9 54 58.7 59.7 60.6 59.5 62.6 65.9 63.3 65.8 66.8 68.3 74.5 79.9 82.9 85.4 82.8 81.7 83 87.4 89.4 93.7 98.4 101.5 105 110.6 115.1 118.1 122 125.2 126.8 126.3 126.4 128.6 131.6 134.9 139.8 144.2 147.3 150.9 153.7 157.1 158.8 159.4 159.6 159.4 162.4 165.3 167.6 170.2 172.9 176.2 178.7 180.6 181.8 182.5 183.5 183.6 183.9 181.4 184.1 187.9 190.9 194.5 196.5 200 202.1 202.9 202.7 201.9 201 200.4 199.4 198.4 197.4 195.3 193.6 191.3 188.6 189.4 190.8 192 197.6 204.3 208.8 214.6 219 223.2 228 232.8 237.4 241.4 244.4 247.2 248.9 245.6 249.3 261.7 276.1 289 301 310.9 320.7 330.6 339.1 348.4 355.8 361.6 368.3 373.5 380.3 385.8 392.7 400 410 419.6 430.8 437.3 440.5 446.8 452.8 455.9 457.6 458.6 459.6 460.2 461.2 463.6 464.1 464.1 465.2 463.1 461.5 460.5 458.9 457.4 456.1 457.8 456 455.2 457.2 458 456.1 455.2 451.8 449.3 447.2 442 439.2 433.1 426.9 420.6 414.7 408 401.5 392.9 383.5 372.1 352.1 330.3 341.9 339.6 336
53.3 51.7 50.3 51 51.6 53.2 52.2 51.6 56.4 50.6 50.8 58.3 55.3 53.9 55.4 56.3 54.9 51.9 49.4 47.7 47.3 46.5 46.4 44 43 43 43 43 43.7 43.7 46.9 46.6 45.2 49.9 50.5 51 53.1 53.2 52.7 59.5 60.9 63.4 65.7 67.3 68.9 70.4 73.7 76.4 75 70 77 82 84.2 79.7 76.5 85.9 88.1 89.2 93.8 100.4 104.8 108 112.7 118.8 123 126.2 128.9 128.4 128.9 130.4 132.2 134.9 138.2 137.7 143.5 148.3 152.6 156.4 159.5 161.2 162.6 162.6 162.6 165 168.2 170.4 173.6 176.3 178.9 182.1 183.7 185.2 186.3 186.9 187 187 186.4 184.3 189.3 192.1 195.9 199 202.1 203.6 205.2 205.2 204.6 204.2 203.3 202.1 201.3 200.7 198.9 197.3 195.5 192.8 192.6 193.6 196.7 202.9 207.7 213 218.5 224.3 229.2 234.8 240.5 245.5 252.3 258.2 263 265.1 266.8 262.5 268.2 275.7 287.2 301.8 315.6 326 336.1 346.3 354 362.8 369 375.1 383 390.5 398.6 404.9 413.8 421.7 430.1 439.7 445.2 451.1 457.9 461.5 463.3 463.7 463.7 464.5 465.2 467 468.6 469.4 469.6 468.7 467.6 467.1 465.6 464.7 461.3 461.2 461.9 461.7 462.2 462.2 459.7 457.9 456.1 451.8 447.1 441.9 438.8 434.7 429.4 424.6 419.1 414 407.9 400.6 392.4 384.2 374.9 352.8 344.8 348.3 346.4 344.2
51.8 50.7 49.9 49.6 50.4 50.8 50.5 51.1 51.4 55.6 50.2 51.4 53.1 50.8 52.5 53.1 51.5 48.4 47.3 47.6 46.9 45.6 46.8 43 43 43 43 43 43.7 43.7 47.3 46.2 46.3 49.8 50.5 51.3 53.7 53.4 56.3 59.8 61.3 63 66.7 69.1 71.7 74.2 80.3 79.9 80.5 71.9 74.6 76.4 76.4 78.3 81.3 83.4 87.9 90 94.4 99.5 104.4 108.3 112.6 118 124.7 128.6 128.5 127.8 128.4 129.9 132.1 135.2 139.4 145.1 142 149.5 153.7 158.3 162.2 164.4 165.7 166.4 166.2 168.3 171.5 175.3 177.4 179.6 181.9 184.7 187.9 188.5 189.5 189.8 189.9 189.5 189 186.2 188.2 192.8 196 199.5 202.2 203.7 205.9 206.3 206.5 206.4 205.5 205.1 204.4 203.9 203.1 202.2 201 198.2 195.4 196.8 199.1 205.6 211.2 216.4 223.6 232.9 239.6 244.3 251.9 258 263.3 269.7 273.6 278 283.5 285.5 279.7 285.1 295.1 302.9 311 327.1 337.9 348.2 359.2 368.4 374.4 381.6 389.8 398.1 405.6 413.7 423.3 431.2 439 446.8 454.2 459.8 463.8 466.7 467.8 469 468.7 469.7 470.7 471 473.4 473 472.7 472.6 471.5 470.3 470.3 470.1 467.9 467.5 468 466.7 464.8 465.5 463.3 458.2 454.3 449.9 446.6 440 433.1 428.3 425.2 420.6 417 411.3 406.9 400.2 393.3 385.5 376.7 349.8 358.3 356.6 355.4 354.3
50.3 49.6 49.2 49.2 49.3 50.3 50 50.1 50.4 54.6 51.7 49.1 49.4 49.4 50.2 50.4 47.7 46.8 47.2 47.6 45.9 45.3 45.4 44.5 44.6 44.6 43 43 44.4 45.4 46.6 46 50.2 50.6 51.8 50.8 53.5 52.7 58.6 59.9 60.7 63.7 67.1 70.4 72.9 75.8 81 81.1 82.8 77.3 74.6 75.3 75.5 79.5 81.9 84.2 83.7 90.1 93.9 99.2 102.9 107.7 111.8 116.6 122.7 127.9 126.4 127 128.1 129.5 132.2 135.9 142 147.9 149.9 150.3 155.2 158.5 163.5 166.9 170 171.9 172 171.6 176 178.5 180.7 182.3 184.5 187.5 189.6 191.3 192.2 192.5 193 192.5 191.7 190.1 189.5 189.5 195.9 198.2 200.5 202.9 205.5 207 208.3 208 207.5 207.7 209 211.7 212.6 213 211.9 206.6 201.4 200.5 201.7 209.1 214.3 222.6 231.3 241.4 247.1 256.3 262 267.2 273.3 279.4 283.3 289.9 294.8 302.3 306.4 310.3 317.4 323.2 323.5 319.4 337.4 349.5 362.6 371.5 379.7 388.3 396.2 404.2 411.9 420.7 428.7 438.1 445.1 453.2 459.3 463.7 467 469.7 471.7 471.8 472.5 473 473.2 475.7 475.4 475 475.9 474.4 473.8 475.5 474.6 474.1 472.9 474 472.8 470.6 468.8 467.5 464.3 459.2 455.5 448.4 439 435.6 429.6 422.2 419.2 417.8 414.8 408.6 405.9 399.7 393.7 386.1 375.2 362.8 367.2 366.7 368.6 370.6
49.8 49.1 49.1 48.8 48.8 49.5 50.5 51.1 51.9 49.6 49.4 49 49.2 47.6 47.8 46.2 45.9 46.3 46.7 46.8 44.7 44.8 43.2 43.2 43.2 43.2 43.2 45.7 44.6 45.9 45.8 48.7 49.8 50.8 51.4 52 53.7 51.6 57.6 59.2 60.8 64 67.3 70.7 74.2 77.5 81.1 81.8 84.4 84.5 83.3 82.8 83.6 83.7 88.4 89.6 89.7 90.2 93.4 97.8 102.3 106.2 110.9 115.8 121.9 126.2 126.4 127.3 129.4 130.6 133.7 137.9 144.5 150.3 153.1 150.9 151.1 158.2 163.3 168 172.3 175.4 176.6 177.1 176.6 180.8 183 184.6 186.9 188.5 192.2 193.8 195.4 196.1 196 196.1 194.9 194.2 192.8 192.1 194.7 197.6 200 202.5 206.1 207.9 209.8 210 210.3 212.5 214.9 218.6 223 226.2 226.6 223.9 214.7 203.7 205.6 213.8 219.4 229.8 238.6 246.3 252.6 263.6 269.2 275.7 281 285.8 292.3 297.2 304.8 312.8 318.1 325 332.6 341.7 340.3 342 333 352.6 364.9 374.9 385 393.3 400.5 408 417.5 426 434.4 442.1 449.7 456.2 461.7 466.2 470.1 472.5 473.9 475.4 475 477.4 474.6 474.7 477.1 477.1 475.4 475.6 475.5 476.4 476.4 475.4 477.4 476.8 474.9 474.9 471.2 469 465.1 459.9 453.7 445.8 438.8 432.3 425.5 420.2 414.8 414.4 411.6 408.1 403.9 399.6 394.7 387.6 367.9 379.3 380.2 382.1 383.6 385.7
49.5 49.1 48.6 48.7 50 51.2 52 52 52 51.3 51.1 51.3 48.6 47.8 45.5 45.3 45 45.4 45.9 44.4 44.5 43.2 43.2 43.2 43.2 43.2 43.2 43.2 45.7 44 47 48.3 49.7 50.7 52 53.1 52.8 51.2 51.4 58.5 60.7 64.1 67.9 71 74 76.7 80 82.5 85.2 86.3 86.2 86.2 88 89.1 90.1 92.9 94.2 95 95.1 94.1 100 104.5 106.6 113.3 122.6 122 126.8 127.7 130.2 133.5 137.2 140.7 146.8 152.9 155.6 154.2 158.7 160.9 164.2 169.4 173.5 177.9 179.9 180.9 182 183.8 186 188.2 190.2 192.6 194.9 197.4 198.9 199.6 199.8 200 199.5 198 195.6 193.9 196.9 199 200.8 203.2 206 208.8 211.3 213 215.9 218.4 222.5 226.9 232.2 235.3 235.5 232.7 225 207.9 208.2 212.8 224 234.3 243.4 251.9 260 268.8 274.8 284 291.3 297.6 302.9 309.3 316.6 323.6 330.3 336.3 341.4 349.4 355.5 356.7 356.1 349.7 365.7 379.4 389.7 398.7 406 415.2 423.8 432.2 439.3 446.5 453.8 459 463.6 467.8 473.7 474.4 475.9 476.7 475.8 476.1 475.1 474.3 474.4 474.6 475.5 476.1 476.2 476.3 476.3 475.6 475.9 475.7 475 475.9 472.9 469.6 464.7 458.4 452.7 445.2 437.2 431 425.1 417.9 410.4 407.6 406.5 403.6 400.1 397.8 395.4 390.8 377.2 387.9 391.1 392.5 393.3 395.7
48.8 49.2 48.4 48.1 48.6 50.9 52.8 53.4 53.4 51.7 51.9 53.2 51.4 47.5 44.6 43.7 44.7 45.3 47.2 44.1 44.6 43.2 43.2 45 43.2 43.2 43.2 44.7 45.7 42.9 47.8 48.5 49.2 51.2 52.7 52.9 50.5 52.2 54.1 59.2 61.4 64.6 68.4 71.9 73.4 76 79.7 82.9 88 90.8 89.6 89.1 90.1 90.2 90.2 94.4 96.3 96.5 97 99.4 102.3 105.3 108.8 116.6 122.3 124 125.5 128.7 132.6 135.8 140 143.5 149.8 155.9 158.9 157.5 161.8 164.7 168.3 171.6 176.6 180.5 183 184.4 185.9 188.2 190.6 192.2 196 197.7 199 200.9 202.6 203.9 204.5 204.6 203.2 201.6 198 197.4 199.6 201.4 204.4 206 209 212.5 215.4 218.6 223.8 230.4 237.2 240.7 241.7 242.7 241 236.8 231 217.4 214.1 215.8 224.5 236.8 247 254.8 264.4 272.1 280.2 290.1 297.2 304.4 311.1 320.5 328.9 335.1 340.9 346.1 350.2 355.2 359.5 362.7 368.2 373.2 366.6 384 392.7 400.4 409.9 419.3 428.9 436.9 443 449.3 455.4 460.7 464.7 471.5 474.5 475.1 476 475.8 477 477 473.9 473.6 474.5 475.1 475.8 475.8 475.8 475.4 475.1 476.2 477.4 477.2 475.8 474.4 472 469.9 464.5 458.7 450.4 444.4 437 431.1 423.5 414.3 410.4 407.1 397.5 394.4 390.4 389.7 389.7 387.2 375.5 394.6 398.6 399.1 400.3 401.2
48.6 48.2 48.8 48.4 49.7 52 54.6 54.6 53.2 52.2 53.1 54.5 53.5 47.5 46.9 41.4 41.2 41.5 41.9 42.6 43.6 43.8 43.2 43.2 43.2 43.2 43.2 43.8 38.4 46.3 46.6 46.3 49.7 50.7 52.2 51.5 56.1 59.5 57 58.9 61.8 65.7 69.2 72.6 74.8 76 79.6 83.8 89.9 92.6 91.4 89.8 90.6 90.5 90.7 96.3 99.7 99.6 100.3 101.8 105.7 110.2 115.6 117.3 119 123.7 126.8 131.8 135.8 141 143.6 148 153.3 159.1 162.1 163 165.8 169 173.3 177.8 180.6 183.6 186.8 188.6 190.6 192.7 195.9 199.1 201.6 203.3 203.1 205.4 206.2 207 207.9 207.4 206.4 204.7 202.1 202.2 202.3 205.6 207.8 211.5 214.4 218.5 224.8 230.3 236.6 241.5 244.9 248.8 250.5 251.2 250.2 244.8 235.7 226.5 222.3 218.4 225.5 240.4 250.2 259.2 268.3 275.5 285.8 296.6 303 311.9 322.4 332.3 340.5 347.6 351.7 352.7 357.7 361.6 368.7 372.5 379.2 384.8 387.7 386.6 397.3 407.6 415.5 424.3 432.1 440.5 445.6 451.1 456.8 461.4 464.9 469.8 474.2 475.7 475.8 476.1 476.1 472.3 473.4 471.8 473.3 473.9 473.9 474.2 474.3 473.6 474.3 473.1 474.4 472.9 473 473 471.3 466.6 462.5 456.5 449.1 442.5 435.8 429.7 425.7 421.8 418.5 413.9 410.3 405.7 402.4 396.7 389.8 384.9 392.2 399.8 402 402.7 403 404.2
48 48.1 49.5 49.6 51.4 53 55.2 56 54.2 53.3 53.6 55.1 54.7 50.5 46.6 40.4 41 41.5 41.9 42.8 42.9 43.4 43.2 43.2 43.2 43.2 43.2 40 45 46.3 46.3 46.3 46.3 49 50.4 51.3 61.1 60.8 58.3 60.2 63.3 67 70.6 73.6 77.3 77.4 79.8 84 88.7 92 91.7 90 90.8 90.5 92.1 99 102.1 103.1 102.3 104.6 108.7 113.7 119.6 123.1 122.4 126.7 130.3 135 139.7 143.6 148.5 153.8 157.9 162.5 165 168.4 170.9 174.9 178.6 182.5 186.1 184.3 189.8 193.8 196.1 197.8 201.7 205 207.4 209.8 210.9 211 210.2 209.9 209.8 209.7 209.4 208.2 205.7 206.7 207.3 209.9 213.8 216.5 220.5 224 233 237.4 240.7 245 252.5 258.6 262.7 264.2 261 254.9 244.7 238.7 232.9 228.3 226.6 235.4 250.8 263.2 271.7 278.9 290.8 299.6 308.4 319.1 331.7 341.4 349.7 357.2 362.4 365.5 370.5 374.4 378.8 385.5 389.5 394.1 398 400.5 404.6 410 419.9 426.7 434 441.2 446.5 451.7 458.6 460.8 466.6 470.7 472.1 473.4 473.7 474.1 473.8 470.2 472.2 474 472.6 472.6 472.1 472 471.3 470.7 470.4 470.4 471.5 470 470 468.5 465.8 463.7 459.4 454.8 447.5 441 435.9 431.3 429.3 426.2 423.6 419.7 416.3 412.8 407.7 402.3 397.2 397.1 393.1 400.1 402.4 403.1 404 405.2
47.3 49.3 49.8 51.4 52.5 53.4 55.7 57.8 55.5 54 54.2 55.4 55 51.6 45.5 40.6 40.8 41.4 41.9 42.4 40.5 42 40.3 42.6 43.6 44.8 42 44.4 45 45.4 45.9 51.6 53.4 48.5 50 59.7 64.7 61.6 59.9 61.7 65.1 68.5 72.4 75.6 79 78.7 80.3 82.9 86.2 88.4 89.6 89.8 90.7 90 95 99.9 104.4 105.7 104.6 106.7 111.8 116.5 121.7 125.6 127.7 130.1 135.2 139.3 143.7 148.5 153.1 158.4 162.7 167.2 170.5 173.3 176.1 180.2 184.3 187.8 190.6 190.4 192.1 198.1 200.9 203.3 206.3 209.6 213.1 216.1 218.1 217.6 216.2 214.7 214.1 213.7 213.2 210.6 210.8 211.9 213.1 213.1 217.8 220.7 222.8 227.5 234 240.9 248.9 258.8 265.1 271.6 274.9 275.5 272.8 266.9 258.6 250 242.9 241.1 236.6 236.5 247.4 258 271.3 282.1 291.8 301.1 313.1 324.7 338.2 346.9 356.6 363.7 371 378.4 382.5 386.1 390.5 394.7 399.8 404.3 407.5 409.5 414.3 416.7 420.8 429.4 436.6 441.3 447.1 452 457.1 461.9 466.2 468.4 470.2 471.4 469.6 471.4 471.1 468.6 472 471.2 471.4 471.2 470.5 470.2 468.9 467.9 467.9 467.6 467.3 466.1 466.7 465.4 462.7 458.1 457.1 451.8 447.1 441 438.1 434.9 431.9 428.8 426.1 423.2 419.8 416.2 412.3 408.1 404.7 403.6 401.1 396.7 401.1 402.3 403.6 404.2
48.8 51 51.9 53.2 53.6 55 57.2 59.7 59.6 54.3 53.2 53.8 53.1 39.9 42.6 44 40.8 41.4 40.5 40.9 38.2 39.4 39.3 38.2 38.2 38.2 44.5 44.3 44.1 43.5 48.4 53.8 52.9 56.6 62.2 65.8 65.5 63.2 63.6 64.2 67 69.7 73.5 77.2 79.4 78.9 79.8 81.4 83.3 84.9 87.3 90.3 89.9 89.6 95.9 100.8 105.5 105.4 106.5 109.2 113.9 120 124.5 128.8 131.8 134.5 140.4 145.7 149.7 154.3 158.7 163.5 168.4 173.4 176.9 179.5 183 185.3 189.8 194.1 195.8 196.2 199.6 200.6 205.1 208.5 212.3 217.7 221.1 225.2 227.8 227.4 224.4 221.9 221.1 219.3 217.8 216.3 216.4 217.5 219.2 220 222 223.9 228.6 234.9 241.1 252.4 261.4 269.6 277.1 283.8 285.5 284.8 284.1 281.1 272.7 261.4 258.3 253.9 250.5 248.5 251.5 263.9 277.7 286.3 294.8 304.8 318 331.6 343.6 352.9 362.4 373.2 382 388.6 393.2 396.4 398.5 402 407.7 411.6 414.2 417.6 420.6 423.4 426.4 428.7 437.6 442.1 446.8 451.7 457 460.8 464.3 466.3 466.9 469 466.7 467.2 467.7 467.6 471.1 471.8 470.5 470 468.7 468 466.6 464.3 464 465 463 463.8 460.4 458.6 456.8 454.6 451.4 448.2 445.5 441.6 437.8 434.4 433.5 429.7 427 424.9 421.3 417.9 415.1 411.4 408.5 405.2 399.2 400.9 402.2 402.1 401.3 401.7
50.3 52.5 54.4 54.5 55.2 57.5 59.7 61.4 61 55.8 51.5 51 40.6 39.2 40.2 44.7 40.7 40.3 40.7 39.8 38.7 40.8 42.4 41.3 41.7 40.8 40.8 42.4 43.3 45.2 48.4 58.3 54.3 55.3 62.6 62.3 65.9 64.8 63.7 66 68.4 71.5 74.4 78.8 79.2 78.7 79.3 80.2 81.8 83.2 86.6 89 88.6 90.8 95.6 100.6 104.4 104.9 108.5 111.8 117.2 124.5 128 132.4 136.9 142.7 145.9 150.5 154.8 159.2 164.8 171.2 174.5 180.3 182.5 185.6 188.6 192.7 195.7 198.6 200.8 202.4 205.6 205.5 210.4 214 221.1 227.6 232.5 234.6 238.8 240.8 239.6 235.3 230.2 227.8 224.6 222.1 223.4 225.3 225.6 227.7 227.1 232.8 239.5 246 256.8 263.5 274.5 282.1 289.6 293.9 295 295.1 294.2 291.5 286.9 279.3 274.1 269.9 267.4 262.7 256.7 268.9 281 291.5 300.6 312.2 324.6 336.6 346.4 356.3 368.4 378.2 386.6 393.8 398.3 402.8 406.6 408.2 412.7 415.9 419 421.4 426.3 429.5 433.2 436.6 438.2 441.6 448.3 452.2 456.8 460.8 463.8 464.6 464.8 466.4 466 466.4 467.6 466.8 468.4 469.6 469.8 467.9 466.9 465.2 464 462.4 461 460.4 460.8 458.6 455.6 454.1 450.6 449.4 445.6 444.4 441.6 440.7 438 435.9 432.7 430 426.6 423.4 419.9 417.8 413.9 411.8 407.2 405 404.9 403.8 402.3 400.8 397.6 397.8
49.2 53.2 55.9 55.8 56.4 58.6 60.9 62.1 60.7 55.9 51.2 41 39 39.7 39.9 44 39.3 39.1 39.3 38.2 40.5 41.5 43.9 41.2 41.2 40.8 41.2 43.1 44.3 46.5 48.2 50.1 52.9 55.7 60.4 64.3 66.1 66.4 65.6 64.3 69.6 71.9 74.4 78 78.3 77.6 78.4 78.5 80.7 82.8 85 86.7 87.9 91.3 95.5 100.5 105.6 107.4 110.1 114.4 120.8 127.3 132.8 137.1 143.6 149.1 148.3 155.7 160.2 164.8 172.1 177 182.4 184.8 189.3 192.7 196 199.1 203.1 205.2 207.7 209 211 213.7 217.6 221.9 228.6 236.1 241.7 244.6 248 251.9 252.2 250.5 245.8 239.9 235.5 226.5 230.6 232.4 234.4 235.1 238.7 243.6 251.8 263.7 270.6 277 286 294.9 300.7 303.4 304 304.6 303.8 301.9 298.1 293.4 291 285.6 282.4 277.8 273.2 276.2 280.4 295.7 307.8 320 331.2 339.7 350.4 361 371.4 381 389.9 395.5 401.1 406.2 410.6 413.8 413.2 419.2 422.8 426.5 431.1 435.6 438.1 440.2 442.3 445.9 447.7 453.6 457.2 459.1 461.2 462.4 463.2 462.8 464 463.6 464.3 462.4 464.6 465.3 465.2 464.1 464.8 462.6 459.6 459.5 456.8 457.4 456.9 452.6 449.8 447.6 446.4 443.1 441.4 439.6 438 436.6 435.9 434.4 431.3 428.1 426.5 422.3 421.2 418.5 413.5 411.8 409.6 409.1 407.4 406.1 404.4 400.5 398.5 393.4
51.3 54 54.8 55.7 57.8 59.7 62.6 63.6 59.6 54.4 50.3 38.6 39 39 39.1 36.7 38.5 38.2 38.2 41.3 40.8 41.5 42.9 41.9 41.7 42.9 44.9 45.1 45.7 46 47.4 49.1 51.4 55 59.5 63.2 67 67.7 67.3 67.6 68.9 71.9 74.8 75.5 77.5 76.8 77.1 77.5 80.3 82.6 84.1 85.4 87.3 90.6 95.1 102.6 106.6 109.4 112.4 119.5 126.1 131.4 137.6 143.2 150.7 154.7 157.1 157.8 162.6 167.2 178.5 186.8 191.1 194.1 199.5 202.8 205.2 207.3 209.2 211.9 215.2 215.7 218.1 220.8 223.1 227.3 235.4 242.9 248.1 252.5 257 259.1 261 260.9 257.9 251.1 244.9 239.6 239.9 242.6 244.7 248.1 252.8 258.5 269.8 275.5 281.4 289 297 304.1 308.6 311.2 313.9 314 314.3 312.7 308.3 302.9 302.4 300.8 296.8 291.6 286.3 292.8 291.8 292.2 309.7 323.2 333.6 343.9 354.6 364 372.7 380.5 389.4 396 402.3 407.5 411.9 417 419.7 423 425.6 430.5 434.2 439.7 442.4 444.1 447.4 449.9 452 452.9 454.3 455.4 456.8 459.1 459.8 459.3 460.9 460.2 461.5 461 460.8 461.6 461.7 460.2 459.2 458.4 456.1 454.6 454.1 454.4 451.2 448.3 445.1 441.3 439.6 437.6 436.4 434.5 433.7 432.4 432.6 432.9 431 430 427.8 424.1 422 419.8 417.2 414.3 412.6 411.8 409.9 406.7 407.1 404.9 402.4 399.3
50.2 51.4 52.6 55.2 58.1 60.5 63.3 64.2 58.6 52.5 46.8 38.1 37.9 36.3 39 40.7 40.5 41.9 38.7 38.7 38.7 39.8 41.5 42.7 43.6 44.2 45 45.5 45.8 46 47.3 49.1 51.1 54.2 58.5 63.3 67.4 69.4 69.7 70.3 69.3 69.9 71.5 74.4 75.7 76.5 76.5 77.6 80.6 82.7 83 85.3 86.7 91.1 96.8 105.8 108.9 112.6 118.1 124.8 130.1 136.1 143.3 151.1 155.4 157.3 159.4 162.1 166.5 171.3 179.7 190.4 197.1 200.9 204.5 207.9 211.2 214.3 215.3 217.1 220.3 223 224.7 227.6 229.9 233.5 240.8 249.5 255.2 258.9 263.1 265.9 269.2 270.6 266.5 259.1 250.1 248.7 250.3 253.9 256.6 263.8 268.3 274.6 281 287 291.2 298.4 306.3 311.6 316.4 319.2 323 323.8 323 323.3 320.3 317.3 312.9 312.6 309.9 304.9 288.7 310.3 311.2 304.8 300.6 321.3 333.2 346.1 355.4 365 372.4 379.2 387.2 393.7 399.6 405.8 411.4 416.8 420.9 425.4 429.9 431.9 438.4 441.8 445.6 449 449.9 452.5 453.9 454.4 454.2 455.2 455.5 455.7 456.3 457.2 457.2 456.9 459 458 457.8 455.9 458.5 458.1 457.3 456.6 454.2 452.3 452.2 449.6 448 444 439.8 436.6 433.6 431.8 430.7 429.1 428.1 428 428.4 429.6 430.6 428.8 429.2 425.5 423.9 421.9 418.4 416.5 415.4 413.5 412.7 410.1 410.2 408.7 406.4 401.8
48.3 49.2 50.7 53 56.7 59.5 62.8 63.5 56.1 48.6 38.3 37.9 36.6 37 39 41.6 41.5 42.3 38.7 38.7 38.7 39.2 41.4 43.2 43.5 44.3 44.7 45.5 45.9 46.8 47.9 49.6 51.4 53.8 58.3 63.3 68.1 69.7 71.3 72.7 73 73 72.4 71.8 73.1 75.8 76.6 79.8 82.9 83.3 84.5 85.1 87.1 90.6 97 107.7 113.5 117.6 123.7 128.3 135.7 142.9 147.9 153.7 156.8 156.9 159.7 163.4 169.6 173.3 180.1 188.9 197 202.3 206.6 210.6 215.9 219.7 221.1 223 226 228.9 232.2 234.3 237.3 241.2 248 257.3 262.3 264.5 268.8 272.8 277.5 278.2 272.9 263.7 261.3 260.9 261.8 265.7 268.9 277.6 281.1 285.2 291.5 296.4 301 309.3 313.2 320.1 324.2 328.8 330.8 332.1 332.7 333 330.2 328.7 324.8 321.3 317.3 315.7 311 318.8 324 326.4 323.3 308.6 325.5 343 354 363 370.4 378.4 384.4 389.3 395.8 401.5 408.1 416.9 420.4 426.8 432.1 436.4 440.5 443.5 448 450.6 452.1 452.3 452 452.6 454.4 453.1 451.3 452.8 451.8 452.3 452.7 454 454 453.4 453.4 453 454 453.8 451.6 452.1 452.1 450.2 449 445.5 443.4 439.4 435.2 432 428.4 427.9 425.7 423.8 422.6 423.4 425.1 426.2 428.7 430.2 428.7 426.5 424.3 422 419.6 418.7 417.7 415.1 415.7 414.4 412 411.1 408.7 404.3
47.9 48 47.5 50 53.3 57 59.7 57.7 50.4 39.9 37 37.3 37.5 37.2 37.3 38.1 41.6 43.2 38.7 40.6 38.7 39.6 42.1 43.3 43.6 44.1 46.1 46.9 46.6 47.5 48.3 50.1 52 54.2 58.7 63.8 69.1 71.2 73.7 75.1 74.4 74.8 75.3 74.7 74.8 76 78.5 80.8 83.7 83.5 84 85.9 87.4 90.9 98.1 108.6 114 120.2 125.2 132.1 140.2 146.5 152.6 154.2 154.8 155.5 159.3 164.7 173.8 178.4 183.2 190 197.2 202.5 208.8 214.4 221.1 225.2 226.3 228.7 232.6 235.6 239.5 243.6 246.3 251.8 257.1 265.1 269.6 272.3 275.8 278.8 285.8 284.9 276.1 272 271.4 272.8 276.9 279.6 284.2 288.9 291.4 295.2 300.1 303.7 309.1 316.5 323.3 328 332 336.7 338.1 339.4 341.1 340.9 340 338.1 332.7 329.9 327.5 325.8 322.9 327.2 335.7 340.2 342.6 339.1 337.2 336.1 345.2 358.5 367 372.5 377.6 382.4 389.8 398.8 405.7 414.7 421.5 427.7 433.6 438.4 443.4 446.6 450.2 451.7 453.5 453.6 452.3 453.2 451.3 451.8 450.1 448.5 446.4 447 448.6 447.6 447.8 446.8 450.7 450 450.2 451.3 449.6 449.1 448.2 446.8 444.3 441.3 438 435.5 429.9 426.9 424.1 422 420.1 417.7 415.8 419 422.4 425.5 428.7 429.3 428.5 427.3 425.6 423.3 422.2 421.3 418.9 419.4 418.3 416.3 415.6 413.5 411.6 408.1
46.5 47 45.4 45.9 48.9 52.5 53.4 49.5 42.6 34.6 35.9 35.8 36.4 37.5 37.1 37.5 41.4 41.5 38.7 38.7 38.9 41.1 41.8 42.5 43.3 46.6 48.4 49.1 48.5 48.5 49.7 50.8 53 56.2 60.5 65.6 69.9 73.1 75.5 76.6 77.3 77.2 77.2 77 76.3 76.9 80.3 82.8 82.4 82.9 84.6 86.3 90 92.9 100.3 107.3 114.2 120.1 125.8 134.5 143 149.7 152.6 152.1 151.4 153.1 159.2 165.7 180.8 189.4 192.3 196.6 204.1 208.8 215.8 220.2 226.8 230.7 233.1 238.5 243.5 246.6 249.7 252.1 258.4 261.7 267.9 272.1 277.2 280.1 281.5 285.4 292.9 290.4 281.4 280.7 281.6 283.2 285.8 289.1 293.2 296.7 299.1 303 306.5 311.4 316.6 323.6 330 335.5 339 341.9 344.6 346.5 346.9 347.3 347.7 346.1 341.5 338.9 334.4 334.2 330.2 327.9 344 350.7 355.7 358.3 361.4 363 365.1 369.1 378.5 384.8 387.1 390.7 392.4 392.1 403.2 410.7 420.4 428.5 434.5 440.9 444.7 447.9 451.5 450.7 452.7 454 452.8 452.6 450.2 450.3 446.7 445.8 442.8 441.7 443.2 443 442.4 444.2 447.1 447.8 448.6 448.5 448.5 447.1 447.5 444.2 441 437.8 435.6 431 428.2 423.2 420.4 417.2 415.4 410.7 407.6 412.5 421.1 425.7 427.6 428 427.9 426.6 424.7 422.9 420.9 421.2 421 420.4 419.4 418.6 416.9 414.8 413.6 410.7
44.3 44.4 43 42.3 44.2 45.3 43.2 37 35.6 36.1 35.4 35.4 36.6 36.3 36.7 37.6 41.3 40.2 38.7 38.7 40 41 42.3 43.4 45.8 47.3 49.1 50 50.3 50.3 50.9 53.3 56.1 58.6 62.3 66.5 70.4 73.2 75.5 78.3 79.3 79.5 78.9 77.7 78 77.2 79.6 81.6 82 84.1 86.2 88.6 90.9 95.2 100.6 106.8 112.8 119.6 126.4 137.6 144.3 149.3 150 148.7 148.3 151.5 158.7 168.8 186.6 198.9 203 210.1 214.6 218.3 225.3 229.7 232.7 236.2 243.6 251.7 254.8 256.6 258.5 262.3 269.5 271.6 276.7 279.1 283.2 287.7 287.4 295.2 296.8 292.8 290.8 291.2 289.5 293.4 296.8 299 302.5 305.3 306.4 309.7 313.2 317.9 323.8 331.7 336.7 342.4 346.8 350.4 352.9 353.9 355.2 355.7 356.3 354.4 350.7 347.7 345.2 344.1 342.2 348.7 342.1 356.3 362.1 366.7 372.5 376.9 381.4 386.3 390.1 392.7 394.3 397 400 404.3 403.8 412.5 422 428.7 436.2 440.4 444.9 448.1 451.4 452.5 453.7 451.7 451.5 451 450.1 447.5 443.2 439.3 436.4 434.8 436.3 436.6 436.5 442.1 443.7 444.1 444.4 444.4 444.2 444.4 443.7 442.6 438.9 435.1 431 424 423.1 420.2 415.4 412.7 409.9 405.9 409.8 416.4 421.1 424.6 425.8 425.7 425.5 424 422.8 421.7 422.9 422.1 421.5 420.7 419.8 418.6 417.8 416.1 414 412
44 44.5 41.3 40.2 37.4 36.3 36 36.4 35.1 36 35.4 36.4 36.3 36.4 37 39 41.4 39.4 38.7 38.7 40.1 41.5 43.1 45.2 47 48.5 50.2 51.6 51.8 51.7 53 56.3 59.1 61.5 64.4 66.8 69.6 72.9 76.1 78.7 80.7 80.9 80.4 80.2 79.8 79.9 79.1 80.8 83 83.9 86.4 89.2 92.1 96.4 102.2 107.8 114.4 119.8 125.9 136.6 143.2 146.7 146.6 145.1 144.7 149.1 159.9 174.5 192.6 206.8 214.7 220.2 223.7 229.8 235.3 238.3 242.6 245.2 253.8 260.2 263.1 264.5 267.6 275.7 279.6 282.3 283.2 286.6 290.2 294.3 296.3 304.4 300.9 299.3 297.5 298.8 299.3 302 304.4 307.6 312 313.8 315.4 318.3 320.8 324.3 330.8 337.1 342.2 347.2 352.5 356.5 359.7 360.5 361.4 363.2 363.4 360.9 357.4 353.9 351.4 350.6 352.2 357.6 357.5 354 366.2 372 376.4 381.6 387.6 391.8 394.5 397.5 400.1 402.5 406.5 410.4 415.2 419.8 420.5 428.2 435.1 440.5 444.8 448.1 448.8 452.2 453.4 452.3 453.2 452.9 449.3 447.5 445.2 444.4 441.3 437.5 424.2 426.9 435.9 438.8 438.2 438.5 438.8 437.7 439.7 440.8 439.9 437.5 435.4 432.3 429.1 424.4 410.8 413.4 411.4 406.8 405.2 387.7 408.8 415.1 419.9 422.9 422.9 423.1 422.9 422 420.2 422.4 422.4 422 421.3 420.4 418.8 418.1 417.4 415.3 413.6 410.8
49.4 46 44.1 37.5 35.6 35.9 35.7 36.3 35.3 36.5 35.4 35.6 35.3 36.9 36.1 39.7 39.2 38.9 38.7 38.7 41.2 42.3 43.8 45.5 47.5 49.2 50.4 51.7 52.9 53.7 55.1 58.5 62 64.5 65.5 66.6 68.1 72.3 76.1 79 80.8 82.6 82.6 81.9 81.8 83.5 81.4 82.2 83.8 85.6 87.8 89.3 93.8 98 103.3 109.6 114.6 120.4 126.4 133.1 140.5 143.1 142.9 142 142.3 149.5 165.7 183.5 199.4 213.6 223.7 230.4 232.4 240.4 246.1 247.7 252.2 254.4 261.6 266.6 269.1 271.7 277.9 285.8 288.7 290.4 290.2 294.2 298.9 301.6 304.6 309 305.3 303.9 304.7 306.8 307.2 309.6 312.2 316 318.6 319.2 322.2 324.7 328.9 331.7 335.9 342.1 346.8 351.9 356.1 360.5 362.7 364.4 365.9 367.9 367 364.7 361.9 358.6 356.7 353.1 356.8 359.5 363.3 366.9 369.9 372.9 380.6 385.5 389.6 394.8 397 401 405.3 409.4 413.8 418.5 422.6 426.8 428.9 431.8 432 436.6 441.4 444.2 448.7 451.7 453.6 454.4 454.1 453.6 451.7 450.3 448.3 444.2 441.1 440.9 435.2 423.8 430.3 434.1 435 434.1 433.7 434.5 435.4 436.6 435.3 432.9 430.9 428.7 425 421.1 414.6 396.9 399.5 400.2 398.7 383.3 405.2 412.5 416.4 419.7 419.5 419.8 420.6 418.7 420 420.5 420.9 420.8 419.7 418.8 417.6 415.8 415.8 413.8 412.2 409.5
53.5 50.4 38.7 36.8 35.3 36 35.3 35.9 34.8 35.2 35.3 34.9 34.9 35.4 36.4 40.1 38.5 39 39.3 39.6 42.1 44.4 45 46.1 48.8 50.3 51.4 52.5 53.9 55.5 59 60.8 62.4 65.4 65.4 66.6 68 71.4 75.1 79.7 82.1 83.8 84.9 84.3 83.6 84.8 82.2 82.9 85.2 87.5 89.3 91.8 96.6 102 106.5 111 114.7 120.6 125.2 132.9 138.3 139.7 139.5 140.5 142.6 150.9 171.1 190.8 207 219.7 231.5 238.5 243.2 249.5 255.7 257.3 263 263.9 270.8 273.5 277.8 280.9 290.2 293.8 296 296 297.7 300.8 307.9 308.4 312.1 310.4 308.7 309.1 312.3 313.6 315.2 317.2 318.6 321.7 323.5 324.7 326.7 330.7 333.6 337.4 341.7 346.9 351.2 355.4 358.4 359.6 362.9 366.1 367.9 368.5 367.6 365.5 363.2 362.5 360.3 358.6 359.6 362.1 367.3 372.2 376.9 379.3 382.3 387.4 391.9 396.1 398.6 403.5 408.7 414.2 420.1 422.8 428.5 431.7 433.6 437 439.5 439.6 443.6 447.2 450.2 453.5 453.5 455.4 455 454.3 452.7 451 449.3 445.8 448.2 446.6 443.7 439.1 428.2 421.3 428.8 429.7 429.6 429.5 430.5 431.8 430.3 429.2 425.9 423 420.1 416.7 412.4 406.8 391.9 391 387.7 386 400.3 407.5 413.1 416.5 417.9 415.8 418 416.3 418 418.4 419.1 418.8 418.4 416.9 415.2 413.9 413.1 412.1 410 407.7
54.2 51.6 36.8 36.8 34.6 33.1 34.1 34.7 35 34.1 35.2 35.4 35.5 36.6 37.1 40.5 38.5 38.5 38.7 40.7 45.1 46 46.6 46.9 49.2 50.9 52.4 53.7 55.3 57.5 60.7 63.6 65.8 65.1 66 66.9 68.2 71.3 75.2 79.8 83.2 85.9 87.1 86.7 87.5 85.1 81.7 83.7 89.6 91.4 91.6 94.9 96.8 103.8 108.7 112.1 115.4 119 124.5 131 136 137.7 137 139 142.2 155.4 177.8 198.7 213.3 225.3 235.6 244.4 249.6 253.7 261.8 266.9 271.6 273.6 281 282.4 286.1 288.2 297.8 299.5 301.4 303.2 306.3 307.4 312.6 317 316.1 313.9 313.2 315.5 317.4 319.7 321.6 323.5 324.3 326.4 326.7 329 330.9 334.8 336.9 341.3 345.5 350 353.3 355.5 357.1 361 363.5 365.3 366.4 367.1 366.7 364.6 363 362.7 362.1 361.3 363 365.4 370.9 376.7 381.2 383.2 388.1 389.4 393.5 396 401.8 406.6 411 416.8 422 426.9 431.2 435.5 438.3 440.8 443.1 443.3 447.2 448.6 452.4 454.6 456.3 456.5 455.8 454.2 453.8 452.7 451.8 451.3 452.6 451.4 448.9 445.2 440.1 425 416.6 425.4 423.2 423.5 422.7 426.8 427.1 424.7 421.2 416.5 414.9 412 408.8 404.1 390.6 369.1 375 380.6 392.8 402.5 409.2 412.9 413 414.9 414.2 412.6 415 415.7 415.7 416.1 415.9 414.1 413.5 412.6 411.2 409.4 408.1 405.6
