ncols 200
nrows 92
xllcorner 180000
yllcorner 721750
cellsize 50
-1.1 -1.1 -1.1 -1.1 -1.1 -1.1 -1.1 -1.1 -1.1 -1.1 -1.1 -1.1 -1.1 4 12.8 49.8 36.9 48.9 63.8 65.4 75.2 65.2 64.7 53.9 16.6 5.9 -1.1 -1.1 -1.1 -1.1 -1.1 -1.1 -1.1 -1.1 -1.1 -1.1 -1.1 -1.1 -1.1 -1.1 -1.1 -1.1 -1.1 -1.1 -1.1 -1.1 -1.1 -1.1 -1.1 9.7 7.6 17.8 34.6 46.8 69.7 109.3 145.5 146.2 158.4 157.1 135.2 133.7 133.4 142 141.5 140.6 143.8 143 162.7 192.8 198.3 186.7 181.9 177.4 171.9 168.3 161.6 155.4 153.1 166.7 192.2 183.7 168.3 159.7 152 158.3 158.3 163.3 151.2 148.4 158.9 160.5 150.7 138.7 133.7 126.8 123 130.3 132.4 128.1 124.2 114.7 110.5 108.6 114.1 112.6 107.3 111 104 96.2 87.6 82.7 82.9 76.7 70.5 68.2 61.5 60.3 57.2 57.5 69.6 90.7 104.7 110.2 105 96.8 104.8 109.6 97.3 94.1 96.4 106.4 108.3 108.1 111.4 107.1 92.2 84.2 72.9 70.8 74.9 67.6 68 61.4 43.7 44.3 43.4 43.5 44 42.6 37.6 29.7 26.3 33.6 35.9 42.6 49.4 48.8 41.5 33.2 29.5 21.5 19.5 18.7 19 18.9 16.7 16.3 17.9 19.5 20.8 23.6 45.9 70.3 81.4 97.3 117 125.8 121.2 116.4 121.2 137.2 142.5 153.8 172.5 178.8 182.2 179.3 179.9 179.8 181.6 189.5 198.9 211.4 204.8 199.7 200.1 201 200.5 193.6
-1.1 -1.1 -1.1 -1.1 -1.1 -1.1 -1.1 -1.1 -1.1 -1.1 -1.1 -1.1 -1.1 7.8 22.4 30.2 33.8 52.6 65.3 67.5 63.7 64.3 58.5 39.8 28.3 -1.1 -1.1 -1.1 -1.1 -1.1 -1.1 -1.1 -1.1 -1.1 -1.1 -1.1 -1.1 -1.1 -1.1 -1.1 -1.1 -1.1 -1.1 -1.1 -1.1 -1.1 -1.1 -1.1 -1.1 -1.1 6.2 16.8 29.2 44.3 62.6 97.6 134.8 146.5 147 138.5 124.8 127.7 130.5 130 132.1 140.9 151.8 172.1 178.5 189.1 184.2 195.9 185.7 173 168.9 169 170.6 158.7 167.1 189.8 194.6 197.2 188.3 164 156.9 157.1 162.5 164.3 157.1 141.4 150.4 157.2 148.4 141.2 135.2 124.7 119.9 124 125.1 125 121.7 116.1 111.4 109.8 105.5 101.4 105.8 111.7 107.9 96.7 83.4 73.4 71.3 73.2 63.4 60.8 61.1 64.4 58.3 57.2 80.1 96.8 100.8 103.2 98.5 90.1 104 104.2 96.5 92.3 96.2 104 108.9 112.4 115.7 109.5 98.8 83.4 73.7 69.4 66.4 58.8 55.7 45.4 43 42.7 42.6 43.2 42.5 41.8 42.5 37.5 34.1 36.1 45.5 48.4 50.6 49.7 43.8 30.7 21.6 19.9 18.9 18.8 18.1 18.3 15.6 16.5 18.1 19.3 20.6 28.5 49.1 74.7 85.6 100.3 110.5 120.6 126 118.3 120.3 133.2 144.8 167.2 181.1 183.4 181.5 185.7 186.3 188.4 186.7 192.6 200 207.4 207.6 200.1 199.2 202 202.1 197.6
-1.1 -1.1 -1.1 -1.1 -1.1 -1.1 -1.1 -1.1 -1.1 -1.1 -1.1 -1.1 -1.1 5.7 22.2 25.3 45.3 66.9 67.1 58.8 60.9 58.9 46.7 35.9 -1.1 -1.1 -1.1 -1.1 -1.1 -1.1 -1.1 -1.1 -1.1 -1.1 -1.1 -1.1 -1.1 -1.1 -1.1 -1.1 -1.1 -1.1 -1.1 -1.1 -1.1 -1.1 -1.1 -1.1 -1.1 -1.1 -1.1 4.6 13.2 29.7 49.1 75.1 112.9 141.9 128.3 118.3 120.7 109.9 113.5 124.7 128.7 137.3 168.1 166.5 164.7 186 195.9 201.4 175.1 173.7 169 169.5 173 183.9 192.4 206.6 202.9 198.7 200.4 178.6 167.9 155 155.2 161.5 154.5 144.2 136.3 141.6 141.5 140.2 130.8 116.2 115 118.5 118.9 119.7 117.9 116.6 113.4 108.1 100.1 96.1 101.3 105.7 103.1 93.9 79.8 67.5 71.4 78.3 73.9 66.8 61.4 64.7 58.4 66.1 92.1 96.8 96.7 93.8 88.6 93.8 94.5 98.7 97.4 94.3 97.2 106.9 116.4 114.8 115.4 111.2 102.9 88 74 71.5 59.7 52.3 44 43.1 43.5 42.1 42.4 42 41.9 41.8 42.4 43.3 43.3 44.4 51 49.5 51.8 52.4 45.2 29.9 20.1 19.7 18.2 18.1 17.7 17.7 16.5 16.8 17.6 18.3 21.8 29.5 57.8 83.7 86.4 97.1 104.6 121 131.9 125.6 124.8 138.6 156.1 168.1 180.7 181.8 181.8 189.4 185.8 189.5 192.1 194.3 200.7 205.4 206.3 202 201.4 202.6 201.5 200.5
-1.1 -1.1 -1.1 -1.1 -1.1 -1.1 -1.1 -1.1 -1.1 -1.1 -1.1 -1.1 -1.1 13.7 19 27 58.9 60.6 51.4 60.6 52.9 48.2 16.6 9.2 -1.1 -1.1 -1.1 -1.1 -1.1 -1.1 -1.1 -1.1 -1.1 -1.1 -1.1 -1.1 -1.1 -1.1 -1.1 -1.1 -1.1 -1.1 -1.1 -1.1 -1.1 -1.1 -1.1 -1.1 -1.1 -1.1 -1.1 4.1 11.6 26.5 37.8 51.6 72.5 80.6 86.1 85.8 83.3 99.8 113.6 120 128.4 139.3 144.8 167.1 191.5 205.2 201.7 190.4 176.1 175.3 169.5 172.3 198.4 212.6 217 215.5 208.9 199.9 200.8 186.5 177.7 161.5 153.6 155.9 153.9 145.2 132.3 129.8 132.4 128.6 118.3 107.4 110.1 112.7 114.6 114.5 116.4 116.7 115.6 108.4 106 91.9 90.5 93.9 90.9 80.9 66.2 63.9 67.1 79.5 76.7 71.7 67.3 65.7 57.3 77.7 101.2 100.6 94.3 89.4 86 90 92.8 92.1 95.6 94 99.2 107.2 115.7 116.6 114.8 112.3 102.9 89.7 69.7 64.7 54.1 44.7 43.4 49.2 46.9 50.3 41.9 41.9 41.8 41.7 42.4 44 44.6 47.4 52.3 58.1 55.3 51.2 37.2 26.6 19.3 18.6 17.9 17.6 17.4 17.5 16.4 15.9 17.7 20.1 24.8 35.6 69.1 92.5 92.9 97.7 103.1 116.2 124 121.1 125 141.2 156.4 167.2 180 178.6 180 185.8 187.9 189.9 197.6 197.7 203.3 208.9 210.3 211.1 203.4 203.3 204.6 203.4
-1.1 -1.1 -1.1 -1.1 -1.1 -1.1 -1.1 -1.1 -1.1 -1.1 -1.1 -1.1 10.1 14.5 17.9 28.8 39.3 42.3 54.2 53.1 53.8 40.9 9.4 -1.1 -1.1 -1.1 -1.1 -1.1 -1.1 -1.1 -1.1 -1.1 -1.1 -1.1 -1.1 -1.1 -1.1 -1.1 -1.1 -1.1 -1.1 -1.1 -1.1 -1.1 -1.1 -1.1 -1.1 -1.1 -1.1 -1.1 -1.1 10 17.8 24.4 30.6 39.7 47.6 51.9 56.9 60 73.5 92.3 109.4 113.1 121.2 124.8 162.7 186.7 198 206 202.5 181.3 176.1 175.5 172 193.7 228.3 225.6 228.9 223.4 217.1 203.8 195.9 184.4 176.5 168 154 152.9 151.9 144.3 137.2 122.6 121.1 117 107 96.1 103.4 101.6 101.8 106.5 110.2 111.4 112.3 107.9 94 85.5 78.1 76.5 75 66.6 70 62.8 66 80.6 83.4 74.2 62.3 55.3 63.3 90 103.6 97.6 94.2 84.9 85.4 88 89.5 89.7 89.4 92.8 98.8 103.4 111.3 112.7 110.1 107.1 97.3 75.8 60.1 55 48 48.4 58.6 62.1 54.9 47.7 42.4 41.5 41.5 41.4 47.6 54.1 54.6 51.6 58 56.2 52.5 42.3 33 22.8 19.1 18.7 17.7 17.4 17.1 17.4 15.9 17.5 18 21 29.8 48.3 87 93.9 95.2 97 99.4 109.4 116.6 121 127.8 145 162.5 165.8 175.7 178.3 178.3 190.4 193.3 193.9 201.1 201.3 201.8 210.9 210.8 208.8 207.7 204.3 204.5 202.4
-1.1 -1.1 -1.1 -1.1 -1.1 -1.1 -1.1 -1.1 -1.1 -1.1 10.1 10.4 9.3 12.4 18 38.5 45.9 44.7 51.6 52.2 48 9.6 -1.1 -1.1 -1.1 -1.1 -1.1 -1.1 -1.1 -1.1 -1.1 -1.1 -1.1 -1.1 -1.1 -1.1 -1.1 -1.1 -1.1 -1.1 -1.1 -1.1 -1.1 -1.1 -1.1 -1.1 -1.1 -1.1 -1.1 10.5 9.5 12.2 15.7 24.3 29.6 34.7 39.5 44.4 48.1 67.7 70.7 75.5 85.7 90.6 121 141 181.9 207.1 203.5 211.1 208.4 200.1 198.6 197 192 216 228.1 238.8 241.5 227.5 219.6 207.5 194.5 184.3 176.6 169.4 158.3 152.5 149.1 140 134.1 128.3 121.1 114.6 110.2 91.8 93.4 93.7 93.6 99.7 103.1 105.7 103.4 99.2 91.8 79.8 69.5 64.5 64.5 69.6 68.3 61.1 72.7 81.9 81.7 71.7 56.6 55.5 71.8 98 104.4 94.9 90.8 83.7 84.9 88.1 90.2 89.1 87.4 85.3 92.3 98 102.9 104.4 102.5 97.6 87.8 67.5 54.8 50.4 52.4 66.2 68.2 66.9 63.2 47.6 42.1 41.5 41.3 47.9 53.7 59 56.1 60.8 55.8 54.7 37.2 39.6 34.1 21.4 19.1 18.5 19 17 16.6 16.4 16.5 17.5 18.6 27.7 36.6 66.8 87.2 88.3 83.6 84.5 96.8 108.8 116.1 123.9 135.1 151.8 166.3 174.1 183.5 177.6 178.1 191.5 198.8 193.8 201.4 202.8 202.5 209.5 209.6 208.3 209.2 206.2 205.3 202
-1.1 -1.1 -1.1 -1.1 -1.1 -1.1 -1.1 -1.1 -1.1 -1.1 6.5 8.5 9.3 12.4 22.6 45.1 50.5 49 45.1 29.4 10.9 -1.1 -1.1 -1.1 -1.1 -1.1 -1.1 -1.1 -1.1 -1.1 -1.1 -1.1 -1.1 -1.1 -1.1 -1.1 -1.1 -1.1 -1.1 -1.1 -1.1 -1.1 -1.1 -1.1 -1.1 -1.1 -1.1 -1.1 -1.1 9.8 9.4 13.5 26.3 29.4 28.6 32.7 36.3 40.2 46 52.7 55.4 59.8 69.3 100.7 126.9 161.8 193.1 203.9 211.5 216.2 197.5 196.3 200.4 200.1 196.7 224.3 230.8 239.2 239.8 231.7 223 211.8 200.8 187.8 179.5 171.6 163.5 152.3 147.8 140.6 131.3 130.2 121.6 117.3 110.2 104.7 80.1 80.6 81.5 85.6 92.3 98.1 101.5 101.1 92.3 63.2 60.7 62.8 61.1 55.4 56.9 60.1 72.8 70.9 73.3 63.6 56.5 57.2 83.9 102 99.6 94.6 88 83.8 84.3 86.9 89.4 89 89.6 85.2 82.5 89.9 94.9 93.7 89.9 86.1 79.5 56.2 50 55.5 61.3 71.3 69.1 68.9 65.8 49.3 41 41 42.1 48.7 53.5 55.6 55.5 60.7 52.3 43.4 35.2 34 30.6 20 19.1 18.7 18.2 17.9 16.4 14.7 18.5 18.2 21.4 31.2 40 79.2 73.6 68.2 83.2 89.1 100.6 111.2 119.2 129.4 140.8 159.7 174.1 181.1 178.5 181.3 186.7 191.8 191.4 193.7 200.7 206.1 201.6 210.2 209.2 207.3 208.4 208.9 207.5 209.6
-1.1 -1.1 -1.1 -1.1 -1.1 -1.1 -1.1 -1.1 -1.1 9.3 9.6 12.3 11.4 18.6 29.3 45.1 47.7 46.1 35.8 6.2 -1.1 -1.1 -1.1 -1.1 -1.1 -1.1 -1.1 -1.1 -1.1 -1.1 -1.1 -1.1 -1.1 -1.1 -1.1 -1.1 -1.1 -1.1 -1.1 -1.1 -1.1 -1.1 -1.1 -1.1 -1.1 -1.1 -1.1 6.4 8 9.3 17 24.4 30.7 30.7 30.3 32.5 34.5 39.4 44.9 47.4 50.3 61.8 81.6 105.7 137.4 182.5 200.7 208.9 215.2 218.8 197 193.9 193.9 194.4 196.5 224.2 230.1 236.4 238.5 234.9 229.2 222 204.1 186.7 180.7 176.4 161.9 153.3 157.3 148.7 137.6 124.3 124.3 118.2 114.9 109.7 95.9 80.8 76.2 72.6 76.2 85.8 91.7 73.3 66.7 58.7 61.2 61.5 58.3 57.9 49.3 57.8 61.9 59 56.7 59.5 55.1 75.1 96.3 102.4 102.2 97.8 86.2 83.1 83.8 85.8 88.1 92.1 88.6 84.9 86.1 83.5 90.4 86.7 84.5 78.2 58.6 53.7 55.4 58.9 60 69.4 68.7 65.5 58.4 41.2 41.2 43.7 41.8 45.6 52.2 50.7 51.6 50.8 42 37.6 40.5 28.2 24.7 19.7 18.6 17.9 17.6 16.8 14.1 17.2 19.1 19.6 26.7 29.3 41.8 50.4 71.5 86.1 95 103.7 106.9 116 124.8 136.5 143.9 161.7 173.3 175.6 189 192.6 192.7 195.2 196.3 195.8 198.2 199.9 206.1 217.3 213.2 211.4 201.9 207.5 205.5 199.8
-1.1 -1.1 -1.1 -1.1 -1.1 -1.1 -1.1 -1.1 21.1 23.9 14.9 12.5 22.2 43.5 40.7 31.7 37 35.2 10.8 -1.1 -1.1 -1.1 -1.1 -1.1 -1.1 -1.1 -1.1 -1.1 -1.1 -1.1 -1.1 -1.1 -1.1 -1.1 -1.1 -1.1 -1.1 -1.1 -1.1 -1.1 -1.1 -1.1 -1.1 -1.1 -1.1 -1.1 -1.1 4.7 11.1 23.4 38.7 41.9 41.5 36.8 34.2 35.8 37.7 42.3 46.7 57.6 66.5 78.1 96.1 112.7 147.5 184.7 206.5 213.9 208.4 207.5 201.3 194.4 194.3 195.1 222.1 230 236.9 239.7 235.9 235.4 230.6 219.8 209.3 196.3 181.7 171.7 158.2 145.7 156.1 151.1 139.2 129.9 129.6 116.4 109.2 105.2 101.9 86.3 82.7 71.4 70.1 69.1 67.9 66 69.3 60.2 60.5 63.4 61.9 56.7 48 46.7 49.5 50.2 52 49.9 65.3 87.7 94.7 101.6 103.6 94.6 82.6 82.7 83.1 84 87.4 91.8 94 83 81.5 73.7 79.9 81.3 67.4 61.1 61.7 60.2 70.5 64.3 56.3 62.2 61.3 61.1 42.4 44.8 53.5 52.8 42.2 45 50.7 42.7 43.9 36.5 39.8 44.9 31.3 35.1 28.5 21 17.9 17.1 17.4 13.8 15.6 17.2 18.9 19.4 23.1 28 38.2 72.2 83.5 95.7 98.7 110.3 121 121.4 133.4 144.4 146.3 157 169.6 180.7 195.1 194.4 192.8 197.6 199 199.5 202.1 201.9 206.3 213 211.4 207 198.1 190.6 188.5 186.8
-1.1 -1.1 -1.1 -1.1 -1.1 -1.1 -1.1 22 31.8 27.6 17.1 29.1 45.4 50.4 46.7 30.9 10.5 7.7 -1.1 -1.1 -1.1 -1.1 -1.1 -1.1 -1.1 -1.1 -1.1 -1.1 -1.1 -1.1 -1.1 -1.1 -1.1 -1.1 -1.1 -1.1 -1.1 -1.1 -1.1 -1.1 -1.1 -1.1 -1.1 -1.1 -1.1 -1.1 -1.1 7.2 27.1 46.7 42.6 46.8 48.1 44.7 44.1 44 43.7 56.9 64.6 77.5 88.8 93 102.8 125.5 171.1 196.7 211.2 212.9 201.9 209.1 194.5 195.4 195.4 216.9 236.8 241.2 249.6 246.3 243.2 238.4 229.9 218.4 209.6 198 182.6 170.9 160.6 139.9 143.9 144.3 138.7 133.7 128.1 114.7 111.3 106.4 98.2 92.7 96.5 89.1 72.1 69.4 73.8 72.3 71.9 70.2 78.2 91.7 67.8 58.8 50.7 42.8 40.6 43.5 45.7 53.4 76 89.8 98.5 102 104.9 92.1 83.6 83.4 83.1 83.5 84.2 86.4 89.3 82.2 74.7 74.9 68.4 66.1 58.9 62.8 71.3 83.9 81.7 75 61.4 51 52 43 48.6 51.8 53.8 49.7 38.7 41.6 45.1 35 31.5 39.4 40.6 33.2 36.4 32.9 27 17.8 17.9 16.7 17.4 14.3 15.8 17.5 18.3 19.7 22.8 33.2 53 81.1 97.1 104.4 107.4 115 130.4 130.9 136.2 149 149.4 156.6 169.2 179 191 192.4 192.7 195.9 198.3 203.2 204.7 204.9 205 209.7 206.8 193.3 190.1 184.9 185.1 186.9
-1.1 -1.1 -1.1 -1.1 -1.1 -1.1 7.5 30.3 32.9 20.4 20.8 42.6 51.4 50.1 46.5 35.4 7.3 -1.1 -1.1 -1.1 -1.1 -1.1 -1.1 -1.1 -1.1 -1.1 -1.1 -1.1 -1.1 -1.1 -1.1 -1.1 -1.1 -1.1 -1.1 -1.1 -1.1 -1.1 -1.1 -1.1 -1.1 -1.1 -1.1 9.5 17.2 11.2 20.3 29.7 45.4 62.5 67.2 63.3 63.4 60.4 53.5 55.8 67.4 75.2 84.2 87.6 93.8 105.6 115.8 141 184.2 209.5 199.9 199 200.7 194.1 188.2 204.7 212.6 228.1 242 246.7 247.6 250.5 245.1 238.8 228.9 219.3 210.4 197.9 182.3 171.6 161.3 140 137 144.8 130.4 133.4 128 125.6 117.7 104.3 100.1 97 100.5 95.8 82.9 86 89.1 86.2 77.1 83.9 92.1 90.9 75.1 59.4 48.1 41.1 37.3 37.9 46.2 52.6 66.8 86.2 94.9 98.2 96.7 82.2 87.3 84.9 85 84.2 84.2 85.9 84.6 76 70.7 67.8 61.7 60.2 60 74.8 86.4 85.4 84.4 72.2 50.1 46.3 44.5 43.7 47.3 49.2 48.3 43.6 31.6 33.2 32.9 27.3 31.4 34 35.8 36.6 37.4 29.5 21.9 17.2 16.6 16.8 17.4 14.4 15.1 16.9 17.8 19.4 21.9 31.4 54.4 86.4 101.4 111.7 114.9 121.7 134.1 140.5 142.7 144.2 145.8 162.1 174.2 185.3 193.7 193.5 193.9 196.6 198.6 208.1 215 208 206.3 206 204.3 184.7 182.5 184.8 186.1 185.9
-1.1 -1.1 -1.1 -1.1 -1.1 -1.1 10.5 23.9 17.1 19 32.3 45.7 44.9 48 41.8 14.6 -1.1 -1.1 -1.1 -1.1 -1.1 -1.1 -1.1 -1.1 -1.1 -1.1 -1.1 -1.1 -1.1 -1.1 -1.1 -1.1 -1.1 -1.1 -1.1 -1.1 -1.1 -1.1 -1.1 -1.1 -1.1 -1.1 8 25.4 49 55.1 65.5 70.3 72.1 82.2 74.7 65.5 64.1 62 60.5 82.3 91.5 102.2 101.7 105.2 115.2 128.1 150.4 173.6 183.3 194.1 199.9 193.8 197.6 188.9 188.8 200 217 226.9 239.2 245.4 247.6 249 245.9 239.4 228.2 217.3 210.4 205.2 184.1 170.1 164.1 154.3 131.9 133.2 126.9 125.8 125 126 121.8 104 100.8 98.7 92.2 92.6 103.5 100.5 100.9 91.2 86.4 84.6 83.6 77.7 71.8 51.2 44.9 37.7 35.4 36.9 40.5 45.7 57.7 74.9 87 89 79.8 91.8 94.6 90.5 90.8 97.9 88.7 95 82.6 72.7 65.2 61.9 60.9 66.5 74 75.8 77.9 82.4 71.7 62.1 57.3 53.7 40.8 36.6 36.6 35.9 35.7 32.3 28.2 24.7 27 24.8 32.8 37.1 36.2 36.3 34.3 28.5 17.5 16.7 15.8 15 14.9 14.6 13.1 15.4 17.3 18.9 21.8 32.4 53.7 83.5 104.7 117 121.4 129.8 143.2 145.3 144.5 149.1 159.5 174.8 182.9 191.3 194.4 194.1 196.4 200.8 203.3 204.9 211.7 210.9 206.8 203.1 186.4 182.7 183.3 183.2 185.3 184.9
-1.1 -1.1 -1.1 -1.1 -1.1 -1.1 3.9 8.9 12.4 28.5 44.6 41.4 48.1 45.5 13.4 -1.1 -1.1 -1.1 -1.1 -1.1 -1.1 -1.1 -1.1 -1.1 -1.1 -1.1 -1.1 -1.1 -1.1 -1.1 -1.1 -1.1 -1.1 -1.1 -1.1 -1.1 -1.1 -1.1 -1.1 -1.1 -1.1 10.5 45.4 55.2 70.6 77.3 75.7 77 89.2 76.9 67.3 67.2 65.1 77.8 83 107.2 120.9 121.1 128.6 139.8 155.7 164.1 190.9 184.9 183.7 189.2 194.7 191.4 189.1 188.4 188.3 200 217.3 226.6 237 246.9 248.1 242.3 239.2 236.5 223.3 215.3 207 200.1 184.6 164.7 162.8 153.5 136.2 123.4 125.2 122.1 129.6 125.2 114.5 100.2 94.3 91.4 91.6 95.9 99.4 100.7 96.1 90 87.5 87 86.5 70.7 52.8 41.1 39.6 36.5 35.3 40.6 40.6 43.4 49.5 62.9 76.2 78.4 83.8 90.8 96.6 98.3 102.6 108.3 95.8 86.2 78.2 64.5 62.4 64.3 73.9 75.8 76.4 75.6 64.3 59.1 63.2 61.5 59 52.4 36.7 30.8 25.4 27.9 22.8 22.1 23.1 19.2 20.1 24.5 30.9 32.3 34.2 31.9 31.7 26.9 15.2 14.6 14.2 14.4 14.2 14.5 13.5 14.1 17.8 18.3 24.7 34.7 54.3 71.3 110.2 124.1 132.9 141.2 147.3 152.3 167.4 176.6 183.3 192.1 194.8 195.7 195.4 198.5 204.3 203.4 208.6 210.6 209.2 206.6 201.3 192.4 181.4 186.5 186 186.3 186.4 185.5
-1.1 -1.1 -1.1 -1.1 -1.1 -1.1 8.6 7.2 20.3 31.9 36.6 36.4 10.1 -1.1 -1.1 -1.1 -1.1 -1.1 -1.1 -1.1 -1.1 -1.1 -1.1 -1.1 -1.1 -1.1 -1.1 -1.1 -1.1 -1.1 -1.1 -1.1 -1.1 -1.1 -1.1 -1.1 -1.1 -1.1 -1.1 -1.1 -1.1 50.5 58.7 68 75.5 76.4 65.6 84.9 78.4 71 68.2 74.9 88.4 107.7 123.9 148 152.7 149.5 158.1 172 168.6 182.5 193.6 193.3 189.9 189.6 188.1 189.5 189.7 189.9 189.4 204.6 219 225.5 231.1 236.7 240 230.8 225.9 223.4 219.3 212.2 202.4 193.9 181.4 163.5 143.8 137.6 123.6 120.9 123.9 126.2 129.9 112.9 104.3 101.5 99.5 95.6 97.1 92.9 95.4 96.3 94.1 86.8 85.9 71.9 76.8 69.2 41.7 38.2 34.1 33.9 39.5 42.1 47.4 51.4 48.2 50.2 71.3 92.4 96.9 96.6 100.3 105.3 104.6 102.9 92.7 85.7 70.5 65.4 67.9 73.2 74.6 74.7 75.2 70.9 57.3 59.3 58.8 54.1 49.8 40 31.7 28.5 18.1 21.2 19.9 17.4 17.1 22.3 20.3 21.7 28.3 29.5 29.9 28.6 22.3 14.2 11.8 11.3 12.8 13.2 13.3 14.1 13.1 13 16.9 19.2 28.8 36.3 49.9 66.2 99.2 132.5 138.9 141.1 144.2 163 179.9 195.5 192.9 202.4 202.8 204.4 201.9 203.4 207.3 207.9 209.5 216.4 210.9 198.4 184.4 178.8 188.3 189.8 187.4 190 188.1 188.7
-1.1 -1.1 -1.1 -1.1 -1.1 -1.1 -1.1 7.4 11.8 35.8 7.3 -1.1 -1.1 -1.1 -1.1 -1.1 -1.1 -1.1 -1.1 -1.1 -1.1 -1.1 -1.1 -1.1 -1.1 -1.1 -1.1 -1.1 -1.1 -1.1 -1.1 -1.1 -1.1 -1.1 -1.1 -1.1 -1.1 -1.1 -1.1 12.6 30.7 63.2 48.6 69.8 64 52.3 60.5 66.8 63.6 65 86.5 111.6 144.1 151.4 163.3 159.9 169.2 170.4 169.7 177 182.8 193 205.6 198.6 192.3 188.6 186.2 187.2 205.2 202.8 188.6 205 217.1 222.8 223 221.6 220.7 220.9 220.1 217.2 215.7 209.6 206 193.2 172 162.5 135.3 127.1 121.7 119.5 117.8 118.4 114.1 112.8 107.7 108.7 103.8 99.5 101.3 95.2 91.2 94.3 95.6 87.4 81.9 70.1 64.2 65.3 38 33.2 31.2 45.6 47.1 60.7 55.4 59.5 53.7 58.5 72.5 90.9 102 107 113.3 115.7 116.2 102.6 88.1 79.3 73.6 71.7 73.1 76.3 73.6 73.5 72.8 65.1 58.5 58.7 51.8 47.4 41.1 38 32.2 19.6 15.2 14 14.8 18.3 22.7 21.1 20.3 21.2 23.1 22.9 19.8 18.5 12.2 10.8 11.1 10.2 11.3 12.8 13.5 12.2 11.8 12.7 16.7 21.2 30.8 38.9 48 66.9 100 128 130.1 143.8 154.1 169.6 185.6 198.1 197.8 201.8 205.7 208.2 207 210.5 212.6 213.1 211.7 205.1 197 177.8 171.6 189.8 194.2 193.9 189.7 194.8 192.7 193.6
-1.1 -1.1 -1.1 -1.1 -1.1 -1.1 -1.1 7.5 8 -1.1 -1.1 -1.1 -1.1 -1.1 -1.1 -1.1 -1.1 -1.1 -1.1 -1.1 -1.1 -1.1 -1.1 -1.1 -1.1 -1.1 -1.1 -1.1 -1.1 -1.1 -1.1 -1.1 -1.1 -1.1 -1.1 -1.1 -1.1 -1.1 17 61.4 64.3 52.2 50.3 56.5 49.3 34.7 38.4 57 50.3 72.7 106.6 158.2 168.7 173.3 185.1 187.8 183.4 184.2 177.8 174.7 186.8 190.3 204.7 194.3 190.3 185.8 185.7 186.1 201.2 190.6 188.7 201.6 214.2 217.4 215.4 212.3 211.4 213.2 213.5 213.2 209.2 207.4 202.2 185.3 169.7 140.4 130 125.2 120.3 118.8 119.7 122.5 125.7 121.5 115.4 109.3 107.6 100.6 98.5 93.6 92.2 93.8 93.7 90.3 79.8 69.7 56.3 55.4 33.5 29.3 49.4 55.7 64.5 72.7 63.5 64.9 59.3 64.3 72 83.8 96.1 106 109.5 105.4 100.8 99.2 85.6 84.2 80.6 81.3 71.6 77.7 77.9 70.6 68.9 50.1 54.9 54 52.4 49.9 43.5 34.8 29.3 17.9 13.5 18.1 13.9 14.9 17.6 24.8 24.4 17.7 16.6 14.4 13.7 11.9 9.3 10.3 12.3 12.6 10.4 11 11.7 12.1 13.6 15.3 19 23.8 31.3 42.5 53.8 67 93.7 110.6 127.7 150.4 162.6 176.3 188.6 198 200.4 206 205.7 209.6 210.3 210.7 213.5 212.1 203.9 189.9 167.2 181.6 204.5 205.3 206.8 205.1 197.8 196.9 202.2 201.8
-1.1 -1.1 -1.1 -1.1 -1.1 -1.1 -1.1 -1.1 -1.1 -1.1 -1.1 -1.1 -1.1 -1.1 -1.1 -1.1 -1.1 -1.1 -1.1 -1.1 -1.1 -1.1 -1.1 -1.1 -1.1 -1.1 -1.1 -1.1 -1.1 -1.1 -1.1 -1.1 -1.1 -1.1 -1.1 -1.1 -1.1 -1.1 14 62.8 53.5 35.5 48.6 49.5 30.5 18.9 28.4 41.3 63.4 94.6 161.4 178.2 180.9 183.6 193.5 196.4 201.7 201.7 185.1 183.6 189.5 190 192.4 190.1 185.9 186.1 187.8 188.1 191.1 186.6 190 195.7 209.3 211.5 203.5 210.3 214.6 214.3 214.2 217 215.7 207.3 198.7 180.8 150.2 136.4 131.7 125.3 120.6 120.4 124.4 137.8 131.3 126 116.5 109.1 115.7 107.4 95 92.5 87.3 90.7 84.6 86.8 70.8 62.3 54.1 48.1 27.5 47.2 61.7 66.8 68.6 78.1 66.9 67.6 66.3 62.8 69.9 74.3 80.7 88.7 99.5 101.7 93.2 97.5 92.9 86.9 85.3 82.1 78.6 63.7 63.4 58.8 50.5 54.3 52.2 49.1 47.8 45.9 38 32.5 29.3 14.2 11.7 12.3 12.9 13.3 14.5 18 20 13.7 14.1 13.4 12.3 9.4 9 10.9 11.9 12.9 12.5 12.4 12.2 14.5 15.9 20.2 23 25 32.3 45.4 54 73.6 89.9 114 134.4 156.8 170.6 182.2 193.2 201.2 201.7 206.3 206.6 211 209.2 207.4 210.2 195.5 179.4 159.8 179.6 224.6 223.1 222.1 221.9 217.2 205.5 202.3 206 205.7
-1.1 -1.1 -1.1 -1.1 -1.1 2.5 -1.1 -1.1 -1.1 -1.1 -1.1 -1.1 -1.1 -1.1 -1.1 -1.1 -1.1 -1.1 -1.1 -1.1 -1.1 -1.1 -1.1 -1.1 -1.1 -1.1 -1.1 -1.1 -1.1 -1.1 -1.1 -1.1 -1.1 -1.1 -1.1 -1.1 -1.1 -1.1 9.3 11.6 13.2 10.3 15 7.6 10.8 16.2 31.7 53.6 79.8 138.1 165.1 178.6 185.1 184.1 197.8 197.6 200.4 194.9 197 193.1 193.8 200.2 190 187.4 190.1 185.7 190.1 191 193.2 185.1 187.3 185.6 188.7 204.8 214.7 216.5 215 214.2 214.5 213.1 213 204.5 191.2 167.2 140.9 138.7 132.8 135.4 126 127.4 126.4 145.8 130.4 126.8 121 110.3 118.1 117.4 97.2 92.4 83.8 84.6 79.4 73.6 66 52.8 52.1 37.8 32.2 47.5 60 65 75.3 76.5 70.3 68.7 75 64.1 64.6 66 68.1 73.8 81.9 86.5 92.9 92 96.4 91.8 85.8 84 81.2 74 56.5 47.1 48.6 51.1 49.9 45.9 44.3 44.2 38.8 27.6 21.1 17.1 11 12 12.1 12.2 12.3 13.6 13.4 13.2 13.1 12.1 10.5 9.1 9.5 10.4 11.8 12.7 13 13.1 13.1 15.7 16.7 19.3 27.8 30.8 39 49.8 56 70.9 98 129.1 152.4 166.9 178.5 187.8 196.1 204.1 202.8 203.6 204.4 206.4 198.9 196.6 183.8 167.2 161.6 180.7 205.9 230.5 230.5 234.5 225.2 219.7 208.4 210.7 211.5 208.2
-1.1 -1.1 -1.1 -1.1 -1.1 -1.1 -1.1 -1.1 -1.1 -1.1 -1.1 -1.1 -1.1 -1.1 -1.1 -1.1 -1.1 -1.1 -1.1 -1.1 -1.1 -1.1 -1.1 -1.1 -1.1 -1.1 -1.1 -1.1 -1.1 -1.1 -1.1 -1.1 -1.1 -1.1 -1.1 -1.1 -1.1 -1.1 -1.1 -1.1 -1.1 -1.1 -1.1 2.3 7.8 22.5 45.1 78.5 121.5 145.8 167.7 179.9 183.8 184.6 198.6 199.2 198.4 193.2 194.8 193 188.5 188.3 190.1 195.1 204 189.7 184.2 184.1 185.5 182.5 180.9 181.1 190.6 204.2 210.1 214.7 217.5 217.1 217.6 213.9 213.2 202.5 176 150.2 137.9 135.5 130.4 127.7 120.5 129.5 133.9 144.5 141.6 116.2 118.4 103.6 117 115.6 94.5 91.1 85.4 74.5 67.1 62.1 58.8 47.3 41.5 37.5 28.6 43.1 53.6 62.2 76.8 87.5 84.4 70.3 71.2 70.5 63.9 65.4 72.5 89.2 87.8 82.3 82.6 89 91.2 90.1 83.7 80.3 75.1 68.2 51.1 52.9 41.3 47.2 45.8 42.9 41.9 39.5 29.3 25.1 25.8 22.7 11.1 11.3 11.6 11.8 11.9 12.1 13.1 13.3 13.1 11.5 8.7 8.6 8.9 10.6 12.1 12.3 12.8 13.1 14.3 16.4 18.5 21.3 29.3 43.7 51.1 50 55.4 80 117.5 149.9 165 182.6 188 193.2 197.5 202.5 199.3 198.6 197.9 190.6 181.8 170.9 155.7 159.8 178.5 195.4 213.1 228.2 234.6 232.4 225 215.2 210.7 216 215.6 212.7
-1.1 -1.1 -1.1 -1.1 -1.1 -1.1 -1.1 -1.1 -1.1 -1.1 -1.1 -1.1 -1.1 -1.1 -1.1 -1.1 -1.1 -1.1 -1.1 -1.1 -1.1 -1.1 -1.1 -1.1 -1.1 -1.1 -1.1 -1.1 -1.1 -1.1 -1.1 -1.1 -1.1 -1.1 -1.1 -1.1 -1.1 -1.1 -1.1 -1.1 -1.1 -1.1 -1.1 -1.1 15.6 54.6 80.1 122.3 145.5 163.4 169.6 182.5 189.7 187.1 204.7 204.4 203.8 197 181.2 187.9 182.5 185.4 190.9 211.2 203.6 190.6 186.4 184.1 186.8 182.2 180.8 183.7 186.9 195.3 205.3 211.7 214.5 218.5 214.3 213.2 203.7 185.4 155.1 146.7 133.2 132.2 123.2 114.7 112.3 121.5 135.5 136.2 132.3 111.2 97.2 97.8 118.9 111.6 91.5 90.9 78.3 71.6 56.5 49.1 42.4 39.3 37.7 34.9 27.1 37.2 48.9 64.2 85.6 95.4 86 74.3 73.5 80.7 81.6 93.2 110.8 117 107.5 98.5 84 86.3 85.2 86.8 72.9 72.9 63.1 53.6 54 57.5 53.5 36.7 39.3 36.6 31.5 28.2 26.9 25.4 27.4 26.4 11.1 11 11.2 11.3 11.4 11.7 12 12.7 11.5 10.4 9.3 9.1 7.5 9.5 12.2 12.1 12.9 13.7 15.9 16.2 16.9 21 29.7 43.4 55.2 49.9 67 86.1 124.2 159.1 173.6 193.6 197.2 197.2 192.3 191.6 190.4 190.9 189.9 177.7 168.2 145 157.8 176.5 195.1 211 219.4 232.6 234.9 229 217.4 216.7 215 218.8 220.4 218.7
-1.1 -1.1 -1.1 -1.1 -1.1 -1.1 -1.1 -1.1 -1.1 -1.1 -1.1 -1.1 -1.1 -1.1 -1.1 -1.1 -1.1 -1.1 -1.1 -1.1 -1.1 -1.1 -1.1 -1.1 -1.1 -1.1 -1.1 -1.1 -1.1 -1.1 -1.1 -1.1 -1.1 -1.1 -1.1 -1.1 -1.1 -1.1 -1.1 -1.1 -1.1 -1.1 -1.1 8.2 33.4 75.7 121 148.2 161.1 168.2 172.8 177.7 185.4 185.9 199.9 206.2 202.7 184.5 179.9 180.2 180 187.1 198.9 206 202.2 189 186 184.1 187.2 190.7 185.3 181.5 185 193.9 204.2 209.6 212.9 212.6 208.1 202.1 185.6 167 155.3 139.3 131 117 106.3 106.5 103.4 121.7 137.3 135.9 123.8 99.9 88.6 86.2 117.9 109.9 85.5 84.6 75.4 69.5 50.8 28.4 32.7 32.9 30.1 29.2 24.3 33.3 45.1 63.8 81.6 81.7 77 78.7 83.4 98.1 103.5 120 138 135.6 121.2 112.9 101.1 87.7 80.8 81.3 70.3 58.8 52.1 54.5 56.7 58.3 58.2 51.1 32.6 30.9 27.2 28.2 32.1 25.5 24.5 29 13.1 10.6 10.7 10.8 10.9 11.2 11.7 11.6 11 10.3 9.6 9.2 8.5 7.3 11.8 12.7 16.2 16.3 16.3 16.7 15 21.2 32 37.2 41.8 56.6 69.6 90 117.5 155.9 177 192.1 194 191.9 185.7 181.1 177.2 178.1 173.4 153.9 134.8 158.3 174.9 199.7 218.4 217.9 222.6 234.5 230.3 218.2 216.9 219.5 217.6 221.1 223.8 223
-1.1 -1.1 -1.1 -1.1 -1.1 -1.1 -1.1 -1.1 -1.1 -1.1 -1.1 -1.1 -1.1 -1.1 -1.1 -1.1 -1.1 -1.1 -1.1 -1.1 -1.1 -1.1 -1.1 -1.1 -1.1 -1.1 -1.1 -1.1 -1.1 -1.1 -1.1 -1.1 -1.1 -1.1 -1.1 -1.1 -1.1 -1.1 -1.1 -1.1 -1.1 -1.1 -1.1 17.7 66.4 111.1 149.8 160.1 167.7 173.1 176.8 180.3 180.5 185.3 194 201.7 196.9 181.3 179.1 182.5 173.5 183.3 199.1 200.2 190.1 187.2 189 183.6 184.5 190.9 186.7 174.8 183.8 193.5 205.1 207 212.1 207.6 197.7 182.8 169.2 156.6 154.5 132.9 126.2 106.6 100.8 99.9 101.6 117.1 135.8 135.2 125.1 98.4 80 67.7 79.7 89 71.8 68.8 60 50.9 33.2 20.7 21.5 24 22 21.2 24.3 31.6 41.3 58 68.7 82.4 93.4 92.4 96 97.8 112.7 129.2 146.6 152.8 144.8 122.1 111.2 92.7 75.3 71 67.3 53.7 58.9 60 57.2 55.4 52.7 43.3 35.4 26.9 26.3 26.5 29.2 26.3 22.8 23.7 15.5 9.8 10.2 10.3 10.5 11.1 11.1 11 10.8 10.3 9.5 8.8 7.6 7 10.1 14.1 15.2 13.4 11.1 11 13 14.6 26.5 33.4 54.4 54.2 77.7 90.4 107 151.2 170.4 187.7 185.4 178.9 172.2 169.1 162.7 157.9 139.2 135.4 160.4 174.8 195.7 208.2 223.4 222.8 220.9 222 218.6 222.3 217 222.2 215.4 220.3 218 219.4
-1.1 -1.1 -1.1 -1.1 -1.1 -1.1 -1.1 -1.1 -1.1 -1.1 -1.1 -1.1 -1.1 -1.1 -1.1 -1.1 -1.1 -1.1 -1.1 -1.1 -1.1 -1.1 -1.1 -1.1 -1.1 -1.1 -1.1 -1.1 -1.1 -1.1 -1.1 -1.1 -1.1 -1.1 -1.1 -1.1 -1.1 -1.1 -1.1 -1.1 -1.1 2 25 57 97 142.2 157.9 167.5 175.6 179.2 183.4 182.3 183.3 183.5 191.6 197.1 181.7 177.2 181.9 176.1 170 171.1 177.5 179.3 191.7 189.2 186 188.7 190.8 184.1 182.3 173.3 182.4 190 198.8 201.9 199.2 200.2 186.1 164.9 150.4 149.3 151.8 127.6 118.7 102 98.2 101.1 105.7 121.4 135 134.3 122.5 99.2 69.3 55.1 47.1 46.2 50.5 44.4 30.8 19.5 16.7 15.9 17.6 18.8 19.1 20.6 28.8 33 39.7 56.7 68.3 87 95.6 90.8 83.6 96.8 112.6 133.2 154.6 154.3 152.1 128.3 110.7 99.5 79.9 78.1 57.8 58.7 60.8 57.8 53.7 51.3 45 38.3 32.9 30.5 24.1 23.9 23.8 23.1 22.3 20.1 22 10.4 9.8 10.3 10.6 10.5 10.3 10.1 10 9.8 9.4 8.6 7.4 6.8 8.9 12.7 12.4 10.7 10.6 10.9 12 15.3 17.1 39.1 56 56.3 69.7 83.7 95.9 117.1 153.2 170 170.3 163.6 152.2 146.8 140 122.5 133.6 151.1 175.8 194.5 204 214.9 222.1 226.3 223.2 212.9 217.6 223.5 211.9 211 201.7 213.9 227.2 227.3
-1.1 -1.1 -1.1 -1.1 -1.1 -1.1 -1.1 -1.1 -1.1 -1.1 -1.1 -1.1 -1.1 -1.1 -1.1 -1.1 -1.1 -1.1 -1.1 -1.1 -1.1 -1.1 -1.1 -1.1 -1.1 -1.1 -1.1 -1.1 -1.1 -1.1 -1.1 -1.1 -1.1 -1.1 -1.1 -1.1 -1.1 -1.1 -1.1 -1.1 -1.1 32.1 53.5 95.9 130.7 155 164.1 176.9 183.9 187.5 190 189.6 190.7 186.1 189.1 181.1 180.6 171.9 171.2 168.5 168.8 169 172.2 186.8 190.3 185.8 188 191.3 194 174.7 175.2 170.6 179.7 187.6 196.4 198 192.5 183.3 164.4 148.3 140.5 144.6 139.7 120.8 102.7 102.6 93 98.1 104 122.8 135.1 129.7 122.4 90.8 60 50.2 41.5 34 31.5 22 18.4 14.5 14.6 14.8 16.9 17.8 18.5 20.1 30.7 39.1 45.5 58.9 69.1 75.7 81.8 74.5 84 96.9 108.6 131.8 157.9 152 146.1 131.2 109.4 99.3 91.4 76.2 58.7 57.3 56.4 58.2 49.3 40.5 36.3 33.9 34.1 34 28.5 19.3 20.4 18.5 20.4 19.6 12.7 9.5 9.2 9.7 9.9 9.7 9.5 9.3 9.1 8.9 8.6 8 6.7 6.3 7.1 9.1 10.6 10.5 10.7 10.9 12.4 15.2 17.7 34.7 51.9 58.5 66.2 76.6 91.8 103.2 120.4 139.3 146.6 139.4 134.7 110.9 101.6 132.7 148.3 160.5 186.5 199.3 209.1 219.3 220.7 221.3 210.7 211.3 211.5 216.9 207.6 198 202.8 213.2 234.8 233.7
-1.1 -1.1 -1.1 -1.1 -1.1 -1.1 -1.1 -1.1 -1.1 -1.1 -1.1 -1.1 -1.1 -1.1 -1.1 -1.1 -1.1 -1.1 -1.1 -1.1 -1.1 -1.1 -1.1 -1.1 -1.1 -1.1 -1.1 -1.1 -1.1 -1.1 -1.1 -1.1 -1.1 -1.1 -1.1 -1.1 -1.1 -1.1 -1.1 -1.1 19.5 47.7 95.9 141.6 152.3 158.7 172.2 181.9 189 195.7 198.4 198.9 191 178.8 173.6 173.4 181.9 169.2 168.8 167.7 168.4 169.4 176.7 186.7 186.5 187.3 186.1 183 185.9 172.9 154.2 169.7 179.1 186.8 192.1 186.1 178.4 171.8 148.8 138.7 136.3 134.5 118.9 104.8 92.2 94.4 88.5 90.6 100.6 121.4 137.1 125.5 116.8 82.4 49.6 43.5 39.2 30 26.7 19.8 17.8 14.1 14.4 15.4 16 18.3 20.6 29.3 41.2 50.6 51.5 55.6 70.2 74.1 72.5 91.9 99.8 109.7 110.7 132.4 139.7 148.3 139.9 127.2 117.1 97.3 84.4 70.7 62.3 60.2 52.4 51.8 47.6 39.3 34.9 33.7 35.6 29.9 25.2 20.9 14 11.9 13 18.7 12 9 8.4 8.7 8.9 8.9 8.7 8.5 8.4 8.4 8.1 6.7 6.6 6.3 6.8 8.7 10 11.5 12.2 11.4 12.5 14.1 16.4 28 48.4 57.5 58.5 59.4 65.7 93.3 100.8 106.5 107.8 105.2 91.5 101.5 131.7 141.7 151.4 171.4 196.2 207 212.5 211.8 214.1 204.7 202.9 206.8 208.2 203.4 198.2 200.9 202 211.7 233.5 240.1
-1.1 -1.1 -1.1 -1.1 -1.1 -1.1 -1.1 -1.1 -1.1 -1.1 -1.1 -1.1 -1.1 -1.1 -1.1 -1.1 -1.1 -1.1 -1.1 -1.1 -1.1 -1.1 -1.1 -1.1 -1.1 -1.1 -1.1 -1.1 -1.1 -1.1 -1.1 -1.1 -1.1 -1.1 -1.1 -1.1 -1.1 -1.1 -1.1 27 46.3 76.3 138.8 153.6 163.3 165.9 173.8 183.8 201.7 205.7 205.9 206.7 195.6 180.9 172.8 177 172.1 168.4 168 167 168.8 169.9 170.6 173.9 179.9 181.3 181.5 177 168.4 170.7 133.1 139 178.1 181.7 182.6 171.7 167.3 150 139.9 131.3 124.2 112.5 106.3 88.4 87.4 89.6 84.8 87.8 99.5 117.6 132.4 119.5 94.2 60.3 36.3 31.1 29.2 26.9 18 14.1 13.3 13 13.5 14.9 16.4 25.2 36.9 43.8 48.2 50.1 57.1 58.5 67.6 77.9 86.4 101.5 113.2 116.7 117 137.1 143.3 148.7 141.8 129.8 113.6 97.2 80.7 74.1 72.3 62.8 54.4 47.5 47.2 40.6 36.7 32.4 31.2 27.7 23.1 15.9 12.6 10.1 9.7 9.9 9.2 7.9 7.6 7.9 8.2 8.4 8.3 8.3 8.2 7.9 7.7 7.1 6.1 6 6.4 7.6 8.3 9.5 11.3 12.3 12.8 12.6 14.3 20.6 39.3 47.4 47.5 48.2 53.2 71.5 88.4 88.3 86.3 67.3 92.9 114.1 128 148.6 165.6 184.6 206.2 210.6 207.6 199.3 196.9 197.1 196.8 196.6 195.8 206.9 193.9 198.8 196.1 205.5 222.4 238.8
-1.1 -1.1 -1.1 -1.1 -1.1 -1.1 -1.1 -1.1 -1.1 -1.1 -1.1 -1.1 -1.1 -1.1 -1.1 -1.1 -1.1 -1.1 -1.1 -1.1 -1.1 -1.1 -1.1 -1.1 -1.1 -1.1 -1.1 -1.1 -1.1 -1.1 -1.1 -1.1 -1.1 -1.1 -1.1 -1.1 -1.1 -1.1 17.9 38.1 70.8 125.7 150.3 159.5 168.4 171.1 173.1 179 189.7 196.2 200.9 206.9 193.6 190.3 181.2 171.1 169.6 167.8 167 167.6 168.6 169.1 166.4 169.7 169.2 180.2 172.3 162.3 143.8 131.2 121.2 127.8 145.4 147.5 148.4 151.2 141 133.4 125.4 116.3 102.4 94 83.2 82.4 82.3 80.4 76.9 86.8 97.5 107.7 116 111 74.8 42.6 25.8 24.6 23.5 22 16.9 12.7 12.5 12.8 13.8 25.7 43.6 51 47.9 55.9 52.7 54.8 64.6 67.6 83.5 100.9 114.6 126.7 139.1 128.7 126.2 135.5 146.4 141.1 136.5 130.7 111.9 96.9 86 76 77.7 65.5 58.2 62.4 59.1 49.1 36.4 30.1 24 20.3 16.2 10.8 8.2 7.2 6.4 6.4 6.5 6.5 7.3 7.8 8 8.1 8.1 8 7.8 7.7 7.6 7.3 6.1 5.6 5.5 6.5 7.4 8.5 9.4 10.6 12.3 14 13.7 14.6 23 27.6 33.6 36.4 42.1 43.4 54.8 50.8 54.6 80 95.8 108.9 119.4 139.5 160.6 175.7 199.7 201.7 194.6 183.5 180.1 179.6 177.6 196.3 205.1 207.4 195.5 190.8 188.6 201.4 214.5 232.3
-1.1 -1.1 -1.1 -1.1 -1.1 -1.1 -1.1 -1.1 -1.1 -1.1 -1.1 -1.1 -1.1 -1.1 -1.1 -1.1 -1.1 -1.1 -1.1 -1.1 -1.1 -1.1 -1.1 -1.1 -1.1 -1.1 -1.1 -1.1 -1.1 -1.1 -1.1 -1.1 -1.1 -1.1 -1.1 -1.1 -1.1 2.3 15.9 38.7 87.8 137.2 152.1 158.1 165.6 167.6 172.4 179.9 180.6 193.6 200.4 202.6 193.8 192.7 177.9 182.4 170.7 170 166.8 170.7 170.7 169 166.6 166.5 163.7 163.9 160.3 133.8 118.7 113.3 106.3 107.4 116.4 120.2 125.6 129.8 118.4 116.4 105.2 92.8 76.9 70.8 74 78.3 75 71.6 76.5 82.3 88.9 79.4 83 83.5 51.3 26.1 21.4 20.2 18.6 15.1 11.8 12.3 12.9 14.9 38.4 51.8 60.2 62.1 57.2 64.7 59.5 55.4 69.5 85.9 104.4 121.1 130.6 139.7 148 142.9 129 129 130.9 136.9 130.6 118.8 102.4 101.9 100.4 91.1 80.6 74 61.2 65 68.2 57.5 36.1 21 16.6 11.9 8.4 6.3 4.2 4.5 4.4 4.6 4.8 5.9 6.7 7.3 7.5 7.6 7.7 8 8 7.9 7.8 7.6 6.1 5.5 4.9 6.8 7.9 8.3 8.9 11.4 12 12.8 13.1 13.9 14.8 15.8 17.1 19.4 22.8 24.5 24.9 26.7 49.4 77.7 94.2 98.8 109.5 122.6 143.1 156.9 185.2 180.3 165.1 162.6 158.8 169.3 186.8 202.6 204.9 204.2 195.7 186.5 184.6 196.9 205.9 213.7
-1.1 -1.1 -1.1 -1.1 -1.1 -1.1 -1.1 -1.1 -1.1 -1.1 -1.1 -1.1 -1.1 -1.1 -1.1 -1.1 -1.1 -1.1 -1.1 -1.1 -1.1 -1.1 -1.1 -1.1 -1.1 -1.1 -1.1 -1.1 -1.1 -1.1 -1.1 -1.1 -1.1 -1.1 -1.1 -1.1 -1.1 19.6 24.3 52.9 93 139.9 149 159.2 164.9 172.4 174.9 179.6 186.3 192 192.2 199.1 195.6 192.8 192.3 181.7 177.8 166.7 174.6 176.1 174 176.2 171.4 165 150.6 146.3 129.5 117.1 111.9 100.3 98.1 94.5 103.9 112.2 106.5 103.8 102.3 96.4 90.3 75.1 64.6 65.7 71.1 68.3 67 68.8 75.2 79.3 75.8 65.5 56.8 57.4 34.3 19.1 18.7 12.4 11.5 10.9 10.9 11.7 14.8 26.6 49 72.1 75.7 71.4 64.4 57.8 62.3 76.7 89.3 110.8 125.4 132.5 136.8 137.9 145.3 139.3 122.2 113.3 121.3 120.8 118.6 106.8 105.9 96.3 98 96.5 86.6 73.8 62.7 60.9 61.1 49.6 27.4 11 9.8 9.3 5.9 5.6 3.8 2.4 3.4 3.2 3.8 5.3 6.1 6.2 6.3 6.4 7 7.9 7.9 7.9 7.7 6.1 4.6 4.6 4.7 7.2 7.8 8.1 8.9 11.4 13.1 12.6 12.9 13.9 14.7 15.5 16.3 17.1 18.6 20.6 21 25.2 35.5 66.3 89.7 91.3 97.3 100.9 112.7 128.2 135.2 135.8 141.1 147.4 155.5 169.2 200.3 204.6 205.5 197.6 190.5 193 180.3 190.4 199.2 200.1
-1.1 -1.1 -1.1 -1.1 -1.1 -1.1 -1.1 -1.1 -1.1 -1.1 -1.1 -1.1 -1.1 -1.1 -1.1 -1.1 -1.1 -1.1 -1.1 -1.1 -1.1 -1.1 -1.1 -1.1 -1.1 -1.1 -1.1 -1.1 -1.1 -1.1 -1.1 -1.1 -1.1 -1.1 -1.1 -1.1 -1.1 12.3 28.5 59.3 104 138.4 144.9 161.3 168.9 174.5 177.9 184.1 186.8 191.5 197.3 193.9 194.3 187.6 187 181.3 175 167.4 177.1 177.2 173.9 173 170.3 167.9 152.6 131.7 116.2 110.7 101.9 97.6 87.7 81.9 80.8 88.9 91.4 92.9 87.3 72.1 74 68.8 62.5 62.8 62.1 62.2 63.5 68.5 73.3 76 60.5 52.3 44.5 33.9 25.7 21.7 20.9 11.1 10.4 10.5 12.7 24.3 45.1 47.2 55.4 76.7 74.8 68.8 66.2 67.6 77.5 95 110.5 124.1 133.7 138.1 144.6 139.5 138 128.8 111.5 97.8 107.1 96.8 100 100.4 99.2 90.5 84.2 77 75.3 67.4 60.6 53.8 44.1 21.9 9.4 6.2 3.2 1.8 1.1 0.4 -1.1 -1.1 -1.1 1.9 3.3 4.7 5 5 4.8 4.6 6 7.2 7.8 7.6 7.1 5.8 4.8 4.6 4.8 7.2 7.6 8 8.8 10.8 13.2 12.3 12.9 13.7 14.6 15.4 16.1 16.9 18.1 19.9 18.4 20.8 25.6 53.2 73.3 83.9 90.9 91.5 94.6 100 103.9 116.5 141.5 142.6 148.9 175.6 204.1 205.1 201 191.7 183.8 167.4 166.7 185.9 188.6 186.1
-1.1 -1.1 -1.1 -1.1 -1.1 -1.1 -1.1 -1.1 -1.1 -1.1 -1.1 -1.1 -1.1 -1.1 -1.1 -1.1 -1.1 -1.1 -1.1 -1.1 -1.1 -1.1 -1.1 -1.1 -1.1 -1.1 -1.1 -1.1 -1.1 -1.1 -1.1 -1.1 -1.1 -1.1 -1.1 -1.1 7.6 11.7 31.6 71 118.2 143.7 149.8 155.4 171.4 174 181.1 186.8 187 192.7 195.4 187.1 185.3 180.1 181.3 176 169.6 176.3 177 180.8 177.1 171.2 163.7 154.2 132.8 117.7 128.7 114.9 104.6 94.8 89.6 81.5 68.1 74 76.3 70.7 63.3 63.3 70.6 69.9 59.3 57.6 57 57.9 60 64.6 68.2 61.6 54 48.2 40 33.2 27.2 20.4 18.5 10.1 9.6 15.9 35.9 56.1 54 53.3 52.2 66.8 63.6 65.9 81.3 84 89 104.8 113.6 127 133.3 140.4 145.3 142.4 132.7 113.3 101 106.3 91.9 90.3 96.9 98.8 89 82.4 74.3 64.4 57.7 51.2 43.4 31.9 17.1 8.1 4.7 1.7 0.8 -1.1 -1.1 -1.1 -1.1 -1.1 -1.1 -1.1 -1.1 3.9 3.3 2.6 2.5 3 4.6 7 7.4 7.2 7 5.9 5.2 4.5 4.9 7 7.5 7.8 8.6 10.1 12.3 12.3 13.1 13.5 14.4 14.7 15.9 16.7 17.8 16.9 15.5 17.4 20.2 32.1 49.3 56.8 75.9 77.9 76.8 81 89.6 101.2 108.3 121.8 136.4 152.7 197.7 197.6 197.1 189.5 182.3 163.5 153.3 167.3 178.4 173.1
-1.1 -1.1 -1.1 -1.1 -1.1 -1.1 -1.1 -1.1 -1.1 -1.1 -1.1 -1.1 -1.1 -1.1 -1.1 -1.1 -1.1 -1.1 -1.1 -1.1 -1.1 -1.1 -1.1 -1.1 -1.1 -1.1 -1.1 -1.1 -1.1 -1.1 -1.1 -1.1 -1.1 -1.1 -1.1 -1.1 4 13.7 42.3 100.7 138 145 155.3 162 164.2 167.3 172.8 183.9 192 197.7 194.2 186 179.9 181.5 179.3 170.2 169.5 179.4 178.7 174.5 173.9 171.1 148.5 137.3 126 130.3 128.8 113.4 109.8 95.4 87.1 78.2 71.4 66.4 63.2 63.4 63.6 59.9 60.4 62.3 61.2 55.1 56.7 57.5 54 61.4 60.1 57 50.6 40.8 35.2 32.2 25.4 12.5 9.7 8.5 11.6 36.2 51.4 56.9 52.6 56 58.1 60.5 61.6 84.1 99.6 95.5 95.5 112.3 114.7 125 117.9 120.2 129.8 130.3 125 115.4 105.1 95.4 94.2 74.5 85.7 89.2 84 71.6 61.8 46.9 34.9 21.7 13.5 15.2 6.8 3.6 -1.1 -1.1 -1.1 -1.1 -1.1 -1.1 -1.1 -1.1 -1.1 -1.1 -1.1 1.6 1.9 1.9 1.9 1.6 3.9 6.2 6.8 6.5 6.6 5.6 4.8 4.1 4.5 6.7 7.5 7.9 8.5 9.1 10.8 13.2 9 8.8 9.7 9.7 11.8 13.7 12.7 11.1 11.1 16.4 18.6 19.1 27 31.9 44.4 49.4 62.2 75.9 79 88.1 99.2 105.9 117.3 130.5 155.9 188.7 186.9 184.6 176.1 155.3 148.7 150.1 156.9 160.7
-1.1 -1.1 -1.1 -1.1 -1.1 -1.1 -1.1 -1.1 -1.1 -1.1 -1.1 -1.1 -1.1 -1.1 -1.1 -1.1 -1.1 -1.1 -1.1 -1.1 -1.1 -1.1 -1.1 -1.1 -1.1 -1.1 -1.1 -1.1 -1.1 -1.1 -1.1 -1.1 -1.1 -1.1 -1.1 -1.1 8.3 31.7 64.9 120.4 128.1 138.2 147.8 154.7 164.6 173.4 177.8 178.2 184.1 190.5 191.9 185.4 175.7 180.7 173.1 167.5 163.9 178.6 178.6 169.9 170.9 148.6 129.7 131.1 121.9 114.1 112.3 111.1 104.9 90.2 85.4 80.7 78.5 73.7 72.9 64.8 50.1 55.9 55.6 58.4 57.5 52.9 49.7 52 54.3 54 55.1 53.7 43 36.4 32.4 26.4 18.1 9.8 8.3 9 24.6 39.9 46 49.7 54.1 67.3 72.3 65.5 68.6 101.3 106.3 105 106.2 111.1 117.1 110.6 96.2 101.8 105.7 114.9 114.5 112.5 98 78.3 79.3 71.5 68 73.9 68.1 47.2 35.1 29.7 13.4 5.9 3 -1.1 -1.1 -1.1 -1.1 -1.1 -1.1 -1.1 -1.1 -1.1 -1.1 -1.1 -1.1 -1.1 -1.1 -1.1 1.3 1.7 0.8 -1.1 -1.1 4 3.3 4.8 5.8 4.2 4.6 3.8 4.3 6.6 7.5 8 8.6 9.5 10.1 10.8 8.7 8 9 8.7 9.8 9.7 10.6 11.3 11.6 11.1 13.3 14.5 14.9 18.7 29.1 43.6 47 57.6 60.7 67.9 84.9 92.2 101.7 110.9 133.1 165.2 168.6 165.8 150.6 134.3 130 131.1 130.8 135.8
-1.1 -1.1 -1.1 -1.1 -1.1 -1.1 -1.1 -1.1 -1.1 -1.1 -1.1 -1.1 -1.1 -1.1 -1.1 -1.1 -1.1 -1.1 -1.1 -1.1 -1.1 -1.1 -1.1 -1.1 -1.1 -1.1 -1.1 -1.1 -1.1 -1.1 -1.1 -1.1 -1.1 -1.1 -1.1 9 24 94 115.8 121 126 131.2 140.2 152.8 166.7 173.3 183.4 179.9 178.9 181.7 186.5 176.8 163.5 171 165.2 163 147.3 177.1 170.1 166.3 141.3 138.1 128.5 113.3 106.7 112.4 109.5 93.2 84.8 87.4 81.8 72.9 74.3 63.6 71.8 68.2 58.3 52.4 45.6 48.3 47.6 49.3 46.7 43.4 45.7 47.4 48.1 42.2 36.7 32.1 23.8 18.6 12.3 9.1 7.1 11.6 22.9 37.2 46.9 61.5 70.3 72.2 71.9 71.3 72.2 98.5 103.7 101.3 102.7 99.8 95.7 87.3 99.3 109.4 102.1 95.5 94.6 91.4 71.7 66.2 65.6 63.5 53.4 46.9 39.4 31.4 29.3 11.4 7.3 -1.1 -1.1 -1.1 -1.1 -1.1 -1.1 -1.1 -1.1 -1.1 -1.1 -1.1 -1.1 -1.1 -1.1 -1.1 -1.1 -1.1 -1.1 -1.1 -1.1 -1.1 2.5 2.8 2.6 2.8 2.7 3.6 3.7 3.9 4.4 5.2 7.1 7.9 8.8 9.5 9.6 7.4 7.4 9.3 13.5 13.1 14.4 13.3 12.9 13.2 15.4 11.1 11.8 11.9 12.5 14.8 22.9 33.6 35.6 44.4 52.2 56.5 72.1 79 82.9 99.2 105.7 123.3 124.6 125.8 117.2 115.5 112.1 103.2 97.1 111.1
-1.1 -1.1 -1.1 -1.1 -1.1 -1.1 -1.1 -1.1 -1.1 -1.1 -1.1 -1.1 -1.1 -1.1 -1.1 -1.1 -1.1 -1.1 -1.1 -1.1 -1.1 -1.1 -1.1 -1.1 -1.1 -1.1 -1.1 -1.1 -1.1 -1.1 -1.1 -1.1 -1.1 -1.1 53.9 73.1 85.8 116.6 118.1 118.8 127.9 134.3 140.2 145.8 161.7 174.7 172.6 174.8 175.3 174.5 171.2 163.1 154.5 159.9 156.1 165.1 149.8 160.6 163.1 136.1 139.2 128.4 108.7 102 105.1 102.4 87.5 78.7 81 83.4 76.3 60.6 63.5 60.7 65.9 62.5 56.3 55 45 41.4 37.2 39.3 42 40 39.2 39.7 28.1 25.8 19 16.7 16.8 12.8 9.2 4.8 8 11.6 20.1 31.9 51.1 66.1 65.1 76.8 70.8 58.6 68.6 84.4 88.6 83.6 87.2 81.5 86.9 99.8 106.2 107 103.1 94.9 84.4 70.8 57.1 53.7 41.6 47.3 45.3 36.5 23.3 16.6 10.2 5.1 -1.1 -1.1 -1.1 -1.1 -1.1 -1.1 -1.1 -1.1 -1.1 -1.1 -1.1 -1.1 -1.1 -1.1 -1.1 -1.1 -1.1 -1.1 -1.1 -1.1 -1.1 -1.1 -1.1 2.2 2.8 4.4 3.9 3.5 3.4 4.2 4.7 5 6.4 7.4 7.6 6.9 6.9 6.9 7.6 12.1 22.5 29.2 32.8 27.7 25.5 18 16.8 16.9 13.6 12.9 13.1 13.3 14.8 21.4 26.4 29.9 35.7 48.4 63.1 74.4 70.2 68.7 70.4 84.7 95 95.9 87.8 85.2 85 72.7 74 83.1
-1.1 -1.1 -1.1 -1.1 -1.1 -1.1 -1.1 -1.1 -1.1 -1.1 -1.1 -1.1 -1.1 -1.1 -1.1 -1.1 -1.1 -1.1 -1.1 -1.1 -1.1 -1.1 -1.1 -1.1 -1.1 -1.1 -1.1 -1.1 -1.1 -1.1 -1.1 -1.1 -1.1 7.9 79.5 91.6 103 112.1 113.4 119.2 127.5 135.4 139.8 149.1 156.6 165.1 168.6 174.4 176.1 173.8 158.6 134.2 138.7 146.5 158.5 158.7 154.9 130 126.7 138.4 122.8 104.5 102.9 94.6 88.1 76.1 76.3 74.5 77 72.1 66.5 58.1 49.6 50.4 48 51.8 53.6 53.4 47.7 39.9 34.1 28 31.5 30.4 27.9 18.2 16.1 9.6 8.3 9.2 10.6 8 6.3 5.2 7.1 7.8 12.4 29.5 45.7 58.5 73.9 52.3 50.2 57.6 69.7 70.3 72.4 80.8 79.7 91.8 107.6 112.3 109.5 111.9 105 94.5 82.9 63.6 48.2 41.4 28.5 27.7 27.9 23.9 15 9.6 4.6 -1.1 -1.1 -1.1 -1.1 -1.1 -1.1 -1.1 -1.1 -1.1 -1.1 -1.1 -1.1 -1.1 -1.1 -1.1 -1.1 -1.1 -1.1 -1.1 -1.1 -1.1 -1.1 -1.1 -1.1 3 3.7 4.5 4.1 3.6 3.7 4.4 5.1 5.2 4.9 7.1 7.2 8.1 7 6.9 11.3 22.9 32.9 44.5 50.1 42.4 28.6 20.2 18.5 18.7 19.1 18.9 17.5 15.6 14.8 13.7 17 20.2 24.6 37.2 48.8 51.8 51.5 47.6 56.2 55.4 56 56.8 62.5 60.8 65 54.3 58.1 64.2
-1.1 -1.1 -1.1 -1.1 -1.1 -1.1 -1.1 -1.1 -1.1 -1.1 -1.1 -1.1 -1.1 -1.1 -1.1 -1.1 -1.1 -1.1 -1.1 -1.1 -1.1 -1.1 -1.1 -1.1 -1.1 -1.1 -1.1 -1.1 -1.1 -1.1 -1.1 -1.1 -1.1 20.6 77 89 100.9 106.8 110.9 117 124.1 126.1 132.9 142.1 153.6 156.2 166.7 169.1 172 163.2 134.6 120.9 124.7 145.5 157.3 152.8 145.5 136 134.3 111.5 99.7 99.9 97.8 78.8 73.1 67.5 71.7 68.3 68.8 63.5 59.4 56.2 50.8 38.3 37.9 39.2 46.5 49.2 49.4 39.7 35.1 27.4 11.8 9.8 9.4 7.9 6.3 4.7 5 7.4 5.5 4.2 3.1 3.8 4.7 5.7 9.7 25 39.8 42.9 37.3 39.4 51 57.9 71.2 85.9 87.4 91.5 98.8 114.6 117.8 117 115.7 115.9 110.9 99.2 77.1 58.7 45.1 32.3 20.5 13.8 18.1 11.2 7.7 3.9 -1.1 -1.1 -1.1 -1.1 -1.1 -1.1 -1.1 -1.1 -1.1 -1.1 -1.1 -1.1 -1.1 -1.1 -1.1 -1.1 -1.1 -1.1 -1.1 -1.1 -1.1 -1.1 -1.1 1.5 2.2 2.9 3.4 3.5 4 3.9 4.3 4.6 5 4.8 4.8 5.8 6.3 7 6.5 8.5 15.7 22.5 33.2 46.4 53.1 47.9 39.7 33.6 29.3 23.6 22.6 21 20.2 18.5 16.4 14.5 14.9 14.7 16.7 22.1 28.5 30.7 28.5 24.3 22.7 26.1 25.6 31.7 35.6 35.3 33.2 39.6 39.4 48
-1.1 -1.1 -1.1 -1.1 -1.1 -1.1 -1.1 -1.1 -1.1 -1.1 -1.1 -1.1 -1.1 -1.1 -1.1 -1.1 -1.1 -1.1 -1.1 -1.1 -1.1 -1.1 -1.1 -1.1 -1.1 -1.1 -1.1 -1.1 -1.1 -1.1 -1.1 -1.1 -1.1 21.5 72.8 87.3 96.5 102.4 104.9 107.1 116.9 124.4 126.6 139.3 148.4 160.1 159.9 161.9 161.2 137.1 127.3 119.1 130.8 147.8 147.2 150.6 133.5 126 119.6 99.3 93 94.4 81.1 66.7 65.5 66.9 59.6 60.5 62 59.3 56.3 53.5 44 34.8 35.5 34.7 36.1 39.1 36.1 30 30.4 11.3 9 7.4 5.7 4.5 2.3 1.9 1.9 2 3.1 2.6 2.4 3.4 3.4 4.6 7.3 11.1 21.9 23.6 31.6 48.4 63.1 72.7 83.5 93.9 97.1 103 118.1 133 137.3 133.6 126.1 119.6 109.1 95 77.4 56 35.7 25 18.7 10.1 7.6 3.3 -1.1 -1.1 -1.1 -1.1 -1.1 -1.1 -1.1 -1.1 -1.1 -1.1 -1.1 -1.1 -1.1 -1.1 -1.1 -1.1 -1.1 -1.1 -1.1 -1.1 -1.1 -1.1 -1.1 -1.1 -1.1 1.9 2.5 3.8 4.1 4.4 4.8 4.7 4.8 4.8 7.6 4.8 4.8 5.4 5.9 6.4 7.2 9.1 11.2 14.4 26.2 41.6 47.9 51 53.1 52.5 45.9 39.3 29.6 22.2 20.9 18.8 16.8 15 14.9 15 14.4 15.9 16.5 16.1 17 17.3 17.6 17.9 18.4 18.6 19.2 21 23.5 27.2 30.8 32.4
-1.1 -1.1 -1.1 -1.1 -1.1 -1.1 -1.1 -1.1 -1.1 -1.1 -1.1 -1.1 -1.1 -1.1 -1.1 -1.1 -1.1 -1.1 -1.1 -1.1 -1.1 -1.1 -1.1 -1.1 -1.1 -1.1 -1.1 -1.1 -1.1 -1.1 -1.1 -1.1 9.1 22.5 78.3 88.9 96.1 102.2 105.6 101.6 107.3 114.5 127 136.3 145.8 151.4 152.6 151.5 138.5 126.4 112.5 105.2 130.7 146.1 144 137.2 125.7 117.7 100.5 97 90.8 80.4 65.4 60.7 63.7 66.6 56 50.1 51.5 49.8 50.4 45.1 37.1 32.9 28.3 29.4 29.7 32.1 30.2 21.2 7.5 6.2 5.9 4.7 4 1.9 1.9 1.9 1.9 1.9 2.2 2.2 2.6 3.3 3.9 4.8 6.5 9.9 14 18 35.5 59.8 66.4 77.3 85.3 92.3 93.5 116.5 121.7 129 135.7 132.3 124.7 111.3 102.8 85.5 61.4 35.1 20.8 15.9 11.6 6.3 -1.1 -1.1 -1.1 -1.1 -1.1 -1.1 -1.1 -1.1 -1.1 -1.1 -1.1 -1.1 -1.1 -1.1 -1.1 -1.1 -1.1 -1.1 -1.1 -1.1 -1.1 -1.1 -1.1 -1.1 -0.7 -0.5 0.8 2.3 3.3 4.3 4.7 5.1 5.2 5.3 4.8 4.8 4.8 4.8 4.9 5.2 5.5 5.7 6.5 7.6 10.3 11.9 17.1 30.3 40.9 50.4 56.2 60.6 59.2 57.3 47.4 39.4 29.1 25 21.7 16.2 14.8 15.6 15.9 16 16 16.8 15.6 17 17.9 17.5 17.5 18.9 18.2 18.9 20 21.9 21.9 23.9
-1.1 -1.1 -1.1 -1.1 -1.1 -1.1 -1.1 -1.1 -1.1 -1.1 -1.1 -1.1 -1.1 -1.1 -1.1 -1.1 -1.1 -1.1 -1.1 -1.1 -1.1 -1.1 -1.1 -1.1 -1.1 -1.1 -1.1 -1.1 -1.1 -1.1 -1.1 10.8 40.8 39.9 77.6 87 90.6 96.6 100.2 97.5 92.9 100 111.8 133.1 140.6 147.3 146.3 138.4 125.2 109.2 99.1 101.2 116.8 130.5 127.1 129.3 129.2 117.8 102.6 87.7 71.4 67.9 64.7 59.8 57.6 53.8 47.8 44.8 42.1 42.6 42.8 35.9 29.9 26.6 23.2 21.8 23.1 23.7 19.6 6.7 3.8 4 3.6 1.9 1.6 1.2 1 1 1.9 1.6 2 2.4 2.8 3.2 4.3 5.8 10.7 17.4 32.4 37.8 43.1 47.5 69.4 82.2 81.8 86.6 97.3 102.6 112.5 120.5 120.9 110.4 105.8 96.4 85.7 64.9 46.9 20.2 8.9 4.4 -1.1 -1.1 -1.1 -1.1 -1.1 -1.1 -1.1 -1.1 -1.1 -1.1 -1.1 -1.1 -1.1 -1.1 -1.1 -1.1 -1.1 -1.1 -1.1 -1.1 -1.1 -1.1 -1.1 -1.1 -1.1 -0.6 -0.2 0.2 1 2.1 4.2 4.1 5.3 5.7 5.5 5.3 4.8 4.8 4.8 4.8 5.2 5.4 5.5 5.7 7 8.2 10.9 12.8 15.3 23.1 32.1 43.6 50.4 59.9 72.7 66.6 63 57 51.8 45 31.3 20.3 16.1 15.5 16.1 16.8 16.4 16.6 17.1 17.5 17.9 18.2 18.4 18.2 18.4 19.5 20.3 19.9 20.6 21.3
-1.1 -1.1 -1.1 -1.1 -1.1 -1.1 -1.1 -1.1 -1.1 -1.1 -1.1 -1.1 -1.1 -1.1 -1.1 -1.1 -1.1 -1.1 -1.1 -1.1 -1.1 -1.1 -1.1 -1.1 -1.1 -1.1 -1.1 -1.1 -1.1 -1.1 -1.1 11.8 56 69.2 72.9 87.1 87.2 89.6 93.8 88.5 91.6 94.9 99.4 116.1 137 141.6 135.5 115 105.4 103.4 83 87.3 99.5 111.3 120 123.2 118.4 98.6 99.6 83 70.1 56.6 58.7 55.6 53.9 45.6 43 41.3 34.3 35.7 34.2 30.1 24.4 23.1 12 11.5 9.9 8 5.8 3 2.7 -1.1 1.3 0.5 -1.1 -1.1 -1.1 -1.1 1.9 2.6 3.2 5.5 5.1 6.4 9.7 22.8 31.5 52.3 59.6 66.7 68 69 68.8 81.2 95.4 97.2 104.1 112 100.6 104.3 107.2 101.3 89.9 78.8 64.5 40.7 18.1 9.9 -1.1 -1.1 -1.1 -1.1 -1.1 -1.1 -1.1 -1.1 -1.1 -1.1 -1.1 -1.1 -1.1 -1.1 -1.1 -1.1 -1.1 -1.1 -1.1 -1.1 -1.1 -1.1 -1.1 -1.1 -1.1 -1.1 -0.5 -0.1 0.4 0.8 1.4 3.8 3.4 5.6 5.9 6 5.9 6.9 5.9 5.7 4.8 5.1 5 5.5 5.6 5.8 7.5 9.3 11.1 12.5 16.2 19.9 25.2 31.8 40.7 50.4 64 70.4 72.3 68.8 68.7 61.8 50.3 35.7 21.9 18.5 17.1 17.9 16.8 17 17.3 18.2 18 18 19 19.8 19.3 19.5 20.5 20.6 21 21.3
-1.1 -1.1 -1.1 -1.1 -1.1 -1.1 -1.1 -1.1 -1.1 -1.1 -1.1 -1.1 -1.1 -1.1 -1.1 -1.1 -1.1 -1.1 -1.1 -1.1 -1.1 -1.1 -1.1 -1.1 -1.1 -1.1 -1.1 -1.1 -1.1 -1.1 -1.1 10.6 49.2 73 77 73.1 80.2 83.1 75.1 81 93.9 91.6 98.3 99.2 114.3 124.4 106.8 103.4 92.8 78.2 65.6 76.5 87.7 103.8 109 109.9 97.8 93.1 93.2 79.9 56.8 52.5 46 52.7 44.4 40 36.2 30.3 25.1 24.4 12.2 9.9 10.6 8.9 8.4 7.8 5.5 4.6 3.4 2.8 2.2 -1.1 -1.1 -1.1 -1.1 -1.1 -1.1 6.3 7.7 6.7 10.7 20.9 10.7 21.6 43.5 64.8 69.8 73.5 80.9 78.7 90.6 88.7 97.6 105.5 113.8 111.6 115.1 114.3 109.6 99.8 88.9 87.3 78.7 61.3 44.6 33.7 13.4 4.5 -1.1 -1.1 -1.1 -1.1 -1.1 -1.1 -1.1 -1.1 -1.1 -1.1 -1.1 -1.1 -1.1 -1.1 -1.1 -1.1 -1.1 -1.1 -1.1 -1.1 -1.1 -1.1 -1.1 -1.1 -0.6 -0.2 0 0.5 0.9 1.4 2.7 2.1 2.6 5.3 6.6 7.5 8.1 7.9 8.8 9.1 6.5 7.4 6.1 7.1 7.5 8.5 10.1 12 14.5 16.1 18.6 22 24.7 30 36.2 44.1 54.8 67.4 77.4 86.3 77.1 68.5 60.7 49.8 38.5 27.6 19.3 20.6 19.6 19.2 20.5 23.3 21.2 20.8 19.7 21.8 21.4 22.1 22.1 20.7 20.7 21.9
-1.1 -1.1 -1.1 -1.1 -1.1 -1.1 -1.1 -1.1 -1.1 -1.1 -1.1 -1.1 -1.1 -1.1 -1.1 -1.1 -1.1 -1.1 -1.1 -1.1 -1.1 -1.1 -1.1 -1.1 -1.1 -1.1 -1.1 -1.1 -1.1 -1.1 -1.1 9.6 41.1 72.6 73.6 67.5 66.9 70.8 78.8 82.8 79.7 83.7 95.6 93 96.7 79.7 78 74.8 67.6 61.4 48.1 71.9 81.2 89.9 95.8 89.4 89 84.6 82.9 68 55.5 53.6 40.1 42.1 36.6 28.2 26.2 22.5 19 29.5 12.1 10.4 9.7 8.6 8.2 8.2 10.1 6.5 3.9 2.1 1.9 -1.1 1.9 0.6 -1.1 -1.1 6.1 10.5 10.6 19.4 34.5 27.8 31.8 57.9 71.6 87.2 88.1 91.3 93.6 100 103 113.6 125.2 129 126.4 127.5 129 122.5 111.8 105.3 93 85.4 88.3 71.7 49.9 28.4 10.4 1.8 -1.1 -1.1 -1.1 -1.1 -1.1 -1.1 -1.1 -1.1 -1.1 -1.1 -1.1 -1.1 -1.1 -1.1 -1.1 -1.1 -1.1 -1.1 -1.1 -1.1 -1.1 -1.1 -1.1 -1.1 0.3 0.7 0.9 1.1 1.5 1.8 1.9 1.9 2.7 6.2 7.4 8.9 9.2 9 10.5 12.4 18.8 21.2 21.1 21 21.6 22.2 27.2 32.4 32.4 35.2 28.2 31.3 34.9 43.7 53.5 61.4 70.8 78.6 77.8 82.4 79.2 73.6 70.8 61.3 54.6 44.3 31.9 24.2 24 27.8 26 26.1 27.4 27.3 26 26.2 24.8 24.9 24.4 22.5 21.4 23.3
-1.1 -1.1 -1.1 -1.1 -1.1 -1.1 -1.1 -1.1 -1.1 -1.1 -1.1 -1.1 -1.1 -1.1 -1.1 -1.1 -1.1 -1.1 -1.1 -1.1 -1.1 -1.1 -1.1 -1.1 -1.1 -1.1 -1.1 -1.1 -1.1 -1.1 -1.1 9.1 27.3 49.6 59.9 59.7 69.7 75.8 69.6 79.2 79 82.3 98 93.9 76.4 65.9 60.4 57.8 56.1 51.6 52.7 64.9 71.3 74.6 79.4 82.9 79.7 75.8 79.5 57.6 53.5 47.3 35.8 33.4 40.2 43.6 41.4 38.6 17.2 15.4 12.5 11.3 11.1 17.7 24.5 23.4 13.7 9.1 6.1 3.8 3.6 4.2 1.8 0 -1.1 1.4 7.5 8 13.2 22.2 49.6 39.6 48.9 72.4 83.8 91.5 105 105.3 100.8 103 112.1 133.2 133.9 144.1 137.2 130.8 126.4 120.1 109.6 99.4 91.1 90.4 79.3 64.8 52.6 36.7 22.6 -1.1 -1.1 -1.1 -1.1 -1.1 -1.1 -1.1 -1.1 -1.1 -1.1 -1.1 -1.1 -1.1 -1.1 -1.1 -1.1 -1.1 -1.1 -1.1 -1.1 -1.1 -1.1 -1.1 -1.1 0.2 1 1.6 1.7 2 3 2.1 1.9 1.9 3.4 7.3 8.6 10.2 11.4 11 18.8 31 44 54 62.9 60.9 56 51.6 52.9 56.5 58.7 60.2 52.7 42.8 46.9 63.4 67 73.5 88.8 94.5 98 96.6 91.7 90 87.5 77.8 72 61.4 48.9 35.1 36.3 38.6 31 29.4 30.5 28.7 30.5 31.4 29.8 30.1 29.1 28.7 27.1 24.9
-1.1 -1.1 -1.1 -1.1 -1.1 -1.1 -1.1 -1.1 -1.1 -1.1 -1.1 -1.1 -1.1 -1.1 -1.1 -1.1 -1.1 -1.1 -1.1 -1.1 -1.1 -1.1 -1.1 -1.1 -1.1 -1.1 -1.1 -1.1 -1.1 -1.1 -1.1 1.9 33 42.1 49.8 69 74.5 70.2 70.7 66.3 68.4 73 82.9 87 68 63.5 51.6 40.7 36.5 36.4 51.6 57.4 65.4 63.3 70.4 68.5 72.3 71.6 62.3 44.4 43.2 51.9 55.3 66 61 55.5 44.6 35.9 19.9 15.9 14 13.4 22.7 27.2 32.4 17 12.7 10.6 8.4 6.3 6.7 5.2 2 -1.1 -1.1 1.7 5.6 9.6 18.9 35.6 37.1 49.6 67.7 80.1 93.2 106.7 111.8 107.8 102 102.5 120.1 140.9 142.1 147.7 143.8 139.6 128.4 115 102.3 92 84.2 81.6 65.6 52.5 46.9 33.2 18.5 -1.1 -1.1 -1.1 -1.1 -1.1 -1.1 -1.1 -1.1 -1.1 -1.1 -1.1 -1.1 -1.1 -1.1 -1.1 -1.1 -1.1 -1.1 -1.1 -1.1 -1.1 -1.1 -1.1 1.6 2.5 4.7 4.7 10.9 6.3 7.9 9 8.6 7.3 8.7 10.5 13.4 23.6 16.1 25.1 28.7 40.3 56.2 70.3 84.6 88.1 84.8 79.6 74.9 74.2 78.6 80.8 85.9 67.7 56.6 67.6 86.6 93 99 105.8 111.8 116.3 115.6 113.7 113.6 106 99.4 89.4 72.6 48.5 48.6 47.2 45.2 44.2 42 42.5 38.7 42.6 43.7 39.7 38.4 39.2 38.2 34.6
-1.1 -1.1 -1.1 -1.1 -1.1 -1.1 -1.1 -1.1 -1.1 -1.1 -1.1 -1.1 -1.1 -1.1 -1.1 -1.1 -1.1 -1.1 -1.1 -1.1 -1.1 -1.1 -1.1 -1.1 -1.1 -1.1 -1.1 -1.1 -1.1 -1.1 -1.1 6.6 34.6 44.6 50 61.4 66.1 64.4 65.5 66.2 55.5 65.1 76 66.5 64.3 59.2 45.9 35.4 25.2 26 36.1 47 51.2 57.6 54.1 58.8 56.6 43.5 44.2 47.9 51.4 62 65.8 69.4 69.7 55.9 49.6 38.7 35 33 31.7 29.1 25.7 25.5 17.1 9.6 10.3 9.4 9.1 8.9 10.1 5 -1.1 -1.1 1.4 5.2 9.5 17.2 26.9 30.7 38.5 63.9 76.2 84.6 96.2 102.5 100.3 102.2 96.8 116.7 129.8 139.7 146.8 145.4 146.3 135.2 124.5 106.3 90.5 78.1 71.3 62.8 53.9 42.2 39.1 23.1 7.7 -1.1 -1.1 -1.1 -1.1 -1.1 -1.1 -1.1 -1.1 -1.1 -1.1 -1.1 -1.1 -1.1 -1.1 -1.1 -1.1 -1.1 -1.1 -1.1 -1.1 -1.1 4.9 9 10.7 13.7 19.5 25.8 30.4 25 29.4 31.2 22.8 31.8 30.2 24.9 29.1 30.9 21.7 35.6 39.9 46.7 58 79.9 103.3 103.1 106.9 93.6 100.2 97.7 98.6 100.4 111.7 99.7 73.9 77.2 92.7 100.1 109.2 115.9 120.2 124.3 128.9 133.6 139.4 137 124.6 110.4 102.5 79.8 80.8 76.7 72.6 65.6 57.2 54.1 52.6 53.2 54.8 52.2 51.8 52.7 52.1 51.1
-1.1 -1.1 -1.1 -1.1 -1.1 -1.1 -1.1 -1.1 -1.1 -1.1 -1.1 -1.1 -1.1 -1.1 -1.1 -1.1 -1.1 -1.1 -1.1 -1.1 -1.1 -1.1 -1.1 -1.1 -1.1 -1.1 -1.1 -1.1 -1.1 -1.1 -1.1 -1.1 26 36.9 48.6 57.7 59.8 58.6 61.4 57.8 51.1 58.7 66.3 58.5 59.8 59 43 28.7 21.1 21.5 27.7 39.5 41.6 41.6 40.4 40.5 41.2 58.7 67.5 60.9 61 69.6 69.3 72.7 66.2 63.6 51.8 34.1 31.4 34.6 33.1 25.8 26.6 9.5 8 8.6 9.3 9.2 10.2 10.2 6.3 -1.1 -1.1 1.3 5.8 7.8 9.4 19.6 21.8 24.1 47 72.8 73.3 87.9 103.2 95.9 97.4 96.7 93 121.4 131.6 136.7 140.3 139.4 136.7 131.3 122.1 98.3 78 68.6 59 46.3 37.5 30.7 28.9 11.9 -1.1 -1.1 -1.1 -1.1 -1.1 -1.1 -1.1 -1.1 -1.1 -1.1 -1.1 -1.1 -1.1 -1.1 -1.1 -1.1 -1.1 -1.1 -1.1 6.8 16.4 19.5 11.3 23 21.1 28.2 28.4 34.1 41.4 38 40.7 43.5 49.6 50.5 52.7 46.8 38.4 39.7 34.1 27.2 42.1 49.5 62.9 82.4 109.2 114.3 114.5 117.4 115.1 115.2 115.1 116.2 121.3 124.5 105 87 98.9 103.5 115 128.3 121.7 124.4 137.9 153.8 156.6 155.1 145 134.6 121 108.8 108.1 105.5 102 98.3 85 80 77.6 76.6 73 68.8 69 69.7 70.6 68.3
-1.1 -1.1 -1.1 -1.1 -1.1 -1.1 -1.1 -1.1 -1.1 -1.1 -1.1 -1.1 -1.1 -1.1 -1.1 -1.1 -1.1 -1.1 -1.1 -1.1 -1.1 -1.1 -1.1 -1.1 -1.1 -1.1 -1.1 -1.1 -1.1 -1.1 -1.1 -1.1 17.9 34.8 42.7 47.8 49.8 49.8 43.4 54.7 65.8 70 70.3 57.5 53.1 46.9 33.3 22.5 19.4 19.1 22.3 28.6 33.3 35.8 35.6 42 58.8 69.2 70.3 69 74.9 67.6 72.6 75.7 71.6 60 44.8 31.2 29.8 31.7 25.9 26.5 9.1 6.8 6.9 8.3 9 9.9 8.1 -1.1 -1.1 -1.1 -1.1 7 9.6 14.9 20.6 22.3 13.7 21.3 37.7 42.3 49.3 55.6 56.7 60.8 68.5 65.3 89.7 111.7 128 132 131.3 128.3 126.5 129.7 114.8 97.4 72.7 54.8 49.9 32.7 22.4 17.7 14.7 -1.1 -1.1 -1.1 -1.1 -1.1 -1.1 -1.1 -1.1 -1.1 -1.1 -1.1 -1.1 -1.1 -1.1 -1.1 -1.1 -1.1 -1.1 7.1 8.7 17.3 25.1 27.3 29.5 30.5 36.4 41.6 39.3 42.9 45.2 48.5 53.9 59.9 65.7 70.3 73.7 70.7 53.2 43.2 41 27.4 42.6 46.5 63.3 84 107.5 119.4 128.1 130.4 134.8 130.2 131.6 134.9 139.2 142.5 128.5 112.2 105.8 107 108.9 117.8 128.6 137.5 149.6 164.7 175.5 177.3 167.7 158.7 131.8 132.7 132.5 132.2 131.1 123.2 111.4 103.9 94.9 92.6 96.8 85.1 84 86.1 83.8 80
-1.1 -1.1 -1.1 -1.1 -1.1 -1.1 -1.1 -1.1 -1.1 -1.1 -1.1 -1.1 -1.1 -1.1 -1.1 -1.1 -1.1 -1.1 -1.1 -1.1 -1.1 -1.1 -1.1 -1.1 -1.1 -1.1 -1.1 -1.1 -1.1 -1.1 -1.1 -1.1 12.1 28.4 37.5 41.5 33.5 32.8 49.5 67.8 90.6 94.8 75.5 61 47.4 33.9 27.2 19.3 18.9 18.2 19.8 23.2 31 33.8 40.6 50.7 62.3 68.3 66.3 74.2 69.2 69.4 78.6 81.7 71.5 60 41.4 28.9 24 15.4 10.8 8.2 6.5 5.6 8 10.8 9.6 8.8 1.2 -1.1 -1.1 -1.1 -1.1 6.2 12.1 29.5 29.8 11.3 6.5 11.7 26.3 31.5 34.7 36.5 42.8 44.9 47.1 45.3 83.8 99.2 116.2 118.5 110.5 105.8 104.6 111.8 107.2 89.1 63.6 44.3 22.2 23.2 9.3 6.4 3.4 -1.1 -1.1 -1.1 -1.1 -1.1 -1.1 -1.1 -1.1 -1.1 -1.1 -1.1 -1.1 -1.1 -1.1 -1.1 -1.1 -1.1 4 8.6 11.6 20 25 30.7 36.7 34.4 39.2 47.9 47.8 55.9 63 65.1 67.5 77.2 88.3 97.1 103.3 95.5 79.8 60.7 48.5 36.7 40.7 47.6 58.9 81.1 102.5 119.8 136 137.6 147.6 140.2 143.9 151.7 146.1 145.9 146.2 131.1 119.1 110.4 111.2 132.6 165.7 172.6 175.8 179.7 183.9 185.8 181.8 163.9 156.2 151.7 151.1 151.8 154.3 143.5 147.3 129.2 121.1 118.3 120.1 116.8 117.6 107.6 96.4 103.3
-1.1 -1.1 -1.1 -1.1 -1.1 -1.1 -1.1 -1.1 -1.1 -1.1 -1.1 -1.1 -1.1 -1.1 -1.1 -1.1 -1.1 -1.1 -1.1 -1.1 -1.1 -1.1 -1.1 -1.1 -1.1 -1.1 -1.1 -1.1 -1.1 -1.1 -1.1 -1.1 9.5 11.8 11.6 11.2 24.5 45.3 63.8 83.2 97.9 97.4 79.7 63.4 42.4 24.4 24.1 19.3 18.2 19.2 20.9 23.2 27 33.1 39.4 47.1 59.3 69 68.1 76.1 71.9 70.2 80.8 90.2 83.9 61.5 34 17.3 8.4 6.1 6.8 5.7 4.5 7.6 10.9 11 7.6 -1.1 -1.1 -1.1 -1.1 -1.1 -1.1 -1.1 8 19.1 11.6 3.6 1.6 2.4 6.6 11 19.3 22.8 34.3 36.6 39.8 37.3 52.1 90 103.4 106.6 102.3 91 79.8 78.4 84.1 76.7 49.9 19.3 7.6 6.6 1.4 -1.1 -1.1 -1.1 -1.1 -1.1 -1.1 -1.1 -1.1 -1.1 -1.1 -1.1 -1.1 -1.1 -1.1 -1.1 -1.1 -1.1 -1.1 2.4 6.1 9.6 12.5 18.5 26.2 33.4 36 40.6 47 58 65.9 73.8 82 79.2 92 102.8 111.1 118.3 123.2 122.5 108.3 90 72.3 55.9 39.5 48.9 67.9 82.1 102.7 123.6 135.3 142.8 162 155.2 160.3 159.1 157.5 151.3 149.1 137.4 131.3 128.4 125.7 147.5 170.1 185.6 186 187.5 186.3 187.8 183.8 174.1 166.5 170 173.4 175.5 174.2 171.1 173.1 169.6 162.7 159.2 163.7 174.3 143.2 133.1 109.2 120.7
-1.1 -1.1 -1.1 -1.1 -1.1 -1.1 -1.1 -1.1 -1.1 -1.1 -1.1 -1.1 -1.1 -1.1 -1.1 -1.1 -1.1 -1.1 -1.1 -1.1 -1.1 -1.1 -1.1 -1.1 -1.1 -1.1 -1.1 -1.1 -1.1 -1.1 -1.1 -1.1 -1.1 -1.1 2.9 11 34.4 55.2 72 89.8 100.3 92.3 72.7 51.3 25.9 20 18.5 18.2 19.2 21.7 30.3 35.8 30.2 34.5 40.8 51.7 66 69.4 77 79.1 82.5 78.1 85.9 92 78.8 59.4 29.6 11 5.7 3.9 4.1 4.2 4 7.1 9.6 8 -1.1 -1.1 -1.1 -1.1 -1.1 -1.1 -1.1 -1.1 -1.1 -1.1 -1.1 -1.1 -1.1 -1.1 -1.1 1.7 4.2 8.5 17.3 37.5 31.4 25.7 38.4 69.2 90.9 104.8 99.3 81.5 64.3 52.3 54.5 56.8 26.4 5.6 -1.1 -1.1 -1.1 -1.1 -1.1 -1.1 -1.1 -1.1 -1.1 -1.1 -1.1 -1.1 -1.1 -1.1 -1.1 -1.1 -1.1 -1.1 -1.1 1.1 3.6 6 7.1 10.8 14.3 18.4 24.3 34.2 41 52.1 60.5 68.5 76.8 86.5 90.2 89.6 104.7 123.3 134.8 139.8 137 140.3 137.1 115.9 92.2 77.7 57.5 48.3 61.4 81.6 97.8 118.9 134.9 149.6 158.7 162.4 171.8 171.3 169.8 163.6 150.6 153.6 147.7 145.3 142.8 164.5 184.5 189.8 191.5 192.9 192.2 186.6 181.7 175.6 173.2 181 187.7 192.7 195 191.8 192.6 191.9 189.3 187.8 193.9 190.9 170.3 155.8 141.9 136.9
-1.1 -1.1 -1.1 -1.1 -1.1 -1.1 -1.1 -1.1 -1.1 -1.1 -1.1 -1.1 -1.1 -1.1 -1.1 -1.1 -1.1 -1.1 -1.1 -1.1 -1.1 -1.1 -1.1 -1.1 -1.1 -1.1 -1.1 -1.1 -1.1 -1.1 -1.1 -1.1 -1.1 -1.1 5.7 15.2 47.4 73 75.1 85.7 93.5 82 58.9 35.7 23.2 18.4 18.5 20.2 23 30.9 38.5 41.3 50.1 42.7 47.5 54.7 59.3 70.5 79.3 86.2 88.3 83.2 82.2 81.8 65.7 41.8 27.3 8.1 3.7 1.4 1.8 3 5.9 6.6 6.4 -1.1 -1.1 -1.1 -1.1 -1.1 -1.1 -1.1 -1.1 -1.1 -1.1 -1.1 -1.1 -1.1 -1.1 -1.1 -1.1 -1.1 -1.1 2.7 10.2 25 14.6 13.2 22.5 56.3 72.9 79.2 84.2 79.8 57.4 40.5 33.2 27.7 6.2 -1.1 -1.1 -1.1 -1.1 -1.1 -1.1 -1.1 -1.1 -1.1 -1.1 -1.1 -1.1 -1.1 -1.1 -1.1 -1.1 -1.1 -1.1 -1.1 -1.1 3.1 5.9 7.6 10 14.2 32.6 29.5 34.4 44.5 56.5 65 74.1 84.8 83.6 98.9 95.1 103.7 118.9 131.3 140.6 148.8 149.5 150.9 148.4 137.8 117.6 101.4 75.7 61 57.8 75.5 98.2 117.5 135.8 150.3 167.8 169.5 196.3 194.3 192.3 188.1 165.8 158.3 160.7 146.2 154.3 177.4 183.6 192.3 195 197.7 195.9 189.1 183.5 181.9 179.8 190.7 198.8 210.6 219.2 206.1 206.5 206.6 205.9 205.8 202.9 193.4 178 177.8 193.2 167.7
-1.1 -1.1 -1.1 -1.1 -1.1 -1.1 -1.1 -1.1 -1.1 -1.1 -1.1 -1.1 -1.1 -1.1 -1.1 -1.1 -1.1 -1.1 -1.1 -1.1 -1.1 -1.1 -1.1 -1.1 -1.1 -1.1 -1.1 -1.1 -1.1 -1.1 -1.1 -1.1 -1.1 -1.1 1.9 17.1 47.9 73.3 76.2 90 91.4 74.3 34.9 27 25.3 18 21.8 29.3 34.3 34.1 43.7 53 59.4 61.4 54.2 57.3 67.9 71.3 80.4 84.4 84.1 82.7 62.2 68.1 46.5 31.3 20.7 7.4 1.8 1.2 1.8 5.3 3.8 5 -1.1 -1.1 -1.1 -1.1 -1.1 -1.1 -1.1 -1.1 -1.1 -1.1 -1.1 -1.1 -1.1 -1.1 -1.1 -1.1 -1.1 -1.1 -1.1 -1.1 3.3 7.3 8.1 8 9.7 30.2 46.2 74.8 77 77.7 51.1 36.4 13 -1.1 -1.1 -1.1 -1.1 -1.1 -1.1 -1.1 -1.1 -1.1 -1.1 -1.1 -1.1 -1.1 -1.1 -1.1 -1.1 -1.1 -1.1 -1.1 -1.1 -1.1 1.2 5.8 9.2 11.9 26.9 35.2 35.4 39.5 46.8 53.2 69.1 80.2 91.1 101 101 103.7 106.8 115.6 128.2 137.4 148.1 160.5 169.4 169.2 164.7 151.8 149.1 126.5 100.7 77.3 67.6 71.4 90.1 113.5 131.2 164.1 169.9 175.3 198.7 207.1 198.4 207.3 197.7 172.1 168.2 158.8 155.6 169.1 181.7 189.3 196.9 203.3 200.8 195.7 191.4 184.7 190.1 197.5 205.4 214.7 227.6 214.6 211.4 213.5 214.4 209.3 202.9 185.4 195 203.9 195.7 194.3
-1.1 -1.1 -1.1 -1.1 -1.1 -1.1 -1.1 -1.1 -1.1 -1.1 -1.1 -1.1 -1.1 -1.1 -1.1 -1.1 -1.1 -1.1 -1.1 -1.1 -1.1 -1.1 -1.1 -1.1 -1.1 -1.1 -1.1 -1.1 -1.1 -1.1 -1.1 -1.1 -1.1 1.7 11.6 13.8 36.5 57.8 57.8 68.3 40.1 25.9 22.3 19.3 16.8 20.7 26.6 35 44.4 45.2 54.1 71.2 80.5 78.5 74.5 69.7 74.3 70.5 76 73.5 67.8 68.9 40.2 51.5 35.3 23 9.4 3.2 0.8 -1.1 0.1 -1.1 -1.1 -1.1 -1.1 -1.1 -1.1 -1.1 -1.1 -1.1 -1.1 -1.1 -1.1 -1.1 -1.1 -1.1 -1.1 -1.1 -1.1 -1.1 -1.1 -1.1 -1.1 -1.1 -1.1 6.6 7 4.6 4.1 11.5 25.6 41.8 61.6 67.4 49 19.2 4.7 -1.1 -1.1 -1.1 -1.1 -1.1 -1.1 -1.1 -1.1 -1.1 -1.1 -1.1 -1.1 -1.1 -1.1 -1.1 -1.1 -1.1 -1.1 2.2 4.7 7.6 14 18.5 20.1 22.2 34.9 43.7 57.9 60.1 63.6 67.1 78 94 108 118.8 115.6 110.4 120.8 132.3 135.5 156.5 163.3 176.2 194.3 194.7 181.1 163.8 159.5 154 127 100.4 79.3 63.4 84.4 108.5 122.3 150.3 170.4 179.9 201.7 210.8 201.9 208.7 209.1 193.5 187.2 177 161.9 166.4 174.8 184.8 195.9 204.1 204.6 200.2 192.2 192.9 202.5 199.5 208.4 220.8 227.9 219.1 214.8 217.7 214.6 207.9 196.4 201.3 203.4 206.5 203.1 208.6
-1.1 -1.1 -1.1 -1.1 -1.1 -1.1 -1.1 -1.1 -1.1 -1.1 -1.1 -1.1 -1.1 -1.1 -1.1 -1.1 -1.1 -1.1 -1.1 -1.1 -1.1 -1.1 -1.1 -1.1 -1.1 -1.1 -1.1 -1.1 -1.1 -1.1 -1.1 -1.1 -1.1 6.8 8.8 6.3 9.1 8.1 10.2 11.7 9.9 10.9 6.5 26.2 27.8 31.1 39.4 56.5 63.6 62.1 64.4 72 86.7 81.2 86 76.5 77.6 75 71.6 67.2 58.2 45.4 35 35.2 22.3 10.8 6.6 -1.1 -1.1 -1.1 -1.1 -1.1 -1.1 -1.1 -1.1 -1.1 -1.1 -1.1 -1.1 -1.1 -1.1 -1.1 -1.1 -1.1 -1.1 -1.1 -1.1 -1.1 -1.1 -1.1 -1.1 -1.1 -1.1 -1.1 -1.1 -1.1 -1.1 -1.1 -1.1 1.7 8.3 25.4 35.9 41.9 25.7 4.6 -1.1 -1.1 -1.1 -1.1 -1.1 -1.1 -1.1 -1.1 -1.1 -1.1 -1.1 -1.1 -1.1 -1.1 -1.1 -1.1 -1.1 8.3 12.2 16.8 23.7 36 39.7 41.6 45.1 43.7 47.3 66.3 78.3 84.6 79.6 82.7 84.9 107.4 115.4 127.7 121.5 123.9 139.2 155.4 157.8 161.1 176.8 185.2 197.7 205 193.6 180.2 172.7 169.6 152.4 129.1 99.9 82.7 67.3 92.8 112.4 131.9 153.9 181.9 198.5 207.2 205.3 210.4 213.4 206.3 200.9 197.5 186.6 178.8 177.5 180.6 195.4 205.3 207.8 200 198.9 200.3 206.8 205.3 214.6 226.4 231.5 221.4 223 222.1 214.9 202.9 211.8 210.4 208 206.3 213.7 220.3
-1.1 -1.1 -1.1 -1.1 -1.1 -1.1 -1.1 -1.1 -1.1 -1.1 -1.1 -1.1 -1.1 -1.1 -1.1 -1.1 -1.1 -1.1 -1.1 -1.1 -1.1 -1.1 -1.1 -1.1 -1.1 -1.1 -1.1 -1.1 -1.1 -1.1 -1.1 -1.1 -1.1 -1.1 -1.1 -1.1 -1.1 6.5 -1.1 -1.1 2.1 -1.1 -1.1 18.2 29.5 36 63.9 68.3 70.8 67.5 73.7 79.8 84.8 82.8 88.9 81.9 86.1 80.6 63.1 56.8 44.1 34.8 28.5 14 9.7 8 1.8 -1.1 -1.1 -1.1 -1.1 -1.1 -1.1 -1.1 -1.1 -1.1 -1.1 -1.1 -1.1 -1.1 -1.1 -1.1 -1.1 -1.1 -1.1 -1.1 -1.1 -1.1 -1.1 -1.1 -1.1 -1.1 -1.1 -1.1 -1.1 -1.1 -1.1 -1.1 -1.1 -1.1 -1.1 3.6 11.9 4.2 -1.1 -1.1 -1.1 -1.1 -1.1 -1.1 -1.1 -1.1 -1.1 -1.1 -1.1 -1.1 -1.1 -1.1 -1.1 -1.1 -1.1 4.2 21.2 36 41.9 38.7 45.1 51.9 57.1 67.1 70.3 69.1 62.5 83.7 97.1 108.4 102.6 103.1 93.8 108.3 121.5 128.4 140.1 146.9 153.2 165.6 178.7 192.3 191.9 200.6 205.6 208.9 203 195.3 183.8 179 169.7 153.4 122.9 99.9 86.2 79.7 97.5 120.8 140.2 160.8 191.1 200 203.8 219 213.1 211.3 208.2 206.4 207.7 193.2 189 184.4 195 205.8 205.2 205.8 207.4 208.2 209.3 213 214.4 226.5 223.1 222.1 221.9 220.1 209.3 216.6 220 217 211.5 213.4 217.1 221.2
-1.1 -1.1 -1.1 -1.1 -1.1 -1.1 -1.1 -1.1 -1.1 -1.1 -1.1 -1.1 -1.1 -1.1 -1.1 -1.1 -1.1 -1.1 -1.1 -1.1 -1.1 -1.1 -1.1 -1.1 -1.1 -1.1 -1.1 -1.1 -1.1 -1.1 -1.1 -1.1 -1.1 -1.1 -1.1 -1.1 -1.1 -1.1 -1.1 -1.1 -1.1 -1.1 -1.1 -1.1 8.6 30.8 57.6 66.6 70.2 73.8 84.5 92.9 80.3 80 84.1 85.4 87.3 87.7 77.6 50.3 37.5 28.2 14.2 9.4 5.9 2.7 -1.1 -1.1 -1.1 -1.1 -1.1 -1.1 -1.1 -1.1 -1.1 -1.1 -1.1 -1.1 -1.1 -1.1 -1.1 -1.1 -1.1 -1.1 -1.1 -1.1 -1.1 -1.1 -1.1 -1.1 -1.1 -1.1 -1.1 -1.1 -1.1 -1.1 -1.1 -1.1 -1.1 -1.1 -1.1 -1.1 -1.1 -1.1 -1.1 -1.1 -1.1 -1.1 -1.1 -1.1 -1.1 -1.1 -1.1 -1.1 -1.1 -1.1 -1.1 -1.1 -1.1 -1.1 -1.1 16.6 36.2 47.7 53.1 52.9 58.7 67.3 80.7 92.4 97 90.8 75.5 93.6 112.6 125.1 125.1 119.2 110 115.5 125.4 139 153.8 162.6 164.8 175.2 188.1 203.2 207.6 218.9 221.5 219.5 213 206.1 196.1 193 184.9 169.4 133.9 117.4 102.5 96.6 85.1 102.1 128.9 146.4 165.8 186.4 200.1 202.2 214.5 213.2 214.4 213.1 213.6 211.8 194.3 191.5 194.8 200.8 207.8 214.5 216.7 220 225.1 225.5 223.4 221.2 222.9 223.2 224 218.6 215.3 226.1 227.8 221.4 219.3 220.5 221.8 221.9
-1.1 -1.1 -1.1 -1.1 -1.1 -1.1 -1.1 -1.1 -1.1 -1.1 -1.1 -1.1 -1.1 -1.1 -1.1 -1.1 -1.1 -1.1 -1.1 -1.1 -1.1 -1.1 -1.1 -1.1 -1.1 -1.1 -1.1 -1.1 -1.1 -1.1 -1.1 -1.1 -1.1 -1.1 -1.1 -1.1 -1.1 -1.1 -1.1 -1.1 -1.1 -1.1 -1.1 -1.1 11.3 31.2 56.5 68.6 77.9 81.1 85 90.8 86.9 81.8 79.3 83.6 88.8 89 82.5 68 31.9 18.2 9.7 7.1 4.3 -1.1 -1.1 -1.1 -1.1 -1.1 -1.1 -1.1 -1.1 -1.1 -1.1 -1.1 -1.1 -1.1 -1.1 -1.1 -1.1 -1.1 -1.1 -1.1 -1.1 -1.1 -1.1 -1.1 -1.1 -1.1 -1.1 -1.1 -1.1 -1.1 -1.1 -1.1 -1.1 -1.1 -1.1 -1.1 -1.1 -1.1 -1.1 -1.1 -1.1 -1.1 -1.1 -1.1 -1.1 -1.1 -1.1 -1.1 -1.1 -1.1 -1.1 -1.1 -1.1 -1.1 -1.1 7.1 16.1 27.8 42 53.1 62.9 61.8 74.7 84.9 101.3 112.4 114.3 108.9 94 100.3 124.8 136.7 140 134.7 132.6 128.7 135.1 145.4 157.1 172.2 183.2 190.8 198 210.2 216.3 223.1 230.4 230.3 225.2 218.4 211.3 203 195 179.5 148.4 136.9 127.7 114 109.4 96.6 112.1 134 148.2 167.6 192.9 195.7 212.3 211.3 213.8 215.2 215.6 207.6 198.5 200.7 204.1 207.6 211.4 218.9 224.5 233.5 239.6 236.1 231.7 225.1 224.2 223.1 218.8 223.6 230.4 233.1 233.2 228.7 224.8 228.2 234.6 233.2
-1.1 -1.1 -1.1 -1.1 -1.1 -1.1 -1.1 -1.1 -1.1 -1.1 -1.1 -1.1 -1.1 -1.1 -1.1 -1.1 -1.1 -1.1 -1.1 -1.1 -1.1 -1.1 -1.1 -1.1 -1.1 -1.1 -1.1 -1.1 -1.1 -1.1 -1.1 -1.1 -1.1 -1.1 -1.1 -1.1 -1.1 -1.1 -1.1 -1.1 -1.1 -1.1 -1.1 -1.1 9.3 29.3 56.7 74 80.5 81.9 90.6 87 84.5 82.9 85.1 75.9 81.4 85.9 76.5 61.3 19.8 8 5.3 3 -1.1 -1.1 -1.1 -1.1 -1.1 -1.1 -1.1 -1.1 -1.1 -1.1 -1.1 -1.1 -1.1 -1.1 -1.1 -1.1 -1.1 -1.1 -1.1 -1.1 -1.1 -1.1 -1.1 -1.1 -1.1 -1.1 -1.1 -1.1 -1.1 -1.1 -1.1 -1.1 -1.1 -1.1 -1.1 -1.1 -1.1 -1.1 -1.1 -1.1 -1.1 -1.1 -1.1 -1.1 -1.1 -1.1 -1.1 -1.1 -1.1 -1.1 -1.1 -1.1 -1.1 8.4 16 24.4 29.2 40.6 54.4 67 79.1 91.4 97.3 108.2 114.4 123.7 129.9 125.7 113.4 109.8 130.2 143.5 150.9 151.3 145.5 146.6 151.5 154.7 177.3 183.4 195.6 205.5 214.3 223.3 229 230.7 235.9 235.2 236.6 228.5 219.1 216 199.8 173.1 168.7 166.5 160.1 144.7 126 114 98.3 115.2 131.4 154.8 174.7 186.8 199.4 210.5 216.6 216.3 215.6 206.8 207.9 212.3 223.7 217.5 217.1 221.6 229.5 239.3 247.4 243.9 236 227.7 225.8 228.6 222.1 236.3 237.2 235.5 233.6 231.8 231.2 242.2 245.7 244.7
-1.1 -1.1 -1.1 -1.1 -1.1 -1.1 -1.1 -1.1 -1.1 -1.1 -1.1 -1.1 -1.1 -1.1 -1.1 -1.1 -1.1 -1.1 -1.1 -1.1 -1.1 -1.1 -1.1 -1.1 -1.1 -1.1 -1.1 -1.1 -1.1 -1.1 -1.1 -1.1 -1.1 -1.1 -1.1 -1.1 -1.1 -1.1 -1.1 -1.1 -1.1 -1.1 -1.1 -1.1 8.4 25.4 56.9 73.3 78.9 81 87.8 78.5 74.1 75.2 80.6 76.8 66.1 70.3 72.2 36.4 7 3.2 -1.1 -1.1 -1.1 -1.1 -1.1 -1.1 -1.1 -1.1 -1.1 -1.1 -1.1 -1.1 -1.1 -1.1 -1.1 -1.1 -1.1 -1.1 -1.1 -1.1 -1.1 -1.1 -1.1 -1.1 -1.1 -0.3 -0.6 -0.7 0.1 0.6 0.6 0.5 -0.4 -1.1 -1.1 -1.1 -1.1 -1.1 -1.1 -1.1 -1.1 -1.1 -1.1 -1.1 -1.1 -1.1 -1.1 -1.1 -1.1 -1.1 -1.1 -1.1 -1.1 -1.1 13.6 25 36 44.2 54.5 57.4 72.8 95.4 115.5 123.2 126.4 130.9 131 132.4 147 151.4 148.1 139 138.7 149.7 162.1 165.3 160 167.1 170.6 174.3 181.4 195.9 204.5 216.8 229 238.4 240.4 236.6 247.8 246.7 244.3 235.5 221.8 214.9 215 219.8 206.2 196.7 187 176.4 151.8 132.2 122.1 112.6 109.9 142.4 166.7 181.8 194.4 205 218.3 218.2 216.1 213.3 214.6 226.9 228.3 222.9 225.5 227 232.8 235.9 245.4 246 239.7 229.3 234.3 225.8 235 241.5 243.6 241.2 236.3 234.5 241.6 247.7 243.3 236.8
-1.1 -1.1 -1.1 -1.1 -1.1 -1.1 -1.1 -1.1 -1.1 -1.1 -1.1 -1.1 -1.1 -1.1 -1.1 -1.1 -1.1 -1.1 -1.1 -1.1 -1.1 -1.1 -1.1 -1.1 -1.1 -1.1 -1.1 -1.1 -1.1 -1.1 -1.1 -1.1 -1.1 -1.1 -1.1 -1.1 -1.1 -1.1 -1.1 -1.1 -1.1 -1.1 -1.1 -1.1 -1.1 10.4 47.3 72.9 80.5 83.4 84.7 74 68.6 64.5 72 70.7 68.5 55.2 50.6 24.8 5.9 -1.1 -1.1 -1.1 -1.1 -1.1 -1.1 -1.1 -1.1 -1.1 -1.1 -1.1 -1.1 -1.1 -1.1 -1.1 -1.1 -1.1 -1.1 -1.1 -1.1 -1.1 -1.1 1.3 1.6 1.8 2.6 3.2 3.4 3.9 4.3 4.8 5.1 5 4.8 4.1 -1.1 -1.1 -1.1 -1.1 -1.1 -1.1 0.4 0 -1.1 -1.1 -1.1 -1.1 -1.1 -1.1 -1.1 -1.1 3 6.7 9.5 14.8 32.7 42.2 56.1 71.2 83.7 98.5 87.4 118.1 143.7 154.9 154.4 149.9 159.6 153.8 162.2 172.6 174.1 163.6 158.4 150.1 168.4 176.7 175.6 190.6 191 195.3 195.6 210.5 215.9 228.2 240.5 248.2 247.3 255.4 260.4 256.9 255.6 243.8 228.7 218.6 241.4 249.1 234.6 224.8 211.6 201.6 178.9 155.1 134.9 126.1 113.8 134.9 160 175.6 189.8 204.6 218.9 222.1 217.3 218 218 227.7 234.7 228.7 227.2 231.7 236.6 238.8 232 232.7 227.2 234.1 230.4 226.6 229.3 240 242.9 244.3 243.7 237.7 243 238.7 241.9 241.2
-1.1 -1.1 -1.1 -1.1 -1.1 -1.1 -1.1 -1.1 -1.1 -1.1 -1.1 -1.1 -1.1 -1.1 -1.1 -1.1 -1.1 -1.1 -1.1 -1.1 -1.1 -1.1 -1.1 -1.1 -1.1 -1.1 -1.1 -1.1 -1.1 -1.1 -1.1 -1.1 -1.1 -1.1 -1.1 -1.1 -1.1 -1.1 -1.1 -1.1 -1.1 -1.1 -1.1 -1.1 -1.1 6.5 22.2 48 68 70.8 73.1 75.7 60 58.6 61 59.7 60.7 58 46.5 13.6 5 -1.1 -1.1 -1.1 -1.1 -1.1 -1.1 -1.1 -1.1 -1.1 -1.1 -1.1 -1.1 -1.1 -1.1 -1.1 -1.1 -1.1 -1.1 -1.1 3.1 4.4 4.9 12 8.1 7.1 10.8 10.7 9 9.6 9 10.8 12 11 9.8 9.1 6.8 4.7 3.3 1.7 -1.1 -1.1 2.2 2.3 -1.1 -1.1 -1.1 -1.1 -1.1 -1.1 8 16.1 17.8 14 24.2 37.1 47.7 66.5 84.5 105 146.8 142.9 127.2 127.5 158.1 174 178.9 169.7 165.2 172.3 174.2 188.9 190.9 179.8 174.8 155.3 174.9 184.1 182.7 197.2 205 207.8 216.3 213.2 223.6 238.8 249 257.8 265.3 271.2 268.3 267 262.6 248 235 232.6 253.5 265.1 259.7 251.8 233.5 222.2 206.1 178.5 156.1 137.6 123.9 123.4 153.2 172.2 188.6 204.3 216.9 221.2 220.2 223.1 222.8 227.8 235.7 233.4 231.7 225 231.6 223.2 221.1 231.9 232.7 238.4 231.5 229.5 228.4 238.9 249.5 253.5 245.7 237.4 237.8 245.2 247.7 247.2
-1.1 -1.1 -1.1 -1.1 -1.1 -1.1 -1.1 -1.1 -1.1 -1.1 -1.1 -1.1 -1.1 -1.1 -1.1 -1.1 -1.1 -1.1 -1.1 -1.1 -1.1 -1.1 -1.1 -1.1 -1.1 -1.1 -1.1 -1.1 -1.1 -1.1 -1.1 -1.1 -1.1 -1.1 -1.1 -1.1 -1.1 -1.1 -1.1 -1.1 -1.1 -1.1 -1.1 -1.1 -1.1 -1.1 10 31.8 47.3 59 70.4 71.4 55.5 56.3 49 41.8 56.1 53.5 48.5 10.5 4 -1.1 -1.1 -1.1 -1.1 -1.1 -1.1 -1.1 -1.1 -1.1 -1.1 -1.1 -1.1 -1.1 -1.1 -1.1 -1.1 -1.1 4.7 10.4 22.5 12.3 23.5 28.1 19.1 17.6 20.4 17.8 19.7 20.5 16.7 12.3 16 16.9 17.4 15.5 11.7 8.1 5.4 5.7 4.1 4.5 4.5 3.8 3.3 -1.1 3.7 10.5 24.1 35.2 38.2 47.2 53 43.5 40.6 52.9 74.3 90.4 111.1 134.8 165.2 182.7 178.6 162.8 165.1 181 187.5 187.6 181.1 186.6 187.8 193.1 198.6 201.6 197.6 174 181.3 190.4 194 201.4 215.4 215.8 222 225.9 235.9 253.6 268.6 270.7 278.4 284.2 278.7 270.5 256.4 247.3 238 242.3 262.3 271.3 275.2 266.3 251 240.2 225.9 210.5 176.1 152.7 138 120.4 141.1 163.9 181.1 198.1 211.1 223.2 234.4 226.3 224.1 231.1 232.8 238.1 232.9 219.3 217.5 218.7 236.3 236.2 229.2 239.5 250 240 236 236.9 249.2 245.5 236.6 239.2 250.3 251.4 253 251.8
-1.1 -1.1 -1.1 -1.1 -1.1 -1.1 -1.1 -1.1 -1.1 -1.1 -1.1 -1.1 -1.1 -1.1 -1.1 -1.1 -1.1 -1.1 -1.1 -1.1 -1.1 -1.1 -1.1 -1.1 -1.1 -1.1 -1.1 -1.1 -1.1 -1.1 -1.1 -1.1 -1.1 -1.1 -1.1 -1.1 -1.1 -1.1 -1.1 -1.1 -1.1 -1.1 -1.1 -1.1 -1.1 -1.1 -1.1 17.6 34 54 68.8 58 49.8 49.2 41.6 40.4 48.2 45.1 24.7 4.2 -1.1 -1.1 -1.1 -1.1 -1.1 -1.1 -1.1 -1.1 -1.1 -1.1 -1.1 -1.1 -1.1 -1.1 -1.1 -1.1 3.8 17.7 20.1 22.4 23.2 24.1 32.8 38.6 36.6 31 30.4 29.2 28.7 35.1 33.7 33.4 24.2 23.5 23.9 18.3 17.7 10.9 11.1 13.4 7.7 7.4 5.7 6.6 6.9 9.8 14.9 27.1 40.8 54.4 68.4 76.4 75.1 71.2 64.1 65.5 87 111.6 137 172.5 190.5 197.2 198.8 199 180.5 190.2 201.5 205.8 204.6 197.8 194.6 205.8 212.9 215.9 215.3 200 185.6 193.1 203.3 205.1 214.5 224.5 229.5 239.9 249.8 273.4 284 284.5 281.9 278.9 271.9 258.4 256.8 250.1 241.2 260.5 272.7 275.5 280.2 278.2 259.4 249.2 239 224.6 198.8 177.4 155.2 138.8 122.8 154.5 177.1 193.1 206.1 217.9 234.1 232.7 229.8 228.5 233.7 227.8 220.9 218.1 223.1 226.1 235.8 229 242.3 242 248.1 247.3 242.6 241 236.7 236.8 242.4 250.4 259.9 257.8 258.1 260.1
-1.1 -1.1 -1.1 -1.1 -1.1 -1.1 -1.1 -1.1 -1.1 -1.1 -1.1 -1.1 -1.1 -1.1 -1.1 -1.1 -1.1 -1.1 -1.1 -1.1 -1.1 -1.1 -1.1 -1.1 -1.1 -1.1 -1.1 -1.1 6.6 -1.1 -1.1 -1.1 -1.1 -1.1 -1.1 -1.1 -1.1 -1.1 -1.1 -1.1 -1.1 -1.1 -1.1 -1.1 -1.1 -1.1 -1.1 7.7 12.4 30.9 44.7 40.3 40.1 41.7 43 38.3 47.9 29.3 8.4 -1.1 -1.1 -1.1 -1.1 -1.1 -1.1 -1.1 -1.1 -1.1 -1.1 -1.1 -1.1 -1.1 -1.1 -1.1 2 5.1 6.3 18.6 26.9 27.3 34.1 38.3 38.2 43.8 42.7 38.1 45.6 43.7 46.2 48.7 44.4 45.9 49 39.5 35.6 30.6 23.5 18.1 19.2 19.3 10.8 9 9.5 10.9 14.4 27.5 26.5 36.5 52.5 73.2 92.6 109.5 111.5 98.5 85.3 85.8 103.2 131.4 182.5 197.3 216.4 216.9 218.8 214.4 208.4 194.2 211.5 220.7 220.4 217.4 206 214.7 227.4 239.4 229.8 217.2 197.3 190.9 201.5 210.1 219.5 224.2 234.1 250.1 264 280.3 295 294.4 283 271.5 263 258.9 257.7 256.5 256.9 266.7 274.3 278.7 281.5 281.6 269.2 258.3 248.6 237.4 215.7 197.8 177.5 156 137.7 145.8 170 188.3 199.8 211.2 226.2 233.3 230.3 224.9 230.6 220.9 217.5 224.6 227.6 226.3 223.1 235.9 249.1 247.2 244.2 247.4 246.3 237.2 237.6 244.4 259.2 262.9 261 260.7 261.4 262.9
-1.1 -1.1 -1.1 -1.1 -1.1 -1.1 -1.1 -1.1 -1.1 -1.1 -1.1 -1.1 -1.1 -1.1 -1.1 -1.1 -1.1 -1.1 -1.1 -1.1 -1.1 -1.1 -1.1 -1.1 -1.1 -1.1 -1.1 8 20.4 -1.1 -1.1 -1.1 -1.1 -1.1 -1.1 -1.1 -1.1 -1.1 -1.1 -1.1 -1.1 -1.1 -1.1 -1.1 -1.1 -1.1 -1.1 2.6 6.7 20.8 30.4 34.7 34.7 39.9 37.1 45.2 48.8 26.9 6.9 -1.1 -1.1 -1.1 -1.1 -1.1 -1.1 -1.1 -1.1 -1.1 -1.1 -1.1 -1.1 -1.1 -1.1 3.4 5.8 5.9 12.1 20.9 29.9 33 44.5 52.9 54 53.8 57.3 56.8 72.8 65.4 69.8 67.7 64.7 57.7 60 58.6 49.7 48.1 34.2 20.7 22.9 22.3 17.7 15.4 17.6 20.1 24.3 35 40.6 45.7 64.9 82.3 99.7 109.2 113 111.4 105.2 108.7 120.2 138.6 187.6 224.7 231 235.8 232 225.3 222.2 217 215.1 228.8 235.7 235.1 223.3 220.9 233 241 240.6 230.4 207.3 203.6 206.4 215 222.7 231.4 243.9 257.5 267.1 278.7 291 287.3 276.1 260.4 257 258.3 256.7 253.6 261 268.2 278.7 285.1 285.4 284.8 278.8 267.6 254.8 236.9 223.7 205.8 192.6 170.9 146.6 140.7 165.3 181.7 194.7 205 219.8 232.4 229.6 218 218.9 215.9 214.9 220.2 223.8 220.7 231.7 243.8 249.6 250.2 245.3 238.7 238 242.9 254.7 256.7 251.2 257.1 260 264.2 266 266.4
-1.1 -1.1 -1.1 -1.1 -1.1 -1.1 -1.1 -1.1 -1.1 -1.1 -1.1 -1.1 -1.1 -1.1 -1.1 -1.1 -1.1 -1.1 -1.1 -1.1 -1.1 -1.1 -1.1 -1.1 -1.1 -1.1 6.6 12 14.8 10.4 2.3 -1.1 -1.1 -1.1 -1.1 -1.1 -1.1 -1.1 -1.1 -1.1 -1.1 -1.1 -1.1 -1.1 -1.1 -1.1 -1.1 9 7.4 13.2 24.9 29.8 31.8 34.6 38.8 43 35.7 19.3 6.1 -1.1 -1.1 -1.1 -1.1 -1.1 -1.1 -1.1 -1.1 -1.1 -1.1 -1.1 -1.1 -1.1 6.6 6.8 12.4 8.8 16.9 32 30.9 36 43 55.5 53.4 57.2 58.9 67.1 77.4 79.9 83.9 81.5 81.8 75 75.6 67.4 58.2 55.6 43.3 26.7 27.8 24.3 24.7 25.3 31.5 30.6 35.3 40.6 48.3 58.5 70.1 82.2 94.5 103.5 112.4 122 135 132.4 138.4 149.1 178.2 219.1 246.2 248.2 244.6 241.6 237.7 235.1 242.2 237.7 247.5 243.5 236 227.7 242.4 245.5 246.8 237.4 209.1 214.4 215.2 219.3 227.5 238.6 251.3 259.6 266.5 275.3 280.7 276.3 263.3 250.4 256.5 261.9 258.4 255.5 260.6 274.9 285.2 290.3 292 283.8 281.6 274.8 257.4 237.4 226.1 209.2 199.8 180.3 157.2 135.2 160.8 176.7 189.7 198.7 210.6 219.8 218.1 211.4 216.9 218.8 210.1 212.1 210.3 225.5 237.9 244.3 248.4 248.2 238.3 239.2 240.7 243.6 254.2 258.7 258.1 255.6 261.4 266 269.2 271.1
-1.1 -1.1 -1.1 -1.1 -1.1 -1.1 -1.1 -1.1 -1.1 -1.1 -1.1 -1.1 -1.1 -1.1 -1.1 1.8 -1.1 -1.1 -1.1 -1.1 -1.1 -1.1 -1.1 -1.1 -1.1 -1.1 8.7 10.5 24 21.5 18.1 9.1 2.3 6.3 -1.1 0 -0.3 -1.1 -1.1 -1.1 -1.1 -1.1 -1.1 -1.1 -1.1 -1.1 -1.1 1.6 10.5 12.3 19.8 23.5 26.8 31.8 37.4 33.9 29.3 6.6 3.2 -1.1 -1.1 -1.1 -1.1 -1.1 -1.1 -1.1 -1.1 -1.1 -1.1 -1.1 -1.1 -1.1 6.3 12.1 22.8 24.8 20.5 32.1 41.6 44.7 47.8 56.1 61.7 64.5 63.3 74.4 72.2 83.6 86.8 83.2 86.3 86.4 77.8 71.5 65.2 67.9 45.2 33.2 35.4 45.6 48.1 50.6 51.4 49.9 48.9 49.9 57 60.3 69.2 78.9 89.7 106.5 124.2 134.3 146.6 150.2 157.9 157.2 180.1 207.8 249.9 250.4 247.5 258.5 263.1 259 258.1 256.9 256.1 256.7 249.6 243.2 250.6 254.3 251.2 239.2 212.9 222 224.4 231.1 237.9 248.2 255.5 260.7 265.2 270.8 266.7 259.9 250 247.5 255.9 257.9 256.7 258.2 266.4 275.4 281.2 285.2 283 279.8 278.1 277.5 251.8 233.4 223.4 214.7 203.4 193.4 164.6 142.2 154.5 175.9 184.2 191.9 200.2 205.1 208.2 215.8 221.6 218.6 209.1 202.9 211 231.8 238.9 242.2 241.8 239.8 239.5 250.3 251.2 247.4 251.2 258.1 262.7 259 262.3 267.8 272 276.5
-1.1 -1.1 -1.1 -1.1 -1.1 -1.1 -1.1 -1.1 -1.1 -1.1 -1.1 -1.1 2.8 5.2 5.9 6 -1.1 -1.1 -1.1 -1.1 -1.1 -1.1 -1.1 -1.1 -1.1 1.3 7.8 25.4 42.9 58.1 61.1 39.8 24.2 11.2 11.2 1.3 0.6 -0.1 -1.1 -1.1 -1.1 -1.1 -1.1 -1.1 -1.1 -1.1 -1.1 1.9 5 17.2 18.3 18.1 22.1 26.2 31.4 29.5 11.2 5.5 2.1 -1.1 -1.1 -1.1 -1.1 -1.1 -1.1 -1.1 -1.1 -1.1 -1.1 -1.1 -1.1 2.5 7.2 24.3 34.7 41.2 33.6 41.1 44.6 52.3 57.6 69.4 76.7 78.5 78.9 70.8 72.4 75.4 79.1 82.4 90.4 91.6 86 71.8 68.3 59.4 40.9 40.4 51.8 53.1 62.3 67.3 71.3 69.6 65.2 54.1 66.5 72.6 75.7 82.4 99 118.4 137.4 145.6 154 164.1 166 175.7 184.6 208.2 231.5 246.3 262.5 273.2 286.9 279.1 275.6 273.2 260.1 263.2 265 263.6 256.5 262.5 261.6 247.1 215 230.8 236.8 245.3 253.4 257.5 259.7 260.3 261.5 259.7 256.6 250.9 245.4 247.2 253.4 255 256.9 259.1 268.9 273.3 275 274.7 273.5 272.1 268.4 257.4 239 225.5 221.8 216.9 206.7 196.8 170.2 146.8 151.8 167.4 179.1 188.8 193.3 199.8 207.6 215.3 219.8 210.4 200.5 201.2 204.9 223.5 239.8 241.4 241.3 246.2 252.3 260.9 263.9 255.9 252.1 252.8 258.3 261.7 263.3 273.3 281.9 283.5
-1.1 -1.1 -1.1 -1.1 -1.1 -1.1 -1.1 -1.1 4.4 5.4 4.2 6.9 10.2 24.2 8.9 6.1 0.9 -1.1 -1.1 -1.1 -1.1 -1.1 -1.1 -1.1 -1.1 8.7 10.4 39.2 64.3 75.8 74.3 69 58.9 39.3 15.2 6.9 1.4 0.5 -1.1 -1.1 -1.1 -1.1 -1.1 -1.1 -1.1 -1.1 -1.1 1.1 7.5 19.5 18.8 15.9 19.4 28.4 24.7 10.5 6.6 3.5 -1.1 -1.1 -1.1 -1.1 -1.1 -1.1 -1.1 -1.1 -1.1 -1.1 -1.1 -1.1 -1.1 6.6 18.2 36.3 44.1 42.1 41 45.4 47 49.1 59.2 80.1 84.9 84.1 81.5 79.2 83.9 88.6 90.7 85.5 84.9 86.8 82.3 71.1 56.3 44.3 49.5 63.7 60.4 64.2 66.8 71.7 78.7 86.5 84.6 76.8 61.8 75.4 79.8 102.8 117 131.5 141.1 150.1 158.1 168.6 175.9 188 187.5 205.7 231.7 242.3 260.4 276.2 288.8 293.4 286.2 286.7 279.5 272.1 274.5 276.1 270.7 271.3 269.5 251.6 228 236.9 244.3 254.8 261.4 262.1 260.5 260.4 259.6 257.8 255 253.3 244.1 246.5 251.4 253.7 256.6 259.5 265.8 271.6 273.1 270.7 267.5 268.7 261.7 249.1 231.8 225.2 221.8 215.5 208 200.7 181.8 154.2 147.6 164.7 177.1 185.9 192.2 200.6 209.4 215.1 211.6 203 200.3 200.7 206.8 229.4 241.6 243.4 248.7 256 262.5 268.3 272.2 264.4 259.8 257.1 257.2 261.9 269.1 276 284.8 286.4
-1.1 -1.1 -1.1 -1.1 -1.1 -1.1 -1.1 5.7 9 8.3 9.3 12.6 45.6 46.8 38.8 6.7 1.8 -1.1 -1.1 -1.1 -1.1 -1.1 -1.1 -1.1 -1.1 3.3 15.1 59.9 67.8 76.6 76.1 75.2 65.5 54.2 27.7 19.8 6.9 0.6 -1.1 -1.1 -1.1 -1.1 -1.1 -1.1 -1.1 -1.1 1.7 1.7 10.5 26 19.5 15.9 15.6 21 8.3 7.1 5.3 4.5 -1.1 -1.1 -1.1 -1.1 -1.1 -1.1 -1.1 -1.1 -1.1 -1.1 -1.1 -1.1 2.6 6.6 18.5 43.4 54.3 52.5 41.4 42.9 50.2 57.6 59.4 74.9 85.6 97.1 93.4 89.7 92.3 97.5 96.4 95.3 94 83.5 68.5 53.6 56.8 54.3 69.2 76.2 74 71.3 69.9 74.4 84.3 90.8 91.4 90.5 77.6 80 104.6 116.1 131.1 140.4 149.3 161.1 164.7 181.3 189.3 191.9 200.6 206.1 230.7 252.4 260 268.5 283.1 295.9 294.3 293.1 288.5 279.8 282.7 286 283.4 280.2 273.7 256.6 233.9 246.9 251.5 258.2 262 262 260.9 260.8 259.2 258.1 255.3 256.3 243.7 245.2 248.7 251.6 257.2 257.8 263.6 267.6 264.5 263.4 251.5 244.8 245.4 236.3 232.8 228.4 222.6 215.3 208.5 199.6 194.9 176.5 143.5 165.5 174.6 183.3 192.9 201 210 210.9 203.5 200.7 203.3 201.5 211.3 231.5 246.5 253.5 255.4 266.2 274.4 278.3 275.2 269.7 263.9 259.7 260.5 264.1 272.2 276.1 283.7 285.7
-1.1 -1.1 -1.1 -1.1 -1.1 -1.1 19.2 14.1 11.8 17.4 28.9 54.8 54.9 50.5 43.6 10.8 7.9 4.6 -1.1 -1.1 -1.1 -1.1 -1.1 -1.1 -1.1 9.4 25.9 62.3 72 71.9 76.7 76.8 71.5 66.2 41.4 23.8 18.9 1.8 -1.1 -1.1 -1.1 -1.1 -1.1 -1.1 -1.1 -1.1 1.9 4.5 12.2 17.7 25.4 25.9 18.7 7.7 5.8 4.3 3.6 -1.1 -1.1 -1.1 -1.1 -1.1 -1.1 -1.1 -1.1 -1.1 -1.1 -1.1 -1.1 -1.1 7.8 9.1 22.8 52 56.1 51.8 47.1 53.9 64.2 74.8 79.9 80.7 91.1 91 90.3 89.5 90.3 98 98.3 97.2 94.2 71 77.5 76.1 66.5 68.7 81.7 87.7 87.8 80.7 81.5 85.7 84.9 93.1 90.5 85.2 80.1 95.3 114.9 131.5 137.5 151.4 163.5 167.4 184.6 191 202.2 226.4 229.7 223.2 236 259.3 274.6 274.8 284.3 288.3 294.8 300.4 298.5 289.3 288.2 289.5 292.8 281.5 274.6 261.1 248.9 254 257.2 259.3 259.6 260.7 261.7 262.2 262 258.4 253 247.3 243.6 243 245.7 252.2 254.3 250.3 252.4 251.3 245.1 242.1 241.4 242.9 241.3 238.5 233.3 228 220.7 213.1 209.3 201.5 188.6 168.4 175.6 176.2 174.6 179.2 184.7 193 200.6 198.9 196.9 206.2 205.8 206.2 212.1 234.8 248.9 265.8 267.7 273.9 279.3 283 278.2 273.8 270.2 263.4 265.3 270.4 275.3 278 277.9 284.3
-1.1 -1.1 -1.1 -1.1 -1.1 7.1 11.6 39 47.8 58.8 60.8 56.2 50.1 53.4 44.2 22.5 23.8 7.5 5.3 -1.1 -1.1 -1.1 -1.1 0.4 3 7.3 35.8 65.5 76.9 77.1 72.7 75.7 68.9 65.2 56.4 45.6 27.6 8.2 -1.1 -1.1 -1.1 -1.1 -1.1 -1.1 -1.1 -1.1 -1.1 8.1 7.1 11.5 29.2 27.3 20.2 6.4 -1.1 -1.1 -1.1 -1.1 -1.1 -1.1 -1.1 -1.1 -1.1 -1.1 -1.1 -1.1 -1.1 -1.1 -1.1 5.6 10.4 18.1 32.1 45.2 49.8 64.8 68 77.2 95.2 98 97.9 92.6 97.8 99.7 96.8 93.8 92.3 98.3 99.9 88.3 76 90.7 85.3 84.1 87.9 91.4 89.5 92.2 96.6 95.5 96.9 97.7 106.2 98.6 86.3 105.1 112.9 118.5 122 127.3 138.8 150.2 157.5 169.4 179 196.9 209.1 228.9 239.7 240.1 233 258.1 284.5 289.8 295.6 306.3 303.7 311.1 304.7 299.4 294.3 292.1 290.7 284 275.8 272.3 257.4 257.5 262 260.6 259 262.1 264.5 265.3 267.6 263.9 254.9 249.4 247.1 242.5 243.4 250.1 253 241.8 237.1 235.2 238.6 238.7 239.5 240.3 240.8 236.7 233.1 228.6 220 214.6 210.2 200.8 173.8 186.3 194.4 193.6 190.9 190.5 185.5 187.1 190.5 193.3 198.6 203.5 210.7 223.8 221.9 236.1 252.3 269.9 273.3 277.1 284.9 286.1 281.7 276 279.5 271.6 271.7 277.8 280.6 283.9 278.5 279.9
-1.1 -1.1 -1.1 -1.1 3.3 8.1 31.7 49.9 55.2 55.2 52.6 51.9 54.7 56.9 42.7 37.9 31.8 12.2 5.6 0.8 0.3 -0.1 0.2 1 4 11.2 48.8 62.9 67.5 74.3 70.3 69.1 66 67 67.5 54.9 36.5 23.4 -1.1 -1.1 -1.1 -1.1 -1.1 -1.1 -1.1 -1.1 -1.1 -1.1 5.6 8.1 16.2 32.8 26.4 -1.1 -1.1 -1.1 -1.1 -1.1 -1.1 -1.1 -1.1 -1.1 -1.1 -1.1 -1.1 -1.1 -1.1 -1.1 -1.1 9.2 23 28.1 41.3 43.9 62 76.3 87.2 91.1 100 102.8 102.7 101.6 102.5 97.2 98.4 94.4 97.1 98.6 89.7 88.5 105.6 98.4 85.4 90 97.9 103.6 104.1 100.3 99 103.9 104 110 111.3 93.1 110 122.6 130.4 131.4 140.7 142.2 149.8 159.6 162.9 181.5 205.5 219.2 227.5 232.6 245.8 250.8 254.8 246.7 272.7 290.1 297.1 310.8 309.4 310.6 310.4 309.6 308.5 304.1 298.7 291.6 295.4 288.6 268.3 273.9 273.1 292.6 289.2 283 278.4 273.6 271.9 266.6 256.5 250.3 251.1 246.5 240.4 243.1 237.7 232 231.1 230.7 230.8 228.5 228.7 234.1 235.8 233.1 228.2 227.7 221.4 213.9 207.9 189.3 199.8 202.7 209.1 208 210.9 208.4 196.4 194 196.4 202.3 208.1 216.8 232.6 236.7 239.1 233.8 253.6 269.5 281.6 286.1 286.8 289.6 286.3 280.9 279.2 278.1 275 277.1 279 279.6 279.4 271.2
-1.1 -1.1 -1.1 4 7.9 10.6 23.6 52.2 52.6 47.5 51.9 57.7 59.6 53.8 38.9 39.5 31.2 28 7.6 1.9 1.3 0.7 0.9 1.6 7.9 23.4 50.7 67.6 62.6 63.7 70 68.4 66.5 68.5 74.1 70.8 54.8 30 9.8 -1.1 -1.1 -1.1 -1.1 -1.1 -1.1 -1.1 -1.1 -1.1 -1.1 5.1 11.5 26.2 -1.1 -1.1 -1.1 -1.1 -1.1 -1.1 -1.1 -1.1 -1.1 -1.1 -1.1 -1.1 -1.1 -1.1 -1.1 -1.1 9.2 10.4 22.4 37.5 49 62.2 68.6 75.5 92 103.2 102.6 106.8 106.8 110.6 109.2 99 93.6 94.1 89.2 87.6 89 102.2 110.7 106.2 90.1 105.6 109.8 110.6 112.1 106.8 105.8 112.6 119.9 120.4 100.4 115.4 127.6 130.9 142.1 142.6 145.2 155.7 158.1 165.5 177.3 190.8 212.8 231.7 244 241.5 249.1 259.8 265.5 262.2 272 290.7 297.4 303 308 310.6 312.9 313.8 315.8 312.1 298.1 305.6 313.7 299.4 288.2 283.8 293.2 295.8 305 308 300.3 283.6 273.7 264.7 252.5 252.9 251.5 248 243.3 235.6 236.6 238.6 242.4 232.4 229.2 227.1 227.1 227.8 230.2 226.7 224.1 220.2 217.3 210.7 195.7 213.9 217.7 217.4 222.3 219.5 224.8 222.3 208.1 203.2 212.1 224.8 232 236.5 237.9 244.3 247.3 252.5 252.5 263.2 274.9 282.4 285 289 288.1 281.5 279.7 278.4 271.7 270.7 272.3 274.6 274.6 261.3
-1.1 1.5 7.3 8.8 11.5 26.2 30.7 47.6 47.6 52.7 61.6 61.3 55.5 52.2 37.1 34.9 31.2 18.5 12.7 2 1.9 1.5 1.6 1.9 13 41.4 61.8 66.4 65.5 67.5 64.8 71.1 68.5 68.8 72.6 74.7 67 44.5 25.2 11 1.1 -1.1 -1.1 -1.1 -1.1 -1.1 -1.1 -1.1 -1.1 0 1.7 4.7 -1.1 -1.1 -1.1 -1.1 -1.1 -1.1 -1.1 -1.1 -1.1 -1.1 -1.1 -1.1 -1.1 -1.1 -1.1 7.7 10.5 24.4 30.9 39 73.2 87.4 88.4 87.5 85.8 92 99.5 102.1 109.9 116.7 109.6 97.5 93.4 91.8 88.8 94.8 98.9 103.3 109.2 101.3 105.9 114 121.2 108 110.9 111.5 115.2 118.6 119.4 111.2 125.2 125.9 129.9 143.1 144 151.1 152.4 162 166.2 179.3 186.2 206.4 227.3 232.4 247 255.1 253.7 256.9 271.5 273 261.4 282.1 295.3 303.6 308.9 312 318.9 320 318.8 311.6 294.8 296.6 307.2 318.9 303.5 289.1 297.5 300.7 304.2 311.4 310.2 294 273.6 268.3 256.6 252.8 248 245.4 243.6 244.8 247.6 249.6 247 237.6 232.5 231.3 229.8 233.1 230.8 225 216.5 211.4 211.9 203.4 210 218.8 222.9 226.5 221.2 225 229.4 225.2 220.7 214.2 226.3 235.1 242.7 251.5 248 251.7 254.8 261.5 262.5 261.7 262.6 274.2 282.6 288.9 287.3 283.9 276.4 274.8 271.3 267 268.5 270.9 265.5 247
3.2 8.2 14.5 19.5 36.5 52.3 48.4 45.9 53 55.7 65.5 59.8 52.8 45.3 34.9 34 30.5 29.8 30.1 6.5 2.3 3.5 4.4 7.3 18.7 53.2 56.6 65.4 75 73.8 72.7 66 69.1 70.2 73.3 76.5 78.1 75.8 63.6 33.8 11.3 1.1 0.3 0.1 -0.3 -1.1 -1.1 -1.1 -1.1 -1.1 -1.1 -1.1 -1.1 -1.1 -1.1 -1.1 -1.1 -1.1 -1.1 -1.1 -1.1 -1.1 -1.1 -1.1 -1.1 -1.1 5.2 10.5 23.3 41.3 47 46.4 70.8 98.7 100.7 97.7 87.1 93.5 99.4 103.1 114.6 119.2 103.9 94.6 94.2 93.2 98.3 94.8 99 105.2 109.7 111.5 114.3 124.7 121.6 113.2 111.2 115.5 120.5 118 113.1 130.1 133.5 136.2 134.1 134.8 147.2 151.6 161.6 167.7 183.6 193.7 197.4 220.7 242 235.4 242.2 255.2 263.9 263.5 271.3 276.3 272.3 281.6 295.9 308 313.6 314.6 326.1 327.6 320.7 308.8 297.1 306.2 305.9 314.4 317.3 306.2 299.8 303.9 304.4 310.2 309.9 289.9 274.6 269.4 260.7 256.3 252.2 247.5 249.1 249.8 248.9 248.5 247.8 243.2 237.9 236.7 235.3 236.5 236.8 232 224.5 219.1 211.6 216.8 218.6 215.4 218.3 218.5 220.5 223.4 225.7 225.5 227.6 228.2 226.8 235 247.5 256.9 257.6 254.8 256.6 262.7 262.9 263.6 262.8 266.5 278.7 284.8 286.7 283.2 273.8 272.4 271.1 261 258 259.3 251.5 244.5
13.9 18.7 33.5 55.7 62.9 55.3 50.3 54.9 56.2 63.8 64.6 60.6 49.5 42 39.8 38 37.4 44 36.7 11.5 10 9.1 9.7 37.3 52.1 54.7 60.1 69.6 81.3 85.2 82.7 82.3 71.5 73.3 78.6 83.2 90.2 85.8 83.7 63 41.4 7.7 1.4 0.9 0.4 -0.2 -0.9 -1.1 -1.1 -1.1 -1.1 -1.1 -1.1 -1.1 -1.1 -1.1 -1.1 -1.1 -1.1 -1.1 -1.1 -1.1 -1.1 -1.1 -1.1 5.2 11.3 26.1 36.6 41.4 64.1 65.1 67 80.5 98.8 93.4 110 109.6 99.9 101.7 114.3 110.4 95.7 94.7 98.3 106.1 102.4 102.2 100.5 110.7 112.8 120.7 120.8 135.9 138.3 124.6 119.7 117.7 119.7 114.8 126.5 133.2 142.3 147.8 150.1 151.7 153.1 151.5 165.7 173 182.7 193.2 203 231.3 247 245.8 243.5 252.9 262 267 275.7 283.5 279.4 279.2 291.5 309.4 314.8 322.6 324.3 328.5 322.2 302.7 300.8 312.8 313.5 311.3 317.5 315.7 309.2 304.4 304 304.4 305.9 284.3 275.3 275.9 265.8 260.9 259.1 253.7 259.1 253.4 249.2 247.1 245.3 244.1 240.2 238.4 247.9 254.5 246 242.2 232.2 228.1 227.6 221.5 223.4 228.5 223.3 226.5 225.1 226.2 227.3 228.6 230.4 231.9 232.6 232.4 239.3 242.2 253.8 255.7 256.5 256.9 261.6 262.2 262.1 259.4 270.9 279.4 284 280.6 270.7 268.5 264.4 256.1 250.7 246.4 249.2 243.2
11.5 39.8 62 62.6 58.1 57.6 64.7 65.8 63.5 69.2 63 62.2 55 45.9 47.8 43.6 41.8 47.9 30.1 13.7 13.1 13.1 15.9 42.9 58.6 68.9 73.4 75.6 78.3 86.3 97.2 92.2 92 79 79.6 93.3 97.3 98.4 94.5 85 62.4 32.5 4.7 1.4 0.9 0.2 -0.6 -1.1 -1.1 -1.1 -1.1 -1.1 -1.1 -1.1 -1.1 -1.1 -1.1 -1.1 -1.1 -1.1 -1.1 -1.1 -1.1 5.4 8.8 13 15.3 30.5 36.3 54.3 76.9 75.7 71.4 73.2 80.4 86.1 104.8 113.9 110.8 98.7 111.4 105.7 103.4 107.4 110 113.3 110.4 100.4 107.9 111.6 126 129.7 131.1 140 138 132.5 119.6 122.6 118.9 124.2 136.8 143.4 149.1 158.9 163.2 162.2 164.4 157.6 166.1 174.6 179.7 199.6 213.7 234 249.8 256.2 259.9 255.7 265.8 274.9 277.1 280.7 291.3 282.2 283.9 302.2 315.8 322.8 321.1 322.7 315.7 301.9 303.7 317.4 319.5 317.9 314.7 315.7 308.7 310.6 304 301.7 295 280.9 289.6 281.2 272.1 264.3 261.2 259.6 268.2 261.2 250.1 247.5 246.3 244.5 246.3 256.7 260.4 261.3 256.3 241.1 235.6 231.7 228.8 223.1 233.3 233.3 237.6 239.5 239.2 244.7 248.6 248.5 247.9 247.5 248.1 241.3 242.9 245.5 247.6 247 247.2 249.5 250.7 254.3 258.5 253.3 254.2 264.7 272 273.6 266.8 263.1 257.1 248.2 239.3 239.5 239.6 235.1
27.9 63.4 64.5 59.6 70.4 69.1 70.3 74.3 73 72.4 74.3 66.3 58.1 50.9 53.2 49.5 46.4 39.9 17.7 13.4 11.4 14.3 18.2 34.8 41.2 69 83.1 89.7 90.4 88.9 100.3 105.5 102.5 98.3 90 92.4 103.2 106.9 114 101.2 77.8 63 24.8 3.5 1.3 0.4 -1.1 -1.1 -0.7 -1.1 1.5 2.1 1.1 -1.1 -1.1 -1.1 -1.1 -1.1 -1.1 -1.1 -1.1 -1.1 -1.1 14.5 23.1 25.9 26.8 30.8 41.7 69.8 83.4 86.7 76 75.1 78.3 76.9 85 102.9 103.5 103 97.5 111 117.6 120.5 121.3 119.3 115.7 111.4 106.7 114.1 127.4 132.2 134 137 136.2 129.7 134.2 137.8 121.1 135.1 144.4 152.9 159.1 168.1 173.1 175.8 180.1 173.4 167.1 174.8 185 195.6 216 230 251.2 257.3 267.2 263.7 271.2 279.9 284.4 285.4 287.1 295.9 283.8 295.2 310 319.2 319 316 305.9 297.5 311.2 325.5 325.2 322 315.4 312.5 309.8 319.8 312.7 295.5 292.7 299.9 299.6 282.2 277.2 264.1 261.5 261.1 268.8 264 252.2 247.8 247.2 246.9 255.8 261.8 265.4 267.9 263.7 246.3 238.5 235.1 227.2 227.4 239 244.7 247.1 249.5 257.6 264.1 265.2 266.1 263.9 260.7 260.1 257.9 256.9 256 258 254.5 251.3 252.2 250.3 251.2 250.9 250.5 250.7 250.8 252.4 255.2 254 251.1 246.2 239.4 232.7 232.4 233.8 240.6
34.2 58.1 67.9 76 71.3 76.4 82.4 80.1 76.3 71.1 71.8 68.3 61.3 56.4 57.2 46.4 41.9 27.6 23.6 17.7 14.9 16.1 21.8 26.8 31.9 60.7 70.8 83.4 92.1 101.7 105 109.6 106.8 111.1 108.3 112.5 107.7 114.6 115.2 115.5 98.5 74.1 41.1 8.1 1.8 1.3 -1.1 -1.1 1.1 2 2.1 3.1 3.5 1.7 1.1 -1.1 -1.1 -1.1 -1.1 -1.1 -1.1 -1.1 11.9 20.5 26.8 30.9 32.9 39 50.9 76 88.6 88.2 79.3 80.7 80.2 76.8 78.9 85.1 93.3 96.1 101.4 119.1 124.1 127.7 131.2 127.1 118.9 114.9 113.5 114 127.2 127.8 129.9 131.9 131.7 148.2 149.6 144.5 139.4 140.2 152.1 162.2 169.5 178.1 186.3 189.4 194.6 188.9 178.1 184 192.5 197 207.1 229.6 241.6 252.4 262.3 268.1 277.9 284.5 288.9 292.8 289.3 292.4 295.2 290.7 304.9 317.1 315.3 310.6 301.7 295 313 323.4 326 320.7 316.2 313.9 319.9 326.9 320.2 315.5 305.6 303.4 293.4 281.9 277.1 267.6 261.1 261.4 268.2 261.6 258.9 252.5 245.3 245 251.6 262.1 266.6 271.4 261.1 247.8 239.4 235.2 231.1 245.7 255.1 259.6 268.4 265.7 272.5 278.9 282.4 280.7 277.6 274.5 266.1 265.1 265.4 262.8 266.9 257.8 257.9 259.7 252.4 252 251.2 249.4 247.7 245.7 245.4 243.5 239.2 236.9 234.9 231.2 229.3 231.7 236.7 240.8
34.6 63.2 66.7 73 79.2 83.1 82.9 78.5 73.2 70.4 70.2 67.9 58.3 60 48.6 40.2 30.7 34.3 39.5 21.3 18.7 24.8 21.9 20.8 21.7 50.3 64.1 83 93.3 100.9 110.9 116.5 128.1 135.8 136.6 124.6 119.4 115 116.5 113.7 105.8 82 49.6 11.2 3.8 1.9 1.9 -1.1 1.9 3.1 2.7 3.2 4.1 4.3 4 3.7 3.9 -1.1 -1.1 -1.1 6.5 10.9 19.1 25.2 28.1 33.6 43.5 49.1 65.5 85.1 90.3 94 85.7 84.2 80.3 78.8 78.9 79 79.4 94.5 104.4 114.6 126.5 135.8 135.2 125.7 121.5 122.7 115.5 117 122.3 124.8 130.6 129.6 148.2 157.7 151.4 143.9 150 155 156.7 171.2 178.3 188.9 195.3 203 208.7 202.4 193.6 192.6 203.9 211.4 208.5 229.3 245.6 257.9 265.9 269.3 284.5 296.2 303.1 298.5 295.3 293.6 298.2 293.3 299.3 309.9 312.9 301.3 292.1 292.1 312.2 322.5 323.2 319.6 318.6 317.7 323.4 328 325.4 321.4 311.3 294.7 286.8 280.9 278 269.3 261 261.1 262.9 259.3 258.5 250.1 245.5 242.7 242.2 254.2 263.8 269.6 259.7 248.5 243.2 238.9 238.7 256.1 260.9 264.8 273.8 281.2 286.2 287 292.5 290.1 283.1 281.4 275.3 269.8 271.7 270.8 268.6 266.9 260.6 260.9 256.1 252.6 253.8 249 245.1 243.8 244.1 240.8 236.8 232.8 230.5 228.9 235.7 237.7 241.1 247
29.4 60.1 67.9 72.3 78.1 79.9 78.2 79.4 82.5 78.3 70.1 61.2 56.2 55.1 47.1 39.4 41.1 44 37.1 23.4 24.6 29.5 24.8 24.3 22.1 51.2 69.1 75.6 93.1 106.1 123.9 141 150.8 151.4 138.8 127.8 119.6 113.3 109 114.3 101.4 80.5 58.3 29.2 7.2 2 2 -1.1 -1.1 3.7 3.5 4.8 5.1 5.2 4.2 4.3 5 5.5 7.4 8.8 10.5 21.4 27.9 35.5 40.7 42 45.5 54.7 68.3 96.7 98.2 95 97.2 85.7 82.5 80.1 79 76.7 94.7 103 108.6 111.6 125.4 139.1 137.1 124.7 128.1 131.9 123.9 117.2 124.4 124.2 130.9 143.6 147.7 153.8 150.4 152.2 155.9 159.9 164 177.4 189.4 197.6 205.5 215.5 219 218.5 207.2 205.4 209.6 224.3 226.1 231 247.6 258 267 270.4 275.3 290 303.7 305.9 303.3 297.2 300.1 306 292.6 302.7 300.7 293.2 292.1 292.1 308.3 317 319.8 324 323.9 328.5 324.5 328.5 329.9 326.8 319.5 296.3 281.2 280.1 275.8 269.1 262.7 262.1 262 271 261.5 257.1 247.6 244 241.6 240.8 248.2 250.1 249.6 243.8 246.3 261.2 254.7 264.8 270 273.8 280.4 288.2 291.5 292.4 292.4 291.8 287.9 285.2 280.1 275.2 274.2 273.8 269.6 263.3 262.7 263.4 262.9 255.2 253.6 251.8 243.3 243.1 239.8 236 231.5 227.5 223.3 240.9 245.6 249.1 254.6 258.6
48.3 62.5 72.6 78.9 76.8 80.2 86.2 89.9 91.9 84.3 75.1 57.8 56.9 49.2 44.5 50.3 63.3 62.7 44 30.7 30.6 28.2 28.3 28.9 29 55.8 73.3 85.7 93.2 112.8 125.7 137.7 152.9 145.9 131.8 124.8 118.7 117.4 100.8 95.1 93.2 74 58.8 46.5 12.5 4.1 2.4 2.3 -1.1 -1.1 4.3 5.4 5.2 5.9 4.3 4.8 5.5 6.8 8.3 11.1 22.4 41.5 54.7 47.3 54.5 47.8 62.6 74.8 73.1 94.9 105.8 103.6 99.8 92.1 80.7 76.9 76.6 95 115.9 114.4 113.2 116.4 120.2 135.6 130.7 123.1 141.4 141.9 130.6 117.3 123.1 127.7 139.7 146.9 150.1 148.5 152.2 157.2 159.8 169.8 176 183.4 197.6 206.7 218.3 221.1 228.9 232.2 223.8 216.5 214.1 225.5 237.4 238.2 254.3 256.2 264.1 272.4 279.1 286.7 296.3 304.9 308.6 302 301.9 305.4 300.5 296.2 293.4 293 292.1 297.3 304.4 311.4 320.8 325.4 325.2 336.2 340.3 328.2 332.2 328.9 320.3 305.2 285.4 277.7 274.8 274.9 265.8 262.9 267.9 274.7 266.5 256.7 252.3 251.8 244.6 238 237.1 237.5 239.6 249.6 259.6 268.1 263.9 271.1 275 280.2 285.7 290.2 299.3 298.9 294.3 292.4 291.5 288.3 285 276.8 278.1 277.4 274.3 263.8 260 262.3 263.7 259.4 255.6 251.7 239.9 234.7 232.7 228.2 224.8 219.3 229.9 241.1 247.7 261.4 260.5 266.5
61 70.8 76.1 80 83.1 87.9 88.9 92.4 90.3 83.2 66.5 57.7 51.2 53.9 59.8 74 63.3 55.9 39.8 35.9 29.5 31.7 33.7 27.6 43.2 59 72.8 87.2 98.9 114.5 131.9 141.8 145.6 134.2 124.1 119.7 114.8 111.9 100.6 79.3 69 66.6 50.9 39.6 23.4 9.3 2.6 2.1 2.1 -1.1 6.2 6 5.6 8.2 6.1 6 6.6 8.3 12.4 21.9 26.3 43.3 64.1 64.3 53.4 61.2 76.8 95.2 89.3 90.8 102.8 106 96.3 86.5 73.7 74.2 84.7 105 114.3 123.2 124 119.2 120.8 119.7 125.3 137 149.4 145.9 130 126.5 129.8 135.6 138.8 145.6 147.9 148.1 152.7 166.6 174.9 182 186.1 193 206 221.6 226.8 233.8 237.6 243.5 242.2 227.9 228.7 242.4 245.9 252.4 253.1 267.1 269.9 272.7 277.8 287.1 293.3 306.2 309 308.6 311 309.5 308.1 295.9 294.2 295.4 293.5 301.1 306.7 310.9 317.2 327 335.6 339.6 342.7 343.6 333.5 330.7 326.9 311.2 293 278.5 278.9 273.4 266.3 263.7 263.7 273.6 269.7 257 252.6 249.7 247.1 236.8 235.5 236.5 247.5 261 268.2 273.7 272.4 272.1 275.4 284.9 289.7 291.4 302.2 302.8 294.7 292.9 292 291.7 289 280.6 279.4 279.1 278.1 269.6 256.6 258.2 260.1 259.6 253.1 245.9 234 226.8 222.9 216.8 215.9 215 232.8 244.3 250.3 257.4 262.9 269.5
66.1 72.4 76.5 83.5 89.3 89.8 90.3 87 81.2 75.6 57.8 60 69.8 71.5 82.3 73.2 69.1 56 35.3 31.3 31.1 36.6 37.3 31.8 53.5 65.7 76 87.5 99.8 123.2 136.6 143.2 141.8 126.7 123.6 115.7 110.1 101.1 92.4 73.1 58.8 50.2 44.3 30.1 16 8.7 7.4 2.8 2.4 -1.1 -1.1 5.3 5.9 7.5 8.2 8.1 9.6 16.5 25.3 30.1 34.8 52.5 62.8 60.5 70.5 68.1 88.8 99.5 101.2 94.1 97.3 93.1 87.5 70 70.2 72.1 79 94.2 120.8 125.2 123.9 121.8 121.8 120.7 120.7 144.8 151.7 146.5 129.9 136 141 147.4 146.4 154.1 149.4 155.2 165.3 170.7 182.3 188 193.5 203.8 210.9 228.8 233.3 244.2 251.6 254.3 254.5 243.8 242.8 250.8 256.9 269.3 274.9 270.1 276.6 276.8 279 288.1 301 304.4 311.1 315.1 325.8 320.6 311.5 304.2 292.7 295.3 298.1 308.3 309.6 312.4 316.6 321.4 333.9 339.6 344.8 349.2 334.7 334.9 331.2 312 294.3 282 275.1 272.4 270 263.8 262.4 268.6 268.6 254.3 253 249.7 239.8 235 235.2 235.9 244.9 256.3 264.8 273 279.1 280.1 282.6 282.8 294.9 299.2 299 302.2 298.5 294.3 296 296.1 287.6 283.5 278.6 279.3 270.1 265.3 255.7 251 251.5 252.9 247.1 237.8 227.8 219.7 214.5 209.8 211.2 225.6 234.7 245.7 251.7 258.2 272.5 274.6
71.3 71.9 85 87.8 88.7 86 84.9 79.2 74.5 61 65.1 75.4 73.6 83.6 85.6 79.5 62.9 46.6 32.1 32.6 31.5 33.7 36.5 34.4 55.9 67.8 79.7 97.2 116.4 126.2 138.1 137.9 118.5 119 114.6 115.7 99.4 93.5 79 63.1 50.7 39 28.7 20.8 20.2 12 9.2 4.1 3.5 3.5 -1.1 6.8 7.6 8.2 9 10.7 24.2 25.5 29.1 37.7 55.5 77.2 84.9 83 82.4 85.9 83.2 96.4 105 96.7 82.6 76.2 68 69 85.8 98.1 96.1 89.2 108.7 125.7 121.3 120.2 119.6 113.5 127.3 147.8 152.2 131.1 140.7 144.7 147.3 153.2 159.3 158.2 154.5 167.1 173.1 185.7 188.9 195.9 205.2 207.4 227.7 230.3 243 251.3 259.7 261.9 262.4 261.7 252.7 258.3 261.3 268.6 284.2 281.5 279.8 282.2 284.9 287.5 301.9 308.5 311.8 317 322.4 322.4 315 306.5 297.3 294.5 301 311.2 317.2 321.3 318.4 322 324.7 334.2 342.4 343.7 343.5 332 329.4 306.9 296.4 291 272.7 268.2 268.6 262 259.6 256.4 252.4 245.8 246 241.7 238.8 234.8 237.8 238.3 240.5 250.6 260.4 270.9 282.2 279.9 283.7 297.7 294.8 298 303.2 303.2 302.5 298.1 291.6 295.5 282.4 277.2 273.2 270.6 262.6 262.1 253.6 243.4 243.3 244.3 240.8 230.8 218 212.4 208.4 217.1 220.9 229.4 234.7 241.3 248 253.8 259.1 271.6
77.1 85.4 87.3 89.9 94.4 98.5 92.8 87.5 76.5 74.2 79.3 78.7 79.4 83.2 83 75.6 54.7 35.5 29.7 29.6 28.7 29.8 32.3 44.6 62.6 73.7 83.1 116.1 117.6 116.3 126.3 119.5 111.3 110.5 105.9 102.9 87.2 78.1 62.4 46.5 40.2 32.1 24.1 21.7 23 13.8 9.9 7.8 3.9 3.6 1.9 9 9.3 10.1 11.1 13.4 21.7 29.9 35 47.1 77.5 81.6 81.9 79.1 86.7 97.7 101.4 96.5 97.1 85.7 69.4 66 70.5 88.7 119.8 123.4 104.2 99.6 100.5 114.1 117.5 116.6 114.3 112.2 133 142.6 139.2 147.6 159.5 160.7 157.6 169.9 170.3 165.7 167.9 176.3 186.4 194.5 199 206 217.1 223 230.5 238 248 255.5 263.2 269.8 270.1 269.2 261.2 272.6 272.6 275.9 286.6 296 288.5 289.4 295.5 297 298.1 314.7 323.6 325.4 324.4 322.6 320.4 307.4 301.4 295.2 304.6 311.6 317.8 326.5 322.2 323.1 324.8 326.4 334 340.3 341.6 333.9 326.9 324.9 306.5 292.7 280.3 261.7 262.5 259.4 255.1 245.6 241.8 240.9 241.1 241.6 244.2 235.3 238 238.8 240 245.9 256.5 269.1 277.7 280.6 293.5 309.8 304.3 300.3 304.8 306.4 306.8 307.2 295.1 289 279.5 273.9 275 266.8 255.6 246 241.1 230.7 225.5 227.9 229 224.7 207.6 206.3 222.9 235.5 229.9 233.8 239.6 245 246.9 252 254.5 278.3
90.9 93.6 94.2 99 104.1 99.6 90.8 85.8 82.1 85.1 87.4 81.4 85.5 80.2 80 67.1 45.2 32.5 28.9 27.7 30.3 30.7 32 53.3 66.2 78.7 82.2 102.8 108.9 112.6 114.8 114.6 101.9 87.3 80.9 85 75.4 59 55.6 56.2 55.1 42.8 37.2 23.4 15.5 12.1 9.6 7.2 4.6 3.8 1.6 11 10.6 11.5 13.8 16.9 28.2 37 42.1 70 77.8 80.1 70 77.9 88.3 99.6 98.9 95.2 79.5 73.1 71.6 83.6 94.5 108.8 123 131.5 120.3 117.8 101.9 105.2 113.2 106.1 107.3 110.3 121.1 127.5 138.9 166.3 171.8 168.9 167.1 169.9 168.3 175.3 180.3 188.5 193.8 204.7 213.4 221.3 226.6 231.9 240.8 252.6 252 258 268.6 277.6 281.1 280.7 272.2 287.3 282.1 286 285.4 299.2 298.3 299.5 296.9 301.8 307 313.6 327.2 332 325.9 325.2 326 316.6 299.1 297.8 305.2 310.8 317.3 329.9 323.9 323.2 323.9 326.2 327.9 339.5 335.8 337.1 337.4 324.8 313.3 295.1 282.7 265.8 257.2 254.5 253.3 245.9 238.6 241.2 241.8 243.3 240.1 236 235.1 236.7 240.9 247.6 258.7 269.7 280.6 290.6 302.5 312.6 311.5 304.7 306 307.6 308.9 306.9 303.4 289.9 281 274.8 270.3 264.9 256.3 243.7 225.4 221.2 216.3 216 217.9 216.2 212.5 210.6 231.7 238.9 243.1 237.6 240.2 245.5 249.7 248.8 258.1 276.8
101.1 111.1 115.5 111.6 108.2 103.1 95.4 95.4 88.8 92 88.6 87.5 91.8 85 71.4 57 40 37.7 29.1 29.8 28.7 28 30.1 54.4 68.2 79.5 83.9 96.3 107.6 110.1 106 108.9 86.2 72.7 65.2 67 62.4 61 56.9 53.8 53.2 52.7 40.5 32.3 22.3 14.7 10.6 8.6 5.5 4.5 1.5 11.6 12.8 14.1 19.6 26.4 31.1 41.1 60.2 78.9 76.2 69.1 72.5 81.2 85.8 90.9 91.9 82.2 66.1 69.1 90.4 102.8 112.7 130.5 130.4 139.3 136.9 128.8 122.5 112.7 100.9 104.1 114.8 121.6 120.6 130.5 141.4 169.1 172.8 161.4 173.7 171.1 174.3 180.3 186.7 191.5 202.2 212.5 220.7 230.6 237.8 242.8 249.1 251.6 262.8 265 272.3 281 288.3 290.7 284.3 293.8 295.8 297.3 298.4 297.2 304.7 306.3 304.2 302.9 305.2 311 322 328.4 326.3 327.4 325.9 316.8 298.8 299 305.4 313.8 313.8 325.7 318.1 323 331.1 332.9 326.9 327.1 337.6 340.8 343 326.1 312.1 298.4 278.1 267.6 260.5 250.8 242.8 241 236.5 243.2 240.6 241.2 242.9 244.7 231.7 230.4 241.2 248.1 252.7 263 275 285.6 306.2 313.6 312.3 308.9 313.3 308.4 308.8 304.9 299 291.5 284.5 274.1 269.4 264.9 253.6 231 218 210.1 208.3 206.4 208.2 204 210.9 224.8 231.7 240.9 242.2 240.6 239.7 244 248.8 250.8 259.7 273.7
125.2 122.7 123.4 117.4 107.6 100.6 101 100.9 106.5 105.1 97.9 90.1 84.8 81.8 73.6 58.2 43.5 32.2 30.3 34.2 28.6 25.5 27.2 56.3 66.4 75.1 79.6 94.8 99.1 102.7 105.1 99.9 76.6 68.4 62.2 60.4 61.4 57.7 58 66.1 67.3 60.6 51.7 39.5 30.6 20.6 12.5 10.1 6.7 5 5.7 17 32.3 31 30.1 31.7 32.3 47.5 57.7 71.9 62.8 63 73 74.8 79.8 80.9 79.4 61 70.7 86.7 99 121.3 127.1 134.5 136.3 141.4 141.4 142.9 136.7 127.9 115.9 115.9 127.5 128.3 122 135.7 139.6 152.8 162.2 171.4 175.5 176.2 178.7 183.1 190.2 198.7 204.6 220.3 230.3 235.6 243.3 250.3 256.7 263 264.9 272.1 277.6 282.5 293.8 296.1 293.2 300.3 303 302.5 310.7 310.3 306.6 311.6 311.1 311.9 315.3 311.4 316 324.6 329.9 332.8 323.3 314.3 304 301.3 304.2 308 310.4 313.1 316.9 329.1 337 332.1 327.5 325.9 334.2 339.8 334.7 322.9 307.4 294.8 282.1 269.7 264 261.3 250.8 243.9 232.1 238.2 239 240.9 247.3 247.5 236.7 228.5 234 242.3 247.5 252.6 261.8 275.5 297.2 305.5 309.5 308.5 311.4 312.7 299.8 298.3 293.6 280.9 277.6 269.1 262 258.4 252.3 231.9 216.3 206.4 200.7 193.1 188.7 199 205 220.4 228 233.4 237.5 239.8 241.7 244.6 246.3 251.1 265.4 278.9
146.4 135.8 127.6 109.5 107.5 109.2 108.6 114.2 114.7 115.9 94.5 86.1 82.1 82.8 67.3 50.4 44.3 31.6 31.4 32.8 29.4 26.2 26.6 60.3 62.8 67.9 77.8 93.7 98.9 103.8 103.3 89.8 75.7 69.8 73 63.9 59.1 59.4 66.8 70.3 72.8 67.8 56.4 47.4 36.1 22.8 11.6 12.3 6.4 5 11.4 12.9 31.5 31.9 32.1 34.9 36.3 39.6 42.6 44.3 48.3 61.9 67.6 68.9 70.4 65.9 60.1 70.2 93.1 116.6 123.3 123.8 138.2 138.2 145.5 149.6 150.5 142.8 145.6 135.5 126.8 130.4 131 135 136.4 126.6 142.3 153.3 167.3 171.5 178.7 179.2 185.5 192.5 198.8 205.7 215.6 226.1 239.5 247.5 251.2 257.7 259.1 267.1 273.1 275.1 282.2 290.5 297.5 303 304.5 310.9 316.8 314.2 316.7 320.4 316.5 316.4 316.8 318 317.9 316.3 320.6 321.1 329 328.4 322.4 314.9 314.2 306 303.5 304.6 307.5 310.1 317.3 329.2 332.3 330.6 330.9 328 321.8 330.8 328.2 319.1 308.7 292.8 290.3 278.8 269.2 258.3 251.1 241.4 232.5 229.7 232.7 236.4 240.2 241.8 230.8 227.6 230.7 232.3 235.4 243.9 253.5 271.4 288.2 297.1 302.8 306.7 307.4 305.2 311.5 294.7 284.6 277.7 273.4 259.8 245.3 243.4 243.1 232 218.7 206.5 190.6 187 185.9 202.3 209 222.6 231.2 237.7 241.1 243.7 245.1 247.8 250.7 254.3 267.7 277.3
