ncols 200
nrows 82
xllcorner 200000
yllcorner 232600
cellsize 50
180.2 188.1 193.9 200.1 208.6 217.5 227.9 237.3 244.7 252.7 260.7 269 276.5 283.6 286.7 290.4 290.9 291.1 291.2 290.8 289.9 287.2 284.3 280.9 276.3 272.6 268.4 264.7 261.4 259.1 258.1 257 256.7 256 256.5 256.5 256.5 257.1 258.9 259.6 261.3 262.3 263.8 265.4 266.3 266.1 264.1 261.6 258.3 255.5 253.8 253 251.8 250.9 251.7 253.9 255.9 259.1 262.3 266.1 271.9 276.9 282.3 287.5 291.6 296 298.2 299.2 299.1 297.9 296.2 293.7 291.3 289.5 288.1 286.6 285.7 285.7 286.5 285.7 289 291.5 293.6 296.6 299 301.2 302.3 301.9 300.7 299 296.1 295.3 294.6 292.7 292.6 291.6 291.1 290.5 291.3 292.4 293.5 294.6 296 298 299.9 301.6 303.4 304.9 306.3 305.6 305.2 305.6 306.2 306.2 305.2 302.5 299.6 296.1 290.3 285 279.1 274.3 268.1 261.6 252.9 244.8 235.3 227.2 218.2 209.4 202 194.6 188.2 182.3 176.7 170.2 163.9 158.4 152.1 146.1 139.6 134.2 129.3 124.6 119.5 107.5 101.7 97.1 93.9 90.9 84.6 88.7 82.7 78.7 86.3 89.1 91.7 93.1 94.3 95.4 100.4 103.5 112.7 116.6 123.2 128.7 130.1 134.4 135.7 137.4 142.1 145.5 153.7 158.5 165.7 174.1 184.3 181.7 180.1 196.6 188.4 184.7 177.1 167 162.6 163.4 162.6 162.4 164.2 165 166.6 168.1 169.7 168.9 167.8 164.7 159.2 156.9 158.6 160.6
181.4 187.6 193.8 200 207.3 214.4 222.8 230.4 238.3 244.9 253.3 260.2 267 272.6 275.6 278.1 280.9 281.4 283 283.2 282.3 281.4 278.4 275 271.2 268.8 265.1 260 258 257.6 256.7 256.1 256.4 257.3 258.2 258.7 260.1 261.4 262.8 264.9 267 269.2 272.1 273.2 274 273.7 272 270.5 267.6 264.7 261.3 258.8 257.9 256.1 256.7 258.4 260.3 262.8 266 270.2 274.9 280.3 284.9 289.7 294 297.4 300.6 301.9 301.9 301 299.2 297 294.4 292.5 290.8 289.1 288.7 288.3 288.8 289.8 291.6 293.1 295.2 298.4 301.3 304.1 306.3 306.3 304.9 303.6 302.4 301.1 299.6 298 296.6 295.5 294 293.4 293.2 294 294.6 295.3 295.5 297.2 298.3 299.9 301.4 302.7 303.5 302.3 302.3 302.7 302.9 302.7 301.5 300 297 293.3 287.3 278.1 273.6 267.5 260.1 254.3 246.2 239.5 231.6 222.1 213.5 205.5 198.8 192.1 186.6 180.6 173.6 168.3 161.8 155.6 150.5 144.1 139.3 133 127.7 124 117.7 103.3 97 93.9 87.9 85.4 85.6 80.1 85.4 92.5 92.8 92.5 93.5 95.2 96.7 96.4 101.2 106.7 112.6 121.3 125.1 129 136.2 142.8 145.7 147.3 149.3 155.9 160.3 167.5 175.1 184.1 194.8 194.6 194.3 195.5 194.8 192 187.5 184.1 182 177.5 170.9 169.2 172.3 172.8 172.5 172 174.9 174.6 172.3 168.4 163.4 157.8 157.6 160.4
181.6 187.9 193.4 199.4 205.3 213 220.3 226.7 232.7 238.6 245.4 251.8 255.7 259.9 262.9 264.8 266.9 268.8 270.3 271.5 272.3 271.6 269.3 266 263.1 260.2 257.2 255.7 255.2 254.6 254.5 255.2 255.9 257.5 259.6 261.2 263 265.4 267.3 270 273.2 276.7 280.3 282 283.2 283.3 281.7 279.6 276.2 272.6 268.9 265.8 263.8 261.5 262.6 262.5 265.4 267.6 269.5 273.2 278.2 282.8 287.3 291.3 295.5 299.2 301.7 303.9 304.7 303.9 302 299.7 296.9 294 292.4 291.2 290.6 289.7 290.6 291.6 293 294.7 296 299.1 302.1 306.1 308.6 308.8 308.2 307.5 306.3 305 303.4 301.3 299.3 297.5 295.5 294.1 293.8 294.1 294.4 294 294.1 294.8 295.9 297.3 298.3 299.6 300.4 299.3 298.3 298.5 298.5 298 295.9 295.7 290.8 284.3 276.1 271.1 266.9 261.4 255.4 249 242 234.5 226.3 217.7 210.1 202.6 195.6 188.8 183.4 178.1 171.5 166.3 159.3 153.6 148.6 142.3 137.4 131.2 125.2 121.6 105.7 97.3 92.4 92 92.8 92.1 92.5 91.4 92.3 94.3 94.3 94.4 95.2 97.2 99.4 99.7 102.3 110.6 118 124.1 129.6 134.9 141.1 146.2 149 156.9 157.1 165 170.6 179.7 187.8 195.1 204.1 206 205.2 207 205.6 199 194.9 194 193.1 190.4 187 183.9 181.8 180.9 180.6 182.5 181.1 179.2 176.4 172.5 167 157.5 158.7 160.4
181.1 187.2 192.2 198.7 204.3 211.9 218.2 224 229.9 234.4 239.7 244.8 248.2 252.4 253.9 255.9 256.8 259.5 261.1 261.9 262.5 261.4 259.9 258.3 255.9 255.1 253.3 252.3 252.4 252.9 252.8 253.9 255.8 257.4 259.2 261.9 265 267.5 271.7 275.2 280.4 284.6 288 291.7 292.4 291.7 290.6 288.9 283.9 279.5 274.8 270.7 270.1 269.3 268.5 268.7 270.3 272.3 274.3 277 280.8 284.7 288.6 292.5 296.5 300.2 303.3 306 307.1 306.1 304.1 301.6 298.6 296 293.6 291.9 290.9 290.1 290.8 291.7 293.7 295.4 297.1 299.5 302 305.9 308.4 309.7 309.4 309.6 309 307.6 305.5 303.2 300.3 297.5 295.4 293.4 292.2 291.9 291.5 291.4 291.4 291.8 292.6 293.5 294.3 296.6 295.1 293.2 292.4 293.8 293.4 292.1 291.1 287.6 283 278.1 272.4 267.4 261.8 255.3 249.8 243 235.8 229.1 222.3 214.3 207 199.6 193.3 188 182.2 177.2 169.5 164.4 158.5 152.7 148.1 142.4 136.3 130.9 123.1 112.6 99.7 94.5 92.3 91.8 93.6 94.4 94.9 94 93.6 94.3 95.4 95.8 96.5 98.3 104.9 103.4 106.4 116.2 121.4 125.9 129.6 137.6 144.7 150 154.3 156.7 166.1 173.1 180.6 189.2 195.8 202.2 211.5 215.9 214.9 213.8 213.4 209.5 203.2 200.4 199.6 198.1 195.8 194.5 191.5 189.3 187.9 188.1 186.8 182.5 181.2 176.5 169.8 158.1 157.4 158.7
180.6 186.1 191.1 197.6 203.7 209.6 215.6 220.9 227.4 231.9 236.3 240.3 242.6 244.8 246.2 248.3 250 250.1 251.3 252 251.2 251 249.8 250.2 249.2 248.8 248.1 248.7 248.9 248.8 249.4 251.8 254.4 257.1 260.4 263.6 267.7 270.6 274.9 279.8 284.6 290 295.5 298.6 300.2 300.2 299.1 296.5 292.6 287.7 283.3 280 275.3 274.2 273.5 273.9 274.5 276.1 278.4 281.1 284.2 286.2 289.6 292.7 296.6 300.2 303.6 306.1 307.4 306.8 305.1 302.5 299.5 296.3 293.8 291.9 290.4 289.4 290 291.4 293.3 294.8 296.6 299.3 302.5 305.4 307.6 309.2 310.3 310.3 310.2 308.6 306.5 303.7 300.5 296.6 293.2 291 289.4 288.6 287.9 287.6 287.4 287.2 287.6 288.5 288.9 288.9 288.5 287.1 288.6 288.7 288.4 287.6 286 282.6 278 272.6 266.8 261.3 255.2 249.4 243.9 237.4 231.7 225.3 218.3 212.1 205.4 198.2 192.1 187.3 181.4 175 168.8 162.9 158 152.5 147.7 141.9 137.2 130.4 120.8 109.2 98.9 94.2 94 99 100.9 98.5 96.3 96.5 97.2 96.6 96.3 97.1 97.2 99 102.6 107.1 110.6 117.2 124.1 126.9 131.3 142 146.8 150.5 154.1 158.8 170.9 178.2 186.3 194.4 200.7 207.9 218.8 223.1 224.3 222 222.4 218.5 212.7 207.9 206.3 204.5 202.5 200.7 199.1 196.4 195 194.1 192.4 189.4 185.3 180.5 174.9 166.4 158.2 157.9
181.2 187 191.3 196.3 202.5 207.5 213.4 218.7 223.8 228.1 232.4 236.5 238.6 240.8 241.7 243.8 244.9 245.6 245.7 245.9 245.2 244.6 244.3 243.8 244.4 243.8 244.1 244.9 245 245.4 247.2 249.4 252.7 256.5 259.7 263.5 267.9 272.2 276.6 281.7 287.5 292.1 297.2 301.6 303.5 303.4 301.8 299.1 294.7 290.4 286.4 282.7 280.5 281.3 281.4 281.2 280.1 280.3 281.7 283.6 285.5 287.3 289.1 291.6 295.3 298.9 302.3 305.1 306.4 306.9 305.6 303.5 300.6 297.5 294.7 291.8 290.2 288.5 289.2 290.7 292.1 293.7 295.5 299 302.6 303.9 305.9 307.4 308.1 309.6 309 307.6 305.7 302.4 299 295.1 291.1 288.7 287.2 285.5 284.5 283.9 283.7 283.9 283.6 283.8 284 283.4 282.8 281.4 282.3 282.2 281.9 281.2 279.8 276.4 271.9 266.9 261 256.3 251.2 246.2 240.4 234.8 229.1 223 216.6 210.1 203.2 197 190.9 185.1 179.8 172.8 167 160.8 156.4 152 147.1 142 137.2 132.6 120.2 106.9 98.9 94.3 98.4 101.9 103.2 104 103.3 100.5 99.5 98.4 98.8 100 100.5 101.8 105.7 109.3 113.7 119.9 124.6 130.7 135.5 143.3 148.2 151.6 155.5 160.4 168.6 182.8 189.1 197.7 204.8 215.2 225 228.2 230.4 230.6 230.1 228.5 225.1 216.3 212.5 210.6 208.9 206.6 204.8 202.1 200.4 199.1 196.3 193.6 189.6 184.5 178.8 173.1 166.1 159.6
182.2 187 191.8 196.6 201.7 206.6 211.8 217.1 221.3 225.6 229.7 233.4 235.5 236.8 237.9 239.6 240.6 240.9 241 240.6 239.9 239.6 238.9 238.8 239.1 239.2 239.8 240.8 241.8 242.8 244.5 246.9 250.2 254 257.8 262.6 267.4 272.5 277.6 283.4 288.9 294 299.3 303.2 305.6 304.7 303 299.7 295.6 291.2 287.5 284.2 282.5 282.7 283.3 284.2 284.5 285.2 285.2 285.5 286 287.3 289.1 290.3 292.6 294.3 298.2 302 304.9 306.5 306.5 304.3 301.4 298.4 294.9 291.5 289 287.6 287.4 288.3 289.2 291.7 294.2 297.3 300.5 302.4 303.6 304.9 306.3 307.1 307.4 306.1 304.1 301.4 297.9 293.2 289.9 287.1 284.8 283 281.8 281 280.3 280.4 280.5 280.3 280.3 279.5 278.7 277.6 277.4 277.6 277.2 276 274.5 271.4 267.5 262 257.2 252.5 248.2 243 237.5 231.9 226.7 220.4 213.5 208.4 201.9 196.2 190.4 184.6 179.2 172.3 165.8 160.6 155.3 150.7 146.4 141.2 136.2 130 123.5 104.7 97.3 95.9 97.7 103.4 105.9 106.5 105.9 105.3 104.5 104.8 104.2 106.9 106.7 105.9 109.3 113.4 117.2 122.7 126.9 131.8 137 142.6 149 152.8 156.8 161.2 170.1 183.5 192.3 201.9 209.8 220.2 229 232.6 234.7 235.4 234.8 235.3 233.7 223.4 219.5 216.6 214.7 212.6 209.8 207 204.5 203 200.8 197.7 192.7 187.7 182.1 175.8 171.1 166.2
182.8 188.6 192.4 196.7 201.6 205.8 211.4 216.2 219.5 223.1 227.2 231.3 232.7 232.8 233.7 234.5 235.3 235.1 235 234.6 234.6 233.6 234.1 234.1 234.3 234.7 236 236 237.8 239.8 241.7 244.1 247.6 251.2 255 260.8 266.3 272.2 278.5 284.1 290.1 295.8 300.4 304.3 306.6 305.8 303.5 300 296 291.9 286.8 284.1 283 283.7 284.4 285.1 285.5 286 286 285.8 286.1 286.9 288.4 289.2 289.8 292.1 295.4 298.9 302.6 305.1 305.5 303.9 300.9 297.5 294 289.8 286.9 285.3 284.2 283.9 284.4 286 290.7 294.5 297.1 298.3 298.5 299.9 302.3 303 303.1 302.7 300.6 297.9 294.5 290.1 286.3 282.9 280.9 279.5 278.2 277.5 276.6 276.3 276.2 275.9 275.2 274.8 273.7 273.2 273.2 273.1 272.4 271.2 268.4 264.7 261.2 256.6 252.9 250.2 245.3 239.6 234.3 228.6 222.3 216.6 211.2 206.2 200.3 194.5 188.5 183 176 169.5 165.1 160 154 149.2 144.8 140.8 136.1 125.7 115.8 102.7 98.7 97.4 99 106.6 108.2 110.3 112.6 110.3 109.4 111.9 111.5 113 110.5 109.1 111.2 117.1 121.2 126.5 128.7 132.4 137.9 142.6 148.6 156.4 157.9 161 168.3 186.8 194.7 204.6 214 224.8 232.6 235.1 237.4 239.4 238.7 238.2 238.3 228.7 224 221.5 219.6 217.6 214.9 212.1 209.7 208.5 204.8 201.1 196.1 190.3 184.6 178.6 173.8 169.4
183.6 188.9 192.3 196.3 200.8 204.9 210.1 214.7 218.1 221.3 224.3 226.5 228.9 230 229.8 230.1 230.5 230.8 230.9 230.2 229.8 230 229.7 230.9 230.8 231.2 231.9 233.6 234.4 236.6 238.9 241.2 244.2 248.1 253.4 259.7 265.6 272.5 279 285.4 291.7 296.8 302.1 305.1 306.6 305.7 302.9 299.3 295.1 290.3 286.1 283.4 282.2 282.7 282.9 283.7 284.5 284.8 284.2 284.1 284.7 286.4 286.9 287 288 289.7 292.9 297 300.2 302.7 303.2 301.9 299 295.4 292.2 287.6 284.1 282.2 280.3 279.8 280.3 281.3 284.6 287.4 290.5 291.2 290.6 291.8 293.7 294.5 293.7 293 292.1 290.2 286.4 283.7 281.1 278.4 276.6 275.1 274.8 273.1 272.8 272.3 271.9 271.7 270.7 270 269 268.4 267.9 267.7 267.1 265.4 262.9 260.6 257.6 254.5 250.9 245.8 241.9 237.2 232.4 226.1 218.3 213.8 209.2 204.1 198.4 192.9 186.5 180.2 173.9 168 163.2 157.3 152.4 147.7 144.2 139.6 135 126.2 111.3 104.1 99.4 97.8 101.8 108.3 109.6 112.3 112.6 111.6 112.8 114 117.8 114.7 111.4 111.9 113.7 120.1 126.4 130.5 129.7 133.6 138.7 144.4 149.4 157.5 158.3 163.3 174.3 188.4 197.7 207 216.5 225.8 233 236.7 239.5 241.8 241.8 241.3 238 233.3 228.5 225.8 223.2 221 218.6 216.6 215.7 212.6 208.4 203.9 199.2 191.9 186.6 180.8 175.7 171.2
184.9 189.2 192.5 196.1 200.1 203.9 208 212.3 216.1 219.4 221.9 224.4 226 227.2 227.6 227 226.8 226.3 225.6 225.2 224.7 225 224.5 225.3 226.6 227.3 228.8 229.7 231.6 233.7 235.7 238.6 242.2 246.4 252.3 258.7 263.8 272.5 279.3 287 293.2 298.6 303.7 306.5 306.4 304.4 301.6 297.7 293.2 288.9 284.9 281.6 280.1 279.5 280.1 281 280.8 280.3 279.8 280.7 280.4 281.8 284.4 284.9 285.7 287 289.8 293.8 296.8 298.8 299.1 297.9 295.5 292.4 288.3 284.2 280.2 278.4 277 275.8 275.6 275.8 277.3 278.9 281.1 282.7 282.6 283.2 284.4 284.9 284.4 284.5 283.3 281.6 279.6 277.7 276 274.7 272.8 271.5 270.4 269.3 268.5 268 267.6 267.3 266.4 265.3 264.6 263.2 263 262.3 262.2 261.2 258.8 256.4 252.6 246.3 244.6 241.1 237.2 232 226.1 220 214.5 210.3 206 201.9 196.4 190.5 184.1 177.4 170.1 164.6 159.7 155.3 149.6 145.3 142.1 138 133.4 123.1 109.2 101.3 99.2 99 101.8 108.8 110.8 111.6 112.5 112.7 113.2 114.4 116.1 113.2 113.3 114.3 117.6 121.9 127.2 132 131 137.3 141.2 144.1 149.4 152.2 161.3 169.7 181.1 191.4 200.9 208.9 217 225 233.9 238.1 240.7 243.2 243.8 243.1 240.6 235.7 231.1 227.9 225.3 223.4 221.3 219.9 219 217.1 211.3 204.5 199.7 193.3 187.2 182.2 177.1 172.2
186.2 189.6 192.8 196.3 199.6 203 207 211.1 214.4 217.5 219.9 221.7 223.2 223.4 223 222.5 221.3 220.4 219.9 219.7 219.6 220.2 220.2 221.5 222.4 223.5 225.5 227.4 229.3 231 233.3 235.9 239.8 243.9 248.3 255 262 269.4 277.6 283.8 290.6 297 301.1 302.6 303.6 301.6 298.6 294.7 290.3 286.7 283.1 279.5 277.6 277.2 277 276.9 276.4 275.6 275.3 275.6 276.4 277.7 279.5 281.1 282.6 285.1 287.3 289.4 292.1 293.5 293.6 292.9 291.3 288.2 284.5 280.5 277.3 275.7 273.6 271.7 271.4 271.6 271.3 272.3 273.2 273.6 274.7 275.5 276.2 277.1 276.8 276.5 275.7 275.4 274.4 273.2 272.1 270.8 269.3 268.2 266.9 265.8 264.8 263.8 263.3 262.7 261.9 261 260.2 258.9 258.3 258.5 257.6 255.3 252.8 250.2 245.7 242.1 239.6 235.7 231.1 225.4 219.7 215 210.4 206.6 202.8 198.6 193.1 187.6 181.5 174 167.7 161.9 156.9 152.3 148.4 143.3 139.5 136.2 126 113.3 101.4 98.8 98.5 100.2 105 108.3 109.6 110.9 113.2 113.5 114.3 114.8 114.8 113.8 114.5 117.2 120.2 122.5 128.2 130.3 134.8 140.5 144.3 148.7 151.2 161.2 166.9 173.2 182.4 193 203.8 210.6 218.1 225.2 234.3 239.5 241.7 243.6 244.3 244 243.1 238.1 233 229.9 227.5 225.4 223.7 222.4 222 219 212.7 205.2 200.1 193.7 187.5 182.6 177.6 172.8
187.9 190.6 193.5 196.5 199.7 202.4 206.1 209.6 212.6 215.3 217.7 219.5 219.9 219.5 219.2 218.6 217.5 216.8 216.1 215.8 215.5 216 217 217.9 218.6 220.5 223 224.7 226.2 228.6 231.1 234.2 237.8 241.3 246.2 251.1 257.7 264.8 272.2 279.1 284.2 290.6 293.7 295 295.2 294.5 292 288.2 285.9 283.4 279.4 275.7 273.4 272 271.7 272.3 272 271.4 271.7 272.2 272.8 274.7 275.3 276.6 278.4 280.2 282.5 284.2 285.4 285.9 286 286.2 285 282.9 279.5 276.1 273.5 271.6 269 268.2 267.8 267.5 267 267.2 267.2 267.9 268.2 268.6 269.3 270.1 269.7 270.4 270.4 270.1 269.4 268.7 267.2 266.7 265.7 264.7 263.8 262 260.9 259.2 258.3 257.4 256.4 256 255.3 255.3 253.7 252.5 251 249.7 247.3 244.4 241 237.1 234.2 229.6 224.5 219.7 215.4 210.5 206.5 203 197.3 194.6 190.6 186.5 180.5 172.3 166 160.3 155.1 150.1 145 138.2 131.2 122.6 112 101.7 98.8 98.4 99.8 103.8 108.9 111.5 112.7 113.3 113.7 113.3 114.9 115.3 115 117.8 119.7 120 121.9 124.7 127 136.1 139.5 143.6 149 152.4 155.8 159.4 170.3 176.1 184.2 197.4 207.4 214.5 219.8 228.3 233.1 240.1 241.9 243.2 244.1 243.8 242.3 238.8 233.9 231.1 228.7 226.6 225.1 223.7 222.4 219.5 212 205.4 200 194 187.4 182.3 177.5 172.8
189.5 192 194.7 197.5 200.1 202.8 205.5 208.8 210.6 213.3 215.4 216.8 217.2 216.8 216.7 215.3 214.3 213.7 213.2 212.5 212.1 212.3 212.9 214.5 216.9 218.7 220.5 222.5 224.8 226.7 229.6 233 236 239.2 243.3 247.6 252.3 259.9 266.1 272.1 277.6 282.4 285.1 287.2 287.6 286.8 285.3 283.2 280.7 278 275 272 269.7 268.1 267.9 268.1 268 267.6 268.2 268.7 269.5 270.6 271.5 273.1 274.8 275.9 277.3 278.7 279.9 281.4 280.8 280.3 279.3 277.7 274.9 271.6 270.3 267.8 266.4 264 263.8 263.6 262.9 262.8 262.8 262.4 262.6 262 262.9 263.8 264.3 264.3 265 265 264.5 264 263.7 262.9 262.1 260.7 259.6 258.2 256.9 255 254.3 253.2 252.2 251.6 250.7 250.3 248.9 247.6 246.6 245.1 242.6 238.9 235.3 231.8 227.7 222.6 219.5 215.2 211.3 206.7 202 198.7 195 191.4 188.5 183.8 177.5 169.7 162.9 157.4 151.9 148 141.1 133.5 117 106.9 101.2 99.8 100.1 101.2 107.9 110.2 113.4 115.4 116.4 115.6 115.2 114.6 119.5 116.7 115.9 117.3 119 120.8 124.6 127.7 130.1 137.2 143.8 148.4 151.5 155.7 159.2 162 169.7 180.7 189.8 199 207.7 216.7 223.3 229.8 234.4 239.8 241.4 242.9 243.7 242.5 240.7 237.3 233.6 230.8 228.9 227.3 225.1 223.5 221.5 217.7 211.3 204.6 199.3 193.2 186.8 181.6 176.8 172
192.3 193.7 196 198.2 200.3 202.7 203.9 205.7 209.9 212.4 213.9 214.8 215.3 215.3 214.4 212.4 211.2 210.5 210.3 209.8 209.2 208.9 210 212.7 214 216.2 218.2 220.4 221.9 224.3 228.2 231.7 235.2 238.3 241.7 246 250.1 254.9 259.1 264.7 270.9 274 278.4 279.5 279.6 280 278.7 277.7 275.3 272 269.2 267 265.1 264.9 263.5 264.2 264.3 264.3 265.4 266.1 266.4 267.8 268.7 269.8 271.3 272.4 273.5 275 275.9 276.5 276.4 275.8 274.4 273.4 271.6 269.4 267.2 264.4 262.5 261.4 260.3 259.8 259.2 258.2 258.2 258 257.6 257.6 258 258.5 259.3 259.5 259.5 260 260.1 259.6 259.5 259.2 258.5 257.5 256.2 254.4 253.1 250.7 250.2 248.9 248 246.7 246 244.9 243.9 242.2 241.1 240.3 237.8 234.7 230.4 226.3 222 217.9 215.6 211.6 207 202.1 197.4 193.7 190.4 187.6 184.7 180.2 175.6 168.9 161 155.2 148.7 140.7 134.9 121.8 104.8 101.7 102 100.6 107.7 112.9 114.7 115.9 117.9 119.3 118.2 118.4 116.8 115.5 115.1 116.7 121.3 120.2 122.9 128 128.8 131.3 135.7 142.7 147.4 151.3 154.6 156.9 161.6 166.8 174.7 185.1 191.8 199.2 210.6 217.9 225.8 230.5 235 240 241.4 242.4 242.7 241.1 238.7 235.8 232.9 229.9 228.6 226.9 224.5 222.2 219.7 214.9 209.4 204 198.7 191 185.3 180.6 176 171.4
194.4 195.8 196.6 198.6 200.6 202 203.2 205.1 207.6 209.5 211 212.1 212.3 211.2 210.1 209.1 208.2 207.2 207.6 206.6 205.9 205.5 208.1 209.6 211.6 213.4 215.1 216.7 219.3 223.4 226.9 230.1 234.4 237 240.7 244 248.2 252.3 256.2 260.2 264.1 267.7 269.5 271.3 273.5 273.3 272.8 270.1 267.9 266 264.7 263.2 261.7 260.9 260.6 261 261 261.2 261.8 262.4 263.3 264.4 265.2 266.2 267.3 268.6 269.6 270.5 271.1 271.8 271.6 271.1 270.3 269.2 268.1 266 263.4 262.4 259.8 258.3 256.6 256.5 255.7 254.8 253.6 253.4 253.2 254.1 253 253.1 254.5 254 254.8 255.6 256.1 255.8 255.6 255.4 254.7 253.7 251.9 250.1 248.6 247.4 245.8 244.2 242.9 242 241.1 239.8 238.5 236.6 236.5 235.8 234.5 231.5 227.4 222.6 217.8 213.7 210.1 207.1 202.6 195 191.6 188.8 184.9 181.5 177.8 174 170.4 162.5 155.7 150.4 145 134.7 114 108.2 102.3 101.5 103.5 108.2 113.4 119.1 122.5 124.9 126.1 126.6 124.9 126.9 126.5 118.7 116.3 116.9 123.2 124 127.3 130 132.4 135.1 141.1 145 149.2 153.7 155.3 159.8 166.6 171.5 179.3 187.3 193.6 199.8 211.7 219.7 226.7 230.9 234.9 238.7 240.8 241.4 241.3 239.4 237.5 234.1 231.1 228.6 227.2 225.3 222.9 220.5 217.4 212.9 207.4 202.6 196.1 189.7 184.1 179.4 175.1 170.4
196.1 196.5 197.4 198.3 199.3 200.4 201.8 203 204.5 206.2 207.7 209 209.1 207.8 206.7 205.5 204.1 203.3 202.7 202.3 202.5 202.9 204.6 206.4 208.2 209.6 211.7 214.6 218.7 222.7 226.3 230.5 232.1 235.7 239 243.1 246.8 250.1 253.9 257.1 260.5 262.7 264.3 265.4 265.9 265.6 265.7 264.6 263.5 261.2 259.9 259.1 258 258.3 257.8 257.8 257.9 258.2 259.4 259.5 260.3 260.9 261.9 262.8 263.7 264.6 265.8 266.9 267.4 267.7 267.4 267.1 266.6 265.2 263.8 262.6 260.5 258.6 256.9 254.7 252.7 252.9 252.1 250.2 249.7 249.6 248.9 248.8 248.3 248.6 249.6 249.9 250.5 251.3 251.5 251.6 251.4 251.7 251 249.4 246.9 246.2 244.8 243.2 241.3 240.5 237.4 237.2 236.1 234.8 234.3 232.8 232.3 231.9 231 228.2 224.2 219.4 213.5 209.7 206 200.7 197.3 189.2 184.2 183.1 179.7 176 172.9 169.1 161.6 156 146 142.6 134.7 115.7 106.3 104.5 102.4 101.8 105.8 112.3 121.9 125 130.4 134.6 135.7 136.8 138.1 137.3 134.8 131.4 120.9 117.7 125.5 128.3 128 133 137.2 139.6 143.4 146.5 149.4 153.6 159.1 162 168.7 174.1 180.3 187.8 194.4 201.2 210.6 218.3 225.6 230.2 235 238.5 240.2 240.4 240.2 238.4 236 232.6 229 226.7 225.5 223.7 221.2 218.7 215.7 209 204.3 199.1 193.7 188.5 182.8 178 173.5 169.2
197.1 197.3 197.5 197.4 197.9 199.6 200.3 201 202.7 203.8 205.2 206.7 206.8 205.4 204.1 203 202 201 200.3 200.4 199.6 200.6 201.8 202.7 203.8 204.7 207.8 212.4 217.1 221 225.2 228.6 231.9 234.1 238.4 242.5 246 248.7 251.8 254.6 257.4 259.3 260.7 261.8 262.1 261.8 261 259.7 258.5 257.1 255.8 254.8 255.2 254.7 253.9 254.2 254.4 254.7 255.3 256.3 257.6 258.6 259.5 260.6 261.7 262.1 262.8 263.5 264 264.3 264.1 263.8 263.2 262.2 260.6 258.6 256.7 254.9 253.3 251.6 249.6 249 248.8 247.8 247.1 246.8 244.9 244.7 244.5 244.5 245.4 245.5 246.1 246.7 247.4 247.7 248 248 247.7 245.7 243.9 242.4 240.9 239.3 238.1 235.9 234.1 233 232.1 230.9 229.8 228 227.4 227.2 227.1 225.7 221.1 216.1 209.1 204.4 199 194.8 186.6 176.8 167.3 165.7 160.1 154.6 150.7 143 136 130.9 123.7 118.1 111.3 113.9 110.8 103.2 104.1 104.2 118.4 133.4 135.9 131.8 139.6 145.6 147.3 148.8 147.3 145.2 141.5 137.3 125.7 118.1 120.3 132.8 134.7 137.9 139.8 142.9 146 148.8 150.1 154.5 160.2 166.1 171.8 176.3 180.7 188 193.6 200.8 209.3 216.5 223.1 229.3 234.3 237.5 239.3 239.9 239.4 236.7 234.5 231.1 227.5 225.3 223.3 220.5 219.4 216.9 211.2 205.7 201.7 196.8 191.2 186.4 181.2 176.8 171.2 168.2
197.9 197.9 197.1 196.8 196.1 197.1 198.1 199.2 201.2 202.4 202.8 203.5 203.8 203.2 200.4 199.2 198.7 197.6 197.7 197 196.1 198.1 198.6 200.3 200.5 201.3 205.6 210.2 215.2 218.8 222.9 226.9 230.2 233.6 237.3 241 244.5 247.2 250.2 252.8 255.7 256.9 258 258.5 258.5 258.3 257.6 256.5 255.2 253.5 252.7 252.7 251.5 251.2 250.1 251.6 251.5 251.2 252.7 254.2 254.9 256.3 257.5 257.9 259.6 259.7 260.6 260.8 260.9 261.2 261 260.5 259.8 259.1 257.3 255.8 253.8 251.8 250.1 248.6 247 246.4 245.4 244.1 243.3 242.8 241.8 241.2 240.8 241.3 241.5 242.1 241.9 242.9 243.8 244.2 245.3 245.5 244.3 243.1 240.8 238.4 237 234.8 233.5 231.5 230.5 228.4 227 225.9 224.7 223.6 223.3 222.8 222.1 220.9 218 211.7 197.1 192.5 176.8 170.6 161.7 155 143.2 139.5 133.3 127.7 123.4 118 115.9 114.3 111.1 110.9 113.8 108.4 105.1 104.2 104.5 122.6 144.9 148.1 145.6 140 148.7 155.8 159.2 159 157.6 154.7 149 144 138.3 130.1 120.7 132.6 138.6 141.7 146.4 149 150.7 151.4 152 156.4 162.3 168.6 172.8 177.1 182.5 188 192.4 198.7 207.9 215.5 222.5 229.1 233.8 237.1 239.1 239.6 238.6 235.5 232.9 229.1 226.6 223.5 220.4 218 215.7 213.2 208.2 203 198.8 193.9 189.1 184.6 179.4 174.7 170.1 166.6
198.4 196.9 195.8 194.7 194.9 195.7 196.1 197.9 198.5 199.6 200.6 201.1 201 200.3 198.5 196.7 194.9 194.4 193.7 193.6 192.8 193.7 193.1 197.4 197.1 199.2 203.6 208.3 213.1 217.4 221.4 225.2 228.8 232 235.1 238.8 242.4 245.3 248.3 250.6 253.2 254.9 255.6 255.7 255.5 255.1 254.5 253.2 252.7 251.9 249.6 248.8 249 248.1 248.7 248.7 249.2 249.8 251 251.7 253.1 254.6 255.6 256.5 256.8 257.3 257.9 258.6 258.8 258.8 258.6 258.2 257.3 255 254 253.5 251.2 249.4 247.3 245.7 244.1 242.6 242.4 241.3 239.8 240.5 238.1 238.1 237.6 237.5 237.6 238.2 239 240.1 240.8 241.5 242.1 242.1 241.8 239.9 237.3 235.2 232.5 231.1 230 227.7 225.9 224.3 222.4 220.8 220.2 220 219.5 218.9 217.3 216.4 203.7 191.3 177.5 170.6 156 145.4 138.8 131.3 123.9 117.9 114 113.2 111 109.2 110 111.1 112.4 115.6 112.9 106.5 105 105 118.6 144.4 156.1 157.3 155.3 150.3 159.7 168.7 170.5 169 167.8 164.8 159 152.3 147.1 144.5 135.9 127.1 142.9 146.2 148.5 150.6 153.3 153.4 153.1 158.3 165.6 169.8 173.7 178.1 183.4 188.7 194.6 201.1 210.4 217.9 224.1 231.1 235.8 238.2 239.5 239.2 237.3 234.4 230.8 227.4 223.5 220.9 216.9 214.7 212.7 210 205.4 200.6 196.2 191.7 186.7 181.8 177.2 172.8 168.1 164.5
197.8 196.2 194.2 193.3 193.9 194.3 194.7 195.4 196.4 197.2 197.2 197.9 196.8 196.5 194.8 193.3 191.6 192.1 191.3 190.4 189.8 190.3 190.9 192.9 192.9 198.1 201.9 205.9 211.2 215.2 219.2 223.3 227.1 230.4 233.7 236.9 240.1 242.8 245.3 247.6 249.8 251.4 252.1 252.7 252.6 252.4 251.8 250.6 249.4 248.4 247.1 246.2 246.5 246.3 246.3 246.9 246.8 248.4 249 250.3 251.7 252.7 253.5 254.1 254.4 254.9 255.5 255.6 256.4 256.5 256.5 256.1 255.1 253.2 251.7 250.7 248.8 247.5 245.6 244.1 242 240.3 238.7 238.1 236.7 236.2 234.8 234.2 234.1 234.5 233.9 234.7 235.5 237 238.1 238.5 239.2 239.2 238.7 237.7 233.6 231.2 228.7 226.8 225.3 223.6 221.9 220.3 218 217.1 216.4 215.8 215.8 214.9 206.9 199 179.5 165.7 153.1 144 133.6 128.5 122.4 118.4 112.5 112.6 110.5 110.6 110.5 112.5 114.2 111.8 109.9 109.3 107.9 107.9 107.5 114.7 133.9 160.9 166 167.1 166.7 162.1 170.9 177.2 179.6 179.7 178.3 175.2 168.8 161.8 156.3 152.1 147.7 126.2 134.1 146 148.9 152 153.5 150.2 154.8 160 166.4 171.2 175 179.4 185.9 189.9 196.4 202.2 213.7 220.5 226.8 233.3 237.6 240.1 240.9 239.4 236.9 233.6 229.4 224.6 221.7 217.8 214.1 211.6 209.6 206.6 201.8 197.4 193.4 188.6 184.5 179.4 175.4 171 166.1 162.7
196.3 195.3 192.9 190 191 191.2 191.9 192.3 192.6 193.5 194 194.2 193.9 193.5 191.9 190.6 189.1 187.6 186.7 186.3 186.1 186.7 189 189.2 193 196.6 200.3 204 208.9 213.1 217.1 221 224.6 228.1 231.5 234.8 237.5 240.2 242.5 244.7 246.3 247.8 248.7 248.7 248.7 248.7 247.9 247 246 245 243.5 243.4 243.6 243.7 244.5 244.6 244.1 246 247.1 247.9 249.1 250.4 251.1 251.8 252.1 252.5 253.4 253.8 254.3 254.4 254.6 254 253.2 251.3 249.7 248.3 246.7 245.5 243.5 241.7 239.9 238 236.6 234.8 233.4 233.2 231.4 231.7 231.2 230.4 230.7 231.2 232.1 233.1 234 235.2 236.4 236.3 236 233.9 231.3 228.3 225.1 222.4 220.3 219.1 218.2 216.4 214.7 213.4 213 210.8 210.8 194.2 184.8 166.4 158 143.3 131.9 126.6 121 118.3 113.6 111.8 110.7 110.5 112.4 113.5 116.8 110.2 110.9 109.5 109.2 108.5 106.8 108.9 114.2 132.6 153.6 173.1 176.4 175.7 175.9 172.7 181.2 185.1 188.3 188.6 187.4 184.9 179.8 172.9 166.4 160.8 155.1 130.4 128.3 132.9 144.6 144.3 147.9 151.6 157 162.6 167.7 171.7 176.2 180.4 187.5 193 198.7 205 215.3 222.8 229 235.3 239.5 242.2 242.4 239.9 236.6 232.6 227.8 222.9 219.2 215.2 211.6 208.8 206.7 203.3 198.8 194.5 190.7 186.2 181.4 176.6 173.6 168.6 163.8 160.9
190 190.9 188.8 186.5 186.9 187.8 188.5 189.1 189.4 189.5 189.5 189.7 189.5 188.6 187.7 186.6 185.4 184.5 182.9 182.4 183.6 185.7 185.8 188.6 191.1 194.9 198.8 203.2 206.9 211.1 215.1 219 222.6 226.1 229.1 232.2 235.1 238 239.4 241.7 242.8 243.9 244.9 245.6 245.8 245.4 245 244.3 243.3 242.4 241.1 240.2 241.2 241.2 242.3 243.2 242.6 243.7 244.8 245.8 247 247.7 248.4 249.1 249.6 250.1 249.8 251.2 251.5 251.7 251.5 251.3 250.4 248.8 247 247 245.5 242.5 241.8 239.7 237.9 235.7 234 231.2 229.8 229.7 229.6 228.1 228.2 227.7 227.9 228.5 228.9 229.9 231.1 232.2 233.5 233.7 232.9 231.4 228.1 225.4 223 219.5 216 214.6 213.8 212.1 210.6 208.7 208.2 205.4 191.5 174.3 155.8 146.9 135.6 124.7 119.6 116.3 113.2 112.9 111.7 111.5 112.5 124 138.1 149.3 149 124.7 111.6 110 110.3 110.3 117.8 126.1 136.8 158.5 180.1 184.9 186.7 186.6 185.5 181.6 187.8 192.6 196.1 196.6 195.6 193 188.8 182.8 176.9 170.3 162.3 150.9 140.9 135.6 142.6 149.3 153.7 156.7 161.5 165.7 168.4 173 177.1 183.1 191.3 195.7 201.1 207.7 215.9 225.2 231.1 236.3 240.5 243.3 243.1 239.8 236.5 231.5 226.1 220.9 216.4 212.4 208.6 206.8 203.3 200.6 195.5 191.4 188.5 183.5 178.6 174.6 170.4 166.4 162.4 158.7
182.6 183.2 182.9 181.5 182.9 183.6 184.5 185.5 186.1 185.9 185.8 185.4 185.1 184.4 183.5 181.4 179.7 178.7 178.4 179.3 181.4 181.9 184.8 187.6 191.2 194.4 197.9 201.7 205.3 209.1 213 216.9 220.8 224 227.1 229.4 231.4 234.1 236.1 238.5 239.4 240.9 241.2 241.7 242.5 242.2 241.8 241.3 240.6 239.8 238.5 238.4 238.3 238.9 239.6 240 240.3 241.1 242 243.8 244.4 245.1 245.7 246.4 247 246.8 247.7 248.3 248.6 248.4 248.2 247.8 247.2 245.4 244.6 244.5 243.1 241.3 239.3 236.8 234.9 233.1 231.1 229 227.2 227.8 227.3 225.5 224.9 224.2 224.3 224.7 226 227.1 228.5 229.1 229.6 230 229.2 227.8 225.8 223 220.4 216.7 211.2 208.5 206.5 205 203.3 202.2 201.4 191.8 168.8 156.6 139.4 129.7 123.8 115.1 113.4 113.1 112.2 112.8 112.6 121.5 139.1 156.1 168.6 176.2 179.6 156.7 134.8 132.9 128.9 137.1 145.2 157.1 174.4 189.1 195 194.8 195.5 195.5 195.8 191 195.3 200 203.4 204.5 203.5 201 197.5 192.7 186.9 179.6 170.8 162.8 158.2 154.4 152.4 157.4 158.6 162.3 164.5 167.8 170.9 175.8 179.9 186.4 193.8 198.9 204.2 211.3 218.1 226.7 232.7 236.7 240.9 244.2 243.6 240.5 235.7 230.4 224.9 219.3 214 209.9 206.6 202.5 200.1 196.5 192.3 188.8 185.4 180.8 176.9 172.5 168 164.4 161.6 157.5
176.1 176.5 177.2 177.9 178.9 180.4 181 181.8 182.4 182.1 182.3 181.2 181.1 180.2 179.3 177.9 175.3 173.5 173.8 176.4 178.4 180.5 184.4 187.3 190.9 193.6 196.9 200.7 204.3 207.9 211.6 215.1 219.1 222.6 225.3 227.4 229.2 231.1 232.8 234.6 235.4 236.3 237.2 238.3 238.5 238.9 238.5 238.1 237.6 236.6 236.1 235.1 236.3 237.1 237.6 238 238.6 239.7 240.6 241.5 242.1 242.8 243.4 244.1 243.9 244.8 245.1 245.5 245.7 245.1 244.7 244.2 243.7 241.8 241.7 241.6 240.3 238.8 236.6 234.3 231.5 229.6 228.2 225.6 219.7 224.5 224.1 223 221.8 220.9 221.4 221.1 223.5 224.4 225.3 226 226.5 227 226.4 224.6 222.5 219.1 216.6 211.2 205.3 202.4 200.2 198.9 196.2 197.1 195.1 179.8 155.3 137.3 127.6 124.5 119.6 114.8 113 112.7 114.5 124.4 133 148.5 167.7 182 187.9 189.9 189.7 182.6 156.9 152.8 155.6 167.7 179.4 190.3 199.2 201.6 203.3 207.2 205 207 202.8 201.7 201.8 207.1 210.6 212.4 211.2 208.9 206.3 202.1 196.5 189 179.9 170.2 163.2 159.5 157.4 160.2 162.5 165.1 168.9 171.7 175.3 177.7 182.8 188.4 196.2 202.4 208 214.1 220.2 228.4 233.4 237.1 241.2 244.6 244.3 240.7 235.9 229.5 223.5 218.7 213.1 208.7 202.3 199.2 197.5 193.4 189.2 186.2 182.8 178.7 175 169.7 166.1 162.6 159 155.4
171.7 173.1 173.5 174.6 175.3 176.3 177.5 178.2 178.5 178.3 178.2 177.6 176.9 175.7 174.8 173.1 168.9 168.9 169.8 172 175.8 179.4 182.8 186.5 189.3 192.7 196.2 199.7 203.2 206.2 209.9 213.5 217.4 219.8 223.7 226.3 227.2 228.9 230.4 232.1 232.6 233.3 234.6 235 235.7 235.5 235.3 235.1 234.6 233.9 233.2 232.7 234.2 234.5 235.5 235.4 236.4 237.8 238.7 239.3 239.9 240 240.2 241.4 242.2 241.9 242.4 242.8 242.9 242.7 241.1 240.1 239.2 238.3 237.7 238.1 237.2 235.7 233.5 231.1 229 226.6 224.3 222.8 203.6 218.4 220.2 219.6 218.1 216.7 216.5 217.4 219.7 219.8 220.7 221.7 222 221 220.4 218.8 216.5 212.6 209 204.8 198.6 196.3 194.2 193.9 191.8 190.9 181.3 162.8 149.7 130.4 123.5 120.1 116.6 113.6 113.5 121.2 129.5 140.3 153.9 167.5 180.2 190.4 192.6 193.8 194 192.1 186.6 185.4 189.2 198.7 203 206.1 211 210.2 212.7 212.1 212.4 212.1 211 208.9 209.6 215.4 219.1 219.3 218.3 216.8 214.6 210.9 205.5 198.3 189.4 178.4 169.4 164.4 162.4 164 167.8 170.5 173.4 176.2 179 183 185.9 190.8 198.6 205.3 210.8 216.4 221.9 228.9 234 237.8 241.8 246 245.1 241 234.3 228.5 223 218.5 211 206.1 200.1 196.6 193.4 190.3 186.5 183.1 180.2 176.3 171.3 166.5 163.8 160 157.2 154
168.6 170 170.3 166.4 171.8 172.8 173.9 174.4 174.9 174.8 174.8 174.5 173.4 171.7 169.6 167.1 161.5 162.4 166.4 171.2 173.9 177.5 181.3 184.6 187.4 191.4 194.9 197.8 201 203.8 206.9 210.7 214.1 217.2 219.8 222.8 224.9 226.9 228.3 229.4 229.2 230.6 232.1 232.7 233.1 231.9 232 231.9 231.9 231.3 230.2 230.9 231.6 232.7 233.4 232.7 234.5 234.7 235.1 235.9 237.1 236.6 237.3 238.2 239 238.4 239.2 239.6 239.7 239.2 238.4 236.1 234.8 234.4 235 234.3 233.6 232.4 230.3 228 225.7 222.9 221.8 218.4 203.6 188.6 214.4 215.2 214.1 212.8 212.4 213.8 214.5 214.7 215.8 217.2 217.3 215.9 215.3 212.1 208.9 205.2 200.5 195.8 192.2 189.3 189.2 187.5 186.9 172.8 160.4 145.4 131.9 122.5 119.2 117.3 115.6 114.5 118.1 126.2 138.8 155 168.2 178.6 188.1 192.2 195.7 196.9 197.9 199.3 201.6 204.4 208.1 210.7 212.6 214.6 218 220.6 221.8 220.9 220.4 219.5 218.6 215.6 216.3 222.6 225 225.5 225.2 224.3 222.3 219.1 214.1 207.6 199.5 189.1 176.3 169.9 167.6 169.3 172.5 176 179 182.5 185.4 188.8 191.8 195.8 200.7 208.3 213.7 219.1 223.7 228.5 233.9 238.4 243.1 247.9 245.3 240.9 234.9 227.8 222.2 215.4 209.8 205.1 200.2 194.7 189.7 187.9 184.1 179.6 177 172.8 168.5 165 161.9 158.6 155.2 153.1
165.6 166.8 166.7 145.5 163.6 169.8 170.8 171 171.3 172.1 171.5 170.8 168.6 166.6 164.1 157 155.9 160.4 164.5 168.1 172.6 176.7 178.8 183 187.1 190.4 193.6 196.1 199.2 202.2 205.6 209.3 211.8 215.6 217.5 220 222.3 224.2 225.4 225.4 225.6 227.6 229.2 229.7 230.1 229.8 229.5 228.6 228.5 227.4 226.4 228.7 229.9 230.4 230.6 230.7 231.2 231.8 232.9 234.4 234.8 235.7 235.9 236 236.6 236.6 237.2 237.4 237 235.8 234.9 233.5 230.8 229.8 230.4 230.6 230.1 229.1 227.2 224.9 222.4 219.2 216.1 213.9 204.5 175.5 201.2 211.1 210 208.6 207.3 208.5 209 209.6 209.9 210.9 210.4 209.2 207.3 205.3 202.3 198 193.7 189.3 185.4 183.4 179.6 181 181.1 179.3 171.4 155.4 132.9 120.3 117.1 115.8 114.7 115.6 120.6 131.4 147 164.9 177.8 185.1 190.3 194.1 197.9 199.9 202.2 205.7 207.9 211.2 214.4 215.8 218.1 221.1 224.4 228.4 229.2 228.5 228.3 226.5 225.2 223.6 223.8 228.1 230.3 231.8 231.9 231.4 229.8 227 222.3 216.4 208.3 198.5 184.5 175.9 174.3 175.9 178.5 180.8 185.5 188.6 192 195.2 198.3 202.2 206 209.5 216.6 222.1 226.1 230.5 235.9 240.2 243.7 246.2 244.6 240.2 234.7 227.9 221.5 214.3 208.1 203.8 198.4 193.6 189.3 182 181.6 177.8 174.1 170.8 166 163.3 159.7 157.3 154.3 150.6
156 159.4 149.9 131.1 151.4 165 165.6 167.3 167.4 167.4 167.2 166.8 164.7 160.7 154.8 146.8 149.9 156 162.1 167.6 170.9 174.3 177 181.5 185.1 188.1 191.2 193.8 196.1 198.1 202.5 205.5 208.7 211.5 214 216.3 219.2 221.4 222.2 222.2 223.4 225.5 226.4 227.2 227.6 226.8 226.2 225.8 225.4 223.9 225.7 226.7 227.4 228.4 228.3 228.5 229.3 230.4 231.7 233.1 233.6 234.1 233.6 234 234.4 234.6 234.8 235.3 235 233.5 231.5 230 227.9 226.8 226.4 226.4 226.3 225.7 224.1 221.9 218.7 213.9 208.9 208.3 197.4 171.5 184.9 205.9 204.8 203.1 201 203.7 204.1 203 202.1 203.6 204.2 202.9 200.6 197.7 193.1 188.3 185.1 182.3 177.4 172.2 171.4 174.8 177.4 176.8 173.4 155.4 135.4 123 116.3 114.9 114.2 117.4 126.7 143.8 158.6 172.9 183 189.6 192.7 197.1 201 204.6 207.9 211.7 214.2 218.6 220.1 222.4 225.7 228.7 231.5 235.6 236.7 236.9 235.5 234 232.2 230.1 230.5 234.2 236.3 237.6 238.5 238.4 236.8 234.5 230.1 224.7 217.2 207.5 194 183.1 181.1 183.5 185.8 188.8 191 194.6 198.5 202.7 205.3 208.3 212.8 214.6 218.7 224.4 228.9 233.5 237.9 241.8 243.9 245 243.6 239.6 234.1 227.5 220.8 213.6 208.5 203 197.9 191.2 187.6 183.2 179.4 174.5 172.1 167.5 165.7 160.9 158.7 156.3 152.1 149.7
118.6 123.5 129.6 107.4 144.4 157.3 156.2 159.9 162.9 163.1 163.4 162.8 159.9 154.3 146.7 137.3 145 151.1 160.3 165 170 173.4 176.7 179.6 182.8 185.5 187.9 190.7 193.7 196.6 200 203.2 205.5 208.7 211 213.2 214.6 216 217 218.9 219.6 222.1 222 224.2 224.8 224.2 223.1 222.5 222.6 221.9 223.8 224.7 224.9 226.1 226.3 227.1 227.7 229.1 230.8 231.7 232.3 232.2 231.7 232 232.1 232 231.7 232.4 232.4 231.1 228.4 226.4 224.3 222.5 222.8 222.8 222.6 222.1 221.3 219.3 216.4 212.5 207.1 198.6 188.9 164.2 166.5 190.5 198.9 195.5 182.1 195.1 198.9 196.8 195.5 195.5 194.6 192.5 190.6 188.3 186.1 183.8 180.3 176.6 171.8 166.7 161.8 167 168.9 168.1 170.4 158.5 144.3 124.5 114.9 113.8 114 122.9 140.9 159.5 173.1 181.2 188.7 192.1 195.5 201.1 206.1 210.1 213.7 216.9 220.4 224.4 226.2 228.8 232.2 235.5 239.7 242.3 244.5 244.5 245.9 242 238.5 237.1 237.6 240 241.7 243.2 244.9 245 244.1 241.8 238 232.8 225.6 216 203.7 190.9 188.4 191.5 193.8 197.2 200.7 203 205.8 208.8 212.8 216.3 219.8 221.2 223.2 226.7 232.1 236.3 239.9 243.3 244.9 245.4 243.1 237.8 233.5 226.8 220.1 213.5 208.2 202.6 196.6 191 186.2 181.8 178.3 174.3 169.5 166.2 163.1 160.4 157.9 155 151.3 148.9
80 84 94.1 106.4 132.1 126.9 125.2 143.3 152.6 156.6 157.9 158.2 155.9 151.4 134.6 132.5 139.4 147.1 157.7 162.6 167.4 172.2 174.8 178.4 181 183.2 185.5 187.7 189.8 193.2 196.1 199.3 202.7 205.9 208.2 210.2 212.1 213 214.3 215.6 217.2 217.7 218.6 219 220.2 220.9 220.6 219.6 218.6 219.4 221.1 222.3 223.1 224 224.1 225 226.4 228.8 229.4 230.4 230.9 230.5 230.1 230 230 229.7 229.3 229.6 229.7 229.1 227.2 224.4 220.8 219.7 219.5 219.8 221 220.9 219.6 217.8 215.2 212 208 202.4 194.6 176 155.8 173.9 185 180.7 162.5 191.5 192.9 186.3 187.1 190.2 188.8 187.3 184.5 182.5 180.2 175 173.9 170.6 164.8 160.8 146.9 151.6 160 154.3 157.2 160 142.9 123.7 113.3 113 113.3 119.4 142.1 163.3 179.7 186.2 190.6 194.1 198.2 204.8 210.6 214.7 217.7 222.1 226.3 228.9 231.7 235.1 238.5 242.2 246 249.6 252.8 254.9 253.2 249.9 245.6 244.3 244.9 245.8 247.9 250 251.5 252 251.4 249.3 245.7 240.3 233.5 224.3 213.2 200.1 198.1 199.5 202.9 205.9 209.4 211.1 214.1 217.1 220.9 224.5 226.8 227.8 228.3 230.7 234.7 239 242.3 244.6 246.7 246.6 244.5 239.2 233.5 225.5 220.3 213.2 207.2 201.7 196.1 190.5 185.7 181.6 177.3 173.1 169.4 166.5 162.9 159.1 157.2 153.1 150.8 148
67.2 67.5 70.4 92.3 93.4 84.7 87.7 105.1 122.9 135.2 146 150.1 150.6 138.8 114.4 127.1 129.8 146.1 156.3 160.6 164.1 168 171.5 174.3 177 180.1 182 185.1 187 188.5 193.9 197.2 200.6 203.2 205 206.6 208.6 209.9 211 212.4 213.6 214.9 215.4 216.1 216.2 216.5 216.3 216.6 215.1 217.8 219.5 220.7 220.8 222.2 222.4 223.6 224.8 226.3 227.5 228.4 228.8 228.5 228.6 228.6 228.5 227.3 226.9 226.5 226.1 225.6 224.2 222 219.2 217.6 216.6 217.5 218.1 218.7 217.7 216 213.8 211 207.8 204.9 199.7 179.7 158.8 160.7 168.8 161.2 146.8 170.7 177.9 171.1 181.4 185 183.7 180.9 178.7 174.2 171.4 169.8 164.3 159.8 152.7 148.7 142 139.6 141.5 138 137.3 133.2 122.3 113.5 112.8 112.7 112.7 114.2 127.7 149.2 176.5 188.1 191.9 195.6 202.6 209 214.6 219.4 223.3 226.8 231.1 234.2 237.2 241 245.1 249.1 253.5 256.3 261.9 263 259.7 255.6 253.2 251.8 251.1 252.6 254.4 255.9 258.2 258.8 258 256.6 253.5 247.9 241.1 232.7 222.3 212.2 207.5 209.3 213.5 215.7 218.4 220 222.9 225.5 229.1 230.9 233.7 234 233.1 235 238.1 241.2 244.5 247 248 247.6 244.5 239.1 234.5 226.6 220.4 214 207.4 201.4 196.1 191 186.3 182 177.7 173.2 169.4 166.1 163 159.5 157.2 153.6 150.1 147.4
68.4 68.7 66.9 66.7 66.7 68.1 68.8 72.2 87.3 107.6 126.5 131.6 138.8 124.4 118.9 121.2 135.2 145.4 154.1 158.2 160.9 164.1 167.3 169.7 173.2 176.2 177.9 180.8 184.5 185.6 189.1 193.5 197 200.4 202.4 204.1 205.4 206.8 208 209.3 209.8 210.1 211 211.6 212.2 212.6 211.9 211.3 212.4 214.9 216.2 217.1 217.7 219.1 219.9 221.6 223 224.2 225.3 226 226.5 225.9 226 226.5 226.5 225.3 224.4 224.2 224 223.1 221.3 218.8 217.1 216.2 214.8 215 215.5 215.9 215.2 213.8 211.3 208.6 205.8 201.6 196.3 178.8 155.3 143.9 156.8 147.4 138 162.2 159.3 166.9 170.3 168.7 171.8 172.7 170.1 164.9 161.7 155.4 153.9 149.8 142.8 138.4 131.9 126 123.3 122.6 120.8 116.3 112.4 112.7 112.4 113.1 113 113.8 120.5 141.3 167.8 188.3 193.1 196.7 204.5 212.2 218.1 222.6 226.3 231.1 235.3 238.3 242 247.4 250.9 254.5 258.9 265.3 269.5 270.2 265.7 262.4 261.1 258.8 257.3 257.8 260.1 262.5 264.6 265.2 265.1 263.8 260.9 255.6 248.8 240.7 232.6 223.5 219.1 220.1 222.3 225.5 227.1 228.8 231.1 233.8 236.8 240.4 240.6 239.7 236.7 237.8 240.3 244 247.1 249 251.1 249.4 245.1 240.5 235.6 228.2 221.7 214.7 207.7 201.7 196.1 191.1 186.5 182.1 177.6 173.4 169.6 166.9 163.3 160.4 157.3 153.4 150.3 149
75.2 73.7 72.8 72 71.1 70.9 71 69.3 70.5 79.9 104.8 114 120.1 108.8 113.4 116.7 135.3 144.6 149.6 153.3 157.5 160.8 163.6 164.4 168.7 170.9 174.2 177.2 179.5 183 186.4 189.9 192.9 195.9 198 200.1 202 204 205.1 206.1 206 205.8 206.2 207.8 208 208.9 208.9 206.3 209.5 211.4 213.3 214.5 215.5 216.4 217.4 219.1 220.6 222.2 223.4 223.8 224.3 223.7 222.9 223.3 223.6 223.2 222.1 221.9 221.9 221 218.4 216.3 215.1 213.6 212.9 211.9 212.2 212.6 212.5 211.1 208.3 205.4 201.1 197 192.3 184.8 172.4 144.4 137.4 138.6 127.8 144.5 138.4 146.1 145.6 147.2 149.8 152.3 157 146.5 140.8 139.9 141.7 137.1 129.2 121.7 116.2 117.1 114.1 113.8 113.7 112 111.5 112.8 112.6 113.1 112.9 113 118.2 138.3 166.4 189.7 193.8 197.4 205.7 213.6 220.8 226.1 230.3 235 238.9 243 247.7 252.5 256.4 260.2 264.8 272.3 274.6 274 272 270 268.6 268.1 266.8 266 265.7 268.5 270.4 272.1 272.1 270.8 268.3 262.9 256.3 249.2 243.1 234 229 229.9 233.9 236.1 237.4 238.7 239.6 243 244 247.4 246.8 246.2 243.9 243 244 247.4 250.8 252.4 253.6 251.3 246.6 241.6 236.6 229.7 222.5 215.2 207.8 201.5 196 190.9 186 181.7 177.6 173.5 170.5 167.7 164.3 161.3 157.9 155 151.8 149.7
88.5 84.6 80.7 76 74.6 73.8 74 71.3 69.2 70.8 77.6 98 103.3 96 106.9 123.9 134.8 141.8 145.8 148.6 151.8 156.1 159.2 161.6 163.8 167.3 170.1 173.6 176.9 180.2 183.4 186.3 188.9 191.5 193.9 195.8 197.8 199.2 200.7 202.1 202.6 202.1 202.6 203 203.4 203.3 201.8 202.9 206.4 208.3 208.8 211.9 212.6 213.1 215.1 216.6 218.1 218.4 220.4 221.1 221.7 221.5 221 219.9 219.9 220 219.6 219.5 219.2 218.3 216.3 214.3 213.1 211.6 209.9 210.4 210.8 210.2 210.1 209.1 206.2 202.9 198.6 193.6 187.6 178.7 172.3 147.2 125.2 124.8 119.3 122.4 123.8 122.7 124 124.8 125.6 128.2 131.4 130.2 124.6 124.3 121.1 116.5 115.3 113.9 113.2 113.3 112 111.1 111.4 111.2 112.6 112.6 112.8 113 113.3 113.8 118.6 139.3 174.3 191.3 193.8 197.3 204.4 214.9 222.6 229.2 233.2 238.1 242 247.7 252.7 257.8 261.6 266.3 272.5 277.6 279.7 279.8 278 278.6 277.6 279.2 275.2 274 274 273.7 275.8 277.7 279 278.3 275.8 270.6 264.1 257.5 252.6 245.5 241.4 242.1 245.4 246.7 247.8 249.1 250.6 252 254.1 255.3 254.9 253 250.9 248.3 248.1 251.4 254.2 255.2 254.8 252.6 248.1 243.2 237.2 230.3 222.5 215.4 208.1 201.4 196.2 191 186.1 182 177.6 174.2 171.2 168.3 165.2 162.4 159.4 156.2 153.3 150.8
98.1 97.4 98.5 94.2 82.3 78.7 77.5 75.6 72 70.9 71.6 80.3 87.1 98 114.5 120.9 131.4 138.3 141.5 145.4 147.5 152.7 155.3 158.2 160.1 164.2 166.9 170.8 174.3 177.8 180.4 182.7 185.3 188 190.5 192.3 194 195.2 195.9 197 198 198.5 199.2 199.7 200.1 199.9 198.9 200.1 203.4 204.8 206.7 208.4 209.6 210.8 212.8 214.2 215 216.5 217.5 218.1 218.7 218.8 218.6 217.7 217 216.9 215.6 216.1 216.7 216 213.9 212.7 211.4 210.1 208.7 208.3 209.3 208.7 207.6 206.8 204.2 201.6 196.9 190.9 179.4 163.5 146 135.1 118.5 119 116.6 116.1 115.4 113.3 111.8 111.5 111 113.2 112.6 111.7 112.5 111.9 111.1 111 110.8 110.9 111.5 111.3 110.8 110.6 111.2 111.7 112.5 112.8 113 113.3 113.3 113.6 121.1 142.6 181.5 191.5 193.9 197.2 204.5 217.7 225.3 232 235.8 240.9 245.6 252.8 257.2 261.5 266.6 272.1 277.8 282.8 285 286.5 287.5 288.5 288.3 288.4 287.2 283.6 283.4 284.3 285.3 284.1 286.3 286.1 283 278 271.4 264.7 259.3 257.1 253.9 254.7 256.1 256.7 257.3 258.3 260.2 261.9 263.4 263.3 262.3 260.3 256.6 254.4 253.3 255.5 256.4 256.8 255.7 253 249.2 244.6 238.8 231 222.9 215.6 209 202.2 196.4 191 185.8 181.6 177.6 173.8 171.1 167.7 165.5 162.8 160.1 157.1 154.1 152
105 104.7 107.1 108.5 103.6 92.3 85.8 81.3 76.3 70.1 71.3 74.9 76.9 97.3 108.6 116.3 124.9 132 136.8 141.3 143.8 147 149.9 154 157.4 161 165.1 167.8 171.3 174.3 177.5 179.9 182.4 185 187.2 188.8 190.4 191.6 192.2 192.7 193.4 194 193.9 195.4 196.1 195.8 193.8 197.1 200.5 200.8 203.4 204.7 204.7 208.3 210.4 211.9 212.7 213.9 214.8 215.5 215.9 216 215.5 215.3 214.6 213.2 212.1 211.3 211.9 212.3 210.7 210.1 209.3 207.8 206.2 205.8 205.7 205.8 204.6 202.9 201 197.6 193.2 188.3 180.6 153.9 131.7 120.7 115.9 115.8 113.5 113.6 111.6 110.1 108.4 108.6 109.2 108.9 109.5 109.9 110.3 110.3 109.9 109.9 109.8 109.8 110.3 110.9 110.2 110.8 111.3 111.9 112 112.9 113.7 113.9 113.8 115.1 125.8 154 185.5 190.5 194.7 198 206.6 217.6 225.9 234.2 239 243.7 248 256.5 260.7 264.9 270 276.2 282.5 287.5 289.8 291.3 292.9 293.7 294.9 295.1 294.5 293.4 292.9 292.3 291.7 293.3 294.2 293.9 290.8 285.3 278.1 271.6 268.5 266.8 266 266.5 267 266.7 266.7 267.8 269.6 271.5 271.4 271.4 271.5 268 262.8 259.5 258.4 259.4 259.3 259.1 257.3 254 250 245.9 240.4 232 223.4 216.3 209 202.8 196.8 191.2 185.4 180.8 177.1 173.3 170.6 167.7 164.7 162.1 159.7 157 154.3 152.1
113.5 110.5 111.2 110.7 109.9 108 104.2 95.6 82.8 79.4 71.8 71.3 72.4 77 95.8 108.3 117.7 125 130.9 135.5 139.9 143 145.9 150.1 154.6 158 161.8 164.6 167.6 170.6 173.8 177.1 179.7 182.2 184.7 186.1 187.6 188.2 188.7 189 189.1 188.8 190.2 190.8 191.1 190.2 191.3 193.5 195.9 198.1 199.8 200.2 202.9 205.9 208.7 209.6 210.7 211.4 212.1 212.7 213.2 213.3 212.4 211.9 211.5 209.7 208.3 206.9 206.8 207.4 207.2 206.3 205.4 204.6 203.4 201.1 202.3 202 201 198.3 196.1 192.6 187.4 182.4 175.8 149 124.7 115.5 113.8 114.1 112 111.6 110.8 109.8 108.2 108.3 109.2 108.5 108.2 108.9 109.2 109.7 108.9 108.7 108.4 108.7 109.6 110.9 111.7 111.5 111.9 111.9 111.7 112.3 113.1 113.5 113.6 118.4 137.4 173.9 186.3 192 195.1 200.1 206.9 217.2 225.7 236.5 241.9 245.8 249.8 256.5 263.3 266.5 272.2 277.8 282.7 287.4 290.2 292.4 294.9 297 299.2 300.4 301.1 300.7 299.7 298.8 298.6 300.3 302.3 302.1 298.2 292.2 284.1 279 276.6 276.7 276.6 276.1 275.8 275.5 276.5 278.1 279.1 280.7 280.8 281.4 278.4 273.3 267.6 264 262.3 262.4 261.2 261 259 255.5 251.5 246.6 240.4 232.7 224.5 215.5 208 202 196.1 190.5 185.3 180.4 176.1 172.2 169 165.7 163.2 160.3 158.5 156 153.8 151.5
136.7 130.2 122.8 119.1 116.6 114 111.2 107.3 104.9 102.4 81.3 70.5 72.5 72.8 76.7 97.7 109 116.9 124.5 130.4 134.9 138.8 143 147.5 151.3 154.6 158.6 161 164.7 167.9 170.9 174.1 176.7 179.1 181.6 183.4 185 185.2 185.4 185.7 185.6 184.6 183.7 182.9 181.8 181.3 186.7 189.8 190.2 194.4 195.8 197.3 200.1 203 205.1 206.6 207.7 209.2 209.9 210.1 210.3 210.4 209.6 208.7 207.9 206.5 204.5 202.1 202 202.1 202.1 202.2 201.5 199.6 200.4 198.4 192.8 198.2 197.1 194.6 190.3 186.7 183.4 178.1 170.9 145.3 120.8 112.4 111.5 112 110.4 110 109.4 108.6 108 108.1 106.9 107.3 108.1 108.3 109.1 108.2 109.6 109.4 108.9 109.1 109.3 110.8 111.6 112.2 111.8 112.2 111.7 112.1 112.6 113.8 118.5 133.6 164.1 181.2 185.5 192.2 195.6 200.7 206.7 214.7 224.5 235.9 242.6 247 251.5 256.4 263.9 267.3 271.8 277.1 281.6 285.5 288.9 291.8 294.6 298.1 301.5 304.1 306 306.8 306.1 304.2 304.5 306.1 309.2 308.8 304.9 298.1 290.5 287 284.6 284.5 284.4 284 284.2 283.9 285.1 286.8 288.3 288.8 290.1 289.9 287.9 281.8 273.2 267.8 266.5 264.9 264 262.9 260.7 257.2 253 247.5 240.9 233.5 224.5 214.6 207.2 201.5 196.1 189.9 184.7 180.1 175.4 171.6 167.9 165.2 161.6 158.7 156.4 154 151.6 147.1
149.5 144.9 137.8 132.7 127.8 124.2 120.5 111.5 118.1 118.8 106.5 86.5 71.4 72.8 73.7 75.1 97.1 109.1 117.4 123 125.8 134.5 139.4 145.1 149.1 151.9 154.7 158.9 162.2 165.1 168.4 172 175 177.6 179.8 181.3 182.1 181.7 181.2 181.3 181.1 181.1 182.5 181.1 180.3 181.8 184.5 186.9 189.1 191 191.6 195.3 197.9 199.5 201.3 203 204.8 205.9 206.7 207.6 207.4 207.7 206.8 205.5 204.2 202.9 200.7 198.7 197.2 198.3 198.2 198.1 198 197.2 198.2 197.2 184.6 195.6 194 191.6 187.7 183.3 178.8 173 167.7 146 119.2 109.7 109.9 110.2 109.6 108.7 108.4 108 107.2 107.5 107.2 107 107.4 107.5 109.4 109.1 109.5 109.5 109.4 109.5 109.5 110.6 111.5 110.8 111.6 113.6 111.6 112.4 113 116.9 133.8 157.7 173.9 179.1 183.3 189.5 195.6 200.5 205.7 212.1 221.4 232.3 241.9 247.7 252.5 256.9 261.1 266.6 270.9 276.3 280.3 284.1 286.9 289.5 293.1 297.3 302 307.3 311.6 311.9 311.2 309 308.9 310.7 314.7 313.9 310.2 302.3 296.3 293.1 291.4 291.2 292.4 292.5 292 292.3 293.5 294.1 295.2 297.6 298.6 297.7 295.2 289.8 279.1 271.6 269.4 267.7 266.7 264.7 262.2 258 253.1 248.4 240.7 233 223.9 214 206.3 199.7 194.8 188.9 183.7 178.9 174.6 170 166.2 163.5 159.9 157.1 153.6 149.5 144.4 137.4
157.6 155 150.4 144.8 140.2 137.5 134.1 122.8 127.6 129.3 130.5 109 87.5 71.8 72.7 74.2 75.4 96.4 95.6 112.6 121.8 131.3 136.6 141.7 145.6 147.9 151 155 159.4 164.5 167.6 170.5 173.6 176.1 177.8 178.8 178.9 178 177.3 176.9 176.1 176.4 175.8 176 174.3 177 180.5 184.3 186.9 188.1 189.7 192.7 194.7 196.4 197.9 199.3 200.9 202.2 202.7 203.5 204.6 204.7 203.7 202.6 200.6 199.2 195.6 193.5 194.5 193.8 194.3 195.1 195.1 194.9 195 194.4 182.1 161.5 167.6 188 185.1 180.5 173.6 149.4 144.9 136.5 112.9 108.4 107.6 107.7 108.3 108 107.4 106.6 106.6 107.1 106.8 107.5 108 108.7 108.8 108.8 109.7 109.5 111.2 111.4 109.1 109.3 114.8 119 128.1 134.7 112.8 112.1 116.8 138.4 153.9 168.2 172.7 177 181.3 186.5 193.3 199.7 205.5 210.9 217 226.8 236.8 245.5 252 256.3 260.4 264.1 268 274.5 277.7 281.7 284.4 287 291.1 295.9 301.5 310.6 314.8 315.2 315.1 314.5 314.7 317.2 319.6 318.5 314.5 305 300.8 298.1 296.5 297.6 298.6 298.8 298.7 299.1 300.3 301.4 303.5 304.7 306.3 307 303.9 295.6 284.6 275.9 272 269.1 267.8 265.6 263 258.1 252.9 247.5 239.5 231.5 223.2 213.6 204.5 198.4 192.9 187.2 181.9 177.8 173.1 168.8 165.1 162.5 158.2 154.6 152.1 142.1 139.4 135.6
164.9 162.3 159.5 156 152 147.1 144.5 136.3 128.9 136.3 137.7 130.4 107.3 86.3 73.2 73.7 74.2 77.4 83.3 108.9 118.4 126.8 133.3 138.4 140.7 145.6 150 154.9 159.1 164.2 167.5 170.1 172.4 173.9 175.6 175.8 175.9 174.9 173.8 172.6 171.2 170.8 170.2 169.3 170 173.7 178.2 180.9 183.6 184.6 188.1 190.6 191.9 193.3 194.6 195.8 196.4 197.9 199.2 199.5 201.2 201.1 200.1 199.4 196.2 195.6 194 190.7 189.7 189.9 190.6 191.3 190.8 191.7 192 191.3 188.8 169 144.7 179.4 177.1 160.7 143.5 128.6 119.4 110.3 107.8 107.4 106.6 106.6 107.2 107.1 106.7 106.3 106.5 106.8 107.9 107.7 108.6 111.5 114.3 113.8 113.8 112.7 114.1 113.2 116.4 130.8 145.1 151.8 153.4 152.9 123.1 110.9 119 140.5 162.1 167.5 170.2 173.9 177.8 180.9 188.7 194.8 203.2 210.4 214.8 221.3 230.8 236.7 248.4 254.2 258.4 262.2 265.6 269.4 273.7 277.7 281.2 284 288.7 293.9 299.5 309.4 316.2 316.5 316.7 317.8 319 321.7 324.7 321.5 317.1 308.1 304.3 302 301.8 302.6 303.9 304.8 305.7 306.2 307.9 308.7 310.9 312.2 312.1 313.8 309 300 290.1 279.9 274.9 271.4 269 266.7 263.1 258.2 253.2 245.4 237 228.8 221.5 212.7 203.2 196.8 190.3 184.9 180.7 176 171.5 167.3 163.9 161.3 157.1 153.6 147.5 142.5 140.3 139.4
169.5 168.3 166.1 163.8 160.8 156.5 152.3 147.5 141 141 143.6 144.8 130.8 107.9 82.7 72.6 73.9 75.3 76.6 83.5 104.6 120.4 107 130.2 139.1 144.4 148.5 153.4 157.7 162.8 166.6 169.1 171.1 172.3 173 173 173.7 172.7 171 169.7 168.3 166.9 167 165.8 169.5 172.6 176.4 179 180.8 183.5 186.1 187.3 189.3 190.8 191.9 192.5 193.9 194.9 195.5 195.8 196.9 197.6 196.9 196.1 193.1 191 189.1 187.1 186.1 186.5 187 187.5 187 188.6 189.2 188.8 187.3 185.5 152.8 140.1 140.7 132.5 121.3 113.3 110.1 106.2 105.5 104.3 105.5 104.4 105.4 105.4 107.1 107.4 109.6 108.5 110.4 114.6 127.8 140.6 144.4 141 140.4 142.3 132.8 137 150.7 163.6 167.2 167.5 165.6 161.3 140.5 119.8 130 123.8 139.2 161.5 167.8 171.6 174.8 178.3 182.7 190.5 197 206.9 214.2 218.7 226.8 234.7 241.9 249.2 254.6 260.1 263.5 266.7 269.5 273.6 277.2 280.7 284.9 290 295.2 304.6 312.2 316.1 317.8 319.5 321.4 324.3 326.2 322.2 315.8 309.4 307.2 306.1 306.4 307.5 309.1 310.2 311.4 312.7 314.4 315.7 317.4 319.7 323.1 319 312.5 303.1 292.8 283.2 277 272.3 269.2 266.8 262.5 256.8 251.4 242.2 234.2 226.5 218.7 210.8 203.1 195.8 189.9 184.8 179.9 174.3 169.6 165.5 162.1 158.9 157 150.6 144.8 142.4 142.8 143.8
173.8 172.5 171.1 168.8 166.1 162.7 158.9 155.1 148.6 147.4 150.2 152.6 149.3 130.7 110 85 74.3 74.1 74.8 76.2 86.8 104.3 105.7 129.6 136.6 142 147.3 151.2 155.5 159.4 163.6 166.7 168.7 170.1 170.9 171.3 171.2 170.6 168.3 165.5 163.3 162 157.6 161.9 167.8 171.2 174.7 177.1 178.7 181.7 183.8 185.5 187.1 188.8 189.6 189.5 190.7 191.2 191.4 192.5 193.2 193.3 193.1 192.4 191 188.5 185.8 183.7 182.6 182.8 183.7 184.4 184.8 185.3 185.8 186.2 185.4 182.4 171 141 122.1 116 112.8 108.6 105 105.4 105.3 106 107.3 106.6 109.1 112.3 113.3 115 118 123.8 131.9 143.8 158.8 168.5 165.9 162.5 162.4 164.8 161.3 146.5 171.3 174.2 175.6 176.3 174.1 166.7 158.8 137.7 157.3 157.6 130.2 150.6 165.1 169.5 173.1 176.4 180.6 184.8 188.5 201 212.4 217.5 223.3 230.2 238 244.3 250.8 255.9 259.9 263 265.8 269.8 273.2 276.7 280.7 284.5 289.2 297.4 304.5 311.3 316.3 320.5 321.9 324.7 325.1 318.8 313.5 310.3 309.2 308.7 309.7 311 312.5 314.6 316.3 318 319.6 321.3 323.7 325.6 330 323 315.2 304.9 293.9 286.8 279 272.1 267.8 265.4 258 253.7 247.1 239.6 231.1 224.3 216.5 208.8 202.1 195 189 183.2 178.4 173 168 164 160.4 157.1 153.7 149 148.7 147 146.9 146.8
178 175.7 174.3 172.4 170.5 167.5 164.5 160.5 158.1 155.4 156.3 157.3 157.5 150.1 131.6 112.7 93.5 76.6 73.7 75.4 77 83.1 100 119.4 133.2 139.4 144.1 147.8 152 156 159.6 163 165.1 166.8 167.5 168.1 168.6 168.3 166.9 164.3 159.3 140.1 151.2 162 165.9 170.4 173.5 173.6 176.3 178.1 180.1 181.3 185.2 186.8 187.7 187.7 186.8 187.7 186.9 188 188.7 188.9 188.9 188.6 187.3 185.4 182.7 180.2 178.4 178.2 179.6 182.5 183 183.9 183.2 182.5 179.8 176.7 169.3 140.5 123 115.7 109.2 106.7 104.7 105.4 111.7 116.3 118.5 127.4 135.1 142.3 144.6 141.4 145.8 153.4 162.3 172 175.2 173.9 172.8 171.5 170.5 172.2 171.4 167.3 175.3 178.6 180.1 180.9 178.2 172.2 163.9 151.2 161.2 165.5 162.6 137.8 145.8 160.7 170.1 174.7 177.5 181.5 185.1 195.3 205.6 215.1 220.4 226 232.3 239.4 245.3 250.5 255.1 258.7 262.7 265.9 268.9 272.5 276.3 280 283.9 288.6 294.3 304.9 312.2 318.2 322 322.1 318.2 314.1 311.3 309.9 309.2 310.2 311.7 313.3 315.1 317.8 320.1 321.9 323.7 326.2 329 334.4 333.9 326 317.8 306.4 295.9 290.7 279.9 271.6 265.2 260 256.1 251.6 242.7 235.7 227.6 220.8 214.3 206.9 200.2 192.8 186.5 181.8 175.9 170.9 167 163.2 158.8 152.7 151.8 152.5 151.6 149.5 149.8 148.7
181.1 178.9 178.3 176.2 174.4 171.9 169 165.7 163.8 162.9 161.4 162.3 162 160 151.1 132.6 113 94.6 80 76.4 75.6 77.3 80.9 99.4 115.3 126.9 141.4 145 148.7 152.6 156.1 159.2 161.6 162.7 164.2 164.6 165.4 165.2 164.4 163.2 157.2 131.9 155.2 160.6 165.1 169 172.1 171.4 173.2 173.2 174 175.9 180 183.9 185.6 186.2 185.8 184.1 182.7 183.6 184.7 185.2 185 184.5 183.7 181.8 180.1 177.5 174.8 175.4 176.7 179.1 181 181.2 181.1 179.9 178.2 174.1 154.1 138.4 123.4 113 107.3 104.9 106 125 138.1 147.4 155.7 160.7 165.8 172.7 172.8 172.5 173.6 177 178.4 179 178.6 178.8 178.3 176.9 177 177 176.8 176.1 176.3 179.8 181.9 182.1 179.3 175.2 167.9 167.8 168.7 170.5 169.3 167.3 163.9 156.9 158.6 172.6 175.5 179.5 183.7 189.4 199.5 208.9 217.2 223.6 228.2 233.5 239.1 244.2 248.9 254.9 260.1 262.4 264.4 267.8 271.2 275.6 279.6 284.4 288.7 294.4 306.1 311.7 315.6 315.1 313.5 310.5 307.7 307.5 308.7 310.6 312.5 315 317.5 320.3 323.1 325.4 327 329.1 331.9 336.5 336 328.2 318.6 306.5 297.7 290.2 279.7 271.4 262.9 257.4 254.3 248.1 239.7 231.5 223.7 217.4 211.1 202.5 195.9 190.4 185 179.9 174.6 169.6 165.5 161.3 158.6 155.1 156.6 155.3 153.8 152.2 151.6 150.8
182.8 181.3 180.6 179.5 177.6 175.2 173.1 170.6 169 167.9 166.5 166.7 166.2 165 160.1 149.8 130.4 104.6 92.3 85.2 74.5 76 76.7 78.4 93.9 105.3 122.3 139.1 145.7 149.7 152.8 154.7 152.6 154.3 154.9 160.8 160.6 161.5 161.2 159.9 155 114.2 149.3 158.5 162.4 164.4 165.9 170.4 171.1 168.4 168.9 170.2 174.1 176.9 179.8 180.7 183 181.4 177.8 180 181.1 181.4 180.9 181.2 179.6 178.5 177 174.3 171.2 171.7 173.4 175.9 178.1 179.2 179.3 178.6 177.3 174.3 170.2 159.3 118.2 107.5 103 103.5 124.1 152.7 170.8 175.2 176.9 178.4 179 180 180.5 181 181 181 181.7 181.9 182.1 182.8 182.6 181.9 181.4 181.4 180.9 180.1 179.5 181.1 183.3 183.1 178.9 176.3 171.8 173.5 173.7 178.2 176.2 172.9 171.9 172 167.4 164.2 173 177.2 179.5 184.6 193 202.7 211.8 220.9 225.7 230.1 235 239.9 243.7 248.4 254.3 258.1 260.6 262.9 266.3 270.2 274.1 278.9 283 289.5 297.6 304.5 309.2 309 306.7 304.5 304.1 304.7 307 310.2 313 315.6 318.6 321.8 324.4 326.7 329.1 331.3 334.7 337.1 336.7 328.9 317.8 306.8 297.9 288 279.5 269.7 260.6 254.6 249.2 242.8 234.3 227.5 221.4 214.6 209 201 195.6 189.2 182.7 178.3 172 168.7 165.8 162.4 160 159.1 158.1 156.4 154.7 154.2 153.4 151.9
184 183.1 182.7 181.6 180.3 178.7 176.5 174.6 172.8 171.4 170 170.1 169.3 168.4 164.5 152.2 126.8 116.4 110.8 103.3 84.4 75.4 75.8 76.1 77.7 91.9 104.8 123.8 141.4 129 125.3 121.4 112.7 116 119.1 127.4 131.5 137.7 144.7 148.3 149.6 100.3 125.5 132.1 134.8 145.7 132.1 163.3 165.9 164.5 160.6 165.1 167.5 169.8 171.9 173.5 174.2 173 173 175 176.9 177.2 175.6 176.4 175.1 174.8 174.1 172.1 167 167.5 170.8 172.9 175 176.7 177.5 177.1 175.1 172.3 169.7 145.2 112.7 103.7 101.9 108.5 133.4 158.6 173.8 177.5 179.7 181.5 183.1 183.9 184.5 184.5 184.1 184.5 184.6 184.7 184.9 185.1 185.4 185.1 185 184.5 183.7 182.9 181.5 182.9 184.3 183.6 180.9 180 179.3 179.2 179.2 181 184.7 184.6 176.4 175.4 175.8 175.3 173.5 176.7 177.7 180.4 187.2 195.3 203.8 214.1 222.9 227.8 231.4 235.4 239.7 243.7 248.1 251.6 254.8 258.5 260.8 265.4 269.8 273.8 277.3 282.7 288.9 296.4 301.9 302.7 300.5 299.5 300.4 302.2 305.2 309.2 312.6 315.5 318.2 321.4 324.3 326.8 329 331.9 334.8 336.2 336.5 327 314.7 304.7 297.6 287.8 279 266.9 258.4 252 244.5 236.2 230.5 224.8 218 210.5 206.6 199.4 194.1 190 184 179.2 174.7 170.9 166.6 162.3 158.9 160.3 159.4 157.5 155.8 155.2 155.1 153.1
183.9 183.7 184.4 183.2 182.3 181.3 179.3 177.7 176.2 174.6 173.3 172.6 172 170.8 166.6 145.7 131.6 142 129 116.4 106 95.9 78.7 76.5 75.6 77.7 86 96.3 104.2 94.8 89.4 87.3 85.1 86.6 90.7 93.7 98.4 105.3 111.4 113.8 105.7 97.7 94.9 96.3 102.5 115.7 122.7 148.7 158.7 156.9 155 160.9 162.3 163.5 165.8 167.1 167.6 166.2 165.2 169.8 171.6 171.9 169.7 170.8 170.7 170.6 170.6 168.4 163 161.8 168 170.2 172.4 174.3 175 174 172.1 161.6 139.2 124.6 103.7 102.1 101.8 113.5 138.2 160.5 175.3 179.4 181.9 184.3 185.7 186.7 187.5 187.4 187.4 187.4 187.4 187.3 187.6 187.9 187.8 187.7 187.2 186.9 186.3 185.5 183.9 185.7 186.3 185.3 185.5 183.8 183.6 182.8 182.1 182.4 187.1 189.4 189.3 182.6 178.4 178.4 178.6 177.3 174.9 180.7 183.2 187.4 196.2 205.5 214.3 222.1 227.5 231.6 236 239.3 243.3 246.2 248.7 251.3 255.8 260.8 265.7 269.1 272.6 276.3 281.5 288.6 293.6 294.4 294.9 295.1 296.9 299.6 302.9 307.4 310.8 314.2 316.5 319.9 323 325.1 327.7 330.6 333.2 334.8 333.7 324.7 313.5 305.2 297.1 287.8 277 266.4 258 250.8 243 235.6 229 222.7 215.1 210 203.6 198.5 193.5 188.2 183.9 179.1 175.2 171.1 167.2 165.8 164.2 162.9 161.3 158.5 157.4 156.5 156.5 154.5
184 184.7 185.2 185.1 184 183.3 182.4 181.1 180.1 178.5 176.9 175.5 173.9 171.5 153.7 147.7 156.2 159.9 152.1 139.5 125.5 114.1 100.8 78.8 78.4 78.5 78.2 77.6 77.7 79.3 78.3 79.5 79.7 80.7 80.9 81.3 81.3 82.1 81.8 81.5 83.4 84.9 85.3 85.6 89.4 91.5 102.6 121.6 148.3 127.4 149.3 155.4 157.7 159.3 160.8 161.5 161.7 161.1 163.1 165 166.5 166.5 164.9 165.4 165.7 165.5 164.6 161.3 159.5 157.8 164.6 168 170.1 171.4 171.6 157.6 141.4 127.1 113.9 105.9 101.5 101.1 104.9 119.3 142.7 167.3 177.6 181 183.4 185.6 187.1 188.4 189.2 189.5 189.6 189.6 189.9 189.8 189.8 189.9 189.3 189 188.7 188.8 188.8 188.1 187.7 188.2 188.6 187.3 188.7 188.4 188.1 187.5 186.1 185.5 189.5 191.9 193.3 193.7 187.2 181.6 180.5 179.8 178.5 180.3 182.6 184.8 190.3 199.4 207.2 214.6 221.5 225.9 231 235.2 238.6 240.8 243.1 247.1 251.5 256.7 261.5 265.7 269.2 272.9 276.8 280.8 286.1 288.8 290.5 291 293.4 296.1 300.5 304.9 308.4 311 314 317.3 320.1 322.8 325.5 328.4 330.9 333.1 331.3 321.8 311.9 305.1 296.8 287.1 277.3 267.7 258.6 250 241.9 234.6 228.2 222.1 215.6 209.4 203.2 197.6 192 187.3 182.4 178.3 174.5 170.9 167.6 167.5 165.9 164.5 162.8 160.9 159.7 158.2 157.9 156.3
184.9 186 186.7 186.7 187.1 186.3 185.4 184.4 183.6 182.9 181.7 179.3 175.4 167.7 169 173.2 176 174.8 170.5 160.6 146 132.1 115.6 94 82.1 80.3 80 79.6 80.5 80.7 81.7 82.3 83 88.6 82.9 80.9 82.5 83.9 84.3 83.7 82.7 82.9 83.2 84.5 85.2 87.5 92.3 107.4 121.2 116.9 145.1 149.2 151.5 153 154.6 155.2 151.8 156.2 158.3 159 159.5 159.5 154.3 159.1 159.7 160.5 159.1 156.7 153.7 161.1 165 167.5 167.4 167.9 159.5 127 112.1 104.6 101.4 100.7 101.3 102 113.8 131.8 161.4 175.7 179 182.2 184.6 186.5 187.9 189.3 190.2 190.7 191.2 191.5 191.7 191.5 191.4 191.4 191 190.4 190.2 190.4 190.4 190.5 189.9 190.2 190.4 190.4 191.5 191.7 191.3 190.8 190 188.6 190.7 194.8 196.3 196.9 195.9 189.3 184.6 182.4 181.3 180.5 181.7 184.1 187.2 191.4 199.9 207.6 214.3 218.9 223.7 228.6 232.6 235.3 237.5 241.9 248.1 253.9 258.7 263 266.5 270 273.2 276.6 279.7 282.9 284.8 286.8 289.6 293 297.7 301.7 305.2 308.1 311.4 313.7 316.4 319.1 322.2 325.2 327.9 330 327.2 318.3 311.7 305.7 296.9 289.1 279.4 270 261.3 251.4 244.3 236 228.4 222.4 216 209.5 202.8 196.5 191.4 185.9 181.8 177.8 174.5 170.7 170.6 168.1 167.2 166.1 164.3 162.9 161.8 160.6 158.8 157.3
186 187.5 188.4 188.8 189 188.8 188.1 187.9 187 186.3 185.7 182.7 179.4 176.8 179 182.3 182.6 181.1 178.5 174.4 165.9 154.1 137.8 123.2 113.9 107.2 104.9 92.3 101.6 95.1 96.1 87.7 104.4 100.1 106.1 100 84.5 84.8 85.9 85.4 84.8 83.9 83.7 83.4 84.4 84.8 87.3 94.7 97.7 125.7 137.2 141.5 143.7 145.9 147 147.5 140.1 146.8 151 151 151.3 151.6 144.4 151.9 154.5 157.3 155.9 152.6 149.1 159.5 164 167.6 167.3 163.2 132.1 111.6 101.5 100.1 101 102 103.5 112.9 128.9 158.9 173.8 177.2 180.5 183.4 185.4 187.1 188.6 190 191 191.9 192.4 192.9 193.2 193.1 193 192.8 192.5 192.1 191.9 192.1 192.3 192.5 192.4 192.5 193.2 193.2 194.4 194.5 194.2 194.1 194.3 193.7 194.5 197.9 199.3 198.7 199 198.9 200.2 199.1 189.3 181.5 183.4 186.3 189.8 193.5 196.5 200.8 207 210.7 215 218.9 221.8 226.4 227.8 236.3 244.1 250.6 255.9 260.2 264.2 267.2 269.9 273.3 276.6 279.3 281 283.1 286.4 289.5 294.6 298.3 301.8 304.8 308.2 310.3 312.7 315.5 318.7 321.1 323.5 324.5 321.5 316.6 310.7 305.8 298 291.4 282.2 274.1 265.3 255.8 246 239.2 230.9 222.5 216.1 209.6 202.1 195.7 190.1 185.7 182.8 178.9 175.3 173.6 171.7 171 169.2 168.1 166.3 164.7 163.4 162.4 160.8 159.3
187.2 189.4 190.2 190.8 191 191.4 191.5 191.6 190.5 189.6 188.9 186.1 184.4 181.8 185.5 186.4 186.4 185.3 183 180 176.7 170.7 158.1 143.8 130.3 120.4 115.4 112.9 112.4 112 106.2 106.8 110.5 111 109.2 100.3 90.8 97.2 87.3 88 93.8 99.4 98.6 96.3 91.2 84.9 85.8 88.7 98.3 116.7 123.9 132.9 136.2 134.8 136.6 134.6 131.5 121.4 135.7 137.7 139.1 138.2 134.3 143.6 152.4 156.1 154.5 149 141.3 155.2 159.9 164.8 163.9 151 122.7 101.7 100.3 100.9 105.5 114.3 117.5 133 160.9 171.2 174.9 178.4 181.6 183.9 185.8 187.5 189 190.3 191.3 192.3 193.2 193.9 194.1 194.2 193.7 194.6 194.7 194.7 194.5 194.7 195.5 195.7 195.8 195.8 196 196.1 196.7 197.7 198.1 198.1 197.8 197 197.3 201 202.5 202.9 203.3 201.4 203.6 203.9 198.6 185.4 185.2 186.6 189.3 192.9 197.4 203.4 206.7 210 216.1 220.7 224.5 229 228.9 229.7 239.3 246.4 252.5 256.9 260.4 264.4 267.1 270.1 273.4 276 277.8 280 282.9 286.1 291.7 295.1 298.7 302.5 304.7 307.3 309 311.3 314.9 317.1 319.6 320.2 317.9 314.9 311.5 305.5 300.3 293.1 284.3 275.8 267.4 258.9 247.8 239.6 231.7 222.7 215.9 207.8 200.7 196 191.3 185.1 182.2 177.9 177.1 175.6 173.9 172.6 171.1 169 167.5 166.2 164.6 163.8 160.6 160.4
189.9 191.5 192.8 193.5 193.8 194.6 194.9 195.1 194.7 194.3 191.9 190.4 188.5 187.5 189 189.7 189.7 188.7 186.7 183.9 180.5 175.6 169 160.4 146 132.6 123.1 117.9 118 116.4 116.2 114.7 115.8 117.4 114.3 114.5 111.4 111.8 96.8 97.7 114.7 114.6 117.1 117.3 111.8 90.5 84.8 84.9 86.5 90.2 99.2 111.6 109 105.1 107.9 108 109.9 105.9 107.2 112.6 123.7 124.9 123 142.5 146.7 144.3 141.2 135.8 141.5 149.6 153.4 149.8 139.3 127.1 102.2 99.3 99.3 119 136.6 150.4 146.7 165.3 167.7 171.9 175.5 178.7 181.3 183.7 185.7 188 189.3 190.3 191.3 192.4 193.3 193.9 194.6 194.8 195 195.5 196.1 196.5 197.1 197.4 198.2 198.4 198.3 198.3 198.5 198.1 199 200.5 201 201.5 201.4 200.3 199.6 203.8 205.7 206.7 207.3 208.3 208 208.8 207.8 201.5 188.8 189.2 191.9 196 199.6 203.8 207.6 211.1 216 222.6 227.5 230.6 233.7 235.4 237.2 242 248.4 252.2 256.8 260.9 264.7 267.6 271.4 273.1 274.8 277.5 280.4 282.9 287.4 291.4 296 298.7 301.1 304 306.2 307.5 310.2 313 316 317.2 316 313.9 310.8 306.3 301.3 294.2 284.6 275.8 267 257.4 247.1 239.1 229.7 221.7 214.7 207.1 200.4 195.6 190.6 185.9 181.7 181.2 179.5 177.5 176.3 173.9 172.9 171.4 169.5 168.2 167.5 164.3 163.7 162.5
191.5 193.8 195.1 196.2 197.2 197.7 197.9 198.6 198.6 198.4 196.8 195.7 193.6 192.3 192.2 192.9 192.5 191.3 189 185.8 181.8 177.6 171.8 165.8 158.9 146.4 133.5 126.1 122.7 120.7 119.8 118.8 120.2 120.1 120.8 121.2 118.2 117.7 114.6 94.6 108.7 115.3 116.6 115.2 114 102.4 88.8 87.5 86.8 86.3 88.3 89.7 90.5 90.8 91.2 91.4 95.3 95.8 94.7 95 100.3 105.4 120.1 121.8 118.6 116.1 116.1 126.3 133.7 136 128.2 117.5 106 99.2 99.7 101 110.1 134 145.7 151.5 157.1 162.4 167.8 171.8 175.5 178.3 180.9 183.4 185.1 187.2 188.8 190.2 191.3 192.3 193.3 193.8 194.5 195.3 195.8 196.3 197.1 197.9 198.6 199.5 199.9 200.3 200.4 200.5 200.7 200.3 201.8 203 203.8 204.5 204.6 203.2 202.3 205.5 208.6 210.5 211.3 212.3 212.9 214 214.2 214.8 213.6 214.1 217.1 219.6 220.9 213.5 210.9 212 218.2 226.1 226.8 233.6 236.8 239.5 241.6 244.7 246.8 250.4 253.9 258.6 262.3 265.4 267.9 269.9 272.3 274.6 277.9 280.9 284.8 289.3 292.5 295.3 298 300.1 302.1 304.1 306.5 309.3 312.5 314 314.2 313 310.9 306.6 301.7 293.9 284.7 274.9 265.3 255.6 246.5 237.7 228.8 220.8 213.5 206.1 200.9 194.9 190.9 187.2 185.4 184 180.7 179.5 177.9 175.4 175.2 172.9 171.6 170.3 168.6 167.4 166.6 164
193.9 195.6 197.1 198.8 200.2 201.3 201.9 202.4 203.2 202.8 201.6 199.8 198.2 196.5 195.9 195.5 194.8 193.1 190.4 187.1 182.6 177.5 172 166.6 160.5 150 140.7 133.8 128.7 125.5 123.7 123.3 124.8 124.1 123.4 122.3 121.2 120.3 117.9 107.3 105.8 118.7 120.3 120.3 121.1 122 108.4 94.6 89.8 88.7 86.6 86.8 87.7 88.2 89 89.3 90 91.5 93.2 94.8 97.2 99.1 99.6 100.2 106.7 116.8 116.5 112.7 113.9 110.8 100.5 97.8 97.7 98.7 100.4 101.3 104.5 112.4 126.3 145.3 152.2 159.5 165.5 170.5 174.8 177.4 179.9 182.2 184.4 187.8 187.6 189.5 191.1 192 193 193.7 194.4 195.4 196.5 196.5 198.1 199.5 200.2 201 201.6 202.2 202.5 203.2 203.5 203.3 204.1 205.6 206.4 207.4 207.2 206.6 206.2 207.5 211.8 214 215.7 217.1 218.4 219.5 223.1 223.6 224.5 226.8 229.2 231.6 232 231.6 231.3 228.4 227.2 228.5 232.2 235.6 240 242.2 244.7 245.7 248.9 250.4 253.1 257.9 260.4 263.5 266 268 270.5 273.4 276.3 279.3 283 286.1 289.6 292.2 295.3 297 298.8 300.8 303 305.6 308.8 311.8 312.5 312.3 310.2 305.7 298.9 290.8 282.6 272.5 264.7 256.1 246 237 228.8 221.7 214.6 207.6 201.2 196.4 191.5 188.4 186.9 184.7 183.5 182.3 180.3 178.7 176.3 175.3 172.8 172.5 170.1 170 168.9 167
195.4 197.7 199.2 201.3 202.8 204.3 205.4 206.5 207.2 206.7 205.8 204.2 202 200.8 199.6 198 196.7 194 190.7 186.6 182 176.6 171.1 166.1 158.3 148.7 143.3 139 135.9 132.7 129.3 128.4 128.4 128.1 126.6 125.4 124.5 122.8 120.9 115.8 102.8 119.2 124.3 126 127.3 127.7 128.8 122.6 114.2 108.2 102.3 91.6 89.2 88.4 87.8 89.3 89 89.3 90 91.3 95.7 96.4 97.6 100.5 105.1 107 108.9 105.9 96.4 96.2 96.8 97.1 97.9 100.1 102.8 110.8 112.8 106.9 111.6 126.7 142.9 153.3 161.2 167.3 172.2 176.3 178.3 181 183.4 184.9 187 189 190.7 191.2 192.5 193.3 194.3 195.4 196.8 198.1 199.4 200.9 201.8 202.6 203.4 204 204.7 205.4 205.8 205.8 205.4 208 209.3 210.3 210.4 209.7 209.1 211.3 215.3 217.7 219.9 221.1 222.4 226 228.4 231.1 234 237.2 240.3 241.5 243.1 243.7 243.9 244 241.9 237.9 239.3 240.3 239.4 243.8 246.3 247.6 249.7 253.4 255.4 258 260.1 262.4 265.6 268 269.6 272.6 275.4 278.5 281.2 283.8 287.6 289.4 292.2 294.2 296.4 298.1 300.1 302.7 305.3 308.8 309.3 309.2 307.3 301.2 294.2 286.8 278.4 271.5 262.7 256.6 247.9 239 230.3 221.1 215.1 207.4 201.7 196.2 192.1 190.2 188.1 187.4 185.5 183.5 182 180.9 178.4 176.8 174.4 174 173.3 171.3 170.9 168.5
198 199.7 202.2 203.9 205.5 207 208.2 209.3 210.3 210.5 209.7 206.9 205.4 204.2 202.5 200.4 198.1 195.3 191.3 187.2 182.2 177.4 172.8 168 162.7 157.7 154.5 147.9 143.1 137.6 134.5 132.7 132.2 131 129.8 129.1 128.6 126.7 124.2 123.2 109.1 110.5 125.4 129.4 131.6 133.5 136.8 137.8 138.7 133.5 129.6 121.8 104.8 96.8 91.3 89.5 89.1 89.3 89.7 90.1 92.3 93.6 93.9 94 93.4 93.8 94.6 94.8 95.3 95.6 96 96.7 98.4 100.1 109.3 124.2 129.1 109.5 123.5 127.9 134.1 144.7 155.1 160.1 166.8 172.6 177.4 180.1 182.2 184.8 186.6 187.7 188.9 190.3 191.5 192.7 194 195.4 196.9 198.5 199.9 201.6 202.9 203.8 204.8 205.9 206.7 207.9 207.9 208.2 208.1 210.8 211.9 212.7 213.4 213.3 212.7 214.2 218.5 220.4 222.5 224.1 228.1 230.5 234.5 237.9 240.9 244.9 247.7 250.2 251.6 252.6 253.1 251.7 249.3 246.4 244.1 244 241.9 244.9 246.7 250.1 252.2 254.2 256.2 259.2 261.5 263.6 266.3 267.5 269.8 272.6 274.9 277.2 279.7 282.2 284.8 287 289.1 292.3 293.6 295.4 297.4 299.5 301.7 303.4 304.4 302.4 299.5 294.8 288.7 281.4 276.2 269.5 263.4 256.9 247.8 236.9 227.2 219.7 210.9 206.3 201.7 196.4 194.2 191.8 191.3 189.3 187.4 185.8 184.9 182.5 180.1 178.4 177.8 176.7 175 173.7 172.5 170.1
201 202.5 204.6 206.4 208.2 209.8 211 212 212.5 212.6 211.4 208.4 208.5 207 205.5 202.9 199.6 196.3 192.5 188.4 183.2 179.4 175.3 171.1 166.7 163.5 158.7 153.6 147 141.4 138.6 137.4 136.1 134.7 133.1 133.8 133.8 132.6 128 125.5 122.2 109.8 123.5 131.3 136.8 140.8 144.4 146.2 147.9 148.5 147.7 146.6 130.2 118.7 106.2 105.4 101.8 96.9 94.1 93.5 90.7 92 92.8 92.9 93 93.2 94 94.4 94.1 94.7 98.3 102.2 107.5 119.8 134.1 143.8 137.8 119.5 119.9 144.5 146.4 145.9 149.8 149.5 153.7 165.1 174.3 178.9 180.9 182.9 184.4 185.5 187.2 188.6 190.2 191.7 193.4 195 197 198.8 200.7 203 204.2 205.3 206.2 207.5 209 210.2 211.2 211 210.7 213.4 213.9 215.5 216.3 216.3 216.2 216.5 220.6 222.7 225.7 229 232.8 235.6 239.2 244.1 248.8 252.4 255.8 258.2 260 260.9 259 257 254.5 251.1 247.8 247.4 248.3 248.5 249.3 250 251.9 254.7 257.1 260.1 262.6 265.1 268 269.9 271.3 271.7 273.9 276.9 279.1 280.7 283.6 285.5 287.6 290 291.6 293.1 294.9 297.1 298.8 299.1 298.3 297.2 292.9 289.1 284.7 279.1 273.7 267.8 261.3 253.4 243.7 233.6 224.6 216.2 211.2 206.4 200.1 198.5 195.8 194.3 192.9 190.9 189.5 188.1 186.2 183.9 182.1 180.7 179.2 178.9 177.2 175.3 174.5 173
205.1 205.7 207.2 209.2 211 212.8 213.7 214.5 214.6 214.6 213.5 212.3 211.7 210.6 208.6 205.8 202.3 198.9 195 191.1 186.5 182.1 177.7 174.6 171.9 167.1 163.2 158.1 151.7 145.8 143.2 141 139.4 137.5 137.9 138.7 139.9 140.1 138.2 128.8 126.2 113.5 117.2 128.4 137.2 142.8 146.4 149.2 150.7 152.2 152.5 151.2 149.3 144.3 128.8 126 125.4 121.5 119.8 119.7 110.7 98.9 94.1 92.5 93.6 94.3 95.3 100.9 109.7 115.4 118.9 123.8 132.6 146.1 158.7 166.5 162.1 133 113.6 136.6 142.5 147.7 152 153.8 155.3 157 158.8 162.7 165.2 173.2 179.3 182.4 184.6 186.8 188.7 190.9 193 194.9 196.8 198.9 201.3 203.6 205.2 206.4 207.9 209.6 211.4 212.7 213.9 214.2 213.9 214.6 216.3 218 219.2 219.7 220.2 219.4 221.7 226.1 231.1 234.6 237.3 240.7 245.2 250.8 256 259.8 263 265.6 266.3 265.3 263.6 261.7 257.9 254.2 252.2 252.2 251.9 250.7 249.3 251.3 253.3 255.6 259.2 261.6 264.6 267.1 269.1 271.1 273 274.6 275 277.4 278.8 280.7 282 283.8 286.6 288.2 290 291.5 293.2 294.5 295.5 296.3 295.1 292.6 289.6 286 281.7 276.9 271.5 264.2 257.3 246.3 237.6 228.7 221.3 214.7 210.8 205.5 203.2 200.7 199 196.9 195.4 192.9 192.2 190.5 188.2 184.8 183.7 184.5 182.5 181.1 179.4 178.5 177 175.3
208.9 209.4 209.8 212.1 213.9 215.7 216.5 216.9 217.1 217.2 216.4 215.9 215.3 214.1 211.7 208.5 204.8 201.8 197.2 193.6 189.4 184.8 182.4 179.5 175.1 171.2 166.7 161.3 155.1 150.2 147 144.8 143.2 142.3 141.4 142 143.8 143.5 139.7 131.8 129 123.1 116.9 126.4 132.8 142.1 147.7 151.6 153.6 155.7 156.8 156.9 156.1 154.7 147.2 148.6 147.5 147.3 148.5 151.1 142 126.9 115.4 110.2 107.6 107.7 114.7 122.9 133.5 142.6 149.5 151.9 158.7 170.7 175.5 177.5 176.4 151.9 130.9 115.2 114.6 123.6 139.9 154.9 162.9 169 175.6 173.3 169.2 169.7 170.3 172.5 180.8 184.9 187.6 190 192.5 194.8 196.8 199.2 201.7 204.2 206.3 208.2 209.8 211.6 214 215.5 216.6 217.2 216.6 216.9 219.2 220.6 221.9 223.2 223.9 224.3 225.6 230.2 234.2 237.6 241.5 245.6 250.6 257.6 262.5 266.6 269.8 271.7 270.9 269.9 267.6 263.5 260.5 259.1 257.1 256 255.3 253.2 253 253.3 255.3 257.2 260.6 263.9 264.9 269.2 270.6 272.7 274.5 276.7 277.7 277.3 279.9 281.5 282.9 284.2 285.8 287.2 288.6 290.1 291.5 292.7 293.2 293.2 292.1 289.3 286.5 283 277.4 272.9 265.6 258.8 249.2 241.1 232.1 225.3 219.2 214.8 210.5 207.5 204.8 203.1 201.4 199.1 197.1 195.9 194.3 191.3 189.1 189.2 188.3 186.7 185.3 183.1 182.2 181.2 179.4 177.9
212.8 213.2 212.9 214.8 216.7 218.2 219.1 219.4 220 219.2 219 219.3 218.9 217.5 215.2 213 208.6 204.9 200.6 196.6 191.9 189.8 186.6 183.3 179.1 175.7 171 166.1 158.4 156.1 151.6 149.3 148 146.5 145.8 146.1 145.6 143.2 138.8 133.6 131.8 128.7 123.9 120.2 129.1 137.8 147.7 153.2 156.3 158.9 160.5 160.7 160.2 159.1 157.7 159.1 161.9 162.5 164 165.1 165.1 156.4 147.9 140.5 134.4 133.7 143.7 154.7 162.3 169.8 172.7 175.2 176.8 179.7 182.4 183.4 185.2 183.6 162.8 155.6 161.7 168.1 175.3 177.5 176.9 177.9 181.4 182.4 177.6 174 173.4 173.5 172.7 177.3 186.3 189.1 191.6 194.2 196.9 199.4 202 204.9 207.5 209.7 211.6 213.5 215.7 217.7 219.1 220 219.9 219.6 221 223.6 225.5 226.5 227.3 227.9 228.9 234.9 239.2 243.6 246.4 249.9 255.8 262.4 269.6 273 275.5 275.6 275.3 273.5 269.5 267.6 266 264.2 261.9 259.5 257.4 256.8 256.7 257.8 259.2 260.5 263.5 266.6 269.4 270.7 272.6 275 276 277.3 278.7 279.9 280.6 282.2 283.6 284.9 286.1 287.5 288.6 290 291.5 292.2 291.7 291.1 290 287.1 283.5 279.1 273.3 267.3 260.5 253 243.9 236.2 229.6 223.8 218.7 216.1 213.4 209.2 207.6 205.8 203.7 201.4 199.7 198.4 196.4 193.9 191.3 191.3 190.3 189 187.7 185.1 185.2 183.8 183 181.7
217.3 217.2 216.5 217.8 220 221.4 222.6 223.1 223.4 222.7 222.5 222.7 222.7 221.7 219 216.1 212.7 208 203.9 200.6 196.4 193.5 190 185.9 181.2 179.3 175.1 171 165.6 160.1 157.2 155.6 154.8 152.4 149.9 148.3 148.5 147.6 145.7 139.1 134.8 133.3 128.5 128.5 128.2 134.5 145.2 153.8 158.5 161.8 163.3 163.9 163.8 163.8 163.8 164.7 167.5 169.5 171.6 173.9 175.3 174.6 175.3 170.4 167 166.8 172 177.6 179.8 180.9 181.8 182.3 184.3 185.9 187.3 189.7 190.6 190.8 190.2 189.7 188 185.1 182.8 181.9 181.5 182.1 185.3 186.3 185 176.4 176.1 175.6 175.2 174.8 182.5 187.9 190.5 193.1 196 198.8 201.5 204.6 207.8 210.8 213.1 215 217.5 220.1 221.7 223.3 222.6 221.9 223.2 225.8 228.5 229.5 230.6 231.9 232.6 237.7 243 247.3 250.8 253.8 261.8 268.1 274 278.6 280.2 280.6 279.6 277 273.7 270.9 270.5 268.7 266 262.8 261.6 261.2 260.7 262.9 264.8 266.9 269.2 270.8 273 273.3 275 276.4 278.4 279.2 280.6 281.6 282.4 283.3 284.6 285.4 286.6 287.8 289 290.2 291.4 291.7 291.5 290.6 287.9 284.5 282.2 277.3 269.2 264.2 255.8 247 240.6 234.7 229.2 224.1 220.5 218.3 215.1 212.5 210 208 206.2 204 202.5 200.6 198.1 197.1 195.4 194 193.5 192.2 190.8 188.1 187.8 187.6 186.3 185.1
220.9 220.4 220.8 222.1 223.7 224.9 226.1 227 227.2 226.9 228.4 228.3 227.8 226.8 224.7 222.3 217.4 212.5 207.4 203.4 199.7 195.9 192.3 187.7 184.1 181.1 178.6 175.3 171 166.2 162.8 162.5 162.1 158.3 157.6 155.8 156.8 158.8 157.4 151.5 141.7 136.7 132.9 135.3 129.9 137.3 139.8 151 160.1 163.9 166.3 167.4 167.5 167.8 168.2 169.4 171.9 173.7 176 178.8 179.3 180.4 180.5 180.8 182.2 183.2 184.6 186.2 187.2 188.9 190.2 192.1 192.7 193.8 195.1 196.6 197.9 197.3 196.9 196.7 195.3 193.1 189.5 187.2 186.7 186.2 188.4 188.6 185.5 181.4 178.2 177.4 177 176.7 181.6 186.4 189.7 192.1 194.8 197.9 201 204.1 207.5 210.5 213.1 215.9 219.5 222.1 224.8 226.2 226.6 226.9 226.6 227.7 229.6 232.4 234.5 235.7 236.2 238.8 244.9 249.7 253.6 258.3 266.3 274 279.6 283.5 284.7 286 284.1 281 278.2 276.9 275.7 273.4 270.5 267.7 267.2 267.4 269.1 270.2 272.9 273.7 275.6 277.5 277.7 278.6 278.4 279.6 280.6 281.8 282.2 283.5 284.1 284.5 285.6 286.7 287.5 289.2 290.9 292 292.3 292.6 292.5 290.6 288.4 284.5 279.7 272.4 264.3 258.4 250.3 243.3 237 232.6 228.9 225.5 222.2 219.8 216.7 214 212.8 210.4 208.5 207.2 204.4 201.6 200.9 199.5 198.3 197.2 196.5 195.5 193.9 192.7 191.4 191 189.5 188.5
225 224.4 224.4 226.2 227.3 228.4 229.6 231.1 232.1 233 233.1 233 232.2 230.5 227.9 224.7 220.4 216.1 211.3 208.1 204.8 199.4 194 189 185.3 182.4 180 176.7 173.6 170.4 168.5 168.2 169.1 168.1 165.3 164.4 166.5 167.2 167.6 164.4 157.1 143.9 138.3 136 131.8 140.6 144.2 145.7 153.8 164.9 168.6 170.4 171.4 172.1 172.9 174 176.1 178.3 180.6 182.5 183.9 184.6 185.7 186.7 187.6 189.2 191.3 193.3 195.3 197.3 198.3 198.4 199.1 200 201.3 202.8 202.8 203.6 203.9 203.3 202.3 200.4 197 194.5 192.6 191.6 192.5 192.4 189.8 182.7 179.9 179.4 179.7 178.2 179.4 185.3 188.3 191.6 193.9 197.2 199.9 203.4 206.7 210.1 213.9 217.2 221.1 224.1 227.2 229 230.2 231.2 231.6 231.8 232.9 235.7 238 239 239.8 241.3 245.5 250.3 255.7 261.8 270.3 278.5 283.1 287.3 291 291.3 289.4 287.1 285.6 285 281.3 277.8 276.1 273.8 275 276.5 277.4 278.4 281 282.4 283.7 283.3 283.4 282.9 282.4 282.5 282.5 284.1 284.4 284.8 286.1 286.5 287.2 288.4 289.6 290.4 291.8 293.2 293.9 294.1 294 293.1 290.1 287.6 282.3 275.7 267.3 258.4 249.6 241.4 237.8 233.9 230 225.9 224 220.9 218.4 216.8 214.5 211.9 210.2 208.1 207.2 204.6 203.1 202.4 201.2 199 199.4 197.6 196.9 195.4 195.2 193.8 192.5 191.7
229.3 229.3 229.6 230.8 232.2 233.3 234.5 235.4 235.8 236.6 237 236.3 235 233.1 231 227.1 223.1 218.9 216.3 212.4 208.6 203.1 197.1 190.9 186.8 183.4 180.2 178.9 176.4 174.4 174 174.7 174.9 175.2 174.4 173.6 174.4 175.5 177.3 176.1 171.5 162.1 151 146 142.8 141.2 142.9 147.8 151.1 155.1 170.2 172.4 174.6 175.5 176.6 177.5 179.6 181.7 183.9 185.9 187.4 189 189.9 191.2 192.7 193.9 196.6 198.2 200.2 202.4 203.8 204.5 205.8 206.6 207.5 208.3 208.7 209.2 208.6 209 207.6 206.4 203.8 200.9 198.3 196.6 197 196.4 194.7 188.8 184.3 181.6 180.1 181 178.7 185 188.8 191.3 193.4 196.4 199.3 202.6 206.2 209.7 213.8 217.6 221.7 225.1 228.4 231.3 233.1 234.2 235.1 235.6 236 238.9 240.6 242.9 244.2 244.5 246.6 252.1 258.1 266.9 275.6 281.9 286.5 293.8 296.7 298 296.5 295.1 296 292.2 287.7 282 280.3 281.1 284 284.9 286.5 287.4 288.3 289.7 290.3 290.3 288.2 287.3 286.1 285.6 283.6 285.9 286.6 286.9 287.4 288 288.9 289.9 291 291.9 294.2 295.1 295.8 296.5 296.8 295.5 294.1 291.4 285.8 278.6 270 260.7 250.8 242.7 238.4 234.5 229.4 228.2 226.3 223.2 221.6 219.3 216.7 215 212.3 210.2 207.9 206.7 206.5 206 204.1 202.8 202.2 200.9 200 199.5 198.8 197 195.8 195.7
232.5 234.7 235.3 236.4 236.8 237.3 237.8 238.2 239.4 239.9 239.3 238.9 238.2 235.9 233.1 229.6 226.4 224.8 221.3 216.8 211.7 206 197.9 192.3 189.5 186.9 184.3 182.9 179.8 180 181 181.2 181.9 182.3 182 181.9 182.4 184.5 184.4 182.2 179.5 174.4 173.7 165.9 164.7 166.1 159 153.1 153 157.5 169.6 174.2 176.2 178.5 179.8 181.1 182.8 185 187.3 189.7 192.4 194.2 195.1 196.5 197.2 198.3 200.7 203 204.7 206.9 208.4 210 211.3 211.8 212.6 213.7 215.1 215.2 215.4 214.9 213.3 211.8 210.1 209.1 205.8 203.2 201.7 200.9 198.6 193.9 187 183.5 183.4 183.7 183.5 184.4 186.4 190.6 192.7 195.7 198.7 201.8 205.4 209.3 213.7 217.4 221.2 225.6 229.4 232.8 235.6 236.8 238.2 239.1 239.2 241.9 244.1 246.2 247.6 247.6 249.8 254.7 262.5 273.6 279.8 286.6 295.4 300.6 303.7 304.2 303.4 304.6 302.7 298.6 293.8 288.3 289.1 291.6 294.6 294.5 295.3 296.9 297 295.8 296.1 295.1 292.9 290.5 289.9 288.3 287.9 289.2 289.2 289.1 289.6 290.1 290.3 291.4 292.7 294 295.9 297.2 298.1 298.7 299.6 299.1 298.1 295 289.7 281 271.3 262 250.9 242.7 239.2 236.1 233.5 230.6 228 227.1 224.4 221.5 219.3 216.5 214.7 212.8 211.8 211.3 210.4 209.3 207.7 206.9 205.5 204.4 203.2 202.7 202.3 202 201.7 202.4
237.6 239.2 240.6 241.4 241.3 240.8 241.1 242.3 243.3 243.8 243.6 242.5 240.9 238.1 234.9 232 230.8 228.3 224.5 219 212.3 206.3 200 195.9 192.5 190.1 188.2 186.2 185.6 187.1 189 189.1 189.4 189.8 190.1 189.8 191.4 191.2 190.7 190 187.9 184.7 184.2 183.4 181.2 177.1 173.4 165.9 157.5 160.1 163.5 174.9 177.4 179.7 182.3 184.4 186.1 188.2 190.5 193.7 195.8 197.5 198.8 201 202.1 203.7 205.8 207.7 209.6 211.6 213.2 215.3 216.8 218.2 219.8 220.5 220.7 221.2 221.4 220.6 219.6 218.2 215.9 213.6 210.8 208.7 206.8 204.8 202.7 198.9 191.9 186.2 184.6 185.8 186.4 184 187.9 189.3 192.4 195.6 197.6 201 205.2 209.3 213.6 218.1 222.3 226.4 230.8 235.2 238 239.4 240.9 242.3 243.1 244.1 247.2 248.8 250.4 251 255.3 259.9 269.8 278.2 284.4 293.2 301.3 307.6 311.4 310.7 312.4 312.6 309.4 305 300.8 297.5 300.7 302.4 304 304.4 306.3 306.7 305.9 304 301.9 299.3 297.1 294.5 293.5 292.4 291.6 292.5 291.4 291.5 292 292.5 292.9 293.8 294.6 296.4 297.5 299.5 300.7 302.9 303 303.2 302.2 299.6 292.1 282.2 273.1 263.5 251.8 244 240.9 238.5 236.2 234.7 232.5 230.6 228.5 225.7 222.7 220.1 217.2 216.1 216.2 215.1 214.3 213.3 210.3 209.8 209.6 208 206 205.9 205.9 206.5 207.5 207.2
241 242.8 244.5 245.4 245.2 245.8 245.8 248.3 250 248.7 246.8 245.1 243.3 240.6 238.2 235 233.4 230.3 225.4 219.1 212 207 201.9 197.4 195.8 193.4 191.8 190.5 191.8 194.8 196.7 196.7 196.9 197.4 197.5 197.3 198.4 198 197.2 195.8 193.9 191 190.1 188.8 184.3 181.2 178.1 174.1 166.9 162.8 165.6 171.3 176.9 180.7 183.5 186.2 189.1 191.4 193.5 195.7 198 200 202.6 204.4 206.2 208 210.4 212.5 214.6 215.4 218.2 220.4 221.8 223.7 224.5 226.2 227.4 227.2 227.2 226.3 225.4 223.3 220.9 218.3 216.2 213.4 210.9 208.1 206.7 202.8 198.5 189.6 187.8 187.1 188 187.1 189.1 190.6 192.7 194.6 196.9 201.3 204.9 209.6 214 218.8 223.4 227.2 231.6 237 240.1 242.1 243.7 245.3 247 249.2 250.4 253.1 254.5 257.1 260 267.1 275.1 282 288.9 300.9 309.3 316 317.8 318.1 320.3 318.1 315.1 313.2 311.4 310.3 311.3 312.4 314.3 315.9 316.3 315.9 315.3 312.3 307.8 303.8 301.5 297.9 297.1 295.3 295.3 294.1 293.8 293.6 294.2 294.6 294.7 295.8 296.6 298.2 300 301.5 303.8 305.2 306.1 306.9 305.6 302.8 294.4 283.8 274.5 263.9 252.9 247.2 243.6 241.6 239.4 237.7 236 233.3 231.4 227.2 226.3 223.8 220.8 220 219.7 218.3 218 216.7 215.1 214.5 212.8 212.1 211.4 210.6 211.2 212 212.8 213
242.9 245.5 247.3 249.1 250 251 253 254 253.9 252.9 250.8 248.6 246.9 244.5 241.9 238.4 236 231.6 225.9 218.5 212.7 208.2 205.3 202.2 199.8 197.7 196.1 196.6 200.4 203.1 204.4 204.9 205 204.9 204.6 203.9 203.8 203.3 202.3 201.3 199.4 198.1 196.2 193.6 191.3 187.4 183.1 179.7 174.9 168 167.1 169.4 174.5 180.4 184.1 187.2 190.1 192.8 194.8 196.7 199.6 202.2 204.5 206.5 208.7 211 213.5 215.8 218.4 221.3 223.4 225.5 227.3 229.6 230.9 231.8 232.8 233.6 233.5 232.6 231.4 229.1 226.1 222.3 219.8 217.7 214.9 211.7 208.9 205.3 201.9 196.3 190.4 189.1 189.6 188.5 189.9 192.6 193.2 195.3 197.2 201.2 205.9 210.1 214.8 219.8 223.9 227.6 232.3 237.5 241 244 246.5 248.9 250.5 253.9 254.4 257.3 259.8 261.4 266.2 272 278.5 286.8 295.1 306.7 316.9 321.8 323.6 326.5 325.6 323.8 323.1 323 322.7 323.4 323.9 324.2 324.8 327.1 328.3 326.9 324.9 320.6 314.9 310 304.9 302.6 301.5 300 298.1 297.1 296.7 296.5 296.1 296.1 296.3 298.6 299.4 300.9 302.7 305.6 307.3 309 311.2 310.4 309 307.2 296.2 286.7 276.3 264.9 255.8 251.7 247.3 245.9 243.4 241.6 240 237.9 234.7 232.9 229.8 227.3 224.4 224.4 223.6 223.5 222 220 220.2 218.5 216.5 215.5 215.6 216.1 216.6 217.9 219 221.1
244.5 247 249.4 251.3 253.1 254.8 255.9 256.8 257.2 256.3 254.7 252.7 250.7 248.1 245 242.4 238.5 233.7 227.7 221.5 215.9 213.1 209.8 206.6 204.7 203.1 201.5 203.1 207.9 211 212.9 213.7 214 212.9 211.4 209.9 209.3 208.3 207.4 205.2 203.8 201.5 199.8 198.4 195.4 192.1 189.5 184.2 181.6 174.5 169.8 171.9 173.7 177.8 183.6 187.2 190.6 193.2 195.9 197.9 200.6 202.7 205.4 208 210.4 213.4 215.6 218.7 221.3 224.2 226.3 228.6 231 233.6 236.2 237.9 239.7 239.8 238.7 237.9 235.7 233.5 231.3 227.6 224 221.8 218.2 215.3 211.5 208.2 204.9 199.2 194.4 196.1 191.7 192.9 191.9 193.2 195.3 197 198.1 202 205.9 209.4 214.9 219.7 224.2 228.2 232.6 238 241.6 244.5 249.1 254.6 253.2 258.1 258.5 260.4 263.5 267.6 271.5 277.1 283.6 291.8 301.3 313.2 322.3 327.2 330.9 331.8 330.6 329.9 330.8 331.9 333 334.7 334.7 335.1 335.5 335.4 338.8 334.6 331.1 327.1 320.6 314.6 309.2 306.2 304.8 302.9 302.5 301.2 299.9 299.7 299.9 300.1 299.7 300.3 303.3 305.2 308.2 311.1 313.4 316 315.9 314.5 311.9 307.9 297.5 288.8 278.3 267.6 259.7 255.5 253 250.3 248.4 246.4 244.5 241.8 238.4 237.3 234.6 232 229.3 228.7 228.3 227.5 226.3 225.6 225.2 222.4 221.9 221.4 222 222.3 224.4 225.8 227.5 228.9
245.5 247.7 250 252.3 254.1 255.8 257.5 258.9 260 260.3 259.1 257.7 255.3 253.3 250.4 247.1 243.5 238.7 232.1 225.6 221.8 217.9 214.3 211.2 209.9 208.1 207.1 209.3 214.5 220.4 222.7 224.3 223.5 222.6 221.4 219.6 218.1 216 214.1 211.5 209.5 207.6 205.2 202 199.2 195 191.9 188.6 185.7 182.6 173.1 173.7 176 178.3 182 186.6 189.8 193.2 195.8 198.9 201.2 203.6 206.3 209.2 212.3 215.2 217.7 221.3 224.4 227.6 230.6 233.2 235.2 238.1 240.6 242.9 244.6 245.3 245 243.6 241.3 238.9 235.7 233.4 229.5 226.1 223.3 219.7 215.2 210.2 205.4 199.3 198.4 203.3 203.9 196.9 195.4 194 196.8 198.2 199.1 202.1 204.9 209.2 213.8 219.1 224.4 227.3 230.9 236.5 241.1 244.1 251.1 260.1 262.1 262.1 261.8 264.4 267.4 271.3 276.6 281.3 287 294 306 317.3 326.1 330.6 333.2 334.9 335.2 335.8 337.4 340 342.7 345.2 346.1 347.1 346.5 349.7 349.2 345.4 337.5 329.4 322.8 317.9 315.1 311.2 308.7 307 306 304.9 303.5 302.9 302.9 303.8 303.8 304.5 306.9 309.8 312.5 316 318.4 321.9 321.1 318.2 314.9 308.3 300.1 290.8 279.7 270 264.2 260.2 258.4 255.9 253.7 251.8 250 245.1 244.8 244.1 243 242 239.4 236.5 233.6 232.2 229.3 229.9 229 228.5 228 227.6 228.2 232.2 234.3 236.4 239.1 240.9
246.2 247.7 249.7 251.7 253.8 256.3 258.3 260.3 261.5 262.2 261.6 260.6 259.2 257.9 255.7 252.4 248.4 243.6 237.9 231.9 228.7 225 220.5 216.7 215 213.3 213.8 216.9 222.5 227.7 231 233 233 232.7 231.3 228.6 226.3 222.4 219.2 215.8 214.1 211.7 208.4 205.9 203.6 199.8 195 191.9 188.4 186.9 183.6 178.6 177.8 179.8 183.5 185.8 190.7 193.7 196.9 198.8 202.3 205.3 208.1 210.8 213.9 217.2 220.8 224.4 227.7 230.9 234.1 237.2 240.6 243.7 246.4 249.5 250.8 251.6 251.2 249.9 247.6 244.2 241.9 239.5 236.2 231 227.8 223.6 218.7 211 205.7 203.6 202.6 208.3 211 209.5 198.5 196.3 198.5 199.7 201 203.4 205.9 208.9 213.1 218.8 223.9 226.7 229.7 233.7 238.6 243.1 250.2 259.8 263.7 265.3 267.6 268.6 270.9 274.1 278.9 285.5 290.6 297.7 308.3 319.4 326.1 330.9 334.4 337.2 339.5 341.3 344.6 348.4 351.2 353.7 355.4 357.1 357.7 357.3 354.9 347.5 338.4 331.3 324.9 321.1 318.3 315.6 312.2 310.6 309.9 308.6 307.7 306.9 308 308.4 310.1 311.2 313 315.7 318.9 320.2 324.5 326.3 324.8 321.8 317.8 312 304 293.6 283.4 274.7 270.4 266.3 264.5 261.8 258.9 256.7 254.5 252.1 251.9 251.4 249.5 248.6 245.2 240.8 238.3 236.9 234.5 235.2 235.5 234.6 235.9 237.4 241.1 244.3 246.4 248.8 251.6 255.6
244.4 247 248.7 250.2 253.3 255.7 257.8 260.3 262.6 263.7 264.3 264.1 263.3 262.8 260.7 258.2 254.4 249.6 244.3 239.4 234.4 229.7 225.9 223.6 220.4 220.2 221.7 225.4 230.4 234.6 237.3 240.1 241.4 240.7 239.9 238 234.6 230.5 225 220.7 217.9 215.7 214 211.7 207.9 203.3 198.8 196.2 192.1 189.9 187.6 186 178.5 181.5 184.7 185.7 190 191.6 195.9 199.6 202.4 205.6 208.7 211.9 215 218.8 222.5 226 229.3 233 237 240.4 243.9 247.3 251.2 253.9 255.9 256.4 255.6 254.6 252.6 250.6 247.6 244.7 241.3 237.6 231.9 227 221.7 211.2 210.2 208.3 207.6 213.5 214.5 212.7 203.4 199.7 199 201.2 202.5 203.5 205.6 209.7 213.3 216.8 222.1 226 228.9 232.6 238 243.6 250.8 259.8 265.1 266.5 270.7 273.7 275 278.5 281.4 287.8 293.6 300.1 309.8 319.3 325.5 332 335.5 339.2 342.4 346.6 350.9 353.5 355.5 357.4 358.5 359.4 358.6 357.8 353.1 347 340 334.2 329 324.9 321.2 318.1 315.4 314.4 313.7 312.6 312.8 312.6 313.6 314.8 316.1 317.8 321.1 322.8 325.8 327.9 330.6 331.1 330 327.6 323.3 317 308.7 299 290.3 283.9 277.8 274.7 271 267.9 265.4 263.2 259.4 260.4 258.8 257.6 254.9 252 249.4 244.7 243.5 242.2 240.7 240.4 241.7 241.7 244.2 249.1 253.4 254.9 259.9 262.3 267 271.1
242.4 244.8 246.5 248.6 251.4 254.8 257.8 260.2 262.9 264.4 266 266.9 267 266.6 265.4 263.5 260 254.9 249 244.9 242.1 237.7 235.5 233.7 231.8 228.7 230.7 234 238.3 241.4 244.2 247.2 249 249.4 248.6 246.8 243.1 238.7 234.5 229.5 223.9 220.1 218 215.3 211.9 207.5 202.5 198.3 195.5 192.9 190 188.4 185.3 181.6 185.9 187.8 189.5 193.2 196.5 199.6 202.3 205.4 208.6 212.1 215.9 219.6 223.2 226.8 230.6 234 237.6 241.7 245.8 249.7 253.8 257.3 259 259.4 258.5 257.1 255.7 254.3 251.9 247.5 243.9 239.9 234.8 229.6 220.8 215.7 214.4 213.3 213.5 215.3 215.4 214.1 209.7 203.7 200.7 203.1 204.6 206.1 208 211 213.8 217.7 221.3 225.3 229 232.9 238.5 245.7 253.9 261.6 266.3 269.1 273 276 279 282.2 286 289.9 296 302.4 310.4 321.2 327.3 333 337.5 341.6 346 350.3 353.5 356.6 358.7 360.4 361.2 361.7 360.8 357.7 353.3 347.7 341.3 336.5 331.6 327.7 325 321.2 318.9 319.5 318.8 317.5 318.1 319.3 320.5 322.7 325.5 326.4 329.5 332.7 334.6 336.2 337.8 338.2 337.2 334.9 329.4 323 315.6 307.5 299.3 291.5 285.3 282 279.5 276.7 274.3 271.6 268.8 267.8 265.6 262.7 259.8 256.6 253.6 249.4 249.4 246.6 246.4 247 248.6 250.5 254.3 260.5 266.2 270.6 274.2 279.2 283.2 285.3
240.3 242.8 246.1 249.3 252 254.9 257.9 260.9 263.3 265.6 268.4 269.7 270.9 270.5 269.8 268.9 265.4 260.7 256.8 252.9 250.8 249 247 245.2 243.6 242.2 243 244.5 246.8 249 251.5 254 256.1 257 256.1 254.6 251.6 247.5 242.4 237.2 231.4 227.3 223.2 219.6 216.5 211.9 206.9 202.8 200.4 196.4 193.7 191.1 188.7 186.3 184.1 189.7 191.6 193.5 196.4 198.9 202 204.6 207.8 211.5 215.2 218.8 222.4 226.1 230.1 234.7 238.7 243.4 247.7 251.8 255.5 258.6 260.4 260.6 259.7 258.6 257.5 256 252.6 249 244.9 240.6 235.5 229.7 222.5 220.5 219 215.9 216.3 216.8 216.9 215.5 211.8 206.8 203.1 204.6 206.1 207.8 209.6 211.9 215.2 218.4 222.2 226 230.5 234.4 239 247.9 255.9 262.3 268.2 273.8 277.2 278.6 281.8 286.6 290.2 294.3 298.5 305.5 313.1 322.7 329.5 335.7 340.6 344.8 349.4 353.6 356.9 360 361.7 363.4 364 363.8 362.2 358.8 354.2 348.8 343 338.7 334 330.8 327.5 325.3 323.4 324.2 323.5 324.7 325.4 327.9 330 332.7 333.9 335.4 338.9 340.8 343.9 346.9 347.3 348 346.8 344.4 339 332.7 325.3 315.9 307 300.7 296.1 291.8 289.3 285.5 282 277.2 275.5 273.7 270.9 268 264.8 261.3 257.6 256 253.1 252 252.2 254.3 255.7 260.8 266.4 272.8 279.9 286.1 290.4 295.4 297.3 301.3
236.9 239.2 242.9 247.2 251.9 256.4 260.3 263.2 265.5 267.9 270.9 272.4 273.9 274.6 275.1 274 270.9 265.7 263.1 262 260.7 260.1 258.4 257.2 255.7 254.8 254.7 254.3 255.5 257.5 259.6 261.6 263.1 263.9 263.8 262.8 259.9 255.5 250.4 245.2 240 234.6 230 225.3 220 215.5 209.9 205.5 202.3 199.4 195.4 193.9 192.8 188.3 188.4 187.7 191.4 194.6 196.6 198.6 201.3 204.6 206.8 210.4 214.1 217.9 221.5 226 230.1 234.4 239.7 244.4 248.7 253.1 256.9 259.6 261.3 261.6 260.6 259.4 257.8 255.9 253.5 250 245.8 241.3 236.2 229.7 227.2 225.8 224 220.4 219.2 218.8 218.3 216.7 214.1 209.7 207.2 204 206.1 207.9 209.8 212.2 216.1 219.6 222.8 226.6 231 235.9 241.1 249.1 258.1 264 271.1 276.8 279.6 281.9 286.4 290.2 294.2 298.4 303.4 309.1 315.9 324.2 331.8 337.7 344.7 349.1 353.8 357.2 360.5 363.7 365.3 366.5 366.8 365.8 362.8 359.6 355.2 350.6 344.8 340.6 335.8 333 332.1 330.1 328.2 329.2 329.5 330.9 333.5 336.9 338.3 341.1 344.6 345.6 348.7 351.8 353.9 356.6 358.4 360.5 358.3 354.5 348.8 342.5 333.7 325.1 317.5 311.3 307 302.7 297.3 292.8 288.6 283.5 282.4 280 277 273.8 270.1 266.8 263.9 261.1 258.9 259.3 260 261.1 265.2 271.9 278.1 286 293.9 299.8 305.2 308.9 312.1 315.9
237 239.5 242.9 246.6 252.1 257 261.6 265.8 268.4 271.6 274.3 276.9 279.2 280.5 282.1 280.8 276.6 272.5 271 271.9 272.4 271.1 269.8 267.6 266.7 265.5 265.3 264.9 265.9 267.6 268.8 270.1 271.1 271.8 271.3 269.7 267 263.3 258.2 252.5 247.1 241 234.3 228.5 222.8 217.5 212.5 207.9 204.5 201.1 198.8 196.8 194.8 194 192.8 192 192.1 194 196.9 199 201.1 204.1 205.2 208.8 212.7 216.3 220.9 225 229.1 234.3 240.1 245.1 249.7 253.7 257.1 259.9 261.6 261.8 260.4 258.7 257.1 255.2 253 250.1 246.2 242.4 238 235.1 234.1 232.3 228.2 225.9 223.9 223.3 221.6 219.7 216.6 212.9 209.9 207.2 208.1 210.3 213.2 214.6 217.4 220.8 223.5 227.9 232.1 236.7 242.8 250.3 259.8 267.3 273.8 278.6 281.2 285.3 290.2 294.9 299.3 304.1 309.2 314.6 320.3 328.1 334.7 342.5 349.7 355.1 359.3 363.3 367.5 369.8 370 369.8 368.8 367.1 364.9 360.9 356.9 351.2 346.8 342.8 339.2 336.9 336 334.8 333.3 335.9 337 338.4 341.2 344.3 347.5 350.6 353 356.2 359.1 361.7 363.8 366.4 368.9 371.7 372.3 369.5 362.2 354 346.6 338 329.6 322.2 315.1 309.4 303.8 299.1 294.2 291.8 289.8 287.4 284.7 282.6 278.3 274.2 271 268.8 267 267.4 268 270.1 274.6 278.2 290.9 297.6 305.1 312.1 317.7 322.8 326.2 328.7
240.4 244.4 247.3 248.7 253.5 257.2 262.5 267.3 271.4 275.2 280 283.2 286.3 288.3 288.2 286.3 284.3 281.8 280.9 282.7 283 281.9 280 279.2 277.7 276.4 275.9 275.7 276.3 277.3 278.4 279.3 279.8 279.4 278.6 276.4 273.5 269.2 264.4 259.3 252.8 245.7 237.7 230 223.8 218.8 214 208.9 205.5 204 201.1 199.4 196.5 196.2 194.7 194.2 192.9 194.3 196.7 198.4 200.2 202 204.8 208.5 211.1 215.7 219.6 223.6 227.9 233.4 239.7 244.6 249 252.8 256.1 258.7 260.3 260.5 259.4 257.7 256.2 254.4 252.8 250.7 246.5 244.1 242.5 241.2 239.9 237.4 233.5 231.6 229.6 227.5 225.3 223.3 220.2 216.5 214.5 213.1 208.7 211.2 213.4 216.1 219.3 222.7 226.1 229.6 233.4 238.7 244.9 251.9 261.7 269.8 275.3 279.2 283.9 289.1 294.4 299.7 304.3 309.1 314.9 320 325.8 332.6 339.4 347.2 354.1 360.2 365.5 368.8 372.4 373.9 373.9 373.4 372 369.9 367 362.4 357 351.5 347.9 344.8 342.2 340.4 340.7 340.1 337.9 341.8 343.4 345.8 349.5 353 357.1 359.9 362.7 366.3 369.9 372.2 375.1 377.1 379.4 379.4 378.6 376.7 372 364.2 354.6 346.5 338.3 328.8 321.1 314.8 309.6 305.3 300.2 299.8 298.6 297 294.8 291.6 287.2 282.5 279.2 277.2 275.7 277 278.7 282.3 287.1 291.9 302.1 309.1 317 324.1 329.5 334.9 338.3 342.3
242.5 247.3 251 254.2 256.7 260.4 264.3 269.4 275.3 280.6 285.7 289.5 292.1 294.6 294.6 293.4 292.6 291.8 291.7 292.3 292.8 292.1 290.8 289.6 287.9 286.8 285.8 285.8 286.8 287.7 288 288 287.7 286.7 285 282.2 278.6 274.5 268.9 264 257.5 248.6 239.7 231.7 224.9 218.8 215.6 211.9 208.4 205.8 203.2 200.4 199.4 198.1 196.7 195.7 194.8 194.8 196.7 198.5 199.9 201.6 203.6 207.4 210.1 213.9 218 222.2 226.3 231.7 238.4 243.7 247.5 251.2 254.6 257.1 258.7 259.2 258.4 256.8 255.2 254.1 252.7 251 249.5 248.2 246.6 246.9 245 242.4 241.1 238.4 236.4 234.4 231.3 229 226.5 222.8 221.1 221 219.7 213.7 214.3 217 220 222.9 226.9 230.6 234.7 240.9 247.3 254 262.4 270.4 276.6 281.5 286.1 291.9 299 305.8 311.2 316.1 320.7 326.1 331.5 338.4 345.4 353 359.5 366.2 371.5 374.7 377.6 379 378.9 378.1 376 373 369.3 364.2 358.9 354.7 351.8 349.3 346.6 345.6 345 345.3 345 346.5 348.8 353 357.5 362.3 365.4 369.2 372 376.3 379.7 382.2 385.1 387.3 386.7 387.1 384.5 381.2 376.8 369.2 360.8 352.1 344.3 335.7 327.6 320.7 314.9 310.8 308.1 308 308.1 307.5 305.6 302.7 299.3 294.1 289.6 286.3 285.2 288.2 292.2 296.4 301.6 306.1 311.5 321.1 328.6 335.1 340.9 347.6 351.6 356
244.8 249.3 253.2 256.7 260.1 263.5 268.1 273 279.2 284.4 290.1 293.8 297.8 299.3 300.3 300.7 300.3 300 300.3 301.4 301.7 301.7 300.8 298.9 296.9 295.7 295.2 295.4 295.7 296 296 296.2 295 293.2 290.4 287 282.3 277.5 272.1 266.1 258.8 250.3 241.6 232.5 226.9 221.2 217 213.3 210.8 207.4 204.7 202.5 201.9 200.6 199.4 198.2 197.5 195.3 197.4 198.5 200.4 201.8 203.3 206 209.2 212.6 216.6 220.1 224.5 229.9 236.1 241.6 245.3 248.9 251.6 254.5 256.3 257.1 256.4 255.1 254.2 253.5 253.2 252.6 252.6 251.3 251.7 251.7 250.9 248.8 247.4 245.4 243.5 242.2 239.4 234.8 231.3 229.5 227.1 227.3 226.8 224.8 216.7 218.2 220.6 223.3 226.7 232.2 237.8 244 250.6 256.4 264.8 272.2 278.2 284.1 289.5 296.5 304 311.6 318.2 321.6 325.6 331.9 337.1 344.4 352.1 359.1 366.5 372.5 377.5 381.1 383.3 385.3 385.6 383.8 381.4 378 374.1 369.5 365.2 362.6 359.3 355.4 352.5 351.7 351.1 350.7 348.8 351.1 355.2 358.9 364.8 369.7 373.3 377 380.5 385.3 390 392.5 393.9 394.2 396 393.2 389.4 385 379 371.9 364.4 356.8 347.8 339.9 332.7 325 320.2 314.6 318.1 318.8 319.4 319.5 317.9 315 311.2 305.6 300.4 298 299.2 301.8 308.4 312.3 318.1 321.4 321.3 332.4 337.8 346.2 353.3 360.2 365.7 370.2
248 252.4 255.8 259.3 262.7 266.1 270.9 275.5 282.1 287.1 293.9 298.6 301.8 304 306.3 307.6 308.1 308.5 308.5 309.3 309.9 310.4 309.7 308.6 307 305.6 304.2 303.3 303.3 303.3 302.6 301.6 300.3 297.6 294.6 290.7 285.4 279.5 273.6 267.2 260.3 252.1 242.9 234.4 228.3 222.4 218.2 215 212.3 209.6 206.8 206.3 205.3 204.5 203 201 199.7 198.9 197.3 199.7 201.5 201.7 202.9 205.4 207.4 211.1 214.5 217.9 222.1 226.3 231.7 238 242 244.5 247.8 250.2 251.7 252.4 252.2 252 252.3 253.2 253.8 254.2 254.9 255.2 255.1 255.2 255.1 254.9 253.9 251.4 250 248.9 246.5 242.6 238.5 234.3 232.3 232.3 231.3 229.3 221.6 218.6 221.5 224.9 229.5 234.7 241.2 249.1 254.5 259.5 267.4 274.1 281.1 286.2 292.2 300.6 309.6 317.9 323.6 327.8 332 336.2 342.8 350 357.6 365.4 372.3 378.8 384 387.4 391.6 392.8 391.7 389.7 387.2 383.5 379.9 376.6 373.7 369.7 367.2 363.6 358.9 356.7 355.6 355.5 355.2 357.8 360.4 364.7 370.4 374.3 379.3 384.3 388.3 393.2 397.8 401.7 404.4 404.7 403.4 400.6 397.4 391 383.2 376.1 369.1 360.6 352.2 344.4 336.9 330.4 323.9 326.8 328.5 331 331.4 332 329.9 328.9 325.6 322.8 316 313.6 315.4 319.2 323.8 328.4 333.9 336.2 339.5 343.4 350.8 357.7 365.3 372.7 380.6 385.8
252.7 255.8 258.6 261.3 265.1 268.6 272.6 278.2 283.6 289.9 296.3 301.7 305.1 308.3 311.3 313.5 315.6 316.3 315.4 315.9 316.6 317.4 317.2 315.3 313.2 311.9 310.2 309.3 308.8 308 307.1 305.4 303.1 300.8 297.1 292.6 286.9 280.7 274 267.7 260.8 252.4 243.6 235.3 230 224 221.3 218.5 215.4 212.9 212.1 211.3 210.3 208.7 207.2 205 203.6 201.9 201.5 199.5 201.4 201.8 202.7 204.9 207.8 210.3 213.2 216 220 222.3 227.8 230.9 235.1 238 240.5 243.7 245.8 247.4 247.7 248.6 250.5 253.3 255.1 256.5 257.6 258.5 259.4 259.6 260.1 261.2 260.4 258.5 256.7 255.2 253.5 249.4 244.8 239.1 236.7 235.4 233.1 230.2 225.1 222.7 222.1 226.7 231.7 237.2 243.5 252.4 258.7 264.7 269.7 276.5 281.5 287.9 296.3 305.9 314.9 322.4 327.7 333 338.9 343.1 349.3 355 363.6 372.1 380.7 387.6 392.9 397.6 400.1 399.9 399.3 397.2 394 391.4 388.8 386.1 382.9 378.1 372.4 369.7 367.6 365 363.1 361.7 360.9 362.7 366.6 370.7 375.1 380.6 385.5 389.8 394 398.7 404 408 411 411.5 409.5 407.1 403.2 396.7 388.5 381.2 374.3 366.5 357.3 347.5 339.5 334.1 333.3 336.8 339.9 342.2 344.3 344.8 345 343.3 340 336.9 333.6 330.6 332.7 337.2 341.3 346.3 350.8 353.5 353.4 354.5 359.8 368.5 375.4 384.1 393.3 399.9
