ncols 200
nrows 82
xllcorner 280000
yllcorner 630100
cellsize 50
281.5 280.7 280.6 280.1 278.9 277.1 275.2 275.4 273.7 271.1 269.9 267.9 266.7 264.3 262 262.8 249.3 256.3 256.4 258.2 257.4 259.7 264.9 264.5 263 262.9 263.2 262.9 262.6 262.6 263 262.8 262.3 262.8 262.5 262.5 262.5 262.1 261.7 262.6 265.5 267.1 267.2 266.9 267.2 264.3 260.9 257.2 252.2 248 243.8 239.5 236.8 232.9 229.7 227.6 224.5 220.1 217.6 216.6 213.7 212.8 213 213.4 211.8 207.3 207.2 202.2 204.9 209.6 212.8 211 212 211 212.5 216.4 215.9 214.3 211.4 209.6 211.4 211 209.8 209.8 208.8 213.6 206.6 206.6 209.6 211.2 212.6 217.5 212.6 213.4 211.6 211 208.8 205.2 205.5 203.1 202.2 201 203 203.8 203.9 203.9 204 203.1 202.5 203.8 205.3 208.6 208.7 208.5 209.8 207.4 206.5 207.5 206.1 203.7 204.2 200 195.3 194.4 189.7 181.4 181.3 180.9 182.3 184.5 186.9 193.7 201.3 202 207.9 212.4 218.3 220.1 221.8 227.6 228.6 230.9 235.3 240.3 245.4 250.8 254.7 258.6 261.6 264.5 268.6 273.6 274.7 272.7 270.7 268.3 266.8 265.7 268.6 273.2 274.4 274.5 274.2 272.6 270.1 273.2 276.3 277.5 278.7 279.1 275.6 282 284.9 288.4 291.3 293.8 296.3 301.2 305.9 309.7 314.4 319.1 323.3 327.2 329.6 332.3 333.6 333.8 331.5 330.3 329.4 327.1 331.9 331.7 336.5 341.6 344 343 340.6 338.8
281.3 280.8 281.6 280.9 278.6 276.6 274.3 274.8 272.1 271 267.6 262.5 265.2 261.4 256.6 256.6 262.9 259.7 259.5 260.2 260.6 263.5 266 266.9 266.4 265.7 265 264.5 264.7 264.4 264.4 264.6 263.6 263.2 263.2 263.2 263.2 262.9 262.9 263.6 266.4 268.2 267.1 266.3 265.3 263.5 261.6 257.4 252.3 247.6 244.1 240.7 237.9 234.6 230.8 228.5 224.3 221.1 217.3 216.3 215.4 214.8 214.6 215.3 212.6 207.7 202.9 208.8 209.8 211 212 211.5 213.2 216.5 216.3 214.5 213.7 212.9 212.3 212.1 212.7 212.7 214.2 213.3 213.3 212.7 212.6 211.4 211.3 211.2 211.9 214.8 216.2 216.6 214 211.2 209 204.8 206.2 203.9 202.2 201 202.8 204 204.1 204 204.1 204.2 203.6 203.4 204.7 208.2 209.7 208.7 208.3 207.4 206.2 205.8 203.4 199.8 197.8 196.7 194.6 196.9 185 180.8 181.8 182.1 183.4 185.5 187.7 193.2 195.4 198 201.2 205.6 213.6 217.4 220.4 224.3 226.7 230.8 235.3 240.4 246.1 251.8 256.4 259.2 261.6 265.5 268.4 273.3 273 271.1 270.1 269.3 269 268.9 271.7 276 277 277.4 276.4 274.6 271.5 273.9 277.9 279.3 280.3 281.3 276.1 281.3 283 286.4 291 296.6 299.3 304.6 308.3 311.9 316.6 323.2 329.1 333.2 335.5 337 337.7 336.8 335.4 332.4 332.1 331 330.2 331.6 334.6 338.5 338.7 339 337.8 339.6
280.5 280.4 281.3 280.9 278.8 272.8 267.1 267.1 270.2 267.2 262.7 257.6 258.4 258.1 258.6 265.5 265.1 265.2 263.9 262 262.4 264 266.9 269.3 270.1 267.8 266.5 266.9 267.3 266.9 266 266.1 264.7 264.2 264 263.9 263.8 263.8 263.8 264.5 266.9 268.5 266.8 265.6 265.1 263.9 261 257.6 252.4 248.6 244.7 241.9 238.9 235.1 232.8 228.9 224.6 221.7 217.9 216.2 215.6 215.5 214.8 214.8 213.7 203.5 211.7 213 212.5 213 215.4 219.7 223.7 218.2 215.9 215.9 216 215.3 215.4 215.6 215.7 214 213.4 213 212.5 212.8 212.7 211.6 211.6 212 214.7 215.6 217.7 218.1 217.5 211.6 209.6 208.5 205 204.6 203 202.2 203.2 204.1 204.5 204.5 204.7 204.9 204.4 204.4 205.3 207.5 208.6 209.4 209 207.1 206.9 205.2 201.6 198.1 192.7 194.6 191.4 191.9 181.9 181.8 182.4 182.8 184 185.8 187.4 201.4 204 205.4 209.4 212.3 211 211.4 217 221.2 224.6 230.8 236.1 241.9 247.7 254 258.8 262.5 265.2 266.7 269 270.8 269.9 269.8 270.6 271.6 271.9 271.7 274.7 278.3 279.8 279.7 278.7 275.9 272.4 276.1 279.4 281.4 282.3 283 280.8 278.7 283.1 284.4 289.5 296.2 301.1 306 309.9 314.2 320.2 327.4 333.5 336.9 340 340.7 341 340 336.1 333.4 331.8 331.9 328.9 330 331.1 333.4 335.6 335.7 335.6 339.5
280.3 280.2 280.3 280.1 270.5 261.9 259.4 259.9 263.2 259.8 257.6 257.9 260.4 259.4 263.1 269 271 270.6 267.9 267.8 264.3 265.7 269.5 271.8 271.9 270.3 269.2 269.3 269.5 269.5 269 267.7 266.3 265.5 264.9 264.6 264.5 264.5 264.5 264.8 266.1 267.7 266.2 265.4 263.9 260.7 258.8 256 251.3 249.1 245.3 242.8 239.1 235.7 233.1 229.1 225.5 219.5 216.8 215.5 211.7 209 208.9 209.6 204.5 204.4 207.9 212.5 212.9 219.2 223.6 231 236.6 223 218.4 218.8 219.3 216.5 216.5 216.2 217.6 214.4 214.4 214.5 215.4 215.8 215.8 215.8 215.1 214.8 214.5 216.8 218.9 219.1 218.2 213.4 210.6 208.8 204.7 204.7 204.9 203.3 203.9 204.2 204.9 205.1 205.2 205.1 205.3 206.1 206.5 208 208.5 208.2 208.5 209 209.4 205.5 199.9 197.5 193.2 189.7 186.1 181.3 181.6 182.2 182.6 183.6 184.8 186.8 189.8 190.1 189.8 199.3 212.1 215.4 217.5 217.7 218.5 221.4 224.9 231.3 237.4 243.9 250.2 256.6 261.6 264.8 267.3 268.3 269.1 269.5 270.1 270.8 272.4 273.8 274.7 273.4 275.8 281 282.3 281.9 280.2 276.7 274.1 279.3 281.5 283.5 284.1 285.6 283 279.6 280.1 285.2 287 294.4 299.9 306 309.9 316.5 323.4 330.6 337.9 343.1 345 344.2 340.9 338.1 334.5 331.7 329.9 327 327.5 327.6 328.3 328.9 329.9 332.9 335.5 337.9
282.2 279.5 278.8 274.2 262.4 257.8 258.2 257.6 258.8 257.6 257.6 262.5 262.7 263.5 266.8 273.1 277.4 275.9 270.2 268.7 268.1 267.9 269.7 271.3 273 274.3 272.4 272.2 272 271.6 270.9 269.2 267.2 266.3 265.7 265.1 264.9 264.6 264.2 263.9 265.5 266.2 265.8 265.4 263.6 260.6 257.3 254.4 252.7 249.6 246.3 242.8 239.8 236.7 233.4 227.6 223.8 217.7 216.6 213.7 208.2 209.1 207.9 206.4 204.9 204.8 210.1 215.5 219 224.9 229.3 239.3 236.2 224 220.3 219.7 220.2 217.6 217.7 217.8 219.5 214.6 214.9 214.6 216.5 216.5 216.5 218.4 218.2 218.1 218.2 218.7 219 218.9 215.1 214.1 211.5 209.9 207.9 204.2 204.5 205.2 205.1 204.6 205.1 206.1 205.7 205.6 205.7 205.9 207.1 208.9 208.5 209.3 209.9 211.2 211.3 208.5 204.8 199.1 195.8 191.3 181.3 180.8 182.2 183 183.2 183.7 184.5 186.9 204.2 209.9 211.7 205.4 199.8 216.9 218.8 220.4 221.8 223.5 227.2 232.3 238.2 246.6 252.9 259 263.4 266.4 268.6 270.1 270.7 271.6 272.3 273 274.6 276 276.8 275.5 278.2 283.1 284.3 283.7 281.9 277.7 276.7 281.4 284 286.1 285.1 286.6 284.8 284.2 284.3 284.3 288 293.3 299 304.1 309.1 316.9 325.9 334.1 342 346.3 345.9 343.2 339.8 336.2 332.5 329.9 327.6 325.5 325.6 324.4 325.9 327.9 330.4 333.1 336.8 342.2
282 281.2 280.1 271.9 257.6 257.6 258.4 257.6 257.6 258.2 259.6 263.9 265.4 269.1 271.4 275.8 279 276.4 271.7 269.1 268.7 269.7 269.5 271.1 272.8 274.8 273.6 272.9 272.1 271.5 269.5 267.1 264.5 263.3 264 264.4 264.7 264.8 264.4 264 264.5 264.9 265.6 265.4 262.2 260.1 256.8 255.4 253.8 250.5 246.9 242.8 239 236.2 231.5 225 218.6 215.3 215 210.5 208.4 207.5 206.4 204.8 204.8 207.4 213.1 219.6 221.8 227.8 229.9 241.8 239.2 226.1 221.1 220.7 221.2 220.3 220.4 220.6 222.2 222.3 222.6 221.3 220.2 219 218.7 218.5 218.4 218.4 219.5 220 220.7 221.6 217.4 214.7 212.9 210.2 208.3 203.4 205.3 206.5 205.6 204.4 206.9 207.3 207.8 206.3 206.9 206 207.5 209 209.7 209.8 209.9 212.5 213.8 211.4 207.3 199.3 195 189.4 181.2 181 182 182.3 182.2 182.7 183.7 186.9 202.6 211.2 214 215.4 197.7 216.3 219.4 221.8 224.9 225.7 229.5 235 239.8 248.8 255.5 260.7 265.1 268.4 271 271.8 272.6 273.7 274.4 275.6 277.3 279.4 278.6 278.6 281.5 284.9 285.7 285 282.8 278.5 277.2 281.9 285.9 287.2 286 286 286.1 286.6 287.6 291.1 284.5 290.9 297.1 302.6 308.6 317.5 325.7 335.6 342.4 345.5 342.5 339.1 334.8 332.8 330 325.6 324.1 323 322.2 322.9 324.7 327.2 330.9 334.3 340.3 343.7
282.7 282 281 272.3 257.6 257.6 257.6 258.6 259.9 265.3 267 267.2 268.7 269.5 273.6 275 276.7 275.9 272.5 272.4 270.6 268 269 272.3 273.4 274.9 272.9 271.2 268.9 268.4 267.6 264.7 261.6 260.6 261.3 261.6 261.7 261.5 263 262.1 264.7 264.3 263.8 262.9 261.4 259.9 257.6 256.3 253.3 247.8 240.5 234.9 232.9 230.2 224.4 218.8 216.7 215.8 215.4 215.6 213.1 210.8 208.6 205.8 205.7 213.2 219.9 223.3 226.1 230.6 232.8 243.2 240 228.9 222.3 222 222.2 221.3 221.2 221.1 223.8 222.1 222.3 222.4 222.3 222.4 222.2 221.8 220.7 220.7 220.5 221.8 222.3 220.7 218.8 215.1 212.6 210.6 207.9 205.8 202.9 206 206.8 206.9 207.6 207 208 207.3 206.9 206.2 207.5 209.1 208.8 208.4 209.2 210.9 212.5 212.2 209.3 201 192.7 183.8 181.5 181.6 181.9 182.4 181.8 182.1 184.1 191.8 202.9 212.4 216.5 219.8 221.1 215.2 220.9 222.4 224.5 228 233.6 237 242.9 250.1 257.9 262.3 266.5 270.3 273 273.5 274.7 275.8 276.8 278.3 280.6 281.2 280.2 281.2 283.3 285.9 286.9 285.9 283.3 280.1 279 282.5 286.8 288.3 287.8 287.6 287.9 289.3 290.5 291.3 287.5 288.5 294.9 301.4 309.6 319.4 326.1 333 338.6 338.5 336.7 333.8 329.2 328 325.5 322.2 320.6 320.5 321.9 323.2 324.5 327 333.3 338.2 343.8 346.3
284.6 283.2 281.3 275.9 262.7 260 260.7 264.9 272.6 275.4 275.3 276.5 277.9 277.7 276.2 274.7 275.2 276.3 275.8 275 269.7 267.6 266.7 269.6 273.6 275 270.5 267.9 265.8 266 266 262.4 259 258.1 258.1 258.5 258.5 258.3 257.7 257.8 261.4 261.2 257.6 256.9 255.9 257.8 255.4 250.9 245.5 245.7 245.5 240.3 226.3 219.1 217.8 217.1 217.5 217.9 218.1 217.5 216.2 208.7 206.5 206.6 210.4 218.8 225.2 223.8 228.2 234 234.6 243 243 231.3 225.4 224.7 225 223.1 223.1 223.1 224.9 224.1 224.1 224.1 224.4 221.9 221.8 221.6 223.4 225.5 225 222.7 222.5 222.2 218.1 213.3 212.3 211.3 208.8 206.8 202.2 205.3 206.3 207 207.3 207.2 207.1 207.5 205.7 205 204.9 207.2 209.4 208.4 207.8 208.4 211.3 211 207.7 200.1 192.1 182.7 180.9 182.3 182.5 182.3 183.1 183.7 185.7 192.9 208.7 214.1 218.7 221.7 220.6 214.4 223.8 225 225.3 229.4 234.8 240.1 247.8 254.2 260.8 265.3 269.5 273.3 274.8 275.8 276.9 277.9 279.2 281.2 283 282.8 282.2 283.2 285.2 287.1 287.4 285.9 283 280.8 281 284.1 288.9 289.6 289.5 289.8 290.7 292.2 292.7 292.8 292 287.5 292.4 300.5 309 317.5 323.3 328.2 331.2 331.4 330.3 326.6 324.4 323.7 321.9 317.2 318.7 320.6 322.6 324.2 325.4 327.2 337.5 344.2 346.9 348.8
285.5 283.5 283 280.5 273.4 269 268.1 272.3 277.8 281 281.2 282.1 282.5 284.8 282.8 278 280.6 281.9 281.7 278.2 269.5 264 264.8 265.7 269.9 269.3 267.3 265.1 264 264.1 263.7 261.9 258.8 256.9 255.7 254.8 254.9 253 251.8 250.3 247.2 247.6 255.6 255.6 253.4 252.8 249.8 248.1 246.5 246.8 243.8 240.8 231.3 220.2 218.2 217 218.7 218.6 217.1 214.7 207.4 206.9 205.8 207 216.1 222.2 223.4 227.2 228.8 236.2 238.3 240.7 239.4 237.1 229 226.7 228 230.2 231.6 231.8 227.8 231.3 230.2 228.9 227.8 228.6 225.2 225.3 223.9 223.8 223.8 223.8 223.6 222.2 213.5 207.1 204.5 206.5 209.5 208.8 208.9 202.5 207.1 207 207.1 207.4 207.1 205.5 204.4 204.1 204 205.9 207.3 206.5 206.2 207.2 208.6 207.9 202.8 196.4 193.3 182.5 180.3 182.8 182.6 182.3 182.1 184.1 187.8 195.9 210.9 216 221.4 223.3 224.2 214.1 226.8 228.3 228.5 233.2 236.5 242.6 250.5 257.3 263.9 267.1 272.1 275.9 276.9 278.1 279.3 279.8 280.9 283.8 284.8 283.8 283.7 284.7 286.2 287.7 287.7 285.8 283 281.3 282.9 285.9 289.8 290.7 289.9 291.8 293.5 295.1 295.6 295.3 294.8 294.3 288.8 298.9 306.2 314 320 324.6 324.9 325.3 323 320.5 319.6 318.1 317 316.9 320.4 321.6 324.2 325.3 326.3 331 340.1 345.3 348.9 350.6
286.3 284.3 284.7 284.2 282 281.8 280.2 281.9 285.1 285.1 286 288.9 288.4 287.1 286.4 285.2 285.2 284.5 285.4 279.6 269.9 261.7 263 263 263.6 266.1 265 263.3 262.3 261.5 260.6 260.2 258.2 256.1 253.7 251.7 250.7 248.7 245.8 240 237.7 235.6 238.8 243.7 245.5 245.7 244.8 250.8 248.2 242.3 235.7 229.6 222 219 221.1 220.2 218.5 219.1 216.9 211.6 207.9 207.2 207.1 211.6 219.2 225.9 224.8 228.7 231.8 238 238.9 240.6 238.2 237.3 235 235.6 234.6 228.7 229.1 229.2 229.4 227.9 228 227.9 227.9 225.3 225.3 225.3 226.5 224.1 226.9 226.9 223.1 219.8 210.3 202.9 201.2 201.4 202 206.4 209 205.5 204.2 207.4 206.8 205.6 205.2 204.9 203.7 205 203.6 205 205.7 204.9 204.1 205.8 205.8 197.6 195.1 192.8 186.3 182.5 182 182.8 182.6 182.4 182.2 182.9 189 200.9 211.5 214.7 223.7 225.5 226.2 213.1 227.3 231 230.8 237 239.7 245.9 251.9 259.6 265.2 269.2 274.6 278.2 279.2 280.5 281.2 281.5 283.2 285.7 285.8 284.5 284 285.3 286.9 287.4 287.1 285.1 283.4 282.9 284 287.7 290.4 290.4 290.4 293.8 296.4 298 298.2 297.7 297.2 295 290 295.9 302.6 307.8 315.8 318.8 317.8 318.4 315.8 313.6 313 312.5 313.5 317.1 321.9 322.8 324.5 326.1 326.5 334.2 341.9 347 347.4 347.2
283.5 285.4 286 286.4 286.1 286.5 288.1 289.1 288.4 289 290.6 290.9 296.4 296.5 290.1 286.3 285 284.4 283.7 277.4 263.5 255.7 265.1 261.1 260.8 261.8 262.7 262.1 260.2 259.5 258.4 258.1 256 252.7 250.2 247.4 245.8 244.2 237.7 233.1 224.6 226.7 224.2 221.8 219.1 222 222.3 230 239.7 240.8 230.8 221 220.3 220.7 220.6 220.6 221.2 218.7 218.1 214.8 209.2 207.1 208.2 214.1 221.1 225.9 228.2 232.3 236.4 239.6 240.4 238.1 238.2 236 235.1 234.7 234.4 232.4 232.2 232.3 231.8 231.5 231.3 231 229.6 228.3 228.7 228.8 229.8 230.6 229.1 229.5 225.1 219.9 212.1 204.6 201 199.4 199.1 202.5 207.7 209 200.6 207.6 206.4 205.6 203.3 204 203.3 203.6 203.7 202.3 203.1 203.5 202.3 201.8 198.3 192.6 191 185.7 183 182.8 182.9 182.5 182.4 182.3 182.3 186.9 188.6 199.7 206.6 211.8 223 226.4 228.2 228.8 216.1 229.7 233.4 240.6 244.4 247.1 253.4 261.2 266.7 271.8 276 279.3 281.7 282.7 282.4 282.8 285 286.4 284.9 285 284.2 285.8 286.9 287.5 286.2 284.9 283.2 283.2 284.7 288.5 291.6 290.5 290.9 295.8 299.1 300.6 301 300.5 299.3 296.2 293.6 291.7 298.2 302 309 309.1 309.3 309.1 309.9 310.5 310.9 312.2 313.1 317.4 322.4 324 325.5 326.3 326.7 334.2 340.8 347 346.5 344.2
283.5 287.1 287.4 287.7 287.7 287.2 287.7 290.2 289.8 288.7 291.7 294.2 296.8 296.3 295.1 288.9 285.4 284.1 282.6 276.7 264.5 251.7 262.9 260.7 257.4 247.4 245.4 251.5 257.4 256.3 255.1 255.1 254.1 252.4 249.6 248.1 244.3 239.8 227 233.3 233 231.1 230.6 230.4 230.1 228 225 219.8 226.5 223.9 223.9 225.5 227.5 222.6 221 221.9 221.1 219.8 218.1 215.2 209.9 206.6 209.6 215.4 224.7 228.7 231.5 235.1 237.6 241.3 241.6 242.5 240.5 238.7 237.3 236.3 235.2 236.9 237.1 238.2 236.8 236 235.2 233.8 232.6 231.3 232.3 229.9 228.9 227.6 229 227.3 225.9 221.8 215.7 208.4 202.6 199.8 199 200.2 204.2 209 210 199.1 206.4 205.4 203.1 203.2 203.3 202.2 200.7 200.4 200.7 201.1 199.6 197.5 191.3 190 185.7 182.7 182.9 183 180.5 182.7 182.8 182.6 183 187.6 188.9 193.9 199.9 208.8 221.5 227.5 230.2 231.7 228.6 230.7 234.6 241.8 246.4 249.7 256.1 262.7 269 274 277.7 280.7 282.8 283.8 283.3 284.1 286.5 285.7 284.1 284.2 284.6 285.7 286.9 286.5 285.2 284.3 284 284 285.4 287.3 289 290.2 292.2 297.9 302.2 303 303.5 302.3 300.6 298 295.1 294.1 295.6 297.9 300.2 302.3 304.6 306.3 306.6 309.8 311.4 312.4 313.5 318.8 323.5 325 327.6 327.5 327.3 334.1 341.6 346.2 345.7 341.9
284.4 286.9 288.2 290.1 290.9 291.9 291.7 290.4 290.6 289.1 293.6 295.4 297.4 297.6 296.4 292.9 287 279.5 275.1 270.5 265.5 253.7 254.7 244.1 255.8 244 231.4 233.5 244.8 250.5 252.8 251.2 249.4 248.4 248.1 246.8 242.9 235.4 227.9 233.2 234.1 233.3 233.6 233.9 233.4 231.3 227.9 224.7 219.7 232.8 236.9 235.9 231.7 227.7 221.7 220.3 219.8 218.7 216.1 215.4 208.4 206.3 210.6 217.6 228.2 229.1 231.8 236.3 239.8 243.4 244.8 244.8 246.9 244.1 240.4 239.4 239.8 237.7 239.3 242 239.9 237.2 235.9 235 235.2 234.6 233.8 232.8 230.8 229.6 228.7 227.9 225.1 222.2 219.1 214.4 208.9 204 199.8 198.5 199.9 205.9 210.2 201 201.1 205.2 203.8 200.5 200.1 200.3 201.2 199.6 197.2 197.9 199.2 195.4 189.2 187.3 183.4 182.8 183 183.1 183.2 183.2 183.2 183.3 194.3 197.5 196.6 199.9 206.1 207.6 218.6 227.4 232.8 233.5 232.3 226.1 236.2 243.5 248.3 251.8 259.9 265.4 271.8 275.6 279.2 282 283.7 283.9 283.8 284.8 286.5 284.4 283.6 283.7 284.4 285.5 286.4 286 285.7 285.4 285.1 284.8 286.1 287.5 289.9 291.6 294.2 299.5 304.9 305.9 305.8 304 302.4 299.7 296.4 296.1 296.5 297.9 300.3 301.8 303.8 306.5 309.1 310.7 311.8 313 314.4 320 324.9 327.1 327.2 327.3 327.7 334.9 341.2 345.9 344.7 338.9
285 286.1 286.5 287.5 289 290 291.1 290.2 290.8 289.1 296 297.5 298.3 298.5 295.6 288.9 276.2 267.6 253.2 254.7 254.9 253.8 240.5 236.6 256.1 250.1 242.8 234.7 230 246.4 252.6 252.5 248.5 247.1 243.9 238.3 234.5 227.8 232.7 234.2 234.4 235 235.7 236.1 235.2 233.8 230.6 226.9 224.3 222.6 241.6 239.2 237.5 231.6 225.6 223.1 221 218.4 215.6 215 208.9 209 212.9 218.3 228.2 229.5 231.9 237.4 241.7 246 247.7 248.6 246.9 247.7 244.6 243.4 240.1 238.4 241.7 242.9 240.4 238.8 238 237.1 236.8 237 236.5 235.3 233.8 231.5 230.2 228.6 226.1 224.3 221.6 218.8 215.5 210.3 204.3 198.6 197.7 202.2 207.7 209.4 197.6 204.3 204.2 201 197.6 199.3 199.4 197.1 195.6 195.3 195.8 192.3 195.3 183.3 183 182.9 183.1 183.2 183.1 183.8 185.2 187.3 201.6 205.8 206.3 208.1 209.8 211.9 216.4 227.1 233 234.9 234.7 219.9 237.6 243 249.1 254.7 261.9 267.8 273.5 277.4 280.8 282.8 283.6 283 283.3 285 284.6 283.3 283.2 283.3 284.2 285.3 285.8 286.8 286.8 286.5 286.2 285.9 287 289.9 292 293.4 296.8 302.3 308.7 309 308.2 306.1 303.7 300.4 298.3 298.6 298.8 297.4 302 303.6 304.4 306.5 309.4 311 312.8 313.9 315.8 321.1 325.9 329 330 330 330.1 334.6 342 345 342.4 335.8
284.8 284.9 285 283.5 283.9 284.4 287.5 283.2 280.2 285.3 289.9 295 298 298.3 292.6 279.3 269.2 249.5 236.8 236.2 240.6 237.7 237.2 250.5 257 251.2 249 246.8 230.5 235.4 250.1 249.5 244 241.4 230.9 229.3 226.1 229.3 235.6 236.3 236.9 236.9 237.6 237.5 236.9 235.9 233.6 230.2 226.6 221.1 235.2 233.9 234.6 231.9 228.3 224.3 221.4 218.9 214.8 214.1 208.9 209.4 214.8 219.8 226.7 230.4 233.9 239.2 243.4 247.1 249.7 250.1 250 250.1 250.8 246.3 243.7 241.1 243 243.2 242.3 239.6 239.7 242.6 243.8 242.6 241.1 238.8 237.1 235 232.8 230.8 229.5 227.9 224.7 222 219.5 216.7 210.1 199.8 196.5 198.4 202.9 208.7 207.2 195.1 202.9 202.1 197.3 195.4 196.4 195.7 192.7 191.3 188.5 201 182.9 183.4 183.3 183.2 183.2 183.2 183.2 184.7 186.2 189.3 199.3 208.1 211.3 211.6 212.7 217 217.9 227 233.1 236.9 238 235 231.5 245.7 250.7 257.1 264.2 269.1 275.3 278.8 281 282.2 282.6 282.3 282.4 283.2 282.2 282.3 282.6 282.9 283.7 284.7 285.5 287.1 287.5 287.6 287.4 287.3 288.7 292 293.4 295.4 299.5 304.4 310.9 311.2 308.6 306.9 303 301.1 301.8 301.7 301.9 301.2 301.4 304 305.5 307.7 310.7 312.5 313.7 315 317.6 322.9 327.4 330.9 332 332.5 332.2 335.7 340.8 340.7 337.4 333.2
284.7 283.9 283 281.3 280.8 277.2 283.6 265.3 251.3 255 279.4 283.3 287.3 290.2 286.7 274.2 261.1 243 244.4 255.8 255.2 255.5 256.8 257 258.2 252.3 249.4 246.9 243.1 229.6 230.7 229.1 228.7 227.4 227.5 229.5 227.9 235.3 238.7 239.4 240.2 239.9 239.5 239.5 238.8 237.7 235.6 232.2 228.5 224.6 227.9 227.1 225.9 226.1 226.1 224.6 220.6 216.9 215.1 214.9 210 211.8 216.3 224.8 231.3 233.1 236.2 240.1 244.5 249.3 251.4 253 253 252.8 251.5 245.6 244.1 245.8 246.1 246.8 247.1 248.7 252 255.5 256.8 253.9 248.3 244.4 240.6 238.5 235.5 233.6 231.9 230.5 228.2 224.9 220.9 217.2 212.2 201.5 195.4 196 199.3 208.4 209 200.3 195.6 202.7 200.9 194.2 191.9 190.7 184 184.8 182.6 183.9 183.6 183.7 183.5 183.3 183 183.4 185.8 190 188.4 189.9 194.4 205.3 211.3 214.2 217.6 221 224.4 229 236.8 240 241.3 243.4 237.3 244.7 253.1 259.8 263.7 270.8 275.2 277.9 279.8 280.6 280.7 280.5 280.7 281.2 281.5 281.5 281.6 282.2 283.1 284 286.4 287 287.5 287.7 287.9 288.4 291.1 293.8 295 298.1 302 308 313.7 312.3 310.2 307.4 303.4 305 305.4 305.4 305.2 304.2 303.6 304.7 307.3 310.2 312.8 314.4 314.8 316.8 319.5 324.5 329.5 333.3 334.3 334.4 333.3 335.9 337.8 336.2 334 329.9
287.2 283.1 282.4 279.1 270.8 259.3 256.3 256.5 267.7 249.3 271.6 281.3 278.4 278.6 278.4 271.8 264.1 240.9 252.1 260.6 260 258.6 257.8 256.8 258.6 251.7 245.6 242.5 235 237.4 234.3 234.7 235.5 237.7 237.3 243.1 240 241.5 242.3 242.9 243.2 243.1 242.3 241.6 240.6 239 237.2 234 229.3 225 229.1 231.4 225 225.3 221.7 220.9 221.1 216.6 215.6 214.9 210.7 214.4 218.3 229.5 235 235.8 239.1 243.5 248.1 251.3 253.9 255.4 255.5 255.4 255.1 250.4 255.2 259.1 259.8 260.7 260.9 261.9 262.2 261.2 260.9 258.2 253.1 250 247 241.1 238.2 236.4 234 231.4 228.8 225.8 221.4 214.5 206.1 199.7 194 193.2 196.6 202 207.7 206.9 193.9 200.7 202.3 194.3 189.4 182.6 184.8 184.3 184.5 183.9 183.8 183.8 183.6 183.3 181.4 183.3 194.3 194.8 191.5 194.8 201.5 201.6 209 214.1 220.8 223.1 227.6 233.1 239.9 243.2 246.3 247.7 240.8 242.5 253.2 260.7 264.9 270.9 274.6 276.5 278.1 278.9 278.7 279 279.7 280.4 280.9 281 281.3 281.6 282.5 283.9 285.5 286.5 287.2 287.2 288 290.5 294 296.1 297.6 301 304.6 310.9 316.1 313.2 310.4 306.1 306.7 308.2 308.7 309 307.8 306.9 306.7 305.5 310 312.5 314.5 315 316.3 319.1 321.5 326.3 332.4 335.1 336.5 336 334.4 334.8 334.8 332 329.1 326.2
288.8 283.7 281.4 278.1 263.3 266.4 267.4 273.6 281.7 265.6 245.7 260.9 272.1 272.9 271.5 268.7 257.1 238.6 255.7 261.1 259.6 258.8 256.2 256.4 259.4 249.2 243.5 245 245.9 249.1 252.9 253.2 252.8 249.5 244.7 245.9 245.6 245.8 245.5 245.6 246 245.7 244.5 243.5 241.8 240.1 238.2 235.2 230.9 225.9 226.8 227.1 225.6 224.7 223.6 221.2 219.8 217.6 215.5 214.1 210.1 213.6 220.8 231 236.3 238.7 242.1 246.2 250.3 253.7 257 258.5 258.7 258.4 256.5 254.7 261.5 263.6 264.1 263.7 264.2 264.4 263.3 260.6 259 254.3 252.3 250.8 247 242.6 240.2 238.2 234.8 231.3 227.2 222.5 215.2 208.7 202.5 195.5 193.8 191.5 194.4 199.2 203.1 204.7 203.7 192.1 196.5 193.4 185.1 184.8 187.4 185.1 184.3 183.3 183.5 183.8 183.4 183.7 183.2 183.5 192.5 196.2 194.5 197.3 204.8 209.7 211.8 207.4 221 226.4 232.2 236.8 243.6 247.3 250 250.9 251.3 233.2 253.4 260.4 264.6 270.5 273.4 275.1 276.5 276.2 276 277.7 279.1 280.7 280.4 280.2 280.4 280.8 281.8 283.2 284.9 285.3 286 287.2 289.2 293.2 295.8 297.9 300.9 303.7 307.5 313.5 317.7 313.8 310.7 309.1 310 312 313.3 312.5 311 310.5 310 310 309.9 311.9 314.9 317.7 317.4 321.2 323.9 327.9 334.1 335.7 337.2 335.5 335.1 333.9 330.6 327.3 324.3 321.1
291.5 285.5 280.9 277.7 259.5 276.2 283.2 287.3 287.6 282.3 270.1 254.1 245.3 258.3 264.3 259.1 245.1 239 258.3 260.1 258 256.4 257.7 254.7 260.3 252.5 253.7 257.3 258.6 259.5 261.2 262.2 260.4 256.3 251.6 248.9 249.5 249.9 249.4 248.8 248.3 247.9 246.7 244.7 243 241.4 238.9 236 232.2 227 217.2 227.4 219.8 218.8 218.3 224.6 221.8 218.1 216.9 217 215 212 225.1 232.1 238.3 241 244.2 248.4 252.7 256.1 259 260.2 260.4 258.9 256.4 254.9 258.9 263.4 263.1 263.4 263.2 263.2 259.9 255.9 250.8 243.6 247 247.8 244.8 243.2 241.9 239.5 235.8 230.5 221.6 215.1 210.1 207.2 202.2 197.7 193.7 191.5 192.3 195.3 199.9 201.4 201 197.6 191.3 192.7 185.2 184.7 185 184.3 186.2 184.2 181.9 181.4 185.6 186.2 186.4 187.4 196.6 197.5 202.9 195.9 207 210.2 212.5 216.4 217.5 225.8 234.3 241.9 246.6 250.4 252.1 254 254.5 247.1 239.4 257.5 262.2 267.6 271 273.6 274.2 273.2 275.2 277.1 279.4 280.5 279.6 279.3 279.6 280.1 281 282.6 284.2 285.8 287.1 288.9 292.6 296.7 298.6 300.5 304.1 306.7 310.7 316 317.1 314.2 312.8 311.7 313.5 316.1 317.5 316.5 314.8 314.6 314.7 314.1 313.7 314.7 315.9 316.2 319.1 322.8 326 328.9 333.7 335.4 335.5 334.3 333.2 331.6 326.3 323.9 319.9 317.1
289.6 284.1 281 278.2 257.9 279.4 284.6 285.9 285.4 282 279.2 274.4 260.7 249.9 242.8 241.9 241.9 247.6 258.6 260.7 258.6 254.5 250.6 250.6 257.8 262.4 261.3 261.2 262.3 263.9 264.8 264.9 264 261.3 256.8 253.5 251.7 252.4 252.5 252.2 251 250.1 248.7 246.4 244.9 243 239.6 236.3 233.4 229.2 218.4 218.8 216.1 217.3 215.5 216.3 217.1 217.9 218.1 217.1 216.2 211.5 223.5 233.4 238.9 242.9 246.4 250.4 254.2 257.2 259.7 260.7 261.1 259.9 256.8 253.6 252.6 255 254.7 254.2 256.2 254.5 253.5 248.3 246.4 242.6 239.7 241.2 242.5 240.9 239.4 237.6 234 226.4 220.2 215.5 211.9 208.8 204.8 199.4 195.1 193.2 191 195.5 198.2 198 194.8 194.6 191.9 191 185.3 184.9 185.2 184.4 185.1 185.8 185 185.7 186.3 186.8 187.1 188.3 195.9 203 207 202.7 210.4 213.4 214.8 217.5 219.5 228.9 235 244.7 250.3 252.8 255 256.1 256.2 253.3 248.3 247.1 257.5 262.2 267.2 270.1 270.1 271.1 274.5 277.4 280.3 279.4 278.9 278.7 279.3 280 281.7 283.4 284.9 286.9 289.6 291.9 296.6 299.7 301.7 303.7 307.1 309.6 313.9 317 317.1 315.7 315.4 315.3 317.7 320 321.6 320 319 319 319.1 318.3 317.8 317.5 318.4 318.2 319.3 323.7 326.6 327.4 332.3 334.8 334.9 332.4 327.9 324.9 321.2 318.6 315.5 312.7
286.9 282.7 280.3 277.5 259.2 278 282.6 284 285.1 284.6 281.4 277 272.9 268.1 262 256.3 248.2 257.4 259.9 259.5 257.3 251.9 251.2 257.4 257.8 264.8 264.8 264 265 266 266.2 266.9 266.6 264.6 261.6 258.3 255.1 254.4 254.6 254.5 253.5 251.7 250.1 248.1 246.7 243.9 240.2 237.2 235.6 232.2 229.7 229.2 222.5 224.5 221.8 217 215.8 212.8 215.2 212 213.6 215.6 226.8 233.7 240 244.2 248.2 251.5 254.2 256.7 258.8 259 259.1 259.2 257.6 254.5 253 252.8 253.1 252.1 251 250.1 249.1 247.9 246.1 243.7 241 238.3 237.3 236 234.3 231.4 226.9 222.3 219.1 215.6 212.4 210.6 208.1 203.1 197.7 194.2 191.5 190.8 192.2 192.9 192.1 190.5 189.5 190.3 189 184.9 185.2 186 185.2 185 186.5 186.3 186.9 187.5 187.9 188.9 198.5 204.7 209.5 209.7 210.7 213.3 215.1 219.2 221.7 229.9 240.8 248.8 252.5 255.3 256.9 258.1 257.7 258.2 258.3 253.8 250.8 258 262.7 265.5 266 271 274.8 278.5 280 278.2 278.3 278.4 279.2 280.8 282.8 284.5 286.3 289.2 291.9 295.6 300.9 302.9 304.9 307.1 309.8 313.3 317.2 318.8 319.1 318.6 318.2 319.4 322.2 325.2 326.1 324.9 324.1 323.7 323.6 323.1 322 321.4 321.2 321.6 321.5 327 326.9 326.5 326.2 328 329.6 330.7 324.2 319.2 315.8 313 311.1 308.8
282.6 279.3 280.4 278.3 262.6 272.2 282.8 283.9 284.5 283.2 282.8 280.1 276.1 272.9 268.1 263.6 258.2 260.7 259.5 258.4 254.4 254.7 257.6 260 260.4 266.8 267.1 266.4 267.7 268.8 268.1 268.7 268.1 266.9 264.7 261.8 259 257.6 257.2 257 256.5 253.6 251.3 249.6 247.6 244.7 242 239.8 238.3 235.9 236 233.2 230.5 227.5 225.2 218.3 221.9 223.1 221.5 219.1 217 222.1 229.3 234.4 241.6 245.5 248.9 251.2 253.3 255.7 257.5 260.2 259.4 257.7 257.7 255.3 253.4 253.3 253.7 251.9 250.7 249.6 249.4 248 247.1 243.2 241.2 238.7 236.1 234.2 230.6 228 223.2 222.3 217.7 213.3 213 211.2 208.1 204.5 200.7 194.4 189.8 188.6 188.1 187.9 189.3 189 188.2 187.7 182.6 184.8 185.2 186.1 185.7 185.7 186.5 187.3 187.4 188.7 188.7 189.8 199.1 206.8 212.1 213.6 207.1 214 217.4 223 227.4 232.7 245.2 252 255.4 257.4 258.9 259.9 259.7 260.1 260.4 258.1 245.9 249.9 258.7 261.4 266.2 271.2 275.8 279.9 278.9 276.3 276.1 278.7 280.8 282.7 285.1 287.3 288.7 291.9 295.4 299.6 304.7 306.8 308.9 311 313.4 318.2 320.8 322.2 322.8 322.7 322.1 323.8 326.7 330 331 329.8 329.2 328.8 328.3 327.3 326.1 325 324.1 324.7 324.3 327.6 331 327.6 323.7 322.3 321.8 320.8 318.4 315 312 308.7 306.7 304.6
263.5 264.5 264.7 265.7 263.1 278 282.9 284.6 284.1 282 279.5 276.9 275.2 273.6 268.6 262.6 262.1 260.8 260.8 257.9 255.9 260.2 265.1 265.8 263.6 266.6 269.5 268.9 270.1 271.5 271.5 271.1 269.5 268 266.6 264.6 262.2 260.4 260.1 259.2 258.5 255.3 252.3 250.3 247.8 245.4 243.6 241.7 238.1 235.5 233.1 232.3 231.1 227.6 225.2 220.2 223.6 224.3 222.6 220.6 220 226.6 230.6 234.1 243 246.5 249.3 251.2 253 255.8 259.2 261.2 261.1 258.6 256.3 254.8 253.7 253.4 253.3 252.1 251 250.3 249.2 247.8 246.4 243.3 241.3 239 235 233.5 229.7 225.4 223.6 221.4 217.1 210.4 207.2 203.7 202.1 199.9 194.5 188.8 188.2 187.8 187.4 187.3 188.8 188.2 190.5 186 185.9 191.5 185.4 186 186.5 186.5 187.3 188.1 187.6 188.6 189.7 190 195.8 209.3 214.6 216.2 213.2 215.1 218.6 224.6 228.9 236.1 247.4 253.9 256.9 258.9 260.2 261.2 262.4 260.9 260.9 258.6 257.3 253.6 256.9 260.4 267 271.7 277.5 279.6 274.7 278.9 280 281.2 283.4 285.8 288.3 290.5 291.7 295.7 300 305 307.5 311.1 313.1 315.1 318.9 323.5 325 326.4 327.1 327.3 326 328.9 331.7 334.8 335.8 335.4 335.1 334.4 333.9 332.3 330.7 329 328.6 327.8 327 327.5 328.4 326.3 323.1 320.5 318.2 315.4 312.5 309.9 308.3 307.6 306.5 305.2
277.1 273.1 273.8 268.9 270.5 279.7 283.5 284.9 285.3 284 282.2 279.4 272.7 271.2 266.3 264.2 261.8 263.5 262.3 259.8 264.4 267.1 268.7 268.1 267 267.4 266.7 266.6 271.7 273.2 273.5 271.9 270.4 268.9 267.5 265.9 263.8 263.4 262.6 261.2 259.4 257 253.6 251 248.8 246.9 245.5 242.1 238.6 235.8 236.7 234.7 232 227.4 224.6 222.5 224.5 225.5 222.6 220.6 223.9 227.8 232.4 233.9 243.6 246.4 247 251.2 254.4 257.6 259.4 260.5 259.8 256.5 255.4 253.2 252.8 252.6 252.6 251.5 250.9 249.9 248.7 247.4 245.6 241.2 238.4 235.7 234.2 231.7 227.9 223.5 219.3 217.9 215.2 211.3 205.7 198 192.3 191.3 188.2 189 187.7 187.1 186.2 186.1 186.5 185.8 183.1 186 189.5 191.8 192.7 185.8 186.3 187.2 187.7 189.2 188.7 189 191.4 190.9 192.4 209.5 215.9 217.5 215.4 216.6 218.1 223.3 230.6 239.3 247.6 255.6 258.6 260 261.9 261.9 263.9 262.5 262 261.4 260.3 258.6 252.8 260.6 268 273.7 279 275.4 277 280.1 282.2 284.6 287.1 288.3 293 294.1 296.4 300 305.3 310.2 313 315.7 317.5 320.1 324.6 330.7 331.5 332.4 332.9 332.3 332.1 334.6 337.4 340.1 341.4 341.3 341.1 340.6 339.6 338 336.3 334.7 333.6 331.9 330.3 329.9 328.6 327 324.4 321.8 319.4 316.1 311.6 310.3 310.1 309.6 308.1 306.2
278.5 276 277.7 277.5 280.9 282.5 285.1 286.3 285.2 284.5 282 279.6 275.1 271.4 267.3 266.3 264.8 266.1 267 267.1 268.4 270.5 270.9 269.1 269.9 269.6 268.5 266.7 269.7 271.4 275 273.8 271.3 269.9 268.5 267 266 265.5 264.5 262.9 260.5 257.7 254.4 251.4 249.8 249 247.8 245.4 243 241.6 239.6 236.4 232.8 228.6 225 224.1 226.7 226.6 225.7 222.5 224.4 228.7 233.9 235.6 243.5 245.9 247.2 250.9 253.9 256.6 257.3 258.7 256.5 255.2 253.6 252.9 252.3 251.4 250.6 251.4 249.3 248.7 247.7 246.3 243.2 238.4 236.8 233.5 232 229.5 227.2 223 218.3 213.1 211.1 208.4 204.6 200.2 192.8 188 190.3 191.8 190 185.9 185.7 185.6 185.3 185 182.6 182.6 187.3 192.6 193.1 188.2 186.9 187.6 188.2 189 192.6 192.4 191 191.8 193.3 206.3 214.7 216.2 217.3 222.6 223.4 224.4 225.2 242.5 251.5 257.1 260 261.9 263.4 263.4 264.7 263.1 263.1 262.2 262.1 260.4 253.9 260.2 268.5 274.7 277 269.7 279.8 282.1 285.5 288.1 290.7 294.2 297.1 298.9 301.8 305.2 310.2 314.7 317.7 320.3 322.4 325.4 330.8 337.5 338.5 339.4 339.4 338.2 338.3 340.2 342.9 345.2 347.7 348.2 348.1 347.5 346 344.3 342.7 341.1 340.5 337.9 336.4 333.7 332.5 330.6 328 325.4 321.9 318.3 314.4 313.2 313.2 312.4 311.5 309.1
284.1 281 282.1 283.1 285.6 286.6 287.7 288.1 288.2 286 283.6 281.1 277.3 273.8 271.7 270 266.9 267.7 269.7 271 272.3 272.9 272.9 270.8 270.7 271.8 271 269.8 267.2 270.3 273.2 273.2 274.8 270.2 269.3 268.2 267.4 266.6 265.5 263.7 260.9 258.3 254.8 252.9 252.4 251.1 250 248.2 246.5 245.2 243.3 240.5 236.1 230.1 226.7 228 230.3 229.6 229.4 228.7 225.4 231.3 236.5 237.9 243.3 244.5 245.3 249.3 252.1 253.6 255.9 255.9 253.4 252.6 252.6 251 250.7 250.3 249.9 249.1 248.9 247.4 247.1 243.8 241 236.9 233.7 231 229.3 227.2 224.4 221 217.7 211.5 203.3 199.4 196.9 193.3 188.6 184.3 184.4 184.3 184.8 185.6 185.3 184.7 183 185.1 184.9 184.8 182.6 193.2 193.8 195.1 188 187.8 187.8 192.9 193.8 191.6 190.7 190.2 192.2 200.6 213.8 218.6 218.8 226.5 227.1 227.6 227.9 245 253.3 258.1 260.8 262.6 263.1 265 265.4 263.7 264.3 263.5 263.5 261.4 258.4 260 265.5 264.7 270.4 278.8 281.8 285.1 289.4 292 294.6 299.1 299 303.9 306.6 311.1 316 320.8 323.6 325.6 326 331.2 335.9 341.8 344.1 345.2 344.9 344.4 345.4 346 348.2 351.2 353.8 355.1 355.5 355.1 353.4 351.4 348.8 348.4 347.7 345.2 343.6 341.6 340.1 338.4 335.5 332.7 327.7 323.1 319.3 317.2 317.5 316.2 313.9 313.7
287.9 286.5 286.5 287.3 288.3 289.3 290 290.4 290.1 287.8 285.1 282.6 279.5 276.6 274.7 272.8 269 268.6 271.5 273.2 273.9 274.4 274.3 274.7 274.6 274.3 273.7 273.1 273.6 273.6 273.6 272.6 272.2 273 270.2 269.3 268 266.1 263.8 262.5 261 259 256.4 255.5 254.5 253.4 252.3 251.1 248.9 246.7 245.1 243.3 238.4 231.8 227.8 231.1 231.5 231.2 230.5 231.8 233.6 233.3 234.8 240.2 241.8 244.2 244.4 246 248.8 252.2 254.2 251.1 249.2 248.4 249.6 248.6 249.4 247.4 246.6 247 246.9 247.2 244.2 241.4 237.8 234.8 232.1 229.2 226.4 223.7 220.7 216.9 211.9 209.7 202.2 195.5 192.1 189.4 185 184.3 184.5 184.6 184.3 184.5 184.7 183.7 185.2 185.2 185.1 182.6 186.6 194.8 193.8 192.6 194.9 189.5 188.6 189.6 197.1 191.9 193.7 191.6 192.3 198.4 212.5 220.9 221.5 227.4 229.8 231 228.3 245 253.9 258.2 260.9 262 263.5 265 264.9 264.9 266 265.9 265.7 262 257.1 263.2 267.5 272.6 276.7 280.8 284.4 288.8 293.3 296 299.2 303.3 306.1 308.7 311.4 317.1 322.5 327 329.9 331.7 333.1 337.5 342.2 346.5 349.5 350.9 350.7 350.9 350.8 351.6 354.6 357.9 360 361.7 362.4 362.5 361.1 358.5 355.7 355.7 354.8 352.4 351.2 350.1 348.5 347.2 345 341.6 335.9 330.5 325.8 322.2 322.3 320.6 318.2 317.4
290.4 288.9 289.1 290.1 290.5 290.9 291.3 291.4 290.9 289 286.2 283.4 280.9 278.7 276.8 274.5 268.9 270.3 274.2 274.4 275.5 275.9 275.6 276.4 276.5 276.2 275.8 276 276 275.3 275.2 274.2 270.8 270.8 271.6 270.2 268.9 265.3 259.1 259.1 259.1 260.1 258.3 257.3 256.4 255.6 254.4 252.9 250.4 248.1 246.4 244.5 241 234.1 228.3 232.8 232.8 232.5 232 231.9 232.5 233.7 234.2 237.9 242.4 243.4 242.9 242.4 246.5 250.9 251.9 250 244.8 245.5 247 246.6 246 244.2 244.1 245.1 245.5 244.8 242.1 237.5 234.9 232.9 229.3 227 223.3 220.3 219.1 216.1 208 201.3 198 194.6 190 186.7 184.5 184.3 184.3 184.3 185.3 185.3 185.3 183.2 185.1 184.9 185.4 190.7 196.5 195.9 194.6 191.6 191.2 191.4 190.9 190.7 198.8 201.7 202.7 194.1 192 193.6 205.1 221.8 224.6 226.6 231.8 232.7 231.6 246.3 255.1 258.6 260.5 261.2 263.3 264.6 266.9 266.6 267.8 268.4 267 264 258.5 264.2 269.7 274 277.8 282.3 287.7 293.2 297 300.2 304.1 307.7 310.8 312 316.7 322.5 328.2 334 337.4 338.4 339.6 342.2 347.8 351.8 355.4 356.4 357.2 357.7 356.7 356.4 361.2 364.6 366.2 368.3 369.1 369.3 368 365.4 363.4 363.3 361.8 360.7 359.1 357.3 355.7 354.2 352.9 351.3 346.2 337.6 333 329.9 328.8 326.4 324.3 322
293.2 292.2 291.8 292.4 292.7 292.7 292.6 292.5 292.3 290.2 287.3 284.4 282 279.6 277.7 275.5 272.4 271.2 276.1 276.6 277.3 277.7 276.5 277.1 278.3 278.1 278.2 278.4 278.4 277.6 276.7 275.4 274.1 272 272.9 268.7 269.8 266.6 259.1 259.1 259.1 259.1 260 259.1 258.1 257.2 255.4 253.4 251.5 249.5 247.2 245.1 242.2 235.6 230.3 233.9 233.8 233.1 231 232 232.4 233.9 238.1 241.2 242.9 243.4 241.5 241.4 244.1 247.4 248.2 245.7 243.5 244 244.6 244.4 242.8 242.2 242.1 242.2 241.8 241 238 235 231.7 229.4 226.4 223.6 220.7 217.1 213.5 212.3 209.9 203.2 195.3 192.3 190.1 186.1 185.4 185 184.6 184.6 185.3 185.6 186.9 194.8 194.2 194.7 196.6 196.1 196.8 196 195 192.6 191.7 201.1 193.4 193.4 201 206.7 211.6 200.1 194.6 193.1 195 215.1 226.3 225.6 232.6 235.1 233.3 244.8 254.3 258 259.8 261.3 263.8 265.4 267.2 268.1 270.5 271 268.9 265.9 261.4 266.2 270.3 275.2 279.7 285 291.5 297.3 300.7 303.2 307.9 311.8 315.3 317.3 322 328 334.2 339.8 344.7 346.3 347.7 349.1 352.3 357 360.4 362.7 363.7 364.2 362.5 362.6 366.7 370 372.1 374.8 375.7 376.1 374.8 372.6 370.9 370 368.6 367.6 365.9 364.1 361.8 360.4 358.1 355.6 351.8 346.5 339.8 337.7 335.3 332.7 331 327.8
296.8 296.3 294.8 294.5 294.7 294.8 294.7 294.1 293.4 291.1 288.4 285.5 283.1 280.7 278.5 276 272.8 277 278.1 278.3 278.5 279.4 278.2 278.7 280.1 279.5 280.2 280.5 280.6 279.7 278.4 277.1 276 273.8 271.2 271.5 269.5 268.2 263.2 259.1 259.1 259.1 261.4 260.4 259.5 258.4 255.9 253.7 252.6 250.3 247.8 245.3 242.8 237.4 234 235 234.7 233.6 233 232.1 233.6 235.1 235 241.4 242.1 241.9 240.5 240.5 240.5 243.8 244.7 243.4 243.1 243.3 243.8 242.3 240.4 239.5 239.3 238.4 237.8 237.1 234.9 232.5 229.4 226.1 223.8 219.8 215.9 211.8 208.7 205.7 202.4 196.2 191.2 192.9 194.8 186.5 186.1 185.8 184.2 186.3 186.1 190.2 196.4 196.8 196.9 195.2 194 194.6 195.9 195.7 195.6 194.2 195.6 202.5 197.7 197.9 203.1 210.4 212.3 210.5 198 194.1 195.3 210.1 223.1 224.6 230.9 235.5 235.7 241.2 252.1 256.5 258.6 259.9 264 267.9 268.5 269.6 272.6 272.9 271.6 268.1 265.1 268.8 272.3 277.1 282.3 288.1 295.1 301.6 304.1 307.2 311.8 316.2 319.6 320.9 326.8 333.3 339.9 346 350.4 352.9 354.8 357 358.9 361.9 366 368.9 369.6 369.7 368.2 367.2 369.7 374.3 377.2 379.9 381.5 381.4 379.8 377.7 376.8 375.6 375.2 373.8 372 370 367.8 366.6 363.3 359.3 356 352 346.6 344.6 342.9 341.4 338.3 336.1
299.5 298.8 297.5 296.8 296.9 296.4 296 294.3 293.3 291.8 289.1 286.8 284.4 282 279.6 276.6 273.6 278.2 280.2 280.2 280.1 279.4 279.3 279.8 281.7 282.1 282.6 282.6 282.4 281.7 280.3 278.8 277.6 275.9 273.6 272.6 269 266.8 260.5 259.1 259.1 259.1 262.1 261.6 260.7 259.3 257.1 255.2 253.1 250.6 248.2 245.1 242.4 238.6 235.2 235.4 234.9 234.3 234.3 234.3 235.6 236.6 237.5 239.4 241.1 240.6 239.5 238.3 237.6 240.9 241.4 241 241.4 241.7 241.8 240.8 238.8 236.7 236.4 236.2 235.5 234.1 232.1 229.9 226.6 222.1 220.7 217.9 211.3 209.1 204.5 201.7 196.7 191.3 193.3 194.1 189.4 186.2 185.5 186.3 185.1 187.6 189.7 192.9 197.2 196.9 196.9 193.4 192.8 192.7 193.5 194.5 194.3 195.2 197.9 201.7 205.6 202.7 204.1 214.2 214 213.7 206.2 196.2 195.5 203.5 219 225.9 232.7 238.2 238.3 237.8 248.5 253.5 255.7 259.9 264.4 268.9 269.4 272.5 274.7 275 272.9 270.8 267.3 272 274.4 279.3 285.2 292.1 299.1 305 308.4 312.4 316.2 320.9 324 324.9 331.4 338.5 346.4 352.8 356.9 360.1 360.9 363.5 366.5 368.1 371.3 375 376.2 374.3 371.7 373 374.9 376.8 380.6 383.4 385.3 385.3 384.1 382.9 382.6 381.7 381 379.7 377.9 375.9 373.8 372.2 368.9 364.4 361.1 356.7 353.7 351 350 349.4 347.4 344
302.1 301.4 300.2 299.2 299.2 298.4 296.8 294.5 294.5 292.7 290.2 287.9 286.3 283.9 281.4 277.4 280.7 281.4 282.6 282.2 281.9 283.4 283.2 283.3 283.3 284.4 284.8 284.9 285 284.3 282.5 280.7 279.2 277.2 274.2 271.7 271.9 266.3 263.2 259.1 259.8 262.5 263.7 263.4 262 260.1 258.3 255.9 253.3 250.7 247.9 244.5 241.3 238 236.7 236.2 236.1 236.3 236 236.4 237.6 238.1 240.7 241.3 239 239 238.5 237.4 237 237.5 238.8 239.1 239.4 239.6 239.5 238.6 237.1 233.6 232.5 233.7 233.3 231.4 229.4 226.6 223.1 217 215.7 209.1 206 202.3 199.1 196.6 195.5 189.4 187.8 185.4 186.3 185.9 185.3 185 185 185 186.2 189.8 191.4 192.5 192.1 192.2 192.4 194.4 195.8 200.2 199.4 202 203.4 204.1 206.5 208.9 206.8 214.6 216.3 215.8 213.2 199.8 195.2 201.2 219.6 223.5 231.7 238.1 240 240.6 245 249.8 254.3 259.1 265.2 270.3 271.2 273.8 276.9 277.6 275.9 274.7 270 274.9 279.1 283 288.5 295.6 302.6 309.3 312.8 316.5 320.8 325.4 328 330.8 336.4 344.5 352.5 359 363.7 367.1 369.4 371.8 373.6 373.9 376.7 380.7 381.9 378.3 376.4 377.5 378.8 380.2 383.8 386.8 388.3 388.4 387.5 387.2 387.2 387 386.3 385.3 383.4 381.3 379.6 377.9 374.7 370.5 366.6 361.1 359.6 358 357.2 356.1 354.4 351.6
304.4 303.6 303.2 301.5 300.5 299.4 298.1 296.9 295.7 293.8 291.3 288.9 287.1 285 281.6 278.1 282.2 283.5 284.7 284.8 284.9 285.5 285.9 285.9 284.9 286.4 287 287.1 287 285.6 284.9 283.1 280.8 278.6 276.1 272.6 269.7 271.1 267.4 263.2 261.1 265.1 265 264.6 263.1 261.3 259 256.1 253.5 251 247.7 244.6 241.8 239.9 237.3 236.2 238 238.1 237.3 237.8 238.9 241.3 241.2 241.7 241.1 237.8 237.1 237.1 237 237 237.5 237.4 237.6 238.2 237.3 236.4 235 230.2 229.5 229.2 228.6 227.8 226.2 223.5 218.6 210.8 206.9 203.6 200.5 198.2 193.9 193.7 195.6 189.2 184.2 186.1 186.5 185 185 185 185 185 185 187.5 192.6 193.5 194.4 195.3 195.5 197.6 202.4 202.1 201.4 205.7 205 209.4 208.3 209.6 211.1 214.4 215.3 215.9 207.7 201.5 196.2 201.3 225.1 223.1 230.8 238.4 243.4 243 246 252.2 255.8 260.1 266.7 270.9 273.8 275.6 279.4 280.6 278.8 277 271.9 276.9 283.1 288 293 299.7 307.5 313.9 317.7 321.5 325.6 330.1 333.9 337.5 343.9 350.7 358 364.3 369.7 373.5 375.8 378.5 380 379.6 381.8 385.7 386.9 382.7 380.9 382.7 382.9 384.6 387.8 390.1 391.3 390.9 389.9 389.6 389.6 389.7 390.3 389.5 387.7 385.9 385.2 383 379.6 375.4 371.2 366.4 365.6 363.7 363.4 362 360.5 358.1
307.1 305.6 304.2 302.9 301.8 300.7 299.7 298.3 296.9 294.6 292 289.5 287.4 284.9 280.6 283.1 284.3 285 286 286.9 287.6 287.6 287.7 287.7 287.2 288.6 289.4 289.3 289.1 287.9 287.1 284.8 282.5 280.1 277.5 274.1 270.8 268.7 270 261.6 264.9 266.6 266.6 265.5 264.1 262.3 259.8 256.3 253.7 251.4 248.8 245.3 243.1 242.1 239 239.7 238.4 239.6 239.4 239.3 240.6 241.6 241.9 241.8 241.3 239.5 237.4 235.9 235.4 235.9 235.6 237.3 236.7 236.1 235.2 234.2 231.4 227.3 225.2 225.2 225 225.1 222.9 217.5 210.2 205.1 202.2 200.7 199 196.7 191.5 190.6 189.3 186.6 185.9 185 185 185 185 185.5 185 185 185 186.1 195.3 196.3 196.5 195.1 196.4 201.4 206.8 208 211 206.1 211.2 221 214.9 211.7 211.9 215.7 215.4 215.8 214.2 202.8 196.8 207.3 223.1 224.8 230.6 237.9 244.5 243.6 250.6 253.2 257 261.7 268.1 271.9 274.8 278 281.8 284.4 282.7 280.3 274.5 280.2 285.5 291.7 297.9 305.2 313 318.5 322.7 326.5 330.7 335.7 340.3 344.7 352.8 358.7 363.5 369.7 376.1 379.6 381.6 383.9 386.3 387.2 387.1 390.7 389.6 386.5 386.1 386.9 386.5 387.8 389.3 391.8 393.4 392.6 392.1 391.6 391.5 391.8 392 392.2 391.6 390 388.2 386.8 384.1 379.9 375.5 372.2 370.5 368.9 368.3 367.1 365 363.3
307.8 307 305.5 303.9 302.8 301.3 301 298.7 298.3 295.6 292.8 290.1 287.7 284.2 281 286.1 286.4 287 287.7 288.4 289 289.7 289.8 289.9 291 291.1 291.5 291.1 290.8 289.8 288.3 286.7 283.7 281.2 278.3 275 271.3 266 269.2 271.6 267.9 268 268.2 267.3 266.1 264.5 261.9 257.8 254.6 253 251.4 248.7 246.3 244.9 237 240.8 240.9 241 240.6 240.7 241.4 241.3 241.9 241.8 241.3 239.6 237.2 234.6 234.7 234.4 234.9 235.1 234.7 234 233.1 230.6 227.4 223.7 220.6 220.4 219.1 217.9 215.5 208.9 204.7 201.2 199.7 199 198.5 197.3 195.7 187.5 186.6 186.6 186.8 185 185 185 185 185 185 185 185 185.3 196.4 197 198.3 198.4 200 209 210.5 213.9 217.7 211.9 212.1 212.6 224.4 215.6 214.5 218.1 217.3 216.7 216.5 208 199.3 206.8 220.3 225.3 230.7 238.9 246.8 248 251.9 257.5 257.7 262 269 273.4 276 280.3 285.9 287.9 286.3 283.5 278.1 284.4 289.9 295.6 301.7 310.9 318.6 323.6 327.1 331.2 335.9 342.1 347.5 354.1 361.6 366.1 369.6 374.3 380.3 385.2 387.3 389.2 392.4 393.4 392.1 392.7 391.6 390.9 391.4 391.7 390.3 390.6 391 392.4 392.8 392.9 393.2 392.8 392.7 392.7 392.8 393.1 393.1 391.8 390.6 389.6 387.9 383.6 380.3 377.4 375.4 373.9 372.1 370.6 367.8 366.4
310.6 309.3 307.3 306.1 303.1 302.2 301.7 300.8 298.8 296.1 293.1 290.3 287.2 283.4 285.3 288 288.3 289 289.8 290.9 291.9 292.3 292.7 292.9 293.6 293.6 294.3 293.3 292.1 291 289.9 287.3 284.9 282.1 279.1 276.2 272.7 265 270.4 272.6 272 270 269.5 268.6 267.5 265.8 263.1 258 255.6 254.2 252.1 248.6 244.9 242.4 245 243.4 242.7 242 241.7 241.4 241.4 241.2 242 242 241.3 240.1 237.1 233.9 231.8 232.8 233.7 234 233.5 232.1 230.4 227.5 223.6 218.2 214.4 212.8 210.8 207.6 203.4 201.3 200.4 199.4 199 198.6 197.4 193.7 189.7 186.9 186.6 185 185 185 185 185 185 185 185 185 185 191.5 196.5 201.4 205.4 203.4 203.7 209.6 212.7 217.8 214 219 214.2 215.3 213.6 222.5 216.6 218.9 219.8 219.6 216.3 208.1 199.8 206 223.9 225.6 233.4 240.1 247.6 253.8 252.6 256.7 260.2 262.7 268.8 274.8 277.7 283.7 289.6 292 290.3 287.4 281.1 287 293.8 299.3 306.6 315.1 321.9 327.8 331.7 336 343 349.8 356.7 362.7 369.2 373.3 375.7 378.5 386.6 391.8 392 394.9 397.7 397.1 395.8 394 392.3 393.9 396.6 396.1 394.6 393.8 393.5 392.5 392 391.3 390.9 391.6 391.9 392 392.4 393.3 394 393.1 391.3 391.5 391.3 388.1 385 382.4 380.5 379.3 375.4 373.2 370.2 367.6
314.1 311.2 309 306.4 304 304.1 302.5 301.2 299 296 292.9 289.4 286.9 286.9 286.3 290.8 290.3 291 292 293.4 295 294.7 294.5 295.2 296 296.6 297 295.8 294 292.6 291.2 287.8 285.8 283 280.2 277.5 271.4 266.4 271.6 271.3 272 272.7 271.8 269.9 268.6 266.7 263.1 255.9 256.7 256.1 254 249.6 244.3 242.4 246.5 245.3 243.9 242.9 242.4 241.9 242.2 242.7 242.1 242.6 241.7 239.7 236.5 233.6 231.6 229.9 232 232.8 232.4 231.5 228.8 224.6 220.9 216.6 209.4 204.7 202.8 201 201 200.3 199.5 198.4 197.6 196.1 192.3 192.4 187.7 187.2 186.9 186.7 185 185 185.2 186 186.5 186.2 188.7 188.3 187.2 190.9 195.7 204.5 207.1 205.4 213.7 212 214.7 221.7 217.6 223 220 221.5 220 217.4 218.9 219.1 221.3 219.4 212 215.2 199.4 202.8 222.2 225.3 233.8 244.9 246.1 253.9 258.5 256.4 260.5 264.5 268.8 274.2 279.4 287.3 293.7 295.8 295.1 291.4 288.7 290.3 295.4 302.5 308.6 318.9 324.4 331.3 334.9 340.2 348.5 356.5 364.1 371.8 377.1 380.7 380.5 382.1 387.5 393.5 395.6 399.8 401.8 400.8 398.5 396.1 394.6 396.6 400.9 399.3 398.4 397.7 395.9 393.9 392.5 390.4 388.2 388.1 387.9 388.9 391.4 392.5 393.9 393.7 392.5 392.8 392.9 391.1 388.9 386.3 385 383.4 379.5 375.2 372.2 368.7
315.5 313.6 310.7 309 307.6 305.9 303.9 301.1 298.6 295.1 291.6 288.5 289.2 290.9 289.4 290.7 293.4 294 294.6 296.6 298 297.4 296.3 297.1 298.1 299.3 299.5 298.1 296 294.4 292 288.3 287.5 284.4 281.5 278.8 274.7 266.7 271.7 271.6 271 271.4 270.6 271.4 270.8 267.2 260.6 257 258.9 257.3 255.4 250.4 244.3 247.7 249 247.6 245.4 244.2 243 242.8 243.8 244.3 243.7 242.6 240.8 239.5 236.6 233.6 231.9 230.2 229.1 230 229.6 228.4 225.9 220.5 215.9 209.8 206.3 203 201.6 200 199.4 198.7 198 195.7 195.8 193.9 191.1 186.9 186.6 186.2 186.5 186.5 186.9 185.6 186.9 187.7 187.3 191.4 191.2 190.4 193.1 197.8 198.6 202.4 207.2 211.7 212.6 215.5 218 224.3 226.3 223.9 224.1 225.6 224.1 222.8 223.8 220.7 222.8 216.3 221.1 221.5 202.3 201.1 218.1 226.6 235.7 247.6 247 255.1 260.2 257.1 263.8 267.5 272.9 277.1 281.8 289 295.5 300.3 299.4 295.1 295.5 296.8 297.5 303.3 310.3 318.2 325.5 332.1 336.6 344.1 352.4 363.4 370.4 379.7 384.1 387.3 385.6 385.6 389.4 392.7 397.9 401.4 404.4 406 402.1 397 397.2 398.7 402.9 402.4 401.9 401.2 399.1 397 394.8 391.9 388.1 384.6 383.3 384 387.5 390.5 393.3 394 393.2 394 394.4 393.2 391.9 389.2 388.1 385.9 383.8 376.8 373.4 370.3
318 316 313.6 311.7 309.6 307.6 305.5 301.7 297.3 293.1 291.9 291 293.4 294 293.8 292.3 294.4 297 297.4 297.6 301.2 300.9 299.7 299.8 300.5 301.5 302.1 300.7 298.1 295.3 292.8 290.3 287.3 285.8 282.7 279.2 275.3 267.7 273.6 273.1 272 270.8 269.4 268.6 268 265 259.5 262.2 260.5 258.5 254.5 252.1 245.5 251.3 250.9 249.9 247.3 246.1 244.5 243.5 244.4 244.8 244.5 243.2 241.2 238.9 236.5 235.1 232 229.3 227.1 228 225.8 225.4 222.1 219 214.8 208 202.9 200.6 199.3 198.9 197.8 197.2 196.5 195.5 194.5 187.3 186.8 186.8 186.6 186.5 186.3 186.5 186.6 186.9 187.3 189 193.1 195.1 193.9 194.6 199 201.9 204.2 203.9 208.7 217.2 213.5 218.7 222.3 222.1 229 227.1 228 229.5 228.9 226.6 224.8 224 223.5 224.9 225.1 226.8 208.8 203.5 216.6 231.3 238.4 245.4 252.9 252.8 258.4 258.4 266.7 270.3 276.7 281.1 287 294.5 301 304.1 303.1 300 300.4 301.5 303.9 307.4 311.9 319.8 325.9 331.4 336.9 344.9 355 371 374.4 384.9 390.7 394.6 388.9 387.4 392.4 393.4 396 400.4 401.8 402.8 401.3 397.7 399.5 400.4 403.8 404 403.2 402.1 399.5 398.2 396.3 392.5 388.5 382.8 379.4 379.6 383.2 386.5 390.1 392.9 393.5 395.1 395.4 394.6 393.5 390.2 388.4 386.2 384.9 379.6 375.2 372.4
320.1 318.1 315.6 313.6 311.2 309.2 306.6 301.7 298.6 298.4 296.7 294.5 296.8 297.3 297.2 297 294.2 299.5 299.9 300.3 304.5 304.1 302.9 302.6 303.4 303.9 304 303.3 300.2 296.8 294.2 291.5 287.8 286.4 282.9 279.8 276.8 269.5 274.8 273.9 272.8 271.2 269.5 268 266.6 261.1 264.5 263.8 261.5 257.5 254.6 254.1 246.1 253.3 252.3 251.9 248.9 247.5 245.7 244.7 245.4 245.6 246 244.7 242.2 239.2 236.5 234.2 231.1 226.8 223.8 223 222.6 221.9 219.6 216.1 210.1 204.2 198.3 198.4 197.8 197.3 197.4 196.9 196.3 192.9 187.7 187.4 186.9 186.7 186.6 186.5 186.5 187 187.5 187.6 189.1 192.1 198.1 197 196.9 200.8 204.7 207.5 209.4 209.5 218.6 217.6 216.9 220.7 226.1 229.1 230.5 231.6 234.5 238.3 237.5 231.4 229.1 227.3 224.8 224.3 226.8 228.9 204.9 206 216.8 232.6 239.8 244.3 254.4 256.5 255.7 263.7 268.8 274 278.7 284.2 290.1 297.8 304.7 308.1 306.6 305.4 305.6 306.1 309.2 312 316.1 316 324.3 330.1 335.3 342.8 354.4 369.1 375.1 384.1 390.6 390.7 386.5 387.8 393.1 394.5 395.6 397.6 398.7 399.2 399.5 398.7 400.3 400.6 403.5 405.2 403.2 401 398.7 397.9 396.2 392.7 387.6 381.8 376.7 375.3 378.9 381.6 384.2 389.8 392.2 393.9 395.1 395.3 392.7 389.6 387.7 385.3 384.3 381.8 377.3 374.3
323.7 320.7 317.8 315.3 312.6 310.1 307.3 301.8 305.1 301.2 299.4 300.1 300.9 300.7 300.5 300.3 298.9 301 303.5 305.5 307.7 307.3 306.2 305.4 305.9 306.2 305.8 305.2 302.2 298.6 295.6 292.1 289.1 286 283.6 281 278.1 271 271.5 274.4 273.1 271.5 269.8 267.6 264.5 265.5 265.1 263.7 261.8 256.9 256.7 255.8 252.1 254.4 254.2 254.1 250.8 248.6 246.7 246.2 247.1 246.7 246.7 245.5 241.9 239.8 237 234.5 231.4 226.5 222.1 224.1 220.7 216.5 217.6 214.8 205.5 199.2 196.8 197.4 197.7 197.7 198.1 198.7 197.7 187.9 186.8 187.3 187.2 186.9 186.7 186.6 186.5 187 188 188.9 190.2 191.9 196.2 199.4 201.8 206.9 210.4 213.2 214.8 217 220.9 221.5 221.3 223.9 227.5 231.2 235.5 243.6 246.5 247.6 247.2 239.5 232.7 230.1 226.8 225.6 228.6 231.4 213.9 205.5 215.7 229.8 238.4 245.5 254.4 259.7 257.5 261.3 271.6 275.6 282.9 287.7 293.6 301.2 308.1 311.7 310.9 309.8 310.9 311.6 314.3 317.6 320.6 322.7 324 325.4 332 339.8 350.5 362.8 374 380.5 384.5 384.9 384.8 387.3 390.3 392.1 393.2 393.8 393.8 394.7 395.8 396.5 398.1 398.8 400.1 401.8 400.7 398.9 397.5 396.9 394.4 391 385.3 379.3 374 370.3 372.2 374.6 375.5 384.3 389 391.6 393.7 394.4 391.5 388.3 385.9 384.1 383.1 382.3 379.6 376.6
327.2 323.9 320.8 318 314.2 310.1 307.8 305.5 309.5 305.1 301.9 304.1 304.3 304 303.6 303.3 301.3 306.7 307.8 309.8 311.1 310.3 309.4 308.5 308.6 308.4 307.5 306.4 304.3 300.7 296.4 292.8 289.8 287 284.4 281.7 279.1 276.6 271.4 272.3 273.3 271.8 269.5 266.2 265 266.6 266.1 264.4 262.3 258.9 258.1 254 255.5 256.4 255.4 255.3 252.2 249.8 248.1 249 248.3 247.6 247.1 245.9 242.6 238.4 233.5 232.6 231.7 226.2 221.9 217.6 219.6 217.8 206.8 204.9 201 195.2 197.4 198.3 198.3 197.7 196.7 198.5 187.8 186.9 186.1 187 186.6 186.8 186.9 186.6 186.6 187 188.3 189.6 190.6 191.7 201.6 201.1 208.7 211.9 215.4 217.7 220 225.4 225.3 226.7 226.7 227 228.3 234 241.2 252.8 257.7 255.4 252.9 246.9 235.2 231.7 229.6 227.5 230.2 232.6 224.9 207.6 209.7 230.8 240.5 247.3 257.6 267 262.1 268.6 273.7 279.3 285.5 290 296.8 303.7 311.2 315.1 314.8 315.1 315.9 317.6 320.3 322.6 325.1 327.6 330.5 331.9 334.7 338.7 347.7 359.7 369.6 377.9 380.8 383.3 385 388.5 390.6 392 390.6 389.9 388.9 389.8 390.4 391.5 394.9 395.7 396 396.7 395.8 396.1 395.5 394.9 391.8 389 383.7 377.3 370.5 366.9 367.9 369.1 370.6 377.3 383.4 385 389.4 389.1 388.2 386.2 384.2 382.3 382.2 381.8 381 378.5
330.6 326.8 323.5 320.1 315.9 311.9 307.4 311.6 312.1 309.1 307.1 307.9 307.4 307 306.5 305.3 306.9 310.1 311.5 313.4 314 313.2 312.4 311.5 310.9 309.5 307.9 306.6 303.2 302 297.4 293 290.1 287.4 285 282 280 277.7 273.6 272.7 273.4 271.9 269 265.7 267.9 267.7 266.5 264.8 262.7 260.7 258.1 252 257.3 257.6 258.4 256.7 253.8 252.1 250.9 250 249.1 248.5 248.1 246.3 242.6 238.2 232.8 230 228.7 226.6 220.6 210.5 217.8 214.8 207.6 198.3 195.5 193.3 191.9 192.9 194.9 195.2 193.9 187.1 187 186.9 186.8 186.3 186.1 185.9 186 185.4 185.4 188.8 190.2 192.4 194.7 192.9 195.9 199.9 209.4 214.7 218.7 221.5 223.7 226.2 228.4 230.5 229 230.3 232.2 237.6 244.2 254.9 262.3 261.8 257.9 252.1 240.8 235 233.6 231.4 232.4 233.9 226.7 207.9 215 232.4 241.9 250.8 259.1 271 270 277.4 276.2 280.7 286.6 293 299.3 306.2 313.8 317.3 318.4 320.8 322.1 323.8 325.4 327.8 329.9 332.1 334 336.7 339 343.3 349 356.2 367.4 374.8 378.4 383.3 385 388.4 390 390.1 388.1 386.9 384 384.2 384.2 386 389.2 390.1 390.4 390 389.3 390.7 392.4 391.2 388.2 385.2 381.2 376.2 369.4 363.9 363.5 364.3 365.7 369.9 375.6 377.3 383.2 384.9 384.5 384.3 383.1 381 380.8 379.9 379.2 378.2
333 329.4 325.9 322 317.6 313.1 309.7 314.7 316.1 313.3 311.5 311.8 311.4 311.2 310.7 310.2 312 313.7 315.3 317.3 317.2 316.3 315.8 315.6 315.3 312.9 310.2 307.2 304.6 301.4 297.3 293 289.4 286.9 284.1 281.7 279.9 277.9 276.1 273.5 273.7 271.8 268.7 268.8 269.1 268 266.6 264.8 262.4 258.7 258 256.1 259 259 259.9 258.3 257 254.9 252.8 251.6 250.3 249.6 248.8 246.2 241.7 237.3 230.9 228.7 227 225 221.6 214.4 206.4 207.6 199.7 194.4 191.9 190.2 189 188 188.6 188.7 187.2 187.3 187.2 186.9 186.2 185.5 185.4 185.4 185.4 185.4 190.4 193.3 193.9 199.2 200.9 202.9 198 205 213.2 217.1 221.5 225.6 227.6 229.9 232.3 232.8 232.6 232.9 235.1 239.6 247.6 258.9 265.4 266.1 263.4 257.8 248.6 237.5 237 233.5 233.7 235.3 228.1 210.1 212.4 232.4 242.5 252.8 261.3 272.3 275.1 281.2 282.6 285 291.5 293.4 298.9 306.7 315.5 320.7 322.7 326.2 327.8 330 331 332.8 334.9 336.8 338 339.7 343 346.4 350.9 359.7 368.2 374.4 377.2 381 383.4 386.3 387 386.4 385.2 382.9 379.9 377.3 377.5 379.7 383.5 384.7 384.6 383.8 383.1 386 388.6 387.8 383 381.2 378.7 373.7 367 362.9 357.3 359 360.7 364.9 368.3 371.8 377.3 378.9 380.6 381.3 381.1 379.5 378.8 378.4 378 377.2
335.9 332.3 328.6 323.4 319.2 313.6 316.3 319.3 318.1 316 317.4 317.6 317.2 316.9 316.1 309.9 316.1 318 319.5 320.4 320.3 319.5 318.7 318 317.3 315.1 312.5 309.6 301.7 300.5 298.3 293.7 290.1 287.1 284.3 281.8 280.3 278.7 276.3 274.8 274 271.9 268.9 267.9 268.9 267.9 266.5 264 261.9 261 257.2 259.4 260.6 260.4 260.1 259.1 257.5 256.2 254.2 253.2 251.5 250.2 248.7 245.5 240.8 235.9 231.4 228.3 224.7 222.3 219.1 215.5 206.6 197.7 196.2 192.6 189.8 188.2 187.7 187.4 187.1 187.9 186.6 187.1 186.5 186.1 185.7 185.4 185.4 185.4 185.4 188.7 196.6 198 198.5 204.5 208.4 212 211 204.4 219.4 221.6 224.5 227 230.1 227.2 234.7 234.9 234.1 235.7 237.7 240.9 247.9 257.4 265 267.6 267.4 263.5 255.4 242.3 237 235.5 237 239.2 234.7 212.8 219.2 233.5 243.9 254.9 264.3 272.8 278.5 285.2 285.9 287.1 294.8 297.7 304.3 309.8 317.7 324.1 328.1 331.9 334.3 335.2 336.1 337.8 340 341.6 342.9 345.3 348.4 350.5 353.7 358.7 367.1 373 375 378.1 380.8 380.9 382.7 383.8 381.8 377.4 373.9 370.6 371.5 373.2 376.8 378.6 378.6 377.8 377.6 379.8 382.5 381.9 378.2 376.1 374.2 369.9 365.2 360 355.7 353.2 356.2 359.8 362.8 367.5 371.4 373.5 375.9 377.3 378.4 377.6 377 376.9 376.5 375.8
338.5 335.2 330.5 325.4 320 318.8 322 324.5 324.1 322 323.7 323.4 322.8 322.1 320.8 317.8 320.8 322.5 323.8 324.5 324.2 323.5 322 320.4 319.5 317.2 314.5 311.4 307.1 302.9 298.5 294.2 291.2 287.9 284.5 281.9 280.6 279.2 277.4 274.1 274 271.8 269 268.1 268.2 267.4 266.5 263.7 262.4 261.6 257.6 261 261.6 260.9 259.6 258.7 257.9 256.7 255.5 253.4 251.5 249.9 248.4 245.1 240.5 233.8 230.4 228 224.6 220.4 214.9 210 203.4 195.5 192.5 190.6 188.5 187.6 187.2 187.2 187.7 187.1 186.9 187.1 186.6 186.4 185.8 185.5 185.4 185.4 185.4 196.2 201.6 203 206.5 210.8 214.3 216 215.1 215 222.8 224.9 227.5 229.6 229.7 226.2 230.4 234.2 232.8 236.9 241.8 245.3 249 254.5 263 268.4 270.3 267.9 261.4 248.6 243.2 238.9 237.8 241 239.8 214.4 222.1 233.9 240.6 248 264.2 272.3 279.8 287.8 288.8 289.7 294 298.7 305.7 310.7 320 327.5 333 337.7 339.9 341.1 341.8 343.3 345.1 346.4 348.8 351.2 354.7 356.1 358.1 361 364.9 369.7 373.3 375.7 375.8 376.5 376.6 377.7 376.6 370.9 368.1 365.2 364.1 366.7 368.9 371 373 373.3 373.8 375.5 376.8 374.6 371.1 370.5 369 365.7 361.5 357.6 352.8 347.6 350 354.5 358.1 363.9 368.1 369.8 371.3 373 374.6 374.5 373.1 373 373.7 373.1
341.8 338.1 332.8 327.5 322.1 322.6 326.6 330 329.2 326.9 329 329.7 328.1 326 319.1 323.2 325.1 326.6 327.9 328.4 327.5 326.7 325.3 323.8 322.3 320.3 316.8 313 308.4 304 299.3 295.3 291.6 287.8 284.8 282.3 281 279.6 277.7 274 272.8 271 269.3 268.4 267.5 266.5 266 263.9 262.5 261.4 259 262.9 260.8 260.4 259.1 258.2 257.4 256.6 254.9 253.3 251.4 249.6 247.4 244.6 237.7 232.4 228.2 224.9 221.7 216.5 212.1 202.9 197 191.6 190.3 186 185.5 185.5 185.5 187.7 187 186.7 186.6 187.1 186.9 186.9 187.1 187.1 186.1 187.3 194.6 199.9 205.3 209.2 213.1 216.3 219.6 219.3 214.8 213.7 224.9 227.6 229.9 231.3 226.2 226.2 226.2 226.2 227.2 232.7 244.5 251.2 254.5 258.8 263.8 269.8 272.7 272 267.2 255.6 246.7 244.1 240 245.4 242.4 215 220.8 236.3 246.2 258.3 269.1 268.9 280.2 288.9 290.4 292.4 293.7 299 305.8 310.6 321.2 331.1 338.8 342.9 345.3 345.7 347.8 349.1 350.4 352.4 354.6 357.5 361.2 362.6 362.4 364.2 367.1 371.6 374.3 373.1 371.2 371.5 371 371.8 369.8 363.4 360.7 357.8 356.1 359.1 361.1 364 366.6 368.8 369.8 370.9 371.1 370.2 367.8 366 363.9 361.1 357.6 353.5 349.5 346.7 342.8 347.3 352.4 358 363.5 366.2 367.2 368.7 370 370.1 368.4 367.8 368.5 369.7
345.2 340.8 335.5 330 325 328.3 333.5 336.7 335.7 332.1 333.8 334.2 333.2 329.4 326.3 327.4 328.8 330.5 331.9 333.2 331.9 330.7 329.4 327.8 325.6 323.5 319 314.4 309.3 304.9 300.9 296.3 291.7 288.2 285.3 283.2 281.6 280.1 278.2 274.3 272.7 271.3 269.6 267.7 266.8 266.1 264.7 264 262.7 258 262.4 263.6 261.5 259.7 258.7 257.6 256.8 255.6 253.8 252.3 251.1 249.2 245.7 240.9 235.6 230.5 225.1 221.7 220.1 213.2 205 199.5 193.5 189.9 187.6 187.7 187.1 187.5 187.2 187.6 187.3 187.1 187.4 191.5 197.9 193.5 191.5 195.7 197 195.5 198.7 205.3 209.9 214 217.7 221.4 223 221.6 219.6 212.9 225.7 229 231.2 227.9 226.2 226.2 226.2 226.2 226.2 230.6 243.6 251.8 260.4 264.5 268.4 272.8 275.5 275 270.4 262 252.3 246.9 243.6 248 245.5 227 216.2 235.6 247.3 259.5 271.9 279.9 279.6 287.2 288.4 291.8 296.4 298 303.5 309.9 321.1 334.3 344.7 349.7 350.7 351.7 353.9 355.8 357.7 360 362 364.1 366.4 367.9 366.9 367.1 370.2 373.4 376.4 373.6 367.3 366.7 365.2 365 362.3 356.7 352.8 350 351.1 352.1 354 356.2 358 363 364.7 365.4 365.1 365.1 364.3 362.5 359.3 356.1 353 348.7 345.4 341.2 335.4 340.8 344.9 351.7 357.7 361.6 362.7 364.1 364.7 363.1 362.2 362.1 364.5 366.2
347.8 343.5 338.1 332.2 329.1 332.4 337.1 339.8 339.4 336.2 338.9 338.6 337.8 336 332.8 329 332.1 334.2 336.1 337.1 336.7 335.5 334.3 332.5 329 325.5 320.5 315.8 310.9 305.9 301.2 296.3 292.6 288.8 286 283.4 281.7 280.1 278.5 273.6 274 269.2 267.7 266.9 266.6 264.7 262.1 260.8 259.2 261.6 263.9 262.7 261.2 259.6 258.4 257.2 255.7 254.5 253.5 251.2 249.3 246.5 242.5 237.5 233.4 228.2 222.9 217.1 212.9 207.6 200 195.3 189.7 187.6 187.7 187.4 187.2 187.1 186.8 187.3 187.3 191.9 191.5 193.1 192.3 191.4 193.1 196.4 201.7 199.5 205.7 209.7 214 218.1 221.7 224.7 224.8 223.6 216.8 217.4 225.7 230 228.8 226.2 226.2 226.2 226.2 226.2 226.2 231.3 240.9 248.9 259.1 267.2 272.6 276.3 276.1 278.5 274.9 266 256.6 249.2 249.2 244.7 247.9 230.3 216.8 236.8 247.5 260.5 272.2 281.9 290.9 296.8 298.5 293.9 296.2 299 302.5 310.1 320.7 334.1 348 353.9 356.1 358.6 362.4 364.2 365.4 367.5 368.9 370 372.3 373.6 370.6 368.6 369.7 372 373.5 371.8 366.3 361 359.7 358.9 356.2 351 345.7 342.8 342.9 344.7 346.5 349.9 352.7 356.1 358.7 359.4 359.3 360 359.8 358.4 355.6 352.1 348.5 345.4 341.1 338 333.4 333.1 338.2 342.8 349.4 354.2 356.7 357.1 355.8 354.5 355.3 356 359.8 361.9
350.2 345.6 340.4 334.3 333.6 337 340.5 345.1 346 341.6 343.6 343.8 343.7 341.7 338.6 335.7 334.2 338.4 340.2 342 342.2 340.5 339.1 336.5 332.7 328.1 323 317.8 312.2 307.4 302 298.1 294.6 290.6 287.5 284.2 281.8 279.9 278 274.5 270.2 271.4 269.7 267.8 267 267 264.9 262.2 259 262.9 262.9 261.8 260.8 259.5 258.5 256.9 255 253.4 252.8 250 247.8 243.5 239 233.9 228.8 225.9 221.2 216.2 207 203.3 196.5 192.8 188.3 185.5 187.8 187.5 187.1 186.8 186.9 187.1 188.2 189.5 190.7 191.7 192.7 193.4 200.8 202.1 201 201.8 204.2 211.7 216.4 220.2 223.9 226.5 226 225.5 212.7 224 228.7 231.6 226.4 226.2 226.2 226.2 226.2 226.2 226.2 230.4 237.8 244.9 254.8 264.2 271.5 277.6 280 281.9 280.6 272.7 261.6 254.2 250.6 246.8 249.9 228.6 223.3 238.3 249.6 260.6 272.2 282.6 292 301.1 302.1 302.8 295.8 301.9 304.4 310.1 319.1 329.7 346.5 355 359.7 363.2 368.5 370.9 372.3 374 375.4 376.4 377.7 377.7 373.2 368.7 369.1 367.9 368.6 367.1 364.8 360.2 355.6 351.5 350.5 346.3 340.1 334.8 335.6 336.1 340.3 344 345.9 349.3 351.8 352.4 352.6 353.9 354.2 353.2 351.1 348.5 344.3 342.5 339.3 335.8 332.3 326.3 330.6 334.6 338.3 343.5 346.3 347.8 349 348.7 349.7 351.8 355.4 357.4
354.8 347.2 341.9 338 338.3 341.9 347 351.7 352.7 345.8 348.8 349 349.3 347.2 344.3 342.2 341.3 339.9 344.1 347 348.7 347.3 344 340.4 335.6 330.7 325.1 320.7 312 308.1 303.2 298.5 295.1 292.1 288.3 284.8 281.5 279.1 276.5 272.3 273.4 273.8 271.7 269.7 268.8 267.5 265.4 261.9 262.5 263.8 262.8 261.7 260.7 259.6 258.5 256.6 254.7 253 250.6 246.6 241.5 236.3 233.6 229.6 222.5 220.8 216.5 208 201.8 199.2 191.3 190.2 188.2 187.8 187.8 187.5 187.1 187.9 191.2 190.2 188.7 188.6 193.9 194.6 197.3 202.9 204.1 203.1 202.8 204.4 207.9 213.9 218.5 222.2 225.7 228.1 227.7 226.8 221.1 228.1 232.4 232.2 228.5 226.2 226.2 226.2 226.2 226.2 226.8 229.3 234.6 241.2 250.9 261.2 270.4 278.9 281 283.8 283.8 279.5 266.6 259.8 254.8 249.5 252.9 229.2 226.8 238.8 248.7 262.3 273.4 283.3 292.7 302.2 305.6 307.2 305.6 305.1 306.3 311.7 318.3 327.2 343.6 354.9 362.5 366.5 370.9 373.7 376.3 377.8 379.6 380.9 380.9 379.3 374.3 369.7 366 365.1 365.4 365.1 363.8 359.3 353.4 348.3 345 340.6 336.9 333.4 329.1 329.8 333.1 334.9 339.1 341.5 344.4 345.4 346.7 347.1 347.5 346.9 345.6 343.2 340.1 338.7 335.8 332 328.6 324.1 323.3 328.6 331.9 335.3 338.6 341 342.6 343.2 345.1 347.6 350.3 352.3
359.4 350.6 344.5 343.9 345 349.3 354.9 359.8 358.9 353 356.6 356.7 356.5 354.9 350.4 348.5 347.9 346.9 349.5 352 354.3 353.5 349.2 345.1 339.9 334.7 327.9 322.1 314.1 309.7 306 300 296.1 292.8 288.3 284.8 281.3 278.2 273.3 276 276.8 274.7 272.4 270.2 268.6 267.4 264 260.6 262.4 262.3 262.2 261.8 260.8 259.7 258.2 256.3 253.8 249.8 245.9 241.9 237.5 233.4 229.4 226.1 219.8 214 211.3 203.4 197.9 186.6 186.6 190.3 187.1 187.2 187.8 187.6 190.3 190.9 191.5 191.8 190.2 189.5 193.2 197.5 203.6 205.6 205.8 204.5 204.4 209.6 213.8 218.7 221.1 224.8 227.2 229.7 229.6 226.9 227.6 229.5 232.6 233.5 235.7 228.6 226.2 226.2 226.2 226.2 226.2 227.1 230.6 239.2 250.1 260.2 271 278.6 282.3 284.4 286.2 284.2 273.7 265.2 258.3 256.2 251 236.2 222.8 238.9 248.8 261.4 274.6 286 294.8 304.9 309.2 313.3 311.5 304.4 310.2 313.5 319.4 327.6 341.8 351.8 361.4 367.1 370.3 374.2 378 380 382.5 383.6 382.2 378.3 372.9 369.6 365 363.4 365.2 364.3 363.6 359.1 353.4 349.3 345.3 340.6 334.8 332.6 329.1 325.7 326.5 327 329.9 334.2 336 337.4 339.2 340.1 340.3 338.3 339.4 337.2 335.5 334 331 328.5 325.7 322 317.4 324.5 326.4 329.4 334 336.9 338.3 340.2 342.1 343.9 346 346.9
362.3 352.6 350.8 349.3 350 356 362.3 366.9 367.6 359.3 363.5 366.2 365.6 362.9 357.5 354.5 352.4 351.8 354.6 358.7 360.7 359.2 353.3 347.9 342.4 335.4 329.5 323.9 317.4 310.6 305.8 301.9 297.3 292.6 288 284.3 280.5 275.6 277.8 278.3 276.9 274.5 272.3 270.2 267.1 265.4 262.8 260.9 261.4 262 262.1 261.2 260.5 259.6 257.8 254.9 250.7 245.1 240.6 238 233.9 230.4 228.6 223.2 218 213.6 203.9 202.1 196.6 186.6 186.6 187.8 187.6 187.7 187.6 191.8 192.2 192.2 191.5 190.9 190.9 190.9 191 195.3 201.5 206.4 205 205.2 209.3 214.6 217.2 220.5 223.8 227.4 229.6 231.5 230.8 227.5 229.8 230.6 232.6 236.2 240.8 242.2 229.7 227.6 226.2 226.2 226.2 229.6 236.7 245.7 255.1 264.7 273.8 282.5 285.7 287 289.5 288 281.1 269.2 261.1 260.9 252 245.5 222.1 237.1 245.7 262.5 276.4 288.1 296 307.4 312.3 315.2 313.4 311.2 311.2 315.3 320.3 328.1 339.9 350.4 358.3 364 370.2 373.6 376.9 380.7 382.5 383.5 380.8 376.2 371.2 367.5 362.3 361.9 364.6 363.2 361.5 357.4 354.9 350.2 345.6 339.5 334.5 331.2 328.2 324.3 322.1 322.4 323.6 327.6 328.2 330.2 331.1 332.5 333.3 331.8 332.3 330.6 329.7 328.3 326.2 324.5 322.4 319 313.1 319.4 321.6 326.4 330.6 333.5 336.3 338.8 340.4 341.1 341.6 341
362 360.8 358.1 356.4 356.2 362.2 369.2 374 375.9 374.9 369.3 370.7 370.9 367.2 364.1 358.6 356.3 355.6 360.3 365.7 368.2 364.9 360.5 353.8 346.3 338.5 330.8 323 316 310.3 306 301.5 297.8 293.5 288.2 283.9 280.1 276.3 279.1 278.8 276.7 274.3 271.6 267.9 264.9 264.8 262.8 261.2 261.1 261.4 261.7 260.5 259.3 257 255.7 251.2 245.6 240.7 236.6 233.4 230.7 227.8 224.9 221.1 215.9 210.1 202.1 198.7 196 188.9 186.6 188.6 188.5 190.3 190.7 191.8 192.3 191.3 190.9 191.7 190.9 190.9 190.9 193.2 198.5 204.4 204 208.2 215.9 216.4 219.2 222.7 225.7 229.6 232 233.6 232.8 231.2 230.9 234.7 236.1 239.8 243.7 248.1 249.6 243.6 229 227.2 230.8 239.8 249.2 258.5 267.2 274.2 281.6 285.7 292.8 294.7 293.8 291.5 285.2 273.4 264.3 263.9 253.2 249.6 230.9 232.7 245.7 259.4 276.3 288.6 299.4 310.2 315.1 317.8 315.6 313.9 315.5 316.5 322.5 329.2 338.3 347.3 355.2 362.4 369.5 373.6 375.4 378.2 380.1 380.6 377.1 372 367.6 363.3 358.9 359.1 362.3 362.7 359.8 356.1 353 349.6 345.8 340.9 336 332.3 328.5 324.7 321.7 319.6 318.4 321.3 321.7 323.4 323.5 325.8 325.7 326 325.8 324.9 323.7 322.4 321.4 320 318.5 316.4 310.8 314.2 319.4 323.5 327.2 331.9 335.3 337.6 338.2 338 337.6 335.6
377.6 372.1 369.3 365.2 361.6 367.5 372.2 378.8 382.8 381.1 377.2 378.3 377.7 374.8 367.8 360.7 359 358.8 362.9 370.4 373.1 370.4 364.5 357 349.3 341.6 332.7 324.6 317.3 311.8 306.3 301.6 296.9 293.3 289.8 283.9 278.6 276.9 279.1 278.7 277 273.9 268.6 267.9 269.2 267.6 262.1 260 259.7 260 259.8 259.8 257.4 255.2 251.5 246.9 241.4 236.8 233.2 230.7 228.1 225.6 222.3 219.7 211.9 205.2 199.2 198.1 196.4 192.9 186.8 188.3 188.7 189.8 190.8 191.9 191.6 190.9 190.9 190.9 190.9 190.9 194 196.5 198.8 201.3 206 210.5 218.1 219.5 221.1 224.4 227.8 232 234.4 235.1 234.9 233.7 233.4 236.8 239.1 244.2 244.6 250.4 254 253.9 254.7 232.5 242.6 252.8 261.8 270 277.4 282.9 288.2 293.3 302 306.1 302.8 295.9 287.3 277.9 270.5 264 254.3 252.9 237.6 229.6 243.1 258.3 276.3 293.2 303.5 312.6 317 317.5 316.2 317.9 318 321.3 325.4 329.4 335.7 342.6 352.3 360.8 367.4 371 372.6 373 374.1 372.8 370.3 364.7 360.2 356.7 355.7 356.3 359.7 362.5 360 355.6 351.6 349.9 348.1 343 338.5 334.5 330.2 326.1 322.9 320.4 317.9 316.1 314.6 316.1 316.4 318.9 319.1 319.6 320.1 319.3 318 317.2 316.1 315.4 313.9 312.1 308.4 310.4 314.7 321.3 327.8 330.7 333 335.1 336.4 334.7 332.3 329.5
386.3 384.6 381.2 375.4 365.5 369.6 374.9 384.5 390.4 388.2 383.8 384.5 383.2 380.1 376.8 370.3 365.7 363.7 365.3 372 374.8 372.6 367 359.3 351.9 343 334.7 324.8 317.2 311.8 307.2 302.3 297.9 293.2 285.4 280.4 278.5 278.3 279.2 278.2 275.7 271 269 270.6 271.9 266.3 259.2 255.3 257.6 257.5 257.6 256.8 253.6 249.8 247.1 242.4 237.8 233.7 229.8 227.3 226.5 222.7 220.7 217.1 210.9 202.3 194.2 194 192.2 188.8 188.9 188.2 188.2 191.3 191.1 192 191.9 190.9 190.9 190.9 191.1 192.8 195.9 199.8 203.2 205.6 209.3 212.5 216.3 219.5 222.4 226 229.6 234.3 236.3 238.5 238.3 236.9 236.2 237.1 241.9 250 247.5 250.7 254.4 257.7 258.6 259 256.2 264.8 272.1 280 285.2 289 294.5 304.8 313.2 317 312.4 300.7 290.9 281.1 274.9 265.9 258 254.5 242.2 225.8 242.8 257.7 275.1 293.5 309.4 317.6 320 318.6 318.6 320.9 320.8 325.5 327.2 329.4 331.4 339.3 347.8 356 363.5 367.4 367.1 366.9 366.2 364.1 361.5 356.9 353.7 352.6 352.8 354.6 358.5 361.1 360.1 356 352.4 351.3 349.8 345.9 341.6 337.4 333.1 328.5 324.8 322.4 320 317.9 315.7 312.3 309.2 310.8 312.9 313.8 313.1 312.6 311.6 311.1 310.6 310 309.3 307.3 303.8 307.3 313.5 319.1 324.8 328.2 330.7 332.5 333.6 330.7 326.2 323.3
394.9 392.1 388 384.2 379.1 376 379.8 388.2 396.3 394 387.8 388.3 387.4 385.1 381.2 373.3 372.1 367.9 367.6 371.3 372.9 371.4 367.2 359.4 352.8 343.9 336.1 327.4 317.7 310.2 306.5 302.9 298.4 292.5 285.4 282.3 280.1 279.7 279.5 278.1 272.4 270.6 270.4 271 271.1 264.2 259.3 253.6 254.8 254.4 253.6 252.4 249 245.4 242.7 238.7 235.5 231.2 226.4 224.3 217.9 217.1 214 215.9 207.8 196.1 191.6 189.3 188.4 188.7 189.2 188.5 188.9 193 192.2 190.9 190.9 191 191.5 190.9 194.1 197.2 201.9 203.4 206.9 208.4 212.1 218 219.4 220.8 224.2 227.4 231.9 235.2 239.5 239.3 239.3 241.8 241.6 241 242.8 246.3 254.2 253.2 255.8 259.4 262.4 263.7 270.7 275.3 282.3 286.7 293.9 296.7 305.9 315.7 322.9 326.1 319.1 307.3 295.1 287.9 279.4 267.8 262 255.4 247.1 229.2 241.1 257.4 275.8 292.1 306.7 317.1 322 319.6 321.7 324 324.2 324 326.7 328.4 330.6 333.8 342.6 348 355.9 361.6 362 360.1 356.5 353.4 352.1 350.1 349.1 349.6 350.9 352.6 355.6 358.5 357.9 353.6 353.7 353.7 351.7 347.5 343.4 339.3 335.6 331.9 328.3 325.6 323.1 320.2 317.3 314.2 312.5 309.8 305.1 306.3 305.7 306.4 306 305.7 305.1 303.4 303.1 302.2 299.3 306.4 310.7 316.1 322.1 324.7 326.8 328.3 327.7 324.2 320.3 317.3
404.4 402.1 399.5 394.4 387.5 382.2 387.4 393.7 398.3 397.9 392.1 392.9 391 387.9 385.8 378.5 376.4 373.1 369.3 369.5 368.7 367.4 363.4 359 352 343.6 336.6 328.2 319.9 312.2 307 302.2 297.1 291.8 284.9 283.9 280.8 280.7 279.8 277.5 272.6 271.6 272.3 274 267.1 263 263.3 258 252.5 250.9 250.1 248 245.9 243.1 239.7 235.8 232.4 228.8 222.1 224.7 222.3 213.5 206.6 208.4 201.1 194.9 191.7 188.7 188.6 188.8 189.4 188.6 189.8 192.7 191.8 190.9 190.9 190.9 190.9 190.9 197.9 203.4 204.9 205.2 208 210.5 214.3 219.5 222.2 223.3 225.8 228.5 233 237.2 241.7 241.2 242.2 242.4 243.9 245.3 243.3 249.2 250 254 258 261.3 265.2 269.7 274 282.6 287.9 294.7 299.3 307.9 317.5 325.6 330.5 331.2 325.2 314.2 300.4 290.1 281.1 270.5 264.7 255.8 246.8 228.2 240.4 257.5 274.8 292.1 306.9 316.6 321.3 321.7 323.4 328.5 329.6 330.1 325.2 326.6 327.8 328.8 334.9 340.1 345.4 350.9 353.5 350.4 347 345.1 345 344.7 344.1 348.8 351.4 353.5 354.4 354.1 354.1 354.3 357 356.3 354.3 351.5 346.9 341.5 337.6 335.2 332.5 329.8 326.8 323.5 320.3 317.1 314.8 312.5 309.8 306.5 302.5 300.5 299.8 299.7 298.7 298.5 297.7 297.5 298.1 302.2 307.1 312.3 316.9 317.9 320.3 321.6 320.1 317.1 313.7 316.1
413.1 412.1 409.4 404.1 396.5 391 392.6 396.8 398.9 398.7 396.8 397.6 395.3 389.9 386.9 384.4 381.8 378.8 373.8 370.7 368.3 364.5 359.7 354.7 348.6 342.6 336.5 328.4 319.1 312.2 305.9 301.5 297.2 289.5 285 282.9 281.6 280.2 278.9 274.9 275 280.3 282 274 266.8 268.2 267 262.5 247.7 246.2 246.8 245.6 243.9 241.4 238.2 233.9 229.7 225.3 227.5 226.3 222.5 216.5 207.7 200.6 197.4 194.4 190.5 188.8 188.7 187.3 189.2 188.9 191.5 193.4 191.9 191.8 192.3 190.9 190.9 193.8 202.1 207.5 205.2 204.9 208.2 211.1 215.9 221 223.4 224.7 227.2 229.2 233.3 239.5 243.8 244.1 243.1 244.2 246.3 246.4 248.3 249.6 252.9 255.3 260 264.9 268.4 272.7 279.7 288.1 295.3 300.1 308.7 318.5 327.2 333.8 335.3 334 328.7 316.4 302.3 294.8 283.5 274.6 265.1 256.3 248.2 228.1 234.9 254.6 272.6 288.7 304.9 313.3 318.3 323.6 327.5 329.5 331.3 333 332.5 328.1 326.7 323.8 326.8 331.6 334.2 340.2 341.7 340.9 338.7 339.5 339.7 338.9 345.2 349.8 352.6 354.1 355.2 354.8 355.4 357.8 361.2 360.9 358.3 355.2 352.2 347.2 342.2 338.8 336.8 334.3 331.2 327.4 324.1 321.4 318.4 315.2 312.2 309.3 306.5 304.3 302.2 299.8 297.3 296 295.6 295.7 296.4 298.6 303.3 306.2 308.3 309.9 312.1 313.1 313.4 312.8 309.8 314.6
420.5 419.8 417.5 412 405.2 398.2 397.2 398.7 399 396.7 401.7 400.3 398.1 395.2 390.8 386.9 385.3 383.4 377.3 374.1 369.1 362.2 356.6 350.6 342.5 334.8 331.5 326.2 314.7 308 302.7 302.3 292.8 289.3 285.1 283.4 281.8 280.1 276.6 275.8 274.3 287 283.3 267.5 267.4 269 266.7 262 247.9 237.6 243.1 243.6 241.8 239.4 236.4 231.8 230.4 229.8 226.5 221.6 217.6 211.7 204.9 202.4 198.5 191.9 188.5 188.4 187.1 188.8 188.8 189.8 190.6 192 191.6 192.2 193.1 193 194.7 202 204.5 204.8 205.2 205.8 208 211.3 215.8 220.4 223.5 225.6 226.4 229.9 234.4 242.3 246 246.2 245.4 247 249.6 250.9 251.5 252.4 255.4 258.8 262 267.3 272.4 276.5 286.1 295.5 302.4 307.1 317 327.3 334 336.8 336.2 334.9 331 316.5 305.7 297.6 288.7 277.1 269.6 257.3 251.7 244.7 231.2 251.4 269 284.8 298.4 308.8 315.9 322.3 330.2 333.8 332.7 333.1 334 326.9 323.4 320.4 321.1 326.3 327.5 329.7 331.1 332.5 333.9 334.6 333.7 339.9 345.6 350.8 353.8 355.6 356.7 356.8 357.8 361 365.6 366 363.2 359.3 357.1 353.5 347.2 342.8 340.3 338.1 335.7 332.7 328.3 325.1 322.5 319.3 315.9 312.2 309.4 306.5 304.2 301.5 299.6 297.4 294.1 294.7 294.8 294.3 295.8 299.1 302.1 304.1 304.8 305.3 306.5 305.7 309.3 312.8
428.5 428.4 425 419.6 413.4 406.6 402.3 400.6 400.6 400.6 402.2 401.1 399.4 397.3 393.2 391 389.6 385.3 379.2 374.3 369.2 363.1 355.3 348.6 342.5 337.8 332.6 325.7 318.4 309.7 309.6 304.7 297.7 289.5 286.6 283.7 282 279.2 277.6 275.7 273.2 286.6 277.1 266.4 268.2 267.6 264.8 260.6 254.3 237.1 236.8 239 237.3 236 234.7 233.2 231.7 228.2 223.5 218.5 215.1 204.9 203.6 204 192.4 189 188.5 187.8 188.8 188.9 188.8 189.2 189.5 190 191.5 192.5 193.4 193.7 196.8 205.9 205.2 204.2 205.2 208.6 210.8 213.4 216.8 221.4 223.4 225.5 227 231.7 237 245.3 248.5 248.1 248.1 249.8 252.9 253.9 255.3 256.2 258.5 263.1 267.1 268.6 275.3 280.9 293 302.1 309 314.1 324 333.4 338.1 339.7 337.3 335.4 325.8 314.4 310.8 304.9 294.7 282 270.7 260.3 255.8 245.1 232.1 246.9 263.7 280.6 293 302 312.1 324.8 334.1 337.2 335.9 333.3 332.7 325.7 319.3 317.1 318.5 320 321.4 322.4 324.1 327.9 330.6 331.6 334.5 340 346.5 351.9 355.4 357.7 358.9 359.6 361 364.7 370.4 371.6 368.6 365.7 363.8 359.1 352.4 347.4 343.4 341.2 339.3 336.4 332.8 328.3 325.6 323.3 319.7 315.7 312.2 309.1 306 303.4 301.2 299 296.7 292.7 293.2 292.4 292.1 293 295.9 297.3 298.7 300.2 301.5 302.7 308 310.9
435.2 435 431.3 425.1 420.8 412.8 406.4 403.2 401.9 401.4 400.9 400 399.1 398.2 395.8 393.6 392.5 387.3 381.7 377.5 370 362.3 355.5 347.6 341.3 336.3 330.8 324.3 320.8 315.4 310.9 302.8 295.1 290.4 287.4 283.8 281.7 279.3 278.6 274.8 272.5 270.3 266.2 262.5 265.7 263.9 261.1 259.8 256.4 252 234.6 221.4 215.5 214.5 214.6 224.6 226.8 225.3 220.8 217 210.3 204.1 199.7 193.2 189.7 189 188.6 188.7 189.1 189 189 189.2 188.3 189.7 192.6 193.5 193.7 194.4 197.6 206.3 203 204.2 206.4 209.9 212.3 215.8 218.5 221 222.6 225.6 229.9 234.3 240 248.2 251 250.6 251.1 253.3 256.7 257.6 259.4 260.3 260.8 265.8 269.9 274.2 278.4 283.2 294.2 306.7 315 322.4 330 337.1 341.3 340.5 338.3 330.5 317.9 318 314.6 308 297.4 285.9 272.3 263.2 257.5 249.1 235 244.8 258 275 287.2 296.6 310.5 328.3 335.1 339.6 338.2 335.8 329.7 320.9 315.5 313.7 314.7 315.5 316.5 318.6 320.6 323.4 326.5 331.4 334.7 340.1 346.8 353.3 357.9 360 361.7 362.5 364.3 367.3 373.1 374.2 372.3 369.1 366.9 362.5 356.1 350.9 346.5 344.5 343.5 341.1 337.7 333 330.2 327 323.2 319.3 314.8 311.3 308 305.7 303.5 300.9 298.4 296.3 294.1 292.5 290.9 290 290.8 291.8 293.8 295.9 295.1 300.7 306.1 308.2
437.7 438.9 435.9 430 425.9 420.4 412.1 405.7 403.3 401.2 400.1 397.9 396.9 397.8 397.2 396.1 393.7 389.4 382.5 378.6 371 361.9 356.3 348.4 342.2 336.3 331 325.5 320.8 317 311.2 304.7 295.6 288.7 286.1 283.3 281 278.6 277.1 274.6 272.8 268.7 266.3 268.7 267.2 263.7 258.1 254.9 253.6 251.4 247.6 240.9 236.9 235.1 227.8 218.7 212 210.7 218.9 212.4 204.9 200.1 193.3 191.3 189.7 189.1 188.8 189 189.5 189.2 189.3 189 189.4 192.5 195.3 198 198.7 195.6 201.1 202.7 204.8 204.9 206.8 209.6 213.8 217.4 221.3 224.1 226.3 228.7 231.7 236.2 243 251.1 253.5 252.9 254.2 257.5 260.9 261.7 263.2 264.6 265.6 269.2 273.5 278 283.7 286.6 298.1 309.8 318.6 325.4 332.4 338.3 341.2 337.8 329.6 320.6 320.4 319.2 315.1 310 302 289.5 276.2 265.5 258.4 251.8 233.2 239 253.6 269 283 291.1 304.2 322.7 334.6 336.9 336.8 329.8 322.6 313.2 308.1 308.7 311.6 314.4 313.8 317.8 320 322.5 326.9 330 333.2 339.7 347.2 354.4 359.4 362 364.1 365.9 367.2 368.4 372.2 373.5 372.2 368.8 366.6 363 357 353.5 350 347.2 345.8 343.7 340.6 336.1 332.3 329 325.9 322.8 318 314.1 310.8 308.5 305.3 302.7 300.3 298.3 296.5 294.9 293.4 291.1 288.8 289 289.3 289.9 293.3 297.7 303.7 305.1
438.5 441.4 439.8 434.8 430 420.3 417.8 409.9 404.9 400.6 398.2 394.9 393.6 395.9 396.4 395.3 393.1 388.9 384.3 377.4 370.2 363.2 354.9 348.6 341.2 336.4 330.8 325.4 321.1 317.1 311.9 304.4 293.4 289.6 286.5 283.2 280.6 278.8 276.6 273.7 271 269.5 268.5 269.3 266.7 261.7 255.7 250.8 248.1 245.9 243.3 238.8 234.3 229.7 225.5 230.7 220.4 211.8 203.4 201.5 198.3 195.2 194 191.7 190.4 189.2 189 189.1 189.5 191.2 194 195.8 194.7 194.6 203.6 205.5 204.6 197 199.8 205.7 208.3 209 209.6 214 215.6 217.9 222.7 225.9 228 230.8 233.4 237.7 244.7 253.2 255.9 256.7 258.9 262.7 264.8 265.8 267.9 270.6 272.3 271.1 277.4 284.4 286.5 290.2 302.8 314 322.1 328.7 333.4 337.2 334.8 326.1 321.8 320.4 321.8 317.7 313.9 310.6 303.4 292.9 279.5 269.5 259.2 256.7 245.5 234.9 248.9 260.5 273.6 284 295.5 309.6 322.2 319.6 321.2 317.8 311.4 304.8 308.4 311.2 315.4 317.4 317.6 317.6 319.1 321.6 325.4 328.7 331.9 338 345.9 352.6 359.3 363.3 366.5 368.4 369.7 370.8 372.3 373.3 370.3 367.8 365 360.9 357.7 353.6 350.7 348.3 345.5 343.7 341.1 337.4 334 330.2 326.4 324.5 321.6 317.2 313.8 311.1 307.6 304.7 302.4 300.2 298.6 296.9 295.7 293.6 291.3 290.3 288.3 285.6 288.4 292.2 299.2 300.5
427.9 437.8 441.7 438.3 433.5 427.7 422.1 416.1 409.6 402.8 395.8 392.6 390.6 391.4 393.3 392.6 390.5 388.2 383.6 377.5 369.6 362.1 357 349.9 343.6 337.4 331.5 326.2 322.5 317.6 311.6 303.6 299.4 292 286.3 283.2 280.2 278.8 275.7 272.9 271 268.3 269.3 267.1 264.7 260.1 253.9 248.7 245.3 241 237.3 234.4 229.1 227.3 225.6 225.7 222.7 218.2 214.3 210.2 200.5 195.8 193.3 192 191.1 189.8 189.2 188.4 191.1 198.3 199.5 200.9 200.5 197 206.7 211.2 208.5 198.7 198.5 202.7 207.4 211.1 212.2 216.3 217.6 217.8 220.8 224 226 230.3 234.2 238.3 246.8 255.5 259 260.7 263.9 267.5 269.1 270.3 273 275.8 278.2 278.9 279.3 288.3 290 294.5 306.1 317.2 325.3 333.1 334.9 334.6 325.3 321.4 321 321 319.4 316.9 313.7 308.8 302.1 293.2 278.6 270.6 265.2 259.6 249.3 239.9 240.4 252.6 264.3 273.9 287 297.7 304.7 306.2 303.9 303.6 298.9 304.9 310.7 313.6 316.7 318.6 318.5 318.2 318.4 320.9 324.3 327.8 330.6 335.2 343.3 351.1 358.6 363.9 367 370.7 372.7 374.3 373.5 371.8 372.3 368.4 363 359.3 357.2 354.1 350.2 347.2 344 342.1 339.9 337 333.4 329.2 325.9 325.2 325 319.8 316.2 313.6 310.1 306.2 304.2 302.1 301 299.5 298 295.6 293.4 292.4 291.8 291.2 284.7 284.7 291 293
419 429.2 436.2 436.8 435.3 430.5 424.4 419.3 417.3 402.8 397.9 391.1 387.5 386.8 388.3 389.3 388.4 386.1 381.5 375.3 368.1 362.7 356.3 349.2 343.7 337.5 332 327.5 322.9 318.2 310.2 306.5 300.4 292.7 285.9 283.1 280.6 278.3 275.1 273.6 271.9 270.1 268.9 265 259.5 256.1 251.9 247.3 243.7 239.3 238 231.1 226 230.3 225 221.3 219.6 216.3 211 208.2 198.1 194.8 192.6 190.8 190.3 189.2 188 190.1 190.4 197.5 195.7 199.4 199.4 198.6 209.1 211.7 209.8 201.1 200.4 203 203.4 211.6 213.1 215.1 218.1 219.9 221.5 226.9 229.8 232.3 235.6 241.4 250 258 262.1 265.3 269 272.3 273.4 274.8 277.7 280.7 283.5 284.5 284.9 291 292.4 295.5 302.7 313.9 318.7 325.7 331.5 329 324 321.7 320.7 319.2 317.3 315.2 313.6 310.4 303.6 293 280.7 272.8 260.2 261.5 257.5 245.9 237.6 243 248.4 266.1 274.6 283.7 289.6 290 289.4 296 302.7 308.7 313.5 316.2 318.3 320.1 320.3 320 319.7 320.1 323.1 327 329.8 333.3 340.1 349.3 357 362.9 367.2 373.3 377.3 377.5 377.2 376.3 375 372.4 368.2 363.4 360.1 357 353.3 347.9 344.5 340.8 337.2 334.9 331.4 328 324.8 325 324.9 321.2 318.2 315.9 311.6 307.6 305.5 304 302.7 301.8 300.2 297.2 295.2 294.1 293.5 292.5 290.7 288.3 282.2 289.3
404.2 414.7 424.5 433.2 433.9 430.7 425.4 422.8 423.2 414.2 402.2 392.1 384.9 382.4 383.7 385.1 384.1 382.2 377.7 372.1 366.9 361.4 355.5 350 342.8 337.8 333.5 328.4 323.1 317.9 313.3 307.5 300 292.1 286.3 283 280.7 277.7 274.5 273.1 271 271 267.8 260.6 260.2 256.8 250.9 248.1 242.8 239.2 232.6 224.3 222.4 220.8 219.6 217.9 215.1 212.4 205.7 199.4 194.8 193.3 190.9 190.2 189.4 188 191.5 190.8 190.6 191.8 193.7 195.7 198.6 199.5 210.2 212.8 208.8 203.5 202.5 206.9 207.7 208.7 211.3 214.8 218.5 222.3 225.4 229.4 231.8 233.9 237.1 242.9 252.6 261 266.3 269.7 273.4 277.1 278.9 279.6 281.9 283.9 286.8 289.6 291.3 289.6 296.3 300.1 305.8 310.7 315.4 320.7 323.6 326.2 325.9 322.8 319.8 317.2 314.9 312.6 311.1 308.5 301.8 290.7 280.9 274.9 269.4 262 260.4 248.6 239.7 244 247.7 247.4 257.8 267.2 272.1 269.4 295.7 301.6 307 313.2 316.5 318.4 320.5 322 322.5 321.9 321.1 320.7 323.3 326.4 329 331.9 337.1 345.7 354.3 360 367.6 375.7 379.8 379.5 379.1 378.2 377.1 374.4 370.3 365.9 362.5 359.4 355.2 349.9 345.8 342 338.1 334.5 331 326.5 322.1 320.5 322.4 320.9 318.9 316.3 311.9 308.3 307 306 304.3 303.3 302.2 299 296.7 295.2 295 293.7 292 289.6 287.6 281.8
386 397.2 410.5 423.5 429 429.8 427.2 425.5 424.1 416.2 406 394 382.5 378.6 379 380.4 380.4 377.8 372 367.6 363.2 357.2 352 348.7 342.9 338.4 332.9 328 323.3 318.8 314.5 308.2 300.3 292.1 285.8 283 280.9 277.3 274.2 272.3 271 271.2 267.8 261.3 263.1 258.6 252.1 245.6 239.5 232.9 231.1 231.9 222.1 223.2 218.4 216.5 215 210 202.5 196 192.6 189.5 190.3 189.7 190.3 191.6 192.1 191.8 191.9 193.7 194.5 197.8 198.9 199.8 210.9 210.6 210 205.5 203 205.1 209.5 211.6 212.3 213.8 218 223.7 225.2 230.8 234 235.2 238.9 245.5 255.6 264.7 270.4 274.2 279 282.4 283.8 285.6 287.2 288.8 291.9 294.5 295.9 295.4 296.3 302.9 308.5 312.8 318.2 323.5 328.4 329.7 328.4 324.4 319.5 316.6 313.7 311.1 307.9 303.6 296.2 287.6 281.1 272.8 273.5 263 260.5 261.2 255.7 243.5 247.8 260.4 253.3 259.4 263.2 284.1 297.6 305.4 311.2 316.6 318.8 320.1 322.6 323.9 324.5 324.2 322.9 322.4 324.8 326.8 329.2 331.6 335.4 341.8 350 358.2 369.1 377.8 381.3 380.8 380 379.4 378.4 375.7 371.3 367.3 363.5 360.6 355.7 351.1 346.8 343.8 339.4 334.1 329.8 323 317.4 315.9 319.4 319.9 317.1 314.1 310.4 309.5 308.5 307.2 305.5 304.4 303.5 300 297.5 296.4 295.8 295.2 293.2 290.7 289.1 285
372.1 381.5 395 409 421 425.8 424.1 421.8 420 413.6 402.5 394.3 380.2 376 375 376.2 375.9 373.4 368.6 363.5 358.2 353.6 349.5 347.2 343.3 338 332.1 328 323.6 320.1 315.5 308.3 300.7 291.5 286.7 283.4 280.7 276.5 274 271.5 271.4 270.9 267.5 262.2 263.8 257.4 250.8 243.9 237.5 236.1 232.2 227.9 221.4 225.6 218.6 215.7 214.7 211.3 202.1 195 191.7 190.1 189.7 189.3 189.5 192.6 192.6 193.8 198.5 196.2 195.9 198.7 199.4 203.2 209.9 210.9 211.5 206.6 205.2 206.3 210.1 213.9 216.1 217.7 217.6 223.3 225.8 229.5 235.2 236.9 241.7 248.3 259 268.7 275 279 283.3 287.5 288.7 291.1 292.6 294.5 297 299.4 300.5 301 301.2 303.3 309.5 314.7 321.2 327.7 332.2 333 332.5 327.9 322.7 318.7 313.9 309 305.6 300.7 294.2 286.5 280.5 275.9 273.3 268.3 263.3 266.3 261.6 249.1 248.5 262.1 272.4 277.1 283.9 292.7 300.6 308.2 313.8 319.5 320.8 321.6 324.8 326.3 326.4 325.5 324.6 324 325.2 328.1 330.2 332.5 335.3 338.9 345.9 355.5 369.1 378 381.4 381.5 380.9 380.2 378.6 376.3 371.3 366 362.5 358.9 355 351 347.1 344 340.3 334 326.8 319.6 314.4 313.9 317.3 315.5 314.2 312.2 310.2 309.8 309.1 307.9 305.6 303.1 301.6 299.3 298.4 297.3 297.3 296.6 295 292.2 290.3 288.9
362 369.1 382.2 395.3 410.1 418.6 422.4 421.3 416.4 409.6 400.8 391.3 380.7 374.9 371.1 371.4 371.1 368.8 363.4 358.8 354 350.1 346.6 347.1 344.4 337.3 332.6 328.9 324.6 322 316.6 308.5 299.6 291.2 286.9 283 279.3 276.3 273.9 272.9 271.4 268.6 266.3 264.7 262.2 255.5 250.1 242.5 239 233.8 229.9 225.7 221.2 219.4 217.2 213.8 214 211.5 201.1 193.5 190.2 190.1 189.6 189.1 189.9 192.8 192.9 197.2 200.8 197.9 197.6 199.9 202.6 208.7 210.2 211.7 211.8 208.5 208.3 210.5 211.1 214.3 217.7 220.7 222.5 223.9 227.4 230.7 234.7 238.3 242.9 251.5 262.9 272.3 278.6 283.5 289 292.6 295 297.7 298.1 301.6 303.1 304.4 305.1 305.7 306.7 305.9 311.5 316.6 325.5 333.1 337.3 338.3 336.7 332.9 325.6 320.2 315.8 309.2 303 298.1 292.4 288.4 283.5 279.5 275.6 273.1 263.4 260.9 261.4 249.8 250.5 263.5 277.8 273.6 283.3 294.3 304.7 311.3 316 321.7 322.4 322.7 326.5 328.2 327.7 326.8 326.5 326 327.3 330.3 332.1 333.1 334.3 336.3 341.9 352 365.6 376.4 381.5 381.7 380.9 380.1 377.7 375.1 370.3 365.7 361.9 358.3 354.9 351 346.9 341.8 336.9 329.9 322.2 316.5 312.4 309.8 311 310.8 312 311.9 309.9 309.6 308.7 306.7 304.6 301.7 299.9 299.2 298.4 298.2 298.2 297.7 296.2 294.1 292.2 290.3
362.5 358.5 373.3 383.9 400.4 412 419.5 420.8 415.9 406.6 396.3 387.7 380.8 375.1 370.4 362.7 364.5 362.2 358.6 355.1 350.7 345.7 342.8 343.2 342.4 337.8 332.6 330.3 326.6 321 315.7 309.6 300.7 291.3 286.4 282 278.5 275.2 274.1 272.7 271 270.2 266.5 263.1 257.9 254.1 247.3 242 234.7 230.9 227.6 223.3 218.7 217.9 216.3 211.3 210.9 208.9 198.7 190.1 190.2 189.9 189.5 189.4 189.2 192.5 200.3 198.7 200.4 198.9 199.2 200.8 201.7 209.8 211.6 212.9 212.1 209.9 209.2 210.7 213.7 214.5 222.2 223.7 227.6 224.9 229.2 233 237.7 240.4 248.7 257.2 264.7 275 282 289.1 295.4 299.1 302.1 304.1 305.5 308.3 309.9 310.1 310.6 311.4 311.1 313.3 314.3 320.2 329.4 337.4 340 341.3 342.4 335.2 327.2 323.8 318.8 313 306.9 302 296.2 291.6 287.9 282.9 280.7 276 262.9 261.4 258.1 246.4 252.3 264.5 277.5 281.9 279 293.7 304.1 311.9 318.5 324.4 324 323.6 328.3 330 329.2 328.5 328.1 327.8 328.2 329.3 332.8 333.1 333.3 335.1 339.2 346.7 360.7 374.7 380.5 381.1 379.6 378.3 376.8 374.1 370.7 365.7 361.6 357.8 354.6 350.8 345.1 339 332.1 325 319.1 314.9 311.5 308.4 306.9 307.2 307.9 308.1 308.8 307.5 305.1 303.9 302.6 300.1 298.6 299 298.2 297.9 298.2 296.8 296.1 294.8 293.4 291.8
360.8 355.1 366.6 382.4 399.6 410.4 416.4 416.8 413.5 405.3 396.2 388.1 381.9 375.3 369.7 364 359.4 353.6 352.5 349.6 345.3 340.9 339 341.1 340.9 336.9 333.6 331.5 328.2 323.5 315.8 306.6 298.6 290.7 286 281.4 278.6 276.3 273 272.9 271.2 269.1 267.3 262.2 256.9 252.5 246.2 233.8 229.6 223.4 219.5 219.9 218.4 217.6 214.1 209.2 204.4 202.8 197.1 190.9 190.5 190.2 190.1 190 190.3 189.2 202.9 199.8 199 200 200.6 200.9 203.6 209.1 211.3 213.1 212.9 211.3 210.7 211.3 213.8 218.6 223.1 227.8 229.6 229.6 230 236.4 239.8 243.3 248.7 260.3 268.4 276 285.9 293.2 301.7 306.1 309.1 311.3 312.7 314.6 315.6 316.8 317.2 317.4 316.7 314.1 317 323.9 333.6 340.3 341.5 341.6 340.4 335.4 330.3 328.5 325.1 318.8 313.2 306 299 295.9 291.5 288.1 285.3 279.1 262.7 264.2 255.9 245.9 258.3 270 279.2 283.4 280.4 289 301.8 309.3 316.8 326.3 324.4 324.5 330.2 333.2 331.8 330 329.1 328.7 329.6 330.3 331.5 332.9 333.1 334.5 336.9 341.6 353 367.7 374.9 377.5 377.2 376.5 375.3 371.6 368.3 364.3 360.4 356.5 352.7 348.3 342.7 336.7 330.8 323.1 318.1 314.3 310.8 309.1 308 305.2 303.4 302.5 303.1 302.1 300.2 300.1 298.9 297.8 297.1 297.6 297.2 297.3 296.9 295.4 295.3 294.5 293.4 291.2
356.1 352.2 364.1 381.2 397.1 407.5 411.7 412.2 409.2 402.7 395.9 389.5 383.8 377.7 370.2 364.4 359.9 354.9 348.7 340.8 341.3 337.5 335.6 338.3 340 338 336.2 334 330.9 326.3 319 309.6 300.3 293.9 286 281.2 278 275.4 274.2 272.1 269.9 268.1 262.9 257.9 249.6 246.5 235.6 234.3 229.9 225.8 224.4 219 217.5 217 212.9 212 201.6 195.2 193.1 194.7 190.7 190.3 190.1 189.9 189.6 189.2 197.3 200.2 199.4 201.2 202.4 204 208.2 210.1 213.3 213.7 213.2 213.5 213 215.4 216.7 222.2 225.9 229.6 232.9 232.8 233.2 237.1 242.8 245.6 253.5 264 275 279.9 290.3 298.2 308.6 313.5 317.4 317.7 318.6 321.2 322.6 325.1 324.9 324.7 322.8 321.9 320.7 329 337.6 341.3 341.3 340.9 340.3 337.7 336.2 333.3 327.4 320.9 314.6 309.3 302.6 300.7 296.4 291.4 287.8 280.3 264 265.2 255.7 248.5 264.3 274.2 282.3 285.2 283 282.7 295 304.5 315.1 318.9 322.5 326.1 331.2 333.7 332.7 331.1 330 329.6 330.9 331.9 331.4 331.6 332.3 332.6 333.6 338.3 345 358.8 366.6 370.3 371.6 371.7 371.1 368.7 366.2 363.3 359.9 355.8 351.5 347.6 341.7 336.6 329.6 322.7 318.6 314.6 312.9 311.5 309.4 306.7 303.5 301.6 301.2 297.2 295.8 295.9 295.1 294.5 293.6 293.4 292.9 294.1 294 293.8 295.1 295 292.7 291.4
348.8 349.9 363.8 377.8 392.8 403.6 406.3 407.9 405.8 401.2 396.3 390.4 384.6 379.2 372.1 365.4 360.3 354.5 348.9 343.3 335.8 332.8 332.8 336.6 339.8 340.6 339 336.5 332.7 327.6 319.5 309.6 300.5 294.1 287.7 281.6 276.9 274.5 273 269.7 268.6 262.3 263.8 261.1 255.6 249.7 243 235.8 227.9 225.8 221.7 218.4 213.5 209.4 207.2 201.2 197.6 194.7 194.1 194.3 191 190.7 190 189.8 189.6 191.2 194.6 201 201 202.3 203.7 207.2 211.4 212.7 215.5 215.1 215.6 215.8 216.6 218.8 221.4 224.1 230.5 231.2 234.6 237.4 239.4 240.8 243.3 248.3 255.7 268.7 279.3 285.6 294.3 303.2 315.4 321.3 325.9 325 326.2 327.8 329.6 332.2 333 331.4 329.3 327.4 325.3 332.7 338.5 342.6 343.9 344.4 344.5 344.6 341.2 338.5 333.8 326.4 320.3 313 308.2 304.3 298.2 293.5 289.9 281 266.7 264.4 254.7 252.7 265.6 275.6 285.9 288.9 287.4 283.2 283.7 296.3 306.8 312.9 318.6 325.4 330.7 332.2 330.8 330 330.4 330.4 331.2 332.3 332.3 331.5 332 332.3 332.8 335.3 340 347.2 358.3 363.1 366.6 368.9 370.2 369.4 367.5 364.7 361.2 356.7 352.9 348.7 342.8 337.4 329.4 322.8 319.5 317.1 315.9 313.6 310.8 308 305.3 303.3 301.7 300.2 298.3 296.6 294.3 290 288.3 287 287.7 289.7 290.3 291.6 293.7 293.2 291.3 289.2
345.2 346.5 361.2 374.4 385.4 395 400.2 402.4 401.5 398.6 393.8 388.4 385.2 379.5 372.9 366.7 360.6 354.4 347.5 341.8 335.9 328.5 330.2 335.7 342 343.7 341.2 337.7 333.5 328.5 319.6 309.3 301.1 293.6 285.2 280.3 275.8 274 272.1 269.2 268.2 268.7 266 259.7 252.9 248 243.3 231.7 223.6 221.5 223 223.1 218.9 216.1 205.5 199.4 196.5 194.3 192.7 191.1 190.8 191 191.4 189.7 191.3 194.7 200.6 201.5 203.7 206 207.1 207.2 211.2 213.3 215.9 217.1 217.8 218.5 220.2 221.7 224.6 228.3 234.1 235.8 235.9 240.2 242.4 245.2 242.2 249.8 258 270.7 282.7 290.7 297.6 308.1 323.3 330.1 333 331.7 335.1 336.2 336.4 339.8 341 338.4 336.9 333 331.2 336.3 340.5 343.5 346.9 348.8 350.9 350.7 347.5 343.4 339.2 332.1 324.8 317.9 313.6 309.2 300.8 294.1 286.9 281.3 267.9 261.5 251.2 253 267.9 277.4 287.8 293.4 292.9 290.8 285.8 285.6 294.6 309.2 317.3 321.7 325.8 327.3 327.7 329.5 331.3 330.7 330.9 330.6 331.9 331.7 332.2 332.5 332.7 333.8 336.6 341.3 349 358.5 364.3 368 369.8 370.1 368.7 365.3 361.1 357.3 353.7 349.2 343.8 336.6 328.9 323.5 321.2 320.6 318.8 316.5 313.8 310.8 308 305.7 303.5 301.8 299.1 297.7 296.3 294.5 291.3 288.3 282.7 282.7 285.2 289.3 291.5 290.7 288.3 286.1
341.9 342.6 355.1 367.7 376.3 384.5 390.6 394.5 395 391.8 389.2 386.2 384.2 380 373 366.8 360.3 353.2 345.5 337.1 332.5 327.6 327.7 335.4 342.9 344.1 341 337.4 333.4 327.9 318.7 308.7 299.4 292.6 284.5 280 276.1 274 271.3 269.6 272.3 268.3 262 257.5 251.7 246.1 241.6 231.6 225.9 227 225.7 222.9 220.3 217.3 206.9 198.1 195 192.7 191.3 191.2 191.4 192.3 189.9 191.2 199.7 201.6 202.2 202 205.8 209 209 209.2 212.3 213.8 215.6 217.9 219 220.4 222.6 224.5 226.9 231.9 238.1 240.7 240 243.3 245.7 247.2 252.2 247.8 257.6 270.2 283.4 292.8 300.7 312.6 328.6 337.9 337.7 338.9 341.4 343.1 348 348.8 348.7 346.4 344.2 340.3 337.2 341.3 345.4 347.8 352.1 355.1 357.7 358.6 355.6 351.2 345.5 338.9 331.1 324.9 318.7 311.9 304.2 294.9 288.2 281.6 269.5 261.3 250.3 254.5 268.1 280.6 290.1 296.9 298.7 298.2 295.7 289.2 288.8 298.7 308.2 316.5 321.3 323.4 326 329.1 330.4 330.9 330.7 329.4 330.4 330.5 331.8 332.1 332.6 332.9 334.2 337.6 341.8 351.7 358.9 363.6 367.6 369.5 368.6 365.6 361.7 357.6 353.5 348.2 341.7 334.4 327.3 324.2 324.3 323.4 322.2 320.4 317.9 314.4 311.7 309.3 306.4 303.8 301.3 298.9 297.6 295.3 293 289.3 284.8 281 280.3 285 287.1 287 285.2 282.8
338.1 339.7 349.2 359.7 367.3 377.3 383.5 388.4 389.4 389.3 390.4 390.1 387.5 381 373.7 366.9 358.8 351.6 343.5 335.9 326.1 322.8 326.3 335.6 341.8 343 339.1 335.4 331.6 325.5 316.6 306.9 298.6 291.1 284.1 279.3 275.9 275.3 272.8 273.5 272.6 266.4 260.6 255.3 251 245.5 237.8 228.9 229.6 227.2 223.9 219.8 217.6 211.1 203.4 198.4 194.7 192.5 191.5 190.4 190.9 190 191.3 191 198.1 201.9 203.5 202.9 204.3 208.5 209.1 212.5 216.4 217.8 220 219.8 220 223.3 225.6 226.4 229.7 235.8 241.5 244.6 242.5 246.7 248.9 252.7 253.5 258.1 255.7 266.6 280.5 293.5 302.7 316.9 330.2 340.8 343.9 341.6 344.8 349.2 354.6 357.2 357.6 352.9 350.6 344.8 343 347.7 351 354 357.5 360.8 364.2 365 362.5 359 354.1 348 339.2 332.5 324.4 316.4 306.6 298.1 289.8 282.6 270 261.1 250 257.4 270.6 282 293.3 301.7 303.3 304.7 303.9 299.9 292 291.4 300.5 309.4 315.6 319.1 322.8 325.9 328.1 329.4 328.8 326.6 327.8 328.9 330.7 332 332.4 332.9 332.8 334.3 337.2 341.2 350.5 359.1 365.6 369 368.9 365.6 359.8 355.2 350.3 344.4 337.2 331.1 326.3 327.1 327.7 327.1 326.3 324.5 322.1 318.7 315.6 313 310.2 306.7 304.1 301.7 299.4 296.3 293.2 289.8 285.1 281.7 276.4 279.9 282.7 282.4 278.4 273
335.3 335.3 343.2 351.5 359.2 372.9 381.9 387.6 390.3 393 393.5 392.1 388.8 380.9 374 365.8 357 348.3 339.6 331 322.4 317.7 324.9 332.7 339.4 339.7 336.2 333.4 328.7 321.8 313.6 305.4 297.6 288.3 282.3 278.5 276.1 274.8 274.1 274.6 270.6 264 259.3 254.9 248.6 241.9 236.1 226.5 226 225.3 222.4 218.2 213.5 205.6 199.5 198.1 200.6 191.2 191.7 190 191.2 190.5 191.1 190.9 191.2 197.3 202.6 204 205.6 208.1 210.6 212.1 215.6 217.7 221.1 221.4 222.5 225.3 227.6 229.9 233 239.4 244.8 248.1 248.2 250.9 251.9 257.7 258.9 264.7 267.8 269.3 272.9 286.2 300.8 312.9 324 332 336.4 340.7 347.8 352 357.9 361.1 361.3 356.6 352.7 348.1 349 354.9 358.1 359.3 363.3 366.8 369.5 369.4 367.5 364.6 359.8 354.2 347.1 340.6 332.7 324.4 317.1 302.2 294.2 283 272.8 261.2 250.6 259.8 274 285.1 296.4 304.4 306.8 307.5 307.8 306.2 300.1 297.6 295.4 303.5 307.2 313.9 318.3 321 323.3 325.4 322.8 324.2 327.3 327.7 329.4 331 332.5 333 332.8 332.6 333.4 336.5 340.5 348.9 359.3 365.1 364.2 360.5 356.3 351.3 344.9 339.2 333.3 330.2 328.7 329.9 331 330.8 330.2 328.7 326.3 323.1 320.2 317.7 314 310.5 307.1 303.7 301.2 297.3 293.2 289 283.9 281.4 276.8 274 275.2 274.5 271.4 269.3
332.2 326.8 335.1 345.8 355.5 372.5 382.9 389.2 393.2 394.9 393.8 391.4 387.9 380.3 374.8 363.6 353.8 345.3 335.6 326 318.9 311.9 323.3 330.4 335.1 337.6 333.3 329.5 325.5 317.9 309.9 301.6 291.9 286.1 281.7 278.7 275.8 275.6 275.6 274.9 268.8 263.5 258.8 253.2 247.6 236.8 233.4 229.4 226.5 224.8 222.2 216.8 211.6 204.8 197.6 196.9 191.7 191.2 191 190.7 191.3 191.2 191.2 191.2 191.5 193.9 202.4 205.7 206.2 209.1 211.4 212.6 216.6 218.3 222.3 223 224.9 227.9 229.8 231.6 237 241.8 248.1 251.2 252.9 254.3 257.3 260.7 265.6 268.6 274.8 277.7 279.8 276.9 287.9 299.2 309.1 318.1 323.9 329.9 341.8 353.4 359.9 364 363 359 353.8 350.9 356.1 362.8 365.4 365.8 368.9 374.3 373.9 372 370.4 369 364.8 358.8 352.5 346.9 339.9 328.2 316.3 307.9 297.2 283.3 275.3 261.3 252 261.5 275.1 287.6 299.2 308 312.5 310.3 309.3 308 306.3 304.8 302.8 301.8 302.9 307.1 312.1 316.1 319.5 319.9 319.5 323.2 325.8 326.7 328.5 330.5 332.2 333.1 333 331.6 332.1 333.5 335.4 339.8 346.9 353.6 354.5 353.5 351 346.8 342.5 337.3 333.9 333 332.6 333.9 334.4 334.5 333.9 333.1 330.8 327.5 324.9 322.3 318.8 314 309.8 305.4 302.1 296.3 291.4 287.5 280.9 278.3 274.6 272.8 271.5 270.9 270.1 269.1
330 323.8 333.1 340.4 352.5 369 380.6 389.4 394.7 396.2 393.8 388.7 384.2 379.5 373.9 362 352.1 342.5 332.9 323.9 316.4 311.9 321.8 328.3 331.5 334.8 329.9 326.3 318.6 311.3 304.3 297.4 289.8 285 281.2 279 278 276.3 276.1 272.7 267.2 261.8 257 249.9 243.3 232.9 233.5 230.6 226.3 222.7 219.9 216.5 209.9 201.7 194.2 192.9 190.8 191.1 190.9 190.8 191 191.5 191.6 191.6 192.4 198.1 203.8 204.9 206.4 209.6 211 215.5 218.6 221.9 225.1 225.3 226.6 229.8 233 237 242.5 245.8 252.3 255.1 256.7 259.3 262.2 266.9 270.5 272.8 278.2 282.9 286.5 289.9 287.4 281.2 296.1 306.8 314.3 321.9 331.7 341.4 350.6 355.5 359.3 357.7 353.9 352.1 359.4 367.5 371.4 372.9 376.2 378.8 375.8 373.8 372.3 370.4 367.6 362.5 357.1 350.3 345 336.7 323.4 309.4 299.6 284.5 275.2 262 251.8 263.3 276.2 291.1 301.6 309 312.7 312.6 311.6 310 309.2 309.6 307.8 307.5 307.1 306.1 304.9 308.7 313.2 314.9 317.3 320.1 322.7 325.7 328.2 330.2 331.8 332.5 331.9 330.8 330.3 331.9 333.5 335.2 339.1 344.3 347.3 347.1 346 343.3 339.8 336 335 335 336.6 338.1 338.5 338.5 338.3 337.7 335.3 331.4 328.7 326.1 321.4 317 311.6 306.6 301.6 297 289.8 284 276.4 274 272.2 271.9 271 270.6 270.1 269.2
328.5 321.5 329.7 337.2 350.5 367.2 377.1 384.7 392.2 396 393.3 387.6 380.3 376.2 369.5 358.5 346.7 338.7 328.7 320.5 314.8 305.1 319 324.8 328.4 329.4 326.5 322.9 316.6 307.6 300.9 295.8 289.6 284.3 281 277.6 277.6 277.5 274.4 270.2 265.3 260.1 254.1 251 238.8 232 233.1 228.4 223.3 220.3 217.3 213.4 204.9 196.9 193 191.2 190.7 191.4 191.1 191.2 191.3 191.6 191.9 192.3 195.2 198.3 206 206.3 207.5 209.5 215.6 219.8 222 223.8 226.6 228.1 229 231.6 236 239.6 243.7 252.9 256.8 259.1 260.6 264.6 265.8 272.6 276 278.4 282.8 287.4 291 294.5 296.1 297 297.7 295.8 305 315.6 323.4 331.1 338.8 345.1 351.2 353.8 350.5 351.6 361.3 367.8 372.9 375.1 375.6 377.7 375.7 374.6 373.5 372.4 369.8 364.7 360.1 353.5 346.1 336.9 326.5 311.9 297.4 284.5 274.3 263 255 262.9 276.7 290.9 301.8 309.3 312.2 315.3 314.8 313.4 312.6 312.1 312.2 311.9 311.2 310.1 310 311.8 310.5 310.8 313.8 317.2 320 324.6 327.1 328.8 329 329.9 330.4 329.5 329.8 332 332.9 334 334.7 336.9 340.2 341.5 342.5 340.5 339 337.4 336.9 338.1 339.4 341 341.7 342.3 342.2 340.5 338.7 335.1 331.8 327.4 322.8 318.8 311.7 306.7 301.5 295.1 287 280 275.1 273 272.3 271.3 270.9 270.6 270.3 269.7
327.3 318 326.2 334.1 347.1 361.7 372.9 378.6 383.3 389.8 388.4 382.8 373.2 368.9 362.9 355.4 347.2 336.7 326.2 317.3 310.4 301 313 318.8 322.9 323.2 322.3 317.7 308.3 304.1 298 294 288.2 283.3 279.6 276.1 277.3 275.6 274.5 268.1 262.4 254.5 244.1 241.7 225.9 235.3 233 229 222.5 217.9 213.2 210 200.6 195.2 192.2 191 190.9 191.5 191.5 191.6 191.7 191.8 191.9 192.8 195.2 198.7 201 204.9 207.5 212.2 215.3 219.3 222.7 224.7 226.8 229.2 231.5 234.2 239.4 243.7 249.4 252.4 258.6 263.8 265.5 270.6 273.8 276.7 281.2 284.1 288.4 293 296.6 299.1 300.2 301 302.2 305 301.5 309.1 316.6 323.1 331.5 338.4 345 346.4 344.7 350 358.9 365 368.9 370.3 371.1 372.6 372.5 372.5 373 371.7 369.6 364.9 360 354.4 346.6 339.3 327.1 313.9 295.3 283.5 273.1 265.7 259.7 261.8 277.2 293.6 302.5 309.6 314.5 316.2 317.1 316.9 315.3 315.1 315.4 316 315.1 313.7 311.9 313.1 314.6 314.8 314.2 313.7 318.6 322.4 324.8 325.8 326.6 327.7 328.6 327.9 330 331.3 332.6 333.7 333.9 334 335 336.6 338.7 339 338.5 338 339 340.7 341.9 343.3 344.3 345.2 345.1 342.8 341.2 338.3 334.2 329.1 323.8 319.9 313.8 306.3 300.6 292.3 285.2 279.7 276 273.4 272.7 271.8 271.2 270.8 270.5 270.2
