ncols 200
nrows 82
xllcorner 400000
yllcorner 384250
cellsize 50
259.7 254.3 248 238.8 232.2 225.6 216.8 208.5 201.5 196.3 192 187.5 183.5 177.4 179.1 188.5 191.7 194.7 197.7 200.9 207.7 222 236.4 236.2 234.7 234.8 235.5 237.4 239.8 243 248.2 254.4 260.9 267.5 273.9 278.9 283.8 290.7 297.8 305.6 310.7 311.8 312.2 312 315.9 320 325.3 335.2 344.6 352.4 358.2 357.6 354.9 345.6 338.5 335.8 333.7 321.2 295.1 271.4 247.9 227.3 215.3 202.7 194.5 202.3 208.1 212.6 218.4 226.2 229.5 232.4 232.7 234.1 234.9 237 241 245.8 250.1 253 255.1 261.6 273.7 284.6 294 301 307.9 313.5 318.2 323 328.4 332.6 337.8 342.5 346.1 347.8 348.1 349.7 352.9 354.5 357.5 360.5 362.4 360.7 354.8 345.4 336.8 328.3 321.7 311.9 301.9 296.7 303.3 296.9 286.3 277.7 277.7 277.7 277.7 277.7 277.7 287.5 296.6 299.6 297 290.6 288.5 287.4 287.3 285.2 290.7 294 303 312.9 323.4 331.8 343.3 357.2 366.3 371.9 378.1 380.8 382.5 383.7 379.7 365.7 373 381.7 384.1 386.7 394.9 401 399.9 416.8 433.7 459.2 486.5 501.6 506.6 520.2 546.3 583.2 598.4 611 616.8 620.7 621.5 622.2 622.7 622.6 622.9 622.7 621.5 619.6 617.1 615.7 614.5 611.1 612.6 612.5 610.2 615.8 618.5 621 623.4 624.3 625.2 626.2 627.6 627.8 629.3 628.5 628.5 627.8 626.8 624.7 623.1 622 620.3 618.9
260.9 255.2 248.8 240 230.6 222.3 214.1 205.6 198.5 194 190.2 186.6 183.1 175 185.6 188.7 191.4 195 198 201.6 209.6 227.6 237 233.9 232 232.3 233.3 235 237.2 241.3 246.2 252 258 264.8 270.9 276.9 283.8 288.8 295.8 303.7 311.5 318 322.8 323.1 322.6 324.8 328.8 336.1 343.8 351.6 359.3 364.1 363.7 354 342.6 333.9 331.4 316.2 287.6 265.2 245 225.6 214.2 199.5 195.4 202.9 207 211.3 214.7 219.4 222.1 221.6 221.2 220.9 225.3 229.7 234 239.2 246.8 254.7 261.8 269.9 275.3 272.4 287.7 297.4 303.7 308.7 313.8 319.4 324.2 328.2 333 337.8 341.8 344.1 347.6 350.9 353.1 353.6 353.4 356.5 352.9 344.8 333.4 327.1 320.2 313.4 304.4 293.1 285.4 278.2 279.3 277.7 277.7 277.7 277.7 277.7 277.7 277.7 290.5 301.6 308.2 310.6 310.3 305.5 302.7 301 302.4 303.8 304.7 309.5 315 324.9 340.1 352.4 360.3 359.8 367.2 373.7 378.8 382.5 385.5 389.6 389.8 389.2 390.4 393.1 398.5 402.7 405.8 412.4 417.3 417 436.7 461.6 487.5 509.8 529 538.1 565.8 592.1 604.5 613.8 619.8 622.7 622.7 624.1 624.3 623.8 623.6 623.5 622.8 620.1 618.5 616.4 614.2 610.2 612.3 615 614.3 616.3 617.7 620.7 622.9 625.2 626 626.9 628.5 628.5 629.3 629.8 629 628.5 627.4 624.9 622.1 618.7 617.5 616.3
261.1 255 248.8 239.7 231 222 212.9 204.3 196.9 192.4 188.3 186.2 183.5 175.2 185 189.1 190.4 194.3 198.2 202.9 213.6 229.2 234.2 231.3 229.6 229.7 230.5 232.8 235 238.4 244.2 250.3 255.9 261.4 267.7 273.9 281.5 288.7 294.5 300.8 309.4 317 324 325.7 332.3 333.7 335.5 337.8 344.4 352 358.8 368.1 369.6 358.1 343.3 330.6 326.7 316.6 286.7 262 241.1 224.1 208.8 196.3 193.8 198.1 202.6 205.7 209.1 212.9 215.7 215.5 216.7 222 226.7 231.8 236.5 246 255 261.5 269.1 277.7 284.2 288.3 291.5 295.9 299.4 305.2 307.6 313.2 316.5 320.9 326.9 333.4 339.8 345.5 350 352.8 353.7 352.1 347.8 345.5 336.2 324.2 318.4 309.8 301.4 292.9 285.3 281.2 277.7 277.7 277.7 277.7 277.7 277.7 277.7 277.7 277.7 284.2 298.1 305.8 312.1 316.1 315 311.8 310.2 315.5 320.5 322.4 324.5 324.9 333.5 345.5 355.6 365.4 372.4 374.9 366.8 371.4 377.9 382.1 386.9 392.1 394.3 395.9 399.3 404.3 406.5 408.6 422.1 436.1 440.9 436.8 447.8 466.4 493 513.4 531.9 547.9 576.5 595.3 607.7 616.2 621.4 624.6 623.4 624 624.4 624.9 624.3 623.9 621.9 619.6 617.9 616.1 614.5 610.9 615.1 616.6 618.2 619.6 621.2 617.7 623.5 626 626 627.2 628.5 630 630.1 630 629.7 629.1 626.9 624.8 621.4 614.9 615.3 610.7
261.1 254.5 248.1 240 229.5 220.1 210.3 202.4 195.5 191.1 187.3 186.1 178.6 175 184.7 188.2 190 193.1 197.1 203.4 213.8 227.8 231.4 228.8 227.2 227.4 228.7 230.3 232.7 236.2 241.4 247.3 252.8 258.7 265.2 271.7 278.8 286.3 293.8 301.3 308.8 316.2 323.4 330.7 335.6 343.6 343.2 342.5 345.3 351.4 357.6 367.1 367.8 353.6 340.6 327.6 316.3 302.2 281.2 261.4 242 220.3 203.6 191.8 193.6 195.4 199.3 198.7 207.5 211.4 215.5 216.5 218 222.8 227.7 232.6 241.4 251.1 259.4 268.2 275.6 282.2 287.8 294 299 303.9 309.7 315.8 320.8 322.3 322.1 325.8 330.6 335.9 341.3 346.4 352.5 355 355.3 354.8 347.6 325.1 318.7 311.1 302 291.3 282.7 273.2 266.8 268.4 277.7 277.7 277.7 277.7 277.7 277.7 277.7 277.7 283 293.1 302.2 309.6 314.6 318.4 319.6 320.2 321 325.2 332.4 339.1 344 349.9 353.6 361 367.8 374.2 380.1 380.9 378.8 375.4 380.7 384.1 387.5 392.3 396.4 401.3 407.1 410.7 414.4 419.6 441.4 458.9 466.8 465.5 465.9 478.4 494.8 516.5 536.4 559.4 584.6 598.9 609.5 617.5 621.9 624.5 624.1 624.2 624.7 625.9 624.9 623.5 621.4 619.8 617.9 615.6 614.6 612 615.1 618 620 621.5 623.5 622.6 622.5 624.7 627 627.4 627.1 629.3 630.9 630.4 629.6 629.4 627.2 624.5 621.8 616.6 616.3 613.9
262.2 255.7 248.8 239.7 230 219.2 210.2 200.9 195.1 190.4 186.4 182.6 178 174.4 183.3 186.6 188.4 191.3 196 202.9 214.1 228.5 229.3 226.2 224.3 224.2 225.5 227.2 230.4 233.8 237.7 243.6 249.1 255.3 261.7 268.5 276.1 283.6 291.1 298.9 307.8 315.4 322.3 331.4 337.7 344.8 351.3 348.2 347.1 349.8 356.5 366.2 363.5 348.3 335 324.4 313.6 295.4 266.9 247.2 230.5 209.7 198.6 191.6 197.3 203 205.9 209.7 213.9 216 219.2 220.1 220.4 223.7 228.8 236.3 243.6 252.9 261.6 270.2 278 284.4 290.5 297 304 309.4 317.7 324.1 327.9 329.8 330.2 331.1 334.6 338.3 343.4 348.9 353.9 356.4 358.6 358.5 344.5 321.7 303.4 294.8 283.7 272.9 258.9 249.4 247.6 254.7 269.2 277.7 277.7 277.7 277.7 277.7 277.7 283.2 290.9 299.2 305.8 312.1 316.3 319.7 321.8 325 328.3 334.9 341.6 348.5 355.9 361 365.3 371.4 375.8 381 383.5 383.3 379.5 380 381.4 386.7 390.5 395 401.1 410 414.7 420.8 428.4 437.5 458.4 474.1 478.6 481.1 487.5 493.2 506.3 513.1 543.3 570.6 594.5 606.5 613.4 618.5 622.4 624.6 624.1 624.3 625.3 625.4 624.7 622.9 621.3 619.9 617.9 616.3 614.5 614.6 615.7 619.1 622.4 623.7 625.5 625.1 625.4 624.5 625.1 625.5 626.8 629 630.3 630.1 629.2 629.4 628.2 624.7 621.6 618.9 617.5 615.6
263.5 257.5 249.5 240.3 231 221.2 211 201.3 195.3 189.7 186.2 184.7 178.5 172.1 180.8 184.9 186.7 189.7 194.3 202.9 213 225.8 225.6 223.2 221.1 221 222.3 224.3 227.9 231.1 234.8 239.8 245.7 252.1 258.5 265.1 273 280.7 288.4 296.5 305.4 314.2 322.6 330.1 337.6 345.6 353.8 356 349.9 349.1 355 365.1 357.4 342.2 328.9 321.8 315.9 303.1 275.9 253.1 234.7 216.3 200.1 190.1 194.2 203.2 207.3 211 215.8 219.9 224.2 225.1 224.9 227.3 230.9 237.4 244.4 254 263.4 271.7 279.3 285.1 292.8 300 307.4 313.8 321.2 327.8 332.4 335.1 336.4 336.6 337.4 340.7 345.3 350.4 355.1 357.9 359.8 359.8 337.6 311.3 294 271.4 266.4 257.2 248.1 244.9 246 247.6 258 277.3 277.7 277.7 277.7 277.7 277.7 284 293.5 301.4 307.5 313.6 316.9 320.1 324.3 327.8 333.4 340.6 348.6 357.6 365 369.6 373.3 376.5 379.9 383 384.5 383.2 381.5 382.4 384.8 387.8 392.7 398.7 406.2 418.3 429.1 436.8 438.1 448.1 463.9 489.9 489.2 493.7 503.4 508.3 520.2 522.4 534 571.7 599.7 606.5 612.5 618 622.9 623.5 625.5 625.8 625.8 625.4 624.7 623.6 621.6 619.2 617.1 613.5 614.9 615.5 616.9 619.5 622.7 624.9 625.5 626.4 627.1 626.7 625.7 626.4 627 628.7 629.9 629.4 628.6 629.1 627 625.4 623.3 620.6 619.5 617.4
266.1 260.5 253.2 242.8 232 224.1 212.8 202.8 196.1 190 186.6 184.6 178.5 171.9 178.5 183.2 184.7 187 191.7 201.3 208 222 223.5 219.9 217.9 218.1 219.4 221.5 224.3 228 232.4 236.9 242.3 248.7 255.6 262.8 270.1 278 286 293.9 302.8 311.7 321.1 329.4 336.3 344.4 352.7 359.4 349.9 347 350.3 361.5 349.6 333.5 321.6 315.9 311.7 303.3 277.4 254.9 235 219.2 204.4 189.2 194 202.8 205.9 210.7 215.5 222.9 228.7 231.7 233.4 234.7 234.2 237.5 245.3 254.8 264.5 273.1 280.4 286.4 294.1 300.6 308.6 316.4 323.4 330.9 335.3 339.3 341.4 341.7 342.2 345 348.3 351.9 356.2 359.7 362 362 330.6 304 288.8 268 253.5 242.3 240.9 240.6 241.5 253 258.2 266 277.7 277.7 277.7 277.7 277.7 277.7 288.7 298.3 306.6 312.4 314.1 318.9 324.4 328.1 335.1 345.8 354.5 361.8 368.8 373 376.9 380.9 383.3 385.3 382.2 381.7 382.9 386.3 389.3 391.9 396.3 406.4 418.1 430.5 439.1 447.1 455.7 464.6 475.7 482.2 491.2 499.1 506.5 514.3 528.7 549.7 571.2 575.9 595.2 606.6 612.6 617.2 617.9 619.4 623.6 625.3 625.5 626 626.2 624.8 622.3 619.8 617.4 614.7 614.8 616.9 617.5 618.9 622.5 624.5 626.3 626.9 627.5 627.3 627.6 627.8 628.1 628.4 629.3 628.8 628.1 628.1 629.2 627.9 623.6 622.2 620.8 619.8
267.7 261.3 254.9 246 235.3 226.5 215.9 206.4 198.3 192.6 188.5 184.9 180.6 171.1 172.7 182 183.7 185.4 188.7 195.9 202 215.8 221 217.6 214.3 214.5 216 219.2 222.3 225.3 230 234.1 239.2 244.8 252.7 259.9 266.9 274.9 283.2 291.3 300.2 309.4 318.7 327.9 334.8 342.7 351 358.6 346.5 343.6 346.9 356 338.9 324 314.8 309.3 307.1 299.9 272.6 251.1 232 216.7 198 188 196.3 201.6 205.7 210.8 215.6 223.3 231.4 239.4 243.5 245.5 243.4 239.5 248 256.5 266.5 274.8 281.8 287 294.2 301.5 309.2 317 324.7 333.4 338.9 343.3 346 344 345.4 347.7 350.4 353.5 357.4 361.2 363.4 362.1 318.6 302.4 275.6 258.7 245.3 232.6 241.9 246.4 254.1 260.4 266.6 272.5 281.1 279 287.3 277.7 277.7 277.7 280 289.1 298.1 302.8 305.1 312.3 318.8 325 335.7 348.1 357.6 364.2 369.5 374.6 379.6 383.6 383.9 379.8 377.4 379.6 383.5 387.2 391.7 396 405.3 413.6 425.7 436.3 446 457.4 467.9 480.7 490.3 502.4 503.4 510.6 520.3 539.3 555.1 572.8 592 599.6 602 605.6 608.7 611.4 616.7 618 621.7 623.4 625.9 626.2 626 625.5 621.9 618.9 616.2 616.6 615.8 617.4 619.6 620.3 621.6 624 625.7 626.4 627.3 628 628.1 627.9 628.3 628.1 627.8 628.1 627.9 628.4 628.3 627 626.4 625.1 623.9 621.4
267.9 261.1 254.4 247.1 236.4 225.4 216.6 208.8 199.1 193.5 189.1 185.2 181.4 169 169.8 178.1 182.1 183.8 187.3 190.6 196.9 209.3 219.2 215.9 211.5 208.8 212.5 216.3 219.5 222.6 226.6 231.3 236.4 242.4 249.8 257 263.9 271.8 280.5 289.1 297.6 306.9 316.1 325.7 333.3 340.7 349.3 351.5 340.3 337.5 341.6 337.1 324.7 313.6 306.3 301.7 302.6 298 270.2 247 228 214 198.5 186.3 197.7 202.5 206.1 210 215.3 223.7 231.6 240.7 247.2 250.5 250.6 247.4 252.6 260 268.3 275.4 282.4 287.9 295.1 302.4 310.2 317.9 326.2 334.7 341.3 346.8 350.5 349 348.7 351.1 352.5 355.3 358.9 361.9 364.4 347.9 318.2 290.8 266.7 250.9 236.3 242.5 254.2 258.3 265 267.9 273 280.1 284.7 289.9 292.6 291.8 277.7 277.7 277.7 277.7 280.1 289.8 295.7 302.6 309.3 318 330.5 343.5 354.9 364.3 369.9 374.3 379.6 380.7 377.4 372.6 374 378.7 384 388 392.9 401.2 412.4 422.2 432 441.9 452.4 465.9 479.4 495 506.2 514.6 533.8 545.1 557.3 565.4 579.5 593.1 603.6 609 609.7 608.4 610.8 612.2 614.1 617.5 621.3 623.6 625.2 626.2 625.5 624.9 622.5 619.2 618.5 617.1 617.8 620.6 623 623.1 622.7 623.2 625.9 626.8 627.7 628.1 628.1 627.5 627.4 627.7 627.7 627.2 627.9 628.4 628.9 627.5 627.1 627.4 624.7 624.6
268.2 261.4 254.5 247.9 236.9 225.8 217 208.1 200.5 194.7 189.2 185.4 181.5 173 169.4 176.2 180.1 182.4 185.2 188.5 192.3 199.3 212.5 212.5 204.9 206.3 210.5 214.1 216.9 219.9 223.5 227.8 234.1 240.3 247.3 253.9 261 269.1 277.8 286.3 295.1 304.4 313.6 323 331.9 339.1 347.3 346.3 334 332 335.8 321.8 310.9 302.3 296.4 293.6 297.8 296.7 267.8 242.7 224.9 210.5 195.8 187 194.4 201 204.1 207.4 214.5 222.9 231.7 240.8 248.5 253.9 255.9 255.3 257.1 262 268.8 275.9 282.8 289 296.2 303.6 311.1 318.9 327.9 336 342.8 349.4 354.2 355.9 353 354.4 355.1 357.4 360.5 362.4 360.2 329.7 302.2 279.5 260.4 244.1 233.3 253.6 259.3 267.2 273 275.6 279.8 287 293.7 298.3 301.4 301.5 295.5 287.9 283.6 279.9 277.7 280.3 285.9 296.3 303.3 312.7 325.1 338.6 350.1 360.9 366.4 371.3 376.6 376.7 369.6 368.7 371.5 377.4 383 387.8 397.6 407.8 417 429.3 438.3 448.5 459 473 488.9 508.6 513.9 521.2 543.1 556.1 565.6 578.4 591.8 602 609.7 610.3 612 611.2 613.1 613 616.1 620 622.3 623.9 625.4 627.2 625.9 624.4 622.5 620.4 620.2 619.5 622.5 624.1 624.8 625.4 625.3 625.6 626 628.2 628.7 628.6 628.1 627.2 626.8 627.1 628.1 626.2 627.5 627.4 628 627.8 627.6 627.4 626.8 625.5
269.1 262.5 256 248.1 237.3 226.3 217.3 206.8 199.8 193.6 189.1 185.1 181.2 174.4 167.6 170.9 176.5 181.4 183.4 186 189.4 192.7 195 196.1 197.8 202 207.8 210.3 214.6 218.2 221.8 227.3 233.3 239.6 245.6 251.7 258.8 266.5 275.2 283.6 293 301.5 310.9 321 329.9 337.4 344.4 335.4 325.9 324.8 315.7 306.6 297 290.6 286.9 288.2 293.3 294.2 269.6 245 223.3 207.3 191.8 186.3 193.2 199.4 202 205 213.6 222.1 229.8 240.4 249.4 255.8 260.1 260.2 261.5 264.6 270.5 276.5 283.3 290.1 297.2 304.7 311.2 320.6 329.6 337.2 344.5 351.7 356.4 361 358.4 357.6 357.7 359.6 362.7 363.6 341.4 313.8 288.5 271 252.8 235.5 239.8 253.4 264.4 271.7 278.1 282.3 286.5 293.6 300.7 306.9 312.2 312.1 311.9 305.3 300 297.3 292.8 284.5 283.3 292.1 301.4 310.7 321.3 333.7 344.7 354.4 360.4 367 372.7 371.9 363.1 365.4 370 375.3 381 386.4 398.7 408.8 418.1 429.6 443.2 455.1 465.7 480.3 495.5 512.1 524.9 533.2 542.8 561.3 570.4 579.6 594.1 610.8 614.1 614 615.1 615.3 615.1 615.1 617.9 621.1 623.8 626.9 627.7 628 628 626.6 625.4 624.2 622.5 624.6 625.2 627.3 627.2 626.9 628.1 628.2 627.9 629.6 628.8 629.2 628.7 627.2 624.1 624.9 625.5 626.9 625.9 626.5 626.8 627.2 626.9 626.9 627.5 626.3
271.2 264.6 257.5 248.4 237.6 226.8 215.7 205.1 198.2 193.2 189.1 185.3 181.6 177.7 166.8 167.7 174.2 178.9 182 184.3 183.3 185.7 189.1 194.4 197.4 196.9 206.2 210.8 214.7 218.3 222.1 230.1 237.8 243.8 247.6 250.6 256.2 264.4 271.9 281 290.6 299 308.5 318.5 327.3 334.8 336.7 322.2 316.5 305 296.9 289.3 283 278.7 277.8 281.3 288.7 283.2 265.1 245.4 227.8 208 188.5 187.3 191.4 197.3 200.1 204.1 212.7 222.1 231 240.7 249.8 256.9 262.2 263.5 263.4 265.9 270.8 277.3 283.9 291 298.4 306.3 313.7 322 330.2 337.3 345.2 353 360.1 365.1 363.5 361 360.2 361.7 362.3 354.7 329 301.4 281.6 264 245.1 231.1 242.4 255.5 267.5 276.3 282.8 289 294 300.1 307.5 314 320.3 323.6 323.5 321.1 314.5 309.6 305.2 300.3 295.3 288.6 295.9 307.7 316.9 327.8 339.2 347.6 354.8 363.2 366.8 363.7 357.6 361.7 367.6 372.6 379.1 385 399.8 411.3 421.4 431.6 444.6 459.3 473 489.3 503.1 521.4 529.9 538.1 546.7 556.3 566.3 577.9 595.2 614 618 618.7 617.8 618.4 617.4 617.1 619.6 622.5 626.8 628.4 629.3 629.1 630.1 629.9 625.3 626.9 627 627.8 628.6 629.5 628.8 629 629.9 630 629.9 629.7 629.1 629.1 627.8 626.7 624.7 622.4 623.9 624.6 624 624.3 624.8 625.4 626.2 626.8 626.8 625.4
272.3 266.1 257.9 249.1 238.5 226.8 214.7 204.2 196.7 193.4 189.3 185.3 181.6 177.9 168.6 165.8 172.6 177.2 179.8 180.8 184.6 192.2 205.9 208.9 208.1 204.2 208.9 211.7 214 217.8 224.6 234.9 242.4 247.2 252.7 259.6 263.1 266.4 270.8 278.1 288 296.8 306.5 315.6 324.2 330.5 322.7 312 305.1 288.8 276.8 272.7 271.3 268.2 269 276.4 282.3 267.5 254 242.3 227.6 208.6 183.5 184.2 189.4 195.6 198.7 202.8 212 221.1 229.8 239.3 248.9 255.2 261.3 262.8 262.5 263.2 268.7 276.2 284.2 291.2 298.9 307 314.5 322.3 330.4 337.6 346.5 354.1 360.5 366.5 367 364.4 362.8 362.3 362.5 347.9 321.9 296.6 276 256.7 238.2 234.5 244.3 255.2 267.7 278 286.3 293 299.8 303.9 312 320.9 327.1 331.1 331.7 330 326.3 320.8 315.6 309.6 305.8 300.1 292.1 301.8 314.4 324.3 333.2 340.7 349 356.6 358.8 352.9 353.6 360.2 365.8 372.6 378.9 385.9 401.5 415.2 425.5 434.3 447.5 462 478.6 494.7 510.9 524.4 532.7 544.4 552.6 560.4 570.7 582.1 599.4 612.8 619.3 622.1 621.7 620.8 621.6 621.3 621.4 624.2 628.1 629.1 631.8 631.9 631.6 631.3 630.9 629.9 630.5 630.8 629.8 630.4 630.5 631.3 631.4 631 630.7 629.1 627.9 626.6 626.2 625.3 623.6 621.4 621.3 622 621.7 622.1 622.1 624 624.5 624.9 626 624.8
273.3 266.4 257.2 247.3 236.8 225.4 212.8 204.7 198.2 194.4 189.9 185.4 181.3 177.5 169.3 165.4 167.9 175.3 175.8 178.2 185.3 195.1 216 213.1 209.6 206.9 210.3 212.1 214.3 218.6 226.9 237.9 245.4 251.4 258.1 265 269.7 270.7 271.6 274.6 284.9 293.6 303.8 312.3 320.8 322.3 307 301.3 290.8 274.4 262.9 259.3 258.1 260.2 263.4 270.2 266.5 252.7 239 229 219.7 206.5 183.5 182.8 190.6 194.1 197.4 201.3 210.4 219.9 229.2 239.2 247.1 253.1 257.3 259.7 257.7 259.3 266.2 273.9 282.3 290.6 298.6 306.7 314.6 322.7 330.9 337.4 347 354.6 361.1 366.5 368.3 365.9 364.3 362.7 360.6 339.3 313.1 289.9 269.1 249.8 233 237.4 243.1 255 266.9 277.8 285.8 293.4 299.8 306.4 315.4 324.9 331.7 336.8 339.5 338.9 335.9 332.6 325.8 318.9 317.1 312.8 305.6 299.1 312.3 318.6 326.8 333.2 340.9 344.9 348 344.3 353.3 359.4 365.7 373 379.6 388.1 406.2 416.3 426.1 433.5 446.8 462.9 485.1 498.4 512.1 526.5 540.3 552.3 560.4 566 570.8 585.3 597.7 613.1 623.3 625.4 625.3 624 624.7 624.8 625.9 627.4 629.9 631.1 632.5 633.9 633.8 633.4 632.5 631.8 633.6 633.6 633.2 633.2 632 632.9 632.9 631.8 630.3 628.9 628.1 625.5 621.4 622.4 621.8 620.7 618.5 618.9 619.1 616.8 620.2 620.8 623.8 624.4 625.5 625.7
272.9 265.6 254.8 241.7 231 218.2 209.7 204.4 199.1 194.9 190.1 185.8 180.8 177.2 170.8 164.7 165.6 170 176.1 179.7 184.5 195.8 217.1 214.5 211.8 209.7 211.1 213 215.1 219 226.2 236.7 244.3 249.9 256.9 264 271.4 273.4 271.2 271.4 280.4 290.4 300.1 308.7 314.9 306 295.7 289.2 274.8 260.7 252.2 248.9 247.5 250 256.7 260.1 250.6 238.8 226.8 216.9 210.5 201.8 191.8 180.1 188.6 193.4 196.4 199.8 208.6 218.4 228.3 237.5 245.3 250.6 254.9 255 250.7 256.1 263.2 271.3 279.9 288.5 297.3 305.4 313 321.8 329.2 336.5 346.2 354.7 361.3 365.9 368.7 367.1 363.5 362.9 354 325.7 303.2 282.6 262.7 244.4 229.8 231 241.1 252 264.8 275.9 283.5 289.1 296.7 306.9 317.1 326.7 336.3 342.7 346 347.1 346.2 343.9 338.4 332.3 328.4 325 317.6 309.3 303.3 309 315.8 321.6 327.6 333.8 337.9 342.7 351.8 358.5 365.6 371.9 379 388.5 406.4 416.1 427.5 439.4 457 465.9 478.5 496.5 514.7 527.6 540.5 550.7 559.5 562.9 583.1 593.3 599.2 617.9 624.7 627.2 628.6 627.8 627.6 629 629.1 629.3 630.8 634 635.4 635.3 635.3 634.7 634 634.9 635.4 635.2 634.4 635.2 633.9 633.8 633.8 632.6 629.9 627.8 625.8 621.4 621.2 618.8 617.9 617.1 615.3 615.9 615.5 614.3 618.4 619.7 622.3 623.6 624.9 626.1
272.4 264.2 252.7 240.1 228.7 217.5 209.6 204.4 199.3 194.9 190.1 186.1 181.1 176.3 170.7 164.3 166.5 169.5 175.4 178.9 183.7 196.3 218 215.4 212.8 211.4 212.4 214.2 216.9 220.7 227.2 236.8 242.3 247.7 254.7 261.8 269.6 269.7 265.8 268.3 276.4 287.1 296.1 305.1 306.6 290.8 285.5 277.5 261.6 249 242.1 237.9 239.6 242.6 249.3 245.6 235.7 223.2 214.1 206.9 202.2 196.7 190.9 179.8 188 192.9 195.6 198 206.2 216.9 226 234.2 243 247.9 251.7 246.7 246.7 253 260.1 268.5 277.2 285.8 295.1 303.9 311.8 320.8 327.7 336.1 344.9 352.9 359.7 364.4 368.1 367.3 363.5 359.7 343.9 316.5 295.9 276.9 258.8 243.2 228.2 229.9 239.5 250.2 264.3 273.4 277.7 284.3 296.1 307.9 318.5 329.4 339.8 347.4 351.6 355.1 355 355.4 351.3 345.3 340.8 336.5 328.2 320 315.5 313.9 313.1 314.6 319.6 325.1 331.3 340.2 350.4 358.6 364.5 370.9 378.1 387.5 404.6 416 426.2 440.6 459.3 466.3 474.1 492.2 511.4 522.2 532.8 544.2 557.3 565.7 581.3 593.7 606.9 619.6 625.4 627.9 630 631 631.8 631.9 631.4 631.5 633.1 635.3 634.9 635.5 635.4 635.2 634.8 635.8 636.1 635 633.8 632.4 634.4 633.8 632.2 630.1 627.4 628 623.3 620.2 619.1 615.1 614.2 614.4 612.2 613.1 612.3 614.7 616.5 618.3 620.5 624.4 625.8 627
270.8 262.3 251.1 238.6 226.5 216.7 209.4 204.5 199.6 195 190.6 186 181.2 176.6 169.9 163.6 164.4 169.2 173.5 178.2 183.2 195.9 218.7 216.1 214.3 213.2 214.1 216.2 221.1 226.6 231.2 235.8 240.2 246.1 252.8 259.7 266 264.2 260.6 264.2 270.7 283.6 292.1 301.4 295.9 278.1 273.7 262.4 247.8 237.3 231.9 224.7 229.5 235.6 239.3 229.9 219.9 209.5 203.4 198.6 195.4 192.3 183.8 179.4 188.1 192 194 196.4 203.7 214.9 223.2 231.7 237.2 244.6 246.3 238.8 242.7 249 257.4 265.5 274.5 283.3 292.5 300.6 310.1 318.7 326.2 334.5 342.8 350.7 357.5 362.9 367.1 367.5 363.5 358.8 333.9 310.9 291.6 274.2 256.9 241.7 229.4 227.2 235.6 247.6 261.6 268.6 272 282.8 295.6 308.1 319.4 330.9 342.1 350.8 355.7 361.4 366.2 367.8 364.4 360 354.9 347.9 340.4 330.6 327.2 325.4 324.5 324.8 324.2 324.3 328.5 334.4 344.2 353.3 362.3 370.1 377.2 385.8 399.8 413.8 424.2 436.6 451.2 462.3 470.3 489.1 509.7 523 538.8 547.2 562.7 575.7 591.7 600.4 611.3 620.7 626.1 629.1 632.8 633 633.3 634.2 633.9 633.3 635 635 635.2 635.7 636.1 635.6 635.3 635.7 634.8 634.3 633.4 630.9 632.2 631.6 629.9 628.5 625.7 621.5 619.4 618 617.9 614.8 614.2 611.9 606.5 610.2 611.9 614.1 615.6 617.6 617.9 621.4 622 623.7
268.8 261.4 250.2 237.6 227.3 218.9 211 204.1 199.4 195.1 190.5 185.8 181.6 177.5 171.7 162.1 163.1 168.4 173.1 177.5 182.7 196.6 217.4 217 215.5 214.8 215.8 218.7 225.3 230.2 232.9 236.5 239.3 245 251.1 257.6 259.8 255.9 256.1 262.1 269.7 280.4 288.3 296.5 279.5 268.5 261.2 246.2 235.7 226.2 222.1 216.8 219.4 228.4 224.4 215.7 205.4 198.9 195.3 192.1 189.3 187.6 179.2 178.8 188.1 190.7 192.8 194.7 202 211.4 219.9 229.4 234.9 240.4 239.5 229.4 237.2 245.1 253.2 261.4 271.1 279 288.2 298.3 307.7 315.5 323.4 332.5 340 348.3 355.4 361.1 365.7 366.8 362.8 356.8 332.1 310.5 290.2 272.7 255.5 240 227.5 225.7 233.6 245.7 258.1 261 269.2 281 293.4 305.9 317.8 330.4 342.6 351.8 358 364.4 373.3 378.8 377.5 374 369.5 361.3 352.8 347.4 341.1 338.9 337.3 337.3 336.5 333.7 332.2 342.5 347.7 348.4 355.1 366.7 376.3 384.5 393 406.3 418.4 425.8 442.9 456.2 465.7 491.6 511.2 528.1 541.6 554.2 569.3 587.3 599.2 612.8 617.7 621.2 627.5 631 635 634.5 634.7 635.2 634.3 634.1 634.3 634.5 634.9 634.1 634.9 634.6 634.7 633.7 633.6 632.5 632.1 630.7 629 629.1 627.3 625.2 623.6 618.7 615.5 615.5 614.6 613.6 612.5 609.5 604.2 608.3 612.5 613.4 615.1 615.8 615.3 618.1 618 618.6
269.5 261.4 252 241.4 232.3 224 216.1 206.3 200.7 195.3 190.4 186.1 182 177.8 172.2 163.5 162.5 167.6 172.3 177.3 183.5 196.7 214.6 217.1 216.6 216.2 217.4 220.9 227.2 231.6 234.2 236.3 239.3 244.7 250.6 255.1 251 249.3 251.4 259 267.7 277 285.2 283.9 265.9 259.2 249 233.5 224.5 216.3 212.1 208.7 213.7 217.7 209.6 202.4 196.6 191.7 189.2 186.4 181.4 178.8 177.4 181.8 187.2 189.8 191.2 193 198 207.4 215.5 224.4 229.2 234.8 231.1 223.7 231.3 239.7 246.4 255.5 265.5 274.7 284.9 295.4 304.1 311.4 320.3 329.5 337.1 345.2 352 358 363.2 365.9 363.6 357.9 332.9 309.9 294.6 276.7 257.4 239.6 226.3 223.9 232 243.9 251.9 257.1 267.2 279.4 291.8 304 316.6 329.7 341.7 350.7 357.2 364.9 377.9 386.3 387.3 384.7 379 370.7 365.5 360.4 358.3 360 359.3 356.9 352.3 347.8 344.2 344.2 355.3 360.8 363.6 366 367.8 375.5 381.6 390.6 402.3 412.7 425.4 446 469.7 496.3 515.3 528.6 543 556.2 574.4 589.8 601.6 612.7 619.6 623.6 627.4 631.9 633.9 634.3 635.3 635.1 634.6 634.1 633.6 632.7 632.4 632.3 633.1 633.3 633.9 633.2 631.4 631.1 629.9 627.7 625.8 625.2 623.9 622 621 618.2 612.5 614.1 612.7 612.6 609.4 608.5 605 607.1 611.1 612.8 614.3 613.3 611.8 613 613.2 611.5
269.2 261.5 253.5 244.9 238.4 228.2 219.3 209.5 202.9 196.2 191.2 186.4 182.3 178.2 170.1 160.6 162.8 166.7 171.3 176 183.2 196.1 213.1 218.1 217.9 217.1 218 222.8 229 232.4 234.2 237 240.5 245 248.7 245.6 242.8 243.5 248.1 257.2 264.5 273.5 280.7 266.1 253.5 246.7 233.7 220 212.6 207.6 204.6 200 203.6 204.4 198.1 192.4 186.2 183.3 183 181.7 179.8 177.1 178.2 183.1 186.6 188 190 191.9 194.2 202.9 211.9 221 226 229.8 220.1 217.9 224.3 231.5 239.6 249.2 260.6 270.9 281.7 292.8 300.5 307.8 316.4 325.2 333.7 341.9 348.7 354.7 360.7 363.3 363.9 361.6 344.5 315.5 299.1 281.1 260.5 241.7 227.1 221.9 229.4 239.3 248 256 265.4 277.5 290.7 303.5 315.8 328.7 340.2 348.8 355.4 363 374.8 384.9 390.9 390.7 386.1 378.6 375.6 373.3 371.9 372.4 373.3 374.6 372.8 366.6 358.9 354.3 357.7 365.8 371.6 378.4 384.7 389 396.6 398.7 410.4 420 432.5 450.1 475.1 496.2 516.9 530.8 545.1 564.9 581.6 589.4 600.1 609.6 616.8 623 627.8 631.1 632.3 633.7 635.2 635.9 635.1 633 631.2 630.8 627.9 630 631.6 632.1 632.4 632.6 631.1 629 629.2 627.6 625.6 622.2 619.5 619.8 618.1 616.5 613 610.1 610.9 609.2 609 606.2 601.4 604.3 608.3 611 610.6 609.2 608.3 609.1 609.6 608.8
266.9 260.5 253.9 246.2 238.5 229.5 220.1 210.5 204.2 197.2 192 186.4 182.2 178.1 170 161.4 161.1 166.1 170.4 175.2 182.3 195.9 214 220.5 219.1 217.9 218.7 221 224.3 230.4 233.5 236.4 240.4 240.9 238 236.4 237.3 239.8 246.2 254.7 263 262 267.5 250.2 240.1 230 215.6 209 202.4 199.6 197 193.9 194.7 191.4 186.3 179.8 180.5 178.2 177.7 177.5 175.8 173.7 180.9 181.4 184.4 186.5 188.2 189.9 191.8 197.8 207.1 214.6 221.5 219 212.5 212.5 218.8 225.6 233.8 244.7 256.9 268 279.9 289 296 303.4 312.4 321.3 329.7 337.8 345.2 351.5 357.8 362.7 365.1 361.3 344 322.7 300.3 280.1 260.2 239.4 223.8 221.5 231.7 243.6 250.5 257.2 265.9 277.2 290.3 303.4 316.4 327.9 337.6 346.8 353.7 360.2 371.1 382.1 389.9 392.9 390.2 385.3 383.4 382.8 382.7 383.7 385 386.4 385.8 382.2 374.8 368.3 355 369.4 379.6 386.8 393.5 398.3 407 415.2 416.6 426.7 439.3 457.4 484.3 506.4 524.3 534.6 550.3 569.1 581.3 588.2 597.5 606.4 618.6 627.2 628.4 630.9 632.6 633.5 633.6 633.4 633.4 631 629.1 626.5 625.9 626.7 628.9 630.6 631.9 630.8 629.3 628.9 626.6 625.9 622.9 621 617.3 615.2 612.9 611.9 610.3 607.4 607.8 606.9 604.6 602.7 592.2 600.4 603.9 605.8 604.3 602.6 603.1 606.2 605.7 604.3
262.4 256.6 252.4 246.7 239.7 230.6 221.3 212.1 204.2 197.8 192.7 186.6 181.5 177.3 172.5 166.3 157.6 162.7 168.4 174.2 183.8 196.9 215.7 221.8 220.3 217.8 216.4 217.4 217.9 223.3 226.3 228.1 229 228.4 227.8 227.6 233.1 237.8 245.4 254.1 260.9 261.9 251.1 236.7 225.4 212.7 201.8 198.1 195.4 193.7 190.7 184 183.6 177.6 174.7 173.2 171.1 171 173.4 175.2 173.2 175.4 180.9 181.8 182.8 184.3 186.3 188 189.7 194 202.1 208.6 208 206.7 206.1 208.7 213.7 220.6 230.7 241.5 253.1 265.7 276 283.7 291.9 299.9 308.5 317.3 325.8 333.9 341.8 348.2 354.5 358.8 360.3 351.1 331.8 310.4 292.6 272 252.4 233 219.8 219.4 236.3 243.4 250.1 258.2 266.9 277.5 290.6 303.7 315.3 324.8 334.4 343.7 351.2 357.7 367.6 378.6 389.1 393.5 393.7 391.1 389.9 389.4 390 391.2 393.4 396.3 395.3 393.1 388.1 379.4 370.5 368.1 381 390.5 398.8 407.8 416.6 424.7 429 432.1 446.5 462.5 490.8 512.8 527.9 543.7 560.4 573.8 580.6 588.6 600 615.9 624.2 627.9 629.7 630.2 631.3 632.7 632.7 631.7 630.3 627.6 625.5 623.7 621.5 622 625 626.5 627.7 628.5 628.4 626.9 625.6 623.4 620.6 618.1 615.9 612.7 608.5 608 608 605.1 605 603.1 599.7 589 587.9 594.7 597.5 598.9 596.7 595.4 596.6 599.7 599.9 599.4
258.6 253.8 249.7 245.1 239.3 231.5 222.3 213.2 205.5 198.5 193.1 186.8 180.7 176.4 171.7 165.3 155.8 161.4 166.9 173.6 183.3 198.5 218.3 222.9 221.2 218.1 215.5 215.3 214.7 214.4 216.9 217.3 219.6 220.9 222.8 226.5 231.5 238.5 245.8 252.5 257.6 250.4 236 222.6 212 201.4 191.7 186.5 185.7 183.5 183 178.5 175.3 172.3 169.8 169.6 169.7 170.4 170.3 172.2 173.4 173.8 176.6 179.3 181 182.7 183.3 185 186.6 189.7 198.7 195.3 199 200.5 200.9 205.3 209.9 218.4 227 236.7 247.1 259.7 270.7 279.3 288.3 296.3 304.7 313.3 321.8 330 337.8 344.8 351.4 356.5 353.5 336.2 315.7 294.8 277.9 261.5 244.2 225.7 218.3 220.2 235.3 242.5 250.5 259.3 268.4 279.2 291.3 303.9 313.3 321.9 331.1 340.6 348.1 354.7 363.6 374.7 385.2 391.1 394.4 394.4 393.3 393.4 394.8 396.5 397.7 402.1 403.1 403.3 401.1 388.4 374.2 380.8 384.6 385.9 397 405.7 415.8 423.9 431.4 438.9 450 467.2 494.5 513.8 530.3 545.7 562.9 573.6 580.6 590.8 606.7 620.6 626.8 629.7 630.3 631.8 632 632.2 632.1 629.9 627 626.3 623.3 620.8 616.7 618.3 620.3 622.6 625.6 625.9 626.6 625.4 624 623.2 620.5 616.3 613.4 611.1 609.7 608.7 608 607.9 608.2 607.9 604.4 590.9 577.6 583.1 589 588.1 586.5 585.4 586.3 591.1 592.4 593.8
257 252 246.9 242.9 238.7 232.3 223.4 214.5 206.7 199.1 193.2 187 180 175.5 168.1 161.4 156.9 160.5 166 173.1 183.5 197.8 219.4 224.3 221.5 218.4 215.4 213.5 212.4 212.3 213.1 214.9 216.3 218.7 222 227 231.9 239.2 245.7 249.5 242.1 232.4 220.7 209 196.9 189.2 184.6 182.1 179.7 176.5 175.9 173.7 171.1 170.2 169.3 169.6 170.2 171 175.6 175.4 172.4 173.9 174.7 175.9 178.4 179.9 180.3 181.1 181.4 183 188.8 191.3 195 196.1 197.2 201.4 207 214.6 223.4 232.3 241.6 252.8 264.6 275.1 284.6 292.6 300.8 309.3 317.8 326.2 333.9 341.3 348.3 352.1 339.5 319.9 299.6 279.3 263.2 248.3 232.6 218.9 217.1 229.3 240.1 245.3 252.7 260.4 270.3 281.2 292 301.9 311.1 319.2 327.8 337.3 345 352 359 369 379.4 387.1 392.6 395.9 395.5 395.9 398.4 400.1 401.7 405.6 408.7 409.6 408.2 400.1 380.9 389.3 393.1 395.1 395.4 406.9 414.6 423.8 433.8 445.8 459.3 477.2 509.6 527.1 533 543.3 557.9 569.5 579.4 593.3 610.1 622.8 629.6 631.3 631.8 632.9 633.2 631.6 629.4 627.5 624.9 623.9 620 617.6 614.2 614.8 617.4 619.3 622.3 622.5 622.3 623.7 623.2 622.7 619.7 617.3 613.9 612.3 611.8 609.4 610.5 609.9 610.2 609.6 606.4 593.3 569.5 547.2 569.2 571.5 569 565 568.2 580.3 585 588
252.9 248 243 238.9 236.8 232.4 224.5 216.7 209.2 201.4 194 187.5 180.3 171 164.4 158.5 154.9 159.5 166.4 173.4 181.6 195.1 217.4 224 221.6 217.8 214.7 212.4 210.2 208.7 209.6 212.6 214 217.6 222 227.3 233 237.9 234.9 229.7 220.8 214.7 206 193.2 182.1 181.1 180.5 177.5 174.7 171.9 172.3 168.9 169.5 169.1 169.5 170 173.5 179.3 179.6 180.1 179.4 172.8 173.3 174.4 176.1 177.5 178.3 178.9 178.3 181.4 184.4 190.4 191.1 191.5 193.7 198.5 203.8 210.3 217.8 225.3 236.8 247.1 258.7 269.6 277.8 287.1 296.2 304.9 313.6 322.1 329.4 337.2 343.7 339.2 323.9 305.1 284.4 266.2 249.8 234.9 221.1 214.6 220.4 240.8 249.4 251.5 256.3 264.1 273.9 284 294.4 303 309.6 317.1 323.9 332.4 339.2 347.3 354.3 363.1 372.4 382.4 390.7 396.2 396.9 397.8 399.5 401.5 404.2 408 411.5 413.8 413.3 408.3 393.7 392 398.8 402.4 406.4 407.7 412.8 424.2 436.3 447.7 465.8 493.4 519.9 531.4 536.3 546.5 557.8 567.4 578.8 596.1 615.1 624.7 631.1 632.3 632.9 632.3 632 628.8 626.7 625 623.2 620.9 616.6 613.9 611.8 611.3 614.3 616 619 618.9 620.9 621.7 624.1 624 620.2 617.1 614.6 613.3 612.5 613.2 616.2 614.4 611.2 608.6 604.7 580.1 551.6 520.1 537.7 538.5 534.4 533.7 539.6 556.9 565 575
249.3 244 237.3 233.8 230.9 227.1 221.8 214.3 209.5 205.7 198.7 190.4 181 169.1 161.3 158.8 153.2 158.8 166.7 171.3 178.7 189.1 208.9 221.5 215.8 213.2 211.1 208.4 206.1 204.4 207.4 210.3 210.9 214.4 216.7 226.7 227.8 222.5 214.1 207 205.5 200.1 190.5 175.2 170.8 173.9 170.2 169.1 168.4 168.4 170.2 170.2 170.4 176.8 181 181.2 182.9 183.6 183.8 182.3 182.4 178.4 178 177.3 176.5 176.7 177.5 178.2 180.2 181.7 180.6 189.2 186.1 188 192.1 196.7 201.1 208.1 214.6 223.2 233.4 243.1 252.8 263.8 272.8 282.4 291.2 299.9 308.4 316.8 324.3 331.7 335.4 325.8 308.6 290.3 270.7 253.4 236.1 222.2 214.7 214.3 230.2 245.9 251 252.9 257.2 266.9 276.2 284.8 293.2 300.3 306.7 310.9 315.1 324 332 340.8 348.8 356.1 365.9 375.9 388.1 395.1 395.3 395 398.6 401.3 404.7 408.9 413.2 416.6 419.4 419.4 406.1 394.4 401.7 408.4 416.7 417.4 422 428.4 438.6 451.2 474 507.5 535.7 538.9 541.1 549.6 558.8 567.6 582.5 599.9 616.6 627.4 632.3 633.3 633.3 631.5 630.5 627 623.5 622.6 620.9 617.5 612 608.7 609.7 606.9 610.2 612.7 614.2 615.6 618.4 622.9 625 621.1 617.5 614 614.9 613.7 613.6 616.2 615.9 613.9 610.8 604.2 600.3 569.8 536.7 502.6 502.4 506.4 505.5 504.6 513.3 524.5 528.9 544.3
246.4 238.7 230.5 226.1 220.8 219.5 214.6 208.1 203.2 200.6 197.9 189.9 178.4 166.8 157.9 155 154.4 160.7 166.1 167.8 175 181.4 192.4 197.9 195.6 192.1 192.1 189.5 189.3 187 196.2 200.7 197.4 198.1 210.1 209 204.7 202 195.6 193.7 192.6 187.3 173.7 164.3 165.6 166 166.3 164.6 170.2 170.3 170.2 173.6 179.4 182.9 191.2 193 191.3 193.3 193.4 192.2 190.1 187.5 184.8 183.2 182.4 182 180.2 180.3 181.5 182.5 186.3 185.8 183.7 186.8 190.2 194.5 198.6 204.3 211 220.4 229.2 238.9 248.6 257.7 267.8 278.1 286.5 294.3 303 311.4 319.1 324.8 324.4 307.3 289.9 279 255.8 237.2 222.1 213.1 212.5 229.2 235.9 241.4 245.5 249.6 255.9 265.1 274.7 282.5 289.8 295.1 297.2 300.1 303.6 309.5 317.3 331.7 343 350.9 359.6 369.8 382.5 390.6 390.9 391.8 393.6 398.7 404.3 408.7 413.9 419.9 423.4 424.9 420.9 408 400.4 409.6 420.5 425.2 429 437 445.5 459.8 482.2 516.2 536.2 542.1 543.9 550.8 559.9 570.8 586.6 604.5 618.3 628.2 632.1 633 633.7 630.7 627.3 623.7 620.2 619.2 617.6 614.8 610.6 603.5 604.3 602.2 605 606.2 609.2 611.6 612 618.1 620.2 612.4 610.4 609.9 609.9 608.9 608.7 612.3 610.1 608.1 608 599.3 590.2 558.8 525.9 496.2 480.6 482.9 481.4 477.9 484.4 490.9 498.1 512.9
242.9 232.3 228.4 221.7 216.1 211.3 207.6 201.2 195.4 191.9 189.2 183.1 171.6 162.4 157.4 152.4 154.8 160.5 162.9 162.9 170.2 174.7 177.3 176.6 176.6 171.4 168.1 168.6 170.4 174.7 178.4 179.3 181.5 184.4 188 186.8 185.3 184.8 183.1 182.6 182.1 173.5 164.8 164.1 163.9 164.3 167.8 171.2 170.2 170.2 175.8 179.9 182.7 186 190.9 194.3 197.1 196.8 206 195.1 195.6 195.8 192.6 188.7 187.2 186.5 184.5 183.6 184.4 186.6 188 188.5 189.6 187.3 188.3 192.5 195 200.7 208 217.4 225.1 234.8 243.9 253.1 262.9 273.1 280.9 288.2 297 303.5 310.2 313.4 308 284 273.5 261.6 239 212.5 211.5 214.8 212.2 219.6 228.9 234.5 239.5 244.8 252.9 262.2 271.1 277.7 282.3 283.8 280.6 279.6 282.7 288.1 297.1 313.1 329.9 343.8 352.7 363.4 373 379 379.8 382 388.5 395.1 402.8 408.6 416.1 423.5 427.5 430 428.4 420.1 414.2 410.7 415.3 426 436 443.8 455.9 479.4 509.3 524.9 532.1 540.1 544.2 551.6 562.6 575.9 592.9 608.7 620.4 626.2 630.3 631 630.8 627.6 624.7 620.3 617 613.8 611.2 606.5 603.7 597.5 595.6 595.2 598.2 599.2 602.1 604.5 604.3 608.9 604 597.3 596.1 602.8 602.7 603 602.5 606.3 604.3 599.9 598.5 594.2 583.4 559.7 529.6 497.8 473.6 461.6 462 459.9 464.5 465.8 477.4 488
243.8 235.7 226.5 218.6 211.5 206.8 202.2 195.8 191.2 187.6 183.8 177.5 169.7 163.9 158.7 151.1 153.3 153.6 155.6 159.3 162.4 166.7 165.8 159.5 155.7 153.6 155.9 156.5 156.9 160.1 160.4 160.3 161.9 164.5 168.1 171.5 173.1 173.3 172.8 171.7 171.2 164.6 163.3 164 163.8 169.1 172.6 172.8 175 178.3 181.9 184.1 185.5 188.3 190.5 194.3 198.9 203.9 207.1 193.8 194.3 204.7 203.3 197.5 192.5 191.1 190.3 190.4 190.8 188.1 188.5 189.1 190.4 189.8 190.7 189.1 191.4 197.3 205.1 214.5 221 230.3 239.3 248.2 258.1 268.1 275.8 282.2 289.2 293.8 297.9 298 289.3 271.2 257.3 243.4 224.1 210.9 213.8 213.8 219.5 215.1 220.7 231.5 236.9 243.3 250.4 259.3 266.6 271.5 270.7 264.8 260.2 262.8 269 273.3 283.7 297.4 311.6 327.4 343.6 354.7 360.3 360.1 359.3 364.2 379.5 393.5 402.3 410.5 418.1 425.8 430.4 433.6 434.7 434.4 432.8 428.1 426.2 431.3 443.7 453 467.7 498.1 524.6 533.7 535.5 539.4 545.7 555 566.4 581 596.9 609.1 618.7 624.2 627.1 626.9 626 624.6 619.9 615.1 610.6 606.8 604.7 595.9 593.1 589.4 586.9 585.7 587.5 587.1 589.6 594.6 596.5 599 587.7 582.1 583.7 590.4 595.6 595.9 596.1 597.5 595.7 591.9 589.9 584.8 571.3 556.9 532.5 508.8 482.9 463.9 446.5 434.5 443.8 443.7 463.3 472.5
244.8 236.8 228.7 218.7 209.4 202 198.1 192.3 187.7 183.6 179.8 175.4 170.8 164.4 159.1 153.3 150.4 149.8 152.4 149.9 151.9 155.7 155.9 153.5 154.5 155.9 157 155.5 155.7 157.5 158.1 158.3 158.5 159 160.8 162.5 164.4 164.5 163.2 162 161.7 162.4 165.9 168.7 171.3 178 180.1 182.6 185.2 186.5 187.6 187.9 189.1 190.8 191.6 193.4 198 203.2 194.8 193.9 194 209.2 213.9 205.4 199.4 195.1 194.5 194.7 195.9 194.8 194.7 193.8 192.9 191.7 192.8 188.7 189.1 191.3 200.7 210 216.1 223 233 243 252.3 260.9 269.3 274.2 274.1 278.9 277.1 272.7 263.9 254.8 240.6 227.5 213.5 210.1 214.2 220.1 223.3 220.1 216.4 227.9 235.2 241.9 248.7 254.4 259 257.5 250.7 257.3 267.8 277.6 283.9 287.1 286.7 281.9 297.9 311.4 329.1 341.2 346.7 334.7 343.9 358 373.1 391.1 403.7 412.2 420.8 427.4 432.1 435.7 439.9 445.8 448.5 444.1 440.1 442.2 452 464.2 483.8 505.2 524 533.4 537.8 542.5 552.3 560.8 572.4 586.8 600.3 609.5 616.7 621.8 623.8 622.7 621 620.1 614.3 609.3 604.4 599 593.2 586.2 584.1 582.3 577.4 576.1 576.6 575.4 577.1 581.6 584.1 581.3 571.5 567.3 571.2 578 590.8 595.9 591.8 589.4 588.1 583.9 575.8 565.3 562.8 561.8 545.4 523.4 503.4 477.6 461 440.7 422 427 439.1 454.8
243.7 235.8 228 219.2 209.3 201.1 194.9 190 185.1 182 177.9 173 168.9 162.9 157.5 151.9 148.8 150.2 153.4 152.1 152.2 153.6 153.1 154 154.8 157.2 156.9 156.2 155.8 159.9 159.8 159.3 159.8 159.9 158.5 159.5 158.3 161.5 162 163.3 165.7 170.1 173.1 176.2 179.3 183.5 187.1 190.7 194.8 198.4 195.6 193.3 193.5 193.9 195 195.7 197.3 203 208.5 201.1 205.5 216.1 227.3 214.7 207.4 202.9 199.7 199.3 199.3 198.8 198.3 196.7 195.4 193.7 195.8 198.7 189.2 189.8 192.5 197 208.1 216.3 225.4 233.4 243.3 250.8 255.7 257.9 259.1 252.1 250.5 249.3 241.7 232.2 222.4 211.1 209.1 208.8 212 223.5 228.7 229.1 217.2 223.1 234 240.1 243 245.9 244.8 245.2 256.3 268.8 280.6 289.8 297.9 304.7 304.5 299.5 297 301.4 316.3 329.3 330.9 335.7 351.3 368.9 385.2 396.3 404.3 413.1 421.8 428.2 433.9 438.1 445 454.4 465.5 458.9 451.5 454.3 464.6 482.8 503.2 517.5 528.7 536.2 541.9 550 562 573.4 582.5 594.4 602.9 609.4 614.6 616.9 618.3 617.4 617.1 614.8 609.1 604.3 599.5 592.3 581.9 578 575.7 571.4 565.7 561.8 561.5 559.9 561.7 563.3 556.3 551.1 549.9 553.4 556.9 565.8 581.6 595 594.1 589.6 576.2 565.7 555 554.2 557.4 559.6 555.2 538.1 527.2 492.5 468.7 450.2 431.4 414.5 416.8 436.3
243.7 235.4 227.3 219 208.8 200.8 193.1 187.7 182.5 179.4 175.7 171 165.1 157.7 152.9 148.3 149.5 149.7 154.7 156.9 157.8 156.4 152.5 156.1 157.8 166.4 166.9 167.1 167.7 169 169.5 168.8 168.1 166.8 164.9 166.8 167.8 170 171.2 172.8 175.5 176.5 178.5 180.8 182.7 188.1 190.9 194.9 198.5 202.9 205.2 204.6 202.2 201.3 200.1 200.8 201.9 203 208.8 212.6 214.7 229.7 232.7 225.5 217.4 211.1 207.2 204.8 203.1 201.8 200.7 199.4 198.1 195.6 198.4 203.4 200.3 189.9 191.4 191 195 202.3 211.1 219.5 226.8 232.5 237 238.3 237.2 233.7 234.8 228.8 222.4 216.9 208 207.9 207.1 209.8 217.4 225.8 231.2 234.9 224.9 219.1 230.3 233 232.7 236.9 245.5 256.3 267.8 277.4 287 296 304.8 315.2 323.7 324.2 319.2 315.3 312.1 316.2 328.4 342.1 358.3 374.9 391.4 403.4 410.7 417.9 424.8 430.7 436.1 441.7 449.1 460.4 469.2 472.4 472.4 473.7 481.8 495.3 512.3 527.5 540.3 551.3 560.3 569.5 582.6 592.5 597 599.4 604.4 608.8 610.6 611.1 612.6 611.9 614.4 609.9 602 598.4 591.8 582.2 573.7 568.2 564 559.4 549.6 544 548.1 546 538.9 531.7 528.4 528.1 530.9 537.6 538.1 546.5 560.1 578.8 588 579.1 556.1 544.8 542.3 544.8 550.1 557.6 560.1 541.8 527.5 497.7 475.1 460.4 438.4 417.4 398.4 411.6
241.7 233.8 225.9 217 208.7 199.8 191.8 185.4 180.1 176.1 172.5 167.3 160.8 154.4 150.7 148.6 149 149.5 153.1 157 158.4 158.9 161.1 164.6 169.4 174.3 176.6 176.1 172 172.8 175.6 176.5 177.3 176.3 174.1 177.6 179.4 179.7 179.2 179.8 180.9 182.8 184.2 187.9 189.6 192.7 196.1 198.3 202.8 206.9 211.6 215.1 212.5 209.4 207.2 205.9 206.7 205.2 210.4 217.6 222.7 230.9 234.5 233.3 227.8 222.5 216.6 211.8 207.9 206.8 205.4 202.8 200.2 195.4 201.1 207.8 211.4 202.3 198.4 196.5 193 193.5 195.4 200.7 208.5 212.8 215.4 216.1 212.4 213.5 213.2 210.9 208.5 206 205.9 207.8 211.9 220 225.9 231.5 236.2 239.4 237 220.9 219.6 228.4 235.3 243.3 253.6 263.8 272.8 281.7 290.5 299 308.4 318.9 329.9 339.3 342.6 340.6 337 338 346.6 359.5 373.5 385.6 401.1 409.9 416.4 421.8 427.3 432.5 438.6 445.1 455.7 467.8 479.6 487.9 491.7 494.5 502.1 513 526.4 544.3 563.1 575.5 584.5 590.8 597.7 600.9 603.9 603.8 604.9 605.4 605.1 604.8 607.1 606.3 604.2 599.9 594.1 590.2 582.7 573.5 564.6 557 551.4 542.4 536.4 520.9 526.8 518.1 514.9 511.6 510.5 510.7 514.3 517.3 520.2 529.7 538.8 550.4 564.3 548.9 536 531.3 531.5 536.1 545.5 555.1 561.6 547.6 521.8 495 477.5 463.5 442.8 420.7 405.1 390.5
239.1 231.1 223.2 213.8 205.3 195.6 188.4 182.5 178.2 173.5 167.7 163.8 156.3 152.3 149.7 148.8 149.2 149.6 149.8 157.1 158.6 161 164.6 168.6 176.9 182.2 182 179.2 175.2 177.8 178.6 179.3 180.2 180.2 180.5 183.9 186.7 186.2 187.6 189 192.3 193.2 194.6 199.4 201 202.7 203.3 206.6 207.2 211.3 216 220.4 224 220.5 217.2 215.5 214.7 212.5 211.2 221.9 225.9 229.9 236.5 241.6 238.8 234 226.8 220.3 215.8 211.6 209.1 206.5 204.2 196 199.2 207.7 217 220.4 209.3 207.7 206.9 205.4 200 201.6 195.6 197.2 199.6 202.3 203.3 203.9 204.2 204.1 204.4 205.3 212.8 219.7 222.7 226.6 232.2 237.4 241.6 245.3 244.9 238.6 223.5 226.3 235.2 243.7 254.8 265.3 275.5 283.5 291.9 300.6 309.8 320.4 332.1 342.4 349.4 354.3 360.7 363.6 370.7 381.6 390.2 399.5 408.8 416.3 420.8 424.4 428.9 433.9 441.8 450.7 466.8 478.9 495.4 518.6 524.3 525.3 527.4 540.6 555.9 569.2 585.5 596.1 600.9 600.4 601 601.6 600.6 598.2 599.2 598.8 598.1 600.8 600.1 596.3 593.4 589.8 587.2 579.9 570.2 562.2 551.2 541.8 532.7 527.3 520.8 494.2 504.6 502.3 499.3 498.8 498.3 498.6 499.9 501.1 506.4 515.2 523.2 530.8 535.4 525.7 523.1 521.2 523.1 533.5 544.6 554.4 561 559 525.2 496.2 478.5 464.2 443.3 422.3 404.2 389.9
235.4 228.2 219.2 210.9 202.9 193 185.1 179.4 175.9 169.5 163.5 159.9 152.1 150 148.4 147.5 149.2 149.6 152.5 158.2 160.4 162.9 165.9 170.2 184.8 187.4 184.7 182.1 178.5 178.8 181.4 182.1 182.9 183.9 186.5 189.8 192.2 192.2 193.6 201 203.9 204.6 206.6 211 214.1 213.7 217.9 219.5 217.5 217.6 220.3 224.6 228.7 234.1 228.5 226 222.2 220.7 220.9 218.6 226.7 231.7 238.5 243.5 247.1 245.8 237.6 229.1 223.4 217.8 214.1 211.6 207.9 201.6 199 208.2 216.9 223.6 221.2 217.7 217.7 217.5 205.8 208.4 211.7 210 220.5 218.2 213.6 215.3 216.1 218.1 219.8 221.2 224.3 228.7 232.2 236 242.2 246.4 249.5 251.2 253.3 250.7 233.2 225.3 228.6 240 252.4 263.8 275 283.6 292 300.4 308.6 320 331.9 341.9 350.5 359.4 368.7 377.7 387.3 394.3 401 409.6 415.6 420.1 422.2 424.8 430.3 436.7 444.6 456.6 474.2 491.9 520.3 540.8 548.9 557.8 559.9 570.3 580.5 585.7 590.3 595.9 595.6 597.4 594.1 589.7 585.4 584.1 585.5 589.3 596.1 594.7 592 590.2 587.1 584 578.6 566.7 561.7 549.9 536.5 524.3 518.4 510 504.3 494.3 488.9 489.5 483.6 485.8 485.9 487.7 488.9 490.1 496.4 503.1 506.3 511.5 512.2 512.6 512.8 510.5 521.5 532 544.8 555.9 561 559.4 531 501.8 480.5 464.2 442.1 425.4 406 389.5
230.4 223.5 215.5 207.8 199.6 190.7 182.8 176.9 171.1 164.4 157.9 151.7 148.6 148 147.5 146.3 151.2 157 158.9 159.9 162.1 164.7 167.5 171.9 184.6 188.2 186.5 184.5 181.9 179.9 183.9 185.1 186.6 188 189.6 192.1 196.8 198.9 197.1 203.1 209.8 213.7 217.1 216.9 226.3 234.5 236.5 238.9 235.6 232 228.9 229 231.4 237.7 238.2 236 232.7 229.4 227.6 225.3 228.1 230.8 239.4 244.6 250.5 256.1 247.4 238.4 230 225 220.8 216.6 211.5 204.6 201 207.2 215.1 224.7 231.2 228.4 227.3 227.4 223 209.1 212 233.7 229.6 228.1 227.5 236.5 240 242.5 239.7 237.5 236.6 238.6 246.7 256 258.1 259.3 259.8 260.8 264.7 263.2 248 233.8 225.1 234 246.7 260.9 272.8 282.2 289.8 297.4 306.9 318.9 331 341.9 350.4 360.1 371.2 381.6 391.2 398.8 407 414 417.4 420.4 422.5 425.2 428.3 436.7 446.5 459.8 479.6 506.5 530.9 540.5 548.7 559.5 567.8 574.8 578 578.9 579.2 580.6 578.1 574.6 567.4 567.2 569.1 574.1 580.3 588.3 595 592.1 587.9 585.5 582.7 578 569.1 559.8 551.2 537.3 520.8 511 502.8 499.2 495.2 487.6 458 468.7 461.7 471.2 475.6 478.8 480.2 480.4 486.9 492.9 496.2 498.1 500.5 501.8 496.5 506.1 517.7 529.1 549.3 556.5 558.4 550.6 531.9 509.8 489.1 467.5 450.5 430.5 413.9 392.5
221.3 213.6 207.1 200.8 194.5 187.3 181 173 165.8 158 150.6 148.2 147.9 147 147.6 146.4 157.2 162.4 161.7 162.1 163.5 165.5 168 172.2 180 185.5 186.7 185.4 183.7 184.1 185.9 187.5 188.6 190.6 193.8 196.6 199.7 202.6 204.2 206.9 213.2 218.7 223.1 224.2 222.2 232.8 239.2 251.8 252.4 250 243.1 237.8 236.8 240.6 244.8 248.9 244.7 239.2 235.3 233.7 234.9 234.9 238.3 246.4 253.9 260.3 258.8 247.5 238.8 232.6 226.4 221.1 215.5 207.7 201.1 208.4 214.1 222.1 232.1 237.8 239.2 238.1 233.6 223.7 237.1 249.6 257.5 263.9 269 271.4 270.9 267.7 265.9 264.3 263.7 267.2 276.4 284.3 287.3 282.6 275.3 273.7 276.8 277.5 264.1 245.3 232.1 228 239.6 258 269.4 278.5 286.6 294.8 304.5 316.7 330.1 341.1 350.2 359.7 370.7 381.4 392.6 400.1 407.6 413.8 417.4 420.6 422.9 422 425.3 435.7 455.2 462.2 476.7 492.5 516.2 535.6 542.6 549.9 557.4 563.1 564.7 563.7 557.5 550.8 546.1 547.4 549.6 553 557 568.8 579.2 587.3 591.6 589.4 585 581.9 578.8 572.5 564.7 554.8 539.1 521.9 509.7 502.4 494.4 489.9 489.7 485.9 466.8 436.2 436.1 446.7 460 462.7 464.6 467.1 478.9 485.7 489.5 490.9 492.3 491.3 490.5 503.4 514.6 527.8 551.5 557.1 554.9 547.3 536.5 515.9 497.6 475.7 456.5 437.8 420.9 399
210.8 204.5 199.5 192.7 186.1 179.5 173.1 167.9 159.8 150.4 147.8 147.6 147.6 145.1 146.9 156.6 162 163.3 163.6 163.7 164.7 166.8 168.8 172.6 179.3 181.4 186.4 187.6 187.2 185.9 188.9 190.3 192.4 197.4 202.4 202.9 204.2 206.2 210.4 211.6 216.8 220.6 216 216.4 224.7 232.9 239.8 246.9 259.9 263.7 260.3 251.8 246.8 246.9 250.1 255.4 259.9 251.8 244.8 241 241.1 239.6 243.5 247.2 256.3 262.5 269.8 259.5 247.9 239.7 233 225.6 219.6 212.1 201.7 206.6 216 220 228.7 238.8 243.9 247.9 245.8 239 237.2 250 259.4 267 273.6 278.3 282.3 284.8 285.3 287.3 291.6 299.4 307.2 314.3 318.5 306.9 291 288.9 293.5 292 280.5 260.1 241.8 229.7 233.5 249.8 265 275.4 283.5 292.4 302.2 314 328.4 339.8 348.6 358.3 369.1 379.9 391.1 398.8 406.1 411.1 414.3 417.7 419.3 416.6 421.7 433.5 453.7 464.1 479.9 485.2 506.1 527.3 534.6 541.6 545.9 545.8 546.5 539.9 530.4 526.2 528 531.5 534.7 536.7 551.3 563.9 576.9 585.7 588.1 584.8 584 583.4 580.3 575.2 563.4 545.3 528.5 513.9 503.6 493.2 484.8 481 485.3 483.9 477.4 457.9 427.2 424.8 441.6 443.7 438.9 454.2 466.4 477.1 482.7 483.4 478.4 466.2 490.8 503.6 513.8 529.6 547.6 557.4 557.1 548.7 539.7 521.1 503.3 483.5 462.2 441.5 424.4 402.4
205.2 199.8 194.6 188.7 182 175.8 169.8 163.4 156.7 146.9 146.9 143.1 145.4 147.1 155.1 160 162.7 163.6 164.1 164.6 165.6 167.1 169.4 172.5 183.8 190.3 191 190.9 189.8 187.7 191.9 194.2 197.1 203.6 213.3 215.5 213 213.5 214.2 216.8 221.2 224.3 214.9 217.9 227.3 229.2 238.7 243.6 260.7 267.5 271.2 270.2 261.5 257.1 255.4 259.3 265.2 269.4 259 252.8 248.4 247.8 249.1 252.2 257.8 266 273.9 274 258.1 247.6 239.7 232.1 225.7 218.4 210 205.6 213.9 218.3 225.1 236.1 245.7 252.1 252.4 252.2 246.3 247.6 263.1 270.6 275.3 280.7 285.3 289.4 293.4 294.9 297.9 303.6 311.6 318.7 324 318 302.8 303.6 307.5 308.6 294.2 273.1 252.8 232.8 233 245.4 263.9 273.3 279.7 289.3 299.7 311.6 326.3 337.9 345.3 356.5 365.9 376.7 387.1 394.5 400.4 405.3 409.1 412.2 414.4 411.9 417.7 425.2 441.7 454.4 469.9 485.3 504.1 512.8 519.2 525.9 530.7 529.1 520.8 513 510.9 512 513.1 517 518.6 532.3 544.5 557.1 571 580.2 579.5 580.4 583 584 582 575.2 562.7 543.2 524.7 511.8 500.7 485.1 470 472 479.5 477.8 467.9 458.5 433.2 403.2 417.2 423.9 415 438.4 452.2 465 470.7 466.9 451.1 473.5 493.3 503.9 512.4 533.3 551.4 551.9 550.8 546.4 537.8 518.5 505 491 469.4 443.9 425.1 402.4
202.2 194.7 191.3 186.2 180 173.6 167 160.3 149.3 143.4 145.1 146.6 147.3 152.2 158.9 161.2 162.1 163.4 164.2 165 166.5 168.3 170.7 178.7 189.3 195.4 194.7 194.4 193.1 190.6 195.3 197.6 201.1 208.5 218.3 222.8 223.9 220.5 219.8 220.7 223.5 226.6 229.1 231.5 240.1 241 236 251.4 256.3 262.9 273.2 279 279.5 273.9 267.4 265.5 269.1 275.7 277.6 266.5 258.6 254.5 255.7 257.5 261.6 268 276 282.8 269 257.4 247.8 240 232.1 225.4 217.5 209.1 209.7 215.7 223.2 232.9 243.2 252.4 257 259.4 257.5 255.7 259.7 271.6 276.7 281.8 286.9 292.1 296.7 300.2 303.2 306.7 312.3 318.9 324.6 323.6 313.6 313.6 317 318 303.7 281.4 261.1 243.1 233.9 244 258 267.9 275.4 286.2 296 309 323.3 335.8 344.6 354 363 372.9 382.1 388.4 394.4 398.4 402.2 405 406.9 404.1 411.6 421.9 431.1 442 460.8 487.3 501.1 507.3 511.6 514.9 514.9 508.4 502.4 499.1 497.8 499.6 501.6 504.6 512.8 525.3 540.6 554.2 565.6 568.3 568.9 576.7 584.9 588.2 586.9 569.1 553.9 539.9 526.9 517.6 509.2 494.4 473 453.6 466.2 462.5 450.2 439 427.3 401.1 386.9 390.3 402.4 420.9 440.2 450.9 451 440.1 454.7 476.7 494.8 503.6 512 531.2 539.7 543.6 543.6 538.2 524.7 516 507 495.6 478 455.7 432.6 409.1
208.6 199.8 191.6 180.6 175.7 170.1 163.1 155.3 142.8 144.6 148 152.7 151.7 153 157 160.4 161.9 163 164.2 166.2 167.7 168.3 174.4 177.6 190 197.2 196.7 196.5 196.5 193.8 197.5 202.1 206.4 212.5 219.9 225.1 229.1 227.9 226.1 224.1 226.8 229.6 234.5 243.8 252.1 251.4 243 236.9 245.4 248.4 259.1 275 285.7 289.1 284.5 276.4 274.3 277.8 285 282.9 271.7 263 261 262.7 266 271 278 284.6 279 268.2 257.6 248.8 240 232.8 222.6 214.8 208.9 212.8 219.7 229.2 239.1 250.2 258.3 262.8 264.8 265.8 263.9 267.6 274.4 282.3 288.2 293.8 298 302 306.7 310.5 314.2 319.1 325.3 327.8 322 320.9 323.3 323.7 305.7 287.2 268.8 248.7 233.4 243.3 255.3 263.3 272.6 283 293.8 306.6 320.2 332.2 341.4 351.1 359.9 369 376.8 382.7 386.6 389.7 393.2 396.7 396.2 402.1 411.6 423.4 429.8 441.8 464.1 478.6 493.6 499.1 502 499 496.1 494.6 489.1 488 489.4 490.7 492.8 495.9 510.6 525.5 540.2 549 554.7 555.9 566.3 579 592.2 594.5 581.3 563.2 550.2 538.8 527.2 519.7 512.3 497.1 479.7 457.9 440.3 438.4 426.3 415.7 416.1 424.7 411.9 391.1 380.4 404.1 426.9 429.7 418.8 441.1 460 481.2 494.7 503.3 511.6 519 523.9 528.8 530.5 525.5 519.9 514.6 510.5 502.8 485.1 461.8 441.5 416.3
215.3 204.6 193.7 181 169.1 164.6 159.6 151.7 143.6 144.9 148.7 155.2 155 157.3 159.9 160.2 161.9 163.1 164.8 167.8 169.6 171.4 179.2 184.1 191.6 196.6 197.8 197.7 198.8 198.3 199.8 206.4 211.3 215.8 222.1 227 231 233.3 230.8 228.5 230.1 233.1 236.9 247.3 259.5 261.5 257.6 243 238.6 240.1 254.4 257.8 280.1 293.7 298.3 293 284.6 282.8 286.7 294.1 289.3 277.2 271.7 270.8 271.3 274.4 280.4 285.8 291.3 282.1 271.3 257.9 248.7 239.7 228.8 220.1 215.5 211.5 216.2 223.8 234.5 244.1 255 262.9 267.6 273.4 277.1 267.4 272 280.4 287.8 294.7 299.7 304.4 308.6 312.6 316.5 319.9 327.1 331.9 331.2 331.4 331.9 332.6 310.3 291.8 276.3 253.7 241 245.4 254 261.9 272 282.8 294.2 306.1 318 330.5 338.3 349.3 356.9 364.8 370.6 373.6 376.2 378.9 383.2 383.7 392.4 401.2 408.9 420.3 430.3 442.8 459.7 471.9 478.1 484 486.9 488.3 484.9 480.5 479.7 480.4 482.2 481.9 484.2 496.6 511.3 526.4 535.1 539.5 544.1 553 563.5 580.2 590.7 587.3 567.9 557.2 547.6 536.8 526.9 519.9 512.6 495 481.8 464.5 455.6 450.6 445.4 442.2 442.9 440.7 428.6 403.2 370.5 388.1 400 398.9 429.1 450 463.2 474.6 486.5 497.6 508.9 517.3 521.9 525 524.9 523.4 519.7 517.2 513.2 503.8 487.4 464.6 445.3 423.8
215.4 203.3 191.7 179.1 168 162.9 155.4 149.8 145.7 144 149.9 154.8 158.3 160 161.6 160.8 161.9 163.1 165.5 169.2 170.8 174.5 184.4 190.2 191.9 195.6 198.8 199.7 202 202.3 203.6 213.1 216.8 220 224.1 228.1 232.4 234.9 234.4 232.2 233.2 235.9 240.1 250.2 261.1 267.6 268.6 254.7 239.3 239.7 250.3 256.9 283.4 291 302.7 307.3 302.1 293.6 293.1 298.6 303.3 293.3 284.1 279.4 277.8 279.4 283.5 287.6 293.5 295.2 284.7 270 257.5 247.6 237 226.2 221.3 217 213 218.6 230.6 240.1 249.5 259.8 268.8 275 281.9 283.6 271.2 279.2 287.4 294 300.2 305.5 309.8 313.5 317.6 321.6 328.1 333.2 335.1 336.6 340.9 343.8 318.8 294.3 274.6 245.4 243.1 252.6 261.1 267.9 276.1 287 298.9 310.2 320.7 329 337.9 347.4 354.4 358.3 361.1 361.4 363.1 364.8 369.1 376.2 390.2 397.1 404.5 414.7 425.4 437.2 448.9 460.4 467.2 474.7 479.3 475.2 469.6 467.9 467.4 469.8 472.3 478.7 486.2 494.9 507.8 518.8 526.3 532.8 540.2 549.9 561.3 574.9 571.3 564.4 558.5 550.8 542.2 535.2 526.8 521.8 513.1 496.8 487.1 480 474.5 473.2 472.6 467.4 456.3 443.3 414.1 390.3 370.5 368.1 388.9 411 432.8 445.2 452.5 457.5 463.3 472.5 488.5 506.3 518.6 524.9 524.5 523.1 521.6 517.2 510.1 500.3 487 467.5 446.3 426.1
214 200.6 188.7 177.4 164.7 158.1 152 146.5 144.7 144.4 145.7 153 159.8 161.6 163 163 161.9 163.1 166.2 170.2 172.7 177.8 183.8 190.1 193.4 195.8 198.2 202.6 205.1 206.9 201.2 209 213.9 217.1 222.6 228.2 233.7 236.4 236.5 236.5 236.8 238.4 242.3 250.2 259.4 267.5 269.7 261.4 249.7 243 252.7 268.4 286.6 300.2 305.8 309.8 314.2 309.8 303.5 304 307.9 313.3 299.8 287.9 286.5 285.8 287.4 290.9 295.1 300.8 294.4 281.8 269.7 258.5 245.6 232.9 226.7 223.8 221.4 218 225.9 234.3 244.4 254 265 273.4 282.2 286.7 284.8 273.9 286.4 293 300 305.5 309.8 315.1 320.1 324.3 329.2 334 336.7 338.3 343.7 337.8 311.7 286.7 265.6 241.1 247.1 256.9 264.5 270.9 279.9 291.5 303.2 312.7 319.8 328.9 338.3 344.6 349.3 348.3 347.3 345.5 348.2 360.8 369.7 377.6 387.5 392.3 400 408 417.8 429.4 439.9 452.2 463.3 469.4 467.4 457.2 451.7 450.2 449.2 463.8 476.1 482.5 488.9 496.8 507.7 511.8 515.5 527.3 537.5 546.6 556.3 558.2 556.4 552.5 547.6 542.6 537.1 533.4 528.1 524.5 519.7 507.8 497.2 492.6 488.6 488.5 484.3 475.4 457.3 434.5 403.3 380.9 362 373.1 398.7 407.9 413 420.7 428.4 434.4 441.8 452.4 464.8 477.9 493.3 515.4 516.3 517 515.6 510.6 503.1 494 481.6 464.5 445.4 425
209.8 196.7 185.9 173.4 159.5 150.2 145.7 145.4 144 143 149 155.9 160.9 163.4 164.4 164.5 161.9 163.1 166.9 170.9 173.7 178.1 181.5 185.9 191.2 194.1 197.4 202.9 208.1 211.1 208 209.4 214.9 218 222.8 228.5 233.5 237.6 239.3 239.6 240.8 241.7 244.5 248.6 256.7 254.7 260.6 268.3 253.2 249.4 257.5 276 295.4 303.7 307.5 311.7 316 321.7 317.1 311.2 311.6 316.6 315.2 302.8 292.8 292.7 292.9 295.1 297.8 302.9 305.8 293.6 284.7 270.8 255.6 241.7 232.8 227.9 223.6 223.1 220.7 230.2 239.5 249.4 259.5 268.4 279.3 289.8 292 283.4 284.6 292.2 299.4 305.4 310.6 316.1 321.1 325.7 330.2 333.7 336.9 340.4 347 329.3 305.3 283.4 263.5 242 246.8 260.7 267.7 273.3 284.4 296.4 305.3 312.4 319.7 328.5 336.6 339 339.3 334.8 335.9 347.9 358.9 367.1 374.6 382.7 389.9 395.9 402.9 407 413.4 423.9 438.4 447.7 450.4 448.9 445.6 440.6 436.1 445.2 462.9 472.8 478.4 483.3 488.6 497 502.5 505.6 514.3 524.7 534.5 542.8 548.3 547.3 543.7 539.7 536.4 534.3 533.7 533.6 532.6 529.5 528 520.7 513.3 509.1 505 498.7 491.9 477 456.1 426.3 398 376.4 353.9 372.6 383.5 386.4 390.9 397.9 403.2 411 417.8 429.5 442.4 456.9 471.7 483.3 493.4 504.4 505 501.6 495.2 485.6 473.6 460 441.6 416.8
204.3 192.5 182 169.2 155.5 143.7 144 143.5 142.8 145.3 153.8 158.8 162 164.5 165.8 165.9 164.3 163.7 167.7 172.1 174.7 177.3 180.6 184.4 188 192.5 197.9 203.7 211 214.8 213.7 211.7 214 220.1 225.6 231.4 237 240.7 242.9 244.1 245 246.5 248.7 250 250.4 250.1 256.3 272.6 272.6 265.1 270.5 279.4 299.8 305.5 309.4 314.2 319.1 324.7 327.7 322.9 318.9 322.1 326.8 319.2 306.1 299.5 298.9 299.3 301.8 304.7 309.5 307.3 299.7 282.9 265.7 250.4 238.9 233.3 231 230.8 228 226.2 235.1 243.8 255.5 265.7 277 288.4 294.7 291.7 282.4 291.4 298.6 304.6 310.3 316.2 321.9 326.4 330.6 335.5 338.5 342.6 348.8 328.4 304.2 283.3 264.8 243.1 245.8 259.7 272 280 291.5 299.2 305.9 312.6 319.4 327.1 331.5 325.7 319 326.4 342.3 351.5 360.2 367.2 375.4 383.3 390.9 398.8 405.1 407.8 411.2 416.3 424.2 431.7 434.1 434.7 432.7 422.3 436.5 450.8 465.8 474.4 479.4 482.2 486.8 492.5 500.3 508.1 517.8 526.4 534.5 541.5 544.5 533.7 529.4 526.7 526.1 527.3 531.4 533.6 535.7 536 535.8 533.3 529.7 525.7 521.5 512.1 496.9 475.3 451.2 421.5 398.9 378.5 353.7 359 365.8 367.5 372.3 378.7 384.7 390.8 398.6 409.5 421.3 434.4 448.6 460.8 471.6 482.5 488.4 486.7 482.1 476.7 466.7 452.8 431.9 403.4
199.4 187.3 176.5 164.2 147.3 143.3 142.9 141 147 152.4 156.3 161.5 165.3 167.3 168.2 168.5 167.6 164.4 169.8 173.1 176.3 178.9 182.5 184.9 188.5 193.5 200.4 205.6 213.4 218.4 219.9 217.9 214.9 219.7 227.8 234.4 240.2 243.6 245.2 247.7 249.4 251.2 252.8 254.5 258.1 259.7 263 272.7 277.4 281.5 286.8 292.9 299.1 305.6 311.3 316.9 322.3 327.2 331.6 332.2 327.8 326.8 330.3 337.5 323.7 309.5 305.8 305.4 305.8 307.8 312.1 318 311.9 290.9 270.2 253.9 244 234.6 240.8 238.4 234.5 228.1 230.8 239.6 251 262.1 273.8 285.5 293.1 298.9 296.3 286.7 295.9 303.1 309 314.9 320.9 326.8 332.1 336.7 341.1 345.6 354.3 331.9 307.9 288.1 271 250.9 245.3 257.7 273.6 283.8 292.4 299.4 305.2 310.8 315.6 322 318.5 307.4 324 338.1 346.6 353.2 361.1 367.7 375.2 384.1 392.2 399.4 403.4 405.5 408.5 411.8 415.6 420.1 422.7 423.8 416.6 426 445.2 457.9 468.7 474.8 478.8 481.7 483.4 488 497.9 509.8 520.1 528.3 534.4 540.3 538.7 522.7 516.8 515.4 517.3 521.9 528.4 533.2 536.5 539.9 541.4 542.6 542.3 540.1 531.8 515.2 498.9 475.6 446.4 417.1 395.3 381.6 363.4 342.8 349.8 352.2 357.4 361.7 366.6 372.1 383.1 392.8 402 412.8 424.6 435.3 447.7 463.2 471.2 472.1 469.9 462.1 451.8 440.1 421 391.5
191.5 182.1 171.9 155.3 142.4 142.5 142.4 148 154.2 158.1 161.2 164.1 166.5 168.8 170.2 171.1 170.3 169.5 169.2 172.7 176.5 182 184.1 186.7 191.8 194.8 201.6 206.9 215.8 220.5 222.2 222.7 223.9 219.7 230 236.8 241.8 244.7 246.6 249.1 252.8 254.6 257.5 260.4 263.9 265.5 265.5 271.4 278 282.1 286.7 291.7 297.7 304.3 309.9 316.5 322.4 327.6 332.3 338.6 333.4 331.1 333.4 338.6 340.4 325.7 316 312 312.3 313.7 316.2 318.6 308.8 287.8 270.5 257.5 248.1 252.3 251.1 248.1 243.3 237.8 231.3 236.4 246.4 259.1 269.9 282.2 291.8 300.2 304.6 302.9 293.5 301 307.4 313.1 319.4 326.4 332.2 338.9 344 350.7 358.8 334.8 312.9 295.6 278.1 260.5 247.6 258.1 273.7 285.1 293.1 297.7 301.3 305.2 308.3 310.5 303.2 314.8 328.3 340.1 348.1 354.9 360.8 367.4 374 382.3 390.7 396.7 400.1 402.2 404.9 407.3 410.6 413.1 416.1 410.5 414.2 434.1 448.5 461.3 472 476.5 480.6 482.3 476 485.9 494.4 507.2 520 529 534.1 539 523.9 515.6 509.4 507 512.5 517.9 526.1 533 538.3 542 545.4 547.3 548.8 545.4 534.2 516.1 499.5 471.1 442.9 413.6 391.9 376.9 363 352.3 342.1 339.1 342.7 348.6 352.6 358.2 364.9 375.5 385.8 395.9 404.7 414.5 424 434.8 442 444.8 443.5 439.9 432.5 423.8 410 386.1
185.7 178.5 165.4 146.2 142.1 140.3 146.1 153.5 158.6 162.7 164.1 166.3 168.3 170 172.2 173.4 173.4 172 169.4 173.1 178 184.3 187.3 191.2 196.3 198.4 202.9 209.3 218.2 223 224.5 226.9 230.2 231.5 233.4 241.9 244.7 247.3 249.2 250.6 254.7 257.1 259.6 265 268.6 269.8 271.2 272.1 278.7 283.1 287.5 291.7 297 302.5 307.5 313.5 319.5 325.5 331.5 336.9 335.6 334.4 336.4 340.1 347.6 344.6 334.4 328 321.2 320.4 319.1 315.9 298.9 280.5 268.8 264.7 269.2 267.2 261.8 257.1 252.1 245.7 239.8 233.8 244.8 254.7 267.1 278.4 290 298.6 307.2 309.5 309.1 297.2 306.2 313.8 318 325 331.8 338.1 346 351.4 358.3 339.6 321.3 305.1 289.1 269.9 252.4 258.6 270.9 284.5 290.6 292.9 294.3 295.1 294.8 293.4 306 319.1 330.7 341.1 348.4 353.7 359.5 365.9 372.8 379.8 387.2 392.4 395.8 398.2 400.1 402.3 404.9 406.2 403.1 406.9 421.4 434.9 448.7 462.2 471.1 476 480.2 477.1 473.5 483 491.8 504.1 519.2 527.7 533.5 533.8 515.6 508.4 500.6 504.8 512 520.4 527.4 534.2 539.7 544.8 548.6 551.9 556.5 548.2 530.9 512.6 494.9 462.9 434.2 409.9 386.4 372.9 371.4 364.6 354.8 345 335.4 333.7 341 347.7 353.1 360.4 368.1 376.6 386.1 395.4 404.1 411.6 416.6 418.6 418.6 415.9 411.8 404.1 395.6 383
183 175.4 158.7 143.3 144.1 148.1 154.1 157.7 162.8 166.1 167.3 169.1 170.8 171.6 174 176.1 175.9 173 169.7 174.3 179.2 185.5 189.4 194.9 199.5 201.5 204.8 211.4 219.5 224.6 228.3 231.7 235 239.2 239.8 243.7 246 249 251.4 254 256.4 259.7 262.2 266.9 271 274.2 276.6 277.5 278.8 284.4 288.9 293.7 298.5 302.8 307.2 312.4 316.2 321 328.2 331.8 333 335 338 343.2 350.1 356.8 356 348.1 334.9 326.8 319.8 309.4 288.2 283.7 284 288.9 290.9 282.9 274 266.2 259.7 253.7 246.8 237.8 242.9 252.6 263.6 275.3 288.3 297.4 306 312.4 317.3 318 302.2 314.6 318.1 322.7 330.2 338.3 346.1 352.6 359.5 346 330 314.5 298.3 280.2 261.6 253.1 267.2 279.1 285.4 286.5 282.3 284.9 294.7 305.2 314.9 324.6 334 341.9 348 352.5 357.7 363.3 370.4 375.6 381.8 387.6 389.8 391.8 393.5 394.3 394.1 390 400.7 414.8 423.1 433.5 447.3 460.9 469.3 473.8 477 471.4 467.7 476.1 486.7 499.2 516.3 524.8 521.9 515.4 509 502.4 498.2 506 512.5 520.6 528.3 534.9 540.7 546.1 551.7 556.7 557.9 545.8 525.4 512.9 496 463.7 434.2 406.8 392.7 398 390.4 382.4 368.6 355.2 344.5 330.3 330.1 336.9 342 346.8 353.9 360.8 367.7 375.2 384.9 392.1 395.8 397.3 395.9 393.9 390 385.4 379.5 371.7
180.8 169.7 155.5 141.7 148.8 154.6 157.2 159 163.1 166.5 169.8 171.2 172.1 173.3 175.6 178.2 177.8 174.2 170.7 175 179.6 185.1 190.3 196.4 201.1 203.7 206.5 212.5 220.5 224.5 231.5 235.8 240.2 243.3 244.3 244.6 246.2 249.8 252.3 254.8 257.9 261.2 266.6 267.9 272.2 276.7 279.8 282.6 283.9 286.4 290.9 295.7 299.5 303.4 308 312.3 315.7 318.9 325.1 329 332.3 335.3 339.4 344.8 351.4 358.2 365.1 360.7 348 334.1 319.4 302 301.4 304.7 310.1 315.3 312.1 300.5 287.6 276.1 268.6 260.6 253.7 247.9 239.9 251.6 260.6 273.7 285.1 295.6 304.5 310.7 317.3 323.4 315.6 312.8 318 322.2 328.7 337 345.6 353.7 362.2 358.2 339.3 322.5 306.1 290.6 272.7 254.3 259 267.1 270.2 277 291 298.2 305.5 312.3 319.6 327.2 333.5 339.8 344.6 348.5 353.8 359.2 366.3 371.1 377.1 380.3 381.5 382.8 383.9 378.6 374.9 395.9 407.8 416.6 423.9 430.6 444.3 457.7 467.1 471.3 469.6 461.8 461.9 469.4 477.2 489.3 502.1 510.2 512.7 506.9 501.6 497.1 496.3 505.4 512.6 520.1 527.8 534.7 541.6 549.3 555.9 558 552.7 538.9 524.6 513.3 497.6 464.8 434.6 402.5 419.4 421.2 405.7 401 382.9 366 356.1 344.5 328.6 320 329.4 334.5 339.4 345.8 352 359.5 366.1 372.4 374.4 375 373.6 370.8 367.2 363.8 360.2 355.1
179.5 167.1 150.5 138.3 144.7 146.7 153.2 157.2 160.2 163.3 168.3 170.7 173 174.7 177.6 179.8 179.2 175.9 171.6 175.3 179.3 184.2 189.6 196.8 202.1 204.6 207.4 213.6 220.6 226.8 233.7 239.8 243.3 244.3 245.3 246.9 248.7 250.4 252.6 255.5 259.4 263.2 266.9 270.3 273.3 277.6 282.6 287 289.2 292.8 293.6 296.8 300.6 304.4 308.1 312.1 315.5 319.4 324.2 327.6 331.4 337.7 342.4 347.1 352.4 359.5 366.7 370.6 357.6 334.2 313.1 318.9 320.6 325.7 335.1 342.5 334.4 318.8 302.2 288.2 276 267.8 260.4 255.5 245.6 250.1 259.2 270.3 281.5 293.2 302.8 309.4 316.8 323.2 322.1 314.7 317.9 322.6 328.3 335.1 343.8 352.3 361.8 369 346.6 330.5 315.6 301 287.7 273.5 254.6 267.1 277 286.3 293.4 298.9 305.9 311.9 318.4 322.4 328 335.5 341.2 345.1 350.3 355.3 361.7 369.5 374.5 375.6 374.7 373.3 368.5 371.9 387 399.9 409.8 417.7 423.2 428.3 440.5 452 461.9 465.1 458.4 454.9 458.7 466.2 473 479.7 491.5 502.8 503.9 497.4 492.8 486.4 491.5 500.3 508.2 516.8 524.8 531.9 540.9 549.6 554.4 555.9 547.4 534.5 523.3 512.5 496.8 466.3 431.7 429.6 443 440.6 418.5 408.3 395.2 380.7 366.3 357 341 331.9 319.8 319.4 329.7 334.3 339.5 342.4 348.2 352.5 353.8 354.4 352.1 350.1 345.9 342.7 340.2 337.8
176.4 164.7 146.2 139 147.9 147.2 149 149.8 156 159.3 162.6 165.8 169.4 173.9 178 181.4 179 176.4 172.5 175.9 179.1 182.7 188.1 194.3 201.1 204.3 207.3 212.1 219.2 227.8 235.1 241.5 243.2 244.3 245.9 247.8 251.1 254.3 255.7 257.5 259.6 264.1 268.2 271.8 275.6 279.2 282.5 286.6 290.5 293.7 295.9 298.2 301.9 305.3 308.2 312 316.2 320 323.9 327.4 332.4 341.4 349 352.5 356.4 362.2 368.7 375.3 361 340.9 324.5 330.5 333.9 336.5 342.1 349.1 353.8 337.6 317.1 298.9 286.2 275.5 267.8 261.9 256 249.3 258.6 267.6 279.1 289.4 297.7 306.9 314.1 320 322.9 321.2 314.5 323.3 326.5 332.9 341.9 349.1 359 368.3 350.2 335.4 323.6 310.1 307 291.6 270 258.2 269.7 280.1 289 295.4 300.7 306.3 309.4 314.4 324.2 333.2 339.1 344.1 350.3 357.1 364.5 369.4 372.2 370.4 365 359.9 362.2 378.9 390.4 401.8 410.3 417.7 423 426.4 434.6 445 454.5 457.9 453.5 451.9 449.2 462.7 470 476.3 483.8 492.2 495.6 487.2 485 480.3 484.7 491.5 500.7 510.5 519.6 527.5 535.2 546.4 554.9 553.3 544.3 533.1 522.9 511.7 491.3 451.9 447.5 456.6 464.3 460.6 448 429.3 410.6 394.6 378.9 367.3 353.7 339.7 330.7 318.7 313.3 324.6 325.9 329.1 332.2 335 336 336.6 334.8 333.8 330 326.5 324.2 321.6
170.7 157.5 142.7 144.3 151.2 155.4 159.2 159 155 152.8 159.5 162.9 165.6 169.7 176.1 180 178.4 176.1 175.4 176.1 178.6 182.3 188.4 195 199.1 202.6 205.9 209.3 215.8 226.2 233.9 238.8 241.6 243.9 246.4 249.6 254.3 258.1 260.2 261.1 263.7 265.2 267 272.1 276.3 280.8 285.1 288.7 292.1 294.8 298 301 304.3 307.4 310.8 314 317.5 319.5 323.2 327.8 336 345.2 353.5 360.1 363 366.5 371.3 375.3 366.3 332.1 338.9 341.3 342.7 346.7 348.8 351.6 357.2 354.7 329.9 310.6 295.7 285 276.1 269.5 263.5 254 258.1 267 276 285.9 294.1 303.2 310.5 316.9 322.3 324.8 322.7 318.4 326.4 331 338.3 346.3 354.2 364.4 356.2 339.8 330.7 323.5 316.2 289.7 283.8 271.7 259.8 271.5 281.4 287.6 288.8 298.8 309.3 315.8 327.2 335.3 339.8 343.9 351.4 358.3 364.5 366.1 366 354.7 343.1 360.6 371.1 381.8 392 400.9 409.5 416.2 421.9 425.3 429.2 438.2 445.7 448.8 448.5 444 446.3 456.4 463.4 471.7 476.5 483.8 481.3 480.2 480.7 478.2 479.6 487.1 496.2 507.5 517.1 524.6 531.8 543.4 555 553.3 542.9 533.4 524 513.3 490.8 466.1 479.2 479 479.7 477.1 469 449.9 425.2 405.9 389.8 370.8 364.1 350.5 339.5 327.4 317.3 306.5 316.8 321.1 321.7 321.9 322.7 323.6 323.5 324.7 320.8 318.8 315.7 312.6
163.8 144 143.8 149.8 150.9 163.1 166.2 166.9 167.2 164.5 160.9 156.7 159.5 163.7 170.4 176.2 176.7 175.3 176 176.9 177.5 181.2 185 192.5 197.2 200.9 203 206.5 213.3 220.1 227.5 234.2 239.7 244.7 247.4 251.9 256.5 259.6 262.5 264 267.4 269 271.3 274.2 277.7 281.5 285.6 289 292.8 296.4 299.3 302.6 306 309 311.6 314.8 317.9 319.6 323.9 331 339.8 349.1 357.8 364.4 370.3 374.5 377.4 375 366.3 337.9 352.9 354.9 357 356.7 358.4 359.1 361.5 358.5 342.5 321.6 309.1 295.9 285.7 277.5 269.8 261.1 255 265.5 273.9 283.5 291.2 299.2 306.8 313.8 319.7 325.2 325.9 326.2 325.4 330.6 335.5 341.9 348.5 359.8 361.1 347.1 338.8 331.5 319.3 318.1 301.2 286.8 274.1 263.1 269.8 283.6 294.5 304.7 310.8 316.6 325.1 332.9 338 342.6 349.6 354.8 357.8 358.8 349.9 335.5 358.1 368.9 374.9 382.9 389.2 398 406.3 412.8 418.2 421.8 425.4 430.3 436 440.2 442.5 435.3 440.7 448 458.3 465.2 469.7 471.1 473.6 476.2 478.1 476.9 478.6 490 498.2 506.3 516.1 524.5 532.6 547.1 557.2 556.3 544.5 532.2 525 511.2 493 481.8 498.4 502.7 504.4 497.4 485.7 470.9 444.3 416.8 394.2 386.7 374.3 360.2 350 339.6 323.9 313.8 305.4 304.3 313.9 315 316 316 315.7 315.5 312.7 311.3 309.3 306.7
158.3 136 150.3 150.5 160.4 163 166.3 168.4 171.1 171.1 172.3 172.2 167.6 162.7 161.7 169.3 173.1 174.5 175.7 176.9 178.1 179.8 182.7 188.6 194.6 198.5 200 203.9 209.8 219 229.8 234.3 239.1 244.1 249.1 253.6 257.9 260.6 264 267.9 271.6 273.5 276.1 277.9 281.5 283.7 286.2 290.1 293.9 297.4 300.8 304.6 307.5 310 312.4 315.7 318.6 320.7 325.6 334.5 343.5 352.4 361 368.7 375.4 381.6 386 378 372.8 363.1 366.8 368.9 370.6 371.3 369.5 369.4 370 368.6 363.4 341.8 325.6 309.5 296.4 288.1 280.4 272.6 262.3 260.9 272.2 280.9 288.9 296 303.5 310.4 316.7 322.8 328.5 330.2 330.1 328.8 334.8 340.4 345.8 353.1 361.6 361 348.9 339.3 333.7 331.2 320.3 302.5 289.4 274.4 264.8 278.4 288.7 300.7 307.4 314.8 321.4 329.6 335.5 340 343.6 347.3 348.6 344.8 331.5 346.1 360.3 368.5 375 379.7 385.5 393.7 401 407.4 414.6 419.5 424.8 428.8 433 436.2 435.5 425.2 435.5 441.6 445.7 452.4 458.3 463 466.9 471.7 475 471 476.5 491.4 501.2 509.2 516.8 525.8 535.5 550.6 559 555.3 544.1 534.3 528 511 508.9 498.9 509.6 517.3 516.4 510.4 499.5 486.8 461.7 432.8 410.1 396.8 384.1 372.8 359.5 349.3 336.7 321 311 302.9 305.4 308.1 309.4 310.1 309.6 308.9 307.1 305.6 304 302.3
160.1 133.1 149 158.5 160.6 163 166.3 168.9 171.2 172.5 174 174.7 175.2 173.4 171 166.1 170.6 174.3 176 177.3 178.7 180.5 183.2 185.8 190.3 194.9 197.8 202.1 208.7 221 231.4 235.7 241.2 248.3 253.6 257.1 260.5 263.3 267.9 270.6 273.2 276.9 278.1 281.7 284.6 286.3 289.3 291.6 294.8 298.3 302.1 306.4 308.6 310.6 312.6 316.2 319.9 322.4 327.7 335.6 345.5 355.2 364.1 372.2 379.6 386.5 393.4 384.4 377.8 372.2 383 386.9 389.3 390.5 383.5 380.8 379.5 377.8 376.3 366.2 342.4 322.7 310.2 300.4 291.8 282.4 271.6 267.3 268.6 279.2 286.2 294.3 300 306.5 312.7 319.3 326.1 332.6 334.4 333.6 332.9 339.7 344.7 351.4 362.4 377.4 355.9 344.8 346.7 344.8 337.5 322.4 304.8 290.6 275.1 271.2 283.8 294.8 303.3 311.1 318.1 325.1 330.4 333.1 333.6 335 334.2 324.7 331.8 350.5 358.7 365.4 371.1 374.6 381.3 388.1 393 402.4 410.7 417.8 423.4 427.4 431.2 432.6 429.1 421 431.3 437.2 440.4 443.6 451.4 455.2 458.3 460.8 462.9 454.6 477.6 493.1 503.5 512.2 519.1 527.6 540.3 551.8 559.1 553.7 545.6 538.2 532.2 530.7 525.8 511.4 522.9 525.6 519.6 513.6 504.6 495.4 479.3 447 417.5 403.2 393 381 370 358.5 348.1 334.9 316.9 309.1 299.5 294.5 299.7 301.5 302.7 302.6 302.7 302.1 299 298.3
161.7 155.6 131.4 153.4 160.3 164 166.8 168.5 170.2 171.7 173.8 175.5 176.1 176.6 175.7 174.1 168 171.3 176.5 178.1 179.8 181.6 183.9 186.3 188.7 192.9 196.3 201.1 206.8 220.3 230 236.5 245.7 253.3 255.5 258.9 263.3 266.6 268.3 269.2 271.1 277.1 279.5 283.8 287.5 290.5 292.7 295.2 297.1 299.7 303.7 307.5 309.3 311.4 313 317 321.3 324.5 330.9 337.6 347.6 357 364.9 373.5 381.9 389.5 396.8 392.2 381.3 379 388.3 396.2 402.4 404 400.5 391.2 390.6 387.4 385.8 382.4 361.3 340.4 325.5 312.7 302.4 290.7 281.5 275 270.1 275.2 283.7 291.5 298.6 303.8 309.8 315.5 323.4 330.6 337.9 339.2 338 342.1 347.6 351.5 359.8 375.2 364 355.8 359 358 353.8 345.1 325.8 305.9 292 270.8 279.2 289.4 297.9 306.6 312.2 316.1 317.8 316.9 317.3 319.1 316 320.7 337.5 345.4 352.4 358.8 364.6 370.5 374.3 378.8 389.5 399.1 407.1 414.1 420.7 424.9 428.2 429.2 424.7 409.2 427.2 433.6 437.2 441.8 446.8 448.7 450 449.4 450.8 466.1 484.7 499.6 509.7 515.9 523 533.1 544 553.1 558.3 553.7 548.4 542 540.4 539.2 534.9 525.7 533.7 529.4 523 518 512.9 504.9 489.6 459.8 427.3 407.6 401.2 388.9 376.3 367.1 356.4 343.5 332.1 319.4 309 303.1 298.1 291 290.4 293.1 295.3 296.8 293.1 293
161.4 155.2 130.2 153.4 158.8 162.7 166.4 167.3 168.7 170.8 173 175.3 177 178.3 179 178.4 175.3 169 176.1 177.7 180 181.8 184.2 186.6 188.9 192.4 194.8 199.7 205.1 217.5 227.3 235.5 246.4 253.8 253.4 256.5 261.9 263.7 263.9 263.8 270.6 275.2 277.8 282.9 286.3 290.2 295.2 299.7 300.7 302.2 305.2 308.4 310.3 312.2 315 319.2 323.4 327.7 333.1 339.8 348.3 357.4 366.3 375 383.5 390.6 397.4 398 384.7 384 390.7 399.2 407.1 412.9 414.1 403.3 397.7 397.2 394 391.1 385.6 363.3 341.4 324.9 311.3 299.1 288.4 282.2 280.2 278.9 282 290.4 296.6 302.8 307.7 314.5 321 329 339.3 344.4 342.7 345 351.3 356.7 360.8 367.8 365.8 366.3 367.9 369.4 368.2 362 345.9 326.6 306.4 292.7 274.6 284.6 291.8 298.4 303.4 302.8 300.9 300.9 297.7 303 304.9 318.5 326.9 335 341.7 347.7 355.7 363.6 366.7 374.8 385.7 395.3 403.4 410.4 416.1 421.1 423.8 423.9 416.2 410.6 422.8 429.3 433.7 439.1 442.3 440.2 434.4 449 463.6 474.3 496.5 507.2 513.6 519.3 527.6 537 546.1 554.1 558.3 556.6 554 549.2 546.4 545.1 542.5 540.4 540.5 534.4 527.9 523.2 518.5 510.3 487.2 461.9 435.2 412.5 396.6 391.3 384.2 372.4 358.8 344.4 331.6 317.8 308.2 307.3 304.4 297.7 289.9 286.9 285.1 281.6 281.6 284.5
159.5 141.3 138.9 153.6 157.2 160.8 164.2 166.1 167 169.8 172.2 174.6 178.3 179.9 181.2 179.9 178.7 172.2 172.4 174.5 176.2 179.9 184.3 185.8 188.8 191.4 194.4 197.9 203.2 212.3 220.3 226.5 232.1 236.1 239.9 243.6 249.7 250.8 260.7 269.3 273.3 277.9 281.6 284.8 286.2 290.6 295.8 299.9 302.2 304.7 306.7 309.4 311.4 313.3 316.1 320.4 325.2 329.8 336.3 342.3 349.9 359.1 367.7 376.1 384.3 391.6 398.4 401.4 390.7 390.1 395.5 402.3 410.5 416.5 420.4 415.4 405.2 403.8 399.5 396.9 393.7 380.8 359.4 337.5 319 304.3 296.7 290.3 287.1 284.7 286.9 290.7 297.7 303.5 309.3 315 321.8 330.2 339.3 346.9 348.6 349.9 355.4 361.1 363.4 368.8 370.8 372.7 375.7 378.9 380.1 377.9 365 342.3 326.7 310 298.1 278.1 281 284.1 285.7 288.8 288.2 298.5 305.1 309.2 302.8 303.7 312.5 318.4 328.4 336.6 346.5 352.5 364 373.3 381 391 398.1 404.1 409.2 414.3 415.7 413.7 406 407.8 416.9 422.6 429.1 433.9 431.8 427.3 444.2 458.3 472.8 484.6 503.8 510.6 516.6 522.8 531.6 540.9 549.4 557.2 559.3 560.6 559.4 554.6 551.3 548.8 547.7 547 545.1 539.2 532.3 526.9 522.2 514.8 496.7 467.5 437.6 415.7 397.2 387.4 382.9 374.7 352.6 342 332.5 325.3 319 313.4 309.9 306.8 301.1 295.9 289.9 288.1 287.3 278.1
157.1 141.4 144.3 153.3 155.8 158.8 161.5 163.9 165.6 168.4 171.9 175.3 179.2 181.1 183 181.8 179.8 177.7 178.5 180.1 181.4 183.8 184.7 186.5 186.1 189.8 194 198.4 202.1 205.1 213.2 215 218.6 225.6 234.1 241.6 248.1 257.6 264.9 272.8 278 281.9 284.9 287.6 290.4 291.7 295.8 299.4 302.5 305.4 308.4 311.4 312.9 314.1 316.3 321.7 326.8 333 339.3 345 351.8 359.1 369.2 377.8 385.6 392.4 399.6 404.9 398.9 393.9 400.1 405.8 413.4 420.3 425.4 425.8 414 408.3 403.9 402 399 392.8 376.7 347.8 323.7 316.7 307.3 300.9 295.2 291.7 293 294.2 299.1 305.8 311 315.8 322.6 331 338.8 348.5 354.6 356.8 357.4 366 370.5 373.5 375.2 378.4 382.2 385.5 392.4 395.6 383.8 362.6 345.7 329.9 315.1 300.2 292 286.8 292.8 301.2 311.1 315.6 317.3 322.6 330.1 328.8 326 323.1 317.8 322.6 335.3 346.4 358.1 367 375 381.8 389.2 396.3 401.5 403.6 404 398.1 389.4 396.4 402.3 409.6 416 415.9 425.4 440.2 452.9 467.9 481.2 498.7 506.2 512.1 519 525.6 535.7 545.1 551.6 556.3 559.7 563 563.8 561.8 556 552.6 550.8 549.8 547.7 542.9 536.4 531 525.6 518 497.3 466.1 442.2 420.3 400.6 385.1 378.2 363.7 361.3 358.9 351 340.8 333.2 321.9 318.4 315.6 310.7 306 304.5 300.4 294.2 290.6
157 153 137.4 150 151 156.6 159.2 162 165 168.1 171.8 175.2 180.1 182.9 185.8 184 183.1 181.1 182 181.9 185 189 191.2 192.7 193.5 194.1 192.7 196.8 202.3 205.4 211.6 216.5 222.9 229 235.2 244.6 252.6 259.2 267.9 274.3 281.4 285.1 287.8 291.2 294 296.6 296 299.4 303.8 306.7 310 313.2 314.1 315.1 318.3 323.3 328.1 335.6 343.9 349.6 355.6 363.5 371.4 380.8 388.5 395.3 401.5 407.1 405 393.8 403 408.2 416.1 423.5 428.6 431.6 423.8 415 409.8 404.9 400.3 394.7 384.7 361.1 343.7 330.7 318.9 309.4 303.7 299.2 298.2 298.2 301.6 307.3 312.5 317.9 323.6 331.5 339.1 340.5 358.2 363.5 366.4 369.7 375.3 378.2 380.8 384.3 388.4 394.7 400.9 408.3 403.5 380.3 363.4 349.1 336.4 324.3 314.2 307.1 297.4 303.2 319.4 332.7 337 341.8 348.8 353.6 349.6 344 339.1 333.4 324.1 332.5 345.5 356 363.8 370.1 376 381.9 389.2 391.2 389.9 376.6 387.5 399.5 406.7 413.2 421.1 431.4 440.5 451.4 464.5 484 495.4 501 507.1 513.8 520.3 527 537 545.1 550.6 556.4 560.5 564.6 566.1 565.6 561.9 557.6 554.3 552.4 550.6 545.9 539.8 533.8 528.8 521.9 503.6 469.3 445 428.2 408.2 387.2 380.4 379.1 380 376.4 370.5 362.1 351.8 337.8 330.5 323 318.6 321.3 322.5 313.1 298.9 294.9
127.1 128.1 131.8 150.1 150.1 155.2 157.4 161 164.7 167.7 171.5 175 179.8 179.1 187.1 185 184.1 185.3 186.9 192.5 199.2 200.9 200.7 198.9 200.9 200.5 201.4 202.9 204.7 207 212.2 217.3 223.2 229.3 237 245.7 253.2 259.5 267.7 274.6 282.8 287.9 291.3 294.4 297.4 300.4 302.2 303.1 304.1 308 311.6 314.6 315.2 316.6 320.3 324.8 329.8 336.8 347.4 356 363.5 368.2 373.6 383.5 391.9 398.7 404.4 409.7 408.5 403.2 405.3 409.2 416.6 424.6 431.5 435.8 432.3 420.2 413.6 407.5 403.2 397.8 396.1 382.6 360.8 346.3 330.3 319.9 312.4 305.8 304 304 304.4 308.9 313.7 317.6 324.1 330.9 340.4 337.5 359.5 366 371.9 371.9 379.3 381.8 385.5 389.5 397 412.2 426.2 436.3 422.6 397.3 381.2 366.2 352.6 347.5 338.5 326 307.4 314.6 330.8 342.7 351.1 355.8 361 366.7 369.7 366.9 359.4 352.4 348.2 347 339.2 337.5 348.2 353.6 360.4 368 373.3 372.7 368.2 388.2 401.1 414.4 422.6 429.2 436.7 445.7 454.7 468.1 482.7 491.1 497.2 503.1 509.2 515.6 521.6 527.3 535.4 543.5 550.3 556.1 561.4 566.4 567.1 566.6 565.8 562.2 558.9 557.4 553.6 548.2 542.6 536.8 531.5 524.5 516.3 481 450.2 434.8 417.3 395.2 385.4 389.5 398.4 396.4 390.1 380.6 367.8 358.4 344.8 335.2 330.1 330.9 325.8 316.1 309.4 298.2
151.6 149.3 130 148.1 149 148.5 155.8 159.9 164.1 167.4 171.2 175.2 179.5 179.6 188.5 185.8 184.9 186.9 191.5 204.8 210 213.1 214 214 214.4 214.2 211.6 212 212.1 213.9 216.8 220.7 223.2 230.8 238.9 246.6 253.6 260.3 267.7 275.1 282.4 286.2 291 295.5 299.5 302.9 305.2 307.6 308 310.1 313.2 315.6 316.4 318.5 322.4 326.9 331.2 338.1 347.5 356.1 363.9 372.8 378 386.6 395.1 401.9 407.3 412.7 414.1 409.2 404 410.8 417.8 425.8 433.8 438.8 438.5 424 416.1 409.6 405.7 401.3 400 400.8 382.2 358.3 343.4 331 320 314.9 313 311.2 310.5 311.5 315.1 318.7 325.3 330.5 340.4 351.6 360.7 368.8 375 378.2 381.3 385.1 388.5 395 405 419.2 430.5 442.5 433.2 406.9 392 379 368.7 360.9 349.7 330.9 309.9 330.6 346 353.3 360.4 365.6 371.7 376.7 378.4 379 375.9 369.9 365.4 365.4 363.1 359 357.5 358.7 363.8 365.4 371 380.2 391.9 403.8 414.9 423.6 431.6 438.5 447.7 458.9 473.1 482.1 487.9 493.1 498.1 503.5 510.5 516.4 522 525.7 533.4 541.3 548.6 555.7 562.3 567 568 567.5 567.4 566.1 561.2 558.7 554.6 549.7 544.2 538.9 533.9 529.1 522.2 498.5 469.2 444.8 428.4 409.4 397.7 409 416.7 414.5 407.9 397.3 386.2 376.3 364.1 350.7 343.6 334.1 327.2 320.3 312.5 311.7
148.6 147.6 135.5 137 138.3 148.2 153.7 158.7 163 167.1 170.9 176.4 180.4 189.7 189.9 188.1 187.4 189.7 199.5 210.1 217.9 224.2 227.3 232.6 231.9 229.7 226.2 223.1 221.7 222.5 225.3 229.2 232.7 238.1 243.9 249.8 254.6 261.1 267.9 275.9 280 283.9 289.8 295.7 299.8 305 308.3 312.1 313 313.3 313 316.7 318.6 320.6 324.7 329.1 333.3 338.5 346.7 355.8 363.6 374.8 381.1 389.7 397.9 405.1 410.5 415.7 419.3 416.2 406.3 415 422.1 428.9 435.4 440.4 438.2 424.6 415.7 410.6 404.7 401.9 400.9 403.2 399.4 378.3 357.1 342.9 333 326 322.2 319 319 319.3 319.5 321.8 327.1 331.7 340.6 352.3 362.7 371.6 378 382.6 384.8 388.1 392.3 399.5 408 417.9 431.7 445.3 435.1 412.6 398.2 386 377.2 368.9 347.4 328.5 322.5 337.6 353.2 363 369.6 374.9 379.9 385.8 392 395 394.5 391.2 390.1 385.6 383 379.5 377 377 382 384.9 390.3 400 412.9 422.2 427.8 435.4 442.5 452.7 463.9 472.8 480.5 484.9 489.9 494.4 499.2 505 510.6 515.5 520.1 524.5 531.1 539 546.4 553.3 560.9 565.9 568.1 568.4 567.7 566.1 562.9 558.9 554 549.1 544.5 540.8 536.5 530.9 524.5 516.2 502.3 468.7 441.6 418.6 417.5 434.6 436.7 432.1 423.4 412.3 402.4 393.3 377.6 361.8 345.9 338 330.6 324.9 321.1 316.9
143.7 136.5 133.3 131.5 131.9 136.9 149.6 156.3 160.5 166.1 171 179.3 184.7 193 191.8 190.1 189.5 191.9 202.3 211.9 220.9 228.3 239.9 243.1 239.8 234.8 230.7 229.7 229.9 231.6 233.3 235.8 239.2 243.1 249.4 254.3 259 264.3 269.7 274.4 278.4 283.7 289.2 294.6 298.9 303.1 308.1 312.8 314.7 316.2 315.8 318.7 320.7 322.6 327 331.2 335.5 339.7 346.1 355.6 364.3 375.8 384.4 392.5 400.6 408.3 413.8 419.6 420.3 418.6 411.9 418 423.6 430 435.4 441 437 424.5 413.2 408.9 403.2 400 398.5 400.3 403.7 398.2 378.6 361.6 351.5 342 336.3 333.4 333.9 332.1 330.6 326.4 328.8 333.8 341.4 351.8 362.1 371.9 380.3 385.5 388.5 391.9 396.7 405.8 414.3 429.2 443.6 452.9 441.3 416.7 402.8 389.5 377.5 365.9 346 330.8 330.7 342.5 359.6 371.4 380 385.2 392.6 397.8 404.1 409 410.9 409.7 414.9 412 407 403.2 400.2 399.6 401 405.8 414.6 424.7 437.5 447.9 453.4 456.9 461.5 468.4 473.5 477.7 483 487.5 492.1 496.1 500.3 504.8 509.1 514 518.2 520.6 527.3 535.8 543.7 551.7 559.6 564.4 566.1 566.9 566.7 564.3 560.5 555.7 552.5 549.5 545 542.1 538.7 532.9 526.7 518 507 479.6 447.9 432.6 446.2 460.5 463.9 458.9 443.8 425 415.9 405.7 387.8 365.4 353.8 343.5 337.1 333.6 327.7 322.7
133.9 133 133.3 133.2 133.8 134.5 151.1 156.4 160.1 165.4 169.9 179.5 189.6 193.4 192.5 191.8 191.3 194 202.5 210.8 217.9 228.8 242.8 243.5 238.1 233.8 231.3 234.1 234 237.4 239.2 243.7 246.7 250.2 255.6 259.9 263.3 268.6 272.5 276.1 280.3 284.3 289.7 294.7 298.2 302.3 306.6 311.6 315.9 318.1 320.2 320.2 322.6 324.8 329.1 333.3 337.6 341.8 346.5 355.3 365.1 376.7 387.3 395.2 403.3 411.4 417.3 421.5 423.1 419.8 417.4 421.3 426.5 430.6 435.5 441.3 437.6 424.7 413.1 406.7 401.7 397.9 395.3 397.5 400.5 399.9 392.1 383.3 369.3 360.1 353.1 347.1 345.6 342.3 339.1 333.9 331.2 332.7 341.4 352.4 363.3 372.1 380.6 387.6 391.4 394.9 406.8 420.5 430.1 442.5 452.5 458.8 454.8 423.6 407.3 393.5 379.1 368.2 354.2 340.1 340.5 347.8 363.4 377.2 388 396.3 404.8 408.4 414.7 419.6 422.1 423.4 427.2 430.3 431.4 429.6 427.2 425.1 427.3 432.7 440.5 447.2 454.2 460.8 465.8 470.5 473.1 475.3 479 481.9 485.7 489.7 492.5 496.5 499.5 502.4 504.9 510.2 514.4 516.6 523.3 531.8 542 551.5 557.5 560.3 561.9 563.2 563.6 561 556.9 552.8 549.7 547.7 545.5 542.1 538.5 534.8 527.9 518.5 498.2 463.8 467.1 469.1 469.9 484 484.4 478.7 467.2 435.3 421.9 414.8 399.1 385 362.2 356.9 348.9 339.3 330.7 325.3
149.2 143.1 133.5 133.6 133.7 135.6 151.7 156.4 160.5 164.8 168.6 176.8 187.5 193 193.8 193 192.9 196.1 202.6 209.5 214.3 225 241.8 241.5 236.3 232.5 230.2 230.8 233.9 239.4 245.9 251 256.2 258.5 261.4 264.7 270.4 274.1 277.4 279.6 281.8 285.6 290 294.6 298.2 301.9 306.5 311.7 316.7 320.2 322.5 322.7 324.3 326.7 330.6 335.2 339.7 343.9 348.1 355.1 366 377.7 387.3 396.1 404.6 412.9 419.7 424.6 425 421.4 422.1 427.2 430.8 435 439.1 443.3 440.2 426.6 410.8 404.9 399.3 394.3 392.6 394.9 398.1 394.5 386.5 376.6 369.5 369 360.9 355.7 352.4 346.6 339.1 333.7 329.8 330.9 341.6 351.5 362.9 372.1 381 389.5 393.6 399.8 412.1 424 434.6 442 452.5 462.7 465 433.6 415.1 400.3 383.4 371.9 362.3 343.9 350.8 354.7 366.5 387.7 399.8 408.1 416.9 420.7 423.2 426 432.6 435.2 438 439.6 441.4 443 443.3 444.8 446.5 447.5 451 457.5 463.3 468.7 473.9 477.3 479.6 481.3 484.1 487 488.4 491.1 492.8 494.8 497 499 500.2 504.2 509.3 514.1 519.2 529 541.2 549.3 552.7 554.8 557.9 560.1 559 556.7 553.3 549.2 547.4 544.8 542.6 541.2 537.5 533.8 529.8 518.6 491.8 500.7 504 502.5 494.4 509.5 509.1 500.2 478.1 450.8 436.8 428.4 411.4 394.1 376.1 365.2 354.7 345.4 336.3 328.7
134.1 137.1 134.1 133.9 133.5 136.4 151.7 151.9 160.6 164.3 168.6 176.3 184.8 191.5 194 195.9 196.4 199.9 202.8 206.2 210.1 218.3 230.3 234 232.7 228.9 227.1 227.8 231 239.1 249.4 259.4 266.3 266.5 266.3 267.4 271 274.6 278.3 281.4 283.7 286.8 291.3 295.4 299.2 303 307.9 313.2 317.6 321.3 323.8 325.5 326.1 328.5 331.4 335.2 339.7 344.3 348.9 354.4 364.6 376.2 385.4 393.9 402.7 412.1 420 426.4 426.7 423.4 423.8 428.9 433.8 438.6 442.6 443.9 435.9 421.4 407.9 402 396.5 389.4 387.5 391 390.7 384.1 378.2 370 363.8 363.4 358.4 353.2 345.9 338.5 328 322.5 323.9 330 337.9 348.6 361 370.9 379.7 387.3 393.4 402.3 411.5 422.2 433.1 439.8 452.6 463.5 471.7 443.4 418.1 400.1 384.7 373 361.8 345.2 354.6 368.5 377.6 403.5 413.2 421.7 427.5 429.8 432 435.9 442.5 446.5 448.1 447.6 450.5 451.4 452.8 453.8 454.7 458.3 458.8 465.7 471.2 476.5 480.5 483.2 484.2 485.2 487.9 489.2 489.8 489.9 490.8 491.6 492.4 492.8 494.3 497.2 503 509.7 516.3 526.2 538.3 544.8 547.9 550.2 553.2 556.3 554.6 552.6 549.6 545.7 543.1 542.1 540.8 538.4 535.1 532.9 529.1 519.4 514.9 516.3 517.2 517.8 517.1 521 523.1 521.1 509.4 487.7 465.2 444.1 427.8 407.6 391.7 376.9 363.6 353.5 343 332.6
133.8 133.9 133.9 134 134.4 138.4 152 152.4 160.4 164 167.3 176.2 183.3 189.8 194.7 199.7 202.1 202.9 203.4 204.4 205.7 209.3 214.9 222.7 224.8 224.8 223.7 223.5 228.5 238 249.8 263.5 267.4 266.2 267.1 268.9 271.3 275.7 279 282.2 284.9 288.3 292.4 296.4 300.4 304.5 309.4 314.6 318.6 322.3 324.9 327.2 328.2 330.3 332.8 336.3 339.7 344.2 348.7 353.8 361.8 373.3 383.7 392.3 400.3 409.9 418.3 425.6 427.2 425 424.7 429.9 434.4 441 445.6 445.9 431.4 415.6 405.7 399.2 391 383.5 378.3 381.5 379 374.4 369.4 357.3 357.1 353.8 351.9 344.9 339.3 327.1 316.5 313.1 317.7 325.6 333.4 342.2 355.9 368.9 377.1 385.1 389.4 398.8 407.7 418 428.3 437.6 448.5 456.6 466.8 444.9 419.1 400.2 384.1 368.9 360 357.6 364.9 378.2 395.2 412.1 423.9 431.2 435.1 437.3 441.5 445.4 450.1 454.1 456.4 458.8 458.3 460.7 461.6 462.1 463.2 465.8 466.8 472.6 477.9 481.7 485.1 486.9 487.9 488.6 488.9 488.7 487.7 486.9 486.9 486.3 485.8 485.8 487.3 490.7 496 505.4 514.6 524.3 534.4 540 542.6 544.5 548.4 548.9 548.2 546.8 543.9 540.2 539.1 538.5 538.8 537.1 534.8 532.3 529.6 526.5 525.8 523.9 523.4 524.3 524.1 526 528.1 527.5 524 513.5 493.7 468 447.9 431.7 411.8 392.3 376 361.3 349.9 337.4
136.9 133.9 134 134.1 134.3 137 152 152.9 157.5 164.3 166.9 175.3 182.2 188.2 194.4 204.2 209.1 205.6 203.5 201.9 201.7 203.1 205.4 207.1 207.2 211.5 214.8 218.4 226.4 238.1 249.9 261.8 264.2 264.2 265.7 268.7 272.4 276.3 279.7 283.1 286.7 290.3 294.5 298.7 302.6 306.4 311.1 315.9 320 324 326.5 328.6 329.5 331.6 334.3 337.6 341.2 345.5 349.8 354.5 362.2 371.7 381.4 390 398.1 407.8 416.6 422.4 426.1 426 425.8 430.3 436.1 441.4 445.7 444.3 428.6 412.9 404 396.2 387.1 375.9 362.8 364.6 363 364.1 357 346.2 344.8 344.9 342.9 333.7 327.9 313.6 305.9 305.8 310.6 318.5 326.3 336.8 351.5 365.7 374.6 383 387 392.5 403.2 413.1 423.2 433.3 441.4 450.2 459 447.3 423 405.4 391.7 381.3 368 367.9 375.8 384.7 399.1 414.4 428.1 436.6 443 446.9 450.7 451.5 455.5 460 462.6 463.6 465.3 466 466.2 467.1 468.4 471.1 475.3 479.5 482.3 484.9 487.1 488.3 490.1 489.6 488.3 486.3 485.5 484.6 483.2 480.5 479.2 478.9 480.4 486.3 494.2 503.7 513.1 520.9 529.9 534.8 537.8 539.3 543.6 541.4 540.4 539.3 537.1 534.6 535 535.7 536.8 535.5 534.6 533.5 532.5 530.6 530.8 530.5 529.8 529.9 529.2 530.2 531.3 532.1 531.5 527.2 518.2 499.2 472.5 454.8 437.8 411.7 390.6 372.6 356.2 339.2
138.5 134.6 134.4 134.4 134.5 134.9 141.6 152.4 153.8 161.7 164.8 172.8 178.7 185 191.2 200.6 207.9 205.4 201.6 199.5 198.4 198.9 199 200.2 201.1 205.3 208.4 213.7 224.9 237.3 249.2 259.7 261.8 260.9 263.1 266.7 273.4 276.2 279.7 285.1 288.9 292.7 296.5 301.1 305.5 308.9 313 317 321 324.5 326 328 329.1 332.4 335.1 338.8 342.5 346.4 351.6 356.3 361.7 370.1 379.9 388.9 396.5 405.3 414 420.4 424.8 426.8 426.7 431.3 436.3 441.3 444.7 448.4 429.7 411.1 403.2 394.2 384.3 371.2 355.9 344.5 345.3 345.8 341.6 335.9 333.8 336 329.6 320.2 309.9 302.1 296.5 300.4 305.5 312.7 319.8 332.1 349.1 361.3 372.5 380.1 384 390.1 398.5 405.5 416.4 425.3 432.7 442.4 453.2 455.6 438.1 423.2 409.3 392.3 382.4 378.9 388.7 397.7 402.9 418.8 433.3 442.8 449.7 454.4 456.5 456.5 460.7 463.6 465.7 467 467.7 467.9 467.9 470.2 472 474.9 479 483.2 485 486.2 488.6 490.7 491.7 489.4 486.9 484.1 482.7 481.1 479.2 475.1 471.5 472.8 476.6 484.6 492 499.1 508.3 517.1 524.2 528.4 532 535.3 537 532.7 532.6 531.2 528.4 527.6 529.3 532.7 534.3 534.2 534.1 534.1 534 534 534.3 534.1 534.1 534.2 534.3 534.1 534.2 535.3 534.6 531.5 527.5 519.2 502.5 483.3 459.8 434.9 408 386 361 344.1
140 135.6 134.7 134.7 134.6 135.1 135.3 144.4 151.9 155.7 160.5 168.5 175.7 182.3 187.5 195.5 204.8 205.8 203.9 198.1 195.1 194.2 194.4 194.5 196.2 199.9 202.9 209.4 223.2 236.3 248.5 257.9 258.1 256.1 260 268.4 274.1 276.7 280.1 285.6 290.1 294.3 298.1 302.9 307.3 311.5 315.5 317.9 321.2 324.4 325.7 327.4 329.8 333.1 336.2 339.9 343.6 347 352.6 357.8 362.8 368.9 378.7 387.8 394.1 403 411.9 419 424.2 427.7 427.8 431.2 435.8 440.8 444.9 448.3 426 408.7 400.4 390.2 380.9 366.7 352.5 329.8 327.8 327.9 325.9 324.3 325.3 325.5 316.9 304.8 294.7 291.2 290.9 295.6 300.2 308.4 316.1 330.6 345.6 359 370.8 377.7 380.8 384.6 390.8 396.4 406.9 417.9 426.6 439.1 449.9 454.4 451.8 440.1 425.6 411.7 400.1 397.7 402.6 411.8 418.2 426 441.9 450.7 457.5 459.3 457.7 459.3 462.3 464 465.2 466.5 467.6 468.4 469.1 471.4 474.6 477.4 480.6 485.4 486.7 487.9 489.3 491.1 491.8 488.4 485.2 482.1 479.5 477.1 472.9 468.2 460.4 468.3 476.5 482.1 486.7 494.5 503.5 510.6 516.9 521 525.3 526.5 526.4 522.4 521.4 519.3 519.1 520.3 523.4 527.2 530.5 531.9 534.2 534.5 535.4 536.1 535.9 536.1 536.4 536.5 536.4 536.5 536.1 534.5 534.3 531.5 526.1 520.5 513.3 503.5 480.5 452.8 426.9 401.2 371.7 349.5
145.9 138.1 134.8 134.6 134.5 135 135.3 136.5 143.6 153.5 155.8 162.3 170.3 178.2 183 188.6 197.4 204.3 202.3 195.8 192.4 190.6 190.5 191.2 193.2 196 200.4 207 222.9 236.2 248.1 254.6 253.1 251.2 257.1 258.5 257.4 262.6 278.5 281.8 283.5 289.4 294.3 298.9 304.9 309.4 313.1 315.7 319.1 321 323 326.6 330.2 333.5 336.9 340.4 344 347.5 353.5 358.8 364.1 369.6 377.7 385.5 391.8 400.6 410.9 418.7 424.6 427.8 428.8 430.3 435.2 441.2 445.5 447.9 428.9 407.7 396.9 386.4 375.6 362 347.8 327.7 311.4 313.3 314.1 313.9 314.9 311.6 305.2 292.6 283.7 282.7 287.3 289.7 295.8 305.4 314.2 328.4 342.9 357.4 368.6 374.3 377.5 378.4 383.2 390.2 397 406.6 418 431 441.7 439.7 440.8 434.6 431.3 430.2 426.6 420.1 422.7 432.8 437.4 440 449.5 456.4 457.8 457.7 455.1 457.6 460.5 461.1 460.1 463.7 465.3 465.7 467 469 473.4 476.4 480.7 484.3 485.7 486.9 486.3 488.7 490.5 487.8 484.1 479.5 476.1 473 465.9 456 459.7 467.4 474.2 477.7 481.7 488.9 494.8 503.7 509.2 509.3 516.2 515.7 512.4 509.4 507.6 509.3 509.6 510.3 516.3 521.8 525.5 530.4 534.2 535.8 537 537.9 537.3 536.9 537.1 537.2 537.6 537.5 536.6 534.1 532.1 527.3 521.4 515.1 507.3 495.7 477.1 454.4 433.2 413.3 386.3 351
144.4 143.3 139.9 136.7 134.6 133.9 135.9 136.8 137.3 143.3 156 155.9 162.1 172.1 178.2 183.7 190.4 199.3 200.8 194.5 190.1 188 187.6 188.4 190.6 193.1 198.4 207.3 222.2 235.5 246.8 250 248.7 246 246.8 242.8 248.1 252.8 259.2 265 274.7 281.5 288.8 294.5 300.2 304.2 306.7 309 314.1 319.9 323.3 326.2 330 333.5 337 340.2 343.6 348 354.3 362.7 367.4 372.8 381.1 390.7 399.3 405.7 409.5 417.5 425 427.8 429.4 431.5 435.7 440.4 444 443.7 430.2 406 392.7 379.8 367.9 354.5 337.5 318.7 305.7 297.5 302.7 304.1 300.9 299.8 293.4 282.6 274.1 279 281.3 286.4 293.2 302.5 313.1 327.2 341.8 355.3 366.3 371.3 374.4 372.6 374.9 379.1 384 399 412 427.1 427.2 426.3 427.3 428.3 430.6 438.8 442.8 445.4 447.3 458.1 465 457.3 455.1 457 454.5 452.3 450.2 454.1 455.5 454.8 455 457.2 460.9 461.7 463.3 466.1 470.4 474.4 478.9 479.9 482.8 483.8 483 485 486.1 485.9 481.3 476.4 472.4 468.1 456.3 445.6 456.7 465.6 468.6 471.2 475.7 480 486.2 495.3 497.6 497.6 500.7 500 495 490.9 490.8 495 497.1 503 509.8 514.8 523.7 531 535.1 536.9 537.9 538 537.8 537.4 536.9 536.5 537.5 536.6 535.1 532.1 529 524.3 516.9 508.8 500.7 487.4 460.9 438.6 417.5 397.7 382.1 360.1
155.2 151.5 145.6 139.5 136.4 134.1 135.5 136 136.6 137.6 143.1 156.4 157.2 163.5 172.2 178.9 184.7 193.4 197.5 192.3 188.2 185.6 185 185.3 187.2 191.7 198.1 209 221.1 234.3 244.5 245.6 243.9 241.5 238.8 243.4 249.8 257.6 266.8 273.1 279.5 286.4 293.8 301.2 307 310.4 312.9 316.4 317.1 320.6 324.5 327.8 331 333.6 337 340 343.2 348.7 357.5 368.2 376.2 378.9 385.7 395.1 404.8 412.3 416 417.9 424 426.6 429.1 432.7 437.6 441 444 438.9 428.4 405 388.7 376.3 362.4 344.4 326.1 311.6 301.6 293.2 291.3 293.4 288.5 289.8 282.7 274.9 270.2 273.6 278.5 283.8 291.2 300 312.7 326.8 340 352.7 362.9 368.6 370.8 368.5 366.6 371.4 382.8 395.3 409.9 417.9 413.5 412.8 415.8 421.5 428.9 437.9 448.2 457.8 466.4 480.5 485.6 467.8 455.8 451.9 448.2 445.9 447.7 449.7 450.1 450.3 450.7 452.2 454.6 457.1 459.9 463.3 467.2 470.1 473.1 476.5 479.1 480.2 480.2 480.9 482.5 481.5 477.7 473 468.8 464.7 450.1 442.4 454.4 458.7 460.1 462.2 467.8 472 480 483.2 481 477.3 478.9 479 479.1 479 479.7 482.8 479.9 496.7 507.2 516.3 524.9 530.1 533.4 535.9 537.3 537.2 536.5 535.8 534.8 535 534.4 533.9 532.2 529 524.7 518.7 509.8 499.8 490.5 477.7 459.9 435.1 410.2 390.4 372.9 355.1
167.8 157.4 152.5 144.3 138.6 135.2 135.1 135.6 136.2 136.8 138.3 142.5 157 158.1 164.7 172.8 179.7 187.3 193.6 189.4 185.5 183.5 181.8 183 185.1 189.8 197.3 207.7 220.1 231.9 239.8 240.2 238.6 236.3 237.4 244.3 251.4 260.4 269.6 275 280.7 289.7 297.4 307.3 314.5 318.8 321.9 323.4 324.6 324.6 325.3 329.4 332.1 334.7 337.3 340.5 344.1 350.4 357.7 371.1 381.1 388.9 392.6 401.2 410 417.2 421.9 424.2 424.7 427.8 430.3 436.1 441.1 445.1 444.7 433.9 418.8 401.5 386.3 373.5 357.4 337.3 317.6 305.3 296.3 289.9 282.6 283.3 281.6 281.4 274.4 268.4 266.9 270.1 274.7 279.6 286.9 298.7 312.2 326.9 339.8 351.8 360.2 366 365.4 360.2 356.3 367.9 379.9 392.8 400.8 402 400.6 399.8 404.4 413.1 423.2 434.8 447.4 459.9 474.2 489.9 480.9 460.3 447.1 443.6 440.3 440.3 442.1 444.3 445.6 445.7 446.3 447.1 449.1 452.4 455.9 458.6 461.7 465 469.4 472.5 474.4 475.7 476.5 477.1 476.9 476.6 473.4 469.2 464.4 460.3 445.1 436.8 446.2 449.5 450.7 453.9 458.6 459.8 464.2 463.8 464.3 465.3 467.1 467.7 468.5 466.8 459.7 473.7 489.8 498.8 506.7 514.9 522.9 528 531.6 534.3 535.4 535.1 534.6 533.9 532.7 531.5 531 529.5 526.7 525 520 511.6 500.7 489.4 479.2 465 447.4 428 413.8 401.6 388.4 376.4
182.8 176.3 163.6 157.4 151.6 143.7 136 135.2 135.8 136.3 137.2 137.9 142.2 157.2 159.3 167.4 174.4 181.5 188.9 186.5 183.5 181.3 179 180.6 182.9 187.5 196 208 217.8 226.7 232.1 234.1 232.9 225.1 236.7 245.4 253.5 261.9 269.3 274.8 281.2 290 303.1 310.2 314.1 317.9 321.7 326 328.2 328.2 328.1 331 333.8 336.3 338.7 341.9 345.6 350.9 358.9 371.3 383.5 392.3 399.4 405.6 414.1 421.8 426.9 428.2 428.1 428.9 434.1 440.1 444.5 449.6 448 428.9 410 396.2 382.5 369.6 353.8 334.4 315 302.1 294 285.8 279.3 275.8 276.2 275.8 269.5 264.4 264.7 267.4 271 277.2 283.7 297.1 310.2 325.1 336.1 350.3 354.8 359.4 354.3 349.7 352.6 363.5 375.8 383.8 386.5 389.1 388.5 388.6 396.7 409.1 420 433.2 446 460.6 481.9 488.8 469.7 450.2 439.7 434.3 432.6 432.8 434.6 437.9 440 440.7 441.3 441.9 444.6 449 452.8 455.5 458.6 461.8 465 467.8 469.6 471.7 472.8 473.1 472.4 472.2 470.7 465.7 460.4 455.5 438.8 427.4 437.3 440 442.6 445.7 448.6 449.6 452.1 454.1 455.6 456.9 459.2 460.2 456.8 447.8 471.6 481.5 490.4 497.2 505.1 513.7 521.6 525.9 529.2 532.1 533.2 532.9 532.3 531.3 529.9 527 526.3 523.7 521.2 517.7 512.8 502.8 490.1 478 465.3 449.8 431 417.4 404.8 392.9 379.8 367.8
188.1 177.7 175.7 166 161 153.8 143.9 134 135.7 135.8 136 137.1 141.7 147 158.5 162.1 169.9 175.4 183 183.8 181.7 179.5 176.5 178.3 180.3 185.3 193.5 207.3 215.6 222.1 222.6 226.1 223.8 227.5 235.9 245 252.9 260.8 267.4 273.9 280.8 288.7 302.8 308.7 312.3 316.6 321 325.7 328.4 329.8 330 332.5 335.5 338.2 339.9 343.6 347.3 351.9 360.7 371 384.4 394.3 402.7 409.6 417.3 425 431.8 433.5 431.2 431.3 437 442.7 448.6 453.7 446.5 423.3 404.2 390.4 377.3 363.3 347.8 330.1 311.7 299.3 290.1 281.5 275.8 270.4 269.7 269.3 264.1 260.4 261.8 264.4 267.6 273.2 281.3 295.3 307 317.6 332.3 339 342.6 342.7 343.5 339.9 348.4 360.2 369.1 374.1 377.1 378.3 377.2 387.4 398 407.9 419.6 432.8 446 463.4 480.3 477.4 456.8 440.5 432.7 423 420.9 424.1 428.3 431.7 433.7 434.9 435.3 435.5 440.5 445.1 448.9 451.8 454.6 457.5 460.2 462.6 465.3 468.1 469.1 469.7 468.6 468.7 467.6 463.3 457.5 450.9 429.3 414.7 426.3 429.5 432 436.2 439.2 442.8 444.8 446.6 447.2 449.3 451.5 449.1 434 456.6 472.4 480.7 489.2 495.5 503.8 512.1 519.6 523.4 526.9 529.9 530.8 530.5 529.7 528.2 526.5 522.9 521.1 518.7 515.2 510.1 504 493.3 478 465.1 450.1 429.1 416.3 406.4 391.1 386.2 377.3 356.9
191.2 181.7 176.8 170.2 164.3 157.4 150.5 140 136.5 136.1 135.7 134.6 138.8 145.2 150.5 159.3 164.7 171.2 177.1 180.5 179.9 177.6 174.6 175.8 178.6 182.5 190.6 205.7 210.3 207 201.2 203.2 218.1 227.2 234.1 242.5 251.5 260.7 265.7 274.2 280.6 287.6 301.2 307.5 311.5 315.7 320.4 325.8 329 331.1 331.7 333.7 336.7 339.7 342.4 345 348.9 353.7 360.9 371.3 383.7 394.2 403.5 411.7 418.1 426.5 435 439.7 437.2 434.6 437.3 442.8 449.4 455.3 442.7 419.7 401.4 386.1 372.5 356 339.4 324.4 307.9 296.3 286.6 278.5 272.6 267.7 263 262.9 259 257 258 261.1 264.2 269.4 279.5 292.8 302.4 312.2 321.5 328.4 329.4 331.5 334.1 335.4 345.9 354.3 361.9 365.1 367.2 368.7 378.7 386.5 395 405.6 419.2 432.4 449.6 469.9 471.2 460.7 442.5 431.3 422.3 413.9 413.2 415.9 421.9 423.5 425.1 427.2 427.5 430.6 436.6 441.4 445.1 447.2 450 452.6 455.4 457.4 461 462.9 464.3 465.2 464.6 464.2 463.3 459.7 456.1 450.5 428.4 398.9 414 416.8 419.2 424.2 426.8 435.8 438.2 439.4 439 441.8 438.7 429.5 434.4 458.4 471.5 479.6 487.4 494.5 503.2 511.2 517.7 521.3 524.9 527.1 528.6 528.5 527.4 526.2 524.6 518.4 516.8 513.6 510.1 503.1 494.5 481.6 466.6 451.9 434.7 413.8 403.1 389.7 386.5 382 371 359.9
188.5 184.8 179.2 174.3 167.7 162.3 154.3 147.6 137.6 136.3 136.3 136.5 137.1 141.2 144.9 152.9 160 166.4 172.1 176 175.6 174.6 169.1 173.6 176.2 179.7 185.6 198.8 197.3 193.4 203 210.9 219.4 226.4 233.5 241.9 251 260.4 266.6 274.2 280.5 287.2 298.1 307 311.2 316 321.1 326.6 329.4 330.8 332.3 333.7 336.8 340.2 343.4 346 350.3 355.3 361.5 370.9 382.9 393.9 403.5 412 418.6 426.9 436.1 442.8 442.2 438.2 438.1 442.3 449.9 454.9 440.7 418.2 398.9 383.7 368.7 352.3 335.3 316.3 300.9 292.1 283.8 275.3 269.9 264.9 260.9 256.9 256.5 253.5 254.7 257.1 260.1 266.5 277.6 288.4 295.6 302.2 303.6 319 333.8 340.9 343.8 343.5 340 349.3 352 358.6 366.7 374.3 380.4 385 392 404.3 418.1 433.9 446.1 469.4 458 445.7 431.2 422.1 411.4 404.7 404.2 409.1 413.2 416.7 418.1 419.5 420.4 426.6 432.2 437.3 441.1 444.2 446.6 448.1 449.9 451.3 454.2 456.5 458.1 459.5 458.9 458 457.6 454.8 452.5 446.3 421.5 395.6 400.4 407.1 411.1 414 419.1 427.3 431 431.9 427.4 429.1 417 404.7 433.6 453.3 468.2 478.8 485.7 493.4 502 510.1 515.5 519.3 523 524.9 526.3 526.4 525.5 524.5 523.1 519.6 512 507.8 502.5 494.8 483.2 467.8 455.4 438.2 418.3 401.3 387.8 375.2 372.8 365.5 358.5 348.9
192.2 186.1 179.6 175 169.9 165.4 158.7 153.8 142.2 137 137.1 136.9 137.1 138.7 140.6 147.5 156.2 161.1 169.3 173.5 172 169.8 166.3 171.7 173.5 177.1 182.4 186.3 184.7 196.4 201.8 211.4 218.6 225 233 242.6 252.5 260.4 266.9 273.9 278.9 284.6 295.2 305.5 310.2 316.2 321.4 325.9 329.7 330.3 332.1 333.4 337.2 340.9 343.9 347.6 352.4 356.3 363 371.6 381.9 393.2 403 410.8 417.7 425.7 435.1 442.6 444.1 440.2 437.9 441.5 448.2 454.1 441 416.4 394.7 379.1 363.5 346.6 330.9 313.5 299.1 289.5 279.7 273 267.4 262.7 258 253.1 252.5 251.6 252 255.3 258.8 265.8 273.5 281.3 289.3 297.9 309.4 326.2 342.1 355.9 357.9 358.1 352.2 349.4 355.7 363.4 368.2 372.2 374.9 377.2 388 398.9 418.4 436.6 439.8 459 445.8 431.7 422.9 413.7 402.1 396.3 396.8 401.7 405.6 409.1 411.3 411.9 417.1 421.7 427.8 432.6 435.4 438 439.3 440.8 442.1 443.8 446.9 449.5 451.7 453 452.3 450.7 450.4 448.3 446.4 439.2 415.7 388.4 383.1 397.9 401.4 401.8 409.7 412.6 423.2 424.7 414.4 406.7 396.8 418.6 444.2 460.2 470.1 477.7 483.3 491.2 500.6 507.3 513.3 517.9 520.8 522.8 523.5 523.9 523.6 522.8 521.3 517.8 512.1 505.3 492.7 472.5 466.1 453.5 435.7 410.8 391.7 376.2 367 366 353.5 347 340.8 333.7
