ncols 200
nrows 82
xllcorner 380000
yllcorner 490300
cellsize 50
408.2 422.6 431.5 438.7 444.5 446.9 456.5 458.3 466.1 478.5 486.5 492.1 495.8 499.6 504.6 508.9 514.9 520.8 525.8 528.3 526.6 521 523.7 532.3 533.6 535.8 537.2 537.9 539.1 539.2 536.8 534.6 531.3 527.4 523.3 518.8 513.4 507.3 500.8 492.1 482.1 471.9 459.3 445.4 430.5 417.1 402.6 390.1 380.2 370.4 358.2 361.7 356.3 351.2 342.5 338.8 354.2 362.9 368 363.5 354.1 349.6 345.5 337.6 327.7 334.1 341.8 363.4 377.2 396.4 413.2 425.2 435.4 449.5 461.8 472 485.4 497.5 506.2 512.8 519.5 528 534.4 543.7 549.8 552.9 553.9 555.8 554.6 554.6 551.9 552.4 549.1 543.2 530.3 515.5 498.6 484.8 470.7 463.1 453.3 441.4 437.3 451.8 476.5 492.9 504.2 513.5 519.6 528 531.1 531.1 528.9 522.3 514.8 507.2 497.6 489.3 478.8 467.1 452.3 439.7 432.6 429.6 424 415 404 398.7 406 422.8 438.3 450.8 469.9 483.4 491.1 489.8 508.7 516.3 531.1 541.6 549.4 558.1 565.5 570.5 574 581.6 587.2 591.4 595.4 601 611 618 623.8 630.4 634.2 638.3 638.9 636.9 634.2 630.8 628.2 624.4 621.2 622.6 622.1 621.6 620.5 617.2 618.1 617.8 616.5 616.2 614.3 613.2 611.4 609.4 605.9 603.8 601.6 602.3 601.9 602 599.8 591.3 581 578.4 577.1 573.7 567.8 561.3 557.6 554.7 549.7 543.7 535.8 529.3 529.7 528.3 525.3 527.6
401 413.5 428.7 435.7 442.7 447.3 450.6 454.4 464.2 474.9 483.2 490.9 495.9 499.7 502.8 508.7 514.2 519.7 522.3 522.7 523.5 521.6 518.3 525.8 532.4 536.2 538 539 539.4 538.8 536.5 533.1 528.8 524.9 520.5 515.5 510.3 505.3 500.1 493.5 484.8 475.3 464.5 449.6 437.8 424.2 410.7 397 386.7 377.6 365.7 355.9 344.4 345.7 331.4 341.2 350.4 357.8 363.3 361.9 352.2 343.8 341.6 337.4 327 326.5 336.9 357.4 371.8 386 406.3 420 431.5 443.4 459.1 471 481.4 493.2 504.3 511.8 520.5 528.4 532.5 543.2 550.6 553.7 555 554.9 554.2 551.8 550.1 549.6 546.4 538.9 525.4 509.2 497.5 483.5 472.7 463.7 454.9 441.9 432.1 447 468.1 489.6 501 510.3 516.5 523.6 527.4 526.3 521.9 515.4 509.1 501.8 493.1 484.3 473.9 463.2 447.5 435.6 429.4 425.6 422.7 414.4 400.1 396 411 424.4 442.2 453.3 471.5 483 491.6 494.8 507.8 520.3 532.6 542.2 551.2 557.9 566 571.3 575.3 581.7 587.2 591.2 595.2 597.6 607.1 616.4 620.8 625.9 629.5 634.4 637.4 636.1 633.1 630.3 627.8 623.4 622.3 620.4 619 618.7 617.7 615.8 617.4 617.6 613.8 614.8 613.5 612.1 610.1 608.2 605.5 602.8 601.8 601.3 600.2 601.9 601.2 593.1 582.3 579.5 578.6 576.9 573.6 565.8 560.3 557 553.2 546.5 539.3 534.5 527.1 521.8 519.3 520.4
398.3 409.9 423.5 431.8 441.6 445.7 451 457.8 464.5 472.3 480.2 487.8 494.4 499.8 503 505.7 509.5 514.2 517.5 518.2 518.5 518 517.5 522.3 529.6 533.8 537.4 539.5 539.6 538.1 535.3 531 525.7 521.1 516.2 510.8 504.4 499.8 495 490 483.9 475.4 464.5 452.5 439.4 426.4 411.4 400.2 390.1 380.5 368.3 359 349.6 339.2 331.5 337.6 345.3 351.4 356.7 358.1 351.2 340.6 339.3 342.4 326.6 323.6 330.8 346 366.4 381.2 397.9 414 428.1 439.2 454 467.9 478.6 489.6 502.2 509.5 519.9 528.3 533 543.6 551 553.8 555.2 554.5 553.6 550.8 547.5 546.4 541 533.2 519.6 505.4 493.7 481.7 473 464.7 455.8 443 429.3 442.5 460.2 487.6 497.5 507.2 513.9 520.8 522.9 521.1 516.9 511.9 505.8 497.5 487.7 476.1 463.4 454.3 441.9 432.4 427.2 423.4 418.5 411.8 398.4 395.6 412.3 426.5 443.4 458.8 473 483.8 492.1 499.9 512.5 523.3 533.7 543.6 554.1 559.3 565.4 570 574.4 579.8 585.4 591.2 595 597.9 603.2 610.4 616.4 621.1 625.7 629.4 632.9 633.3 631 628.7 626.6 623.1 619.8 618.1 616.3 617 614.2 612.3 616 617.2 615.1 611.6 611 609.8 607.2 606 603.1 601.6 599.7 599.7 598.9 598 599.9 594.9 583.9 580.9 579.5 578.1 577 572 563.7 558.6 555.4 551.1 547.4 539.3 529.3 523.6 518.8 514.6
391 401.9 416 428.5 439.1 444.5 448.4 451.6 461.6 469.1 476.9 484.5 492.2 498.5 502.4 503.3 502.2 508 510.7 512.1 513.2 512.8 517.3 520.9 525.8 530.4 532.8 536.2 537.6 538.3 535.3 529.8 523.1 517.6 511.5 504.6 498.9 493.5 487.8 484 478.5 470.6 459.8 447.8 436.7 427.3 414.9 403.4 393.6 380.7 370.3 357.8 348.9 343 336.8 326.3 341.1 345.7 349.9 352.5 350.3 339.8 338 343.2 337.6 323.4 322 338.6 360.5 374.8 389.2 406.7 422.5 435.1 453 461.5 475.6 485.1 499.2 506.1 517.1 527.3 532.5 542.7 548.7 552.3 554.7 554.1 553.2 552.5 545.1 542.1 538.7 525.9 514 501.9 491.8 483 472.6 464.3 454.9 446 435 437.2 454.2 479 493.9 500 509.8 517.1 518.9 517 513.9 509.6 502.2 493.4 481.2 467.4 457.9 447.9 440.1 431.1 424.7 421 416.2 406.4 396.5 394.3 413.2 424.4 447.6 461.4 475 484.2 492 502.8 514.1 523.8 535.5 545.7 556.9 561.4 565.8 569 574.6 578.1 583.2 588.6 592.9 597.6 601.4 604 606.4 615.6 620.6 624.1 626.7 627.7 626.6 624.9 622.9 621.5 618.8 617 616.8 615.9 613.6 608.7 612.4 615.5 613.9 610.5 609.5 607.3 604.8 603.1 601 599.9 596.7 597.4 597 595.2 595.1 593.5 587 582.8 579.4 579 577.9 576.5 567.8 560.1 556.6 554.4 552.1 549.1 540.9 527.2 520.9 519.1
386.8 395.2 406.7 421 433.7 442.2 446.6 450.9 456.3 463.7 471.1 478.1 485.7 493.5 491 489.7 498.9 498 501.5 510.1 513.1 516.2 518.2 519.7 523.7 527.1 531 531.4 534.1 535.9 536.1 530.9 524.1 517.4 510.9 504.3 495.1 486.3 479.6 475.6 472.5 466.4 451.5 438.5 428.8 418.3 409.7 400.4 392 379.8 368.4 358.3 348.4 343 337.6 325 337.2 340.6 345.1 346.9 347.8 341.7 333.3 339.2 338.9 326.1 320.5 333.4 351.6 367.4 380 397.3 414.5 427.3 442.1 458.3 472.6 484.8 493.3 504 514.7 527.1 533.7 541.1 547.9 550.3 551.3 552.8 552.1 551 544.8 536.1 530.4 521.7 509 499.9 491.5 480.7 471.5 462.7 455.2 445.6 438 431.1 447.8 468.4 489.2 498.9 506.3 512.9 514.4 513.2 510.1 501.3 498.6 488.7 473.6 462.6 453.2 441.9 436.6 427.9 420.8 418.4 415.2 408.5 395.3 395.4 415.6 430 450.1 464 476.4 483.6 489.3 504.9 514.2 523.1 535.9 548.3 557.9 563.4 564.8 568.1 573.9 575.3 580.6 588.1 592.4 596 599.2 599.7 602.1 607.1 614.4 618.6 622.2 622.5 621.5 620.7 619.3 617.5 616.5 615.7 614.9 615.2 613.6 609.5 606.6 610.2 610.2 608.2 605.5 603.4 600.4 600.3 598.4 597 596.8 595.7 594.8 591.1 589.2 590.1 587.9 584.5 582.2 580 579.2 578.5 570.9 561.4 559.3 558.9 558.6 553.5 548.6 537.6 527.3 522.4
381.4 388 398.8 410.8 423.7 438.2 444.4 446.5 448.3 453.4 459.3 470.7 474.5 473.9 492.4 500.7 507.4 507.9 507.2 512.4 514.7 516.5 518.3 520.5 524.1 526.8 528.9 531.3 529.3 531.8 533.7 531.8 526.1 518.7 511.4 503.9 502.8 493.3 483.4 479.5 472.6 466.4 455 434.7 420.3 402.1 394.6 390.2 379.8 372.2 360.8 352.3 346.4 341.8 336.5 324.1 327 335 339.7 342.8 342.1 341 330.8 330 332.7 328.2 318.6 320.1 340.3 358.2 374.5 390.5 405.6 420.7 434.6 450.7 467.9 480.5 491.3 503.1 513.1 526.3 534 541.1 544.5 546.6 550.8 551.1 551.1 547.4 543.5 532.8 521.9 515.4 506.7 497.6 488.4 478.6 470.5 462.2 452.4 444.7 437.8 427.4 443.3 459.5 485.4 495.6 503.3 507.9 509.6 508 503.6 500.2 493.9 482.6 469.2 458.8 448.9 439.8 430.7 426.5 416.7 414.8 413.6 408 390.9 403.5 418.9 434.4 452.5 464.8 475.7 485.9 493.1 506.1 516.4 525.4 537 550.7 558.5 563.2 565.3 567.1 570.2 573.1 578.2 586 591.5 594 596.6 597.4 599.9 603.3 606 609.5 612.9 617.5 617.9 615.5 612.2 610 610.7 610.2 612.6 612.6 612.8 610.2 602.6 604.1 605.2 604.5 602.5 602.8 599.8 597 594.3 593.1 593.8 591.8 591.3 589 588.4 588.6 587.8 585 583 580.5 579.1 577.3 575.3 567.9 562.7 560 562.9 559.6 553.3 548.1 534 525.2
370.6 374.7 392.1 402.9 414.4 424.1 438.4 442.7 442.5 446 450.5 453.9 466.5 477.6 483.9 493.6 502.8 507.4 512.1 511.7 516.3 517.3 520.1 524.2 526.8 528.5 529.1 528.7 526.9 528.7 530.5 530.5 527.4 521.5 514.4 509.3 507.1 503.3 492.6 484.2 476.1 468.6 457.3 444.1 429.3 412.8 397.4 382.9 373.3 361.7 349.6 343.5 338.7 334 334.5 324.7 324.1 323.9 331.2 336 337 336.9 332.5 321.5 321.9 322 317.9 317 332.1 352.1 366.7 380.8 398.3 413.5 426.3 442.5 460.6 472.8 486 501.4 512 526.6 535.5 539.6 544 546.6 547.4 550.3 549.2 547.4 538.4 528.9 517.7 510 502.5 494 485.1 477.2 469.5 461.5 450.7 440.7 433.3 423.6 440 452.5 473.3 493.6 499.1 502.5 503.1 502.3 497.8 492.6 482 475 464.7 454.8 445.4 434.4 425.1 418.9 413.2 410.8 410.3 404.7 388.6 408 421.7 438.5 454.2 466.8 477.1 485 494.1 508.5 519.7 525.1 535.8 547.2 556.3 562 564.5 567.2 569 573.2 576.6 582.9 589.5 592.6 593.8 592.9 596.7 599.9 602.4 603.4 602.5 602.4 607.1 607.3 601.7 599 601.4 602.2 604.2 608 609.8 607.7 603.3 598.6 600.7 601.6 601.9 601 598.7 594 589.2 589.1 590.3 590.1 589.5 587.5 587 586.8 585.1 584 583.1 581.8 579.1 579.2 579.7 571.2 565.7 563.1 564.3 562.7 557 551.8 545.9 529.8
365.6 363 382.1 397.5 405.8 416.1 423.9 429.5 427.4 439.7 447.8 457.2 464.8 470.1 477.5 485.9 497 505 511.3 514.1 515.4 517.8 519.9 524.3 528.9 532.6 533.1 532.1 529.2 525.3 526.8 528.6 528.1 523.4 518.4 512.8 510.4 506.6 500.1 492.1 483.6 475.4 466 455.6 444.1 429.5 414.2 399.2 385.2 374.3 360.2 349.1 337 331.5 329.7 323.4 322.6 321.8 321.3 325.9 329.2 331.1 331.2 323.3 316.2 316.5 316.5 316 320.1 345.5 360 374.7 389.3 405.7 419.3 434.2 451.2 474.6 488 497.5 512 525.2 537.1 540 545.2 547.8 549.3 549.7 546.4 541.8 534.3 524.4 516.9 509.3 500.7 495.3 485.1 474.9 467 459.2 449.1 439.2 431.5 420 434.9 447.6 460.8 487.1 496.2 498.2 498.7 496 491.8 483.6 474.9 467.4 459.2 449.9 441.6 432.5 421.4 415.6 408.1 406.3 406.8 391 399.9 412.7 424.1 440.4 455.1 468.9 477.5 484.8 493.9 510.2 521.6 527.6 537.2 550.6 557.3 561.5 565 566.1 568.4 570.5 576.1 578.6 583.5 589.1 590.4 590.5 593.2 596 598.5 599.8 599.4 598.2 597.1 597.5 595.9 592.9 595.4 595.8 597.1 599.5 603 602.2 601.8 600 596.7 599.1 599.3 597.2 594.9 591.2 586.3 586.4 586.6 587 589 589 589 588.1 586.9 584.7 582.6 581.2 579.8 578.5 580.5 574.5 567.6 565.3 564.5 562.4 557.2 553.8 550.5 537.5
360.1 357 373.7 387.8 400.6 406.7 414.5 418.8 432.3 441.3 449.8 455.3 464.2 467.9 476.6 484.6 491.9 501.2 508.7 514 517.2 516.1 517.1 520.8 526 531.3 535.3 535.8 532.8 528.3 523.9 523.9 526.1 526 523.3 518.3 512.5 508.4 502.5 496.5 489.6 482.2 474.3 466 454.7 442.3 427.8 414.5 398.7 386 370.8 360.4 346.6 333.4 326.7 326.2 320.8 319.1 319.5 319 318.3 317.5 323.1 322.5 314.2 314.5 313.6 314.7 315.2 332.4 348.8 363.4 379 396.6 412.1 427.3 445.1 464 485.4 497.5 509.9 524.8 536.4 540.9 546 549.4 550.5 548.7 545.3 537.3 530.3 522.4 514.7 507.9 501.4 494.9 484.9 473.6 465.8 457.7 446.7 436.8 423.6 418.4 432.4 441.9 452.2 466.2 487.3 495.4 494.4 490.7 481.8 475.4 469.7 460.3 452 445.3 436.8 428.9 420 411.7 407.1 399.3 401.8 385.6 404.6 414.8 427.5 442.1 456.3 469.6 476.8 483.9 494.6 507.4 519.9 527 538.1 549 556.6 561.1 564.5 566.5 567.2 568.5 573.9 577.4 579.3 582.8 586.3 588.2 589.6 591.8 593.4 595.5 596 597 595 592.4 592.9 592.7 592.1 592 592.1 594 595.4 595.7 596.7 598.4 598.7 595.9 595.3 591.6 589.3 587.4 583.8 583.1 584.4 584.8 587.9 588.5 588.2 589 590.1 585.4 581.7 581.4 580.4 579.5 580.7 576.9 570 566 564.9 561.7 557.2 555 550.5 541.7
356.6 353.7 366.3 379.9 391.3 397.8 406.7 414.4 425.7 436 445.8 451.9 464 469.1 473.9 484.2 489.9 495.7 505 511.3 515.4 518 517.5 518.3 521.5 525.7 529.5 532.4 532.6 529.3 525.5 521.9 522.6 524.1 525.1 523.1 518.5 512 505.4 499.1 491.9 487.3 482.9 475.3 465 452.4 437.8 425.1 413.1 397.8 384.9 369.5 355.2 343.3 331.6 327.3 324.2 320.3 318.2 317.3 315.5 315.1 314.2 314.8 313.3 312.7 312.8 313.1 313.4 322.8 340.5 355.5 369 383.9 402 419.9 438.8 452.2 478.1 492.5 506.2 520.4 537.1 543 546.4 550.5 549.2 546.8 542.9 535.1 526.6 518.6 512 508 504 494.1 483.3 473.5 464.8 455.9 443.3 435.5 428.2 413 430.5 438.5 445.2 456.8 467.8 481.8 483.2 481.3 476.1 469.8 463 452.4 447.5 440.1 433.8 427.6 418.1 407 403.7 398.5 389.1 386.5 408 416.9 429.7 443.8 456.5 469.9 477.7 485.5 495 507.4 516.9 525.1 537.1 546.7 554.7 559.5 564.1 565.5 566.4 567.4 568.6 573.9 577.2 578.9 581.6 584.8 586.5 586.9 589.2 590.6 592.7 594.9 594.3 591.7 590.3 590.7 589.1 590.2 590 590.5 590.3 590.1 590.7 593.5 595.8 591.3 590.7 585 582.8 582.1 581.7 581.4 581.8 582.8 585.3 585.9 585.6 584.9 585.4 583.7 581.8 580.4 581 581.5 581.7 579.8 572.9 568 564.8 562.3 557.9 553.4 552.1 547.8
349.7 352.1 362.1 372.5 376.4 394.2 404.8 408.7 416 433.2 443.1 449.4 461.9 468.4 471.8 478.4 487 492.3 498.1 506.3 511.8 514.9 516.1 517 517.3 519.5 522.3 525.1 526.8 525.6 523 517.4 519.6 522.1 523.4 524.3 522.3 517.1 510.5 503.8 496.8 491.5 488.2 480 470.7 460.4 448.3 435.1 420 408.4 399.3 386.8 375.2 358.4 349 340 336.4 331.2 327.3 323.3 327.4 319.6 313.5 312.8 311.8 309.8 311.1 311.6 311.8 315.9 332.6 345.7 361.1 374.1 388.9 408 427.8 446.7 462.4 485.4 501.7 517 532 545.3 546.1 546.6 547.4 545.9 541.4 532.9 525.4 516.5 511.4 507.7 502.3 490.6 479.5 468.7 461.7 451.8 439.7 432.7 426.1 411.8 426.9 434.7 441.3 449 457.5 464 471.9 473.5 469.8 464.7 455.4 445.9 440.6 434.4 429.2 424.2 416.6 406.4 400 395.9 382.3 397.3 409.8 417.5 430.6 443.7 458.1 472.2 478 485.9 492 508.8 515.8 523.6 534.2 546.4 555 558.6 564.9 565.5 564.2 564.9 566.1 568.4 571 575.3 577.9 580.9 582.2 582.6 583.9 585.5 588.3 591.3 592.6 590.9 588.3 587.4 587.4 587.2 586.8 587.7 586.7 585.5 586.5 587.1 589.1 589.8 585.8 585.7 582.2 579.5 579.3 580.7 582.8 582.5 581.7 581.7 581 580.5 580 580.1 579.8 578.2 580.6 581.8 582.5 582.7 574.4 569 565.7 562 558.7 555 552.5 548.7
344.7 345.2 354.8 368.9 375.1 386.7 398.3 407.6 412.9 421.4 432.3 444.8 459.7 468.1 471.5 473.7 480.5 488.4 494.3 500 507 510.6 512.9 513.8 514.2 515.8 517.1 517.8 519.3 518.2 517.5 516 515.7 518 520.8 523.2 523.3 520.5 515.5 508.8 501.2 495 491.7 485.2 475.8 464.7 453.7 440.8 427.4 415.7 404.6 393 384.1 373 363 353.8 345.3 338.8 334.5 332.7 334.5 328.5 311.1 311.7 310.6 310.5 310.3 310.1 310.4 311.5 323.4 338.3 351.8 365.4 379.2 394.7 415.2 438.1 453.8 479 492.6 510.8 523.6 533.8 541.6 540.7 541.7 543.2 538.2 532.6 524.7 517.6 514 508.9 501.6 488.1 475.5 463.2 453.9 445.6 435.7 429.7 424 407.9 420.8 429.2 435.4 441.7 449.8 456.3 462.7 465.6 463.7 457.3 447.2 439.9 435.4 430 425.2 420.1 412.8 403.1 398.5 389.3 380.9 399.9 408.6 418.4 430.4 444.3 457.9 474.5 477.5 482.8 493 507.7 514.9 518.7 534 545 554 558.1 563.8 563.6 563.7 564.1 565.3 567.6 569.1 570.9 575.9 578.7 579.7 581.3 580.8 581.8 581.8 585 587.5 587.3 585.4 581.7 582.8 583.5 581.6 582.5 582.7 584 582.7 583.1 582.6 584.4 585.3 584.8 582.3 579.1 579.7 580.6 581 580.2 577.6 577.5 577 577.6 576.9 576.7 576.9 576.6 579.6 581.9 583.1 583.2 575.8 570.5 567.1 563 559.5 557.1 553 549.6
337 345.9 357.3 367.1 374.4 381 392.6 404.2 411.6 417.8 428.1 438.6 453.6 464.2 470.9 473.1 475.8 480.5 487.2 494.5 499.9 505.1 508.5 509.4 510.6 510.9 512.4 514.2 515 514.5 513.9 514.4 514.1 514 515.3 518.3 520.9 521.3 518.3 512.8 505 497 492.5 489.3 480.8 469.6 457.5 440.7 429.9 419.1 407.7 397.9 390.1 380.3 374.4 367.1 356.3 347.7 340 334.8 333.1 328.4 319.3 311.6 310.2 309 309 309.1 308.9 308.9 316.4 329.6 342.7 356.5 368.8 383.5 401.9 422.1 446.3 462.6 482.5 498 515.3 523.3 529.6 533.8 534 535.3 534.6 531.9 524.7 518.8 516.1 510.6 502.6 485 468.8 456.3 445.1 436.6 429.7 426 422.5 409.2 413.6 423.2 429.5 435.1 442.3 448.8 453.9 456 455.2 449.1 441.6 433.1 429.5 425.2 420.3 412.3 408.8 402.9 396.7 387.9 382.6 399.5 409.3 419.2 432.5 444.8 459.3 472.3 473.6 479.1 486.4 507.4 516.3 523.9 535.1 544.3 550.1 555.1 560 563.5 561.1 562.9 564.5 566.7 567.4 569.3 574 576.6 578.2 578.4 579.2 580.3 580.7 580.8 580.4 580.8 579.6 578.7 579 578.6 578.4 578 578.3 581.5 582.4 581.5 579.7 577.9 579.4 579.7 579.7 578.9 576.1 577.1 577.1 576.8 575.3 572.9 574.8 575.1 575.3 573.4 575.1 575.6 578.3 581.3 584.2 581.9 575.5 570.3 567.9 565.4 562.3 558.4 555.9 551.1
336.1 343.4 356 364.8 373.5 379.9 387.1 398.2 407.6 415.2 422.7 432.9 447.4 457.2 467.2 474.5 474.7 477 476.4 484.8 493.8 499.6 503.2 506.2 506.6 506.4 507 508.6 511.8 512 512.9 513.5 513.7 513.8 514.6 515 514.8 518.4 519 515.7 508.2 500.5 491.6 488.6 484.7 472.8 461 447.6 428.9 418.5 407.3 397.6 391.4 382 377.9 373.9 365.8 355.6 345.3 337.9 332 326 317.8 311.6 309.2 307.9 307.9 307.8 307.7 307.5 309.9 321.2 334.9 347.6 360.5 374.5 389.7 407.1 432.9 453.2 470.4 490.4 499.5 515 520.4 523.8 527.9 530.3 532.8 531 525.8 519.1 517.5 513 500.9 481.6 464.5 449.7 438.4 428.8 424.6 420.8 417.4 407.9 411.2 420.2 425.1 428.8 433.6 439.3 445.9 447.9 446.6 441.6 434.1 428 424.1 420.4 415.4 407.3 405.1 402.2 394.9 382.4 378.7 394.1 406.9 417.5 433.4 444.9 457.8 467.9 475.2 483.7 493.1 509.6 519 523.7 531.5 543.3 548.2 552.8 557.1 559.7 560 562 563.8 565.4 566.2 567.9 569.6 571.8 577.7 577.6 578.1 578.7 579.7 580.3 578.9 579.1 578.2 576.6 577.8 576.9 575 575.5 574.7 576.6 580.8 581.8 579.7 575.1 573.5 574.2 574.2 575.5 575.4 574.1 572.8 573.1 571.9 571.6 572.8 572 574 574.3 573.3 573.1 576.3 579.7 577.5 575.1 572.7 569.7 567.1 565 564.2 561.2 557.5 553.7
335.4 338.3 348.3 359.3 369.6 376.9 385.9 390.6 399.2 406.9 414.7 424.6 436.6 452.4 461.3 470.5 475.5 475.9 477.2 476.5 482.5 493.1 498.5 501.6 503.7 504.4 503 504.8 507.7 512.4 515.2 516.1 514.2 514.3 513.8 513.9 513.8 513.5 514.8 517.4 512.7 506.5 497.1 488.7 481.4 476.9 465.5 451.1 435 419.8 409.2 394.3 382.4 375.6 373.8 375.8 370.8 362.3 352.3 341.3 332.8 325.1 316.6 311.2 308.4 306.9 306.8 306.6 306.3 306.1 307 314.8 326.1 341.5 351.9 364.3 378.7 395.1 415.7 441.4 465.1 481.9 497.6 504.7 512.2 517.7 523.3 525.7 529.6 531.4 527.5 520.2 516.4 511.7 501.4 478.8 462.7 446.9 431.5 421.5 417.8 414.3 413.6 404.4 406.9 418.2 421.4 422.9 425.1 428.9 435.8 439.8 438.5 433.4 427 422.1 418.1 414.3 410.6 405.1 401.2 399.2 394.5 375.7 384 398.2 409.9 422.8 436.3 446.7 460.3 467.9 475.5 482.5 495 509 520.3 524.1 530.5 540 545.4 548.9 551.2 551.9 558 561.7 562.9 564.8 566.1 566.5 567.2 568.5 571.8 575.5 575.7 577 579.2 578.9 576.9 576.8 576.9 573 575.3 574.7 571.9 571.2 572 575 576.5 577.8 578 575.3 572.1 570.4 570 571.2 572.8 571.6 570.4 569.7 568.8 570.1 571.7 573 572.2 573.8 573.4 571.2 573 575.8 574.6 571.7 570 568.1 567.2 566.6 563.1 560.4 558.3 555.3
335.6 334.9 340.6 353.2 362.7 372.4 378.4 388.3 392 398 406 415.3 425.1 441.7 456.7 464.9 471.1 476.5 477 476.5 479.4 476.3 490.4 495.3 498.9 501.2 500.1 505.8 509.5 513.2 516 517.2 517.2 516.7 514.2 514.7 514 514 514.1 516.2 518.5 514.4 505.3 497.6 488.3 480 470.6 459.9 446.1 425 410.1 398.2 389.8 375.2 371.4 371.3 370.9 365.3 357.7 346.9 336.6 326.1 316.9 309.4 306.4 305.1 305.4 304.6 305.8 305.5 305.2 306.8 317.7 331.1 345.2 355 369.6 382.9 401.8 425.6 449.4 479.8 490.6 498.2 502.7 511 518.5 524.4 525.6 528 528.6 523.4 517.1 511.4 501.3 479.7 464.3 441.6 422.3 413 408.9 407.2 407.6 398.3 404.8 417.9 419.2 419.1 417.6 419.9 424.9 431.4 430.8 425.6 419.9 415.6 413.1 410 406 400.4 397.6 394.9 392.4 376.2 379.3 397.6 410.9 424.5 437.2 446.1 459.8 467.5 476.4 482.9 493.1 507.4 518.8 521.5 524.9 527.9 531.7 543.5 551.4 558 558.7 560.2 561.3 563.6 566 566.5 566.9 567 567.7 569.1 571.2 577.4 577.5 576.4 576.8 575.5 575.4 571.4 571.9 570.5 568.3 569.8 568.6 571 570.8 571.7 572 571.2 570.4 568.9 567.2 566.1 568.6 570.5 570.5 568.4 566.4 567.2 569.8 570.3 571.8 572.2 571.7 569.5 569.6 571.2 571.1 569 567.7 568.6 566.6 565.7 564.8 561 556.8 555.6
334.4 327.5 336 344.6 358.1 368 377.2 384.4 386.9 391.7 401 407.7 417.4 430.4 440.9 456 467.4 472.1 475.8 477.4 477.3 478.4 476.2 483.8 491.2 486.3 500.8 507.1 510.8 513.6 516.1 517.9 518.4 517.7 516.6 515.4 516.8 517.2 518 520.4 521.6 519.8 514.1 505.7 496.5 487.5 478 467.7 455.1 436.3 417.8 405.3 398.2 388.7 374.5 367.1 364 362.4 355.8 350 340.6 330.4 319.9 310.9 307.8 306.1 305.3 304.5 304.8 304.6 304.4 304.6 308.9 322.5 336.5 347.1 357.9 375 391.3 408.5 434.1 457.3 487.6 496.2 501.6 507 511.4 517.5 523.9 525.1 525.1 523.8 518.8 509.4 499.3 483.1 465.8 442 421 409.2 404 401.7 392.7 401.3 411.8 416.1 417.7 415.9 411 410.9 415.9 420.3 424.2 419.2 414.3 410.1 407.7 405.9 402.6 397 394.5 392.7 385.6 375.1 376 397.6 412.1 423.5 434.1 442.4 456.1 468.3 475.6 483.6 493.1 508.1 517.4 521.5 529.6 540.6 545.6 546 552.8 557.6 560.3 561.1 561.5 560.9 560.6 562.4 565.1 565.1 566.1 567.6 570.1 571.1 573.7 571.4 570.4 571.3 571.1 570.1 566.7 564 563.3 565.3 565.6 566.6 566.1 564.1 563.2 563.7 563.9 565.2 564 565.2 564.3 566 569.3 567.8 565 566.7 567.8 569.3 569.7 570 569.5 568.4 565.3 566.2 567.9 568.5 567.1 567.6 568.5 566.4 565.3 561.9 557.5 555.5
326.5 324.5 331.6 339.3 351.7 361.8 370.3 378.9 381.7 380.4 391.3 400 407.9 422.9 433.1 437.7 444.3 456.4 468.4 471.9 475.4 475.8 476.1 479.3 480.7 484.4 494.7 501.4 507.1 511.6 513.9 516.2 517.8 517.9 517.4 516.5 516.7 519.5 521.5 523.2 523.7 522 518.2 513 505.3 495.7 486.6 477.3 463.9 448.9 434.4 419.6 410.7 399.1 388.2 376.1 372.1 361.6 351 344.5 339.2 327.6 317.7 314.8 307.8 305.5 304.7 304.2 303.7 303.7 303.5 303.3 303.5 317.8 325.9 337.2 350.3 364.7 379.5 398 417.3 440.4 464.1 490.2 498.8 500.8 505.8 510.4 515.1 522.8 523.2 521.2 518.1 510.4 500 486.1 468.4 445 420.1 407.7 401.9 399.4 391.6 403.1 407.9 412.6 413.7 410.9 406 404.2 406.6 409.7 415.4 414.8 409.8 404.7 403.2 401.9 399.1 394.1 391.4 390.3 380.9 370.9 381.1 397.9 412.7 424.1 433.4 442.3 455.6 468 476.1 484.8 497.2 510.9 517.2 520.3 527 540.6 546.1 547.3 550.8 555.9 558.3 559.9 561.3 559.4 559.3 558.1 558.3 558.7 559.7 561.8 563.5 563.9 562 557.9 554.7 553.4 554.3 553.1 554.9 556.9 558.4 561.5 562.1 563.3 561 558.5 555.2 554 555.3 557.6 558.2 559.9 559 559.7 561.9 563.7 562.7 564.8 566 567.8 568.1 567.4 566.7 564.6 560.8 561.1 563.6 566.4 568.3 568.3 568.9 567.2 564.7 563.7 560.4 557
321 322.4 327.9 339.2 348.9 357.5 367.6 378.3 381.4 373.5 375.6 388.9 397.5 406.1 416.1 425.4 429.7 437 442.1 449.8 460.9 457.5 474.4 476.7 478 479.3 483.7 492.3 499 504.4 509.1 513 515.4 516.7 517.7 516.4 517 518.1 520.7 522.9 523.5 522.9 520.4 515.4 509.5 502.3 495.6 489 477.4 461.1 447 432.3 420.8 411.9 402.3 391.5 382.3 369.4 355.7 347.7 342.7 338.8 331.4 322.7 313.8 307.2 304.4 303.6 303.4 303.3 302.9 302.4 302.5 306 320.5 327.8 343.4 355 370 385 401.6 423.1 446 465.5 486.8 497.3 502.3 505.7 508.5 512.1 519 519.4 517.2 510.5 502.1 489.4 468.8 449.6 424.3 408.1 399.1 397.4 388.9 398.4 403.6 408.3 409.3 404.9 400.8 397.6 397.8 400.7 404.8 409.2 406.3 400 399.7 399.5 395.9 391.6 388 387.6 381.7 368.8 379.4 397.9 412.9 423.8 432.8 440.7 452.9 467.1 479.9 488 499.5 510.7 515 520.1 524.8 535.2 543 546 547.4 552.3 555.2 558.6 561.3 560.5 557.2 556.6 558.3 557 556.5 555.8 553.9 553.3 554.4 553.8 549.1 541.8 543.1 543.9 546 550.9 553.9 555.5 557.5 559 557.4 551.9 548.9 543.9 545.4 545.9 547.8 551.1 551.5 552.2 553.9 557 550.1 561.2 562.1 564 565.1 564.1 562.6 561 559.1 559.1 561 564.5 567.6 569.2 568.1 567.7 566.3 564.3 560 556.4
325.3 325.8 329.6 338.1 345.8 355.3 365.6 373.7 376.4 376.4 370.2 375.7 384.7 394 400.9 407.7 414.6 419 424.1 433.7 437.7 436.1 443.3 448.3 465.4 477.3 473 477.8 486.8 494.9 501.8 507 511.5 514.5 515.9 516.6 517.5 515 517.4 519.9 522.3 522.2 521.3 518.6 513.4 505.3 500 495.4 492 474.9 457.6 442.3 431.4 421.1 409.9 400.2 392.2 381.5 372.5 364.8 357.2 351.2 341.9 332.3 323.7 316.1 308.6 303.1 302.9 302.6 302 301.6 301.6 303 309 321.2 331.3 350 360 377.6 388.3 404.8 428 448.2 466.3 482.5 493 500.5 504.8 502.7 508.6 515.9 516.3 510.8 503 489.3 469.6 453 431.9 411.2 398.2 395.1 389.8 396.9 399.7 402.8 405.3 402.3 396.8 390.3 390.7 393.7 396.4 400.9 401.8 396 396.8 399.2 395.4 389.4 385 383.9 383.1 368.1 378.8 397.9 410.2 422.7 431.9 440.2 452.6 465.7 476.6 487.1 499.5 509.9 513.7 519.1 523 529 536.4 542.1 544.1 547.9 553 556.6 558.8 557.9 555.8 556.4 555.8 556.3 557.5 556.2 553.8 552.1 549 549.8 551.1 545.3 542.1 543.7 547.3 549.5 549.4 550.9 552.2 552.9 552.5 549.4 545.2 541.1 539.9 536.2 537.7 540.2 540.5 542.3 544 546.9 547.7 554.9 556.7 556.3 557 556.8 555.9 554.5 554.9 554.8 557.7 562.2 566.1 568.4 568.7 567.6 566.4 563.2 559.5 556
326.5 327.2 329.5 335.7 342.8 350.4 356.7 363.3 367.9 367.6 369 368.3 375.7 382.4 389.6 396.7 402.2 406.5 411.8 416.2 420.3 427.7 432 434.2 443.1 447.6 456.6 468.5 476.7 479.9 489.6 498.4 505.3 509.5 512.5 515.2 515.8 515.1 515.4 517.9 519.9 520.6 520.7 519.6 517.6 514.6 510 505.2 500.7 490.6 474.5 458.2 438.6 425.4 417.7 410.2 401 392.8 385.9 378.6 371.4 363.2 352.7 343.7 334.4 325.7 316.1 307.6 301.9 301.9 301.3 300.8 300.7 300.4 300.8 310 325.1 339 354.3 366.3 380.4 393.5 408 432.3 450.7 468.6 480.9 494.1 499 504.2 506.3 510 511.8 511 504.9 493.4 473 458.5 437.3 419 402.8 393.8 382 394.9 397.2 399.1 400.9 400 394.4 387.7 384.9 387 389.4 393.3 395.4 392.1 391.9 398.4 397.3 389.2 382 377.7 381.3 367.2 378.5 394.8 408.3 419.3 429 440.3 453 464.9 475.7 488.6 497.4 505.2 512.2 516.9 520.2 522.8 531.5 536.3 540.1 542.4 546.6 551.7 556.5 554 555.2 555.1 557.8 557.3 557.2 557.4 555.2 552.3 551 547.1 547.4 544 539.9 539.5 542.4 544.5 547 548 548.8 549 549 547 544.2 539.4 535.3 530.8 531.1 532.5 532.6 533.8 534.9 536.1 539.6 544.1 547.6 548.9 549.2 548.4 549.2 548.4 546.3 549.5 553 558.7 563.7 566.3 566.7 565.6 564 561.6 558.6 554.5
320.7 325.7 327.7 331.8 340.7 346.9 350.3 355.5 357.3 357.6 360.7 364.3 365.4 373.3 380.2 385.2 391.1 398 402.3 406.2 402.9 414.3 418.5 422.7 430.9 437.5 445.5 451.9 464.2 471.9 478.6 485.3 492.3 501.2 507.2 510.9 513.1 513.2 512.9 516.2 518.2 519.1 519.3 518.6 518 516.9 514.4 511.3 507.2 498.7 488.6 479.7 461.9 446.2 423.1 414.2 408.2 400.8 393.3 386.3 378.9 371.6 361.3 352.4 343.2 332.6 323.9 317.1 305 301.2 300.9 300.5 300.2 299.7 299.7 302.6 312.9 328.1 344.4 357.6 369 383.4 396.3 415 437.7 455.6 470.7 480.1 493.7 501 503.6 505.1 504.5 507.4 505.3 497.5 476 461.2 443.6 429.7 413.9 400.5 388.1 387.2 393.7 395.8 397 397.1 393.3 387.3 380.1 380.5 383.4 386.8 389.2 384.8 385 391.1 397.3 393 381.7 369.4 375.8 367.9 373.6 395.5 406.7 416.5 427.1 439.4 451 464.5 477.2 484.7 491.4 498.1 503.7 509.1 519.3 523.9 527.6 533.3 536 537.6 542.2 545.3 550.4 554.3 557.3 558 557.9 556.9 556.8 557.1 555.4 550.9 547.7 544.8 542.1 538 537.3 532.4 537.5 540.2 542.6 545.2 546.7 547 546.5 544.7 541.8 537.5 529.7 523.4 525 526.7 525.1 525.8 526.7 525.8 530 533 535.7 538.1 540.8 542.5 542.8 542.3 543 544.9 547.9 553 561 563.5 564.1 562.8 561.1 558.6 556.7 554.7
313.3 318 323.9 329.9 336.1 342 345.5 348.4 349.3 350.2 347.4 354.5 359.9 363.1 369 376.9 381.9 386.1 391.9 396.8 398.8 403.7 410.3 414 418.6 422.7 428.4 439 445.8 453.7 465.6 469.5 476.3 487.8 496.7 502.2 507.4 508 509.7 510 513.9 517 517.8 517.2 516.5 515.9 515.3 514.1 511.6 506.3 499.5 487.7 474.1 462.8 448.4 426.1 413.3 405.9 398 391.1 383.5 375.6 367.6 359.2 350.3 340.5 330.3 320.8 313.8 303.8 300.5 300.1 299.6 299.1 298.6 299.1 304.8 318.2 332.1 348.9 360 370.5 387.1 398.5 419.1 441.9 458.1 471.8 480.8 494.2 499.8 501.8 502 502.8 501.4 496.9 479.1 459.8 447.3 436.5 426.5 411.4 401 385.7 384.6 392.3 393.9 393.9 391.7 386.7 380.4 374.4 378.6 380.6 383.7 382.2 378.7 384.6 391.6 395 385.7 367.7 359.4 350 378.1 394.8 406.9 415.1 425.3 436.9 447.8 461.6 469.7 480.4 487.4 494.2 502 506.1 513.2 521 524.7 528 533 536.2 538.1 540.9 545.8 550.9 555.8 558.2 559 558.9 555.9 556 553.4 548.5 543.9 539.8 531.1 528.6 527.1 529.8 534.6 536.6 538.2 540.2 541.8 542.7 542.2 540.9 538.1 534.9 529.4 522.7 519.8 520.7 520.2 520 520.9 519.4 521.5 523.4 526 527.6 531.4 534.2 536.8 537.2 537.8 537.8 541.3 547.5 553.3 557.6 560.4 559.6 558 556.9 555 553.9
309.3 312.7 318.3 325.6 331.3 336.4 339.9 342 343.1 344.8 345.2 347.3 355.1 358.7 361.9 367.6 371.7 375.7 381 383.4 389.2 394.4 392.5 405.4 408.7 413.1 418.2 421.2 428.4 438.7 444.8 449.6 467.1 480.5 487.7 488.6 497 501.6 505.2 503.6 507.3 509.3 512.7 514.2 514.9 514.6 513 514.5 513.2 510 503.9 498.1 489.2 470.9 460.2 444.7 425.7 412.6 402.3 394.9 386.1 377.2 369.3 362.3 354.2 345.6 336.4 326 316.6 310.4 302.6 299.8 299.2 298.7 298.3 298.7 302.1 311.7 324 337.4 352.4 362.8 376.8 390.4 403.7 422.7 448.3 459.8 473.1 481.7 494.4 498.6 500.2 500.5 498.3 494 476.8 460.5 448.6 437.5 428 418.2 408.1 398.1 389.5 373.9 382.5 389.8 377.2 372 372.4 357.9 369 375.2 380 379.7 375.9 378.1 386.8 393.6 387.5 368.2 348.5 366.4 378.8 394.6 407.1 414.8 423.3 433.5 442.4 455.3 467.3 476.2 482.1 489 494.9 503.5 507.8 520.6 523 524.9 529.5 535.2 536.2 538 543.1 548.2 552.5 555 555.9 556.7 555.1 552.1 550.4 547.5 542.4 535.7 529.9 524 521.2 519.8 521.9 527 531.8 534.1 535 534.1 534.5 534 532.8 531.1 527.7 524.4 520.4 517.1 515.8 515.3 514.8 512.9 512.2 515.4 517 520 521.8 524.9 528.6 531.8 532.4 532.4 534.9 540.7 546.4 551.1 555 556 556.2 554.8 555.9 554.2
317.2 313.2 321.3 323 324.9 327.4 329.3 338.3 345.9 348.7 345.2 345.9 348 352.5 354.2 360.3 365.5 369.7 371.8 371.9 380 385.2 386.7 391 395.5 399.2 405.5 409.3 412.7 416.9 423.2 436 444.9 455 469.4 484.8 492 492.5 499.3 502.2 503.5 504.3 506 508.8 511 513 512.9 511.1 510.9 510.2 507.6 502.6 495.2 484.7 466.4 451.3 437.7 426 413.1 400.7 387.1 376 367.3 360.5 352.3 344.3 337.6 329.5 320.7 314 309.3 303.9 299 298.8 298.2 297.9 298.8 306.3 318.8 329.9 341.1 356 366.1 380.6 393.3 409.9 428.9 449.9 462.7 473.4 488.8 494.6 497.4 498.4 497.9 492.9 476.9 458.4 445.9 437.1 429.4 421.7 414.5 406.8 400 387.7 374.2 369.7 368.4 372 364.8 371.8 357 366.5 375.5 375.7 373.5 373.1 381.4 389.6 391.3 376.4 353.7 358.1 377 393.4 406.1 415.6 422.1 430 440.3 449.3 459 469.4 478.6 483 491.4 502.5 508.2 515.8 521.4 523.3 526.4 531.7 531.1 533 538.3 543.9 547.7 551.9 555.4 556.3 554.1 549.9 547.2 546.8 544.1 539.1 532.5 523.9 522.4 515.4 515.6 516.2 519.8 525 525.4 526 523.8 522.6 522.8 522.8 522.4 521.1 519.6 516.8 513.9 510.3 510.1 503.4 508.6 507.4 509.5 512.4 513.9 515.6 520.5 524.6 526.7 529 529.2 530 533.8 541.3 547.2 551.2 552.4 552.1 552.5 549.9
308.4 311.4 318.7 321.1 321.6 320.6 328.2 337.4 343 348.3 349.2 346.8 344.5 343.8 345.3 347.1 353.2 360.2 362 368.4 373.3 376.6 374.7 376.4 377.3 380.8 386.7 391.4 396.8 402.7 408.3 413.1 419.8 430.5 440.3 453.6 468.7 484.8 490.8 492.6 494.7 492.1 495.7 501.1 506.8 510.4 511.8 512.8 509.9 504.8 505.1 501.9 497.2 489.2 476.2 457.4 443.8 432.3 421.1 409 396.5 382.5 369.2 359 346.9 339 332 326 321.1 315.8 311.5 308 304.2 298.6 297.9 297.7 297.2 304.2 313.5 323.1 332.2 344.7 359.1 369.2 382 398.3 415.6 435.7 454.7 463.7 471.9 482.1 494.9 496.2 495.6 488 474.1 460.2 443.4 430.1 421.9 416.3 415 412.4 406.4 400.3 391.4 382 390.1 386.4 381.8 375.1 367.4 347.1 366.5 368.2 368.6 368.4 374.5 379.5 387 379.9 360 343.9 372.2 392.3 404.1 413.7 419 426.8 436.8 446.9 454.1 462.8 471.5 477.9 487.6 496.4 506.4 513 517.2 517.7 522.9 525.6 527.2 530.1 532.6 538.7 544 548.1 551.9 557.1 557.3 554.3 549.4 545.7 543.7 541 535.6 529.5 523.7 516.9 514.1 510.4 511 511.9 514.6 514.7 510.8 507 508.6 511.1 512.9 511.5 511.9 511.2 509 506.9 504.5 496.5 503.7 503.3 503.1 504.7 508 508.6 512.4 516.1 517.8 523.8 524.1 523.7 522.7 524.8 530.4 537.7 544 546.9 547.7 545.4
301.4 308.1 310.6 314.8 317.8 317.9 318.8 328.8 336 341.3 344.8 344.6 342.8 338.6 335.6 333.7 339.5 345.2 354 359.5 364.2 366.8 364.4 367.9 365.9 365.6 369.2 374.7 377.5 383 387.9 393.4 399.9 409.8 418.6 426.5 437.1 447.1 456.7 466.2 476.6 477.5 481.4 493.4 500.6 507 508.6 509.8 508.9 505.2 502 500.2 497.1 491.3 481.2 463.8 448.7 437 426.5 414.8 404 392.2 379.4 364.4 351.3 343.2 332.7 322.4 317.3 313.1 308.7 305.3 304.5 303.3 298.2 296.6 296.5 299 309.3 316.9 324.9 335.3 347.4 362.8 372.6 385 403.4 421.8 442.3 455.1 462.9 469.8 475.4 486.1 485.2 478.1 471.1 461.5 442.7 424.3 411.8 408.7 406.7 407 408.1 405 400.7 396.2 392.8 388.3 382.5 376.9 369.6 349.8 352.7 359 361.5 359.7 366.9 371.8 379.4 382.3 362.4 337.6 364.8 388 401.7 410.7 418.2 425 431.9 442.3 450.9 456.8 464.8 473.2 479.8 487.2 496.8 510.8 515.2 517.7 513.2 517.7 525.3 525.7 530 533.2 539 543.6 548.8 554.2 558.2 557.8 551.5 548.5 546.1 540.4 537.2 532.5 525.7 520.4 515 513 509.8 508 502.4 503 501.3 498.1 495.8 495.9 498.6 498.6 501.1 501.6 500.2 499.6 495.9 490.3 498.6 497.7 498.5 499.6 501.2 503.1 504.7 507 509.8 514.9 517.8 520.2 519.4 517.6 518 520.3 528.2 533.1 536 535.1
307.7 313.4 313.5 313.3 315.6 315.4 315.7 321.8 326.6 332.7 336.8 337.6 336.4 333 328.1 329.4 333.2 341 346.4 350.7 354 356.7 355.6 357 355.2 354.4 351.1 357.5 363.3 368.4 369.7 373.4 378.3 385.8 396.2 405.9 413.5 421.5 428.7 437.3 444.1 450.3 459.6 467 484 498.7 504.4 503.9 505.6 504.6 501.3 499.6 496.1 490.7 480.3 463.1 447.5 436.7 426.8 417.6 408.8 399.2 389.3 377.4 366.5 354.9 343.7 326.4 313.8 310.7 305.9 301.2 299.8 299.2 296.6 295.6 302.2 302.4 306.1 311.9 316.7 324.1 336.5 351.4 364.6 374.5 388.8 408.8 426.8 445.7 451.4 456.9 465.2 470 472.3 471.7 467.5 457.1 443.7 426.7 410.5 401.7 398.1 396.9 400.6 402.9 402.8 400.1 395.9 390.2 384.2 378.3 372.2 361.2 344.8 342.7 353.4 354.4 358.1 362.8 370.3 375.1 363.7 336.5 348.5 377.9 396 408 416.3 421.3 428.5 435.9 443 452.3 460.2 467.1 474.1 480.2 488.6 498 502.7 506.4 506.8 516.2 521.1 524.2 527.2 531.1 535.6 540.2 545.4 550 554.3 558.4 554.8 549.1 546 543.8 539.5 533.3 528.7 523.1 518 515.6 514.8 511.9 509.8 505.1 500.1 496.6 493.4 489.8 485.9 488.1 490.9 491.7 491.4 489.6 490.3 488 493 493.1 492.6 493.7 495.2 496.8 498.7 500.4 501.6 505.8 507.4 513.4 514.3 514.2 514.1 514 515.6 519.8 523.9 526.9
303.3 311.1 317.1 319 316.9 313.9 313.2 315.5 319.4 321.8 326.7 330.3 330.5 327.1 322.8 323.9 327.1 331.6 337.5 340.6 343.4 346.1 344.8 346.9 345.1 344.4 339.1 342.2 347.9 352.6 357.9 359.6 360.5 366.4 375.3 384.1 390.3 396.8 404.3 410.6 417.8 422 431.9 444.8 461 470.2 478.1 491.5 501.9 500.8 498.6 494.9 492.1 488.1 477 454.6 445.7 436.1 425.3 414.3 405.9 397.1 389.9 382.3 374.2 364.7 355.5 341.4 326.3 312.2 305.2 301.2 296.7 295.5 293.4 300.4 303.9 305.6 305.6 307 308 313.5 324.8 339.4 356.1 368.1 378.6 393.1 413.6 428.9 447.3 450.1 453.3 459.3 465.7 465.2 462.7 455.2 442.2 428.1 414.7 401 396.7 394.7 394 395.8 399 399.2 396.5 391.8 384.8 378.6 371.3 363.8 356.7 343.2 340.1 341.4 345.9 350.1 358.3 361.5 363.2 350 335.1 366 386.1 396.9 411 418.6 422.5 429.1 436.6 444.1 456.3 464.7 469.9 475.3 480.7 488.7 494.3 503.6 507.4 514.5 523.3 525.1 528.3 530.3 533 537.8 541.8 547.4 554.1 558 555.9 550.4 546.8 544.5 542.5 537.6 532 525.6 523.9 522 519.6 517.3 517.6 514.3 507.1 499.5 496.3 494.4 491.4 487.7 482.6 487.1 485.5 483.3 483.4 478.6 486 487 487.2 488.7 491.1 492 492.1 491.2 494.8 496.7 499.9 503.6 507.4 509.2 510.3 510.6 511.8 513.8 516.4 519.2
301.4 304.7 312.2 316.1 317 315.5 312.6 310.3 312.2 313.2 314.9 317.9 319.1 322.6 320.6 315.8 321.1 324.4 328 330.2 332.7 333.7 335.5 336 334.2 334.7 330.4 335.1 339.1 340.5 343.5 346.2 348.3 352.4 355.5 360.5 371.9 380.7 384.4 387.5 393.6 398.5 405.5 415.2 426.6 438.1 452.3 464.6 469.2 475.6 479.4 480.4 476.2 470.8 462.7 440.2 434 430 423.6 414.8 403.2 393.7 382 378.2 374.8 370.5 364.4 353.6 342 328 313.2 299.1 294.4 293.5 296.1 297.8 298.6 302.3 306.2 306 305.3 304.8 312.5 331.9 341.5 356 369.8 381.2 398.3 416.7 433.9 449.9 451.6 453.7 459.9 462.8 462.6 456 443.7 432.3 418.3 405.1 396.9 394.1 392.5 392.8 392.9 393.7 393.1 390.5 385.1 378 370.9 362.2 356.5 350.7 334.2 336.8 335.8 336.8 344.7 351 355.2 358.7 343.2 352.3 375.9 389.2 402.6 413.2 418.9 424.4 430.2 439.3 448.8 459.9 466.5 470.4 476.5 483.9 492.5 506.1 516.6 518.7 524.3 524.8 525.6 528.7 531.2 534.8 537.8 542 548.6 554 555.8 552.6 547.8 544.2 542.3 538.7 534.4 529.4 526.2 524.6 522.4 521.6 519.9 517.8 513.3 507.6 499.4 495.1 492.2 488.3 481.1 483.5 483.1 479 477.2 479.5 481.2 482.1 479.7 482.1 485.1 485.6 485.2 485.8 488.3 490.2 490.5 492.1 496.3 500.4 503.4 505.9 507.5 509.1 511.6 513.5
300.5 301 305 307.5 308.5 309.4 308.6 307.2 303 304.2 303.9 304.7 305.6 306.5 308.5 308.6 310.7 314.4 318.5 319.6 323.3 322.4 326.3 327.6 324.8 324.1 319.7 325.7 329.7 331.2 334.3 336.4 339.4 341.4 342.2 345.6 350 358.4 365.7 371.5 373.7 377.6 381.7 389.2 397.2 406.2 415.1 428.8 438.5 446.3 449.9 449.8 449.9 447.8 439.2 427.7 422.8 419.8 416.2 410.5 403 391.8 378.2 372.1 367.4 363.7 361.5 358.5 351.7 340.9 330.4 318.8 300.9 292.1 293 295.5 295.7 296.3 300.6 304.5 303.7 302.7 304.1 318.7 335 344.8 357 369.1 382.8 399.9 419.1 435.5 449.2 452.2 453.9 459.7 462.7 461.9 450.8 438.9 424.2 411.4 401 395.1 392.3 391.3 391.6 390.5 389.7 386.8 383.1 377.3 369.7 361.8 354.3 347.9 338.9 333.4 332.6 331.4 333.1 342.1 347 350.7 340.9 351.5 369.5 381.7 392.8 402.3 413 419 424.6 433 442.3 451.1 459.3 467.9 472.8 479.8 490.5 502.5 516.9 518.3 524.1 525 525.9 525.4 526.7 529.4 533.1 537.1 540.7 546.9 550.2 551 548.3 543.2 538.6 534.9 534.3 530.3 527.5 525.5 521.9 522.2 519.1 516.3 514 507.9 503.5 499 495.5 488.9 486.2 482 473.7 473.3 471.2 472.1 473.2 478 472.8 475.3 477.3 478.1 479.2 479.9 480.4 482.2 484.3 485.2 486.6 489.5 492.7 497.6 501.3 502.1 504.5 506.9
299.8 300.1 302.9 303.2 303 302.8 302.6 300.3 297.1 295.2 294.9 298.9 299.1 299.3 300.7 302.4 302.5 304.2 308.8 311.1 313.3 313.4 314.9 316.2 314.8 313.5 307.3 309.6 317.2 320.6 323.5 325.9 328.3 330.5 332.4 332.2 334.9 339.4 343.9 353.1 357.9 360.2 363 366.8 371.8 377.8 388 399.2 407.7 416.1 421 425.4 424.2 418.9 419.9 415.1 413.2 409.4 406 400.7 396.8 390.5 380.4 370.8 363 353.9 350.6 350.5 350 347.5 339.6 330.9 319.5 309.9 300.6 292.5 291.4 290.7 293.7 297.2 300.6 300.9 302.9 307.8 323.8 337.7 346.5 357.9 369.7 383.2 400.9 418.6 432.6 440.7 444.4 445.8 450.9 456.8 455.3 448.2 432.8 419.5 407.7 399.3 393.3 391.2 390.7 389.7 387.5 384.8 381 376.4 369.8 361.5 354.5 345.7 336 329.5 330.7 329 328.6 332.3 336.8 335.1 331.5 340.7 359.1 373.2 384.2 394.1 403.3 412.5 414.2 426.8 435.4 441.3 453.1 462.9 472 478.8 485.9 496 508.7 514.4 524.2 524.5 525.4 525.3 527.3 528.7 530.6 534.6 537.1 542.6 544.9 546.2 546.4 544.8 540.4 534.1 525.8 527.2 526.8 526.9 526.6 522.9 520.9 519.5 515.9 511.8 508.1 503.4 500.4 495.2 491 487.6 483 475.8 469.2 465 465.4 467.6 468.6 470.4 470.8 471.2 470.4 473.6 472.4 474 477.3 478.2 479.5 483 484.1 487.3 491.6 495.2 496.6 499.8
298.3 299.1 301.9 305.8 304.6 301.9 299.6 298.3 296.8 295.9 296.2 296.2 295.7 295.2 294.5 297.1 297.1 296.4 296.7 302.5 305 306.2 303.7 305.8 305.6 304.3 301.3 301.9 308.8 311.4 313.3 315 316.5 318.5 319.6 320 321.5 325.3 329.8 334.2 337.7 346.2 347.3 349.9 354.9 359.7 365.8 369.7 381.3 390.9 397 400.3 401.4 405.2 402.5 402.8 400.2 398.8 395.8 390.8 386.4 383.2 379.3 371.9 361.9 351.7 345.2 338.7 338.9 339.6 339.6 337 330.8 321.5 313.4 305.3 296.1 290.9 290.3 290.4 292.5 296.5 302.3 307.2 317.2 330 339.8 348.4 359.4 370.2 381.3 399 416.2 430.1 437.4 440.5 441 441.8 444.7 445.7 439.9 428.7 415.3 404 396.6 391.8 388 388.6 386.8 384.2 380.7 376.4 370 362.6 354.2 345.6 337.5 330 326.3 326.8 325.5 325.8 328 326.9 326.4 332.9 344.6 364.2 378.2 386.3 393.8 408 415.5 423.1 430.3 437.2 444.1 454.3 469.3 478.5 482.4 491.7 496.4 505.5 518.7 523.8 524.3 525.6 526.5 526.7 529.9 532.5 535.1 538.1 540.4 541.4 541.1 541.6 540.6 537.7 533.5 527.4 525.3 528.4 529.5 529.4 527 523.7 518.9 514.5 509.3 504.6 502.9 499.4 494.6 491.2 487.9 482.2 473.8 469.1 463 462.1 462.4 463.1 463.9 464.4 465 466.5 466.5 467.2 468 469.4 472.9 474.7 476.4 478.1 479.9 482 482.8 483.8
303.7 300.6 298.2 300 300.6 300.7 299.8 298.4 296.8 297 297.1 295.2 293.7 299.5 301.3 299.7 294 291.7 291.9 292.1 294.6 300 297.2 297.2 297.2 296.6 297 295.1 292.2 299.4 298.4 296.5 305.8 307 308.1 308 309.7 312.6 317.9 321.5 324.4 330.8 336.1 340.5 343.8 349 354.2 350.6 358.2 366.1 375.5 382.1 385.6 385.6 385.4 386 389.8 388 386.9 383.4 380.2 376.4 372.2 368 361.9 353.3 345.2 338.2 331.6 330.4 330.4 330.7 330.7 328 321.9 314.9 307.3 300 291 288.7 289.6 292.7 297.5 305.4 313.6 322.6 332.8 339.2 346.7 358.1 370.7 382.9 396.1 412 424.7 434 437 437.4 436.5 437.2 437 433 423.1 410.7 400.7 394.1 389.5 385.6 385 383.3 381.1 377.6 373 366.2 357.7 348.3 339.7 331.6 326.9 322.9 324 322.7 322.4 322.7 326.1 331 339.6 347.5 366.5 378.4 387.9 393.4 400.3 413.4 424.3 431.9 438.9 446.1 457.3 473.4 480 487.1 493.7 497.1 502.3 510.5 519.9 523.7 525.8 527.2 528.1 530.3 532.7 534.6 535.8 536.5 535.4 534.9 535.2 533.1 533.4 532.8 533.1 532.6 532.6 530.8 528.7 526.2 522.2 517.6 513.2 505 503.1 499.9 495.8 491.8 487.8 486.2 482.9 475.4 469.3 463.3 458.1 457.8 456.6 455.5 458.5 459.9 461.3 459.9 462.1 462 463.7 463.3 466 466.5 470.5 472.9 473.2 474.1
312 305.7 302 298.4 298.1 298.4 297.2 297.1 296.4 300.4 299.2 297.5 300.2 302.2 303.4 304.7 303.9 300.3 295.7 294.2 293 292 292.6 291.9 292.2 293 293.6 293 302.5 301.1 298.4 296.6 289.4 288.4 294.5 298.1 299.7 299.9 305.6 311.1 316.9 322.2 326 330.5 333.4 339 345.3 343.8 345.7 347.8 350.4 358.6 368.1 371.6 372.2 372.8 374.4 375.4 375.8 376.2 373.4 369.4 365.1 360.5 356.1 349.6 343.4 336.3 330.3 326.1 323.8 322.4 322.2 323.1 323.1 320.3 314.6 309.2 303.8 300.7 296.5 290.9 286.7 296.8 308.7 315.6 319.8 328 335.5 342.2 355.1 369.8 381 393.4 405.5 417.9 429 433.3 433.7 432.2 431.2 427.4 423.8 416.2 406.2 398.1 391 386.6 384.2 379.7 380.4 378 375.5 369.9 363.3 354.1 344.2 334.3 327.2 323.6 320.7 321 320.5 322.3 323.6 324.6 334.1 339.8 348.4 366.3 377.6 384.5 391 398.8 412.8 423.9 431.3 438.3 447.5 458.4 475.5 478.6 486.3 494.4 495.7 500.1 511.1 523.5 525 527.5 528.2 528.5 530 529 532 531.8 531.5 531.6 532.7 534 533 533.2 532.8 533.8 533.9 532.2 529.3 526.2 522.7 519.4 515.4 510.3 506.7 502.8 499.3 493.9 492.3 490.9 488.3 483.6 477.5 470.4 464.6 459.1 453.6 452.5 450 451.6 454 454.8 455.7 455.7 455.3 455.2 456.2 458.7 460.4 460.7 462 463.6
322.8 317.8 312.1 305.2 302.5 303 303.5 302.1 301.2 301.6 301.2 300.3 301.9 302.6 304 305.7 307.2 306.5 302.3 296.8 293.8 292.6 291.3 292.1 293.3 291.2 290.6 295.9 305.3 310.7 313.9 310.8 306.3 296.6 285.1 286.5 288.8 294.3 300.1 301.7 309.4 309.9 317.2 320.8 322.3 328.7 333.9 334.1 334.6 337.6 339.1 340.8 347.7 354.4 359.3 362.2 360.4 361.5 364.6 367.2 366.2 361.5 358.1 351.5 347.6 343.3 339.1 333.2 326.7 322.8 318.6 317 315.1 314.2 315.5 317.3 316.5 314.4 311.7 310.1 309.8 306.8 300.1 288.8 297.5 304 308.4 313.4 325.4 334 341.1 352 367 377.2 387.4 397.7 409 418.9 424.2 426.3 426.1 422.4 418.1 413.6 406.4 399.6 393.4 388 384.6 381.5 378.3 376.4 374.8 371.9 367.7 360.9 350.9 340.8 330 322.9 321.3 318 317.8 320.1 320.6 321.5 331 336.1 339.5 348 362.1 373.1 379.8 389.9 401.8 412.3 423.5 430.5 437.7 447.4 461.2 476.2 478.4 483.5 489.8 494.9 499.5 511.6 522.9 528.9 529.9 529.7 529 529.9 528.2 527.8 525.1 530.4 530.8 530.4 531.1 531.6 533.4 534.4 532 527.6 526.6 525 522.9 519.2 520.4 514.7 512.9 507.2 504 493.6 493.9 492.3 491.6 490.5 487 480.7 473.1 466.5 460.9 455.3 451.8 447.8 448.1 447.3 443.1 445.4 445.6 446 447.9 448.2 449.5 451 452.1 452.8
326.4 324.4 320.2 315.5 313.4 309.4 307.5 307.9 308.5 308.6 307.3 302.9 304.1 306.5 306.6 308.3 309.9 309.3 305.6 302.5 297.3 295.4 295 296 297.3 298.5 297.8 296.6 298.4 304.5 309.8 315.1 316.4 312.5 301.9 287.7 284.5 283.6 296 296.3 298.8 301 304.5 309 312.1 317.4 321.5 322.5 324.9 326.8 329.3 329.5 331.7 337.9 343.3 349.6 352.1 350 353.2 352.3 356.2 355.9 351.2 343.7 337.6 336.3 332.3 327.1 321.9 317.3 313.5 312.6 310.5 307.8 306.9 308.6 310.4 311.7 311.7 310.7 311.1 313.3 312 304.1 287.7 287.8 292.7 304.5 312.2 323.7 331.5 339.4 350 363.5 371.6 380.4 389.6 398.8 407.1 414.4 418.3 417.7 415.8 412 406 399.6 393.8 388.8 384.4 380.3 377.4 374.9 372.9 370.6 368 363.8 356.7 347.1 336.9 326.5 320.3 318.4 315 318.7 318.4 319 324.6 331.6 334.5 340.1 347.6 354.6 369 378.6 385.1 394.1 410.6 423.6 429.7 435.4 445.8 461.7 476.8 479.1 483.1 488.3 496.1 502.7 518.1 530.6 530.3 529.7 530.8 528 526.5 528.4 527.7 527.8 528.4 529.2 530.9 531.4 531.8 532.4 531.8 531 530.2 527.4 526.2 524.3 523.7 520.9 516.9 510.3 502.6 494 491.3 490.6 490.8 491 489.7 486 482.9 476.4 471.4 463.7 460.1 456.8 455.1 453.4 452.1 450 447.1 445.1 440.5 435.9 433 437.7 442.3 445.2
321.8 322.5 327 325.7 323.2 316.8 312 310.7 312.9 313.4 311.1 308.4 308.9 309.5 314.4 316.1 315.4 312.9 310.7 309.1 303.9 299.2 296.9 297.1 298 298.8 299.2 299.8 299.8 301 303.2 308.9 313.5 313.4 306.6 293.6 286.9 284.9 282.2 284.7 287.4 287.7 294.1 298.6 301.1 303.8 308.8 312.2 314.4 316.2 317.9 318.9 323.8 326.6 330.3 334.9 340.9 338.8 343.4 343.2 342.7 343.8 347.1 343.9 336.6 330 325.6 321.2 315.2 311.4 310.2 308.9 307.1 305.6 304.5 303.6 302.9 303.2 305.9 307.8 307.3 306.5 308.8 310 307.5 299.6 287 287.9 303.6 310.7 321.2 329.3 335.9 344.7 356.5 367.5 374.4 380.4 389 396.7 403.4 407.3 409.9 408.2 404.8 399 392.8 386.4 381.4 376.1 374.1 371.8 369.7 367.8 366 363 357.7 351.2 341.8 332.9 324.6 318.6 315.9 314.5 316.9 316.8 319 326.4 330.5 335.7 341.7 347.6 358.1 366.7 373.8 381.5 391.1 409.8 424.4 430.1 435.8 447.4 461.5 478.6 481.2 486.7 494.2 500.1 507.5 524 530.4 529.8 530 530.6 529.1 528.6 528.4 528.8 529.3 529.6 529.2 529.9 529.8 529.8 529.4 529.1 528.5 527.3 522.8 522.5 522.1 519.5 511 505.1 500.4 495.1 488.9 486.4 485.8 484.9 485.7 484.1 483.1 478 475.2 466.6 463.9 460.4 458.8 456.6 455.5 453.4 453.8 453.6 450.2 447.5 444.8 441.5 435.8 432.3
332.9 336.7 338.9 339.5 338.3 334.2 329.8 325 324.1 319.9 315.2 314.8 316.2 315.2 316.2 317.6 318.2 315.4 317.6 317.7 314.9 309.5 303.3 299 299.2 300.1 303 304.1 303.4 302.6 302.9 304.1 307.8 309 306.6 301.5 293.3 285.4 283.4 280.1 282.3 282.5 282.2 291.2 291.9 292.1 296.8 300.2 302.6 303.8 307.6 308.7 314.2 318.1 320.7 324.3 327.8 328.7 331.6 335.7 334.1 334.5 337.5 339.9 336.7 329.3 322.6 314.7 311.9 309.9 308.4 307.1 305.5 304.1 303.2 302.5 301.6 299.5 297 299.5 301 300.7 299.4 302.4 304.8 305 304.2 287.1 282.2 297.8 310.4 317.2 325.4 331.7 338.4 346.7 358.7 366.8 372.1 378.4 385.5 391.7 396 398.1 398.7 397.2 392.3 386.3 378.1 370.8 366.9 366 364.9 363.5 362 359.2 356 351.2 344.8 336 328.2 321.7 315.7 314.1 313.3 313.4 315.8 321.4 325.2 332.4 339.4 341.7 347.4 356 361.4 371.4 378.9 391.1 410.1 427.1 429.8 436.5 448.2 466.5 482.3 486.8 495 501.2 511.1 518.4 531.1 530.8 530.6 529.8 530 529.5 529.5 529.4 529.7 530 530.5 531.2 531.2 531.1 530.6 530.3 529.9 528.1 522.4 512.9 513.8 506.6 498.7 495.7 492.1 488.2 486.5 486.7 486.5 485.1 483.2 483.6 482.4 478.7 477.4 468.5 464.1 459.8 457.5 454.8 453.5 452.4 455.1 453.6 451.8 451 449.3 446.5 442.4 437.1
342.8 347.3 349.9 349.6 349.4 348 345.1 339.9 335.1 329.8 328.1 326.1 325.2 323.7 323.9 323.4 321.5 319.6 322.7 324.5 323.2 320 315.2 306.4 301.2 307.5 312.2 313.9 313.4 311.9 309.1 309.3 309.1 307.3 302.9 297.4 293.5 291.6 289.3 282.5 280.9 280.3 279.8 279.1 282 282.9 285.6 287.4 290.3 293.2 297.3 300.1 302.8 308.6 310.1 313.7 318.6 320.2 320.5 321.9 324.2 327.3 329.1 332 334.5 329.5 322.3 313.9 306.7 309.8 310.2 309.2 307.4 305 302.9 302.5 302.4 300.5 295.9 291.5 290.6 291.9 292.9 295.7 297.8 297.9 300.4 299.8 288.4 275.2 297 308.1 314.2 321 327.9 332.8 340.6 350.9 360.6 366.6 372 377.6 383.1 386.1 387.7 388.4 388.5 385.5 378 368.5 362 358.2 358.5 357.2 355.9 353.1 351.2 347.8 343.1 338.2 332 324.9 318.1 313.4 312.1 310.8 312 316.7 322.1 325.2 332.2 334.9 340.5 346.7 354 358.4 370.5 378.4 389.6 404.3 421.3 431 439.9 455.4 479 486.2 490.6 502.2 514 520.4 528.9 532.3 532.2 531.2 530 530.5 529.5 530.4 531.1 531.4 530.9 532.2 532.5 532.3 531.9 531.4 531 529.6 520.5 512.8 501.9 494.7 491.8 489 485.4 483.7 483.4 485 486.1 485.4 483.1 482.4 481.2 480.8 480.1 473.9 463 460.4 456 450.7 449 448.1 448.8 449.7 449.6 449.4 448.3 446.7 443.1 438.3
350.3 352.9 356.3 357.2 357 356.6 354.6 351.2 347.3 343.5 337.3 336.3 334.2 335.7 332.1 327.9 323.4 319.8 322.9 324.9 326.5 326.3 323.2 320.5 314.3 310.4 313.6 316.7 318.4 318.8 316.3 314.4 311.2 307 302.3 294.5 289.3 287 285.9 287.8 281 279.9 279.2 278 277.3 277 277.1 277.6 280.9 281.1 289 291.9 293.7 297.3 299.1 303.4 305.4 304.4 309.9 311.1 315.9 319.6 321 324.4 326.7 326.4 321 311.5 302.9 303.5 307.5 310.8 311.4 310.3 307.3 303 299.9 297.9 294.8 291.3 288.1 286.5 288.2 290.7 292.1 294.8 294 294.5 295.4 282.6 281.9 298.8 303.9 310.6 316.8 322.5 328.2 334.2 341.7 351.6 360.6 366.8 372 376.2 380 379.2 378.6 381.1 379.5 370.3 361.7 355.1 351.4 350.1 344.3 345.2 343.6 342.8 341 337.4 333.4 327.5 320.5 313.8 311.5 309.7 308.7 309.6 315.9 319.6 324.2 327.6 331.4 339.9 344.5 350.7 356.4 368.1 379 389.9 408.5 424.4 433.7 447.4 465.7 482.9 488.1 495.8 506.4 519.2 525.1 529.1 533.1 531.3 532.4 531.6 530.5 531 531.9 532.7 532.7 533.2 533.4 533.4 533 532.5 531.8 530.3 518.1 511.3 502.1 494.5 492.3 491 486.9 483.9 480.6 483.3 483.8 483.1 484.2 483.7 483.5 483.3 482.1 476.4 464.9 458 452 444.1 440.8 440.4 440.4 442.9 444.1 444.6 444.5 443.6 441.6 438.4
359.7 362 362.6 361.8 359.4 357.8 355.4 352.1 349.6 346.3 343.9 344 342.6 343.9 344.3 342.2 339.8 334 330.3 327.3 326.6 317.3 317.9 322.7 324.7 319.4 316.1 313.6 311.7 311.4 311.4 309.7 308.1 304.5 298.9 292.1 288.7 287.4 292 295.2 293 285 276.3 276 277.2 276 275.7 275.2 273.7 273.1 276.3 282 284.4 284.6 289.3 290.3 293.4 293.6 299.2 300.8 304 307.6 312 315.1 315.5 317.4 316.6 312.8 304.2 295.3 297.2 302 304.9 309.8 310.9 309.6 306.1 300.9 292.9 286.7 285.7 284.9 285.1 286.7 287.1 291.9 293 291.4 288.6 279.9 277.8 292.5 294.8 300.5 306.8 312.9 318.7 323.8 329.1 334.1 342.6 353.5 362 367.1 369.3 370.1 370.5 373.1 376.2 372.2 365.4 357.3 350.6 343.9 340.5 338.2 336.9 336 335.8 334.9 331.8 328.4 323 318.4 317.1 316.8 312.6 306.8 307.7 308.3 316.2 319.3 324.5 328.7 338.8 344 351.4 355 364.5 380.5 392.2 405.9 424.9 440.8 454.4 478 485 489.5 491.8 497.9 504.5 516.7 527.9 529.7 532.2 533.4 532.7 532.8 533.1 533.5 534.3 534.1 534.1 534.1 533.8 533.2 532.2 528.6 515.9 507.3 499.8 496.5 496.5 494.2 488.9 482.1 480.3 483 483.8 486 484.9 483.5 485.2 484.2 484.1 479.1 468.4 457.8 448.5 440.8 439.1 438.3 437.9 438.1 440 441.2 441.8 441.2 439.1 436.9
369.7 371.6 371.8 370.2 367.6 363.9 359.1 352.6 346.8 347.3 349.4 349 348.5 349.6 351.9 351 349.8 347.8 345.5 341.8 338.1 335.8 331.8 326.8 320.6 316.8 313.4 311.2 310 310 308.9 306.9 304.7 298.8 298.3 294.9 292.5 290.9 291.2 292.7 292.1 289.3 286.1 283.5 278.2 272.3 273.8 274.4 273 272.4 272.1 271.2 267.7 267.5 273.9 280.1 282.4 285 288 291.8 292.4 297.2 301.8 306.4 304.9 305.3 307.9 308.7 306 299.6 289.4 288.2 293.9 300.7 305.5 306.1 306.3 303.8 298.7 289.3 281.4 280.1 284.7 286.2 284 287.7 291.4 291.2 290.9 276.7 274 283.5 286.6 291.2 298.7 303.6 309.2 314.4 319.2 322.3 327.8 334.4 341.5 351.9 359 360.6 362.4 366 367.7 368.3 364.8 360.7 355.9 349.7 343.3 335.8 326.8 327.6 328.3 327.8 325.7 323.9 323.1 320.9 317.4 315.1 314.2 309.4 307.1 306 304.4 309.9 316.1 320.6 325.9 337.7 343.1 347.5 352.8 363.4 378.7 392.9 408.1 428.5 444.2 460.6 482.9 487.8 490.1 491.6 494.6 500.2 511 524.4 531.4 532.8 533.4 534.5 534.4 534.7 535.4 534.3 534.6 534.8 534.4 532.7 531.1 515.9 505.8 501.7 498.1 498.1 497.9 496.1 496.4 490.7 484.5 483.6 485.2 487.5 486.5 487.7 485.8 484.5 484.2 479.3 470.8 458.6 448 440 438.1 437.1 436.2 436.2 436.1 437.6 438.3 438 436.4 435
371.2 369.6 367.8 365.9 364.6 362.8 359.4 355 353.7 355.1 356.3 356.4 355.5 354.6 357.9 358.3 357.5 356.4 354.7 352.3 351.3 348.6 346.4 341.3 333.6 329.6 323.7 316.9 311.3 311.8 311.7 311.1 310.6 307.6 304.3 305.1 306.9 304 297.2 295.4 295.1 293.2 290.2 287.8 288.1 284.6 277.5 275 274.1 269.4 272.9 276.3 275.8 273.5 270 268.8 267.1 272.8 273.5 278.9 282.8 282.2 289.7 295.9 299 296.5 295.9 296.8 297.3 296.2 292 289.2 283.7 286.4 292.5 294.2 296.6 299.3 298.9 295.8 289 279.5 279.5 280.9 278.2 280 287.2 290.3 290.7 273.8 271 270.3 275.3 280.8 283.6 293.1 299.8 304.3 309.2 314.7 319.4 324.7 329.5 335 340.2 347.2 351.7 356.4 357.6 360.1 359.2 355.8 351 344.9 341.2 335.2 326.7 317.9 320 319.8 316.9 314.9 318.1 321.2 319.3 315.1 312.5 309.8 307.2 306 301.4 305.3 307.4 312.5 316.9 324.2 336.1 345.6 348.8 353.1 362.7 376.5 390.7 408.8 429.3 446.9 466.4 487.4 488.1 491.4 493.4 495.6 503.1 512.6 524.6 527.8 530.6 532.7 532.6 532.3 534.7 534.6 533.8 533.5 532.3 525.8 508.4 499 497.7 496.8 496.7 499.1 499.5 499 502.3 503.5 496.4 487.1 486.7 487.8 488.4 488.8 486.7 485.6 484.4 479.6 471.1 459.2 448.1 441.2 438 436.8 436 435.1 434.1 433.6 434 434.4 434.2 433
369.9 367.9 366 364.8 364.1 362.3 361 364.5 368.2 368.5 370.8 371.5 369.4 365.8 363.7 363.5 364.5 363.8 362.4 362 360.6 358.6 356.8 353.2 349.9 346.5 338.9 333.2 328.2 322.9 317.6 319.3 319.1 321.5 322.1 317.8 314.9 314.6 313.2 308.3 302.2 296.8 296.6 300.2 299.2 298.6 297.3 293 289 287.2 291 290.1 287.3 288.9 286.9 283.1 277.1 266.5 264.1 267.8 267 267.1 270.7 285.4 291.2 294.4 295.1 292.5 288.3 286 286.5 289.6 289.3 280.5 279.3 281 283.1 286.4 288.9 293.7 292.8 287.7 279.1 272.7 271.5 271.5 279.6 285.2 287.9 284.8 268.7 267.5 263.8 263.5 269.7 278.7 287.2 295 301.5 306.2 312 317.5 321.5 325.8 330.5 335.5 340.5 343.8 348.9 349.7 352.4 351.5 349.9 345.1 338.9 331 323 316.6 312.5 311.7 310.4 310.4 309.6 313.4 316 316.8 314.9 311.4 306.3 305.8 301.2 302.2 303.8 307.9 313.6 317.1 321 332.6 343.3 348.9 353.9 361.8 377.1 389.2 407.3 428.9 447 466 474.2 478.7 489.6 493 496.4 497 499.4 502.7 505.7 513 517 516.2 528.9 530.3 531 509.7 502.4 494.8 489.5 487 489.1 491.7 494.6 495.9 497.6 497.3 501.5 504.3 494.9 487.1 486.6 487.6 488.1 487.8 485.9 484.6 484.7 480.4 472.7 461.5 452.7 448.4 439.6 437.3 436.3 435.9 435 433.4 432.2 432.6 432.5 431.1
369.7 370.3 368.8 369.1 370.6 371.8 373.9 375.7 380.9 383.2 384 383.5 382.5 379.8 370.4 376.2 373.8 372.6 372.5 373.2 372.1 368 365.8 364 361.4 356.9 352 346.6 342.9 338.3 328.4 330.6 330.3 331.6 333 331.5 329.6 327.3 324.5 317.4 310.7 306.9 311.1 311.1 311.3 311.9 309 308.3 308.1 306.7 304.9 301.5 296.2 291.1 287.2 286.4 284.8 277.6 269.6 265.7 265 265.3 264.5 266.6 279.2 285 288.4 289.6 288.2 284.1 280 280.3 282.8 282.8 281.2 275 269.6 274.7 278.4 281.5 285.4 286.5 283.7 278.4 270.7 265.5 271.8 277.5 280.5 281.8 281.3 279.5 280.8 265.4 264.1 265.3 275.4 281.9 289.2 297.3 304.2 309.5 313.1 317.5 321.8 326.1 325.9 328.7 333.8 339.1 340.1 341.3 342.7 341.4 338.3 333 324.6 315.9 311.8 306.1 304 303.6 304.1 306.2 310.3 314.2 321.6 318.2 309.4 305 301.4 300.5 299.1 306.2 309.9 313.1 317.3 319.8 328.8 340.3 348 353 360.7 373.6 383.8 402.5 425.6 442.6 454.8 460.6 464.2 466.4 471.7 477.6 484.5 489.8 492.2 495.1 495.8 497.9 502.8 499.9 490.2 481.8 477.7 473.2 472.4 476.4 486.2 488.7 488.6 488.6 489.3 488.1 487.9 487.3 483.5 480.3 480.6 484.9 488.2 487.8 487.3 486 484.1 481.9 472.5 462.9 455.7 453.6 447.9 440.7 437.3 435.5 434 433.1 432.7 431.9 430.1 428.5
373.7 377.1 379.7 380.3 381.1 381 385.2 386.2 387.1 388.4 390 390.6 389.9 388.8 387.2 386.1 384.1 381.5 380.3 380.6 380.1 377.7 374.8 371.9 368.3 363.4 357.2 350.4 346.9 341.1 342.1 339.9 340.4 342.4 344.5 345 343.7 340.6 335 326.6 319.1 317.3 318.6 317.4 315.1 313 314.9 317.4 316.7 313 308.2 302.3 294.5 289.6 284.7 280 273.7 272.7 270.3 269.2 267 263.4 263.5 263.3 262.6 266.9 275.3 279.4 280.8 280.9 280.1 277 273.2 273.5 277.2 276.6 272.2 265.4 266.8 268.7 272.4 275.5 276.2 274.7 274.4 269 264.2 268.4 271.6 272.7 270.5 270.2 274.8 273.8 260.7 260.5 262.2 275.5 283.3 288.7 292.8 299.9 304.6 309.8 313.8 316.4 315.6 317.7 318.2 322.4 325.7 327.9 329.5 331.3 331.6 331.7 328.2 320.4 309.3 302 299 297.1 296.6 298.3 303.1 308.7 315 319.3 312.5 304.2 303.7 300.7 298.5 299.7 306 311 314.8 314.7 319.1 326.8 338.8 347.3 353.2 358.2 369.4 383.9 397.4 417 433.3 444.1 451.4 455.7 457.7 459.7 464.9 470.4 472.9 474.9 475.4 473.7 469.9 466.1 461.9 461.7 460.7 460.5 462.3 464.5 469.1 472.2 471.9 471.6 470.4 470.6 468.1 467.4 467.5 468.9 472.9 480.6 488.9 488.6 487.7 486.9 483.7 477.4 467.6 460.9 455.7 452.6 447.7 442.7 438.5 435.7 434.2 432.5 431.3 429.6 428.1 425.6
375.8 379.5 384.3 386.8 389.6 391.1 394.4 396 395.4 395.4 394.3 394.7 394.2 392.5 390.2 392.1 391.2 389.9 388.9 387.4 386.7 383.9 378.3 373.3 367.6 362.2 358.5 357.6 356.3 354.3 352.9 350.2 348.7 349.9 352.1 351.6 349.6 345.7 340.6 333.7 327.9 324.1 321.7 319.4 316.3 310.2 310.9 314.1 314.1 312.5 308.2 301.7 292.7 280.8 276.9 274.3 272.6 269.8 269.6 267.5 267.6 266 264 261.2 262.1 261.6 260.7 260.6 266.9 266.6 265.8 272.9 272.8 270 269.5 269.5 267.7 265 261.7 257.7 255.8 260.9 262.1 260 268 270.4 268.5 262.8 259.6 260.6 259.5 261 265.6 269.9 270.7 268.2 257.3 268.2 279.5 287.5 291.7 292.2 297 304 305.8 308.7 305.4 308 307.3 310.2 311.3 313.7 315 318.1 322.3 326.2 325.9 321.8 312.6 302.2 296.6 294.7 293.4 293 294.7 300.1 306.2 313.4 316.1 313.8 306 302.5 299.4 297.8 300.5 308.5 314.2 314.4 315.8 317.8 324.9 333 343.6 348.9 354.5 364.2 376.2 388.3 402.8 422.1 431.1 438 444.1 449 453.3 457.3 457.2 455.9 452.8 450.4 448.8 448.3 447.8 448.2 448.6 452 454 456.1 457.7 459 460.4 461.7 461.2 460.5 459.3 459 459.2 459.2 460.6 463.7 470 470.3 469.2 467.6 464.6 460.2 456.8 451.9 447.2 442.8 439.5 435.8 432.9 431.4 429.5 428.3 426.7 425 423.3 418.6
383.6 384.7 387.1 391.7 396.5 398.9 401.2 403.2 403.8 403.1 401.6 399.6 397.4 392.3 396.8 396.6 395.4 393.9 393.2 391.8 389.5 386 381.4 375.6 369.9 366.4 370.4 369.8 368.1 366.1 364.7 362.3 359.6 357.2 357.8 356.9 352.9 348 342.4 336.6 329.2 322.6 318 313.3 309.9 306.2 303.1 304.3 305.5 305.3 303.4 298.9 290.3 277.6 272.2 270.1 268.8 269.2 269.2 269.3 266.3 264.3 263.2 263.2 262.3 260.1 259.4 259.9 259.3 257.6 258.1 258.1 255.4 256 256 263.9 260.9 257.5 256 254.2 252.7 250.6 250.6 250.5 254.6 260 265.6 266.4 263.3 260.4 257.6 255.8 260.2 265.2 266 263.5 247.4 264.5 273.8 283.2 289.9 292.4 292.1 294.3 298.1 296.1 296.2 296.6 298.4 301.7 303.7 305.4 305.9 306.2 310.4 317.6 320.4 319.6 315.2 306.1 299.8 294.7 292.1 291.1 290 295.1 303.6 306.3 310.3 311.1 310.3 311.5 305.6 296.9 295.5 300.8 307.5 310.9 312.7 315.2 317.9 322.5 327.7 334.7 344 352 360.2 367.5 382.7 394.2 410.3 420.9 427.5 433.3 437.7 442.5 445.3 444.6 441.2 438.6 437.5 436.1 436.6 437.9 440.2 443 444.5 445.1 448.2 450.3 452.3 453.3 452.6 451.5 450.3 449.7 448.4 447.8 447.1 446.2 445.4 446.8 449.8 450.2 448.7 446.2 444 440.7 435.1 432.2 429.2 427.2 425.1 422.9 421.2 420.1 418.9 417.8 416.1 406.8
391.5 394.1 393.8 398.9 402.6 405.1 408 409.6 411 411.3 409 405.6 401.3 397.6 400.3 400.5 400.2 399.2 398.4 397.4 396.4 393.7 392 387.8 383.9 381.6 379.6 377.4 376.2 374.9 372.8 370.8 367.5 364.9 362.5 358.2 353.3 347.9 341.8 334.4 323.3 315.8 308.2 303.6 301.1 299 297.2 296.5 296.5 297.9 296.2 292.9 287.7 279.5 276.7 276.6 275.5 275 273.8 272.8 271.2 266.8 265.5 264.8 264 263.4 261.8 260.2 259.5 258.4 258 256.9 256.4 256 255 254.7 252.1 253.2 252.4 251.6 250.9 250.2 249.5 248.7 248.4 246.2 253.1 257.9 260 258.7 257.1 256 254.8 257.6 260.7 257.1 244.8 259.5 266.3 274.4 284 289 291.8 291.3 288.2 285.2 286 286.7 287.3 293.6 297.1 298.9 299.7 300.1 302 307.5 313.3 315.8 314.9 309.1 304.2 299.2 295.5 291.2 288.4 285.9 290.9 297.7 302 304.4 303.1 302.9 305.8 309.8 302.5 293.4 293.9 302.2 308.8 310.4 312.5 314.5 318.7 324.2 328.1 335.3 345.4 354.6 361.7 369.7 382.5 393.8 404.3 412.8 418.6 421.3 426 428.4 427.2 428.8 428.3 428.6 429.3 426.3 429.1 429.9 429.7 431.9 434 436.2 437.7 438.7 438 437.4 436.8 437.1 437.2 435.8 434.6 433.3 432.4 432.3 433.6 434 433.4 432 428.1 425 423.1 419.7 416.9 414.6 413 411.2 410.6 409.2 408.6 407.6 404.6 401.2
395.5 400.7 403.1 404.4 408.6 413.9 415.6 417.3 417.9 415.1 411.1 407.2 402.6 401.8 403.5 404.4 405 404.3 403.4 402.3 400.6 399.2 398.4 396.8 394.4 391.3 387.8 385.6 383.4 380.5 374.6 368.4 364.6 361.9 358.8 354.7 350.1 344.9 338.4 329.3 320.4 312.6 304.7 309.3 309.2 306.7 305.1 301.6 295.7 294.6 289.5 287.8 284.1 278.3 282.6 279.9 278.2 278.2 277.6 278 278.2 274.2 273.6 274 272.6 272.5 269.3 266.1 262.4 261.4 261.4 260.4 257.1 256.1 255.6 254.4 253.7 252.9 252.2 251.9 250.9 250.5 248 249.3 248.5 247.9 247.3 246 253 255 257 260.3 259.7 251.2 253.8 250.9 246.1 250.3 257 264.8 273.6 279.5 284.1 287.6 288 285.3 279.7 278.9 280.5 283.5 286.7 289.5 291.4 293.5 294.2 295.7 301.7 310.7 314.6 315.3 311.6 304.2 296.9 291.1 283.3 282.8 283.7 288.9 292.4 297.1 298.6 299 299.2 300.9 305.6 308.2 306.2 298.4 290.3 309 311.1 311.5 312.9 315.9 318.9 321.9 325.6 335.9 345.9 354.1 361.9 375 378.9 389 387.2 397.1 401.8 404.9 406.2 409.3 412.2 414.7 415 412 418.3 419.8 420.3 421.4 421.6 423.3 426.6 427.4 426.8 427.2 427.1 426 424.6 423.4 423 422.2 421.6 420.2 419.6 419.3 419.2 419.1 417.5 415.4 412.6 409.9 408.6 405.8 403.3 402.8 402 401.2 400 399 397.9 396.9
403.6 403.4 406 408.9 412.8 416.5 418.8 419.3 417.3 413.7 409.7 406.3 405 410.6 411 411.3 411.8 411.5 410.5 407.8 403.9 401 400.4 399.9 398.9 397.2 394.6 391.8 388.6 385.4 380.1 371.5 365.9 359.2 354.8 349.9 344.9 340.5 334.3 327.4 317.6 308.9 311.6 315.8 317.6 319.8 319.6 316.2 310.4 304.7 300.3 295.8 293.1 281.7 283.7 289.7 289 289.6 286.6 285.8 287.3 286.2 285.9 286.4 285.2 281.7 276.4 270.6 266.8 264.6 263.6 263.4 263.6 261.2 256.5 254.9 253.9 253.4 252.3 250.6 257.2 258.7 265.5 261.4 250 247.4 246.7 246.2 245 251.3 250 252.4 258.1 256.6 255 245.6 245.5 247.1 248.6 258.7 267.1 272.4 275.5 277.6 280.9 285.4 283.5 279.3 272.7 275.3 277.1 277.3 278.2 281.5 286 287.3 290.5 300 308.1 313.9 315.5 314.9 306.5 297.4 286 282.1 281.9 285.4 287.3 289.9 293.8 297.3 297.3 297.6 297.9 299.4 305 309 297.6 296.1 309.5 310.8 311.7 312.5 314.4 315.3 318.2 323.5 332.4 335.4 344.9 355 362.2 366.6 376.5 377.5 380.8 383.8 386.5 390.2 394 396 397 395.6 398.5 401.3 401.6 404.5 407 412 414.3 415.5 416.9 418.9 419 419.5 418.9 418.1 417.7 417 416.9 416 415.2 414.6 414.3 414 413.5 412.6 411.2 408.8 406.5 404.4 402.3 400.3 399.5 398.4 396.5 394.6 392.7 392.4
405.7 404.3 407.2 411.1 415.1 417.3 418.5 418.1 416.5 413.1 411.3 411 411.9 413.8 416 417.5 419 419.1 416.4 412.2 406.9 402.4 400.9 400.6 400.3 399.9 399.6 398.3 393.8 390.7 385.8 379.3 372.4 365.3 359.3 354.3 347.8 341 332.6 323.1 317.9 314.6 321 323.3 325.4 329.8 329.1 326.4 322.1 316 309.9 304.2 296.3 291.5 289.2 294.9 295.2 295.7 295.4 294.9 293.7 294.3 295.1 296.3 297 296.2 295.2 291.5 286 280.9 272.8 266.2 266.6 266.7 263.3 257.1 255.3 253.9 253.2 256.7 266.8 271.8 273.8 272.1 265.1 254.8 246.6 245.4 244.7 244.6 243.9 244.1 250.6 251.1 250.4 245.7 244.4 245 245.2 250.5 260.2 266.3 268.1 270.2 272.3 277.1 280 278.3 274.5 267.9 265.5 264 264.9 270.9 275.3 277.7 283.3 289 296.1 302.3 307.2 307.2 306.5 302.7 296.6 285.3 280.5 280.7 283 283.7 286.9 291.7 295.8 296.8 296.3 294.1 294.9 300.4 300.1 288.6 302.3 304.6 310.5 311.8 313.1 313.6 314.9 318.3 325.9 331.4 335.5 341.3 346.2 353.6 359.1 365.3 369.4 371.7 376.4 378.5 380 382.7 384.8 386.9 388.5 388.7 390.9 394.2 397.6 400.8 403.2 404.8 406.1 407.8 409.4 411 410.2 409.7 410.7 411.2 411.3 411.4 411.3 410.6 410.4 409.8 408.8 406.6 405 402.8 400.7 399.1 396.9 395.7 394.3 392.6 391.7 389.4 387.3 386.2
409.2 411.5 413.1 415.1 417.4 418.9 419.6 420 419.7 418.5 418.2 417.9 417.1 416.5 417.5 418.4 417.9 416.8 413.8 410.7 407.5 403.2 401 400.5 399.5 398.7 397.8 396.3 393.6 390 385.3 379.3 374.3 368.8 363.5 357.9 352.1 345.6 338.5 332.1 325.9 320.7 326.2 329.4 331.1 330.4 328.2 327.2 323.2 315.2 306.2 294.2 291.7 293.7 298.4 301.9 300.4 303.2 302.1 301.7 299.1 299.9 301.9 306.4 306.3 307.8 307.3 303.5 298.9 293.1 287.3 281.8 273.5 269.6 267.9 264.4 262.3 255.5 254.2 253.6 255.1 262.2 270.3 273 271.5 265.7 259.8 255.4 252 243.1 242 242.9 243 249.9 251.8 248.8 243.4 242.8 243.1 244 258.3 264.9 267.9 269.7 271.3 274.4 273.5 269.6 267 262.3 260 259.4 260.3 262.9 268.2 272.6 277.1 282.3 287.9 292.2 293.4 295.4 293.9 291.7 292.9 293.9 287.7 283.3 277.5 275.1 273.1 281.1 288.3 292.8 293.4 291.9 292.9 294 294 287 297.8 300.1 302.9 307.8 312.9 313.4 313.9 314.8 316.7 327.8 332.7 336.1 339.4 342.9 347.1 352.8 357.9 361.2 364.6 369.1 371 372.6 371.6 375 376.8 378.1 377.5 384.8 390.5 394.6 396.4 398.8 400.7 400.8 403.2 403.9 404.1 403.9 403.6 404.4 404.7 404.3 402.8 401.6 400.1 400.3 400.2 398.3 396.7 395.3 393.2 392 392 390.8 389.8 388.7 387.6 385.6 383.7 383.3
419.1 420.4 420.8 423.3 425 426.5 427.2 426.6 425.2 426.1 425.1 424 422.2 420.5 420 418.5 416.4 412.5 411.6 409.3 406.7 403.4 401.6 400.7 400.1 399.1 397.7 395.8 392.3 388.5 382.9 375.4 367.9 363.6 359.1 353.9 348.7 344.5 340 335.9 328.8 330 330.2 332.7 332.3 329.6 323.5 320.5 317.5 307 296.4 295.3 296.9 301.4 305.1 306.1 308.3 309.2 310 310.7 306.8 308.6 308.5 309.7 310.5 309.4 308.3 305.1 299.5 293.2 289.1 285.5 278.7 278.1 278.2 273.5 268.5 265.2 261.2 254.9 253 251.4 256.1 261.6 264.1 265.8 264.8 261.8 257.5 257.2 254.5 248.5 242.8 241.9 249.2 248.2 245.4 242 241.6 241.8 248.3 260.8 267.6 272.3 275.5 276.8 275.8 270.3 262.6 256.1 252.3 248 247.8 250.8 258.2 266.3 270.7 277 285.5 288.3 290.1 288 281.3 282.8 290.9 294.5 292.6 290.6 285.6 280.2 275 270.8 275.8 282.8 285.6 291.5 294.4 295.6 289.8 285.5 294.3 296.2 297.7 299.3 304 309.8 313.3 314.4 315.1 318.4 328.6 333.6 336.1 338.4 340.2 343.6 347.7 353 355.7 358.3 360.5 362.2 364.6 365.9 367.6 368.6 370.2 373 375.9 379 383.1 386.4 388.7 391.7 393.5 394.5 395.5 395.6 396.8 396.8 397.3 397.3 396.5 395 394 395.2 393.6 393.4 392.3 390.6 389.7 388.6 387.2 385.9 385 384.1 382.8 381.6 380.2 378.8
428.7 429 428.1 428.9 429.3 430.3 430.8 430.2 428.2 427.9 426.9 424.5 423.5 423.9 423 422.2 419.5 416.9 414.8 410.2 405.7 403.6 402.8 403.2 402.1 400.6 399.2 397.3 394.3 389.9 384.2 378.4 371.1 364.1 357.9 352.3 347.1 343.1 338.8 336.7 337 336.2 333.3 335.6 335.2 330.8 324.3 308.2 302.7 298 296.9 299.4 310.7 311.8 311.9 312.8 314.5 315.3 315.1 314.6 315.2 314.8 312.5 310.9 310 306.9 302.7 300.6 298.3 294.8 294.1 289.1 284.6 281.2 280.5 280.8 278.6 277.8 276 269.8 266.5 254.8 250 249.5 252.9 252.6 255 254.9 255.4 255.4 253.3 249.5 244.2 242.2 241.7 243.4 241.7 244.5 240.6 238.8 240.5 250.5 261.2 265.2 267.4 268.6 270.4 268.2 263.2 256.3 250.9 245.3 240.9 243.3 245.7 250.7 257.9 265.7 273.5 279.4 284.7 284.3 277.7 275.2 281.5 288.7 292 292.7 289.1 286.3 281.4 275.7 274.4 274.5 277.7 284.8 288.6 291.2 281.5 283.2 292.3 292.4 292.8 293 295.9 302.4 307.8 313.6 314.9 315.5 318.3 326.8 332 334.8 337.1 338.7 340.5 342.1 344.8 347.5 351.2 352.6 356 356.8 359.3 361.3 362.8 366.1 369.3 371 373.3 375.6 378.4 380.8 382.5 383.5 384.3 383.6 385.3 385.7 386.5 386.9 386.8 385.2 384.9 387.2 386.1 383.8 384.9 383.5 382.2 381.4 379.1 378.1 377.2 375 376.6 375.1 374.5 370.5
436.5 438.3 438.6 437.6 433.6 433.5 433.2 432 429.1 427.8 426.7 424.4 422.2 422.9 425.2 427.4 426.9 425.7 421.8 416.2 408.8 402.7 397.9 396.9 396.5 396.4 395.6 392.6 389.7 386.8 381.7 375 371.6 366.8 361.5 356.6 351.3 345.6 341 340.5 341.4 341.2 340.2 339.6 338.3 334.2 327.5 302.3 299.7 298.8 316.3 321 321.3 321.4 322.4 320.8 321.4 322.4 321.8 319.5 321.6 320.8 320.2 317.8 316.3 314.3 311.9 309.6 306.4 306.3 302.3 297.4 289.6 285.2 283.2 285.9 288 288.5 288.6 288.9 283.1 276.1 267.6 255.3 249.6 247 246.2 244.6 244.9 248.2 248.7 247.5 243.3 241.8 241.5 240.1 241.2 240.3 241.5 239.6 239.8 240.7 250.2 256 261.4 264.3 266.1 263.9 259.1 254.1 248.4 243.1 236.3 240 241.4 246 247.5 252 255.9 261.6 267.4 272.4 271 269.7 270.6 273.7 276.1 281.4 280.2 279.6 275.6 275.2 279 273.7 274.6 275.6 274.7 279.7 264 253.8 295.1 293.9 291.5 290.5 290.2 293.4 298.4 303.7 310.8 315.6 316.2 318.2 322.6 330.2 334 336.9 337.2 337.3 337.7 338.6 339.3 342 343.5 343.7 345.2 346.9 348.6 351.4 353.3 356.5 358.3 361.7 363.2 366.5 369.2 370.7 370.3 369.5 371.8 374 374 375.3 375.9 373.8 373.7 373.3 373.6 373.9 373.7 373.4 369.8 372.2 370.5 369.7 368.9 367.7 367.6 367.2 366.8 366.9
440.9 442.1 441.8 440.3 439.2 436.2 432.4 428.1 426.8 426.7 424.8 422.7 421.1 421.3 422.7 426.2 426.7 424.9 421.6 416.9 409.4 402 396 387.8 380.9 380.3 382.1 380.3 378 375.4 372.5 368.5 363.5 360.7 358.2 354.6 351.5 346.3 343.1 342.1 342.6 342.6 342.2 341.6 340.4 337.6 326.1 301.3 312.7 323.6 327.4 329.3 332 334.5 334.7 331.8 327 328.1 327.5 325.7 326 326.6 325.8 323.7 320.3 318.4 317.9 316.9 311.3 314.5 312.7 309.9 305.8 298.3 289.1 288 289.6 292.6 297.5 297.5 293.7 290.4 284.5 277.8 267.3 257.2 252.6 246.7 243.2 242.4 242.3 242 241.5 241.2 240.9 240.7 240 239.2 239.5 238.2 240.3 239.4 242.1 248.8 255.2 261.8 264.5 261.6 256.3 250.7 245.1 239.4 234.8 235.7 236.5 240.3 250 255 258.2 258.9 259.8 261.9 263.8 263.1 263.8 265.5 266.7 269.1 270.2 267.6 266.6 269 276.4 278.6 260.4 245.7 245.6 247.8 252.3 283.1 285.5 288.5 290.9 289 289 289 291 294.2 298.3 304 310 316 319.6 321.5 324.5 330.9 333 333.7 334.2 335.1 336.7 338.8 339 338.3 338.4 339.6 340.2 341.1 342.1 343.4 345.9 345.1 346 347.3 350.3 354.5 357.1 358.2 360.2 361.1 362.4 362.6 361.5 361.6 360.8 358.7 360.9 364.9 368.3 367.9 367.7 367 365.3 362.9 362.1 361.6 361.1 360.4 359.3 360.3
446.2 445.1 443.1 441.5 438.8 434.4 428.8 426.8 425.4 424.4 422.4 419.9 418.5 419.3 420.6 420.4 418 416.3 415.2 412.6 407 399.1 391.5 386.9 381.3 377 373.7 365.9 362.2 358.7 358.2 352.3 350.4 348.3 346.2 349.4 349.4 348.1 346.4 345.4 344.8 344.4 343.5 342.6 339.8 336.5 324 304.6 333.3 333.5 336.4 338.9 344.9 346.8 345.4 340 334 331.8 330.8 329.3 329.9 330.5 328.9 325 322.9 322.7 321.4 319.1 318.3 320.3 320.3 318.6 315.5 313.3 309.1 299.5 293.4 293.5 297.1 299.5 300.6 297.9 289.6 280.3 277.1 271.1 267.4 259.3 251.3 246 244.2 242.5 241.3 240.6 240.3 239.7 239.5 239.2 238.9 238.5 238.7 238.6 238.3 241.1 247.9 256.6 262 261 255.6 249 244.9 238 234.1 234 234.9 243.5 255 265.6 273.1 271.3 269.6 269.1 268.4 265 260.2 255.9 254.2 259.3 260.9 258.1 255.6 260.9 263.6 267.4 252 245.3 273.9 278.2 281.3 283.2 282.5 283.5 284.2 284.9 286.3 287 288.3 289.4 289.9 294.1 297.1 302.6 308.8 315.1 319.1 321.4 323 325 327.7 331.7 333.1 334.9 335.5 335.4 335.6 336.6 337.1 337.9 338.8 340.1 341.6 341.7 341.5 341.7 343 345.4 346.7 349.3 350.8 352.2 352.5 352 351.7 353.3 354.2 354.1 351.5 352.1 354.6 356.5 357.8 357.3 357.7 357 357.2 357.1 356.9 356.8 356.3 356.1
450.6 446.7 444.3 442.3 437.6 433.3 428.4 425.9 423.5 422.4 419 415 414.6 414 413.3 411 408.5 406.8 406.4 404.2 399.1 391.9 380.7 378.3 384.3 383.9 380.3 375.6 370.1 366.1 366.5 367.2 365.4 362.2 358.6 351.2 348.6 346.5 341 330.3 340.8 331.7 339.4 341 327.4 308.1 305.4 329 341.6 342.9 346.6 349.3 353.3 352.8 349.3 343.7 339.2 337.4 335.6 331.9 331.1 331.5 329.7 325.8 322.5 321.4 321 320 322.8 325.1 325.7 324.6 322.3 320 313.8 304.3 304.2 300 298.2 297.4 296.5 296.1 293.2 288.2 283.2 280.5 277.2 273.1 269.8 257.5 255.4 247.4 245.4 242.8 239.6 239.9 239.1 239.2 238.5 236.2 238 238 236.9 236.5 235.8 239.7 250.8 256.4 254.1 249.2 245.2 240 233.9 233.5 234.4 245.4 256 264.3 268.8 273.2 276 278.3 278.1 273.1 265.1 259.2 252.4 250 250.9 250.7 251.7 251.7 251.3 252.2 241 249.1 268.9 274 279.7 282 279.8 282.6 283.6 283.8 284.8 285.4 286.9 288.1 289.7 291.2 292.2 293.6 296.8 300.7 304.4 308.4 311.4 315.3 317.5 321 322.9 326.9 328 330.4 331.3 332.6 334 335.1 336.4 338.6 339.8 340.3 340.6 340.6 341.2 341.8 342 341.8 342.1 342.3 343.9 346.2 348.3 350.4 352.5 353.7 352 346.4 345 346.7 347.5 348.5 350.9 353.5 353.6 354.4 354.8 353.8 353.4 352.1
454 452.3 448 443.7 437.1 432.3 428.2 426.3 425.8 423.7 420.6 415.2 407.5 405.8 405.2 403.3 401.1 399.5 397.9 395.2 390.9 385.4 380.7 385.1 385.5 382.9 378.7 374 370.7 368 368.2 369 366.4 363.6 360.1 354.3 348.6 342.5 333.1 330.5 329.9 332.8 331.4 320.8 316.4 329.5 341.5 347.1 348.3 352.5 356.9 358.8 358.7 356 349.5 341.9 340.2 338.6 336.8 333.7 332.5 332.3 330.8 326.5 323.6 322.9 322.6 324.1 326.2 328.1 328.9 328 326.2 322.6 317.8 314.7 310 305.8 302.2 299.8 297.5 295.6 292.3 290 288.5 285.4 282 279.1 275.5 273.9 269.3 262.8 256 251.3 248 246.9 240.5 238.4 238.7 236 237.6 237.3 237 236.7 236.4 235.8 235 242.8 246.1 244.4 244 238.6 233.2 232.6 233.3 244.4 257.6 263.6 266.9 269.3 270.7 275.4 274 271 265.9 262.9 257.8 251.8 247.9 246.3 246.4 246.8 246.4 242.8 242.3 242.7 254.6 258.3 264.2 269.1 268.5 283 283.5 284 284.2 284.8 285.8 286.9 287.9 289.6 290.1 290.8 292.3 293.4 295.6 296.5 295.1 301.4 304 307.5 311.9 315.2 320 321.4 323.7 323.3 326.6 328.1 329.9 332.5 333.3 334.2 335.7 335 336.9 337.5 336.8 336.6 337.2 338.1 339.6 340.9 341.9 342.9 344.6 345.7 346.2 346.3 344.4 343.9 344.8 346.3 348 348.8 348.7 348.3 348.6 347.9 347.9 346.5
459.9 456.2 453 447.7 442.9 437 435.9 435.2 432.3 428.8 424.5 419 411.5 403.9 397.4 396.7 394.8 392.8 388 385.3 384.7 383.6 386.5 388 386.9 383.3 380.2 376.5 371.8 368.2 365 363 361.1 358.4 342.7 336.4 338.5 339.5 342.8 343.2 343.8 349.1 352.2 343.5 346.1 340.3 351.5 355.8 354.8 360.3 363.4 363.8 361.9 357 347.3 343.4 342.3 340.6 340.2 340.5 341.4 341.3 339 335.9 328.7 328.1 328.2 329.4 331.1 332.4 332.3 330.8 327.9 326.6 325.6 324.5 321.6 315.7 310.3 306.1 302.8 300.8 300.2 298.6 295.8 291.6 283.3 279.1 275 277.3 273.6 269.3 267.7 264.2 259.9 256.1 253.4 253.8 253.2 249.7 242.7 235 234.7 236.5 235.7 235.6 235.1 234.6 234.3 236.4 236.9 235.2 233.4 232.9 232.1 240.5 250.6 261.5 268.7 271.8 275.6 275 272.5 269 263.6 259.5 255.5 250.3 245.4 245.6 243.1 244 243.1 240.8 239.1 241.3 245.7 251.1 253.7 253.6 259.6 265.4 270.3 278.6 283.1 284.3 284.9 285.3 285.9 287.4 288.7 289 289.5 290.3 291.1 291.5 292.6 294.5 295.9 297 298.5 301.6 304.5 305.7 307.7 310.1 314.3 317.3 320 322.3 323.2 324.6 324.3 324.9 326.2 326.3 326.6 327 327.1 329.1 330.6 331.3 332.4 333.6 335.1 336.3 337 338.2 339.6 341.2 341.7 343.3 343.7 343.8 343.4 343.2 342.7 342.7 342.2 341.5
460.1 460.5 455.7 451.2 446.7 443.2 444.5 442.8 440.6 435.9 429.1 420.5 413.2 405.9 399.2 395.7 390.8 392 395.7 394.5 394.3 394.4 395.9 395 391.6 386.7 383.2 380.2 376.9 372.7 369 365.8 361.8 348.7 345.9 358.1 356.3 360.3 358.8 358.6 357.4 359.2 361.7 361.3 358.9 355.5 351.5 357.2 360.8 363.1 364.5 364.3 359.3 356.2 352 353 354.3 354.9 353.2 351.2 350.8 350 347.9 346.2 341.1 339.8 338.8 339.4 338.7 338.2 336.6 334.5 331.7 334.6 333.6 331.7 329.2 326.4 320.3 314.6 308.5 305.7 304.3 302.5 299.8 296.3 290.2 282.8 279.1 279.2 277.3 273.2 270.7 271.5 269.8 266.8 258.5 254.3 252.1 250.2 249.8 249.1 244 237.1 233.3 235.4 235.3 235 234.6 234.3 234.4 234 233.7 233.4 232.9 235.1 243.4 253.5 268.2 274 277.4 278.5 275.5 270.6 263.8 259.5 255.2 248.7 244.2 238.7 239 240.2 239.7 239.9 238.9 239.2 243.2 244.1 246.2 249 257.2 261 263.1 263.7 266 274.3 277.7 283.1 284.1 286.4 287.3 287.4 288.4 288.7 289.4 289.3 290 290.3 290.5 290.7 292.2 293.3 294.8 296.9 297.9 300.4 303.1 306 307.9 310.2 312.8 314.4 314.9 315.2 316.9 316.7 316.7 316.4 315.9 314.9 314.6 316.1 317.4 317.4 319 320.8 322.2 324.8 328.5 333.6 333.5 333.3 332.5 331.7 330.8 329.3 329.5 328.6 327.9 325.2
460.8 459.6 455.3 452.1 448.6 445.9 445.5 443.7 439 432.7 424.5 416.3 409.6 402.2 398.9 392.6 395.5 397.9 399 399.3 398.6 399.5 399.7 396.2 391.8 387 383.7 380.1 376.8 373.3 370 365 348.2 347.3 360.6 366.4 367.7 367.2 371.6 370.4 368.5 367.4 367.1 365.3 361.6 359.5 358.2 358.2 362.5 365 366.3 367.6 367.7 368.2 367.8 368.4 368.1 368.5 367.4 365.3 365 363.7 361.7 359.6 356.9 355.3 352.2 349.7 347.2 344.4 341.2 338 335.9 339.5 340.9 339.2 336.5 332.6 329.5 321.9 317.6 314 310.3 305.9 301.9 298.5 293.8 289.1 285.4 279.8 276 273.2 272.8 273.4 269.9 267.9 263.6 258.4 254.7 251.2 248.7 246.4 245.3 242.9 243 234.8 234.2 234.2 234.5 234.3 234.2 233.7 233.6 233.3 232.8 232.1 234.7 247.2 259.6 265.8 271 273.5 271.2 265.6 261.4 257.1 251.4 242.6 237.4 236.7 237.1 238.3 238.6 238.9 235.3 237.7 240.1 241.6 243.5 245.7 254.9 262 263 261.6 261.6 263.8 266.1 269 273.4 275.8 279.4 280.2 282 284.5 287.7 288 288.6 288.3 288.7 289 289 289.7 290.5 291 291.4 292 293.9 293.8 293.6 297.5 299.7 301.7 302.3 300.8 304.4 305.4 306.3 306.8 306.9 307.4 307.2 306.9 304.6 303.9 303.5 305.7 307.8 310.2 309.6 310.6 311.4 310.8 309.8 309.6 309.4 310 310.1 309.9 310.4 308.5
458.9 456.4 454 452.3 449.7 447.8 445.2 440.9 433.6 427.8 422.5 410.6 403 399.1 394.1 397.8 401.1 402.6 403.2 403.1 401.5 399.4 396.2 393.3 389.5 384.9 380.8 377.6 374.1 368.2 360.3 356.4 354.7 360.9 368 370.4 373.3 372.7 377.5 376 375.3 374 371.7 368.1 367.7 365.8 364.3 361.8 366.2 368.9 370.3 373.1 374.6 376.7 377.9 378.4 378.5 376.9 374.6 372.2 372.2 372.9 373.8 375.5 374.6 374.6 371.2 366.4 361.4 356 351.1 346.4 342.3 343.3 342.3 342.2 339.9 337 333.3 329 324.4 319.3 315 311.5 306.3 301.8 298.4 295.6 293.1 288.8 282.5 276.6 276.7 274.8 272.3 268.5 263.7 262.7 253.9 251.6 249.3 246.2 243.9 241.9 242 245.5 243.6 240.6 236.9 233.8 232.6 233.1 233.4 233.1 232.7 232.6 231.6 236.6 253.8 261.9 264.4 267.5 266.4 263.1 259.5 254 245.4 236.8 234.9 235 235.9 236.6 237.5 237.3 236.3 236.9 238.4 239.6 240.4 243.1 248.8 257.1 259.1 261 260.5 260.2 261.7 266 271.7 276.8 279.1 278.9 278 274.5 273.6 273.2 274.1 276.7 281.7 283.4 284.2 286.6 288.3 288.9 289.5 290.5 291.2 291.4 290.8 290.3 290.1 290.1 289.5 288.2 287.8 290.5 294.5 295.7 296.2 297.9 298.1 296.7 295.4 293.7 293.4 295.8 297.9 298.2 299.7 300.1 299.5 298.5 298.2 300.8 301.7 302.4 302.5 302.6 302.5 301.2
454.1 451 449.3 448.2 447.7 446.9 446.6 444.2 439.9 434 428.5 421.5 412.5 400.3 396.3 402.6 406 409 409.8 406.9 401.5 395.1 389.7 387.3 384 380.3 375.7 372.2 366.2 361.5 362.3 370.1 359.9 368.9 373.4 375.1 378.4 380.6 381.7 381.4 381.2 381.1 377.8 376.4 378.4 377.1 373.8 377.9 378.6 381.4 382.7 382.1 381.6 384.3 386.3 387.4 387 385.1 383.4 381.2 379.9 381 382.7 384 384.6 384.2 383.1 381 378.7 375.5 365.3 361.2 353.6 347.2 345.3 344.4 342.5 339.5 335 329.2 324.4 320.8 317.8 315.1 311.7 309.6 305.8 303.7 300.1 296.1 292.2 284.3 282.9 280.2 273.4 268.9 264.8 263.1 254.1 251.3 250.3 248.8 245.5 247.1 253.7 257.2 257.8 257.5 251.4 241.9 236.3 233.6 231.1 233 232.5 232.4 232.5 230.3 241.5 256.5 263.7 264.6 264.9 263.1 260.4 254.7 245.9 234.7 233.2 234 235.1 235.9 235.9 236 234.6 237.5 237.4 239.2 240 240.4 246.2 250.3 254.2 256.4 258.5 259 259.4 260.8 266.1 269.6 274.2 276.1 275.2 273.1 271 270.7 271.2 272.4 272.7 273.9 272.4 273.4 276.3 283.6 286.6 289.9 289.8 289.7 289.6 289.2 288.5 288.5 288.2 287.5 288.1 289.3 289.6 290.4 290.2 292.2 291.4 289.8 288 287 286.6 289 290.3 291 292.3 291 292.2 292.2 292 291.4 293.4 294 296.6 299 299.7 299.2
457.6 452.4 448.3 440.6 440.6 441 441 441 440 436.9 430.9 423.9 414.8 402.8 397.7 405.3 410.6 413.5 413.3 410 403.5 396.7 390.3 386.3 381.9 378.9 374.8 373.3 363.5 369.4 375.5 376.8 372.3 379.3 381.2 383.2 385 386 387.4 387.9 389.1 388.6 383.8 384.2 385.4 385.6 383.9 390.8 393.8 392 393.8 393.5 393.9 395 395.6 396.2 394.6 390.7 389.8 390.4 391.2 391.4 392.3 392.3 392.2 392.3 390.6 388.6 386.7 384.4 381.7 378.3 372.1 365.6 358.9 355.3 350.4 343.9 336.9 332.1 327.1 322.5 319.6 317.5 316 315.5 314.4 312.3 309.2 302.2 297.1 291.1 284 280.6 276.9 270.1 264.1 263.7 260.4 259.9 257 255.2 252.2 250.9 254.8 260.3 265.4 265.7 263.4 257.9 251.7 244.7 235.9 231.1 232.6 232.2 232.5 230.8 231.3 241.1 249.7 254.4 256.5 255.3 255.4 253.7 247 234.1 232.8 233.5 234 234.4 234.3 234.3 234.3 234.4 235.2 235.4 236.4 240.2 247.5 253.6 256.8 264.3 261.4 259.7 258.4 258.2 260.7 265.3 268.7 270 270.2 269.1 269.4 270.1 270.7 271.6 272.2 271.3 270.8 269.7 268.1 269 274.3 275.9 278.5 280.6 282.8 285 287.6 286.7 286 285.4 284.2 283.4 283.3 283.8 284.4 285 284.8 285 284.3 283.7 283.8 283.3 285.7 286.6 286.9 286.9 288.1 289.4 289.2 289.6 290.3 291.2 290 289.2 288.4 288.6
457.4 453.6 447.2 439.1 434.5 435.7 434.7 433.9 432.8 428.9 424.3 413.8 410.9 409.6 401.1 408 412.9 416.5 417.5 416.1 412.3 408.8 404 398.9 393.7 386.2 381.3 373 368.1 376.1 380.2 382 377.1 386.3 388.6 389.5 390.9 392.1 392.2 392.6 392.5 390.4 388.3 389.6 389.9 390.3 389.8 389.2 393.5 395.7 397.9 399.9 400.7 403.4 404.2 404.6 405.1 401.2 398.3 400.8 401.7 402.2 402.5 401.8 400.5 399.7 397.9 396.2 394.9 392.1 389.3 386.6 384.2 381.3 376.6 373.1 367.4 358.8 353.6 346.6 338.8 329.3 322.4 321.2 320.4 319.9 319.3 317.9 316.1 313.1 309.7 304.6 296.7 288.5 279.9 275.6 272.7 274.8 274.1 270.2 264.5 265 261.9 260.9 258 257.5 262.5 264.6 264.2 258.6 251.8 247.8 241.7 235.3 231.3 232.3 231.6 231.3 231.3 231.3 232.6 237.2 241.3 245.3 246.6 245 242.7 235.9 232.4 232.8 233.8 233.5 233.1 233.2 233.8 233.4 232.9 232 231.5 231.1 236.6 240 247.5 254.9 260.8 265.6 264.3 258.7 257 260.3 262.2 262 269.1 272.7 274.1 273.9 272.6 274.8 274.4 272.3 270.1 271.2 270.2 266.7 267.3 272.7 273.9 276.3 277.6 278.2 278.4 276.4 277.4 281 280.7 280.4 280.3 281.7 282 282.3 282.4 282.5 282.7 282.2 282.2 282.7 283.8 284.1 283.7 285.3 286.5 287.1 286.7 286.6 287.4 287.9 288 287.7 287.9 286.3
450.8 446.4 439.5 434.7 432.8 431.4 430.4 432.2 434.3 432.9 428.9 423.8 419 413.9 405 409.1 413.1 416.5 419.1 419.6 417.7 414.2 409.8 404.9 396.3 387.4 375.8 369.1 373.8 385.4 387.9 390.9 387.5 394.2 396.5 397.8 397.6 397.1 396.6 396.8 397.1 396.9 396.2 396.7 397.3 395.9 394.5 393.6 393.6 394.7 397.4 400.4 404.1 407.7 411.1 417 418.9 419.9 424.2 421.9 416.8 415 411.9 410.6 407.7 406 404.2 402.9 401.4 399.5 397.5 396 392.6 389.4 385.9 383.1 378.9 374 368.8 358.1 352.6 345.2 335.4 331.2 326.3 323 322.6 321 319.7 318.3 316.5 314.1 310.6 304.3 299.6 292.2 286.6 282.1 271.4 272.1 264 262.9 261.7 260.9 258.3 254.4 258.8 261.2 259.3 255.7 251.7 244.9 239.1 233.3 232.1 230.7 231.8 231.9 231.3 230.3 228.5 231.5 230.3 227.3 234.5 235.2 233.5 230.4 231.6 232.5 232.9 231.8 232.3 232.4 233.3 233 232.6 231.8 230.9 230.6 230 233.3 236.1 241.6 247.8 259.4 262.4 259.8 254.6 253.3 253.6 254.7 258.9 261.4 263.5 264.2 264.5 265.5 265.1 263.9 265.3 269.1 268.2 265.6 262.1 267.9 268.4 272.2 271.8 273.8 274 274.3 274.7 275.8 278 278.1 278.1 280.7 281.7 283.2 283.1 283.5 282.8 282.2 281.3 281.4 282.3 281.4 283 283.7 284.8 284.4 283.8 283.3 282.1 281.9 282.3 282.6 281.8 280.1
445.5 445.1 444.5 443.7 442 441 439.8 437.3 437.3 434.7 431 427 422.5 414.6 409.3 411.6 413.6 414.3 413.9 414 411.8 407.7 402.8 399.4 392 379 383.3 386.3 384.9 394 398.7 401.3 389.4 403.9 406.3 406.4 406.2 405.2 404.8 405.1 406.2 406.7 405.4 404.7 404.6 403.2 402.3 400.1 402.4 404.9 406.7 409.2 413 419.2 427.5 434.2 436.8 441 441 442.2 441.5 437.5 433.4 426.4 419.9 414.7 410.8 408.6 405.9 403.5 401.9 400.6 398.3 395 392.1 389.1 385.2 381 376.7 371.5 364.4 359 350.3 344.2 336.8 331.9 327.7 324.5 321.8 319.4 317.4 315.7 314 312.6 310.5 306.2 300.8 293.9 284.9 267.7 267.8 259.3 256.4 255.6 251.9 247.1 250.8 252.6 252 247.8 243.3 241 241.6 237 232.3 232.8 230.2 232 231.5 230.3 231.4 230.8 230.4 230.2 228.4 230.1 229.4 229.8 229.5 230.9 232 232 231.3 231.3 232.3 232.6 231.9 231.2 230.3 229.9 229.3 228.7 230.1 231.9 232.2 242.4 249.8 254.8 253 249.8 247 248.1 249.5 250.9 252.4 253.8 254.2 255 257.2 258.5 259.5 265.5 260.3 260.1 258.9 261.6 262.2 268 270.3 270.7 269.9 272.6 273 271.1 272.5 274.2 273 277.3 280.5 282.9 284.9 285.8 283.7 282.5 280.6 278.9 280 278.6 281.1 282.4 282.5 281.9 280.8 280.8 279.5 278.9 278.7 278.1 277.4 276.9
454.9 457.7 458 457.6 456.1 451.1 444.6 436.1 429.7 423.4 418.7 414.5 411.5 412.8 412.8 414.2 415.2 414.1 411.6 407.9 402.2 395.8 389.5 385.4 385.4 391.2 396.5 399.1 386 402 406.1 407.9 409.3 412.5 414.3 414.7 414.9 414.2 412.4 414.5 415 415.6 416 416.1 415.9 417.5 415.5 420.3 422.6 424.8 426.8 430 433.6 437.1 440.2 438.6 443.2 449.5 452.5 459.6 458.9 456.3 454.2 449.8 444.8 436.6 429.3 421.6 414.3 407.4 403.6 402.1 399.7 398.5 396.3 396.7 393.4 389.6 384.5 380.1 374.6 369.6 362.4 354.2 346.7 339.9 333.6 327.7 322.8 318.7 315.3 312.5 310.7 309.4 309.2 309.2 305.7 299 291 282 263.3 263.9 254.4 251.2 247.4 243.7 241.5 241 240.2 237.9 234.8 232.5 234.1 232.5 231.9 232.6 232.2 231.9 230.1 231.5 231.6 230.7 230.4 230.3 230.2 227.7 229.8 229.7 229.2 229.4 230.2 230.5 230.2 230.8 231.3 231.8 231.2 230.7 229.9 229.3 228.5 227.7 228.1 228.9 231.3 234.2 241.3 248.3 249.5 248.5 246.9 244.2 243.7 243.6 244.2 244.6 246.4 249.4 251.5 252.2 253.7 254.5 255 255.1 254.1 254.3 257.9 258.7 260.1 260 259.5 259 260.6 259.5 262.9 265.2 263.2 267.8 271 273 274.5 275.2 274.6 273.1 269 270 273.2 275.1 276.7 277.2 277.3 276.5 277.2 278.3 279.2 278 276.8 274.9 274.4 275.6
466.2 466.2 467.2 463.3 455.9 445.8 437.2 427.4 429.1 431.4 430.7 428.3 426.1 424.7 425.4 425.5 422.7 417.5 412.4 403.6 397.2 392.1 392.3 396.6 399.7 402.5 403.2 405.8 405.2 407.2 411 413.1 413.8 411.3 419.1 420.9 421.9 420.8 419 421.6 423.3 424.3 426.5 427.9 429.3 431.4 431.9 434.5 438.8 441.9 445.3 449.5 452.5 457.3 461.3 466.5 473.6 473.7 476.4 480.1 481.1 478.9 474.3 466.3 464 453.3 442 430.9 423.6 418.1 412 406.7 402.6 399.3 397 397 396.1 393.7 390.2 385 379.2 372.1 365.7 357.7 349.5 340.8 332.7 325.9 319.7 314.7 309.6 305 302.2 301 299.5 300.5 301 296.6 290.6 283.6 276 262.4 260.7 253.8 247.1 242.3 239.7 238.5 236.3 235 234.6 233.2 233.4 234.6 232.9 232.8 232.3 231.6 231.7 231.2 230.9 230.5 230.2 230.1 230.2 230.6 230 227.7 228.9 229.9 229.9 230.7 230.6 230.4 230.8 230.6 230.4 230 229.5 229.1 228.1 227.4 226.8 226.7 226.8 226.4 234.5 237.2 239.1 241.4 243.9 242 242.4 242.5 242.5 242.3 242.6 243.6 245.4 246.3 246 245.6 248 248.8 250.8 250.9 249.3 256.2 257.1 256.8 255.4 254.5 253.7 253.7 254.4 255.2 256.1 257.5 257.7 259.3 260.6 261 258.3 259.2 256.8 263.4 263.8 265.8 267.9 270.1 272.2 273.1 272.4 274.1 274.2 274.2 272.4 271.1 273.1 274.7
470.4 468 463.2 457.4 448.1 439.7 434.1 431.2 435.9 437.8 437.4 435.4 429.2 430.3 431.2 430.8 428.4 424.3 417.5 405.9 397.1 399.9 403.8 407.9 411.4 411.9 411.7 412.3 412.2 408.3 416 417.5 418.1 418.9 422.6 426.3 427 427.5 422.9 428.6 430.5 431.9 433.8 435.3 436.6 438.3 438.1 438.3 448.5 452.4 457.6 463.7 470.4 475 480.1 486.7 492.5 496.2 499.7 504.1 504.8 494.1 482.1 473.6 467.7 461.8 448 434.6 424.6 420 415.7 411.6 405.8 399.2 394.7 392.5 390.8 388 383.7 378.4 372.2 365.9 359.6 352.3 344.4 335.9 328.6 322.8 317 309.8 303.4 298.6 295.1 292.7 289.9 285.4 286.9 285.3 281.9 279 275.1 269.3 263.4 258 252.7 247.7 241.6 239.3 237.4 235.7 235.3 234.3 234 234.7 233.7 232.7 230.1 231.9 232.1 231.4 230.7 230.4 230.2 229.8 229.5 229.6 229.8 230.3 227.3 229.6 229.8 230.1 230 230 229.9 229.4 229.2 229.2 228.9 228.4 227.8 227.1 226.4 225.9 225.6 225.3 225.3 226.1 232.6 235.2 235.7 238 239.5 239.5 240.4 241 241.3 242.3 243.4 244.3 245.3 245.7 246.8 247.5 247.5 247.7 247.9 249.9 252.7 255.7 254.7 253.6 253 252.4 251.6 251.6 252.1 252 252.1 252.9 253 252 251.7 251.8 254 256.4 256.3 255.2 257.4 260 262.6 264 265.1 267.1 267.6 269.3 266 270.2 268.9 269.6
470.4 464.8 458.4 450.5 442.5 436.8 431.7 438.1 441.1 441.6 441.2 440 436.1 438.2 437 436 433.1 428.6 420.7 406.3 404.7 409.8 415 419.8 422 422.5 422 421.7 411 416.6 421.8 423.9 422.8 428.7 423.3 434.9 433.7 432.2 429.4 434.1 436.1 438 440.9 442.4 445.2 446.8 448.5 453.7 460.9 465.7 475.5 484.6 489.9 492.3 495.7 500.2 507.6 510.1 513.1 518.1 520.2 518 496.5 477.8 463.9 450.7 439 428.4 421.1 415 408.6 404.1 399.5 394.1 389.1 386.2 384.1 379.9 374.6 369.6 363.8 356.5 351.1 343.8 336 327.8 320.7 313.6 306.9 301.2 295.2 289.8 286.2 283.5 279.7 274.2 272.9 273.1 272.3 270.3 269.4 266.2 261.9 255.9 251.5 244.5 245.3 242.6 238.1 241.2 242.6 238.3 237.5 235.8 235.2 231.1 232.9 232 232.3 231.7 231.1 230.2 230 229.8 228.8 229 229.3 229.1 229.3 227.7 227.4 227.3 229.9 229.3 228.8 228.7 230.3 228.9 228.2 227.7 227.3 226.7 226.4 225.6 225.1 224.8 225 225.2 225.7 226.4 227 232.9 233.9 234.4 235.9 236.3 237.1 241 242 243.4 244.9 246.8 250.3 252.7 249.5 248.4 248.3 247.7 246.9 246.6 250.5 253.3 253.2 252.2 251.4 250.1 249.9 250.2 250.4 251.2 253.5 251.3 250.6 250.5 250.2 250.5 251.2 252.8 251.8 251.2 252.1 255.9 256.7 259 257.5 260.8 258.8 260.2 258.2 260.4
472.4 465.5 458.3 450.2 443 434 440.5 442.5 443.2 443.8 442.7 440.9 442.7 445.6 445.2 442.6 437.8 429.9 421 402.5 416.5 420.8 424.5 429.4 429 427.3 424.9 420.5 416.4 425.7 431.1 433.2 428.7 436.1 429.5 435 438.6 435.3 440 444.7 448.9 450.1 453.2 454.5 456.9 459.3 461.5 465.7 469.5 481.5 491.1 503.1 509.4 512.6 511 514.3 516.4 522.9 526.7 528.7 525.9 518.1 490.9 469.9 455.2 441.5 431 424.1 419.1 409.6 402.7 397.8 394.6 388.7 386.7 382.2 371.7 366.8 365.3 361.2 355 348.9 343.1 336.6 328.4 321.2 312 302.4 296.9 293.6 288.7 282.4 279.2 276.5 274.7 273.7 270.6 267.9 266.9 264.9 265 263.4 260.2 255.5 255.8 251.8 249 248.7 247.1 245.6 243.9 241.6 240.6 238.3 237.1 234.9 233.2 232.3 232.3 232 231.4 230.6 229.8 229.7 228.8 228.7 228.7 228.6 228.6 228.5 228 229.4 226.5 233 240.9 241 240.3 237.3 236.3 231.4 227.4 226.8 226 225.5 225 224.8 224.9 225.1 226.3 224.8 224.5 226 225.1 224.8 230.7 231.7 234.2 235.9 239.7 245.4 250.2 253.4 256.2 255 254.9 255.1 253.3 252.6 251.7 253.4 251.2 251.4 248.4 247.8 247.6 250.2 249 249 249.4 249.6 250.4 249.2 248.9 248.7 248.2 248.1 249.3 253.6 252.6 253.4 251.6 249.6 248.5 249.8 250.6 249.5 247.3 252.8 253.5 255.6
469 459.7 452.4 446.5 442.3 440.3 444.5 447 448.4 449.1 447.8 444.6 444.6 448.6 449.8 444.9 436.9 420.9 406.5 413 425.3 431 434.9 433.3 429.1 423.1 417.1 419.6 429.2 436.1 439.6 438.5 440.4 440.4 440.9 441.7 445.1 447.2 453.8 458.1 461.6 464.2 467.1 469.1 471.1 473.9 477.4 482.4 487.1 493 506.7 519.2 521.4 528.3 532.8 536.9 538.1 540.7 540.9 536.2 525 506.5 481.2 460.6 444.9 431.5 425.7 423 413.3 404.5 399.2 396 394.5 392.2 388.7 383.2 376.2 368.6 360.9 349.4 347.4 341.9 335.8 330.4 323.6 317.9 311.3 304.5 294.8 293.7 291.6 289.6 287 280.9 281.9 279.5 276.8 271.8 266.4 263.9 259.3 256.6 259.8 258.5 254.8 254.2 253.8 253.9 249.2 247.4 247.6 245.6 242.3 240.8 232 235.3 235.7 234 232.7 231.8 231.6 231.1 229.9 229.4 229.1 228.8 228.5 228.3 228.4 228.5 228.6 228.2 227.3 235.1 237 240.4 245.1 246.9 246 244.6 243.3 240 237.1 231.1 225.2 225 225.1 225.2 227.2 225.8 226.5 225.7 225.6 225.3 224.7 223.5 226.2 232.6 237.5 246 247.4 250.9 256.5 257.2 256.3 255.5 256.4 254.7 248.1 258.7 255.9 256 255.3 255.3 250.5 246 245 243.8 243.3 242.4 243.2 246.8 246.6 246.4 244.9 243.1 244.5 247.5 252.1 254.3 258.6 254.9 245.5 247.4 246.5 246.4 243.6 247.2 246.4 246.6
467.4 452.3 449.6 446.8 443.1 440.2 446.8 449.4 451.4 453 453.6 451.6 449.8 447.4 445.4 439.7 422.5 417.4 424.5 431.6 437.2 440.5 438.3 432.1 424.3 419.8 424.7 433.7 439.9 442.7 445.1 444.7 446.8 447.5 451 451.5 455.8 461.4 467.6 471.9 473.9 476.2 479.4 482.3 484.8 489.4 496.3 502.5 506.2 511.6 519.9 525.3 535.7 543.5 547.6 547.9 547.6 546.4 543.1 530.8 507.2 485.5 469.1 454.4 436.4 424.5 422.3 417.4 408.9 406.9 403.5 401.2 398.7 395.7 391.4 385 377.6 369.9 362.8 354.9 346.8 338.6 331.6 321.3 314.5 312.5 307.5 306.1 306.3 303.4 300 298.7 296.7 294.3 292.7 289.1 286.1 280.8 274.7 267.6 263.6 262.4 260.9 260.6 259.6 257.2 254.3 252.7 248.3 250.3 250.1 246.2 242.3 235.6 235.1 244.5 247.1 245.6 243.2 237.4 232.3 231.5 230 228.9 228.6 228.2 228.7 227.9 228.1 228.2 228.3 228.4 226.4 228 227.8 230.4 235.9 238.5 240.4 240.3 238.3 237.3 236.4 236.1 232.7 225.3 225.2 225.5 225 225.6 224.9 224.3 225.6 225.7 225.1 224.5 224.6 224.9 225.5 226.3 233 233.2 235 236.1 235.3 237.2 242 240.6 247 248.6 250.2 251.6 253.5 255.7 254.4 249.7 247.1 244.8 243.4 242.5 242 241.1 240.4 240.3 241.1 240.6 239.1 243.2 243.3 242.3 242.7 240.8 239.5 240.2 240 240.6 242 241.5 240.1 239.8
467.6 451.8 446.1 441.7 442.5 445.3 448.5 450.3 452.2 454.2 454.6 455.4 452.5 448.9 437.1 424.7 418.5 434 437.8 441.9 445.7 441.8 435.1 428 423 425.5 437 443.9 447.6 450.2 451.8 454.1 457.4 460.4 465 461.3 468.1 476.3 479.5 481.4 482.4 484.7 487.3 491.5 498.5 506.9 509.6 516.3 518.7 522.7 528.7 536.6 542.6 545.7 547.1 546.2 544 541.4 534.4 519.2 488.7 473.1 463.1 447 431 419.4 416.1 413.2 413.9 411.3 408.8 407.1 404.3 399.9 394.3 387.5 380.9 374.1 367.1 359.9 351.5 345.2 337.2 328.4 319.8 314.6 310.6 309 306.9 305.2 302.6 300.5 298.1 297 295.4 295.4 292.3 289.6 284.6 280.2 275.5 270.3 266.8 264.1 261.7 260.6 257.7 255.6 249.9 248.1 243.5 241.5 238.4 231.9 242.1 242.9 244.3 249.4 246.3 241.7 239.1 232.2 230.8 230.1 228.8 227.7 227.9 227.4 228 228.1 228.2 228.4 226.4 229 228 227.4 229.1 230.5 232.1 233.9 232.7 231.4 230.2 226.7 225.2 225.3 225.4 225.2 225 225.7 225.2 226 224 224 224 224.5 224.2 224.4 224.7 224.7 221.4 223.9 224 224 224.4 224.6 225.1 226.7 234.5 241.5 243.3 243.6 245.7 251.3 252.6 253.4 252.8 251.1 252.4 252.7 250.4 248.1 245 243.9 242 240 238.1 235.5 234.9 235.4 235.9 238.8 236.7 240.4 239.3 241.2 242.4 243.4 242.1 238.3
467.9 459 451 450.5 451.9 451.2 452.7 455.7 458 460.2 460.7 456.5 445.5 433.8 424.8 433.8 438.1 444.2 448.1 452 448.7 440 431.3 426.2 430.4 437.9 446.9 450.4 455.1 457 461.1 467.3 467.7 476.1 479.6 471.9 473.9 484.8 487 489.5 490.6 498.7 506 512.7 515.9 514.5 520.1 524 528.9 535.8 537.3 541.4 543 545.1 544.5 543.3 540.2 534.1 524.8 503 475.7 468.1 453.9 438.8 430.1 420.2 416.7 415.9 415 413.8 412.1 409.9 406.2 401.5 395.2 387.7 379.7 372.1 364.1 356.7 350.1 345.3 338.2 330.8 323.5 317 312.8 310.1 307.3 304.8 302.6 300 296.7 293.7 292.2 292.1 294.4 294.3 291.6 287.5 283.6 279.7 276.9 274.8 271.2 266.7 263.9 259.1 254.8 249.7 244.1 241.5 237.4 234.7 245 245 242.7 246 247.1 246.5 241.9 234.1 230.5 229.9 229.3 228.3 228.8 227.6 227.6 227.9 228.1 228.5 229.4 228.9 228.3 227.4 226.9 227.2 227.3 229.3 229 226.2 225.4 225.5 225.6 225.6 225.7 225.9 226.4 225.7 225.3 224.6 225.8 225.7 224 224.8 225 224.6 224.4 224.3 224.2 224.1 223.1 223.2 221.2 221.2 222.3 224.5 223.1 225.8 225.4 228.6 238.4 243.2 246.4 250 250.7 252.6 254.5 257.1 256.3 254.6 252.8 250.9 247.4 243.1 242 238.4 232.7 232.6 231.9 231 230.8 232.1 235.5 238.1 241.9 244.8 245.3 238.8
462.7 455 459.4 462.6 464.2 466.6 468 470.4 468.8 465.6 459.1 448.5 437.6 443.3 445.9 449.2 452.6 459.7 460.6 455.8 448.3 437.8 428.6 433.7 439.5 448.9 455.4 459.6 463.2 469.7 475.4 480.5 482.7 487.6 489.3 488.1 489.3 491.4 496 499.7 505.3 508.8 516.6 520.5 520.8 522.8 529.9 538.2 544.9 549.5 548.5 547.3 544.9 543.7 541.9 540.6 536 527.1 514.2 489.8 475.5 458.4 444 436.4 429.8 422.8 422.7 422.5 421.3 419.1 415.4 411.5 406.1 399.4 391.5 382.8 374 363.9 356 347 342.1 339.6 334.1 328 321.9 317.3 314 311.7 309.2 306 303 299.5 295.4 291.2 287.5 286.5 286.7 288.8 286.9 284.1 283 280.1 278.3 277 276 271 268.8 262.4 252.5 248.8 252.5 245.8 235.7 240.7 249.5 249.9 243.4 242.9 243.8 242.8 241.4 234.2 230.5 229.8 229.4 228.9 228.6 228.3 228 227.6 227.9 227.9 228.1 230.7 229.4 227.3 227 226.7 226.9 226.6 226.3 225.9 225.6 225.8 226.1 226.2 226.2 225.2 226.1 225.6 225.3 225.8 225.5 224 224.6 223.8 222.3 224.7 224.4 224.3 224.2 224.1 223.8 223.8 224.3 222.8 223.4 222.2 221.8 222.3 221.2 221.2 225 227.9 230.2 231.5 235.9 240 244.4 249.2 253.1 253.6 252.7 250.8 246.2 241.1 237.9 233.6 231 231.4 230.9 229.6 229.2 230.5 227.8 227.8 227.3 226.3 226.3 225.4
466.8 459.2 467.3 468.3 471.3 475 477 475.6 471.5 463.9 452.3 442.7 445.5 451.3 452 456.6 461.2 462.1 459.8 454.6 446.9 433 436.2 442.9 453.3 460.2 463.9 468.6 477.1 481.3 487.2 492.3 494.8 497 498.6 491.1 495.4 494 500 506.5 513.6 519.9 524.2 523.6 525.8 528.2 539.1 545.1 549.3 551.9 550.5 548.1 543.8 539 536.6 534.7 529.2 519.2 502.8 476.8 462.4 450 440 434.4 432.5 432 431.4 430.1 427.5 423.6 417.4 407.7 398.8 389.9 384.6 375.3 365 357.7 346.9 337.8 332.5 328.5 323.6 318.2 312.4 308.9 308 308.4 308.4 308.6 305.2 300.5 295.5 291.1 285.3 280.2 277.1 278.8 275.8 275.1 272.8 270.9 270.8 268.4 268.6 263.8 261.1 255.6 254.7 256.6 253.6 245.1 233.6 246.5 248.4 246.5 244 242.9 245 241.3 238.7 233.5 232 230 229.3 229 229.2 228.7 227.8 227.8 227.7 227.8 227.2 228 227.6 227.4 227 226.9 226.8 226.6 226.3 225.9 225.8 226.1 226.3 225.2 226.6 225.4 226 226.2 226.2 225.4 223.6 225.8 224.8 222.9 225.1 224.2 224.7 224.4 224.2 224 223.4 223.6 223.4 222.6 224.3 223.7 222.5 223.3 224 224 221.2 224.7 225.7 226.3 229.6 232.7 244.1 252.8 257 257.9 255.7 253.3 248.3 242.4 238.7 232.6 229.6 231 230.6 228.7 230.1 227.9 226.6 225.4 226.1 226 224.2 226.2
465.1 466.6 470.2 472.5 475.2 478.6 479.1 475.6 470.1 459 448.6 446.1 450.5 454.9 454.6 457.3 459.4 458 454.4 444.7 444.7 438.7 440.4 453.5 461.3 466.4 473.1 483.5 492.1 493 498.1 507.3 505.8 510.3 516.4 509 503.1 501 507.8 517.4 525.2 527.5 526.8 530.4 531.8 537.3 542.7 545.8 548.3 548.8 550.1 548 542.2 535.5 528.6 523.2 511.4 493.9 480.9 465 457.1 451.4 446 442.7 440.2 438.9 436.3 433.2 427.7 418.9 410.2 401.7 392.6 383.3 376.7 367.5 357 351.1 340.7 330.6 323.7 318.8 313.4 311.1 308.7 305.3 300.1 301.1 301.1 300.8 299.1 296.7 293.8 290.1 286 281.3 276.3 275.5 273.5 270.8 266.5 264.7 262.3 258.5 248.9 241.1 239 239.3 241.1 241 237.6 236.7 239.7 249 251.1 248.5 248.7 250 249.3 249.4 246.6 243 241.9 239.6 236.4 231.4 231.7 232 231.6 228.3 229.1 228.5 227.9 227.8 227.5 227.4 227.3 227.1 226.4 226.6 226.3 226 226.2 226.2 226.1 226.3 225.2 226.3 226.6 226.9 226.2 225.1 223.1 225.3 223.9 222.9 227.8 232.3 230.4 227.8 225.1 224.2 223.8 223.3 222.5 223.2 223.9 223.9 223.4 224 223.5 223.5 223.5 221.2 223.6 225 227.3 234.9 247.2 256.2 259.3 260.3 256 249.1 244.2 240.7 238.1 231.1 227.4 230.9 228.9 226 229.1 227.6 226.3 224.3 226.2 226.1 224.8 225.6
