ncols 200
nrows 125
xllcorner 330000
yllcorner 161650
cellsize 50
-4 -4 -4 -4 -4 -4 -4 -4 -4 -4 -4 -4 -4 -4 -4 -4 -4 -4 -4 -4 -4 -4 -4 -4 -4 -4 -4 -4 -4 -4 -4 -4 -4 -4 -4 -4 -4 -4 -4 -4 -4 -4 -4 -4 -4 -4 -4 -4 -4 -4 -4 -4 -4 -4 -4 -4 -4 -4 -4 -4 -4 -4 -4 -4 -4 -4 -4 -4 -4 -4 -4 -4 -4 -4 -4 -4 -4 -4 -4 -4 -4 -4 -4 -4 -4 -4 -4 -4 -4 -4 -4 -4 -4 -4 -4 -4 -4 -4 -4 -4 -4 -4 -4 -4 -4 -4 -4 -4 -4 -4 -4 -4 -4 -4 -4 -4 -4 -4 -4 -4 -4 -4 -4 -4 -4 -4 -4 -4 -4 -4 -4 -4 -4 -4 -4 -4 -4 -4 -4 -4 -4 -3.3 -2.6 -2 -1.3 -0.7 -0.1 0.5 1.2 1.6 2 2.5 3 3.5 4 6 6.4 6.4 6.5 6.5 6.6 6.4 6.2 6.1 6 5.9 5.9 5.7 5.4 5.2 5.3 5.4 5.7 5.8 5.8 5.7 5.5 5.7 5.9 5.7 5.5 5 5.7 6 6.3 6.6 6.8 7 6.8 6.5 6.2 5.9 5.4 5.4 5.6 5.9 5.9 6 6 6
-4 -4 -4 -4 -4 -4 -4 -4 -4 -4 -4 -4 -4 -4 -4 -4 -4 -4 -4 -4 -4 -4 -4 -4 -4 -4 -4 -4 -4 -4 -4 -4 -4 -4 -4 -4 -4 -4 -4 -4 -4 -4 -4 -4 -4 -4 -4 -4 -4 -4 -4 -4 -4 -4 -4 -4 -4 -4 -4 -4 -4 -4 -4 -4 -4 -4 -4 -4 -4 -4 -4 -4 -4 -4 -4 -4 -4 -4 -4 -4 -4 -4 -4 -4 -4 -4 -4 -4 -4 -4 -4 -4 -4 -4 -4 -4 -4 -4 -4 -4 -4 -4 -4 -4 -4 -4 -4 -4 -4 -4 -4 -4 -4 -4 -4 -4.1 -4 -4.1 -4 -4 -4 -4 -4 -4 -4 -4 -4 -4 -4 -4 -4 -4 -4 -4 -4 -4 -4 -4 -4 -4 -3.3 -2.7 -2.1 -1.5 -0.9 -0.2 0.4 1 1.6 2.2 2.6 2.9 3.4 4 4.5 6.5 6.2 6.2 6.3 6.5 6.4 6.3 6.2 6.2 6.3 6.2 6 5.8 5.5 5.3 4.7 5.4 5.5 5.6 5.7 5.8 5.6 5.7 5.7 5.6 5.5 5.4 5.7 6 6.2 6.4 6.7 6.9 6.6 6.4 6.1 5.8 5.3 5.5 5.7 5.9 5.9 6 6 6
-4 -4 -4 -4 -4 -4 -4 -4 -4 -4 -4 -4 -4 -4 -4 -4 -4 -4 -4 -4 -4 -4 -4 -4 -4 -4 -4 -4 -4 -4 -4 -4 -4 -4 -4 -4 -4 -4 -4 -4 -4 -4 -4 -4 -4 -4 -4 -4 -4 -4 -4 -4 -4 -4 -4 -4 -4 -4 -4 -4 -4 -4 -4 -4 -4 -4 -4 -4 -4 -4 -4 -4 -4 -4 -4 -4 -4 -4 -4 -4 -4 -4 -4 -4 -4 -4 -4 -4 -4 -4 -4 -4 -4 -4 -4 -4 -4 -4 -4 -4 -4 -4 -4 -4 -4 -4 -4 -4 -4 -4 -4 -4 -4 -4 -4.1 -4 -4 -4 -4 -4 -4 -4 -4 -4 -4 -4 -4 -4 -4 -4 -4 -4 -4 -4 -4 -4 -4 -4 -4 -3.3 -2.7 -2.2 -1.6 -1 -0.4 0.2 0.9 1.5 2.1 2.6 3.2 3.5 3.9 4.4 6.7 6.7 6.4 6.2 6.1 6.2 6.4 6.4 6.3 6.3 6.4 6.3 6 5.8 5.6 5.4 5.4 5.4 5.4 5.5 5.5 5.6 5.7 5.7 5.6 5.5 5.4 5.4 5.7 6 6 6 6.3 6.5 6.2 6 5.8 5.7 5.3 5.5 5.7 5.8 6 6 6 6.1
-4 -4 -4 -4 -4 -4 -4 -4 -4 -4 -4 -4 -4 -4 -4 -4 -4 -4 -4 -4 -4 -4 -4 -4 -4 -4 -4 -4 -4 -4 -4 -4 -4 -4 -4 -4 -4 -4 -4 -4 -4 -4 -4 -4 -4 -4 -4 -4 -4 -4 -4 -4 -4 -4 -4 -4 -4 -4 -4 -4 -4 -4 -4 -4 -4 -4 -4 -4 -4 -4 -4 -4 -4 -4 -4 -4 -4 -4 -4 -4 -4 -4 -4 -4 -4 -4 -4 -4 -4 -4 -4 -4 -4 -4 -4 -4 -4 -4 -4 -4 -4 -4 -4 -4 -4 -4 -4 -4 -4 -4 -4 -4 -4 -4 -4 -4 -4 -4 -4 -4 -4 -4 -4 -4 -4 -4 -4 -4 -4 -4 -4 -4 -4 -4 -4 -4 -4 -4 -3.4 -2.8 -2.2 -1.6 -1 -0.4 0.2 0.8 1.4 2 2.6 3.1 3.7 4.1 4.5 7.5 6.8 6.9 7 7 7 6.3 6.2 6.4 6.3 6.4 6.3 6.2 6.1 5.6 5.4 5.4 5.4 5.4 5.4 5.5 5.5 5.6 5.6 5.7 5.6 5.5 5.5 5.4 5.7 5.9 5.9 5.9 5.9 6.1 5.9 5.8 5.7 5.6 5.3 5.5 5.6 5.6 6 6 6.1 6.1
-4 -4 -4 -4 -4 -4 -4 -4 -4 -4 -4 -4 -4 -4 -4 -4 -4 -4 -4 -4 -4 -4 -4 -4 -4 -4 -4 -4 -4 -4 -4 -4 -4 -4 -4 -4 -4 -4 -4 -4 -4 -4 -4 -4 -4 -4 -4 -4 -4 -4 -4 -4 -4 -4 -4 -4 -4 -4 -4 -4 -4 -4 -4 -4 -4 -4 -4 -4 -4 -4 -4 -4 -4 -4 -4 -4 -4 -4 -4 -4 -4 -4 -4 -4 -4 -4 -4 -4 -4 -4 -4 -4 -4 -4 -4 -4 -4 -4 -4 -4 -4 -4 -4 -4 -4 -4 -4 -4 -4 -4 -4 -4 -4 -4 -4 -4 -4 -4 -4 -4 -4 -4 -4 -4 -4 -4 -4 -4 -4 -4 -4 -4 -4 -4 -4 -4 -4 -3.5 -2.8 -2.2 -1.6 -1 -0.4 0.2 0.8 1.3 1.9 2.5 3.1 3.7 4.2 7.9 7.6 6.6 6.9 7.1 7.2 7.1 6.8 6.6 6.2 6.1 6.4 6.3 6.2 6.1 6 5.9 5.5 5.4 5.4 5.4 5.4 5.5 5.5 5.6 5.6 5.6 5.6 5.6 5.5 5.4 5.7 5.8 5.8 5.8 5.8 5.8 5.7 5.6 5.5 5.5 5.3 5.5 5.5 5.5 6.1 6.1 6.1 6.1
-4 -4 -4 -4 -4 -4 -4 -4 -4 -4 -4 -4 -4 -4 -4 -4 -4 -4 -4 -4 -4 -4 -4 -4 -4 -4 -4 -4 -4 -4 -4 -4 -4 -4 -4 -4 -4 -4 -4 -4 -4 -4 -4 -4 -4 -4 -4 -4 -4 -4 -4 -4 -4 -4 -4 -4 -4 -4 -4 -4 -4 -4 -4 -4 -4 -4 -4 -4 -4 -4 -4 -4 -4 -4 -4 -4 -4 -4 -4 -4 -4 -4 -4 -4 -4 -4 -4 -4 -4 -4 -4 -4 -4 -4 -4 -4 -4 -4 -4 -4 -4 -4 -4 -4 -4 -4 -4 -4 -4 -4 -4 -4 -4 -4 -4 -4 -4 -4 -4 -4 -4 -4 -4 -4 -4 -4 -4 -4 -4 -4 -4 -4 -4 -4 -4 -4 -4 -2.9 -2.3 -1.7 -1.1 -0.4 0.2 0.7 1.3 1.9 2.5 3.1 3.7 4.2 7.3 8.4 6.7 6.7 6.9 7 7.2 6.7 6.4 6.2 5.9 5.8 5.9 6.2 6.1 6 5.9 5.8 5.6 5.4 5.4 5.4 5.4 5.5 5.5 5.5 5.6 5.6 5.6 5.6 5.5 5.5 5.6 5.7 5.7 5.8 5.8 5.7 5.6 5.5 5.4 5.4 5.3 5.3 5.3 5.4 6 6.1 6.2 6.2
-4 -4 -4 -4 -4 -4 -4 -4 -4 -4 -4 -4 -4 -4 -4 -4 -4 -4 -4 -4 -4 -4 -4 -4 -4 -4 -4 -4 -4 -4 -4 -4 -4 -4 -4 -4 -4 -4 -4 -4 -4 -4 -4 -4 -4 -4 -4 -4 -4 -4 -4 -4 -4 -4 -4 -4 -4 -4 -4 -4 -4 -4 -4 -4 -4 -4 -4 -4 -4 -4 -4 -4 -4 -4 -4 -4 -4 -4 -4 -4 -4 -4 -4 -4 -4 -4 -4 -4 -4 -4 -4 -4 -4 -4 -4 -4 -4 -4 -4 -4 -4 -4 -4 -4 -4 -4 -4 -4 -4 -4 -4 -4 -4 -4 -4 -4 -4 -4 -4 -4 -4 -4 -4 -4 -4 -4 -4 -4 -4 -4 -4 -4 -4 -4 -4 -3.9 -3.2 -2.4 -1.8 -1.1 -0.5 0.1 0.7 1.3 1.9 2.5 3.1 3.7 4.2 6.4 8.7 6.6 6.3 6.6 6.6 6.7 6.8 6.1 6.1 6 5.9 5.9 5.7 5.7 5.9 5.9 5.8 5.7 5.8 5.7 5.5 5.4 5.4 5.4 5.5 5.5 5.5 5.5 5.5 5.5 5.5 5.5 5.5 5.6 5.8 5.8 5.7 5.6 5.5 5.3 5.3 5.3 5.3 5.3 5.3 5.3 5.8 6.2 6.2 6.2
-4 -4 -4 -4 -4 -4 -4 -4 -4 -4 -4 -4 -4 -4 -4 -4 -4 -4 -4 -4 -4 -4 -4 -4 -4 -4 -4 -4 -4 -4 -4 -4 -4 -4 -4 -4 -4 -4 -4 -4 -4 -4 -4 -4 -4 -4 -4 -4 -4 -4 -4 -4 -4 -4 -4 -4 -4 -4 -4 -4 -4 -4 -4 -4 -4 -4 -4 -4 -4 -4 -4 -4 -4 -4 -4 -4 -4 -4 -4 -4 -4 -4 -4 -4 -4 -4 -4 -4 -4 -4 -4 -4 -4 -4 -4 -4 -4 -4 -4 -4 -4 -4 -4 -4 -4 -4 -4 -4 -4 -4 -4 -4 -4 -4 -4 -4 -4 -4 -4 -4 -4 -4 -4 -4 -4 -4 -4 -4 -4 -4 -4 -4 -4 -4 -4 -3.3 -2.6 -2 -1.2 -0.6 0.1 0.7 1.3 1.9 2.5 3.1 3.7 4.2 6.4 8.7 6.8 6.4 6.1 6.3 6.6 6.8 6.9 6.1 6.2 6.1 6 5.9 5.8 5.7 5.7 5.7 5.7 5.7 5.8 5.9 5.7 5.4 5.4 5.4 5.4 5.5 5.5 5.5 5.5 5.5 5.5 5.5 5.6 5.7 5.9 5.7 5.6 5.5 5.5 5.4 5.3 5.3 5.3 5.3 5.3 5.3 5.7 6.2 6.2 6.2
-4 -4 -4 -4 -4 -4 -4 -4 -4 -4 -4 -4 -4 -4 -4 -4 -4 -4 -4 -4 -4 -4 -4 -4 -4 -4 -4 -4 -4 -4 -4 -4 -4 -4 -4 -4 -4 -4 -4 -4 -4 -4 -4 -4 -4 -4 -4 -4 -4 -4 -4 -4 -4 -4 -4 -4 -4 -4 -4 -4 -4 -4 -4 -4 -4 -4 -4 -4 -4 -4 -4 -4 -4 -4 -4 -4 -4 -4 -4 -4 -4 -4 -4 -4 -4 -4 -4 -4 -4 -4 -4 -4 -4 -4 -4 -4 -4 -4 -4 -4 -4 -4 -4 -4 -4 -4 -4 -4 -4 -4 -4 -4 -4 -4 -4 -4 -4 -4 -4 -4 -4 -4 -4 -4 -4 -4 -4 -4 -4 -4 -4 -4 -4 -4 -3.2 -2.7 -2 -1.4 -0.8 -0.1 0.6 1.2 1.9 2.5 3.1 3.7 4.2 6.4 8.6 6.8 6.6 6.2 6.2 6.4 6.9 7.2 6.9 6.2 6.2 6.2 6.1 6 5.9 5.8 5.7 5.7 5.7 5.6 5.6 5.7 5.7 5.5 5.4 5.4 5.4 5.4 5.4 5.4 5.4 5.4 5.4 5.4 5.5 5.7 5.8 5.9 5.8 5.7 5.7 5.6 5.4 5.3 5.3 5.3 5.3 5.5 5.7 6.2 6.2 6.2
-4 -4 -4 -4 -4 -4 -4 -4 -4 -4 -4 -4 -4 -4 -4 -4 -4 -4 -4 -4 -4 -4 -4 -4 -4 -4 -4 -4 -4 -4 -4 -4 -4 -4 -4 -4 -4 -4 -4 -4 -4 -4 -4 -4 -4 -4 -4 -4 -4 -4 -4 -4 -4 -4 -4 -4 -4 -4 -4 -4 -4 -4 -4 -4 -4 -4 -4 -4 -4 -4 -4 -4 -4 -4 -4 -4 -4 -4 -4 -4 -4 -4 -4 -4 -4 -4 -4 -4 -4 -4 -4 -4 -4 -4 -4 -4 -4 -4 -4 -4 -4 -4 -4 -4 -4 -4 -4 -4 -4 -4 -4 -4 -4 -4 -4 -4 -4 -4 -4 -4 -4 -4 -4 -4 -4 -4 -4 -4 -4 -4 -4 -4 -4 -3.2 -2.5 -2 -1.4 -0.8 -0.1 0.5 1.1 1.8 2.4 3 3.7 4.2 6.4 8.7 6.6 6.4 6.4 6.1 6.5 6.7 6.8 7.1 6.7 6.2 6.2 6.3 6.2 6.1 6 5.8 5.7 5.7 5.6 5.5 5.5 5.6 5.7 5.7 5.7 5.4 5.4 5.4 5.4 5.4 5.4 5.4 5.4 5.4 5.5 5.6 5.7 5.7 5.8 5.8 5.9 5.7 5.4 5.3 5.3 5.3 5.4 5.6 5.9 6.1 6.1 6.1
-4 -4 -4 -4 -4 -4 -4 -4 -4 -4 -4 -4 -4 -4 -4 -4 -4 -4 -4 -4 -4 -4 -4 -4 -4 -4 -4 -4 -4 -4 -4 -4 -4 -4 -4 -4 -4 -4 -4 -4 -4 -4 -4 -4 -4 -4 -4 -4 -4 -4 -4 -4 -4 -4 -4 -4 -4 -4 -4 -4 -4 -4 -4 -4 -4 -4 -4 -4 -4 -4 -4 -4 -4 -4 -4 -4 -4 -4 -4 -4 -4 -4 -4 -4 -4 -4 -4 -4 -4 -4 -4 -4 -4 -4 -4 -4 -4 -4 -4 -4 -4 -4 -4 -4 -4 -4 -4 -4 -4 -4 -4 -4 -4 -4 -4 -4 -4 -4 -4 -4 -4 -4 -4 -4 -4 -4 -4 -4 -4 -4 -4 -4.1 -4.1 -2.8 -1.9 -1.2 -0.8 -0.1 0.5 1.1 1.7 2.4 3 3.6 4.2 6.5 8.7 6.8 6.4 6 6.1 6.3 6.8 6.9 7 6.6 6.2 6.3 6.3 6.4 6.2 6 5.9 5.8 5.7 5.7 5.7 5.7 5.6 5.6 5.7 5.7 5.7 5.7 5.6 5.3 5.3 5.1 5.3 4.7 4.7 5 5.4 5.5 5.5 5.6 5.6 5.7 5.7 5.6 5.4 5.3 5.3 5.3 5.4 5.7 5.9 6 6 6
-4 -4 -4 -4 -4 -4 -4 -4 -4 -4 -4 -4 -4 -4 -4 -4 -4 -4 -4 -4 -4 -4 -4 -4 -4 -4 -4 -4 -4 -4 -4 -4 -4 -4 -4 -4 -4 -4 -4 -4 -4 -4 -4 -4 -4 -4 -4 -4 -4 -4 -4 -4 -4 -4 -4 -4 -4 -4 -4 -4 -4 -4 -4 -4 -4 -4 -4 -4 -4 -4 -4 -4 -4 -4 -4 -4 -4 -4 -4 -4 -4 -4 -4 -4 -4 -4 -4 -4 -4 -4 -4 -4 -4 -4 -4 -4 -4 -4 -4 -4 -4 -4 -4 -4 -4 -4 -4 -4 -4 -4 -4 -4 -4 -4 -4 -4 -4 -4 -4 -4 -4 -4 -4 -4 -4 -4 -4 -4 -4 -4 -4 -4 -3.8 -2.6 -1.3 -0.6 0 0.5 1.1 1.7 2.4 3 3.6 4.2 6.7 8.6 6.8 6.8 6.8 6.1 6.2 6.6 7.1 7 6.5 6.1 6.2 6.3 6.4 6.5 6.5 6 5.9 5.8 5.7 5.7 5.7 5.7 5.7 5.6 5.7 5.7 5.8 5.8 5.8 5.9 5.8 5.8 5.7 5.6 5.9 5.8 5.5 5.5 5.4 5.4 5.4 5.5 5.5 5.5 5.4 5.4 5.3 5.3 5.3 5.5 5.7 5.9 5.9 6
-4 -4 -4 -4 -4 -4 -4 -4 -4 -4 -4 -4 -4 -4 -4 -4 -4 -4 -4 -4 -4 -4 -4 -4 -4 -4 -4 -4 -4 -4 -4 -4 -4 -4 -4 -4 -4 -4 -4 -4 -4 -4 -4 -4 -4 -4 -4 -4 -4 -4 -4 -4 -4 -4 -4 -4 -4 -4 -4 -4 -4 -4 -4 -4 -4 -4 -4 -4 -4 -4 -4 -4 -4 -4 -4 -4 -4 -4 -4 -4 -4 -4 -4 -4 -4 -4 -4 -4 -4 -4 -4 -4 -4 -4 -4 -4 -4 -4 -4 -4 -4 -4 -4 -4 -4 -4 -4 -4 -4 -4 -4 -4 -4 -4 -4 -4 -4 -4 -4 -4 -4 -4 -4 -4 -4 -4 -4 -4 -4 -4 -4 -4 -3.6 -2.3 -1.1 0.1 0.8 1.2 1.8 2.4 3 3.6 4.3 6.9 8.7 6.6 6.7 6.7 6.8 6.8 6.5 6.9 6.4 6.1 6 6.1 6.1 6.2 6.3 6.3 6.4 6 5.9 5.8 5.8 5.7 5.7 5.7 5.7 5.7 5.7 5.8 5.8 5.8 5.9 5.9 5.9 5.9 5.9 5.9 5.9 5.9 5.7 5.7 6.1 5.5 4.6 5.3 4.6 5.2 4.8 4.6 5.4 5.4 5.4 5.2 5.4 5.6 6.2 6.2
-4 -4 -4 -4 -4 -4 -4 -4 -4 -4 -4 -4 -4 -4 -4 -4 -4 -4 -4 -4 -4 -4 -4 -4 -4 -4 -4 -4 -4 -4 -4 -4 -4 -4 -4 -4 -4 -4 -4 -4 -4 -4 -4 -4 -4 -4 -4 -4 -4 -4 -4 -4 -4 -4 -4 -4 -4 -4 -4 -4 -4 -4 -4 -4 -4 -4 -4 -4 -4 -4 -4 -4 -4 -4 -4 -4 -4 -4 -4 -4 -4 -4 -4 -4 -4 -4 -4 -4 -4 -4 -4 -4 -4 -4 -4 -4 -4 -4 -4 -4 -4 -4 -4 -4 -4 -4 -4 -4 -4 -4 -4 -4 -4 -4 -4 -4 -4 -4 -4 -4 -4 -4 -4 -4 -4 -4 -4 -4 -4 -4 -4 -4 -3.3 -2.1 -0.8 0.4 1.4 2 2.5 3 3.6 4.3 6.8 8.8 6.7 6.4 6.5 6.8 6.9 6.9 6.9 6.7 6 5.9 6 6 6 6 6.1 6.2 6.2 5.9 5.8 5.8 5.7 5.7 5.7 5.8 5.8 5.8 5.7 5.8 5.8 5.8 5.9 5.9 5.9 5.9 5.9 5.9 5.9 5.9 5.9 5.9 5 4.3 3.9 4.3 6.3 5.8 5.7 5.4 5.3 5.7 5.5 5.3 5.3 5.4 5.9 6.5
-4 -4 -4 -4 -4 -4 -4 -4 -4 -4 -4 -4 -4 -4 -4 -4 -4 -4 -4 -4 -4 -4 -4 -4 -4 -4 -4 -4 -4 -4 -4 -4 -4 -4 -4 -4 -4 -4 -4 -4 -4 -4 -4 -4 -4 -4 -4 -4 -4 -4 -4 -4 -4 -4 -4 -4 -4 -4 -4 -4 -4 -4 -4 -4 -4 -4 -4 -4 -4 -4 -4 -4 -4 -4 -4 -4 -4 -4 -4 -4 -4 -4 -4 -4 -4 -4 -4 -4 -4 -4 -4 -4 -4 -4 -4 -4 -4 -4 -4 -4 -4 -4 -4 -4 -4 -4 -4 -4 -4 -4 -4 -4 -4 -4 -4 -4 -4 -4 -4 -4 -4 -4 -4 -4 -4 -4 -4.1 -4.1 -4.1 -4 -4 -4 -3.1 -1.8 -0.6 0.7 1.9 2.7 3.2 3.7 4.3 7.2 8.4 6.8 6.8 6.3 6.4 6.6 6.9 6.6 6.2 6.1 6 5.9 5.9 6 6 5.9 6 6 6 5.9 5.8 5.8 5.8 5.8 5.8 5.9 5.8 5.8 5.8 5.8 5.8 5.9 5.9 5.9 5.9 5.9 5.9 5.5 5.7 5.8 5.9 5 5 3.9 3.9 5.2 5.9 5.7 5.6 5.5 5.4 5.5 5.5 5.3 5.3 5.4 5.9 6.3
-4 -4 -4 -4 -4 -4 -4 -4 -4 -4 -4 -4 -4 -4 -4 -4 -4 -4 -4 -4 -4 -4 -4 -4 -4 -4 -4 -4 -4 -4 -4 -4 -4 -4 -4 -4 -4 -4 -4 -4 -4 -4 -4 -4 -4 -4 -4 -4 -4 -4 -4 -4 -4 -4 -4 -4 -4 -4 -4 -4 -4 -4 -4 -4 -4 -4 -4 -4 -4 -4 -4 -4 -4 -4 -4 -4 -4 -4 -4 -4 -4 -4 -4 -4 -4 -4 -4 -4 -4 -4 -4 -4 -4 -4 -4 -4 -4 -4 -4 -4 -4 -4 -4 -4 -4 -4 -4 -4 -4 -4 -4 -4 -4 -4 -4 -4 -4 -4 -4 -4 -4 -4 -4 -4 -4 -4 -4.1 -4 -4.1 -4 -4 -4 -2.7 -1.2 0.1 1.1 2.1 3.4 4 4.5 7.1 7.9 6.6 6.7 6.8 6.5 6.3 6.5 6.7 5.9 6 6 5.9 5.9 5.9 5.9 6 5.9 5.8 5.9 5.9 5.9 5.8 5.7 5.8 5.8 5.9 5.9 5.9 5.8 5.8 5.8 5.8 5.9 5.9 5.9 5.9 5.9 5.9 5.8 5 5.5 5.7 5.6 6.8 5.5 5.3 5.7 5.8 5.6 5.5 5.4 5.3 5.3 5.3 5.3 5.3 5.3 5.8 6.1
-4 -4 -4 -4 -4 -4 -4 -4 -4 -4 -4 -4 -4 -4 -4 -4 -4 -4 -4 -4 -4 -4 -4 -4 -4 -4 -4 -4 -4 -4 -4 -4 -4 -4 -4 -4 -4 -4 -4 -4 -4 -4 -4 -4 -4 -4 -4 -4 -4 -4 -4 -4 -4 -4 -4 -4 -4 -4 -4 -4 -4 -4 -4 -4 -4 -4 -4 -4 -4 -4 -4 -4 -4 -4 -4 -4 -4 -4 -4 -4 -4 -4 -4 -4 -4 -4 -4 -4 -4 -4 -4 -4 -4 -4 -4 -4 -4 -1.9 -4 -4 -4 -4 -4 -4 -4 -4 -4 -4 -4 -4 -4 -4 -4 -4 -4 -4 -4 -4 -4 -4 -4 -4 -3.4 -3.3 -4.1 -4 -4 -4 -4.1 -4.1 -4 -4 -1.9 -0.3 1.1 2.4 3.4 4.3 5.6 7.3 7.3 6.8 6.7 6.8 6.8 6.6 6.2 6.3 6.2 5.4 6 5.9 5.9 5.9 5.9 5.9 5.9 5.9 5.8 5.8 5.9 5.8 5.8 5.8 5.9 5.9 6 6 5.9 5.9 5.9 5.9 5.9 5.9 5.9 5.9 5.9 5.9 5.9 5.9 5.2 5.3 5.5 6.4 6.6 6.7 6.5 6.2 5.7 5.6 5.5 5.4 5.3 5.3 5.4 5.7 5.5 5.3 5.6 5.9
-4 -4 -4 -4 -4 -4 -4 -4 -4 -4 -4 -4 -4 -4 -4 -4 -4 -4 -4 -4 -4 -4 -4 -4 -4 -4 -4 -4 -4 -4 -4 -4 -4 -4 -4 -4 -4 -4 -4 -4 -4 -4 -4 -4 -4 -4 -4 -4 -4 -4 -4 -4 -4 -4 -4 -4 -4 -4 -4 -4 -4 -4 -4 -4 -4 -4 -4 -4 -4 -4 -4 -4 -4 -4 -4 -4 -4 -4 -4 -4 -4 -4 -4 -4 -4 -4 -4 -4 -4 -4 -4 -1.5 0 1.1 1.6 1 1.3 1.3 -1 -4 -4 -4 -4 -4 -4 -4 -4 -4 -4 -4 -4 -4 -4 -4 -4 -4 -4 -4 -4 -4 -3.1 -2.7 -2.4 -2.1 -2.9 -3.7 -4 -4.1 -4 -4 -4 -2.8 -1.2 0.4 1.9 3.5 4.7 6.5 7.8 6.8 6.8 6.8 6.8 6.8 6.9 6.8 6.1 6.2 6.1 6 5.9 5.9 5.9 5.9 5.8 5.9 5.9 5.9 5.9 5.8 5.9 5.8 5.8 5.8 5.9 6 6 6.1 6 5.9 5.9 5.9 5.9 5.9 5.9 5.9 5.9 5.9 5.9 5.9 5.7 5.4 5.3 5.4 5.9 6.2 5.7 5.7 5.6 5.6 5.5 5.4 5.3 5.3 5.5 5.8 5.7 5.3 5.4 5.7
-4 -4 -4 -4 -4 -4 -4 -4 -4 -4 -4 -4 -4 -4 -4 -4 -4 -4 -4 -4 -4 -4 -4 -4 -4 -4 -4 -4 -4 -4 -4 -4 -4 -4 -4 -4 -4 -4 -4 -4 -4 -4 -4 -4 -4 -4 -4 -4 -4 -4 -4 -4 -4 -4 -4 -4 -4 -4 -4 -4 -4 -4 -4 -4 -4 -4 -4 -4 -4 -4 -4 -4 -4 -4 -4 -4 -4 -4 -4 -4 -4 -4 -4 -4 -4 -4 -4 -4 -4 -1.2 0.6 2.3 3.7 9 12.3 4.5 9.6 5.6 0.7 -4 -4 -4 -4 -4 -4 -4 -4 -4 -4 -4 -4 -4 -4 -4 -4 -4 -4 -4 -3.2 -2.6 -2.1 -1.6 -1.4 -1 -1.6 -2.4 -3.2 -4 -4 -4 -4 -2 -0.3 1.1 2.7 4.3 6.7 7.5 6.8 6.8 6.8 6.8 6.8 6.9 6.9 6.6 6.1 6.1 6.1 6 5.9 5.9 5.9 5.8 5.8 5.8 5.9 5.9 5.9 5.9 5.8 5.7 5.6 5.8 6 6.1 6.1 6.2 6.1 6 6.1 6.1 6.1 6.1 6.1 5.8 5.8 5.7 5.7 5.9 5.7 5.4 5.3 5.3 5.6 5.7 5.5 5.6 5.6 5.6 5.6 5.5 5.4 5.3 5.3 5.6 5.7 5.3 5.3 5.5
-4 -4 -4 -4 -4 -4 -4 -4 -4 -4 -4 -4 -4 -4 -4 -4 -4 -4 -4 -4 -4 -4 -4 -4 -4 -4 -4 -4 -4 -4 -4 -4 -4 -4 -4 -4 -4 -4 -4 -4 -4 -4 -4 -4 -4 -4 -4 -4 -4 -4 -4 -4 -4 -4 -4 -4 -4 -4 -4 -4 -4 -4 -4 -4 -4 -4 -4 -4 -4 -4 -4 -4 -4 -4 -4 -4 -4 -4 -4 -4 -4 -4 -4 -4 -4 -4 -4 -0.6 1.2 2.6 3.8 12.7 17.5 22 23.9 17.4 13.7 7.6 1.1 -1.9 -4 -4 -4 -4 -4 -4 -4 -4 -4 -4 -4 -4 -4 -4 -4 -3.2 -2.8 -2.4 -2 -1.6 -1 -0.5 -0.3 -0.1 -0.3 -1.1 -1.9 -2.7 -3.5 -4 -2.4 -0.5 0.8 2.3 3.8 6.7 7.6 6.8 6.8 6.8 6.8 6.8 6.9 6.9 6.5 6.2 6 6 5.9 5.9 5.8 5.8 5.8 5.8 5.8 5.8 5.8 5.8 5.8 5.8 5.9 5.9 5.7 6.3 6.5 6.4 6.3 6.2 6 5.9 6.3 6.7 6.7 5.9 5.5 4.6 5.4 5.5 5.7 5.8 5.6 5.4 5.3 5.3 5.3 4.6 5.4 5.5 5.6 5.6 5.6 5.6 5.5 5.4 5.3 5.5 5.8 5.3 5.4 5.4
-4 -4 -4 -4 -4 -4 -4 -4 -4 -4 -4 -4 -4 -4 -4 -4 -4 -4 -4 -4 -4 -4 -4 -4 -4 -4 -4 -4 -4 -4 -4 -4 -4 -4 -4 -4 -4 -4 -4 -4 -4 -4 -4 -4 -4 -4 -4 -4 -4 -4 -4 -4 -4 -4 -4 -4 -4 -4 -4 -4 -4 -4 -4 -4 -4 -4 -4 -4 -4 -4 -4 -4 -4 -4 -4 -4 -4 -4 -4 -4 -4 -4 -4 -4 -4 -0.4 1.6 3.7 13.2 16.8 19.8 22.4 23.2 24.8 26.6 22.8 14.7 12.2 2.9 -1 -4 -3.4 -2.7 -2.2 -2.5 -2.7 -2.9 -2.9 -3 -3.1 -3 -2.9 -2.7 -2.5 -2.2 -1.9 -1.5 -1.2 -0.8 -0.5 0.1 0.5 0.8 0.9 1 0.2 -0.6 -1.4 -2.3 -4 -1.9 0.5 2.3 3.6 6.7 7.4 6.8 6.8 6.8 6.8 6.8 6.8 6.9 6.7 6.2 6.3 6.2 6.1 5.9 5.8 5.7 5.7 5.8 5.8 5.8 5.8 5.8 5.8 5.8 5.8 5.9 6 6 6.3 6.4 6.3 6.2 6 5.8 5.7 6 6.6 5.5 5.5 5.4 5.4 5.4 5.4 5.8 5.7 5.5 5.4 5.3 5.3 5.3 5.3 5.4 5.5 4.8 5.6 5.6 5.6 5.5 5.4 5.3 5.4 5.7 5.3 5.4 5.4
-4 -4 -4 -4 -4 -4 -4 -4 -4 -4 -4 -4 -4 -4 -4 -4 -4 -4 -4 -4 -4 -4 -4 -4 -4 -4 -4 -4 -4 -4 -4 -4 -4 -4 -4 -4 -4 -4 -4 -4 -4 -4 -4 -4 -4 -4 -4 -4 -4 -4 -4 -4 -4 -4 -4 -4 -4 -4 -4 -4 -4 -4 -4 -4 -4 -4 -4 -4 -4 -4 -4 -4 -4 -4 -4 -4 -4 -4 -4 -4 -4 -4 -4 -0.6 1.5 3.7 16.8 25.1 28.7 27.1 24.6 25.9 25.7 24.8 24.7 19.3 14.3 10.6 2.8 -4 -4 -1.7 -1 -0.8 -1.3 -1.6 -1.7 -1.7 -1.8 -1.8 -1.7 -1.6 -1.4 -1.2 -0.9 -0.6 -0.3 0.1 0.4 0.7 1.1 1.6 1.9 2 2.1 1.5 0.6 -0.2 -1.6 -4 -1.6 1.1 3.6 6.7 7.4 6.8 6.8 6.9 6.9 6.8 6.8 6.9 6.8 6.5 6.4 6.5 6.4 6.2 6.1 5.9 5.7 5.7 5.8 5.8 5.8 5.7 5.8 5.8 5.8 5.9 5.9 5.9 5.8 6.1 6.2 6.1 6 5.8 5.6 5.6 5.6 5.9 5.5 5.5 5.5 5.4 5.4 5.4 5.6 5.5 5.4 5.3 5.3 5.3 5.3 5.3 5.3 5.3 5.6 5.6 5.6 5.5 5.5 5.5 5.4 5.4 5.6 5.3 5.3 5.7
-4 -4 -4 -4 -4 -4 -4 -4 -4 -4 -4 -4 -4 -4 -4 -4 -4 -4 -4 -4 -4 -4 -4 -4 -4 -4 -4 -4 -4 -4 -4 -4 -4 -4 -4 -4 -4 -4 -4 -4 -4 -4 -4 -4 -4 -4 -4 -4 -4 -4 -4 -4 -4 -4 -4 -4 -4 -4 -4 -4 -4 -4 -4 -4 -4 -4 -4 -4 -4 -4 -4 -4 -4 -4 -4 -4 -4 -4 -4 -4 -4 -1 1.2 3.3 17 27.5 33.5 33 31.4 30.5 29.5 27.3 25.6 24.5 23.8 22 15.1 12.7 3.4 -4 -1.4 0 0.7 0.4 -0.1 -0.4 -0.5 -0.5 -0.5 -0.5 -0.4 -0.3 -0.1 0.2 0.4 0.7 1 1.3 1.6 1.9 2.3 2.7 3 3.1 3.2 2.7 1.9 0.6 -0.9 -4 -1.6 2.1 5.5 7.4 6.8 6.8 6.8 6.9 6.9 6.8 6.6 6.4 6.5 6.2 6.7 6.7 6.5 6.4 6.1 5.9 5.8 5.8 5.8 5.8 5.9 5.9 5.7 5.7 5.8 5.9 5.9 4.6 5.7 5.9 6.1 6 5.8 5.6 5.5 5.4 4.4 5.6 5.6 5.6 5.5 5.5 5.5 5.4 5.3 5.3 5.3 5.3 5.3 5.3 5.3 5.3 5.3 5.3 5.5 5.6 5.5 5.4 5.4 5.5 5.4 5.3 5.6 5.4 5.3 5.4
-4 -4 -4 -4 -4 -4 -4 -4 -4 -4 -4 -4 -4 -4 -4 -4 -4 -4 -4 -4 -4 -4 -4 -4 -4 -4 -4 -4 -4 -4 -4 -4 -4 -4 -4 -4 -4 -4 -4 -4 -4 -4 -4 -4 -4 -4 -4 -4 -4 -4 -4 -4 -4 -4 -4 -4 -4 -4 -4 -4 -4 -4 -4 -4 -4 -4 -4 -4 -4 -4 -4 -4 -4 -4 -4 -4 -4 -4 -4 -1.5 0.8 2.9 14.3 24.7 31.6 34 34.4 34.2 34.1 33.6 31.3 29 27.2 25.9 23.2 18.3 13.1 4.5 -4 -4 0 1.7 2.1 1.5 1.1 0.7 0.7 0.7 0.7 0.7 0.9 1.1 1.2 1.5 1.7 2 2.3 2.6 2.9 3.2 3.4 3.8 4.1 4.2 4.2 4 3.4 2.3 0.6 -4 -4 3.6 6.1 6.7 6.8 6.8 6.8 6.9 6.7 5.4 5.9 6.2 6.2 5.5 4.1 4.1 6.6 6.3 6 5.9 5.8 5.8 5.9 5.9 6 6 5.9 5.6 5.6 5.7 5.8 5.7 5.7 5.7 5.9 5.8 5.6 5.4 5.3 5.8 5.5 5.6 5.7 5.7 5.6 5.5 5.5 5.4 5.4 5.3 5.3 5.3 5.3 5.3 5.3 5.3 5.4 5.4 4.8 5.5 5.4 5.3 5.4 5.4 5.4 5.3 5.5 5.4 5.3 5.3
-4 -4 -4 -4 -4 -4 -4 -4 -4 -4 -4 -4 -4 -4 -4 -4 -4 -4 -4 -4 -4 -4 -4 -4 -4 -4 -4 -4 -4 -4 -4 -4 -4 -4 -4 -4 -4 -4 -4 -4 -4 -4 -4 -4 -4 -4 -4 -4 -4 -4 -4 -4 -4 -4 -4 -4 -4 -4 -4 -4 -4 -4 -4 -4 -4 -4 -4 -4 -4 -4 -4 -4 -4 -4 -4 -4 -4 -1.6 0 1.7 4.1 20.6 28.9 33.3 34.8 35.5 35.7 35.6 34.8 32.9 31.8 30.6 29.2 27.1 21.3 13.7 6.3 4.9 -4 -0.4 1.6 3.3 3.3 2.6 2.1 1.9 1.8 1.9 2 2 2.2 2.4 2.5 2.8 3 3.3 3.6 3.9 4.1 4.4 5.5 7.3 5.5 5.6 6.5 6.3 6.8 5.4 3.9 2.4 -4 2.3 5.7 6.3 6.8 6.8 6.8 6.5 6.3 6 5.9 6.1 4.1 4.1 4.1 4.1 5.8 6.2 6.1 6 5.9 5.9 6 6 6 6.1 6.1 5.8 5.5 5.4 5.8 5.8 5.8 5.8 5.8 5.6 5.5 5.4 5.3 5.9 5 5.6 5.7 5.7 5.6 5.6 5.5 5.5 5.4 5.3 5.3 5.3 5.3 5.3 5.3 5.4 5.4 5.4 5.4 4.7 5.3 5.3 5.3 5.3 5.4 5.3 5.4 5.4 5.6 5.3
-4 -4 -4 -4 -4 -4 -4 -4 -4 -4 -4 -4 -4 -4 -4 -4 -4 -4 -4 -4 -4 -4 -4 -4 -4 -4 -4 -4 -4 -4 -4 -4 -4 -4 -4 -4 -4 -4 -4 -4 -4 -4 -4 -4 -4 -4 -4 -4 -4 -4 -4 -4 -4 -4 -4 -4 -4 -4 -4 -4 -4 -4 -4 -4 -4 -4 -4 -4 -4 -4 -4 -4 -4 -4 -2.8 -1.8 -0.5 1.3 2.9 5.9 19.2 31.5 37.2 38.3 37.6 36.8 36.2 35.8 34.7 34 33.1 32 31.2 29.5 22.7 14 5.9 4.6 -4 0.5 4.5 5.2 4.4 3.7 3.3 3 3 3.1 3.2 3.3 3.5 3.7 3.8 4.1 4.3 5.3 7.7 5.8 5.7 5.6 5.6 6 6.2 6 6.6 6.4 6.7 6.6 5.5 6.4 3.4 -4 -4 3.9 4.5 6.6 6.8 7 6.5 6.4 5.4 5.4 5.5 4.1 4.1 4.1 4.1 6.3 6.2 6.1 6 5.8 5.9 6 6.1 6.1 6.2 6.1 5.9 5.7 5.8 5.8 5.8 5.7 5.7 5.6 5.5 5.3 6.4 6.3 5.6 5.6 5.7 5.7 5.7 5.7 5.6 5.5 5.4 5.3 5.3 5.4 4.6 5.3 5.3 5.4 5.4 5.4 5.4 5.4 5.3 5.3 5.4 5.5 5.4 5.4 5.3 5.3 5.3 5.4
-4 -4 -4 -4 -4 -4 -4 -4 -4 -4 -4 -4 -4 -4 -4 -4 -4 -4 -4 -4 -4 -4 -4 -4 -4 -4 -4 -4 -4 -4 -4 -4 -4 -4 -4 -4 -4 -4 -4 -4 -4 -4 -4 -4 -4 -4 -4 -4 -4 -4 -4 -4 -4 -4 -4 -4 -4 -4 -4 -4 -4 -4 -4 -4 -4 -4 -4 -4 -4 -4 -4 -4 -2.4 -1.5 -0.5 0.6 1.6 3.6 9.5 14.5 24.4 40.1 39.7 38.7 38.1 37.3 37 36.1 35.1 34.2 33.3 32.4 31 27.5 22.5 14.7 5.8 2.7 -4 4.5 5.6 5.9 6 5.3 4.4 4.2 4.2 4.4 4.4 5.1 6.8 6.5 5.4 4.8 5.8 5.8 5.9 5.7 5.9 5.9 5.9 6.5 6.5 6.5 6.6 7.7 6.9 7.8 6.6 6.5 6.1 4.1 -4 -4 -4 -4 4.1 8.1 7.7 6.7 6.3 5.4 5.4 5.4 4.1 4.1 4.2 6 6.2 6.3 6.2 5.7 5.7 5.8 5.9 6 6.1 6 4.8 5.6 5.7 5.7 5.7 5.7 5.6 5.6 5.5 6 6.3 6.3 5.7 5.6 5.7 5.7 5.8 5.7 5.7 5.6 5.5 5.4 5.3 5.4 5.4 5.4 5.4 5.4 5.4 5.4 5.4 5.4 5.4 5.4 5.4 5.6 5.3 5.3 5.3 5.3 5.3 5.3
-4 -4 -4 -4 -4 -4 -4 -4 -4 -4 -4 -4 -4 -4 -4 -4 -4 -4 -4 -4 -4 -4 -4 -4 -4 -4 -4 -4 -4 -4 -4 -4 -4 -4 -4 -4 -4 -4 -4 -4 -4 -4 -4 -4 -4 -4 -4 -4 -4 -4 -4 -4 -4 -4 -4 -4 -4 -4 -4 -4 -4 -4 -4 -4 -4 -4 -4 -4 -4 -2.5 -1.9 -1.3 -0.3 0.8 1.8 3 4.1 4.5 13.6 18.8 37.3 40.2 39.5 38.5 37.5 36.6 35.3 34.9 34 32.4 30.3 27.2 24.7 21.5 17.2 10.2 5.1 -4 -4 5.6 7.4 6.5 6.6 6.6 6.5 6.4 6.6 6.4 6.4 6.3 6.3 6.3 6.5 6.3 6.1 6.1 6.1 5.8 6.6 7.8 7.8 7.3 7.1 5.8 7 7.5 6.4 6.5 6.7 6.5 6.3 6.6 6.8 7.3 -4 -4 -4 3.7 4.9 4.9 7.4 6.2 5.9 5.6 5.3 4.1 4.1 5.5 5.8 6 6.3 5.9 5.6 5.7 5.8 5.9 5.9 5.7 5.3 5.1 5.6 5.5 5.4 5.6 5.3 5.4 5.6 5.8 6.2 6.3 5.8 5.6 5.6 5.7 5.8 5.8 5.7 5.6 5.5 5.4 5.4 5.4 5.5 5.5 5.4 5.4 5.4 5.5 5.6 5.4 5.3 5.4 5.7 5.8 5.5 5.3 5.3 5.3 5.3 5.3
-4 -4 -4 -4 -4 -4 -4 -4 -4 -4 -4 -4 -4 -4 -4 -4 -4 -4 -4 -4 -4 -4 -4 -4 -4 -4 -4 -4 -4 -4 -4 -4 -4 -4 -4 -4 -4 -4 -4 -4 -4 -4 -4 -4 -4 -4 -4 -4 -4 -4 -4 -4 -4 -4 -4 -4 -4 -4 -4 -4 -4 -4 -4 -4 -2.3 -1.8 -1.3 -0.6 -0.2 -0.3 -0.1 0.6 1.4 2.6 4 9.1 14.5 15.3 17.9 23.6 32.4 34 34 31.6 30.9 30.3 31.2 31 29.6 27.2 23.6 20.5 17.2 14.2 9.5 5.5 4.9 -4 -4 -4 7.4 6.2 6.4 6.6 6.7 6.6 6.3 6.3 6.8 6.6 6.2 6.3 6.6 6.3 6.4 5.9 7.2 6.8 5.9 5.8 6.2 5.8 5.8 5.1 5.3 7 6.3 6.4 6.5 6.2 6 6.3 6.1 6.1 7.9 5.9 2.3 -4 4.6 4.9 4.9 5.1 5.6 6.2 5.8 5.8 5.6 5.6 5.8 6 6.3 5.7 5.5 5.6 5.6 5.7 5.7 5.5 5.3 5.4 5.2 5.5 5.5 5.2 5.3 5.5 5.6 5.6 6 6.3 5.7 5.6 5.7 5.7 5.8 5.7 5.7 5.6 5.5 5.4 5.4 5.5 5.6 5.5 5.4 5.6 5.5 5.6 5.6 5.4 5.3 5.4 5.7 5.8 5.5 5.4 5.4 5.3 5.3 5.3
-4 -4 -4 -4 -4 -4 -4 -4 -4 -4 -4 -4 -4 -4 -4 -4 -4 -4 -4 -4 -4 -4 -4 -4 -4 -4 -4 -4 -4 -4 -4 -4 -4 -4 -4 -4 -4 -4 -4 -4 -4 -4 -4 -4 -4 -4 -4 -4 -4 -4 -4 -4 -4 -4 -4 -4 -4 -4 -4 -4 -4 -0.8 -0.3 0.3 0.5 0.9 1.5 2.3 2.3 1.9 1.9 2.5 3.1 4.3 12.7 14.8 18.4 26.2 28.2 32 30.6 29 28.2 27.2 26.8 26.3 25.8 24.9 23.6 21.4 17.8 14.9 11.8 9.4 6.3 6.9 4.5 -4 -4 -4 -4 6.6 4.6 6.8 6.9 6.8 6.5 6.9 7 5.7 5.7 5.7 5.7 6.6 5.9 5.8 5.9 5.9 6 6 5.3 5.8 5.8 6 6.6 6.4 6.4 6.4 6.4 5.9 4.2 4.2 4.2 6 6.3 6.8 6.2 -4 -4 3.3 5.9 8 4.9 6 6.5 6.2 6 6 6 6.1 6.4 7 6.5 5.4 5.4 5.5 5.6 5.3 5.7 5.4 5.3 5.2 5.7 5.7 5.5 5.5 5.6 5.6 5.5 5.6 5.6 5.6 5.7 5.8 5.8 5.6 5.6 5.5 5.4 5.4 5.6 5.7 5.7 5.6 5.4 5.7 5.6 5.6 5.5 5.4 5.3 5.5 5.7 5.7 5.5 5.5 5.5 5.5 5.4 5.3
-4 -4 -4 -4 -4 -4 -4 -4 -4 -4 -4 -4 -4 -4 -4 -4 -4 -4 -4 -4 -4 -4 -4 -4 -4 -4 -4 -4 -4 -4 -4 -4 -4 -4 -4 -4 -4 -4 -4 -4 -4 -4 -4 -4 -4 -4 -4 -4 -4 -4 -4 -4 -4 -4 -4 -4 -4 -0.9 1.1 2.7 3.8 3.2 2.9 3.3 3.3 3.6 4.3 6.5 4.2 4.1 4.1 4.3 15.9 23.4 28.5 28.7 30.6 30.7 29.9 28.9 26.8 25.6 24.8 24.3 23.8 23.4 22.7 21.4 19.8 17.6 14.1 11.7 9.2 7.8 6.3 6.9 4.5 4.5 4.3 6.1 -4 -4 -4 5.6 7.9 7.9 6.8 5.9 6.1 6.1 6 5.9 5.8 5.6 5.9 6 6.1 5.9 6.2 6.5 6.1 5.8 5.8 5.8 6.6 6.5 6.1 6 6 4.2 4.2 4.2 4.2 4.2 5.7 6.3 6.5 5 -4 -4 -4 -4 3.5 4.9 4.9 4.9 6.7 6.3 6.3 8 4.7 5.5 5.5 5.1 6 7.3 5.2 5.2 5.5 5.4 5.3 5.2 5.7 5.7 5.6 5.6 5.6 5.6 5.6 5.7 6 5.7 5.7 5.7 5.7 5.5 5.5 5.4 5.4 5.5 5.7 5.7 5.7 5.7 5.7 5.7 5.7 5.6 5.4 5.4 5.4 5.5 5.7 5.7 5.6 5.7 5.1 5.6 5.5 5.5
-4 -4 -4 -4 -4 -4 -4 -4 -4 -4 -4 -4 -4 -4 -4 -4 -4 -4 -4 -4 -4 -4 -4 -4 -4 -4 -4 -4 -4 -4 -4 -4 -4 -4 -4 -4 -4 -4 -4 -4 -4 -4 -4 -4 -4 -4 -4 -4 -4 -4 -4 -4 -4 -4 -1.3 0.3 1.8 3.4 6.4 12.9 14.7 14.8 13.7 10.9 14.7 15.8 20.6 15.1 7.3 4.5 5.3 17.8 20.6 22.9 25.4 26.5 26.4 26.2 25.7 25.3 24.2 23.7 22.2 21.4 20.9 20.4 19 17.6 15.9 13.8 10.9 8.9 7.6 7 7.3 4.5 4.5 8.3 6.1 6.1 7.2 6.2 -4 -4 9.1 6.5 6.4 6.1 6.1 6.1 6.2 6.1 6 5.5 5.7 6.1 6.2 6 6.2 6.4 6.6 5.8 6.1 6.3 6 5.9 5.7 5.6 5.8 4.2 4.2 4.2 5.8 5.3 4.2 4.2 6 6.1 5.7 4.6 3.8 -4 -4 4.2 4.9 4.9 4.9 8.7 8.7 6.5 4.5 6.4 5.7 6.6 5.3 8.2 5.2 5.3 5.6 5.5 5.4 5.7 5.7 5.7 5.6 5.6 5.5 5.5 5.6 5.7 5.8 6.4 5.7 5.7 5.6 5.5 5.4 5.4 5.5 5.6 5.6 5.6 5.6 5.6 5.6 5.7 5.7 5.6 5.6 5.6 5.5 5.6 5.5 5.4 5.3 5.7 5.7 5.7 5.6 5.6
-4 -4 -4 -4 -4 -4 -4 -4 -4 -4 -4 -4 -4 -4 -4 -4 -4 -4 -4 -4 -4 -4 -4 -4 -4 -4 -4 -4 -4 -4 -4 -4 -4 -4 -4 -4 -4 -4 -4 -4 -4 -4 -4 -4 -4 -4 -4 -4 -4 -4 -4 -4 -4 -0.1 1.9 3.3 7.9 12.1 16.4 22 38.6 31.9 24.9 20.1 20.6 22.3 22.2 18.9 14.2 13.1 18 23.5 21.2 21.1 22.8 23.5 23.8 23.9 23.3 22.7 22.2 21.6 20.1 18.4 18 16.7 15.3 13.9 12.6 10.6 8.4 7.5 7.3 6.9 8 4.5 5.7 6.1 6.1 6.2 6.3 7.2 -4 -4 -4 7.3 6.1 6.1 6.1 6.1 6.2 6.2 6 5.4 5.5 5.8 6.2 6.1 6.1 6.2 5.9 3.9 5.8 6 5.9 5.8 5.7 5.6 5.7 4.2 4.2 5.8 5.7 5.5 4.2 4.2 5.3 7.4 6.7 6 5.9 3 -4 -4 -4 -4 2.1 3.3 3.7 3.7 3.4 6.8 5.9 5.9 5.4 7.3 5.5 5.3 5.5 5.5 5.4 5.7 5.7 5.6 5.6 5.5 5.5 5.5 5.5 5.7 5.6 5.6 5.6 5.5 5.5 5.4 5.4 5.4 5.6 5.7 5.5 5.5 5.5 5.5 5.5 5.7 5.8 5.7 5.7 5.7 5.7 5.7 5.6 5.6 5.7 5.7 5.7 5.7 5.7 5.7
-4 -4 -4 -4 -4 -4 -4 -4 -4 -4 -4 -4 -4 -4 -4 -4 -4 -4 -4 -4 -4 -4 -4 -4 -4 -4 -4 -4 -4 -4 -4 -4 -4 -4 -4 -4 -4 -4 -4 -4 -4 -4 -4 -4 -4 -4 -4 -4 -4 -4 -1 0.4 1.8 2.8 6.7 15.4 22.5 29.8 35 36 34.5 31.9 29 30 32.2 32.6 32.4 30 27.4 25.9 25.5 23 20.2 19.6 20.2 21.5 22.3 22.7 22.5 21.7 20.1 19.3 18.3 16 14.9 13.6 12.3 11.4 9.4 7.7 7.1 6.7 7 6.7 8 4.5 6.5 6 6.1 6.1 6.2 6 6.3 5.8 -4 8.1 6.3 6.1 6.1 6.2 6.2 6.4 6 5.3 5.3 5.6 6 5.5 5.7 5.5 5.5 5.5 5.8 5.9 5.9 5.8 5.7 5.6 5.6 5.7 5.8 5.7 5.7 5.7 4.2 5.4 5.6 4.4 6.2 8.4 6.5 6.6 5.1 3.7 -4 -4 -4 -4 -4 -4 -4 6.4 5.6 5.4 5.4 5.6 5.6 5.5 5.5 5.5 5.6 5.6 5.6 5.6 5.6 5.5 5.5 5.4 5.5 5.5 5.5 5.4 5.4 5.4 5.6 5.4 5.4 5.4 5.8 5.6 5.3 5.3 5.4 5.4 5.4 5.7 5.7 5.3 5.4 5.4 5.6 5.7 5.7 5.6 5.7 5.7 5.7 5.7 5.5 5.4
-4 -4 -4 -4 -4 -4 -4 -4 -4 -4 -4 -4 -4 -4 -4 -4 -4 -4 -4 -4 -4 -4 -4 -4 -4 -4 -4 -4 -4 -4 -4 -4 -4 -4 -4 -4 -4 -4 -4 -4 -4 -4 -4 -4 -4 -4 -4 -4 -0.5 1.2 3 4.4 9.7 14.1 20.1 26.2 30 33 35.7 35.4 34.5 34.5 36.5 37.5 37.9 36.5 33.7 31.6 29.1 26.9 24.2 19.8 16.4 16 16.3 17.2 18 17.9 17.9 17.6 16.2 15.5 15.1 12.9 11.3 10.6 9.9 9 7.5 6.7 6.4 6.5 6.3 5.9 5 6.4 7.3 5.8 5.8 5.9 5.8 5.9 6.1 7.3 -4 8.7 6.9 6.3 6.2 6.2 6.2 6.4 5.8 3.9 5.8 5.9 5.8 6.1 5.9 5.8 5.6 5.6 5.7 5.8 5.9 5.8 5.8 5.6 5.5 5.6 5.7 5.8 5.8 5.8 5.7 4.5 4.5 5 4.7 6.4 6.2 7 7.3 6.7 6.4 5.5 6.4 5.8 6.1 6 -4 -4 5.6 5.9 6.9 5.6 5.6 5.6 5.6 5.6 5.6 5.6 5.6 5.6 5.6 5.5 5.4 5.4 5.4 5.4 4.8 5.4 5.5 5.8 5.9 5.8 5.5 5.4 5.4 5.3 5.3 4.6 5.4 5.4 5.4 5.4 5.6 5.6 5.4 5.4 5.6 5.7 5.7 5.6 5.4 5.5 5.4 5.5 5.6 5.2
-4 -4 -4 -4 -4 -4 -4 -4 -4 -4 -4 -4 -4 -4 -4 -4 -4 -4 -4 -4 -4 -4 -4 -4 -4 -4 -4 -4 -4 -4 -4 -4 -4 -4 -4 -4 -4 -4 -4 -4 -4 -4 -4 -4 -4 -4 -4 -0.6 1.9 4 11.7 15.2 17.8 20.5 25.1 32.7 41.8 43.5 42.1 39.5 37.2 35.2 36.2 36.9 37.1 36.2 34.8 31.7 26.9 21.4 16.7 11.9 12.4 13 13.8 13.6 14.4 13.7 13.5 13 12.8 12.8 12.8 10.4 8.8 8 7.9 7.5 6.6 6.2 6.2 6.3 6.1 6.4 6.7 6.8 6.4 5.8 5.6 5.6 5.8 5.9 6.2 6.4 -4 -4 8.8 6.6 6.1 5.9 5.9 5.8 6.2 6.4 6.4 6.4 6.4 6.4 6.3 6.1 5.9 5.7 5.6 5.7 5.8 5.8 5.8 5.6 5.5 4.6 5.6 5.7 5.8 5.9 5.8 5.6 5.6 6 4.7 6.3 6 5.9 6.3 6.2 7.5 8 7 6.4 6.4 6.6 4.8 -4 -4 6 6.8 5.6 5.6 5.6 5.6 5.6 5.6 5.6 5.6 5.6 5.5 5.5 5.4 5.4 4.6 5.5 5.8 5.4 5.5 5.8 6.1 5.9 5.7 5.5 5.4 4.9 5.4 5.4 5.4 5.4 5.5 5.4 5.7 5 5.6 5.7 5.7 5.7 5.7 5.6 5.5 5.5 5.4 5.6 5.7 5.3
-4 -4 -4 -4 -4 -4 -4 -4 -4 -4 -4 -4 -4 -4 -4 -4 -4 -4 -4 -4 -4 -4 -4 -4 -4 -4 -4 -4 -4 -4 -4 -4 -4 -4 -4 -4 -4 -4 -4 -4 -4 -4 -4 -4 -0.5 0.7 1.4 2.3 3.7 4 20.3 24.5 29.5 38.5 44.2 44.6 44.8 44.2 41.9 39.5 37 31.1 23.4 21.8 25.8 26.5 25.6 21.9 15.6 8.7 7.9 8.2 9.9 10.3 9.4 10 10.7 10.3 9.3 9.8 10.4 10.3 10.1 8.5 7.2 7.2 7.1 6.6 6.2 6.2 6.2 6.1 6.2 6.3 6.5 6.7 6.5 6 4.3 5.6 5.9 6.1 6.3 6.4 6.6 -4 -4 6 5.3 5.7 6.2 5.7 6.4 6.4 6.3 6.3 6.3 6.3 6.5 6.3 6.1 5.9 5.8 5.7 5.6 5.7 5.9 5.9 5.8 4.6 5.5 5.6 5.7 5.8 5.8 5.7 5.9 6.2 4.7 6.1 5.9 5.5 6.4 6.2 6.1 6 5.9 6.7 6.4 7.9 5.8 3.5 -4 6.9 5.7 5.7 5.7 5.8 5.8 5.9 5.9 5.8 5.9 6 5.5 5.5 5.4 5.4 5.4 5.5 5.7 5.5 5.5 5.6 6.2 6.1 5.9 5.6 5.5 5.5 5.5 5.6 5.6 5.6 5.6 5.6 5.7 5.7 5.7 5.7 5.7 5.8 5.7 5.7 5.7 5.6 5.3 5.7 5.3 5.6
-4 -4 -4 -4 -4 -4 -4 -4 -4 -4 -4 -4 -4 -4 -4 -4 -4 -4 -4 -4 -4 -4 -4 -4 -4 -4 -4 -4 -4 -4 -4 -4 -4 -4 -4 -4 -4 -4 -4 -4 -4 -4 -4 1.5 3.6 10.6 14.5 19.5 29.3 36.9 42.7 43.9 45.7 45.5 45.2 44.3 42.3 39.7 34.9 30.8 21.9 10.2 7.8 10 14.3 15.3 15.4 11.8 6.4 6.9 6.8 7.1 7.6 7.3 7.2 7.7 8 7.6 7.1 7.1 7.6 7.7 7.3 6.7 6.5 6.4 6.3 6.3 6.1 6.1 6.1 6.5 6.6 6.5 6.4 6.5 6.5 6.2 5.5 5.6 5.8 5.9 6.1 6.3 6.5 7.7 -4 3 5.9 6.3 6.5 6.1 6.4 6.3 6.2 6.2 6.1 6.2 6.4 6.5 6.3 6.1 6 5.9 5.8 5.6 5.8 6 6.2 5.6 5.5 5.5 5.6 5.7 5.6 5.7 5.8 5.9 5.9 5.6 5.5 5.5 5.9 6.2 6.1 6.1 6 6.2 6.4 6.5 6.6 4.9 -4 5.8 6.1 5.9 5.8 6 6.1 6.1 6 6.2 6.3 6.3 5.4 5.4 5.4 5.4 5.4 5.4 5.4 5.4 5.4 5.5 6.4 6.2 6 5.7 5.5 5.6 5.6 5.7 5.7 5.7 5.7 4.8 5.7 5.5 5.4 5.8 5.9 5.8 5.8 5.8 5.7 5.7 5.3 5.3 5.3 5.3
-4 -4 -4 -4 -4 -4 -4 -4 -4 -4 -4 -4 -4 -4 -4 -4 -4 -4 -4 -4 -4 -4 -4 -4 -4 -4 -4 -4 -4 -4 -4 -4 -4 -4 -4 -4 -4 -4 1.2 2.7 2.1 3.1 8.8 20.5 24.6 29.2 31.6 32.9 33 30.2 25.2 26.3 23.3 27.1 29.6 26.9 28.2 25.5 19.1 14.8 8.4 6.4 6.4 6.5 6.2 6.4 6.4 6.3 6.3 6.4 6.5 6.4 6.5 6.5 6.7 6.6 6.5 6.7 6.7 6.8 6.7 6.5 6.4 6.2 6.1 6.1 6.2 6.2 6.2 6.1 6.2 6.5 6.6 6.6 6.6 6.5 6.5 5.8 5.7 5.8 5.9 5.9 6 6.2 6.2 6.4 3.7 3 3 5.9 6.1 6.3 6.3 6.2 6.2 6.1 6 6.1 6.3 6.4 6.5 6.3 6.2 6.1 5.8 5.8 6 6.2 6.2 5.8 5.6 5.5 5.5 5.5 5.6 5.7 5.7 5.7 5.7 5.6 5.5 5.6 5.9 6 6 5.9 5.8 5.8 7.7 6.5 6.6 5.9 -4 -4 6.4 6.1 6.1 6.3 6.4 6.3 6 6.4 6.6 6.7 5.8 5.3 5.4 5.4 5.4 5.4 5.4 5.4 5.4 5.4 6.4 6.3 6 5.8 5.3 5.7 5.8 5.8 5.8 5.8 5.7 5.7 5.6 5.4 5.3 5.5 5.8 5.8 5.7 5.7 5.7 5.6 5.3 5.3 5.3 5.2
-4 -4 -4 -4 -4 -4 -4 -4 -4 -4 -4 -4 -4 -4 -4 -4 -4 -4 -4 -4 -4 -4 -4 -4 -4 -4 -4 -4 -4 -4 -4 -4 -4 -4 -4.1 -4 -1.2 4.5 4.5 14.4 12.5 13.8 16.3 14.8 5.3 8.1 11 16.9 15.7 14.8 5.2 5.9 6.2 6.2 12.6 5.9 8 9.5 6.6 6.7 6.1 6.1 6.1 6.2 6.1 6.1 6.1 6.1 6.2 6.3 6.3 6.3 6.2 6.2 6.2 6.3 6.3 6.4 6.4 6.5 6.5 6.4 6.3 6.1 6.2 6.2 6.2 6.2 6.2 6.2 6.1 6.4 6.6 6.6 6.6 6.3 5.8 5.6 5.9 6.1 6.1 6.1 6.1 6.2 5.9 5.7 5.5 5.2 5.4 5.7 5.9 6.1 6.3 6.4 6.3 6.1 5.9 6 6.1 6.3 6.5 6.5 5.9 6 6 6 6.2 6.4 6.2 6 5.7 5.6 5.6 5.5 5.6 5.7 5.7 5.7 5.6 5.6 5.5 5.6 5.7 5.8 5.8 5.7 5.7 6.3 6.3 8.3 7.7 7.5 5.5 -4 5.1 6.6 8 6.3 6.6 6.1 6.1 6.6 6.8 6.5 5.8 5.8 5.4 5.7 5.8 5.4 5.4 5.4 5.4 5.4 5.4 6.1 6.1 5.8 5.4 5.8 5.1 5 5.4 5.5 5.4 5.7 5.6 5.4 5.3 5.3 5.7 5.6 5.6 5.6 5.6 5.5 5.3 5.3 5.4 5.9
-4 -4 -4 -4 -4 -4 -4 -4 -4 -4 -4 -4 -4 -4 -4 -4 -4 -4 -4 -4 -4 -4 -4 -4 -4 -4 -4 -4 -4 -4 -4 -4 -4 -4 -4 -4 -4 0.4 1.7 2.9 3.4 3.6 3.7 4.1 4.5 4.5 4.5 4.5 4.3 3.1 3.7 4.5 5.1 5.5 5.8 5.9 6.2 6.3 6.6 6.8 8.6 6.7 6.4 6.3 6.2 6.2 6.1 6.1 6.1 6.1 6.2 6.3 6.2 6.2 6.2 6.2 6.2 6.2 6.2 6.2 6.2 6.2 6.2 6.2 6.2 6.2 6.3 6.3 6.2 6.2 6.2 6.3 6.6 6.3 6 5.7 5.5 5.8 6.1 6.4 6.1 6.1 6.2 6.3 6.1 5.9 6 6.1 3.9 5.6 5.8 6 6.2 6.3 6.3 6.4 6.5 5.9 6.1 6.2 6.4 6.1 6.1 6.2 6.2 6.2 6.4 6.4 6.2 6.1 5.8 5.7 5.6 5.5 5.6 5.7 5.7 5.8 5.9 5.8 5.7 5.5 5.6 5.6 5.6 5.6 6 6.2 6.1 5.8 5.8 7 6.5 -4 -4 -4 4.1 6 6.2 6.9 6.3 6.7 8.2 6 6.3 6.5 5.6 6.2 6.6 5.5 5.4 5.4 5.4 5.8 5.6 5.4 5.7 5.7 5.4 5.8 5.9 5.9 5.8 5.6 5.3 4.8 5.5 5.4 5.3 5.3 5.3 5.5 5.5 5.5 5.4 5.4 5.3 5.3 5.4 6.7
-4 -4 -4 -4 -4 -4 -4 -4 -4 -4 -4 -4 -4 -4 -4 -4 -4 -4 -4 -4 -4 -4 -4 -4 -4 -4 -4 -4 -4 -4 -4 -4 -4 -4 -4 -4 -4 -1.3 0.6 1.4 2 2.3 2.8 3.3 3.8 4.3 4.5 4.5 4.5 3.5 4.5 4.8 4.8 5 5.3 5.7 6.1 6.3 6.5 6.7 6.8 7.8 6.4 6.3 6.3 6.3 6.2 6.1 6.1 6.1 6.2 6.2 6.2 6.2 6.2 6.2 6.2 6.2 6.2 6.2 6.2 6.2 6.2 6.2 6.2 6.3 6.3 6.2 6.2 6.1 6 4.5 6.2 6.2 5.8 4.9 5.7 6 6.2 6.7 6.7 6.2 6.3 6.4 6.4 6.5 6.6 6.6 3.7 6.3 6.3 5.9 6.1 6 6 6 6 6.1 5.8 6.1 6.2 6.3 6.3 6.3 6.4 6.4 6.5 6.3 6.2 6.1 5.9 5.8 5.7 5.6 5.6 5.7 6.1 6.1 6 5.8 5.7 5.6 5.5 5.5 5.5 5.7 5.9 6.2 6.2 5.8 5.5 5.3 5.3 6.6 6.6 -4 -4 -4 -4 4.1 6.4 -4 -4 4.9 3 3 6.3 6.2 6.1 5.6 5.1 5.4 5.4 5.6 5.4 5.5 5.8 5.7 5.7 5.9 5.9 5.9 5.8 5.5 5.3 5.7 5.6 5.4 5.3 5.3 5.3 5.4 5.4 5.3 5.3 5.3 5.3 5.4 6.7 5.5
-4 -4 -4 -4 -4 -4 -4 -4 -4 -4 -4 -4 -4 -4 -4 -4 -4 -4 -4 -4 -4 -4 -4 -4 -4 -4 -4 -4 -4 -4 -4 -4 -4 -4 -4 -4 -4 -1.8 -0.6 0.4 0.9 1.5 2 2.5 3 3.5 4 4.5 4.5 4.5 4.5 4.6 4.6 4.5 4.9 5.5 5.8 6.1 6.3 6.7 6.6 7.8 6.8 6.4 6.4 6.3 6.2 6.1 6.1 6.2 6.2 6.2 6.2 6.2 6.2 6.1 6.1 6.1 6.1 6.1 6.1 6.2 6.2 6.2 6.2 6.3 6.2 6.2 6.1 6 5.9 4.2 5.8 5.5 5.1 6.4 6.4 6.3 6.5 6.8 6.4 6.5 6.5 6.5 6.6 6.6 6.7 6.5 5.5 5.6 5.6 6 6.2 6.1 6 5.9 5.8 5.8 5.8 5.9 6.3 6.3 6.4 6.4 6.5 6.5 6.4 6.2 6.1 5.9 6 6 5.9 5.9 5.7 5.7 5.9 6 5.8 5.7 5.7 6 5.9 5.5 5.7 5.9 6.1 6.3 6.1 5.8 5.7 5.6 5.6 5.5 6.7 6.7 7.9 6.5 6.2 -4 -4 -4 4.5 8.3 7.2 6.7 3.4 6.9 5.9 5.7 5.6 5.7 5.5 5.4 5.4 5.6 5.9 5.9 5.9 5.9 5.9 4.8 5.8 5.6 5.5 5.7 5.6 5.5 5.3 5.3 5.3 5.3 5.3 5.3 5.3 5.4 5.4 6.7 5.4 5.5
-4 -4 -4 -4 -4 -4 -4 -4 -4 -4 -4 -4 -4 -4 -4 -4 -4 -4 -4 -4 -4 -4 -4 -4 -4 -4 -4 -4 -4 -4 -4 -4 -4 -4 -4 -4 -4 -2.6 -1.2 -0.5 0.2 0.7 1.2 1.7 2.2 2.7 3.2 3.7 4.2 4.5 4.5 4.6 4.4 4.2 4.8 5.3 5.5 5.9 6.2 6.5 6.6 8.3 7.9 6.6 6.5 6.4 6.3 6.2 6.2 6.2 6.2 6.2 6.2 6.2 6.2 6.1 6.1 6.1 6.1 6.1 6.1 6.1 6.2 6.2 6.2 6.2 6.2 6.2 6.1 5.9 5.8 6.3 6.1 6.2 6.4 6.4 6.4 6.4 6.4 6.4 6.4 6.4 6.4 6.4 6.6 6.7 6.7 6.3 6.2 3.9 5.7 6.1 6.3 6.2 6.1 6.1 6.2 6.2 6 5.9 6.2 6.3 6.4 6.4 6.5 6.4 6 5.9 5.7 5.8 6.1 6.2 6.2 6.2 6 5.7 5.8 5.9 5.7 5.8 6.1 6.5 6.6 5.6 5.8 6 6.2 6.3 6.1 5.9 5.8 5.8 5.9 5.7 5 6.6 6.4 6.6 6.9 5.9 -4 6.3 6.4 6.6 6.5 6.3 7.2 3 5 5.9 5.8 5.9 6 5.4 5.5 5.7 5.9 5.8 5.9 5.9 6 5.5 5.8 5.6 5.5 5.6 5.6 5.5 5.3 5.3 5.3 5.3 5.3 5.3 5.4 5.4 6.7 5.5 5.5 5.6
-4 -4 -4 -4 -4 -4 -4 -4 -4 -4 -4 -4 -4 -4 -4 -4 -4 -4 -4 -4 -4 -4 -4 -4 -4 -4 -4 -4 -4 -4 -4 -4 -4 -4 -4 -4 -4 -2.9 -1.8 -1.1 -0.6 -0.1 0.4 0.9 1.4 1.9 2.5 3.1 3.8 4.3 4.5 4.4 4.3 4.2 4.6 5.1 5.2 5.6 5.9 6.3 6.6 6.4 8.4 7 6.3 6.3 6.3 6.2 6.2 6.2 6.2 6.2 6.2 6.1 6.1 6.1 6.1 6.1 6.1 6.1 6.1 6.1 6.1 6.2 6.1 6.1 6.1 6.2 6.1 5.9 5.8 6.6 6.5 6.6 7.4 7.2 6.6 6.5 6.5 6.5 6.4 6.3 6.3 6.4 6.5 6.6 6.5 6.7 6.4 5.8 5.6 6.1 6.4 6.3 6.3 6.2 6.2 6.2 6.2 6.1 6.2 6.3 6.4 6.4 6.4 6.3 5.7 5.6 5.4 5.9 6.2 6.1 6.4 6.5 6.3 6 5.9 5.2 5.9 6.1 6.3 6.5 6.6 5.7 5.8 6 6.1 6.9 5.9 5.7 5.7 5.8 5.8 5.8 5.8 5.7 5.7 5.9 5.8 6.3 5.6 5.4 6.4 6.4 6.4 6.3 6.2 5.6 6.3 8.2 6 6 5.9 5.4 5.4 5.6 5.8 5.8 5.8 5.9 5.9 5.9 5.6 5.5 5.4 5.5 5.7 5.5 5.4 5.3 5.3 5.3 5.4 5.6 5.6 6.7 5.8 5.7 5.7 5.7
-4 -4 -4 -4 -4 -4 -4 -4 -4 -4 -4 -4 -4 -4 -4 -4 -4 -4 -4 -4 -4 -4 -4 -4 -4 -4 -4 -4 -4 -4 -4 -4 -4 -4 -4 -4 -4 -3.2 -2.4 -1.9 -1.4 -0.9 -0.2 0.4 1.1 1.8 2.5 3 3.4 3.7 4.1 4.5 4.5 4.4 4.4 4.8 4.9 5.2 5.6 6.1 6.3 6.4 10.5 8.2 6.7 6.6 6.5 6.3 6.2 6.2 6.2 6.1 6.1 6.1 6.1 6.1 6.1 6.1 6.1 6.1 6.1 6.1 6.1 6.1 6.1 6 6 6.1 6.1 5.9 5.8 6.6 6.8 7.6 8.4 9 8.9 8.5 7 6.5 6.4 6.3 6.2 6.3 6.2 6.1 6.1 6.1 6.6 6 5.6 5.4 5.8 5.9 6.1 6.2 6.2 6.2 6.2 6.3 6.2 6.3 6.4 6.3 6.2 6.2 5.4 5 5.5 6 6.4 6.2 6.3 6.6 6.6 6.2 6.1 5.9 5.7 6 6.3 6.5 6.5 5.9 5.7 5.8 5.8 5.8 5.7 5.7 5.8 5.8 5.9 5.9 5.9 5.8 5.8 6.1 6.4 6.5 6.3 3.7 6.4 6.3 6.2 6.2 6.3 6.4 3.3 6.9 6.7 4.8 5.8 5.6 5.5 5.7 5.9 5.8 5.8 5.9 5.9 5.4 4.7 5.5 5.3 5.4 5.5 5.5 5.4 5.3 5.3 5.4 5.4 5.4 6.7 5.8 5.6 5.7 5.8 5.8
-4 -4 -4 -4 -4 -4 -4 -4 -4 -4 -4 -4 -4 -4 -4 -4 -4 -4 -4 -4 -4 -4 -4 -4 -4 -4 -4 -4 -4 -4 -4 -4 -4 -4 -4 -4 -4 -3.6 -2.9 -2.3 -1.6 -0.9 -0.3 0.4 1.1 1.7 2.3 2.6 2.9 3.3 3.7 4.1 4.4 4.5 4.5 4.5 4.6 5.2 5.8 6.2 6.3 6.5 9.6 8.3 7.2 7 6.8 6.3 6.2 6.1 6.1 6.1 6.1 6.1 6.1 6.1 6.1 6.1 6.1 6.1 6.1 6.1 6.1 6 6 6 5.9 6 6.1 4.2 6.3 6.9 8.9 10.8 11.6 11.6 11.6 10.2 7.8 6.5 6.4 6.3 6.2 6.2 6.2 6.1 6.1 6.1 6.3 6.5 6.1 6 5.5 5.3 5.6 5.8 6.2 6.2 6.3 6.3 6.3 6.3 6.3 6.2 6.1 5.9 5.2 5.3 5.5 6 6.5 6.3 6.3 6.7 6.5 6.2 6.2 6.5 6.1 5.7 5.8 5.2 5.8 5.7 5.7 5.7 5.7 5.7 5.7 5.7 5.8 5.9 5.9 5.9 5.9 5.9 6.1 6.3 6.1 5.9 5.6 5.3 6.2 6.1 6.1 6.4 6.5 6.6 6.5 3.3 3.3 7.3 7.7 7.6 7.1 7 7.1 7.8 5.4 5.5 5.4 5.5 5.6 5.5 5.5 5.6 5.7 5.6 5.4 5.3 5.4 5.4 5.4 6.7 5.5 6 6.1 6 5.1 4.5
-4 -4 -4 -4 -4 -4 -4 -4 -4 -4 -4 -4 -4 -4 -4 -4 -4 -4 -4 -4 -4 -4 -4 -4 -4 -4 -4 -4 -4 -4 -4 -4 -4 -4 -4 -4 -4 -3.6 -3 -2.3 -1.6 -0.9 -0.2 0.4 1.1 1.4 1.8 2.2 2.5 2.9 3.3 3.7 4 4.4 4.5 4.5 4.8 5.4 5.9 6.3 6.4 6.6 7.4 8.1 7.5 7 6.6 6.1 6.1 6.1 6.1 6.1 6.1 6.1 6.1 6.1 6.1 6.1 6.1 6.1 6.1 6 6 6 5.9 5.9 5.9 5.9 5.8 6.3 6.6 8.6 11.1 12.5 12.4 11.6 10.6 9.6 7.9 6.6 6.4 6.3 6.3 6.2 6.2 6.2 6.1 6.2 6.3 6.5 6.2 5.8 5.3 5.4 5.3 5.5 6.4 6.4 6.4 6.4 6.3 6.2 5.9 5.6 5.3 5.4 5.3 5.5 5.7 5.9 6.4 6.3 6.5 6.7 6.4 6.3 6.2 6.2 6.1 6.1 6.1 6.2 6.1 5.8 5.8 5.8 5.7 5.9 5.8 5.8 5.8 5.9 5.9 5.9 5.9 5.9 6.1 6 5.8 5.6 5.4 5.2 3.7 6.3 6.5 6.7 6.8 6.9 6.6 6.4 6.5 3.3 6.7 6.6 4.4 5.8 3.3 3.3 3.5 6.2 5.5 5.6 5.6 5.7 5.7 5.7 5.7 5.6 5.5 5.4 5.4 5.4 6.7 5.5 5.8 6.2 6.2 5 4.9 4.8
-4 -4 -4 -4 -4 -4 -4 -4 -4 -4 -4 -4 -4 -4 -4 -4 -4 -4 -4 -4 -4 -4 -4 -4 -4 -4 -4 -4 -4 -4 -4 -4 -4 -4 -4 -4 -4 -3.6 -2.9 -2.3 -1.6 -0.9 -0.3 0.3 0.6 1 1.4 1.8 2.1 2.5 2.9 3.2 3.6 4 4.4 4.5 4.9 5.2 5.4 5.6 6.3 6.8 7.8 8.3 8.2 7.6 6.4 6.1 6.1 6.1 6.1 6.1 6.1 6.1 6.1 6.1 6.1 6.1 6.1 6.2 6.2 6.1 5.9 6 6.2 5.8 5.8 5.9 5.9 6.4 7.2 9.5 10.3 10.6 10.5 9.7 8.8 8.3 7 6.5 6.4 6.3 6.3 6.3 6.2 6.2 6.2 6.2 6.4 6.1 6 5.3 6.3 6.1 5.4 4.8 6.6 6.5 6.2 6.4 6.2 5.9 5.9 5.5 5.2 5.4 5.6 5.9 6 6.2 6.4 6.5 6.7 6.4 6.2 6.3 6.2 6.2 6.2 6.3 6.5 6.5 6.3 6 5.9 5.9 6 5.9 5.9 5.9 5.9 5.9 5.9 5.9 5.9 5.9 5.9 5.8 5.7 5.7 5.7 5.6 5.5 6.3 6.8 6.8 6.7 6.2 6.1 6 5.9 6.8 4 4.8 6.2 6.9 7.4 7.2 7.5 5.6 5.1 5.6 5.6 5.6 5.6 5.6 5.7 5.6 5.5 5.5 5.5 6.7 5.6 5.9 6.2 5.9 5.8 5.5 5.3 5.1
-4 -4 -4 -4 -4 -4 -4 -4 -4 -4 -4 -4 -4 -4 -4 -4 -4 -4 -4 -4 -4 -4 -4 -4 -4 -4 -4 -4 -4 -4 -4 -4 -4 -4 -4 -4 -4 -3.6 -2.9 -2.3 -1.6 -0.9 -0.5 -0.1 0.2 0.6 1 1.4 1.7 2.1 2.5 2.8 3.2 3.6 4 4.3 4.6 4.9 5 5 5.6 6.3 7.7 10.4 8.6 7.7 7 6.2 6.1 6.1 6.1 6.1 6.1 6.1 6.1 6.2 6.2 6.1 6.2 6.2 6.2 6.1 6 5.9 5.8 5.8 5.9 5.9 6 6.2 7.1 8.6 8.4 8.7 8.5 8 7.4 7.6 6.5 6.3 6.3 6.3 6.3 6.3 6.2 6.2 6.2 6.2 6.2 5.4 5.3 6 6.2 6 5.5 5.7 5.3 3.9 6.5 6.3 6 5.7 6.1 5.3 5.5 5.6 5.8 6.1 6.3 6.6 6.6 6.6 6.3 5.9 6 6.2 6.2 6.2 6.3 6.3 6.5 6.5 6.5 6.2 6.1 6 5.9 5.9 5.9 5.9 5.9 5.9 5.9 5.9 5.9 5.9 6 5.9 5.9 5.9 5.9 5.8 5.8 5.1 6.2 6.5 6 5.7 5.8 5.8 5.8 5.5 5.2 5.5 5.6 5.8 6.2 6.1 5.8 5.4 5.7 5.6 5.6 5.4 5.6 5.6 5.6 5.6 5.5 6.5 6.7 5.6 5.9 6.1 6 6 5.9 5.9 5.7 5.4
-4 -4 -4 -4 -4 -4 -4 -4 -4 -4 -4 -4 -4 -4 -4 -4 -4 -4 -4 -4 -4 -4 -4 -4 -4 -4 -4 -4 -4 -4 -4 -4 -4 -4 -4 -4 -4 -3.6 -2.9 -2.2 -1.6 -1.3 -0.9 -0.5 -0.2 0.2 0.6 1 1.3 1.7 2.1 2.5 2.9 3.3 3.7 4.1 4.5 4.5 4.5 4.5 4.9 5.5 7.1 9.9 8.7 8.8 6.6 6.3 6.2 6.2 6.2 6.2 6.2 6.2 6.2 6.2 6.2 6.2 6.2 6.3 6.3 6.1 6 5.8 5.8 5.9 5.9 5.9 6 6 6.4 7 6.7 6.8 6.7 6.7 6.7 6.8 6.3 6.3 6.3 6.3 6.3 6.3 6.3 6.2 6.2 6.2 5.7 5.1 5.8 5.7 6.1 5.9 6.1 6.2 6.3 6.2 6 6.1 5.8 5.5 5.5 5.4 5.8 6 6 6.3 6.4 6.4 6.7 6.7 5.9 5.5 5.9 6.2 6.2 6.2 6.3 6.4 6.5 6.4 6.4 6.3 6.2 6 6 6 5.9 5.9 5.9 5.8 5.8 5.9 5.9 5.9 6 6 6 5.9 5.9 5.9 5.8 5.7 5.2 5.4 5.4 5.8 5.8 5.8 5.8 5.7 5.4 5.6 5.8 5.8 6.1 6.6 6.3 4.2 5.7 5.7 5.6 5.5 5.5 5.5 5.6 5.7 6.7 6.7 5.7 5.9 6.2 6 5.9 5.8 5.8 5.8 5.9 5.8
-4 -4 -4 -4 -4 -4 -4 -4 -4 -4 -4 -4 -4 -4 -4 -4 -4 -4 -4 -4 -4 -4 -4 -4 -4 -4 -4 -4 -4 -4 -4 -4 -4 -4 -4 -4 -4 -3.6 -2.9 -2.4 -2.1 -1.7 -1.3 -0.9 -0.6 -0.2 0.3 0.7 1.1 1.6 2 2.4 2.9 3.2 3.6 3.9 4.3 4.5 4.5 4.5 4.5 4.6 7.1 9.3 8.6 8.6 7.4 6.3 6.3 6.3 6.3 6.3 6.2 6.2 6.2 6.2 6.2 6.2 6.3 6.4 6.3 6.2 6 5.8 5.8 5.9 5.9 5.9 6 6 6 6.2 6.5 6.6 6.5 6.3 6.2 6.2 6.2 6.2 6.2 6.2 6.2 6.2 6.2 6.2 6.2 6.1 5.9 5.5 5.2 5.6 6 6.2 6.2 6.2 6.3 6.3 3.9 5.2 5.4 5.1 5.3 5.6 6.1 5.9 4.8 4.7 4.9 5 5.7 6.2 5.4 5.3 5.9 6.1 6.2 6.3 6.3 6.4 6.4 6.3 6.2 6.1 6.1 6 6 5.9 5.9 5.9 5.8 5.8 5.8 5.9 5.9 6 6 6 6 6 5.9 5.8 5.8 5.7 5.6 5.2 5.2 5.5 5.8 5.8 5.8 5.8 5.6 5.8 5.8 5.8 5.9 7.1 7.3 5.6 5.8 5.6 5.6 5.5 5.4 5.5 5.5 6.7 6.5 5.8 6.1 6.2 6 5.9 5.7 5.7 5.6 5.7 5.8 5.9
-4 -4 -4 -4 -4 -4 -4 -4 -4 -4 -4 -4 -4 -4 -4 -4 -4 -4 -4 -4 -4 -4 -4 -4 -4 -4 -4 -4 -4 -4 -4 -4 -4 -4 -4 -4 -4 -3.6 -3.2 -2.8 -2.4 -1.9 -1.5 -1 -0.6 -0.1 0.3 0.7 1.2 1.6 2 2.3 2.7 3 3.4 3.7 4.1 4.4 4.5 4.5 4.5 4.5 7.2 8.8 8.5 8.9 6.7 6.4 6.3 6.2 6.2 6.2 6.2 6.2 6.2 6.2 6.2 6.3 6.4 6.4 6.4 6.2 6 5.8 5.9 5.9 5.9 5.9 5.9 6 6 6 6.2 6.5 6.4 6.2 6.1 6.3 6.1 6.2 6.2 6.2 6.2 6.2 6.2 6.2 6 5.9 6.1 5.5 5.3 5.7 6 6.1 6.2 6.2 6.3 6.3 6.2 5.5 5.5 5.6 5.5 5.6 6 5.5 4.9 4.8 4.9 4.9 4.9 4.8 4.8 5.2 5.8 6.1 6.2 6.2 6.3 6.4 6.3 6.3 6.2 6.1 6.1 5.9 5.9 5.8 5.8 5.8 5.8 5.8 5.8 5.9 5.9 6 6 6 5.9 5.9 5.8 5.7 5.7 5.6 5.5 5.2 5.2 5.1 5.4 5.6 5.8 5.8 5.8 5.8 5.9 5.9 6 7.2 5.7 6.9 5.7 5.6 5.5 5.5 5.4 5.4 6.7 5.6 4.4 6 5.5 5.9 5.7 5.7 5.6 5.5 5.5 5.7 5.8 5.9
-4 -4 -4 -4 -4 -4 -4 -4 -4 -4 -4 -4 -4 -4 -4 -4 -4 -4 -4 -4 -4 -4 -4 -4 -4 -4 -4 -4 -4 -4 -4 -4 -4 -4 -4 -4 -4 -3.6 -3.2 -2.7 -2.3 -1.9 -1.4 -1 -0.5 -0.1 0.4 0.8 1.1 1.5 1.8 2.2 2.5 2.9 3.2 3.6 3.9 4.3 4.5 4.5 4.5 4.5 5.1 9 8.7 8.8 7.6 6.5 6.4 6.3 6.2 6.2 6.2 6.2 6.2 6.2 6.2 6.2 6.4 6.5 6.4 6.2 5.9 5.8 5.9 5.9 5.9 5.9 5.9 5.9 5.9 6 6 6.2 6.3 6.1 6.1 6.3 6.2 5.9 6 6.1 6.1 6.1 6.1 6.1 5.7 5.7 5.9 5.6 5.4 5.7 5.8 5.9 6.1 6.2 6.3 6.3 6.2 3.9 5.2 6 5.9 5.8 5.9 5.4 5.1 4.7 5.2 5.2 5.4 4.8 4 5.1 5.6 6.1 6.2 6.2 6.3 6.6 6.2 6.2 6.2 6.1 6 5.9 5.8 5.7 5.7 5.7 5.8 5.8 5.8 5.9 5.9 6 6 5.9 5.8 5.7 5.7 5.6 5.5 5.4 5.3 5.2 5.4 5.3 4 5.3 5.5 5.7 5.8 5.8 5.8 6.2 6.2 6.4 6 6.3 5.7 5.7 5.5 5.4 5.5 6.7 6.5 7.5 7.1 7.2 5.9 5.6 5.5 5.5 5.4 5.5 5.6 5.6 5.8 5.9
-4 -4 -4 -4 -4 -4 -4 -4 -4 -4 -4 -4 -4 -4 -4 -4 -4 -4 -4 -4 -4 -4 -4 -4 -4 -4 -4 -4 -4 -4 -4 -4 -4 -4 -4 -4 -4 -3.6 -3.1 -2.7 -2.2 -1.8 -1.3 -0.9 -0.5 -0.1 0.2 0.6 0.9 1.3 1.6 2 2.3 2.7 3 3.4 3.7 4.1 4.4 4.5 4.5 4.5 4.6 8.8 8.6 8.8 8.6 6.5 6.4 6.4 6.3 6.2 6.2 6.2 6.2 6.2 6.2 6.2 6.2 6.2 6.2 6.1 5.9 5.8 5.9 5.9 5.9 5.9 5.9 5.9 5.9 5.9 6 6 6.2 6.1 6.1 6.4 6.2 6 5.7 5.9 6.1 6.1 6.1 6 5.5 5.5 5.8 6.1 5.4 5.5 5.7 5.8 5.9 6.1 6.2 6.3 6.2 5.5 4.9 6.4 6.3 5.7 5.8 5.6 5.3 5 5.4 5.6 5.4 4.8 4.9 5.1 5.4 5.8 6.1 6.2 6.5 6.7 6.2 6.1 6.1 6.1 6 5.9 5.7 5.7 5.7 5.7 5.8 5.8 5.8 5.9 5.9 6 6 5.8 5.7 5.6 5.5 5.4 5.4 5.3 5.2 5.8 5.9 6 5.7 3.7 5.3 5.4 5.6 5.6 5.8 6.3 6.2 6.2 6.7 5.9 5.8 5.7 5.7 6.4 6.7 5.9 7.3 6.6 6.5 4.9 6.4 5.7 5.4 5.5 5.7 5.7 5.7 5.8 5.8 5.9
-4 -4 -4 -4 -4 -4 -4 -4 -4 -4 -4 -4 -4 -4 -4 -4 -4 -4 -4 -4 -4 -4 -4 -4 -4 -4 -4 -4 -4 -4 -4 -4 -4 -4 -4 -4 -4 -3.5 -3 -2.6 -2.1 -1.7 -1.3 -1 -0.6 -0.3 0.1 0.4 0.8 1.1 1.5 1.8 2.2 2.5 2.9 3.2 3.6 3.9 4.3 4.5 4.5 4.5 4.5 8.5 8.6 8.6 8.7 7.2 6.4 6.4 6.3 6.2 6.1 6.1 6.1 6.1 6.2 6.2 6.2 6.1 6.1 5.9 4.1 5.9 5.9 5.9 5.9 5.9 5.9 5.9 5.9 5.9 5.9 5.9 6 6 6.2 6.4 6.3 6.1 5.8 5.5 5.7 5.9 6 5.8 5.3 5.3 5.6 5.2 5.3 5.5 5.6 5.7 5.8 5.9 6.1 6.2 6.2 5.9 5.6 5.3 3.9 6.1 5.9 5.6 5.3 5 4.8 4.8 4.9 5 5.1 5.3 5.5 5.8 6 6.3 6.6 6.4 6.1 6.1 6 6 6 5.9 5.8 5.7 5.7 5.7 5.8 5.8 5.9 5.9 5.9 6 5.9 5.7 5.6 5.7 5.6 5.5 5.4 5.4 5.3 5.5 5.9 6.7 6.3 5.4 3.7 5.2 5.3 5.5 5.7 6.2 6.6 6.7 3.6 6.6 5.8 5.8 6.7 6.7 6.9 6.4 6.3 4.8 7.5 5.9 6.7 6.4 5.8 7.2 5.9 6.7 6.2 6.3 5.9 7.2
-4 -4 -4 -4 -4 -4 -4 -4 -4 -4 -4 -4 -4 -4 -4 -4 -4 -4 -4 -4 -4 -4 -4 -4 -4 -4 -4 -4 -4 -4 -4 -4 -4 -4 -4 -4 -4 -3.4 -2.9 -2.6 -2.2 -1.9 -1.5 -1.2 -0.8 -0.5 -0.1 0.2 0.6 0.9 1.3 1.6 2 2.3 2.7 3 3.4 3.7 4.1 4.4 4.5 4.5 4.5 8.4 8.4 8.4 8.6 7.5 6.4 6.3 6.2 6.2 6.1 6.1 6.1 6.1 6.1 6.2 6.1 6 6.1 6 5.8 5.9 5.9 5.9 5.9 5.9 5.9 5.9 5.9 5.9 5.9 5.9 5.9 6.3 6.4 6.4 6.3 6.2 5.9 5.6 5.4 5.6 5.8 5.2 5.3 5.3 5.3 5.3 5.4 5.4 5.5 5.6 5.8 5.9 6 6.1 6.3 6 5.7 5.4 5.6 4.4 5.9 5.6 5.5 5.3 4.8 4.8 5 5.2 5.3 5.5 5.7 6 6 6 6 6 6.1 6.1 6.1 6.1 6 6 5.8 5.8 5.7 5.7 5.8 5.8 5.9 5.9 6 5.9 5.8 5.6 5.7 5.7 5.7 5.6 5.5 5.5 5.5 5.7 5.9 6.3 5.8 5.6 5.3 5.1 5.2 5.4 5.6 6.2 6.9 6.8 6.7 6.7 5.7 6.7 6.7 6.4 7.4 7.3 6.7 7.1 5.8 6.4 6.3 6.7 4.9 4.9 7.3 6.2 5.4 6.5 6.3 6.4
-4 -4 -4 -4 -4 -4 -4 -4 -4 -4 -4 -4 -4 -4 -4 -4 -4 -4 -4 -4 -4 -4 -4 -4 -4 -4 -4 -4 -4 -4 -4 -4 -4 -4 -4 -4 -3.8 -3.5 -3.1 -2.8 -2.4 -2.1 -1.7 -1.4 -1 -0.7 -0.3 0 0.4 0.7 1.1 1.4 1.8 2.1 2.5 2.8 3.2 3.5 3.9 4.2 4.5 4.5 4.5 8.4 8.4 8.2 9 7 6.2 6.2 6.2 6.1 6.1 6.1 6.1 6.1 6.1 6.2 6 5.9 5.9 6 5.8 5.9 5.9 5.9 5.9 5.9 5.9 5.9 5.9 5.9 5.9 5.9 5.9 5.9 5.9 5.9 5.9 5.7 5.5 5.8 5.2 5.2 5.3 5.4 5.4 5.4 5.4 5.4 5.4 5.5 5.5 5.6 5.7 5.8 6 6.1 6.2 6.1 5.8 5.5 5.9 6.3 3.9 6.3 6 5.2 4.8 5 5.1 5.3 5.4 5.6 5.9 5.9 5.8 5.8 5.8 6 6.1 6.1 6.1 6.1 6.1 6.1 5.9 5.8 5.8 5.7 5.8 5.8 5.9 5.9 5.9 5.8 5.6 5.7 5.8 5.8 5.8 5.7 5.7 5.6 5.8 6 6.6 6.8 6.5 5.7 5.5 5.7 5.4 5.2 5.5 5.8 6.6 6.7 6.7 6.2 7 6.8 6.5 7.1 7.7 7.6 4.5 6.6 5.9 5.5 6.2 6.2 5.5 6.1 6 6 5.6 6 6.3 6.3
-4 -4 -4 -4 -4 -4 -4 -4 -4 -4 -4 -4 -4 -4 -4 -4 -4 -4 -4 -4 -4 -4 -4 -4 -4 -4 -4 -4 -4 -4 -4 -4 -4 -4 -4 -4 -3.7 -3.4 -3.1 -2.8 -2.5 -2.2 -1.9 -1.5 -1.2 -0.8 -0.5 -0.1 0.2 0.6 0.9 1.3 1.6 2 2.3 2.7 3 3.4 3.7 4.1 4.4 4.5 4.5 8.2 8.5 8.4 9 6.3 6.3 6.2 6.2 6.1 6.1 6.1 6.1 6.1 6.1 6.1 5.9 5.8 5.7 5.4 5.8 5.9 5.9 5.9 5.9 5.9 5.9 5.9 5.9 5.9 5.9 5.9 5.9 5.9 6 5.8 5.5 5.4 5.2 5.2 5.3 5.4 5.5 5.5 5.6 5.5 5.5 5.5 5.5 5.6 5.6 5.7 5.7 5.8 5.9 6 6.1 6.2 5.9 5.8 6.2 6.6 3.9 5.8 6.5 5.7 4.8 5 5.3 5.5 5.6 5.8 5.8 5.7 5.6 5.5 5.7 6 6.2 6.2 6.2 6.2 6.2 6.2 5.9 5.9 5.8 5.8 5.8 5.9 5.9 6 5.8 5.6 5.7 5.7 5.8 5.8 5.8 5.8 5.8 5.8 6.1 6.2 6.3 6.5 6.1 5.7 5.7 5.7 5.6 5.2 5.2 5.5 6.2 6.3 5 7.1 7.1 6.9 6.5 7.1 6.8 6.7 6.7 5.5 5.5 5.6 6 6 5.9 5.9 5.8 5.7 5.7 5.9 6.1 6.1
-4 -4 -4 -4 -4 -4 -4 -4 -4 -4 -4 -4 -4 -4 -4 -4 -4 -4 -4 -4 -4 -4 -4 -4 -4 -4 -4 -4 -4 -4 -4 -4 -4 -4 -4 -4 -3.6 -3.3 -3 -2.8 -2.5 -2.2 -1.9 -1.6 -1.3 -0.9 -0.7 -0.3 0 0.4 0.7 1.1 1.4 1.8 2.1 2.5 2.8 3.2 3.5 3.9 4.2 4.5 4.5 8.1 8.5 8.4 8.7 6.9 6.5 6.4 6.4 6.3 6.3 6 6.1 6.1 6.1 6 5.9 5.8 5.8 5.8 5.8 5.8 5.8 5.9 5.9 5.9 5.9 5.9 5.9 5.9 5.9 5.9 5.9 6 6 5.8 5.5 5.3 5.3 5.4 5.5 5.6 5.7 5.7 5.7 5.6 5.5 5.6 5.6 5.7 5.7 5.7 5.8 5.8 5.9 6 6.1 6.2 6 6.1 6.4 6.4 6 5.2 6.2 5.6 4.9 5 5.1 5.4 5.7 5.6 5.6 5.5 5.4 5.4 5.7 6 6.2 6.2 6.2 6.2 6.2 6.2 6 5.9 5.9 5.8 5.9 5.9 6 6 5.8 5.7 5.7 5.8 5.9 5.9 5.9 5.8 5.8 5.8 5.8 5.9 6 6.2 5.7 5.7 5.7 5.7 5.6 5.3 5.2 5.1 5.6 6.3 7.1 7 7.5 7.7 4.4 6.7 7.7 6.9 6.7 6.5 5.7 5.6 5.8 5.8 5.7 5.7 5.7 5.6 5.6 5.7 5.9 5.9
-4 -4 -4 -4 -4 -4 -4 -4 -4 -4 -4 -4 -4 -4 -4 -4 -4 -4 -4 -4 -4 -4 -4 -4 -4 -4 -4 -4 -4 -4 -4 -4 -4 -4 -4 -3.8 -3.5 -3.2 -2.9 -2.6 -2.4 -2.1 -1.8 -1.5 -1.2 -0.9 -0.6 -0.3 0 0.3 0.6 0.9 1.3 1.6 2 2.3 2.7 3 3.4 3.7 4.1 4.4 4.5 8 8.6 8.6 8.6 8 6.8 6.8 6.6 6.4 6.2 6 5.9 6 6.1 6 5.9 5.9 5.8 5.8 5.8 5.8 5.8 5.8 5.9 5.9 5.9 5.9 5.9 5.9 5.9 5.9 6 6 6 5.9 5.6 5.5 5.6 5.6 5.7 5.7 5.8 5.8 5.8 5.7 5.6 5.7 5.7 5.7 5.8 5.8 5.9 5.9 6 6 6 6.1 6.1 6.3 6.3 6.3 6 5.3 5.9 5.3 5 5.1 5.2 5.6 4.6 5.3 5.3 5.3 5.7 6.1 6.2 6.2 6.2 6.2 6.2 6.2 6.2 6.2 6.1 6 5.9 5.9 6 6 6.1 5.9 5.8 5.8 5.8 5.8 5.9 5.8 5.8 5.8 5.8 5.8 5.7 5.7 5.7 5.8 5.7 5.7 5.7 5.7 5.6 5.5 5.5 5.3 3.8 7.2 7.1 3.6 6.8 6.7 6.3 6 6.1 6.3 6.5 6.4 6.1 5.9 5.7 5.7 5.7 5.6 5.6 5.6 5.6 5.6 5.7 5.7
-4 -4 -4 -4 -4 -4 -4 -4 -4 -4 -4 -4 -4 -4 -4 -4 -4 -4 -4 -4 -4 -4 -4 -4 -4 -4 -4 -4 -4 -4 -4 -4 -4 -4 -4 -3.7 -3.5 -3.2 -2.9 -2.6 -2.3 -2 -1.7 -1.4 -1.1 -0.8 -0.5 -0.2 0.1 0.4 0.7 1 1.3 1.6 1.9 2.2 2.5 2.8 3.2 3.5 3.9 4.2 4.5 8.1 8.6 8.5 8.4 8.8 7.2 6.8 6.6 6.4 6.1 5.9 5.8 5.8 5.9 6 5.9 5.9 5.8 5.8 5.8 5.8 5.8 5.8 5.9 5.9 5.9 5.8 5.9 5.9 5.9 5.9 5.9 5.9 5.9 5.9 5.8 5.8 5.8 5.8 5.9 5.9 6 5.9 5.8 5.8 5.7 5.7 5.8 5.8 5.9 5.9 6 6 6 6.1 6.1 6.2 6.2 6.2 6.2 6.2 6.3 6.1 5.1 5 5.4 5.7 6.5 7.1 6.4 5.7 5.5 5.6 6.1 6.1 6.1 6.2 6.2 6.1 6.2 6.2 6.2 6.2 6.1 6.1 6 5.9 6 6.1 6 6 5.9 5.9 5.9 5.9 5.8 5.8 5.8 5.8 5.8 5.8 5.7 5.7 5.6 5.6 5.7 5.7 5.7 5.8 5.8 5.9 5.8 5.7 6.7 7.1 6.2 4.6 7.5 5.9 6 6.2 5.7 6 6.2 6.2 5.9 5.7 5.7 5.6 5.6 5.6 5.5 5.5 5.5 5.5 5.6 5.6
-4 -4 -4 -4 -4 -4 -4 -4 -4 -4 -4 -4 -4 -4 -4 -4 -4 -4 -4 -4 -4 -4 -4 -4 -4 -4 -4 -4 -4 -4 -4 -4 -4 -4 -4 -3.6 -3.3 -3.1 -2.8 -2.5 -2.2 -1.9 -1.6 -1.3 -1 -0.7 -0.5 -0.2 0.1 0.4 0.8 1.1 1.4 1.7 2 2.3 2.6 2.9 3.2 3.5 3.8 4.1 4.4 8.3 8.3 8.3 8.4 8.7 6.7 6.4 6.3 6.2 6.1 5.9 5.6 5.7 5.8 5.8 5.9 5.9 5.8 5.8 5.8 5.7 5.8 5.8 5.8 5.9 5.8 5.8 5.8 5.8 5.9 5.9 5.9 5.8 5.2 5.8 5.8 5.9 6 6 6 6.1 6.1 6 5.9 5.8 5.8 5.8 5.9 5.9 6 6 6 6.1 6.1 6.2 6.2 6.2 6.2 6.2 6.2 6.3 6.5 6 5 4.9 5.9 6.5 7.7 7.9 6.6 6.6 6.2 6.1 6.1 6.1 6.1 6.1 6.1 6.1 6.2 6.2 6.2 6.2 6.1 6.1 6 6 6.1 6.1 6.1 6.1 6 6 5.9 5.8 5.7 5.7 5.7 5.8 5.8 5.8 5.7 5.7 5.7 5.7 5.8 5.8 5.8 5.8 5.8 5.9 6 6.2 7 5.6 4 7.1 4 5.9 5.3 5.4 5.4 5.6 5.8 6 5.8 5.7 5.6 5.6 5.5 5.5 5.5 5.5 5.6 5.5 5.5 5.5
-4 -4 -4 -4 -4 -4 -4 -4 -4 -4 -4 -4 -4 -4 -4 -4 -4 -4 -4 -4 -4 -4 -4 -4 -4 -4 -4 -4 -4 -4 -4 -4 -4 -4 -3.8 -3.5 -3.2 -3 -2.7 -2.4 -2.1 -1.8 -1.6 -1.3 -1 -0.7 -0.4 -0.1 0.2 0.5 0.8 1.1 1.4 1.7 2 2.3 2.6 2.9 3.2 3.5 3.8 4.1 4.4 8.4 8.4 8.5 8.6 7.8 6.3 6 5.9 5.8 5.7 5.8 5.7 5.6 5.7 5.7 5.8 5.8 5.8 5.8 5.7 5.7 5.8 5.8 5.8 5.8 5.8 5.8 5.8 5.8 5.8 5.8 5.8 5.8 5.8 5.8 5.8 5.9 6 6.1 6.2 6.2 6.2 6.1 6 5.9 5.9 5.9 5.9 6 6 6.1 6.1 6.2 6.2 6.2 6.2 6.2 6.2 6.2 6.2 6.4 6.5 6.2 5.4 4.7 5.4 6.7 8.4 7.8 7.7 7.3 6.9 6.6 6.1 6.1 6.2 6.2 6.1 6.2 6.2 6.2 6.2 6.2 6.1 6.1 6 6.1 6.2 6.2 6.1 6 6 5.9 5.8 5.7 5.6 5.7 5.7 5.7 5.7 5.8 5.8 5.7 5.7 5.7 5.7 5.8 5.8 5.8 5.9 5.9 6.1 7 5.6 5.5 5.4 5.5 5.3 5.4 5.4 5.4 5.4 5.5 5.6 5.7 5.7 5.6 5.6 5.5 5.5 5.5 5.4 5.6 5.6 5.5 5.4 5.4
-4 -4 -4 -4 -4 -4 -4 -4 -4 -4 -4 -4 -4 -4 -4 -4 -4 -4 -4 -4 -4 -4 -4 -4 -4 -4 -4 -4 -4 -4 -4 -4 -4 -4 -3.7 -3.4 -3.1 -2.9 -2.6 -2.3 -2 -1.8 -1.5 -1.2 -0.9 -0.6 -0.3 -0.1 0.2 0.5 0.8 1.1 1.4 1.7 2 2.3 2.6 2.9 3.2 3.5 3.8 4.1 4.4 8.6 8.4 7.9 8.7 7.5 6.1 5.5 5.5 5.6 5.7 5.8 5.8 5.7 5.7 5.7 5.8 5.8 5.8 5.8 5.7 5.7 5.8 5.8 5.8 4.9 5.8 5.8 5.8 5.8 5.8 5.8 5.8 5.8 5.8 5.8 5.8 5.9 6 6.1 6.1 6.2 6.2 6.2 6.1 6 5.9 6 6 6.1 6.1 6.2 6.2 6.2 6.2 6.2 6.2 6.2 6.2 6.2 6.3 6.3 6.4 6.5 5.8 5.7 4.8 6.1 7.4 8.9 8.3 7.5 7.3 7 6.4 6.5 6.4 6.3 6.2 6.2 6.2 6.2 6.2 6.2 6.1 6.1 6.1 6.1 6.2 6.2 6.1 6 5.9 5.9 5.8 5.7 5.6 5.7 5.7 5.7 5.7 5.8 5.7 5.7 5.6 5.6 5.7 5.7 5.8 5.8 5.9 5.9 7 5.2 5.8 5.6 5.3 5.3 5.4 5.4 5.4 5.4 5.4 5.5 5.6 5.7 5.6 5.6 5.5 5.5 5.4 5.5 5.5 5.6 5.6 5.5 5.5 5.4
-4 -4 -4 -4 -4 -4 -4 -4 -4 -4 -4 -4 -4 -4 -4 -4 -4 -4 -4 -4 -4 -4 -4 -4 -4 -4 -4 -4 -4 -4 -4 -4 -4 -3.8 -3.6 -3.3 -3 -2.8 -2.5 -2.2 -2 -1.7 -1.4 -1.1 -0.8 -0.6 -0.3 0 0.3 0.6 0.9 1.2 1.4 1.7 2 2.3 2.6 2.9 3.2 3.5 3.8 4.1 4.4 9.9 7.9 7.7 7 6.2 5.5 5.5 5.6 5.6 5.7 5.8 5.8 5.7 5.7 5.8 5.8 5.8 5.9 5.8 5.7 5.7 5.3 5.8 5.8 5.8 5.8 5.8 5.8 5.8 5.8 5.8 5.8 5.8 5.8 5.8 5.8 5.9 6 6 6.1 6.2 6.2 6.2 6.2 6.1 6 6.1 6.1 6.2 6.2 6.2 6.2 6.2 6.2 6.2 6.2 6.2 6.2 6.2 6.2 6.3 6.3 6.4 6.1 5.7 5 5.2 6.2 8.4 10.7 10.7 8.1 7.3 6.9 6.7 6.6 6.4 6.3 6.2 6.2 6.2 6.2 6.2 6.1 6.1 6.1 6.1 6.2 6.3 6.1 6 5.9 5.8 5.7 5.7 5.6 5.7 5.7 5.7 5.7 5.8 5.7 5.6 5.6 5.5 5.6 5.7 5.8 5.8 5.9 6.8 6.2 5.1 5.3 5.5 5.2 5.1 5.2 5 5.4 5.4 5.4 5.5 5.6 5.6 5.6 5.5 5.4 5.4 5.5 5.5 5.5 5.5 5.6 5.5 5.5 5.4
-4 -4 -4 -4 -4 -4 -4 -4 -4 -4 -4 -4 -4 -4 -4 -4 -4 -4 -4 -4 -4 -4 -4 -4 -4 -4 -4 -4 -4 -4 -4 -4 -4 -3.7 -3.5 -3.2 -3 -2.7 -2.4 -2.2 -1.9 -1.6 -1.3 -1.1 -0.8 -0.5 -0.2 0 0.3 0.6 0.9 1.2 1.5 1.8 2.1 2.4 2.7 2.9 3.2 3.5 3.8 4.1 4.4 9.5 8 7.2 6.2 5.6 5.6 5.6 5.6 5.6 5.7 5.8 5.8 5.7 5.7 5.8 5.8 5.7 5.8 5.8 5.8 5.8 5.8 5.8 5.8 5.8 5.8 5.8 5.8 5.8 5.8 5.8 5.8 5.8 5.8 5.8 5.8 5.9 5.9 6 6.1 6.1 6.2 6.2 6.2 6.2 6.1 6.2 6.2 6.2 6.2 6.2 6.2 6.2 6.2 6.2 6.2 6.2 6.2 6.2 6.2 6.3 6.3 6.3 6.1 6.1 6 3.9 5.8 7 8.5 10.8 11.6 10.4 8.6 6.6 6.7 6.5 6.4 6.3 6.2 6.3 6.2 6.2 6.2 6.1 6.1 6.2 6.2 6.3 6.2 6 5.9 5.8 5.8 5.7 5.6 5.7 5.7 5.7 5.8 5.8 5.7 5.6 5.5 5.5 5.5 5.6 5.7 5.5 6.2 6.7 5.1 5.2 5.1 5.2 5.2 5.1 3.5 5.2 3.5 5.4 5.4 5.5 5.5 5.5 5.5 5.4 5.4 5.4 5.5 5.5 5.5 5.6 5.6 5.6 5.4 5.5
-4 -4 -4 -4 -4 -4 -4 -4 -4 -4 -4 -4 -4 -4 -4 -4 -4 -4 -4 -4 -4 -4 -4 -4 -4 -4 -4 -4 -4 -4 -4 -4 -4 -3.6 -3.4 -3.1 -2.9 -2.6 -2.3 -2.1 -1.8 -1.5 -1.3 -1 -0.7 -0.4 -0.2 0.1 0.4 0.7 0.9 1.2 1.5 1.8 2.1 2.4 2.7 3 3.3 3.6 3.9 4.2 4.5 8.5 8 7.5 5.7 5.7 5.6 5.6 5.6 5.6 5.7 5.8 5.8 5.6 5.8 5.8 5.8 5.8 5.8 5.8 5.8 5.9 5.8 5.8 5.8 5.8 5.9 5.8 5.8 5.8 5.8 5.8 5.8 5.8 5.8 5.8 5.8 5.9 5.9 6 6.1 6.1 6.2 6.2 6.2 6.2 6.2 6.2 6.2 6.2 6.2 6.2 6.2 6.2 6.2 6.2 6.2 6.2 6.2 6.2 6.2 6.3 6.3 6.3 7.1 7.5 7 5.9 4.9 5.9 6.5 7.3 8.3 7.8 6.9 6.1 6.7 6.6 6.6 6.5 6.7 6.3 6.2 6.2 6.1 6.1 6.2 6.3 6.3 6.3 6.2 6.1 5.9 5.8 5.8 5.7 5.6 5.6 5.7 5.7 5.8 5.8 5.7 5.6 5.5 5.4 5.4 5.4 5.7 8.3 6.6 5.1 5.2 5.3 5.2 5.1 5.1 5 5.2 5.3 5.3 5.4 5.4 5.4 5.5 5.4 5.4 5.4 5.4 5.4 5.5 5.5 5.6 5.6 5.6 5.5 5.4 4
-4 -4 -4 -4 -4 -4 -4 -4 -4 -4 -4 -4 -4 -4 -4 -4 -4 -4 -4 -4 -4 -4 -4 -4 -4 -4 -4 -4 -4 -4 -4 -4 -3.8 -3.5 -3.3 -3 -2.8 -2.5 -2.2 -2 -1.7 -1.4 -1.2 -0.9 -0.6 -0.4 -0.1 0.2 0.5 0.7 1 1.3 1.6 1.8 2.1 2.4 2.7 3 3.3 3.6 3.9 4.2 4.5 8.4 7.6 6.7 5.7 5.7 5.7 5.7 5.7 5.7 5.7 5.8 5.8 5.6 5.8 5.8 5.8 5.8 5.7 5.7 5.7 5.9 5.8 5.8 5.8 5.8 5.9 5.9 5.9 5.9 5.8 5.8 5.8 5.8 5.8 5.7 5.8 5.8 5.9 6 6 6.1 6.1 6.2 6.2 6.2 6.2 6.2 6.2 6.2 6.2 6.2 6.2 6.2 6.2 6.3 6.3 6.2 6.5 6.1 6.2 6.3 6.3 6.7 8.2 8.7 7.3 5.9 5.9 4.9 5.4 5.8 6.4 6.2 6.2 6.2 6.6 6.5 6.4 6.3 6.3 6.4 6.1 6.1 6.1 6.2 6.3 6.3 6.4 6.3 6.2 6.1 6 6 5.9 5.7 5.6 5.6 5.7 5.7 5.8 5.8 5.7 5.6 5.6 5.3 5.2 7.3 7.3 6.6 5.1 5.2 5.3 5.4 5.3 5.1 3.7 5.1 5.2 5.4 5.3 5.1 5 5.4 5.4 5.4 5.4 5.4 5.4 5.4 5.5 5.5 5.5 5.5 5.4 5.3 5.3 5.8
-4 -4 -4 -4 -4 -4 -4 -4 -4 -4 -4 -4 -4 -4 -4 -4 -4 -4 -4 -4 -4 -4 -4 -4 -4 -4 -4 -4 -4 -4 -4 -3.9 -3.7 -3.4 -3.2 -2.9 -2.7 -2.4 -2.2 -1.9 -1.6 -1.4 -1.1 -0.8 -0.6 -0.3 0 0.3 0.5 0.8 1.1 1.4 1.6 1.9 2.2 2.5 2.7 3 3.3 3.6 3.9 4.2 4.6 8.6 7.7 6.1 5.8 5.8 5.8 5.8 5.7 5.8 5.8 5.8 5.7 4.1 5.8 5.8 5.8 5.8 5.6 5.6 5.7 5.9 5.8 5.8 5.8 5.8 5.9 5.9 5.9 5.9 5.9 5.9 5.9 5.9 5.8 5.7 5.8 5.8 5.9 6.1 6.1 6.2 6.2 6.2 6.2 6.3 6.3 6.3 6.3 6.2 6.2 6.2 6.2 6.4 6.4 6.4 6.2 6.3 6.7 6.1 6.1 6.3 6.3 7.6 9.1 8.8 7.4 5.8 5.8 5.9 5.2 5.8 6.1 5.8 6.1 6.3 6.5 6.4 6.3 6.2 6.2 6.1 6.1 6.2 6.2 6.3 6.4 6.4 6.5 6.3 6.1 6.1 6.1 6.1 5.9 5.7 5.6 5.6 5.7 5.7 5.9 5.8 5.7 5.7 5.6 5.6 7.5 5.7 6 6.6 5.1 5.2 5.3 5.4 5.3 5.1 5.3 5.1 5.3 5.4 5.3 5.2 5.1 3.5 5.4 5.4 5.4 5.4 5.4 5.4 5.4 5.4 5.4 4 5.3 6.2 5.6 5.7
-4 -4 -4 -4 -4 -4 -4 -4 -4 -4 -4 -4 -4 -4 -4 -4 -4 -4 -4 -4 -4 -4 -4 -4 -4 -4 -4 -4 -4 -4 -4 -3.8 -3.5 -3.3 -3 -2.8 -2.5 -2.3 -2.1 -1.8 -1.5 -1.3 -1 -0.8 -0.5 -0.2 0 0.3 0.6 0.9 1.1 1.4 1.7 2 2.2 2.5 2.8 3.1 3.4 3.6 3.9 4.2 5.6 8.3 7.9 5.8 5.8 5.8 5.8 5.8 5.8 4.3 5.8 5.7 5.8 5.8 5.8 5.8 5.8 5.8 5.7 5.5 5.7 5.9 5.7 5.7 5.7 5.7 5.8 5.8 5.8 5.8 5.9 5.9 5.9 5.9 5.8 5.7 5.8 5.9 6 6.1 6.2 6.2 6.3 6.3 6.3 6.3 6.4 6.3 6.3 6.3 6.3 6.2 6.3 6.5 6.5 6.3 6.2 6.5 6.8 6.3 6.1 6.3 7.2 9.1 9 8.5 6.9 5.5 5.5 5.5 4.5 5.7 5.7 5.7 6 6.3 6.4 6.3 6.3 6.2 6.2 6.1 6.2 6.3 6.3 6.4 6.5 6.5 6.5 6.2 6 6.2 6.1 5.8 5.8 5.7 5.6 5.6 5.8 6 5.8 5.8 5.7 5.7 5.6 5.6 5.6 9.6 6.6 5.2 5.2 5.3 5.4 5.3 5.1 4.5 5.3 5.1 5.3 5.4 5.4 5.3 5.2 5.1 5 5.4 5.4 5.5 5.7 5.4 5.4 5.4 5.4 6.1 5.4 5.5 5.5 5.6
-4 -4 -4 -4 -4 -4 -4 -4 -4 -4 -4 -4 -4 -4 -4 -4 -4 -4 -4 -4 -4 -4 -4 -4 -4 -4 -4 -4 -4 -4 -3.9 -3.6 -3.4 -3.2 -2.9 -2.7 -2.5 -2.2 -2 -1.7 -1.4 -1.2 -0.9 -0.7 -0.4 -0.2 0.1 0.4 0.7 0.9 1.2 1.5 1.8 2 2.3 2.6 2.8 3.1 3.4 3.7 4 4.3 7 8.6 7.7 5.9 5.8 5.8 5.8 5.8 5.7 5.6 5.7 5.6 5.8 5.8 5.8 5.8 5.8 5.9 5.8 5.8 5.7 6.7 6.5 5.5 5.5 5.6 5.7 5.8 5.8 5.8 5.8 5.8 5.8 5.8 5.8 5.8 5.9 6 6.1 6.2 6.2 6.3 6.3 6.3 6.4 6.4 6.4 6.4 6.4 6.3 6.3 6.2 6.4 6.5 6.5 6.3 6.2 6.5 6.9 6.2 6.5 7.2 8.9 9.2 8.1 6.7 6 5.5 5.7 5.9 6 3.9 5.3 5.6 5.9 6.3 6.3 6.3 6.3 6.2 6.2 6.3 6.4 6.4 6.5 6.5 6.6 6.6 6.5 6.5 6.2 6.1 5.8 5.7 5.6 5.6 5.7 5.9 6.1 5.7 5.7 5.7 5.7 5.7 5.6 5.6 5.6 6.6 5.9 5 5.3 5.4 5.4 5.2 5 5.3 5.3 5 5.2 5.3 5.4 5.3 5.2 5.1 5.3 5 5.5 5.8 5.4 4.1 5.2 5.4 5.4 5.4 5.4 5.5 5.5 5.6
-4 -4 -4 -4 -4 -4 -4 -4 -4 -4 -4 -4 -4 -4 -4 -4 -4 -4 -4 -4 -4 -4 -4 -4 -4 -4 -4 -4 -4 -4 -3.8 -3.5 -3.3 -3.1 -2.8 -2.6 -2.3 -2.1 -1.9 -1.6 -1.3 -1.1 -0.8 -0.6 -0.3 -0.1 0.2 0.5 0.7 1 1.3 1.5 1.8 2.1 2.4 2.6 2.9 3.2 3.5 3.7 4 4.3 8.3 8.5 7.7 5.9 5.8 5.8 5.8 4.5 5.6 5.5 5.5 5.6 5.7 5.8 5.8 5.8 5.9 5.9 5.7 5.8 7.3 8.5 6.8 5.4 5.5 5.5 5.6 5.8 5.8 5.8 5.8 5.8 5.8 5.8 5.8 5.8 5.9 6 6.1 6.2 6.3 6.3 6.4 6.4 6.4 6.5 6.5 6.5 6.4 6.4 6.3 6.3 6.5 6.5 6.5 6.3 6.3 6.4 6.6 6.8 7.1 6.9 7.6 7 6.8 6.4 5.8 5.6 5.8 6.2 6.5 6 4.7 5.6 5.9 6 5.9 6.3 6.3 6.2 6.3 6.4 6.5 6.5 6.6 6.6 6.6 6.6 6.8 6.8 5.6 5.3 5.6 5.6 5.7 5.8 6.1 6.2 5.7 5.7 5.7 5.7 5.7 5.6 5.6 5.6 5.6 6.6 6.8 5.4 5.3 5.3 5.1 5.3 5.3 5.3 5.3 5.3 5.1 5.2 5.3 5.3 5.2 5.4 5.5 5.5 5 4.6 5.2 5.2 6.2 5.3 5.3 5.3 5.4 5.5 5.5 5.6
-4 -4 -4 -4 -4 -4 -4 -4 -4 -4 -4 -4 -4 -4 -4 -4 -4 -4 -4 -4 -4 -4 -4 -4 -4 -4 -4 -4 -4 -3.9 -3.6 -3.4 -3.2 -2.9 -2.7 -2.5 -2.2 -2 -1.8 -1.5 -1.3 -1 -0.8 -0.5 -0.2 0 0.3 0.5 0.8 1.1 1.3 1.6 1.9 2.1 2.4 2.7 3 3.2 3.5 3.8 4.1 4.3 9.1 7.9 7.2 6 5.9 5.9 5.8 5.8 5.7 5.7 5.5 5.6 5.7 5.8 5.8 5.9 5.9 5.9 5.7 5.8 7.3 9.1 8 6.1 5.9 5.6 5.6 5.7 5.8 5.8 5.8 5.8 5.8 5.8 5.9 5.9 5.9 6.1 6.2 6.3 6.3 6.4 6.4 6.4 6.5 6.5 6.5 6.5 6.4 6.4 6.3 6.4 6.4 6.4 6.4 6.3 6.4 6.5 7.4 7.7 7.8 6.9 6.7 6.5 6.3 6.1 5.9 5.8 5.6 6 6.4 6.2 3.9 5.4 5.9 5.7 5.6 5.9 6.3 6.4 6.4 6.5 6.6 6.7 6.7 6.6 6.5 6.7 6.9 6.1 6 5.4 5.8 5.9 6 6.2 6.3 6.1 5.8 5.7 5.7 5.7 5.6 5.6 5.6 5.6 6.4 5 5 5 5.4 5.6 5.6 5.6 5.4 5.3 5.4 5.6 5.4 5.1 5.2 5.3 5.3 5.4 5.5 5.4 5.1 5.1 5.1 5.3 5.3 5.2 5.2 5.3 5.4 5.5 5.5 5.6
-4 -4 -4 -4 -4 -4 -4 -4 -4 -4 -4 -4 -4 -4 -4 -4 -4 -4 -4 -4 -4 -4 -4 -4 -4 -4 -4 -4 -4 -3.7 -3.5 -3.3 -3.1 -2.8 -2.6 -2.4 -2.1 -1.9 -1.6 -1.4 -1.2 -0.9 -0.7 -0.4 -0.2 0.1 0.4 0.6 0.9 1.1 1.4 1.7 1.9 2.2 2.5 2.7 3 3.3 3.6 3.8 4.1 4.4 9.8 8 7 6 5.9 5.8 5.3 5.8 5.8 5.6 5.5 5.7 5.7 5.7 5.8 5.9 6 5.7 5.5 5.6 6.6 8.2 8.1 6.9 6.3 5.7 5.6 5.6 5.7 5.7 5.8 5.8 5.9 6 6.2 5.9 5.9 6.1 6.2 6.3 6.3 6.4 6.4 6.5 6.6 6.6 6.6 6.5 6.4 6.4 6.3 6.4 6.4 6.4 6.4 6.4 6.5 6.6 7.6 8.4 7.6 6.7 6.5 6.3 6.1 6.1 5.9 5.9 5.8 5.8 6.3 6.3 5.9 5.1 5.4 5.3 5.3 5.6 6.3 6.4 6.6 6.7 6.7 6.8 6.6 6.5 6.3 6.7 6.4 5.6 5.3 5.5 5.8 6.1 6.3 6.3 6.3 6 5.8 5.7 5.6 5.6 5.6 5.6 5.5 5.6 6.3 5.1 5.1 5.1 5.3 5.6 5.9 5.3 5.2 5.2 5.3 5.5 5.6 5.1 5.1 5.3 5.3 5.4 5.4 5.3 5.1 6.2 5.2 5.1 5.2 5.1 5.1 5.2 5.3 5.5 5.5 5.5
-4 -4 -4 -4 -4 -4 -4 -4 -4 -4 -4 -4 -4 -4 -4 -4 -4 -4 -4 -4 -4 -4 -4 -4 -4 -4 -4 -4 -3.8 -3.5 -3.3 -3.1 -2.9 -2.7 -2.5 -2.3 -2 -1.8 -1.5 -1.3 -1.1 -0.8 -0.6 -0.3 -0.1 0.2 0.4 0.7 0.9 1.2 1.5 1.7 2 2.2 2.5 2.8 3.1 3.3 3.6 3.9 4.2 4.4 8.4 7.3 6.5 5.8 5.8 5.8 5.8 5.8 5.7 5.6 5.6 5.7 5.6 5.7 5.8 5.9 6 5.8 5.6 5.5 5.7 6.9 6.6 6.5 6.3 5.9 5.7 5.8 5.7 5.7 5.8 5.9 6 6.1 6.4 6.6 6 6.1 6.3 6.3 6.5 6.6 6.7 6.8 6.8 6.5 6.6 6.5 6.4 6.4 6.3 6.4 6.5 6.5 6.7 6.4 6.5 7.6 8.3 8.8 7.5 6.5 6.3 6.2 6.2 6 5.8 5.8 5.8 5.8 6.3 6.5 6.4 3.9 4.8 5 5.3 5.7 6.2 6.4 6.5 6.7 6.5 6.6 6.5 6.3 6.2 4.2 5.6 5.6 5.6 5.8 6.1 6.4 6.3 6.3 6.3 6 5.9 5.8 5.7 5.6 5.6 5.5 5.3 6.3 5 5.1 5.1 5.1 5.3 5.2 5.2 5.2 5.2 5.2 5.2 5.3 5.3 5 5.3 5.3 5.2 5.3 5.3 5.9 5.4 5.4 5.4 5.4 5.4 5 5 5.1 5.3 5.4 5.4 5.4
-4 -4 -4 -4 -4 -4 -4 -4 -4 -4 -4 -4 -4 -4 -4 -4 -4 -4 -4 -4 -4 -4 -4 -4 -4 -4 -4 -4 -3.6 -3.4 -3.1 -2.9 -2.8 -2.5 -2.3 -2.1 -1.9 -1.7 -1.4 -1.2 -1 -0.7 -0.5 -0.2 0 0.2 0.5 0.8 1 1.3 1.5 1.8 2.1 2.3 2.6 2.8 3.1 3.4 3.7 3.9 4.2 5 8.4 7.9 6.3 5.7 5.7 5.7 5.8 5.8 5.7 5.6 5.6 5.6 5.6 5.6 5.7 5.8 5.9 6 5.7 5.7 5.7 5.9 5.9 6.1 5.9 5.7 5.8 5.8 5.9 6 6.1 6.1 6.2 6.3 6.3 6.2 6.4 6.3 6.4 6.7 6.8 6.9 7.1 7 6.6 6.6 6.5 6.4 6.4 6.3 6.6 6.7 6.8 7.1 6.8 6.7 7.3 8.3 9.7 9.6 8.2 6.4 6.3 6.4 6.2 5.9 5.8 5.7 5.7 5.9 6.3 6.5 6.4 6.4 4.8 4.9 5.3 5.7 6.1 6.3 6.3 6.3 6.1 6.7 6.3 5.7 5.9 6.6 6.3 6.1 6 6.2 6.4 6.4 6.4 6.3 6.3 6.1 6 5.9 5.8 5.7 5.5 5.3 5.7 6.3 5.1 5.1 5.2 5.2 5.2 5.3 5.3 5.2 5.2 5.2 5.2 5.3 5.3 5.3 5.5 5.4 5.2 5.2 5.5 5.4 5.4 5.4 5.4 5.8 5.9 5.9 5.1 3.7 5.1 5.2 5.3 5.3
-4 -4 -4 -4 -4 -4 -4 -4 -4 -4 -4 -4 -4 -4 -4 -4 -4 -4 -4 -4 -4 -4 -4 -4 -4 -4 -4 -3.7 -3.5 -3.2 -2.9 -2.7 -2.5 -2.4 -2.2 -2 -1.7 -1.5 -1.3 -1.1 -0.9 -0.6 -0.4 -0.1 0.1 0.4 0.6 0.8 1.1 1.3 1.6 1.8 2.1 2.4 2.6 2.9 3.2 3.4 3.7 4 4.2 6.1 8.4 8.2 5.8 5.6 5.6 5.6 5.7 5.8 5.7 5.6 5.6 5.6 5.6 5.6 5.7 5.8 5.9 6 5.8 5.8 5.8 5.9 6.1 6.1 6.1 6.1 5.9 6.3 6.7 6.7 6.7 6.6 6.6 6.6 6.5 6.5 6.9 7.2 6.6 6.9 7.2 7.3 7.2 6.8 6.4 6.7 6.3 6.3 6.6 7 7.4 7.6 7.9 7.9 8 8.1 8.6 10 11 11.4 10 7.8 6.5 6.4 6.1 5.9 5.7 5.7 5.7 5.9 6.3 6.4 6.4 6.3 5.1 4.8 5.1 5.4 5.8 6.6 6.8 6.6 6.2 6.3 5.4 6 6.2 6.4 6.4 6.5 6.4 6.5 6.5 6.5 6.4 6.3 6.3 6.2 6.1 6.1 6 5.9 5.5 5.2 6.3 5.3 5.3 5.4 5.3 5.3 5.3 5.4 5.4 5.3 5.3 5.2 5.2 5.2 5.1 5.3 5.2 5.2 6.2 5.4 5.4 5.4 5.4 5.6 5.7 5.8 5.9 5.8 5.3 5.2 5 5 5.1 5.1
-4 -4 -4 -4 -4 -4 -4 -4 -4 -4 -4 -4 -4 -4 -4 -4 -4 -4 -4 -4 -4 -4 -4 -4 -4 -4 -4 -3.6 -3.3 -3 -2.7 -2.5 -2.3 -2.2 -2 -1.8 -1.6 -1.4 -1.2 -0.9 -0.7 -0.5 -0.3 0 0.2 0.4 0.7 0.9 1.2 1.4 1.7 1.9 2.2 2.4 2.7 3 3.2 3.5 3.8 4 4.3 7.4 8.5 7.9 6 5.5 5.5 5.6 5.7 4.1 5.7 5.6 5.6 5.6 5.5 5.5 5.6 5.7 5.8 5.9 6 5.9 6.1 6.4 6.6 6.6 6.4 6.3 6.1 6.9 7.5 7.6 7.7 8.9 8.7 8.2 7.8 7.5 7.7 8.1 7.5 6.7 7 7 6.6 6.9 7.8 7.9 7.9 7.7 8.2 9.5 10.1 9.8 10.3 9.9 9.4 9.7 10.3 11.7 12.1 12.5 11.8 9.3 6.6 6.3 6.1 5.8 5.6 5.6 6.2 6 6.2 6.3 6.4 6.2 5.8 5.6 4.6 5 5.3 5.7 5.7 5.2 5.1 4.7 6.4 6.5 6.5 6.4 6.3 6.4 6.5 6.6 6.5 6.4 6.3 6.3 6.1 6.1 6.2 6.2 6.1 6 5.9 5.3 6.4 5.4 5.4 5.4 5.3 5.3 5.3 5.4 5.5 5.6 5.6 5.7 5.8 6.5 5 5.1 5.1 5.4 5.4 5.4 5.4 5.5 5.5 5.6 5.7 5.9 5.9 5.8 5.7 5.4 5.3 5.1 4.5 5
-4 -4 -4 -4 -4 -4 -4 -4 -4 -4 -4 -4 -4 -4 -4 -4 -4 -4 -4 -4 -4 -4 -4 -4 -4 -4 -3.7 -3.4 -3.1 -2.8 -2.6 -2.3 -2.1 -1.9 -1.8 -1.6 -1.4 -1.2 -1 -0.8 -0.6 -0.3 -0.1 0.1 0.3 0.5 0.8 1 1.3 1.5 1.8 2 2.2 2.5 2.8 3 3.3 3.5 3.8 4.1 4.3 8.9 8 7.3 6.5 6 5.9 5.8 5.7 5.8 5.7 5.6 5.6 5.5 5.5 5.5 5.6 5.7 5.8 5.9 6.5 6.5 7 7.3 7.8 7.7 7.3 7.7 8.4 9 9 8.2 7.6 11.7 13.6 13.5 13.1 12.3 12 11.5 11.3 10.9 10.2 9.3 11.5 11.5 12.2 12.8 11 10.6 10.9 12.1 12.7 12.8 12.6 12.2 11.8 11.8 12.1 12.7 13.1 13.4 12.9 10.4 7.1 6.5 6 5.7 5.6 6 6.2 6 6.1 6.3 6.4 6 5.6 5.3 5.4 5.6 4.8 5.7 5.2 4.9 4.7 4.7 5.1 6.1 6.6 6.6 6.5 6 6.1 6.3 6.5 6.4 6.3 6.2 6 5.9 6 6 6 6 6 6.6 5.1 5.4 5.4 5.4 5.3 5.3 5.3 5.4 5.4 5.4 5.4 5.5 5.6 5.4 8.6 6.1 5.5 5.5 5.4 5.5 5.5 5.6 5.6 5.7 5.8 5.9 5.8 5.7 5.5 5.5 5.4 5.3 5.1 4.9
-4 -4 -4 -4 -4 -4 -4 -4 -4 -4 -4 -4 -4 -4 -4 -4 -4 -4 -4 -4 -4 -4 -4 -4 -4 -3.7 -3.4 -3.2 -2.9 -2.7 -2.4 -2.1 -1.9 -1.7 -1.5 -1.4 -1.2 -1 -0.8 -0.6 -0.4 -0.2 0 0.2 0.5 0.7 0.9 1.1 1.4 1.6 1.8 2.1 2.3 2.6 2.8 3.1 3.3 3.6 3.9 4.1 4.4 9.4 7.8 6.9 6.2 6 6 6 5.9 5.9 5.8 5.7 5.7 5.6 5.6 5.6 5.6 5.7 5.8 6.2 6.5 7.9 8.8 9.5 9.9 10 9.8 11.1 12 11.9 11.3 9 8.3 10.1 12.4 15.1 15.6 17.5 18 17.1 16.1 15.8 14.7 11.2 15.6 16.7 17.2 16.3 16.4 15.6 14.2 13.6 13.9 14 14.6 14.3 14 13.7 13.4 13.6 13.9 14.1 13.9 11.5 8.6 6.4 6.4 5.9 5.7 5.7 5.8 6 6.1 6.2 6.2 5.8 5.6 5.8 5.9 5 4 5.8 5.4 5 4.6 4.8 4.9 5 6.2 6.7 6.8 6.4 5.8 6 6.2 6.3 6.2 6 5.8 5.8 5.8 5.8 5.8 5.9 5.3 6.8 5.1 5.4 5.4 5.4 5.3 5.3 5.3 5.5 5.5 5.3 5.2 5.3 5.3 5.4 5.4 5.5 5.6 5.6 5.5 5.5 5.6 5.6 5.7 5.8 5.8 5.8 5.7 5.5 5.4 5.3 5.3 5.2 5.2 5.2
-4 -4 -4 -4 -4 -4 -4 -4 -4 -4 -4 -4 -4 -4 -4 -4 -4 -4 -4 -4 -4 -4 -4 -4 -4 -3.5 -3.2 -2.9 -2.8 -2.5 -2.2 -1.9 -1.7 -1.5 -1.3 -1.1 -1 -0.9 -0.7 -0.4 -0.2 0 0.2 0.4 0.6 0.8 1 1.3 1.5 1.7 1.9 2.2 2.4 2.7 2.9 3.2 3.4 3.7 3.9 4.2 4.4 8.4 7.4 6.8 6.2 6 6 6 6 5.9 5.7 5.8 5.7 5.7 5.7 5.7 5.7 5.6 5.6 5.6 7 10.8 11.4 11.1 11.6 11.9 11.4 13.7 15.2 14.4 12.4 9.3 9.9 10.7 11.9 13.7 13.5 17.8 22.3 23.8 22.8 21.4 19.7 18.4 19.2 20 20.4 20.3 19.6 18.7 17.5 16.2 15.2 15 15 15.2 15.3 15 15.1 14.9 15 15.4 15.6 13.6 10.8 8.2 6.6 6.4 5.7 5.8 5.9 6 6 6 5.9 5.8 5.8 6.2 6.3 6.3 4.5 5.4 6.1 3.9 4.5 4.6 4.7 4.7 5.1 6.4 6.6 6.7 5.7 5.9 6.1 6.2 6.1 5.9 5.7 5.6 5.6 5.6 5.6 5.5 7.7 5.7 5.2 5.4 5.4 5.3 5.3 5.2 5.3 5.5 5.5 5.3 5.1 5.1 5.8 5.4 5.4 5.6 5.6 5.5 5.6 5.6 5.6 5.7 5.7 5.8 5.9 5.8 5.6 5.5 5.4 5.3 5.2 5.2 5.2 5.3
-4 -4 -4 -4 -4 -4 -4 -4 -4 -4 -4 -4 -4 -4 -4 -4 -4 -4 -4 -4 -4 -4 -4 -4 -3.6 -3.2 -2.9 -2.6 -2.5 -2.3 -2 -1.7 -1.5 -1.2 -1.1 -0.9 -0.7 -0.6 -0.5 -0.3 -0.1 0.2 0.4 0.6 0.8 1 1.2 1.4 1.6 1.8 2.1 2.3 2.5 2.7 3 3.2 3.5 3.7 4 4.2 5.9 8.1 7.4 6.7 6.1 5.8 5.9 6 5.7 5.9 5.8 5.8 5.8 5.8 5.8 5.8 5.7 5.6 5.5 5.5 6.5 11.3 15.8 15.8 14 12 11.9 13.5 15.4 15.4 14.1 13.1 13 13.5 14 15.6 17 17.8 18.1 23.8 25.5 24.4 21.4 19.3 17.2 19 19 19.1 19.2 18.4 18.4 18 17.5 15.8 14.8 13.8 15.2 15.9 15 15.6 16.2 16.6 16.9 15.9 13.8 10.3 7.2 6.3 5.8 5.8 5.9 6 5.9 5.8 5.7 5.6 5.9 6.3 6.2 6 3.4 5.5 6.3 6 5.2 4.7 4.7 4.8 4.9 6.7 6.6 6.3 6.1 6 6 6 6.1 5.9 5.7 5.4 5.4 5.4 5.3 5.3 7.9 5.1 5.2 5.4 5.3 5.3 5.2 5.2 5.3 5.5 5.4 5.2 5.9 5.1 5.3 5.5 5.6 5.6 5.6 5.6 5.7 5.7 5.7 5.7 5.8 5.8 5.9 5.7 5.6 5.4 5.3 5.3 5.3 5.3 5.3 5.4
-4 -4 -4 -4 -4 -4 -4 -4 -4 -4 -4 -4 -4 -4 -4 -4 -4 -4 -4 -4 -4 -4 -4 -3.7 -3.3 -3 -2.7 -2.4 -2.1 -2 -1.9 -1.6 -1.3 -1.1 -0.8 -0.7 -0.5 -0.3 -0.2 -0.1 0.1 0.3 0.5 0.7 1 1.2 1.4 1.6 1.8 2 2.2 2.4 2.6 2.9 3.1 3.3 3.6 3.8 4.1 4.3 8.4 7.8 7.1 6.7 6.1 5.7 5.8 5.9 5.9 5.6 5.7 5.8 5.9 5.9 5.9 5.9 5.8 5.6 5.6 5.8 6.2 8.7 15.4 16.5 13 12.4 13.1 15 15.9 16.5 16.1 16.3 16.2 16.7 17.3 18.2 20.1 22 22 23.1 23.8 23.6 20.3 17.1 14.2 13.9 13.3 13.4 13.1 14.6 16.6 17.4 16.3 17.5 15.9 12.3 11.8 12.7 14 15.9 17.2 17.4 17.9 20.5 16.3 12.2 8.8 6.7 6.1 5.9 6 6 5.8 5.7 5.6 5.7 6.2 6.2 6.1 5.3 5 3 5.7 5.7 5.6 4.7 4.8 4.9 5 6.7 6.5 6.3 6.2 5.8 5.9 5.9 5.9 6 5.9 5.8 5.5 5.4 5.4 7.1 8.5 5.1 5.2 5.3 5.3 5.2 5.2 5.1 5.3 5.3 5.1 5 5.7 5.7 5.6 5.5 5.5 5.6 5.6 5.7 5.8 5.8 5.8 5.8 5.8 5.9 5.8 5.7 5.5 5.4 5.3 5.3 5.3 5.4 5.4 5.4
-4 -4 -4 -4 -4 -4 -4 -4 -4 -4 -4 -4 -4 -4 -4 -4 -4 -4 -4 -4 -4 -4 -3.8 -3.4 -3.1 -2.8 -2.5 -2.2 -1.8 -1.6 -1.6 -1.4 -1.1 -0.9 -0.6 -0.4 -0.2 -0.1 0 0.2 0.3 0.5 0.7 0.9 1.1 1.3 1.5 1.8 2 2.2 2.4 2.6 2.8 3 3.2 3.5 3.7 3.9 4.1 4.4 9.4 7.5 6.6 6.3 5.9 5.5 5.6 5.8 6 6 6 5.8 5.9 5.9 6 5.9 5.9 5.8 6 6.1 5.9 7.1 9.5 9.9 11.8 13.4 14.4 15.9 17.2 18.5 19 19.2 19.5 20.3 21.1 21.9 24.4 25.6 26.3 26.7 25.1 21.6 18.9 16.4 14.2 12.3 10.3 8.9 8 8 7.3 8.8 11.5 14.5 13.1 10 9.3 9.2 10 10.9 14.2 15.2 16.3 17 15.4 12.4 10.3 6.9 6.5 6 6.1 5.9 5.7 5.6 5.7 5.9 6 6 5.9 5.7 5.5 5.3 4.8 5.6 5.8 5.7 4.7 4.8 6.2 6.8 6.8 6.6 6.3 5.7 5.8 5.8 5.9 5.9 6.1 6.1 5.9 5.7 5.4 9.7 5.7 5.3 5.2 5.2 5.2 5.1 5.1 5.1 5 5.9 5 5.4 5.7 5.6 5.5 5.5 5.5 5.6 5.6 5.7 5.8 5.9 5.9 5.9 5.9 5.9 5.7 5.5 5.3 5.4 5.4 5.4 5.4 5.4 5.4 5.4
-4 -4 -4 -4 -4 -4 -4 -4 -4 -4 -4 -4 -4 -4 -4 -4 -4 -4 -4 -4 -4 -4 -3.5 -3.2 -2.9 -2.6 -2.3 -1.9 -1.6 -1.3 -1.2 -1.1 -0.9 -0.6 -0.4 -0.1 -0.1 0.2 0.3 0.4 0.5 0.7 0.9 1.1 1.3 1.5 1.7 1.9 2.1 2.3 2.6 2.8 3 3.2 3.4 3.6 3.8 4 4.3 4.6 8.4 7.3 6.3 6.1 5.9 5.6 5.9 6 6.2 6.2 5.9 6 6.1 6.3 6.7 7.1 7.2 7.3 7.4 7.6 7.7 8.8 10.7 11.3 13 14.9 15.9 17.2 19.1 20.8 22.1 23.1 24.2 26.1 27 27.3 28.7 31.1 32 32 29.4 25.2 21.1 19 16.5 14 11 8.6 7.5 7 6.7 6.5 6.4 7.2 7.7 7.3 6.9 6.7 6.5 6.3 6.3 8 10.6 11.5 11.8 10.5 7.2 6.6 6.5 6.3 6.1 5.9 5.7 5.6 5.7 5.8 6 6.1 6.1 6.1 6 5.9 4.1 6.5 6.2 6 5.7 4.9 5.3 6.7 6.8 6.8 6.5 5.7 5.8 5.8 5.9 5.9 6.1 6.1 5.8 5.6 5.4 10.4 5.3 5.3 5.2 5.2 5.2 5.1 5.1 5 5.5 5.2 5.1 5.2 5.7 5.6 5.5 5.5 5.5 5.5 5.6 5.8 5.8 5.9 5.9 5.9 5.9 5.7 5.5 5.3 5.3 5.4 5.4 5.6 5.6 5.6 5.5 5.5
-4 -4 -4 -4 -4 -4 -4 -4 -4 -4 -4 -4 -4 -4 -4 -4 -4 -4 -4 -4 -4 -3.6 -3.2 -3 -2.6 -2.4 -2 -1.7 -1.4 -1.1 -0.8 -0.8 -0.7 -0.5 -0.2 0 0.3 0.4 0.5 0.7 0.8 0.9 1 1.2 1.5 1.7 1.9 2.1 2.3 2.5 2.7 2.9 3.1 3.4 3.6 3.8 4 4.2 4.4 7.4 8.1 6.9 6.3 6.2 6 5.8 6.1 6.3 6.5 6.4 6 6.2 7.3 7.7 8.5 9 9.7 10.6 11 11.4 11.7 12.2 13.1 14.1 15.1 17 18.7 20 21.4 23.4 25.4 27.6 29 30.9 32.4 32.8 33.8 35.4 37.1 37.2 35.1 30.4 27 21.3 19.5 17 13.9 10.3 8.3 7.5 7 6.2 6.6 6.4 6.4 6.7 6.5 6.4 6.5 6.4 6.4 6.3 6.3 7.3 6.6 6.3 6.2 6 6 6.1 6.1 6.1 5.9 5.8 5.9 6.1 6.2 6.2 6.2 6.2 6.2 5.2 3.9 6.5 6.3 6.1 6 5.4 5 5.5 6.2 6.5 6.8 6.1 5.8 5.8 5.9 5.9 6 6 5.8 5.5 10.4 10.6 5.3 5.3 5.2 5.2 5.1 5.1 5.9 5.4 5.6 5.5 5.2 5.1 5.5 5.5 5.5 5.5 5.5 5.5 5.6 5.6 5.7 5.9 6 6 5.8 5.5 5.2 5.3 5.5 5.5 5.5 5.6 5.7 5.7 5.7 5.6
-4 -4 -4 -4 -4 -4 -4 -4 -4 -4 -4 -4 -4 -4 -4 -4 -4 -4 -4 -4 -3.6 -3.3 -2.9 -2.6 -2.4 -2 -1.8 -1.5 -1.2 -0.8 -0.5 -0.4 -0.3 -0.3 0 0.3 0.5 0.6 0.8 1 1.1 1.2 1.3 1.4 1.6 1.8 2 2.3 2.5 2.7 2.9 3.1 3.3 3.5 3.7 3.9 4.2 4.4 4.5 9.4 7.5 6.4 6.2 6.2 6.2 6 6.3 6.6 6.7 6.7 6.3 7.2 8.8 10.1 11.3 12 13.4 14.5 15.5 16.5 16.9 17.8 18.5 19.4 19.2 20.9 22.5 23.2 25.3 27.5 29.3 31.5 33.4 36.5 40.6 45.9 50.8 57.3 64.3 63.5 54 38.3 32.5 30.7 23.1 20 16.6 12.9 9.9 8.5 7.6 6.5 6.5 6.2 6.1 6.4 6.3 6.5 6.6 6.5 6.4 6.3 6.1 6.1 6.1 5.9 5.8 5.7 5.9 6.1 6 6 6.3 6.1 6.2 6.3 6.3 6.3 6.4 6.4 6.4 5 4 6.1 6.3 6.1 5.9 5.8 4.5 6.2 6.1 6.4 6.7 6.2 5.8 5.9 6 6 6 5.9 5.7 5.4 11.3 6.9 5.3 5.3 5.2 5.1 5.8 5.5 5.5 5.4 5.6 5.5 5.5 5.3 5.3 5.5 5.4 5.4 5.5 5.5 5.6 5.6 5.7 5.8 6 5.9 5.6 5.3 5.3 5.6 5.6 5.6 5.6 5.7 5.8 5.8 5.8 5.7
-4 -4 -4 -4 -4 -4 -4 -4 -4 -4 -4 -4 -4 -4 -4 -4 -4 -4 -4 -4 -3.4 -2.9 -2.6 -2.3 -2 -1.8 -1.4 -1.3 -0.9 -0.6 -0.3 0 0 0.1 0.2 0.4 0.7 0.9 1 1.2 1.3 1.5 1.6 1.7 1.8 2 2.2 2.4 2.6 2.8 3.1 3.3 3.5 3.7 3.9 4.1 4.3 4.5 4.5 8.1 6.9 6.3 6.3 6.2 6.2 6.1 6.5 6.9 7 7 7.7 10.2 11.5 13.2 14.4 16 17 19.3 21.8 25.1 26.1 26.8 26.2 25.1 24.4 25.2 26.6 27.5 29.2 32.6 37.5 42.9 51.2 57.7 64.4 70.4 75.4 76.8 77.7 78.2 67.2 57.2 40 35.7 29 26.2 20.2 16.6 13.6 9 7.8 6.5 6.6 6.4 6.1 6.1 6.1 6.5 6.6 6.5 6.4 6.3 6.2 6 5.9 5.8 5.8 5.8 5.9 6.1 5.9 5.7 5.8 6.1 6.4 6.4 6.4 6.3 6.2 5.7 5 4.8 5.6 5.4 5.9 6 5.8 5.5 5.7 5.8 5.9 6.2 6.1 5.9 5.9 6.1 6.1 6.1 6 5.9 5.6 6.4 11.8 5.3 5.3 5.2 5.2 5.6 5.5 5.5 5.5 5.5 5.5 5.6 5.5 5.5 5.3 5.4 5.4 5.4 5.5 5.5 5.6 5.6 5.6 5.7 5.9 5.9 5.8 5.8 5.7 5.6 5.5 5.6 5.6 5.7 5.8 5.9 5.8 5.7
-4 -4 -4 -4 -4 -4 -4 -4 -4 -4 -4 -4 -4 -4 -4 -4 -4 -4 -4 -4 -3.4 -2.6 -2.3 -1.9 -1.7 -1.4 -1.2 -0.9 -0.7 -0.4 -0.1 0.2 0.4 0.5 0.5 0.6 0.9 1.1 1.4 1.4 1.6 1.7 1.8 2 2.1 2.2 2.4 2.6 2.8 3 3.2 3.4 3.6 3.9 4.1 4.3 4.5 4.5 6.9 7.7 6.7 6.2 6.3 6.3 6.3 6.7 7.1 7.5 9.9 13.3 13.5 15 16.8 18.7 21.9 24.6 27.2 31.7 35.2 39.7 46 48.1 42.9 36.9 36.3 36.6 40 44.4 48.6 51.9 57 64.2 71 77.2 79.9 81.2 81.5 81.5 81 80.7 79.8 35.8 45.1 38.5 36.4 30.5 26.4 22.3 20.5 15.3 8.7 7.9 7.1 6.3 6.1 6.1 6.2 6.5 6.5 6.5 6.4 6.3 6.2 6 5.9 5.9 5.8 5.8 5.9 6.1 5.8 5.5 5.6 5.7 5.8 6.2 6.1 5.6 5.3 5.2 5.1 5.1 5.8 5.7 5.7 5.7 5.7 5.3 5.4 5.6 5.7 5.8 6 6.2 5.8 6.2 6.2 6.1 6 5.8 5.5 11.4 12.3 5.3 5.2 5.8 5.5 5.5 5.5 5.5 5.5 5.5 5.5 5.6 5.5 5.5 5.4 5.3 5.4 5.4 5.5 5.5 5.6 5.6 5 5.6 6 5.9 5.8 5.7 5.6 5.6 5.7 5.6 5.3 5.4 5.6 5.8 5.8 5.7
-4 -4 -4 -4 -4 -4 -4 -4 -4 -4 -4 -4 -4 -4 -4 -4 -4 -4 -4 -4 -3.4 -2.6 -2 -1.6 -1.3 -1.1 -0.9 -0.6 -0.4 -0.2 0.2 0.5 0.8 0.8 0.9 1 1.1 1.4 1.6 1.7 1.8 2 2.1 2.2 2.3 2.5 2.6 2.8 3 3.2 3.4 3.6 3.8 4 4.2 4.4 4.5 4.5 9.7 7.5 7 6.3 6.8 6.7 8.9 8.5 10.8 13.6 18.5 21.9 21.7 20.7 26.4 31.8 34.7 41.7 47.8 51.9 57.1 64.3 69.8 75.3 69.8 59.3 61.4 62.6 65.1 64.9 68.6 70.4 73.8 78.3 80.8 83.1 83.5 84 84.4 84.8 84.3 82.7 80.6 68.3 37.6 41.8 49.7 33.4 28 25.8 24.3 20.5 17 11.1 9.1 7 6.2 6.2 6.3 6.4 6.4 6.4 6.4 6.3 6.2 6 6 5.9 5.9 5.9 5.9 6 5.7 5.5 5.4 5.4 5.7 5.9 5.8 5.6 5.5 5.4 5.3 5.5 6 5.9 5.9 5.8 5 5.3 5.7 5.8 5.8 6 6.6 6.1 5.9 6.2 6.2 6 5.9 5.7 5.4 12.6 8.8 5.1 5.5 5.5 5.5 5.5 5.5 5.5 5.5 5.6 5.6 5.6 5.5 5.5 5.4 5.5 5.4 5.4 5.5 5.5 5.6 5.6 5.6 5.7 5.9 5.8 5.7 5.6 5.5 5.5 5.6 5.7 5.8 5.6 5.5 5.7 5.8 5.7
-4 -4 -4 -4 -4 -4 -4 -4 -4 -4 -4 -4 -4 -4 -4 -4 -4 -4 -4 -4 -3.3 -2.6 -1.9 -1.3 -1 -0.7 -0.5 -0.3 0 0.2 0.4 0.7 1 1.2 1.3 1.3 1.4 1.5 1.8 2 2.1 2.2 2.4 2.5 2.6 2.7 2.8 3 3.1 3.3 3.6 3.8 4 4.2 4.4 4.5 4.5 6.9 7.6 7.2 6.9 7.4 8.1 9.6 13.6 15.5 18.2 21.8 25.4 28.1 32.1 37.3 46.9 55.1 58.4 63.7 68.6 71.5 77 80.8 82.9 84.5 83.3 75.8 74.9 77.7 78.2 77.8 78 79.6 81.7 83.7 85.2 85.7 85.9 86 86 85.8 85.3 84 82.1 79 36.8 45.9 48.2 33.5 29.5 27.7 26.5 25.4 24 20.7 13.3 8.7 6.7 6.2 6.3 6.3 6.3 6.3 6.3 6.3 6.2 6.1 6 6 6 5.9 6 5.9 5.6 5.4 5.2 5.3 5.6 5.9 5.9 5.8 5.7 5.6 5.4 5.7 6.1 6.2 6.1 5.6 5.5 5.8 5.8 5.8 5.8 5.8 5.8 5.5 5.7 6 6 6 5.9 5.7 6 12.9 5.9 5.5 5.5 5.5 5.5 5.5 5.5 5.5 5.5 5.6 5.6 5.6 5.6 5.6 5.6 5.7 5.6 5.5 5.5 5.6 5.6 5.6 5.6 5.6 5.7 5.7 5.6 5.4 5.4 5.5 5.6 5.7 5.8 5.8 5.8 5.8 5.8 5.7
-4 -4 -4 -4 -4 -4 -4 -4 -4 -4 -4 -4 -4 -4 -4 -4 -4 -4 -4.1 -4 -3.3 -2.6 -1.9 -1.1 -0.7 -0.3 -0.1 0.1 0.3 0.6 0.7 0.9 1.3 1.6 1.7 1.7 1.8 1.9 2 2.2 2.4 2.5 2.7 2.8 2.9 3 3.1 3.2 3.3 3.5 3.7 3.9 4.1 4.4 4.5 4.5 4.5 11.3 9.2 9.1 10.5 12.4 13.7 15.3 16.5 22 27 33.4 40.6 49.7 57.3 60.3 67.6 73.3 75.9 78.7 82 84 85.3 85.8 85 83.9 82.1 80.7 81.2 81.4 81.6 81.8 82.5 83.8 85.5 86.3 86.6 87.2 87.1 87.2 86.8 86.4 85.8 84.6 83.1 36.1 35.3 47.9 48.1 35 31.6 29.3 28.2 27.5 26.1 21.7 15 10.2 7.6 6.9 6.3 6.3 6.3 6.2 6.2 6.2 6.2 6.1 6.1 6 6 6 6 5.8 5.6 5.3 5 5.2 5.7 5.9 5.9 5.8 5.8 5.7 5.6 5.9 6.2 6.4 5.8 5.5 5.7 5.8 5.8 5.7 5.8 5.8 3.9 5.5 5.5 5.7 5.8 5.8 5.8 5.6 5.7 13.4 5.4 5.5 5.5 5.6 5.6 5.6 5.5 5.5 5.5 5.6 5.6 5.6 5.6 5.6 5.6 5.7 5.7 5.7 5.6 5.6 5.6 5.7 5.7 5.4 5.6 5.5 5.4 5.3 5.4 5.5 5.6 5.7 5.8 5.7 5.6 5.6 5.7 5.7
-4 -4 -4 -4 -4 -4 -4 -4 -4 -4 -4 -4 -4 -4 -4 -4 -4.1 -4 -4.1 -4 -3.3 -2.6 -1.8 -1.1 -0.4 0 0.3 0.5 0.6 0.8 1.1 1.2 1.5 1.8 2 2.1 2.2 2.2 2.3 2.4 2.7 2.8 2.9 3 3.2 3.3 3.4 3.5 3.6 3.7 3.9 4.1 4.3 4.5 4.5 4.5 9.7 14.1 14.7 17.9 20.5 21.3 24.6 25.7 29.3 33.9 40.4 51.6 64.6 72.8 77.8 77.5 77.5 81 83.2 85.5 87.3 88.3 87.7 86.9 85.8 85.5 85.3 87.6 87.3 84.8 83.9 83.5 84.3 85.6 86.4 87.1 87 86.4 86 85.8 85.4 84.8 83.3 81 79.4 37.5 36.9 38.3 46.1 36.9 32.6 30.2 28.7 27.7 26.3 22.3 20.9 17.1 9 6.9 6.5 6.4 6.3 6.3 6.3 6.3 6.3 6.2 6.1 6.1 6.1 6 6 5.8 5.6 5.4 5.2 5.3 5.7 5.9 5.9 5.8 5.8 5.7 5.7 5.8 6.1 6.2 5.7 5.5 5.6 5.7 5.7 5.7 5.9 6 5.9 5.7 5.6 5.6 5.7 5.7 5.8 5.7 12.9 11.9 5.4 5.5 5.6 5.6 5.6 5.7 5.6 5.6 5.5 5.5 5.5 5.5 5.5 5.6 5.7 5.7 5.8 5.8 5.8 5.7 5.7 5.7 5.7 5.6 5.6 5.5 5.4 5.4 5.4 5.5 5.6 5.7 5.8 5.7 5.5 5.4 5.6 5.7
-4 -4 -4 -4 -4 -4 -4 -4 -4 -4 -4 -4 -4 -4 -4 -4.1 -4.1 -4 -4 -4 -3.3 -2.6 -1.8 -1.1 -0.4 0.3 0.6 0.9 1.1 1.2 1.4 1.6 1.8 2 2.3 2.5 2.5 2.6 2.7 2.7 2.9 3.1 3.2 3.3 3.4 3.5 3.7 3.8 3.9 4 4.1 4.3 4.5 4.5 4.5 5.9 14.9 19.7 23.3 27.6 32.4 33.8 37.7 39 43.9 54.3 64 74.3 79.9 82.6 84.1 83.9 83.6 84.9 86.6 88.4 90 91.3 91 90 89.6 90.3 91.9 92.4 91 88.6 86.5 85.6 84.9 85.4 86.3 86.1 84.6 83.9 83 82.5 81.6 80.9 77.2 67.5 66.7 71.3 37.4 37.8 56.8 36.3 33 30.4 29 27.6 26 24.1 24 16.8 10.1 6.8 6.7 6.6 6.5 6.4 6.4 6.4 6.3 6.2 6 6 6 6 6 5.9 5.9 5.8 5.5 5.3 5.5 5.8 5.9 5.8 5.8 5.7 5.7 5.7 6 5.9 5.5 5.5 5.6 5.6 5.8 6 6.1 6.1 6 5.9 5.7 5.7 5.8 5.9 5.3 5.3 12.6 8.7 5.5 5.6 5.6 5.6 5.7 5.7 5.7 5.6 5.4 5.5 5.5 5.5 5.5 5.6 5.7 5.8 5.8 5.8 5.9 5.8 5.8 5.7 5.7 5.6 5.6 5.5 5.5 5.4 5.5 5.6 5.7 5.8 5.8 5.6 5.4 5.3 5.5 5.7
-4 -4 -4 -4 -4 -4 -4 -4 -4 -4 -4 -4 -4 -4 -4 -4 -4 -4 -4 -4 -3.3 -2.6 -1.8 -1.1 -0.4 0.4 1 1.3 1.4 1.6 1.8 2 2.2 2.3 2.6 2.8 2.9 3 3 3.1 3.2 3.4 3.5 3.6 3.7 3.8 3.9 4 4.2 4.3 4.4 4.5 4.5 4.7 6 17.1 24.4 30.4 35.5 41.4 46.5 52.1 56.9 61.4 67.3 74.4 80.6 83 84 85.1 85.4 84.7 83.7 85.3 88.1 90.3 91.9 93.2 94.1 94.2 94.1 93.9 93.2 92.5 91.5 89.2 87 85.8 84.3 85.1 85.3 83.1 80.7 78.8 77.3 76.5 74.5 71.2 65.6 51.4 47.5 55.4 60.4 57.4 46 35.4 31.9 29.8 28.7 26.9 24.9 22.4 16.9 12.1 9.3 6.9 6.8 6.7 6.7 6.6 6.5 6.4 6.2 6 5.8 5.9 5.9 5.9 5.9 5.9 5.9 5.8 5.5 5.2 5.4 5.6 5.8 5.8 5.7 5.7 5.7 5.7 5.8 5.6 5.6 5.8 6 6 6.1 6.2 6.2 6.1 6 5.9 5.8 5.8 5.6 5.3 5.3 9.9 12.3 8.3 5.5 5.7 5.7 5.7 5.7 5.8 5.5 5.1 5.2 5.3 5.4 5.5 5.6 5.7 5.8 5.8 5.9 5.9 5.9 5.9 5.8 5.7 5.5 5.6 5.6 5.6 5.5 5.5 5.6 5.7 5.8 5.8 5.8 5.7 5.5 5.3 5.3 5.6
-4 -4 -4 -4 -4 -4 -4 -4 -4 -4 -4 -4 -4 -4 -4 -4 -4 -4.1 -4 -4 -3.3 -2.5 -1.8 -1.1 -0.3 0.4 1.1 1.6 1.9 2 2.2 2.3 2.6 2.7 2.8 3.1 3.3 3.3 3.4 3.5 3.5 3.6 3.8 3.9 4 4.1 4.2 4.3 4.4 4.5 4.5 5.1 6 10.8 22.6 30.1 37.1 42.9 48.8 55.2 60.6 66.9 73.8 78.6 82.3 84.7 86.2 86.9 86.8 86.3 85.5 84.7 84.9 87.1 90.2 92.3 94 95.1 94.9 94.3 93.7 92.5 91.7 91.4 90.9 87.5 84.2 81.6 81.6 82.9 83.2 80.7 76.5 68.1 65 63.9 64.4 63.3 55.6 46.6 43.2 41.9 42.4 40.2 35.6 33.2 30.4 28.8 27.2 25.2 22.9 19.1 15 11.1 7.4 6.8 6.6 6.5 6.5 6.4 6.3 6.1 6.1 5.9 5.7 5.7 5.8 5.8 5.9 5.9 5.9 5.8 5.3 5.3 5.3 5.4 5.7 5.8 5.7 5.7 5.7 5.7 5.6 5.4 5.5 5.8 6.3 6.5 6.3 6.3 6.2 6.1 6 5.8 5.9 5.5 5.3 5.3 5.3 12 12.2 10.1 5.5 5.7 5.8 5.8 5.8 5.5 5.3 5.1 5.2 5.3 5.4 5.5 5.6 5.7 5.8 5.9 5.9 5.9 5.9 5.9 5.8 5.7 5.6 5.4 5.6 5.6 5.6 5.6 5.7 5.7 5.8 5.8 5.8 5.8 5.6 5.3 5.4 5.5
-4 -4 -4 -4 -4 -4 -4 -4 -4 -4 -4 -4 -4.1 -4 -4 -4 -4.1 -4 -4.1 -4 -3.3 -2.5 -1.8 -1.1 -0.3 0.4 1.1 1.9 2.3 2.4 2.6 2.7 2.9 3.1 3.2 3.4 3.7 3.7 3.8 3.8 3.9 4 4.1 4.2 4.3 4.4 5 4.8 5.7 6.4 9.8 13.6 19.7 29.7 37.6 44 49.9 55.1 60.6 66.9 72.6 78 84.4 87.3 88.5 88.9 89.8 89 88.6 88.1 87.1 86.6 87.9 89.8 91.8 94 95.3 95.4 94.9 93.8 92 90 87.4 87 85.4 82.3 78.1 75.2 76 77.5 77.8 76.5 74.2 67.1 57.9 52.9 49.2 48.3 43 41.3 39.2 36.8 34.5 33.5 32.2 31.1 28.9 27.4 25.1 23.8 21.4 17.7 17.1 15.3 9.3 6.8 6.5 6.3 6.2 6.1 5.9 5.8 5.7 5.6 5.6 5.7 5.8 5.9 5.9 5.9 5.8 5.8 5.5 5.5 5.4 5.4 5.5 5.7 5.7 5.6 5.6 5.7 5.6 5.3 5.4 5.5 6 6 6.2 6.2 6.1 6 5.9 5.7 5.5 5.4 4.2 5.5 5.7 11.3 11.6 10.6 5.5 5.7 5.8 5.9 5.7 5.6 5.6 5.3 5.3 5.4 5.5 5.5 5.5 5.6 5.8 5.8 5.8 5.8 5.9 5.9 5.8 5.7 5.6 5.4 5.4 5.6 5.6 5.6 5.7 5.7 5.7 5.8 5.8 5.8 5.6 5.2 5.4 5.5
-4 -4 -4 -4 -4 -4 -4 -4 -4 -4 -4 -4 -4 -4 -4 -4 -4 -4 -4 -4 -3.2 -2.5 -1.8 -1 -0.3 0.4 1.2 1.9 2.6 2.9 3 3.1 3.3 3.4 3.6 3.8 3.9 4.1 4.2 4.2 4.3 4.3 4.4 4.4 13.9 15.5 19 21.7 23.1 25.1 27.9 32.4 39 45.3 51.3 57.7 62.3 67.1 71.4 76.6 81.9 86.5 90.6 93.2 93 93 92.8 92 91.1 90.4 89.6 90.2 91.4 92.8 93.2 92.5 94.2 94.8 94.6 93.5 92 88.9 84.6 78.8 75.8 71.2 65.9 62.5 63.8 66.5 66.2 65.1 64.4 63.7 58.8 52 42.1 39.6 37.8 36.9 35.8 33.7 31.1 30 29.4 28.8 26.7 24.2 21.5 20.9 20.4 23.7 22.1 15.3 8.7 6.5 6.3 6.3 6.4 6.1 5.9 5.7 5.7 5.7 5.7 5.7 5.8 5.9 5.9 5.8 5.8 5.8 5.6 5.6 5.6 5.6 5.5 5.6 5.6 5.6 5.6 5.7 5.7 5.2 5.3 5.5 5.6 5.9 6.1 6.1 6 5.9 5.8 5.6 5.4 5.4 5.4 4.7 6.5 10.8 10.5 8.9 5.4 5.7 6.7 6.6 5.9 5.9 5.8 5.5 5.3 5.4 5.5 5.5 5.5 5.6 5.7 5.8 5.8 5.8 5.8 5.8 5.8 5.7 5.5 5.5 5.6 5.6 5.5 5.6 5.7 5.7 5.7 5.8 5.8 5.8 5.7 5.1 5.4 5.6
-4 -4 -4 -4 -4 -4 -4 -4 -4 -4 -4 -4 -4 -4 -4 -4 -4 -4 -4 -4 -3.2 -2.5 -1.8 -1 -0.3 0.4 1.2 1.9 2.6 3.2 3.4 3.5 3.7 3.8 4 4.2 4.3 4.5 4.5 4.5 4.8 6.1 18.8 26 31.4 36.3 39.2 41.7 43.5 45.8 47.9 51.6 56.8 60.6 65.7 70.4 73.8 77.8 81.2 84.9 89.1 91.9 95.3 97.2 97 96.1 95.2 94.3 93.6 93.1 93.3 94.3 95.2 96.1 94.5 89 87 91.7 93.4 92.5 92.6 90.2 85.9 79.7 74.4 70.3 66.4 62.2 57.4 53.1 51.9 50.4 47.7 49.1 48.9 45.5 37.7 35.6 34 33.3 32.4 30.7 28.5 27.4 26.9 25.9 22.5 18 14.7 14.1 15.2 14.4 12.5 10.2 7.1 6.3 6.2 6.5 6.4 6.2 5.9 5.8 5.8 5.8 5.8 5.8 5.8 5.9 5.8 5.8 5.8 5.8 5.8 5.7 5.7 5.7 5.7 5.6 5.6 5.6 5.6 5.7 5.8 5.4 5.5 5.6 5.7 5.8 6 5.9 5.4 5.6 5.9 5.9 5.6 5.4 5.4 5.4 9.1 9.9 8 5.6 5.2 5.7 7.8 5.9 7.5 5.9 5.9 5.7 5.5 5.4 5.5 5.5 5.5 5.5 5.6 5.7 5.7 5.7 5.7 5.7 5.7 5.7 5.6 5.6 5.7 5.7 5.4 5.7 5.7 5.7 5.7 5.8 5.8 5.8 5.7 5.3 5.7 5.6
-4 -4 -4 -4 -4 -4 -4 -4 -4 -4 -4 -4 -4 -4.1 -4.1 -4.1 -4 -4 -4 -4 -2.7 -1.8 -1.4 -0.8 -0.2 0.5 1.2 1.9 2.7 3.4 3.9 4 4.1 4.3 4.4 14.7 17.1 18.6 21.2 23.7 26 31.1 37.9 44.1 50 55.2 59.7 61.5 62.5 63.3 65.6 68.2 71.1 73.6 76.9 81.1 84 86.4 89.2 92 94.8 96.9 98.4 99.4 99 98.1 97.3 96.9 96.6 96.4 96.6 98.1 99.8 100.1 97.2 87.9 78.1 78.5 78.8 79 82.7 84.4 84.6 82.2 77.7 74.4 72.7 71.5 67 56.9 46.7 41.2 38.8 37.7 37.3 36.9 34.3 32 30.5 29.7 27.6 24.8 22.9 24.2 22.6 21.5 16.4 13 10.3 8.6 8.3 8.4 7.9 6.6 6.4 6.1 6.4 6.7 6.5 6.2 6 5.9 5.9 5.9 5.9 5.9 5.9 5.9 5.9 5.9 5.8 5.8 5.8 5.9 5.9 5.8 5.8 5.8 5.7 5.6 5.6 5.7 5.8 5.8 5.6 5.7 5.8 5.9 5.9 5.7 5.5 5.5 5.8 6.1 5.9 5.5 5.4 5.5 9.6 9.3 6.3 5.1 5.5 5.7 6.3 5.9 5.9 5.9 7.1 5.8 5.6 5.5 5.5 5.5 5.5 5.6 5.6 5.6 5.7 5.7 5.6 5.6 5.6 4.8 5.3 5.7 5.6 5.4 5.4 5.6 5.7 5.7 5.7 5.8 4.6 5.6 5.5 5.7 5.8 5.7
-4 -4 -4 -4 -4 -4 -4 -4 -4 -4 -3.3 -3.7 -4 -4 -4.1 -4 -4 -4 -4 -4 -1.8 -0.9 -0.3 0.4 0.8 1.3 1.8 2.3 2.9 3.4 4.1 4.4 13 19 23.7 29.3 33.9 40.9 46.1 49.2 50.8 54.7 59.1 63.4 68.4 73.1 76.3 79.1 80.1 79.7 81.5 82.8 84.3 85.1 87.4 89.7 92.1 94.2 96 98.1 99.7 100.4 101.5 101.3 101 100.2 99.8 99.9 99.9 99.7 100 101.5 102.3 101.6 99.5 91.1 76.7 70.7 67 65.1 65.2 67.6 71.1 73.3 70 67.2 66.4 65.1 62 57.6 49.8 41.4 37.9 35 32.8 31.9 30.7 28.7 25.8 24.7 21.4 18.6 17.2 16.9 15.3 13.7 11.5 10.3 8.2 6.6 6.9 6.3 6.7 6.4 6.1 6.1 6.3 6.4 6.3 6.2 6 6 6 5.9 5.9 5.9 5.9 6 5.9 5.8 5.7 5.8 5.8 5.9 5.9 6 6.1 6.1 6.2 5.9 5.6 5.6 6 6.2 5.9 5.9 5.9 5.9 5.9 5.7 5.5 5.4 5.7 6 5.9 5.7 5.4 5.5 8.8 8.7 7.8 5.4 5.6 5.8 5.9 6.9 5.9 5.9 6 6 5.8 5.5 5.5 5.6 5.6 5.6 5.6 5.6 5.6 5.6 5.5 5.5 5.3 5.3 5.3 5.6 5.4 5.6 5.7 5.6 5.6 5.6 5.6 5.6 5.4 5.6 5.6 5.8 5.8 5.7
-4 -4 -4 -4 -4 -4 -4 -4 -4 -4 -1.6 -2 -2.5 -2.9 -3.4 -3.8 -4 -4 -4 -2.7 -1 0.1 0.8 1.4 2.1 2.6 3.1 3.5 4 4.5 18.3 23.1 32.3 37.9 41.7 48.1 53.3 58.4 63.6 67.2 70.8 73.8 77 80.5 83.9 87.9 91.2 93.2 94.5 94.9 95.9 95.1 94.8 95.3 95.7 96.5 98.4 100 101.7 102.9 103.6 104.1 103.6 103.2 102.7 102.3 102.4 102.6 103.1 103 103.1 102.8 102.4 101 99.4 96.6 80.4 70.3 64.2 59.8 55.2 52.3 52.8 53.9 54.2 53.2 52.7 52 50.6 48.7 45.9 41.7 38.1 34.3 31.3 29.1 26.4 22.9 20.8 19.2 17.4 15.5 14 13.1 11.7 10.2 8.7 7.4 6.3 6.1 6.5 6.4 6.6 6.3 6 6 6.1 6 6 5.9 5.9 5.8 5.8 5.8 5.8 5.8 5.8 5.9 5.8 5.7 5.7 5.8 5.8 5.9 5.9 6 6 6 6.1 6.2 5.5 5.6 6.1 6.5 6.4 5.8 5.6 5.8 5.8 5.7 5.5 5.4 5.6 5.9 6.2 5.5 5.4 6.1 8.4 8.7 5.1 5.3 5.7 5.8 5.8 6 5.7 5.9 5.9 5.7 5.8 5.6 5.6 5.6 5.6 5.7 5.6 5.6 5.5 5.5 5.5 5.6 5.4 5.4 5.4 5.5 5.5 5.6 5.6 5.6 5.6 5.4 5.7 5.7 5.7 5.7 5.7 5.8 5.8 5.7
-4 -4 -4 -4 -4 -4 -4 -4 -2.1 -0.9 -0.2 -0.3 -0.8 -1.2 -1.7 -3 -4 -4 -4 -2 -0.1 1.3 1.9 2.6 3.1 3.7 4.4 12.4 5.7 23.9 36.3 42.6 49.9 56.4 61.2 66.3 70.4 74.9 78.9 82.8 85.7 88.9 91.6 94.4 97.3 100.2 102.4 104.5 104.9 105.1 104 103.3 101.8 101.5 101.6 102.3 103.9 105.1 106 106.4 106.6 106.2 104.9 103.6 103.3 103.1 103.2 102.7 102.3 102.1 102.5 99.8 97.3 98.9 97.7 95.4 92 84.2 63 58.8 52.8 47.7 43.9 43.7 44.1 44.7 46.3 46.6 46.6 45.5 43.2 39.7 36.4 32.9 30.3 28.8 25.6 22.1 19.3 16.9 14.8 13.1 11.4 10.2 9 8.1 6.6 6.5 6.3 6.1 6.1 6.6 6.4 6.2 5.9 6 6 5.9 5.9 5.9 5.9 5.8 5.7 5.6 5.5 5.5 5.6 5.6 5.7 5.7 5.7 5.8 5.8 5.9 5.9 6 6 5.9 5 6.3 6.1 8.3 9.8 5.9 5.3 5.4 5.5 5.6 5.8 5.7 5.5 5.4 5.4 5.7 6.1 5.7 5.4 12.3 8.1 9.8 5.3 4.7 5.6 5.7 5.7 6.1 6 5.8 5.4 5.6 5.8 5.6 5.6 5.7 5.7 5.7 5.6 5.5 5.5 5.5 5.7 5.6 5.3 5.3 5.4 5.5 5.5 5.6 5.6 5.6 5.6 5.6 5.7 5.7 5.8 5.8 5.8 5.8 5.8 5.7
-4 -4 -4 -4 -4 -4 -4 -4 -0.7 1 1.5 1.4 0.9 0.5 -1.1 -2.7 -4 -2.5 -1.2 0 1.2 2.5 3.5 3.8 4.3 6.3 19.8 30.8 37.1 47 55.1 60.7 65.9 71.7 76.8 79.1 81.5 84.9 88.6 92.1 95.7 98.8 101.3 103.1 105.1 108.3 109.8 110.4 109.7 108.5 106.3 105.2 106.2 105.3 104.8 104.5 105.8 106.2 106.4 106.3 106.2 104.5 102.9 101.6 100.1 99.1 98.6 98.3 98 97.6 98.8 70.2 69.8 95.7 92.2 74.9 67.2 69.7 60.1 56.8 52.3 46.8 41.4 39.7 38.3 38.8 40.9 42.2 42.9 43.3 41.5 38.2 34.5 30.6 28.3 27.4 27.7 25.2 21.5 16.3 13.9 12 10.2 8.4 7.3 6.6 6.6 6.3 6.4 6.5 6.6 6.4 6.2 6 5.9 5.9 5.8 5.8 5.8 5.8 5.8 5.7 5.6 5.5 5.4 5.3 5.3 5.4 5.5 5.8 5.8 5.8 5.8 5.9 5.9 6 6 5.7 4.1 5.6 5.8 5.8 4.9 9.8 9.2 5 5.8 5.8 5.7 5.6 5.6 5.4 5.4 5.5 5.9 6 5.5 10.3 8.1 9.3 5.5 5.4 5.1 5.3 6.2 6.2 5.6 5.7 5.6 5.5 5.8 5.7 5.7 5.7 5.7 5.7 5.6 5.5 5.5 5.6 5.8 5.6 5.2 5.3 5.4 5.5 5.5 5.5 5.6 5.6 5.6 5.6 5.7 5.8 5.8 5.8 5.8 5.8 5.7 5.7
-4 -4 -4 -4 -4 -4 -4 -1.9 1.6 3.5 3.3 3.1 2.3 0.8 -1.1 -3.5 -1.7 -1 0.3 2 3.4 4.4 16.9 19.7 30.5 37.4 42.2 51.1 59.7 68.4 74 77.7 80.6 83.1 85.5 86.2 86.1 87.7 91.2 94.2 96.6 98.7 101.4 103.8 106.3 108.4 109.3 109.5 108.5 106.9 106.3 106 105.9 104.6 103.4 103.3 103.6 103.8 104.1 104.1 103.5 102.4 101 98.1 95.6 94.3 93.4 92.8 92.9 92.9 94.1 69.7 69.1 68.5 67.8 66.7 63.4 59.8 57.5 56.5 53.6 48.5 43.1 38.4 34.7 32.1 33.8 38.8 41 41.6 41.3 39.5 33.8 29.7 26.2 24.6 24.1 22.4 18.9 16.3 13.7 11.1 9 7.2 6.6 6.5 6.5 6.3 6.5 6.4 6.3 6.4 6.2 6 5.9 5.8 5.7 5.7 5.7 5.7 5.7 5.6 5.5 5.4 5.3 5.2 5.2 5.5 5.6 5.9 5.9 5.9 5.9 5.9 5.9 5.9 5.9 5.6 4.9 5.7 5.9 4.2 4.9 4.9 6.9 5.1 5.4 5.4 5.4 5.4 5.4 5.4 5.4 5.8 5.5 6.7 11.6 7.5 13.3 8.8 5.3 5.3 5 5.9 6 5.4 5.5 5.6 5.7 5.7 5.7 5.7 5.7 5.7 5.7 5.7 5.6 5.5 5.5 5.5 5.4 5.5 5.3 5.4 5.4 5.5 5.5 5.6 5.6 5.6 5.6 5.6 5.8 5.8 5.8 5.8 5.8 5.7 5.7 5.6
-4 -4 -4 -4 -4 -4 -4 -0.2 5.6 8 9 4.3 2.4 -0.1 -2.5 -2.3 0.2 0.9 1.9 3.1 8.7 22.6 32.1 39.9 49.9 57 62.9 71.3 79.8 86.2 90.5 90.2 90.9 89 87.7 87.3 85.9 87.2 89.9 91 94.1 95.9 98.2 100.3 102.6 104.7 105.9 105.5 104.5 103.8 103.3 102.6 102.1 101.3 100.5 99.6 100.1 100.7 101.2 100.5 99.5 98.2 96.3 92.8 89.8 88.4 87 86 86.1 86.5 85.8 81.2 68.7 68.2 67.1 65.3 61.4 57.6 54.9 52.9 50.2 46.4 43.4 39.8 33.1 27.8 26.4 32.8 36.8 39.1 40.1 39.9 37.2 30.3 24.2 20.5 19.2 16.6 15 12.9 10.9 9.7 7.8 6.7 6.6 6.5 6.4 6.3 6.3 6.2 6.1 6.2 6.1 5.9 5.9 5.6 5.7 5.7 5.7 5.7 5.7 5.6 5.5 5.4 5.4 5.5 5.4 5.7 5.8 6 6 5.9 5.9 5.9 5.9 5.9 5.5 5.3 5.9 5.6 5.3 5.1 5.1 5 5 7.3 5.1 5.1 5.2 5.1 5.1 5 9.4 13 12.8 12.5 8.4 7.3 9 12.7 10.7 8.1 5.3 6 3.9 5.3 5.4 5.5 5.6 5.6 5.7 5.7 5.7 5.7 5.7 5.7 5.6 5.5 5.6 5.5 5.4 5.3 5.3 5.4 5.4 5.5 5.5 5.5 5.6 5.6 5.7 4.6 5.8 5.8 5.8 5.8 5.8 5.6 5.6 5.5
-4 -4 -4 -4 -4 -4 -4 0 2.6 3.6 3.8 3.6 0.9 -1.5 -4 0.5 2.2 2.7 3.6 4.5 28.1 44.3 54.9 64.2 74.3 81.8 85.4 88.6 90.8 93.7 97 95.9 92.4 90.3 88.2 85.8 85 85.4 87 87.8 92.7 94.3 95 97.1 98.9 100.5 101.1 101.2 100.2 99.3 98.7 98 97.6 96.8 95.8 95.1 95.4 95.4 96 95.4 94.1 91.5 88.5 85.5 82.6 81.5 80.4 79.2 78.7 78.7 78.4 73.4 67.2 68.1 66.5 60 57.2 52.4 49.7 48.2 46.4 44 42.2 40.2 33.6 26.9 23.1 23.2 26.5 30.4 34.9 37.6 35.9 31 24 19.4 17.3 15.3 13.1 10.7 8.6 7.7 6.4 6.2 6.2 6.2 6.3 6.1 6 6 5.9 6 6 5.9 5.4 5.5 5.6 5.7 5.6 5.6 5.6 5.6 5.6 5.6 5.7 5.6 5.6 5.5 5.7 5.9 5.9 5.9 5.9 6 5.9 5.9 5.8 5.9 5.7 5.7 5.6 5.5 5.4 5.3 5.2 9.8 5 5 5.8 7.9 8.3 8 8.2 7.3 6.2 6.1 13.5 7.2 12 9.8 5.3 5.5 5.8 5.8 5.5 5.2 5.3 5.4 5.5 5.5 5.6 5.7 5.7 5.7 5.7 5.7 5.6 5.5 5.6 5.6 5.5 5.3 5.3 5.3 5.5 5.6 5.6 5.6 5.6 5.6 5.6 5.7 5.8 5.8 5.8 5.8 5.8 5.6 5.5 5.4
-4 -4 -4 -4 -4 -4 -4 -1.3 -0.1 1.2 1.3 0.4 -0.7 -4 -1.4 3.3 4.1 4.5 23.7 35.7 52.8 65.5 75.1 79.7 80.6 80.3 82 84.2 85 86.9 91.1 90.5 88 86.8 85.8 85 82.6 78.4 78.1 82.7 89.1 74.8 91.7 92.7 93.8 95.5 95.8 96 94.5 93.1 92.7 92.1 92.5 91.7 90.7 89.5 89.1 89.2 88.9 87.3 85.5 82.5 79.4 75.9 74.5 73.4 72.5 71.3 69.4 67.9 68.9 67.8 60.2 59.4 55.4 53.2 50.3 48.3 46.4 44.3 42.5 41.2 40.5 39.8 36 29.4 24.7 20.6 19.4 20.7 23.5 28.4 28.2 24.5 26.4 23.9 18.3 16.3 13.8 10 7.3 6.8 6.1 6.1 6.1 6.2 6.2 6 5.7 5.6 5.7 5.5 5.3 5.3 5.4 5.5 5.6 5.6 5.6 5.6 5.6 5.7 5.8 5.9 5.9 5.7 5.7 5.2 5.5 5.8 5.9 5.8 5.8 5.9 5.9 5.9 5.9 5.8 5.7 5.9 5.9 5.8 5.7 5.6 5.5 5 11.7 7.6 6.7 6.4 6.5 6.3 6 5.9 5.8 6 12.2 7.1 9 5.7 5.8 5.7 5.6 5.5 5.6 3.9 5.2 5.3 5.4 5.5 5.6 5.6 5.6 5.6 5.7 5.5 5.5 5.5 5.7 5.6 5.4 5.3 5.3 5.4 5.5 5.6 5.7 5.7 5.6 5.6 5.6 5.6 5.7 5.8 5.9 5.9 5.7 5.5 5.4 5.3
-4 -4 -4 -4 -4 -4 -4 -3.7 -2.5 -1.3 -0.7 -1.8 -4 -4 -0.7 3.5 4.5 14.7 32.9 43.2 52.8 64 70.5 69.5 66.6 69.6 72.7 75 76.1 76.6 79.2 80.9 76.8 76.7 77.9 82.4 75.2 65.1 68.7 46.6 47.3 56 86.2 87.4 88.9 90 90.3 90.2 88.3 85 82.8 86.6 86.3 85.4 84.3 82.5 82.1 81.9 80.6 78.8 76.2 72.5 69 65.6 65.3 65.2 65.3 63.5 59.7 56.3 52.7 53.5 54.5 50.6 50 48.6 46.4 44.8 43.7 41.6 39.1 37 38.8 38.6 35.3 31.3 26.3 21.3 17.3 16.7 17.1 19.8 20.5 19.7 19.1 20.5 21.9 20.4 15.3 11.7 8.2 6.9 6.2 6.1 6 6.1 6.1 5.9 5.6 5.4 5.7 5.8 5.5 5.4 5.3 5.4 5.5 5.6 5.6 5.6 5.6 5.7 5.8 5.9 5.7 5.3 5.7 5.9 5.8 5.6 5.6 5.2 5.9 5.9 5.9 5.9 5.8 5.7 5.7 5.7 5.7 5.8 5.6 5.3 5.1 6.2 6.7 6.4 6.9 6.5 6.2 6.1 5.6 5.8 5.8 5.8 10.4 8 5.3 5.7 5.7 5.6 5.5 5.4 5.2 5.2 5.2 5.3 5.4 5.5 5.5 5.5 5.5 5.6 5.5 5.5 5.5 5.5 5.7 5.7 5.4 5.3 5.3 5.4 5.5 5.7 5.7 5.7 5.7 5.8 6 5.5 5.6 5.8 5.9 5.9 5.7 5.5 5.3 5.2
-4 -4 -4 -4 -4 -4 -4 -4.1 -4.1 -3.7 -2.5 -4 -4 -4 -1.8 1.5 4.5 19.5 30.1 37.2 44.7 49.2 52.8 53.9 51.4 53.6 58.5 64.1 62.5 61.2 63.1 63.7 60 63.8 65.4 69.4 61 51.6 53.7 48.7 48.6 69.8 80.2 77.6 80.6 82.9 82.9 83.4 80.5 74.2 71.3 78.8 79.4 78.8 77.2 74.2 73.5 75.2 72.9 69.7 66.5 62.1 58.7 55.9 56.2 57 58.3 56.7 53.1 50.4 48.5 47.6 46.8 46.4 46 44 42.8 41.8 41.5 40.2 38.6 32 31.9 34.6 32.6 28.4 24.1 19.6 16.6 13.8 13.6 14.4 15.6 15 14.6 14 14 13.6 16.6 10.7 8.4 6.5 6.4 6.3 6.2 6 6 5.9 5.8 5.7 6.1 6.6 5.8 5.5 5.5 5.4 5.4 5.5 5.5 5.6 5.6 5.6 5.7 5.9 5.8 5.8 5.8 5.6 5.4 5.5 9.5 5.6 5.9 5.7 5.7 5.8 5.8 5.7 5.7 5.7 5.7 5.6 5.6 6.5 6.4 5.5 9.7 11.1 6.6 6 6 6 5.9 6 5.9 5.9 8.4 8.4 5.5 5.7 5.7 5.6 5.5 5.4 5.4 5.3 5.2 5.2 5.3 5.4 5.5 5.5 5.5 5.5 5.5 5.5 5.5 5.5 5.7 5.8 5.9 5.5 5.3 5.4 5.6 5.7 5.8 5.7 5.7 5.7 5.6 5.6 5.6 5.7 5.8 5.9 5.7 5.5 5.4 5.4
-4 -4 -4 -4 -4 -4 -4.1 -4.1 -4 -4 -4 -4 -4 -4 -1 1.8 4.8 19 28.2 32.3 35.5 37.6 40 40.9 42.5 44.3 47.6 49.2 48.4 48.1 49.6 50.3 48.1 49.6 50.8 53.8 51.7 47.3 47.9 51.3 57 63.4 76.3 61.8 57.1 60.3 65 72.5 71.2 62.9 63.5 70.6 71.7 71.3 69.9 63.7 64 69.2 56.2 60.8 56.5 51.5 49.1 49.5 50.7 50.6 49.6 49.5 48.5 46.5 44.9 44.1 43.9 43.3 42.7 41.1 39.6 37.2 38.1 37.5 34.4 28.5 23.4 26.1 26.9 22.4 19.6 15.9 12.3 11.5 10.5 10.5 11.2 11 10.8 10.3 10.1 9.7 9 8.1 6.4 6.6 6.4 6.2 6 5.7 6.1 6.2 6.1 6.1 6.6 6.6 6.1 5.7 5.7 5.6 5.6 5.5 5.5 5.5 5.6 5.6 5.7 5.6 5.6 5.8 5.9 5.7 5.6 5.7 5.9 7.1 5.6 5.7 5.7 5.7 5.7 5.7 5.7 5.8 5.9 6.5 6.4 6.2 6.1 5.6 5.3 9.9 5.8 5.5 5.6 6 6 5.9 5.8 6.1 7.5 6 5.8 5.8 5.7 5.6 5.6 5.5 5.5 5.5 5.4 5.4 5.2 5.4 5.6 5.6 5.6 5.6 5.5 5.5 5.5 5.5 5.6 5.7 5.9 5.7 5.4 5.4 5.5 5.7 5.8 5.8 5.7 5.7 5.6 4.7 5.6 5.7 5.8 5.8 5.9 5.7 5.6 5.6
-4 -4 -4 -4 -4 -4 -4 -4 -4 -4 -4 -4 -2.1 -1 0.1 1.7 4.5 17.3 26.6 28.7 29.6 32.7 34.4 36.5 37.4 38.1 38.7 41.6 42.2 42.8 43.3 43.5 42.7 42.7 43.7 44 43.8 42.5 43.3 46.8 49.4 53.5 57.2 54.8 50.8 50.4 53.5 53.9 58.5 53.2 56.4 62.3 61 61.2 61.9 55.5 54.5 56.1 55.5 52.2 48.1 44.4 44.3 45 45.5 45.7 45.3 45.1 44.9 43.8 42.1 41.4 40.9 41.1 40.3 39 36.4 33 32.3 32.7 28.9 22.8 19.4 19.3 20 17.5 15.5 12.9 9.2 9.6 8.9 8.1 8 8.1 7.6 7.2 7 6.8 6.6 6.1 6 6.2 5.9 5.6 5.4 5.8 6.1 6.2 6.3 6.4 6.3 6.1 5.9 5.7 5.9 5.9 5.9 5.7 5.6 5.6 5.6 5.6 5.4 5.1 5.3 5.6 5.9 5.9 5.8 5.8 5.4 5.9 5.6 5.7 5.7 5.7 5.7 5.7 5.8 5.9 6.6 6.1 6.1 6 5.9 5.6 5.7 8 5.9 5.9 6 5.9 5.6 5.4 5.5 5.8 6.9 5.6 5.8 5.8 5.7 5.7 5.6 5.5 5.6 5.7 5.7 5.2 5.2 5.3 5.6 5.7 5.7 5.7 5.7 5.6 5.5 5.5 5.6 5.7 5.8 5.5 5.3 5.4 5.5 5.7 5.7 5.8 5.8 5.8 5.7 5.6 5.5 5.6 5.7 5.8 5.8 5.9 5.8 5.7
-4 -4 -4 -4 -4 -4 -4 -4.1 -4 -4 -3.2 -2.2 -0.9 0.3 1.6 2.8 3.9 16.6 16.7 25.4 26.8 28.8 29.8 30.8 31.9 32.5 31.3 34.9 37.9 39 39.9 39.9 39.4 39.8 41 40.5 39.1 38.2 40.1 43.1 44.7 47 48.7 48.2 46 45.5 46.4 47.6 48 47.4 50.8 53.9 52.1 51.5 50.7 50.1 49 48.8 48.2 46.9 43.3 40.7 40.5 41.6 42.7 42.6 42.5 42.3 42 40.6 38.9 37.4 35.5 37.1 38.7 38.5 35.8 31 25.3 23.2 21.5 18.8 16.1 14.7 14.7 13.5 11.8 9.6 8.5 6.8 6.6 6.6 6.6 6.3 6 5.9 5.9 6 5.9 5.9 5.9 5.7 5.6 5.7 5.7 5.9 6.1 6.2 6.2 6.3 5.7 5.5 5.3 5.6 5.9 6 6 5.8 5.7 5.7 5.6 5.7 5.8 5.6 5.5 5.3 5.7 5.9 5.5 5.4 5.4 5.4 5.8 5.7 5.7 5.7 5.8 5.8 5.6 6.7 5.6 5.5 5.8 5.8 5.7 5.7 6 6.3 5.8 5.5 5.1 5.3 5.4 5.4 5.3 5.8 6.9 5.7 5.7 5.8 5.8 5.7 5.6 5.6 5.7 5.9 5.6 5.8 5.5 5.2 5.4 5.6 5.6 5.7 5.7 5.6 5.6 5.5 5.6 5.7 5.8 5.4 4.7 5.1 5.4 5.7 5.7 5.7 5.8 5.8 5.8 5.7 5.8 5.7 5.7 5.7 5.8 5.9 5.8 5.7
-4 -4 -4 -4 -4 -4 -4 -4 -4 -3.3 -2.4 -1.5 -0.6 0.3 1.2 2.2 3.4 4.5 13.7 21.9 21.9 20.5 22.7 24.9 26.3 24.9 27.5 31.7 33.9 34.9 35.8 36.2 36.8 36.5 37.6 37.8 36.3 33.6 37.7 40.7 42.1 43.1 43.3 43.6 42.1 41.6 42.4 43.5 42.6 42.5 46.4 47.7 47.5 46.9 46.5 45.8 44.9 44.5 44.2 43.2 41.3 37.1 34.3 39.5 40.6 39.9 38.6 38.5 38.1 36.6 32.8 32.1 31.3 32.8 34.2 34.3 33.6 31 26.4 19.5 16.6 14.2 12.8 11.1 10.4 9.4 8 7.4 6.8 6.1 5.9 5.7 5.6 5.7 5.8 5.9 6 6.1 5.9 5.9 5.8 5.7 5.4 5.5 5.7 5.9 6 6 6 6.1 5.2 5.9 5.7 5.4 5.9 6 5.9 5.9 5.8 5.7 5.5 5.7 5.9 6 6 5.9 5.8 5.4 5.4 6 5.7 5.5 5.8 5.7 5.6 5.8 5.8 5.8 6.4 5.9 5.7 5.6 5.9 5.7 5.6 5.8 6 7 6 5.3 5.4 5.6 5.7 6.5 8.8 9.5 6.9 5.5 5.5 5.6 5.7 5.7 5.7 5.7 5.8 5.8 5.8 5.7 5.5 5.4 4.2 5.3 5.4 5.7 5.6 5.6 5.6 5.5 5.6 5.7 5.8 5.5 4.8 4.7 5.2 5.5 5.7 5.7 5.7 5.7 5.8 5.7 5.6 5.7 5.7 5.8 5.9 5.8 5.7 5.6
-4 -4 -4 -4 -4 -4 -4 -4 -3.7 -2.8 -1.9 -1 -0.1 0.9 1.8 2.7 3.5 4.2 5.6 12.2 15 13.3 14.8 16.7 18.2 13 19.4 24.5 26.2 27.7 30.7 30.6 29.7 32.2 33.5 34.3 32 30.3 34.2 38.4 39.7 40.3 40.3 40.6 39.3 38.9 40.1 39.8 38.7 39.3 43 43.8 43.7 43.2 42.8 42.2 41.7 40.9 41 40.7 39.4 35.4 28.8 37.5 38.4 38 34 33.4 33.9 31.2 27 26.3 26.5 27.2 27.5 27.7 26.9 24.9 21.7 15.7 12.7 11.4 10.1 8.7 8 7.2 6.4 5.8 5.6 5.6 5.5 5.6 5.5 5.7 5.8 5.9 6 6.1 5.9 5.8 5.8 5.6 5.3 5.1 5.4 5.9 5.6 5.7 5.7 5.8 6 6 5.4 5.1 5.9 5.7 5.7 5.8 5.7 5.6 5.5 5.7 5.9 5.9 5.9 5.7 5.6 5.5 5.5 5.7 5.8 5.6 5.7 5.6 5.6 5.5 5.8 6.7 5.4 5.7 5.9 5.7 5.9 5.5 5.7 5.9 5.9 5.9 5.4 5.4 5.7 5.9 6.3 4.8 4.8 5.8 6.9 5.3 5.3 5.4 5.5 5.6 5.7 5.8 5.8 5.6 5.6 5.5 5.5 5.4 5.3 5.2 5.5 5.6 5.6 5.6 5.5 5.5 5.6 5.6 5.7 5.6 4.9 4.9 5 5.3 5.6 5.6 5.7 5.7 5.7 5.7 5.6 5.7 5.8 5.8 5.9 5.8 5.7 5.6
-4 -4 -4 -4 -4 -4 -4 -4 -3.2 -2.3 -1.4 -0.5 0.2 1.1 2 2.5 3.1 3.7 4.3 1 -4 -4 -4 10.6 -4 10.1 10.5 16.5 15.5 16.2 21.7 22.3 21.6 26.5 28.4 29.8 27.8 27.6 32.2 36.4 36.9 37.8 37.4 37 36.4 35.3 38.3 36.9 33.9 37.6 39 39.9 40.2 40.4 40.2 39.3 37.7 36 37.6 38.3 37.4 32.8 24.1 30.8 36 36.2 31.3 28.4 29.6 26.9 22.2 21.4 21.3 20.4 20 19.5 18.2 16.2 14.5 12.2 9.9 8.5 7.6 6.9 6.2 5.7 5.7 5.7 5.4 5.2 5.3 5.7 5.4 5.6 5.7 5.8 5.9 6.2 6 5.8 5.7 5.6 5.6 5.5 5.2 5.4 5.5 5.3 5.5 5.8 6 5.9 5.7 5.7 5.6 5.4 5.5 5.7 5.8 6 5.6 5.8 5.9 5.8 5.5 5.4 5.4 5.6 5.7 5.4 5.9 5.7 5.5 5.5 5.5 5.4 6.7 5.8 5.3 5.5 5.7 5.9 5.8 5.5 5.8 5.9 5.8 5.9 5.7 5.6 5.6 5.9 5.8 6 4.8 5.1 6.7 5.5 5.3 5.3 5.3 5.3 5.3 5.4 5.5 5.7 5.3 5.4 5.4 5.3 5.3 5.2 5.3 5.5 5.5 5.5 5.4 5.5 5.4 5.5 5.5 5.6 5 5.1 5.2 5.3 5.5 5.6 5.6 5.6 5.6 5.6 5.6 5.7 5.8 5.9 5.8 5.7 5.6 5.5
-4 -4 -4 -4 -4 -4 -4 -4 -2.9 -2 -1.1 -0.3 0.3 0.9 1.5 2.1 2.7 3.3 3.9 4.4 -1.2 -4 -4 -4 -4 9 9 10.3 9.3 10.4 13.2 13 15.1 21.8 23 24.8 21.6 19.4 26.9 33.1 33.9 34.3 33.4 30.3 30.1 36.2 36.8 32.7 32.7 36.3 37.4 37.1 38 38.4 37.2 36.2 34.9 32.5 34.5 34.8 33.7 29.2 19.8 24.9 33.1 34 30.4 23.1 24.4 22 17.5 17.3 18.5 17.1 14.2 13.5 12.5 11.6 10.4 8.5 7.4 7 6.3 5.7 5.6 5.5 5.6 5.6 5.3 5.4 5.6 5.4 5.3 5.5 5.6 5.8 5.9 6.2 6.1 5.7 5.7 5.8 5.8 5.8 5.5 5.2 5.2 5.2 5.6 5.9 5.8 5.6 5.7 5.5 5.3 5.2 5.3 5.6 4.9 6.2 5.8 5.9 5.8 5.5 5.3 5.5 5.6 5.7 5.3 5.4 5.6 5.9 5.7 5.5 5.5 6.6 5.8 5.7 5.5 5.3 5.6 5.8 5.6 5.6 5.9 5.9 5.9 5.9 5.9 5.8 5.7 5.7 5.7 5.8 5.8 6.2 5.7 5.3 5.4 5.4 5.4 5.3 5.3 5.3 5.3 5.3 5.3 5.5 5.4 5.4 5.3 5.2 5.2 5.3 5.3 5.4 5.5 5.4 5.4 5.4 5.4 5.4 5.2 5.3 5.4 5.5 5.5 5.6 5.7 5.7 5.7 5.7 5.7 5.8 5.8 5.9 5.8 5.7 5.6 5.5
-4 -4 -4 -4 -4 -4 -4 -3.4 -2.5 -1.9 -1.3 -0.8 -0.2 0.4 1 1.6 2.2 2.8 3.4 4 3.3 -4 -4 -4 -4 -4 7.8 8.6 7.7 7.5 8.4 9.4 11.4 14.7 15.3 16.4 15.3 13.5 19.7 29.4 29.2 28.4 26.4 22 29.8 35.6 35.6 28 28.3 33.8 34.6 34.3 35.8 35.3 33.2 30.8 29.1 26.1 30.8 31.3 30.5 25.1 17.8 20.6 28.7 29.2 29 19.6 18.7 16.4 13.3 12.7 15.3 13.4 11.5 11 9.3 7.8 7.1 6.4 5.8 5.5 5.6 5.5 5.3 5.4 5.5 5.5 5.6 5.6 5.6 5.2 5.2 5.4 5.5 5.7 5.7 5.7 5.6 5.6 5.6 5.7 5.7 5.7 5.7 5.5 5.3 5.4 5.7 5.6 5.5 5.4 5.8 5.7 5.3 5.1 5.5 5.7 5.9 8.3 5.5 5.8 5.7 5.7 5.6 5.7 5.6 5.5 5.4 5.6 5.8 5.9 5.6 6 6.2 5.9 5.9 5.8 5.7 5.3 5.7 5.8 5.7 5.5 5.9 6 5.8 5.6 5.4 5.2 5.9 5.7 6 6.6 6.1 6.7 5.2 4.4 5.6 5.5 5.4 5.3 5.4 5.4 5.3 5.3 5.4 5.4 5.5 5.4 5.3 5.3 5.2 5.2 5.2 5.4 5.5 5.4 5.3 5.3 5.3 5.3 5.3 5.3 5.4 5.4 5.5 5.5 5.6 5.7 5.8 5.8 5.7 5.8 5.8 5.8 5.7 5.6 5.5 5.4
-4 -4 -4 -4 -4 -4 -4 -3.5 -3 -2.4 -1.8 -1.2 -0.6 0 0.6 1.1 1.7 2.3 2.9 3.5 4.1 2.1 -4 -4 -4 -4 8 8 7.9 7.4 7.2 7.8 8.3 10.5 10.4 12 10.6 9.6 12.9 22.1 22.7 21.7 18 17.8 25.4 29.4 29.5 23.6 21.3 29.1 31.3 31.6 33.3 33.1 29.3 28.7 22.5 20.5 26.7 27.6 27.8 20.6 15.3 16 24.6 21.2 13.8 14.7 12.6 12 9.8 9.3 9.2 7.9 6.9 6.4 5.7 5.9 6 5.8 5.3 5.2 5.3 5.3 5.2 5.4 5.5 5.5 5.7 5.7 5.7 5.7 5.8 5.7 5.5 5.6 5.6 5.6 5.6 5.6 5.6 5.6 5.6 5.6 5.6 5.5 5.5 5.5 5.4 5.3 5.2 5.4 5.8 5.9 5.4 5.1 5.8 5.9 5.8 3.6 5.3 5.7 5.7 5.7 5.7 5.7 5.6 5.6 5.6 5.8 5.8 5.7 5.4 6.3 10.7 6.3 5.6 5.5 5.6 5.5 5.6 5.7 5.6 5.2 5.6 5.9 5.9 5.8 5.7 6 6.1 5.7 5.9 6.5 5.5 6.9 5.3 5.5 5.6 5.5 5.5 5.4 5.4 5.4 5.3 5.3 5.4 5.4 5.5 5.5 5.4 5.3 5.3 5.2 5.3 3.9 5.5 5.3 5.2 5.2 5.2 5.3 5.4 5.4 5.4 5.4 5.4 5.5 5.5 5.6 5.7 5.7 5.3 5.3 5.6 5.7 5.7 5.5 5.4 5.3
-4 -4 -4 -4 -4 -4 -3.6 -3.2 -2.7 -2.3 -1.8 -1.3 -0.9 -0.4 0.1 0.7 1.3 1.9 2.5 3.1 3.6 4.2 1.1 -4 -4 -4 5.9 4.5 4.5 6.7 7.6 8.3 9.1 8.8 8.8 9.1 8.3 8.5 9.6 15.3 16.9 13.6 12.3 13.6 17.1 20 21.1 18.6 17.2 27.1 28.5 28.3 30.2 28.3 26.6 28.2 20.4 16.6 20.4 20.1 27.6 17.4 12.1 11.4 12.5 12 11 9.6 9 8.7 7.3 6.6 6.5 5.5 5.3 5.3 5.4 5.6 5.7 5.3 5.1 4.9 4.9 4.9 5.2 5.5 5.5 5.5 5.5 5.7 5.8 5.8 5.1 5.4 5.4 5.5 5.6 5.6 5.6 5.6 5.5 5.5 5.5 5.5 5.4 5.4 5.4 5.5 5.4 5.3 5.3 5.5 5.8 5.9 5.8 5.9 5.9 5.3 5.2 4.9 5.3 5.7 5.7 5.7 5.8 5.8 5.7 5.7 5.9 5.8 5.7 5.6 5.4 7.1 6.9 5.8 5.2 5.6 5.4 5.3 5.5 5.6 5.4 5.3 5.5 5.8 5.7 5.3 5.4 5.8 6 5.8 5.8 6.4 6.3 6.9 5.3 5.4 5.6 5.6 5.5 5.5 5.4 5.4 5.3 5.3 5.4 5.4 5.5 5.5 5.4 5.4 5.3 5.3 5.4 5.2 5.3 5.3 5.2 5.2 5.3 5.4 5.4 5.4 5.4 5.5 5.5 5.4 5.5 5.6 5.6 5.6 5.6 5.4 5.3 5.6 5.6 5.6 5.4 5.3
-4 -4 -4 -4 -4 -4 -3.3 -2.8 -2.4 -1.9 -1.4 -1 -0.5 -0.1 0.4 0.8 1.3 1.7 2.2 2.7 3.2 3.8 4.4 9.5 8.9 4.5 4.5 4.5 4.5 4.5 4.5 7.9 8.3 7.9 7.9 8 7.9 8.1 8.3 10.1 11.1 9.5 8.3 8.6 9.6 12.8 14.4 13 14 24.4 26.7 24.1 23.8 20.4 20.9 26.6 17.8 12.6 12.4 13 13.8 12.4 9 8 8.1 8.2 7.3 6.4 6 5.7 5.5 5.1 5.2 5.1 5 5.1 5.2 5.3 5.3 5.1 4.8 4.6 4.7 4.9 5.2 5.5 5.5 5.5 5.4 5.6 5.7 5.1 5 5.3 5.4 5.5 5.7 5.6 5.6 5.5 5.5 5.5 5.3 5.3 5.3 5.2 5.2 5.5 5.5 5.5 5.8 5.9 5.7 5.5 5.4 5.9 5.1 5.1 5.1 5.2 5.7 5.7 5.8 5.8 5.8 5.8 5.8 5.8 5.7 5.6 5.5 5.4 5.6 7.1 5.5 5.3 5.3 5.6 5.4 5.3 5.5 5.7 5.6 5.6 5.5 5.9 6 5.6 5.2 5.5 5.9 5.2 5.3 5.9 5.4 6.9 5.4 5.7 5.7 5.6 5.5 5.5 5.4 5.3 5.3 5.4 5.4 5.4 5.5 5.5 5.5 5.4 5.4 5.4 5.5 5.4 5.5 5.5 5.4 5.3 5.4 5.5 5.5 5.5 5.6 5.6 5.5 5.3 5.4 5.5 5.5 5.6 5.6 5.6 5.3 5.4 5.5 5.5 5.5 4.4
-4 -4 -4 -4 -4 -3.3 -2.9 -2.4 -2 -1.5 -1.1 -0.6 -0.2 0.3 0.7 1.2 1.6 2 2.4 2.9 3.3 3.7 4.1 4.5 4.5 4.5 4.5 4.5 4.5 4.5 4.5 4.5 7.9 8.1 8.2 8.1 7.7 7.6 7.6 7.8 7.6 7.4 7.5 7.6 7.6 9.2 9.7 8.7 9.4 16.7 23.5 25.3 16.6 14.2 15 20.5 14.1 9.6 8.6 8.7 8.8 7.8 6.3 5.9 5.8 5.5 5 5.1 5.2 5.4 5.3 5.2 5.2 5.1 5.1 5 5.1 5.2 5.2 5.3 5 4.8 4.7 4.9 5.3 5.5 5.6 5.5 5.4 5.5 5.3 5.1 5.2 5.4 5.5 5.6 5.7 5.6 5.5 5.5 5.5 5.5 5.3 5.2 5.1 5.1 5.1 5.4 5.5 5.5 5.9 5.7 5.8 6 5.9 5.8 5.1 5.1 5.1 5.1 5.5 5.5 5.6 5.6 5.7 5.7 5.8 5.7 5.6 5.5 5.3 5.2 6.3 5.4 5.5 5.5 5.4 5.7 5.6 5.4 5.6 5.8 6 5.8 5.6 5.7 6.2 5.8 5.3 5.3 5.9 5.8 5.7 5.6 3.6 6.9 5.7 5.7 5.7 5.6 5.6 5.5 5.4 5.3 5.3 5.4 5.4 5.5 5.5 5.6 5.5 5.5 5.5 5.5 5.6 5.5 5.6 5.5 5.5 3.9 5.6 5.6 5.7 5.7 5.7 5.6 5.5 5.3 5.3 5.4 5.5 5.5 5.5 5.8 5.6 5.1 5.3 4.2 5.3 5.3
-4 -4 -4 -4 -3.6 -3.3 -2.9 -2.4 -2 -1.6 -1.2 -0.7 -0.3 0.1 0.5 1 1.4 1.8 2.2 2.6 3.1 3.5 3.9 4.3 4.5 4.5 4.5 4.5 4.5 4.5 4.5 4.5 4.7 8.3 8.4 8.2 7.8 7.4 7.3 7.4 7.2 7.1 7 7.1 6.4 6.4 6.5 6.5 6.7 8.5 15.9 19.5 14.3 10.4 10 11.4 9.1 6.8 6.2 6 5.7 5.3 5.1 5.2 5.2 5.1 5.1 5.1 5.2 5.4 5.3 5.2 5.5 5.3 5.2 5.2 5.1 5 5.1 5.2 5.2 5 4.9 4.9 5.2 5.4 5.6 5.5 5.5 5.4 5.3 5.2 5.3 5.5 5.6 5.7 5.7 5.6 5.5 5.5 5.5 5.5 5.3 5 5 4.9 4.7 5 5.4 6.1 6 10.3 6 5.9 5.9 5.5 5.2 5.2 5.2 5.2 5.3 5.3 5.4 5.5 5.6 5.6 5.6 5.7 5.7 5.6 6.7 5.7 5.7 5.8 5.8 5.7 5.6 5.8 5.7 5.5 5.7 5.9 5.7 5.6 3.8 5.6 5.9 5.5 5.3 5.7 5.9 6 5.8 5.5 3.6 7.1 5.9 5.8 5.7 5.7 4.6 5.5 5.4 5.3 5.3 5.4 5.4 5.5 5.5 5.6 5.6 5.5 5.6 5.6 5.7 5.7 5.6 5.6 5.6 5.5 5.5 5.9 5.8 5.8 5.7 5.6 5.5 5.3 5.3 5.4 5.4 4.4 5.3 5.6 5.6 5.2 5.2 5.3 5.3 5.3
-4 -4 -4 -3.7 -3.4 -3.1 -2.8 -2.5 -2.2 -1.8 -1.4 -0.9 -0.5 -0.1 0.3 0.7 1.2 1.6 2 2.4 2.9 3.3 3.7 4.1 4.5 4.5 4.5 4.5 4.5 4.5 4.5 4.5 4.5 8.3 8.5 8.2 7.8 7.5 7.1 7.5 7.2 6.9 6.7 6.1 6 6 6.1 6 6.3 6.6 8.3 14.1 10.3 8.2 7.3 7 6 5.4 5.5 5.4 5.4 5.2 5.1 5.2 5.2 5.2 5.2 5.2 5.2 5.4 5.3 5.7 5.6 5.5 5.4 5.2 5.1 5 4.9 5 5.1 5.1 5 4.9 5.2 5.4 5.6 5.5 5.4 5.3 5.3 5.3 5.4 5.6 5.7 5.8 5.7 5.6 5.5 5.5 5.6 5.5 5.2 5.5 5.8 5.5 5 5.2 5.6 6 6.6 5.8 6.4 6.1 5.7 5.3 5.3 5.3 5.3 5.3 5.2 5.2 5.3 5.4 5.4 5.5 5.5 5.6 5.7 6.8 3.8 4 6 6 5.9 5.9 5.8 5.9 5.7 5.5 5.8 5.8 5.6 5.3 5.6 5.6 5.6 5.6 5.5 5.7 5.8 5.9 5.9 5.4 3.6 7.3 5.8 5.7 5.7 5.6 5.6 5.5 5.4 5.3 5.4 5.4 5.4 5.5 5.5 5.6 5.6 5.7 5.7 5.8 5.9 5.7 5.6 5.6 5 5.2 5.5 5.5 5.9 5.9 5.8 5.6 5.6 5.5 5.5 5.4 5.5 5.4 5.3 5.4 5.3 4.8 5.1 5.2 5.2 5.2
