ncols 200
nrows 82
xllcorner 280000
yllcorner 731150
cellsize 50
659.2 649 646.1 637.4 632.5 625.7 618 609.3 598.8 588.4 576.9 566 556.1 545.1 530.8 515.3 506 498.9 491.9 481.4 474.4 463.7 453.7 444.8 436.1 429.3 415.2 411.7 418.9 429.4 431.3 441.5 455.8 466.1 477.4 472.2 490.9 502 520.7 542.4 565.7 589 611.6 632.5 649.9 662.9 671.5 679.6 690.1 698.9 703.8 704.7 702.8 698.3 671.3 628.7 607.1 586.1 561.8 536.2 509.3 488.1 465.5 445.5 430.2 427.7 439.7 460 480.9 495.8 516.9 533.5 550.5 566.9 573.7 584.1 592 599.9 607.5 615.4 625.9 632 638 650.9 665.2 653.7 607.3 570.4 540.6 513.3 509.5 506.2 507.3 513.5 536.1 547.3 559.4 576.9 596.5 614.8 632.4 646.7 651.9 658.3 661.9 660.5 658.7 661.3 657.4 649.6 645.3 633.5 622.1 611.1 592.4 567.3 544.8 526.1 514.7 504 495 494.5 490.6 487.1 485 484 479.1 472.8 468.2 462.8 458.7 453.7 451 447.2 443.6 440.1 437.4 434.7 432.6 430.5 428.5 427.1 424.8 421.5 418 412.8 404.5 394.9 395.7 398.4 404.6 411.1 415.9 424.4 433 437.8 440.4 446.6 447 448.7 450.4 452.5 455.6 456.8 461.6 467.5 466.6 457.8 454.7 434 408.3 399.2 380.6 374.3 366.7 361.3 353 350.7 350.3 353.1 354.5 352.7 351.3 344.5 336.2 322.7 317.4 312.1 306.6 306.8 305.8 304.7 305.5 305.5 305.2 303 301.7 301.5 298.3 293
677.8 659.5 651.8 645.8 639.5 635.3 627 618.6 609.1 597.3 584.8 574.8 565.5 553.5 539.2 528.5 519.7 511 502 491.5 481.8 472.6 461.6 451.6 443.4 435.4 422 408.9 408.6 417.6 417.9 428.9 443.5 455.4 464.5 467.5 480.4 493.9 509.8 530.1 550 572.2 595.7 616.1 636.1 648.8 658.1 666.7 675.7 681.5 686.7 689.6 689.7 666.3 638.8 611 581.7 560.1 540.5 516.8 492.4 475.9 456.5 441.6 428.9 439 462.9 478.9 500 512.1 534.7 551.1 565.4 582.7 593.4 595.4 608.9 613.6 630.5 647.5 652.1 655.6 661.2 673.9 680.4 673.3 626.4 595.5 566 537.6 530.1 524.4 520.8 532 553.3 571.9 584.3 596.5 609.7 627.1 645.6 655.8 662.9 667.1 666.8 665.3 663.5 663.7 662.4 655.2 642.3 631.5 613.2 604.3 589.1 564.6 544.1 529.9 519.2 505.9 504.9 504.2 503.1 502 496.9 497.4 492.6 482.1 474.8 468.5 463.5 458.2 452.4 449.5 446.1 442.6 439.4 436.6 433.9 430.8 425.2 419.7 418.9 416.6 410.2 406 400.3 403.9 404.4 406.2 413.8 421.1 430.1 431 434.8 442.5 445.7 451.4 452.2 454.4 452 454.9 454.6 457.9 467.3 467 477.5 459.2 464.6 442.4 413.1 397.4 381 373.8 365.7 359.9 349.4 345.9 346.7 347.6 350.6 350.1 346.8 341.2 335.3 326 316.3 311.2 304.7 302 301.1 301 302.4 302.9 302.8 300.4 298.5 294.4 291.9 287.7
710.5 689.9 675.2 661.6 649.3 642.8 635.2 625.5 617 605.3 594.6 584.9 575 562.5 550.6 540.5 531.7 521.9 512.7 501.5 491.7 482.5 473.6 462.2 453.6 443.8 430.6 418.3 405 409.6 412.8 421.4 431.9 441.7 450.1 462.1 472.3 485.5 498.5 518.1 535.2 553.1 575.2 596.4 615 629.5 643.7 649.2 661.7 664.6 666.6 666.2 662.1 636.1 607.2 582.1 555.5 536.2 519.3 499.2 479.8 459.9 446.3 431.2 437.2 456.6 482.8 498.1 513.1 534.8 552.6 563 570.4 583.4 597 609.6 616.2 625.1 634.4 643.8 651.8 657.6 663.5 668 672.9 672.6 653.2 623.8 599 559.4 546.7 536.9 529.9 547.2 575.2 595.2 611.4 624.5 637.1 647 660.2 670.3 673.1 670.1 669.9 667.5 667.3 666.7 664.8 656.7 639.5 627.6 609.4 595.6 584.2 561.7 548.7 535 524.1 514.6 513.1 514.5 515.3 516.9 508.6 504.2 502.2 491.3 480.6 474.4 467.5 462.3 456 451.8 448.6 445.1 441.2 437.7 434.4 426.9 430.1 427.1 423.8 420.3 418.6 412.3 415.3 415.9 415.9 418.3 422.4 430.5 442.5 435.3 437 446.5 451 458.2 457.3 457.2 455.2 454.7 452.2 458.3 471.5 470.1 464.6 460.5 462.4 451.9 419.9 399.9 386 372.6 365 357.7 348.7 344.2 343.2 343.9 348.1 350.3 345.7 336.1 330.5 325.4 316.5 309.4 302.9 298.8 298.1 297.8 299.6 301.1 300.8 298.1 295.7 290.1 286.5 283.3
717.7 714.3 709.2 689.5 660.6 651.9 641.6 630.8 621.3 610.8 600.9 594 583.7 569.7 558.9 551.3 543.1 532.3 521.2 511.4 502.5 492.9 483.8 472.6 463.5 453 439.4 428 413.3 401.1 402 411.1 419.5 426.6 436.8 452.6 463 477.2 488.3 502.7 519.8 537.1 553.9 574.2 592.2 606.2 624.8 638.1 641 641.6 645.2 638.9 632.7 605.1 572.2 551.7 528.8 510.3 495.7 477.6 460.4 440.3 428.9 427.9 446.5 478.3 501.6 519.4 538.1 558.2 569.2 578.2 580.8 599 611.2 624.4 616.1 615.7 621.1 630.8 637.6 644.1 651.4 656.3 660.4 663.6 662.8 653.9 627.8 594.5 568.5 554.4 550.4 566.7 595.8 612.7 622.2 641.1 653.2 663 678.2 678.6 676.9 670.8 671 670 668.2 666.9 664.9 652.4 638.3 625.6 610.8 591.5 580.2 564.6 548.2 537.8 529.1 517.8 522.4 523 524.9 525.4 520.5 509.3 504.4 497 490.3 483.3 477.9 468.5 461.2 455.7 450.7 446.4 442.1 437.5 433.7 436.1 434.4 432 430.1 429 425.9 423.6 426.4 427 429.1 431.6 432 442.7 445 441.6 438.3 448.6 455.5 460.6 461.8 457.7 455.9 452.4 451.2 455.3 471.7 468.6 459.6 457.2 455.6 448.7 422.2 403.6 388.9 378.4 365.4 363 350.6 343.9 341 339.1 341.8 349.8 340.4 332 327.1 321.8 314.9 309.6 304.3 298.4 295.7 297.2 298.7 299.7 299.6 295.6 290.6 287.7 283.5 283
722.2 719.6 714.6 709.9 680.4 656.2 647.8 634.2 626.1 618.6 608.2 599.7 589.7 577.6 567.3 559.8 552.5 542.7 532.8 522.9 513.3 503.7 493.9 482.3 472.4 460.3 449.2 438.8 430.2 415.6 400.6 398.5 406.8 415 426.1 438.6 453.4 467.9 478.1 490.7 507.1 521.3 535.7 549.5 566.9 585.9 600.9 612.3 616.7 617.6 614.4 604.9 590 562.7 545.6 521.8 501.8 484.6 467.4 450.6 435.8 436.6 439.6 450 472.3 497.1 516.9 537.8 555.9 571.6 584.7 595.3 599.2 620.2 622.6 633.8 625.6 616.7 609.3 614.3 621.2 626.7 634.2 639.8 643.7 648 651.4 653.2 648.1 623.9 598.1 590.4 590.9 603.4 621.4 638.5 646.1 653.1 662.8 684.3 690.8 681 678.1 675.5 672.7 672.3 669.2 666 661.2 650 634.7 622.3 611.1 590.1 577.4 564.7 553.6 541.6 534.7 531.2 533.4 534.7 535.3 534.8 527.4 518.2 510 501 496.5 490.5 484.5 475.7 465.8 459.5 453.8 448.8 439.8 437.3 442.2 440.7 439.3 438.1 436.4 436.7 435 432.6 437.7 439.2 440.9 442 441.7 449.5 449.9 445.7 440.2 449.3 456.2 461.9 454.4 457.4 458.9 451.5 448.6 448.4 461.4 471.6 456 453.3 447.6 444.7 427 402.5 391 380.2 369.8 360 353.2 345.8 341 336.2 333.2 337.9 335.8 328.8 322.8 317 311.6 308.8 304.2 299.5 294.8 295.5 297.6 298.5 296.2 289.1 286 282.7 283.6 284.8
723.7 720.9 717.1 711.2 700.8 671.3 649.8 640.5 628.9 620.8 614.5 605.6 596.3 585.3 576.9 569.3 562.1 553.7 546.1 534.9 521.6 512 501.4 491.8 482.4 471.2 456.9 445.5 437.2 420.6 407.9 397.4 397.4 407.3 412.5 428.7 446.8 456.9 469.1 480.3 493.4 506.2 517.8 530.5 544.2 563 576 585.7 593.8 592.8 581.8 568.7 547 525.9 518.4 495.4 474.8 458.7 438.7 431.2 441.1 455.2 470.4 480.5 499.3 516.8 534.9 550.6 562.4 586.4 599.6 602.7 612.7 626.8 623.9 644 633.5 623.8 611.4 602.4 604.7 607.4 616.2 622.3 629.5 634.8 638.8 643.5 646.9 648 633 624.1 634.5 640.1 649.1 663.7 660.8 669 685.1 692 689.7 683.8 679.2 678.1 676.2 673.8 670.8 664 654.6 642.9 630 616.8 607.7 597.9 578.1 564.5 557.2 548.1 540.3 541.8 541.8 543.4 544.1 540.8 535.3 522.9 513.1 504.4 500 493.7 486.6 478.9 469.4 461.8 453.7 451.6 448.7 447.5 447.5 447 446.8 447.9 446.8 445.4 445.4 443.6 446.3 451.1 452.2 454.4 453.5 456.6 455.2 445.3 441.1 444.1 454.4 461.4 455.9 454.5 459.8 458.6 437.4 439.7 450.3 460.8 455.3 443.9 434.1 438.8 430.6 403 391.3 381 371.7 363.1 354.5 347.8 342.5 336.9 322.7 328.3 328.9 325.1 319.5 313.7 309.1 306.6 303.7 299.3 295.1 294.5 295.9 294.5 289.9 288 284.4 283.5 285.2 286
722.6 719.6 714.8 711.4 706.3 691.5 670.1 646.7 635.3 624.3 621.6 610.7 603.7 596.2 586.8 579 571.9 565.2 555.6 542.6 530.4 519.5 509.5 500.1 491 479.5 465.9 455.4 443.5 428.9 415.8 404.5 392.9 395.1 401 416.8 431.1 446.5 458.6 470.6 482.1 494.1 506.6 516.6 527.3 540.5 551.9 562.8 568.9 566.2 554.4 534.3 508.3 492.7 482.9 463 448.5 443 441.7 443.7 455.2 469.4 481.8 495.1 519.8 540.3 554.9 563.6 577.5 599.6 609.4 605.1 610 625.6 646.2 658.9 639.9 627 615.7 605.2 596.1 599.8 602.9 605.2 610.4 617.4 626.5 633.3 640.6 646.5 641.4 643.3 659.5 671.4 677.5 682.5 685.8 691.7 696.4 695 691.7 689.3 686.1 679.6 676.7 673.7 669.2 661.5 649.5 639.1 632.2 616.7 607 597.3 584.3 568.9 561 555.2 551.4 553.7 553.5 550.7 552.1 546 536.6 528.1 518.4 508.7 500.6 492.3 486.4 478.5 471.5 465.2 459 456 454.1 454 454.1 454.9 456.7 458.3 458 456.9 455.5 452 456 460.5 464.6 466.7 463.1 459.1 454.8 447.5 445.2 439 454 459.4 459.3 452.4 457.1 466.3 441.6 432.2 441.1 459.2 450.3 437.9 429 430.3 434.7 409.3 389.3 380.1 372.1 365.2 358.3 349.6 347.1 335.4 324 318 321.6 320.6 315.8 310.8 307.3 304.8 302.9 299.7 296.7 292.8 292.7 290.3 288.6 287.4 284.4 284.5 286.3 287.7
720.1 713.7 709.6 706.5 705.2 699.8 691.2 677.3 662.6 642.8 630.2 622.3 616.2 605.5 596.7 590.1 582.1 577 564.3 552.6 540 527 517.4 508 498.1 487.2 474.9 462.6 454.9 441.1 428 415.5 399.2 387.9 392.1 404.8 419 432.2 444.2 456.7 468.9 482.3 495.4 506.8 514.2 525 532.6 538.7 542.5 541.7 526.2 501.4 477.9 459.3 449.3 436 433.8 451.9 455.4 470.7 479.9 490 502.8 517.2 536.9 553 568.9 585.2 601.4 612 624.6 624.9 638.7 657.8 676.6 665.3 652.1 635.7 623.3 611.5 601.4 591.5 591.5 596.2 597.1 592.8 609.6 622.7 631.8 637 638.2 647.2 667.2 679.3 686.5 687 691.5 698.4 700.8 700.2 697.7 693.8 686.8 680.6 676.8 672.7 666.6 657.1 646.7 638.9 629.7 618.4 608.6 598.2 588.1 576.9 569.7 566.7 562.5 562.2 561.2 557.4 556.4 550.3 540.9 531.2 521.7 512.4 503 494.6 487 480.2 472.3 468 464.4 460.6 458.5 460.2 462 463.9 466.8 467 466.7 467.2 465.5 460.6 465.9 471.4 475.5 475.3 472.1 467.5 462.4 458.3 450.9 437.2 446.5 456.2 447.7 443.4 446.1 465 444.3 425.4 435.5 450.9 450.4 433.3 424 425.8 422.1 417.9 391.5 379.6 374.3 366.8 360.5 349.4 345.4 333.2 321.8 314.6 314.6 313 311.2 309.2 306.1 302.9 303.1 301.8 297.1 292.7 290.6 286.6 286.6 285.4 283.8 285 286.1 290.2
712.1 706.5 703.8 703 701.2 698.5 697.2 698.6 690 676.7 654.2 636.8 631 618.5 606.2 596.9 592.8 585.7 574.4 561.7 551 535.8 523.9 513.5 504.3 493.9 483.9 473.6 462.9 453.4 437.2 426.4 410.7 389.4 381.9 391.6 405.6 419 429.9 445 457.3 467.4 480.5 494.5 504 510.5 514.4 520.2 522 513.9 494.8 472.4 439.6 428.2 420.4 436.6 456.9 468.1 476.6 488.5 498.9 509.8 526.3 544.6 560.5 572.5 591.4 601.9 614.2 622.7 631.7 647.2 662.2 681.9 686.4 672 660.1 647.6 633.2 617.9 608.6 597.6 584.1 581.8 585.9 590.2 600 607.1 617.6 623.6 633.7 641 666.3 677.5 684.3 688.2 695.4 699.7 703.5 702.7 698 693 686.2 680.5 675.4 670.4 663.3 655.7 646.5 637.5 626.5 617.7 610.2 601.1 591 583.5 579.7 577.8 575.9 574 566.9 561.6 557.5 552.1 543.9 533.2 523.3 515.3 506.1 498.1 490.2 484.5 478.2 471.2 470 466.5 466.6 469.2 470.6 472.7 475.5 477 476.8 476.9 474.8 472.3 474.1 479.1 483.4 483.2 483.8 478.3 474.7 470.8 468.2 444.2 435.6 449.8 444.6 435.6 433.3 453.2 443.9 430.6 425.1 425.8 434.7 431.8 420.3 421.1 415.4 415 385.1 378.9 382.7 376.9 361.8 350.6 340.5 331.1 320.5 313.4 308 307.6 306.9 305.8 304.2 301.6 298.7 296.9 297.8 296.7 288 285.4 284.5 284.2 285.8 287.7 291.6 296.5
702.8 698.5 697.9 696.4 695.2 694.8 696.1 700.3 704.1 703.6 685.2 669.3 648.3 634.5 620.1 605.8 598.3 592.1 582.6 570.4 556.3 543.3 528.4 518.8 511.3 502.7 492.6 482.5 471.9 461.2 442.5 436.4 424.2 398.2 383.7 382.8 389.3 404.3 417.9 432.6 443.6 454.6 464.9 477.3 490.8 498.8 498.6 498.9 498.7 486.6 464.6 440.3 417.3 417.1 434.2 454.1 466.1 481.4 493.6 503.1 520.6 525.1 542.2 558.4 572.6 583.5 600.2 614.2 626.2 632.7 646.5 664.5 680.1 700.1 697.4 680.8 668 655.9 642.8 626 611.9 603.7 593.2 581.9 573.9 580.4 585.9 593.7 603.4 618.5 625.1 634.2 659.5 673.1 681.9 689.2 692.3 698.9 701.6 700.5 697 692.9 686 679.6 674.4 666.9 662 654.1 646.3 636.8 627.3 618.1 610.6 603.5 596.2 591.4 588.2 585 584.4 580.9 574.6 567.6 558.4 551.7 543.8 534.6 526.3 518.4 509.5 502.4 495.2 487.6 479 479.1 477.8 475.4 476 478 480.1 482.8 485 487.1 487.3 485.9 483.9 481.8 480.8 486.7 490.2 493.4 496.5 493.6 485.7 481.6 476.9 453.2 434.4 435.2 435.6 431.4 422.4 426.1 433.9 432.3 410.1 413.3 411.8 418.6 412.8 409.2 409.4 399.9 381.6 376.5 386.3 380.1 360.7 346.2 334.9 327.2 318.9 312.3 306.8 304.6 304.7 304.8 303.9 301.4 300.3 298.9 291.5 291.1 285.5 285.1 285.4 287.1 290.7 293.5 300 306.1
693.2 692 691.1 690.4 689.3 691.2 695.1 700.2 704.8 708.6 710.5 697.3 680.4 666.9 641.3 624 610.8 599.1 589 580.9 564.5 549.5 537.1 527.2 518.6 509.5 500.8 491.2 481.4 470 453.3 440.7 431 410.7 394.5 378.5 378.1 386.9 401.4 414.1 430.8 441.9 452.7 463.8 476.2 483.8 487.1 481 474.1 456.2 437 414.4 412.9 429.4 447.9 467.9 483.7 494.2 508.2 525.1 540.2 551.5 569.2 578.9 586.2 599.1 613.6 626.3 631.7 649.1 674 693.2 703.9 716.1 708.8 691.7 675 666.1 652.4 635.1 617.6 606.2 598.6 588.3 577.4 568.9 572.3 581.8 593.3 610 617 628.8 648.7 665.2 676.4 685.5 689.6 695.8 697.6 697.2 695.6 692.5 687.2 679.3 673.3 666.8 661.6 656 649.7 640.2 630.2 621 613.6 607 602.4 597.8 594.8 593.5 590.6 586.4 579.6 571.5 560.4 552.1 543.8 536.4 529.1 521.3 513.2 505.7 499.8 493.3 490.5 488.5 487.2 486.2 485.3 487.4 490.9 493.4 495.2 494.9 495.4 493.3 491.3 489.4 487.6 492.9 495.5 499.8 503.7 504.1 492.3 483.5 480.2 464.4 443.9 428.3 428.8 426 425.8 415.1 422.2 423.6 410 400.3 404.3 403.4 402.1 399.9 401.9 402.3 382.7 370.9 377.3 373.5 356 342.7 332.6 323.5 317.6 310.9 306.5 302.4 303.6 302.6 302.8 301.2 299.9 299 291.7 287.5 286.2 285.6 286.2 296.2 300.9 304.1 309.3 318
684.7 682 681 679.4 683 685.3 691.5 697.5 703.3 709.7 713.2 715.1 703.5 693.5 664.5 642 627.7 610.1 595.9 587.1 576.4 560.7 546.7 537 524.9 514.3 504.9 496.2 488.3 477.7 463.6 450 439.7 427.6 414.5 398.9 379.4 373.9 383.5 401.9 415.1 428.8 440.3 449.7 461 471.8 474 465.5 446.8 429.3 415.9 407.8 422.9 438.7 461.9 482.2 502.9 515.7 522.7 547.8 559.2 570.5 583.2 597.8 606.1 617.9 628.8 636.1 647.5 666.8 688.5 703.6 718.3 721.2 718.4 705.2 689.8 672.4 657.5 639.6 622.9 609.4 601.7 592.5 581.6 570.1 563.8 573.7 584 598.4 605.7 626.4 639 654.3 668.4 678.7 685.8 690.9 695.3 696.2 695.4 692.2 687.5 679.9 674.1 668.4 662.3 657.4 652.1 644.1 634.6 625.4 617.2 611.5 607.3 603.9 602.2 599.2 595.5 590 582.9 574.3 562.1 553.7 545.1 537.7 531.4 524.4 516.2 506.2 500.5 501.3 495.6 495.8 495.2 494.5 494.6 496.6 499.5 501.7 503.6 503.5 503.4 500.9 499.1 498.4 496.5 497.3 500 503.2 506.8 508.4 498.8 485.2 476.6 470.5 450.1 429.8 423.3 420.8 416.6 408.6 411.4 408.9 402.6 395.1 399.1 394.4 388.7 387.1 390.6 388 378.8 368.2 364 362.5 354.4 343.1 331.2 322 313.6 308.8 305.3 302.7 299.6 299.5 301.9 301.1 300.9 297.6 291.5 285.9 286.2 286.1 290.2 301.7 308.1 312.3 316.3 322.1
673.5 671.1 669.3 671.7 673.7 679.1 686.5 694 703 710.5 714.2 716.9 717.9 713.6 686.9 661 640.8 629.8 605.5 594.4 585.9 569.6 552.6 544.1 532.8 521.1 510.3 502.2 494 486.3 473.8 462.1 447 435.4 424 411.7 393.4 378 365.4 379.1 392.3 412 425 434.2 445.8 455.4 456 448.2 432.2 408.9 396.8 414.4 431.1 456.2 474.8 492.3 505.5 518.6 531.2 547.8 562 574.4 590.4 606.8 616.7 629.8 638.8 654.1 664 680.9 705.2 722 724.9 724.7 721.3 715.1 702.5 680.5 660.5 643 627.5 614.7 604 595 584.2 572 559 571.8 575.6 589.6 600 616.7 628.3 644.3 656.9 668.6 677.4 684.8 691.2 694.8 694.1 692.2 689.2 682.7 674.5 668.4 662 658.1 653.2 646.8 638.7 632.9 625.6 616.3 612.7 609.8 607.7 604.6 598.7 592.8 583.8 574.8 563 554.4 546.2 538 532.6 524.5 520.6 514.4 510.9 506.8 504 502.6 502.6 502.6 502.1 504.7 508.4 510.7 512.5 512.5 511.1 510.3 509.4 506.3 504.4 503.5 504.7 510.2 511.8 512.6 502.6 488.8 479.7 472.9 453.6 433.2 420.1 416.4 408.3 405.3 403.4 403.2 395 387.4 388.5 381.9 375.8 375 370.1 370.3 372.8 362.6 359.5 350.8 349 341.1 329.8 318 310.8 306.1 303.9 301.3 298.1 298 299.3 298.6 294.2 291.1 288.2 286.9 286 286 294.1 303.7 314.1 318.8 321.6 332
664.9 661.2 661.6 661.7 666 673.1 680.8 689.4 698.7 706.4 712.6 715.5 717.4 716.2 702 679.9 660 641.7 622.8 607.4 595 576.7 559.6 551.1 539 528.4 517.2 508.2 500.8 493 481.4 469.8 457.3 444.5 430.5 417.1 409.8 392.9 372.6 361.4 373.5 388.8 405.3 418.6 430.1 436.8 440.9 432.3 415.8 391 407.2 420 444.8 465.4 483.1 499.9 513.4 521.2 536.1 557.8 561 572.8 591.8 610.3 620.7 631.6 649.3 664.4 678.5 689.5 707.8 723.7 726 726.6 724.3 720.4 709.8 692.3 667.5 646.8 628.8 618.8 607.7 597.8 586.8 575 559.3 563.2 570 578.8 593.7 606.3 619.5 632.2 646.6 659.2 669.2 679.6 687.8 691.4 692.1 691.3 689.2 685.2 677.4 670.5 663.6 658.4 654.6 650.6 644.4 637.3 631.3 624.3 619.7 615.9 613.9 610.3 603.8 594.3 586.2 575.1 565 554.7 546.6 540.2 534.5 529.6 524.2 516.2 516.9 510.4 511.3 510 510.6 510.4 510.4 513.2 517.3 521.3 522.8 522 520.2 521 518.9 515.2 512.4 510.6 509.8 516.9 516.2 516.4 512.2 491.5 480.4 464.7 451.5 435.7 416.6 412.1 404.6 399.8 395.3 387.9 379.4 374.7 370 371.9 364 360.4 358.5 361.3 360.7 356.7 351.6 346.2 341 336.5 327 317.9 308.3 303.4 301.6 299.2 296.9 296.7 298.1 294.7 291.3 290.3 289.1 288.4 288.8 288.2 297.5 305.2 315.3 319.5 330.2 340
653 649.9 648.7 650.8 658.4 667.7 676.2 686.1 695.1 702.1 709.1 712.7 715.2 715.2 711.8 701.3 683 663.9 643.9 624.7 607.5 587.4 566.6 558.2 543 532.4 521.9 513.2 505.6 497.4 487.1 476.2 464.2 452.9 440.2 428.5 416.6 404.4 387.8 370.8 355.6 365.5 384 402 412.7 419 420.2 409 391.3 384.2 405 429.6 452.4 467.8 483.9 497.3 506.3 520.3 539.8 554.7 561.2 580.8 597.1 610.5 622.1 641.9 657.6 672.1 684.7 692.1 708.5 723.3 727.2 727.5 726.9 724 714.6 698.4 674 652.1 634.7 623.3 611.3 600.5 589.5 577.4 562.6 554.5 564.5 567.2 582.4 596.4 608.2 620.2 635.7 649.1 664 675.9 685.1 689.6 689.5 689.7 688.6 687.1 682.6 674.6 668.9 664.3 659.1 653 647.9 642.8 636.3 630.4 625.6 620.5 617.2 614.1 607.9 597.3 586.1 576.9 567 555.7 549.2 542.9 537.4 532.7 527.8 526.8 522.3 515.6 519 518 518.8 518.8 519.2 521.2 526.4 531.7 533 533.6 532.1 532.4 529.9 527.4 522.6 518.6 516.8 523.4 522.9 517 518.4 497.2 481.1 465.9 454.3 437.8 425.3 421.3 414.8 405.6 400 398.6 384 374.6 358.5 357.5 355.6 355.3 356.7 359.9 354.7 350.6 344.6 337.7 329.8 328.6 323 315.8 307 300.8 298.8 296.9 295.6 295.4 295.3 292.9 291.3 290.5 289.6 291.4 291.9 289.3 303.3 311 318.8 327 333.6 340.9
643.4 638.7 633.5 635.9 651.3 663.5 672.1 682.3 692.3 699.6 705.2 709.7 711.2 711.4 708.6 706.9 696.9 683.2 666.3 647.6 626.9 600.2 578.1 564.3 549.7 538.9 526.4 518 507.9 497.1 487.7 478.7 468.4 458.5 447.6 433.7 427.2 415.3 401.9 384.8 363.3 347.7 364.1 384.9 394.9 399.2 397.1 382.2 370.8 385.1 406.4 433.9 452.2 466.1 481.2 490.1 498.1 516.2 533.2 546.2 565.3 584.4 597.2 614.2 631.2 648 664.9 674 684.7 696 710.7 722.9 726.3 728.3 728.3 725.7 717.5 701.7 681.7 655.5 641.4 629.2 616.7 604 591.5 580.3 568.2 552.6 556.6 564 569.6 584.7 598 612.2 627.3 641.4 657.5 671.7 681.3 686.7 689.4 689.9 688.2 687.4 685.4 679.9 674.5 670.3 664.9 658.6 653 647.3 641.2 637.1 629.6 625.2 622 616.6 609.4 600.1 587.3 580.3 571.9 563.7 552.9 546.1 540.4 536.4 532.9 530.6 527.9 523.9 525.2 525.4 526.6 527.5 528.2 530.8 536.5 540.5 544.7 549.5 548.5 543.1 544.5 542.4 535.4 528.3 525.4 527.9 525.5 519.4 511.8 498.7 485.2 473.6 463.1 446.8 433.5 426.6 418.4 411.8 403.1 399.9 387.5 377.2 363 356.3 349.3 351 355.5 355.6 351.6 343.9 338.3 333.3 326 322.5 319.4 312.8 304.9 299.3 298.3 296.7 295.9 294 293.2 291.4 290.5 289.5 289.8 292 289.5 292.1 303.4 311.1 320.6 327.2 335.6 343.8
633 626.2 606.7 627 643.2 656.9 665.7 675.6 686.1 693.8 699.1 703.1 704.7 703.4 701.3 700.9 694.5 686.1 678.6 668.6 647.6 620.4 596.2 577.6 556.7 542.8 531.5 520.6 509.1 498.2 486.7 477.1 470.1 460.8 449.9 440.5 429 419.7 409.7 393.6 376.5 352.7 349 363.3 369.3 375.8 371.3 363.1 377 395.2 412.2 433.9 448.8 464.5 477.5 481.3 497.3 514.3 533.5 546.4 563 582 600.1 623.6 642 655.2 667.7 679 690.9 708.7 718 721.8 724.8 727.5 728.3 726.1 719.6 706.3 688.1 663.5 646.2 635.4 623.6 609.7 596.7 583.1 573.5 557.2 544.8 552.8 562.3 574 588.1 600.9 618.1 632.8 650.4 664.6 675.6 682.6 687.1 689.4 688.4 688.1 687.3 684.7 680.7 675.6 670.3 664.1 657.4 651.9 645.5 640 634.6 629.4 625 619.3 610.7 601.1 595 586.4 577 567.3 557.9 549.8 544.2 540.2 538.5 537.1 531.7 530.8 531.9 531.3 533.3 535.2 536.5 540.4 546 550.6 555.1 561.8 563.2 555.7 551.5 551.2 544.9 536.8 533.3 536 535.9 526.7 521.7 514.1 496.2 482.8 471.6 456.7 444.6 429.8 424.3 420.1 406.9 396.2 390.5 378.8 363.9 355.8 351.6 343.1 348.1 345.9 344.4 338.7 335.1 331.4 324.4 318.1 315.3 308.4 304.5 302.9 299.3 299.3 299.3 296.2 291.8 290.9 290 290 300.8 296 293 298.4 302.7 314.8 323.6 328.9 341.1 348.6
621.6 610.7 592 617.7 635.7 647.7 658.1 667.3 674.7 680.5 688.6 691.8 693 692.4 691.5 689.9 687.3 683.2 678.1 670.9 660.1 640.6 617.5 598.2 573 549.1 534.9 522.5 509.4 498.7 484.9 474.3 465.9 457.5 450.2 441.3 430 420.7 411.3 398.6 382.6 360 333.9 348.8 350.8 348.5 347.1 365 378.9 393.7 403.8 416.2 434.4 454.8 462 483.1 503.1 519.2 536.8 546 563.7 585.7 604.3 621.5 647.4 660.8 676.3 692.8 706.8 713.5 715.4 719.6 723.9 725.6 726.9 725 719.7 709.6 695.2 676.4 660.1 644.2 628 615.2 603.1 589.4 578.4 565.9 550 543.1 552.1 561.9 576.1 588.6 607.2 623.5 640.7 655.7 668.3 678.1 683.1 686.8 686.6 689.5 688.9 687.8 683.9 679 674 667.8 661.5 653.7 648 643.6 639.6 633.4 628.1 622.1 614.7 607.2 599 590.4 581.5 572.2 562.4 553.7 550.1 546.6 544.3 542.2 539.3 539.2 538.5 539.3 541.9 542.4 546 549 553.4 557.4 564.7 570.8 575 572.1 560.1 555.3 551.6 547 541.5 542.2 544.9 537.7 528 524.7 512.7 499.6 484.3 470.5 451.2 440.3 425.5 424.5 411.9 397.6 391.7 379.1 365.2 358.4 354.9 349.1 334.3 336.9 337.3 335.2 331.5 327.9 323.2 316.9 311.2 304.5 302.3 301.8 301.4 298.5 297.7 296.8 291.7 290.9 290.2 291 294.2 292.9 294.7 297.5 304.9 316.1 325.2 332.5 342.5 351
609.5 593.4 582 610.9 629.3 638.8 645.9 656.6 663.9 668.5 671.2 677 677.1 674.3 677.5 678.3 678.3 676.4 673.6 666.1 658.9 649.2 637.9 617.1 590.3 563 540.9 524.8 511.9 497.6 482.5 473.7 464.7 456.3 448.1 439.8 429.9 422.3 412.8 399 385.8 361.9 340.8 328.5 345.9 338.8 345.7 368.1 388.2 399 411.9 426.3 441.4 453.7 472.1 486.6 507.1 528.4 544.8 556.7 572.1 589.4 607 626.9 646.5 672.4 688.6 701.5 710.3 713.8 714.8 717.1 719.5 721.9 723.3 721.6 718 709.8 698.8 685.7 674.4 662.3 641.3 623.5 610.1 595.8 583.4 571.2 558.1 540.1 545 553.3 562.9 577 596.1 612 629.6 645.4 657.9 668.5 676.7 682.7 685.7 687.6 689.7 689.2 686 681 675.9 670.1 663.4 655.7 650.7 646.2 642.8 637.9 632.2 628.8 622.8 613.9 603.4 594.9 585.8 576 567.5 559.5 555 550.7 549 546 545.6 547.2 546.5 548.2 550.8 551.1 554.6 556.4 559.1 563.7 572 578.6 584.1 588.3 572.5 566.1 559.4 556.1 549.2 548.4 555.6 545.8 534.8 538.3 528.7 515.4 501.5 479.4 464.6 449 432.2 421.6 414.1 400.8 387 380.9 366.8 360.8 357.1 351.2 339 330.4 331 331.2 328.1 324.5 320.8 315.8 309.9 304.5 299.9 299.2 297.6 294.4 297.5 293.4 291.8 291.2 291.8 297.9 297.7 293.7 295.2 300.9 307.1 318.5 328.5 335.1 342.6 351.3
591.9 574 576.4 601.4 619.8 628.8 635 643.6 650.8 656.3 658 658.7 657.8 659.3 663.4 666.4 666.6 663.9 658.5 655.1 652.1 647.8 638 623.1 610.6 581.1 556.2 532.1 510.5 494.4 484 473.1 461.9 453.9 445.4 434.8 425.6 418 410.7 398.8 384.7 366.2 339 326.5 335.9 333.5 350 374.4 391.5 412.2 424.4 436.7 450.8 462.6 479.7 499.7 518.8 537 553 566.5 581.4 602.3 618.1 634.6 657.9 682.4 694.2 704 710.5 713.4 714.1 712.8 714.6 717.7 719.2 718.6 714.2 707.5 699.8 689.8 681.1 674.3 660.3 636.6 616.4 602.3 588.8 576.3 565.3 549.7 533.3 542 555.7 567.4 584.9 600.5 616.3 633.5 646.7 659 668.8 679.4 684.2 687.3 689.1 688.5 684.8 680.3 676.2 670.7 664 656.8 652.8 647.7 645.8 642.9 639 634.7 630.7 622.2 611.4 600.3 589.6 579.8 570.8 564.2 561.3 556.9 553.8 551 551.7 553.9 554.4 557.1 557.7 560.4 563.1 564.2 565.8 569.5 576.9 584.3 588.7 592.5 585.3 577.5 572.9 566.7 564.2 556 563.1 559 544.7 541.9 539.9 531.5 515 492.8 476.5 462.3 435.6 416.9 411.1 401.9 387.4 378 370.3 363 357.3 349.3 340.5 334.4 325.8 322.4 323 321.4 317.8 314.1 309.8 306.3 300.1 297.1 295.1 293.6 297.4 294.3 292.1 292.5 293 297.9 296.5 298.4 300.9 301 309.6 322.8 330.4 335.7 341.4 349.5
571.6 552.2 566.7 589.3 606.3 617.3 622.4 629.7 635.4 637.9 640.1 639.2 637.8 642.9 648.6 651 650.7 648 643.8 642.1 642 639.1 628.1 624.1 614.4 591.3 569.5 538 510.8 493.9 482.2 470 457.3 449.9 442.7 432.8 421.6 412.3 404.5 395.1 378.1 362.9 341.2 326.3 322.2 333.3 357.1 376.6 395.9 417.5 429.6 445.7 458.2 472 487.9 507.3 525.5 543 556.9 572.2 590.9 606.1 620.9 640.5 667.3 684.3 696.5 705.3 710.1 712.6 712.4 710.6 709.5 712.9 713.9 713.6 709.1 703.4 697.3 689.4 685.6 677 667.1 652 627.5 610.3 594.3 581.2 570 556 540.1 534.5 545 563.9 572.5 588 604.3 620.5 634.2 648 662.9 673.9 681.9 683.3 685.8 686 682.2 678.3 674.8 669.4 663.5 658.1 653.5 650 648.6 646.1 646.1 641.7 635.8 628.4 616.8 604.5 594.6 583.1 574.5 570.5 564.5 563.4 559.9 557.1 558.3 560.3 561.7 564.1 565.5 570.2 570.7 572 573.4 576.6 581.7 589.3 595.5 600.7 598.4 585.7 582.4 575.8 570.1 567.3 566.3 565.4 555.7 542.2 542.6 538 524.8 507.9 480.3 463 441.6 420.3 408.6 401.8 390.6 380.9 372.2 363.1 356.4 349.5 346.4 339.2 333 327.7 322.2 317.3 315.5 312.8 309.5 306.4 302.6 297 295.4 297 299.6 298.8 292.7 293.2 293.7 294.9 300.2 301 301 304 313.9 325.3 331.5 336 341.7 349.5
554.5 528.4 553.8 574.1 589 601.6 606.6 612.1 614.7 614.5 616.8 616.1 612.6 620.8 628.7 630 628.4 626 625.1 625.1 624.1 622.3 617.6 611.9 602.2 586.3 573.8 547.3 515.2 494.7 478 465.8 454.9 446.1 436.6 423.4 415.3 405.3 397.5 386.8 374.1 357 338.9 323 320.5 333.6 363.1 380.5 403.3 419.4 436.6 457.2 472.2 480.6 492.5 510.4 529.1 549.1 563.3 577.1 594.1 608.3 630.4 649.8 666.5 686.7 698.2 707.3 711 711.3 709.6 707 708 708.5 708.4 705.5 702 697.6 692.3 689.3 685.3 677.9 667.8 654 635.2 617.4 597.9 585.2 573.8 559.6 543.3 527.6 533.5 551.2 565.9 577.1 592.2 607.6 621 637.2 652.7 667.5 676.7 680.4 681.4 681.5 679.4 676.1 671.2 668.3 663.6 657.6 655.8 653.4 652.8 652.7 651.8 647.9 642.3 632.5 621.7 609.8 598.3 586.2 578.2 573.3 571.1 568 565.2 563.4 564 566.6 569.5 571.2 572.6 577.8 579.2 580.3 582 585.3 588.3 594.6 599.9 605.7 600.5 596.4 586.7 582.5 578.5 569.7 573.6 568.1 560.8 555.6 537.4 539.5 526.7 510 488.1 463.1 442.4 423.2 408 400.3 393.3 381.6 372.4 366.9 361.7 355.9 351.6 342.3 336.5 329.6 324.6 320.8 317 313 308.3 304.3 301.1 298.5 298.2 299 300.4 299.6 293.4 293.7 294.9 301 299.5 301 301 307 317 325.5 331 336.2 341.8 349.7
535 518.7 533.6 554.1 570.4 579.2 585.9 589.6 593.8 595.3 593.1 591.3 578.1 594.2 605.2 607.1 606.4 604.3 604.3 600.3 602.5 600.2 597 591 582.8 574.2 565.9 547.6 524.3 498 475.8 460.2 453.8 445.1 432.5 420.1 409.8 400 391 380.8 368.2 348.6 334 323.5 318.5 327.1 353.6 384.8 405.9 426 442.5 461.5 479.6 487.1 496.8 516.2 535.3 555 569.6 579.2 593.8 612.8 636.8 656.5 671.2 690.2 701.2 707.9 710.5 710.2 705.9 705.3 704.6 702.3 701.5 698.2 694.8 690.9 688.3 685.9 682.5 676.4 667.6 654 636.6 618.6 602.2 589 578.1 564.3 548.1 533.6 525.1 537.6 554.1 567 582 594.7 608.3 625.4 642.5 657.1 666.8 673.1 678 677.9 676.3 673.1 671.2 667.9 663.9 660.5 658 656.9 658.5 660.3 659.3 650.3 645.2 636.9 626.3 612.7 600.6 589.9 580.7 577 575.1 572.7 571.3 570.4 571 573.6 577.1 578.5 581.5 585.6 589.5 589.8 593 594.4 597.1 601.1 606 608.6 606.5 601.6 588.6 584.7 583.9 573.9 567.9 571.8 563.3 556.6 542.3 533 526.5 511.3 491.2 464.2 443.7 427 413.6 405.7 398.9 383.8 375.4 369.2 365.4 360.6 354.4 348.4 339.7 332.7 327.8 323.3 320.5 316.4 311.5 307.3 301.9 299.3 297.4 299.4 299.6 298.7 294 293.5 294.8 300 299.7 301 300.7 308.9 318.8 325.8 332.2 336.8 342.4 348.7
512.8 495.2 510.6 533.5 547.8 554.9 562.1 564.7 566 566.5 570.2 564 548.9 567.7 576.5 579.3 577.3 580.9 579 573.6 573.7 573.6 568.7 565.2 565 561.1 551.7 532.9 514.7 497 473.8 458.4 453.5 438.4 426.3 414.2 404.5 392.3 382.9 371.8 357 339.8 331.3 321.4 315.4 326.2 357.5 388.4 405 428 445.3 464 479.7 491.7 506.2 521.1 539.7 556.5 573.4 584.8 596.2 618.3 642.8 657.1 673.9 690.4 704.4 709 711.8 709.9 705.8 703.5 700.7 695.9 693.6 690.5 687.5 684.6 681.9 679.8 678.1 674.2 666.5 656.2 641.7 621.9 606.5 593.2 581.5 568.8 554.6 539.3 525 527 543.5 558 571.2 583.1 595.3 610.9 628.3 645.4 656.6 664.4 670.3 673.4 673.8 673.1 671.4 669.2 665 661.9 662.2 663.2 664.9 665.7 663.7 657.5 647.2 640.3 630.4 616.9 603.5 593.7 585.1 581.3 578.8 578.3 577 577.1 578.2 580.8 583.2 587.2 591.7 593.8 598.9 599.4 602.6 605.5 607.7 605.6 610 612 611 607.8 600 586.3 585.3 578 562.5 561.6 556.3 553.1 550.1 527.2 520.7 505.3 483.3 461.5 446.3 431.1 418.3 408 399.4 387.6 376.8 372.9 367.9 363.4 359.7 352.7 344.5 338.2 330.2 324.5 321.7 317.5 312 305.3 304.6 299.9 298.9 298.1 296.8 295.8 294.8 293.6 293.5 293.8 301.3 301 302.8 311.5 318.2 326.5 331.6 335.8 339.7 348.2
493 484.2 488.9 512.1 521.3 529.5 533.5 534.9 536.3 540.7 541 534.4 526.6 539 541.7 544.7 550.3 551.2 547.8 543.9 544.1 545.7 545.6 538.8 539.8 537.5 527.3 514 499.9 485.3 459.9 449.4 442.7 425.4 413.6 401.5 392 382.2 372.5 356.5 349 339.6 325.7 313.9 313.7 333 360 385.5 411.2 429.6 446.5 463 480 496.5 514.4 529 547.3 560.3 577.6 591.4 604 622 640.3 660.8 676.3 690.9 708 711.4 713.9 712.4 707.2 702.6 698 691.7 685 682.3 678.6 676.5 673.6 670.8 670.4 668.7 661.9 655.7 644.7 627 609.8 597.1 583.9 572.1 559.1 546.1 529.8 516.8 531.4 548.7 560.1 571.5 583.3 595.7 613.8 632 644.6 654 662 668.7 670.7 670.8 670.6 669.6 667.3 665.8 668 669.6 670 669.8 668.5 657 652.4 642.6 634.5 623.6 607.2 598.1 590 584.8 583.1 581.6 581.3 581.9 584.8 586.7 590 592.5 599.9 603.4 605.5 609.6 612.2 613.6 613.6 614 615.5 614 612.3 607.8 597 584.5 578.9 574.1 565.1 551.6 551.6 550.2 542.6 527.6 506.1 494.4 474.4 457.7 446.3 435.1 421.3 410 401.8 393.6 383 373.6 366.8 360.3 357.2 353.7 348.2 339.6 331 326.3 322.5 318.9 313.9 309.9 307.2 300.7 298.8 297.8 296.8 295.6 295.3 293.7 293.5 293.5 296.7 301.8 302.6 309.8 318.8 324.3 329.7 334.3 339.3 345.6
471 458.3 482 491.4 496.4 497.4 500.5 503.9 509.4 511.2 508 507 500.9 510.2 514 514.2 517.1 517.7 517.1 516.6 516.2 515.5 511.9 508.4 509.1 503.8 495.9 485.9 477.3 462.9 448.8 439.5 428.7 414.3 401.9 386.6 375.3 365.5 359 346.3 343 338.4 315.9 311.3 321.7 336.7 362.5 394.7 416.5 434.6 447.4 464.6 478.5 496.3 515.2 532.3 548.3 558.9 580.4 600.3 612.8 628.9 645.2 653 677.7 695.3 709.6 714.5 717.8 715.9 711.8 705.7 699.6 691.4 683.2 677.7 675 668.5 665.6 663.9 660.8 658 656.3 651.7 642 633.2 614.2 598.4 587.9 575.3 562.2 548.9 532.5 513.5 522.3 536.9 548.6 559.5 570.5 582.9 598.2 616 631.1 642.4 653.9 660.2 664.6 666.6 668.6 667.6 667.2 669.1 673 673.8 675.3 674.7 673 666.3 658.5 647.1 638.6 627.6 613.8 603.8 595.5 590.9 587.6 585.2 585.6 587.7 589.9 593.6 597.4 603.4 608.4 610.6 612.3 615.1 619.4 622.9 624.1 622.3 622.8 617.2 610.6 605.7 593.9 585.8 580.1 576.4 563.5 554.5 545.2 552 540.6 520.4 501.9 486.3 466.1 456.7 445.2 435.7 424.4 415.1 407.8 400.4 390.1 381.8 371.8 361.3 352.8 350.9 346.8 338.6 332.8 329.4 324.7 323.2 317.5 311.4 306.1 302.1 300.6 299 297.3 296 295.4 293.7 294 294.3 296.1 299.7 304.1 309.9 315 318.8 325.9 332.1 337.5 344.7
447.7 441.5 456.1 462.1 465.4 466 470.6 474.3 476.4 478.1 478.7 479.9 477.5 480.3 486.7 487.7 488.7 487.2 485.9 486.2 485.3 481.6 481.8 477.7 475.6 470.9 465.7 459.4 455.5 442.7 433.5 422.3 408.8 397.3 384.1 376.1 362.5 350.8 344.4 338.7 333.7 328.5 309.5 310.7 329.8 340.8 361.6 397.6 419.4 433 446 461.7 476.8 487.6 505.5 527 543.3 560 584.5 604.2 619.2 636.6 647.8 650.7 671.6 699.6 710.6 719 721.8 720 716.5 710.8 702.5 695.6 688.4 683.1 676.9 671.8 664.2 656.6 653.2 650.4 649.2 646.4 640 630.5 614.8 600 589.7 578.7 565.9 552 536.4 519.6 512.5 521.7 538.1 548 557.9 569.6 585.3 601.8 618.1 632 641.5 650 657.2 661.6 663.2 660.6 669.6 673.5 675 676.7 679.2 678.3 677.4 672.6 665.1 653.7 643.5 631.7 617.9 610.7 602.7 598 593.6 591.7 591 594 597.4 599.9 605.1 611 616.2 616.7 615.8 618 622.1 627.7 633.6 628.6 626.5 617.1 610.1 602.1 591.9 587 581.8 580.7 576.3 554.4 546.1 544.3 540 518.2 500.9 485.8 474.2 455.8 443.9 434.1 425.6 419.5 411.8 405.6 400.5 388.5 378.3 365.9 357.1 352.3 347.6 343.4 337.6 331.7 326.1 322.2 318.1 312.3 306.7 302.8 301.8 300.1 296.8 296.1 294.7 293.5 294 294.7 295.9 299.1 302.3 308.2 315.1 321 326.5 334.2 339.9 344.9
424.8 423.5 428.9 431.1 431.1 434.5 438 442.7 443.8 449.2 447.8 451.2 453.1 455 458.1 457.6 458.1 460 460.3 455.4 451.9 450.3 448.6 445.5 443.7 443 438.5 427 428.7 418.7 412.3 401 399.3 381.5 370 362.1 350.7 340.5 332.3 327.8 328.2 317 307.1 311.7 329.1 343 360.9 396.4 424.2 436.8 445 460.6 477.8 485.3 497.7 521.8 542.3 556 583.9 605.8 621.7 638.1 648.9 653.9 676.9 696 714.5 722.4 723.6 722 719.8 712.9 706.3 700.3 693.8 689 683.3 678.9 666.7 653.6 646.1 643.3 641.2 639.1 632.7 624.6 616.8 600.9 590.1 580.6 570.4 555.4 542 526.6 507.4 512 525.7 538.9 547.7 558.7 572.6 587.5 601.9 617.5 627.8 634 639 644 651.2 663.2 669.3 673.4 676.5 679.4 681.2 682.3 680.6 676.6 670.5 659.8 646.7 635.9 623.9 615.8 609.1 604.6 601.6 600.9 600 601.4 603.3 606.4 612.4 618.3 622.1 619.6 616.9 619.3 623.1 629.9 635.3 633.4 630.4 620.5 606.3 598.9 591.3 588.4 584 586.5 584.1 557.5 544.7 533.1 527.8 518.5 498.5 486.1 473.3 458 443.4 433.6 428.1 423.4 417.5 411.2 406 395.8 383.6 374.3 366.9 357.6 352.3 350.4 346.3 340.3 332.4 323.8 321.2 314.6 309.5 303.8 303.1 301 296.7 295.9 295.5 293.9 294.4 294.7 295.7 298.5 300.7 306.8 312.1 319.2 325.6 332.6 337.2 343
402.2 399.1 404.2 404.3 407.3 408.9 411.9 414.3 417.3 421.8 422.9 426.6 427.2 427.5 431.4 431.2 427.7 430.7 428.5 425.4 419.9 420.4 415.8 419.3 416 414.4 409.4 402.7 399.4 398.9 391.2 383.4 378.6 373 359.4 347.9 339.6 332.8 326.2 321.2 320.8 310.3 304.9 319.6 328.3 342.1 357.2 386.3 415.5 431.5 440.7 457.5 474.9 481.9 491 521.8 540.7 556.7 585.9 605.9 621.8 636.9 649.5 656 684.1 698.4 715.4 721.5 723.5 722 719.6 714.7 709.6 702.2 697.6 692.7 687.1 678 665.3 651.9 640.6 633.9 633.1 631.5 624.6 618.9 612.4 599.8 589.1 580 572.2 563.3 546.5 532.6 515.5 505.1 510.3 527.7 536.5 546.1 560.1 572.2 584.4 598.3 608.4 613.3 626.5 643.7 654.3 660.7 665.7 671.1 675.2 679.5 682.8 684.2 683.2 679.9 674 663.3 650.1 641 630.6 622.2 617.2 612.9 611.3 608 608.2 608.6 609.5 613.6 620.7 624.3 627.5 622.3 620.2 618.4 623.2 629.6 635.5 638.1 625.6 622.8 602.7 596.9 591.9 587.2 587.7 583.6 575.5 559.3 544.2 535.2 520.7 508.9 499 482.1 466.3 455 440.8 433.6 426 425.9 421.6 415.7 408.6 401.1 391.1 382.8 376.2 367.2 358 355.3 352.6 347.7 337.3 330.3 324.5 318.6 313.2 305.4 302.6 299.9 298.2 295.6 294.4 294.2 294.1 294.6 296.6 297.3 299.1 306.8 310.1 318.2 323.8 331.5 335.6 344.9
376.9 372.2 378.7 381.4 383.9 384.9 385.5 388.2 395.5 397.5 401 404.5 404.2 406 406 405.6 405.3 405 403.5 401.2 401 397.2 397.2 397.9 394.9 392.4 390 387.7 384.3 381.3 377.2 368.3 364.9 359.8 351.9 339.4 330.5 324.2 320 316.4 315.1 306.3 304 319.5 324.3 335.2 350.7 371.9 395.2 417.1 432.4 448.3 465.3 468.4 488.4 516.5 531.2 561.8 587.3 609.3 623.1 636.4 652.4 659.2 686.4 708.1 713.2 719.9 722.4 720.5 717.9 715.5 711.9 705.3 700.6 695.1 688.6 675.2 662.9 649.7 637.9 627.7 623.3 619.9 615.2 608.9 603.1 595.6 589 580.3 573.8 565.8 553.1 541 526.4 506 502.2 514.3 527 535.5 548.5 558.9 569.5 580.6 595 611.8 626.9 636.7 645.8 653.2 659.8 667 672.8 678.1 681.8 685 684.7 682 676.2 666.7 656.1 643.1 635.7 628.6 622.6 619.8 619 615.7 614 615.1 615 620 625.4 629.4 631.2 629.5 624 619.6 623.6 626.6 634.8 638.1 630 610.7 600 594.4 590.9 587.8 587 578.8 570.6 555.5 544.5 533.7 521.1 510.4 498.4 487.6 472.2 460.3 447.6 436.2 433.6 432.4 425.8 422.1 414.3 408.1 399.2 392.8 386.2 377.1 367.4 360.8 357.2 353 345.4 336.5 326.6 321.5 316.2 309 301.8 299.5 297.6 295.8 295.3 294.9 294.8 294.6 295.3 295.1 298.9 306.6 308.1 315.1 321.1 327 333.9 343.8
357.4 354.5 355.1 357.1 361.9 363.4 364.4 368.7 373.2 379.9 382.5 385.1 383.6 387.4 387.8 389.4 388.4 389.5 385.9 383.8 383.5 382.8 382.9 380.2 380.1 377.8 375.2 373.3 370.2 365.4 361.7 355.7 350.6 348.4 338.9 329.1 321.7 316.6 313.9 311.4 307.3 304 302.2 316.7 320.5 326.5 340.9 356.1 372.2 399.8 414.1 435.1 452.7 460 486.3 506.4 527.7 565.2 586.1 607.8 621.9 631.1 648.9 662.1 690.4 708.1 712.5 718.5 720 718.3 716.5 714.3 711.1 706.7 701.3 697.4 688.9 674.4 662.6 647.1 631.8 621.6 616.1 610 607.6 601 595.6 591.1 585.7 580.5 574.3 566.9 558 546.4 533.8 518.2 494.4 501.3 516.8 528.1 536.7 546.5 556.1 571.2 587.9 605.4 618 627.9 634.8 642.7 650.8 658.5 667.4 675.4 680.5 685.2 684.3 683.2 677.7 668.6 658 648 639.5 633.1 628.7 625 624.6 621.9 621.1 620.3 620.4 624.3 628 632.8 633.6 636.6 630.9 623 621.3 622.3 633.9 628.4 624.2 609.2 596.9 591.3 588.5 586.3 585.2 579.8 572.2 559.7 542.5 532.5 522.9 514.1 502.9 492.1 477 459 450.1 443.7 442.2 436.7 434 428.4 421.8 415.1 405.2 400.5 395 387.5 374.7 365.9 363.5 359.8 353.9 345.3 332.1 327.3 323 314.9 307.5 299.3 297 295.7 295.9 295.7 295.6 294.4 293.3 293.9 294.9 303.3 307.6 312.8 318.8 324.8 334.4 346.1
345.9 343.3 339.5 340.7 342 345.7 344 350.9 352.2 356.5 364.3 366.5 366.4 364.3 370 372.1 370.5 371 370 368 369.5 368.1 366.8 365.6 364.9 363.1 360.8 359.5 354.1 349.6 348.2 344.1 338.2 335.4 327.5 321 315 312.2 308.7 306.9 305.4 302.5 299.9 315.7 319.1 322.1 328.3 342.2 361.2 381 393.7 413.2 437 452.2 475.9 500.7 526.5 557.9 581.6 600.8 613.2 619.4 639 667.3 689.6 702 704 709.6 714.4 714.2 713.5 711.8 708.7 707.2 702 699.8 691.5 676.9 662.1 646.8 628.6 618.1 613 604.9 597.2 594.1 589.2 585.7 581.4 576.7 571.9 565.7 558.2 549.8 538.3 524.8 503.4 491.1 502.5 516.8 525.5 535 548.1 562.8 577.7 592.9 606.6 615.1 624.2 631 640.6 649.6 659.7 670.4 679.7 684.6 685.4 684.1 679.2 670.3 659.4 652.7 642.5 635.1 632.9 630.2 626.8 626.8 623.4 622.9 624.8 627.8 630.9 633.4 632.7 636.1 632.6 624.1 619.1 618.1 622.4 619.2 616.6 604.5 601.7 596.5 585.4 584.1 582.8 580.8 569.7 559.5 542.8 532.5 525.3 516.4 505 492.4 484.4 471.7 460.5 452.8 447 441.7 436.4 432.4 426.8 419.7 414.6 405.6 400.6 391.8 382.3 374.5 368.9 365.7 360.3 349.6 344.7 341.1 334 322.7 314.7 304.3 296.2 296 296.2 296.4 295.9 294.8 293.3 293.8 298 299.8 305 310 316.1 325.2 337 346.4
330.8 328.7 326.7 328.9 329.3 332 324.8 334.3 332.7 341.3 340.5 342.9 344.8 347.4 351.4 352.6 355.8 353.1 353.5 350.4 350.7 352 350.4 349.9 346.7 346.9 345.3 344.9 339.8 338.2 336.3 333.7 326.8 321.7 315.8 311.8 311.7 308.4 307.6 306.5 304.5 301.6 296.9 301.6 312.6 316.2 322.5 332.5 348.9 366.6 381.2 397.3 419.3 442 467.4 492.2 512.5 535.6 559.3 575.4 591.7 611.7 640.5 656.3 671.1 673.2 674.4 675.5 695.6 706.6 708 707.5 707 706 702.6 699.5 693.8 679.1 661.8 645.5 628.1 616.2 608.6 600.5 591.5 584.1 581.1 578.5 575.4 571.6 567.5 562.5 556.6 549.5 540.4 530.4 513.1 499.3 485.4 500.8 516.2 527.7 538.3 554.5 566.8 580.5 594.9 603.3 611.9 620.8 630.4 642 654.1 666.2 677.6 683.7 683.8 682.7 678.8 671.8 662 654.5 639.6 638.2 633.6 631.2 627.2 625.3 624.7 624.1 625.7 628.8 628.3 628.8 627.6 630.5 628.1 622.6 617.7 613.9 615.1 615.3 612.6 608.3 604.7 597.9 585.7 580.1 576.7 575 567.1 557.4 545.1 533.8 525.8 517.7 508.6 498.9 491.5 482.2 472.6 462.4 454.5 446.7 440.4 434 428.2 424.2 419.4 409.7 404.3 397.5 389.3 381.4 376.2 370.9 365.2 361.9 356.4 351.7 342.8 333 322.4 312.6 299.8 296 296.3 296.3 296.2 294.7 293.3 294 295 296.2 301.1 307.1 313.9 322.5 336.2 344.5
316.4 317.6 317.8 318.6 320 321.1 314.2 318.9 322.4 325.2 326.5 326.7 325.3 329.8 332 334.7 332.4 337.8 337.8 335.7 336.6 337.9 336.2 338.2 330.4 328.9 331.8 331.7 330.5 329.1 327.4 317.8 316.3 312.5 310.1 309.3 305.5 303.3 303.8 303.5 302.8 303.1 303.8 295.8 299.1 310 315 325.3 335.9 349.5 364.4 385.1 406.1 429.7 454 475.6 496.1 511.5 521.7 543.8 573.4 600.1 617.9 631.1 643.3 641 637.2 646.3 675.8 696 699.9 701.4 702.3 700 698.8 697.8 691.8 679.5 664.2 646.1 629.7 615.5 606.6 597.8 586.5 571.9 572.4 571.3 568.5 565.1 561.3 557 551.5 545.8 538.8 531.1 520.3 503.3 486.9 489.4 509 521.3 532.4 543.8 556.7 570 582.6 592.8 602.4 613.7 624.7 636.8 649.9 664.2 675.5 682.1 681.2 679.6 677.3 671.7 662.4 654.6 640.1 639.1 633.1 630.6 627.7 624 621.8 622.7 624.5 624.3 622.9 621.8 623.7 623.5 624.6 623.3 617.3 613.5 611.4 615.2 614.4 610 605.3 597.3 587.8 580.5 574.5 569.7 561.5 554.8 545.7 532.5 526.6 521.2 516.1 504.6 496.8 489.8 482 472.1 463.8 452.7 443.5 436.3 430.6 425.9 421.3 411.8 405.6 399.7 395 388.9 383.3 376.4 372.9 368.9 365.3 359.8 350.8 341.2 329.2 317.2 305.2 296.7 295.9 296.4 296.3 294.4 293.4 294.3 295.1 296.1 297.8 304.6 311.8 320.1 332.2 343.9
308.1 309 311.1 311.1 309.8 307.7 301 304.4 305.8 314.7 314.9 319.4 316.9 314.5 317.2 317.2 321.8 323.9 320.5 320.9 319.9 322.1 323.4 325 320 314.6 314.8 316 317.4 314.7 314.5 311 310 304.9 302.7 300.2 298.5 298.4 299.3 299.7 301.9 300.7 299.7 298.6 291.5 294.8 313.7 313.3 324.5 333.7 352 371.2 390.4 413.6 431.7 450.2 463.6 487 509.9 530.4 562.7 582.4 597.1 603.8 608.8 612.4 619.5 623 654.9 679.1 687.2 691 692.6 693.5 694.3 695.1 691.3 681.2 666 650.2 633.8 618.1 606.3 596 584.1 572.3 560 562.5 560.2 556.6 553.4 549.4 544.4 539 533 527.2 518 506.5 493.4 477.4 500.1 513.1 525.1 535.1 547.6 560.4 573.8 586.2 596.1 606.4 621.7 634.9 648.6 661.3 674.1 681.3 682.4 678 674.7 668.7 663.4 654.6 646.3 636.7 632.1 628.2 624.4 622 617.4 621.1 620.1 615.8 614.4 615.2 617.7 616.6 620.3 619.9 614.5 610.9 608.4 613.2 612.5 611.2 608.5 601.4 591.6 583.8 578.3 570 561.4 554.2 546.5 540.8 532.4 525.4 518.7 510.2 503.9 497.8 490.5 481.7 471.8 460.2 448.7 440.3 433.1 425.8 418.9 412.2 406.1 402.3 398.1 393.5 389 381.4 378.7 376.1 372.1 366.1 357.6 347.8 336.8 324.8 311.7 301.4 295.1 296.1 295.9 295.3 293.7 294.5 295.3 296.1 297.5 301 310.1 318 330.6 343
301 301.2 303.1 301.8 301.2 299.3 294.8 296.3 296.3 299.7 300.4 302.2 308.2 303.6 300.2 303.8 311.4 314.3 302.9 311.8 315.7 312.9 312.3 307.9 306.7 304.1 300.1 304 304.8 303.1 301.7 302.9 298.9 294.3 296.4 293.2 291 291.8 294.1 295.5 297.2 296.8 294.9 293.5 288.1 288.8 303 310.6 312.2 321 337 356.8 372.8 397.5 417.1 440.9 457.4 477.5 498.2 514.2 538.8 553.1 557.8 562.6 570.4 583 585.6 601.5 638.8 666.5 673.1 679 684.1 685.7 688.5 691.3 689.7 683.8 670.4 655.2 638.5 624.2 609.4 596.9 585.1 575.1 560.4 544.5 549.5 546 543.2 538.1 533.8 528.6 523.8 520.2 511.7 503.4 493.8 475.1 487.5 502.8 516.6 527.7 538.4 552.4 568.6 581.6 593 605 617.5 634.1 648.3 662.6 675.7 681.5 682.4 680.3 675.9 668.7 662.6 653.5 644.3 630.3 630.6 624.5 620.2 617 612.5 612.4 612.9 607.6 605.8 606.1 606.8 607.7 610.6 609.6 607.9 606.6 606.4 609.2 609.1 609.3 609.2 604.5 598.8 589.8 586.4 578.9 568.6 558.7 552.6 545.7 539 530.3 522.8 517.8 510.3 502.8 495.1 486.6 477.4 466.6 451.1 443.3 434.8 427.3 420.9 415.1 409.7 405 401.1 397.3 393.6 388.8 386.2 383.9 380.4 372.5 362.3 353.4 342.4 330.4 317.4 303.6 296.9 294.8 295.1 295.4 294 294.6 294.9 295.7 297.4 300.1 305.9 313.6 328.1 338.9
298.4 293.7 295.7 294.7 292.8 294.2 292.6 290.2 290.6 295 289.4 288.8 289.7 287.9 288.9 285.4 288.9 292.4 291.9 293.6 295.1 303.9 306.5 301.9 296.9 293.9 296.3 297.4 294.8 292.5 296.7 300.4 297.9 295.8 290 288.9 287.5 287.4 288.3 290.1 295.7 300.6 298.1 296.2 291.4 286.6 286.9 296.9 304.1 312.8 324 338.8 366.7 379.3 403.1 425.6 441.9 460.6 472.1 490.1 507.3 516.7 522 524.9 550.2 569.4 571.3 583.4 622.9 643.4 653.1 661 668.5 676.1 683.1 686.6 686.3 683.1 673.9 659.3 644.2 630.2 615.2 600.2 589 578.4 568.4 553.7 538.9 532.8 530.2 524.2 518.5 513.3 509.9 507.3 503.2 499.1 490.1 477.4 474.7 493.1 502.7 518.1 532.2 546.6 563.6 577.8 588.9 601.7 619.7 635.2 651.2 666 676.6 681.4 682.4 678.7 675.3 669.5 662.4 652.2 640.9 632.8 622.7 619.3 613.2 609.8 605.2 599.9 602.2 597.5 595.9 597.3 597.8 597.5 595.9 597.2 600.2 600 603.3 603.6 605.2 606.7 607.4 606.6 602.5 596.1 592.9 588.3 582.9 569.3 560.1 553.9 546.9 538.1 529.1 522 514.7 507.7 496.9 488.8 476.3 465.2 461.8 451.2 442.4 433.8 426.6 419.9 413.7 408.5 404.1 401.6 398.8 396.2 393.8 391.6 386.8 380.6 372.3 360.7 350.7 340.1 322.4 310.1 299.5 295.4 295 293.8 294.1 294.2 294.7 295.5 296.9 299.2 308.2 315.3 327.2 339.8
290.3 288.8 289.9 294.9 289.3 288.5 292.6 284.6 283.8 282.5 282.1 284.7 288.6 284 283.5 282.2 281.1 281.6 283 284.6 283.9 282.7 289.6 289.4 279.2 284.2 281.8 286.3 280.5 276.8 275 285.5 293.5 293.5 291.1 284.9 285 286 286.6 287.3 292.3 302.1 297.1 297 297.3 298.8 289.6 282.3 295.7 307.6 312.7 324.6 350.3 361 380.3 402.8 415.4 427.5 443.2 461.7 476.1 485.8 494.5 508.8 542.6 558.9 565.7 578.2 601.9 616.5 624.6 631.7 645.4 664 669.3 674.1 675.7 677.4 673.4 661.5 650.3 637.9 622.6 610.4 597.7 583.6 577.9 564.6 554.3 542.3 533.6 524.8 513 502.1 490.4 486.9 489.2 487.7 481.5 464.4 473 489.3 505.6 519.9 533 547.6 561.4 572.6 586.1 600.4 623.4 638.9 656.2 669 676.7 680.9 680 680.4 672.1 667.5 660 649.7 640.2 629.5 621.1 614.4 611.4 604.7 596.5 586.4 585.1 586.2 585.2 586.4 587.9 587.7 587.4 587.7 590.4 591.5 594.5 596.6 599.5 602.8 607.6 608.2 607.6 602.4 598 594.2 589.3 582.5 571.7 562.9 556.1 547.6 539.1 528.7 521.1 513.5 502.7 493.1 481.4 475.3 470 463.4 452.5 442.4 434.2 426.3 420 413.8 409.1 407.5 405.9 403.6 401.5 398 392.7 389.4 380.3 372.2 359.2 347.1 331.7 314.1 302.6 298 297.7 297.4 298.3 299.5 295.1 295.3 298.7 302.6 309.8 315.8 329.3 341.7
287.2 285.7 286 284.8 285 286.1 285.5 283 285.5 285 284.4 281.1 281.7 282.7 287.9 281.1 281.2 280.3 279.6 280.3 278.9 277.9 277.9 278.7 277 276.7 276.2 274.1 274.9 275.8 274.9 273.7 273.4 274.9 283.7 279.9 282 282.8 284.9 289.2 294.8 295.6 292.8 293.2 293.6 297.4 299.7 286.9 282 302.9 306.1 310 326.3 340.7 353.4 373.2 383.7 397.7 418.2 439.1 452.6 472.5 479.9 489.9 521.8 543.1 554.7 563.1 576.9 586.5 593.4 599.2 619.5 635 646.9 652.1 657.7 664.6 669.2 663.9 655.5 643.4 631 620.6 609.3 596.5 585.5 576.3 569.4 559.7 548.4 538.4 525.8 515.4 502 487.3 473.7 473.6 470.3 457.1 473.2 490.5 506.6 520.4 533.2 547.3 561 570.7 586.3 604.4 626.1 645.7 661 669.6 677.3 679.9 681.3 679.7 672.2 665.1 657.5 646.6 636.3 626.8 621 615.3 604.6 597.7 589.8 577.2 571.2 574.9 575.8 576.5 577.3 577.4 577.2 576.4 579.4 581.1 586.2 590.4 592.4 598.3 605.1 609.8 611.1 608.2 604.4 600.6 595.9 590.5 583.1 572.3 563.9 556 547.6 537.3 529.1 520.8 512.5 504.1 495.3 486.8 479.2 474.3 464.7 453.3 441.9 434.3 427.6 420.9 416.1 414.2 412.8 409.7 408 404.1 399.1 396.3 388.1 381.2 371.3 352.1 338.3 321.2 310.1 299 298.2 299.7 299 300.1 298.7 299.7 303.7 305.6 311 317.5 329.1 342.2
287 286.9 287.1 285.3 285.5 287.2 289.9 291.5 287.8 286.6 285.7 284.2 281.9 282.3 280.1 278.5 278.9 278.1 277.1 277.4 277 276.9 277.3 277.7 276.5 276.8 274.7 276 277.9 276.7 277.4 276.9 274.9 274.2 271.8 272.1 274.1 279.2 282.2 285.6 289.6 289.2 285.7 288.9 289.8 289.9 294.1 294.1 278.4 280.4 302.5 303.1 306.4 320 333.8 347.4 363 379.9 397.1 415.9 435.8 449.3 465.5 469.4 493.1 513.2 527.8 540.4 551.6 560.5 566 571 582 603.5 619 625.7 631.6 647.9 663.5 663.1 656.2 648.9 641 632 621.2 612.2 602.5 596.6 587 570.7 557.9 544.5 532.4 521.6 508.8 496 483.1 468.6 455.1 454.2 469.4 486.4 503.9 519.9 533.1 548.3 558.2 574.2 589 610 629.7 649.2 662.3 671.3 677.5 681.4 680.9 679 670.7 663.8 655.9 645.4 633.2 624.9 618 612.1 605.2 592.5 582.8 575.1 562.4 559.7 564.3 565.3 566.4 567.2 567.2 567.3 567.8 572.7 578.1 582.8 585.8 593.7 602.9 608.6 611.5 613.3 611 606.9 603 598.8 592.3 583.5 574.3 565.3 556.4 546.6 538.6 528.9 519.8 512.7 505.8 498.3 489.4 484.2 474.8 464.1 453.4 442.7 434.6 428.8 424.5 422.2 418.2 415.9 412.8 411.2 406.3 400.7 394.7 386.4 374.9 358.5 344.3 331.1 314.5 302.3 299.5 299.3 300 302 300 302.3 307.2 310.3 311.4 315.7 330.6 343
291.4 293.2 292.6 291.5 292.7 294.9 294.8 295.6 294.7 289.5 286.9 286.6 287.6 287.6 287.3 284.5 281.1 279.5 278.7 279.1 281.3 278.8 276 276.2 275.7 274.7 280.6 281 281.2 281.1 281.1 279.6 277.9 276.9 275 273.6 272.8 271.9 278.5 279.4 284.5 284 283.4 281.5 283.2 283.6 287.2 287.2 290.6 276 284.2 298.2 297.1 305.3 312.4 328.1 344.2 360.8 377.3 391.4 408.1 422.4 437.3 442.1 467.5 481.6 500.4 515.5 527 535.8 531.8 543.7 559 576.1 592.9 599.8 611.7 633.9 649.1 655.7 653.9 650.8 646.4 640.4 634.2 627.3 620.4 616.6 609.3 584.6 566.1 547.9 536.7 525.6 512 501.1 486.3 472 458.2 449 463.6 479.9 498.3 518.6 533 547.9 560.9 580.1 597.3 614 634.3 650.5 664.9 672.3 677.2 679.7 680.8 678.4 672.5 662.1 655.5 645.1 631.8 624.2 616 608.7 601.4 593.9 581.7 571.4 557.2 546 550.8 553.9 555 556.2 558.1 559 560 565.4 570.1 575.8 580.5 588.6 598.7 606.7 612.5 616.6 616.5 612.9 610.3 607.5 601.9 592.2 581.8 574.1 564.5 556 547.4 537.6 529.3 524 517.1 509.9 499.4 492.7 481.9 470.8 462.7 453.3 446.1 439.4 432.9 429.4 426.4 424.9 420.6 414.3 410.2 402.6 400.2 389.4 378.8 367.8 349.8 337.5 313.9 306.2 300.7 299.8 300.1 301 301.7 301.6 309.8 311.4 311.5 317.5 330.2 343.3
304.5 308.9 308.7 311.9 313.4 309.8 306 311 304.7 300.6 301.5 301 301.4 296.5 293.4 290 288.8 288.8 291.7 290.4 291.2 283 281.2 284.9 277.7 285.6 285.6 285 285.5 285.9 285.6 284.1 281.3 279.3 276.7 274.7 273.5 272.4 270.7 277.1 278.3 279.7 277.9 279.7 278.7 280.4 279.3 278.7 281.6 275.3 276.8 282.1 297.4 292.8 303.1 310.1 323.3 339.8 353.7 368.5 380.6 394.1 407.9 412.9 439.6 454.1 470.4 482.7 497.2 510.7 514.1 523.2 535.1 552.9 564.3 577.6 594.6 615.2 633.2 645.3 648.7 648.9 648 644.6 642.1 638.2 636 631.5 624.9 602.4 570 553.5 540.6 526.9 513.7 502.3 487.9 472.3 459 441.5 457 476 494.8 515 528.6 547.5 568 585.9 602.5 620.4 641.2 655.8 665.6 670.7 674.9 678.3 679.9 678.5 672.9 664.3 654.5 644.3 632.3 624.5 616.3 607.4 599.4 590 579.4 567 551.1 545 535.3 540.2 541.9 544.8 547.8 549.4 553.6 558.8 562.8 568.2 572.6 582 593.5 603.9 611.3 617.3 619.6 617.6 615 613.7 608.9 601.4 593.2 582.4 572.8 564.4 558.3 549.1 541 534.9 526.9 519.3 508.4 499.7 488.8 476.4 468.8 459.4 453.2 447 441.9 438 436 433.3 429.2 420.2 409.6 410.8 400 391.9 382 371 354.6 333 315.8 307.7 305.3 299.7 301.1 301.3 301 302 309.6 309.9 310.8 316.3 330.9 343.2
320.3 325.7 327.6 326.9 335.1 327 323.3 326.7 318.8 320.6 319.1 323.9 318.4 315.2 308 309.4 310 310.2 308.6 303.6 300.7 299.9 298.1 294.9 302.6 296.9 289 287.8 290.9 292.5 291.2 286.9 283.4 283.3 280.3 280.9 278.7 272.4 271.7 270.2 270.5 271.1 275.3 275.2 275.5 275.3 276.9 278.3 276.7 273.3 273.7 278.1 282 292.7 288.9 299.5 303.4 314.3 333.4 347.6 357.8 371.1 384.8 393.3 409.6 428.8 438 451.4 465.8 484.4 500.1 501.2 513.2 528.4 544.2 558.4 575.5 596.7 618.5 632.3 640.3 644.3 646.8 647.5 647.2 648.5 645.4 642.5 629.3 613.8 581.6 555.7 543.1 529.8 514.8 501.9 487 471.7 459.5 441.3 449.4 470.6 489.8 511.4 532.2 552.9 574.4 591.7 608.1 627.5 643 654.2 662.2 667.7 672.5 676 678.3 676.9 673.4 669.1 657.9 646.3 635.7 627.4 618.9 610.8 600 589.3 575.8 561.7 548.2 540.6 527.2 527.1 531.1 534 536.2 540.4 547 549.6 554.2 560.9 566 575 586.6 599.8 609.5 616.1 620.5 620.9 620.1 617.7 614.3 609.3 601.7 594.1 585.5 574 568 559.1 554.4 548.3 538.8 526.4 516.4 506.4 496.7 486.9 475.9 466.5 460.4 455.1 447.6 443.6 440.3 435.7 431.1 429.9 413.4 402.7 397.1 392.2 389.6 381.3 364.3 348.3 316.8 311.4 302.9 298.6 298.4 300.6 300.2 302.4 308.2 309.1 311.3 317 331.4 340.5
333.6 335.9 341.8 343.9 343.9 343 343.8 342.2 338.1 335.6 336.2 336.5 335.9 333.7 330.9 329 330.6 328.5 325.8 324.8 322.4 315.8 313.6 315.7 311 308.4 307.9 302.9 302.3 299 297.7 302.1 295.6 294.3 290.3 287.3 283.2 281.8 278.8 277.7 274.8 273 270.4 267.7 271.9 273.3 273.4 273.9 273.6 271.3 271.9 275.7 275.4 276.7 282.4 282.2 289.8 299 306.7 325 336.7 350.2 363.3 372 383.5 396.9 412.4 424.7 435.6 454.6 476.2 477.7 492.9 511 523.6 540.1 560.2 581.3 595.4 611.2 624.8 634.9 642.6 646.9 650.7 651.9 651.5 647.6 632.4 612.7 587.7 562.2 545.3 532.9 517.9 501.8 487.2 472.7 458.2 445.1 442.9 467.3 491.5 515.3 536.6 554 579.5 595.3 613 629.8 641.1 650.1 657.9 664.6 669.5 673 675.1 673.9 674 669.9 660.8 652 642.1 632 623.4 613.9 602.9 591.7 579.1 565.2 552.9 543.3 530.9 516.4 519.3 524.8 526 531.2 538 542 547.8 554 559.1 566.3 577.8 592 604 614.2 620.1 621.3 623.5 623.1 621 616.7 611.6 601.1 595.5 586.3 576.4 568.1 562.7 557.9 549.9 536.4 522.6 511.8 501.7 491.6 483.1 473.4 467.2 461.7 454.4 449 445.5 444.2 434 433.7 415.6 404.3 393.1 391.1 395.9 390.3 374.1 351.2 321.8 312.8 309.8 300.3 296.5 299.8 299.9 303 308.2 309 309.8 319.3 330.6 339.6
350.1 351 357.4 357.5 354.8 354.7 352.3 352.9 354.6 351.1 351.3 349.8 347.8 348.1 347.2 346.7 346.5 341.9 338 334.7 334 332.2 327.8 324.1 326.5 325.7 319.1 317.4 316.5 305 313.6 309.2 305 304.2 303.9 297.3 300.3 300.6 291.8 287.6 282.6 277 275.2 273.5 271.6 267.1 271.8 272.4 272.1 268.9 269.1 273.9 273.6 273.5 275.2 277.2 279.9 285 292.9 300.8 311.8 325.7 340.1 349.9 361.9 373.1 384.3 399.1 413.6 435.8 452.7 460.5 466.1 487.4 502.9 520.4 536.1 554.1 573.4 588 607 623.1 635.7 643.4 648.4 653 652 646.9 635 613.2 592.9 566.5 547.1 535 520.5 504.3 486.7 472.1 456.1 441.8 441.8 465.9 492.8 515.7 537.4 555.8 578.7 595.2 615 629.5 638.5 647.1 655 660.2 665.2 668.9 670.5 670.6 671.9 669.6 665.2 658.9 650.1 640.2 630.2 617.8 607.8 597.5 584.9 570.4 556.9 544.9 532.6 521.7 506.4 513 515 521.8 526.9 532.7 539.3 546.3 552.4 561 570.4 583.6 597.8 610.7 618 622.7 625.6 625.8 625.1 624.2 620.6 612.6 605.4 596.2 588.3 579.1 571.4 565.4 558.9 545.9 531.8 518 507 496 488.4 481.3 473.3 466.2 460.1 454.2 449.3 446.4 430.6 429.6 416.2 403.7 393.1 384.8 389.6 382.3 369.1 346.3 321.1 313.9 312.3 304.7 295.8 298.4 299.2 303.4 308.2 307.3 309.6 318.8 328.2 336.4
365.7 368.3 370.6 371 370.4 371.6 372.5 370.7 369.2 370.9 367.8 366.4 363.2 363.2 361.9 362.4 358.2 353.2 350.7 347 344.4 343.8 338.6 336.3 337 336.5 331.7 328.9 319.9 316.7 321 315.6 315.1 315.8 312.7 310.9 316 315.1 308.3 301.9 295.4 293 282.9 280.2 274.6 272.1 266.1 269.3 271.8 268.8 266.9 267.8 271.7 272.1 267.7 268.5 273.4 277.7 282.7 290.7 294.9 305.5 317 326.2 341.2 353.6 362.8 374.4 388.9 416.8 429.7 438.4 447.3 464.4 483.8 505.5 522.1 538.8 554.8 570.5 589.9 605.9 618.5 626.5 633.4 633.8 634.8 645.9 638.6 613.2 594.5 569.2 550.7 536.8 521.8 506.4 487.6 471.8 455.3 435.2 442.3 464.5 487.2 513.2 533.2 549.4 570.7 595 614.1 625.8 635.1 643.3 649.7 655.3 660 663.7 664.2 666.7 669.6 667.8 666.7 661.7 656 647.7 637.9 624.3 613.9 602.6 590.8 576 564 549.5 536.6 523.7 511.3 495.7 506.3 511.8 516.5 522.9 530.8 538.7 546.3 553.7 565.1 576 590.7 604 614.8 620.6 626.1 626.6 630.3 630.8 627.2 622.7 617.7 609.9 602.8 593 582.9 576.3 567.7 557.6 539.6 525.9 516.2 504.1 497.6 490.2 481.7 470.5 463.8 454.6 449.5 443.9 434.7 419.8 413.2 398.3 389.8 378.2 378.7 380.4 371.5 350.2 326.4 314.4 315.1 306.6 295.9 295.9 300.7 304 308.5 307.2 313.8 319.8 325.9 336
383.5 384.7 388.1 390.1 391.6 389.5 392.9 391.4 389.4 384.9 382.7 384.1 384.5 383.1 381.9 380.2 370.4 370.3 365.7 360.3 357.7 357.8 353.2 350 350.1 350.2 341.5 337.4 324.7 326.2 330.2 329.4 326.5 328 324 324.2 328.2 328.8 322.8 319.9 311.6 304.4 293.6 291.2 287.3 282.4 280.4 269 266.5 266.7 266.3 266.8 267.7 267.1 267.1 266.8 267.9 271.9 276.9 279.1 283.5 289.3 295 299.2 315.2 331.9 345.1 356.1 371.6 395.6 406.5 413.2 425.5 442.2 459.1 484.2 503.2 517.1 529.6 543.4 566.6 582.4 594.4 603.9 608.4 609.5 618.1 634.9 638.2 616.3 597.8 578 554.2 534.1 522.1 506.6 489.7 472 453.5 435.4 439.1 459.1 481.5 507.3 530.6 548.8 569.9 588 604.3 618.3 629 635.9 643.4 650.1 653.7 655.5 657.7 662.1 665.4 668.5 667 666 661.7 655.9 647.3 636.4 622.9 608.1 596.4 581.9 568.6 553.7 539.8 526.1 512.9 498.5 487.3 499.1 506 513.6 522.5 531.1 539.4 548.3 560 571.7 584 597.8 609.9 619.2 625.7 628.6 632 634.9 635.2 634 630.2 624.3 616.1 605.4 596.1 587.9 579 566.2 549.5 535.6 523.2 513.6 503.3 497.2 491.4 480.8 463.3 452.9 453.2 442.6 431.1 418.6 405.2 393.7 383.4 373.8 374.3 377.5 381.8 358.4 331.4 314.9 316.1 307.4 294.7 295.6 300.1 303 305.8 307.3 312.1 319.8 327.4 332.8
401.2 407 407.4 409.7 406.1 409.8 410.3 411.3 405.6 404.8 402.6 400.8 402.2 401 399.3 396.1 391.1 386.4 382.8 379.3 375.9 372.3 370.1 367.2 363.2 360 351.2 345 331.5 336 345.2 341.7 341.3 340.9 339.1 339.7 338.2 336.6 333.9 334.7 324.9 315.9 307.5 300.7 296.2 290 281.9 273.3 270.6 269.3 268.5 265.5 264.3 266.3 265.9 265.7 265.2 265.8 269.5 273.3 273.7 276.9 282.3 287.1 295.9 307.9 326.9 338 351.9 369.4 379.7 387.1 398.8 413.5 432.7 451.7 476.3 487.9 501.3 516.4 530.5 554.8 565.2 572 578.4 589.3 594.5 613.1 642.9 630.6 600.7 581.8 559.6 536.2 522.4 505.5 489.3 472.2 451.5 429.8 432.5 453.2 475.4 500.3 525.3 544 562.8 579.1 593.9 610.3 620.4 626.9 634.4 641.4 644.7 648.5 651.4 657.6 662.5 666.4 668.7 667.9 665.5 660.5 653.8 646.2 633.6 619.9 604.9 589.3 572.7 556.9 543 529.2 513.6 502.3 485.8 487.5 496.1 504.5 512.7 523.2 534.3 544.2 556.2 567.9 579.5 591.4 604.7 616.2 625.3 630.4 636.6 639.9 643.4 644 642.3 636.2 626.6 615.5 603.3 597.2 587.3 574.5 560.9 541 530.1 522.6 505.7 502.5 497.5 488.3 474.3 451.4 447.6 445.4 428.4 408.3 401.7 385.2 373.1 367.7 370.4 372.4 375.9 356.1 328.2 320.3 310.7 304.7 293.3 295.3 299.2 300.8 303.3 307.5 311.3 318.7 325.9 331.9
426.3 430.1 435.2 436.1 431.7 431.8 433.2 432.6 429.6 426.6 423.2 419.1 420.9 417.6 416.4 411.5 407.7 402.6 398.6 392.7 390.2 388.3 384.4 381.3 374.1 372 365.5 358.8 338.5 353.7 360.2 357.5 356.2 354.5 352.1 354.8 349.3 347.6 345.8 341.3 333 326.4 318.6 308 302.9 296.5 287.7 281.3 275.1 272.6 271.1 269.6 269 267.5 263.8 263.2 263.4 262.5 263.8 268.9 270.9 270.4 273.2 277.3 287 292.6 306.4 321.5 333.9 346.1 354.2 365.5 377.2 388 410.3 423.3 439.5 457.4 478.1 499.3 500.1 516.9 532.9 541.5 557.3 573.6 580 597.1 635.5 631.5 603.3 581.6 563.6 538.9 525 508.3 487.7 472.8 453.2 425.2 427.2 446.7 470.6 494.2 515.7 536.3 552.5 568 584.5 599.9 610.3 618.5 627.8 633 637.1 639.8 644.8 651.6 657.1 664.1 667.5 668.4 666.9 663.5 658 651.5 640.1 626.6 612.4 595.9 579.6 560.3 545.7 531.9 515.7 503.6 492.2 471.7 485.2 493.3 505.8 517.4 528.2 540.3 552.4 564.1 576.1 588.8 602 614.3 624.7 633.5 641.7 646.2 650.4 652.9 653.3 649.6 635.6 623 611.7 603.5 597.9 583.4 570.8 552.6 532.5 527.5 511.6 502.3 505 496.5 484.3 466.9 443 439 420.6 395.2 389 377.4 365.8 360.1 364.6 364.5 357.2 342.4 327.8 322.2 313.1 301.5 290.5 294.4 301.5 302.9 303.4 307.9 311.4 316.5 325.8 331.8
449.1 456.2 462.3 464.2 465.7 463.7 459.8 460.7 458.3 453.7 449.8 445.6 445.4 443 439.8 433.3 428.6 423.8 417.1 408.4 403.6 403.2 397.6 395.4 388.6 386.1 379.3 367.2 350.4 370.5 375 372.8 369 368.7 371.4 369.5 363.3 362.1 355.9 349.2 343.4 336.6 330.2 321.3 311.1 306.6 300.6 293.3 285.7 278.1 274.2 269.5 268.2 267.8 266.9 266 263.6 262.8 262.6 261.5 260.5 263.2 269 271 275.4 283 292.6 300.3 311.9 323.5 335.7 345.5 356.4 368 381.9 396.4 413.3 432.3 450.7 481.7 479.9 490.2 507.2 523.7 541.7 559.5 569.5 578 613.2 621.6 601.4 580.8 564 541.6 525.9 512 490.7 470.3 452.3 428.7 414.2 439.4 462.8 482.2 502.8 524.5 541.6 556.3 572.4 589.3 603.6 612 620 626.4 629 631.7 637.5 643.8 652.7 659.8 662.8 664.2 665 662.2 658.1 652.3 641.9 629.9 615.4 600.1 583.3 562.5 547.3 532.9 517.5 505 491.7 469.5 472 485.3 498.2 510.5 523.9 536.7 548.7 560.9 573 587.5 601.5 615.4 629 640.4 649.3 653.6 656.6 661.2 660.7 653.1 636.9 628.6 617.1 608.5 604.1 589.7 577.7 562 539.2 524.8 513 499.3 503 505 491.2 477.4 442 423.2 403.5 383.4 377.1 372.3 361 349.3 355 352.8 347.8 335.1 322.3 309.3 300.9 291.9 290.1 298.2 305.4 305.5 305.8 307.9 310.4 318 325.1 329.2
477.6 483.5 490.3 493.5 498.2 499 494.7 488.8 485.7 482.6 479.8 480.3 478.5 474.4 466.2 462.1 455.4 449.2 443.4 433.1 421.5 418.1 413 408 404.8 399.6 392.1 379.8 360.9 383.4 386.2 385.9 389.3 392.9 388.3 385.2 376 371 366.2 361.8 356.6 351.4 343.9 334.6 325.1 317.5 314.1 306.1 299.2 291.6 281.6 275.8 271.6 269.4 266.7 266 265.5 264.8 263.9 262.1 260.9 260.2 259.5 263 270.5 274.9 282.5 287.5 295.1 303.8 314.8 324.6 334.9 345.3 355.4 365.5 383 405.1 420 436.1 449.9 469.4 492.1 511.4 528 543.3 545.7 559.5 581.7 589.2 588.2 577.1 565.2 545 526.5 512.4 496.2 473.4 452.4 430.9 406.2 431.2 452.8 473.3 491.4 513.2 531.6 547.8 561.3 579.7 596.3 606.6 612.2 617.3 620.1 626.9 634.4 640.1 644.7 652.1 655.2 656.8 658.4 656.5 652.9 648.9 639.9 627.2 614.6 600.6 585.1 561.7 545.9 530.2 515.8 503.6 489.5 475 460.4 478.2 492.2 505.7 518.2 530.6 545.4 558.9 572.3 588 603.6 619.1 633.3 647 656.4 660.7 660.4 663.6 657.6 649.3 634.5 627.6 617.7 609.7 603.4 591.7 584.8 569.9 541.9 535.4 507.4 494.3 496.1 500.4 488.8 478.1 444.4 417.3 387.1 371.4 358 355.7 347.4 343.1 346.8 343.6 338.9 326.7 308.3 294.5 290.2 289.3 300.8 305.2 304.8 305 306.2 308.3 312 321 323.4 328.7
500.9 511.4 520.1 526.7 529.6 526.5 519 513.3 509.5 509.5 507.7 505.9 502.2 500.8 495.7 487.3 482.3 476.5 471.5 458.4 443.9 434.5 428.8 422.3 417.2 411.7 401.6 391.8 371.1 395.1 402.9 409.7 416.6 421.4 415.8 403.5 393.6 384.8 379.7 375 368.1 362.6 355.6 349.1 340.5 328.8 323.6 320.9 313.4 301.7 291.3 287.6 281 276.8 271.3 268.1 267.7 268.2 266.4 262.2 261.3 260.6 259.8 260.1 264.1 271.1 273.6 280.8 281.4 287.8 293.7 308.2 316.8 325.1 337.5 348.1 355.9 374.4 386.5 403.8 423.5 444.6 468.4 487.2 501.7 511.7 520.7 530.2 552.6 561 561.8 558.1 553.8 543.4 525.7 511.6 496.3 479.5 453.5 429.9 401.4 422.5 441.6 463.2 483.3 503.1 521.5 536.6 547.1 568.7 586.1 597.2 603.4 605.3 613.5 622.8 629.6 631.3 633.3 639.2 642.3 642.3 643.1 642.9 641.2 640.1 632.5 620.3 608.6 596.1 579.4 556.2 542.4 525.6 511.6 499.1 486.1 473.2 454.8 470.7 485.5 500.4 513.4 525.9 540.5 556.8 572.9 590.7 607.4 621.4 637.6 651.1 660.2 665.8 662.6 657.7 648.2 630.3 622.2 619.9 614 602.4 600.3 593.6 581.6 564.9 545.8 531.1 511.1 487.6 482.6 482.9 492.9 477.4 449.9 421.3 405.7 355.5 340.4 337.4 330.6 330.6 334.7 332.6 328.9 317.7 299 287.7 286.8 297.9 304.9 304.5 304.5 304.9 306.5 310.8 315.8 321.3 323.1 329.5
526.6 542.8 553.6 561.5 560.8 557.5 549 541.7 532.1 532.4 529.5 525.8 522.8 518.8 517.8 506.8 499.6 492.5 489.4 473.8 464.1 452.3 444.5 436 429.1 418.5 405.9 378.9 396.2 412.3 417 431.3 448.8 455 451.7 433.4 416.8 402.7 390.9 385.1 379.3 372.2 366 356.8 348.1 340.3 332.2 330.7 323.5 312.4 305.6 298.7 290 285 282.5 276.8 275.9 270.4 268.1 266.3 261.6 260.7 260.1 258.3 260.6 264.7 269 277.6 281.7 276.7 282.7 287.4 296.5 308.5 317 327.1 337.6 347.4 357.3 379.1 400.4 420.4 446 461.1 474 484.2 491.7 496.3 521.5 529.1 533.4 538.2 543.3 536.4 526 510.2 496 479.9 456 431.6 407 411.3 429.7 452.2 473.1 491.6 510.2 523.1 534.3 554.4 572.1 581.8 581 595.8 608.3 617.6 620.3 619.2 618.5 621.8 627.5 631.7 628.2 622.8 620.2 621.8 617.3 609.3 594 580.7 566.2 547 531 520.7 508.3 494.3 479.9 465.2 445.8 464 481 495.9 509.7 523.5 538.9 556.8 575.9 593.8 610.7 625.4 640.3 653 661.9 666.1 662.2 646.9 633.4 614.2 606.4 604.4 600.9 589.7 588.4 587 571.8 553.3 534.8 523.8 515.1 496.1 468.6 467.9 478.3 460.1 433.5 406.7 386.2 351.6 331 317.8 312.6 312.4 317.5 319.6 316.7 307.9 294.7 284 294.2 302.4 303.7 302.6 303.9 305.7 308.2 311.9 316.7 320.7 324.4 330.1
549.5 570.9 586.9 589.6 588.1 583.3 574.3 565.4 554.3 552.9 548.9 541.7 536.6 534.2 528.8 519.3 511.3 504.3 498.3 487.8 478.6 467.7 456.7 447.3 438.1 423.3 392.6 405.9 421.2 432.9 453.6 472.6 486.8 491.2 486.9 473.5 444.3 422.4 408.2 396.3 389.7 382.3 369.5 363 360 353.8 341.2 336.8 336.6 326.7 316.5 307.8 302.2 298.9 293.5 283.7 277.3 277.9 274.4 271.3 267 261.8 260.1 258.2 259.6 260.1 263.7 268.2 270.6 276.7 273.3 278.6 282.8 286.3 293.6 305.7 311.6 325.2 336.3 351.8 374.6 397.6 416.7 432.6 448.7 463.7 471.2 474.4 493.6 500.4 511.3 519.5 526.8 527.6 519.5 504 489.9 474 461 435.9 414.9 396.2 416.9 438.9 461.3 480.4 498.1 512.9 516.6 536 549.5 562.3 582.5 593.2 602.4 608.5 608.7 608.6 603.1 604.4 607.2 606.2 607.8 597 590.2 588.4 591.2 590.9 578.6 564.5 554.6 534.6 522.1 514.1 503.2 487.9 475.2 459.4 443.4 460.4 477.1 493.7 508.3 526.3 542.4 557.9 576.7 594.9 616.1 628.5 639.7 651.7 661.5 662.7 656.6 639.3 615.4 596 586.1 580.2 580.1 566 556.6 558.1 556.1 535.4 520.2 514.3 508.7 493.6 471.5 445.5 441 431.2 409.3 391.9 374.2 356.1 337.6 316.9 305.9 298.2 300.7 303.2 301.2 296.5 286.6 283.6 297.2 303.7 302.3 300.9 303.6 308 311.6 316.2 318.6 321.7 326.1 331.3
570.8 591.6 606.9 609.8 605.3 600.5 593 583.6 576.8 566.3 561.4 556.2 548.8 543.7 536.6 527.6 521.4 514.4 504.2 498.1 487.3 475.7 461.3 452.2 443.4 409.6 409.3 430.1 440.1 463.6 487.6 504.6 519 525 523.9 500.9 472.4 446.9 429 411.8 401.8 393.1 384.1 371.6 365.1 362.5 356.9 344.7 343.4 339.6 330.1 320.9 315.1 309.4 301 290.9 291.3 285.7 281.4 273.4 271.1 266.3 260.7 259.7 258.7 259.4 259.5 264.9 265.8 268.9 273.9 271.6 274.9 277.1 281 280 286.6 300.7 313.2 332.1 349.9 367.4 392 409.2 422.2 438.2 445.2 448.2 460.5 472.3 484.1 495 505.4 507.1 501.2 496.1 483.5 468.6 455.6 441.9 420.3 394.3 402.4 426.3 448.7 466.6 484.7 497.2 499 515.9 539.8 561 576.1 587.6 595.1 599.1 595 594.4 591.1 581 575.7 571.7 567.7 560.3 557.6 556.8 560.4 563 557.6 549.6 536.4 523 512.9 506.2 495.4 479.9 465.8 449.4 437.3 457.6 475.4 492.3 510.2 526.4 544.1 561.4 576.9 597 617.4 627.8 635.6 648.8 652.2 651 643.3 627 603.7 582 567.8 557.1 555.9 542.3 531.6 529.1 522.6 513.1 508.7 504.3 503.1 486.3 461.3 433.5 415.7 408.3 392 380.5 363.6 350.5 334.4 315 299 294.4 290.2 288.9 289.6 288.4 282.1 289.5 298.7 294.8 298.8 302.7 305.5 310 312.1 316.1 321.3 324.6 328.3 331
592.5 611.5 622.3 625.8 624.3 617 608.3 597.9 589.7 579.5 568.8 562.5 557.2 551 542.5 533.4 526 519.5 511.7 503.6 490.3 476.4 464.2 446.9 433.4 410.2 435.7 444.5 469.9 493.2 512.9 530.2 544.2 551.7 545.1 532.1 508.4 474.6 448.1 430.7 416.1 407.5 394.2 385.8 373.2 371.9 365 359.7 353.4 347.1 339 332.8 323.4 316.1 305 306.8 302.2 300.5 292.1 285 276.8 271 264.7 260 258.4 258.1 257.6 259.2 263.3 266.2 266.8 268 274 273.1 271.6 275.9 276.6 280.3 290 305.4 319.7 340.7 363.2 377.2 388.4 405 409.5 420.4 436.2 450.2 460.4 473.7 480.5 484.1 483 481.1 473 455.6 445.4 435.5 424 402.5 385 411.1 435.3 451.8 469.6 479.1 494.2 516.8 536.6 552.2 569.2 583.8 583.7 584.1 580.1 576 570.8 547.9 538.9 533.4 529.8 526.8 527 529.2 531.3 532.2 532.2 528.6 517.9 510.1 502.6 495.9 484.6 470 456.2 439.2 434.1 456.2 476.4 494.8 513.3 530.4 546.8 562.6 578.1 595 610.3 622.3 628.3 639.2 637.9 626.8 625.2 609.8 586.6 565.2 549.6 540.3 532.2 522.9 512.2 504.2 497.6 496.2 495.7 488.5 485.2 476.9 459.4 427.7 404.2 386.1 373 365.2 353.8 338.8 322 307.7 293.3 291.5 288.2 284.1 283 277.6 275.9 287.2 293.2 292.6 297.7 302.4 307.8 312.1 316.5 321.2 323.4 328.8 331.6 333.2
611 629.3 640.3 641.3 637.6 630.6 624.5 611 597.6 587.2 575.2 565.7 561.4 553.8 542.7 534 527.4 521.8 513.2 501.1 488.5 475.4 463.1 443.2 416 432.9 452.1 466.8 496.7 521.1 536.7 551.4 564.2 572.1 564.8 558.2 535.2 496.2 472.1 457.5 434.8 418.6 406.8 397.2 386 381.1 376.1 368.2 360.7 355 349.6 339.1 330.8 321 326 321.5 318.7 312.4 308.9 301.5 292.7 282.3 270.1 264.3 259.8 257.3 256.9 257.3 257 257.4 260.3 266 268.1 268.2 269.3 268.9 270.2 276 276.5 282.9 298.4 314.7 326.7 345.2 356.1 369.8 381.4 394.6 410.5 422 442.9 453.4 458.9 463.6 461.7 458.3 452.3 434.3 425.9 423.4 418.6 407.6 386.8 395.6 415.6 433.3 447.4 473.1 491.8 509.1 524.2 537.9 558 566.4 570.4 566.3 557.8 539.4 530.3 519.4 506.9 505.5 504.3 500.6 502.6 502.8 503.5 505 506.7 503.4 499.1 494.3 486.9 481.6 472.1 459 445.6 423.5 436 457 478.5 497.4 516.5 533 545.5 568.1 581.1 587.9 597.8 605.4 601.3 613.7 616.2 598.3 593.9 585.4 564 543.4 531.2 522.9 512.9 504.9 498.7 490.1 482.2 479.7 485.1 480.8 457.7 463.9 445.1 424.7 396.6 374.9 357.3 350.5 341.8 330.7 315.4 298.2 289.5 288 282.5 279.3 279.1 265.4 277.7 287.8 294.9 297.8 302.7 307.7 312.3 317.7 320.7 325.6 323.8 332 334.5 335.6
628.1 645.2 656 654.1 649.8 644.6 636.4 620.7 603.9 591.7 580.9 569.4 561.3 552.1 543 534.8 528.6 520 509.9 497.2 481.6 470.1 452.5 426.4 435 449.9 469.6 486.3 516.9 536.5 551.7 569.1 581.8 584.8 588.5 574.1 551 522.9 495.3 473.3 450.5 442 420.7 401.4 397.8 393.9 384.6 375.8 369.1 364.7 358.2 345.3 337.2 341.6 342.9 343.3 338 331.9 331.5 325.4 317.6 304.9 289 279.6 273.6 269.7 263.3 256.9 255.2 256.7 257.4 257 265.2 264.2 265.1 269.1 266.7 268.9 271 270.9 275.5 287.3 301.7 314.8 326.8 341.6 350.6 363 378.8 391.1 409.4 418.8 426 428.9 435.3 428.6 423 415.7 412.3 411.1 409.1 404.5 388.7 383.6 403.1 424.5 448.5 466.3 477.9 493.4 505.4 513.3 528.8 539.2 537.8 532.2 524.4 505.6 493.4 485.7 477.5 478.9 479.3 472.5 472 476.1 474.1 474.4 476.6 474.6 471.5 461 465.6 464.9 453.8 448.2 432.1 421.1 439.5 461.3 480.6 498 516 531 550.4 569.3 578.4 580.9 572.7 574.3 572.1 575.8 580.2 566.1 560.7 556.4 534.7 522.8 504.1 502.1 495.9 488.9 482.3 475.2 467.5 463.1 464.8 462.8 438.8 430 438.6 414.9 389.8 366 348.4 336.6 328.1 320.4 306.3 294.6 284.6 282 279.5 275.5 264.1 271.1 279.9 291.7 300.6 299.3 304.7 309.9 315.1 321 325.3 328.6 331.4 332.2 330.7 336.3
644.4 660 666.9 666.6 662.5 654.7 643 625.2 608 594.4 582 570 560 550.8 542.9 534.9 525.2 514.9 501.8 488.5 476.5 444.8 436 441.8 459.4 470.7 488.6 503.9 523.9 545.5 565.4 584.5 595.5 601.4 601.3 593 573.5 541.7 514.4 485.3 461.3 446.7 432.2 420 407.6 403.2 394 385.4 379.4 372.8 359.8 353.4 348.5 357.4 359.6 358.5 355.9 353.8 350.7 345.4 340.6 329.5 317.9 306.8 294.6 285.2 274.5 267.7 263.2 259.2 255.7 254.5 255.2 259 259.7 262.3 263.7 266.1 266.7 272 269.5 271.9 278.4 285.8 301 312.2 325.3 338.1 351.4 360 374.8 382 386.3 393.5 399.5 396.3 394 396.1 396.1 396.7 394.9 393.6 387 377.2 399.1 416.6 434.8 447 458.4 473.9 475.5 480.5 495.4 503.5 502.2 490.8 478.7 467.9 460.5 448 453 452.2 441.8 440.7 444.3 445.6 440.4 437.8 438.2 437.8 436.2 439.6 442.2 438.3 438.6 435 425.4 417.9 437.5 459.7 478.1 493.8 509.4 526.8 546.7 556 562.1 557.3 542.4 537.7 536.3 539 540.8 535.2 526.3 518.6 504.3 495.2 482.6 476 474.2 470.3 464.2 453.4 447.7 446.3 440.2 438.1 428.2 407.3 407.1 398.6 380.5 360.6 345.7 328.5 318.6 311.5 302.1 290.1 278.2 278.9 275.6 271.1 260.3 271.7 281.9 289.7 293.6 300.9 309.6 315.7 321.5 325.6 329.9 333 336.5 338.2 339.7 340.1
658.9 671.7 676.1 674.6 669.9 657 645.8 629.5 610.1 594 578.3 567.8 558.9 549.7 541.3 533.1 521.7 508.4 489.5 474.7 452.8 455.8 461.7 472.1 479.5 487.5 504.4 515.9 533 549.3 573 592.4 600.5 610.7 614.4 614 597.3 564.3 526.9 496.4 477.6 475.7 452 424.6 421.7 415.5 405.5 393.5 386.8 380.9 370.9 363.8 360.7 372.9 375.4 377.5 375.9 371.2 368.2 364.4 358.1 351.2 342 330.5 321.1 311.6 300.6 289 279.9 272.2 264.6 259.1 255.9 255 254.2 256.5 258.9 262.3 265.7 266.3 268.2 265 268.9 272.7 278.2 288.6 301.8 313.6 327.6 335.4 341.2 348.3 354.2 364.4 366 367.1 370.4 374.7 377.8 380 383.2 380.1 371.6 372.2 388.7 401.3 413.3 421.2 431.9 436.6 441.4 444.8 455.8 463.9 455.6 450.6 436.6 428.4 421.4 420.4 426.4 419.3 417.9 414.3 414.3 409.5 405.4 404.5 403 404.2 410.3 417.1 412.8 418.3 422.5 421.5 410.5 407.7 430.2 451.8 468 482.5 498.8 516.9 526 529.9 524 525.5 507.8 503.9 503.2 502.8 506.8 508.8 498.7 485.3 478.5 478 459.6 456 459 448 440.9 434.4 427 425.1 419.4 412.3 402.7 386.7 382.1 370.1 361 351.6 337.7 324.4 311.9 303.5 299.2 283.8 277.9 271.8 270.7 266.6 258.2 270.4 280.5 289.6 297.5 306.2 311.8 317.3 322.2 327.2 331.1 334.1 338.7 342.5 344.3 345.9
671.1 680.6 681.1 678.9 670.4 656.9 643 627.8 609.5 592.4 577.1 566.6 558.2 549.2 540.1 530 517.6 502.2 483.1 471 475.5 479.3 483.7 488.3 498.7 511.8 528.2 540 549.8 567.4 581.6 599.9 613.1 623 627 626 615.5 599.6 560.6 527.7 497.9 493.9 459.2 434.7 433.1 425.9 412.3 401.9 389.5 381.8 377.9 367.8 377.2 385.7 390.2 390.6 391 394.8 398.7 390.6 380.7 371.3 362.1 352.8 343.1 333.1 322.1 313.3 301.8 294.6 286.4 274.2 264.8 258.3 255.3 253.1 254.5 257.2 260.4 261.8 260.4 262.2 261 264.4 268.8 272.4 277.8 287.5 299.4 306.2 313.7 322.9 329.2 336.2 343.4 347.5 352.7 356.6 361.2 363.2 364.6 364.1 356.7 351.2 367.7 379.5 390.1 405.1 408.6 409.5 409.8 405.1 413.1 415.4 413.7 409.2 400.1 392.7 396 395.8 389.6 386.8 385.5 383.4 379.5 378.7 379.3 380 375.4 376.5 381.2 385.1 393.1 399.2 404 402.2 400.1 399.1 418.9 436.1 452.9 464.6 478.4 491.7 506.4 496.2 496.1 486.2 478.4 472.7 474.6 471.7 473.9 473.4 467.4 460.1 456.6 452.4 436.2 437.6 438.8 434.3 418.5 411.7 411.7 400.7 396.9 386.9 376.1 368.1 358 356.2 347.7 339.9 330.2 319.6 309.7 295 286.7 275.7 272.8 271.7 267 261.5 256.4 270 283.2 291.9 301.6 308.6 316.7 323.6 326.4 328.4 331.5 335.8 340.8 345.8 347.7 349.4
683 687.1 683.7 677.5 664.9 651.3 636.8 622 606.1 590 576.6 567.1 557.5 549 540.1 528.3 513.6 490.8 479.1 485.3 493.9 500.2 501.2 505.2 518.8 536.4 547.4 553.5 567.7 585.2 598.6 612 625 631.4 633.1 628.9 618.9 602.5 583 547.6 518.5 489.9 461.3 450.8 439.7 429.9 417.4 401.3 396.2 387.6 381.2 381.4 387.9 395.7 402.2 402.4 410.1 420.3 426.4 421.3 411.7 397.4 383.9 373.3 362 349.1 339.9 330.3 322.7 315.3 307.7 293.8 280.3 272.6 265 260.9 258.3 251.9 255.6 258.2 256 255.1 254.6 257.7 261.2 264.8 268.4 271.6 275.4 278.4 282.6 292.2 303.8 313.9 321.5 327.8 335.3 338.9 343.7 346 344.4 347.5 343.8 329.3 348.2 355.4 363.7 374.9 378.4 379 375.4 374.5 377.2 379.1 377.2 375.1 365.7 362.5 372.2 366.6 362 360.3 357 355.1 352.1 353.2 352.7 350.2 348.7 349.2 354 362.2 372.1 379.1 381.7 382 379.3 386.7 402.1 416.7 430.6 444.7 450 465 470.7 462.2 457.9 446.3 444.6 443.7 447.1 443.4 446.5 450.3 440 437.8 435 428.1 414.9 410.3 411.5 403.7 396.1 385.9 386.2 377.1 371.7 361.9 353.8 350.7 341 335.6 334.5 327.1 320.3 312 301.4 292.6 281.4 269.3 268.4 265.7 262.9 258.6 260.6 271.8 281.2 293.8 302 311.1 319.2 327.1 331.1 334 337.3 341.2 344.3 347.4 350.5 352.4
690.4 690.6 683.8 674 660.9 647.9 632.7 618.8 604 589.6 576.2 565.9 557.3 548.8 539.7 527.1 509.4 489.6 502 508 509 513.1 519.2 525.7 541.5 554.9 564.2 574.5 588.3 602.6 615.4 622.7 632.5 636.9 636.4 630 618.6 601 573.8 550.6 515.9 484.2 469.3 454.4 441.1 428.4 417 410.4 407.5 396.6 386.3 391.3 399.1 407.5 413.1 417.5 431.6 444.2 447 450.4 447.6 431.7 411.9 391.1 376.4 367.5 357.1 348 338.9 330.1 320.4 309.6 298.3 288.1 277.9 270.8 263.8 260.6 255.4 250.2 251.5 253.7 253.4 253.3 255.2 259.3 262 265.4 265.9 266.5 266 270.5 276.1 284.3 290.5 301.8 312 320 322.7 326.5 329.1 330.7 327.1 317.1 329.6 337.8 343.9 346.3 350.5 354 354.2 348.7 345.7 344.2 343.8 340 336.1 336 333 332.7 334.3 332.2 333.4 330.7 326.5 325.6 324.5 321.3 323.9 323.7 330.8 341.7 348.3 351.9 354.2 360.4 358.4 367.4 382.9 395.4 405.7 416.1 422.4 432.5 434 433 422.8 419.9 418.2 415.5 412.3 415.1 416.2 416.9 415.6 413.3 407.4 409.3 397.1 391.3 384.2 382.9 369.9 352.8 354 350.1 344.7 340.2 333.3 327.1 323.3 323.4 323.2 315.6 309.9 303.7 297.8 286.5 276.4 268 261.8 261.6 257 257.4 261.2 269.7 285.9 294.8 304.8 312.9 321.2 329 336.1 339.4 343.5 347.2 350.1 351.8 353.3 354.8
695.1 693.4 680.9 667.7 655.5 643.1 631.4 617.4 602.7 588.9 576.5 565.9 557.8 548.1 538.4 525.9 504.3 503.7 518.4 522.1 523.1 530.1 539.4 546.8 560.8 576.9 588.1 598.6 611.8 622.8 629.3 637.4 639.2 639.5 637.9 629.8 617 590.3 561.1 540.6 512.1 492.6 477 465.7 442.7 436.6 437.6 423.5 411.7 404.1 394.7 404.1 408.5 418.3 426.8 439.9 448.4 458.2 466.9 470.7 476.4 479.1 443.4 409.8 390.5 377 367.6 360 350.3 343.1 330.1 321.1 310.1 300.3 290.5 283.3 275.2 270.7 265 260.5 255.4 248.8 250 252.7 252.7 252 257.1 258.8 257.2 255.8 257.7 263.3 263.6 265.9 270.4 274.8 288.2 296.9 303 305.1 305.6 312.4 315 304.4 311.6 319.1 323.7 325.7 330.1 331.2 329.8 328.7 324.1 319.8 314.8 314.3 313.8 314.8 309.7 307.3 307.9 305.4 307.2 305.3 303.3 300.2 296.4 297.6 300.9 301.8 310.4 319.3 321.3 325.1 331.7 338.9 339.6 349.9 360.8 370.8 380.8 396.3 399.9 399.2 405.8 402.4 395.6 396.2 395.8 397.6 391 389.5 388.9 386.1 388.8 386.4 388.3 378.9 375.3 373.6 363.2 354.6 344.2 333.8 326.9 323 320.6 321 320.6 316.5 312.9 309.6 307.9 306.5 302.8 295.2 289.7 279.3 272.6 260.8 256.1 254.6 252.7 252.6 261.5 275 288.8 298.7 308.5 316.7 322.2 330.3 336.4 345.3 349.1 352 354.8 357.1 358.2 359.4
695.8 688.5 671.7 657.6 649.6 638.5 626.8 615.1 601.4 590.1 576.5 566.8 556.9 547.7 537.5 523 501.9 521.6 531.3 536.9 542.7 545 557.8 565.8 581.7 597.6 606.5 617.1 629.7 635.1 639.3 643.9 644.2 642.1 637.6 631.3 610.6 577.5 546.4 522 508.4 493.8 484.5 468.6 454 445.8 444.7 429.6 419.3 411.2 402 414.8 417.9 431.3 438.8 456.3 464.9 473.3 479.4 490.2 499.6 500.1 477.1 440 411.4 388.2 373.6 367.1 357.1 347.3 337.1 330.2 319.6 308.3 300.3 292.6 289.4 281.6 273.5 266.5 261.1 257.4 251.4 250.3 248.7 251.6 251.3 256 255.5 254.8 253.9 259.1 260.4 259.6 260.5 264 268 274.3 280.7 288.2 292.4 293.1 297.4 296 296.8 299.8 304.6 308.5 306.5 309.1 308.4 308.2 301.8 297.3 296.2 294.6 296.4 292.2 287.2 286 282 281.6 280.8 278.3 277.7 276.9 275.9 274.3 278.3 280.5 286.5 293.3 298.8 304.1 311.7 318.7 316.9 328 337.9 347.1 355.7 366.5 372.9 372.1 377.7 374.2 373.3 369.3 367.6 366 363.3 361 358.8 354 357.4 359.3 355.9 351.1 350.5 348.3 341.3 329.9 322.9 314.6 306.9 302.4 302.5 304.8 305.3 306.2 303.9 300.8 293.7 297 295 287.1 279.9 266.7 262 252.5 251.4 248.4 251.3 254.7 264.2 276.2 287.3 303.1 313.6 321.2 326.2 334.7 343 351.1 356.9 356.7 359.6 362.1 363.8 366.1
691.7 677.5 662.9 652.4 645.4 635.1 622.8 612.2 600 587.9 576 566.6 556.8 546.4 535.1 514.5 518.2 533.9 541.2 550.2 557.5 562.2 571.6 584.7 600.8 617.7 631.3 636.8 640.6 648.2 649.8 648.2 648.5 643.6 634.9 626.8 600.2 560.2 530.3 514.6 503 491.9 480.2 479.3 464.8 458.2 449.1 434.5 425.2 414.7 417.2 424.7 428.8 443.7 459.8 470.2 482.4 493.5 499.8 509.9 518.8 526.1 500.2 461.6 432 405.2 384 372.1 363.7 353.2 345.2 334.9 324.6 317.7 309.8 304.4 297.6 289.6 283.9 276.2 274.2 269 261.5 258.3 252.2 251.5 247 250.4 251.5 250.3 248 248.3 249.9 252.2 256.5 257.3 258 259.4 264.1 269.1 277.7 280.5 282.2 281.9 279.5 277 281.6 283 284.7 287.8 289 286.2 280.7 276.7 279.9 278.6 276.3 274.5 271.7 264.1 262 258.8 257.7 254.3 255.4 254.4 255.1 256 258.7 262.6 264.6 267 272.4 279.8 288.2 293.9 293.4 304.3 310.8 322.7 331.8 336.5 339.3 348 344.6 342 342.5 339.9 337.3 335.8 335.7 333.9 333.6 330.7 326.9 325.6 323.2 319.5 322.8 322.5 320.9 311.7 300.7 293.9 288.7 285.4 283 283.8 290 292.2 291.1 287.8 282.1 282.7 281.7 276.9 268.1 260.8 253.4 247.9 246.9 248 251.3 255 266.5 279.8 292.8 302 312.9 323.1 330.4 340.4 350 356.5 363.8 367.1 368.5 369.5 370.9 372.5
681.2 669.3 657.2 648.7 640.8 630.3 619.9 611.1 600.7 588.8 578 566.4 558.3 547 534.3 517.7 533.3 541.7 551.6 562.5 572 579 589.3 602.8 619.3 633 642.1 646.4 651.4 654.4 655.1 654.3 651.6 643.5 633.7 614.1 579.5 548.8 526.5 508.2 494 491.9 487.5 478.7 470.8 462.1 450.4 441.6 432.9 421.9 426.7 434.8 447.8 461.9 475.2 486.9 501.7 515 524 528.5 538.1 542.3 518 486.5 447.8 419.3 394.2 379.8 372.3 363.5 352.3 344 335.6 332.9 321.1 314.7 307.3 299.9 291.6 287.4 282.6 276.8 275.1 268.2 263.1 258.3 252.7 250.3 247.7 247 246.2 246.3 245.3 243.8 244.3 253 255.6 255.7 255.6 260.7 263.4 268.4 271.6 270 268 264 263.2 264.2 263.2 266.3 267.7 264.7 261.9 262.3 261.8 259.1 254.6 252.3 251.9 249.2 244 240.2 235.5 233.6 234.1 236 237.5 239.3 243.4 246.8 248.5 250 252.3 254.7 261.6 267.4 270.4 281.4 289.8 303.3 301.8 304.5 311.3 314.9 311.6 311 312.4 313.3 310.6 311.3 310 309.5 309.2 304.7 300.7 295.6 293.5 292.8 293 294.7 302.4 293 275.3 274.3 275 275.1 270.5 267.7 270.8 272.9 274.6 275.8 271.6 267.6 267 265.5 258.6 250.5 246 246 248.1 248.8 253 260.1 273.1 285 298.8 311.5 321.2 330.7 337.6 346.7 355.3 363.4 370.1 374.7 378.7 378.1 378.4 379.4
673.4 662.4 651.4 645.3 636.9 627.4 619.5 610.6 601.5 590.4 578.9 568.7 556.9 546.9 537.7 533.4 545.7 552.9 564.2 576.8 589.4 596.1 605.8 620 635.8 647.3 654.2 656.9 658.9 660.2 659.3 656.5 652 642.6 631.1 606.5 573.2 546.3 523.2 502.1 494.2 490.7 487 481 473.2 464.8 457 447.1 436.1 434.2 435.3 453.3 463.4 482.7 495.4 506.6 522.1 536 541 544.3 553.3 558.7 541.9 505.2 467.7 436.9 408.5 392.7 379.1 369.3 361.5 354.5 348.1 342.7 331.7 322.1 314.4 306.3 298.6 293 289.6 287.5 286.1 277.7 274.7 269.1 262.6 257.6 254.8 252.3 248.6 250.8 248.7 246.5 243.8 242.5 242.7 244.7 253.8 254 253.5 253.6 257.4 258.2 257.2 252.6 250.1 250.5 247.7 248.7 250.2 250.2 247.4 247.4 246.3 244.7 242.1 238.4 237.9 237 237.1 235.9 235.3 234.5 232.8 230.8 230.2 230.4 231.7 237.4 236.8 236.1 236.2 237.6 241.4 246.7 252.1 260.4 265.3 270.9 273.3 281.4 287.3 289.7 284.7 287.3 285.8 288.7 287.6 289.1 290.7 288.4 288 285.6 280 275.8 270.5 269.7 269.1 271.1 269.2 263.1 255.8 255.3 252.3 255.4 258.6 260.5 260.1 255.6 260.4 261.3 258.5 256.4 255.5 252.9 246 243.5 243.6 246.5 254.2 259.1 255.3 261.8 277.1 288.8 302.5 315 327.9 337.7 344.5 350.9 360 370.5 377.9 384.6 390.3 387.1 386.5 387.1
667.3 653.5 648 642.8 635.8 625.8 618 609.7 599 588.6 576.5 565.3 556.5 544.9 537.3 538.7 554.3 564.6 577.3 591.5 600.4 609.5 621.7 635.5 648.3 658.9 665.1 667.1 669.3 665.4 661.9 659 653.3 644.3 632 603.1 580.8 548.9 514.4 502.5 494.8 490.1 486.8 481.5 475.8 468.8 460.7 450.8 442.2 445.8 452.8 471.2 485.4 497.3 508.8 522.8 541 553.1 553.7 562.8 566.1 569.7 559.6 528.5 477.6 446.5 425.1 405.2 385.9 374.6 369.3 360.3 356.6 349.7 337 327.2 320.6 315.3 307.3 299.7 292.6 294.8 292.4 290.6 287 285.4 278.3 269.2 263.6 258.6 258.1 254.7 252 250.3 245.5 243.2 242.6 241.9 241 246.7 251.6 250 248.2 248 250.1 248.6 246.7 246.6 245 243.8 242.4 241.2 240.7 240.2 239.8 238.2 236.4 236.4 236.6 236.6 236.5 236.1 233.7 231.8 231.4 231.1 230.6 229.4 227.5 228.3 229.1 228.5 228 227.5 233.2 234.3 237.8 239.8 241.5 246.7 253.1 258.8 261.9 263.9 259.8 264.6 267.2 267.4 268.9 268.3 270.9 272.3 270.2 264.6 261.8 260 256.9 251 246.9 244.2 243 239.8 239.6 239.2 232.1 238.3 243.9 247.3 248.8 248.8 248.4 246.2 243.6 243.8 243.1 242.5 241.5 241.1 240.1 248.6 261.2 261.2 253.4 261.4 278.1 292.8 308 319.7 333.2 342.6 350 360.9 366.8 377.4 387.5 391.6 394.8 395.3 395.4 395.7
656.8 647 643.5 639.7 634.1 623.5 615.4 606.9 597.9 586.9 577 564.3 548.4 555.4 557.1 547.8 561.6 575 588.6 599.4 609.6 621.3 636.7 651.2 659.7 669.5 674.7 677.5 677.6 675.3 670.1 666 658.5 649.5 639.7 611.7 587 563.1 514.9 500.2 495 490.9 487 482.3 477 467.8 457.1 456.4 451 459.5 477.1 484.4 501 509.5 528.4 541.8 556.9 564.8 566.4 570.7 569.9 573.1 564.5 535.1 488.9 468.9 444.8 419.2 401.8 381.1 376.3 369.5 367.8 353.5 344.1 332.7 328.2 322.5 314.5 307.5 300.5 298.6 299.8 300.6 296.8 293.3 287 281.1 268.1 265.3 265.5 262.8 259.6 254.4 251.2 244.6 242.6 241.9 241.1 241.4 241.1 241.2 243.4 243.8 243.7 244.2 241.4 244.9 243.7 242.9 241.9 240.9 240.8 238.6 238.2 236.3 234.5 235.4 234.2 233.7 233.2 233.4 232.1 231.9 231.5 231 228.1 228.6 229.4 228.2 227.5 227.9 227.3 225.8 227.6 224.4 226.2 228 227.2 228.1 229.2 234.2 237.3 238.9 241.3 244.2 246.9 248.1 249.1 253.4 252.7 249.9 248.5 246.4 245.1 243.9 243.4 241.1 238.5 234 233.6 229.2 223.6 222.6 224.5 232.2 236.2 241.2 244.7 241.8 240.3 238.1 231.4 228.1 230.7 234.2 230.1 238.6 243.8 256.7 264.1 268.8 251.4 259.4 279.2 295.4 308.5 323.3 333.7 346.6 357.1 369.7 376.2 384.6 393.4 398.8 401.5 403.5 404.4 404
651.8 645.8 641.7 636.5 630.5 624 616.6 607.4 595.8 579 569.5 559.5 568.7 568.4 568.2 562.3 571.8 586 597.1 609.5 621.6 636.9 651 663.5 671.6 678.1 683.7 684.8 685.4 682.7 677.7 673 666.6 658.8 646.6 614.1 593.9 561.2 534 503.4 497.9 493.6 489 483.9 475.7 468.7 461.7 462.3 465.7 469.2 494.9 513.3 526.2 532.9 540.6 555.3 566.2 572.9 580.8 576.6 574 574.3 570.9 555.4 538.2 508.3 471 443.5 420.5 393.1 382.7 377.5 369.5 360.5 353.3 346 338.3 330.6 324.8 316.5 310.9 306 307.6 306 302.4 299.2 293.2 282.5 273.2 273.1 272.3 269.5 266.3 263.6 257.5 255 254.6 250.1 242.5 239.8 239.8 239.7 238.9 238.9 237.8 238.9 239.8 238.2 241.5 241.5 239.4 236.6 235.6 233.7 232.6 231.9 231.7 231.6 232.4 233.7 233 232.4 232 229.4 228.8 230.5 230.9 230 229.3 228.8 228.2 227.2 230.1 230.9 230.2 229.8 230.3 229 225.4 222.2 222.9 222.5 222.3 222.6 223.5 223.4 223.8 228.9 227.8 231.2 235.3 234.4 234.3 237.3 236.8 234.7 234.8 232.7 229.2 222.9 217.7 217.2 217.8 218.5 220.6 224.5 223.3 226.1 232.3 232.6 239.3 236.4 223.5 220.1 220.6 223.8 233.1 238.8 251.3 267.3 274.2 267.4 250.2 262.1 281.2 296.1 309.6 321.4 335 350 364 373.7 380.5 388.3 397.1 404.2 407.2 409.4 411.1 411.5
649.9 646.3 641.8 639.6 633.4 626 617.3 607 596.8 587.1 571.7 579.5 577.9 578.5 578.3 577.1 578.7 592.7 606.2 619.1 633.7 647.4 663.4 674.1 681.7 687.1 691.9 692.4 692.2 689.9 684.9 680 674.1 665.5 653.1 625.2 590.6 568.9 549.4 515.2 503.9 497.5 490.9 483.6 476.9 472.6 468.4 471.8 477.4 486 512.8 532.7 549.1 559 558.7 572 575.9 586.8 586.6 583 581.6 579.5 577.1 573.8 567.6 548.7 509.9 469.2 456.9 417.7 396.3 383.9 376.7 368.1 362.3 355.7 348.8 345 334.2 326.1 323.2 318.3 312.6 309.6 306.4 300.2 290.3 279.8 282.9 281.8 280.5 278.4 276.8 275.7 276.7 272.4 266 256.6 252.5 247.8 242.6 241.1 241.4 240.5 239 237.1 236.9 235.6 234.9 234.3 233.9 234.7 234.5 234.7 235.3 234.5 234.7 235 233.6 231.5 230.9 232.4 231.2 232 234.8 236.1 232.8 234.1 241.6 247.3 246.2 242.5 234.3 231.5 232.8 231.7 229.4 228.6 228.4 228 225.6 223.7 224.2 224 223.6 223.4 222.3 220.5 219.2 219.8 219.1 219.4 220.7 221.6 222.1 223 219.7 219.2 218.4 217.8 217.3 217.2 216.4 214.7 214.9 215.3 214 214.1 215.9 226.5 231.2 224.3 218.4 217 218.6 223.6 230.7 240.2 252.7 262.7 263.7 263.8 248.1 260.3 281.1 296.7 312.6 325.7 336.6 351.6 362.8 374 383.7 389.1 400.1 407.7 411.7 415 417.8 421.1
651 649.3 644.7 640.1 634.1 628.4 621.1 610.9 601.6 593.7 585 587.7 588.3 589.9 589.6 589.9 586.9 600.2 615.7 629.2 643.4 659.3 674 683.5 691.3 695.8 699.7 700.6 699.3 698.1 693.8 688.6 680.7 670.9 654.7 631 598.3 574.1 555.2 521 509.1 501.2 493.5 485.7 475.1 476 480.8 485.5 490.6 507.4 533.8 556.2 566.2 567.1 575.5 581.2 588.4 590.7 589.9 585.1 582.3 579.9 577.4 575.3 570.2 555.3 537.6 509.2 484 453.1 424 404.2 383.2 377.9 367.8 364.4 365.1 355.8 343.5 337 334 327.9 320.7 313.1 308 294 292 293.5 293.3 293.5 294 296.6 300.2 302.2 299.5 291.7 279.6 271.1 262.3 252.2 247 244.6 243.8 243.6 241.2 239.6 241.8 240.8 240 241.9 243.1 242.5 242.9 237.9 235.8 236.1 236.3 237.8 234.8 233.3 232.7 236.3 242.9 246 250.8 251.2 248.5 253.9 263 268 263.6 255.7 252.7 242.9 238.5 235.9 233.4 230.9 229.5 227.6 227.6 226.4 224.3 223.7 223.4 223 222.6 222.3 222.1 220.2 221.1 220.8 220.2 218.1 220 219.7 219.3 218.8 218.6 217.9 217.5 216.7 216.7 218.6 217.2 216 216.2 214.7 213.8 215.1 215.6 215.1 215.5 218.2 219 221.1 219.8 225.7 234.9 245.5 250.8 243.2 242.8 259.8 282.4 301.1 310.5 315.3 323.6 350.5 357.1 371.4 375.3 381.9 396 409.6 415.6 424.1 429.1 432.9
654.5 650.8 646 642.2 636.7 630.9 625.4 616.6 608.3 601.9 598.8 598.8 598.5 600.2 601.5 601.4 593.7 609 624.8 636.3 650.7 669.3 683 692.9 700 706.1 709.6 710.1 708.6 706.2 701.9 695.9 687.5 674.1 653 633.1 608.1 583.6 558.7 531.4 512.7 505.9 499 484.8 487.1 488.8 494.2 498.2 511.3 528.5 553.1 570.8 575.7 581.5 591.2 591.1 597 595.1 591 585.1 576.6 573.8 571.6 567.8 559.5 547.1 536.5 531.3 505.3 480.2 454.5 436.4 414.2 388.7 376.7 372 370.8 362 355.4 348.9 341.9 333.3 323.4 315.9 304.2 299.5 303.4 304 305.2 310.8 313.8 315 315.6 310.1 307.8 306 298.7 288.1 278.6 267.3 257.4 250.1 246.2 245.6 244.2 245.9 250.9 251.6 253.1 253.1 253.4 255.7 253.4 251.5 250.1 249.5 249.3 248.6 249.8 247.7 251.9 261.2 265.8 267.3 278.5 278.3 278.9 282.6 288.3 292.7 290.2 279.8 269.7 261.2 254.2 249.5 247.1 239.5 235.8 229.9 227.6 226.8 225.5 223.4 223.1 222.7 222.2 221.9 221.7 220.8 221 220.7 220.8 219.2 217.5 219.5 219.3 217.8 218.7 218.3 215.9 222.2 229.2 233 233.4 227.8 223 216.2 215 213.8 213.9 212.9 212.6 214.3 219.5 220.8 219 218.3 224.3 227.4 226.4 230 237.4 254.2 281.9 297.8 278.5 281.8 294.7 311.6 325 352.5 368.9 374.1 394.5 403.4 418.9 431.4 437.7 441.3
658.3 653.3 647.2 643 638.5 633 629.8 626.1 618.2 612.5 610.1 609.7 609.8 611 612.1 612.2 606.3 618.6 632.5 647.3 664.3 680.8 694.4 703.4 710.5 716.2 718.4 718.8 715.9 713.3 708.4 701.3 692 673 643.8 625.1 609.5 594 573.3 549.3 523.4 508.6 500.6 498.7 500.7 508.5 509.3 522 539.8 559.1 576.9 596.4 607.4 602.3 598.4 598.3 601.1 597.8 589.5 582.6 571.5 564.4 559.2 554.5 545.1 536.7 530.8 512.5 497.7 482.7 465.6 453.3 440.3 404.8 387.2 381.2 376.5 372.6 364.8 357.6 345.8 335.7 326.3 312.4 311.3 314.2 316.5 319 323.7 326.7 332.6 331.3 327.7 324.3 320.3 315.9 313.9 306.4 296.3 287.1 279.2 269.3 264.1 261 261.6 264.7 268.7 266.6 262.1 265.2 266.4 268.8 268.4 265.1 265.6 267.3 269.4 268.9 274.1 273.7 279.9 285.2 289.8 296.1 301.7 304.1 305.9 306 308.8 314.6 312.2 301.5 291.7 279.5 267.2 263.5 257.3 253.2 250.6 240.5 233.7 228.9 225.8 223.6 222.8 222.3 221.8 221.5 221.2 221.4 221 220.9 222.3 220.4 219.7 218 219.2 217 216.5 222.1 230.5 244.9 255.7 257 253.6 242.1 231.7 219.8 219.4 218.9 217.9 215.7 214.4 213.4 215.4 216.1 219.9 221.4 214.9 214.8 228.3 232.9 237 242.5 255.4 266.6 250.4 258.4 268.4 284.4 304.3 324.5 336.8 348.9 372.3 404.8 426.6 435.5 444.9 451.2
658.1 655.8 650.1 647 642.1 639.2 636.9 633.5 629 623.8 621.3 621.3 621.8 623.7 626.2 625.7 624.7 624.8 642.5 657.5 676.9 692.4 706.5 714.9 722.4 725.5 726.7 727.4 725.5 719.7 713.9 705.3 690.7 666.2 629.1 621 612.9 603.2 585.2 555.3 528.2 515.9 506.5 509.5 512.7 521.4 531.1 546.3 570.2 591.5 606.6 616.6 619.1 612.6 603.9 601.2 597.5 593.9 582.9 573.1 566.3 553.6 545.2 539.9 531.4 527.1 514.8 499.6 488.7 476.3 461.4 447.3 433.9 420.1 399.4 387.1 381.3 380.2 371.5 361.2 347.5 337 324.9 322.8 322.2 324.6 328.6 333.7 338.2 342.9 345.8 344.7 343.6 341.3 340 333 328.4 322.7 320.6 311 303.1 294.4 286.6 282.8 283.6 286.1 285.5 284 279.6 277.6 279.9 281.3 284.3 282.4 282.9 290.6 290.8 291.6 294 296.9 302.9 309.2 314.7 319 323.3 326.3 325.4 328.7 328.2 332.2 333.8 313.9 304.6 295.1 288.6 285.7 274.5 268.1 266 257.7 250.9 248 241.6 234.4 227.5 222.7 222 221.8 223.7 222.5 222 222.6 223.8 224.5 226.8 227.3 225.4 231 237.2 249.4 261.3 275.7 284.8 282.7 272.5 258.9 248.7 237.6 231.1 226.6 226.2 222 224.9 223.1 216.4 211.9 211.8 212.9 214.2 213.8 216.4 227.8 224.9 234.6 238.8 236.7 237.1 238.4 257.9 270.1 281 292.5 308.3 322.9 350 389 422 438.4 450.4 458.2
658.4 657.7 653.8 651.2 649.4 646.1 641.9 638.7 636.1 633.5 634.2 635.1 635.2 638.7 641.9 642.1 641.2 637.3 651.3 668.1 687.1 702.9 717 725.6 731 733.4 734.4 735.1 732.4 726.3 718.6 707.3 681.7 652.8 625.8 619 612.9 603.9 589.6 557.5 537.9 528.3 523.1 524.4 527.4 532.3 554.7 578.6 599.4 620.3 623.8 626.7 622 616.6 607.2 602.9 597.4 585.4 572.7 562.6 554 542.4 532 526.8 520.1 513.4 500.5 490.4 483.9 472.1 457.6 441.7 439 418 400.5 387.9 384.8 383.1 370.6 360.6 347.8 337.6 332.8 331.1 332.2 334.5 338.2 343.9 347.1 352.6 358.8 360.1 362.3 360.5 356.2 350.9 346.1 343.1 338.2 330.4 325.7 320.1 314.1 307.7 303.3 305.2 305.2 302.8 298.7 295.1 297.4 299.7 300.2 300.2 302.4 309.5 313.7 310.9 317.6 320.9 329.4 333.5 338.4 342.4 347.4 350.8 352.8 351.3 350.7 350.2 349.2 331.6 321.9 313.8 309.2 309.6 297.1 290 292 284.8 273.9 270.3 264.1 256.3 251.1 248.1 246.6 245.7 248.2 246.1 243.3 242.6 239.2 236.7 239.6 243.5 250.1 255.6 266.9 277.8 288 295.6 299.5 297.5 289.9 277.7 269.4 265.3 258.1 254.3 253.2 250.7 249.9 251.6 244.4 232.1 218.8 214.1 211.4 213.1 213.2 213.1 213 220.4 222.9 224.6 230.1 232.2 245.4 249.4 256.2 268.9 282 302.2 329.1 371.6 403.4 434.1 452.6 461.6
657.6 658.1 657 656.7 655.9 655.2 653.9 652.6 647.8 647.6 647.7 648.7 651.8 656.2 659.9 660.2 656.4 652.8 660.7 678.5 696.1 715.3 727.4 734.6 738.4 738.4 740.2 741.4 738.1 730.9 721.7 706.5 671.4 650.1 624.7 619.8 616.5 601.5 585.8 564.4 552.4 553.4 554.6 557.4 562.9 562.5 593.8 621.7 639.7 648.1 643.9 634.1 625.2 614.6 607.4 600.2 592.1 578.6 562.4 551.3 542.7 529.6 521.3 514.8 508.7 500.9 490 483.6 474.4 462.1 445.2 437.6 427.9 412.6 399.9 391.3 387.7 378.8 370.5 356.7 348.2 348.1 342.9 345.1 343.3 347.1 350.2 355.9 362.7 366.7 373.7 379.2 380.3 381.1 379.4 375.2 368.6 362.9 356 351 348.5 339.4 336.1 330.2 323.9 324.2 322.7 318.8 315.6 315.1 315.8 319 320 320.5 319.1 326.6 332.5 336.7 342.8 346.4 352.3 360.9 369.8 375.9 380.8 382.4 382.8 379 379.7 378.8 373.7 353.8 343.4 334 333.4 333.3 326.7 316.9 314.6 312.8 310.5 295.4 289.7 281.9 275.6 271 272.9 273.4 267.6 270.1 266 263.4 258.4 257.8 258.5 266.2 274.9 285.2 293.2 300.5 306.6 313.9 315 313.3 307.2 297.9 294.9 294.8 291.4 285.9 281.2 277.8 279.6 282.4 275.5 257.3 245.4 236.4 225.7 215.6 211 210.6 212.3 211.8 212.1 212.1 212.4 220.7 224.8 229.9 240.1 247.9 262.5 282.1 308.7 347.7 387.4 427.3 448.4 459
657.3 658.9 660.8 661.8 663.8 664.7 664.1 664.4 663.7 662.1 660.8 665.6 672.4 677 682.9 681.8 673.6 668.5 675.8 690.7 709 726.7 735.7 740.3 742.3 743.7 745.5 745.6 742.1 734.3 722.6 695.2 661.3 652.2 634.1 620.8 617.8 610.4 596.6 577.2 571.8 570.9 579.3 594.8 600.3 610.9 630.2 654.1 662.6 660.8 657.4 645.9 631 616.6 605.2 596 589.5 569.9 550.8 539.2 530 520.3 512.4 506.2 499.8 490.7 479.2 471.9 463.6 451.1 438.9 431.3 421.5 408.4 399.1 392.5 386.4 378.7 362.5 359.1 358.3 354.9 354.4 355.5 356.7 357.5 360.7 374.4 381 387.8 395.6 402.2 407.7 408.8 412.3 412.1 403.5 390.8 382.7 374.1 372.3 361.2 351.4 346.6 343.2 341.2 339.3 328.6 336.5 336.4 336.6 336.4 338 338.2 341.1 345.3 353.3 356.4 363.7 373.3 382.2 388.4 405.8 411.1 423.7 417.1 421.2 410.1 412.5 410.9 399.2 386.4 373.2 360.5 360.4 364.9 367.4 342.9 334.7 335.2 338 330.7 317.9 306.8 297.4 295.9 294.4 293.5 288.2 286.7 286.7 282 280.4 282.8 282.9 289.4 298 306 312 318.7 325.7 333.6 338.7 338.8 331.9 327.5 327.6 328.2 325.7 320.8 316.3 311.2 313.1 312.6 303.5 284.8 277 269.3 254.2 237.4 224.2 214 212.5 211.4 211 210.9 210.8 210.5 210.8 212.7 218.9 230.4 244.9 264.3 292.5 338.2 387 422.4 442.3 458.6
655.4 658.8 664.5 669.4 673 675.4 677.2 678.8 678.8 678.8 679.5 684.6 692.3 697.9 703.2 701.3 694.1 689.2 696.4 708.5 722.3 733.3 739.5 744.9 747.5 748.4 750.3 748.8 746.4 737.9 724.2 687.5 662.7 648.4 635.6 631.9 623.1 611.3 600.2 588.5 584.7 588.9 604.2 632.3 637.2 648.7 664.7 675.1 673.9 671.2 666.3 657.3 638.1 617.2 600.8 588.2 578.6 555.4 540.3 528.5 521.2 513 504 496.7 488 480.2 469.8 461.6 453.8 443.9 436.7 426.4 417.2 405.4 396.1 391.1 384.8 374.6 374.1 369.6 365.9 368.2 365.6 363.4 363.3 365.7 378.6 391.4 401.8 404.8 414.6 424.5 429.3 434.8 436.6 436.7 434.6 422.5 413.9 405.1 394.8 384.8 371.8 366.5 363.3 358.8 353.2 349.2 353.6 355 355.6 358.9 356.4 359.1 363.5 370.3 375.6 368.2 387.1 397.8 407.3 416 432.3 446.3 447 458.3 455.7 445.6 449.9 438.9 425.6 414.7 411.1 391.6 388.4 392.8 400 385.7 363.2 361.9 367.6 357.2 341.2 333.1 330.5 320 323.5 319.7 310.5 305.2 302.1 300.1 299.9 301.4 303 309.8 317.6 326.8 330.4 336.7 345.5 352.9 359.6 362.2 363.4 365 360.7 365.6 369.4 366.7 357.2 347.2 347.9 346.2 334 326.7 313.1 310.5 289.1 264.5 247 236.3 224.1 213.7 212.7 212 211.5 211.5 210.1 210.2 209.3 214.2 223.8 240.4 273.2 313.3 355 392.7 428 461
654 660.6 668.4 677.9 682.1 686 688.6 690.5 691 692.3 696.4 702.2 708.1 713.1 718.4 718.5 710.5 712.3 721.5 730.7 734.3 743 748.3 750.7 753.9 755.1 754.9 752.4 747.6 740.2 723.6 683.6 665.2 645.9 641.3 638.1 628.6 617.9 607.6 601.9 601 604.2 628.6 651.7 665.3 677.5 680.2 680.3 678.9 676.6 669.5 657.9 638.8 613.3 591.4 572.7 562.2 544.4 532.4 521.1 513 503.4 493.8 486.2 479.8 472 464.6 456.4 449.1 440.4 431.6 425 416.7 403.8 398.8 394.6 387.8 382.2 375.8 375 375.2 375.9 374.6 370.6 372.3 378.5 394.1 406.1 419.3 426.5 433.2 443.3 452.1 461.3 465.9 470.4 461.8 456.4 446.5 428.1 422.4 409.7 395.6 386 379.1 377.6 370.7 370.9 374.7 375.3 375.2 376.3 373.2 380.6 387.5 390.8 394.2 400.3 405 421.5 432.1 444.7 458.4 475.3 493.3 492.7 489.7 479.8 485.4 467.1 450.4 434.1 425.2 421 412.6 415.1 435.5 426.7 398 394.3 394.7 388.6 365.9 361.2 354.5 348.6 346.6 337.7 327.8 320.9 314.8 313.2 318 317.5 318.5 324.9 335.6 340.5 345.5 352.1 357.8 366.1 377.7 385.5 395.6 402 399.7 407.7 415.6 413.8 404.9 392.9 390.2 391.7 377.5 365.8 345.7 340.6 323.6 291.6 273.1 257.2 238.2 227.5 218.6 213.1 212.2 211.3 210.6 210.8 211.3 209.4 212.8 233.9 263.7 297.4 337.3 379.8 422.2 461.4
653.7 662.6 674.8 686.2 691.6 697.4 699.7 699.8 702.8 706.2 712.4 717.4 722.4 729.4 734.9 735.3 735 734.8 740.9 747.6 750.7 755 757.9 759.7 761.1 761.7 759.3 756 750.7 740.7 715.2 686 662.7 657.5 647.3 641 632.6 623.2 617.9 613.5 616 628.3 648.8 662.8 674.4 680 682.7 683.1 683.8 680.4 667.3 650.7 627.7 597.4 574.9 557.2 546 528.7 521.3 513.6 506 496.7 488.4 480.3 473.3 466.4 460 451.7 444.7 438.3 432.7 427.4 417.8 407.6 396.1 389.7 387 378.8 379.1 384.3 385 382.3 380.3 375.9 384.6 392.7 408.2 425.7 438 449.1 458.5 466.7 474.1 480.9 491.3 495.8 493.4 476.5 465.6 448.4 436.1 422.3 410.9 407.7 404.2 401 392.1 390.2 389.6 389.3 391.1 392.8 394.2 399.7 403.4 409.1 417.6 426.8 426 440.3 450.3 467 483.9 506.7 528.2 531.6 521.8 513.9 518.4 491.1 468.4 452.2 435.1 439.2 441.9 441 452.2 454.8 439.5 428.5 429.3 418.4 401 380 371 362 362.3 355.4 351 345.2 335.7 333.3 333.1 332.2 331.3 339 349 357.2 362.2 367.5 373.6 384 395.8 402.3 413.3 423.4 433.6 446.8 462 459.2 452.9 443.8 436.3 435.7 423.6 404.1 384.4 374.1 349.4 319.6 303.6 282.7 261.2 241.7 225.3 214.8 212.8 211.6 211.1 211.4 210.6 210.8 211.2 229.9 259 293.7 334.8 380.1 426.6 462.1
