ncols 200
nrows 87
xllcorner 350000
yllcorner 460550
cellsize 50
29.2 27.1 29.6 31.5 28.9 21.5 17.9 17.4 15.8 15 15.9 16.7 18.3 19 20.4 22.4 25.1 27.9 33.8 36.3 36.8 37.6 38.9 37.3 38.3 36.6 22.8 12.4 9.7 9.7 14 18.5 19.3 19.7 20.3 19.8 18.2 15.8 14 9.7 16.8 28.1 31.3 26 13.8 9.7 9.9 14.2 13.9 13.6 13.4 15.8 19 17.1 22.1 23.4 23.8 23 23 23 22.9 23 23.2 22.5 21.6 21.7 21.4 20.9 22.3 22.4 22.1 21.9 20.7 20.5 20.3 19.5 19.8 23.2 28.1 28.9 26.7 25.5 25.8 23.9 30.9 32.8 34.7 34.7 40.9 45.4 47.3 48.5 52.7 58 63 68.3 71.4 72.7 74.5 78 81.3 80.7 80.8 81.9 84.3 84.6 86.5 90.6 84.6 73.9 78.4 97.6 118.6 121.6 124.6 131.2 138.3 144 148 152.3 156.1 157.9 162.4 174.4 178.2 178.8 179.1 180.9 182.9 185.3 187.5 190 191.7 194.4 197.2 199.7 202.2 204.2 209.4 211 212.9 216 217.9 221.9 223.4 227.8 230.6 233.9 236.1 239 240.6 227.1 227.4 227.9 231.4 235.8 242.9 245.1 249.4 258.8 272.6 280.7 281.9 283.9 285.4 281 286.7 286.2 284 285.7 295.8 293.9 302.1 304.3 306.1 306.6 304 298.8 297.4 291.4 282.3 278.9 277.5 277.5 277.5 277.3 276.5 274.6 270.1 266.6 263.9 261.9 259.3 256.3 252.2 247.5 243.3 238.8 234.2 228.9
24.4 21.8 23.8 18.3 16.8 14.9 12.9 13.1 12.8 13.5 14 15 16.3 18.1 20.4 21.9 22.9 29.9 36.4 40.3 39 37.8 38.7 38 38.4 22.4 9.7 9.7 9.7 16.9 17.6 20 20.9 22 22.5 22.8 23.4 22.2 15.4 9.7 9.7 27 28.8 23.6 9.7 10 13.5 13.6 13.1 12.6 22 22.5 23.3 20.5 24.8 24.8 23.9 24 23.6 24.1 23.4 23.5 22.9 22.7 22.4 22.6 22.6 21.8 21.3 22.2 22 21.7 20.5 20.5 20.3 20 25.6 31.8 33 34.4 30 27.5 25.2 27.1 31.9 36.9 38.9 42.9 48.3 51.4 53.1 54.5 56.7 61.5 67.7 72.3 74 74.3 76.7 80.6 81.5 83.8 84 84.6 84.3 86.1 89.6 94.7 91.9 77.5 83.4 102.6 116.6 121.7 127.6 134.4 141.7 146.2 149.7 154.3 156.5 157.6 164.5 176.6 178.9 180.5 182.1 184.9 187.7 189.9 191.3 193.1 195.2 198.2 200.7 206.7 210.7 213.4 210.7 219.7 221.4 225.2 227.9 230.6 231.6 235.4 238.4 238 240.9 243.1 245.5 246.3 231.2 235.5 237.4 244.8 245.3 248.3 254 263.8 270.7 279.5 286.2 291.9 295 290 297.3 298.7 297.6 301.6 306.4 304.8 308.9 309.8 310.9 312 311.7 307.4 301.3 296 286.6 281.8 279.9 278.8 278.5 278.1 277.2 275 272.5 269.1 266.3 265 261.9 258.4 254.6 250.7 245.9 240.9 234.8 228
16.4 16.2 16.5 16.5 15.2 12.2 11.1 10.4 10.9 11.2 12.6 13.4 14 15.1 19.1 17.3 22.5 32.3 37.1 39 39.6 38.1 37.7 35.7 27.2 8.7 9.6 9.7 16.8 19.4 20.1 21.8 22.9 24.1 24.2 24.4 24.3 23.8 23.5 10.2 9.7 22.8 26.7 16.8 9.8 13.1 11.6 12.3 13.3 20.7 23.1 23.7 23.6 23.5 24.8 24.8 24.8 24.8 24.2 24.9 25 24.5 23.4 23.4 23.1 23.4 22.8 21.9 22.6 21.1 21.5 22.1 21.5 21.1 21 24.9 33.7 35.4 35.7 36.3 31.2 26.8 29.5 29.1 38.1 40.4 43.2 48.3 52.4 55.3 58.3 61.8 65.5 70.3 74.6 77.4 76.2 75.9 80 81.5 80.4 82.4 85 85 85.6 87.7 92.2 97 95.7 78.5 86.8 106.1 116.4 122.7 129 138.5 143.6 145.3 150.5 153.2 154.2 157.5 165.6 173.9 179.2 183.4 186.9 189.1 191.8 193.6 195.5 200.5 203.6 206.3 207.4 212.5 216.6 219.2 221.3 220.6 227.3 230.3 233.8 236.6 239.3 241.2 244.3 246.4 247.4 249 251.1 251.7 238.1 238.7 239.6 240.9 244.2 254.2 257.3 261.2 278.4 283.9 291.2 297.7 301.2 303.2 306.9 309.4 309.1 310.7 311.6 312 313.3 314 315.3 315.2 315.4 311.3 304.3 299.3 290.4 285.4 281.8 280.9 280.2 279.5 278.2 276.6 276.2 274 270.9 267.7 264 260 256.1 251.8 246.8 241 233.9 226.4
12.9 13.7 12.8 12.4 11 9.5 6 7.7 7.7 12.4 12.2 12.3 12.9 13.3 14 14.6 20.1 23.3 29.7 35.7 37.1 28.8 19.9 15.1 7.8 7.8 7.9 14.6 19.8 21.7 22.9 23.7 23.3 24.9 25.7 27 27 28.3 28.3 13.5 9.7 19.9 25.2 16.1 9.8 16.1 21.4 22.3 22.3 22.6 23.7 24.3 25.2 23 24.9 25.2 25.1 25.5 24.6 25.2 25.8 25.5 25 24.6 24.5 24.7 23.3 22.3 22.4 19.8 20.8 21.9 22.7 23.5 31.4 34.7 35.3 36.1 36.1 37.1 36.3 29.5 30.6 34.1 35.7 41.4 44.9 50.4 54.8 59 62.8 66.5 70.8 75.3 79.1 80.5 78.1 78.6 80.7 79.6 80.2 84 87.7 86.6 88.1 91.1 95.1 96.5 88.2 78.7 90.7 107.3 117.6 124.2 133.7 140.8 143.3 145 150.4 154.5 157 161.1 166.8 175.5 182.4 187.1 189.8 193 195.4 198.7 202.5 205.5 208.7 211.2 211.5 217.4 220.8 224.3 227 228.5 232.2 235.3 237.3 240 243.4 245.8 248.9 251.3 251.9 253 253.5 248.3 245.2 243.3 244.5 245.8 250.4 257 261.3 264.6 271.8 286.9 297.4 303.9 303.7 308.4 312 314.7 314.9 314.9 315.7 316.4 317.7 318.8 319 317.7 316.6 312.4 306.7 301.5 293.6 286.9 284.3 283.5 282.8 282.4 280.8 279.5 278.7 276.8 273.4 270.6 266.5 261.6 257.4 251.2 247 240.3 232.2 223.2
9.5 9.8 11 5.3 5.5 5.6 5.6 5.6 5.5 5.5 5.4 5.3 6.2 11.8 11.7 12.4 13.3 14.1 19.2 23.3 22.1 11.7 7.8 7.8 7.8 11.3 18 23.1 29.4 32.7 34.7 39.4 38.3 31.8 31 31.9 33.8 35.1 32.3 16.8 9.7 16.4 24.1 20.2 9.7 17.8 20.3 21.5 22.5 22.8 24.2 25 24.7 24.5 26.3 26.5 26.8 26.6 26.1 25.7 25.9 26 25.8 25.5 24.6 24.3 24 22.7 22.7 19.6 23.3 23.6 33.7 35.8 35 32.9 33.4 35.4 35.8 34.7 35.2 33.2 32.7 37.6 37.1 38.9 43.7 49.8 56.1 62.6 67.3 70.4 74.3 79 80.9 79.5 78.3 80.9 80.6 79.7 82.9 86.8 87.3 87.6 90.2 93.4 94.9 95.5 81 81.5 88.1 103.6 119.7 128.6 136.1 139.2 139.8 144.9 151.4 157.2 160.9 167.3 174.4 180.6 185.8 190.3 194.2 197.4 200.4 203.1 206.6 209.9 212.2 215 218.1 221 225.1 228.4 231.6 234.3 235.1 239.2 243.1 245.6 247.8 250.7 252.3 256.3 257.1 259.1 260.8 257.6 250.3 254.9 258.8 261.6 263.5 260.8 278.6 289.3 289.9 283.6 282.6 295.3 302.7 309.1 313.2 317.6 319.5 320.2 320.1 320.5 321 322.1 323.2 322.1 317 313.4 308.1 302.6 293.9 288.7 287.7 286.9 286.4 285.3 283.9 282.4 280.6 278.6 276.2 272.4 268.9 263.8 259.6 253.6 246.2 239.1 230.7 221
5.4 5.5 5.6 5.7 5.9 8 7.2 6 5.8 5.9 5.9 5.8 5.7 5.7 5.6 5.5 5.4 5.3 6.4 5.3 6.6 7.8 7.8 11.9 18.7 21 28.8 34.2 36.6 38.1 37.4 38.6 38.7 37.8 37.2 37.9 37.1 37.3 36.9 22.1 9.7 12.9 24.7 21.9 9.7 13 18.4 22.1 22.8 23.6 24.6 25.3 24.2 25.7 26.8 26.7 28 27.6 26.9 26.4 26.6 27.5 26.5 26.4 25.6 25.4 25.4 23.9 24 22.4 24.3 24.6 28.7 28.2 29 29.7 30.4 31.9 34.3 34.4 35.1 34.4 35.8 39.6 41.9 41.2 42 49.8 57.8 65.9 68.7 71.2 75.9 78.8 77.9 76.3 78.7 80.6 79.8 81.9 85.4 86.5 87.4 88.5 91.6 94.8 96.8 90.8 81.1 88.1 99.9 118.3 125.7 131.6 135 138.5 145.1 151.3 157.1 162.1 168.6 175.8 179.4 185.1 191.1 194.2 198.2 200.7 204 207.1 210.9 214 216.6 220.8 223.1 225.8 230.3 234 236.5 239.2 240.4 244 248.1 250.7 251.1 254.9 257.3 260 263.4 262.3 267.9 268.9 261.6 268 272.2 275.6 281.6 288.8 293.3 295.1 297.8 298.8 301.7 303.3 290.7 308.9 315.5 318.8 322.9 323.7 324 324.1 324.3 325.9 326.8 321.2 318.1 314.8 309.7 304.1 295.5 291.6 291 290 288.9 288.1 287.4 284.9 283.8 281.4 277.2 273.6 270.1 266.9 260.6 254.4 246.7 237.9 229.7 219.2
6.6 8 8.5 9.4 9.9 10.9 11.3 11.4 11.8 12.1 12.2 11.8 11.6 11.4 11.2 10.1 8.8 6 5.9 8.5 15.7 19.1 23.6 29.1 33.2 36.5 36.8 38.2 39.5 42.5 46.7 46.2 40.8 40 43.6 41.7 39.5 45.3 36.7 29.3 9.7 9.7 24.4 21.8 9.7 10.3 15.7 21.9 22.9 22.7 24.2 22.4 24.9 27.5 30.2 29.6 28.8 30.7 28.5 28.3 27.2 27.3 27.2 26.9 26.9 26.7 26.5 24.8 24.5 23.1 24.9 28.3 30.6 34 31.6 34.1 32.9 31.8 35 36.1 35.9 36.6 35.9 40.5 41.6 41.9 42.5 49.6 60.3 66.2 66.8 70.8 74.1 74.6 73.6 75.2 78.1 78.1 81 83.6 85.5 86.6 88 92.9 96.6 97.1 93.9 84.3 85.6 100 112.4 122.7 129.6 134.5 140.2 145 150.5 156.4 160.6 167 176.1 182.3 185.9 189.9 194.1 198.1 200.9 204.2 206.1 208.8 214.9 217.3 222.3 226.5 230 233.5 235 238.4 240.6 243.1 245.4 247.1 250.9 253.9 255 259.4 262.9 263.9 270.3 272.3 275.5 277.9 277.9 283 286.6 284.3 293.2 298 298.7 300.6 302.2 304.4 305.8 308.2 311.3 301.7 316.2 320.1 323 324.7 325.7 326.9 327.5 327.6 325.3 321.2 318.5 314.1 309.1 304 297.7 295.2 293.6 292.5 291.6 290.4 290 288.8 288 284 279.4 275.5 271 266.4 260.4 253.4 244.9 237.1 228.5 218.8
23.6 24.5 17.8 16.3 13.1 12.4 12.3 12.8 13 13.5 19.4 25.6 27.5 25.6 26.2 26.8 30.6 32.3 28.1 29.4 33.8 37 37.1 38.4 39.9 42.6 40.6 40.3 41.9 45 50.6 47.4 44.3 44.1 49 46.8 42.6 52.3 38.2 33.4 12.9 9.7 22.8 14.3 9.7 12.3 16.9 15.9 17.2 20.2 18.7 22.1 22 26.6 30.3 31.8 30.4 31.9 29.4 28.8 28.2 27.4 28.1 27.7 27.7 27.7 27.5 26.4 26.2 24.6 25.7 26 27.8 29.3 28.5 34.2 39.6 37.6 38.2 37.2 36.7 37.5 38 39.3 41.9 44.2 45.1 48.1 55.7 61.5 64.5 68.6 70.3 69.5 69.8 73.7 74.3 76.9 78.1 78.5 80.6 84.1 90.1 96.9 95.1 91.4 86.7 87.4 95.6 106.3 114.9 122.7 132.4 138 145.3 149.9 154.5 156.6 165.4 174 180.1 185.2 190.1 194.2 196.5 200.4 203.9 206.7 210.1 215.3 218.6 225.6 229.5 231.1 235 238 238.9 241.7 245.1 247.1 248.8 252.1 254.6 258.1 260.7 261.7 266.6 270.3 272.4 279.6 281.4 285.5 284.5 288.9 293.9 293.2 297.1 300.7 302.4 306 308.6 308.6 309.6 312.2 315 308.3 311.7 319.6 321.8 324.7 326.3 328.1 328.7 327 322.9 319.9 317.8 314.9 308.7 302.7 299.6 297.6 296.8 295.8 294.3 292.6 292.1 291 289.5 285.8 281.6 277.7 272.7 267.4 260.5 252.7 243.4 232.8 225.5 216.8
25.3 25.6 28.2 26.1 14.4 13.9 10.6 14.3 14.6 18.3 28 32.8 38.7 43.6 41.4 37.7 37.6 37.6 38.3 38.9 38.4 37.6 38.4 40.5 43.2 45.5 42.7 41.1 43.1 44.3 49.9 49.5 47.9 51.7 52.2 49.2 56.1 56.5 39.4 34.9 24.9 9.7 12.7 9.6 9.6 14.7 18.1 24 23.8 25.4 27.5 31.5 30.8 22.8 28.1 33.4 31.2 33.2 30.3 29.4 28.6 28.4 28.9 28.8 28.3 28.1 27.3 26.8 26.9 26.2 26.3 27.4 30.8 31.4 32 33.8 36.7 38.7 37.5 37.8 38.9 40.7 40.7 37.8 42.9 45.7 46.3 46.9 48.9 56.2 62 63.3 63.9 63.3 65.9 68.5 67.9 70.1 71.7 73.1 77 79.7 86.5 91.5 89.7 86.4 86.2 90.5 104.2 112.5 119.9 127.7 134.2 140.7 146.3 148.7 149.8 155.6 166.8 174.9 181.1 188.1 192.3 195.7 199.4 205 207.9 212.7 215.9 221.5 226 230.6 233.8 235.9 238.8 241.6 242.8 244.6 247.3 249 251.4 255.6 259.1 261.3 264.1 266.2 269.6 274.3 276.2 279.6 285.3 291.7 291 292.3 295.8 298 297.7 301.4 304.4 308.7 313.8 314.2 315.8 317.6 317.4 312.2 310.7 320.2 322.4 324.8 326 328.4 329.8 325.5 321.1 319.3 317.8 315.3 309.4 305.5 302.7 300.8 299.6 298.7 297.8 295.6 294.3 293.6 291.3 287.7 283.2 277.8 273 266.4 259.6 250.4 240.1 230.8 223.8 214.5
25.1 26.2 26.2 23.2 18.6 17.8 11.6 18.6 22.4 25.9 31.5 34.9 43 45.3 41.3 37.2 38.3 37.2 36.4 37.3 38.5 40 41.7 45.6 45 43.1 45.1 42 43.6 45.4 46.7 47.6 49.7 57.1 56.9 55.9 60.9 53.7 39.5 37 32 9.7 9.7 9.6 15 14.9 23.3 26.5 27.5 27.9 27.8 32 33.1 28.5 27.7 32.1 30.1 32.8 31.6 29.9 29.9 29.6 29.6 29.7 29 29 28.2 27.2 26.3 26.9 27 27.1 28.9 30.8 32.2 33.6 34.2 36.3 38.3 40.6 42.2 43.4 44.6 43.2 43.5 47 48.8 48 48.6 51.5 55.1 56.5 56.8 57.3 59.1 61.4 61.6 63.5 66.4 68.8 71.4 75.3 81 84.6 86.6 89.9 94.8 100.8 111.1 117.2 123.6 130.9 136.3 141.8 145.4 145.4 150.8 162.4 170.4 177.4 183.3 188.5 193.2 198.4 205.3 210.4 213 217.7 222.9 227 230.4 233.4 236.3 238.3 241.1 243.3 245.2 246.4 248.8 251.9 254 257 262.3 266.6 270.4 270.3 272.5 277.3 280.5 284.8 288 291.5 293.6 294.6 298.1 300.5 302.1 304.1 309.4 312.8 317.3 319.8 321.4 321.7 320.5 314.3 320.7 321.3 324 325.4 326.9 328.1 328.4 324.6 320.8 317.5 315.7 313.7 309 304.9 301.6 301.2 301.1 300.5 299.3 298 297.2 296.1 293.9 290.5 285.2 278.7 272.6 264.9 258.3 248.9 238.5 229.5 221.4 213.3
25.2 26.1 27.2 26 22.8 17.6 12.7 20.2 26.9 28.3 32.2 36.7 43.6 44.3 39.4 37.6 36.1 36.9 36.7 37.6 38.8 40.9 44.2 49.1 50.8 43.7 47 46.3 44.2 47.6 51.5 52.6 56.7 60.1 59.4 57.9 57.9 49.3 39.9 40.6 41.2 19.3 13.8 14.4 15.6 18.6 25.4 28.3 28.7 28.6 31.2 32.4 34.7 35.2 27.7 30.2 32.4 34.2 31.9 31.9 30.6 30.6 30.6 30.6 30.3 29.6 28.9 26.5 27.5 27.3 27 29.5 32 33.4 35.6 36.7 38.1 40.1 41.7 43.1 44.3 45 45.3 46.1 44.7 48 50.7 53.5 55.5 56.6 58.4 58.1 57.5 58.1 59.1 63.4 69.6 74.9 75.6 76.8 76.3 76.8 79.1 84.6 91.5 97.9 102.3 109.1 115.6 123 128.7 131.5 139.7 140.8 144.9 154.3 162.9 167.4 174 180.7 186.4 190.8 195.7 201 208.8 214 219 222.1 226.5 230.2 233.5 235.7 237.1 239.6 243.2 243.6 245.4 247.9 250.8 255.6 255.9 260.9 265.6 270.9 270 273.5 277.5 278.8 282.6 288 291.4 294.3 296.5 297.5 301.2 303.6 306 309.5 311.3 316.6 320.7 322.7 322.3 322.2 321.2 320.3 321.6 321.8 325 326.4 328.1 328.9 328.6 324.7 320.7 317.2 314.8 312.7 309.1 305.9 302.1 292.2 299.5 299.4 298.9 298.5 298 296.9 295.1 291.5 285.9 279.1 271.2 263.5 255 246.2 237.4 226.9 218.5 210.9
25.3 27.8 27.8 26.3 22 20.1 16.8 23.7 28.7 30.1 32.6 37.7 42.4 41.8 37.8 36.2 36.5 36.9 37.2 38.1 39.4 43.3 47.5 48.6 49.2 47.5 49.4 53.7 46.5 46.9 47.7 56.1 61.3 61.6 60.1 57.8 57.1 50.8 39.8 40.4 41 31.1 20.2 21 21.8 23.9 26.7 27.1 27.7 30.1 32.6 35 37.7 41.3 33.5 31.3 34 34.9 32.4 31.6 32.1 31.8 31.3 30.7 31 30.3 27.9 28.8 28.4 28.1 30.6 35.5 37.8 38.7 39.9 41.1 42 43 45 46.5 50.7 52.2 52.4 50.1 48.5 49.2 50.2 58.9 62.6 66.7 68.3 69.3 66.5 63.5 63.9 72.5 78.4 82.4 84 85.5 88.6 91.8 91 95.2 99.6 103.5 107.4 115.3 120.4 125.4 130.9 136.7 141.1 143.3 153 161.2 165.6 169.2 178.6 184.7 190.6 193.8 199.4 206.3 214 218.3 221.5 225 229.8 232.2 234.2 236.9 237.6 239.6 241.8 244.7 246.7 248.4 256.3 255.2 259.6 264.7 267.2 270.9 275.5 278 281.1 283.6 285.4 288.7 294.8 298.2 300.8 302.4 305.9 308.2 311.2 314.4 316.1 320.1 322.8 324.6 324.9 324.8 324.4 324.5 324.1 325.3 326.1 327.8 329 329.6 328.4 323.9 321.2 318 316.3 315.1 312.9 310 306 296.3 285.2 292.9 295 294.9 295.9 295.9 293.5 290 284.3 277.1 268.6 259.5 251.1 242.4 233.8 223.7 215.5 208.8
27.3 28.1 27.5 26.1 24.7 24.2 23 26 30.8 30.5 32 37.2 38.5 37.4 36 36.1 37.4 38.5 38.2 38.7 40.2 43.5 47 48.7 49 48.6 54.4 56.1 58.1 59.7 53.4 55.9 57.2 62.8 57.1 57.1 57.1 56.3 40.5 43 41.5 39.4 28.9 27.3 30 27.8 26.7 28.1 31.3 33.5 35.9 38.2 39.1 41.1 34.8 30.6 34.7 35.4 33.6 32.7 32.7 32.6 32.2 31.7 31.7 26 29.3 29.9 29.2 33.2 36.7 39.1 41.2 40.9 41.7 43.1 44.4 47 48.5 52.7 55.6 59.2 59.5 57 54 59.6 55.4 55.4 67.5 71.3 74.1 74.5 74.6 75 75.6 78.6 83.8 87.3 89.3 90 94.1 98.3 101.6 103.8 106.7 109.7 112.3 119.1 123.3 127.3 133.1 138.2 145.6 151.1 158.5 162.9 169.6 180.1 183.4 187.5 192.7 197.3 204.6 210.9 216.3 219.9 222.8 225.8 229.9 232.5 233.6 234.2 237.3 240.7 244 246.6 248.6 250.5 253.8 260.8 263.6 267 267.7 273.9 277.7 282 283.8 287.1 289.2 293.2 298.1 300.7 304 307 308.8 311.9 315.7 318 320.2 322.4 324.6 327.3 327.6 328.8 329.6 329.3 328.2 327.7 328.6 329.2 329.7 329.5 327.2 325.5 322.7 319.7 318.6 317.7 316.7 315.3 312.4 303.8 296.2 281.7 288.3 286.2 288.9 291.7 291 287.3 280.9 271.1 263.4 254.5 246.5 237.1 228.4 219.7 212.8 206.8
27.2 28.2 27.6 28.4 30.4 27.9 25 23.2 28.5 30.3 32.4 35.1 35.1 35.3 35.5 37.5 41.5 41.6 38.6 39.8 40.6 42.2 44.6 46.9 48.1 50.4 53 57 61.2 66.9 62.2 61.4 54.7 63.7 57.2 57.5 57.5 53.3 40.4 40.9 39.2 37.7 28.8 35.2 33.2 30.8 30.2 31.9 33.6 38.3 42.4 42.9 40.4 41.3 35.7 30 34.5 35.8 34.4 33.4 33.7 33.5 33.1 32.7 31.7 27.4 30.5 30.2 33.2 36.1 39.7 40.7 41.3 42.9 44.8 47.7 51.3 53.5 54.3 57.9 63.4 66.8 66.2 59.3 60.9 65.1 63.6 56.1 67.4 70.9 73.2 74.7 76.5 78.9 81.7 84 86.1 90 92.7 95.2 97.6 102.9 108.3 110.5 114.8 117.7 119.9 121.4 124.4 130 135.5 141.6 149.6 156.3 160.7 169.5 176.8 181.7 186.2 190.7 194.4 200.2 206.6 211.5 217.4 220.3 223.3 227.9 227.4 231.2 234 236.2 238.9 241.6 243.6 246.8 250.5 253 256.6 260.6 264.8 268.7 271.9 276.2 280.4 283.7 287.5 289.4 293.8 297.4 300.4 303.4 306.9 309.6 312.3 315.1 318.3 321.8 324 326.5 327.9 329.6 331.5 333.2 334.2 333.4 332.5 332.3 332.5 331.9 331.6 330.3 329.4 327.5 325.7 323.1 321.2 320.5 319.6 318.4 314.7 306 296 284.9 270.5 278.5 280.9 284.2 286.6 283.2 276.9 266.7 256.5 248.2 239.9 231.2 222.3 216.7 209.3 201.7
28.7 28.7 29 28.9 29.4 29.7 27.6 26.8 21.1 28.4 30.7 32.2 32.6 33.7 36.9 39.9 44.4 43.9 40.4 41.7 42.7 43 44.2 46.3 49.1 51 55.7 60.4 64.9 68.2 66.6 61.5 56.2 62.5 57.1 59.7 59.6 44.5 40.3 38.6 37.5 29.3 37.5 41.6 40.1 36.3 35.2 38.8 38.2 44.5 47.5 44.5 46.5 45.6 36.5 31.7 36.2 36 35.3 34.7 34.3 34.1 33.9 33.6 32.3 29.3 31.1 34.4 38.2 40.4 40.5 41.7 43.3 45.8 52 58.1 60.3 60.7 61.2 64 69.6 71 68.6 62.3 64.5 67.2 68.7 56.4 66.9 70.3 73.7 75.4 77.2 80.1 83.3 85.9 88.2 92.4 95.2 96.7 97.8 106.5 110.8 113.2 119 120.7 119.7 121.5 126.2 131 137.1 145.9 151.5 159.5 168.3 175.6 180.3 184.8 189.7 194.7 198.1 202 206.2 211.8 215.3 220.1 223.3 226.6 228.3 231.9 236.2 238.9 241.2 243.7 246.6 248.9 251.7 254.8 258 256.6 262.7 269.5 272.5 276.5 281.3 286.5 287.6 292 295 298.7 302.3 305.9 309.6 312.8 315.9 319.2 321.9 324.5 327.9 329.9 332.1 334.3 335.8 337.3 337.9 337.9 339.5 338.5 337.1 336.4 335.1 334.2 332.8 330.3 330.6 328.3 326.6 325.4 324.2 322.8 318.5 308.8 297.2 287.5 281.2 260.7 273.9 276.5 278.8 277.6 271 260.7 250.1 242.3 231.7 224.9 217.2 211.9 205.3 198
39.3 36.8 32.4 30.7 29.2 28 27.8 27.3 23.2 25.7 27.9 30 31.2 35.3 41.4 48.5 48.6 45 42.1 43.9 45 45 46.9 49.8 54 57.1 62.9 65.8 68.4 68.6 67.1 64.9 59.7 59.6 62.9 55.2 54.5 45.5 41.5 37.1 37 32.2 39.7 42.5 43.6 44.5 44 44.5 43.7 47.1 46.8 42.8 48.8 47.4 36.1 34.4 36.5 35.5 35.7 35.7 35.5 34.5 35.2 34.4 28.1 32.1 32.2 37.6 40.1 42.5 42.7 43.9 46.1 52.8 59.6 64.8 66.8 68 67.6 71.1 74.8 73.1 67.9 66.6 67.5 69.2 70 59 69.2 72.6 74.7 76.9 78.8 81 83.7 86.2 88.5 92.1 95.6 98 99.6 105.1 111.8 117.4 119.4 117.8 119.6 123.4 127.4 133.8 141.4 148.2 156.1 163 170.4 177.6 183.6 189.1 196 200.9 203 203.6 206.5 211.4 215.1 216.8 220.8 224.1 228.4 233.5 238.4 242.7 244 246.2 248.1 250.4 253.4 257.3 261.2 264.6 268.3 271.7 274.2 278.1 282.3 282.2 288.1 292.9 297.1 300.4 304.2 308.3 311.6 315.5 319.1 323.2 326.7 329.5 331.9 334.5 335.7 337.8 339.3 341.3 343.2 344.2 344.5 343.6 342.5 341.8 339.9 339.3 337.8 335.3 334.2 331.9 331.2 330.5 329.1 326.3 318.8 308 294.7 287 279.3 271.1 256.9 264 269 267.2 260.9 251.8 241 234.1 226.9 217.3 210.9 205.8 199.9 192.6
50.2 45.8 42 37.3 32.2 28.4 28.1 25.4 27.6 29.1 29.9 29.1 31.6 39.6 48.4 52 50.5 48.1 44.5 46 48.2 47.7 49 50.5 52.9 61.5 69.1 74 75 74.4 71.7 68.9 66 60 61.8 56.6 51.1 44.7 39 37 39.1 35.2 38.9 40.9 43.9 47.2 49.9 49.4 49.8 49.2 47.9 46.1 50.9 44.2 35 37 37.1 36 36.3 36.4 35.9 35.5 35.6 35.2 30.3 32.9 33 37.7 41.4 43.5 45.6 46.2 51.2 59.7 65 68.3 70.1 70.5 72.7 76.3 78.3 74.1 69.2 68.6 69.7 71.5 71.4 63.8 71 75.1 76.9 79 80.8 82.9 85.2 87.1 90.7 94.8 98.2 102.3 102.4 106.5 114.7 117.5 116.1 116.8 120.6 124.7 128.8 138.4 145 154.4 160.9 164.7 172.4 178.1 184.8 192.9 199.4 204.5 204.6 203.2 206.2 208.8 214.4 218 221.3 223.6 228.9 234.4 239.7 244.3 246.6 248.2 249.7 252 255.4 258.4 261.4 263.4 266.8 270 273.9 276.8 278 283.2 288.6 293.8 299.1 303.4 307.1 310.4 315.2 320.4 323.7 327 330.5 334.1 336.5 338.4 340.5 341.6 343.6 345.1 347.1 348.6 349 348.6 347.6 346.8 344.5 343 340.7 339.5 337.4 336.3 335 334.1 331 327.1 318.9 306.6 292.6 285.4 278.7 271 256.3 249.5 254 255.1 247.2 240.2 232.2 225.6 219.6 212.3 205.2 198.5 194.5 188.7
56 53.8 49.4 42.6 33 28.5 27.8 26.3 29.9 30.7 31.5 30.2 34 44.4 50.2 52.7 52.2 49.3 47.4 48.1 50 50.1 51.5 52.1 58.1 64.6 73.5 78.5 79.6 79.5 81.3 77.5 71.2 64.7 58.1 54 49.7 44.5 41.1 38.7 39.2 39.5 37.7 39.4 44.5 51 55.4 55.2 53.4 50.8 45.5 49 49.4 40.9 36.2 38.3 37.9 36.8 37.1 36.9 37.1 36.6 36.8 36.3 32.1 33.6 34.2 41.8 43.4 45.8 48.2 49.8 55 60.1 64.1 66.8 67.7 69.7 75 79.3 79.2 74.8 70.7 71.8 72.9 72.9 72.6 63.8 71.5 76.3 79 81.1 83 84.1 86.8 90.5 95.4 98.2 100.6 107.2 107.1 112.7 116.3 114.7 114.5 117.6 121.8 126.5 136.2 144.4 153.1 160.9 165.1 167 174.3 179 185.3 192.8 198.9 204 202.4 202.5 206.5 211.8 217 221.5 221.8 223.3 228.9 234.4 238.1 241.1 243.3 245.1 247.5 252.1 256.4 258.5 259.7 261.8 265.5 270 271.4 272.3 276.9 282.2 287.2 291.6 300.3 305.5 309 313.8 319.4 324.5 327.9 331.3 334.9 337.6 339.6 342 344.7 347.4 349.3 350.5 352.5 354.1 354.2 354 352.5 351.3 349.1 346.6 344.4 342.8 341.6 340.8 339 336.3 332.7 329 318 305 293.5 283.6 278.5 270.1 263.4 241.2 233.4 246 237 230.5 223.2 217.8 211.4 204.6 199.5 190.9 185.7 180.5
55.1 56.7 54.7 46 35.8 29.4 27.6 26.5 28.7 30.5 30.2 31.4 38.1 46.5 51.4 53.5 53.5 52.1 47.4 46.1 47.6 49.2 49.4 53.4 62.4 71.3 77.9 83.3 86.5 89.7 89.5 83.3 76.8 69.8 61 55.1 53.1 51 44.7 40.9 41.6 40.8 39.6 39.3 46.4 53.3 58.5 56.6 52.7 48.2 43.9 47.1 46.5 36.8 38.4 40.1 37.9 37.3 37.6 38 38.2 37.5 37.4 36.6 35.1 31 35.6 43.8 45.3 49.5 52.6 54.2 56.5 60.2 63.4 65.6 65.3 69.3 75 79.6 77.6 74.5 74.3 75.6 75.1 74.2 73.5 65.1 75.3 78.9 81 82.7 83.7 85.9 88.8 94.8 99.5 101 104.8 108.1 111 114 114.5 112.8 114.8 119 123.2 130 138.7 148.4 157.9 162.2 163.3 168.4 174 179.5 184.6 191.1 197.6 199.7 195.9 202.3 206.9 213.3 218.8 221.4 219.7 221.9 225.5 230.4 232.6 235.4 238.6 241.6 246.3 250.9 255.5 256.6 257.2 260.4 265 267.9 267.9 271.2 274.9 279.1 284.9 292.4 299.7 304.8 310.3 316.6 323.6 327.9 331.4 334.9 336 339.1 341.8 344.4 347.5 350.2 352.4 354.4 356 357.3 358.1 358.4 356.7 354.7 352.8 351.6 350.2 348.2 346.3 344.1 340.4 335.6 331.6 325.8 314.6 302.5 292.7 283.6 278.7 269.4 263.2 257 238.6 213.8 213.6 221.6 210.3 203.4 204.3 198.4 193.1 185.2 176.4 167.7
52.8 57 54.4 45.7 35.8 30.6 28.6 27.3 26.3 27.9 27.2 32.7 40.4 47.2 52.4 54.8 54.7 52.8 48.8 47.7 46.3 49.3 51 55.8 67.5 75.9 81.5 86.1 90.7 96.3 92.6 85.5 78.6 71.8 62.2 60.2 59.2 56.5 49.8 47.5 45.4 46 41.5 40.3 47.7 53.6 55.2 52.8 49.3 46.3 42 43.3 42.2 38 39.6 41.5 38.4 38.7 38.8 39.2 39.1 38.8 38.2 37.2 36 34.5 36.6 45.9 47.7 50.8 55 58 60.6 63.7 67.5 69.5 67.9 68.6 73.8 75.5 74.9 76.6 77.2 78 77.4 76.6 75.3 66.7 78.4 80.7 81.8 83.5 85.3 87.3 91.6 97.6 99.5 101.6 105.6 108.8 110.8 111.9 111.3 113.3 116.8 121.1 126 133.4 142 151.2 158.6 160 164.5 168.3 173.3 180.3 185.7 189.3 194.2 194.7 194.8 201 208.4 213.8 215.5 216.5 217.9 220.8 223.5 226.5 230 234.3 237.3 239.9 244.7 250.2 252.5 252 254.2 258.5 262.2 263.7 265.8 268.5 273.2 278.3 284.3 291 296.9 302.5 309.7 314.4 319.1 324.5 329.9 332.2 336.3 339.3 342.2 344.9 348 351.1 353.6 355.5 357 357.8 359.1 360.6 359.8 357.9 356.6 356.1 355.3 353.8 349.3 346 341.9 334.9 327.9 317.5 307.5 299.1 291.9 283.9 277.9 271.3 263.3 256.1 249.8 240.9 218.9 217.6 210.2 197.1 186.6 181.2 179.4 176.7 168.7 158.9
51.9 56.9 54 46.7 36.7 30 28.6 27.1 27.6 27.3 27.5 30.6 40.2 48 53.5 56 55.1 53.2 49.7 49.9 47.2 50.4 54.3 60.6 71.5 78.3 83.6 87.6 93.9 99.5 95.4 87.6 79.8 72.4 64.5 62.2 62.9 59.5 54.6 50 46.7 46 43 40.4 45 48.2 47.2 46.7 44.8 43.6 41.2 41.2 39 38.2 40.1 40.7 38.8 40.6 39.7 39.5 40.2 39.8 38.4 37.7 31.9 36.5 37.2 46.3 50.4 56.1 62.7 67.3 69.2 71.9 72.3 72.1 71 70.5 72.6 79.4 82.7 81 80.6 80.7 80.6 80.6 79.2 72.7 73.7 81.3 83.8 84.6 86.5 89.8 94.5 98.4 100.7 102.9 105.6 108 109.7 110.2 111.1 114.5 118.8 123.1 130 136.1 143.4 151.4 154 158.9 163.3 166.3 174.3 180.5 184.6 187.9 188.4 188.4 194 199.7 206.6 210.3 211.4 213.1 216.2 219.5 223.2 228 231.8 235.2 236.8 239.8 244 246.9 246.7 248.3 251.6 255.4 256.7 260 265.1 269.5 271.7 278.4 283.2 289.1 294.3 299.8 305.4 309.9 314.8 320.8 325.1 328.7 333.8 337.9 341 343.9 347.3 350.4 352.4 354.2 355.4 356.8 358.2 359.4 359.6 358.7 357.7 358.5 358.8 356.6 351 347.5 343.1 335.2 322 314 305.8 298.4 292 283.3 277.3 270.4 266.5 258.1 250.7 242.4 234.1 208.7 204.2 204.2 196.1 187.1 177.7 158.9 161.5 155.5
50.1 55.3 54.5 48.3 36.8 29.8 28.5 29.1 28.3 28.7 29.7 32 38.3 47.2 53.8 56.8 56.1 53.9 51.3 51.9 49.8 52 58.4 64.6 70.8 76.5 82.6 87.1 94 99.8 95.5 86.9 79.9 72.5 65.2 65.4 64.3 63.2 57.1 48.5 45.5 44.2 43.2 42.3 41.4 43.7 43.9 42.5 42.3 41.2 41.1 41.2 39.6 38.5 40.1 39.6 41.1 40.3 40.3 40.9 40.7 40.9 38.5 35.9 37 37.8 39.4 49 56.1 63.9 71.4 76.4 80.6 80.3 78.6 76.8 75.3 78.5 81 83.8 85.5 83.6 84 83.8 83.9 83.7 81.8 77.3 70.3 79.2 83.8 86.8 89.1 92.8 96.4 97.3 99.5 104.1 106.5 108.5 109 109.7 111.9 116.4 121.8 129.6 135.6 141.3 144.9 149.3 153 156.9 160.1 165.2 173.1 178.4 182.2 184.2 183.5 189.1 192.9 198.5 203.3 206 207.9 213.3 216.7 220.7 226.4 231.4 236.7 239.1 239.4 241 241.9 242 242.7 244.5 246.8 254 258.6 261.9 265.1 269 272.8 276.8 282.8 287.4 292.5 297.6 303.4 308.1 313.5 317.9 321.2 324.9 330.9 337.1 339.8 342.3 344.4 347.1 349.4 350.3 352.2 353.8 355.7 356.5 357.1 357.1 356.9 357.5 357.9 355.6 352 348.6 342.8 333.5 320.7 311.7 304.9 297.8 292 284.2 277.7 273.5 269.5 264.1 257.4 248.4 221.4 228.9 222.8 216.6 209 201.5 191.3 176.8 160.5 147.8
48.4 52.9 54.5 49.6 38.7 29.5 29.8 31.4 30.5 30.1 32 31.8 38.2 46.1 52.7 56.9 57.2 54.1 50.4 51.2 49.9 51.7 59.5 66.1 68.6 73.1 82.2 87.4 92.7 97.2 95 87.5 77.2 70.4 67 70.2 69.8 67.1 60.3 51.2 49.7 48.8 49.1 44.3 42.6 41.9 41.8 41.6 41.3 40.9 41 40.4 39.7 38.9 39.6 40.6 41.2 41.1 41.6 41.6 41.1 41.5 39.1 35.9 39.6 38.9 41.6 51 63.6 73.7 80.9 87.5 91.7 88.9 86 84.6 84.2 85.6 85.7 86.4 87.2 86.8 87.5 87 85.8 85.4 82 81.5 78.4 73.2 80 85 88.5 92.4 95.3 96.7 99.3 103.9 106.4 107.6 108.4 109.7 114.8 119 127.6 134 140.3 145.4 147.2 148.2 152.2 153.9 157.4 164.3 171.4 175.6 179.3 179 184.2 188.7 193.5 197.9 202.5 206.7 211.4 215.6 219.9 225.3 229.7 233.7 237.2 239.8 240.5 240.5 239.2 238 237.4 241.7 247.3 253.5 259.4 263.2 265.7 269.2 272.2 275.8 281.1 285.8 290.5 295.4 300.5 304.9 310.5 314.9 319.1 323.2 328.1 333.2 337 338.9 341.3 343.2 344.8 346.7 348.5 349.7 351.6 353.7 354.4 354.9 354.2 354.4 354.6 352.6 350.3 348.1 343.3 332.5 318 309.5 301.1 295.9 290.3 286.6 277.7 274.9 271.4 267.6 261.5 236.8 234 241.5 235.1 227.3 214.7 206.9 196.1 179.8 160.3 146.7
49.2 54.7 56.9 52.4 40.5 30.7 30.5 33.1 34.2 31 30.9 33.3 37.4 44.1 50.8 56.6 56.5 53.9 51.5 52 51.2 55.6 63.2 67.9 66.4 73.8 82.6 88 91 93 92.1 85.7 77.5 73.8 72.5 76.4 76.7 70.7 62.5 56.7 55.3 56.3 55.3 49.9 44.4 42.9 42.5 42 41.6 41.7 41.7 40.7 40.2 39.9 40.4 41.3 41.6 41.8 42.4 42.1 41.3 41.1 40.4 39.7 36.1 34.4 44.1 54.8 70.3 79.7 88.2 94.4 96.9 95.9 94.1 91.6 91 92.4 92.4 90.6 90.3 89.8 90.2 88.8 87.3 85.9 84.4 83.2 82.1 81.2 78.9 78 83.8 89.7 94.5 98 101.6 104.7 106.7 107.3 108.2 112.2 116.2 123.3 130.5 136.5 142.1 146.2 146.1 148.2 150 152.5 155.5 162 168 173.3 176.1 176.2 184.8 189.8 194.9 198.6 202.4 208 213.4 217.5 221.8 226.3 227.9 229.1 232.3 236.2 237.2 238.2 236.8 230.9 238.5 244.8 250.1 254.5 259 262.8 266.4 268.7 271.3 274.8 279.4 283.1 287.9 293 297.6 302.8 307.4 311.4 316.2 322 325.4 327.8 332.7 335.1 337.2 338.1 341 343.8 345.7 346.9 348.3 349.8 350.3 351.3 351.4 352.2 352.3 350.6 348.7 347 342.1 333.2 318.4 308.6 299 293.2 288.3 283.3 279.7 275.4 271.5 266.8 237.6 245.2 256 249.5 241.1 232.4 222 210.1 197.5 179.7 154.2 140.2
50.6 57.7 60.1 55.6 44.4 31.8 30.7 34.2 35.1 35.4 33.9 32.5 36.9 44.4 51 55.3 54 51.8 51.5 53.2 55.4 59.1 63.5 63.3 70.4 76.6 84.3 87.6 90 90.8 88.4 80.1 74.6 73.1 74.6 78.4 78 71.5 63.5 60.3 61.3 60.2 57.6 53.4 50.3 47.7 44.9 44 43.5 43.1 43.2 42.7 41.7 41.5 41.6 42.4 42.2 43.3 43.2 43 43.3 41.8 41.9 40.9 38.7 38.5 45.3 57.3 74 86.7 94.9 99.3 101 100.9 98.6 96.8 96.8 96.8 96.2 93.6 93.1 92.5 92.7 91.2 88.1 86.9 87.1 85.3 83.2 83.9 85.5 84.7 79.8 80 86.8 94.1 101.5 102.1 96.7 100.5 109.3 112.8 118.3 124.2 131.4 140.2 144.4 145.1 147.5 149.9 150.8 153.3 156.8 161.4 167.2 172.2 171.3 179.6 185.4 191 194.7 198.8 203.3 207.6 212 216.6 221.2 223.4 223.4 225.2 227.9 231.4 233.9 236 231.5 237.6 242.1 246.6 251.4 254.7 258.9 262.7 265.2 268 271.8 274.8 277.2 282.7 287.6 292 296.7 300.9 305 309.6 314.8 319.1 322 324.8 329 331.5 334.4 336.8 339.3 342.4 343.5 344.6 345.4 346.5 347.8 349.3 349.5 350 350.2 349 348.3 346 339.3 328.3 313.7 304.9 297.2 292.3 287.1 282.2 278.4 274.5 270.1 240.4 267.4 267.1 266.3 259.1 248.6 237.9 225.4 212.9 197.6 176.2 147.5 143.2
54.9 62.5 62.8 56.2 45.5 34.5 30.3 35.2 36.2 36.3 37.7 37 35.4 44.4 51.6 54.3 52.8 50.7 52.8 55.4 57.1 60.3 60.9 66.9 75.7 81 88.1 88.9 87.2 87.3 82.6 78.9 77 73.3 74.7 75.7 73.8 69.5 66.5 63.9 64.9 61.6 58.4 56.6 53.4 51.6 47.5 45.8 44.8 44.2 44.6 44.4 43.1 41.8 42.6 45.2 43.7 43.5 44.1 43.8 44.9 44.4 42.8 41.7 37.6 44.9 48.4 59 77.5 87.9 94.5 99 101 100.4 99 98.3 98 98.4 97.7 96.4 96 96.2 96.6 96.2 91.5 88.7 89.2 88.4 85.5 86.5 88 87.9 88.1 88.3 90.9 87.9 92.2 101.9 107.5 109.2 107.1 114.1 119.6 125.2 133.4 138.8 143.7 144.6 148.6 148.2 150 153.6 155.1 159.1 164.6 167 172.2 178.4 184 189.4 193.4 197.2 202.1 205.5 208.8 213.6 218.4 220 220.6 223 225.5 228.4 232 224.1 236.7 240.6 245.4 249 251 253.8 258.3 263 266 268 270.4 273.1 276.6 281.7 286.7 289.7 294.6 299.2 303.5 308.2 312.4 315.6 318.7 320.8 325.7 330.8 334.2 337 339.4 341 341.9 342.5 343.2 344.2 345.6 347.2 347.8 347.6 347.2 347.7 347.8 346.7 338.4 323 313.6 304.3 297.2 291.4 286.6 284 280.3 274.4 266.9 271.2 271.8 273.2 274 268.8 258.6 244 228 212.7 196.7 161 143.4 145.3
60.2 64.9 64.4 57.2 46.8 35.4 31.8 36 37.9 37.9 38.1 39.2 36.9 43 49.6 52.5 50.3 50.7 51.8 55.1 60.1 62 61.2 70.1 78.8 84.7 89 86.8 85.3 83.3 80.9 77.1 77.5 74 74.3 72.5 67.7 67.1 67.3 67.9 66.8 63.1 60.9 59.3 57.9 55.9 50.9 48.2 47 45.4 45.5 46 45.5 44.7 43 43.1 45 44.6 44.9 44.5 45.7 45.8 42.8 38.9 42.2 47.5 55.7 65.1 75.5 86.7 93.7 96.5 98.2 98.1 98 97.8 98.3 98.8 99.7 99.8 99.7 100.8 102.2 100.8 95.7 91.5 92 92.6 91.3 90.7 91.4 90.4 91.4 94.8 98.8 92.4 97.4 106.3 108.6 111.4 112.6 116.4 118.8 124.8 127.3 130.9 139.2 144.9 147.5 148.3 151.3 155.4 160.9 168.3 168.8 172.8 172.9 177.2 182.4 186.5 191.3 195.6 199.7 201.6 205.3 210.1 215.2 217.6 218.3 221.7 223.8 220.5 218.7 234.4 239.6 243.9 246.8 246.8 249.6 254.4 257.5 262.1 263.3 267.3 269.7 273.1 277.9 282 287.4 289.8 293.2 296.6 301.6 305.5 307.9 310.5 313 318.6 323.9 329.4 333.9 336.3 337.9 339.1 340.4 341.1 342 342.9 344.1 345.6 345.7 345.2 345.9 346.7 347.3 342 330.4 320.4 311.4 303.6 297.4 291.5 287 283.3 279.1 274 270.7 274.2 275.1 277.8 276.3 270.5 260 244.3 227.5 211.8 195 159.6 144.4 146.7
63.5 66.7 64.9 57.2 46.8 37.8 33.4 38.8 39.7 40.4 40.6 39.8 39.6 40.4 48.8 49.6 48.9 52.5 55.2 60.7 63.3 64.7 66.3 70.3 80.2 85.9 87.3 85 83.8 83.9 82 77.1 74.6 74.5 74.2 71.6 63.8 65 65.4 67 68.8 67 64.5 63.7 61.2 59.5 56.5 52.7 49.8 46.9 47.3 47.2 47.1 47.9 46.2 43.6 45.2 45.6 45.7 46.4 46.2 46.2 43.2 42.1 43.5 52 62.5 67.4 75.4 86.8 92.8 93.7 95.1 95.7 97.7 98.1 98.7 99.8 101 102.5 103.9 105.6 106.2 103.7 99.3 96.1 96.3 96.9 96.2 95.2 94.4 93.1 96.4 101.2 103 98.7 97.8 106.9 108.1 112.3 114.6 118.2 121.8 127.3 134.8 136.7 142.8 147.4 149.9 151.6 154 157.7 163.1 170.4 168.8 171.9 172.5 176.5 180.9 185.5 189.8 193.9 196.7 199.2 203.2 208.2 212.7 214.8 217.6 220.3 207.9 222.7 230.2 236.5 242 245.3 245.9 246.7 250.9 255.4 258.6 260.5 263.5 266.2 268.9 273.1 277.6 282 286.8 289.4 292.5 295.7 299.5 302 303 307 311.6 316.1 321.6 326.4 330.8 333.7 336.1 337.1 338.4 339.9 340.7 341.6 343.3 343.9 344.1 344.7 345.2 346 343.2 333 323 317.4 309.9 304 297 291.6 286.6 283.3 280.1 276.7 275.8 276.5 277.4 277.2 273.7 267.3 257.1 241.4 224.9 208.8 192.6 161.3 148 147.2
65.4 67.2 64.7 57.5 47.4 38.8 35 42.7 45.4 43.4 42.9 42.2 41.6 40.8 44.3 45.8 49.2 54.3 60.8 64.5 66.7 69 72.4 74.8 79.9 84.9 85.4 86.1 84.1 84.7 81 78.2 74.9 74.1 73.6 70.7 64.7 63.6 63.9 64.6 65.6 65.2 67.3 67.9 66.5 62.3 59.3 55.3 53.2 48.7 48.8 47.2 47.1 46.2 43.7 43.8 45.3 46.9 47.8 47.5 47.2 47.4 46.7 41.3 44.3 55.7 67.5 72.7 77.8 82.4 86.6 90.2 91.7 96.3 97.7 99.3 99.8 100.4 101.6 104.1 105.5 106.7 106.7 104.6 101.6 100.1 99.8 100.3 100.3 98.7 99 98.7 99.2 101.3 103.8 104.8 97.4 100.4 108 114.8 118 121.2 122.5 128.1 133.4 137.4 144.2 148.3 150.7 153.8 155.8 158.8 165.8 170.4 166.6 169.6 172.8 176.5 180.9 184.7 188.1 191.6 194.3 197.7 201.9 206.7 207.5 213 215.2 201.6 218.6 223.2 227.3 234.5 236.1 238.3 241.4 248.1 252.6 254.4 256.6 258.6 262.6 266 269.5 273.5 276.1 280.1 283.9 286.2 287.4 290.2 286.3 297.9 301.2 305.1 309.2 313.2 317.2 321.9 326.9 331 333.7 335 336.8 337.7 340.1 340.3 342.2 343 343.7 344.2 344.9 345.5 341.2 324.6 320.2 315.8 309.3 303.1 296.2 290.9 288.1 285.3 282.9 279.2 279 279.3 277.5 272.4 267.3 259.9 250.6 238.9 224 207.6 192.1 165.8 149 148.6
67.6 67.7 64.3 56.2 48 40.4 37.6 43.8 44.7 44.7 43.1 42.5 43.5 44.6 43.2 48.1 51.8 58.6 64.9 67.8 71.1 75.3 79.1 83.6 84.9 84 84.5 84.3 83.5 84.7 81.2 78.7 74.7 73.1 74.1 69.8 63.6 63.2 63.1 63.7 62.9 63 62.9 63.7 65.1 66 62.2 59.6 57.6 51.1 52.6 52.7 45.5 44 43.7 43.9 46 56.4 53.1 48.6 48 48.6 48.5 47.4 40.1 55.5 72.2 78.4 83 88.8 89.7 89.9 93 95.3 96.8 96.1 92.2 96.2 98.4 101.8 103.4 104.1 104.6 103.5 101.8 101.2 102.5 102.9 103.8 103.9 103.2 102.2 102.7 102.8 104.2 105.5 105.3 105.1 103.4 106.6 111.5 121.2 122.6 128.3 133 137.6 144.5 146.8 150.3 154.5 156.7 160 166.1 167.2 164.8 166.6 168.2 172 178.5 182.1 185.6 188.2 191.7 196.3 200.2 200 204.9 206.6 201.6 201.9 210.5 222 228.2 233.1 240.5 244.3 245.7 249.7 252.8 255.1 253.9 257.9 264.2 268.3 265.9 264.2 261 264.4 276.8 278.3 273.6 279.5 284.5 292.3 297.4 301.2 306 309.9 314 318.6 323.6 327.8 330.6 332.9 334.9 337.1 338.3 338.5 340.8 342.5 343.7 345 345.8 343.5 338.5 321 318.2 313.6 308 301.1 294.6 291.2 288.8 286 283.6 282.2 281 277.7 272.4 266.5 260.1 250.3 240.8 230.7 218.7 205.2 191.1 166.6 151.7 145.9
68.5 67.5 63.2 56 47.2 42.6 35.9 41.9 43.3 45 44 43.5 44.5 45.9 47.4 50.4 56.3 64.4 69.9 72.2 76.6 81.8 86.1 87.5 86.9 84.8 85.3 84.5 81.5 82.7 80.6 78.5 76.9 74.9 73.8 67.7 64.1 63.6 62.8 62.4 62.9 63 62.9 63 62.9 64.3 66.3 63.2 61.3 52.8 58.7 58.9 53.1 46.1 46.6 47.5 55.8 66.9 64.8 51.3 49 49.6 50.3 49.6 48.3 44.3 67.2 84.5 89 93.4 93.6 91.9 90.8 85.2 73.8 62.9 64.9 71.5 79.2 93 98.6 99.4 100.6 101.2 99.6 103.9 104.9 105.4 105.7 105.3 104.4 103.7 103.8 103.1 104.3 105.5 106.8 110.1 114.6 115.9 119.3 115.6 116.9 118.6 124.1 137.5 141.9 144 149 153.2 157.2 160.6 164.5 157.6 152.6 156.5 158.8 162.1 165.7 165.5 169.4 172.3 172.7 178.8 183.9 191 191.6 197.7 207.5 213.2 217.2 222.5 228.3 234.3 240.3 245.3 247.8 251.5 252.6 251.5 242.9 242.9 254.1 253.6 259.8 274.5 278.6 280.3 274 280.8 287 290.6 289.9 294.6 298.4 296.5 304.4 308.4 312 315.5 319.1 323.4 326.6 330.5 333 333.1 335.9 339.3 341.8 343.3 344.8 347.1 345.6 340 326.6 317.5 315.3 311 304.3 298.6 294.4 292.1 289.9 287.8 287.3 283.4 280.7 274 267.4 259.2 249.7 241.1 233.1 223.3 211.3 200 186 164.5 150.4 147.5
67.9 66.8 64.3 56.9 48.5 42.5 41.7 39.3 41.5 42.3 43.6 44.9 46.1 47.5 50.4 52.8 62.4 68.4 72.6 76.9 82.7 88.9 91 89.7 88.3 84.4 87.7 86.6 84.7 79.2 79.4 79.5 78.1 74.3 71.2 66.2 66.3 64.4 63.1 62.1 62.4 62.9 62.9 62.6 62.7 63.5 65.1 64.8 63.1 53.8 61.4 61.6 59.2 53 52.1 54 66.3 72.5 72.2 56.7 52.2 51.5 51.6 49.8 48.5 49.8 63.1 86.1 92.8 97 92.3 84.9 76.2 61.5 62.3 64.1 61 60.3 63.4 66 69.3 84.6 93.8 94.6 102 106.3 108.3 107.7 107.3 107.7 106.2 105.5 104.7 104 105.5 106.7 109.7 112 115.9 117.9 120.9 124.3 129.5 132.9 131.8 125.7 133.5 143.5 146.5 152.6 160.9 163.7 162.9 147.2 165.2 169.8 173.1 175.9 179 175.7 182.1 182.4 183.4 186.8 187.1 188.8 196.8 206 210.6 214.5 218.1 222.7 227.2 232.5 239.1 244.9 247.6 248.7 254.5 234.6 258.6 261.5 266.7 269.3 278.6 283 288.3 292.8 293.3 294.1 294.9 296.8 300.4 304.7 307.7 310.3 312.7 315.6 320.3 321.2 324.7 327.1 328.8 330.5 330.7 335.3 339 340.8 340.6 341.8 344.2 344.1 341.1 332.1 317.2 313.6 312.9 307.4 301.8 297 295 293 291.8 290.8 289.6 285.8 280.5 272.8 261.6 254.5 244.4 235.9 221.7 208.3 206.2 196.8 184 166.2 155.6 150
67 66.4 64.6 57.6 47.9 44.8 43.5 39.6 40.4 42.5 44.7 47 49.3 51.3 50.4 58.3 67.8 73.8 75.6 81.9 88.1 93.9 93.7 94.4 93.1 85.7 86.6 86 84.6 80.4 81.8 81 77.1 74.5 71.8 65.1 66.1 65.5 63 63 62.9 62.9 62 62.1 62.6 63.2 64 64.7 64.7 63.1 59.8 63.8 63.9 59.9 60.3 65.5 73.3 85.9 79.8 64.5 58.5 53.1 52.9 49.9 47.5 49 60.9 81.1 91 92 83.3 70.5 57.1 67.4 74.2 78.2 80.4 77.6 76.5 71.1 62 63.8 77.5 98.8 105.1 109.5 111 109.6 108.5 107.8 107.3 105.8 106 106.1 107.6 109.6 112.2 116.5 119 119 122.7 129.3 134.7 134.6 135.6 137.6 133.6 130.6 134.4 141.6 149 148.1 141.2 160.4 167.3 170.5 174.6 177.8 180 182.5 186.9 191.5 195.3 196.5 200.2 202.6 205.5 208.8 211.3 214.5 218.2 222.7 227.6 231.5 238.4 244.2 246.9 248.5 238.9 233.4 261.3 267.1 272.9 278.2 282.6 287 291.9 296 297.1 299.7 301.9 306.9 311 313.6 315.1 317.5 319.7 322.6 325 325.6 328 329.5 331.1 333.3 335.1 336 337.7 338.3 337.9 340 341.6 340.8 334.9 324.4 314 309.9 307.8 304 300 297.6 296.5 294.8 293.7 293 290.7 286.2 279.2 274.6 268.8 258.4 245.8 235.2 225.6 214.9 204.8 197.2 182.3 168.9 154.7 150.3
65.6 66 64.8 57.7 48.8 44.1 42 39.7 40 43.5 48.2 52.1 54.8 57.3 58.1 64.1 70.5 77.3 79.8 86.5 93.5 97.9 98.7 98.9 96.5 85.9 84.6 86.4 82.6 82.1 83 80.3 76.5 75.7 71.8 66.8 65.2 66.7 64.1 62.9 62.9 62.9 62.7 62.7 62.5 63.6 64 64.4 64.1 61.6 57.8 63.2 64.4 63 66.5 71.2 86.6 92 88.1 70.1 67.9 61.6 56.2 53.7 47.2 50.2 53 63.1 70.3 70.2 63.5 54.5 71.6 82.8 85.9 90 93 94.3 93.6 93.6 86.3 72 68.4 92.1 109.8 112 111.5 109.3 107.8 105.9 105.9 106.5 106.8 107 109.1 112.7 119.4 122.9 125.3 125.8 125.1 130.4 132.5 131.8 138.4 142.4 145.5 146.5 147.4 149.9 149.3 152.3 157.8 164.4 167.8 171.4 175.3 178.3 180.3 184.7 189.6 194.7 198.1 200.1 202 204.8 208 210.7 214.2 215.5 218.8 222.3 226.1 231.4 236.6 242 243.5 239 219.7 235.6 259.2 264.7 271.1 278 285.1 290.3 294.9 297.2 299.4 302.8 307.1 312.1 315.7 318.6 320.4 322.6 325.1 326.3 326.3 327.8 329.8 331.1 332.6 334 333.7 334.3 334.2 335.3 337.1 339.3 337.4 334.8 327.9 316.2 311.5 309.6 304.8 302.7 300.5 298.3 296.4 294.3 293.4 292.6 290.9 288.6 283.4 276.8 269.6 260.4 249.6 236.8 226.7 216.8 206.9 197.2 184.7 168.9 158 153.1
65.4 64.8 63.3 57.2 48.7 44.1 40.5 40 44.9 51 55.6 58.9 62.8 66.7 70.1 74.2 79.1 79.3 83.3 90.7 98.2 101 102.2 104.4 101.7 91.4 85.1 87.4 85.4 81.7 82.1 79.2 79.2 77.3 71.6 69 65.6 65.2 66.5 65.1 64.4 62.9 62.9 62.9 62.8 62.5 63 63.1 63.2 63.7 65.1 60.6 65.6 65 67 76.8 91.1 97.4 92.9 72.9 75.9 77.1 67.4 62 58.6 51.1 50.7 54.3 55.3 56.2 60 76.1 86.3 89.3 92.7 94.4 95.9 97.2 98.6 99.1 100.2 88.9 75.5 68 101.2 107.2 105 105.2 104.5 106 106.5 107.2 108.2 109.3 113.8 121.6 126.5 127.7 129 128.5 126.6 127.3 128.5 132.9 139.4 143.4 146.2 149.4 155 158.2 160.9 163.2 165.2 167.2 169.9 174.2 177.4 179 182.2 186.8 191.7 197.2 200.3 202 203.7 206.5 210.2 212.1 213.6 214.7 217.4 221.3 225.2 229.8 232.5 235.6 234.2 220.8 229.2 242.4 253.4 263.5 268.9 278.3 285 290.8 294.8 297.6 301.4 304.7 309.3 312.5 316.4 320.2 322.8 324.6 325.5 325.2 327.4 329.5 330.2 331 331.3 331 330.4 331.3 331.4 334.5 334.4 333.5 330.9 328.1 322.3 314.5 310.8 307.3 302.7 301.8 301 299.7 297.4 295 294.5 294 293.4 289.5 283.3 275.1 266.6 258.5 249.5 237.8 227.9 216.8 207.1 198.5 188.9 176.3 160.9 155
64.6 63.7 62.2 56 48 42.6 41.2 42.8 51 56.3 60.2 63.1 66.8 71.3 75.2 84.6 89.1 87.9 85.4 93.6 100.8 104.5 108.2 109.4 107.2 98.4 87.1 86.3 87.2 85 80.2 79.7 80.5 77.9 72.2 70 66.7 65.4 69.1 70.1 70 70.1 67.7 62.6 62.9 62.9 62.1 63.6 64.3 64.8 65.5 63.8 64.7 65.6 68.6 80.5 94.2 101.3 99.3 75.6 79 85.6 80.7 74 70.7 65.4 59.8 52.4 56.2 70.9 79.7 87.9 90.7 93.3 96.7 98.4 99.3 100 102.3 104.3 105.7 106.2 84.9 76 79.1 89.5 97.8 106.7 108.5 110.1 110.7 110.6 111.5 115 119.4 125.8 127.1 127.9 128.9 127.9 124.6 123.6 128.1 133.8 140.4 144 147.8 153.4 156.8 159.6 163.7 166.6 167.6 170.8 172.6 176.2 178.2 181 183.9 187.7 194.1 198.4 200.7 202.3 202.7 203.5 204.4 205.5 207.1 208.2 211.5 217.4 223.1 225 216.1 212.4 210.7 220.6 235.7 248.1 256.6 262.1 268.4 278 284.1 290.2 294.2 298.6 301 303.7 306.4 309.7 314.3 318.1 320.5 321.3 321.1 323.6 326.1 327.9 328 327 325.4 324.6 326 325.5 329 329.6 325.8 323.4 320.8 320.8 318 310.2 309.5 303.6 301.2 300.7 301 302 300.3 297.7 296.3 295.7 292.9 287.5 280 271.5 264.2 256.2 246.8 237.8 228 217.5 208.2 199.3 190.3 178.4 164.4 159.3
66.1 62.7 61.3 56.4 51.9 46 42.4 46.2 54.7 59.4 63.6 67.5 70.9 75.2 81.4 87.7 94.6 100.8 95.4 95.8 105.6 109.4 111.6 112.4 109.8 103.6 90.8 86.5 88.3 85.6 82.8 81.9 77.7 76.6 74.2 70.1 68.9 66.3 68.7 71.2 71.2 71.1 71.4 66.6 63.1 62.4 62.4 63.4 63.4 63.8 64.5 65.9 64 66.6 69.6 87.3 100.2 105.2 98 80.4 79.2 85.4 88.9 87.7 84.7 84 76.1 65.8 79.1 88.6 92 92.4 95 97.6 102.1 104.2 103.7 105.4 106.9 109 111.7 112.9 103.6 91.7 78.8 77.3 92.2 106.7 113.5 114 114.2 115.3 115.8 118 121.8 125.7 127.7 128.4 127.7 126.6 123.5 121.7 128.2 137.9 142.8 146.9 150.8 154.1 156.9 160.3 165.1 167.2 168.4 170.7 173 176.4 178.6 181.1 184.5 188.1 193 193.5 194.8 195.8 197.8 197.6 199.1 199.1 195 199 207.3 212.4 217.1 216.2 204.5 214 224.5 230.6 238.8 250.4 255.8 261.3 268.1 277.7 284.3 290.2 292.4 295.8 298.6 301.4 304 307.7 312 314.6 315.2 316.3 317.1 319.3 321.9 323.9 323.3 321.4 319.9 319.8 320.7 321.5 323.2 323.2 320.7 316.7 315.2 314.7 312 304.7 306.5 301.9 300.9 300.9 303.2 304.7 303.1 299.8 298 295 290.4 285.1 277.3 268.1 260.1 252.1 243.1 234.8 224.9 214.9 206.1 198.6 190.5 182.6 173.4 161.4
65.9 61.8 58.1 54.3 50.3 49.4 43.5 47 56.6 61.8 65.5 69.6 73.4 78.1 86 92.2 99.6 104.9 105.7 100.9 109.6 109.8 111.5 112.5 109.3 104 91.4 87.3 90.7 86.9 85.7 81.9 76.6 77.4 74.9 73.3 71.4 68.4 68.7 73.2 72.3 71.8 71.7 69.8 64.5 63.5 63.2 62.9 63 63.2 63.9 65.6 65.9 66.7 70.5 85.3 104.6 104.6 98.8 82.1 79.5 87.5 89.3 90.2 89.5 92 90.1 88 82.7 88.1 91.2 94.2 98.5 102.3 105.3 108.3 108.3 108.9 110.6 112.2 114.7 115 113 108.7 96.3 77.8 76.4 87.9 101.1 116 118.5 118.8 121.2 124.6 126.5 127.7 126.9 125.5 126.2 127.2 125.1 121.9 130.2 139.4 146.4 149.8 152.2 154.7 157.9 161.1 165.3 166.2 167.4 168.6 171 174.1 176.6 179.6 183.7 187.1 187.6 187 188.1 189.1 189.3 189.1 183 192.3 196.3 192.1 192.8 198.1 198.6 200.9 215 224.4 228.3 232 243 251.5 256.4 261.7 269 275.6 281.9 287.2 288.5 291.7 295.1 297.6 301.3 303.5 306.5 308.2 309.5 311.4 312.2 313.6 315.5 316.7 316.3 316.2 315.8 315.7 316.2 315.5 316.9 317.2 316.4 312 308.3 307.7 305.3 301.6 302.2 299.7 299.8 302 304.3 305.2 304.2 301.1 300.1 294.7 287.3 280.4 273.5 264.7 256.8 249.6 241.4 232.4 224 215.1 205.5 197.5 189.7 183.3 169.1 166.5
65.7 59.7 55 51.5 48.3 49.6 43.6 51 58.4 62.7 67.3 71 76.3 82 89.3 96.7 105.3 111 109.4 108.5 114.6 112.1 116.4 117.7 111.2 105.1 96.9 89.5 92.7 91.2 91.2 86.1 79.8 75.9 74.8 73.1 72.3 70.3 68.6 69 70.9 74.8 71.5 69.4 66.1 64.1 63.1 62.8 63.5 63 63.3 65.1 67.4 68.6 68.9 82.6 101.7 102 98.8 83.2 83.1 89.1 92.2 94 94.7 101.3 96.9 93.1 90.8 90.7 90.7 94.2 96.5 100.6 103.6 105.4 108 110.2 111 111.8 112.2 111 110.3 110.1 109.9 95.9 83.4 73.6 73.3 85.3 111.9 125 126.3 128.7 131.5 131.4 128.8 128.2 125.5 129 122.9 124.2 131.4 137.7 144.9 150.7 153.3 155.3 158 161.5 163.8 163.2 164.3 166.2 168.6 171.3 174.1 177.9 182.6 184 181.2 180.6 177.7 174.5 178.9 187.3 196.8 204.1 207.3 207.8 211 210 216.5 218.1 224 228 232.3 236.4 242.2 251.9 256 261.2 266.6 272.9 279 283.1 284.4 287.1 289.3 292.3 295.2 297.9 300.7 300.2 302.3 303.6 303.7 305 306.1 309 310.1 311 310.3 311.4 311.2 310 310.7 311.6 311 307.5 301 300.5 298.7 297.3 299.2 297.4 299.6 301.3 303.1 303.6 302.3 301.1 298.8 292.3 284.2 276.5 269.6 261.2 253 245.9 239.3 230.8 222.2 214.3 205.8 197.8 187.8 174.7 178.9 177.6
64 57.1 54.1 50.8 48 46 45.7 52.2 60.4 63.8 68.1 73.3 78.8 84.7 91.8 99.8 108.3 111.7 116 118.5 122.3 124.2 121.7 122.9 115.4 109.7 106 103.3 96.8 93 92.2 89.8 82.6 76.4 75.5 76.5 73.5 71.1 67.5 67.5 68.9 70.3 69.4 68.4 67.2 64.9 62.2 62.5 65.4 65 63.2 64.8 66.9 69.4 71.9 73.6 85.9 95.1 88.4 85.5 90.2 93.2 95.5 97.1 102.1 104.9 103.5 98.3 94.3 93.7 96.1 98.6 99.9 100.7 102.5 103.3 104.6 106.6 108 107.4 108.6 109.2 110.5 111.6 110.6 110.8 103.4 93.9 80.7 72.5 97.4 124.4 130 132.7 134.2 132.2 130.1 127.8 124.4 122.4 117.4 130.2 136.1 143.9 148 150.8 153.4 155.6 158.8 160.5 159.6 158.3 160.7 162.9 166 169.9 172.9 177.7 182 179.8 167.3 168.9 174.2 186.7 186.3 199.4 207 210 212.7 215.1 217.3 217.4 221.8 227 231.8 237.3 239.7 243.2 249.2 252 256 260.7 264.3 270.2 275.7 279.1 280.8 283.6 285.9 287.9 291 293.7 295.2 295 295.7 296 296.6 296.1 298.3 302.6 304.3 302.8 303.3 304.5 303.6 301.9 302.3 303.6 305.4 302.7 297.1 294.6 293.2 292.7 292.7 296.3 298.4 300 301 300.6 300 298.5 297.3 288.7 281.1 273.8 266.3 258.4 251 244.2 236.9 227.4 220.3 212.2 204.7 197 182.1 185.1 183.2 179.9
60 59.5 55.5 49.6 48 45.9 46.8 54.4 61.7 65.6 70 75.7 81.7 88.2 95 102.3 110.6 116.6 117.8 121.3 129.1 125.8 122.6 123.6 119.1 113.8 110 103.6 98 97.5 93.6 92.4 84.5 75 74.4 76.7 74.9 72.4 67 66.1 67.4 67.4 66.5 67 66.6 64.8 64.2 63.6 67.1 66.2 63 63.9 65.7 69.2 76.2 93.1 91.9 80.1 89.8 95.7 97.5 99.2 96.8 103.1 106.9 109.1 109.6 105.7 101.2 98.6 99.4 100.9 102.2 102.7 104 104.9 106.8 107.4 107.9 108.8 109.8 110.9 111.8 114.6 119.9 125.8 125.9 116.4 100.7 75.1 92.5 116 125.7 117.7 121.6 131.1 132 130.8 114.2 109.7 123.2 135.9 142.3 147.4 150 152.8 155.5 157.6 158.8 156.5 154.9 155.1 158.2 162 165.4 169 172.4 176.1 180.4 176.1 159 176.5 186.9 195.8 199.7 204.5 208 209.2 211.9 216.3 218.5 221.1 226 230.3 236.6 240.3 241.7 246.2 249.1 252.4 256 258.7 262.9 267.2 271.2 274.9 277.7 281 282.5 285 287.2 289.4 289.6 289.6 289.8 288.1 289.8 291.1 293.1 296.3 298.3 298.2 297.6 296.9 295.6 294.9 295.4 296.8 298.7 295.3 289.6 289.6 289.6 287.8 291.5 294.4 296.6 298.3 297.6 296.4 295.5 291.4 289.1 281.3 276.1 268.7 262.6 255.7 248.2 242.7 235.4 226.3 219.4 211.3 203.4 190.4 188.7 192.2 189.4 180.8
61.7 58 53.7 50.4 50.6 47.9 50.3 57.1 63.1 69.1 74.5 79.7 85.5 90.5 96.8 104.1 112.6 118.2 117.8 126.3 134.4 127.2 122.5 125.6 125.1 116.9 110.5 105.1 102.6 101.2 98 92.6 79.8 74.7 74.6 74 75.2 72.8 68.4 67.3 67 66.5 66.1 66.2 66.2 66.2 66.3 66.1 69 67.1 64.3 64.7 65.2 70.3 80.6 103.3 108.5 95.5 85.1 90.4 101.1 100.9 97.7 104 109.2 113.7 115.5 101.2 96.4 97.3 99.2 100.2 101.9 103.7 106.6 108.5 111.4 112 114.7 115.1 114.7 114.1 118 122 123.2 123.8 127.2 126.3 117.9 81 91.5 102 90.9 82.7 92.1 102.7 108.4 118.5 107.9 115.7 127.9 137.9 145.4 149.4 151.2 153.8 156.7 156.3 154 151.3 152.3 156 158.9 161.7 164.9 169 172.3 175.3 178.6 168.6 158.3 178.5 189.1 195.8 200.5 203.8 206 209.4 213.6 216.1 219.2 223 227.4 232.9 240.3 241.9 244.9 247.4 250.4 252.7 255.2 257.5 261.4 265.1 269.1 272.7 275 278 280.3 282.1 283.8 285 282.6 283.1 284.9 281.6 284.4 286.3 288.4 291.8 292.9 293.5 292.9 291 289.2 288.2 288 288.2 287.9 286.4 283.6 285 285.1 284.3 288.4 290.8 292.9 293.2 290.8 288.1 285.8 282 277.9 275.4 270 264.8 258.5 252.6 246 241.1 232.5 225.7 219.1 212 202.3 185.9 205.7 201.7 190.1 185.3
62.1 58.6 53.5 50 50 51.1 54.4 62.7 67.3 72 78.2 84.9 89.4 93.9 99.3 106.7 115.4 120.9 124.2 134.2 133.8 124.5 125.8 127.4 128.6 124.8 114.9 109.7 105 103.5 100.4 91.8 78.4 77.8 74.7 73.5 74.2 73.2 69.2 67.3 66.9 66.7 66.2 66.2 67.1 69.3 68.3 70.2 69.1 64.9 63.3 64.6 66.5 72.5 82.4 107.8 115.4 103.5 88.9 87.6 103.1 100 99.8 107.6 108.9 104.6 101.3 95.5 100.1 103.1 104.2 103.7 104.6 108.4 110.2 113.4 116 119.9 123.1 123.3 124.9 124.2 126.4 128.9 130.6 132.7 132 130.9 126.1 105.6 80.4 84.3 82 96.4 89.8 86.7 89.2 85.2 92.6 102.8 117.6 128.8 140.7 149.1 151.3 152.9 154.4 152.1 148.9 149.3 153.6 156 158.7 161.2 165 168.6 171.6 174.3 175.5 161.4 160.7 178.9 190.2 195 199.4 201 204.7 208.7 212.9 216.1 218.8 222.4 227.4 236.6 242.5 240.1 243.4 245.7 249.2 252.1 255.3 258.6 262.9 263.9 267.5 269.6 272 275.4 277.4 278.7 278 278.1 276.8 276.6 274.4 274.9 278 281.3 283.5 286.2 286.7 288 288.1 285.7 284 280.1 281.2 280.3 278.9 278.7 278.1 280.2 280.1 278.3 280.1 283.7 284.4 283.5 280.8 279 276.3 273 272.6 269.3 265.1 259.8 255.4 249.2 244.2 239.8 233 223.9 217.4 210 192 200 203.8 199.5 194.8 191.9
61.7 57.4 52.7 49.8 49.3 51.7 58 66.8 70.3 75.9 82.3 89.5 93.6 98.2 101.5 109.4 121.8 122.6 132.5 138.9 131.5 126.9 128.4 130.9 133.2 128.6 120.8 110.5 105.1 105.2 102.2 85.2 79.1 78 74.8 74.1 71 71.1 68.1 66.4 67.6 67 66.2 67.8 68.8 71.2 71.5 69.9 70 63.8 63.3 65 67.9 75.3 85.9 110 120.1 111.4 94.3 88.6 88.9 90.8 91.8 92.6 93.3 93.2 93.9 100.4 107.6 111.7 109.5 108.7 110.7 113.9 117 119.2 122.7 126.5 127.7 130.4 130.1 129.9 131.9 134.2 134.5 137.8 137.9 136.4 132 123.7 103.2 81.4 91.7 114.1 115.1 111.3 107.4 106.4 91.9 94.1 103.1 122 135 141.6 147.3 151.4 149.9 147.1 144.7 148.3 152.4 154.9 156.9 160.2 162.2 166.2 169.1 169.7 149.6 155.6 172.7 184.1 188.9 192.6 195.6 199 203.7 208.5 211.8 215.1 218.3 222.8 229.5 234.7 239.3 238.2 241.7 244.4 247.2 249.7 253.9 258.7 261 263.3 265.5 267.3 269.9 273.2 274.4 274.7 273.1 270.7 271.1 269.6 269.2 269.1 272.6 275.5 278.4 279.9 280.4 280.5 280.5 279.3 272.9 274 272.3 271.7 272.9 273.3 274.1 277.1 275.4 273.1 272.7 274.6 275.4 275.7 273.6 272.7 271.1 269.4 268 265.3 260.7 256.4 252.3 247.4 242.9 238.1 230.5 221.9 215 208.1 201.9 203.7 204.5 204.2 202.3 196.9
59.2 56.9 53.2 49.7 50.6 52.5 60.6 68.2 74.1 79.4 85.4 92.2 97.2 100.4 106.6 113.1 124 125.1 135.6 142.5 133.6 130.7 132.1 134.6 137.2 132.4 118.6 106.2 105.3 107.1 101.3 88.1 81.3 77 75.5 71.8 68.6 68.2 66.9 67.1 66.9 66.2 69.8 74.5 72.7 71 69.6 67.8 67.9 65 65.2 67.2 70.7 76.9 89.7 112.3 122.8 119.1 100.3 95.7 97.5 99 97.9 98.1 95 94.8 104.7 116.9 123.3 124.2 124.5 118.8 115.6 125.3 126.7 124.6 125.8 129.1 132.6 135.2 137.7 139.7 139.7 141 139.1 139.4 141.7 143.9 147.3 137.7 128.7 130.7 131.7 133.7 136 132.4 129.7 125.5 123.2 110.1 90.9 115.4 127.8 135.5 139 144.1 143.1 142 140.2 145.5 149.8 152.4 155.8 157.6 159.8 163.7 163.9 157.2 146.4 168.5 177.7 182.3 184.4 187.5 192 198.7 204.6 209.2 211.9 214.5 217.5 221.9 227.2 232.5 234.8 236.8 240.4 243.7 245.1 247.8 250.9 255.6 259.4 262.7 265 265.8 267.9 271.3 271.9 271 268.2 265.1 264.6 264.2 264.3 264.1 265.8 268.1 272.8 273.7 273.6 270.8 269.9 269.8 267.9 267 267.5 267.5 267.5 269.3 269.7 272.6 270.2 268.6 268.2 269 268.7 269 268.6 267.6 267.3 265.9 264.8 261.6 257.5 254.4 250 244.9 240.2 235.2 228.4 220.7 208.1 211.3 210.4 209.9 212.1 210.7 209.7 205.1
56.7 54.9 51.7 51 52.9 54.5 62 70.1 74.7 80.7 87 92.6 98.7 104.6 109.1 116.1 123.9 126.8 138.4 142.6 133.9 138 141.3 143.1 143 136.9 118.5 107.7 105.3 109.3 93.7 93.1 81.3 77.1 77.9 71.2 67.1 65.4 65.5 66.1 66.2 66.9 67.7 68.8 69.5 68.6 68.8 69.6 68.8 65.9 66.5 68.9 74.9 95.4 102.5 117.8 125.3 122.1 103.1 109.6 116.6 109.8 110 110.1 109.3 97 106.2 117.1 121 120.3 120 120.4 119.9 121.5 124.8 126.7 127.8 133.2 136.4 138.7 142.3 144.6 146.1 146.9 146.9 147.7 156 156.9 156.5 149.9 149.6 152.5 154.9 155.5 153.7 145.2 140.2 133.5 129.4 124.7 92.9 106 125.2 131.6 134.1 137.3 137.8 136.2 138.3 141.4 145.9 149.4 153.2 155.2 156.7 160.1 157.3 145.1 147.1 166.9 174.1 178.2 179.8 183.6 189.5 196.5 202.8 208.4 211.4 213.6 217.4 221.9 227.9 232.9 233.1 235.9 239 241.3 242.3 244.8 247.8 251.3 254.6 259.3 261.9 263.9 265.5 269.1 270.1 268.5 265.1 261.5 257.7 258.1 258.7 258 259.8 261.8 264.3 266.7 266.8 265.8 265.1 262.9 263.1 264 264 264.4 265.5 266 266.9 269.8 273.3 265.1 266 265.4 265.3 264.7 265.1 264.3 263.6 263.1 261.4 258.3 254.8 251.8 248 243.1 237.9 232.8 224.5 210.8 214.4 216.9 214.6 215.6 217.3 217.2 215.1 210
56 52.3 51.4 51.6 52.9 57.3 60.8 68.3 74.1 81.4 87.3 91.9 98.3 106.2 110.7 117.3 122.4 134 145.2 141.2 142 144.8 147.3 149.6 149.1 140.2 127.8 113.3 106.3 101 95.5 89.3 81.9 79.6 75 69.4 66.6 65.9 63.9 65.4 66.2 65.8 67 67.1 67.6 68.7 69.2 69 65.4 65.7 66.6 71.3 82.8 105.2 122.2 127 124.9 121.6 107.6 113.8 117.1 119.2 121.6 123.6 117.6 104.3 106.2 111.1 116.1 122.4 129 133 134.4 134.8 135.9 136.4 136.5 136.9 142.4 146.7 149.4 152.8 153.3 154.6 157 165.2 168.6 165.1 169.5 168.2 171 174 175.4 172.4 165.1 157.3 150.8 143.4 136.2 129.6 116.1 97.2 93.5 121.6 127.7 132.2 132.9 131.2 134.4 137.5 140.9 143.9 147.8 150 153.1 155 144.7 141.9 157.5 164.3 170.3 172.1 174.3 180.1 185.3 192.6 200.6 206.8 207.5 211.6 216.5 222.3 228.1 233.1 230.2 234.6 236.4 236.1 237.6 241.4 244.1 247.5 250.5 254.8 260 261.5 263.2 266.1 267.1 265.6 263.2 259.8 256.6 254 253.3 252.7 254.9 255.6 258.2 260.7 261.1 261 260.9 259.5 259.3 260.9 261.5 262.9 263.9 264.2 264.5 270.7 279.5 264.4 263.6 263 263.1 262.3 262.4 262.6 260.8 260.1 258.8 256.5 252.8 247.9 244.9 239.2 233.7 225.1 215 213.6 220.2 222.6 223.7 222 221.6 220.7 219.2 214.8
55.2 52.9 55.1 55 56.3 62.8 62 68.4 76.4 82 86.6 92.7 100.3 107.3 112.1 118.5 128.4 140.9 150.6 142.9 146.9 150.4 151.4 155.7 150.8 142.2 130.3 114.6 104.6 92.5 97.7 83.2 83.2 81.1 70.6 68.3 66 64.6 64.5 64.1 66 65.6 65.8 67.2 67.5 68.4 67.6 64.9 64 64.9 68 76.2 88.8 120.9 137.9 143 129.7 123.3 114.2 122.7 124.7 125.4 127.9 124.4 119.4 118.7 122.2 128.3 136.5 143.2 150.8 150.1 151.5 152.3 154.8 153.6 150.5 145.1 148.4 152.2 154.9 156.5 159.2 162.2 167.2 174.1 177.4 175.7 178.6 177.6 182.5 190.2 191.1 188 175.2 162.3 160.5 154.5 141 137 131.9 119.7 100.9 102.9 122.6 124.6 124.5 129.4 131.2 133.7 136.3 139.8 142 144.4 147.3 149.4 136.4 147.8 154.5 160.2 164.2 167.7 172.2 177.1 183.5 189.9 196.7 201.5 202.3 205.3 210.6 217.3 224 229.4 225.6 227.5 230.5 231.7 235.1 237.5 241.3 246.1 250.2 252.9 257.7 258.5 259.8 262.4 259.7 260.1 261.5 259.5 254.7 246.3 248.4 244.8 248.5 249.5 251.2 254.2 256.2 256.7 256.6 256.1 256.4 259.8 262.6 263.2 262.6 262 263.1 265.5 271.1 265.4 262.1 262.4 262.8 262 261.3 260.5 258.4 257.1 255.4 252.3 249 241.1 238.8 229 217.9 223.7 227.9 230.4 227.9 229.7 230.3 229.2 226.8 227 224.2 219.3
54.1 56.8 59.7 58.9 58.3 65.9 67.9 69.5 76.8 82 89.1 96.4 102.8 108.5 114.7 119.1 133 146.3 149.2 146.8 151.2 153.4 153.2 153.3 151 142.7 130.5 116.5 99.4 94.6 86.5 82.4 82.4 73.3 69.8 67.5 65.1 64.9 65.4 65.1 63.3 65.4 66.3 66 65 64.8 64.5 64.1 65.3 66.9 71.5 81.7 103.5 133.2 144.3 152.7 143.9 134.9 125 119.1 124.2 125.2 125.3 128.4 131.2 135.7 144.3 151.9 158 158.6 157.8 158 161.3 164.3 160.2 157.8 155.2 152.7 153.2 155 158.2 161 163.4 170.8 176.7 180.1 183.4 181.7 185.6 187 186.9 193 194.1 192.9 181.1 169.7 166.4 160.1 148.1 141.9 138 134.4 121.2 99.5 103.4 105.5 113.7 124.9 131.4 132.6 133.5 135.7 138.3 140.2 141.9 142.4 134.5 146.4 152 154.1 160 164.7 170 175.3 180.6 186.5 192 194.5 197 201.4 206.2 212.4 220.3 224.7 222.6 223.3 225.3 228.2 229.7 233.2 239.3 241.6 243.7 248.2 251.2 256.9 255.1 255.3 253.9 254.8 255.7 256.4 253.8 243.4 243.2 237.5 243.6 244.6 245.2 247.5 250.1 252.3 253 252.5 254.4 260.8 263.6 263.1 261.4 261 261.8 262.6 263.1 263.9 261.4 261.9 262.9 262.1 259.6 258.4 254.9 253.2 249.1 242.6 239.3 231.5 221.4 225.9 233.7 233.7 235.8 235.9 233.7 236.1 236.4 235.2 233.7 232.5 229.8 224.8
56.7 60.1 62.4 61 60.9 67 69.3 74.8 80.9 83.8 91.1 98.6 105.7 113.7 117.2 122.3 135.2 149.2 152.8 146.8 149.9 154 152 151.2 149.7 140.5 129.1 114.4 98.3 91 82.8 83.2 76.9 70.9 68.9 66.4 64.7 64.7 64.9 64.3 63.9 62 63.9 63.9 64 63 64.3 64.8 65.8 68.1 75.7 88.2 119.7 141.5 151.4 153.7 148 143.6 139.9 131.5 128.7 129.2 133.1 137.5 143 150.7 160.3 166.1 165.3 162.4 163 164.5 168.6 165.9 158.5 156.5 155 152.9 155.2 157.3 160.5 163.6 168.2 174.4 177 182.5 189.4 190.1 191.3 194.7 192.2 196.4 193.8 187 183.7 175.3 170 163.3 151.7 145 143 138.4 135.3 130.4 117.5 102.6 105.8 117.2 129.6 132.2 133.2 133.9 133.7 136.4 136.1 134.6 136.9 142.4 142.3 149.5 156.2 163.3 168.3 173.3 178.3 183.8 186.9 188.5 192 196.1 201.7 208.3 214.7 219.1 217 218.8 221.2 221.2 221.5 227 231.6 234.2 237.3 239 242.9 246.8 246.2 247 249.1 247.1 245.7 246.4 246.9 243.7 228.9 235.6 236.8 240.2 241 242.2 244.8 246.8 249.4 247.2 253.2 256.4 259.4 259.7 259.6 260.8 261.7 262.4 263.1 262.7 258.7 261.4 261.1 259.4 253.9 254.3 250.1 245.1 242.1 226.8 224.5 222.6 231.9 234 237.5 238.6 239.7 238 237.2 239.4 240 239.9 239.2 238 234.2 228.9
59 60.9 63.7 63.2 64.2 68 74.6 82 86.6 86.3 92.7 99.2 106.2 119.8 121.2 124.6 138.2 149.5 154.6 148.9 148.1 151.2 151.2 150 145.3 138 127.5 108.5 98.4 84.9 83.3 82.9 73.5 71.5 68.5 65.7 64.3 64.9 64.9 63.8 62.4 61.4 62.8 64.2 63.3 62.3 63.2 64.6 66.7 71 80 98.4 131.6 146.6 152.9 153.6 149.8 149.6 145.4 141.7 139.1 141.6 143.7 147.7 150.3 155.6 162.8 170 167.1 166.2 166.9 168.7 169.2 162.2 155.2 154.1 154.1 155.9 157.6 159.9 162.7 166.2 172.1 177.2 176.6 183.9 192.8 194.9 197.9 199.7 198.1 198 191.7 183.9 178.8 174.3 169.9 161.1 154.3 149.1 145.8 144.2 140.5 135.3 130.4 111.6 108.5 115.6 124.5 127.4 129.2 132.7 125.2 128.4 130 126.3 131.8 132.3 134.2 136.8 141.9 149.3 165.7 170.8 175.7 178.8 178.8 181.1 185 188.9 197.7 204.3 209.6 213.5 214.1 209.5 211.9 213.1 217.1 222.4 229.2 228 229.3 231.1 234.6 236.7 237.8 238.9 240.2 239.8 239 239.9 240.7 237.7 225.3 229.6 231.3 235.2 236.9 237.9 241.4 244 244.4 247.5 250.3 252.2 254.4 258.2 260.4 261.9 262.2 262 260.4 258.6 254.9 253.1 252.5 250.8 246.3 240.1 235.8 240 235.6 226.1 236.4 239.8 240.8 239.9 240.7 242.8 244.1 243.1 241.7 243.2 244 244.9 244.2 241.8 239.6 234.5
61 64.1 64.8 65.2 70.4 73.3 77.5 87 91.3 90.5 95 99.7 110.6 126.6 127 126 136.9 144.2 149.8 150.2 149.8 151.1 150 146.8 143.1 133.6 121.9 102.6 88.6 84.6 84.9 79.2 73.1 71.7 70.7 66 64.2 63.8 63 61.4 60.9 60.9 60.8 64.5 64.6 62.8 62.3 64 67.5 73.9 85 113.4 137.4 146.8 152.2 152.7 154.2 153.5 149.7 146.3 145.7 146.9 147.8 151 153.7 159.1 165.1 167.9 167.8 167.3 166.1 164.7 161.8 155.9 154.9 155.2 157.2 159 160.1 162.5 166.5 170.8 175.5 179.3 182 185.7 191 196.7 198.8 202.1 204 196.1 190.7 186.4 180.4 172.9 165.3 162.1 156.4 150.7 148.3 149.6 144 138.9 134.5 106.4 111.1 112.5 118.5 111.9 113 115.8 116.7 118.3 121.8 123.8 123.8 123.8 124.5 125.3 126.2 129.9 143.1 159.6 167.5 170.4 170.1 174.1 176.7 181.8 191.6 198.2 199.5 204.1 204.1 201.9 204.5 206.2 211.9 215.5 217.6 220.4 223.7 225.5 226.3 228.2 230.2 230.5 231.8 231.4 233.1 233.8 232.8 230.9 224.7 202.9 225.8 225.9 232.3 231.1 235.1 244.8 246.4 248.7 249.5 253 255.4 258.3 258.7 256.4 255.1 253.6 249.1 246.2 240.8 243.5 244.5 242.4 240.8 230.4 233.7 233.8 232 230.8 233.1 240.1 243.6 243.4 242.8 245.2 247.2 246.9 245.7 246.1 246.5 246.6 246.5 244.7 242.3 238.6
65.5 66.4 68.7 70.9 74 77.9 81.2 88.2 91.1 92.6 97.1 101.4 116.7 131 139 129.1 132.9 142.2 151.7 150.5 148.3 150.2 150.2 145 139.4 130.9 120.4 98 86.4 87.1 84.2 73.4 71 70.9 69.7 68.8 64.5 63.2 62.7 61.2 60.8 60.5 60.5 64.1 63.5 62.3 63.1 64.7 69.2 79.1 93.9 129 141.4 148 151.9 152.7 155.3 156.7 152.9 150.8 150.3 151 150.7 154.3 157.3 161.4 164.1 166 165.4 163.8 161.5 160.6 155.2 153.9 156.4 157.5 160.2 159.8 161 165.6 169.8 173.7 179.1 183.6 186.7 190.9 191.8 194.9 199.3 202.1 201.3 196.5 193.5 189.3 175.8 176.3 170.6 165.1 157.8 150.5 151.3 150.9 146.2 142.4 137.7 109.2 105.9 109.5 111.5 112.7 114.4 115.3 117.3 117.7 118.7 123.9 126.1 126.9 128.3 131.7 143.7 147.8 129.5 138.6 150.5 158 160.9 166.7 171.7 174 181.5 186.6 190.4 191.9 192 192.3 197 199.6 202.6 204.9 207.6 211.4 213.2 216 216.7 218.5 220.8 221.3 221.6 223.1 224.3 223.6 222 221.7 216.7 195.4 207.2 223.4 230 237.2 241.1 244.6 247.5 249 249.2 250.1 251.7 250.9 248.1 242.7 239.6 234.1 228.1 226.8 229.9 224.6 226.4 226 228.5 234.6 243.7 246.6 250.4 247.4 245.4 239.6 238.9 241.2 242.7 243.9 245.4 246.1 246.6 247.5 248 248.1 248.4 248 245.9 242.3
67.7 70.5 72.5 74.4 79.6 83 84.3 88.1 92.3 93.4 96.7 103.6 120.6 132 141.5 131.6 134.1 142 149.4 153.6 147.5 147.3 147.1 142.4 136.6 134 121.6 100.2 87.2 87 77.1 72 71.9 71.9 70.6 69.7 64.9 63.2 63 62.3 62.8 60.6 60.9 62.6 62.4 63.8 64.8 68.3 75.8 86.3 109 132.3 142.4 149.2 153 153.2 154.9 158.4 156.7 155.3 155.1 154.9 153.9 156.5 158.9 161.7 163.6 165.8 164.6 160.1 157.6 155.8 151.1 154 156.1 158.2 160.3 160.7 164.4 169 172.1 176.7 182.2 186.7 189.6 192 194.3 196.3 198.4 198.2 197.6 196.1 191.9 181.6 183.7 174.7 171.1 163.2 157 152.6 153.3 152.5 148.5 145.3 142.4 126.7 112.8 115.6 112.1 116.7 122.3 126.5 127.2 129.8 131.5 135.4 137 139.9 141.8 144.4 149.1 150.8 135.9 131.6 144.5 150.4 155 158.6 161.3 164.7 169.7 174.5 177.5 180.1 182.5 180.5 186.7 189.9 193.3 194.5 197.7 201.5 203.3 204.5 206.8 208.2 210.8 210.7 210.3 210.7 211.7 212.2 212.3 208.3 190.2 204.3 221 225.8 229.9 234.2 237.9 239.5 240 242.9 243.2 241 234 233.3 229.9 225 214.9 213.9 220.5 227.1 230.2 230.6 230.7 230.9 241.6 246.3 252.7 254.9 256.3 255.4 253.5 254.2 245.7 252.9 252.4 253.8 253.5 252.7 248.3 248.5 248.6 248 247 248.9 248.4 244.7
70.2 74.2 76.2 79.9 85.8 86.8 87.5 88.4 93.5 93.8 96.9 105.3 120.6 132.2 140.3 137.3 136.6 142.1 146.1 151.7 148.9 147 145.5 141.1 139.4 134.4 121.9 98.2 87.1 82.4 76.7 74.3 72.6 72.3 72.3 69.3 62.9 62.9 62.2 63.3 63.3 60.8 60.9 61.1 61.5 63.2 66.7 71.4 79.7 94 122.2 135.3 145 150.4 155.8 153.3 154.6 161.5 160 156.8 154.9 154.1 155.1 157.9 160.2 161.9 162.5 163.6 160.2 155.6 149.7 149.1 150.4 153.3 155.6 158 152.4 154.2 164.8 170.1 174.2 179.8 183.3 188.1 190.2 192 193.4 195.5 195.6 196 196.5 195.2 190.7 189.2 184.3 180.5 167.5 161.4 157 156.1 155.1 155 152.3 148.8 145.9 142.2 136.9 129.6 114.6 120.1 123.8 131.1 133.9 136.9 139.3 139.3 141.1 142.9 144.4 145.9 154.6 152.4 137.5 135.5 133.9 140.2 151.8 153.6 157.4 159.7 160.8 163.6 167 171.1 172.9 171.6 181 180.2 182.9 184.7 184.1 187.4 190.5 190.1 186.1 195.2 197.8 197.7 196.9 198.1 199.4 202 192.8 189 188.1 207.8 214 216.8 219.5 214.4 219.3 222.9 217.5 222.3 223.1 215.5 208.7 209.3 210.1 211 213.3 224.5 235.3 240.2 243.5 249 251.9 258.5 255 256.5 258.3 256.7 260.1 258.7 259.4 259.4 252 254.2 256.9 256.9 256.5 255.7 254 255.1 253.5 252.9 250.6 245.9 244.1 246.1
71.1 76.1 79.2 83.7 88.2 88.7 89.1 91 92.5 93.4 96.7 104.9 116.6 131.2 138.6 140.8 143.5 146.9 144 144.9 147.2 148.6 148 142.8 137.7 132 119 95.3 88.5 78.9 76 74.1 71.4 70.6 71.2 69.5 63.8 62.1 62.2 62.5 62.3 60.6 60.6 60.3 61 62.7 65.6 71.6 83.7 107.9 130.2 139.1 146.5 150.9 156.1 153 154.9 162.7 162.1 157.8 155.6 155.6 157.2 162.9 162.5 161.9 156.9 157.3 151.2 149 147.6 145.1 148.9 152.8 155.6 149.3 144.4 147.9 153.1 163.3 175.9 181 183.8 188 189.1 189.9 192.1 189.9 190.9 193.4 196.1 196.1 193.4 192.8 191.2 176.6 167.5 164.1 162.2 162.2 159 157.7 156.3 152.7 149.3 146.6 144.2 138 117.6 120 128.1 137.2 138.8 140 142.2 141.5 145.2 150.1 153 146.8 150.6 153.6 140.9 136.6 136.8 136.7 143.1 145.8 151 150.1 154.7 155.7 158.9 161.1 163.2 163.2 167.2 168.7 170.9 167.8 167.5 165.7 165.8 170.3 174.1 178.1 179.3 178.9 180 183.2 183.8 187.8 180.7 181.6 184 185.7 187.7 191.8 192.1 196.3 200.9 201.6 202.2 203.9 204.2 212.5 217.6 218.2 223.8 224.7 234.2 243 248.1 251.4 253.8 255.7 264.5 267.8 260.6 262.3 263.4 262.1 262.8 262.5 263.3 263.7 259.3 257.2 261.7 260.5 260.5 260 258.9 258.7 258.8 258 257.4 254.5 246.4 241.2
68.7 76.9 81.7 86 88 87.9 90 91.1 91.2 92.6 97 106.9 116.4 128.9 138 144.1 148.3 150.5 144.2 141.4 142.7 142.9 141.6 136.9 135.9 130.1 114.2 93.6 84.1 76.7 74.6 72.7 70.8 70 70.4 69.5 64.7 62.3 62 62 61.8 61.3 60.5 60.9 61 62.5 67.8 74.6 91.4 120.3 133.5 142 148.5 152.2 154.2 151.6 154.6 161.4 161.3 156.1 156 157.8 162 163.8 161.6 158.1 146.4 147.8 142.8 141.5 143.1 140.3 152.2 152.7 145.5 139.7 143.7 145.8 147.6 154.3 164.7 175.2 184 187.4 183.9 184.4 185 184.8 185.9 188.6 193 193.9 193.2 195.4 184.1 177.3 172.8 172.7 170.4 169.1 166.2 165.5 158.9 155.6 153.1 151 148.6 141.1 118.4 121.8 130.5 140.5 143.9 144.8 146.1 146.2 148.1 154.3 158.2 156.3 152.1 151.2 152.4 148.6 141.8 136.6 137.6 142.1 142.3 141.6 142.8 146 149.3 150.9 154.4 155.1 152 155.6 159.4 162.1 167.5 172.9 177.2 178.3 169.1 168.8 174.8 175.2 174.2 175.7 175.7 176.2 182.4 193.7 193.5 194.4 198.3 209.1 202.3 207.6 200.9 207 222.8 227.8 226.9 230 232.8 232.9 240.9 244 249.3 254.8 258.3 260.6 262.3 264.2 271.6 268.5 268 268.7 268.3 267 267.7 267.3 267.1 267.8 267 262.6 263.4 265.1 264.6 263.1 263.1 261.6 260.6 262 260.7 257.1 251.3 242.5
68.9 75 80 84.6 85.7 85.8 90.4 90.4 90 93.3 98.9 108.8 118.2 128 136.9 143.6 147.8 149.5 142.9 141 141.8 141.7 140 136.7 134.3 127.4 110.1 92.4 78.9 77.6 74.1 70.7 70.1 69.4 69.6 70 66.5 63 61.6 61.5 61.9 61.4 60.4 61.3 60.9 62.3 67.4 78.2 103.6 124.5 137.7 145.4 149.9 153.4 151.7 146.3 153.4 158.7 156.8 151.8 157 160.1 164.3 161.3 156.5 149.9 139 137.3 134.5 133.9 134.4 139.5 144.5 139.1 136.6 139.1 144.9 143.8 147.8 153.5 163.1 171.9 178.2 178.5 179.7 182.3 183.9 185.3 185.5 187.8 190.1 191.1 192 190.6 186 183.8 181.2 180.2 179.5 177.9 174.7 170.4 163.9 160 156.5 155.3 152.9 139.3 120.7 123.3 132.7 148.6 150.8 151.1 150.1 148.6 153.5 161.8 164.9 165 161.8 159.2 160.8 163.5 164 159.5 154.4 144.2 143.4 145.7 146.1 149.6 151.2 154.9 155.8 160.5 165.2 168.6 171.7 173.7 179.2 185.8 188.3 190.3 193.9 197.2 200.4 204.7 202.3 204.4 192.1 207 203.3 215.2 216.5 219.4 219.4 220.4 205.3 226.3 228.2 222.1 235.5 237.5 233.6 242.5 245.5 237.4 250.8 254.7 259.2 263.9 267.8 269.8 270.4 274.1 275.9 275.5 274.5 275 273.1 274.7 271 272 271.2 273.4 272.1 270.2 270.7 270.5 270 267.3 267.1 266.1 262.8 263.5 261.3 257.5 251.3 244.4
69.6 73.9 78.3 81.7 82.9 83.3 85.1 88.1 90.2 95.2 103.1 113.2 121.1 127.9 136.5 144 147.6 148.7 144.9 142.2 142 141.5 140.4 137.1 133.5 125.4 109.8 88.3 77.6 76.5 71.9 71.4 69.7 70.8 70.5 71 70.3 65 60.8 61.2 60.9 60.4 60.2 62.2 61 64.7 71.7 87 108.8 129.4 142.1 147.6 150.7 154.9 149.5 145.1 143.6 154.4 147.5 146.7 159.1 162.1 160 154.5 150.6 142.4 132.3 129 127.3 122.9 120.7 125.5 132.4 133.2 134.7 140.5 144.7 147.6 151.2 156.4 165.6 170.8 173.3 176 180.8 184.3 185.6 186.7 189.7 191 191.4 193 194.2 194.5 193.9 192 189.6 188.3 187.7 185.1 181.3 176.2 170.1 167.2 161.7 158.1 154.8 138.8 121.5 126.6 137.8 151.6 154.6 155 153.7 154.3 158.6 167.5 171.6 172.5 170.2 165.6 165.1 172.1 173.8 174.5 173.3 171.1 167 163.7 156.9 157 160.3 153.4 165.5 165.7 170.2 177 182.9 187.5 192.9 198.3 201.7 204.4 207.1 209.4 212.4 214.9 216.7 218.6 215.8 221.8 222.7 221.3 225.3 227.3 226.2 230.1 210.1 231.6 233.3 238.7 242 244.7 246.3 247.8 253.6 257.1 247.6 262.4 265.5 270.9 273.6 276 277.6 282 280.6 281 280.7 280.7 280.5 278.6 278.2 278.5 279.3 278.9 279.4 277.4 276.5 276.5 275.3 275.2 273.4 269.8 266.9 262.6 259.8 255 249.8 242.8
70.3 73.9 78.3 80.4 80.4 81.3 85.6 91.2 95.4 103 114.2 120.2 124.9 129.1 136.6 143.6 146.3 148 147.5 146.3 144.6 142.8 140.2 137.1 132.1 125.2 105.9 84.4 76.8 73.6 70.9 70.2 70.3 70.3 69.9 70.8 69.5 65.5 60.9 60.4 60.4 60.8 61 62 63.6 67.1 76.6 95.9 114.9 134.4 143.4 148.4 151.2 153.3 148.2 145.6 134.5 134.5 133.9 147.6 159.6 162.6 156 145.8 140.5 131 122.5 123 122.7 113.1 112.6 117.5 130.6 136.6 138.1 142.9 147.1 150.1 154.1 161 171.4 173.2 174.8 178.8 189.5 192.3 193.1 193.5 194.9 194.7 195.2 196.1 197.3 199.5 199 196.6 195 195.2 194.9 191.1 185.7 181.2 179.2 177.2 169.6 160.9 154.5 132.9 127.2 131.1 144.7 154.1 158.1 158.7 158.2 159 164.2 171.5 177.6 179.4 177.5 171.9 173.3 178.1 180.2 181.2 181.3 180.7 180.3 178.7 171.6 162.5 161.8 165.4 155.6 167.3 180.9 188.9 191.6 196.2 199.9 203.9 207.8 211.1 211.7 214.2 217.2 220 222.8 225.7 226.8 228.9 229.2 227.9 229.8 230.3 235.1 236.8 224.5 236.1 238.2 241.6 244.7 248 251.2 253.5 258.5 263.1 262.8 261.8 269.5 276.1 279.7 280.9 282.7 287.6 286.7 286.3 285.4 286.8 285.6 285.4 284.6 284.3 284.1 284.7 285.2 284.5 283.9 283 282.2 280.5 276.8 273.1 269.2 263.3 255.2 248.6 237.7 221.3
71 75 78.7 79.3 79 80.4 88.3 96.4 105.8 112.8 120.9 125.3 126.4 130.7 137.2 143.3 146.9 147.8 147 146.7 144.3 141.5 138 134.7 129.6 123 103.1 84.6 76.1 71.8 70.2 69.7 69.6 69.2 70.3 70.1 70.2 68.6 61.1 60.2 60.3 61.2 60.8 62.4 64.2 68 81.5 105.4 121.9 136.6 146.3 149.9 151.3 150.2 148 146.6 139.1 125.9 127.3 141.3 155.8 152 139.9 130.9 123.6 117.2 115.1 117.9 113.4 108.5 115.3 130.1 136.5 139.5 141.1 145.9 149.5 152.7 158 165.1 173.6 175.3 180.4 185.9 199.5 203.1 203.5 203 201.3 200 198.8 198.7 199.8 202.2 203.6 203.9 204.6 201.9 199.5 196.5 192.1 190.4 189.1 185.2 176.8 164.7 154.8 134.9 125.5 139.2 152.5 156.1 160.5 162.1 163.8 163.6 170.7 177.5 185 187.8 185.5 182.4 182.7 184.1 185.7 186.8 186.9 187.4 187.4 186.2 183 177.3 167.4 169.2 156.5 162.2 185.8 195.2 199.4 202 206 209.6 212.7 215.2 218.3 220.2 220.8 225 228.1 231.3 230.4 235 236.8 236.5 235.6 240.9 242.2 243.6 242.7 222.5 242 245.8 248.3 250.7 254.7 259.9 261.1 267.5 270.4 271.4 275 275 284.1 286.7 288.6 292 292.3 290.7 290.6 291.7 291.6 290.4 290.3 289.5 289.2 290 290.3 291 290.8 288.5 285.6 282.6 277.8 269 259.8 259.6 254.7 252.7 249.6 243.8
72 75.6 78 78.3 78.7 80 89.5 100.4 112.7 118.8 124.5 126 126.3 130.3 136.5 142.4 145 146.7 145.7 145.8 143.5 140.1 136.9 133.2 127.7 114.6 98.7 90.9 76.4 70.8 69.5 69 69.7 69.4 69.3 70.4 71.3 70.6 61.7 59.8 61.1 61.1 61.9 63.4 65.2 72.1 88.9 110.4 125.2 139.8 148.3 151.5 151.4 149.5 148 146.3 139.9 124.5 119.6 127.7 141.3 133.9 116.9 114.8 108.4 108.3 107.9 110.4 107.6 114 128.9 137.3 139.4 142 144 148.9 152 155.7 161.1 169.9 176.4 180.6 185.4 192.4 203.1 209.7 211.5 202.7 201.1 201.6 202 201.4 202.8 204.2 208.7 212.1 210.8 207.6 207.3 202.5 201.8 198.5 193.9 188.4 180.1 168.2 157.9 127.7 131.9 144.1 152.9 160 163.1 168.9 171.3 169.1 174.5 184.8 190 192.3 191.1 188.3 186.4 188.3 190.5 191.8 193.2 194.3 193.8 192.8 190.8 188.2 181.9 175.8 170.1 160.9 167.2 192.1 200.9 206.7 211 213.8 217.7 219.9 222.9 225.6 227.5 229.5 233.9 236.3 238.6 240.2 242.1 243 245.5 246.6 246.3 249.3 250.4 249.2 237.6 243.6 252 253.9 257.1 262 266.2 269.8 274.8 277.5 282.1 284.5 288.1 292 296.4 298.2 298.3 297.3 297.1 298.1 297.6 295.5 295.3 295.6 295.6 296.3 297.1 299.2 296.6 292.2 287.2 280.6 273.5 270.6 268.7 265.3 262.3 261.7 257.5 253.9
73 75.5 76.4 77.8 79.1 84.8 92.4 105.5 115.9 122.5 124.7 123.7 126.2 130 134.4 140.1 141.7 143.3 144.5 144.3 142.6 139.9 137.6 131 123.4 108.8 99.7 89.9 78.1 71.5 69.3 68.8 69.6 69.7 69.5 70.7 70.1 68.2 60.9 59.4 60.5 61.5 62.3 64.1 66.4 76.3 95.6 115.5 131 142.9 151.1 151.3 148.5 146.3 144.5 140.5 136.3 123.3 115.1 119.1 120.9 110.7 105.8 104.7 104.5 103.4 104.1 102.9 106.7 119 132.6 139.4 144.4 144.8 146.5 150.1 153.6 159.5 168.4 175.7 179.3 184.1 189.3 196.2 208.4 206.9 198.2 196.3 197.2 197.3 199.4 202.2 204.6 205.9 210.9 215 212.9 210 208.6 209 204.5 198.6 193.9 187 178.9 170 149.5 129.8 132.6 148.2 159 166.7 171.1 174.9 178.7 183.2 187.2 190.8 195.2 195.4 194.8 195.2 194.7 194.6 196.2 197.9 199.6 199.6 199.6 198.1 196.2 195 190.8 186.3 181.9 168.8 164.4 174.2 197.6 203.9 210.3 215.9 219.4 222.1 224.4 227.9 230.9 233.4 237.8 240.2 242.2 244.6 245.9 248.1 250.5 252 252.4 254.2 255.1 256.3 254.4 241.5 255.9 257.9 260.2 265.1 271.6 272.4 280 283.7 285.6 289.5 291.8 296.1 300 302.6 303.1 302.3 302.2 304.4 304.6 301.5 301.1 300.8 301.5 304.4 304.4 304 299.8 294.2 282.8 283.1 275.2 277.3 274.8 273.1 268.6 268 261.1 258.7
73.3 74.8 77.6 82.2 84 88.2 98.3 111.3 119.5 125 124.7 122.4 125.4 128.8 135.6 138.7 138.3 139.6 141.8 143.2 144.8 140.2 137.5 130 115 104.6 99.5 91.7 82.1 72 69.3 68.4 69.3 69.4 69.4 67.4 62.9 60.8 59.9 59.8 60.6 61 62.3 64.9 70.2 80.7 102.1 120.5 135.8 144.1 150.6 148.6 144.8 141.7 138.9 134 130.1 122.6 111.5 110.2 105.7 103 102.1 101.7 101.1 102 103 111.3 116.7 114.6 124.6 137.8 143 143.6 146.7 150.6 155.1 161.3 169.7 173.5 176.6 182.3 188.5 193.9 198.6 195.5 194.5 192.9 192.4 194.9 198.2 202 208.4 209.1 208.7 204.4 204.8 204.5 208.9 213.2 200.7 195.8 192.2 185.3 175.6 142.4 132.1 133.9 146.8 159.5 167.6 173.2 174.8 179.1 184.7 189.7 192.4 194.3 199.2 202.3 201.6 201.1 203.5 202.5 201.7 202.7 203.2 202.6 202.3 201.2 200.3 199.4 197.4 194.7 190.6 179.2 166.7 183.1 194.6 200.8 206.9 213.9 219.5 222.5 226.1 230.2 233.6 236.8 240.9 243.5 246.7 248.3 250 252.2 254.8 256.2 257.4 258.5 259.6 260.9 260.8 251.6 249.9 261.9 265 267.5 273.8 278.4 281.7 286.1 289.3 292 295.4 300.1 303.5 306 306.8 308 308.6 310.5 310.6 309.6 308.9 306.8 307.2 308.1 308.7 307.2 301.6 289.4 293.5 290 286.3 282.7 280.6 278.8 276.1 271.8 268.1 262
76.2 77.5 81 84.6 86.3 93.6 103.1 114.5 122.3 126 126.7 126.1 125.3 130.9 139.2 141.8 139.9 139.3 138.3 139.1 139.6 137.3 132.8 125.2 113.7 105.8 100.6 92.7 82.7 71.9 68.8 67.9 68.9 68.7 65.9 60.5 60.4 60.2 59.4 59 60.4 60.9 62.3 64.4 74.2 89.7 108.5 126.9 140.6 144.2 144.2 141.5 140.2 136.8 132.7 128.5 124.3 118.5 111.6 105.1 102.3 100.9 100.6 103.4 107.6 113.5 117.9 123.6 127.1 128.6 123.7 128.5 132.5 138.8 143 143.6 147.8 152.8 157.1 161.2 165.9 171.6 177.8 182.2 185.9 189.1 189.8 187.5 189.5 192.2 196.1 199.1 200.3 199.5 197.3 195.5 194.6 196.7 199 197.9 194.6 191.5 187.9 179 161.3 135.4 150.7 153.7 161.2 167.7 175 177.1 176.6 180.8 186.4 192.5 196.5 199.4 204.4 208.5 209.1 206.8 205.8 205.2 204.5 204.6 205.8 204.3 204.4 203.9 203.7 203 203.9 202 194.1 184.4 170.5 177.6 192.6 199.7 205.6 212.3 219 221.3 224.5 229.8 234.4 239 243.6 247.3 250.7 252.4 254.2 256.3 258.7 259.3 261.2 263.1 264 265.7 265.3 262.8 244.4 262.4 267.1 272.1 277.3 281.3 284.5 288.7 291.5 294.6 298.4 301.4 306 311.1 312 312.6 312.8 314.9 315.6 316.5 315.1 313.9 314.4 312.5 312.2 306.7 301.3 301.6 298.3 289.9 293.7 288.1 285.6 283.5 279.5 277.3 272.8 267
78.6 79.1 82 86.3 89 97.3 108.4 118.6 124.5 128.5 130.3 127.4 127.4 132.7 143.1 146.9 145.1 139.7 137 134.9 134.1 130.7 128 120.4 113.1 107 101.8 94.9 81.3 71.6 65.9 67.3 67.8 65.2 60.9 59.3 59.8 59.7 58.8 59.4 59.9 60.9 62.2 66.4 78.8 97.3 115.8 130.4 138.4 142.9 137.1 134.7 133.9 132 127.8 124.5 119.9 115.4 110.7 106.5 100.7 99.6 102 109.3 113.7 118.6 125.3 132.2 135.4 134.5 131.7 131.5 132.1 132.7 136.3 133.7 136.5 139.8 143 145.6 153.2 158.4 166.2 169.7 174.6 180.6 180.7 179.2 185.1 186.4 188.8 188.1 187.6 187.9 187 185.3 185.4 190.9 191.5 190.1 187.9 187.1 183.7 176.9 163 138.5 167.6 169.1 173.2 175.8 178.5 180.2 179.9 180.9 186 191.1 198.4 204.3 207.3 210.6 210.7 207.4 204.4 203.9 203.4 198.3 197.1 204 206.9 208.2 207.7 207.6 206.6 203.4 196.3 185.9 170.2 173.4 190 197.1 203.1 209.8 215.9 222.2 225.9 228.7 235 240.1 244.9 248.9 253.8 256.6 258.7 260.4 262.3 263.4 265.3 267.4 269.1 270.2 271.1 269.6 253.6 262 270.2 276.5 280.2 283.6 287.3 290.8 293.5 296.5 301.4 304.6 308.6 311.8 317.9 319.3 320.9 322 323.5 322.3 321.6 319 319.9 319.4 315.8 309 308.5 306.7 300.1 303 300 294.2 290 287.9 285.9 282.2 277.5 271.2
76.9 79.2 83.1 87.7 91.8 102.9 111.1 120.1 126.4 131.8 135 132.5 130.1 134.7 143 147.6 146.6 143.4 137.8 133.1 128.6 124.1 124.5 117.2 112.1 106.9 102.6 94.2 80.5 69.3 64.8 66 62.4 59.8 59.5 59.2 58.7 59.2 58 58.9 59.6 61.2 62.9 68.6 84 102.3 118 130.5 138.2 134.7 130.7 129 128 125.3 122.9 119.8 115.6 112.1 108.9 104.3 100.3 99.2 106.4 111.8 116.8 123.2 129.6 137.6 139.5 137.9 136.5 136.9 134.6 124.8 124.5 125.4 127.8 130.1 133.2 135.5 139.5 144.8 151.3 156.5 162.3 167.9 171.3 176 178.4 176.3 175.5 173.6 174.4 172.9 171.2 170 171.7 174 175.2 171.9 173.8 177.4 179.2 174.7 168.3 144.7 154.3 163.1 167.6 172.4 179.5 180 181 181.9 186.1 190.3 197.8 205.8 207.1 208.3 207.6 205.9 200.3 190.5 190.3 195.5 202.5 202.9 210.1 212.2 212.3 212.1 208.6 203.1 198.3 195.1 184.7 176.3 182.2 193.6 199.9 208.1 213.1 220.5 225.8 229.3 233.3 237.8 244.3 249.6 255.9 260.2 263 264.7 266.1 267.9 270 272.5 274.1 275.1 275.9 276.6 273.2 256.4 270 278.2 282 284.8 289.5 293 295.7 299.5 305.1 308.6 311.1 315.5 322 324.9 327.9 329.2 330.8 331.1 326.7 325.1 324.2 323.6 319.8 317.4 313.8 312.1 305.7 306.3 305.4 299.2 296 293 289.4 286.2 280.3 272.3
80 81.6 86.2 89.8 97.8 105 111.8 120.2 127.7 135.2 140.9 140.1 132.9 134.5 140.1 144 142 140.8 137.3 131.4 123.2 118.9 119 115.8 112.2 105.3 102.2 93.6 78.7 67.1 63.4 60.8 60 59.5 59.1 58.7 58.4 58.4 57.2 58.8 60.1 61.4 63.7 72 88.4 105.5 118 128.6 134.7 127.7 124.9 124.5 122.9 119.5 116.4 114.7 111.5 108.1 105.1 101.3 98.6 104 109.2 114.4 121.8 128.9 135.6 139.3 139.2 138 137.8 137.9 130.8 122.6 128.6 133.5 134.9 135.4 133.8 132.2 130.3 133.2 137.7 141.9 146.3 148.4 153.8 159.6 162.3 162.8 160.3 163.2 162.4 154.4 151.9 152.4 152.8 155.8 158.3 175.4 182.8 186.3 185.6 181.4 177.3 164.5 145.8 149.7 157.4 161.6 167.8 173.2 180.1 180.9 185.5 190.8 195.6 200 201.9 199.5 191.4 183.6 186.9 195.4 203.8 210 213.1 210.3 210.4 213.2 214.3 214.8 212.9 209.1 206.4 202.2 197.2 189.2 177.2 185 197.4 203.4 210.3 216.4 222 225.9 231.8 236.8 241.5 249.1 255.9 262.3 265.9 267.8 270 272.6 275.7 278.4 279.9 280.7 281.3 281 278.9 277.3 263.7 279.5 283.9 287.8 290.7 294.2 297.7 303.4 307.7 311.3 314.8 320.2 324.7 329.8 335.3 335.1 337.3 337.4 335.4 334.4 330.4 329.4 322.2 325 322 318.9 317.8 314.5 310.2 305.5 300.6 297.7 294.3 289.3 280.7 280.6
83.1 84.2 88.3 92.8 101.2 107.8 113.8 120.4 128.3 136.8 143.1 143.3 136.5 136 138.3 138.5 137.5 134.7 131.2 124.1 118.1 115.4 112.7 114.7 109.7 103.6 100.2 92.5 78.4 67.3 62 61 59.5 59 58.6 58.2 57.9 57.6 57.5 58.7 60.3 62.3 66.1 75.9 92.8 103.7 112.6 122.3 125.9 119.1 119.5 118.9 118.4 116.1 111.5 109.4 106.9 104 101.3 97.8 100.7 106 112.4 118 124.8 129.8 133.6 136.1 136.9 136.7 137.5 137.6 127.9 126.6 137.3 143.4 146 146.5 146 143.4 140.7 139.2 138.8 136.9 137.3 138 139.4 143 145.9 146.3 149.6 151.2 148.6 152.1 162.3 166.7 167.9 169.3 174.2 174.2 185.9 189.8 190 187.3 183.6 178.7 169 150.5 147.2 148 155 162.9 170.8 177.2 183.8 187.4 191.9 194.5 187.1 179 180.6 200.5 203.2 206.4 211.4 215.4 215.9 218 219.9 223.6 223.4 222.7 220.4 216.6 212.5 204.2 206.7 197.4 189.4 180.9 186.3 200.6 207.4 213.3 215.8 223.5 229.1 236.1 242.9 247.1 252.2 261.9 267.1 270.5 273.9 277.2 281 283.2 285.5 285.8 287.5 286.6 284.1 281.1 282 275 284.9 289.8 293.6 296 300.5 305.9 310 313.6 318.8 324.9 330.3 335.4 341.9 342.1 343.4 344.5 342.2 340.5 336.5 334.3 331.7 332.8 328.8 325.2 324.6 322.2 317.3 311.5 307.3 303 298.7 294.1 290 286.4
83.7 85.3 89.1 95.9 103.4 109.2 115.1 120 127 134 139 141 137.9 134.1 134.2 133.1 131.5 128.9 126.6 119.5 114.5 110.5 110 110.9 105.7 102.7 100.7 91.7 79.2 67 62.3 60.3 59.1 58.6 58.1 57.9 57.5 57.3 57.8 59.4 60.4 62.8 68.7 79.2 93.8 103.8 113.6 120.2 117 112.8 113.4 114.9 116.8 115.5 110.6 107 104.4 101.5 98.6 97 102.3 106.8 111.5 115.8 119.3 122.9 128.2 133.4 136.2 134.9 134.6 133.7 121.7 130.2 142 149.4 152.2 155.9 160.3 156.1 153.4 153.1 152 150.5 147.5 146.7 144.6 143.4 144.6 145 146 157.3 163.8 170 172.5 175.4 178.6 181.1 185.5 188.2 187.7 191.3 193.2 191.7 188.9 184.8 170.5 173.3 165.5 158.7 157 156.4 162.9 170.8 176.6 179.8 183 176.7 172 176.2 191.9 207.3 209.2 211.1 215.3 216.3 218.1 222.4 225.6 227 228 228.2 226.7 222 216.8 215.2 213.9 210.8 204.2 193 183.5 190.8 201.7 208.1 217 221.9 227.1 235.1 242.8 247.7 252.5 259.8 267.9 273.5 277.9 282.2 284.7 287.9 290.6 291.6 292.8 291.1 289.6 287.1 287.1 289 288.4 293 296.5 299.4 303.4 308.4 313.6 317.8 322.1 328.4 334.8 340.5 345.6 352.2 350.4 348.4 347 344.8 343.2 340.3 339.7 339.7 337.8 332 332 329 324.9 319.2 312.6 308.8 301.2 299.6 296.2 290.7
84.7 86.9 90.3 99 105.6 110.7 116.6 119.7 123.7 131 139.1 139.7 137.5 132.8 130 128 127 124.9 123.4 115.3 111.6 108.9 107.4 105.7 101.5 101.4 100.5 91.7 78.2 66.3 63.7 60.9 58.9 58.3 58.3 57.3 57.2 56.7 58.4 59.5 60.6 62.9 72.7 83 91 102.3 111.2 114.3 109.1 109.4 111 115.1 118.3 116 111.6 106.3 101.7 98.9 96.5 97.9 100.5 103.4 106.6 109.5 112.7 116.7 124.1 131.7 133.4 127.6 122.4 121 119.4 139.1 146.6 153.6 157 161.8 164.2 167.2 167 167.7 166.7 165.3 164.9 162.7 162.3 162.7 167.5 164.5 153.5 177.6 178.6 179.7 181.3 185.3 190.7 194 194.7 194.3 194.3 194.8 193.9 194.2 192.9 183.8 184.3 180.2 172.4 162.6 160.1 157.7 159.3 166.6 169.1 171.7 170.1 173.3 191.2 192.5 201.6 206.7 211.2 213.6 215.7 217.4 220.5 225.6 228.6 229.9 231.7 233.3 232.1 228.3 223.5 223 224 219.2 214.1 209.1 203.4 193.4 194.1 204.1 208.3 216.3 225.1 232 241.4 247.2 254.5 261.8 266.8 275.7 281.8 286.1 290.2 293.2 295.6 296.8 297 297.1 295 293.5 292.4 293.1 293.2 294.8 298.2 302.2 305.9 310.9 315.3 320.5 324.9 331.3 336.4 343.8 349.8 353.3 354.5 352.4 352 350.4 347.7 346.3 345 346.9 345.6 340.2 339.9 338.3 333.8 327.5 318.5 313.2 308.8 305.9 301.7 295.8
86.4 89.1 95.6 101.8 108.8 113.7 119.3 119.3 122.9 129.3 136.4 136.1 135.8 130.6 126.9 125 124.5 123 120.4 111.8 108.7 106.4 103.9 104.5 97.3 99.4 97.2 91.1 76.6 66.5 63.7 61.3 59 58.6 57.5 57 56.6 56.7 58.9 59.5 60.6 63.3 75.3 84.6 92.5 101.7 106.6 106.1 104.9 106.2 110.5 116.3 118.7 116.7 113.2 106.8 99.2 96.4 95.9 97.2 97.5 99.9 102.3 106 110.9 115 122.5 126 122.9 114.4 124.5 131.7 138.8 147.5 153.1 156.8 162.3 165.5 169.8 175.7 177.9 178.9 179.3 178.7 177.2 177.7 177.5 178.9 185.1 186.4 157 182.1 190.1 195.7 197.8 200.3 201.7 203.7 204.1 203.1 202.3 200.3 198.2 196.8 193.4 193.8 190.8 185.3 173.7 167 163.8 162.5 159.3 160.6 164.3 164.6 171.3 185.6 192.1 198 202.3 207.6 213.2 215.8 216.2 218.4 221.9 226.5 229.7 233.5 236 236.6 236.2 233.3 232 230.9 233.2 231.7 226.6 222.9 221.4 214 204.4 195.2 215.5 221.7 227.7 233 241 248.6 256.4 266.2 273.8 276.8 285.4 290.4 295.2 298.1 300.6 302.9 302.9 302.1 301.2 300.8 299.5 297.7 298.3 299.1 300.4 306 309.7 313.4 319 323.1 327.8 333.1 338.3 344.8 350.8 356.6 357.4 356.8 357.2 355.6 352.9 352.4 352.7 353.9 352.1 346.7 347.8 348.9 344.2 334.3 326.8 323 317.4 313.1 306.7 298.8
89.1 92.9 99.7 109.3 117.7 120.1 121.5 120.6 123.4 128.7 133.3 132.4 133.5 127.8 125.6 123.2 123.2 120.8 119 110.9 107 104.2 97.9 96.5 94.6 90.8 81.3 72 68.9 65.8 63.9 61.3 59.7 58.7 57.7 57.2 56.5 57.3 58.9 59.6 60.9 67.2 79.2 83.3 93.8 97.7 99.6 100.7 100.3 105.7 110.7 115.5 113.5 111.5 111.1 105.4 97.2 94.7 94.9 95.7 96.8 100.1 103.7 108.3 110.5 113.8 118.3 112.5 110.5 122.9 130.9 141.3 147.4 152.9 156.7 161.6 168.1 173.6 179.3 187.3 186.9 187 189.6 180.6 186.8 188.5 190 191.7 193.5 191 179.1 178.4 179.7 199.9 204.7 207.2 211 212.5 214.6 215 212.3 208.4 206.2 203.7 195.6 197.6 195.3 189.8 183.5 174.5 169.1 165.5 162 168.4 170.2 176.5 184.4 189.9 194.4 198 202.8 209.3 214.3 214.5 215.4 219 222.1 227.2 230.6 233.8 237 238.2 239.3 238 237.9 238.7 241.2 241.8 240.4 235.4 226 229.6 223.2 209.5 200.3 215.8 224.6 230.9 239.4 249.3 260.1 270.4 278.2 284 285.6 294.1 299.1 303.5 306.4 308.1 308.8 308.6 307.6 307 306.4 305.5 303.9 303.7 297.4 308.1 312.6 316.9 320.5 325.1 329.5 333.8 339.5 346 352.5 357.2 358.6 360 360.4 360.7 358.6 360 360.7 362.4 359.7 356 358.1 359.4 354.6 343.7 333.5 333.2 328 321.7 312.5 303.3
92.7 97.3 106 114.9 119.4 121.5 123.4 121 123.6 128.7 131.4 130.3 128.5 126.5 125.3 123.4 121.4 119.5 116 110.8 106 102.2 94.6 90.7 88.3 85 96.8 90.8 74.7 66.5 62.1 60.6 59.5 58.2 57.2 56.7 56.2 58.1 58.8 60.5 61.1 71.4 79.6 81.4 87.8 90.3 96.6 98.7 96.8 103.1 108.2 110.1 106.4 103.6 102.7 99 95 93.1 96.7 99.6 100.4 97.8 97.3 98 100.8 104.1 105.3 107.8 113.5 128.6 136.3 143.8 150.6 153.8 158.6 165.8 174.3 179 184.4 191.6 194.5 181.5 181.2 188.1 188.3 186.7 194.5 198.3 192.4 187.7 201 207.9 200.1 194 210.7 214.7 219.5 223 225.3 227 227.7 224 212.7 201.2 203.9 201.8 199.2 194.3 188.4 183 175.6 167.5 161.5 170.7 175.8 181.9 188.1 193.8 196.4 199.5 204.2 210.1 214 213.2 214.7 218.2 221.9 226.4 230.4 234.1 237.6 240.4 241 242.3 243.7 245.2 247.8 249.5 249.2 245.9 239.9 230.1 231.7 222.3 210.6 209.7 223.6 232 237.8 249.7 261.9 273.5 281.5 288 293.4 297.3 303 308.7 311.8 313.9 314.3 314.3 313.3 313 312 311.7 309.8 309.3 309.9 304.4 314.1 318.9 321.4 326.1 329.5 333.5 338.3 345.8 351.5 354.9 358.4 362.5 364 365.3 366.1 367.2 367.7 370.2 370.5 369.2 369.7 372.2 365.1 353 352.9 344.9 337.4 327.6 317.4 304.3
96.6 103.2 111.5 117 121.8 124.5 125.5 123.3 125.1 127.7 129 128.7 127.2 126.4 123.6 122.1 121.6 118.9 113.1 108.7 105.1 104.7 100.5 95 96.4 98.8 100.1 87.3 74.3 65 61.8 59.3 58.2 58.1 57 56.6 56.8 58.4 59.5 60.1 65.2 73.3 77.9 81.3 84.9 86.6 94.2 94.8 95.5 102 105.9 104 100.5 97.8 93.4 92.3 91.9 96.1 98 97.3 94.2 94.6 95.8 108.1 113.8 116.2 117.5 121.1 123.2 124.4 136.3 147.8 152.1 156.1 161 157.4 165.4 175.4 187.4 196.1 178.5 195.2 204.2 208.9 209.6 203.6 199.3 193.4 199.7 209.1 215.1 217.8 217.8 197.7 201.8 202.3 208.5 213.8 215.3 220.5 223.2 220.4 215.7 221.1 214.7 206.9 202.9 199.2 193 188.2 180.1 172.2 167.5 164.2 169 177.1 183.5 189.7 194.6 201.4 206 211.1 213.8 212.6 213.2 216.3 220 225.9 230 234.3 237.4 239.8 240.8 245.6 248.2 251.4 253.8 255.9 256.6 255.7 247.9 242 232.6 235 222.3 208.9 218 232.4 242.6 251.8 263.8 275.7 286.2 293.8 299 299.8 304 309.6 314.9 318.1 319.2 318.9 319.2 319.5 318.5 317.3 315.6 314.4 314.2 315 315 318.9 322.7 325.4 329.1 332.8 338 342 347.5 352.8 357.6 362.7 367.2 370.4 373 375 376.3 378.8 380.6 379.3 383.1 384.6 376.3 361.5 365.7 355.8 346 331.9 317.5 300.6
100.6 107.5 114 118.8 124.3 127.8 127.8 126.1 126.3 128.4 128.2 127.3 129.3 129.6 124.9 121 121.8 117.7 111.8 108.4 107.6 106.8 101.7 97.2 98.7 100.8 98.9 85.3 72.1 64.5 59.8 58.7 57.5 56.7 56.4 56.2 56.6 58.7 59.8 59.9 67.6 73.1 79 80.7 82.7 86.4 91.5 92.4 95.3 100.2 101.8 97.2 91.5 87.3 90.4 95.7 99 90.7 91.7 92.3 94.4 97.7 106.3 115 119.5 121.7 125.3 129.6 134.1 137 128.9 145.7 153.5 148.9 157.3 169 173 172.8 173.9 190.6 184.2 205.5 202.6 215.2 217.4 215.3 215.6 216 218.8 219.9 222.6 223.5 225.3 222.5 210.1 204.3 208.6 208.5 210.8 214.8 218.7 218.8 230.5 238.9 234.7 222.9 209.6 204.3 199 194.9 186.7 180.5 173.9 168.7 167.3 168.5 172.7 184.6 189 194.4 203 210.5 211.9 211.6 212.8 215.3 218.9 223.1 229.7 233.8 236.1 238.7 243.8 248.1 253.3 256.6 260.3 262.2 265.2 264.4 257.6 249.2 242.4 242.2 238.6 228.3 208.1 226.3 244.5 255.4 266.4 278.3 289.9 298.2 302.3 304.2 307.2 311.8 317.6 322 324.4 324.9 325.1 326.2 324.8 323.2 321.1 318.9 318.5 319.1 319.9 320.8 317.6 321.4 329.1 332.5 336.4 341.1 344.9 350.9 355.5 360.8 367.2 373 376.5 380.2 383.1 385.2 390.4 391.9 395.5 395.5 387.3 377.9 376.4 363.7 350.2 332.9 318.1 301.4
104.6 110.1 116.1 121.7 126.4 129.6 130.4 129.6 130.5 129.9 127.9 127.3 129.5 130.9 126.3 120.8 120.3 116.4 113.3 109.3 108.9 107.2 102.5 98.7 100.2 100.6 97.4 85.8 71.3 62.8 59.4 57.5 57 56.2 55.9 56.3 57.4 58.3 58.6 60.2 68.8 73 75.9 78.5 81.3 85.4 88.7 91.2 96.1 99.4 97.9 85.2 83.2 86.4 86.1 92.1 91.1 90.6 91 101 105.3 110.1 115.5 119.7 123.3 129.9 134 138 144.4 144.2 144.6 144.6 142.2 158 172.6 179.1 184.6 190.7 187.7 191.7 206.2 211.6 215.1 209.4 216.6 223.7 225.5 227.9 229.6 227.4 230.6 233.9 233.8 235.5 234.2 237.6 236.8 238.8 238.3 227.8 234.3 230 234.4 243.5 242.9 239.1 227.6 216.1 206.3 199.9 195.4 187.6 182.9 180.4 173.8 172.4 170.7 172.5 181.4 189.3 196.3 203.1 208.1 208 211.4 212.8 217.5 225.6 229.9 232.8 236.1 241 246.1 251.3 257 261.8 266.8 271 273.2 272.5 269.1 264.1 253.7 243.4 243.4 239 225.6 213.6 234.9 254.5 269.4 279.8 291.3 298.7 303.3 306.8 309.3 313.8 319.6 324.8 329.9 331.7 332.2 332.4 331.1 328.5 326.4 324.1 323.8 323.4 323.2 324.1 324.2 326.6 324.6 329.3 335.1 339.4 343.4 347.7 353 358.8 365.4 372.3 377.3 382.2 386.3 390 396.6 400.2 402.9 403.1 395.9 391.7 383 368.9 353.1 330.9 319.7 311.3
109 112.5 117.8 122.8 127 131 130.5 129 129.7 129.2 127.9 128.4 129.3 129.2 125.9 120.9 118.6 117.7 115.5 109.6 108 106.4 102.4 101.3 101.5 100 95.8 84.4 70 63.6 59.2 57.5 56.8 56.1 55.8 55.9 56.4 57.5 58.9 60.7 69 72.2 74.5 75.9 79.3 84.1 86.8 91.2 96 95.6 84.9 81.6 90.6 98.3 99.4 95.6 94.5 90.7 93.2 106.1 109.2 115.3 120.5 124.2 130.3 138.3 142 145.6 148.2 148.9 150.2 154.4 161.1 173.2 186.1 194.1 201.8 202.7 204.7 212.2 215.5 219.2 223.4 228 231 233.7 235.3 237.8 241.7 243.7 242.1 242.2 242.4 240.9 242.3 244.8 248 248.5 249 241.5 250.4 247 249.5 248.2 252.5 249.8 236.1 234.3 228.6 215 203.7 197.3 190.7 187.5 181.1 179 178.7 173 173.1 181.9 189 194.7 201.8 203.1 207.2 212.1 215 219.3 224.8 231.4 235 240.7 246.9 252.8 259.8 265.6 271.4 276 279.7 280.8 279 275.4 271.6 264.5 251.6 249.5 238.3 220.6 217.5 242.1 263.8 280.3 291.1 298.7 300.9 304.8 309.4 314.7 322.1 329.2 335.6 339.3 340.9 340.1 336.4 334.1 330.9 329.2 327.6 327.1 326.6 327.2 328.9 328.4 330.8 334.1 336.6 340.2 343.3 346.3 350.3 357 363.1 369.7 375.2 381.9 386.9 391.7 398.6 404.2 407.6 406.9 400.9 396.3 385.1 368.5 350.4 331.1 326.8 320
110.9 114.5 118.4 123.3 127.4 130.2 127.3 126.8 129 128.1 126.9 127.3 128.7 128.3 123.8 119.4 118.4 117.5 116 109.7 108 105.9 104.4 103.7 100.8 97.3 90.6 80.5 72.9 64.5 60.3 58.6 56.6 55.8 55.7 56.3 56.9 58 59.2 61.4 67.9 64.9 69.2 74.8 78.6 80.9 84.5 88.9 89.1 81.5 80.9 91.7 99.4 102.3 101.9 101.1 101.3 102.7 105.2 110 114.6 118.4 123.8 132.5 141.2 147 144.9 147.6 150.9 157.2 161.9 166.4 175.5 190.2 196.2 205 209.5 210.9 213.7 218.7 222 225.6 230.7 234.9 236.7 241 243.9 247 249.5 251.7 248.4 248.9 249.5 250.1 249.6 246 251.9 253 252.8 251.2 253.9 255.4 254.7 254.5 257.4 255.3 253.3 250.3 235 230.2 215.2 205.9 200.6 195.8 190.7 188.5 188.5 183.9 176.4 175.6 178.1 187.1 192.6 195 201 205.8 209.2 212.8 216.8 222.9 230.2 238.3 245.5 253.2 261.4 268.9 274.4 280.4 284.4 286.8 287 286.3 284 277.3 267.4 260.8 252.9 242.8 227.1 223.2 235.3 263.2 267.2 289.6 295 296.2 304.3 309.1 318.1 331.3 339 344 345.3 344.1 340.2 337.1 335.1 333.4 331.7 331.8 332 331.6 332 331.7 333.2 336.1 338.4 341.3 344.9 348.5 352.2 356.4 362.3 365.7 372.9 379.8 386.2 391.9 398.5 403.6 408.6 406.8 402.6 398.3 385.1 365.9 351.6 339 332.2 328.1
113.1 116.6 119.9 123.6 128.2 127.5 125.1 126.3 128 126.9 126.3 126.1 128.6 128 122.2 119.7 117.2 115.6 115.7 111.8 110.1 107.7 106.3 106.4 102.7 97.1 94 84.6 75.6 70.9 60.6 57.1 56.4 55.9 55.5 56.8 57.6 58.5 59.7 61.2 62.3 63.7 66.4 72.3 76.8 81.9 79.3 76.5 77.3 80.5 90.5 97.6 103.5 104.6 104.2 102.1 101.6 104.8 108.4 111.7 114.7 124.2 130 136.5 138.9 141.7 147.3 155.5 162.1 166.6 169.9 181.4 195.2 202.2 208.7 216.8 219.5 219.7 226.9 228.2 229.8 233.6 236.6 238.2 242.3 246 251.1 254.9 256.7 257.4 256.3 250.5 256.3 256.6 256.8 256.4 257.6 258.6 258 257.2 257.1 258.1 259.4 259.6 259.1 258.3 258.9 258.8 253.5 244.4 230.7 217.5 209.1 203.7 198.8 199.6 198 193.1 189.1 175.7 178.3 182.5 186.4 189.8 193.5 198.2 203.4 206.1 210.3 214.1 219.6 226.8 238.2 250.8 261.1 268.9 276.7 282.7 287.6 291.1 293.8 294 294.3 289.6 283.1 273.1 266.4 259.4 240.7 239 241.9 232 241.1 247 262.3 280.2 293.9 299.2 306.7 322.8 334.4 341.9 341.6 341 338.9 337.2 336.8 337.3 336.5 336.7 338 337.7 336.6 336 336 337.7 339.3 343.4 345.7 349.3 353.9 358.9 363.4 368.2 371.7 377.9 384.8 390.4 396.6 401.9 406.3 406.8 404.7 400.5 384.6 370.1 352.4 346.7 340.4 334.1
115.2 118.7 121.8 124.9 127.6 125.6 124 124.5 126.4 125.6 125.2 126.3 129.9 129.2 122.6 118.3 116 115 114.1 111.5 110.5 108.2 107.9 107.1 103.4 101.4 96.3 87.7 82 75.1 64.1 57.3 56.7 56.5 56.6 56.8 57.3 58.3 59.5 61.6 67.6 70.8 65.4 69.6 80.9 75.6 74.6 79.4 89.6 90.2 95.2 101.4 104 104.7 100.6 100 102.6 104.2 107.8 111.3 115.9 131 137.1 138.2 139.7 146.3 154.2 161.6 168.6 175.7 182.8 200 206.6 214.8 220.7 226.3 227.5 232.2 236.1 236.8 236.7 239.6 242.4 244.7 248 253.7 256.5 260.8 261.5 261.2 260.2 261.2 261.9 261.5 264.4 264.4 260.6 261.4 262.2 261 260 261.5 262.7 264.5 263.5 264.9 265.6 269.3 266.5 253.4 243.5 231.4 221.6 213.1 209.4 208.7 208.9 204.1 198.9 191.2 182.7 180.5 182.6 184.8 188.3 193.2 197.7 201.8 206.2 208.7 212.4 219.2 226.8 235.8 247.7 262.7 274.1 284.3 290.9 295.6 298.3 300.4 302.5 300.9 297.7 290.2 277.3 271.7 260.1 247 251.3 252.1 251.6 248.2 247.5 244.9 265.8 279.5 291 301.7 317 328.1 329 332.2 331.2 335.7 335.2 337.2 339.4 340.8 341.7 342.2 341.6 339.8 340.4 340.7 341.9 345 347.6 351.8 356.5 362.4 365.7 369.8 374.6 377 381.2 386.8 393.9 399.7 405.5 407.8 406.6 403.9 393.6 378.1 366 357.2 349.9 347.8
117.9 121.3 123.4 126.3 123.9 124.1 123.7 123.8 124.5 124.4 124.8 127.6 131.2 132.2 123.9 118.6 115.6 114.9 113 110.5 109.2 107.9 108.1 106 102.4 101.8 98.4 94.1 88.1 79.7 69.9 59.1 55.9 55.5 56 56.3 56.8 58 59 65.3 70.4 71.5 70.4 68.4 73.5 75.4 78.7 84.4 88.9 89.5 94.4 97.9 96.5 96.4 96.2 99.1 101.2 104.5 108.8 113.4 121.8 132.4 138.9 138.1 149.7 156.6 165.1 171.8 175.1 185.5 196.4 210.2 219.7 226.2 230.4 231.6 235.2 239.4 242.3 244.1 247.4 244.9 250.4 253.4 256.5 260.4 262.7 266.8 266.2 266.7 267.1 267.2 268.1 268.6 270.6 269.8 266.1 264.1 265.2 264.2 263.8 264.5 263.8 264.7 267.1 271 273.2 272.5 270.1 268.2 257.4 244.2 234.1 223.2 224.2 223.1 219.5 215.3 208.4 198.7 186.7 190.1 185.4 187.5 185.9 187.9 191.7 194.3 196.7 201.1 207.1 213.7 219.8 227.7 236.7 250.1 266.5 279.1 289.8 296.4 300.9 303.1 305.2 308.3 308.8 304.7 291.7 282.4 274.9 257.9 259.3 260.3 260.6 257.7 257.9 260.5 258.3 251.3 265.7 276.2 289.2 300.3 305.3 312.4 320.8 326 326.4 333.2 339.8 343.5 345.6 346.3 345.5 344 344.6 345.1 344.8 346.7 350.3 353.6 358.3 363.3 369 372.3 376.8 381.2 386.4 390 396.9 400.8 408.4 411.4 409.6 407.8 399.9 387.7 376.2 368.6 358.3 353.4
120.2 122.9 124.6 123.1 125.3 124.7 124 124.2 123.9 124.1 124.5 129.5 134.2 134.4 126.9 118.7 115.5 112.9 111.1 109.2 107.2 106.7 107.3 104.4 102.7 103.9 100.9 98.4 91.7 83.9 74.8 59.1 56 55.4 55.8 56 56.5 57.7 63.9 68.9 71 72.2 74.1 77.3 76 75.7 78.9 86 85.9 87 89 90.7 92 93.7 95.6 98.5 102.7 106.6 111.8 118.4 128.3 133.7 133.6 139.9 154 163.6 167.1 176.1 183.3 192.3 205.9 221.4 230 233.3 236.7 230.7 240.4 244.4 249.5 250.9 252.1 253.2 257.5 261.2 264.4 266.1 269.2 271.1 271.6 272.4 272.8 274.4 276.8 275.9 275.8 275 272.6 271.3 270.7 267.7 266.7 268.8 267.3 265.9 266.7 269.6 270.8 271.1 271.9 271.9 265.8 256.8 247.1 234.5 237.5 234.3 229.1 226.1 218.8 207.3 192.8 202.2 202.9 202.9 205.8 204.8 203.1 201.8 203 203.7 206.1 205.7 212.1 222.8 232.2 243.6 256.7 272.8 286.8 297.1 303 307.2 310.3 314.4 318.1 318.4 309.6 299.2 289.6 275.2 267.3 268.4 269.1 268.9 268.3 268.8 274.2 268.8 260.9 263.3 262 272.8 282.9 293.6 308.8 311.7 314.9 330.6 336.3 345.4 349.5 349.3 348.1 347.5 347.6 349.2 349.6 351 352.6 356.3 360.1 365 370.4 375.2 380.6 383 389.3 395.3 402.3 407.5 412.3 416 415.1 412.6 406.5 395.5 384.6 376.9 371.8 357.4
120.8 121.6 123.3 125.9 126.7 125.8 124.2 124.3 124.2 123.9 124.9 130.6 136.8 135.7 128.2 118.8 115 112.7 113.3 110.6 106.1 105.1 104.9 102.5 104.4 106.2 103.1 101.4 96.6 90.1 79.6 65.7 56.1 55.3 55.3 55.8 56.1 61.9 65.1 69.4 71.3 72.5 75.3 79.8 75.6 75.6 83.2 85.4 85.3 86.8 88.7 90.7 93.9 95.9 97.3 102.1 107 112.3 117.7 124.8 133.1 128.3 135.7 151.6 163 171.3 180.4 185.9 192.2 201.3 215.4 229.4 232.7 222 225.4 228.3 245.8 251.3 253.9 258.4 260.3 264.3 265 266.9 270.2 271.1 273.4 275.2 274.8 275.8 278.2 281.3 283.5 282.9 283.4 280.4 277.3 275.9 275.5 274 271.4 272.4 273.1 275.1 277.9 278.7 277.9 273.4 274.6 272.3 268.7 262.3 256 249.3 247 244.5 239.8 234 227.6 217.4 200.7 212.4 214.8 218.1 218.7 218.1 216.5 218.9 218.7 219.4 221.6 222.2 211.3 215.3 228.7 240.6 252.7 268 283.3 295.2 303.7 310 314.4 323 329.4 328.8 322.8 314.4 304.7 293.1 274.6 274.1 278.1 280.5 281.4 281.7 279.9 279.3 269.6 276.2 274.4 269.7 266.4 271.5 289.6 298.5 308.7 322.2 333.7 339.7 347.9 350.7 348.8 348.1 348.5 349.2 350.2 351.5 353.6 357.7 362.4 367.1 372.2 377.7 382.5 388.3 391.8 399.3 409.2 415.5 418.2 420.9 420 418 412.8 401.3 390.9 385.5 379.8 367.2
118.6 121.5 124.4 126.5 127.4 126.4 126.6 125.9 125.5 124.1 125.2 133.7 138.8 136.5 128.4 120.3 114.2 114 115 111.7 106.5 103.4 102.8 102.1 107.2 107.6 105.8 104.3 100.5 93.1 81.3 70.9 57.2 55.4 55 55.8 61.8 69.3 68.6 68.7 70.4 72.7 74.8 81.1 74.8 75.4 82.7 84.4 85.5 87.1 88.6 91.6 94.8 98.1 102.1 106.4 112.3 119 123.5 131 128.5 128.1 152.1 165.9 173.9 183.2 187.8 191.6 200.6 211.8 225.3 235.8 229 224 243.1 251.8 252.5 259.4 265.1 266.8 269.1 271.8 273.4 273.4 275.6 276.8 278.9 278 278.7 281 283.4 287.9 289.9 291.1 291.6 288.5 283.8 283.4 281.7 280.7 281.4 282.4 282.6 284.2 287.1 287.5 285.5 276.9 282.5 279.6 274.1 268.5 262.6 259.8 256.9 252.7 246.5 240.5 231.3 224 205.1 223 223.4 227.1 227.7 226.3 225.5 227.7 227.5 227.2 228.2 228.9 230.6 224.1 227.1 240.4 251.5 264.3 277.9 291.9 302.7 311.7 319.2 329.4 335.6 338.2 334.6 328.4 319.8 308.2 285.3 286.6 289.7 292.3 295.9 290 287.7 298 294.3 292.5 294.6 288.1 285.2 284.7 283.6 281.6 299.7 314.1 323.1 329.9 332 344.7 345.2 344.9 346.1 346.4 347 348.5 352.4 357.4 363.3 369 374.3 381.1 386.3 391.7 396.5 403.7 413 421.5 425 427.2 427.7 423.7 417.8 407.9 402.1 393.8 387.3 373.3
118.9 122.1 125.1 127 128.3 127.5 129.6 130.2 127.9 125.6 127.3 135.5 139.9 136.3 128.3 122 115.1 114 115.5 111.7 106.5 101.8 101.2 104.4 108.4 108.2 107.3 106.8 102.8 93.1 83.7 72.3 58.8 55.3 54.7 56.4 67.8 68.7 69.4 69 69.9 72.1 75.1 80.4 74.4 76.4 82 84.2 85.2 87.3 89.9 93.9 97.4 101.5 104.5 108.6 114.2 119.8 127.8 129.8 122.1 146.4 171.4 178.9 182.5 187.1 192.8 199.4 208.5 224 237.6 238.1 218.8 243.9 252.8 259.6 265.9 270.5 271.4 274 276 279.2 282.2 280.7 281.8 284.7 285.5 283.3 284.2 287.8 290.9 293.7 295.4 298.5 298.3 295.8 292 290.4 287.4 287.8 288.8 290.6 293.2 293.8 293.8 292.4 292.3 279.9 282.4 284.2 280.7 278 271.2 268.9 264.6 261.5 256.7 250.5 241.1 230.2 215.8 230.4 231.1 234.3 235.8 235.7 235.9 236.1 236.5 238 239 240.5 238.6 232.2 224.7 238.6 250.6 262.7 275.8 288.5 300 310.7 321.6 330.9 337.3 341.2 340.1 337.5 334 325.6 302 292.7 294.5 289.6 298.5 305.5 303.8 310.1 303.4 305.6 311.7 307.6 300.5 296.3 298.8 289.6 282.4 289.6 304.3 308.2 315 324.1 330.3 331.7 333.1 337.5 338.8 341.5 348.3 356 363.4 369.4 376.6 384.4 390.2 395 398.8 404.1 412.4 423.2 429.8 432.8 434.7 433.7 426 416.5 408.3 401 392.9 384.9
122.8 122.7 125.1 127.2 130.2 130.2 133.2 133.1 131.8 129.3 127.7 136.2 139.9 135.8 128.2 122 116.9 114.7 113.8 111.5 105.5 102.9 99.6 104 106.8 107 106.9 107.7 103.5 93.1 83.9 76.7 59.5 55.1 55.1 63.2 66.7 67 68 70 70.1 71.2 73.4 73.5 74.6 81.8 81.5 85.2 86.3 88.8 91.4 95.6 100.5 102.8 106 109.1 115.8 124.2 127.7 122.2 137.9 167.6 176.7 182.2 187.2 192.4 198.7 205.6 219.1 234.3 244.2 217.8 240 258.6 267.9 272.1 275.7 277.2 279.4 282.9 285 288.7 292.6 290.5 289.3 290.9 292.2 291.7 292.6 294.7 298.5 298.6 301.8 304 302.4 299.6 299.4 297.2 296.2 296.1 296.3 297.1 297.8 297.2 296.8 296 296.2 293.5 291.3 288 286.1 283.7 279.8 277.2 272.1 268.6 265.2 261.6 244.4 232.4 225.3 237.7 238.1 241.2 242.2 243.5 244.4 243.4 243.9 244.9 246.4 245.8 244.2 238.4 229.2 235.2 252.7 261.5 272.6 287.5 299.5 305.7 320.5 331.5 338.5 342.3 343 342.4 340.6 337.9 331.3 313.8 310.8 312 313.6 313 311.9 313.3 316.2 328.1 326 319.5 316.8 308.9 303.8 301.4 298.4 294 285.2 290.8 295.2 303 312.2 306.3 311.3 320.1 323.3 331.9 337.5 348.9 356.9 365.8 374.6 382.8 389.5 394.9 399.9 406.2 412.5 420.7 431 436.3 442.9 446.8 436.7 427.5 421.3 412.8 403.2 398.5
