ncols 200
nrows 82
xllcorner 240000
yllcorner 924100
cellsize 50
232.2 244 257.6 270.3 283.1 294.8 307.8 319.1 325.9 333.1 337.5 339.6 336.4 331.5 323.3 318.4 314.8 309.1 299.3 290.9 283.2 287.3 290.2 287.6 282.8 279.1 275.1 271.2 268.5 264.7 263.8 263.5 262.8 263.2 264.1 269.4 271.2 273.3 275.5 279.6 286.4 288.2 291.9 294 300.5 304 307.3 311 313.7 318.1 321.4 326.3 330.1 334.7 336.6 340.5 345.1 348 351.7 354.7 356.6 356.7 356.7 355.9 356.8 357.7 358.7 359.1 360.4 364 367.9 367.5 368.5 368.8 365.6 360.5 355 350 346.2 342.1 336.3 328.2 316.4 301.8 287.4 276 269.6 259.9 251.9 241.7 233.3 226.5 220.2 216.2 212.1 209.6 206.3 204.7 205.5 205.2 201.3 202.5 199.7 200.2 202.5 202.5 200.4 199.5 205 216.7 234.4 243.7 256.6 263.6 272.6 282.9 285.9 287.7 290.3 292.1 291.7 292.2 293.4 293.1 289.6 290 289.6 294.2 295.8 298.7 299.1 300.7 302 301.4 300 300.4 298 296.9 294.7 291 291.5 290.1 289.3 289 288.2 289 288.1 289.9 290.8 289.8 286.3 283 282 280.2 276.9 274.1 272.7 271.5 271.2 270.6 270.4 268.9 268.5 274.2 275.5 276.2 275.3 279.5 273.5 275.2 276.7 274.7 275.7 276.4 277.6 279.2 280.7 281.6 282.7 284.6 285 284.9 284.4 284.6 285.3 285 285.2 285 285.2 288.1 286.4 288.8 290.5 291.9 293.7 295.2 298 299.6 300.5 300.4
234.3 245.7 258.5 269.8 282.3 293.7 304.5 315.8 326.3 335.2 339 339 336 331.4 323.5 316.2 311.3 305.2 297.8 289.6 282.3 281.4 286.5 288.9 283.3 277.7 273.9 271 270.7 267.2 264.2 260.7 259.4 260 261 264.7 266 268.7 271.6 277.4 282.4 283.2 286.4 288.5 293.5 298.4 300.4 305.2 307.3 313 317.1 321.2 324.5 329.4 332 336.1 337.8 340.9 344.3 347.7 350.4 351.7 350.7 348.9 348.9 349.2 351.4 352.8 354.8 358.8 360.5 360.9 360.3 359.3 356.7 354.6 350.9 348.5 346 342.5 337.7 328 318.4 306.3 291.8 279.5 271.7 263.9 255.1 244.6 237.4 231.1 225.3 219.3 214.9 210.7 207.7 206.3 205.9 204.5 199.9 202.5 199 202.9 202.8 201.5 200.1 199.1 203 216.8 230.5 240.8 250 260.2 270.4 278.9 284.4 293.6 292.3 292.8 292.2 294.5 296.3 291.7 290 289.1 289 292.4 297 299.2 299.5 301.4 301.3 302 303.3 301.3 300.3 297.6 295.5 294.4 288.6 285.4 282.9 280.4 283.7 279.2 281.9 283.4 287.4 287.2 284.8 280.9 280 278.5 275.6 273.4 272.4 271.7 273.2 271.8 271.1 270.9 269 274.8 276.4 276.7 274.9 271.9 272.5 276 277.9 276.7 275.7 275.8 276.4 277.4 278.3 279.7 281.8 283 283.1 283.4 283 282.7 282.9 283.6 284.1 283.9 283.9 286.1 285.8 288.1 288.8 290.3 292.1 293.3 294.9 295.4 296.5 296.8
238.6 248.4 259.8 271 281.8 291.2 302.5 313.6 324.6 331.8 337.7 338.3 336.4 331.9 324.4 317.6 311.6 307.7 299.2 289.9 282.7 276.2 278 283.6 282.9 280.1 275 272.4 270.5 268.3 264.4 262 260.6 259.6 257.9 258.8 263.1 265.5 266.4 271.6 273.6 277 280.4 284.4 286.1 294.1 295.7 297.9 303.2 306.4 312.4 315.6 318.4 321.2 326.6 329.8 331.9 333.3 335.6 339 342.6 344.3 342.9 342.2 343.1 342.2 343.7 344.7 346.9 348.5 352.8 353.3 352.4 351.5 350 347.5 346.2 343.8 341.3 341.6 338.7 330.2 319.2 309.5 293.7 283.6 275.5 267.3 259.8 250.2 242.6 235.8 230.3 225.3 219.5 213.5 210.3 209.2 208.8 205.8 203.4 202.7 202.4 204.1 204.7 200.9 199.1 199 201.8 211.8 226.1 235.7 248.6 258.5 267.8 275.7 282.4 288 290.2 290.4 290.6 292.9 293.2 288.7 286.9 286.6 289.3 291.6 297.1 299.3 300.1 301.6 301.8 303.3 303.3 303 301.6 298.7 297 293 289.5 283.3 279.3 278.2 283.7 283.7 283.7 282.1 281.1 282.9 280.8 280.2 278.8 278.2 276.3 274.2 272.3 272.7 273.8 273.3 272.4 270.8 269 273.7 274.5 274.2 272.7 271.8 270.4 272.9 275.6 275.6 273.7 274.8 275.2 276.2 276.2 279.4 280.6 281.4 281.9 281.8 281.5 281.2 282.4 282.8 283.1 282.1 283.1 284 284.3 287.2 287.5 288.9 290.6 291.9 293.1 294 293.5 293.1
239.1 250.1 260.4 270.9 281.5 291.1 301.9 312.3 322.4 330.4 334.5 337.1 338.3 336.2 327.3 318.8 311.4 308.7 298.3 289.3 282.2 277 273.9 273.9 277.9 279.8 279.8 274.1 272.9 267 264.1 263.4 261.8 260.7 259.3 257.8 259.8 262.1 262.9 265.1 269.3 271.8 275.9 279.5 282.6 286.5 290.4 294.2 299.4 302.7 304.9 309.8 313.6 317.5 320.2 323.9 324.7 326.6 329 329.6 332.9 333.9 335 335.8 337 336.7 336.6 337 338.5 341.1 344 345.9 343.2 343.2 343.7 343.1 340.1 338 337.8 337.5 334.4 327.1 317.8 309.1 299.6 288.9 279.5 269.7 263.5 254.5 247 240.3 234.9 225.8 220.4 212.8 209.4 209.4 210.2 208.5 205.2 205.3 204.5 203.8 204.3 199.8 198.1 201.3 204.2 207.9 224.8 238.3 246.4 256.8 265.3 272.3 278.8 284.1 286.3 287.2 287.2 286.9 285.7 284.4 282.5 286.6 288.4 291 294.9 298.9 301.1 302.4 304.7 306 306.8 305 302.8 300.2 298.6 295.9 290.4 286.6 283.5 283 283.7 283.7 283.7 283.7 283.7 283.7 283.7 283.7 277.2 275.7 274.1 275.2 274.3 275.3 275.2 274.6 273.4 271 269.7 272 274.9 272.7 271.6 268.8 270.1 272 273.1 275 273.4 273.6 274.4 275.9 276.4 277.8 279 279.5 280.3 280.1 280 280.1 281.4 281.5 281 281.2 282.2 283.2 285.5 286.3 287.8 288.9 289.7 290.6 291.8 291.4 290.5 289.8
242.9 252.5 261.1 269.9 280.3 290.9 299.5 309.9 318.1 325.1 331.1 334.9 336.4 334.4 326.6 320.6 311.6 307.1 298.7 289.9 283.2 276.9 274.3 273.8 273.8 276.9 278.5 277.1 273.5 268.8 264.8 262.8 262.6 261.6 259.1 256.9 258.6 258 260.3 262.8 264 267.6 273.4 276.2 279.7 282.6 284.9 289 294.4 298.8 298.7 303.4 308.7 310.6 313.9 319.7 319.2 320.4 322.8 324.5 325.9 325.1 329.1 328.7 330.4 331.6 331.1 330.4 330.9 333.1 334.6 335.1 334.7 339 338 337.5 336.8 334.8 333.8 332.2 329.7 323.9 316.9 309.6 301.1 292.5 282.7 274.7 266.4 256.7 249.4 243 237.1 225.6 221.2 213.3 208.9 208.5 210.4 210 207.9 206.5 206.2 203.4 200.9 198 199.8 202.4 204.1 207.2 219.5 234.4 244 253.9 259.8 267.7 273 279.6 280.7 282.2 282.2 281.9 280.8 281.6 282.8 285.7 289.3 292.4 295.9 298.2 301.8 304.7 305.5 308.1 308.1 307 304.7 303.4 302.2 298.8 295.5 291.2 286.1 283.3 279.5 283.7 283.7 283.7 283.7 280.4 278.6 283.7 279.9 278.6 277.7 277 276.7 277.7 275.5 275.2 273.4 271 271.8 271.4 273.4 270.5 268.8 273.4 271.3 271.2 271.7 274.3 273.6 274.1 273.3 274.6 275 275.6 276.4 277 278.9 279.2 279.6 279.6 279.7 279.7 281.6 282 282.2 282.3 284.9 285.9 287.7 288 288.6 289.4 290.1 289.2 288.6 287.3
243.9 253.3 261.4 269.5 279.3 291.1 300.1 308.7 314.4 321.8 327.9 333.1 334.7 331 326.3 322 312.6 304.9 296.6 289.1 283.2 278.2 273.5 273.8 273.8 272.5 277.1 277.1 272.7 271.5 265.9 263.7 262.7 261.1 257.9 256 257.5 256.8 259.4 261 262.6 264.7 270.1 272.6 274.4 276.6 282.3 284.3 289.4 291.5 295.1 300.7 303.6 306.1 309.9 311.7 314.1 314.9 315.9 320.5 321.9 321.9 322.4 322.9 322.4 323.6 325.9 325.3 325.9 326.1 326.7 327.4 328.6 330.7 333.6 333.4 333.2 332.4 332.5 330.5 326.7 321.8 315.1 308.6 302.2 294.1 286 277.6 268.8 259.6 250.1 242.8 236.9 226.8 218.6 213.6 210.5 207.8 209 208.9 210.2 207.4 207.4 203.7 199.9 199.7 203.7 203.9 204.3 207.2 217.6 229.9 240.7 250.3 255.5 264.1 268.7 272.7 275.6 277.6 279.6 281.1 282.4 283.9 285.7 287.5 291.6 296.3 299.3 303.7 305.9 309 311.9 314.1 314.2 312 309.3 307.9 307 304.3 302 297.5 290.9 285.5 281.8 280.5 283.7 283.7 283.7 283.7 283.7 279.7 280.9 279.9 278.5 277.6 277.9 278.1 276 273.7 273 270.6 273 270.1 273.4 273.4 273.4 273.4 273.4 270.2 271.3 272.1 272.6 274.1 273.7 273.6 273.9 274.2 274 274.6 276.8 278 278.7 279 279.3 280.6 282.1 282.7 282 282.5 284 286.3 287.3 287.6 287.9 288.2 288.5 287.9 287.3 285.7
243.4 252.1 262.3 269.8 278.2 289.9 300.6 306.6 313.5 319.3 325.8 330.2 334.7 331 326.1 319.6 313 304.5 295.2 286.5 282.6 278.5 274.3 272.7 272.1 272.2 272.5 273.1 272.7 269.9 266.6 264.3 262.5 260.6 257.7 256.3 255.6 256.7 258 258.6 260.7 262.4 263.7 267.5 270.4 271.2 276.4 279.9 282.1 285.3 290.8 296.6 297.5 303.1 305.8 306.2 308.7 311.6 312.1 315.4 315.8 318.2 316.2 316.6 315.7 318.2 320.3 320.3 321.1 321 320.9 322 324.3 325.5 327.5 329.9 330.4 331.6 331.7 330.1 325.2 321.5 313.2 306.9 301.8 296.4 287.1 278.9 268.9 259.6 249.1 242.6 234.6 226.3 218.4 213.8 212.5 208.1 207.3 206.8 205.3 204.9 201 200.5 197 200.8 200.4 202.6 203.1 210.1 219 232.9 238.4 246.8 253.2 259.3 264.8 268.1 271.3 274.9 278.7 282.1 282.7 283 286.5 291 296.5 300.7 306 310.1 312.4 314.7 317.7 321.7 321.5 318.7 315.7 314.9 313.6 309.9 307.5 302.4 294.6 286.8 282.3 281 283.7 283.7 283.7 283.7 279.3 281.7 282 281.2 280.3 279.4 278.4 277.7 276.9 273.4 272.2 271.5 272.1 273.4 273.4 273.4 273.4 273.4 273.4 273.4 269.4 271.6 272.7 273.4 273.5 273.6 274.1 274.1 273 272.9 274.6 276.3 276.8 277.4 279.4 281.4 282.6 283.1 283.6 283.7 285.6 286.8 287.5 287.6 287.7 288 287.2 286.7 285.9 283.7
245.3 254 262.9 270.2 276.6 285.7 297.4 305.4 312.8 318.7 325 330.3 333.2 330.4 325.9 319.9 314.3 305.4 298.4 293.3 288.4 282.5 279.8 278.3 273.8 276.3 270.9 271 269.9 268.1 266.8 263.9 262.1 260.2 258.5 258.4 258.1 254 254.3 254.9 259.2 260.1 262.2 266.4 268.4 269 273 276.6 278.3 282.6 286.7 292.5 293.4 296.3 297 303.3 305.2 307.1 308.5 311.9 311.8 311.4 310.8 310.6 311.1 313.3 314.7 316 317.6 318.3 318.4 318.9 321.9 324.1 325.3 326.5 328.1 330 329.9 328 326 321.3 314.2 310.6 300.8 292.1 284.2 277.3 269.1 257.4 247.4 240.3 233.4 227.6 219.4 213.3 211.8 205.9 206.3 209.4 204.5 202.7 201 200.2 199.4 197.4 197.7 199.9 204.4 213 222.8 230.2 238 247.2 253.4 258.1 261.2 264.2 268.3 273.1 277.2 279.4 281.7 283.6 288.1 293.2 298.3 304.4 310 315 321.5 322.3 323.2 327.9 327 322.7 320.8 323.9 321.4 317.8 309.1 301.5 293.1 287.5 282.5 283 283.7 283.7 283.7 278.7 282.8 284.3 283.8 282.6 280.9 280 279 278.5 275.4 273.3 271.7 272.1 272.7 273.4 273.4 273.4 273.4 273.4 273.4 273.4 271.2 271.8 272.8 273.1 273.1 273.1 274.1 273.9 273.6 273.3 273.3 274.5 276.6 279.3 279.3 280.9 282.1 283.4 283.5 284.5 285.9 287.1 287.7 287.8 287.9 287.9 287 285.6 283.9 281.6
247.2 256.1 262.1 267.3 275.3 285.3 296.4 303.3 310.3 316.8 323 328.2 330.6 329.7 326.8 320.8 317.4 314.6 304.8 298.5 294.4 290.6 288.3 284.2 281.2 277 272 269 267.4 265.7 265.2 261.6 259.4 258.1 256.1 256.6 258.2 256.1 253.1 254.5 260.9 258.7 259 263.7 265.8 265.6 270.5 271.1 274.6 277.5 282 289.4 289.1 294.5 294 298.8 300.8 301.5 305.3 304.9 305.3 307.4 308.7 308 307.5 309.3 310.1 312.1 313.8 313.6 316.5 318.5 320 321.5 323.2 325 326.5 328.2 328 326.9 325.2 320.5 316.5 310.3 301.1 293.1 284.6 276.6 267.5 256.9 246.7 242.8 239.6 230.1 223.7 216 210 206.4 203.4 206.7 203.9 201.9 201.5 201.9 202.5 195.5 198.3 200.5 203.7 212.6 217.1 231.8 238.4 246.2 253.7 258.2 261.3 264.2 267.7 270.6 273.1 276.9 279.5 283.7 289.6 295.8 300.3 306.6 311.8 317.4 322.9 325.4 328.5 331.3 330.6 325.7 322.1 326.6 325.3 318.3 309.1 300.5 291.3 286.4 282.3 282.1 283.7 280 279.5 282.5 285.7 286 285.4 284.3 281.6 280.4 278.8 277.8 275.9 273.8 272.1 272.6 271.5 273.4 273.4 273.4 273.4 273.4 273.4 273.4 272.3 272 271.4 271.7 272.3 273.5 274 273.6 274.2 274 274.7 276.4 278 279.4 280.2 281.5 281.8 283 284.1 284.3 286.2 287.4 287.8 288 287.8 287.6 287 285.2 283.4 281.1
248.6 255.4 263 268.6 274.8 282 289.4 294.6 301.3 311.5 319.3 324 329 327.4 327.5 324.9 320 314.2 308.1 303.3 301.8 298.8 298 294.8 288.1 281.5 277 269.9 268.2 268.8 264.4 262.2 261.9 259.3 255.6 254 254.8 254.9 255.2 255.5 259.1 258.6 258.2 260.3 263.6 264.3 265.5 269 271.8 274.4 280.5 284.7 286.2 288.8 294.7 296.5 298.1 297.2 299.4 300 301.1 303.7 302.8 305.1 304.5 307.9 307 308.8 309.8 310.4 314.6 316.2 317.5 319.6 321.4 322.8 325.1 325.6 325.8 324.9 321.7 318.8 314.4 307.7 302.3 294.8 287.8 278.6 268.9 261.8 254.7 244.4 236.2 227.6 222.6 215.4 210.8 206.9 203.9 202.1 202.1 201.4 201.3 200.6 194.3 198.9 200.9 201.2 209.7 217.1 225.1 231 236.1 243.6 251.2 257.1 260.6 265.3 268.1 268.5 271.2 275.3 278.8 282.8 290 296.1 301.7 307.8 312.3 317.3 323 327.3 330.1 330.9 331.8 325.4 322.1 322.4 321.4 314.4 306.2 298.9 291.4 286.2 282.2 278.8 278.5 284.2 283.9 286.1 288.3 287.6 287.1 285.8 283.2 280.7 279 277.5 275.8 274.1 272.1 271.9 273.4 273.4 273.4 273.4 273.4 273.4 273.4 268.5 271.8 270.8 269.9 269.9 270.3 273.6 273.8 273.2 273.2 273.7 275 276.8 278.4 279.9 281.1 282 282.2 282.7 284 285.1 286.2 287.8 288 287.8 287.6 287.2 285.9 283.7 282.4 280.6
249.8 257.5 267.2 271.5 275.8 280.2 286.6 289 293.7 305.7 315.9 322.7 326.5 327.3 331 327.1 323.4 317.5 310.9 308.9 305.7 306 304.7 301 293.3 287.4 280.1 273.3 273.9 272 269.4 266.7 264.9 258.9 256.2 254.8 252 252.5 252 254.3 255.5 255.3 257.3 257.6 263.6 262 263.2 265.8 268.9 272.6 278 280.7 281.8 283.6 288.7 291.3 293.8 293.4 296.2 295.1 297.4 300.3 299.8 302.2 303.3 302.2 304.3 305.7 306.5 308.5 310.9 312.6 315.8 317.6 319.3 320.5 322.7 323.5 323.4 322.6 320.2 317 313.1 307.5 300.4 296 286.2 277.8 266.7 257.5 254.6 241 236.7 227.3 221.6 213.5 210.4 206.9 203.7 200.2 201.7 200.7 200.3 197.7 195.8 195 199.1 198.9 209.7 218.2 224.9 231.2 236.6 242.6 248.6 255.5 258.8 264.2 265.7 267.1 268.5 272.9 278.6 282.9 289.2 295.7 302.5 308.4 313.3 318.5 322.5 327.9 330.4 331 329.6 324.6 320.3 318.8 315.5 310.7 305.5 298.6 291.9 287.5 282.7 279.2 280 288.7 289.3 290 290.4 289.8 289.8 288.3 285.5 282.7 280.1 278.2 276.1 275.2 274.1 273 273.4 273.4 273.4 273.4 273.4 273.4 273.4 273.4 272 270.6 269.5 270.4 270.8 272.7 273.4 273.3 272.8 274.7 275.2 277 278.7 279.9 281.3 282.7 282.9 283.2 284.7 285.9 287 288.1 288 287.8 287.6 286.2 284.8 282.8 281.2 280
255 259.7 267.1 270 274.1 279.2 283.3 286 289.8 295.3 305.9 318.8 322.9 328.2 332.5 332 326.9 322.3 315.3 312.8 311.2 310.2 306.5 305.1 297.1 291.1 282.7 277.3 277.9 277.9 274.2 270.6 265.4 261.7 258.2 255.3 253.1 251.7 251 251.4 252.4 253.4 254 256 257.8 258.8 259.9 261.6 262.3 268.6 272.5 276.6 278.5 280.6 285.1 287.2 290.6 290.9 292.5 291.8 292.2 296.5 297.6 297.9 299.1 300.9 302.3 303.9 303.5 307.5 307.4 310.8 313.3 314.7 317 318.6 319.8 320.4 320.1 319.6 317.2 314.1 311.5 305.5 299.6 292.5 284 274.3 265.2 255.2 248.6 238.6 231.1 227.3 219.8 214.3 209.4 208.1 204.5 199 197 198 197.5 197.7 192.1 199.5 197.2 199.1 210.5 217.1 223.3 229.8 235.9 240.3 245.5 249.8 254.1 259.1 261.8 263.3 267.1 271.5 277.5 282.8 288.8 295.5 302 309 315.2 318.7 324.5 326 326.6 329 326.4 322.3 318.3 316.3 314.8 310.8 305.7 299.1 292.8 288.5 285.5 284.8 285 291.7 292.6 292.1 292.5 293.6 293.9 291.3 288.5 284.2 281.9 279.8 276.9 275.5 274.4 272.6 273.4 273.4 273.4 273.4 273.4 269.3 273.4 268.8 271.1 271.4 270.3 270.4 271 271.9 272.5 273.4 273.1 275.6 276.6 277.5 278.7 279.9 281.3 283.7 284.2 284.3 285.4 286.6 287.6 288.5 288.7 289 288.1 287.1 285.6 283.4 280.5 278.9
259.8 262.4 265.2 268.4 274.8 280.2 282.7 284.7 287.4 291.5 297 310.5 319.4 329.9 332.6 336.3 333.6 327.4 320.2 317.1 314.2 313.6 309.7 304.1 298.2 290.5 284.4 280.6 278.5 280.1 277.5 271.8 267.3 263.2 262.5 259 255.4 253 250.7 250.8 251.4 251.4 252.4 252.6 256 255.2 258.9 261.3 263 266.7 270.3 272.3 272.3 276.5 280.9 282.2 287.4 287.2 287.5 288.9 288.5 293.3 296.2 296 296.1 297.6 298.1 302.4 302.7 304.9 306.1 308 311 313.6 315 316.2 317.5 317.6 317.2 317.1 314.8 311.7 307.6 303 297.2 289.6 283.1 275.2 263 253.7 246.8 237.5 229.5 223.4 217.1 211.5 208 209.3 206.2 200 194.3 194 193.6 191.7 195.8 198.2 196.3 201 209.3 216 220.6 230.1 236 239.9 244.6 247.7 252.7 256 257.5 260.1 264.5 268.9 275.3 282.2 288.2 294.4 300.6 306.9 312.6 315.2 317.3 318.1 318.5 319.1 317.9 316.3 315.4 314.6 314.4 310.1 303.8 299.2 294.3 289.2 287.9 289 292.7 293.4 294.4 295 296.5 297.5 296.4 292.9 289.1 285.9 282.6 281 278.6 276.5 275.3 272.3 269 269.8 273.4 273.4 270.1 271.2 271.1 270.5 271.4 271.7 269.8 270.6 272.1 271.7 272.2 273.9 273.1 275.2 277.3 278.3 279.3 281 282.5 284.3 285.6 286.8 286.8 287.9 288.7 289.4 289.8 288.2 287.8 287 285.3 283.5 280.6 278.1
255.3 260.4 265.2 269.5 281.1 285.9 285.8 288.2 286.9 288.5 294.6 304.9 317.6 327.2 333.3 336.6 336.6 331.8 324.7 320.8 316.9 313.6 309.9 305 298.1 294 289.3 284.9 282.4 280.1 278 274.4 268.8 264.8 261.8 260.3 258 255.6 251.9 250.2 250.8 249.9 250.8 250.3 251.3 252.7 256.3 256 260.9 265.5 267.1 265.5 269.5 272.7 275.8 278.8 281.2 283.4 285.7 285.2 285.2 286 290.8 293.5 294.4 295.6 296.5 298.7 299 302.2 304.9 307.6 309.3 311.9 313.7 314.5 315.6 315.5 314.7 313.6 311.6 310.5 306.1 300.8 294.1 286.8 279.7 271.6 261.7 255 250.2 240.6 230.4 225.4 215 208.9 205.5 204.9 205.4 198.4 194.6 191.7 191.5 193.1 199.9 196.5 195 202.6 207.9 216 219.7 227.9 234.8 240.2 243 247.2 249.6 252.3 256.4 258.4 263 268.2 272.6 281.4 287.3 293.1 297.9 303.9 308.7 313.2 312.9 312.7 312.1 311.3 311.9 312.6 313.2 313.2 311 307.1 302.3 299 294.8 294.5 293.5 294.5 295.3 295.8 297.3 300.6 301.9 300.1 298.5 295.4 289.8 286.7 284.3 282.6 280.3 278.4 276.5 274.5 272.9 272.4 273.3 273.4 268.8 270.1 270.5 270.4 269.9 270.8 270.3 271.8 272.6 273.3 273.1 274.4 274.7 275.9 277.9 279 280.8 282.8 284.5 285.9 287.5 288.9 289.4 290.4 291.1 290.6 290.6 290.1 288 287.1 285.4 283.4 281.7 278.5
263.6 263.4 263.5 269.2 278.5 282.3 284.5 286.9 288.7 288.4 293.3 306.5 319 330.1 337.6 341.5 341.2 336.6 329.9 324.7 320.1 314.5 310.4 306.8 300.1 295.6 291.2 287.5 286.5 281.5 276.5 274 269.7 265.2 262.1 259.3 256.8 254.2 252.4 251.2 249.9 250.2 251.3 250 250.7 251.7 252.2 253.8 254.5 258.3 261.3 265 271.2 271.2 272.2 275.2 276.2 279.8 283.3 282.1 283.6 284.3 286.4 287.8 292.4 293.4 294.4 294.6 299.1 301.9 303 305.5 307.4 310.3 312.5 314 315 314.6 314 313.9 312.7 309.7 303.7 299.9 293.1 285.3 276.9 270.2 262.9 253.6 243.9 238.1 231.4 223.4 214.2 207.9 203.6 202.1 200.8 196.6 193.5 190 192.3 198.3 198.7 193.9 195.8 202.3 206.8 214.8 219.6 224 234.1 238 241.5 246.2 248.4 252 255 257.4 262.8 267.3 272.5 277.4 284.3 290.5 294.9 300.4 305 308.5 310 309.2 308.2 307.9 308.2 308.3 308.3 307.7 306.1 303.8 301.8 299.3 298.8 298.9 298 299.6 298.8 300 305.3 308.8 307.6 304.3 300.1 296.7 291.9 286.2 285.8 284.2 282.3 280.4 278.8 277.1 275.5 274.1 272.1 272 271.9 269.1 271.8 270.8 269.8 269.7 269.4 272.5 273.1 272.9 272.1 275.4 276.6 277.6 278.5 280.1 282 284 287.2 288.8 290.4 292 291.5 292.8 293.2 292.7 291.9 290.8 289.3 287.6 285.9 283.1 280.7 278.1
268.9 267.9 266 270.1 277.5 280.1 283.1 287.1 288.9 291.9 293 305.9 320.1 333.8 345.1 352.4 348.5 343.1 336.1 329.2 323.8 317.2 313.7 309.8 306.1 298.1 293.8 290.6 290.4 284.8 279.5 276.3 271 264.5 259.7 257.7 256.7 254.9 253.1 251.5 250.2 248.9 249.5 249.5 250.8 252.5 251.9 253.6 254.2 257.5 261.5 264.7 266.3 269.1 269 272.3 272.8 274.7 277.6 279.8 278.8 282.8 283.6 284.7 288.2 289.5 292.6 294.8 295.8 299.7 302.3 304.6 308.3 310.5 312.5 313.8 314.5 315 314.8 313.5 311.7 308.4 304.9 299.6 292.2 284.5 275.7 268.8 260.8 254.6 247.6 237.9 229.4 221.2 213.5 206.8 203 205.3 202.1 194.3 192.8 189.2 189.9 197.4 194.2 192.6 196.4 203.1 208 213.2 215.1 221 228.8 234.6 238.6 243.5 247.2 250.7 253.7 257.4 261.7 266 270.5 275.7 282.4 287.5 292.3 296.6 300.4 304.6 306.1 307.4 306.7 305.5 305.9 306.2 306.6 306.5 305.4 304.4 303.7 302.4 303.2 304.2 302.8 301.4 301.7 307 314.1 314.2 310.9 306.5 302 297.2 293.3 289.2 287.4 286 283.8 281.6 281.4 279.6 277.3 275.6 271.9 273.4 270.8 269.1 270.8 270.2 270.2 270.3 271.2 272 272.2 273.6 272.7 275.9 277.8 279.1 280 281.2 283.3 286.8 289.9 291.6 292.4 294.7 295.3 294.4 295.2 294.8 294.3 291.9 289.7 287.7 286.3 283 280.3 278
273.9 275 270 271.4 280.5 281.6 282.1 285.9 289.7 294.5 296 305.3 320.6 332.7 347.1 354.7 352 345.7 339.8 333.4 326.5 319.4 316.8 314.6 310.8 301.4 295.2 293.3 295.7 287 283.5 279.5 275 265.2 259.6 261.3 259.2 255.3 252.9 251.5 249.8 248.5 249.7 250.2 250.5 251.3 251.3 251.9 254.5 258.3 260.1 262.6 264.1 266.3 268.3 269.7 270.9 272.4 274.5 277 278.3 279.6 280.1 282.4 284.5 288.4 291.1 293.3 294.2 297 300.7 304.7 307.4 310.3 311.5 313.1 314.3 314.3 315.6 314 311.6 309.3 305.3 298.8 293.5 285.5 277.8 268.9 262.6 253.9 245.3 236.8 230.9 222.8 215.6 216.6 204.2 199.8 198 195 191.8 188.4 189.7 189.9 190.5 191.6 193 201.7 205.9 208.8 214.9 222.2 228.8 233.7 237.7 242.7 246 249.5 252.8 255.9 260.5 264.8 269 273.7 282.2 287.2 290.1 293.9 297.4 299.9 302.8 304 303.9 303.9 305 305.9 306 306.2 305.5 305.1 305.8 305.6 308.3 305.9 304.5 304.5 305.2 312.2 317.4 315.9 312.4 308.8 303.4 298.2 294.4 290.2 288.8 287.5 285.8 284.2 282.6 281 278 275.4 273.4 271.7 269.8 269.1 270.1 270.6 269 270.6 272.5 272 272.5 274.1 275.2 275.9 278.3 279.5 280.9 282.4 285.5 289.2 291.9 293.8 295.1 297.1 298.7 297.9 297.7 296.9 295.4 293.3 290.5 287.9 286.4 283.3 279.9 277.3
278.4 278 276.6 273.8 278.7 285.2 287.3 288.4 292.7 295.3 297.7 307.9 321.3 333 342.2 351.6 352.4 348.7 342.2 335.3 330.6 321.9 318.8 315.6 311.1 304.4 294.7 292.1 295.7 290.5 284.6 279.7 276.7 266.5 261.7 263 260.8 255.9 253 252.2 250.4 248.3 251.1 251.6 250.5 253.4 250.6 252 253.7 257.1 259.5 262.1 261.5 261.6 263 262.6 269.4 271.2 272.3 274.4 275.8 275.6 279.1 280.3 281.4 286 289 290.1 293.8 296.7 300.6 303.1 306.1 308.8 310.9 313.5 315.1 315.4 315.1 315.1 312.7 309.7 304.7 298.4 293.3 286.7 278.2 270.8 263.1 254.5 247.9 241 234.1 224.1 216.8 214 206.9 199.7 198.2 195.5 192.3 190.2 187.4 189.1 190.8 191.1 191.2 198.1 206.8 209 215.8 220.7 226.8 232.7 237.4 240.9 244.6 248.1 252.2 255.2 258.5 262.9 267 272.8 279.9 284.8 287.5 290.1 293.8 296.9 298.8 300.1 301.5 303.9 304.8 305.7 306.1 305.9 306.1 306.6 307.2 307.2 308.5 306.1 305.5 305.5 306.2 312.4 318.2 317 314.1 310.3 305.1 299.5 295.3 291.8 289.4 288.3 286.6 286.3 283.7 281.2 279.4 276.5 273.2 269.5 269.8 269.1 269.9 270.1 268.9 271 272.4 271.9 273.1 275.1 274.8 277.1 278.4 279.9 282.2 285.2 288.6 291.9 294.4 296.6 298.3 299.2 299.9 300.1 300.1 298.4 297.2 295 291.7 288.3 285.5 284 280.1 276.7
282.9 280.3 274.7 275.2 281.4 286.9 292.7 294.3 294.2 297.8 302.3 310.6 322.5 334 341.3 349 352.4 350.4 344.9 339.4 333.4 325.7 319.4 317.6 310.4 304.2 296.1 289.2 290 288.4 284.2 277.1 272.1 269.7 263.1 261.8 259.2 258.4 253.7 251.9 249.4 248.6 253.5 250.7 250.6 252.3 249.1 252.8 253.2 255 257.5 260.5 259.9 257.6 259.7 263.3 267.9 268.7 269.3 271.1 270.3 275.1 276.2 277.5 280.5 283.7 286.5 289.6 292.5 296.3 299.6 303 305.9 308.3 310.9 312.4 314.4 315.3 315.7 315.2 312 309.2 305.1 299.8 293.6 286.8 279.3 271.9 263.6 256.1 246.9 239.9 231.5 224.2 218.2 210.2 204.6 200.3 197.3 195.3 191.7 189.4 187.1 186.9 189.6 190.3 190.3 192.2 198.2 206.5 213.9 219 224.9 230.6 235.6 238.6 242 246.5 251 254.1 258.1 262.1 268 272.9 278.1 283.8 287.9 290.6 294 296.3 298.9 301.1 303.6 304.8 305.7 307 309 309.7 309.5 307.8 307.6 307.4 306.9 305.8 305.2 304.6 304.9 311.6 315.6 317.3 315.2 311.2 305.8 300.7 296.4 292.8 289.7 289 287.2 286.4 285.5 282.3 279.8 275.3 272.8 270 269.2 268.8 269.6 270.5 268.8 271.2 271.9 271.9 272.6 274.2 275.8 277.5 279.1 281.2 284.7 288.1 291.1 294.8 297.1 299.1 300.7 301.3 301.9 302 301.3 299.2 298 295.7 292.6 289.5 285.8 283.4 280.9 276.7
276.8 274.6 274.5 281.8 285 291.2 295.8 299.1 298.9 299.8 304.4 315.9 323.9 332.1 341.5 350.2 355.8 353 348 340.8 334.3 327 321.8 317.4 309.5 302.9 294.6 288.7 283.9 283.5 281.1 276 271.2 267.2 264.5 260.8 258.4 258.2 253.7 251 248.6 247.6 248.7 249.5 250 249.9 249.2 251.3 252.1 254.1 256.8 258.9 256.2 257.4 261.1 264.8 266.4 266.4 266.7 267.7 269.6 272.5 273.2 275.9 279.6 282.3 284.4 287.7 292 295.1 299.1 301.4 305 308.2 310.8 312 314 315.2 315.4 314.5 311.1 309.2 305.1 301 295 287.4 280.2 273.3 264.8 255.9 247.6 240.2 230.9 224.6 220.6 219.1 210.8 202.1 198.2 193.3 191 189.7 186.3 186 189.2 189.4 189.6 190.1 197.5 202.5 208.4 215.6 223 228.7 233.9 236.6 241.4 245.9 249.9 254.6 258.5 263.5 269.4 274.2 278.7 283.2 289.9 294 296.1 299.7 303.4 305 305.7 305.5 306.9 308.5 306.4 306.7 307.9 309.2 308.7 307.6 305.2 304.8 304.8 304.4 304.7 307.2 313.4 315.7 314.8 309.8 304.8 300.7 296.5 293.4 290.5 289.5 289.3 288.3 286 282.6 279.3 275 271.7 270.1 268.7 268.7 269.2 269.7 268.8 270.6 271.7 271.9 273.6 275.1 276.7 278.5 279.9 282.4 286 289.6 293.2 296.3 298.3 301.2 302.6 303.2 303.8 303.8 302.5 300.5 298.2 296.6 293.6 290.7 286.5 283.8 281.4 277.2
274.9 273.3 279.5 286.1 289 298.1 300.2 301.1 301.5 304.5 309 320.5 334 336.3 342.7 348.1 349.5 349.4 346.2 342.9 336.2 327.7 324.3 318.7 312.8 305 296.6 289.7 287.2 283 274.9 273.4 269.4 265.5 262.5 259.4 257.2 256 254.4 251.9 249 249.4 248.1 247.9 248.3 247.8 248.8 250.5 251.5 252.4 255.4 255.5 257.7 258.8 261.7 263.7 264.9 264.2 265.2 267.8 269.6 269.8 271.2 273.7 277.3 281.5 283.2 286 290.1 293.7 297.5 300.8 304 306.2 309.2 311.6 313.6 314.6 313.8 314.1 312.7 308.7 305.6 301.5 295.8 288.5 279.4 273.5 267.2 259 250.8 241.8 234.8 228.3 222.9 215.6 208.8 201.8 196.7 193.7 190.2 189.4 185.1 189 189.6 191.1 189.7 188.8 194.4 201.2 210.7 213.3 221 227.1 231.7 235.2 240.2 245.4 249.9 254.2 258.4 264 269.7 275.1 279.7 285.4 292.7 296.1 301.4 305.5 309 308.7 307.9 307.5 307.1 307.1 306.9 305.6 306.8 307.9 306.9 304 303.2 303 303.6 304.2 303.8 303.8 307.9 311.6 310.1 307.5 303.6 299.2 296.6 293.6 290.8 290.4 290.1 288.3 285.2 281.2 278.7 275.4 272 270.3 268.5 266.6 268.1 269.4 270.7 271.6 271.6 272.3 273.8 275.9 277 278.3 280.4 283.7 287.3 291 294.7 298.2 300.7 303.3 303.9 304.7 305.4 304.8 303.9 302.4 299.5 296.7 294.8 290.8 287 283.7 280.8 276.2
274.6 275.2 282.4 287.6 293.4 303.6 305.2 303.5 305.8 307.2 314.7 328.6 339.8 344.9 348.7 351.3 352.2 344.6 340.9 337.9 333.9 331.6 329.4 323.3 315 306.8 298 295.4 290.9 283.3 278.5 270.8 265.5 264.8 263.2 260.6 259.5 256.9 253.3 252.1 251.1 249.9 249.6 247.1 247.3 247.7 248.7 249.5 250.4 250.7 252.6 256.6 256.9 257.4 259.3 262.2 262.2 262.2 265.2 267.3 268 269.2 271.8 274.2 276.3 279.6 283.2 286.2 289.9 293.4 295.7 300.3 302.6 305.4 309.3 311.6 313.5 314.3 313.8 314.1 313.3 311.2 306.6 302.2 296.2 289.4 281.5 273.1 267.6 260.7 254.2 245.5 235 228.7 223.9 217.1 208.4 203.1 196.8 192.2 189.6 187.9 183.7 185.4 188.8 191.5 186.1 187.9 192 201.5 205.8 209.4 218 224.8 229.8 233.7 238.9 244.3 248.8 253.3 258.5 264.2 269.7 276.1 282.4 289.2 295.8 301 306.1 311 312.2 311 309.1 308.4 306.5 306.7 305.5 303.5 303.9 304.2 302.5 301.9 301.3 301 300.8 300.9 301.4 302.1 302.9 304.8 305.2 303.1 299.3 296.2 294.4 292.2 289.5 290.5 289.4 286.5 283 279.9 277.9 274.8 270.6 268.1 265.9 267.2 269.2 269.4 270.8 271.5 271.8 271.8 274 274.5 276.9 278.6 280.7 283.6 288.5 292.4 296.4 299.4 302.7 304.5 305.5 306.4 307.1 306.8 305.1 303 300.3 297.7 295.1 290.2 286.1 283.4 280.3 274.9
278.4 282.1 287.9 292.2 304.4 310.5 316.4 314.4 318.7 319.6 320.8 336.5 346.2 355.8 358.3 355.2 349.3 343.9 338.1 332.8 332.2 334.9 331.6 325.5 317.2 307.2 300.3 297.8 294.2 287.5 282.2 273.7 271.7 264.2 261.2 259.9 259.6 256.4 254 252 251.4 250.1 248.4 246.8 246.8 246.6 247.7 248.5 248.4 250.2 251.8 256.2 256 256.1 257.3 259.2 261.1 263.4 264.2 265.5 266.4 268.7 270.9 273.7 276.9 278.9 282.5 285.3 289 292.7 295.3 298.9 302.3 304.9 307.3 310.2 312.5 313.9 313 312.9 313.5 311.8 306.8 301.3 295.6 289.6 282.8 274.7 267.7 260.9 255.7 248.3 237.8 230.8 224.3 217.6 210.1 201.3 196.2 192.1 189.3 186.1 182.5 184.1 188.6 187.4 185.2 187.3 190.6 197.9 201.3 208.5 213.3 221.8 227.2 232.2 236.8 242.6 247.3 251.9 258.2 263.6 269.8 276.2 283.4 292.8 299.4 306 312.1 313.1 312.3 312.6 311.5 307.9 304.7 302.1 300.9 299.7 300 300.4 299.9 299.8 299.5 299.4 299.4 299.9 300.8 302.3 301.3 300.1 299.7 297 294.1 291.9 290.3 287 286.9 288.4 286.4 283.9 280.7 278.8 276.7 274.1 269.4 267 265.4 268.9 271.1 270.6 270 270.8 270.5 269.5 270.5 274.5 277.2 279 281.1 284.8 289.3 293.5 297.1 301 304.1 305.5 307.8 308 308.5 308.1 306.9 304.1 300.7 298.4 295.7 289.9 285.3 283 279 274
284.7 286.8 294.2 303.9 314.3 320.5 327.7 327.3 330.7 329.3 329.9 340.4 346.9 352 356.2 351.8 348.8 345.9 341 333.3 328.2 329.3 329.4 324.8 316.6 307 305 302 295.7 289.4 284.6 279.8 272.9 269.4 265.6 261.7 258.2 256.3 253.9 251.9 250.9 248.9 247.1 247.7 246.7 248.5 246.1 247.4 249.3 251.4 253.1 254.1 255.2 255.4 255.1 257.4 259.7 261.7 262.6 264 265.9 267.2 270.8 273.4 275.6 278.1 281.7 285.3 289.2 292 294.8 298.1 301.2 304.2 305.8 308 310.3 312 311.6 311.1 309.9 308.3 305 299.7 294.9 290.3 284.6 277 269.1 261.6 256.3 251 240.8 233.8 227 219.6 211.2 202.2 198 192.3 188.7 185.8 182.6 183 184.7 190.6 184.2 185.4 188.6 195.3 201.8 204.6 211.3 217.5 223 228.3 233.7 240.1 245 250.6 257.1 263.9 270.1 276.7 284.8 294.4 303.2 309.8 313.6 311.8 310.1 309.7 310.8 306.6 303.1 299 296.6 295.4 297 295 295.9 296.8 297.6 298.4 297.9 298.5 303.1 302.4 301 298.9 295.8 294.9 291.1 288.8 286 284.3 284.4 284.3 281.6 279.6 278.2 277.5 275.4 271.4 268.6 267.5 265.3 270.4 270.6 270 269.5 269.4 269.1 268.4 271.9 273.5 276.2 279.2 281.5 285.2 290.1 294.6 298.6 302.3 305.4 307.3 308.3 308.9 309.3 309.1 307.8 305.6 302.1 298.6 294.7 288.6 284.4 282.3 277.5 272.5
291.7 295.7 301.8 313.1 321 324.4 328.3 335.9 337.3 338.3 339.7 340 344 345.4 348 346.9 346.5 346.4 344.6 336.7 329.8 324.8 321.4 320.7 315.7 309.7 309.5 305 298.8 293.3 287.5 282.4 277.6 273.7 268.8 265.8 261.2 256 252.5 252.2 250.2 247.8 247.5 246.9 248.9 248.9 248.6 247.1 248.2 250.8 252 252.3 254 254 256 256.6 257.8 260 261.8 262.4 264.1 266.3 269.9 271.5 275.5 277.2 280.7 283.7 288.1 291.1 293 295.9 298.6 302.3 305 306.4 309 310.8 310.9 309.8 308.9 306.6 303.5 300.3 296.2 291.4 285.8 278.5 270.5 264.9 258.3 251.1 243.8 236.4 230.8 224.4 216.7 207.3 202.2 194.8 188.2 184.5 182.7 181.4 182.7 182.8 183.1 183.9 185.3 189.5 196.8 201.3 209.2 212.7 219.3 224.7 230.2 236.8 242.7 248.4 254.8 263.3 269.2 275.9 284.1 293.6 300.6 307.4 311.2 309.5 307.3 304.6 304.8 300.5 297.2 294.5 291.9 290.7 289.5 290.6 293.2 295.8 294.5 296.5 296.5 298.8 300.3 301.1 300.7 299.2 295.5 293 289.5 286.6 283.5 281 280 278.4 276.6 276.1 276.6 275.7 273.3 270 268.4 267.5 265.3 270.3 269.5 269.5 269.3 268.9 268.5 267.9 270.7 272.7 275.6 278.8 281.3 285.3 289.8 295.3 299.8 302.7 306 308.3 309.3 309.9 310.8 310.9 309.2 306.7 303.8 299.3 294.1 287.9 284.4 280.8 276.3 272.2
289.6 296.1 303.1 316.2 326.1 328.3 328.3 337.7 348 348.5 346.8 343.8 347.2 347 346.7 346 346.1 347.3 343.8 338.1 332.4 327.5 323.9 317.9 311.1 310.5 312.6 307.2 301.8 295 292.2 287.3 282 279 274.2 268.6 262.9 259.4 258.3 255.9 252 248.4 246.3 247.9 248.9 248.9 248.9 248.9 248.2 249.2 248.1 251.6 253.5 255.1 255 255.3 257.4 258.9 260.8 260.7 263.3 265.6 267.8 270.4 273.1 275.2 279.1 282.1 286.4 289.6 291.2 294.3 296 299.2 302.4 305.6 307.6 309.6 310.5 309.3 306.9 305 302.6 298.3 295.7 290.2 286.2 280 273 266.6 259 253.7 245.8 239.7 233.4 226.4 219.3 212.3 205 200 191 185.2 181.1 182.1 182.3 181.3 182.1 184.3 184 188.7 193.7 199.2 204.4 208.7 215.8 221.3 227 233 240.2 246.5 253.3 261.2 266.9 274.5 283 289.7 295.6 299.5 302.8 302.2 301.3 297.9 295.4 294.4 291.1 289 286.2 284.6 282.8 285.4 289.8 290.3 290.5 293.7 296.7 299.4 301.3 301.8 301.6 299.9 296 291.1 288.1 284.7 282.3 278.1 275.1 275.4 278.9 278.9 274.9 273.4 271.8 270 268.5 267.5 264.8 268.2 268.6 268.7 268.6 268.4 267.9 267.3 269.7 271.8 274.5 278.3 281.1 285.7 290.5 295.3 299.9 304.1 306.4 309.7 310.4 311.1 311 311.3 310.2 307.3 303.4 299.4 294.3 287.5 284.1 280.6 275.9 271.9
286.6 292.2 303.5 315.6 324.3 326.9 338.7 349.7 355.6 354.7 350.2 346.4 349.8 348 347.4 345.5 345.6 344.7 340.3 338.8 332.1 328.3 325.5 320.1 313.1 312.6 313.1 311.6 305.1 299.4 295.9 290.2 287.4 281.2 277.2 270.9 267.7 265.8 260.6 257.6 253.3 249 248.8 248.7 248.9 248.9 248.9 246.6 248.2 248.7 247.9 251.3 254.9 256 255.2 254.7 255.6 256.9 257.9 260 261.9 263.8 266 268.2 271.8 274.7 277.4 280.2 283.8 286.9 289.3 291.9 293.9 296.6 300 302.2 304.9 307.5 308.3 306.9 305.9 304.1 301.9 298.6 296.3 291.2 286.7 280.1 273.9 267.9 260.9 254.9 250 243.5 236.7 228.6 220.2 213.8 208 203.1 193.8 188.5 184.3 180.4 180.6 180.6 181.4 181.8 184.2 189.5 193.7 194.3 201.4 206.4 212 217.6 223.4 229.8 237.6 244.9 252.1 258.8 264.6 272.5 278.8 285.1 289.7 292.8 294.9 293.3 292.6 290.7 287.4 285.4 283.3 282.2 279.7 278.4 277.5 281.8 285.8 286.6 288 291.4 295.3 300 301.1 302.9 303.2 301.6 296.6 289.5 286 283.9 281.6 278.4 279 278.9 278.9 278.9 276.4 272.4 271.4 269.9 268.5 267.1 265.7 265.4 266.8 267.3 267.4 267.2 267.5 266.5 267.6 271.4 275 277.9 280.8 285.8 290.1 295.7 300.2 304.5 307.1 309.4 310.8 311.7 312.2 312 310.4 307.8 304.3 299.3 294.5 289.1 284.2 279.6 275.4 271.2
271 278.5 296.2 312.9 326.7 338.6 343.9 347.9 354.3 356.9 352 349.8 351.7 349.1 350.1 347.8 346.3 341.4 338.8 336.2 330.8 329.5 326.1 321 316.1 314.8 314.4 313.7 310.1 305.5 300 294.5 288.7 285.2 281.9 277.3 276.7 269.7 262 258.4 252.9 253.8 252.4 250.5 247.8 246 248.9 248.9 248.9 248.5 245.9 250.5 252.7 254.2 253.5 252.4 253.3 254.2 256.5 258.5 260.1 261.6 263.1 265.7 268.7 272.8 275.6 278.3 281.3 284.5 287.1 289.8 292 293.8 295.7 298.6 301 303.7 304.8 304.7 303.4 302.3 300.2 298.5 296.9 293.6 288.5 283.1 276.5 269.1 264.7 258.7 253.2 248.5 242.3 231.2 221.9 215 209.3 199.9 193.4 189.1 188.4 182.2 178.5 179.7 180.3 181.3 182.4 185 187.5 192.3 199.6 203.5 208.9 213.8 219.7 226.6 234.5 242.2 249.5 255.2 261 267.6 273.4 279.5 284.7 286.9 286.7 284.9 283.7 282.4 280.7 278.9 276.7 274.7 275.7 274.5 273.6 278 280.9 283.1 287 291 295.6 299.1 303.1 304.6 303.6 300.4 294.1 288.3 285.3 282.9 280.9 276.8 278.9 278.9 278.9 278.9 278.9 271.6 270.5 268.3 266.7 267.5 266.3 263.4 264.4 265.6 265.3 265.6 265.8 265.7 266.8 271.1 275.1 277.3 281 285.5 290.1 295.2 300.3 304.5 307.4 309.6 310.9 312.1 312.6 312.5 310.9 308.5 303.8 299.3 293 288.3 283.9 279.3 275 270.7
261.6 273.7 290.4 309.4 324.7 339.3 342.7 343.2 356.4 356.7 351.8 349.4 350.5 351.6 347.8 349.3 346.3 340.8 338 335.2 333 330.5 326.5 321.3 318.5 318.6 318.4 315.2 313.6 308.3 302.8 298.7 293.2 288.4 285.8 283.2 278.4 271.1 263.7 259.5 257.6 256.4 254 252.2 248.8 248.9 248.9 248.1 248.9 248.4 247.1 250.5 252 251.6 250.3 250.5 251.4 252 254.7 256.1 257.5 259.4 261.6 264.2 267.3 270.8 273.9 276 278.2 281.4 283.7 286.1 289.2 291.7 292.9 294.5 297.2 299.6 301.4 302.6 302 301.5 299.9 299.1 297.4 294.3 289.9 283.9 279.1 272.8 267.1 262.5 259 253.3 243.6 234.1 223.1 214.6 205.7 201.9 193.1 189.7 188.6 185.4 181 178.7 179.7 181.4 182.4 182.7 185.4 191.7 196.8 202.2 207 212 217.6 223.7 231.2 238.6 244.9 250.7 256.5 262.1 267.3 272.4 277.2 280 280.7 279.2 278.6 277.2 276.2 274.4 271.5 270.1 271.1 270.3 270.2 273.6 279.6 283.5 287.3 291 295.5 299.8 305 302.9 300.6 297.3 293.8 289 286.2 283 279.2 276.1 278.9 278.9 278.9 278.9 277.4 273.2 271.9 270.1 267.5 265.4 263.9 262.4 263.7 263.8 263.8 263.9 263.7 264.6 266.1 270.8 275.3 277.5 281.4 285 289.2 294.4 298.9 303.4 306.9 309.5 310.8 312 312.6 312.6 311.7 309.5 304.1 298.9 291.8 286.8 283.1 278.7 275.4 270.9
262.2 273.9 288.3 312.3 327.2 332.3 336.2 342.1 357.1 353.9 349.8 349.6 352.4 354 354.5 355.5 350.9 343.5 339.4 335.8 332.7 328.6 324.7 322.7 323 323.6 320.6 317.6 314.9 309.9 304.2 301.1 297.7 293.1 288 285 279.6 272.2 266.7 263.1 260.4 258.7 255.2 252.5 249.9 250.5 248.9 249.1 248.8 248.1 245.2 249.1 249.8 248.3 249.8 250 249.5 250.1 252.2 253.7 255 257.2 259.8 262.7 265.9 268.2 270.5 272.2 274.5 277.3 280.5 282.8 285.5 288.1 289.6 291.5 293 294.4 298.2 299.8 300.3 299.6 298.9 297.8 296.6 293.9 291.5 286.9 282.3 276.9 273.1 269.2 264.1 257.5 247.3 237.3 225.3 214 205 199.3 192.8 190.3 188.3 185.7 183.1 178.3 179.1 179.9 180 181.2 184.2 189.6 194.7 200.7 205.5 210.8 216.3 221.9 228.3 234.3 240 245.5 250.8 256.2 261.1 264.7 269.1 273 274.9 274 274.7 273.3 271.5 269.5 267.6 266 265.3 264.8 267.8 271.8 277.7 282 287.1 291 295.5 298.3 301.8 302 301.4 298.5 294.7 290.7 288.2 282.7 278.8 276.3 278.9 278.9 278.9 278.9 274.9 274.8 272.5 270.3 268.1 266.9 264.6 262.3 263.3 262.9 262 262.6 262.5 264.7 266 270.1 275.2 277.1 280.4 283.4 287.9 291.6 296.6 301.9 306 307.5 309.2 310.8 311.3 311.5 311.1 308.7 302.9 297.2 291 286.3 282.2 278.3 275.2 271.3
267.2 274.8 286.4 305.3 318.7 325.5 329.6 339.5 352.8 346.3 347 351.3 355.6 358.6 361.7 360.1 355.1 346.1 339.4 337 333.2 331.3 325.6 325.9 328.4 328.1 324 320 317 311.8 307.3 303.7 300.9 296.6 291.7 286.2 281.2 276.3 270.3 270.7 263.3 259.5 256.8 253.5 250.2 250.2 251.3 251.5 251.1 249.2 243.9 247.9 247.7 248.1 248.1 249.4 247.7 248.8 249.3 251.5 253.5 255 257.5 260.1 263.4 265.9 267.4 268.9 271.5 273.7 277 279.8 282.7 284.9 286.3 287.8 289.6 290.9 294.8 296.9 298 297.8 297.5 296.4 294.9 293.4 291.5 288.1 285.9 283.7 281.7 276.8 266.7 259.6 249.2 238.9 227.6 215.6 205.8 200.2 192.5 190.7 188.1 183.6 180.1 178.5 177.3 178.8 179.5 180.6 185.6 188.4 193.1 197.6 202 208.3 214.3 219.7 224.6 229.5 234.2 239.3 244.8 250.3 254.1 257.4 260.7 264 266.4 266.7 268.2 268.4 266.3 264.8 262.8 261.2 260.1 261.7 265.8 269.4 274.3 279.2 284.3 289.8 294 299.4 301.8 302.4 302.5 300.1 299.5 294.3 288.6 281.9 278.9 276.6 278.9 278.9 278.9 278.9 276.1 276.4 273.6 271.1 268.1 266.6 264.8 261.5 262.4 262.1 260.9 261.4 260.6 263.3 264.7 268.2 273.2 276.1 279 282.3 285.9 289.8 294.5 299.7 302.8 304.4 305.3 307.1 308.1 309.1 309.3 307.1 302.3 296.7 290.3 285.6 282.1 278.7 274.6 270.3
267.9 278.6 287.9 299.2 308.4 312.7 321.8 328 340.8 342.6 345.5 353.3 357.9 364.6 367.6 365.7 358.4 351.2 342 335.2 332.5 327.5 325.3 328.2 331.7 331.7 326.5 322.3 319.5 314.8 310.4 305.8 300.9 297.7 295 290 282.6 277 273.5 270.2 265.2 262.7 259.4 255.3 253.7 252.2 251.4 251.1 250.7 247.6 245.5 247.3 247.7 245.7 245.6 246 246.1 246.8 247.9 249.4 249.8 252.9 255.5 257.9 260.2 262.9 264.5 266.3 268.4 271 272.8 275.3 278.6 281 283.4 284.8 285.4 287.5 291 293.5 295 295.9 295.2 294.3 294.2 293.2 290.9 289.6 287.8 286.8 285.9 280.2 268.6 259 249.3 238.1 228.2 217 207.5 198.5 192 189.2 190.3 182.9 181.5 178.9 177.1 177.9 179.9 181.4 183.8 184.8 190.1 195.4 198.8 204.9 209.8 214.2 219.4 224.7 228.9 233.4 238.4 243 246.8 250.6 254.4 257.8 259.6 257.9 259.1 259.1 260.6 260.9 259.1 258.2 258 261.7 264.5 267.2 270.8 275 282.1 287.7 291.8 298.6 301.4 303.1 303.8 305 302.7 295.6 287.5 282 278.9 277 278.9 278.9 276 277.2 278.9 277.8 274.6 271.3 268.3 266.2 264.4 261.5 260.9 260.4 259.8 260 259.8 261.4 264.3 267.7 271.7 274 276.8 279.9 283.3 287.1 292 295.9 298.3 299.8 302.9 305.6 308.3 309.3 308 304.8 299.7 296.2 290.1 285.1 281.4 278.6 274 269.5
272.3 279.3 290.8 295 300 308.6 316.1 320.7 327.7 337.4 342.8 352.9 361.3 370 371.6 369.1 361.9 356.3 346 338.5 335.6 328.6 322.5 326.4 332.2 333 329.8 323.3 320.5 317.8 313 308.8 304.7 300.5 296.4 292.4 286.1 278.9 276.3 272.7 268.7 265.9 262.1 257.7 255.8 253.4 252.4 251.3 250.6 247 243.3 247.2 246.1 245.3 244.4 244.6 243.9 245.3 246 245.8 248.5 250.7 252.6 254.4 257 259.9 260.6 262 264 266.3 268 270.8 274.1 276.8 278.7 280.9 282.6 284.1 286.3 288.7 290.8 292 292.6 291.6 292 291.3 290.1 288.2 288.1 287.4 286.6 279.1 267.9 256.2 247 236.4 226.3 216.3 208.2 200.8 193.7 189.6 185.7 182.1 181.6 180.6 178.9 176.3 180.1 179.7 180.9 184.3 189.4 192.2 197.7 203.7 207.5 210.7 214.8 219.6 223.9 228.2 232.1 236.5 240.1 244.8 248.6 251 252.6 252.7 251.3 252.1 253.8 254.8 255.2 254.7 257.4 260.7 264.8 265 269.3 274.2 278.4 285.4 292 297.9 302 303.8 303.6 303.8 300.6 294.1 286.5 281.7 278.2 276.6 275.3 275.5 277.1 279.9 279.6 277.5 275.2 271.4 268.2 265.2 264.1 262.9 260.5 260.9 260.5 260.3 260.2 259.2 265.7 266.4 270.2 271.9 274.7 276.5 279.7 283.9 287.8 292.2 294.6 298.7 302.7 305 307.4 307.9 306.8 303 299.9 294.7 289.6 285.3 282.1 278 273.5 269
272.1 277 285.5 295.1 299.4 311.9 316.8 318.7 324 333.3 340.5 349.6 359.7 368.9 371.7 369.9 366.4 360.8 350.2 343.3 339.1 331.4 321.4 322.3 329.6 330.2 329 324.5 322.3 320.5 318.7 315.3 309.6 304.1 298.3 295.7 288.7 281.8 278.8 273.4 270.3 267.1 262.8 258.9 257.8 253.7 252.1 249.7 249 246.4 242.7 246.4 245.1 244.3 243.6 242.6 242.1 242.5 244.5 243.3 245 247.2 248.5 250.3 253.2 255.4 256.3 258.1 260.1 261.2 263.9 266.7 268.7 271.9 273.9 276.6 278.3 280.7 282.4 284.6 286.5 287.7 288.6 289.3 289.3 288.7 287.5 286.1 285.2 283.8 280.4 273.9 264.5 253.4 244.3 234.2 224.1 215.3 206.5 200.9 195.9 190.2 185.8 181.4 179.6 180.2 178.8 176.1 177.5 178 180.8 181.4 186.2 191.4 197 200.9 204.1 207.3 211 215.1 219 222.7 226.1 230.1 234.2 238.7 241.6 243.5 245.4 245.3 244.8 245.7 247.9 249.2 250.5 254.2 257 258.8 261.5 262.2 266.8 273.7 277.6 284.1 291.9 297.9 302.1 304.4 303.2 301.1 297.2 291.8 285 280.8 276.9 275.7 274.6 276.1 277.2 279 278.5 276.7 274.7 271.3 267.2 265.4 264.4 263.5 262.2 261.1 261.3 261.2 260.6 258 264.7 263.9 266 270.7 272.6 274.8 275.5 279.9 283.5 287.9 292.3 297.2 301.2 303.8 305.6 306.3 305.6 302.8 299.5 294.8 289.5 285 281.9 277 272.2 269
269 276.4 283.9 291.9 298.9 306.9 314.8 319.6 324.5 334.5 340 347.6 357.1 363.5 368.2 369.1 365.8 361.8 354.1 350.1 344.6 334.3 320.7 318.4 323.7 324 325.4 323.9 324.2 322 320.6 318.1 312.9 307.1 301.1 296.2 290.7 284.5 281 274.3 271.5 267 264.2 261.4 257.7 254.4 252.8 249.3 248.4 246.1 244.1 241.3 243.5 241.8 239.8 239.9 239.5 240.6 240.8 239.9 242 243.1 243.2 246.4 248.6 250.5 250.9 253 255.4 257.1 259.7 262.9 265 266.7 269.1 271.2 274.1 276.4 277.9 278.9 281 282.4 283.7 283.7 284.5 284.3 283.8 283.2 280.8 279.7 273.9 266.9 259.7 250.3 241.9 233.4 223.4 213.5 206.2 201.4 195.4 190.5 185.6 182.7 180.7 178 177.3 176.4 175.2 179.6 179.1 179.6 183.9 189.9 195.2 198.5 201.4 204.3 207.1 211 214.9 217.7 221.1 224.9 228.9 232.1 235.4 237.1 238.5 239.9 240.3 241.8 243.9 245.3 246 251.8 254 255.1 257.6 258.9 262.5 268.8 276.5 286 291.5 297.5 301.7 303.5 301.4 297.4 293.7 288.5 283.3 279.4 276.7 275.4 273.8 273.9 275.9 277.4 277.2 275.4 273.1 269.1 266.1 264.9 264.2 263.6 262.9 262 261.5 260.8 260.2 258.9 266.6 263.6 264.1 268.3 268.9 270.4 273.2 275.9 279.1 284.4 290.2 295.3 299.5 301.9 303.7 304.6 304 302.7 299.7 294.8 288.9 284.8 281.3 276.1 271.9 268.3
265.1 272.1 280.2 287.8 295.6 304 311.3 317.9 327.7 335 340.5 347.4 353.4 358.4 360.3 361.7 361.2 360.6 357.5 355.3 346.5 336.4 322.2 316 320.1 322 324.1 324.6 324 323.2 321.4 317.8 312.7 308.9 302.8 296.8 292.2 286.4 280.6 275.3 272 268.5 264.5 262 257.1 253.9 251.5 249.2 247.5 244.7 243.2 241.7 240.5 240.5 238.8 236.5 237 237.4 237.6 236.6 237.8 239.8 239.8 242.5 244.5 245.1 247.1 248.3 250.3 252.1 255.4 258 260 262.4 265.2 266.6 268.4 270.3 272.9 274.5 275.8 276.8 277.1 277.3 276.6 277.3 278 278.5 276.6 274.2 268.6 261.5 252.6 245.1 239.5 232.1 222.9 213.6 204.2 199.8 194.8 191.4 187 184.1 181.1 178.4 177.6 176.5 176.7 180.6 178.4 182.4 183.7 188.8 192.8 196 198.9 201.5 204.1 207.6 211.2 213.8 216.4 220.3 224 226.3 228.5 231.1 232.6 234.5 236.3 238.2 238.4 240.2 240.7 245 247.9 250.6 252.4 256.6 260.7 267.4 275.1 284.7 289.9 295.3 299.1 299.4 297 293.8 289.6 285.9 282.7 280.2 277.3 274.3 271.8 271.4 273.2 275.5 274.3 272.4 270.2 267 265.7 264.9 264.4 263.9 262.9 262.1 261 259.9 259.9 258.8 261.7 262.4 262.7 265.1 266 266.8 268.8 271.1 275.6 281.1 285.9 290.6 295.4 299.6 301.8 303 302.5 302.1 299.1 293.7 288.6 284 279.4 275.6 271.5 267.9
261 266.9 276 284.2 294.7 302.3 310.3 316.5 323.9 333.6 342.5 349.9 352.6 354.2 354.5 353 352.8 353.4 356.3 351.8 344.2 333 321.2 316.5 318.9 323.8 324 323.8 322.7 323.9 321.8 316.5 311.9 308.3 303.3 298.7 292.8 286.6 281.5 275.8 272 269.6 265.6 261 257 253.7 249.7 248.4 246.5 243.2 243 241.7 239.5 240.2 238.1 234.8 234.6 234.5 234.4 233.8 235.2 236.6 236.4 238.1 239.3 239.9 242.4 243.6 245.7 248.1 250 252.4 256 257.4 259.7 262.4 263 264.4 267.6 268.7 270.4 270.5 270.7 271.2 270.2 268.4 271.3 272.2 272.2 270.3 264.6 257.3 249.1 241.1 235.1 229.4 221.6 213.1 204 197.9 194.5 191.4 189.1 185.4 181.2 178.1 177.3 174.6 177.5 177.9 177.8 182.6 183.6 187.4 190.4 193.5 196 198.4 201.1 204.5 207.8 210.4 213.1 215.8 219.4 221.7 223.8 225.6 226.8 228.5 230.4 231.5 232.7 233.1 234.7 237.1 240.2 244 249.6 253.6 258.2 265.6 273.6 280.6 285.9 292.5 296.1 295.1 292.4 289.3 285.9 283.7 282.4 279.7 276.3 273.1 269.9 267.8 269.3 270.4 269.6 268.7 267.4 266.4 265.7 264.9 264.5 263.8 262.8 262.2 260.9 260.2 258.6 260.5 259.9 259.3 260.5 262.8 263.5 264.8 264.9 268.3 271.6 277.1 282.4 287.9 292.8 297.1 300.1 301.5 301.7 300.8 297.4 292.5 287.3 282.9 278.8 275.8 271.9 268.2
258 263 271.8 280.6 291.2 298.8 308.8 315.8 321.9 330.8 343.6 354 356.9 354.6 353.3 351.6 347.3 343.8 346.5 344.5 338.3 331.6 321.9 315.3 321 324.1 324.5 321.7 319.7 320.3 318.6 314.8 312 307 305.2 300.8 293.9 288.6 282.4 275.8 272.9 269.9 267 262.4 258.6 254.8 252 249.7 248.2 245.2 240.6 241.5 238.1 237.8 236.4 234.4 232.4 231.8 231.9 231.1 231.6 232.9 232.8 234.3 233.2 235.1 238.5 239.3 241.4 243 244.8 246.4 250.2 253 254.4 256.3 257 259.2 261.3 263 263.5 264.6 263.7 264.3 264.5 260.5 260.8 263.9 265.8 264.2 259.1 253.2 248.1 239.2 232.4 226.2 218.9 211.8 205.4 197.5 193.9 189.9 189.1 184.9 181 177.8 177 174.5 175.4 176.7 177.6 181.8 183.8 186.2 188.2 190.4 192.9 195.4 198 201.5 204.4 207.2 209.9 212.6 215.1 217.2 219.3 220.4 221.7 223.1 224.9 226 226.8 227.6 229.7 233.8 235.7 237.8 243.1 249.9 255.5 262.7 269.5 275.8 281.1 286.1 289.3 288.4 286.3 283.8 279.9 278.5 278.9 275.7 273 269.8 266.3 263.5 263.4 263.7 264.5 265.2 266 266 265.7 266.2 266.2 265.4 263.7 262.1 260.9 258.7 256.8 259.8 261.1 256.8 257.8 260.5 261.5 262.9 262.6 266.5 269.3 273.3 279.8 285.8 290.5 295.4 297.9 299.8 300.4 298.9 294.9 291.1 286.9 282.7 278.5 276 272.2 266.7
258.9 262.3 268.9 275.2 283.8 294.9 307.5 314.1 320.5 327.9 339 346.6 353.1 352.5 351.8 350.3 345.8 339.4 339 337.9 333.7 329.4 318.1 313 322.3 325.1 325 319.7 316.3 314.8 313.1 313.4 309.6 307 306.9 301.4 293.9 288.2 281.2 277.5 274.9 272.4 269.5 265.3 260.6 255.7 255.3 251.6 248.5 246.2 243.4 239.3 236.6 235 234.7 233.7 232 229.2 228.6 228.8 228.1 229.1 228.8 230.5 229.6 231.1 234.2 235 235.1 237.9 239.5 242.8 245.2 245.4 248.3 250.1 252.1 253.5 255.3 255.9 257.3 258.1 257.5 258.3 258.5 254.4 252.1 251.5 253.7 254.6 252.5 248.5 242.9 236.8 231.2 224.5 217.6 210.5 204.8 197.7 193.9 190.7 187.3 183.9 180.1 177.6 177 175.6 176.5 177.2 178 180 182.1 183.7 186.1 188.2 190.1 192.3 195 198.1 201 203.9 206.6 209.2 211.6 213.4 215.3 215.7 216.5 217.9 219.4 220.5 221.3 222.1 223.1 224.9 231.8 234.1 238.3 245.1 251.6 258.4 265.1 269.6 274.7 279.1 280.8 281 278.4 275.9 272.3 270.5 270 268.4 267.2 264.6 262.8 262.2 260.1 261.9 263.3 264.4 265.6 266.3 267.2 268.6 268 267.3 264.7 262 260.2 259.2 257.1 256.7 260.2 255.9 254 257.2 258.3 259.3 262.6 263.2 266.9 272.3 277.7 283.9 287.9 292.4 296 297.5 298.6 298.6 295.4 290.9 286.4 282 278.8 276.4 271.4 266.5
256.1 259.2 264.7 273.2 279.4 292.5 304.5 312.3 320.2 325.5 332.2 337.8 339.7 344.5 346.2 344.5 341.4 336.2 332.5 333.4 328.9 321.7 313.4 310.2 316.7 319.6 321.7 316.8 313.5 310.9 309.3 308 306.1 307 305.1 301.6 295.5 288.9 281 279.1 278 277.6 272.6 267 262.6 259.3 255.8 253.6 249.8 247.1 244.9 242.4 240 237 235.9 232.9 231 229.6 229.7 228.2 225.8 224.5 226.2 227.5 225.8 226.3 230.8 230.8 231.6 233.9 234.7 238.8 239.8 240.1 243 244 245.5 247.6 249.4 249.8 251.9 252.8 252.1 251.5 250.6 249.2 245.5 244.1 243.4 240.9 240.2 239.2 235.6 232.1 226.4 221.7 216.4 208.8 203.4 198.6 193.7 189.6 185.5 183.1 179 176.9 176.4 174.7 175.5 178.4 178.5 179.5 180.8 181.3 184.1 186.1 187.9 189.9 192 194.9 197.9 200.9 203.4 205.6 208 209.7 211 211.1 211.8 212.7 214.7 215.7 216.7 217.6 218.6 220.5 223 229.4 235 241.6 247.8 253.7 259.4 264 268.5 272.4 274.9 273.4 271.1 268.7 265.7 264.1 262.1 261.9 260.9 260.4 260.3 260.3 259.5 260.7 262.2 263.5 265 266.9 269 269.6 268.4 267.2 264.4 260.7 259.2 257.6 254.6 255.5 260 254.7 252.2 252.5 254.2 254.7 258.2 262.5 266.3 271.1 276.8 280.8 285.3 289 293.7 295.9 296.9 297 294.9 289.5 284.9 282.3 279.6 275.4 270.6 265.1
248.8 257.4 264.1 269.8 278.7 289.3 299.5 309.3 318.2 324.8 330.5 333.1 332.9 333.2 335.3 337.2 335.1 331.5 331.7 330.4 325.1 316.9 310 304.3 309 312 314.3 311.3 307.4 304.6 305 305.8 306.8 306.4 304.7 300.1 295.7 290.1 282.2 278.9 277.8 280.1 274.1 268.1 264.6 263.1 258 255.1 251.6 248.2 246.7 243.7 240.2 237.9 236.7 234.4 233 231.4 230.4 229.4 227.3 224.8 223.1 225.3 224.4 222.7 226.2 226.8 227.8 229.4 231.2 233.7 234.1 236.2 238 238.6 239.6 241.1 242.9 244.8 246.2 246.9 246.9 248.1 246.3 242.5 240.5 238 236.4 233.9 231.1 227.8 225.8 222.4 221 217.3 212.8 206.3 202.6 199.5 194.5 189.9 185.3 182.1 178.8 176.7 175 175.4 177 177.3 178.2 179.7 178.7 180.2 182.9 185.4 187.5 189.5 191.7 193.8 195.8 198.1 200.9 203.3 204.5 205.7 207 206.9 207.4 208.8 211 211.6 212.6 213.5 214.5 215.9 218.3 222.4 228.3 237.4 243.3 247.2 252.1 257.4 261.7 265.4 267.1 267 265.4 263.2 260.5 258.1 257.4 257.2 257.7 258.7 258.2 258.1 257.8 259.7 261 262.2 265.5 266.9 269.8 270 268.4 266.4 261.9 258.7 257.9 256.5 252.1 251.3 259 257 253.2 252.2 254.1 254.6 257.3 260.8 264.9 269.8 274.1 278.4 282.5 286.7 291.3 293.5 295.2 295.3 292.7 287.5 283 280.4 278 273.8 268.8 263.5
243.5 252.6 264.8 267.1 275.8 283.5 294.1 303.7 314.3 321.6 328.3 332.1 330.4 330 329.5 328.5 331.6 327.6 329.8 329.2 321.7 314.4 307.7 300.2 302.9 307.9 308.3 304.4 300.7 298.1 299.5 302.6 302.9 303.2 302.2 300.5 296.7 289.4 283 278.8 277.4 276.8 275.9 270.7 264.5 262.3 259 255.6 253.1 250.3 247.3 244.5 241.5 239.7 236.8 235.7 232.8 231.1 230.2 229.5 227.2 224.9 222.9 222.1 220.9 220.9 222.9 224.2 223.4 224.2 227.6 228.3 228.6 229.6 232.5 234.6 233.4 235 237.5 239.7 240.5 241.4 241.9 243.6 241.5 236.9 233.6 231 229.6 227.5 224.8 222.7 218.8 215 213.5 210.6 208.7 205.7 202.9 199 194.6 190.2 185.4 182.4 180.7 179.1 175.8 173.9 175.5 177 178 178 178.6 180.2 182.9 185.4 187.2 189.2 191.4 193.6 195.4 197.2 198.6 200.6 201.9 203.2 204 204.3 204.4 205.5 207.3 207.9 208.6 210.1 211.4 212.5 214 217.3 221.1 226.7 235.6 238.3 242.5 248.4 255.3 258.4 262.4 263.1 261.1 259.6 256.3 254.8 253.9 253 254.4 256.4 257.1 255.7 254.9 257.5 259.1 261.7 262.9 265 269.3 269.3 266.9 264.2 259.4 257.2 256.7 253.8 249.7 247.6 250.3 251.9 251.4 253 253.4 255.2 256.9 258.9 263.8 268.2 272.1 275.5 279.7 284.2 288.4 290.7 292.7 292.3 289.2 284.5 279.9 278.1 275.7 271.6 265.6 260.3
236.1 245.4 255.7 261.7 271.3 278.9 290.4 297.5 307.3 314.4 321.4 328.5 326.1 324.5 326.2 322.4 319.5 319 321.9 322.4 314.8 309.9 302.7 294.4 299 303.6 301.9 298.7 296.2 294 294.8 298.9 299.8 298.7 299 298.5 295.2 289.6 283.9 279 276.6 275.7 274.4 270 264.8 260.4 258.4 255.5 251.8 250.3 247.1 245.4 242.6 240.6 238.7 236.1 232.6 231.4 230 229.7 227 226 223.8 222.6 222.3 219.4 224.6 223.5 222.4 222.8 225.3 225.3 226 227 228.2 228.7 229.8 230 231.3 231.8 235.4 236.4 236.1 237.8 235.8 231.8 228.9 225.4 223.3 221.4 219.7 215.3 213.1 209.7 206.8 206 204.2 203.5 199.7 196.1 193.8 189.2 184.8 182.4 181.4 179.8 176.6 174.6 172.8 173.9 175.7 178.9 180.3 181.7 183.3 185.8 187.3 189.1 191.3 192.8 194.6 196.4 197.2 198 199.7 200.7 201.2 201.6 202 203.2 204.3 205.4 206.5 207.6 208.7 210.1 211.5 213.5 217.4 220.1 225.4 230.8 236.3 242.9 247.7 252 256.2 257.5 256.1 254.4 252 250.9 249.9 249.1 250.4 254.1 252.7 252.1 252.6 254.7 256.8 258.5 260.2 262.2 267.5 266.3 263.7 260.5 257.8 255.5 254.5 251.3 248 245.1 247.9 248.1 247 246.5 248.7 254.4 256.5 258.7 262.1 265.8 269.6 273.2 277.2 281.6 284.5 287.1 288.7 288.1 284.9 280.1 275.8 275.3 272.2 268.4 262 256.8
224.9 236.1 245.7 252.4 259.9 271.6 283.4 291.2 299.1 305.7 309.3 316.4 318.7 317.5 317.2 315.2 312.9 310.2 312.5 313.1 307.1 300.4 295.2 289.8 293.8 295.7 295.3 292.9 293.1 290.6 291 294.8 295.9 296.2 297.1 295.8 292.6 289 284.6 280.2 276.4 275.4 273.1 269.1 265.9 261.3 257.6 255.1 253.8 250.5 247.6 245.2 243.7 242.4 240.8 237.7 235.8 234.1 231.1 230.6 229.3 226.5 225.1 223.5 220.9 221.4 224 222.7 221.3 220.9 221.5 221.8 221.4 222.9 223 224.2 223.5 224.2 223.2 227.8 229.6 230.4 229.5 230.5 228.4 225.7 223.1 221 217.1 215.1 213.5 209.7 207.2 205.5 203.6 201.7 200.5 198.6 196.9 194 192.8 188.6 184.9 181.8 181.2 179.8 176.8 176.5 173.7 171.7 175.2 179.1 181 182.8 184.5 186.3 187.7 189.2 190.5 192 193.8 195 195.8 196.6 197.4 197.8 198.2 198.6 200.1 201.4 202.6 203.7 204.8 206 207.2 207.9 209.3 211.6 213.9 215.4 217.9 221.8 227.6 233.5 239 243.5 246 250.4 250.3 249.9 248 246.5 245.6 245.3 245.3 246.5 247 246.4 248 250.9 251.9 253.2 255.6 257 262.1 260.1 258.7 257.2 254 253.9 252.5 249.8 244.8 246.2 246.7 246.6 246 245.6 247.3 251.8 255.4 257.3 260.2 263.6 266.2 269.7 273.7 277.6 280.5 282.6 283.8 283 280.2 275.8 272.3 270.9 267.8 263.8 258.5 253.9
213.6 223.8 233.4 240.3 249.3 266.9 273.5 282.9 289.4 296.1 300.5 304.7 306.2 308.1 308 307.1 303.7 299.3 295.3 295.6 297.5 290.8 285.6 277.9 286.8 288.6 287.1 287 288.4 286.2 286.6 288.6 292.7 294.5 294.7 295.4 291 287.5 285.9 282.1 276.7 275.2 271.9 268.9 264.4 262 258.5 254.7 254 251.9 248.9 246.8 244.4 243 241.5 240.1 238.1 236.7 233.7 233.2 229.6 227 224.8 223 221.4 218.4 221.4 219.9 218.8 219.3 219.6 219 218.6 216.7 218.1 220.5 221.7 220.8 219.5 221.3 223.7 223.3 223.3 223.5 221.2 218.6 216.4 214.5 212.4 209.7 207.3 204.9 202.6 200.4 199.5 198 195.6 194.2 191.8 189.9 188.7 184.3 183.7 180.5 179.4 178.1 177.5 175.8 174 172.5 175 178.4 182.2 183.5 184.8 185.8 187.2 188.6 189.7 191.2 192.8 193.6 194.4 195.3 196 195.9 196.3 197.5 198.6 199.7 200.9 202 203.2 204.4 205.7 206.9 208.5 210.1 211.5 213 214.7 216.5 219.7 225.6 228.8 233.6 236.3 242.7 246 245.2 243.7 242.1 240.6 240.4 240.6 240.7 240.2 239.5 240.9 242.2 245.1 247.7 250.4 251.2 253.9 254.2 255 253.1 249.4 249.9 248.6 245.9 243.8 242.1 243.9 245 245 244.1 246.9 249.3 253.3 255.1 257.9 260.9 263.3 266.1 268.9 272.1 275.2 277.6 278.5 276.4 274.3 271.4 267.1 265.3 261.8 259.3 255.4 251.4
205.2 212.5 220.8 230.6 242.3 254.7 266.4 274.3 283 290.6 294.4 295.4 295.1 297 297.3 300.1 295.3 291.2 288.3 286.7 284.2 279.8 273.8 268.2 279.2 281 281.5 281.2 279.3 280.4 280.6 284.9 288.3 289.3 292.3 294.3 290.9 288.8 287.2 282 277.3 273.9 270.3 268.5 264.9 261.9 258.8 256.1 254.6 252.7 247.7 247.6 245.9 243.3 242.9 241.3 239.8 238 235.3 233.2 230.3 228.4 225.4 223.2 221.6 217.7 219.2 218.9 218 217.8 217.5 216.3 215.5 215.1 216.3 217.5 218.6 215.3 217.3 219 219.3 218 217.1 217.5 216.3 212.8 211.9 209 208 205.7 203.7 201.3 199.7 197.9 196 193 190.8 190.2 188.1 187 183.2 181.7 180.8 179.2 177.6 177.1 177 175.8 174.7 171.5 173.4 179.7 182.2 183.4 184.6 185.2 186.7 187.9 189 190.4 191.4 192.3 193.1 194 194.7 194.1 196.3 197.7 197.8 198.2 199.2 200.4 201.6 202.8 204 205.2 206.3 207.9 209.2 210.5 212.2 214.9 216.5 219.6 222.1 224.9 228.1 232.8 236.9 236.1 234.9 235.1 233.9 237.3 235.3 234.1 234.1 234.2 233.4 236.3 237.1 240.4 242.1 244.3 246.8 249.8 250.8 247.8 244 246.7 244.8 243.1 243 241.1 242.5 242.8 243.8 242.6 244.5 250.6 248.9 253.4 255 257.8 260.4 262.4 264.8 267 270 270.8 271.9 270 268.4 265.4 262.6 260.4 257.3 254.3 251.2 248.1
199.4 205.7 214.6 225.4 233.6 246.6 253.5 263.4 276.4 282.2 284.5 284.8 284.6 284.1 286 288.6 285 286.4 284.6 279.4 276 269.9 266.1 261.1 271.3 274.7 274.5 274.2 273.4 271.7 274.1 279.7 284.2 287.3 289.4 291.9 290.8 288.5 287.1 283.1 279 276.3 272.8 270.2 268.2 263 260 257.1 253.1 251.7 251.6 249.2 247.8 244.7 243.4 242.5 240 237.5 235.1 233 230.4 227 226.8 223.6 221.7 217.9 217.8 218.5 217.2 216.1 216 215.5 213.6 213.1 213.1 214.4 213.6 213.2 214.1 215.3 215.5 213.6 213.5 212.8 211.7 209.6 208.4 205.4 204 203.1 202.2 199.7 197.3 195.7 194 191.6 189.7 188.1 186.6 184.6 184.2 179.6 176.4 175.1 175.3 175.7 176.9 175.6 174.4 171.6 172.4 178.4 181.3 183.3 184 184.7 186 187.2 188.3 189.3 190.1 191 191.8 192.7 193.4 196.1 198.2 197.4 197.5 197.8 197.9 198.8 199.9 201.1 202.3 203.3 204.2 205.6 206.9 208 209.6 212 214.9 216.1 217.7 220 221.7 224.7 226.1 227.9 229.6 230.8 230.3 230.2 230.5 230.5 230.4 230.7 230.4 230.8 231.7 233.2 235.7 239.2 241.2 243.2 244.5 243.4 240 241.1 242.4 240 239.1 237.1 238.9 239.7 241.3 242 240.5 245.2 247.7 251.3 252.3 253.8 256.2 258.1 260.7 263.6 264.9 265.4 266.1 266 264 260.6 257.4 255.9 252.8 249.3 246.5 244.7
194.2 201.1 207.7 215.6 226.4 235 243.9 249.9 260.7 271.2 275.5 274 272.2 273 277 277.3 277.4 282.1 277.9 272.5 266.7 263.9 259.5 256.4 265 268.7 269.6 268.8 267.1 265.3 268.3 272.8 279 283.8 285.1 288.5 290 288.8 286.3 283.9 281.5 279.1 275.7 272.9 271 265.4 263.5 260.9 258.3 254.9 253.2 252.9 250.4 245.9 243.7 241 239.3 237.6 236.5 234.5 230.8 228.9 224.8 223.2 221.7 217.3 216.1 214.5 214.7 214.8 214.1 213.6 211.7 211.1 212 213 211.5 210.7 211.4 212.1 211.6 211.8 211.8 210.2 209.8 207 205.4 203.7 201.6 202.5 201.1 198.3 195.2 193.1 192.6 190.2 188.7 187.6 186.1 184.6 184.3 181.1 178.1 176.1 173.2 174.4 174.3 175.7 173.9 172.9 172.7 177.1 179.4 181.9 183 183.9 184.6 185.3 186.1 187.7 189.1 189.9 190.7 191.5 192.1 194.5 195 195.8 196.2 196.4 196.5 197.5 198.8 199.7 200.7 201.5 202.3 203.4 204.5 205.8 206.9 209 212.2 215 216.1 217.7 218.9 222.5 225.5 227.6 229.2 229.8 229.1 229.3 229.2 229 227.3 226.2 226.2 227 228.3 228.5 232.3 232.7 234.1 237.4 237.2 238.4 236.4 237.1 237.9 237.7 236.9 235.3 236.2 236.7 239.8 243.3 242.6 241.9 244.3 247.3 249.3 251 252.6 255.3 257.4 258.1 260.2 262.2 262 261.9 259.9 256.5 252.6 251.5 248 243.7 242.4 242.4
185.2 194.4 202.5 209.1 215.3 226.2 235 239.7 244.3 256.6 264.3 263.3 262.6 264.3 268.6 268.7 274.4 274.6 269.6 265.8 260.1 254.7 252.4 250 252.7 261.4 265.4 265.2 262.7 262.8 263.8 269.2 274 278.9 280.4 283.9 285.5 285.9 285.1 283.8 281.7 280.3 277 276.2 273.1 269.6 266.7 262.9 260.3 258.3 256.3 254.1 250.7 249.4 248.2 243.7 240.6 240.2 237.3 234.9 231.9 229.2 226.3 224.3 222.4 218.1 217.3 216.3 213.8 214.5 212 211.6 209.1 209.4 213 211.8 208.6 209.2 210.1 210.1 209.1 209.4 209 207.3 206.8 204.6 203.3 202.4 198.4 201 199.4 196.3 195.5 193.2 191.5 188.5 187.4 186.3 183.6 182.2 180 178.3 179.1 176.3 173.8 171.5 170.2 171.8 174.4 171.6 172.9 176.4 177.9 180.2 181.2 183.1 183.3 183.3 183.8 186 187.5 188.6 188.6 189 190 191.2 192.8 194.2 194.6 194.8 195.1 196.1 197.5 198.7 198.7 198.8 199.8 201.6 203.6 204.3 204.8 205.6 209 211.6 214.7 216.7 218.2 221.9 224.7 227.6 229.1 229.1 228.6 228.3 228.1 228 227.2 226.2 226.2 226.2 226.2 226.2 228.7 229.1 230.7 229.8 231.9 236.1 233.4 233.6 235.2 234.2 232.7 232 235 235 237.6 237.2 240.9 237.4 240.5 243.1 244.9 246.2 247.1 251.5 251.9 253.5 255.7 257.9 258.6 257.6 255.5 252.7 248 246.3 242.7 238.9 239.1 240.1
181.2 188.1 197.7 202.9 206.9 216.3 223.1 228.2 232.8 238 245 251 253.4 253.3 257.6 262.5 266.5 266.8 265.1 259.1 253.3 247.7 243.5 247.7 245.8 255 256.4 258 259.6 259.7 262.7 268.2 270.9 273.9 276.9 279.1 282.3 283.2 284.7 283.8 282.6 281.7 279.9 277.7 275.1 274.1 270.1 267.9 263.6 262.7 261.5 257.5 253.6 252.9 250.3 246.2 243.9 242 239.5 236.6 232.7 230.4 228.6 225.3 223 218.9 219.9 220.2 213.5 212.3 211.2 211.7 209.6 208.4 211.6 211.4 209.3 209.9 209.1 209.2 207.9 206.7 206.2 204.5 204.5 203.3 201.7 199.5 197.4 198.5 196.3 194.3 193.7 191.3 188.9 187.3 186 184.2 181.9 180 177.9 176 175.8 176.1 174 172.1 170.9 171 172.5 170.2 169.2 174.6 176.4 178.1 179.5 181.8 182.7 182.7 182.3 183.9 184.7 186.1 186.6 187.2 188.2 190.1 191.2 192.7 193 193.3 193.6 194.2 195.1 196.6 196.5 196.7 198.3 200.3 201.4 202.3 203.5 205 206.6 208.9 213.5 216 219.5 222.9 227.6 229.3 230.5 230.2 229.7 228.7 228.3 228.3 227.8 228.5 227.6 227 226.2 226.9 226.2 226.3 228 228.9 227.3 227.3 227.4 230.7 233.3 231.2 231.6 230 232.5 233.8 233.9 233.9 236.1 237.8 237.5 239.5 240.8 242.5 242.9 246.3 248.6 249.1 251.2 253.7 254.1 252.4 250.9 248.1 243.5 240.5 238.6 237.2 236.7 236.8
175.2 179.9 188.2 194.2 200 207.6 213.5 220.3 223.7 225.6 227.6 230.7 239.8 240.9 245.4 252.3 263.8 262.3 258.3 254.7 247.7 242.3 238.8 240.2 241.7 249.8 251.3 252.1 250.6 254.4 257.7 263.4 266.8 271.3 274.3 276.4 280.2 283.1 284.4 285.3 284.7 283.5 281 279 278.2 276.6 274.1 272.4 269.3 266.8 264.7 261.5 258.5 255.1 252.3 249.9 247.8 245.3 242.5 239.6 237.3 235.4 230.2 227.2 224.8 221.5 221 216.8 215.1 213.8 211.2 211.7 209.5 208.3 208.2 209 208 208.5 207 208.9 208.7 204 204.5 202.8 201.1 200.2 198.9 196.5 195.7 195.1 193.4 192.7 194 189.4 187.6 186.2 184.5 182 180.7 179 176.9 174.3 173.9 173.1 171.5 171.3 172.2 171.1 168.3 169.3 167.6 170.3 173.1 174.5 177.4 180.4 182.1 181.6 181.7 183 184.5 183.8 185.4 186.6 186.4 188.8 189.9 191.1 191.5 191.8 192.1 192.4 193.4 193.9 194.3 197.2 198.8 200.3 201.5 202.6 203.7 204.8 206.5 209.2 214 217.3 221.8 227.9 230.2 231.2 231.4 231.7 229.8 229.3 228.9 229.2 229.6 230 230.8 230.2 230.1 230 230.1 228.2 227.4 227.2 225.8 226 226.2 227.3 228.6 229.3 230.7 228.4 229.6 230.8 232 232.2 232.2 233.7 234.6 236.4 237.7 239 240.8 242.4 243.2 245 246.2 248.3 249 247.4 245.4 242 239.7 238.6 236.9 235.8 235.3 234.5
171.6 175.1 181 187.2 190.8 201.3 207.9 212.1 215 215.7 217.5 219 223 228.6 232.7 238 242 248.7 253.4 248.4 242.5 237 238.2 236 235.5 246.3 248.2 247.4 246.4 246.7 252.3 256.2 263.9 268.4 272 274.1 277.4 281.3 283.4 283.4 284 282.6 282.9 282.3 281 279.9 279 276.7 273.8 270.8 268.5 266.3 263.1 259.7 257.3 255.3 251.2 247.6 244.2 241 239.1 235.8 232.7 229.1 226 223.4 220.7 218.8 216.9 213.5 212.2 208.9 209.1 207.9 207.2 209.1 206.1 205.1 206.3 207.6 205.2 202.7 203.5 200.4 198 195.4 196 193.9 189.1 189.3 188.2 190.5 189.2 188.8 186.7 184.9 182.5 179.7 177.6 177.3 175.6 172.9 173.2 173.1 170.5 169.9 170.3 169.2 168.6 170.4 167 167.2 169.5 170.9 174.5 179.6 181.1 179.6 184.8 185.6 185.2 184 184.5 186.2 187.6 188.4 189.8 191.1 191.3 191.3 191.1 191.4 192.9 194.5 195.9 197.6 199.3 200.7 201.8 203 204.1 205.2 206.7 210.7 215.2 218.5 224 228.3 230.8 232.5 232.7 232.7 231.4 232.2 233.5 234 234.3 234.5 234.9 233.8 231.7 231.6 231.9 230.2 228.9 227.3 226.8 226.3 224.7 226 227 226.5 228.3 226.5 228.1 229 230.2 230.9 230.9 231.1 231.7 233.2 234.9 235 236 239 240.1 241.2 241.4 242.7 242 241.7 239.7 239.3 238.1 236.5 235.2 234.8 234 233
159.3 168.5 173.8 178.6 184 191.7 202.3 203.7 205.6 207.3 208 208.5 212.9 216.2 218.4 222.5 225.2 232.5 239.3 239.5 238.6 233.6 229.8 231.6 227.9 239.6 244.5 244.5 243.9 245.1 247.2 252.2 260.1 264.5 267.7 271.5 275.3 277.3 280.5 281.9 283.3 282.9 283.7 284.1 282.9 281.7 280.6 279.2 277.1 275 273.1 270.7 267.1 264.9 262 259 256.2 252.2 247.3 243.9 241.2 238.1 234.3 230.7 229.4 226.8 222.5 219.5 220.1 216.9 214.3 211.7 210.6 210.1 208.7 207.9 208 208.7 206.2 205.8 203.8 201.4 199.1 199.8 200.5 199.2 196.9 194.8 192.7 192.6 190.6 188.1 186.3 183.3 182.1 180.7 178.4 176.8 177.1 176.2 173.8 173.5 173.1 171.9 171 170.8 169.9 171.2 170 168.2 166.8 167.2 167.5 169.6 173.4 176.8 178.6 182.2 184.7 185 185.2 185.8 186.8 187.9 187.3 188.5 190 190.9 191.3 191 190.7 191.7 193.1 194.7 196.3 197.8 199.9 200.4 201.6 203.1 204.5 205.5 208.1 212.4 216.7 221.3 226.4 230.7 233.5 235.1 236 235.2 235.5 237.6 239.5 241.2 240.7 240.3 239 237.3 234.7 233.5 233.1 231.5 230.2 229.2 227.5 227.1 224.8 225.3 226.2 225.4 224.3 225.9 226.1 227.3 228.4 228.7 230.2 230.5 231 229.9 231.4 232.4 233.3 235.1 238.4 238.1 237.4 236.9 236.8 236.8 238.3 237.6 236.8 235.6 234.6 233.4 233.1 231.7
151 158.6 167.8 171.6 177 183.8 188.2 196 202.1 201.8 201.3 200.7 204.4 208.9 209.4 210.2 214.3 216.1 222.6 228 229.5 227.2 221.1 220.2 221 234.2 239.1 240.4 240.5 240 246.8 254.4 254.5 260.1 264.3 267.5 271.2 275 277.8 279.8 281.3 283 283 282.5 282.7 281.9 281.5 281.1 279.6 278.2 276.4 274 271.2 269 266.4 263.3 260.9 256.9 251.8 248.5 244.3 241.2 237.4 235.5 232.4 229.7 225.7 223.1 220.7 218.3 216.3 213.5 211.6 210.3 208.6 207.5 207.4 207.8 205.4 205.5 205.9 205.6 205.7 204.9 202.9 200.7 198.8 195.8 196.7 194.9 193.7 192.1 190.5 189.5 186.4 184.5 182.6 179.6 177.3 176.1 174.3 174.1 174 172.2 171.9 171.3 170.3 171 170.6 168.6 167.8 165.5 167.6 173.3 177.8 179.4 181.2 182.6 184.1 184.3 184.9 186.3 187.3 188.5 189.6 188.5 189.7 190.6 190.1 190.1 191.1 192.1 193.2 194.8 196.4 197.7 199.4 200.2 201.4 202.8 204.7 208.8 212.4 216.7 220.9 226.1 232 234.7 238.5 239.1 240.2 239.2 241.5 243 243.9 246.3 246.2 245.1 243.8 241.1 238.5 236.4 235.2 232.4 231.9 230.6 229 227.5 225.5 224.7 226.1 223.3 223.2 224.1 224.4 225.2 226.3 226.3 228.2 228.8 227.6 229.6 229.4 229.3 232 233 234.2 237.2 235.5 234.7 234.8 235.7 236.4 236.4 236.4 234.9 234.1 234.2 232.2 230.9
147 152.8 160.4 167.1 171.4 177.3 182.4 189.1 194.2 197.2 196.2 195.4 195.9 200.8 201.2 202.8 203.7 205 206.6 213.4 217.4 219.4 215.2 210.6 215.7 226.8 232.2 236.8 238.4 237.6 244.3 251.6 255.1 258.5 261.9 264.7 267.4 269.9 273.3 276.6 279.1 281.2 281.8 281.3 281.5 283.2 282.7 282.6 281.9 280.6 278.9 276.3 274.6 272.8 270.2 267 264.7 261.1 255.7 251.6 247.3 243.9 240.7 238.4 234.9 232.3 228.6 225.1 223.2 220.8 218.2 215.8 212.7 212.1 212.2 210 209.1 208 208.6 207.8 208.2 207.9 208.1 207.3 206 205.5 203.1 201.5 198.3 198.7 197.7 196.3 194.7 192.7 189.3 186.8 184.5 181.9 180.7 177.6 176 176 174.3 173.6 173.2 172.1 171 171.1 170.6 169.7 168.6 166.8 167.4 172.9 176.6 179.8 182.5 182.5 183.4 183.9 186.4 187.2 187.6 188.8 189.8 189.1 189.1 189.6 189.4 191 191.7 192.5 193.5 195 196.5 197.8 199.1 200.5 201.8 203.9 206.8 211.8 217.2 222 227.1 233.4 237.1 240 242.8 244.8 247.4 246.3 246.8 249 249.8 250.6 250.4 249.8 249.5 246.7 243.9 240.9 239.5 235.9 233.4 232.1 230.5 228.2 226.8 223.2 223.3 222.6 222.9 223.7 223.4 223.1 223.2 224.6 225.7 228.2 225.9 228.7 227.9 227.7 228.3 231.7 232.9 233.5 234 233.1 234.4 235.4 235.5 235.8 235.5 235 234.9 234.2 231.6 228.6
146.8 150.6 158 163.2 167.1 171.8 177.1 185.1 188.7 191.4 190.7 191.1 192.1 191.9 198.3 199.6 198.3 197.2 199.6 202 206 208.2 211.1 204.8 206.2 219.9 225.8 229.4 233 236.1 239.5 248.3 254.1 257.6 259.1 262 263.8 265.9 269 273.1 275.7 278.4 279.5 280.1 281 283.6 284 285.3 285.7 284.2 283.2 280.8 278.3 276 273.4 270.6 267.1 264.4 259.6 255.9 251.5 247.3 244.3 241.4 237.8 234.4 230.7 227.3 225 223.3 219.4 216.7 216 215.3 214.9 211.6 210.2 209.4 210.8 209.3 211.2 211.5 211.3 210.9 210.2 209.5 208.6 207 205.1 202.9 201.5 200.5 199 196.2 194 191.1 188.4 185.5 182.7 179.9 178.6 177.8 175.1 175 174 172.9 171.8 171.2 170.6 169.5 168.5 167.5 166.3 172 176.6 181.5 184.2 181.9 183.2 184.7 187.9 188.1 188.3 189.3 189.7 189.4 189.3 189.6 190.1 191.1 191.5 192.4 193.8 195.1 196.5 197.9 200 201.9 204.1 207.2 212.2 216.8 222.4 228.1 234.9 241.5 244.1 246 248.7 251.8 255.1 255.7 256.1 256.4 256.9 256.9 256.5 256.2 254.9 252.1 249.3 246.4 242.2 239.2 236.2 233.6 231.1 229 227.1 225 222.5 222 223.4 224.6 223.8 223.2 222.7 222.6 224.1 226.9 225.4 225.4 226.6 226.6 227.3 231.4 231.7 232 231.7 233.2 235.3 235.4 235.2 235.7 235.4 234 233.8 233.2 232 229.6
143.1 148.9 155.6 162.3 165.6 167.9 172.9 179.4 183.9 185.2 185 185.8 185.9 187.4 191.7 201 196.5 195.1 201 199.9 197.7 198.9 201.8 201.9 201.7 215.3 220.1 224.3 227 231 235.5 243.7 249.3 253.8 256.5 259.9 260.8 262.6 265.4 268.2 271 273.4 275 277.6 280.2 283.8 285.6 288.1 289 289.3 287.7 285.2 282.6 279.2 276.9 273.6 271.7 269.5 264.8 260.1 256.2 251.8 247.6 244.5 241 237.4 233.3 229.6 227 223.5 221.8 220.3 219.5 218.2 216.1 213.3 213.4 213.8 214.9 214.8 214.9 214.9 215.7 214.6 214.4 214.2 214.6 211.3 209.5 207.8 206.1 204.7 203.2 201 198.8 196.1 193.3 189.8 187.1 184.4 181.8 179.8 176.2 175.5 174.5 173.5 172.5 171.8 170.2 169.2 168.2 167.1 164.3 168.4 173.8 177.4 180.8 184.2 187.1 188.4 188.9 189 189.3 190.6 190.7 190.8 190.9 190.6 191.3 191.7 192.1 193.8 193.8 195.1 196.3 198.6 201.1 203.8 206.8 212.1 218.6 223.2 227.7 233.8 240.3 246.4 250.5 252.5 254.8 257.6 263 264 264.1 264.5 265.7 266.7 266.3 261.5 259.4 256.1 253.7 250.2 246 242.4 239.5 236.6 233.8 232.6 228 225.8 224.3 221.1 222.8 223.9 223.9 223.7 223.3 222.9 223.3 224.3 225.9 224.3 225.3 225.3 226.2 229.6 230.1 231.3 232.3 235.2 237.4 237.7 237.1 235.6 235.5 233.8 232.5 232.1 231.1 228.7
143.2 150.1 158.4 162.5 164.1 164.8 169 176.8 178.3 178.9 179 179.3 180.5 181.2 186.7 190.5 190.1 193.6 195.4 197.2 195.8 195.3 196.3 197.3 201.3 210.5 217.5 221 223.7 227.2 232.7 239 244.3 248.4 252.7 256.7 257.9 258.8 261.6 264.9 266.9 269.2 272.3 276.1 279.8 284.2 287.2 289.4 291.2 291.3 290.6 287.9 286.2 283.3 279.7 276.7 274.5 273.6 269.5 264.3 260.1 255.8 252.3 247.6 244.2 240 235 231.6 229.9 226.8 223.6 223.2 221.4 219.7 216.8 216.8 215.6 218.1 217.9 218.1 219.7 219.1 217.8 218.6 218.1 217.6 217.7 216.2 214.1 211.3 210.1 208.7 207.5 206 203.8 201.4 198.1 193.7 191.2 188.9 186.4 183.9 181.3 177.7 177.1 176.5 175.2 171.7 170.1 168.9 167.8 166.6 164.1 168.5 173.4 180 183.6 186.9 190.3 190.5 189.7 189.8 191.4 191.4 191.1 191.3 191 190.9 191.4 192.5 193.6 194.6 194.4 195.1 196.7 199.2 201.8 204.5 208.9 216.2 222.6 228.5 232.6 238.8 244.3 248.6 253.3 256.1 259.8 263.7 268.6 269.6 269.7 271 272.7 273.5 272.3 268.8 264 260.7 258 255.3 251.1 247.1 242.9 239.9 236.7 233 229.8 226.9 223.8 221.8 222 223.1 224.3 224.1 223.4 222.7 222.5 222.8 223.4 223.5 224.9 226.2 227.1 229.1 231 231.7 233.4 236.8 239.4 240.2 240.3 237.7 235.5 234.4 233.2 231.2 231.5 229.5
144.9 151.4 156.1 159.9 162.2 164.1 168.7 172.8 173.6 173.3 173.4 172.8 175.4 177.1 180.9 183.9 185.4 187.3 191.9 193.9 194.4 194.4 196.8 199.9 206.4 215.1 215.7 218.6 221.6 224.7 229.1 234.6 240.2 245.4 248.9 251.8 254.2 255.5 257.9 261.2 264 267.2 270.1 274 277.4 283.2 287.4 289.5 291.7 292.3 291.7 290.8 287.5 285.3 284.2 280.8 277.5 275.6 273 269.1 264.3 259.2 255.1 251 246.9 242.5 237.1 235 232.5 230.3 226.9 224.8 222.6 220.3 217.9 219.6 217.9 221.3 220.6 220.9 223.1 224.2 222.9 221.2 220.7 220 220.5 220 217.4 215.3 214.1 212.9 211.8 210.6 208.7 206.5 202.1 197.7 195.4 193.2 190.2 187.6 184.2 182.4 180.5 178.7 174.9 171.9 170.1 168.9 167.7 166.7 165.2 168.4 173.9 180 185.3 188.1 190.1 190.5 190.7 191.6 192.6 192.2 191.6 191.6 191.5 191.3 191.6 192.7 193.9 195.1 195.6 195.8 197 198.6 202.4 205.7 212.1 219.6 226.6 232 238.1 243.4 248.5 253 256.1 260.1 264 267.7 272.3 273.6 274 274.9 276.3 277.1 276.2 273.7 269.7 265.7 262.8 259.9 256 251.2 247.2 243.5 238.4 235.3 231.2 227.1 224 222.5 220.9 221.8 223.1 223.3 222.9 222.5 222.7 223.1 223.8 224.6 226 226.7 228.1 230.2 231.6 233.3 235 238.6 241 242.6 242.2 239.8 237.6 235.5 234.7 232.9 231.1 227.3
145.4 151 156.4 159 161.4 164.1 168.9 172 171.6 170.7 169.5 169.1 170.7 176 177.7 179.5 181.1 182.1 186.5 189.9 193.1 191.2 194.4 197.5 206.8 213.7 214 217.2 220.2 223.2 225.2 230.4 235.6 239.7 243.1 246.5 249.8 252.9 254.7 257.3 260.4 264.5 268.8 271.3 273.4 278.8 284.3 287.6 290.3 291.7 291.6 291 288.9 287.2 285.8 283.6 281.2 278.4 275 272.1 267.3 262.1 257.9 252.9 248.9 244.6 239.4 235.9 235.6 232.4 228.8 228 225.6 223.1 220.2 223.4 221.1 223.9 224.2 223.5 225.7 226.8 225.8 224.6 224.8 225 223.5 222.6 220.6 219.3 218.2 217.1 216 214.9 213.6 210.8 207.2 202.5 199.9 196.5 193.9 190.6 186.7 184.9 183 178.3 174.5 172.1 170.2 168.9 167.9 166.9 164.9 167 173.4 180.2 186 187.9 189.1 190.8 191.7 192.6 192.6 192.6 190.9 191.3 191.5 191.7 191.8 193.1 194.4 195.8 196.3 197.6 199 200.9 203.6 208.4 215.3 222.8 229.8 234.8 240.7 246.1 251.2 255 258.7 262.8 266.1 271.1 275 276.9 277.8 278.3 278.9 279.4 279.3 277.4 274.7 271.1 268 265.1 261.3 256 251.5 246.9 241 237.4 232.8 227.7 224.5 223 222.2 221.1 221.8 222.4 222.1 222.1 222.7 223.1 224.2 225.9 226.4 227.2 228.7 230.8 233.7 235.5 237.4 240.1 242.5 243.5 243.5 241.2 239 236.2 235.5 233.3 233.4 226.7
145 150 157.7 160.3 163.4 166.6 172.1 173.5 171.7 169.5 168.4 167.3 167.3 172.5 175.7 175.4 176.5 176.7 182.7 184.5 189.2 193.8 195.2 196.5 204.1 208.7 211.7 216 219.2 221.3 220.7 225.1 229.5 233.9 237.3 241.1 245.4 249.6 251.4 254.1 256.8 261 265.4 267.5 270 274.7 279.7 284.8 288.3 290.1 291.5 289.5 288.8 287 285.7 285.1 282.2 280.4 277.5 273.2 269.8 264.6 258.9 255.6 250.9 245.9 242.2 239.6 238.2 235.1 232.2 230.9 230.3 226 225.3 225.5 222.6 227.2 227.6 227 227.3 229.1 228.8 229.4 228 228.4 228.1 226.3 224.4 223.3 222.5 221.5 220.3 219.2 217.9 214.9 211.8 207.8 203.9 200.1 197.1 193.2 189.3 187.4 184.9 182 176.7 172.8 170.6 168.5 167.1 165.7 163.8 164.9 173.7 180 183.8 186.4 187.7 189.8 191.4 192.2 192.6 192.6 191.4 191.1 191.9 192.4 192.6 194 195.2 196.5 198 199.3 200.4 202.8 205.6 210.2 217 224.6 231.1 237 242.5 248 251.9 256.2 260.7 264.1 267.9 273.2 276.9 279.5 280.4 281.4 283.5 284.4 283.6 281.4 278.2 276.5 272.7 269.7 264.5 260.4 254 248.9 244 238.5 233.5 228.7 225 223.6 222.4 220.6 220.9 221.8 221.7 221.6 222.4 223.2 224.7 226.2 226.9 227.8 229.4 231.4 235 237.5 239.7 241.7 244.1 244.9 243.9 241.9 239.8 236.7 233.9 232.9 232.5 229.8
139.8 147.5 155.4 159 162.1 164.4 167 169.7 170.2 169.3 167.6 166.8 166.4 168 170.3 171.9 176.2 182.9 187 189.2 194.7 198.9 199.6 198.9 202.6 205.9 210.4 215.4 218.5 219.9 219.1 221.1 224.4 228.3 232 235.7 239.5 243.1 246.5 250.5 253.3 256.4 261.5 264.3 267.5 270.6 275.3 281.1 285.7 288.4 290.1 289.7 287.8 286.8 286 285.2 284.1 281 279.3 274.6 271.4 266.2 261.6 257.2 254.3 248.5 245 241.4 239.5 237.3 236.8 234.9 232.1 229.8 229.2 227.2 225.8 228.9 228.9 230.7 231.7 233 232 233.7 232 232.7 231.7 230.5 229 227.5 226.6 225.6 224.7 223.7 221.8 218.9 215.8 212.7 207.6 203.5 199.6 195.7 191.9 189.6 187 183.6 178.9 174.6 171.1 168 166.2 164.8 162.6 164.1 171.2 175.9 179.8 184.2 186.4 188.7 191.1 190.7 192.6 192.6 190.9 192 192.8 193.1 193.5 195.2 196.5 198.2 199.6 200.7 201.8 204.1 207.4 212.4 219.2 226.1 232.1 237.1 241.7 246.5 251.6 256.8 260.5 264 268.3 273.1 278.6 281.3 282.7 284.9 286 287 286.8 284.7 282.9 281.2 277.9 273.2 268.8 261.2 255.5 251.1 244 236.9 231.9 228.7 225 223.2 222.7 222.3 221.6 221.2 222.2 221.4 222.2 223.5 224.8 227.3 227.5 229 230.8 233.4 236.7 240.2 242.5 244 245.7 246.6 244.6 242.8 241.3 237.8 233.8 232.4 231.5 227.8
133.4 141.6 150.4 155.4 158.8 162.1 163.9 165.4 167 166.9 166.4 165.2 164.3 165.8 168 171.9 180.6 186.2 189.1 192.4 199.1 201.4 201.8 201.5 203.3 207.1 211.1 214.9 217.4 218.2 216.9 218.6 221.3 224 227.4 230.8 234.2 237.7 241.5 245.3 249.2 252.8 256.3 260.4 264 267.7 272.5 277.9 282.7 286 287.8 288.3 287.7 287.2 286.5 286 284.9 282.7 280.2 277.7 273.1 269 263.2 258 255.1 252 249.6 243.8 241.9 239.5 239.9 236.6 233.5 233.1 232.2 230.3 232 231 232.2 234.6 236.3 236.2 236.8 235.7 235.4 235.7 235.2 233.9 233.1 232.7 232 231 229.9 228.6 226.1 222.6 219.3 216.1 211.9 206.4 202 198.2 194.4 191.2 187.9 184.1 179.8 175.3 171.9 168.5 165.3 163.6 161.9 162.4 168.3 172.3 176.8 181.1 185 187.4 189.7 190.1 189.7 191.6 191.3 192.2 192.7 193 194.1 195.9 197.6 198.9 200.4 202 203.3 205.6 209 214.6 220.2 225.8 230.8 236.1 241.1 246.2 250.7 255.8 258.7 261.8 266 271.3 277.2 280.5 284 286.6 287.7 288.4 288.1 287.5 286.6 285.3 280.6 275.7 270.1 261.7 256.1 252 245.4 236.4 231.6 228.4 225.2 223.2 222.6 222.2 221.7 220.2 221.8 221.3 221.6 223.9 225.8 227.5 228.3 230 232.3 236.2 239.5 243.6 245.6 246.9 248.7 247.7 246.2 244.1 242.9 239.5 234.7 232.2 229.7 227.2
133.6 137.5 145.5 151.5 155.1 158.9 161.7 163.2 164.6 164.7 164.9 163.9 163.7 164.8 171.8 176.8 181.4 186 189.3 193.4 200.3 206.4 204 203.8 206.1 208.5 212.1 214.6 215 213.8 214 215.3 216.4 219.7 223.1 226.4 229.7 233.3 237.2 241 244.8 248.3 251.8 255.3 259 262.9 269 274.4 277.9 281.8 283.9 285.1 284.8 284.5 285.8 286.1 285.8 284.8 282.5 279.4 275.7 270.1 264.9 259.1 255.9 251.9 248.7 246.9 244.8 241.6 239.7 238 237.3 236.8 235.5 233.7 233.4 233.9 235.9 237.6 238.9 239.9 240.8 240.3 240 239.4 239 238.8 238.5 237.9 237.3 236.1 234.8 233.6 230 226.5 222.9 219.6 215.5 210.6 204.7 200.3 196 192.1 188.9 184.7 180.3 175.7 171.6 168.4 165.1 162.8 161.1 162.3 167.6 171 174.3 178.8 183.5 186 188.3 189.5 190.2 191.8 191.9 192.2 192.6 193.2 194.4 195.9 197.6 199.5 201 202.6 204.1 206.3 209.5 213.2 218.8 224.5 229.3 234.3 238.9 243.5 248.4 253.2 255.9 259 263.4 269.8 274.8 279.3 283.9 286.5 287.8 288.8 288.3 288.3 287.4 284.6 280.3 275.9 270.2 262.2 252.5 248.1 244.2 236.2 231 228 225.1 223.7 222.4 222.3 220.7 221.2 221.6 221.1 221.1 223.6 226.6 227.7 228.8 231.4 233.7 238.3 242.9 246.7 248.3 251.1 251.7 250.3 248.2 245.8 242.8 240.3 235.8 232.8 230.1 227.1
132.5 133.6 140.8 146.8 152 156.6 159.6 161 162.6 163.2 163.3 162.9 163 165.6 170 177.5 181.5 183.6 186 190.9 195.9 200.4 205.1 206.5 207.5 209.7 211.7 212.1 210.8 209.5 208.8 210 212 215.3 218.6 222 225.3 228.8 232.9 236.7 240.1 243.5 247.1 250.7 254.4 258.6 265.2 272 275.7 278.8 280 281.2 282 281.2 282.1 283.4 284.9 284.1 282.7 279.3 275 270.7 266.2 261.1 258.1 252.9 250.8 249 246 241.9 242.2 239.4 239.2 238.1 235.2 235.9 236.6 237.6 239.9 240.3 241.9 243.6 244.5 244.7 244.9 244.6 244.3 244.2 243.8 243.1 242.6 241.4 240.4 238.9 235.3 231.5 227.8 223.1 218.3 213.4 207.9 202.2 197.4 192.6 189.7 185.3 181.3 176.4 171.9 168.3 165.2 162.6 160.2 163.8 166 169.3 172.7 177.2 181.4 184.7 187 189 190.6 191.8 192.1 192.8 193.4 194 194.8 195.8 197.6 199.4 201.2 202.7 204.5 206.6 209.7 213.1 217.4 223 227.8 231.7 235.6 240.3 244.9 248.9 252.8 256.5 260.4 267.5 273.9 278.6 281.5 283.7 285.5 286.4 287.5 287.9 285.6 282.5 279 275.3 269.5 260.7 253.2 246.4 243.3 235.1 230.4 227.6 225.1 223.6 222.7 222.4 221.3 220.8 221.3 220.9 220.6 223.9 227.1 228.2 229.6 232.3 237 241.6 245.8 249.2 250.7 253.9 254.3 253 249.7 246.6 242.9 241.1 236.8 233.8 230.5 226.8
131.1 131.8 135.3 141.1 148.1 153.1 157.5 159.5 161.1 161.8 161.4 161 161.3 164.5 170 176.5 181.5 182.5 184.6 188.9 193.3 197 200.2 207.1 208.2 208.2 209 208.4 207.1 205.6 203.7 204.7 206.5 209.4 212.4 215.8 219.2 223 228.1 232 235.4 238.8 242.4 245.9 250.4 255.9 262.3 269.9 274.5 278 279.3 278.5 277.8 278.3 279.2 279.6 280.6 280.9 280.4 277.1 274.5 270.3 265.4 261.2 257.3 253.8 252.8 249.7 246.2 243.9 244.9 241.2 240.4 238.7 238.8 238.9 238.1 239.6 241.7 243.2 244.7 246.2 247.5 248.2 250.1 249.6 249.7 249.4 248.8 248.2 248.1 246.6 245.4 244 240.6 236.7 232.2 227 221 216.2 210.4 204.9 199.3 193.9 190.6 186.5 182.3 177.4 172.3 168.7 166 163.3 160.6 162.2 165.1 167.6 170.9 175.4 179.7 184.3 186.6 188.9 190.6 191.9 192.5 193.1 194.1 194.9 196.1 197.4 197.6 199.1 201.2 203 205 207 209.9 213.2 217.1 221.5 225.5 229.5 233.4 237.3 241.2 244.8 248.5 251.9 255.6 265 272 274.8 276.9 278 280.1 282.6 283.7 284.1 282.9 280.3 276.7 272.6 267.1 260.1 252.3 245.2 241.3 236.7 230.9 226.8 224.8 223.4 222.7 222.1 221.2 220.7 219.8 223.4 221.5 223.8 227.6 229 230.9 233.6 239 243.9 248.2 251.2 253.9 256.2 255.9 253.9 251.2 246.7 242.9 241.4 237.4 234.1 230.3 226.5
127.8 129.8 130.6 135.1 144.1 150.4 156.2 158.6 159.3 159.5 158.8 158.3 160.2 163.9 169.6 176.1 181.1 182.5 184.5 187.8 192.3 195.7 198.7 202.3 206.2 208.3 206.3 204.7 203.1 201.4 199.7 199 200.9 203.8 206.7 209.6 212.4 216.7 221.9 227 230.6 234.1 237.5 241.4 247 252.6 258.7 265 271.5 276.3 277.9 278.6 278.6 278 277.5 278.7 279.9 280.2 279 275.9 272.9 269.7 264.5 260.8 257.6 254.3 251.8 249.4 248.1 248.3 244.2 241.8 240.7 241.6 241.7 241.4 239.5 241.3 242.9 245.9 248 249.3 250.1 250.9 252.6 253.6 254.6 254.9 254.8 254.1 253.6 252.5 249.6 248.3 245 241 236.5 231.6 226.6 220.5 214.9 208.6 202.9 196.7 192 187.4 182.7 177.9 173.2 169.5 166.6 163.7 160.8 160.8 163.5 166.2 169.3 173.9 178.7 183.4 186.3 188.6 190.7 191.8 192.8 193.4 194.2 196.4 198 199.4 199.6 199.5 200 202.2 204.8 207.4 210 213.3 217.3 220.1 223.4 227.2 231.1 235 238.6 241.3 244.6 248.2 251.4 259.1 265.6 268.5 270.8 271.9 274 276.3 278.3 279.3 278.9 277.4 273.9 269.8 264.6 258.6 251.3 243.4 239 236.1 230.9 226.1 224 223 222.2 221.9 221.1 220.7 220.5 220.9 223.5 224.8 228 229.9 232.1 235.7 241 245.9 249.6 252.2 255 257.5 257.4 254.9 251.5 246.8 242.7 241.3 237.7 234.1 229.1 225
123.2 125.6 127.5 132.2 140.6 150 155.4 157.6 157.8 157 156.2 156.8 158.2 162.2 166.4 173.3 178.1 181.7 183.6 186 190.1 193.6 196.8 200.2 204.3 207.2 204.7 202.6 200.5 198.3 196.3 194.2 195.3 198.1 201.4 203.3 206.2 211 215.6 220.8 225.6 229.2 232.2 238 242.4 248 253.4 259.4 266.1 272.7 274.9 275.8 276.7 277.5 277.8 277.2 278.6 278.7 278.2 275.4 271.7 269.3 265.4 261.7 257.7 254.5 252.3 249.6 251.1 246.9 245.6 244.9 243.4 244.6 244.8 243.9 242.6 245.4 246.9 248.7 250.6 252.4 252.6 254.5 256.3 257.3 258.4 259.8 260.3 260.6 259.5 258.2 256 253.8 250.5 246.5 241.9 237.1 232.3 226.1 219.8 212.7 206.7 200.3 193.5 187.7 182.9 177.9 172.2 168.6 166.2 163.7 161 159 161.6 164.7 167.8 172.9 177.7 182.4 186 188.4 190.7 191.8 192.8 193.7 194.7 197.7 199.1 199.9 200.4 200.9 201.4 202.5 203.5 206 208.9 212.3 216.3 218.9 221.6 225.2 228.9 232.7 235.7 239.2 241.6 244.9 246.7 252.6 258.1 260.8 263.6 264.7 266.3 268.8 271 272.7 273.4 272.9 270.3 266.8 261.9 256.6 250.2 242.3 235.6 230.5 226.6 225.4 225.1 221.6 220.9 220.9 221 220.1 219.4 221.3 224.5 226.2 229.2 230.8 233.9 236.7 241.4 247.2 250.2 252.2 255.6 258.9 258 255.4 252.2 248 242.9 240.5 237.2 233.2 227.7 223.6
119.1 122 123.4 127.9 134.5 145.5 153.8 155.3 156.2 156.1 154.4 156.7 156.9 158.2 163.2 166.6 170.3 175.5 179.3 183.7 187.5 191 193.7 196.3 201 204.5 202.3 200 197.9 195.8 193.6 191.7 189.5 193 194.7 196.4 201.1 206 210.4 214.5 219.8 224.6 230 235.1 239.6 244 249.1 254.5 260.1 265.8 270 272.3 274.3 275.3 276.5 277.1 277.1 276.4 277.1 275.3 272.4 269.6 265.6 262.4 258.1 255.2 251.1 250.8 250.8 248.3 248 246.8 246.7 247.3 246.9 244.5 246.5 247.4 249.3 250.5 253 254.9 255.8 257.7 259.5 260.5 262.3 263.4 265.4 266.1 264.9 263.5 261.8 259 255.7 252.1 247.3 242.5 236.8 230.7 224.8 217.3 209.8 202.5 195 188.6 182.7 176.7 170.9 167.9 165 162.6 160.1 158.7 159.6 162.5 166.2 171.2 176.3 181.4 185.7 188.2 190.7 192 193.5 195 195.4 198.2 199.2 200.1 201.4 202.1 202.9 204 205.2 206.4 208 210.9 214.7 217 219.4 223.1 227 229.5 232 234.1 237.4 240.4 243 246.1 250.3 254.2 256.2 257 258.8 260.6 262.3 262.8 266.3 267.3 265.6 262.5 259.1 254 248.6 241.3 235.3 229.1 225.7 224 224.3 222.4 220.8 219.2 219.6 220.5 220.9 222.2 224.6 226.9 229.3 231.6 234.3 237.1 241 246.8 250.5 252 254.7 257.5 257.3 254.9 252.3 248 242.5 239.9 236.4 232.1 226.9 222.4
116.4 118.1 121.8 123.2 130.6 139.2 148.9 155 156.5 156.3 154.1 155.2 155.5 156.4 160 163.2 164.9 169.2 174.6 180.5 183.9 187.1 190.2 192.4 196.6 199 198.6 197 194.9 192.8 190.6 187.9 185.2 187.4 188.2 191.2 196.1 201.1 205.5 209.9 213.9 221.6 227.6 231.9 236.4 240.8 246 251.3 256.6 261 265.3 267.5 271.2 274.5 275.4 275.8 276.5 276 275.6 274 272.3 268.6 265.8 262.8 258.6 255.2 253.2 252.5 251.5 249.9 249.2 248.4 247.9 248.2 247.6 246.9 248 249.3 250 251.2 253.8 256 257.8 260.6 262.8 264.5 266.3 268.3 270.4 271.4 271.4 268.5 265.9 263.4 259.9 256.6 251.9 246.3 240.3 235 227.8 220.3 211.8 203.7 196.4 189.8 183.1 176.7 170.8 166.2 163.8 161.3 159.3 157.9 157.9 161.1 165 170.7 175.8 180.9 185.7 189.1 191.6 193.8 195.4 196.9 197.6 198.5 200 200.6 202.1 203.5 204.7 205.9 207.2 208.3 209.4 211.5 214.8 216.8 219.1 223 225.2 227.5 229 230.3 230.9 233.8 236.6 240.4 243.7 245.7 247.1 248.4 249.7 250.6 251.3 251.9 254.3 258.6 258 256.5 254.8 250.9 246.5 240.4 234.9 229.3 227 223.1 224 222.8 221.3 219.9 219.8 221 222.8 223.1 224.4 226.3 228 232 234.2 236.9 240.3 244.7 249.4 251.4 254 255.7 256.2 255.2 252.4 248 242.2 239 235.7 231.1 225.9 221.3
114.5 116.9 121.1 123.2 125.7 130.9 139.9 146.9 151.6 152.5 152.1 151.9 153.7 154.8 157.6 159.9 162.1 166.5 171.5 175.9 180.6 183.1 184.3 188 193 193.7 193.6 192.8 191.5 189.4 187 184.2 181 182.7 184.2 187.6 191.8 196.1 200.6 205.1 210.7 216.6 223.2 228.9 232.8 237.4 242.9 248.3 253.3 258 263 267.8 270.9 274.1 275.1 276 276.8 275.9 275.1 272.7 271.8 270.3 267 263.2 260.6 258.3 255.8 253.8 252.5 250.6 250.4 249.4 248.9 248.9 247.9 246.8 248.6 250 251.8 253.5 256.3 258.1 259.6 262.5 265.5 267.4 269.8 272.7 275 275.7 275.6 275.2 272.4 269.2 264.8 261.2 255.2 249 242.6 236.2 228.7 221.4 213.2 204.7 197.5 190.3 183 176.5 170.2 164.8 162.3 160.1 158.2 156.9 157.9 160.2 164.4 169.8 177 181.9 186.1 189.7 192.7 195.1 197.1 198.7 199.4 200.1 201.6 202.9 204.8 206.4 207.1 207.9 209.2 210.5 212.8 214.5 217.1 219.9 222.8 225 226.3 227.8 228.7 229.9 230.7 231.6 233.8 237 238.9 239.7 241.2 240.9 242.1 242 241.8 242.6 244.3 247.6 249.8 246.8 245.8 245.2 242 237.4 232.2 228.8 227.4 223.5 224.2 222.9 220.6 219.2 222.2 221.3 222 223.5 225.1 226.6 228.2 230.2 232.9 236 239 241.9 245.8 249.2 251.8 253.6 254.9 254.5 251.6 247.5 241.8 237.8 234.7 230.2 224.6 220.2
114 115.3 116.9 121.1 124 126.4 134 138.5 145.6 147.6 146.6 151.5 151.7 153.6 155.8 157.9 160.8 164.1 169.5 174.1 178.1 178.6 179.3 183.3 188.3 191.3 190.3 187.8 187 186 183.7 181.5 179 178.7 180.7 183.6 186.8 190.6 194.9 199.4 205.7 212 218.3 223.9 228.5 234 239.5 244.9 249.1 254.5 259.9 265.4 268.7 272.7 274.9 276.2 276.2 275.2 274 273.4 272.3 272.2 269.7 266.5 262.9 260.3 258 255.7 254.2 252.5 251.7 250.1 250.1 248.9 247.9 247.4 248.9 250.6 253.2 254.9 258.2 259.9 261.3 264.1 266.5 269.6 272.5 275.3 278 279.3 280.3 280 277.8 276.1 271.5 266.5 259.4 251.7 244.6 236.8 227.6 220.6 213.6 204.9 197.8 189.6 183 176.2 169.7 164.3 161.3 159.6 157.7 157.3 157.5 160.3 163.2 170 177 181.8 186.2 190.6 193.5 195.8 197.8 199 200.4 202.4 203.8 204.9 207.3 209.4 210.1 210.7 211.5 214.3 216.6 218.7 221.9 224.3 226.4 228.7 228.8 228.8 229.3 230.2 230.5 230.8 232.5 234.2 237.3 237.2 237.4 236.8 236.8 237.1 238.1 239 240.2 241.6 241.6 238.4 236.8 236.2 233.4 232.3 231 228.6 226.7 224.8 223.6 222.1 220.1 219.6 222 221.7 222.4 224 225.6 227.1 228.7 230.2 231.8 234.8 237.5 239.6 242.3 245.7 248.8 251.3 252.7 252.8 250.7 246.7 240.7 237.3 233.5 228.6 223.1 218.3
112.1 113.3 114.3 118 121.1 123.8 128.4 133.1 140.3 142.2 147.6 144.8 149.4 153 154.8 156.6 158.4 161.4 165.8 172 176.7 176.3 176.3 179.6 184.1 189.6 188.5 185.3 184.5 182.9 180.8 178.6 177.1 176 177.5 179.2 181.3 184.4 188.5 194.4 201.5 207.4 213.3 219 223.5 229.8 236 240.8 244.4 249.6 255.7 260.8 264.6 269.2 272.6 276.2 276.7 275.6 273.9 273 274.8 274.3 272.1 269.4 266.2 262.6 260.3 258.2 256.5 254.7 252.8 251.6 250.5 249.8 248.9 248 248.2 249.5 252.6 255.7 259 261.4 263.2 264.7 267.2 271 274.5 276.3 279.7 281.4 281.9 282.2 281.4 280.3 276.5 272.1 265.5 256.3 246.8 237 228.2 220.5 212.6 204.8 197 188.7 182.1 176.2 169.6 164.7 160.4 157.8 156.6 157.1 157.3 159.1 161.3 169.7 177.1 181.7 186.1 190.5 193.8 196.2 198.1 199.9 202 204.8 205.8 206.9 209.1 211.1 212.2 212.8 214.5 217.4 220.2 222.2 226.4 228.5 231 232.1 233.1 231.6 230.4 229.9 230.2 230.5 231.2 231.7 233.8 234.6 233.5 233.6 234.5 235.1 235.5 236.5 238.2 236 234.1 232.6 231.9 231.6 231 230.8 229.7 229 225.6 224.8 224.6 221.1 219.3 220.6 221.9 222.6 222.8 224.1 225.7 227.1 228.6 230.4 231 232.5 234.7 236.8 239.2 241.6 244.6 246.9 248.1 248.6 247 242.6 237.4 234 230.8 226.1 221.4 217
111.4 111.7 112 116 119.8 121.7 125.3 133.2 136 135.5 139.9 146.3 149.4 152.7 155 155.5 156.7 159.7 162.7 166.7 170.9 174.3 174.8 175.5 179.7 184.9 185.3 183.5 181.8 179.8 177.8 176.3 175.4 174.4 174.2 176 177.7 179.3 184.7 190.8 196.9 202.8 208.7 214.1 217.9 225.2 232.2 236.2 240.3 245.6 250.2 255.2 259.8 265.3 269.2 274.9 277.1 276.5 275.3 275.1 275.3 275.7 274.9 272.5 270.1 266.8 264.9 261.8 260.2 257.9 256.3 254.6 253.9 253.2 251.3 251.1 250.4 250.7 252.8 257.1 259.4 261.7 263.4 265.4 268.1 271.8 275.1 278.2 280.1 282.5 283 284.1 284.7 283.5 279.6 273.9 268 259.7 248.7 237.7 228 219.3 210.9 203.2 195.8 187.9 181.7 176.3 169.6 165.3 160.9 156.5 157 158.2 157.1 158.9 161.2 170.1 177.3 182.3 186.7 191.1 194.2 196.6 198.8 201.1 205.6 207.2 208.1 209.2 210.8 212.5 214.2 215.7 217.5 220.4 223.3 225.9 229.5 232.3 234.9 235.5 235.7 235.2 232.4 230.7 229.9 229.8 230 229 228.6 229.4 231.2 232.1 233 233.7 233.9 234.4 232.9 231.8 230.8 230.5 230.7 231.4 231 230.9 229 227.1 225.5 225.2 223.7 222.3 218.9 221.1 222.4 223.1 223.7 224.2 225.8 227.1 229.1 230.3 231 231.9 233.6 235.2 236.4 238.5 240.4 241.8 243 242.2 241.2 237.7 233.7 230.7 228.2 223.8 219 215.6
110.6 110.6 110.2 114 117.8 120.8 123.3 126.6 129.1 133.9 137.8 144.6 148.5 151.5 153.9 154.8 155.9 157.4 161 162 164.6 167.5 170.4 172.7 174.9 177.7 183 181.3 179.5 177.8 176.2 175.7 174.9 174 172.3 172 173.1 176.2 180.7 186.3 192.2 198.1 204.2 209 215.3 222.4 227.7 233 236.4 240.9 245.2 249.6 255.5 260.7 264.5 271 275.4 275 274.2 275.3 276.3 277 277.7 275.8 273.4 269.7 266.9 265.1 263.1 263.1 262.3 260.1 258.8 257.2 256.2 255.7 254.5 254.1 254.3 255.4 258.6 261.9 263.2 265.2 268.5 272.1 275.8 279.1 281 282.8 283.8 284.9 286.2 286.5 282.5 275.6 268.5 260.2 249.9 238.3 226.7 218 209.3 201.5 194.6 187.7 180.9 175 168.7 163.8 159.6 156.1 156.4 156.9 158.1 160.2 162 170.1 177.4 182.5 187.4 191.9 195.1 197.5 199.7 203.4 206.2 209 210.7 211.9 213.5 215.4 217.3 218.6 220.5 223.5 226.4 228.6 232.1 235.3 237.7 238 236.4 235.5 233.9 231.3 230.5 229.7 228.9 228.2 227.6 227.9 229.4 231.4 233.1 233.3 233 234.4 231.5 230.6 229.7 229.1 230.6 231.7 231.3 230.7 230 227.5 224.6 224.1 222.9 220.9 219.1 221.8 222.4 223.1 223.9 224.6 225.9 227.6 229.7 230.4 230.9 231.7 232.9 233.9 235 235.3 235.4 236.1 236.8 236.3 235.9 233.5 229.8 227.5 225.3 221.2 216.6 213.2
108 109 108.9 110.9 115.7 120.1 121.1 125.8 128.2 131 137.5 144.1 146.2 149.9 152.2 153.9 155.2 156.9 159.4 159.9 161.2 162.8 165.6 169.1 172.3 174.3 178.6 179.9 177.8 176.2 175.2 174.4 174.5 173.6 172.6 170.3 171.1 173.4 175.6 180.8 187.9 194 199.7 205.3 214.7 220.4 225 229.1 232.2 236 240.8 245.1 251.3 256.2 259.5 265 269.2 270.4 272.4 273.9 276 277.8 278.1 276.4 274.2 271.6 269 267.1 265.6 266.3 267.7 266.8 264.2 262.1 261.1 258.9 257.9 257 257.4 257.8 258.8 262.3 263.2 264.9 268.5 272.4 276.4 279.6 282.1 283.3 284.1 284.9 284.7 284.5 280.5 275.8 269.3 260.2 250.1 238.2 226.4 216.7 208 200 193.5 187 179.6 173.4 167.4 162.8 159.3 155.9 156.1 156.4 159.8 160.7 162 166.8 176.5 182.2 186.5 191.1 194.6 197.7 200.8 203.6 206.4 209.2 212.1 214.9 216.2 218.2 220 221.4 222.9 224.7 227 229.6 232.1 235.5 238.7 239.3 237.5 235.4 233.8 231.9 229.4 228.5 227.9 227.3 226.7 225.3 227.8 231.3 233.3 232.7 233.2 232.7 230.6 229.7 229.1 228.9 231.1 231.9 230.6 229.6 229.1 227.3 224.3 223.5 222.8 221.4 220.1 222 222.5 223.1 223.8 224.8 226.1 228.2 229.8 230.4 231 231.3 231.8 232.2 232.6 232.8 232.5 232.2 231.6 231.2 231.5 229.5 226.5 224 223.1 218.9 213.9 210.7
105.8 107.4 107.2 108.3 112 114.9 116.7 119.3 125.9 132.1 137 140.3 141.5 146 149.7 153.4 154.9 156.4 157.5 157.8 159.1 161 162.8 167.8 171.5 172.1 173.3 176.6 175.1 174 173.7 173.1 173.3 173.2 171.9 173.9 175.5 171.9 173.2 175.2 182.7 189.5 192.6 200.4 209.2 216.6 220.6 225.2 228.4 232 235.2 240.3 245.5 249.7 253.2 257.5 262.3 265.8 268.1 270.7 274.4 275.9 275.8 275.4 274.3 272.5 270.5 268.6 268.7 269 270 269.5 268.5 267.2 265.2 263.2 261.6 260.6 259.8 260 259.7 260.6 262.5 265 268.1 271.9 276.3 279.9 282.2 282.9 283.5 284.1 283.4 279.6 275.4 270.7 268.5 259.8 249.1 237.9 226.3 215.4 206.7 198.2 191.2 184 179.1 172.9 167.2 162.1 158.8 156.7 155.5 155.5 157.4 160.5 161.5 166.6 173.3 180.2 185.3 189.9 193.9 197.3 201.3 204.4 208.1 211.7 214.9 217.7 218.5 220 221.8 223.4 224.3 225.2 225.9 227.3 229.8 233 236.2 237.4 236.7 235.5 233.2 230.8 228.8 227.6 226.8 226.2 225.4 224.1 225.3 230.4 232 232.1 231.6 231.3 230.3 228.8 227.2 228 230.1 231.5 229.4 228.4 227.8 226.6 223.4 222.9 222.7 221.9 219 222 222.6 223.1 223.8 225.3 226.7 228.8 229.9 230.4 230.4 229.9 229.7 229.7 230.1 230.3 230 228.9 227.9 228.3 228 225.9 223.2 220.8 219.6 218.8 213.4 211.9
103.4 105.8 105.4 106.8 109.4 109.5 114.9 121.1 127.1 134.3 137.3 138 139.1 142.5 146.9 152.7 154 155.5 154.6 155.4 158 160 162 165.7 168 168.5 169.8 171.1 172 172.9 172.8 172.5 172.4 172.2 170 173.2 173.8 172.9 172.1 174.4 177.2 184.9 189.9 196.6 206 211.2 215.7 220.8 223.6 226.6 230.5 234.7 238.6 242.7 246.9 250.8 254.4 258.4 262 264.9 269.9 271.7 273 273.8 272.6 272.1 270.3 268.9 269.1 268.8 271 271.6 270.8 269.1 267.4 265.7 264.5 264.1 263.7 263.5 263.1 262.6 261.3 264.9 266.8 269.7 274.4 278.5 280.4 280.9 280.9 281.3 281.2 277.3 271.3 265.4 260.7 252.4 244.2 234.3 223.9 213.5 205.2 196.7 187.9 179.8 176.5 172.3 167.4 162.1 158.8 156.9 155.2 155.1 155.3 158.1 162 165.1 172 177.4 182.4 187.7 193.5 198.7 203.2 207.5 211.2 214.7 217.7 219.1 221.2 223 224 224.3 224.9 225.7 226.1 226.6 227.6 231 234.3 236.2 235.7 233.9 231.9 230.1 228.4 226.7 225.1 224.2 224.2 223.3 223.2 227 229.3 230.8 230.7 230.9 230.4 229 227.5 226.5 228.3 227.8 227.4 227.4 227.1 225.3 222.5 222.3 221.9 221 219.2 221.4 223 223.9 225.5 226.8 227.8 229.1 229.5 230.1 229.7 229.1 228.5 228.3 228.1 227.9 227.3 226.4 224.9 225.4 224.1 222.2 220.3 217.3 214.8 215.3 212 208.9
102.7 103.9 103.6 105.3 106.8 111.9 114.3 117.8 123.2 135.9 136 136.5 136.8 139.9 147.8 149.8 150.3 150.8 150.7 153.8 155.9 157 159.1 160.7 164.2 167.8 168.9 168.3 169.9 171.9 173.8 173.3 171.6 171 170.2 169.7 170 170.2 172.3 174 175.6 179.5 185 192.3 200.2 205.4 210.7 215.3 218.3 221.1 224.9 228.1 231 234.6 239.2 244.2 248.1 251.1 254.4 257.9 262.8 266.9 269.4 271.2 272.3 271.4 270.6 269.2 268.7 267.9 271.1 272.6 272.7 270.3 268.8 267.3 265.9 265.7 265.8 265.7 265.7 265.8 265.2 264.1 264.8 267 271.2 276.7 279.9 278.9 278.1 277.1 277.3 274.7 268 261.4 255.8 247.9 239.7 230 220 210.3 202.4 195.4 187.6 180.9 176.8 172.1 167.5 162.4 158.2 156.3 154.7 154.8 155.1 157.4 160.1 164.3 169.8 174.5 179.9 185.7 192.2 198.2 204.2 209.2 213.7 217.3 219.1 221.9 224.2 226.5 227.2 226.4 225.8 226.4 226.9 227.3 227.3 226.6 228.6 232.5 233.3 231.3 229.7 227.9 225.8 224.1 223.4 223.2 223.1 222.5 221.2 224.3 225.9 228.2 229.9 230 229.1 228.5 227.9 226.2 224.8 224.5 224.1 226.3 225.8 223.7 221.8 221.2 220.9 220.6 218.9 220.4 222.5 224.6 226.4 227.5 228.3 229.6 230 229.8 229.2 228.6 227.5 226.1 225.6 225.2 224.3 223.8 222.1 221 223.3 220.3 217.5 214.8 212.1 211.9 212.9 209.9
101.7 102 101.7 101.9 102.5 107.7 112 116.4 121.2 128.1 132 133.3 135.9 138.9 144.2 146.2 147 148.2 149 152.1 153.8 155.2 155.8 158.8 161.5 163.7 165.6 166.3 170 172.6 174.8 176.1 174.8 171.4 169.6 168.6 168.4 169.3 171.7 173.2 175.2 179.5 183.8 188.2 194.4 200 205.5 209.8 213.3 215.9 218.8 221.3 224.3 228.4 231.7 236.6 240.9 244.6 247.4 251.3 257.6 262.7 266 268.8 270.9 270.3 269.8 269.3 267.9 267.1 268.6 270.6 272 271.2 269.6 269 268.4 267.5 267.1 266.7 267.3 268.7 268.1 266.7 267.5 267.5 268.3 274.2 279.1 277.1 275.2 272.8 272.7 271.3 265.6 258.4 251.2 243.8 234.8 225.6 216.8 208.5 201.5 194.5 187.7 182.4 177.5 172.6 167.5 162.5 158.2 156.5 155.3 154.9 156.6 157.3 157.9 163.9 168.2 172.8 178 184.4 190.8 196.3 202 208.3 213.6 217.3 219.5 223 225 227.6 228.4 227.6 226.6 227.2 226.9 226.4 225.9 225.1 225 225.8 226.8 227.1 225.7 224.7 223.2 222.1 221.9 221.7 221.1 220.6 220.8 222.2 223.7 225.5 228.6 228.8 229 228.6 228.1 226.4 224.5 223.4 223.1 222.2 222.4 221.8 221.3 219.8 219.6 219.4 217.6 219.2 221.7 224 226.1 227.2 227.6 228.4 229.2 229.1 228.3 227 225.9 224.8 223.1 221.5 221.7 220.2 219.6 218.6 217.1 216.1 217.3 216 210.8 209.9 209.5 210.1
100 100.1 99.7 100.3 99.8 104.3 109.6 113.2 117.4 122.9 124.3 129.7 134.4 137.2 141 143.8 144 144.6 146.6 150.3 152.3 153.4 154.1 155.7 157.1 158.9 161.9 165.5 169.2 172.6 174.8 176.8 176.5 173 170.4 169.5 168.9 168.5 170.2 172 175.3 179 181.2 184 189.3 196.3 200.4 204.5 208.3 211.9 213.9 216.3 218.4 221.7 225.3 229.2 233.5 236.4 239.8 244.3 249.6 256.1 260.6 265.8 269.5 269.2 268.4 267.5 267.4 266.3 268.1 270 270.7 270.9 270.4 270.1 269.6 268.9 268.3 268 268.9 270.2 270.7 268.9 269.2 270.5 269.1 274 279 275.6 272.4 269.6 267.6 265.2 261.3 255.7 248.4 242.7 234.5 225.9 217 208.3 200.9 193.6 187.2 181.8 176.7 171.6 167 162.9 159.2 156.7 156.5 156.7 157 156.5 157.3 163.1 167.8 171.3 177 183.2 188.9 194.8 199.8 207.3 213.2 216.7 219 221.3 223.6 226.8 226.8 226.4 225.8 226 225.4 224.9 224.4 223.6 222.8 222.3 222 222.4 223.5 221.7 221 220.6 220.3 219.7 218.8 218 220.4 221.6 222.4 224.2 227.2 228.8 229.1 228.7 227.6 226.2 224.6 222.5 222 221.2 220.3 220.2 219.7 219 218.2 218.1 216.8 216.9 220.3 223 225 226.3 226.5 227.5 227.6 227.1 226.3 225.2 223.8 222.6 221.1 220.3 219.5 218.4 217.8 217 215 214.1 212.6 211.6 210.2 209.5 208.9 208.9
97.5 98.6 98 99.5 98.9 102.1 106.9 109.3 112.5 119.6 123.4 125.5 130.1 132.7 139.4 142.1 142.9 143.3 143.4 146.6 148.3 149 151.7 154.3 155.4 155.5 160.1 163.2 166 170.1 172.5 173.7 173.9 173.5 171.4 170.3 169.8 167.1 168.9 170.9 173.9 177.7 178.9 181.7 187.9 191.9 195.2 199.8 204.8 207.7 209.7 210.9 212.8 216.4 219.6 223.2 227.3 231.2 234.8 239 243.1 248.5 252.9 259 264.6 266.1 266.6 265.8 266.4 265.4 267.3 268.7 269.7 269.7 269.8 270.6 270 270 269.7 270.2 270.5 270.5 270.6 268.3 269.8 270.5 269.2 272.5 274 273.8 270.7 268.4 266.7 264.2 260.8 256.1 249.1 242.5 234.1 225.6 217.1 209.3 201.4 193.5 186 181.1 176.8 171.8 167.7 163.7 160 156.7 155.9 156.4 155.8 155 156.4 160.6 167.2 169.7 175.6 181.2 186.9 192.4 198.1 206.6 212.8 216.1 218.4 219.5 220.6 222.9 223.2 223.7 224.2 224.3 223.9 222.9 222.1 221 220.4 219.2 218.5 218.3 220.7 220 219.9 219.5 219.2 218.8 217.6 218.9 219.9 220.9 221.6 223.8 227.2 229 229.2 228.8 227.1 225.7 224.3 222.9 221 219.9 219.3 218.7 218.2 217.5 216.8 216.4 214.7 217.5 219.1 220.8 222.7 224.3 225.3 225.7 225 224.4 223.7 222.9 221.9 221.2 219.5 218.4 218.1 218.1 217.5 216.2 214.5 213.4 212.2 211 210.1 209.2 206.6 206.7
