ncols 200
nrows 82
xllcorner 320000
yllcorner 280600
cellsize 50
377.2 388.8 401.1 408.2 406.8 406.1 411 410.7 409.3 407.8 405.8 404 401.9 399.8 397.3 394.5 393.1 391.1 388.7 388.1 387.4 388.4 389 388.6 383.1 387.8 388.8 391.5 396 400.5 402.3 400.8 398.4 394.7 390.3 388.7 388.3 387 384.5 382.1 379.6 377.2 374.8 371.5 369.2 366.7 364.7 362.4 360.4 357.9 355.7 354.3 351.3 347.7 341.1 334.1 326.3 316.7 306.5 297.6 293.1 286.9 283 279 275.7 273.7 270.3 262 277.3 299.8 308.5 320.4 328.7 341.4 348.2 352.4 357.2 360.8 360.9 357.5 353.5 357.1 362.9 374 391.3 406.6 408.2 407.6 404.5 401.2 396.3 389.8 383.8 374.8 362.5 352.1 340.7 331.5 307.3 291 304 322.3 338.1 337.1 331.1 325.1 319.1 311.2 304.6 298.9 296.6 296.6 285.5 272.8 283.4 304.1 321.9 334.4 336.5 331.8 324.4 317.2 310.8 296.9 287.4 288.8 298.7 312.3 316.6 315.8 311.6 303.2 291.2 279.4 269.1 266.3 278.5 291.5 303.4 316 327.3 335.5 335.3 334.7 335.8 342.3 351.9 357 360.5 362.8 366.3 360.8 353 345.3 336.9 322.2 307.3 294.2 279.3 268 262.3 259.5 256.6 250.9 244.3 239.1 235.5 231.7 227.7 222.8 221.6 227.3 233.8 240.5 247.7 257.4 267.2 278.5 295.3 312.8 321.1 326.5 328.2 327.1 325.1 321.4 317.2 311.8 304.9 300 297 296.2 293.6 289.6 283.7 278.5 273.4 268 262.4 258.6
373.8 386.6 399.3 401.8 400.5 406.2 409 408.4 407.1 404.9 402.9 401 399 397.1 395 392 389 388.2 386.1 384.9 383.2 384.5 384.7 384.8 384.3 381.2 384.9 387.8 394.7 401.7 405.5 403.6 400.4 397.6 395.1 394.4 393.6 392.4 390.6 388.1 387.3 385.3 383.6 382 378.4 374.3 372.2 369.7 366.6 363 358.4 353.9 349.9 344.5 338 332.1 325.6 316.3 303.3 295.6 290.6 285.2 280.1 276.9 274.3 271.2 268.2 261.1 275.1 290.7 300.6 310 317.1 323.8 327.2 330.6 331.3 337.3 337.6 341.1 345.3 353.3 368.5 387.1 400.4 406.3 406.8 404 400.1 396.4 390.5 382.9 375.7 366.9 357 348.3 336.4 327.6 311.3 296 287.7 301.8 324.4 333.4 328.3 323.9 317 311.8 308 304.5 298.6 292.5 283.3 271.2 278.2 294.7 310.6 325.6 334.7 334.2 328.3 322.3 314.2 305 296.5 285.1 285.8 300.1 306.4 305.8 301.4 294.3 285 272.8 263.6 265.3 279.4 293.3 307.7 321.3 328 328.4 326.5 327.6 330.9 340.1 352.6 359.5 361.9 365.3 369.3 363.8 357.4 351 343.3 331.1 316.5 300.8 286.6 272 263.7 259.4 253.5 248.1 243.4 240.2 236.4 232.5 227.6 222.7 220.9 224.9 232.2 239.7 248 256.7 266.9 281.5 303.1 311.6 320.6 327.6 327.5 323.8 320.4 316.9 312.9 308.4 303 297.6 293.7 291.8 289.3 287.4 282.7 277.8 272.7 266.5 266.4 266.5
365.6 379 392.3 394.7 399.5 405.7 408.4 407.1 404.9 402.4 400.2 398.2 395.8 393.6 391.1 387.4 385.2 383.9 382.5 381.7 381.2 380.6 380.2 380.2 380.7 377.2 380.8 384.6 394.6 400.6 404.2 403.8 401.1 399.9 399.6 398.8 397.8 396.9 395.9 395 393.8 392.3 391 388.8 384.7 380 376.1 371.9 366.8 361.5 355 348.6 343.4 337.6 331.8 326.1 318.1 308.2 299.5 294.4 292.7 287.9 281 277.2 274 270.2 264.5 261.5 261 283.7 285.1 295 301.7 300.5 304 311.6 316.2 324.3 327.6 339.8 357.6 369.3 382 395.3 403.7 405.1 403.2 398.3 393.8 389.2 381.8 373.6 365.2 356.3 347.1 333.4 325.3 320.4 313.5 303.6 291 285.3 304 323.5 326.9 325.6 323.8 320.7 315.9 308.9 301.2 296.5 290 272.9 267.8 277.6 294 309.8 325 332.4 330.6 323.6 313.9 305.9 301 292.6 275 288.4 295.3 295.1 293.9 288.1 279 268.7 257.6 264.2 280.2 296 313.1 322 321.1 319.3 318.4 320.4 325.6 333.8 346.5 355.6 360.6 368.2 371 367.3 361.2 354.6 346.6 336.5 324.9 308.7 296.1 282.8 271.8 264.2 257.1 251.4 247.7 243.6 238.8 233.3 228.8 221.9 220.8 223.2 231.2 239.7 248.2 256.5 268.6 290.8 300.2 304.6 314.9 321.9 322.3 318.4 314.5 310.8 308.9 305 300.7 295.9 292.8 289.6 286.5 284.7 281 275.9 272.7 269.9 272.1 273.3
357.5 372.4 384.1 388.4 397 402.8 404 403.6 403 401.8 399.5 396.2 392.8 389.4 386.7 383.2 380.6 378.3 378.2 378.6 378.3 377.4 376.5 376.8 376.5 374.3 373.5 381.5 392.8 400.9 403.4 403.4 402.4 403 402.8 402.6 402 401.4 400.2 398.8 397.9 396.4 395 391.9 387.1 382.2 376.5 369.2 363.6 355.8 347.9 340.8 334.9 329.1 322.7 316.7 309.5 304.7 304.1 300.3 293.8 287.8 284.8 281.2 276.4 271.7 268.6 265.5 258.8 265.3 272 281.8 281.7 288.6 295.4 300.8 315.7 328.3 341.4 360 373.7 386 389.8 401.8 400.6 401 399.2 394.3 389 382.7 374.2 365.8 358.4 350.6 339.1 341.5 338.3 333.9 326 316.9 299.6 285.2 283.2 301.2 321.6 329.8 326.8 322.5 316.7 309 301.1 294.9 289.4 278.1 268.6 264.6 273.1 291.1 306.9 316.5 316.2 313.6 307.6 300.8 297.5 293 274.7 270.4 281.8 286.6 287.9 283.8 274.3 262.5 254 264.3 280 297.2 312.1 314.2 307.8 308.2 311.9 315.9 322.6 331.7 343.1 352.6 360.9 369.8 373 368.3 361.2 355.2 347.7 339.1 327.1 314.9 302.3 289.5 278.3 269.6 263 256.3 252.1 248.3 241.4 233.9 228.4 222.6 219.8 221.6 230.6 239.4 246.9 257.4 274.7 289.7 294.7 297.3 308.4 315.2 316.2 314.7 310.2 306.9 304.4 301.9 300.4 295.5 290.8 287.6 284.4 280.4 276.1 272.9 272.5 273.2 275.2 277.5
345.1 362.5 376.7 383.2 392.3 398.9 403.2 401.9 400.2 398.2 395.8 393.2 388.5 384 380.7 377.9 375.6 374.3 374.8 375 375.4 372.2 372.8 373.2 371.4 368.9 369.5 378.6 394 403.6 404.5 404.4 404.7 405.7 405.7 405.5 404.5 404 403.2 402.5 400.8 399.1 396.3 392.5 387.4 381 375.2 367.2 359.9 350.6 340.6 335 328 324.7 322.4 318.5 315 311.7 308 303.5 294.6 294.1 291 287.4 282.2 277.6 271.3 267.2 257.6 255.3 256.6 267.3 272.7 287.3 306.5 323.3 335.2 350.5 363.8 377.8 384.7 390.9 392.6 397.2 395.3 396.1 393.7 390.8 387.4 378.3 368.6 363.6 356.4 351.4 351.1 350.2 342.6 335.4 326.6 320.3 314.2 293.8 281.4 285.8 311.9 329.1 325.3 320.2 314.8 306.3 299.1 292.5 285.8 279.8 278.7 268.8 262.1 267.9 278.1 289.3 294 295.7 293.2 292 290.5 290 278 264.5 267.5 279.9 282.2 279.5 270.5 258.7 251.4 262.6 277.6 294.2 305.5 302 296.5 297.6 304.3 312.8 323.8 335 344.9 353.5 362.3 370.5 372.5 367.4 361.4 355 346.7 337.2 327 316.2 304.4 293.9 282.8 273.2 266.3 260.2 254.8 248.6 241 234.2 228.2 223.8 220 221 229.8 237.4 245.9 260.4 274.8 284.8 288.2 289.4 303.2 310.9 312.1 309.2 306.4 303.6 302.3 300.1 299.1 296.4 291.6 287.8 284.1 280 275.3 270.6 269.2 272.5 274.8 276.3
336.5 352.6 368.7 375.5 386.9 395.4 397.9 396.1 394.6 393 390.8 387.5 383.1 379.2 376.1 373.5 371.5 368.2 371.5 371.7 370.8 369.1 369.2 369 364.9 365.3 370.7 383.8 396.5 404.3 404 403.8 405.3 406.1 406.3 406 405.8 405.6 405.3 405.4 402.3 399.2 396.1 392.5 387.5 379.4 370.2 362.6 353.5 346.2 342.3 338.6 334.3 331.1 327.5 323.1 319.3 316.2 312.1 302.4 304.2 302.1 296.8 292.6 287.2 282.9 277 270.9 267.2 263.1 254.7 256.1 272.7 288.7 308.6 325.4 342.5 355.9 367 377.1 383.6 389.9 387.2 390.3 390.4 391.4 390.8 389.1 385.3 377.6 370.5 365.7 363.1 361.6 358.7 355.2 351.8 347.3 339.8 331.3 322 298.9 281.7 280.4 305.3 327.9 324.7 318.2 312.2 305.2 298.3 292.9 288.8 285.7 283.3 279.4 268 259.2 260.1 262.4 270.2 277.3 283.3 284.2 281.4 282.9 280.6 270.5 254.7 269 271.3 269.9 264.9 257.2 246.9 261 277 289.3 293.7 291.1 288.5 295.2 306.2 319.1 329.9 338.7 347.3 356.1 365 371.7 372 368.6 363.1 355.3 345.5 335.3 324.2 313.8 305.2 296.4 284.5 274.5 266.7 261.5 256.4 247.5 239.9 234 228.8 225 219.4 218.8 224.8 234.1 243.8 259.2 271.2 279.7 281.2 282.4 298.2 306.5 307.4 303 300.9 300.8 300.2 300.2 299.1 295.2 290.1 287.6 283.3 279.1 273.6 270.4 262.2 268.5 271.6 271.2
329.3 346.3 363.4 370.3 379.1 386.9 390.3 391.4 391.7 390.4 387.2 383.2 379.7 375.5 372.5 369.9 367.7 363.2 367.1 367.8 367.3 366 364.4 362.5 361.8 364.2 372 389.5 400.2 404 403.9 403.9 403.8 404.6 404.8 404.7 405.7 406.3 405.7 404.6 401.6 397.5 394 390.3 385.5 377.4 368.4 362.9 360.5 356.2 351.2 344.9 341 337.2 333.5 331.4 326.9 322.8 316.4 310 310.7 306.2 301.3 296.6 292.9 288.4 283.3 275.7 272 269.9 261.7 253.9 265.9 287.9 307.3 325 345.4 358 366.7 374.3 379.2 381.5 381.3 384.7 385.6 388.2 389.7 389.1 385.5 379.5 377.5 374.8 372 369 366.1 362.5 357.5 351.5 342.6 333.7 321.6 304.4 282.5 276.3 302.3 325.2 323.8 317.6 313.1 306.5 302.2 299.7 295.3 289.9 286.6 283.3 279 272.9 261 254.8 256.9 262.6 269.6 270.7 268.9 267.9 265.7 258.3 251.5 254.7 255.5 256.8 255.5 252 244.4 259.1 275.9 282.9 283.6 282.5 285 295 308.2 322.4 333.2 343.3 351.4 359.7 366.9 371.9 373 369.9 361.6 352.6 341.9 331.4 320 310.9 303.6 295.6 284.6 275.1 266.6 261.2 255.8 246.8 239.5 233.9 228.5 223.4 219 218.3 219.5 228.2 240.5 252.2 264.7 272.7 275.4 278.8 292.6 297.7 296.1 294.5 293.5 297 297.9 300.5 299.1 294 289.8 286.9 282.3 277.5 272.8 269.3 259.5 260.8 263.9 264.3
318.8 341.1 357.4 365.6 370.7 376.9 381.3 386.9 387.2 385 381.7 379 376.2 373.2 371.1 367.2 363.1 357.1 363.3 365.1 364.5 363.2 362 360 361.5 365.3 379.7 392.1 401.3 403.2 402.8 402.5 401.7 401.6 401.5 401.4 403 403.8 403 400.6 399.3 395.5 391.5 387.4 381.6 376.3 376.3 373.5 369.4 365.6 361.2 354.9 349.9 344.6 339.3 335.5 331.2 325.2 316.4 318.8 316.1 311.7 306.5 302.5 298.1 293.3 288.2 280.8 274.2 269.5 264.2 253.5 264.8 284.8 306.3 326.2 345.2 355.7 360.9 368.3 371.7 370.7 371 372.6 372.5 377.9 384.7 390.2 386.2 381.1 378.2 374.6 372.2 370.1 367.3 362.2 354.7 350 341 332.6 320.5 309 283.1 275.3 297.5 321.2 325.9 321.3 316.8 313.2 309.1 306.2 301.6 297.2 293.2 287 283.7 280.3 275.7 267.4 257.7 252.7 255.7 254.2 252.5 249.2 246.1 244.4 243.8 243.2 240.7 240.5 242.2 240.5 242.5 253.2 267.4 273.8 272.3 273.6 286.2 298.6 311.6 323.5 335 345.9 354.5 362.9 368.2 373 372.7 367.6 360.1 351.5 340.8 328.7 316.3 307.5 301 293.1 283.4 273.9 266.6 261.6 256 248.5 240.2 234.4 231 225.7 221.8 218.9 217.8 219.7 230.8 243.9 254.2 263.4 266.6 273.4 280.4 288.6 285.8 288.8 293.2 296 295.3 294.9 293.6 292.2 288.8 285.1 279.7 275.2 271.2 267.8 261.9 254.6 246.9 253.7
313 333.4 349.9 357.8 361.4 367.7 374.5 381.3 382.8 382.9 381.3 379 375.6 373 369.4 365.4 360.9 350.1 358.5 360.9 361 360.4 359.5 357.9 361.8 369.9 380.9 390.4 397.9 401.2 400.7 399.8 399.1 398.9 398.6 398.5 398.6 399 398.6 397 395.5 393.3 389.9 385.2 385.5 385.4 384.1 382.2 378.4 374.2 369.2 362.3 355.3 349.5 343.4 338.6 334.1 324.2 328.3 325.1 322.5 318.4 313.7 309.6 305.3 299.6 293.4 287.3 278.9 269.4 262.8 252.1 266.2 284.8 308 327.7 341.8 347.8 351.3 355.2 354.7 354.1 353.4 355.1 358.7 365.2 375 383.1 378.6 378.3 375.5 375 372.7 369.8 367.2 361 352.2 342.5 332.5 325.1 314 303.4 283 274.5 285.4 309.5 322.3 322.9 320.1 318.4 316 312.2 308.6 304.8 299.5 293.9 288.9 285 280.2 272.8 266.7 254.3 249.1 245.9 245.8 243.5 242.5 241.6 241.5 239 238.1 236.8 236.8 236.4 240.6 246.4 256.4 262.5 263 276.8 289.4 303.3 314.2 325.7 338.1 348.2 357.1 363.8 368.6 372.7 370.6 364.9 358 349.4 338.9 325.8 312.8 303.7 295.8 288.8 280.7 271.9 265 260.4 256.5 251.5 246 239.7 236 230.7 226.1 223.8 217.5 217.3 225.7 235.9 240.9 248.9 260.8 271.2 278.1 280.2 283.6 290.2 296 300.2 299.2 296.5 294.9 293.3 288.7 283.6 276.8 272.2 267.5 262.7 260.1 257.5 250.2 241.3
303.6 318.2 332.4 343.9 350.2 356.4 364.8 375.9 380.3 382 382.2 379.9 375.6 371.9 367.6 362.4 358.2 347.6 352.8 356.4 356.4 356.3 350.5 359.8 365 376.6 384.8 391.9 397 399.5 399 398 396.4 395.9 395.2 395.3 393.6 393.6 393.9 393.5 392.6 390.7 389.8 391 392.7 391.8 389.9 388.2 384.7 379.5 373.5 365 356.9 349.8 344.9 341.6 335.7 336.1 334.8 332.8 329.6 327 323.4 318.2 313.9 307.6 301.1 293.7 282 270.2 258.8 251.2 265.2 283.7 306.5 327.5 334.8 337.5 340.1 341.8 342.8 343.4 343.5 347.7 356.3 377.3 388.2 385.7 379.1 377.7 376.6 375.2 373.1 368.8 363.2 355.6 346.8 338.6 325.8 312.7 303.7 286.1 281.8 275.5 273.4 294.9 303.2 306.3 309.7 311.7 310 310.1 310.4 310.9 306.1 300.7 294.4 288.3 282 272.9 260.6 249.4 247.1 247.5 250.9 256.7 260.6 256.6 253.8 251 248.9 242.2 237.9 235.5 234.9 240.8 244.7 252.3 263 276.2 290.7 305.5 317 327.5 338.5 349.1 357.3 360.9 364.6 368.8 367.1 362.4 354.4 345.7 336.5 325 311.5 301.1 292.2 285.3 277.7 270.1 262.8 258.2 254.6 252.5 248.7 243.1 238.4 228.2 223.9 225.5 223.6 216.5 221.8 233.7 245.1 255.2 265.8 272.6 274.6 281.1 289.4 297.1 301.5 305.1 305.2 301.7 298.2 292.3 287.6 285.2 281.5 276.7 271.1 264.7 258.7 249.9 246.4 242.9
304.5 302.8 318.6 329.2 338.4 346.7 356.5 367.9 374.5 378.8 380.6 377.1 373.5 369.3 365.6 358.7 355.1 348.8 346.4 350.4 351 347.6 356.2 361 370.5 380.6 387.6 394 396.3 398.4 396.4 394.5 393.1 392.6 391.2 389.6 388.1 388.2 388.7 389.4 390.8 392.3 392.4 394.5 396 395.3 394.6 391.7 387.1 380.5 373.7 365.7 358.8 353.2 349.2 346 341.1 342.6 342.7 341.3 339.6 335.4 331.7 326.1 319.7 313.2 306.2 298.1 284.1 269 260.3 250.8 254.6 278 299.7 317.1 317 318.6 320 326 330.1 333.4 339.8 348.3 367.3 385.3 389.7 381 377.8 376.7 375.2 373.8 371.5 364.5 359.8 351.3 343.4 333 316.9 307.9 306.3 302.8 295.3 278.7 271.5 272.4 276.3 280.4 285.5 288.2 289.1 292.4 294.4 299.8 301.7 295.9 286.6 281.8 273.3 261.9 249.7 251.8 258.6 266.4 272.9 279 282.2 278.2 271.5 267.3 261.8 250.7 244.7 236.7 233.8 238.7 249.6 257.6 267.5 280 292.1 305.6 316.2 325.4 335.2 344.2 350.5 354.2 358 363.2 364.3 359.4 352 344.3 335.4 323.8 311.8 301.1 291.3 283.7 276.4 269.2 262.3 257 252.9 249.3 247.7 242.5 233.5 225.6 220.8 221.3 222.6 217.2 216.6 232.6 249.6 259.7 269.7 280.2 285.8 291.8 300.8 307 309 310.6 308.8 305.7 299.1 292.3 287.9 285.4 281.8 277.7 271.8 265.3 260.3 252.1 243.5 233.2
313.1 301.6 303.8 319.1 328.6 338.2 349.4 357.5 369.3 374.1 376.4 375 371.1 367.6 363.3 354.8 348.9 342.3 341.7 344.9 341 351.4 356.2 361.8 370.7 380.4 386.5 392 396.2 394.6 390.9 388.4 388.7 387.6 384.9 381.9 381.9 381.3 382.7 384.8 386.7 389 388.4 393.3 397.3 398.6 397.8 393.6 387.5 380.7 375.1 368.8 361.5 355.9 351.2 345.5 347.9 349.6 351.2 349.8 348.1 343.3 336.1 330.4 322.8 313 303 296.2 283.7 269.7 261.4 249.6 249.1 261.5 278.7 292.9 292.8 297.9 307.3 315.1 319 330 343.5 363 376.1 386.1 382 374.3 373 374.4 372.7 372.6 369.2 362.6 354.3 347.3 338.1 335.1 333.6 328.7 321.9 314.3 307.2 288.7 278.3 270 267.2 266.6 266.1 265.3 264.9 268.3 271.2 275.6 277.6 276.1 272.1 269.3 261.5 251 255.2 266.6 275 285.1 294.3 301.1 303.2 296.9 283.9 275 266.6 256.7 241.8 237 233.4 236 248.8 260.1 272.3 283.8 293.6 304.1 311.8 319.8 329.4 337.2 343.5 347.2 349.8 356.5 360.8 358.5 350.8 343.1 334.3 323.7 313.3 302.2 292.7 283.9 276.4 269.2 262.5 256.2 253.2 248.8 246.9 241.4 234.8 229.4 222 221.5 222 219.5 215.6 233.3 255.1 265.6 275.7 287.9 296.1 306.1 311.3 313.2 315.1 312.9 309 304.5 297.7 290.1 286.4 283.8 281.5 277.2 271.8 264.3 256.9 250.3 242.8 237.6
315.6 309.8 299.8 303.3 319.7 328.1 343.6 353 362.9 366.2 368.5 367.3 365.5 362.3 358.1 346 342.4 335.5 338.3 340.1 345.1 349.9 354.2 359.3 367.6 376.2 381 386.7 388.9 387.7 384.9 382.1 382.8 379.8 376.5 375 374 373.1 374.6 376 377 380.1 384.5 391.5 395.9 397.7 398.2 394.5 388.3 383.2 376 368.4 361.1 355.5 350.1 351.1 354.4 356.4 357.3 355.7 353.1 346.6 336.8 328.6 319.9 308.3 295.9 290.1 280.8 270.2 264.5 257.4 249.3 248.3 260.5 272.5 278.1 286.1 301.2 312.3 322.8 335.1 351.6 366.3 380.3 378.5 365.1 364.7 367.6 369.9 370.8 371.3 367.6 362.9 358.6 354.8 352 348.2 344 341.4 331.1 318 309.7 303.9 295.6 282.6 278 272.3 268.1 265.1 264.1 260.6 259.1 258 256.9 256.3 257.3 254.9 252.6 255.9 270.4 283.3 293.1 302.2 311 316.1 316 307.8 287.1 273.7 262.9 251.3 239.9 235.1 232.3 231.9 244 256.7 269.2 281.9 291.3 300.2 307.9 313.7 322.4 329.8 334.5 338.7 342.5 351 358.1 356.4 348.5 341 332.3 322.6 313.3 303.3 293.1 284.4 276.1 268.7 261.8 256.2 251.4 249.5 247.2 242.6 236.5 230.6 222.7 218.8 218.4 216.6 215.5 233.2 260.6 275.8 287.7 298.8 306.6 313.9 320.5 321.3 319.9 316.7 311.9 306.1 299.8 291.3 286.6 283.6 280.7 275.9 270.2 262.2 254.7 248.1 243.3 234.1
314.1 312.6 305.1 298.8 302.7 319.4 334.2 344.1 352.6 357.6 360.3 359.2 357.8 355.7 352.7 342.8 335.7 328.2 331.8 330.3 343 348.4 350.9 355.3 361.3 370.5 377.3 381.2 383.2 380.9 378.9 375.8 374.2 369.8 367.4 364.6 364.4 364.4 365.1 367 370.5 375.4 382.4 389.4 395.1 397.2 396.8 392.8 386.8 379.8 374.2 367.5 360.9 358.8 357.7 359.3 361.7 362.6 361.4 358.1 352.6 344.5 334.3 325.2 314.9 305.8 296.3 287.3 277.8 271.8 265.4 256.6 255.6 247.3 251.6 260.2 272.7 286.3 302 315.9 326.9 337.7 353.8 364.4 363.6 352.5 349.3 353.1 362.3 366.7 368.5 370.4 367.4 364.1 361.3 359.2 357.4 353.9 349 343.9 336.2 330.8 321.6 310.8 303.1 297.5 293.9 289.3 284.8 279.2 273.5 272.7 266.2 262.9 260.1 257.5 256.2 254.7 260.5 270.5 282.7 294.9 304.8 315.5 322.8 328.1 327.8 316.2 288.3 269.9 257.1 245.8 239.2 233.9 232.2 230.5 237.1 250 262.2 274.7 283.2 291.5 300.8 307.3 313.3 318.4 323.7 328.8 335 346.7 354.5 352.8 345.1 337.9 330.5 322.8 315.1 305.4 294.9 284.6 275.4 267.6 260.7 254.1 249.2 246.7 245.3 242.9 238.2 231.2 223 218.6 216.1 214.5 219 238.2 265.8 279.6 297.5 306.3 312.8 318.3 324.1 325.6 322.7 318.2 312.1 305.9 299.3 292.8 287.6 283.2 277.7 273.2 268.2 262 254.5 246.9 244 247.4
312.4 308.6 304.5 300.4 297.4 307.5 320.3 331.2 341.1 349.5 352.2 351.7 351.5 348.9 346.3 341.5 331 327.5 318.4 334.8 340.3 343.8 345.7 349.3 360.2 367.6 372.6 376.5 377.2 374.8 371 364.6 363.6 359.6 357 355.8 355.8 356.4 359.1 362.3 366.1 375.3 387.3 393.2 397.1 399.3 398.4 394.6 387.7 381.8 376.5 371.6 368.5 364.8 365.9 368.2 369.6 368 364.6 358.6 352.5 341 329.9 317.9 311.8 305.3 298.2 288.1 280.8 270.4 269.8 264.6 262.7 246.7 245.8 254.3 263.6 281 298.3 313.6 324.9 339.7 352.9 353.2 341.4 336.6 337.6 343.8 359.3 365.4 368 370.6 369.2 367.2 365.7 363.2 361.3 357.9 354 350.6 347.8 345.9 340.2 329.9 318.6 308.9 302.7 298.5 295.5 292.1 286.3 283.3 278.8 274.8 270.8 269.1 267.1 261.2 267.7 278.4 290 300.6 314.7 327.4 337.1 343.3 343.7 330 293.3 271.7 255.8 244.4 237.4 233.4 231.7 229.9 231.8 242.4 254.7 265.9 273.7 280.8 289.4 293.5 294.6 296.6 305.2 318.3 326.5 338.6 349.8 349.6 343.6 338 331.3 324.6 317 306.7 295 284.1 275.2 267.2 260.6 253.6 247.5 242.5 240.6 238.7 235.5 232.1 225.5 217.8 214.4 214.8 230.4 251.5 263.1 275.3 294.8 304.6 310.2 315.3 320.7 324.3 320.3 313.9 308.1 303.5 296.9 290.3 285.4 281.1 277.1 271.9 266.7 258.4 251.8 250.1 250.3 253
314.9 310.5 306.8 301.6 296 295.7 308.1 316.8 329 338.2 342.6 342 342.7 341.6 340.1 337.8 326.9 319.9 319 332.4 336.3 339 342 346.8 356.7 363.1 367.9 369.3 367.2 364.8 361 355.6 353.1 350 349.3 349.2 349.7 351.6 354.9 358.7 367.7 381.8 390.5 396 399.9 401.5 400.4 397 390.7 385.4 380.7 377.6 375 374.2 376.3 377.7 376.7 373.6 368.1 361.8 354.4 343.3 330.8 320.9 313.8 306.8 300.6 288.7 281.8 278.1 275.7 268.8 264.5 253 245.1 245.7 253.8 272.2 290.7 308 322.9 338.4 342.3 334.2 328.5 325.5 329.9 341.2 360.6 366.6 368.2 372.1 371 369.6 368.5 366.9 365 363 361 360 360.3 360.6 357.5 349.7 340 325.3 319.1 309.5 308.4 301.6 295.3 294 290.6 286.7 284 278.8 275 265.8 277 284.9 293.7 309.7 324.4 337.6 347.5 353.9 356 339.3 302.1 276.5 258.1 246.9 239.2 233.7 231.1 229.5 229.6 235.5 245.6 255.2 263.6 269.1 276.8 277.3 278.6 285.5 299.1 310.2 319.6 327.1 341.2 345.5 342.2 337.6 330.7 323.8 316.7 307 295.5 286.1 278.1 271.5 263.7 255.8 248.5 243.3 237.9 233.2 230 226.8 222.4 215.4 213.1 219.3 237.1 247.8 261.4 267.1 284.7 298.8 304.7 310.4 316.7 319 313.8 307.9 302.1 298 293.4 288.8 284.3 279.9 277.8 271.5 266.1 258.4 258.3 257 256 257.8
317.3 311.7 309.6 307.2 303.9 294.9 294.3 303.8 314.2 321.9 333.2 334.5 335.2 334.1 332.2 330.8 321.1 310.6 317.3 327.3 332.1 332.9 338.3 343.4 352 358.4 362.4 361.2 358.4 355.5 351.6 345.6 342.9 341.8 341.9 342.9 345.2 348.2 352.5 359.3 370.4 383 391.6 398.3 401.6 402.9 402.8 400.2 394.3 389.5 386.6 384.8 382.4 384.2 385.4 385 382.4 377.2 370.8 364.9 357 346.5 334.3 323.4 316.1 309.9 302.9 286.6 290.4 285.7 279.2 272.1 265.1 257.8 245.8 243.8 246 263.2 279.9 301.7 319.2 327.6 326.3 317.6 317.3 319.2 327 344 361.2 364.6 365.2 368.4 368.6 368.8 369.1 368.7 368.4 368 367.5 366.6 366.9 366 362.7 356.5 348.7 340.1 331.5 321.7 315.3 307.6 302.3 300 296.6 292.6 287.2 278.6 272.6 280 285.8 291.8 298.4 310.8 326.1 340.9 350.8 357.5 361.2 348.1 310.7 283.7 263.3 251.6 242.7 235.8 231.1 229.3 227.9 230.1 236.9 244.6 252 258.6 263.8 266.5 271.2 281 293.2 302.1 310.9 318.4 330.7 340.3 339.7 337.2 330.1 323 316.9 309 300.5 291.2 281.7 271.1 263.5 258.1 251.4 244.3 237.3 231.3 226.1 220.2 219 214.5 212.7 218.9 230.8 241.9 254.3 263.2 272.7 288.3 297.8 304.9 311.6 311.6 305.3 297.2 292.9 292.7 290.5 287.4 282.4 279.1 275.9 272.5 268.6 266.8 264.1 262.6 262.3 264.3
321.1 315.6 314.1 311.6 308.6 304.6 296.8 292.2 301.3 304.8 313.4 317.2 322.4 326.4 325.3 323.9 310 301.9 316.5 320.6 327.7 324.4 333.2 338.6 345.4 350.6 352.8 352 349.4 344.5 339.1 334.4 333.7 335 336.5 338.8 341.7 347.1 354.5 364.4 375 384.6 395.1 399.7 402.8 405.1 405.7 403 398 395.1 392.1 390.5 390.2 391.9 392.1 391.2 387.6 382 375.2 366.9 358 347.9 334.3 326.2 319.4 314 302.6 304.9 301.3 295.8 286.3 273.6 264.3 256.8 249.9 242.5 242.9 250.6 267.2 286 301.2 310 310.3 303.5 304.7 313.4 326.2 347 359.8 360.3 361.5 363.8 365.6 366.5 368.6 370.4 372.2 372 371.8 371.3 371.3 370.1 366.4 358.8 350.1 340 327.7 321.1 317.9 314.5 311.5 306.7 299.8 289.6 281.2 282 286.6 291.8 296.3 302.2 308.5 315.2 326 339.9 351.7 357.8 360.9 355.8 322 293.3 272.8 260.3 252.2 244.6 239.7 232.3 227.6 227.1 230.7 238.2 245.2 249.8 253.9 258.1 264 274.5 281.3 290.7 303 311.2 321.2 335.1 335.6 334.5 329 323.1 316.3 309.7 303.2 293 280.3 269.2 262.5 257.1 251 243.9 236.2 229.8 223.7 217 215.1 215.1 211.8 216.4 227.1 238.5 248.2 259.4 265.8 276.5 292.5 299 302.6 301.3 293.5 287.6 286.7 287.6 285.8 283.6 283.5 282.5 282.9 282.9 278.1 272.9 270.1 269.2 268.7 268.8
326.4 321.4 318.2 315.2 312.1 308.6 305 298.5 291.2 292.2 291.1 294.4 308.2 310.5 312.7 312.6 303.7 304.6 310.2 315.8 323 320.5 325.4 332.3 337.1 341.3 342 341.8 337.6 333.2 331.8 329 327.1 330.3 332.5 335.4 341.9 348.9 361.2 372.1 378.7 386.1 394.3 399.5 403.1 405.4 405.2 404.4 403.4 401.1 398.3 396.8 397.4 398.5 397.6 395.7 391.9 385.6 377.2 368 358.2 348.3 335.9 328.7 321.8 306.6 310.1 313.8 309.3 302.7 294.5 278.7 266.7 257.8 252 244.2 241.7 242.1 252.2 266.9 282.5 290.5 293.3 292.1 296.3 304.6 326.9 345.4 353.2 354.3 356.7 358.8 361.3 364.1 369.2 372.7 374.9 375.7 374.6 374.2 373.8 372.4 366.9 358.1 346.9 334.7 330.4 327.7 327.6 323.6 317.2 306.6 295.5 286.6 289.8 298 305.2 313.1 319.3 322.1 324.7 331.2 336.3 341.8 350.5 357.3 361.1 357.7 337.2 302.5 282.3 270.3 262.4 255.1 248.6 245.4 238.6 226.3 224.7 232.2 239.2 243.3 246.8 250.7 254.6 262.6 267.9 280 293.1 302.3 312.2 327.6 331 330.1 325.9 319 312.8 306.7 300.2 292.1 280.6 268.6 261.4 256.2 248.8 241.8 235.1 227.9 221.6 216.1 212.4 212.5 211.4 213.1 224.3 234.6 244.5 256.5 263.3 268.8 283.8 290 292 288.2 281.1 281.3 283.6 285.3 285 286.9 288.1 288.9 294 292.1 286.5 282.3 276.7 273.8 271.2 269.7
334.3 327.7 322.9 318.1 314.8 311.1 308 306 302.2 299.9 300.5 294.7 284.3 290.6 291.9 299.3 301 292.8 303.9 311.2 316 316.4 314.6 324.1 327.5 330.8 332.9 331.3 325.4 327.9 328 325 321.6 325.6 331.7 337.7 348.6 360.5 370.9 376.2 382.3 388.7 395.2 401.9 404.8 406.1 406.4 406.8 407.3 405.3 402.7 402.8 403.6 403.2 401.8 397.9 393.1 386.4 377.5 367.4 359 347.8 336.9 330.6 322.2 316.9 320.8 318.9 313.4 306.9 298.7 285.2 270.7 260.4 254.8 249.7 242.9 240.2 241.6 248.3 264.3 277.2 278.7 281.4 289.3 304.5 327.7 341 345.4 347.7 351.5 353.6 357.1 361.6 369.3 374.3 376.7 377.2 375.6 375 374.1 371.8 366.2 356.4 347.1 339.1 337.1 336.1 331.7 324.7 314.5 300.3 295.2 295.8 303.1 315.1 329.4 338.8 347.3 349.2 347.3 350.9 352.2 351.5 352.5 355.6 359.4 357.9 343.4 306.2 283.4 271.8 264.3 257.1 249.3 244.5 241.1 233.6 225.1 225.1 230.3 235.4 239.1 242.4 247.1 253 259.7 268.9 279.2 291.9 301.3 314.8 322.9 326.5 323 316.9 309.3 302.8 296.1 288.7 279.8 267.3 260.1 253.4 245.9 238.6 232.1 225.8 220.2 214.9 212 211.3 210.2 212.6 222.1 232 245.9 257 262.1 262.9 269.5 276.5 278.9 273.5 275.5 278.5 281.6 284.9 289.2 292.7 295.2 301.7 302.4 298.9 293.6 287.5 281.3 276.9 273.7 271.4
341.1 334.1 327.5 321.4 317.1 311.7 308.1 306.2 303.7 303.3 302.5 300.1 293.8 293.3 281.8 282.5 286.9 286.7 297.6 304.3 309 308.6 304.1 314.5 318.4 321.8 324.7 318.4 319.6 322.3 323.6 320.8 322.7 329.6 338.3 351.2 362.4 369.7 375.2 379.8 385.7 391.8 400.5 405.9 407.8 409 409.3 409.8 410.5 407.8 406.1 406.4 406.9 405.5 403.1 398.7 392.7 385 377 367.1 356.3 346.6 337.1 330.1 327 328.2 326.6 324.8 319.2 312.8 303.2 290.8 274.8 264.4 257.8 252.7 250.9 242.8 239.3 239.8 243.8 260.2 265 273.3 285.7 307.1 326.8 332.8 337.6 340.5 344 348.2 353.5 358.4 366.2 371.3 374.4 375.5 374.8 374.4 373.2 370.2 364.7 356.3 349.2 344.2 340.4 335.6 330.1 320.6 308.9 302.4 299.5 306.6 316.5 328.7 343.8 355.9 362.1 363.8 360.9 359.7 355.9 352.2 351.4 352.7 353.7 355.6 349.8 312.9 285.3 271.4 264.6 258.5 251.1 243.5 237.7 233.5 227.8 222.7 222.1 227.7 231.9 234.7 239.9 244.4 249.4 256.3 266.2 279.1 289.7 298.5 311.1 320.7 319.4 316.1 312.3 304.3 296.4 287 275.5 266.5 258.7 250.4 242.9 236.7 228.9 223.5 218.9 214.5 212.4 210.2 210 211 219.1 231.1 247.4 256 259.8 260.1 260.9 263.3 263.3 263.1 266.5 274.6 279.4 284.4 294.2 303.4 310.4 309.7 306.5 300 293.1 287.2 281.3 276.6 274 269.5
347.7 338.2 330.1 323.8 317.6 314.4 311.1 308 305.7 303.9 302.6 301.2 299.9 298 295.1 286.6 282.2 283.1 287.5 293.6 298 297.4 294.6 305 309.1 313 314.3 307.9 311.7 314.5 317.6 318.3 328.9 340.9 351 359.5 366.9 375.3 379.8 385.1 391 399.7 406.7 409.6 410.6 411.1 411.1 411.6 411.6 409.6 408.2 408.2 407.7 405.1 401.6 397.2 389.8 382.7 374.2 365.8 354.8 345.2 338.3 333.1 333.1 333.3 333 331.2 326.5 319.9 309.6 297.2 282.2 270.3 261.8 257.3 253.8 250.9 238.9 237.6 238.1 245.2 252.5 267.8 284.9 306.3 317.8 323.6 326.8 330.5 333.3 341.1 347.6 353.6 361.6 367 370.8 372.3 372.2 371.9 370.4 367.1 362.1 355.7 348.4 342.5 337.7 331.9 325.9 316.8 308.8 310.7 317.4 325.6 330.6 343.1 354.3 365.2 369.3 368.4 363.2 356.7 349.2 343.4 342.2 345.3 345.2 346.5 345.3 320.9 286.8 271.4 264.9 259 250.9 245 239.7 234 229.6 225.2 222.8 221 226.5 228.7 232.6 236.7 240.7 247.4 256.2 266.6 278.8 286.6 294 306.1 313.9 312.2 310.7 302.7 293.6 286.5 276.2 265.3 258.3 249.7 242.2 236.1 228.7 223.7 220.8 215.3 210.1 209.1 209.6 210.2 216.9 230.8 244.6 251.7 254.9 257 258.7 256.6 255.6 256.9 260.4 267.1 280.8 297.8 306.3 313.2 312 310.2 304.7 297.5 288.7 281.1 275.2 271.4 268.8 266.1
355.5 345.2 334.5 327.4 321.7 316.6 313 310.1 307.8 305.6 304.3 302.8 301 299 295.2 289.3 280.3 279.8 279 282.6 286.3 287 284.8 294.2 298.4 303.7 304.9 299.9 303.8 309.3 301.7 327.1 339.2 348.2 355.7 364.4 373.5 381.6 385.5 392.2 397.7 404 407.7 410.7 411.7 411.5 411.9 411.6 410.8 407.9 406 406.9 407.4 404 399.4 393.9 388.2 380.9 374.1 363.9 356.1 346.7 341.6 337.7 338.7 339.1 338.8 339.4 336.8 329.6 319.5 307.6 293.8 279.8 267.8 261 255.2 251.7 247.4 241.5 237.4 236.9 244.1 261.5 276.4 298 308.9 314.8 318.2 321.4 325.3 328.9 338.4 347.5 354.2 360 366.1 367.4 368.1 367.1 364.9 361.9 358 352 343.8 336.2 330.4 323.7 319.2 314.5 317.1 324.4 333.4 341 346.3 349.2 357.2 366.3 371.1 367 361.5 352.2 341.8 334.4 333.1 334.6 336.1 336.9 336.3 322.8 286.6 270.8 264.8 259.9 252.6 247.7 241.5 235 230.2 226.8 223.6 220.9 221.2 223.8 226.1 229.1 233.7 238.8 248 254.3 265.2 275.4 282.6 291.3 303.2 307.3 306 301.3 293.7 288 276.6 264.6 258.8 250.6 242.9 237.3 231.8 227.6 222.9 215 210.6 208 208.7 209.5 215.2 227.1 236.1 241 245.3 248.2 252.6 252.2 250.5 253.3 258.6 267.1 288.5 302.7 308.7 311.6 308.1 303.3 297.3 289.7 281.6 274.2 266.6 263.3 261.7 261.7
366.1 353.2 345.2 335.5 326.4 321.1 316.3 313.4 310.8 308.7 307.4 305.6 303.9 303 301.2 297.1 290.5 280.1 277.2 276.3 275.7 276.5 273.9 276.9 285 292.8 292.7 290.1 297.3 289.5 317.1 332.2 342.1 352.1 360.1 370.9 378.2 384.1 389 396.7 400.7 404.7 406.6 411.1 411.6 410.6 409.4 408.1 405.8 402.9 401.8 403.5 404.3 402.7 397.6 392.5 387.7 382.2 375.6 367.4 359.7 352.8 345.9 343.3 342.6 344.2 344.6 347.5 349.6 343.9 334 320.3 305.4 292.4 278.3 266 258.1 252.3 247.3 245.9 239.5 235.2 239.5 254.7 264.2 280.5 291.6 299.1 305.6 309.5 316 320.4 328.2 338.2 345.7 351.9 358.5 360.1 361 360.8 358.1 354.5 350.6 344.2 333.6 326.8 321 315.7 315.5 319.7 327.5 336.2 345.1 353 358.5 356.9 358.9 365.1 368.9 363.2 358.2 350.7 337.9 328 325 326.4 326.2 327.2 326.1 321.8 284.3 268.1 262.3 257.4 252.4 247.5 243.6 240.4 237.2 234.1 228.8 222.8 219.5 217.8 220 222.3 226.3 230.8 238 245.9 254 262 272.8 283.3 293.5 299.5 299.7 298.2 293.6 289.9 280.5 265.6 260.2 253.4 246.7 241.8 235.7 230.4 225.5 217.4 210.6 207.3 208 209 212.6 220.3 226.7 231.7 236.2 240.2 244.4 244.3 246.8 252.3 258.5 272.5 295.3 302.9 306.1 307.3 301.5 293.9 287.9 281.1 274.2 266.5 257.4 251.8 249.8 251
374.9 367.4 355.3 345.3 334.2 328.3 323.4 319.5 316.3 313.7 311.8 309.8 307.7 306.8 306 300.3 294.1 289.2 283.2 279 274.4 273.2 272.1 269 268.8 272.7 278.2 280.5 291.2 288.2 318.3 328.7 340 352.1 361.3 371.3 377.4 383 387.8 393.1 398.5 401.4 405.2 408.4 408.5 406.6 404.8 403.4 401.4 397.8 396.8 397.8 400.5 400.8 396.5 392.9 389.2 384.9 378.4 372 365.5 359 353.5 349.6 348.9 348.8 352.9 359 362.4 358.9 348.8 335.2 316 305.4 292.2 278.2 265.6 255.1 247.8 244.3 240.1 233.6 234.3 249.5 258.7 266.6 268.2 279.3 292.5 298.1 301.1 312 321.7 330.9 336.8 345.2 349.8 351.2 352.2 352.1 348.8 344.2 338.1 328.6 319.7 314.9 310.6 309.2 317.6 327 335.4 343.6 353.1 361 364.3 363 358.9 361.4 363.3 359.3 353.5 344.8 331.8 322.5 316.7 316.8 315.9 317.4 316.4 315 282.8 266.1 260.7 256.8 255 254.6 253.2 250.9 247.4 242.2 234.9 229.3 222.9 219.4 217.5 216.1 219.2 223.8 229.7 236.5 244.7 253.4 263.1 272 280.3 286.3 292.5 294.4 293.7 290.7 288 272.5 262.7 257.3 251.9 247 239.9 232.3 226.5 218 210.9 206.8 207.3 208.4 209.1 215.2 221 225.6 229 231.3 234 240.5 245.9 252.3 258.1 276.8 294.5 298.8 301.3 300.5 294 285.5 277.2 271.2 264 252.6 244.6 244 240.6 237.9
384.7 377.5 370.3 360.6 350.2 343.7 336.4 331.9 327.2 323.9 320 316.5 312.9 310.5 307.7 303.4 298.1 294.1 288.8 287.8 282.3 280.2 279.6 279.6 275.3 268.3 265.9 266.3 272.8 283.6 310.4 324.5 338.4 353.7 362 372.5 377.8 384.4 388.3 390.7 393.9 395.5 398.4 402.7 403 400.5 400.2 398.3 395.4 393.1 391 391 395.7 397.1 395 393.6 390.8 387.1 382.5 377.3 372.4 366.8 362.9 359.1 358 360.7 364.3 369.2 373 371.9 364.3 351.8 337.8 320.5 305.2 291.8 277 262.3 251.2 245.6 240.3 235.1 233.4 242.4 253.9 259.4 260.8 278.3 282.1 285.8 295.3 306.4 318.8 322.2 327.3 336.8 341.8 343.5 343.3 343.5 339.7 333.4 325.2 315.4 307.8 305.5 302.3 303.1 319.7 331.4 340.6 351 360.2 365.6 363.1 361 358.5 357.3 357.4 353.6 348.3 336.1 323.7 315.5 310.5 308.8 305.4 303.9 304.8 303 280 265.9 262 260.2 261.6 265 264.1 259.1 254.9 249.4 241.9 234.4 227.8 223.6 219.7 217 215.3 215.6 222.4 228.7 235.6 245.5 254.9 261.2 268.4 277.5 286.2 291.3 292.1 292.7 294 280.4 269.5 261.1 255.4 248.7 241.2 234.3 227 218.4 210.7 205.5 206.8 207.8 208 210.7 215.4 220 222.6 224.6 230.8 238.1 242.6 250.5 257.3 278.2 289.9 293 293.4 291.9 282.6 272.4 262.9 255.1 247.5 242.9 244.7 246.7 249.4 252.5
400.1 395.1 387.8 380.4 372.7 366.1 359.3 355.6 348.9 340.1 332.3 326.9 320.3 316.2 312.1 307.7 302.7 297.9 295.8 292.3 288.6 287.2 283.6 282 281.2 279.6 281.2 271.8 266.3 285.7 303.6 319.1 332.2 348.1 361.7 370.3 378.5 381.9 384 386.6 388.2 389.8 390.8 394.1 395.8 395.1 395.1 392.6 390.1 386.4 384 384.1 388.9 391.1 392.3 392.5 390.8 388.9 385.4 381.9 378 374.8 372.3 369.5 368 369.4 372.7 376.3 379.7 380.7 377.3 367.7 356.3 337.3 321.9 307.1 291.7 272 256.6 249.1 242.7 234 233.2 241 247.1 252.3 256.8 265.7 270.7 280 290.3 306 317.8 317 317 325.3 334.4 337.6 338.7 335.8 330.3 321.6 312.8 305.6 299.9 296.3 294.7 302.1 319.2 333.1 345.5 358.9 363.3 365 359.6 355.4 353.4 350.6 350.2 347.4 339.6 326.5 315.5 307.9 303.6 300.6 297.3 294.4 295.2 292.9 277 265 261.1 261.1 264.5 269.5 271.3 268.1 262.5 257 249.5 240.4 232.7 228.5 225.6 220.7 217 214 215.3 222.3 227.9 237.7 246.5 253.3 261.4 271.6 282.4 290.5 292.2 293 291 281.6 272.2 262.8 256 248.8 242.6 234.1 223.4 214.3 209.5 205.4 205.9 207 207.4 208.1 211 214.3 217.6 221.2 227.2 234.2 241.5 253.3 257.4 279.8 284.8 284.4 282 274.9 267.2 258.6 252.2 247.2 242.2 245.2 248.7 254.5 259.5 262.7
410.4 405.5 401.2 395.4 390.7 384.8 380.2 374.5 367.6 359.4 350.4 340.9 333.3 328.4 322.9 314.1 309.6 304.2 301.1 297.8 295 292.2 286.1 281.2 279.7 280.2 279.9 272.9 264.9 270.3 292.5 311.1 326.2 342.9 358.4 367.6 374.8 375.2 376.3 378 378.3 380.9 382.6 386.3 390.3 390 388.5 386.5 383.7 378.9 377 375.5 378.2 382.4 387.3 389.1 389.6 389.5 388.3 385.6 383.2 380.7 378.1 375.7 374.2 374.7 376.3 379.3 383.9 387 384.5 379.8 372.5 359.1 337.7 323.3 305.5 282.7 261.1 250.8 243.5 237.3 232.4 236.6 241.8 246.7 251.5 258.6 268.6 278.9 291 307.1 312.8 312.7 309.5 311.5 325.4 331.1 332.9 329.9 324.1 317 308.7 301.3 294.5 287.6 286.4 297 316.1 332.5 345.7 354 354.3 358 359.1 351.5 348.3 344.2 340.4 337.9 330.4 316.6 307 300.1 294.5 292.5 288.2 284.8 285.1 284.1 271.3 261.1 257.8 259.5 263.5 269.5 277.4 276.4 272.6 265.2 256.9 248 238.5 230.9 227.3 223.4 218.2 215.7 212.5 214.2 221.3 229.2 238.4 244.8 252.9 263.1 278.2 288.1 292.4 293.3 289.3 282 273.1 263.7 256.3 248.9 241.7 231.3 220.9 214.1 209 205.8 205.2 206 206.7 207.3 208.9 211.8 216.5 222.1 228.3 236.4 245.8 254.9 255.3 273.1 275.4 274.4 268.3 259.7 253.4 249.2 244.8 242.2 244.9 249.2 254.6 259.6 264.2 268.1
417 413.2 409.4 405.4 401.2 396.7 392 386.5 379.8 373.6 367.4 358.2 346.2 337.8 331 324.5 317.2 311.3 307.9 304 300.1 295.3 287.8 281.5 278.5 277 275.8 267.7 264.4 263.1 284.5 303.2 318.4 337.6 354 362.5 365.7 367.3 369.2 369.6 368.5 369 372.9 378.2 383.2 384.6 382.7 380.3 376.4 372 371 371 370.1 375.2 382.6 385.7 387.2 388.9 389 387.7 386 383.3 378.9 375.8 372.2 371.6 373.3 377.6 384.6 388.2 387.1 385.2 383.1 378.5 365.3 337.1 319.4 295.9 271.1 253.6 245.6 239 230.5 232.6 237.7 243.5 248.3 255.9 267.1 280.2 292.5 305.6 308.8 308.9 304.7 300.3 309.3 321 326.1 323.1 321.3 314.2 306 298.4 290.6 276.9 275.9 290 310 324 331.2 333.3 338.2 348.7 354.1 346.7 339.7 335.7 331.9 328.5 320.5 306.6 297.1 289.8 282.6 281.4 275.9 275.3 273.3 273.1 262.2 255.8 254.1 256.6 260.9 269.7 282 282.8 279 271.4 260.1 248.7 237 230.1 226.7 223.6 217.9 215.3 212.7 212.1 217.8 224 232.1 241.4 250.5 261.6 273.6 290.1 299 297.9 291.9 283.5 274 265.8 258.9 251.2 241.1 231 220.8 213.8 209.3 205 204.6 205.1 206.1 206.5 207.7 212.7 217.7 224.3 231.2 239.1 248.7 255.7 253 254.4 254.7 252.6 250.7 248.2 246.8 242.6 242.6 244.5 249.9 251.4 257.1 262.8 269 272.7
421.1 418.1 414.6 410.4 406.5 403.4 398.4 392.9 387 381 375.1 368.9 361.7 352.8 340.7 332.4 327 320.6 314.3 310.2 303.8 296.9 288 281.5 278.6 276.1 276.3 271.7 264.6 262.7 272.1 291.2 310.4 331.5 346.8 355 357.4 359.8 360.9 361 359 359.8 362.7 370.8 376.3 376.8 374.5 372.9 368.9 365.6 364.9 364.9 365.4 369.1 376.6 378.6 381.5 385.5 388.1 387.4 384.1 379.5 373.9 369.2 366.6 365.4 367 373.2 380.9 384.6 385.7 385.3 387.2 384.3 376.8 352.1 330 305.3 279.3 257.8 248.7 242.3 229.2 230 233.7 240.1 244.7 250.9 263.5 280.6 294.6 305.6 311.1 307.4 301.2 290.8 291.2 299.5 302 302.1 303.1 301 297 291.1 285.2 278.7 265.7 279.1 299.3 308.5 309.8 311.3 319.8 338.7 353.1 345.7 337.4 329.7 323.2 318.7 306.5 294.2 285.5 279.3 273.4 270.1 268 266.9 264.9 262.5 252.7 249.8 248 249.9 254.5 270.1 281.4 285.6 281.8 275.4 264.7 248.2 235.7 228.5 224.1 220.6 217.2 215 212.6 210.3 216.8 221.1 227.8 236.4 246 257.5 269.4 286.6 297.7 297.4 292.4 286 277.6 268.7 261 254 242.7 227.3 218.4 213.5 209.2 206.1 203.2 204.4 204.8 205.4 206.8 211.7 219.5 228.5 237.6 247.5 252.3 253.7 254.1 249.6 248.5 247.7 246.2 243.9 242.6 242.6 243.6 247.9 250.9 251.9 257.1 265 272 277
423.2 420.9 417.6 414 410 405.9 401.8 397.5 391.8 386.2 380 373.7 368.1 360.7 349.8 342.5 337.1 329.4 322.8 314.9 305.5 296.3 287.7 282.3 279.8 279.4 277.6 276 268.1 261.6 259.7 280.4 304.1 324.4 338.9 345.7 348.3 351.1 350.6 349.7 350.1 350.1 352.7 362 368.1 370.3 366.9 365.3 362.4 359.6 357.9 358.6 360 363.4 368.7 371.7 376.5 382.1 383.9 383 378.5 373.1 367.2 361.8 357.9 357 359.3 365.9 373.4 374.9 377.3 381.1 384.4 386.7 383 361.9 344.9 317.9 286.7 265.4 254.4 245.9 236.9 229.2 231 236 240.2 246.5 256.7 278.4 294.2 308.3 310.7 308.7 302.2 290.8 280.7 278.2 278.8 279.6 280.8 280.5 281.1 276.8 274.6 271.2 263.4 270.4 285.7 289.2 294.7 303.8 316.9 336.7 347.8 341.1 337.8 333.5 318.6 300.9 290.8 283 276.3 271.9 268.1 265.4 260.9 259.1 256.8 253.2 244.9 242.5 241.5 243.7 249.1 263.7 275.6 284.1 284.6 278.4 269.4 252.4 236.6 227.9 223.6 219.7 216.6 214.7 212.1 209.2 214.3 218.9 225.6 233.8 244.8 256.5 270.2 286.5 295.1 297.8 295.8 288.4 278.9 270.8 264.7 255.3 242.6 230.5 223.3 215.2 210.2 206.4 203.5 203 203.8 204.6 205.8 211.9 220.6 230.4 243.6 253 258.3 258.4 250.9 245.2 244.3 246.8 248.2 247.4 245.7 245.7 245.8 248.1 248.3 249.7 256.1 266.8 275.1 282
426.4 424.4 422 418 414.3 410.2 406.3 401.6 396.3 390.9 385.6 378.2 372 363.6 356.5 351.6 345.8 337.6 328.6 318.9 310.2 298.2 288 284.3 283.1 279.8 277.2 274.9 273.4 265.8 260.1 272 299.2 317.5 331.6 338.1 340.9 342.8 343.6 343.1 340.2 343.4 344.7 351.1 361.4 362.8 360.4 359 357.2 353.9 351.2 351.5 354.3 356.7 362.2 367.4 373.1 377.2 379 377 372.4 366.5 359.9 352.8 351 350.7 351.3 355.6 361 363.7 367.5 374 379.9 385.8 382.3 365.1 343.6 320.3 290.6 271.3 260.4 247.3 238.3 228.3 228.9 230.9 236.6 242.4 254.1 279.4 295.6 305.9 310.7 312.8 308 297.6 284.4 273.3 266 263 263.1 264.8 265.5 265.2 264.8 263.4 257.9 264.9 273.1 280.2 288.4 302.1 325.3 339.1 339.3 335.2 331.1 327 307.9 291.3 282.9 277.6 272.2 268 264.9 261.4 257.4 252.5 247.3 244.6 240.7 237.5 236 238.1 241.2 253.2 266.5 277.9 284.5 281.9 275 255 238 228.3 223.6 217.9 216 214.3 211.7 208.2 213.1 217.3 222.2 233.7 248.5 263.7 280.3 290.3 293.7 297.1 297 290.4 280.4 274.3 270.5 263.1 250.3 239 231.2 219.6 212.3 207.3 204.1 202.5 203.1 204.1 204.8 209.6 217.9 229.1 243.1 251.4 250.1 245.4 241.3 238.2 237.3 240.8 243.7 245.9 246.3 249.8 248.4 247.5 247.8 249.1 258.7 271.6 281.8 285
428.4 426.3 424.2 421.2 418.2 414.4 409.9 405 399.5 394.2 388.3 381.5 374.3 368.4 363.2 358.4 352.2 344.4 334.8 324.5 314.2 300.4 291.5 288.5 284 280.2 277.4 274.9 272.3 267 260.3 264.3 290 309.2 322.5 330.6 332.7 335.2 335.6 331.7 327.1 336.6 339.7 344.7 355.8 355.7 354.4 353 350.8 347.5 344.4 345.9 347.2 350.8 356.2 360.5 368.4 371.9 371.7 369.1 364.3 358.3 350 346.3 345.6 345.8 345.9 347.6 351.5 354 357.9 365.1 373.2 381.4 371.9 357.5 339.2 315.8 288.1 274.8 264.6 251.5 242.8 234.3 227.3 228.1 232.7 237.3 248.1 271.4 289.6 302.7 311.7 316.9 313.5 305.9 293.4 281.4 270.2 260.4 255.4 252.2 251.6 252.8 254.8 254.7 250.7 260.4 268.4 276.5 289.9 312.3 330.5 332.8 331.7 328.7 323.6 320.8 298.5 286 278.8 272.1 268.8 265.2 262.5 260.1 258.4 256.1 250.9 246.9 242.7 233.6 232 232.8 235.2 243.7 257.3 269.4 277.4 275.9 266.1 249.2 233.9 226.2 221.2 216.6 215 213.7 211.3 207.1 210.5 215.4 222 235.3 252.4 271.8 278.2 282.9 287.4 294.3 295.6 290.7 282.6 278.1 275.4 267.7 257.7 246.6 240.5 225.2 215.1 209.3 204.9 202.2 201.5 203.2 203.8 206.8 214 224.8 237.3 246.8 238.8 231.6 232 232.7 233.3 235.1 237.9 240 241.9 244.3 247 248.8 247.9 250.2 257.2 269.4 276.7 283.6
429 427.5 425.2 422.6 419.7 415.8 411.4 407.8 402.3 396.7 390 384.6 378.4 373.4 368.3 363.5 358.5 352 342.6 332.3 318.6 305.2 296 290.6 284.7 280.6 277.2 274.1 271.9 269.4 260.2 257.8 277.1 299.4 309.4 317.8 320.7 325.1 322.1 319.3 321.7 331.9 335.7 340.7 351.5 351.5 349.5 347.9 345.1 341.9 339 338.8 339.6 342.9 346.6 354.9 362.5 365.4 364.3 360.9 355.8 349.8 342.4 340.8 341 341 340.9 340.9 342.5 343.2 348 355.9 364.4 367.6 356.6 344 329.7 312.2 288.3 277.1 270.3 259.4 249.1 237.8 227.3 226.2 230.1 234.2 241.5 262.3 281.9 299.5 311.9 319.4 319 312.8 302.4 289.3 275.9 266.3 260.8 257.8 248.4 244.2 244.3 244.7 244.8 257.1 268.8 279.5 296 313.2 322.3 323.9 323.8 321 316.5 305.8 285.4 278.2 272.3 266 262.1 259.3 257.1 256 256.3 254.2 250 245.2 241.4 231 229.4 229.5 230.5 236.2 249.8 261.6 268.1 265 254.1 239.7 228.9 222.4 218.8 215.4 214.5 211.4 209.5 207.5 210.2 214 220.7 235.8 252 259.2 265.5 275.1 283.9 289 292.1 290.2 284.3 281.8 277.9 271.1 261.8 252.8 243.7 230.2 217.7 210.3 205.6 202 200.5 202 202.9 205.2 209.4 220.7 228.5 230 226.2 223.7 225 226.9 229.2 231.3 233.4 235.4 237.6 240.4 243.2 246.3 247.5 251.4 254.9 259.6 270.7 282.6
427.8 427.3 425.6 423.4 420.5 417.9 414.6 409.9 404.9 399.8 393.7 388.1 383 378 373.1 369.1 364.1 357.6 348.9 337.6 325.1 311.6 302.5 292.7 286.2 281.7 277.1 273.9 270.6 267.5 268.1 257.3 260.4 286.8 300.2 307.2 314 319.4 310.4 311.1 320.3 329.1 333.8 341.8 351.1 348.5 346.8 344 340.5 337.2 334.1 326.9 332 337 342.1 351.5 356.7 358.6 356.7 352.3 347 340.9 337.4 336.1 336.2 335.7 335.1 334.1 332.6 333.5 338.6 346.5 355.6 346.6 338.4 327.3 316.1 300 287.2 277.8 271.3 262.6 250.4 239.6 228.1 224.2 227.2 231.5 236.5 251.2 274.3 295.1 310.1 320.4 322.5 320.5 312.7 300.1 284.1 276.8 269.8 263.3 258 251 239.2 238.3 240.9 251.5 265.1 277.4 293.1 307.4 313.6 316.1 313.8 312.6 302 282.9 274.7 268.1 261.9 257.7 254.9 251.5 250.3 250.9 251.5 248.8 244.3 238.8 232.5 227.2 228 228.5 229.3 231.2 243.3 252.7 254.7 248.4 240.2 229.9 224.1 219.2 216.2 214.6 213.5 210.4 208.2 205.7 207.5 212.9 218.3 228.3 239.7 246.2 252.7 269 278.6 285.2 287.7 286.3 285.5 284.4 276 269.5 259.4 250.6 243.3 230 218.1 211.4 206.2 202.2 200.8 200.8 201.8 202.7 206.5 216.1 220.9 216.9 216.3 216 219 222.8 225.5 227.6 229.1 230.9 232.5 235.5 238.2 242.1 245 249.5 255.6 262.2 272.6 285.3
428.4 427.6 425.8 424.2 422.2 420 416.5 413.1 408.6 402.5 398.7 393.1 388.2 383.3 378.5 374.2 369.3 362.7 354.7 343.9 330.5 316.9 305.7 296.2 288.2 282.6 278.2 274.6 271.2 269.3 268.9 268.4 254.8 261.6 285.9 300.6 307.8 308.1 300.5 309.2 320.6 327.4 335.6 345.5 348.2 345.2 342 339.6 335.5 332.6 328.7 325.5 325.2 331.7 339.4 347.9 352 351.8 349.1 344.8 340.9 335.1 332.9 332.4 332 331.6 330.5 329.4 325.8 326 325.7 332.5 332.9 327.8 322.3 314 302.8 295.3 286.8 275.2 267.5 260.5 250.5 242.1 230.2 224.5 225.1 229.5 233.4 243.2 265.8 288.5 307 316.5 325.4 326.4 320 307.1 292.7 285.4 276.7 268.6 261.7 259.9 249 234.7 235.8 244.4 253.3 265.9 284.9 297.1 303.6 307.3 303.6 297.1 279 267.7 263.7 256.5 251.6 249.2 247.9 243.6 244.2 244.5 245.3 241.3 236.4 230.6 225.6 225.2 226.4 228.9 229.2 228.4 235.3 242 239.1 233.3 228.7 223.7 219.8 217.2 215.7 214 211.9 208.8 207.2 204.2 208.5 212.1 214.8 222.4 230.5 235.8 242.5 257.7 270 277.2 281.7 285 284.6 281.5 272.9 262.2 254.2 248.1 241.9 226.9 216.9 211.4 207.3 203.8 201 199.6 198.6 201.6 202 206.8 209.2 209.6 210.2 212.3 216.5 219.9 222.1 224.1 225.6 226.4 227.6 231.3 234.4 237.9 243.5 248.2 256.5 264.1 275.5 286.8
425.2 425.2 424.6 423.5 422 421.2 419 415.9 412 407.7 403.2 398.3 393.1 388.5 384.3 380 375.3 367.2 358 345.7 332.4 324.8 311.7 302.1 291.8 283.7 278.9 275.5 271.7 269.2 268 269.1 264.5 254.1 259.4 290.5 297.8 296.1 295.3 308.6 318.1 327.2 340.1 346.8 346.1 342.6 337.5 331.8 329.7 326.1 322.6 319.9 321.3 328.2 337 344.4 348.4 346.7 344.1 340.7 334.7 331.4 328.6 328.8 328.7 328.1 326.2 326.6 323.8 318.5 316.3 313.4 311.5 309 305.6 299.6 293.1 285.9 278.7 269.8 262.7 252.9 246.1 238.5 228.1 224.1 223.7 226.8 230.1 236.5 259.3 285.4 304.9 318.3 328.6 330.7 326.2 311.2 299.5 291.8 283.3 275.8 265.3 257.6 246.4 235 232 237.6 246.2 253 265 281.1 292.3 295.1 291.8 281.6 260.7 252.1 248.1 245 241.6 239.5 238.5 235.2 236.2 237.5 237 233.3 227.7 223.9 220.7 224.1 225.2 227.9 231.4 227 227.2 228.6 226.2 224.8 222.8 219.8 217.6 216.8 215.3 214.4 212.1 208.2 205 203.6 207.4 209.7 212.2 217.3 222.7 228.9 238.9 249 259.6 270.2 277.4 278.6 277.7 273.1 263.8 256.1 250.4 246.7 239 225.8 217.1 211.9 208.5 205.2 201.3 199.6 198.6 200.8 201.4 202.2 204.1 204.8 206.2 210 214.6 215.6 217.4 218.9 220.6 222.6 225.9 228.4 231.8 236.1 242 250.2 259.2 268 277 282
419.1 421.2 421.4 421 421.6 422.1 421 418.5 414.8 411.2 407.4 402.3 397.1 392.5 387.5 381.9 375.8 368.3 359.4 349.4 339.3 330.4 320.6 307.1 295.4 286.9 282.8 278.3 273.7 270.1 268 266.7 266.8 260.7 252.7 275.5 288.1 279.6 292.8 305.9 316.7 330.4 341.1 345.3 343.7 337 329.7 326.2 323.1 319.4 316.5 309.4 317 324.2 334.8 342.6 346.2 342.9 340.4 335.5 330.5 327 325.6 326 326.9 325.2 323.7 328.8 332.2 315.3 303.8 301 296.2 293.1 289.7 284.9 279.3 273.4 266.6 260.2 253.2 244.4 237.6 232.7 227 224.5 222.4 224.9 227.4 233.7 254.3 280.5 301.2 321.4 330.8 334.6 329.1 314.1 307.7 302.5 292.5 284.1 273.3 262.6 251.7 236.9 230.5 230.4 236.5 243 249.5 265 280.7 279.2 271.1 256.3 245.7 240 235.7 232.6 231.1 230.6 230.1 226.8 227.3 227.4 227.1 223.9 220.4 217 217.4 221 223.6 225.9 226.3 226.5 223.5 221.8 221.3 221.3 220.5 217.6 216.9 216.3 215.3 214.1 213.6 208.7 205.5 203.4 205.8 207.9 211 214.3 218.2 223.8 233.6 245.2 253.6 259.8 269.4 271.8 270.4 265.3 258.2 251.4 243.8 241.7 230.1 222.5 215.9 211.4 208.6 206.6 202.8 199.5 198 199.2 200.4 200.6 201.3 202.4 202.8 204.4 206.8 208.9 211.2 214.2 219 222.6 224.2 225.7 229.2 234.6 242.4 252.9 263.1 269.4 274.3 277.9
412 414.1 416.3 417.6 419 421.4 420.7 419.9 418 415 410.6 405.8 399.9 394.4 388.9 382.8 377.2 370.8 363.4 354.7 345.4 334.6 324.6 311.8 299.9 292 284.9 278.9 274.6 271.4 268.1 264.9 263.4 260.7 252.2 255.2 274.6 270.1 289.8 302.2 316.6 328.3 334.6 338.3 332.9 325.5 318.5 317.3 314.6 312.1 310 301.6 312.9 324.2 335.5 341.9 343.3 340.3 336.6 330 325 322.8 321.9 324.2 325.9 324.8 323.3 331.5 339 319 308.2 300.3 292.8 285.7 278.1 272.8 270.6 267.7 262.7 257.4 249.9 241.9 234.7 230.8 228.1 225.1 221.1 222.4 224.9 229.9 246.6 274.5 300.5 324.8 333.9 334.5 325 317.3 313.5 314.9 302.4 291.4 279 269.5 259 239.6 234.3 226.4 229.6 234.1 239.7 251.2 264.6 260.6 253 243.4 237.7 231.5 227.4 224.4 223.4 222.7 221.8 220.1 217.7 217.6 218 217.4 216 210.9 211.1 211.7 213.1 214 220.6 217.2 218.3 217.4 215 219.7 222.2 217.5 216.1 215 214.2 213 210.3 206 201.9 201.5 205.1 206.4 209.3 211.7 214.5 219.5 226 237.4 246.1 251.3 257.2 264.5 263 258.7 253 246.9 240.4 230 222.2 215.7 213.6 210.6 207.6 206.5 204.8 201.4 198.2 196.9 198.8 199.1 200 200.1 200.6 201.2 203.9 205.6 208.4 213.7 217.6 220.3 219.9 220.9 225.6 232.3 239.3 252.5 258.5 263.3 266.6 271.2
406 406.9 409.4 412.1 414.6 417.2 418.5 418.4 417.7 415.9 412.3 407.3 402.6 397.2 393 386.8 379.9 372.7 364 354.5 342 329.5 322.1 314.5 301.2 293.7 286.6 280.4 276.1 271.6 268.7 265.7 264.8 263.3 260.4 250.9 251.1 262.1 285.7 297 308.2 314.4 316.9 317.4 316 312 309 307.4 305.2 304.8 302.5 300.3 312.4 326.4 337.2 340.3 340 336.9 332.6 324.3 320.5 319.1 318 320.2 321.7 323.8 324.6 334.6 346 329.6 321.5 309.9 297.7 292.6 288.4 285.4 282.3 278.9 275.2 267.4 261.7 254.8 245.4 233 227.4 223.9 221 220.8 223.1 227.3 238.4 265.7 295.6 320.5 329.5 325.2 320.6 318 315.9 318.3 309.1 298.6 285.7 278.6 271.4 246.5 235.2 228.6 224.9 228.8 232.1 234 248.8 245.6 241 238.6 231.9 225.2 221.3 221.1 219.8 218.3 215.8 214.5 211.9 211.6 213 215.2 211.8 208 203.1 200.4 202.8 203.2 206.8 206.8 208.7 206.6 204.2 206.5 210.2 211.7 214.3 212.8 211.2 208.2 206.4 203.2 200.8 202.5 204.4 205.2 207.1 209.9 211.9 214.8 220.4 227.3 235.3 243.5 247.9 254.1 255.6 251.9 246.9 242.8 236.2 225.9 214.2 209.6 206.2 204.8 204.3 204 204.4 203.5 199.7 197.5 197.9 199.1 199.2 199.3 199 200.2 202.2 203.7 206.2 209.9 212.1 213.9 214.2 214.8 220.2 227.1 232.7 239.6 247.3 253.1 258.8 265.1
400.5 400.2 401.4 405.3 408.8 411.4 415.9 416.6 416.1 416 413.5 410.2 405.9 401.5 395.8 389.6 382.1 374.3 365.9 354.6 340.1 333.2 327.6 320.7 310.3 295.8 289.6 282.8 277.4 273.6 269.2 267.1 264.1 261.1 259.2 255 249.7 247.9 267.4 283.1 290 294.4 298.9 302.4 304.5 301.5 298.7 295.6 296.1 296.8 292.5 305.5 317.5 329.5 337.2 338.2 337.3 332.9 326.9 319.2 315.1 313.8 313 315.1 316.4 318.6 324.8 339.3 349.4 347.3 335.3 323.9 307.8 302.9 298.6 294.2 291.1 288.9 287 281 274.9 266 256.6 237.7 226.7 223.3 221.1 219.7 221.5 225.4 230.3 251.3 278.5 301.2 311.1 311.7 312.7 314.8 317.2 318.5 318.8 303.2 289.3 277.3 261.3 246.9 233.5 227.6 224.7 218.4 224.2 228.6 233.6 236.8 236.1 233.3 226.9 222.4 218.1 215 217.4 216.9 211.8 208.5 203.9 205.4 207 205.7 204.9 204.2 201.7 199.2 198.7 198.2 196.9 196.4 198.1 198.1 199.2 201.2 204.1 205.1 207.1 204.5 201.7 202.3 203.1 200.5 200 203.3 203.5 203.7 206.6 208.9 210 212.6 220.7 227.1 230.3 233.7 243 249.8 251.3 251.6 247.5 243.8 239.4 227.5 213.7 208.9 205.6 203.2 201.8 201.3 201.5 202.5 198.2 196.7 196.1 198.4 198.3 198 199.1 200.5 202 202.7 203.6 205.4 207.5 209.2 210.3 210.8 214.2 220.9 226.4 232.5 238.2 246.2 252.5 258.3
396.9 395.9 396.3 398.2 402.6 406.5 410.3 413.3 413.8 414.7 414.7 412.6 408.5 404.7 400.1 393.7 385.8 378 369.1 360.4 352.5 343.2 337.5 328.1 317.7 306.6 298.3 288.6 281.1 276.4 272.5 269.1 265.4 261.9 257.8 259.9 250.7 248.6 248.9 264.4 271.2 276.6 281.5 287 290.9 290.7 286 286.1 286.9 286.6 300.8 308.4 321 329.9 335 334.1 331.7 327.1 320.2 313.9 308 307.8 307.7 309.7 311.5 316 324.3 340.9 351.8 358.5 357.9 340.1 322.3 317 311.8 308.2 303.5 298.6 294.6 290.8 283.8 276.7 260.3 236.8 228.2 222.6 220.4 219.4 218.9 221.7 225.1 234.7 252.8 270 280.4 289.6 295.4 299.8 302.8 311.6 304.9 292.7 277 263.6 250 236.6 228.2 224.2 222.9 223.5 216.3 222 226.2 228.9 228.4 224.7 221.4 214 206.8 204.7 206.1 210.1 205.3 199.2 198.8 199.1 200.2 201.4 201.2 200.8 199 198.2 199.9 202.4 197.5 196.8 196.7 196.2 196.7 197.8 198.9 201 200.3 198.6 197.8 198.4 198.9 199.3 201.3 202.5 202.7 202.7 203.9 205.6 207.8 209.9 215.4 221.4 224.3 226.8 234.9 243.6 247.1 249 248.1 245.7 244.8 230.3 217 210.5 206.3 203.1 201.1 200.3 200.1 198.7 196.2 196.1 197.5 197.8 198.1 198.2 200 201.2 201.5 202 202 202.4 204.1 205.4 206.7 207.6 210.9 215.6 220.7 227.3 235 241 247.7 254
391.4 389.6 390.5 392.9 396 400.3 404 407.9 409.6 411.9 415.6 414.5 410.8 406.9 402.6 396.8 389.8 381.9 374.1 366.3 359.3 352.7 345.6 336.6 325.4 317.3 308.6 299.3 288.8 280.6 276.2 272.2 267.6 262 257.4 257.1 254.8 248.5 246.9 245.9 246 251.5 267.5 271.5 277.3 280.1 275.9 278.2 281.2 293.8 302 310.7 320.9 324.5 326.3 324.6 321.7 317.4 313 306.9 301.8 301.7 302.3 304.5 308 312.3 322.7 341.6 354.6 363.3 367.7 364.2 346.3 334.6 327.4 323.1 315.8 304.6 299.7 295.1 290.6 283.6 261 240.4 232.5 226.2 220.2 218.8 218.2 218 220.7 223.3 230.4 241 250.8 259.7 267.4 272.6 278.7 287.1 276.4 262.2 249.7 240.5 234.1 228.4 222.8 216.8 215 214.7 214.2 213.8 216.5 218.8 215.9 210 202.2 200.5 198.1 199.6 199.6 199.5 199 198.8 198.8 198.4 196.8 198.2 198.8 198.6 197.3 197.2 195.1 197.3 194.8 194.6 194.6 196.5 196.2 196.3 196 195.9 195.8 196.4 196.8 197.5 198.2 199.2 200.8 201.6 201.6 201.5 201.4 202.9 205.4 208 210.4 214.3 217 219.4 225.1 234.8 240.5 246 248.6 250.7 251.3 239.6 227.7 219.9 211.7 205.2 201.7 200 199.2 196.5 195.4 195.3 197.6 197.7 197.3 198.2 200 200.9 200.9 201 200.8 200.9 201.9 203.3 204.2 206.2 209.3 213.3 218.5 226.2 233.4 239.5 245.7 249.5
395.4 394 387.1 386.5 390.2 393.9 397.5 401 403.8 407.6 413.9 414.8 411.4 408 404.1 398.1 392.5 385.6 379.6 372.6 368.5 363.1 356.1 347.7 337.4 329 321.6 312.9 300.9 290 283.7 277.3 269.6 261.9 257.3 253.9 252.6 253.9 252.8 249.7 247.8 242.3 251 261.2 264.4 266.7 268.4 269.2 283.9 292 301 308.6 314.4 315.7 316.7 314.6 312.1 309 305.8 299 295.3 295.5 296.9 300.2 304.7 309.5 323.7 341.8 357.6 368.8 374.9 372.5 369.4 354.7 346 335.8 324.7 308 303 298.7 294.5 285.3 273.9 247 237 228.5 221.3 218.5 218 217.1 219 219.2 220.1 221.8 227.5 232.8 238.7 245.8 248.5 249.6 245.1 236 228.2 224.5 223.3 219.6 216 210.8 209.4 208.8 208.9 206.4 208 206.6 202.3 200.6 200.2 198.5 199.9 199.7 199.5 198.9 199.3 199.1 198.7 198.6 198.3 198.9 198 197.3 197.4 197.1 196.8 196.7 196.2 196.3 196.2 196.1 196.3 196.3 195.8 194.7 195.7 196 196 196.8 197.5 197.7 197.6 200.4 200.9 200.8 200.8 200.8 202.2 206.4 207.9 209.4 211 212.8 218.5 226.6 237.4 244.7 249.3 251.1 252 244.8 234.6 225.5 216.8 209 203.4 201.6 198.7 196.9 194.9 194.7 197.2 196.9 196.9 197.2 199.7 200.5 201.4 200.5 199.9 200 200.6 201.3 202.1 204.7 207.4 212.4 219.9 227.8 235.7 242.6 248.8 250.6
394.4 392.4 389.3 380.8 385.4 387.5 390.2 393.8 396.7 400.4 406.8 412 410.1 406.9 403.5 399 393.8 389.1 384 381.8 378 373.1 366.5 360.5 352.8 343 332.4 323.1 312.2 302.7 292.8 283 274 265 260.2 257.2 258.1 259.4 258.4 253.6 250.9 243.8 242.5 244.3 252.6 255.8 260.8 263.5 275.4 286.1 295.6 300.9 304 304.7 304.5 303.1 301.4 298.3 295.1 291.3 289.5 290.3 290.9 296.6 301.1 308.1 327.1 344.9 360 370.6 376.7 375 378.5 366.7 353.6 339.3 326.2 315.3 314.1 304.6 296.3 291.1 276 251.5 240.6 232.1 225.5 222.8 221.1 215.9 216.8 217.7 217.8 217.6 217.5 218 222.2 221.6 220.4 220.1 217.8 217.2 213.9 211.1 213.8 216.3 206.7 202.5 202.4 202.7 202.4 202.6 202.3 199.8 201.3 200.8 200.7 200.2 199.8 199.5 198.7 198.6 199.2 198.8 198.5 198.3 198.1 198.1 197.8 197.4 197.1 196.9 196.6 196.6 196.4 196.4 196.3 196.1 195.9 195.9 195.7 195.5 195.2 195.9 195.7 196.3 196.3 196.1 195.7 196.7 199.3 199.5 199.8 200.1 202 205.1 206.5 207 207.4 209.4 213.7 218.7 228.3 236.4 242.4 246.6 251.1 248.4 239.7 231.7 222.3 213.4 207.3 202.9 199.5 196 194.1 195.7 196.6 196.3 196.3 198.5 199.7 200.4 200.7 199.7 198.6 198.4 198.6 199.4 201.1 203.2 206 215.1 224.7 231.7 240 248.9 254.2 257
392.5 390.2 388 381.2 380 383.5 384.2 386 389.6 393.8 399 405.3 404.7 403.6 401.7 400 397.2 394.5 391.5 390.6 386.7 381.9 376.1 370.7 364.2 354.3 345.3 336.6 325.7 316.7 305.2 294.8 284.3 272.8 265.5 262.1 261 260.6 258 253.7 250.1 245.9 242.3 241.6 242.5 243.3 250.3 250.6 265.8 276.2 282.1 286.9 289.3 290.3 291.3 291.1 289.1 286.1 285.3 283.4 283.3 277.2 288.1 294.2 299.3 311.5 331.1 346.1 359.1 367.4 369.7 371.2 368.1 360.6 348.9 343.1 327 322 322 309.5 302.6 295.3 280.7 257.3 246 237.2 231.5 230.4 225.6 216.5 215.3 216.6 216.9 216.8 215.6 214.4 214.5 213.2 211.7 210 209.4 208.4 205.3 203.9 204.3 206.8 202.8 202 202.1 201.8 201.6 201.4 201.1 200.4 201.3 201.1 200.8 200.3 199.8 199.3 198.7 198.6 198.5 198.4 198.8 198.3 197.9 197.4 197.5 197.1 196.8 196.7 196.5 196.4 196 195.9 196.5 196.2 195.5 195.3 195.2 195.1 194.8 196 195.9 195.7 195.7 195.2 194.9 195.2 197.2 198.3 198.7 198.1 201 204.3 205.6 205.7 206 206.9 208.7 213.2 219.3 227.8 235.3 243.7 250.3 247.4 242.6 235.4 227.1 218.5 211.7 206.1 200.8 195.7 193 195 196.2 195.8 195.7 197.8 198.9 199.6 199.9 199.1 197.7 196.8 196.8 198.7 200 202.4 207.5 218.6 228.3 236.9 250.5 256.8 261 261.7
391 388.6 386.4 382.2 373.4 378.7 379.9 379.3 382.4 385.6 390.7 394.7 399.7 400.8 400.4 400.6 400.1 399.5 399 397.6 393.9 389.8 385.1 380 373.4 365.9 358.5 349.8 339.7 332.1 322.9 310.5 298.6 286.4 277.9 272.3 267.4 264.6 259.8 253.7 249.8 246.5 245.6 244 240.3 238.6 241.6 246.6 254.6 260.6 268.2 273.3 275.9 277.9 278 278.1 277.4 276.7 277.5 277.9 274.2 279.8 284.3 290.7 297.5 314.2 330.7 344.3 354.9 360.2 359.4 359.2 354.1 349.4 345 338.4 322.6 319.1 318 305.2 299.9 292.3 280 265.3 252.2 242.9 236.9 234.5 224.8 217.3 214.6 214.7 215 215.1 214.3 214 213.6 211.5 209.9 207 205.3 204.9 204.6 204.3 203.4 203.5 202.6 202.9 202.4 202 201.8 201.8 201.8 200.3 201.6 201.3 201 200.4 198.6 199.4 199 198.9 198.9 200.1 199.3 199.4 198.3 197.5 197.2 196.9 196.8 196.6 196.3 196.1 195.6 195.6 196 195.6 194.8 196.8 196.6 195.3 194.8 194.5 195.5 195.2 195.2 195.2 194.8 196.8 196.8 198.3 197.9 197.5 198.4 202.9 204.9 204.9 203.8 205 205.7 208 212.8 221.7 230.8 241.8 248.1 247.4 243.4 237.5 229.9 222.8 217.4 211.5 204.4 198.4 193.7 193.3 194.3 195.4 194.8 195.9 196.8 198.2 198.4 197.3 195.5 195 195 197.4 199.2 202.6 208.9 218.2 227.1 236.1 249.4 257.9 262.3 264.1
389.9 387.4 385 381.5 375.9 370.8 375.5 375.1 375.5 378.2 380.6 385.1 389.2 392.7 396.2 398.7 401 402.6 403.1 401.8 397.8 393.5 389 384 378.3 373.4 368.6 360.9 351.5 345.1 336.3 323.7 311 299.9 291.9 287.1 276.5 267.3 262.8 258.5 250.6 246.7 245.3 243.3 242.5 239.9 238 243 247 250 255 259.5 261.2 263 265.4 265.7 266.1 267.5 268.8 271.7 261.5 275.7 280.2 287.3 296.7 314.4 328.8 341.4 347.7 350 350.3 345 339.4 338.1 332.2 327.2 314.1 311 307.9 299.3 294.9 288.8 281.9 273.7 257.1 247 239 232.7 222.9 216.5 214.4 213.6 214 214.4 212.6 213.8 212.1 210.1 209.1 206.3 205.2 204.8 204.7 204.5 203.9 203.3 203.1 203.1 202.7 202.3 202.2 202.2 202.2 202.2 201.6 201.2 200.8 200.4 200 200 199.5 201.3 202.5 201.8 200.9 201.3 200.1 197.5 197.4 198.2 197.1 197.6 198.1 197.9 196.9 196.8 196.8 195.3 196.2 197.7 196.7 195.8 196 195.8 192.8 194.8 194.8 197.1 201.6 201.1 200.4 200.3 195.5 195.9 196.5 199.2 194.5 194.2 198 203.1 203.2 204.8 207.5 214.3 224.6 236.6 245.9 245.6 243.3 238.2 230.6 225.2 221.7 217.5 210.3 202.6 194.9 193 192.7 193.9 193.9 194.7 195.4 195.8 195.3 194.5 193.7 193.2 193.3 195.7 197.8 202.6 209.2 217.7 224.3 232.5 247.3 258.1 262.1 261.2
388.9 386.6 383.4 379 374.7 367.9 370.3 369.8 370.7 371.1 371.8 375.6 378.8 381.7 385.8 390.1 394.2 397.8 400.8 399.9 396.3 392.5 387.5 382.1 377.8 374.8 371.6 366.9 358.8 352.3 342.8 331.8 322.3 311.8 303.7 295.7 284.1 272.6 269.6 260.9 251.6 246.4 245.6 245 241.6 239.3 237.1 239.5 240.4 241.4 244.3 245.9 248.3 250.7 252.6 254.6 257 257.7 257.7 264.2 266.9 271.7 276.8 287.1 300.1 314 326.9 337.3 341 337.8 333.8 330.7 328.3 324.4 320.6 306.3 303.9 299.6 294.7 291.8 288.4 284.7 279.3 270.3 258.4 246.2 234.7 227.3 219.7 215.8 213.6 212.6 212.9 214 213.5 212.1 211.5 209.8 208 205.7 205.1 205 204.9 204.7 204.5 204.1 203.7 203.1 202.9 202.8 202.5 201.9 202.3 202.1 201.6 201.3 200.7 200.6 200.3 200.8 203.3 205.2 204.4 202.8 202.1 203.6 201.1 203.2 202.9 203.1 201.7 203.1 203.5 201.6 200.1 199.3 200.6 200.2 200.5 199.1 197.7 198 197.5 197.8 195.6 194.6 194.7 194.9 197.1 195.5 193.6 193.1 193.2 192.7 193.8 193.5 192.6 192.8 194.2 199.6 200.4 202.1 204.2 206.9 214.8 225.5 235.1 239.5 243 239.6 231.3 224.3 220.7 218.6 215.9 207.3 197.8 194 192.8 191.6 192.7 193.1 194.8 194.9 193.2 191.7 192.7 192.1 193.1 195.8 198.7 201.8 208.3 215.5 222 228.8 244.2 254.1 258 254.2
387.8 384.5 381.7 376.8 371.6 366.1 358.8 363.3 364.4 364.6 363.6 364.6 367.3 371.3 375.3 379.9 384.6 389.4 394.1 392.1 389.4 385.3 381 376.7 374 371.2 368.7 365.5 359.9 354.9 347.1 337.9 329 320.3 310.4 298.5 284.3 283.5 280.2 263.4 253.4 249.5 247.5 244 240.4 238.4 236.6 235.7 235.4 236.6 236.6 238.2 239.6 241.5 243.6 246.9 248.9 250.7 251.3 253.8 262.1 265 272.8 284.6 299.4 312.1 323.1 331.1 335.1 326.7 321.6 317.7 314.5 309 306.3 290.7 288 287.4 284 278.7 276.1 273.6 266.7 253.7 238.3 233 224.6 219.4 215.6 213.5 212.6 212.5 212.1 212.6 212.8 212.5 211.6 209.7 206.6 205.8 205.5 205.4 205.2 205 204.7 204.3 203.8 203.3 203.1 203.3 203 202.5 202.4 201.9 201.7 201.7 202.1 201.8 200.8 201.7 204.6 206.5 205.4 204.3 203.1 203.4 203.1 204.3 208 209.4 209 209.4 209 208.5 210.5 210.3 210.3 209.1 206.8 205.3 202.7 204 202.6 198.6 197.1 196.9 195.6 194.7 194.1 193.8 193.4 194.6 193.9 193.3 192.6 190.9 192.2 191.7 192 195.1 196.3 197 198.5 199.8 202 205.7 213.5 222.3 231.7 235.7 229.1 222.3 216 214 214.7 206.3 199.3 194.2 193.2 191.7 191.5 191.3 192.6 193.9 193.5 190.7 190.7 191.5 193.4 196.1 198.3 200.7 205.4 212.1 217.7 223.6 237.1 247.8 249.2 245.1
386.2 382.7 378.7 372.3 366.7 362.5 360.3 355.4 358 357.3 357.7 357.1 357.3 358.5 361.2 366.8 373.4 379.8 385.2 384.2 381.8 379.3 375.3 372 369.3 367.2 364 360.8 357.4 353 345 337.5 330.7 322.9 309 301.7 295.1 290.2 281.2 265.7 258.2 255.3 248.1 240.7 238.1 237.1 236 235 233.2 233.5 233.6 234 235 235.6 236.9 237.9 238.9 240.8 244.1 249.9 253.9 258.6 267 278.5 292.4 304.8 313.9 320.5 319.2 313.4 309 305.2 300.8 297 283.3 275.1 274.4 272.6 269.5 264.3 256.5 251.3 243.3 232.8 226.1 220.3 216.5 214.4 212.4 211.9 211.5 211.4 211.2 211.2 212.5 211.9 211.4 208.5 206.2 206.1 205.9 205.8 205.5 205.3 204.7 204.5 204.1 203.6 203.5 203.6 203.3 203.7 202.7 204.1 204.4 207.1 206.6 204.1 202.6 203.4 206.1 207.7 206.7 205.4 204.9 207 209.3 212.2 215.1 216.2 216.6 218.4 221.3 228 227.8 223.9 221.8 219.2 216.8 214.5 213 210.9 209.4 207.6 202.3 199.6 201.6 199 202 201.4 198.3 196.7 193.1 192.8 192.6 194.6 194.3 192.3 192 191.8 193.4 194.4 195.6 196 195.9 197.4 200.4 205.2 209.7 215.6 218.2 215.5 211.4 206.3 203.4 202 197.6 194.3 193.1 191.6 191.3 190.7 190.8 191.2 190.9 189.8 191.3 192.6 193.1 194.8 196.8 199 202.2 207.6 213.4 218.6 226.1 235.2 235.4 234.8
386.4 381.9 377.3 371.4 364.7 360.8 355.2 351.2 344.1 345.2 347.1 349 350.1 350.2 352.2 355.1 358.8 365.9 372.3 375.2 374.7 371.8 368.2 365.6 362.5 360.3 357.3 353.3 350.2 344.1 338.4 331.7 326.9 318.4 310.2 305.2 299.1 291.9 278.9 267.9 261.3 254.2 245.5 239.8 238.3 237 235.8 234.3 233.7 232.9 232.8 232 231.6 231.8 233 233.6 235.2 237 239.2 245.3 245.5 250.5 256.8 266 278.4 290.2 298.6 302.8 306.5 296.1 293.3 291.5 287 283.8 264.7 258.1 258.5 257.1 249.5 243.5 237.2 232.2 226.6 219.5 213.8 212.4 211.1 212 211.8 211.4 211.2 211.1 211.1 210.6 210.2 209.8 208.2 207.4 207.1 206.8 206.3 206 206.4 206.3 205.6 204.5 204.3 204.1 203.8 202.4 207.6 208.2 209.7 212.7 212.5 210.8 210.2 207 207.2 209.8 210.7 210.2 209.8 209.3 213.5 214.6 215.4 217.5 221 223.8 229.1 231 235.3 244.4 248.6 244.3 243.3 239.1 235.5 236.5 232 225.6 223.5 220.7 213.3 206 203.6 204.9 205.2 204.3 202.7 197.7 193.6 192.7 192.7 194.7 194.6 192.1 192 192 191.6 192.8 196.2 198 198.1 195.7 195.3 197.2 200.8 203 205.1 206.3 205.6 202.5 199.4 197.4 195.9 193.4 192.7 191.8 191.3 190.7 189.9 189.8 189.6 189.5 192.2 192.4 192.9 193.4 195.3 197.1 199.3 203.9 209.2 211 218.3 222.8 225.9 227.5
386.8 382.2 378 374.2 369 363.6 361.7 358.7 356 350.9 338.3 337.9 340.7 342.8 345.4 346 348.1 352.3 357.9 362.6 364.7 365.2 362.4 358.1 355.2 351.5 348.7 343 339.8 334.5 328.7 322.7 317.5 311.5 305 298.6 291.6 285 273.4 265.1 259.3 252.2 244.4 240.7 239.1 237.5 236.4 234.6 233.2 232.9 231.8 231.2 230.6 230.4 230.3 230.6 231.5 233.4 235.1 236.2 237.4 240.2 244.2 251.5 260.8 272.2 279.2 286.8 285 278.4 277.6 275.1 268.8 256.4 244.9 241.1 239 235.5 231.2 227.5 223.4 220 215.5 212.6 210.7 211.5 211.2 211.5 210.6 210.4 210.3 210.3 210.1 210.2 209.9 209 208.3 207.9 207.9 207.5 206.7 206.7 206.4 205.8 205.7 205.3 204.3 203.2 209.7 213.1 214.4 215.1 216 217.4 216.3 214.9 212.9 211.6 211.8 212.9 213.6 213.6 214 217 218 218.7 221.3 223.7 229.6 235.8 241 242.6 247.1 253.7 261.3 262 263.5 261 261.4 260.1 252.5 245.8 239.5 233.9 224.3 214.4 208.9 208.9 207.5 205.8 203.9 202.4 200.6 194.4 192.9 194.1 194.8 192.1 191.6 191.2 191.5 191.1 192.6 195.4 197.8 198.1 196.4 195.1 194.8 196.2 197.7 199.9 201.8 199.6 198.2 197.6 195.3 192.6 191.9 191.4 191.7 190.2 189.5 189.1 189.2 189.3 190.8 192.4 192.9 193.6 194.3 195.9 197.3 199.4 202.8 203.6 209.4 213.9 217.8 220.4
388.2 384.2 380.1 376.5 372.8 370.4 366.6 363 360.4 358 350.6 342.1 327.2 331 335.8 338 338.8 341.7 344.1 348.1 350.3 354.4 355 349.6 346.1 343.3 339.8 335 329.2 324.8 317.6 310.7 304.5 297.9 291.5 284.7 279.5 273.9 265.2 260 253.7 247.4 242.8 241.5 240.4 238.5 236.5 234.4 233.4 232.1 231.8 230.8 229 229.3 228.8 228.5 229.1 229.9 231.2 230 229 230.7 234.7 237.5 243.3 252.1 260.1 264.3 262.7 262.7 257.4 256.8 245.4 235.5 231.3 229.1 226.8 222.8 218.8 215.6 213.7 214 212.8 212.4 211.8 211.4 210.9 208.8 210.3 209.9 209.7 209.5 209.6 209.6 209.3 209.1 208.7 206.8 208.5 207.4 205.2 207.8 212.1 211.5 210.8 205.9 212.1 214.6 218.2 220.1 219.9 220 223.4 226.7 222.7 220.5 219.2 217.4 217.4 217 216.9 216.6 219.5 221.9 223 225.8 230.2 236 244 248.6 251.2 253.2 258.5 263.8 272.1 273.3 275.2 276.4 279.5 279 276.9 273.7 266.1 252.2 239.7 225.6 219.1 213.5 210.5 207.8 205.8 204 202.1 201.1 197.1 194.5 194.4 192.9 192.1 191.4 191.2 191.1 191.4 190.3 193.1 197.2 197.9 198.7 194.9 193.5 194.2 194.8 196.9 197.8 198.2 198.9 196.4 192.7 191.5 191.1 191.1 189.7 189.3 189.3 188.6 188.4 191.6 194.2 195.1 194.8 194.8 196 197.1 198.7 200.1 200.4 206.5 207.3 212.3 213.2
390.5 385.5 381.5 378.8 377.1 373.9 370.7 367.6 364.1 361 354.6 348.1 342.4 331.6 319.8 325.7 330 331.5 333.8 337.2 338.2 340.3 343.8 339.7 336.4 333.4 329.6 324.5 318.4 313.7 307.2 298.3 289.7 285.4 278.8 273.3 268.3 263.5 257.9 250.5 246.8 244.8 242.8 241.4 239.4 237.9 236.7 235.9 234.5 232.3 230.9 230.3 229.9 229.2 228.1 226.9 227 227.1 227.8 226.2 224.7 224.1 224.5 225.9 229 231.1 235.3 237.9 240.1 240.5 238.4 231.2 226.3 220.9 215.8 215.3 215 214.9 214.3 213.8 213.3 212.9 212.8 212.3 211.6 211.1 210.5 210.3 208.6 209.8 209.6 209.7 209.3 212.7 219.1 223.2 228.4 231.4 226.5 218.3 213.3 211.9 214.8 214.8 216 219.8 221.8 222.3 224.1 226.2 226.5 227.8 232.7 233.5 228.1 227.6 225.7 223.1 221.9 221.3 221.5 219.4 223.7 227.1 230.5 236.9 243.5 246.9 254.2 258.3 261 264.8 270.5 275 279.4 282.2 287.9 292.1 293.5 295.2 298.8 299 290.6 277.6 260.3 245.9 230.4 222.7 215.8 210.8 208.1 205.8 203.6 201.7 198.4 196.4 195.4 194.7 193 191.5 191.3 190.7 190.8 190.5 190.7 194.6 196 197.6 197.2 195.4 193.3 192.5 192.8 195.4 197.5 200.4 198.9 194.1 191.4 190.9 190.6 189.6 188.9 188.7 188.5 187 190.8 195.6 197.2 197 196.7 197.2 197.2 197.6 198.8 201.3 203.3 204.7 207 207.4
390.8 387.1 385 382.2 380.1 377.1 373.3 369.9 366.2 361.1 355.9 350.8 346.4 342.2 337.7 320.9 315.7 321.1 324.6 325.4 324.4 329.3 330.9 330.2 327.9 324.9 321.1 316.1 310.4 303 294.5 287.7 279.3 275.8 270 264.1 258.7 252.6 250.7 248.8 251.2 251.5 249 245.6 243.3 241.2 240 237.9 235.7 233.5 231.2 230.3 229.6 228.7 228.1 227.5 226.6 224.9 225.4 224.6 223.9 223.1 222.6 222.2 221.6 222 222.4 222.9 223.4 224.7 227.1 219.7 217.2 216.5 216 215.5 215.3 214.8 214.5 214.1 213.4 212.8 212.3 211.8 211.7 211.1 210.6 210.6 211.4 209.4 209 221.8 224.7 236.4 243 249.1 254.9 254.8 244.2 231.7 222.9 220.8 221.9 220.8 223.2 227.9 228.7 229.1 231.8 232.9 232.8 236.4 241.5 243.1 237.3 237.1 233.1 230.4 228.9 229.3 229.8 222.6 231 234.2 237.3 245.8 252.6 257.2 263.5 269.1 273.1 277.2 283.4 290.7 295.6 299.7 304.8 306.4 308.7 311.4 314 313.5 307.5 296.5 286.5 274.5 255.2 239.6 226.7 217.3 212.9 209.8 207.4 204.3 201 198.3 196.5 195.6 193.8 193.3 191.5 190.6 190.4 189.9 189.9 190.4 192.4 193.2 193.3 194.6 195.7 193.6 192.3 192.6 196.2 200.8 200.6 195.6 191.4 190.5 190.1 190.1 191.9 188.4 188.6 188 187.9 194.3 197.9 198.8 198.1 196.9 196.4 196.6 196.9 199.1 201.1 202.2 203.5 206.4
391.3 390.2 387.6 384.8 382.9 379.9 375.9 371.8 368.2 365.1 359.2 354.1 348.4 343.2 338.3 331.4 318 307.6 313.5 317.3 316.3 318 321.1 321.2 317.8 315.6 311.6 305.7 300.8 292.5 285.3 278.9 274 269.6 263.1 257.8 255.2 260.3 262.5 262.1 261.3 260 257.1 251.7 247.6 245.1 243.7 240.1 236.7 233.6 232 231.3 229.6 228.7 228 227.2 226.3 226 225.3 224.7 223.5 223 222 222 221.3 220.6 219.6 219.5 219 218.3 217.5 216.8 216.8 216.6 216 215.8 215.6 215.3 214.6 213.9 213.1 212.6 212 212.1 211.7 211.3 213.4 216 220.9 228.6 235.7 244.7 254 264.3 272.1 274.9 273.2 265.6 252 238.5 231.4 223.2 230.2 229.7 231 233.2 234.7 236.7 241.6 240.7 242.3 247.3 251.3 248.4 252.2 248 242.5 238.4 236.4 237.2 237.8 230.6 236.3 242.1 244.3 250.7 259.6 266.6 273.9 282.1 285.8 290.5 300 308.4 314.2 316.5 317.9 320.2 321.3 326.7 327.6 326.6 318.8 307.8 297.6 285.7 280 259.5 244.1 228.2 219.5 215.3 211.1 207.7 204.1 200.2 198.3 199.1 197.7 193.3 192.9 190.8 190.7 190.3 189.7 189.9 189.5 193.7 192.4 193.1 192.3 192.5 191.8 191.7 192.5 195.3 196.9 195.6 192.2 189.7 189.3 190.1 192.9 192.3 187.5 187.6 187.3 189.3 193.7 197.1 199.3 197.3 195.7 195.4 195.6 197.8 199.5 199.8 200.9 207.7
394.1 392.7 389.9 386.9 385.1 382 379.4 376.1 371.5 366.8 360 355.2 349.9 344.3 335.5 329.7 322.4 314.6 308.5 304.3 308.1 306.9 302.8 302.9 305.5 304.7 301.6 296.6 293.6 289.8 280.1 274 272.4 261.8 259.3 262.2 266.1 269.3 271.1 268.9 268.3 266.6 263.9 257.4 251.9 249.1 246.1 243.8 239.1 236.6 235.7 234 231.7 229.6 227.8 226.9 226.4 225.9 225.4 224.9 224.3 223.9 222.6 222.3 221.4 221.3 220.2 219.8 219 218.5 218.3 217.6 216.8 216.6 216.1 215.8 215.5 215.2 214 213.4 213 212.6 212.6 217 217.6 223.2 229.9 236.8 245.3 253.9 262.3 271.6 281.8 290.8 291.3 284 277.6 264.8 251.2 242.3 236.1 222.4 236.7 235.1 236.1 237.7 240.8 248 251.4 250.1 253.1 257.4 260.5 259.5 261.9 256.6 250.2 247.3 245.7 245.5 246.7 233.9 245.2 250.5 251.6 252.9 264.9 275.9 287.4 293.7 301.8 307.2 316 324.6 328.8 329.4 327.6 331.5 334.5 338.4 338.2 335.5 325.6 314.8 305.1 295.4 292.7 272.8 256.6 237.7 227.2 220.3 216 211.3 207.3 203.1 201.1 200.1 199.8 195.7 192.7 191.8 190.5 190 190.1 189.4 191.2 191.2 191 190.7 191 191.4 191.3 191.3 191.3 192.5 193.3 193.3 190.9 189.7 188.9 190.4 192.6 191.7 191.6 186.8 187 187.1 189.5 193.3 196.8 197.9 195.2 194.4 194.4 195.8 197.1 198 202 210.3
398.6 395.3 392.2 389.1 386.8 384.2 381.3 376.4 372.2 368.1 361.9 356.6 351.8 345.6 340.1 334.6 328.9 320.8 312 306.2 299 298.6 299.7 297.7 284.2 282 280.6 286.7 284.2 282.5 273.5 267.1 265.2 270.5 270.8 271.1 274.5 276.7 277.2 275.5 274.1 272 269 263.1 257.3 254.9 256.5 253.5 252 249.7 244.9 240.7 237.1 232 228.6 227.3 226.4 225.9 225.4 225 224.7 225.1 223.7 222.8 224 225.4 222.1 220.4 219.3 218.7 218.4 217.8 217.2 216.6 215.9 215.8 215.3 215.7 215 214.8 220.8 223.5 225.7 229.2 233.4 240.9 249.8 262.4 274.2 284.5 292.1 299.1 301.6 297.6 292.3 283 268.8 258.2 249.3 239.9 229.7 235.8 239.3 239.2 241.4 246.3 255.3 258.9 261.8 261.5 264.4 267.2 265.7 270.2 271 265.5 259.8 254.9 253.9 254.2 253.7 240.5 252.7 256.8 258.1 261.3 266.9 281.1 294.2 304.2 314.4 322.7 330.5 339.5 342.4 342.8 340 341.7 343.6 346.8 346.3 341.8 329.9 318.2 308.8 304.9 299 282.7 266.5 251.2 237.9 228.2 222.7 217.7 212.3 206.7 204.2 201.7 199.7 197.1 193.3 192.6 191.9 190.3 189.8 189.2 189.1 189.2 188.9 189.4 190.2 190.6 190.6 190.5 190.5 191.3 192.4 192.5 190.7 189.4 187.9 188 188.3 191.3 191.5 190.4 185.9 186.2 186.4 189.8 196.4 197.1 195.3 193.8 193.5 194.9 197 198.9 205.1 216.7
404.1 399.9 396.1 392.3 389.1 385.7 382 378.3 374 369.1 364.2 359 356 352 345.6 340.8 336.1 329.9 320.2 314.1 309.2 309.5 304.7 301.2 295.5 291.7 286.9 278.6 274.2 271.4 268.7 274.2 277.2 280 279.6 279.7 281.4 283.5 284.6 284.3 282.8 282.8 277.6 270.4 259.8 268.4 270.7 270.3 269.1 265.1 257.8 251.6 246 239.3 233.4 230.7 228.6 228.4 227.9 229.2 228.2 228.1 227.1 227.9 233.7 232.1 228.7 223.7 219.7 218.8 218.1 217.9 217 216.3 216.1 218 219.1 222.8 225.1 226.9 232.2 235 238.8 244.1 252 264.5 278.5 291.2 306.3 318.3 316.7 310.6 304.6 297.5 287.7 276.4 264.2 252.2 245.2 234.6 237.8 241.7 244.3 247.2 252.9 263.3 272.8 272.2 272.9 273.7 274.6 276.2 271.2 278.7 280.8 274.7 267.5 262.1 261.4 260.7 257.5 250.3 242.7 257.8 262.1 265.5 271.1 281.2 297.3 308.7 323 333.5 343.7 351.6 355 355.8 353.7 351.4 351.7 353.3 351 345.7 334.7 323.7 314.5 310.1 302.4 289.5 278.8 266.4 256 246.1 237.7 230.6 226.1 219.4 211.4 208.2 203.6 197.4 195.3 194.2 193 192.1 189.1 189 188.9 188.5 188.5 188.7 189.4 189.2 188.7 188.2 188.6 188.3 189.1 188.9 188.5 188 186.6 186.2 186.4 190.2 190.8 188 185.8 185.6 186 186.7 189.7 193.3 193.9 192.4 191.6 194.4 195 200.2 205.9 212.7
409.1 403.4 400.6 396.2 391.9 387.6 383.7 380.4 376.5 372.1 368.4 364 362 360.2 354.3 347.2 341.3 334.7 325.7 316.9 309.3 306.3 302.4 296.6 293.1 290.7 287.7 281.9 281.3 281 283.8 286.3 288.5 289.9 291.3 291.5 292.4 295.6 299.4 299.3 295.1 291.3 284.5 276.3 271.3 280 282.6 285.1 284.3 280 274.6 266.8 262.8 254.2 245.2 239.2 234.9 234.1 232.2 235 232.3 231.3 231.7 238.4 242.5 240.3 239.2 235.6 231.4 224.4 221.1 218.6 217.2 217.1 220.4 223.9 226.4 231.6 236.3 240.9 245.2 251 254.5 256.9 274.3 291.5 304.5 314.8 322.3 324 316.2 307.9 300.1 288.8 279.8 269.9 258 249.6 242.7 238 245.9 248.8 253 263 273.5 283.4 288.2 287.1 286.5 283.5 283.4 284 282.9 286.5 287.5 282.7 275.7 272.7 268.4 265.7 254 265.3 261.5 255.9 261 269.1 275.4 283.4 295.4 309 324.7 336.6 347.3 357.5 364.2 366.6 361.5 359.2 358.1 357.3 354.7 349.9 342.1 331.6 321.1 314.7 309.2 298.7 287.8 277.9 269 261.9 255.2 248.5 243.2 235.1 224.9 215.6 209.8 204.4 199 196.6 195.4 196.3 196.9 192 189.9 188.5 188.5 188.4 188.1 187.8 188 187.7 187.3 187.1 186.9 186.8 186.2 186.4 185 185.9 185.7 186.3 186.2 186.1 186.3 185.5 185.7 186 186.3 187.2 189 191.4 189.6 192.7 190.1 199.7 203.5 205.5
413.2 409.2 405.7 400.7 395.5 391.8 388.7 385.3 382.1 378.2 373 370.7 368.6 365.7 360.5 352 345.3 338.1 326.4 317.7 312.2 308.9 305.6 302.7 300.5 297.2 295.2 290.4 290.6 291.6 294.8 299.1 300.8 304 308 310.9 310.5 309.6 309 306.3 301.9 295.7 290.5 272.1 283.6 287.6 292.2 295.9 296.6 294.1 290.9 284.7 278 269 261.2 252.9 244.5 240.7 238.2 239.9 236 236.7 240.3 249.2 253.5 256.1 259.1 257.3 254.5 247.8 240.2 231.9 228 226.3 230.3 235.1 240 245.3 251 255.3 261.9 265.9 274.1 277.8 291.3 307.3 321.9 323.2 324.4 320.2 309.7 300.5 291.9 281.7 272.6 263.1 254.2 244.2 240.7 248.9 254.2 263.2 273.2 283.8 293.2 299.1 298.9 298.1 295 291.5 292.8 296 292.8 288.7 293.8 293.5 286.4 280.2 273.6 268.8 269.2 271.4 271 270.4 270.8 268.9 280.2 289.9 296.6 305.7 322.3 335.3 346.3 357.4 366 371.7 369.3 365.3 363.5 361 358.2 354.3 347.9 340.1 329.4 323.3 318.9 310 298.3 289.1 281.7 272 265.5 261.2 254.9 247.6 240.2 232.8 222.1 212.1 203.4 200.9 199.1 201 201.6 200.5 200.4 197.2 189.7 188.5 188.1 187.8 187.7 187.8 187.3 187.4 187.1 186.9 186 185.8 186.3 185.8 185.4 185.6 185.2 185.2 185.5 185.5 184.9 185.5 185.8 185.8 186.5 188.7 187.8 188.9 187.9 194.9 200.3 202.3
417.1 413.8 410.3 405.7 400 396.2 393.7 391.5 387.7 382.5 378.7 376.3 372.8 369.4 363.2 355.6 348.1 338.9 333.8 330.1 324.8 317 310.5 308.2 304.8 302.8 302.9 300.9 300.4 302.2 305.4 309.8 315 319.8 322.8 326.2 324.8 318.7 316.3 311.8 306.3 297 286.4 285.1 292 295.4 300.9 304.1 305.9 305.5 303.6 299.5 291.2 283.7 273 261.9 252.3 245.1 246.5 246.5 242.7 246.8 255.4 266.9 269.7 276.5 280.1 284.5 280 278.4 272.6 262.3 251.4 251 250.9 254.2 259.9 266 267.5 271.5 276.2 281.3 290.5 297.3 306.6 319.8 327.7 323.7 321.6 315.1 301.7 293.9 283.5 273.7 265.6 257.3 249 247.1 253.2 258.8 270.4 281.1 292.3 300.5 307.9 310 306.8 303.9 301.1 299 301.2 301.4 297.9 294.2 300.8 302.9 297.6 288.1 278.3 276.3 275.9 276.3 278.6 279 277 280.6 280.9 290.8 297.8 307.8 318.7 331.8 344.8 354.7 366.2 373.4 373.4 370.2 369.4 366.9 363.7 359.3 354.3 346.8 339.5 334.1 328.4 319.6 309.9 302.2 293.9 285.4 277.6 273 267.5 256.4 252.6 243.9 236.1 224.2 216.4 209.9 202 202.4 204.2 205.3 207.3 207.3 204.9 199.5 192.5 191.7 188.7 185.7 187.6 185.3 187.3 187.2 187.2 188.4 188.1 187.3 185.3 185.5 184.8 184.8 185 184.9 184.4 185.6 185.2 185.5 185.2 185.4 186.9 188 186.6 188.6 194.7 199.2
419.5 416.8 412.8 408.3 404.1 399.9 396.1 393.8 390.4 387.3 384.5 380.8 379 374.6 365.9 356.9 352.6 349.4 343.4 337 327.4 322 318.3 314.3 310.4 311.2 311.7 312.7 311.8 313.4 317.3 322.7 326.6 332.7 334.3 334.8 331.5 326.5 321.7 316.9 311.2 304.9 288.4 292.5 299.1 303.5 308 311.7 314.9 315.6 315.2 310.4 303.4 294 282 267.5 257 254.1 257.3 246.4 257.1 268.8 279.9 288.4 289.1 290.6 300.2 305.7 307.6 302.6 298.5 292 284 280 278.2 279.7 279.4 287.6 285.9 290.3 294.6 302.1 309.2 312.5 319.5 325.1 326.3 321.9 315.8 305.9 291.2 283 274.8 264.3 257 251.9 254.2 254.4 262.8 273.1 286.9 300.4 307.3 313.2 317.7 316.4 313.4 311.1 307.1 304.9 305.1 304.7 298.1 300.7 307.2 308.9 301.6 290.5 285.4 283.6 282.8 285.2 286.3 286.5 284.8 287.2 292.3 294.2 297.9 307.4 317.7 330.3 341.9 355.9 369.2 376.6 378 375.6 375.2 372.8 368.9 364.4 360.4 354.3 346.8 341.5 334.7 326.2 319.8 312.8 305.4 298.3 291.2 283.4 277.6 270.4 265.6 257.9 246.2 237.9 229.2 222 216.8 210.2 206.5 208.6 211 211 210.5 210.8 205.8 200.2 196.5 192.8 189.5 188.4 187.1 188.3 189.8 190.6 189.7 189.1 188.1 184.9 184.2 182.9 184.4 184.2 184.8 185 185.1 184.8 184.6 184.8 185.2 186.2 186.6 185.3 192.6 195.8
419 417 413.8 409.9 405.3 401.4 398.3 396 393.2 390.5 388.4 381.3 379.6 373.6 365.5 361.4 358.1 352.5 345.8 336.3 331.2 329.7 326.3 323.2 319.8 319.8 320.2 323.6 325.3 325.4 326.4 331 334 339.1 341.9 341.3 337.1 331.8 327 319.5 312.4 305.5 288 296.7 302.3 310 315.4 319.3 323.3 325.5 324.9 320.9 314.4 302.8 288.7 273.6 259.9 265.1 266.4 256.3 269.5 280.9 291.8 299.6 299.7 301.2 310.3 316.8 324.2 331.5 322.3 315.9 313.1 311.4 307.8 308.5 307.8 312.5 305.8 312.5 319.5 320.8 323.5 328 331.9 331.3 326.7 319.3 308.3 293.5 282.8 271.4 262.9 264.6 263.9 264.3 263.3 259.4 274.5 285.6 299.7 312 319.8 324.9 327.8 323.9 319.8 316.5 311.5 309.4 307.6 304.2 303.3 309.4 311.8 312.5 301.5 297.1 294.4 294.4 292.4 293.9 294.3 293.9 294.1 297.6 300.7 303 308.2 315.2 323.2 334 345.8 360.5 373.5 380.2 382.8 381.8 381.3 378.2 374.4 369.2 364.5 359.6 353.6 347.7 341.6 334.6 328 322.8 315.8 308.6 300.4 293.8 288 282 274.6 268.4 260.8 251.9 241.5 233.3 226.9 218.6 215.6 213.7 211.6 212.6 213.5 212.3 208.4 205.9 201.1 194.3 190.6 190 189.6 191 192.4 192.2 191.3 191.1 189.1 185.2 184.3 184.2 184 184.3 184.4 184.6 184.6 184.3 184.1 184 184.2 184.1 183.6 183.7 184.8 192.8
415.3 414.8 412.5 410.8 406.7 403.2 400.2 396.1 393.3 390.3 386.6 381.1 377.9 375.1 369.1 363 358.1 352.9 347.1 342 340 337.6 337.3 335.1 333.2 333.3 333.1 333.9 334.2 333.8 335 339.7 343.7 347.9 349.1 347.7 342.1 336.1 328.1 318.8 309.4 298.2 297 303.8 309.7 317.8 323.7 328.5 331.1 333.4 334.1 331 323.1 311.1 294.5 278.8 271 271.5 268.9 263.4 278.6 291.1 298.9 307.2 310.8 311.4 316.3 322.9 330.8 341.9 347.9 347.7 348.1 357 342.4 335.2 331.2 331.6 327.1 330.5 332.1 333.5 337 339.5 337.4 329.9 321.5 308.6 291.5 281 275.7 275.9 277.8 277.8 274.4 277.1 274.7 273.1 281.1 293.3 308.3 321.9 331.2 336 336.7 333.7 325.6 318.7 312.6 309.4 307.4 309.1 311.3 314.8 316.2 312.3 307.8 306.9 304.8 303.7 304.1 303 302.4 301.9 302.2 305.5 309.4 310.9 316.6 323.3 333.3 344 358.4 369.6 378.9 385.9 387.8 387.6 386 382.5 378.5 373.5 368.3 362.9 357.7 352.2 346.9 342 336 329.4 325.1 317.1 308.6 301.8 294.1 289.7 284.5 277.8 271.7 262.3 253 245 237.2 230.4 225.8 222.1 220.1 216.9 213.6 211.8 210 209.3 205.7 201 195.9 194 192.1 192.5 194 193.9 193.5 192.4 191.8 190.9 190.1 190.2 184.4 183.4 183.9 184.2 184.3 183.9 183.7 183.5 183.3 183.6 183.9 183.2 183.2 188
404.7 406.8 404.6 402.9 401.9 399.9 397.6 394.7 390.9 387.9 384.7 383.8 380.9 374.6 369.9 364.7 360.9 356.6 353.7 352.2 351.4 351.1 351.1 351 347.7 346.3 342.9 343.4 343.1 345.1 346.5 349.3 352.2 356.5 355.3 352.1 346.1 335.6 324.9 315.8 307 297.4 306.1 311.3 318.6 327.2 330.4 335.6 338.7 341.6 342.7 340.9 330.8 314.2 298.2 283.9 277.6 276.8 272.2 268.2 286.4 298.1 306.6 314.5 320 322.4 322.5 329.3 336.4 345.5 363.4 379 379.3 384.2 371.7 356.5 349.4 344.4 342.6 342.6 343.5 345.7 345.8 341.7 332.3 323.3 310 304.6 301.5 292.5 288.9 291.6 290.9 287.6 285.2 286.5 285.7 283.2 283.7 297.9 308.3 323.8 340.1 347.2 345 336.4 327.5 317.9 313.5 311.3 313.2 314.8 319.5 321.9 323.1 321.5 319.9 317.6 314.6 314 314.4 313.6 313.1 315.8 317.8 318.9 322.5 328.2 337.6 344.6 351.7 362.9 371.7 381.3 386.8 391.4 392.1 391.1 389 385 380.3 374.9 370.3 364.8 359.6 354.3 349.8 345.6 341.6 336.3 330.8 323.8 315.7 308.3 298.6 292.3 289.2 285.8 277.7 270.7 263.7 256.3 248.1 241.7 236.3 231.4 227.8 220.8 216 211.3 208.3 205.9 203.9 201.5 199.9 199.2 198.6 197.8 195.8 195.4 194.7 193.9 193.1 192 189.7 189.5 188.7 183.8 182 184 184 183.6 183.4 183.3 183.2 183.5 183.3 182.7 182.8 184
404.2 400.6 399.2 398.5 397.8 396.7 394.2 391.1 387.7 386.3 384.3 385 381.1 375.6 372.4 370.4 368.5 365.5 364.4 364 365.5 365 364.5 362.8 360.2 358.5 355.1 353.4 353.3 355.2 358.3 360.1 361.4 363.5 360.1 355.3 347.8 336.7 324.9 315.9 310 309 313.5 322.6 329.4 335.6 338.9 341.6 346.2 348.7 351.6 350.3 338.5 320.2 304.8 288.5 282.1 279.5 267.5 277.4 285.3 303.5 312.3 320.5 326.4 329.8 331.4 334.9 341.8 351.7 368.8 385.4 395.7 398.8 396.2 374.1 363.7 356.3 353.8 353.4 352.7 352.8 348.4 338.7 335.1 329 325.5 322.5 319 301.6 305.4 303.3 300.2 299 298.4 299.4 298 289.8 287.3 290 299.3 317.6 342.5 351.4 347.8 338.9 328.7 321.8 319 321.6 321.5 323.7 327.4 332 336.4 333.9 331.5 328.5 327.6 328.5 327.3 328.3 334.3 337.9 340.6 342.6 346.6 350.2 356.7 362.7 370.2 377.5 383.9 390.4 394.1 394.7 393.4 390.9 388.5 384.2 379.5 372.6 367.6 362.2 357.5 352.1 347.6 344.6 340.4 337.1 332.8 327.4 320.4 313.1 305 295.7 292.4 288.6 283.2 277.5 270.7 265 257.5 250.7 245.6 240.4 234.7 226.5 218.5 214.4 209.9 206.3 203.8 202.3 200.9 201 201.8 200 197.3 196.6 195.8 194.8 194.1 193.1 192 190.4 187.8 184.1 183 183.2 182.7 183.4 183.3 183.1 183 183.2 182.4 184 183.4 183.6
398.6 396.3 395 394.4 390.5 391 388.2 387.1 387.2 389.9 387.5 387.4 384.1 381 378.3 377.1 376.7 374.8 374.6 375.8 376.2 375.4 373.1 371.7 369.4 367.3 366.6 365.3 364.6 364.4 368.1 367.6 369.2 367.6 362.9 356.7 348.6 339 328.3 318.9 309.3 316.1 324.4 331.9 337.5 342.7 346 348.5 352.6 356.3 359.1 356.6 342.2 326 309 293.5 285.4 276.2 280.5 282.2 288 307.4 317.7 327.2 332.1 336.1 339.6 343.8 351.9 362.3 377.6 392.5 404.4 408.4 407 385.8 372.5 367.9 365.2 362.1 357.6 353.8 350.9 351.8 349.6 347.9 349.2 340.6 319.1 328.9 323 314.9 313.9 315.1 315.6 315.5 313.5 294.8 296.5 297.8 301.2 317.5 340.4 353.9 349 343.4 337.2 335.5 336.1 335.3 331.5 333.7 337.1 341.8 345.5 346.8 346.5 343 345.3 347.2 346.6 349.4 355 357.1 359.5 362.5 365.5 367.3 372.5 378.1 384.6 389.3 394.9 398 398.7 395.9 392.1 388.6 384.4 379.9 374.2 367.7 362.7 357.6 352.1 346.2 340.7 336.4 333.2 329.2 326.1 321.3 317 312.1 306.7 300.3 295.4 291.4 286.8 280.3 274.9 269.3 262.7 255.6 250 243 236.7 228.9 221 217.1 212.9 210.2 207.5 207.7 205.3 204.1 202.1 199.1 201.3 200.1 198.5 196.4 195 194 192.5 191.4 190.2 189.3 188.4 183.3 183.1 182.5 183.3 183.1 182.9 182.6 183.7 186 190.5 187.2
394.1 392.1 391.1 390.9 391.8 389.5 387.4 387.2 387.5 390.4 390.7 389.9 388.4 387.1 385.7 383.8 384.4 383.9 385.2 385.1 384.1 383.1 380.4 379.3 376.9 376.5 375.4 375.5 374.7 375.3 376.3 374.8 374.7 371.8 366.7 358 350.9 341.7 330.3 320.6 323.2 324.6 331.7 337.9 343.7 349.2 353 356.1 359.1 363.5 364.4 358.6 344.8 330 312.6 298.5 287.8 286.4 285.9 285.9 291 307 319.4 331.8 338.7 344.4 348.7 354.8 366.2 378.2 390.8 403 410.2 413.6 413.5 395.1 384.7 378.8 372.6 365.7 361.7 363.5 367.2 369.7 369.5 365.3 359.8 348.1 340.5 342.9 337.5 334.5 333.7 335.8 336.3 336.2 325.8 307.2 311.9 317.9 318.4 324.1 344.2 356.4 356.1 355.6 353.6 353.7 351 349.5 343.9 344.7 350.2 352.5 352.6 355 358.2 361.2 367.2 369.6 368.6 369 372.5 373.9 375.2 376.7 378.6 381.4 386.7 392.5 395 398.1 401.5 402.2 400.6 394.5 388.6 384 379.5 375.3 369.5 362 356.4 351 344 337.9 332 326.9 323.2 319.3 316.9 313.8 308.9 303.3 296.9 295.3 291 286.1 279.6 275.6 271.8 268.1 263.2 254.9 247.3 241.1 234 227.6 222.3 217.5 214 212.8 210.9 210.6 208.7 204.2 201.3 202.7 205 204.1 201.4 199.3 196.1 193.6 191.8 190.2 190.2 187.8 186.7 185.3 182.7 182.8 182.9 182.9 182.9 182.7 183.4 182.2 184.7 184.9
388.5 386.7 387 389.2 393.4 393.7 388.9 388.7 390.7 393.6 396 394.3 392.5 391.5 390.1 390.2 392.1 391.7 392 390.8 390.5 390.2 387.8 386.4 385.1 383.9 383.7 384.2 383.3 383.4 383.2 381.4 379.7 376.5 371 360.8 350.7 340.9 332.4 331.8 335.1 334.2 339.3 344 350.4 356.2 361.2 363.6 367.3 370.1 367.2 361.9 349.3 332.5 313.7 301.3 292 292.8 292 293.5 297.6 310 324 335.7 345.8 353.1 359.5 368.1 378.7 390.4 399.1 407.4 416.5 419.9 411.9 400.6 394.8 386.4 376.9 375 374.7 376.8 382.1 382.3 380.8 374.1 365.7 349.5 354.7 355.2 357.4 359.1 359.2 357.9 354.9 352.6 330.7 324.8 329.2 331.9 337.9 340.7 349.8 360.5 365.8 367.6 367.8 368.6 365.1 359.9 357.1 352.7 361.9 365.6 367.6 370.8 374.9 379.5 383.8 385.2 383.1 385.1 386.8 387.6 387.9 389.3 391.2 393.7 399.3 402.3 403.2 405.2 406.5 404.6 401.3 396.4 389.5 382.2 374.7 368.2 363 353 346.1 340.9 333.2 325.6 320.8 312.7 311.8 307.5 304 299.7 295.3 292.9 289.2 282.9 277.9 274 270.1 265.5 262.3 256.9 252.3 246.7 241.2 236.9 233.1 230.9 226.7 221.6 216.4 212.5 209.6 207.5 205.9 204.6 205.6 205.8 207.2 206.4 203.8 200.8 198.9 194.7 194.7 195.2 191.3 189.8 188 185.9 183.5 183.9 181.5 182.2 182.2 181.8 182.7 183.3 183.6 185.3
383.8 382.8 385.2 389.8 394.2 397.6 395.7 391.8 394.1 397.5 400.1 397.2 395.2 394.4 394.6 394.9 395.4 395.5 396.5 397 396.7 396.7 395.3 393.1 392 391.5 390.5 390.8 388.7 389.7 387.7 386 382.8 378.6 371 361.1 349.6 344 343.6 343.2 344.1 343.2 347.1 350.4 358 364.1 369.1 371.9 374.9 374.2 371.9 365.2 350.3 338 321.7 307.3 289.5 298.5 298.7 300.4 301.4 313.4 327.4 341.7 353 360.9 370 380.5 388 397.2 408.7 418.3 422.7 419.9 411.1 402.8 396.3 389.7 384.1 380.4 384.5 391.1 394.6 392.9 386.9 377.9 366.6 364 369.9 374.8 378.6 375.5 373.9 372.3 368.9 360.7 332.4 342.5 349.6 348.5 350.6 353 358.6 369.4 374.6 377.4 378.6 378.4 375.4 373 367.5 362.2 375.4 381.6 385.6 388.8 390.2 392.8 395.6 395.2 394.8 399.4 400 399.2 399.2 401.3 403.8 406.9 410 409.5 409.5 409.5 408.5 405.9 401.3 398.4 391.1 383.8 378.3 373.8 365.7 363.9 359.8 354.8 347.5 338.2 331.4 325 315.3 306 294.1 286.3 283.2 279.8 276.1 271.7 267.4 263.9 261.2 256.9 252.8 249.4 245.2 240.2 236.2 231.7 229.5 230.9 228.6 223.8 217 211.2 215.6 216.7 216.8 217.3 213.6 208.7 209.1 208.2 206.4 203.6 201.5 199.8 197 197.7 196.2 191.6 190.5 188.2 186.4 185.1 184 183.5 182.6 181.9 180.4 182.9 184.6 185.9
376.3 379.4 383.9 389.8 393.4 396.1 395.7 395.6 397.2 400.4 401.9 399.7 397.7 395.9 395.3 395.5 396.5 398.1 400 401.7 401.1 401.9 401.2 398.4 397.3 397.1 395.3 395 393.9 392.6 390.7 388.1 384.3 378.2 371.3 362.9 357.7 356.7 355.4 352.4 352 352.4 355.4 359.8 365.2 371 375.1 378.9 380.9 378.2 374.5 367.6 359.2 343.6 326.1 311.1 294.8 304.5 304 305.7 309.9 318 330.7 346.9 358 367.6 376.1 385.8 399.4 412.4 419.6 424 424.8 421.2 414.7 405.6 399 393.9 390.2 387.3 394.9 401.8 402.7 397.8 390.2 381.5 368.8 376.9 383.7 387.5 389.6 386.4 385.1 382.3 378 366.6 355.9 366.4 360.8 365.1 366.9 366 370.3 378.2 383 385.6 386.6 386.5 385.3 382.8 375.1 371.6 386.4 393 397.9 402 403.9 402.8 403.4 402.8 404.3 407.5 407.8 407.5 408.4 412.1 414.2 416.6 416.1 414.5 413.1 411.7 409.3 406.7 403.4 399.4 394.1 390.4 386.1 379.8 375.7 372.6 366.3 362 356.4 347.5 342.4 335.4 325 314.1 303.8 295.9 286 279 272.2 266.7 260.7 253.7 251.8 247.8 246.5 243 239.3 233.4 229.6 226 223.6 223.2 220.7 217.6 217.4 223 224.7 228.4 225.7 223.3 218.9 212.4 212.8 213.4 211.2 208.8 206.7 206.2 203.2 199.1 199.6 196.1 191.7 190.4 189.3 187.2 186 183.5 182.2 181.9 181.9 184.4 186.8 186.4
372.7 378.2 385.1 389 392.1 395.2 397.7 397.6 398.7 399.5 400.4 399.7 398.3 396.2 395.4 395.7 396.8 399.4 402.5 404.9 404.9 404.3 403.3 402 400.9 400.5 398.6 396.9 395 392.9 391.2 388.8 385.5 379.1 375.3 371.6 367.7 366.1 362.5 360.2 359 360.1 362.2 365.6 371.9 376.4 381.2 384.6 386.4 382.6 380.2 374.7 367.2 352.9 334.5 317.7 305.2 309 308.7 310 315.2 324 336.7 350.9 361.9 371.8 382.3 398.9 412.8 423 426.4 429.1 429.4 424.1 418.8 409.5 402.5 397.9 394.1 395 402 410.1 407.5 401.6 396.3 387.2 381.8 386.6 394.1 396 397.2 395.6 393.4 393 385.2 373.9 375.3 379.7 370.9 376.6 380.3 379.3 383.1 387.4 390.5 392.5 393.8 393.5 392.6 389.5 380.7 381.6 395.5 400.4 404.7 409.2 410.3 410.1 408.7 407.6 407.8 411.1 412.3 413 414.8 415.5 416.9 418.1 416.9 415.5 414.1 412.2 409.8 407 402.9 398.6 395.2 393 389.9 385.7 380 376 372.6 368.1 361.7 356.3 350.9 344.2 335.3 323 313.6 300.8 292.8 285.4 277.3 270.9 264 257.4 251 246.3 240.8 236.9 232.9 230.1 229.6 225.3 226.1 229.5 229.4 230.3 234 234.1 235.2 233.6 230.9 227.8 220.5 219.4 216.3 215.6 215.9 215.6 214.4 212.7 209 203 198.4 195.9 192.1 190.1 188.1 187.5 185.2 182.6 181.8 181.7 180.1 182.3 186.5 188.2
368.8 374.3 379.5 384.2 389 393.4 397.3 399.1 399.5 399.1 398.8 399 397.3 395.2 393.7 393.6 394.6 396.5 400 402.7 403.6 403 403.6 403.2 402.2 400.1 398.6 395.8 394.1 391.5 389.7 388 385 382.7 380 376.1 373.1 372.6 370.3 366.4 366.2 366.6 369.8 372.1 376.6 381.4 386.9 391 391.5 388.8 386.6 381.4 373.2 362.5 342.6 323.1 312.3 313.8 314.2 316.6 321.9 332 343.1 356.6 367.1 379.3 396.1 410 421.5 428.8 431.7 432 430.2 426.3 419.8 411.5 403.2 398.7 397.1 399.9 406.3 414.3 411.1 406.8 401.7 392.1 392.8 396.9 400.5 401.8 403.7 403 400 400.2 392.4 390.6 391.8 388.7 386.1 383.8 387.4 388.1 391 395.3 397.3 398.7 399.2 399 398.1 395.5 385.9 394.1 401.3 404.7 407.4 411.5 412.7 412.4 410.9 408.9 408.3 410.6 412.5 412.5 412.4 412.8 413.5 414.4 414.8 413.7 412.7 411.1 409.6 406.7 403.6 400.7 398.5 395.7 393.3 389.6 384.5 381.3 377.7 373.2 369 363.5 357.2 349.5 339.5 331.5 321.1 308.4 298.9 289 278.9 271.7 264.6 258.3 251.5 247.3 241.6 239.9 238.6 236.1 231.6 233.2 237.4 241.4 244.1 245 242.5 239.5 234.9 233.6 232.6 231.1 227.5 222.8 220.5 219.2 220.9 220.5 219.1 214 211.5 204.4 198.6 197.2 193.4 190 187.2 186.9 184.9 183.2 181.6 181 191.3 188.9 188.7 189.5
360.9 366.4 371.2 379.3 386.2 390.7 395.1 398.7 399.6 398.5 396.7 396.1 395.4 393.4 392 391.1 391.2 392.6 394.3 396.6 397.8 398.4 400.1 400.2 398.5 395.9 394.4 391.4 389.8 387.8 386.1 385.2 384.7 383.3 383.4 380.4 377.6 377.4 375.2 371.4 371.7 372.8 374.9 377.4 381.6 387.8 393.5 397 397 395.6 391.8 385.7 376.5 366.2 347.6 328.9 318.7 319.1 322.8 326.2 336.1 342.8 351.2 367 378.2 391.1 404.7 417.1 426.9 431.7 433.1 431.9 429.3 423.3 415.6 408.6 402.5 397.8 396.6 400.3 408.5 417.9 413.1 407.5 401.6 399.7 403.4 404.1 405.5 407.7 408.8 407.7 406 405.9 399.7 401.6 400.9 400.4 396.3 393.5 396.6 398.8 401.3 401.9 401.7 402.2 402 402.1 401.4 399.6 397.9 400.1 403.3 405.6 408 410.6 412.2 413 411 408.3 406.7 407.5 408.1 408.1 408.1 407.8 409.8 412.1 412.8 411.9 410.9 409.7 408 406 404 402 400.7 399 397.3 393.6 389.4 385.6 382.4 378.2 374 367.7 362.2 354.3 346.8 337.3 327.7 313.2 300.7 289.6 278.8 271.7 264.8 256.2 252.7 248.5 247 245.6 244.8 243.5 233.4 245.8 249.4 252.2 253.3 252.2 247.3 243.4 238.4 236.2 235.1 239.5 241.1 227.7 221.9 219.9 221.4 221 217.9 214.2 208.6 201.8 199 197.5 194.2 192.8 188.5 186.8 186.5 185 181.6 181.3 198.8 187.5 190 189
355.3 359.4 364.3 372.4 381.7 388.4 392.8 396.1 397.8 397.9 395.9 393.7 393.4 392.7 390.4 389 388.4 389.1 390.4 390.2 391.5 391.7 392.6 392.1 390.4 387.9 387.3 385.3 384.7 383.9 382.1 382.6 382.4 383.4 385.5 383.7 381.3 379.9 377.9 375.4 376.5 377.1 379.2 382.3 388 393.2 399.9 403.4 404.3 402 398 389.1 379.7 369.1 352.4 336.2 324.1 326.4 333.1 339.4 351.2 361.7 363.5 376.7 388.8 398.6 412.7 424.3 430.7 433.7 434.2 429.9 424.7 418.7 411.1 404.5 398.2 393.8 393.3 397.6 408.3 416.3 412.7 408 404.4 406.9 410.1 409.5 409.7 412.3 413.3 411.4 410.4 408.8 406.9 407.2 407.3 407.7 405.9 399.4 402.6 407.4 407.3 405.7 404.4 402.6 402.1 401.6 401.8 401.3 400.8 401.4 402.7 404.1 406.1 408.9 410.8 411.2 410.1 406.9 403.7 403.3 403.6 402.8 402.4 402.7 404.6 408.5 410.6 410.3 409.3 408.4 406.9 404.7 403.4 402.7 402.3 402 400.4 397.1 393.3 390 385.9 382.6 378.2 372.5 367.1 360.6 352.5 342.3 329.9 314.9 299.9 288.3 277 270.5 263.7 259.2 256.6 254.3 253.6 253.1 254.1 254.6 242.4 257.8 260.9 260.7 258 254.4 249.9 246.9 242.9 242.3 243 249.4 246.4 229.3 223.4 222 221 219 217.2 213.9 211.7 204.8 199 195.7 193.4 192.7 191.7 192 190.5 188.5 181.5 181.2 188.5 195 194.4 190.4
348.9 352.3 356.7 365.1 374.7 384.3 391.5 394.8 396 396.2 394.9 393 392.1 391.4 390.3 388.6 386.2 386.1 385.8 383.9 383.4 382.7 381.6 381.4 381.3 381.1 380.5 379.8 378.6 378.4 377.2 378.2 379.6 382.1 385.7 385.1 383.8 382 380 379.4 381.4 383.5 386.1 390 394.3 399.9 405.2 408.5 409.4 407.9 406 393.2 384.9 374.9 358.1 341.9 330.7 336.2 345 350.2 366.5 375 382.2 388.1 396.4 405.9 419.2 430.9 435.8 437.2 433.5 427.4 420.4 414 407.5 400.9 394.7 390.2 390.9 396.9 408.9 416 413.9 409.6 407.5 412.2 414.7 413.1 413.5 415.8 416.3 414.2 413 412.1 412.1 412.5 413.4 413.1 410.4 409.4 411.9 412.5 410.5 407.2 403.9 401.9 400.9 399.6 400 401 400.1 398.2 399.5 401 403 405 406.6 407.3 406.8 404.2 400.2 396.4 397.5 396.7 395 396.1 399.8 404.9 409.1 410.1 410.4 408.4 404.8 402.6 400.7 400.9 401.7 401.9 400.7 398.8 396.6 393.7 390.5 387.9 382.7 379.4 374.2 366.9 357.3 343.6 331.1 316.8 300.7 287.3 277.3 270 266.3 264.2 262.9 264.4 265.4 265.4 264.9 264.6 253.9 251.9 267 265.5 260 256.5 253.2 249.8 248.7 249.5 250.5 250.8 247.3 229.3 222.2 221.8 222.1 219.8 216 209.3 209.8 207.6 204.6 200.9 197.4 195.4 195 196.4 195 189.9 186.2 180.1 180.7 184.5 189 188.9
343.9 347.7 353.5 361 370.7 379.9 389.4 393.9 396.1 396.4 395.2 393.7 392.2 390.6 388.4 386.3 383.7 380.8 378.6 379.2 379.1 378.4 376.7 376 375.6 375.6 374.5 372.3 371.5 372 372 372.7 373.9 379.5 383.2 383.7 383.5 383.7 385 387.4 386.7 388.9 391.4 395.9 401.2 404.9 409.7 411.5 412.9 413 408.2 399 390.6 381.5 366.4 349.2 342.9 348.3 358.1 363.3 377.1 386.4 392.8 396.7 401.6 410.3 422.7 433.3 437 436.2 431 424.2 417.3 410.2 403.9 398.2 391.1 387.7 389.6 397.2 407.2 416 413.9 410.7 411.8 415.4 417.5 416.2 417.1 417.8 417.8 414.7 414.1 413.6 414.8 417.2 417.6 415.2 413.2 415.2 416.3 414.6 411.2 406.5 402.7 400.7 398.7 397.1 396.1 397.1 395.9 393.3 395.2 396.8 398.5 400.2 401.8 402 401.3 398.9 396.2 390.3 388.6 388.1 387.7 389.5 395.8 404.1 409.2 410.8 410.2 408 403.8 399.3 397.1 397.8 398.5 399 398.1 397.8 397.8 397 395.4 392.4 389.2 385.5 379.9 369.6 359 345 331.9 316.5 301.9 286.3 276.7 271.5 273.3 271 271 273.1 275.6 274.4 273.4 271.3 269.5 252.6 268.1 266.9 261.1 257.1 253.7 251.7 251.7 251.1 249.6 245.2 237.9 229.5 220.5 216.5 213.8 213.7 211.1 209.9 208.4 205.7 208.4 206.8 205.8 203.8 199.3 201.8 202.1 196.6 190.4 186.6 181.4 180.6 180.3 178.6
336.1 341.7 349.6 357.3 366.3 377.1 386.2 390.7 393.9 395.7 395.5 393.4 391.4 389.1 385.9 382.8 380.1 377.6 376.6 376 375.8 373.2 371.8 372.1 371.9 370.7 368.8 367.4 367.3 366.9 367.1 367.4 368.9 374.4 378.5 382.3 385.5 387.1 391 392.8 391.8 394.1 397 401.8 407.4 409.6 411.9 413.6 415.3 415.6 411.1 404.4 396.9 387.6 372.1 359.3 355.3 359.5 367.2 374.3 385 393.5 398.7 401.5 404.5 412.6 424.4 432.6 435.5 432.8 429.7 423.2 415.8 407.8 401.8 396.1 390.6 386.8 389.4 397.7 408.1 415.9 414 411.9 413.5 417.1 419.7 419.1 418.5 419.5 417.8 416 414.3 414.3 416.7 420.2 418.6 414.9 412.3 413.9 416.4 414.4 410.1 405.7 402.4 400.3 397.6 395.9 393 393.1 391.7 386.5 390.3 392.3 393.1 394.2 394.3 393 394.4 393.8 391.4 384 376.5 378.4 380.9 384.2 392.3 404.3 409 409.1 407.2 404.4 400.7 396.7 390.7 392.2 394.5 394.7 393.7 395.4 398.6 399.8 398.6 396.1 393.8 389.4 379.7 369.4 358 343.6 330.1 317.6 300.4 288.9 278.6 281.3 281.6 280.8 282.7 283.2 284 283.5 280.2 277.8 276.9 261.4 267.2 266.8 260.5 253.4 244.5 242.2 245.3 244.3 239.2 235.7 230.9 225.9 220.7 215.4 214.8 213.8 214.2 216.2 215.4 213.5 208.5 209.3 209.7 210 210.1 211 211 205.6 199.2 196.4 194.8 188.1 186 184.5
330.9 336 345.5 355.7 365.7 374.5 382.6 388.3 392.8 394.8 393.9 391.5 389.8 386.8 384.5 382 380.7 378.1 376.8 375.4 376.2 375.6 372.9 370.1 370.4 366.9 364.7 362.2 361.2 360.2 361.2 362.8 363.2 366.7 373 379.9 385.8 389.9 393.4 395.9 396 398.5 401.2 405.5 409.4 411.4 413 414.2 416.6 416.7 415 408 401.1 393.4 381 371.8 369.1 370.1 375.3 380.4 389.2 394.5 397 400.5 407.6 415.4 423.2 431.6 435.6 432.4 428.1 422.4 414.7 407.1 401.3 396.3 390.6 385.5 388.2 397.1 407.4 411.8 412.2 412.2 414.4 416.5 420.1 419.7 419.6 419.6 417.5 415.8 412.9 414.5 416.3 416.4 415.2 413.2 410.7 411.3 413.9 412 408.9 405 402.4 399.9 398 395.9 393.2 386.7 381.1 378.8 380.9 386.3 386.1 385.2 382.8 379.2 384.9 386.8 384.8 372.5 366.9 370.1 375.9 380.5 389.1 405 408.1 407.5 403.6 400.4 396.7 392.6 387.1 385.2 388.1 388.4 388.3 391.4 396.1 398.3 399.2 398.2 394.2 385.1 374.9 364.4 352.7 341.4 329.7 315.7 300 288.6 288.3 290.4 290.4 293.5 294.1 293.2 293.3 289.7 278.2 277.8 276.7 259.1 267 266.4 259.4 253.3 245 239.2 234.6 232.5 230.5 227.3 224.6 223.9 222.8 221.8 220 220.1 222.8 223.6 222 218.7 215.2 214.8 213.8 214.6 213.6 212 211.9 208.7 207.2 202.6 200.6 198.7 196 193
325.7 332.3 344.7 356.4 364.7 372.2 379.5 385.2 389.7 393 393.6 392.4 389.6 386.7 383.5 382.1 379.2 378.1 377.1 376.1 378.6 381.2 375.5 371.7 372.7 371.2 367.4 364.6 362.4 359.7 355.7 356.8 359.4 363.4 369.5 377.4 385.7 391.6 394.3 395.4 396.9 399.2 402.2 405.5 409.8 409.4 409.8 412.4 413.9 413 410.5 407.9 404.4 397.7 385.8 379.5 376.7 376.7 378.9 383.3 388 390.8 395.5 401.6 412 417.5 424.4 432.9 434.6 432.4 428.8 424.1 416.8 408.9 402.1 396.9 390.1 383.3 384.4 394.5 404.1 408.6 410 411.4 414.4 416.9 420 420.4 419.4 418.5 414 410.8 409.9 411.1 412.8 413.6 414.2 412.4 410.1 409.5 410.3 409.5 408.1 406.3 403.7 401.2 399.1 397.6 397.9 393.4 387.7 379.4 367.2 375 378.9 374.7 371.9 370.3 369.3 376.2 373.2 363.3 360.5 369 373 378.2 388.6 404.4 408.9 406.7 402.1 397.1 392.8 388.1 382.5 376.5 379.3 381 380.9 385.3 391.4 394.3 393.9 392.2 387.7 380.3 371.5 360.9 349.9 338.2 326.7 311.6 298.7 297.6 298.9 299.9 300.6 306.4 305.1 301.2 296 288.4 282 277 269 259.3 268 264.2 264.8 262 257.2 251 240.8 238.6 236.4 233.8 231.8 229.4 227.4 226.6 224.7 227.5 229.8 229.9 227.7 223.4 221.8 220.3 217.8 218.2 216.3 213.9 211.9 211.6 208.5 205.4 200.6 198.8 196.6 195.7
