ncols 200
nrows 85
xllcorner 100000
yllcorner 910900
cellsize 50
-1.9 -1.9 -1.9 -1.9 -1.9 -1.9 -1.9 -1.9 -1.9 -1.9 -1.9 -1.9 -1.9 -1.9 -1.9 -1.9 -1.9 -1.9 -1.9 -1.9 -1.9 -1.9 -1.9 -1.9 -1.9 -1.9 -1.9 -1.9 -1.9 -1.9 -1.9 -1.9 -1.9 -1.9 -1.9 -1.9 -1.9 -1.9 -1.9 -1.9 -1.9 -1.9 -1.9 -1.9 -1.9 -1.9 48.3 68.3 67.3 51.5 52.8 86 89.6 140.6 153.9 162.4 164.1 163.1 140.9 121 140.3 135.5 145.7 157.6 178.8 220 243.1 251.7 242.7 234.4 224.9 223.8 216.6 204.4 193.7 188.8 179.3 177.7 175 165 162.7 161.3 159.5 154 132.8 127.3 138.8 134.3 130.6 130.4 125.8 126.7 132 131.2 119.9 118.8 118.8 118.8 118.8 118.8 118.8 118.8 118.8 118.8 118.8 124.6 134.3 139.7 141.4 129.4 125.4 112.9 100.6 92.5 89.5 90.5 90.9 96.4 104.8 112 118 119.8 119.8 109.6 106.2 103.9 98.6 95.2 97 92.8 91.2 93.2 92.1 96 103.9 107.3 113.6 124.3 147.2 160.4 187 215.1 224 216.9 210.1 210.6 204.9 196.9 186.6 173.8 160.6 143.1 125.2 99.9 80 61.1 57 55.8 56.3 55.8 65.2 61.2 61 61.9 58.6 56.7 55.8 50.7 50.5 50.1 48.8 47.4 49.5 46.2 48.4 49.1 55.2 51.3 58.3 63.2 70.2 73.4 88 105.5 125.2 131.4 141.6 149.7 155.1 147 149.1 170.7 185.1 191.5 200.3 200.9 193.2 178 161.9 145.5
-1.9 -1.9 -1.9 -1.9 -1.9 -1.9 -1.9 -1.9 -1.9 -1.9 -1.9 -1.9 -1.9 -1.9 -1.9 -1.9 -1.9 -1.9 -1.9 -1.9 -1.9 -1.9 -1.9 -1.9 -1.9 -1.9 -1.9 -1.9 -1.9 -1.9 -1.9 -1.9 -1.9 -1.9 -1.9 -1.9 -1.9 -1.9 -1.9 -1.9 -1.9 -1.9 -1.9 -1.9 -1.9 22.5 69 74 79.4 77.9 111.1 133.9 130.6 144.4 155.9 169.9 166.8 166.2 155.7 124.6 129.6 129.7 138 149.3 173.4 202.3 226.2 237 237 228.1 213.8 208.8 204.5 192.9 185.8 186.7 171.3 174.1 170 160.2 155.1 162 154.9 149.7 126.2 124 126.2 128.4 131 126.2 124.5 123.9 127.7 124.7 118.8 118.8 118.8 118.8 118.8 118.8 118.8 118.8 118.8 124.5 127 118.8 134.6 147 144.3 136.6 129.6 113.4 103.2 93.9 91.4 93 92.3 97.4 105.5 116.8 124.3 123.6 119.7 109.2 106.4 102.8 99.7 98.5 99.1 103.1 107.4 106.4 106.7 112.5 118.7 131 133.8 137.7 132.8 147.3 180.2 191.3 204.7 210.1 207.2 204.5 202.5 195.5 184.6 170.2 157.9 141.2 124.2 103.2 81.1 60.9 58.7 57.7 57.6 58.4 60.8 59.3 59.5 57 56.5 55.7 54.1 56.2 50.8 50.5 48.4 47 47.3 45.9 47.7 50 52.5 54 58.7 69.1 76.5 81.8 85.1 99.5 124.1 129.6 145.1 152.5 156.4 152.2 151.2 168.2 182.4 194 200.5 199.6 193.7 180.8 162.7 144.8
-1.9 -1.9 -1.9 -1.9 -1.9 -1.9 -1.9 -1.9 -1.9 -1.9 -1.9 -1.9 -1.9 -1.9 -1.9 -1.9 -1.9 -1.9 -1.9 -1.9 -1.9 -1.9 -1.9 -1.9 -1.9 -1.9 -1.9 -1.9 -1.9 -1.9 -1.9 -1.9 -1.9 -1.9 -1.9 -1.9 -1.9 -1.9 -1.9 -1.9 -1.9 -1.9 -1.9 -1.9 -1.9 29.9 55.1 72.2 84.1 103.5 110.4 124.3 130 135.6 147.9 157.8 162.6 161.7 151.8 133 127.4 129.8 129.6 145.3 164.2 177.2 207.3 218.2 217 219 206.3 196.8 192.6 185.2 183 182.5 177.3 167.4 166.7 153.9 149.8 144.6 141.5 138.1 121.7 118.8 125 125 123.5 121.9 121.2 122.6 122.2 120.6 118.8 118.8 118.8 118.8 118.8 118.8 127.7 125.5 118.8 118.8 132.6 132.4 133.3 147.2 142.7 139.2 127.2 115.3 103.2 98.8 93.7 94.6 93 97.4 106.7 114.8 120.9 122.1 120.1 114.9 108.9 108.3 103 105 110.1 114.8 123.8 130.9 136.3 138.8 135.5 141.6 154.5 159.9 157 150.9 147.7 175.7 185 192.5 195.7 199.8 198.7 191.6 179 165.7 153.9 140.2 119.3 100.5 80.8 70.4 60.5 58.2 58 61 62.2 57.3 58.6 55.4 54.1 54 53.3 57.1 52.6 49.6 48.1 47.9 48.3 48.8 48.4 52 53.6 61.8 58.5 66.5 71.5 81 86.1 93.7 106.6 120.5 134.9 146 152.8 154.4 154.4 161.2 181.6 193.5 201.3 199.3 191.7 177.2 161.1 146.3
-1.9 -1.9 -1.9 -1.9 -1.9 -1.9 -1.9 -1.9 -1.9 -1.9 -1.9 -1.9 -1.9 -1.9 -1.9 -1.9 -1.9 -1.9 -1.9 -1.9 -1.9 -1.9 -1.9 -1.9 -1.9 -1.9 -1.9 -1.9 -1.9 -1.9 -1.9 -1.9 -1.9 -1.9 -1.9 -1.9 -1.9 -1.9 -1.9 -1.9 -1.9 -1.9 -1.9 -1.9 1.9 33.2 56.7 75.1 110.8 137.2 140.1 140.4 143.4 148.5 160.1 159.1 165 157.7 147.5 137 128.2 129.9 128.2 136.9 144.7 153.7 173.6 178.8 186.9 182 178.6 173.7 176.6 173.6 181.3 186 177.7 169.5 161.9 151.6 141.3 137.2 135.7 130.9 119.8 118.8 121.6 122.3 118.8 119.7 119.3 118.8 118.8 118.8 118.8 118.8 118.8 118.8 118.8 118.8 121.4 120.7 118.8 118.9 120.9 133.1 134.2 141.6 138.5 135.2 131.6 120.6 111.6 104.5 96.3 96 95.3 98 108.6 115 120 121.2 119.1 115.2 114.6 110.8 112.1 118.6 120 133.2 143 152.8 160.5 171.4 175.2 176.9 181.5 185.6 174.3 166.8 162.2 155.3 176.4 184.4 187.8 191.7 187.5 181.8 173 161.1 147.4 132.9 116.3 93.6 80.7 71.7 66.3 61.2 58 58.7 63.7 61.9 57.3 54.8 53.1 53.7 52.4 53.2 56.3 60 50.2 49.4 49.3 52.1 56.4 52.8 56 60.5 61.7 65.6 72.1 78.5 90.6 95 99.2 113.1 123.8 135.4 146.4 153.2 156 159.2 173.1 189.2 205.7 209.6 197.1 181.3 165.9 147.9
-1.9 -1.9 -1.9 -1.9 -1.9 -1.9 -1.9 -1.9 -1.9 -1.9 -1.9 -1.9 -1.9 -1.9 -1.9 -1.9 -1.9 -1.9 -1.9 -1.9 -1.9 -1.9 -1.9 -1.9 -1.9 -1.9 -1.9 -1.9 -1.9 -1.9 -1.9 -1.9 -1.9 -1.9 -1.9 -1.9 -1.9 -1.9 -1.9 -1.9 -1.9 -1.9 -1.9 -1.9 30.1 41.7 70 87.8 123.6 155.6 156 161.4 177.4 191 217.5 218.8 235 214.3 161.4 140.4 133.5 131.2 128.7 129.9 134 136.8 142.8 150 154.2 156.8 150 149.7 155.9 163.2 175.9 177.2 173.1 164.8 157.9 149.5 143 133.4 128.2 124.2 118.8 118.8 118.8 119.7 125.9 123.8 121.2 118.8 119.5 119.1 119.5 126.3 121.4 118.8 121.7 123.6 118.8 118.8 118.8 118.8 118.8 118.8 128.4 131.5 129.7 131.2 140.2 142.3 131.4 115.7 105.6 97.6 98 102 110 116.2 119.7 123.5 121.7 120.8 118.2 119.5 125.6 129.7 136 155.4 172.9 184.1 187.1 192.6 198.8 204.2 203.9 204.2 192.6 181 175.7 164.9 166.1 164.4 171.6 174.4 175.5 168.9 168.5 155.4 140 128 110.1 94.9 75.5 70 62.8 61.7 63.4 59.3 61.4 65.8 64.4 64.1 63.5 58.8 57.5 57.4 57.6 62.8 54.4 51.3 54.1 54.7 54 59.3 59.6 67 64.9 69.9 73.8 78.7 83.8 89.4 94.3 102.2 108.7 128.6 144 150 153.7 160 171.4 202.5 207.7 206.6 194.4 184.6 168.2 149.1
-1.9 -1.9 -1.9 -1.9 -1.9 -1.9 -1.9 -1.9 -1.9 -1.9 -1.9 -1.9 -1.9 -1.9 -1.9 -1.9 -1.9 -1.9 -1.9 -1.9 -1.9 -1.9 -1.9 -1.9 -1.9 -1.9 -1.9 -1.9 -1.9 -1.9 -1.9 -1.9 -1.9 -1.9 -1.9 -1.9 -1.9 -1.9 -1.9 -1.9 -1.9 -1.9 -1.9 25.7 42.3 55 74.3 111 143.4 158 178.6 205.4 219.7 221.4 229.5 250.4 255.1 250.3 238 179 154 142.8 146.1 140.8 135.8 133.8 132.7 133.4 134.3 137.4 135.8 141.7 153.2 158.2 167.1 171.3 164.8 156 150.9 145.9 140.7 130.9 125.8 123.8 118.8 118.8 122.4 125.8 129.1 126.6 126.9 123.1 121.5 119.2 126.2 127.6 136.9 137 137.4 133.2 128 121.3 118.8 119.3 128.6 146.6 144 141 137.1 148.1 159.5 166 164.9 137.9 117.9 106.4 102.5 106.2 114.2 119.8 122.9 126.7 124.9 124.9 128.8 134.1 145.8 151.3 158.4 170.8 184 205.3 208.8 211.7 217.9 223.5 227.6 221.8 204.3 196.7 184.2 173.6 167.6 164.4 157.6 156.2 157.3 154.1 154.3 146.3 129.2 118.6 103.6 91 77.9 66.8 61.2 64.4 60.6 61 61.9 62.1 64.3 66.3 64.7 60.9 57 59 59 64.2 63.3 58.3 58 58.1 62.8 68.4 70.5 73.3 75.4 81.3 85.3 84.5 87.8 93.2 96.4 106.6 111 123.5 141.7 150.9 153.4 162.4 172.6 191.4 195.9 192.7 187 179.4 167.5 149.7
-1.9 -1.9 -1.9 -1.9 -1.9 -1.9 -1.9 -1.9 -1.9 -1.9 -1.9 -1.9 -1.9 -1.9 -1.9 -1.9 -1.9 -1.9 -1.9 -1.9 -1.9 -1.9 -1.9 -1.9 -1.9 -1.9 -1.9 -1.9 -1.9 -1.9 -1.9 -1.9 -1.9 -1.9 -1.9 -1.9 -1.9 -1.9 -1.9 -1.9 -1.9 16.2 26 43.2 55.7 66.4 102.1 141.8 186 213.9 226.5 228.6 228.7 232 246.6 255 255.7 259 251.4 217.5 198.1 198.4 196 185.4 159.5 146.5 139.6 134.8 136.3 134.6 134.6 134.6 141.7 150.7 156.1 158.2 160.3 151.3 147.5 141.3 136.6 129.3 127.1 127.9 120.1 118.8 124.7 130.9 130.3 128.7 126.2 126.3 125.8 123.4 122.3 127.2 137.4 146.7 150.2 148.9 137 131.1 128.8 129.7 141.5 145.9 158.9 161.7 160.3 163.5 170.8 182.2 169.1 153.6 133.3 118.7 107.6 113 118.3 123.3 127.3 131.3 132.2 149.7 160.7 167.8 180.3 191.2 188.1 185.5 198.1 219.3 229.4 227.2 237.1 240 243.5 237.1 226.6 209.4 197.5 177.3 166.1 160.4 156.8 151.7 142.1 139.1 136.2 128.8 119.1 107.5 100.9 87.9 78.7 68.5 61.5 59.9 61.7 62.5 63.7 61.1 65 66.5 65.2 62.9 60.2 57.9 60.3 61.1 62.5 61.3 61.8 65.6 69.2 79.7 84.8 92.6 95.7 90 99.2 103.5 102.6 99.2 103.9 116 128 125.9 137.2 150.9 156.3 160.8 170 184.4 207.5 200.4 189 176.3 162.5 146
2.1 -1.9 -1.9 -1.9 -1.9 -1.9 -1.9 -1.9 -1.9 -1.9 -1.9 -1.9 -1.9 -1.9 -1.9 -1.9 -1.9 -1.9 -1.9 -1.9 -1.9 -1.9 -1.9 -1.9 -1.9 -1.9 -1.9 -1.9 -1.9 -1.9 -1.9 -1.9 -1.9 -1.9 -1.9 -1.9 -1.9 -1.9 -1.9 -1.9 -1.9 21.6 37.6 53.7 72.6 92 128.6 171.2 219.3 239.4 251.8 255.2 249.9 247 258.2 260.4 260.4 259.3 250.1 248 259.7 222.4 221 221.2 205.9 188.2 164.6 153 140.9 138.6 137.2 136.8 140.4 150.7 163.8 169.5 164.1 151.2 147.7 140.8 137.1 135.2 131.6 127.4 122 123 125.3 131.7 129.6 128.2 127.1 126.3 124.7 128.8 136.1 141.4 154 156.4 165.3 171.4 157.5 143.7 147.1 158.4 156.8 155.7 160.1 172.2 179 184.7 182.5 188.7 180.1 165.7 149.3 138 128.6 113.7 124.8 130.9 137 142.6 154.4 191.4 214.8 220.2 243.2 246.7 233.4 215.8 219.7 230.9 244.1 246.2 250 252.2 262 254.3 237.7 221.9 206.1 189.6 167.1 156.8 145.5 146.5 141.6 128.5 120.3 118.5 115 104.5 91.2 83.4 75.8 68.1 64.4 64.4 62.9 65.1 64.5 62.5 63.6 65.8 65.7 62.3 57.2 55.9 61 63.7 62.9 62 62.7 67.8 75.9 79.5 92.4 99.2 103.5 103.3 106.6 115.6 113.8 111.5 111.2 127.3 153 144.1 142.9 155.7 156.4 158.9 173.3 184.4 202.1 205.2 195.5 175.6 162.7 146.8
15.8 1.1 -1.9 -1.9 -1.9 -1.9 -1.9 -1.9 -1.9 -1.9 -1.9 -1.9 -1.9 -1.9 -1.9 -1.9 -1.9 -1.9 -1.9 -1.9 -1.9 -1.9 -1.9 -1.9 -1.9 -1.9 -1.9 -1.9 -1.9 -1.9 -1.9 -1.9 -1.9 -1.9 -1.9 -1.9 -1.9 -1.9 -1.9 -1.9 20.6 32.7 51.8 67.6 82.1 108.3 162 193.3 227.1 249.7 252.5 265.6 261 259.3 261 266.2 267.9 263.3 254.1 272.2 284.1 274.7 265.8 254.7 252.2 247 222.7 181.1 163.3 154.9 149 144.5 144.1 148.2 162.4 174.6 167.4 158.7 150.9 147.8 141.2 137.9 136.4 127.7 123.2 125.2 127.2 129.9 128.4 127.2 126.6 127.7 135.6 138.2 161.5 162.8 186.3 172.1 175.5 178.2 177.1 166.9 168 170.5 166.7 163.8 164.1 178.7 200.2 206.9 200 204.9 196.7 175.7 175.4 165 147.4 129.8 128.3 137.4 145.9 155.8 185.5 226.2 249.4 265.1 274.6 285.6 273.1 250.2 247.9 259.5 261.8 259.6 266.3 270.6 270.5 263.6 247.7 233.6 210.8 193.1 176.1 161.4 153.4 143.5 138.4 126.7 115.9 110.2 110.7 98.3 86.3 79.1 69.2 64.4 63.1 63.5 59.1 66.7 66.9 67.2 64.6 65.8 64.7 61.9 57.1 58 65 65.9 67.9 65.1 63.9 67.1 74 81.4 95.6 105.9 112.4 112.3 112.7 119.9 126 124.2 123.7 137.3 172.6 176 158.4 154.4 155.7 160.4 171 206.8 197.5 203 200.7 187.5 167.7 153.6
23.6 4.6 -1.9 -1.9 -1.9 -1.9 -1.9 -1.9 -1.9 -1.9 -1.9 -1.9 -1.9 -1.9 -1.9 -1.9 -1.9 -1.9 -1.9 -1.9 -1.9 -1.9 -1.9 -1.9 -1.9 -1.9 -1.9 -1.9 -1.9 -1.9 -1.9 -1.9 -1.9 -1.9 -1.9 -1.9 -1.9 -1.9 -1.9 -1.9 33.2 47.4 63.6 80.7 102 129.5 177.2 211.1 238.7 259.6 272.4 275.7 272.7 269.4 263.4 267.5 267.5 263.5 264.8 293.1 296.1 292.4 273.8 267.8 271.7 261.3 248.3 218.6 198 193.4 191.9 186.5 160 155.4 155.3 158 159.9 157.5 155.4 151.6 145.2 141.1 137.3 135.3 126.3 132.5 130.4 130.5 130.1 127.8 130.4 134.4 148.2 163.6 171.8 198.1 207.6 200.9 189.3 192.6 190.5 187.8 183.1 175.8 176.8 176.8 176.4 175.7 191.5 210.6 214.2 212.5 225.2 226.8 219.9 192.2 170.6 149.5 124.3 141.6 149.5 162.3 195 229.6 266.8 275.2 282.5 292.2 303.8 306.7 298.4 296.5 292.6 280.6 285.9 293.9 289.9 274 256.4 240.6 217.9 195.3 177.6 160.7 144.1 138.6 130 121.9 113.5 103.7 96.4 88.6 80.5 72.4 69.2 64.8 61.5 61.1 59.1 63.2 68.4 70.2 61.8 61.9 65 60 59.4 62.3 63.3 69.8 75.3 68.3 66.4 68.6 76.5 84.6 93.5 105.6 117.2 120.6 119.1 127.7 144.3 154.2 153.2 153.1 178.6 187.4 180.4 167.2 164 161.4 179 207.2 201.1 199 197.8 183.1 173.6 159.7
26 28.6 10.3 12.2 6.5 4.9 -1.9 -1.9 -1.9 -1.9 -1.9 -1.9 -1.9 -1.9 -1.9 -1.9 -1.9 -1.9 -1.9 -1.9 -1.9 -1.9 -1.9 -1.9 -1.9 -1.9 -1.9 -1.9 -1.9 -1.9 -1.9 -1.9 -1.9 -1.9 -1.9 -1.9 -1.9 -1.9 -1.9 20.2 33.3 48.8 75.5 94 110.3 152 195 220.9 263.5 284.6 281.8 282.6 290.1 283.8 274.6 267.6 265.6 271.4 285.5 305.1 309.4 307.5 296.3 285.3 283.4 278.8 264.6 243.4 224.6 213.8 213.3 214.5 213.4 185.9 177.4 170.3 163.9 165.5 159 163.6 148.5 142.7 141.7 140.8 134 137.9 134.8 132.1 131.2 130.5 132.1 141.2 156.9 170.1 204.3 212.5 215 209.9 210 207.1 199.1 194.8 194.2 189 182.7 182.8 184.4 186.2 186 198 219.4 231 242.1 238.9 232.6 219.8 188.2 164.2 140.7 148.7 159.7 167.8 196.2 234.3 258.5 278 293.1 310.4 327.2 338.3 333.4 319.2 304 290.4 291.5 305.2 302.3 284.7 267.6 251.9 225.7 196.7 179.1 158.6 140.3 129 118.6 111.7 106.7 101.2 95.8 82.4 77.1 73.3 67.2 62.8 62.4 59.1 59.1 61.1 66.1 68.5 64.6 62 63.6 61.1 60.7 64.3 65 66.3 73.9 75.1 71.2 71.8 74.6 81.9 93.8 102.8 112 118.3 131.1 147.8 184.5 194.3 190.3 178.5 186.1 201 198.7 186.4 178.3 173.9 182.4 206 209 200.5 195.1 184 173.8 159.6
29.1 30.6 30.4 27 25.9 15.4 13.2 9.1 -1.9 -1.9 -1.9 -1.9 -1.9 -1.9 -1.9 -1.9 -1.9 -1.9 -1.9 -1.9 -1.9 -1.9 -1.9 -1.9 -1.9 -1.9 -1.9 -1.9 -1.9 -1.9 -1.9 -1.9 -1.9 -1.9 -1.9 -1.9 -1.9 -1.9 -1.9 22.4 33.6 54.9 75.3 106.9 140.3 171.8 205.4 233.7 275.6 293 300.9 295.9 297.9 289.9 282.8 273.8 275.2 281.7 300 316.4 326.3 320.4 313.1 294.9 294.9 289.7 278.3 259.5 241.8 223.9 219.9 223.2 223.3 207.7 190.8 183.6 170.7 168.1 173.6 168.9 157.5 149.8 144.8 139.6 140.1 140 139.4 135.3 132.4 137.3 138.4 151.4 163.9 188.9 206.8 219 221.7 224.1 221.9 219 217.2 215.6 216.6 206.4 198.7 191.2 191 190 194.4 200.8 222.3 243.1 251.1 246.7 237 225.7 199 174.8 151.3 150 162.8 175.3 202.3 234.2 258.6 286.3 303.9 318.6 327.9 340.8 350.4 356.3 327.7 299.9 295.8 310 309.4 300.5 282.9 266.5 239.5 202.9 176.1 159.1 139.7 127.2 118.8 110.5 102.5 94.6 87.5 81.6 74.8 68 65.8 64.3 61.7 59.1 59.1 59.1 66.4 66.9 66.2 62.8 60.7 61.6 65.2 69.6 69.3 69.3 74.9 82.9 77.2 75.8 79.3 84 94.5 104.1 112.3 127.9 131.8 144.1 165.3 185.7 199.4 196.2 193.1 215.8 210 197.5 192.1 188 186.2 206.2 207.4 198.6 192 180 172.4 161.4
37.6 41.6 47.1 47.4 35.7 28.7 20.8 17.6 10.5 -1.9 -1.9 -1.9 -1.9 -1.9 -1.9 -1.9 -1.9 -1.9 -1.9 -1.9 -1.9 -1.9 -1.9 -1.9 -1.9 -1.9 -1.9 -1.9 -1.9 -1.9 -1.9 -1.9 -1.9 -1.9 -1.9 -1.9 -1.9 -1.9 -1.9 22.8 39.2 56.5 75.9 110.4 140.9 178.8 221.1 258.3 286.9 299.5 304.9 311.3 310.6 302.6 291.1 286.5 285.8 294.2 323.4 339.1 346.6 339.2 326.8 314.2 302 297.9 287.3 272.8 250.2 240.3 228.3 226.5 223.2 210.3 197.9 193.1 175.5 170.9 176.9 180.1 166.1 158 150.4 145.1 145.4 144.4 143.4 139.2 141.2 137.9 145.8 157.3 186.7 196.2 209.5 220.7 229.6 233.5 227.4 225.9 228.8 231.1 225.5 227.1 213 207.3 198 203.5 205.3 209.2 219 248.5 254.8 247.1 239.2 227.5 205.4 180 159.7 146.6 166.6 179 203.8 237.8 267.8 289.7 305.7 317.6 331.9 340.2 352.4 360.5 359.7 340.1 307.7 304.6 306.2 302 294.5 280.3 252.2 215.1 186.5 164.7 139.1 127.4 113.7 106.5 101.5 92.1 85 78.7 76.1 67.9 67.6 63.4 59.1 61.6 63.3 59.1 61.2 66.3 67.4 65.3 64.5 66.7 69.5 71.1 77.3 70.3 79.7 84.5 85.8 84.5 88.1 93.8 100 106.4 118.1 129.2 138.8 150.4 170.3 186.9 199.7 207.8 206.4 219.6 217.2 206.1 201.4 196 192.4 197.5 204.4 202.5 190.6 183.6 177.4 160.6
46.6 54.4 56.8 48.9 45.3 40.2 33.3 32.7 14.6 16.7 5.9 -1.9 -1.9 -1.9 -1.9 -1.9 -1.9 -1.9 -1.9 -1.9 -1.9 -1.9 -1.9 -1.9 -1.9 -1.9 -1.9 -1.9 -1.9 -1.9 -1.9 -1.9 -1.9 -1.9 -1.9 -1.9 -1.9 -1.9 15 29.3 42.8 60.2 82.2 110.2 142.8 192.4 237 265.8 289.7 308.8 316.1 321.4 316.9 315.2 303.6 301.4 299.2 315 329.2 346.2 353.1 346.6 338.3 324.3 303.2 303 293.6 279.1 257.8 243.1 233.7 232 224.4 219.5 201 199.4 189.1 179.3 183.3 181.7 183.6 171.6 154.6 152.6 149.7 151.2 148.7 150.3 150.5 147.3 149.5 161.6 191.3 212.3 213.7 223.2 251.7 252 246.2 240.4 237.3 231.9 232.3 227.6 223.7 215.9 212.4 211.6 213.8 220.2 227.1 257.1 255.3 245.5 236.9 229.1 216 184.2 166.4 154.5 169.6 184.8 207 230 259.2 279.4 292.7 311.7 330.8 336.2 350.6 360.9 364.7 364.4 336.4 308.6 309 310.3 299.3 290 274.4 235.9 201.3 170.7 141.9 126.8 112 104.4 99.7 92.4 85.5 78.1 69.2 69.9 67.3 59.1 59.1 59.9 64 59.1 59.1 59.1 65 65.7 65.9 69.4 74.6 74.1 83.3 82.1 83.8 92 91.2 90.5 94.8 102 117.2 129.4 146.6 142.5 153 162.5 175.7 213.5 225.6 223.9 216.6 220.5 227.3 215.5 209.2 201.4 198.2 192.9 204.7 205.6 191.4 183.5 178.5 163.3
53.2 57.7 61.2 60.8 60.3 51.3 39.2 36.9 27.2 22.7 17.7 18.5 13.6 1.8 -1.9 -1.9 -1.9 -1.9 -1.9 -1.9 -1.9 -1.9 -1.9 -1.9 -1.9 -1.9 -1.9 -1.9 -1.9 -1.9 -1.9 -1.9 -1.9 -1.9 -1.9 -1.9 -1.9 -1.9 23.2 43.1 57.1 65.8 92.5 116.5 154 213.6 250 270 290 310.7 324.4 328 322.6 321.5 311.3 309 306.8 328.2 342.8 357.4 363.8 354.1 341.1 331.3 313.2 306.7 297.6 284.4 266.7 254.5 238.1 236.8 231.5 224.2 207.3 200.3 193.9 183.1 182.7 194.5 193.2 185.9 161.3 160.4 156 155 152.6 153.6 153.8 153.5 153.7 161.1 181 214.7 220.1 228 249.1 260.2 261.2 257.7 259.5 257.6 249 242.7 233.6 238.3 241.9 240.1 227.6 234.6 257.5 252.5 250.5 244 234.5 226.8 216.2 188.8 173.1 164 177 189.5 209.8 231.1 245.6 263.5 286.3 303.7 314.1 325.3 339.8 350.7 363.6 375.9 369.8 334.5 313.7 308.6 303.5 293.1 283.1 260.1 221.4 180.5 150 136.8 112.8 105.1 99.2 92.9 86.5 71.8 66.8 65.9 66.2 65.2 64.5 59.1 59.1 59.1 59.1 59.1 61.4 65.3 65.6 71.7 74.8 79 89.1 91.3 90.2 98.6 100.5 96.4 99.4 113.6 138.1 158.1 168.4 167.7 182.9 183.4 192.6 225.9 235.3 247 235.8 228.3 232.9 221.6 212.9 206 200 195.1 198 199 191 179.9 173.3 163.3
50.3 59.7 63.1 66.3 66.3 69.3 51.4 41.2 46.6 38.4 25.8 23 20.4 17.7 -1.9 -1.9 -1.9 -1.9 -1.9 -1.9 -1.9 -1.9 -1.9 -1.9 -1.9 -1.9 -1.9 -1.9 -1.9 -1.9 -1.9 -1.9 -1.9 -1.9 -1.9 -1.9 -1.9 11.9 29.6 37.4 56.6 81.9 108.3 129.4 158.8 208.4 243.2 270.3 293.5 306.3 315.3 331.2 331.2 326.8 320.2 312.6 315.3 329.4 345.4 366 362.3 356.2 347.1 339.2 326.4 307.6 302.7 286 272.1 262.9 249.8 241.9 230.7 224.9 210.8 202.3 193.7 183.4 184.9 197.6 196.4 187.3 171.2 167.4 162.6 158.3 155.7 155 158 157.6 160.4 164.1 177 199 221.8 230.6 247.7 264.6 268.8 267.6 266.7 267.4 258 249.4 246.7 247 249.2 250.4 237.2 250.7 270.8 266 258.5 243.6 234.5 226.8 213.2 193 176.1 162.8 181.6 194.9 209.2 224.2 240.2 256.4 273.3 291.3 307.2 319.2 330.1 343.3 357.8 374.8 379.4 367.6 327.7 319.3 301.2 296.9 283.1 269.5 230.8 190.8 160 144 125 107.1 102.4 94.5 86.8 76.6 65.8 64.8 64.5 65.5 65.1 59.1 59.1 59.1 59.1 59.5 60.8 68 66.5 66.9 75.6 81.2 89.3 91.8 93.4 99.3 102.9 104.9 110.1 134.4 157.4 201.4 210.9 229.8 228.2 227.1 213.4 228.5 249.5 250.7 254.4 248.5 238.7 229.4 218.5 213 202.7 196.7 191.7 191 186.4 177.4 169 161.3
47.7 57.2 63.9 68.6 71.6 73 67.3 48.4 50.4 46.5 30.8 23.9 17.9 12.1 0.7 -1.9 -1.9 -1.9 -1.9 -1.9 -1.9 -1.9 -1.9 -1.9 -1.9 -1.9 -1.9 -1.9 -1.9 -1.9 -1.9 -1.9 -1.9 -1.9 -1.9 -1.9 7.5 26.8 31.6 43.8 58.3 83 110.8 136.8 164.5 208.8 242.9 272.4 287.4 302.6 319 334.1 337.7 330.3 325.7 319.2 320.9 330.6 343.4 353.1 355.6 357.6 355.7 348.5 332.5 307.2 301.3 286.9 275.8 266.7 257.9 250.4 236.4 225.9 211.1 205.6 205 195.9 192.8 200.1 197.2 187.2 177 173.6 169.2 163.9 165 166.1 165.4 164.9 164.8 169 175.9 191.3 217.2 233.3 245.9 259.6 275.6 276.3 269.8 267.7 263.2 257.1 246.9 245.5 246.3 247.7 244.5 248.1 267 270.3 262.9 246.7 236.2 222.9 207.5 199.2 180.6 169.3 187.1 200.2 210.5 221.4 233.6 252.2 267.8 284.9 302.4 315.4 325.7 338.7 356.9 377.5 387.3 378.3 349 327 310.3 295.5 284.3 270.1 225.1 189.1 163.9 145.8 132.1 115.5 101.9 95.5 88.2 75.5 65.7 65.8 63.8 64.3 64.8 61.1 59.1 59.1 59.1 64.6 65.3 69.5 69.1 72.6 72.3 79.9 87.7 90.9 92.9 96 101.6 108.5 123.2 153.1 178 209 234.3 263.5 262.3 250.4 242.2 250.4 257.6 259.9 259.4 259.2 245.6 237.8 221.8 217.4 210.1 201.8 188.4 185.4 178.8 173.8 165.1 159.7
43.2 51.6 58.7 65.7 69.9 75.1 65.9 55.4 49.6 49.3 36.5 26.6 21.5 16 7.9 -1.9 -1.9 -1.9 -1.9 -1.9 -1.9 -1.9 -1.9 -1.9 -1.9 -1.9 -1.9 -1.9 -1.9 -1.9 -1.9 -1.9 -1.9 -1.9 -1.9 -1.9 12.5 27 37.8 49 70.1 92.6 129.1 155.7 185.6 216 250 267.7 282.3 305.4 324.2 334.9 340.1 334.8 325.4 325.9 329.1 329.4 337 342.6 351.4 357.5 356.8 351 339.6 313.8 303.1 290.7 280.1 276 266.7 255.7 247.3 229 217.4 219.6 211.6 203.3 199.9 200.9 196.7 186.1 181.3 177.3 173.8 172.6 172.6 172 171.6 168.4 171.8 172.4 179.4 199.3 213 232.7 245.3 253.7 265.6 273.5 275.5 267.6 258.5 257.2 256.5 250.6 250.1 248.7 246.8 245.5 255.5 263.1 259.3 249 237.5 221.8 212.6 198.5 189 182.8 192.9 204.3 210.3 218.7 230 245.9 269.1 286.3 300.4 314.3 328.7 338.5 354.2 375.7 382.9 379.2 355 327.7 311.4 298.1 282.2 267.6 241.5 182.3 154.6 140.5 130.7 114.6 102.5 93.8 86.5 72.6 64.3 64.4 63.1 64.4 63.1 59.1 59.1 59.1 59.1 59.1 69.4 68.6 67 74 74.6 78.6 88 91 93.6 99.5 100.8 113.8 132.3 162.7 194.1 210.4 245.6 273 281.4 273 254.6 249 259.5 267.5 270.6 264.1 253 238.9 239.7 234.6 214.3 201.4 189.5 181.9 175.1 170.2 161.2 154.5
39.9 46.9 49.2 58.3 68.9 72.8 63 59 57.2 48.8 44.1 37.3 23.1 19.6 11.7 1.5 -1.9 -1.9 -1.9 -1.9 -1.9 -1.9 -1.9 -1.9 -1.9 -1.9 -1.9 -1.9 -1.9 -1.9 -1.9 -1.9 -1.9 -1.9 -1.9 -1.9 33.1 43.2 55 68.1 88.4 116.6 142.7 165.7 196.9 218.1 246.7 269.7 281.5 298.2 317.5 331.3 335.4 335.9 323.8 327.1 332.3 329.7 336.7 343.5 350.9 359 362.1 357.4 347.5 325.2 305 294.3 285.7 280.4 274.4 256.2 253.5 236 233 225.2 218.6 208.3 206.6 202.6 196.9 189.5 184.3 180.8 183.5 180.3 179.9 178.7 180 176.3 174.7 177.6 180.4 205.2 220.2 243.4 259.9 257.6 275.9 281.7 283.2 279.2 263.1 257.6 257.7 253.4 249.9 249.5 248.7 245.9 258.6 260.9 258.1 250.8 240.7 221.8 214 203.5 188.5 180.6 192 205.9 211 216 230.5 246.1 264.5 283.6 296.9 309.7 319.1 334.4 359.7 379.6 380.2 372.6 354.9 333.2 312.7 293 282.8 263.8 237.5 175.7 153 136.2 123.9 111.9 100.1 92.7 85.2 73.3 63.6 63.1 62.6 60.2 59.1 59.1 59.1 59.1 59.1 59.1 59.1 66.9 74.8 70.2 71.3 74.9 88.2 93.9 96.9 107.3 117.3 125.8 138.7 167.4 192.4 211.6 249.3 273.4 291.9 288.6 272.4 257.2 255 264.8 270.1 266.3 257.2 251.2 245.9 239.6 224.8 204.3 191.7 180.9 172.6 165.3 160.3 152.7
42.1 47.8 48.7 51.3 58.6 63.4 56.8 59.6 58.8 47.9 43.6 36.7 26.3 22.9 12.7 1.3 -1.9 -1.9 -1.9 -1.9 -1.9 -1.9 -1.9 -1.9 -1.9 -1.9 -1.9 -1.9 -1.9 -1.9 -1.9 -1.9 -1.9 -1.9 -1.9 20.5 36.4 52.7 61.6 80 109.4 129.4 160.5 182.4 206.4 224.5 250 273.3 290.8 308 315.8 327.3 337.2 333.9 324.1 330.5 330.7 332 333.5 342.4 354.4 361.2 362.4 357.7 351.9 332 307.8 300.1 293.4 283.5 272 261.4 250.3 243.6 238.3 235.2 224.5 215.9 212 205.9 200.7 195.2 190.2 192.6 203.1 196.3 190.2 187.7 189.3 184.7 183.7 181.2 193 202.9 223.9 238.3 250.6 257.6 266.6 275 274.7 273.8 272.6 262 254.3 251.1 247.9 249.8 250.7 250.5 255.7 260.7 258.8 249.8 238.5 223.7 209.9 204.1 200.5 189.9 194 204.3 210.5 214.8 228.4 242.7 262.4 279.5 293 303.5 316.8 333.1 359.9 377.4 374.1 368.8 351.7 331.3 313.8 297.3 278.1 256 228.4 175.6 147.7 131.4 118.6 108 97 90.3 82.5 75.8 66.8 63 61.7 61.2 59.5 59.1 59.1 59.1 59.1 59.1 59.1 61.2 68.2 71.1 71.2 75.8 87.8 95.4 100.7 119.3 134.4 152.5 155.4 174.5 206.6 220.9 249.9 273.2 287.1 293.4 285.3 269.7 260.3 257.8 261.9 261.3 257.1 245 240.7 239.8 223.4 206.7 195.1 183.3 171.7 165.4 156.4 151.7
47.9 51.2 49.5 49.8 51.4 57.1 57.8 58.5 54.6 47.1 46.3 36.2 30.6 23.3 15.3 7.6 1.4 -0.2 -1.9 -1.9 -1.9 -1.9 -1.9 -1.9 -1.9 -1.9 -1.9 -1.9 -1.9 -1.9 -1.9 -1.9 -1.9 -1.9 -1.9 24.8 32.9 52.7 66.5 84.9 122.2 137.4 161.5 182.6 205.9 232 254.6 274.5 302.1 316.4 316.4 321 329.5 330 322.8 331.5 331.1 331.7 334.5 344.4 352 356.8 357.9 351.5 352.6 335.8 312.1 304.8 295.8 287.2 276.2 263.8 256.9 246.7 242.3 236.9 231 223.6 217.2 212.2 206.9 202 203.2 210.3 222.9 217.8 202.5 196.1 192.9 189.6 189.1 185.8 196.3 207.3 215.9 235.1 261.2 258.3 272.6 277.9 278.3 273 267.8 262.3 258.3 253.6 251.9 251.1 248.7 253.8 262.1 263 260.1 252 242.5 229.3 214.3 203.5 199.6 199.5 193.9 204 213.2 218.9 229 241.7 262 277.9 292.1 304.2 317.7 334.9 358.3 367.8 367.7 362.3 347.5 328.9 311.7 292.8 276.7 243.2 208.1 175 145.7 126.9 117.5 106.7 95.2 83.7 78.9 74.5 71 64.4 64 62.3 61.5 59.1 59.1 59.1 59.1 59.1 59.1 59.1 61.4 65.6 72.6 75.8 83.8 97.4 106.3 121.7 140.8 156.7 164.8 180.8 203.8 218.3 243 266.8 284.1 291.6 288.6 280.1 263.4 256.2 254 250.9 246.1 241.1 236.2 232.4 221.5 206.2 193.9 182.4 172.1 161.3 152.6 145.9
47.6 49.7 51.6 46.1 45.7 49.9 56.7 55.4 50.8 46.3 41.3 38.1 29.9 18.9 11.8 5.7 4.9 6.2 1.1 -1.9 -1.9 -1.9 -1.9 -1.9 -1.9 -1.9 -1.9 -1.9 -1.9 -1.9 -1.9 -1.9 -1.9 -1.9 -1.9 21.5 37 48.2 65.5 85.8 125.9 146 158.7 178.4 200.2 225.8 248 268.4 294.8 312.8 320 321 321.1 322.1 320.3 323.1 327.4 334.6 338.1 344.4 349.8 360.3 362 352.6 349.7 338.2 321.7 311.5 300.2 292.9 282 268.6 260.6 252.1 247.6 244.4 236.3 231.9 222.1 219 213.8 212.9 217.5 235.5 241.1 233.1 215 205.5 200.4 198 193 189.2 192 201.1 210.7 227.2 252.1 270.9 262.4 268.9 276 273.7 270.7 264.1 262 260.6 257.4 258.6 249.9 257.5 255 256.4 258.2 251.1 242.3 229.9 216.5 200.2 195.7 194.9 202.9 203.5 215.1 221.5 227.5 245 261.6 279.6 298.5 310.1 319.6 337.3 358.8 371.4 365.4 356.6 343 326.9 311.6 292.1 264.5 219.8 190.7 162.3 140.5 123.6 117.1 110.8 93 81.9 78.8 72.5 70.8 64.5 63.3 62.4 62.2 59.1 59.1 59.1 59.1 59.1 59.2 62.2 61.9 63.6 64.9 71.3 80.4 93.4 105.3 120.4 136.2 154 165.4 181.9 194.2 210.6 234 260 278.6 290.7 286.2 282.7 265.5 256.5 250.1 246.3 240.6 237.3 232 224 216.3 206 193.3 181.7 169.3 158.6 150.1 142
44.2 51.6 51.6 50.6 44.4 46.9 52.4 49.1 47.9 48 35.8 32.8 24.7 19.4 10.8 6 5.5 7 7.1 0.6 -1.9 -1.9 -1.9 -1.9 -1.9 -1.9 -1.9 -1.9 -1.9 -1.9 -1.9 -1.9 -1.9 -1.9 -1.9 19.3 35.4 45.3 63.5 84.3 117.1 139.6 156.8 171 189.7 212.8 234.7 259.8 284 303.7 315.1 314.1 316.9 328.2 322.3 327 333.6 340.4 344.7 352.3 357.8 356.2 355.7 349.4 345 337.4 322.9 313 303.5 294.1 284.1 278.8 268.2 257.3 251.7 249.5 241.9 236.5 223.7 227.1 221.3 223.9 232.2 246.8 255.8 244.5 224.2 215.2 208.5 201.8 200.4 195.6 192.9 196.5 216.6 226.2 244.2 262.2 271.9 268.3 270.6 272.5 270.2 267.4 263.7 263.2 261 259.4 251.2 253.6 252.7 250.5 249 246.8 239.3 229.6 209.6 198.6 202.3 203.7 202.5 204.1 212.1 225.6 229.9 245.3 265.2 285 303.8 323.7 330.1 341.8 363.5 365.1 362.4 351.8 339.2 323.7 309 286.9 251.7 197.5 174.2 152.6 132.3 119 114.5 107.4 93.7 78.8 73.9 71.4 71.5 72.2 68.7 65.4 61.6 59.1 59.1 59.1 59.1 59.1 59.6 65.8 62.9 64.3 66.3 72.8 77.3 88.3 101.3 118.7 128.8 142.6 161.6 175.1 188.7 204.3 222.6 245.2 264.5 277.3 281.7 278.7 271 258.7 250 244 237.7 234.1 226.2 219.5 211.5 203.6 191.8 178.8 165.8 154 146.5 139
40.2 46.4 50 44.4 41.8 42.6 49.5 46.6 47.9 40.1 32.9 31.6 26.7 17.1 13 7.5 7.3 8.6 7.9 1.3 -1.9 -1.9 -1.9 -1.9 -1.9 -1.9 -1.9 -1.9 -1.9 -1.9 -1.9 -1.9 -1.9 -1.9 -1.9 19.4 31 45.2 61 84 112.1 121.6 142.7 156.6 173.8 198.9 223 253 274.9 298.4 308.9 311.9 312.4 317.6 320.2 325.5 332.8 343.6 354.9 361.4 368.5 370.6 370.5 365 349.1 335.6 325 314.6 305.9 295.8 285.9 281.5 270.8 261.4 256.2 252.6 250.8 236.8 238.2 234 234.6 237.9 248.3 271.8 275.6 263.6 242.6 223.4 214 205.5 199.7 197 193.8 201.1 217.5 231.1 239 267.3 279.3 274.8 271.9 269.1 268 267.7 267.3 267.9 263.8 265.1 252.5 250.6 250.6 249.6 251.4 246.1 237.7 225.4 209.2 200.3 200.6 203.9 204.6 208.9 218.7 225.7 234 247.1 270.2 293.7 318.8 328.4 336.3 350.9 364.5 368 361.2 347.8 334.8 320.6 300 266.4 232.5 180 156 139.5 135.6 116.9 107.2 99.9 81.9 75.7 72.4 72.1 72.5 74.5 72.8 70.6 65.9 59.1 59.1 59.1 59.1 59.1 63.2 62.8 63.2 64.6 67.1 74.1 78 86.2 97.4 111 122.8 139.2 156.6 169.3 180.6 197.8 216.1 235.9 251.9 263.8 270.9 274.6 268.9 257.6 251 242.9 234.3 227.3 220.5 211.7 202.8 196.3 184.4 174.7 163.9 153 146.3 138
28 31 34.7 34.5 34.9 35.9 35.7 38.1 43.3 35.3 27.7 27.1 19.5 20.7 18.1 10.5 10.5 11.9 10 8.1 -0.1 -1.9 -1.9 -1.9 -1.9 -1.9 -1.9 -1.9 -1.9 -1.9 -1.9 -1.9 -1.9 0.2 1.1 15 34.3 45.2 59.1 84.1 101.4 111.8 127.5 146.3 163.6 188.5 213.3 241.2 265 284.2 302.2 307.2 310.4 315.1 322.8 330.4 339.5 348.5 359.7 363.7 372.3 376.1 377.6 368.8 352.9 344.3 328.4 318.2 308.3 298.5 289.9 281 272 266.9 262.1 258 254.5 251.7 246.4 247.3 244.3 257.8 269.2 293.9 287.7 277.7 251.1 232.9 221.1 210.3 202.8 198.4 195.3 199.6 217.1 233.8 246.1 268.7 287.6 285.8 275.2 271.5 270 270.6 271.1 274.3 268.4 267.9 255.3 253 257.9 253 251.1 241.3 234.2 222.3 208.6 202.9 200.7 200.8 204.4 208.5 216.8 226.7 238.3 251.8 272 297.8 312.6 322.1 339.2 350.6 358 365.1 359.9 350 334.9 304.2 265.5 235.1 205.6 169.2 144.2 136.1 128.2 110.2 97.2 88.8 76.6 75.1 69.7 72.1 71.6 75.8 79.6 77.4 73.9 67.8 59.1 59.1 59.1 59.1 63.5 61.4 61.5 62.6 70.7 76.1 78.3 85.9 93.4 105 118.1 132.1 152.6 164.2 182.2 197.5 209.9 220.2 237.8 252.5 262.1 264.7 264.8 257.1 251.2 241.5 233.6 224.2 217.2 207.8 200.1 190.2 178.1 169 159.5 151.1 143.7 136.2
13.1 16 18.9 24.5 28.4 28.6 24.4 25.6 28.8 27.5 16.5 11.1 6.6 14.3 16.7 15.7 13.9 15.1 14.6 8.9 0.9 -1.1 -1.9 -1.9 -1.9 -1.9 -1.9 -1.9 -1.9 -1.9 -1.9 -1.9 -1.9 7.5 6.1 8.2 24.5 46.7 60.1 73.3 93.6 107.7 124.6 136 155.9 175.6 202.7 228.8 253.8 273.2 291.1 299.4 305.6 311.4 326.7 338.3 348 353.8 360.9 366.4 371.3 374.8 377.7 372.6 362.6 349.9 338.1 325 313.5 303.3 295.4 286.7 278.1 271.5 269 263 261.3 257.2 258.5 258.8 258.5 270 287.8 300.4 296.2 282.2 257.7 242.7 228.8 215.6 204.7 200 199.4 205 229.7 245.2 258.6 280.1 296.6 290.1 281.7 278.8 277.9 272.3 275.6 273.9 270.9 267 257.7 259.8 255.3 252.6 250.1 243.2 233.8 220.9 217.9 212.9 207.5 202.8 202.3 203.1 213.6 227.2 243 261 277.5 294.4 305.3 317 328.1 343.8 356.2 365.8 366.9 350.6 336.6 298.9 255.1 216.6 188.3 163 146.2 133.6 120.8 107.4 95.8 84.5 74.7 72.3 75.3 74.1 75.3 78.4 81.8 84.3 82.1 70.3 62.9 59.1 59.1 61.4 60.2 60.4 61.4 65 74 80.7 80.3 85 91.6 102.2 115.2 128.4 146.3 159.1 181.2 197.3 207.1 219.8 231.1 240.5 251.8 258.8 256.9 255.1 249.7 241.2 231.3 221.8 215.1 206.7 195.4 186.3 175.5 165.4 157 148.8 141.3 136
11.3 12.2 13.1 15.5 17.1 17 14.5 15.8 14.8 14.5 6.6 6.6 6.6 10.6 14 17.9 13.3 12 12 8.6 0.9 -1.9 -1.9 -1.9 -1.9 -1.9 -1.9 -1.9 -1.9 -1.9 -1.9 -1.9 -1.9 0.5 7 9.3 16.5 37.8 54.1 60.7 79.9 98.2 112.3 123.1 139.5 163.5 189.8 217.5 239.9 261.1 278.2 291.5 299.1 315.1 322.3 338.9 355.1 364.9 365.4 374.3 381.4 383.9 385.5 381.6 372.5 354.4 343.7 334.4 320.7 308.8 298.5 290.6 284.3 276.5 271.5 268 265.7 264.7 266.1 270.5 273.7 283.6 306.7 310.3 308.1 293.4 265 246.9 235.5 219 206 200.2 201.9 207 235.8 260.1 266.2 279.4 290.8 290 286.2 282.7 281.7 277.2 278.2 273.9 273.2 266.8 260.1 259.6 256.5 251 247.4 240.4 232.1 219.9 217 212.5 207.5 206.7 205.1 204.5 213.4 229.9 247.8 268.8 283.2 297 306.8 314.5 338.1 352.7 367.2 373.8 374.7 357.4 343.2 312.2 261.6 213.1 175.2 158.2 139.5 121 111.9 111.3 105.4 84.9 72.4 73 76.6 74.7 78.3 85.7 87.3 92.6 88.5 82.4 71.5 66.8 65.1 67.6 62.6 64.8 67.1 72.6 80.5 82.3 82.8 87.2 88.7 102.7 110.8 125.5 138.7 150.4 168 186.9 196.4 209.5 225.3 242.2 248.4 256.5 253.8 252.2 247.1 237.6 228 219 208.6 200.7 190.4 180 172.8 163.1 154.5 146 141.3 134.1
7.8 6.6 6.6 6.6 6.6 6.6 6.6 6.6 6.6 6.6 6.6 6.6 6.6 10.6 12.7 15.3 13.6 7.7 6.6 9 1.2 -1.9 -1.9 -1.9 -1.9 -1.9 -1.9 -1.9 -1.9 -1.9 -1.9 -1.9 -1.9 -1.9 7.1 10.4 12 27.9 46.2 59.6 65.9 82.6 96.2 110.1 136.1 154.9 180.3 205.4 226.8 251.2 272.9 288.2 298.3 313.2 319.1 341.8 356.6 366 372.2 380.4 391.5 396.9 395.1 395.6 382.8 370.4 357.3 342.3 329 314.9 305.4 296.8 289 282.3 276.9 274.1 272.2 274.3 277.2 283.9 283.3 294.6 317.2 311.1 309.3 297.7 275.1 251.9 239.9 223.7 207.8 201.7 201.8 210.3 234.8 264.4 282.3 290.8 289.4 289 286.9 282.8 281.4 280.7 278.8 276.3 274.1 266.3 262.8 259.3 257.1 253.9 249.4 240.1 225 218.7 214.1 212 209.9 208.1 205.5 207.1 217.1 233.4 248.2 269.1 295 308.3 314.4 325.5 337.5 355.5 369.1 385.4 384.2 365.5 345.4 329.1 270.8 213.2 175.3 145.8 126.4 113.1 109.8 106.9 102.6 83 72 74.6 76.5 77.6 81.9 88.8 99.3 106.4 113.4 113.3 114.1 107.9 96.2 83.6 78.1 74.9 73.9 79.1 87.8 90 91.9 94.3 96 98.9 108.4 122 130.2 141.3 157 170.6 183.9 202 218.2 243 258.5 259.3 255.9 251.7 242.6 234.9 226.8 217.9 206.8 196.1 184.9 178.2 168.5 157.7 149.5 143.6 137.2 132
6.6 6.6 6.6 6.6 6.6 6.6 6.6 6.6 6.6 6.6 6.6 6.6 6.6 6.6 6.6 12.3 10.8 6.6 6.6 8.2 4.4 -1.9 -1.9 -1.9 -1.9 -1.9 -1.9 -1.9 -1.9 -1.9 -1.9 -1.9 -1.9 -1.9 1.6 13.2 15.1 21.4 35.6 51.5 63.3 72.6 92.3 104.8 125.8 148.2 170.2 191.7 216 239.2 267.6 281.4 297.9 308.9 323.9 347.3 357.9 368.9 376.5 386.4 397.5 402.1 402.7 404.8 396.4 385.3 369 354 338.6 323.1 311 302.1 294.9 288.9 283.8 280.8 282.9 285 287.5 290.3 300.5 313.3 321.9 319.4 311.7 297.8 277.4 257.2 244.8 227 210.5 209.9 207.8 215.7 242.3 258 279.2 292.5 291.3 288.6 287.3 287.5 283.6 280.4 280.1 278.3 278 269.6 266.2 262.9 258.9 256.2 248.1 238.7 225.4 219.5 214.9 212.2 210.1 209.5 208.1 210.3 221.3 235.4 250.8 268.8 291.4 309.2 325.9 338.1 341.9 352.8 372.6 387.6 386.1 374.8 346.1 328.8 291.5 245.7 185.6 153.4 130.5 116.7 107.3 106 99.6 76 73 76 76.8 78.2 88.4 98.1 108 121.3 141.1 158.8 179 197.1 187.3 133.4 103.8 90.1 85.4 89.6 92.6 97.2 97.4 99.8 100.7 99.9 108.2 122.2 134.8 142.6 153.2 165.7 176.6 194.6 213.8 235.8 255.3 257.3 256 250.4 241.6 233.7 227.2 215.9 204 192.5 182.4 174.5 165.6 155.8 147.8 137.8 133 125.3
14.7 6.6 6.6 6.6 6.6 6.6 6.6 6.6 6.6 6.6 6.6 6.6 6.6 6.6 6.6 6.6 6.6 6.6 9.2 8.2 5.3 -1.9 -1.9 -1.9 -1.9 -1.9 -1.9 -1.9 -1.9 -1.9 -1.9 -1.9 -1.9 -1.9 1.9 12.6 19.1 19.6 27 44 53.1 62.2 84.9 100 117.5 136.5 159.5 180.7 201.2 226.2 250.5 267.9 289.4 302.9 321.8 342.1 354.5 368.9 379.2 392 403 406.6 411.7 412.2 406.9 393.6 377.9 361.9 346.6 332.5 318.7 308.8 300.5 293.8 288.3 289.2 291.3 294.7 298 303.1 307 312.4 317.5 324.1 317.4 305 283.7 263.7 249.5 234.6 222.6 218 213.6 223.5 245.8 269.3 280.1 281.2 287.3 295.8 296.3 288.8 284.4 281 282.9 280.5 278.3 273.3 268.9 265.9 262.9 257.8 253.5 236.5 230 223.4 217.5 212.9 211 212.4 210.8 217.2 225 236.3 252.6 269.1 288.5 313.5 327.6 344.5 353.1 362.4 375.7 380.7 382.3 377.6 349 328.2 311.6 272.8 200.7 162.7 135.2 118.3 108.5 106.6 96.6 77.5 75.4 76.1 77.9 85.7 93.3 106.9 119.8 138.5 164.4 311.8 351.7 265.6 249.3 257.7 163.7 130.1 117.6 111.3 108.3 105.5 106.4 107.5 107.9 105.5 110.7 121.3 133.4 142.9 151.2 162.6 172.6 185.7 210.6 230.8 249.4 260.8 256.8 250 241.5 235.1 226.5 214.5 204.6 192.3 182.8 172.7 162.3 152.4 142.3 134.9 127.4 119.1
17.6 6.6 6.6 6.6 6.6 6.6 6.6 6.6 6.6 6.6 6.6 6.6 6.6 6.6 6.6 6.6 6.6 6.6 11.2 12 10.4 7.1 0.5 -1.9 -1.9 -1.9 -1.9 -1.9 -1.9 -1.9 -1.9 -1.9 -1.9 -1.9 -1.9 9.2 13.2 15.1 15.9 27.9 46 55.4 74.7 83.4 104.6 125.7 146.8 166.1 192.4 214.7 233.8 254.9 282.1 299.9 316.7 339.4 348.4 359.4 373 395.7 404.6 412.3 416.8 415.1 411.1 399.9 385.3 366.9 352.7 338.3 324.4 314.2 306.2 301.2 291.6 297.1 300.5 305 311.9 310.9 313.9 317.2 322.8 322 321 315.1 292.4 274 261.6 242.3 228.8 225 218.2 231.1 245.6 268.1 279.6 281.5 285.9 290.9 294.6 292.8 289.3 285.7 284.2 283.8 280.1 277.7 273.4 270.2 265.1 262.9 256 242 232.6 223.5 216.1 214 212 216 216.4 220.8 229 240.8 258.2 273.1 286.1 307.7 330.4 343.9 358.7 372.6 378.4 377.5 379.9 376.2 353.2 328.3 315.2 292.7 214.2 169.2 140.5 122.8 108.6 101.9 92.9 78 75.9 76.5 80.8 89.1 101.1 118.8 129.4 148.2 196.4 344.2 378.3 354.2 303.4 310.7 254.5 179.1 162.2 145.8 135.1 121.6 114.9 118.5 117.8 110.2 112.8 123.9 136 143.9 147.4 161 180.2 191.4 210.7 230.3 245.1 256.8 259 250.6 241.3 234.8 225.3 216.7 205.2 192 181.6 171.5 160.9 149.1 139.4 132.4 125.5 117.7
23.5 10.3 6.6 6.6 6.6 6.6 6.6 6.6 6.6 6.6 6.6 6.6 6.6 6.6 6.6 6.6 6.6 6.6 9.5 13.5 15.4 13.1 7.6 0.4 -1.9 -1.9 -1.9 -1.9 -1.9 -1.9 -1.9 -1.9 -1.9 -1.9 -1.9 -1.9 -1.9 9.7 13.4 17.4 33.4 44.4 58.9 66.9 86.7 111.5 141 164.5 180.9 202 225.6 244.1 270.4 290.7 312.5 329 343.2 353.9 368.4 390.3 407.2 419 419.7 417.1 411.6 405.5 389 373.2 357.2 342.8 330.7 319 312.1 306 300.6 304.2 309.2 314.8 324.5 326 326.5 330.1 331 330.3 332.6 317.5 302.4 292.5 285.4 252.7 239.2 235.3 225.9 234.6 245.8 258.6 275 288 289.2 293 297.8 295.5 292 289 286 285.6 281.9 280.2 278.6 276.4 272.2 268.8 266.1 247.3 234.5 223.6 218.9 219.4 218.8 221.6 224.5 232.6 242.1 259.2 266.2 279.5 300.5 311.5 332.8 343.3 362.9 379.2 378.1 377.7 374.7 367.9 349 329.4 313.4 293.1 235 178.6 148.5 122.8 108.8 99 88.9 80.9 76.6 78.1 85.7 97.8 111.5 126.1 145.8 180.2 294.3 356.9 388.1 407 394.5 351.7 309.3 249.8 210.7 183.1 165.2 143.9 135.4 129.5 128.3 123.4 112.5 126.8 135.9 144.5 154 164.2 176.1 189.3 212.5 228.8 240.4 255.3 254.1 248.2 239.8 232.4 225 215.6 202.8 190.4 179.9 170 160.9 151 139.7 132 123.4 111
32 16.7 6.6 6.6 6.6 6.6 6.6 6.6 6.6 6.6 6.6 6.6 6.6 6.6 6.6 6.6 6.6 7.7 10.4 12.8 15.6 18.9 11.5 4.1 -1.9 -1.9 -1.9 -1.9 -1.9 -1.9 -1.9 -0.4 -1.9 -1.9 -1.9 -1.9 -1.9 -0.9 8.1 12.9 19.9 33.1 43.6 58 74.2 97.1 129.9 151.5 176.5 192.5 211 234.4 258.5 274.8 297.3 318.9 332.5 345.4 360.4 382.8 403.6 418.7 425.2 417.9 411.9 405.8 391.1 378.3 358.6 346.4 333.5 322.8 316.2 310.4 308.1 311.8 317.6 325.3 331.6 340.1 337.4 341 343.1 342.8 342.6 337.2 313 295.7 288.9 264.3 246.8 239.7 237.1 234 256.7 272.4 280.7 291 302.6 298.4 294.4 295.7 293.2 291.3 289.4 289 285.6 281.8 280.7 278.5 276.7 275.1 273.9 267.1 264 258 268.6 247.7 239.1 237.7 245.6 253.5 261.7 270.4 279.9 292.2 307.2 323.4 334.3 347.9 364.4 387 384.8 382.8 374.2 362.3 346 326.8 316.2 280.4 226.9 185.9 154.1 132.2 111.8 99.1 86.3 79 79 82.6 94.2 106.2 117.4 140.2 167.8 208.9 303.5 359.6 393.5 419.6 409.9 383.2 339.9 299.9 265.4 230.3 190.8 158.4 148.3 145.7 138 131.9 127.4 126.9 136.8 149.7 158.5 164.4 169.7 189.5 210.4 223.1 240.6 249.7 253.7 246.6 236.9 230.6 223.7 213.4 200.6 188.3 179.1 169.6 159.9 147.9 140.5 129.2 120.5 110.4
38.3 23.2 11.3 6.6 6.6 6.6 6.6 6.6 6.6 6.6 6.6 6.6 6.6 6.6 6.6 6.6 6.7 12.7 18.9 19.3 19.5 23.7 15.9 10 0 -1.9 -1.9 -1.9 -1.9 -1.9 -1.9 1.1 -1.9 -1.9 -1.9 -1.9 8.7 -0.9 -0.9 6.8 11 18.7 34.8 50 65.2 85 113.2 132.2 160.4 175.8 201.8 227.3 242.9 258.1 282.8 302.8 318.5 334.6 349 376.7 401 415.9 420.7 416.7 409.4 402.9 393.2 377.5 360.9 348.1 336.9 326.1 319.2 313.8 315.1 319 324.2 330.6 340.2 346.9 352.4 354.4 354.4 353.8 360.8 350.5 335.1 310.2 292.6 273.9 259.8 246.2 242.6 240.9 257.9 269.9 280.9 299.1 306 307.6 303.9 299 294.6 294.9 292.1 292.2 288.9 285.7 283.6 280.6 280.6 280.3 281.8 300.9 311.1 319.9 330.5 333.6 330.9 310.4 291.6 287.2 293.7 285.8 293.4 300.4 316.1 337.2 338.9 348.2 363.6 383.3 393.1 387.4 379.2 363.3 346.1 328.8 319.5 286.7 226.4 186 154.8 131.1 114.7 96 87.6 87.1 80.3 85.9 95.5 109 130.4 153.5 187.7 236.2 315.3 366.7 398.6 423.9 423.2 398.1 362.1 328.9 292.1 257.7 223.7 180.3 167.6 161.8 146.6 139 132.8 126.8 138 151.1 160.2 164.2 168.6 182.9 196.7 222.7 242.6 255.6 249.3 242.7 235.3 229.3 222 210.8 199.2 188.1 177.6 167.9 157.3 145.1 137.9 127 118.4 110.9
41.9 27.9 18 15.2 8.7 6.6 6.6 6.6 6.6 6.6 6.6 6.6 6.6 6.6 6.6 6.7 15.5 25.4 25.9 24.5 23 25 20.3 14.8 1.5 -1.9 -1.9 -1.9 -0.9 -0.6 0.7 1.8 4.3 1.8 3.5 6.7 6.5 9.1 6.1 -0.6 1.5 5.1 20.9 36.1 48.6 71.7 89.1 106.8 126.2 146.3 186.4 212.9 228.3 249 271.8 288.2 305.4 320.3 343.9 370.2 392.6 411.2 420.9 419 410.8 399 389.6 376.8 361.9 348.4 337.5 327.4 322.5 317.1 321.3 325.9 330.4 337.5 346.1 355.4 361.3 364.5 369.5 366.8 366.4 362.3 352.7 336.7 301.6 282.8 269.8 268.7 254.6 249.6 257.5 267.8 296.8 307.7 311.7 309.2 307.7 303.2 298.1 294.4 294.8 293.6 291.5 288.7 286.4 285.5 285.8 290.5 293.9 308.7 326.8 340.4 351.3 355.2 346.6 334.8 326 314.5 313.5 306.2 309.1 318.3 332.1 339.2 347.1 354.9 375.1 397.3 401.3 392.3 376.6 360.5 344.1 331.3 320.3 293.3 224.2 185.9 155.3 130.5 108 90 85.6 82.7 83.7 86.2 95.3 113 140.7 166 205.4 295.5 329.5 365.7 399.8 428.6 423.4 405.6 375.4 339.8 305 266 234.1 196.8 181 169.6 153.8 146.2 140.2 134.7 135.3 150.1 159.9 168.1 177.3 189 194.6 213.2 242.5 249.8 246.7 241.8 233.3 225.5 220.5 209.8 200 188.7 179.3 168.6 156.8 146.1 138 127.4 116.8 103
51.5 38.8 29.6 24.9 28.8 34.3 38.9 29.8 23.3 14.8 10.4 10.1 10.9 8.9 10.7 13.3 23.6 31.2 34.1 29.9 28.8 25.8 24.8 20.3 8.3 1.4 0.9 1 1.3 1.6 7.1 4.6 5.6 4 5.3 5.5 8.6 8 8.2 9 -0.9 -0.9 3.5 22.5 36.8 51.4 68.4 81.4 104.2 122.5 158.5 191.8 213.3 239.9 258.5 276.3 290.6 307.3 334.1 362.5 384.8 406.3 419.3 421.1 410.8 400.6 387.3 374.2 360.5 348.4 337.4 328.2 323 321 324.4 329.9 335.2 342 352 358.3 364.2 369.4 372.6 377.9 381.7 378.6 369.9 363.5 345.7 305.6 283.8 274.8 265.3 263.5 261.4 277.8 296.2 312.3 313.9 317.4 312.2 307.6 305.3 301.2 297.2 296.5 296.1 294.3 291 290.1 291.7 293.5 299.3 311.6 329.2 355.5 363.2 366.1 358.4 346.9 337.1 329.9 324.1 323.7 321.3 334.4 344.5 352.8 354.2 361.9 389.1 398.7 402.1 392.6 376.3 356.9 347.2 332.1 321 304.8 236 193.4 158.6 129.7 106.5 90.6 88.9 85.6 85.8 89.1 98.1 120.6 146.7 180.8 233.6 285.4 325.2 371.8 406.5 426.9 428.2 411.2 382.5 349.1 311.1 275.7 244.9 212.3 194.1 180.4 162.1 151.9 147.4 136.6 137.6 154.1 162.5 173.9 184.8 191.1 196.4 203.8 228.2 243.6 245.5 242.9 231.4 224.5 216.6 208 198.5 190 178.8 168.1 157.8 144.9 136.2 126.2 115.1 99.9
59 57.7 60 68.8 88 110.1 112.9 67.6 44.9 33.7 29.9 28.2 23 15.8 16.9 19.8 28 37.4 41.5 43 41 40.2 28.2 25.5 14.9 6.7 6.6 5.8 5.5 5.7 10.2 9 9.1 6.4 5.9 7.1 7.8 10.1 7.8 -0.9 -0.9 -0.9 -0.9 9 22.8 37.4 50.8 64.1 88.1 108.9 142.9 164.9 193.2 218.4 245.8 266.2 279.5 297.4 324.7 354.9 381.7 402.6 417.1 420.4 409.3 401.5 385.4 373.8 359.7 347.3 338.1 329 324.1 323.6 328 334.3 339.6 347.6 356.9 364.1 370.5 375 382.4 389.8 391.9 387 382.7 377.5 370.8 341.3 305.9 286.6 272.8 270.4 275.3 281.3 297.4 311.5 313.8 323 320.5 315.3 308.6 305.7 301.8 302.9 301.5 298.4 296 297.3 298.2 298.3 304.5 316.8 341.4 365.5 373.8 378.9 375.1 361.8 345.5 346.6 349.7 345.5 342.9 350.2 348.7 356.6 362.3 368.9 386 401.2 402.1 396.1 380.7 365.4 350.8 337.7 318.6 308.1 261.7 199.7 165.4 138.4 110.9 90.8 85.4 84.2 85.3 89.8 103.5 122.4 152.4 184.4 226.7 278.8 333.4 379.5 406 426.3 438.1 426.8 389.6 350.7 313.6 280 251.6 220.7 202.1 186.2 171.4 159.2 155.1 151.3 142 154.5 160.2 170.8 183.2 191.1 197.8 203.7 214 236.7 239.9 233.8 228 219.5 218 206.7 196.5 187.3 178 167.8 158.1 145.4 133.5 122.1 108.4 100.9
100.1 83.8 90.4 121.8 134.1 155 165.6 106.9 91.8 80.4 62.7 45.9 39.3 29.7 25 28 33.3 42.6 52.4 51.3 51.3 48.6 38.5 32.2 21.4 13 9.2 11 5.9 10.4 18.7 13.7 14 11.3 12.9 10.6 6.7 9.3 10.3 4.3 -0.9 -0.9 -0.9 -0.9 6.7 20.9 35 50.3 72.4 97.3 128.4 147.5 174.1 202.7 225.6 246.4 261.7 284.8 316 347.8 374.7 399.2 418.5 419.4 408.6 399.9 387.1 373.1 362.1 347.7 337.1 328.6 325.2 325.6 329.3 336.8 342.4 350.7 360.9 370.5 376.6 383.6 388.6 395 402.4 402.3 401.3 395.2 382.4 364.2 331.4 302.1 286.6 279.2 279.5 282.5 295 305.5 317.2 322.4 321 318.1 313.5 306.9 306.5 305.9 304.3 301.9 300.2 302.7 303.1 303.1 310.2 324 342.4 365.9 379.5 382.1 380.7 376.7 361.2 356.8 357.8 365.6 365 365.2 362.4 362.6 367 375.6 386 400.9 405.6 399.9 386.2 372.6 363.9 340.5 329.8 297.1 250.3 205.7 170 140.5 115.4 93.1 85.6 85.2 85.5 91.7 108.2 130.1 157 188.3 230.3 296.9 343 385.6 407.2 424.7 431.4 421.6 397.7 359.1 319.1 285.7 256 231.1 207.8 191.1 179.9 167.4 160.7 160.8 160.1 159.8 176.5 185 187.1 197.4 204.2 209.8 217 225.3 234.7 229.1 224.1 220 211.4 203.2 195.3 184.1 176 166.7 156 143.8 133.3 121.1 110.4 100.7
123.7 116 112.3 144.5 172.4 201.2 202 189.8 158.2 136.3 114.6 72.6 57.6 51.4 40.2 40.5 40.4 46 59.9 57.1 59.1 51 44.4 35.1 26.9 23.5 14.4 14.5 14.9 19.3 22.4 21.6 20.6 23.6 17.5 13.3 5.5 5.6 10.8 -0.9 -0.9 -0.9 -0.9 -0.9 -0.9 6.7 21.5 39 53.4 72.6 105.5 131.8 153.4 182.4 207.1 228.9 244.4 270.3 295.8 330.4 362.9 393.3 411.7 416 408.3 396.6 385 370.9 361.5 348.5 336.9 327.6 325.5 326.4 330.4 337.9 345.9 356 366.9 376 384.7 392.1 398.8 403.5 411.2 418.2 417.9 416.1 410.5 398.1 387.5 345.9 313.7 292.3 288.8 292.2 296.9 310.1 315.1 317.5 322.7 317.1 314.1 312.9 310.3 312.4 309.2 305.3 303.4 304.6 306 305.6 312 327.1 347.8 368.9 382.2 390.5 392.1 387.4 377.9 372.2 370.9 374.1 374.1 376.7 375.3 379 378 385.6 388.9 400.8 403.6 400.7 391.5 378 370.3 346.5 338.8 317.8 249 209.3 180.1 150.1 122.3 99.9 86 86.5 85.4 89.5 113 131.2 161.6 193.9 230.4 294.7 346 382.7 411.9 425.1 423 413.4 399.1 375.9 339.6 299.1 267 241.4 216.9 197.1 185.9 178.2 171 168.2 169.6 171.5 189.3 199 196.4 203.1 209 216.3 224.7 224.7 228.4 227.5 220 215.3 209.8 203 193.9 182.8 173.2 161.8 153.2 142.4 132.4 120.6 109 99.3
143.2 148.7 142.3 174 210.3 220.5 222.6 219.3 201.8 183.2 143.1 101.9 94.5 75.3 59.8 54.5 52.4 53 56.8 58.5 57.2 55.8 49.5 40.9 32.7 26.4 21.6 22.2 27.9 30.9 34.3 28.1 30.2 28.5 25.2 17.6 12.4 -0.9 -0.9 -0.9 -0.9 -0.9 -0.9 -0.9 -0.9 -0.9 13.2 26 43.3 61 94.3 114.2 137 164.6 187 209 231.9 254.4 278.6 309.8 341.9 372.1 397.5 409.6 402.7 391.2 383.7 368.8 360.5 347.9 338.4 328 326.2 327.2 332.4 338.7 351.5 361.4 372.7 385 393.3 400.5 406.9 414.3 419.8 427.2 434.3 436 434.5 429 416.8 376.7 336.6 311.8 298.4 297.8 301.5 307.7 313.1 316 318.7 317.4 315.6 314.4 313 314.4 311 309.7 307.3 306.2 308.4 310.8 321.3 335.4 347.1 365.4 389.7 403.2 407.5 406.9 397.1 394 395.6 398.7 386.9 392.2 391 388 391 392.2 394.5 402.5 409.4 406.6 392.6 380.4 371 351.3 340.3 324.4 271.6 211.9 184.6 153.7 129.4 105.9 86.5 86.9 86.1 95.3 114.3 135.8 163.4 197.3 237.4 282.7 330.7 383.1 410 419.5 420.3 415.3 402.1 374.4 349.2 310.5 280.8 243.6 222.6 203.9 191.6 184.8 177.5 173.2 175.9 179.6 191.4 198.7 197.1 204.3 208.4 212.1 220.6 221.9 223.6 224 222.7 214.9 204.2 198.7 192.2 179.9 170.7 161.4 149.2 139.1 128.1 119.7 108.1 101.7
169.1 179.7 190.8 196.1 227.6 232.5 234.4 230.8 217.3 198.1 166 132.4 115.4 84.9 82.7 70.2 68.2 59.6 59.1 59.7 57.3 56.5 54 48 38.3 30.2 31.6 27.2 33.4 39.1 43.5 41.1 39.9 36.6 35.5 24.6 19.6 7.3 -0.9 -0.9 -0.9 -0.9 -0.9 -0.9 -0.9 -0.9 9.2 18.3 36.7 50.8 72.2 96 118.5 139.7 161.9 181.2 219.4 240.1 264.9 291.1 317.7 351.1 371.3 389.4 392.3 385.3 377.4 366.9 359 346.9 335.5 327.3 327.2 329 333.3 342.4 353.8 365.7 377.8 390.6 400 408.9 417.1 424.9 430.2 437.4 447.9 450.3 449.1 445.5 443.1 412.8 366.2 333.8 317.3 312.5 314.1 306.6 311.9 314.9 314.9 317.4 325.4 317 315.5 315.4 313.2 311.3 310.1 308.4 311 314.2 323.4 339.8 350.2 365.8 387.6 406.3 418.3 422.2 417.9 417 415.8 413.2 405.4 406.9 405.7 401.2 401.4 402.5 404.9 408.5 413.1 412.1 397 382.1 376.6 357.4 336.4 328.6 314 217 179.4 152.3 126.5 108.6 88.7 87.8 87.4 96.1 116 137.3 165.5 200.1 249.4 297.5 322 352.2 389.2 413.2 419.4 414.6 404.2 380.2 347.5 313.3 275.7 248 228.4 211.6 199.3 187.9 180.5 178.7 183.5 185.1 192.1 196.9 197.1 200.5 206.5 212.6 216.2 223.8 225.5 224.7 218.1 213.5 206.1 197.8 188 177.6 166.5 156 147.2 137.4 125.3 116.2 105.7 100
194.3 221.7 236.7 240.6 238.2 244.3 243.3 236.8 231.9 207.7 177 149.7 131.2 112.5 108.3 88.8 78.1 68.5 65.1 63.4 56.9 54.7 51.8 48.1 38.1 35.3 35.3 37.7 37.7 46.7 52.4 53.4 47.2 47.3 41.4 34.5 26.3 16.3 -0.9 -0.9 -0.9 -0.9 -0.9 -0.9 -0.9 -0.9 -0.9 10 25.5 41.8 54.8 71.2 93.1 114.9 135.9 164.3 198.9 227.8 248.7 272.1 296.7 318.2 342 361.5 374.7 374.5 369.5 362 355 345.7 335.3 328.7 328.5 331.1 335 345.8 357.3 370.6 384.3 397.6 409 418.3 427.5 435.2 441.3 451.3 463.4 468.8 467.7 463.8 458.1 438.9 401.4 356.3 338.6 329.5 330.7 326.5 316.7 315.5 317.5 316 324.6 320.6 317 317.5 316.5 314.9 312.2 310.3 312.2 316.7 323.4 344.3 358.5 380.1 396.2 415.2 427.9 435.9 439.3 438.6 434.4 429 424.8 423.5 419.5 414.2 410.5 410.2 413.1 420.4 417 410.8 399.9 380.4 372.1 357.7 338.8 325.5 314.7 219.5 179.6 150 121 107.4 90.6 89 89.1 94.8 113.5 142.8 172.4 204.6 238 270.2 311.6 349.9 392 410.6 416.3 416 405.3 381.6 349.4 308.6 278.3 254.4 234.6 219.6 207.3 198.7 188.2 185.7 188.6 190.8 194.6 198.4 199.3 201.4 208.6 214.5 215.4 217 219.7 221.4 215.4 208.6 205.5 199.5 185.8 173.9 162.7 152.9 141.7 131.4 122 114.6 110.5 100.4
222.6 241.6 252.3 258.7 255.9 254.2 251.8 251.3 241.9 219.4 186.9 156.5 135.7 129.1 123 110.3 102.2 87.2 80 73.8 66.3 61.9 56.9 51.1 46 40.5 41.3 45.8 48 54.6 56.9 65.4 59 60.3 54 42.8 32.6 20.5 7.9 -0.9 -0.9 -0.9 -0.9 -0.9 -0.9 -0.9 -0.9 -0.9 15.4 29.6 42.7 55.3 74.8 95.5 116.9 144.8 175.4 207.4 232.1 257.2 274.8 296.6 320.4 339.7 354.2 358.8 358.9 357.9 352.3 348.2 335.3 329.5 329.2 333.4 338.3 347.3 359.7 379.1 393.5 407.7 419.7 430.5 439.8 447.3 454.9 465.7 477.3 484.2 486.4 486.2 479.8 456.4 417.4 380.2 359.1 344.2 340.3 333 321.7 316.4 316.7 319.2 322.1 322.8 321.2 320.1 318.6 316.9 315.3 313.1 314 318.2 323.9 339.1 354.9 371.1 389 408.8 425.9 440.3 449.2 449.4 445.3 439.7 437.9 440.8 437.2 428.2 420.8 418.5 421.8 426 420.4 409.7 397.3 383 366.2 354.5 336.1 324.9 286 220.4 179.3 150 125.5 115.4 94.5 91.6 101.6 107.3 122.3 149.6 176.5 211.3 248.9 306.3 349.9 364.2 395.2 412.6 413.6 412 399.6 372.8 338.2 309.2 281.4 257.6 236.9 224.9 212.5 201.6 193.1 193.3 191.3 194.9 196.9 198.8 201.2 202.6 212.3 215.9 216.1 215 217.5 215.8 213.5 206.4 202.9 194.4 180.2 168.4 159 149.4 139.1 130.7 118.4 110.5 106 99.1
238.4 249.8 260.8 270 270.7 266 261.5 263.4 251.8 233 205 164.5 147.1 148.7 145.6 143.1 129.1 120.3 100.5 89.5 86 87.4 87.3 67.7 58 52.7 53.1 65.2 69.1 67.2 68.4 75.6 73.8 67 66.5 54.5 38.8 26.8 16 5.4 -0.9 -0.9 -0.9 -0.9 -0.9 -0.9 -0.9 -0.9 -0.9 18.1 30.9 43.8 58.5 75.2 96 122.1 162.8 188.8 210.4 232.7 259.7 279.9 297.1 317.3 333.5 341.2 349.2 352.2 348.7 345.8 336.7 331.2 331.7 336.4 341.7 354.4 367.8 383.6 400.7 419.7 434.5 445.2 455.6 461.7 470.6 482 495.2 505.6 507.9 507.1 497.7 481.3 446.8 415.7 381.8 360 352.4 331.7 324 319.3 319.9 322.7 322.6 325.9 326.3 322.8 322.5 318.9 317.5 316.7 315 317.2 323.9 335.3 354.6 371.5 389.3 408.3 426.6 444.8 452.6 455.9 454.7 450.2 449.8 455.1 453.4 445.2 435.9 429.2 427.8 425.1 420.7 407.9 396.7 382.7 367.5 350.3 334.5 324.4 282.5 222.3 182.6 153.4 136.1 120.5 99.8 99.2 120.8 137.1 148.3 163 189 221.3 268.9 357.4 389.3 403.9 411.6 415.5 417.5 413.2 403.1 381.4 339.9 311.8 289.2 264.5 242.9 224.9 215.5 205 198.9 195.8 195.3 199.9 199.8 200.3 202.8 204.8 213.2 216.7 218.3 217 214.4 213.6 213.7 207.1 198.8 185 176 164.6 155 144.5 135.8 123.5 114 109.7 102.6 100.2
247.5 259.3 269.5 276.2 275.7 273.3 271 268.5 257.3 240.1 213.9 178.7 169 171.4 169.9 171.9 163 148.5 126.5 116.5 121.1 128.4 100.9 81.7 69.5 63.6 66.2 78.3 82.7 82.3 77.2 86.8 82.5 72.4 70.1 64.5 50.3 35.7 25.3 14 3.6 -0.9 -0.9 -0.9 -0.9 -0.9 -0.9 -0.9 -0.9 -0.9 18.9 31.2 46.7 63.2 79.3 103.9 136 156 179.4 218.8 241.1 258.6 278.9 298.3 310.1 332.1 342.4 340.8 343.2 340.7 336.1 333.8 336.3 342.5 350.2 364 378.1 396.4 413.1 431.7 449.1 462.2 475.4 480.9 488.3 497.3 510.9 521.4 526.4 525.9 516.4 504.4 475.6 446 412.1 379.4 357 345.4 326.4 323.3 320.8 326.2 330.6 330.5 328.8 327.5 326.1 321.4 321.3 319.2 318.8 316.8 325.6 336.2 350.8 368.5 388.2 410 430.5 443.5 454.4 462 461.1 460.6 462.7 470.6 472 462.6 447.3 441.3 432.3 429.9 420.5 409.5 397.8 381.1 362.5 348.3 335 315.7 299.4 224 183.7 156.3 140 120.1 106.7 116.5 142.2 177.7 199 211 239.2 238.5 310.6 368.9 391.5 406.3 415.8 419.3 421 416.7 408.9 397.4 362.9 323 299.6 286 262.1 221.5 208 204.6 199 197.5 198.3 202.6 202.4 202.9 206.2 211.4 219.6 220.8 218.8 217.4 216.5 213 209.4 206.1 198.8 188.2 171.7 162.4 153.6 142.8 135.4 119.1 113.2 108.7 98.5 93.6
252.2 266.4 281.2 284.1 283.5 283.6 277.5 275.4 262.4 245.2 217.1 191.7 186.6 197.4 209.1 221.2 197 166.6 169.9 170.7 148.5 140.8 109.6 89.7 81.5 82.8 84.1 92.8 90.9 91.1 88.5 91.1 91.1 86 85.3 74.1 60.9 45.7 33.2 21.8 11.7 -0.9 -0.9 -0.9 -0.9 -0.9 -0.9 -0.9 -0.9 -0.9 8 19.3 33.9 49.4 67.8 87 111.5 131 157.1 190 204.9 240.8 261.3 279.4 297.1 316.6 329.2 331.2 334.1 337.9 336.7 337.2 343 349.6 358.2 376 393.2 412.6 431.1 452.7 469.2 482.6 498.2 507.6 515.4 521.1 529.9 536.8 542.1 541.6 531.4 517.5 499.5 477 441.2 405.3 395.1 384.9 354.7 330.1 329.7 331.2 333 331.9 332.7 330.8 327.3 324.8 323.3 322.5 327.3 337.5 337.1 340.7 351 371.3 392.4 412.2 430.9 446.5 458.4 464.5 467 465.9 465.7 469.6 469.9 465.7 454.5 449.5 439 430.9 422.5 411.2 399.3 383.1 362.7 342.2 326.4 311.6 289.3 221.8 188.5 160 141.2 125.3 126 134.6 161 195.3 241.8 287.5 311 276.9 304.2 376.5 395.5 408.4 418 424.7 426.7 423.7 415.4 404.6 372.2 340.1 319.3 298.4 277.4 232.9 212.8 203.6 199 199.3 199.6 204.8 205.2 206.2 213.8 219.7 221.1 222.5 221.3 221.5 218.3 218.1 211.9 205.6 197.9 189.7 176.8 160.7 150.7 140.4 130.4 121.4 109.1 107.4 100.7 99.3
262.1 273.9 287.6 292.2 290.7 295.8 288.6 272.1 257.9 241.3 218.3 195.2 209.3 224.6 230.4 234.9 214.7 197.6 212.2 205.1 166.8 136.9 118.8 104.9 96.6 102.4 117.3 122.2 113.1 107.2 101.6 101.8 102.2 109 99.3 87.7 70.3 54.8 40.9 30.6 19.7 6.3 -0.9 -0.9 -0.9 -0.9 -0.9 -0.9 -0.9 -0.9 -0.9 6.5 21.7 36.9 53.3 70.9 90.6 117.6 135 161.6 182.1 208.4 235.9 257.6 275.7 300.6 311.4 323.7 326.5 334.7 337 344.2 349.9 358.9 371.8 387.4 408.6 427.3 450.3 469 492 505.6 518.8 525.9 530.9 537.4 544.1 548.9 550.1 545.7 536.1 521.1 506.4 489.2 468.3 446.4 422.8 396.3 373.9 357 337.2 338.8 339.3 333.8 332.2 332.3 330.2 328.1 327.5 325.7 326.8 339 342.9 345.1 354.1 372.3 391.5 415.3 437.4 454.5 467.6 479.1 480 471.8 469 468.4 468.7 464.1 458.2 452.2 443.4 439.2 427.8 415.6 402 383.6 366.5 343.4 321.7 305.5 270.8 228.5 193.5 170.9 147.6 131.5 138 147.7 174.6 206.9 259.7 299.7 324.3 337.5 339.6 383.8 398.8 411.7 420.6 427.6 428.5 430 422.2 411.3 389.1 360.7 327.1 301.1 273 243.5 216.7 202.7 200.3 200 200.4 206 208.1 210.1 214.5 219.2 226.3 235.4 237.1 233.5 230.2 220.3 212.1 206.6 199.3 187.4 175.6 159.1 150.1 139.2 123.9 112.8 108.2 103.7 99.9 96.2
270 286.3 296.1 299.1 298.6 297.5 291.6 269.5 253.7 236.7 215.2 205.3 227.5 241.4 253 246.6 237.9 230.3 241.9 218.1 171.4 154.6 154.1 126.8 121.1 125.9 138.2 145 155 133.4 130.2 130.9 117.5 114.2 109.5 100.4 88.3 64.3 48.3 40.1 27.7 15.5 5.7 -0.9 -0.9 -0.9 -0.9 -0.9 -0.9 -0.9 -0.9 -0.9 8.5 24.9 40.7 55.8 75.7 91.1 117.3 134 153.4 178.7 202.6 231.8 248.2 269.9 286.8 302.7 321.8 333.8 339.2 352.8 360.1 369.2 383.5 399.9 422.1 441.2 461.2 483.2 500.1 519.4 530.6 539.5 544.2 547.6 550.5 553 551.6 544.3 534 522.7 507.1 492.8 475.2 455.7 435.1 409.9 389.6 368.9 355.3 347.3 344.9 338.5 336.3 334 334.3 333 332.1 330.5 331 338.4 341 348.5 358.5 373 393.4 422.7 440.7 466 490.1 498 491 484 476.2 472.4 470.2 466.7 461.6 454.8 445.6 437.5 429.4 415.9 405.3 385.4 364.9 343.1 317.7 295.4 262.7 230.7 199.6 178.7 158.6 139 148 169.9 190.9 223.7 273.7 311.3 338.3 356.7 364.4 387.3 401 413.5 423.7 429.5 434.6 437.6 430.3 421.8 399.4 372.6 344.7 309.1 278.7 249.4 224.1 208.7 201.4 202.7 204.8 211 212.8 215.9 220.2 224.7 231 240.4 244.3 238 231.1 223.6 217.6 211.1 196.7 189.9 173.9 158.5 148 139.4 129 109.3 108.2 102.3 100.1 95
275.8 290.4 296.7 299.9 303.1 300.7 286.8 267.4 250.2 232 216.3 225.8 235.1 254.2 265.7 264.6 257.2 252.9 268.8 251.2 210.6 179.5 167.6 178.3 161.1 170.8 161.7 169.8 177.9 154 150.8 160 175.6 153.8 121.5 117.4 104.1 84.2 63 49.9 39.6 26.1 15 -0.9 -0.9 -0.9 -0.9 -0.9 -0.9 -0.9 -0.9 -0.9 -0.9 12.9 26.8 39.2 57.5 70 86.4 108.1 129.7 149.5 174.4 202.8 219.9 247.1 264.3 287.4 308.9 324 340.2 354.6 368.7 380.2 395.6 411.3 428.5 449.5 471.7 490.2 508.4 524.2 536.1 546.5 553.9 556.9 553.9 551.9 546.8 537.5 526.6 516.8 504.8 488.1 473.4 457.2 438.5 419.5 397.9 380.6 369.8 356.5 349 343.8 341.7 340.4 340.9 339.6 338.4 335.6 333.3 334.8 341 354.9 360.5 374.2 397.7 422.8 450.7 476.1 492.2 500.2 497.8 491.7 485.1 480.2 475.1 472 465.5 457.9 446 437.5 429.2 418.4 405.7 390.4 366.2 343.8 318.8 292.4 260.1 233.6 209.1 184.1 163.2 157.4 166.3 185.5 220.9 248.8 283 320.2 346.1 359.9 373.4 390.1 401.8 413.7 424.8 434.2 441.4 444.8 438.9 430.9 415.3 382.5 353.7 319.7 291.5 271.6 249.7 219.1 208.4 210 209.4 213.7 217.7 223.1 230.1 232.9 236.5 243.3 243.5 239.2 235.7 232.8 234.4 224.3 208.1 188.3 174.4 158.8 146.8 135 126.4 114.1 104 101.8 99.1 92.3
287.9 291.6 294.4 300 304.7 299.9 285.7 263.7 245.2 229.3 225 232.5 247 262.8 274.4 283.7 293.5 279.4 292.1 275 222.5 213.4 203.5 227.6 224.1 199.6 182.4 178.7 182.4 170 173.4 189.3 196.5 192 166.6 134.9 116.8 96.3 79.1 62.5 49 38.1 23.6 12.5 -0.3 -0.9 -0.9 -0.9 -0.9 -0.9 -0.9 -0.9 -0.9 1.8 17.4 28 44.4 55.7 65.3 83.9 106 123.7 145.6 173.4 195.4 217.9 241.9 268.9 297.1 319.6 338.3 359.4 369.4 382.9 393.8 416.4 435.9 464.6 481 493.8 510.6 525.4 537.6 548.5 556.8 557.2 552.4 546.8 539.9 527.6 515.5 504.8 492.6 479.5 464.6 451.8 438.2 423.7 406.3 390.2 375.6 365.7 357.4 353.8 352.7 351.8 350.5 347.1 344.6 340.8 338.9 336.9 343.5 354.9 362.8 374.9 395.9 421.5 458.6 481.3 494.5 502.3 499.9 494 490.3 487.1 481.7 477.6 471 461.7 449.3 436.1 426.9 419.2 405.6 390.3 368.2 342.4 312.8 288.3 257.7 236.3 212.4 190.1 170 164.6 190.9 213.4 252.1 279.1 305.3 330.2 351.6 365.4 377.5 391.7 403.7 414.9 428 437 444.7 450 448 436.2 423.1 397.9 363.2 340 312.3 293.6 267.2 246.4 227.4 215 212.9 215.6 222.6 228.6 232.8 236.4 238 242.8 244.7 242.4 245.5 241.2 239.6 231.9 213.4 197.3 179.3 157.6 143.2 131 124.6 114.9 103 100.9 96.9 88.4
296.1 295.9 298.9 302.3 305.6 297.5 280.1 259.3 242 227.8 231.5 240.4 258.2 270.9 285.1 293.8 303.3 299.1 302.2 284.3 260.2 268.4 239.5 258.9 253.4 220.5 201.4 194 184.2 182.5 188.3 206.9 205 213.9 195 186.1 141.3 111.4 94.9 75.6 58.5 46.2 32.6 20.6 13 -0.9 -0.9 -0.9 -0.9 -0.9 -0.9 -0.9 -0.9 -0.9 5.1 19.5 35.2 44.5 52.6 64.6 85.1 100.3 121.7 141.7 167.1 193.6 224.8 246.1 279.8 310 333.1 348.4 366 380.7 394.9 409.8 433 458.6 476.8 493 506.4 521.3 535.2 545.2 553.9 555 546.5 539.8 526.7 515.7 503.1 488 476 464.2 451.8 442.9 433.5 423.8 414.9 400.1 386.2 374.6 371 365.8 365.1 362.4 358.8 359.4 353.6 348.3 343.1 342.1 352.4 355.2 365.2 377.6 394.4 429.9 459 477.2 487.9 501.7 505.3 500.7 496.6 492.8 489.4 483.6 474.6 464.3 454.9 435.6 423.3 411.2 402.9 386.2 365.1 342.5 308.8 284.7 257.7 235.9 210 188.1 177.2 178.7 199.9 227.8 257.4 289.3 316.5 340.6 355.9 367.9 380.4 392.7 405.5 416.5 429.7 438.7 447.6 452.9 451.9 441.7 427.3 411.6 388 366.2 342 307 281.5 250.2 232.8 224.7 221.9 223.2 225.1 230.8 234 237.8 241.5 249.2 249.1 249.6 248.1 242.5 242.2 235.1 220.3 198.9 182.3 159 142.5 131.2 124.3 108.1 104.8 100.6 95.5 85.9
303.8 295.2 299.8 300.3 300.2 292.5 276.1 254.9 237.3 230.8 233.7 246.6 264.1 277.4 291.2 301.1 309.7 310.7 311.6 288.7 302.5 295.6 286.7 272.7 264.5 231.1 209.5 201.4 192.5 188.7 194.5 209.1 212.5 214 215.4 215.2 185.1 137.6 115.1 88.4 68.9 63.1 50.5 37.7 30.8 21.9 5.9 -0.9 -0.9 -0.9 -0.9 -0.9 -0.9 -0.9 -0.9 6.9 21.3 31.8 38.8 51.6 67.9 84 104.4 126 145.5 172.7 198.4 235.1 264.6 301.8 326.8 340.8 354.2 368.3 388.3 406.4 426.5 447.4 463.4 486.4 500.9 513.7 527.8 537.3 545 542.7 535.7 526.7 513 499.1 485.9 469.2 456.4 445.7 437.6 430.5 423.6 419.9 415.2 407.2 398.9 389.8 385.2 383.1 379.8 375.5 374 370.3 364.8 356.7 350.6 351.1 359.2 364.7 368.4 383 397 428.3 453 473.3 487.6 497.8 503.7 505.6 504.3 499.5 495.2 489.5 478.9 468.9 452.4 435.4 415 407.1 391.7 377.9 361.7 337 307.5 281.1 259.2 227.6 201.1 187.8 184.4 188.4 206.9 227.5 264.6 296.4 320.5 342.7 358.6 372.9 383.9 393.3 407.2 416.8 428.8 438.7 447.3 453.2 454.5 446.4 431.3 416.2 399.3 371.2 351.3 320.8 295.6 267.7 247.1 238.4 235.3 234 233.6 236.9 238 243.8 246.9 251.7 255.1 253.1 249.5 243.9 240.7 236.3 224.5 207.6 182.3 159.8 142.4 132.9 125.6 119.2 101.4 97.8 94.2 86.1
302.7 293.4 296 294.2 293.4 287.7 273.6 250.6 234 231.4 235.6 250.3 267 278.8 291.6 303.7 312.8 315.7 317.1 311.4 323.6 318.6 313.1 294 278.8 248 218.8 206.6 198.1 195.3 199.4 210.4 215.2 213.2 223.5 224.4 219.7 176.3 129.2 103.3 82.3 71.2 61.2 46 32.9 21.7 15.9 0.4 -0.9 -0.9 -0.9 -0.9 -0.9 -0.9 -0.9 -0.9 9.2 20 30 40 55.6 70.5 88.4 109 130.3 151.7 171.8 215.7 258.1 282.1 306.9 317.7 337.1 360.3 373.8 400.5 420.9 437.4 456.3 474.2 491 504.4 517.7 528.8 533.9 529.2 520.5 509.1 496.4 481.5 466 447.4 431.8 424.8 422 418.1 416.5 413.7 412.4 409.7 405.5 405.3 402.5 404.6 403.9 402.2 399 387.5 377 369.8 360.6 358.5 359.4 366.5 375.7 387.4 402 425.7 448 476.8 491.4 501 506 509.2 510.5 509.1 503.5 496.6 483.6 470.6 450.7 432.3 408.7 393.7 380.1 374.8 355.3 336.4 306.2 286.6 263.4 240.2 213.5 195.8 194.8 197.2 214.6 239.2 266.8 294.8 319.5 341.1 361.6 374.9 383.9 393.6 404.8 414.8 425.5 435.6 445 450.9 451 445.3 435 420 402.4 380.1 358.8 336.5 311.2 290.7 272.1 260.2 246.7 244.6 242.1 244.9 246.9 248.9 252.3 258.1 264 260.4 256.9 258.4 250.7 241.4 230.9 210.3 187.8 163.9 141.2 131.5 125.8 115.2 106.9 96.4 89.4 85.5
295.5 291.2 285.9 286.4 283.9 276 266.3 247.3 234 232.4 236.6 251.7 267.9 281.1 292.9 303.9 312.6 317.6 322.6 328.3 330.9 331.8 323.9 302.5 283 252.5 226.1 218.3 214.3 201 202.2 209.3 211.2 210.8 218.6 223.1 215.6 191.4 146.6 113.8 90.1 75.8 62.7 51.2 38 25.8 17.8 13.8 -0.9 -0.9 -0.9 -0.9 -0.9 -0.9 -0.9 -0.9 -0.9 8.8 19 27.4 42.1 60.4 75.5 93.3 110.3 133.2 155.7 185.8 227.4 254.2 272.8 291.1 324.4 349.2 373.5 393.4 410.8 429.6 445.5 463.1 475.9 487 501.3 512.1 518.8 514.7 501.2 489 476 459.6 445.3 427.7 413.9 404.7 400.9 400.1 400.5 404.5 410.5 411.4 413.9 420.4 421.3 419.5 421.1 413.8 412.6 403.4 392.3 382.9 374.1 372.7 372.8 376.6 381.8 395 408.4 425.9 447.6 476.3 494.6 505.6 512.7 516.6 517.8 517.5 512.8 499.7 481 461.6 444.2 424.3 402.3 388 373.3 360.5 347.2 332.1 310.3 287.6 268.3 247.7 236.5 217.6 200.9 202.8 218.4 246 268.4 293.4 318.7 339.4 360.5 374.9 385.4 392 402.5 411.4 418.5 429.7 438 445.2 446.4 442.4 433.7 422.9 400.9 385.9 367.6 345.1 325.9 306.2 288.6 278.3 261.2 254.8 252 256.5 258.4 257.7 260.9 264.2 265.9 262.2 262.9 270.9 270.6 260.5 244.2 221.1 192.6 165.9 146.4 131.4 126.7 111.8 105.1 94.1 88.7 85.4
289.7 288.5 278.4 274.6 271.9 266.6 257.1 244.5 237.4 235.6 238 251.8 267.2 279.8 290.9 301.3 310.6 319.6 326.3 332.7 339.1 343.9 339.9 317.8 284.2 250.6 240.1 225.4 220.2 215.3 224.1 213.2 213.8 212.5 212.2 211 203.1 184.9 157.3 123.3 92.4 79.5 72.9 57.7 42.7 31 22.7 19.1 -0.9 -0.9 -0.9 -0.9 -0.9 -0.9 -0.9 -0.9 -0.9 -0.9 9.2 17.7 33.2 52.7 65.8 79.3 95.8 114.6 141.1 164.7 189.8 220.3 248.1 281.1 318.5 343.2 367.1 381.4 400.4 420.6 435.1 450.1 460.5 471.2 480.8 489.3 494.2 492.9 479.9 467.4 453.3 438.9 427.5 411 398.5 391.5 389.3 386.3 388.1 397 408 416.8 424.1 427.4 429.3 428.8 425.3 425.4 420 414.3 407.1 400.4 390.1 384.3 384.3 383.7 390.7 399.3 412.6 430.7 450.3 478.9 499.3 513.7 522.2 528 530 528.7 522 504.2 478.2 463.2 443.2 422.9 401.8 382 369.7 361 341.9 324.5 305.5 287.8 268.5 252.9 242.1 231.2 214.1 207.5 219.5 248.1 273.4 296.2 319.3 336.3 355.5 370.2 382 387.9 396.7 406.1 414.2 423.6 431.5 437.9 440.7 438.4 431.8 419.5 403.5 389.4 376.7 358.5 336 320.8 307 288.8 273.9 266.6 263.9 267.1 270.6 266.8 267.7 270.6 272.2 272.6 274.4 281.3 285.9 264.1 248.6 231.7 194.1 170.4 151.1 133.6 129.8 117.9 107 98.6 89.6 83.2
285.1 281.7 274.3 267.4 263.8 259.6 252.4 242.6 238.5 238.7 241 251.8 264.6 276.1 289.2 299.8 310.7 321.9 327.7 339.4 346.9 352.7 350.2 335.4 308 263.6 259.8 242.7 239.5 260 250.5 228.3 216.5 212.4 209 201.9 186.8 174.4 147.5 124.6 97.2 84.6 78.2 67.7 52.3 39.3 28.1 25.3 10.1 -0.9 -0.9 -0.9 -0.9 -0.9 -0.9 -0.9 -0.9 -0.9 -0.9 9.7 24.7 41.9 57.6 70.6 81.8 105.9 126.7 151 176.3 206.4 239.6 269.1 303.2 334 351.7 369 392.5 409.7 422.1 435.2 442.2 451.8 460.4 469.7 471.6 468.8 457.1 444 430.5 418.1 405.9 396.2 385.3 377.8 375.8 377.8 384.6 393.5 409.6 423.4 434.4 440.8 445.2 445.7 431.1 430.9 425.3 424 421.4 415.5 409.7 399.4 395.2 392.3 398.3 408.7 420.9 437.7 454.4 481 512.5 529.1 535.2 539.9 543.6 543.8 536.7 522 501.1 483.1 452 425.3 400 383.3 375.7 356.5 339.4 323.2 305.7 288.6 272.9 258.3 248.7 234.6 227.2 220.3 230.9 247.7 273.8 295.4 318.7 332 351.3 366 375.1 382.2 389.5 397.8 404.7 413.9 420.5 429.2 434 434.6 427.9 418.2 404.6 392.7 382.7 369.9 346.7 330.9 317.8 304.5 287 278.8 273.9 271.1 279.9 275.7 274.3 276 278.1 278.6 283.2 287.5 284.2 271.3 257.3 232.6 198.3 171.9 152.1 135.6 129.6 114 111.9 98.1 92.1 78.4
274.8 275.5 269.2 259.5 256.2 251.5 246.4 240.9 239.3 240.8 243.5 251.4 263.3 274 287 298.5 311.3 322 331.8 345.9 356.7 362.8 362.1 354.7 331.2 295 269 263.4 268.9 276.9 262.3 242.3 227.8 212.1 204.7 193.2 177 158.1 137.2 117.1 96.7 86.7 82.2 80.2 68.4 52.3 37.5 24.9 15.8 7.8 -0.9 -0.9 -0.9 -0.9 -0.9 -0.9 -0.9 -0.9 -0.9 -0.9 14.4 30.9 46.6 58.7 70.1 87.7 107.4 136 163.4 189.3 226.3 260.6 290.3 320.4 338.2 356.4 377.3 394.5 409.5 421.4 428.3 436.4 443 448 448.7 438.7 431.9 420.4 410 398.1 388.4 383.5 375.5 368.8 371.9 375.9 383.9 397.6 415.4 432.9 444.3 450.3 450.3 448.5 440.3 435.4 432.3 430.2 429 426.7 421.4 411.4 405.2 402.6 406.6 414.4 428.7 443.7 461.1 492.4 521.3 539 549.4 555.3 557.9 557.9 553.2 537.4 518.8 498.1 473.1 448.9 418.9 389.4 371.5 359.8 341.6 325.6 309.3 294.3 281.3 266 251.8 242.2 237.9 231.6 237 253.9 276.1 291.9 309.2 327.7 346.6 359.4 369.3 376.2 382.4 390.2 397.4 406.3 414.1 420.1 425.6 427.8 424.7 417.5 406.2 398.7 390.8 377.8 363.1 345 327.2 311.6 296.1 287.2 281.2 279.4 280 280.3 277.7 279.6 280.8 280.9 283 285.6 282.1 271.8 262.5 237.3 201 173.4 153.2 136.3 129.1 112.8 110.2 101.6 91.3 81.4
264.2 264.5 259.5 251.9 246.4 243.1 239 236.8 237.8 240.5 245.3 251.6 261 272.5 284.9 295.6 307.8 321.5 340.2 355.8 367 370.8 372.8 365.8 353.4 326.8 286.6 287.7 293.1 287.9 282.1 252.2 230.1 213.6 200.5 184.2 163.3 150.4 134.3 116.6 101.8 98 94.8 88.6 82.5 69.4 48.9 40.6 27.3 19.7 12.8 -0.9 -0.9 -0.9 -0.9 -0.9 -0.9 -0.9 -0.9 -0.9 -0.9 13.8 28.6 44.9 59.4 75.9 94.7 126.3 145.3 174.7 221.5 271 294.4 310.9 332.1 347.9 365.3 382.5 395.5 406.5 416.7 425.2 427.2 428.1 426.8 417.9 403.6 398.7 394.1 383 372.8 368.6 368.1 366.5 367.6 374.5 386.8 403.8 427 443.3 455.5 463.7 462.2 467.6 449.1 440.9 438.7 437.3 436.2 434 431.5 425.1 415.2 411.3 413.7 421 436.8 452.3 468.1 489.4 520.5 551.2 564.7 568.4 570.8 569.4 566.2 549.8 532 505.4 479.1 452.9 429 401.8 378.6 362.2 345 332.4 318.6 299.8 288.4 271.6 253.5 245.5 237.5 239.4 244.8 253 267.3 290.5 306.4 323.1 339 351.9 362.6 369.8 376.5 383 390 397 405.4 412.9 417.3 420 420 416.5 409.8 403.9 400.3 390.8 377.7 356.7 340.9 323.1 303.1 292.3 285.2 283.9 283.7 283.5 283.6 285.6 288.2 289.2 288.4 287.5 280.8 274.4 262.3 235.5 203.5 175.9 154 138.5 132.7 113.4 110.3 99.1 84.7 79.4
256 254.4 249.4 243.6 238.3 233.6 231 230.6 233.8 239.6 245.1 251.3 259.8 270.2 284.6 294.4 308.7 322.2 341.4 358.2 371 377.4 381.5 378.6 362.4 323.9 306 310.8 312.2 330.7 312.3 277.7 239.3 218.8 199.6 181.3 165.5 151.4 140.5 128.3 119.5 115.1 106.4 98.8 95.7 84.6 70.8 54.5 46.5 36.6 26.9 19.1 7.2 -0.9 -0.9 -0.9 -0.9 -0.9 -0.9 -0.9 -0.9 7.5 15.9 30.7 45.6 64.5 82.4 103.3 131.7 173.9 214.3 256.7 288.5 306.6 326 342.7 361.6 367 378.9 393.2 407.1 413.2 412 413.6 410.6 400.3 387.1 383.3 377.3 372.6 364.5 358 359.4 364.6 369.6 377 392.2 414 442.7 459 474.6 482.9 487.1 482.2 460.9 449.4 445.5 445.2 445.1 443.5 439.4 434 424.4 421.2 422.8 432.7 448.9 462.5 480.8 495.2 536.2 575.5 578.3 578.6 579.3 578.2 574.2 562.3 535 509.1 482.7 458.2 434.5 412.7 388.9 367.2 354.7 340.2 326.7 305.9 285.8 269.8 257.6 247.3 244 243.6 248.6 257.7 271.9 286.4 300.1 316.8 332.7 346.9 357.2 366.2 373.8 379.1 384.8 391.9 400.3 407 412.1 415.4 416.4 416.5 413.6 411.4 407.2 398.7 388 373.2 350.3 335.2 316.1 298.4 288.8 288.4 288.1 288.2 288.1 289.9 290.9 290.1 290.2 286.6 279.8 270.6 260.7 233.8 206.4 178.2 156.1 142.3 135.7 116 110.8 96.6 79.1 75.6
247.5 243.5 240.5 234.9 228.9 224.5 224.6 226.7 230.1 235.5 242.8 249.4 259.1 267.2 278.4 292.2 309.8 323.3 341.7 360.5 374.7 383.1 387.2 386.3 373.3 344.3 335.7 347.7 352.3 361.1 354.4 322.2 264.1 235.3 211.2 192.7 175.4 163.1 157 157.6 158.2 144.8 135.5 119.4 115 101 88.3 76.7 66.5 59 52.3 34.2 20.3 11.7 5.8 -0.9 -0.9 -0.9 -0.9 -0.9 -0.9 5.6 11.3 21.4 36.7 52.2 70.2 92.5 120.8 169.9 209.1 251.1 281.4 300.1 321.9 336 348.4 359.4 367.8 381.3 389.1 391.3 393.3 393.3 392 382.6 374.5 374.2 364.6 361.4 357.3 353.2 353.2 365.3 369.1 381.7 399.6 430.6 457 474.9 494.8 510.2 505.8 503.7 487.8 465.4 455 453.8 455.3 453.1 450.3 442.8 434.8 432.7 441.9 445.5 458.1 470.9 487.5 511.9 548.6 589 586.5 586.6 586.7 584.2 577.2 565.8 536.5 503.5 481.9 458.3 440.2 417.8 395.4 376.5 360.4 344.3 326.5 308.4 289.1 273.4 249.6 238.9 239.8 249.9 250.2 258.7 273.2 285.7 301 317.8 332.2 343.9 353.7 361.9 370.3 376.5 382.1 390 397.5 405.8 411.2 414.6 417.6 417.8 420 418.5 415.2 408.7 396.1 374.2 356.7 338.2 321.1 303.8 294 295.3 296.8 295.6 293.7 293 294 294.2 292.8 284.3 275.6 267.1 258 237.2 205.3 182.4 158.5 143.7 132.9 115.6 110.3 98.4 82.2 74.2
235.2 233.9 230.1 225.2 219.7 217.1 217.4 220.8 225.6 230.4 238.7 248 256.9 263.2 275.1 288.8 309.8 324.1 342.4 360.6 376.4 388.5 395.3 396.7 390.2 386.6 388.8 388 389.2 390.4 395 356.1 290.1 265.9 236.8 224.5 219.2 201.5 199.5 208.1 227.4 198.4 190.4 189 143.3 129.1 110.6 103.9 91.8 83.8 71 57.2 43.3 30.9 23.6 19.1 14 -0.4 -0.9 -0.9 -0.9 4.6 7 13.2 26.7 41.7 63.3 86.6 108.7 147.2 187.1 232.1 268.4 289 308.9 322.3 337.6 351 365.4 372.3 378.8 383.7 385.6 382 375.9 372.4 366.2 366.1 361.8 359.4 353.2 353.2 357.8 368.5 371.5 384.2 406 435.1 464.4 489.7 511.4 526.3 536.5 525.3 506.3 484.3 472.4 465.3 466 463.2 460.7 456.6 449.2 447.6 452 466.6 471.7 482.3 500 525.6 554 588.2 590.7 590.6 588.6 586.4 578.9 560.7 533.8 504 482.6 461.8 441.1 421 402.7 381.3 359.9 343.7 325.4 301.2 288.4 274.3 257.2 238.4 238.4 239.2 251.6 258.5 269.5 283.1 304.1 323.5 338.9 346.9 352.7 361.3 368.8 376.2 383.9 391.1 398.4 404.9 411.1 416.8 420.4 423.9 426.1 429.1 426.4 417.7 397.7 377.3 356.3 341.6 326.5 311.5 301.3 301.5 302 301.2 300.4 299.1 297.6 295.1 290.6 281.5 273.3 264 253.2 233.5 205.3 181.7 166.5 147.7 138.5 116.3 105.6 91.1 83.2 80.6
221.7 221.1 217.4 214.8 210.9 209.6 211.9 214.5 219.3 225.6 234.9 244.1 253.7 262.6 272.3 285.4 306.3 323.7 339.7 360.1 378 390.8 401.3 403.3 405.6 414.3 421.3 421.3 422.7 418.8 416.9 386.8 329.1 301.3 279.3 269.4 281.1 265.4 251 281.7 248.5 242.3 246.8 235.7 177.1 169.1 154.6 143 126.9 108.5 98.4 88.7 70 54.3 46.9 38.9 28.5 20.3 6 2 6 6.4 6.3 8.8 19 34.6 53.6 77.8 103.4 134.4 171.9 219.5 246.2 267.9 292.1 318.6 335.6 345.3 357.2 361.1 370.9 377 385.2 379.2 374.7 367.2 365.1 361 360.5 356.9 353.2 353.2 353.2 366 371 391.4 415 446 475.7 505.7 522.2 537.2 552.7 546.2 525.8 504.4 484.9 475.1 474 475.1 472.3 468.9 468.1 466.2 470.5 478 481.4 489 510.5 541.9 567.9 584 587.2 588.8 586.3 583.2 577.5 558.2 533.6 503.8 482.2 462.5 443 422.2 402.5 374.8 360.4 338.8 319.4 301.6 281.3 265.6 256.1 238.4 238.4 240.5 254 262 279.6 290.7 307.8 330.4 345 354.1 362.9 368.1 374.5 380.4 387.2 393.5 400.1 406.2 413.6 420.1 424.9 430 434.1 436.5 437.5 427.4 402.2 384.3 360.2 344.3 328.8 317.9 306.9 308.9 307.6 306.8 306.2 305.8 301.8 298.7 296.2 288 275.6 266.2 252.4 230.8 205.6 182.1 160.5 144.6 132.7 120 98.2 91.7 82.2 79
209.1 207.9 205.7 203.1 201.5 202.2 204.7 206.6 213.9 220.5 229.2 239.1 250 259.5 270.5 286.4 303.6 318 334.7 355.3 373.4 391.2 402.4 404.3 408.6 418.8 428.3 435.1 442.8 443.5 434.8 419.7 383.6 337.7 321.8 304.4 304.1 292.3 306.3 330 301 301.1 291 241.5 204.9 220.1 195.3 213.7 179.5 153.5 152.9 120.1 97.7 82 70.1 57.6 43 37 25.6 10.1 6.5 6 7.3 7.9 10.5 26 47 70.6 96.7 124.9 153.3 184.5 204.7 258.9 292.7 318 331.6 338.8 346.8 354.3 362.7 369.8 374.1 372.5 369.5 365.6 363.5 357.6 358.6 357.5 355 353.2 360 364.6 374.5 394.4 421 455.6 482.4 512.7 531.9 552 568.3 562.2 540.4 522.9 506 496.7 488.8 487.6 484.4 483.7 482.9 485.5 490.9 507.5 507.2 514.8 538.9 564.3 568.2 573.6 576.7 577.9 577.6 575.4 568.9 558.1 532.6 499.3 475.3 458.1 436.6 418.3 395.9 375.2 357 338 320.1 298.3 274.8 259 248.7 238.4 238.4 238.4 242.2 270.5 272 289.1 307.6 333.4 350.2 361.7 370.2 375.5 381.3 386 392.2 397.8 403 410.9 416.4 423.7 430 436.2 441.6 445.6 448.3 439.5 410.9 388.9 365.9 346.7 332.6 322.4 315.4 316.9 315.9 314 314.7 313.5 306.5 303.1 299.8 291.2 278.6 269.7 255.1 234.8 210.7 184.1 164.6 145.3 128.2 121 94.8 95.6 88.7 86.6
195.2 196.4 195.3 193.3 192.2 194.2 196.9 201.1 206 215.6 223.7 236.2 247.3 255.4 267.4 284.3 299.8 316.8 331.8 347.5 364.4 379.9 394.9 400.7 403.4 414.8 427 438.3 447 452.6 448.4 432.9 402.3 377.9 356.1 330.1 320.7 324 341.9 379.7 364.8 363.8 327.4 263.8 249.6 256.5 238.3 253.5 221.5 203.7 203.8 190.4 133.2 111.9 96.4 77 63 52.6 40.1 24.2 14.7 9.3 8.6 9.9 11 15.9 38.4 60.9 85.2 110.6 139.9 165.4 226.2 257.2 276.6 305.6 322.3 333.8 342 346.4 352.2 360.4 366.1 363.9 366.3 357.5 358.3 358 355.6 354.8 353 356.5 362.5 364.2 374.7 400 423.7 455.6 481 510.2 538.1 564.7 575.3 581 560.4 539.6 527 518 505.7 501.8 497.9 495.3 495.6 502.2 518.9 528.2 525.3 533.1 552 562.1 558.3 555.6 551.6 553.9 555.9 557.7 558.3 551.5 525.3 496.6 474.7 448.9 430.2 415.8 396.5 379.9 358.8 337.5 313.6 291.4 274.6 255.9 242.3 238.4 238.4 238.4 241 253.6 273.8 291.4 311 333.9 354.4 368.2 377 383.3 389.1 392.3 395.8 401.7 408.2 414.3 422.6 429.2 436.4 443.7 450.1 455.9 460.4 457.9 425.6 396.9 368.1 348.7 336.1 327.4 323.8 324.8 325.2 327.5 325.9 321.1 313.5 308 302.5 293.4 284 272.1 260.8 236.6 213 186 166.4 152.2 130.7 116.7 104.1 92.9 90.1 87.9
185.1 186 185.2 183.7 184.7 188.2 190.7 195.3 200.8 208.1 218.1 232.1 243.3 249.8 264.5 279.4 296.5 312.3 328.2 343.3 359.5 371.8 384.1 390.9 396.1 405.4 419.2 434.3 446.7 453.1 452.4 443.6 427.4 413.8 384.9 357.5 354.5 365.7 408.4 433.3 398.5 398.5 349 290.9 281.7 297.3 284.2 297.9 308.1 267.5 247.6 256 200.4 155.1 120.4 100 81.2 65.6 50.6 41.6 31.5 22.6 17.8 13 13.3 17.4 31.3 50 73.1 96.6 125 188.9 229.5 251.3 274 293.7 307.9 316.3 332.7 347.1 347.6 351.6 355.9 359.5 359.7 354.8 354.3 354.2 355.2 352.3 350.4 354 362.3 362.3 374.8 398.1 421.7 445.2 477.6 505.4 534.6 565 577.8 585.7 578.5 560.9 545.6 540.3 528.8 517.2 510.4 511.3 512 519.2 531.8 549.3 550 552.1 554.3 550.6 540.7 534.8 526.4 526.3 528.3 530.3 537.7 537.1 521.8 493.6 470.8 445.9 428.8 413.6 398.1 382.8 361.4 337.4 312.5 289.3 269.2 256.5 243.3 238.4 238.4 238.4 238.4 248.7 268.5 284 305.3 330.7 356.5 373.2 384.9 391.2 394.9 397.9 402.1 406.2 411.8 419.9 427.6 436 443.6 450.6 458.1 465.2 476.3 475.1 442.3 410.4 381.9 357.6 343.6 337.5 334.7 337 338 336.2 333.2 326.8 321.4 315.7 309.1 302.5 294.9 280.1 266.9 246.3 217.7 192.2 169.6 152.5 135.7 115.6 104.6 99.4 90.7 86.5
171.7 174.4 173.3 173.7 176.5 180.1 184.9 189.4 195.5 201 211.6 225.6 238.1 244.9 258.7 272.3 291.9 308.7 322.8 335.3 350 361.7 372.3 381.2 385.5 394.4 407.4 424.1 440.4 451.8 455 446.8 433.6 423.3 411 389.5 396.6 407.2 432.5 445 443.4 430.5 418.7 384.4 339 342.1 324.3 337.6 355.2 295.8 276.4 302.9 245.2 199.2 168.8 137.7 108.7 85.2 71.8 57.8 47.7 39 28.3 23.6 18.8 19.3 27.8 41.5 62.5 87.6 110.5 173.4 204.9 241.2 260.3 283.3 298.5 309.3 320.5 326.4 337.3 341.9 351.9 353.6 356.8 352.7 352.6 353.1 351.9 349.7 348.2 349.2 360.5 359.3 366.9 387.6 410 437.4 467.5 494 523 555 572.3 582.2 591.8 590.7 572.5 555.1 548.9 537.3 527.2 525 528.8 537 550 559.7 564.2 563.7 556.5 541 525 507.8 504.2 506 504.4 507.5 514.6 519 512.4 489 467.8 445.8 430.6 415 396.6 376.8 358.3 332.6 312.3 290.7 269.1 256.3 244.4 238.4 238.4 238.4 238.4 246.8 266.5 283.4 306.4 333.9 359.8 381.1 391.7 398.1 402 405.9 408.5 413.5 419.5 426.7 432.2 441.7 450 459.4 467.5 478.3 486 490 461 424.6 390.3 370.3 358.3 352.6 348.6 351.4 350.1 345.4 339.4 334.4 327.9 320.7 314.2 307.6 303.8 293.8 276.5 255.5 225 197.8 170 149.3 132.8 119.8 109.2 101.8 103.9 89.8
161.3 161.1 162.2 165.4 169 172.2 177 180.4 187.7 196 206.7 218.1 227.2 242 255.5 266 284.1 300.6 315.1 327.2 339.2 350.5 361.6 370.7 377 384 395.5 411.1 429.3 444.4 450.9 449.7 435.9 425 417.7 413 417.6 425.2 434.8 443.9 448.8 454.1 452.6 437.3 407.1 375.6 374.3 360.9 395.5 315.4 331.4 338.7 286.5 258.7 215.7 175.2 159.3 126.5 91.6 77 64.9 53 43.8 36.4 30.7 30.1 29.7 29.5 48.9 76.7 103.3 146 188.6 231.5 251.6 266.6 285.2 300.7 311.2 324.4 330 331.6 337 348.1 350 348.5 345.3 345.8 344.6 342.9 340.4 342.1 347.3 351.9 361.1 383.5 405 429.7 457 482.2 511.5 537.2 558.4 571.2 583.4 607 602.1 579.6 567.3 557.8 550 549.1 553.4 559.2 563.5 565.8 567.6 564.5 554.8 534.6 512.9 492 486 484.6 482.2 482.3 490.4 499.7 499.4 484.8 466.1 449 435.1 416.4 394.8 374.2 351.7 327.7 308.5 287.3 274.1 257.9 246.1 238.4 238.4 238.4 238.4 245.5 265.3 282.8 303.4 338.5 362.7 385.1 396.2 403 407.6 410.8 414.8 421.4 426.3 432.8 442.2 450.4 462.1 471.8 479 490.1 499.3 509.3 467.4 439.2 407.1 388.9 376.1 373.7 366.8 365.3 360.5 355.7 348.6 341.9 333.6 325.2 320.4 311 304 297.7 284.5 262.1 226.9 198.4 171.2 146.8 130.9 120.8 117 104.8 104.9 104.4
145.5 147.9 151.5 154.7 159.4 164.3 169.9 173.9 180.8 188.4 200.1 211 221.3 237 248 261.9 276.6 292.4 306.6 318.2 329.5 339.8 349.5 360.2 362.9 373.4 385.4 398.9 415.7 435.5 444.4 444.6 435.5 425.6 419.8 417.9 420.1 424 432 439.5 446.8 454.5 464.5 475.4 473.8 432.4 426.5 408 418.1 380.7 351.4 381.3 338.7 307.2 256.2 208.6 194.8 170.1 133.3 101.3 85.6 68 59.4 50.9 42.9 44.4 41.3 36.8 38.4 57.7 89 124.6 162.9 207.9 236.7 251.1 265.8 280.6 296.1 314.2 324.8 330.1 332.5 338.6 339.7 341.2 339.2 337.5 338 336.5 332.9 334 337.6 342.1 352 371.1 395.6 418.6 446.2 470.8 497.6 520.3 538.9 553.3 565.6 589.6 616.4 611.1 591.7 582 578.7 575.5 577.8 576.1 576.1 574.7 570.8 563.8 552.6 532.5 508.3 488.1 474.3 474.3 468.2 466.7 471.6 478.9 483.7 478.9 462.6 447 431.5 412.2 393 375.3 349.4 328.1 307.4 290.1 278 262.1 251.3 242.4 238.4 238.4 238.4 252.3 269.8 284.8 303.8 325.7 364 386.3 399.1 408.4 412.2 417.1 423.6 429.1 434.8 443.4 451.4 460.8 473.9 482.1 491.4 503.7 511.8 520.6 477.4 451.1 424.4 405.5 396.1 395.2 385.7 378.6 372.9 366.5 359.1 349.4 340.1 329.2 319.8 313.1 305 295.8 284.8 266.6 230.4 198.2 169.7 147.6 130.3 121.6 113.5 114.1 112.1 107.2
131.2 137.1 140.2 145.4 150.4 154.2 159.3 166.5 174.2 184.1 194 203.4 213.1 228.1 242.6 253.5 270.2 285.8 300.6 311.8 322.7 332.3 339.9 350.8 354.9 361.9 373.7 388.8 403.3 423.1 439.4 441.4 433.6 425.3 417.7 415.8 416.6 420.7 427.1 435.4 444.7 454.6 465.6 476.1 483.4 480.8 468.7 442.4 442.3 422 374.2 395.5 346.5 314.6 298.8 267.4 238.5 204 165.7 125.9 106.5 90 78.2 65.2 57.3 53.6 53.7 50.7 51.7 55.5 73.7 108.7 141 184.2 215.4 231.3 247.3 263.5 282.9 297.5 311.8 320.7 324 328 331.3 330.4 330.9 328.2 329.4 327 326.4 328.3 330.1 333.5 344.7 360.4 386.1 413.6 435.7 459 481.9 500 515 534 550 565.1 601.6 632 620.3 610.1 609.6 605.2 597 595.2 588.8 580.8 571.5 560.6 550.2 529.7 502.2 483.1 473.3 464.8 459.7 458 453.4 460.6 469.4 466.3 458.4 445.6 432.5 407.8 386.9 367.3 347.2 331.8 312.2 298.4 284.6 270 258.6 249.1 238.4 238.4 246.5 257.1 270.2 283.6 302.6 324.9 365.4 383.5 401.6 411.5 419.5 426.7 434.3 440.2 447.5 455.6 464.8 475.6 484.5 493.7 503.4 516.6 526.7 532.6 498.3 462 442 424.5 419 410.4 404.2 392.4 385.6 374.4 366 357.3 345.3 334.8 323 315.1 306.5 299.4 287.5 272.6 241.7 203.9 178.3 147.1 132.3 121.2 115.4 114.9 115.6 111.1
120 122.5 129.9 132.8 138.9 145 151.3 157.5 165.2 177.1 188.5 196.6 206.4 220.8 234.2 247.3 261.8 274.4 290.4 303.2 315.9 324.4 331 340.5 344.4 353.9 364.1 378 393.5 409.5 426.5 436.6 432.1 422.6 415.5 413.6 412.8 415.5 421.4 429.4 439 450.2 463.3 475.9 485.7 488.3 481.7 466.6 449.3 432.7 412.3 404.4 382.9 372.8 352.8 311.3 296.1 248.5 199.3 154.7 136.3 114.8 99.4 82.5 76.5 69.8 67 59.8 66.8 67.3 75.4 96.7 126.3 175.7 196.8 213 234 253.6 272.1 284.9 300.4 309 316 318.9 322 321.5 321.9 320 319 319.2 318.1 322.1 323.2 326.1 334.3 350.9 377.6 403.9 422.3 445.5 467.4 481.4 490.1 508.7 533.8 548.8 577.3 614 643.4 636.1 630.4 626.9 625.4 614.7 603.5 589.1 574.3 559.9 547.3 527.8 502.3 487.4 471.7 463.3 458.6 451.9 443.1 441.5 449.5 452.7 454.2 442.6 424.8 402.7 381.7 362.5 349.2 333.4 319 302.8 291.3 280.3 269.2 256.3 239 238.4 240.8 256.8 268.8 282.1 298.1 319.9 358.7 385.5 404.3 416.3 426 435.4 445.5 453.2 460.5 468.3 479.3 492.5 501 512.4 525.2 533.1 541.7 548.5 525.1 491.2 461.7 448 441.9 431 417.3 404.8 394.6 382.6 372.2 362.5 351.5 340.6 327.7 321 310.2 299.6 288.2 276.7 258.6 213.2 186.7 153.4 139.2 127.4 119.2 116.8 114.5 113.3
112.9 110.9 115.8 122.7 130.8 134.8 142.4 150.1 158.6 167.6 180.6 187.3 198 211.6 225.8 239.8 252.5 266.5 280.1 292.5 303.2 316.4 324.7 331 335.4 341.9 354 364.6 379.9 398.1 411.1 427.5 428.8 419.6 413 411.1 409.6 410.9 416.1 423 433.7 443.9 460.4 475.9 487 490.4 482.4 468.9 452.3 436.4 419.7 407 396.7 389 382.7 370.4 325.4 272.2 231.1 194.2 161.5 140 121.4 107 91.2 88 83.3 75.6 74.4 82.9 85.7 82.8 115.5 151.2 178.2 202.2 215.9 235.7 257.2 274.9 287.1 295.6 302.8 307 312.3 313.1 312.9 310.3 308.7 310.1 312.1 313.2 313.6 319.2 329 341.2 364 391.2 412.2 433.9 454.5 467.3 478.9 495.1 512.2 535.2 555.7 590.1 624.5 657.5 647.3 641.2 634 625.7 615.2 597.7 575.9 562 547.6 536.2 510.2 490.3 475.4 465.8 461.6 451.3 441.2 429.2 428.1 434.5 440.2 433.9 419.4 401.1 378.4 359 348.7 335.6 321.4 309 296.7 285.1 276.2 265.1 251.8 238.4 245.9 253.5 263.9 280.7 300.4 319.7 353.2 379.8 402.6 418.9 429.1 446.5 460.9 468.8 475.5 486 494.9 505.5 515.8 525.6 535.7 545.9 557.1 566.9 561.4 521.7 503.7 474.4 460.9 448 432.4 414.2 401.2 390.9 379.4 369.5 357.3 344.5 333.2 320.9 311.4 302.7 288.8 276.2 261.6 223.2 187.3 162.8 142.5 132.8 126.7 121.9 120.4 115.9
98.6 99.1 102.2 109.3 119 123.7 133 143.7 151.7 156 164.7 178.6 184.5 198.7 213.2 231.2 245 258.5 269.5 280.4 290.6 302.7 313.5 322.4 326.6 332.5 345.2 355.2 365.4 381.9 401.1 414.4 420.3 416.5 409.7 407.6 405.3 408.1 409.6 415.3 424.9 437 455.5 471.8 484.2 487.5 479.8 466.8 452.3 434.5 420 406.9 394.6 387.2 381.4 372 352 309.3 271.1 234.8 189.6 169.3 155.3 134 118.3 109.1 103.2 98.9 90 89.4 98.9 106 107.7 136.3 164.6 186.1 198.3 215 236.7 260.1 273.1 284.5 293.6 294.3 301.3 302.4 302.6 301.5 300.5 303.8 305.1 305.7 305.4 310.7 324.1 336 359.6 382.7 398.8 422.7 440.3 454.8 467.4 482.7 498.5 518.8 541 570.4 603 639.5 665.7 654 644 632.2 621.3 601.7 579.9 563 551.7 537 522.4 497.7 478.9 471.4 466.2 462.4 441.1 424.9 422.7 424.5 429.8 419.7 414.1 398 373.3 357.7 348.8 336.1 325.9 314.6 299.6 294.7 283.8 270.6 258.8 247.4 241.4 247.7 260.2 272.6 296.2 320.7 348.4 383.7 400.8 415.4 435.4 459.3 476.2 486.7 493.8 501.7 511.7 522.4 533 541.3 552.5 564.4 573.6 588.6 593.7 564.3 533.9 508.7 487.9 466.4 445.6 426 411.5 401.4 388.3 376.1 362.1 348.9 335.9 324.4 315.9 303.6 290.6 276 257.3 230.7 204.5 169.8 152.9 142.2 132.7 125.8 124.3 122.8
90.1 87.1 91.9 100.2 107.6 115.2 125.9 136.8 146.5 147.6 153.5 167.3 173.4 184.2 199.2 219.4 234.4 251.6 259.4 267 279 293.4 302.6 310.9 317 322.9 336.9 345.9 356.6 370.4 386.9 401.9 410.5 410.2 406.4 403.4 403.3 404.3 404.6 409.6 415.5 428.4 446.3 462.8 477 480.9 474.4 462.2 448.7 431.9 417.6 404 392.3 384.2 377.9 369.4 358.4 341.9 319 255.6 227 214.4 184.9 172.5 144.5 130.7 126 129 125.3 139.1 127.6 128 113.1 121.8 147.5 169.4 185.3 200 219.7 241.1 258.7 271.8 279.3 286.1 290.3 294 293.8 293.8 292.3 295.1 297.9 298.1 297.7 304.9 314.9 332.5 352.3 373.9 390.9 406.9 424.6 443.4 457.7 470.8 491.5 509.2 526.5 555.2 586.7 625.3 667.2 668.3 655.3 639.1 622.6 603.2 583.4 565.9 553.7 540.5 528.4 506.4 487.5 476.7 467.4 466.2 440.4 427.6 423.8 422.7 418.1 414 399.5 385.3 370.3 362.3 350.5 338.3 323.3 316.2 300.9 288 284.2 273.7 262.4 249.1 237.5 239.5 254.8 268 297.5 327.9 350.2 375.8 397.9 413.6 442.7 468.4 490.4 499 506.4 512.2 520.6 532.4 543.9 556.5 568.8 582 591.4 604.8 614.9 599.1 562.6 532 504.6 478 455.2 434 420 407.3 394.4 380.9 364.9 351.9 340.5 328.5 317.8 305.4 291.3 277.6 260.8 234.2 212 189.6 160.5 153.5 144.8 135.3 125.2 121.6
75.7 77.9 85 91 99.6 106 117.9 129.3 136.9 139.6 146.7 159.5 167.8 175.8 188.9 206.2 224.2 238.1 245.6 255.9 270 282.3 290.3 299.6 308.1 316.9 326.2 336.6 347.8 360.8 377.7 391.8 401.6 405.6 402.5 399.9 400.5 400.3 400.8 403.3 409.2 417.5 431.2 445.9 467.1 472.3 467.3 455.5 442.6 429 412.1 396.7 387.8 379.4 371.1 363.2 353.1 339.4 320.9 276.2 270.8 240.6 218.5 202.2 189.1 161.9 160.8 158 168.5 181.2 183.8 184.5 134.1 131.4 140.2 161.1 175.5 189.8 212.1 229 247.5 257.7 266.5 276.6 281.7 283.5 286.3 285.6 287.2 289.2 290.8 292.1 293.5 299 311.8 326.9 343.3 367.5 381.2 399 415.1 433.8 448.2 464.3 479.9 498 519.7 539 572.8 616 651.8 676.8 664.8 645.9 625.7 603.8 580.6 563.1 550.7 540.5 524.2 512.9 493.9 482.8 469.2 458.8 444.1 436.7 430.7 417.7 414.9 403.6 395.6 383.8 374.5 364.7 354.6 342.4 320.6 305.6 299.4 278.3 276.1 273.1 262.7 248.5 227 226.7 240.2 258.1 288.2 318.1 354.5 367.3 385.3 406.6 438 469.5 495.8 509.4 516.6 522.7 529.7 543.9 557.9 567.8 579.8 591.8 603.3 618.6 633.7 619.3 584.1 555.4 526.1 495.2 467.1 443.5 426.9 411.2 399.5 385.6 371 355.9 343.4 331.7 318.8 307.1 292.8 277.4 261.1 236 213.5 189.6 174.2 165.6 157.1 141.6 132.6 126.7
68.1 73.1 79.3 86 92.2 104.3 108.1 121.8 129.6 132.9 138.7 155 160.1 170.5 179.1 195.1 208.2 224 231.3 245.9 255.8 268.2 280.3 290.7 295.2 306 315.5 324.2 336.6 353.7 369.8 385.1 396.1 402.2 399.7 398.3 396.7 396.3 396.5 396.5 399.1 406.3 416.7 432.5 449.2 461.8 456.7 447.9 435.7 423.1 406.8 393 381.3 371.3 364 354.8 344.3 331.9 319.6 307.8 299.6 276.8 255.7 239.9 223 206.5 189.8 208.9 209.8 205.6 201.6 205.8 175.2 154.3 150.6 159.6 178.3 186.6 202.5 218.6 237.9 250 256.8 264.7 271.8 276.2 278.4 280.6 281.6 283.2 284.1 286.4 289.7 293.9 306.2 321.5 339.7 356.8 373.4 384.4 405.3 424.2 438.3 452.5 473.3 491.1 510.1 527.4 559.3 608.1 641.8 667.2 664.3 649.9 625.7 599.7 578 554.9 540.4 528.8 514.7 507.1 493.3 480.4 462.9 449.1 446.8 443 438.4 420.1 419.4 409.8 398.6 390.4 378.8 368.4 356.2 341.1 316.9 294.6 289.9 273.7 256.6 258.8 251.2 235 218.6 218.7 234.7 249.7 272.5 307.9 348.3 363.9 377.8 387.3 416.9 447.2 493.6 512.1 522.1 528.9 536.8 551.4 566.7 573.9 586.2 597.6 611.2 622.3 642.6 654.8 613.6 575.8 544.3 513.4 481.4 454.6 433 416.6 402.2 387.7 374.6 359.3 346.6 334 318.9 307.8 294.1 277.6 259.3 240.1 219.8 202 183.2 174.4 166.1 153.9 146 137.3
61.3 69.9 74 79.6 87.3 94.1 98.2 107.1 115.5 121.3 127.1 142.2 152.7 161.2 167.6 175.6 192.5 205.6 216.3 228.1 242 259.7 270.3 279.2 284.6 290.1 302.7 312.4 323.5 343.6 365.1 381.7 390.6 398.9 396.5 395.6 392.9 392.4 392 391.2 392.5 397 407.5 422 435.3 443.2 442.6 438.2 428.8 417 401 383.9 373.1 363.1 354.9 345.6 334.1 324 314 306.5 299.1 293 287.3 279.1 258.8 247.6 245.3 250.2 248.1 243.1 243.8 230.9 206.9 192.8 178.2 173.5 184.6 192 205.6 217.9 226.7 239.5 249.6 257.5 264.4 268.1 271 272.2 276 276.7 280.1 282.5 284.4 289.7 299.1 315.5 330.9 349.7 363.5 375.8 393.6 411.6 427.9 441.3 463.4 478.1 500.7 524.6 554.6 592.4 626 650.7 656.4 645.6 621 595.3 570.3 546.1 529.4 515.3 508.8 499.7 481.2 462 448.9 440 440.8 438.9 443.8 427.6 425.6 417.3 402.4 399 393.5 371.1 358.8 339 311.1 269.7 270.2 250.7 228.3 224.9 218.8 218.7 208.1 209.8 222.8 243.3 270.1 306.6 335.7 351.4 363.7 376.9 402.5 425.8 454.5 488.8 510.1 527.4 536.6 553.4 567.6 577.2 589.2 600.1 617.5 628.9 640.5 652.2 632.8 596.5 565.3 528.6 494.7 466.8 443.7 422.5 406.8 390.4 376.7 362.2 349.3 334.8 319.6 307.3 292.8 277.6 258.9 240.9 220.8 202.5 192.2 179.5 174.6 165.8 155.3 147.3
55.9 64.5 68.4 73.5 80.7 88.9 92.8 99.1 107 112.3 115.9 123.6 135.9 147.9 159.2 165.9 171.1 181.6 198.2 213.8 226.5 244.2 255.1 266.2 271.5 278.9 292.7 302.2 312.8 337.8 360.5 379.3 391.1 396.3 394.1 392.7 389.9 387.8 386.5 385.4 386.5 388.8 399.4 415.2 427.5 434.2 434.3 429.2 422.2 409.5 394.9 378.7 366.6 356.1 347 335.9 325.6 315.5 306.8 300.6 293.6 291.1 289.6 290.1 289.8 289.5 282 272.7 271.5 262.9 264.2 250.1 229.2 215 206.3 193.8 192.5 196.2 207.3 216.8 224.8 231.3 241 249.8 256.1 259.9 262.5 266.3 269.5 271.6 273.2 278.9 278.1 284.1 296.9 308.9 322.3 336.7 354.7 366.7 385.6 402.4 415.4 431.7 454.3 473.6 490.1 521.9 547.9 577.8 614 634.6 643.8 637.1 616.3 589.4 561.5 539.4 515.6 503.5 497.8 488.2 475.2 447.9 439.1 429.3 433.8 435.2 445.7 432.9 430.6 420.9 409.6 404.3 401.7 384.3 355.4 319.4 297.7 259.6 239.8 223.6 207.2 197.4 195.7 199.3 193.7 199.5 216.1 237.1 267.2 301.9 325.4 339.1 349.9 360.9 380.1 404.2 434.4 462.2 483.8 503.9 519.4 538.6 565.8 575.1 586 600 614.6 626.5 636.8 647.5 650.4 616.7 581.1 545 508.6 479.1 451.7 430.5 410.6 393.4 379.5 365.7 353 338.7 318.9 305.6 293.2 276.8 259.6 239.1 222.9 207.9 200.2 191 185.5 176 171.4 159.1
50.7 59.6 64.5 66.6 75.7 83.1 90.3 96 99.5 101.8 107.8 113.7 125.8 136.7 146.9 157.5 160.5 170.1 182.5 201 217.6 234.6 243.1 252.9 257.3 267 279.6 289.4 311.2 335.4 357.1 377.9 391.4 396.4 393.6 389.6 385.9 383 380.6 379.1 379.6 381 392.4 404.8 418.5 425.6 426.8 422.2 416 404.4 389.8 374.2 358.7 346.7 337.1 326.8 316 308.7 299.8 293.6 289.7 288.9 289.3 290.7 297.3 298.7 295.7 292.2 282.4 273.9 266.9 263.1 244.2 229.1 222.5 213.7 206.5 205.8 208.2 213.4 222.5 228.1 234.5 242 247.4 252.6 255.8 260.5 264.2 266.1 269.7 272.2 274.3 281.9 291.3 301.4 314.6 330.5 342.3 357 374.4 395.2 408.6 421.9 443.6 464.6 485.1 513 539.4 570.1 599 619.2 629.8 629.7 618.6 584 556.6 523.6 497.1 488.2 482.4 473.4 457.2 435.2 425.3 416.1 420.8 421.9 433.1 431.7 433.4 422.8 414.2 404.3 398 385.5 359.3 318.3 271.6 240.5 212.8 199.6 194.5 186.5 181.6 183.7 186 195.5 213.5 232.7 261.2 288.7 315 326.7 332.9 344 359.7 379.5 406.4 438 459.3 478.9 495 517 540.8 555.8 571.1 589.1 604 620.7 633.6 644.8 652.8 631.1 601.1 562.1 520.2 489.8 461.1 441.9 418.9 396.8 382.8 368.2 355.3 339.2 323.2 304.7 290.6 274.9 258 241.4 224.2 212.7 205.2 200.4 192.8 190.8 183.2 171.9
47.6 49.6 60.1 66.3 70.4 78.7 83.9 92.2 92 91 98.6 105.4 117.4 128.4 139.5 147.5 153.3 159.3 173.4 192.2 208.7 221.2 226.2 234.7 246.8 256.1 271.2 280.8 307.2 333.2 359.7 377.7 393.2 396.4 393.3 389.1 383.8 378 375.3 375 375.2 378.1 384.2 397.8 410.2 417.4 421.4 417.3 409.9 399.2 385.3 367.7 353.2 341.1 330.8 319.4 310.1 301.8 294.8 289.9 286.9 286.1 289.1 291.5 295.4 301 298.9 295.7 291.1 282.5 273.6 266.7 256.5 244 232.8 226.8 221.4 213.9 211.9 214 218 229.4 231.3 236.2 239.9 244.2 248.9 254.6 255.4 262.3 265.1 266.7 265.5 276.3 284.3 294.7 308 322.1 333.2 348.5 365.7 387.8 401.1 415.6 437.3 459.2 481 504.3 532.3 555.6 581.5 602.9 617.4 620.3 614.6 584.5 555.5 514.3 481.9 468.7 467.6 454.6 441.6 424.3 404 401.3 402 410.2 416.6 423 430.8 432.8 418.5 396.8 390.3 384.3 356 297.7 263.3 232.6 205.2 188 177.2 176.4 179.5 182.8 180.1 194 212.8 231.2 252.1 280.9 301.3 311.8 320.2 327.6 341.6 359.9 381.1 404.7 424.4 450.5 465.8 486.7 515.4 537.8 551.5 570.5 584.2 601 622.4 636.9 647.6 643.2 611.5 576.7 538.8 502.5 472.1 448.1 424.2 401.5 384.7 370.5 356.5 339.5 322.2 303.8 287.9 273.4 257.8 242.1 229.1 219.8 214.2 211 202.7 199.6 196 189.1
44.6 48.3 53.5 62.8 66.6 73.3 74.9 84.2 82.4 83.5 93 94.8 106.7 121 132 141.4 148.6 151.9 163 180.4 195.2 204.4 212.6 222.4 235.4 242.1 257.4 272.4 297 330.6 356.2 378.3 389.7 390.7 390 386.2 380.7 375 370.8 370.6 373.7 377.1 383.1 394.1 405.9 412.4 414.4 413.5 405.8 394.3 378.4 362.5 347.2 334.7 322.5 312.1 302.7 296.5 289.5 285.8 283.8 284.4 288 292.7 298.2 299.2 299.7 298.9 294.3 289.4 281.2 271.4 261.8 249.8 242 234.2 228.7 223 220.8 217.2 220.4 222.9 226.7 229.5 233.1 236.5 241.8 247.2 252 256.5 259.9 262.3 261.2 271.9 278.3 293.5 303.1 311.8 323.3 340.4 356.2 374.8 393.4 408.1 427.3 453.6 476.4 496.9 523.8 544.1 562.6 581.7 597.1 605.4 604.5 588.1 560.1 515.8 481.5 454.3 452.9 436.4 421.4 402.1 386.6 386.6 385.8 398.1 409.1 421.7 428.1 433.3 413.3 394.4 384.8 372.9 342.3 295.9 244.7 220.3 202.8 184.1 172.6 170.7 172.1 172.4 180.6 195.2 212.5 232.4 253.8 267.6 285.3 303.8 312.2 319.9 329.8 344.3 362.1 379.2 396.9 419.7 439.1 460.3 484.5 507.5 527 545.8 560.4 580.3 601.5 620.4 633.5 645.5 618.4 582.1 547.5 514 484.9 456.1 431.6 409.1 389 374.4 358.5 339.6 319.9 302.9 287.6 272.7 260.4 246.6 234.6 227.4 220.6 215.4 211.3 208.7 204.1 198.3
52.2 50.4 49.5 59.1 65 69.2 71.2 74.7 76.5 79.4 85.1 91.6 98.4 112.3 122.5 136.5 144 147.9 156.1 167.3 182.2 189.2 195.2 209.7 224.2 235 248.6 264.3 292.9 320.8 350.1 370.2 382 383.4 384.6 381.7 376.6 370 368.7 367 367.9 372.9 379 390.6 401.4 405.3 406 407.4 399.2 389.1 376 358.4 342.9 328.7 316.9 306.5 298 291.3 285.2 280.8 279.6 281.9 286.1 293.9 299.6 301.8 300.2 300.2 295 292.5 285.3 273.5 264.4 255.1 244.6 238.2 232.4 230.2 224.7 219 217.2 218.9 219.1 222.5 225.9 229.3 232.6 237.3 246 250.3 254.2 256.5 256 265.5 272 278.9 293.5 305.1 314.8 330.3 346.2 365.4 384 399.2 415.1 445.3 468 491.4 514.7 532.2 545.8 560.4 576.7 586.6 588 584.3 568 529.9 487.4 446 428.2 416.7 401 385.1 371.6 366.8 370.7 386.4 396.9 419.5 424 430.8 420.1 393.4 374.3 351.4 314.5 269.9 232.9 206.8 187.5 175 170.9 164.8 167.4 173.5 182.6 196.1 214.4 232.4 251.6 269.2 284.4 298.4 310.8 315.7 323.2 335 347.9 363.1 386.8 404.7 415.6 431.5 458.8 483.6 507.6 527.4 539.6 556.8 579.9 599.5 619.1 636.8 624.7 589 553 522.4 494.3 462.5 435.5 412.4 392.7 375.1 358.5 339.7 321.8 301.6 286.4 273.1 262.8 250.5 240.8 235 229.8 223.1 217.8 216.4 213.3 207.6
47.7 52.2 49.8 52.3 59.7 64.6 66.7 66.7 74.2 77.6 80.5 85.7 93.6 106.1 113.9 127.3 135.5 141.7 143.5 156.1 169.6 177.3 183.1 197.7 211.1 224.4 238.2 254.7 280.6 308.5 342.8 357.5 368.7 370.1 371 371.5 369.5 364.1 363 360 361.4 367.2 376.1 386 393.9 397 399.3 396.6 392.8 385.2 370.8 354.7 337 323.1 311.5 301.2 293 287.2 280.7 277.2 276.1 278.3 286.4 292.8 299.7 302.8 299.9 296.8 298.1 293.4 286.7 276 266.3 257.9 248.1 240.6 235 230 223.1 215.7 211.7 212.8 212.4 214.5 215.2 221.2 224.3 232 238.1 242.7 246.4 249.7 252 259 269 276.4 286.3 297.6 308.6 323.3 338.7 356 374.1 389.9 408.4 433.5 460.9 483.8 505.1 518.8 531.3 542.3 556.4 568.2 572 572.8 564.6 535.3 490 450.6 415.9 397.3 386.8 374.7 360.5 354.5 355.3 366.5 383.5 405.6 423.2 424.6 422.8 396 365.4 330.2 301.6 261.2 225.7 197.3 176.9 168.5 163.5 163.5 172.3 176.1 185.6 201.4 220.9 234.2 253.9 267.3 281.3 297.8 305.7 312.2 317.4 330.5 344.3 361.4 376.9 393.6 401.9 421.5 443.8 463 491 513.4 525.3 539.1 556.5 579 602.3 622.7 621.9 589.7 555.8 523.7 494.4 464.9 438.7 415.9 393.7 374.2 358.1 338.1 320 297.2 285.1 276.5 266.2 256.2 249.4 243.2 236.3 229 224.9 218.6 215.9 213.1
52.6 53.5 56.4 54 54.3 60 62.2 62.2 71.9 75.7 79.3 77 89.4 98.5 108 117.7 128.3 135.4 137.8 145 158.5 163.5 173.1 185 199.9 216.4 226.1 246.8 277.9 305.9 332.3 345.2 349.4 351.7 353.6 355.3 356.6 354.9 353.7 352 354.9 362.1 372.4 381.6 386.1 387.4 389.8 392.1 386.6 382.3 368.2 350.6 333.8 317.1 304.8 296.2 288.5 281.9 276.6 273 272.2 274.7 284 289.5 296.8 299.8 302.4 298.3 293.2 291.8 285.3 277.3 269.4 257.7 248.8 241.3 234.7 228 220 212.8 206.6 203.9 205.1 206.4 207.1 209.3 214.9 223.2 230.3 233.2 237.5 240.8 245.3 252.2 265.4 273.5 279.3 292.6 301.5 312.9 328.2 343.9 362.2 380.7 399.8 422.8 446.8 485.4 494 508 517.7 528.4 538.7 550.4 557.1 562.5 561.9 539 512.5 469.2 423.5 390.1 373.5 361.7 351.6 346 345.8 349.7 370 392.2 420.5 428.3 406.8 391.7 359.8 317.5 273.4 242.1 215.5 187.6 170.8 163.5 163.5 163.5 169.5 177.4 187.9 201.6 217.1 232.2 252.8 266.3 277.9 284.8 298.8 309.9 318.8 331.7 342.7 362.9 379.6 387.2 394.4 411.5 428.3 446 476.2 497.5 518 532.2 544.5 566.2 587.6 612.5 619.8 588.8 552.8 525 492.1 467.6 440.3 414.8 396 372.8 355.8 337.9 316.1 295.3 283.1 276.9 269.8 264.9 259.1 253.9 244.7 237.5 233.3 230.7 227.4 220.3
48.7 61.9 62.1 58.3 56.8 55.7 57 59.7 64.4 66.9 69 71.8 79 91.1 98.4 113 119.4 129.5 131 137.5 143.2 156.7 161.4 175.4 190.3 205.2 212.7 235 269.4 299.9 319 327.9 332.7 332.4 334.5 337.3 341.5 343.6 344.7 346.7 349.2 357.7 368.3 376.2 379.1 380.1 380 378.3 378.4 373.3 361.3 346.1 329.8 312.7 299.9 290.6 284.2 276.9 271 267.7 267.1 270.6 281.9 288.9 293.2 297.9 304.8 299.2 292 286.7 284.6 275.1 269.2 258.7 249.9 243 234.7 224.4 215.4 207.3 201.3 197.9 197.2 198.4 199.1 200.3 206.7 212.9 220.1 223.5 228.3 218.7 237.3 244.6 258.3 265.8 273.7 281.4 291.9 303.3 317.6 332.1 347.1 366.3 382.4 405.2 430.4 460.7 476.3 491.2 500.2 510 521.8 532.2 539.5 544.7 550.2 554 531.1 486.1 437.4 394.6 368.4 351.7 342.7 337.9 337.9 337.9 355.2 384.4 406.7 419.8 404.8 382.5 351.4 305.2 266 231.2 205.3 181.5 163.5 163.5 163.5 163.5 172 175.8 186.2 208.3 224.7 244 260.5 274.1 284.7 296.3 308.7 319.4 325.8 336.2 346.8 364.1 375.8 382.7 390.7 404.6 424.4 442.7 469.2 483.3 509.2 524.1 537.1 558.1 579.2 601.7 612.6 585.1 553.7 520.1 488.9 466.2 437.7 414.2 396.7 373.9 355.2 340 320.3 294.8 284.1 277.9 274.5 271.2 267 262.9 253.8 246 244.4 243.4 244.1 236.6
39.6 58.9 70 65.3 55.1 56.1 55.8 58.3 60.8 65.5 66 68.1 74.2 85.8 93.7 102.9 112.5 121.6 121.8 127.6 131.3 145.4 154 165 176.8 192.3 203.2 223.2 257.8 287.3 302 310.6 313.8 314.3 317.3 320.9 324.7 326.3 332.7 339.5 345.5 353.6 364 369.8 371.5 370.4 374.9 371.1 367 360.3 350.4 338.1 324.8 308.7 297 287.2 279.3 271.3 266.4 263.9 263.1 266.1 274.7 281.5 289.3 293.3 309.3 300.3 293.2 287.8 280.7 274 267.3 259.1 249.5 241.2 231 221.5 210.8 201.2 195.3 192.9 189.7 189.1 192.7 192.2 195.8 201.9 206.9 212.3 216.7 221.5 228.9 238.7 248.9 257 265.3 275.7 283.7 295.3 304.4 320.1 333.1 348.2 366.3 389 413.1 440.7 458.4 473.4 484.1 492.1 501.9 511.5 517 522.4 532.9 541.4 544.7 507.2 453.2 405.8 375.2 348.2 337.9 337.9 337.9 337.9 340.2 364.7 386.6 400.5 392.9 372.9 339 299.8 260.9 222.7 197.4 168.1 163.5 163.5 163.5 163.5 163.5 172.5 186.6 210.1 226.7 252.3 269.3 278 291.6 305 322.8 334 339.4 344.8 354.2 367 376.4 382.1 386.7 396.2 420.6 440.9 457.9 468.5 492.4 512 529.8 552 571.9 595.4 603.1 572.9 543.6 512.8 486.8 463.1 436.2 413.8 394.2 373.3 355.6 339.4 316.1 298.5 284.3 277.8 275.3 273.3 273.3 269.4 260.7 253.8 249.3 250.1 254.6 247
