ncols 200
nrows 86
xllcorner 280000
yllcorner 904200
cellsize 50
182.9 180.1 176.4 173.9 174.5 173.5 173.1 172.4 173.6 176.4 180.2 184.3 186.8 191.3 194.4 198.1 201.3 203.7 206.2 209.6 213.7 220.3 222.7 224.4 226 227.5 228.8 232.1 231.5 226.3 226.1 230.8 236.2 242.4 246.3 249.9 253.1 254.3 258.3 265 266.9 266.7 271.8 281.3 294.4 302.7 303.9 305.5 305.6 301.7 298 292.5 285.9 288 268.2 260.8 255.7 247.3 235.1 231.1 230.8 231.4 231.2 234.2 226.2 227 221.4 210.2 197.9 195.2 189.8 181.1 175.6 177.2 175.4 170.2 164.8 162.1 153.7 145.1 138.4 133.7 127.3 121.7 116.7 108.7 98.8 85.1 69.3 55.2 38.7 31.5 27.3 27.3 27.3 28.2 30.7 30.6 29.6 28.6 29.4 27.3 27.3 27.3 28 28.3 28.8 31.6 38.1 45.8 55.3 65.1 75.7 87.7 103.9 110.6 119.3 129.2 138 136.4 150.2 163.1 174.5 183.6 185.6 187.1 188.1 190 193.4 194.9 195.9 200.8 205.7 207 211.3 221.7 236.2 244.7 257 267 273.1 274.1 274.4 274.2 274.8 277.6 280.8 283.3 283.9 286.7 288.6 290.2 291.4 292.6 293 297.4 303.6 306 307.5 306.2 304 304.3 305.4 306.8 310 311.4 312.1 310.9 306.9 304.2 303.4 303.1 303.5 303.1 301.9 301 298.1 291.8 285 285.1 284.1 275.8 265 257.3 249.1 239.1 228.8 218 211.9 204.2 188.8 194.7 212.2 226.2 240.5 252.4 263 268.7 274.8 279.4
182.7 177.2 180.1 180.1 179.1 176.2 176.7 177.5 179.9 182.3 181.5 188.7 191.3 193.8 196.1 199.2 202.3 205.3 207.6 211.8 216.1 220.3 224.9 228.3 230.3 235.8 235.4 235.3 234.7 233.5 232.5 237.8 243.6 246.5 249.5 251.8 254.3 255.8 255.7 256.5 259.6 262.4 265.1 275 291.8 304.3 311.8 315.7 313.2 310.8 306.7 303 289.7 277.2 272.3 259.4 252 248.4 238.2 227 225.4 228.6 224.5 227.3 221.3 217.8 217.5 204.3 195.5 193.3 191.2 180.8 172.6 168.7 168.3 166.1 161.7 159 154.4 147.9 145.8 139.9 133.8 127.3 122.8 118.1 110.3 99.2 88.6 74.8 58 42 33.4 28.5 27.3 27.3 30.8 29.7 28.7 28 27.3 27.3 27.3 27.3 27.3 27.3 27.3 27.5 36 42.8 51.1 59.6 70.2 80.8 94.8 104.4 113.8 122.5 128.6 131 142.4 155.1 169.9 176.8 181.5 184.3 186.2 187.3 188.8 189.9 190.4 196.8 200 205.1 209 218 229.8 241.9 251.3 260.3 269.4 273.4 273.2 273.2 273.3 276 280.6 283.3 284.9 284.6 284.9 286.4 287.9 289.4 290.7 291 294.4 299.8 300.5 301.2 302 304.4 306.2 308.4 309.9 312.1 312.9 314.8 308.7 305.2 304.7 305.4 306.1 305.9 305.3 304.5 302.5 298.1 288.4 282.3 276.9 272 266.3 257.6 248.6 239.7 229.9 219.1 210.6 204.3 195 180.6 202.4 219.6 235.4 246.8 255.8 266.6 273.6 278.8
179.6 181.9 182.2 182.5 182.1 180.4 181.8 183.9 186 187.7 188.8 186.6 194 198 200.3 202.3 204.2 207.4 210.4 214 217.6 221.7 226.4 232.4 238.6 239.6 237.8 237.6 236.5 236 237.2 246.2 251.8 253.2 252.1 253 255.4 256.5 254 251.2 248.2 254.5 262.6 267 281.3 296.6 310.7 322.8 322.2 316.8 312 305.7 296 276.9 264.9 254.6 246.3 245 238.4 226.1 218.2 215.9 218.4 214.8 213 208.4 204.3 202 193.3 187.7 184.1 177.6 169.4 164.8 161.1 161.3 159.3 156.5 154.3 150.8 149.4 145.6 140.4 134 129 125.5 119.6 112.8 104.3 92.3 76 59 45.5 36.4 28.7 27.3 29.8 28.3 27.3 27.3 27.3 27.3 27.3 27.3 27.3 27.3 27.3 27.3 31.4 37.9 45.4 53.7 63.9 74.6 84.8 100.6 109.6 112.7 118.6 128 136.5 151.8 161.3 170.3 177.9 182.2 184.2 186.5 186.1 186 187.7 190.7 197.3 203.7 205.6 211 224.1 235.1 246.8 256 262 270.2 272.1 272.3 272.6 275.1 276.3 278.8 280.8 283.4 284.3 285.8 287.6 288.8 289.3 289 289.1 291 294.1 295.8 302.4 307.4 309.5 312 311.5 313 316.1 318.9 314.7 308.1 306.9 307.5 308.4 308.3 306.7 304.9 302.3 295.3 287.7 282.5 275 267.8 260.7 254.6 243.7 235.1 226.7 216.7 207.9 200.5 195.2 179.7 196.6 210.3 229.7 243 253.5 262.9 272 280.7
184.4 186.6 185.4 185.6 185.3 187 188.1 188.7 191.8 193 194.1 194.9 192.9 200 203 204.6 206.6 210.7 213 216.3 217.4 222.5 227 231.1 234.3 236 239.7 239.5 238.3 238 243.6 252.1 256.2 257.2 256.4 254.2 252.9 252.2 250.3 246.2 246.2 247.4 259.3 263.4 270.5 281.4 296.1 309.8 317.9 316.7 313.3 308.1 296 279.5 259 246.4 238.7 231.3 230 224.6 214.3 208.1 205.8 206.6 202.7 202.2 195.7 194.6 189.2 178 175.5 176 170.6 160.2 156.7 156.6 156.8 154.1 152.2 151.3 148.7 147.5 144.6 141.3 135.6 131.7 128 121 115.6 106.9 94.7 78 67.7 48.5 32.6 27.3 28 27.3 27.3 27.3 27.3 27.3 27.3 27.3 27.3 27.3 27.3 27.3 28 33.5 40.9 47.8 58.1 67.2 79 89.3 100.3 109.6 118.7 127.6 135.4 147.1 157.4 167.5 174.5 178.9 183 184 184 183.8 185.9 188.2 192.2 200.9 204.9 208.7 215.1 229.8 241.2 250.3 257.7 263.1 269.4 271 271.7 273.5 275.3 277.3 279.1 281 282.8 284.7 287.3 289.1 289.6 288.7 288.2 288.8 291.2 295 301 309.6 313 316.5 314.1 315.6 318.1 318.9 316.2 313.1 311.2 310.7 311.5 310.4 308.3 305.9 301.7 293.7 285.9 280.7 274.5 268.9 262.1 249.5 237.4 227.6 220 212.3 203 195.4 191.1 176.8 194.9 208.5 220.3 239.7 254 263.1 268.9 280.2
188.8 190.1 190.2 190.6 190.3 192.4 193.2 193.2 196 196.9 198.3 199.3 198.8 198.9 202.6 205.8 208.7 213 217 220.1 220.4 225.4 227.6 229.2 230.5 233.5 240.1 241 243 244.1 246.9 251.6 253.1 256.6 256.1 253.6 251.8 246.8 246.2 246.2 246.2 246.2 254.3 260 266.2 273.2 280 292.5 299.8 301.4 298.7 290.8 281.7 272.7 259.1 240.7 231.9 222.9 219.6 216.7 210.2 203.2 198.9 197.4 196.5 191.5 189.3 182.3 182.2 175.5 170.3 168 166.2 159 155.6 151.5 151.7 151.7 150 149.3 148.4 147.5 146 145.9 141 137.6 136 131 126.3 121.5 111.9 98 87.4 69.1 48.5 27.3 27.3 27.3 27.3 27.3 27.3 27.3 27.3 27.3 27.3 27.3 27.3 27.3 27.3 29.4 37.7 46.4 52.6 65.4 76.9 87.5 99.9 113.2 115.6 122.5 133 143.1 152 160.9 168.9 174.7 180.2 182.9 182.3 179.9 184.7 185.7 190.2 196.2 202.6 207.9 215 224.9 234.2 244.4 251.9 258.1 263 269.8 272 273.8 275.3 277.2 279.2 281.2 283.3 285.4 286.7 288.3 289.8 289.4 287.3 287.7 288.4 295.1 300.5 309.8 314.4 318.9 320.6 317.4 316.6 315.7 315.6 315.4 315.7 315.5 314 311.7 309 304.5 299.2 293.1 287.5 281.7 275 267.9 261.8 252.8 238.1 224.1 215.1 208.3 201.2 191.8 187.8 175.3 192.4 205 221.4 240.1 254.3 262.9 268.5 277.3
192.8 193.7 194 194.8 195.8 197.4 198.5 198 200.5 201.2 202 203.1 203.1 202.8 203 207.1 212.2 215.8 219.3 224.4 228 232 230.4 230.3 231.1 233.8 240 245.3 250 254.3 257.5 257.2 257.3 256.3 255.6 253 251.3 246.2 246.2 246.2 246.2 246.2 251.8 257.6 263.6 270.6 275.4 279.3 286.8 280.6 276.9 270.9 268 263 254.2 240 224.4 216.1 208 206.2 203.9 199.8 195.7 189.5 187.8 182.9 179.3 177.4 172.5 169.1 162.6 158 159.9 156.1 152.5 148.5 146.3 147.8 148.3 149 148 146.2 146.2 147.2 145.9 143.7 142.4 141.1 137.4 133.7 128.5 120 111.3 88.8 63 42.6 27.3 27.3 27.3 27.3 27.3 27.3 27.3 27.3 27.3 27.3 27.3 27.3 27.3 27.8 34 40.2 50.4 60.7 72.4 84 98.3 108.8 114.2 120.6 128.7 139.3 147.4 155.4 163.5 170.2 176 182 181.3 179.3 180.4 184.6 186.8 192.9 201.3 206.6 213 222.2 230.8 239.5 247.5 254.6 258.4 266.3 270.7 274.1 275.8 277.8 280.6 282.6 284.3 286.2 287.9 289.8 292 289.7 286.8 286.8 287.5 290.9 302 309.3 314.1 317.9 321.7 320.2 317.9 315.5 315.9 315.8 316.8 318 317.8 316 312.9 308.3 302.4 291.9 287.7 281.7 275.9 268 259 249.5 238.8 226.2 214.9 206.2 199.8 191.5 185.4 173.8 189.5 205.3 225.6 241 255.7 262.6 269.6 272.9
197.8 198.6 198.8 199.5 200.4 202.4 202.7 204.5 205.2 205.7 205.9 206.9 206 206.2 206.7 208.6 210.9 212.5 215.4 221.4 226.2 232.3 232.8 233.1 234.4 237.7 244.8 250.2 255.8 259.9 263 264.1 263.4 259.7 255.8 253.2 251.2 247.5 246.2 246.2 246.2 246.2 251.3 256.9 263.2 267.3 272.3 277.4 278.1 273.7 266.7 259.9 254.9 251 245.4 237.3 226.1 213.1 203.5 198.4 194.2 193.7 190.9 190.8 184.1 177.7 172.7 170.4 165.6 158.9 156.3 152.4 150.3 148.5 149.3 146.1 142.6 142.9 146.3 147.7 147.1 147.1 146.2 148.3 149.6 148.8 148.3 148.1 148.1 145.6 144 141.7 141.4 112.8 75.9 55.4 35.4 27.3 27.3 27.3 27.3 27.3 27.3 27.3 27.3 27.3 27.3 27.3 27.3 27.3 32.9 36.4 41.6 52.3 70.8 82 94.5 105.3 115.2 116.6 126.5 135.3 144.1 151.5 158.5 166 172.9 177.2 179.7 178.9 178.6 183 185.2 188.2 196.9 203.2 212.1 216.2 227.4 236.9 245.6 254.1 257.9 264.1 271 274 276.1 277.9 283 284.2 286.3 288 289.4 290.9 293.6 293.5 288.5 286.6 286.8 289.2 298.6 306.1 313.5 316.6 320.1 318.8 316 315.6 316.1 316.2 317.8 318.9 320.3 320.3 317.2 314 309.6 296.7 290.3 282.9 275.4 268.2 260.7 249.8 236.9 225.4 215.6 206.5 198.6 191.5 182.3 168.2 187.8 204.1 225 240.7 256.3 262.1 268.3 270.8
202.1 203.7 204.2 205.2 206.3 206.1 208.5 209.2 210.4 210.4 210.7 211.1 210.9 212.4 212.6 213.2 213.1 212.7 214.1 217.4 221.8 226.6 230.1 235.3 238.7 242.5 248.8 253.6 258 262.9 265.7 267.5 267.4 265.5 263 258.6 256.4 256.5 253.7 251.7 248.6 247.1 249.2 253.9 257.4 263.2 269.6 277.2 278 272.9 266.4 256.4 247.5 243.5 239.1 233.1 225.2 217 206.5 199.8 194.3 188.3 187.4 186.7 182.6 176.3 168.1 161.6 156.6 154 150.6 151.8 146.5 143.7 143.9 143.8 140.2 139.8 141.8 146.2 145.9 146.1 146.2 147.7 152.1 153.8 153.7 154.2 158.1 160.3 161.2 161.7 160.1 151.4 95.4 68.2 46.2 27.3 27.3 27.3 27.3 27.3 27.3 27.3 27.3 27.3 27.3 27.3 27.3 27.3 27.7 31.8 37.8 47.7 66.1 80 90.6 102 109.2 118.2 123.4 130.4 139.5 147 153.3 161.9 168.3 174.3 177.3 176.9 176.6 180.4 183.7 187.4 195.7 202.6 209.6 216.4 227.1 236.1 243.8 254 259.2 264 268.9 274.4 276.4 278.9 282.3 285.6 287.4 288.8 290.3 291.7 292.6 291.5 288.3 283.6 285.8 291 293.2 302.1 308.7 314.8 323.9 319.6 315.9 316.2 316.3 316.7 318 321.3 323.3 322.5 319 316.9 313.6 305.4 292.6 285.6 281.1 273.5 261.7 251.1 241.3 229.5 217.6 206.9 197.9 189.3 180.7 165.4 186.2 203.2 224 240.9 253.7 261.2 265.4 268
206.4 208.1 209.5 209.9 210.2 210.5 213.7 214.6 215 216.1 215.6 214.9 216.4 217.2 217.5 219 219.7 217.6 216.8 218.8 222.4 225.7 232.2 235.2 239.1 244.2 248.4 253.5 258.9 262.3 267 269.9 274.3 275.5 273 268.4 262.1 259.5 257.4 255 250.8 247.9 246.3 247.8 249.3 253.9 259.2 266.2 266.3 262.8 259.4 255.1 247 241.4 236 230.7 228.9 223.4 215.9 206.6 197.3 189 182.8 180.8 177.6 174.4 166.6 158.8 151.2 145 143.3 146.6 144.9 139.9 139.6 140.5 138.6 137.2 137.9 143 145.6 146.2 147.5 148.6 152.2 157 159.1 162.3 170.6 174.1 175.6 176 175.3 176.8 117.1 81.6 56.2 35 27.3 27.3 27.3 27.3 27.3 27.3 27.3 27.3 27.3 27.3 27.3 27.3 27.3 27.3 31.8 44.2 59.1 72.7 87.7 95.7 105.5 119 125.8 128.8 135.2 141.7 149.1 157.8 164.5 171.1 172.4 169.2 176.6 178.7 179.6 183.8 191.2 199.9 206.1 214.2 224.8 235.8 242.1 251 260.3 265.8 268.6 272 276 280 284.5 286.2 288.1 289.8 291.3 292.6 293.7 292.3 286.8 283.8 279.7 288.4 292 294 302.9 308.7 320.2 320 318.9 316.5 316.1 316.9 318.7 322.4 325 324.3 321.5 319.1 315.1 307.4 296.5 285.5 283.2 278.6 267.8 255.2 242.8 232.3 221.3 209.8 198.2 187.8 176.6 167.7 183.2 199.8 222.4 239.8 252.3 260.7 262.6 264.9
210.8 212.9 214.3 214.7 215.2 215.9 218.2 219.2 219.6 220.7 220.1 220.5 221.1 221.9 223 224.9 225.5 223 221.9 221.6 224.6 226.9 233.7 236.3 240.3 244.1 247.5 247.8 251.8 259.3 264.9 271.9 276.9 277.8 276.7 272.1 265.3 259.3 255.4 251 249 245.2 242.3 243.6 243.3 246 248 250.8 250.1 249.5 248.3 247.5 244.9 239.3 232.3 224.8 222.8 221.2 216.1 207.4 198.6 190 182.6 178.6 176.7 175.6 173.6 163 156.5 147.7 138.1 137.9 141 136.6 133.7 134.2 134.7 134.2 135.7 137.9 143.8 145.1 146.6 148.3 152 160.8 164.8 171.2 181.6 185.9 185.5 185.8 186.7 188.7 182 94 65.8 45 27.3 27.3 27.3 27.3 27.3 27.3 27.3 27.3 27.3 27.3 27.3 27.3 27.3 27.3 27.4 39.6 58.5 75.4 84.6 93.8 106.4 115.7 124.5 130.2 132.9 137.7 145.8 153.2 157.9 162.5 171.2 172.6 174 176.4 178.3 182.9 185 194.5 201.6 211.3 223 234.4 241.6 247.8 259.4 267.1 270.4 272.2 275.7 281.2 285 288.2 289.1 290.5 292.3 294.4 296.3 298.5 293.9 284.8 279.2 276.7 283.7 286.3 297.5 305.7 312.4 316.1 316.5 315 315.3 316.7 318.6 321.9 325.7 326.4 324.2 321.1 316.9 307.6 297.4 288.2 284.6 281.3 273 257.5 245 234.4 223.7 212 198.3 185.5 171.8 164.1 180.2 195.6 219.5 236.9 251.9 259.3 261.7 260.7
215.1 217.3 219.2 219.8 220.4 220.9 221.6 223.1 224.1 224.7 226.4 226.8 227.8 228.5 229.8 231.1 230.5 231.6 231.8 231.9 233.4 234.8 235.2 235.8 239.2 240 240.9 241.9 243.4 253.5 261.4 267.4 270.4 273.5 274 268.6 263.7 257.2 251.5 246.3 242.1 241.9 238.4 238 236.7 236.7 238.4 237.7 237.4 236.5 234.2 233.4 229.2 226.4 223.3 218.6 215.5 213.4 211.6 208.6 202.5 195.5 188.9 181.6 177.4 176.2 174.1 168.8 159.7 151.8 141.2 132.8 130.9 128.4 130 127.9 129.7 127.7 132.4 133.7 138.4 143.4 145.9 148.1 154.2 164 171.7 183.4 191.6 193.6 194 194.5 196.5 197.7 167.6 115.7 77.6 52.4 32.9 27.3 27.3 27.3 27.3 27.3 27.3 27.3 27.3 27.3 27.3 27.3 27.3 27.3 29.5 36.3 54.3 69.5 83.4 92.9 100.6 110.6 118.4 126.8 130.1 137.2 141 147 153.8 161.5 167.4 168.8 171.6 175.3 179.6 181.6 184.4 189.8 198.6 205.8 220.8 230.7 239.5 246 255.7 266 271.7 274 276.2 280.3 284 287.3 289.8 291.6 293 295.4 296.8 298.5 292.8 284.2 277.4 274.1 275.3 274.3 277 289 298 305.2 306.3 307.5 312.1 313.7 316.9 321.3 324.6 325.8 324.7 322.8 318.7 309.8 299.1 292.4 284 280.5 272.2 257.8 245.2 234.6 222.7 211.6 200.2 186.5 171.2 159.9 173.9 189.3 210.4 232.4 250.3 257.7 258.9 254.2
219.2 221.3 222.9 224.1 225.1 226.8 228.1 227.5 228.5 231.1 232.1 233 235.5 235.9 236.9 237.9 240.3 244.4 245.6 244.3 246 244 241.7 241.3 239 240.2 240.4 240.3 240.1 239.9 249.1 258.3 260.9 265.1 265.2 265.2 261.8 255.9 247.7 240.9 237.7 235.8 234.1 232.1 232.5 233.4 234.5 231.3 228.8 226.4 223.9 222.2 220.8 221.6 221.6 217.8 212.2 208.1 205.2 205.6 200.6 195.9 190 184.6 178.5 175.9 172.6 167.3 159.3 152.5 145.7 137.1 131.8 125.3 120.7 123.3 124.8 123 126.5 129.3 132.9 140.7 145.3 150.7 161.8 172 183.3 194.9 199 198.9 198.8 199.4 203.8 207 199.9 173.3 88.4 60.6 39.4 27.3 27.3 27.3 27.3 27.3 27.3 27.3 27.3 27.3 27.3 27.3 27.3 27.3 30.9 38.5 48.6 62.7 79.1 91.7 98.7 106.4 117.9 125.2 129.6 135.1 138.7 148.3 153.7 157.9 163.6 165.9 170.1 173.7 179.2 182.8 184 187.7 194.6 203 212.4 227.2 237.4 243.9 251.4 265.4 273.9 275.8 278 280.9 284.1 286.6 289 292 293.6 295.5 296.4 293.3 285 279.4 275.2 273 270.8 276.5 273.1 278.6 284.2 291.2 295.4 301.7 306.2 310.8 314.9 321 323.2 324.3 323.5 320.3 316.4 307.6 300.8 293.3 285.2 278.7 269.4 255 245.5 233.7 220.3 208.5 198.2 187.4 173 153.2 166.2 182.3 201.8 226.3 242.8 254.7 251.4 248.9
223.1 225.2 227 229.2 231.2 232.9 234 234.7 235.9 238 239 240.3 241.8 244 245.8 249 251.8 253.1 259.7 261.7 263.3 262.7 262.3 257.6 251.2 245.6 243.8 244.1 240.8 239.1 238 241.4 251.9 254 257.3 263.5 262.1 254.6 246.8 238.5 236.8 235.2 232.9 232.2 232 231 229.6 229.6 229.9 227.1 223.8 221.6 219.7 215.9 213 213.4 209.1 203.8 200.4 197.3 194.5 191.5 190.1 187.4 183.3 175.4 175.2 173.1 169.3 163.4 152.1 141.9 133.2 127.5 124.5 115.5 119.4 118.4 122.4 124.7 127.2 135.4 145.3 153.6 169 181.1 195.1 205.3 205 200.3 198.6 199.3 204.6 204.9 203.5 183.9 99.6 68 41.7 27.5 27.3 27.3 27.3 27.3 27.3 27.3 27.3 27.3 27.3 27.3 27.3 28.1 31.8 35 47.2 61.4 77.5 86.3 95.6 103.7 112.1 122.4 129.8 135 140.3 146.9 151.6 154.9 160.1 164.6 168.2 172.8 179.1 182.5 182.4 188.6 192.5 197.4 208.4 222.9 233.3 239.9 245 266.6 274.7 277.2 279.4 281.4 285.5 289.4 291.1 293.2 294.9 296.3 297.6 294.2 281.4 275.6 272 269.7 268.9 274.2 274.1 272.9 277 283.1 289.5 294.2 299.8 307.8 313.3 318.4 321.4 322.5 322.2 320.2 315.4 306.7 299.7 291 282.6 275.7 265.2 251.5 242.5 229.3 218.5 207.5 196.4 186.3 175.3 154.1 156.9 174.2 195.1 218.2 234.5 242.7 243.9 239.6
226.9 229.9 232.5 234.5 236.3 238.2 239.4 239.4 241.9 243.1 246.2 249 251.9 253.6 256.2 261.2 264.7 268.8 274.6 278.7 284.6 289.2 287.8 279.4 274.2 262.3 255.7 252.5 248.8 245 239.2 236 236.9 243.3 249.8 259 260.6 256.7 249.7 244.6 238.2 235.5 233.5 232.5 232.2 230.9 228.6 225.3 226.7 227.3 225.6 222.1 219.7 217 214.2 210.5 207.6 202.7 198 192.5 189.6 188.8 187.3 186.3 183.7 183.8 180 177 173.6 170 160.8 149.7 137.3 128 124.5 117.4 111.3 112.7 112.6 115.7 119.7 128 139.7 150.6 170.7 185.1 201.7 207.4 206.2 196.5 196.1 196.7 200.2 200.1 198.3 169.4 105.6 73.9 46.4 30.2 27.3 27.3 27.3 27.3 27.3 27.3 27.3 27.3 27.3 27.3 27.3 29.2 33.2 36.7 45.7 55.9 70 81.7 95.1 101.5 108.9 120.1 127.8 137.1 141.7 144.8 149.6 154.5 159.3 163 166.3 170.8 176.1 179.5 182.4 187.8 191.4 195.9 202.3 216.9 230 236.9 243.2 255.2 275 278.6 279.4 281.8 285.3 289.9 291.9 293.5 294.9 296.4 297.9 293 281 275.3 269.9 268.9 268.9 269.2 276.9 272 272.7 277.4 284.5 286.5 289.4 299.9 307.3 312.8 317.1 320 320.6 319.5 314.1 305.7 296.1 284.7 279.6 271.4 260.5 248.1 237.6 224.8 214.8 205.1 193.4 183.6 175.3 158.5 148.3 165.9 186.5 209.8 224.1 231.4 233.5 227.7
231.9 235.3 237.9 239.9 241.5 243.1 244.6 245.4 247.4 249.8 254.9 257.7 260.4 263.5 267.3 273.2 277.5 286.6 290.2 297.5 306.4 312.2 310 308.7 306.6 300.6 288.6 274.6 268.3 262.1 256.4 245.5 237.3 234.2 238 246.7 252.4 250.9 246.7 242.6 238.3 233 230.5 228.8 224.6 224.1 222 221.1 222.1 224.6 226 224.8 222.4 219.2 216.3 212.9 210.6 208.7 199.7 197 191 187.9 186.9 186.7 186.6 186.9 187.1 184.5 180.3 174.3 169.6 159.4 145 133.1 125.6 120.4 115.2 109.5 106.7 108 112 118.8 129.6 142.3 163.9 189.2 202 203.4 196 188.2 191.8 194.2 192.3 193.4 189 158.8 109.5 80.6 57.8 34.1 27.3 27.3 27.3 27.3 27.3 27.3 27.3 27.3 27.3 27.3 27.3 28.6 31.6 34.7 47.7 58.7 75.6 87.2 94.8 101.6 108.1 114.9 122.8 134.1 140.4 145.5 150.3 155.3 159.1 162.5 166.3 171 176.4 178.6 181.3 186.4 191.6 194.2 198.2 212.9 226.7 235.1 241.2 248.6 261.2 277 279.6 282.5 285.6 288.7 292 293.4 294.8 296.2 297.7 294.7 281.1 274.6 270.7 268.9 268.9 268.9 274.1 275.5 271.5 274.4 280.4 280.6 282.7 288 301.9 306.7 311.4 314.9 318.2 319 312 302.4 291.5 280.5 275.5 264.5 250.9 239.9 231.2 220.6 209.5 200.6 191.3 181.6 173.4 161.1 142.3 159.8 174.5 197.6 209.8 220.8 222.6 221.1
237.5 240 243.1 245.1 246.9 248.3 250.5 251.9 253.7 257.4 260.5 263.9 268.6 273.7 276.9 284.9 295.3 303.5 311 317.5 322.3 330.1 335.4 334.7 330.8 324.4 316.2 299.2 287.4 278.4 271.4 261.8 249.7 239 232.3 232.8 236.9 240.9 239.7 236.3 231.1 224.9 219.7 217.9 218 216.5 219 217.4 219.9 221.1 223.3 226.5 227.1 224.6 220.6 217.5 215.5 215.6 211.7 207.8 204.8 200.3 193.4 188 188.2 188.4 190.7 193.1 192.1 187.6 176.4 169.2 156.1 144 131.2 123.6 116.4 111.7 106.2 101 106.7 107.9 118.5 129.1 151 175.3 189.9 186.6 181.6 180.8 186.5 187.3 182.2 186.1 178.9 141.8 109.3 88.4 64.4 38 27.3 27.3 27.3 27.3 27.3 27.3 27.3 27.3 27.3 27.3 27.3 27.3 31.1 36.3 47.9 61.3 76.9 88.5 95.9 103 109.9 116.1 123.2 132.1 137.7 144.2 149.7 156.1 161.6 163.6 167.9 172.1 175.5 178.8 180.2 187.3 190.3 195.3 196.7 205.9 221.8 233.3 240.3 246 254.3 264.6 278 281.9 285.7 288.4 291.8 293 294.4 295.9 296.5 294.3 286.1 276.5 272.7 269.5 268.9 268.9 268.9 272.6 268.4 269.3 273 277.9 279.9 282.1 288.1 301.5 306.3 310.2 314.5 315.9 308.9 301 289.4 278.9 270.7 258.3 242.2 230.6 221.9 213.7 205.2 196.7 188.4 180.5 172.6 163.7 149.3 149.6 162.8 184.2 199.1 207.8 212.7 211.2
242.8 245.2 246.9 249.5 252.3 253.8 257 258.2 260.3 264.1 265.8 271.5 276.4 281.3 289.5 300 308.9 322.6 329.5 337.2 345.9 358.2 362.9 360.5 354.1 345.4 335.3 317.4 300.9 290.5 285 275.1 261.5 251.1 241.5 233.1 225.5 230.5 231.3 228.6 222 218.8 215.7 214.6 213.1 211.4 212 210.5 212.3 215 218.2 221.8 224.7 225.8 223.5 221.3 217.6 216.7 215.4 214.7 211.5 206.3 200.1 192 189.8 190 192.1 198.5 200.6 200.3 193.8 179.2 166.9 152.9 137.8 127 118.1 112.1 107.6 102 98.2 101.2 108.5 118.2 129.8 142.7 156.2 165.4 168 172 174 174.4 165.8 159.6 149.7 127.6 104.7 86 58.6 35.2 27.3 27.3 27.3 27.3 27.3 27.3 27.3 27.3 27.3 27.3 27.3 28.4 31.3 38.4 49.1 60.6 76.4 88.3 96.6 103 108.2 115.1 120.2 125.9 137.3 142 148.5 154 160.9 163 167.2 171.8 174.2 179 183.6 184.8 190.9 193.6 198.2 201.4 214.5 232.5 241.5 245.7 249.9 258 264.9 275.3 279 286.1 291.4 292.8 294 294.5 294.3 290.8 284.1 281.3 282.5 279.4 273.6 268.9 268.9 270 268.4 263.3 264.7 267.7 275.5 277.4 278.1 287.5 300.9 304.3 306.9 308.2 301.8 300 290.8 279.2 267.2 252.2 237.7 225.8 215.7 207.2 200.2 194.1 187.4 180.3 173 165.3 151.5 139.4 150.3 168 188.8 196.7 199.2 201.6
247.5 250 251.1 253.7 256.7 259.5 261.2 263.4 266.1 269.2 275.5 280.8 284.2 292.6 307.5 319 330.8 341.2 348.4 356 369.5 383.4 390 382.6 370.2 356.7 343.2 326.9 307.5 295.2 291.2 283 271.4 259.5 250.6 241 231.9 222.7 220.8 220.7 217.7 214.8 209.3 207.2 204.3 203.4 204.5 204.2 205.8 206.8 211.2 213 217.5 220.4 221.7 220.8 219.3 217 214.9 213.3 211.1 206.6 201.9 195.4 190.4 190.3 192.7 203.5 209.1 210.7 207.9 198.4 178.9 161.5 147.9 133.9 123.8 116.5 108.7 103.9 97.7 94.5 99.1 107.8 115.6 125.4 138.1 147.5 148.5 148.1 150.5 153.1 151.5 138 125.4 113.9 98.4 78.6 53.8 34.4 27.3 27.3 27.3 27.3 27.3 27.3 27.3 27.3 27.3 27.3 27.3 29 33.4 39.2 47.6 61 78.1 87.3 94.6 100.1 105.9 112 117.9 124.3 131.7 138.6 144.1 153.1 159.3 163.8 168.8 172.6 174.2 179.1 187.2 186.7 189.6 194.6 199.5 202.1 206.5 215.6 234 241.8 245.6 250.7 255.8 259.9 265 273.2 284.8 291.8 292.8 293.1 293.8 293.9 295.8 289.2 286.3 285.4 280.7 270.1 268.9 269.6 267.2 260.3 259.8 261.8 263.1 264.5 267.8 274 284.6 293.5 299.6 298.1 295.8 294.4 286.2 276.5 264.5 250.7 236.1 225.8 216.6 208 200.8 190.3 185.1 182.1 177 167.6 157 132.2 136.2 152.6 175 185.2 188.3 188.8
252.4 254.4 256.3 259.2 261.7 264.6 266.2 269.6 272.4 275.2 280.6 286.6 294.1 310.8 324.3 336.8 349.1 356.7 367.8 379 395.9 407.7 411.5 404.8 385.8 365.7 344.7 327.1 313 299.3 293.6 287.4 279.1 268.3 257 246.7 238.6 228.4 219.8 214 211.3 210.1 204 199.9 197.8 196.1 195.2 195.5 197.3 198.4 202.5 204.7 208.5 211 214.6 216.6 215.6 214.5 211.1 207.9 207.9 204.7 201.6 196.4 191.3 190.6 196.1 211.4 219.5 220.7 220.2 213.6 200.8 178 155.4 142 129.9 118 110.7 104 97.1 93.6 91.5 99 104.2 112.1 124.4 133 135.2 131.1 130.8 133.4 134.5 122.8 112.5 103.5 88.4 71.3 56.2 36 28.3 27.3 27.3 27.3 27.3 27.3 27.3 27.3 27.3 27.3 27.3 30.1 33.8 39.8 47.5 60.7 76.5 86.5 93.2 97.7 103.9 109.8 115.6 120.9 125.7 136.6 143.4 152 158.1 164.4 168 171.7 173.7 177.4 183.8 187.1 190.1 194.6 199.8 203.8 204.1 209.4 217.5 227.3 235.7 238.4 244.2 250.6 252.2 260.5 268.1 281.8 294.6 293 294.4 297.5 300.6 304.3 297.7 289.5 286 274.7 268.3 270.9 268.2 257.3 251.7 255 256.9 256.8 260.1 265.7 272.1 279.8 285.4 287.6 288.9 285.3 279.9 273 261.7 250.5 239.9 228.1 219.4 211.2 201.6 193.2 183.7 175.5 173.7 170.8 162.8 146 130.6 136.4 159.2 172.5 177.5 177.8
257 260.1 262.1 265 267.1 269.5 272.9 276.1 279 282.4 287.5 293.4 306.8 324.8 339.7 351.9 362.2 372.9 387.6 403.9 417.8 427.8 428.7 419.4 404.5 377.5 349.3 324.5 313 301.8 297 290.7 283.6 273.8 261.2 248.5 239 230 222.9 218.5 212 204.7 200.4 197.7 193 191.7 190.1 188 189.1 190.3 193.9 197 201 205.6 206.9 207.5 208.2 207.2 204.5 203 201.6 199.8 197.3 191.4 188.9 189.8 197.3 215.2 227.3 230.4 233.1 227.9 218.5 201.5 169 149.6 136.8 124.2 114.2 105.1 98.9 94 89 89 94.2 98.3 104 111.3 116.8 115.7 114.4 113.7 115.7 107.5 99.3 86.8 77.9 63.9 51.3 36.3 28.8 27.3 27.3 27.3 27.3 27.3 27.3 27.3 27.3 27.3 27.3 28.8 33.1 40.2 47.7 65 75.8 84.8 90.5 96.2 102.3 106.9 110.8 119.4 125.5 131.9 141.5 148.5 154.6 161.1 167.3 170.7 173.9 177.1 181.3 189.8 193.1 197.1 200 203.8 206.3 207.2 212 217.7 223.9 230.4 233.8 236.7 241.6 244.8 259.2 270.4 280.9 292.6 296.3 300 303 305.6 307.4 293.1 284.3 273.9 267.7 270.3 270.6 258.5 248.4 249.8 251.6 252.8 254.3 256.8 262.7 269.3 276.3 281.7 283 278.5 274.2 267.4 259 251.4 239.9 230.2 222.5 218 207.2 192.8 183.1 174.9 168.2 164.5 163.1 150.6 136 124.8 143.2 158.8 165.6 167.7
263.5 264.7 268 270.1 272.4 276.3 280.4 283.5 286.6 292.9 295.4 303.8 317.7 335.3 349.1 360.7 372.6 391 406.3 421.4 430.9 438.1 436.6 426.5 413 392.1 360.7 332.2 321.8 304.3 298.8 291 283.9 274.2 261.4 249.7 238.7 230.5 225.2 219.4 213.9 209.3 205.2 201.2 194.3 189.6 186.6 184.3 183.1 183.4 186.1 189.9 194.9 197.4 198.8 199 198.4 198.7 200.3 199.9 196.2 195.7 194 189.2 186.7 187 197.2 212.4 219.9 227.4 232.4 231.4 222.6 210.4 182.2 159.6 142.9 128.4 117.5 109.2 100.7 96.3 88.2 84.6 87.8 88.2 88.7 92.3 99.7 100.4 98 99.3 98.4 96.5 89 76.3 65.2 55.8 46.5 33.7 29.7 27.3 27.3 27.3 27.3 27.3 27.3 27.3 27.3 27.3 27.3 27.3 31.7 41.7 52.6 69.4 78.2 85.3 90.6 94.5 99.8 105 109.7 115.1 121.7 127.9 136 144.6 152.9 159.9 166.1 171.3 175.6 179.1 181.9 187.3 191.7 198.3 201.8 204.4 207.4 209.2 211.1 215.9 218.4 223.1 227.5 229.5 232.2 237.3 243.8 260.7 280.2 291.6 299.7 299.3 303.1 305.8 304.7 293.9 287 273.1 267.3 268.9 270.1 260 248.9 245.9 246.5 247.4 246.7 249 252.4 256.9 261.4 267 270 271.1 267.8 261.4 254.4 247.3 238 229.6 220.7 214.2 208.8 199.7 184.9 173.6 167.3 161.4 157.3 153.6 145 128.7 124.8 145.2 152.5 156.7
269.6 270.5 274.6 276.7 280 284.5 288.5 293.1 297 301.5 306.3 315.9 325.5 341.8 354.8 368.4 386.8 402.7 418.1 428.6 434 436.6 434 426.1 414.5 395.6 370.7 349.8 331.7 309.6 295.9 286.2 277 268 259.5 252.4 238.8 231 225.1 219.2 215.2 212.2 207.8 201.5 197 192.4 186.6 184.8 182.7 181.1 180.2 184.7 186.7 187.7 190.4 191.3 192.2 194.4 195.1 193.6 191.8 191.2 189.5 183.6 182.9 183.4 183.4 190.4 199.7 209.4 216.9 218.3 210.6 195.8 181.6 171.1 149.3 132.5 122.8 111.9 103.4 96.4 89 85.2 82.3 82.8 80.7 80.2 84.1 87.9 88.4 86.6 87.1 84.5 79.6 69.6 60.1 50.9 42.7 31.9 30.1 28.8 27.3 27.3 27.3 27.3 27.3 27.3 27.3 27.3 27.3 27.8 32.6 42.1 54.5 68 78.3 84.7 90 93.6 97.3 102.7 106.9 112.9 119.2 126.6 131.5 139 151.3 156.1 163.1 169.1 175.3 178.5 184.7 188.2 193 198.8 204.8 207.8 208.5 210.2 211.7 216.3 219.2 221.9 224.2 227.5 230.2 232.8 238.4 246.3 269.4 281.6 285.3 287.5 287.5 299.7 295.4 285.8 278.5 272.2 264.8 267.3 265.9 259.1 248.9 243.4 240.8 240.4 240 240.2 243.4 245.8 247.5 250.3 252 253.6 255.9 254.5 248.9 241.4 234.9 227.5 222 212.5 203 195.4 187.3 177.8 167.8 159.7 155.5 151.6 145.6 138.9 121.1 127.8 141.2 144.8
276.5 278.5 282.7 285.6 290.8 293.5 299.5 302.1 308.2 314.4 319.4 327 336 347.1 361.1 378.6 394.6 408.3 420.1 426.1 428.4 426.4 422.5 415.2 404.7 390.2 373.8 351.6 337.7 322.9 300.5 282.5 267.9 260.9 255.5 247.2 239.7 231.5 222.6 217.8 214.1 211.2 209.4 204.6 201.5 197.3 191.9 186.1 183 181.2 180.5 178.3 180 183 184.5 185.3 187.3 188.1 187.5 186.8 185 184 183.4 179.6 179.1 180.2 178.8 179.5 185.6 190.8 198.1 203 200.1 189 174.1 160.6 146.3 131 123.4 113.2 105.2 97.6 88.5 82.5 78.7 77.4 76.2 71.6 71.9 75.6 76.4 75.7 73.7 70.2 69.7 65.1 58.6 49.3 40.3 31.6 30.4 29.2 28.1 27.3 27.3 27.3 27.3 27.3 27.3 27.3 27.3 29.9 33.7 43.8 56.5 69.4 77.1 83.8 89 92.2 95.9 99.7 104.3 110.2 116.7 123.3 129.7 136.1 144 153.8 159.9 166.8 173.4 176.7 184 192.6 195.7 200.9 205.2 209.5 210 210.2 210.6 214.1 217.6 220.6 222.5 225.1 227.5 231.1 233.4 239.7 245.7 260 266.3 265.1 263.8 262.9 265.7 265.9 264.1 262.5 262.3 261.3 255.6 250.6 246.6 242.3 237.1 234.8 233.6 232 232.2 235.8 237.1 237.9 239.7 242.5 244.9 244.5 243.4 238.3 230.4 224.4 218.6 211.3 200.8 192.8 184.3 175 167.9 162 155.4 151.5 147.2 142.1 131.4 116 120.3 129.2
286.1 288.9 291.7 298.9 303.1 306.4 312.4 318 323.1 328.9 335 341.4 348.8 361 372.3 384.1 395.8 405.9 413.4 416.2 416.1 413 406.4 395 382.8 374 361.4 339 326.6 313.2 297.5 281.4 271.2 261.2 254.6 247.5 241.2 237.2 230 222.5 215.1 211.8 209 206 203.6 201.7 196.6 192 187.1 183.8 182 179.7 177.3 179.1 179.9 180.3 180.9 181 180.8 180.9 179 177 176.1 175.6 175.7 174 172.8 170.6 169.7 174.4 180.4 186.4 184.3 176.8 165.8 151.9 142.1 130 121.3 115.4 107.8 98.7 90.7 82.7 77.3 75.9 69.4 67.5 65.5 66.7 66.6 65.5 62.9 60.8 58.6 59.2 55.3 46.2 35.6 32.3 31.2 30.1 29 28 27.3 27.3 27.3 27.3 27.3 27.5 30.4 30.9 38.2 44.5 56 70 77.9 83.4 87.5 91.5 95.2 98.5 103.2 109.7 114.6 120.9 128.1 134.2 143.5 151.9 158.1 163.4 171.2 175.5 180.6 191.8 196.5 200.7 204 206.7 211.9 210.8 210.4 211.7 213.7 216 216.9 218.8 224.6 229.6 232.3 235.4 238.7 240.3 243.5 247.9 251.3 253.7 255.9 256.7 256.5 251.8 249.3 246.8 244.3 244.2 239.2 238.7 234.5 231 229.2 226.7 225.2 225 226.6 226.8 227.2 229.9 232.7 234 233.8 232.2 227.3 220.9 213 207.1 200.7 191.9 182.9 173.2 165.7 159.8 154.9 151.1 145.9 141.8 136.9 123.4 114.6 111.8
295.6 298.4 303.9 312.8 317.9 325.6 332.2 337.7 345.6 352.6 356.7 358.1 359 368.9 377.1 382.8 390.8 398 402 400.8 398 393.9 384.2 370.8 358.5 351.5 337.8 322.2 312.7 301.6 291.3 281.7 273.7 267.1 259 249.7 240.8 233.6 228.7 224.9 219.6 214.5 211.4 208.4 206.2 204.1 201.4 194.4 186.6 188.6 184.6 181.3 179.4 176.6 178 178.1 178.5 177 178.7 179 175.9 174 173.8 174.1 173.7 173.3 169.5 166.1 164.7 161.4 159.8 160 159.9 158.1 151.5 141.7 129.7 123.2 117.9 115.1 109.3 101 92.5 85.4 77.7 71.7 68.4 65.3 64.5 60.3 57.5 57.3 56.5 55 56.6 52.3 49.7 41.1 35.4 33.2 32.1 31 29.9 28.9 27.7 27.3 27.3 27.3 27.3 28.6 29.8 31.1 39.5 47.6 54.4 66.8 75.8 82.6 86.2 90.9 94.4 96.9 102.2 108.8 113.9 119.5 126.2 132.7 139.4 150 156.4 161.9 166.3 172.7 178.7 187.1 194.3 198.9 199.6 202.9 209.2 209.6 210.8 210.9 211.3 211.9 213.5 217.5 221.3 227.5 230.7 233.7 235.5 238.6 241.6 245.5 249.1 252.1 252.1 249.7 244 239.5 236.1 235.9 235.3 235.3 232.2 230.1 228.7 226 225.4 222.2 222.2 218.6 217.3 216.4 218 219.8 222.2 226 226.2 224.8 220.2 214.9 210.2 204.2 195 188.8 182.1 175.1 166.5 159.2 153.9 149 143.1 141.2 138.3 133.3 126 115.6
300.8 310.1 319.5 328.6 336.1 344.2 355.3 359.7 364.2 371.4 374 370.8 366.8 375.8 379 378.8 380.2 379.6 380.9 379.1 373.1 366.5 356.9 346.5 342.5 334 323.8 308.5 301.7 294.1 286 278.1 277.8 273.6 270.1 260.2 250.5 241.2 233.3 229.2 224.4 218.6 214.1 210.7 208.1 206.1 202.4 200.4 195.4 194.2 192 189 184.5 180.4 176.8 176.4 178.3 179.1 175 173.1 172.2 171.2 169.3 171.2 169.5 169.5 166.4 163 161.3 154.6 148.5 148.5 149 146.4 138.6 128.3 115.8 115.9 117.5 108.5 106.1 99.9 94.2 87.8 80.3 72.2 68 64.8 61.4 59.6 56.1 54.9 55.7 55.8 51.9 48.8 45.6 39.7 35.4 34.1 33 31.9 30.7 29.7 28.2 27.3 27.3 27.3 27.3 28.6 30.8 32.9 38.3 45 53.1 63.9 73.6 81.7 86.2 90 93.6 96.3 100.9 107.7 114.1 119.1 124.6 131.8 137.4 146.5 156 162 166.5 169.5 174 180.7 187.6 193.4 199.2 201.1 201.9 207.3 209.2 209 210.7 212 214.5 217.7 219.8 223.1 226.9 228.5 231 235.3 234.2 234.1 236.8 238.6 239.8 237.7 235.8 233.9 233.2 232.6 231 229.8 227.9 226.5 225.9 223.6 222.1 218.5 215.7 214.1 212.7 210.8 208.6 207.5 211.4 218.1 221.9 222 218.5 212.3 205.9 200.5 193.8 187.6 179.9 173.3 167 160.8 155.5 151.1 146 138.3 137.6 133.4 130 125.7
314.2 327.5 337.6 346.2 356.1 366.1 374.1 375.6 372.8 380.8 382.3 374.6 368.2 374.3 376.5 374 366.2 361.1 362.6 356.4 348.1 344.9 337.5 335.4 331.6 324.3 313.9 308.2 302.6 297.6 290.1 291 289.2 286.3 278 269.6 258.2 247.6 237.8 230.7 225.8 221.6 216.7 211.6 209.1 207.2 204.4 204.8 204.2 200.9 197.4 194.9 190.4 188.2 184.6 181.6 184.1 182.8 181.5 178.9 177.4 174.9 171.6 163.5 164.9 161.9 159.8 159.2 156.9 149.3 144.3 142.3 141.4 136 119 110.7 113.9 104.8 100.6 95.5 91.3 94.1 86.2 79.9 76.7 75.1 68.5 63.8 59.8 56.4 52.8 49.7 49.7 53.4 49.8 48.7 40.7 37.3 36.4 35.8 34.2 32.8 31.7 30.3 29.4 28.5 27.3 27.3 27.3 30.5 34 34.1 35.8 41.5 52.4 62.5 68.9 77.8 84.4 89 93.8 97.1 100.3 106.1 113.2 119.5 125.2 131.1 137.1 144 155.3 162.6 167.3 170 172.2 176.5 181.8 189.2 196.3 199.3 199.6 201.7 206.6 210 211.2 213.2 215.9 217.9 219.4 220.6 223.2 222.7 223.4 221 223.7 224.7 226.4 230.3 232.2 232.4 233.5 233.9 231.5 230.4 230.1 229.2 227.5 225.3 224.1 222.4 220.3 218.5 213.1 211.6 208.8 206 205 203.1 203 206.3 213.6 217.7 218.2 213.6 207.1 200.4 193.3 186 178.7 171.7 167.1 160 157.5 151.2 147.2 142.1 134.2 133.1 125.5 121.5
321.3 336.2 348.8 358.5 366.7 374.7 383.7 383.5 382 385.4 380.4 367.7 367.8 370.6 368.6 364.6 356.4 352.2 350.8 344 340.6 337.3 335.2 333 328.6 320.9 311.3 309.4 305.9 304.3 300.2 300 297.1 293.6 287.7 277.2 265.4 256.1 246 234.9 228 223.8 218.8 213.9 209.7 208.4 206.3 207.4 208.6 208.5 206.2 202.1 197.4 194.5 191.5 188.8 187.5 187.3 187.4 186.3 184.1 180 164.3 144.1 150.1 149.1 139.9 137.7 137.6 140.8 138.9 131.9 121.5 117 115.5 135.9 133 122 113.1 110.3 106.9 106.3 101 95.3 89.2 83.6 75 68.1 63.2 58.6 56.2 53.4 46.9 46.4 51.4 47.1 43.9 38.1 36.8 35.8 34.6 33.3 31.9 30.9 30 29.1 28.9 27.3 27.3 33.4 36.1 37.2 37.8 42.6 56.1 60.2 67.5 75.1 83 88 93.3 96.7 99.9 105.3 111.8 117.5 124.3 130 137.2 143 151.1 162.6 167.5 170.3 171.5 173.3 177.6 183.2 190.6 195.4 200.3 202.1 205.1 209.2 211.1 215.5 218.2 221.4 223.2 221.8 220.8 216.3 214.2 212.6 213.4 222.2 227.1 230.2 229.2 229.6 232.3 232.5 231.6 230.9 230.3 228.3 226.2 223.7 220.2 218.8 217.1 215.4 212.2 209.1 205.1 202.7 202 200.3 198.8 199.1 201.2 206.5 209.2 209.3 207.1 201.5 194.3 186.7 179.4 171 166.6 162 157.5 154.1 148.9 144.6 139.5 135.3 130.9 124.4
332.5 337.2 344.3 353.7 363.9 371.3 378 383.2 385.6 384.4 368.2 366.3 366 365.4 367.5 364.5 355.5 348.2 346.6 343.8 340.3 338 332.1 329.4 324 317.4 314.4 314.7 313.9 311.6 309.2 308.4 304.9 298.7 291.8 283.1 271.9 261.5 251.4 241.4 231.3 224.7 220 216.4 212.2 209.7 207.8 208.3 210 213.5 213 211 206 202.5 198.4 195.9 192.4 193.5 194.4 194 191.4 188.6 176.4 158.5 150.9 141.4 148.2 140.2 132.3 132.2 129.9 124.4 132.3 134.4 146.8 150.8 149.3 140.9 127.9 116.8 107.7 106.4 106.8 102.4 95.5 90 82 74.5 65.7 60.9 55.7 52.8 50.3 45.8 42.1 41.7 39.8 39 37 35.9 34.5 33.1 31.7 30.6 29.4 28.4 27.9 27.3 30.7 34.1 35.8 38.1 39.9 47.7 60.5 62.9 66.4 71.1 78.3 83.7 93.5 96.6 100.6 104.1 111.1 117.5 122.9 131.1 136.1 143.5 149.2 159.6 166.9 169.1 170.2 170.5 173.8 179.7 186.1 194.4 199.5 202.6 207 211 213.4 216.8 219.3 221.4 222.9 219.2 216.6 213.3 209.7 208.8 210.1 216.4 223.8 226.6 227.3 230 231.1 232.2 233.1 233.4 233.4 231.3 228.7 224.2 218.8 214.2 211.5 209.4 210.2 207.7 204.4 201.1 199 197 195.9 195.2 195.7 197 197.1 197.7 198 197.1 195 188.5 183.7 176.5 170.9 164 160.5 155.9 150.8 145.7 140.7 134.6 129.6 120.7
343.7 350.4 356.2 362.3 365.9 367.9 374 379.6 382.5 375.5 369.6 366.2 366.4 366.2 362.3 357.6 351.8 345.1 344 342.5 340.6 338.4 333.4 329.2 323.4 319.6 318.9 320.3 319.6 316.7 312.4 311.7 308.4 305.6 298.7 291.6 282.2 270.2 259 248 237.8 228.2 221.8 218.5 215.7 213 211.6 209.7 211.1 214.7 215.7 215.7 213.9 210.3 206.3 203.9 199.6 198.5 198.9 200 197.8 194.9 191.1 185.8 174.3 171.6 170.7 165.7 157.5 152.8 152.4 149.2 149.2 152.8 158.2 158.5 155.4 151.5 144.8 131 119.5 107.5 103.3 103.9 99.4 94 87.2 79.8 71.1 63.3 58.7 54.6 51.1 49.8 47.1 42.4 38.2 37.9 36.7 35.7 34.3 32.9 31.5 30.3 29.7 29.5 27.6 27.8 31.8 32.7 34.4 37.7 41.7 47.4 51.3 59.2 64.3 68.6 74 81.1 86.9 95.9 99.8 103.5 109.1 116.2 123.1 130 135.2 142.6 149.6 154.5 164.6 166.8 167.9 169.4 169.5 174.9 182.8 190.5 198.1 201.9 207.3 211.8 214.5 216.5 218.3 218.7 216.5 216.4 214 209.4 208.6 208.4 210 214.5 220.8 223.9 226.5 230.5 232.7 234 234.8 234.2 234.2 233.4 230.4 225 219.4 213 208.1 205 202.4 201.3 200.3 198.5 197.5 195.6 194.8 193.8 192.5 191.5 192 191.4 189.9 188.6 188.5 186.5 184.5 179.5 174.5 168.7 163.2 157.8 152.6 147.3 142.3 136.2 129.5 118.5
355.8 365.9 374.7 380.4 381.4 378.2 380 388.7 392.1 392.9 391.4 385.9 383.8 379.2 371.7 366 356.7 352.2 350.3 346.9 345.3 341.9 338 332.7 326.7 321.8 323.5 323.7 323.7 321.6 316.4 312.2 313 313.8 310.4 304.2 297.7 287.8 270.3 256.6 244.2 235.3 226.2 221.1 218.4 215.8 213.6 212.2 212 213.6 216.5 218 217.4 216.4 213.9 210.3 205.8 204.7 203.4 203.9 203.3 200.6 198 194.2 189.5 186.5 181.6 178.8 175.5 176.7 176.5 173.1 170.9 168.9 163.8 164 161.3 157.2 154.5 148.9 131.4 115.7 105 101.9 100.7 96.8 91.7 85 76.7 68.7 61.9 58.2 52.8 51.8 49.3 47.4 41.3 36.8 36.1 35 33.7 32.4 31.2 30.4 29.8 29.2 28.5 27.3 28.3 31.6 33.5 38.4 41.5 46.4 52.4 57.2 62.2 70.2 75.3 78.5 86 93.2 97.4 103.6 107.8 116 122.3 129.2 136.1 140.7 148.4 153.9 157.3 162.7 166.7 167.1 168.2 169.9 176.8 187.1 196.6 200.3 204.8 209.3 211.4 213.3 212.3 211.4 212.1 210.9 207.9 206.8 207.3 207.8 210.8 215.2 220 225.3 230.3 233.7 235.6 236.2 236.6 237.2 235.2 232.6 228.2 225.3 220.1 213.8 208 202.8 199.2 197.4 195 192.1 191.4 192.5 192.7 192.7 191.5 190.3 189.9 189.4 187.5 185.8 185 183.7 180.9 177.4 174.3 170.8 166.9 161.9 156.8 151.4 144.3 138.4 131.5 124.7
373.7 384.2 389.3 394.3 396.9 391.7 391.1 401.2 406.9 410.8 411.9 406.7 401.5 395.1 386.4 378.1 367 360.7 356.3 351.3 347.3 342.3 336.9 330.7 329.3 325 326.2 327.9 329.2 329.6 328.4 326.5 327.1 325.3 321.9 319.2 309.7 301.8 291.5 274.8 256.7 244.7 234.3 226.8 222.4 219.2 216.6 215.1 214.6 214.1 215.8 218.7 220.4 218.7 217.3 213.1 211.5 211.7 211.3 209.4 207.5 206.8 203.8 200.5 197.2 194.7 191.5 188.4 187.6 188.7 190.1 187.9 187.8 184.9 177.6 165.3 163.1 162.2 161.2 154.8 144.3 127.5 112.5 103.6 99 97.6 94.5 89.1 82.2 74.3 65.7 60 56.1 52.9 52 47.8 39.7 35.3 34.9 34.2 33 32 31.9 30.2 28.7 27.3 27.3 27.3 27.3 29.2 31.9 34.7 39.3 47 52.6 59.1 65.2 72.4 77.3 80.2 84.8 92.2 98.1 104.4 108.4 116.3 123.9 129.6 136.2 143.6 147.6 152.8 155.5 159.5 163.9 165.6 166.8 168.4 172.8 182.9 193.6 198.3 202.5 205.8 208.1 209.2 206.8 205.7 205.8 205.1 203.7 204 205.9 207.6 211.1 215.6 221.6 226.8 231 233.8 236.7 238.2 238.7 239.2 236 231.7 226.8 221.2 216.5 212.6 208.2 204 199.7 195.2 191.2 189.2 187.8 186.3 186.4 189.3 187.6 189.1 189.2 187.9 186.5 185.9 185.2 182.9 180.2 177.9 174.7 170.6 166.8 162.4 156.7 150.1 145 138.6 132.3 125.4
395.4 405.9 413 417.7 415.4 406.4 404.8 413.3 418.2 421.6 422.9 419.7 415.5 409.6 400.3 388.3 374.9 366 360.4 354.7 350.3 345.5 340.4 340.7 336.4 332.5 335.2 340.5 340.9 340.3 339.8 338.3 338.6 337.8 334.4 328.9 321.8 311 300.3 293.9 276.7 257.7 244.7 237 230 224.3 219.9 217.7 217.1 216.5 216.3 218.4 219.9 220.7 217.3 217.1 218.6 218.8 218.1 216.5 215.2 213.3 209.9 206.3 202.7 200.2 198.3 195.6 195.1 195.6 197.3 200.8 202.3 199.3 192.1 180.8 164 159.7 160.3 159.1 149.2 139.8 123.5 109.4 102.5 98.4 95.2 91.8 87.1 80.1 71.8 63.6 58.8 54.7 52.1 51.6 42.9 34.7 33.5 33.4 33.2 32.4 31.6 30.5 28.6 27.3 27.3 27.3 27.3 28 30.9 34.4 44.5 47.2 52 57.1 65.3 71.1 75.7 80.2 83.6 90 98.6 102.5 108.6 116 124.5 130.7 136.7 143.3 148.7 152.6 156.6 159.5 161 163.9 165.7 167.4 171 176 186.6 192.8 198.1 201.9 202.1 201 201.6 200.2 200.4 200.6 201.4 202.3 205 208.6 212.1 216.3 220.8 227.8 233 236 238.6 240.6 240.4 239 234.6 228.9 224.8 219.6 214.2 209.4 205.1 202.4 199.4 195.8 191.8 187.7 186 184.1 182.8 182.1 183 184.4 187.1 187.6 188.4 187.4 185.8 183.9 182.5 180.8 177.5 173 167.6 162.9 156 148.4 142.2 136.5 130.5 123.7
420.6 428.7 433.8 435.8 432 420.8 413.2 420 427.2 433.1 436.9 436.9 433.4 424.6 412.4 397.9 381.2 369.6 361 355.8 353.7 355.6 355.2 354.5 355.6 355.5 353.1 351.3 352 350.7 349.6 348.4 346.8 345.7 342.7 335.3 326.9 317 306.2 296.6 287.8 271.6 254.1 243.4 236 229.2 225.6 221.1 219.5 218.8 218.7 218.7 221.5 222.2 222.4 228.1 234 231.3 226.5 223.8 222.3 219.6 217.4 214.5 212.4 209 205.5 204.3 202 200.6 201.4 205.3 210.8 209.3 203.4 193.2 176.8 159.8 154.7 155.7 151.8 143.1 133 119.9 106.8 100.2 95.9 93.8 89.5 84.3 77.8 70 61.9 57.8 53.9 52.4 45 36.4 35.7 31.8 32.4 31.3 30.6 30 28.7 27.3 27.3 27.3 27.3 27.3 29.7 36 43.5 45.9 50.3 56.4 63 68.8 74.7 79.8 83.7 89.5 96.7 100.9 108.5 115.8 124.8 131.7 136.9 144.6 150.7 154.8 156.9 159.8 160.5 163.5 166.2 166.8 168.2 173.2 180.2 188.2 191.6 192 193.5 195.9 197 195.6 197.9 200.4 202.7 202.8 204.2 207.6 213.2 217.8 222.2 227 233.2 237 239.6 239.8 239.3 236 231.5 225.5 219.6 214.9 211.5 206.7 202.1 197.5 195.1 192.7 189.8 187.2 186.5 184 182.9 180.4 179.6 179.7 181.7 184.5 186 187.5 188.1 187.6 185.8 184.1 180.9 174.1 168.1 159.7 151.3 144.2 137.5 130.2 124.5 119.3
445.6 447.8 450.1 450.8 445.4 434.6 423.1 424.8 433.1 444.3 450.5 451.4 450 444.7 434.1 420.5 404 390.6 378.8 371 369.8 368.3 367.7 369.4 368.1 367.1 365.6 361.3 358 357.1 357.2 355.5 354.2 353.5 350.4 343.1 333.4 321 310.3 300.5 289.5 280.3 268.4 251.4 240.9 234.9 230.5 226.3 223.5 222.9 222.1 221.2 222.1 226.1 236.6 247 247.9 242.8 238.1 232 228.7 226.4 224.2 222.2 219.5 218.4 218.7 216.5 213 208.7 206.5 205.5 206.2 205.7 202.9 194.5 182.7 171.2 154.6 149.6 148.5 145.5 137.6 127.7 113.3 101.7 96.4 94.5 92.6 88.4 82.6 75.4 67.5 61.2 57.3 53.5 50 39.5 35.3 31.7 31.4 30.4 29.4 28.8 27.3 27.3 27.3 27.3 27.3 27.3 29.2 33.7 40.8 46.6 50.6 55.9 62.9 67.9 72.5 81 83 89.2 95.3 100.7 107.1 113.8 124.4 132.2 139 145 152 155.4 156.9 158.4 160.4 163.8 165.4 167.1 168.3 170.2 176.3 181.2 183.8 185.2 188.4 191.2 192 193.6 196.9 201.6 204.2 205 206.2 209.5 214.3 218.2 223.5 228.6 233.2 236.1 237.9 238.8 238 236.1 231 223.2 215.7 210.2 205.4 202.4 200.2 196.4 193 190.9 188.1 186.6 185 184 183.6 180.9 178.1 177.4 177.4 178 180.2 181.6 185.3 186.5 186.8 184.9 180.1 172.8 164 154.8 145.9 138.4 131 124 118.6 113.6
465.3 464.4 465.4 463.2 456.3 444.8 431 433.9 442.6 453.3 460.2 464.3 465.5 459.5 449.3 439.2 426.9 413.6 402.2 391 386.6 384 383.9 382.2 378.7 372.5 367.1 364.5 359.4 354.9 353.4 355.4 360.3 362.5 360.2 353 341.8 328.2 315.8 302.6 291.9 281.4 272.3 262.3 249.4 240 235.5 232.9 231.9 228.8 229.7 224.1 228.6 242.6 255 260.5 262.3 258.6 252.2 246.3 238.9 234.6 230.7 228.2 225.9 225.4 227.5 228.3 222.6 215 211.1 208.1 205.8 199.3 196.5 191.8 181.4 172.7 161.3 149.7 145.3 142.2 139.5 131 122.2 107.4 97.9 94 92.6 91.2 86.5 80.5 73.1 65.7 60.8 57.1 53.5 44.7 32.7 31.6 30 29.6 29.1 28.6 27.3 27.3 27.3 27.3 27.3 27.3 27.6 32.9 40 45.6 52.4 56.6 59.6 64.2 69.7 72.8 80.7 88.4 95.9 100.4 106.5 112.3 121.3 131.9 139.5 146.8 152.4 155.4 158.2 157.7 159.5 162 165.5 166.5 169.4 171.6 171.1 173.5 176.8 179.8 182.9 186.2 188.5 192.2 196.4 202.3 206.6 212.3 217.1 219.5 221.7 222.2 222.9 225.6 229.9 232.5 235.3 238 238.1 236.8 230.7 223.3 215.4 208.2 202.4 197.9 195.7 194.1 192.5 190 188 186.3 183.7 181.2 179.6 178.6 177 176.8 174.2 175 176.2 176.6 179.8 181.1 180.3 177.7 173.7 166.6 157.4 147.3 138.5 130.9 123.7 117.3 112.2 107.8
472.6 472.8 470.4 466.4 460.4 451.7 440.7 447.8 453.7 462.4 470.3 473.7 474.8 472.3 465.3 454 444.3 438.4 430.9 420.3 411 402.6 397 391.7 384.5 376.2 366.2 359.5 354.8 350 346.1 350.1 356.1 361.4 363.4 359.8 350.4 336.9 318.5 305.7 294.5 282.3 273 267.8 259.9 249.4 242.8 239.1 237.3 234.8 232.9 224.8 242 257.4 270.6 273.4 272.7 273.6 270.3 259.5 251.2 240.8 237.3 235.6 232.8 229.3 227.9 223.9 223.8 217.1 214.9 207.2 202.7 195 189.8 182.9 180.1 172.7 162.9 153.5 144.4 138.4 135.7 130.9 124 115.6 102.6 94.4 92.6 91.8 89.5 85.5 78.6 71.1 63.6 60 56 44 31.7 30.4 29.4 29.7 28.1 27.3 27.3 27.3 27.3 27.3 27.3 27.3 27.3 32.5 39.1 45.7 48.3 51.3 61.9 66.6 69.7 74.9 79.1 83.9 93.7 99.5 105.3 111.6 119.8 132.6 139 146 152.6 153.5 156.7 157 157.4 160.9 165.2 167 169.2 171.4 169.6 169.2 171.8 176.8 178.9 180.8 185.5 193.8 201 206.1 215.5 222.9 222 220.6 220.7 221.9 222.2 222.9 224.3 225 227.7 233.5 238.5 238.3 228.6 219.7 213.1 207.5 204.3 199.6 196.4 194.6 192.6 190.7 188.2 186 183.6 181.5 179.2 176.5 173.7 172.2 169.5 173.3 174.1 173.7 172.5 173.1 171.1 167.6 163.2 155.7 146.7 137.6 129.9 122.3 116.3 109.7 105.1 101.5
470.7 470.6 468.4 463.9 461.2 456.2 453.2 456.6 462.3 468.1 474.5 475.7 478.1 478.3 475.1 466.8 456.2 449 444.3 437.2 427 417 407.7 399 388.4 377.2 365.3 354 346.9 342.6 339 342.3 347.1 352.6 358.6 358.7 354.1 341.5 325.9 309.8 296.1 284.3 274.2 267 261.3 256.3 251.6 245.1 241.6 240.6 234.1 237.5 252.2 267.8 278.9 285.7 286.8 280.9 274.3 266.7 255.6 243.4 240.2 240.4 238.1 230.6 224.8 218.9 214.9 214.2 208.9 203.1 196.6 190 185.1 175.4 171.7 167 159.3 150.3 142.7 135.2 131.8 128.6 123.9 116.4 109.2 98.3 93.5 92.5 91.5 88 83 75.9 68.2 62.6 57.9 50.2 35.9 32.9 30.2 27.8 28.5 27.3 27.3 27.3 27.3 27.3 27.3 27.3 27.3 31.1 34.4 39.3 45 53 60.8 65.8 70.6 78 80.4 87.9 96.3 103.8 108.5 112.4 120 133.3 139.6 144.2 148.7 151.6 154.9 156.3 156.4 158.5 162.4 168.1 168.7 168 167.8 168.3 168.5 172.2 176.5 180.5 185.4 198.2 205.8 211.6 216.8 216.7 218.4 218.9 219 219.2 220.3 219.7 219.7 218.6 218.7 219.8 223.8 224.6 223.4 218.2 212.5 207.6 204.3 202.2 201 198.3 196.4 192.8 190.7 188.1 184.7 182.3 180.3 176.9 173.7 169.8 166.2 160.6 168.2 170.1 168.5 165.8 162.1 156.2 150.9 142.6 134.6 127.4 120 112.8 107.6 102.2 98.3 94.8
464.9 465.2 463 460.5 458.9 456.6 458 461.3 465.7 471.3 474.7 476.3 477.9 477.6 476.3 470.8 466.6 462 454.9 449.1 439.9 429 414.3 403 392.1 378.9 365 351.1 339.5 332.9 331.5 333 337.3 343.1 348.3 351.1 349.8 343 329 312.9 298.1 287 277.4 268.7 263.5 259 253.6 249.7 245.4 242.3 238.1 242.4 260.4 275.5 284.1 287.6 289.1 285.8 277.9 265.8 255 243.6 240.4 237.1 234 229.4 222.1 216.6 211.4 208.4 202.8 198.5 192.5 185.9 180 170.1 163.9 157.5 152.5 148.5 141.8 134.1 129 125.7 121.9 117.1 110.4 104.7 94.2 92.4 90.8 89.9 86.2 80.3 72 63.7 56.6 47.4 39.7 34.1 31.3 28 27.3 27.3 27.3 27.3 27.3 27.3 27.3 27.3 27.3 30.1 33.5 35.8 41 49.9 57.3 65.1 71.3 74.8 76.6 86.4 94 103.9 110.7 114.1 121.8 133.8 140.4 142.7 147.1 151.3 154 155.9 155.2 157.7 161 164.5 166.9 165.8 165.8 166.4 168.3 173.2 178.5 184 189.9 199.8 205.7 209.2 211.5 213.2 215 215.7 215.7 216.9 216 215 214.1 213.6 213.3 213.8 215 215.3 214.7 212.2 209.9 207.1 205.6 206 206.5 206.8 205.1 202 197.3 192.1 187.8 185.2 180.3 176.7 172.6 169.3 166 162.2 158 162.8 162 158.4 155 149.9 142.1 133.7 124.9 118.2 110.6 104.8 99.5 95 91.6 88.1
457.6 456.4 454.6 453.5 452.6 454.8 458.6 460.7 463.5 467.5 470.5 471.8 473.8 474.4 475.8 475.3 472.6 470 466 460.7 451.5 438.4 422.1 403.5 388.3 374.3 358.2 345 333.2 323.3 321.6 325.6 329.5 333.1 337.3 339.9 340.5 334.7 326.3 314 301.1 288.9 279.9 272.7 265.8 259.8 255.7 252.4 248.4 245 242 248.2 265.8 277 284 287.7 287.6 285 279.3 266.9 252.6 242.5 236.1 230.8 227.9 223.6 218.3 212.1 206.2 201.8 197 193.5 188.1 181.3 174.2 165.3 159.4 151.8 145.6 141.5 135.7 131 125.7 122.8 119.5 117 111.2 106.8 99.2 92.3 91.1 90.3 88.6 83.5 77 68.5 57.2 57 45.9 36 30.6 28.4 27.3 27.3 27.3 27.3 27.3 27.3 27.3 27.3 27.3 28.4 31.9 34.2 38.7 46.2 54.5 66.6 75.6 79.5 80.2 85.5 94.7 102.6 110 115.3 121.8 133 139.2 140.9 145.6 149.8 152.4 154 155.3 157.8 161.1 163.7 162.2 161.7 164 166 169.3 174.3 180.9 187 194.9 199 202.2 205.6 208.6 212.7 211.5 211.8 211.7 211.7 211.8 210.8 209.3 208.4 208.3 209 211.1 213.7 214.6 210 208.2 207.3 207.7 211.2 212.7 213 212.1 208.2 203.9 197.9 192.9 188.1 183.9 177.5 172.7 168.9 163.2 157.3 143.4 153.3 152.1 149.2 145.4 141.2 131 125.9 117.7 110.8 104.2 98.6 93.3 89.7 86.4 83.1
443.2 442 441.5 441.6 442.8 447 451.6 455.3 456.2 460.8 462.8 467.6 473.8 476.8 479.4 480.6 482.8 484.1 484.5 479.2 470.4 455.1 431.5 409.1 388.2 367.6 350.1 334.5 325.1 318 314.6 318.2 321.8 323.6 327 329.9 328.3 323.8 316.8 309.4 300.8 290.7 284.9 275.2 267.2 262 259.6 255.5 254.4 251.7 245 252.6 269.6 279.2 283.1 286.5 284.7 280.7 275.4 267.3 250 241.5 235.1 229.4 224.8 217.4 213.2 209.4 204.6 199.9 193.4 187 180.4 177.3 167.7 160.4 154.7 149.1 142.3 137.1 133.7 128.2 123.7 121 117.5 115.2 112.2 107.7 101.7 95.3 91.6 90.7 90.1 87.2 80 73.4 66.2 58.8 51.2 41.6 31.9 28.4 27.3 27.3 27.3 27.3 27.3 27.3 27.3 27.3 27.3 27.3 30.1 33.2 36.8 41.6 52.7 66.6 77.7 80.5 84.1 86.5 94.5 101.7 108.7 116.1 123.4 131 137.5 139.5 141.9 144.6 147.4 150.1 152.2 152.8 155.7 157.1 160.4 161.2 161.5 165.1 169.2 175.8 180.9 189.2 195.8 199.9 202.4 203.8 206.4 209.8 208.2 207.1 205.8 205.6 205.9 205.2 204.9 204.7 203.5 203.1 205 208.4 209.9 210.6 210.4 208.8 210.9 217.8 221.3 221.7 220.3 214.9 208 200.8 196.5 190.5 186.7 181.1 175.7 170.2 162 156.9 147.9 141 142 138.1 131.8 127.2 119.1 114.5 108.6 102.6 97.9 92.2 88.6 84.6 82 79.2
418.7 417.5 418 420.8 424.5 434.3 443.5 449.8 451.7 454.4 462.6 470.6 480 488.4 494.2 497.6 503 508.5 508.6 507.2 497.2 475.5 449.3 419.4 390.2 368.2 346.9 330.8 319.8 313.1 310.4 309.5 313.4 316.7 318.4 319 317.9 314.5 309.1 304.4 298 292.8 284.8 276.2 269 265.2 263.5 253.1 262.4 255.6 251.4 257.5 271 279.2 282.1 279.9 275.6 271.6 263.8 256.8 247.7 238.4 232.1 228.1 224.4 220.8 215.4 210.8 206.8 201.5 196 190.1 179.7 170.9 163.1 157.4 150.7 145.6 140 135.3 130.2 127 121.5 117.8 115.6 115.3 113.2 110.2 102.1 98.1 93.5 90.6 90.7 88 83.8 81.4 71.3 65.3 56.9 48.6 38.1 29.6 27.3 27.3 27.3 27.3 27.3 27.3 27.3 27.3 27.3 27.3 30.4 32.7 34.6 38 46.5 58.1 69.9 79.8 85 91 95.9 102.9 109.1 115.8 122.4 130.2 134.3 137.4 138.7 142.2 144.7 146.2 147.3 150.6 153 154.1 155.8 157 157.2 163.2 167.4 173.5 180.3 186.8 193.7 199.4 202.9 204.5 205.2 205.4 204.3 203.2 202.2 202.1 199.8 198.3 201.7 202.3 202.5 201.3 201.6 206.3 209.9 211 211.4 210.8 214.6 218.7 222.1 222.4 221.2 216.9 210.5 203.7 196.8 191.1 185.8 181.3 176.9 171.9 166 156.8 147.9 126.7 124.4 125.5 121.9 116.2 108.2 103.1 98.2 93 87.1 83.4 80.3 76.5 75.6 72.9
389.1 390.8 391.7 396 407.2 423.6 440 447.7 451.5 458.9 468.7 479.9 493.4 508.6 518 519.5 519.9 519.3 518 514.6 510.1 495.5 466.1 432.3 402.4 373.3 349.7 336.4 324.5 314.9 308.2 306.1 306.8 309.8 311.3 312.2 310.1 308.2 305 299.9 294.5 289.4 283.6 278.9 271.8 266.8 262.9 259.3 260.2 259.2 257.3 258.6 268.8 275 277 274.8 271.2 261.9 254 245.5 240.6 232 225.5 221.2 218 215.5 213.4 213 211 203.9 198.3 191.4 185.3 176 166 157.6 150 142.2 135.8 130.9 126.6 122.4 118.7 116.2 114.6 114.2 113.3 112.1 106.1 99.2 95.8 91.2 89.1 89.1 88.5 83 78 71.1 61.1 53.5 41.7 32.4 31.2 28.8 27.3 27.3 27.3 27.3 27.3 27.3 27.3 27.3 27.3 29.4 33.2 35.7 41.2 53.3 64.5 75.9 89.9 95.9 97.2 104.6 111.7 113.9 122.6 129 132.4 135.6 138.6 139.9 141.9 143.1 145.9 148.9 150.9 152.5 153.4 154.4 155.8 158.8 165.4 171.6 179.2 186.6 193.1 200.7 204.6 207.9 207.9 204.7 203.1 199.9 198.9 198.9 196.1 195.9 195.8 196.8 197.5 198 199.7 201.4 207.8 210.9 213.3 214.8 218.1 221.5 223.1 223 219.7 214.8 208.7 202.6 195.8 189.5 183.5 177.8 173.2 168.4 163.3 156.8 147.1 134.7 119.3 118 109.7 103.9 100.5 95 88.8 83.4 79.5 74 70.2 68.6 66.8 62.9
373.7 375.3 377.4 384 396 420.4 438.5 450.2 457.2 466 475.6 488.5 501.1 511.1 517 515.2 512.9 510.2 508.1 509.8 508.1 505.2 487.9 446.6 411.1 383.8 362 344.3 331.9 319.7 309.8 305.4 304.9 305.4 304.7 304.8 304.9 303.6 301 296.2 290.3 284.2 280.3 277.8 272.4 266.1 263.1 261.3 261.6 262 262.7 262.7 267.8 274.7 277.2 272.7 263.7 257.1 249.3 241.6 234.9 228.2 224.2 218.6 214.9 213.9 212.8 213.2 212.8 209 203.2 195.1 188.1 181.3 176.5 167 154.2 146.1 139.2 130.7 127 123.5 121.2 119 115.6 113.8 111 111 109.3 103.5 97.2 94.1 90.4 91 90.3 88.3 84 77.1 67.8 56.3 44.3 35.4 33.5 30.9 27.8 27.3 27.3 27.3 27.3 27.3 27.3 27.3 27.3 27.3 29.3 32.4 36.7 46.2 57.9 73.5 88.4 99 99.4 106.2 116 119.5 124.2 128.3 131.4 133.5 136.3 138.4 140.2 143 145.9 149.8 151.3 152.4 153.2 154 154.6 155.9 162.3 172.2 180.7 190 198.4 205.9 210.7 213.3 211.4 206.8 201.7 196.6 191.2 188.3 187.9 187.1 188.6 188.4 192 196.5 195.3 198.9 204.6 210.9 214.9 218.6 221.6 224.7 224.9 222.8 218.4 211.8 204.7 196.6 189.4 183.7 177.9 171.3 166.5 160.4 155.3 149.3 142.4 134.3 119.1 91.3 106.3 99.6 91.6 86.3 82.2 76.7 71.1 66.5 63.1 60.1 57.4 55.1
363.5 369.4 376 378.7 397.3 421 437.5 450.4 458.7 467.9 478.4 486.8 491.8 492.7 494.2 490.4 485.4 479.3 475.6 485.6 489.1 488.8 489.9 472.2 424.4 391.6 368.6 350.2 334.7 326.8 315.8 307.1 303.4 300.5 300.4 299.7 298.5 297.6 294.7 290.9 286.1 282.3 277.5 273.5 270.6 264.7 262.9 264.3 266.4 265.2 265.8 266.7 268 273.6 276.2 273.5 264.6 253.2 244.2 239.1 232 225.2 221.6 216.4 213.8 212.7 211.7 211.8 211.6 210.3 206.9 200.6 192.8 184.2 175.5 166.3 160.2 153 143.3 137 131.2 125.8 124.3 120.9 119 113.9 110.7 108.9 109.1 106 100.2 94.9 93 90.3 90.8 90 86.5 81.2 73 60.7 48.1 40.7 36.3 31.5 29.2 27.3 27.3 27.3 27.3 27.3 27.3 27.3 27.3 27.3 27.3 28.1 32.3 41.4 54.5 72.3 88.1 99.8 99.8 108.5 116.5 122.8 125.5 129.4 132.9 135.5 138 139.4 141.4 144.1 148.2 151.7 153.8 154.5 155 154.8 155.5 155.5 163.2 177.7 186.4 195.4 203.7 208.5 212.3 214 213.8 210 202.3 195.5 189.2 181.2 179 177.4 177.8 179.2 181.2 188 193.3 195.1 199.7 204.7 210.3 216 221.5 224.6 223.7 221.2 215.8 208.8 200 192.3 184.9 176.4 169.1 162.7 155.8 150.6 143 136.5 129.1 121.5 106.4 79.9 89.8 88.2 83.4 78.8 74.1 69.1 64.9 61.4 57.4 53.1 52.2 50.3
357.6 363.8 369.4 381.5 399.6 418.9 434.8 447.5 457.3 464 471.1 477.1 478.2 476.7 470.7 462.6 456.1 449.6 444.8 444.2 446.5 447.5 441.3 429.2 411.9 395.1 375.7 358.9 344.1 332.5 323.8 314.6 307.7 301.8 298 295.3 295.3 293.4 292.8 289.5 285.1 280.1 279.3 273.5 265.5 264.1 262.5 267.6 270.3 270.5 269.9 269.8 269.7 271.3 273.1 272.7 265.7 253.1 242.4 236 231.2 226.2 220.9 216.1 213.2 211.4 211 210.5 209.8 207.8 204.2 200.2 194.7 185.8 175.9 168.7 162.1 155.4 147.6 141.3 135.3 129.3 126.1 121.5 118.5 115.7 111.4 108.3 108 103.4 100.8 98.2 95.3 91.1 89.7 89.5 89.4 82.4 75 63.6 51.8 45.3 41.1 35.6 30.1 27.3 27.3 27.3 27.3 27.3 27.3 27.3 27.3 27.3 27.3 28.1 30.3 38 52.7 70.2 81.5 97 101.5 109.1 114.7 123.7 128.9 130.8 132.9 136.6 138.8 140.5 143.5 147.8 152.8 157.9 166.3 172.1 178.3 178.7 173.2 158.5 158.4 175.9 188.6 197.9 207.1 213.7 217.3 218.9 217.7 211.3 204.5 194.6 186.3 179.2 175.5 171.1 168.2 170.8 172.1 177.7 185.2 189.5 193.9 199.2 204.5 209.6 214.7 216.4 216.8 214.6 210 202.7 195 184.7 176 167.5 159.8 152.8 145 136.8 126.5 108.8 109.9 103 92.8 63.1 78.2 75 64.3 62.2 61.3 59.3 57.7 54.9 49.8 45.5 45.7 43.8
350.3 360.5 372.5 385.3 399.9 421.2 434.3 442.9 450.2 455 460.2 466.2 466.9 462.3 452.5 440.5 432.3 426.5 421 418.3 417.3 416.5 409.8 401.6 391.9 383.5 371.7 360.5 351.3 342.8 332.6 325.8 317.3 308.1 301.3 298 294.3 292.3 290.7 291 287.7 282.7 279.2 273.6 266.8 264.8 266.5 270.3 273.5 273.3 271.6 271.3 270.1 269.9 270.1 268.2 265.3 256.4 246.3 238 232.4 229.8 227.3 223.4 216.4 213.6 211.8 210.8 210.2 209.9 209.7 205.5 195.3 188.7 179.7 170.9 165.8 160.6 153.8 144.5 137.6 133.6 130.2 126.2 121.6 118.2 112.6 109.9 108.1 106.7 107.6 103.3 96.5 92.5 89.2 88.2 84.7 80.6 76.7 70.2 60.1 50.7 42.6 43.1 32.4 28.7 27.3 27.3 27.3 27.3 27.3 27.3 27.3 27.3 27.3 28.4 30.6 35.9 47.6 69.7 83.1 90.3 99.6 110.2 114.5 121.9 127.5 132.7 134.6 136.9 141.3 145.2 148.7 152.7 160.8 175.3 188 194.5 196.3 194.2 188.7 177.6 155.6 160.4 176.8 191.2 201.5 209.3 217.2 220.1 220 216.3 208.4 196.3 185.6 176.4 173.2 170.3 163.9 160.4 165.4 169 175.5 179.5 183.5 189.8 196.3 200.7 205.2 207.1 208.5 204.1 197.4 191.2 183.3 175.1 165.5 155.5 147.2 138.2 128.9 118.5 104.3 95.7 90 84.1 79.8 73.5 57.1 55.3 56.5 54.9 51.9 50.3 48.9 46.1 43.4 42.7 42.3 40.3
350.3 363.1 376.4 386.7 401.2 417.4 429.8 438.5 443.3 446.8 452.5 456.3 456.2 448.7 436.8 424.6 415.2 407.2 403.1 401.9 398.4 398 392.2 385.2 381 373.8 366.6 358.1 349.4 342.9 336.4 329.9 323.1 314.6 307.5 303 298.9 298.6 296.8 293.7 290 284 278.9 273.1 270.9 268.5 270.5 274.1 274 273.3 273.1 271.7 270 269.8 268.8 268.5 265.3 259.7 252.7 246.9 243.3 236.1 231.6 227.5 224.1 220.6 218.3 216.5 214.5 212.6 209.5 206.8 202.1 191.5 183.6 172.9 166.2 160.6 156.1 149.9 143.2 138.6 132.6 128.4 125.6 121.2 116.7 111 108.6 108.5 107.4 106.7 101.6 96.5 92.5 89 87.6 84.1 79.2 70.8 61.4 57 47.9 43.3 39.5 30.4 28.2 28.4 27.3 27.3 27.3 27.3 27.3 27.3 27.3 28.9 30.8 32.6 37.8 55.6 75.3 84.7 98.5 108.2 118.2 127.4 133.3 138.1 140.9 144.6 152.4 160 166.7 175 181.7 191.6 197.5 204.1 206.7 204.8 200.7 190.9 173.4 152 158.8 174.4 191.5 198.1 205.5 213.9 213.9 210.6 204.8 195.5 187.2 173.4 171 168.1 163.2 155.6 154.3 160.9 169.3 176.1 181.1 185.3 188.9 191.9 194.1 195.7 197.2 190.9 182.2 172.2 163.6 155.7 146.5 138.6 130 121.2 110.6 98 84 80.8 79.8 74.9 71.5 66.3 53.9 48.7 47.3 48.3 45.6 44.9 43.9 41.9 38.3 36.5 36.4 31.8
350.3 364.5 378.4 389.4 397.3 409.1 420.4 428.8 434.7 439.5 444.2 445.9 443.3 435.9 423.4 409.9 400.1 395.9 393.6 391.4 387.8 385 382.4 377.8 372.4 365.6 358.4 352.2 346.6 339.7 332.4 326.8 323 317.8 313 306.6 303.1 302.3 299 294.7 289.9 286.6 283.4 280.5 278.6 276.7 277.1 275.9 274.7 273.3 272.6 270.3 270 269.6 269.1 267.1 262.4 257.8 252.5 247.1 242.4 237.1 231.7 227.7 224.6 223.3 220.5 217.5 215.7 212.3 209.1 205.7 200.9 195 186.8 178.5 168.7 159.5 153.1 148.6 143.9 141.4 138.1 133.5 127.7 127 120.2 115.4 112.3 109.5 108 106.9 106 100.3 95 91.5 88.6 85.6 84.3 79 69.4 62.1 51.5 40.6 35.8 31.3 27.3 27.3 29.1 27.3 27.3 27.3 27.3 27.3 27.5 29.4 29.8 31.7 35.6 45.4 64.7 85.3 101.2 119.6 129.8 137.1 142.2 149.5 156.6 160.8 166.5 172.6 181 188.1 194.5 200.5 207 210.2 211.4 211.9 208.8 201.2 188.5 169.2 149.1 153.5 169.4 182.1 190.3 197.7 202.2 204.4 202.8 196.2 184.6 175.1 171.6 165.9 160.8 154.8 145.2 147 154.2 163.4 170.4 176.8 179.3 178.6 176.3 172.3 167.3 162.4 158.1 150.8 142.5 131.8 123 116.2 107.3 100.3 90.8 77.2 74 69 67.3 63.3 58.5 54.7 50.3 47.4 44.4 43.1 41.6 40.2 38.8 36.7 35 35.7 30.4 29
350.3 364.9 377.4 387 390.6 396 411.6 420.6 425.6 430.1 432.8 433.9 432.5 423.7 412.6 402.3 394.7 389.2 386 382.7 380.2 376.8 373.8 369.4 363.5 356.3 350.2 345.5 341 334.4 329.8 324.9 320.5 314.3 312.4 309.1 304.8 302.7 299.7 296 293.8 292.8 291.3 288.1 286.2 283.8 282.4 280.9 277.5 273.5 272 270.5 271 270.4 269.2 266.2 263.7 258.8 253.9 247.7 241.9 236.6 232.6 229.1 226 224.8 224.8 224.1 220.4 217.1 213.6 207.5 203 195.7 190.2 182.1 172 162.5 154.4 148.5 145.4 142.7 138.6 137 134.8 131.2 128.6 125.5 115.5 112.1 109.9 108.9 107 103 98.3 94.9 92.6 90.5 89.4 85.4 77.1 67.6 56.2 46.8 41.4 39.4 28.5 27.3 27.3 27.3 27.3 27.3 27.3 27.3 27.3 27.3 28.6 31.1 35.9 44.6 65.9 84.5 107.1 127.2 138.6 147.8 151.8 155.2 163.6 171.7 177.4 183.2 188.9 196.2 203 207.6 212.5 213.9 211.4 211.9 212.4 205 195.7 178.2 159.9 144.8 145.4 158.2 167.5 180.4 187.2 193.7 199.2 195.6 184.9 172.4 171.6 167.1 159.1 152.6 145.5 136.5 138.6 142.8 150.9 151.2 156.9 158.2 150.4 140.9 134.1 133 127 118.8 111.4 106.7 103.3 96.2 88.4 81.6 71 59.9 57.9 56.7 56.1 55.9 52.7 47.1 44.5 45.1 42.4 40.2 39 39 38.1 36.3 32.8 29.2 29.5 27
350.3 360.6 371.1 379.1 383.5 388.2 399.8 410.7 417 421 424.3 425.5 423.1 415 403.1 392.7 387.2 384.3 380.1 376.5 373.7 370.2 365.4 359.9 354.1 348.6 344.8 340.6 334.9 329.4 326.8 324.1 322 318.3 317.9 314.5 310 304.8 303.3 302.7 303.9 303.5 302.4 299 293.8 290.8 288.6 285 280.2 275.2 274.5 273.7 272.5 270.9 269.4 268.1 264.6 260.1 257.5 253.4 248.8 243.6 241.1 237.7 233 230 227.7 225.4 222.8 218.7 215 209.1 205.4 199.3 192.5 185.9 178.9 167.3 159.7 152.5 147 145.7 142.1 140 140.1 138 134.4 130.6 127.4 119.9 113.2 113 111.3 106.9 102.5 100.6 98.4 97.1 96.4 93.8 87.1 75.9 61.8 50.9 43.9 39.2 33 28.6 27.3 27.3 27.3 27.3 27.3 27.3 27.3 27.3 27.3 30.8 36.3 46 64.7 83.6 102.1 125.9 139 152.8 159.1 160.5 163 177.5 184.3 190.8 195.9 200.8 207.4 211.3 212.4 210.5 208.8 206.7 203.3 204.6 196.8 182 166.3 154.3 139.2 141 148.4 155.8 168.1 182.4 188.3 190.4 184 171.8 167 167.1 160.3 153.1 142.5 133.7 126.1 126.2 123.6 125.4 127.8 124.8 122.6 118 110.2 101.5 97.4 92.3 89.2 84.8 80.6 74 69.8 67.4 60.3 49.6 46.1 45.8 44.9 49 44.7 39.9 41.1 38.6 37.7 37.1 35.6 33.2 30.3 30.1 28.3 27.2 26.2 23.2
350.3 354.6 361.4 370.3 377.4 381.9 387.6 398.6 408.2 412.8 416.5 418.5 417.2 412.3 401.3 392.6 383.9 380.5 377.5 373.4 371.1 367.2 361.4 356.3 352.3 347 344.9 341.2 337.4 333.7 330.7 328.3 326.1 325.4 323.2 319.9 318 316 314.7 314.3 315.2 315.3 314.7 309.6 303.4 296.8 292.6 288.7 284 280.4 279.3 278.7 277.8 277 274.9 271.2 267.2 261.6 258.4 253.8 250.3 245.3 240.6 237.6 234.5 231.4 227.8 225.1 223.7 222.7 218.3 212.7 205.7 199.1 194.9 188.8 181.2 173.7 163.8 155.4 150 148.3 144.1 144.1 145.3 144 141.1 136 134.8 131.3 121.6 117.6 116.8 116.2 113.5 111 107.3 106.7 106.4 103.5 95.4 82.6 68.3 56.4 46.6 40.1 37.5 30.5 27.3 27.3 27.3 27.3 27.3 27.3 27.3 27.3 27.3 29.9 33.8 42.9 63.3 80.6 97.2 114.5 137.6 149 158.7 167.9 165.3 169.4 185 192.4 200.8 206.8 209.3 212.5 214.1 210.9 207.2 204.7 197.7 193.2 190.3 183.8 172.7 158.3 143.8 133 136.7 141.6 148.2 160.3 170.3 177.3 177.9 166.7 157.1 152.4 149.9 143.6 135.2 128.9 116 112.1 108.4 104.5 102.8 101.4 99.1 95 87.7 84.3 77.1 71.7 67.3 62.5 60.1 58.3 55.6 53.2 49.3 41.4 37 35.1 35.8 40 38.4 37.2 35.5 36 34.8 34.8 33.2 30.8 28.8 27.3 26.5 25.5 22.9 21.3
350.3 350.3 353.8 362 368.4 375.3 380.3 386.7 397 404.6 408.8 411.7 410.9 408.6 401.5 393.6 385.7 380.7 374.1 371 372 369.7 367.4 364.6 361.2 356.8 354.7 350.2 346.6 342.6 341.1 337.5 334.9 334 329 327.8 328.5 328.5 328.1 327.8 327.1 327.3 326.3 321.7 313.6 308 301.8 296.2 291.4 287 284.3 284.7 286.6 288.1 285.6 280.5 275 268.9 264 259.6 255.3 251.8 248.1 244.1 242.3 239.7 236.9 235.1 231.9 230.7 228.3 223.4 217.9 210.8 198.9 192.3 185.6 177.6 170.2 160.2 152.9 147.8 148.4 149.6 149.6 148.9 145.8 141.9 138.3 135.9 129.5 122.2 121.8 123.5 123.5 123.6 121.3 118.9 116.7 115.5 103.5 88.7 76 62.4 50.9 41.2 36.2 31.8 27.6 27.8 27.3 27.3 27.3 27.3 27.3 27.3 27.3 30.4 32.4 40.6 60.5 76.3 91.2 104.8 123.1 136.1 153.3 168.3 168.5 166.8 174.2 190.7 198.6 206 210 212.1 215 212.6 207.3 203.9 197.2 188.6 186.3 182 172.5 162.9 149.7 137.5 129.5 133.8 136.6 144.9 152.9 162.5 159.5 154.7 146.4 137.7 131.4 126.2 121.7 110.5 102.7 86.8 89.2 86.7 85.9 83.6 81.3 79 75.5 65.1 63.5 57.9 54.3 47.9 44.7 43.7 39.3 38.6 39.1 35.9 33.7 32.3 29.9 35.2 35.1 34.1 31.8 32.6 33.4 31.7 30.3 28.6 29 27.2 25.1 23.5 21.1 20
350.3 350.3 353.4 355.5 359 366.6 372.9 378.1 387.7 394.8 399.9 402.7 401.9 400.2 398.3 392.4 385.8 384 382.8 380.4 378.7 377.5 376.6 374.2 372.3 370.1 368.4 365.7 362.8 360.2 356.7 353.5 347.7 344.4 343 345.5 345.4 345.5 345.3 345.8 343.3 340.1 334.9 329.8 322.4 316.8 312.2 307 301.3 297 294.8 294.9 297.9 298.7 295.6 290.4 283.7 277 271 267.9 264.4 261.1 256.5 252.8 249.4 246.1 243.4 241.3 238.8 235.2 232.6 230.9 227.3 221.9 214.7 201.8 193 186.6 178.1 173.1 159.5 155.4 152.6 154.8 153.8 153 152.2 145.9 140 138.5 134.4 129.1 127 129.5 132.7 134.6 134.8 137.2 136.5 126 112.9 96.3 81.2 67.8 55.9 44.6 39.5 33.6 29.8 28.4 27.3 27.3 27.3 27.3 27.3 27.3 27.3 30.2 32.2 37.3 54.4 69.9 85.1 97.4 107.8 124.2 132.7 145.4 161.8 161.8 165.4 174 189.7 201.2 207.6 210.8 212.5 213.3 210.8 202.6 196.9 191.2 183.1 179 171.4 163.5 154.2 134.9 126.9 121.6 128.4 131.6 138.9 142.3 139.3 134.6 129.5 125 119.8 113.7 106.2 94.3 87.8 73.6 71.3 71.7 70.7 70.1 68.1 62.6 63.6 59.4 52 48.8 46 37.9 33.6 31.3 30.7 31.4 32.4 30.6 28.4 28.1 27 27.9 27.5 27.2 31 29.5 29.7 30.3 29.4 27.2 26.2 24.7 21.8 21.6 21.3 19.8
350.3 350.3 350.3 353.4 355.9 358.4 364.6 373.4 383 389.9 392.7 395.1 395.5 392.8 393.4 392.6 390 390.5 389.6 390.1 388.9 387.7 387.5 385.3 384.7 383.8 385.6 383.9 382.7 380.8 376.1 370.4 366.6 364.3 364.8 366.6 366.8 364.4 363.3 363 359.1 350.7 343.6 336.9 330.2 325.6 322.6 317.3 312.7 308.7 307.2 307.1 308.4 307.4 303.2 297 290.3 283.9 278 275.3 273.3 269.4 266.7 263 256.9 252.8 249.5 246.9 243.5 240.9 236.8 235.2 234 229.6 224.1 217.6 206.7 198.9 191.6 181.6 176 165.5 160 159.2 160.2 161.1 159.2 154.3 148 146.7 143.1 138.1 138.1 138.2 145.8 155.1 161 165.9 156.7 139.6 121 106.6 87.8 72.4 61 49.7 39.5 34.4 30.4 29 27.6 27.3 27.3 27.3 27.3 27.3 28.6 30.7 31.7 34.3 46.9 62.6 76.4 87.5 96.3 109.4 120.7 126.7 138.4 154.4 162.4 168.7 176.2 192.1 204.2 206.1 210.2 212.4 211.5 204.8 196.7 191.1 185.5 177.7 171.8 160 153.1 136.5 123.7 116.3 113.7 120.6 124.6 124.3 123.7 117.7 111.9 109 105.5 99.3 92.3 80.5 75.9 71.2 59.9 58.9 57.1 56.1 55.1 53.7 51 48.9 41 39.9 37 31.6 33.7 33.2 31 29.6 29.7 27.4 27.1 26.8 26.6 25.8 24.9 25.4 26.5 27.6 27.1 26.5 26.7 26.2 24.9 23.5 21.6 20.8 20.7 20
350.3 350.3 350.3 350.3 353.7 356.4 362.7 373.2 381.8 389.9 393.9 395.3 396.1 396.9 399.5 401.2 399.8 399.6 399.2 399.6 399.1 399.4 400.1 400.3 400.3 401.1 403.7 404.1 400.8 397.1 392.7 386.1 383.3 385.4 387.7 390.2 391 387.8 378.5 373.6 368.4 359.6 351.6 343.7 338.2 334.5 330.9 327.7 323.6 319.6 317.3 316.9 316.8 314.4 311 303.4 296.7 290.1 284.3 281 278.3 277.4 274.2 271 267.1 262.9 257.6 253.6 251 249.5 246.9 243.1 239.2 235.6 231.7 226 219.7 211.9 206.5 200.7 188.9 181.4 172.7 168.4 169.7 173.1 173.6 164.1 159.1 156.6 154.5 159.7 165.6 169.3 172.2 177.3 180.1 181.7 175.8 157.4 134.7 111.6 94.1 76.2 65.7 55.2 44.5 37.2 30.9 29 27.7 27.3 27.3 27.3 27.3 27.3 28.7 31.8 32.2 32.9 41.2 53.9 66.2 76.1 84.5 96.6 107.6 116.8 124.2 139.6 158.9 167.1 171.3 179.6 195.2 200.6 201.8 209.9 211.1 206.9 199.7 192 187 177.6 169.9 158.5 147.2 136.9 121.7 112.9 103.9 102.2 108.7 108.6 102.4 104.5 100.7 94.6 89.7 84.2 78.4 73.7 63.9 56.4 54.7 48.3 46.7 45.1 43.9 41.6 41.5 37.3 32.3 32.2 30 31.7 29.4 29.7 29.7 28.7 31.1 29.6 27.1 26.1 25.7 25.1 24.7 24.9 26 25.6 25 24.2 24.6 24.7 23.6 22.2 21.3 20.7 20.4 20.3
351.9 350.3 350.3 350.3 350.3 353.6 363 373 381.3 388.9 393.5 395.8 398.8 402 404.4 407 408.4 408.4 409.5 410.5 414.2 417.4 419.1 417.5 417.5 416.9 415 414 410.4 407.1 404.6 402 399.5 398.6 400.7 400.7 400.3 396.9 389.5 378.9 371 365.7 357.6 349.7 345.7 342.4 338.5 334.9 331.3 327.4 324.2 322.6 320.6 318.6 315.4 309.8 303.5 299.1 293.6 288.3 286.6 286 282.8 279.3 277.4 274.6 269 262.3 259.5 257.4 254.1 249.3 244.2 239.4 235.9 231.6 228.5 223.8 216.6 210.9 203.7 192.8 186.4 177.9 176.8 179.8 180.1 178.2 172.8 176.4 182.4 184.1 183.4 186.8 189 191.3 193 193.5 188.8 176.6 148.8 120.2 100.9 84.2 69.9 60.1 49.3 41.1 31.7 29.2 27.9 27.3 27.3 27.3 27.3 28.6 31.6 32.5 32.1 31.9 36.8 47.8 58.2 65.5 74.5 86.5 95.8 104.6 113.4 124 144.4 165 170.2 173 181.3 190.3 193.8 197 207 207.1 201.1 191.6 182.4 178.6 168 153.7 144.6 135.3 123.8 109.1 102 88.8 87.5 93.3 93.4 90.8 89.3 82.4 75.6 68.8 62.7 60 55 47.7 41.8 40.1 38.4 35.9 35.1 35.4 33.6 27.9 27.5 27.1 27.3 27.1 26.9 26.4 27 27.1 27 25.3 25.4 25.9 27.4 24.9 26.5 26.4 24.3 22.8 22.8 22.1 22.3 22.4 22 21.8 21 20.6 20.3 20.1
355.2 350.6 350.3 350.3 353.1 358.3 368.3 375.8 381.7 385.5 389.5 391.3 394.2 399.6 404.3 408.2 412.1 417.1 422.8 426.6 429.7 431.2 430 427.9 426.6 424.9 421.5 418 416 414.6 411.2 406.7 405.2 404.2 403.2 400.9 399.5 394.6 386.4 376.9 371.6 367 361.4 355.1 352.2 348.4 343.6 340.6 336.5 333.4 329.6 327.5 326.3 324.8 321.1 316.7 310.8 305.9 302.5 299.2 296.4 294.4 291.7 288.8 286.8 283.7 280.4 274.9 268.5 264.6 261.1 255.5 250.1 245.1 239.3 235.7 232.1 229.2 225.2 218.1 213.6 204.8 196.7 190.1 186 185.3 185.6 185.4 187.4 196.1 200.3 200.9 200.4 200.5 200.2 199.8 199.6 197.3 193.8 187.3 165.4 133.4 107.8 91.7 74.4 62.9 55.1 45.6 35.5 30.2 27.6 27.3 27.3 27.3 27.3 27.3 27.3 30.2 31.5 32 32.9 41.3 52.1 56.7 64.5 75.7 87.4 94.2 101.4 111.6 128.4 151 167.1 172.8 174.2 175.7 177.8 180.3 191.8 201.8 198.1 191.8 180.6 172.6 166.5 150.4 141.2 133.4 123 112.5 101.4 90.7 75.5 73.5 79.9 77.4 73.1 69.4 62.8 55.1 48.5 48.4 42.8 38.3 34.4 33.6 33.9 31.2 29.6 28.3 27.8 26.5 26 26.1 25.9 25.9 25.3 25 24.8 24.7 24.3 24.3 24.4 25.6 25.3 24.3 24.3 23.4 22.8 22.2 21.6 21.5 21.2 21.1 20.9 20.9 20.8 20.5 20.2 20
354.6 354 350.3 352.7 357.4 363.1 368.4 372.9 377.4 381.4 384.1 385.9 388.6 393.4 399.5 404.7 410.4 417.7 426.1 431.6 434.9 435.8 434.9 432.1 430.1 427.6 424.1 420 416.8 415.3 411.5 406.8 404.5 402.2 399.6 397.5 393.6 387.9 378.8 374.2 367.6 362.9 361 359.4 356.1 353.6 349.2 345.5 342.2 338.8 336.2 332.6 332.1 332.1 330.8 329.9 324 320.7 318.3 315.1 311.3 308.2 304.6 301 299.3 295 291.7 287.5 282.3 274.7 270 265.8 259.2 252.8 247.4 241.8 237 232.7 228.5 225.7 219.6 214.4 204.8 193.9 197.6 196.1 193.7 194.4 197 203.6 208.3 210.4 209.4 207.7 204.5 204.5 204.1 201 196.2 186.7 173.8 144.1 116.5 95.8 80.2 66.6 56.6 47.4 38.2 32.5 30.1 27.3 27.3 27.3 27.3 29.7 27.3 28.5 31.8 31.4 31.8 36.3 42.2 51.2 56.1 64.5 77.9 83.1 89.4 98.2 113.6 132.1 152.2 167.2 172.2 172.8 173.6 166.7 172.6 186.3 193.3 189.2 180.5 169.3 156.4 144.8 135.7 126.7 118.1 108.3 98.5 89.5 78.9 60.3 61.3 64.9 62.7 56.5 52.1 48.8 44.2 39.3 36.1 31.7 28.6 30.2 29.8 29 27.5 26.7 26.7 26.1 25.7 25.7 25 24.9 24.9 24.6 24.2 23.8 23.7 23.7 24 24.1 23.4 23 23.1 22.9 23.4 22.4 22 22.1 21.5 20.9 20.8 20.8 20.5 20.2 20.2 20
352.5 352.6 352.6 351.3 352.7 358.3 363.6 367.6 371.6 374.8 376.8 378 380.8 385 391.8 398.5 404.8 412 421.2 427.8 431.6 432 431.2 429.6 427.9 426.1 423 420.1 415.2 412.3 408.6 405 401.1 396.3 393.6 391.2 385.7 378.7 374 369.4 364.3 359.9 359.6 359.7 358 356.6 354.2 350.4 347.2 343.2 340.4 338.8 338.5 338.3 339.7 340 338.6 336 334 331.1 328.5 323.3 320.6 318 316.2 311 305 301 293.4 288.5 281.4 275.4 269.1 261.1 254.7 248.7 241.4 237.1 231 229.3 225.8 220.8 215.6 207 207.9 206 201.9 202.1 204.8 207.8 212.4 215 217 214.8 210.2 206.1 203.3 202.6 196.6 188.5 178.4 160.1 124.5 102.1 86 71.3 60.4 51.2 40.2 33.4 30.5 27.3 27.3 27.3 27.8 28.8 28.1 27.3 27.4 29.2 30.1 32.1 37.8 45.9 52.1 56.4 64.6 74.3 80.7 86.7 97.5 114.9 135.9 154.6 165.2 169.4 169.8 158.8 155.5 169 178.7 180.4 169.7 161.3 148 138.5 128.5 119.5 109.9 101.5 93.3 86.1 77.2 62.2 59.4 51 54.3 53.4 50.4 46.6 41.9 35.9 31.9 29.9 28.3 28.2 28 27.7 26.8 26.7 26.4 25.9 25.4 25 25.4 24.3 24.4 24.8 24.1 24.1 24 23.9 24.2 23.8 23.2 23 22.8 23.3 22.9 23.2 21.7 21.5 21.5 21.5 20.9 21.4 20.4 20.3 20.3 20.3
348.3 349.4 348.9 347.1 349 351.1 357.1 361.1 364 366.1 368.2 370 371.9 376.3 382.7 388.5 396.2 402.3 413 421.7 426.1 427 425.8 424.9 423.3 420.3 417.8 416.9 413.2 410.5 406.8 403.2 400.1 394.9 391.2 384.5 376.4 370.8 368.5 363.8 358.7 356.9 356.6 357.9 358.1 357.4 356.4 353.8 350.5 349.6 348.2 346.9 345.8 346.8 348.9 351 350.4 350.1 348.7 346.7 344 340.5 335.2 331.1 330 326.9 321.8 315.2 307.2 301.4 294.9 286.5 275.2 268 260.5 253.4 248.6 243.6 236 232.7 230.7 226.6 220.7 219.1 214.9 211.3 209.4 209.1 210.7 215 221.3 227.9 230.5 231.7 228.8 221.7 209.1 199.1 196.4 190.8 184 172.9 137.2 108.6 91.4 76.6 64 54.9 45.7 37.2 34.2 27.3 27.3 27.3 28.1 29.6 29.3 27.3 27.3 29.2 28.9 30.4 34.4 40.3 45.3 50.7 56.7 63.6 69.6 78.1 85.5 94.7 116.2 136.9 155.9 165.1 166.1 158.9 148.5 142.6 147.5 154.6 156.1 147.7 137.8 129.1 119.2 111.8 99.3 93.6 88.1 78.7 65.9 62.4 56.3 49.8 44.7 44.7 45 43.6 39.1 35.6 31.1 30 28.2 27.7 27.1 26.8 26.6 25.4 25.6 25.7 25.2 25 25 24.5 24.8 24.5 24.3 23.9 23.8 24.3 23.8 23.6 23.3 23.2 23.1 23.9 25.5 24.9 21.7 23.7 22.4 21.8 21.6 21.5 20.8 20.6 20.4 20.3
343 342.7 342.8 337 343 345.8 349.7 352.3 354.9 357.1 360 361.4 364.9 369.3 373.4 378.7 386 392 400.1 407 417.3 421 423 422.3 420.9 417.5 414.2 410.2 407 403 401 398.1 395.7 391.3 387.1 379.8 372 366.3 364.5 360.1 355.1 353.4 352.4 353.7 355 356 356.5 355.3 353.3 353.7 354.5 355 354.2 354.9 357.3 359.8 362.4 362.6 362.3 360.1 357.5 354.9 350.2 346.4 344 339.6 335.1 328.6 320.3 313 306.8 299.2 291.9 275.2 265.8 261.4 255.4 250.3 244.4 238.8 236.6 232.7 230.4 226.9 223.1 217.7 214.1 214.7 216.5 223.5 230.5 240.9 246 243.8 239.4 233.6 225.7 209.8 196.1 193.3 186.7 175.7 148.5 116.6 97.1 81.5 69.1 59.5 50.2 42.1 34.6 30.1 29.2 27.6 30.3 30.7 27.6 27.3 27.3 28.8 28.3 30.2 32.3 35.9 41.8 45.8 49.4 52 59 69.9 75.7 83.6 95.3 113.7 132.1 143.2 149 149.2 142.7 132.8 127.1 130.9 134.6 132.1 122.6 114.4 106.5 97.8 88.5 82.3 76.4 66.4 58.3 55.6 54.3 46.4 42.6 39.1 38.1 36.6 37.8 34.9 31.8 31.1 30.4 28.4 27.8 27.7 27.2 26.7 25.9 26.8 25.6 25.2 25.1 24.6 24.6 24.6 24.4 24.2 23.9 23.8 24.5 23.7 23.5 23.4 23.4 23.9 25.9 26 30.5 32.1 31.3 28.8 25.2 22.9 21.5 21 19.9 20
334.5 334.6 335.8 330.8 335.8 339.2 342.8 344.9 347.3 350.5 353.7 357 360.2 363.8 364.1 367.2 375.4 383.1 390.3 398.8 404.5 407.7 409 410.4 414.7 414.3 411.4 407.4 402.3 398.7 394.9 392.2 389.2 384.9 378.2 370.8 367.4 362.3 359.2 355.2 350.7 347.5 348.3 349.6 350.9 353.2 354.2 355.1 355.3 356.6 359.7 362 363.6 366.1 368.8 370.4 371.4 374.3 374.2 372.9 370.9 368.3 364.6 361 356 351.4 346.1 341.4 333.3 324.8 316.6 308.9 300.7 293.3 276.6 266.1 262.5 256.5 253 248 243 240.9 235.6 236.7 231.6 223.8 219.9 218.4 223.1 230.8 238.3 247.8 254.7 255.2 250.3 246.2 242.5 228.4 211.7 191.2 186.9 178 155.4 127.5 101.3 86.8 75.8 64.7 50.5 46.5 39.8 34.3 30 30.3 30.7 29 27.3 27.3 27.3 27.3 27.3 28.5 29.7 31.4 35.5 41 43.6 45.6 50.2 58.7 69.5 76.2 82.7 93.4 109.2 122.8 131.5 137.3 133.2 124.4 116.2 114.2 116.8 110.6 103.6 94.3 88 81.8 76 68.8 64.1 61.3 52.6 47.2 47 44.1 39.5 34.6 33 31.4 32.6 33.8 33 31.9 33.4 31.4 28.8 27.9 27.4 26.9 26.6 27.3 26.3 25.8 26.3 26.4 26 25.3 25 24.8 24.4 24.4 25.3 24.5 24.7 24.2 25.8 27.6 30.1 32.9 34.5 35.3 34.9 32.6 27.6 27.1 24.1 22.8 20.5 19.3
325.6 325.7 326.4 323.4 328.3 330.8 335.2 339.4 341.1 343.9 347.5 350.1 352.6 353.1 353 356.6 364.4 375.7 382.9 392 399.8 401.6 403.2 404.8 404.4 405.3 404 402.3 397.8 393.2 389.8 382.4 381.7 374.3 368.7 367.9 365.1 360 357.7 351.8 347.1 344.8 346.1 347.6 348.8 350.3 351.9 353.6 354.5 356.6 360.4 364.3 368.5 372.3 376.5 379.1 380.5 382.9 383.5 382.5 379.7 376.7 372.9 371.6 369.1 364.7 357.5 351.4 343.6 334.4 325.4 317.7 308.4 298.8 292.1 275.6 270.8 264.7 261 259 253.3 244.4 241.9 241.4 237.2 230.7 224.6 222.8 227.1 235.5 242.8 249.5 254.2 257.3 254.3 252 248.7 246.2 239.6 211.6 186.8 173.4 159.4 138 110.6 91.7 77.8 69.1 57.4 47 45 41.7 32.7 31.5 30.2 29.3 28.1 27.3 27.3 27.3 27.3 27.3 30 29.8 32.2 36.4 39.8 42 41.2 46.8 58.1 68.8 76.9 81.8 91.2 106.2 116.3 121.3 121.8 114.2 109.8 106.8 101.6 93.7 87.6 82.4 75.7 69.6 62.7 60.4 54.2 50.6 42.8 40.4 40.1 40.1 36.7 32 30.8 30.6 31.4 31.1 29.9 29.3 29 28.6 28.7 28.1 28.5 28.1 27.8 28.1 27 26.8 26.7 27 28.2 26.1 25.7 25.4 25.3 25.4 26 25.2 25.4 28.9 31.3 32.5 35 36 35.8 35.8 34.7 32.9 28.6 28 26.3 23.4 20 18.8
316 316.5 316.2 307.9 317.7 322.6 327.8 331.7 335.5 337.7 341.6 344.2 344.2 343.3 345.7 351.8 359.9 366.7 376.2 386.7 396.4 402.3 406.4 407.6 406.2 402.1 397.8 394.2 392.9 388.1 376.7 373.4 368.6 361.5 362.4 363.8 361.7 357.9 354.8 347.6 343.9 343.1 344.8 346.1 347.5 349 350.6 352.2 354.2 355.8 359.8 366.2 372.3 377 381.5 385.1 388 389.4 389.1 386.9 383.8 382.8 378.2 375.1 373.5 370.7 365.5 359.7 353 345 334.9 324.7 315.3 306.1 297.1 289.9 280 273.6 270.1 266.4 261.3 254.7 248.4 246.7 246.1 236.9 230.7 227.1 229 234.3 242.6 248.1 251.4 256.3 260.1 256.3 252.6 249.2 245.6 240.4 200.9 176.2 161.3 144.4 121.2 97.5 83.3 74 66.5 56.8 49.8 44.7 37.4 32.1 29.8 29.6 28.9 27.5 27.3 27.3 27.3 27.3 28.8 29.7 30.3 34.3 35.6 35.6 36.5 41 45.6 61.3 70 78.1 82.9 90.9 98.8 102.8 102.1 104.2 98 96 89.9 82.2 76.4 72.6 66.1 60.1 55.8 54.4 49.4 40.6 39.4 37.2 36.6 36.3 34.6 31.8 30.8 30.6 30.4 30.7 29.9 29.4 29.2 29.1 30.6 29.3 29.8 29.2 31.1 31.9 31.9 32.8 31.1 30.8 29.7 27.3 26.8 26.6 26.6 27.1 29 29.1 32.1 34.7 36.1 38.8 39.1 38.7 38.6 37.9 36.8 35.1 31.7 28.1 27.5 23.5 19.6 18.6
309.6 308 306.4 302.7 310.5 314.2 318.3 321.3 325.5 331.7 334.5 335.6 336.1 341.3 347.7 355.6 365.3 368 374.3 385.9 397.4 406.4 408.3 409.6 407.8 403.9 396.5 385.7 384.7 383.1 376.4 363.4 355.6 351.7 358.1 359.3 357.2 354.2 351.3 345.4 340.7 340.9 343.8 345.6 346.5 347.7 349.3 350.9 352.9 354.7 358.2 365 372.4 377.8 382.5 386.2 390.1 392.4 392.5 389.2 384.2 382.3 379.2 376.3 374.2 372.5 368.2 363.7 357.2 350.5 344.2 333.6 322.3 312.5 303.8 294.4 293.4 287.1 274.1 271.7 266.8 265.8 260.9 255.3 251.6 246.8 239.7 232.4 231.6 234.3 238.3 243.2 248.5 256.1 258.6 257.3 256.6 255.7 248.1 243.4 216.3 182.1 163.9 146.9 129.7 105.3 87.7 77.9 69.6 66.6 62.5 52.4 45.3 38.1 33.4 32 29.9 28.8 28.1 27.3 27.3 27.3 27.3 28 29.7 29.9 30.6 32.8 34.4 38.6 40.2 51.2 63.4 71.6 76.4 80.4 85.6 87.2 86.7 88.5 87.5 82.2 74.3 69.5 64.6 60.9 56.2 51.8 49.5 47 40.4 38.8 37.2 35.3 35.1 35.1 33.4 31.6 31 30.8 30.6 30.6 30 31.8 29.8 29.7 29.3 29.4 29.4 29.9 32.1 35.8 37.4 36.7 36 36.8 35.5 33.2 32.5 32.6 32.9 32.9 33.7 34.5 34.9 36.5 37.2 38 38.6 38.5 39.4 38.9 37.6 35.9 33.4 30.1 27 23.7 20.2 18.5
303.8 300.7 298 298 304.2 307.1 309.6 312.7 318.8 323.7 326 328.3 334.9 342.6 352.1 366.2 375.9 383.5 384.9 384.6 389.7 399.7 405.6 406.5 404 400.8 396.1 388.6 373.3 370.3 370.6 367.4 356.6 351.6 354 355.1 351.9 349.7 346.1 341.1 337.4 338.2 341.2 344.5 345.3 346.8 347.9 349.6 351.4 353.1 356.1 362.1 369.3 376.4 381.8 386.3 391 394.7 394.6 391.7 386.7 382.3 378 374.6 371.2 368.6 365.2 361.9 358.1 353 346.9 339.4 329.4 316.8 307.1 302.6 298.9 292.6 286.3 278.3 275.8 275.1 273.3 265.6 261.1 257.8 249.5 241 235 235.8 238.7 242.3 243.3 249.8 256.7 256.5 255.4 254 253.1 242.6 227.4 192.3 169.8 146.5 134.1 113.6 92 79.5 72.4 67.7 65.3 58.8 50.5 42.7 36.6 34.5 31.6 30.4 29.5 28.2 27.3 27.3 27.3 30.3 30.8 30.2 30.8 31.5 32.8 34.4 37 40.6 53.1 64.5 70 73.1 77.3 74 74.2 76 72.5 67.7 64.9 60.1 55.7 53.6 51.1 46.9 42.6 38.2 38.5 38.5 34.5 34.6 34.5 34.3 34.7 31.7 31.3 31.1 31.5 30.2 30.1 29.9 29.5 29.9 29.5 29.4 29.6 30.6 33.8 36.7 39.5 38.8 37.9 37.4 36.7 35.8 36.2 37.1 37.8 37.9 40.5 40.4 40.3 40.5 41 42.1 41.6 40.4 40.1 40 38.2 36.3 33.6 30.5 27.1 24.5 21.4 19.5
296.4 293.2 289.3 292.9 298.3 300.7 303.2 305.2 310.4 314.7 321.6 331.8 339.7 347.6 360.4 377.2 394.7 408.6 406.7 389.7 382.4 383.3 390.7 397.7 398.4 395.2 391.1 386.1 376.6 364.4 360.7 362.8 360.3 350.2 351.2 350.6 348.1 346.5 344.8 340 334.5 335.2 339.6 343.3 345 346.2 346.8 348.5 348.5 349.9 353.5 358.4 365.6 373.9 379.7 385.7 389.9 393.2 393.6 391 386.8 382.7 376.9 373.1 369.5 366.8 364.4 359.5 353.1 350.9 347.8 342.3 335.1 327.4 313.7 307.4 303 299.5 290.7 282.6 276.6 278.3 278.4 275.1 272.1 268.2 261.8 252.6 246.3 240.7 244 247.1 245.5 243 253.3 254 253.1 254.6 251 241.3 229.1 203.5 174.9 154.4 136.6 119.8 98.7 83.1 74.1 67.6 65.5 62.9 57 50.3 45 38.4 33.5 33 31.8 31.2 30.2 27.3 27.3 27.6 29.3 31.4 31.8 30.9 31.8 32.7 34.4 36 40.2 52.3 61 66.7 66.9 60.8 58.5 63 63 57.6 53.7 51.9 49.6 47.3 45.2 42.7 41.4 37 38.6 37.6 34.3 34.2 34.3 34.4 32.9 32.6 32.4 32 30.7 31.5 30.7 29.6 29.5 29.4 29.4 29.4 29.8 31.1 36.5 39.2 41.1 41 40.8 40.5 40 39.7 40.8 41.2 41.2 43.4 43.7 43.9 44.2 43.9 44.7 44.6 44.2 42.5 41.6 40.5 38.4 36.1 34 31.1 27.6 24.4 21.5 18.9
284.4 282.6 277.8 285.7 291.5 294.6 298.2 301.3 304.9 313.5 320.6 332.3 341.5 353 370.5 390.8 413.4 421.6 419.9 407.6 380.2 371.9 374.7 376.9 381.7 384.5 382.4 379.7 374.5 367.1 358.3 357.2 356.5 350.7 348.8 347.9 345.1 344.1 342.6 338.9 334.4 332.9 335.8 340 343.8 345 346.2 347.7 348.5 349 351.8 355.9 361.2 370 376.6 382.9 386.4 387.8 389.4 387 384.7 382.4 378.1 371.9 368.3 366.2 364.2 360.2 356.5 351.1 348.2 343.8 337.9 331.7 324.9 312.1 305.5 301.8 296.3 288.5 283 278.3 277.7 279.4 280.1 276.6 271.1 265.9 257.9 252 251.2 253.1 250 243.1 240.5 251.4 250.1 251.8 253.2 248.9 228.8 208.6 181.5 165.1 139.4 123.5 106.3 89.8 76.1 69.2 67.5 66.2 62.9 57.7 50.2 43.1 38.4 36.1 36.4 34.5 32.9 29.8 27.9 27.7 28 28.5 31.7 36.2 32.6 33.1 33.2 34.2 35.8 39.4 47.7 54.6 54.5 48.4 46 47.6 55 51.7 51.5 47.6 48.5 43.7 43.8 37.3 35.9 36.2 34.5 34.4 34.3 34.5 34.3 34.4 33.8 33.2 32.6 32 31.3 31.5 31.3 30.8 30.5 30.1 29.9 30 30.3 30.6 37.7 41.5 43.1 43.6 43.3 43.1 43.1 43.8 44 44.7 44.8 45.8 46.3 45.9 45.2 45.2 45.3 45.7 42.8 44.7 45.4 44.7 41.4 37.6 33.7 30.5 26.4 23.3 21.3 18.5
270.3 270 264.5 277 282.8 288.4 292.1 295.9 304.2 311.5 319.2 329.7 342.1 354.5 375.7 400.2 419.9 426.2 423.8 415.4 396.7 372.5 360.7 364.3 363.2 364.5 368.6 369.1 366.1 359.1 359.2 353.1 353.8 351.3 348.6 345.5 343.3 341.9 340.2 337 333.6 330.6 335.9 340.9 344.4 346.1 346.3 347 348.3 348.8 350.7 354.9 359.3 366.1 373.2 377.6 381.1 383.1 382.9 382.3 380.4 379.4 378.4 372.6 367.9 365.8 363.7 360 356.8 353.5 347.9 341.7 337.7 331.7 323.2 314.3 307.4 304.3 301.3 298.4 291.8 286.1 281.9 282.2 284.2 282.5 279.7 274.9 266.7 264.2 256.9 255.4 248.9 244.5 237 237.2 244.8 246.7 246.6 249.4 235.2 209.7 187.9 170.1 149.3 126.2 112.3 98.3 85.3 75.2 72.2 70.7 68.9 64.3 58.5 50.5 47 39.6 37.2 35.7 32.6 30.3 28.5 28 29.1 28 28 31.8 33.2 37.3 37.4 37 33.8 35.1 38.7 44.9 46.5 42 42.4 42.2 43.3 41.4 43.1 40.7 40.4 41.5 40.8 37 34.9 35.1 35.3 34.6 33.8 34.3 33.9 33.7 33.4 33 32.8 32.3 31.5 31.4 31.2 30.8 30.5 30.2 30 30.1 30.5 31 40.8 44.6 45.5 45.8 45.9 45.9 46.1 46 47.3 48 50.3 51.6 51.1 50.2 49.5 49.1 48.3 47.4 47.5 53.7 56 53.5 48.5 44.4 40.3 35.2 29.6 25.2 22.4 19.6
257 255.6 260.1 268 273.3 278.9 285.2 291.2 295.2 302.2 315 325.5 338.4 354.3 377.3 401.5 415.5 421.1 420.8 415 404.3 382.4 363.1 351.7 349.9 349.9 353.3 359 358.8 352.1 352.3 351.2 348.2 348.2 348.5 347.1 343.5 340.2 337.9 337.9 333.3 327.9 333.2 340.3 343.8 345.8 346.5 346.6 346.5 348.2 350.6 354.3 359.1 363.8 367.7 370.7 373.1 375.3 377 378.4 378.1 377.8 377.8 374.3 368.2 365.7 363.5 359.3 357.4 351.5 346.3 341.9 336.4 329.6 323.7 317 307.2 305.9 303.8 304.2 301.8 296.7 293.3 291.2 288.8 289.5 285.1 278.5 271.8 269.6 268.6 256.1 245.5 240.1 236.6 235.1 235.3 241.5 240.9 233 228.3 208.6 189.8 170 152.9 131.2 117.8 104.4 93.1 80.8 76.3 73.7 72.2 70.6 64 59.5 50 44 41.1 41 40 37.1 32.7 32.7 34.2 34 30.6 28 29.3 31.2 35 32.4 34.9 33.9 34.3 37.5 39.9 39.9 41.7 42.5 40.2 40.6 41.3 39.2 40.2 38.6 44.4 38.1 36.5 38.7 36.9 35.8 34.3 34 34.4 34.7 33.7 33.4 32.7 32.2 31.9 31.2 31 30.7 30.5 30.3 30.2 30.2 30.1 31.8 42.6 47.6 49 49.5 49.7 49.3 49.4 49.6 51.4 54 55.8 56 55.5 54.8 54.2 53.6 52.9 52.8 57 66.7 66.2 62.8 57.1 51.3 46.8 41 34.9 29.2 24.8 22.3
245.6 245.6 254.9 260.1 265.7 271.9 278.6 287 291.2 297.2 307.6 319.1 334.2 353.2 376.2 393.1 403.8 409.5 412.1 408.2 402.1 386.9 363.9 352.8 345.8 341.7 340.7 340.6 348.2 347.3 347.5 347.5 344.1 346.1 347 348.2 345.7 341.5 339.5 335.3 332.3 328.4 330.4 338.7 342.4 345 345.8 346.4 348 348.4 350.8 354.9 358.4 361.2 362.8 365.4 366.8 367.9 369.6 372.8 374 374.6 374.8 372.6 369.8 365.6 362.8 360.7 358.3 353.4 348.1 342.4 337.1 330 324.2 320 312.9 306 306.4 306.7 306.9 304.6 301.8 300.8 296.2 291.1 288.4 281.9 271.8 267.9 267.4 260.8 243.5 237.9 236.7 236.6 234.3 232.4 234.5 234.8 226.9 210.9 188.9 172.2 156.9 141.4 123.3 109.7 100.1 90.3 83.1 80.2 77.3 75.4 69.6 62.2 56.5 49.3 46.9 45.4 43.9 38.3 38.2 34.5 38.3 35.4 36.8 37.5 30 27.8 28.7 30.7 33.5 35.5 33.3 33.7 37.4 36.2 39.2 39.8 40.2 40 38.8 38 37.9 38.3 35.9 35.7 36.3 36.9 37.2 37.3 36.1 36.4 36 35.7 35.1 33.9 32 31.6 31.9 31.4 30.8 30.9 31 30.9 30.8 30.8 30.8 37.1 45.2 48 50.5 51.1 51.8 52.9 52.9 54.4 56.1 57.4 59 59.6 58.8 57.7 56.1 55.7 55.7 59.6 62.5 71.6 73.1 68.3 62.9 56.3 52.4 46.7 40.3 33.5 29.1 24.9
235.6 244.8 254.3 257.8 261.8 265.8 272 280.9 287 294.1 303.2 313.3 327.5 349.4 373.5 389.5 392.2 392.6 398.4 398 394.1 384.8 365.5 350.2 343.9 339 334.8 334.1 334.3 338.3 344.2 343.4 338.4 341.7 344.2 346.5 345 342.5 339 335.9 332.3 326.4 327.7 335.3 340.8 343.5 344.4 345.4 346.5 348.7 351 354.3 356.7 358 359.5 360.2 361.8 363.4 365.3 367.8 370.7 372 373.1 373 370.7 367.6 363.6 362 360.5 356.6 349.3 342.9 335.8 329.3 325.2 321.4 317.4 314.2 312.6 310.5 309.3 309.1 307.4 303.8 301.5 294.2 287.6 283.2 275.7 265.4 257.5 253.6 242.9 238.2 236.9 236.2 235.7 229.2 227.6 237.8 237.9 231.1 193.8 174.9 161.7 147.3 133.5 115.7 104.5 98.2 89.4 83.5 82.9 79.1 75.3 66.9 62.1 59.2 53 49.5 46.6 45.5 41.3 38.1 37 35.1 37.6 41.6 33.6 32.2 31.5 29.5 26.6 34.3 34.6 33.6 33.4 33.7 35.9 39.1 38.5 37.7 37.9 38.9 38.7 37.3 36.4 35.9 36.1 35.9 36.2 37.2 37.3 36 35.9 36.4 34.3 34.8 33.2 31.5 31.1 31 31.1 30.8 30.9 31.6 31.8 31.7 33.1 43.2 46 49.5 51.5 53.1 54.1 55 55.9 57.8 61 61.2 61.9 62.4 59.8 58.2 57 56.7 56.5 61.7 64.2 67.6 71.5 70.3 66.1 59.4 56.1 51.4 45.4 38 34.4 29.9
231.2 242.1 249.9 255.6 258.8 261.4 266.4 272.4 280.4 287.3 296.6 306.8 318.8 338.1 365.1 382.5 388.7 386.7 379.5 381.4 379.6 374.7 363.5 344.5 338.2 336.6 333.5 327.9 329.9 330.4 334 335.5 336.5 339.2 339.5 342.6 342.9 340.5 337.5 334.8 331.9 326.4 325.9 332.1 339.2 342.4 343.4 344.3 344.7 346.8 349.9 355.1 357.1 357.8 358.1 358 357.9 359.6 361.7 364.7 367.5 369.6 373.3 373.3 370.3 367.5 364.7 362.5 361.1 358.6 352.3 345.1 338.4 332.8 326.1 322.6 321.7 320 319.3 314.8 310.9 310.5 310.5 308 303.5 299 288.9 283.5 278.3 266 256 249.2 240.1 236 235.1 236.1 235.6 231.6 221.8 225.4 237.8 236.8 221.6 177.8 162.5 148.5 138.2 122.4 110 103.3 94 88 86.2 81.7 75.5 71.3 67.8 65.2 61 53.8 49.8 49.5 46.6 45.3 43.9 44.3 41.7 37 35.6 34.2 34.1 32.4 31.9 27.1 30.8 35.6 32.9 32.4 36 37 36 36.3 37.5 38.6 38.4 38.1 37.4 36.8 36.2 36.2 36.3 36.3 35.5 34.9 34.6 34.3 33.6 33.7 32.3 31 31.2 31.4 31.1 30.8 30.9 30.9 31 32.3 36.8 47 50 52 53.8 56.2 57.4 58.6 60.3 62.3 61.3 61.4 62.1 61.6 59.8 58.2 56.7 55.7 57.1 54.2 57.8 61.7 64.9 67.8 65.6 62.5 55.4 52.8 49.6 43.1 36.9 32
222.3 236.9 247.7 251.7 254.8 255.4 262.3 266.6 272.6 280.1 288.8 298.4 309.9 326.4 354.4 372.2 378.9 381.1 378 369.6 366.2 360.7 351.9 336.7 325 325 323.9 324 327.2 328.6 330.2 331.4 333.5 336 335.9 337.9 340 337.6 333.5 332.4 330 326.3 322.2 330.8 336.8 340.8 342.5 342.8 343 345 348.3 355 357 357.5 357.7 355.1 354.7 356 357.8 361.7 364.5 368.9 371.8 372.8 372.6 367.3 365.4 363 362.3 359 353.8 347.5 341.3 335.2 329.8 326.5 326.3 326.1 324.2 320.1 315.4 312.5 310.6 309 305.5 299 293.5 284.3 279 272.7 254.5 246.8 236 234.4 233.6 236 235.6 232.2 223.3 212 219.3 233.5 230.8 191.4 165.2 152.8 139.9 130.2 116.2 106.1 100 94.8 89.8 86 80.8 75.4 72.8 67.8 63.6 61.6 57.4 54.9 53.4 50.3 45.8 46.2 42.3 44.6 37.1 37.8 36.1 34.5 32.7 34.2 27.2 30.4 31.1 31.7 34.5 34.1 34.8 36.6 37.6 38.1 37.8 37.6 37.4 36.9 36.8 36.5 36.3 35.6 35.1 34.6 34.2 33.8 32.9 32.4 31.6 31.2 31.7 31.5 31.2 30.8 30.8 30.9 31 31.1 36.5 45.9 50.1 53.3 56.5 59.3 60.7 63 64.8 65.2 62 60.7 59.1 58 56.6 55.2 53.9 54 53.6 55.4 52.6 53.6 57 59.9 63 61.8 57.2 52.7 49.2 44.3 38.4 35.3
218.1 223.3 234.1 243.8 246.3 250.6 258.1 261.4 267.8 272.4 281.9 291.4 303.9 318.5 343.5 360.4 366.6 365.9 364.1 361.3 354.9 349.4 342.3 330.2 314.2 312.7 316.1 318.7 322.2 326.9 326.7 327.3 331.5 331.8 332.5 334.6 334.8 333 330 329.3 327.8 324.6 322 331 337 340.8 341.9 341.3 341.4 343.2 346.6 352.2 355.9 358.2 358.9 351.8 349.2 350.6 352.3 356.2 363.8 367.8 371.1 372.5 372.5 369.8 366.4 364.2 361.7 359.5 355.3 349.8 344.7 339.1 335.1 332.4 331.1 331.4 328 322.6 317.1 313.4 310 308.5 305.6 300.1 293.6 288.4 280.3 272.4 263.2 246.1 237.9 233.3 232.8 232.5 233.5 231.3 224.2 211.3 201.5 216.1 231.4 205.1 173.1 157 142.9 133.6 123.1 112.1 105.9 101.9 94.5 91.3 88.6 81.1 81.5 76.4 70.7 66.3 62.3 58.9 56.8 54.8 51.3 48.1 46.1 45 41.8 39.8 38.2 36.6 33.5 31.5 31.9 27.3 28.1 32.2 33.1 32.2 33.4 35 36.3 37 37.2 37 37.1 36.3 35.7 35.7 35.6 35.3 34.8 34.3 33.8 33.2 32.2 32.1 32.2 31.7 31.8 31.5 31.3 30.9 30.8 30.9 30.9 31.1 36.3 47 50.8 54.7 58.4 60.5 62.9 65 66.3 63.5 60.8 61.1 61.1 60.3 59.4 58.2 56.2 55.4 53.7 52.6 51.4 50.8 50.6 51.4 53.4 55 54.2 52.2 48.1 44.4 41 36.3
208.7 212.7 218.5 228.1 233.9 242.4 252.1 256.4 264.3 267.4 273.7 284.5 301 319 338.7 347.6 353.8 351 346.9 341.5 337.3 331.3 322.5 313.6 309.7 309.3 310.2 312.8 316.6 322.5 323.7 323.7 325 328.7 329.3 330.2 331.3 330.6 327.2 325.2 324.3 322.3 320 327 335.8 340.8 341.7 341.1 339 340.1 343.8 348.2 351.9 357 356.3 350.4 347.7 347.6 348 349.6 358.7 367.5 371.3 371.7 371.3 369.7 367.9 365.8 363.1 361 356.6 352.6 348.2 344 340.2 339.2 337.2 332.4 329.4 324.4 319.2 314.2 308.4 307 305.6 299.6 293.6 289.9 284.7 276.2 266.3 249.5 240.3 234 231.7 231.4 230.2 229.9 226.7 212.6 196 196.1 214.6 216.6 184.9 158.9 144.7 136.5 131.1 119.9 110.9 106.1 100.6 97 93.7 83.9 88.6 84.7 78.6 71.8 68.2 65 62.7 59.5 54.3 52.1 49.2 46.5 44.9 42.4 40.3 38.1 35.8 34.2 31.8 29.3 27.1 25.4 30.5 30.9 32.5 33.9 34.1 35.2 35.9 37 36.9 36.2 35.6 35.1 34.5 34.7 34.6 34.1 33.5 33 31.8 31.8 31.9 31.7 31.4 31.6 31.4 31.1 30.8 30.8 31 31.2 32.4 42.7 48.6 54.7 59.9 60.9 61.8 61.5 61.4 61.7 63.3 63.3 62.1 60.5 61.4 58 56.7 55.3 54.8 53 53.8 47.7 45.3 45.5 46.2 44.6 43.5 44.1 41.7 40.1 36.6 34.5
202.4 205 207.5 214.1 223.9 232.9 244 248.1 256.6 262.3 268.8 281.9 301.3 329.2 344.2 346 344.2 340.1 331.5 321.1 309.1 305.2 303.7 302 302.6 301.9 303.2 305.5 308.1 313.2 317.4 320.2 321 321.5 322.8 324.8 327 326.5 323.9 321.8 321.1 320.4 317.7 323.2 333.2 339 340.8 342.1 340.7 339.3 340.1 343 347.3 351.5 353.4 348.9 346.4 346.1 346.7 347.4 353.4 361.5 365.8 367.8 369.3 370 368.8 367 365.4 362.6 361.4 356.9 353.1 350.7 347.5 343.6 341.3 338.9 333.2 325.5 320.7 317.1 311 305.8 304.4 300 292.9 289.3 285.6 278.6 270.5 259.5 244.5 243.6 236.3 229.6 227 225.4 225 215.2 198.3 186.9 189.7 201.2 191 167.7 147.7 137.6 132.2 125.3 117 111.9 108.3 101.8 96.4 95.9 95.9 91.8 86.5 79.5 74.6 71.1 68.2 62.9 59.9 55.9 52.1 47.5 46.2 45.1 42.9 40.7 40.1 37.8 35.8 35.2 31.6 27.2 24.8 24.6 32.6 33.5 33.4 33.4 33.6 33.6 34.4 35.6 36.2 35.8 35.3 34.8 34.3 33.9 34 33.3 31.6 31.6 31.6 31.5 31.1 30.9 30.8 31.3 30.7 30.9 31.1 31.3 31.5 39 47.6 53.3 57.4 58.2 58.1 60.7 61.3 62.3 63.3 62.7 61.5 60.7 59.9 59.1 57.1 56.5 57.4 54.6 53.6 52.7 46.4 45.1 43.9 42.2 38.1 36.4 37.1 35.9 33.1 32
194.8 198.4 200.3 204.5 213.8 222.1 231.8 238.7 247.9 258.2 267.5 282.7 305.6 333.5 345.9 345.8 339.2 328 320.5 302.6 293.7 291.5 289 290.3 292.8 292.6 294.5 299.2 303.8 306.1 309.2 311.5 314.7 316.2 317.2 318.5 322.7 321.8 319.8 318.4 318.5 317.8 316 320.7 328.3 336 340.4 342.4 340.9 338.4 337.3 339 342.3 346 348.9 347.9 346.3 345.4 345.3 345.3 348.4 353.7 358.1 362.7 366.3 370.2 369.6 367.8 365.8 363.6 361.7 360.5 357.1 355.2 353 349.9 346.5 342 337.8 332.2 322.1 318.5 315.5 306.6 304.1 299.3 292.2 288 284.6 280.4 272.6 264.3 254 256.4 247.2 233.7 225.5 224.1 222.9 222.2 198.5 184.3 182.2 182.4 186.7 177.8 155.5 144.4 137.9 130.4 123.5 116.7 111.5 106 102.5 100.9 101.3 98.2 93.4 87.9 82.7 77.4 73.4 70.8 67.1 61.5 57.3 52.3 48 45.6 44.9 43.1 40.4 39.7 38 37.8 37 31.1 26.2 25.5 24 32.5 32.2 32 31.9 31.9 31.7 32.5 32.3 34.7 35.6 35 34.3 33.7 32.3 31.9 31.1 31.1 31 32.6 30.8 30.6 30.4 30.9 30.7 31 31.2 31.4 31.5 37.6 46.7 51.3 53.5 55 57.6 59.9 60.4 60.8 61.9 62 61.5 60.4 61.7 60.1 58 58.7 58.1 54.8 51.2 51.7 47.4 44.8 41.2 38.2 34.7 32.9 34.5 32.4 29.9 30.4
184.5 188 191.7 195.9 207.5 215.4 223.4 232.5 246.1 255.1 268.7 285.8 314.6 328.9 336.3 338 333.4 318.5 296.2 288.1 281.5 278.9 278.9 280.2 282.1 283.9 288.3 293.6 298.1 301.2 303.6 305.4 305.6 309 312.1 313.5 314.8 316.1 315.8 316.3 315.2 313.7 316.5 319.5 324.7 332.2 335.6 339.5 340.7 338.7 334.7 336.8 338.9 342.6 345.6 345.9 346.2 345.2 344.1 343.6 345.7 349.1 352.7 359.1 366.4 370.9 370.3 368.3 366.2 364.3 362 361 360.2 358.1 356.1 354.9 351.9 347.9 342.7 340 334.9 325 318.7 313.5 304.3 301.6 294.8 287.8 284.2 280.2 277.9 269.5 266.2 268.9 259.6 240.9 230.7 225.4 220.2 218.1 206.4 185.8 175.8 177.2 179.4 177.3 164.1 149 138.1 131.8 125.9 120.4 113.3 112.6 108.8 106 105.8 103.1 99.1 95.7 91 84.8 79.1 76.4 72.6 68.7 64 56.5 51.3 47.6 45.3 43.9 43.2 42.3 42.3 40.3 39 34.2 29.1 26.2 24.1 28.2 29.9 30.5 30.3 30.3 30.3 31.2 30.5 30.7 31.1 32.3 33.9 34.2 34 33.2 32 30.9 31 31.1 31 30.6 31.1 31.3 30.6 30.9 31.1 31.4 31.4 38.6 44.4 48.5 49 52.3 55.5 56.9 58.1 59.5 59 60.2 60 59.6 59.2 57.9 57.6 59.1 60.2 54.4 50.1 48.2 47.2 44.2 39.4 37.3 33 32.5 30.9 32.7 30.4 29.6
179.1 181.4 184.5 190.3 198.9 207.2 219.4 236.4 242 256 270.2 296.6 320.5 328.6 327.8 324 310 296.2 284.3 274.9 269.4 266.7 266.8 269.3 272.5 275.1 281.9 287.3 290.9 295.1 297.6 300.7 301.2 302.5 305.2 310.6 310.8 311.7 312.9 313.4 314 311.2 315.8 318.5 320.9 326.1 332.1 335.3 337 338.5 337.2 335.1 336.7 339.8 342.2 343.9 344.8 344.5 343.3 342.3 344.2 347.4 352.3 360 366.7 372.3 371.8 370.2 366.3 364.2 363.4 361.5 360.4 359 358.6 357.8 355.8 352.1 347.6 344.1 343.2 339.6 329.6 321.8 316.3 308.5 299.7 292.5 289 286.3 284.9 283.6 282.2 280.5 274.8 257 234.5 229 221.4 216.5 207.9 192.6 176.2 170.5 171.3 172 170.3 155.7 142.2 135.2 128.9 120.5 122.6 120.2 114.8 111.5 110.6 108.4 106 101.9 97.8 91.3 88.3 84.2 78.9 74.3 68.2 63.6 56.5 51.3 48.9 45.3 43.7 43.5 43.6 42.8 40.4 37.7 33.2 29.7 26 23.8 26.7 27.1 26.6 26 28.8 29.3 29.8 31.3 31.3 30.4 31.2 34.5 34.4 34.1 33.4 32.4 30.6 30.4 30.4 30.2 30.3 31.4 30.6 30.8 31 31 31.1 37 42.5 43.4 47.2 50.9 52.4 53.5 55.9 56.4 57.1 58.1 57.9 57.7 57.7 56.9 56.8 56.9 53.9 51.5 49 47 46.9 41.9 37.1 35.3 32.9 32.2 35.3 29.5 30.7 29.3
173.4 174.7 179.5 182.9 188.3 197.6 209.4 224 238.1 252.6 263.4 279.1 297 311.3 314.2 302.7 288.9 280.5 271.6 265.2 260.4 257.5 256.3 257.8 261.3 266.6 273 278.7 284.8 288.9 292.1 295.3 296.8 297 297.3 301.1 305.1 307.5 308.8 310 311.9 310.5 314.5 315.8 316.8 319 326.1 331.4 334.4 335.6 336.8 336 332.3 337.1 338.8 340.5 342.1 343.7 343.8 341.7 343.6 346.5 353.9 360.4 365.3 369.3 371 370.6 370.1 366.1 363.3 362.2 360.2 359.1 359 358.8 357.3 356.1 352.7 348 346.9 346.2 342.4 334.6 326.5 320 311.4 303.4 298.3 294.9 295.8 295 294.1 292.9 290.4 270.9 249.5 231.5 223.1 216.2 211.7 196 180.4 168.3 166.2 165.4 166.1 163 151.5 141.4 135.9 134.3 131.9 127.5 122.5 120 116.9 114.4 110.9 107.9 104.1 98 94.8 90.3 84.8 80 72.5 67 62.4 56.7 52.8 48.7 45.5 44.7 43.3 41.1 39.1 38.7 36.4 34.4 32.8 24.3 24.4 24.5 26.5 26.6 26.6 25.5 27.6 27.7 28.2 29.1 29.6 30.8 32.1 33.8 32.8 33.1 32.3 31 30.2 29.9 30.1 29.8 30.6 30.7 30.7 30.7 32 34.7 36.8 41.9 45.8 46.4 48.4 50.5 53.9 54.3 54.2 54.7 54.3 54.3 55.4 55 55.3 54.7 52.3 52.8 50.3 48.3 46.9 41.3 39.4 38.8 34 33.5 33.2 32.7 32 33
169.4 170.7 173.4 177.4 179.3 183 192.6 206.1 220.6 233.8 249.1 259.4 270.4 281.8 286.5 279.6 272.7 267.4 261.6 256.4 252.5 249.3 247.9 247.6 249.5 254.9 263.8 275.3 280.4 283.5 286.7 289.9 291.2 290.6 291.3 294.8 298.8 301.7 304.1 305.9 307.4 310.7 312.7 313.7 314.7 315.7 317.8 323.7 329.4 332.1 334 335.5 334.2 332.9 335.5 337.2 338.9 340.9 341.8 341.3 343.8 348.4 354.4 358.4 362.3 366.6 368.5 369.3 368.9 367.3 364.8 363 361.8 359.2 357.2 358.7 357.8 357.9 357.5 354.4 350 349.7 349.6 347.6 339.9 331.6 321.1 311.5 304.9 301.3 302.4 304.8 305.7 305.5 303.7 291 263.9 245.3 229.5 220.8 215.6 208.2 187.8 171.5 165.7 163.9 163.5 163.3 159.7 152.9 144 142 142 136.5 131.3 128 124.1 120.7 116 111.9 109.3 104.8 100.4 96.1 92 86.9 79.1 70.7 66.7 61.8 56.4 52.4 48.7 47.1 45.4 43.9 43 41.6 41.3 36.9 36 33.8 30.8 23.5 23 22.6 24.2 24.5 24.5 24.7 23.7 23 26.4 26.1 28.8 31.7 33.8 33.4 33.5 32.1 32.2 30.6 30.6 30 29.5 29.2 34.5 31.5 31.7 31.9 35.7 40.2 41.9 41.8 43.8 47.8 47.7 49.3 51 51 50.5 49.6 49.7 49.6 51 49.9 49.2 48.2 47.7 44.8 44.8 40.6 37.5 37.1 36.1 33.4 33.1 33.5 37.5 33
166.1 167.7 170 172.8 173.8 176.3 181.9 190.8 201.3 215.4 230.5 239.7 250.3 261.8 266.3 263.5 259.1 255 251.8 248.6 245.7 242.9 241.3 240.8 241.3 245.2 254.9 266.8 274.8 280.2 281.8 282.2 282.9 285 286.6 288 292.9 296 298.6 300.9 303.1 307.9 311 311.8 312.8 314.4 316.3 319.9 326 329.8 331.9 334 334.6 332.9 332.5 334 335.8 335.9 338.2 340.9 343.9 347.4 353.5 357.4 360.8 364.1 366.1 367.2 366.9 366.1 365.5 364.1 363.2 362.4 361.4 359.4 359.1 359.6 360.1 360.9 358.4 355 354.9 354.1 350.9 343.1 331 319 308.3 305.9 305.5 307.1 310.6 312.5 314 306 284 253.7 238.6 230.9 224.6 223.4 201.8 178.8 166.7 163.7 163.1 162.7 162.7 154.4 150.3 147.1 144.6 142.2 135.6 133.8 129.4 125.1 118.2 115.1 112.6 108.7 105.2 100.9 98.1 93.2 86.3 75.9 71.2 66.4 58 55.3 52.5 47.4 45.9 44.9 43.5 41.4 41.3 40.7 37.6 34.5 32.9 31.8 31.8 27.5 25.4 22.4 22.1 22.7 23.7 22.6 21.3 20.5 21.4 21.1 19.9 30.8 34.5 33.2 33.3 31.2 29.6 30.1 29.9 28.7 31.3 30.3 30.7 30.9 33.3 35.9 37.7 36.4 40.9 44.6 45.6 45.6 47.6 47.3 47.6 46.5 46.1 46 45 44.5 44.1 44.8 44.8 41.3 42.2 39.9 38.2 36.3 35 33.7 33.5 35 32.1 29.4
160.5 163.2 164.4 167.2 170 171.5 175.9 182.5 189.4 199.7 211 223.2 234.1 245.4 253 249.4 245.5 243.3 241 238 236.8 235.6 235.1 234.5 233.6 238.7 247 257.4 267.2 275 276.6 276.3 277.3 279 280 281.3 286.4 291.2 293.7 294.8 299.8 304.3 307.9 309.9 311.4 313 314.6 317.5 321.2 327.6 329.9 332.5 331.7 332.4 330.1 332.7 335.2 337.9 339.9 341.2 343.8 346.4 352.3 355.9 358.8 361.1 363.1 364 365.6 365.4 365.5 365.2 364.2 364 364.1 363.9 363.1 361.2 362.4 363.6 364.7 363.5 360 357.5 356.1 352.5 346 326.7 309.1 306.3 304.6 305 307.4 310.4 313.9 318.8 300.5 270.9 247.1 235.6 234.6 229 226.5 198.2 175.2 166 164.1 164.7 163.8 160.6 158.3 150.6 145.6 142.7 139.9 137.2 131.2 126.6 122.7 119.1 114.8 111.7 109.2 105.2 102.2 97.4 90.3 82 73.5 68 61.6 56.7 52.4 52.9 49.1 45.1 43.1 41.4 41.3 41.3 39.3 35.4 33.3 32.2 29.7 30.5 28.1 25.2 24.7 23.5 21.8 22 21.6 22 23.4 23.3 22 20.2 23.2 30.8 33.5 31.2 28.5 30.4 30.4 29.4 30.9 30.6 30.5 31.8 30.6 31.7 32.7 33 37.7 39.7 39.3 39.4 43.4 45.4 44.8 44.3 43.1 43.1 42.2 41.2 41.6 40.8 39.4 39.1 39.7 39.2 39.6 36.9 34.4 33.7 34.1 33.6 31.2 31.3
155.6 157.4 157.7 160.7 167 166.8 169.3 174.9 181.5 189.4 198.9 208.8 223.3 232 239.9 240.7 237.3 234.9 231.3 229.8 229.2 228.6 227.9 226.9 226.9 232 238.8 248.8 257.3 265.8 268.9 270 270.7 272 272.8 274.9 279.4 285.5 287.7 291.7 297 300.5 304.1 309.6 310.7 311.2 312.5 317.2 319.9 322 327.1 329.2 328.4 331.3 330.7 333.2 335.2 337.3 340.5 341.6 343.7 345.8 351.1 353.6 356.1 358.9 361.1 363.4 364.8 364.8 364.9 365.1 365.5 365.4 365.4 366 366 365.7 365.4 366.7 367.8 368.4 369 364.2 359.4 356.4 353.1 345 319.3 306.3 303.8 300.5 302 304.6 307.8 321.7 310.2 280.7 262.5 243.1 238.1 233.4 235.4 219.5 191.9 172.9 168.9 172.3 174.2 169.5 166.1 161.3 156.1 154 150.6 145 137.8 130.2 123.1 120.3 115.8 113.5 110.5 107.8 104.5 98.8 94.2 85 77 70.3 62.6 57.1 51.3 52.5 45.9 43.7 43.7 43.7 42.6 41.3 41.3 37.6 32.9 30.8 30.9 30.2 27.5 28.1 25.5 24.5 24.2 23.3 23.4 23.8 24 23.6 23.7 22.8 19.4 22.6 28.9 28.3 28 30.7 29.3 30.2 28.5 30.6 30.8 32.7 30.7 30.2 35.6 34.7 36.2 42.8 38.8 37.6 38.7 40.9 43.1 42.6 41.7 41.6 41.2 39.5 39.4 39.1 37.2 37.5 37.6 37.8 35.9 33.3 33.5 32.4 31.6 31.1 29.2 28.6
