ncols 200
nrows 84
xllcorner 210000
yllcorner 771600
cellsize 50
-1.4 -1.4 -1.4 -1.4 -1.4 -1.4 -1.4 -0.9 -0.5 0 0.5 0.9 1.4 1.8 2.1 2.1 2.2 4.4 4 4.9 3.6 2.3 2.2 2.3 -1.4 -1.4 -1.4 -1.4 2.3 -1.4 -1.4 -1.4 -1.4 5.9 6 6.1 6.5 6.3 6.4 6.3 6.3 6.6 6.9 7.1 6.5 7.7 7.5 7.9 2.4 6.5 5.7 2.2 7.2 9.9 8 10.7 13.3 13.3 14.4 15 16.3 18.4 22.9 30.8 30.6 29.6 30.2 32 36.2 38.8 38.4 38.3 38 39.2 40.7 41.4 42.8 44.3 45.8 47.4 48.4 51.6 57.8 65.2 79.5 95.5 106.1 113.2 120.8 131.9 145.4 161.1 176.2 189.1 201.8 215.2 226.7 242 248.4 241.5 231.9 228.8 238.6 244.5 245.3 245.7 246.3 244.8 238.2 226.4 218.9 223.2 224.5 224.5 224.9 229.2 236.6 240.5 244.7 249.1 254.6 259.5 266.8 272.9 276.2 276.8 284.1 294.5 299.5 305.7 310.1 314.7 317.6 322.3 325.9 334.7 342.6 346.7 353.8 362.3 371.1 377.7 389.3 404.9 427.4 446.1 459.7 465.2 469.3 480.6 482.9 490.4 499.5 504.4 493.8 490.3 488.8 490.5 494 498.7 502.3 515.9 522 530.5 531.8 544.5 549.3 558.6 568.6 581.2 593.4 602.3 614.8 621.2 626.9 629.1 633.8 637.5 639.3 640.9 641.5 641.2 641.8 642.4 641.9 647.5 651.7 657.4 663.6 669.1 674.2 679.1 682 684.1 680.5 676.5 664.7 654.3 646.6 640.7
-1.4 -1.4 -1.4 -1.4 -1.4 -1.4 -1.4 -0.6 -0.2 0.3 0.8 1.2 1.7 2.1 2.1 2.1 2.1 4 4.3 4.7 3.3 2.1 2.1 2.1 -1.4 -1.4 2.4 2.2 2.5 2.7 3 -1.4 -1.4 -1.4 6 6.4 6.5 6.4 6.8 6.5 6.3 6.1 6.7 6.7 7.3 7.6 5.9 1.1 1.8 7.5 5.4 6.8 7.3 7.1 7.1 11.6 11.8 12.6 13.6 15.1 17.8 19.2 22.4 27.3 28.8 29 30.4 32.2 37.1 37.8 37.8 37.7 38.2 39.7 41.7 42.2 43 44.3 45.9 47.8 50 58.4 68.2 78.8 93.9 108.5 116.6 124.2 135.1 145.2 159.4 175.1 187.1 200 212.8 226.7 237.9 247.3 249.1 244.6 236.9 232 234.8 238.9 241.7 242.4 242.7 240.9 235.2 223.3 227.3 229 230.5 233.2 234.2 238.7 244.5 247.1 250.7 255.4 261.9 268.5 274.4 280.2 283.9 286.6 290.7 297.4 306.9 312.4 317.8 321 322.2 327.4 332.5 337.1 344 349 354.2 361.7 369.6 377.7 389.2 403.9 418.2 440.6 457.7 472.2 485.9 488.5 501.3 515.4 512.4 511.1 509.5 513.2 508.7 507.2 507.4 514.6 517 523.8 536.1 545.2 549.6 560.3 568.6 574.1 578.2 590.7 606 615.8 620.9 626.6 634.4 637.6 641.5 643.6 645.2 646.7 649 650.3 653.3 653.9 654.7 660.5 667 672.1 676.6 680.8 687.1 691 693.7 692.7 687.7 677.2 668.2 660.1 652.7 645.7
-1.4 -1.4 -1.4 -1.4 -1.4 -1.4 -1.4 -0.4 0.1 0.6 1.1 1.5 2 2.1 2.1 2.1 2.1 2.1 3.2 3.5 2.1 2.1 2.1 2.1 -1.4 -1.4 2.3 2.3 2.6 2.9 2.9 2.6 -1.4 -1.4 -1.4 -1.4 6 6.7 6.4 6.6 6.7 7.6 6.4 7.5 7.2 4.4 1.1 1.1 5.9 8 7.4 8.1 8.9 9.1 10.5 8.7 8.8 11.6 13 13.8 16.6 19.3 21.6 25.7 28.2 28.9 30.1 31.6 35.1 36.9 35.8 37.1 38 39.3 40.8 40.9 42.4 42.3 42.8 45.7 50.7 65.7 77.8 88.3 101.7 116.8 124.5 132.6 141.6 156.1 173.5 186.2 200.5 213.8 227.4 237.4 246.5 251.4 249.9 244.1 239.4 234.5 235 238.8 242.1 242.1 242 240.9 235.5 231.5 235.3 235 235.4 239.7 244.3 248.2 251.1 253.6 257.7 263.2 268.1 274.9 282.6 287.1 288.4 291.3 300.1 306.2 315.6 316.9 321.4 323.8 330.7 336.2 340.8 344.7 348.7 352.4 359.1 362.1 370.6 376.2 394.2 400.1 413.2 433 454.7 476.3 479.8 496.8 515.4 515.6 517 526.1 536.2 533.1 529.2 527.3 526.4 531.9 537.6 545.3 548.7 561.1 564.8 571.4 581.5 586.8 587.6 606.4 619 624.1 628.7 636.5 641.5 645.9 649.6 652.3 653.9 655.4 656.9 659.5 663.1 667.1 670.4 675.5 680.9 685.2 688.9 693.7 699.6 702.9 703.6 700.2 690.4 682.2 678.8 675.8 665.5 659.8
-1.4 -1.4 -1.4 -1.4 -1.4 -1.4 -0.9 -0.2 0.4 0.9 1.4 1.8 2.1 2.1 2.1 2.1 2.1 2.4 2.9 2.6 2.1 2.3 2.7 2.1 -1.4 -1.4 2.3 2.1 2.4 2.5 2.7 2.8 2.9 -1.4 -1.4 -1.4 -1.4 6.2 6.2 6.8 7.2 7.7 5.4 5.1 2.8 1.1 1.1 4.1 7.7 8.6 8.6 9.1 9.5 10.4 10.9 10.8 10.9 10.7 16.8 14.9 14.1 18.1 22.3 25.8 27.2 29.3 30.1 31.1 32.3 33 31.7 32.5 35 34.8 38.8 38.3 39.4 46.1 50.4 54.3 59 70.7 80.1 90.4 105.7 118.9 130.2 137.7 149 169.3 186.4 203 214.5 227.2 237.8 245.5 257.6 267.2 254.2 243.3 238.3 239.2 242.7 245.5 248.6 246.5 243.6 241.2 236 237.3 240.4 239.2 239.5 243.6 248.8 253.1 257.3 260.2 265.7 272.9 278.4 285.7 291.2 292 293.3 298.9 311.2 322.5 325.1 326.8 329.9 334.2 343.4 350.4 353.4 357.6 356.6 359.4 365 371.7 376.6 381.3 387.4 405.5 412.8 428.3 452.2 469.3 484.7 501.7 509.3 513.7 528.6 552.3 564.2 563.6 561.1 551 546.4 548.7 555.2 558.4 565.1 578.4 585.3 590.2 596.5 604 603.5 610.9 624.9 631.9 639 644.7 651 654.6 656.8 660.4 661 664.5 666.7 670.5 675.8 680.3 684.6 688.5 694.2 697.9 701.9 707 710.1 713.4 711.8 704 694.3 691.5 691.1 690.7 683 674.7
-1.4 -1.4 -1.4 -1.4 -1.4 -1.4 -0.8 -0.1 0.6 1.2 1.7 2.1 2.1 2.1 2.1 2.1 2.1 2.1 2.7 2.3 1.7 1.4 2.3 2.7 -1.4 -1.4 2.3 2.1 2.2 2.3 2.5 2.8 2.7 2.7 -1.4 -1.4 -1.4 3.3 3.3 2.9 4.3 5.2 2.2 1.1 1.1 1.1 3.6 7.3 8.7 9.3 9.7 9.9 10.7 11.2 11.2 10.3 9.9 14 21.1 23.8 17.8 15.3 21.5 25.5 25.1 28.8 29.8 30.6 30.6 30.1 33.7 36 37.4 40.4 43 45 48 51.9 61.8 67.8 73.4 74.9 83.9 86.7 105.8 126.7 137.5 148.7 163.8 184.1 198.2 213.7 225.9 233.8 242.9 249.5 256.1 260 246.1 244.2 245.4 247.1 249 254.1 255.1 254.5 249.5 245.1 240 242.6 243.8 243.9 244.8 248.4 252.6 256.9 261.4 265.7 273.2 283.6 289.2 292.7 296.5 296.5 299.5 309.6 325.4 331.5 334.9 341.5 341.9 352.4 365.6 372.9 374.5 373.2 368.2 371 375 385.2 386.6 393.2 393.6 396.4 413 424.8 446 463.9 477.3 486.2 488.8 506 537.3 577.1 585.3 588.7 582.1 573.3 566.4 564.4 572.5 575.9 585.7 593.3 598.4 605.5 610.5 617.8 619 614.3 632.5 640.3 647.6 654 658.8 662.7 664.4 668.1 669.3 674.6 677.2 682.7 688.6 693.2 698 703 708 712.6 716.4 720.7 723.1 724.6 717.1 714.3 707.9 706.9 707.6 705.3 697.8 689.7
-1.4 -1.4 -1.4 -1.4 -1.4 -1.4 -0.7 0.1 0.8 1.5 2 2.1 2.1 2.1 2.1 2.1 2.1 2.1 2.2 2.1 2.1 2.9 2.6 2.4 -1.4 -1.4 2.1 2.1 2.1 2.3 2.6 2.9 2.9 3.1 -1.4 -1.4 2 2 1.7 1.1 1.1 1.1 1.1 1.1 1.1 6.5 6.4 6.9 8.8 9.5 10.2 10.7 11.2 11.8 11.8 11.9 16.9 18.7 20.5 22.6 20.6 19.2 19.5 22.8 22.3 22.7 25.1 28 27.3 32.3 36.4 38.7 40.7 42.6 45.3 47.5 53 61.8 69.4 75.9 84.3 92.8 102.7 111.5 107.1 127.8 142 153.6 172 190.5 203.9 217.8 229.4 235 241.2 246.6 247.8 246.7 247.1 248.3 250 252.7 256.8 262.3 262 259.1 253.7 248.4 242.8 246.1 248.8 249.4 249.9 251.9 255.2 259.1 265.9 272 280.7 290.4 295 298.4 302.4 305.3 308.5 321.1 334.6 342.5 346 352.6 356.3 374.3 384.9 390.8 386.3 383.1 382.7 386.7 390.2 399 400.5 407.1 412.1 406.7 406.7 424.7 438.2 455.6 464 473.1 478.3 496.7 528.9 587 598.7 603.9 601.7 593.7 585.5 581.4 587 592.9 599.4 604.4 610.1 616.8 621.3 628.1 630.8 633.3 637.9 650.9 657.3 664.6 667.6 672 673.9 679.1 680.4 686.2 692.1 696.2 701.9 707.1 712.6 717.7 723.6 729.6 732.8 738.3 739.4 735.6 728.8 723 722.3 721.4 718.3 714.1 705.3 702.1
-1.4 -1.4 -1.4 -1.4 -1.4 -1.4 -0.7 0.1 0.9 1.7 2.2 2.1 2.1 2.1 2.1 2.1 2.1 2.7 2.5 2.3 -1.4 2.9 2.2 1.7 -1.4 -1.4 -1.4 2.1 2.1 2.4 2.8 3.1 3 -1.4 -1.4 2.3 -1.4 -1.4 3.6 3.5 2.6 4.1 4.1 4.4 5.4 6.5 6.8 6.8 9 9.4 10.5 10.4 11.5 12.3 12.8 16 19.4 20.7 22.1 28.2 27.2 21.8 21.2 22.6 23.4 25 26.7 27.9 29.1 34.3 39.4 41.7 43.5 44.5 47 49.8 62 69 76.1 82.4 93.6 104.3 114 123.5 119.9 127.8 143.5 155.5 172.2 195.9 208.8 213.9 221.7 231.6 238.8 242.7 244.7 247.4 248.1 251.6 254.4 257.1 262.2 265.9 267.7 265.2 259.5 252.6 246.7 251.1 253 253.6 255.9 257.9 261 264 271.6 279 289.6 295.8 302.9 309.6 313.7 312.7 317.9 331.1 345.5 352.6 353.5 359.2 376.6 392.2 397.7 397.2 396.4 397.8 398.4 402.9 412.4 415.8 417.9 423.4 428.9 426.3 410.3 415.9 433.1 445.6 456.6 471.1 476 491 519.1 581.6 605.2 612.1 615.4 608.4 601.3 598.4 601.6 603.3 607.4 614.9 620.8 627.3 632.5 637.5 642.2 645.2 647.2 661.2 668 675.1 681.1 683.2 688.3 691.5 693.5 701.2 706.1 712 718.9 723.6 729 736.8 742 747.3 753.6 757.2 755.9 749 742.8 743.9 737.4 733.8 728.1 724.3 715 710.6
-1.4 -1.4 -1.4 -1.4 -1.4 -1.4 -0.6 0.2 0.9 1.7 2.2 2.1 2.1 2.1 2.1 2.1 2.1 2.8 3.2 2.6 -1.4 1 0.2 -1.4 -1.4 -1.4 -1.4 1.3 2.2 2.5 2.8 -1.4 -1.4 -1.4 2.2 -1.4 -1.4 -1.4 4.8 5.1 5.6 6.3 6.1 6.1 6.2 6.4 6.8 8.8 9.7 9.8 10.7 11.2 12.1 13.6 16.2 18.3 20.4 21.3 22.4 23.3 22.7 23.1 23.3 27.3 25.7 27.7 29.9 31.6 33.1 33.4 41.2 41 45.4 45.8 52.1 58.8 67.2 74.1 81.9 91 103.3 112.2 119.1 132.5 139.4 142.7 145.1 150 165.8 181.3 200.9 210.2 216.6 225.2 232.3 239.8 245.1 248.5 252.8 255.7 258.7 261.8 265.8 269.9 272 270.8 264.8 258 255.7 256.4 257.2 259.5 261.9 264.2 267.4 271.5 279.5 289.3 298.5 304.8 309.8 316.7 320.2 320.5 329.9 342.6 354.4 361.2 360.9 376.1 397.9 406.8 405.1 408.1 411.9 415.1 415 419.6 425.3 430.5 434.7 436.9 441.7 441 431.9 413.7 423.1 434.6 446.2 462.1 478.3 489.1 514.9 557 608.2 620.2 624.7 619.5 615.5 610 610 611.1 615.3 622.3 628.8 637 643.9 650 655 657.1 658.5 672.2 680 687.2 692.8 698.4 703 706.7 708.4 714 721.9 727.4 733.2 742.4 749.6 755.2 760.9 769 773.6 774.1 773.8 770.5 767.2 759.2 751.9 750.9 749.4 740.6 729.4 723.7
-1.4 -1.4 -1.4 -1.4 -1.4 -1.4 -0.6 0.1 0.8 1.5 2.4 2.1 2.1 2.1 2.1 2.1 2.1 2.4 3.6 2.9 -1.4 -1.4 -1.4 -1.4 -1.4 -1.4 -1.4 0.5 2.1 2.5 2.9 -1.4 -1.4 2.1 -1.4 -1.4 -1.4 4 1.1 7.6 7.6 7.9 7.5 6.9 7 7.2 8.7 8.9 9.9 10.5 12.3 13.6 17 17 18.7 20.4 21.3 22.1 23.1 21.8 22.7 23.5 25.4 26.9 27.9 29.6 32.3 34.8 38.4 42.2 47 47.4 50.6 56.8 59.7 64.2 73.8 79.6 89 102.8 113.6 120.7 128.1 137.7 147.9 153.8 157.8 164.2 175.6 190.8 195.8 203.3 219 227.6 233.5 240.4 244.5 251.3 259 264.5 261.6 265.9 270.4 274.7 276.8 274.8 269.6 263.1 261.3 261.8 262.5 265.5 267.4 269.7 273.7 280.2 288.8 298.2 307 313.9 317.8 324 329.9 332.2 342.1 349.8 360.7 365.4 376.2 399.7 409.7 415.1 422.1 427.2 434.2 436.7 436.4 434.5 438.3 442.8 446.3 449.6 453.3 453.9 451.3 435.7 424.3 426.7 439.5 449.7 470 485 509.9 545.3 607.9 629.4 630.4 623.4 617.7 616.3 617.2 618.6 624.9 632.8 639.7 647.7 656.7 662.7 667.2 670.9 673.5 683.3 693.1 699.7 705.9 711.1 716.5 719.4 723.9 729.5 736.3 743.7 752.1 760.4 765.9 773.3 782.3 788.9 794.6 798.3 799.3 795.8 791.8 781.9 782.8 775.6 770.8 755.3 741.9 735.1
-1.4 -1.4 -1.4 -1.4 -1.4 -1 -0.5 0.1 0.7 1.3 1.9 2.1 2.1 2.1 2.1 2.1 2.3 2.3 2.7 2.6 -1.4 -1.4 -1.4 -1.4 -1.4 -1.4 -1.4 0.2 2.1 2.8 -1.4 -1.4 -1.4 -1.4 -1.4 -1.4 4.8 6.3 7.6 9.9 8.8 9.9 7.8 4.5 1.7 8 8.5 9.4 10.1 10.7 13.1 17.8 20.4 20.7 22 22.3 23 23.7 24.5 20.6 21.9 24.5 26.3 27.9 29.6 31.4 34.1 37 43.4 47.2 52.4 59 65 73 68.9 68.8 80.8 89.8 98.1 110.6 122.2 127.8 135.1 148.1 153.6 157.5 163 170.4 182.1 196.5 210.7 219.9 224.9 233.5 237.8 242.9 247.6 252.6 260.5 264.6 266.2 270.2 274.7 279.2 281.5 279.9 274 269.5 270.1 268.2 268.3 272.5 272.6 275.5 280.7 288.2 297.1 306.7 313.6 319.3 327 331.9 335.6 341.3 347.8 360 369 377.6 395.1 411.2 422.4 431.2 440.8 447.1 452.8 457 456 455 454.9 458.5 459.6 464 466 466.4 464.6 455.5 453.1 440.5 431.6 442.9 462.7 478.2 498.8 531.4 585.7 622.5 629.6 627.9 625.2 624.6 625.7 627.7 634.1 643.5 652.3 662 669.6 674.9 679.6 683.4 686.7 693.6 705.5 712.8 718.8 725.1 729.2 733.4 739.1 744.9 752.5 761.1 769.1 776.1 786.6 795.1 806.7 813.5 818.9 824.5 827.3 824.9 817.3 812 796.8 792.8 785.5 769.5 755.8 745.9
-1.4 -1.4 -1.4 -1.4 -1.4 -0.9 -0.3 0.2 0.7 1.3 1.9 2.1 2.1 2.1 2.1 2.1 2.1 2.3 3 2.6 -1.4 -1.4 -1.4 -1.4 -1.4 -1.4 -1.4 -1.4 1.8 -1.4 -1.4 -0.8 -1.4 -1.4 4.2 4.9 5.9 7.1 9 10 12.9 11.8 8.6 8.2 8.4 8.7 9 9 8.8 10.3 14.6 18.4 19.8 21 21.8 21.9 22.6 23.6 22.8 20.3 22.4 25.1 27.1 29 31 32.8 35.2 39.9 46.4 53.3 58.2 66 76.6 83 74.8 76.7 88.9 98.5 107.7 118.1 128.6 134.9 141.9 150.3 157.7 164.6 168.6 178.4 193.2 210.8 220.8 229.2 237 240.1 243.7 247.4 249.4 253.4 259.6 264.4 267.6 273.1 279.4 283.9 285.4 283.8 278.4 276.1 275.7 271.3 275.4 279.7 278.9 280.2 287.6 296.3 304.8 312.1 319.4 325.2 330.3 337.2 345.6 354.7 359.4 368.3 379.2 390.5 408.2 420.3 431.8 442.9 453.2 460.6 466.7 472 472.9 477.1 477.9 480 479 481.4 481.2 480 476.7 465.9 458.1 450.8 438.1 448.3 463.5 476.9 494.7 524.6 559.4 606.2 628.5 631.7 634.3 634.7 636.4 641.9 649 656.1 666.8 675.5 681.1 686.1 693.3 697.2 699.7 700.1 716.9 725.1 732.1 737.2 743 749.9 756.1 762.5 771.7 780 788.1 794.8 806.4 818.1 828.9 839.2 844.1 852.7 865 859.8 834.5 823.1 810.7 801.6 788.5 782.6 769.5 761.7
-1.4 -1.4 -1.4 -1.4 -1.4 -0.7 -0.2 0.3 0.9 1.4 1.9 2.1 2.1 2.1 2.1 2.1 2.6 3.5 3.5 3.1 -1.4 -1.4 -1.4 -1.4 -1.4 -1.4 -1.4 -1.4 -1.4 -1.4 -1.4 -1.4 -1.4 3.5 4.3 4.5 5.4 7.7 9.4 10.2 10.5 11 10.3 8.4 8.7 9.1 9.2 10 12.2 18.2 20.6 19.6 17.5 18.2 19.3 20.9 22 23.7 20.2 20.6 22.8 25.6 27.9 29.3 31.7 34.3 38.1 43.7 48.8 55 65.5 70.6 83.3 92.9 88.2 90.2 96.1 107.4 118.4 125.7 134.7 144.2 150.3 156.8 163.1 174.2 176.6 187.5 206.9 223.5 231.6 238.6 245.1 245.7 249.8 252.8 254.9 255.6 261.3 265.6 269.3 275.7 283.4 286.6 287.6 286.7 282.2 281.6 278.3 276.5 283.7 284.2 284.3 289 296.7 306.4 310.9 319.3 327.3 331.3 336.4 344.5 353.8 363.3 368.4 377.7 388.4 404 419 429.3 442.6 455 465.1 473.1 478.6 486.8 490.3 495.1 499.3 500.8 497.8 497.2 495.2 492.4 488.1 480.4 468.6 459.9 446.7 444 457.5 475.3 494.4 513.1 542.9 587.9 620.8 637.4 641.1 643.4 645.3 654 662.6 670.8 680.4 686.7 692.6 699.9 706.7 710.6 713.3 712.2 725.8 736.1 743.8 752 759.4 766.9 773.3 781.2 787.2 794.4 804.3 814.2 825.1 838.5 852.7 865.4 875.9 885.1 897.6 889.9 856.4 840.8 828.9 817.8 801.6 791.5 784.9 766.7
-1.4 -1.4 -1.4 -1.4 -1.1 -0.6 -0.1 0.4 0.9 1.4 1.9 2.1 2.1 2.1 2.1 2.1 2.3 2.9 3.1 -1.4 -1.4 -1.4 -1.4 -1.4 -1.4 -1.4 2.7 -1.4 -1.4 3.1 3.4 3.4 3.4 3.4 4.1 4 7.8 9.6 9.8 11.4 13.2 11.6 9.3 8.1 9.1 8.8 9.3 11.2 14.1 18.6 15.4 16.9 15.4 11.9 13.6 7.6 18.1 19.7 22.6 20.3 23.2 26 28.5 29.7 31.9 36.8 43.5 48.3 55.3 66 76.6 83.4 94.2 100 103.6 103.4 109.9 118 125.9 134.1 143.5 152 158 164.8 171 181.4 187.7 202 222.1 233.8 242.2 246.5 253 253.6 252.4 258.1 260.1 261.5 263 266.4 272.4 277.9 284 286.9 289.2 288 287 286.6 284.2 283.1 286.9 288 288.7 297 307 314.6 323.3 329.3 333.5 338.1 342.7 352.8 361.7 372 380.1 389.4 398 414.7 427.3 439.8 455.6 466.6 476.6 485.8 492.8 501.3 506.1 513 517.3 521.6 519.5 515.8 511.8 513.4 511.3 497.9 484.7 473 458.2 451 449.1 465 487.6 510.3 532.8 566.1 607.6 634 643.6 650.3 659.2 667 677.6 685.6 693 700.2 705.8 712.7 719.7 724.8 727 726.4 738 749.2 757.4 766.5 774.3 783.1 789.6 795.9 802.2 809.8 820.4 831.5 843.9 859.3 875.8 890.9 905.8 917.9 924.3 902 867.1 849.8 841 824.2 813.6 805.1 791.7 772.4
-1.4 -1.4 -1.4 -1.4 -1 -0.5 0 0.5 1 1.5 2 2.1 2.1 2.1 2.1 2.3 2.3 2.9 2.8 -1.4 -1.4 -1.4 -1.4 2.1 2.1 2.1 2.5 2.4 2.6 2.9 3.2 3.5 3.1 2.7 3.5 4.9 9.6 9.9 17.1 16.3 14 12.3 9.7 9.1 9.1 10.2 9.4 14.3 16 16.2 16.4 17.1 16.4 16.4 17.3 7.1 16.3 21.2 22.6 23.7 24.1 26.8 29.5 31.3 33.2 37.5 46.9 56.5 64.4 75.1 85.1 93.5 101 106.1 114.4 117 123.2 130.5 137.1 144 152.2 159.6 165.7 172.1 179.9 191.9 202.6 219.2 237.5 244.3 252.6 258.2 260.9 261.5 254.6 261.9 265.5 267.6 270.9 268 274.8 283 287 290.3 292.1 292.7 292.4 293.3 288.6 288.8 288.9 294.6 297.8 305.2 314.8 322.1 329.6 333.9 338.2 343.7 351.3 363.2 371.7 381.9 389 405 410.4 424.8 437.9 451.6 464.8 477.2 489.8 497.8 506.9 514.7 521.9 528.7 533.5 536.3 536.7 535.9 538.6 543.2 540 518.4 499.1 483.5 476 466.9 461.2 456.9 479.7 503.9 526.3 551 580.7 607.8 641.3 664.4 677 680.7 688.2 695.2 703.3 711.7 719.4 726.8 733.6 737.6 741.9 741.5 751 761.7 768.8 778.4 787.5 797 802.3 808.9 815.9 824.4 835.4 847.7 862.8 881.2 898 916.7 933.5 947.2 954.4 926 892.5 866.2 853.9 834.5 824.8 814.7 793.3 776.4
-1.4 -1.4 -1.4 -1.4 -0.9 -0.4 0 0.5 1 1.5 2 2.1 2.1 2.1 2.1 2.5 2.5 2.8 2.5 -1.4 -1.4 -1.4 -1.4 2.1 2.1 2.1 2.4 2.7 2.3 2.5 2.8 3.4 2.7 2.7 5.6 9.8 11.8 27.5 22.8 17.2 14.1 14 14.6 12.6 11.6 13.9 20.6 20.9 20.4 17.8 17.7 17.5 17 16.6 16.9 7.5 16.2 19.9 22.3 23.9 25.6 28.1 31 33.4 35.7 42.2 53.2 64.3 73.1 84 92.1 101.2 114.8 121 121.5 133 139.4 146.8 151.2 156.2 161.4 166.6 173.2 180.4 194.2 205.6 217.3 234.3 249.3 257.7 263.4 266.1 269.3 265.9 255.7 267 269.1 271.8 272.8 274.5 276.9 285.4 289.8 292.3 294.1 295.8 297.6 294.7 291.8 293.5 291.5 300.5 305.8 311.9 322.5 329.2 333.9 338.4 343.9 353 362.4 374.8 384.7 393.7 399.5 411.1 423.5 438.5 450.7 463.5 475.6 486.8 500.4 511.2 519.4 529 538 542.9 548.7 551.4 554.5 561.2 570.8 571.7 561.9 545.7 524.2 505.5 489.9 478.2 465 458.9 472.8 492 520.5 537.5 562.6 594.4 639.9 676.8 689.2 694.6 701.7 710.5 720.9 729 735.8 740.9 747.2 752.8 756.4 755.8 763.3 774.1 782.2 788.3 796.4 806.6 813.3 821.9 830.8 838 850.3 865.2 881.9 899.8 918.1 936.6 956.1 977.6 979.1 940.1 907.2 882.2 860.9 848.3 835.9 812.7 795.2 778.7
-1.4 -1.4 -1.4 -1.4 -0.7 -0.2 0.2 0.7 1.1 1.5 2 2.1 2.1 2.1 2.1 2.3 2.5 2.8 2.5 -1.4 -1.4 -1.4 -1.4 1.6 1.8 1.7 2.6 2.6 2.8 2.2 2.7 3.2 3.8 6.1 10.8 20.9 23.9 21.3 17.4 14.5 13.9 14 11 12 12.7 15.7 17.9 18.9 17.3 17.2 17.5 17.8 17.3 17 16.9 9.4 20.6 22.4 25.3 26.1 28.6 29.4 32.4 35.7 40.2 50.1 61.8 73.1 81.5 91.3 100 114.2 132.5 137.5 139.1 150.9 158.8 162.6 165.7 166.6 168.8 174.4 182 191.7 204.3 215.7 232.2 246.3 258.7 265.2 268.2 272 276.4 271 267.1 271.1 272 274.4 276.2 278.1 283 287.2 292.3 294.2 295.6 297.4 299.9 295.5 295.7 295 296.5 305 312.2 318.7 326.9 335.5 339.3 346.8 355.6 364.7 374.9 385.6 394.9 402.2 410.2 421.5 434.1 448.6 462.7 476.5 486 497.9 511.2 523.1 530.3 538.8 550.3 557.8 559.6 566.1 572.8 582.9 589 584.8 576 563.5 549.4 525.1 505.1 490.4 477.1 463 467.2 490 509.4 539.9 554.1 596.3 642.5 683.8 702.5 709.6 719 727.7 735.9 746.4 753.6 756.2 761.8 766.2 770.7 769.3 772.3 784.2 793.1 801.1 809.8 818.9 827.9 836.2 846 855.5 866.4 881.3 898.4 918.2 937.2 957.2 974.5 991.7 984 948.6 922.8 895.4 873.6 860.9 841.9 819.6 796.9 782
-1.4 -1.4 -1.4 -1.1 -0.6 -0.1 0.4 0.8 1.3 1.7 2.1 2.1 2.1 2.1 2.1 2.2 2.5 2.3 2.2 -1.4 -1.4 -1.4 -1.4 1.7 2.8 3 2.5 2.5 4 5.7 7.4 8.5 10.1 10.4 14.9 22.2 21.8 16.7 14.5 14 13.7 11.7 13.4 13.4 13.9 14.2 16.6 17.7 16.9 17 17.4 17.6 17.4 17 16.9 16.5 23.1 23.3 27.2 28.9 31.7 31.6 35.1 36.4 45.5 60.5 69.6 85 92 96.8 114.5 130.7 140.7 159.8 170.2 175.7 182.9 182.6 179 176.4 179.9 182.1 186.4 201.7 213.5 227.9 243.3 256 266.1 272 281.8 279.3 281.2 275.8 271.8 269.3 276.3 277.8 278.3 281.5 286.9 289.9 294.3 296.6 297.4 299.1 299.9 299.7 301.8 304.7 307.3 311.7 317.1 326 332 342 346.6 354.1 363.8 373 384.5 393.6 405.1 412.7 419.6 431.5 446.3 459.9 475 486.6 497 510.7 523.3 535.6 545.3 554.2 561.5 568.7 575.6 582.2 588.6 596.9 598.6 593 582.3 573.1 560.1 544.6 524.8 505.2 486.7 467.1 469.7 483.1 505.4 536.8 564.5 591.4 641.6 682.6 712.9 723.2 731.7 741 751.9 762.4 767.2 771.6 777.2 779.3 780.9 782 778.4 795.6 807.1 815.7 824.5 834.1 842.6 853 861.9 871.5 883.5 897.3 916.3 936.2 955.3 973.1 990 1007 996.4 962.8 929.9 907.3 887.6 865.8 846.7 823.3 799.1 783
-1.4 -1.4 -1.4 -1.4 -0.8 -0.1 0.6 1 1.5 2 1.6 2.1 2.1 2.1 2.1 2.2 2.1 2.1 2.1 -1.4 -1.4 -1.4 -1.4 3.3 4.9 5.1 4.9 5.5 6.7 8.6 9.6 11.1 11 11.5 13.6 15.7 15.2 14.3 13.8 12.9 11.8 15.5 16.4 16.5 16.2 16.5 16.3 17.6 17.3 16.9 17.2 17.3 17.3 17 17.1 18.9 26.3 24.1 26.6 28.9 32.1 36.9 37.3 40.2 51.5 66 77.9 94.1 106.4 115.9 132.4 151.4 175.2 200.1 211.2 217.7 211.3 207.5 199.6 192.2 193.1 195.1 199.6 208.5 220.8 236.8 252.1 263.2 270.1 280 286.1 287.2 284.7 281.5 276.4 277.4 274.5 282.6 283.5 287.5 291.1 295 296.9 298.9 300.2 303.4 302.5 303.8 305.5 310 316.6 321 320 329 338.1 346.8 353.4 365 370.9 380.6 391.8 401.7 411.8 421.2 430.5 442.8 456.5 469.1 483.2 495.6 507.1 522 533.5 546.3 559.2 568.4 574.2 582.7 589.9 595.5 603.6 608 606 599.4 587.1 576.4 562.3 552.6 541.2 520.9 497.3 481 471.4 481 502.6 533.3 559.4 592.2 634.7 673.8 711.9 731.5 745.2 760.9 772.8 780.1 783.5 786.4 790.9 791.7 793.6 794.8 794.8 804.6 819.8 829.5 840.5 849 860.4 870.9 878.7 887.4 900.8 916.6 936.5 955 972.3 990.5 1009.8 1025.8 1007 971.7 940.2 916 896.1 876.3 850.8 824.8 799.3 786.8
-1.4 -1.4 -1.4 -1.4 -1.4 -0.7 0.1 0.8 1.5 1.6 2 1.6 1.5 1.3 1.2 1.8 2.1 2.1 -1.4 -1.4 -1.4 -1.4 4.6 5.7 6.5 7.2 7.3 7.8 10.5 10.4 13.6 10.9 10.2 11.6 12.8 13.9 14.9 14.3 11.5 17 15.4 18.5 18.1 18.5 17.5 16.3 16.7 17.4 17.6 16.9 17 17.1 17.1 17 22.7 28.5 29.9 29.2 27.7 29.1 31.3 35.1 39.4 48.4 61.4 71.7 88.1 101.3 114.3 131.3 148.5 177.9 190.6 210.7 234.8 245.4 240.7 228.2 217.5 209.8 208.3 202.3 208.9 220 232.5 244.3 255 264.5 274.8 282.9 288.6 291.3 288.6 285.9 281.1 280.8 277.6 287 289.4 290.1 297.7 298.9 301.5 302.4 304.5 306.5 306.6 308.3 310.7 314.5 322.1 326.3 325.3 333.4 342.3 352.7 362.6 370.7 377.6 385.4 395.8 409.3 419.4 429.2 442.3 453.5 467.3 479.7 494.5 507 518.3 529 544.9 555.4 567.1 576.1 584.4 592.7 600.4 606.5 614.1 617.9 614 607.7 595.6 583.3 572.3 564.1 555.4 535.1 514.1 495.4 474.6 487.4 503.5 531.3 561.8 589.5 627 663 705.6 746.1 764.1 777.5 788.3 794.4 796.4 798.9 800.9 804 805.5 806.8 809.6 814.9 831.9 844.6 854.7 866.7 878.1 888.9 897 904.9 921.8 939.7 956.9 973.4 988.2 1008.4 1025.1 1038.4 1016.9 979.5 952.7 927 899.2 874.8 850.5 826.3 804.8 790.3
-1.4 -1.4 -1.4 -1.4 -1.4 -1.2 -0.5 0.2 0.5 0.6 0.6 0.6 0.4 0.3 0.5 0.9 0.7 -1.4 -1.4 -1.4 -1.4 5.3 6.9 7.5 7.4 7.4 8.6 10.7 12.4 13.4 12.7 10.2 10.1 11.7 13.3 14.9 14.3 14.6 17.4 17 16.7 17.3 17.8 18.3 17.2 17.2 18.2 17.5 17.3 16.8 17.1 17.1 24.2 26.6 28.9 30.4 31.6 30.4 31.7 33.6 33.8 36 42 55.7 66.5 79 95.6 110.7 127.4 144.9 163.3 184.7 205.7 229.1 250.4 267.9 259.1 245 233.1 225.7 220.9 216.9 222.2 232.6 242 249.4 258.2 266.4 275.9 283.1 288.4 290.1 289 287.4 287.4 286.1 281.6 289 294.3 296.6 302.8 303.8 304.5 305.8 311 312.3 312.9 315.3 318.5 322.6 327.4 330.7 331.1 336.8 348 360 369.3 379.3 387.2 395 404.4 415.5 427.7 439.2 454.3 465.2 478.5 494.1 504.4 516.4 529.8 541.3 551.8 562.2 573.9 584.8 592.5 601.7 610.2 617.2 624.2 626.9 625.1 617.9 606.4 595.3 586.2 578.1 567.4 548.9 526.4 505.6 489.6 494.4 511.6 531.5 562.6 587.9 626 668.1 709.2 749.5 776.4 789.6 799.9 805.7 810.8 814.7 816.8 818 819.4 821.1 824.3 824.9 842.8 856.9 869.9 881.4 893.4 906.5 916.3 928.4 944.7 960 975.8 991.9 1006 1024.2 1040.7 1052.8 1027 992.2 959.3 932.3 902 876 848.7 826 811.3 794.7
-1.4 -1.4 -1.4 -1.4 -1.4 -1.4 -1.4 -1.4 -1.4 -1.4 -1.4 -1.4 -0.7 -0.7 -0.4 -0.4 -1.4 -1.4 -1.4 -1.4 5.2 7.7 9.3 10 9.8 10 10 12.5 15.8 14 10.3 9.8 10.5 10.6 14.4 10.2 16.7 17.1 17.3 17.2 16.3 17.2 18.8 17.9 18.1 18.5 18.2 18.6 18.2 21 22.3 24.8 26.7 28.2 31.3 30.5 28.6 30.1 33 34.3 34.1 36.4 51.4 61.7 72.5 84.8 103.8 119.9 140.9 162.2 183.4 201.4 226 247.8 260.8 273.4 271.4 264.2 250.8 243.1 234.7 234.3 239.5 244.6 250.1 255.7 265.8 268.1 277.1 282.7 288.8 290 290.8 291.9 291.4 293.3 289.3 293.8 297.9 302.9 305.8 308.7 308.3 308.5 312 316 320.2 320.9 323.3 329.3 332.5 335.7 337.3 343.9 354.9 368 379.8 385.9 397.1 404.6 415.6 426.9 440.6 451.2 465.9 479.7 489.9 504.3 516.1 528 541 553 563.3 573.9 581.5 592.3 603.8 611.9 621.4 627.8 635.5 639.2 638.1 630.3 618.9 606.1 596 587.1 575.4 560.6 538.9 521.3 505.4 499.9 519.5 532.6 564.6 590.7 625 664.7 701.8 743.2 779.1 798.4 810.6 822.4 826.7 830.2 834.2 834.8 837.1 839.1 841 842.7 852.7 869.6 884.3 897.9 910.6 924.4 935.3 948 964.7 981.7 996.9 1010.4 1024.1 1040.4 1056.1 1062.5 1030.9 996.3 963.7 936.4 907 881.9 856.7 835.9 816.4 798.3
-1.4 -1.4 -1.4 -1.4 -1.4 -1.4 -1.4 -1.4 -1.4 -1.4 -1.4 -1.4 -1.4 -1.4 -1.4 -1.4 -1.4 -1.4 -1.4 5.4 8.2 10.2 10.9 10.2 10.1 10.4 10.5 11.1 12 10.7 10 10.4 10.5 10.2 13.4 17.4 17.5 18.4 17.8 17.4 17.5 18.4 18.6 18.6 19.5 19.8 20.2 20.5 21.4 22.3 22.8 25.3 27.1 29.9 30.7 29.7 26.1 29.1 34 35.4 34 39.3 54.2 66.7 78.2 93.3 113.1 130.4 153.1 176.7 201.5 226.8 258.2 286.9 289 283.9 283.6 279.7 267 260 251.6 254.6 253 257.7 260.4 263.6 268.5 273.5 280.6 282.3 290.2 292 292.3 295.2 296.3 302.1 294.6 293.4 301.5 306.6 309.3 312 315.6 313.8 316.6 319.8 323 328.6 333.8 335.7 339.6 343.3 346.3 354.7 364.6 376.9 388 398.3 407.6 416.2 426.7 440.5 451.2 463.6 476.8 490.6 502.6 512.2 528.2 540.6 552.1 564.7 573.2 581.9 591.4 603.2 612.5 625.6 633.5 641.4 646.9 649.6 651.2 643.8 634.5 619.5 607.9 595.5 587.4 569 548.2 531.1 517.6 505.2 519 535.3 559.5 587.2 619.8 659.8 695.2 734.8 779.8 809.9 823.3 834.7 842.6 848.2 852 852.1 852.9 856.1 857.8 859.8 861.2 880.9 898.4 913.5 926.3 940.2 951.5 968.5 984.9 1000 1015.7 1029.8 1041.5 1056 1070.9 1071.6 1039.2 1004 970.6 940.7 914.9 887.9 863.3 840.1 824 808.8
-1.4 -1.4 -1.4 -1.4 -1.4 -1.4 -1.4 -1.4 -1.4 -1.4 -1.4 -1.4 -1.4 -1.4 -1.4 -1.4 -1.4 -1.4 4.9 7.2 8.6 9.9 9.9 9.8 9.6 8.9 9.7 10.4 9.5 9.6 10 10.5 10.8 11.8 18.1 21.1 20.3 19.8 18.6 17.9 18 19.3 19.6 19.4 20.5 20.7 21.4 21.6 22.4 23.4 23.4 25.2 26.4 29.5 27.2 26 27.6 29 30.8 33.1 34.7 46.3 57.1 70.8 83.6 100.6 119.9 139.8 165.1 194.5 229.1 259.4 286.9 302 311.5 298.4 293.8 285.3 277 272.2 270 272.7 269.5 272.9 269.9 269.8 274.3 282.3 284.9 288.6 289.3 294.3 297.2 298.7 300.9 304.1 301.1 301.8 303.4 310.1 313.8 316.7 317.6 320 320.7 326.1 331.5 334.5 340.5 343.9 346.3 350.6 353 363.6 376.6 387 397.9 410.8 422 429.2 437.9 451.7 462.9 472.7 482.9 497.3 513.8 526.6 535.9 549.2 560.5 572.6 580.4 589.5 602.2 615 626.1 636.2 645 652 657.1 663.2 664.1 660.9 649.2 635.6 627.8 614.9 599.2 581.6 557.9 538.5 523.5 509 517.7 533 554.7 580.4 613.1 650.5 687.7 729.7 771.5 814 838.2 848.7 857.5 864.5 868.7 870.4 869.7 872.1 875.4 874.9 873.9 893.4 910.4 927.2 943.7 958.8 973.9 990.1 1006.6 1023.4 1036.5 1048.8 1059 1073.4 1086.1 1080 1047.2 1010.6 976 941.6 914.5 888.6 866.8 844.8 830 814.5
-1.4 -1.4 -1.4 -1.4 -1.4 -1.4 -1.4 -0.7 0.1 0.3 0.6 -1.4 -1.4 -1.4 -1.4 -1.4 6 -1.4 -1.4 6.7 7.9 8.9 9.6 9.7 8.9 8.6 9.5 9 9.2 9 9.3 10.4 11.2 15.9 18.4 20.7 21.8 21 20.4 19.4 19 19 19.6 19.4 20.3 20 21.3 22.6 24 23.4 22.5 22.7 22.8 23.1 23.7 25.1 28.2 27.9 30.3 34 38.7 48.9 62.9 76.6 91.2 106.9 126.5 149.6 179.5 208.3 249 284.2 303.9 318.5 321.5 309.3 302.7 296.5 288.8 283.9 284 286.3 284.9 283.5 281 281.3 287.3 293.9 292.8 294.4 294.9 298 299.4 302.8 304.9 306.3 306.4 308.5 307.6 311.2 316.8 319.2 322.2 323.7 325.2 328.9 334.5 341 348.7 350.2 351.6 356.9 361.5 375.1 387.5 400.3 412.3 422.4 431.8 440.9 448 460.1 472.8 484.7 499.1 508.8 519.4 529.9 548.4 558 569.8 581.4 591.5 602.9 614.8 628.4 638.6 648 658.3 664.6 667.3 675.7 682.3 678.1 661.7 644.9 631.6 618.7 601.8 586 563.6 545.2 529.9 511.7 519.7 532.6 552.6 575.7 607.3 643.3 682.9 722.8 769.4 813.6 845.8 859.3 869.5 877.1 885.2 888 886.9 889.3 891.1 891.2 891.6 906.3 925.9 943.9 958.9 974.9 991.8 1009.2 1028.5 1044.1 1057 1066.7 1076.1 1088.2 1100.2 1076 1039.6 1000.7 967.3 940.5 915.2 891.9 869.2 848.1 832.6 822.1
-1.4 -1.4 -1.4 -1.4 -1.4 -1.4 -1.1 -0.1 0.9 1.4 1.9 3.8 3.7 4.7 5.1 5.4 5.3 5.1 -1.4 -1.4 -1.4 5.4 5.4 7.3 10.7 9.1 9.5 9.4 9.4 9.5 10.1 11 13.8 14.9 19 21.8 22.4 21.4 21.8 19.5 19.6 19.4 19.4 19.5 20 19.3 20.6 21.6 22.9 23.6 21.6 21.7 22.3 22.3 23.1 24.1 26.7 28 31.9 36.8 43.6 54.3 67.7 83.6 102.3 120.6 134.8 159.5 191.3 227.5 265.1 291.3 309.5 322 328.8 326.5 329 314.7 306.1 300.6 298.6 299.1 298.6 296.4 297.4 294.7 298.3 301.9 301 302.3 305.9 306.2 307.2 308.1 311.7 312.1 310.5 314.1 316.3 312.3 317.8 322.7 324.9 328.9 329.6 333.1 339.4 347.4 355.5 359.6 359.1 362.4 373 386.9 398.3 414.2 423.9 430.9 437.7 448.2 458.6 469.2 480 494.4 505.2 518.2 526 539.4 553.7 566.7 578.5 588.7 603.5 616.1 627.4 638.7 650.2 661.8 667.9 672.3 681.8 690.1 693.1 690.5 674.5 654.2 639.1 623.1 606.4 588.6 567 549.8 537.8 518 521.8 538.7 552.9 575.5 606.8 643.8 679.5 714.9 758.3 803.2 842.8 865.3 881.7 892.9 903.6 906.5 906.9 908.8 909 909.4 909.7 918.9 940.2 958.5 975.7 991 1009.2 1030.1 1047.8 1061.9 1074.1 1083.9 1093.5 1103.6 1091.3 1047.6 1014.8 986.6 960.8 935 913.2 893 872.5 851.4 841 827.9
-1.4 -1.4 -1.4 -1.4 -1.4 -1.4 -1.4 0.4 1.6 3.9 5.2 4.6 4.7 4.5 4.8 4.9 4.9 4.9 5.6 5.1 -1.4 3.3 4.7 6 8.4 10.3 10.2 10.4 13.3 10.2 11.2 12.4 14.5 16.3 17.6 21.4 21.6 21 20.7 19.9 18.2 19.3 18.6 18.3 18.7 18.6 19.6 20.4 20.5 20.6 20.1 20.7 21.4 21.5 22.6 24 25.8 29 32.6 38.8 50 60.8 74.3 88.5 110.5 129.9 145.5 167.7 207.3 244.9 282 305.4 318.6 330.2 340.3 345.7 344.5 334.2 323.6 316.1 314.6 314.2 313.2 311.1 308.7 309.9 311.4 309.9 310.3 311.8 312.5 313.9 314.5 313.9 319.8 318.8 318.1 316.7 320.4 320.4 318.7 323.1 328.9 332.1 334.2 337.4 345.2 352.6 358.6 364.6 367.6 371.1 383 395 409.8 421.2 430.8 438.4 447.6 459.6 468.1 482.6 491.2 503.4 516.1 527.1 538.6 549.8 562.1 572.5 589.4 601 612.1 623.6 638.2 650.8 664.5 673.4 675.7 684.2 693.2 702.1 704 702 688.4 667.2 645.4 631.8 614.2 594.3 574.4 554.3 539.8 524.9 523.9 535.3 555 577.2 608.2 641.3 678.5 708.6 749.6 787.2 831.6 868.7 890.1 908 916.8 923.1 925.3 927.6 927.8 928.3 928.2 930.2 951.1 969.8 987.9 1006.6 1029.4 1048 1062.3 1077.3 1090.9 1101.8 1111.6 1106.9 1069.3 1036.3 1007 979.8 957.2 933.6 912.1 893.6 879.2 863.6 847.5 826.8
-1.4 -1.4 -1 -0.5 0 0 -1.4 -1.4 4.9 4.8 5 5 4.8 4.9 4.9 5.3 5.2 4.7 6.3 5.3 4.6 -1.4 3.3 4.7 8.4 11.7 8.5 10.5 10.6 11.8 12 15.5 15.5 15.8 16.5 20.2 19.9 18.4 19.2 21 18.3 16.6 15.3 16.1 17 17.9 18.7 19.5 19.5 19.1 19.6 21 20.4 21.6 22.9 24.6 26.5 29.2 34.2 42.7 52.1 63 77.5 90.1 111.6 138.5 158.1 186 208.5 242.2 296.5 325.1 343.2 353.6 360.1 364.5 363.3 354.1 342.1 334 332.7 330.8 328.5 326.7 326.5 322 324.1 322.1 320 324.9 321.9 322.4 324.5 321.3 327.9 326.7 323.2 323.1 323.2 324.6 325.2 324 329.3 335.9 339.9 342.3 347.7 357.8 365.2 369.2 374.3 382.4 394.4 403 418.1 428.1 438.8 449.4 458.4 470.3 480.8 488.8 504.6 515.9 527.8 537.4 548.3 559.6 568.5 582.7 598.2 611.6 624.1 637 649.3 664.4 676.9 684.7 687.7 697.1 704.6 710.5 713 715.1 706.7 677 658.9 642.7 628.4 606.8 582.1 566.6 548.6 533.6 524.6 542.8 558.4 577.2 608.3 639.2 671.5 702.4 739.5 778.8 820.2 862.2 894.8 916.2 927.8 934.7 942.2 946.2 947.6 947.9 946 943.1 964 983.2 1000.9 1022.7 1044.6 1062.5 1079.9 1097.9 1109.7 1119.9 1127.1 1089.4 1053.4 1027.6 1003.1 976.9 955.5 939.1 921.3 905.7 887.6 869.6 852.1 832.6
-1.4 -1.4 0.2 0.9 1.4 1.8 -1.4 -1.4 -1.4 4.9 4.8 4.4 4.3 4.9 4.9 4.8 4.6 4.7 5.3 4.8 5.1 -1.4 4.1 4.9 8.2 9.4 11.9 12.8 15.5 16.7 19.3 22.6 19.4 18.4 17.7 17.3 16.8 16.8 15.8 14.5 14 14.8 13.8 15.2 16.1 16.9 17.8 18.6 18.7 18.5 19 20.1 21.7 23.3 24.7 25.8 27.3 30.3 37.5 49 58.8 67.2 82.4 101.5 129.6 141.2 163.2 192.1 220 252.3 301.5 347.1 367.8 378 382.8 386.7 386.8 378.2 361.8 353.1 349.2 347.8 344.9 343.2 342.6 337.9 335.8 337 334.5 334.6 333.9 332.3 333.3 334.8 334.7 333.6 331.6 327.6 327.9 329.4 330.8 332 330.7 333.9 341.4 345.5 352.4 360.5 369.8 377.1 383.1 391 401.7 414.6 423.6 435.8 447.4 459.3 469.6 479.8 489.6 501.4 511.6 528.5 536.9 549.1 558 567.9 580.7 594 607.2 623.3 637.4 649.1 661.4 676.7 686 693.7 699 707.2 714.6 720.6 724.4 724.8 711.2 691.6 670.5 653.5 635.3 616.7 593.1 573.8 559.8 549.9 539.5 547.8 560.3 580.2 603.7 631.2 661.5 697.6 728 767.1 804.5 846.5 891.1 921.4 940.8 951.1 961 966.4 966.6 965.4 963.3 964.3 977.8 998.5 1019.4 1039.7 1060.1 1080.5 1101.1 1115.1 1124.9 1138.3 1115.1 1078.5 1048.3 1022.4 1000.9 982 966.3 949.2 931.8 916 899.6 880.8 861.5 843.8
-1.4 -1.4 -0.6 1 2.1 2.1 2.1 2 -1.4 -1.4 4.9 3.9 4.9 5.1 5.3 5.2 5 5.2 6 6.1 6.9 7.6 1.1 5.4 6.5 9.2 9.9 12.2 22.6 20.8 19.1 20.2 19.7 19.4 18.3 17 16.3 15.9 15.6 10.3 9.8 11.2 13.3 13.9 15.2 16 16.6 17.2 17.4 17.8 18.7 20.5 21.2 23.1 25.4 26.6 29.1 33.1 43.3 54 65.9 73.3 87.9 109.2 137.6 159.8 186.2 200.1 232.6 261.6 317.7 369.9 385 393.4 399.3 409.1 408.1 399 385.9 371.4 367.3 365.5 362.6 358.2 353 354.2 352.9 353.2 346.8 347.7 344.9 343.6 343.3 343.4 344.7 341.6 339.3 334.9 337 334.1 334.9 336.5 335.5 333.9 343.1 348.6 356.7 365.7 373.3 382.2 389.6 396.9 411.6 423.2 435.8 443.7 455.7 468.7 478.2 490.2 504.2 513.4 525.9 536.6 547.5 555.2 567 577.1 593.3 608.5 623.5 637.5 649.9 662.1 677.5 687 695.1 703.4 710 717.2 725 729.4 733.2 734.5 724.6 703.2 677.9 658.8 640.9 625.4 601.2 585.5 570 561.3 556.3 561.1 564.5 583.5 600.6 627.1 652.6 689.1 720.4 755.9 797.6 840.6 877.2 918.9 951.7 968.4 979.4 986.4 987.4 989 987.8 988.3 990.1 1012.2 1034.3 1055.7 1076.6 1097.7 1115.9 1134 1145.4 1155.3 1110.4 1078.3 1046.2 1020.3 1005.3 992.1 976.5 960.8 946.4 930.9 913.4 895.9 875.8 854.4
-1.4 -1.4 -0.9 0.7 1.8 2.1 2.1 2.1 -1.4 -1.4 4.2 4.8 4.8 4.6 5 5.7 5.4 7 6.7 7.3 8.7 9.5 9.1 2 6.1 6.9 10.9 11.5 13.7 11.3 11.2 12 12.2 17.3 15.8 15.9 16.2 15.9 8.4 9.1 8.8 9.4 10.2 11.9 14 14.5 15.6 15.9 16.4 16.8 17.2 21.2 21.1 23.4 25.8 28.5 33.4 37.9 47.8 57.7 67.8 80.2 93.7 117.5 149.7 172.6 201.8 225.2 240.2 271.3 306.1 370.3 396.3 401.2 410.1 418.8 421.5 430.3 407 389.6 384.5 380.8 377.1 376.5 378.7 378.6 376.5 366.9 360.9 358.9 356.9 354.8 351.3 347.9 350.8 349.6 347.9 347.4 342.8 340.6 341.5 341.7 342.3 338.3 344.7 350.5 358 368.5 375.7 382.4 394 407.8 419.9 431.5 440.4 452.6 466.8 479.6 490.2 500.7 514.5 527.7 539.5 546.5 554.6 565.8 576.7 588.5 604.8 620.8 639.1 648.4 662.7 676.4 688.4 697 706.6 715.3 722.6 723.8 734.2 735.4 739.4 741 721.9 702.3 687 668.5 646.1 631.4 611.6 593.7 583.3 570.6 562.8 561.1 567.4 582.1 606.8 621.2 646 679.3 713.1 744.9 786.7 825.4 864.4 907.7 951.7 980.7 998.3 1003.1 1008.6 1010 1011.6 1013.3 1011.2 1029.6 1050 1070.2 1091 1113 1131.8 1146.7 1159.6 1159.5 1117.2 1083.1 1057.2 1038.6 1018.5 1002.8 994.3 982.2 968.5 948.2 927.6 905 886 870.7
-1.4 -1.4 -1.4 0.1 1.2 2.1 2.1 2.1 6.4 5.4 4.5 5.1 5.4 4.9 5.5 6.3 9.4 9.6 8 8.5 9 10 9.3 9.9 10.6 11.4 4.1 4.2 4.3 10.8 4.3 9 9.5 9.2 11.5 11.3 14.2 12.8 7.6 8.7 9.1 9.3 10 11.6 11.9 13.6 14.7 15.2 15.8 16.5 17.9 19.5 23.9 26.6 27.9 29.9 36.3 42 48.4 56.3 66 82.7 98 123.2 145.8 175.4 208.5 242.1 264 286.8 314.5 359 388.1 404.7 416.5 428.7 434.5 445.5 432.6 413.7 405.6 397.6 398 401.7 405.4 411 390.4 382.5 376.9 369.9 370 365.5 359.9 357.3 362.1 361.4 357.7 359.1 352 349.9 349.5 344.7 345 342.7 346.5 355.8 360.3 369.1 379 386.1 395.7 413.9 428 440.4 448.3 460 474.9 487.2 497.9 510.7 526.2 537.6 547.5 556.1 565.6 574.1 590.1 603.1 618.6 635.8 649.5 663.4 676.7 689.2 701 710.3 718 725.1 730.6 733.7 737.5 741.6 744.1 741.6 721.2 701.6 686 672.4 657.5 643.7 623.9 602.7 594.4 580.2 569.3 561.9 572.1 582.8 598.4 617.4 638 667.8 706.1 737.6 771.9 816.3 857.1 899.8 939.7 971.4 995.1 1015 1022.6 1028.9 1033.2 1036.6 1037.4 1046.6 1066 1086.3 1106.7 1125.6 1145.3 1160.3 1171.3 1165.1 1128.2 1102.5 1076.3 1054.8 1038 1036.2 1028.3 1015.3 998 969.8 939.6 915.1 891.8 878.2
-1.4 -1.4 -1.4 -0.4 0.6 1.7 2.1 2.1 5.1 5.6 5.5 5.5 5.7 5.8 8.6 11.3 12.2 9.5 10.2 9.8 10.6 10.9 11.4 11.3 11.5 12 12.7 13 13.2 14 14 12.3 8 5.5 5.2 4.3 4.4 4.5 5.2 7.6 7.7 9 9.6 11.4 13.9 14.9 13.9 14.5 15.6 17.1 19.3 24.9 28.9 28.3 31.7 31.7 39 44 50.7 59 69.1 80.2 99.4 122.9 153.6 186.3 217.7 248.5 274.7 301.2 330.3 349.7 378 402.5 419.1 431.1 450.1 463 451.3 437 427.6 427.7 425.9 427.5 431.5 428.8 400.7 393.3 387.4 379.8 379.3 371.4 370.3 369.2 372.1 371 366.6 367.4 363.8 360.6 357.2 352.3 351.9 353.6 352.2 357.5 365.4 371.8 378.6 390.6 399.7 416 432.6 443 453.8 466.9 480.8 494.3 507.7 522.8 535.2 545 555.9 563.9 574.3 586.1 600.2 617.8 632.1 648 661.5 675.6 686.4 698 708.3 721.9 731.7 738.8 743.8 750.7 755.5 757.3 758.5 752.7 735.5 717.7 702.9 687.4 671.6 657.1 638.7 617.6 603.7 584.5 573.4 567.3 568.4 580.3 593.6 609.1 630.7 659.4 695.8 729.5 760 799.6 840.3 879.4 913.2 937.5 978.5 1016.6 1042.2 1048.7 1054.2 1058.5 1061.5 1066.2 1084 1101.5 1121.4 1139.8 1156.3 1168.1 1178.1 1181.6 1148.2 1115.9 1093.2 1072.1 1055.3 1056.6 1034.5 1014.6 991.5 961.1 935.6 908.6 892.1 876.3
-1.4 -1.4 -1.4 -0.6 0.4 1.4 2.1 5.1 5.2 6.4 5.6 5.9 6.8 8.8 10.8 11.5 11.8 12.1 10.4 10.2 10.5 12.8 19.5 20.7 25.8 25.1 27.3 27.6 31.7 29.8 27.8 24.4 23.1 21.1 17.6 10.7 7.3 6.9 7.3 7.4 5.4 6.9 9.3 12.1 15.5 17.3 16.1 15.8 17.5 18 21.8 26 29 28.8 31.6 33.6 38.2 41.2 51.1 61.6 68 83.5 104.9 136.1 167.4 196.9 232.2 265.8 292.3 322.9 349.9 368.6 376.6 397.3 419.7 439.2 463.6 472.5 464.5 455.9 447.7 447.2 440.4 440.9 442.1 427.1 410.9 404.1 396.2 394.8 387 383.9 379.9 380.2 382 378.7 377.2 375.1 373.8 373.4 368.9 362.6 360.7 362.6 361.8 358 367.3 372.3 377.9 389.7 404.6 416.6 433.4 447.8 459.8 470.3 483.6 498.5 515 531 542.8 552.5 564.9 574.6 586.8 601.1 615.9 631.1 646.1 661.3 674.3 686.8 700.1 711 724.1 735 747 756.1 764.5 770.6 775.5 775.4 775.5 764.4 752.4 734.8 722.6 707.7 684.9 671.1 651.5 634.2 613.1 591.2 578.4 569.7 571.1 576.5 589.7 606.1 623.3 648.9 679.2 715.9 750.9 786.7 824.3 856.9 900.9 939.8 978.5 1022.4 1048.8 1069.4 1072.9 1077.7 1083.3 1089.3 1102 1117.4 1134.7 1152.3 1165.4 1176.3 1182.9 1185.7 1128.7 1084.7 1060.6 1038.5 1009 1007.3 986.5 971 948.3 930.4 913.6 896.3 879.5 865.8
-1.4 -1.4 -1.4 -1.4 0.6 1.9 4.6 5.1 5 6.1 7.3 8.2 8.9 9.9 10.8 16.1 22.2 18.6 13.5 17 28.1 33.9 38.6 42.6 51.7 55.8 56.6 54.6 54.8 56.7 56 52.6 48.5 46.3 44.5 33 26.3 22.3 19.1 15.8 9.7 5.7 6.3 13.9 16.1 17.1 16.5 16.2 17.9 19.8 23.4 27 29.1 28.9 30.5 33.4 37.4 44.6 53.8 62.6 71.4 86.4 111.9 144.6 182.5 220.5 251.3 287.9 311.8 340 365.9 381.4 392 399.7 429.7 450.2 474.3 473 465.2 461.4 456.9 454.2 447.8 445.7 440.9 437.3 422.2 416.4 410.1 409.8 402.1 402.3 394.6 391.3 393.2 389.1 389.2 385.8 386.1 382.9 379.8 375.6 372.9 370.9 370.5 369.4 364.1 371.8 377.6 387.7 403.5 417.2 432.2 452.7 464.3 476.7 490.1 504.8 522.6 538.7 551.9 563.3 574.4 585.8 599.7 616.1 630.1 643.7 658.5 673.1 686.8 699.7 713.1 727.1 736.6 750 761.7 772.1 782.3 790.9 794.1 795.9 795.7 779.2 764.8 748.3 735.5 724.3 707.2 685.9 666 644.9 624.4 604.4 585.6 573.5 569.7 575 584.2 597.4 618.2 642.9 668 700.3 743.9 776.4 814.8 850.7 893.8 942 968.4 990.8 1031.2 1065.4 1086.8 1095.1 1100.1 1108 1118.3 1131.7 1146.7 1162.7 1173.2 1181.4 1187.3 1191.3 1108.7 1063.8 1038 1013.5 979.1 965.1 950.7 938.1 915.5 900.5 885.2 877.9 868.1 861.4
-1.4 -1.4 -1.4 -1.4 1.6 3.8 3.5 5.3 5.8 8.6 8.6 10.4 11.2 12.4 19.3 25.8 32.7 24.2 26.9 36.3 42 46.2 48.8 59.3 72.2 79.9 80.8 79.2 72 68.4 67.6 63.9 61.3 59.8 59.3 52.7 49.5 42.3 33.8 27 14.4 11.3 5.6 15.3 16.1 16.8 16.7 16.3 17.5 20.1 20.7 22.3 28.1 27.7 31.4 34.2 39.5 49.8 61 67.3 73.1 91.4 117.6 148.2 181.2 221.2 267.5 308 333.3 358.6 378.7 394.2 414.1 420.2 428.4 448.9 461.5 460.5 463.3 467.7 469.6 458.9 450.3 448.4 449.4 445.1 434.9 426.8 424.2 424 421.2 414 408.6 406.5 405.1 400 399.8 398.9 396.4 392.5 390 388.5 384.3 381 381.1 378.3 372.3 371.6 379.6 385 397.1 415.8 429.9 450.2 465.7 480.6 494.7 510.2 529.3 546.5 562.2 573 584.5 598.7 615.6 629.1 645.3 657.6 672.4 685.2 698.7 714.2 726.9 740.2 753.6 767.3 777.2 788.7 799.9 809.3 816.3 818.8 816.7 797 783.4 765.5 753.5 743.8 731.3 708.1 684.7 657.7 635.6 613.2 596.3 580.4 572.6 574.5 578.9 592.7 610.4 630 657.5 677.9 720.8 765.2 799.7 840.6 886.1 912.4 941.1 981.4 1013.9 1045.3 1082.7 1108.4 1114.8 1122.3 1130.9 1142.5 1157.1 1169.5 1179.2 1186.4 1190.6 1166.3 1088.5 1052.4 1020.7 993.7 964.4 941.1 923.1 903.4 886.3 873.5 864.9 861 853.4 844.4
-1.4 -1.4 -1.4 -1.4 4.2 3.9 6.6 8.7 10.4 8.9 11.6 12.3 15 22.5 29.8 35.8 38.7 32.6 41.4 48 50.3 53.2 62.5 73.1 79.1 85 87.5 87.9 86.8 80.4 76.6 76.1 72.2 71.8 67.3 61.9 56.1 47.5 39.5 29.7 18.4 12.9 5.8 14.2 13.1 13.4 14.5 16.4 18.1 18.8 23.2 24.4 27 28.2 31.4 34.3 38.7 47.9 58.8 70 82.5 99.8 125.1 157 188.5 234.4 285.9 325.2 356.1 375.7 392 412.7 421 429.1 435.1 440 443.1 447.4 450.8 460.6 464.1 457.8 459.9 462.3 452.5 451.1 447.4 434.6 436.5 436.6 430.6 424.2 420.2 421.1 417.2 414.9 413.6 411.1 405.3 406.5 404.6 398.6 395.2 391.9 389.1 386.7 376.7 371.8 378.2 383 395.6 410.5 428.1 445.3 462.5 482.6 499 515.1 534.3 555.2 569.6 581.8 597.4 614.3 629.7 644.6 658.6 674.3 687 697.2 711.1 727.5 739.6 755.7 768 780.6 794.1 807.9 820.3 830.6 835.9 841.3 839.1 818 801.3 785.7 769.4 760.7 746.4 727.8 705.1 675.1 649.7 626.5 606.1 587.2 579.7 576.2 579.9 587.3 604.8 624 646.8 673.9 701.5 749 787.9 827.8 858.3 898.9 929.9 963.4 1003.9 1045.6 1081.3 1102.3 1121 1130.8 1139.7 1151 1162.5 1173.1 1182.2 1188.8 1191.7 1136.6 1074.2 1042.1 1010.1 976.2 949.5 926 907.4 884 863.7 856.6 854.8 850.5 846.4 835
-1.4 -1.4 -1.4 4.3 5.3 6.8 8.1 11.4 13.7 14.2 18.9 23.9 28.4 36.8 40.5 43 43.4 44.3 51.7 53.3 53.7 73.9 83.3 87.2 87.8 93 98.2 101.9 105.3 100.5 87.8 80.2 77.8 79.3 76.5 69.7 62.2 53.6 42.5 29.5 19 13.8 7.6 10.4 12.5 15.4 16.9 18.5 19.6 20.2 21.8 23.3 26.3 28.3 30.2 34 39.7 48.1 60.8 73.6 87 106.6 123.1 154.5 194.9 242.3 292.7 335.6 372.4 398.3 408.4 418.8 425.5 432.2 443.9 452.3 449.8 450.3 450.2 453.1 457.2 463 465.5 463.1 460.4 457.5 454 445 448.9 445.2 438.4 433.9 430.5 429 428.4 426.7 425.3 422.5 422.9 417.9 416.1 411 405.3 403 399.4 393.1 381.5 374.7 380.8 387.3 394 402.5 417.8 437.5 458.5 482 501.9 519.8 538.9 557.6 576.2 592.5 612.5 626.6 643.3 657.4 672.8 685.9 699.7 712.5 725.3 737.9 755.2 768.7 782.5 799.4 813.5 828.5 842.4 852.6 859.1 865.7 868.2 840.6 819.8 802.8 787.5 774.7 760.4 747.9 729.9 702.3 667.3 641.1 614.7 598 584.9 577.5 581.1 585.9 597.9 612.5 634.2 662.6 691.5 723.5 771.2 810.3 842.4 884.9 928.4 971.8 996.5 1021.3 1050 1087.8 1108.1 1127.3 1142.9 1155 1167 1176.2 1184.5 1190.6 1192.9 1137 1063.6 1033.7 998.9 967.6 938 913.3 895.7 872.3 851.9 847.4 843.1 842.2 834.6 822.2
-1.4 -1.4 4.9 5.6 8.4 9.7 14.3 17.5 19.9 21.8 27.4 32.5 40.7 46.4 53.6 49.7 48.3 53.4 56.8 58.1 70.7 84.7 94.4 105 110.1 117.9 126 127.7 136.9 133.7 117 104.6 103.2 92.8 90.4 86.7 78.3 68.8 56.9 39.9 22.1 13.5 7.9 10.7 13.1 13.9 16.5 20 21.7 21.7 20.6 22.3 27.9 29.8 31 35.2 43.5 52.8 64.5 78.6 95.8 111.7 135.6 169 207.8 245.5 297.7 341.6 379.2 399.9 408.4 420.4 428.2 440.3 447.9 457.4 463.6 458.4 457.6 456.2 457.1 463.6 470.8 481.1 468.7 463.7 459 455.6 454.9 449.6 445.9 443 436.7 437.1 438.5 437.7 437.8 437.5 437.1 431.8 429.1 423.7 418.1 413.4 408.7 397.1 386.7 379.4 376.5 388.1 389.3 399.8 411.1 428.4 452.6 477.5 502.5 522.9 542.6 562.8 583.6 601.3 621.1 635.7 655 672.5 686.4 698.2 713.3 723.3 735.3 752.8 768.5 785.5 799.4 819.2 834.7 851.3 863.9 875.1 885.8 895.1 896 860.8 838.1 815.2 800.5 788.2 774.3 763.4 750.4 727 690.8 658.2 632 611.2 595.7 587.6 583.5 588.5 594 604.8 627.6 651.5 681.6 710.7 752.8 795.7 833.1 875.3 921.4 936.8 965.3 1009.7 1038 1059 1090.1 1122.2 1146.1 1161.6 1173.7 1181.8 1189.1 1194.8 1189.1 1106 1062.2 1028.2 995.8 963.7 932.2 906.9 880.2 858.1 842.1 838.9 837.6 835.6 826.5 805.6
-1.4 -1.4 5.5 7.6 11.2 15.4 26.4 26.4 30.5 32.3 38.7 44.3 48.3 59.8 63.2 61.5 58.5 59.4 65 71.1 84.6 98.6 122.3 149.4 164.1 165.4 154.8 154.4 157.2 160.9 155.8 157.3 143.6 120.4 109.2 96.6 86.4 79.5 64.5 42.5 25.4 15.9 12.1 10.5 10.5 12.4 16 19.4 21.4 22.4 19.2 21.3 25.1 27.3 30.2 36 46.8 61.5 73.8 90.6 101.9 124.7 147.6 179.5 210 259.2 316.6 358 386.4 406.8 412.3 427.1 434.7 443.2 456 460.4 469.9 462.8 464.2 464.7 463.7 464.8 467.7 470 469.8 464.4 459.2 457.6 457.4 455.4 453 446.7 446.1 447.6 450.2 449.6 449.4 448.6 448.2 446.6 444.3 440.7 430.8 422.2 414.9 402.5 392.5 383.8 380.6 382 391.8 399.8 410 424.5 448.1 469.9 497.2 519.9 541.2 566.4 586.9 608.6 629.9 647.4 665.4 681.4 697.7 711.4 722.2 735.3 754.7 769.8 784.4 802.1 820 836.6 856 870.8 884.7 899.4 909.7 918.7 919 880.5 852.7 831.2 817.4 805.2 792 778.1 766.6 741.9 716.1 684.3 653.5 631 611.1 596.6 592 587.6 593.2 604.8 620.8 640.7 671.7 701.1 738.5 779.2 817.7 851.6 877.6 921.9 959.7 984.8 1005.2 1046.2 1088.4 1126 1154.3 1170 1180 1188.4 1194.4 1198.8 1157.5 1099.4 1068.5 1038.2 999.1 965.1 934.2 908.6 879.6 855.3 844 838.9 838.9 838.9 829.5 807.5
-1.4 5.7 7.7 16.7 23.2 30.3 36.7 38.3 40.8 44.6 46.8 52.2 57.1 63.7 66 67.5 65 65.4 74.5 83.8 98.1 116.2 146.3 172 197.5 213 200.1 196.6 184.6 189.1 203.1 196.3 171.2 145.4 135.6 112.7 92.3 84.1 69.5 47.5 33.7 19.8 13.4 9.1 11.8 13.9 15.7 18.2 20.7 19.6 18.2 18.9 24.2 25 28.3 34.3 46.5 65.1 80.6 94.2 115.8 134 159 185.6 225.6 278.6 331.3 369.1 392.7 411.8 427.2 437.3 438.5 446.8 452.1 458.8 466.1 466.6 466.8 465.8 464.6 464.2 463.6 463.6 461.5 460.5 459.4 459.4 460.4 457.8 454 455.7 455.9 459.4 459.7 456.5 457.9 463 463.9 465.5 464.5 457.8 442.8 431.1 422.2 409.6 396.1 386.4 385.8 384.1 395.6 398.3 407 425 447.5 470 487.7 511.7 540 565.8 590.7 614.4 636.3 655.5 675.4 693.3 708.5 722.2 733.5 753.4 767.4 785 799.3 819.7 837.4 856.9 875.4 892.1 908 922.4 934.2 942.5 932.8 898.8 871.4 852.3 836.3 821.2 810.1 795.9 776.2 758.8 740.7 711 681.9 656.4 630.9 610.6 600.6 591.3 593.1 602.4 616.7 634.7 658.3 688.3 719.5 755.8 796.2 830.6 868.5 907.3 924.9 976.1 1014.9 1053 1093.8 1119.3 1151.1 1173.3 1185.9 1194.1 1199.5 1201.5 1132.5 1097.8 1066 1032.4 1002.6 975.4 951 920.7 886.6 860.3 844.9 840.5 839.9 847.3 844 844.1
6.8 9.6 12.6 23.7 32 39.4 42.9 45 46.8 52.1 54.7 61.4 64.1 71.9 72.6 73.3 63.6 76.4 88 97.9 112.6 137.5 162.3 188.2 213 230.1 236.1 233.1 227.9 225.7 226 220.5 199.5 179.9 152.3 128.5 104.7 89.4 73.7 54.2 36.5 22.5 16 9.4 12 13.1 15.5 17.9 17.8 17.8 17.5 19.6 20.6 26.5 30.1 33.7 42.2 62.9 84.7 102.6 121.9 138.5 166.9 198.5 240.7 294.4 338.3 380.9 404.3 426.3 438.1 446.5 448.4 449.3 453.3 458.2 465 465.1 466.4 466.5 468 466.6 464.3 464.8 463.8 460.4 460.7 463.9 463 463.2 461.4 464.9 465.8 467.3 468.6 465.9 467.3 473.3 479.7 487.2 479.2 466.6 456.1 443.2 427.4 416 401.5 390.5 388.9 387.4 389.5 401.7 408.1 422.5 443.4 462.9 483.2 502.2 533.3 559.9 584.5 611.9 638.2 662 684.5 701.6 719 733.7 748.8 764.6 784.4 797.5 816.3 838.2 856.5 873 894.3 911.2 924.8 942 954.6 963.4 948.7 916.2 891 870.3 853.8 838.7 826.2 805.1 785.7 770 750.1 730.6 699.7 675.5 651.7 627.5 610.2 603.6 596.7 599 612.1 627.8 651.5 678 696.3 733 777.8 813.3 847.1 887.6 927.1 970.5 1009 1034.9 1067.8 1094.5 1131.6 1166.4 1186.9 1197 1202.2 1185.9 1146.9 1111.1 1081.4 1048.2 1025.7 989.5 966.5 942.7 906.9 873 858.9 856.2 853.9 853.9 875.5 869.6
10.8 13.3 26 32.6 38.6 45.2 47.9 50.5 53.9 57.4 62.5 65.3 70.9 77.8 78.1 75.8 75.5 88 96.8 111.1 136 160.4 187 207.4 228 245 252.6 250.6 253.9 253.7 246.8 231.3 215.3 197.5 164.6 139.8 113.4 96.4 76 57.8 42 26.2 18.1 13 8.5 13.2 16 17.5 18.1 17.7 16.6 18.4 20.7 25.7 31.3 36.1 43.9 59.8 83.8 108.7 125.3 147.8 177.4 209.3 256.9 298 348.5 390.6 420 436.9 453.7 452.7 449.8 449.4 456.6 459 461.1 463.5 468.1 470.7 474.7 472.4 472.9 468.9 468.4 467.1 466.3 468.1 468.2 465 467.5 470.7 473.2 477.3 475.2 480.6 482.2 486.9 493.3 493.3 487.8 480 468.3 452.6 436.3 421.2 407.4 398 396.4 396.8 395.2 405.3 410.4 420.6 435.4 455.6 475.5 495.2 522.9 550.1 576.8 606.6 634 663.9 689.3 710.9 727 743.9 762 781.1 796 810.4 828.5 851.1 870.4 887.5 906.6 925.9 943.4 957.2 972.2 981.6 970.3 940.1 913.7 890.4 871.2 853.5 831 811.6 791.3 775.3 759.1 740.4 725.1 698.2 673.9 647.6 627.6 618.2 605.8 598.9 607.7 624.5 646.3 661.4 683.6 715.2 762.1 804.2 839.9 888.2 923.9 953.3 976.6 1019.1 1059.3 1079 1114.3 1149.3 1180.3 1200 1204.9 1206.2 1184.7 1123.4 1095.1 1071.5 1047.8 1014.8 993.7 968.4 935 902.2 883.1 878.1 870.7 879.8 894.1 881.8
13.5 27 33.6 38.9 45.7 51.8 54.5 57.4 61.2 63 67 70.8 78.2 83.2 81.5 74.4 87.8 99 111.3 136.5 154.3 178.7 201.9 217.9 240.8 258.8 266.5 265.1 263.7 263.6 255.6 237.1 232.9 213.1 181.4 156.5 128.8 103.1 81.6 62.9 47.4 26.2 18.4 13.1 11.7 12.8 15.2 17.9 17.9 21.2 16.5 18.9 21.7 25.4 33.5 38.2 47.7 64.5 83 101.5 124.8 152.6 183.1 218.7 261.5 309.6 357 401.3 430.8 449.8 457.5 456 453.4 453.6 456.1 459.7 460.6 461.1 467.3 473 478 479.2 479.4 475.9 475.9 476.6 476.3 476.2 474.8 471.5 474 476.8 481.8 484.4 485.4 492.1 495.5 500.7 504.3 499.4 497.8 487.5 478.7 462 444 429.5 416.6 407.4 402.3 403.8 403.7 401.2 415.5 420.3 432.9 449.6 467.3 485.2 508.8 538.1 566.6 600.4 631.7 661.3 691 713.7 735.8 754.4 771.9 789.5 806 823.3 841.5 861.7 880.1 895.9 919.4 936.9 955.8 968.7 982.1 992.4 993.7 965.5 937.8 911.1 886.5 856.8 832.4 813.1 795.1 779.3 768.6 755.8 741.5 718.9 696.5 669.2 643.9 630.6 612.9 600.9 609.9 622 638.7 652.2 676.4 705.5 749 785.8 825.8 862.9 899.7 942.7 967.2 996.9 1017.6 1052.1 1096.3 1138.8 1178.1 1202.6 1207.3 1207.2 1204.4 1149.8 1114.9 1089.1 1068.5 1042.4 1019.4 995.7 964.6 932.7 914.6 905.5 900.8 911.5 911.3 896.7
24.8 34.1 38.6 44 50.5 59.2 66.4 68.1 67.4 70.5 73.2 77.1 82.9 88.4 84.7 85.8 98.1 109.9 129.2 147.9 165.9 192 219.3 242.2 261.9 274.2 271.6 274.9 273.5 268.1 257.9 244.7 241.4 220.8 194.9 170.4 140.6 116.1 86.5 65.2 42 25.7 18.9 15.6 14 12.2 12.7 18.5 18 19 16.4 15.7 21.2 27 33.7 40.8 50 69.1 85.5 104.7 126 154.4 184.8 221.7 260.6 313.4 367.6 416 448.1 465.3 470.3 470.5 465.8 465.1 463.8 464 463.9 462.9 468.4 477.6 481.6 483.9 488.6 486.4 487.7 488.9 488.1 488.6 484.3 483.4 480.8 482.3 490.1 493 497.3 503 508 511 515.6 515.5 514 505.1 491.1 472.2 453.4 437.4 425.4 416.8 412.9 414.3 411.9 413.6 414.3 424.5 431.4 443.7 459.1 470.6 490.9 517.3 551.7 587.4 622.2 656.1 686.6 712.8 737.5 760.3 777.7 795.7 811.2 827.4 846.7 864.1 883 900.8 922.8 941.1 957.2 972.2 985.5 995.6 1004.9 988.2 959 917.9 880.4 854 838.6 821.4 806.2 795 784.4 775.2 761.2 738.3 715.9 689.8 659.3 640.6 624 611.8 606.9 617.9 628.3 644.7 667.7 694.2 722.2 769.5 812 852.6 891.7 908.8 939.5 983.3 1024.3 1069.9 1094.3 1122.8 1159 1195.8 1209.1 1207.8 1207.3 1193.4 1139 1110.6 1086.3 1065.5 1044.1 1020.4 992.7 963.9 945.2 943.2 945.1 938.9 923.7 911.3
28.9 35.1 42.8 53.1 60.1 69.3 76.9 72.2 71.9 75 78.1 82.6 89 91.6 88.4 96.6 108.2 124 144.2 161.2 178.3 207.2 229.3 250.4 268.8 278.7 277.2 282.8 278.6 277.5 262.8 251.8 241.2 219.3 197.8 178.7 146.5 115.8 89.7 67.9 47.4 29 20.2 17.8 16.5 15.1 13.1 17.7 17.8 17.8 15.6 15.1 20.4 29 34.2 43.8 53.7 71.6 94.3 111.5 129.9 157.1 190.1 225.5 268.7 328.3 376.6 433.9 464.4 482.2 484.7 488.8 493.1 488.8 471.4 469.2 471.3 468.7 472.9 481.6 489.7 494.3 497.1 502.8 510.9 510.1 501.2 502.3 501.2 497.3 493.1 491.4 498.8 504 508.3 514.5 517.7 522.3 526.8 531.8 525.5 520.7 503.5 483.1 465.4 448.3 440.3 435.9 427 424.4 420.5 422.5 418 424.7 433.6 442.5 449.4 460.4 473.6 501.7 539.1 577.9 613.5 645.1 677.6 706.7 734.7 759.2 780.2 797.1 813.2 827.7 844.6 863.6 883.7 898.8 920.4 937.8 955.2 970.7 983.9 994.8 1005.3 1000.5 961.4 914.3 884.1 866.1 850.3 838.2 827.3 813 804.9 794.9 780.4 760.8 736.3 712 678.2 653.4 636.9 623.1 611.8 615.8 625.2 637.3 656.7 679.9 712.2 743.8 795.8 833.6 847.5 900 940.3 978.6 1013.3 1026.7 1070.9 1112.4 1158 1193.7 1209.9 1209.6 1209.3 1210 1209.8 1170.3 1113.5 1093.7 1067.8 1041.5 1020.4 993.3 986.8 978.5 950.2 925.3 911.4 904.9
38.9 46.5 51.9 58.4 65.8 78.3 76.8 73.8 77.1 86.6 88.1 89 92.8 94 98.3 105.7 116.3 138.7 162.7 177 196.1 217.8 244.3 263.9 277.5 281.3 282.1 284.3 283.1 279.6 267.7 259.5 243 220.2 204.8 183.7 150.5 116.7 86.7 63.6 46.9 26.5 22.4 19.2 17.1 15.7 14.2 15.5 15.3 16.3 14.2 16.1 22.5 30.2 35.6 43.1 57.2 76.6 97.2 115.5 136.6 159.3 189.5 226.1 275.4 341.8 391.9 450.7 481.7 499 507.5 515.6 521.9 520.8 493.1 478 479.9 479.8 484 494.3 500.3 507.3 516.8 523.8 539.8 533.1 521.6 520.6 518.6 512.6 512.2 505.5 505.9 514.4 520.3 521.8 530.6 532.2 538.3 539.1 538.4 528.3 516.2 497.6 480.7 471.4 461.1 451.1 441 436.9 431.2 425.5 419 428.4 434 437.1 444.2 452.7 469.5 496.8 528.6 562.9 600.2 630.2 664.8 697.8 727.7 752.1 774.6 792.5 809.6 824.1 841.4 857 878.7 897.6 914.1 935.3 951.2 966.9 981.2 992.1 1002.3 1003.8 957.1 920.6 897.3 879.7 866.4 854.4 846.4 836.6 832.6 821.9 808.6 782.9 759.9 730.5 705.3 675.4 654.8 636 621.7 615.3 625 632.7 652.3 674.1 699.7 728.4 771.2 808.1 853.9 886 914.3 953.8 1007.9 1031.2 1056.7 1102.1 1153.2 1182.2 1203.7 1210.7 1210.2 1209.9 1211.5 1212.7 1170.6 1123.6 1098.2 1064.1 1045.5 1025.3 996.9 958.3 935.9 914.1 906.8 901.7
45.5 52.8 61.1 64.9 72.3 81.3 76.6 78.9 93 94.4 96 96.1 98.2 100.3 104.3 113.4 128.7 163.4 177.6 192.6 214.5 237.2 260.1 273 280.7 283.1 284.2 282.2 279 275.5 265.3 251.8 228.2 212.4 189.7 163.4 138.3 106.3 76.1 54.3 38.2 29.5 23.8 20.2 16.9 16.1 12.3 13.8 13.4 13.8 14.9 16.7 22 30.1 37.3 45.8 58.5 79.9 101.4 120.9 145 169.8 194.9 230.2 292.6 347.5 416.7 471.3 498.6 519.9 527.8 539.2 558.6 548.9 522.7 500.4 495.5 497.8 513.7 513.6 521.1 534.6 539.2 555.1 561.2 546.4 538.7 535.3 532.9 529 524.3 517.9 521.1 520.4 527.4 532.5 538.9 542.6 548 549.3 547.4 541.1 529.6 512.3 502.6 488.5 477.5 466.1 454.1 446.6 442.7 432.8 423.5 422 431.7 434.9 440.4 448.7 463.9 490.6 520.5 550.7 584.3 619.5 652.8 686.3 715.9 741.8 764.2 784.4 804 820.5 835.4 853.2 872.8 891.7 908.8 927.5 947.2 961 973.7 987 998.8 1011 965.7 931.4 911.2 898.4 885.1 876.8 866 858.6 857.2 852.2 832.2 806.4 779.4 748.9 722.6 693.5 668 649.5 630.3 619.8 623.4 635.4 646.3 671.2 693 716.2 737.9 795.7 842.4 876.9 905.6 930.1 966 997.7 1052.5 1089.4 1120.9 1160.8 1184.2 1206.4 1209.4 1209.6 1211.6 1214.7 1194.9 1141.5 1103.2 1074.3 1048 1012.9 982.8 951.5 928.8 915 906.6 901.5
53.9 61.8 65.3 72.3 76.6 79.3 82.9 92.6 99 103.8 105.1 98.8 106.1 108.5 110.8 121.6 150.3 174.7 188.4 204.2 226.8 249.5 266.2 278 283.3 278.2 271.2 267 264.5 255.4 251.3 231.4 206.7 190.1 169.3 139.9 116 91.8 65.3 48 40.5 33.9 25.6 21.1 16.7 15.8 11.9 13.4 13.3 13.5 15 17.2 24.5 29.9 38.8 46.4 59.7 83.9 104.4 126.4 150.4 180.2 207.8 239.5 306.1 366.9 428.2 477.8 509.5 534 540.7 563.2 580.1 578.2 560.1 535.3 529.8 536.2 544.5 546.3 547.3 560.9 568.2 581 575.6 555.9 548.2 545.6 545.3 541.7 535.9 529.5 531.5 534.2 537.3 543.6 548.4 552.4 555.8 556.9 555.7 548 540.5 534.3 523.1 509.6 494.2 478.2 471.6 459 451 439.4 431 425.4 429.7 434.3 441.1 449.8 463.9 484.1 513.1 542 574 610.7 641.2 671 702.6 729.6 753 775.9 795 814.8 833.3 852.1 871.3 893.5 906.9 923.6 940.9 959.6 970.8 982.3 996.2 1006.4 987 950.1 930.7 915.9 902.5 897.2 888.7 883.2 889.8 881.5 854.7 822.8 792.4 762.5 734.7 708.1 681.8 659.4 643.7 628.5 621.2 638.3 649.4 664.2 679.4 706 729.6 764.3 805.3 845.4 871.4 918.9 960.1 1004.1 1033.5 1082.1 1123 1132.7 1155.9 1187.2 1206.2 1207.5 1209 1211.1 1171 1125.4 1095.4 1063.2 1036.2 1007.1 978.1 948.1 933.5 919.4 908.1 902.8
58.9 65 73.3 80.7 82.8 86.2 89.2 99.3 105.5 112.8 108.9 104 112.8 116.1 120.1 129.5 162.6 177.4 192.6 209.6 233 254.1 266.8 269.9 266 262.9 262.2 259.5 251.7 238.5 229.4 211 187.3 166.3 147.7 127.5 101.5 88.2 71 57.9 43.4 34.7 25.3 19.1 16.1 15.1 12.7 13.2 13.3 13.9 15 19.3 25.1 37.5 42.7 47.7 58.9 85.6 112.3 128.8 153.7 185.7 220.6 254 292.1 332.8 382.6 421.7 484.5 510 551.8 586.4 604 599.9 603.2 590.8 569.9 569.9 577.7 579.2 582.2 592.9 600 608.3 582.5 563.1 556.8 557.2 556.7 552.7 547.1 541.7 543.6 543.7 546.8 551.3 557.5 560.9 562.8 563.7 563.7 560.6 557.9 553.2 544.6 527.1 508.3 494.1 481.6 474 464.4 445.6 436.3 432.1 429.7 434 439.5 449.8 465 484.8 507.5 533.2 561.6 599.1 631.5 659 686.8 716.5 741.6 766.9 787.1 807.6 830 850.6 870.6 893.1 913.6 927.6 945.8 959.5 971.9 984.8 994.3 1006.7 1006.4 972.2 951.6 937.4 927.4 918.8 911.4 916 925.4 912.1 872.2 833.4 799.8 771 744.8 721.5 696.3 674.1 655.5 638.7 629.1 634.4 651.2 664.8 678.7 696.7 719 736.5 776.1 823.8 864.9 896.1 929.8 972.7 1015.1 1054.8 1079.9 1096.5 1127.4 1162 1193.7 1206.7 1207.8 1203.2 1156.3 1122.2 1090.8 1057.7 1028.4 1001.7 978.5 958.2 939.6 926.9 911.4 910.2
66 71.6 80.1 88.8 85.8 89.3 96.3 100.9 112 112 107.9 110.5 115.2 120.7 127.5 146.2 171.8 181.2 193.2 213.6 230.1 245.5 253.9 257.3 259.3 261.9 261.1 253.3 243.8 234.3 222.3 211.6 187.3 164.7 146.1 127.3 103.9 81 74.9 61.1 44.7 34.3 25.6 19.3 16.6 14.3 13.5 13.4 13.8 14.5 16.1 21.9 32.2 37.5 43.7 51.3 64.1 85.6 109.4 134.2 158.3 192.8 226 271 303.9 350.6 383.6 418.5 446 493 556.6 602.3 613.1 616.2 618.8 623.6 622.4 621.6 613.4 611.7 613.5 622.5 634.8 614.8 586.4 570.9 566.4 565.6 563.9 559.4 554.9 550.7 552.2 553.4 555.8 559.7 564.6 568.3 570.1 572.8 575.4 575.4 572.9 569 565 542.9 526.2 515.8 494.9 486.9 474 454.1 442.1 438.8 438.6 435.5 442.4 453 465.3 481.1 503.3 525.6 550 583.5 620.6 652.1 674.7 701.8 728.9 751.5 777.2 802.6 826.6 849.5 870.4 894.1 912.4 930.1 948.2 962.1 978.1 992.1 1004.2 1015.1 1023.7 1000.5 978.3 967.5 954.8 943.3 946.1 956.2 948.8 918.5 872.8 836.1 802.7 783.9 759.2 735.6 716.3 693.2 670.1 650.2 639.3 633.1 646.8 663.8 676.7 691.6 711.5 736.5 771.3 811 852.9 894.3 924.3 964.8 995.2 1013.1 1048.8 1080.3 1107.5 1149 1188.4 1206.6 1207.3 1198.8 1155.5 1124.3 1097.5 1068.4 1037.5 1014.4 993.5 970.1 959.8 935.7 924.5 917.8
69.8 77.8 89.9 90.2 91.1 98 99.7 107.3 116.9 111.1 113.1 120.1 122 125.6 131.9 160.1 182.8 190.3 206.5 221.8 235.6 249.4 257.1 261.7 263.7 263.6 262 255.7 246.9 233.8 217.9 201.4 180.9 155.4 137.5 122.6 98.8 86.9 74.8 57.8 45.1 36.1 28.9 21.1 16.2 14.6 13.1 14.1 14.4 15.2 16.8 26.5 34.5 37.6 43.3 53.7 67.1 84.9 108.2 135 162.2 200.9 240.9 284.2 317.9 363.5 415.8 454.7 481.6 531.3 585.1 617.7 626.7 632.6 638.8 644.5 648.3 659 645.6 644.5 645.2 653.5 636.4 611 590.2 576.9 573.1 570.9 567.3 564.1 560.3 554.3 558.4 560.3 562.5 564.8 569.4 573.6 577.3 580.9 583.6 584.9 585.1 582.9 578.1 563.4 541 529.1 510.9 494.2 483.4 467.1 454.2 447.2 447.8 446.8 446.9 459.1 467.2 483.6 502.9 522.1 546 579.3 607.8 639.3 663.8 685.8 711.1 736 761.4 788.1 817.1 843.3 867.6 890.3 912 932.3 950.5 966.6 985.3 1003.7 1016.5 1028.3 1038.4 1041.5 1015 998.7 986 977.3 987.7 969.3 937 902.8 872.3 839.2 806.5 784.7 775.3 754.5 731 712.5 689.1 666.1 652.2 640.7 645 655.6 667.2 686.1 706 722.2 754.5 792.9 832.2 867 902.9 932.1 959 999.3 1044.4 1086.6 1136.1 1158.5 1193.4 1209.8 1210.2 1195.5 1159.9 1130.7 1107.4 1082.5 1056.6 1041.1 1028.9 993.9 967 941.8 936.3 931.9
78.5 85.1 89.1 93.9 97.8 103.5 104.7 113.8 119.4 118.3 120.3 122.7 127.1 134.3 138.7 174.8 194.6 199.2 214.1 232.2 245.4 259.8 265.2 267.3 266.2 265.2 264 263.8 251.2 236.1 221.8 206.3 183.1 159.3 141 121.5 105.2 89.9 73.5 58.9 44.5 34.9 28.9 21.2 15.7 14 13.4 14.8 15.4 17.2 18.9 24.9 28 34.7 44.4 56.2 67.9 87.9 109.8 136.2 167.9 202 247.2 283.4 322 369.5 426.1 464.6 504 557.8 604.4 628.7 640.1 643.7 650.2 664.2 670.3 679.1 677.2 678 679.6 673.6 643.6 615.4 591.5 580.5 574.1 568.4 565.6 563.8 561.9 559.7 563.2 565.2 566.4 570.4 573.8 579.3 584 588.6 590.8 596.6 596.4 597.1 593.7 575.1 552.7 538.3 518.5 502.2 495.1 481.7 470.5 460.1 459.8 460.6 466.2 460.7 475.8 488 505.6 519.4 540.1 569.3 594.4 622.2 646 667.2 691.3 715.8 741.3 768 796.1 827 857.1 883.8 907.9 930.4 951.9 969.7 986.1 1006.3 1021.6 1037.5 1049.4 1059.9 1057 1037.8 1027.1 1018.9 991.3 959.3 926.5 896.8 873.8 836.6 810.4 790.9 785.3 773.8 751.6 729.9 709 688.1 667.6 650.7 645.8 657.7 670.4 679.9 696.3 713.3 742.7 779.2 815.7 855.7 901.4 942.3 985.9 1016 1062.9 1093.2 1140.5 1180.4 1206.8 1214.3 1213.6 1200.5 1161.4 1134.4 1114.2 1090.9 1066.1 1038.3 1013.7 986.5 963.9 949.2 945.8 946
81.7 84.5 99 104.1 112 113.9 109.8 116.7 120 121 128.3 128.7 130.3 140 149.9 186.8 199.1 209.6 221.4 238.3 255.3 267.7 273 272.2 272.2 269.8 269.5 272 264 242.2 221.3 205.6 184.1 161.5 142.2 120.9 109.6 87.3 72.2 58.7 43.4 34.5 27.8 22.4 17 14.4 13.5 14.5 14.5 17.5 21 26.5 28.5 34.2 43.5 60 70.5 87.1 109.8 136.7 162.3 196 252.6 293.5 333.6 378.4 420.9 461.4 515.1 576.6 616.1 636.4 650.1 655.5 662.2 676 687.5 690 692 691.2 690.1 674.9 644.6 612.5 592.8 582.4 574.1 566.9 562.4 560.8 560.4 560.7 564.1 567.3 571.5 575.3 579.9 585.3 590.1 593.4 598.1 601.6 604.9 610.1 606 585.9 559.4 543.1 528.1 513.7 506.6 500 484.6 473.4 469.3 472.6 471.8 473.6 478.6 489.7 503.7 518.2 536 559 580.9 603.4 624.2 647.1 673.7 697 721.7 749.7 776.5 807.4 837.5 867.7 897.2 923.7 949.4 969.3 986.3 1006.1 1023.3 1040.3 1053.9 1066.2 1077.5 1076.4 1042.4 1005.8 969.9 940.2 912.7 889.7 862.6 838.3 814.3 800.1 793.7 784.7 768.5 748.3 731.6 709 690.3 665 651.3 650.5 661.9 676.1 694.5 712.4 734.4 765.1 801.1 846.5 881.7 925.5 956.2 995.1 1040.4 1105.7 1141.5 1172.9 1199.8 1215.3 1215.5 1208.9 1164.7 1135.4 1104 1076.5 1059.9 1022.1 1007.1 980.1 967.1 960.8 958.2 962.7
91.9 94.9 104.6 111.3 119.5 113.1 113.3 117 124.7 127.2 133.9 133.1 132.5 141.3 163.5 195.3 209 217.8 230.5 248.7 264.8 272.5 277.9 280.1 275.8 272.5 273 270.2 258.4 239.7 222.6 207.8 182.3 157.2 140.6 124.3 108.8 84.9 68.1 53 39.2 32.9 27.4 23.6 14.7 13.7 13.7 13.4 14.7 17.2 23.2 30 34.9 40.8 48.4 65.1 75.9 88.7 111.7 137.2 169.9 199.6 253.8 292.7 335.8 384 421.3 457.2 527.9 593.6 624.9 643.2 654.6 663.7 673 682.5 689.6 697.6 699.8 696.7 691.4 670.4 638.6 609.4 591.9 581.8 571.1 565.3 560.6 559.3 559.3 563 566 568.1 573.2 577.3 582.3 587.9 594.6 599.9 604.3 608.6 613.1 620.4 620.3 605.5 583.1 560.8 539.2 528.8 522.5 517.6 505.7 493.9 488 489.8 484.8 486.4 489.6 490.7 504 514.9 531.8 546.8 564.5 582.9 603.5 630.2 655 679.7 704.5 728.8 758.3 785.6 817.6 849 878.4 910.7 938.4 962.7 984.2 1002.8 1020.3 1039 1055.2 1071.4 1084.3 1063 1022.2 990.7 966 946.6 925.7 904.7 880.3 853.7 829.8 814.1 807.3 789.8 777.1 769.9 755.3 731.9 708 682.7 665.1 656.8 659.2 668 687 707.8 726.9 752.3 784.8 824.6 858.9 898.3 936.9 978.1 1032.8 1068.4 1107.4 1134.2 1184.4 1205.1 1217.2 1209 1165.6 1128.5 1096.9 1079.3 1042.3 1023.8 1006.8 999.5 984 976.9 977.5 987.6
99.3 103.9 108.4 121.1 114.1 113 114 120.1 126.4 131.7 138 139.3 140.6 150.6 182.3 207.7 217.7 228.7 242.3 258 275.3 282.9 285.2 283.8 277.2 272.5 273.7 262 253.9 238.6 223.5 207.2 183.2 160.5 139.8 119.5 102.8 80.5 58 44.5 36.7 32.3 28.3 21.9 15.3 14.8 13.6 12.5 15.4 17.5 28.4 34.5 39.7 43.9 53.6 65.4 78 89.8 113.5 139.4 172.2 211.7 250.7 293.5 335.8 386.5 432.2 465.4 547.6 606.3 630.5 644.4 659.5 664.7 673 680.4 689.6 698 699.3 704.2 691.9 666.7 631.3 603.2 590 578.4 568.1 562.9 559.3 559.3 561.6 563.4 566.4 569.6 574.6 579.3 584.3 590.2 599.2 604.5 611.3 617 623.5 628.9 634.6 630.2 601.5 578.4 559.5 553.5 540.5 531.6 525.4 522 509.1 505.8 500.8 498.1 499.2 498 501.6 512.9 525.4 535.8 549.9 567 591.5 618.2 638.3 659.4 685 713.6 740.1 767.2 797.8 826.1 859.9 892.1 922.9 952.3 976.4 998 1017.5 1036.7 1055.4 1072.2 1085.8 1053.9 1023.4 997.1 974.4 958.1 937.2 919.6 899.6 872.7 851.3 835.5 822.3 811.7 809.1 796.5 774.7 753.5 730.7 704.9 683.6 666.5 659.9 667.3 683.5 701.7 721.6 745.5 774.4 807.9 844.7 892.5 932.3 961.6 1003.9 1046.5 1085.2 1121.8 1154.6 1197.6 1217.6 1214.2 1170.4 1142.4 1120.5 1096.5 1080.6 1054.7 1023.9 1007.3 999.1 1001.9 1009.3 1016.4
99.9 104.5 112.9 113.1 112.5 112.9 118.6 123.3 128.4 136.2 140.1 142 143.4 168.1 194.9 217.4 226.4 238.4 254.1 270.3 285.6 288.9 291.3 285.8 276.6 272.2 265.7 259.5 250.6 235.7 225.5 204.7 180.3 159.2 138.2 115.8 97 71.4 50.5 41.7 34.4 30.3 27.7 19.4 15.4 15.2 13.1 14.5 16.8 22.7 32.1 35.4 40.7 45.9 55.4 67.5 82 95.6 116.4 143.4 173.2 211.5 247.2 297.5 336.6 393.6 440.5 481.8 553.8 605.5 630.4 646.2 655.2 659.6 667.7 677.2 689.1 696.5 705.2 704.4 690.2 657 623 597.3 584.3 574.6 565.5 559.4 559.3 559.3 562.5 564.1 566.2 571.5 576.5 583.2 589.3 595.9 603.8 609.3 616.1 624.4 632 644.2 648.1 647.5 623.5 597.5 579.5 578.3 557.4 546.7 543.8 541.5 530.3 520.4 518.8 512.3 511.6 510.5 507.8 509.5 517.7 528.1 539.2 551.1 576.1 601.6 619.7 641.2 667.9 692.8 722.4 751.8 779.3 810.1 840.6 872.9 903.9 937.5 966.9 990.7 1012.2 1032.8 1053 1071.8 1087.3 1072.3 1040.6 1012.4 989.6 971 951.2 932 916.5 894.9 872.4 862.8 855.6 846.9 839.7 821.8 800.6 777.4 755.3 726 700.4 680 668.3 670.8 682.6 699.7 726 738.4 766.6 802.1 835.7 882.5 928.1 968.6 1006 1043.3 1089.5 1135.7 1175.7 1204.4 1220 1217.5 1199.7 1157.3 1139 1126.1 1083.6 1057.5 1030.1 996.4 984.5 1009 1030.7 1043.8
99.1 103 108.4 109.5 111.7 116 122.3 126.2 134 137.7 148.1 144.3 156 185.6 206.5 219.6 235.9 251 264.4 281.3 291.9 294.6 293.1 286.9 278.6 270.7 264.9 254.6 241.9 228.9 213.9 192.1 168.2 149.3 130.1 111.9 92.7 63.5 46.7 40 33 28.6 24.5 14.7 15.6 15.3 13.3 15.2 17.9 24.5 32 37.2 42.4 49.1 57.6 69.5 84.8 102.9 120.8 148 180 215.8 248.5 297.8 347 392.4 443.3 494 541.9 597.9 629.5 642.2 648.5 659.2 668.8 681.3 691.9 701 710.4 700 682.1 648.4 614.1 593.9 579.5 569.3 561.7 559.3 559.3 559.3 564.7 567.2 568.6 574 578.8 584.8 591.8 597.8 604.7 614.9 626.5 632.5 644.1 656.1 662.4 663.5 647.7 622.1 606.2 599.7 578.5 564.8 558.4 557.7 551.4 542.3 535.6 535.6 530.3 528.2 522.6 520.7 520.6 524.9 534.6 543.4 563.6 582.1 604.7 623 652 676.3 705.5 734 763.8 791.7 824.2 854.5 888.9 923.3 953 977.8 1002.3 1024.7 1047.8 1070 1088.4 1096.3 1071.5 1040.6 1016 989.4 970.6 951 938 923.8 902.7 889.2 887.6 875.9 861.1 847.4 824.5 796 768.2 741.7 717.4 695.6 678.4 673.5 685 695.2 721.1 743.6 762.5 798.6 834.4 876.7 912.8 951.8 1017.4 1063.9 1092 1135.7 1186.1 1216.6 1220.2 1217.6 1210.5 1175.5 1140.6 1107 1074.8 1041 1004.8 966.8 959.6 983.9 984.8 1000.1
101.4 106 107 111.7 115.6 118.2 123.5 126.9 134.9 138.9 149.4 145.4 168.5 195 211.5 226.9 241.5 261.9 277.6 288.5 295.7 295.8 290.4 283.7 271.8 266.4 252.9 237.4 223.5 207.5 193.7 174.6 156.9 139 123.8 105.9 87.6 59.1 45.3 36.9 30.5 27.2 19.6 15.4 15.8 15.3 15.8 17 18.3 24.3 32.6 37.2 44.3 54.8 63.4 73.8 86.5 104.2 127.3 152.9 187.2 220 252.1 299.4 347 387.8 434.5 488.9 538.5 585 618.2 629.3 648.2 658.7 670.5 685.7 698.2 708.1 706.7 695 670.7 637.2 607.5 587.5 573.9 565.4 559.3 559.3 559.3 560.2 564.3 565.6 571.5 575.9 580.3 586.3 593.6 599.6 608.3 619.1 631.6 641.7 653.7 663.6 673.4 679.1 670.3 648.8 633.9 608.9 595.3 587.5 578.2 578 575.2 567.7 560.2 557.1 551.9 544.6 536.3 530.3 529.2 529.6 536.2 543.2 552.6 571.4 589.5 614.2 639.1 661.5 692.3 716.8 745.6 775.5 808.7 842.1 874.4 905.6 935.4 962.9 989.4 1018 1044.9 1066.6 1088.1 1104.8 1095.1 1069.2 1043.1 1012.1 993.6 977.3 962.2 946.8 927.3 919.8 910.4 901.6 886.7 864.4 833.3 804.5 778 752.4 733.6 714.9 690.5 677.6 688.8 696.3 720.5 737.2 764 794.9 828.7 862.8 901.9 947.4 1012.3 1079.9 1121.5 1164.5 1194.9 1217.1 1218.2 1215.5 1197.7 1153.5 1120.4 1090.8 1059.6 1025.9 987.8 944.8 932.3 951.5 946 957.3
103.8 108.4 112.9 114.4 117.5 124.7 127.1 130.5 135.2 143.9 139.2 158.1 182.2 206.7 219.6 234.3 249 266.8 284.1 292.4 295.9 291.8 284.6 277.3 269.3 260.1 241.7 229.3 215.7 189.5 175.4 163.1 145.7 131 116.3 99 78 55.6 44 34.5 27.6 24 15.3 15.6 16 13.7 16 17 21.1 29.8 35.7 39.5 46.6 57.1 67.4 78.1 92 109 127 152.6 186 218 251.4 299.4 336.9 372 420.6 475.5 528.6 546.4 562.3 607.2 639.6 657.1 670 681.5 698.1 708.4 700.6 686.8 655.8 625.8 600.5 581.7 572.3 563.4 559.3 559.3 559.3 561.8 564.2 566.1 572.2 578.4 582.7 590.1 596.9 603.2 615.3 627 637.4 650.7 660.8 674.5 685.1 696.5 697.7 675.5 646.7 627.1 621 616.8 615.3 605.8 600.5 596.2 588 578.8 571.1 558.7 549.2 547.2 545.6 538.9 537.9 546.7 552.4 566.9 582.9 604 630 650.8 675.6 701.4 731.8 761.9 791.8 823.1 855.4 886.1 916.7 950.7 982.8 1013.1 1043 1069.9 1092.5 1113.3 1126.9 1100.1 1076.5 1041.7 1018.2 1002.4 987.9 970 954.3 949.3 939.1 926.7 899.3 867.9 832.7 807.8 788.2 767.4 742.8 725.1 704.4 689.8 686.2 700 716.3 735.8 761.9 790.1 823.7 858.9 893 946.2 1001.7 1064.2 1115.7 1150.3 1163.3 1188.9 1213.1 1212.5 1183.6 1139.7 1105.1 1073.5 1041.4 1007.2 964.3 924.5 914.8 910.3 913.5 928.2
106 111.8 115.9 114.5 122.4 126.1 128.3 131.2 138.7 135.2 143.2 172.6 191.8 211.3 227.4 240.8 258.7 272.2 285.4 296.1 292.5 284.8 276 270 260.9 242.7 235.3 227.1 206.9 181.5 163.7 150.9 136.6 121.9 107.7 89.6 63.2 49.6 42.8 32.7 26.8 20.6 15.5 15.8 16 15 16.1 16.5 21.3 30.9 38.5 42.4 49.9 62.3 73.3 82.7 98.7 116 133.8 152.7 181.8 213.3 244.4 282.6 312.2 343.7 370 414.3 466.4 488.1 536.4 597.7 642.4 656.9 669 679.8 693.1 697.3 695.1 674.9 640.4 613.5 593.8 578.6 569.3 561.6 559.3 559.3 559.3 559.3 562.3 567.1 572.6 577.8 585.2 593.5 601.1 611.8 620.4 631.7 644.9 657.7 672 685.1 695.7 709.6 720.3 729.4 695.5 671.2 651 648.5 651.1 645 635.8 627.6 617.2 604.9 592.2 577.5 568.4 564.3 562.1 554.5 547.5 547.5 558 565.1 578.1 590.9 616.9 641.7 660.4 687.8 714.3 744.1 775.5 805.5 836.4 871.6 906.2 939.6 971.9 1004.4 1038.1 1068.5 1096.3 1118.6 1134.8 1136.6 1109 1074.8 1046.9 1032.9 1016.1 996.1 983.1 984.8 977.1 944.7 906.1 866.2 834.3 813.5 792.5 772.3 752.3 740.4 719.1 702.2 694.7 703.8 722.5 734.2 759 791.2 822.6 852.6 880.9 947 1013.2 1069 1083.6 1109.8 1133.7 1180.7 1209.4 1211.8 1182 1139.5 1104.6 1075.6 1042.9 1006.6 970.7 929.1 906.6 903.1 900 905.5
108.5 112.5 117 117.5 123.4 128.1 128.7 131.7 133.1 136.1 159.1 180.7 199.6 215.9 229.7 247.3 260.5 276.2 286.9 285.4 283.8 277.9 268.8 258.2 248.1 237.6 234.1 222.1 196.5 175.5 157.6 140.9 126.5 113.2 97.7 79.2 62.1 46.7 39 31.4 25.6 22.3 17.1 15.7 14.9 15.8 16.6 17.7 21.1 33.5 39.6 44.3 52.3 63.6 76.8 85.5 96.8 114.4 131.9 155.6 184.3 210.5 244.5 282.4 322.8 367.9 404.5 440.6 477.9 524.3 569.5 603.9 643.4 658.9 669.8 680.7 686.5 689.4 683 658.6 631.2 606.6 588.3 576.4 566.5 560.7 559.3 559.3 559.3 559.3 561.7 567.1 573.8 582.1 591.9 597 606.7 615.6 627.5 641.5 653 666 680.6 695.7 708.4 724.5 738.8 749.6 726.3 703.4 687.1 683.4 681 677.4 670.2 665 651.7 633.6 622.2 607.7 597.9 584.2 576 572.7 563.1 557.1 555.4 564.2 574.3 586.7 606.7 629.9 652.8 674.6 699.4 729.5 762.3 793.4 825.1 858.9 892 926.1 957.7 992.4 1024.3 1059 1092.6 1117.5 1134.5 1148 1128.8 1103.9 1084.8 1066 1041.7 1029.4 1049.3 1034 989.6 946.7 903.7 865.7 835 816.9 797 781.1 764.9 750.5 731.3 714.3 703.5 708.4 723.8 740.9 762.6 790.7 818.7 847.6 873.9 930.1 977.4 1008.9 1056.6 1105.6 1139.9 1188.1 1212.5 1211.8 1192.6 1156.3 1103.8 1071.7 1038.4 1002.6 967.3 936.5 906.8 888.1 889.5 877.6
114.7 116.5 119 123.2 128.1 127 128.3 131.1 132 144.3 168.6 186.5 203.9 218.4 233.9 248.6 264.9 275.5 277.7 279.4 278.1 269.9 262.5 251.5 241.2 237.2 233.3 217.7 193.5 170.9 153.6 138.1 120.8 107 89.2 74.9 62.1 50.1 38.1 29.7 25.3 18.2 16.6 16.3 16.1 16.5 16.5 17 20.3 31.5 40.6 47.6 51.3 65.6 78.4 86.4 101.1 114.8 130.9 156.5 179.1 209 238.2 278.6 318.3 367.7 406.8 440.1 484.9 535.9 586.5 606.9 637 652.4 667.9 676.5 683 681.5 667.5 646.1 623 602.6 586.2 572.9 565.5 559.3 559.3 559.3 559.3 559.3 563.7 569.3 576.4 584.8 593.6 602.5 609.7 620 631 648.3 661.2 674.4 691 708.8 722.6 740.9 758.4 776.6 774.7 782.9 741.7 730.5 718.7 708.7 692.2 691.7 680.7 670.8 656.2 638.9 623.4 608.9 598.4 588.7 582.6 581.2 572 569.9 573.7 590 603.7 632.1 649.3 668.3 693.9 719.9 752.5 782.7 813 844.1 880.2 912.2 942.9 977.8 1013.3 1044.5 1076.2 1107 1129.9 1148.1 1162.3 1145 1127.2 1109.6 1083.6 1094.7 1077.4 1030.8 986.6 942.1 896 865.3 839.3 818.9 803.1 789.9 776.2 763.5 744.3 724.4 710.5 708.7 721.9 740.6 770.6 797.1 818.6 845.3 875.4 935.2 1002.2 1060 1087.5 1124.8 1172.3 1205.9 1210.3 1209.7 1208.7 1172.6 1111.4 1071.8 1028.4 998.7 967.8 936.5 899 866.2 867.8 851.6
114.3 117.2 121 125.3 125.1 125.9 128 129.7 133.1 153.9 173.6 189.5 204.9 222.3 239 253.8 262.7 270.6 276 277.3 273.4 267.6 255.7 247.6 245 232.7 225.1 214 192.5 175.2 157.2 141.1 124.9 106 90.2 77.3 65.5 51.1 34.9 25.6 20.5 16.2 16.2 16.6 16.6 13.9 16.5 17.7 20.8 36.5 44.4 47.6 49 63 75.7 86.3 101.6 114.8 132.9 152.8 174.3 202.3 235.5 273.3 309.5 357.2 393.2 425.3 461.8 512.6 575.6 603.1 625.6 648.1 658.3 668.9 679.7 671.3 657.2 638.8 619.3 600.4 586.1 576.6 566 559.3 559.3 559.3 559.3 562.1 565.7 570.7 581.1 589.4 597.1 607.4 615.6 627.3 643.9 655.3 671.5 686.6 702.3 718 737.7 757.1 778.1 794.2 811.9 803 775.9 763.8 759.7 767 762.8 744.9 744.5 730.8 702.3 671.9 651.7 639.1 624.3 614.2 606.3 602.4 591.6 581.7 591.6 597.7 612.2 629.7 646.4 661 682.5 712 742.2 765.5 799 830.2 862.2 897.7 929.5 961.8 996.2 1029.2 1061 1095.2 1124.3 1144 1159.5 1173.6 1172.9 1142.4 1117.6 1086.4 1057.1 1023.6 988.5 938.3 894.6 864.1 842.9 827 814 799.2 785.8 776.1 755.6 736.5 725 717.7 725.3 743.8 777.9 802.5 822.4 847.6 887.8 940.9 1001 1052.4 1087.6 1130.6 1169.7 1200.7 1204.6 1204.6 1203.6 1158 1110.1 1063.8 1034.4 1018.5 967.2 927.8 889.5 844.7 847.3 828.4
115 118.4 122 122 124.5 126.6 129.6 131 140.6 166.8 177.3 193 208.2 225 239 250.6 260 270.5 272.2 268.2 264.4 253.7 241.5 234.2 228.9 220.4 210.7 202.3 191.2 178.1 162.9 149.6 131.8 111.8 92.9 81.9 65.2 47.6 35.1 25.5 19.3 16.1 15.9 16.6 16.4 14 16.6 16.7 24.8 39.1 43.5 46.3 48.7 62.8 73.1 85.4 97.1 114.4 132.5 148.7 167.2 196.3 231.4 262.5 300.2 336.9 368.7 409.6 444.6 483.6 552.6 591.5 609.5 628.7 645.1 661 673.2 671.4 657.4 640.5 620.7 603.2 590.9 577.1 565.5 559.3 559.3 559.3 559.3 563.7 568.3 575.4 585.3 591.2 602.7 611.9 623.4 632.9 646.2 662.8 682 698.8 715.2 732.1 753 773.8 795.3 818 838.1 838.7 838 856.7 848.6 848.2 847.7 824.1 806.8 781.4 755.8 738.9 695.2 671 654.1 636.8 629.1 620.8 609.3 602.8 601.3 606.5 614.3 626.3 642.3 652.8 677.2 702.7 723.7 752.1 787.3 819.9 850.4 884.2 914.4 944.7 981.3 1018.6 1052 1082.9 1111.2 1133.4 1150.3 1164.4 1142.4 1115.7 1089.3 1060.6 1035.8 1006.4 973.8 935.5 900 867.4 849.2 837.7 826.8 810.8 797.6 782.3 761.7 746.3 736.1 732.8 737.6 753.9 783.2 808.7 827 852 899.6 952.6 1003.5 1046 1088.8 1125.3 1166.7 1195.8 1198.7 1198.5 1195 1147 1096.6 1062.5 1041.5 1005.5 974.9 915.1 872.8 819.3 798.2 801.4
118.5 119.7 122.1 122.7 124.5 126.8 129 131.5 147.4 170 180.5 193.1 210.4 229.1 245.7 254.8 262.7 263.7 255.7 247.8 235.9 237.2 233.4 225.9 221.2 217.3 210.7 199.8 192.7 183.2 171.5 162.8 144 118.1 101.8 86.1 67.8 48.6 39 30.4 24.1 20.9 16.4 16.4 16.2 17.1 15.9 17 19.4 28.1 34.5 41.1 50.3 61.6 69.4 82.6 96.9 114.5 126.5 140.2 162 187.9 216.8 250.4 283.3 316.2 352.4 386.4 420.5 454.7 525.6 577.5 588.8 592.6 598.3 638.3 675.6 676.1 661.4 647.1 625.2 605.7 592.7 581.3 569.4 560.1 559.3 559.3 559.3 565.4 573.8 581.3 588.7 594.5 601.7 612.1 623.7 636.7 651.6 670.1 686.6 706.3 727.7 749.1 770.4 793.3 814.4 834.2 860 880.2 897.5 915.4 928.8 919.3 917.1 902.7 876.1 868.4 836.7 798.3 765.9 744.6 719.9 685.7 648.3 636.1 628.9 618.5 605.7 612.5 617.6 627 636.4 648.6 668.3 688.7 714.6 745.8 771.4 806.9 834.2 867.4 904.4 937.7 970.9 1005.9 1038.3 1068.8 1097 1121 1141 1155.2 1118.5 1089.4 1061.8 1035.8 1025.2 1008.2 971.9 939.1 905.7 874.3 857.9 846 836.3 823.7 811.7 796 779.2 764.7 751.7 745.9 743.5 761.8 788.7 817.5 839.2 864.6 909 956.9 1007.7 1061.2 1103.4 1134.9 1167.3 1190.2 1192.2 1191.8 1187.7 1146.1 1097 1065.5 1027.4 977 940.3 885.4 828.7 789.4 762.4 745.6
125 126.7 126.5 125.2 127.5 130.2 137.7 148.1 162.5 174.8 186.4 201.4 219.4 230.1 241 248.9 251.8 246.6 244.3 236.7 232.8 237.3 227.1 223.9 221.1 215.8 210 203.2 198.7 191.8 185.5 174.9 158.8 135 113.7 94.5 79.7 57.9 45.1 35.1 26.7 23.3 18.5 16.4 16.3 17.4 17.2 16 17.8 22.5 29.5 39.4 45.8 54.4 65.7 77.6 98.3 110.1 118.8 136.5 157 178.1 207.5 238.1 268.7 297.3 333.5 362.6 394.2 438.7 503.8 537 546 546.6 600.5 640.6 674.1 682.5 666.8 653.8 634.9 616 599.1 587.3 571.2 559.6 559.3 559.3 560.7 571 578.4 586.5 593.2 598.5 607 616.3 628.4 643.9 660.5 680 698.8 720.1 741.2 767.2 790 811.9 836.6 855.3 880.2 905.7 928.9 949.7 971.7 997.5 988.7 1004.5 1023.2 977.2 976.4 902.8 847.3 806.1 762.9 722.8 686.7 660.9 649.5 631.6 620.5 617.1 619.7 627.3 636.9 646.1 660.7 676.9 697.6 729.5 761.4 793.9 825.6 857.8 892.7 925.5 957.8 991.3 1021.7 1054.7 1085.3 1112.8 1134.7 1151.7 1118.8 1079.8 1051.6 1031 1017.3 996.3 972.7 941.9 911.6 888.2 865.7 855.1 845.3 830.8 818.7 809.1 790.4 783.3 772.9 764.2 761.2 772.2 798.6 824.7 845.1 866.7 920.1 955.8 1009.2 1050.4 1083.7 1127.5 1167.3 1184.8 1186.7 1186.2 1180.1 1140 1096 1046.7 1007.4 983.4 927.9 876.1 811.6 778.9 739.5 724.9
129.4 132.1 131.1 129.6 130.7 135.8 141 152.3 164.2 175.5 187.8 203.4 214.3 226.7 237.6 242.4 244.3 243.8 236.5 230.5 237.8 230 227.7 227.1 228.4 221.9 215.9 216.3 209.9 201.6 202.4 189.6 169.9 146.8 117.3 100.3 82.4 63.7 48.3 37.1 28.9 22.9 18 16.6 17.4 17.7 17 17.4 14 18.3 25.7 31.8 36.4 42.9 53.2 68.3 89.9 102.7 112.5 130.7 155 169 193.9 222.4 256 281.6 309.9 344.2 375.9 430.7 478.4 492.7 496.6 564.7 626.4 650.5 665.3 677.4 672.1 654.8 640.6 627.7 609.2 589.5 572.7 563 559.3 559.3 567.4 574.6 581.6 589.7 598.7 608.2 616.5 623.3 638.2 654.3 673.7 692.1 711.1 736.1 759.3 782 804.9 831.9 851.7 876.2 904.1 928 954.3 980.4 1002.6 1027.7 1046.5 1063.6 1039.3 981.5 946.1 912.2 873.3 820.3 779.3 752.4 717.8 684.2 668.1 650.8 634.8 624 627.2 629.5 635 650.7 664.8 677.9 694.8 723 754.7 784.1 814.5 849.1 879.7 912 943.4 975.5 1008.6 1044.9 1078.1 1106.1 1129.8 1154.4 1133.4 1095.5 1071.4 1051.3 1031.5 1008.7 977.7 952.9 928.4 906.3 883.4 878.6 865.2 840.7 828.3 815.3 804.5 798.9 789.5 793.2 784 788.4 811 833.1 853.4 877 924 963.3 1008.4 1050.2 1080.9 1122.8 1164.4 1180.3 1181.2 1178.9 1168.8 1125.2 1122.3 1080.7 1033.4 972.8 914.6 874.9 814 756.7 730.6 714.2
137.1 135.9 136.1 134.3 136.2 139.1 144.3 154.7 164.1 176.5 188.2 201.6 211.9 223.8 231.2 237.6 238.8 238.8 228.1 226.9 231.3 230.6 233.8 236.3 229 226.5 231.6 229.8 222.5 213.9 214.6 200.3 176.9 150.6 125 106.5 89.9 69 51.2 40.6 31.6 24.1 19.2 18 17.4 16.7 16.7 17 17.5 17.9 14.9 21.4 29.7 37.3 46.6 56.8 78.2 89.5 105 126.8 145.3 160.5 184.5 206.1 237.3 261.2 292.8 329.5 365.2 416.3 440.4 451.7 499.3 562.2 621.5 643.2 660.1 663.9 659.4 646.9 637.9 630.4 615.1 591.5 574.5 563.4 561.6 563.3 569.6 577.4 584 592.3 601.1 613 623.7 635.2 649 665.1 682.9 702.8 726.8 750.3 771.8 797.1 822 846.5 869.7 899.5 928 952 977.3 1004.2 1029.6 1054.7 1074.5 1089.5 1069.4 990.6 934 895 840.5 819.5 801.2 778.4 765.9 731.3 698 679.7 656.5 640.2 637.3 636.5 638.5 656.6 664.4 674.3 690.6 712.2 746.5 778.7 806.3 837.1 865.8 901.5 934.8 967.9 1003.4 1036.9 1069.9 1098.9 1125.2 1148.3 1158.1 1126.2 1107.7 1076 1050.1 1025.1 989.8 965.2 940.2 921 924.1 904.7 893.1 875.1 858.9 846 826.7 816.3 810.5 808.9 810.2 802.4 823.9 843 861.7 886.8 923.5 966.4 1017.2 1053.2 1091.2 1134.3 1166.9 1174.2 1173.6 1169.7 1149.9 1095.6 1042.2 1002 967 941.2 913.5 871.9 793 754.4 729.6 712.7
138.4 137 131.1 132.7 136 139.5 146 156.3 164 176.6 186.6 199.8 210.8 220 228.3 229.3 230.7 229.5 227.4 226.9 227 230.9 226.3 224.5 228.1 233.7 233.4 233.3 224.8 226.3 219.6 206.4 185.1 155.5 133.3 112.3 91.4 70.2 55.3 43.7 36 28.3 21.1 18.3 18.3 17.1 17.1 17.2 17.4 18.3 18.7 15.9 21.9 31.2 35.1 46.1 63.7 78.8 96.3 119.6 132 150.7 172.1 193.4 219.4 246 276.9 309.2 355.1 384 403.2 470.9 513.6 568 616.5 641.5 653.1 656.3 653.1 642.2 634.8 626.9 612.4 590.9 574.2 563.5 562.5 564.6 571.5 576.1 585.8 593.8 602.2 616.5 630.8 646.6 660.7 676.6 693 715.7 738.8 761.3 789.4 813.6 840.5 868.5 895 920.4 950.2 974.9 1002.9 1037.9 1064.3 1085.8 1099.3 1111.8 1048.5 967.9 961 917.4 871.3 846.3 825.7 809.8 794.2 773.8 749.3 703.5 676.3 667.3 657.6 652.2 647.7 654.1 664.6 673.9 685.3 713.8 745.2 775.4 802.7 827.5 858.6 892.8 928 959.5 993.5 1027.3 1060.9 1091.2 1119.1 1144.8 1165.9 1157.1 1126 1093.3 1057.7 1032 1006.6 985.8 963.9 956 945.7 932.1 915.3 909.9 893.5 877.9 862.8 852.7 843.6 834.8 825.2 816.9 832.9 848.8 869.9 895.7 940 979.9 1020.4 1063.6 1102.3 1139.9 1164.3 1166.6 1163.2 1157.1 1128.6 1067.8 1014.2 990.4 966 941 913.7 860.2 816.8 777.7 736.4 708.5
136.8 132.3 129.7 137.5 138.1 140.8 147.2 157.4 166.4 183.2 189.5 199 207 215.4 221.6 227.5 231.2 230.4 232.1 231.5 224.1 218.7 217 219.1 222.1 223.9 223.7 227.5 234.9 238.7 223.9 211.7 194.3 171.6 147.1 121 99.2 76.7 58.3 47.6 38.7 33.6 25.6 20.8 18.5 17.9 17.3 17.5 18.3 18.5 18.6 18.8 18.5 22.6 22.8 35.4 54.2 69.9 86 101 123.2 142.5 160.9 182.7 206.5 233.8 269.6 306.3 333.6 360.3 411.5 468.5 510.4 561.3 590.2 626.6 649.5 652.7 651 639.5 632.8 626.1 609.8 591.7 572.4 563.3 564.6 570 574.5 578 583.7 592.5 603.1 620.8 636 653.1 669.2 686.5 706.2 725.4 750.8 774.8 798.4 827.6 856.7 886.8 915.1 941.2 969.8 999.7 1036.8 1065.5 1082.1 1099.6 1109.1 1075.8 1078.6 1051.7 1072.2 1014.7 944.8 939.3 953.8 914.5 871.2 801.8 775.3 757.2 711.1 693.9 679.8 670.7 665 651.9 664.6 674.8 689.3 715.2 741.4 766.4 795.5 821.9 847.6 881.6 916.2 948.8 982.2 1016.7 1050.7 1082.8 1112.5 1140.9 1166.9 1184.8 1151.5 1113.1 1082 1048.1 1022.7 1003.6 992.2 976.4 963.9 953.8 944.1 936.8 922.7 901.8 889.1 881.4 876.2 870.9 846.6 827.3 839.7 857.9 882.1 918.9 955.2 989.7 1032.3 1066.8 1108.7 1142.5 1156.4 1155.3 1151.3 1141.9 1107.7 1029 997.3 979.4 960.4 934.6 892.4 873.7 806.5 757.2 727.6 716.2
132.2 128.8 129.8 135.7 137 141.6 148.1 158.1 170.7 178.7 192.7 201.7 205.1 214.9 219.6 225.5 228.1 226.2 220.7 218.9 219.7 216.6 216.6 216.1 216.8 220.6 233.6 245.2 247.5 241.9 236.1 221.4 205.9 191.1 170.9 148.1 121.3 92.5 67.3 52.4 45.8 39.5 34 25.6 19.6 19.4 18 17.8 18.9 18.7 18.1 18 16.1 17.7 22.7 33.1 42.9 63.6 81.6 94 115.3 130.3 150.3 172.3 195.8 226.8 254.5 282.1 314.3 373.2 406.9 447.1 484.7 534 549.5 613 641.6 646.8 638.2 636 634 626.3 603.9 589.4 572.3 563 568.8 571 576.8 577.2 584 592.1 608.6 621.5 639.7 653.9 674.9 693.5 712.9 736.6 758.7 785.6 812.9 841 873.7 905 933.9 961.7 990.7 1027.8 1063.7 1083.5 1101.4 1119.9 1137.4 1136.9 1118.4 1122.3 1111.7 1055.3 1029.4 1001 1008.6 962.4 927.2 887.7 793.1 771.6 762.7 747.8 729.7 708.2 687.3 662.8 667.6 680.5 696.4 715.9 740 764.8 791.7 816 840.3 871.4 906.2 940.5 974.1 1006.4 1039.4 1071.8 1102.3 1135.4 1165.5 1191.1 1193.2 1136.4 1105.5 1065.3 1040.5 1021.6 1007.6 996.6 981.6 975.5 967.1 956 945 929.9 923.7 922.7 908 883.8 845.1 829.5 839.7 858.4 889.6 925.1 957.9 1006.2 1048.7 1086.5 1120.5 1142.3 1146 1142.9 1139.3 1124.3 1081.4 1017.1 985.7 964.7 928.2 902.8 890.6 870.5 837.5 810.6 773.9 723.6
129.5 126.1 131.3 134.2 139.3 141.8 146.6 160.7 173.7 181.5 189.2 192.5 203 209.2 215.6 213.5 213.2 214.2 214.3 217.3 222.1 215.4 215.1 216.4 224.3 235 251.7 256.1 257.6 255.2 250 237.9 227.5 213.2 191.4 170.3 148.1 110.1 81.1 64.2 52.6 45.3 38.1 30.3 22 20.3 19.4 19.1 18.4 18.5 19.3 18 18.5 18.1 21.2 29.2 40.4 55.8 69.9 87.9 103.5 119 140 164.2 189.4 221.4 238.2 267.1 315.9 354.9 386.8 426.3 459.1 483.6 544.2 578.6 606.6 616.6 615.2 627.3 628.8 623 600.8 585.8 571.2 565.7 569.2 570 570.2 574.6 580.9 596.8 609.3 625.5 642.2 661 684.5 703.7 726.1 750.2 771.7 793.2 821.1 854 885.3 917.7 950.9 980.8 1010.5 1039.8 1068.3 1094.1 1120.4 1144.3 1168.2 1177.9 1175.2 1183.1 1154.4 1100.1 1057.7 1043.5 1062.6 1045.2 1022.9 971.6 843.7 789.6 775.6 762.3 741.3 710.3 690.5 679.4 678.9 684.2 700.4 725.4 738.5 762.2 784.8 811 838 863.3 892.7 929 963.7 995 1027.5 1060.9 1095.9 1129.2 1161 1188.9 1212.9 1165.2 1124.2 1086 1059.8 1046.3 1032.1 1020.1 1008.7 997.1 983.6 972.6 962.5 955.8 953.6 938.7 919.4 878.7 842 830.5 838.7 862.4 896.3 934.7 976.4 1017 1055.6 1091.7 1126.5 1136.9 1135.9 1132.2 1127.1 1112 1047.6 1014.1 990.3 962.8 938 911.4 885.3 869.1 839.2 812.4 771.9 751.5
127 123.6 130 133.4 140 143.5 151.3 162.1 167.9 176.3 179.5 188.4 197.9 204 205 206.5 204.4 207.7 214.4 221.3 219.1 214.4 216.8 219.8 229 246.6 269.9 273.5 268.1 265 264.2 262.5 247.6 226.1 203.8 173.8 141.1 113.7 91.4 74.3 59.3 51.3 42 38 30.1 25.1 21.4 19.3 18.5 19 19.4 19 19.6 18.8 19.4 26.4 36.2 46.6 59.9 76.5 92.8 114.4 133.4 155.1 179.8 199.6 231.4 258.9 296.9 327.5 365.3 395.9 422 466.8 500.2 527.5 564.5 558.2 587.3 614.7 618.7 607.7 593.4 579.3 565.3 567.9 566.5 563.9 567.6 569.1 579.1 594.2 608.9 627.4 644.5 666.1 687.3 710.5 735.1 762 786.5 812.3 836.4 853.3 891.1 925.5 960.7 996.5 1027.4 1057.4 1086.5 1117.5 1149.8 1174 1184.4 1193.3 1201.7 1207.6 1177.4 1124.9 1119.3 1105.2 1052.3 994.9 989 944 860.5 811.9 790.9 769 738 715 701.9 689.3 694.7 695.1 703.2 722.3 738.5 760 780.2 804 831 857.2 886.4 917.6 949.7 983.4 1018 1054.5 1089.2 1120.6 1153.8 1184.3 1212.1 1201.7 1149 1119.1 1097.5 1078.2 1059.6 1042 1025.8 1017 997.4 992.5 988.3 991.1 970.2 941.6 914.3 876 841.3 828.3 840.1 867.3 906.5 946 992.8 1032.9 1068 1085.4 1108.6 1124.1 1124.5 1120.5 1114.4 1093.9 1046.1 1003.5 984.2 970.9 938.7 914.4 884 875.3 845.1 820.3 798 777.1
120.7 124.7 127.3 134.4 137.3 143.1 150.9 156.9 162.6 167.9 177 187 192.5 198.2 197.8 196.8 199.7 204.3 208.5 214.2 213.7 215.9 220.8 226.5 239.7 259.6 289.3 285.5 279.3 275.4 279.1 278.1 255.5 233.8 213 177.6 143.4 119.4 100.2 86.1 73.2 59.8 48.4 40.9 33.8 28.4 23.8 19.5 18.6 18.7 18.6 19.2 19.5 16.6 19.5 24.6 33.8 41.3 51.8 62.3 82.9 105.9 129.3 142.8 165.7 186.3 211.9 248.3 273.1 305.7 341 367 399 439.2 467.9 503.9 524.3 520.3 565.4 590.4 596.4 592.5 582.3 570.9 558.7 560.4 555.4 547 549.7 555.6 572.2 590.3 610.7 632.6 652.3 672.6 696.2 721.8 746.6 775.5 800 826.3 856 882.7 905.3 933 970.1 1006.7 1040 1073.9 1103.3 1137.2 1166.7 1183.5 1191.3 1200.6 1210.4 1213.8 1184.4 1152.6 1116.2 1110.6 1029.3 960.8 917.8 883.2 851.9 824.4 795.5 759.5 737.3 717.8 709.2 701.1 707.9 709.6 712.8 721.1 741.2 756 773.7 796 823.5 849.2 873.5 905.2 940.5 972.8 1006 1038.9 1075.4 1108.8 1141.5 1174.4 1202.9 1183.7 1169.5 1150.9 1131.9 1111 1091.6 1070.2 1055.7 1037 1028.2 1025.1 1026.9 999.4 969 934.4 904.3 870.3 834.3 823.1 837.4 868.1 902.2 945.1 993.2 1014.9 1028.8 1057.2 1079.5 1100.3 1107.4 1108.4 1108 1089.1 1036.4 1004.6 987.8 974.6 947.8 929.2 897.7 875.9 867.1 849.6 814.1 775.2
120.5 122.9 125.7 132.1 134.9 142.5 147.5 153.7 159.1 166.9 176.7 183.6 189.2 193.3 195.1 196.8 200.2 206.6 218 214.6 214.5 216 229.6 242.7 257.8 274.7 298.8 295.6 288.7 280.4 268 256.4 246.7 230.1 211.5 181.6 151.2 129.9 112.9 96.3 79.3 65.1 52 43.3 37.4 31.6 23.5 20.1 18.6 18.2 18.5 19 19.4 19.4 19.7 23 30.9 38.4 44.6 54.7 71.9 90.9 110 131.6 152.2 171.8 193.4 219.7 245.3 283.6 312.7 337.2 371.8 396.9 435.9 476.3 460.5 510.1 543.9 564.9 572.5 577 569.2 563.4 550.2 542.2 527.5 518.3 515.4 530.8 554.1 580.2 611.8 635.6 658.3 681.8 703.1 731.1 761.5 787.6 809.8 838.6 869 900.8 928.9 958.7 994.7 1020.6 1049.8 1085.1 1117.1 1145.5 1171.1 1185.2 1194.1 1203.7 1209.7 1184.3 1143 1103.9 1068.5 1031.6 1016.4 980.5 958.5 906.9 851.2 818.6 794.4 761.2 745.2 726.4 719.4 711.5 721.4 730.1 727.6 727.4 740.2 757.5 770.1 788.1 814.9 837.8 865.7 894.7 924.1 958.1 993.7 1025.1 1058.6 1096 1132.9 1166.9 1172.1 1146.6 1134 1122.4 1110.4 1097.9 1089.6 1081.6 1069.7 1052.9 1035.5 1021.3 989.4 967.6 942.2 913.6 889 861 833.6 815.7 828.8 850.4 881.1 910.9 953.3 973.9 998.7 1022.4 1046.2 1065.1 1083.4 1100.1 1103.8 1093.2 1039.7 1002.3 984.4 974.9 955.4 935.5 902.1 883.7 876 843 816.5 802
120.6 121.1 123.2 127.4 134.4 140.9 144.3 149.9 156.7 165.9 174.3 184.3 189.5 192.5 194 197.5 202.8 208.7 210.2 214.4 217.8 227.3 245.3 264.8 270.9 286.1 306.3 301.9 291.5 278.4 266.3 262.7 258.3 238.6 214.6 187 161.9 135.2 116.4 102.9 82.7 67.4 55.8 44.9 36.2 32.2 24.6 21.4 20.2 18.7 18.7 19 19.2 19.4 16.8 20.5 27.4 34.6 39.8 47.4 59.9 71.9 92.9 114.7 133.5 156.8 178 196.8 225 260.4 283.4 324.5 345.3 374.8 409 425.3 451.2 481.1 507.4 531.3 539.4 558.3 555.8 548.3 531.7 511.4 498.3 487.4 497.8 512.4 545.5 576.4 611.8 640.1 664.4 686.7 712.6 741.7 769.2 798.3 822.5 853.7 883.7 911.8 945.4 977.4 1011.3 1046.8 1070.4 1099.1 1125.2 1148.7 1168.9 1183.1 1193.9 1202.8 1210.4 1190.4 1150.1 1118.8 1092.9 1105.6 1047.7 987.3 939.1 894.9 855.4 828.5 806.8 775.8 751.3 741.2 731.6 733.6 746.1 743.7 743.5 738.6 751.3 764.4 774.2 787.3 805.6 833.8 856.6 879.4 908.5 943.2 980.1 1015.3 1052.6 1084.9 1118.1 1153.4 1142.9 1115.4 1095.8 1080.3 1068.2 1056.9 1051.1 1042.9 1034.2 1016.5 1001.8 985.1 960.3 927.7 906.2 879.1 859.6 835.6 816.2 802.8 815.3 828.2 854.7 879.9 907.7 929.6 950.1 982.1 1010.2 1030.9 1061.5 1090.5 1096.6 1097.2 1064.2 1004 981.5 959 945.4 913.9 897.6 883.1 871.1 857.7 839.1 825.2
119.7 120.3 123.5 126.7 134.1 136.5 140.6 147.6 156 165.6 176.2 184 185.5 190.9 192 197.1 200.5 208.1 216.6 219 224.1 247.2 276.6 282 282.4 301.2 303.6 294.4 292.9 281.2 305.8 316.8 302.6 272.3 228 193.2 164.9 149 126.3 113.1 97.9 77.9 63.2 47.3 36.7 34.7 26.4 23.8 21.9 19.9 19.5 19.2 18.8 19.7 19.6 20.2 24.4 29.5 39.5 46 55.2 65.1 80.1 96.7 113.7 135 158.4 181.2 205.8 232.2 262.2 297.6 321.2 352.8 377.1 382 421.3 451.3 482.7 491 499.3 536.1 525 515.2 500.9 484.4 469.7 476.3 508.4 535.3 559 568.2 600.2 635.2 668.4 694.3 722.8 750 778.3 806.9 833 865.2 894.6 922.9 956.6 990.4 1025.3 1054.5 1084 1109.3 1134.3 1154.7 1172.3 1183.7 1193 1202.1 1209.8 1209.9 1187.1 1152.9 1133.5 1124.1 1070.5 1005.6 927.7 889.3 858.6 841.6 827.6 793.3 764.5 756.2 751.2 750.3 762.4 756.2 757.3 756.4 762.1 771.6 780.5 791.5 806.8 829.7 849.6 870.6 895.6 928.7 966.8 1001 1034.1 1070 1106.9 1142.4 1121.9 1090.6 1066.1 1047.6 1032.2 1022.2 1015.9 1003.9 990.4 980.3 964.7 949.3 931.3 892.3 873.1 852.7 830.1 811.3 793.9 787.7 795.2 803.2 819.5 848.3 876.6 897.6 918.1 942.4 972.8 1008.2 1038.1 1070.3 1085.9 1095.1 1060.8 1016.4 989.3 955.6 928.8 921.8 903.8 890.1 879.1 878.1 874.3 872.4
118.9 121.4 123.8 128.5 129.4 133.5 141.1 147.4 156.1 166.6 174.9 175.8 179.5 185 193.1 196.9 202.4 213.2 220.7 228.1 251.8 274.5 288.3 288.4 290.5 292.7 292.9 293.1 302.7 323.7 326.8 318.8 309.5 283.5 242.4 197.8 195.1 170.3 146.3 130.9 113.9 87.5 67.7 51 42.6 35.2 29 25.7 22.8 19.7 19 18.8 20.1 20.4 19.9 16.8 20.3 25 32.4 39.7 46.4 59.6 70.5 85.4 99.8 120.3 140.4 164.5 188.8 213.2 241.7 266.3 293.8 323.7 344.4 370.1 395.3 427.9 451.5 453.3 481 497.1 490.3 478.4 470.6 457.7 451.7 484 515.4 547.8 578.1 604 618.3 631.3 674.7 702.9 731.3 758.3 782.5 812.7 839.8 871.3 902.7 929.9 961.5 995.6 1032.3 1060.3 1085.7 1111.6 1134.1 1154.1 1172 1183.2 1191.5 1198.5 1206.6 1214.4 1220.8 1194.5 1151.6 1097 1003.9 973.9 921.9 899.1 874.7 875.6 845.8 827.4 799.1 771.2 779.4 793.2 785.6 792.4 776 778.4 776.1 783.1 790.9 797 809.1 822.7 836.8 859.5 885.2 914.9 950.8 986.4 1023.9 1058.1 1096.2 1131.9 1110.9 1073.4 1041.1 1021.8 1005.7 999.1 987.9 976 959.3 945.4 923.8 899.2 882 857.8 840.5 825.8 801.6 786.6 774.6 767.5 775.4 779.5 794.2 823 847.9 866.5 889.8 915.3 947.5 987.6 1024.9 1060.9 1081.1 1089.7 1076 1020.9 983.3 954.2 933.8 918.2 912.6 912.9 920.1 925.1 937.7 956.5
123.5 120.8 121.4 123.8 127 132.2 138.6 148.1 157.5 164.5 166.1 174 184.3 193.9 194.1 202.8 210.3 221.9 229.4 239 269.9 287.1 293.6 284 289.4 291.4 301.9 320.4 323.4 331.3 334.2 335.8 324 284.3 244.7 245 223 190.3 160.7 137.6 117.2 93.5 71.7 54.9 44.3 38.8 29.3 25.4 22.8 20.5 19.4 20.6 21 20.3 19.7 19.7 20.2 22 26.6 35.3 39.5 51.8 64.9 75.5 91.2 108 126.2 147.6 166.4 190.1 220.8 242 270.7 294.9 312.5 342.5 367.1 391.1 411.6 416.3 449.2 464.9 453.8 445.1 438.1 430.7 452.4 486.7 512.7 550.1 584.5 619.1 643.5 665.8 672.6 694.8 725.6 760.4 786.3 816.8 845.4 878.8 909.6 938.1 966.3 999.8 1031.7 1057.6 1082.8 1106.2 1130.6 1150.2 1168 1178.7 1187.8 1195.4 1202.8 1208.7 1218.1 1159.4 1116.6 1049.8 987.1 944.9 916.8 904.4 899.7 891 857.1 828.8 809.7 805.9 816.9 830.5 873 835.8 805.2 801.4 799.4 799.4 801.2 804.7 812.2 819.4 832.4 851.9 875.9 902.9 936.7 974.2 1007.6 1045.2 1084.4 1124.3 1108.2 1067.8 1031.6 1007.7 991.6 979.7 968.2 951.1 924.6 904.6 882.2 867.2 845.6 825.1 810.6 790.5 773.1 763.7 748.7 748.1 751.6 758.6 772.1 797.9 828.5 840.1 861.7 899.2 931.6 971.1 1014.3 1047.7 1073.8 1091.5 1053 1018.9 990 967.4 953.6 939.8 939.2 951.4 966.3 978.6 985.6 1024.5
115.9 118.8 122 125.3 131.9 143.8 141.2 152.5 154.9 162.7 170 178.8 184.5 187 200.2 214.9 218.2 223.9 233.9 255.5 276.2 276.1 280.1 286.4 296.1 320.6 331.2 334.8 326.4 345.5 347.7 345.3 331.7 288.2 270.6 253.2 228.3 197.7 165.8 140.9 117.1 92.4 76.3 59.6 46.6 41.9 28.7 24.3 22 20.9 20.3 20.6 21 20.9 20.6 19.8 18.8 20.8 24.5 30.4 36.4 44.5 56.9 70.6 83.7 97.3 115.8 134.7 153.8 174.1 195.4 219.4 244.5 269 289.6 314.3 329.8 355.9 362.8 396 416.1 428.5 416.5 412.4 410.5 430.7 466.9 498.3 529.3 557.6 595.6 636.5 661.4 682.7 702 721 738.2 754.8 785.1 817.8 847.6 879.3 913 942.4 968.2 997.7 1025.8 1053 1075.1 1100.4 1123.5 1143.6 1160.6 1170.1 1180.1 1189.1 1198.2 1207.6 1203.7 1154.2 1104.8 1048.5 977.7 943.6 912.1 908.7 904.2 896.1 872.2 849 800.6 836.5 852.8 931.4 943 883.1 854.2 825 823.9 818.9 815.8 816.1 813.9 821.7 832.4 844 866.9 892 923.8 956.6 996.5 1033.8 1074.2 1114.8 1104.9 1059.8 1021 998.4 981.9 966 950.6 928.7 904.4 881.6 853.4 828.2 807.7 795.2 779.9 761.3 746.9 735.4 724.8 730.4 733.8 741.8 751.2 773.2 802.5 821.8 843.6 879.8 915.3 956.7 996.7 1032.9 1069.3 1089.8 1055.6 1030.7 1011.5 992.1 985 986.8 1000.1 1002.8 1025.6 1038.9 1069.9 998.7
115 118.6 123.3 125.4 135.1 145.2 147.8 153.2 158.4 164.8 171.2 174.3 184.2 194.5 210.7 219.7 227.4 230.4 241.6 263.4 266.4 275.3 286.7 302.7 326.7 341.6 349.1 346.1 341.8 350.3 358 351.2 322.4 296.5 286.3 259.2 235.4 200.5 174.2 146.3 130.9 111.9 82.4 60.5 46.9 38.4 28.3 27.6 26.1 22.5 22.7 21.7 23.1 22.1 23.4 23 18.1 20.3 24.8 28.8 34.2 40.1 49.6 64.9 77.8 89.7 107.4 119.9 141.2 158.8 177.2 202.2 227.6 243.8 265.9 284.1 307.3 315.5 338.1 360.7 383.4 393.5 383.4 385 413.3 444.7 468.3 509.7 543.9 577.4 618 655.1 676.4 695.5 714.1 736.2 755.4 777.4 786 811.8 845 879.7 912.1 943.5 967.9 994.8 1022.8 1050.6 1069.3 1095.4 1119.6 1135.4 1150 1159.1 1170.8 1182.4 1192.7 1199.2 1190.1 1132.1 1124.5 1064.5 959.9 933.4 922.8 923 911.1 903.4 890.6 855.5 852.5 869.6 904.8 965.5 942.9 912 884.2 850.8 841.5 837.2 832.9 833 824.5 822.8 831.8 840 857.3 882.2 909.3 946 986.9 1027.7 1066.3 1108.5 1096.8 1054.9 1016.9 983.7 966 949.1 936.5 915.4 882.9 857.6 826.6 800.4 781.7 763.8 745.6 734.5 724.1 709.1 707.8 711.7 718.3 727.1 734.7 746.8 771.1 804.7 829.9 867.9 903.2 943.1 989.6 1024 1061.8 1094.5 1106 1100.8 1105.9 1117.5 1106.2 1057.9 1055.7 1081.2 1099.4 1102.4 1045 983.1
118.1 117 119.7 128.7 132.9 142.7 150.1 151.2 157.5 163.9 170 176.4 188 203.7 216.6 226.5 227.1 233.4 248.3 258.2 266.7 286.3 316.8 326.6 342.2 355.3 366.1 353.8 361.7 369.1 368.5 357.6 329.6 322.1 309.2 286.1 251.3 213.7 184.8 163.5 141.3 124.5 89.8 65.5 50.5 43.7 29.2 29.3 22.5 22.7 23.7 24.2 23.9 24.2 24.6 23.8 18.9 19.3 24.8 27.3 31.5 37.2 44.6 57.5 74.5 84.5 95.7 110.8 126.4 144.8 163.4 189.8 212.9 223.7 229.1 250 259.5 278.6 305 332.6 350.6 358.7 361.3 390.7 429.4 469.1 497 519.3 553.4 594.9 636.8 666.1 687.1 705.2 728.8 746.1 768.8 793.7 817 836 846.9 873.4 904.5 934.5 963.3 990.9 1018.4 1044.1 1064.2 1087.7 1112.4 1127.2 1140.4 1151.6 1164.9 1176.8 1188.6 1157 1126.4 1093.8 1047.2 1005.7 971.7 951 954.5 938.6 928 915.8 893.7 891.7 902.5 948.4 978.1 988.5 953.2 926.9 883.6 879.2 871.7 871.5 900.2 858.4 843.6 832.5 832.7 841.1 855.8 874.4 902 939.9 978.5 1019.7 1059.7 1106.5 1096.6 1054.5 1017.4 977.2 950.6 936.5 920.8 897 866.2 836.9 795.2 772.3 755.7 734 719.6 708.6 700 689.3 690 692.3 702.4 711.3 720.9 731 749.1 791.3 821.8 855.1 890.7 933.1 982.6 1024.8 1056.3 1091.5 1128.7 1152.4 1170.1 1181.5 1141.6 1126.7 1129.8 1131.6 1115.3 1084.5 1034.2 984.5
113.1 116.9 123.8 130.3 137.6 139.7 149.9 152.2 158.1 166.5 172.9 181.8 196.9 207.3 220.7 221.9 226.3 245.1 249.1 261 281.1 307.8 314.1 333.7 353.4 371.7 360.6 358.5 384.5 381.6 368.9 350.2 347.4 345.7 329.7 305.2 272 242.7 202.1 175.3 145.2 120.3 95.8 70.5 55.3 45.6 33.6 30.9 29.1 29.3 27.6 25.8 25.4 25.3 27 23.1 21.5 19.5 20.9 24.3 29.6 35 43.3 53.3 69.3 79.1 89.1 103.1 119.9 136.3 154.5 173.8 183 202.3 230.7 254.8 277.9 286.6 289.6 305.8 326.8 347.9 373 400.7 435.1 475.6 516.1 546 571 606 646 678.1 698 718.9 738.7 757.8 781.7 805.3 828.7 849.5 870.1 896.8 921.5 942.2 965.3 987.7 1014.9 1038.4 1060.5 1082.4 1103.9 1120.2 1134.6 1148.7 1164.2 1177.4 1191.7 1187 1144.9 1075.8 1043.4 1012.3 989.6 975.9 961.9 960.4 952.9 947.5 938.7 930.4 999.1 1058.5 1052.8 1041.9 960.8 922.9 906 909 905.2 916.2 967.2 941.9 869.1 848.5 838.1 842.5 853.2 872.6 900.6 935.2 972.9 1015.3 1058.3 1104 1109.1 1065.6 1024.7 974.7 941.3 919.7 900 876.7 852.6 811.8 776.8 752.4 738.1 714.7 701.7 688.4 679.5 674.1 671.5 672 685.4 694.5 708.6 719.9 736.8 779.6 810.5 843.4 880.1 917.5 964.1 1016.3 1044.4 1089.9 1135.5 1164.1 1179.9 1190 1196.3 1181.4 1178.2 1162.3 1093.1 1058.9 1028.8 997.6
110.4 115.5 123.9 132 136.7 145.1 151 156.1 162 179 180.7 189.4 198.9 210.8 219 226.9 237.6 246.7 254.4 272.2 299.6 311.3 325.8 342.2 363 359.4 356.7 368.1 390.4 375.2 355.5 357.2 365.1 357.5 341.7 321.9 291.7 258.3 218.9 180.4 156.6 127.4 98.4 76.2 61.2 48.4 33.8 32.5 32.5 30.8 31.2 29.1 27.4 27 26.8 27.5 25.8 24.6 20.3 19.6 29 34.3 40.7 49.3 59.4 73.4 87.3 100.2 115.2 128.3 145.2 167.6 181.1 199.3 224.9 247.1 269.2 293.2 319 340.6 355.9 374.1 399.7 423.4 453.4 480.9 517.1 550.9 587.4 626.5 664 687.5 708 727 749.6 770.1 790.1 816.2 838.4 861.4 885.7 906.2 928.5 953.5 980.7 1003.5 1025.8 1050.8 1074.8 1091.9 1105.9 1121.2 1138.4 1150.4 1168.5 1184.6 1195 1199.1 1202.9 1116.9 1062.1 1035.9 1015.8 1017.5 987.7 985.5 978.7 1037.8 1002.8 1040.2 1058.4 1101 1079.3 1003.6 964 942.6 952.3 965.5 935.7 951.7 1003.7 994.6 908.7 873 855.8 854.8 859 878 907.1 933.7 967.3 1013 1057.8 1103.7 1117.1 1072.6 1024.4 972.9 940.6 912.1 886 855.1 832.2 789 763.2 737.1 720.7 700 680.2 668.2 655.8 657 658.2 662.5 668.5 685.1 696.1 708.7 727.7 770.3 808.2 847.8 880.7 925.9 968.9 994.8 1040.1 1091.2 1144.4 1175.9 1186.3 1200.4 1213.5 1222.4 1176.8 1141.8 1086 1061.2 1047.6 1032.8
