ncols 200
nrows 82
xllcorner 260000
yllcorner 920000
cellsize 50
425 429.6 429.1 432.2 432.4 430.5 428.5 436.3 444.4 451.9 458.6 465.1 469.8 475.5 477.5 477.1 474.7 478 474.5 475.6 470.7 466.9 461.6 457.5 452.1 444.4 437.3 431.7 426.8 420.9 416.9 423.3 422.7 422.6 418.3 416.2 409.9 399.8 388.7 382.4 389.1 393.2 398.1 400.6 399.4 382.1 390.4 394.4 398.3 401.3 405 407.1 409 413.1 416.1 417.8 418.2 418.4 416 411.6 408.9 405.2 402.8 394.8 391.2 405 414.7 421.8 426.9 429.8 434.1 436 435.5 434.6 437.2 441 449.7 461.2 469.6 479.9 487.8 491.6 492.6 493.2 490.3 485.3 478.8 470.4 464.4 460.2 457 452.6 449.2 444.9 441 439.8 439.5 439.6 437.7 433.7 432.4 431.4 429.5 427.5 425.3 422.7 420.2 421 417 415.6 409.7 406.6 405.2 398 391 394.9 406.6 413.8 419.4 426.2 430.5 434.8 439.4 443.7 450.3 456.4 460.1 462.2 463.1 462.5 460.1 456.4 458.8 461.7 463.3 466.1 467.8 468.6 469.7 468.8 473.3 477.3 482.4 486.6 491.6 497 503.5 508.7 512.7 517.3 520.5 522.8 525.4 528.6 532.3 535.7 536 535.7 535.3 532.8 533.3 530.6 526.7 518.9 515 508.6 508.2 509.5 511.4 515.1 520.3 526.6 531 536.7 543.6 550.7 556.3 559.5 564 570 577.1 582.2 586.2 590.2 595 599.6 609.1 619.7 631.3 641.8 653.5 666.4 679.3 691.5 702.1 708.4 706.3 701 691.5 670.3
435.3 438.7 442 443.2 441.8 439.7 432.7 442.9 450.9 457.4 462.2 469.1 476.2 480.4 481.5 482 482.9 482.7 483.3 482.2 480.3 478 474.3 470.4 467 462.6 455.4 450.3 445.7 442.8 439.6 442.1 443.5 443 437.7 433.6 427.8 415.7 403.5 395.8 398 402 406.9 408.2 405 401.4 399.2 403.6 407 411.4 414.6 418 420.8 423.1 425.5 426.9 427.2 425 423.1 419.8 415.4 412.2 408 405.4 394.1 402.5 413.6 421.8 427.5 431.4 434.5 438.3 437.9 438.2 440.1 443.3 450.2 461.2 469.4 478.7 486.6 491.5 493.6 492.7 489.8 486.2 481.8 476 469.7 464.1 459.7 454.2 450.7 446.2 444.3 441.5 437.1 435.4 433.7 432.1 430.1 428.4 426.9 425 422.4 421.8 421.3 421.8 421.5 419.3 415.2 410.3 406.9 401.3 389.3 397.1 409.3 418.7 423.9 430.2 434.2 438.7 444.3 448.7 453.1 460 465.9 468.8 469 465.5 462.5 458.8 463.1 465.8 469.4 471.6 471.8 473.7 474.1 475.1 477.6 481.7 483.5 486 489.8 496.2 502.1 507.5 511.7 516.6 520 522.2 524.2 527.7 531.2 534.1 536.8 537.4 536.6 535.8 536.2 536.4 534.4 529.4 523.5 521.2 519.4 520 519.3 519 521.4 527.3 532.5 538.6 544.7 551.7 558.1 564.6 568.2 574 581.4 587.1 593.2 600.2 605.4 610 614.6 624.7 633.7 642.3 653.1 665.6 678.1 690.1 700.7 707.8 712.2 707.3 698.6 686.7
444.2 449.1 452.5 454.4 452.1 447.4 443 448.1 455 461.6 466 472.4 478.9 482.6 485.9 487.7 487.2 485.4 487.7 488.2 488.1 486.9 483.5 481.5 479.7 476.6 472.8 469.2 467.4 463.5 457.4 463.6 463.2 457.7 452.9 447.9 439.9 427.5 419.6 409.1 410.3 407.6 411.4 412.6 400.9 409.3 407.9 411.6 415.2 419 421.4 426.5 429.5 432.2 434.4 434.2 433.8 431.1 429 425.5 421.1 417.1 412.4 408.7 396.3 403.1 412.2 419.8 427 431.8 434.4 439.5 441.5 442.1 444.1 446.1 451.5 461.2 469.4 477.2 484.4 490.2 493.5 492.5 492.7 490.1 485.9 481.1 475.1 470.1 464 457.4 453.3 449 446 444.7 441.1 437.1 436.9 432.9 432.2 431.8 429.5 428.9 426 425.5 426.2 425.1 423.7 421.4 416.4 411.5 407.7 403.1 389.9 398.4 413.1 421.5 428.5 432.8 436.4 442.2 448.1 452.2 456.6 463.8 469.4 471.2 471.7 469.2 465.7 465.3 468.8 474 478.3 479.8 480.3 480.1 479.7 480.8 483.1 486.7 487.3 489.3 494.2 497.7 501.5 506.8 510.6 514 517.9 520.2 521.7 523.7 527.3 531.5 534.9 537 537.4 537.3 538.3 539.2 539.8 538.6 535.3 531.8 529.5 527.8 526.3 523 525.2 528 532.5 540 546.1 551.3 558.2 566.1 571.4 577.2 584.9 592.6 600.2 607.5 614.8 619.8 624.2 630.2 636.8 645.2 654.7 664.4 674.7 685.7 696.2 703.4 708.2 705.4 698.5 689
454.1 458.2 460.9 461.1 458.2 454.9 450 454.4 457 462.9 468.4 473.4 478.4 484.7 487 488.8 489.9 489.5 492 494.3 495 492.7 492.1 488.5 488.7 485.9 484.7 482.9 480.5 478.5 475.6 477.4 474.9 470.3 464.9 457.9 450.1 441.8 433.5 426 418.8 415.6 414.1 416 407.6 414.9 414.2 417.7 422.9 426 427.8 432.6 435.4 440.7 441.2 441.4 440.2 437.2 434.7 429.6 426.1 420.3 416.2 411.7 404 405.9 411.7 420.8 426.8 431.8 436.8 440 443 446.3 447 449.1 452.2 460.4 468.7 475.3 481.2 487.2 491.7 493.5 493.2 491.2 489.3 484.5 480.5 475.4 469.4 462.9 455.8 453.2 448.7 446.7 441.8 440.8 437.4 436.5 434.6 433.3 432.4 431.2 429.3 427.9 428.4 426.1 423.9 421.2 416.5 412.5 407.7 400.6 387.7 400.7 416.7 426.4 430.6 434.6 438.6 444.1 451 454.9 458.2 465.9 470.5 473.1 474.9 474.5 471 469.5 475.6 480.7 483.7 486.1 486.9 485.1 485.8 486.7 488.1 488.3 491.1 495.3 499.2 502.1 504.2 506.5 508.8 511.3 515 517.2 518.2 520.7 522.1 525.1 528.4 533 535.7 536.9 537.3 540.8 543.2 544.5 544.2 542.3 537.6 536.3 534.2 531 528.4 531.3 534.6 539.5 546.2 551.5 558.5 565.5 574.9 579.6 587.3 596 604.4 612.7 620.5 627.1 632.5 638.2 644 651.6 657.2 664.7 672.7 680.8 688.9 693 695.7 694.7 690.8 684.4
461.6 465.7 466.1 465.2 463.8 461.9 460.9 462.3 462.6 465.2 471.6 475 478.6 484 487.9 492.3 491.9 493.9 496.1 498.3 498.9 498.3 497.2 495.4 494.2 492.7 491.7 490.8 488.7 487.1 485.3 484.8 482.1 479.3 473.9 466.6 458 449.6 443.5 436 429.7 423.7 418.6 418.9 413.9 418.8 419.7 425.8 429.3 432 433.7 438.7 443.3 446.9 447.8 447 445.9 443.2 438.7 436.1 432.2 425.9 419.7 415 410.2 408.6 412 419.3 426.8 432.5 437.9 441.3 444.7 446.8 449.7 451.7 454.7 461.2 467.1 473.5 478.6 483.4 488.7 491.1 492.3 491 489.8 487.4 484.3 478.6 472.5 467.5 462.8 457.6 452.7 449 446.6 443.2 440.2 438.2 437 434.7 433.3 433.1 431.1 429.6 428.8 426.1 423 419.5 414.4 412.1 406.8 398.8 386.7 406.5 419 426.9 432.1 436.4 440.5 444.4 451.6 456.3 459.9 466.7 472.1 475.4 475.7 476.8 474.9 474.6 480 484 487.3 489.6 490.6 489 488.4 488.7 490 491 494.5 498.2 502.2 504.2 506.2 506.2 508.2 509.5 512.1 514.4 515.6 517.5 519.1 520.9 522.8 525.7 531 535.1 537 540.1 544.7 549 550.6 550.3 546.8 542.4 541.9 538.8 535.1 536.5 537.6 542.4 548.4 553.7 559.7 566 573.7 580 588.4 598.3 607 615.5 624.1 631.2 638.8 645.3 650.7 656.4 661.9 665.4 670.2 675.6 679.7 683.2 684.3 682.4 679.6 674.5
468.7 469.7 470.4 470.2 468.5 464 465.6 468.3 468.1 471.2 472.3 478.4 480.7 484.6 489.8 491.7 493.4 496.7 498.9 499.7 501.1 501.1 500.4 498.5 497.9 496.3 495.9 495.1 492.1 490.3 489.3 488.6 487.4 484.3 479.7 472.4 462.7 455.5 448.8 442.4 435.7 429.7 424.5 422 414.9 422.1 425.8 431.6 435.6 439.3 441.1 444.7 449.6 453.2 453.8 451.6 449.7 448 443.7 440.4 437.2 429.8 422.9 417.4 415 412.4 414.1 419.5 426.7 432.3 437.4 441.4 444.7 449.4 452.3 455.2 457.8 462.1 468.2 472.1 477.6 482.1 485.6 487.5 489.1 490.1 488.7 487.3 485.4 480.6 478.8 475.2 468.7 462.2 456.9 454.3 451.6 447.9 443 439.6 436.2 436.3 435.2 433.5 432.3 429.6 424.4 423.9 421.5 417.7 412.4 402.1 402.6 395.3 387.6 404.7 416.4 426.2 432 435.8 438.6 445.1 450.6 454.8 460.7 466.1 473 475.5 477.7 477.7 477.6 478.8 483.7 485.6 488.4 491.9 492.5 490.4 487.9 487.7 490.6 491.2 496.2 500.2 502.8 505.1 506.9 508 508.9 509.8 511.4 513.1 514.9 517 518.5 519.8 521.3 523.8 526.9 532.7 537.1 541 545.4 551.2 554.4 555.4 553.7 550.6 549.4 546.8 545.1 543.7 545.2 545.9 550.1 554.2 560.5 566.3 573.9 581.6 590.1 598.6 608.9 617.5 626.1 634.5 642.8 650.1 653.9 659.7 665.8 666.8 668.4 669.9 671.3 672.2 671.9 670.2 666 663.1
471.2 470.5 472.1 472.5 471.1 467.3 469.5 471.9 472.8 475.1 477.5 476 481.7 486.9 491.4 494.2 496.3 498.6 500.6 501.5 501.3 501.1 501.4 499.7 499.1 497.6 496.9 496.7 494.9 494.1 492.2 491.5 489.5 486.9 482.2 475.3 466.3 459.2 452.1 446 440.2 434.2 430.3 424.8 419.6 425.9 430.8 436.3 441.2 445.1 446.7 449.2 455.7 458.2 458.5 455.9 455 451.9 447.3 442.6 437.7 432.4 425.4 419.8 416.3 415.8 416.6 421.1 426.1 431.1 435.6 440.5 445.3 448.9 452.3 456.9 460.2 464 468.6 471.3 476.2 480.9 484.3 485.8 486.9 487.3 488.7 487 485.9 484.6 482.4 479.3 473.6 469.8 464.8 458.5 455.2 451.5 446.2 441 440.1 437.4 434.2 431.6 432.4 430 423 429.2 425.4 418.8 416.4 412.6 404.7 392.2 387.1 400.4 412.7 423.3 430 434.3 438.2 443.5 448.9 453.2 460.2 466.2 472.8 476.5 478.1 477.8 477.8 481.8 484.5 486 487.1 491 490.8 489.5 489.1 488.6 491.4 492.6 496.9 499.3 501.7 504.2 505.2 507.9 507.8 507.9 511 512.4 514.2 516.1 516.8 519.4 520.1 522.5 527.7 530.8 536.8 541.5 545 552 556.2 559 558.6 558.7 557.3 554.4 552 550.3 549.3 549.1 551 556.4 562.5 568.4 575.1 583 591.7 601 609.5 617.7 626 634.1 642.2 649.8 654.1 659.1 663.7 664 663.4 664 663.4 660.4 658.3 653.7 650.5 649.6
474 474.3 474.6 473.9 472.1 470.3 473.5 474.4 475.6 478.3 479.9 480.2 482 489.1 492.4 495.5 497.4 498.8 500.2 500.5 501.3 500.9 501.6 499 498.8 497.9 496.3 494.8 495.9 494.9 493.6 492.2 490.1 487.6 482.6 476.3 467.8 461.3 454.7 448.4 442.8 438.4 432.8 427.7 424.7 429.8 434.7 441.7 446.8 449.2 452.2 453.5 458.5 461.4 460.8 460.5 459.3 456.5 451.6 445.8 439 433.5 427.7 422.9 420.8 420.7 418.1 423 425.9 429.7 434.4 438.6 444.2 449.1 453 456.5 461.3 463.7 468.1 470.4 475 479.1 483.5 485.5 485.2 485.9 487.2 487 485.5 485.5 483.2 481.2 477 472.6 467.6 461.8 457.2 453.9 448.3 442.4 441.6 437.9 437.2 433.8 429.5 428.3 430.7 430.4 427.8 422.5 418 412.2 405.7 392.4 383.8 395.8 407.9 417.1 424.4 429.2 438.9 443.2 446.7 451.7 458.3 464.9 472 474.7 476.9 477.8 478.4 482.5 482.7 484.4 486.3 488.4 488 487.4 486.3 487.7 490.7 493.4 496.7 499.1 501.8 503.2 503.9 506.9 508.5 508.8 509.4 511.8 512.7 513.5 516.3 518 520 522.6 527.4 532.3 538.6 542.1 546.4 550.5 558.3 562 564.2 563.4 563.7 560.5 559.9 557.7 555.7 553.2 554.5 558.4 563.3 570 577.4 585.2 593.4 600.4 610 615.6 622.9 630.9 638.9 646.8 651.7 654.9 657.2 657.6 656.9 654.2 651.6 645.1 641.6 638.3 637.7 638.3
475.7 475.6 474.6 474.6 475 473.2 474.1 477 477.6 478.3 480 480.7 482.5 488.5 492.5 495.2 496.8 499.5 500.1 500.1 500.7 500.9 500.2 500.5 498.3 498.5 497.7 496.4 495.9 494.8 494 491.6 490.4 487.1 482.4 475.8 469.1 462.4 453.6 447.9 444.1 440.2 435.5 427.2 427.7 433.3 438 445.3 450.2 454.7 457.1 458.1 459.1 463.6 463.1 463.6 461.2 458.1 453.9 447.7 441.3 434.6 430.2 424.8 424.1 425.2 425.1 424.3 425.8 429.9 434 438.1 442.4 447.7 452.1 456.1 460.4 464.3 467.6 470.9 474.5 479.4 481.4 483.9 486.4 486.4 486.5 485.3 485.4 483.8 483.3 479.5 477.6 471.9 467.8 463.8 460.3 455.8 450.2 445.3 442 440.7 438.9 434.7 432.8 432.2 431.7 429.3 427 422 418.8 412.8 401.5 391.6 382.3 391.4 402.9 412.6 423 431.6 437.4 442 447.2 449.7 454.4 462.4 469.4 473.9 475 476.6 479 481.8 482.3 483.3 482.8 484.1 484.6 483.9 482.9 484.6 488.8 491.6 494.5 498.1 499.1 502.4 503 505.5 505.5 508.6 510 512 513.3 515.9 517.7 519 521 524.3 528.3 533.9 540.4 544.8 548.7 552.2 558.3 563.7 567.2 568.9 569.1 567.6 565 563.1 560.3 559.2 560.6 560.1 564.8 570.7 578.4 585.8 592.8 599.7 609.4 614.9 619.7 626.3 632.7 639.3 644.7 648.7 650.4 649.7 647.3 642.6 634.7 633.6 632 628.4 626.9 628.1
475.6 474.7 474.1 473.7 473.5 472.6 475.8 477.1 479.3 479.8 481 480.9 482.9 487.5 491.3 495.3 496.9 498.2 501.1 500.4 501.4 500.6 500.1 499.5 498.5 499 496.4 495.8 496.5 495.3 494.4 492.2 490.3 486.7 481.2 476.4 470.9 463.6 453.8 448.9 446.4 441.4 438.7 431 433 437.2 440.4 448.2 453.7 458.7 461.9 461.5 463.7 464.3 466.1 465.4 462.3 458.4 453.6 446.6 441.1 435.3 432.7 429.3 428.5 429.6 429.7 429 429.7 431.4 434.4 437.9 441.5 445.8 450.5 455 458.9 464 467.5 470.6 475.8 479 480.5 483.3 484.3 484.6 483.4 483.7 483.5 483.1 481.6 479.6 476.7 472.6 467 464.8 461.4 457.9 451.5 446.1 443.1 442.1 436 438.6 437.3 435.6 433.6 430.4 428.4 420.5 416.8 414.7 408.7 398.1 385.9 386.5 401.1 413.2 420.5 429.6 435.4 442.5 445.4 449.8 452.9 460.4 467.1 471.4 473.7 475.4 479.4 481 480.5 481.6 480.3 480 480.1 481 480 481.7 486.2 490.6 493.7 496.2 497.8 499.9 501.9 504.7 506.2 508.1 510.5 512.8 513.7 516.5 519.5 520.4 522.2 525.7 530.1 533.8 540.6 545.4 549.7 554 558.3 563.8 569.1 572.5 573 571.9 567.4 566.4 564.1 563.7 563 562.1 566 570.6 576.9 584.2 591.4 598.3 606.2 613 617.3 621.4 625.4 629.2 635.7 638.8 640.2 640.3 636.6 629.9 624 621.7 620.6 617.5 617 618.1
471.9 471.1 471.4 472.4 472.5 474.2 476.4 477.3 479.3 481.1 481.6 481.8 483.3 488.1 492.2 494.1 496.9 498.9 499 500.5 501.5 501.1 499.7 501.3 499.7 497.9 497.1 496.3 495.6 493.9 493.4 491.1 488 482.9 479.3 475.2 471.7 464.4 452.7 449.2 446 442.8 438.3 437.7 437.9 440.6 444.2 451 457.9 461.7 464.5 464.7 464.9 466 466.8 466.1 462.5 456.8 451.4 447.3 442.2 439.7 436.9 434.7 432.6 432.7 433.3 434.1 433.5 432.7 435.4 438.6 441.7 444.5 449.3 454.5 458.7 463.2 468.6 470.5 475.2 477.5 479.8 480.4 480.5 482.1 482.4 482.5 479.8 479.6 479.2 477.4 474.1 470.9 466.5 461.8 459.6 454.5 450.5 448.3 444.7 443.6 438.7 442.3 439.8 436.8 433.9 431.2 429.1 424.6 419.9 415.5 411.8 405.6 393.7 379.1 393.4 408.1 419.5 428.9 435.8 441.6 444 449 451.7 458.3 466.6 469.1 471.6 472.8 475.9 477.9 478.8 479.2 477.2 476.1 476 475.6 475.7 480.7 484 487.2 490.2 492.3 494.8 498.3 500.6 504.1 505.8 507.5 511.3 512.9 516 517.7 520.8 521.7 524.4 526.6 531.4 536.5 541.4 546.6 548.6 554.5 558.9 562.7 569.4 574.4 577 573.8 571.3 568.4 567.8 564.7 562.9 563.2 564.8 568.4 573.8 580.2 587.3 593.7 600.4 608.6 613.4 613.7 617.9 621.5 625.5 627.9 628.7 628.2 622.8 616 612.2 610 608.3 606.7 607.3 608.9
466.1 466.3 467.3 470.4 471.1 473.7 474.2 476.2 477.9 479.6 481.2 481.2 482.4 486.1 490.5 493.2 495.4 498.2 498.8 499.7 500.6 500.5 500.8 500.3 499.7 497.4 497.2 497.2 495.5 493.6 491.2 489.4 485.9 482.1 479.9 477 472.1 464.8 454.7 449.2 447.8 445.5 440.6 440.5 442.3 446.2 448.5 453.2 459.2 463.6 466.6 466.1 468.2 467.1 467.8 468.1 463.8 461 456.8 451.9 447.2 443.1 442.1 439.5 438.4 437.7 438.1 439.2 437.2 438.3 438.7 439.8 442.1 445.5 450.3 455.3 458.9 464.2 469.8 472.7 475.5 476.4 477 479 479.1 480 481.4 480.1 478.9 477.1 475.9 474.1 470.5 466.3 463.1 460.6 456.3 453.9 451.4 448.1 445 442.9 442.9 444 442.5 438.6 435.1 432.2 430.7 425.8 422.6 417 413.8 405.5 395.8 383.1 385.5 403.3 417.5 426.9 432.5 439.8 444.1 449.4 450.4 457.6 466.2 469.1 470.9 469.9 470.4 472.1 473.6 475.3 472.5 470.2 470.5 471.7 471.7 478.3 480.3 482.7 485.6 488.8 493.1 496.8 500.4 503 504.8 507.6 510.3 511.8 515.6 518.4 521.9 524 524.8 528.2 531.7 536.1 541.1 544.9 550.2 554.8 558.3 564 568 574.1 577.8 577.2 573.5 572.1 570.3 565.8 562.9 560.7 561.7 565.3 569.8 576 581.8 588.6 593.4 599.1 603 605.4 605.3 608.6 612.2 616.2 617 615.3 610 603.8 599.4 597.3 596.1 595.4 596.6 599
462.3 462.5 465.5 468.5 469.7 471.3 472.6 473.9 475.7 477 479.8 481.8 483.1 486 489.4 491 495.2 497.1 498.4 499.2 501.4 500.3 500.9 499.2 499 497.5 496.4 495 494.3 492.8 490.1 487.2 485.5 482.2 480.7 477.3 472.5 465.7 456.6 451 448.9 447.7 444 445.2 447.8 450.8 449.7 455.3 459.6 464.6 467.6 469.1 469.3 468.9 470.2 470 467.6 466.2 462.4 458.8 452.8 448.9 447.5 444.6 444.6 442.8 443 443.2 441.6 441.5 441.7 443.5 443.6 448.2 449.9 455.7 460.3 464.1 469.4 474.4 476 474.8 475.7 477 477.1 477.9 478.1 476 476.6 473.9 470.4 469.7 467.3 464 461.7 458.4 456.5 454.3 451.4 448.5 444.2 445 445.8 445.9 443.4 438.5 435.5 432.1 428.5 424.2 422 418.8 414.1 408.1 397.6 386.7 380.7 396.4 412 421.6 430.8 435.3 442.3 447.9 449.8 454.5 461.6 466.5 468 468.5 465.9 466.3 467.9 467.7 466 465.8 465.7 466.6 469.6 473.9 476.6 478.9 482 486.9 490.5 492.9 497.2 500.1 503.1 505.7 507.8 510.4 514.7 517.4 521.6 523.5 525.7 529 532.7 538.3 541.9 545.9 549.5 555.1 560.5 564 569.6 571.9 577.2 578.4 576.5 574.1 571 567.9 562.7 559.4 555.9 561.6 565.2 569.9 576.6 582.1 585.6 589.5 590.8 590.9 590.8 593.6 597.3 602 604.1 602.7 596.9 587.7 584.3 582.8 580.6 581.7 584.7 587.5
459.1 459.4 462.9 465.4 466.8 467.2 468.4 469.9 473 474.9 477.9 478.8 481.9 485.6 487.7 490.7 493 497 497.7 500.1 500.1 499.1 499.7 498.6 498 497.2 496 495 493.4 490.6 488 485.3 485.1 482.9 481.1 477.4 473.2 468 458.7 454.4 450.6 447.8 448 449.6 451.8 452.7 453.9 457.2 459.6 464 467 468.8 470.3 470.4 470.1 470.2 471.7 470.5 467.9 464.1 460.1 455.4 452.7 452.7 450 449.2 447.5 447.5 447.1 444.8 445.8 446.2 448 448.1 452.7 456.1 460.1 463.9 468.1 473.9 475.2 473.8 475.5 475 475.8 475.9 476.3 474.7 474.2 471.9 470 466.6 464.3 462.8 459.7 455.1 453.3 451.8 447.1 448.2 447 447.6 447 446.8 445.1 442.3 441.1 436.9 429.7 423.8 418.6 414.1 412.5 404.7 397.1 386.9 377.2 393.2 406.8 409.7 425.8 434.2 439.6 446 448.8 451.3 458.4 460.8 461.9 464.1 462 460 459.2 459.8 458.7 460.2 460.8 462.4 465.2 469.9 472.5 474.9 478.5 483.4 486.6 490.3 493.1 497.1 500.1 502.5 504 507 511.5 515.8 519.4 522.9 524.9 528.4 533.5 537.7 542.5 547.4 552.8 557.4 562.4 567.5 571 573 577.7 579.9 579.6 577 573.8 568.4 559.3 554.2 548.2 553.7 558.5 564.1 568.4 574 577.4 579.6 579.4 576.5 574.6 577.6 582.4 587 589.6 588.5 581.6 576.7 570.7 568.2 567.8 570.4 572.5 574.8
457.8 456.6 460.3 463.5 463.7 464 466.7 468.1 469 472.1 475.7 478.5 480.7 485.2 487.8 490.4 492.9 494.9 495.8 498.9 499.6 499.1 497.6 496.7 496.3 495.5 494.9 493.8 490.4 488.9 486.7 484.8 483.7 483 481.8 478 474.6 469.9 461.5 456.1 451.8 449 451.2 453.2 453 455.1 456 458.1 461.2 463.8 466.6 469 470.9 470.7 471.5 473.8 474.4 473.7 471.7 469 466.3 463.6 460.4 459 456.7 455.6 453.7 453.1 451.6 448.5 449.3 449.6 450.2 452.5 452.7 457.1 460.1 463.3 467.8 472.8 474.4 474.7 472.9 474.7 474.3 473.7 473.4 475 473.3 471.8 468.8 465.6 463.9 459.5 459.7 458.7 454.3 452.1 451.3 450 450.3 450.1 449.3 447.9 447.4 446.4 444.9 441.4 438.4 428.6 420.8 415.1 410.1 403.6 388.4 385.3 376.4 386.9 397 407.6 415.5 429.2 437.1 442.9 447.5 445.4 450.5 456.7 456.2 458.3 456.3 454.7 454.5 452.5 453 453.5 455.8 457.3 460.6 465.1 467.5 471.4 475 479.2 481.7 486 489.1 492.8 497.1 499.6 501.1 502.7 507.2 513.3 517.9 521.2 525 528 532.9 538.2 544 549.6 554.2 560.6 565.4 570.4 573.6 577 578.7 580.2 581.2 578.7 573.8 564.8 555.3 549.6 541.5 544.3 550.4 554.6 560.3 564.3 566.8 568.5 567.8 564.5 564.6 566.3 570.2 573.7 575.1 573.5 570.8 564 560.4 558.5 557.8 558.5 561 562.8
458 452.6 456.8 460 460 462.1 463.7 464.9 466 468.3 472 475.4 479.1 482.3 485.6 488.9 489.6 493 495.7 496.6 497.5 497.1 496.2 496.1 494.4 492.7 492.9 491.9 488.7 487.2 485 484.9 483.8 482.2 480.3 477.9 475.1 471.3 465.3 458.3 452.2 450.8 451 452.2 453.4 455.6 457.1 457.9 461.7 464.1 465.8 469.4 470.6 471.8 474 475.1 475.4 477.6 477.8 475.5 474.5 472.3 470.6 467.7 463.6 462.7 459.7 457.5 455.6 453.6 454.8 455.1 454.4 455.1 455.6 457.4 460.2 463.7 467.6 471.5 473.7 473.5 472 474.4 473.1 474.2 474 473.8 472.8 471.2 467.7 464.9 466.2 464.3 462.6 459.9 457.9 456.3 454.1 451.5 451.9 450.7 452.1 451.6 449.8 448.9 447.9 443.6 440.2 435.3 427.8 418.1 411.6 402.4 392.5 385.8 377 379.3 388.2 396.8 408.1 416.7 432.1 437.9 442.1 441.4 442.6 449.6 451.6 451.4 450.5 449.2 448.3 446.4 447.6 449.1 450.9 453.1 457.6 459.4 463.4 466.3 470.8 473.4 476 480.1 483.4 488.2 492.1 494.9 496.5 499.2 502.5 507.5 512.9 517.9 521.9 527.3 533.7 540.7 547.5 553.2 558.7 563.6 568.2 574.1 577.8 581.4 583.6 582.5 582.2 578.3 570.4 561 549.5 542.5 538.4 532 540.6 546.5 550.8 552.9 553.7 554.3 555.1 554.4 554.3 555.1 558.5 560.5 561.2 559.5 557 549.6 549.1 549.5 549.9 548.9 549 550.7
454.6 449.9 452.2 455.8 456.9 458 458.8 460.1 462.2 465.2 466.8 471.1 475.2 478.5 482 486.4 488.4 491.5 494.2 494.7 496 494.9 494.8 494.1 493.4 491.9 490.3 488.9 486.6 485.9 483.9 484 482.7 481.9 480.3 478.2 475 471.4 466 460.6 453.5 451.7 452.5 451.8 454.4 455.5 457.7 459 461.7 464.2 466.5 467.2 469.8 472.4 474.5 475.5 476.7 479.6 481.4 479.8 479.1 478.1 478.6 475.8 471.9 469.3 467.3 463.3 461.1 459.8 460.2 459.8 459.6 460 459.9 460.3 462.1 464.9 466.8 468.7 471.5 472 473.6 473.9 474.2 473.4 473.5 471.4 470.2 469.8 470.3 470.1 468.6 466.5 464.7 461.5 459.9 456.9 456.2 455.4 454.4 454.4 454.2 453.9 451.4 450.1 449.9 445.4 442.3 439.7 435.6 428.4 419.5 409.4 398 388 379.9 375 381.4 388.2 396.2 403.5 420.6 431.4 436.2 436.6 437.8 440.9 443.8 444.3 444.8 441.8 442.6 442.3 443.9 445.2 447.3 451.7 452.6 457 460.3 462.6 466 468.7 471.4 474.7 478.5 483.2 486 489.9 492.7 495.8 499 504 509.7 515.3 522.5 529 536.4 544 552.7 558.8 564.4 568.7 573.6 577.5 582.3 586.5 589.1 587.1 582.4 575.9 563.7 552.9 541.4 534 530.1 525.1 530 535.1 540.7 542.6 544.8 545.3 544.4 544.8 544.9 545.8 546.3 547.4 547.9 546.1 543.1 539.4 539.1 539.6 540.8 540.2 539.2 537.8
451.3 445.1 447.4 451.3 452.9 453.2 454.6 454.3 456.8 460.4 463.3 466.6 470.6 474.3 478.3 483.5 487 489.5 492.2 494.1 493.4 494.1 493.4 492.1 490.8 490.2 488.4 485.6 484.4 483.3 482.4 482.3 481.7 481.4 479.3 477.2 475.1 471.9 467 462.1 455.7 453.3 452 451.5 453.1 454.9 457.5 458.6 461.6 464.3 466.3 467.8 468.8 472 475 474.8 477.3 480.1 483 483.4 482.5 482.3 482.2 480.9 478.6 476.2 472.9 469.8 467.5 464.5 464.9 464.7 464 464.5 464.1 463.4 464.1 466.8 469.3 470.3 470.9 472.8 473.5 474.4 474.7 474.4 474.4 472.8 473.6 473.6 473.1 471.3 471.5 469.9 467.4 462.9 461.4 459.1 458.1 457.7 457.3 458 455.8 456 454.1 453.2 450.7 447.4 445.2 445.7 440.9 435 426.8 418.7 408.8 397.1 388.4 383.3 375.2 377.6 388.9 390.7 406.4 420.6 428.7 430 432.6 433.2 437.3 437.3 436.6 437.6 436.8 439 440 440.9 443.3 449.2 451.1 454.4 458.1 459 462.9 466.2 468.5 471 474.6 478.5 481.2 484 487.9 491.3 495.8 500.9 508 515.5 524.3 533.8 542.2 550 557.1 563 569.6 574.4 578.9 583 586.9 590.5 592.7 590.2 583.9 573.7 554.5 541.8 531.8 523.2 518.4 517.3 516.5 525.4 530.3 533.6 535.5 535.6 535.3 535.2 535.6 535.7 535.8 536.6 535.9 533.8 532.3 530 528.8 529.2 529.5 529.6 529 527.8
443.8 437.1 440.8 446.4 447.7 447.4 448.5 449.4 450.5 454 457.1 461.3 465.5 470.1 474.4 479.2 484 487.1 488.6 491.3 492.6 493.2 492.7 489.6 487.6 487.3 485.6 482.7 480.4 479.9 479.2 478.3 480 479.9 478.2 476.1 473.3 469.7 466.5 462.2 457.4 454.7 453.1 451.6 452.1 453.7 455.6 458.8 460.3 462.1 464.8 466.7 468.2 470.5 473.7 475.7 477.3 480 483 484.6 485.1 484.9 484.3 482.9 483.2 480 476.9 473.1 470.7 468 469.9 468.5 467.9 467.2 467.7 467.7 466.8 467.9 470.2 472.3 473.7 472.4 474.3 474.8 474.2 473.7 473 473.4 473.1 474.2 474.2 474.2 473.6 473 470.7 466.7 463.5 462.2 458.9 459.8 460.5 459.9 458.4 456.7 456.6 454.8 453.3 451.9 449.4 449 443.7 439 433.2 427.5 418.6 411.6 401.2 391.4 381.6 373.4 378 384.2 393.3 407.7 415.3 420.7 426.4 422.8 429.4 430.8 430.8 432.1 433.7 434.7 434.8 436.9 440.1 447 450.4 453.1 454.7 457.4 460.1 462.8 465.8 469.9 473 475.6 479.2 481.3 484.5 488.3 492.8 499.2 506.3 515.2 525.7 536.3 544.2 551.2 557.4 565 571.4 578 582.6 587.2 591.4 595.1 594.9 591.6 583.5 571.3 555 535.1 520.6 511.6 506.2 505.8 505.1 514.1 518.8 523.1 525.2 526.5 527 527.1 526.8 525.7 524.9 524.2 524.6 523.9 522.6 521.2 518.5 518.3 519.6 518.9 518.7 517.4
439.4 434.1 433.5 440.6 442.7 442.2 443 444.8 446.9 449.3 451.2 455.1 460.2 465.5 470.6 473.8 480.4 484.5 486.6 490.5 492 492 492.2 489.2 487.6 486.1 484.1 481.1 477.8 476.3 473 474.8 476.2 477.4 476.2 474.4 471.8 468.4 464 462.3 459.3 455.7 453.2 452.5 451.6 453.5 454.9 456.6 458.3 460.4 462.3 464.9 467 468.8 470.8 474.7 477.4 479 481.8 483.2 485.7 485 486.2 485.8 485.1 482.3 480 475.3 474.2 472.1 471.9 472 471.7 470 470 470.5 469.6 470.8 471.2 472.7 472.5 473.1 476 477.8 476.4 475.5 473.2 473.3 473.4 473.3 473.5 475.7 475.6 474.9 473.2 469.2 465.5 463.7 462.4 462.4 461.2 459 459 459.3 459.1 458.8 457.6 455.9 453.3 450.8 447.2 445.2 440.6 434.2 426.6 419 411.9 400 389.6 376.1 369.5 377.7 380.9 395.9 404.6 410.8 415.6 415.5 420.1 423.5 424.9 427.4 429.8 427.4 429.2 433.9 440.8 446.1 449.6 451.7 454.3 457.1 460.1 462.5 465.6 468.6 472.1 473.9 476.6 478.9 482.7 485.3 490.5 496.8 504.1 514.5 524.9 534.6 544.4 550.2 556.3 564.3 570 576.4 581.5 585.8 592.5 597.8 595.6 590.1 581.6 564.2 549.2 535 516.5 503.1 496.3 490.8 494.4 500.1 507.7 513.2 516.3 516.4 517.6 517.7 515.8 513.5 513.4 513.5 514.6 514.3 512.5 511.5 509.1 508.6 509.4 507.7 506.8 507.2
437.8 430.4 428.2 432.9 436.6 437.7 439.3 440.6 442.4 444.5 446.4 450.3 455.8 461.1 466.3 471.1 475.3 479.3 484.5 487.2 490.5 491.7 490.9 489.8 489.6 488.7 486.2 483.4 480.3 477.5 473.3 469.3 470.2 473.6 473.2 470.9 468.5 467 464.6 462.4 459.2 454.4 453 451.9 450.6 453 454.1 455.4 456.3 459.6 461.5 463.3 466.1 468.1 470.2 472.5 475.7 478.1 481.1 483 484.8 484.7 484.7 484.8 485.4 482.6 479.9 478.5 476.6 475 474.6 474.6 474 473.7 472.2 473 472.3 472.1 472 472.1 472 473.4 475.6 477.3 477.5 475 474.6 474.8 474.3 474.2 474.3 476.2 475.9 475.8 474.5 471.1 468.1 467.7 466 464.5 462.8 461.8 460.8 461 461.4 460.4 460.1 459.3 456.8 453.9 451.1 450.4 446 440.1 433.5 424.9 418.9 406.6 395.5 385 375.5 369.1 372.8 379.3 392.5 396.3 402.9 406.9 410.8 415.2 416.7 420.4 418.8 426.8 432.7 438.4 444.1 447.6 449.2 452.1 455.6 457.8 459.6 461.7 463.4 467.4 470.9 473.2 474.4 477.1 480.2 483.4 488.3 494.5 502.1 511.9 522.6 532.6 541.8 549.4 554.9 559.8 564.9 571.1 578.9 582.3 586.1 592 594 585.7 575.9 557.3 537.8 528.7 511.6 498.2 487.3 484 482.8 484.7 494.9 500.7 506.4 507.6 508.5 508.5 507.5 505.8 503.7 503.5 504.5 504.7 502.5 500.9 499.7 500.2 498.9 497.5 497.7 498.4
436.8 428.5 422.6 426.6 430.9 433.1 434.5 436.2 437.6 438.9 443.4 447.2 451.6 456 459.8 465.8 470.6 476.1 480.4 484.7 489.7 491.7 492.3 491.4 489.5 489.6 487.2 484.7 480.7 477.2 473 469 463 467.2 468.4 467.3 467.1 466.4 463.8 461.7 458.7 455.6 454.6 451.9 449.8 450.3 451.9 452.6 454.8 455.6 459.3 461.9 464 465.4 468 470.2 473.3 477 479.2 482.6 485.1 485.1 484.6 484.7 483.2 482.7 480.6 477.8 476.6 476.7 475.8 474.9 474.3 473.7 473.8 473 472.2 472.7 472.5 472.7 471.7 471.7 472.6 475.6 476.4 475.9 475.5 474.6 475.2 475.5 474.5 476.3 476 476 475.7 472.7 471.7 471.2 469.4 467.4 465.7 463.4 463.4 463.7 463.8 463.4 463.9 461.4 460.3 457.9 457.5 455.4 451.5 446.1 440.5 430.7 421.8 412.7 400.9 389.8 384 377.5 371.3 366.9 379.8 385 394.6 393.1 398.4 406.7 408.6 412.8 423.1 429.2 435.9 441.1 445.7 447.4 451.2 452.8 456.6 458.7 458.9 460.8 462.7 465.9 469.5 471.2 473.1 476.1 478.9 481.8 485.9 491.9 498.8 507.2 517.9 528.2 537.2 545.3 549.4 553.3 558 561.2 564.9 572.2 575.9 582.6 586 578.8 568.4 553.2 531 521.6 504.8 491.2 481.2 477.1 473.6 474.2 478.6 487.3 494.2 498.5 499.3 499.8 498.8 497.9 495.8 496.1 495.6 495.5 493.7 493.1 492 491.4 490.6 490.3 489.6 490
432.5 426.2 420.9 418.4 424.2 427.2 429.5 431.4 432.7 435 439.7 444.6 449.1 452.4 455.4 460.9 467.3 472.2 478.8 485.4 490 492.5 493.6 492.9 492 490.6 488.9 484.6 478.7 474.8 471.1 466.1 463.2 457 461.6 461.8 462.5 462.5 460.6 459.4 457.8 456.4 454.2 452.4 449.2 447.1 449.2 450.4 451.7 453.9 456.7 459.6 462.5 464.4 465.3 468.5 471.2 476 477.6 480.6 482.8 484.1 485.5 485.4 484.3 481.7 479.6 477.3 476.1 476 474.9 474.1 474.6 474.2 472.7 472.1 472.7 472.7 473.1 472.7 471 470.4 470.2 472.4 473.9 474.8 474.5 474.8 474.4 475.1 475.2 476.5 476 476 476.1 475.8 474.9 473.8 471.6 472.1 468.8 466.1 465.3 465.3 465 465.7 467.5 465 464 463.1 462.6 460.5 456.6 452.4 447 436.6 426.9 418.2 406.3 392.4 384.1 379.8 373.4 368.9 369.6 378.4 383.9 383.2 388.3 397.5 410.1 418.2 426.1 431 437.2 443.6 447.2 450.4 452.9 455.7 457.5 457.6 458.9 460.3 461.1 464.3 467.1 468.9 471.4 475.6 478.8 478.6 484.6 488.6 494.1 499.9 511.1 521.1 530.8 538.6 544.3 547.1 548.2 549.4 553.2 555.4 563.6 571 576.3 571.3 560.4 551.1 530.7 513.7 505.8 487.3 479.4 472.2 470.5 468.9 470.3 475.6 481.5 487.3 488.7 490.4 490.1 490.2 488.5 487.7 488 486.5 485.1 486 485.4 483.5 482.6 482.2 481.7 481.9
429.9 424.2 418.4 412.8 417.1 420.9 423.9 426.6 429.6 433.4 438.8 442.8 446.3 450.1 452.6 458.4 464.4 471.6 478.3 483.6 489.5 493.2 494.2 495 494.3 492.3 490.4 485.6 478 474 469.1 464.1 460.1 454.1 454.6 452.6 451.2 452.6 454 453.8 452.9 452.5 451.3 448 446.7 442.4 445.6 447 448.8 451.1 453.9 455.5 460.1 462.9 464 466.8 469.5 473 475.9 478.4 479.7 480.7 483.2 482.8 482 481.2 477.8 476.8 475 475.1 473.1 474.3 474 473.3 473.2 473 471.8 472.2 471.8 470.1 470.6 469.3 469.1 468.5 471.6 472.9 472.7 472.9 473.8 474.3 475.4 475.7 476.4 476.4 477 476.8 475 474.4 475.2 474.2 470.2 467.1 466.2 466.8 467.2 467.4 470.2 468.2 466.3 465.1 465.3 463.7 461.5 457.5 450.8 444.5 434.6 425.5 410.2 394.5 385.1 379.4 376 371.4 366.5 373.9 377.6 381.5 385.2 399.9 413.6 423 430.1 434.9 438.5 444.5 449.4 451.9 454.6 457.1 456.8 458.3 457.9 457.8 457.9 458.9 462.8 466.7 469.5 474.3 475.6 477.7 481.8 485.6 489.6 495.1 502.9 513.8 523.5 530.6 536.4 537.8 538.9 540.4 541.8 544.9 550.3 559.2 564.7 562.7 554.8 544.8 532.8 511.3 501.2 484 474 469.8 467.5 462.5 465.8 467.1 470.8 474.4 478.6 480.5 482.1 482 481.1 480.7 479.8 479.1 478.7 478.1 477.9 476.2 474.6 475.5 476 476.2
426.9 420.5 414.8 413.5 411.4 415.8 420.2 424 427.6 431.6 435.5 440.2 443.2 447.3 452.2 456.6 463.3 469.7 477.2 485.2 490.4 493.5 495.6 496.6 495.7 494.5 491.7 485.6 477.4 471.3 466.4 460.4 455.1 449.5 445.1 445.6 444.6 442.9 442.7 443.5 442.2 443.1 443.4 441.7 440.5 438.1 440.9 442.7 445.2 447.5 450.9 453.6 456 459.8 462.4 464.4 467.5 469.6 473.3 475.2 475.6 478 478.5 479.2 476.9 475.6 475.5 473.8 472.6 472.4 470.8 471.4 470.9 471.2 471.4 471.6 471 471.1 471.2 469.4 469.7 468.6 467.7 466.7 469.7 470.7 470.8 471 473 473.3 474.2 475.3 476.2 477.5 477.5 476.9 476.8 475.2 475 474.1 471.8 469.3 463 463 463.4 469 472.1 470.1 467.9 465.4 464.7 464.5 463.6 461.9 456.7 450.7 441 431.7 418.7 400.1 385.4 379.7 375 371.6 368 367.3 375.4 376.1 386 403.7 419 427.6 432.9 436.2 439.9 445.4 449 452.2 454.9 456.8 457.5 456.8 455.8 454.6 453.7 455.3 460 464.9 465.9 467.6 469.2 471.4 476.4 481.5 484.6 489.8 496.5 505.3 514.6 522.8 527.3 531.9 532.7 533.4 535.6 537 539.1 546.3 553.5 555 550.8 542 532.1 516.1 496 480.6 471.8 468.1 463.3 459.4 460.7 461.1 461.5 463.4 469.1 470.7 473.4 473.2 474 474.9 474.3 473.1 473.7 471.1 470.2 468.7 468.5 468.8 469.1 470.6
424.2 418.1 413.3 409.9 409.1 412.6 416.1 419.4 422.2 426.2 429.8 434.6 440.2 443.4 449.2 454.1 461.1 469.8 477.4 483.9 489.9 493.3 496 498.2 497.4 494.1 489.6 483.7 475.6 469 461.7 454.6 449 443.7 439.1 439.4 437.7 436.1 434 432 431.6 432.5 432.2 431.8 431.4 430 434.6 438.6 441.7 445.1 448.5 450.8 454.8 457.4 460.8 462.4 464.7 466.6 470.6 473.4 473.6 475.4 474.8 475 473.9 472.1 470.9 470 469.7 469.9 468.7 468.3 468.8 468.2 468.1 469.5 469 470.2 469.6 468.3 467.6 466.6 465.8 465 467.5 468.5 469.8 470.9 472.2 472.7 473.6 475.6 475.6 477.8 478 477.8 477.4 475.4 475.5 473.6 471.9 469.1 463 464.9 463.5 468.4 471.5 472 469 465.5 463.9 463.5 462.2 461.8 459.2 453.5 446.2 436.1 425 408 388.2 378.1 374.6 370.1 367.8 365 372.3 375.9 391.5 405.3 423.5 431.5 434.5 437.3 440.5 445.2 450.7 453.8 455.1 456.1 456.2 455.2 454 452.8 451.2 452.3 455.6 460.3 462 462.4 461.3 463.9 470.3 475.4 478.4 484.2 489.6 496.7 506 513.9 519.2 523.6 525.4 526.6 527.2 528.3 530.6 534.9 541.8 547.3 548.1 538.1 528.8 517.4 498.1 482.2 470.8 463 460 455.8 456.6 457.5 455.7 457.5 461.3 463.3 464.6 465.3 466.8 466.1 467.2 465.6 466 464.3 464.1 462.8 462.8 463 463.7 463.4
419.4 416.4 409.5 405.5 404.6 406.6 410.1 411.7 415.2 418.6 423.4 428.9 435.6 438.9 446.1 453.4 459 468.3 476.5 482.1 488.3 492 496.2 498.3 497 493.5 487 479.6 472.8 465.5 458.5 452.6 445.1 439.5 436.7 432.8 430.6 426.3 424.5 421.6 422.4 420.5 422 423 422.8 422.1 428.2 431.7 436.7 441.5 446.2 449.6 452.6 455.4 457.8 460.4 462.3 463.8 466.6 470.5 471.3 472.4 471.4 469.2 468.2 466.5 465.5 465.9 464.9 466.5 465.9 466.2 465.7 464.5 466.2 467.2 467.2 468 467.4 467.8 465.9 466.1 464.8 463.8 465.7 466.4 466.4 469.1 469.8 471.5 471.4 474.3 475.6 476.7 477.1 477.1 476 474.9 474.3 471.8 469.5 468 466.6 464.6 467.1 467.6 470.3 471.5 469 464.7 463.7 462.3 458.9 458.1 458 453.5 444.8 436 427.7 415.1 390.6 380.7 371.8 370 367.8 361.6 370.4 376.8 394.8 412.2 424.8 432.5 437.3 437.8 440.7 443.7 449.4 452.7 453.7 454.4 453.9 452.9 451.9 449.3 448.4 450.7 452.9 455.9 456.7 455.9 456.1 459 463.1 467.8 473.3 477.6 482.9 489.2 496.3 503.2 509.3 513.4 515.5 515.9 517.1 518.3 521.2 524.9 531 536.1 539.4 534.2 525.4 517 502.4 483.4 470.5 463.7 458 455.2 452.3 454.1 453.8 450.3 454.5 457.6 458.3 459 459.5 457.8 459.3 459.4 458.3 457.4 456.9 455.7 455.5 455.8 455.8 457.8
415.3 409.3 405.6 402 399.3 401.8 404 404.6 407.8 412.1 417.4 423.6 430.6 434.5 441.8 451.4 458.3 466.1 475 480.5 485.7 491.6 493.4 494.7 493.1 489.7 482.5 474.1 467.9 462.3 456.5 448 440.7 435.9 432.2 426.8 424.4 421.5 418.2 416.8 416.6 414 414.3 416.5 417.3 415.4 421.6 426.3 431.3 436.5 441.8 446.5 449.2 452.6 455.6 458.1 460.3 461.7 462.5 465.1 467.7 467.7 466.5 464.6 463.6 462.2 460.6 460.4 460.9 462.1 461.9 461.5 462 462.3 462.9 465.6 466.8 466.7 467.1 466.8 466.8 465.8 463.5 462.1 464.7 464.7 464 465.4 468.5 469.4 470 471.8 473.1 475.3 475.6 474.8 472.8 472.8 471.1 469.4 467.3 465.8 465.4 462.1 465.5 466.8 467.9 470.2 468.3 464.4 462.8 461 456.1 455 454.1 451.4 443.8 433 423.3 411.8 393.2 381.7 372.1 368.2 366 362.1 374.3 392.7 409 421.5 425.5 431.4 436.5 437.3 439.6 443.6 447.4 450.9 450.7 451.3 450.9 448.4 446.7 444.9 444.1 447.2 449.4 452 450.6 452 453 455 457.5 461.7 467.1 470.9 475.5 480.6 486.6 491.4 497.3 500 500.8 504 506.5 509.2 512.1 517 522.6 527.7 530.9 528.2 520.8 513 507.1 488.6 475.7 467.9 459.5 450.4 449.6 449.8 450.5 448.4 449.5 452.5 454 453.9 453.8 453.7 452.9 451.9 452 451 450.6 448 448.8 448.8 449.5 450.5
408.2 404.8 400.8 396.6 395.8 396.1 397.1 398.6 401.2 405.5 412.4 419 424.9 432.2 437.9 445.5 455.7 465.1 472.4 478 484.9 489.1 490.7 489.8 487.2 480.5 474.1 466.8 459.7 456.2 449.7 441.4 435.7 430.3 427 423.9 417.5 416.8 413.8 411.4 412 409.8 407.8 410.3 411 410.9 414.4 420.5 426.6 433.6 438.4 442.6 446.1 449.7 453 456.6 458.4 458.9 458.4 460 460 461.4 461.4 460.3 459.2 457.3 455.7 456 455.4 456.5 455.8 456.2 458.4 459.9 461.1 463.9 464.4 465.8 467.2 466.9 467.7 466.6 464.6 462.1 462.4 463.4 463.5 464 465.4 467.4 469.2 469 469.1 470.6 471.6 472.3 470.9 469.8 468.1 466.1 464 464.7 463.3 460.3 463.5 464.9 466.3 467.8 466.1 462.6 461.1 459 456 449.8 448.2 444.9 440.7 432.7 418.4 407.3 388.8 376.4 373.6 367.7 364.3 359.3 379.2 398.6 417.2 428 427.9 430.5 433.3 435.8 437.8 441 445.1 447.2 448 446.7 445.8 443 441 439.4 439.6 442.2 446.2 448 448.9 449.7 450.2 451.2 452.7 455 457.9 462.1 468 472.6 477.9 483.5 487.9 490.6 490.4 493.7 495.9 499.5 503.4 507.9 514 519.2 522.6 522 516.8 508.4 503.9 495.5 479.5 469.2 459 453 449.3 445.8 446.4 444.7 444.3 444.4 445.5 446.4 448.1 448.1 447.1 446.6 445.2 444.7 445 444.5 442.8 443.2 443.2 443.5
406.8 402.7 398.2 394.1 388.9 389.6 389.8 392.1 394.4 400.7 407.5 412.6 420 430.1 437.3 441.1 452.5 461.3 467.9 475.2 480.4 483.8 486 484.2 479 472.3 464.6 456.5 450.5 446.2 439.2 431.7 425.1 424.3 421.8 416.8 414.3 411 409.3 407 406.1 404.8 402.1 403.1 404.2 405.2 408 414.8 420.8 428.6 432.9 437.8 442.4 446.4 449.8 453.6 456.1 456.5 455.7 455.3 454.1 453 453.5 453.8 452.8 452.3 451 451.4 451.2 450.5 451.8 454.7 454.7 455.4 460.4 463.7 465.2 466.5 468.1 468.2 467.5 466.8 464.6 462.5 460.4 460.3 462.3 462.1 462.3 465.1 467 468.8 468 469.8 469.4 470.2 469.5 468 467.1 465.2 463 461.3 460 459.3 461.7 462.2 463.5 463.9 462.7 459.2 457.9 455 451.1 444.8 441.8 438.6 434.9 428.9 418.3 406.1 388.9 375.7 372.3 367.2 362.6 361.3 380.2 400.7 421 430.3 432.2 431.5 433.3 436.4 437.4 437.2 440.1 442.5 442.1 440.7 440 438 438 436.6 438.4 438.8 443.4 444.6 446.8 446.7 447.8 448.2 449.8 451.2 453 454.3 458.6 463.3 468.7 474.3 479.7 483.3 485.1 487.5 488.7 490.9 495 498.4 503.8 508 512.2 513.4 510.7 503.9 497.8 495.2 483.5 473.2 462.9 454.8 447 445.3 439.7 439.7 440.2 437.4 439.1 440.7 442 442.9 441.7 441.9 439.7 439.8 440.6 440.6 439.1 439 439.4 437.4
405.4 403.1 398 392.8 389.2 385.8 384.2 387.2 392.8 397.1 401.3 406.4 416 425.2 432.3 436.1 445.2 455.8 462.3 468.7 471.7 473.8 475.4 473 467.8 462.9 457.2 451.4 445.7 434.6 429.2 422.6 418.4 417.5 414.3 411.6 409.5 405.6 404.5 402.7 401.2 400.2 398.4 399.1 398.8 401.2 403.1 407.9 415.3 420.9 427.8 433.1 438.3 442.7 448.2 451.9 452.2 453.9 453.7 452.4 449.5 447.7 446.1 447.2 447.3 446.9 447.6 447.6 447.8 448.1 448.4 450.2 450.9 455 459.8 462.8 465.5 467.6 467.4 467.7 468.5 467.3 464.7 461.6 458.8 459.1 460.4 461.1 460.9 462.5 466 467.4 468.4 467.7 467.1 466.8 467.7 466.8 464.5 462.8 461.3 459.1 457.6 456.6 457.5 458.5 459.8 459.8 457.7 455.2 451.4 449.8 447.1 441.9 436.5 432.4 428 423.6 416.6 406.2 390.4 380.3 372.2 365.9 361.1 366.4 380.5 400.8 418.5 430.2 433.4 432.3 435.7 436 436.7 435.9 435.9 435.7 437.9 436.1 436.5 435.5 436.5 433.5 435.5 435.1 438.6 440.1 442.6 443.3 443.2 444.4 448.7 448.6 448.4 448.2 449.4 453.8 457 463.4 470.1 474 477.6 480.3 482.2 483.5 486.5 489.1 493 497.6 500.9 502.1 500.6 495.3 490.8 488.8 481.5 471.6 464.3 454.8 446.2 441.4 438.7 437.5 435 435.3 433.1 433.8 436.8 437.6 436.3 436.2 435 435.3 435.2 435.2 435.4 435.8 434.5 434.9
403.6 399 395.4 391.8 388.3 382.7 381.7 385 387.4 391.4 395.6 402.5 410.2 418.4 425.1 428.4 432.3 443.3 454.7 460 462 461.4 459.9 459.9 456.7 453.7 450.4 442.2 435.2 426.4 418.5 412.9 410.6 411 408.1 405.6 403.7 402.1 398.2 398.2 396.8 395.4 394.4 395.4 395.4 396.6 399 401.9 409.1 415.5 421.4 427.9 433.9 440.6 445.4 449.9 451.5 451.4 451.2 450.8 449.1 445.4 443.3 442.8 443.2 443.5 443.1 444.9 445 445.1 446.3 446.2 452.9 454.9 459.8 463.5 466.1 467.7 466.9 468 466.7 466.3 464.1 461.2 459.2 457.2 458.5 459.9 460.2 459.8 462.2 465.3 466.3 466.9 466.4 465.1 464.9 464.8 462.9 462.7 460.2 458.6 455.7 456 455.5 453.9 455.4 455.7 453.4 450.8 445.7 442.5 441.4 437.6 432.7 425.3 422.6 415.5 410.5 402.1 389.6 377.8 369 364.8 358 365.4 382.7 399.2 414 424.3 431.8 433.4 436.3 436 436.4 434.6 433.6 432.7 431.9 433.1 435.1 434.8 431.5 431 431.7 431.4 434.1 434.8 436.3 439 439.4 442.9 444.2 445.6 444.7 444.6 444.2 446.4 449.2 453.6 457.5 464.8 468.6 472.1 474.8 476.9 478.9 481.4 484.2 488 490 491.1 492 489.2 486.5 483.4 478 468.6 461.4 454.9 447.2 439.3 436.4 434.4 432.4 432.4 428.2 428.4 431.2 432.5 432.3 432.1 431.3 431.9 432.2 431.7 431.2 432.5 432.4 431.8
401.7 397.4 392.6 389.5 385.8 381.6 377.2 379.9 381.7 385.5 391.3 396.7 402.8 409.8 414.6 419.2 424 434.3 443.8 448.4 449 450.2 448.8 448.3 447.9 445.4 440.2 432.2 422.9 416.1 409.4 402.9 399.8 401.4 399.9 399.6 399.1 397.8 392.9 391.8 392.7 391.6 390.8 391.4 390 392.7 395 398.1 402.9 408.9 414.7 421.5 428.1 435.2 441.6 446.9 447.6 448.9 449.8 449.4 449 444.5 442.4 440.2 438 438.5 440.5 441 441.2 440.7 442.8 449.1 453 456.1 460 462.7 465.1 467 467.3 467.1 465.5 463.8 461 459.1 456.3 456.2 456.5 456.9 457.9 458.3 460.3 462.1 464.2 463.5 464.5 463.1 463 463.5 462 461.5 459.3 457.6 455.5 455.5 453.8 451.9 452.4 450.2 449 446.7 441.7 435.2 435.1 430.9 427.5 421.3 416.2 410.6 404.8 396.9 386.7 377.1 366.5 363.7 359.7 366.5 385.5 401.7 408.6 417.6 423.9 432.4 438 438 435.5 434.8 434.1 431.8 430.8 425.4 430.9 433 430.2 429.9 428.8 429.2 430.7 430.2 430.7 430.1 431.2 435 436.3 437.9 436.3 437.1 436.3 436.6 439.3 443.1 448.1 454.6 459.7 463.3 467 470.4 474 474.7 478 479.3 482.1 484.4 485.8 483.6 482.9 478.7 471.9 466 458.8 453.4 447.1 438 433.3 432.9 428.9 428.2 425.7 423.4 425 426.6 427.2 426.6 427.3 427.9 428.2 427.8 427.8 428.6 429.1 428.7
399.4 395.5 391.5 388.8 385.2 383.3 376.7 375.9 376.4 380.1 385.1 390.3 395.5 400.5 405.4 411.5 416.1 424.3 430.2 434.6 437.4 436.4 435 438.2 438.8 432.6 427.7 421.9 412.3 403.2 400 396.9 394.8 393.2 394.9 392.6 392.8 390.7 388.3 387.4 388.3 388 386.8 386.7 384.3 389.2 390.9 394 399.2 404.4 410 416.3 422.2 429.3 436.1 442.6 446.5 445.5 448.2 449 447.3 442.4 440.9 438.1 435.1 435 436.5 438.4 438.9 438.2 443.2 447.8 452 456.5 459.2 462.5 464.1 466 467 466.5 464.4 462.8 459.7 457.8 456.5 453.7 452.7 453.6 456.3 456 457.8 460.3 461.1 463.1 463.2 462.8 462.2 462.6 462 459.5 458.8 457.5 453.5 454.1 452.2 451.2 450.3 447.1 444.3 440 436.9 433.1 426.8 426.2 423.8 417.6 410.6 406.7 399.1 391.4 382.4 375.8 366.3 357.6 352.9 367.4 384.3 400.9 407 412.7 416.9 425.2 436.6 439.6 435.1 433.7 433.4 433.4 433.9 427.8 421 423.9 427.1 427.1 424.8 426.6 427.4 426.1 423.6 422.6 425.1 424.8 427.1 426.9 425.9 427.5 428.7 429.7 430.6 435.4 442.7 448.4 451.7 456.1 459.3 464.1 466.5 469.8 472.7 475.2 477.8 479 481.2 481.5 479.7 475.8 471.2 467.1 459.9 454.2 448.6 441.3 433.4 429.7 427.4 419 422 419.9 417.6 420.5 421.4 420.8 422 422.8 422 422 421.5 423.5 425.4 425.3
396.4 393.1 390.3 388.1 385.9 381.7 377 371.2 372.1 374 377.8 381.3 385.2 390.2 394.3 398.3 405.1 412.3 415.8 418.6 422.2 419.1 419.3 421.2 421.8 416.6 409.4 407.9 403 397.7 387.3 381 381.3 382 382.7 384.2 385.4 383.7 382.6 387 385.2 384.1 381.8 381.9 378.7 382.2 386.1 389.1 395.1 401 407.2 413.8 420 425.6 431.6 437.5 441.4 441.7 443.7 444.3 443.1 439.3 437.9 435.4 432.6 431.5 433.7 435.8 433.3 439.3 442.4 445.6 450.5 454.3 458.9 461.3 463.8 465.6 465.9 466.2 465 463.3 460.5 458.8 456.5 453.2 452.1 453.5 453.2 454.7 456.6 458.2 459.4 460.8 461.8 462.4 462.4 461.4 462.3 460.2 459.4 457 454.9 452.7 452.1 451 450.7 447.7 443.7 434.4 426.7 426.8 421.8 420 419.4 413 406.9 401.7 396.9 388.2 377 370.1 362.3 355.2 354.1 371 385.6 400.2 404.2 407.1 412.5 418.8 430 434.7 433.6 431.3 431.5 431.4 434.3 431.5 425.6 421.7 414 424.1 422.6 422.5 422.7 420.1 418.4 416.5 415.3 416.3 415.7 418 416.6 416.5 418.6 419.8 425.7 428.7 434.5 441.3 446.1 450.6 454.7 457.3 461 464.8 467.6 471.2 473 476.2 475.9 478.2 478.6 476.5 473.5 470 464.9 456.8 451.1 444.4 436 431.4 426.7 424.3 420.4 413.8 415.6 411 415 415.8 415.9 417 416.2 416.7 416.4 418.1 420 423.4
392.3 390.9 388.9 386.8 384.7 382.2 376.9 373.7 370.7 369.5 371.3 372.6 374.9 381 385.8 390 395 398 401.2 405.6 407.9 408.1 405.1 405.2 405.6 403.9 399 392.6 386.9 383.2 378.2 372.9 371 370.1 369.1 372.2 374.8 375.5 377.5 381.2 379.4 379 379.2 378.4 375.4 378.3 381.9 386.4 393.1 399.2 404.8 410.1 415.7 420.7 425.1 430.5 434.9 437 437.8 438.9 437.9 435.6 434.1 432.5 430 428.6 429.5 431 433.8 438 441.9 445.5 449 453.2 457.5 459.2 461 462.3 465.3 466.5 465.3 462.7 460 457.2 455.4 452 450.6 451.2 451.3 453.5 455.1 457.1 457.6 458.7 460.1 461.3 462.5 461.4 461.7 460.8 460.1 458.9 456.3 453.5 453 451.9 450.8 448.5 444.4 440.1 431.8 424.1 413.1 410.7 413.2 409 402.6 399.6 396.5 388.8 374.9 365 362.9 354.6 350.6 368.9 386.6 398.3 400.4 402.5 407.1 413.5 417.2 427.6 429.2 426.9 426.1 427.3 431.3 429.9 425.2 419.5 418 410.6 415.2 415.8 414.7 412.6 412.5 409.3 406.1 406.7 404.2 406.4 407.3 409.4 411.7 412.8 416.8 421 427.4 434.7 439.2 443.8 449.2 452.8 455.9 459.9 463.5 466.8 470 471.5 474.1 476.9 478.1 477.2 474.9 473.1 468.3 461.9 455.1 448.4 439.5 434.6 428.9 424.2 420 414.4 413.2 409 407.6 409 410 411.9 411.6 411.5 412.8 410.5 416.4 421.1
387.7 386.7 385.2 383.3 382.8 380.4 377.2 374.5 372.4 369.7 363.2 367.7 366.5 370.1 376.4 380.8 385.3 386.9 389.7 390.9 395.8 397.2 395.7 394.1 390.7 387 383.4 379.3 374.9 371.3 368.3 365.4 363.7 361.3 361 360.8 365.5 368.7 371.1 373.1 373 374.4 374.4 374 372.7 375.4 378.7 384.7 390.4 395.6 402.2 408 413.5 416.8 420.3 425.1 428.3 431.9 433.8 431.9 430.4 429.3 429.1 428.1 426 425.9 427.6 427.2 432.5 436.7 440.6 445.2 449.7 453.7 457 458.6 459.2 460.1 463.8 465.4 464.5 463.1 459 455.3 454.2 452.4 451.3 448.7 448 451.6 454.1 454.6 456.8 456.1 457.7 459 459.8 461.6 461.4 460.2 459.3 458.2 458 455.1 453.1 452.6 451.1 450.4 448.1 443.5 437.2 427.3 418.2 406 405.6 403.9 398.4 392.9 388.8 382.9 373.3 363.7 359.2 351.3 350.2 369.9 383.1 390.9 394.7 400.6 404.5 409.6 414.1 413.8 422.4 420 418.6 418.9 422.9 422.3 418.3 415.4 412.2 410.2 407.1 401.2 405.3 403.4 402.7 398.6 397 394.5 394 395.5 396.1 400.6 401.9 403.5 408 414.1 418.7 425.1 432.7 439 444.4 448.1 450.6 454.7 458 461.2 465.6 468.8 470.2 473.7 476 476.1 476.5 474.9 472.2 467 460.2 453.3 446.5 438.2 432.5 425.7 420.2 415.8 409.9 405.1 401.3 401.6 404.1 404.9 406.2 407.3 409.6 408.4 413.5 420
386.9 384.7 381.9 381.2 380.4 378 374.9 373.4 371.9 370.3 367.7 359 360.7 364.2 368.7 372 374.8 377.2 378.3 379.6 381.9 381.8 381.3 381.8 380.4 377.8 374.8 372.6 369.1 366.4 363.9 360.1 356.3 353.8 354.5 354.8 357.5 360.6 362.1 365.8 364.6 369.7 369.2 369 371.4 372.7 375.9 382.4 387.5 393 400 406 410.7 414.8 416.9 421.2 424.4 426.8 428.4 426.8 424.7 424.4 423.2 423.1 423.1 425.2 424.5 428.7 433 435.8 441.8 447.1 451.3 455.2 458.4 460.4 460.8 460.4 458.4 463 463.3 462.5 458.2 454.4 452.5 451.1 450.4 447.9 444.4 450.6 452.9 454.4 453.2 454.7 456.7 457.7 458.7 460.1 460.4 460.6 459.5 458.5 457.1 456.3 454.6 452.7 453.1 452.4 448.6 445.5 438.9 430.6 417.5 408 400.6 395.3 393 387 383.7 378.2 370.4 360.8 352.5 348.5 351.9 368.2 378.5 381.8 388 395.7 398.7 404.8 411.2 411.1 411 413 410.3 407.6 413.2 412.5 409.9 408.5 406 406.3 405.3 399 388.9 392.2 392.6 389.7 389.9 385.3 385.1 387.4 388.2 392 393.4 396.3 397.8 407.4 410.4 416.5 425.5 431.9 438.2 443.7 446 449 452.4 455.5 457.9 463.4 466.2 469.8 473.5 474.2 476.2 475.7 473.5 470.8 466.1 458.1 451.6 442.9 436.7 428.4 419.1 414.6 410 405.8 394.8 394.6 397 397.5 399.3 402.2 401.2 399.8 411.3 418.4
383 380.7 378.6 377.5 377.5 374.7 373.8 371.6 369.9 368.8 366.5 364 356.8 358.1 362.2 363.4 365.1 366.2 366.6 368 370.3 369.8 369.6 370.7 369.7 365.7 364.4 362 360.2 358.2 357.6 351.7 349 349.1 350.7 352.7 355.1 357.3 357.6 360.5 360.3 365.4 366.5 367.5 369.6 369.2 374.7 379.9 384.8 392 397.8 403.5 408 412.8 415.4 417.1 418.9 422.2 422.6 422.8 420.6 419.7 419.4 420.1 421.2 421.3 425.1 428.2 431.8 435.6 440.1 446.4 451 455.4 459.3 461.9 463 462.2 459.4 456 459.6 459.2 456.6 453.4 450.1 448.1 447 446.3 442.6 447.6 449.4 452.4 453 454.2 454.5 457 458.3 457.6 457.8 458.4 458.6 458.2 457 455.6 454.4 453.2 453.8 453 449.8 444.8 439.5 431.7 422.6 409.7 401.5 399 391.7 380.2 381.2 371.7 362.2 354.9 349.3 343.2 351 363.5 370.4 374.4 381.4 385.1 389.6 397.2 407.8 409.7 401 402.5 398.2 395.6 400.7 401.4 399.2 398.9 401.9 401.5 398.9 396.2 392.7 384.8 381.5 381.4 382.5 379.2 380.7 380.8 382.2 385.1 385.9 387.8 391.7 395.5 403 409.2 417.6 425.5 430.6 436.3 439 440.8 444.7 449.1 452.5 455.8 460.5 464.1 468.3 470.8 472.3 474.6 473.9 473.1 470.1 464.5 456.5 448.5 440.9 433.4 424.2 418 410.5 405.1 398.7 388.2 389.6 389.3 389.6 391.6 393.2 395.9 406.7 415.6
377.5 375.9 373.8 373.7 374.3 373.4 372.5 370.1 367.7 366.2 364.3 361.9 359.8 353.6 355.6 355.3 356.3 357.1 358.6 360.6 360.9 361.6 362.2 359.8 358.7 356.9 353.4 352.1 349.7 347.2 347.9 345.7 342.4 343.4 346.9 349.7 351.8 352.7 354.6 355.8 356.7 360.2 362 363.5 365.5 369.1 372.1 377.3 382.8 390.1 396.3 401.5 406.6 410.9 413.4 415.3 415.8 416 417.1 417.8 416.7 416.8 416.2 418.2 417 421.1 424.4 427 429.8 434.3 441.2 447 451.9 456.2 459.8 462.3 464.2 463.7 462.1 458.5 452.4 453.1 452.7 449.6 446.5 445.4 443.9 443.5 439.4 443.2 445.1 447.8 450.2 452.7 452.1 454.9 457.4 457.4 457.3 456.5 457.5 456.4 455.6 454.4 453 453.1 452 453.2 449.4 446 440.6 434 424.2 410.8 399.1 395.3 390.1 382 372.3 367.6 358.4 348.9 346 336 349.1 355.6 361.9 367.5 371.1 376.6 377.4 388.5 397.7 402.9 397.8 389.2 389 385.7 388.1 387.2 385.5 384.9 393.2 395.8 393.2 390.9 387.5 382.2 377.2 373.2 376.1 374.7 376.8 377.5 378.3 378.4 379.7 380.9 384.7 388.4 395.8 402.3 409 417.5 423.4 428.6 431 433 437 440.9 444.3 449.6 453.3 458.3 461.7 464.9 466.3 469.2 471.7 471 469.8 467.9 461.3 456.2 449.2 439.7 429.6 423.1 415.7 406.6 398.7 391.2 381.7 384.7 382.7 382.2 383.5 391.3 400.6 407.6
374.6 374.3 372.7 372 371.6 371.4 370.7 369.6 368.3 365.6 363.4 361.5 357.8 355.6 349.2 351 351.3 351 352 351.6 352 354.4 354.8 351.2 350.1 348.3 345.3 343.2 340.2 338.7 340.3 339.2 339.4 337 342.4 344.2 346.2 349.6 351 351.9 353.8 354.3 359.8 361.9 365.9 369 373.7 377 383.4 390.7 396.1 400.9 405.6 409.4 413.1 414.5 414.7 413.7 412.7 413.2 413.3 413.6 415.2 415.3 417.1 419.8 422.6 425.6 429.1 431.6 439.2 444.4 451.1 454.8 459.4 460.7 463.7 464.4 464.5 460.8 456 450.4 445.6 445.7 442.6 441.9 440.3 439.1 437.7 439.2 441.2 444 447.3 449.9 448.3 452.3 456.2 457.3 455.7 455.1 455 454.4 453.7 452.1 452.3 452.6 453 452.1 450.4 448.6 441.6 432.2 424.3 412.7 401 391.5 388.1 381.8 372.1 366.5 358.7 347 342.5 335.2 344.2 347.1 355 357 364.9 370.3 368.3 376.6 383.9 390.9 391.1 385.8 379.9 377.6 378.2 376.1 374.7 373.6 379.1 383.4 383.5 383.1 378.8 373.7 371.2 366.7 368.8 367.1 370.3 372.3 374.3 373 372.4 373 377.8 382.2 387.3 395.4 401.4 410.8 417.2 421.6 425.7 425.9 427.4 430.8 435.3 440.7 445.7 452 455.1 457.9 459.3 460.4 463.7 465.2 464.4 464.2 462.6 461 454.8 447.2 439.6 431.1 420.5 410.9 399.5 391 382.5 378.1 377.9 374.2 376.3 383.3 391.1 397.6
373.7 373.8 372.1 372.5 371.7 369.4 367.3 367.4 366.9 365.5 362 359.3 356.1 354.2 352.1 345.8 345.9 347.1 346.7 345.1 345.4 347.5 346.9 345.6 343.7 340.9 339.5 338.6 337.6 336.7 337 337.1 335.2 333 337.4 338.3 341.4 344.3 346.2 348.3 348.6 352 354.8 359.8 362.5 367.4 372.9 380.7 387.4 392.3 397.6 401.6 404.6 408.7 411.3 414.3 413.8 411.5 410.1 410.6 411.5 411.6 413 411.8 414.4 417.7 420.2 423.8 426.7 430 435.7 442.4 448 452.5 455.2 459.4 462.1 464.9 467.5 462.3 456.2 450.8 445.3 439.5 439.2 439.3 437.8 436.6 435.8 437.1 437.8 441.9 443.8 445.8 445.7 447 453.8 455.9 456 454.3 454.5 453.3 452.6 452.3 452.2 451.7 452.4 451.1 451 448.1 441.2 433.5 424.3 415.1 403.8 395.3 389.7 383 375.5 369.1 361.3 352.6 344.3 336.9 335 336.2 341.5 348.1 353.6 362.7 359.8 360.6 368.5 374.3 377.3 374.6 373.3 369.1 366.8 365.5 365.5 362.9 364.1 368.9 371.7 371.7 369.2 365.1 361.7 360 361.8 365.1 365.4 369 370.8 369.8 370.7 370.1 371.6 378 382.6 389.7 397.8 403.8 410.1 415 420.1 420.5 422.1 423.9 426.4 432.9 438.9 443.8 446.4 449 451.6 452.4 453.7 455.1 458.1 458 459.9 460.5 458.1 453.2 447.3 441.6 432.6 419.8 406.7 394.7 385.1 378.1 370.7 368.8 367.7 372.8 378.7 384.6
373.8 372.9 372.6 373.7 372.6 371.5 369.8 367.7 365.9 363.9 361.2 357.7 354.1 351.5 349.2 347.2 342.4 343.5 341.1 341.7 340.6 340.1 338.9 339.6 337.1 335.8 334.2 334 333.9 333.3 333.3 333.2 332.1 329.1 333.1 333.3 336.4 339.8 341.8 343.4 346 347.9 351.3 354.2 358.1 364.5 371 378.3 386.6 392.7 398.4 402.1 405.6 407.5 408.9 411.2 411.7 411.1 410.1 408.7 410.1 410.5 411.3 411.7 414.6 416.2 417.7 420.4 423.1 426.1 432.4 438.1 443.7 449.4 452.2 457.2 460 461 464.5 462 455.8 451.4 446.5 439.5 436.4 436 436.3 433.8 434.5 434.5 436.9 439.3 440.8 441.2 442 444.5 450.6 452.1 452.5 454 452.3 452 451.9 451.8 451.9 451.4 449.9 449.9 451.2 448.9 443.8 436.9 426.3 417.5 407.7 397.4 388.9 384.2 374.3 369.3 363.2 356.2 346.1 341.6 329.8 333.6 334.4 336.3 342.6 350.9 348.8 347.9 350.5 354.4 353.8 354.5 357.1 352.8 353.5 354.5 354 351.4 352 354.7 357.7 357.8 357.9 354.9 353.7 354.9 352.3 357.7 363.2 366.7 366.9 367.1 368 367.4 368.6 374.5 379 384.8 389.7 395.8 401 405.7 410 411.5 414.6 418.6 420.9 425.7 432.6 437.3 440.4 442.1 441.7 441.9 442.9 445 448.4 449.8 453.4 455.6 458.1 457.4 452.5 445.7 441.8 431.5 417.6 401.7 389.8 378.6 374.7 370.7 361.7 363.5 366.3 369.5
372.8 372.6 372.9 374.4 373.3 371.7 371 368.4 366.6 364.5 359.5 354.8 351.7 348 347 344 341.5 341.8 339.6 340.7 340.1 335.8 337.9 334.3 331.1 331.4 329.5 329.1 329.4 329.9 330 329.9 329.6 326.5 329.8 333.3 335 337.5 339.2 342.2 344.2 345.7 348.9 352.9 358.4 362.1 369 377.5 385.7 393.1 398.6 403.2 405.6 406.8 407.5 409 408.8 408.9 408.7 407 409 408.9 408.6 411.9 413.5 414.5 415.1 416.8 419.5 423 427.6 434.2 439.6 444.3 447.3 452.5 456 457.7 459.1 457.8 455.4 451.5 446.3 440.7 437.1 435.2 433.3 432 433.2 431.9 434.5 436.4 438.1 438.9 438.4 442.1 445.3 448.8 450.3 451.3 451.6 451.8 450.1 449.9 449.9 450.9 449.8 449.8 451.1 450.8 447.3 441.2 433.4 423.4 413.7 404.2 396.7 384.6 377 368.6 364.8 357 346.8 339.7 332.5 330.7 331.6 331.9 333.7 335.6 335 335.7 333.4 335.3 333.8 336.6 339.9 341.3 339.6 338.3 341.9 341.3 340.6 344 346.4 351.2 350.4 348.2 346.4 344.1 345.5 349.6 356.4 361.1 362.4 363.7 363.1 364.8 367.6 372.7 376.9 381.3 385.2 388.7 391.5 395.5 399 400.7 403.5 407.1 414.3 419.6 425.8 430.4 433.6 433.8 433.7 433.5 434 435.8 438.5 442.5 445.8 448.9 453.2 454.4 453.4 447.9 442.1 435.7 423.6 407.9 393.7 383.5 375 370.8 363.1 357.2 360.2 358.6
372.6 372.6 374.1 375 374.5 373.7 371.6 370.2 367.6 364.4 360.5 357.8 353 349.7 346.5 342.8 341.6 342 344.4 347.3 347.2 346.7 345.2 341 337.9 332.9 327 325.4 325.4 324.7 325.4 326.6 326.3 326.2 329.6 331.3 333.5 335.5 334.8 339.4 341.5 345.7 349 352.7 357.1 360.7 368.3 377.1 386.4 394.1 399.7 403.9 406.5 407.7 406.5 407.2 406.9 407 406.6 405.9 406.6 407.5 410.4 412.1 412.2 411.7 412.1 413.8 414.9 418.6 423.4 429.4 434.4 439.4 443.5 447.5 451.8 454.9 457.2 458.5 457.7 453.7 448.8 443.3 439.3 435 434.9 432.9 430.4 430.7 431.7 433.2 435 435.4 435.2 437.4 440.1 443.3 447 449.7 449.6 449.8 450.3 450.5 450 449.1 449.8 450.4 450.9 450.5 447.6 444.4 438.8 429.1 420.5 418.5 410.2 394.2 377.9 370.4 362.2 355.7 345.9 337.7 334.3 326.1 328.3 329.4 329.4 329.3 327.6 326.5 327.6 328.5 328.1 327.3 327.4 328.4 328 327 328.6 329.5 330.3 329 336.1 343.3 343.1 341.5 341.6 340 339.6 344.9 349.9 353.5 357.5 360.3 363.3 368.9 371.5 374.5 376 379 381.6 383.6 386 387.3 390.8 391.5 395.2 398.7 404.2 412.3 418.1 422.2 424.8 425.6 424.6 425.4 424.4 424.9 427 433.2 437.5 439.9 444.4 446.7 447.7 444.5 439.6 433.9 424.7 410.3 395.8 385.8 377 372.8 366.5 357.4 354.5 355.9
372.6 372.7 374.9 376.4 376.6 376 375.2 372.9 369 367.2 364.7 360.9 357.4 352.8 349.1 347.6 345.9 349.7 351 352.6 352.7 353.2 352.3 347.8 342.3 338.3 334.4 330.6 326.7 323.1 321.8 324.3 322.8 323.9 326.9 328.3 329.9 329.8 334.2 337 341.1 345.4 349.3 352.3 357.1 362.7 368 377.1 385.6 394 400.6 403.7 405.1 406.8 404.8 404.6 405.3 405.1 404.8 404.9 406.7 409.6 410.8 410.9 410.8 409.5 410.2 410.9 411.9 415.9 419 424.1 430.1 435.6 440.2 443.5 448.2 451.7 453.4 456.4 458.4 456.2 450.9 446.1 441.4 436.8 432.1 431.9 431.1 430.9 432.4 431.9 431.7 430.6 433 433.1 436.7 439.8 443.4 446.1 447.9 449.1 449.4 449.5 449 447.9 448.3 450 449.4 448.6 447.3 445.7 441.6 433.2 430.3 426.8 419 407.9 388.2 376 364.2 357.7 347.1 338.4 330.9 330.1 324.9 325.8 325.8 325.8 324.3 322.1 318.8 319.4 320.8 321.6 321.9 319.9 319.4 321.1 318.8 319.6 319.1 320.8 325.4 332.5 333.2 336.2 336.5 335.2 332.1 334.6 341 348.1 351 356.8 364.5 372.2 377 379.5 380.7 381.4 381.2 381.9 381.8 381.4 383.9 384.7 387.7 391.9 396.6 401.6 407.8 413 415.8 417.1 416.2 416.3 418.2 419 420.1 424 428.3 432.8 435.2 437.7 439 436.8 433.6 428.4 421 409.1 394.8 385.8 376.3 373.2 368.8 361.6 351.9 352.8
373.4 375.4 377.5 378.5 378.8 378.6 377.6 376 373.4 371.9 369.4 365.9 362.1 358.8 354.3 352.7 352.4 354.9 356 358.5 360.8 361.2 359.4 355 347.8 341.9 337 331.5 327.8 325.9 323.5 318.5 320.5 319.4 323.4 325 325.5 327.9 331.9 336.4 340.4 344.9 350.4 352.5 356.7 362.5 370.4 376 384.2 392.7 399.2 402.5 402.7 404.4 404 401.5 403.6 401.9 401.6 405.4 406.6 409.4 410.6 409.9 408 407.1 405.7 407.3 409.8 412.8 416.6 421.1 426.6 431.7 436.2 440 444.7 447.6 450.7 453.6 456 456.4 452.8 446.7 442.3 435.8 434 430.3 429.8 430.8 432 431.4 429.1 427.4 430.3 430.3 432.6 436.3 438.4 441.8 444.5 446.4 447 446.8 445.5 445.7 445 446 447 447.2 446.2 444.3 442.4 439.8 437.3 433 422.2 411.9 398 384.5 369.9 356.3 351 344.7 335.5 332.3 327.5 323.5 321.2 318.8 317.3 315.3 313.5 312.4 311.2 310.1 312.5 313.2 312.7 315.1 312.2 308.9 308.3 310.4 315.2 318.7 324.3 328.3 327.6 326.7 323.6 327.2 333.2 338.8 346.4 355.5 364.8 375.4 381.8 385.5 387.8 386.1 382.2 380.7 379 377.1 377.4 379.2 380.7 385.3 389.8 393.9 397.2 401.2 402.3 405.8 408.4 408.2 410.6 413.6 415.5 418.1 421.6 426.8 427.7 428.8 429.8 426.8 423.4 419.4 414.6 404.9 393.2 382.8 375.2 372.8 368.8 362.5 355.3 348.1
375.4 377.7 379.5 381.1 382 382.1 382.1 380.6 378.7 375.9 372.7 370.1 366.4 364 362.2 360.7 359.9 361.1 363.1 366.8 368 368.5 365.9 360.4 351.3 343.9 337.5 331.6 326.4 324.3 322.9 316.4 317.7 318.2 320.4 321 319.2 326.4 331.6 338.1 342.4 348.3 353.4 356.3 359.2 364.9 370.9 376.6 384 392.2 397.8 400.2 400.5 400.9 401.1 400.7 401.4 401.1 401.1 402.7 402.5 406.4 407.7 406.8 404.9 404.9 403.8 405.2 406.6 408.9 412.5 415.8 422.1 427 432.5 437.9 442 445 447.9 450.7 453.5 452.6 449.7 445.6 442.2 438.1 436.2 431.4 430.5 431.2 431.5 431.3 430.3 426.9 427.8 428.5 428.6 431 432.6 436 438.8 441.3 442.8 443.4 443 442.7 441.9 443.5 444.5 444 442.4 441.5 442.4 442.2 439.4 432.9 426.5 416.7 404.3 396.5 380.4 363.7 355.2 347 343.9 337.4 333 329.7 327.3 326.9 324.9 321.1 318.5 316.5 313.9 311.5 310 306.1 306.5 305.6 304.2 305.2 304.4 305.5 307.7 308.5 311.9 315.9 315.3 319 315.9 322.4 326.9 333.8 342.9 351.6 364 375 381.3 385.1 386.5 386.3 382.5 378.2 375.8 374.2 373.3 373.5 376.5 378.9 382.8 387.1 391.3 394.3 394.9 396.2 395.3 396.8 400.8 403.5 407 410.1 413.6 417.9 420.2 420.8 420.6 419.5 416.6 411.8 406.5 399.8 388 379.5 372.1 371.7 367.2 360.6 352.7 347
376.4 378.5 380.4 382.2 384.3 385.6 385.8 385.6 383.3 380.8 377 373.8 371.2 370.8 370.1 369.6 370 370.9 373.7 373.8 374.4 375.7 372.1 364.4 354 345.3 337.5 332.1 327 324.2 321.4 318.7 313.4 316.3 316 316 319.6 327.1 332.8 338.7 345 350.4 355.3 358.7 363.2 367.5 373 378.3 384.7 392.7 396.7 398.9 400.5 400 398.7 397.8 398.3 398.2 399.6 400.8 401.5 402.5 403.8 403.4 403.1 401.9 401.1 401.4 404.8 406.7 409.4 412.8 418.2 423.7 429.1 434.8 439 443.2 446.2 448.7 450.3 451.3 449.2 445.6 440.5 437.7 435.2 431.7 430 430 431.2 430.6 429.8 427.3 425.1 425.9 424.6 427.4 427.6 428.2 431 434.5 436.4 436.4 437.8 439.5 439.2 439.8 442.1 441.9 440.9 440.2 440.5 440.2 438.5 433.6 426.4 419.2 408.4 403.3 391.3 373.6 364.1 357.5 353 345.8 341.2 334.8 332.4 330.9 328.1 325.3 319.1 319.4 318.7 315.8 313.5 313.3 310.7 307.6 305.2 303.5 301 298.3 301.1 303.8 305.2 306.7 307.4 310.5 308.2 316 320.6 331 340 349.5 360.7 372.4 378.4 382.4 382.2 380 377.5 376.2 374.2 371.3 368.6 370 370.9 373.7 377.1 381.1 385 389.7 391 390.9 389.6 389.9 390.3 391.1 396.4 400.6 405 408.6 410.8 411.2 410.2 410.6 410.3 409.4 405.9 398.4 388.1 378.8 373.4 369.9 364.9 359.3 350.8 344.8
376.6 379.3 381.7 384 386.4 389.1 390.1 389.8 387.1 384.7 382 379.3 377.3 376.8 376.7 378.1 379.4 382.1 382.6 381.4 382.6 382.5 378 367.5 356.7 346.5 338.4 332.1 326.8 323.1 319.1 316.2 315 312.6 313.3 316 320.2 325.9 332.9 339.8 346 352.5 357 360.8 365.7 371.2 376.3 380.8 386.4 393.5 396.5 399.2 400.7 400.9 398.1 396.9 395.7 394.6 397.5 398 398.6 398.8 400.1 401.4 400.9 399.8 398.9 399.2 401.4 404.4 407.6 411.7 416.1 421.3 427.1 433.1 437.7 440.1 444.1 447 448.3 447.9 446.9 444.8 439.8 436.7 434.6 431.3 430 429.1 428.9 430.1 428.1 426.4 424.8 422.4 422.2 423.5 423.4 425.2 426.5 428.2 427.1 428.7 431.6 432 433.9 436.4 436.5 437.9 437.7 435.8 438.3 437.5 435.9 433.3 426.4 422.3 415.5 409.6 398.8 385.6 375.7 373.7 369.6 359.7 355 348.2 343.3 341.7 333.6 328.4 326.7 324.2 322.8 319.8 318.5 316.2 312.5 311.3 308 305.6 304.3 299.6 297.8 298.2 298.4 301 300.3 300.5 301 306.3 317.9 327.2 335.1 344.5 355.9 369.4 375.8 376.7 375.9 374.1 371.6 371.1 370.8 371.1 369.5 367.7 365.2 369.2 370.8 372.2 376.5 381.6 385.4 386.1 384.1 383.4 384.1 381.6 385.2 389.4 393.2 398.3 401.7 402.7 403.1 405 405.2 406.7 406.9 403.5 395.7 383 377 372 366 360.3 353.7 345.5
376.8 379 382.5 385.8 388.5 391.1 393.8 393 392.2 389.5 388.1 386.7 385.1 384.2 384.3 386.3 389.4 390.4 390 390.6 391 391.3 386.8 376.4 363.4 350.1 340.1 332.2 326.7 322.6 317.9 313.5 313.2 307.3 308.3 313.4 319.6 324.8 331.6 338.8 346.1 353 358.8 363.4 366.9 372.1 378.3 382.3 389.3 393.5 395.4 398.1 400.9 401.3 400.6 397.9 395.1 393.1 395.4 397.4 398.2 398.6 400 399.8 399.4 398 396.2 398 399.3 402.4 406.5 410.9 415.3 420.3 426.5 431.9 436.3 439.7 443.4 447.4 448.7 448.5 447.3 443.3 438.2 434.9 433.3 431.2 430.1 429.5 429 427.4 426.2 424.2 421.5 418.2 420.2 420.5 420.3 418.8 421 422.4 420.7 421.4 424.6 427.2 429.3 430.1 432.5 432.2 432.1 434.6 434.3 434.4 434.6 434 430.9 426 421.2 415.3 407 398.7 392.2 388.2 383.1 381.8 375 369.1 361.9 355 346.2 338.2 333.7 330.7 327.7 324 322.1 319.1 316.6 313.9 311.8 310.8 306.2 304.6 302.1 297.3 293.9 292.4 294.6 294.2 296.5 302 311.6 320.8 330.1 338.6 351.9 367.6 372.5 373 372.3 369.6 367.3 366 366.6 368.1 369 368.5 366.4 362.3 363.9 364.5 366.6 371.5 377.4 379.6 378.4 376.2 377.9 375.8 377.6 381.2 385.1 387.9 391.3 393.8 394.3 397.1 399 400.6 402.4 402.5 397.5 388.5 378.9 372.6 368 361.4 355.6 347.6
377.1 378.8 382.4 385.7 389.1 392.3 394.4 395.7 395 393.7 393.2 393.5 393.1 393.4 395 396.9 399.8 400.4 399.4 397.3 398.9 399.1 394 385.3 371.1 354.3 342.1 333.1 327.3 321.1 316.6 312.6 309.8 307.4 306.4 312.1 317.1 323.3 331.3 339.2 347 353.5 358.6 364.1 369.6 374.7 379.8 384.6 389.8 392.3 395.6 398.8 400.6 401.6 401.3 398.6 397.2 392.2 391.8 396 398.6 399.9 400.2 399.8 399.3 397.3 394.4 395.9 397.1 400.8 405.1 410 414.6 420.1 426 431.9 435.2 439.1 444.4 448.5 450.6 450.4 450 445.7 441.4 436.9 435.6 431.3 429.7 429.4 428.9 425.3 425.9 422.9 417.5 417.5 417.6 418.2 416.8 413.3 414.1 415.1 414.2 414.6 414.4 418.4 421.7 423.6 426 425.6 426.4 428.4 429.6 431.9 433.6 434.3 432.4 429.9 424.2 420.8 414.5 408.6 401.2 397.8 393.5 390.8 387.6 383.4 376.6 371.6 362.5 352.6 345.3 337.5 334 329.9 327.2 323.9 321.2 317.9 314.5 311.8 310.4 307.5 306.3 302.3 300.5 296.9 293.1 288.8 291.9 295.5 305.9 313.9 322.4 332.1 348.4 363.8 369.9 371.4 371.8 369.4 365.8 364.8 364.6 367.3 368.6 368.5 366.6 364.4 358.3 357.8 359.5 361.3 365 368.1 367 367.2 368.7 370.2 371.4 374 377.1 380.1 382.4 384.2 386 387.9 391.5 393.8 393.7 395.2 391.8 388.5 380.7 374.4 368.2 362.2 356.4 350.6
377 379.1 381.3 385.2 387.4 391.7 393.7 395.9 397.8 398.8 400.6 400.9 402.6 404.4 404.9 405.1 405.7 407.2 406.8 405.9 405.3 402.8 398.6 390.7 375.7 356.3 342.1 331.1 324.4 319.2 314.4 311.1 308.3 305.8 303.3 311.4 316.1 322.2 330.2 338.8 346.5 354.1 359 364.6 369.2 374.9 379.7 384.2 388.6 392.4 395.6 397.4 400.1 401.6 402.2 400.6 398.4 394.1 390.9 395 397.1 398.2 399.6 400.1 399.6 397.3 394.7 394.6 395.1 398.3 402.7 408.1 413.9 420.2 426.8 432.1 435.2 439.9 444.7 449.2 451.1 451.7 451.4 449.9 443.3 439 436.6 433.1 429.2 428.6 430.3 430.9 429.3 426.5 421.3 415.5 415.7 414.2 412.1 409.8 408.4 405.7 403.4 403.6 404.7 407.5 411.7 414.4 417.1 417.5 419.5 422.9 424.6 426.9 427.8 432.1 431.9 430.1 427.7 424.2 420.2 415.2 410 404.6 399.9 396.8 391.3 387 383.5 377.4 369.1 363.3 355.1 346.3 341.9 335.6 331.1 326.8 323.4 320.2 317.3 315.6 312 312.8 310 306.4 303.5 300.1 296.3 291.8 288.3 286.3 299.3 308.1 317.2 326.3 342.1 358.2 366.3 369 369.9 367.7 364.5 362.9 362.6 365 366.7 367 364.8 362.4 359.5 355.5 350.9 353 352.9 356 357.2 357.9 360.4 360.6 363.5 366 368.4 371 373.5 375.3 377.9 380.4 383.6 386.7 387.3 387.3 387.3 385.4 380.1 372.8 366.8 361.3 356.2 350.6
375.5 377.4 380.3 383.7 386.3 389.5 394.2 397.1 400.5 403.9 406.4 409.1 410.1 411.5 412.6 414.4 415.1 414.8 415.5 414.2 412.3 410.1 402.3 391.4 375.4 354.9 338.4 327.6 320.3 314.3 310.6 308.1 306.5 304.4 306.4 310.1 314.7 320.8 329 338.1 346.1 353.4 359.4 364.1 369.1 374.1 380.3 385 389 391.2 393.5 396.9 399.9 401 401.7 400.8 398.4 394.2 388.3 392.9 395.9 396.2 396.6 398.8 398.8 397.1 394.2 392.6 393.8 395.8 400.9 405.9 411.9 420.2 426.3 431.1 435.1 439.1 445.5 448 449.6 449.9 449.3 447.9 442.7 438 434.1 431.5 429 428.2 428.8 431.2 429.2 428.1 422.7 417.2 412.4 410.5 408.9 408.8 406.3 401.5 400 398.1 397.7 399.1 401.1 403.7 406.8 408.6 412.2 416.7 419.7 422.8 424.8 425.7 428.3 426.9 425.9 424.5 420.7 417.2 413.4 408 404.1 401.6 396.5 390.8 386.6 380.2 374.3 369.8 362.7 352.2 346.7 341.9 335.4 329.8 325.7 323.3 319.4 318.1 317.7 315.6 313.6 309.4 308.5 304.1 299.1 294.3 287.8 286.5 287.7 303.9 312.4 320.7 333 350.9 359.7 366.3 368.4 365.8 362.8 361.4 362.3 363.7 365.2 364.8 362.7 359 357 352.9 351.3 346.1 343.4 344.5 347 349.3 350.5 353.1 355 358.2 361.2 362.6 365.1 368.5 371 374.4 376.4 378.7 380.8 380.9 381.1 381.7 376.6 370.3 365.6 359.1 354.1 348
373.7 377.4 379.5 382.6 385.7 389.3 393.9 398.8 403.2 407.5 410.5 412.4 415.5 417.3 419.7 421.4 421.6 422.8 422.3 422 420.6 418.5 410.7 394 377.2 354.4 337.1 325.8 317.5 311.7 309.2 307.2 304.2 300 304.4 310 313.8 318.1 326.4 335.5 343.4 351.7 358 362.3 367.1 373 380 385.4 388.1 392 394.1 396.1 399.4 400.4 400.8 400 398 393.9 385.6 388.2 393.6 393.8 394.2 394.7 394.1 393.6 391.2 390.2 391.6 393.6 397.7 404.1 410.8 419 425.2 430 433.8 438.2 442.3 445.6 446.6 445.4 444.1 440.2 437.2 434.5 432.5 429.3 427.1 426.8 426.6 427.3 429.1 427.9 423.5 416.1 411.7 408.4 408.1 409.3 407.6 403.5 399.6 395.9 394.6 392.2 393.3 395.8 398.3 399.8 403 409.1 412 417 419.7 419.9 421 422.1 422.3 422 420.5 416.3 413.5 410.6 407.1 403.9 400.7 396.4 390.4 385.7 377.9 372.4 367.1 357.2 354.7 348.5 342.3 335.4 332.6 332 330.2 326.9 323.6 320 319 315.4 311.7 307.8 300.7 293.8 288.7 284.4 284.2 298.3 305.3 314.8 326.5 343.5 351.5 357.5 361.5 362.2 360.5 359.2 360.5 361 361.7 362 360.7 357.8 354.2 352.1 349.4 345.8 339.6 334.4 335.9 339 342 344.8 347.4 350.8 353.1 354.9 358.8 361 363.7 367.5 370.8 373.4 375.6 376.3 377 375.9 373.2 366.4 361.2 356.6 351.8 346.6
374.5 376.7 379 381.8 384.5 387.8 393.8 399.3 404.1 409.9 413.2 416.5 419.5 423.2 426.5 427.9 429.1 430.8 431.3 430.8 428.1 423.6 416.3 396.4 374.6 354.5 336.2 322.2 312.4 307.4 305.9 304.2 301.8 297.8 305.3 308.5 311.8 316.1 321.9 329.3 340.5 349.2 355.9 360.5 365.3 372.7 378.8 383.8 388 390.3 393.2 395.5 396.9 400.2 401.4 400.7 397.5 392.5 389.3 383.9 386.9 391.5 392.2 389.7 388.7 387.9 387.4 384.5 387.5 391 394 400.1 407.8 415.7 422.7 428.4 431.8 434.6 439.2 441.8 442.9 441.5 436.9 432.9 430.7 428.4 428.9 426.8 425 424 426.4 426.2 426.1 425.7 421.5 412.8 407.9 405.6 406.8 409.6 408.9 407.3 402.4 397.5 392.7 388.9 389.1 390.1 391 391.4 394.8 400.9 405.3 409.5 413.2 414.9 416.2 416.3 417.7 418.4 418.4 414.7 413 411.3 408.1 405.6 402.2 398.8 395.1 389.2 380.3 375.4 367.8 363 360.3 358.2 351.8 344.4 342 340.3 340.3 334.2 330.8 327 324.1 321.2 314.8 309.3 302.8 294.5 287.7 283.2 282.2 291.6 298.9 309.4 317.3 334.9 343.8 348.1 355.9 356.9 355.1 355.4 356.7 355.6 356.9 358.2 358.6 355.7 351.6 349.7 346.4 340.4 335.2 327.2 326.9 328.2 331 336.3 339.5 342.3 345.4 347.3 349.8 353.2 356.6 360.4 363.9 367.2 371.4 373.3 374.5 373.3 372.6 368.3 364.5 356 350.5 346.8
373.6 375.6 377.8 380.4 384.4 386.8 391.8 398.9 404.3 410 414.8 418 422.6 427.1 429.1 431.9 432.8 435.4 436.6 436.9 434.7 429.8 416.4 396.4 378.2 353.5 334.4 319.7 309.6 304.1 302.9 301.6 300 299.5 304.3 307.1 309.9 315.2 321.5 328.7 337.5 346.2 352.9 359.1 364.2 371.1 378.8 383.1 386.3 390.1 391 393.8 395.4 397.5 400.5 402.2 400.7 395.8 389.5 384.9 377.5 384.3 386.1 385.3 384.8 382.5 382.9 382.6 384.2 387.4 389.5 395.6 402.6 411.3 418.7 424.3 428.9 431.8 435.2 436.5 436.5 434.9 431.8 427.7 425.6 425.4 425.1 423.5 422.6 422.6 424.8 426 423.3 420.9 416.5 408.2 407.6 406.5 405.1 412.6 410.6 409.6 406.9 400.3 393.2 388.1 385.6 387.9 386.7 383.6 386.8 392.2 397.6 401.2 404.6 407.7 409.6 411.1 412.6 412.2 413.4 412.7 410.7 409.6 408.3 405.3 403 400.3 394.8 390.1 383.2 379.2 372.5 366.8 365.1 363.8 358.2 351.2 352.3 352 349.6 344.9 339.9 335.6 331.5 325 318.8 313.4 305.5 298.1 287.4 283.2 279.2 286.4 294.8 301.8 313.6 325.6 334.7 339.4 343.4 350.3 349.9 348.6 350.1 350.6 352.8 356.4 357 355.1 352.1 348.7 343.4 336.7 332.2 325.7 320.8 321.7 323.5 326 329.2 332.2 335 337.9 341.7 346.3 349.6 353.8 357.4 363.2 366.2 368.9 371.7 371.5 372.2 371.5 368.6 362.7 353.7 349
372.6 375.2 378.3 379.9 382.7 386.2 391 396.8 403.3 409.6 415.8 420.3 424.2 428.1 433 435.9 438.4 440.9 441.7 442.1 439.4 434.1 420.1 395.4 376.9 354.7 334.5 318.7 308.7 302.2 299.7 298.3 295.7 300.8 301.5 303.6 307.5 314.3 320.4 328.2 336 343.8 350.4 356.5 362.2 369.2 375.2 380.9 384.9 387.9 390.8 392.1 392.8 394.1 396.8 398.3 400.1 395.9 389.7 384.5 379.1 374.8 377.9 377.4 378.3 379.4 379.4 379.5 381.9 384 386 391.8 398.5 407.1 415 419.3 424.4 428.8 430.6 433.2 432.5 430.6 427.8 423.4 422 422.5 423.1 422.1 420.4 423.8 425.9 426.8 421.6 417.8 411.1 405.4 405.6 405.5 406.9 413.4 412 410 408.1 402.7 395.2 388.5 385.2 382.3 381.7 378.2 380.2 383.7 387.6 391.9 395.8 399.4 401 402.5 406.7 407.9 406.4 406 406.7 406.7 405.9 403.6 402.2 400.6 397.1 393.5 386.6 382 376.7 370.9 368.4 365.8 361.6 358.3 360.3 360.9 358.1 354.2 348 341.3 338 332.3 322.8 318 309.1 303.4 291.6 283.9 279.4 280.6 286.6 295.4 307.8 316.3 323.3 328.3 333.3 337.1 340.3 340.6 343.2 344.2 349 353.2 354.7 354.8 352.6 346.9 341.1 336.9 329 322.7 319.7 318.8 319.3 321.1 321 323.5 324.5 328.6 332.6 338.6 342.6 347.5 351.9 358.3 362 365.1 368.3 369.7 371.7 372.1 370.4 366.7 360 353.1
371.2 373.4 375.6 379.4 381.5 384 388.2 395.3 402.3 408.7 415.8 422 426.7 430.4 436 441.2 443.5 444.7 445.7 444.8 442.6 436.9 421.9 397.6 377.3 353 335.5 318.5 309.3 303.9 300.4 299.5 294.4 298.3 298.2 300.7 303.1 311.1 317.3 324.9 331.6 339.5 346.7 353.5 357.8 363.8 369.8 376.7 380.8 383.7 387.5 388.7 389.2 389.9 391.4 393.1 394.9 392.2 388.1 383.2 379.9 373.8 371 371.9 374.8 375.3 375.1 375.3 378.1 380.4 382.5 387.8 396.2 402.7 409.3 415.9 419.2 424 428 430.4 430.5 428.3 424.9 419.5 418 418.4 420.7 421.2 421.3 423.5 424.6 423.4 422.5 419.2 411.2 403 403.2 403.9 404.3 407.4 408.8 406.8 406.5 401.4 394.7 388.2 384.8 381.6 378.2 375.8 376.5 377.3 379.4 382.8 386.9 391.1 392.4 392.8 396.7 399.8 399.2 399.1 399.3 400.2 401 400.3 399.1 398.3 396.3 392.2 387.2 382 375.6 373.3 370.5 369.5 362.4 361.8 362.9 363 359.8 356 349 343.4 343.2 342.4 334.4 321.7 315.1 306.3 298 288 278.7 276.3 281.6 289.2 299.4 307.2 314.2 319.4 326.2 329.4 332.1 333.7 336.2 338.2 343.4 348.5 352.6 354.5 354.1 350.5 343.1 337.2 330 324.4 318 312.7 315.1 315.7 317.4 317.7 318.8 322.6 324.8 329.1 334.2 340.2 345.6 350.2 356.7 360.5 363.1 367.6 370.1 371.7 370.8 369.1 362.8 356.3
367.6 370.9 373.5 376.6 378.3 382.6 387.1 392.4 400.1 406.8 414.2 421.5 426.9 432.8 438.6 443.9 446.8 448.7 451 449.5 445.1 438 422 402.3 377.7 355.4 335.5 321.8 311.1 303.1 299.6 296.9 295.2 294.9 295.6 296.1 301.4 308 314.2 320.5 327.6 335.2 343.1 348.8 354.5 359.5 366.4 372.6 376.8 379.2 383.2 385 385.4 384.9 386.5 387.1 387.7 385.3 383.1 380.7 376.3 377 369.7 366.4 369.2 371.1 370.9 371.2 374 375.8 379.7 383.8 391.1 397.5 404.1 410.7 414.9 419 424.4 426.9 427.8 425.5 420.9 417.6 414.9 413.1 414.8 414.7 418.9 421.7 421.6 420.3 420 414.3 408.7 400.7 394.7 393.3 401.8 401.1 404.7 402.3 403 399.4 392.6 385.6 383.2 378.6 377.2 375.2 374.5 374 374.3 376.7 380 383.9 386.2 385.8 388.4 390 391.8 393.3 391.2 389.1 393.2 392.7 390.8 391.7 392.4 387.8 385.8 381.9 376.2 373.3 372 371.6 364.1 363.1 362.3 362.3 360.6 355.3 348.1 343.2 341.4 344 339.3 327.7 317 309.2 301.2 292.4 282.9 275.5 276.8 281.6 289.1 297.3 304.1 312 320 323.8 327 327.3 329 332.7 338.6 345.6 350.5 353.7 354.6 353.4 346.7 339.2 332.5 324.9 318.1 311.8 309.3 310.8 312.2 312.4 312 314.8 318.6 322.5 325 331.6 336.6 343.5 348 353 356.9 362.2 366.5 370 370.8 368.9 363.6 357
365.9 368.6 371.6 373.2 375.7 378.9 383.7 390.7 397.3 404.9 413 421.5 427.8 434.5 439.9 444.8 448.7 453.7 456 455 451.1 443.1 429.4 405.4 378.3 355.7 337.4 322.1 312.3 305.5 299.7 296.7 295.1 291.6 293.6 294.2 299.1 304.5 310.4 316.6 323.8 330.7 338.1 343.9 349.7 355.1 360.7 366.8 371.6 374.6 377.7 381 380.2 378.1 380.8 381.7 382.3 381.6 376.7 372.4 368.9 366.2 365.9 362.7 365.1 366.5 367 368 370 371.9 375.9 380.2 385.2 392 399.2 405.2 409.2 413.9 418.7 422.1 420.7 418.5 416.4 414.2 413.6 410.8 409.6 409.4 415.5 419.1 419.1 417.4 415.1 410.6 405.1 397 390.7 387.3 389.1 394.8 398.4 394.4 396.1 394.4 388.6 382.7 380 374.7 372.8 372.8 370.4 371.7 371.2 374.1 375.5 377.2 379.3 379.5 381.5 384 384 384.6 384.5 381.5 380.5 383.5 381 384.1 385.7 384.9 382.2 379 377 374.2 372.7 372.4 367.7 363.6 361.4 358.7 354 350.3 344.1 338.6 335.5 333.1 328.6 323.6 316.4 310.2 302.8 294.6 284.9 276.6 274.8 277.4 280.9 287.5 294.9 301.7 309.6 314.7 318 320.9 323.6 328.4 332.9 341.2 347.4 351.9 355.8 356.2 348.1 340.9 332.3 323.3 317.3 310.3 304.7 305.4 307.5 308.8 307.4 308.3 312.9 315 318.6 324 327.9 334.1 339.6 345.8 350.6 354.9 360.5 364.8 367.3 365.6 361 355.7
361.7 363.9 366.3 367.3 368.9 377 382.7 388.3 396.4 403.1 411.8 419.9 428.6 434.1 440.1 445.1 449.7 455.2 458.4 457.8 454.7 449.4 432.5 401.9 379.5 357.3 339.4 323.7 313.9 307 302.2 298.4 294.8 293.6 290.3 293.2 296.4 301.1 307.5 314.6 320.4 326.2 332.3 337.8 342.8 347.6 354.5 360.5 366 369.3 372.3 374.3 374.7 374.1 373.6 374.4 375 374.2 371.1 367.2 363.1 361.4 359.9 356.9 360.4 360.9 362.9 364.2 365.9 367.8 369.6 377 382.4 388.5 394.9 400.7 406.1 409.9 413.4 414.2 412.5 412 410.3 409.5 408.6 407.8 405.7 405 409.7 415.4 416.4 415.7 412.7 409.4 403.7 395.2 390.6 383 383 383.4 387.5 384.6 385.8 385.4 380.2 376 372.6 370.5 369.7 369.9 367.8 369.2 368.2 369.8 371.2 371.6 374.5 375.4 376.9 378.1 380 380.3 376.4 373.4 375.7 374.4 374.5 374.5 376.5 377.6 375.9 375 374.7 372.2 369.9 369.4 366 363 359.5 355.2 349.4 344.5 337.9 331.5 327.2 322.6 319.3 315.1 311.5 307.7 299.6 293.7 286.8 279.3 274.1 273.4 277.1 280.7 286 293.1 298.1 304.2 310 313.4 316.7 320.3 326.5 335.8 342 346.7 350.1 349.6 345.7 339 331.3 322.6 314.8 308.2 304.8 299.7 304 304.9 304.2 303.8 307.1 310.1 313 315.7 320.4 325.6 329.1 337.4 343 346.7 352.2 357.5 359.7 359.2 356.9 352.9
357.1 359.3 360.8 360.6 365.5 373.3 379.4 386 393.2 401.3 408.1 418.4 427.7 433.3 438.2 444.3 448.5 453.6 457.8 457.8 453.1 445.4 425.9 399.1 376.2 360.8 344.8 327.5 315 307 301.5 298.3 295.4 293.2 288.4 291.3 293.1 297.5 304.4 311.3 317.5 322.8 327.3 332 336.7 340.7 346.8 354.5 359.7 363.3 367 368.4 368.4 367.8 366.3 366.5 365.4 365.3 363.9 361.9 359.1 356.1 355.1 351.3 356.3 357.6 358.4 361.6 363 365.1 367.8 372.7 380.9 386.8 392.3 397.5 401.5 405 408.5 408.4 408.5 405.8 405.4 405.2 403.4 404.3 403.4 403.4 405.5 408.7 412 410.9 408.1 405.3 400.8 396.5 391.3 384.3 381.9 379.3 377.4 376 377.2 376 370.9 369 367.8 365.8 364.4 364.8 365 366 365.1 366.6 367.2 368.5 369.8 372.6 373.6 375 375.1 375.1 373.7 371.3 369.1 369.8 368.9 368.1 365.5 366.9 368.8 367.1 368.8 367.9 365.6 364.6 362.3 359.7 357.9 352.7 347.1 340.2 332 324.3 319.7 313.6 310 305.8 304.2 301 294.9 288.5 283 277 273.5 272.6 275.8 275.7 278.2 283.8 288.9 295 300.9 306 309.2 313.9 319.8 329.6 334.1 339.3 343.7 343.2 341.2 334.6 326.3 318.8 313.5 306.1 302 296.7 300 300.9 299.9 301.7 301.4 302 305.1 308.5 312.3 316.5 321.4 326.9 333 337.7 341.1 347.3 350.2 351.4 349.7 347.8
352.4 354.1 355.4 355.5 361.2 367.5 376.1 383.5 391 397.9 406.2 415.9 424.2 429.7 437 441.9 448.5 453.5 456.9 457.2 451.6 443.9 432.7 408.8 389.1 363.4 344.2 327.4 314.8 307.5 301.4 298.4 295.2 294.1 290.6 289.5 291.6 294.7 298.8 306.2 312 317.2 322.1 325.2 331.1 334.5 339.5 346.9 352.4 356.9 360.3 362.5 362.2 361.2 361.8 361.4 360.6 358.5 357.7 355.8 352.5 351.4 350.2 348.5 350.9 351.3 355.2 358.4 359.6 363.2 366.9 372 379 384.4 389.7 394.7 398.5 400.6 403.1 403.9 404.2 403.6 401.3 399.8 398.1 399 400 399.1 402.1 403.7 407 406.5 404.8 400.6 398.4 393.5 388.6 384.1 380.5 376.1 375.2 373 369.3 368.4 365.8 364.3 362.5 361.9 361.3 362.6 361.6 363.1 363.8 364.7 366 366.7 368.3 369.6 372.2 372.4 373.3 372.2 371.2 369.4 364.8 361.4 358.2 358.8 359 359.4 359.4 357 359.2 361.3 359.5 357.7 356.5 353.4 352.5 349.1 344 336.4 327.4 319.6 314.4 305.2 300.8 297.3 295 293 288.9 278.7 276.2 274.3 273.3 271.4 275.6 273.9 274.9 278 282 286.4 292 297.1 300.6 305.5 311.6 321 327.4 332.9 338.3 338 334.8 328.7 321.2 314.9 309.7 305.2 300.7 295.9 294.4 295.1 294.5 297.4 298 298.5 298.6 301.6 305.5 309.5 313.2 317.2 321.4 325.9 328.9 335.2 339.4 342.1 342.1 341.5
351.9 352.2 351.8 353.3 356.7 363.4 371.7 379.8 388.7 395.1 403.1 410.4 418.5 426.6 432.6 439.7 445.3 452.6 455.9 458.6 457.6 449.1 430.6 413.7 389.6 362.6 340.9 326 313.9 305.7 300.8 297.6 296.1 294.4 291.9 286.7 288.2 292.3 294.8 299.7 305.7 310.4 315.5 319.2 323.2 328.4 333.2 339.4 343.6 347.7 352.6 355.2 357.2 357.4 357.3 357.6 356.5 354.2 351.9 349.8 347.5 347.3 346 345 347.5 347.1 351.9 354.1 357.3 361.5 365.3 368.3 374.5 381.6 386.6 390.2 394.7 398.1 398.1 399.6 400 399.8 398.9 397.2 395 394.4 394.8 394.2 397.1 401.6 401.5 401.4 399.9 397.8 396 393.4 390.1 389 383.5 375.5 371.2 370 366.5 362.7 360.7 359.8 359 358.7 359.7 359.9 359.5 361.3 361.7 363.7 364.1 366.9 367.7 370.1 370.5 370.4 371 370.7 368.2 366.3 361.3 360.9 359.8 356.4 352.3 352.5 352.1 351.8 349.9 351.3 351.3 349 347.5 345.9 344.9 342.9 339.3 334.3 326.4 314.9 310.5 308.2 303.1 297 293.2 287.9 284.2 286.1 281.8 274.9 274.7 270.8 269.9 273.3 271.5 274.5 275.7 280.4 285.1 288.4 293.1 298 303.2 311.4 317.6 322.8 329.3 330.8 327.8 322.5 316.8 311.9 308.1 303.9 300.7 295.3 291.5 289.9 290.2 293.1 293.3 292.9 292.7 294 297.2 302.1 305.4 307.7 309.7 314.4 318.9 326 330 331.9 334 333
348.5 350 349.2 349.4 353.3 359.9 368 376.7 384.9 392.4 398.6 406.6 415 422.7 430 436.5 444.9 451 454.9 459.1 458.2 448 429 410.6 382.6 361.1 341.1 324.9 314.2 304.3 299.7 296.8 295.1 294.1 291.9 287.8 286 289.6 291.4 294.5 298.8 303.5 308.9 313.2 316.3 321.9 326.1 332.9 336.8 340.5 343.3 347.6 349.7 350.2 351.7 353.2 352.4 350 347.6 344.3 343.1 342.3 342.1 342.4 343.8 345.4 345.9 348.2 353.2 356.8 360.8 365.1 370.5 378.4 383.2 387.4 391.2 394.6 395.5 394.9 394.9 395 394.3 394.1 391.4 389.9 389.5 390.7 394 398.3 401.4 401.6 399.6 397.9 395.7 393.5 389.7 387.9 384.9 377.3 374.4 369.8 364.2 361.1 359.1 358.4 357.3 358.9 358.8 357 358.5 359.9 361.1 360.9 362.9 366 367.7 369.7 370.4 369.3 369.8 369.3 367.2 366.8 367.3 365.1 365 360.5 358.8 353.8 350 346 343.7 342.8 342.6 339.8 339.4 338 337.6 334.8 333.7 331.3 320.5 324.7 325.2 323.1 317.1 305.1 296.4 290.1 287.3 286.3 284.4 278 271.7 270 269.3 267.4 269.4 271.3 271.9 275.4 278.9 281.7 286.2 290.4 295.3 299.5 306.4 313.2 319.1 323.2 322 319.5 316.1 310.9 308.2 304.4 300.9 296.2 290.7 287 286.9 287 284.9 285.8 286.9 289.1 290.1 295.1 297.8 300.1 302 306.4 312.8 316.3 321.2 323 324.4 325.9
347 347.7 347 347.2 349.2 354.3 361.3 370.3 377.9 385.8 393.8 404.4 412.6 418.3 426.3 432.4 440.1 448.1 452.8 457.3 455.2 444.6 426.5 408 380.9 363.3 342.3 326.6 314.6 303.5 296.9 293.7 292.7 292.4 290.1 287.9 285.6 281.5 288.2 290.1 294.3 298 302.4 305.8 310.2 314.5 318.7 325.7 331.8 335.5 338 339.4 341.7 342.6 344.2 346.8 347.7 345.8 343.2 340.3 339.2 336.4 336.7 338.5 340.5 342.3 342.8 344.5 348.3 352.8 357.4 361.9 366.2 373.1 380.3 383.6 387.6 391 393.7 393.1 391.8 391 390.4 388.8 388.2 386.5 386.1 388.8 391.2 394.4 398 399 399.2 399.3 397.7 395.6 393.3 391.1 386.2 379.7 374.3 369.3 365.3 362.6 359.8 357.1 356.4 358.1 357.1 358.6 359.4 359.2 360.1 363.1 364.8 366.8 368.5 369.7 370.2 371 370.3 370 371.6 371.6 371.1 370.5 368.4 366 365 363 358.7 353.4 349.2 345.3 342.2 338.2 335.3 334.1 333.5 332.4 329.4 329.1 330.5 334 337.4 337.6 330 317.7 305.3 294.9 287.3 284.7 282.6 281.8 277.6 268.4 268.1 266.7 266.5 269.4 268.9 271.4 273.5 276.4 280.5 284.5 287.7 292 297.9 304 312.7 316.7 318.1 318.3 316.5 313 310.1 306.7 302.1 297.4 292.8 287.4 283.5 283.5 282.6 281.5 283.3 284.8 285.1 287.8 291.9 294.9 296.1 299.5 303.5 307.7 312 315.3 317.7 319.8
344 344.3 343.5 345.8 348.2 350.8 355.6 364.9 372.3 380.8 388.4 397.6 406.1 417.1 423.1 427.2 435.6 444.1 448.3 451 446.2 435.8 420.9 407.8 383.8 369.3 346.1 328.2 315.2 304.5 296.7 291.7 290.6 289.7 287.9 286.1 284 283.3 286.2 288.1 290.7 293.7 296.9 301.4 304.5 308.4 313.7 319.3 325.9 330.4 332.9 334.5 335.7 336.3 338.2 338.7 340.5 341.3 340.2 338.2 335.4 334.7 332.2 333.8 336 336.3 341.4 342.6 346.7 351.8 354.6 358.8 362.8 368 375 379.9 382.9 387.8 390.4 391.7 392.3 390.6 388.3 385.1 384 382 382.5 385 386.9 389.1 394.8 397.8 398.4 397.9 397.9 396.1 394.4 391.1 384.5 378.5 372.9 368.2 366 363.5 360.4 357.6 356.1 356.3 356.6 357.5 358.5 358.3 359.7 362.6 365.7 368.1 369.7 370.6 372 371.8 371.4 371.2 372.4 373.6 374.8 374.1 373.2 372 371.3 369.7 365.8 360.1 355.2 350.7 346.9 342.9 338.1 338.6 336.3 336.2 333.9 334.1 338.6 342.6 345.9 345.9 339.8 333.8 316.8 304.9 293.2 286.3 283.2 281.1 277.8 274.6 268.2 266.2 265.7 262.7 265.2 267.9 268.4 271.2 274.7 278.4 281.6 286.1 291.1 296.4 304.8 310.1 313.4 315.4 316.2 315.2 313.5 309.6 306 301.2 295.3 290.1 286.4 283.3 280.7 278.2 278.7 280.9 280.6 281.9 284.7 288.5 289.2 292.1 295 299.2 303.4 307.1 309.6 311.6
343.1 340.2 340.2 342.6 345 347.4 352.2 359.1 367.3 376.3 385.8 391.2 402.4 411.1 417.3 422 430.3 437.6 440.3 441.4 437.1 426.7 415.9 404.1 384.8 369.4 348.8 331.4 317.8 305.3 296.8 291.7 288.1 286 285.6 282.6 281.6 284.3 284.9 286.5 289.8 291 293 297 299.8 303.4 308.8 314 319.7 323.6 327.4 328.9 330 331 331.6 333.4 333.2 335 334.2 333 331.8 331.4 329.2 330.5 331.1 333.1 336.6 342.4 344.8 347.6 352.9 355.9 361.1 364.1 371 375.4 380.5 383 385.9 387.9 389.3 388.4 385.5 383.5 380.4 380.1 379.1 382 383.3 385.3 391 395 397.3 396.5 396.5 397.3 397 394.8 388.6 380.5 374.8 369.4 365 360.8 354.3 355.5 356.4 357.2 356.7 355.4 357 359.1 360.6 362.7 365.2 368.8 370.3 371.6 372.5 372.8 372.5 372.4 373.4 374.6 375.7 376.5 376.4 375.5 375.1 374.2 370 365.8 361.1 356.1 350.6 344.4 342.6 340 339.5 338.7 339 340.5 344.7 349.8 356.6 358 351.7 344.9 336 322.9 307.2 292.8 285.4 280.9 278.2 276.7 271.5 265.6 264.6 263.3 265.3 265.9 265.4 267.3 269.9 272.3 275.4 279.7 282.9 287.7 295.7 301.6 305.6 310 313 314.5 315 312.4 308.8 306.7 302.7 297.4 292.2 287.2 284.6 281.8 278.1 278 276.8 277.3 277.2 281.2 280.2 284.9 285.6 289.7 293.2 297.2 300.4 302.9
340.6 338.2 337.7 339 340.9 344.6 350 354.7 361.9 371.2 379 388.3 400.3 408.8 415.1 421 425.3 430.5 435.3 436.4 431.8 419.6 407.5 397 383.7 366.4 348.6 331 318.3 304.9 296.1 291.6 288.5 286.6 283.5 280.6 280.5 280.1 284.3 286.2 287 289.1 290.9 292.1 296.6 300.7 303.8 308.6 313.4 316.7 320.2 322.3 323.5 325 326.9 328.9 328.6 330 327.8 327 327 326.7 323.6 325.8 324.2 329.4 334.6 338 340.3 344.9 348.5 355.2 359.3 362.9 368.8 372.4 377.5 380.2 381.2 382.5 383.4 383.4 381.4 380.3 377.7 377.2 377.9 379.2 380.1 382.8 387.6 392.3 394 392.9 393.3 395 396.7 392.5 385.8 377.4 371.4 364.5 356.9 353.8 358.7 360.2 360 359.4 358.8 358.3 357 358.8 361.4 363.2 366 369.3 371.4 372.5 373 373.3 373.6 373.6 374.6 375.3 376.4 377.3 378 377 375.2 373.3 371 366.3 363.3 357.2 354.1 349.7 348.4 344.7 345.2 344.9 344.6 347.6 353.1 359.6 364.6 368.1 366.2 362.3 353.2 342.8 322 307.9 295.5 287 281.7 277.6 272.3 271.6 264.8 262.6 261.2 262.9 263.2 264.4 266.7 267.1 270 272.7 276 280.9 286.5 291.5 294.6 301.1 305.4 307.6 309.3 309.9 310 311.7 312.8 310.6 302.7 294.7 289.1 284.1 279.1 273 273.2 272.4 272.5 273.6 272.4 274.4 276.2 280.3 285.2 287 290.7 293.1
337.3 335.4 334.9 335.4 338 342.6 346.8 352.7 360.3 369.6 379.8 386.4 396.4 402.7 408.2 413.3 420.3 425.8 429.1 430 426.3 414.3 402.8 392.5 382.7 366.4 348.2 330.1 316.4 304.7 296.4 291.2 287.9 287.2 285.8 281.3 278.2 280.6 282.4 283.3 284.5 287.3 288.4 291.3 293 296.9 300.4 303.7 307.5 311.7 313.3 316 317.7 319.4 321.3 323.5 325.5 325 324 322.5 322.7 321.7 320.2 319.5 320.3 326.3 330.2 332.5 336.8 340.6 345.1 349.3 355.6 361.7 366.9 370.3 374.1 377.9 378.9 379.8 380 379.7 377.7 376 375.5 374.2 375.1 376.6 378 379.1 381.8 386.2 387.1 388.1 387.6 385.5 385.3 383.6 377.9 370 364.9 356.8 357.6 363.1 362.9 362.6 361.9 361.6 361.7 360.1 359.6 358.8 360.4 362.9 365.8 370.2 372.3 372.9 373.3 373.6 374 373.9 373.4 375.1 376.8 377.9 378.4 377.2 374 372 369.8 367.4 363.6 359.8 357.4 353.3 352.3 351.1 353.5 352.6 353.4 356.8 361 369.6 374.4 377.4 378.6 374.6 368.1 355.3 338.7 329.1 314.5 300.2 286.7 281.3 275.3 272.9 268.2 264 260.3 260.2 260.7 261.3 263.9 264.3 265.3 268.3 270.7 274.8 280.1 283.3 288 292.1 297.1 299.4 302.4 303.9 305.3 306.3 309.7 310.7 304.1 297.2 290.9 285.3 279.8 275.1 269.7 268.4 268.7 267.7 269.2 269.3 270.2 271.8 276.1 279 280.8 283
334.2 333 329.7 331.9 334.8 339.3 344.4 349.1 355.7 368.2 379.5 388.4 394.8 400.7 405.9 409 414.6 421.7 421.2 418.8 411.9 405.5 398.1 390.7 380.7 366.3 347.5 329.2 315.6 303.7 294.8 291.2 288.6 286.2 284.2 282.2 277.7 278.5 280.9 280.6 282.3 285 286.5 288.2 291.2 293.7 297.3 300.2 303.4 305.1 307.9 310.8 312.5 314.7 316.9 319.4 321.9 321.2 320.8 318.8 318.6 317.1 314.7 314.5 316.9 322.8 325.3 327.4 332.1 338.5 343.6 349.1 354.5 359.5 363.6 366.7 369.7 372.7 375.5 377.2 377.5 376.4 375.3 372.7 370.8 369.1 369.7 371.8 375.7 376.4 377.8 378.2 378.5 380.4 381.3 379.9 376.9 373.1 369.7 365.7 361.3 352.9 359.5 364.1 366.7 366.3 366 365.2 363.6 361.7 360.5 358.8 360.4 362.4 365.4 369.8 372.2 372.9 373.2 373.3 373.5 373.5 374.3 375.8 377.2 377.8 378 377 374.3 371.5 370.5 367.6 366.5 363.9 359.8 357.7 356.6 359.5 361.5 363.6 364.7 366.5 372.9 378.7 384.1 388 389.9 386 381.7 372.6 360.9 352.8 343.1 322.9 303.1 291.3 286.1 278.2 272.6 267.4 263.3 261.5 257.1 258.6 260.4 261.7 263.3 264.2 265.5 268.8 273.1 276.9 281 285.5 288.8 292.7 295.1 296.9 297.8 297.3 299.6 301.9 300.4 294.4 288.5 283.1 278.6 274.4 271.6 269 263.8 265.9 266.1 264.4 265 266.5 267.7 270.7 272 274.2
331.9 330.6 328.6 330.1 333.9 337.4 341.4 347.1 355.8 367 379.9 389.8 396.5 399.7 400.6 403.4 407.8 411.4 411.4 408.8 402.4 400.9 394.6 388.9 377.5 361.1 345 327.4 314.2 303.9 295.9 292.4 289.9 287.5 286.3 283 277.7 275.6 278.1 281.2 282.7 282.2 282.9 285.5 288.7 291.3 294.3 297.4 300.2 301.8 303.9 305.9 308 311 312.5 315 316.8 316.6 316.9 316.1 315.4 313.2 311.9 309 312.6 316.4 317.2 322.4 329.5 336.1 342 347.3 352.1 357.4 361.5 364.1 366.8 370 371.1 372.9 374.8 373.8 370.7 368.4 366.1 363.7 365 369.3 373.3 373.9 375.6 375.3 375.1 374.9 374.2 372.8 371.5 369.3 364.8 360 350 353.8 360.4 366.5 370.5 370.3 369.7 367.9 366.5 363.8 362 360.8 358.5 360.2 363.6 368 371.1 372.9 373 373.1 373.1 373 374.6 378 378.1 378.2 377.2 376.2 374.6 373.4 371.2 370.4 370.1 367.5 365.1 363.1 361.3 367.7 371.2 373.3 373.4 376.8 379.1 383.5 390.7 397.9 400.1 396.6 393 389.1 383.2 376.3 360.3 342.1 320.2 308.5 301 289.3 280 274.2 267.3 263 260.2 257.4 255.9 258.1 260.7 262 262.7 264 265.6 269.7 273.6 277.4 280.8 284.2 286.5 288.3 289 288.6 288.9 289.4 289.2 286 283.1 278.5 276.7 273.9 269.5 266.7 263.3 262.3 262.2 260.3 260.9 261.2 262.4 263.7 265.8 267.7
331 327.9 329.6 331 332 336 341.3 347.7 356.6 368.7 380.9 387.8 396.1 399.2 399.8 402.1 402.3 403.9 403 401 395.5 392.8 388.8 382.7 369.9 356.4 338.1 325.5 313.4 302.9 295 292.5 289.9 288.2 287 284.7 281.7 275 277.5 281.2 281.4 281.9 282.1 283.4 285.9 288.9 292.1 295.1 296.4 298.4 299.5 302.3 304.1 307.2 308.4 311 311.6 313.1 313.4 311.3 311.7 309.7 308.7 302.2 308.7 309.8 315 322.6 326.2 334.2 340.2 345.6 351 355.9 359.5 362.2 365 367.5 368.8 369.7 371.3 370.2 367 363.8 361.7 361.5 362.5 367.2 370 370.6 372.6 372.7 374.2 374 372.5 368.4 366.4 364.3 358.8 354 355.5 359.2 364.9 370.6 373.9 374.6 372.4 371.6 369.4 366.4 364 361.5 360.7 359.2 362 366.5 370.1 372.3 372.9 372.8 372.6 372.9 374.2 378.1 378.6 377.6 376.6 375.5 374.5 374.4 374.3 374.5 374.9 374.4 372.3 369.7 368.8 374.8 378.3 380.3 381 381.9 384.8 390.3 398.2 404.9 406.3 403 399.3 395.1 393.9 391.9 386 371 342.3 329.5 319.3 308 293 283.1 277.1 267.8 261.5 258.2 255.9 255.9 258 260 260.7 261 261.6 262.3 264.8 268.5 271 275.1 278.1 281.4 281.4 280.2 279.5 280.4 279 275.8 275 273.4 272.2 271.1 267.2 263 260.1 259.3 259.4 258.8 259.4 259 258.1 260.3 261.5 261.6
328.8 327.8 328.7 331.1 332.8 335.9 341.3 348.1 358.7 372.4 382.7 388.7 396.5 402.7 404.2 404.1 402.6 400 395.7 391.6 383.5 382.2 379.1 372.2 359.3 346.6 330.3 321.6 310.1 301.7 295.8 293.4 290.6 289.3 287.3 285.1 282.3 277.4 275.4 279.9 280.5 280.3 282 282.8 283.9 285.8 289.8 291.6 292.8 295.7 295.7 298.4 300.5 303 304.7 306.7 309 309.6 310 308.8 308.5 307.8 306.4 300.5 302.6 307.7 312.7 318.6 325.1 330.1 335.7 341.7 348 353.2 356.9 359 361.4 363.7 366.3 367.4 367.5 366 363.7 361.9 360.1 357.4 361.4 365.2 367.2 368.1 369.1 370.5 373.8 372.9 372.6 369.2 366 362.9 359.1 349.9 360.1 363.8 368.8 373.6 377.6 380.5 379.1 374.5 371.4 368.4 365.3 362.9 359.3 363 364.6 368 371.3 372.8 373 372.2 371.9 372.7 375 375.2 377.3 377.1 376.5 375.9 375.4 374.6 375.9 376.8 378.1 378.6 377.9 375.2 374 379.5 382 385.2 386.9 388.3 390.4 396.9 404.2 411.1 412.2 410.4 405.9 403.4 399.1 395.7 393.7 388.9 379.1 366.9 355.3 337.2 311.9 295.6 285.7 277 266.3 261 257.6 253.2 254.3 258.4 258.7 259 259.3 259.6 259.7 260.5 263.6 268.9 271.7 273.3 274 271.9 271.4 271.7 270.4 268.2 267.4 266.2 266.8 265.8 261.6 259.4 257.4 254.8 256.4 257.1 257.1 257.2 256.5 257.2 257.2 256.7
326.1 326.4 328.4 330.6 332.8 337.6 342.4 350.9 364.3 374.7 386.2 395.1 401 407.5 411.7 409.6 404.8 396.9 388.8 382.7 372 367.9 363.8 356.2 349.4 334.8 322 315.3 306.5 300.6 295.2 293.3 291.4 289.8 288.1 285.9 283 280.1 272.9 276.7 278.1 279 280.9 282.3 283.5 284.5 287.2 290 290.7 291.6 294.5 295.4 298.1 299.3 301.2 302.6 304.6 306.6 305.8 306 305.3 304.3 302.4 300.3 300.2 306.3 311.6 316.2 320.9 326.4 330.9 336.7 344.2 349.5 353.3 356.4 358.5 361.1 361.9 363.8 363.7 363.7 361.3 359.2 358.5 352.2 359.5 361.7 364.4 366 367.4 370.6 372.8 371.5 371.6 369 365.7 362.9 347.2 356.5 361.7 366.5 371.3 376 380.4 385.1 383.7 379.2 375.2 370.3 367.1 363.7 360 366.2 370.6 376.3 378.9 376.8 374.8 374.1 373 372.4 372 374.2 377.8 378.9 378.2 377.5 376.4 375.8 374.8 378.4 379.4 381.3 380.9 380.4 382.4 384.2 387.3 389.7 392 393 397 402.5 408.9 414.7 416.8 416.7 413.9 411.6 409.2 401.5 400.9 397 392.7 385.1 380.1 371.6 353.1 333.5 306.3 284.5 272.2 263.5 258.9 253.8 252.1 255.1 257.3 257.8 258.2 257.8 257.2 255.5 256.5 260.6 263.3 265.5 267.5 265.5 264.5 264 263.2 262.8 262.6 262.3 261.8 260.3 259.7 258.1 255.8 255 250.5 254.3 254.9 254.8 253.9 254.2 254.5 253.7
326.2 329.5 331.7 333.8 336.4 339 344.2 355.6 367.2 378.8 389.3 399 404.9 413.1 419.7 419.9 412.3 398.4 388.5 379.5 367.8 360.6 351.6 344.9 336.6 326.3 315.7 308.4 300.3 295.6 293.5 291.7 290.4 288.7 286.7 285.9 283 280.1 274.1 273.2 274.5 278.1 279.5 281 282.8 284.8 287 287.6 288.9 290.4 292.8 293.3 294.2 295.6 296.2 298.2 300.2 300.9 302.4 301.9 301.7 301.7 300.2 295.5 300.1 305.3 309.2 313.3 318.1 322.7 327.1 332.4 338.6 343.8 347.4 352.1 355.5 358.7 359.9 360.5 360.8 360.6 358.6 357.1 354.6 351.3 356.7 359.5 362.2 363.2 365.7 366.6 369.5 369 369.3 366.9 363.7 360.1 344.6 356.4 362 367 372.5 376.8 381.1 385.8 385.5 382.2 378.2 373.5 369.5 363.7 361.2 364.9 371.5 377.8 381.6 379.5 376.9 374.8 372.6 371.9 369.4 375.2 380.7 380.5 379.4 378.2 377.4 377.5 377.7 378.2 381.3 382.8 384.7 385.6 386 387.2 390 392.8 394 396.7 400.2 404.2 409.5 413.9 417.1 418.8 417.8 414.3 411.9 407.1 402.2 401.4 398 391.9 385.2 379.2 372.1 348.6 322.4 291.6 275.4 270 259.2 255.8 252.8 251 255.4 256.5 257.2 256 254.8 253.7 252.9 254.5 256.6 259.1 259.2 258.8 257.7 258.4 259.1 259.2 259.2 259 257.8 256.6 256.1 255.4 254.7 253 248.7 250 249.5 249.9 249.9 250.1 250.9 251.7
328.1 329.3 332.7 336 338.8 343.5 348.5 359.9 371.3 380.4 390.4 401.2 412.8 419.3 425.3 426.4 416.3 401.2 390.1 377 364 353.6 346.3 335.4 326.9 317.8 308.5 300.1 297 293.2 292.1 290.7 289.3 287.2 285.1 284.8 282.9 280 277.6 272.6 272.3 274.9 277.4 279 281.5 283.9 285.6 285.5 288.6 289.8 290.7 290 292.7 292.7 293.3 294.2 295.9 296.7 297.1 297.9 297.1 297.7 297.6 291.7 300.1 303.9 308.4 312.1 314.5 319.8 323.1 327.8 332.3 337 341.3 344.7 349.6 353 354.8 356.4 356.9 356.8 356.2 353.8 349.7 346 351.5 356.4 359.5 360.3 361.8 363.6 365.9 367.4 368 365.6 361.2 355.5 344.9 357 362.5 367.6 373.4 377.4 381.3 386.4 387.3 384.1 380.1 376.5 371.9 367.1 363.6 361.7 368.9 373.8 378.5 378.2 375.2 371.2 369.5 367.7 367.7 373.5 378.1 380 380 379 379.1 379.1 379.1 380.6 382.4 384.2 386.6 388 388.4 390.5 392.1 394.9 396.8 398.6 400.7 403.6 407.6 410.9 414.1 416 416.1 414.7 410.7 407.5 402.6 400.6 399.3 395.4 390.6 381.5 374 357.3 330.1 305.1 275.9 268.8 263.8 259.1 255.8 251 250 251 257 255.5 253.6 251.2 252 250.8 251.9 252.9 252.4 252.6 252.6 253.7 254.5 255 254.4 254.9 255.1 253.5 252.4 251.7 251.5 249.8 248.6 245.7 245.4 246.1 246 245.9 246.9 248.7
328.3 330.5 332.5 335.8 339.6 345.8 353.4 363.7 373.4 381.5 390.2 400.9 412.5 421.1 426.1 424.9 413.9 402.6 389.8 379.2 363.4 350.6 341.6 330.3 319.4 311.2 301.9 295.1 292.3 290.1 289.3 288.5 287.8 285.6 284 283.9 281.9 279.8 277.4 275.3 271.7 273.4 275.3 278.5 280.6 282.8 284.4 286.2 287.8 288.5 289.1 289.3 289.5 289.8 290.7 292.4 292.5 292.9 292.4 293.5 293.2 293.8 294 288.1 299 302.8 306.1 309.1 312.3 315 319.3 322.1 325.3 330.3 333.9 337.3 342.1 345 348.7 349.7 350.7 350.7 349.7 348.1 345.1 335.4 346.8 351 354.1 356.5 358.6 361 363.2 367.3 366.5 363.8 358.7 346.6 349.2 357.8 363.3 368 372.7 377 381 386.1 387 384.8 382 378.7 375.4 370.9 367.3 364.4 366.6 371.4 375.1 372.8 370.9 367.7 367.7 367.7 367.7 372 374.4 376.4 378.7 380 380.7 380.8 380.2 381.9 383.6 384.3 385.7 388.7 389.8 392.1 393.4 395 396.8 398.2 400.4 402.5 405.4 408.3 411.4 415 415.7 414.4 410.7 407.1 402.6 398.2 395.2 392.6 387.3 383.3 373.4 362.2 338.4 312.2 286.2 272.6 264.7 262.2 257.2 254.6 249.7 248.8 253.5 255.1 253.2 252 249.6 248.6 249.8 249.5 249.3 249.7 249.1 248.3 248.2 248.7 249.3 250.1 251 250.8 249.2 249.5 249.1 248.5 247.7 244.6 243 244.6 243.5 243.1 244.9 245.5
327.5 332 335.1 337.2 342.6 349 356.6 365.8 374 381.9 390.9 400.4 411.3 421.9 427 428.4 419.4 403.9 390.8 379.2 362.5 348.6 335.3 325.6 314.5 303.7 296.3 291 287.5 287.2 286.6 285.8 285.2 284 281.3 282.5 280.8 278.9 277.1 273.1 269.8 272.9 275.7 277.7 279.4 282 284 285.6 286.3 287 287.4 286 286.7 287.4 288 289.5 290.2 289.3 287.9 289 290.1 290.2 289.9 287.5 297.5 299.7 302.5 306.9 310.2 312.3 315 317.9 320.4 322.9 326.6 330.7 333.4 336 338.8 341.1 343.1 342.3 342.2 341.5 339.6 330.5 341.3 344.6 348.6 349.9 353.9 356.4 359.6 363 361.5 359.6 354.8 338.9 352 359.8 365 369.9 374.4 378.5 381.7 384.7 384.7 384.2 383.5 381.7 379.1 375.4 371.1 367.9 364.9 369.2 370.9 369.1 367.7 367.7 367.7 367.7 367.7 370.6 371.4 372.4 375.1 378.4 379.9 380.6 381.4 382.4 382.7 383.9 384.6 387.6 390.6 392.6 393.4 393.4 393.9 395.2 396.3 399.4 402.1 405.2 409.1 413.8 416.1 415.5 412.5 407.9 403.5 400.6 394.7 387.3 381.8 376.6 367.6 361.8 348.3 327.6 305.2 284.6 271.2 264.1 260 256.7 252.3 249.5 246.5 248.9 254.1 253.2 251.4 249.4 246.5 247.6 247.5 247.2 246.8 246 245.7 246 246.4 246.7 247.3 246.8 246.3 245.3 245 246.2 245 244.2 241.2 242.2 242.3 241.7 242.9 242.3
327.4 332.7 337.2 341.3 348.5 354 360.7 368.5 375.8 382.9 391.9 401.4 411.4 421.5 426.9 430.2 426.1 411.6 394.9 381.1 363.5 347.8 331.6 318.1 307.8 299.2 290.8 286.7 285 283.9 284.1 283 282.3 281.5 277.3 279.4 278.6 276.8 274.2 271.2 269.3 272 273.9 276.6 279.1 281.8 283.3 284.1 284.8 285.4 285.1 284.3 284.5 284.9 285.5 285.8 287.1 285.8 285.5 286.8 286.2 286 283 291.6 295 296.8 299.7 303.2 305.2 308.4 310.5 312.8 315.7 317.8 319.8 323.5 326.6 329.2 331.6 333 333.3 334.2 334 334.4 332.1 326.3 334.9 337.4 341.9 344.9 349.1 351.2 353 356.4 356 353.3 347.4 344.2 355.3 360.5 367.2 371.9 375.8 379.2 382.3 384.3 384.3 384.2 384.3 383.8 382.3 378.7 375.1 371.5 369.7 369.1 370.3 367.7 367.7 367.7 367.7 367.7 367.7 370.9 370.9 369.8 372.7 374.6 376.3 378.8 380.9 381.4 382.4 383.5 383.6 384.7 387.6 390.3 391.4 391.3 391 389.7 392.9 396 399.5 403.4 407.5 411.6 414.7 415.7 415.5 411.8 405 399.7 393.9 388.5 384.3 377 370.7 367.2 363.1 343.2 319.1 302 291.9 273.9 265.6 261.8 255.2 250.9 247.7 245.5 246.3 252.5 251.2 249.9 248.6 246.9 244.7 243.1 242.6 243.2 242.8 243.6 243.8 243.6 243.5 243.5 243.5 243.1 243.4 244.5 243.7 243 242 240.6 239.5 240.3 240.1 240.3
328.2 334.2 341.2 346.1 353.7 359.5 365.7 372.2 378.5 385 394.6 402.1 412.5 420.8 425 428.9 426.8 415.5 398.8 382.6 365 347.7 331.2 316.1 304 294.9 286.5 284 283.5 282.1 280.4 279.7 279.5 277.4 273.7 275.3 275 272.1 270.6 267.3 273.4 274.6 276.9 278.5 279.4 280.7 282.1 282.7 283.3 283.4 282.9 282.8 282.9 283.1 283.2 283 283.1 282.9 284.3 284.6 282.7 281.4 283 288.4 291.4 294.5 297 298.6 301.1 303.7 306.9 308.5 310.6 313 314 316.7 319.6 322.4 324.4 326.3 326.8 327.6 327 326.6 325.6 322.5 327.6 331.4 334.8 337.4 341.3 342.7 347 348.5 348.1 346.5 335.9 349.5 356.5 362.7 369.1 373.1 376.2 378.7 382.1 384.2 384.3 384.2 383.8 384.5 383.2 380.4 377.2 374.7 371.2 372 372 371.9 370.8 371.2 369.4 367.7 367.7 369.9 369.3 369 370.8 372.3 373.6 375.6 378 380.8 382.1 383.1 381.7 378.4 378.4 381.7 386.8 387.4 388.3 387 390.4 392.2 396 399.8 403.5 407.2 411 413 414.2 413.3 408.5 401.3 397 392.6 387.6 382.9 377.2 375.3 370.4 357.9 332.4 316 306.2 287.9 274.4 269.4 261.7 254.1 250.6 247.1 244.4 248.3 249.9 249.8 249 247.7 246.6 245.2 243.9 242.9 240.7 240 241.2 241.1 242.3 242.3 242.1 241.7 242.3 241.9 241.5 241 240.2 238.5 238.1 239 239 238.7
