ncols 200
nrows 96
xllcorner 250000
yllcorner 45100
cellsize 50
95.5 96.9 99.1 100.4 101.2 100.5 100.3 97.6 95.5 93.3 90 85.1 78.9 82.1 85 87.2 90 92.6 95 96.1 95.4 94.7 92.5 89.5 84.8 77.4 69.7 62.2 56.5 53 50.7 50.7 49.6 45.3 40.7 38.3 39.9 51.7 60.5 65.6 70.5 75.3 80.2 83 84.4 85.5 86.9 88.4 89.1 88.9 89 91.1 92.5 92.8 92.3 92.1 91.3 85.6 84.6 89.6 90.5 93.5 98.5 102.6 106.2 109.5 110.7 111.9 111.6 110.8 108.7 106.8 104.4 100.5 95.9 89.3 80.9 78.1 77.3 68.5 59.7 50.3 41.8 32.6 22.4 16.4 13.3 1.6 -1.6 -1.6 1.5 -1.6 -1.6 -1.6 -0.1 0.6 1.6 12.5 22.1 22 30.2 41.2 52 60.7 69.8 75 77.9 81.5 84.3 82.4 78.1 72.2 66.4 59.4 51.9 46.9 37.6 32.8 31.7 34.9 41 45.7 51.4 55.4 56.6 55.3 53.1 53.6 56.6 60.2 65 69.9 74.8 79.8 84.4 88.5 92.3 95.6 96.9 97 97.1 96.9 96.3 94.9 94.2 94 93.9 94.6 95.1 96.7 97.5 98.7 100.2 101.2 101.7 100.8 100.2 98.5 96.5 100.5 102.5 104.7 105.8 107.2 107 106.1 103 100 96 91.7 90.7 94.6 96 96.6 96.7 97.8 99.3 101 101.6 102.7 103.4 104.1 104.5 104.8 104.2 103.6 105.8 107.6 108.2 106.7 103.6 100.6 96.4 93.2 94.3 94.2 92.2 87.8 79.1 71.8
91.2 93 95 96.5 98.1 98.8 98.6 97.6 95.3 93.6 90.4 86.5 79.5 80 85.2 87.1 89.7 92.5 95.2 95.4 94.7 93 90.9 87.9 84.7 82.6 76.9 65.2 57.9 58.4 58.6 57.9 54.9 48.7 42.5 39 35.9 42.1 50.8 61.4 67.9 72.9 77.4 80.3 82.1 84.3 85.9 85.6 85.8 84.7 84.4 86.3 87.5 87.4 85.8 85.4 84.6 80.9 84.8 86 86 90.9 95.6 100.3 104.5 108.4 110.8 112.5 112 111 108.4 106.8 103.9 100.5 97.3 92.9 88.4 79.8 66.6 54.5 44.3 34.6 24.4 15.4 8.7 1.8 1.8 1 -1.6 -1.6 -1.6 -1.6 -1.6 -1.6 1.4 1.8 12 22.2 34 33 29.5 33.8 47.8 57.5 66.5 72.8 77.1 80.9 82.8 82.9 80.6 76 72.5 67.3 61.6 57.8 55 57.2 56.7 51.6 46 40.2 37.8 42.7 46.8 48.2 48.4 52.7 56.6 60.3 64.2 68.9 74.5 79.2 83.5 87.8 91.5 94 95.1 95.2 94.4 93.4 93.4 92.4 91.3 91.3 92 93.6 94.9 96 97.1 98.6 99.6 100.6 100.3 99.3 98 94.7 92 96.7 99.5 101.6 103.9 105.4 106.3 104.9 102.9 99.7 95.2 88.7 93.2 97.2 99.6 100.4 100.5 99.3 99.4 100.9 100.5 100.4 100 99.8 99.5 99.2 99.6 102.9 105.3 107.5 107.7 106.1 102.7 98.3 92.6 87.7 88.4 87.9 84.3 77.9 69.2 64.8
86.7 88.4 90.1 91.9 94.3 96 96.6 95.9 94.5 92.3 89.1 85.1 77.7 79.2 84.8 87.6 90.5 93.3 95.5 95.2 94.7 92.6 90.6 88.5 86.2 83.7 78 65.3 63.7 64.9 64.6 61.1 53.8 47.6 48.4 46.7 40.1 34.4 39.2 50.7 62.1 68.1 72.3 76.3 79 82 83.6 83 81.9 81 79.7 79.9 79.2 79.4 77.9 77.6 77.4 78.4 82.8 82.9 83.9 86.3 92.3 96.9 101.9 107.5 109.9 112.2 112.4 111 108.1 106.5 103.4 99.9 96.8 92.8 88.3 83.3 77 68.7 59 44.2 33.7 27.2 23.9 16.4 1.8 0.7 -0.6 -1.6 -1.6 -1.6 -1.6 -0.4 1.4 7.9 18.1 28.8 42.2 47.1 44.7 41.7 43.7 54.6 63.9 70.3 75.1 79.3 82.3 83.8 83 81.7 80.6 76.7 71.8 67.9 64.9 65.9 66.5 65.2 62.5 57.8 52.7 48.9 45 44.7 47.7 50.6 54 57.4 61.2 66.3 72.5 77.4 81.6 85.2 89.1 92.6 94.2 94.2 92.8 91.2 91.3 89.8 89.2 93.1 95.8 96.6 96.4 96.6 97.4 98.4 99.4 99.6 98.8 97 94.4 91.3 88.6 91.5 94.2 97.8 100.8 103.3 105.1 105.2 103 99.5 94.5 85.4 93.7 98.6 102.2 102.9 102.6 101.2 100.6 99.5 98.5 96.5 93.7 94.5 96.1 98.6 101 103.4 105.5 106.8 106.3 104.3 100.7 95.8 90.5 84.8 81.4 79.3 74.8 70.2 63.9 66.4
82.6 84.6 86.1 88.3 90.8 92.6 93 92.3 91.2 89.3 86.4 82.3 76.3 78.8 83.4 87.5 90.3 93.8 95.2 95.8 95.9 94.5 92.7 90.5 86.5 80.8 74.8 71 71.4 70.1 67.7 60.8 54.9 57.5 60.6 60.1 54.3 46.3 35.2 38.7 51 62.2 66.1 71 76.3 78.8 79.2 79.2 78.2 76.8 73.9 71 69.5 69.1 69.8 70.9 72.2 75 78.3 79 81.1 83.2 89.7 95.2 101.1 106.4 109.8 111.3 112.5 111 108.5 106.1 103.1 99.3 95.5 91 85.3 80.6 76.1 70.8 65.7 60.3 50.9 43.8 38.4 28.8 1.7 0.6 -0.5 -1.6 -1.6 -1.6 -1.6 0.3 1.8 14.9 27.5 41.1 53.6 60.7 58 55.3 51.4 53.3 61.5 69.7 75.4 79 82.7 84.4 85.2 86.5 86.7 84.8 81.6 76.4 72.2 71.3 71.5 68.2 65.6 61.8 56.5 50 48.4 49.6 51.7 55.8 59.1 62.1 66.1 70.1 73.4 76.9 79.9 85 88.7 92 93.3 93.4 91.6 89.4 86.9 88.3 93.8 96.2 98 98.7 97.7 98 98.3 98 97.5 97 95.9 93 90.7 86.7 83.8 87.8 89.6 94.7 98.3 102.2 104.5 104.9 103.6 99.8 92.9 86 94.7 99.3 103.2 104.4 103.6 102.5 101.3 99.8 96.9 91.2 90.2 95 100.2 103 104.6 105.1 105 105.2 103.4 100.9 96.9 92 86.9 83 78.9 74.8 70 65.9 60.5 64.9
79.3 81.3 83 84.9 87 88.5 88.3 87.7 87 85.6 82.7 75.8 75.5 80.7 84.6 87.6 90.2 93 95 96.6 96.8 96.4 95 93.5 89.5 84.3 80.4 80.6 80 73.2 69 60.6 63 68 71.4 70.2 63.8 55.6 48 36.8 38.3 50.4 57.6 64.7 71 74.1 74.8 74.4 71.6 67 62 61.1 65.1 67.6 70.3 70.6 71.9 74 75.4 77.5 79.6 85.4 89.2 94 99.6 105 107.9 109.7 110.6 109.5 108 105.4 102.1 98.1 93.5 87.9 81.3 74.8 70.6 66.9 64.2 60.7 55.6 53.6 51 41.4 19.7 0.9 -1.6 -1.6 -1.6 -1.6 -0.6 0.8 9.5 26.6 40.3 54.3 65.1 73.3 72.1 69.9 66.2 62.3 59.9 67.1 74.3 79.6 82.4 83.6 86.8 90.1 91.4 90.2 86.6 81.7 78.2 74.8 71.8 67.7 63.4 59.2 55.3 53.2 54 55.8 59.2 65.6 69.9 74 78.5 83.7 87 88.7 90.5 92.2 93.2 93.7 94.1 93.3 91.5 88.2 84.9 91.2 94.9 96.4 97.6 98 97.4 97.7 97 95.7 94.6 93.2 90.8 87.4 83.6 79.3 79.5 83 87.5 94.1 99.7 102.8 104.9 105.1 103.5 98 85.8 89.9 96.8 101.5 105.2 106.8 106.2 104.5 102 100 97.4 91.4 87.7 95.5 101.4 104.7 106.4 106.6 105.7 103.7 100.5 96.3 91.8 86.7 82.3 79.3 76.9 74.1 70.2 66.2 60.4 64.5
75.9 78.2 79.7 81.3 82.8 83.6 83.5 83.1 82.3 81.2 76.4 73.3 78.6 82.8 85.8 88.3 91 93.3 95.4 97 97.3 97.2 97.1 96 92.7 89 88 89 85.7 80.2 71.8 67.2 74.1 80.9 82 78.5 73.6 64.1 54.6 46.6 33.5 36.1 43.7 55.3 65 68.1 69.5 67.2 59.8 57.3 62.1 69.8 75.8 77.5 79.2 81.6 80.3 77.5 77.7 81.4 84.4 87.3 91.8 96.2 100.4 103.9 106.1 107.4 107.6 106.6 104.9 102.5 99.3 95.4 91 85.4 77.6 69.6 64.6 61.6 59.5 57 51.8 47.7 47.5 45.5 30.6 1.6 -1.6 -1.6 -1.6 -1.6 0.2 1.7 25.3 41.9 55.6 66.5 78.2 85.6 86.9 84.9 80.9 76.6 73.5 70.1 72 76.1 79.8 83.2 87.6 92.5 93.9 92.5 89.5 85.7 81.7 77.8 73.8 70 63 60.9 62.6 62.6 64.9 67.7 73 78.7 81.6 83.2 87.1 90.8 92.9 94.4 94.9 95.4 95.7 95.2 94.4 93.4 90.4 85.8 81.7 89.2 92.9 93.9 95.3 96 96.2 96.1 95.8 93.9 91.8 88.9 86.9 82.2 77.2 74.4 78.5 84.8 89.8 95.8 99.6 101.6 103.3 103.5 101.3 92.2 84.5 94.2 99.9 104.3 107.5 108.4 107.9 106.1 103.5 101 97.4 90.1 87.5 96.9 102.1 105.5 107.2 107.6 106.4 103.4 99.1 93.1 87.3 82.5 77.7 74.2 72.7 70.5 67.4 63.2 59.7 66.2
71.5 74.3 77.2 78 78 78 78.2 78.5 77.7 76.2 71.1 74.2 79.8 83 86 88.8 91.8 94.2 96.1 97.4 97.8 97.7 97.6 96.7 95.6 93.6 93.3 92.9 91.5 88.5 77.4 79.3 87.4 90.2 89.4 87.1 82.8 73.1 62 54.6 46.4 36.5 34.3 45.4 56.3 61.5 63 57.3 55.9 64.2 69 73 75 80.3 84.1 85.2 86.2 84.9 83 86.2 88.9 91.7 94.9 98.2 99.8 101.8 103.6 103.7 103.1 101.9 100 97 94.2 91.3 87.9 82.3 74.2 66.5 61.2 57.2 55.6 50.9 45.2 38.1 33.7 36 31.3 11.5 -1.6 -1.6 -1.6 -1.6 1.4 20.8 41.4 57.6 68.2 78.3 90.6 96.9 98.7 96.5 91.2 86.3 82.1 80.5 78.4 78.7 81.1 84.9 90.6 93.6 95.6 94.9 92.2 88.6 85.3 81.6 78.4 73.3 64.4 70.3 74.8 77.5 80.5 82.2 84.1 86.9 89 89.7 91.2 93 94.5 95 95.6 96.3 95.8 95.2 94.4 92.3 88.2 85.4 77.3 86.8 89.9 91.5 92.8 93.9 95.4 95.2 95.1 94.6 93.3 93.3 92.4 84.9 77.8 72.7 80.6 86.4 91.3 95.6 98.2 99.6 100.4 99.5 97.2 84.3 90.7 99 103.5 106.8 109.4 109.7 109.2 107.6 104.1 99.2 94.6 87.5 84.4 95.7 101.9 106.2 107.6 108 106.7 103.3 98 92.5 87.1 81.5 74.8 69.3 64.4 64.4 61.7 57.5 61.3 68.8
71.3 74.7 76 75.8 75.4 74.9 74.7 74.3 72.7 70.2 69.8 75 78.6 82.5 85.6 88.8 91.9 94.5 96.7 98.1 98.4 98.8 98.8 99.2 98 97.6 97.1 96.4 94.9 89.8 81.5 86.9 91.9 93.3 92.5 90.6 87.3 80.6 71.3 66.6 57.8 43.5 30.9 38.3 49.5 53.6 55.4 48.5 61.2 70.1 73.2 74.7 78.7 83.3 87.4 88.8 90 89.3 88.3 89.6 91.7 93.8 96.2 97.4 98.7 99.3 99.8 99.2 98 96.8 94.5 91 88 84.1 80.4 75.6 69.1 62.4 57.2 51.2 55.1 54.8 50.3 40.5 26.7 24.8 22.4 3.9 -1.6 -1.6 -1.6 1 17.3 41.8 54.9 67.4 77.2 87.5 95.9 101.8 103 100.3 94.9 90 86.8 84.2 82.7 82.9 84.7 89.7 92.4 95.1 96.3 96.3 94 91.6 88.5 85.4 80.5 72 70.8 79.4 82.4 84.5 86.2 87.7 89.9 91.5 92.4 92.9 93.9 93.7 94.1 94.6 95.6 95.4 95.5 94.9 94.1 91 86.3 82.2 74.5 83 86.2 89.3 92.2 93.8 94.6 95 96.5 96.5 96 95.6 94.4 90.3 81.3 70.9 79.1 85.6 90 93.2 94.8 95.6 95.9 93.6 86.8 82.7 95.7 102.5 105.9 108.5 110 109.3 108.6 106.8 103.6 97.8 90.2 80.7 86.6 96.6 102.3 105.7 106.7 106.5 105 102.1 97.8 93 87.6 82.1 76.2 68.3 61.3 59.7 57.9 56 63.3 71.9
75.5 76.9 76.5 75 73 71.7 71.1 70 67.8 65.8 69.6 73.2 77.2 81 84.2 87.8 91.3 94.6 96.5 98.1 98.9 99.3 99.8 100 99.8 99.6 99.1 98.2 95.8 92.2 87.2 91.3 93.8 94 93.1 91.3 87.7 82.2 75.9 70.4 63.1 45.5 30.3 33 37 39.7 42.2 55.4 67.7 74.6 78.6 80.4 83.4 86.2 90.2 91.9 92.6 92.7 92.1 91.8 93.4 95.1 95.8 96.3 96.6 96.3 95.3 94.3 93.1 91.3 88.7 86.2 81.2 71.2 61.4 63.1 60.7 55.8 51.4 43.4 48.8 47.9 43.4 35.7 21.2 16.5 11.2 -1.6 -1.6 -1.6 -1.6 16 39.2 53.9 65.6 76.6 82.9 90.6 97.6 101.7 103.9 100.8 95.3 91.2 88.1 86.9 86.6 88.3 89.8 92.2 94.4 95.8 96.9 97.1 95.3 93.3 90.4 86.6 79.1 71.5 78.9 83.1 85.9 89 90.9 91.6 93.2 94.4 95.3 94.9 94.4 93.7 93.2 93.2 94.6 95.3 95 95 93.2 90.2 86.5 77.5 76.3 84.6 88.1 91.5 93.7 94.9 95.9 97.7 98.1 98.6 98.8 99.2 98.2 93.8 82.9 69.6 76.1 84 87.4 89.5 90.7 90.3 89.1 81.8 81.1 93 102 106.6 108 109.5 108.6 106.6 104.9 103.8 101.2 95.1 84.5 79.1 92 99.8 102.9 104.2 104.2 103.3 102.2 99.3 96.8 93.4 88.6 82.4 75.6 68.4 61.5 58.8 56.7 59.5 66.5 74.2
77.7 79.1 77.4 74.9 71.2 67.5 66.1 64.6 67 72 76.4 79 80.4 81.3 83.4 87.1 90.4 93.2 95.4 97.1 98.2 99.2 99.5 99.9 99.8 99.5 99.1 98.8 97.1 93.9 93 94 93.7 93.4 91.4 89.1 85.6 81.2 75.6 69.9 61.9 41.6 29.3 37.2 46.7 52.6 57.8 66.3 73.9 79.1 82.3 84.3 87.9 90 91.4 93.6 94.2 94.4 94.8 94.3 95.6 96.1 96 95.5 93.8 92.9 90.6 88.3 86 84.1 81.5 79 76.6 72.2 62.3 46 44.4 43.7 43.8 40 41.5 39.2 33.4 24.1 12.6 1.6 -1.6 -1.6 -1.6 -1.6 16.1 35.3 47.5 58.5 68.7 78 85.2 89.7 95.1 98.5 98.4 96 91.9 88 86.3 88 90.1 90.8 91.5 92.3 92.6 94.2 95.3 94.8 93.4 91.9 90.7 87.4 82.7 77.9 84 86.5 90.2 92.2 93.4 93.6 94.3 95.3 95.6 94.4 93.1 91.6 91.1 91.6 93.7 95 94.2 94.3 91.2 87.7 83.8 70.9 78.5 86.1 90.7 94.2 96 97.4 98.7 99.7 99.9 100.6 101.3 101.5 98.7 94 82 68.9 73 81.5 84 85.3 85.3 82.3 77.6 79.6 89.1 98.5 105.1 108.2 109.9 109.8 108.2 103.8 98.8 95.7 95.8 90.5 76.8 85.4 94.4 99.3 102 101.4 100.2 99.3 98.3 97.3 95.3 93.2 88.6 82.7 75.5 67.5 61.8 57.2 56.7 63.4 71.9 77.6
78.8 79.6 77.5 73.9 68.5 63.4 62.7 68.9 75.8 80.3 83.8 86.6 88 87.6 86.9 85.9 88.8 91.7 93.9 95.8 97 98 98.8 99.2 99.5 99.1 98.7 98.4 97.5 96.6 95.7 94.4 93.9 92.5 89.4 87.1 82.8 77.9 71.9 65.9 57.3 35.4 29.2 41.8 52.2 60.3 67.5 73.3 78.2 81.5 84.8 87.2 89.9 92.5 93.3 94.4 95.7 96.1 96.5 96.9 97.2 96.3 95.3 93.4 90.8 87.8 84.2 80 75.9 74.6 72.9 71.7 69.4 67.1 62.1 52 33.8 25.7 28.7 26.9 31.3 29.3 22.7 12 1.5 0.1 -1.6 -1.6 -1.6 -1.6 28.3 47.8 54.5 59.5 67.8 75.4 80.2 85.9 89.4 90.6 89.9 87.3 82.7 80.2 80.3 82.8 85.4 86.9 87.8 88.3 87.2 85.5 86.6 86.8 88.7 91.1 91.1 89.8 87.3 82.7 84.9 88.4 90.1 91.8 93.1 93.2 93.1 93.1 93.1 91.8 90.3 89.4 89.4 90.8 93.1 94.2 93.8 92.6 87.8 82.3 78.3 66.2 80 87.8 92 94.8 97.1 99 100.3 100.4 100.2 100.6 99.9 99.4 96.4 92 79 64.9 72.2 78.5 79.6 80.1 75.4 69.8 78.6 88 95.5 101.6 106.8 109.8 109.8 109.6 107.3 102.3 95.7 85.6 86.8 79.3 76.4 90.6 94.1 97 97.1 96.3 95.1 94 93.8 93.4 92.3 90.2 87.4 82 75.9 68.1 58.3 56.9 60.1 68.6 75 78.7
81.8 80.6 77.7 70.2 60.7 64.3 70.2 77 83.6 87.6 90.2 92.5 93.9 93.9 92.9 90.8 88.6 91 92.8 94.7 95.8 96.9 97.3 97.6 97.9 98.3 98.3 98 97.6 96.9 96.2 95.1 93.2 91.2 87.8 84.3 79.6 74.5 67.8 59.2 47.2 29.5 29.4 42.1 54.2 63.3 69.3 75.5 79.7 83 86.2 89.1 91.3 93.2 95.1 96.1 97 97.8 98.2 98.3 97.3 96.1 93.9 90.3 86.3 83 78.5 72.6 65.8 63.8 64.3 63.6 62.5 59.8 54.5 47.6 39.4 23.7 14.6 14.4 19.7 17.3 10.5 1.6 0.5 -1.6 -1.6 -1.6 -1.6 12.8 32.9 48.1 54.6 59.4 65.1 70.8 73.4 74.7 78 77.6 75.8 73.9 72.6 72.3 72.2 75.6 78.4 79.6 78.9 73.5 73.1 74.7 76 82.3 88.2 92.2 93.4 91.7 89.5 86.7 86.5 88.6 90.1 90.8 91.7 91 89.8 90.2 89.9 88.6 86.8 87.8 88.4 90.3 92.7 93.6 93.4 91.8 86.1 76.8 62.9 67.9 81.1 87.7 91.4 94.4 96.9 98.8 100.1 99.9 99.6 98.3 97 95.8 92.9 86 72.1 61.9 70.6 73.1 70.2 66.3 69.3 80.5 92 100.8 105 107.8 109.8 109.8 109 107.4 104.3 98.9 91.5 77.4 73.3 71.4 87.2 91.2 93.9 92.2 90.5 89.7 88.5 87.1 87.5 88.1 86.9 86.2 83.5 79.3 75.1 65.7 53.2 55.8 65.4 70.4 73.5 75.8
82.8 79.8 73 60.5 63.7 71.1 77.7 83.8 87.6 90.6 92.7 95.1 96.3 96.1 95.7 94.2 91.8 91.4 93 94.5 95.3 95.7 95.5 95.9 96.2 96.6 97 97 96.8 96.3 95.5 94.3 92.3 89.4 85.7 81.1 76 70.7 64 54.9 39.5 26.7 32.1 43.1 54.4 63.7 70.3 76.4 80 83.4 86.6 89.9 91.8 93.5 95.3 97.3 98.6 99.5 99.5 99.6 97.9 95.4 92.3 87 82.5 77.1 70.8 64 55.5 52.2 52.8 53.4 52.8 50.5 45.9 39.2 28.6 17 9.4 6.5 7.3 1.6 1.6 0.1 -0.5 -1.6 -1.6 -1.6 -1.6 15.6 31.8 42.2 48.1 49.8 53.8 59.9 62.8 62.9 63.1 62.9 64.1 63.2 63.4 62.8 63.2 66.3 68.2 66.3 59.6 58.4 71.2 73.6 76.5 86.5 90.6 93.4 94.9 93.2 91.8 89.6 88.9 89.5 90.1 90.3 89.2 88 86.1 85.8 85.6 85.3 85.8 88.1 89.4 91.8 93.4 93.9 93.5 91.1 84.9 72.3 52.2 70.2 80.9 87.1 90.6 93.6 95.5 97.5 98.5 98.6 97.6 95.6 93.5 90.9 85.3 74.9 64.2 59.2 62.2 63.6 68.9 74 84.7 97.6 105.3 108.8 110.1 110.6 109.9 109.2 106.6 103.5 99.1 93.6 82.1 68.8 68.5 80.7 87.6 89.8 89.6 87.3 82.5 80 78.3 76.9 77.1 78.4 77.8 78.5 77.5 74.7 70.8 63.5 53.2 57.8 64.8 67.5 69.9 71.4
79 69.1 57.9 61.2 73.9 80.5 83.3 86.3 89.5 92.1 94.3 95.8 96.3 96.2 95.9 95.3 94.6 93.5 93.9 93.8 94.5 94 93.4 92.8 94.4 94.7 95.2 95.2 95.1 94.9 94 92.9 90.2 87 82.6 78.2 72.9 67.1 59.6 48.9 34.2 24.8 35.9 51.1 60.9 67 71.4 75.7 79.6 82.4 86.1 89 91.6 93.7 95.5 97.2 99.3 100.4 100.9 101 98.8 95.2 91.3 87.3 81.9 74.2 62.8 56.9 54.8 50.7 46.1 42.7 39.9 36.3 32.7 26 20.4 20 17.7 11.3 1.6 1.6 1.6 -1.6 -1.6 -1.6 -1.6 -1.6 0.9 17.4 29.3 33.8 36.7 33.4 35.9 39.8 44 48.4 47.6 50 52.3 52.6 54.3 55 55.2 58 58.5 51 49.4 57.5 69.3 79.4 87.1 90.8 93.1 95.1 95.1 94.4 93.1 91.9 91.3 90.2 89.5 88.4 86.8 83.9 81.4 79 80.7 85.6 89.3 91.1 92 93 93.7 94.1 93.2 90.6 84.3 67.7 49.7 66.8 78.8 84.9 88.2 90.7 92.2 93.5 94.4 95.1 94 92.8 88.5 81.2 70 61.1 57.1 60.4 66 73.3 80.5 88.1 98.6 106.4 109.6 110.4 110.4 109.7 108.1 105.8 102.2 97.6 91.9 84 68.5 60.4 72.2 80.7 84.2 84.6 83.4 80.9 75.7 70.5 67.7 66.5 67.6 68.6 67.9 67.6 66.9 65.4 63.8 60.1 49.1 57.8 61.4 64 64.5 66
67.5 54.7 57 70.8 80.2 84.1 86.1 88 90.4 92.7 94.3 95.8 96.3 96.7 96.9 96.5 95.8 94.7 94.3 94 93.4 92.3 90.7 90.2 92 92.6 93.1 93.1 92.8 92.7 92.1 90.7 88.2 84.2 79.7 74.9 69.6 63.6 51.9 38.7 26.7 27.2 41.2 56.8 65.2 69.3 72.8 76.7 79.2 82.4 85.2 87.2 89.8 92.5 95.4 97.2 99.2 101.1 101.9 101.6 98.3 95 90.6 86.1 79.8 67.8 68 67.5 64.4 60.9 54 49.4 44.4 39.9 35.5 34 33.8 38 32.7 24.6 15.1 10.3 7.4 -1.6 -1.6 -1.6 -1.6 -1.6 0.6 8.1 13.3 12.5 14.6 16.5 19 21 23.5 28.5 31.5 34.8 38 41.9 44.7 45.9 47.2 48.3 44.6 43.9 54.5 68.3 80.3 87.6 91.1 92.5 94.2 94.9 94.7 94 93.4 92.8 91.8 89.7 88.3 85.7 83.1 79.3 74.5 77.8 84.1 88.8 91.2 92.5 93 93.3 93.5 93.2 91.4 88.2 83 71.6 52.1 60.9 72.5 80.7 84.2 86.7 87.9 89 90.1 90.3 90.4 88.5 78.4 65 54.2 56.3 61.6 68.2 76.9 85.2 93 100.6 104.4 106.8 108.6 108.9 107.5 106.2 104.5 101.1 95.9 90.1 82.6 70.9 58.6 61.2 72.7 76.9 77.7 76.6 74.7 71.8 67.8 62.7 58.5 57 58.5 58.8 57.8 56.5 54.9 52.2 49.7 48.1 48.8 51.7 54.5 56.3 56.1 57
60.2 50.6 63.8 74.9 80.1 83.1 84.6 88 89.7 91.9 94.1 95.7 96.3 96.6 97.3 98.3 96.8 95.5 93.7 92.4 91.2 90.3 88.8 87.6 89.2 89.7 90.1 90.3 90.4 90.3 89.8 88.1 85.4 81.2 76.4 70.8 63.3 52.5 39.5 26.6 22.7 32.7 48.3 61.7 67.5 71.4 74.8 76.8 79 80.2 82.4 85.3 88.2 91.6 94 96.8 98.8 100.5 100.8 100.6 98.7 95.4 91.5 86.8 79.3 75.5 80.5 81.1 78.6 75.2 71.9 68.7 65.6 62.4 59.8 59.1 58.9 59.8 52.8 45.3 34.3 25.1 14.6 1 -1.6 -1.6 -1.6 -1.6 0.2 1.8 1.8 1.8 1.8 4.2 10 11.4 11.5 12 14.6 20.6 21.8 29.6 32.4 35.6 38.3 36.5 39.4 50.9 64.9 78.7 85.9 90.4 91.2 91.7 92.5 93.3 94.2 93.8 93.1 92.2 90.4 88.2 84.7 81.8 78.3 72 73.2 81.8 87.1 90.5 92 93.3 92.9 92.6 92.1 90.6 88.3 84.9 79.2 69.3 56 54.6 69.8 76.8 80.6 82 81.9 83 83.6 82.3 82.6 78.2 65.9 53.3 59.2 71.7 76.4 79 86 93.6 100.2 103.1 104.3 105.5 106.4 105.8 104.5 103.2 100.3 95.3 88.7 82.7 71.3 58 53.8 64.8 70.7 70.9 69 67.2 64.7 61.9 58.9 54.9 50.7 48.9 49.2 48.2 46.9 45.9 45.6 47 49 51.4 54.3 57.1 58.8 58.6 61.4 62.3
49.7 52.9 64.5 70.6 76.3 80.6 84.9 88.1 90.8 92.6 94.5 95.6 96.2 96.6 97.2 97.7 96.4 95.2 92.7 89.8 88.3 87.3 85.3 82.9 84.9 85.2 86.1 86.7 87.5 87.4 86.7 85 82.1 77.9 72.3 65.4 52 38.2 24.7 20.5 31.4 43.8 57.1 64.4 69.7 73.1 74.6 75.9 77.2 77.6 79.6 83.8 87.7 90.7 93.9 95.9 97.9 99.6 100 100.1 98.8 96.2 93.3 89.3 81.5 84.2 86.6 86.4 85.1 83.7 83 82 81.7 80.6 78.9 77.9 76.6 74.7 70.5 62.5 51.5 41.1 32 5.8 -1.6 -1.6 -1.6 -1.6 0.6 1.8 1.8 6.8 13.8 21.6 27.1 24.8 26.8 34 33.4 30.4 28.6 26.3 26.2 31.3 30 38.1 50.5 63 75.7 84.3 88.6 90.1 90.1 89.3 89.8 90.7 91.9 92.6 92.6 91.4 89.4 86.7 83.2 79.1 73.1 64.2 69.4 81.5 87.1 90.8 91.8 92.3 91.3 89.3 87.8 87 84.7 79.9 71 60.4 49.4 48.3 67.2 72.3 75.6 76.1 72.4 70.7 69.4 67.3 65.7 63.6 52.6 58.2 72.9 82.7 86.5 87.8 92.1 97.3 100.3 101.7 102.3 103 103.2 102.5 101.4 100.2 96.5 89 80.1 71.1 55.8 49.2 58.8 65.3 64.9 62.3 58.5 55.1 53 50.5 48.2 46.9 43.8 43.7 43.4 44.4 45.4 47.3 52.4 56.6 60.7 64.3 65.9 69.4 72.6 74.4 74.2 73.5
42.2 51.1 60.8 69.8 76.5 82 87.5 91.9 93.9 94.8 95.7 95.8 95.5 95.8 96.1 95.9 95 93.6 90.6 87.2 83.3 81.5 80.3 77.4 80.1 80.7 81.4 83.5 84.3 84.2 83.7 82 79.1 74.8 67.2 55 40.4 25.8 19.5 31.3 44.9 55.6 61.5 66.4 69.8 71.8 72.6 72.8 73.2 73.7 78.7 82.6 86.3 89.2 92.4 95.6 97.9 99.8 100.6 100.8 99.7 97.5 94 89.2 85.6 88.1 89.8 90.2 90.4 90.9 89.9 89.3 88.3 87.2 86.2 85.4 84.3 81.9 77.7 67.3 56.6 47.8 34.9 14.7 -1.6 -1.6 -1.6 -1.6 1.3 9.7 22.1 31.4 37.1 41.7 46.6 44.3 46 53.6 52.2 49.5 45.9 43.5 43.3 42.7 43.2 44.8 58.9 73.5 82.6 87.7 89.2 89.1 88.2 87 87.2 88.4 89.6 90.8 91.1 90.4 89.6 87.9 85.3 82.5 78.1 66.3 61 77.3 84.2 87.5 88.8 88.4 86.6 84.9 82.1 79.9 77.1 71.9 62.7 51.9 40.7 46.1 59.3 65.8 68.8 68.8 58.9 53.7 52.3 49.2 46.8 48.1 60.1 74.1 82 88.5 91.8 93.9 95.4 96.3 97.4 98.2 98.7 99.6 99.4 98.3 97 94.6 89.6 82 72 54.8 46.7 56.9 60.2 59.7 55.7 50.1 47 43.1 42.2 41 40.1 41.4 42.1 44.3 46.5 49 52.6 59 65.9 71.2 73.3 75.1 77.4 80.4 82.9 84.5 83 80.1
43.5 54.1 63 71.8 78.3 83.4 88.9 93.4 94.7 95 94.7 93.9 93.8 94.1 94.4 94 93.1 91.3 87.9 84.3 79.6 74.2 71.9 67.2 73.1 74.5 76 79.4 81.3 81.3 81 79.7 76.8 71.6 63.3 48.2 29.9 19 25.1 42.9 53.4 59.4 62.9 65.7 67.5 69.2 69.5 68.1 68.8 76 79.9 83.2 87.2 90.4 93.9 96.3 98.7 100.4 101.2 101.5 100 97.5 93.5 89.4 89.2 92.4 93.1 94.2 95.7 95.9 95 94.4 92.3 90.8 89.1 87.6 85.4 81.7 75.8 66.5 56.7 40 26 7.4 -1.6 -1.6 -1.6 1 8.2 15.7 28.2 39 46.7 54.6 58.1 62.7 65.6 68.8 69.6 69.5 66 62.7 60.3 59.2 59.3 57.9 64.2 78.7 85.3 88 89.1 87.7 85.6 83.9 83.3 84.6 85.9 88.1 89.7 90 89.9 88.7 86.2 83.8 80 69.2 56.3 68.3 79.7 82.8 83.5 81.9 80.5 77.2 73.6 70.2 67.3 62.3 54.2 43.9 34.4 43.1 50.7 56.8 56.8 55.6 44.8 39.5 43 50.6 57.8 67.4 75.9 82.2 88.8 91.9 93.1 92.9 92.3 92.1 93 94 94.9 95.2 94.2 92 89.1 86.1 81.5 74.8 66.7 43.1 47.2 55.1 53.1 48.6 43.3 39.3 38.4 40.4 41.7 42.4 43.4 47 51.3 54.7 56.3 56.9 62.8 71.3 77.5 81.8 83.8 85.5 87.4 89.5 90.7 91.3 90.4 87.1
48.3 57.9 66 74.1 80 85.1 89.8 92.8 93.2 92.9 92.3 91.3 90.9 90.8 90.6 90.6 90.5 87.7 84.7 81.2 76.8 68.8 57.6 58.5 64.8 66.6 71.1 76.5 79.2 79.5 79.1 77.4 74.4 69.8 59.7 42.4 23.9 18.2 33.5 48.7 55.5 59.4 61.8 63.4 64 63.9 61.8 64.1 70.6 76.8 81.8 84.6 87.7 91.7 94.7 97.2 99.2 100.6 101.3 101.1 99.6 96.9 93.5 91.5 95.2 96.6 97.5 98.4 99.2 98.7 97.8 96.7 94.1 91.2 88.7 86.3 82.1 77 67.4 59.5 47.7 33.2 11.2 -1.6 -1.6 -1.6 -1.6 14.1 23.3 28.6 36.6 46 55.5 62.2 72.1 72.9 75.2 78.9 81.4 81.7 81.2 80.1 77.8 75.6 73.8 72.8 75.1 82.9 86.8 88.5 88.1 86.6 85 82.3 78.5 81 84 86.4 88.9 89 88.9 87.5 85.8 83.3 80.9 73.7 55.4 57.6 73.5 77.2 77.4 75.2 72 66.8 61.7 58.2 56.4 51.3 42.9 34.4 33.1 36.7 39.6 41.8 41.6 38.5 39.6 50.7 60.9 65.1 71 78.1 83.9 88.1 90.6 91.1 90.1 88.3 87.2 87.3 89.1 90.5 91.7 90.6 88.8 84.5 80.2 76.8 73 67.1 59.3 39.2 46 46 41.3 37.7 38.6 42.3 46.5 49.7 50 44.7 44.9 50.8 56.7 61.7 64.9 67.6 72.1 79.9 85.5 88.9 91.1 92.2 93.1 94.9 95.9 95.5 94.8 94.8
57.2 65.8 71.3 77.6 81.4 85.7 88.5 90 89.7 88.7 88.7 87.3 85.9 85.4 85.8 85.9 84.9 82.6 79.8 77 73.2 64.8 49.1 48.8 54 60.7 69.3 74.6 78.2 78 77.1 75.1 71.7 67.9 60.4 41 23.6 17.2 34.4 50 54.2 56.7 56.7 56.8 55.2 54.8 58.8 65.9 72.2 77.6 81 83.9 87.4 90.9 93.9 96.8 99.1 100.3 100.6 100.7 100.3 98.6 96.2 95.9 98.9 100.7 101.2 101.1 100.4 99.2 97.7 95.7 92.6 89.4 86.1 82 76.3 67.3 56 45.3 33.2 18 -1.6 -1.6 -1.6 -1.6 -1.6 23.9 33.3 41.8 48.8 54.7 62.6 73.1 76 78.9 82.3 86.1 88 88.6 88.3 87.3 84.4 82.6 81.4 80.3 81.7 85.1 87.7 88.4 87.3 86.3 84.9 82.1 73.7 76.8 81.3 83.6 86.1 87.1 86.7 85.4 83.9 82.3 80.3 75.1 58.8 48.7 65.1 70.7 70.2 67.9 62.8 56.6 50.7 44.7 39.9 35.4 30.3 26.4 27.8 29 29.1 31.6 34.6 42.8 50.6 60.7 71.6 75.1 80.2 85.8 88.6 89.4 89.7 88.3 86 81.2 80 81.3 83.9 86.1 86.2 85 81.7 77 71 66.1 63.3 58.2 50.2 36.4 37.9 36 37.9 42.6 48.2 52.6 56.1 58.8 59 56.9 47.2 47.7 50.6 59.2 67.6 73.6 77.6 82.2 86.7 90.1 92.2 94.6 96.5 97.8 98 97.5 96.8 97.8
64.2 70.4 75.4 79.7 81.9 84 85.7 86.1 85.5 83.9 81.9 80.4 78.8 77.5 77.7 78.4 77.8 75.2 73 70.9 68.1 57.8 41.5 41.4 49.8 62 69.5 74.1 75.7 74.9 73.9 71.7 68.7 64.9 59.7 42.3 23.4 16.1 33.2 48.1 51.9 49.6 45.7 45.6 50.1 56.6 62.1 69 74 77.3 80.7 84 87.3 90.7 93.8 96.4 98.9 99.9 100.8 101.2 101 100.3 99.4 99.4 101.6 102.8 102.8 101.5 99.9 97.7 95.3 92.6 89.8 85.7 81.3 75.7 67.1 55.6 42.8 33.5 21.7 -1.6 -1.6 -1.6 -1.6 -1.6 14.2 28.5 42.1 51.8 60.6 69.4 75.8 76.8 80.3 83.9 87.2 90 91.7 92.6 92.8 91 88.5 87.1 85.6 84.4 83.7 85.5 87.6 87 85.3 83.8 81.5 78.7 70.1 72.4 77.3 79.9 82.4 83.4 83.2 82 80.4 78.3 76 70.6 55 44.6 55.1 65.4 63.7 60.4 54.4 46.9 36.3 29.6 25.6 25 28.7 31.4 33.7 35.8 39.8 43.8 49.5 55.9 63.2 70.7 80 85.1 88 89.3 89.6 89.4 87.2 84.7 79.8 72.2 72.7 77.2 78.6 79.3 79 77.3 73.5 68.8 62.2 55.5 53.8 48.7 42.2 34.2 36.6 41.3 44.7 50.1 53.8 57.6 61.6 65.7 67.3 67.7 61.4 53.9 50.4 53.1 66.8 73.6 77 80.6 84.9 88.5 91.4 93.7 95.8 96.5 96.6 97 97.4 99.9
69.7 75 77.5 79.4 81 81.7 82.4 80.8 79 75.5 72.2 70.2 66.4 66.6 67.2 68.9 68.7 66.4 64.1 62.2 61.3 53.4 35.3 41.3 56.5 65.7 69.8 71.9 73 71.3 69.1 66.9 64.2 61.4 56.9 45 24.5 14.2 31.2 41 35 35.8 42.7 49.7 55.8 60.5 65.3 69.8 74.5 78 81.8 85.3 88.6 91.9 94.9 97.4 99 100 100.8 101.5 101.9 101.3 101 101.8 103.3 103.3 102.8 100.8 98 94.7 91.7 88.9 85 80.8 74.2 67.1 57.5 46.6 33.8 25.1 10.4 -1.6 -1.6 -1.6 -1.6 8.4 22.5 36.6 50.6 62.4 71.4 78.6 80.8 82.9 84.5 87.2 89.5 92.3 93.1 93.8 93.6 91.9 90 88.3 86.6 84 83 83.7 84.2 82.9 80.3 77.9 74.9 69.1 61.5 67.6 72.2 75.5 78.1 78.6 78.9 77.7 75.6 73.3 70.4 63.9 45.6 38.9 52.3 59.1 56 50.8 42.6 32.1 23.8 23.6 28.3 33.4 38.4 45.3 49.7 53 55.8 58.7 63.7 68.1 73.3 78.6 85.3 89.2 89.6 89.5 89.3 87.3 84.3 80.3 72.8 63.2 66.8 71.1 71.7 72.3 70.9 68 64.4 60 54.8 47.5 44.1 37.8 32.8 36.4 44.7 48 50.6 53.9 59.4 63.9 68.9 74.1 75.7 77.5 75.2 67.1 55.6 53.3 62.7 70.9 73 76.3 80.9 85.6 88.2 90.6 92.4 93.1 93.8 94.1 95.9 98.3
72.7 75.9 77.5 78.5 79 79 77.4 72.8 67.8 59.5 57.4 51.5 50.6 52.6 54.9 56.7 57.1 56 54.5 53.1 51.8 46.2 30.1 43.3 57.8 63.5 67.5 69.7 68.7 66.2 63.2 60.6 57.8 55.7 52.8 47.2 27.5 13.1 24.3 23.2 33.5 45.5 54.8 56.4 58.8 62.3 66.7 71.1 75.3 79.4 83.4 86.7 89.9 93.1 95.8 98 99.1 100.1 101 101.7 102.3 102.6 102.9 103.4 103.6 103.4 102 98.7 94.8 91 87.7 84.2 80.5 73.8 66.4 58.7 49.9 38 22.8 11.3 -1.6 -1.6 -1.6 -1.6 -1.6 17.9 32.3 46.7 62.7 73 79.8 83.3 85.7 86.9 87.9 89 89.3 90.4 91.1 91.3 90.7 89.9 88.3 86.8 84.8 81.5 80.1 78.3 77.7 75.8 72.6 68.4 58.3 53.7 55.4 64.1 68.8 71.2 73.1 73.5 72.7 70.8 68.7 66.4 63 52.5 37.8 35.5 50.3 52 46.8 38.2 27.1 19.7 26.1 32.4 37.4 41.8 48.1 54.9 61.1 65.4 68.3 72 75.9 78 81.9 84.7 85.3 86.8 87.3 87.3 85.1 82.8 79.6 75.8 67.2 56.4 60.8 64 64.4 63.6 61.6 58.7 55.3 50.8 45.6 37.9 33.9 33.1 38.8 45.3 51.9 55 57.1 59.4 67.7 74 79.1 83.7 86.1 86.1 84.3 75.3 62.1 54.2 58.1 63.7 67.3 70.8 76.1 81 83.3 85.3 88 89.7 89.9 90 92.7 95
75.4 77 77.2 77.2 76 74.5 68.6 61.2 48.5 40.8 36.1 34.4 36.4 36.9 40 40.5 40.7 40.1 41.4 39.9 40.4 34.5 27.8 44.9 54 59.7 63.9 65.3 62.6 59 55.2 53.1 50.5 47.8 44.2 34.9 21.9 11.6 22.2 33.6 44.6 52.6 57.5 59.8 61.7 64.5 68.2 72.7 77.6 81.5 85.2 88.1 91 94 96.4 98.2 99.2 100.2 101.1 101.9 102.6 103.1 103.3 103.2 103 102.7 100.5 96.8 90.3 86.3 82.4 78.9 75 69 61.8 51 37.4 25.7 13.2 -1.6 -1.6 -1.6 -1.6 -1.6 15.9 29.8 44.7 60.4 73.8 79.6 83 85.9 87.5 88.3 88.8 88.1 87.9 88.7 88 88 87.2 86.8 85.9 83.7 81 77 72.4 69.1 67.1 64.4 60.9 51.7 43.6 48.4 58.3 62.4 65.1 66.8 67.2 67.1 65.5 63.5 61.4 58.5 55.3 50.1 32.4 34.4 44.5 43.7 36.6 24.6 18.8 26.6 34.8 40.6 46 50 54 60.3 67 72.1 76.1 78.9 80.3 81.7 82.2 82.4 82.3 82.7 82.5 81.7 80.1 77.4 74.1 69.8 62.7 50.6 54.6 55.2 54.8 54.4 52.3 49.5 45.8 41.1 34.8 30.6 35.8 42.2 48.9 54.7 59.1 63.4 68.5 69.6 75.2 82.7 85.6 89.1 90.4 89 85 79.8 71.1 60.6 57.6 61.1 62 64.1 68.8 72.9 75.1 77.2 80.4 82 84.1 87.7 92.7 96.7
76.5 76.8 75.6 72.7 70.5 65 55.9 42.1 31.2 27 25.4 24 23.5 22.9 22.7 21.9 22.9 24.4 23.6 24.9 26.8 25.9 24.7 39.6 47.5 53.3 56.8 56.2 53.8 49.7 45.3 41.5 39.9 36.9 27.8 19.8 9.4 14.2 33.5 47 54.5 59.1 62.5 64.2 65.6 67.2 69.5 74.2 78.4 82.2 86 88.9 91.6 94.5 96.8 98.2 99.3 100.2 101.1 101.9 102.1 102.1 102.1 102.1 102.1 101.1 98.9 95.1 89.5 84.1 78.8 73.4 69.9 63.6 55.1 41.2 23.5 14.6 -1.6 -1.6 -1.6 -1.6 8.6 19.8 29.2 43.7 60.2 74 79.8 82.8 85.2 87.1 87.6 87.7 87.8 87.1 86.3 85.7 85.1 83.9 82.4 80.9 80.7 80 77.6 74.5 65.4 52.8 49.3 47.9 45.2 38.3 39 52.5 56.8 59.2 60.5 60.9 60.5 59.4 58.3 56.2 53.9 50.8 47.7 43.6 26.9 32.6 38.1 36 25.2 17.6 23.1 32.1 38.9 42.1 44.8 47.7 51.9 60.8 68.4 72.7 76.1 78.4 78.6 78.4 78 78.1 77.8 76.7 76.3 75 72.8 70.2 67.3 62.9 56.4 43.8 47.7 48.4 47.6 45.8 42.5 38.8 35.6 32 31.7 38.8 44.3 49.9 55.3 64.7 69.4 74 78.8 79.8 79.8 87.1 89.5 90.9 90.1 87.7 84.4 79.6 72.3 62 68 75.5 76 73.1 69.8 69.7 72.4 81.2 85.4 86.7 88.4 92.7 96.8 99.8
74.8 75 72.4 66.9 61.6 49.2 36.2 27.6 22.1 20.4 19.2 18.3 17.5 16.7 16 16.1 15.7 15.5 15.5 15.7 15.6 16.1 20.9 28.1 35.9 43.7 46.1 45.5 42.1 36.7 25.9 22.6 19 16.4 12.9 7.5 12.5 26.4 41.5 52.8 59.2 64 67.3 69.4 70.3 70.2 72.4 76.1 79.5 83.4 86.8 89.7 92.3 94.5 96.2 97.9 99 99.5 99.9 100.3 100.3 100.3 100.3 100.3 100.2 99.1 97.3 93.9 89.2 83.8 77.8 68.5 62 53 37.9 22.7 -1.6 -1.6 -1.6 -1.6 -1.6 11.7 22.4 34 45.7 65.7 76.8 81.4 83.6 85.7 86.9 87.4 87.7 87.4 85.7 84.2 82.4 81 79.4 77.8 76.1 75.9 76 76.3 75 73.7 68.2 58.3 46 37.3 32 29.8 42.6 50.3 52.6 54.2 54.8 54.6 53.3 51.1 50 47.2 45 43.1 40.2 34.7 22.5 30.1 32.5 29.1 17.3 18.4 27.4 35.2 36.8 36.8 38.6 42.5 49.9 58.4 65 69.5 73.1 75 74.3 73.7 73 72.2 71.1 69.8 68 66 63.9 61.1 58.1 54.7 49 38.6 40.5 40 38.6 36.2 33.5 30.9 29.3 35.5 41.5 47.7 52.5 59.6 66.5 75.3 80.7 84.1 86.1 85.6 83.3 88.1 89.6 89.6 88.2 86.1 82.9 76.5 66.9 69.3 77.9 87.9 89.9 88.1 83.7 78.4 76.2 84.3 90.6 91.5 92.6 96 99.2 101.8
71 71.4 68.7 59.4 50 33.6 25.3 20.2 17.3 15.6 14.3 13.2 12.6 11.8 12 12.1 11.9 12 12.2 12.1 11.7 12.5 14.7 18.7 22.9 28.8 31.6 33.7 30.1 22.5 15 12.3 8.6 4.4 5.6 8.9 26.1 35.5 46.6 54.8 61.4 66.1 69.8 72.4 74.5 73.7 75 77.9 81.8 84.5 87.4 89.9 92.1 93.8 95.5 96.6 97.5 97.7 97.6 97.6 97.5 97.5 97.8 98.2 98.3 97.3 95.5 92.7 88.8 83.3 76.8 67 50.3 36.4 23.7 1.3 -1.6 -1.6 -1.6 -1.6 15.4 24.8 36.6 49.8 64.7 77.8 82.2 84.9 85.9 86.8 87.5 87.5 85.5 84.6 82 80 77.7 75.3 73.6 71.9 71.2 71.4 72 73 72.9 71.7 68 61.8 53.6 44.3 33.2 24.4 34.6 44.2 46.6 48 48.6 47.9 45.9 42.9 40.8 37.5 34.8 34.7 33.4 27.2 19.3 26 27.8 23 14.9 20.7 27.7 29.7 29.3 29.6 31.7 37.1 45.9 54.3 60.1 64.8 68.4 69.3 68.6 67.3 64.9 63.6 62.1 60.2 58.5 55.5 53 51.1 48.4 45.9 40.9 33.3 32.1 31.3 29.6 28.4 28.1 31.5 39.9 45.8 51.6 58.1 63.2 69.7 76.3 80.7 85.4 88.7 89.7 89.6 87.6 89.1 89.2 87.9 84.9 83.2 80.9 72.6 75.4 81.9 90.3 98.1 99.4 96.6 91.7 86 79.6 86.3 93.8 95.7 96.6 98.7 101.4 104
63.1 65 62.2 51.7 34.6 25.8 17.6 15 13.1 4.2 1.9 1.6 1.5 1.6 5.9 6 8.2 9.4 9.3 9.1 7.9 9.3 10.3 12.2 13.8 15.1 15.6 17 16.4 11 1.8 0.8 0 -1.6 1.7 13.7 25.5 35.9 44.7 52.4 59.5 66.3 70.7 73.2 73.2 73 73.9 77.5 81.5 84.4 87.4 89.7 91.5 93.1 94.2 95 95.6 95.4 94.6 93.7 93.8 94.1 95 95.5 96 95.4 93.9 91.5 87.7 82.7 75.6 67.3 59.3 47.4 26.6 -1.6 -1.6 -1.6 -1.6 9.3 21.3 34.1 47.4 66 77.3 81.1 84.3 86.4 86.8 87.6 87 85.7 83.6 80.8 78.4 75.3 71.9 68.8 66.4 65.8 66.3 66.9 68.6 69.1 71.3 70.5 68.4 64.9 60 52.8 43.3 29.4 20.7 31.3 38.8 41.6 42.7 42.3 40 35.8 31.8 29.8 26.8 29.9 29 22.6 15.8 22.3 24.2 18.5 15.1 19 20.9 18.8 18 20.7 24.1 29.6 39.4 48.2 54 59.3 61.9 61.8 60.5 58.3 54.7 52.2 50.1 48.2 46.7 44.2 41.2 38.9 37.6 35.6 31.7 28.8 27.1 26.9 30.2 34.9 39.7 44.9 50.3 56 62.7 69 74 79.2 82.4 85.9 89.3 91.7 92.1 91.8 90.8 90.7 90.8 89.3 85.4 82.8 82.8 81.4 87.2 95.2 101.7 104.2 103.3 100.2 95.9 89.5 85.2 89.9 96.1 98.6 99.7 102.4 103.4 106.4
50.4 54.1 52.1 40.6 25 16.5 13 11.7 1.5 0.7 0.4 0.1 -0.1 0 0.8 0.7 0.8 0.8 1.1 1.1 1.3 1.4 1.3 1.8 3.2 1.8 9.3 8.7 7.7 2.1 0.7 -1.6 -1.6 -1.6 -0.1 2.1 16.4 24.1 34.7 43.7 52.7 60 63.5 66 67.2 68.8 70.4 75.6 80.5 83.8 86.5 88.6 90.2 91.3 91.5 92.3 92.3 90.9 90.1 89.3 90.3 90.9 91.8 93 93.6 93.5 91.8 90 86.1 81.9 77.6 72.8 68.6 56.6 29.5 -1.6 -1.6 -1.6 -1.6 15.8 24.2 40.5 58.7 73.2 79.5 83.6 86.1 88 87.6 86.2 84.5 82.8 80.5 77.2 73.2 69.7 65.6 61.3 59.4 59.3 60.7 62.5 64.8 65.5 68.3 68.9 67.5 64.4 60.9 56.2 50 40.8 24 16.7 26.2 33.8 37.5 37.8 35.2 28.5 21.6 19.5 17.1 20.5 18.9 15.3 13.3 19.3 20.5 15.4 13.6 13.7 14.5 14.5 14.4 14.3 15.5 20.9 28.1 40.1 47.5 52 53.9 52.7 50.1 46.4 41.5 36.5 35.4 34 31.7 29 27.6 26.2 25 25.2 26.4 25 30.3 36.3 41.7 48.4 52.9 56.8 60.8 66.3 72.2 78.1 81.8 84.8 87.7 90.2 92.4 93.4 94.2 94.3 93.9 93.1 93.2 92.1 91 86.2 85.8 91.6 98.3 104.2 106.1 106.7 105.9 103 100.1 97.4 95 91.8 96.1 99.4 102.8 104.4 106 106.6
33.7 37.6 34.7 25.9 17.2 11.5 10.1 1.3 0.2 -0.8 -1 -1.6 -1.6 -1.6 -0.4 -0.6 -0.8 -1.6 -1.6 -1.6 -1.6 -0.3 -0.5 0.6 0.3 1.1 2.8 2.1 1 0.2 -1.6 -1.6 -1.6 -1.6 -1 0.6 1.4 12.7 6.8 24.7 36.1 43.4 47.8 52 56.2 59.9 63.8 69.8 76.2 81.1 84.7 86.3 87.8 88.7 88.8 89 88 86 84.2 83.6 85.1 86.7 88.4 89.6 90.5 91.7 90.5 88.9 87 84.7 82.4 77.8 71.3 63.4 34.9 -1.6 -1.6 -1.6 -1.6 15.9 31.2 47 68.3 76.6 82.1 85.9 88.4 87.8 85.3 83.5 81.7 79.7 76.8 73.5 69.1 65.5 60.2 55.2 53.4 53.9 56.1 59.3 60.9 62.9 64.7 66 65.2 63 60.3 56.5 50.7 42.9 32.1 22 13.3 24 33.3 32.5 29 22.8 12.3 8.5 6.1 7.7 8.7 9.9 10.1 11.6 13 11.6 11.5 10.7 10.9 13.7 17.7 20.2 16.1 14.4 18.8 29.3 40 44.5 43.9 40.4 34.8 30.3 26.4 24.2 23.2 22.1 21.1 20.3 20.9 21.7 23.4 24.6 24.4 30.3 40.8 48.5 54.4 58.5 61.2 65.4 69.8 74.1 76.9 79.8 82.8 86.1 89.7 92.7 94.7 96.1 96.7 97 96.8 96 96.5 97.2 96.1 92.8 95.3 100.3 105.6 108.3 108.6 107.7 106.9 105.6 104.5 103.5 101.9 96.8 96 99.6 103.3 105.3 106 106.6
16.9 19.4 17.2 12.6 9.2 8.5 3 0.4 -1.6 -1.6 -1.6 -1.6 -1.6 -1.6 -1.6 -1.6 -1.6 -1.6 -1.6 -1.6 -1.6 -1.6 -1.6 -1.6 -1.6 -1.6 0 -0.2 -0.6 -1.6 -1.6 -1.6 -1.6 -1.6 -1.6 -0.3 0.6 0.6 -0.4 1.4 4.6 19.9 24.7 13.4 10.8 34.3 45.7 60.8 70.3 77.5 81.4 83.1 84.6 85.2 85.7 84.4 82.9 81.2 79.2 78.1 79.9 81.6 84.2 86.3 87.9 88.8 89.6 88.7 88.2 86.9 84.4 80.3 70.4 48.6 29 -1.6 -1.6 -1.6 -1.6 18.8 37.7 57.5 73.4 79.7 83.1 83.8 84.3 83.2 81.2 79.5 77.8 76 73.2 70.2 66.3 61.4 56.2 50.3 47.7 49.3 52.7 56.1 58.4 59 60.5 60.7 60.2 59.7 59.1 54.3 46.7 32.9 24.5 19.4 11 15.3 20.6 19.6 16.8 9.9 5.7 9.6 15.8 20.9 24 24.2 19.3 13.4 9 9.4 18.2 25.6 29.8 34.5 39.8 40.1 35.5 23.1 15 19.9 29.8 33.1 30 24.1 20.2 18.9 19 18.7 19.6 20.9 22.7 24.2 25.6 29 30.4 28.5 29.4 39.7 45.1 49.9 54.8 59 62.3 65.6 69.7 73.1 76.3 79.5 83.9 88.3 92.1 95 97.1 98.8 99.9 101 101.7 102.1 102.7 102.1 99.7 98.1 100.8 104.7 108.2 109.7 109.7 108.6 107.9 107.3 107.1 106.8 105.2 102.3 98.8 100.6 103.2 105.4 106 106.5
1.6 7 6 2.4 8.1 1.6 0.7 -0.4 -1.6 -1.6 -1.6 -1.6 -1.6 -1.6 -1.6 -1.6 -1.6 -1.6 -1.6 -1.6 -1.6 -1.6 -1.6 -1.6 -1.6 -1.6 -1.6 -1.6 -1.6 -1.6 -1.6 -1.6 -1.6 -1.6 -1.6 -1.2 -0.4 -0.3 -1.6 -1.6 -1.6 -1.6 -1.6 -1.6 -1.6 1.3 8.6 33.4 61.6 71.5 75 77.5 80.2 81.4 80.6 79 77 75.1 72.8 71.7 73.9 76.6 79.2 83.1 85.1 86 87.5 88 88.3 87.3 85.8 81.5 69.4 44.2 22.6 -1.6 -1.6 -1.6 -1.6 22.4 45.1 63.6 73.8 77.5 79.9 79.9 78.8 78.2 76.8 75.2 72.9 71 68.7 65.8 61.9 58.1 52.9 45 41 44.8 49.4 53 54.1 55.5 56.5 55.8 55.3 55.1 56.1 47.7 28.7 13.6 8.3 7.3 6.5 7 8.1 7.2 6.3 6.8 12.7 18.1 23.9 30.1 35.2 36.5 35.4 31.7 28.5 30.1 35.3 42.4 48.4 54 58.2 58 51.5 37.9 18.8 14.9 17.3 17.9 17.5 16.8 18.2 21.8 24.2 27 30.3 29.1 26.4 27.6 32.6 36.9 37.6 34.6 31.8 34.5 40 44.4 51.3 56.8 57.7 61.1 66.8 71.1 76.6 82.5 88 92.4 95.4 98 99.8 101.4 103.6 105 106.1 106.5 103.4 102.3 102.5 102.8 104.6 107.2 108.3 109 109.2 108.3 107.8 108.3 108.2 107.5 106.8 105.9 103.3 103.3 104.9 106.7 106.7 105.7
-1.6 0.2 0.2 0.9 1.4 1 0.2 -0.9 -1.6 -1.6 -1.6 -1.6 -1.6 -1.6 -1.6 -1.6 -1.6 -1.6 -1.6 -1.6 -1.6 -1.6 -1.6 -1.6 -1.6 -1.6 -1.6 -1.6 -1.6 -1.6 -1.6 -1.6 -1.6 -1.6 -1.6 -1.6 -1.4 -1.6 -1.6 -1.6 -1.6 -1.6 -1.6 -1.6 -1.6 -1.6 -1.6 3.5 33.6 42.1 59.1 60.9 70.1 73.1 73.6 72.6 71.4 68.7 66.9 66.3 68.8 71.4 74.6 79 83 84.8 85.6 86.1 86.8 86.5 85.6 81.2 69.1 44.5 21.4 -1.6 -1.6 -1.6 1.7 29.5 52.1 63.2 68.4 71.9 74.4 74.9 73.4 72.2 71 69.5 67 65.1 62.9 60.7 58.1 54.2 49.7 40.1 36.4 41.1 46.1 47.8 49.1 51.3 51.6 51.3 49.1 47.5 39.8 28.5 12.1 4.7 3.9 4.3 3.7 4.2 6 7.8 9.5 12 19 23.6 30.3 36.2 40.2 41.7 43 46.2 49.8 50.7 55.6 57.5 60.1 62.2 64.6 65.7 62.9 51.4 35.9 24.3 21.6 21.4 23.3 25.1 29.4 35.2 41.4 43.7 44.8 40.9 27.8 29.3 36.6 43.5 47.6 46.1 41.6 41.3 43.3 41.7 44.4 48.8 55.8 65.1 72.8 77.2 82.1 88.4 93.9 97.9 100.3 102.1 103.1 104.2 105.6 106.7 107.4 107.3 106.6 105.7 106.3 106.1 106 106.5 106.5 106.9 107.2 106.8 107 107.9 108.6 108.3 108.3 107.5 107 106.2 107.3 107.9 107.8 106.2
-1.6 -1.6 -0.7 -0.2 0 -0.3 -0.7 -1 -1.6 -1.6 -1.6 -1.6 -1.6 -1.6 -1.6 -1.6 -1.6 -1.6 -1.6 -1.6 -1.6 -1.6 -1.6 -1.6 -1.6 -1.6 -1.6 -1.6 -1.6 -1.6 -1.6 -1.6 -1.6 -1.6 -1.6 -1.6 -1.6 -1.6 -1.6 -1.6 -1.6 -1.6 -1.6 -1.6 -1.6 -1.6 -1.6 -1.6 -1.6 11.1 8.3 9.6 52.6 61.8 65 66.2 65.3 63.8 62.3 62.6 64.5 67.2 70 75.5 80.2 81.6 81.6 82.3 82.4 82.4 81.5 79.2 67.8 43.4 22.9 -1.6 -1.6 -1.6 -1.6 31.7 47.6 56.9 62.4 66.1 67.8 68.1 66.7 65.3 64.5 62.3 61.2 59.6 57.7 55.4 52.3 47.6 41.7 34.3 33.4 38.7 42.7 44.6 45.4 43.7 47 45.7 41.8 29.7 11.3 -1.6 0.2 8.4 12.6 12.3 13.1 15.9 19.4 21 17.4 12.2 17.2 24.3 30.7 37.4 41.2 43.2 46.2 49.3 51 50.6 53.3 55.8 57.3 58.8 60.4 61.7 61.3 58.3 52 43.1 42.1 40.6 39.7 41.3 43.7 49.4 56.8 58.2 56 50.1 34 31 40.1 48.1 52.2 53.8 52.9 57.6 61.3 60.2 52 47.7 56.8 71.5 78.7 83.7 89.4 95.2 99.9 102.8 103 103.8 104.7 105.7 106.3 106.9 107.2 107.1 106.7 106.1 105.8 105.8 104.9 104.2 103.5 103.6 104.2 104.1 105.4 106.9 108 108.5 108.1 108 108.3 108.8 108.7 108.6 108.1 106.4
-1.6 -1.6 -1.6 -1.6 -1.6 -1.6 -1.6 -1.6 -1.6 -1.6 -1.6 -1.6 -1.6 -1.6 -1.6 -1.6 -1.6 -1.6 -1.6 -1.6 -1.6 -1.6 -1.6 -1.6 -1.6 -1.6 -1.6 -1.6 -1.6 -1.6 -1.6 -1.6 -1.6 -1.6 -1.6 -1.6 -1.6 -1.6 -1.6 -1.6 -1.6 -1.6 -1.6 -1.6 -1.6 -1.6 -1.6 -1.6 -1.6 -1.6 -1.6 -1.6 19.2 35.5 55.6 58.7 59.6 59 57.6 59.8 62.1 63.6 65.4 70.8 75.4 75.4 74.2 74.3 74.8 75.5 76.9 76.2 68.2 45.1 23.6 -1.6 -1.6 -1.6 -1.6 22.9 36.2 49.5 55.7 58.1 59.4 59.1 57.8 58.2 57.9 56.2 55.5 53.9 51.8 48.5 44.7 41 36.5 26.8 30.8 36.6 39.3 40.1 40.4 40.4 39.8 37 31.6 13.6 -1.6 -1.6 11.2 20.2 26.3 25.9 27 31.3 34.9 37.1 32.9 23.6 16.2 15.1 21.5 30.7 36.3 38.9 41.3 44.4 45.8 45.3 45.7 47.7 50.9 52.5 53.9 57.2 58.2 57.4 55.5 53.8 52.2 52.2 52.2 54.7 59.4 65.2 67.2 65 61.4 55.1 40.4 32.6 40.9 48 53.6 57.1 60.4 67.5 73.3 73.3 66.2 53.9 55.6 72.7 83.9 89.4 94.8 99.6 102.9 103.4 104.1 104.7 105.2 105.9 106 106.2 106.3 105.9 105.5 105.4 104.9 103.9 102.3 100.7 99.8 100.3 100.8 100.9 102 104.5 106.1 106.9 107.1 107.2 107.1 107.4 108 108.3 108.1 106.5
-1.6 -1.6 -1.6 -1.6 -1.6 -1.6 -1.6 -1.6 -1.6 -1.6 -1.6 -1.6 -1.6 -1.6 -1.6 -1.6 -1.6 -1.6 -1.6 -1.6 -1.6 -1.6 -1.6 -1.6 -1.6 -1.6 -1.6 -1.6 -1.6 -1.6 -1.6 -1.6 -1.6 -1.6 -1.6 -1.6 -1.6 -1.6 -1.6 -1.6 -1.6 -1.6 -1.6 -1.6 -1.6 -1.6 -1.6 -1.6 -1.6 -1.6 -1.6 -1.6 -1.6 1.7 45.8 52.7 55.5 54 55.6 59.2 60.2 59.6 60.9 62.6 65.5 63.9 60.8 61 63.2 66.4 70.3 72.8 70.6 49.5 26.6 1.8 -1.6 -1.6 -1.6 13.5 25.3 36.1 44.3 43.2 43 42.9 45.5 49.3 49.7 49.4 48.9 47.6 45.2 42.8 39.5 35.5 26.7 20.3 28.4 32.1 33.4 33.7 33.5 33.1 30.6 25.3 16.5 -1.6 -1.6 5.4 15.7 27.6 37.2 42.6 45.6 48.3 50.4 51.4 47.7 40.5 32.5 23.8 19.7 20 25.3 28 29.4 32.2 33.7 35.5 36 38.4 41.6 44.2 47 51.4 55.1 57.9 59 58.9 59.9 62.6 65.8 69.8 72.8 73.5 72.5 68.7 62.4 55.2 41.3 35.2 42.3 49.2 54.9 59.7 66.1 74.1 79 80.8 75.6 62.1 56.6 73.9 86.8 92.1 96.3 99 101.1 102.6 103.9 104.6 105.1 105 105 105.1 104.9 104.5 103.8 103.1 102.2 100.3 98.5 97.1 96.7 96.8 97.3 97.7 99.1 101.4 103.8 105.3 105.6 105.3 105.5 105.9 106.1 106.4 106.6 105.8
-1.6 -1.6 -1.6 -1.6 -1.6 -1.6 -1.6 -1.6 -1.6 -1.6 -1.6 -1.6 -1.6 -1.6 -1.6 -1.6 -1.6 -1.6 -1.6 -1.6 -1.6 -1.6 -1.6 -1.6 -1.6 -1.6 -1.6 -1.6 -1.6 -1.6 -1.6 -1.6 -1.6 -1.6 -1.6 -1.6 -1.6 -1.6 -1.6 -1.6 -1.6 -1.6 -1.6 -1.6 -1.6 -1.6 -1.6 -1.6 -1.6 -1.6 -1.6 -1.6 -1.6 -1.6 37.3 47.2 51.8 48.1 53.2 54.1 52.2 48.1 49.5 46.1 43.6 40 37.6 41.6 48 54.9 61.7 66.6 65.6 52.4 30.9 10.3 -1.6 -1.6 -1.6 -1.6 13 20.6 22.9 17.9 19.2 21.8 25.5 34.7 38.8 40.8 39.9 39.2 36.7 34 32 26.7 15.1 16.8 22.4 23.9 23.7 23.1 21.6 20 17.6 10.9 -1.6 -1.6 1.4 5 9.7 20.8 38.2 51.2 59 63.9 64.6 64.8 62 56.8 53.1 45.5 34.8 25.9 24.4 27.8 34.3 37.1 37.8 39.3 41.3 43.7 43.3 43.9 44.3 44.8 51.5 57 61.2 64.9 66.6 72.5 77.8 79.4 79.1 77.3 72.9 66.4 59.2 49.9 39.7 38.9 45.3 51.3 57.2 61.9 68.1 76.1 83.6 87.7 83.9 70.5 59.6 72.3 86.3 90.3 93.3 96.2 98.8 100.8 103 104 104.3 104.1 104 103.7 103 102.2 101.3 100.5 98.6 96.8 95.2 94 93.3 93.3 94.3 95.3 96.9 98.6 101.3 103.4 103.9 103.8 103.1 102.5 102.8 103.2 103.8 103.8
-1.6 -1.6 -1.6 -1.6 -1.6 -1.6 -1.6 -1.6 -1.6 -1.6 -1.6 -1.6 -1.6 -1.6 -1.6 -1.6 -1.6 -1.6 -1.6 -1.6 -1.6 -1.6 -1.6 -1.6 -1.6 -1.6 -1.6 -1.6 -1.6 -1.6 -1.6 -1.6 -1.6 -1.6 -1.6 -1.6 -1.6 -1.6 -1.6 -1.6 -1.6 -1.6 -1.6 -1.6 -1.6 -1.6 -1.6 -1.6 -1.6 -1.6 -1.6 -1.6 -1.6 -1.6 -1.6 7.1 39.4 43.4 45.7 44.2 38.9 30 25.2 22.4 18.5 14.4 8.4 16.9 24.4 38.5 50.6 56.7 58 53.8 41.1 24.1 -1.6 -1.6 -1.6 -1.6 -1.6 -1.6 -1.6 -1.6 -1.6 1 10.2 16.3 24.6 28.8 30.6 29.4 28.5 26 24.5 18.7 7.6 11.3 12.3 11.2 10.9 9.4 2.3 1.8 1 0 -1.6 3.7 9.3 12 12.7 10.6 26.4 45.9 59.5 73 76.3 75.9 73 67.9 64.1 60 52.9 43.4 33.3 33.7 47.9 52.6 53 54.8 55.9 55.3 55.6 55.8 56.4 51.8 49.9 55.3 63.2 66.5 71.7 76.6 80.6 82.1 82.3 79.7 73.9 65.8 57.8 50.5 45.3 41.4 48.3 55.4 58.7 64.8 73.3 86.2 92.6 93.4 91.2 82.1 63.9 69.8 83.5 87.4 90.2 93.6 96.9 99.8 101.9 103.5 103.5 103.2 102.5 101.4 100.4 99.3 98.2 97 95.2 94 92.4 91.3 90.5 90.6 91.7 93.1 94.8 96.9 100.7 101.8 102.1 101.3 100.5 99.7 99.5 100 100 99.7
-1.6 -1.6 -1.6 -1.6 -1.6 -1.6 -1.6 -1.6 -1.6 -1.6 -1.6 -1.6 -1.6 -1.6 -1.6 -1.6 -1.6 -1.6 -1.6 -1.6 -1.6 -1.6 -1.6 -1.6 -1.6 -1.6 -1.6 -1.6 -1.6 -1.6 -1.6 -1.6 -1.6 -1.6 -1.6 -1.6 -1.6 -1.6 -1.6 -1.6 -1.6 -1.6 -1.6 -1.6 -1.6 -1.6 -1.6 -1.6 -1.6 -1.6 -1.6 -1.6 -1.6 -1.6 -1.6 31.2 25.9 31.3 17 21.9 1.9 -1.6 -1.6 -1.6 -1.6 -1.6 -1.6 -1.6 -1.6 14.6 31.6 44.2 49.3 51.7 52.2 41.3 20.8 -1.6 -1.6 -1.6 -1.6 -1.6 -1.6 -0.9 -0.8 -1.6 -1.6 0.3 4.7 16.4 21.7 21.8 19.7 16.3 13.8 6.3 1.4 -1.6 -1.6 -1.6 -1.6 0.1 -0.2 -1.6 -1.6 -1.6 -1.6 13.8 21.7 27.3 32.1 20.2 20.8 41 61.9 73.1 78.9 79.5 78.5 75.4 71.2 66.8 62 54.7 40.9 36 50.8 61.3 62.4 63.3 63.8 63.5 64.6 65.7 64.1 58.1 50.6 53.5 59.2 64.7 71 76.6 82.4 84.4 84.8 83.2 78.3 72.8 67 59.5 50.2 45.3 54.1 61.5 65.6 76.2 86.8 92.5 96.5 96.5 94.2 88.5 75.7 70 79.4 84.8 88.4 91.7 94.9 98.1 100.8 102.6 102.5 102 101.5 98.8 96.8 95.7 94.3 93.4 92.4 91.2 91.4 89.5 88.3 88.6 90.4 92.9 94.8 98.1 100.1 100.2 100.4 99.4 97.9 97.1 95.4 95.4 95 94.7
-1.6 -1.6 -1.6 -1.6 -1.6 -1.6 -1.6 -1.6 -1.6 -1.6 -1.6 -1.6 -1.6 -1.6 -1.6 -1.6 -1.6 -1.6 -1.6 -1.6 -1.6 -1.6 -1.6 -1.6 -1.6 -1.6 -1.6 -1.6 -1.6 -1.6 -1.6 -1.6 -1.6 -1.6 -1.6 -1.6 -1.6 -1.6 -1.6 -1.6 -1.6 -1.6 -1.6 -1.6 -1.6 -1.6 -1.6 -1.6 -1.6 -1.6 -1.6 -1.6 -1.6 -1.6 -1.6 -1.6 -1.6 -1.6 -1.6 -1.6 -1.6 -1.6 -1.6 -1.6 -1.6 -1.6 -1.6 -1.6 -1.6 -1.6 8.1 25.6 34.7 43 47.8 46.4 33.1 -1.6 -1.6 -1.6 -1.6 -1.6 0.7 1.8 8.3 1.2 -1.6 -1.6 -1.6 -1.6 10.7 11.2 7.4 3.9 2.4 1.1 -1.6 -1.6 -1.6 -1.6 -1.6 -1.2 -1.6 -1.6 0.7 7.5 14.6 27.6 33.8 39.4 41.9 25.2 24.3 43 62.2 73.2 78.9 80.8 80.8 79.7 77.3 73.5 68.4 61.6 49.9 45.8 55.8 64.4 68.9 71.6 73.7 71.6 70.1 69.6 65.8 59.5 54.5 54.1 58.2 64.2 73 79.4 85.7 87.9 89.3 88.2 85.9 81.8 75.8 67 56 48.8 58.2 67.8 74.4 84.6 91.9 96 98.2 97.7 94.8 90.2 83 72.3 78 83.5 86.6 89.8 93 96.4 99.6 101.3 102.1 101.8 100.7 98.1 94.9 92.1 90.9 90.3 90.4 91 90.8 88.6 86.5 88.6 91.4 93.8 95.8 98 99 99 98.7 97.6 95.9 93.9 92 90.8 90.4 89.7
-1.6 -1.6 -1.6 -1.6 -1.6 -1.6 -1.6 -1.6 -1.6 -1.6 -1.6 -1.6 -1.6 -1.6 -1.6 -1.6 -1.6 -1.6 -1.6 -1.6 -1.6 -1.6 -1.6 -1.6 -1.6 -1.6 -1.6 -1.6 -1.6 -1.6 -1.6 -1.6 -1.6 -1.6 -1.6 -1.6 -1.6 -1.6 -1.6 -1.6 -1.6 -1.6 -1.6 -1.6 -1.6 -1.6 -1.6 -1.6 -1.6 -1.6 -1.6 -1.6 -1.6 -1.6 -1.6 -1.6 -1.6 -1.6 -1.6 -1.6 -1.6 -1.6 -1.6 -1.6 -1.6 -1.6 -1.6 -1.6 -1.6 -1.6 -1.6 1.7 24.1 31.5 35.5 31.7 19.1 -1.6 -1.6 -1.6 -1.6 -1.6 21.3 30.8 34.9 26 9.9 1.4 -1.6 -1.6 -1.6 0.3 0.1 -0.1 -1.6 -1.6 -1.6 1.4 10.2 11.8 14.8 15.2 13.4 15.8 21.2 26.8 32.8 38.2 45.1 50.9 45.4 27.4 30.5 46.1 63.2 73 79.1 82 82 80.2 79.4 78.2 73.3 67.2 59.9 58.9 62.6 69.2 77 83 85 85.2 82.6 77.5 70.7 63.3 59 58.2 59.5 66.3 76.5 83.3 88.9 91.5 92.3 92.3 90.5 86.6 80 72 59.2 53 63.6 73.2 80 88 93.2 96.9 98.1 96.6 94.1 89.7 83.6 76.4 77.1 81.5 85.1 88 91.1 95.7 100.5 101.7 101.7 101.6 99.9 97.4 94.2 90.6 88.4 88.9 89.3 89.7 89.7 88.9 86.1 87.7 89.6 92 94.7 96.4 97 97.1 96.7 95.5 93.6 91.1 88.5 86.8 86.3 85.1
-1.6 -1.6 -1.6 -1.6 -1.6 -1.6 -1.6 -1.6 -1.6 -1.6 -1.6 -1.6 -1.6 -1.6 -1.6 -1.6 -1.6 -1.6 -1.6 -1.6 -1.6 -1.6 -1.6 -1.6 -1.6 -1.6 -1.6 -1.6 -1.6 -1.6 -1.6 -1.6 -1.6 -1.6 -1.6 -1.6 -1.6 -1.6 -1.6 -1.6 -1.6 -1.6 -1.6 -1.6 -1.6 -1.6 -1.6 -1.6 -1.6 -1.6 -1.6 -1.6 -1.6 -1.6 -1.6 -1.6 -1.6 -1.6 -1.6 -1.6 -1.6 -1.6 -1.6 -1.6 -0.8 3 1 -1.6 -1.6 -1.6 -1.6 -1.6 11.4 17.2 18.6 15.3 1.6 -1.6 -1.6 -1.6 -1.6 16.8 39.6 47.8 50.4 46.3 38.1 26.8 13.3 1.5 -1.6 -0.9 -1.1 -0.4 -1.6 -1.6 -1.6 7 19.3 26.8 32.3 34.5 33.9 36.2 40.1 44.7 49.5 53.2 58.4 61.1 52.1 34.4 27.5 39.1 58.1 69.8 76.8 80.1 80.6 80.1 78.8 77.6 76.2 73.1 70.3 68 72 78.1 83.7 87.8 90 89.2 86.7 81.7 74.5 68.9 66.6 68.9 68.9 66.3 75.5 84.7 89.8 92.8 94.5 94.9 93.4 89.7 83.9 73.5 59.9 60.2 72.5 79.8 85 90.2 94.4 96.4 97.5 96.4 95.2 91.1 87.8 83.8 79.8 80.5 84 87.7 92.4 98.1 101.9 102.5 102.4 101.1 99.2 96.6 93.3 89.1 86.3 87.9 88.5 89.3 89.5 88.3 85.7 85.4 87.4 89.5 92.1 94.3 95.4 95.5 94.5 93 91.3 89 86.3 83.6 82 80.9
-1.6 -1.6 -1.6 -1.6 -1.6 -1.6 -1.6 -1.6 -1.6 -1.6 -1.6 -1.6 -1.6 -1.6 -1.6 -1.6 -1.6 -1.6 -1.6 -1.6 -1.6 -1.6 -1.6 -1.6 -1.6 -1.6 -1.6 -1.6 -1.6 -1.6 -1.6 -1.6 -1.6 -1.6 -1.6 -1.6 -1.6 -1.6 -1.6 -1.6 -1.6 -1.6 -1.6 -1.6 -1.6 -1.6 -1.6 -1.6 -1.6 -1.6 -1.6 -1.6 -1.6 -1.6 -1.6 -1.6 -1.6 -1.6 -1.6 -1.6 -1.6 -1.6 -1.6 -1.6 20.7 31.3 32.4 20.6 -1.6 -1.6 -1.6 -1.6 -1.6 -0.7 0.4 0.2 -1.6 -1.6 -1.6 -1.6 -1.6 28 48.1 58.4 64 64.9 59.8 51.7 40.8 28.3 24.6 22.3 22.1 26.3 23.9 13.2 -1.6 7.8 25.1 34.9 41.4 47.4 51.4 53.8 58.8 63.7 68.1 71.6 72.4 71.2 65.7 49.4 36.8 31.8 46.7 62 70.6 76.5 76.3 76.8 76.5 76.1 76.4 76.4 77.5 77.5 81.1 85.8 89.1 90.6 92.1 92.1 90.4 87.3 84.6 83.2 83.8 83.7 82.6 80.3 74.7 83.9 90.2 93.5 94.8 96.4 95.9 92.8 86.3 78.2 65.9 64.6 77.1 84 87.6 90.3 93.1 95.3 96.6 96.5 95.7 94.2 91.3 88.5 85.4 84 85.8 89.9 95.9 101 102.7 103.3 102.6 101.1 98.9 95.6 92.7 87.1 84.2 86.4 87.8 88.8 87.9 86.3 83.7 82.9 84.8 87 89.4 91.8 93.4 93.5 92.2 90.5 88.9 86.2 83.6 80.6 78.4 78
-1.6 -1.6 -1.6 -1.6 -1.6 -1.6 -1.6 -1.6 -1.6 -1.6 -1.6 -1.6 -1.6 -1.6 -1.6 -1.6 -1.6 -1.6 -1.6 -1.6 -1.6 -1.6 -1.6 -1.6 -1.6 -1.6 -1.6 -1.6 -1.6 -1.6 -1.6 -1.6 -1.6 -1.6 -1.6 -1.6 -1.6 -1.6 -1.6 -1.6 -1.6 -1.6 -1.6 -1.6 -1.6 -1.6 -1.6 -1.6 -1.6 -1.6 -1.6 -1.6 -1.6 -1.6 -1.6 -1.6 -1.6 -1.6 -1.6 -1.6 -1.6 -1.6 -1.6 18.4 33.6 43.7 46.4 39.2 26 -1.6 -1.6 -1.6 -1.6 -1.6 -1.6 -1.6 -1.6 -1.6 -1.6 -1.6 8.5 35.4 54.2 63.1 71.3 76.7 77.1 71.1 62.5 56 53.7 50.5 47.6 41.5 30.5 9.3 1.8 11.5 31.2 41.7 51.7 59.6 67.3 74.4 79 82.5 85.3 85 83.3 80.3 74.2 66.7 52.2 40.1 36.8 49.1 61.6 67.5 71.9 72.8 73.2 73.5 74.3 77.2 79.1 82.2 85.6 90.7 93.3 94.1 95.8 96.1 95 94.2 93.9 94.4 94.6 93.3 91.5 89.7 85.3 82.3 89.7 94.4 96 97.5 97.7 95.6 90.2 84.5 75.7 65.7 77 83.6 86.8 88.7 90.9 93.3 94.9 96.4 97.9 97 94.6 91.8 88.9 88.4 90.6 95.4 100.1 102.6 103.7 103.7 102.7 100.9 98.4 95.2 90.4 84.7 82 83.7 84.9 86 84.9 83.2 81.2 80.4 82.8 85.5 87.5 89.7 91.7 92.5 90.5 88.1 86.6 83.7 80.9 77.8 74.8 74.3
-1.6 -1.6 -1.6 -1.6 -1.6 -1.6 -1.6 -1.6 -1.6 -1.6 -1.6 -1.6 -1.6 -1.6 -1.6 -1.6 -1.6 -1.6 -1.6 -1.6 -1.6 -1.6 -1.6 -1.6 -1.6 -1.6 -1.6 -1.6 -1.6 -1.6 -1.6 -1.6 -1.6 -1.6 -1.6 -1.6 -1.6 -1.6 -1.6 -1.6 -1.6 -1.6 -1.6 -1.6 -1.6 -1.6 -1.6 -1.6 -1.6 -1.6 -1.6 -1.6 -1.6 -1.6 -1.6 -1.6 -1.6 -1.6 -1.6 -1.6 -1.6 -1.6 2.5 30.4 39.3 47.4 50.4 47.4 37.6 18.9 -1.6 -1.6 -1.6 -1.6 -1.6 -1.6 -1.6 -1.6 -1.6 -1.6 18.1 41.8 57.6 68.8 77.6 83 84.8 82.9 79.8 75.3 67.5 62.1 56 42 26 7.8 1.8 20.3 39.1 53.6 62.4 70 79.4 85 88.6 91.2 93.4 92.7 91 88.4 83.5 76.7 67.9 53.1 45 41.2 48.6 59 66.2 66.8 67.5 70.4 73 75.7 78.7 82.4 86.8 91.3 94.8 96.7 97.2 97.8 98.6 98.4 99.1 99.5 99.7 98.8 97.6 95.8 92.4 89.2 89.5 94.6 97.6 98.7 99.1 97.7 94.3 89.9 83.6 71.2 73 81.2 83.1 85.4 86.8 89.9 93.6 97.4 100.3 99.9 98.4 96.2 94.3 93.5 95.8 99.4 101.7 103.3 103.8 103.9 102.7 100.8 98.3 94.2 89.4 84.3 80.4 79.8 81.9 82.2 81.9 80.2 78.3 79.3 81.7 84 86 88.1 89.9 90.3 88.8 86.4 84.2 81.3 78.2 75.2 72.1 69.4
-1.6 -1.6 -1.6 -1.6 -1.6 -1.6 -1.6 -1.6 -1.6 -1.6 -1.6 -1.6 -1.6 -1.6 -1.6 -1.6 -1.6 -1.6 -1.6 -1.6 -1.6 -1.6 -1.6 -1.6 -1.6 -1.6 -1.6 -1.6 -1.6 -1.6 -1.6 -1.6 -1.6 -1.6 -1.6 -1.6 -1.6 -1.6 -1.6 -1.6 -1.6 -1.6 -1.6 -1.6 -1.6 -1.6 -1.6 -1.6 -1.6 -1.6 -1.6 -1.6 -1.6 -1.6 -1.6 -1.6 -1.6 -1.6 -1.6 -1.6 -1.6 -1.6 2.9 22 33.5 41.6 48.2 50.5 47.2 39 24.6 -1.6 -1.6 -1.6 -1.6 -1.6 -1.6 -1.6 -1.6 13.7 31.6 51.1 65.5 75.1 82.6 87.8 89.1 88.4 86 82.5 75.8 66.1 51.7 34.2 18.1 4.4 6.4 28.8 49 62 71.3 79.5 85.8 90.5 93.9 96.1 97.6 97.8 95.8 92.4 88.3 82.4 71.5 61.2 57.8 52 47.9 50.1 55.6 57.6 60.9 65.9 69.6 72.4 75.4 78.7 83.6 87.6 90.7 94.2 97 97.7 98.7 100 101.1 101.3 101.9 101.7 101.1 100.2 98.8 96.8 93.8 96.2 98.4 100 100.4 99.7 97.5 94.4 90.5 83 72.8 75.5 78.2 81.5 83.6 87.3 93.9 99.7 102 102.6 101.5 100.1 99.4 98.8 100.3 101.5 102.9 104.3 104.3 104 102.8 100.6 98.2 93.7 88.2 83.7 79.2 76.2 77.9 76.8 77.7 76.9 76 78.6 81.1 82.6 84.5 86 87.2 87.6 87.1 85.1 83.6 79.8 76.5 72.9 68.1 66.2
-1.6 -1.6 -1.6 -1.6 -1.6 -1.6 -1.6 -1.6 -1.6 -1.6 -1.6 -1.6 -1.6 -1.6 -1.6 -1.6 -1.6 -1.6 -1.6 -1.6 -1.6 -1.6 -1.6 -1.6 -1.6 -1.6 -1.6 -1.6 -1.6 -1.6 -1.6 -1.6 -1.6 -1.6 -1.6 -1.6 -1.6 -1.6 -1.6 -1.6 -1.6 -1.6 -1.6 -1.6 -1.6 -1.6 -1.6 -1.6 -1.6 -1.6 -1.6 -1.6 -1.6 -1.6 -1.6 -1.6 -1.6 -1.6 -1.6 -1.6 -1.6 2.1 18.2 22.9 28.2 35.2 44.5 51 51.8 48.9 40.4 22.8 -1.6 -1.6 -1.6 -1.6 -1.6 7.4 11.6 27.4 42.8 58.4 71.8 79.7 85.3 89.2 91.5 91.2 88.5 83.8 75.6 62.7 44.4 27.3 10.6 5.7 19.9 38.4 56.2 67.6 77 84.2 90.1 94.4 97.7 99.4 99.8 98.7 97.1 95 91.5 86.4 78.2 76.3 75.5 70.2 60 54.7 52.8 54 55.4 60.2 64.7 69.4 71.9 74.2 78 84.1 87.4 91 95 98 99.5 100.7 101.8 102.7 102.7 102.4 101.9 101.5 101.1 99.5 97.9 99.2 100.7 102.2 102 101.1 99.7 96.3 92.5 88.1 82.1 76 75 79 82.9 91.1 97 101.2 103.3 103.9 102.8 103 102.4 102.7 103 103.4 104.7 105.3 105.1 104.2 102.8 100.6 96.9 91.5 83.8 78.1 72.6 67.6 68.6 69.9 70.6 72.1 76.4 80.2 80.9 80.7 81.1 82.2 83.8 86 86.5 85.1 83.8 80.4 76.8 71.4 66.4 62
-1.6 -1.6 -1.6 -1.6 -1.6 -1.6 -1.6 -1.6 -1.6 -1.6 -1.6 -1.6 -1.6 -1.6 -1.6 -1.6 -1.6 -1.6 -1.6 -1.6 -1.6 -1.6 -1.6 -1.6 -1.6 -1.6 -1.6 -1.6 -1.6 -1.6 -1.6 -1.6 -1.6 -1.6 -1.6 -1.6 -1.6 -1.6 -1.6 -1.6 -1.6 -1.6 -1.6 -1.6 -1.6 -1.6 -1.6 -1.6 -1.6 -1.6 1.5 24.3 32.8 32.7 29.8 25.1 26.4 26.6 28.8 31.5 34.5 31.4 30.3 30.9 34.3 38.3 42.6 49.8 54.9 55.6 50.3 40.2 35.7 33.1 30.2 30.4 28.8 24.2 24.4 45.1 57.8 68.2 76.7 83.1 87.8 91 93.2 92.7 89.5 83.5 74.2 58.4 38.3 20.1 8.5 12.3 26.4 44 59.2 70 79 86 91.5 95.8 97.9 98.8 99.1 99.1 98 96.7 95 91.1 87.7 87.1 85.6 82 76.2 69.4 65.6 66.1 65 61.1 60.7 62 66.2 69.3 72 75.9 82.2 88.7 92.9 96.5 99.3 100.3 101.2 101.9 102.3 102.6 102.3 101.9 101.5 101.4 101.3 101.5 103.1 103.5 103.5 102.6 101.1 97.6 93.9 89.5 84.9 79.1 76.9 79.3 85.6 92.3 98.4 102.5 104.2 104.8 103.7 104.2 104.7 105.7 106.2 106.6 106.8 106.6 105.3 104 102.3 99.9 95.3 87.2 73.6 64.1 60.7 61.3 63.4 67.4 72.6 76.8 80.9 79.9 78.1 76.4 76.4 77.3 80.9 84.5 86.4 85.9 84.7 81.5 77.7 70.9 62.4 57.5
-1.6 50.8 38.7 15.8 -1.6 -1.6 -1.6 -1.6 -1.6 -1.6 -1.6 -1.6 -1.6 -1.6 -1.6 -1.6 -1.6 -1.6 -1.6 -1.6 -1.6 -1.6 -1.6 -1.6 -1.6 -1.6 -1.6 -1.6 -1.6 -1.6 -1.6 -1.6 -1.6 -1.6 -1.6 -1.6 -1.6 -1.6 -1.6 -1.6 -1.6 -1.6 -1.6 -1.6 -1.6 -1.6 -1.6 -1.6 -1.6 -0.3 1.8 42.3 55.1 59.1 57.2 49.8 51.6 52 52.1 50.4 50.4 50.5 47.1 43.8 46.3 50.1 53.4 53.7 57.9 63.9 64.3 60.9 60.5 61.7 60.6 57.9 50.8 37.6 33.3 50.6 65.5 74 81.1 86.1 90.2 93 95.2 94.4 90.4 82.9 71.9 54.2 36.2 16.8 11.1 12.7 25.2 40.7 57.4 70.8 79.5 86.2 91.2 94 96.6 98 99 99.6 98.4 97.7 96.9 95.4 94.4 93.7 92.9 90.9 88.2 85.7 85.5 83.3 81 76.2 73.5 71 68.6 66.9 67.7 71.6 77.1 83.5 90.3 94.3 97.7 99.4 100.4 101.1 101.2 101.1 101.5 101.9 101.9 102.4 103 104 104.3 104.7 104.9 103.9 101.7 98.5 94.4 89.8 85.4 81 79.6 81.8 86.7 93.7 99.3 102.6 103.4 103.3 101.9 103.2 104.5 107.1 107.4 106.9 106.3 105.9 105 103.8 101.8 98.3 90.2 73.9 61.2 57.1 55.5 56.9 62.9 69.6 74.9 81.4 80.9 76.7 73.3 71.4 70.7 73.4 78.1 82.3 85.8 86.7 85.6 82.7 79.6 73 60.8 52.3
38.2 42.3 26 0.4 -1.6 -1.6 -1.6 -1.6 -1.6 -1.6 -1.6 -1.6 -1.6 -1.6 -1.6 -1.6 -1.6 -1.6 -1.6 -1.6 -1.6 -1.6 -1.6 -1.6 -1.6 -1.6 -1.6 -1.6 -1.6 -1.6 -1.6 -1.6 -1.6 -1.6 -1.6 -1.6 -1.6 -1.6 -1.6 -1.6 -1.6 -1.6 -1.6 -1.6 -1.6 -1.6 -1.6 -1.6 -1.6 -1.6 37.7 64 77.6 82.8 80.4 79 78.1 77 73.8 70.4 66.9 65.5 61.6 61 65.3 69.8 69.7 63.9 60.8 70.7 75.8 79 81.7 82.1 81 74.3 64.4 51.4 42.5 51.1 65.9 76.9 83.9 88.7 92.6 94.9 95.9 94.7 90.4 81.8 67.1 46.6 28.3 16 14.5 13.6 18.7 32 49 66.1 78.2 84.2 88.2 91.6 94.2 96.8 97.9 99 98.9 98.7 98 97.8 98.3 98.8 98.6 97.2 96.6 96.6 96.2 95.8 94.2 92.6 89.2 84.8 80.7 75.9 73.6 73.5 74 77.5 84.2 91.4 94.6 96.7 97.7 98.6 98.6 98.5 99.3 99.9 101.9 103.1 104.4 105 105.4 105.8 106.2 104.7 102.5 98.9 94.8 90.6 86.4 82.8 83 84.1 89.7 96.1 100.7 102.5 102.9 100.4 98.9 98.5 100.2 102.7 103.3 103.2 103.4 103.1 102.8 100.2 97.2 92.5 78.1 60.7 52 50.6 51 56 66 73.3 79.5 82.2 77.8 73.1 69.6 66.2 65 68.1 74.2 79.8 84.2 86.5 85.9 83.5 80 74.1 58.6 47.6
22 22.7 2.9 -1.6 -1.6 -1.6 -1.6 -1.6 -1.6 -1.6 -1.6 -1.6 -1.6 -1.6 -1.6 -1.6 -1.6 -1.6 -1.6 -1.6 -1.6 -1.6 -1.6 -1.6 -1.6 -1.6 -1.6 -1.6 -1.6 -1.6 -1.6 -1.6 -1.6 -1.6 -1.6 -1.6 -1.6 -1.6 -1.6 -1.6 -1.6 -1.6 -1.6 -1.6 -1.6 -1.6 -1.6 -1.6 -1.6 -1.6 41.6 66.1 87.8 94.6 93.7 91.2 91.4 90.7 88.1 84.7 80.7 75.2 70.9 74.9 80.4 84.6 85.3 77 68 71.1 79.6 85.4 90.2 91.9 91.3 86.3 76.3 63.8 57.1 58.2 65.1 75.6 84.7 90.8 94.7 95.8 95.6 93 87.5 77.9 59.8 42.4 25.3 17.4 35 33.1 22 19.6 30.5 54.9 71.9 79.5 84.7 88.7 91.8 94.5 96.8 97.9 98.6 98.6 98.5 98.8 99.1 99.7 99.8 99.4 99.1 98.9 100.1 101.1 101.3 100.1 97.7 94.3 90.1 84.2 82.2 82.5 80.1 76.8 77.7 85.3 90.3 92.4 93.8 94.3 95.4 95.4 96.4 98.5 101.2 103.3 104.9 105.8 106.3 106.6 107 105.7 103.4 99.7 95.3 91.4 88.1 85.7 86.1 88.3 93.1 98.3 100.9 102 100.5 96.4 91.7 89.9 91.2 93.4 92.4 91.7 93.2 95.6 94.5 91.8 87.6 81.9 66.8 49.5 44.4 45 51.5 61.6 68.4 73.3 79.8 80.5 73.9 68.9 64.9 60.5 58.1 62 68.5 75.5 80.1 82.8 83.2 81.5 78.6 72.1 56.9 44.1
-1.6 -1.6 -1.6 -1.6 -1.6 -1.6 -1.6 -1.6 -1.6 -1.6 -1.6 -1.6 -1.6 -1.6 -1.6 -1.6 -1.6 -1.6 -1.6 -1.6 -1.6 -1.6 -1.6 -1.6 -1.6 -1.6 -1.6 -1.6 -1.6 -1.6 -1.6 -1.6 -1.6 -1.6 -1.6 -1.6 -1.6 -1.6 -1.6 -1.6 -1.6 -1.6 -1.6 -1.6 -1.6 -1.6 -1.6 -1.6 4.3 28.3 48.6 76.3 90.2 94.7 95.8 96.3 96.9 95.1 92.2 89.7 85.8 81.4 79.4 82 86.3 90.1 90.8 87.3 80.2 75.1 78.7 85.8 90.6 93.7 94.6 92.4 86.1 78.3 73.3 71.9 70.3 75.9 85.4 93.4 97.6 98.2 95.8 91.7 83.3 70.3 53.8 39.9 24.1 31.7 49.9 51.3 42.4 29.9 23.9 37.1 60.3 74.5 80.4 84.9 89.2 92.5 95.5 96.6 97.3 97.9 98 98.1 98.8 99.3 99.1 98.8 99.3 100.8 102 102.5 102.7 102.8 100.9 98.2 95.4 92.9 93.2 92 89.3 85 81 80.3 85.2 86.3 87.2 89.4 91.1 93.5 95.6 98.1 101.3 103.3 105.2 106.7 107.1 107.7 107.7 106.5 104.3 100.7 96.2 92.1 89.3 89.2 91.2 95.1 97.7 99.5 99.8 100.6 96.7 90.5 81.3 75.1 72.2 71.5 69.4 69.6 75.2 80 79.8 78.1 75.4 69.8 53.7 38.2 34 45.9 52.5 57.9 63.2 71.8 74.3 75.9 68.2 61.3 54.7 50.4 49.1 55.3 63.2 69.7 75 77.5 79.6 78.7 77 72.1 59.4 44.5
-1.6 -1.6 -1.6 -1.6 -1.6 -1.6 -1.6 -1.6 -1.6 -1.6 -1.6 -1.6 -1.6 -1.6 -1.6 -1.6 -1.6 -1.6 -1.6 -1.6 -1.6 -1.6 -1.6 -1.6 -1.6 -1.6 -1.6 -1.6 -1.6 -1.6 -1.6 -1.6 -1.6 -1.6 -1.6 -1.6 -1.6 -1.6 -1.6 -1.6 -1.6 -1.6 -1.6 -1.6 -1.6 -1.6 -1.6 -1.6 9.4 37.3 63.2 82.1 89 93.9 96.7 97.9 98.6 96.6 95 92.9 90.6 87 87.3 89.4 91.5 93.5 94.2 93.3 92 88.1 83.1 83 90 94.3 96.7 96.1 95.1 92.4 92 90.4 85.1 81.7 90 98.1 101.3 101.3 98.8 93.7 85.4 74.5 59.4 41.4 24.4 43.5 59 61 57 48.6 35.1 30.4 49.7 69 76.6 81.3 86.8 90.5 93.6 95.3 96.1 96.9 96.8 97.5 97.2 96.9 97 97.6 99.1 100.7 102.6 103.5 104.2 104.3 103.5 101.5 100 99.9 99.9 100.2 98 94.9 90.3 86.5 84.5 88 91.7 94.2 94.7 92.2 96.6 98.2 101 103 105.1 107 108.1 108.9 108.5 107.3 105 102 97.8 94.1 92.2 94 98 99.2 99.9 100.1 98.9 95.6 90.9 82.9 67.1 57 46.4 42.6 43.8 44.3 48.9 56.7 60.9 60.8 58.4 53.4 49.3 31.6 24 37.3 45.8 51.3 57.5 65.4 67.2 59.6 52.2 46.5 40 38.1 41.1 48.3 56.4 63.3 67.9 71.6 74 75.7 74.8 73 66.1 53.2
-1.6 -1.6 -1.6 -1.6 -1.6 -1.6 -1.6 -1.6 -1.6 -1.6 -1.6 -1.6 -1.6 -1.6 -1.6 -1.6 -1.6 -1.6 -1.6 -1.6 -1.6 -1.6 -1.6 -1.6 -1.6 -1.6 -1.6 -1.6 -1.6 -1.6 -1.6 -1.6 -1.6 -1.6 -1.6 -1.6 -1.6 -1.6 -1.6 -1.6 -1.6 -1.6 -1.6 -1.6 -1.6 -1.6 -1.6 -1.6 22.3 46.3 71.2 82 88.6 93.4 96 97.8 97.9 97.9 96.6 96.5 95.7 94.9 94.6 95 96.3 97.8 98.1 97.5 96.5 95.5 93.4 90.3 90.9 96.2 99.1 100.7 99.9 100.1 101.7 101.2 97.2 92.8 99.2 103.7 105 104.3 102.1 97.3 91.5 81.9 63.1 43 25.8 47.1 63.7 66 63.8 58 45.4 31.1 45.4 64.7 72.6 78.7 84.3 88.3 91.6 94 94.9 95.8 95.4 94.9 94.5 94.4 94.5 95.6 98.4 101.3 102.9 104 105.1 105.8 105 103.9 103.7 103.5 103.4 103.2 102.4 100.9 98.3 94.4 89.6 90.8 94 96.3 96.7 96.6 96.3 97.6 100 102.6 104.8 106.9 108.4 108.8 107.8 106.3 104 101.4 98.9 96.3 94.7 95.7 96.5 97.1 96.9 97 95.6 90.8 80.1 60.1 41.8 12.9 -1.6 0.9 3.1 6.8 -1.6 -1.6 25.8 38.9 37.9 36.9 40.5 33.5 20.3 26.5 37.7 38.9 9.4 50.4 48 39.6 32.3 27 21.2 25.5 24.8 40.3 48.6 55.7 61.5 63.5 68.2 71.7 72.9 73.2 70 60
-1.6 -1.6 -1.6 -1.6 -1.6 -1.6 -1.6 -1.6 -1.6 -1.6 -1.6 -1.6 -1.6 -1.6 -1.6 -1.6 -1.6 -1.6 -1.6 -1.6 -1.6 -1.6 -1.6 -1.6 -1.6 -1.6 -1.6 -1.6 -1.6 -1.6 -1.6 -1.6 -1.6 -1.6 -1.6 -1.6 -1.6 -1.6 -1.6 -1.6 -1.6 -1.6 -1.6 -1.6 -1.6 -1.6 -1.6 -1.6 1.8 50.1 74 82.3 86 89.1 92.9 95.1 95.9 96.8 96.9 97.9 98.3 98.2 98 99.4 100.8 102.1 102.3 101.7 100.8 99.8 98.4 95.8 92.4 97.7 101.3 103.6 104.7 105.6 106.1 105.6 103 101.1 104.8 106.7 106.9 105.6 103.2 99.4 94.1 84.9 65.8 45.7 29.2 42.8 61 67 66.8 61.6 49.6 33.3 43.5 60.3 70.7 76.8 81.9 85.8 89.6 92.5 93.5 94.5 94.4 91.7 90.7 90.3 91 95.7 99.2 101.7 103.1 104 105 105.7 105.5 105.4 105.3 105.1 105.2 104.9 104.6 104.1 101.9 98.9 96.1 94 95 97.3 97.1 99.2 99 100 101.5 102.8 105.3 107.7 108.8 108.1 107 105 102.7 100.5 98.2 95.7 93.6 91.4 89.8 88.9 89.8 87.6 85.4 77.4 60.3 39.4 1.8 -1.6 -1.6 -1.6 -1.6 -1.6 -1.6 -1.6 -1.6 -1.6 1.8 20.9 28.5 34.9 16.8 18.9 21.3 -1.6 -1.6 1.8 26.5 5.3 12.7 1.8 0.6 1.7 1.3 3.7 38.7 35.6 47.9 54.9 60.9 65.4 68.9 69.7 67.8 59.8
-1.6 -1.6 -1.6 -1.6 -1.6 -1.6 -1.6 -1.6 -1.6 -1.6 -1.6 -1.6 -1.6 -1.6 -1.6 -1.6 -1.6 -1.6 -1.6 -1.6 -1.6 -1.6 -1.6 -1.6 -1.6 -1.6 -1.6 -1.6 -1.6 -1.6 -1.6 -1.6 -1.6 -1.6 -1.6 -1.6 -1.6 -1.6 -1.6 -1.6 -1.6 -1.6 -1.6 -1.6 -1.6 -1.6 -1.6 -1.6 36.5 59.2 71.7 74.7 79 84.8 89.1 90.5 92.4 94.8 96.2 97.7 99 99.9 101 102.8 104.4 105 105.1 104.9 104.6 103.1 101.4 99.8 99.9 100.6 104 105.7 107.2 108.2 108.5 108 107.8 106.8 107.6 107.5 106.5 105.5 102.9 99.1 94.8 88.4 73.6 57.1 36.8 38.8 55.7 65.2 69.8 64.7 52.4 38.4 41.6 59.7 68.3 74.3 79.3 84 88 90.6 91.8 91.9 91 88 86.4 88 90.9 95.3 98.9 100.6 102.7 103.8 104.8 105.3 105.1 105.2 105.4 105.3 105.3 105 104.7 105 104.7 102.3 99.4 97.4 98.1 97.7 99.1 100.2 101.5 103.2 104.4 105.9 107.7 109.1 109.3 108.1 105.8 101.9 98.6 96.2 93.9 92.2 89.2 84 79.4 74.1 70.6 62.4 60 54.1 40.9 20.9 -1.6 -1.6 -1.6 -1.6 -1.6 -1.6 -1.6 -1.6 -1.6 -1.6 -1.6 3.5 7.2 19.9 1.8 0.7 -1.6 -1.6 -1.6 -1.6 -1.6 -1.6 -1.6 -1.6 -1.6 -1.6 0.7 -1.6 -1.6 0.5 2.1 43.1 49.9 55.2 57 60 61.6 63.1
-1.6 -1.6 -1.6 -1.6 -1.6 -1.6 -1.6 -1.6 -1.6 -1.6 -1.6 -1.6 -1.6 -1.6 -1.6 -1.6 -1.6 -1.6 -1.6 -1.6 -1.6 -1.6 -1.6 -1.6 -1.6 -1.6 -1.6 -1.6 -1.6 -1.6 -1.6 -1.6 -1.6 -1.6 -1.6 -1.6 -1.6 -1.6 -1.6 -1.6 -1.6 -1.6 -1.6 -1.6 -1.6 -1.6 1 28.5 47.8 53.4 58.4 62.3 68 76.4 80.1 82.9 86.1 89.9 92.7 95.8 97.4 99.2 101.4 103.7 104.9 105.7 106.1 106.5 107.3 106.5 103.6 102.7 102.4 103.3 105.5 107.3 109.1 109.3 109.2 109.3 109 108.9 108.6 108.1 106.9 104.9 102.5 98.4 94.2 88.5 79.6 62 42.5 35.7 50.8 63.9 69.7 69.5 57.5 41.2 42.1 53.7 63.7 71.5 77.3 82.4 86.1 88.4 89.4 89.1 86.9 84.5 84.2 86.8 90 93.8 96.6 99.1 101.3 103.6 104.7 105 104.9 104.9 105.1 104.9 104.8 104.9 104.9 104.9 104.8 104.2 102.7 100.9 99.4 100.3 102 103.6 104.3 106.8 108.6 109.1 109.5 110.1 109.7 107.5 104.1 97.2 89.7 85.8 83.6 81.6 77.9 71.3 65.6 57.5 53.6 39.7 33 23.1 7.2 -1.6 -1.6 -1.6 -1.6 -1.6 -1.6 -1.6 -1.6 -1.6 -1.6 -1.6 -1.6 -1.6 -1.6 0 -1.4 -1.6 -1.6 -1.6 -1.6 -1.6 -1.6 -1.6 -1.6 -1.6 -1.6 -1.6 -1.6 -1.6 -1.6 -1.6 1.8 26 34.3 8.3 3.5 47.2 53.3 57.3
-1.6 -1.6 -1.6 -1.6 -1.6 -1.6 -1.6 -1.6 -1.6 -1.6 -1.6 -1.6 -1.6 -1.6 -1.6 -1.6 -1.6 -1.6 -1.6 -1.6 -1.6 -1.6 -1.6 -1.6 -1.6 -1.6 -1.6 -1.6 -1.6 -1.6 -1.6 -1.6 -1.6 -1.6 -1.6 -1.6 -1.6 -1.6 -1.6 -1.6 -1.6 -1.6 -1.6 -1.6 -1.6 -1.6 14.3 31.2 35.7 38.1 41.8 30.4 50.5 59.5 65.6 71.1 76.5 80.4 83.5 86.8 91.3 95.6 98.2 100.7 102.5 104.1 105.6 107.3 108.2 108.1 106.6 105.7 104.8 105.2 106.9 108.6 109.3 109.9 109.9 110 110 109.8 109.2 108.2 106.3 103.7 100.9 96.7 91.4 85.6 78 64.9 48 37.9 47.9 60.6 68.2 70.8 63.4 48.2 41.6 46.5 57.4 68.1 75.3 80 83.5 85.6 86.2 85.8 83.3 80.9 82.5 84.5 87.9 90.5 93.6 97 99.9 102.4 103.6 104.1 104.6 104 103.3 102.2 101.4 101.5 101.8 103.1 104.2 103.8 103.5 102.5 102.8 104.2 104.8 105.7 107 108.9 109.9 110.4 110.3 109.9 109.3 107 102.5 93.4 78.5 67.6 65.8 63.3 58.7 51.5 45.2 40.1 35.6 15.2 1.9 0.5 -0.4 -1.6 -1.6 -1.6 -1.6 -1.6 -1.6 -1.6 -1.6 -1.6 -1.6 -1.6 -1.6 -1.6 -1.6 -1.6 -1.6 -1.6 -1.6 -1.6 -1.6 -1.6 -1.6 -1.6 -1.6 -1.6 -1.6 -1.6 -1.6 -1.6 -1.6 -1.6 2 -1.6 -1.6 -1.6 1.2 18.8 26.4 46.8
-1.6 -1.6 -1.6 -1.6 -1.6 -1.6 -1.6 -1.6 -1.6 -1.6 -1.6 -1.6 -1.6 -1.6 -1.6 -1.6 -1.6 -1.6 -1.6 -1.6 -1.6 -1.6 -1.6 -1.6 -1.6 -1.6 -1.6 -1.6 -1.6 -1.6 -1.6 -1.6 -1.6 -1.6 -1.6 -1.6 -1.6 -1.6 -1.6 -1.6 -1.6 -1.6 -1.6 -1.6 -1.6 -1.6 -1.6 18.5 21.7 22.3 9.6 1.8 13.6 39.8 46.6 54.7 61.5 64.2 65.9 71.8 80 86.9 91.4 96.6 98.7 100.9 103.4 105.4 106.9 107.3 107.6 107.9 106.9 107.2 108 108.6 109.6 110.5 110.5 110.4 110.2 109.9 109.4 107.9 105.4 102.7 98.8 93.5 86.7 80.6 71.5 60 52.5 40.6 45.1 59.5 67.7 72.2 71.6 60.2 50.2 42.7 48.3 60.1 72.1 76.7 80.4 82.5 82.9 82.1 79.5 78 80.8 82.5 84 86.4 90.4 94.7 98.6 101.3 102.1 102.8 102.1 100.8 98.8 96.9 95.1 94.9 96 98.1 101.1 102.2 102.2 101.9 102 102.7 103.2 104.8 106.8 108.4 108.7 108.4 108.2 108.3 108.3 108.2 104.6 95.1 81.1 63.2 53.2 45.2 41.2 35.7 31.5 27.7 23.9 0.9 -1.6 -1.6 -1.6 -1.6 -1.6 -1.6 -1.6 -1.6 -1.6 -1.6 -1.6 -1.6 -1.6 -1.6 -1.6 -1.6 -1.6 -1.6 -1.6 -1.6 -1.6 -1.6 -1.6 -1.6 -1.6 -1.6 -1.6 -1.6 -1.6 -1.6 -1.6 -1.6 -1.6 -1.6 -1.6 -1.6 -1.6 -1.6 -1.6 -1.6 8.8 26.1
-1.6 -1.6 -1.6 -1.6 -1.6 -1.6 -1.6 -1.6 -1.6 -1.6 -1.6 -1.6 -1.6 -1.6 -1.6 -1.6 -1.6 -1.6 -1.6 -1.6 -1.6 -1.6 -1.6 -1.6 -1.6 -1.6 -1.6 -1.6 -1.6 -1.6 -1.6 -1.6 -1.6 -1.6 -1.6 -1.6 -1.6 -1.6 -1.6 -1.6 -1.6 -1.6 -1.6 -1.6 -1.6 -1.6 1.2 1.8 1.8 -1.6 -1.6 -1.6 -1.6 4.9 28.2 35.9 41.7 43.5 43.1 53.6 65 74.1 82 88.1 92.9 96.4 99.7 102.5 104.6 106.5 107.1 107.6 108 107.6 108 108.6 109.6 110.5 110.5 110.5 110.3 110.1 108.8 106.9 104.2 101 97.4 91.6 84.8 75.9 66.9 58.2 51 42.6 47.1 60.2 69.7 75.5 78.7 75.2 66.5 56.5 47.4 51.7 66.3 74 77.6 78.6 78.7 78.1 75.6 76.4 78.4 79 79.5 82.9 87.1 91.8 96.8 99.5 99.2 98.1 97.8 96.6 92.6 88.1 84.9 86 88.2 90.6 94.9 97.8 97.8 97.2 96.8 95.9 92.9 98.6 101.5 103.3 103.1 102.5 101.4 103.4 105.3 108 106.6 100.6 88.2 69.9 51.7 37.9 29.6 25.5 22.9 20.6 12.1 -1.6 -1.6 -1.6 -1.6 -1.6 -1.6 -1.6 -1.6 -1.6 -1.6 -1.6 -1.6 -1.6 -1.6 -1.6 -1.6 -1.6 -1.6 -1.6 -1.6 -1.6 -1.6 -1.6 -1.6 -1.6 -1.6 -1.6 -1.6 -1.6 -1.6 -1.6 -1.6 -1.6 -1.6 -1.6 -1.6 -1.6 -1.6 -1.6 -1.6 -1.6 3.5 20.6
-1.6 -1.6 -1.6 -1.6 -1.6 -1.6 -1.6 -1.6 -1.6 -1.6 -1.6 -1.6 -1.6 -1.6 -1.6 -1.6 -1.6 -1.6 -1.6 -1.6 -1.6 -1.6 -1.6 -1.6 -1.6 -1.6 -1.6 -1.6 -1.6 -1.6 -1.6 -1.6 -1.6 -1.6 -1.6 -1.6 -1.6 -1.6 -1.6 -1.6 -1.6 -1.6 -1.6 -1.6 -1.6 -1.6 -1.6 -1.6 -1.6 -1.6 -1.6 -1.6 -1.6 -1.6 6.9 18.3 21.6 25.2 18.1 34.3 45.3 57.6 69.2 78.2 85.3 90.7 94.4 98.2 100.6 103.6 105.9 107.1 107.4 107 107.2 108 109.1 110 110.4 110.3 110.2 109.5 107.7 105.5 103 98.9 94.1 88.6 82.1 73.5 62.7 54 48.9 44.9 50.9 63.5 72.8 79.7 82.5 81.6 77.7 70.3 57.1 50.1 62.6 71 73.4 73.7 73.9 72.6 71.6 74.3 75.3 76 77.9 81.8 86.8 91.6 95 96.9 95.6 91.2 92.3 89.9 87 77.3 72 76.1 77.8 80.3 84.6 87.3 85 84.9 85.7 73.8 76.2 85.7 87 88.4 89.5 90.8 90 90.2 98 102.5 101 98.4 90.5 69.6 50.8 33.1 22.1 19.6 17.8 15.2 4.3 0.3 -1.6 -1.6 -1.6 -1.6 -1.6 -1.6 -1.6 -1.6 -1.6 -1.6 -1.6 -1.6 -1.6 -1.6 -1.6 -1.6 -1.6 -1.6 -1.6 -1.6 -1.6 -1.6 -1.6 -1.6 -1.6 -1.6 -1.6 -1.6 -1.6 -1.6 -1.6 -1.6 -1.6 -1.6 -1.6 -1.6 -1.6 -1.6 -1.6 -1.6 -1.6 1.8
-1.6 -1.6 -1.6 -1.6 -1.6 -1.6 -1.6 -1.6 -1.6 -1.6 -1.6 -1.6 -1.6 -1.6 -1.6 -1.6 -1.6 -1.6 -1.6 -1.6 -1.6 -1.6 -1.6 -1.6 -1.6 -1.6 -1.6 -1.6 -1.6 -1.6 -1.6 -1.6 -1.6 -1.6 -1.6 -1.6 -1.6 -1.6 -1.6 -1.6 -1.6 -1.6 -1.6 -1.6 -1.6 -1.6 -1.6 -1.6 -1.6 -1.6 -1.6 -1.6 -1.6 -1.6 -0.2 0.1 1.8 -1.6 -1.6 3 21.4 41.8 56.5 68.9 76.7 82.1 87.1 91.3 95.4 99.8 102 103.8 105.1 105.2 106.2 107.4 108.5 109.5 110 110.1 110 107.9 105.8 103.7 99.5 94.4 88.4 83.5 76.4 65.9 56.8 53.4 49.4 48.7 55.3 67.9 77.3 82.1 84.2 83.8 82.5 78.7 65.7 51.6 58.8 66 66.5 67.1 67.6 66.7 67.9 70.8 71.8 74.3 77.8 82.5 87.3 90.9 93.5 95.3 92.8 87.4 79.8 78.7 73.8 67.5 59.2 62.8 65.1 66.9 68.8 69.4 67.4 65.5 54.5 45.3 26.3 24.9 64.5 67.1 67.8 67 67.8 76.1 78 78.4 76.5 73.5 66.6 53.9 39.5 24.1 16.9 14.5 10.4 -1.6 0.5 0 -1.6 -1.6 -1.6 -1.6 -1.6 -1.6 -1.6 -1.6 -1.6 -1.6 -1.6 -1.6 -1.6 -1.6 -1.6 -1.6 -1.6 -1.6 -1.6 -1.6 -1.6 -1.6 -1.6 -1.6 -1.6 -1.6 -1.6 -1.6 -1.6 -1.6 -1.6 -1.6 -1.6 -1.6 -1.6 -1.6 -1.6 -1.6 -1.6 -1.6 -1.6 -1.6
-1.6 -1.6 -1.6 -1.6 -1.6 -1.6 -1.6 -1.6 -1.6 -1.6 -1.6 -1.6 -1.6 -1.6 -1.6 -1.6 -1.6 -1.6 -1.6 -1.6 -1.6 -1.6 -1.6 -1.6 -1.6 -1.6 -1.6 -1.6 -1.6 -1.6 -1.6 -1.6 -1.6 -1.6 -1.6 -1.6 -1.6 -1.6 -1.6 -1.6 -1.6 -1.6 -1.6 -1.6 -1.6 -1.6 -1.6 -1.6 -1.6 -1.6 -1.6 -1.6 -1.6 -1.6 -1.6 -1.6 0.3 -1.6 -1.6 0 6.6 26.3 41.2 54.8 63 69.1 75.8 81.4 87.2 93.1 96.8 98.4 101.3 102.3 103.4 106.2 107.5 108.4 109 109.4 109.4 107.7 105 101.5 97.3 91.7 84.4 77 68.9 63.2 60.5 57.5 52.8 54.4 62.6 74.1 79.4 83.5 85.5 86 84.7 80.8 72.2 57.3 55.2 59.1 59.9 62.1 64.7 67 69.1 69.8 72.4 74.8 78.4 83.1 87.3 90.7 93.3 93.8 92.2 88 83.7 78.5 71.8 57.3 48 49.2 53.4 51.4 48.9 47.4 45.5 31.5 39.3 4.3 1.3 1.6 3.1 39.7 39 39.4 41.6 48.7 52.4 53.2 52.3 50.6 44.6 37.1 26.5 7.8 5.6 1.7 -1.6 -1.6 -1.6 -1.6 -1.6 -1.6 -1.6 -1.6 -1.6 -1.6 -1.6 -1.6 -1.6 -1.6 -1.6 -1.6 -1.6 -1.6 -1.6 -1.6 -1.6 -1.6 -1.6 -1.6 -1.6 -1.6 -1.6 -1.6 -1.6 -1.6 -1.6 -1.6 -1.6 -1.6 -1.6 -1.6 -1.6 -1.6 -1.6 -1.6 -1.6 -1.6 -1.6 -1.6 -1.6 -1.6
-1.6 -1.6 -1.6 -1.6 -1.6 -1.6 -1.6 -1.6 -1.6 -1.6 -1.6 -1.6 -1.6 -1.6 -1.6 -1.6 -1.6 -1.6 -1.6 -1.6 -1.6 -1.6 -1.6 -1.6 -1.6 -1.6 -1.6 -1.6 -1.6 -1.6 -1.6 -1.6 -1.6 -1.6 -1.6 -1.6 -1.6 -1.6 -1.6 -1.6 -1.6 -1.6 -1.6 -1.6 -1.6 -1.6 -1.6 -1.6 -1.6 -1.6 -1.6 -1.6 -1.6 -1.6 -1.6 -1.6 -1.6 -1.6 -1.6 -1.6 -1.6 6.2 24.3 34.1 44 51.7 59.6 66.3 73.7 81.2 86.5 92.2 95.9 95.9 101.1 104 106.2 106.9 107.9 108.4 108.6 108.2 105.4 102.9 100.2 96 89.5 81.2 73.9 70.2 68.6 66.6 58.3 60.7 70.8 77.4 81.6 85 87.4 87.9 85.5 81.5 74.9 60.7 61.1 67.6 69.2 71.7 74.3 75.2 76.1 76.8 77.8 79.3 81.1 84.6 87.3 90.6 92.5 93.9 93.4 91.3 88.4 85.3 78.7 63.2 46 39.3 39.7 35.3 32.4 29.5 27.7 1.8 1.9 1.5 -1.6 -1.6 -1.6 -1.6 1.6 3.7 14.1 25.9 25.7 30.5 31.6 32.1 28.1 22.9 15.8 -1.6 -1.6 -1.6 -1.6 -1.6 -1.6 -1.6 -1.6 -1.6 -1.6 -1.6 -1.6 -1.6 -1.6 -1.6 -1.6 -1.6 -1.6 -1.6 -1.6 -1.6 -1.6 -1.6 -1.6 -1.6 -1.6 -1.6 -1.6 -1.6 -1.6 -1.6 -1.6 -1.6 -1.6 -1.6 -1.6 -1.6 -1.6 -1.6 -1.6 -1.6 -1.6 -1.6 -1.6 -1.6 -1.6 -1.6 -1.6 -1.6
-1.6 -1.6 -1.6 -1.6 -1.6 -1.6 -1.6 -1.6 -1.6 -1.6 -1.6 -1.6 -1.6 -1.6 -1.6 -1.6 -1.6 -1.6 -1.6 -1.6 -1.6 -1.6 -1.6 -1.6 -1.6 -1.6 -1.6 -1.6 -1.6 -1.6 -1.6 -1.6 -1.6 -1.6 -1.6 -1.6 -1.6 -1.6 -1.6 -1.6 -1.6 -1.6 -1.6 -1.6 -1.6 -1.6 -1.6 -1.6 -1.6 -1.6 -1.6 -1.6 -1.6 -1.6 -1.6 -1.6 -1.6 -1.6 -1.6 -1.6 -1.6 -1.6 1.1 9.4 24.9 31.1 40.3 48.5 57.1 64.2 73.6 82.5 88.3 89.5 97.9 101 103.4 105 106.5 107.4 108 108.5 106.7 104.3 101.8 98.2 94.6 88.8 83.2 80.5 79.9 76.6 65.4 63.9 75.6 80.6 84.4 87.6 89.2 88.9 86.2 81.6 73.8 59.3 66.1 72.5 75.1 77.8 80.3 81.9 83.1 84.3 84.9 86 88.1 89.1 90.4 92.5 94.1 95.3 95.5 94.8 93 87.7 79.4 67.9 51.6 36.1 27.3 23.4 20.9 8 6.8 -1.6 -1.6 -1.6 -1.6 -1.6 -1.6 -1.6 -1.6 -1.6 -1.6 -1.6 3.1 16.9 15.6 11 8.6 -1.6 -1.6 -1.6 -1.6 -1.6 -1.6 -1.6 -1.6 -1.6 -1.6 -1.6 -1.6 -1.6 -1.6 -1.6 -1.6 -1.6 -1.6 -1.6 -1.6 -1.6 -1.6 -1.6 -1.6 -1.6 -1.6 -1.6 -1.6 -1.6 -1.6 -1.6 -1.6 -1.6 -1.6 -1.6 -1.6 -1.6 -1.6 -1.6 -1.6 -1.6 -1.6 -1.6 -1.6 -1.6 -1.6 -1.6 -1.6 -1.6 -1.6 -1.6
-1.6 -1.6 -1.6 -1.6 -1.6 -1.6 -1.6 -1.6 -1.6 -1.6 -1.6 -1.6 -1.6 -1.6 -1.6 -1.6 -1.6 -1.6 -1.6 -1.6 -1.6 -1.6 -1.6 -1.6 -1.6 -1.6 -1.6 -1.6 -1.6 -1.6 -1.6 -1.6 -1.6 -1.6 -1.6 -1.6 -1.6 -1.6 -1.6 -1.6 -1.6 -1.6 -1.6 -1.6 -1.6 -1.6 -1.6 -1.6 -1.6 -1.6 -1.6 -1.6 -1.6 -1.6 -1.6 -1.6 -1.6 -1.6 -1.6 -1.6 -1.6 -1.6 -1.6 3.3 4.2 9.8 24.5 24.9 38.3 47 59.8 71.2 75 86.2 95.1 98.2 100.3 101.9 103.7 105.8 107.1 107.6 107.3 105.7 103.6 100.3 98 94.2 90.8 88.2 85.4 79.5 69 70.4 80.1 84.1 88 90.1 91 89.5 86.1 81.1 71.7 62.6 70.7 75.3 78.5 81.5 84.3 86.9 88.8 90.1 91.8 92.9 93.1 93.1 94.1 95.1 97.2 97.8 97.8 97.5 94.4 88.7 80.5 70.9 55.9 37.1 22.4 17.2 3.8 1 -1.6 -1.6 -1.6 -1.6 -1.6 -1.6 -1.6 -1.6 -1.6 -1.6 -1.6 -1.6 5 -1.6 -1.6 5.8 -1.6 -1.6 -1.6 -1.6 -1.6 -1.6 -1.6 -1.6 -1.6 -1.6 -1.6 -1.6 -1.6 -1.6 -1.6 -1.6 -1.6 -1.6 -1.6 -1.6 -1.6 -1.6 -1.6 -1.6 -1.6 -1.6 -1.6 -1.6 -1.6 -1.6 -1.6 -1.6 -1.6 -1.6 -1.6 -1.6 -1.6 -1.6 -1.6 -1.6 -1.6 -1.6 -1.6 -1.6 -1.6 -1.6 -1.6 -1.6 -1.6 -1.6 -1.6 -1.6
-1.6 -1.6 -1.6 -1.6 -1.6 -1.6 -1.6 -1.6 -1.6 -1.6 -1.6 -1.6 -1.6 -1.6 -1.6 -1.6 -1.6 -1.6 -1.6 -1.6 -1.6 -1.6 -1.6 -1.6 -1.6 -1.6 -1.6 -1.6 -1.6 -1.6 -1.6 -1.6 -1.6 -1.6 -1.6 -1.6 -1.6 -1.6 -1.6 -1.6 -1.6 -1.6 -1.6 -1.6 -1.6 -1.6 -1.6 -1.6 -1.6 -1.6 -1.6 -1.6 -1.6 -1.6 -1.6 -1.6 -1.6 -1.6 -1.6 -1.6 -1.6 -1.6 -1.6 -1.6 -1.6 0.7 -1.6 1.8 14.3 34.8 45.4 58.9 76 88.3 93.7 95 97.2 99.4 101.2 103.3 105.2 106.2 105.8 105.9 105.5 103.3 100.9 98 94.8 91.4 87.2 79.9 72.1 77.6 84.3 87.9 91 91.7 91.5 89.4 85.9 80.3 70.5 66.1 74.6 78.2 81.9 85.2 88 90.7 93.2 95 96 95.9 96.1 97.2 97.5 99.2 100.6 100.3 99.5 97.4 94.1 88.1 80.2 68.2 50.2 31 18.4 5 -1.6 -1.6 -1.6 -1.6 -1.6 -1.6 -1.6 -1.6 -1.6 -1.6 -1.6 -1.6 -1.6 -1.6 -1.6 -1.6 -1.6 -1.6 -1.6 -1.6 -1.6 -1.6 -1.6 -1.6 -1.6 -1.6 -1.6 -1.6 -1.6 -1.6 -1.6 -1.6 -1.6 -1.6 -1.6 -1.6 -1.6 -1.6 -1.6 -1.6 -1.6 -1.6 -1.6 -1.6 -1.6 -1.6 -1.6 -1.6 -1.6 -1.6 -1.6 -1.6 -1.6 -1.6 -1.6 -1.6 -1.6 -1.6 -1.6 -1.6 -1.6 -1.6 -1.6 -1.6 -1.6 -1.6 -1.6 -1.6 -1.6 -1.6
-1.6 -1.6 -1.6 -1.6 -1.6 -1.6 -1.6 -1.6 -1.6 -1.6 -1.6 -1.6 -1.6 -1.6 -1.6 -1.6 -1.6 -1.6 -1.6 -1.6 -1.6 -1.6 -1.6 -1.6 -1.6 -1.6 -1.6 -1.6 -1.6 -1.6 -1.6 -1.6 -1.6 -1.6 -1.6 -1.6 -1.6 -1.6 -1.6 -1.6 -1.6 -1.6 -1.6 -1.6 -1.6 -1.6 -1.6 -1.6 -1.6 -1.6 -1.6 -1.6 -1.6 -1.6 -1.6 -1.6 -1.6 -1.6 -1.6 -1.6 -1.6 -1.6 -1.6 -1.6 -1.6 -1.6 -1.6 -1.6 1.4 24.1 45.4 66.1 81.3 90.3 91.8 89.6 92.6 95.7 98.7 100.7 102.8 103.7 104.2 104.9 105.6 104.9 103.5 101.3 98.5 94.7 89.7 81.5 77.5 83.8 87.8 91.2 92.5 91.9 91.3 88.8 84.9 78.9 68.7 69.8 77.1 81.1 84.8 88.5 91.8 94.5 96 97.4 98.3 98.5 98.8 99.8 101 101.8 101.7 100.6 98.9 95.7 91.5 85.1 76.2 61.2 41.5 22.5 15 0.8 -1.6 -1.6 -1.6 -1.6 -1.6 -1.6 -1.6 -1.6 -1.6 -1.6 -1.6 -1.6 -1.6 -1.6 -1.6 -1.6 -1.6 -1.6 -1.6 -1.6 -1.6 -1.6 -1.6 -1.6 -1.6 -1.6 -1.6 -1.6 -1.6 -1.6 -1.6 -1.6 -1.6 -1.6 -1.6 -1.6 -1.6 -1.6 -1.6 -1.6 -1.6 -1.6 -1.6 -1.6 -1.6 -1.6 -1.6 -1.6 -1.6 -1.6 -1.6 -1.6 -1.6 -1.6 -1.6 -1.6 -1.6 -1.6 -1.6 -1.6 -1.6 -1.6 -1.6 -1.6 -1.6 -1.6 -1.6 -1.6 -1.6 -1.6
-1.6 -1.6 -1.6 -1.6 -1.6 -1.6 -1.6 -1.6 -1.6 -1.6 -1.6 -1.6 -1.6 -1.6 -1.6 -1.6 -1.6 -1.6 -1.6 -1.6 -1.6 -1.6 -1.6 -1.6 -1.6 -1.6 -1.6 -1.6 -1.6 -1.6 -1.6 -1.6 -1.6 -1.6 -1.6 -1.6 -1.6 -1.6 -1.6 -1.6 -1.6 -1.6 -1.6 -1.6 -1.6 -1.6 -1.6 -1.6 -1.6 -1.6 -1.6 -1.6 -1.6 -1.6 -1.6 -1.6 -1.6 -1.6 -1.6 -1.6 -1.6 -1.6 -1.6 -1.6 -1.6 -1.6 -1.6 -1.6 -1.6 8.6 39.3 61.6 80.6 86.9 91.8 84.8 85.3 89.6 93.7 96.8 99.2 101.7 102.7 103.7 105.3 105.3 104 102.3 99.9 96.8 91.5 83.7 84.3 89.5 91.6 93.5 92.8 91.8 90.2 87.1 81.8 75.7 69.1 71.9 80.2 84 87.9 91.8 94.5 96.3 97.8 99 99.9 100.7 101.5 102 101.9 101.9 100.9 99.3 96.9 93.2 88 81.2 71.1 53.2 29.1 20.2 13.5 -1.6 -1.6 -1.6 -1.6 -1.6 -1.6 -1.6 -1.6 -1.6 -1.6 -1.6 -1.6 -1.6 -1.6 -1.6 -1.6 -1.6 -1.6 -1.6 -1.6 -1.6 -1.6 -1.6 -1.6 -1.6 -1.6 -1.6 -1.6 -1.6 -1.6 -1.6 -1.6 -1.6 -1.6 -1.6 -1.6 -1.6 -1.6 -1.6 -1.6 -1.6 -1.6 -1.6 -1.6 -1.6 -1.6 -1.6 -1.6 -1.6 -1.6 -1.6 -1.6 -1.6 -1.6 -1.6 -1.6 -1.6 -1.6 -1.6 -1.6 -1.6 -1.6 -1.6 -1.6 -1.6 -1.6 -1.6 -1.6 -1.6 -1.6 -1.6
-1.6 -1.6 -1.6 -1.6 -1.6 -1.6 -1.6 -1.6 -1.6 -1.6 -1.6 -1.6 -1.6 -1.6 -1.6 -1.6 -1.6 -1.6 -1.6 -1.6 -1.6 -1.6 -1.6 -1.6 -1.6 -1.6 -1.6 -1.6 -1.6 -1.6 -1.6 -1.6 -1.6 -1.6 -1.6 -1.6 -1.6 -1.6 -1.6 -1.6 -1.6 -1.6 -1.6 -1.6 -1.6 -1.6 -1.6 -1.6 -1.6 -1.6 -1.6 -1.6 -1.6 -1.6 -1.6 -1.6 -1.6 -1.6 -1.6 -1.6 -1.6 -1.6 -1.6 -1.6 -1.6 -1.6 -1.6 -1.6 -1.6 5.1 28.2 49.1 65.9 80.7 87.4 81.6 68.8 76 84.8 89.6 94.1 98.3 101.3 102.6 104.1 104.6 103.7 102 99.9 97.2 92.5 87.9 90.9 94.2 94.3 93 91.8 90.4 87.8 83.7 78.1 73.6 71 75 82.6 86.9 91 93.9 95.9 97.6 99.1 100.1 100.7 101.8 102.1 101.1 101 100.1 98.8 97.3 95.2 91.2 85.4 77.4 63.4 42.4 24.8 1.8 1.1 -1.6 -1.6 -1.6 -1.6 -1.6 -1.6 -1.6 -1.6 -1.6 -1.6 -1.6 -1.6 -1.6 -1.6 -1.6 -1.6 -1.6 -1.6 -1.6 -1.6 -1.6 -1.6 -1.6 -1.6 -1.6 -1.6 -1.6 -1.6 -1.6 -1.6 -1.6 -1.6 -1.6 -1.6 -1.6 -1.6 -1.6 -1.6 -1.6 -1.6 -1.6 -1.6 -1.6 -1.6 -1.6 -1.6 -1.6 -1.6 -1.6 -1.6 -1.6 -1.6 -1.6 -1.6 -1.6 -1.6 -1.6 -1.6 -1.6 -1.6 -1.6 -1.6 -1.6 -1.6 -1.6 -1.6 -1.6 -1.6 -1.6 -1.6 -1.6
-1.6 -1.6 -1.6 -1.6 -1.6 -1.6 -1.6 -1.6 -1.6 -1.6 -1.6 -1.6 -1.6 -1.6 -1.6 -1.6 -1.6 -1.6 -1.6 -1.6 -1.6 -1.6 -1.6 -1.6 -1.6 -1.6 -1.6 -1.6 -1.6 -1.6 -1.6 -1.6 -1.6 -1.6 -1.6 -1.6 -1.6 -1.6 -1.6 -1.6 -1.6 -1.6 -1.6 -1.6 -1.6 -1.6 -1.6 -1.6 -1.6 -1.6 -1.6 -1.6 -1.6 -1.6 -1.6 -1.6 -1.6 -1.6 -1.6 -1.6 -1.6 -1.6 -1.6 -1.6 -1.6 -1.6 -1.6 -1.6 -1.6 0.8 18.9 33.7 53.2 69.6 70.4 65.4 59.9 58.9 73.1 81.1 88.6 93.5 98.1 101.1 102.5 103.7 102.9 101.7 100 98.1 95.1 94 95.3 95.3 94.6 93.5 91.4 88.9 85.8 81.3 77 73.3 74.1 80 85.1 89 92.6 94.5 96.1 97.8 99.4 100.4 101 101.9 101.1 99.1 97.7 96.4 95.9 94.8 93.1 88.2 82.9 75.3 59.6 36.4 22.1 3.9 -1.6 -1.6 -1.6 -1.6 -1.6 -1.6 -1.6 -1.6 -1.6 -1.6 -1.6 -1.6 -1.6 -1.6 -1.6 -1.6 -1.6 -1.6 -1.6 -1.6 -1.6 -1.6 -1.6 -1.6 -1.6 -1.6 -1.6 -1.6 -1.6 -1.6 -1.6 -1.6 -1.6 -1.6 -1.6 -1.6 -1.6 -1.6 -1.6 -1.6 -1.6 -1.6 -1.6 -1.6 -1.6 -1.6 -1.6 -1.6 -1.6 -1.6 -1.6 -1.6 -1.6 -1.6 -1.6 -1.6 -1.6 -1.6 -1.6 -1.6 -1.6 -1.6 -1.6 -1.6 -1.6 -1.6 -1.6 -1.6 -1.6 -1.6 -1.6 -1.6
-1.6 -1.6 -1.6 -1.6 -1.6 -1.6 -1.6 -1.6 -1.6 -1.6 -1.6 -1.6 -1.6 -1.6 -1.6 -1.6 -1.6 -1.6 -1.6 -1.6 -1.6 -1.6 -1.6 -1.6 -1.6 -1.6 -1.6 -1.6 -1.6 -1.6 -1.6 -1.6 -1.6 -1.6 -1.6 -1.6 -1.6 -1.6 -1.6 -1.6 -1.6 -1.6 -1.6 -1.6 -1.6 -1.6 -1.6 -1.6 -1.6 -1.6 -1.6 -1.6 -1.6 -1.6 -1.6 -1.6 -1.6 -1.6 -1.6 -1.6 -1.6 -1.6 -1.6 -1.6 -1.6 -1.6 -1.6 -1.6 -1.6 -1.6 2 6.9 38.9 47.7 48.7 45.3 40 40.2 50.8 69.2 81.1 89.8 94.4 98.1 100.6 101.7 102 101 99.2 98.8 98.2 97.1 96.6 96.3 95.3 93.5 90.8 88.1 84.1 80.2 76.9 76.2 78 81.5 86.5 90.4 92.9 94.6 96.3 98 99.6 100.5 100.8 100.1 97.7 93.6 90.7 90.1 90.5 91.3 89.4 84.7 79.2 71.5 55.4 32.4 18.6 2.8 -1.6 -1.6 -1.6 -1.6 -1.6 -1.6 -1.6 -1.6 -1.6 -1.6 -1.6 -1.6 -1.6 -1.6 -1.6 -1.6 -1.6 -1.6 -1.6 -1.6 -1.6 -1.6 -1.6 -1.6 -1.6 -1.6 -1.6 -1.6 -1.6 -1.6 -1.6 -1.6 -1.6 -1.6 -1.6 -1.6 -1.6 -1.6 -1.6 -1.6 -1.6 -1.6 -1.6 -1.6 -1.6 -1.6 -1.6 -1.6 -1.6 -1.6 -1.6 -1.6 -1.6 -1.6 -1.6 -1.6 -1.6 -1.6 -1.6 -1.6 -1.6 -1.6 -1.6 -1.6 -1.6 -1.6 -1.6 -1.6 -1.6 -1.6 -1.6 -1.6
-1.6 -1.6 -1.6 -1.6 -1.6 -1.6 -1.6 -1.6 -1.6 -1.6 -1.6 -1.6 -1.6 -1.6 -1.6 -1.6 -1.6 -1.6 -1.6 -1.6 -1.6 -1.6 -1.6 -1.6 -1.6 -1.6 -1.6 -1.6 -1.6 -1.6 -1.6 -1.6 -1.6 -1.6 -1.6 -1.6 -1.6 -1.6 -1.6 -1.6 -1.6 -1.6 -1.6 -1.6 -1.6 -1.6 -1.6 -1.6 -1.6 -1.6 -1.6 -1.6 -1.6 -1.6 -1.6 -1.6 -1.6 -1.6 -1.6 -1.6 -1.6 -1.6 -1.6 -1.6 -1.6 -1.6 -1.6 -1.6 -1.6 -1.6 -1.6 0.7 18.7 27.1 27.6 25.5 12 1.8 8.9 62.6 75.1 84.5 91.5 95.4 97.9 100.3 101.1 100.6 100.5 100.3 99.3 98.8 98.1 97 95.5 93.1 90.4 87.6 84.4 81.9 80.7 81.3 82.2 84.8 87.2 90.4 93 94.8 96.5 98.2 99.7 99.6 99.1 95.7 92.3 88.3 83.1 81.6 84.2 85.9 84.9 80.8 73.8 64.5 45.9 26.9 16.4 4 -1.6 -1.6 -1.6 -1.6 -1.6 -1.6 -1.6 -1.6 -1.6 -1.6 -1.6 -1.6 -1.6 -1.6 -1.6 -1.6 -1.6 -1.6 -1.6 -1.6 -1.6 -1.6 -1.6 -1.6 -1.6 -1.6 -1.6 -1.6 -1.6 -1.6 -1.6 -1.6 -1.6 -1.6 -1.6 -1.6 -1.6 -1.6 -1.6 -1.6 -1.6 -1.6 -1.6 -1.6 -1.6 -1.6 -1.6 -1.6 -1.6 -1.6 -1.6 -1.6 -1.6 -1.6 -1.6 -1.6 -1.6 -1.6 -1.6 -1.6 -1.6 -1.6 -1.6 -1.6 -1.6 -1.6 -1.6 -1.6 -1.6 -1.6 -1.6 -1.6
-1.6 -1.6 -1.6 -1.6 -1.6 -1.6 -1.6 -1.6 -1.6 -1.6 -1.6 -1.6 -1.6 -1.6 -1.6 -1.6 -1.6 -1.6 -1.6 -1.6 -1.6 -1.6 -1.6 -1.6 -1.6 -1.6 -1.6 -1.6 -1.6 -1.6 -1.6 -1.6 -1.6 -1.6 -1.6 -1.6 -1.6 -1.6 -1.6 -1.6 -1.6 -1.6 -1.6 -1.6 -1.6 -1.6 -1.6 -1.6 -1.6 -1.6 -1.6 -1.6 -1.6 -1.6 -1.6 -1.6 -1.6 -1.6 -1.6 -1.6 -1.6 -1.6 -1.6 -1.6 -1.6 -1.6 -1.6 -1.6 -1.6 -1.6 -1.6 -1.6 4.4 -1.6 -1.6 -1.6 -1.6 -1.6 1.8 52.2 71.8 82.9 89.6 92.6 95.4 97.8 99.3 100.1 100 100 99.3 99.1 98.5 97.1 95.2 93.1 90.5 88.1 86.7 86.1 86.2 86.9 87.7 87.1 88.3 90.6 93.1 94.7 96.4 97.6 97.9 96.6 93 88.1 84.1 79.4 71.1 72.2 77.5 80.6 80.3 76.9 69.6 57.2 38 22.4 14.9 1.8 -1.6 -1.6 -1.6 -1.6 -1.6 -1.6 -1.6 -1.6 -1.6 -1.6 -1.6 -1.6 -1.6 -1.6 -1.6 -1.6 -1.6 -1.6 -1.6 -1.6 -1.6 -1.6 -1.6 -1.6 -1.6 -1.6 -1.6 -1.6 -1.6 -1.6 -1.6 -1.6 -1.6 -1.6 -1.6 -1.6 -1.6 -1.6 -1.6 -1.6 -1.6 -1.6 -1.6 -1.6 -1.6 -1.6 -1.6 -1.6 -1.6 -1.6 -1.6 -1.6 -1.6 -1.6 -1.6 -1.6 -1.6 -1.6 -1.6 -1.6 -1.6 -1.6 -1.6 -1.6 -1.6 -1.6 -1.6 -1.6 -1.6 -1.6 -1.6 -1.6
-1.6 -1.6 -1.6 -1.6 -1.6 -1.6 -1.6 -1.6 -1.6 -1.6 -1.6 -1.6 -1.6 -1.6 -1.6 -1.6 -1.6 -1.6 -1.6 -1.6 -1.6 -1.6 -1.6 -1.6 -1.6 -1.6 -1.6 -1.6 -1.6 -1.6 -1.6 -1.6 -1.6 -1.6 -1.6 -1.6 -1.6 -1.6 -1.6 -1.6 -1.6 -1.6 -1.6 -1.6 -1.6 -1.6 -1.6 -1.6 -1.6 -1.6 -1.6 -1.6 -1.6 -1.6 -1.6 -1.6 -1.6 -1.6 -1.6 -1.6 -1.6 -1.6 -1.6 -1.6 -1.6 -1.6 -1.6 -1.6 -1.6 -1.6 -1.6 -1.6 -1.6 -1.6 -1.6 -1.6 -1.6 -1.6 13.7 43 65 76.1 84.7 89.2 91.4 91.9 94.7 97.6 98.7 99.5 99.6 99.5 98.4 96.7 94.4 92.5 91 89.6 89.3 88.6 88.2 89.1 89.4 89.6 89.8 91.3 93.3 94.9 94.9 95.4 93.6 89.2 83.7 76 67.1 59.9 55.2 60.1 68.7 74.9 77.3 73.8 65.9 50.5 33.4 19.6 1.8 -1.6 -1.6 -1.6 -1.6 -1.6 -1.6 -1.6 -1.6 -1.6 -1.6 -1.6 -1.6 -1.6 -1.6 -1.6 -1.6 -1.6 -1.6 -1.6 -1.6 -1.6 -1.6 -1.6 -1.6 -1.6 -1.6 -1.6 -1.6 -1.6 -1.6 -1.6 -1.6 -1.6 -1.6 -1.6 -1.6 -1.6 -1.6 -1.6 -1.6 -1.6 -1.6 -1.6 -1.6 -1.6 -1.6 -1.6 -1.6 -1.6 -1.6 -1.6 -1.6 -1.6 -1.6 -1.6 -1.6 -1.6 -1.6 -1.6 -1.6 -1.6 -1.6 -1.6 -1.6 -1.6 -1.6 -1.6 -1.6 -1.6 -1.6 -1.6 -1.6 -1.6
-1.6 -1.6 -1.6 -1.6 -1.6 -1.6 -1.6 -1.6 -1.6 -1.6 -1.6 -1.6 -1.6 -1.6 -1.6 -1.6 -1.6 -1.6 -1.6 -1.6 -1.6 -1.6 -1.6 -1.6 -1.6 -1.6 -1.6 -1.6 -1.6 -1.6 -1.6 -1.6 -1.6 -1.6 -1.6 -1.6 -1.6 -1.6 -1.6 -1.6 -1.6 -1.6 -1.6 -1.6 -1.6 -1.6 -1.6 -1.6 -1.6 -1.6 -1.6 -1.6 -1.6 -1.6 -1.6 -1.6 -1.6 -1.6 -1.6 -1.6 -1.6 -1.6 -1.6 -1.6 -1.6 -1.6 -1.6 -1.6 -1.6 -1.6 -1.6 -1.6 -1.6 -1.6 -1.6 -1.6 -1.6 -1.6 -1.6 31.3 48.9 65.6 76.6 79 80.5 83.2 89 93.8 97.2 99.3 99.9 98.9 97.5 95.1 92.7 91.8 91.2 90.7 90.1 89.8 89.5 89.5 89.6 89.9 91.1 93.3 94.9 94.9 92.4 87.5 80.8 73 63.9 55.8 46.8 43.6 41.8 43.9 56.8 69.5 76.1 72.8 64 49.2 31.6 17.9 0.9 -1.6 -1.6 -1.6 -1.6 -1.6 -1.6 -1.6 -1.6 -1.6 -1.6 -1.6 -1.6 -1.6 -1.6 -1.6 -1.6 -1.6 -1.6 -1.6 -1.6 -1.6 -1.6 -1.6 -1.6 -1.6 -1.6 -1.6 -1.6 -1.6 -1.6 -1.6 -1.6 -1.6 -1.6 -1.6 -1.6 -1.6 -1.6 -1.6 -1.6 -1.6 -1.6 -1.6 -1.6 -1.6 -1.6 -1.6 -1.6 -1.6 -1.6 -1.6 -1.6 -1.6 -1.6 -1.6 -1.6 -1.6 -1.6 -1.6 -1.6 -1.6 -1.6 -1.6 -1.6 -1.6 -1.6 -1.6 -1.6 -1.6 -1.6 -1.6 -1.6 -1.6
-1.6 -1.6 -1.6 -1.6 -1.6 -1.6 -1.6 -1.6 -1.6 -1.6 -1.6 -1.6 -1.6 -1.6 -1.6 -1.6 -1.6 -1.6 -1.6 -1.6 -1.6 -1.6 -1.6 -1.6 -1.6 -1.6 -1.6 -1.6 -1.6 -1.6 -1.6 -1.6 -1.6 -1.6 -1.6 -1.6 -1.6 -1.6 -1.6 -1.6 -1.6 -1.6 -1.6 -1.6 -1.6 -1.6 -1.6 -1.6 -1.6 -1.6 -1.6 -1.6 -1.6 -1.6 -1.6 -1.6 -1.6 -1.6 -1.6 -1.6 -1.6 -1.6 -1.6 -1.6 -1.6 -1.6 -1.6 -1.6 -1.6 -1.6 -1.6 -1.6 -1.6 -1.6 -1.6 -1.6 -1.6 -1.6 -1.6 0.7 19.9 53.3 60 60.1 62.8 69.7 78.9 89.6 96 99.3 100.4 98.6 95.1 91.9 89.1 88.3 89.3 89.4 88.9 88.8 88.6 89.2 89.9 90.6 92.5 94.8 95.4 91.8 83.8 73.3 58.1 48 40.7 34.5 29.8 26.7 23.3 1.8 39 58.9 70.5 69 64.1 54.1 37.1 19.2 10.9 -1.6 -1.6 -1.6 -1.6 -1.6 -1.6 -1.6 -1.6 -1.6 -1.6 -1.6 -1.6 -1.6 -1.6 -1.6 -1.6 -1.6 -1.6 -1.6 -1.6 -1.6 -1.6 -1.6 -1.6 -1.6 -1.6 -1.6 -1.6 -1.6 -1.6 -1.6 -1.6 -1.6 -1.6 -1.6 -1.6 -1.6 -1.6 -1.6 -1.6 -1.6 -1.6 -1.6 -1.6 -1.6 -1.6 -1.6 -1.6 -1.6 -1.6 -1.6 -1.6 -1.6 -1.6 -1.6 -1.6 -1.6 -1.6 -1.6 -1.6 -1.6 -1.6 -1.6 -1.6 -1.6 -1.6 -1.6 -1.6 -1.6 -1.6 -1.6 -1.6 -1.6
-1.6 -1.6 -1.6 -1.6 -1.6 -1.6 -1.6 -1.6 -1.6 -1.6 -1.6 -1.6 -1.6 -1.6 -1.6 -1.6 -1.6 -1.6 -1.6 -1.6 -1.6 -1.6 -1.6 -1.6 -1.6 -1.6 -1.6 -1.6 -1.6 -1.6 -1.6 -1.6 -1.6 -1.6 -1.6 -1.6 -1.6 -1.6 -1.6 -1.6 -1.6 -1.6 -1.6 -1.6 -1.6 -1.6 -1.6 -1.6 -1.6 -1.6 -1.6 -1.6 -1.6 -1.6 -1.6 -1.6 -1.6 -1.6 -1.6 -1.6 -1.6 -1.6 -1.6 -1.6 -1.6 -1.6 -1.6 -1.6 -1.6 -1.6 -1.6 -1.6 -1.6 -1.6 -1.6 -1.6 -1.6 -1.6 -1.6 -1.6 11.1 39.4 37.2 33 34.4 42 56.9 75.2 89.8 97.9 98.9 95.7 90 85.4 81.4 80.4 82.5 85.9 86.7 85.7 85.8 87.4 89.2 91.3 93.5 93.8 89.6 83.4 68.4 51.3 36.9 27.7 22.4 19.5 18.1 -1.6 -1.6 -1.6 24.4 40.8 55.7 55.9 53.1 49.3 36.3 19.1 -1.6 -1.6 -1.6 -1.6 -1.6 -1.6 -1.6 -1.6 -1.6 -1.6 -1.6 -1.6 -1.6 -1.6 -1.6 -1.6 -1.6 -1.6 -1.6 -1.6 -1.6 -1.6 -1.6 -1.6 -1.6 -1.6 -1.6 -1.6 -1.6 -1.6 -1.6 -1.6 -1.6 -1.6 -1.6 -1.6 -1.6 -1.6 -1.6 -1.6 -1.6 -1.6 -1.6 -1.6 -1.6 -1.6 -1.6 -1.6 -1.6 -1.6 -1.6 -1.6 -1.6 -1.6 -1.6 -1.6 -1.6 -1.6 -1.6 -1.6 -1.6 -1.6 -1.6 -1.6 -1.6 -1.6 -1.6 -1.6 -1.6 -1.6 -1.6 -1.6 -1.6 -1.6
-1.6 -1.6 -1.6 -1.6 -1.6 -1.6 -1.6 -1.6 -1.6 -1.6 -1.6 -1.6 -1.6 -1.6 -1.6 -1.6 -1.6 -1.6 -1.6 -1.6 -1.6 -1.6 -1.6 -1.6 -1.6 -1.6 -1.6 -1.6 -1.6 -1.6 -1.6 -1.6 -1.6 -1.6 -1.6 -1.6 -1.6 -1.6 -1.6 -1.6 -1.6 -1.6 -1.6 -1.6 -1.6 -1.6 -1.6 -1.6 -1.6 -1.6 -1.6 -1.6 -1.6 -1.6 -1.6 -1.6 -1.6 -1.6 -1.6 -1.6 -1.6 -1.6 -1.6 -1.6 -1.6 -1.6 -1.6 -1.6 -1.6 -1.6 -1.6 -1.6 -1.6 -1.6 -1.6 -1.6 -1.6 -1.6 -1.6 0.3 20.5 21.4 18.1 -1.6 1.8 5.3 33.7 50.8 74.3 86.8 86.6 80.4 76.1 71.7 69.3 67.4 70.5 77.6 79.9 79.2 80.7 84.6 88.6 92.3 95.6 91.8 81 67.6 49.7 32.9 22.7 18.1 3.6 -1.6 -1.6 -1.6 -1.6 -1.6 -1.6 25 38.3 39.3 34 31.4 25.6 -1.6 -1.6 -1.6 -1.6 -1.6 -1.6 -1.6 -1.6 -1.6 -1.6 -1.6 -1.6 -1.6 -1.6 -1.6 -1.6 -1.6 -1.6 -1.6 -1.6 -1.6 -1.6 -1.6 -1.6 -1.6 -1.6 -1.6 -1.6 -1.6 -1.6 -1.6 -1.6 -1.6 -1.6 -1.6 -1.6 -1.6 -1.6 -1.6 -1.6 -1.6 -1.6 -1.6 -1.6 -1.6 -1.6 -1.6 -1.6 -1.6 -1.6 -1.6 -1.6 -1.6 -1.6 -1.6 -1.6 -1.6 -1.6 -1.6 -1.6 -1.6 -1.6 -1.6 -1.6 -1.6 -1.6 -1.6 -1.6 -1.6 -1.6 -1.6 -1.6 -1.6 -1.6 -1.6
-1.6 -1.6 -1.6 -1.6 -1.6 -1.6 -1.6 -1.6 -1.6 -1.6 -1.6 -1.6 -1.6 -1.6 -1.6 -1.6 -1.6 -1.6 -1.6 -1.6 -1.6 -1.6 -1.6 -1.6 -1.6 -1.6 -1.6 -1.6 -1.6 -1.6 -1.6 -1.6 -1.6 -1.6 -1.6 -1.6 -1.6 -1.6 -1.6 -1.6 -1.6 -1.6 -1.6 -1.6 -1.6 -1.6 -1.6 -1.6 -1.6 -1.6 -1.6 -1.6 -1.6 -1.6 -1.6 -1.6 -1.6 -1.6 -1.6 -1.6 -1.6 -1.6 -1.6 -1.6 -1.6 -1.6 -1.6 -1.6 -1.6 -1.6 -1.6 -1.6 -1.6 -1.6 -1.6 -1.6 -1.6 -1.6 -1.6 -1.6 6 8.1 -1.6 -1.6 -1.6 -1.6 0.1 9.6 57.2 60.5 61 59.5 54 48 40 35.2 57.8 65.9 68.4 67.6 69.5 75 80.8 84.9 83.4 74.8 61.9 47.9 34 21.4 -1.6 0.8 -1.6 -1.6 -1.6 -1.6 -1.6 -1.6 -1.6 -1.6 24.1 22.8 17.2 14.1 11.4 -1.6 -1.6 -1.6 -1.6 -1.6 -1.6 -1.6 -1.6 -1.6 -1.6 -1.6 -1.6 -1.6 -1.6 -1.6 -1.6 -1.6 -1.6 -1.6 -1.6 -1.6 -1.6 -1.6 -1.6 -1.6 -1.6 -1.6 -1.6 -1.6 -1.6 -1.6 -1.6 -1.6 -1.6 -1.6 -1.6 -1.6 -1.6 -1.6 -1.6 -1.6 -1.6 -1.6 -1.6 -1.6 -1.6 -1.6 -1.6 -1.6 -1.6 -1.6 -1.6 -1.6 -1.6 -1.6 -1.6 -1.6 -1.6 -1.6 -1.6 -1.6 -1.6 -1.6 -1.6 -1.6 -1.6 -1.6 -1.6 -1.6 -1.6 -1.6 -1.6 -1.6 -1.6 -1.6
-1.6 -1.6 -1.6 -1.6 -1.6 -1.6 -1.6 -1.6 -1.6 -1.6 -1.6 -1.6 -1.6 -1.6 -1.6 -1.6 -1.6 -1.6 -1.6 -1.6 -1.6 -1.6 -1.6 -1.6 -1.6 -1.6 -1.6 -1.6 -1.6 -1.6 -1.6 -1.6 -1.6 -1.6 -1.6 -1.6 -1.6 -1.6 -1.6 -1.6 -1.6 -1.6 -1.6 -1.6 -1.6 -1.6 -1.6 -1.6 -1.6 -1.6 -1.6 -1.6 -1.6 -1.6 -1.6 -1.6 -1.6 -1.6 -1.6 -1.6 -1.6 -1.6 -1.6 -1.6 -1.6 -1.6 -1.6 -1.6 -1.6 -1.6 -1.6 -1.6 -1.6 -1.6 -1.6 -1.6 -1.6 -1.6 -1.6 -1.6 -0.9 -1.5 -1.6 -1.6 -1.6 -1.6 -1.6 24.5 33.6 33.7 37 37.4 32 -1.6 -1.6 1.8 41.2 48.3 52.4 51.7 52.4 58.1 60.1 61 57.9 51.7 42.2 31.4 -1.6 -1.6 -1.6 -1.6 -1.6 -1.6 -1.6 -1.6 -1.6 -1.6 -1.6 -1.6 9.2 -1.6 4.4 -1.6 -1.6 -1.6 -1.6 -1.6 -1.6 -1.6 -1.6 -1.6 -1.6 -1.6 -1.6 -1.6 -1.6 -1.6 -1.6 -1.6 -1.6 -1.6 -1.6 -1.6 -1.6 -1.6 -1.6 -1.6 -1.6 -1.6 -1.6 -1.6 -1.6 -1.6 -1.6 -1.6 -1.6 -1.6 -1.6 -1.6 -1.6 -1.6 -1.6 -1.6 -1.6 -1.6 -1.6 -1.6 -1.6 -1.6 -1.6 -1.6 -1.6 -1.6 -1.6 -1.6 -1.6 -1.6 -1.6 -1.6 -1.6 -1.6 -1.6 -1.6 -1.6 -1.6 -1.6 -1.6 -1.6 -1.6 -1.6 -1.6 -1.6 -1.6 -1.6 -1.6 -1.6 -1.6 -1.6 -1.6
-1.6 -1.6 -1.6 -1.6 -1.6 -1.6 -1.6 -1.6 -1.6 -1.6 -1.6 -1.6 -1.6 -1.6 -1.6 -1.6 -1.6 -1.6 -1.6 -1.6 -1.6 -1.6 -1.6 -1.6 -1.6 -1.6 -1.6 -1.6 -1.6 -1.6 -1.6 -1.6 -1.6 -1.6 -1.6 -1.6 -1.6 -1.6 -1.6 -1.6 -1.6 -1.6 -1.6 -1.6 -1.6 -1.6 -1.6 -1.6 -1.6 -1.6 -1.6 -1.6 -1.6 -1.6 -1.6 -1.6 -1.6 -1.6 -1.6 -1.6 -1.6 -1.6 -1.6 -1.6 -1.6 -1.6 -1.6 -1.6 -1.6 -1.6 -1.6 -1.6 -1.6 -1.6 -1.6 -1.6 -1.6 -1.6 -1.6 -1.6 -1.6 -1.6 -1.6 -1.6 -1.6 -1.6 -1.6 2.7 0.9 -1.6 18.9 1.8 -1.6 -1.6 -1.6 1.7 22.2 25 27.9 30.2 31.2 33.8 36.7 41.4 39.4 31.2 1.8 -1.6 -1.6 -1.6 -1.6 -1.6 -1.6 -1.6 -1.6 -1.6 -1.6 -1.6 -1.6 -0.9 -1.6 -1.6 -0.5 -1.6 -1.6 -1.6 -1.6 -1.6 -1.6 -1.6 -1.6 -1.6 -1.6 -1.6 -1.6 -1.6 -1.6 -1.6 -1.6 -1.6 -1.6 -1.6 -1.6 -1.6 -1.6 -1.6 -1.6 -1.6 -1.6 -1.6 -1.6 -1.6 -1.6 -1.6 -1.6 -1.6 -1.6 -1.6 -1.6 -1.6 -1.6 -1.6 -1.6 -1.6 -1.6 -1.6 -1.6 -1.6 -1.6 -1.6 -1.6 -1.6 -1.6 -1.6 -1.6 -1.6 -1.6 -1.6 -1.6 -1.6 -1.6 -1.6 -1.6 -1.6 -1.6 -1.6 -1.6 -1.6 -1.6 -1.6 -1.6 -1.6 -1.6 -1.6 -1.6 -1.6 -1.6 -1.6 -1.6 -1.6
-1.6 -1.6 -1.6 -1.6 -1.6 -1.6 -1.6 -1.6 -1.6 -1.6 -1.6 -1.6 -1.6 -1.6 -1.6 -1.6 -1.6 -1.6 -1.6 -1.6 -1.6 -1.6 -1.6 -1.6 -1.6 -1.6 -1.6 -1.6 -1.6 -1.6 -1.6 -1.6 -1.6 -1.6 -1.6 -1.6 -1.6 -1.6 -1.6 -1.6 -1.6 -1.6 -1.6 -1.6 -1.6 -1.6 -1.6 -1.6 -1.6 -1.6 -1.6 -1.6 -1.6 -1.6 -1.6 -1.6 -1.6 -1.6 -1.6 -1.6 -1.6 -1.6 -1.6 -1.6 -1.6 -1.6 -1.6 -1.6 -1.6 -1.6 -1.6 -1.6 -1.6 -1.6 -1.6 -1.6 -1.6 -1.6 -1.6 -1.6 -1.6 -1.6 -1.6 -1.6 -1.6 -1.6 -1.6 -1.6 -1.6 -1.6 -1.6 -1.6 -1.6 -1.6 -1.6 -1.6 -1.6 -1.6 14.3 7.9 -1.6 -1.6 -1.6 -1.6 24.6 -1.6 3.1 -1.6 -1.6 -1.6 -1.6 -1.6 -1.6 -1.6 -1.6 -1.6 -1.6 -1.6 -1.6 -1.6 -1.6 -1.6 -1.6 -1.6 -1.6 -1.6 -1.6 -1.6 -1.6 -1.6 -1.6 -1.6 -1.6 -1.6 -1.6 -1.6 -1.6 -1.6 -1.6 -1.6 -1.6 -1.6 -1.6 -1.6 -1.6 -1.6 -1.6 -1.6 -1.6 -1.6 -1.6 -1.6 -1.6 -1.6 -1.6 -1.6 -1.6 -1.6 -1.6 -1.6 -1.6 -1.6 -1.6 -1.6 -1.6 -1.6 -1.6 -1.6 -1.6 -1.6 -1.6 -1.6 -1.6 -1.6 -1.6 -1.6 -1.6 -1.6 -1.6 -1.6 -1.6 -1.6 -1.6 -1.6 -1.6 -1.6 -1.6 -1.6 -1.6 -1.6 -1.6 -1.6 -1.6 -1.6 -1.6 -1.6 -1.6 -1.6 -1.6 -1.6
-1.6 -1.6 -1.6 -1.6 -1.6 -1.6 -1.6 -1.6 -1.6 -1.6 -1.6 -1.6 -1.6 -1.6 -1.6 -1.6 -1.6 -1.6 -1.6 -1.6 -1.6 -1.6 -1.6 -1.6 -1.6 -1.6 -1.6 -1.6 -1.6 -1.6 -1.6 -1.6 -1.6 -1.6 -1.6 -1.6 -1.6 -1.6 -1.6 -1.6 -1.6 -1.6 -1.6 -1.6 -1.6 -1.6 -1.6 -1.6 -1.6 -1.6 -1.6 -1.6 -1.6 -1.6 -1.6 -1.6 -1.6 -1.6 -1.6 -1.6 -1.6 -1.6 -1.6 -1.6 -1.6 -1.6 -1.6 -1.6 -1.6 -1.6 -1.6 -1.6 -1.6 -1.6 -1.6 -1.6 -1.6 -1.6 -1.6 -1.6 -1.6 -1.6 -1.6 -1.6 -1.6 -1.6 -1.6 -1.6 -1.6 -1.6 -1.6 -1.6 -1.6 -1.6 -1.6 -1.2 -1.6 1.8 -1.6 -1.6 -1.6 -1.6 -1.6 -1.6 -1.6 -1.6 -1.6 -1.6 -1.6 -1.6 -1.6 -1.6 -1.6 -1.6 -1.6 -1.6 -1.6 -1.6 -1.6 -1.6 -1.6 -1.6 -1.6 -1.6 -1.6 -1.6 -1.6 -1.6 -1.6 -1.6 -1.6 -1.6 -1.6 -1.6 -1.6 -1.6 -1.6 -1.6 -1.6 -1.6 -1.6 -1.6 -1.6 -1.6 -1.6 -1.6 -1.6 -1.6 -1.6 -1.6 -1.6 -1.6 -1.6 -1.6 -1.6 -1.6 -1.6 -1.6 -1.6 -1.6 -1.6 -1.6 -1.6 -1.6 -1.6 -1.6 -1.6 -1.6 -1.6 -1.6 -1.6 -1.6 -1.6 -1.6 -1.6 -1.6 -1.6 -1.6 -1.6 -1.6 -1.6 -1.6 -1.6 -1.6 -1.6 -1.6 -1.6 -1.6 -1.6 -1.6 -1.6 -1.6 -1.6 -1.6 -1.6 -1.6 -1.6 -1.6 -1.6 -1.6
-1.6 -1.6 -1.6 -1.6 -1.6 -1.6 -1.6 -1.6 -1.6 -1.6 -1.6 -1.6 -1.6 -1.6 -1.6 -1.6 -1.6 -1.6 -1.6 -1.6 -1.6 -1.6 -1.6 -1.6 -1.6 -1.6 -1.6 -1.6 -1.6 -1.6 -1.6 -1.6 -1.6 -1.6 -1.6 -1.6 -1.6 -1.6 -1.6 -1.6 -1.6 -1.6 -1.6 -1.6 -1.6 -1.6 -1.6 -1.6 -1.6 -1.6 -1.6 -1.6 -1.6 -1.6 -1.6 -1.6 -1.6 -1.6 -1.6 -1.6 -1.6 -1.6 -1.6 -1.6 -1.6 -1.6 -1.6 -1.6 -1.6 -1.6 -1.6 -1.6 -1.6 -1.6 -1.6 -1.6 -1.6 -1.6 -1.6 -1.6 -1.6 -1.6 -1.6 -1.6 -1.6 -1.6 -1.6 -1.6 -1.6 -1.6 -1.6 -1.6 -1.6 -1.6 -1.6 -1.6 -1.6 -1.6 -1.6 -1.6 -1.6 -1.6 -1.6 -1.6 -1.6 -1.6 -1.6 -1.6 -1.6 -1.6 -1.6 -1.6 -1.6 -1.6 -1.6 -1.6 -1.6 -1.6 -1.6 -1.6 -1.6 -1.6 -1.6 -1.6 -1.6 -1.6 -1.6 -1.6 -1.6 -1.6 -1.6 -1.6 -1.6 -1.6 -1.6 -1.6 -1.6 -1.6 -1.6 -1.6 -1.6 -1.6 -1.6 -1.6 -1.6 -1.6 -1.6 -1.6 -1.6 -1.6 -1.6 -1.6 -1.6 -1.6 -1.6 -1.6 -1.6 -1.6 -1.6 -1.6 -1.6 -1.6 -1.6 -1.6 -1.6 -1.6 -1.6 -1.6 -1.6 -1.6 -1.6 -1.6 -1.6 -1.6 -1.6 -1.6 -1.6 -1.6 -1.6 -1.6 -1.6 -1.6 -1.6 -1.6 -1.6 -1.6 -1.6 -1.6 -1.6 -1.6 -1.6 -1.6 -1.6 -1.6 -1.6 -1.6 -1.6 -1.6 -1.6 -1.6
-1.6 -1.6 -1.6 -1.6 -1.6 -1.6 -1.6 -1.6 -1.6 -1.6 -1.6 -1.6 -1.6 -1.6 -1.6 -1.6 -1.6 -1.6 -1.6 -1.6 -1.6 -1.6 -1.6 -1.6 -1.6 -1.6 -1.6 -1.6 -1.6 -1.6 -1.6 -1.6 -1.6 -1.6 -1.6 -1.6 -1.6 -1.6 -1.6 -1.6 -1.6 -1.6 -1.6 -1.6 -1.6 -1.6 -1.6 -1.6 -1.6 -1.6 -1.6 -1.6 -1.6 -1.6 -1.6 -1.6 -1.6 -1.6 -1.6 -1.6 -1.6 -1.6 -1.6 -1.6 -1.6 -1.6 -1.6 -1.6 -1.6 -1.6 -1.6 -1.6 -1.6 -1.6 -1.6 -1.6 -1.6 -1.6 -1.6 -1.6 -1.6 -1.6 -1.6 -1.6 -1.6 -1.6 -1.6 -1.6 -1.6 -1.6 -1.6 -1.6 -1.6 -1.6 -1.6 -1.6 -1.6 -1.6 -1.6 -1.6 -1.6 -1.6 -1.6 -1.6 -1.6 -1.6 -1.6 -1.6 -1.6 -1.6 -1.6 -1.6 -1.6 -1.6 -1.6 -1.6 -1.6 -1.6 -1.6 -1.6 -1.6 -1.6 -1.6 -1.6 -1.6 -1.6 -1.6 -1.6 -1.6 -1.6 -1.6 -1.6 -1.6 -1.6 -1.6 -1.6 -1.6 -1.6 -1.6 -1.6 -1.6 -1.6 -1.6 -1.6 -1.6 -1.6 -1.6 -1.6 -1.6 -1.6 -1.6 -1.6 -1.6 -1.6 -1.6 -1.6 -1.6 -1.6 -1.6 -1.6 -1.6 -1.6 -1.6 -1.6 -1.6 -1.6 -1.6 -1.6 -1.6 -1.6 -1.6 -1.6 -1.6 -1.6 -1.6 -1.6 -1.6 -1.6 -1.6 -1.6 -1.6 -1.6 -1.6 -1.6 -1.6 -1.6 -1.6 -1.6 -1.6 -1.6 -1.6 -1.6 -1.6 -1.6 -1.6 -1.6 -1.6 -1.6 -1.6 -1.6
-1.6 -1.6 -1.6 -1.6 -1.6 -1.6 -1.6 -1.6 -1.6 -1.6 -1.6 -1.6 -1.6 -1.6 -1.6 -1.6 -1.6 -1.6 -1.6 -1.6 -1.6 -1.6 -1.6 -1.6 -1.6 -1.6 -1.6 -1.6 -1.6 -1.6 -1.6 -1.6 -1.6 -1.6 -1.6 -1.6 -1.6 -1.6 -1.6 -1.6 -1.6 -1.6 -1.6 -1.6 -1.6 -1.6 -1.6 -1.6 -1.6 -1.6 -1.6 -1.6 -1.6 -1.6 -1.6 -1.6 -1.6 -1.6 -1.6 -1.6 -1.6 -1.6 -1.6 -1.6 -1.6 -1.6 -1.6 -1.6 -1.6 -1.6 -1.6 -1.6 -1.6 -1.6 -1.6 -1.6 -1.6 -1.6 -1.6 -1.6 -1.6 -1.6 -1.6 -1.6 -1.6 -1.6 -1.6 -1.6 -1.6 -1.6 -1.6 -1.6 -1.6 -1.6 -1.6 -1.6 -1.6 -1.6 -1.6 -1.6 -1.6 -1.6 -1.6 -1.6 -1.6 -1.6 -1.6 -1.6 -1.6 -1.6 -1.6 -1.6 -1.6 -1.6 -1.6 -1.6 -1.6 -1.6 -1.6 -1.6 -1.6 -1.6 -1.6 -1.6 -1.6 -1.6 -1.6 -1.6 -1.6 -1.6 -1.6 -1.6 -1.6 -1.6 -1.6 -1.6 -1.6 -1.6 -1.6 -1.6 -1.6 -1.6 -1.6 -1.6 -1.6 -1.6 -1.6 -1.6 -1.6 -1.6 -1.6 -1.6 -1.6 -1.6 -1.6 -1.6 -1.6 -1.6 -1.6 -1.6 -1.6 -1.6 -1.6 -1.6 -1.6 -1.6 -1.6 -1.6 -1.6 -1.6 -1.6 -1.6 -1.6 -1.6 -1.6 -1.6 -1.6 -1.6 -1.6 -1.6 -1.6 -1.6 -1.6 -1.6 -1.6 -1.6 -1.6 -1.6 -1.6 -1.6 -1.6 -1.6 -1.6 -1.6 -1.6 -1.6 -1.6 -1.6 -1.6 -1.6
-1.6 -1.6 -1.6 -1.6 -1.6 -1.6 -1.6 -1.6 -1.6 -1.6 -1.6 -1.6 -1.6 -1.6 -1.6 -1.6 -1.6 -1.6 -1.6 -1.6 -1.6 -1.6 -1.6 -1.6 -1.6 -1.6 -1.6 -1.6 -1.6 -1.6 -1.6 -1.6 -1.6 -1.6 -1.6 -1.6 -1.6 -1.6 -1.6 -1.6 -1.6 -1.6 -1.6 -1.6 -1.6 -1.6 -1.6 -1.6 -1.6 -1.6 -1.6 -1.6 -1.6 -1.6 -1.6 -1.6 -1.6 -1.6 -1.6 -1.6 -1.6 -1.6 -1.6 -1.6 -1.6 -1.6 -1.6 -1.6 -1.6 -1.6 -1.6 -1.6 -1.6 -1.6 -1.6 -1.6 -1.6 -1.6 -1.6 -1.6 -1.6 -1.6 -1.6 -1.6 -1.6 -1.6 -1.6 -1.6 -1.6 -1.6 -1.6 -1.6 -1.6 -1.6 -1.6 -1.6 -1.6 -1.6 -1.6 -1.6 -1.6 -1.6 -1.6 -1.6 -1.6 -1.6 -1.6 -1.6 -1.6 -1.6 -1.6 -1.6 -1.6 -1.6 -1.6 -1.6 -1.6 -1.6 -1.6 -1.6 -1.6 -1.6 -1.6 -1.6 -1.6 -1.6 -1.6 -1.6 -1.6 -1.6 -1.6 -1.6 -1.6 -1.6 -1.6 -1.6 -1.6 -1.6 -1.6 -1.6 -1.6 -1.6 -1.6 -1.6 -1.6 -1.6 -1.6 -1.6 -1.6 -1.6 -1.6 -1.6 -1.6 -1.6 -1.6 -1.6 -1.6 -1.6 -1.6 -1.6 -1.6 -1.6 -1.6 -1.6 -1.6 -1.6 -1.6 -1.6 -1.6 -1.6 -1.6 -1.6 -1.6 -1.6 -1.6 -1.6 -1.6 -1.6 -1.6 -1.6 -1.6 -1.6 -1.6 -1.6 -1.6 -1.6 -1.6 -1.6 -1.6 -1.6 -1.6 -1.6 -1.6 -1.6 -1.6 -1.6 -1.6 -1.6 -1.6 -1.6
-1.6 -1.6 -1.6 -1.6 -1.6 -1.6 -1.6 -1.6 -1.6 -1.6 -1.6 -1.6 -1.6 -1.6 -1.6 -1.6 -1.6 -1.6 -1.6 -1.6 -1.6 -1.6 -1.6 -1.6 -1.6 -1.6 -1.6 -1.6 -1.6 -1.6 -1.6 -1.6 -1.6 -1.6 -1.6 -1.6 -1.6 -1.6 -1.6 -1.6 -1.6 -1.6 -1.6 -1.6 -1.6 -1.6 -1.6 -1.6 -1.6 -1.6 -1.6 -1.6 -1.6 -1.6 -1.6 -1.6 -1.6 -1.6 -1.6 -1.6 -1.6 -1.6 -1.6 -1.6 -1.6 -1.6 -1.6 -1.6 -1.6 -1.6 -1.6 -1.6 -1.6 -1.6 -1.6 -1.6 -1.6 -1.6 -1.6 -1.6 -1.6 -1.6 -1.6 -1.6 -1.6 -1.6 -1.6 -1.6 -1.6 -1.6 -1.6 -1.6 -1.6 -1.6 -1.6 -1.6 -1.6 -1.6 -1.6 -1.6 -1.6 -1.6 -1.6 -1.6 -1.6 -1.6 -1.6 -1.6 -1.6 -1.6 -1.6 -1.6 -1.6 -1.6 -1.6 -1.6 -1.6 -1.6 -1.6 -1.6 -1.6 -1.6 -1.6 -1.6 -1.6 -1.6 -1.6 -1.6 -1.6 -1.6 -1.6 -1.6 -1.6 -1.6 -1.6 -1.6 -1.6 -1.6 -1.6 -1.6 -1.6 -1.6 -1.6 -1.6 -1.6 -1.6 -1.6 -1.6 -1.6 -1.6 -1.6 -1.6 -1.6 -1.6 -1.6 -1.6 -1.6 -1.6 -1.6 -1.6 -1.6 -1.6 -1.6 -1.6 -1.6 -1.6 -1.6 -1.6 -1.6 -1.6 -1.6 -1.6 -1.6 -1.6 -1.6 -1.6 -1.6 -1.6 -1.6 -1.6 -1.6 -1.6 -1.6 -1.6 -1.6 -1.6 -1.6 -1.6 -1.6 -1.6 -1.6 -1.6 -1.6 -1.6 -1.6 -1.6 -1.6 -1.6 -1.6 -1.6
-1.6 -1.6 -1.6 -1.6 -1.6 -1.6 -1.6 -1.6 -1.6 -1.6 -1.6 -1.6 -1.6 -1.6 -1.6 -1.6 -1.6 -1.6 -1.6 -1.6 -1.6 -1.6 -1.6 -1.6 -1.6 -1.6 -1.6 -1.6 -1.6 -1.6 -1.6 -1.6 -1.6 -1.6 -1.6 -1.6 -1.6 -1.6 -1.6 -1.6 -1.6 -1.6 -1.6 -1.6 -1.6 -1.6 -1.6 -1.6 -1.6 -1.6 -1.6 -1.6 -1.6 -1.6 -1.6 -1.6 -1.6 -1.6 -1.6 -1.6 -1.6 -1.6 -1.6 -1.6 -1.6 -1.6 -1.6 -1.6 -1.6 -1.6 -1.6 -1.6 -1.6 -1.6 -1.6 -1.6 -1.6 -1.6 -1.6 -1.6 -1.6 -1.6 -1.6 -1.6 -1.6 -1.6 -1.6 -1.6 -1.6 -1.6 -1.6 -1.6 -1.6 -1.6 -1.6 -1.6 -1.6 -1.6 -1.6 -1.6 -1.6 -1.6 -1.6 -1.6 -1.6 -1.6 -1.6 -1.6 -1.6 -1.6 -1.6 -1.6 -1.6 -1.6 -1.6 -1.6 -1.6 -1.6 -1.6 -1.6 -1.6 -1.6 -1.6 -1.6 -1.6 -1.6 -1.6 -1.6 -1.6 -1.6 -1.6 -1.6 -1.6 -1.6 -1.6 -1.6 -1.6 -1.6 -1.6 -1.6 -1.6 -1.6 -1.6 -1.6 -1.6 -1.6 -1.6 -1.6 -1.6 -1.6 -1.6 -1.6 -1.6 -1.6 -1.6 -1.6 -1.6 -1.6 -1.6 -1.6 -1.6 -1.6 -1.6 -1.6 -1.6 -1.6 -1.6 -1.6 -1.6 -1.6 -1.6 -1.6 -1.6 -1.6 -1.6 -1.6 -1.6 -1.6 -1.6 -1.6 -1.6 -1.6 -1.6 -1.6 -1.6 -1.6 -1.6 -1.6 -1.6 -1.6 -1.6 -1.6 -1.6 -1.6 -1.6 -1.6 -1.6 -1.6 -1.6 -1.6
-1.6 -1.6 -1.6 -1.6 -1.6 -1.6 -1.6 -1.6 -1.6 -1.6 -1.6 -1.6 -1.6 -1.6 -1.6 -1.6 -1.6 -1.6 -1.6 -1.6 -1.6 -1.6 -1.6 -1.6 -1.6 -1.6 -1.6 -1.6 -1.6 -1.6 -1.6 -1.6 -1.6 -1.6 -1.6 -1.6 -1.6 -1.6 -1.6 -1.6 -1.6 -1.6 -1.6 -1.6 -1.6 -1.6 -1.6 -1.6 -1.6 -1.6 -1.6 -1.6 -1.6 -1.6 -1.6 -1.6 -1.6 -1.6 -1.6 -1.6 -1.6 -1.6 -1.6 -1.6 -1.6 -1.6 -1.6 -1.6 -1.6 -1.6 -1.6 -1.6 -1.6 -1.6 -1.6 -1.6 -1.6 -1.6 -1.6 -1.6 -1.6 -1.6 -1.6 -1.6 -1.6 -1.6 -1.6 -1.6 -1.6 -1.6 -1.6 -1.6 -1.6 -1.6 -1.6 -1.6 -1.6 -1.6 -1.6 -1.6 -1.6 -1.6 -1.6 -1.6 -1.6 -1.6 -1.6 -1.6 -1.6 -1.6 -1.6 -1.6 -1.6 -1.6 -1.6 -1.6 -1.6 -1.6 -1.6 -1.6 -1.6 -1.6 -1.6 -1.6 -1.6 -1.6 -1.6 -1.6 -1.6 -1.6 -1.6 -1.6 -1.6 -1.6 -1.6 -1.6 -1.6 -1.6 -1.6 -1.6 -1.6 -1.6 -1.6 -1.6 -1.6 -1.6 -1.6 -1.6 -1.6 -1.6 -1.6 -1.6 -1.6 -1.6 -1.6 -1.6 -1.6 -1.6 -1.6 -1.6 -1.6 -1.6 -1.6 -1.6 -1.6 -1.6 -1.6 -1.6 -1.6 -1.6 -1.6 -1.6 -1.6 -1.6 -1.6 -1.6 -1.6 -1.6 -1.6 -1.6 -1.6 -1.6 -1.6 -1.6 -1.6 -1.6 -1.6 -1.6 -1.6 -1.6 -1.6 -1.6 -1.6 -1.6 -1.6 -1.6 -1.6 -1.6 -1.6 -1.6
-1.6 -1.6 -1.6 -1.6 -1.6 -1.6 -1.6 -1.6 -1.6 -1.6 -1.6 -1.6 -1.6 -1.6 -1.6 -1.6 -1.6 -1.6 -1.6 -1.6 -1.6 -1.6 -1.6 -1.6 -1.6 -1.6 -1.6 -1.6 -1.6 -1.6 -1.6 -1.6 -1.6 -1.6 -1.6 -1.6 -1.6 -1.6 -1.6 -1.6 -1.6 -1.6 -1.6 -1.6 -1.6 -1.6 -1.6 -1.6 -1.6 -1.6 -1.6 -1.6 -1.6 -1.6 -1.6 -1.6 -1.6 -1.6 -1.6 -1.6 -1.6 -1.6 -1.6 -1.6 -1.6 -1.6 -1.6 -1.6 -1.6 -1.6 -1.6 -1.6 -1.6 -1.6 -1.6 -1.6 -1.6 -1.6 -1.6 -1.6 -1.6 -1.6 -1.6 -1.6 -1.6 -1.6 -1.6 -1.6 -1.6 -1.6 -1.6 -1.6 -1.6 -1.6 -1.6 -1.6 -1.6 -1.6 -1.6 -1.6 -1.6 -1.6 -1.6 -1.6 -1.6 -1.6 -1.6 -1.6 -1.6 -1.6 -1.6 -1.6 -1.6 -1.6 -1.6 -1.6 -1.6 -1.6 -1.6 -1.6 -1.6 -1.6 -1.6 -1.6 -1.6 -1.6 -1.6 -1.6 -1.6 -1.6 -1.6 -1.6 -1.6 -1.6 -1.6 -1.6 -1.6 -1.6 -1.6 -1.6 -1.6 -1.6 -1.6 -1.6 -1.6 -1.6 -1.6 -1.6 -1.6 -1.6 -1.6 -1.6 -1.6 -1.6 -1.6 -1.6 -1.6 -1.6 -1.6 -1.6 -1.6 -1.6 -1.6 -1.6 -1.6 -1.6 -1.6 -1.6 -1.6 -1.6 -1.6 -1.6 -1.6 -1.6 -1.6 -1.6 -1.6 -1.6 -1.6 -1.6 -1.6 -1.6 -1.6 -1.6 -1.6 -1.6 -1.6 -1.6 -1.6 -1.6 -1.6 -1.6 -1.6 -1.6 -1.6 -1.6 -1.6 -1.6 -1.6 -1.6
-1.6 -1.6 -1.6 -1.6 -1.6 -1.6 -1.6 -1.6 -1.6 -1.6 -1.6 -1.6 -1.6 -1.6 -1.6 -1.6 -1.6 -1.6 -1.6 -1.6 -1.6 -1.6 -1.6 -1.6 -1.6 -1.6 -1.6 -1.6 -1.6 -1.6 -1.6 -1.6 -1.6 -1.6 -1.6 -1.6 -1.6 -1.6 -1.6 -1.6 -1.6 -1.6 -1.6 -1.6 -1.6 -1.6 -1.6 -1.6 -1.6 -1.6 -1.6 -1.6 -1.6 -1.6 -1.6 -1.6 -1.6 -1.6 -1.6 -1.6 -1.6 -1.6 -1.6 -1.6 -1.6 -1.6 -1.6 -1.6 -1.6 -1.6 -1.6 -1.6 -1.6 -1.6 -1.6 -1.6 -1.6 -1.6 -1.6 -1.6 -1.6 -1.6 -1.6 -1.6 -1.6 -1.6 -1.6 -1.6 -1.6 -1.6 -1.6 -1.6 -1.6 -1.6 -1.6 -1.6 -1.6 -1.6 -1.6 -1.6 -1.6 -1.6 -1.6 -1.6 -1.6 -1.6 -1.6 -1.6 -1.6 -1.6 -1.6 -1.6 -1.6 -1.6 -1.6 -1.6 -1.6 -1.6 -1.6 -1.6 -1.6 -1.6 -1.6 -1.6 -1.6 -1.6 -1.6 -1.6 -1.6 -1.6 -1.6 -1.6 -1.6 -1.6 -1.6 -1.6 -1.6 -1.6 -1.6 -1.6 -1.6 -1.6 -1.6 -1.6 -1.6 -1.6 -1.6 -1.6 -1.6 -1.6 -1.6 -1.6 -1.6 -1.6 -1.6 -1.6 -1.6 -1.6 -1.6 -1.6 -1.6 -1.6 -1.6 -1.6 -1.6 -1.6 -1.6 -1.6 -1.6 -1.6 -1.6 -1.6 -1.6 -1.6 -1.6 -1.6 -1.6 -1.6 -1.6 -1.6 -1.6 -1.6 -1.6 -1.6 -1.6 -1.6 -1.6 -1.6 -1.6 -1.6 -1.6 -1.6 -1.6 -1.6 -1.6 -1.6 -1.6 -1.6 -1.6 -1.6
-1.6 -1.6 -1.6 -1.6 -1.6 -1.6 -1.6 -1.6 -1.6 -1.6 -1.6 -1.6 -1.6 -1.6 -1.6 -1.6 -1.6 -1.6 -1.6 -1.6 -1.6 -1.6 -1.6 -1.6 -1.6 -1.6 -1.6 -1.6 -1.6 -1.6 -1.6 -1.6 -1.6 -1.6 -1.6 -1.6 -1.6 -1.6 -1.6 -1.6 -1.6 -1.6 -1.6 -1.6 -1.6 -1.6 -1.6 -1.6 -1.6 -1.6 -1.6 -1.6 -1.6 -1.6 -1.6 -1.6 -1.6 -1.6 -1.6 -1.6 -1.6 -1.6 -1.6 -1.6 -1.6 -1.6 -1.6 -1.6 -1.6 -1.6 -1.6 -1.6 -1.6 -1.6 -1.6 -1.6 -1.6 -1.6 -1.6 -1.6 -1.6 -1.6 -1.6 -1.6 -1.6 -1.6 -1.6 -1.6 -1.6 -1.6 -1.6 -1.6 -1.6 -1.6 -1.6 -1.6 -1.6 -1.6 -1.6 -1.6 -1.6 -1.6 -1.6 -1.6 -1.6 -1.6 -1.6 -1.6 -1.6 -1.6 -1.6 -1.6 -1.6 -1.6 -1.6 -1.6 -1.6 -1.6 -1.6 -1.6 -1.6 -1.6 -1.6 -1.6 -1.6 -1.6 -1.6 -1.6 -1.6 -1.6 -1.6 -1.6 -1.6 -1.6 -1.6 -1.6 -1.6 -1.6 -1.6 -1.6 -1.6 -1.6 -1.6 -1.6 -1.6 -1.6 -1.6 -1.6 -1.6 -1.6 -1.6 -1.6 -1.6 -1.6 -1.6 -1.6 -1.6 -1.6 -1.6 -1.6 -1.6 -1.6 -1.6 -1.6 -1.6 -1.6 -1.6 -1.6 -1.6 -1.6 -1.6 -1.6 -1.6 -1.6 -1.6 -1.6 -1.6 -1.6 -1.6 -1.6 -1.6 -1.6 -1.6 -1.6 -1.6 -1.6 -1.6 -1.6 -1.6 -1.6 -1.6 -1.6 -1.6 -1.6 -1.6 -1.6 -1.6 -1.6 -1.6 -1.6
-1.6 -1.6 -1.6 -1.6 -1.6 -1.6 -1.6 -1.6 -1.6 -1.6 -1.6 -1.6 -1.6 -1.6 -1.6 -1.6 -1.6 -1.6 -1.6 -1.6 -1.6 -1.6 -1.6 -1.6 -1.6 -1.6 -1.6 -1.6 -1.6 -1.6 -1.6 -1.6 -1.6 -1.6 -1.6 -1.6 -1.6 -1.6 -1.6 -1.6 -1.6 -1.6 -1.6 -1.6 -1.6 -1.6 -1.6 -1.6 -1.6 -1.6 -1.6 -1.6 -1.6 -1.6 -1.6 -1.6 -1.6 -1.6 -1.6 -1.6 -1.6 -1.6 -1.6 -1.6 -1.6 -1.6 -1.6 -1.6 -1.6 -1.6 -1.6 -1.6 -1.6 -1.6 -1.6 -1.6 -1.6 -1.6 -1.6 -1.6 -1.6 -1.6 -1.6 -1.6 -1.6 -1.6 -1.6 -1.6 -1.6 -1.6 -1.6 -1.6 -1.6 -1.6 -1.6 -1.6 -1.6 -1.6 -1.6 -1.6 -1.6 -1.6 -1.6 -1.6 -1.6 -1.6 -1.6 -1.6 -1.6 -1.6 -1.6 -1.6 -1.6 -1.6 -1.6 -1.6 -1.6 -1.6 -1.6 -1.6 -1.6 -1.6 -1.6 -1.6 -1.6 -1.6 -1.6 -1.6 -1.6 -1.6 -1.6 -1.6 -1.6 -1.6 -1.6 -1.6 -1.6 -1.6 -1.6 -1.6 -1.6 -1.6 -1.6 -1.6 -1.6 -1.6 -1.6 -1.6 -1.6 -1.6 -1.6 -1.6 -1.6 -1.6 -1.6 -1.6 -1.6 -1.6 -1.6 -1.6 -1.6 -1.6 -1.6 -1.6 -1.6 -1.6 -1.6 -1.6 -1.6 -1.6 -1.6 -1.6 -1.6 -1.6 -1.6 -1.6 -1.6 -1.6 -1.6 -1.6 -1.6 -1.6 -1.6 -1.6 -1.6 -1.6 -1.6 -1.6 -1.6 -1.6 -1.6 -1.6 -1.6 -1.6 -1.6 -1.6 -1.6 -1.6 -1.6 -1.6
