ncols 200
nrows 83
xllcorner 240000
yllcorner 843450
cellsize 50
342.2 344.2 343.7 343.8 346.3 348.1 348.9 347.6 343.8 338.2 342.5 344.2 343.9 341.1 339.5 342.6 344.7 342.9 347.2 350.8 350.8 348.9 348.4 352.8 352.6 350.6 349.5 348.8 348.3 348.9 349.4 349.8 351.2 348.4 347.6 345.4 340.8 338.3 336.5 333 333.3 335.1 333 330.7 336.1 337.2 336.9 336.6 339.6 339.7 345.8 348.2 351.5 355.5 359 361.1 361.6 360.2 359 354.9 352.2 350.8 349 345.9 343.6 342.4 340.7 338.2 335.7 333.2 330.9 330.5 335.8 341.2 345.6 349.8 353.2 365.2 371.4 373.2 375.3 375.8 374.6 373.3 370.4 370.1 368.6 365.2 361.9 360.6 360.6 360.9 361.1 362.8 365.7 367.1 366.5 375.4 388.1 397.9 396.3 388.7 380 374.3 367.9 363.7 358.9 360.2 358.9 359.2 355.6 353.8 361.3 366 366.5 366.5 371 374.6 374.2 372.3 364.6 359 353.3 351.3 348.3 347.4 346.2 344.9 346.2 349.8 349.5 353.7 357.9 359.6 350.9 344.1 337.8 334.4 331.9 325.8 320.2 318 319.9 311.1 306.6 303.5 302 298.7 294.8 291.3 291.8 291.3 291.5 286.3 286.7 287.5 289.2 291.6 300.1 302.5 300.5 298.3 295.2 294.1 294.5 295 294.4 294.8 295.9 305.2 315.7 322.8 326 327 327.5 326.4 322.8 315.3 307.8 302.5 299 296.7 299.8 298.9 291 279.8 273.1 266 261.6 256.7 254.4 253.5 252.9 251.4 251.1 250.6 249.5 248.7 248.2 244.6
345.4 346.3 346.1 345.6 347.4 349.8 349.9 345.6 345.1 346.8 345.9 347 349.9 348.1 348.9 349.7 351.1 356.1 357.9 357.3 358.7 358.4 358 364.6 364.4 361.4 360.1 357.5 361.6 361 359.4 359.2 359.4 358.8 357.4 352.5 348 345.6 343.8 343.5 343.5 342 343.1 342 347.2 349.3 347.8 349 345.3 353.1 358.7 362.9 366.5 368.4 368.8 370.6 370 367.7 365.1 360.6 357.5 354.6 352.5 350.1 348.4 346.8 344.6 341.9 339.5 335.7 334.1 329 336.9 343.3 347 352.6 360.4 369.8 375 377.2 378.6 378 377 372.5 369.7 367.8 366 363.7 363.6 363.1 363.5 364.8 366.6 369.9 371.7 368.8 375 387.6 393.4 397.9 390.8 381.2 377.2 370.6 366 362.7 361.8 361.3 360.3 359.1 358.1 363.3 367 367.1 368.5 370.9 368.7 370.2 367.6 362.2 358.1 353.1 351.6 350.9 349.2 348.3 345.7 345.6 346.6 351.6 356.8 365 364.2 356.6 351.6 346.6 339 334.5 330.3 328.1 326.3 326.1 322.8 312 306.9 305 302.7 299.3 293 290.7 288.4 286.8 286.3 286.3 285.9 287.5 288.4 294.5 301.5 302.6 302.1 301.3 297.3 295.7 295.7 295.2 294.6 296.3 306.1 316 323.3 326.7 327.4 327.3 332.6 326.2 317.8 310.8 302.5 299.5 297.1 298.1 300.7 297.5 285.5 275.8 270.7 266.7 262.4 259.4 256.2 256 255.7 255.3 256.6 257.3 256.7 253.3 249.1 245
349.9 351.9 350.6 351 353.5 353.6 352.4 351.5 351.7 352.6 353 354.6 355.7 355.5 355.6 359.9 362.9 364.7 365.9 365.5 367.1 366.6 368.4 373 372.9 371.4 369.2 367.7 371.9 372.1 369.5 370.7 367.3 367.8 363.9 358.1 355.2 353.5 350.7 350.9 351.3 352.6 354.3 354.4 356.8 358.4 356.5 359.4 362.6 367.4 370.8 372.9 375.1 377 377.9 377.9 375.9 373.5 369.8 366.4 363 359.6 357.2 355.5 353.3 350.4 348.1 345.9 341 338.4 335.9 332.1 337.8 346.2 351.1 359 365.4 372.4 377.6 380.3 380.3 379.4 377 373.9 368.7 366.1 364.9 363.7 364.3 365.2 372.6 378.4 374.9 372.5 371.1 376.1 383.9 392.6 397.9 392.4 387 376.5 371.2 367.5 366.3 365.1 363 362.2 361.4 358.7 359.7 364.2 366.3 366.2 367.2 366.6 364.2 361.7 359.4 357.6 355.7 353.6 352.6 352.5 350.5 348.7 345.6 347.3 351.3 356.3 365.4 367.6 364.2 363.2 355.9 348.5 339.6 335.2 330.6 331.8 333.6 327.5 322.4 314.1 308.2 305.8 301.8 299.4 296.3 291.5 288.1 286.4 286.3 286.3 286.3 287.4 290.8 293.5 298 300.8 301 300.5 300.7 297.7 296.2 295.4 295.3 300.4 309.6 317.9 324.1 327.8 325.3 321.7 320.7 316.5 313.4 306.1 300.9 298.1 296.3 295.1 293.6 290.8 282.6 278 272.2 265.8 260.5 258.7 257 255.9 255.8 256.9 257.5 257.6 256.7 253.7 248.5 243.6
354.8 355 355 357.7 356.5 356.4 355.1 356.1 357.4 360.2 360.2 361.7 362.3 362.6 365.3 367.3 370.6 372.5 372.1 372.2 375.7 375.9 378.8 383.6 383.6 381 375.8 377.7 381.2 384.3 380.4 379 374.7 374.6 369.3 364.4 362.9 361 361.6 361.8 362.4 364.3 364.5 365.1 365.7 366.5 369.1 370.1 375 377.8 380.1 383 383.7 384.5 385 384.5 382.1 380.1 376.4 372.7 369.3 365.9 362.6 359.7 356.8 353.8 351.1 347.4 342.3 339.2 336.8 332.7 340.5 347.7 357.2 364.1 369.9 376.5 380.2 382.9 381.8 380.7 376.7 375.3 369 366.7 365.9 365.6 367.8 375.2 383.5 382.5 375.8 373.7 374.3 381 388.6 391.6 393.6 387.2 381.2 375 372.7 369.2 367.3 366.5 365.2 364.1 363.1 361.8 365.1 366.5 366 365.5 364.8 364 362.7 361.3 359.4 357.9 356.4 354.7 354.3 353.8 352.2 348.6 349.1 349.6 353.6 362.1 367.1 369.5 369.9 360.9 352 348.1 342.3 339.6 340.9 342.9 336 330.1 323.9 317 311.4 307.7 303.4 301.5 296.1 293.9 288.7 286.3 286.3 286.3 286.3 290.3 292.7 294 299.3 301.1 303 303.9 302.8 301.7 298.1 295.9 295.7 297.5 307.6 311.9 315.6 318.5 316.7 313.8 309.9 308 306.1 300.3 298.9 298.4 298.9 295.9 291.7 289 285.2 277.7 269.3 263.1 258.9 258.3 257.2 256 255.3 256.3 256.1 256.3 255.3 250.5 246.2 242.3
361.2 358.1 360.6 360.1 360.1 360.8 362.1 364.8 365.5 366.4 365 367.3 368.2 370 371.6 374.4 377.6 378.5 378.9 381.2 386.1 387.4 386.8 391.7 393.2 390 383.9 388.8 390 390.9 387.3 385.3 382 380.4 376.9 373 372 371.3 371.3 371.9 373.7 373.4 375.6 376.1 377.3 375.9 378.2 382.1 385.4 386.8 389.1 390.8 391.7 394.2 394.5 391.7 389.1 387 384.4 381.2 377 372.7 368.2 362.4 358.6 355.6 351.9 346.4 343.4 340.6 337.2 337.1 345.9 350.5 360.3 366.5 374 380.3 383.5 384.5 383.4 382.3 379.7 377.3 370.6 367.9 367.2 368.7 370.7 383 384.6 375.6 375.9 374.2 376.3 382.8 389.3 390.5 389.6 380.9 380.5 377.2 377.3 369 364.4 364.7 364.9 363.4 362.4 363.1 364.2 365.7 366.4 365.5 364.9 364.4 362.8 361.6 360.5 359.4 358.3 357.3 356.4 354.3 352.6 350.4 348.8 350.3 363.9 367.5 372.3 371.2 360.8 355.3 350.7 346.8 343.4 348.1 350.2 347.2 339.6 334 326.5 319.8 317 311.5 304.6 300.7 301.4 300 288.3 286.3 287 286.9 287.7 292.1 293.3 299.6 303.3 307.9 310.4 307.1 304.7 303.3 301.6 299.2 296.7 297 298.8 308.1 310.3 310.1 308.8 306.1 301.8 300.1 300.6 300 300.8 296.7 296.4 297.8 297.4 293.1 284.4 273.9 265.4 260.6 256.2 254.9 255 253.4 252.6 251.6 250.8 250.8 247.1 244.4 241.6 239.2
363.9 364.1 367.3 367.3 367.1 367.9 368.5 371.9 373.2 372.5 369.6 373.2 374.6 375.8 379.9 381 384.2 386.4 388.3 389.6 393.8 394.8 394.4 398.1 398 392.2 391.5 395.2 396.5 399 398.2 392.8 390.4 387.5 384.2 382.4 381.7 382.6 383.3 384.8 386.3 387 386.5 385.6 385.3 386.5 386.2 390.5 392 394.6 397.1 398.9 401.5 402.8 402.2 400.7 399.7 396.6 392.7 386.3 382 376.5 370.9 366.8 361.7 357.3 352 346.6 344.3 341.4 339.5 339.8 349.1 353 364.5 369.5 378.7 383.4 385.1 386.2 384.8 384.7 381.4 377.3 375 374.2 372.9 373.9 376.2 385 382.6 371.9 373.5 374.7 380.3 388 389.1 385.5 381.1 380.1 382 378.8 371.7 364.7 363.3 363.9 364.2 363.9 364.1 364.6 365.2 366.2 366.7 366.3 366 365.9 364.8 363.6 362.5 361.3 359.8 358.3 356.5 354.3 352.3 351.1 355.9 361.5 364 363.7 360.6 357.9 357 352 349.4 347.4 347.4 352.1 357.1 352.6 348.6 341 329.6 325.3 321.4 315.2 305.2 301.2 304.1 297 288 287.8 292.9 295.2 295.9 300.1 304.9 312.5 317 318.4 313.9 309.1 307.4 305.2 303.5 301.7 298.5 297.5 298.9 304.1 306.9 306.3 304.5 302.5 297.7 296.9 297.6 304.1 304 296 296.3 300.9 300.3 294.3 283 272.7 263 257.1 252.6 251.1 253.1 251.6 248.7 247 245.3 244.8 242.8 240.6 238 235.1
371.7 370.2 370.8 371.3 375.6 375.5 373.5 374.3 377.5 377.7 377.4 379.6 383.3 383.1 387.9 390 392.9 395 396.3 397.7 400.2 401.3 401.7 401.8 401.2 399.6 400.2 404.2 404.7 405.7 405.5 401.4 398.2 395.2 391.5 389.2 390.3 391.7 393.4 395.3 396.7 398.2 395.9 394 394.7 393.4 393.1 395.8 399.1 402.6 405.9 407.2 410.4 410.2 410.2 409.3 407.4 402.1 396.5 390.2 384.9 378.7 372.9 368.8 362.4 359.7 354.7 348.3 345.2 345.2 338.9 345.2 352.4 356.6 367.4 376.2 381.8 385.9 387.5 387.7 387.5 386.3 383.4 380.1 381.6 381.9 378.2 376.1 382.7 384 373.1 366.9 370.3 380.7 381.8 385.6 383 381.5 378.6 378.2 378.5 371.6 366.2 364.3 363.4 363.2 363.2 364.5 364.9 366.5 367.2 367.8 367.8 367.6 367.7 367.7 366.7 365.3 364 362.8 361.1 359.5 358.6 356.3 354 355.3 358.3 357 356.8 359.2 357 355.8 354.8 351.2 349.9 349.3 353.2 359 363.5 365.1 352.4 342.5 334.3 331.1 319.2 316.3 306.4 305.4 304.8 294 291 296.8 300.3 303.5 306.7 309 316.1 322.5 325.6 322.7 313.8 309.4 307.5 306.1 304.2 301.9 299.1 300 300.8 304.1 304.7 305 304.1 301.3 295.8 295 297.8 303 297.2 297.6 304.8 302.8 296.8 288.5 279.5 272 261.9 254 249.7 248.8 249.4 249.4 246.7 244.6 243 241.2 238.6 236.3 234 230.3
379 378.2 375.7 378.1 380.9 379.1 379.7 381.3 382 381.4 385.4 384.6 389.9 393.3 397.3 397.7 398.8 402 402.6 403.7 406 406.6 409.7 408 405.2 405.2 409.8 411.1 412 410.9 411.4 410.3 406.8 404.7 400.9 398.5 400.5 400.7 402.5 407.5 408.4 407.3 405.7 403 401.1 400.6 400.8 403.5 407 411.1 412.9 415.1 416.5 417.7 417.8 414.8 410.4 405.2 399.6 393.4 386.9 381 376.6 370.7 363.9 359.6 355.4 348.1 351.1 345.7 340.2 347.1 353.2 361.5 368.2 378.7 382.9 386.5 387.9 389.1 389.8 388.5 385.8 380.8 383.9 383 378.7 377.2 381.1 379 366.9 366.9 373.3 376.3 379.9 382.8 375.8 375.9 376.1 375.6 372.1 369.1 365.9 364.5 364.2 363 360.3 364 366.8 368.5 368.4 369.2 369.5 370.4 371 369.9 368.3 366.6 365.5 365.3 363.6 361.3 359.3 357.8 356.5 356.8 355.7 351 356 357 352.2 350.1 351 351.7 352 351.7 355.6 366.3 370.1 370.7 358.8 344.6 340 334.5 316.9 312.1 313.6 307.1 300.7 297.9 303.1 304.5 305.9 313 317.7 322.7 325.6 324.3 324.9 318.7 314.2 309.9 307.3 305.8 303.9 301.5 301.3 304.5 306.4 309.5 309.8 307.9 304.3 296.4 289.3 288.1 295.2 297 291.6 290.6 299.8 299.2 289.8 281.8 274.6 266.4 258.8 253.2 248.3 246.2 246.3 247.4 244.9 242.6 240.6 237.8 234.9 232.3 229.8 225.8
384.8 383.5 384 384.6 384.3 387.4 385.7 388 389 390 393.2 391.7 399.4 401.1 403.7 403.8 406.7 407.5 408.6 410.5 411.2 412.9 414.6 414.1 411.3 411.8 415.6 417.3 417.8 418.5 419.3 417.8 415.6 412.4 410 408.9 410.4 411.9 414.1 417.4 415 415.1 412.8 409.9 408.6 407.7 409.8 410.3 413 416.5 420.2 424.3 427.3 425.6 422.3 418.2 412.8 407.3 400.8 393.8 388.1 383.9 379 370.6 361.6 359.5 354.1 350.1 350 347.7 343.5 345.5 353.7 362.8 372.8 378.3 384.7 387.4 389.4 391.2 392.5 391.2 385.9 381.4 381.1 381.7 380.2 378.9 377.2 371 366.9 366.9 367.7 376.8 372.4 373.2 372.7 374.7 374.9 373.8 368.9 367.2 366 365.7 364.3 359.3 358.6 364.6 366.9 366.3 367.2 370 372.2 372.7 372.8 371.9 370.7 369.6 368.5 367.5 366.5 364.4 362.3 360.2 357.4 356.1 353.1 348.2 349.3 350.6 347.6 347.5 350.2 351.2 352.4 352.8 362 369.8 375.8 374.6 372.6 354.4 333.4 321.3 319.2 320.8 313.2 306.7 301.6 307.6 311.3 311.9 318.6 329.9 328.4 332.2 330.4 328.9 327.2 320.6 314.8 310.3 307.1 305.5 304.2 303.3 306.8 310.5 313.3 314.9 314.9 307.8 298.7 290 285.7 285.7 288.3 289.4 284.5 286.6 293.5 294.1 286.8 276.7 269.6 263.2 257.2 251.6 246.8 243.5 243.4 243.2 241.9 240 237.9 234.4 232.9 231.1 227.7 224
391.1 392.6 389.4 389.5 391.1 390.9 393 395.7 399.5 395.7 398.2 400.7 406.2 406.2 407.4 412.1 412.7 414.1 413.6 415.2 417.3 417.1 418.5 418.1 415.8 417.4 419.9 422.6 424.2 426 426.4 425 423.2 421.5 419.6 419.3 418.4 421.3 420.6 422.1 423.1 422.5 420.6 419.3 417.9 417.1 416.7 422.3 424.6 429 431.5 432.4 431.2 428.2 423.6 420 414.2 407.7 402.3 395.5 389.3 384 375.7 368 363.4 360.6 354.5 351.3 349.8 347.1 348.5 348.8 350.6 364.1 372.7 378.9 384.4 387.3 390.3 393.8 391.8 388.2 384.3 382 380.3 381.4 378.9 376.3 372 368.1 366.9 367.4 367.6 371.6 368.1 368.3 370.4 375.2 372.4 370.2 368.1 366.3 365.8 365 362.3 357.6 356.3 357.7 360 362.7 366.7 370 373.8 375.9 376 374.4 373.7 373.3 372.7 370.8 368.1 365.7 363.8 362 359.4 355.8 352.1 347.1 344.7 345 343.4 343.4 346.2 351 353.7 356.9 365.1 368.2 364.1 371.1 366.1 344.4 323.7 318 323.7 319.4 315.1 312.2 311.2 317 316.5 322.4 330.3 339.2 340.1 338.9 338.7 335.3 328.9 321.2 314.5 310.4 306.6 305 304 308 312.6 317.2 320.8 321.9 313.4 304.2 290.7 284.8 281.7 282 282.9 278.7 277 277.7 285.2 287.6 280.5 271.8 265.7 259.8 254.5 249.2 245.1 242.7 241.4 240 239.3 236 233.4 229.6 230.4 229.7 227.3 224.2
397.2 397.8 396.1 399.3 401.5 397.4 401.6 404.4 403.5 404 406.4 409 411.9 413.6 415.6 416.9 416.6 416.3 418.6 419.4 419.7 421.8 422.5 421.4 421.7 423.6 428.4 433.2 433.8 434.4 434 432.5 433.9 433.1 430.6 429.4 425.9 427.6 428.2 432.3 434.1 431.9 428.6 427.2 428.3 425.8 429.9 433.4 435.4 436.1 434.9 433.4 431.6 428.8 424.4 419.9 413.3 407.4 400.9 394.3 387 382.4 372.5 367.3 365 360.2 356.1 352.7 347.8 346.4 352.9 349.1 353.7 366.6 375.4 379.6 383.6 386.7 388.6 389.3 387.3 385.7 383.5 382 380.1 376.9 374.8 372.3 369.2 367.4 366.9 374.4 371 369.2 365.2 366.2 369.1 370.4 368.9 366.8 365.4 365.3 364.5 362.4 358.6 354.3 353.5 353.8 358.6 362 366.1 370.5 374.8 377.8 379.2 377.1 375.7 375.5 374.2 372.9 369.2 367.1 365.3 362.7 360.9 357.5 351.7 342.6 344.6 341.3 333.6 339.6 347.3 354.2 354.8 354.3 359.7 362.8 362.1 359.6 347 321.6 316.4 317.1 320.1 316.8 313.1 315.9 324.6 326.5 326.4 331.1 342.9 350.2 344.8 345.7 341.8 337.1 330.5 319.3 312.9 308.8 304.8 304 308 313.8 319 323.2 329.8 318.2 308.2 293.8 281.6 279.4 277.4 279.1 276.5 270.3 265.4 266.8 270.2 276.2 274.1 266.2 262.1 257 251.8 247.2 244.8 242.2 241.1 238.8 236.6 233.3 230.2 228.8 225.4 224.8 224.2 222.3
405 402.6 404.4 408.2 405.2 407.1 408.9 411.7 413.9 413.6 415.4 416.6 419.1 419.9 421.2 421.5 420.8 420.7 422.6 424.5 424.6 426.6 427.3 426.3 426.4 430.5 437.8 440.4 442.4 444.2 442.5 443.8 445.2 443.7 440.1 438.3 435.3 437.3 438.4 444.2 445 442.7 439.5 437.9 437.5 435.9 437.4 438.8 437.4 436.1 434.7 432.9 431 428 423.6 416.1 409 404.4 395.4 389.2 382.5 376.2 370.4 367.2 366 362.8 357.1 350.9 348.7 350.2 351 348.3 360.2 365.8 376.8 378.8 380.3 382.3 385.7 383.4 380.4 379.4 379 378.2 373.5 373.2 372.3 371.1 372 371 373.2 366.2 368.2 365.8 363.6 364.4 365.4 366.6 366.6 366.3 363.6 362.6 358.6 355.4 352.3 350.8 351.2 352.6 357.4 363 367.6 375 381.7 382.4 380.7 379 377.3 377.3 375.4 372.4 369.7 367.9 365.2 363.1 361.5 358.1 347.8 331.6 335.6 329.7 333.3 341.4 348.2 349.9 351.4 353.3 358.5 369.7 366.6 348.5 332.9 317.4 311.1 315.9 313 312.7 314.2 323.9 328.3 329.4 332.1 336.4 350 352.7 352.7 350.5 346.7 340.2 328.3 316.8 310.9 304.6 300.2 302.2 309.6 315.8 317.7 320.2 321.4 309.4 292.6 279.3 277 280.7 276.2 279.9 272.5 263.8 261.8 258.5 257.7 260.5 268.3 264.7 259.8 254.2 249.1 246.9 244.1 241.6 240.8 238.5 234.7 231.2 228.5 227.9 224.5 223 220.8 216.3
411.5 410.6 411.8 413.1 413.1 414.4 417.5 419.2 419.6 419.1 421.7 423.6 423.5 426.8 427.2 426.2 426.2 426.8 427.9 429.6 429.7 430.8 431 431.9 434.4 437.8 443.1 447.2 449.2 449.9 451 453.4 454.2 454 452.2 451.2 449.7 446.8 447.3 449.9 449.8 449.5 448.3 447.6 446 443.6 441.3 439.3 436.6 434.7 432.7 431 428.2 424 418.1 407.4 405.7 399.3 392.1 383 379 375.3 373.8 368.1 363.2 360.6 356.8 352.1 351 350.8 350.2 349.3 360.7 367.5 372.7 373.2 375.1 376.2 378.9 373.4 375.6 378.7 377.2 374.8 373.6 373.3 374.7 376.5 377.3 373.5 368.1 366.8 362.5 366.7 361.9 367.1 364.8 365.9 365 363.8 358.7 356 354 352.3 349.9 349 349.8 351.5 357.7 363.3 373.7 380.3 381.4 381.9 380.8 379.2 378 377.9 374.8 372.7 370.3 366.7 363.8 361.2 359.1 350.7 340.6 323.6 322.6 327.6 331.2 340.4 348.2 353.3 352.8 354.4 355.7 361.5 357.9 339.4 317.3 308 310.3 308.8 308.4 309.8 310.2 324.3 331.1 332.5 335 343.7 348.3 349.2 356.5 347.9 347.5 338.9 324.1 317.3 310.1 300 295.4 295.1 300.1 307.9 307.6 308.9 308.2 292.4 277.3 270.9 270.4 269.8 270.2 270.1 268.4 260.6 258.1 255.7 250.7 251 255.4 260.9 257.5 251.4 248.2 245.1 242 240.1 238.3 234.5 231.2 228 228.3 227.6 224 222.9 219.2 214.3
416 416.5 416.9 417.8 419 422.9 422.8 424.1 424.7 426.6 427.3 429.1 430 431 431.1 430.4 430.8 432.1 433.1 433.6 435.2 436.5 437.4 438.8 441 444.3 449.3 452.1 454.4 458.8 462.9 465.4 465.7 464.3 466 464.5 460.9 455.6 454.4 454.3 453.8 454.1 453.6 451.2 448.3 444.2 440.6 436.8 434.4 431.3 428.5 425.1 420.4 415.6 411.5 399.6 398.3 390.1 385 379.8 379.7 375.3 371.6 364.2 363.9 358.6 353 351.1 350.9 349.9 348.7 353 358.5 364.2 366 368.3 366.4 365.3 365.4 365.4 370.5 377.5 377.4 376.3 376.1 377.4 378.2 379.7 372.8 365.7 360.4 365.3 360.7 359.9 365.8 364.9 362.6 365.7 362.8 358.4 355.5 353.7 351.8 349.4 348.4 346.4 347.5 351.4 359 367.2 373.4 376.5 378.9 380.3 380.5 379.4 378.7 377.7 375.7 373.5 368.7 365.3 362.3 359.2 353.1 343.1 332 322.2 322.2 326.7 336.5 349.2 357.7 353.6 352.4 354.4 355.9 357.5 348 332.3 314.6 300.4 310.8 307.9 310.7 306.5 316.6 331.9 336.1 334.5 341.6 347.4 348.4 354.6 354.6 346.1 344 333.1 319.9 318.8 304.3 295.3 290.4 288.8 289.1 293.2 295.6 295.7 284.8 276.6 269.5 263.4 261.4 260.5 267.8 267 262.3 255 252.8 250.9 248.4 247.3 249.3 251.4 252.4 249.6 247 242.2 238.9 234.9 234.3 231.1 229.4 228 229.5 228.2 224.7 222.9 220.7 216.9
422.8 423.2 423.1 424.9 425.7 428.1 427.7 430.7 428.8 430.5 432.5 433 435.7 436 437.5 436.6 436.9 437.5 438.6 439.7 440.8 441.6 442.6 442.6 446.5 449.6 453.8 457.2 462.9 469.3 473.6 475 474.3 474.9 475 471.8 467.4 462.2 458.8 456.9 455.9 455.5 454.6 452.2 446.9 441.7 437.9 434.4 431.4 423.4 421.4 416.5 408.7 404.5 398 392.8 390.8 382.2 378.5 378.9 376.8 372 365.8 361 360.8 355.1 353.4 351.3 349.8 348.6 350.8 354.4 358.7 363.8 362.9 364.8 362.9 365.8 371 371.2 373.2 377.2 377.6 378.2 375.4 377 377.8 378.8 363.5 357.7 359.1 361.6 358.3 365.4 363.8 359.4 360.9 359.5 358.1 357 354.8 352.4 350.4 347.9 345 344.8 348.8 355.5 364.3 368.8 371.3 373.1 374.5 378.1 379 379.4 378.8 377 375.2 371.3 366.8 364.6 361.2 355.5 343.8 331.5 324.1 322.2 325.5 324.5 331.6 352.4 349.4 347.9 353 357.5 357.8 351.9 346.5 319.6 301.7 298.6 304.9 301.9 307 305.8 324 332.7 332.6 334.5 343.3 347 347.2 355 348 342.4 338.7 320.7 315.1 310.4 301.6 293.6 284.8 285.7 284.5 282.4 282.1 276.7 270.9 266.9 262.2 260.5 258.8 258.4 264.4 261.5 255.7 250.5 248.1 245.8 243.2 242.7 243.5 247.6 251.5 248.2 242.7 236.2 231.9 230.7 230.2 229.4 229.5 228.9 230.1 226.4 224.5 223.7 221.5 216.9
427.6 427.9 428.9 430.1 430.3 432.7 433.1 434.4 435.7 437.8 439.4 440.3 441.7 441.9 442.1 442.3 443.2 444.9 445.6 445.2 445.2 447.4 446.5 447.6 452 455.7 460.6 464.6 472 476.9 481.2 482.1 481.4 481.6 479.4 475.4 470.8 464.9 462.1 458.1 455.8 453.3 451.4 445.7 440 437.4 432.9 429.8 422.9 414.7 412.3 404.8 392.8 391.2 382 381.6 380.8 375.4 374 372.8 372.2 370.1 362.6 357.1 355.7 353.9 353 352 349.6 351 352.2 354.4 355.3 356.1 357.7 362.1 365.1 367.2 370.2 373.7 374 378.1 377.9 376.4 374.9 372.9 371.2 370.1 360 356.4 356.3 354.5 356.7 358.8 353.8 356.9 358.2 357.3 356.7 356.1 354.5 352.1 347.8 345.1 343.3 345 349.4 356.9 364.8 369.5 368.6 369 370.7 374.7 375.9 376.6 377.7 374.1 370.7 368.2 365.2 362.1 355.6 346.9 337.5 327.6 327 328.8 331.3 325.1 326.9 342.2 343.6 345.3 347.7 347.2 350.3 354.5 332 307.8 296.7 296.9 294.1 301.4 303.6 307.4 317.7 323 329.3 333.3 337.3 341.8 346.9 340.7 333.6 332.2 327.3 314 312.5 308.7 300.2 295.5 283.7 279.2 278.1 274.4 272.8 267.1 258 258.4 259.7 257.3 254.7 256 257 252.1 250.8 246.1 243.4 240.3 238.8 238.5 239 245.4 249 244 235.5 228.7 227.1 227.6 227.8 229.3 228.8 227.9 227.3 227.2 227.7 225.4 221.7 217.5
432.4 433.6 435.7 436.2 436 437.6 438 441.5 444 446.1 448 447.9 448.4 448.2 448.3 449.8 450 450.8 452 453 452.5 451.2 451.6 453.2 456.8 460.6 465.1 471.9 477.4 482.7 485.6 486.8 486.2 485.3 481.4 478.1 473.6 468.5 463.4 457.6 453.6 451.1 447.7 440.6 434.9 432.1 426.1 420.6 412.8 402.3 399.2 391.3 386.8 381.6 380.9 380.8 380.3 377.2 376 371.8 369.4 367.7 357.5 354.5 354.1 353.8 353.3 350.5 349.2 350.3 352.3 353.2 352.5 352.3 359 363 364.2 365.5 371.7 374.8 376.9 378.4 378 376.3 374.1 372.2 368 365.2 358.2 353 355.9 348.1 349.7 349.2 351.3 354.3 355.7 356.1 357 356.1 353.2 349 345.3 342.5 343.3 348.4 351.2 354 359.1 360.2 363.5 365.4 367.4 370.4 375.5 376.4 373.2 369.8 370.1 367.1 363.1 355.5 351.7 345 336.9 323.2 323.8 334.9 337.1 329.4 325.3 334.3 339.9 339.8 345.5 349.8 355.7 339.8 316.5 292.9 287.1 293.4 295.2 300.8 306.6 306.8 313.2 317.6 325.4 328.3 332.7 336.6 338.6 333.3 323.8 320.7 315.8 314.2 312.8 307.4 301.4 299.5 288.9 281.4 273.5 268.1 264.9 264.1 259.1 254.8 252.2 251.5 247.2 250.1 246.1 244.8 243.8 240.9 236.7 234.8 234.4 235.2 236 238.4 241.5 233.4 227.8 223.8 223.8 224.4 226.4 226.2 225 224.8 225.4 227.2 229.1 225 221.4 217.2
437.6 439.1 440.6 442 442.7 444.6 446 449.2 451 453.4 454.9 454.8 454.3 455.9 456.8 457.1 456.9 457.3 456.5 456.2 457.2 456.1 456.9 460 463.5 467.3 471.1 476.3 482.7 485.8 488.7 491.3 489.8 485.8 483.2 480.8 475.6 468.6 462.3 454.4 450.2 447.9 444.6 437.7 432.5 427 419 409.9 404 395.7 391.9 386.7 382.2 382.6 382.5 383.4 379.5 377.2 376.4 370.4 364.8 358.4 353.9 353.3 353.8 353.1 351.1 350.3 349.7 350.7 351.8 352.1 352.7 352.8 361.6 360.5 362 365.1 370.9 376 378.1 377.7 377.6 377 375.9 370.7 368.8 363.7 351.7 350 350.3 344.5 344 345.3 351 354.4 355.3 356.7 356.8 352.7 350.5 346.4 342.3 342 347.5 348.8 348.2 346.4 348.6 352.6 358.5 361.3 363.5 366.6 372.3 371.3 368.2 369.5 368.4 365.2 358.4 352.6 349.2 341.6 331.8 323.4 323.2 334 325.2 324.9 323.4 321.3 329.5 336.9 339.8 334 329.5 321 302.1 284.4 287.9 298.5 301.8 295.7 297.7 304.9 314.3 318.7 319.9 323.3 329.9 336.2 340.2 331.9 324.2 316.9 315.9 313.6 310.8 307.5 303.1 300.7 292.8 282.2 273.3 267.2 260.6 258.8 256.6 248.8 245 246.2 242.8 242.6 242.2 240.3 239.8 237.1 232.8 231.4 232.5 232.4 233.2 230.8 228.8 224.4 220.7 221 221.4 222.1 223.2 222.2 221.1 221.3 221.1 225.1 226.4 223.3 219 213
446.6 447.2 449 449.8 449.3 450.2 452.2 454.9 456.3 458 460 460.6 461.6 461.3 463.2 464 463 463.1 462.3 461.3 460.6 461.7 463.7 464.8 468.6 472.6 476.8 481.1 485.9 489.1 491.2 491.3 487.4 484.7 482.4 480.8 476.8 465.2 457.7 451.3 447.5 443.8 438.5 433.1 427.1 418.9 411.6 404.6 395.6 392 390.9 386 387.8 383.7 383.8 381.2 378.8 373.8 366.5 362.5 360 354.6 353 351.7 352.9 351.6 350.5 349.6 350 351.5 350.8 351.4 353.4 354.8 358.6 359.4 362.5 367.6 371.9 376.8 376.6 375.6 376.1 377 375.9 371.1 366.7 358.1 349.3 349.4 344.5 341.8 340.7 344.5 350.8 352.7 356.8 357.8 352.1 349.5 347.3 339.6 340.8 343.9 343.4 342.2 337.1 335 337.7 348 353.9 355.8 353.8 358 361.7 361.8 366.6 371.1 365.7 359.9 352.6 352.6 344 337.2 330.9 321.6 316.7 323.5 323.5 329.9 319.9 310.3 309.5 324.2 324.9 316.7 317.8 304.8 286.7 288 294.1 289.7 286.2 287.7 296.3 301.4 307 309.7 314.1 324.6 335.3 340 338.7 326.7 320.2 315.9 313.9 313 311.5 308.6 305.3 302.8 291.8 281.3 271.7 264.3 258.2 249 245.8 239.3 239 239.5 237.8 240.5 239 237.3 235.1 232.5 229.6 229.8 230.6 230.3 229.2 226.1 223.3 220 218.7 219.1 219.3 219.1 217.8 218.2 217.5 216.9 216.8 219.2 219.4 217 214.1 207.9
455.1 455.7 456.7 456.2 455.3 456.3 458.5 459.3 461 462.5 465.6 466.7 467.5 469.2 471.1 470.4 467.4 467.9 467.3 466 465.3 466.3 467.5 469.1 473.2 475.6 478.6 483.5 486.7 489.6 489.3 488.3 486 482.7 482.4 478.2 468.3 460.6 454.9 449.9 446.7 441.7 434.9 427.9 419.1 415.3 407.7 399.7 392.6 391.2 388.9 387.6 386.4 382.2 381.8 372.5 372.2 366.7 361 359.6 357.6 355.2 352.7 352.7 351 350.4 350.7 350.9 351.2 350.5 350.1 352.3 352.6 352.8 355.2 360.3 367 371.9 374.8 376.6 374.5 373.8 373.5 375.9 374.7 366.9 361 351.7 348 349.6 343.3 338.4 339.2 343.6 348.3 354.5 358.4 351.3 347.4 347 340.3 334.8 339.3 339.2 336.4 332 330.6 329.2 331.6 335.8 344.9 347.5 346.9 348.9 351.6 359.7 366.7 362.1 356.7 352 345.8 344.3 333.7 332.8 327.4 319.8 317.4 316.5 319.7 320.2 314.3 308 309 304.9 300.4 297.1 290 273.1 267 269.8 282.7 286.2 284 284.3 294.4 296 302.6 306.6 317.4 326.7 333.9 334.3 330.5 326.4 320.2 314.7 313.3 313.1 314.3 313.1 307.1 297.1 286.6 276.1 265.9 257.6 248.2 238.7 236.6 235 237.1 234.9 234.4 237.1 232.4 231.2 228.8 227.6 227 228.7 228.2 227.3 225 221.9 218.7 217.8 217.9 217.5 216.3 214.6 213 212 212.3 212.6 212 211.8 211.6 208.8 205.2 198.6
461.7 462.1 462.7 461.3 460 460.7 463.1 464.2 467.4 470.4 472.5 473.8 474.9 476.4 476.5 474.9 472.9 471 469.2 469.1 468.5 469.2 470.7 471.6 473.4 475 478.4 482 485.3 486.7 487.1 487.1 485.3 483.3 479.9 472.2 465.3 461.5 456.6 449.3 447.8 445.6 434.5 423.1 414.3 410.3 403.4 396.2 392.8 393.4 388.7 388 380.6 379.6 373 368 364.2 362 358 356.8 355.1 352.4 353.4 354.4 353.6 352.3 352 352.1 353.3 352.4 351.7 351.8 351.5 352.4 354.9 360.2 367.6 371.9 375.4 375.6 371.9 372.6 372.9 373.3 370 362.4 355.1 350.7 348.7 346.2 340.8 335.6 338.8 344.7 348.8 356.6 351.6 345 342 336.9 332.5 332.1 330.8 330.2 328.4 326.9 323.3 323.8 324.7 330.2 335.3 336.7 341.1 347 353.5 357.2 355.5 352.5 349.6 346.7 338.7 334.1 330.1 328.7 325.7 318.7 313.1 307.7 308 310.1 307.3 310.8 313.1 291.3 283.4 280.9 272.1 264.4 269.8 274.3 281.2 286.5 272.9 277.6 288.2 289.4 292.3 300.7 313.4 321.7 329.5 331.9 330 327.1 320.3 314.1 313.6 316.8 314.7 310.8 301.6 289.6 282.6 268.4 260.3 250.1 240.7 236.3 231.6 235.5 237.6 232.2 232.1 228.2 227 226.2 225.4 224.3 223.3 224.2 224.7 223.1 220.3 217.3 215 215.3 215.7 214.5 213 212 209.9 207.2 205.7 206.7 205.6 203.8 202.5 199.6 195.5 188.6
467.7 467 466.6 466.5 464.8 465.5 468.6 470.2 473.6 475.9 476.9 478.5 480 481.7 481.4 478.1 475.5 473.6 471.4 470.9 469.2 469.2 470.3 469.5 470.2 471.7 475.7 479.4 482.7 485.4 485.3 485 484.2 482.4 474.5 471.5 469.5 464.8 459.1 451.5 452.6 445.6 428.1 420 411.5 408.3 402.8 393.4 391.6 389.8 385 382.7 380 375.9 371.1 368 366.3 363 359.3 358.1 357.2 355.4 356.7 355.5 354.8 354.8 354.4 353.6 355.2 352.5 351.3 350.8 353.6 356.1 357 359.6 363.5 369.6 372.6 371.3 370.5 370.2 371 367.3 363.4 359.2 355.9 353.7 353.1 344.8 335.6 335.1 339.7 344.4 347.5 349.5 342.7 339.8 335.5 331.2 328.8 327.1 324.4 319.4 319 318.5 315.9 315.6 316.3 319.6 325.7 331.1 339.7 346.1 346.5 350 349 346 339.9 337.2 335.9 330.3 329.1 329.8 326.1 309.3 304.8 303 302.9 302.2 300.8 298.1 296.4 288.2 281.1 277.2 263.3 260.8 262.7 272.9 277 269.7 259.6 271.9 275.2 281 286.7 294.3 304.6 315.4 328.4 332.5 326.4 322.6 314.8 312.9 316.4 314.3 310.9 302.9 296.8 287.8 266.6 257.3 251.1 241.7 238.1 237.4 229.2 230 227.8 229.3 229.4 224.9 223.4 222.7 221.9 220.5 219.3 219.5 219.6 217.8 214.7 212.3 212.1 212.1 212.2 211.2 209.7 209 206.8 203.6 202.2 200.4 198.6 196.7 195.7 192.5 187.1 181.3
473.9 473.2 472.3 471.9 471.5 473.5 476.2 476.7 478.1 479.5 481 481.1 483.7 484.1 482.5 480 477.3 474.5 472.7 471.3 469.2 464.8 465.6 465.1 465.1 467.4 469.4 475.2 480.2 483.6 484 480.9 481.3 480.7 479.2 474.2 472.7 464.6 465.8 447.8 450.2 435.2 422.5 416.6 412.4 406.5 396.3 392.9 390.5 388.2 386.3 384.3 381.2 376.1 371.6 368.5 365.4 363.1 359.8 357.6 359.9 359.6 360.5 358.9 360 360.4 357 354.7 355.1 352.2 352 352.8 355.5 357.9 358.6 361.3 365.9 370.1 370.9 370.4 368.8 368.6 367.8 365.5 364 361.2 359.6 357.7 351.5 338.1 332.1 334.3 340 340.9 341.4 341.1 334.4 331.5 325.2 323.5 316.4 313.5 316.4 310.9 308.2 304 302.5 304.6 307.9 311.8 317.6 328.5 336.6 337.7 338.2 339.8 339.7 337.3 334.3 330.7 332 329.3 327 326 312.1 304.8 306.6 301.2 296.6 289.1 288 285.9 286.3 282.4 274.2 258.4 251.5 249.2 253.9 261.5 255.5 252.4 253.1 264.3 267.2 272.9 279.1 288.7 294.8 309.5 329 323.8 323.9 319.9 311.2 313 318.7 318.5 315.3 301.7 289.2 271.6 254.2 247.7 237.7 233.5 231.5 231.2 226.3 225.8 223.9 222.7 223 221.7 219.7 217.7 216.7 215.5 215.2 216.7 215 212.5 210.1 209.1 209.5 208.3 208.1 207.5 206.3 206.8 202.8 200 197.7 195.6 192.8 190.2 188.9 184.2 178.1 172.8
477.2 477 476.9 478.5 480.5 481.4 481.2 480.9 482 483.5 484.3 485.6 484.7 484.1 481.4 479.4 477.5 474.3 472.3 469.2 466.6 461.9 461.1 460.1 459.7 464.1 466.7 472.6 476.9 479.3 478.7 482.1 483.3 483.5 479.2 472.5 464.4 460.6 455.6 443.3 439.4 429.1 420.7 417.3 413.5 401.4 397 393.2 391.7 390.2 389.4 385 382.3 379.7 373.5 368.8 371.4 366.1 365.3 363.1 364.9 367.5 365.3 364.4 364.2 364 360.7 355.9 355.4 354.1 353.7 354.7 356.7 358.4 361.6 365.3 367.8 370.4 370.6 369.1 367.8 368.1 368.2 368.1 367 363.9 361.3 355.3 343.5 333.1 329.3 334.7 337.3 338 336.2 330 328 322.6 319.4 312.8 310.5 307.1 305.8 306.2 302.4 297.5 300.2 302.3 306.4 315.8 318.8 318.7 324.8 326.5 329.7 332.8 330.3 323.6 323.2 325.1 321.8 313.5 305.9 300.9 301.2 303.4 302 301.3 287.1 283.3 282.7 284.2 283.6 283.5 265.3 248 241.9 240.1 240.9 243.7 239.7 240.9 245.8 251.2 255.8 266.7 273.4 279.6 287.4 302.2 313.3 318.5 320.8 310.6 310.8 321.5 325.8 323.8 313.5 298.7 276 259.6 244.7 237.7 232.8 229.9 230 224.2 221.3 223 223.8 220.6 220.4 219.4 217.3 212.6 210.7 209.7 210.4 210.7 208.9 207.9 207 206.9 207 205.8 204.4 203.7 202.5 200.5 197.8 194.8 192.1 189.2 185.4 182.6 177.2 171.9 169.1 165.1
482.7 485.2 486.2 486.8 486.2 485.7 485.8 485.9 489.2 491.4 489.9 491.7 490.8 486 482.5 479.5 476.2 472.9 471.8 467.7 461.5 460.1 460.3 460.5 460.3 461.2 464.3 472.1 475.3 478.4 480.4 480.8 481 483.8 472.2 468.6 461.1 451.5 441.2 438.6 436.6 428.2 420.9 418.5 405.3 403 399.9 399.8 397.7 396.6 396.2 390.4 387.6 382.3 380.2 385 375 373.6 372.9 372.6 372.2 375.7 371.1 370.3 369.1 366 360.5 358.3 355.7 355.7 356.3 357.6 356.8 359 363.7 366.5 368 370 369.4 368.9 369.7 370.1 370.8 373 370.5 363.9 357.8 348.4 336.2 330 326 333.4 335.2 332.1 329.2 324.4 322.3 319.4 309.7 305.1 304.3 303.9 301.9 300.4 295.5 293.1 297.1 299 305.5 309.3 314.7 315.8 312.3 310.1 315.4 316.7 315 318.4 317.9 313.7 304 294.8 294.8 296.8 297.9 300.4 296.3 294.1 286.7 286.4 281.3 282 272.1 265.1 252.4 244.8 240.2 237.8 236 236.9 237.8 239.2 241.6 245.4 251.5 259.2 263.8 273.2 288.3 301.9 301.6 313.4 309.5 307.3 313.7 323.4 323.7 313.9 299.6 282.8 262.2 250.8 240.7 235.8 230.2 225.7 223.7 220.8 219.6 220.8 223 219.6 217.2 216.3 211.4 207.3 205 204.3 205 205.3 205 205.2 205.2 205 203.7 202.3 200.8 198.8 197.4 194.6 191.8 188.8 185.9 182 178.5 174.5 170 166.5 161 155.3
490.9 491.8 493.1 493.1 493.5 493.4 491.9 494.9 495 497.2 496.1 496.1 493.9 490 482.1 479.2 477.1 475.6 470.3 464.7 461.6 459 458.6 458.7 457.7 457.8 464.5 473 475 476.7 476.5 477.5 474.8 470 467.3 463.5 452.5 444.1 440.1 441.1 438.9 426.5 418.3 412.1 411.6 409.1 409.8 404.1 402.6 403.9 397.5 397.2 395.1 396.6 392.9 389.2 385 387.6 380.9 382.2 381.2 380.4 376.6 374.2 370.4 365.5 360.9 359.1 356.8 357.3 356.9 356.5 356.2 357.5 362.4 364.9 367.9 369.9 370.1 370 371 373.8 376.4 374.1 370.7 363.1 355.7 337.8 328.1 328 322.2 330 328.9 328.3 323.6 321.7 317 308.6 307.2 305.9 305.4 302.2 300.6 297.4 295.3 290.3 293.1 296.4 297.8 301.1 306 302.7 297.6 298.3 295.9 301.1 308.2 304.7 298.9 289 286 280.4 280.6 280.2 279.5 281.6 286.7 290.7 278.9 276.7 268.5 264.8 257.5 254.6 249 244.4 237.6 236.2 235.3 236.3 236.6 238.7 240.2 245.1 250 254.9 257.8 268.7 283.9 289 294.3 302.3 301.5 306.6 310.8 317.1 311.3 297 281.5 267 252.6 247.6 240.3 235.5 229.3 223.6 221.5 220.2 218.6 218.1 217.6 215.6 212.8 210.2 205.4 203.3 202.1 201.6 201.7 202.2 202.6 203.1 202 200.7 199.3 197.7 195.5 193.5 191.6 189.6 186.3 183.2 179.9 176.5 173 169 164.7 158.4 151.5 146.2
496.6 498.4 499.7 499.7 499.4 498.6 498.8 500.4 499.9 500.9 499.8 499 496.1 490.8 482.1 479.3 474.5 470.6 468.2 464.1 460.3 459 459.3 460.4 459.1 457.9 464.9 469.1 472.5 473.6 473.1 469.9 465.2 462.7 462.6 458 447.1 437.1 437.4 440.3 433.9 419.2 422.4 424.7 418 419 416.7 414.1 414.7 413.4 407.6 411.4 405 409.3 400.9 397 397.2 397.1 392.2 391.6 384.8 380.7 378.6 375 369.8 363.2 360.9 358.8 358.3 356.6 356.4 354.7 355.6 356.8 360.9 366.9 369.1 370.7 371.5 374.5 377.1 377.9 376.8 371.4 366 356.2 347 326.6 320.3 319.3 321.3 326.5 327.6 324 320.5 316.3 309.4 307.3 307.1 307.8 304.1 302.6 298.9 296.5 292 290.4 288.2 287.3 291.3 291.9 288.5 288.6 289.2 285.8 290.5 293.3 288.9 279.5 279.5 277.6 272.4 268 267.6 268.2 265.7 262 263.5 259.3 254.9 268.8 256.3 253.2 250.8 247.7 240.9 240.2 236.6 234.5 234.6 235.4 235.3 236.8 239.4 243.6 248.9 252.8 260.7 270 283.9 284.8 289.6 291.8 291.3 304.9 308.6 302.5 291.5 281.5 269 257.1 252 243.6 238.7 236.6 229.7 223.7 222.1 220.6 218.5 215.8 212.3 210.1 207 202.6 200.7 199.5 199.1 199.2 199.7 200.4 201.1 200.6 197.5 195.8 194.6 192.4 190.2 188.3 186.3 184.3 181.6 178.9 176 173.4 169.5 165.5 158 150.6 145.2 143.7
504.5 507.4 508.9 507 506.2 506.7 506.5 509.1 506.2 503.4 502.9 503.5 497.8 490.4 484.2 480.7 475.8 469.7 466.3 463.1 461.5 459.3 459.8 461.8 460.2 459.8 461.7 464.6 470 471.4 469.8 466.2 460.2 456.2 453.1 447.8 442.8 436.4 431.2 426.3 423.2 429.8 432.5 429.7 429.3 426.5 427.8 426.5 425.2 426.8 423.5 420.5 415.3 418.7 413 412.4 410.2 402.5 395.7 392.5 387 384.1 379.1 374 367.1 361.4 358.9 357.7 356.5 354.8 353.7 352.1 353.3 358.6 364.4 367.4 370 372.5 375.8 378 378 376.5 370.9 368.9 364.6 347.3 330.9 315.9 311.4 315.8 321.6 325.9 322 322.4 311.2 309 307.5 306 306.5 306 305 302.2 297.3 295.4 296.1 296.4 293.1 292 284.5 285.6 284.5 281.4 281.1 277.7 280.9 276 274.2 264 258.4 261.7 256.8 258.6 260.3 255.9 251.2 245.7 246.7 247.7 251.4 258.4 256.6 255.8 249.2 239.5 234 232.2 235.5 231.4 232.7 232.4 235.3 238.2 239.6 242.4 247 260.3 268.6 275.6 281.1 284.5 292 285.5 283.1 290.4 289.7 282.5 277.5 272.3 260 255.2 246.7 240.4 237.4 231.8 226.1 223.2 221.5 219.8 217.2 213.8 209.6 203.8 200.3 197.3 195.5 195.7 197.6 198.1 198.5 199.1 199.7 196.7 193.6 190.8 189.5 187.1 185 183.6 182.4 180.5 177.1 174.2 171.8 169.2 166 156.9 152.6 149.3 147.9 146.4
513.3 516.2 517 518.2 518.7 520.4 521.1 519.2 514.6 512.7 510.3 512 505.6 493.6 486.6 481.3 475.4 469.9 468 462.9 460.7 462 462.8 462.5 460.6 454.2 457.3 460.3 465.7 468 466 459.5 451 445.8 444.7 445.7 440.4 436 428.6 431.6 432.4 436.1 440.7 440.7 436.2 435.3 437.3 439.3 439.1 438 436 431.1 427.1 425.4 424.3 421 414.1 404.8 398.6 393.4 387.1 383.5 378.1 370.8 363.3 359.2 356.8 355.6 354.5 353.4 351 349.3 355.3 359.9 363.6 366.2 369.3 371.9 376.6 372.6 372.1 367.8 368.1 363.8 350 334.3 318.7 307.9 308.5 317.2 318.5 317.6 323.8 308.8 307.9 307.8 307.1 305.6 304.1 304.5 302.4 299.6 297.1 299.2 299.1 298.5 294.8 290.8 286.4 281.5 279 276.8 274.5 272.7 273.2 269.4 264.5 260.9 254.4 252.9 252.3 252.3 250 250 248.8 247 245.2 245.7 249.7 259.9 261.4 247.4 238.8 244.8 239.5 237.8 232.7 228.1 229 231.9 233.3 242.5 237.1 240.6 247.4 260.2 264.3 273.4 284 292.5 293.2 279.9 277.6 278.1 280.2 269.5 265.7 260.7 257.1 251.5 242.8 235.8 232.6 226 223.7 222.8 221 218.6 215.2 210.5 206 199.5 195.2 193 191.9 195.2 197.1 197.6 197.2 197.7 196 192.8 189.7 186.6 184.4 183.1 181.9 180.7 179.1 176.4 172.9 169.6 164.5 160.2 156.4 155.1 151.5 147.7 145.6 143.2
523 525.2 527.6 529.7 532.4 533.7 530.9 528.6 523.7 518.4 515.2 513.1 508.5 495.6 486.1 481.9 482.3 476.2 468.5 464.5 463.7 464 462.8 462.8 460 451.4 450.1 453.7 461.3 460.9 459.3 453.9 442.8 440.4 442.1 445.7 433.8 431.4 435.6 435.8 437 438.8 444.6 447.1 443.7 445.7 447.6 446.6 447.3 446.4 445.7 441 438.1 433.3 429.7 423.3 412.9 406.3 399.7 391.8 386.7 379.4 372.6 362.8 359.9 357.9 355.4 353 352.3 350.9 347.7 349.2 353.5 358.8 361.9 362.6 361.8 366.6 367 365.9 363.6 361.9 359.9 348.9 337.3 322.2 308.5 297.6 310.3 311.2 310.9 310.7 307.8 306.1 306.4 307.2 305.4 303.8 301.7 301 298.2 299.6 303.4 305.1 301.8 299.9 296.4 290.1 284.9 279.8 277.6 272.8 271 266.9 270.1 265.9 261.6 256.5 254.8 253.5 253.1 253 256.8 254 248.9 248.7 247.2 244.6 244.5 249.6 246.2 241.4 244.7 239.7 240.6 239.8 233.4 230.7 232.5 225 232.1 230.3 228.3 236.6 245.3 255 262.2 273 290.8 290.6 276.3 272.8 276.8 271.8 271.2 271.7 265.5 261.9 256.9 248 236.9 231.1 227.7 225.5 223.6 222.2 219.2 216.1 211.3 205.5 199.7 193.6 192.5 190.9 191.4 194.9 197.5 197.7 197.2 195.6 192.8 189.7 186.6 183.5 181.7 180.8 179.6 177.3 174.9 172.5 168.6 164.1 163.8 160.9 155.6 148 147.8 144.9 142.3 137.9
532.3 536.4 538.8 541.1 545 544.5 541.5 536.2 531.7 524.7 517.9 515.3 507.4 493.4 491.2 487.2 484.5 476.5 468.6 465.8 465 464.2 463 459.4 456.4 450.5 447.2 448.2 453.4 453.7 450.5 444.1 439.4 437.4 436.3 435.5 432.4 435.4 436.8 438.8 439.2 439.4 444.6 447.2 448.1 452.5 451.4 449.9 452 451.5 448.3 444.4 440.2 435 428.7 415.3 410.7 406.5 399.9 390.5 381.3 376 363.7 357.9 356.6 355.9 354.8 352.1 349.1 348.7 343.7 346.9 353.3 355.7 355.7 355 356.1 357.3 354.4 356.9 348.9 345.1 341.4 337.8 320.4 310.9 299 298.3 304.8 304.7 309.1 301 303.5 302.8 307 309.1 305.4 305 297.5 294.6 294.8 304.2 309.8 307.6 304.9 301.1 294.9 288 279.6 280.2 276.1 272.6 267 265 263.6 261.9 261 257.1 255.7 255.3 255.4 254.6 254.1 253.3 256.4 255.8 253.1 247.7 246.7 244.6 247.7 243.4 241.2 237.2 236.5 234.2 234.5 230 228.7 222.5 228.8 224.2 219.9 226.3 239.3 248.7 256.8 276.4 279.4 268.3 261.5 274.3 266.5 270.7 276.6 268.3 264.3 260.3 252.3 239.2 228.9 226.9 226.4 225.3 223.2 219.9 216.8 212 206.8 199 192.8 189.5 189.9 191.9 192.4 195.3 197.2 197.3 195.7 192.7 190.6 187.7 184.6 181.8 180.2 179.3 176.8 173.9 171.5 169.4 166.3 165.5 162.5 155.6 152 147.9 144.9 141.1 136.8 132
542.3 547.2 550.8 553.4 554.8 555 553.8 551.7 543.3 535.1 525.9 517.9 507.5 499.2 493.9 489.7 485.2 478.5 472.1 467.9 465.1 462.3 458.5 457.2 452.3 447.3 445.2 443.7 444.1 444.3 441.5 438.7 438.6 437.8 435.6 435.3 433.7 435 434.9 436.6 437.7 436.5 438.1 441.4 449.7 454 453.7 453 454 452.6 448 442.5 436.5 428.8 420.5 412.7 411.3 407.9 394.1 383.6 375 363.4 360 355.9 355.2 354.7 353.3 351.1 347.9 344.4 340.3 345.1 348.9 350 348.6 348.1 348.4 346 343.7 340.7 335.7 331.6 328.6 317.7 305.2 296.4 288.2 289.5 296.7 299.2 301.4 298 298.7 302.7 305.3 304.5 302.4 297 289.8 287.2 291.6 304.6 308.5 307.3 302.9 296.2 290.1 283.1 272.1 273.9 270 268.1 266.7 264.7 255.7 264.6 261 255.4 254.9 254.9 258.5 259.7 259 256.9 257.9 257.5 257.5 254.4 254.6 251.8 249.5 244.5 240.2 238 233.3 231.6 231.7 229.3 223.5 220.8 222.7 219.1 216.9 216.6 225.1 238.9 252.4 269.2 262.5 253.7 257.6 267.7 260 272.3 262.7 260.3 260.1 252.2 240.5 229.5 227.4 226.8 226.2 223.8 221.1 216.9 212.1 207.2 199.3 191.8 187.5 187.9 189.6 191.7 193.7 195 196.1 195.6 193.5 189.9 186.8 185.7 182.5 180.7 178.9 176.5 173.5 170.6 168.3 166.3 165.1 162 155.6 150.8 147.6 144.6 141.1 136.8 131.1 125.8
551 554.9 558.8 563.2 567.2 570.2 567.5 562.6 556 546.7 537.2 528.9 519.3 510.7 499.9 491.8 489.9 482.9 473.3 469.5 471 464.5 462 457.2 454.5 450 444.9 442.4 441.5 440.4 439.2 437.7 435 436.1 434.9 433.2 432.9 431 434.4 431 426.5 434 438 440.1 449 453.8 453.4 452.9 451.8 448.6 438.9 431.7 425.7 419.9 412.1 410 408.6 399.9 386.8 377.5 369.2 362.2 354.1 354 355.6 353.2 351.5 348.4 343.5 338 337.5 340.1 343 342.2 340.7 342.5 341.7 334.5 336.3 328.9 325.3 319.7 310.2 295.3 294.3 282.8 276 279.6 284.3 285.1 287.6 293.2 298.1 299 301.7 304.8 293.3 286.9 279 282.9 292.5 305.8 308.9 304.1 296.2 287.2 281.6 268 270.5 274.9 270.3 267.6 264.9 261.3 251.1 254.1 255.1 255.1 255.5 259.5 264 265 261.2 258.1 258.2 258.8 257.1 255.8 256.7 251.2 247.3 241.1 239.3 240.8 234.8 233.3 226.6 222.7 217.7 218.1 219.8 216.7 216.4 216 216.6 227.3 242.5 255.3 244.5 243.7 252.1 256.4 260.9 255 246.3 244.5 241.9 233.3 229.9 228.5 228.1 227.7 225.7 223.2 218.1 213.7 207.3 199.5 191.5 186 187 189.9 191.2 193.2 193.9 195.1 194.4 192.9 190.6 187.4 183.8 182.5 180.4 177.9 175.5 173.6 170.7 169.8 168 163.5 159.8 153.8 151.2 147.4 144.4 141.6 138 130.2 125.1 116.7
554.4 558.2 563.2 570.8 576 576.7 576.1 571.2 563.9 558 553.6 539.7 525.6 513.3 503 499.1 496.9 487.8 477.4 481.9 476.8 470.3 465.4 460.3 455.7 456.4 447.3 444.1 442.1 439.9 438.2 435 432.1 432.3 432 431.4 432 429.3 427.2 424.1 419.6 428.1 429.9 439.4 445.6 446.9 448.6 449 443.5 437.1 431.2 424.2 418.2 412.8 408.6 407.8 402.6 391.2 379.8 374.4 367.2 358.2 352.1 354.2 353.6 349.1 343.5 339.1 336.2 331.8 333.5 336.2 335.7 333.8 331.6 332.9 326.1 324 322.3 318.5 312.2 306.4 288.9 285.8 289.7 277.4 261.4 274.1 274.8 276.7 282.8 290.5 291.7 297.6 306.1 293.8 283.1 276.8 271.7 279.3 295.4 302.1 300 293.9 283 269.9 261.5 263.8 276.3 276.9 272.3 263.5 262.1 253.2 249.1 253 257.2 260.7 259.6 262.8 264.8 263.3 261.9 261.3 259.6 261.6 262.6 257.6 253.4 244.8 239.9 240 241.5 236.3 233.4 227.6 222.1 214.9 215.7 219.3 219.4 216 215.9 215.7 216.4 219.3 229.9 234.8 234.7 244.2 249.7 250 249 244.9 239.5 238.5 230.8 230.3 229.9 230.7 230.3 227.5 225.5 221.9 216.1 208.1 198.6 190.4 185.4 184.1 187.4 190.9 192.9 193.9 194.5 192.8 191.5 190.3 188.1 185 181.2 179.9 177 174.1 171.5 169.7 169.7 168.7 165.4 158.5 151.8 149.3 148.7 145.1 141.5 136.9 131.6 124.2 115 109.4
553.9 558.1 562.7 570.9 576.3 580.1 581.3 578.2 573.4 567.8 559.2 540.5 528.2 516.1 513.7 506.5 499.9 490.3 487.4 487.6 479 476.3 472.1 468.4 464.1 461.8 448.7 445.8 443.1 444.6 446 440.8 434.6 430.8 430.6 428.6 429.5 426.7 421.2 419 421.2 422.7 427.9 435.1 438.6 441.5 438.7 434.6 428.7 427.7 422.8 417.7 412.8 410 407.5 403.3 393.2 385.2 377.2 373.1 361.5 355.4 350.3 351.7 347.8 340.6 335.4 333.2 328.6 328.3 328.6 330.1 326.7 324.2 320.1 318.3 317.9 316.6 310.2 306.3 298.1 290.1 271 269 268.9 258.3 259.3 268.5 269 270.3 276.1 279.6 286.8 292.2 291 277.6 270 267 260.8 268.3 281 283.6 279.4 275.1 267.7 259.1 255.5 265.2 278 271.4 269 257.3 252.8 254.1 246.5 254 255.4 259.4 260.4 262.3 265.2 262.8 261.5 259.8 260.9 264.7 263.6 255.7 242.8 239.7 238.4 237.5 239.4 232 228.1 217.7 209.3 208.1 214.2 216.4 218.1 214.8 215.8 216 216.2 218.6 222.9 226.4 234 241.6 244.1 245.1 243 239.2 234.8 231.6 230 231.6 236.7 236.3 231 227.3 224.6 217.2 209 200.6 190.9 186.3 183.5 184.4 188 191.5 194.2 194.7 192.6 190.9 189 187.5 185.6 182.5 178.8 176.8 173.8 170.8 167.6 165.9 165.6 163.6 158.4 152 146.4 144.7 143.9 140.7 134.3 127.9 120.1 115.8 107.3 103.9
551 553.2 557.4 566 572.7 580.3 582.4 579.7 575.7 568.4 554.2 540.7 529.1 524.9 518.8 509.2 502.3 495.9 495.1 489.7 485.2 481 480.6 478.9 473.9 464.9 450.8 452.3 451.7 455.4 451.7 443.6 436 433.3 430.3 426.7 425.6 421.1 415.4 412.9 415.4 417.4 422.5 427.5 426.6 427 423.5 421.6 420.8 419.1 415.9 414.8 411.9 405.9 401.3 397.2 387.5 381.2 371.9 365.5 359.5 352.9 346.8 342.2 335.8 332.3 326.6 322 321 320 318.5 318.6 319.8 318.2 312 307.8 304.4 304.4 299.4 291.4 285.9 278 259 262 260.5 243.7 259.2 262.7 262.4 264.9 268.6 269.7 277 273.5 275.7 265.8 262.2 258.5 255 259.4 262.5 262.3 262.8 263.2 256.3 260 248.8 258.8 257.5 259.3 254.1 251.8 249.7 246.9 245.3 252.1 249.9 250.2 259.3 264.6 263.9 263.1 262.4 259.5 264.5 261.7 252.5 242.5 238.8 237.8 236.9 232.5 228.9 223.1 215.1 206 203.3 208 211.3 212.8 213.5 218.2 216.2 217.1 218.1 217.9 222.1 226 233.4 237.9 240.3 240.5 237.4 233.6 230.2 229 234.1 243.2 239.2 234.9 231.1 225.4 219.2 209.8 199.3 189.6 184.9 182.7 183 185.4 189.2 192.9 194.1 191.9 190.7 189.1 187.2 185.2 182.9 180 176.6 173.3 170.1 166.9 163.6 160 158.4 155.8 151 145.5 141.2 137.7 136.4 132.7 126.1 119.1 111.3 106.7 103.6 100.2
543.8 547 551.1 558.4 566.4 573.4 577.3 574.6 567 556.5 545.9 537.1 533.1 527.9 517 509.4 506.5 499.6 496.2 491.3 487.5 490.3 490.4 484.6 476.1 464 452.4 462.8 467.3 460.5 452.3 442.5 436.3 432.7 430.2 423.8 421.3 415.9 411.9 411.7 413.3 411.4 417.1 415.5 414.7 414.9 414.7 411.3 412.4 414 410.6 408.6 402.7 399.2 397.7 393.7 382.6 376.7 370 364.2 355 347.5 342.9 335.8 331.1 327.1 324.2 318.8 315.6 312 312.1 310.7 311.3 306 303.2 299.5 295.6 291.8 289.9 284 278.8 265.4 251.3 258 248 236.3 249.4 247.9 248.5 252.6 257.1 261.5 263.2 263.4 260.8 259.3 256.3 255.7 251.4 250.1 250 250.9 252.3 249.8 246.3 247.9 244.4 244.5 248.4 253.6 249.9 247.8 248.6 245.1 245.3 241.1 244.5 247.2 260.2 258.8 262.9 261.4 262 254.9 250 250.3 244.2 239.6 237.5 236 234.6 227.7 219 208.8 201.4 202.1 208.9 208 211.3 214.4 216.9 221.9 216.3 217.1 218.3 220.5 223.5 226.4 231.4 235.5 236.1 234 232 229 228.4 233.8 242 240.6 237.3 233.1 227.4 219.5 209.6 198.4 190.2 185.1 181.8 180.9 182.7 187.6 191.6 193.1 193.1 190.4 188.7 187.3 185.5 182.3 179 175.4 171.3 168 164.5 161.8 158.8 152.7 147.8 144.5 141.2 137.2 132.8 128.8 125.8 121.6 116.4 109.9 105.3 101.5 98.3 96.8
537.3 539.7 542.6 548.5 556 564.3 568.2 562.9 554.5 547.8 542 533.9 528.9 523.4 514.8 510.4 503.1 500.1 495.4 492.1 491.7 491.8 488.3 483.8 474.7 468.6 458.9 476.7 476.1 463.4 452.1 440.9 434.5 431.9 426.4 419.6 414.5 411.2 410.3 409.6 408.3 407.6 409.2 408.8 406.2 405.6 403.7 401.4 401.7 400.7 396.5 396.5 393.8 394.2 389.7 384.2 377.9 374.4 368.2 357.8 348.9 342.9 339.3 331 325.8 319 316.5 314.1 310.7 304.4 301.9 297.8 294.9 295.5 294.4 293.3 290.6 286.7 279.8 273.5 269.8 253 243.3 239.1 235.4 233.7 238.1 238.7 240.7 240.1 246.4 251.9 255.8 258.4 255 252.1 249.9 251.1 250 237.9 243.6 251.8 247.8 248.3 236.4 230.5 230.6 232.1 238.9 239.7 242 246.8 245.4 240.7 232.6 234 241 246 248.2 253.3 254.4 253.3 250.6 245.2 244.1 244.2 239.9 238.1 234.4 232.6 224.1 214 205 197.3 192.7 206.3 207.5 210.3 213.3 218.9 217.6 214.6 217.7 215.8 216.7 216.9 220.1 223.6 227 229 228.7 227.1 226.7 225.8 230.3 235.3 235.8 236.3 234.8 226.5 217 205.8 197.2 189.9 184.6 181.5 179.7 179.2 184.3 189.6 192.8 192.7 191.8 190.5 188 186.1 182.8 179.1 174.1 170.3 166 163.6 159.1 154.1 150.4 146.7 142 138.1 133.2 128.2 123.9 121 116.4 113.2 108 106.3 102.2 98.2 94.5 91.3
531.3 532.8 535 539.1 546.2 554.6 558.2 552.3 546 539.6 532.4 527.2 523.4 518.1 513.8 505.9 499.3 497.3 492.2 490.8 491.7 489.3 486.8 482.3 476.7 471.3 462.2 475.3 470.7 460.9 449 437.7 430.6 423.1 421.9 417.8 413.6 413.2 409.8 406.8 402.2 401.7 402.2 403.6 397.2 394.2 392.3 391.6 391.8 390.1 387.8 387.4 385.4 386.7 381.2 376.4 373.4 368.6 363 350.1 345.1 336.6 326.7 318.4 323 317.7 314.1 309.1 306.5 298.6 288 284.2 283.1 287.2 286.9 288 284.4 280 271.5 273.1 255.5 239.7 236.3 229.7 224.7 227.1 230.4 232.5 232.3 232 236.5 240.8 242.3 246.7 246.2 244.5 236.8 241.7 235.8 226.9 230.3 235.6 232.2 236.4 228.7 216.8 211.8 211.2 219.1 229.5 238.5 238.5 239.2 233.7 222.6 231 239.3 239.5 243.6 241.4 241.5 238.8 239 240.3 243.5 240.5 238.5 236.2 231.7 221.4 206.7 196.8 191.3 187 195.5 204.9 212.7 215.4 217.1 213.6 215.8 214.4 214 214.1 214.9 214.9 216.4 219.7 223.4 223.1 221.1 223.6 223.2 226.7 231.7 231.7 229.9 226.4 221.7 213.6 202.6 194.6 187.8 183.2 180.7 178.6 177.9 180.9 185.6 187.8 188.5 189.7 189.9 188.7 187 183.3 179.2 174.1 169.1 165.2 161.5 158.1 154.3 147.6 143.9 140.6 136.4 130.7 124.5 119.9 116.9 113.8 110.9 107.8 104.2 101.8 98.6 95 91.9 89
520.4 523.8 525.8 529.5 536.4 543.2 547.6 543.4 536 529.6 525.2 522.7 520.5 516.1 507.5 499.1 494.4 491.2 488.8 487.5 486.4 486.4 481.9 476.8 474.4 471.6 464.9 468.7 463.1 455.4 443.6 436.1 423 418.2 412.8 410.5 408.2 407.8 403.9 399.8 397.3 398.7 399 393.7 391.4 390 386.7 385.8 385.3 384.4 379.5 375.7 371.6 370 366 362.3 359.9 349 341.4 332.4 329 338.2 337.4 330.2 325.6 321.2 319.3 313.2 306.8 299.1 292.9 282.6 279.7 280.5 280.5 279.6 277.5 270.3 262.3 255.8 243.8 232.9 229.5 219.2 221.8 224.6 229 232.3 227.1 227 226.3 227.1 229.6 234.5 236.3 230.9 227.7 232.5 231.5 225.9 211.8 213.2 217.8 217.4 209.4 206.2 199.5 204.5 209.4 215.6 224.4 232.8 232 224.4 221.1 226 229.6 229.4 232.3 231.1 228.8 232.3 239.4 241.5 241.1 240.4 238.5 231.8 218.7 203 190.1 185.1 182.8 195.4 204.9 213.7 216.1 212.7 209.9 211.4 214.3 214.1 208 211.4 213.7 211.9 211.7 217.3 218.5 217.3 217.1 219 220.5 223.3 224.8 222.5 218.4 213.3 205.6 199.3 194.1 185.6 182 179.3 177.5 176.8 177.7 181.9 184.1 185.4 185.5 186.3 189.1 185.4 181.6 176.6 172.8 168.7 163.6 158.6 156.7 152.7 148.4 142.3 136.7 133.3 125.8 119.8 115.3 112.9 110.3 108.1 106.2 103.1 100.3 97.1 93.9 91.5 88.7 86.2
511.4 513.4 514.7 519.7 525.4 530.4 533.5 529 524.1 521.2 520.8 519.9 515.4 508 499.4 495.2 491.2 484.8 480.5 479.7 478.3 476.9 473.3 469.5 470.2 467.5 463.3 460.7 455.4 451 440.2 431.2 424.8 421.3 410.6 405.3 399.4 399.3 397.2 394 394.4 400 394.9 386.2 385 380.9 379.4 377.5 376.7 373.7 363.3 360.8 355.4 364.1 363.4 366 371.1 364.8 361.6 356 354.5 349.3 343.8 335.5 330 324 320.3 312.1 307.1 300.2 290.7 285.8 284.6 276.3 267.6 269.2 264.6 261.8 254.3 245.6 236.3 234.2 220.5 217.3 219.2 220.8 223.9 223.6 220.2 216.8 217.8 218.6 220.5 222.3 228.1 224.3 224.1 221.6 222.9 225.7 214.1 195.9 198.3 200.3 204.5 199.6 197.4 209.1 213.7 215.3 218.8 222.1 221.7 220.4 218.2 221.5 222.8 222.3 228.8 222.3 226.3 230.4 233.5 235.8 236.2 234 227.2 215.7 199.4 185.3 177 181.5 192.6 203.1 211.2 213 206.5 204.2 209.9 209.1 210.9 207.1 201.3 206.8 206.6 206.4 208.4 214.1 213.6 212.1 212.8 214.4 215.3 215 215.3 212.3 204.9 198.4 194 189.8 186 181.7 178.1 175.9 175.1 176.2 179.7 181.6 183.2 183.2 181.5 181.6 182.1 178.6 174.6 170.7 167.9 164.5 159.7 155.3 150.5 146.1 142.4 137.3 130.2 126 119.7 112.5 107.8 107.3 105.5 103.7 102.1 98.9 95.8 93 90.7 88.3 85.5 82.7
500.7 502.1 505 508.8 513.4 515.9 516.7 514 512.9 512.7 513.9 511.8 507 500.2 495.5 489.2 481.7 474.6 472.2 470.7 468.8 467.4 464.7 465.3 464.4 461.4 457.3 456.8 453.7 447 437.1 431.6 424.6 416 408.7 399.6 391.7 390.8 390.7 387.9 391.5 392.9 381.8 380.3 374.4 370.9 365.5 365.7 362.5 359.8 365.2 372.9 386.4 390.4 393.8 396.4 389.4 381.2 374.2 370.5 365.6 358.1 353.8 343.3 340.4 336.4 330.3 318.8 311.9 303.4 295.6 292.3 288.2 279.1 274.1 267.5 262.5 253 242.1 235.8 228.3 222.8 214.3 215.3 219 221.2 219.3 215.1 210.7 207 209.5 213 215.4 219.6 222.9 219.1 218.7 219.7 221.1 216 205.3 185.3 183.8 195.5 194.9 192.9 199.8 208.4 207.1 213.5 219.3 218.8 216.1 214.3 218.5 219.8 220.2 218.9 215.6 215 219.3 223.5 225.7 223.1 222.9 220.6 207.4 195.1 182.4 172.9 173.8 185.7 197.5 205.4 204.6 201 200.5 201.4 202.7 202.6 203 201.5 199.4 200.7 201.6 203.1 207.2 209.6 208.7 208.2 209.1 211.6 209 206.3 203.5 199.7 193.3 189.8 187.1 184.1 180.9 176.7 174.9 173.7 175.6 176.2 177.3 180.3 179.3 176.9 173.9 172.6 172.3 170.8 167.6 166.7 163.9 160.9 155.8 150.4 145.2 140.6 136.6 130 122.7 115.8 110 104.6 101.4 100.1 100.1 99.9 95.7 94.2 91.8 89.4 87.3 85 82.3 79.6
489.3 488.2 490 495 499.9 503.8 503.3 504 504.8 505.2 505.5 504 496.7 493.4 487.6 481 469.7 467.3 464.3 460.6 457.8 456.2 456.9 457.8 455.7 453.4 450.5 445.3 445.3 434.9 432.5 425.9 419.6 412.5 403.3 392.3 388.8 386.8 384.9 385.5 386.8 382 375 373 372.5 375 374.3 370.5 367.3 368.6 383.5 397.8 406.7 412.5 413.3 410.4 403.9 393.4 383.9 381.2 374.1 368.1 357.9 349.6 348.2 345.3 337.9 322.7 311.9 300.3 297.8 294.1 284.2 276.5 269.8 263.7 258 253.5 241.4 224.1 214.4 213.8 212.9 215.4 221.7 218.1 208.4 204.9 201.5 203 208.5 209.6 215.8 219.8 218.9 217.7 218.2 219.2 221.3 210 198.1 184.7 177.3 184.9 181.3 183 192.6 196.3 205.5 209 213 213.1 216.6 212 216.2 218.5 220.7 218 211.9 209.4 208.1 207.8 209.4 210.3 209.6 199.4 185.8 177.8 171.4 163.5 174.2 182.9 193.2 197.1 193.7 197 198.3 196.7 194 197.5 197.2 194.9 193.6 197 198.6 200.6 201.8 202.5 202.4 202.3 205 205.2 202.5 196.1 192.1 189.3 187 184.5 182.2 178.4 176.2 169.8 172.4 175.6 174.7 172.1 173.6 173 170.6 168.7 165.5 163.7 162.5 162.1 161.9 160.9 158.7 156 151 145.5 140.3 134.4 129.1 121.3 110.8 107.5 102.3 98 95.1 93 93.4 92.8 91.6 89.8 87.9 85.9 84.4 81.9 79.3 76.8
477.6 477.5 479.2 480.8 487.1 490.4 494.3 495.2 493.9 494.9 496.4 490.6 487.5 482.6 475.7 465.7 459.7 458.9 454.3 449.8 447.3 446.8 447.4 448.7 446.1 440.8 438.9 434.3 431.6 428.7 427.4 423.1 416 405.7 395.8 389.3 387.1 385.5 383.8 381.5 378.5 377.9 376.7 379.6 381.2 378.9 375.5 373.1 377.3 386 393.1 406.4 418 421.4 419.6 416.1 409.8 398.3 394.4 390.5 382.2 371.4 360.4 357.3 354.1 347.9 338.4 325.9 307.2 301.7 297.9 289.1 282.8 276 266.2 262.7 258.7 251.3 230.8 214.6 206.1 206.8 217.4 215 210.3 205.9 200.2 196.4 197.6 205.9 207.5 207.4 207.2 211 222.5 222 218.4 215.7 209.2 201.3 194.3 178.9 174 171.9 171.3 169.8 182.3 188.9 200.2 208.7 210.1 208.6 208.4 209.9 209.4 214.1 213.4 210.9 205.9 201.3 199 197.6 193.4 190.7 183.6 178.5 174.3 170.3 163.6 157.7 168.2 175.5 182.8 188.1 194.2 192.4 187.8 188.3 191.7 193.8 188.7 188.2 194.5 194.4 196 197.6 197.7 194.9 194 195.3 195.8 194.6 190.2 186.7 184.7 182.6 181.4 179.9 177.7 172.1 159.2 171.3 173.3 170.9 168.9 167 165.2 163.6 162.5 160.6 158.9 156.3 156.6 155.7 156 153.8 151.8 149.2 144.5 140.2 135.7 128 119.2 109.7 103.6 99.5 96.2 93.2 91 89.5 88 88.2 88.3 88.1 85.5 84.1 82.6 79.1 76.8 77.7
468.3 468.5 470 470.6 473.7 477.9 482.1 486.1 484.3 483.5 483 479.8 476.2 468.2 461.1 454.4 452 445.9 444.4 440.4 439.3 437.4 439.8 439.7 437.3 437.3 434.5 430.2 427.3 425.6 425.4 421.3 413.5 402.3 395.3 388.1 386.6 384.6 383.1 382.1 383.3 382.2 384.2 385.7 382.6 379.7 375.8 376.5 383.1 392 400.3 410.8 421.8 423.6 421.4 417.8 413.2 407.4 401.1 394.8 385.4 375.4 363.3 358.3 354.9 344.2 336.9 318.8 307.4 299.1 292.2 283.5 278.9 270.6 265.9 260.9 257.4 242.8 218.1 205 208.3 220.8 217.1 215.3 212.9 206.6 196.7 194.8 203.3 206.3 205.7 203.5 202.1 212.4 220.6 221.1 214.6 208.3 200.9 195.7 188 179.8 173.2 170.3 169.9 168.6 176.2 183.6 192.9 200.9 203.4 204.3 208.5 206.2 201 207.7 204.5 202.1 197 195.9 196.5 189.6 181 177.1 175.8 171.1 167.9 167.1 158.7 153.1 160.1 168.2 180 185.3 184.9 182.1 179.9 189 185.3 179.8 179 186.9 189.7 191.5 189.5 189.4 187.6 187.1 185.4 185.7 185.1 183.4 182 180 178.1 177.3 176.1 175.7 171.8 163.2 164.1 169.7 166.2 163.9 162.3 160.9 158.5 156.5 154.9 153.4 152.3 149.5 148.7 148.3 149.4 147.1 142.3 140.1 138.1 132.1 124.9 115.6 106.3 101.1 96.2 92.9 91 89.5 88.4 87.4 86.9 86.5 87 86.1 84.3 81.3 78.4 77 79.1 83.5
458.6 458.3 459.7 463.3 466.7 469.6 472.7 476.7 475.1 472.3 472.2 467.3 460.6 453.2 447.1 442.8 440 438.1 435.9 431.4 430 428.6 429.1 430.5 431.2 430.3 426.7 422.3 417.9 420.7 422.7 414.6 408 398.6 389.9 387.1 385.7 385 385.3 388 389.2 393.8 391.8 386 382.6 378.8 377.3 379 386.2 395.2 403.1 414.4 422.5 424 423 419.2 416.1 410.7 401.4 393.3 386.3 380.2 368.4 358.4 352 342.1 330.2 320.5 306.6 294.8 288 282.6 278.8 276.2 260.7 255.6 244.1 229.7 210.6 198.6 214.6 209 207.5 204.1 199.2 192.5 192.2 196.7 202.6 204.5 203 199.5 200.3 209.1 210.6 204.9 203.7 201.2 195.6 190.1 186.7 180 170.9 170.1 169.8 168.2 171.7 171.9 186.2 188.7 193.9 194.3 200.6 197.4 194 198.3 194.6 189 187.8 186 184.4 177.3 173.2 172.1 169.4 168.3 166.7 164 159.1 144.6 150.3 158.5 166.7 170.3 172.1 171 173.8 173.9 170.7 171.3 176.8 184 183.4 183.1 180.6 179.8 178.3 177.3 178.1 176.9 176.1 174.6 173.3 173.6 172.8 172.7 170.3 168.8 165.5 153.8 161.5 159.5 158.5 157.1 155.5 153.3 151.4 149.4 147.3 145.5 144.5 142.9 140.9 138.9 137.7 135.4 130 126.7 124.7 119.2 110.1 102.7 97.8 93.3 90.9 89.2 87.6 87.3 86.3 86.5 86.2 85.8 85.4 83.9 80.9 77.7 78.6 82.4 87 90.4
451.2 450.2 451.3 454.7 459 462.6 465.6 468 466.5 465.1 461.8 455.2 449.1 442.1 434.6 431 427.6 425.9 426.1 425.1 423.7 421.7 421.8 421.6 422.6 422.9 420 415.8 408.9 414 418.2 410.1 399.8 391.6 388.1 386.3 385.2 386.5 387.6 390.2 400 400 394.7 386.9 379.4 377.5 376.8 379 387.6 397.2 405.7 414.1 421.2 423.8 423.8 421.7 417.6 406.2 398.4 393.1 388.5 381.6 370.8 361.4 350.5 337.1 327.8 317.6 305.3 292.7 285.3 286.8 285 274.1 261 249.1 235.1 221.6 205.3 197.2 198.5 198.1 190.5 188.6 189.2 192.6 196.2 199.5 199.1 201.3 200.7 199.3 200.8 202.7 203.1 204.1 203.6 196 192.8 189.1 181.2 174.5 168 168.5 167 166.9 165.3 167.7 164.8 162.8 171.4 172.9 185.1 179.4 164.9 161.7 169.5 181.8 188.4 182.2 176.2 166.3 162.1 161.3 165.3 167 162.8 158.1 153 143.1 137.4 146.6 155.3 159.1 160.9 164.2 168.2 166.9 162.5 165.4 174.7 177.2 175.4 173.3 173.3 171.8 170.5 168.8 168.5 167.8 167.1 166.4 166.9 168.7 170.9 167.3 161.8 159.8 158.8 153.9 148.8 153.3 152 150.3 148 145.8 143.1 140.7 139.5 137.7 136.4 134.2 131.4 129.3 127.4 122.7 115.4 109.7 106.5 101.9 98.7 94.2 91.3 88.8 87.4 86.2 85.6 85.2 85.4 85.8 85.5 84.8 83.6 80.1 77.9 79.9 84.9 91.1 96.8 98.4
443 442.9 444.4 448.9 452.1 455.3 458.7 459.5 457.3 454.2 451.5 443.8 439.1 431.5 428.2 423.1 421.3 418.1 416.4 415 414.6 412.7 412.1 413.9 415.3 415.5 411.8 409.4 400 400.7 409.6 400.7 391.5 387.7 387.6 386.5 387.2 387.7 394.7 398.7 400.4 397.8 392.2 383.1 377.2 375.8 376.7 379.1 387.7 397 404.6 411.6 418 421.4 422.2 421.6 411.1 401.6 399.7 394.9 385.2 379.2 371.4 359.2 345 329.8 322.6 314.6 304 289.9 293.1 292.1 286.5 262.9 259.9 242.1 226.7 208.6 196.9 194.2 190.4 187.8 187.7 187.7 192.7 200.1 206.7 198.8 200.8 198 198.6 198.9 200.6 199.1 199.1 206.6 201 197.2 188.7 180.4 175.6 169.9 174.6 170.3 167.7 167.4 171.6 175 178.5 177.5 173.8 170.2 159.9 169.3 158.3 173.1 162.6 156.8 174.4 168.3 160.8 151.2 144.3 141.1 152.7 160.3 156.4 153.3 147.6 143.8 137.3 132.5 142.5 147.2 147.4 155.7 158.5 157.3 155.3 159.4 164.3 166.8 166.4 162.9 162.9 162.9 160.4 160.2 161.2 159.1 158.3 159.9 161.3 162.9 160.4 155.8 154.2 153.4 151.7 146.6 137.6 145.4 145.1 142.6 140.1 137.7 134.3 132.4 131.7 130.2 127.1 124.7 121.6 117.3 114.2 108.4 103.2 99 97.6 94.4 92.3 90.1 87.1 85.4 85 84.2 83.7 83.9 84.9 85.5 83.8 82.1 80.4 79.4 81.8 91.4 96.5 98.4 100.8 99.7
437.6 437 439.3 442.5 445.4 448.4 451.4 450.5 446.4 441.7 437.8 435.4 428.5 423.3 418.3 415.4 411.1 408.3 407.1 404.6 403.6 403.6 405.2 405.9 407.1 408 405.7 402.4 395.8 391.2 394.6 388.6 383.2 384.1 385.9 387.1 387.7 389.4 393.1 394.1 394.8 390.6 384.2 377.5 374.5 373.5 375.8 379.7 386 393.4 399.1 404.1 410.1 413.9 415.8 412.3 401.7 400.2 398.5 389 380.6 376.8 367.2 352.7 338.7 324.8 317.6 309.3 299.3 291.6 294.2 290.9 273 254.7 250 229.3 213.6 199.2 197.4 191.1 189.2 187.5 186.4 188 193.6 201.1 198.4 194.5 193.5 195.4 196.5 198.2 198 198.5 195.2 194.4 194.1 186.9 180.9 174.8 171.5 179.3 174.1 168 169 172.4 178.6 184 186.9 189.5 183.4 178 174.3 170.1 195.1 192 177.6 160.2 143.9 142.9 135.5 133.3 132.3 130.6 137.6 150.2 150.1 147.6 143.4 140 135.2 127.7 131.5 134.1 137.5 146.2 148.6 149 145.2 150.2 155.1 155.6 156.4 154.3 153.4 154.7 152.6 152.2 153.1 153.2 152.3 152.9 152.3 151.5 149.7 148.8 147.9 147 145.7 143.1 136.9 134.8 137.7 135.3 132.5 130.3 127.9 125.3 124.1 121.2 118.7 116.7 113.2 108 104.2 100.1 96.9 93.9 92 90.4 88.1 85.5 84 83 83 83 83.9 84.7 85.8 85.7 83.3 81.7 80.5 88.5 93.7 97.1 100.5 101.3 101.4 101
431.5 430.6 432.4 436.4 438.9 441.3 443.8 441.7 437.2 433.6 429.2 424 419.2 414.6 409.3 405.9 402.9 400.3 397.7 396.9 397.1 398.3 400 401.7 401.8 399.8 398.2 393.9 386.3 384.1 381.6 378.2 375.3 380.8 383.8 383.2 382 384.2 385.1 385 386.2 382.9 377.7 372.3 371.2 370.6 373.3 376.5 381.1 387.2 390.9 396.6 403.5 406.1 404.7 401.7 398.1 393.3 390 383.2 379.9 373.2 360.4 347 331.7 321.3 311.7 304 294.2 290.8 291.2 281.1 263.1 248.8 238.9 219.6 203.2 198.3 195.2 188.8 187.7 186.5 186 191.1 192.5 195.2 195.5 188.5 191.8 193 193.4 195.1 195.6 194.3 193.2 190.8 187.3 179.8 175.4 173 173.6 172.5 170.8 170.2 171.5 176.1 185.7 190.5 189.5 189.9 189.1 187.7 185.5 185.2 196.4 190.4 174.8 166.8 160 159.2 156 151 147 141.1 126.9 134.3 139.1 138.1 138.8 135.2 131.8 127 122.8 124.5 129.5 138.3 138.5 138.2 136.2 138.4 142.6 145.9 147.9 147.7 146.6 143.8 143.5 144.1 144.8 145.3 144.4 144.7 143.6 142.7 142.3 142.2 141.5 140.6 139.3 137.1 133.3 125.8 130.1 128.3 126.5 124.5 122.4 120 115.7 111 109.4 106.9 104.8 99.9 96.3 93.5 91.6 90.2 89 86.4 84.3 82.9 82 82 82.4 83.7 85.1 85.6 86.1 82.4 79.8 81.2 90.4 94.7 97.7 100.1 101.6 101.8 103 102.2
420 420.8 425.6 429.7 432.9 434.3 434.3 432.2 428.3 425.4 422.2 418.1 412.7 407.1 401.7 398 396 395.3 391.3 389.8 391.7 393.8 395.1 398.4 397.2 393.6 389.2 382.4 377.9 376.3 374.9 370.2 368.4 372.5 377.4 377.8 375.1 373.9 375.3 379.3 379.5 375.7 369.7 366.1 366.7 367.2 367.8 371.6 374 376.4 381 388.8 396.4 398.6 398.2 401.2 393.2 390.4 383.7 375.8 373.8 363.1 354.1 334.5 323.7 313.5 309.6 303.8 295.2 284.2 279.1 266.3 250 242 225.5 204.6 196.9 195.8 188.3 187.8 186.3 184.8 186.4 191.8 192.5 194.5 194.4 185 183.2 185.3 190.6 196.5 199 188.5 182.7 179.4 175.2 176.6 173.8 175.6 175.1 173.4 172.5 172.3 174.9 181.5 188.9 191.6 191.6 195.5 192.7 196.6 190.5 183.9 182.5 179.9 174.3 170.7 167.3 164.7 162.7 157 153.4 145.6 136.5 124.7 126.2 125.6 127.4 128.5 124.5 120.7 119.2 120.6 125.5 131.6 132.7 131.1 129.4 126.6 131.9 138.4 138.6 137.7 135.7 135.5 136.3 136.5 137.2 137.5 136.6 136.2 137 136.7 136.2 135.5 134.7 134.3 133.1 130.3 127.3 119.3 123.5 122.3 119.8 117.1 115.4 113.6 107.4 106.8 103.9 100.6 96.5 92.8 90 89.2 87.1 86.4 85.3 83.5 81.7 80.9 80.5 81.9 82.8 85 86 86.5 84 80.8 81.6 92.1 95 98 100.4 101.1 101.1 101.4 101.1 99.8
427.2 414.8 418.8 422 425.2 426.2 425 422.5 419.7 417.5 414.7 410.6 405.3 399.4 396.2 390.8 388.4 388.4 384.9 383.8 385.8 389.3 392 393.7 389.1 383.7 378.5 372.7 370.7 368.7 367.6 361.2 362.6 365.8 367.6 369 367.2 365 369.6 373.7 372.7 366.5 363.2 359.1 358.6 359.5 360.5 363.8 366.6 371.6 378.6 386 394.3 392.8 389.7 387.6 384.6 380.5 371.2 367.3 362.1 355.1 342.9 323.8 316.6 315.6 314.1 302.8 291.2 276.4 265.9 251.6 240.1 231.8 209.6 195.9 192.6 187.6 186.8 186.8 185.3 183.5 183.9 186.5 187.4 186.4 185.2 183.5 182.3 181.8 195.7 202.2 193.1 181 176.4 175.3 174.8 177.9 180.3 179.3 178.5 177.5 175.9 177.5 180.6 186.5 192.6 194.9 196.7 196.5 196 196.5 193 184.8 181.6 177.4 174.3 171.8 168.7 165.4 160.7 155.9 152.1 144.7 137.2 130.5 122.6 118.5 118.4 115.9 117.7 116.1 115.4 117 120.7 125.6 126.2 125.8 124.9 121.9 119.7 125.9 127.7 128.9 129.4 128.4 129.1 130.2 129.6 129 129.2 130.5 130.9 130.9 130.1 130.1 129.4 128.8 126 122.2 120.4 115.9 117.1 115.5 112.6 109.1 108.1 104.7 101.5 98.5 96.1 92.6 89.9 87.4 84.9 84 82.6 82.7 80.8 80.5 78.9 79.2 80.5 82 84.5 86.6 85.9 84.6 80.5 79.7 91.4 95.1 97.8 102.4 101.2 100.6 100.6 98.9 96.9 95
423.7 413.9 410.6 412.3 415.7 416 415.6 414.4 412.1 408.2 405.7 402.5 397.3 392.4 388.7 384.1 381.4 380.5 378.1 377.9 380.2 382.7 385.9 384.6 377.4 373.6 367.6 364.2 365.1 362.4 359.1 352.4 360.8 362 360.9 361 359.1 356.7 360.3 365.8 362.3 358.7 354.9 352 351.9 352 350.9 355.4 361.2 367.6 372.6 379.4 384.6 380.9 380.7 377.8 374.5 368.8 361.7 363.3 354.8 348.6 330.7 323.5 323.5 318.9 302.9 292.7 281.4 263.8 254.3 245.9 230.7 220.6 200.3 194.6 197.2 193.8 187.3 185.9 184.9 183.7 183.6 182.7 183.7 183.2 181.1 183 181.5 179.8 188.3 186.7 179.2 176.8 176.6 179.7 184.8 185.7 186.2 185.8 186.5 183.9 184.3 193.4 196.4 199.5 202.5 205.1 203.3 203.5 204.5 202.7 196.3 188.9 182.1 176.9 173.8 170.9 167.1 163.2 159.2 154.4 149.3 142.8 137.1 133.1 130.7 124.8 125.8 112.1 111.3 108.8 108.7 110.5 113.5 117.4 114.7 110.7 112.6 113.2 111.7 115 118 119.4 120.7 122.1 122.3 123.2 122.9 123 123.7 125.3 124.2 124.1 124.6 122.7 120.9 119.8 117 116.5 114.4 112.3 108.7 108.6 105.6 105.7 98.7 97.7 95.8 91.5 87.3 84.7 82 81.2 79.6 79.5 79.4 78.7 77.4 76.9 76.9 79.2 82.3 84.5 87.1 87.2 83.8 82.1 79.6 88.6 93.8 97.3 100.7 103.9 100.8 98 96.8 95.6 94 92.1
421.9 416.7 404 394.9 404.9 405.6 404.8 403.7 402 398.6 396.8 393.8 389.5 385.3 382.4 377.7 374.8 372.9 371.8 372.1 373.6 374.1 376.5 373.7 369.6 365.5 359.3 355.8 356.8 356.2 355.2 346.3 353.2 354.2 351.9 350.9 350.9 350.2 353 356.2 354.9 353.1 347.6 346.7 346.7 345.4 344.7 348.9 353.6 358.9 363.2 366.3 371.8 373.3 373.2 365.7 366.2 355.1 353.8 354.9 345.6 330.1 325 325.7 320.7 300 292.4 284 269.3 254.4 239.2 233.6 226.2 208.5 195.7 198.4 198 190.7 187.3 185.5 185.5 185.6 190.8 186.5 181.5 180.8 180.2 179.7 179.3 179 178.3 177.7 177.1 177.4 178.5 184.6 189.5 188.9 190 191.1 191.5 193.3 197.1 203.8 207.1 214.8 214.3 215.4 209 210.5 208.6 207.6 200.4 193.2 187.3 177.3 174.4 170.3 165.7 162.1 158.9 153.3 148 142.4 137.2 132.5 131 127.7 124.9 115.8 106.4 105.2 102.7 105.3 107.4 107.1 103.4 101 102 105.9 107.1 106.4 109.8 111 113 114.6 116.6 116.7 117.7 118.1 118.2 118.9 118.8 118.3 118.4 116.3 114 112.4 111 110.2 107.8 106.3 100.9 100.3 99.1 100.9 94.3 90.2 88.6 86.3 79.8 76.8 74.9 74.9 75.6 76.5 76.4 75.4 75.5 76.2 77.5 81.6 86.1 88.2 87.8 84.7 81.4 79.6 86.5 92.5 95.3 97.6 99.4 102.2 99.1 95.5 92.9 91.9 90.9 86.8
414 406.4 402.8 393.5 396.7 398.7 398.2 396.6 392.9 390.1 387.7 385.2 380.4 377.4 374.6 370.5 367.6 365.3 366.2 366.6 367.1 367.1 367.5 363.9 361 356 354.7 352.9 348.6 350.6 352.1 341.8 345 347 347 347.5 343.2 344.1 345.5 346.3 344.6 344.7 340.3 339.3 339.9 339.6 339.4 341.1 346.2 348.8 349.3 355.4 356 357.3 353.9 349.4 348.4 341 338.4 335.6 332.4 320.4 314 310.8 295.6 286.2 280.2 275.8 251.8 244.8 236.1 226.4 212.4 197.5 198.7 203 196.3 192.5 187.4 190.6 194.1 194.9 188.2 184 181.4 180.8 180.1 179.5 178.9 178.4 178.4 178.1 178.8 181.2 183.5 188.1 191.6 193.2 195.9 196.7 199.5 203.6 215.1 217.7 220.2 226.6 229.6 223.8 213.8 212.1 212.2 211 207.9 198.6 187.8 182.5 177.2 172.3 166.6 163 158.6 153.2 147.8 142.2 137 133.8 128.1 126.1 123.8 122 117.9 113.6 116.7 99.8 101.6 99.2 96.6 91.1 94.5 100.7 100 98.8 99.1 100.5 105.2 108.6 111 111.8 113.4 113.5 113.1 113.1 113.2 112.9 113.2 111.4 109.1 106.7 104.3 102.4 101.1 100 96.1 84 91.6 93.7 90.9 84.7 81.6 77.7 72.5 70.9 68.6 68.5 69.3 71.7 70.8 72.7 73.6 76.2 80.1 85.1 87.3 88.4 86.4 83 80.4 83.6 88.9 93.7 94.2 95.3 96.3 97.1 95.3 92.4 88.4 85.2 82.6 79.3
410.1 400.8 395.8 390.9 389 390.1 389.5 386.8 384.8 382.8 380.2 376 371.1 368.4 365.5 362.5 358.8 358.1 358.2 356.9 358.3 358.8 357.4 353.2 350 351.4 349.9 344.3 339.2 345.7 345.5 339.1 341.3 338.3 338.1 337.5 335.7 336.7 337.3 336.9 335.1 332.3 333.1 331.2 332.4 332.8 333.4 335 337.8 339.7 339.4 337.4 336.3 333.7 334.5 339.4 330.5 323.8 323.3 322 313.5 306.1 298.3 295.1 282.6 275.5 271.4 259.4 242.8 240.9 227.2 214.2 197.3 204.5 206.8 208.2 197.1 194.2 188.8 199.7 201.8 194.8 191.2 184.1 181.9 180.9 179.9 179.3 178.8 178.9 179 180.6 182.7 187.2 189.7 193.6 197.2 202.4 206.6 206 207.7 218.1 228.5 238.5 239.7 235 235.9 230.8 220.8 213.8 212.7 213 206.5 196.9 190 186.8 179 173.2 167.4 163 160.2 153.9 145.3 139.1 135.6 131.3 126.8 126.1 125.7 125 119.7 117.7 116.3 106.4 97.2 94.4 105.5 100.8 89.7 92.6 94.7 94.8 94.6 93.5 94.8 104.5 106 109.6 111 110.5 110.1 109.5 108.9 108.2 107.9 106.5 104.2 101.8 100 97.6 95.9 94.5 89.8 75 81 87.1 84.8 79.6 74.6 68.7 65.9 64.5 68.2 63.7 64.1 64.5 67.4 69.8 73 78.9 83.1 88 87.8 89.3 85.6 81.5 79.5 86.6 90.7 93.9 93.3 92.6 90.4 90.3 88.6 86.8 82.6 78.8 76.1 71.1
405.7 396.5 392.5 386.5 378.3 382 380.8 378.9 376.7 373.5 370.4 367.3 362.7 358.8 354.9 351.4 349.7 349.1 347.9 344.9 349.9 348.9 343.6 342.9 341.2 340.8 336.2 334.3 335.9 340.8 340.9 335.1 333.1 330 325.8 328.2 327.8 326.5 327.9 327.2 324.2 321.8 323.8 325.5 328 326.4 328 326.9 329.6 326.5 326.1 324.1 323.9 318.7 321.7 320.4 314.1 309.1 311.5 305.2 298.8 294.8 287.9 279.8 269.6 260.7 257.4 244.8 242.3 234.2 216.6 200.6 215.1 213.7 209.4 205.1 201.9 195.8 195 202.9 197.2 197.5 190.1 183.2 182.3 182.6 181.5 180.1 179.4 182.3 183.2 184.5 188 191.5 195.6 200.3 204.1 211.5 211.8 209.9 214.7 227.7 238.2 248.7 248.4 243.5 237.8 233.5 225.7 218.6 214.7 210.3 205.3 198.7 194.9 188.5 181.9 174.2 168.3 161.5 156.9 149.3 140.5 136.1 132.7 130.4 130.4 130.5 128.9 125.4 121 117.1 115.6 114.5 109.2 105.4 103.5 98.8 94.5 84.3 89.7 92.8 91.8 87.9 92.2 96.5 99.2 106 106.3 106.5 106.7 106.5 105.3 104.1 102.8 101.7 99.4 97.8 95.9 93.4 90.3 88 83.5 76.5 70.8 79.2 78 72.9 66.9 62.7 60.9 61.2 61.6 59.5 62.1 62.1 66.3 71.2 77.3 82.4 85.6 87.9 87.4 85 83 80 79.5 86.4 88.2 89.6 88.7 87.6 85.4 84.4 82.6 79.9 76.5 72.3 68.3 64.6
401.5 394.7 387.5 382.3 373.4 373.5 371 366.1 365.1 363.7 359.5 358.5 353.9 350.2 344.4 341.7 343.1 342.8 341.7 334.7 338.1 336.6 338.6 335.8 332 328.2 324.9 323.7 329.9 333.8 334.1 326.2 322.4 322.9 316.9 319 317.3 316.7 319.3 320 317.7 318.2 317.4 318.4 316.9 320.2 321.5 322.1 319.3 317.7 316.6 311.9 309.3 304.9 305.6 304.5 300.1 299.4 297.2 296.3 284.6 279.2 276 267.1 259.5 252.3 246.3 238.3 232.1 216 203.2 203.3 214.2 213.1 209.9 210.4 208.2 192.2 194.8 197 200.6 193 189.2 187.8 184.3 183.5 184.8 183 181.6 185.4 186.8 188.4 189.6 192.9 199.3 204.8 209.5 215 214.9 216.6 223.6 236.3 249.1 256.2 256.3 248.8 245.4 238.8 230.3 225.9 221.2 216.5 212.8 201.4 195.8 193.5 185.2 177.6 168 159.4 152.9 146.6 138.8 134.6 133.3 133.8 133 130 128.1 125.8 121.5 118.6 115.3 111.7 108.2 103.3 99.6 95.5 90.1 80.4 77.3 82.5 86.7 86 86.3 86.4 89.1 100 102.6 102.9 103.2 103 101.8 100.7 98.9 97.3 95.6 94 91.8 88.6 85.2 81.9 77.8 71.2 60.5 67.8 67.4 61.5 60 60.1 56.7 55.3 55.7 55.9 59 60.8 66.9 73.8 79.1 82.2 84.9 87.7 87.2 83.4 80.9 79.4 77.4 85.4 84.4 83.1 82.4 82 80.7 78.2 75.5 72.8 69.5 65.7 62.2 56.5
395.9 389.5 382.4 377.4 371.1 354 363 360 355.1 349.3 349.4 346 344 339 334.6 333.7 332.3 334.1 329.8 321.5 326.8 330.4 332.1 329.4 323.2 320.3 319.2 316.2 325.4 328.9 327 323.8 309.2 311.9 310.9 309.1 311.1 310.7 312.3 313.9 311.4 309.9 311 312.6 308.4 312.9 315.8 315.5 314.1 310.2 307.5 304.7 306.2 293.3 293.1 289.6 289.8 285.5 285.8 276 271.7 266.6 263.2 259 251 245.2 235.9 231.4 215.8 208.7 198.9 211.6 220.6 212.4 217.1 213.1 199.6 193.4 197.7 202.2 197.2 195.2 193.4 191.2 189 188.8 191.1 189.2 186.2 188.5 190.6 190.6 191.7 196.4 204.3 212.2 214.6 215.8 218 222.3 233.7 242.4 253 257 258.4 257.5 253.9 247.5 236.7 231.2 227 218.4 210.7 206.4 205.9 198 187.5 176.5 166.6 155.4 146.6 142.6 138.5 139.1 139.3 137.9 133 129.2 129 126.1 122.8 118.8 112.8 108.3 105.4 100.9 97.5 91.5 83 94.4 86.5 79 75.3 71.9 84.9 84.7 84.7 96.6 101.7 101.9 100 99.5 98.7 98.3 95.4 93.5 91.9 90.1 86.9 83.3 80.2 77.1 72.7 68.1 56.9 49 56.9 58.3 57.3 58.2 55.6 49.2 55.1 55.3 56.1 59.6 69.4 76.5 80.8 82.1 84.3 86.5 86.2 80.2 76.3 74.7 73.8 81.8 82.9 79.5 77.3 76.9 74.9 71.9 68.9 65.8 62.7 59.2 54.9 49.9
393.3 385 376.5 370.5 365.9 359.1 350.6 347.3 343.4 339.2 336.8 332 329.7 326.9 326.8 329.9 324 322.5 316.6 315.5 325.9 326 323.8 321.2 317.6 313.5 311.8 313.6 317.6 320.5 320.6 317.7 302.8 304.4 305.8 304.1 303.2 305.4 306.6 306.8 304 304.2 304.3 305.8 305.1 307.7 308.4 308.7 311.3 305.4 296.9 296.5 293.7 282 279.4 276.3 275.2 275.1 270.5 261.2 258.1 255 251.5 248.9 246.2 230.1 223.3 216.7 209.2 200.4 208.2 218.5 213.7 216 214.3 205.4 194.6 197.3 206.1 202.9 201.1 200.6 199.7 195.2 190.8 198.6 200.9 198.2 194 193.6 195.4 196.5 201.9 202.1 211.3 216.6 216.9 218 221 228 242.4 263.3 266 262.3 258.2 260.6 251.5 250.4 242.8 240.5 227.7 217.3 214.6 208.5 200.3 188.9 179.9 169.3 159.8 153.3 146.7 142.4 141.9 142.7 140.6 137.5 135.1 130.6 128.8 125.1 119.8 116.2 111.2 107.5 104.3 99.6 92 95.9 97.5 97.7 90.3 83.4 77.7 69.5 83.9 83.1 82.1 89 101.6 101.9 99.2 98.7 97.2 96.1 95 92.6 89.7 86.1 81.6 78.6 75.7 72.8 67 60 55.1 44.8 47.5 49.6 51.8 49.2 49 50.3 52.3 54.8 55.8 61.1 68.8 74.5 80.2 80.7 84.5 83.8 82.7 81.1 74.3 69.9 69.2 74 83.3 80 73.7 72.7 71.7 68.7 65.2 61.9 58 54.7 49.8 43.9
391.5 381.1 368.6 361.6 357 350.2 339.6 339.5 336 333.2 329.4 326.4 324.5 320.7 318.1 318.4 314.4 312.2 311 317.6 321.6 320.2 317.2 313.9 310.6 308.5 305.7 307.4 311.4 312.4 311.4 307.8 296.3 296 299.6 295.1 295 297.8 299.2 298 297.5 299.3 299.2 300.5 299.1 298.2 298.8 298.6 302.4 291.2 289.7 284.4 278.6 269 268.2 264.2 263.6 260.8 259.8 251.1 245.6 244.3 238.3 235.3 231.1 225.1 217.7 205.1 200 202.6 210.4 215 212.1 215.3 208.3 197 203.9 207.4 207.8 207 205.7 205.1 206.2 196.7 196 206 204.4 202.7 198 198.4 201.9 205.3 210.9 213.9 215.8 219.4 223 223.6 228.6 240.3 256.4 267 263.6 261.7 257 253 250.3 244 239.4 236 224.8 216.9 206.4 200.8 188.5 180.5 173.1 163 157.2 148.8 145 146.5 145.7 145.1 142.2 139 136.1 133.2 128.1 122.8 119.7 115 110.2 106.3 100.1 100.2 102.7 101.8 98.7 97.6 94.8 90 83.9 78.9 65.9 82.8 81.1 84.6 97.9 99.5 99.4 99 98 94.4 94.4 90.9 90.4 86.9 78.1 75.4 71.8 67.8 59.6 49.2 44.7 41.7 36.5 38.1 33 32.5 39.5 38.4 46.4 54.8 53.3 58.6 66.4 70.4 75.8 79.2 81 77.2 74.9 74.6 70.8 66.2 64 66.8 80.3 78.6 72.7 69 67.7 65.6 61.9 57.9 53.6 49.9 42.1 35.8
384.1 376.1 365 351.9 344.7 340.6 335.9 329.3 328.9 325.3 324.9 324.2 320.7 318.5 311.7 307.9 307.2 308.1 310 310.6 314.3 311.8 311.3 306.7 302 300 301.5 301.9 302 301 301 297.2 290 280.5 287.9 287.4 286.5 288.2 290.2 290.4 291.9 294.1 294.4 292.7 289.9 287.5 287.1 286.8 285.9 277.9 277 271.1 264.1 256.7 257.2 251.3 248.6 253.6 250.7 240.6 236.6 231.7 226.8 221.8 225.6 221.9 214.9 200.6 199.8 209.2 211.9 212 210.7 209.3 205.5 208.4 212.7 210.2 210.2 210.4 211.1 215.2 205.1 198.3 196.5 203.1 203.6 202.6 197.8 205.5 211.1 216.2 222.7 224.6 225 226 229.6 229.5 238.5 247.5 262.5 265.1 265.5 263.8 261.1 255.1 246 233.7 227.6 225.8 216.8 209.7 198.6 190.5 180.3 175.6 168.7 159 152.2 150.4 152.7 150.8 148.8 145.6 144 140.4 136.4 130.7 126 120.4 116.4 112.4 105.7 101.3 99.6 107.4 108.2 104.6 99.9 96.1 94.5 90.9 86.9 83.6 83 65 81.9 82.6 92.8 100.2 99.9 99.2 99.7 94.5 90.5 88 85.2 80.6 75.1 71 66.4 62.6 44.5 32.3 32.1 31.1 28.4 29.8 28.3 27.5 27.8 27.8 28.1 49.3 52.4 51.9 52.3 64.5 71 74.1 74.4 75 70 65.6 62.6 59.4 58.9 62.4 65.9 76.8 72 68.5 64.3 61.3 58.3 51.8 45.5 38.7 35.5 32.4
378 372.1 356.7 341.7 337.4 332.9 328.9 322.4 321.3 319.1 318.9 318.6 314.3 308.4 305.8 304.1 304.8 303.3 303 304.8 305.6 303.7 300.6 296.1 297 292.9 293.6 295.9 293.6 292.4 292 291 283.1 271.8 274.2 280.4 279.9 281.8 283.1 282.1 286.5 284.6 284.4 279.6 278.1 277.1 277.1 279.7 271.7 268.6 264.8 260.2 253.6 252.2 251.3 250.1 245.4 246.1 236 231 226.2 221.9 216.3 217 220.9 218.2 203.4 199.9 206.3 211.6 211.6 211.7 210.2 207.7 212.4 217.5 214.5 212.3 212.4 213.2 220.3 210.5 205 199.9 198.7 201.2 204.2 201.6 203.3 212.9 223.3 230 235.1 235.1 236.9 234.4 233 233.5 243.9 251.9 265.8 267 268.2 266.6 256.5 246.9 237 230.5 215.5 218.4 203.4 198.4 187.1 184.1 180.3 172.5 162.4 158.2 154.8 154.6 153.6 153.4 151.1 148.7 145.2 140 134.5 128.8 123.8 119.7 116 108.7 107.7 110.8 111.5 111.9 110.2 106 99.5 93.2 89.9 88.5 85.7 84.1 83.1 60.5 81 79.5 84.7 94.8 98 100.8 99.2 94.8 90.1 87.7 86.1 77.8 71.8 63.8 59.4 46.6 34.2 31 30 27.6 27.4 27.4 27.6 27.6 40.7 30.5 27.6 27.6 55 61.3 63.7 63.6 62.4 68.4 68.6 69.8 65 58.6 54.4 53.7 55.2 58.7 61.5 63.2 70.6 65.5 59.7 53.1 49.8 44.2 38.2 35.3 34.8 27
373 364.9 348.4 333.5 326.4 322.9 321.3 318.9 316.9 314.6 315.2 313 309.4 302.3 299.2 300.2 300.9 298.7 296.8 296.8 297 295 293.8 289.7 287.7 286.7 287.4 288.1 285 284.6 285.1 281.8 276.8 264.7 266.9 274.9 274.3 274.4 274.3 276.9 279.2 275.2 274.9 270.6 268.7 269.2 263 264.9 261.2 256.3 255.1 252.5 250.3 245.9 245.6 249.3 239.2 235.9 227.4 222.4 222.1 221.5 221.5 213.6 212.3 202.5 199.5 202.5 210 212.5 213.2 211.8 210.1 214.1 220.7 221.2 215.4 218.6 218.7 216.7 215.4 210.8 204.5 203.3 205.1 203.6 204.2 203.5 208.4 215.6 230 240.4 248.3 245.9 244.4 243.7 238.3 240.7 252.4 260.1 264.4 267.2 263.3 254.2 249.2 240.1 234.7 221.6 209.7 200.8 197.9 190.9 183 179 173.6 166.4 162.1 161.9 158.3 158.2 157.6 158.1 154.5 148.8 142.9 137.1 131.6 127 123.4 117.1 113.4 115.1 115.9 113.6 114.9 113.6 106.9 99.3 93.7 92.8 90.5 88.4 85.5 85.1 84.8 64.7 34.7 41.8 67.3 83.7 94.3 97.3 98.6 95.7 88.3 86.1 77.4 66.6 57.5 59.5 45.7 35.1 32.1 30.4 27.6 27.5 27.7 27.6 30.8 40.9 41.7 38.9 27.4 27.4 54 60.3 62.6 64.2 63.4 57.4 53.1 47.1 53 52 51.3 51 51.6 52.8 53.2 51.8 49.6 46.3 41.2 41 39.7 38.3 35.8 34.6 27.3 23.6
368.4 356.7 340.4 326.7 317.9 315.5 314.3 314.3 314.9 312.1 311.3 308.2 298.9 296.7 294.8 294.4 292.3 292.1 292.8 292.1 290.1 289 287.8 282.8 281 276.4 278 280.3 279.4 275.7 276.7 273 265.7 259.4 261 265.3 266 268.6 266.7 266.9 267.8 266.1 262.8 260.4 257.3 256.3 253.8 252.2 251.1 248.9 251.2 249.3 243.2 240.5 239.1 245.8 231.7 226.6 221.9 222 223.7 222.3 220.4 212.2 203.5 202 203.7 213.5 217.9 215.7 215.7 214.1 216.5 223.2 223.7 221.3 220.7 226.6 222.2 216.6 215.7 211.4 206.9 213.1 208.3 204.5 203.9 207.9 215.2 219.1 231.9 242.4 245.2 247.3 246.8 245.4 243.1 246 254.5 256.4 255.4 251.5 246.6 245 239.2 233.7 225.3 214.4 206.1 199.2 194.4 184.1 177.5 172.2 168.4 166.3 164.8 163.2 162.7 162.3 162.3 157.9 151.8 146.3 140.5 135.6 131.2 127 116.7 116.5 122 120.4 117.5 117.4 112.6 104.9 99.8 99.8 98.2 95.7 94.6 93.5 94 96.8 90.9 86.7 84.5 78.9 40.2 65.9 82.9 87.2 94.9 92.1 87.8 78 67.4 57.9 52.1 47.2 35 29.7 27.5 27.6 28.5 28.2 28.7 31.9 41.4 43.3 47.8 48.8 34.4 27.7 27.6 54.8 62.4 60 57 53 56.2 51.2 51.9 43.1 46.3 49.7 45.7 41.6 40 38 38.1 36.5 36.3 36.5 36.5 36.2 34.7 27.3 25.6 24.9
360 348.9 335.7 320.5 312.5 309.5 309 309.4 307.6 309.4 307.3 301.4 294.2 292.8 292.1 289.9 290.1 287.6 285.9 287.5 285.4 282.5 279 275.9 273.6 270.3 270.3 271.6 274.2 272.2 273 270.1 265.1 255.8 258 260.8 260.2 261.9 258.5 262 259 253.7 251.2 252.6 251.9 247 246.4 245.6 242.7 245.6 244.5 240.4 234.7 239.2 234.8 232.4 223.8 223.8 222.4 225.9 222.9 222.3 222.4 212.4 203.3 202.9 212.9 216.4 220.7 217.3 217 217.4 225.6 226.6 226.3 223.9 225.9 224.5 221.8 216.9 215.4 210.5 213.7 215.7 211.3 208.4 209.2 212.6 223.6 228.5 238.1 246.1 248.2 248.5 247.9 246.7 245.2 246.1 248 249.1 247.3 245 242.2 238.5 230.7 224.5 217.4 212.4 206.5 198.3 187.3 180.5 174.1 172.1 170.1 167.3 167.6 167.8 168.3 165.4 160.1 154.8 149.2 144.6 138.3 133.5 123.7 119.1 125.6 126 125 119.9 120.8 115.5 105.5 112.4 113.2 119.4 115.9 111.4 106.3 105.1 104.1 101.4 98.5 93.1 89.3 83.4 80.5 30.7 56.5 69.4 78.7 77.2 74 66.5 55.6 44.2 40.7 28.9 27.6 27.5 27.5 29.8 28.6 29.8 40.2 42.7 44.8 49.9 53.5 53.8 49.9 28 27.5 29.2 44.4 51.9 49.5 47.6 46.6 49.6 51 50.1 42.9 43.1 39.8 37.4 37.4 37.5 36 36.2 35.8 36.4 35.5 33.3 28.3 25.4 25 24.2
352.1 344.1 328.4 318 308.5 305.4 306.3 306.3 305.5 303.9 299.8 295.9 291.2 292 289.5 288.8 286.8 283.4 283.6 281.7 280.2 277.5 269.9 271.8 269.5 267.5 266.5 267.3 270.5 274.7 270.2 265.9 261.4 253.7 256.2 256 253.6 252.9 251.3 252 249.6 243.2 246.6 248.1 245.1 245.3 243.8 240.8 241.6 236.3 235.6 230.3 234.1 233.7 232.7 232.1 225 224.5 224 225.3 222.8 222.5 216.1 207.2 203.9 213.9 215.5 220.9 219.1 217.2 223.4 226.4 227.2 228.3 227.4 224.3 223.3 225.6 221.4 217.3 216 221.1 219.4 220.6 220 218.7 214.4 220.4 227 231.4 238.7 244.3 247.4 248.6 247.7 247 246.8 248 248 241.3 238 240 237.5 231.2 223.1 219.4 217.2 214.3 204.7 192.1 184.6 181.6 176.8 172.5 171 169.3 170.2 170.1 169.6 164.3 158.2 154 149.4 144.9 134.7 124.9 129.5 131.3 130.6 130.2 127.5 123.4 125.3 117.8 115.9 129.3 130.1 130 130.5 127.2 123.6 121.7 117.3 115.2 104.4 98.3 93.2 87.2 81.1 74 55.5 39.3 57.2 59.9 56.8 48.6 43.1 30.9 28 27.5 29.9 31 30.8 30 34.9 42.4 47 46.6 48.6 49.6 57.5 59.8 62.2 54.4 27.6 27.6 27.6 27.9 29.5 27.4 27.5 27.4 46.8 47 42.6 41.6 37.1 36.5 22.6 25.6 26.7 22.6 32.5 29.8 29.1 30.1 26.9 25.4 24.1 24.5
344.6 337.3 324.8 311.5 307.2 304.3 302.3 302.9 302.8 297.3 296.1 291.1 289.3 288.8 288.1 285.9 282.6 279.4 278.7 277.1 274.9 269.3 267.8 265.9 264.6 265.6 263 271.8 274.4 269.5 266.4 261.7 257.1 256.7 255 250.6 248.4 246.4 245.1 242.2 240.9 240.3 244.2 240.8 237.7 243.4 238.6 235.3 236.4 227.2 226.1 226.5 230.6 232.9 232.2 227.1 225.1 224.8 221.8 223.6 219.2 217.5 206.9 203.8 216.4 215.9 218.9 220.2 217.4 222.4 228.6 228.2 229.1 226.2 222.4 220.3 223.7 226.2 221.3 221 226.5 226.4 221.1 222.3 225.2 225.8 219.1 222 228.8 232.7 237.9 242.6 246.5 249 247.8 247.4 248.2 251.7 252.2 239.5 236.3 234.9 232 226.9 221.3 220.3 218 212.1 199.1 200.1 190 181.1 176.7 174.8 173.1 170.4 170.5 169.9 163.7 162 158.5 155.2 147.3 137.4 129.3 137.3 137.7 136.6 135.8 133.6 128 129.3 129 122 128.6 140.5 138.8 137.8 139.2 137.9 135.6 129.8 125.3 119.7 117.6 109.8 95.7 87.9 78 69.8 64.8 48.7 34.2 47.7 43.4 30.3 27.4 27.7 29.6 33.5 32.8 32.1 32.5 37.2 45 49.8 54.6 54.5 53.5 56.3 57.3 61.6 67.2 63.5 52.9 48.8 46.7 44.4 35.6 46.2 34.8 29.4 27.9 33.2 27.6 34.6 27.3 27.4 16.1 9.9 9.9 9.9 13.8 30.7 30.1 29.6 27.2 26.6 25.7 25.6
339.9 329.3 315.4 308.7 305.3 301.9 300.9 301.1 299.3 294.7 291.7 288.5 288.6 287.7 286.7 283.9 280.2 276.3 274.9 272.2 268.9 263.5 268.4 263.1 262 261.2 271.1 271 269.6 263.1 260.3 256.2 247.2 243.1 245.8 246.6 245 242.8 242.3 239.1 237.6 234.1 236.1 236.1 233.5 233.8 235 233.1 230.2 225.4 225.5 225.1 226.7 230.9 227.2 226.7 226 222.1 219.6 220.2 215.1 205.6 198.4 210.3 216.8 219.1 217.5 213.7 216.9 222.5 226.5 232.4 232.6 221.9 218.2 217.7 225.8 222.7 220.3 223.9 232.7 224.6 222.5 226.1 226.9 227.4 220.5 222.8 230.4 236.4 239.6 243 246.2 250.2 249.3 249.3 248.2 246.5 243.5 237.1 234.5 230.2 226 222.8 225.2 223.4 214.4 205.5 199.4 197.5 189.7 182.7 176.8 173 169.4 167.9 167.6 168.1 169.7 167 158.3 149.7 141.9 133.2 143.4 142.5 141.5 139.8 138.1 132.5 131.7 135 129.9 117.3 143 148.2 146 145 145.9 146 143.4 138.4 130.2 125.3 124.6 116.9 104 85.7 72.3 64 56.8 48.7 39.4 28.8 29.1 27.4 27.5 33.5 34.1 33.8 33.5 33.4 40.3 47.9 55.4 59.9 62.9 62.1 59.5 66.8 66.5 65 66.9 66.9 59.8 55 53.7 51.8 54.2 60.7 56.4 50.3 49.1 40.5 41.3 37.1 27.3 27.9 13.9 9.9 9.6 9.9 9.9 18 29.8 24.5 27.5 26.8 23.3 25.5
331.7 321.5 309.4 306.4 302 300.7 299.4 299.7 294.7 292.4 288.2 287.5 287.3 287.3 285.3 280.8 276.6 273.9 272 270.2 266.1 261.7 265.4 261.6 260 265.4 271.5 267.2 262.8 253.6 252.1 251.4 246.2 239.1 246.4 238.9 236.6 234.5 232.1 232.3 231.7 228.7 232.1 231.5 230.1 228.4 228.3 226.6 226.4 224.5 221.9 222.6 223.8 225.4 225 226 225 223.2 217.5 211.3 202.5 195 207.2 214.2 219.7 216.9 213.9 216.6 224 220.4 223.5 229 226.2 219.7 213.7 211.5 214.8 217.9 222.6 229 229 223.9 222.2 224.3 223.8 223.5 221.9 222.3 233 239.3 241.9 242.8 247.9 250.7 251.8 251.8 252.2 246.3 240.9 235.6 229.8 225.1 218.4 219.3 224.2 215.8 206.6 198.7 194.3 191.3 188.1 182.2 175.3 169.7 167.6 168 172.2 176.1 168.8 158.8 151.3 146 140.3 139.8 143.8 144.4 144.8 140.5 135.6 136.1 136.5 135.6 123.6 136.8 154.3 156 154 152.1 152.1 150.2 145.4 136.3 129.2 130.3 123.4 110.5 92.7 76.4 60.9 51.1 48.2 45.8 39.2 30.2 28 27.4 33.6 35 34.8 43.9 40.1 41.2 48.6 58.9 65.1 68.6 70.5 69.4 67.3 74.6 76.4 75.2 74.9 71.3 66.7 63 63.1 65.8 74.2 74.6 68.7 64.6 58.5 49.8 41.3 39.4 39.8 36.1 22 15.8 12.2 9.9 9.9 9.9 21.9 27.6 26.8 25.4 8.1 10.5
326.8 319.2 309.2 303.6 301.5 301.2 299.1 298.3 292.9 289.1 286.1 283.2 283.2 286.5 281.8 277.7 274 271.8 269.6 264.5 259.4 260.3 260.8 260.6 257.9 261.6 263.1 260.8 253.9 250.1 247.6 247.2 240.8 236.7 240.7 238 236.2 235.5 230.6 228.9 227 227.4 229 226.3 225 224.2 226.1 225.8 225.4 224.7 224.9 220.6 225.1 221.7 223.7 219 218.4 216.7 213.2 200.5 192.5 195.9 211.3 216.6 216.3 212.6 212.9 215.5 214.6 216.2 218.9 221.7 220.9 215.1 212.9 211.9 216.5 216.3 219.9 222.9 225.1 222.9 222.2 224.1 224.3 223.6 223.4 224 236.3 241 242.5 243.7 247.7 251.5 250.6 249.9 250.2 244.8 238.6 232.6 225.6 218.1 209.3 213.4 214.9 207.2 198.4 193.2 189.5 186.6 184.4 178.7 171.8 166.6 168 170.7 178.7 169.4 160.5 153.2 151.3 140.4 142.6 152.1 149.7 143.9 141.4 139.3 139.3 139.6 137.4 127.8 135.5 155.2 162.7 163.8 161.7 160.2 156.2 150.4 143 141 125.5 117.4 107.2 95.6 84.3 70.6 57.5 48.9 44.8 42.5 37.9 29.1 27.4 27.4 36 35.9 45.6 45.4 45.8 46.3 57.2 66.4 74.5 79.1 79.5 79.8 77.1 81.2 83.5 83.8 82.8 78.4 72.5 71.5 73.4 77.8 81.5 87.4 80.9 72.9 64.7 53.3 43.7 41.1 39.6 39 33.8 23.6 19.5 16.6 10.7 10 9.9 18 24.5 25.2 11.6 8.1
324 315.5 308.1 302.5 300.7 299.4 300.1 299.4 295.2 292.6 288.6 282.8 279.7 279.3 277.1 273.3 269.5 267.7 263.9 258.6 257.2 259 259.5 258.1 256.5 254.2 255.6 253.3 248.7 245.5 244.3 241.7 237.1 234.9 238.2 237.8 236.3 235.1 230.3 228.1 226.8 226.5 226.1 225.4 230.2 225.4 223.5 225.9 225.6 224.7 225.1 217.5 218.1 218.5 217.7 215.7 211.8 210.2 199.7 191.9 191.4 205 211.7 213.2 210.6 210.7 213 210.6 212.1 210.2 213.3 219.4 216.2 213.2 211.6 212.2 213.9 218.5 224.2 223.2 223.7 222.9 222.2 225 227.7 228.5 224.9 232.3 238.5 242.4 243.6 244.1 247.2 251.3 250.6 249.8 246.5 241.2 233.3 227.2 219.6 209.4 202.8 201.4 200.5 195.2 189.7 188.4 186.2 183.2 178.4 172.3 166.7 162 158.8 165.3 168.7 157.6 148.8 147.2 143.8 145 158.4 160.7 157.2 152.9 150.2 145.4 143.6 139.5 130.6 137.3 157.3 167.1 173.4 171.6 168.3 161.8 154.5 148.6 148.4 144.3 131.1 114.8 107.4 94.7 79.2 66.9 56.6 49.6 44.8 41.3 32.2 31.1 27.2 34.6 37 41.8 46.5 46.2 48.1 55.1 66.8 76.4 84.5 89.7 89.3 87.5 85.9 88 90.3 90.2 88.9 84.5 79.7 80 81.6 82.1 85.1 88.4 91 79.1 67 54.4 43.4 41.8 40.3 38.8 37.2 35.6 23.4 20.9 18.2 15.7 9.9 10 11.3 25.5 25.2 16.2
323.5 313.1 305.3 302.1 301.2 301.1 303.4 300.6 297 295.4 287.2 278.3 274.3 273.5 270.2 268.3 263.2 261 261 255.5 256.3 256.4 256.3 256.7 252.7 251.1 251.1 249.5 246.8 247 246.9 243.3 235.8 235.4 239 237.7 235.5 232.9 229.9 228.4 227.1 227.7 228.2 228.4 230.6 226 223.3 225.5 225.7 224 220.6 218 215.8 213.8 210.7 210.2 206.5 201.8 192 190.8 194.6 208.4 206.8 202.1 203.4 211.3 210.9 206.7 206.5 207.5 209.5 211.4 213.1 211.7 212 211.7 215.1 219.8 222.8 223.4 223.2 222.6 221.9 224.5 225.3 225.8 226.3 238.6 244.2 247.7 249.4 251.2 252.5 251.3 250.9 251.2 246.7 237.9 228.9 220.8 213.1 205.9 194.4 192.9 190.3 188.2 186.8 184.1 179.4 174.2 169.6 165.3 161.5 161.1 161.5 155.2 152.7 153.6 154.8 154.9 158.8 157.6 164.7 165.8 162.4 156.6 151.9 148.9 144.4 136.5 145.4 163.1 172.9 179.7 182.4 174.8 166.3 159 153.6 153 150.9 148.1 138.9 126.2 117.6 101.9 80.7 61 53.7 48.8 44.3 41 32 27.4 27.4 38.8 39.9 47.5 46.7 46.3 55.1 65.8 76.7 86.5 96.1 101.2 101.4 98 95.8 94.6 95.3 94.6 93.7 91.6 88.3 88.4 89 88.1 89 89.4 87.4 75.8 62.9 50.5 44.2 41.8 40.1 38.4 37.2 36.3 35.1 29.7 22.5 17.6 15.2 9.9 9.9 11.5 20.6 22.3
324.7 310.7 303.3 303 302.8 304.8 309.6 300.5 298.7 296.2 285.7 276.4 269.3 267 266.5 264.1 259.6 257.7 254.1 254.5 255.3 255.3 257.6 257.3 254.1 251 250.1 250.5 248.2 247.5 245.1 238.7 235.6 243.1 242.8 240.5 237.5 236.5 231.9 229.7 228.9 229 229.4 229.3 226.7 224.5 222.5 223.4 225.2 219.6 216.5 216.1 214.7 211.4 208.7 207.4 198.9 194 190.5 195.5 206.5 207 202.1 202.1 202.1 208.9 203 204.4 205.2 206.6 207.8 206.8 209.2 210.4 212.3 213.7 217.7 220.7 223.1 223.4 222.7 222.1 221.6 223.8 224.5 225.6 228.1 241.1 245 246.9 255 255.7 256.3 249.9 256.4 254.7 245.2 233.8 223.6 215.7 208.1 200.8 190.8 187.4 186.5 184 181.8 178.3 174 169.2 165.8 166.6 167.2 169 171.1 169.8 168.7 168.7 170.3 171.9 170 163.5 170 170 164.1 158.5 154.9 151.5 143.9 140.9 164.6 178.4 188.1 188.2 178.6 169.3 162.1 158.4 157.1 157 155.3 150.9 145.4 134.8 127 113.4 95.8 76.6 57.9 48.8 44.6 34.9 31 27.4 34.2 43.2 46.8 48.9 47.5 56.8 65.2 74 86.4 96.6 107.2 114.8 114.2 110.9 108.9 107 103.2 100.3 99.6 98.7 97.3 95.7 94.8 93.7 93.9 90 82.8 71.4 58.6 47.8 44.4 41.4 39.7 38.4 37.1 36.4 36 35.5 28.6 20 15.5 13.7 9.8 9.8 9.9 20.2
318.9 308.2 303 305.4 308 310.8 309.5 302.9 304.7 293.7 285.2 274 271.2 263.3 258.7 256.2 255 253.7 252.7 253.2 254.5 258.8 257.6 255.7 252.5 251.4 253.7 253.9 254 254.1 250.3 241.8 237.3 237.6 242.4 244.8 240.2 234.8 232.7 231.3 230.9 231.1 230.4 227.6 226.2 224.4 223.1 220.4 218 216.7 217.8 216.5 214.4 211.6 207.6 206.7 202.6 189.4 189.4 199 203.9 204.2 202.1 202.1 203.5 202.9 202.8 203.7 204.4 205.4 205.5 207.4 209.4 210.8 212.9 215.5 218.4 222.3 224 222.8 222.3 221.6 221.6 223.7 225.2 226.7 232.4 240.6 240.9 240.6 242.4 247.2 248.7 248.8 254.7 246.8 238.7 227.7 216.5 208.6 201.5 193.8 185.6 184.5 182.2 178.7 176.1 173.1 172.2 172.5 172.6 173.4 179 180.5 184.7 185.2 179.6 176.1 174.2 171.3 171.6 175.1 175.4 168.9 162.3 160.5 157.5 152.5 140.3 159 178.3 190.6 193.8 183.3 172.7 165.6 160.7 160.5 160.9 160.8 165.6 166.6 155.1 145.3 134.5 117.6 109.3 85.2 66.7 47.9 43.4 34.9 27.4 31.4 43.7 48.4 50.9 52.6 57.6 64.8 74.9 89.6 97.4 106.3 113.8 122.6 124.1 122.8 123.9 122 118.4 114.7 112 108 106.1 104.4 101.4 99.2 97.6 90 83 70.3 56.2 49.4 44.4 41 39.6 38.3 37 36.8 37.1 36.6 30.3 26 14.7 13.9 13.1 9.5 9.7 13.5
315.5 308.6 308.7 311.9 314.3 312.1 307.7 309.3 300 291.6 276.9 269.6 266.7 257.3 256.8 254.9 254 252.6 251.8 255.5 256.1 258.5 256.1 254.4 252.3 252.2 252.2 252.3 256.7 256.9 252.4 243.4 236.4 243.8 247.9 249.9 245.8 236.7 234.2 233.1 233.5 232.3 231.4 226.7 225.3 224.3 223.6 221.4 220.4 222.6 219.8 220.2 216.7 213 210.2 207.4 196.3 189.4 193.2 202.9 203.8 202.7 202.2 202.1 202.8 203.1 203.1 203.2 203.8 204.6 206.1 208.6 209.5 211 213 216 219.1 223.5 221.9 221.8 221.7 221 221.1 224.3 228.8 235.9 239.6 239.3 234.5 237.6 239.5 240.7 238.6 242.5 243.4 234.8 227.8 219.4 208.4 200.5 194.4 187.4 183.2 181 178.4 177 176.6 177.1 177.6 178.1 179.4 185.7 193.1 196 197.3 195.3 189.6 187.4 187.9 190.3 186.2 175.6 167.6 163.6 159.5 158.5 150.7 147.9 158 174 188 191.9 184.7 175.1 168.3 165.7 164.8 165.1 167 175.1 183.8 177.9 162.6 151.3 140.5 119.6 106.6 83.1 64.5 45.7 33.9 27.4 33.9 47.3 51.8 55.8 56.3 61.1 65.2 74.8 97.7 104.1 106.1 110.3 116.2 123 125.6 129.1 132.8 133.9 133.3 130.7 125.4 121.4 116.9 113.7 110.4 106.9 98.9 92 82.3 69.6 55.5 52.8 49.4 41.6 39.6 38.2 37 37.2 36.8 36.3 32.4 34.1 20.1 14 13.3 11.2 9.7 9.7
312.9 310.6 311.2 315.5 314.5 310.4 311.5 306.1 291.1 282.2 270.9 265.4 261.7 255.3 254.5 253.7 253 251.6 251.5 254.2 257.2 257.1 255.6 253.4 251.7 251 250.5 251.8 255 256.9 252 242.6 232.5 242.1 245.9 243.7 240.4 238.1 235.2 234.2 231.2 232.4 228.3 225.5 224.7 224.1 223.6 222.2 222.1 219.8 219.8 219 214.3 213 210.8 198.2 189.4 189.4 194 202.2 203.3 203.6 203 202.1 203.3 203.7 203.4 203.7 205.8 206.7 208.3 209.8 210.1 211.4 213.6 216.7 218.3 218.1 217.9 222.8 221.2 218.5 218.5 222.7 233.1 243 243.7 235.8 230.3 231.8 233.2 233.7 231.7 229.6 227.3 222.7 216.9 208.4 199.4 192.4 187.2 183.2 180.4 178.8 177.8 180.4 182.3 183.8 184.5 188.1 195.9 199.5 202.6 203.7 205.7 203.2 196.3 190.8 198 191.7 178.1 172.6 172.7 171.9 165.3 160.1 162.7 160 171.8 185.5 186.9 181.9 174.2 170.3 168.8 168.8 170.1 171.7 177 189.2 192 185.5 166.5 153.6 139.3 112.6 98.9 73.3 50.6 27.4 27.4 37.6 53.3 57.8 60.4 61.6 61.5 65.4 69.2 87.3 101.4 107.6 111.6 116.8 118.7 122.8 130.5 136.8 138.5 141.2 143 141.1 138.1 133.4 128.1 124.4 120.8 114.3 103.4 93.4 81 67.3 61.1 58.7 56.9 51.5 41.3 39.1 37.8 37.4 37 36.7 34.2 34.8 28.5 13.7 12.7 11.2 10.1 9.6
313.1 312.6 316.3 315.7 312.6 305 305.7 298.5 280.2 272.6 265.8 260 257.4 254 253.5 252.9 252 250.9 252.5 254.5 252.9 254.3 255.4 252.6 251.5 250.6 249.3 248.6 251 257.9 248 239.2 229.3 237.2 241.5 240.8 236.2 237.1 234.9 229.2 230.8 227.8 225.8 224.7 224.6 224 223.5 222.9 221.6 217.5 217.2 215 215.1 212.5 201.3 194.2 189.4 189.4 198.5 201.3 204.7 204.3 203.4 202.7 202.9 203.3 203.8 205.8 207.9 209.7 210.9 211.2 211.3 212.1 215.2 217.1 217.9 217.9 225.4 226.7 219.3 216.5 215.6 219.4 233.8 241.6 240.8 231.2 228.6 224.7 218.9 219.4 220.1 217.9 214.4 209.1 202.5 193.7 189.3 187.3 184.1 181 179.5 178.9 180.9 184.5 187.8 189.8 192.2 198.3 202.6 207.1 209.8 209.5 213.8 213.4 209.4 198.1 188.3 186.7 178.9 177.3 176.2 174.6 168.4 162 163.6 170.3 179.4 182 179.4 177.6 175.5 173.9 173.3 174.9 177 178.9 184.7 191 192.1 187.4 166.8 152.3 133.9 110.6 92.5 60.1 27.4 27.4 54.2 51.1 59.4 64 65.3 66.3 66.9 69.8 80.8 90.7 100.1 109.4 119.5 125.6 128.5 130.5 135 138.3 140.7 145.2 147 146.6 145.8 143.7 139.2 135.1 129.2 119.6 107.9 96.3 82.2 67.5 67.3 64.1 63 59.7 51.7 46.9 40 37.4 37 36.1 35 34.2 32.4 22.8 12.8 11.4 10.6 9.7
313.1 313 315.5 309.4 301.8 295.4 294.5 286.7 270.5 263.2 259.5 258.3 255.6 253.8 253.1 252.1 251.2 251.1 251.8 250.7 250.4 251.6 254.9 251.3 250.9 250.1 248.2 246.5 249 253.2 242.7 236.4 226.4 232.1 235.6 233.6 233.5 234.8 231 226.6 226.2 226.5 225.2 224 224.3 224 223.6 222.3 220.5 216.9 214.4 213.8 212.8 206.5 196.7 189.4 189.4 195 199.5 203.1 203.7 203.6 204 203.8 204.2 204.9 206.8 209.1 211.2 212.3 212.4 212.3 212.2 213.7 216.4 218.1 218.3 221.7 229.2 220.6 219.2 217.5 214 225.2 234.7 236.8 234 228 225.5 221.5 209.7 202.4 207.2 205 198.3 194.7 190.4 187 187.8 185 182.1 179.8 180.4 181.8 184.7 188.7 192.2 194.8 201.4 206.6 209 213 212.8 217 218.7 213.4 205.5 196.2 188.6 186.6 184.3 178.6 174.7 172.8 164.9 165.9 167.8 172.8 178.2 180.2 182.6 182 178.8 177.9 178.5 180.2 182.4 184.8 188 191.7 187.7 177.2 160.7 145.3 128.6 102.8 87.3 41.1 32.4 50.7 55.9 52 56.9 67.3 68.8 69 72.4 82 91 97.6 103.2 111.4 120 126.5 131.8 134.4 137.3 140.4 143.5 148.9 148.5 148.9 148.9 146.9 147.7 144.8 134.2 122.5 109.1 95.6 80.4 71.1 73.9 71.7 70.9 65.8 59.3 55.9 50.6 38.3 36 35.7 35.3 34.6 31.4 25.3 15.2 11.7 10.6 9.6
310.5 313.4 313.1 302 296.8 286.7 285 277.2 265.2 258.6 257 254.8 253.2 252.7 252.1 251.4 251.3 250.4 249.9 250.6 247.9 251.5 251.1 250.6 250.2 249 247.4 243.3 247 250.9 238.7 232.5 224.3 223.7 225.5 227.8 232.2 228.6 226.1 224.9 226.6 223.8 223.2 223 223.3 224.4 223.5 221.3 219.7 215 213.6 212.9 207.5 201.8 189.4 189.4 190.9 198.3 199.8 203.9 204.3 204.7 205 205.1 206 207.5 209.5 211.5 213.1 213.5 213.3 213 213.4 215.1 216.2 218.7 220.3 225.7 221.7 219.1 217.8 213.9 213.4 222 231 231.6 226.9 224.8 219.9 213.3 204.6 198 194.4 190.1 189.5 186.1 185 185.3 184.9 182.6 181.5 184 184.4 186.1 189.4 193.1 196.9 206.4 210.7 211.2 209.9 214.1 213.9 217.2 213 205.2 199.1 193 191.2 189.8 182.4 175.3 168.5 167.4 166.9 167.9 170.9 176.2 185.8 189.8 189.6 182.8 180.9 180.5 181.1 184.1 185.9 187.2 188.7 185.4 180.7 170.5 153.3 135.1 118.2 97.9 72.7 46 42.4 49.7 55.7 54.7 61.7 70.6 70.7 74.3 81.4 91.6 96.3 101.2 105.4 110.6 121.8 128.8 134.2 137.9 143.8 147.4 148.3 148.9 149.4 151.9 153.7 147.8 149.2 141.9 134.4 122.5 108.4 91.3 82.1 79.1 78.3 78.3 75.5 69.7 62.4 57 49.1 38.9 36.2 34.6 35.4 34.6 34.1 29.4 17.7 11.6 10.3 9.3
306.4 309.4 305.3 294.6 287 279.1 277.9 269 260.7 257.7 253.3 251.5 251.4 252 251.5 250.7 249.7 249.5 248.5 246.2 246.4 248.8 249.8 249.3 249.6 247.1 245.2 241.6 248 245.1 234.8 230.4 222.3 221.3 220.8 224.8 225.1 224.7 224.5 223.5 223.1 222.6 222.1 222.3 221.9 223.8 220.1 220.3 216.6 212.9 212 207.4 201.4 194.2 189.4 189.4 196.3 199.9 203.4 205.2 205.5 205.9 206.2 207.2 208.4 208.8 209.3 211 212.4 213.5 214.1 214.5 219.8 225.1 224.7 220.4 218 217.8 217.8 219.9 218.6 213.4 213.4 218.6 224.3 223.9 218.5 214.3 212 205.6 199.7 194.3 190.2 187.1 185 184 183.6 183.4 183.1 183.8 185.4 187.6 189.1 191.7 194.7 199 205.5 211.7 212.3 212.7 209.2 211.6 213.5 210.2 204.8 202.2 198.3 194.9 192.1 185.8 176.8 173 172 170.8 170 170.1 174.1 180.8 190.2 189.3 185 185.3 184.3 182.7 182.9 187.8 187.4 191 193.9 188.4 180.7 162.5 145.2 124.7 106.3 89.9 61 42.4 42.4 51.5 59 62.3 71.3 73 75.2 81.5 90.1 98.7 102.2 104.6 106.7 111.8 127.8 133.3 140.3 147.8 150.6 151.2 149.9 149.2 152.3 152.7 152.8 143.4 139.6 136.1 130.2 118.6 105.5 86 85.3 84.2 83.2 82.8 79.5 71.6 62.8 55.8 45.6 38.7 36.6 35.5 35 34.6 34.5 33.1 20.9 11.8 8.8 8.6
300.6 298.4 293.6 285.1 278 273.2 271.3 262.8 259.2 255.6 252.6 252.9 251.8 250.5 250.9 250.1 250.4 248.3 246.9 244.6 246.7 248.2 247.6 245.2 245 245 243.2 236.1 245.6 239.3 234 230.5 222.6 220.4 219.3 221.3 222.2 224 225 222.4 221.8 221.3 220.9 219 218.3 219.8 216.7 213.3 211.7 211.3 207.9 204.2 193.1 189.4 189.4 194 196.9 201.3 203.5 205.4 207.3 207.6 208.3 210.2 211 211.3 211.5 211.7 212.4 213.4 216.1 224.9 229.2 227.9 220.7 217.4 215.9 208.5 213.4 218.7 216.9 213.3 218.2 220 220.5 217.9 215.3 210.7 206.8 201.2 196.6 192.3 188.6 185.6 184.8 184.8 184.8 185.3 186.9 188.7 190.3 191.5 193.2 195.3 199 206 212.4 212.2 211.2 207.5 207.1 207 205.9 205.3 204.6 203.2 199 191.7 187.2 180.7 178.4 177 174.8 172.6 171.9 171.6 175.6 183.2 187.3 188 187.1 187.2 185.1 184.8 190.4 190.3 189.8 199.3 198.3 189.1 172.4 153.5 135.6 115.8 94.9 77.1 58.3 42.4 42.4 60.9 63.6 70.4 74.2 78.5 87.8 96.1 102.4 109.2 110.2 108.6 108.1 114 123.9 136.8 145.1 149 153 152.6 151.5 150.2 148.5 149.1 142.8 139.6 134.9 129.4 121.7 111.5 96.6 89.1 89.4 89.9 89.6 85 79.1 71.2 62.1 52.6 43.3 39.6 37.5 36 35 34.5 34.8 33.5 28.4 18.7 8.6 8.6
295.7 288.5 283.1 276.3 272.9 267.8 264.9 260.8 257.5 255.1 254.4 253.5 252.4 251.7 251.5 251.3 252.8 249.8 248.6 244.9 245 251 245.3 242.7 243.4 241.3 241.1 235.8 236 234.1 233.3 230.3 224.7 219.7 219.3 220.6 221 225.5 222 220.8 221.7 216.5 215.8 212.8 216 215.9 212.1 210.4 205.5 205.8 203.4 197.1 189.4 189.4 190.8 195.2 197.2 201.3 203.3 205.4 207.5 209.4 211.2 213.5 212.5 212.3 212 211.8 212.9 218.6 227.5 227.4 229.3 219.9 215.5 215.2 209.4 205.9 206.8 207.8 205.8 212.4 216.9 217.5 214.9 212.1 210.2 206.9 203 196.9 192.5 189.7 187.7 187.1 187.4 187.4 188.1 189.8 192.3 193.7 195.3 195.5 195.7 198.5 203.7 215.1 214.6 209.3 206.9 205.8 204.9 203.9 204.5 207.3 203.5 196.5 191.8 188.3 186.4 184.1 181.2 179.3 177.1 174.9 173.2 174.6 179.8 186.6 188.9 189.8 190.6 188.5 185.8 190.9 192.1 192.3 193.6 196.9 192.4 181.7 165.1 143.8 125.8 109.4 87.4 64.9 53.9 42.4 42.4 63.3 67.6 73.4 83.7 91.9 101.7 107.8 114.8 118.5 115.6 114.3 112.7 116.5 122.7 129.8 139.3 148.7 152.9 151.3 150.4 149.7 148.4 145.9 141.7 135.2 129.1 123.4 115.7 99.8 91.1 94.4 94.7 95.2 90.8 84 77 68.4 59.3 50 44.7 41.3 42 43.4 40.8 36.9 35.7 34.7 34 26.6 8.6 8.6
