ncols 200
nrows 88
xllcorner 260000
yllcorner 302700
cellsize 50
175.8 180.4 185.7 190.8 195.9 199.8 205.7 214.3 220.5 226.1 233.8 240.6 244.8 248.7 252.2 255.6 260.2 265.5 269.1 273.4 277.4 284.2 287.8 281.7 269.4 248.9 227.7 207.1 191.2 177.8 165.5 146.2 127.3 122.8 130.5 143.3 162.5 170.8 174.7 165.7 147.3 140.6 143.4 144.5 150.9 145.8 134.1 130.9 121.6 111.4 93.1 80.4 71.7 64.8 57.2 47 36.3 27.3 18.1 14.1 14 13.9 13.2 11.5 12.6 27.3 28.5 34.2 26.9 13 10.1 5.4 5.5 5.4 5.5 5.5 6.5 6.6 6.5 6.6 6.6 6.3 5.8 5.6 7.2 9.3 9.3 11.6 24.1 50.3 63.1 71.8 81.8 79.6 81.8 78.6 96.8 110.7 131.5 114.9 93.4 86.6 83.9 83 81.6 82 78.5 98.9 108.1 116.6 120.5 117.4 114.4 115.1 118.5 119.4 128.5 134.4 132.3 140.5 157.2 164 173.1 191.6 212.2 226.8 223 200.7 176.2 155.7 134.1 117.9 102.9 90.3 84.7 83.6 84.5 92.3 99.4 106.9 103.5 95.1 87.4 77 64.5 54 43.9 40.1 36 38.2 32.9 34.6 34.5 35.8 35.9 36.5 36.1 35.6 34.7 35.3 35.3 38.5 53.1 73.8 95.2 116.3 138.5 162.4 185.5 216.2 238.3 253.3 265.8 275.3 278.1 292 315.9 332.4 330.6 334.9 338.8 347.1 347.8 355.6 361.4 331.4 325.4 315.6 283.4 237.4 206.4 180.5 153.1 148.4 176.8 191.6 197.2 200.5 201.4 201.2
171.9 176.9 182.4 187.7 190.6 193.6 199.4 207.9 215.4 223.3 229.2 232.1 235.8 240 245.2 249.2 253.5 255.6 259.6 266.9 277.7 284.6 281.4 270.8 251.9 231.2 209.1 189.5 172.7 158.7 144.9 123.6 116.5 123.4 132.7 151.3 165.8 171.8 174 160.5 139.4 131.9 134.9 135.9 144.5 134.4 123.4 116.4 111.7 100.7 87.1 73.9 63.2 53.7 44.5 36.5 30.8 25.1 17.6 12.7 12.1 11.6 11 10.8 20.6 24.9 33.5 30.6 17.4 8.7 6.2 5.7 5.5 5.4 5.4 5.4 6 6.3 6.2 6.1 6.1 5.8 5.5 7.2 20.6 38.6 39 44.7 69.4 90.3 100.8 110.6 113.9 105.9 104 100.9 110.9 133.6 132.7 110.5 96.4 92.2 90.3 88.3 86.6 84.5 78.8 99 111.3 125.4 124.7 114.7 113.3 114 116.2 120.5 133.4 138.9 143.6 148.3 159.9 171.2 182.8 199.4 221.1 240.4 251.9 237.7 221 190.3 164 148.1 136 127.7 120.4 114.2 119.6 125 125.3 127.3 125 118.8 111.1 101.7 92.2 82.3 71.2 63.4 54.3 45.5 35.9 34.2 34.5 35.9 36.8 37.6 37.7 37.2 36.8 37.1 41.3 56.3 75.2 94.6 115.8 137 159.5 187 211.1 234.9 250.4 264.9 283.6 284.1 305 325.1 322.2 321.6 325.1 333.8 340.2 345.3 347.7 352.6 368.7 377.8 375.4 350.4 318.6 270 241.3 209.5 193.6 184.9 178.9 178.4 174.2 175.7 187.8 192.5
166.9 170.4 176.1 182 184.9 185.3 189.5 200.6 208.3 215.4 218.3 223.2 228.9 233.4 238 242.5 246.4 250.7 251.6 263.5 274.1 275.2 269.2 253.2 233.9 212.3 190.5 172.9 157.1 138.5 121.2 110.8 115.2 123.5 138.4 153.4 169.1 173.4 169.6 155.1 132.5 123.6 122.2 123 131.2 125.1 114.2 103.8 98 92.8 82.7 65 53.4 46.4 39.7 31.9 26.3 22.8 14.1 11.1 10.9 10.2 9.5 9.4 17.1 21.9 26.9 15.6 7.3 3.8 5.2 5.4 5.5 5.3 5.3 5.3 5.5 5.9 5.9 5.8 5.7 5.9 6.2 21.7 45.9 67.4 77.8 95.2 134 130.6 143.6 141.7 136.3 130.1 130.7 127.6 130.2 133.3 129.9 119.8 109.9 105.6 99.8 95 92.1 90.3 88.4 95.1 109.5 120.1 115.8 112.8 112.3 113.5 116.4 119 129.7 144.2 150.7 155.2 167 181.6 189.8 209.8 225.8 242.9 249.2 246.3 234.6 220.7 206.5 189.6 178.1 163.8 152.5 149.1 152.5 154.8 158 157.3 150.7 144.3 139.7 130.6 121.5 111.9 100.3 89 71 53 39.3 35 35.2 36 37.4 38.4 39.9 39.9 40.4 46.1 57.4 78.2 94.7 113.5 136.5 158.4 179.4 200.5 216.8 238.7 265.3 280.6 295.4 309.3 317.4 320.1 312.5 315.2 319.1 322.7 333.9 343.1 350.7 357.7 377.5 390.3 395.3 377.2 331 314.9 279.4 251.1 234.8 219.7 209.8 205.3 204.5 206.3 210.7 212.5
161 163.7 169.6 175.3 177 176.1 177.2 191.3 199.7 204.5 208.5 213.7 219.8 228.4 228.2 234.4 239.8 239.3 239.4 255.6 264.1 261.8 255 232.6 215.3 194 173.1 155.8 137.9 120.5 106.9 107.5 114.7 125.9 142.5 164.1 173.5 169.6 163.3 147.8 128.7 115.2 114.6 111.8 118.4 111.9 100.6 93.5 89.6 83.8 72.9 58.3 46.9 40.5 33.2 25.9 23 20.7 11.8 9.3 9.4 9.2 8.3 11.3 12.4 13.4 13.1 5.6 5.2 5.1 5.1 5.2 5.3 5.2 5.2 5.2 5.2 5.6 5.5 5.5 5.5 5.4 9.8 45.3 72.6 98.4 119.2 198.1 191.1 171.7 172.1 163.9 155.4 151 145.3 151.1 145.9 144.3 148.9 140.6 126.5 113.3 104.7 100.2 96.7 94.7 93.5 93.7 95.9 104.9 109.4 111.4 110.5 112.4 115.9 120.2 130.8 150.5 157.1 159.1 174.6 184.8 199.6 213.8 224.7 235.4 235.8 242.1 246.3 250 247.2 237.4 225.8 207 195.2 186.1 184.9 187.7 189.3 183.4 176.7 171.1 165.7 158.4 149.8 138.1 120.8 100.9 74.9 52.9 39.5 36.4 36.7 35.9 37.5 39.1 41.5 48.2 53.7 64.1 81.5 96.1 109.6 127.1 146.4 163.4 175.4 196.7 220.2 246 265.6 280 297.3 304.6 306.1 307.9 308.9 313.8 314.9 323.8 330.1 340.9 354.5 370.9 385.3 394 407.9 402.3 379 349.2 310.2 298.1 276.5 255.3 244.9 240 235.8 235.3 236.7 238.6
155.5 158.1 163.1 166.5 168.2 166.3 167.5 179.4 186.8 191.7 197.9 204.7 211.7 218.4 222 229.2 233.1 230.9 234 248.9 257 255.8 236.8 213.2 194.1 173.6 155.4 137.2 119.7 106.1 100.7 104.7 116.7 134.2 154.4 165.6 167.8 165.8 158.3 139.7 124.4 106.7 102.1 103.6 101.1 95.6 91.2 88.5 86.1 77.7 65.7 51.9 42.6 33.3 23.3 16.8 13.8 12.9 9.9 8.3 8.5 8.1 7.4 8.3 9 8 4 5 5.1 5 5.1 5 5.1 5.2 5.1 5.1 5.1 5.3 5.2 5.2 5.4 5.5 40.3 92 114.8 144.8 203.3 227.5 210.5 199.3 190 177.2 170 161.9 158.6 164.1 164.9 171.6 171.2 152.6 134.8 119.6 110.4 105.4 101.4 98.7 98.3 107.6 100.9 101.8 104.2 106.1 110.6 114.2 117.9 123.9 135.8 150.6 155 166.1 171.4 180.8 200.5 218.7 215.9 218.5 226.7 234.1 243.1 252.6 265.3 268.4 266.2 247.9 237.3 228 222.2 215.2 208.1 198.7 190.6 183.9 178.3 171.6 160.4 140.9 118.1 93.2 68.1 47.5 38 38.1 37 37.3 37.3 39.6 44.5 56.2 64.9 80.5 92.1 98.4 111 127.2 138.4 153.2 172.6 190.2 214.1 240.6 257.7 277.8 289.5 295.5 299.6 304.3 307.9 309.4 312.2 320.5 325.5 338.7 355.5 368.3 381.5 400.4 416.7 423 408 377.4 356 328.4 310.2 296.3 283.1 274.5 267.1 269.5 269 268.8
150.1 152.7 156 158.7 159.3 157.5 155.8 167.1 175.5 182.8 189.4 196.3 203.1 211.4 216.4 219.1 223.3 222.3 228.6 243.1 249.6 240.6 214.2 192.2 172 154.3 136.9 119.5 105.5 97.5 97.6 106.4 119.5 142.7 152.1 160.6 164.6 160.5 146.8 129.7 115.2 95.1 92.1 90.9 96.1 92.7 90.5 86.9 83.6 72.4 57.4 42.5 34.1 25.8 15 11.9 11.4 9.6 7.9 7.2 7.2 6.9 6.9 6.5 6.9 5 4 4.3 4.7 4.9 4.8 4.8 4.9 5 5 5 5 5 4.3 4.9 4.9 5.2 35.5 66.2 95.7 150.5 193.5 212.7 203.7 199 185.9 180.8 175.2 171.8 171 176.1 189.9 196.4 179.6 158.2 140.8 124.2 114.6 109.2 105.7 103.7 107.5 117.9 118 108.4 106.7 113.3 119.3 122.7 127.2 130 133.7 139.3 150.6 160.3 172.7 181.5 196.5 197.2 202 208.1 224.4 234.7 247.9 259.1 269.5 278 278.9 274 262.4 251.9 239.4 227.2 216.1 205.4 197.2 190.7 182.7 170.9 153.6 131.6 104.6 78.5 57.5 42.1 39.6 39 41.2 47 54 60 54.7 48.9 60.3 71.1 79.7 94 106.9 121 136.2 159.5 175.7 189.8 212.2 235.3 250 270.5 280.7 285.7 291.7 295.2 300.9 310.4 315.6 317.5 328.3 342.4 359.2 372.3 388.7 403.2 416.3 441.3 437.5 413.2 388.3 368.1 349.6 335 317.4 308 300 296.9 294.7 292
144.5 147.1 149.2 150.8 150.3 149.2 147.4 156.5 166.4 173.4 181.1 189.6 198.4 203.1 206.6 210.3 213.4 217.9 223 233.1 231.9 213.3 187.1 169.4 152.4 136.1 118.9 103.8 94.9 92.2 94.4 105.1 121.6 141.1 149.3 161.7 161.1 151.3 132.2 116.3 100.3 84.7 82.7 82.6 89 96.2 90.8 84.7 78.9 73 58.9 45.3 30.3 20.5 12.3 10.1 7.3 6.2 6 6.3 6.4 6.2 6 4.7 4.6 2.3 4.5 4.1 4.3 4.5 4.7 4.7 4.2 4.8 4.8 4.8 4.6 4.1 3.7 4 4.4 3.8 28.8 54.8 78.7 138 187.9 181.7 181.6 182.1 181.4 186.1 184.4 184.1 184.2 197.6 207.5 205.4 183.7 160.9 141.8 128.4 118.9 114.5 111.1 109.6 112.9 119.4 124.7 122.9 115.7 125.5 133.5 135.1 137.7 139.8 142.2 150.4 156.9 165.3 179.1 186.1 195.8 210.1 219.2 225.9 231.4 240.2 250.3 260.6 270.1 276.4 275.1 271 264.7 254.7 241.4 228.1 216.8 210 203.2 193 181.6 160.2 140.7 111.4 86.8 65.2 48.4 41.2 40.8 41.7 47.9 58.9 69.1 74 81 80.8 78.3 77.4 70.7 70.5 89.1 114.5 135.8 156.5 175.3 188.2 207.6 223.6 247.1 263.9 267.7 273.5 278.5 289 299.3 306.7 317.6 329.8 339.1 354.2 367.9 378.4 392.4 408.6 429.1 444.1 451.1 437.9 416.7 399.9 385.7 367.5 354.6 341.8 329.8 322.4 316 316.2
139 141.2 142.9 143.5 142.9 141.8 140.5 146.8 157.1 164.7 172.8 183.1 193.9 197.5 199.1 204.7 208.2 213.6 212.6 207.6 197.4 179.3 165.3 148.9 133.4 118.1 103.4 93.9 88.5 88.2 95.3 105.3 120.1 137.1 150 159.8 149.1 131.6 117.6 100.5 83.3 76 75.7 78 87.6 92 88.6 76.3 79.5 75.2 63.4 47.3 33.9 18.9 9.3 7.2 4.7 5.4 6.8 6.2 5 4.4 4.5 4.6 4.9 4.4 4.7 4.5 4.4 4.6 4.7 4.7 4.3 4.5 4.3 2.1 3.7 3.4 3.3 3.5 4.1 4.7 19.8 40.6 57.9 117.3 156.8 156.2 154.6 165.9 179 185.7 198.3 192.2 201.2 212.8 218.1 210.6 181.1 158.3 142.3 134.5 131.3 120.9 117.8 114.5 116.9 129.9 135.9 135.6 130.4 132.8 140.2 146 147.4 147.2 151.4 156.3 165.4 178.2 186.8 197.1 215 224.9 230.4 234.2 238.9 246.9 253.7 261.4 268.8 271.5 269.9 265.7 261.3 249.9 238.4 225.3 213.4 209.1 200.2 184.1 167.6 143.3 114.3 91.7 70.9 52.9 44.3 43.1 45.7 48.3 60.4 68.6 76.9 85.5 93.5 99.2 103.4 108.6 105 76.1 76.8 106.3 131.9 153.2 169.1 184.4 204.1 219.4 239.2 252.2 257.2 260.6 275.4 289.9 298 308.2 324.7 338.3 352.6 363.8 371.3 386 397.9 409.9 433.3 439.3 436.3 435.8 427.5 420.1 410.9 396.4 385.7 373.6 359.2 347.3 343 343.5
134 136 136.9 136.8 135.6 133.1 131.9 138.3 148.7 158.2 165.2 176.5 182.9 188.4 196.1 201.4 206.4 208.1 200.2 185.2 169.9 156.7 143.7 130.4 116.2 103 90.5 84.6 81.4 88 100.1 101.8 121.7 131 145.1 146.3 129.9 115.1 101 83.5 72.8 68.8 70.4 72.7 82.7 84.4 76.1 67.1 71.1 68.2 61.6 54.2 34.7 12.2 6.3 2.5 3.4 4.3 5.2 4.7 3.3 3.4 4 4.8 2.3 4.8 4.3 4.7 4.6 4.6 4.6 4.7 3.8 3.8 3.9 3.9 3.6 3.4 3.3 3.3 3.7 4.7 6.3 22.5 47.1 104 133.1 133.3 133.8 155.2 160.3 187.7 210.6 198.5 212.6 230.9 224.2 198.1 174.1 156.6 148.2 144.8 135.3 126.2 122.4 119.8 131.4 143 147 146.9 143.6 140.2 144.6 149.8 153.5 154.4 160.9 168.8 172.8 185.7 196.5 203.5 216 227.5 233.4 237.9 243.1 249.7 255.4 261.3 264.6 265.6 261.7 257.9 253.6 241.3 227.6 215.3 206.2 197.9 183.8 171.2 152.6 120.7 95.8 74.5 56.1 46.6 45.6 46.8 51 55.7 67.3 77.2 89.1 99.2 106.9 111.6 118.3 124.3 126.1 103.1 70.6 101.9 129.5 149.9 164.6 176.9 196.7 209.3 227.2 238.8 246.4 263.9 276.7 289.6 301 315.9 326.8 332.6 349.3 370.1 381.9 388.9 399.2 414 425.3 425.2 428.4 426.7 425 423.9 415.1 404.2 389.8 378.8 375.1 366.7 364.1 364
130 131.9 132.1 130.4 127.9 124.6 123 128.5 141.8 151.2 158.7 166.6 173.7 183.1 194.2 200 203.3 197.9 181.9 164.7 151 138.4 126.5 112.5 98.6 87.3 79.8 76.1 78.9 86.7 84.1 92.9 108.2 122.3 124.4 120.5 107.4 96 83.7 74.8 64.6 62.4 65.4 69.3 74.3 69.2 58.4 54.7 55.8 64.2 59.2 44.7 27.7 10 2.7 2.4 2.7 3.8 2.7 2.6 3 4.1 4.2 2.2 3.7 3.8 3.9 3.9 3.5 4.6 4.6 4.7 3.8 3.7 3.7 3.7 3.6 3.4 3.3 3.2 3.5 4.8 4.6 9.3 38.7 86.1 105 104 120.1 129.1 151.4 174.6 198.7 218.6 244.7 238.1 215.8 189 173.5 161.4 153.4 145.1 134.8 130.4 128.2 128.8 143.1 157.8 162.3 160.2 155.9 146.3 147.8 154.4 158.9 164.1 169.8 177.2 177.7 190.3 200.9 206.4 213 225.4 235 239.4 244.2 248.9 254.5 257.9 260.8 257.1 252.9 248 239.1 222.6 208.6 196.9 189.1 175.6 161.3 153.4 127.9 101.7 77.8 58.1 49.3 48.5 49.8 51.2 54.7 65.8 78.3 95.5 110.7 120 124 130.5 136.7 143.5 145.9 122.7 88.9 97.6 120 146.3 155.2 168.9 183 193.3 207.5 232 250.7 264.8 286.1 293.4 301.6 316.3 324.2 332.5 349.2 360.9 376.7 392.6 404.4 407.8 412.7 414.9 417.9 418.1 417.4 413.1 408.6 397.2 390.6 379 373.1 367.4 369.5 369.7
125.8 127.5 126.6 124.7 120.4 116.4 114.7 121.9 134.3 143.4 148.1 159 167.1 177.2 188.2 195.8 195.5 181.3 161.8 146 133 121.2 109.9 95.4 82.5 74.8 71.7 71.5 72.8 74.2 76.5 80.8 100.8 108.2 110.1 103.7 93.7 80.4 71.9 64.9 55.9 52.1 55.5 60 63.2 54 49.1 44.5 48.6 52.8 48.7 37.4 18.5 7.5 2.2 1.9 2.4 2.4 2.6 2.3 3 4.1 3.1 3.5 3.5 3.6 3.6 3.6 4.4 4.5 4.6 4.7 3.8 3.7 3.7 3.7 3.7 3.4 3.2 3.2 3.2 3.6 4.1 4.1 20.4 59.3 80.2 96.7 106.3 125.5 158.3 192.4 221 250.1 247.3 226.8 206.5 190 179.2 163.2 152.4 143.3 140.3 139.7 140.7 141.8 154.6 168.7 174.2 175.7 171.2 159.2 153.9 156 159.2 163.4 170.9 179.9 181.4 189.6 200.1 208.4 211.3 219.1 231 237.3 239.8 245.2 252.7 257 253.1 245.4 237 227.8 218.9 200.8 187.4 172.5 160.4 151.1 144.8 133.2 104.5 82.3 61.6 51.7 51.5 54.5 56.3 58.5 66.8 79.8 96 114.2 130.7 137.5 144.1 151.2 158.1 165.2 167.7 141.5 106.3 86.5 113.6 127.8 143.1 163.7 177.3 192.8 213.9 238.5 259.7 271.7 283.1 294.1 304.3 316.6 326.1 332.7 346.2 356.1 372 390.1 397.1 398.6 401.3 401.4 401.5 404.2 405 400.3 395.8 389.4 382.3 369.8 366.7 362.4 363.6 366.9
121.2 123.1 121.9 118.9 114.1 109.5 108.6 112.9 125.8 135.1 143.4 152 164.9 175.2 185 187.6 180.1 162.2 142.5 126.6 115 104.2 93.9 80.6 71.2 66.8 65.1 64.6 64.6 65.1 67.8 76.2 98.5 97.2 93.6 85.7 74.9 64.8 62.1 55.6 46.7 41.6 45.3 46.5 47.2 41.2 34.7 33.4 39.4 32.8 28.9 24.6 11.7 5.7 2.1 2.1 2.4 2.4 2.1 2.9 5.9 3 3.3 3.4 3.4 3.5 3.5 3.5 3.6 4.4 4.5 4.6 3.8 3.7 3.7 3.7 3.6 3.1 3.1 3.2 4.1 4.2 4.3 4.4 15.3 42.5 68.3 89.2 111.1 143 177.9 224.5 232.8 242.8 231.2 218.5 203.3 194 178 167.7 156.4 155.5 158 157.6 156.9 160.1 167.8 176.9 188.2 194.4 187.4 171.5 160.9 158.8 160.3 163.4 168.9 181.5 184.3 189.7 198.7 207.8 205.6 212.5 219.4 226.4 232.4 242.1 245.4 242.8 234.5 224.2 214.8 205.7 197.6 179.6 164.1 147.2 139.6 136.3 126.2 103.7 80 63.6 56.2 55.6 59.5 61.5 65.9 75.3 88.6 101 116.2 130.2 144.5 157.4 164.1 170.9 178.9 189.6 192.1 166 131.8 107.1 92.5 109.8 132.6 153.9 172.5 191 212.4 231.9 251.8 264.9 279.4 294.6 308.9 317.3 327.2 334.6 346.7 362.4 375.5 380.8 385.8 388 391.1 389.6 385.9 392.9 394.1 385.9 384.9 376.5 365.2 358.7 355.1 354.3 357.8 364.4
116.8 118.8 116 111.7 106.9 101.8 99.5 103.2 114.6 125 132.6 144.8 159.5 174 180.7 175.9 164.6 143.6 125.5 110.7 99.7 88 76.8 67.7 62.1 60.8 58 57.9 59.5 59.2 64.1 77.5 86.9 85.2 79.5 73.2 65.7 57.5 51.3 44.2 39.3 34.4 36.5 37.1 34.7 27.8 27.1 31.1 35.3 24 18.9 17.3 8.6 2.1 2.1 1.9 1.4 2.3 3.5 3.5 4.6 3.2 3.1 3.2 3.3 3.4 3.4 3.4 3.4 3.6 4.4 3.7 3.7 3.7 3.7 3.7 3.1 3.1 3.1 3.8 4.6 4.5 5.8 6.6 30.9 63.8 86.5 100.1 127.8 167.5 206.8 218.1 231 228.9 217.9 208.2 202.1 195.4 186.6 176.3 172.3 178.8 180.9 170.7 168 172.3 179.3 189.1 200.4 207.4 198.6 183.3 170.4 162.8 161.7 164.2 168.4 180.6 185.2 193 198.9 203.3 200.1 205.4 215 220.2 225.2 228.4 228.3 222.4 211.8 200 191.1 182.6 168.6 151.8 137.4 128.4 125.9 112.3 92.9 76.1 62.7 63.1 62 65.9 69.8 77.7 88.7 101.8 117 132.6 146.7 150.3 163.3 176.4 182.2 187.4 195.2 206.2 214.5 194.9 162.4 133.8 114.3 98.4 118.6 142.3 162.9 181 208.6 221.2 242.3 259.4 275.5 294.6 302.3 311.6 322.5 334.8 347.6 359 365 371.6 377.3 379.3 377.5 378.6 377.2 382.9 381.5 377.2 370.5 361.7 355.2 347 346.6 351.2 356.5 362
113.4 113.5 109.3 104.4 99.4 94.4 91.8 90.8 102.7 109.9 122.6 137.1 152.4 163.5 165.6 162.1 147.2 125.6 108.5 95.9 84.6 73.2 64.3 57.7 54.8 55.8 50.1 50.4 52.1 52.2 61.6 67.8 71.3 70.3 65.2 60.5 54.4 47.8 39.2 33.3 28.5 24.5 26.8 25.6 22.6 21.6 23.7 30.1 25.2 14.6 14.7 10.3 2.4 1.7 1.5 2 1.8 2.7 2.2 4.8 4.4 3.7 3 3.1 3.1 3.2 3.3 3.3 3.3 3.5 2.9 2.4 3.7 3.7 3.8 2.2 3.4 3.5 4.1 4.8 5.9 6.8 7.9 9.7 12.8 59.2 67.6 88.8 137.9 173.4 194.5 203.2 218.3 213.9 205 203 205.4 206.3 193.7 191.4 195 195.1 185.3 171.9 171.8 179.6 191 203.4 213.4 213.5 207.2 195.8 182 170.1 165.4 165.7 169.4 180 187.4 189.9 197.7 193.5 196.7 206.9 214.1 216.7 223.2 217.1 209.6 201.4 189.1 177.7 168.5 157.7 141.7 125.9 117.5 108.4 96.4 80.9 67.7 64.4 70.9 76.3 80.6 85.8 88.9 95.4 104.5 123.5 148.8 166.6 176.5 175.2 179.8 187.3 194 203.1 211.3 220.1 229.3 223.8 194 164.1 137.3 122.3 103.8 130.8 153.6 175.3 194 214 235.8 256.7 273.5 285.4 292.5 304.1 314.9 328.4 341.6 351.4 358.8 365.1 368.8 368.8 369.7 367.3 369.3 369.9 367.4 361.7 355 347.4 340.7 341.2 344 350.4 356.8 364.1
107.8 106 101.8 96.8 91.8 87.2 83.8 82.4 91.5 100.7 111.2 127.9 142.2 150 152.4 142.6 127.7 109.1 94 80.2 70.4 61.6 55 49.6 46.6 47.5 43.4 42.3 43.9 46.7 53.6 58.3 59.5 56.8 53 48.4 41.2 35 26.2 23.4 20.5 18.4 17.7 17.2 17.8 19.8 23 27 15.2 8.8 6.9 2.5 1.8 1.6 1.7 2 4.9 3.7 4.5 3.5 3.4 3.3 2.8 2.9 3 3.1 3.1 3.2 3.2 2.8 2.8 2.8 2 3.7 3.8 3.1 4 4.3 4.9 5.4 6.5 8 10 11.6 18.5 40.1 63.3 94.8 133.1 157.5 179.7 191 201.3 195.5 202.1 210.6 216.8 217.8 211.1 205 199.1 199.1 182.2 171.4 174.5 189.2 205.3 216.6 221 231 221.8 210.8 197.4 185.1 175.2 169 171.2 178.7 185.4 184.8 187.5 192.4 207.6 203.9 212.8 210.5 205.2 197.7 190.3 180.5 169.1 158.7 145.4 131.6 117.3 106.7 97.7 85.2 71.7 63.2 62 68.3 86.4 86.8 93.9 95.6 98.2 107 122.8 145.8 174.2 199.8 195 191.2 191.5 198.9 208.5 219 227 233.2 236.6 235.1 220.4 191.3 164.9 144.4 112.4 118 144.3 169.1 185.4 206.7 225.9 254.4 264.5 273.6 281.6 294.3 307.5 322.5 335.2 344 350.4 352.3 356.4 358.4 357.4 354.1 354.7 352.9 348.7 343.2 338.6 333.5 334.1 337.6 343.7 351.4 359.4 368.4
101 99 94.7 89.7 85 79.8 75.7 73 75.8 86.5 98.5 115.2 129.9 136.4 133.8 122.6 107.9 90.9 76 67.7 59.1 51.9 46.5 42.1 39.4 38.2 36.1 36.2 38.1 42.3 46.9 49.6 48.9 46.3 42.2 34.8 27.2 22.7 17.8 17 16.4 16.7 16.5 16 15.4 17.9 20.8 16.9 7.2 4.5 2.2 2.4 2.1 2.1 2.3 6.6 3.6 3.8 3.1 2.3 2.4 2.5 2.7 2.8 2.8 2.9 3 3 2.8 2.8 2.7 2.7 2.8 2.3 3.3 3.6 4.4 4.4 5.1 6.2 7.4 10.2 14.2 18.5 21.5 29.2 62.1 86.6 119.9 145.2 154.3 160.6 182.4 199.2 212.4 222.2 227.2 227.8 214.9 197.9 192.5 188.2 174.1 171.3 182.6 206.1 214 223.7 239.2 236.9 226.6 230.1 216 203.8 189.9 178.1 175.3 177.7 180.5 179.4 189.3 197 205.4 200.3 198.4 192.6 185.6 175.9 166.6 156 146.5 135.8 120.2 107.5 96.1 86.2 76.5 64.7 60.9 60.1 65.6 77.6 104 92.5 95.4 101.9 112.1 126.6 145.8 175.6 203.5 215.1 209.8 202.8 204.8 212.6 222.4 232.5 242.3 249.2 248.6 245.4 234.7 211.4 186.6 160 132.9 106.8 132.5 158.3 178.4 197.3 217 238.8 252.8 263.2 271.7 289 299.6 313.4 325.7 334.1 338.4 341.6 345.7 345.4 342.7 341.8 338.2 333.7 329.7 326.9 323.1 326 329.4 335.5 343.6 351.7 361.8 375.1
95.2 92.9 89.5 83.7 78.8 73.4 68.7 66.2 64.8 73.2 87.8 104 117.3 121 114.8 103.7 90.5 73.8 66 56.9 49 43.5 39.4 36.7 34.7 32.9 32.4 33.2 35.7 39.2 43.3 44.2 40.6 35.1 27.4 22 18.9 13.9 13.6 13.6 14.3 16.2 18.9 16.1 13.5 13.6 12.5 7 3.1 2 1.9 2.1 0.4 2.4 4.3 3.5 3.9 2.3 2.1 2.3 2.2 2.3 2.6 3 2.9 2.9 2.9 3 2.8 2.7 2.6 2.6 3.2 3.6 1.9 4.6 4.8 3.8 9.2 13.8 19.7 28.2 36.4 45 52.6 54.6 64.9 94.3 123 134.3 132.6 141.8 173.4 200.7 210.2 212.6 218.9 224.3 197.6 184.2 176.2 171.1 168.4 171.6 189 206.5 217 233.9 240.8 236.5 234.5 244 235.4 223 209.2 193.7 184.2 180.7 179.8 176.7 180.3 189.9 189 183.7 178 171.9 163.1 152.3 139.6 128.2 116.9 104.4 95 87.6 77.5 67.9 61.3 59.4 59.2 62.2 74.2 91.1 103 99.8 106.4 117.6 131.7 149.2 174.1 203.3 225.9 233.8 222.2 212.8 214.4 224 236.1 248.8 261.5 266.2 264.6 260.3 247.5 225 202.8 178.2 151.1 121.8 119.5 145.6 169.9 187.2 205.2 225.2 237.5 251.6 262.2 279.7 293 304.6 314.4 321.8 327 331.2 333.2 332.4 330 324.5 320.5 318.1 315.6 312.3 316.6 317.2 327.7 334.5 341.5 351.2 367.2 381.5
89.5 87.5 84.4 78.7 72.8 67.8 63.1 60 58.2 64.1 79.1 94.7 102.4 103.5 97.1 86.5 74.7 66.6 57.5 47.7 40 36 33.9 32.1 30.3 28.4 28.3 31.9 37.8 43.1 42.3 36.2 29 23.8 17.8 15.4 12.5 10 10.8 12.2 14.1 16.2 17.9 13.3 11.7 10.6 8.3 3.8 1.6 2 1.9 2.1 1.2 2.1 3.3 3.6 2.3 1.9 2.3 2.4 2.3 2.2 2.4 2.9 3.2 3.1 2.9 3.2 2.8 2.7 2.6 3.2 4 4.2 4.3 7.9 10.2 17.9 26.7 37.2 42.4 49.7 63 71.6 75.7 79 76.8 92.7 99.1 109.8 117.5 133.9 160.6 183.1 186.8 190.4 206.6 202 179.1 166.4 162.1 161.2 161.7 171.6 190.2 209.2 226.6 234.5 231.7 239 243.2 257.2 251.5 241.9 229.1 214.1 200.4 189.9 179.3 175.6 179.5 171.9 170.9 168.1 158.6 151.1 139.4 127.9 114.1 100.3 87.8 79.3 74.3 68.9 60.6 58.4 57.9 58.7 59.6 69.1 86.6 103.5 105.7 112.1 122.8 136.3 156.2 178.9 204.1 233.3 247.6 246 233.4 221.6 221.9 233.4 245.7 259.3 274.9 281.1 279.6 273.9 260.1 239.6 218 196.3 170.3 142.9 114.1 132.4 157.2 178.9 191.9 209.8 219.7 239 251 269.4 282.7 295.2 304.1 313.3 317.8 317.7 319.5 318.8 314 311 306 305.8 302.6 305.1 305.9 318.5 326.6 334.4 340.9 355.8 371.8 383.8
84 81.8 78.4 72.5 67.2 62.1 57.2 53.8 51.6 58.8 72.5 84.6 90.5 91.3 81.5 72.9 65.2 57.7 48.8 39.3 32.4 30.5 31.1 28.9 26.6 24.6 26.1 35 44 42.5 36.6 28.6 19.6 15 12.3 12 9.1 9 11.3 13.3 14.2 14.9 13.3 12.9 8.9 6.7 3.5 2 2.1 2.3 2.3 1.3 2.1 1.7 3.3 2.8 1.9 2 2.6 2.5 2.2 1.9 2.5 3 3.4 3 3.2 3.1 3 2.6 2.5 3.6 5.3 9.7 17.5 23 31.3 42.7 51.2 59.8 67.5 71 82.4 92.6 93.9 93.9 96.3 96.7 112.2 113.3 112.4 128 151.9 160.8 161.9 178.2 191.2 178.7 165 156.4 156 156.2 160.5 174.8 196.5 216.2 217.9 225.9 230.5 237 252.9 261.7 261.7 260 253.1 233.3 215.6 198.9 177.7 174.5 171.2 160.2 156.3 151.5 141.5 130 115.7 100.7 86.6 75.6 66.7 61.6 58.5 57.3 56.9 56.6 57.5 58.2 65.2 82.1 98.4 108.6 114.3 126.5 141 165.5 191.8 214.4 242.9 251.9 255.5 253.8 241.8 230.9 229.6 240.6 252.6 265.5 282 288.8 288.2 286.1 273.6 253.3 232.6 211.6 190.9 165.7 138.6 118 144.9 169.2 181.7 194.2 208.2 224.8 238.5 258.2 267.8 284 293.1 299.6 303 305.6 306.9 304.1 303.3 299.5 291.5 291.1 294 297.4 308.8 318 326.1 334.3 343.9 359 372.5 384.4
78.6 76.5 72.8 67 61.2 56 51.4 47.5 44.6 52.7 66.6 74.6 79 74.5 67.3 61.7 55.5 46.5 37 30.2 26 25.9 27.5 24.4 22.2 20.8 23.5 32.4 39.6 37.3 27.4 18.6 11.2 8.8 7.5 7.7 9 12.3 17.2 15.5 13.8 12.7 10.8 7.8 3.4 2.2 2.2 1.8 2 2.5 0.4 2.1 3.7 2.3 2.2 2.2 2.1 2.6 2.4 2.7 2.5 2.1 2.9 1.4 2.7 2.9 3 3.1 3.5 3.7 3.2 13.8 30.1 39.2 40.6 40.9 47.3 59.5 70.3 78 88.4 97 104.3 109.3 113.5 115 114.3 117.3 127.6 135.8 137.5 124.2 135.4 155.4 174.6 187.5 177.5 164.7 154.8 154.3 154.1 155.4 163.4 181.6 201.5 205.7 210.7 221.6 223.2 228.6 252.8 258.7 259.6 256.7 256 235.6 214 192.8 173.9 164.5 150.9 142.8 138.7 132 121.5 104.6 87.9 75.7 65.5 58.4 56.6 54.7 54.9 55.1 55.8 56.8 59.3 63.9 78.9 96.4 109.8 115.9 126.1 143.8 169.7 197.4 220.3 241.6 258.8 261.1 261.8 257.5 249.5 240.2 237.5 247.8 258.9 272.3 284.3 292.4 296 296.1 288.6 270.6 249.4 227.5 207.1 188.2 160.9 135.4 131.5 156.7 173.3 184.5 197.6 214.6 229.7 241.5 255.2 272.8 280.8 286.2 288.9 293.3 293.9 292.7 291.8 284.6 278.4 278.7 291 300.1 308.8 317.5 326.5 336.8 348.8 361.3 374.2 386.4
73.7 71.6 67.6 61.6 54 49.5 45 41.4 38.7 44.9 59.1 64.6 64.9 61.9 55.7 50.5 43.1 33.9 26.7 22.1 19.3 19.6 19.8 18.5 18.3 18.7 21.4 26.4 31 23.8 15.4 9.5 7.4 6.4 6.4 9.4 13.9 16.7 16.9 15.5 13.3 8.9 3.8 0.2 2.2 2.4 2.2 1.8 2 0.4 2.1 1.6 2.9 2.6 2.1 2.5 1.4 2 1.8 1.7 2.4 2.5 2.4 2.6 2.6 2.6 2.6 3.7 3.2 3.7 20.6 38.1 42.6 45.2 48.7 53.1 68.4 83.4 95.6 101.9 112.3 121.4 131.6 134.4 136.6 138.7 137.7 136.6 137.1 147 154 145 142.3 158.9 166.4 163.5 156.2 152.7 152.9 153 154.8 156.7 167.5 182.1 196.9 200.9 209.2 216.4 217.6 224.3 236.3 245.3 252.9 246.8 244.4 219.6 196.8 177.5 160.5 155 135 117.5 112.2 100.7 86.1 76.2 65.6 58 55.4 53.9 52.6 53.3 54.2 55.1 56.3 61.1 74.5 85.1 95.3 109.9 118.1 127.6 143.9 167.7 202.7 226.4 238.7 257.7 268.6 276.3 271.9 261.7 253.7 246.2 245.4 253.3 265.5 278.7 290.8 300.9 306.2 306.6 302.7 286.1 265.1 243.4 223.8 205.5 180.1 150.9 127.9 140.1 158.3 173.2 189 202 218.7 226.7 243.5 259.9 268.3 274.5 278.3 280.6 281.4 282.3 278.1 267.2 273.5 282.8 291.7 300.6 309.1 318.8 329.9 340.5 350.4 364.6 379.2 387.9
68.3 65.3 60.9 53 46.6 42.9 39.9 36.6 32.2 35.4 48.6 53.6 53.3 49.7 45 37.5 29.4 22.2 17.2 14.8 15 15.2 15.6 16.4 16.6 17.1 20.9 21.4 18.5 14.4 8.4 7.4 5.8 6 8.6 11.6 13.8 17 15.3 12 5.1 2.3 2.1 2.3 1.9 2.2 2.4 2.1 0.5 2.1 1.6 2.2 2.3 2.5 2.6 2.7 2.5 1.9 1.7 2.1 2.3 1.5 2.8 2.6 2.6 3.1 3.3 3 4.4 19.3 36.8 49.8 43.7 50.1 61.8 75.8 92 108.8 120.4 127.4 132.2 138.9 157.2 160 156.2 156.2 154.6 157.9 159.2 162.1 171.2 167.9 154.9 155 152.5 152.2 151.8 152.6 152.8 154.1 154.7 159.1 168 178.1 193 200.4 208.7 212.6 212.6 218 228.2 235.1 242.5 235.1 222.4 202.5 181 160.5 145.5 122.8 105.9 88.7 80.5 70.2 63 56.3 53.9 52.3 51.6 51.4 52.7 54.5 55.7 61 67.3 82 97.6 110.2 118.7 128.2 141.7 153.9 167.2 201.2 224.1 238.8 251.6 265.9 275.5 275.7 269.7 260.2 253 248.1 249.8 258.7 273 285.9 297.9 308.5 315.4 316.7 313.4 300.9 280.7 260.2 240.5 219.8 197.4 174.1 153 136.2 136.1 152.6 167.5 192.8 205.4 215.3 230.9 246.6 256.2 261 265.4 268.4 268.9 266.2 260.6 267.4 278.3 285.6 293.2 303 312.2 322.6 332.7 343.7 356.7 369.3 380.8 394.4
61.6 58 51.8 45 40.5 37.3 34.3 31.8 27.1 25.9 33.3 38.8 38.6 38.1 31.2 23.3 16.9 14.4 12 11.5 12.5 13.4 14.9 16.6 17.5 15.7 17.6 15.2 11.1 8.2 5.9 5.9 5.1 8.3 13.4 15.4 13.8 8.4 4.6 2.8 2.3 2.5 2 2 2 1.9 2.3 2.4 2.1 1.5 2.8 2.1 2 2.2 2.5 2.7 2.7 2.6 1.7 2.3 2.7 3 1.8 2.8 3.2 3.9 2.2 11.4 24.9 42.2 49.9 41.8 52 67.1 77.2 94.7 113.7 133.4 140 142.1 147.1 150.1 163.3 167.2 164.7 161.2 166.4 170.4 175.3 176.5 174.6 177.1 168.9 160.7 157 153.5 153.3 153.3 154.6 161.2 159.6 160.8 166.8 179.9 189.2 194.3 204.5 205.7 205.5 214.4 221.9 223.1 230.2 225.5 206.7 187.2 164.2 140.3 120.2 97.6 81.4 68.7 61.4 55 51.4 50.1 49.8 50 51.1 52.2 53.5 59.1 69.4 76 89.9 106.2 122.7 135.6 147.3 159.8 173.8 188 201.9 219 237.5 247.5 257.3 266 268.6 265.6 261.8 255.9 252.4 252.7 255.9 267.5 281.8 294.1 305.9 316.8 323.4 324.7 320.8 312.8 294.7 274.7 253.8 231.3 211.8 189 165.6 142.3 152.4 160.4 150.1 173.4 193.6 207.8 221.1 232.4 242.1 247 254.7 261 262.4 252 260.8 269 276.5 284.8 292.8 303.9 313.5 324.4 335.9 348.5 359 371.1 382.2 395.7
55.3 51.2 44.6 38.7 35 31.6 28.7 26.1 22.4 18.1 22.9 29.2 32.4 26.3 17.6 10.9 9 8.8 9.4 10 11.2 12.2 13.2 14.9 16.2 16.4 13.4 11.3 9.9 8.3 6.7 5.1 4.6 7.3 9.6 5.6 3.8 2.6 2.4 2.3 2.4 2.5 2.3 2.5 2.4 2 2.5 1.9 2 2.7 2.7 2.1 1.6 1.9 2.2 2.5 2.7 2.7 2.7 2.7 2.5 3.7 4 3.7 3.4 4.8 8.4 20.9 46.1 38.7 38 45 57.9 75.1 85.7 103.7 124.5 135.6 141.7 144.2 155.6 160.2 163 163.5 166.8 165.7 180 181.2 184 182.9 184.3 182.6 177.9 166.4 156.5 152.7 152.2 153.3 155 159.7 158 165 168.6 175.9 182.7 189.4 200.3 194.7 197.3 205 208.1 217.4 227.6 213.9 193.8 167.7 138.1 115.6 94.8 75.4 63.1 56.4 53 49.6 47.1 47 47.8 49.3 51.3 53.4 61.6 74 87.2 99.3 114.8 130.8 149.2 163.7 179.8 194.2 206.8 217.7 233.1 242.7 245.6 251.7 256.9 258.6 258 258.5 257.5 255.7 255.6 258.8 266.2 278 290.5 303.5 315.9 325.5 332.1 332.8 327.8 318.3 306 284.8 261.4 238.6 219.8 200.7 170.4 154 168.8 180.2 173 155 186 198.7 209.1 217.3 227.1 237.6 246.4 252.3 253.9 247 258.1 264.8 272.5 283.7 292.4 302.5 313.7 327.1 338.5 348.1 358.6 371.5 382.4 396.5
50.2 43.7 36.8 32.8 29.3 25.8 23.6 21.6 18.7 12.3 16.5 23.4 20.7 12.4 7 5.6 5.9 6.4 7.2 8.2 9.5 10.4 11.7 12.8 13.9 17 14.1 11.7 10.2 8.1 6.4 5.4 5.6 4.2 3.6 3.5 2.9 2 2.2 1.5 2.5 2.5 2.5 2.5 2.5 2.5 1.8 3.1 2.2 1.8 2 1.7 1.7 2 2.3 2.7 2.7 2.7 2.7 2.7 2.5 2.4 4.3 4.9 4.5 7.6 18 30 33.5 33.6 36.7 45.6 66.3 86.9 93.2 108.5 118.8 129.1 134.1 145.3 151.1 153.7 157.6 155.8 165.4 170 172 183 189.1 186.3 180.3 177.5 174.5 173.2 167.7 158.8 153.7 154.3 155.8 156.2 158.2 164.6 166.4 176.7 180.8 186.2 188.6 187.4 191.1 197.6 203 212.4 211 190.5 172.5 142.8 115.2 95 73.6 59.1 51.5 49.5 47.5 45.6 44.3 44.7 46.9 50.7 57.9 68.7 84 99 112 124.7 142.9 163.4 182.8 200.3 220.1 231 236.1 244.8 248.6 248.3 249.3 252.5 255.2 255.8 255.7 256.9 258.6 259.4 260.7 267 275.8 286.8 299.2 312.2 324 331.8 337.9 339.4 333.8 324.1 309.7 287.9 265.7 243.3 225.3 203.8 172.3 165.1 184.5 189.5 185.3 177.2 176.5 194.4 200.8 208.8 218.2 229.7 242 246.7 242 240.4 250.6 260.7 271.1 280.6 291.3 302 313.9 326.3 336.5 346.8 359 370.8 382 396.1
45.6 38.6 32.3 27.7 24.4 22.1 18.8 17.5 14.7 12.5 11.8 11.3 8.7 6.2 4.6 3.9 4.5 4.9 5.1 6.5 8 9.2 10.3 11.9 14.6 17.9 17.9 14.5 10 7.6 6.5 6.5 5.6 3.7 2.3 2.4 2.2 1.8 2.1 2.4 2.5 2.5 2.5 1.9 2.7 3.1 3.3 2.9 2.2 1.9 1.8 1.8 1.8 2.1 2.5 2.8 3 1.3 2.7 2.5 2.6 2.4 3.4 7 7.3 13.4 29.2 30.3 31.6 33 38 49.4 70.2 81.3 87.1 96.1 106.2 119.4 123.5 131.3 135.9 145.1 149.5 150.3 161 165.2 171.7 179.4 183.3 186.8 186.6 187.1 188.5 183.6 173.8 166.6 163.4 159.1 158.2 158.2 159.3 161.8 166.1 175.4 181.3 183.3 188.2 182.5 187.3 192.1 196 203.2 192 166.8 142.4 116.3 93.4 75.3 58.6 49.5 46.5 45.1 46.1 46.1 45.3 44.8 52.7 63.4 76.6 94.8 108.9 122.8 137.7 153.2 171.7 198.6 220.3 242.1 254.8 256.9 256.4 255.6 255.7 254.8 253.7 253.9 256.1 256.5 257.6 259.8 261.9 263.4 266.4 275 284.8 295 307.5 320.6 328.1 334.4 340 340.4 334.6 325.7 309.1 287.2 267.2 248.4 228.4 204.7 174.1 183.6 195.2 195.6 186.9 184.6 184.3 181.7 190.9 198.2 208.9 219.6 230.5 236.1 228.2 236.3 248.1 255.4 267.3 277.9 288.4 301.4 312.7 322.9 333.6 345.6 358.5 368.5 380.7 395.2
41.7 34.2 28.1 23.7 20.4 17.7 15.1 13.9 12.7 10.9 10 7.4 6.2 4.8 3.8 3.4 3.3 3.7 4.4 5.9 7.4 8.8 10.4 14.3 19.2 19.6 18.7 13.3 9.8 7.9 6.9 6.9 5.6 4.3 2.8 2.2 2.1 2 2.2 2.5 0.4 2.4 2 1.9 2.7 3.6 3.4 2.8 2.3 1.8 1.8 1.8 1.9 2.3 2.6 3 3.1 3.1 2.6 2.2 2 4 6.8 17.7 25.9 34 35.6 31 29.6 40 48.8 62.2 68.4 74 80.4 92.1 101.2 108.3 113.1 115.4 124.2 136.8 140.8 141.5 151.3 163.3 168.3 172 183.8 191.7 188.1 186.7 187.8 185.1 178.5 177.6 175.3 168.6 162.2 160.8 161.2 163.4 171.3 176.6 185.1 187.5 182 177.9 182.4 184.4 183.3 183.5 165.7 136.4 113.8 90.9 72.4 56.5 49.7 45.5 44.5 46.2 48.8 50.8 48.2 55.2 67.3 83.7 98.7 115.5 132.6 147.8 164.3 184.4 208.8 240.6 273.1 276 271.6 267.9 266.5 264.9 262.8 261.9 260.5 258.4 257.2 258.6 260.7 262.8 265 266.7 271.3 280.2 290.4 300.8 312.9 325.2 330.1 335.3 338 337.4 332 320.5 305 286.1 270.6 248.3 227.7 201.4 177.6 207.3 208.7 207.9 200.7 190.3 187.3 187.1 186.5 188.9 197.2 206.1 213.7 211.2 216.1 232.1 241.4 252.5 265.6 277.6 286.7 296.9 307.6 317.2 327.6 341.9 354.9 365.3 381.2 397
37.8 30.4 23.8 20.1 16.6 14.1 11.5 10.6 9.9 8.8 7 6 5.1 4.1 3.1 3 3 3.3 3.9 5.3 6.8 8.8 12 16.1 19.5 20.2 18.3 13.4 9.8 8.3 6.6 5.7 4.7 4.5 2.4 2.1 2 1.8 2.1 2.1 2 2 2 1.7 2.5 3.7 3.3 2.7 2.2 1.8 1.8 1.7 1.8 2.9 3.1 3.1 3.1 3.1 3.1 3.3 5.7 14.1 29.8 45 55.1 68.5 66.4 59.5 47 43 51.2 55.2 60 66 70.8 81.7 93 96.7 101.8 105.9 112.2 124.2 129.3 131.3 140 153.9 161.9 163 172.6 188.2 187 184.6 190.8 187 183.7 187.5 182.4 175.1 169.4 164.6 164.2 166.8 171.4 176 181.8 182.4 173.5 173.1 174.9 174.8 174.5 158 134 110.7 90.6 71.1 55.7 48.5 45.9 43.8 44.7 47.7 52.1 56.1 57.9 73.4 88.4 104.3 120.2 138.3 158 176.8 198.5 220 257.2 280.3 290.6 286 283.5 278.5 276.3 274.5 271.7 268.8 267 265.2 263.1 262.4 263.8 266 268.1 271.1 276.1 284.2 292.8 302.8 313.6 323.9 327.4 328.1 329.5 326.5 323.6 316.8 299 280.2 263.9 245.8 221.8 192.2 203 219.4 218.1 216.8 213.9 207.5 197.6 192.8 189.9 188.8 186 192.6 194.9 199.6 214.5 225.3 236.8 245.3 254.4 273.1 282.5 294.2 302.2 312 325.1 339.3 350.9 363.8 381.5 397
34.2 27.3 20.2 15.8 12.9 10.8 9.4 9.3 8.6 7.2 5.6 4.6 4 3.7 3 3.1 3.1 3.3 3.9 4.8 6.7 9.6 12.8 15.6 18.3 18 17 12.7 10.3 9.1 5.6 4.6 3.5 2.6 2 1.9 1.8 1.7 1.5 1.6 1.6 1.6 1.7 1.6 2.3 1.8 3.1 2.4 1.8 1.9 1.9 1.9 2 1.6 2.6 3.1 2.7 2.9 3.5 9.9 21.3 35.4 55.3 71.9 82.9 93.6 94.7 82.7 71 59.4 53.7 46.6 57.1 61.2 65.5 71.5 80.1 87.2 90.4 95.5 100.1 112.1 117.2 121.9 128.3 141.6 148.8 154.3 162.2 177.3 174.9 176.7 179.9 175.2 185.6 184.6 191.3 185.2 181.3 176.3 171.7 171 173.1 175.3 178.8 170.7 162.6 162.6 166.7 160.4 144.9 131.6 113.5 86.1 67.3 54 47.2 44.2 43.8 43.5 45.3 48.6 54.4 62.9 73.5 93.5 109.4 128.5 149.5 177.7 199.2 215 244.6 274.8 285.3 291.4 297.1 295.1 293.8 289.7 286.9 284 281.2 278.2 274.5 272.7 270.7 269.2 268.9 269.2 272 275.3 279.7 286.7 294.4 302.6 310.3 318.7 319.5 318.7 318.4 314.8 311.3 304.1 286.6 270.8 253.8 238 213.1 194.8 218.2 225.1 224.7 224.1 223.2 220 216.4 209.6 202.2 197 192.8 190.5 198.7 205.6 206.4 213.9 229.5 215.8 252.2 268 278.4 287.5 296.7 307.6 321.6 334.1 349.8 361.1 377.6 393.1
30.7 24.3 17.6 13.3 11 8.9 8 8.1 7.5 6.1 5.4 5 4.7 4.1 3.3 3.1 3.2 3.4 3.7 4.3 6.3 10.4 13.9 16.3 17.1 16.2 14.7 11.8 9.5 6.2 4.7 3.8 2.7 2 1.9 1.8 1.7 1.5 1.5 1.6 1.5 1.5 1.5 1.5 2.2 1.8 2.5 1.8 1.8 2.1 2.2 2.3 1.2 2.5 1.9 3.5 1.7 6.1 14.1 24.5 38 58.1 72.5 88.8 105.1 112.2 112.3 102.9 92.2 81.1 74.3 66.7 54.4 57.3 61.8 66.3 70.6 77.2 80.8 86.2 92.5 101.2 110.3 119.6 123.9 129 139.1 143.7 150.6 164.3 162.4 165.3 166.9 171.2 172.7 184.4 205 206.8 197.6 188.4 183.8 179.2 176 176.5 172.9 157.3 146.8 149.5 138.7 131.7 118.4 107.3 83.5 63.4 50.9 47.5 44.5 43.5 43.6 44.7 45.9 53.6 66 82 87.5 116.8 134.4 157 185.3 217.8 245.3 262.5 277.5 293.2 297.9 301.9 303.2 303.5 301.7 300.5 297.6 295.8 292.1 288.1 284.1 280.3 278.3 276.8 275.4 275.4 275.6 278.9 282.1 287.2 293.7 300.2 306.4 311.4 311.5 310.3 307.4 304.1 299.2 288.3 274.7 259.2 243.3 225.7 200.8 225.4 230 232.4 232.8 232 231 230.1 227.8 225.1 219.3 218.8 207.1 201.5 204.2 199.3 208.8 215.8 220.8 237.6 248.3 259.1 267.7 281.1 290.6 303.3 317.9 327.8 343.9 357.1 370.6 391
28 22.4 16.7 11.5 9.4 7.9 7.2 7 7.3 5.3 6.2 5.7 5.4 4 3.9 3.2 3.2 3.4 3.6 3.8 5.9 11.1 16.1 16.9 15.3 13.4 10.4 7.8 5.3 4.5 3.8 2.8 2 1.8 1.8 1.7 1.5 1.5 1.6 1.6 1.6 1.6 1.5 1.4 2.3 1.8 2.4 1.8 2 2.3 2.5 1.8 2.5 2.5 1.8 3.7 5.9 11.8 20.2 34.5 55.2 73.5 93.3 112.7 125.6 136.7 141.1 123.4 114.5 104.2 96.7 89 77.9 69 61.4 62 66 70.8 74.4 79.6 88.4 96.6 105.2 121.5 121.9 122.9 128.4 134.5 138.4 151.7 150.8 155.4 157.9 157.5 167.1 185.7 203 211.7 212.2 207.4 199.9 190.4 183.2 177.6 164.9 143.9 127.3 122.5 117.3 114.9 93.5 79.9 60.3 49.5 43.2 42.9 43.1 43.9 46.4 48.1 55.9 70.6 93.2 111.6 123.3 124.5 166.3 195.8 226.3 248.6 264.2 275.7 285.9 299 307.4 313.7 318 322.7 323.5 323 318.7 311.8 304 299.2 294.7 290.5 286.6 283.6 282.3 282.1 282.2 282.1 282.9 286.8 290.9 294.9 299.7 303.4 303.8 302.2 297.9 290.8 283.6 275.1 262.9 248.6 236.3 213 233 237 238.5 240.2 240.8 240.5 239.6 238.8 238.3 234.8 229.8 226.1 226.5 220.3 214.4 204.8 220.2 229.4 228.8 230.3 242.2 249.7 258.9 273.2 284.4 296.5 310.7 324.4 339.4 352.8 369.2 391.9
24 19.4 14.7 10.5 8.7 7.7 7.1 5.8 6.5 6 5.4 6.5 5.9 5 4.6 3.4 3.3 3.4 3.4 3.5 6.4 13.5 16.1 15 10.9 9.7 6 5.1 3.9 3.6 3.3 2.1 2 1.7 1.6 1.6 1.5 1.6 1.6 1.6 1.6 1.6 1.4 1.3 2.4 2.5 2.2 2 2.1 2.4 2.5 2.3 2.4 2.4 2.4 8.4 9.5 17.1 32.3 56.2 78.4 95.9 112.4 127.5 139.9 151.3 155.6 155.3 142.5 129.2 120.6 111.4 97.9 83.1 70.4 63.4 62.5 67.1 71.1 76.1 83.1 92.9 103.1 112.6 112.2 113 115.1 119 126.2 136 142.7 144.5 147.9 155 171.6 187 194.9 202.1 206.4 206.6 199.5 189.6 179 167.1 150 128.6 110.8 104.5 102.7 94.4 66.4 55.1 46.1 42.2 40.2 40.9 43.3 45.3 49.2 59.9 72.9 96.2 122.2 139.8 152.5 169.9 200.2 226 247.5 257.9 272.1 286.4 297.8 307.1 314.1 325 332.1 335.7 341.1 341.6 343.4 335.1 324.1 315.3 308.1 301 296.2 291.7 288.9 288.5 287.6 286.4 285.5 285.7 287.7 288.2 289 293.1 292.2 287.9 281.6 276.6 269.7 262.1 252.4 241.7 229.2 237 240.9 243.3 247.2 248.5 248.7 248.3 248.1 247.4 245.7 241 235.8 230.6 231.8 230.1 231.3 225.3 222.1 233.2 234.9 230.4 236.2 244.1 253 267.7 275.7 285.9 300.7 316.8 334.1 346.6 367.2 389.4
18.5 13.9 11.7 8.6 8.9 8.3 7.6 6.6 5.5 5.4 4.4 1.6 4.4 6.3 5.3 3.5 4.3 3.6 4.1 4.5 9.5 12.3 11.6 10.7 9.4 7.5 5 3.8 3.2 4 1.8 3.2 2.2 1.6 1.6 1.5 1.6 1.8 1.7 1.7 1.7 1.9 2 2.3 1.8 1.5 2.3 2.2 2.4 2.5 2.6 2.3 2 1.6 7.1 11.4 18.8 28.3 53 80.2 101.5 114.8 128.5 141.7 152.2 164.4 170.9 173.6 170 156.2 143.2 131.7 113.7 96.8 82.5 71.9 66.4 63.9 67.8 72.9 77.9 86.1 98.5 103.8 103.8 105.8 107.4 112.3 116.3 122.8 129.8 138.6 142.5 155.1 170.1 180.9 189.8 192.5 199.7 196.7 187.9 182 169 149.4 134 112.7 96 82.3 79.5 69.6 49.7 43.9 40.7 40.1 40.1 42.3 46.7 49.9 60.1 77.7 95.1 119.9 144.7 180.2 187.2 192.2 221 234.9 253.1 273.7 285.1 293.9 303.4 313.3 325.3 338.1 345.9 352.7 356.1 361.6 363.5 357.2 347.1 340.2 326.1 316.8 305.8 301.1 295.9 292.9 291.5 289.9 288.3 286.1 283.9 283.2 283.8 282.1 279.8 276 271.3 266.7 259.7 253.6 247.9 243.2 240.3 243.4 246.9 250.5 254.5 255.1 256.1 254.8 253.7 253.2 250.5 245.9 242.3 239.7 237.3 235.7 234.4 234.4 225.1 233.5 237.5 235.4 235.7 239.4 246.7 257.4 270.2 279.7 294.4 310.1 323.2 343 363.2 382.1
13.3 11.5 10.9 9.5 8.7 7.7 6.7 5.7 4.4 4.4 4.3 4.6 4.3 4.9 5 5 4.9 3.9 4.9 4.9 6.1 7.1 7.5 6.8 6.1 5.3 5.6 4.8 3.4 4 3.1 2.6 1.8 1.6 1.5 0.4 1.7 1.9 2 2 2 2.3 2.7 1.8 2.7 2.5 2.4 2.4 2.7 2.7 2.9 2.8 2.5 3.2 12.9 23 35.2 54.8 67.8 104.4 121.7 131.4 144.7 158.4 169.6 178.3 184 186.4 184.4 184 174.7 163.4 136.5 114.5 97.2 82.1 72.9 68 66 69.4 73.9 80.1 89.7 95.9 97.4 97.4 102 108 112.2 118.3 126.1 132.6 137.9 148.8 158.8 169.7 179 181.4 191.2 185 176.7 169.2 151.7 129.4 111.3 93.4 72.3 63.2 57.4 46.5 41.5 39.5 39.6 38.5 40.4 43.3 51.4 62.4 79.6 100.1 119.9 138.8 183.8 198.4 210.1 223.7 232.3 244.8 261.8 277.6 288.8 300.1 308.4 320.1 337.8 350.9 358.3 366 372.4 381.1 382.5 378.3 371.6 361.2 348.9 338.3 323.7 311.8 304.7 299.3 296.6 294.2 292.2 287.7 283.3 281 279 276.7 274.7 272.1 268 262 256.8 255.7 254.6 251.1 248.7 250.9 253.2 256.4 259.4 259.8 260.1 259.2 258.6 257.1 255.6 253 251.4 249.6 247.1 243.8 239.3 235.3 235.5 234.3 235.6 236.7 237.7 240.5 243.1 248.2 246.5 271.5 289 300.6 314.6 335 352.9 374.7
15.9 13.1 12.9 11.6 10.3 9.1 7.2 4.8 3.6 3.6 3.7 4 3.9 1.2 3.6 3.4 4.3 4.4 5 4.6 4.4 5.3 6 5.8 5.4 4.7 4.6 4 4.2 2.4 1.8 1.8 1.5 1.5 1.5 1.6 1.7 1.7 1.9 2.4 2.4 2.7 1.8 2.4 2.8 2.5 2.5 2.3 2.7 3.1 2.9 1.6 5.6 16.9 29.9 44.1 60.4 80.5 105.8 125.9 132.8 148.2 162.4 171.2 181.1 190.6 198.7 203.9 202.5 203.1 195.6 173.8 148.1 126.2 108.9 90.1 78.2 71.6 69.3 67.7 72.7 77.2 83.4 88.9 91.1 96.1 102.5 107.4 113.8 119 124.1 124.5 135 140.8 148.3 157.7 169.8 172.2 175.5 172.7 163.9 149 131.1 112.3 95.2 72.5 54.2 49.3 44.7 40.3 38.1 37.4 37.8 39.3 41.9 48.5 63.1 79.8 99.8 121.7 143.4 158.4 185.6 203.8 222.3 251.3 260.4 258.7 279.2 288.3 294.1 306 317 330.1 342.3 355.6 367.9 376.2 385.3 395.9 399.8 396.9 390.4 381.4 370.6 359.5 345.4 331.8 316.6 307.9 301.8 298.7 296.2 291.8 287.3 282.7 278 275.2 272.1 269.3 266 263.1 262.5 262.7 261.8 260 257.3 258.7 260.6 262.3 263.8 263.7 263.5 263.2 263 264.7 265.4 264.1 262.2 260.7 258.8 254.1 246.3 238.4 235.8 236.8 236.6 238.6 242 242.5 241.3 235.1 253.2 265.7 281.2 290.6 307.2 324.3 342.6 367.5
17.6 17.2 15.2 13.4 11.7 9.3 6.8 4.4 2.9 3.3 3.4 3.4 3.5 3.8 3.7 3.5 3.7 4.7 4.3 3.8 4.1 4.9 5.2 5 5.2 4.5 4.7 4.2 4.2 2.9 1 0.9 1.5 1.5 1.3 1.6 1.8 1.4 1.3 2.1 2.8 1.8 2.3 2.3 2.5 2.6 2.3 1.9 1.7 2.2 3.1 12.1 21.9 36.7 53 69.4 87.2 104 128.3 151.2 146.4 163.4 176.8 181.6 192.3 196.7 205 207.1 210 210.6 199.9 174.9 152.8 134.4 116.5 97.5 83 76.4 72.4 70.8 72.2 75.1 78.7 83.9 90.4 97.2 103 112.9 119.8 117.6 114.1 118.1 123.4 134.6 146.4 159.3 163 168.7 175.2 172.8 165.3 142.4 114.7 95.9 75.2 55.7 46.3 42.4 39.5 37.7 37.3 37.9 38.7 41.5 48.5 64.4 82.6 102.6 118.7 140.8 166.8 187.9 207.4 229 256.6 271 283.4 290.6 294.7 298.5 304.3 308.7 322.3 330.1 342.5 358.2 368.6 382.7 394.3 404.5 407.9 408.4 406.4 400.4 390.9 380.1 367.5 352.1 335.1 324.8 313.6 305.9 300.2 295.8 291.2 286.7 281.7 278.3 275.3 272.3 269.6 268.6 269.3 269.9 269.2 267.9 265.8 266.8 267.7 268.9 267.5 267.2 267 269.2 275 282.1 284.3 280.3 276.7 272.4 269.4 262.9 254.1 244.2 237.2 236.9 236.2 255.8 255.7 246.2 245.4 248.6 255.9 262.4 273.5 283.2 297.7 312.4 338.4 352.6
18.7 19.8 18.1 15.3 13 8.2 5.4 3.6 2.1 2.2 2.9 3 3.1 3.4 3.5 3.7 3.6 4.5 3.9 3.8 4 4.5 4.4 4.5 4.6 4 4.3 3.5 3.6 4 3.1 0.9 0.9 1.4 1.4 1.6 2 2.4 1.8 1.8 2.2 2.2 2.2 2.3 2.5 2.4 2.1 1.6 1.4 7.8 17.6 28.2 43.8 62.3 80.1 95.7 112.8 130.1 149.7 169 163 165.4 177.6 185.8 198.2 202.3 209.1 212.8 211.4 210 203.7 180.3 160.3 141.7 123.7 105.3 90.9 80.3 75.2 73.5 71.9 75.7 79.6 83.4 89.3 96.6 103.6 110 110.7 107.8 110.5 117.1 126.4 134.3 149.8 156.9 163.3 169.9 179.6 170.9 151.4 126 102.2 80.5 58.8 46.3 39.5 37.3 36.5 35.7 35.9 37.4 40 48.5 66.9 88.4 104.2 123.6 144.6 167.4 195.3 225.9 247.3 262.8 273.3 284.6 293.7 299.7 301.7 306.3 314.7 322.7 329.9 335.8 343.6 358.7 371.6 387 397.4 406.1 415.3 419.2 418.7 414.7 409.8 401.2 389.9 374.3 359.9 344.8 331.9 320.6 309.2 301 295.3 290.6 285.6 282.6 280.2 278.2 276.6 275.3 276 276.7 276.8 275.9 274.5 275.1 276 276.1 273.8 274.1 276.8 286.1 294.9 302.2 302.4 298 293.6 287.5 279.5 270 262 253.7 246.5 245.3 247.5 258.8 252.3 252.8 257.9 263.2 263.9 261.5 270.3 279.6 291.2 306.2 323.7 345.4
20.4 20.5 19.6 16.8 12.2 7.1 3.5 2.5 1.8 2.1 2.9 2.4 3.3 3.5 3.4 3.4 3.8 4.5 1.8 4.1 4.3 1.8 4.1 4 4 1.8 1.8 1.8 1.8 3.7 3.2 1.8 1.3 1.6 1.8 1.6 2.6 2.3 2.2 2.6 2 2.1 2.5 1.8 3 2.4 1.5 4.8 13 23.7 38.7 55.2 72.1 90.5 107.2 122.7 139.2 159.9 175.4 187.1 177.2 163.4 175.4 185.9 198.9 205.6 214.1 213.3 214.7 222.8 211.8 187.7 166.2 145.2 129.3 111.5 98.4 87.8 79.9 77 74.6 77 82.8 91.8 91.7 94.3 97 101.3 101.6 108.5 113.9 127.9 135.2 145.5 147.6 158 173.7 178 170.7 155 128.5 106.3 87.6 68.8 47.7 39 36.7 31.1 33.5 33.4 35.9 39.7 48.8 65.8 87.7 107.3 123.1 145.6 169.6 195.2 229.7 249.1 265.3 276 285.8 290.7 297.5 303.8 308.8 315.8 326.4 335.6 342.9 347.6 352.2 360.7 370.1 384.6 397 406.6 415.5 423 424.9 423.9 420.1 416.6 407.5 396.2 381.9 370.1 354.8 341.3 325.7 311.2 302.1 296.3 292.3 288.4 286 283.9 284.2 282.9 282.8 283.6 284.5 283.5 283.2 283.7 285 286.5 287.7 290.5 297.7 308.5 316.8 324.3 320.6 314.6 309.4 301.4 287.7 277.4 269.9 261.5 254.6 260.4 250.4 256.7 253.7 261.6 268.5 271 271.2 267.9 268.4 274.6 286 299.7 315.2 329.1
20.8 20.7 20.6 16.3 9.6 5.8 2.7 2.4 1.1 1.8 2.1 1.4 3.2 2.1 3.4 3.4 3.6 3.1 3.2 3.6 3.8 3.9 4.2 2.8 3.8 3.6 3.5 3.6 3.5 1.8 3.5 2.9 2.9 2.9 2 1.5 2 2.2 2.3 2.7 2.6 3 2.9 2.4 2.4 1.4 11.6 23.2 36.4 51.1 67 83.3 99.4 116 131.7 147.1 170.2 187.9 200.8 208 191.8 176.7 171.3 185.4 195 203 207.8 212.4 218.7 230.8 215.3 191.9 167.9 148.7 132.7 117.4 104.4 94.1 84.6 78.9 76 77.3 80.3 86.1 88.3 88.7 91.1 94.6 101.9 106 113.4 123 129.6 134.7 152.9 177.2 175.8 173.2 155.6 133.9 111.9 92.1 71.6 51.1 39.1 35.5 34.7 34.1 34.9 36.7 40.3 48.3 64.1 86.4 109.9 127 144.7 171.7 201.6 233.2 252.9 263.7 273 285.3 291.5 299.6 307.8 312.7 320 328 336.3 345.4 352.3 358.2 364.6 371.1 381 390.6 402 413 421.5 429.3 431.6 430.9 428.2 423.8 418.2 410.2 399.4 384.4 373 361.2 344.2 327.5 317.6 310 302.4 297.2 293.6 289.8 290 290.3 289.7 290.5 291.3 291.9 292.1 294.3 298.3 303.5 305.4 310.2 319.6 331.2 340.9 346.9 343.5 334.4 322.8 307.9 294.9 284.9 277.2 269.2 262.6 263 258.3 246.9 263.8 271.2 275 277 278.2 276.3 274.8 272.9 282.4 294.2 303.6 317.4
21.3 20.6 19 13.3 8.1 4.2 2.1 1.9 1.8 1.9 1.8 1.8 2.5 2.8 3.1 3.5 3.3 3.8 2.9 3.1 3.4 3.7 4.2 3.8 3.2 3 3 3 3 3.8 1.8 1.8 2.4 2.6 2.4 2.4 1.8 2.2 2.4 2.8 2.8 2.5 2.5 2.5 5.4 16.7 30.3 45.8 61.1 77.1 95.1 113.1 129.1 144.8 160 176.5 196.2 209.6 216.9 222 205.6 190.2 174.2 183.8 192.1 195.9 200.4 207.6 218.9 224.7 213.5 194.5 174.7 155.3 137.8 122.2 108.7 103.7 97.6 81.8 78.4 77.5 78.8 81.7 84.2 86.4 88.7 90.3 93.6 100.3 104.4 111.8 123.6 142.4 161.2 165.2 168.1 156.7 138.8 119.6 99.6 79.9 55.5 40.3 35.4 33.7 33.9 34 35.1 38.6 51.8 64.5 83.3 104.6 127.7 147.8 169.8 202.6 235.9 252.8 267 277.5 286.4 294.5 302.1 310.1 317.5 327.9 338 346.6 356.3 364.5 370.7 378.3 384.1 391.4 398.5 407.7 416.9 426.6 433.7 439.1 443 443.9 442.5 438.1 430.5 421.7 413.8 405.4 392.5 381.8 373.8 356.6 345.3 331.9 321.6 310.6 304.7 298.7 295.3 295.9 295.8 297 299.8 300.3 303.1 306.5 312.8 319.4 325.7 333.7 342.9 353.7 362.4 366.8 363.2 348 331.1 314.4 301.6 292 283.8 275.6 270.5 265 250 263.8 272.5 277.1 281 284 284.9 283.4 281.7 279.4 282.3 292.1 298.7 308.8
20.9 20 17.9 11.9 5.9 2.6 1.8 1.9 2 1.9 1.2 1.8 1.8 1.8 2.3 2.9 3.4 3.4 2.6 2.9 3.1 3.3 3.6 3.5 3.3 1 2.9 2.9 2.7 3.1 3.2 2.2 2.2 2.2 2.2 2.5 1.5 2.2 2.6 2.2 2.8 4.6 5.4 9.8 20.7 35 53 71 85.9 104.2 123.3 142.5 159.5 174.8 188.2 200.8 215.5 221.8 228.3 230.4 219.7 202.8 189.2 179.5 187.2 191.6 196.9 202.5 207.6 212.4 211.6 196.5 181.5 163.5 144.4 122.1 115.8 109.4 104.8 92.5 82 80 78.6 80.5 82.5 84 84.9 85.8 88.3 93.2 98.7 107.1 118 136.6 147.9 149.2 154.5 137 119 102.5 83 63.2 42.4 35.3 33.8 34.2 34.4 35.5 39 50.7 63.6 81.5 98.9 120.7 144.5 169.4 199.3 231.1 249.4 265.5 280 288.5 296.7 305 309.7 320.1 331.5 344.3 353.2 364.3 371.3 378.3 386.1 393.8 400.3 408.5 415.9 424.6 433.4 440.7 446.2 451.9 454.4 454.7 454.1 450.4 443.2 434.4 426.3 418.4 413.9 407.2 400.6 391.4 380.2 366.6 350.6 332.1 318.9 308.7 299.7 299.4 302.7 304.9 306.8 309.7 315.4 321.8 329.8 336.5 345.4 354.5 363.1 371.4 376.1 378 371.6 357.7 342.1 324.7 310.1 298.5 289.5 280.9 274.4 259.1 263.1 272.2 278 283.4 288.6 292.9 293.6 291.6 292.4 289.4 286.1 288.6 295.2 306.7
19.7 18.9 15.6 9.6 3.8 2.4 1.7 1.9 1.2 2 1.8 1.8 1.8 1.8 1.8 2 3 1.5 2.1 2.4 2.7 3 3.3 3.5 3.3 3.1 2.9 2.9 2.8 2 2.4 2.1 2.2 2.2 2.5 1.8 2.1 1.6 2.5 2.8 4.3 7.4 11.2 20.5 37.2 53.4 73.7 93.4 112.2 134.3 151 167.9 184.8 196.8 208.2 218.9 232.1 235 240.8 242.6 231.6 219.5 205.5 194 187.9 188.3 192.6 194.6 198.6 205 206 200.1 185.9 157.8 146.4 134.7 119.8 109.2 102 90.7 84.5 82.8 81.5 80.7 80.9 81.8 82.1 83.3 85.6 89.1 95.8 100.6 107.9 116.4 131.6 146.4 138.9 115.1 94.6 82.3 64.9 44.8 35.5 34.4 33.9 35.7 37.8 42.5 54 67.8 86.6 102.1 117.2 139.1 166.7 199.8 228.8 249.3 264.7 277.9 291 300.8 310.6 318 328.4 337.3 347.1 358.6 373.4 384 392.9 398.8 406 412.8 420 427.8 433.3 440.9 448.7 454 459.2 463.1 464.9 463.8 462.2 458.2 452.6 445.5 438.8 433.1 426.1 422.9 419.2 415.8 413 403.9 384.6 356.6 336.4 319.6 307.8 307.7 310.5 313 314.9 317.8 325.2 334.3 342.3 351.6 363.8 372.7 381.6 388.9 390.8 389.6 381 369 355.1 338.3 321.4 306.5 294.2 286.1 268.1 268.4 267.2 274.8 280.5 289.4 295.5 301.4 303.3 303.1 303.6 300.7 294.2 291 298.2 304.3
18.8 17 13 6.7 2.8 2 1.8 2 2 1.7 1.2 1.8 1.8 1.8 2 3.2 1.5 1.7 1.8 2 2.3 2.6 2.9 3.2 3.3 3.1 2.9 2.8 2.9 2.4 2.2 2.1 2.1 2.2 2.3 2.2 2.2 2.4 2.4 3 7.2 10.7 14.5 28.3 53.9 74 96.7 119.7 140.8 162.8 174.6 186.2 198.6 212.6 222.1 237 242.2 245.7 254.6 245.3 238.9 231.9 219.6 208 199.9 195.5 193.6 194 199.2 200.7 200.6 193.1 177.4 172 154.9 139.6 126.5 113.9 104.2 98.2 91.8 87.2 84.2 82 80.5 79.1 77.9 78.9 79.4 83.3 90.8 91.1 99.3 110.3 122.5 126.8 110.6 88.8 64.3 54.9 40.7 34.8 31 34.4 35.8 39.2 46.3 59.1 70.8 86.9 102.4 118.6 137.2 156.4 185.6 226.1 247.6 262.8 275.5 289 304.4 317.2 328.3 340.1 352.2 363.5 373.1 379.8 391 401.5 410.6 419.7 427.6 434.3 440.9 446.7 452.3 458 463.6 466.4 468.9 470.2 471 469.1 465.9 461.6 457.1 451.4 446.6 441.4 437 433.9 435.4 435.4 435.3 430.8 418.6 378 350.5 330 315.8 314.3 317.3 321.1 324.3 325.5 335.3 345.4 354 364.9 379.4 390.3 399.5 404.1 404.2 399.4 391.5 380.5 366.8 350.6 333 315 301 290.4 272.9 276.9 272.5 276.5 283.7 293 302.1 309.3 312.6 313.4 313.5 310.3 301.9 294 297.1 302.9
17.7 13.8 9.1 4 1.8 1.2 1.8 1.9 1.8 1.8 1.8 1.8 1.2 1.8 2.6 3.7 2.5 2 1.7 1.9 2 2.3 2.6 2.9 3.2 3.1 2.9 2.9 2.7 2.7 2.6 2.4 2 2.1 0.9 2.1 2.2 2.6 2.7 5.8 11.9 21.2 31.4 43.2 70.1 91.9 112.5 135 161.2 178.9 187.1 199.9 213.2 229.7 235.1 249.7 251.1 259.3 256.5 254 249 239.4 232.3 222 213.4 207.3 204.2 202.2 200.9 203.2 198.3 199.7 194 180.5 166.7 149.8 135.6 123.3 113 105.6 99 93.3 89.1 83.6 80.1 77.7 75.6 73.9 76.1 79.6 81.2 84.7 90.9 107.5 108.9 99.2 86.1 60.1 45.9 37.6 34 34.4 34.1 35.6 39.1 48.1 64.8 80.2 90.1 105 119.6 135.1 155.5 178.3 212.4 240.9 255.3 269.4 284.8 305.5 322.5 336.2 351.6 364.4 373.2 384.4 395 406 417.4 426.6 434.8 441.2 447.1 454.1 461.2 466.7 469.2 471 471.2 473.9 474.2 475 474.1 471.4 467.8 462.5 457.5 454.2 450.9 447.2 444.4 440 439.4 440.9 441.9 439 425.5 387.9 359.3 336.5 322.3 320.3 324.7 328.6 332.5 336.4 343 354.5 365.3 377.5 391.1 402.3 410.5 415 416 409.4 400.7 388.9 376.4 360.2 343 324.6 308.2 297.9 289.7 283.2 278.5 279 287.2 298.1 308.1 316.1 321.7 323.7 322.2 318.2 308.6 298.8 298.9 301.6
12.4 10.2 5.4 1.8 1.8 1.8 1.8 1.2 1.8 1.8 1.8 1.8 1.8 2.2 1.2 1.5 2.6 2.2 1.8 1.8 2 2.2 2.3 2.5 2.8 3.1 2.9 2.9 2.7 2.7 2.9 2.4 2 2 2 2 2.2 4 6.6 12.4 23.4 37.3 51.5 73.8 83.8 102.8 127 150.4 172.9 187 197.1 212.6 229.1 240.2 249.4 256.9 260.7 263.6 259.8 255 252.5 248.3 239.9 232.7 226.2 220.4 216.5 212.6 208.1 204.8 203.2 203.8 201.5 193.9 177.4 159.3 146.3 134.8 125 117.2 109.4 101.2 94.9 89.1 81.3 77.6 74 71.2 78.9 79.2 67.9 69.9 77.5 88.9 83 79.7 56.9 39.2 34.7 34 34.2 34.6 34.7 38.6 46.1 64.8 86.7 96.8 108.5 124.1 140.2 160.7 191.6 214.7 238.4 253.4 266.2 281.9 303.9 325.3 339.2 358 372.5 382.3 393.9 405.7 417.1 427.8 438.1 446.7 452.9 456.9 464.2 468.8 477.1 484 485.1 483.1 478.4 477.4 476.6 475.6 474.6 472.2 467.4 461.4 457.4 454 450.9 449 446.8 444.3 443.5 442.7 443.8 441.9 436.6 395.9 365 342.4 330.4 323.3 330.4 332.5 338.8 345.2 353.7 365.4 378.3 392.1 403.1 413 421.9 425.1 425.2 419.8 408.4 394.4 381.8 367.9 352.3 336 322 307.9 297.7 290.7 285.6 286 294 304.1 313.4 322.2 328.8 332.4 332.2 327.3 319.8 312.6 306.6 310
8.5 5.6 3 2 1.9 1.8 1.8 1.8 1.8 1.8 1.8 1.8 2.2 3 3.6 2.9 2.7 2.4 2 1.8 2 2.1 2.3 2.5 2.6 2.8 2.9 2.9 2.9 2.9 2.9 2.1 1.9 1.8 2 4.1 6.3 9.9 16.3 29.4 43.7 58.5 76.6 95.2 106.6 114.5 136.9 162.1 183.9 196.1 208.6 228.2 240.4 245.7 250.2 254.3 262.1 262.7 256 257.6 255.9 253.9 246.3 241.9 235.7 232 228.2 224.3 219.3 214.8 213.5 214.6 214.5 204.1 188.2 170.8 158 147.7 138.7 130.1 121.6 110.4 101.8 95.9 87.7 81.2 73.4 65.4 64 62.6 59.3 59.4 61.2 61.7 65.2 51.7 35.4 33.8 34.3 34.4 34.5 34.4 37.2 44.1 64.2 87.3 93.5 106.8 126.4 145.1 163.4 189.8 220.4 239.7 253.3 266.6 281.7 300.4 320 335.9 352.4 370.1 383.8 396.1 408.1 419.6 431.6 442.9 449.3 458.7 463.9 469.2 472.7 479.2 486.2 491.8 489.2 485.2 480.2 477.5 476.1 475.1 472.5 468.8 462.6 455 453.2 451.9 450.1 448.4 447.3 445.5 445.5 448.4 450.6 447 437.9 405 377.6 352.4 339.3 333.4 331 337.2 347 355.9 365.5 376.6 391.3 408.1 417.1 424.7 432.4 435.4 434 426.6 413.1 400 389.5 378.1 366.7 353.8 337.6 322 308.5 299.4 293.9 292.6 300.8 310.1 319.4 328.7 335.2 339.6 341.6 337.3 331.2 322.9 317.6 319.1
5.3 3.8 2.4 2.1 2 1.9 1.8 1.8 1.8 2 2 1.8 2.8 1.5 2.8 2.8 2.8 2.6 2.3 1.8 1.9 2.1 2.3 2.4 2.6 2.7 2.8 2.6 2.4 2.5 2 2 1.8 2.7 4.7 8.3 14.3 23.1 35.5 49.7 65.5 83.4 102.4 121.5 134.1 134.5 142.1 166.5 187.9 200.9 215.4 231.5 240.8 245.7 251 252.7 258 255.5 255.9 257.6 258.4 256 251.7 249.1 243 241 239.8 237 233.7 230.5 230.7 231.7 228.1 218.6 203.8 185.5 171.6 161.5 152.3 143.4 131.9 119.8 111.2 104.3 94.7 85.6 78.9 70.3 57.2 51.3 55.4 49 47 46.5 40.8 34 34.3 34.7 34.9 35 35.1 35.9 41.9 67.1 77.9 84.2 95.4 118.9 141.4 166.9 199.7 222.6 241.3 253.8 265.6 281.8 298.2 316.2 329.3 342.8 364.6 379.8 393.5 405.5 414.9 425.8 435.7 445.3 454.8 460 465.6 470.5 474.9 480.9 484.4 485.9 484.9 481.1 477.6 474.7 472.4 470 466.7 459.2 451.3 446.2 444.4 443.5 442.2 440.9 438.5 438.7 443.1 447.8 451.1 446.4 438.8 436.6 420 379.2 360 347.4 341.9 343.4 355.8 365 374.1 388.1 405.6 421.4 430.9 437.6 444 446.2 439.3 430.7 419.5 409.4 399.5 390.1 380.4 365.5 348.1 333.8 318.4 308.5 302.2 300.2 307.4 318 328.4 336.7 340.7 345 346.5 345 340.7 335.1 330.8 330.9
4.7 3.2 2.4 2.1 2 1.9 1.9 1.8 2.3 2.8 2.9 3.3 1.5 2.3 2.3 2.6 2.6 2.6 2.5 2.1 1.9 2.1 2.2 2.4 2.6 2.7 2.5 2.3 2.1 2.3 3 2.9 3.6 6.2 10.4 17.7 28.7 40.5 54.6 70.7 88.6 109.1 129.8 147.2 157 159.7 150.9 170.4 189.5 203.7 217.5 230 239.2 247.3 250.4 252.5 250.6 254.3 255.3 256.6 258.8 260.8 258 256.4 255.5 255.6 254.7 252.2 250.1 249.8 248.5 246.5 242.8 237.3 222.7 204.3 188.2 176.4 165.4 151.3 138.9 125.5 115.5 103.2 89.2 79 71.5 58.8 43.7 45 45.9 41.2 37.5 34.1 34 34.9 34.4 35.4 35.7 35.6 36.2 39.6 48.1 65.2 74.6 82 101.5 127.1 164 190.3 213.5 237.3 254 267.4 280 297.5 313.8 326 338.1 353.5 368.6 382.4 395.5 406 415 424.7 435.7 443.6 448.3 454 461.1 467.9 473.3 476 477.1 478.2 477 473.7 470.4 468.9 467.1 463.1 455.6 444.3 437.2 435.1 432.9 429.9 427.7 427.1 427.1 430.6 434 439.4 440.8 437.9 437.9 437.6 439.2 427.9 392.3 369.4 360.3 358.9 366.3 374.8 384.2 401.6 420.2 434.1 445.7 453 456.8 452.8 446.3 437.9 427.6 418.5 409.2 395.3 382 367.8 353.5 339.8 327.6 317.1 307.9 306.8 315.5 325.1 335.3 342.2 347.9 351.9 353.2 353 351.9 346.2 343.3 342.8
4 2.9 2.6 2.2 2 1.9 1.8 1.9 2 3 3.6 2.4 2.6 2.4 2.1 2.3 2.5 2.5 2.5 2.3 1.9 2 2.2 2.4 2.5 2.4 2.2 0.8 2.1 2.9 3.6 4.5 7.4 13.3 22.2 34 47.3 61.1 75.9 93.6 116.2 137.2 153.8 168.6 177.9 182.8 180.4 174.4 186.1 203 216 226.1 236.1 244.4 246.9 245.7 247.9 252.9 254.9 258.2 264.6 266.2 263.4 264.3 265.5 266.9 266.8 268.8 266 261.1 258.4 252 245.9 233.6 223.5 211.5 193.2 176.7 156.6 140.6 124.7 114.1 102 87.8 76.4 68.9 56.1 45.5 39.5 38.6 37 34.4 33.1 33.3 33.5 34.1 35.2 36.1 36.8 37.2 37.7 42.2 50.8 63.4 70.3 82.9 109 141.6 176.2 191.7 216.7 245.7 266.2 279.2 293.2 309.6 322 332.6 346.1 359.5 372.9 383.2 393.1 400.6 411.5 420.9 429.3 435.2 440 446.8 454.1 460.5 465.8 468.9 469.3 468.8 466.2 463.1 462.8 461.4 459.4 452.7 441.8 427.9 422.9 422.8 419.8 415 412.8 412.5 414.2 418.8 423.2 426 428.8 430.2 434.8 438.2 443.9 449.1 423.9 396.5 383 377.3 379.7 385 394.3 414.1 435.6 452.9 461.5 465.4 466.4 462.6 457.6 447.6 434.1 422.3 408.5 393.5 379.5 367.1 354 342.2 330.7 322 311.3 315.6 324.5 333.4 342 349.3 356.2 361.3 364.6 366.3 366.8 363.4 359.1 357.2
3.4 3.1 2.7 2.4 2 1.9 1.8 2 2.1 2.2 2.3 1.5 3 2.8 2.1 2.1 2.3 2.3 2.3 2.3 2.1 2 2.2 2.3 2.3 2.1 2.1 2.2 2.4 3.1 4.2 8.8 16.5 27.6 41.9 55.4 69.8 83.9 99.3 117.6 141.8 162.9 181.6 197 201.1 205.6 202.7 201 196.6 197.5 208.9 220.3 232.2 237.3 237.7 241.2 245.6 253.2 254.6 260.1 264.9 266.3 267 270.5 276.5 279.6 281.1 277.1 271.2 256.1 245.4 238.8 230.4 212.5 198.8 189.2 179.3 161.1 135.7 117.4 100.3 93.7 81.6 72.8 60.8 50.5 44.3 39.8 37.4 34.7 32.8 32.5 32.6 33 33.5 34.6 35.4 36.1 37.3 35.5 39.4 45.5 53.3 60.2 69 89.4 120.4 149.8 166.2 187.8 220 245.7 272.6 290.4 306 317.7 324.9 336.1 347.4 358.8 372.3 380.3 386.8 392.7 401.8 410.7 418.3 425 431.6 438.2 445 451.6 456 457.8 457.7 456 455.2 454.2 453.3 453.2 449.6 442.1 427.8 411.7 405.1 408.1 404.5 399 396.9 394.4 395.4 400.5 405.8 410.9 413.7 419.1 428.5 439.7 448.5 459.3 465.8 436.1 410 397.9 395 399.9 406.4 423.2 450.6 466.9 473.6 477.4 479.8 475.8 469.6 452.7 436 418.7 404.5 389.5 374.8 363.5 351.2 340.2 330.3 323.3 319.7 325.3 333.6 340.6 349.5 357.7 366.7 375.5 380.8 383.3 385.6 382.6 378.8 379.6
3.5 3.2 2.9 2.5 2.2 1.9 1.9 1.9 2 2.1 2.1 2.3 3.5 3.2 2.1 2 2.1 2.2 2.2 2.2 2.2 2 2.2 2.1 2 2.1 2.2 2.5 2.8 5.2 10.3 19.1 32.2 48.6 64.5 80.7 95.8 110.3 124.8 143.7 165.2 186.7 205.7 215.7 220.1 228.8 228.5 224.1 221.5 219.6 222.5 226.1 229.9 233.2 238.6 242.3 244.9 249.1 252.8 258.4 263.3 266.6 271.5 278.2 286.1 286.3 274.2 262.5 254.7 241.5 231.9 219.7 210.5 192.6 179 172.8 161.8 136.1 113.7 94.4 80.8 71.9 64.9 54.8 45 41.1 38.6 36 33.5 32.4 32.2 32.1 32 32.8 33.5 34 35.4 36.1 37.6 39.3 40.9 51.5 55 62.5 76.7 107.1 130.5 145 160.6 184.7 215.6 246 282.2 301.7 311.9 318.6 327.7 336.7 348 357 365 370.7 375 381.8 389.1 398.5 407.6 414.1 421.2 427.7 434.4 441.1 445.4 446.9 444.4 443.7 444.5 444.2 443.5 441.6 437 430.8 415.8 395.9 388.8 392 389.3 384.2 382 378.5 378.1 381 388.8 394.7 398.9 408 421.9 435.7 450 463.6 471.7 473 438.9 419.9 415.3 419.7 426.5 438.6 464.4 484.3 491.2 496.5 499.3 488 471.9 452.6 432.3 414.1 400.8 385.9 372 360.7 348.9 338.1 329.7 325.8 327.6 334.2 341.5 347.1 356.2 368.4 380.3 389.3 397 401.1 403.6 405.4 403.1 402.9
2.9 2.6 2.3 2 1.9 1.8 1.8 1.8 1.8 1.9 2 2 1.8 1.5 2.9 2.4 2 2 2 2 2 2 2 2 2 2.1 2.2 2.6 5.5 11 21.1 35.9 52.4 72.1 91 108 122.2 136.5 155.7 172.9 190.5 207.5 223.3 238.4 236.3 241.8 246.5 245.1 242.4 239.9 238.9 239.3 241.6 245.7 247.8 250.4 250.8 250.9 253.7 256.9 262 268.5 275.7 282.4 276.6 270 258.4 249 237.1 226.3 211.4 198.7 187.9 173.9 159.5 148.6 129.9 109.5 93.1 75.5 62.6 54.7 47.2 41.5 38.2 36.1 33.7 31.2 30.9 31.4 31.3 31.6 32.4 33 33.4 34.2 34.8 36.3 37.7 41.9 55.1 56.4 61.4 68 96.6 121.7 132.8 137.1 154.4 181.1 208.6 245.3 286.9 304.9 311.6 317.2 328.9 334.6 340.6 347.2 353 358.4 362.5 367.7 375.5 384 395.2 404.2 410.5 418.6 424.3 430 433.7 434 433.7 433.8 433.5 432.9 433 430.3 425.4 419.8 403.5 385.5 372.2 375.9 376 370.5 368.3 364.3 364.1 368.6 376.3 382.7 388.3 398.5 415.6 434.2 450.6 467.2 482.9 492.6 476.4 450.2 442.1 443.9 451 461.8 486.6 506.8 514.2 521.7 512.6 492.4 473.2 450.2 427 410 399.4 384.6 371.3 359.2 348.4 338.2 331.9 331.7 336.7 343 347.7 353.9 364.1 379.2 394.2 404.4 413.7 420 422.8 428.3 428.1 427.5
2.6 2.2 2.1 2 1.9 1.8 1.7 1.7 1.7 1.7 1.8 1.8 1.6 3.2 2.8 2.3 2.5 2 2 2 2 2 2 2 2 2 2.1 4.2 11.3 21.7 37.4 55.3 73.1 94.4 113.6 129.8 146.9 165.8 186.6 200.8 212.5 226.4 239.8 252.9 248.7 252.2 257.1 257.8 256.5 252.1 250.6 252.7 256.3 257.5 257.8 258.7 257.3 258.1 255.6 257.5 258.9 264.4 271.9 265.6 256.6 254.5 245.7 236.1 220.5 204.6 189.8 179.4 167.8 153.1 136.6 124.6 102.1 85.7 72 57.8 47.7 42.4 39.4 36.7 33.2 31.3 30.4 31.1 31.2 30.9 30.7 31.4 32.1 32.9 33.8 37.1 40.5 43.7 47.7 53.4 55.9 56.4 64.7 82 104.9 120.8 122.9 130.9 147.9 171.4 203.1 239.5 278.9 297.9 306.3 315 319 323.5 329.7 335.6 340.5 345.2 350 355.7 361.4 370.6 383.2 391.4 398.3 407 415.1 420.2 422.3 424 423.1 422.8 422.1 421.9 421.8 418.8 413.5 406.3 391.2 375.4 365.3 359.3 360.5 358.3 355.2 353.5 355.7 359.4 366.1 375.6 387 402.9 419.9 439.4 458.3 479.7 496.8 512.2 514.6 492.7 473.8 473 478.7 488.8 509.7 530.8 541.7 533.8 517.5 498.1 477.6 451.6 429.9 412.6 398.6 385 371.5 359.5 348.9 342.1 343.3 338.7 345 350.1 353.9 361 373.6 389.7 405.7 423.1 437.1 444.2 448.3 453 454 453.6
2.6 2.2 2 1.9 0.8 2 1.9 1.7 1.6 1.6 1.6 1.5 1.8 2.3 3.5 3.3 3.1 2 2 2 1.8 2.1 2 2 2 2 4.5 10.5 21 34.7 53.6 74.5 93.3 112.9 132.8 148 170.1 192.3 205.9 214 227.6 237.5 249.7 256.1 258 264.9 270.8 271.2 268.2 264.9 263.6 263.2 265.3 266.8 266.2 263.8 264.1 263.3 259.4 257.8 254.6 256.3 254 245.2 240.5 236.9 230.5 220.4 200.7 184.1 171.4 161.4 144.9 130.9 114.9 94.8 78.2 65.2 53.4 43.6 38.9 35.8 33.5 30.8 29.7 28.1 30 30.3 30.4 30.3 29.7 30.5 31.6 33.8 38.1 44.9 54.1 59.2 59.5 58.6 48.8 52.9 72.5 88.8 99 109.8 118.4 126.9 140.7 164 194.2 233.4 258.5 283.2 296.4 301.7 305.2 311.8 318.3 322.9 327.6 331.2 337.5 342.6 349.9 361.3 371.4 377.8 385.1 394.4 402.4 407.2 409.9 411.8 411 410.5 409.5 411.1 410 406.6 401 394.7 380.5 365.8 356.3 344.2 347.9 347.6 342.7 345.9 351.6 358.3 367.7 381.1 395.6 412.2 430.2 449 468.6 488.9 513.2 531.6 545.7 527.2 511.2 506.2 509.3 518.5 535.7 556.1 555.3 544.4 528.2 507.1 478.8 454.7 433.5 417.1 402.3 386.2 371.6 360.3 352.7 346.1 349.3 345.1 352 356.5 360.7 368.2 382.7 399.2 415.9 436.5 453.1 462 468.7 475.3 477.6 474
2.7 2.3 1.9 1.8 2.1 2 2 1.9 1.8 1.6 1.6 1.8 2.7 2.7 3 3.3 2.9 2.1 2.1 2 2.1 2.2 2.2 2.1 2.1 2.4 7.6 17.4 29.7 47.3 69.6 90.7 111.3 130.6 147.6 169.8 189.2 203.9 217.9 226 236.3 248 257.5 260 269.2 275 282.7 284.1 285.4 283.6 279.1 275.7 276.4 279.9 275.1 271.6 257.5 248.1 250 245.2 240.8 237.6 229.1 224.3 222.2 214.8 212.2 196.7 181 166.9 150.9 136.6 124.3 107.9 89.2 72.2 59.5 49.5 41.9 36.3 33.5 31.3 29.5 28.9 30.1 29.4 29.4 29.5 29.7 29.7 30.8 32.8 36.8 46.3 53.8 60.6 69.5 73.4 70.9 68.5 54.2 59 76.8 80.5 89.6 98.3 111.9 122.7 137.3 158.3 187.7 220.2 234.3 254.8 275.4 284.4 291.4 295.7 305.8 310.7 315.1 320 325.9 332.9 339.1 348.1 356.5 363.3 373.2 381.9 389.2 392.9 396.1 396.8 397.8 397.9 398.7 400.9 399.7 395.1 390.1 384 370.2 354.7 346.6 336.5 337.3 337.7 343.4 348.1 357.3 365.7 376.6 387.6 403.8 424.1 442.3 461.7 480.6 504 526.9 547.4 560.5 568.8 557.3 547.4 547.4 554.7 572 577.8 569 556.7 538.6 514.8 478.4 453.4 436.3 424.2 412.1 393.2 377.6 363.6 358.2 348.5 357.3 353.1 357 361.9 367.1 376.6 389.8 406.6 424.1 443.2 460.3 471.5 481.8 492 498 490
3.2 2.6 1.9 0.8 2.5 2.7 2.4 2.5 2.5 2.3 2.3 1.5 1.5 1.5 3.1 3.1 1.5 2 2.1 2.2 2.2 2.3 2.3 2.3 2.3 3.8 12.3 22.6 35.5 55.2 78.4 101.6 124.4 140.2 161.4 184.7 201.5 214.6 225 239.6 242.8 257 258.5 267.5 275.9 279.7 287.1 294.7 302.3 301.7 296.9 290.4 278.4 269.5 258.4 248.4 238 230.8 231.1 230.2 231.3 217.7 210.6 205.8 202 195.9 187.6 180.4 165.3 147.3 130.7 115.6 98.8 81.6 66.4 54.5 45.9 39.5 34.1 31.1 29.8 29.1 26.6 29.6 29.5 28.8 28.8 28.9 29.8 33.1 36.5 42.2 52.5 71.5 79.1 85.3 84.2 81.2 85.8 88.6 80.2 63.5 69.5 75.8 76.2 88.4 102.6 111.6 129.2 152.9 179 196.6 208.9 231.3 247.9 264.3 274.3 285 292.2 297.6 303.5 308 312.8 319.4 327.8 334.1 343.2 351.5 361.4 369.7 375.2 379.4 383.5 384.3 384.6 384.8 386.2 388 387.2 384.2 380.2 371.3 357.7 340.4 328.9 331.5 340.3 344.9 347.5 353 363.5 374.9 388.2 403.2 418.6 432.3 454.4 474.2 493.7 519.3 542.3 560.4 574.6 586.2 592.5 594.2 599.7 603.8 603.8 595.7 584 569.6 549.2 512.3 479 461.6 446.2 436.5 423.5 410.2 394.2 374.6 365.1 360.7 364.9 361.3 359.9 364.9 370.3 378.7 391.9 410.1 427.8 445 461.1 475.1 486.5 498.8 496.2 477.9
3.2 2.6 2.1 2.1 2.9 3.1 1.5 3.1 3.1 3.1 1.5 2.3 2.5 2.9 3 3.1 0.5 2.2 2.2 2.3 2.4 2.4 2.5 2.5 2.5 6.2 13.7 24.7 38.2 55.9 81 108 127.1 145.2 172.1 195.1 209.6 219.9 228.9 241.6 247.2 258.3 260 272.5 277.1 284.5 294.2 305.5 308.1 304.2 294.5 284.5 269.7 254.2 243.6 230.1 218.5 215.8 215.4 217.7 211.9 201.9 193.3 188.5 184.4 176.9 167.5 159.6 148.1 128.5 107.1 89.3 75.2 62 50.5 42.2 35.9 31.8 28.7 28.1 28.2 28.3 29 28.9 29 26.1 29.1 31.2 37.6 43.4 49.3 57.9 73.1 91.2 95.1 97.8 102.1 106.2 111.5 119.9 106.9 93.8 107.2 105.4 101.5 87.3 80.9 88.8 108.4 123.5 156.1 171.6 185.2 208 229.3 244.2 253 265 277.2 285.7 290 293.3 298.2 306.7 313.5 319.5 329.4 342 352.1 358.6 363.8 368.2 372 373.5 372.2 372.4 373.3 374.4 375.1 372.5 366.5 356 341.5 325 327.8 337.2 344.7 350.6 357 362.9 372.4 385.7 401.3 415.7 431.7 445.9 463.4 486.7 510 534.6 557.2 573.6 588.1 600.7 610.9 617.3 621.9 621.2 614.2 604.6 592.3 577.2 554.1 520.7 492.8 473.7 454.7 445.6 431.4 420.4 394 382 368.8 369.1 370.7 366.9 364.4 366.5 372.6 380.8 392.6 412.9 430.7 445.8 458.8 474.4 488.5 491.4 470 452.6
2.9 2.4 1.8 2.4 1.5 3.1 3.1 1.5 3.1 3.1 1.5 2.3 2.3 2.4 2.3 2.1 2.3 2.6 2.5 2.4 2.5 2.6 2.6 2.7 2.7 7.6 15.7 25.8 39.1 57.6 82.8 108.4 127.4 150.3 180.2 196.2 207.5 218 227.7 238.8 251.1 255.2 264 272.3 279.8 288.4 295.5 302 291.4 282.2 273.1 263.9 249.1 235.3 221.5 208.4 200.5 199.9 195.3 191.9 185.7 182.1 176.5 167.6 162.8 152.8 139.1 133.3 126.6 102.4 80.3 68.8 58.7 47.1 37.1 30.9 28.8 28 27.9 28.4 26.6 28.5 28.4 28.5 29.6 29.7 35.1 44.1 54.3 63.7 73.9 82.6 93.7 105.7 112.8 119.6 128 143 146.8 146.6 126.8 123.4 144.3 141.6 131.7 119.5 115.4 115.1 114.2 112.8 139.1 152.3 167 190.5 207.6 218.5 231.1 247.9 262.3 270.6 274.6 278.5 287.9 294.6 300.6 305.2 320.3 334 341.3 346.7 352.7 357.5 359.6 359.8 357 357.5 358.2 358.8 358 354.5 347.4 338.2 322.3 323.7 336.7 343.3 350.2 361.6 371.4 380.9 390.6 401.3 415.8 432 445.7 464.5 483.3 504.6 528.8 550.9 569.2 585.2 600.2 613 622 628.4 631.2 627.1 618.8 609.4 599.9 587.9 564.7 528.6 500.7 480.8 461.9 449.1 432 414.9 398.8 379.9 371.3 375 374.3 371.3 369.2 370.4 375.4 385.8 401.4 419.8 434.1 447.7 458.9 476.1 481.2 463.4 441.3 429.3
2.6 2.1 2 2.7 1.6 2.8 3.1 2.9 1.5 1.5 2.1 1.9 1.9 2 2.1 2.4 2.6 2.9 2.8 2.7 2.7 2.7 2.8 2.8 4.4 9.7 16.9 26.5 40.8 62.1 84.6 106.1 130.8 156.3 184 193.7 206.6 215.8 223.2 234.2 247.4 251.3 264.7 272.9 282.7 280.3 281.2 283.6 273.5 264.3 254.8 244.9 231.5 215 201 189.5 181.9 177.3 167.4 163.5 163 163.6 153.1 145.3 137.7 124.1 108.6 98.2 86.2 72.8 63.3 55.4 46.3 38.3 32 27.4 27.4 28.4 28.1 28.2 28.6 28.7 28.2 29.8 34.3 40 52.4 69.4 81.7 91.1 98.4 108 117.5 126.7 139.2 157.3 164.5 170.6 173.4 171.4 151.6 154.2 182.4 174.6 163.2 153.3 149.2 152.1 151.1 145.5 136.7 136.8 150.2 169.9 183.3 197.3 214.1 228.6 242.7 252.3 257.7 267.4 276.5 283.6 286.4 293.5 316.1 322.3 329.3 332.2 339.3 344.2 345.8 344.9 343.4 341.2 341 344.3 339.8 334.3 327.5 315.7 318.6 331.8 341.9 348.9 357.3 369.5 378.8 390.3 402 415.1 430.3 447.9 467.1 485 502.7 524.6 544.2 563.5 580.8 596.5 611.4 623 631 632.9 633.4 629.4 622.4 614.6 607.2 586.5 552.4 521.6 495.2 474.6 457.2 441.4 423.2 408.3 390.3 385.4 382.9 381.5 380.5 379.6 377.2 383 387.3 394.8 411.1 424.1 438.6 449.1 460.7 465 450.2 435 415.2 406.5
3 2.7 2.2 1.5 3 2.9 2.8 2.5 2.4 2.7 2.1 2 2 2.2 2.4 2.7 3 3.2 3.2 3 2.9 2.9 2.9 3.1 6.3 11.2 18.3 27.7 44.3 66.3 87.5 109.4 133.1 163.3 182.5 195.3 200.9 208.7 218.7 228.7 234.8 245.1 257.3 269.3 267.9 264.6 265.5 263.6 256.3 247.7 239.3 229.1 217.4 198.3 180.8 169.9 161.1 152.4 144.5 141.2 144.3 145.3 131.9 119.4 115.4 97.6 84.8 74.9 64.5 59.3 54.4 45.1 36.7 30.6 27.1 28.1 27.7 27.2 27.1 27.3 27.7 28.2 31.2 37.3 45.1 55.7 74.8 90 99.9 109.4 119.3 130.6 145.6 164.8 174 175.9 180.7 188.8 199.4 194.9 174.1 186.6 212 218.2 204.7 194.4 186.6 184.5 179.3 171.9 164.4 157.6 152.7 151.4 163.9 178.7 196.5 212.1 221.2 230 242.4 254.3 261.5 268.3 276.5 285.8 301.6 307.2 312.2 318.7 325.1 327.9 330.2 328.6 324.1 321.7 322.7 322.8 320.9 312.2 303.2 315.5 325.1 333.5 347.5 357.5 369.1 380.8 391.2 401.7 415.1 430.7 449.1 469.3 487.4 503.8 521.9 540.4 557.5 575 591.2 606.4 618.8 627.2 631.1 633.3 632.6 630.2 626.7 619.5 610.6 576.2 540.8 510.9 488.2 471.5 453.2 435.7 416.3 406.2 402.2 397.7 393.1 391.9 389.2 388.1 388.8 394.1 397.7 409.1 421.5 433 442.1 451.6 454 440.7 422.9 408.3 391.4 383.1
1.6 2.9 1.5 3 2.8 2.5 2.4 2.2 2.3 2.5 2 0.5 2.2 2.5 2.8 3 3.3 3.5 3.5 3.4 3.3 3.2 3.1 4.3 7.8 12.6 19.5 29.7 47.2 68.4 87.4 109 134.8 159.7 175.6 187.8 196.6 204 211.9 217.9 221.5 236.9 241.6 249 248.6 246.4 246.2 240.6 236.7 231.9 224.2 216.1 204 179.9 158.9 147.1 137.8 130.6 124.8 122.9 126.9 122 110.1 98.3 88.3 74.7 65.8 58 53.1 52.1 45.9 37 30.9 27.1 27.9 27.2 26.7 26.8 27 27.5 28.4 34.3 42.4 52 65 79.2 95.3 107.3 119.1 129.4 143.2 162.5 181.2 186.7 189.4 192.9 203.1 218.7 225.5 217 194.6 211.3 235.6 248.2 249.7 233.7 222.1 214.9 208.2 200 192.2 169.6 171.7 173.6 173 166.9 185.6 198 203.7 211.5 226.3 241.4 249.5 261.9 268.4 275 287.4 293.3 294.7 303.5 308.4 312.1 310.7 310.3 305.5 301.5 303.2 304 301.2 296.8 312.7 321.8 328.6 339 350 361.9 375.9 390.6 401.2 418.6 434.7 452.3 470.9 488.5 502 516.8 535.9 552.2 568.1 583.4 596.3 608.3 616.9 623.2 629 630.4 631.6 631.5 630.4 625.6 614.5 572.7 537.8 508.4 484.2 465.3 446.6 433.9 424.8 418.1 416 413 408.6 406.1 403.4 401.9 404.1 405.4 410.8 423.1 433.6 440.6 445.5 447.1 433.1 415.8 399.9 382.7 367.4 363.1
3.7 2.5 1.9 2.5 2.4 2.3 2.1 2 2.1 2.1 1.8 2.3 2.5 2.8 3 3.3 3.6 3.8 3.9 3.7 3.7 3.7 3.8 5.8 9.3 14.4 20.7 31.4 48.7 67.4 87.5 112.1 136.3 154.8 168.5 183 190.8 195 203.6 203.5 207.9 219.7 221.1 228.3 229.9 225.8 224.8 224.7 220.7 212.5 197.9 193.9 174.3 152.8 136.6 125.8 116.9 112.6 111.9 114.9 112 100.4 90.8 81.7 67.5 57 49.8 45 47.4 41.9 38.5 33.9 27 25.7 27.2 26.9 26 27.2 27.7 27.9 34.9 45.5 59.7 77 94.4 103.5 113.8 127 140.6 152.6 176 193.5 202.3 201.1 208 214.8 224 234.9 241.2 235.2 214.7 239.2 257 267.3 272.8 275.7 266 253.5 241.3 226.4 203.8 178.7 181.9 195 200.8 198.4 188.8 183 189 203.9 216.2 224.1 235.3 247.3 253.3 264 268.6 271.2 277.1 285.9 293.4 295.5 293.6 292.5 288.3 285.6 285.2 281 290.3 301.9 311.4 322.6 331.6 339.1 355.2 371.2 384.6 400.1 416.7 435.7 452.5 469.7 486.3 501 513 527.7 544.8 559.7 573.5 585.1 594.9 603.9 611 617.2 622.8 628.4 630.5 632.4 632.7 628.7 619.9 582.7 546.5 518.7 493.1 472.2 461.2 453.2 444.7 440.6 440.2 430.7 426.2 422.8 417.8 413.3 412.3 420.5 429 438.6 442.5 444.2 443.7 430.1 413 393.5 375.5 361 346.2 351.5
3.1 2.4 0.5 2.1 1.9 1.8 1.8 1.9 2 2.1 2.4 2.6 2.8 3.1 3.3 3.6 3.9 4.1 4.2 4.3 4.4 4.3 4.4 7.3 10.8 15.7 22.5 34.1 50.3 68.5 91 117 136.7 151.5 161.6 172.8 177.2 181.4 181.6 182.5 190.1 196.8 203.3 207.5 207 207.2 208.1 206.4 201.4 197.7 184.8 161.9 144.8 130.2 118.1 107.6 101.3 98.8 103.2 106.7 93.4 80.6 72.8 60.2 50.9 43.2 38.6 37.2 38.6 36.6 32.7 26.8 26 25.6 26.5 25.8 25.7 26.9 28.2 34.6 47.6 63.7 88.4 102.1 114.2 123.3 131.9 147.6 165.1 188.4 202.5 213.5 212.6 221.9 231.1 235.2 242 250 255.6 251 241.8 262.8 275.7 280.2 285.2 286.1 287.5 284.1 266 241.1 217.6 194.9 183.4 210.3 222.7 220.7 214 204.4 198.2 196.1 197.6 209.5 219.6 231.8 239 246.8 250.5 256.8 265.1 274.2 279.4 279.1 279.4 277.5 275.6 273.2 271.8 281.6 289.8 298.5 308.7 321.6 332.9 342.7 361.2 376.4 393.2 411.6 430 449 465.6 482.6 496.8 509.5 518.9 534 548.4 562.3 574.1 586.1 594.2 601.1 606 610.9 617.2 623.4 629.2 631.9 630.9 627.9 624.9 602.7 571.9 540.9 516.3 497.5 489.3 482.3 474.1 471.9 466.2 457 448.9 442.5 438 427.9 430.5 439 442.8 446.3 446.2 440.9 427.9 409.1 389.9 370.9 353.5 339.3 325.8 339.4
3 2.4 1.8 1.8 1.8 1.8 1.9 2 2.7 2.8 2.7 2.9 3.2 3.4 3.6 3.9 4.1 4.2 4.2 4.3 4.4 4.6 5.4 8.5 12.2 17.5 25.3 36 51 69.5 92.9 115.9 134.8 146.2 151.5 155.4 158.2 163 162 165.6 171.7 179.3 186.4 185.6 183.3 187.5 186.1 183 189.2 181.8 154.5 133.1 118.2 105.8 97.2 89.3 84.4 84 89.6 88.4 73.9 60.9 52 44.1 39.1 35.4 33.1 32.8 33.2 31.2 26.8 26.2 25.9 26.8 24 26.1 26.2 27.3 34.9 47.7 65.5 86.1 117.8 122.8 131.3 143.1 154.8 172.5 196.4 216 221 225.2 234.8 245.4 249.7 253.9 263.1 265.6 265.7 266.5 265.3 276.4 281.7 285.7 292.4 297.1 300.2 297 285 262.9 237 214 199 225.8 240 244.6 240 233.3 228.2 218.1 208.1 207.4 205.8 215 224.9 230.7 238.6 246.1 254.3 260.4 261.9 262.8 263 262.3 258.6 264.8 273.9 284.5 293.8 301 309.6 321.5 333.4 346.9 363.4 384.8 404.1 425.1 443.7 462.1 478.6 493.5 506.2 515.3 522.6 536.5 550.6 564.6 577.3 586.9 591.9 595.3 599.9 604.1 608.8 615 620.7 624.3 625.7 624.9 622 612.9 600.9 581.1 561.7 540.2 528.6 524.3 516.9 506.6 495.9 485.1 470.3 462.4 455.7 448.6 445.2 443.1 444 440.8 435.9 424.3 404.2 387.9 369.5 351 333.5 320.1 313.9 330.4
2.2 2.2 1.9 1.8 1.8 1.9 2 2.5 3 3.5 3.2 3.3 3.5 3.7 3.9 4.2 4.2 4.2 4.3 4.3 4.5 4.8 6.7 10.2 14.2 20.8 28.8 38.7 51 69.3 90.9 112.3 131.1 138 139.3 139 140.1 142.2 147.2 155.9 155.1 163.5 159 158.3 155.9 160.8 157.3 162.2 168.4 148.9 128.3 111.2 96.1 86.4 80 70.7 68.8 70.1 70.8 68.4 55.7 46.3 39.5 35.6 32.4 30.1 29.3 28.4 27.7 26.7 26.3 26.1 25.5 25.3 26 26.1 29.1 37.1 48 72.2 97.1 123.1 127.6 138.4 150.2 167.7 192.1 202.7 224.2 229.1 239.3 248.4 254.1 257.5 260.6 269.1 270.4 272 273.3 275.6 278.8 281.3 288.2 294 298.6 303.2 305.8 304.5 297.3 283.7 263.7 241.2 229.8 244.7 259.5 264.4 266 269.2 260.4 244.3 231.4 230.7 222.5 212.5 217.6 223.2 229.3 233.4 238.7 242.1 241 248 252.1 258 266.7 273.1 278.7 287 297.7 308.3 317.8 327.7 342.9 360.6 381 400.4 419.1 437.9 456.1 472.6 488.1 501.4 512 517.4 524.8 536.8 550.6 563.6 574.8 581.9 584.8 588.1 592.1 596.7 600.9 605.6 609.9 614.5 617.2 617 614.8 611.2 602.9 591.1 581.9 569.9 558.2 548.1 538.5 524.9 511.4 496.2 479.9 468 460 451 443.8 435.7 428.7 422.6 414.5 402 382.8 365.5 348.2 332.2 316.7 301.1 306.5 320.4
6.2 1.7 1.7 1.9 1.9 0.5 2.2 2.5 2.8 3.2 3.8 3.6 3.8 4.1 4.3 4.4 4.4 4.4 4.5 4.5 5.3 5.8 7.7 11.6 17.1 24 31 39.6 51.2 67.3 85.1 106.8 124.5 125.1 125.2 127.7 127.4 129.3 134 139.2 133.9 134.1 130.1 132.1 133.1 133.5 131.3 135.1 135 117.3 102.9 88.4 78.1 69.1 59.8 58 58.2 59.4 59.3 52.2 44.7 36.9 33.3 29.9 27.3 27 27.5 26.9 26.1 26.3 25.5 25.6 26.6 25.9 26.8 30.7 39.5 51.2 76.2 110 127 136 144 158.9 178 202 217.8 226.4 232.2 250.8 256.2 262.6 265.8 271.2 278.7 282.4 282.7 281.7 282.1 283.5 284.4 288.3 294 297.9 300.5 305.9 308.2 308.1 305.5 297.3 285.7 268.7 253.4 264.4 276.2 280.4 284.6 287.5 283.1 271.2 257.4 257.9 249.6 232.2 214.3 217.1 222.9 222.4 235.1 246.3 256.7 258.8 258.2 260.3 267.1 276 281.1 293.5 309.5 319.5 327.7 339.7 359.7 380.3 398.4 416.8 432.8 448.5 463.8 478.3 492.7 506 515.4 518.2 525.2 534.9 544.7 555.6 565.2 571.9 576.4 581.9 585.6 588.6 592.5 595.8 600.2 604.1 605.6 605.1 603.2 601.3 594 584.4 576 567.5 559.4 549.5 540.5 527.9 513.5 495.2 479.8 462 446.9 432.8 419.8 411.6 402.8 397.5 386.8 376 360.4 345 330 316.5 302.8 284.3 296.7 309.6
3.1 4.8 2.2 1.9 2.1 2.3 2.6 2.8 3.1 3.4 3.7 4 4.2 4.4 4.6 4.8 4.8 4.7 4.7 5 5.8 7.1 9 13.2 18.5 25.2 31.7 40.8 52.3 65.3 79.9 99.6 111.8 106.9 114.7 117.2 113.8 108.3 112 117.6 117.5 113 117.4 114.5 108.6 104.5 102.2 103.2 95.9 86.5 78.7 68.2 58.5 50 47.7 48 49 49.1 48.6 46.1 39.4 31.7 27.7 26.2 25.6 25.8 25.6 25.5 25.1 25.6 26.3 24.3 26.3 27.7 34.1 40.9 54.5 74.2 104.1 129.1 145 156.2 173 193.2 210.4 224 233.8 241.7 250.9 259.3 270.3 278 286 291 293.3 295.9 300.1 298.3 295.4 292.4 292.6 295.8 299.3 301.7 304.8 309.4 312.3 314.8 311.6 306.9 299.5 286.7 262.9 281.7 289.6 294.4 301 304.2 298.3 289.7 278.1 272.7 263.1 247.4 235.1 228.8 224.8 224 241.1 249.8 255.8 257.9 260.4 262 270 279.3 287.3 304.6 319.2 326.7 335.5 357.7 378 396.6 414.5 430.3 445.4 458.6 470.7 483.5 496.3 508 514.8 517.4 520.9 526.8 533.5 542 551.5 560.1 567.5 573.5 577.9 581.1 584.9 588.6 591.4 593.1 593.8 592.5 590.1 586.3 579.8 571.6 563.4 557.5 551 542.7 533.9 521.8 507.7 489.9 470.4 447.4 423.8 404.3 391.2 381.5 373.3 367.5 360.5 351.5 338 325.8 314.2 303.4 288.9 271.4 287.5 297.7
3.1 1.5 3.4 3.4 2.5 2.6 2.9 3.1 3.4 3.7 3.9 4.1 4.5 4.7 4.9 5.1 5.1 5.1 5.1 5.5 6.4 8.1 10.8 15.1 20.2 25.7 32.2 44.2 54.4 64.7 76.8 88.7 92.6 104.2 97.2 96.9 97.7 87.9 92.7 97.8 96.8 101.2 98.7 88 80.4 77.5 74.8 72.3 67.3 62.4 57.5 49 41.9 40.1 39.7 40.1 41.1 41.4 42.5 41 31.6 26.1 24.9 25.1 25.3 25.5 25.7 24.7 26.3 26.4 26.2 27.6 27.9 38 49.1 57.6 76.6 103.1 122.8 147.2 168.1 186.5 203.9 223 230.1 240.9 248.6 256.3 267 275.8 285.2 294.1 300.7 303.8 311.1 315.6 316.6 313.9 311 305.3 301.4 301.9 304.3 309.9 315 319.5 323.6 323.4 319.6 313.5 306.5 293.3 274.9 290 297.9 307.7 312.8 313.7 311.5 304.5 294.7 284.7 275.2 263 249.8 238.3 234.2 231.7 238.2 246.3 252.4 259.3 263.5 265.7 272.3 281.1 286.1 300.7 316.2 327.6 345.8 370.8 390.8 409.2 426.7 441.8 455.9 468 480 488.3 498.4 505.3 509.8 511.9 514.6 516.7 520.6 527.9 537.5 546.4 555.2 562.5 567.7 572.4 577.3 580.4 581.5 583.6 583.6 581.9 577.6 571.9 564.5 555.3 546.8 541.2 536.5 527.4 518.9 508.3 494.9 481.1 460.6 433.6 403 379.6 368.7 358.9 349.1 343.5 337.3 328.7 318.5 308.7 298.6 288.2 273.9 259.4 274.5 294.4
1.5 3.1 3 4.2 4.3 3.4 3 3.3 3.5 3.8 3.9 4.3 4.7 5 5.2 5.4 5.5 5.5 5.5 6.1 6.9 9.4 13.1 17.1 21.6 25.9 33.2 46.7 53.8 59.9 68.3 78 97.3 83.9 76.3 74.8 77.2 72.3 74.7 79 78.9 84.2 73.4 65.9 61 56.8 53.1 50.4 47.9 43.9 40.1 36.8 35.1 34.9 34.9 34.6 34 34.7 35.6 30 25.9 24.8 24.8 24.8 25.2 25.3 25.2 26.3 25.7 26.6 26.2 32.5 44 55.7 64.1 78.8 104 124.9 146 172.9 198.9 212.2 226.8 234.7 245.1 257.8 267.4 278.7 284.8 292.5 303 309.6 315.3 324.3 329.7 333 332.9 331.1 328.1 320.1 313.6 311.7 316.3 320.6 326 330.6 332.8 329.9 325.3 317.7 311.7 297.1 281.5 297.5 307.1 313.7 318.3 321.4 321.8 317.4 310.5 303.1 292.3 280.2 264.8 252.8 246.6 242.7 236.6 241.9 250.5 259.8 266.1 269.4 275.9 280.7 284.9 297.8 313.6 332.8 355.5 379 398.9 418.8 434.7 449 462 475.3 486.9 494.7 498 501 503.5 503.7 504.1 505.6 509.3 514.9 524 534.3 543.7 550.8 556.5 563.4 568.9 571.2 573.5 574.3 573.3 571.2 565.2 556.4 547.7 536.9 524.5 520.8 517.9 510.6 502.1 492.7 481.3 466.8 447.6 425.1 396.7 368.4 347.7 337.2 329.9 323.1 316.3 309.8 301.8 292.7 283.9 274.3 261.7 250.1 267.2 292.1
3.1 3 3.3 3.8 3.9 3.9 3.3 3.4 3.6 3.8 4.1 4.5 4.8 5.2 5.5 5.7 5.8 5.8 5.9 6.6 8 11 15.4 19.6 22.5 25.3 34.1 43.8 48.5 54.9 62.5 71 70.1 66.6 62.2 60.6 59.5 58.7 59.7 60.6 61.8 61.1 54.6 48.8 44.3 40.4 38 36.6 35.4 35 33.9 32.5 31.1 31.2 31.4 30.9 30.3 29.8 27.7 25 25.1 24.8 24.8 22.7 22.7 26.2 26 25.8 26.4 30.3 46 50.8 61.8 75.3 86.9 102.3 122.4 144 170.9 200.2 220.8 227.8 238.7 249.7 263.4 278.6 289.8 295 301.2 307.8 315.7 326.9 336.9 343.2 347 348.9 348.5 347.1 343.3 335.6 328.4 327.6 329.9 333.7 337.4 339.9 338.1 334.6 329.6 321.8 314.2 300.2 282.8 302.1 309.6 315.4 322 327 327.7 327.2 323.9 317.9 308.7 296.6 280.1 265.8 258.4 250.7 245.1 240.8 250.8 260.9 274 276.3 278.2 283.2 287.9 297.3 319.7 342.8 365.6 389.7 409.9 425.6 440.4 455.2 468.3 478.8 489.3 494 495.2 495.9 494.9 493.7 494.2 495.2 498 505.9 513.8 522.5 530.1 536.6 544.2 551.6 558.5 563 565.4 565.5 563 558.9 551.1 539.2 526.8 515 502.2 500.1 498.1 493.5 484.3 476.4 464.8 450.8 434.8 415.1 392.8 366.5 341.2 320.9 314.3 307.9 299.5 292 284.1 276.9 269 261.4 250.1 242 264.1 289.6
3 3 3.5 3.6 3.8 3.8 3.6 3.4 3.6 3.9 4.3 4.6 5 5.4 5.7 6 6.1 6.3 6.4 7.5 9.3 12.3 16.8 20.5 21.9 24.6 31.2 38 43.3 50.1 58.9 57.3 56.9 54.2 51.7 51.3 49.4 47.3 46.2 46.5 46.3 43.2 39.3 35 33.7 32.3 31.4 30.8 30.5 32 33.6 32.9 29.7 29.4 29.3 28.9 27.3 26.4 24.8 26 25.9 25.2 25 26 26.6 28.1 28.1 30.6 36.4 50.5 61.2 77.9 88.2 99.3 106.5 119.3 136.3 165 199.3 222.1 232.9 242.7 254.7 268.7 284.1 295.6 308 312.6 316.2 321.7 334.4 345.6 354.9 360.4 363.8 365.7 366 365 360 353.2 346 344 343.9 346.9 348.2 347.8 344 338.2 332.6 325 315 300.8 286.7 303.1 311.3 317.7 325.3 329.6 334.7 336.6 334.9 331 323.5 312.6 298.8 281.4 267.6 260.4 252.6 249.4 252.4 261.4 271.4 277.1 280.7 284.9 290.1 304.7 328.8 351.1 374.7 399.1 417.8 433.6 448.3 462.7 473.9 481.4 485.7 489 488.1 486.9 487.1 486 484.3 484.3 488.9 495.2 502.5 510.5 517.4 525.9 533 541.3 547.3 554.6 557.8 557.7 553.8 546.8 536.4 520.2 501.4 491.4 481.8 480.1 478.1 475.7 469 460.6 450.1 437 422.5 403.4 384.7 360.7 335.5 312.7 300.2 294.9 282.5 273 265.6 259.3 253.9 246.4 238.7 238 264.9 294.5
3 3 3.5 3.6 3.7 3.9 3.7 3.5 3.8 4.1 4.5 4.8 5.2 5.5 5.9 6.2 6.6 6.8 7.4 8.3 10.1 13.2 16.5 18.7 21 24.2 29.7 35 38.3 46 47.6 44.9 45.2 44.5 43.7 43.2 40.6 38.5 36.9 35.7 31.1 28.7 27.8 28.3 30 30.9 29.3 29.9 30.8 34 34.9 32.3 28.4 26.9 27 26.7 22.7 26.2 25.4 27.6 27.4 25.9 28.4 31.1 32.9 33.5 34.6 37.9 53.9 62.7 86.1 105.5 113.1 116.5 123.3 137.4 155.3 187.1 218.8 235.5 246.5 260.6 276.1 288.8 299.6 314.1 321.5 323.7 330.1 339.5 351.6 363.3 372.4 377.2 378.8 380.9 380.6 379.9 377.4 370.9 365.4 361.4 358.3 360.1 360.4 357.8 350.7 343.2 334.8 326.9 315.9 300.3 292.5 306.2 312.8 319.5 326.7 332.4 337.8 341.1 342.1 342.1 336.9 327.2 313.8 296.9 278.1 269 260.1 254.1 252.5 258.5 264 271.8 278.2 284.6 293.1 312.4 334.5 355.5 381.4 403.5 421 436.4 451 464.7 473.2 476.8 480 482 479.6 477.5 475.7 474.9 473 473.1 478.7 483.4 490.2 497.9 507.1 515.6 525.1 532.9 540.4 548.6 552.5 550.5 544.7 533.2 509.2 485.3 466.9 458.2 459.4 456.7 456.6 456.4 451.9 445.1 436.6 424.6 409.3 392.9 373.7 351.6 326 304 280.6 278 264.1 253.3 245 241.5 239.2 234.7 226 239.1 268.5 297.2
2.8 3.4 3.5 3.6 3.7 4 3.9 3.8 4 4.3 4.7 5 5.4 5.7 6 6.3 7 7.5 8.4 9.3 10.7 13 15 16.9 19.3 23.4 28.7 31.9 32.7 38.5 38.8 38 36.2 35.6 37.2 34.9 32.4 31.6 30.6 28.3 26.6 24.5 25.4 27.7 28.7 29.9 29.6 30.4 33.8 34.5 34.4 30.6 26.1 24.7 25.5 26 25.4 26.5 25.9 27.1 27.7 29.4 31.3 33.2 35.8 37.4 46 56.9 68.4 86.7 107.6 121 125.9 133.2 144.3 160.1 186.9 214.8 232.3 249.3 265.4 279.3 290.6 303.6 316.1 323.7 330 338.7 346.6 357.7 368.9 379.7 386.4 390.5 393.1 396.2 396.8 395.7 392.3 387.8 382.1 377.2 373.4 372.6 370.3 365.7 355.9 347.1 336.1 326 314.4 298.1 300.7 310.2 315.6 321.2 329.1 335.3 340.4 350.2 355.8 358.1 352.4 343.4 331.6 315.6 294.6 276.2 267.9 261.1 257.7 254.5 262 268.4 273.1 282.5 298.1 317.6 335.5 358.3 383 404.7 418.7 433.1 447.2 458.9 465.7 468.8 471.5 471.8 470 465.5 464.7 463.1 461.8 462.5 467.9 473.6 481.1 490.5 499.7 508.9 518.9 526.6 536.4 546.1 549 545.7 526 499 470.5 445.5 422.9 417.7 416.2 424.8 435.2 436.4 434 427.4 419.7 410.5 396 380.4 360.4 336.6 314 292.8 271.1 259.4 247.1 232.6 225.6 224.1 224.1 218.1 220.1 247.3 276 304.7
3.1 3.5 3.5 3.5 3.8 4.1 4.2 4.2 4.3 4.5 4.8 5.2 5.6 5.9 6 6.3 7 7.6 8.6 9.4 10.9 12.7 13.3 15 17.3 22.6 26.9 27.5 27.7 30 31.4 30.8 26.7 24.8 25.5 25.1 26.1 25.4 24.7 23.6 23.1 23.7 26 28 29.1 28.3 29.2 31.7 31.8 31.8 28.7 21.8 24.2 24.9 23.9 26.4 26 26.9 26.4 27.1 28.9 30.4 32.6 34.9 37.6 44.1 54.5 68.4 88.2 106.7 120.6 135.2 150 160.9 173.9 197.5 223.8 234.9 247.7 264.9 281.4 292.9 306 317.5 326.2 333.5 345.6 357 366.1 375.5 385.5 393.9 399.8 404.8 411.3 415.4 415.3 411.1 407 402 396.2 390.6 384.7 381.4 377.3 370.9 360.7 348.4 335.9 324.6 315.1 301.3 304 313.5 318.7 325.2 331.8 339 349.6 360.1 369.4 372.4 368.7 359.9 348.6 336 315 287.8 274.7 268.3 264.4 261.8 261.2 265.8 269.4 280.3 299 321.6 346 366.1 381 397.2 412.5 426.5 439.5 449.3 456.1 458.5 458.9 458.6 455.7 449.9 450.6 449.7 451.1 454.2 460 468.3 475.3 484.3 494.3 505.3 514.5 524.8 535.5 545 546.1 540.5 506.2 470.8 439.4 416.5 401.9 385.2 379.9 386.7 408.4 415.7 414.5 409.1 403.1 394.3 383.6 367.4 346 324.8 303.2 282.6 262.1 237.1 230.7 218.5 209.7 207.9 202.3 205.2 231.3 258.6 287.4 314.6
2.6 3.3 3.6 3.7 3.7 4 4.3 2.7 4.7 4.8 5 5.4 5.7 6 6 6.3 6.7 7.2 8.2 9.4 11.2 11.4 11.5 12.7 14.7 17.6 19.4 20.1 20.9 22.5 22.5 20.4 19.2 19 19.2 20.3 21.4 21.5 21.7 21.4 21.4 22.2 24.3 25.1 25.3 24.6 24.7 24.1 24.1 20.5 23.3 23.8 24.7 25.8 26.7 27.8 28.1 27.3 27.6 28.8 30.8 31.8 34.9 40 44 54.1 68.4 82.1 101.8 119 135.3 155.8 175.6 200 215.4 228 236.9 247.2 263.5 282.6 295 302.9 315.7 326.8 337.1 347.8 361.8 373.1 382.1 392 399.3 405.7 411.7 419.4 427.6 428.5 426.6 422.5 418.5 413.3 407.5 400.7 394.6 388.6 383.1 375.3 364.1 348.7 336.9 325.5 317.2 307 304.4 315.2 321.3 326.9 335 348.1 359.5 372.9 381.2 382.8 379.8 371.8 362.8 350.6 330.1 303.8 283.6 274.5 270 266.9 264.6 264.3 270.3 278.7 296.8 325.2 342 355.8 368.9 387.6 404.6 418.8 430.4 438.7 444 445 444.2 441.1 437 434.4 435.8 435.7 438.6 444.1 451.2 463.9 473.4 483.6 496.7 510.2 520.1 528.3 539.6 544.2 544.8 536.9 498.4 453.5 423.3 394 376.4 357.6 349.6 352.4 367.1 386.9 392.1 390.5 386 379.5 368.6 353.6 333 311.6 291.9 273.1 253.1 232.3 211.7 202.8 191.5 187.6 202 224.6 250.4 277.9 304.5 323.7
2.3 3 3.2 3.3 3.4 3.7 4.1 4.4 2.7 4.7 5.1 5.5 5.7 3.8 5.9 6 6.4 6.9 7.3 7.7 8.9 8.9 9.6 10.5 11.7 12.9 14.3 15.1 16 16.3 15.8 15.4 15.9 16.5 17.2 18.1 19.7 19.7 19.8 20 20.4 20.5 20.5 20.9 20.8 21.1 21.1 21.1 22.5 22.7 23.6 24.5 25.8 26.9 28 29.2 29.7 28.8 29.3 35 40.6 38.3 41.4 47.4 57.1 67.8 80.4 96.4 114.7 135.5 156.7 183.2 205.7 223.4 237.1 243.9 247.3 260.8 279.5 297.1 304.5 314.2 326.4 335 345.9 359.9 373.9 385 393.2 404.4 408.1 414.6 423 431.1 437.4 436.3 433.1 430.3 427.1 422.7 417 410.8 405.7 400.3 394.3 386 373 357.9 344.1 329.8 318.9 314.4 310.4 313.5 321.5 328.3 341.1 358.1 370.4 383.1 387.7 387.9 385.3 380.6 372.3 361.2 342.9 316.7 294.4 284.7 276.7 271.2 269.1 269.9 267.8 279.9 294.9 311.2 327.8 340.7 361.3 378.2 393.9 407.7 417 425.8 431 428.5 425.3 422.7 416.5 417 419.2 422.2 429.9 440 454.1 464.7 475.1 486.9 500.3 517.7 526.7 533.8 539.9 543.4 542.1 532.7 491.7 444.9 413.4 384 356.6 333.1 317.8 323.4 333.9 349.2 361.5 371.3 368.7 364.2 354.2 339.9 320.9 302 282.8 263.9 243.1 222.4 201.1 185 178.9 197.6 219.3 242.1 269.1 293.9 313 327.4
2.3 2.7 2.8 3 3.1 3.5 3.8 4.1 4.5 3.4 4.8 2.3 2.5 5.6 5.9 6.3 6.4 6.7 7 7 6.8 7.8 8.4 9.1 9.6 10 10.7 11.9 13 13.5 14 14.6 15.2 15.8 16.3 16.6 18.2 18.4 18.8 18.9 18.4 18.5 18.7 19.1 19.6 20.6 21.1 18.2 22.4 23.2 24 25.3 27.1 28.3 29.4 30.7 31.6 28.8 43.7 43.7 41.6 46.4 56.7 64 71.1 80.6 95.7 115.6 134.5 156.4 183.5 206.8 224.5 240.3 247 252.4 263.4 277.7 293.6 305.7 312.9 323.4 331.5 342.7 357.6 369.7 383.2 393.2 401.9 410.7 414.3 424.2 431.1 439.3 443.7 439.7 436.4 433.6 431.4 428.2 425.7 423.4 421.6 417.5 411.1 402.7 390.1 375 358 341.9 328.5 320.2 316.3 316.4 323.6 334.3 348.6 366.1 377.8 387.3 391 392.5 391.1 387.1 378.4 367.6 352 329.1 309.6 300.9 287.8 277.7 275.9 279.4 277.5 278.9 290.2 302.8 316.3 329.2 343.4 358.5 374.9 390.6 401.2 409.9 413.9 412.3 406.6 403.2 401.7 404.4 411.4 420.6 429.5 443 455.3 464.5 475.9 488.8 504.4 522.9 529.9 536 541.4 542 536.9 525.2 497.5 453.9 411.6 379.3 349.2 322.6 293.1 297.2 303.3 314.5 332.4 350.1 352.1 347.1 338 324.8 308.2 290.9 273.4 254.8 232.5 210.9 189.6 173.2 185.1 207.5 231.4 257.2 280.3 298.6 314 329.7
2.4 2.3 2.5 2.7 2.9 3.3 3.5 4 4.5 4.8 5 5.2 5.4 5.7 6.1 6.5 6.6 7.1 7.4 7.5 7.3 7.9 7.2 8.3 8.8 9.1 10 10.9 11.9 12.9 13.3 13.8 14.5 15.1 15.3 15.7 16.7 17.1 17.7 18 17.4 17.6 17.9 18.4 19.2 20.1 21 21.8 22.1 23.2 25.8 27.6 27.8 29.1 30.4 32.4 32.9 33.5 38.2 38.7 46.3 52.6 62.4 68.6 80.1 94.5 114.5 139.3 164.3 186 205.7 221.6 237 243.6 251.4 262.9 275.3 288.6 298.7 307.8 317.5 326.7 335.8 350.5 364 377.1 388.5 400.1 411.1 419 423.9 426.9 431.5 439.9 440.6 437.4 436 435.6 434.6 434.8 436.7 438.4 438.7 436.1 429.8 419.5 406.5 390.3 373 356.3 344.6 335.4 325 319.6 330.2 341.5 356.1 368.9 382.6 391.2 395.3 397.3 396 392.4 384.1 372.5 360.3 340.5 330.9 315.6 298.3 286.3 290.4 292.5 289.6 287.4 287.5 296.8 305.4 317.1 326.7 337.3 351.6 365.4 383.4 394.2 397.6 394.6 388.9 393.6 400.9 407.9 415 422.9 433.4 445.3 456.6 468 478.2 494.1 510.3 522.3 532 541.8 544.1 539.7 530.6 516.6 500.9 469.3 423.7 381.9 346.1 316 287.8 274.9 275.8 288.6 307.4 330.5 334.8 329 320 308.6 294 279.8 264 242.4 220.6 198.6 177.5 170.1 192 215.9 241.2 264.7 283.9 300.2 315.7 327.9
2.6 2.3 2.3 2.4 2.7 3.1 3.5 4 4.5 4.9 5.1 5.3 5.6 5.9 6.3 6.6 6.9 7.3 7.8 8 7.8 8.7 9 8.2 8.5 10.9 10.3 9.7 11.2 12.2 12.7 13.1 14 14.4 14.4 14.7 15.2 15.9 16.7 16.4 17.1 17.3 15.8 18.7 19.4 20.2 21.1 22.3 23.9 28.2 27.1 27.4 28.8 30.1 31.4 33.5 34.9 35.1 43.6 49.1 56.5 58.9 64.4 75.5 92.9 114.5 135.8 156.8 184.3 202.2 216.2 231.3 239.8 247.8 259.3 270.4 284.2 292.5 299.8 308.3 318 326.8 340.9 354.3 369.2 381.1 392.6 402.5 412.1 415.3 417.5 421.2 426 431.3 432.3 432.8 435.1 436.5 439.1 445.7 451.4 454.5 455.2 453.6 446 435.5 421.7 405 388.5 374.1 363.1 349.8 335.7 323.4 334.7 346.9 362.1 376.6 388 393.4 400.1 402.4 401.1 396.6 388.8 378.5 366.6 354.1 346 329.6 311.7 307.1 309.7 305 299.7 295.8 296.4 299.8 301.3 303.5 314.3 325 337.8 354.1 368.1 378.3 380.7 374.7 389 397.9 406.9 412.2 421 432.3 443.3 451 459.1 468.9 483.9 498.7 513.3 524.2 533.9 541.3 538.4 532.5 521.1 507.5 491.2 472.2 436.9 392.8 346.7 314.6 286 259.3 253.8 265.4 287.1 308.3 315.8 311.5 303 292.9 281.7 268.5 251.2 230.3 207.1 185.6 165.4 175.1 197.7 222.8 247.9 268.1 285 300.4 314.5 325.6
2.3 2.3 2.3 2.3 2.6 3 3.5 4 4.5 4.9 5.2 5.5 5.7 6 6.4 6.8 7.1 7.5 8.1 8.5 8.3 9.4 10.9 11.4 10.8 11.3 10.9 10.9 11.1 11.5 12 12.4 13.6 13.9 13.6 14 14.3 15.1 14.4 16.3 16.9 17.7 16.1 18.9 20 20.6 21.4 23 24.5 25.7 26.5 28 29.4 30.9 32.8 34.8 36.8 39.6 45.1 51.7 54.2 59.7 71.5 91.4 112.7 134.6 151.3 173.4 197.4 213.5 226.2 236.8 244 254.5 268.3 279.7 289.9 295.8 301.9 312 320.8 332.6 347.8 360.4 370.3 380 389.1 397.4 403.3 405.9 409.1 413 417.4 421.8 425.4 429.8 433.2 439 449.1 458.7 466.1 469.7 471.7 469.3 461.9 450.4 436.2 419.8 404 390.9 377.6 363.7 345.9 336.3 339.4 354.2 368.7 381.3 389.3 398.7 403.8 405.8 405.5 402.9 396 386.7 373.6 369.8 365 353.1 341.2 342.3 335.6 324.1 314.2 310.1 309 308.2 307.8 309.1 311.6 314.5 327.3 340 352.7 363.4 366.8 378.2 388.8 402.1 411.2 419.6 429.9 442.6 450.3 458.3 465 475.6 488.6 503.9 517.2 528.7 532.5 532.2 526.9 518.8 508.4 495.1 479.2 461.6 419.5 384.9 353.8 319.2 287.2 257.6 234.7 243.7 265.1 280.5 295.7 292.8 285.3 276.7 267.8 256.4 239.7 218.9 197 174.7 158.6 179.7 204.3 230.7 250.8 269.9 284.8 300.1 313.6 323.4
2.3 2.3 2.5 3 3.1 3 3.4 4 4.6 5.1 5.3 5.6 5.8 6.2 6.6 6.9 7.3 7.7 8.3 8.9 8.9 10.2 12.3 13 12.8 11.7 11.2 11.4 10.6 11.3 11.7 11.9 12.8 13.8 14.1 14.4 14.1 15 15.5 16.2 17.1 18.4 18.8 19.3 20 20.8 21.9 23.3 24.5 25.4 26.6 27.9 29.4 31.2 33.5 35.7 38.4 40.6 40.3 48.3 57.6 69.7 90 111.3 131.9 142.7 162.4 189.5 210.2 224.4 234 242.5 251.8 263.8 275.8 283.6 290.2 296.2 302.8 314.2 325.4 336.6 346.3 355.4 365.4 372.8 380.3 387.3 392.2 393.2 396.3 400.5 407.3 413 419.7 426.5 433 445.4 460 472.5 481.4 485.6 487.2 483.4 475.4 464.6 450.7 435.2 419.2 402.6 388.6 373.5 357.4 351.5 348.9 361.3 375 385.1 394.5 402.4 406.2 409.9 412.3 409.6 404.3 394.9 384.4 382.5 382.7 374.7 374.5 378 361.2 353.5 341.6 325.4 321 318.5 317.8 316.8 318.5 321.6 322.6 330.6 342.4 350.6 365.8 377.9 393.2 408.4 422.4 432.6 442.9 452.3 462.6 470.3 476.1 486.5 499.1 511.6 522.4 526 521.9 518.5 511.5 503.3 492.9 479.8 465.5 446.2 399.7 369.7 344.7 319.3 280.6 251.8 231.6 222.5 240.5 254.5 272.2 271.8 266.9 260.6 253.1 242.9 228.3 211.1 190.2 166.5 160.8 184.5 208.7 233.9 253.2 269 284.3 298.6 310.9 321.2
2.4 2.4 2.4 2.8 3.3 3.1 3.8 4.4 5 5.4 5.6 5.8 6 6.4 6.7 7.1 7.5 7.9 8.5 9.2 9.6 12 13.3 12.6 13.1 12.2 12.4 12.4 12.4 12.6 12.9 13.2 13.5 13.7 14.1 14.4 15.1 17.4 18 18.9 18.8 19.2 19.6 20 20.7 21.4 22.7 23.9 24.9 25.7 26.6 27.9 29.7 31.3 33.5 40.9 51.3 47.1 52.8 46.7 66.2 81 100.3 117.5 128.3 144.9 175.5 199.4 218 229.9 238.5 250.6 260 269 278.1 284.4 289 295.3 305.6 315.9 325.6 333.9 341.6 349 357.2 363.4 369.9 375.3 377.2 379.3 383.2 389.9 397.2 404.2 413.4 422.6 435.6 452.7 469.6 484 492.1 498.3 500.6 496.6 488.1 476.4 463 447.7 431.5 415 398.1 381.2 369.3 364.5 361.1 371.2 381.6 390.5 397.8 405.5 414.2 419.5 420.7 418.3 413 405.7 398.9 397.3 397.3 396.9 401.4 399.9 390 378.4 364.8 352.1 338.2 331.2 329.2 328.3 330 330.5 332.3 339 345.9 359.7 371.7 386.1 405.1 418.7 432.4 443.5 453.8 463.9 473.4 479.8 489.6 497.5 508.9 515.9 520.4 517.2 509.8 503.3 495 486.6 475 464.2 451.1 435.4 390.5 355.4 329.5 306.3 275.3 248.7 227.1 206.1 218.4 229.4 241.2 244.3 242.9 240.5 234.7 228.6 216.9 200.2 183 156.6 162.5 186.5 211.9 234.8 252.4 267.3 282 295.7 308.3 317.9
2.6 2.6 2.6 2.6 1.3 3.1 3.7 4.5 5.2 5.5 5.7 5.8 6.1 6.6 6.9 7.3 7.6 8.1 8.7 9.4 11 13.8 13.6 12.6 12.1 13.9 14.2 13.5 13.5 13.8 14.1 14.4 14.4 14.6 14.8 15.4 18.1 19.9 20.9 21.7 21.3 20.6 20.4 20.7 21.4 22.1 23.2 24.2 25.3 26.1 26.8 28.7 30 34.4 40.6 47.9 59 68 71.6 69 62.8 60.2 87.3 104.2 122.6 151.1 177 198.3 215.4 228.7 243.7 255.3 264.1 273 279.3 283.9 290.9 300.5 308.6 317.6 324.3 330.2 335.6 343 347.9 352.9 357.2 361.4 363 366.8 371.8 378.7 386.7 395.6 406.3 421.1 438.9 458.5 475.7 489.5 501.4 510.2 509.9 504.5 494.8 482.6 469.6 455.7 440.9 424.8 405.9 390.4 383.9 376.4 371.3 380 386.9 395.2 404.6 415.3 422.8 427.5 427.8 425.7 421.2 418 416 414.7 416.8 417.1 419 416.6 409.6 404.6 400.5 383.4 369.6 361.5 358.1 352.7 350.4 346 346.9 350.9 359.4 371.3 386.4 400.5 413.2 427.3 441 454.4 464.3 473.9 481.9 488.7 500 505 508.8 511.7 510.1 504.3 495.7 487.6 477.4 468.1 457.8 447.9 434.6 421.9 392.7 352.3 321.7 296.9 280.8 252.8 224.3 205.3 197.2 202.2 208.5 209.9 211.5 213.9 215.9 213.5 204.1 189.5 172.5 150.4 163.1 187.7 212.2 233.5 250.8 265.7 280.9 295.3 306.5 314.1
2.7 2.8 1.3 2.8 2.8 2.9 3.2 4 4.5 5.4 5.7 5.8 6.3 6.7 7.1 7.5 7.8 8.3 9.4 10.5 12.7 15 14.5 14.1 13.3 12.2 15.4 14.7 14.7 14.9 15.2 15.4 15.4 15.5 16.1 16.8 18.9 21.4 22.3 23 23.6 22.1 20.8 21.7 22.9 23.5 24 24.7 25.6 26.6 29 32 39 46.5 51 62.2 70.2 77.9 88.1 93.5 85 74.6 70.7 89.4 122.7 150.4 172.9 194.3 214.4 230.1 245.5 257.2 267.7 274.4 280 288.3 296.7 304.8 311.2 317.3 322.4 326.6 330.8 334.8 338 342 345.9 347.7 350.9 355.1 360.2 367.9 376.6 388.3 404.7 422.1 440.2 459.1 474.8 490 502.3 508.6 511.2 504.6 495.6 485 473.1 460.6 446.9 432.3 417.4 404.4 393.9 385.7 381.2 388.4 394.5 404 413.7 423.3 430.1 432.7 433.4 432.4 430.4 431.6 430.6 431.1 432 433.4 433.8 433.9 429.6 427.5 420.2 408.9 402.9 391.5 386 377.9 373.2 368.9 365.6 372.3 376.7 390.7 407.3 420.8 428.8 437 451.8 465.9 476.4 480.7 486.6 494.9 505 509.5 507.4 503.5 497.9 488.5 478.8 470 460.2 450.6 441.7 432.1 420.6 407.1 386.8 361.8 326.5 298.6 274 246.9 226.8 211.2 199.1 185.7 183.2 183.9 185.3 188.9 195.2 197 189.3 178.7 162 141 162.9 190.8 212.2 232.6 250.7 267.3 282.6 296.2 306.5 313.1
2.8 2.6 2.2 2.1 2.7 3.4 0.8 3.2 3.8 4.9 5.6 6 6.4 6.9 7.3 7.6 8.4 9.7 10.8 11.9 14.1 15.6 15.7 14.8 14 13.1 16.4 15.9 15.8 16.1 16.3 16.3 16.4 16.6 17 17.5 18.8 21.4 23.5 23.9 22.9 22.3 21.9 23.2 24.2 25 25.2 26 27 29.6 33.6 39.7 48.2 58.3 70.4 78.8 86.9 98.1 107.9 116 104.2 94.8 83.7 82.1 113.9 139.1 162.9 188.9 211.4 232.5 248.6 260.1 270.5 277.7 284.5 292.8 302.3 308.5 315.2 318.4 320.6 322.6 324.4 326.4 328.6 331.8 334.2 337 340.2 344.7 350 359.6 372.1 387 404.1 421.5 438.1 454.1 469.8 485.1 494.8 500.7 502.7 498.7 491.9 483.9 474.7 464.5 453.6 442.8 428.5 417.4 406.7 396 391.6 397.8 404.5 413 422.7 430.8 435 436.8 439.9 438.6 442.5 445.1 445.7 447.4 449.3 449.6 451.6 452.7 452.9 452.6 448.4 444 436.7 424.4 419.7 408 401.6 396.6 391.5 395.1 398.2 409.4 428.7 440.3 448.4 455.9 466 475 480.7 485.2 491.6 502.4 511.1 510.6 502.5 494.3 484.1 472 459.9 450.3 441.2 431.8 423.1 413.3 403.6 390.2 371.9 351.5 334.4 312.8 284.6 258.1 238.3 225.7 212 198 184.9 171.9 167 171.3 176.8 180.7 177 167.9 150.1 141 171.4 196.2 217.1 235.8 254.1 271.2 286.2 298.5 306.8 314.1
2.8 2.7 2.6 2.8 3.4 4 4.5 4.9 5.1 5.5 5.4 5.7 6.3 6.8 7.4 8.6 9.9 11.2 12.3 13.6 15.4 17 16.8 15.8 14.8 13.9 12.9 17.1 16.9 17.2 17.3 17.4 17.5 17.7 18.2 18.6 19 20.2 21.4 21.5 22.1 22.5 23.1 23.9 24.8 25.7 26.9 29 33.7 38.1 48.5 59.8 69.8 78.4 88.3 93.9 104.3 118.1 128.4 128.4 122.7 122.4 113 87.8 103 131.4 156.8 178.8 208.1 235 252 267 275.4 281.8 289.5 298.2 305 310.9 314.6 315.8 314.9 310.6 310.5 311.8 316.5 319.1 322.7 324.9 329.7 336.7 346 356 370 385.5 402.9 419.5 435.2 451 464.5 476.4 485.2 490.9 492.2 490.1 487 482.3 477.5 467.6 459.4 450.7 441.2 430.1 419.5 407.6 403.2 407 414.7 422.7 430.7 435.4 439.3 442.2 444.4 446.2 449.1 454.3 459.6 460 463.1 464.8 469.3 474.2 474.8 477.3 478 480.1 476.4 464.2 456.1 442.6 434.8 429.1 424.5 423.9 431.1 436.8 450.4 463.5 468.1 472.4 478.5 481.6 483.1 489.7 498 510.2 511.9 505.1 493.3 480.9 467.7 455 438.9 428.5 419.1 411.9 403.3 395.3 384.5 371.4 355.1 340.5 329.5 318.6 302 278.7 261.3 246.6 233.1 218 202.6 189.2 175 163.7 156.4 166.2 168.4 156.1 130.5 154 179.1 199.9 221.3 240.7 259.7 276.8 290 303 309.1 316.2
2.8 2.9 2.9 3.5 4 4.5 5 5.5 5.6 5.6 5.8 6.2 6.5 7.1 8.7 10 11.4 12.7 13.8 15.3 16.8 17.8 17.8 16.9 15.8 15.1 14.9 18.8 18.1 18.2 18.3 18.5 18.6 18.9 19.3 19.7 19.6 20.1 21.2 21.7 22.5 22.9 23.9 25.2 26.8 29.5 32.8 37.7 44.8 56.7 66.9 78.3 86.8 91.3 97.7 110.5 122.7 135.2 139.4 141.9 150.6 152.2 129.6 105.6 96.1 121.2 144.6 169.5 208.8 235.7 257.7 267.8 272.9 282.2 289 292.6 295 301.1 304.4 300.8 293.1 288.6 287.9 290.2 293 304.3 310.3 318.5 327.5 335.6 345.3 356.1 370.5 386.6 403.7 420 434.8 448.4 460 469.8 476.9 480.4 481.7 481.5 479.9 477.8 473.3 468.8 464.5 458.6 450.8 442.1 431.9 421.3 417.4 419.6 424.8 432.7 437.9 442.7 445.5 448 451.7 455.5 458 466.1 473 476.9 478.6 485.3 489.1 490.1 491.6 492.5 492.9 494.2 493.6 492.2 491.3 484.3 474.6 463.5 459.5 458.8 465.8 470.7 478.4 481.8 483.8 484.3 483.7 484 485.8 493.5 505.9 510.3 505.8 495.1 481 467.2 452.3 434.3 419.4 404.6 396.5 390.4 382.9 373.9 363.1 351.2 340.5 332.6 327.4 321.5 314.1 302.2 287.3 273.2 259 243.1 226.6 212.1 197.1 184.4 168.9 149.8 148.5 138.3 133.5 157.9 176.1 199 222.4 244.3 264.7 280.2 293.1 305 311.3 315.7
2.8 1.1 3.5 4 4.5 5 5.5 6 6.3 6.1 6.1 6.6 7.1 8.5 10.1 11.4 12.8 14.2 15.5 17 18.5 18.8 18.6 17.7 16.8 16.9 16.5 20.3 19.4 19.3 19.4 19.5 19.7 20 20.3 20.2 20.1 20.3 21 22.1 23.4 25.2 27 28.5 32.4 36.8 39.9 46.4 59.2 71.4 81.7 92.4 98.5 108.5 119.5 131.3 140.4 146.4 154.1 169.7 181.4 172.9 149.8 123.1 98.8 109.1 132.8 163.9 200.6 226.8 244.4 253 257.9 263.1 270.1 274.6 277.8 284.4 282.9 276.9 269.2 263.3 259.6 258.5 283.2 305.4 315.9 321.5 330.9 337.6 347.4 359.1 373.6 390 404.6 419.5 432.7 446 457.1 464.3 469 471.4 472.2 472.2 473.1 473.8 472.1 469.3 467 464.3 456.4 450.5 444.9 437.5 433.9 433.9 436.1 442.5 445.6 452.2 458.2 460.9 466.5 470.2 476.5 484 490.5 493.8 497.5 502 503.5 505.2 503.9 503.7 503.9 504.9 506.2 506.7 505.5 501.5 493.6 485.8 482.4 485 486.7 489.2 491.2 491.1 488.5 486.6 485.1 487.1 489.3 494.8 505.9 503.2 495.3 482.1 468.2 452 434.9 414.2 394.9 380 371.2 365.8 358.8 351.6 343 334.1 329.4 326.1 326.9 326.2 326.5 321.8 308.8 297.7 283.6 267.5 252.7 238.3 223.8 210.1 188.1 160.4 139.5 117.1 133.9 151 168.1 192.8 217.4 244.1 264.1 281.1 293.7 300.6 304.5 304.6
