ncols 200
nrows 82
xllcorner 200000
yllcorner 841000
cellsize 50
384 386.1 386.2 390.3 397.2 404.9 414.9 424.3 425.2 420.8 419.8 428.1 444.5 458 473.8 486.5 508.4 524.7 545.3 554.2 560.4 567.9 567.1 567.2 564.1 564 566.8 567.4 571.1 575.4 580.4 598.3 621.8 649.2 651 659.6 669.5 675.1 683.2 685.8 679.4 683.2 683.4 676.3 674.9 665.2 660 657 651.7 644.8 636.2 629.8 622.4 619.9 617.1 616.2 614.9 608.9 610.4 613.8 617 620.8 629.1 638.7 648.6 660 671.8 684.7 698.4 711.7 723.6 733.4 742.4 750.2 727.4 685.6 669.4 652 643.1 656 677.5 686.2 699.4 711.5 727.7 730 743.5 764.8 777.2 786.5 784.3 770.1 742.9 710.7 691.3 685.6 696.7 708.9 730.9 756.7 780.9 786.7 783 772.5 755.4 742.4 728.8 720.7 722.8 702.1 691.3 678.2 668.8 663.2 663.3 655.2 644.3 639.3 630.7 622.6 606.6 589.8 576.9 561.6 548.1 530.6 527.2 526.7 526.4 526.4 538.9 542.9 550.9 564.5 581.3 594.8 607.3 627.1 646.2 664.4 676.8 690.1 709.2 743.8 771.8 789 802.4 819 792 741.3 710 686 659.8 634.3 617.8 603.1 593.3 593.1 607.2 627.3 636.4 646.9 655.5 671.8 690.6 719.2 747 777.3 804.5 835 864.8 886.7 918 950.2 974.8 980.3 970.9 940.1 908.2 878.6 863.6 828.8 800.1 766.2 743.8 737.7 737.7 737.7 737.7 745.6 744.4 740.2 739.4 737 731.6 729.3 719.2 680.4 652.9 639.1
382 383.9 385.1 389.5 395 401.1 410.1 413.8 413.2 410.6 414.4 428 440.3 458.2 475.3 498.5 518.9 540.9 549.4 558.4 563.4 562.8 562.4 564.2 563.8 564.8 564.1 571.8 577.9 584 601.1 622.8 636.8 651.2 657.2 665.2 677.4 677.4 683.4 683.7 678.4 682.6 675.9 670.7 666 654.4 650.7 643 641.3 637.3 628.7 621.5 618 615.7 615.9 614.3 613.8 613.7 615.1 619.1 622.8 630.5 640.3 649.8 661.4 671.1 683.6 699 713.8 728.3 740.2 749.9 759.7 767.3 772.1 750 723.7 713 707.1 714.2 723.2 733.7 747.9 765.5 780.1 782.7 783.4 780.5 781.9 783 778.7 771.6 760.3 742.2 726.2 723.9 748.8 758.1 770.9 775.5 765.7 754.9 744.7 734.9 730.8 715.9 701.3 684.7 671.7 665.2 657.4 647.7 640.1 635.1 631.6 628.7 623.7 620.1 615.2 608.5 599 585.8 574.3 563.5 544.4 547.6 542.7 544.9 547.3 551.7 564.2 571.3 576.5 591.5 609 623.8 636.8 654.5 675.1 697.8 714.5 746 764.3 787.9 809 825.8 839.8 832 795 775.5 754 727.6 709.6 695.2 689.8 649.7 658.1 661.8 654.4 643.1 644.2 650.7 660.9 676.7 698.7 728 763.4 790.8 816.6 852.7 878 902.6 932.7 962.3 991 995.5 980.8 955.3 919.5 890.8 879.4 852.6 822.2 796.9 767 749.7 747.8 740.5 739 746.7 745.4 748.8 750.3 750.1 752.2 746.4 728.7 693.7 673 649.4
382.1 383.2 385.1 388.2 391.9 398.2 402.5 405.7 404.6 407.8 423.2 434.4 449.1 461.4 475.3 500 519.7 542.6 556.1 560.2 561.3 566.2 564.1 564.1 567.1 564.9 568.4 577.7 588.8 609 635.6 635.3 642.7 651.3 659.4 665.3 672.2 679 683.4 683 672.6 670.6 668.1 656.5 651.5 643.5 638.8 633 632.3 628.2 620.2 617.1 616.5 616.1 618 616.1 614.9 616.9 619.8 624.9 632.2 641.9 651.1 662.3 673.8 685.4 700.1 713.5 729.9 742.6 754.6 766.8 773.7 779.9 788.2 794.6 787.7 771.6 770.6 766.7 765.6 764.6 762.3 757 770.5 783 782.6 776.3 774.9 775.3 772.5 762.4 753.1 744.5 747.6 754.5 761.2 762.1 755 745.1 735.7 723.7 713.2 703.1 696.4 682.8 676.7 665.1 644.5 630.9 625.2 614.2 613.5 608 609.6 609.4 607.5 606.5 604.4 600.5 594.5 586.9 574.2 567.8 568 570.6 571.3 578.7 574.1 582.9 586.8 591.7 603.9 617.6 636 650.5 662.3 689.6 715.6 744.4 765.7 793.4 811.4 828.8 843.9 860.5 865.1 830.3 809.7 790.8 773.2 753.2 733.7 714.2 700.5 690.8 680.9 663.1 655.9 645.9 647.9 654.2 678.2 697.7 719.3 747.2 778.2 809.7 838.3 871.3 894 918.4 946.8 975.5 1003.5 1008.9 1002.5 971.2 935.1 906.9 888.4 875.9 849.4 815.5 794.9 786.8 756.1 753.6 741.5 746.4 753.8 761.2 764.1 770.9 771.7 761 735.4 706.1 685.4 666.1
383.4 382.1 385.8 387.6 389.1 395.1 399.8 398.9 401.4 416.5 431 442.8 461.3 471 485.3 500.9 522.1 536.3 548.8 556.2 568.5 568.2 565.3 564.2 563.9 569.4 576.5 581.9 595.4 617.8 646.4 655.5 655.8 655.5 663.7 672.7 671.2 672 673 674.3 661.1 655.9 652.9 642.3 636.2 632.2 627.3 623.9 621 618 613.3 616 615.9 617.2 618.5 618.7 618.3 620.8 625.7 633.3 643.2 653.7 665.2 678.5 690 700.6 714.1 732.3 749.3 759 766.7 773.3 779.5 785.9 791.5 799.6 802 797.4 786.7 772.8 762.8 753.8 744.7 736.5 738.1 750.7 762.6 762.8 758.6 753.6 748.2 742.9 737.8 733.8 729.7 723.2 727.4 730 722.9 712.8 703 690.2 677.6 672.4 661.2 652.5 645 635.8 620 610.2 602.2 596.3 590.3 590.1 592 595.4 597 596.4 596.9 596.6 594.3 591.1 580.5 592.1 588.5 591.9 597.9 596.9 604.2 610.4 617.2 630.2 645.1 665.3 674.4 689.9 702.7 726.6 751.6 786.8 807.9 830 843.9 858.5 871.5 882.1 856.3 826.3 811.3 794.6 773 751.2 732.7 715.6 703.9 692.7 674 662.7 656.5 649.2 665.4 673.4 700.3 712.2 736.4 767.2 802.5 837.4 869.2 887.7 909.6 931.7 960.2 992.4 1015.3 1023.2 1002.7 967.5 935 909.4 888 869 851.3 829.7 807.5 788.4 769.9 763.9 751.5 758.9 773.3 784 788.6 796 793.3 777.4 758.6 731.6 717.4 713.6
381 382.2 386.5 386.6 390.3 392.3 394.8 397.2 404.9 415.9 439.2 449.8 471 483.7 498.7 513 532.1 539.1 559.1 565.1 565.5 565.4 563 560.6 561 566.1 572.4 591 616.6 642.3 652.9 655.4 660.9 663.5 662.8 665.6 665.7 663.3 659.4 654.6 647.1 640.5 634.6 628.3 622.6 620.9 616.9 615.4 613.4 611.8 611.3 613.1 615.1 616.5 618.3 620.4 621.6 626.1 633.4 643.9 656.5 667.4 681 694.3 707.9 719.7 734.9 751.2 763.8 770.4 775.3 768.7 761.3 765.8 773.4 777.8 784.4 780.6 773 761.4 749.6 739.3 730.8 725.3 715.2 712.2 725 735.3 734 727.7 721.3 715.2 708.4 704.5 701.1 697.6 692.6 692.1 686.3 675.8 660.8 650.2 647.5 638.9 629 618.1 613.8 602.9 591.4 587.4 581.3 578 574.3 577.8 580.8 586 588.7 592.1 594.6 596.4 599.2 596.9 600.8 615.5 621.6 619.4 621.2 622.6 630.7 645 658.2 672 687.9 713.2 728.2 731.4 736.9 764.5 803.6 818.1 839.3 857.7 869.1 884.1 893.8 893.3 859.8 837.6 816.9 797.6 777.1 750 730.9 719.7 715 696.9 684.9 678 676.1 690.7 694.3 697.6 709.1 727.8 747.4 783.1 812.6 858.6 892.8 900.5 919.5 944.3 974.3 1009.4 1031.3 1034.5 998.8 963.1 933.8 913.3 885.5 865.2 849.2 836.9 820.3 799.7 788.7 793.9 788.8 788.2 804 820 828.2 833.8 828.3 808.3 787.9 771 777.3 767.2
379.9 382 384 389.1 392.6 399 397.4 402.2 409 424.7 444 462.9 484.4 501.5 514.7 529 538.5 546.9 562.5 567.6 564.7 563.3 560.1 555.1 558.9 573.2 594.5 624.1 645.4 652.2 655.8 662.2 664.6 668.6 660.7 655.5 655.9 650.3 645.2 636.1 629.3 624.2 617.9 613.9 611.3 609.6 608.5 607.3 605.8 606.7 608.3 609.7 612.8 615.6 617.9 620.8 624.2 632.6 643.2 654.8 668.1 683.7 700.1 716.9 727.5 739.2 757.1 768.4 771.9 775.3 771.1 757.9 747.4 740.4 738.2 742.6 740.2 752.3 748.7 741.6 732.3 724 714.8 704.6 696.4 690.9 685.6 697.3 704.8 699.3 693.9 693.3 690.6 691 678.9 675.4 669.1 661.2 651.2 639 626.2 613.7 606.6 604.1 596.3 586.3 576 576.5 568.6 566.8 566.3 564.5 567.4 569.1 573.2 579.6 583.8 592.2 596.4 606.5 607.1 605.4 616.7 636 636.3 636.6 642.9 644.9 658.5 673.5 686.1 703.9 727.1 753.6 764.6 778.7 784.1 806.9 827.7 848.2 863.6 879 893.5 906.5 923.5 918.9 874.5 842.3 823.5 803.6 787.3 769 752.3 759.7 749.3 737.9 726.6 721 719.3 732.2 730.4 727.2 732.3 749.3 782.7 818.4 852.4 877.6 894.6 910.7 931.2 958.5 992.8 1023.6 1043 1040.3 1002.8 966.6 942.1 930.1 913.2 892.1 890.1 861 844.4 843.1 836.6 837.4 826 816.8 833.8 852.5 864.2 860.6 856.9 850.1 845.6 820.5 809.4 792.6
379.9 381.8 386 389.3 391.8 394 398.5 403.2 416.1 436.1 456.2 485.3 500.7 518.2 536.2 550.2 553.6 555.9 558.1 563.7 563.2 556.6 554.7 567.4 578.2 591.3 604.1 632.9 646.8 647.3 655.5 660.2 663.3 662.5 655.3 647.8 646.2 636.2 627.2 619.5 615.1 608.3 604.7 600.9 599.7 599.5 599.6 599.4 600.3 602.7 604.1 607.3 611.4 615.7 618.8 622.1 629.8 641 654.7 672.3 686.5 706.1 722.6 734.5 746.8 753 759.9 768.6 770.1 771 758.2 745.4 734.6 725.9 716.4 711 712.6 704.2 712.6 711.4 706.9 699.2 691.6 686.2 681.9 677.9 669.4 665.3 670.8 670.1 665.1 665.4 665.4 665.1 660.7 651.8 644.3 633.1 620.6 608.5 594.9 581.9 577 569.2 569.8 563.8 554.7 553.9 552.7 555.7 556.9 559.5 561.3 565.3 572.1 583.9 587.9 594.8 604.8 611.9 615.8 609.9 626.5 640.4 637.2 642.5 645.8 650.7 668.2 689 713.2 735.5 760.9 775 797.5 809.2 821.7 839.4 856 871.3 885.4 901.2 915.7 929.8 948.1 950.7 911 873.7 857.5 833.6 821.2 811.2 803.9 793.1 784.4 777.7 771.6 767.6 760 759.8 751.9 742.3 744.9 765.6 800.9 837.3 875.7 905.5 915.9 934.8 953.3 979.8 1010.7 1037.2 1049.5 1049.3 1017.7 996.2 978.9 959 944.2 929.3 905.6 882.7 890.3 893.7 879.4 858.1 845.6 844.8 862.8 886.5 900.7 896.4 888.1 882 879.9 842.7 820.6 808.6
381.2 384.1 388.7 391.9 395.6 395.1 404.3 414.3 425.4 445.7 465.5 489 509.5 532.1 547.4 561.4 562.8 567.2 565.7 557.3 552.2 557 569 581.1 595 599.7 607.4 623.1 639.3 647 651 654.3 659.4 650.3 651.2 642.7 635.5 623.8 612 603.9 598.9 594.3 592.7 590.2 590.3 590.4 592 592.7 594.4 598.1 600.9 605.9 610.6 614.9 619.4 624.3 636.2 654 671.1 684.9 704.1 722.4 737.3 746.7 754.4 750 746.8 751.1 753.3 748.8 738.6 727.5 716.2 706.3 695 684.6 681.3 682.5 670.8 672.7 671.9 667.1 663.5 661 656.8 654.4 651.9 645.8 633.9 630.2 634.2 636 634 630.5 626.5 628.8 620.5 607.5 588 574.7 566.5 559.4 556.1 548.7 543.9 542.3 537.6 541.2 548.2 547.3 553.1 562.2 567 573.1 583.6 595.9 598.9 602.8 618.5 621.9 618.6 626.2 639.4 639.8 632.4 634.6 636.5 641.8 656.2 675.2 698.9 724.2 747.4 757.6 776.9 791.7 819.1 838.9 854.4 874.8 898.4 916.3 935.6 947.8 963.1 974.6 951.5 914.4 914.2 886.8 860.5 848.4 841.2 849.8 823.9 833.7 819.1 804.4 786.8 780.5 766.1 756.2 759.1 785.7 815.7 862.5 911.3 936 940.4 953.3 977.6 1003.4 1022.5 1041.4 1050.8 1051.8 1047.6 1035.9 1016.7 991.1 974 948.2 929.6 929.5 927.9 912.3 893.2 881.8 878.3 894.6 923.4 928.6 937.1 929.7 921.6 912.4 878.8 839.9 826.5 816.9
379.8 383.5 388 395.4 392 397.7 416 430.4 444.3 457.4 475.3 493.6 518.2 540.1 553.4 562.4 570.4 567.6 556.5 552.2 552.8 559.6 578.1 587.9 605.7 618.7 638.1 646.1 647.2 652 658.9 653.5 646.1 642.5 637.5 634.9 620.1 603.3 596.3 588.2 583.1 580.4 578.9 579 578.8 580.1 582.2 584.1 587.6 592.3 597.9 602.6 610.2 616.4 620.7 630.5 647.9 667.4 683.4 698.1 718.7 736.3 743.8 742.3 739.9 738.8 733 727.2 728.3 725.7 717.1 704.7 693.5 681.2 671.7 659 649.3 646.1 649 636.2 634.5 630.5 630.2 627.5 626.9 628.5 626.7 617.8 605.2 596.3 595.9 598.3 598.9 597.6 594.6 592 588 578.1 564.7 548.3 540.6 532.7 536.6 533.7 524.5 522.7 527.1 530.7 542.9 555.1 561.6 572 580.6 594.8 605.9 615.1 619.1 627.4 638.1 639.8 630.3 641.4 640.5 629.5 621.6 624.1 623.9 624.7 636.5 646.9 661.4 686.3 712.9 732.3 740.4 765.2 785.9 801.6 824.1 838.3 865.5 893.3 914.9 932.4 948.3 955.6 965.7 972 971.6 939.2 916.8 920.6 910.9 932 907.2 882 845.8 830.3 813.8 807.9 792.6 790.1 804.8 824 849.4 902.9 928.9 936.2 949.4 961.7 975.2 983.3 991.8 1004.8 1017.3 1033.1 1037.8 1038.9 1031.3 1027.8 1003.5 989.7 966.3 971.9 944.4 923 913 909.2 916.8 946.5 964.9 965.6 971.9 962.1 949 908.7 874.3 846.8 832 829.5
378.5 380.9 388.1 388.9 393.8 409.8 424.1 437.2 460.8 473.5 485 505.7 529.3 540.6 556.5 561.7 560 553.4 553.2 555.5 558.1 564 591 603.9 623.4 635.3 638.5 646.6 651.1 649.9 652 650.9 648.2 630.1 625.1 615.4 599 587.6 579.8 574.1 568.8 567.3 566.4 566 566.1 568.6 570.3 572.5 581.9 588.7 594.6 602.2 611.3 617.3 624.4 637.2 661.4 677.9 695.2 713.1 726.3 735.4 736.9 732 725.8 719.4 714.3 709.5 700.1 695.1 688.1 679 667.6 654.3 640.9 628.7 619.6 611.1 611.5 612.9 604.2 596.2 592.9 592.4 595.2 594.7 593.4 590 583.3 572.4 563.7 560.7 566.1 564.3 558.6 555.7 550.9 545.4 534.9 523.9 520.2 515.5 510.2 510.5 503.6 515.3 528.9 537.5 550.3 562.8 574.4 588.5 604.3 622.7 637.5 649.3 656.9 657.9 650.5 643.5 636.1 644.3 639.9 623.8 613.5 605.4 608.2 600.1 605.7 614.2 628.1 642.9 676.8 691.6 701.9 719.6 740.2 761.1 776 805.4 834 857.3 876.9 897.3 911.4 920.9 929.3 939.1 950.3 964.3 977.9 991.9 998.9 971.2 941.3 907.6 878.9 861.5 852.6 842 832.5 845.2 847.2 863.5 887.3 892.4 898.5 904.9 916.3 925 935.3 946.1 955.6 966.5 981.1 995.2 1004.4 1020.6 1022.5 1026.4 1023.5 1022.9 1015.9 988.7 963.2 955.5 941.6 950.7 978.7 996.4 1003.2 1006 1007.3 1005.4 961.5 919.9 886.9 859.8 850.1 843.3
384.2 382.6 386.8 387.8 405.4 424.5 445.5 468.4 488.4 495.8 502.7 515.3 534.4 546.6 550.7 547.1 548.4 550.1 557 563.2 565.4 574.3 588.1 603.3 627.5 639.9 645.6 646 648.2 648.3 661 652.8 636.5 620 603.4 592.8 580.4 573.2 566.9 559.1 556.7 553.6 552.2 553.2 553.1 554.9 556.7 566.9 577.3 585.7 594.5 603.6 614.3 621.4 636.2 647.4 671.7 687 704.1 714.5 719.1 718.4 716.7 713.8 706.7 698.6 691.5 684.3 674.1 661.2 653 644.9 634.3 622.6 608.7 600.5 589.2 583.5 576.4 575.6 573.6 564.9 557.9 554.4 559.1 556.8 556.8 554.7 554.4 546 536.6 530.5 528 535.1 529.6 521.1 516.5 512.5 504.3 496.4 497.4 495.8 491.2 490 505.1 519.4 536.7 547.1 565.3 580.2 593.4 614.7 643.4 664.8 683 686.8 698.9 690.2 673.8 656.9 640.3 637.8 628.3 611.8 594.3 586.7 584.5 577.1 577 584.2 593.4 609.7 627.5 644.4 670.5 685.2 708.3 721.2 750.8 780.3 804.8 820.3 841.3 862.8 876.1 884.3 893 904.3 919.9 937 953.3 968.4 980.8 990.5 961.9 935.7 915.2 902.3 895.2 894.8 893.1 879 867.2 856.8 859.6 864.7 868.6 874.2 882.6 890.1 899.4 908.5 920.5 927.8 946.7 958.5 967 985.5 996.5 1014.3 1015.8 1019.5 1019.1 1018.9 1002.7 982.1 975.4 994.2 1022.8 1029.3 1033.5 1032 1029.4 1022.2 985.6 949.8 907 885 871.2 875.2
387.3 387.4 388.6 402.6 426.9 436.9 459.7 481.3 494 511.7 523.8 519.4 529 541.5 542.1 548.2 548.1 551.8 554.1 562 573.8 586.4 597.4 619.1 628.2 634 641.8 643.6 642.5 647 654.2 647.5 622.8 605.5 590.3 573.8 563.3 559.1 553.3 546.2 543.2 540.9 539.5 541.4 543 538.8 557 564.8 574.1 584.2 593.7 603.5 615.1 627.1 642.4 657.6 674.5 690.1 700.2 709.2 704.5 698.2 690.7 689.4 683.4 676.8 665.8 655.6 645.3 634 619.9 609.4 599.4 589.1 576.4 566 556.3 552.2 545.5 540.3 537 528.8 526.4 521.8 520.2 518.3 523.2 523.7 520.1 517.9 511.2 505.9 502.6 502.7 504.1 496.3 488.8 486.1 481 478.7 474.2 473 485.6 499.5 512.1 525.6 541.6 561.2 580.7 599.2 619.3 652 683.9 705.1 719.6 729.8 738.9 723.5 698.4 674.7 655.3 631.9 613.9 597 583.3 570 559.9 555.8 554.5 556.7 563.5 576.2 593.3 616 638.6 653.3 669.7 687.6 723.9 748.2 769 786.3 805 827.4 842.8 851.9 859.6 873.5 888.1 906.4 924.1 941.2 956.8 973.7 987.4 974.7 963.4 962.8 938.2 912.4 889.3 867.2 848.6 836.5 831.1 836.3 839.1 845.2 851.4 858.3 862.6 873.7 883.9 892.3 905.4 920 931.3 949.2 964.6 979.9 994.9 1004.3 1010 1014.7 1024.3 1026 1026 1028.3 1029.4 1030.1 1026.4 1021.5 1018.8 1016.3 1006.9 970 938.4 913.9 922.3 932.6
385 385.1 399 424.2 447 462.1 466.2 486.2 500.4 516.1 532 536.6 535.3 539.2 538.1 539.7 543.3 547.3 556.9 565.8 579 604.1 619.4 621.3 627.3 634.1 638.9 638 649.6 646.6 635.8 626.1 605.5 586.4 571.7 558.4 551.6 545.3 539 536.4 529.6 528.8 527.8 531.7 530.9 542.8 552.4 561.1 570.5 581.2 590.5 602.9 614.3 632.8 648.7 660.8 674.2 684.4 689.3 692.1 684.7 676.8 670.8 662.6 655.6 649.6 639 627.1 614 602.6 590.7 577.6 566.5 555.8 545.1 534.4 525.4 515.9 510.3 508.2 508.9 493.7 501.1 498.4 493.9 491.3 490.2 486.8 488.6 488.6 485.1 485.5 485.2 483.1 475.9 472 469 465.8 459.5 459.5 473.2 486.8 492.9 502.3 514.3 531.4 553.3 576 598.7 626.1 645.7 679.9 726.4 743.4 752 762 753.3 737.6 713.7 684.4 660.6 632 612.3 590.8 572.6 556.9 541.8 535.8 532.3 533.3 539.3 551.1 565.4 581 606.2 623.1 635.8 652.7 684.4 710.2 731 752.2 774.2 797 814.9 826.6 836.7 846.8 858.9 879.5 897 915.3 933.8 951.4 968.2 982.2 985.9 957.3 926.9 897.6 872.1 843.8 823.8 811.2 803.9 807.6 810.9 816.1 823.5 827.6 832.6 838.4 849.2 856.9 869.6 880.3 896.9 912 929 946.6 963.1 977.1 986.5 997.8 1013.2 1019.8 1021.9 1022.9 1019.9 1012.5 1004.7 997.3 994.5 992.3 984.5 975.5 965.2 960.5 965.2 966.2
382.2 393.5 415 430 450.5 478.5 490.6 494.2 503.6 519.2 533.4 539.8 535.9 534.6 541.4 535.5 537.6 542.9 554.7 565.9 589.4 605.4 619.5 626.3 630 638.7 638.6 639.3 646.3 649.8 630.8 603.2 587.4 569.8 555.9 544.4 538.9 533.5 526.2 521.7 516.4 516.9 515.1 514.7 529.2 538.7 548.8 556.7 565.3 577 584 600.2 615.5 635.7 647.4 659.8 668.8 668.5 667.4 667.4 661.3 652.6 644.6 637.2 626.3 617.6 606.9 596.3 584.4 570.2 560 549.4 538.1 526.2 516.7 505.6 497 492.1 486.1 479.9 476.1 471.6 472.1 468.8 468.1 465.9 463.9 456 455.2 457 458.4 464.9 466 464.4 456.1 449 446.8 445.9 461.2 478 485.1 488.2 496.4 508.6 520.1 542 569.1 595.7 616 648.6 680.5 707.7 756.8 766.6 770.2 768.7 751.4 733.8 713.2 689.1 661.9 627.6 607.9 586.9 566.5 546.9 530.8 518.5 515.4 516 521.2 528.7 539.2 550.5 562.5 583.9 602.8 621.4 663.9 676.4 693.3 715.8 745.4 768.7 788.9 797.3 809.9 821.2 836.7 857.1 872.7 889.1 907.8 927.3 945.8 963.3 972.3 957.4 918.8 886.5 855.2 828 807.4 793.4 786.6 783.5 785.7 795.7 801.2 802.6 804.7 808.7 816.1 823.2 834.9 844.5 863.1 875.8 894.3 908.1 928.5 941.6 953.6 965.2 985.7 1002 1009.9 1009.9 1000.9 986 976.7 967.3 965.6 963.5 959.4 952.9 949.9 953.4 959.1 967.8
391.8 402.2 419.5 436.8 458 480.1 498.9 498.8 505.8 525.2 529.6 536.7 532.8 526 531.6 539.5 547 553.5 559 573.4 593.7 624.4 630.4 631 623.4 617.6 635.2 637.9 641.4 636.8 614.6 588.4 568.4 554.2 539.6 532 525.3 520.9 515.4 509.6 509.3 505.4 512.5 518.6 527.7 535.4 545.5 551.3 561.6 570.2 579.2 594 611.3 624.7 634.8 638.7 644.6 648.2 644.3 636.4 631.5 623.8 614.3 605.2 596.3 584.5 573.3 564.7 553 541 530.4 519.6 511.5 497.1 486.9 479.7 474 471.2 465.1 456 456 447.2 446.6 444.6 439.6 440.6 435.5 432.7 430.8 429.2 431.2 432.4 435.4 430.8 431.4 433.8 435.7 459.9 471 482.6 484.9 489.2 498.6 513.6 533.6 556 590.5 613.9 639.1 670.8 712.8 764.7 774 776.4 776.1 766.4 749.8 732.1 714.2 694.1 666.6 629.5 603.9 582 559.4 538 522.7 509.5 502.8 501 505.5 511.2 517.3 524.9 537.2 555.2 568 589 619.9 631 661.3 680.6 708.6 738.2 755.2 773.4 783.8 791.5 812.7 829.8 844.5 860.3 879.7 899.7 918.8 938.8 954.4 954.2 920.7 884.5 855.2 827.6 802 782.3 778 777.1 776.5 782.3 782.7 777.2 773.3 775.9 784.6 791 803.1 812.7 825.1 840.4 852.9 873.4 889.4 902.1 914 934.2 950.2 968.4 985.2 988.6 975.9 959.2 947.4 937.6 933 929.6 927.2 927.6 932.8 941.2 953.3 967.7
397 417.1 426.3 448.6 471.2 493 505 506.3 506.5 521.1 528.1 533.6 524.4 531.3 536.4 544.8 553 563.6 581.2 596.7 606.3 610.1 610.4 616.2 615.5 616.2 618.9 632.8 633 614.3 590.3 572.6 555.2 538.8 530.1 520.5 509.9 507.5 504.7 501.5 496.8 494.7 507.6 514.3 522.6 529 540.3 542.1 551.6 560.4 566.4 582.7 599.9 607.2 613.5 617.8 617.1 622 620.7 608.7 598.3 590.2 582.8 573.9 564.4 553.3 541.7 533.4 524 514.1 501.6 491.3 480 469.9 461.1 458.7 451.8 444.8 442.6 439 436.8 428.7 422.7 427.9 417.3 417 416.4 409.9 409.5 408.5 412.3 410.9 413.9 415.7 419.9 430.9 445.5 466.9 475.6 478.9 485.2 491.7 504.3 519.9 542.6 576 603.2 636 662.8 705.8 764.3 791.6 794.5 793.3 783.2 767.2 745.1 723.6 710.5 682.4 664.7 629.4 602.4 574 552.1 532.3 517 503.3 490 490.1 491.3 493.2 498.3 506.7 519.3 528.6 539 555.8 574.9 601.8 631.7 652.7 676.3 701.1 724.2 748.6 761.2 769.3 785.2 800.7 815.7 833.4 851.2 871.6 891.2 911.9 929.8 940.8 929.5 893.4 864.5 833.7 796.9 769.1 765.1 767.4 769.5 771.3 771.8 760.6 744.3 744.3 755 758.7 766.8 778.2 792 806.5 820.6 840.2 852.1 863.1 878.4 901.3 910.3 931.8 952.3 956.5 952.1 933 917.1 906 900.7 896.9 897.8 904.6 915.4 930.9 951.5 968.1
409.2 424.6 436.8 456.5 477.5 501.1 513.7 510.4 506.1 515.8 519.5 519.2 535.3 537.7 537.1 553 561.2 581.1 598.6 607.6 608.7 599.9 600.6 601 605.3 612.6 610.8 622.5 617.8 588.8 567.9 554.7 537 523.6 514.9 507.9 498.4 497.8 493.5 492.9 485.6 496.8 503.8 509.8 514.4 519.3 532.4 531.6 541.2 544.3 549.2 564.2 579.2 592.7 593.6 592.2 591.6 590.1 587.5 579.8 572 560.4 550.8 542.1 533.9 524.5 515.2 503.3 492.4 485 474.4 466 455.1 446.9 441.1 435.6 431.2 424.4 420.9 417.6 416.8 410.8 406.6 401.6 399.6 397.4 395.1 396.8 397.1 394.8 397.7 399.3 412.1 416.4 435.7 444.9 460.4 468.3 472.3 481.1 490.8 498.6 515.7 535.4 560.7 598.7 640.9 655.5 691.5 727.2 777.2 805.4 797.3 792.9 780.9 765.2 752.6 725.4 708.8 683.4 660.3 635.4 601.9 574.3 553.5 531.3 515.7 504.6 488.9 479.1 476.6 479.6 485.8 490.7 498.9 507.3 512.8 527.7 543.7 576.5 606 626.3 650.7 668.7 690.4 722.1 737.4 742.4 756.4 771.6 786.8 806.1 824.5 841.6 862 885.2 905.6 924.8 938.2 906.2 873.5 841.4 794.4 762.2 753.8 756.2 759.8 762.9 759.6 741.4 729.5 724.6 729.7 729.3 739.1 743.1 757.4 770.6 784.7 804.1 816.8 827.4 843.2 863.7 870.9 894.6 910.4 917.3 921.3 911.4 891.4 877.2 867.5 864 868.3 883.1 903.1 924.5 948.4 964
414.9 431 449.9 464.9 480.9 502.4 514.5 508.7 502.9 509.5 514.3 522.3 537.6 536.2 546.9 561.3 576.5 592.2 598.6 606.4 600.6 594.4 590.4 592.2 599.1 613.3 613 600.9 584.1 564.2 547.9 533.1 521.7 511.7 503.9 496.2 488.8 489 483.3 485.1 478.2 492 497.6 500.9 506.5 513.1 521.8 520.2 527.4 528.2 534.3 543.8 556.6 570.3 572.1 566.6 563.4 562.4 558.7 550.8 542.2 532.8 523 512.4 503.5 494.4 489.6 476.5 466.7 455.7 445.4 437.4 431.9 425.1 418.7 412.9 409.1 407.1 404.2 400 394.9 395.5 390.4 387.9 386.8 384.1 382.5 384 384 390 398.4 410.9 422.5 430.8 442.6 451.4 461.3 466.8 474 485.5 496.6 509.8 526.8 550.8 583.7 627.9 659.9 695 719.6 759.4 787.5 799.6 791.6 782.7 773.1 762.5 754.2 739.7 711.9 684.7 666.1 639.9 612 584 558.9 538.1 517.7 501.6 486.8 475 467.1 473.8 474.7 476.5 480.3 488.7 494.3 507.2 516.6 532.1 571.3 593.7 611.4 640.4 669.8 695 705.9 717.1 727.8 742.4 757.5 774.8 796 813.2 835.6 859.4 884 911.1 933.1 907.8 874.3 845.7 793.6 759.6 747.2 748.3 748.2 747.9 744.9 728.3 717.6 713.7 713.3 711.4 711.5 714.9 730.4 740.7 750.8 769.4 781.8 791.4 808.5 825 833.3 850.5 876.6 880.7 881.6 890.1 872.6 854.6 837.8 830.3 844.3 867.9 887.9 910.6 934.8 953.9
422 440.6 454.2 476 490.3 500.3 512 505.4 499.9 500.3 509.4 512.2 517.5 531.8 536.5 552.6 575.6 595.3 609.7 596.7 593 595.8 593.1 586.2 586.6 594.2 604.3 588.8 557.7 543.4 531.4 515.7 505 498.7 492 485.6 478.4 479.1 475.6 477.2 477.2 485 486.7 490.1 496.8 503.3 509 504.2 515 512.3 515.7 521.9 530.9 542.6 545.9 546 539.1 535.2 529.6 523.8 515.9 506.9 495.2 485.3 475.4 469 456.3 448.1 439.5 432.2 424.1 416.9 412.3 406.9 400.3 396.9 394.3 392.9 388.6 387.3 382.4 379.7 377.8 376.3 374.1 373.6 373.8 378.8 391.8 403 412 423.6 434.9 444.5 449.3 456.3 465.8 473.6 480.6 492.2 501.7 523.1 539.5 571.5 614.8 652.2 684.9 719.6 751.4 787.7 805 798.5 785 775.6 769.8 763.5 755.5 745.1 725.6 695.2 672.6 650.4 625.2 601.2 572.6 544.3 520.3 505 488 474.4 461.4 460.9 464.1 462.1 466.3 471.4 479 487.4 496.7 506.8 532 556.8 581.1 609.8 641.1 667.9 682.6 692.4 702.6 715 728.1 747.3 766.4 788.7 814.3 840.6 867.5 895.9 924.7 907.2 868.7 830 793.4 761 739.9 739.5 738.9 736.5 731.2 718.1 707.5 702.9 700.3 697.6 694 692.4 696.5 706.8 718.1 733.1 746.5 758.5 774.4 788.8 797.6 808.2 824.4 832.4 844.3 863.5 853.9 837.3 817.3 804.8 826.3 850.6 870.3 886.8 915.1 933.7
427.5 447.4 465.9 481.2 491.2 500.1 500.2 499.6 497.2 495.2 499.7 505.5 515.2 526.1 534.8 549.2 566.7 579.4 599.4 599.6 582.8 580.3 583.3 578.9 574.7 575.8 582.7 558.9 541.5 526.6 515.4 501.9 494.3 487.2 481 475.3 469.3 469.7 466.5 463 469.5 472.6 478.4 482.7 485.5 493.1 495.6 488.2 492.5 494.5 494.4 497.8 502.5 514.3 523.6 525.5 516.2 510.4 503.5 496.6 489.5 481.5 471.3 459.8 449.8 443.1 437.8 426.2 420.9 414.5 407.1 402.7 396.6 391.3 384.4 382.6 381.4 378.3 374.6 373.5 368.3 367 366.6 369.4 364.6 372.7 381.9 384.9 397.5 403.7 415.8 425.7 437.6 448.3 452.7 455.1 464.4 474.7 488.2 497.5 514.3 537 561 601.1 626.1 681.4 718.7 757.6 778.8 803.1 802.8 787.7 773 765.7 759.3 755.8 751.3 740.3 721.2 697.7 680 660 636.8 602.7 574.4 545.4 522.9 505.1 489.2 473.9 458.2 447 445 451.3 456.4 456.6 463.2 470.4 478.3 488.2 507.7 527.3 556.1 578.4 606.8 635.2 655.1 669.3 683.2 695.4 704 720.4 741.5 770.3 796.9 826.8 854 887.8 914.9 897.4 867.4 830.2 791.9 759.2 738 730.7 731.7 728.5 722 708 697.5 692.9 689.2 683.7 681.3 676.7 679.5 686.6 689.8 703.5 717.2 722.3 739.4 750.4 763.1 770.6 782.2 792 807.3 821.4 830.6 818.7 799.3 783.2 805.7 828.1 848.3 863.6 893.6 909.7
439.9 454.4 473.3 489.1 497.8 500.2 497 499.4 494.7 493.3 495 503.6 510.7 528.7 533.2 547.5 570.8 602 602.7 587.6 577.4 565.8 571.2 572.1 572.9 578.1 563 539 523.8 515 498.8 490.7 483.7 476.2 469.3 463.4 461.6 457.3 456.3 455.4 460.1 460.6 468.7 473.9 474.4 479.2 482.7 476.4 475.2 481.1 473.8 478.8 478.8 484.8 494.3 497.9 496.1 488.9 481.3 472.4 463.9 456.3 447.8 440.2 433.5 425.5 414.8 409.9 403.9 397 394.1 385.6 380.7 375.5 372.2 368.3 367.4 363 364.1 359 356.6 356.9 357.1 361.7 367.2 382.1 386.6 391.7 396 406.7 415.9 429.2 438.2 445.9 457.3 458.3 472 481.1 489.3 500.4 520 548.3 582 614 656.2 687.5 711.4 750.7 778.4 787.6 783.9 773.6 761.2 750.6 741.8 742.2 735.3 726.8 712.1 688.5 671.8 656.1 635.2 606.1 574.2 546 524.5 508.3 492.3 472.8 458.3 441.9 436 441.3 440.8 444.7 450.4 455 462.5 472.3 488.8 505.7 526.2 551 580.2 605.9 632.7 650.3 663.2 680.2 688.6 706.5 726.1 754.5 780.9 812.2 840.1 870.6 899.1 887.6 858.8 832 787.3 757.5 737.1 727.3 725 712.8 713.9 704.5 690.4 682.9 678.9 669.7 664.9 654.5 655.5 654.9 662.4 671.6 681.3 685.1 700.6 706.6 723.3 734.6 745.5 753.7 764.3 781.4 793.5 793.4 781.4 759.1 783.4 808.8 824.6 841.9 868.9 880.8
442.8 455.3 473.4 492.9 498.3 500.6 496.8 500 494.3 493.5 495.5 501.7 509.5 517.8 532.8 556.7 591.4 602.8 602.4 587.8 570.4 561.4 559.4 559.8 570.6 570.2 548.3 524.9 511.8 500.8 488.5 476.3 471.1 463.8 456.8 451.1 449.2 445.7 447.9 448.5 448.7 452.5 460.8 463.4 465.8 466 468.8 458.2 463.7 462.7 456.9 458.1 455.4 457.8 461.6 468.7 474.2 468.8 459.8 448.4 436.3 435.8 429 421.9 408.6 407.5 399.9 392.7 390 381.6 378.2 371.6 365.3 361.5 359.7 357.9 355.5 351.9 349.9 348 349.2 354 364.3 372.2 371.5 378 384.8 387.3 393.9 403.8 426.2 433.9 439.8 452.6 456 459.5 468.8 477.8 491 512.1 538.5 561 607.2 647 685.4 730.9 757.5 781.6 791 792.3 781.3 768.2 751.2 734.5 723.6 720.3 714.4 706.6 692 676.2 661.6 646.4 626.9 600.2 575 546.5 527 509.4 490.9 473.2 456.1 439.5 426 432.5 433.4 436.7 437.7 442.9 449.6 461.1 474.2 486.1 503.6 524.2 549.7 576.3 603 630.2 643.4 660 673.7 692.6 708.2 737.2 766.8 796.2 827.6 857.7 887.1 879.8 847.4 817.8 782.4 753.9 740.7 729.3 722.7 717.6 708.9 696.9 681.9 668.9 661.3 656.2 649.4 640.2 633.7 633.2 636 642.1 651.6 654.5 655.8 676.8 681.9 696.4 706.1 714.5 724.6 745.6 753.9 760.2 756.2 734.1 762.3 785.8 802.6 819.2 844.1 852.9
444.8 457.3 467.1 484.8 494.6 495.9 502.2 498.5 493.9 493.7 496.3 502.8 512.9 525.3 537.3 550.4 578.8 596.7 596.8 579.5 575.4 558.5 549.9 548.5 542.4 544.1 527 512.9 496.1 487.2 476 465.3 456.9 453 446.8 441.2 440.5 435.8 436.8 440 436.5 442.2 448.4 450.9 454.3 452.6 454.2 450.7 448.4 447.6 439.4 437.7 439.6 440.2 437 441.4 449.1 449.7 437.2 428.4 413 409.9 408.9 407.1 395.7 390.7 384.2 378 371.5 368 362.2 360.2 354.7 349.8 349.9 349 346.4 341.2 340.5 349.8 352 355.9 361.9 366.3 367.7 372.8 381.9 390.7 393.6 405 416 420.6 431.3 447 457.3 460.8 473.5 480 498.4 519.5 546.9 580.3 615.5 661.5 703.6 740.4 773.1 794.1 797.8 790.3 780.6 762.4 741.9 727 711.9 701.9 695.4 688.2 677.7 667.1 653.5 636.9 621.2 602.4 575.6 550.5 527.4 508 491.3 474.7 455.8 437.2 422.4 415.6 421.9 422.1 428.3 434.5 439.2 448.7 459.5 471.1 484.8 500.6 526.8 551 575.9 607 625.7 643.7 662.9 680.2 696.6 722 752.7 783.8 815.7 845.3 875.7 880.3 846.5 816.4 783.6 760.5 742.3 723.1 719.2 713.5 701.6 690.7 677.1 665 645.8 643.6 639.4 628.5 617.5 609.3 611.6 617.9 624.6 621.8 625.6 641 647.5 659.4 671.8 677.1 688.7 711.7 712.2 726.2 724.3 708.3 736.5 759.7 778.5 794.1 813.2 821.7
451.4 456.3 463 469.9 485.2 498.1 503.2 498.4 493.4 495.4 499.4 525.9 535 542.3 553.1 576 575.3 574.8 584.4 569.6 566.6 555.3 552.5 547.7 532.2 521.3 508.7 495 486.3 471.2 460.7 455.1 448.5 442.3 438 434.6 427.8 425.5 427.8 429.6 426.9 431.3 435.7 438.7 442.2 442 443.3 435.2 436.4 436.7 425 424.1 424.2 424.5 418.7 418.7 421.7 424.2 418.1 409.7 397.5 393 389.3 385.4 380.3 377.5 368.3 363.9 361.8 356.2 353 349.8 344.8 342.5 343.6 340.2 337.6 334.8 346.4 350.8 350.4 356 357.8 361.9 366 374.2 381.3 392.9 397.9 403 407.1 416.9 433.7 443 455 460.8 473 484.1 504.4 533 573.3 623.7 662.4 695.5 740.1 773.7 794.9 801.6 796.5 784 770.4 752 733 717.7 702.4 691.1 685.3 675.2 668 655.8 642.4 629.2 613.3 596.1 574.7 551.4 532.7 509.1 491.4 469.9 451.3 435.1 422.1 411.8 408 408.9 419.6 422.5 428.3 435 446.5 457 469.5 485.2 505.1 527.2 552.8 580.1 607 633.7 654.3 668.7 690.6 714.4 740.1 770.2 805 835 864.8 874.1 843.7 808.4 779.4 752.4 725.7 714.2 709 706.3 696.1 684 670 657.9 643.3 630.7 628.5 619.4 605.4 594.1 589.8 588 589.6 592.3 594.4 611.3 618.2 627.9 637.4 642 652.2 665.6 676.2 689.4 691.2 681.7 705.7 727.6 747 761.4 779.3 788.5
446.5 454.2 462.3 468.2 482 490.4 497.7 498.9 492.7 494.2 501.1 531.9 549.6 563 575.8 573.2 578.2 571.5 567.2 557.7 553.8 555.4 562.5 553.4 526.9 507.2 492.1 482.8 469.2 458.5 449.4 445 437.1 434.6 429.8 425.8 419.1 415.6 415.5 420 419.8 420.8 424.6 425.2 429.1 431.9 429.2 417.2 422.9 422.9 412.6 411.4 411 408.5 402.6 398.6 404 400.9 400.1 388.6 383.1 383.5 371 372.4 364.8 362.4 355.6 349.4 347.1 345 345 340.5 337.5 337.8 336.9 336.7 330.8 339.2 339.2 341.3 345.9 355.1 351.4 362.5 375.3 377.1 377.7 385.7 390.4 399.1 409.8 422.5 432.3 444.8 448.2 456.9 469.9 487.6 515.2 548.5 599.6 642.9 683 721.4 763.5 803.7 816.3 813.2 796.4 778 762.3 739.2 718.1 704 694 682.6 671.8 663.7 655.2 642.3 630.4 620 607.5 593.4 572 554.3 533.9 510 489.4 473.1 452.4 435.5 424.8 409.1 400 397.7 407.5 411.7 419.7 423.5 432.3 442.9 456.6 468.8 490.6 509.1 535.5 560.7 593.1 619.9 641.7 659.3 677.9 704 725.4 756.7 793.1 823.1 857.2 855.4 825.5 796.7 768.7 735.2 710.1 695.7 692.5 689.7 681.2 672.3 661.4 652.2 643.2 632.4 620.5 609.4 596.7 585 574.8 566.7 564.6 563.2 568 579.2 586.2 594.6 607.3 609.7 617.9 629 636 650.2 659.1 651 675.7 692.4 710.7 726.5 746.1 758.5
446.3 455.1 461.2 466.8 478.7 484 491.7 493.8 503.1 497.9 498.6 510.2 548.6 582.7 582 579.3 573.1 567.2 558.9 549.2 544 546.2 551.1 541.3 515 497.8 485.5 472.2 458.1 446.8 439.9 429.6 426.1 427.5 420.8 417.1 409.6 406 408.2 408.4 408.7 412.3 412.5 417.4 417.9 421.5 414.8 408 414.6 409.4 401.5 399.5 394 393.3 387.2 388.2 386.8 383.5 385 374.2 369 370 360.5 357.5 353.8 350.5 346.1 342.6 341.5 336 335.8 333.8 333.4 331.6 329.1 328.3 328.9 331.4 334 336.2 340.8 345.8 349.6 358.1 374.4 374.1 377.3 383.7 396.7 406.5 418.9 426.6 435.1 442.3 454.2 463.4 481 500.2 532.5 574.7 614.1 648.8 689.1 725.7 766.8 797.9 811.3 806.9 795.1 772.7 750.8 724.6 708.4 699.1 690.3 677.7 665.4 653.7 643 634.7 622 612.9 601.2 585.1 569.1 553.7 529.2 509.7 489.4 473.8 454.6 436.4 424.2 407.3 394.7 389.2 397.8 403.2 410.2 414.8 424.4 433.1 443.9 456.4 475.4 491.8 520.1 547.4 577.4 605 629.4 647.4 670.5 691.6 717.3 746 782.9 815.4 855.9 842.7 808.4 779.3 751.3 722.1 697.2 690.3 688.6 681.2 676.7 667.9 660.1 651.6 642.5 633.2 622.3 609.6 594.3 572.6 559.2 553.7 549.2 548.1 554.7 559.1 565.8 572 585.2 581.8 586.6 594.3 604.8 614.2 623.5 625.9 643.5 660.8 677.2 695.8 712 728.7
445.5 453.8 463.3 466.2 474.6 475.6 493.5 504.7 500.8 499.8 502.1 512.6 542 576.9 587.7 590.4 573.8 562.1 549.1 541.8 532.1 526.6 529.5 520.7 502.1 484.8 474.7 461.4 447.8 439.5 428.7 422.9 419.3 416.8 409.5 406.6 399.8 398.8 402 399.9 400.1 401.4 401.1 404.8 411.4 410.3 400.5 396.8 401.6 394 385.5 387 383.7 378 375.9 378.2 374.1 369.5 363.3 361.3 355.6 356.6 350.4 343.1 343.7 341.4 336.3 334.8 334.8 330.7 329.1 331.4 326.9 324.6 321.4 324.7 328.3 333.1 336.2 340.7 345.1 349.7 357 360.3 364.2 370.9 381.2 388 401.2 412.8 423.4 434.4 443.2 447 455 471.6 486.8 509.1 537.5 578.2 614 651.2 690 722.4 758.7 789.8 802.1 797.8 785.8 762.6 741.2 721.1 705 695.8 683.2 671.7 660 649.7 640.4 630.3 620 606.6 597.7 583.9 566.9 549.8 526.6 503.8 482.7 471.2 454.6 435.6 419.1 406.5 393.8 381.2 385.5 393.1 397.5 405 415.8 426.3 435.2 443.6 464.6 483.4 506.1 535.7 564.9 592.8 621.2 639.6 661.9 683.6 705.7 736.1 773 813 851.4 828 797.4 768.1 737.2 711.6 696.3 690.5 688.6 679.4 672.3 663.3 659.6 651.5 641.3 632.5 620.2 607.7 594.8 580.2 565.1 548.3 537.2 530.5 532.7 536.6 543.8 551.7 559.6 557.3 561.1 568.9 577 580.9 597.3 597 612.7 628.4 645 659.3 680.4 697.8
447.3 453 462.9 465.4 468.3 489.6 506.3 496 494.6 505.5 513.7 529.6 553 579.4 591.2 587.5 578.9 564.3 552 537.9 529.4 523.4 514.5 500.8 488.3 476.9 463.4 451.3 437.1 430.4 420.6 416.6 408.9 402.9 399 393.4 391.4 391.4 394.2 391.5 391.4 392.7 390.6 394.1 396.4 399.4 386.1 387.3 386.5 376.9 376.9 374.1 371.3 365.9 366.2 362.2 359.4 357.4 353 347.7 346.6 346 340.9 336.3 338.7 334.5 330.4 327.2 324.8 326.9 327.4 324.1 320.2 319.6 322.2 324.7 327.5 331.4 337 342.9 345.6 355.3 361.8 369.4 375.4 378 380.9 388.6 399.2 412.6 423.1 431.8 443 452 461.9 475.6 488 508.1 541.5 573.6 610.7 644.8 682.4 708.3 746 769.4 785.5 787.7 779.7 761.4 742.6 726.8 710.6 692.9 681.5 670.8 660.3 649.6 638.5 625.4 616.2 606.3 595.1 578.7 559.7 545.4 530.4 513.9 491.8 471.4 453.4 437.1 418.8 403.6 391.5 379.4 375.5 381.3 386.9 399.7 405.2 413.1 424.5 440.5 453.3 474.4 496.2 524.3 550.8 579.9 610.5 631.1 652.2 673.7 695.6 728.5 773.3 806.7 843 815.1 782.7 754 731.1 716.8 706.3 695.6 682.4 674.6 672 663.9 656.7 645.4 635.2 628.7 620.4 608.7 595.1 583.2 569.5 553 536.7 518.9 513.9 516 518.9 527.7 532 532.6 535.5 542.5 548.5 554.6 563.4 569.1 583.9 599.9 613.5 631.6 648.5 666.6
448.1 452.2 457 458.6 472.2 485.2 491.7 488.4 501.7 514.6 535.1 544.7 564.1 569.3 581 583.5 578.1 573.6 559.2 542.6 528.4 518.9 511 498.7 480.3 465.8 453.1 438 427.5 418 414.5 410.4 402.7 393.1 388.1 382.7 382.3 380.9 382.5 383.1 385.5 380.4 381.4 385.1 386.4 387.1 376.2 375.7 368.1 363.8 363.7 360.6 360.3 358 357 352.4 352.7 347.5 343.9 341.3 337.6 334.7 328.7 333.2 329.5 325.7 325.7 324 322.3 321.4 320.6 318.6 317 318.8 320.5 324.1 327.6 331 338.5 344.8 350.4 360.1 368.5 372.7 379 385 392.5 397.3 399.2 406.9 424 438.8 445.6 452 461.2 474 487.8 512.5 541.5 570.3 605.6 637.5 668.7 696.8 732.2 759.7 784.4 795.1 790 777.6 759 735.9 717 697.1 680.5 669.7 660.8 650.5 638.5 626.1 613.9 603.1 593.4 575.3 559.7 548.9 534.1 511.2 491.4 471 450.4 433 415.5 404.7 394 381.3 368.2 375.7 380.1 391.7 395.7 404.5 416.3 432.1 448.2 465.1 488 512.1 540.9 572.8 599.5 623.6 646.4 665.4 688.1 721.6 765.1 800.9 834.6 803.5 769.8 745.9 729.9 718.8 706.7 692.5 680.3 668.8 664.8 657.7 651.9 644.5 631.4 623.5 614.8 605.9 594.9 582.9 571.5 558.8 544.7 526 512.9 497.3 497.2 498.6 506.3 509.3 513.1 518.6 524.4 528.6 537.9 543.1 552.8 568.9 578.8 597 617.8 637.8
448.4 448.7 452.6 462.1 472.8 482 486.1 492.5 505.3 522.6 544.4 561.1 570 567.4 568.9 575 580.1 582 558.6 537.9 521.5 513.8 507.3 492.8 472.6 459.7 443.7 431.1 419.2 410.3 403.4 398 393 385.3 381.3 375.3 372.4 369.8 375.1 375.6 378.5 374.4 374 373.5 377.3 373 368.5 369.8 359.6 355.6 355 352 350.2 344.1 343 344.3 341.3 342.6 336.4 336.1 330.2 327.9 323.9 324.9 322.6 321.4 321.3 319 318.8 317.3 316.3 314.9 317.3 319.8 324.1 327.3 329.3 334.2 339.7 345.9 353.5 363.4 372.8 378.6 387.1 395.1 404.9 412.4 420.2 424.7 419.4 428 450 458.9 465.5 474.5 488.1 507.7 532.9 565.7 595.4 628 658.9 686.4 721.7 747 776.6 797.8 796.8 800.4 781.6 751.4 725.5 703.3 684.2 674.3 663.9 653.6 644.9 631.8 617.7 603.6 589.8 580.2 565.8 552.3 536.1 515.4 495.3 475.4 452.5 435.7 419 404.3 391.3 377.3 368.8 368.1 373.5 382 385.4 395.4 410.6 425.5 441.2 460 478.5 501.6 529 560.3 590.9 618.6 641.5 660.3 683.9 716.3 753.4 790.3 822.1 797.7 765.9 746.1 732.1 719.7 705.5 693.7 667.6 650.5 647.5 645.7 645.4 639.3 626.6 616.3 609.7 604 594.3 582.1 562.9 553.5 540.5 537 521 504.7 482.8 482.9 482.5 487.3 493.8 495.5 503.2 506.9 511 514.7 526.7 539.8 551 570.5 583.8 609
443.9 449.5 462.9 473.5 485.4 492.8 494.3 503.9 524.8 549.3 563.2 574 577.4 568 570.4 577.9 574.6 567.6 546.6 530.6 519.4 502.8 494.1 480.7 468.1 452.2 438.2 420.4 411.7 402.8 393.4 390.1 385.8 378.5 373.1 368.6 366.1 363.2 364 365.2 366.7 366.8 365 365.2 363.9 364.7 361.9 358.9 356 349.4 345.2 342.6 340.9 336 334.8 336.3 329.7 335.1 330.9 328.4 324.1 319.6 316.3 316.6 316 315.7 315.4 314.8 314.7 313.6 313.4 313.6 316.2 323.2 324.6 327.7 332.9 338.7 344.5 351.5 360.6 370.9 380.4 389.4 398.4 405.1 416.8 426.1 432.2 436.5 442.5 444.2 455.8 460.4 470.9 477.6 489.8 505.2 528.2 559.2 594.1 617.7 648.8 674 707.7 735.1 764.2 789.9 801.7 812.6 802.3 765.6 738.4 717.5 693.9 681.2 666.2 657.9 646.7 637 622.8 609 593.8 577.5 560.8 549.3 531.8 513.1 494.6 476 459.2 439.9 424.3 405.3 389.5 377.3 369.1 358.3 363.8 377 378 390.8 400.4 419.1 432.8 451.7 470.3 495.4 523 550 579.8 610.6 635.5 656.5 679.8 712.3 749.5 784.9 817.7 815.3 788.8 773.3 758.6 738 722.7 701.9 676.4 653.1 637.3 633.8 636.2 632.6 623.6 611.2 608.3 604 593.3 582.2 572.2 561.2 552 542.1 524.9 511.1 493.9 476.7 464.6 468 473.9 479.8 482.3 486.9 489.3 493.1 502.6 510.5 520.4 536.5 556.5 576.6
450.8 456.3 474.8 479.2 490.7 507 517.2 532.6 535.3 549.3 572.7 580.5 582.2 576.5 576.2 576.5 570.8 555.2 538.3 526.8 515.7 499.4 484.9 474.6 459 443.4 427.3 415.6 405.4 395.8 388.4 379.8 375.8 370.4 364.8 361.2 359.8 355.7 354.5 354.3 359.6 357.1 358.7 357.4 355.3 354.6 350.8 350.8 348.6 341.1 338.7 336.2 333.8 329.8 325.6 325.2 326.9 328.2 323.9 320.3 315.7 315.8 315 311.3 310.8 310.5 313.1 310.5 311.8 311.7 311.4 314 318.3 320.8 326.9 330.2 336.4 344.3 351.9 364.4 375.8 387.6 395.6 407.4 419.1 430.4 439.9 445.7 450.3 455.3 459.1 452.9 466.7 472.7 478.9 484.9 493.8 506.2 529.1 552.9 580.7 611.3 632.7 663.1 693 722.8 750.3 784.3 802.9 826.7 822.9 787.5 754.7 725.2 702.7 686.3 670.3 660.2 653.4 638.8 623.7 608.7 593.8 580.9 566.4 548.2 530.2 515 495.8 479.3 460.8 440.4 419.2 407.1 392.5 380.6 369.8 359.8 359.4 363.8 368.7 381.1 398.3 410.3 426.5 443.3 464.6 488.5 514.2 543.6 572.3 604.7 629.7 648.8 673 708.4 742.8 782.2 817 850.2 827.1 803.8 780.3 755.8 743.8 726.4 698.9 667.2 637.7 632.8 628.6 629 616.3 608.1 604.8 600.6 590.3 575.5 566.1 564 553.2 542.5 534.1 523 506.5 489 469.2 453.8 456.1 459.3 463.2 470.3 471.6 472.9 477.5 485.3 500.2 508.7 526.4 545.4
452.4 461.1 470.3 482.2 509.6 518 525.2 542.6 556.8 569.3 570.6 575.2 571.4 577.4 577.9 564.5 559.1 548.7 538.8 524.3 507.7 489.2 476.1 470.5 451 434.1 424 409.7 399.6 390.8 380.8 371.6 366.2 360.3 356.3 352.1 351.3 351.6 344.1 342 348.1 347 352.8 349.2 349.7 349.1 345.1 342.7 338.6 332.2 329.2 327 326.7 321 319.9 317.6 321.8 317 317.4 314.5 311.8 311.3 307.9 308.7 308.7 309.2 308.7 307 308.1 309.7 313.8 317.8 318.8 323.6 328.8 336.5 344.9 356.2 368.2 381.8 392 404.2 414.8 431.8 451.1 460.7 468.4 480.3 479.9 474.8 472.9 471.9 467 480.4 483.5 490.9 493.2 508.6 527.3 546.8 573 598.6 624.3 649.7 680.1 707.7 737.5 769 805.4 831 838.2 817.1 774.6 747.2 720.7 699.3 685.7 666.9 651.6 636.6 620 608.8 597.8 585.6 568.9 551.4 533.2 516.2 499.1 481.5 463.6 448.3 427.3 409.4 393.2 378.8 368.7 360.7 353 356.3 363 375.1 390.1 406 421 439.2 457.4 480.3 509.3 537.4 566.3 597.5 621.1 641.8 666.7 703.9 740.1 774.6 810.4 845.6 866.2 829.7 804.7 784.6 765.1 737 715.7 685.5 657.9 648.4 641.1 631 619.2 606.8 597.2 595.2 587.8 574.4 569.8 559.5 551 546.1 538.6 527.8 516.2 500.3 483.1 464.3 444.1 439.2 445.9 449.4 448.8 454.2 456.7 465.3 475.2 484.1 499.2 515.4
452.3 456.6 473.7 489.2 515.5 523.7 545 549.4 565.7 572.5 567.5 570.3 572.7 575.8 573.2 554.5 544.8 541.2 535 514.8 496.9 484.1 475.6 464.1 447.1 429.4 420 405.2 395.1 383.4 373.7 368.5 357.3 353.2 349.7 345.8 344.6 345.7 340.6 336 338.1 338.1 339.5 340.6 340.8 339.1 338.9 328.9 330.5 323.6 322.7 318.7 319.8 317.8 313.4 312.4 313.8 310.8 311.3 308.6 309 309.9 306.7 306.3 306 304.3 304.8 307 309 313.1 314.8 318.7 320.9 328.3 335.6 347.8 359.1 375.2 385.9 396.1 408.3 422.7 442.9 472 486.7 501.5 535.4 516.9 500.7 493.8 489.5 485.7 484.8 485.3 491.8 494.5 497.5 536.8 548.7 564.8 581.5 602.6 626.7 650.1 672.1 697.1 728.8 761.6 797 842.2 848 839 794.9 763.4 737.4 719.5 697.1 669.1 652.4 633.5 617.1 606.4 598.3 586.9 573.7 554.4 536.7 520 503.7 485.6 466.8 447.9 430.6 413.1 395.7 380.5 369.2 360.5 350.5 349.1 357.6 369.3 383.9 396.9 415.7 431.4 450.8 473.9 499 528.4 559.7 589.3 612.9 635.1 663.4 699.7 736.2 768.5 803.9 839.3 868.3 869.7 846 821.9 789.7 761.3 734.3 716 694.4 681.4 661.6 640.7 630.7 606.3 596.2 595 586.6 573.2 559.7 550.6 552 547.2 540.9 528.4 519.2 507.7 493 474 452.3 433.8 426.7 434.9 430.5 436.2 440.1 445.8 454.6 460.6 473.3 486.1
453.8 467.6 481.2 492.3 518.6 532.1 556.2 561 566.6 566.2 569.7 570.9 563.3 559.7 554.9 542.9 534.6 531.1 525.5 505.6 497.5 483.8 470.2 455.1 441.4 429.1 413.1 402.9 390.9 380.2 369.9 361.2 351.1 345.7 342.7 340.6 336.1 335.1 335.3 325.3 330.2 329.7 327.8 329.3 328 327.1 326.1 318.5 318.5 313.9 312.3 313 311.5 309.5 306.9 305.6 306.8 304.8 308.1 306.6 305.2 305.5 306.3 307.3 303.4 303.4 304.5 306.9 309 312.9 316.4 320 327.7 336.8 348.9 360.9 375.4 390.8 400.6 412.4 434.2 448.1 484.2 521.5 556.6 567.1 563.9 546.5 530.5 516.3 506.7 500.6 497.4 498.9 499.9 502.4 516.7 553.6 576.2 580.5 592.2 612.7 630.6 653.5 674.7 697.9 735.3 765 797.5 833.1 854 836.3 810.4 774.9 738.8 712.4 687.8 671.8 654.6 634.8 619.9 606.9 595.8 588.1 575.3 560 543.4 527.4 509.4 492.9 473.5 455.2 436.6 412.8 396.8 382 369.3 358.5 348.8 344.3 352 362.1 375.9 390.7 409.7 426.8 442.6 466.8 491.1 518.1 550.8 579.7 605.8 629 658.9 692.6 730 762.5 796.6 833 870.1 892.5 880.8 855.2 815.6 782.5 758.8 739.6 722.5 704.8 686.9 666.2 649.5 613.3 596.8 586.4 582.2 573.4 559 545.7 546.4 547.8 538.8 531.9 520.5 510.9 498.8 480.3 458.1 439.2 421.2 414.1 415.6 421.9 428.1 429.4 435.7 440.6 450.2 464.1
461.2 475.3 489.5 502.9 513.5 527 556.9 567.6 566.2 575.8 579 572.3 560.5 551.9 538.6 536.9 532 522.8 511.5 505.5 493.6 481.4 461.9 447.4 435.4 420.2 410 396.8 385.3 374 362.8 356.3 347.4 338.5 334.2 333.3 328.6 327.6 328.6 321.2 320.7 322.1 318.1 319.2 315.6 319.2 315.9 310.6 310.9 307.9 304.4 305.4 304.6 301.6 298.8 297.9 302.4 302.6 306.1 303.9 302.9 304.4 305.2 300.4 301.9 304.2 308.4 311.5 311.2 315.7 319.8 329.6 341.8 351.5 366.3 376.7 392.7 406.1 420 436.9 460.3 491.2 540.9 580.8 596.4 602.8 594.1 580.9 570 545.9 528.9 515.4 510.5 512.9 513.8 542.8 571.5 587.4 608.1 605.2 612.3 626.9 640.5 661.3 677.4 700.2 736.1 764.4 804.7 846.7 854.4 826.3 800.8 769.2 731.1 701.6 681.3 668 653.4 644.2 624 611.4 598.6 585.2 573.8 561.9 548.9 532.1 517.5 498.8 479.8 460.3 438.9 421.9 400.1 383.8 368.7 356.5 346.6 340.6 348.3 357.2 370.1 383 403.6 419.6 440.2 458 483.1 509.9 544.1 570.1 596.5 619 650.3 686.9 721.1 756.3 793.4 829.9 867.2 893.9 865.5 871.8 865.6 826.7 780.8 759.5 735.6 717.4 700.6 678.6 663.2 635.7 609.9 591.3 575 567.9 561.9 546.8 544.3 544.8 538.4 531.1 518.8 507.6 498.1 482.8 462.1 440.5 422 404.4 403.4 408 411.1 415.1 419.4 423.3 430.5 443.8
465 488.9 507.7 510.7 517.7 532.4 561.2 568.3 567.5 563.9 569.7 565.6 553.1 541.3 538.7 532.5 526.2 513.8 507.7 499.5 487.9 478.1 455.4 441 426.1 417 402.9 390.3 379.3 366.8 355.7 350.4 341 333 327.1 326 323.8 320.3 319.9 315.1 310 314.8 312.3 309.7 308.2 305.6 306.1 302.2 300.7 300 298.1 300.3 300.3 296.1 297.2 293.4 295.5 302.9 297.6 302.6 303.9 306.2 299.1 300.3 303.6 307.5 312.9 313.8 314.8 319.4 328.3 340.2 352.3 365.1 384.9 399.2 405.7 422.9 443.5 470 499.6 541.1 598.1 623.2 639.8 637.1 627.2 616.9 599.8 581.8 559.9 544.5 537.6 537.6 560.3 578.7 593.7 617.8 627.1 617.3 625.8 636.2 647.5 667.2 685.5 705.7 739.9 762.4 802.6 835.9 840.9 825 788.5 757.6 722.6 695.7 679.3 664.7 653.7 642.9 627.3 613.4 597.8 586.1 575.8 561.7 548.1 533.3 516.7 499.4 480.7 464 443.9 427.6 406.9 387.6 369.3 357.4 347.4 337.6 344.3 348.4 362 376.9 396.1 413.1 431.3 451.4 474.6 502.4 533.5 561.8 588.1 612.7 643.3 680.7 715.3 753.6 788 823.5 857.3 878.5 846 834.1 847.2 851.1 811.4 776.3 753.9 739.2 712.5 695.1 673.2 655.5 631.1 606.1 579.8 570.1 558.9 547.5 543.3 542.1 536.8 530.3 516.2 506 494.4 483.6 465.7 437.7 419.2 404.9 391 394.2 397.7 402.4 406.2 411 417.3 423.5
471.9 502.8 504.5 520.7 523.6 533 565.8 571 564.3 557.7 554 553.9 546.4 543.9 539.9 524.3 516.1 506.7 500.7 491.4 478 467.1 444.5 440.7 428.1 409.9 395.5 384.9 371 358.5 353.9 344 336.6 330.4 325.8 318 313.8 313 313.9 311 305 306.9 306.1 305.1 301 297.5 295.8 296.8 291 293.9 293.7 293.4 291.9 287.9 286.4 288.2 290.2 290 292.6 294.7 302.4 297.3 297.2 300.4 303.7 311.2 314.1 316.6 321.1 327.4 338.1 349.8 366.9 383.1 395.6 406.9 423.7 442.6 469.6 499 554.7 597.9 632.3 667 674.6 671.6 665.8 649.9 636.9 620.5 607.2 599.6 588.9 575.7 596 595.6 599.9 619.5 634.2 623.8 632.7 640.7 653.3 666.3 682.8 710 741.5 767.2 808.9 815.6 818.8 812.2 775.2 744.6 707.6 684.6 674.3 659.9 649.2 636.7 622.3 609 596 587.8 576.5 562.2 550.8 537.2 524.1 510.1 490.8 469.4 451.1 430.3 411.3 390.3 372.6 356.3 346 334 341.4 345.2 354.4 371.4 390.5 404.7 424 443.7 467.3 495.1 522.4 551.9 578.6 603 641 674.1 710.1 745.3 777.2 811 842 858.1 823.6 814.5 807.3 825.9 825.9 813.1 785.2 771.5 744.4 727.6 706.7 679.2 648.4 618.4 592.5 580.3 568.9 554.2 547.9 541.5 533.2 522.1 512.7 502.2 495.2 481.5 460.7 432.6 416.1 399.5 391.1 380.6 384.7 389.8 392.8 397.6 402.1 408.4
475.6 494.3 500 524.1 527.2 534.1 547.1 556.5 557.4 556.8 555.5 545.1 544.9 537.7 527.9 522.6 509.5 498.1 492.1 480.3 469.6 454.9 440.9 434.5 420.9 405.7 391.3 382.3 365.5 355.2 348.2 339.2 332.6 322.4 322.3 315.2 306 306.3 306 304.4 296.1 303.2 299 299.3 294.7 292.6 290.7 285.6 284.4 285.8 284.3 285.2 284 284.3 285.9 286.8 288.4 292.9 300 293.3 295 296.5 298 302.6 308.9 313.9 317.1 321 329.5 338.1 350.8 367.1 377.3 391.8 405.9 415.6 436.3 465.3 496.2 527.2 598.5 632.8 674.8 694.3 713.1 722.1 707.4 691.9 676.9 679.1 671.4 668.9 663.1 642.7 617.8 633 628.4 633.1 629.6 632.6 633.1 641.9 654.1 668.1 689.1 719 742.5 776.5 790 797.1 800.8 792.3 766.3 728.3 697.6 678.6 665.4 651.2 643.6 632.6 620 608.2 598.2 588.6 577.1 564.3 554.3 542.2 530.5 517.3 496.6 472.3 450.9 430.8 411.3 392.9 372.9 358.7 345.2 331.6 335.2 340.3 347 363.4 381.3 399.6 416.1 436.1 460.2 484.1 513.1 540.5 570.5 596.2 629.8 666.5 702 736 767.4 795.1 822.8 834.6 802.4 792.6 782.2 773.2 787.8 782.2 795.3 794 783.3 766.9 740.2 704.6 669.5 642.7 619.9 596.6 577.6 563.6 554.3 545.6 535.6 524.9 507.4 496.7 491.9 481.2 454.4 432.2 411.8 394.6 382.9 375.3 374.2 378.9 381.1 386 388.7 392.2
473.2 492.5 509.8 523.7 528.9 532.8 543.1 547.8 558.3 559.7 551.3 540.2 536.6 534.4 522.1 505.1 499.7 495.9 485 473.8 459.9 449.6 435.5 427.2 414.9 399.8 387.8 373.9 361.7 352.3 340.4 332.1 323.1 318.5 313 307 302.6 300.3 300.8 297.4 292.5 296.5 293 293.9 290.6 286.2 281.8 280.4 280.7 281.4 281.7 281.7 283 284.9 287.9 289.2 291.1 293.1 296.1 303.7 298.7 300.1 300.9 308.3 309.6 319.4 320.7 328 336.7 349.8 363.6 379.7 390.5 405.6 414.1 427.2 453.6 489.4 518.4 564.9 613 670.9 699.9 721.1 742.7 742.6 749.2 738.2 729.4 727.5 716.5 702.4 688.5 675 668.2 661.1 657.3 641.3 636.6 635.6 639 645.4 665.6 683.2 702.4 734.4 758.7 774.1 775.2 785.4 790.2 780.3 760.5 721.5 691.4 672.7 657.1 644.7 638.8 628.1 620.2 608.5 597.5 586.2 577.7 564.9 554.2 546.3 536.1 521.6 505 480.3 454 433.9 416.4 395.1 374.3 357.9 348 341.3 328.7 336.4 341.2 357 373.4 389.7 406 426.9 450.9 475.3 503 530.7 561 588.4 619 652.5 688.5 722.6 750.1 777 808.4 807.3 781.6 773.7 762.2 749.9 741.4 742.2 741.3 762.7 757.4 747.3 729.5 717 697.8 670.9 648.7 622.7 598.5 576.4 557.8 547.4 535.1 521.8 505.7 497.4 487.6 478.4 450.4 429.6 409.6 392 378.4 369.1 364.6 366.9 368.1 373.3 373.7 378.5
479.3 497.1 508.7 520.5 521.2 532.2 542.2 548.2 554.3 553.8 543.7 532.3 527.6 515 505.8 501.2 492.3 489.6 471.7 465.9 449.6 446.4 433.9 423.9 405.9 396.1 381.8 369.3 356.8 346.9 340.3 326.6 319.8 315.6 309.1 301.8 299.1 297.2 293.7 294.1 289.3 288 287.2 283.9 284.5 281.6 277.8 278.9 279.3 280.5 284.3 287.5 287.3 288.3 287.4 289.8 291.2 292.3 294.8 299.6 304.3 308.4 305.7 313.9 320.9 321.8 326.6 337.1 349.8 359.5 371 383.9 398.5 411.8 428.5 444.4 474.6 507.5 545.6 604.3 642.2 692.3 728.2 741.6 749.5 766.6 783.7 781.1 769.9 755.5 732.5 713.8 701.1 693.5 680.3 663.8 657.8 649.9 646.7 644.2 648.1 667.6 688.5 700.4 719.7 746.9 761.3 763.7 766.7 776 779.1 773 758.5 737.4 695.8 673.4 655.3 640.2 634.4 623.5 614 605.9 597.6 586.5 575.6 565.1 556.9 549 539.4 525.4 506.3 481.2 458.5 439.5 420 399.3 376.9 360 347.3 341.1 329 332 337.3 349.7 366.7 382 398.9 415.4 441.5 464.3 491.8 519.7 548.7 579.5 605.8 638.3 676.4 707.7 736.1 765.9 793.2 781 761.9 748.4 740.2 735.2 721.9 705.2 701.7 729.3 730.6 726 709.6 682 694.6 690.2 673.6 654 621.5 595.4 564.2 547 530.5 519.3 500.7 493.6 479.6 465.8 446.1 428.4 409.3 386.7 373.9 368.3 360.5 358.5 358.6 362.6 362.4 365.2
498.5 513.3 516.1 520.6 532.1 552.5 561.4 561.5 550.7 543.5 529.3 525.4 511.6 503.1 500.3 493.3 488.9 477.6 462.7 462.4 452.4 441.4 426.2 418.4 408.5 391.4 378.9 364.1 351.6 346.9 334 320.2 319.3 308.8 307.6 298.5 292.3 292.2 290.4 289.7 284.8 282.7 280.7 279.2 279.9 276.8 277.8 278.7 279.1 281 281.9 282.3 288.9 286.5 286.5 287.2 292.2 291.8 293.4 298.3 301.5 304.7 310 314.4 327.4 328 336.4 345.8 357.8 368.2 377.1 391.4 406.1 421.5 439.4 459.8 490.6 522.7 578.1 621.5 671.1 704 732.7 742.2 759.3 786.3 790.4 789.7 784.6 765.3 749.2 733.8 720.4 703.9 691.1 671.1 662.7 659.8 657.8 658.9 672.9 689.7 712.5 721.8 741.6 763 760.9 758.6 759.6 765.9 768.3 760.5 754.8 744.8 710.7 681.7 653.9 639.2 627.5 620.6 617.4 608.2 595.3 585 575.7 565 554 547.4 536.3 519.6 501 483.7 461.2 442.2 419.9 399.6 381.4 362.1 349.5 341 323.4 327.1 336.8 345.1 358.6 375.8 390.8 407.2 429.3 453.4 479.3 507 537 570.9 592.5 627.5 661.4 694.9 725.5 756.2 771.9 757.9 742.1 725.4 712.6 709.1 703.4 684.5 675.5 695 703.5 697.4 688.7 662.3 650.3 662.2 654.5 634.3 618.2 594.5 567.9 547.2 528.3 507.1 498.1 486.1 469.5 457 439.6 420.8 400.5 384.5 369.7 365.3 360.6 350.5 353 352.1 354.3 355.2
514.2 520.9 523.6 540.9 545.2 550.6 556.7 553.6 537.3 521.9 517.1 506.7 503.9 499.6 498.6 487.4 477.1 464.9 459.4 456.7 441.6 430.3 426.8 417.2 400.2 389.3 372.1 355.7 349.2 341.6 331.4 316.9 315.1 305.8 305.2 298.7 292.1 285.8 287.6 286.9 281.2 280.4 278.6 277.6 275.8 276.4 276.8 278.3 278.8 280.8 282.4 280.2 286.8 286.1 286 288.9 289.8 291.2 294.8 297.4 299.7 304.5 308.9 316.4 328.1 334.2 342.6 352.3 364.1 374.1 383.5 394.4 409.9 425.6 447.1 473.1 502.6 538 579.8 619.3 665.1 703.4 734.3 761.6 779.8 791.2 791.8 792 782.3 769.6 759 752.2 737 714.4 694.9 682.6 677 671.9 673.8 680.2 697.1 715.7 723.7 737.1 758.7 761.7 759.2 762.1 758.7 753.7 753.7 750.2 745.9 742.3 733.4 700.4 670.1 642.3 627.4 622.9 611.7 601 591.9 584.5 575.7 563.3 551.4 542 529.4 515.1 497.6 479.1 461.8 439.7 416.6 399.4 379.8 362.4 351.7 343.2 333.5 318.9 332.3 338.3 350.6 367.1 382.8 397.8 418.3 442.8 469.5 493.8 523.4 554 581.3 613.5 649.3 679.6 711.6 734.8 739.3 729.7 715.4 700.6 691.8 686.7 671.5 659.3 643.8 650.1 664 663 653.9 636.6 625.2 629.2 622.2 611.5 599.4 582.3 567.5 544.2 523.3 505 492.6 480.5 466 455.8 431.9 412 392.2 375.7 366.6 362.1 357.9 351.6 346.4 347 344.5 345.6
504.6 518.1 540.6 546.6 544.9 535.7 532.2 530.2 520 510.5 505.3 502.6 496.2 494.6 488.1 474 469 454.9 454 441.6 428.6 429.9 420.4 408.3 395 378.9 363 353.7 348.8 336.5 326 313.5 308.5 305.6 298.2 297.1 290.3 286.1 282.9 282.5 278 278.1 276.2 275.2 275.5 276.3 276.4 277.6 279 278.9 278.8 279.7 286.1 284.5 288.8 289.8 289.1 292.1 293.6 296.1 301.3 306 311 317.2 323.1 330.6 342 354.4 364.1 374.5 388 400.1 415.3 436 460 484.7 516.5 552.2 590.7 625.4 665.7 716.3 751.5 764.7 771.7 785 786 786.3 780.3 772.5 763.1 754.9 744.7 727 712.8 702.9 696.9 694.6 696.1 705.5 705.5 705.4 707.7 715.2 722.2 737.2 751.4 754.1 754.6 747.8 742.2 736.3 736.4 735.7 733.8 735.4 719.5 661.7 635 618.1 606.9 598.3 589.7 582.8 574.5 561.4 549.8 537.9 525.9 510.3 496.4 477.5 459 440.7 416.2 397.1 378.4 362 351.4 341.4 332.1 314.4 328.6 334.8 340.2 356.4 371.9 386.4 405.6 428.5 457.6 480.3 510.5 539.5 569.3 595.4 622 652 685.1 693.2 697.9 691.9 680.5 670.4 662.2 651.4 636.8 621 621 614.2 616.8 623.7 618.2 608.4 602.9 590.3 591.6 581.1 570.1 555.7 546.9 530.1 509.8 493 484.7 474.5 458.7 442.5 419.4 401.7 385.8 370.3 363.3 361.6 352.4 349.7 341.6 340.2 338.1 335.4
512 543.2 551.8 546.7 533.8 528.7 518.3 509.9 505.5 507.1 500.8 491 486.7 484.8 474.3 461.7 455 450.9 441.1 432.8 435 427.3 413.1 398.4 386.7 376.7 363.9 355.2 347.8 334.2 328.3 317.6 306.3 300.6 296.9 293.4 289.5 278 279.7 276.6 275.8 275.6 273.9 274.5 275.4 274.4 276.2 277.2 277.6 277.4 277.5 284.6 284.2 285.2 288.6 290 290.5 291.8 294.1 300.3 305.3 312.9 317.7 322.8 330.4 340.3 347.7 355.9 367.1 376.9 390.7 408.3 420.5 443.4 463.7 491.1 521 559.1 605 633.7 676.6 730.2 748.6 754.1 769.3 780.1 780.3 778.4 773.2 769.7 759.2 749 738.2 727.8 717.7 710.8 705.8 699.5 692.9 688.1 682.6 677.2 677.2 681.3 687.7 691.8 716 737.8 740.7 734.4 730 726.2 726.8 725.3 723.6 729.4 728.5 691 655.3 631.1 612.8 595.9 589.3 584.4 574.7 563.1 550.8 538.2 524.5 509 491.5 475.1 455.5 436.1 417.2 393.8 376.9 361.8 350.2 343.4 337.6 317.7 318.5 327.8 333.5 346.5 359.8 376.4 393 413.3 441.2 463.9 495.2 522.3 549.6 575.3 592.9 612.9 637.9 651.9 656.5 654.1 644.6 634 630.4 617 606.4 598.4 588.2 589.6 575.8 585 585 575.1 575.6 562.6 552.5 548.1 537.3 528.3 518.7 507.7 495.1 483.1 470.6 461.5 447.2 437.4 421.4 398.9 381.3 367.4 359.1 354.8 348.8 344.8 341 334.6 334 330.6
538.4 550.3 546.2 534.3 522 512.7 511.6 503 492.7 493.6 487.1 485.7 483.3 472.7 462.8 456.7 447.3 434.6 432.8 438.4 428.8 418.5 406.4 394.1 384.8 375.7 369.4 362 346.2 339.6 328.8 315.9 304.9 298.2 297.8 292.5 284.8 280 274.4 273.5 274 272.9 273 273.4 274.6 273.8 277.5 278.7 276.8 275.2 281.1 284.1 283.5 284.6 286.9 289.5 291.8 296.9 297.2 303.9 309 318.6 320.3 326 333.8 344.1 354.3 363.5 371.9 385.4 394.2 409.1 426.9 448.9 474.4 502.1 545.1 583 613.5 636.3 679.6 723 736.9 746.6 761.3 771.2 771.8 765.5 757.3 751.7 743.3 731.3 723.1 710.2 699.9 691.8 686.9 677.1 664.8 655.1 649.4 645.5 645.7 648 649 652.1 675.6 713.5 721.7 721.6 716.5 714.6 715.8 716.7 715.3 721 726.5 724.1 679.4 647.7 621.2 597.1 589.5 583.5 575.8 564.5 549.6 535.8 522 507.4 492.4 474.7 456.4 439.6 417.6 395.5 377.3 359.7 349.7 341.8 336.1 327 308.6 317.4 328.1 335.3 345.7 363.4 380.7 398.3 420.4 441.4 470.3 498.4 527.9 551.6 567.8 582.7 599.6 611.1 615 618.6 606.1 597 594.7 588.4 577.3 571.2 571.2 571.7 551.9 542.2 550.3 541.5 539.8 537.6 520.7 515 508.4 501.4 493.8 484 475.1 465 455.2 445.1 432.9 429.4 416.6 393.7 378.4 367 357.9 349 345.6 344.7 336.1 329.8 326.6 327.1
537.7 534.1 525.7 513.1 506 506.1 504.8 503.3 492.4 485.4 485 480 469.2 460.5 456.2 443.2 438.1 439.3 436.9 431.8 423.3 408.7 397.3 389.4 386.4 384.7 372.6 363.3 348.8 336.8 325.5 316.7 305.4 298.5 289.1 288.7 282.6 276.4 272.8 271.8 273.1 273.7 273 272.9 272.9 275.1 276.2 275.2 274.6 277 283.4 282.3 283 285.5 288.3 289.6 293.6 298.1 304 308.5 313.8 317.5 323.3 332.1 341.1 350.1 363.9 369.2 381.1 389.6 402.9 416.8 436.5 463.6 484.5 521.1 555 595.5 625.9 660.3 690.6 709.7 722.3 734.8 742.1 750 751.2 748.5 738.3 727.9 720 708 695.9 689.8 681.1 672.2 662.6 650.8 644.3 637 627 621.6 620.3 614.7 614.6 618.2 627 675.2 696.8 703.2 703.6 697.8 699.6 701.4 706.9 718.1 736.2 736.6 716.9 666.9 629.3 606.9 596.1 585.7 577.3 565.7 551.2 536.7 521.8 506.5 491.8 476.1 459.7 442.3 424.9 403.3 382.3 363.1 351.6 340.5 332.1 327 319.3 304.3 321.2 327.9 336 352.2 368.1 384.3 401.8 421.5 446 474.5 492.8 520.6 535.3 549.8 564.3 573.3 577.4 576.4 571.1 564.6 557.8 560.5 548.6 546.7 540.3 537.9 527 516.6 513.5 508.6 500.5 506.9 489 484 477.2 470.6 465.6 458.2 454.1 442.2 434.6 427.9 418.3 412 399.2 386.6 375.8 364.1 354.7 347.4 342.8 337.9 334.8 326.5 319.7 320.6
521.3 514.4 508.8 503.8 500.9 500.1 500.3 491.8 491.5 487.1 479.2 467 463.3 453.3 446.8 445.5 445.1 439.7 430.1 424.1 412.7 402.9 398.7 397.6 390.3 383 374.5 360.4 348.3 337.5 322.7 316.3 304.5 295 288.8 283.4 274.4 273.6 271 271.1 272 272.3 271.5 271.7 271.6 273.2 275.4 273.8 275.6 281.6 283.5 282.6 286.2 288.2 289.7 291.8 293.5 301.1 312.5 316.5 323.6 325.7 329.9 338.5 347.4 359.5 372.5 378.5 385.4 394.6 410 432.8 454.1 469.7 496.9 532.2 581.3 601.9 626 661.2 702.7 709.3 707.4 708.1 716.5 727.5 718 712 708.3 706 694.9 689.3 677.9 673 660.3 652 642.1 633.5 627.4 616.4 608.3 596.3 595.1 592.6 589.5 590 592.2 629.6 644.1 662.1 675.7 676.2 674.7 686.6 701.1 714.8 730.3 742.9 736.5 687.1 652.6 620.2 606.7 591.3 580.1 568.1 554.6 539.4 524 507.1 492.2 479.2 463.1 446.5 427 405.7 386.2 367.5 352.9 341.2 330.6 318.5 315.3 300.2 309.8 319.2 327.4 341.2 354.8 369 383.2 399 422.8 450.7 464.1 481.8 497.6 514 530.1 539.5 543.9 543.9 543.3 533.6 526.1 524 516.9 510.3 501.9 505 497.3 489.1 479.8 476 470 469.5 459.8 451.7 446.1 440.4 435.9 433.3 427 417 411 408.4 402.2 394 388 378.6 371.9 358.8 348.3 341.7 338 333.6 328.3 325.1 318.1 310
502.1 505.8 495.9 500.7 508.5 500.3 493.9 494.5 483.9 472.6 469.5 460 453.7 454.5 456.1 445 442.2 439.3 428.8 418.3 410.6 413.9 412.6 399.5 389.9 385.5 372.8 357.5 347.7 335.3 321.9 311.6 299.5 292.3 284.1 276.9 274.1 272.2 270.4 272 272.1 271.2 270.4 270.9 271.1 271 275.9 281.2 282 283.3 283.3 284 287.1 288.3 290.4 293.9 298.9 307.8 314.5 324.1 327.8 331.1 336.7 343.9 351.3 363.7 372.5 382.7 390.2 400.1 416 438.4 459.3 475.5 505.8 540.2 576.9 598.3 632.6 674 702.3 702.5 696.9 690 685.4 684.7 687.4 690.1 685 682.4 676.5 665.3 654.9 648.5 638 632 626.2 616.3 611.7 599.9 587.5 584.6 578.9 574.3 567.1 564.3 565.9 585.1 602.9 611.5 633.6 641.5 642.6 652.6 675.6 699.1 718.5 738.2 745 719 668.6 639.9 619.9 605.5 591.7 573.6 555.7 539.3 525.5 510.6 497.4 483.8 469.6 450.7 432.2 413.6 393.2 371.3 356 344 331.9 320.8 314.5 296.8 307.3 310.8 319.3 330 339.7 352.2 365.7 379.7 397.7 416.4 433.4 451.8 466.6 480.9 492.8 501.3 507.4 509 508.5 503.1 496.4 493.7 486.6 477.5 470.8 477 476.5 473.1 467.3 448.1 440.3 436.1 431 424.9 421.1 413.1 409.2 406.4 402.5 391 385.2 379.5 379.1 369.8 369.7 362.8 360.4 350.7 344.6 332.6 327 325.6 321.9 321.7 316.1 310.3
491.9 501.7 507.5 499 501.3 499.7 498 483.6 474.9 466.8 462.5 463.2 464.3 457.8 449.4 443.6 438.6 432 423.4 423.1 425.7 421.3 413.1 402.9 395.4 382.5 367.6 357 345.8 334.7 322.7 307.6 291.8 290.4 285.1 275.7 273.4 271.2 271.9 271.1 270.6 270.4 270.3 270.6 269.4 271.2 278.1 283.9 283.3 281.8 281.1 287.3 286.6 287.7 293.4 298.5 307.6 315.4 323.3 329 328.5 332.9 338.4 346.3 357.4 365.3 377.9 386.4 396.2 411.7 426.8 443 462.8 483.3 516 547.8 574.8 597.4 635.5 670.2 680 678.2 669.3 668.6 665 669.8 670.7 671.3 660.5 660.5 652.8 641.2 630.4 618.4 618.4 610.3 605.8 599.6 587.4 576.3 574.7 567.2 557.1 553 547.1 543.6 541.8 549.4 573.5 577 589.2 600.4 606.7 615 630.7 675.4 690.9 711.4 738 733.6 710.5 681.7 661.2 649.1 630.2 611.8 581 548.5 529.7 512.9 498.2 484.9 471.3 454.7 437.9 416.9 397 376.6 355.3 342.9 332.1 321 310.4 291.5 294.7 303.5 310.8 319 324.6 333.6 349.9 360.9 374.1 391.3 406.7 419.5 433.4 446 458 467.3 473.2 475 474.5 472.1 468 463 465.2 460.3 454.4 454.6 452 448.6 445.1 421.6 413.3 409.5 403.7 397.1 389.9 382.4 381.9 379.8 369.9 363.1 359 356 354 348.6 351.4 343.5 340.5 334.3 326.7 321.5 321.1 319.3 315.6 313.6 310.8 309
493.1 503 505.1 505.9 499.5 498.3 484.2 474.3 466.1 467.9 470.7 470.7 466.2 455.8 447.4 438.7 434.4 430.9 432.9 433.8 427.3 421.6 414.4 401.2 389.9 377 364.2 354.5 341.4 330 316.3 299.4 287.8 287.8 279.3 274.6 270.9 270.3 271.1 270.9 270.6 270.3 270.2 270.5 270.7 272.9 280.2 285.5 283.5 280.3 283.2 284.3 285.9 289.6 299.1 305.4 312.3 319 325.3 326.4 329.3 334.9 343.1 352.2 360.9 371.5 381.8 395 405.9 420.6 436 447.3 468.2 490 525.4 553.5 572.1 588.2 623.4 647.4 656.1 657.7 656.1 661.1 658 663.6 661.5 651.5 638.3 634.4 627 619.7 610.2 597.9 592.9 587.4 581.4 573.5 564 560.1 549.3 548 536.7 530.7 525.8 518.5 517.7 521.2 529.2 545.2 555.1 563.6 572.8 582.9 595.4 624.5 654 677.1 698.2 722.3 723.4 720.4 718.5 706.4 684.2 641.9 604 570.7 547.5 525.3 507.1 491.6 480.1 463.7 443.8 421.8 401.5 380.2 359.5 344 330.5 322.2 311.3 294.1 287.5 298.4 301.5 307.4 313.1 317.5 331.5 342.8 353.4 367.5 379.7 391.9 403.5 417.6 421.8 430.1 438.5 439.5 440.7 439.8 436.7 432 432.5 433.2 430.5 428.1 428.9 422.1 408.8 392.8 384.3 381.2 375.1 367.1 364.3 356.6 352.8 350.1 343.4 339.6 333 333.9 330.1 329.5 326.7 321.4 319 316.3 312.7 310 305.7 306.4 305.1 303.1 302.2 300.4
491.1 500.4 507.1 504.6 504.5 487 475.8 467.1 466.1 468.9 469.2 468.6 460.1 451.7 445.8 439.6 439.2 443.9 444.4 438.4 431.1 421 410.5 395.7 387 373 362.7 349.1 337.6 324.7 313.8 296 287.6 284.1 277.5 274 271 269.5 270.4 270.8 270.7 270.4 270.1 268.8 270.9 277.2 281.9 280.2 281.6 285.3 284.5 285.6 288.7 297.6 303.9 309 314.4 324.6 325.3 328 334.8 340.8 350.2 356 367.4 377.4 393.3 404.7 414.6 425.6 437.7 450 476.7 499 525.4 554.8 565.2 576.1 601.8 628.3 641.8 648.5 643 645.6 640.1 641.2 645.6 637.2 622.8 611.4 601.4 595.2 589.3 576.2 575 568.5 560.5 557.5 549.9 543.8 535.4 525.5 518.4 509.1 502.9 496.4 493.7 495.7 501.1 513.5 525.7 534.8 540.4 552.8 566.9 604.8 623.2 639 650.3 689.7 709.3 706.8 711.3 708 701.5 678.5 622.3 590 556.9 541.6 515.1 497.1 481.9 466.6 450.4 428.2 408.7 386 368 344.6 330.7 318.5 307.8 295.1 281.2 288 293.7 297.8 302.2 307.5 315.6 323.1 335.7 344.2 353.9 365.9 374.6 385 390.7 398.2 404.9 406.5 405.5 405.9 405.9 403.2 400.6 403.1 406.2 407.2 407.2 404.5 389.7 368.1 358.2 356.5 348.3 344.3 337.7 332.5 326.1 323.9 319.3 314 310.4 310.5 306.7 306.4 300.7 303.3 301.4 301 296 295.2 292.9 292.4 287.7 287.1 285.2 287.6
494.4 504.1 508.3 506.7 492.3 477.9 468 466.1 470.5 470.2 467.9 460.3 451.4 445.5 443.6 445.5 441.7 438.5 437 433 427 415.5 402.5 391.9 382.1 369.4 357.5 344.3 333.3 320.3 309.7 294.2 293.5 287.1 278.8 273.4 273.5 270.3 270.2 270.2 270.2 270.2 267.9 270.6 272.3 279.3 279.6 276.8 281.4 289 286.9 289.4 292.4 296.7 303.9 308.9 314.5 321.1 325.2 330.2 341.2 345.2 355 362.7 374.6 385.8 397.3 408.2 415.3 423.5 438.6 453.6 477.6 502.9 524.2 547 554.7 565.4 587.7 619.7 628.1 624.6 620.2 624.5 621.5 616.5 620.8 619.6 606.9 602.7 584.4 576.4 567.4 562.2 554.3 556.1 545.3 543.5 537.4 528.2 520 509.9 499.6 494.5 485.7 481.4 475.3 477.9 481.2 488.3 500.7 505.2 515.8 528.5 539.5 566.9 587.3 598.9 610 648.4 670.9 679.9 683.5 683.6 688.6 681.1 641 601.5 577.2 548.6 525.4 504.1 488.4 473.9 452.1 434.6 418.5 392.9 371 348.9 331.7 318.1 307.4 297.4 285.2 279.7 285.4 287.5 291.9 294.6 301.8 308.6 314.1 322.4 333 339.3 348.2 355 360.8 367.5 372 375.5 372.7 374.5 374.3 372.2 370.6 379.2 384.3 381 381.7 370.8 359.6 341.5 336.4 333.2 326 325.6 314.8 312.1 306.7 305.3 297 293.9 290.7 287.7 286.4 284.3 281.9 282.8 280.5 278.8 277 274.5 274.4 273.3 271.7 270 268.6 274.6
496.7 491.6 486.8 479.5 472.6 469.4 469.9 473.8 473.2 467.9 453.8 446.3 445 444.5 445.7 447.2 443.4 435.3 429.2 422 414.4 405.2 397.4 386.7 378.5 367.4 351.8 342.7 334.9 317 308.3 298.1 297.9 287.2 280.2 275.3 268.9 270.2 268.7 270.2 270 269.8 267.3 271.2 273.6 280 276.1 277.3 287.7 285.9 288 289.9 291.2 299.3 302.2 311.7 315.8 319.1 328.4 333.5 344.9 349.9 360 370.5 381.6 389.6 398.9 407.5 412.8 422 435.7 454.2 479.9 496.9 513.9 532 539.4 549.3 569.9 598.4 601.4 598.1 594.8 598.1 600.8 591.9 593.9 601.9 589.8 584.8 573.1 566 550.1 544 538 536.9 534.2 530.8 524.3 518 507.3 499.1 484.1 472.8 468.7 465 463.8 460.9 463.2 471.2 479.8 484.2 492.1 501.8 513.1 527.1 545.3 562.3 575.5 592.7 618.4 642.8 651.9 653.9 670.5 670.8 656.5 610.9 580.2 548.9 529.3 510.3 496.4 473.5 455.2 440.1 422.6 389.7 367.2 348.7 334.7 320.2 306.7 295.9 288.4 273.1 273.7 281.2 283.5 284.6 285.1 291.7 296.4 304.8 311 316.7 323.4 328.1 334.1 337.8 340.2 344.6 345.1 346.1 346.3 344.1 342.7 343.1 344.5 341.4 335.5 330.7 326.9 318.9 312.6 307.4 301.8 297.9 295.4 290.9 285.5 285.4 278.9 275.1 272.1 269.1 265.2 262.2 261.8 263 261.4 258.8 258.5 257.2 258.3 255.2 253.5 253 256.2 256.3
497.3 489.6 474.8 468.5 468.2 471.3 472.5 469.4 460.9 451.7 445.3 445.2 443 440.8 444.2 438.4 435.9 431.6 424.4 417.3 406.9 404.6 395 387.5 375.2 362 350.9 342.7 330.1 314.6 310.3 306 299.4 286.5 276.1 269.3 269.1 269.1 269.7 269.4 269 269 268.5 271 276 273 275.4 280.1 280.5 280.2 286.7 289.8 292.2 299.9 303.3 312.8 318.2 322.4 331.7 338.9 345.6 355.2 364.9 376.3 385 391.3 399.4 405 410.1 420.8 435.2 451.9 471.3 486.1 504.6 521 528.8 533.6 548.7 575.9 575.8 570.9 571.8 570 567.8 567.6 569.3 575.1 575.5 568.9 562.4 558.8 544.7 537.2 533.6 533.1 535 535.5 531.3 522.8 510.7 503.8 491.1 477.5 467.8 456.4 451.4 449.5 451 454.9 459.6 465.5 470 480.1 490.4 503.6 516 531.2 543.2 561.3 575.3 605.3 619.2 622.2 641.7 650.9 639.3 604.5 573.2 544.5 524.5 509.7 491.6 470.7 453.2 439.2 424 384.3 361 345.8 335.1 325.4 307.7 296.2 287.2 280.5 268.4 269.2 274.6 275 276.2 277.7 280.2 284.6 290 294.4 298.2 302.9 309.7 312.4 314.7 317.6 320.3 320.8 321 319.5 318.1 315.9 312.6 308.6 304 302.4 297.4 295.2 290 286.5 281.3 278.1 273.6 270.5 267.2 262.7 261.1 257.2 253.1 252.2 249.2 248.1 244.8 247.1 244.7 244.2 243.3 241.4 240.4 242.3 239.5 239.1 241.9 242.1
484.7 472.4 468 463.2 466.6 466 463.1 457.3 448.3 443.1 439.2 437.7 434.8 434.9 433.4 433.6 431.3 427.4 420.3 419.2 411.6 403.4 396 384.2 371.1 360.6 348.4 338.9 329.4 316.2 308.5 304.6 297.1 284.2 275.2 270.4 269 268.9 269 268.6 268.2 267.8 268.2 270.2 271.1 275.8 276.2 277.1 278.5 278.6 281.7 292 297.8 301.1 305.9 312.1 319.4 328.2 335.4 341.8 347.4 356.9 369.1 377.7 383.8 387.8 393.8 402 408.1 420.1 434.4 444.6 462.8 480.4 494.7 507.2 514.2 518.2 530 547.2 543.8 538.2 541.4 544.9 542.4 551.3 549.9 557.1 558.9 555.5 550.8 547.3 543.1 548 561.3 558.1 551.7 550.4 549.2 540.6 534.5 522.6 505.8 489.5 473.3 458.8 449.4 443.8 442.1 442.9 445.4 449 451.5 458.1 469.2 478.5 491.8 507.2 515.3 529.7 541.9 565.9 583.9 585.4 594 616.4 614.5 596.5 559.3 530.4 512.7 497.5 481.2 460.4 441.8 426.2 410.4 382.7 360 344.3 332 325.2 310 295.4 288.4 279.2 270.1 261.7 265.1 267.1 268.7 266.4 268.7 269.4 273.4 275.7 278.5 282.5 285 288.6 293.2 296 297.2 298.9 299.7 299.3 298 295.9 290.1 285.5 285.2 279.6 277.4 272.9 268.5 266 264 261 259 255.2 251.5 247.3 244.2 241.4 238.5 238.8 234.8 233.6 231.3 233.1 232.5 231.5 227.6 225.6 225.3 225.7 226.1 229.5 230.5 228.5
467 465.8 464 461.4 456.5 449.2 446.5 442.5 439.4 433.1 429.1 430.2 430.5 433.2 429.7 428.5 426.6 424.7 426 425.1 417.9 407 397 382.3 369.5 357.4 348.4 340.6 331.9 320.5 311.1 303.7 297.1 287 277.7 270.4 268.4 268.5 268.3 268 267.6 268.3 273 271.4 273.1 278.7 280 278.7 278.8 278.9 283.1 296.5 299.2 304.7 308.5 314.4 322.4 332.1 337.7 340.6 347.4 359.7 365.7 372.4 375.5 381.8 387.9 394.6 401.9 413.2 428.4 443.8 454.6 468.6 482.7 492.3 497 498 502.6 515.3 518.2 514.6 516.6 524.1 527.6 534.6 533.4 541.2 544.1 542.3 537.5 537.1 544.9 558 570.4 578.6 587.3 596.8 580.3 571.7 566.2 547.2 527.3 506.9 486.6 467.8 455.6 444.8 439.1 432.8 434.6 435.4 437.4 441 446.2 456.3 465.1 481.8 488.8 495.5 507.8 536.8 550.6 550.7 555.5 563.6 565.8 563.2 537 511.5 495.5 477.4 467.1 454.6 441.3 426.5 405.1 380.5 360.2 344.8 331.9 318.6 306.1 296.8 289 279.5 269.8 256.9 256.9 261.9 258.1 257.8 257.1 259.3 261 259.4 264 266.9 266.9 271.2 274.7 277.6 278.9 280.4 281.5 284.5 284.8 279.7 275.3 270.9 265.6 261.5 256.2 252.7 250.4 250.2 247.2 246 245 242.9 238.9 235.5 231.4 228.6 228.7 226.4 220.5 218.7 218.7 218.7 218.7 218.7 218.7 218.7 218.7 218.7 218.7 218.7 218.7 218.7
465.3 463.7 460.6 454.6 447.4 442.6 438.8 435.3 429.5 424.2 423.7 424.2 425.4 428 428.6 430.2 430.8 434.1 433.9 427.6 416 405.3 391.7 379.2 369.6 357.7 350.2 344.1 332.6 321.3 311.3 306.4 299.2 284.9 275.5 271.8 269 267.7 267.7 266.5 266.5 266.5 270.2 269.9 275.2 277.8 283.2 283.4 283.7 281 286.5 296.4 299.9 309.4 311.3 317.9 322.4 330 335 337.3 344.5 353.6 363.7 364 368 374.5 383.1 391 397 408.9 424.1 435 446.9 455.5 465.8 473.4 482.6 477.4 480.1 494.7 497.7 493.8 498.8 505.3 509.1 517.9 518.4 526.5 535.6 533.6 537.2 543.3 560.4 580.8 592.2 607.9 614.7 625.4 630.1 630.2 609.1 571.1 550.1 524.5 501.9 479.3 463.2 451.1 442.1 433.4 427.2 427.6 427.7 429.9 433.5 435.6 442.6 457.1 464.2 470 473.7 502.7 516.7 515.7 521.2 519.8 523.7 511.4 498.2 487.4 476.3 463.9 454.1 446 436.8 421.2 407.5 389.3 367 347.9 333.4 318.9 308 298.4 287.5 277.1 270.7 261.3 253.2 250.7 252.8 250.7 251.3 248.5 248.7 251.7 253.2 253.5 255.9 256.1 261.2 264.9 266.7 264.7 267 268.2 268.2 263.5 258.6 254 251.5 247.8 244.3 240.8 238.9 238.7 237 234 232.9 231.2 230.1 223.2 218.7 218.7 218.7 218.7 218.7 218.7 218.7 218.7 218.7 218.7 218.7 218.7 218.7 218.7 218.7 218.7 218.7 218.7
468.7 461.2 453.5 448.4 441.7 440.2 436.7 430 424 422.9 423.6 424.5 429 430 432.2 435.5 440.7 436.5 433.1 423.3 409.7 396 384.9 376 370.1 359.8 354 346.3 335.1 323.7 312.2 308.2 295.8 280.8 275.1 273.7 268.5 267.5 266.7 266.5 266.5 266.5 266.5 271.3 273.5 274.7 283.5 284.1 284.7 288.4 293.2 295.5 304.6 312 314.3 318.9 322.4 330 331.7 335.4 344.2 350.2 355 360.7 366.5 369.8 376 387 394.6 403.3 421.5 431.3 441.1 446.6 451.8 457 466.9 467.9 472 475.9 483.1 483.9 489.2 496.3 499.6 501.6 509.4 521.3 526.2 531 540.1 550.5 582.9 600.9 618.3 641.3 648.8 660.2 672.4 670.6 638 605.6 573.1 542.9 515.4 493.1 472.8 460 444.1 434.1 427.6 425.2 422.7 423.2 426 427.4 430.7 439.6 445 448.1 449.6 469.9 482.5 484.6 486.4 487.4 482.5 475.6 469.1 462 455.1 448 439 430.4 423.8 411.1 402.8 387.7 368.8 353.8 337.8 325.8 308.7 299 287.4 276.9 266.5 260.4 256.4 247.2 243.9 247 243 242 241.1 240.8 241.6 242.6 242.5 244.9 249.4 253.8 257 255.6 252.8 253.2 251.1 248 246 240.9 239.1 234 232.6 228.5 225.3 228.1 223.8 218.7 218.7 218.7 218.7 218.7 218.7 218.7 218.7 218.7 218.7 218.7 218.7 218.7 218.7 218.7 218.7 218.7 218.7 218.7 218.7 218.7 218.7 218.7
460 450.6 442.9 443.3 437.9 431.8 427.3 428.6 424.8 424.7 422.9 425.1 427.9 432 434.6 438.8 438.1 428.7 424.2 413.7 398.6 388.5 381.2 376.6 373.8 367.7 358.6 347.9 335.1 321.9 310.9 306.7 292.5 276.4 275.8 279.8 271.5 267.5 266.5 266.5 266.5 266.5 266.5 272.6 274.4 274 280 282.7 284.6 290.4 293.1 295.9 307.9 311.6 314.1 316.9 319.4 323.9 329.6 334.8 342.6 345.3 350 356.1 361.1 366 375.2 383.4 389.5 397.5 410.2 427.1 432.8 443.8 447.9 453 454.1 456.9 459.4 465.9 470.3 478.2 477.6 484.8 489.2 491.1 501.9 521.6 528.2 536.2 548.1 569.2 598.1 623.2 650.8 682.7 701.8 701.5 699.4 681.4 657.9 624.5 591.4 560.9 531.3 507.7 484.1 468.9 454 442 433.4 427.3 421.8 419.1 418.2 417.7 419.5 426.4 433 434 435.5 441.4 453.3 453.4 455.9 457.5 454.1 446.4 443.5 437.1 433.9 426.6 419.2 410.5 403.4 396.5 389.2 375.8 361.2 351.9 338.1 325.9 313.7 300.7 289 277 267.3 260.7 253.9 247 240 237.9 237.1 235 233.8 233.4 235.1 235.3 233.4 232.2 235 237.8 239.6 240.9 241.8 242.1 241 235.9 232.6 229.5 224.5 219.4 218.7 218.7 218.7 218.7 218.7 218.7 218.7 218.7 218.7 218.7 218.7 218.7 218.7 218.7 218.7 218.7 218.7 218.7 218.7 218.7 218.7 218.7 218.7 218.7 218.7 218.7 218.7 218.7
449.2 441.9 441.5 438.5 434.7 427.8 426.4 423 417.3 421.7 417.4 417.6 421 426.4 429.8 432.2 426 424.5 411.9 400.7 394.3 384.5 382.1 377.6 375.7 368.2 355.6 346.5 332.3 319 312.5 303.5 292.3 276.2 275.7 278.1 273.1 267.5 266.5 266.5 266.5 266.5 270.1 272.2 275.3 272.6 280.4 282.1 282.5 283.4 293.5 300.4 306.9 310.8 312.6 314 316.1 322.6 326 329.3 338.9 342.8 348.5 350.9 354.6 361.4 368.5 378.3 382.8 392 402.1 419 425.3 435.2 439.3 443.5 448.5 451.2 453.1 456.9 459.3 462.5 467.6 473.2 479.4 490 505.9 520.2 529.8 540.6 561.4 588 622.1 646.1 702.2 714.4 721.6 758.3 766.9 710.8 677.7 646.6 604.2 573.1 546.4 517.9 499.6 480.2 464 451.8 440.5 434.1 428.3 420.6 419.6 416.7 417.8 418.6 418.3 419 422.9 422.7 427.3 429.8 429.6 429.1 427.7 423.9 419.8 416.3 411.6 408.3 397.9 393.5 383.8 374.4 369.4 357.9 349.2 339.4 330 320.9 312.5 301.9 293.4 284.1 273.6 263.7 257.1 248.8 245.4 237.2 235.2 233.6 231.2 230.2 228.6 228.2 227.1 225.7 223.9 220 221.1 222.9 225.8 226.2 227.9 226.4 224.7 218.7 218.7 218.7 218.7 218.7 218.7 218.7 218.7 218.7 218.7 218.7 218.7 218.7 218.7 218.7 218.7 218.7 218.7 218.7 218.7 218.7 218.7 218.7 218.7 218.7 218.7 218.7 218.7 218.7 218.7 218.7
444.5 439.8 433.7 429.8 428.9 423 423 420.8 417.3 414.5 412.5 411.3 412.2 413.9 417.1 420.9 420.7 411.7 399.9 394.5 388.9 384.1 379.3 378.6 372.7 363.4 354 344.1 335.6 322.3 314.5 300.4 289.3 279.1 278.4 277.1 271.5 267.5 266.5 266.5 266.5 266.5 267.6 272.4 274.2 271.2 276.5 281.7 281.9 282.2 287.3 302.6 308.1 311.1 314.4 313.1 314.5 319 321.3 331 337.3 338.4 344 347.2 350.8 359.8 366.9 370.6 376.9 382.1 391.5 405.1 413.5 427.3 430.8 436.5 440.3 439.7 443 447.8 450.8 452.8 459.9 473.6 479.5 493 506.2 519.2 528.3 550.1 575 615 653.1 697.1 713.9 752.2 781.8 785.4 776.8 772 719.9 655 622.7 590.7 562.9 534.7 515.5 491.4 476.9 464.5 449.3 443 431.4 429.7 425.5 424.4 413.5 410.5 411.9 408.4 408.1 407.4 408.6 410.7 409.7 406.4 402 401 397.8 393.6 392 385 377.9 368.4 364.7 356.3 354 339.7 328.5 317.9 309.8 303.7 298.4 297.1 290.6 283.3 276.3 268 262.1 251.9 246 241.6 235.7 234.1 232.9 230.5 228.9 227.2 226.1 220.3 218.7 218.7 218.7 218.7 218.7 218.7 218.7 218.7 218.7 218.7 218.7 218.7 218.7 218.7 218.7 218.7 218.7 218.7 218.7 218.7 218.7 218.7 218.7 218.7 218.7 218.7 218.7 218.7 218.7 218.7 218.7 218.7 218.7 218.7 218.7 218.7 218.7 218.7 218.7 218.7
444.9 433.7 428.9 427.3 424.8 422.7 422.9 420.3 416.7 415.5 412.7 409.1 410.7 409.4 403.1 403.9 402.8 393.2 388.5 387.7 387.9 388.3 384.5 375.6 369.6 362.6 353.1 344.5 338.7 327.1 316.4 303.5 293.6 281.7 277 270.2 266.5 266.5 266.5 266.5 266.5 266.5 267.5 271.3 273.5 271.6 273.3 282 279.9 278.8 285.6 297.1 307.8 311.6 313.6 314.1 315.1 318 321.2 325.5 331.9 338.6 340.4 341.4 345.2 352 361.9 364.1 365.9 376.6 382 386.4 396.6 414.3 423.2 427.8 432.8 438.3 443 445.4 453 462.7 465.8 470.2 480.5 491.8 508.6 531.1 546.4 565.6 594.6 626.5 667.7 709.1 745 792.3 786 799 798.3 791.7 751.5 697 645 609.8 577.6 549.4 524.1 505.2 488.2 476.5 460.4 453.4 443.6 439.8 433.2 426.6 416.3 410.6 407 405.5 403.3 397.1 397.4 392.8 391.1 389.5 388.4 382.8 378.8 375.7 369.4 364.9 355.5 347.6 345.5 339.2 336.2 320.1 313.4 303.9 294.2 290.4 286.9 280.5 276 271.9 269.5 261.3 253.2 248.8 243.9 239.1 235.5 233.9 231.6 229.6 228.6 227.9 220.4 218.7 218.7 218.7 218.7 218.7 218.7 218.7 218.7 218.7 218.7 218.7 218.7 218.7 218.7 218.7 218.7 218.7 218.7 218.7 218.7 218.7 218.7 218.7 218.7 218.7 218.7 218.7 218.7 218.7 223.1 228.1 221.2 223.8 223.9 221.4 218.7 218.7 218.7 218.7 218.7 218.7
435.5 429.5 428.9 428.2 422.2 419.8 417.8 417.1 415.9 414 409.9 405.8 406.2 403.1 402.2 396.2 389.8 389.3 394.5 392.2 396.2 391.4 381.5 372.9 365.5 361 353.3 352.4 339.3 328.4 317.7 306.6 299.4 286.5 280.4 269.6 266.5 266.5 266.5 266.5 266.5 266.5 266.5 271 272.6 270.7 271.9 279.6 279.3 278.1 281.6 292.3 303.7 310 311.8 312.4 315.2 317.2 317.6 320.9 325.5 329.5 334.6 335.2 335 341.6 342 358.6 368.9 379.6 387.6 399.9 412.1 419.3 424.2 434 440.9 443.8 451.4 457.5 458.6 462.3 468.6 476.5 489.8 501 524.2 545.8 562.5 584.2 615.5 651.6 693.1 725 780.7 788.3 800 812.6 826.9 805.4 772.7 720.9 683.4 647.7 601.9 561.8 533.9 511.4 495.7 484.4 474.2 461.6 455.5 448.8 439.8 428 423.9 414.5 409.6 409.6 401.2 396.8 393 385.5 383.8 378.3 375.1 371.3 364.4 362.4 352.3 345.4 338.3 333.3 326.5 319.3 313.4 306 301.1 292.4 285.7 282.9 277.6 272.7 266.3 266.7 260.2 254.8 245.5 238.7 237.5 234.4 232.9 231.1 229.5 228.7 228.2 227.6 225.4 219.9 218.7 218.7 218.7 218.7 218.7 218.7 218.7 218.7 218.7 218.7 218.7 218.7 218.7 218.7 218.7 218.7 218.7 218.7 219.2 218.7 218.7 218.7 220.3 220.8 224 229.1 234.3 235.1 235.9 238.4 237.3 236.9 237.9 236.4 235.3 233.4 232.2 229.9 221.6 218.7
432.3 430.8 429.4 423.8 421.4 419.3 417.5 416.1 416.6 412.9 408.1 402.6 400.2 396 395.9 390.8 390.8 397.6 395.5 397.1 394.2 384 377.2 370.8 364.8 362.8 362.4 355.1 341.1 335.2 322.9 311.3 300.2 289.6 282.5 274.8 266.5 266.5 266.5 266.5 266.5 266.5 266.5 266.5 271.7 272.4 269.3 279.8 281.3 278.3 281.7 290.3 300.6 303.6 304.1 305.6 310.8 313.2 313.7 318.5 322.9 324.7 325.6 324.3 328.6 341.2 352.8 366.7 376.3 385.9 397 409.4 418.1 427 433.4 438.9 442.6 446.8 453.8 461.9 464.5 468.9 475.7 480.9 492.9 514.1 544.8 561.9 579.2 602.2 649.4 678.6 704.4 762.5 790.2 797.6 814.3 831.2 833.5 796.2 760 727.8 696 674 626.6 594 557.8 529.1 506.7 494.6 484.3 475.6 467.5 460.6 448.5 437.4 431 426.7 420.9 416.7 407.6 399.2 395.5 388.6 384.9 380.9 375.1 370 360.5 353.8 341.5 335.5 328 322.9 314.7 305 302.1 294.6 289.1 281.1 273.8 272.1 271.6 267.4 263.3 258.3 254.2 246.8 239.4 237.6 235.3 233.9 232.5 231.6 229.2 228.1 227.3 227.4 225.6 229 224.8 223.7 218.7 218.7 218.7 218.7 218.7 218.7 218.7 218.7 218.7 218.7 218.7 218.7 218.7 226.9 230.5 234.4 236.2 234.7 235.6 237.6 237.3 237.3 243 243 249.2 249.2 249.3 255 257.2 256.4 251.9 251.9 248.9 247 245 242.1 237.7 227.1
431.5 427.5 431 421.3 419.1 416.5 412.7 415.8 413.9 406.2 403.9 398.2 396.1 393.3 391.7 393.4 392.3 391.6 396.4 395.5 384.1 378.6 372.4 369 368.3 366.7 362.9 356.7 355.6 341.5 326.8 315.4 302.5 290.4 283.6 275.5 266.5 266.5 266.5 266.5 266.5 266.5 266.5 267.4 267.8 269.1 270.1 277.6 281.7 277.5 279.4 292.2 300.3 300.7 300.9 301.6 305.9 308.5 306.9 309 313.7 315.6 318.3 328.3 335 347.1 358.6 370 378 389.1 401.5 415.3 424.7 431.4 438.3 443.1 448.1 453.4 462.7 468.9 473.2 477.9 481.8 489.5 503.5 527.9 555.1 577.1 597.7 629 667.7 682.7 727.6 777.4 798 807.1 827.6 835.8 841.9 796.5 756.1 721.2 691.9 673 647.8 618.1 575.4 547 518.4 503.6 494 486.1 475.2 466.2 464.8 450.8 441.3 436.8 431.4 424.1 417.1 410.7 398.9 399.1 392.9 386.9 379.3 373.9 367 359.4 347.6 337.3 329.3 323.9 315.9 308 300.6 288.5 280.7 274.7 269.6 265.7 263.2 260.1 262.6 255.1 250.9 242.4 242.4 243.2 242.4 237.8 236.7 236.3 232.6 232.2 232.9 232.9 234.5 236.2 234.2 231.7 226.4 222.2 223.6 219.8 224.7 221.9 225 229.6 231.1 233.6 234.7 235.7 238.9 241.1 243.7 245.8 249 249.3 250.8 254 257.5 258.7 261.5 265.4 267.2 267.9 267.6 271.5 270.6 268.5 267.8 265.3 262.6 257.9 255.5 256.1 251.9 245.6
432.4 427 426.1 421 414.8 412 410.9 410.2 406.9 400.3 397.1 393.9 394.1 392.9 393.5 391.3 388.2 388.6 388.1 385.1 378.9 374.7 371.6 372.6 371.9 366.3 370.5 365.2 359.7 350.9 336.9 323.1 308.5 294.9 285.8 278.3 266.5 266.5 266.5 266.5 266.5 266.5 266.5 266.5 269.5 271.9 270.7 273.2 277.3 275.1 286.6 289.7 299.5 296.2 295.9 295.5 295.6 298.9 301.6 309.9 314.4 318.4 325.1 331.7 343 356 365 374.5 383.8 396.3 408.6 420.1 429.6 438.6 442.8 447.8 452.2 458.9 466.7 473.6 481.7 488.4 494.7 505.3 515 550.4 570.4 593 620.1 648.8 676.1 707 754 785.9 799.6 817.3 828.5 842.4 845.7 811.6 773.4 721.6 694.2 669.8 648.1 622.4 588.4 558.9 534.6 516.4 502.5 494 485.4 478.2 468.9 457.4 445.4 440.9 436.2 428.9 423 416.8 408.2 404.9 396.7 391.9 390 381.6 372.8 363.8 353.2 344.8 331.5 323.2 311.6 305.4 297 290.2 285 271.9 263.9 266.5 263.5 259.8 254 251.4 249.5 250.9 248.3 250.1 247.5 244.5 243.4 240.2 239.2 240.3 240.8 241.9 242.3 244.3 240.7 239.1 238.9 238.6 236.8 237.9 241.1 242.9 243.3 245.7 248 248.5 250.6 251.5 254.5 259.4 259.1 260.8 265.4 267.7 271.5 280 281.5 283.8 283.2 284 282.2 281.9 283.4 284.2 286.3 281.7 279.2 278.6 272.9 271 267.2 267.4 265.2 259.5
429.3 423.2 418.6 416.3 413 412.2 407.8 405.4 399.9 397.3 392 391.5 392.1 390.6 387.3 386.9 387.3 384 382.2 377.9 378.8 374.4 373.8 370.8 370.9 377.1 370.5 367.3 363 353.3 339.3 325.7 312.3 302.1 288.3 280.2 273.4 266.5 266.5 266.5 266.5 266.5 266.5 268.2 269.4 271.6 270.4 272.7 274 275.6 285.3 287.8 294.1 290.5 288.9 291.8 299.6 303.7 310.1 316.8 316 321.8 328.2 338.9 353.1 366.1 371.4 377.4 388.1 400.9 411.1 425 433.6 440.6 444.5 452.6 458.3 467.8 474.9 481.3 493.8 500.2 507 517.4 525.2 545.4 574 618.3 642.8 666.3 714.4 761.7 788 797.6 801.8 813.7 835.7 849.5 844.7 830.1 791.8 764.6 703 672.9 645.2 620.4 589.3 568.8 548.3 529.3 514.9 509.9 498.3 486 475.3 464.8 452.4 442.6 438.3 430.4 425.1 419.1 413.3 406.7 399.5 397 389.2 381.3 374.4 362.2 352.8 345.3 328.6 316.6 309.3 300.7 296.3 285.3 279.7 278 277.7 276.5 271.4 265.6 262.2 258.7 258.1 258.8 255.6 257.6 255.1 252.4 251.3 247.9 251.4 252.1 253.2 256.9 257.2 256.2 252.1 251.8 251.8 252.6 255.2 258.4 257.4 260.6 259.6 261.7 265.2 267.7 272 273.3 276.1 280.3 280.8 282.3 284.7 288.4 295 301.2 300.7 303.8 305.4 303.9 299.1 303.6 301.6 303.3 304.2 297.2 297.3 292.7 291.7 283.9 279.1 278.6 278.4 271.3
426.1 418.7 413.7 411.3 410 409.3 406 400.1 393.7 390.7 388.2 389 387.7 387.3 384 385 385.2 381 379.4 375.7 374.3 374.3 367 366.9 371.3 374.7 369.5 367.3 362.6 348.5 335.5 322.3 314.3 300.7 292.1 285.9 274.2 266.5 266.5 266.5 266.5 266.5 266.5 268.6 270.9 271.3 273.3 273.2 273.8 276.2 277.6 280.9 283.2 291 292.5 298 301.7 303.5 308.7 314.4 320.6 328.1 335.4 346.7 356.3 369.2 375.8 385.7 393.2 404.7 414.2 425.2 436.3 443.5 449.6 456.2 467.1 473.7 483.6 494.1 496.3 505.3 512.9 524.2 536.7 555.1 578.1 624.7 642.5 673.8 738.5 768.2 784.1 796.1 799.4 812.9 827.1 835.8 836.5 837.8 827.9 793.9 761.6 719.9 664.6 632.2 602.3 577.8 559.4 548.8 533.2 521.6 512.2 498.1 493.4 480.7 460.9 445.9 438.7 431.8 425.5 419.7 414.3 409 403.3 394.7 388.8 379.7 369 360.5 347.7 334.9 324.2 312.6 302.4 296.2 297.3 292.4 290.4 283.9 284.5 282.7 276.7 275.6 270.7 271.7 270.1 270.3 270 267.9 266.7 262.9 264.5 265.1 266.7 267 270.2 272 272.4 270.7 268.7 267.9 270 271.8 272.1 275.1 275.3 274.7 276.4 282.5 285.5 285.3 288.4 292.3 294.8 299.8 301.6 303.8 309.5 312.7 316.2 320.1 326.6 326.7 324.7 323.1 322.6 323.5 321.7 325.1 322 317.2 317 311.9 305.5 300.1 299.9 297 294.2 287.1
416.8 410.1 409 404.4 402.2 400.4 397.2 393.7 390.8 387.4 385.9 389 390.4 386.2 385.6 381.3 379.5 376.7 375.2 372.9 376.3 371 366.9 366.9 369.3 374.7 368.1 366.1 355.1 346.6 337.3 327.2 314.7 301.9 291 287.6 276.9 266.5 266.5 266.5 266.5 266.5 266.5 266.5 271.2 271.4 272 273.2 274.4 275.8 277.6 279.6 283.9 292.3 300 302.4 305.3 310.1 315.1 316.7 324.4 333.7 343.5 350.3 364 372.4 382.9 392.5 403.1 413.4 422 431.4 437.8 449.2 456.9 465.1 474.4 479.8 488.3 497.5 506.2 514 517.3 529.2 537.8 558.2 589.1 619.7 638.5 693.3 733 760.6 772.7 791.1 795.5 806.3 819.7 823.9 824.2 826 829.1 800.7 768.3 738.4 722.3 665.3 620.7 594.3 574.8 558.7 549.5 541.3 526.1 515.2 510.9 491.1 472.5 457.2 441 432.4 425.4 419.6 416.5 404.8 398.1 390.8 381.8 374 365.5 350.2 339.2 331.5 315.9 317.6 314.8 310.3 305.2 300.3 298.8 296.2 289.1 286.4 288.5 287.9 286 286.7 284.1 283.9 280.9 282.2 281.1 284.1 283.3 284.6 286.5 286.2 287.1 288.3 289.4 287.1 285.2 286.3 287.4 288.6 290.5 292.5 292.4 295.7 297.1 300.4 304.9 306.7 310 314 316.9 321.3 325.1 327 330.3 334.4 339.4 341.8 346 346.1 345 344.8 344.1 342.8 342.1 342.8 346.3 336.4 333.9 330.3 325.1 313.4 319.4 314.1 312.3 309.9
413 407.4 402.7 396.8 393.6 393.7 391.4 390.4 384.8 383.6 385.6 388.2 388.3 392.8 386.5 380 383.6 375.4 372.8 373.1 374.4 369.9 375.2 372.9 377.6 373.2 369.2 356.9 352.4 342.3 338 336.7 319.1 304.9 294.6 284.9 276.5 267.1 266.5 266.5 266.5 266.5 266.5 266.5 271.9 270 270.7 274.4 276.7 277.7 280.6 282.9 286.5 289.7 298.6 302.9 309.7 315 318.9 325.8 330.4 339.6 351.2 360.8 366.7 379.3 394.9 399.7 407.4 421.3 428.9 438.8 446.6 455.8 463.7 471 479.3 487.6 495 501.1 512 519.5 524.6 535.2 542.6 560.4 592.3 619.6 646.5 680.1 724.6 747.3 766.6 782.1 789.9 802.2 810.7 822.4 822.4 834.7 836.4 792.8 756.8 718.9 704.8 685.3 665 623.4 593.8 584 569.5 556.7 541.5 529.6 519.1 502.7 493.6 467.1 444.6 438.2 431.8 422.9 414.9 404.4 394.8 383 374.6 367.3 355.4 351 338.7 332 330.1 324.7 319.2 317.9 313.6 310.8 304.8 306 306.3 303.2 303.6 305.1 307 301.4 299.2 300.4 302.1 301 301.8 302 305.8 307.5 309.5 306.8 308.8 308.5 309 306.6 307.5 306.6 307.9 306.9 307.9 311.8 312 316.8 319.3 319.4 321.5 325.1 329 333 338.6 343.3 348 350.6 352.4 355.7 358.7 362.6 366.5 368.5 369.7 363.7 361.3 360.8 362.2 361.9 362.4 357 353.6 348.9 341.4 338 339.5 336.1 330.6 323.3
404.4 401.9 395 391 388.7 390.4 389.6 384.4 381.7 386.3 385.4 388.9 391.2 390.6 381.7 376.8 374 374.7 372.4 373.2 372.9 379.1 375.7 380.4 373.5 370.9 363.6 360 349.2 345.5 340.7 334.8 323.4 311.1 294.2 287.7 281.3 270.2 266.5 266.5 266.5 266.5 266.5 268.7 269.7 268.9 270.2 274.4 275.5 277.3 285.4 283.4 284.8 287.1 295.3 301.2 314.2 320.2 324.7 331.3 336.6 344 354.7 362.1 375 385.3 394.1 405.6 414.5 424.7 434.4 443.7 454 465.2 471.3 479.2 490.2 497.8 503.2 510.3 517 522.2 528.3 540.9 551.3 565.7 591.4 614.6 658.5 704.8 719.9 733.9 759 769.6 780.2 799.2 823.1 828.9 837.5 852.3 837.9 782.3 747.6 723.9 689.6 673.5 661.8 643.5 623.2 600.8 586.4 573 568.9 556.3 539.1 539.8 518.6 481.1 457 445.6 437.8 426 416.5 400.8 388.3 379.6 377.2 370.7 362.9 351.6 344.5 344.6 340.4 334.7 331 328.4 325.4 321.1 321.3 317.1 321.3 323.9 322.4 320.2 321.5 322.9 323.1 323.8 322.6 327.6 329.3 327.6 330.4 333.2 333.3 332 333.1 334 329.7 329.3 326.1 326 325.1 326.2 328.6 331.9 330.7 334.9 336.4 338.9 341 344.3 349.2 354 359.5 365.2 370.7 372.5 376.2 381.5 383.3 386.9 388.8 390.8 394.7 390 386.8 385.6 385.1 382.7 380.8 381.6 374.7 363.8 360.5 361.9 362.1 358.8 352.1 342.4
396.5 392.6 385.7 385.4 386 386.6 381.5 379.2 381.9 384.4 387.3 387.8 386.4 380.9 376.3 373.2 370.6 372.7 371.3 375.5 379.2 377.3 377.6 375.1 374.2 368.7 365.7 360 353.4 353.5 344.5 334.2 323.3 310.6 295 288.4 281.8 269.9 266.5 266.5 266.5 266.5 266.5 267.9 268.2 268.9 270.3 272.3 273.7 279.4 284.8 281.6 286.4 287.6 294.8 297.5 308.7 314.1 325.4 337.2 343.4 351.8 357.6 367.6 378 389.1 398 411.5 418.7 424.4 437.1 447.3 459.4 468.3 476.8 483.7 489.6 492.9 498.4 507 514.5 519.9 536.5 552.9 569.5 576.7 594.6 618.7 667 694.5 710.4 724.2 746.1 752.7 768.9 797.5 826.5 837.4 852.3 875.3 832.6 793.3 753.7 718.5 683.7 664.6 647.6 637.2 624.1 611 601.4 594.8 581.1 565.6 551.5 532 515 494.2 473.5 456.3 443.2 428.3 413.6 401.2 395.2 390.4 385.3 372.3 362.9 361.9 363.5 359.3 356.2 353.4 349.9 346.3 345.1 338.2 339.9 338.6 343.1 339.4 342 343.9 349.4 348.5 343.9 349.9 350.9 353.4 354.8 354.7 355.7 359.9 359.3 359.9 356.1 352.4 351.3 352.2 345.6 344 344.5 344.7 347.5 353 353.7 353 357.4 364.2 365.7 369.6 372.5 375.9 384.4 388.8 391.8 393.7 400.3 404.2 407.5 413 413.9 417 418 418.9 415.7 417.7 412.2 409 407 408.6 400.5 387.1 380.5 380.2 375.4 372 370.1 359.1
388.5 381.2 383.6 386 385.7 383.2 375.4 377.1 380.5 381.4 380.6 381.4 380.4 374.6 375 366.9 374.2 369.5 374.4 376.4 379.6 377.5 379.4 373.6 371.5 367.8 367.2 359.3 366.7 355.9 343.4 326.6 323 309.2 295 290.7 280.8 266.5 266.5 266.5 266.5 266.5 266.5 266.7 266.5 271.5 270.2 271 275.6 279.7 280.2 283 289.5 290.1 293.9 297.7 303.2 310.2 318.8 331.6 342 353.2 360.4 372.3 383.9 393.2 403.6 413 424.6 436 444.7 451.8 459.9 471.9 474.7 479.7 489 493.3 499.6 505.7 513.5 526.9 547 568.9 590.2 598.1 606.5 618.7 653.8 676.9 693 718.9 728.8 734.6 749.4 791.3 825.5 850.4 879.2 905.9 864.9 814.4 769 728.7 696.1 661.2 643.1 631 620.2 613.5 607 602.5 594.4 581.5 564.7 536.5 515.2 499.2 482.2 463.2 444.1 436 432.1 418.8 403.6 395.3 385.6 377.7 378.2 385 384.6 378 379.5 372.4 373 370.3 362.7 357.2 358.5 354.7 362.2 363.6 369.1 369.4 372.1 374 374.2 375.9 381.1 378 377.4 381.5 382.9 385.7 384.5 384.8 380.4 379.1 373.9 368.7 362.8 359.8 361.6 364.9 370.8 374.4 373.2 378.2 381.7 385.5 388.9 394 398.1 401.1 407.8 411.3 415.3 418.4 423 430.7 432.6 438.8 440.9 442 445 445.6 448 446.3 442.3 437 433 432.5 420.3 406.3 395.3 394.3 388.8 383.6 375.4 369.9
383.9 378.8 383.5 382.9 383.5 379.7 374.1 374.6 377.9 375.3 377.8 378.2 374.6 373.3 366.9 366.4 367.1 373.6 379.2 380.4 383.3 378.4 376.2 373.7 370.1 368.4 361.7 359.8 364.8 351.8 337 324.5 321.7 308.6 294.9 289.3 279.9 266.5 266.5 266.5 266.5 266.5 266.5 266.5 266.5 268.7 269.5 274.6 275.9 280 279.5 281 285.7 288.5 294.5 299.2 303.3 313.3 327 338.4 345.4 352.8 361.1 377.4 386.8 398 409.9 422.6 429.8 440.4 446.6 453.1 466.1 471.8 477.8 491.6 498.2 504.5 509 517.7 527.5 538.7 559 583.2 596.5 605.7 618.9 636.3 644.3 658.7 676.2 696.4 714 721.6 745.7 785.1 831.8 865.4 907.4 911.3 889.2 835.6 787.6 738.5 701 672.1 645.1 628 619.7 616 611.1 608.4 593.8 581.8 568.1 549 530.7 509.7 487.7 471.4 465.4 460.6 444.5 432.1 422.1 408.3 394.5 398.4 408.1 401.1 401.7 402.1 399.9 394.9 391.9 387.5 383.9 379.6 382.5 383.5 387.8 388.5 391.5 393.2 403.3 405.5 406.3 408.7 410.1 412 409.6 411.4 413.2 413.7 414.7 412.3 407 399.9 396.2 387.1 378.6 382.5 385.4 390.3 395.9 399.9 399.9 404.9 408.9 412 415.9 419.3 421.6 426.7 432.1 438 440.7 443.4 449.4 456.2 462.5 466.2 467.6 471.8 472.6 475.2 477.7 476.1 467.8 462.7 455.9 447 431.6 418.9 412.2 407.7 399.3 391.9 388.6 387.6
383.2 374.9 377.1 383.3 381.8 374.4 373 372.1 368.8 368.4 374.3 372.5 368.7 367.2 365.4 364.2 367.3 374.6 379.1 382.4 383.7 378.5 377.7 373 370.8 367.6 366.5 360.2 355.1 350.4 341.4 327.2 322.1 308.1 295.9 289.4 280.4 266.5 266.5 266.5 266.5 266.5 266.5 266.5 266.5 269.5 272.4 272.4 279.9 283.4 289.8 287.2 288.6 287.6 295 300.5 306.9 317.4 329.3 347.4 355.3 363.7 371.4 387.5 399.9 408.4 416.9 429.5 438.5 451.5 456.7 466.6 475.5 485.6 488.6 496 504.6 514.8 517.2 528.3 538.8 554.5 575.2 596.4 604.9 617.2 635.1 654.4 659.6 657.8 666.8 688.5 699.8 716.2 751.9 800 847.1 882.3 931.1 910.9 883 857.7 813.8 772.5 726.1 689.7 660.8 642.3 632.6 629.2 620.2 612.1 610.4 597.8 590.7 572.8 552.8 521.5 513.7 505.5 506.4 504 494.3 478.7 449.1 413.3 423.1 424 424 418.6 424.3 430.9 422.2 419.7 413.9 414.5 412.2 413.4 414.5 405.2 409.9 409 417.8 429.7 440 445.6 437.5 441.1 443.1 439 439.4 443.9 446.2 444.3 439 435.8 443.2 421.2 416.5 407 410.2 413.7 418.4 421.5 428.3 431.3 436 435.8 436.2 439.6 445.7 448.2 449.8 452.9 458.3 466.2 468.6 474.1 479.6 486 490.4 495 499.4 502 503.1 504.7 507.5 503.8 495.3 489.2 475.6 462.4 444.4 436.5 435.3 424.1 413.8 405.7 404.7 400.1
375.9 373.3 375.6 382.2 375.2 371.8 369.2 367.5 365.1 363.6 369.6 366.2 369.2 362.2 363.4 364.1 369.7 374.1 376.8 379.3 379.8 381 376.8 375.2 372.9 372.9 367.7 364.1 362.1 351.6 344.9 329.2 323.5 309.6 297.6 290.7 279.1 266.5 266.5 266.5 266.5 266.5 266.5 266.5 266.5 270.8 271.4 273.4 280.9 283.9 289 290.3 293.8 294.5 300.8 305.9 311.6 322.7 336.6 351.5 361.7 375.2 389.7 399 410.3 421 429.9 436.2 452.7 463.5 463.8 477.2 484.3 491.8 496.8 505.6 514.8 520.2 526.7 541.6 560.8 585 600.1 614.3 616.1 627.7 654.2 667.6 672.9 670.5 672.7 684.5 705.5 727.3 764.9 815.7 854.3 913 939.3 903.6 865.7 846.4 818.2 787 744.6 719.4 700 674.2 671.3 667 656.9 645 625 610.7 596.5 579.5 565 551.6 542.5 536.3 526.3 510.4 493.2 481 452.8 454.1 448.5 445.9 446.3 440.9 455.9 455.6 446.3 444.3 444.9 441.9 440 436.7 431.1 432.6 438.7 443.8 455.7 469.7 473.8 473.9 477.3 477.3 479.9 477.6 478 488 485.1 476.9 476.7 467.3 461.5 449.8 439.5 438.6 448.6 447.7 449.3 456.1 461 465.5 464.1 470.8 467.2 471.2 476.3 477 479.9 483.5 488.1 492.8 498.8 505.3 510.1 515.6 518.1 523.1 527.7 531 531 533 534.7 530.4 522.4 504 479.2 463.3 456.5 453.7 451.6 441.9 435.9 425.8 421.1 417.3
370.4 371.3 372.8 379.5 369.2 368.9 361.9 361.3 359.3 363.6 360.6 359.3 360.7 358.4 363.6 366.6 375.4 371.5 376.7 378.8 379.5 379.9 378.9 379.3 377.9 381.3 380.6 374.6 370 356.5 346.9 333.7 325.2 309.5 298.3 292.3 283.2 266.5 266.5 266.5 266.5 266.5 266.5 266.5 266.5 266.5 274 280.4 281.7 287 290 294.9 299.3 300.8 301.9 308.9 316.1 326.8 341.4 360.4 372.4 386.7 399.6 408.9 419.5 431.8 444.5 452.4 463.7 472.1 478 490.8 499.9 504.5 509.9 516.1 523.7 537.4 558.2 579.5 594.8 598 606 611.7 624.4 652.7 663.6 662.3 674.5 687.4 688.8 705.4 735.2 749.6 796.7 831.7 886.6 931.9 919.4 887.7 850.7 823.7 797.3 772.8 745.6 722.3 701.5 693.9 685.7 671.9 659.1 644 627.3 613.9 610.1 600.6 582.1 553.4 540.1 528.2 516.7 503.6 497.9 484.1 475.9 466.2 473.3 477.2 478.9 476.5 476.7 472.5 474.2 471.4 470.2 468.4 467.5 458.5 454 449.3 472.8 480.6 503.1 504.4 507.6 510 514.1 518 516.8 517.1 523.6 525.3 525.9 516.1 512 492.8 487.6 467.2 476.6 476 479.9 478 484.8 495.7 496.1 502.3 500.4 504.3 503.6 505 506.7 507.9 511 513.5 518 523.6 528.1 535 539.5 542.6 546.6 550.7 556.3 556.7 556.6 561.4 559.3 552.3 539.7 511.5 488 475.2 471 468.2 461.1 453.6 443.6 436.7 436 431
367.8 371 370.6 369.4 365.3 363.8 360 358.9 361.2 355 354.8 360.5 353.8 356.9 360.6 368.5 369.3 368.6 376.5 379.4 378.8 381.5 384.2 390.4 397.6 396.5 393.5 389.8 379 362.5 347.8 336.2 328.8 312.1 298 292.8 284.5 270.5 266.5 266.5 266.5 266.5 266.5 266.5 266.5 266.5 274.2 282 288.3 290.1 291.9 296 298.7 303.3 309.6 313.8 320.2 332.4 353.1 366.8 381.2 393.6 407.6 419.7 435.6 444.2 455.4 464.8 472.3 480.8 494.6 504.1 511.9 515.3 518.7 530.7 547.7 566.2 589.4 607 615.7 610.3 616.3 622.4 636.8 657 662.5 672.6 688.4 712.6 716.2 729.5 751.1 785 818.8 859.7 911.4 920.7 898.6 868.2 840.2 804.1 782 759 737.2 719.6 702.3 692.5 679.3 663.8 649.5 635.7 629 621.2 606 588.9 575.3 556.5 537 525.1 522.5 514.7 506 503.9 508.2 496.3 495.6 499.6 500.2 498.9 500.7 502 501.6 498.8 500 493.5 487.7 482.5 493.2 509.9 518.1 529.8 534.4 540.6 547.5 549.8 562.9 559.2 567.8 564.6 570.3 569.2 565.6 552.7 543.5 531.7 518.4 506.2 504.4 508.9 512.5 516 524.3 533 534.2 537.7 539.7 539.5 538 538.1 541.4 542.3 542.1 544.3 547.7 551.8 557.4 562.9 567.5 570.9 575.5 581.3 584.4 586 587.2 586.7 583.2 568.4 544.6 522 504.2 493.2 489.7 484.5 477 471.4 458.7 456.2 455.6 454.3
370.6 373.6 365 360.7 360.8 361 361.2 356.6 354.3 351.9 357.1 353.6 359.5 359.7 361.6 364.7 365.2 371.9 376.4 377.6 383.7 392.7 401.1 417 425.1 424.2 413.8 398 382.2 363.2 354.2 338.4 329.5 312.4 298.2 290.5 284.1 272.6 266.5 266.5 266.5 266.5 266.5 268.6 266.5 267 275.6 279.2 285.2 291.3 293.5 298.2 302.5 308.9 316.3 320.4 329.5 344.3 364.2 378.3 391.3 406.2 422.1 439.1 447.7 459 473 483 486.8 500.2 507.2 519.4 524 531.1 538.3 556.6 586.8 602.6 612.8 623.5 621.1 625.3 632 645.9 654.3 662.9 675.6 685.7 704.6 724.4 738.3 767.5 777.5 805.9 838.9 874.8 917.9 901.6 882.9 861.7 826.1 800 769.7 741.4 728.4 715 702.8 689.6 673.3 658.2 644.6 635.5 627.5 615.3 608.3 596.9 583.8 564 546 537 531.9 525.1 523.9 519 518 522.4 516.7 516.4 520.4 522.4 525.1 526.3 529.3 525.3 523.8 533.8 547.5 559.8 556.5 546.2 559.7 577.4 587.6 595.6 592.2 607.1 604.1 620.8 623.2 620.7 619.6 617.2 615.9 593.6 571 562.9 548.1 534.3 537.4 548.8 550.4 560.7 567.2 572 573.6 576 577.4 576.4 574.8 574.5 578.1 577.7 574.4 575.9 576.9 581.8 587 591.2 598.1 602.6 608.3 611.8 616.1 615.6 618.6 616 598.7 570.1 554.6 537 529.9 516.4 511.4 504.8 499.3 489.6 484.2 485.4 486.6 484.1
364.7 364.2 357.1 359.7 357.8 361.7 355.9 356.7 350.9 352.2 353.1 350 358.7 363.7 364.4 364 369.5 372.4 374.4 381.8 393.7 403.9 416.4 435 439.4 438.7 421.1 396.4 380.3 365 355 341.2 324.6 309.9 297.3 288.4 285.4 275.9 266.5 266.5 266.5 266.5 266.5 266.5 275 274.6 279.8 289.3 287.5 291.1 297.2 299.9 303 312.1 324.7 333.3 341.4 357.4 371.6 386.1 401.8 420.8 436.2 447.1 458.2 477.6 487.3 494.2 508.4 514.9 527.9 535.8 542.6 550.5 567.7 600.5 619.6 623.9 627.4 632.4 638.2 648.5 665.8 667.8 666.8 678.4 708.3 728.9 746.3 764.6 785 804.4 818.2 834.3 849.8 874.7 888.9 879.9 875.2 858.5 822.2 794.3 772.9 743.3 725.5 716 706.5 688.3 682 676.3 664.9 652.7 638.7 628.3 614.4 599.5 583.3 568.4 559.1 550.1 545.7 542.6 541.7 541.8 530 532.4 531.7 538.3 541.3 544.3 551 555.1 554.8 558.8 576.2 590.9 593.3 588.8 579.7 586.3 607.2 624.9 635.2 651.8 659.7 659.3 670.9 673.3 670.9 674.1 674.7 675.3 662.2 629.5 606.7 587.8 580.5 570.4 586.5 600.5 614.9 621.5 623.4 621.6 622.9 618.3 616.2 613.5 613.3 611.5 614.4 611.8 608.6 606.1 607.7 611 615.5 620.8 628.2 637.5 642.7 646.2 649.7 649.9 650.7 634.9 608 598.6 582.3 550.7 543.6 536.1 533.6 528.2 525.9 521 520.3 520.4 519.3 513.2
359.4 355 354.7 353.4 359.1 354.8 351.5 350.5 348.6 351.4 351 347.6 358.3 359.6 363.2 361.5 364.5 371.7 375.5 390.2 400.3 416.1 436.2 446.9 450.3 439 418.2 399.9 380.4 370.4 356.3 341.1 318.4 309.2 298.8 287.7 283.2 281.4 266.5 266.5 266.5 266.5 266.5 266.5 275 279.9 283.8 290.7 295.2 294.3 297.9 302.9 308.5 321.6 334.2 343.3 355.4 371.9 384.1 399 418.1 435.8 451.3 463.4 478.6 494.2 503.9 514.2 525.5 531.6 538.7 548.5 565.8 578.4 594.2 615.7 624.1 636.9 646.9 653.9 669.1 677.5 678.8 686.5 693.4 709.2 733.7 747.2 763.1 786 806.5 825.8 833.7 838.9 846.3 856.7 867.6 861.9 856.3 848.7 831.9 795.6 777.7 755.9 735.9 720.8 699.9 685.7 677.9 673.1 665.7 654.8 646.1 631.7 616.7 605.6 590.4 578.7 572.6 563.7 558.6 554.7 549.7 545.6 546.2 546.1 554.4 557.9 570.2 574 579.6 585.2 589.1 605.1 619.9 625.8 617.7 605.7 605.9 623.4 650.3 671 679.7 699.1 708.4 709.1 715.2 719.9 717.6 733.9 734.1 734.4 697.9 661 634 624.9 637.5 659.1 660.8 674 673 675.9 677 676 669.6 665.5 659.1 655.1 650.5 647.3 650.1 648.6 642.1 639.8 639.9 644.6 647.1 652 661.1 672.4 680.1 682.7 683.2 683.5 676.5 639.7 623.1 604.6 583.7 566.7 562.3 559 559.1 560.8 559.9 556.2 555.3 553.1 549.8 544.4
