ncols 200
nrows 98
xllcorner 200000
yllcorner 891800
cellsize 50
59.4 63.9 68.2 71 70.8 71.5 74.3 75.9 78 79.3 81.6 84 86.1 88.5 85.8 87.2 90.2 91.6 92.8 93.2 92.7 90 87.5 86.4 86.8 86.7 87.4 88.4 90.6 92.7 96.7 96.4 96.8 96.1 93.5 88.9 81.8 77.2 74.6 71.7 69.5 67.1 66.1 62.9 61.4 58.1 53.6 46.5 37.8 28.4 18.4 13.1 9.3 3 -2 -2 -2 -2 -2 -2 -2 -2 -2 -2 -2 -2 -2 -2 -2 -2 -2 -2 -2 -2 -2 -2 -2 -2 -2 -2 -2 -2 -2 -2 -2 -2 -2 -2 -2 -2 -2 -2 -2 -2 -2 -2 -2 -2 -2 -2 -2 -2 -2 -2 -2 -2 -2 -2 -2 -2 -2 -2 -2 -2 -2 -2 -2 -2 -2 -2 -2 -2 -2 -2 -2 -2 -2 -2 -2 -2 -2 -2 -2 -2 -2 -2 -2 -2 -2 -2 -2 -2 -2 -2 -2 -2 -2 -2 -2 -2 -2 -2 -2 -2 -2 -2 -2 -2 -2 -2 -2 -2 -2 -2 -2 -2 -2 -2 -2 -2 -2 -2 -2 -2 -2 -2 -2 -2 -2 -2 -2 -2 -2 -2 -2 -2 -2 -2 -2 -2 -2 -2 -2 -2 -2 -2 -2 -2 -2 -2
53.1 57.2 62.2 62.6 60.5 61 63.6 65.6 70 74 78.9 81.2 82.1 81.9 81.9 82.8 85.5 90 91.7 91.9 93.1 91.8 89.8 88.6 89 88.9 91 90.5 90.3 91.4 95.4 99.4 100.6 101.9 101.4 99.7 94.9 89.4 82.8 81.5 80.7 77 76 75 74.2 70.6 63.2 52.7 44.2 32.6 23.1 15 10.9 6.2 0.9 -2 -2 -2 -2 -2 -2 -2 -2 -2 -2 -2 -2 -2 -2 -2 -2 -2 -2 -2 -2 -2 -2 -2 -2 -2 -2 -2 -2 -2 -2 -2 -2 -2 -2 -2 -2 -2 -2 -2 -2 -2 -2 -2 -2 -2 -2 -2 -2 -2 -2 -2 -2 -2 -2 -2 -2 -2 -2 -2 -2 -2 -2 -2 -2 -2 -2 -2 -2 -2 -2 -2 -2 -2 -2 -2 -2 -2 -2 -2 -2 -2 -2 -2 -2 2.4 2.4 6.8 6.8 2.4 -2 -2 -2 -2 -2 -2 -2 -2 -2 -2 -2 7 -2 -2 -2 4.6 11.3 7.2 2.4 2.4 -2 -2 -2 -2 -2 -2 -2 -2 -2 -2 -2 -2 -2 -2 -2 -2 -2 -2 -2 -2 -2 -2 -2 -2 -2 -2 -2 -2 -2 -2 -2 -2 -2 -2 -2 -2
47.3 50.1 50.7 51.6 52.7 52.4 54.3 56.7 57.9 61.2 66.6 72.3 73.9 76 77.7 78.6 79.6 85 88.5 90.3 91.7 91.5 89.8 89.3 89.6 90.4 92.9 93.1 93.6 92.6 94.5 96.2 100 105.9 109.5 109.1 109.3 105.5 98.4 93.7 87.5 88.3 85 84.3 82.6 78.5 70.3 59.5 50.9 37.8 27.5 20.6 12.8 9.9 4.6 -2 -2 -2 -2 -2 -2 -2 -2 -2 -2 -2 -2 -2 -2 -2 -2 -2 -2 -2 -2 -2 -2 -2 -2 -2 -2 -2 -2 -2 -2 -2 -2 -2 -2 -2 -2 -2 -2 -2 -2 -2 -2 -2 -2 -2 -2 -2 -2 -2 -2 -2 -2 -2 -2 -2 -2 -2 -2 -2 -2 -2 -2 -2 -2 -2 -2 -2 -2 -2 -2 -2 -2 -2 -2 -2 -2 -2 -2 -2 -2 -2 -2 -2 -2 19.1 23.8 33.1 36.5 27.4 -2 -2 -2 -2 -2 -2 -2 -0.6 -2 -2 3.3 -2 -2 -2 -2 25.1 24.8 20.7 12.4 8.2 -2 -2 -2 -2 -2 -2 -2 -2 -2 -2 -2 -2 -2 -2 -2 -2 -2 -2 -2 -2 -2 -2 -2 -2 -2 -2 -2 -2 -2 -2 -2 -2 -2 -2 -2 -2
39.3 42.6 43.9 45.6 46.7 47.3 47.7 47.8 49.5 51.9 53 55.9 59.7 65.1 68.8 71.9 74.2 78.2 81.8 86.5 89 90.5 90.5 90.2 89.7 88.6 89.6 90.1 92.1 93.9 93.1 92.6 94.1 97.3 103.8 112.7 117.4 119 118.9 115.4 108.8 100 96.7 92.3 88.7 85.1 76.7 70.5 63.6 53.9 41.2 31.3 23.3 17.1 13.6 8.2 2 -2 -2 -2 -2 -2 -2 -2 -2 -2 -2 -2 -2 -2 -2 -2 -2 -2 -2 -2 -2 -2 -2 -2 -2 -2 -2 -2 -2 -2 -2 -2 -2 -2 -2 -2 -2 -2 -2 -2 -2 -2 -2 -2 -2 -2 -2 -2 -2 -2 -2 -2 -2 -2 -2 -2 -2 -2 -2 -2 -2 -2 -2 -2 -2 -2 -2 -2 -2 -2 -2 -2 -2 -2 -2 -2 -2 -2 -2 -2 24.5 32.6 40.2 45.3 58.3 56.5 50.7 55.6 59.6 59.5 48.3 44.1 37.4 26.3 -2 21.9 18.8 -2 13.6 -2 -2 30.7 35.2 30 26.4 20.1 18.7 16.1 -2 -2 -2 -2 -2 -2 -2 -2 -2 -2 -2 -2 -2 -2 -2 -2 -2 -2 -2 -2 -2 -2 -2 -2 -2 -2 -2 -2 -2 -2 -2 -2 -2 -2 -2 -2
31.1 35.1 37 39 40.3 41.4 41.7 42.3 44.4 45.2 46.1 47.1 49.2 50.7 53.7 57 62.1 69.8 75.8 80.3 82.9 85 85.9 87 86.5 85 86.3 87.1 86.4 85.8 85.4 86.7 88.6 92.1 94.9 102.1 112.6 121.3 128.2 128.6 124.7 117.8 113.7 109.6 104.9 101.5 96.7 90.3 81.7 71 61.2 50.1 38.2 30.6 23.1 17.4 13.9 7.5 1.6 -2 -2 -2 -2 -2 -2 -2 -2 -2 -2 -2 -2 -2 -2 -2 -2 -2 -2 -2 -2 -2 -2 -2 -2 -2 -2 -2 -2 -2 -2 -2 -2 -2 -2 -2 -2 -2 -2 -2 -2 -2 -2 -2 -2 -2 -2 -2 -2 -2 -2 -2 -2 -2 -2 -2 -2 -2 -2 -2 -2 -2 -2 -2 -2 -2 -2 -2 -2 -2 -2 -2 -2 -2 26.6 31.2 32.7 43.4 53.5 61.7 65.7 69.1 72.3 81.3 97.6 99.5 98.3 88.7 88.7 87.8 58.9 42 45.6 38.1 31.4 25.9 28.7 35.2 33.6 36.7 37.8 31.8 21.8 17.4 14.1 12.1 -2 -2 -2 -2 -2 -2 -2 -2 -2 -2 -2 -2 -2 -2 -2 -2 -2 -2 -2 -2 -2 -2 -2 -2 -2 -2 -2 -2 -2 -2 -2 -2 -2 -2 -2 -2
25.1 26.9 27.5 30.8 33.6 35.5 36.4 37.7 38.9 39.6 40.4 41.7 43.2 45.1 47.1 49.3 51.7 54.9 62.8 69.5 72.8 75.7 78.5 80.2 80.1 80.5 80.7 82.1 81.5 79.5 78.4 80.4 82.4 85.9 90.1 93.1 98.2 106 117 127.5 132 130.1 126.6 126.6 124.4 118.1 112.5 105.2 96.4 87.6 80.9 72.4 62.5 45.2 35.9 30 25.1 22.8 19.6 19.5 16.6 -2 -2 -2 -2 -2 -2 -2 -2 -2 -2 -2 -2 -2 -2 -2 -2 -2 -2 -2 -2 -2 -2 -2 -2 -2 -2 -2 -2 -2 -2 -2 -2 -2 -2 -2 -2 -2 -2 -2 -2 -2 -2 -2 -2 -2 -2 -2 -2 -2 -2 -2 -2 -2 -2 -2 -2 -2 -2 -2 -2 -2 -2 -2 -2 -2 -2 -2 -2 37.5 37.7 39.3 44.4 51 58.8 70.8 85.4 95.8 106.1 112.7 114.6 132.2 135.7 133.7 142.9 141.7 124 110.2 87 58.7 50.3 39.4 42.9 40.2 43.3 43.9 38 36.7 34.7 31.8 23 17 11.9 9 -2 -2 -2 -2 -2 -2 -2 -2 -2 -2 -2 -2 -2 -2 -2 -2 -2 -2 -2 -2 -2 -2 -2 -2 -2 -2 -2 -2 -2 -2 -2 -2 -2 -2 -2 -2
20.6 22.1 23.1 25.5 27.2 29.4 31.3 32.8 33.8 34.5 35.2 36.8 39 40.5 42.5 44.8 46.7 48.8 51.4 55.2 60.8 66 69.6 70.9 73.5 72.5 73.2 74.8 74.8 73.3 72.4 72.9 76.3 79.6 83.9 85.6 88.8 95.4 103 111.3 119.7 127.4 134.1 134.6 133.1 128.3 125.6 118.5 109.7 100.8 96.2 89.2 76.2 61.6 50.2 44.3 38.2 34.7 32.8 31 30.1 28.3 23.6 17.8 -2 -2 -2 -2 -2 -2 -2 -2 -2 -2 -2 -2 -2 -2 -2 -2 -2 -2 -2 -2 -2 -2 -2 -2 -2 -2 -2 -2 -2 -2 -2 -2 -2 -2 -2 -2 -2 -2 -2 -2 -2 -2 -2 -2 -2 -2 -2 -2 -2 -2 -2 -2 -2 -2 -2 -2 -2 -2 -2 -2 17.9 17.6 45.5 51.9 56.9 57.6 56.7 58.4 67.6 84.4 101.4 114.7 126.9 135.6 137.9 138.6 172 178.3 170.3 168.3 158.4 145.1 136.5 113.2 92.7 72 61 57 59.3 53.7 49.9 48.1 40.8 37.9 31.3 21.5 16.9 12.4 11.5 15 13.1 6.8 -2 -2 -2 -2 -2 -2 -2 -2 -2 -2 -2 -2 -2 -2 -2 -2 -2 -2 -2 -2 -2 -2 -2 -2 -2 -2 -2 -2 -2 -2 -2 -2 -2 -2
17.8 19.1 20.6 22.1 23.4 24.7 26.6 28 29.4 30 31.3 31.3 33.6 34.5 36.7 39.2 41.7 44.4 46.5 49.6 53.2 57.3 61.4 63.8 66.1 66.8 67.3 68.2 67.2 68.3 68.6 69.3 71.4 73.5 76.6 80.4 84.2 88.3 93 99.8 109 116.3 125.2 132.5 133.7 133.5 130.6 125.9 119.1 108.5 103.6 97.1 87.8 75.1 65.3 55.9 49.5 44.6 41.8 38.5 34.4 32.8 28.9 22.4 15.5 7.2 -2 -2 -2 -2 -2 -2 -2 -2 -2 -2 -2 -2 -2 -2 -2 -2 -2 -2 -2 -2 -2 -2 -2 -2 -2 -2 -2 -2 -2 -2 -2 -2 -2 -2 -2 -2 -2 -2 -2 -2 -2 -2 -2 -2 -2 -2 -2 -2 -2 -2 -2 -2 -2 -2 -2 -2 -2 14.9 35.6 66.9 74.4 77 84.9 80.1 86 88.6 102.4 124.1 137.6 141 154.4 171.4 175.8 176.1 191.7 185.9 189.1 183 171.2 150.5 135.7 117.4 100.5 98 86 79.8 62.8 56.4 55.2 50.8 42 31.8 25.8 16.2 16.2 25.1 15.1 8.8 -2 -2 -2 -2 -2 -2 -2 -2 -2 -2 -2 -2 -2 -2 -2 -2 -2 -2 -2 -2 -2 -2 -2 -2 -2 -2 -2 -2 -2 -2 -2 -2 -2 -2 -2 -2
15.7 17.4 19 20.9 21.5 22.5 23.1 23.9 24.7 25.6 26.6 28.1 29.5 30.2 31.9 34.6 36.9 40.2 42.3 44.4 46.5 50 53.5 57.2 58.1 61.3 61.7 61.1 61.7 63.2 64.2 65.9 69.7 71.7 74.5 77.7 80.6 84.1 88 93.3 98.1 105.3 114.2 123.6 131 134 131 127.7 121.3 113.1 106.1 99.8 91.6 83.4 76.6 68.2 60.3 53.9 48.7 44.1 40.5 37 33.2 26.2 20.7 15.1 -2 -2 -2 -2 -2 -2 -2 -2 -2 -2 -2 -2 -2 -2 -2 -2 -2 -2 -2 -2 -2 -2 -2 -2 -2 -2 -2 -2 -2 -2 -2 -2 -2 -2 -2 -2 -2 -2 -2 -2 -2 -2 -2 -2 -2 -2 -2 -2 -2 -2 -2 -2 -2 -2 -2 -2 -2 49.8 73.7 96.8 99.7 107.1 105.2 119.6 116.3 121.9 140 156.7 171.1 181 193 201.2 195.3 193.9 196.9 196.2 193.5 182.7 169.3 156 143.3 129.7 108.6 95.2 88.3 82.4 75.2 68.2 57.8 46 36.8 25.9 20.3 24 25.6 14.8 5 1 -2 -2 -2 -2 -2 -2 -2 -2 -2 -2 -2 -2 -2 -2 -2 -2 -2 -2 -2 -2 -2 -2 -2 -2 -2 -2 -2 -2 -2 -2 -2 -2 -2 -2 -2 -2
9.9 13.4 14.8 16.4 17.6 19.2 21 21.2 22 22.4 23.1 25.1 26.2 26.3 28.5 30.3 31.2 32.5 35 37.6 39.8 43.2 46.4 49.6 50.6 52.7 53.1 52.7 54 57.3 60.5 62.7 65.7 69.1 72.2 75.4 78.2 81.5 84.6 89.4 92.8 99.6 105.7 110.6 118.7 125.2 126.2 122.6 117.6 112.6 107.1 102.4 96.6 89.6 83.8 78.3 69.8 62.1 57.9 53.8 50 45.9 41.1 35.3 26.4 20.1 12 2 -2 -2 -2 -2 -2 -2 -2 -2 -2 -2 -2 -2 -2 -2 -2 -2 -2 -2 -2 -2 -2 -2 -2 -2 -2 -2 -2 -2 -2 -2 -2 -2 -2 -2 -2 -2 -2 -2 -2 -2 -2 -2 -2 -2 -2 -2 -2 -2 -2 -2 -2 -2 -2 70.1 78.3 92.7 107.1 119.5 133.4 138.4 150.7 146.6 146.3 161 170.1 184.5 192.7 201.2 212.5 206.5 204 215.2 213 198.8 195.8 191.2 182.2 168.1 155.8 134 115.2 105.8 97.6 91.7 78.9 70.4 60.6 47.7 39.1 42.9 34.6 27.1 17.6 2.3 0.9 -0.5 -2 -2 -2 -2 -2 -2 -2 -2 -2 -2 -2 -2 -2 -2 -2 -2 -2 -2 -2 -2 -2 -2 -2 -2 -2 -2 -2 -2 -2 -2 -2 -2 -2 -2 -2 -2
-2 -2 3.7 10.7 12.4 14.5 15.3 16 16.8 18.4 20.7 22.2 22.8 23.4 24.7 27.2 28.7 29.4 31.8 33.6 34.8 36.1 39.2 41.7 43.2 44.6 45.4 46 47.6 50.2 52.4 55.6 58.6 62.1 66.6 70.9 75.3 78.7 81.1 84.7 89.9 94.6 99.7 103.3 108.1 114 117.7 116.7 113.2 110.1 107.3 103.3 98.6 93.8 88.6 82.3 74.3 71.2 68.3 64.2 60.8 56.4 51.2 45 37.7 29.1 23 17.8 6.5 1.9 -2 -2 -2 -2 -2 -2 -2 -2 -2 -2 -2 -2 -2 -2 -2 -2 -2 -2 -2 -2 -2 -2 -2 -2 -2 -2 -2 -2 -2 -2 -2 -2 -2 -2 -2 -2 -2 -2 -2 -2 -2 -2 -2 -2 -2 -2 -2 -2 -2 32.1 79 90.4 101.8 120.9 140.1 155.3 160.4 169.2 175 188.2 191 187.3 191.9 205.9 207.3 217.4 224.1 222.6 228.2 223.9 224.5 212.1 205.9 197.6 181.3 167.2 150.2 132.9 121.7 113.2 103.2 93 84.3 71 58.3 62.1 53.3 42.1 33.1 14.5 2.5 2 -0.9 -2 -2 -2 -2 -2 -2 -2 -2 -2 -2 -2 -2 -2 -2 -2 -2 -2 -2 -2 -2 -2 -2 -2 -2 -2 -2 -2 -2 -2 -2 -2 -2 -2 -2 -2 -2 -2
-2 -2 -2 -2 -2 2.5 6 8.8 11.9 13.1 14.4 16.7 19.4 20.4 22.3 23.5 25.5 26.9 28.5 29.7 30.6 30.8 32.3 34 35.8 36.9 38.1 38.8 39.9 41.8 44.7 47.3 50.2 53.5 58 62.3 66.9 71.9 76 80.5 84.3 88.7 93.6 97.9 101.2 104.7 107.5 109.7 110.1 108.7 107.5 105 100.5 96.1 91.8 86.9 83.3 80.2 76.8 74 70.9 67.2 60.1 53.1 46 39.2 33.6 28.5 22 16.2 7 -2 -2 -2 -2 -2 -2 -2 -2 -2 -2 -2 -2 -2 -2 -2 -2 -2 -2 -2 -2 -2 -2 -2 -2 -2 -2 -2 -2 -2 -2 -2 -2 -2 -2 -2 -2 -2 -2 -2 -2 -2 -2 -2 -2 -2 13.8 49.7 62.9 88.9 100.7 109.7 131.6 151.9 165.9 168.8 176.2 189.8 204.1 214.3 213.6 209.6 211.4 214.3 227 237.6 238.8 238 233.9 236 236.6 222.6 202.6 194 180.4 162.5 146.7 132.6 125.7 115.9 106.1 96.1 88.9 85.3 74.8 71.8 58.7 47.5 28.1 10.9 2.4 2.4 0.8 22.9 28.4 30.3 21.8 16.6 14.3 15.9 10.7 -2 -2 -2 -2 -2 -2 -2 -2 -2 -2 -2 -2 -2 -2 -2 -2 -2 -2 -2 -2 -2 -2 -2 -2 -2 -2 -2 -2 -2
-2 -2 -2 -2 -2 -2 -2 -2 -2 2 5.5 10.8 15.1 15.8 19.2 20.1 21.3 23 24.6 24.6 26.2 26.8 26.5 27.6 28.8 29.3 31.6 32.4 33.1 35 37 39.1 41.8 44.8 48.5 51.5 55.9 61.2 65.5 71.3 76.4 80 86.4 90.7 94 98.2 99.8 101.3 103.5 105.4 105.3 105 102.8 101 98.4 95.6 91.2 87.8 85.1 82.5 79.1 75.9 70.9 63 55.4 50.5 45.2 40.4 35.6 29.9 22.4 15.3 8 -2 -2 -2 -2 -2 -2 -2 -2 -2 -2 -2 -2 -2 -2 -2 -2 -2 -2 -2 -2 -2 -2 -2 -2 -2 -2 -2 -2 -2 -2 -2 -2 -2 -2 -2 9.7 -2 -2 -2 -2 -2 37.3 67.9 78.9 81.4 99.1 113.2 124.3 142.6 160.1 171.5 182 183.8 203.3 221.1 221 222.5 221.1 223.4 233.4 232.9 251.8 250.8 242.2 241.8 242.5 239.8 229.6 218.2 211.8 193.9 177.4 161.7 145.5 134.8 128.8 119.3 112.3 111.1 99.6 89.7 85.6 72.9 61.4 41 25.7 14.8 4.8 23.9 47.7 47.7 52.3 42.1 29.2 24.5 25.3 20.2 17.8 10.2 9.8 -2 -2 -2 -2 -2 -2 -2 -2 -2 -2 -2 -2 -2 -2 -2 -2 -2 -2 -2 -2 -2 -2 -2 -2 -2 -2 -2
-2 -2 -2 -2 -2 -2 -2 -2 -2 -2 -2 -2 -2 2.5 5.7 11.3 17.6 19.5 19.2 19.2 19.4 20.1 21.8 21.8 22.3 22.4 24 24.4 26.7 27.4 29.3 31.4 33.4 35.8 38.3 40.7 44.7 48.7 52.6 56.8 61.8 67.3 72 77.9 84.7 89.5 92.8 94.5 95.7 98.1 101.1 102.6 103.5 104.4 102.7 101.3 100.5 98.2 96.6 93.7 90.4 86.3 81.7 75.4 69.3 62.7 57.9 53.9 48.3 43.2 36.2 31.2 24.9 22.1 18.8 19.3 22.1 24.2 26.7 28 28.8 26.8 23.9 23.1 18.8 11.2 -2 -2 -2 -2 -2 -2 -2 -2 -2 -2 -2 -2 -2 -2 -2 28.3 25.5 27.7 29.9 31 30.8 32.2 36.1 59.1 58.3 53.1 42.4 81.1 83.6 92.2 91.5 110.2 124.4 134.8 150.6 165.1 174.1 182.4 187.9 205.5 215.6 217.9 223.6 227.9 230.8 243.6 243.9 251.6 253.5 251 250.5 246.8 243.8 238.6 233.2 222.8 211.7 192.9 177 160.8 146.9 133.2 129.3 132.4 126.7 120.4 109.9 97.2 89.7 73.6 55.6 46.1 34.8 20.7 30.1 60 59.8 51.1 53.6 50.5 44 39.5 31 26.5 22.1 12.1 10.6 10.2 -2 -2 -2 -2 -2 -2 -2 -2 -2 -2 -2 -2 -2 -2 -2 -2 -2 -2 -2 -2 -2 -2 -2 -2 -2 -2
-2 -2 -2 -2 -2 -2 -2 -2 -2 -2 -2 -2 -2 -2 -2 -2 3.6 10.5 14.8 14.4 14.2 13.6 14.2 15.7 15.2 14.1 14.7 16.7 19.1 19.7 20.3 21.3 23.7 26 27.4 30.8 33.5 37.9 41.6 45 48.9 52.6 54.5 61.4 68.5 74.6 82 86.5 91.1 95.4 99.9 103.9 106.7 108.2 109.2 109.1 110 109.3 108.1 107 103.8 98.5 93 87.6 84.4 78.9 74.5 69.1 64.6 59.5 52.9 47.3 43.3 43.1 39.7 43.1 44 46.1 49.4 51.4 50.9 47.4 46.4 45.3 41.5 36.8 33 36.2 31.9 31.7 26.9 19.1 23.6 12.2 9.5 22 30.8 39.7 42.9 46.6 51.3 56.1 73.5 76.7 72 70.4 77.1 97.8 98 97.7 95.3 95.7 93.1 96 101.1 109.6 116.9 132 144 149.3 163.7 177.5 185 192.7 196.3 206.6 220.1 228.3 234.1 240.9 243.5 252.9 261.4 266.4 265.6 265.4 255.4 252.1 249.7 244 232.3 219.8 211 190.5 175.8 163.4 148.4 141.7 141.4 135.8 128.7 122 114 101.1 87.6 87.2 86.3 74.5 53.7 41 61 70.3 60.6 74.4 74.4 70.2 58.1 45.9 38.5 34.6 28.4 23 24.9 21.6 18.7 19 14.4 -2 -2 -2 -2 -2 -2 -2 -2 -2 -2 -2 -2 -2 -2 -2 -2 -2 -2 -2 -2 -2 -2 -2
-2 -2 -2 -2 -2 -2 -2 -2 -2 -2 -2 -2 -2 -2 -2 -2 -2 -2 1.6 5.4 8.5 8.3 9.9 10.7 9.7 7.4 9.2 11 11.3 10.9 13.6 13.5 15.2 15.6 17.3 18.4 21.6 25.9 29.7 33.4 37.2 40.7 44.9 48.4 54.8 61 67.7 74.8 83.3 88.9 97.1 106.4 111.8 117.1 119.2 121.6 121.1 119.6 119.3 117.8 115.6 112.6 108.8 101.9 95.2 93 90 84 79 73.9 69.9 63.4 61.5 60.7 59 62.9 66.3 68.1 69.3 68.6 68 65 62.9 60.7 58.9 55.6 54.4 53.1 51.1 50.5 53.5 51.4 54.6 55.9 70.7 80.7 82.8 94.4 102.7 101.8 100.9 112.1 126.5 120.8 116.3 123 120.6 116.9 112.7 104.2 106.4 109.3 112.5 118.7 122.9 126.8 144 154.2 160 177.2 186.8 196.6 206.9 208.5 214.1 235.8 244.6 248.7 250.4 255.3 267.1 269.6 267.7 267.7 268.3 264.8 259.5 252.3 248.1 239.8 228 216.1 204.9 185.4 179 166.8 160.3 149.1 147 135.8 127.2 119.7 107.7 103.5 107.8 106.6 120 115 84.7 65.1 80.8 87.5 86.5 82.6 85.1 80.5 70.5 58.9 48.9 43.6 33.3 28.7 27.1 24.8 23.2 19.1 13.8 -2 -2 -2 1.7 2.1 -2 -2 -2 -2 -2 -2 -2 -2 -2 -2 -2 -2 -2 -2 -2 -2 -2 -2
-2 -2 -2 -2 -2 -2 -2 -2 -2 -2 -2 -2 -2 -2 -2 -2 -2 -2 -2 -2 -2 -2 -2 1.8 1.5 -2 -2 -2 -2 -2 3 6.9 7.9 7.4 9.1 9.2 11.1 12.2 15.7 18.2 22.6 28.9 34.4 39.6 43.8 49.7 55.8 62.9 72.3 79.8 89.9 100 109.2 119 124.7 131.1 134.4 134.8 136.3 133.3 126 122.4 118.9 113.5 109.5 104.5 101.5 98.2 93 85.9 81.6 77.1 73.9 74 72.8 74.5 76.1 76.3 77.6 77.8 76 72.3 70 66.7 66.9 68.6 72.1 77.4 80.6 99.9 92.8 111.4 107.4 111.7 114.5 123.3 124.6 126.7 125.6 123.6 123.1 133.1 141.5 137.2 135 132.3 134.3 131 128.7 127.3 130.2 128.6 128.5 129.1 129.5 140.9 153.7 166.6 185.2 195.5 208.1 217.7 225.3 233.8 243.5 247.4 253.2 263.7 268.6 268.8 270.6 269.7 269.3 276.3 275.9 267.9 259.4 255.2 243.2 231.9 222.5 212.6 197.9 185.2 180.8 173.9 164.9 154.5 148.9 140.7 130.1 115.3 112.6 124.2 155.8 165.2 158.6 132.7 99.3 87.9 88.1 88.6 86.9 98.4 100.2 84.6 74.6 62.9 55.7 44.3 42.8 34.4 34.3 34.1 33.7 24.7 15.8 14.8 -2 -2 43.5 34.9 25.1 -2 -2 -2 -2 -2 -2 -2 -2 -2 -2 -2 -2 -2 -2 -2 -2 -2
-2 -2 -2 -2 -2 -2 -2 -2 -2 -2 -2 -2 -2 -2 -2 -2 -2 -2 -2 -2 -2 -2 -2 -2 -2 -2 -2 -2 -2 -2 -2 -2 -2 -2 -2 -2 -2 -2 3 11.4 13.3 15.8 19.6 26.3 32.5 38.3 45.6 52.9 59.5 67.6 77 87.1 98.3 109.1 123.2 135.1 141.8 148 149.8 147.8 145 136.7 127 122.9 119.8 115.6 112.1 108.3 104.8 98.6 92.6 88.7 84.9 83.1 79.9 81.4 83.5 84.1 82.7 82.7 80.8 77.6 77 79.5 85.9 94.1 103.5 114.9 122.7 125.9 129.7 139 141.6 140 138.4 143 142.2 144.8 144.5 141.3 142.6 143.7 144.4 140 138.5 138.5 139.3 147 147.8 145.9 142.8 142 139.9 147.1 150.7 155.9 170.1 191.3 201.9 216.4 222 224.8 235.7 253.8 259.4 267.8 274.9 275.5 272.5 276 271.5 270.5 273.2 276.2 272.4 267.5 264.2 256.8 243.9 231.1 218.7 207.9 199.4 191.9 188.3 181.5 170.1 157.9 151.2 135.1 128.7 129.5 131.9 165.3 173.5 170.9 161.6 138.3 113.1 98.3 94.7 107.9 112.3 107.9 100.2 91.7 85.6 63.2 59.1 52.4 51.9 46.5 37.8 32.8 31.3 30.2 37.1 57.4 67.8 65.2 54.4 44.1 30.2 18.2 -2 -2 -2 -2 -2 -2 -2 -2 -2 -2 -2 -2 -2 -2 -2 -2
-2 -2 -2 -2 -2 -2 -2 -2 -2 -2 -2 -2 -2 -2 -2 -2 -2 -2 -2 -2 -2 -2 -2 -2 -2 -2 -2 -2 -2 -2 -2 -2 -2 -2 -2 -2 -2 -2 -2 -2 3.1 5.5 11.1 14.5 18.8 25.5 32.9 40 47.8 56.8 65.6 74.5 85.9 97.3 109.4 123.1 136.2 154.3 157 154.5 152.5 147.2 140.5 137 132.6 130.7 126.7 119.2 113.9 110.4 106 98.6 94.2 89.6 88 86.8 86.5 87.2 87.2 89.8 90.6 92.1 98.4 108.8 116.8 117.8 128.5 134 140.4 138 145.4 152.3 154.5 156.6 162.9 160.4 158.4 159.2 160.2 159.8 155.8 151.1 149.6 143.7 142.1 157.3 158 159.7 155.3 159.3 158.5 155.3 155.4 160 162 173.4 196.6 211.9 221 238.2 244.7 261 277 280.4 280.6 283.7 282.6 284.7 284.1 281.3 278.3 276 275.2 273 269 266.3 264.3 255.8 246.7 236.8 220.6 215 207.5 197.4 186.9 180.9 169.8 163.8 160.3 166 164.6 159.1 166.2 163.8 165.4 162.9 151.7 136.3 132.1 125 118.8 127.8 116.9 111.6 113.6 105.4 93.6 95.3 79.8 63.3 52.8 53.4 44 36 45.3 59.6 68.2 78.2 79.6 71.8 61.3 49.2 37.7 23.5 -2 -2 -2 -2 -2 -2 -2 -2 -2 -2 -2 -2 -2 -2 -2 -2
-2 -2 -2 -2 -2 -2 -2 -2 -2 -2 -2 -2 -2 -2 -2 -2 -2 -2 -2 -2 -2 -2 -2 -2 -2 -2 -2 -2 -2 -2 -2 -2 -2 -2 -2 -2 -2 -2 -2 -2 -2 -2 -2 5.7 11.9 14.3 19.2 27.1 33.4 41.7 52.2 62.5 72 82.6 95.1 108.1 122.6 138.5 148.9 155.4 157.3 153 148.9 148.6 146.6 141.4 138.3 129.8 121.3 117.6 113 106.5 101.2 96.5 92.2 90.3 90.9 95.4 100.3 109.4 113.9 119.6 131.3 135.8 139.8 142.3 145.2 149.8 150.8 149.2 156.3 158.5 162.8 168.6 171.7 171 171.1 171.2 171.5 168.1 162.2 160.9 163.6 183.1 181.8 176.7 168.6 173.3 176.3 176.3 172.9 174.2 170.5 172.3 182.4 192.9 210.1 231.3 246.7 253.6 261 292.6 294 293.4 293.6 290.6 289.3 287.1 289.8 287.7 283.8 280.4 276.8 270 267.1 265.1 260.7 250.5 246.1 234.5 229.6 225.4 218.5 199.8 195.5 195.3 192.1 189.4 180.7 177 170.3 164.5 162.5 170.8 174 162.3 152.4 144.6 147.6 138.5 130.2 130.4 132.5 154.8 142.6 126.3 110.1 102.9 91.3 72.3 68.8 69.6 52.1 54.1 66.8 76.3 90.1 92.4 81.2 73.2 63.5 55.7 41.2 27.9 18.8 -2 -2 -2 -2 -2 -2 -2 -2 -2 -2 -2 -2 -2 -2 -2
-2 -2 -2 -2 -2 -2 -2 -2 -2 -2 -2 -2 -2 -2 -2 -2 -2 -2 -2 -2 -2 -2 -2 -2 -2 -2 -2 -2 -2 -2 -2 -2 -2 -2 -2 -2 -2 -2 -2 -2 -2 -2 -2 -2 -2 5.6 11.4 15.6 23 31.2 39.5 49.1 58.1 69.8 81.2 93.3 105.4 119.5 132.2 145.7 150.9 153.9 156.8 156.6 154.3 149.1 143.3 134.8 127.1 122.4 118.9 114 109.6 104.7 101.3 102.2 106.1 115.1 123.9 133.5 140.9 150 149.5 149.7 150.4 151.4 151.5 154.8 154.1 157.9 166 172.6 178.2 180.4 181.5 181.6 179.4 178 176.4 174.7 171.1 191.5 197.7 195.9 192.9 191.2 188.3 180.7 187.4 189.9 194.1 193.3 190.7 190.1 194.9 204.3 221.6 242.7 254.4 258.2 292.4 293.9 294.6 297.5 295.4 294.5 299.1 300.7 296.1 290.1 285.2 282 276 270.5 269.7 264 258.3 253.6 240.9 233.7 228.4 228.8 228.4 225.8 219.9 212.2 205.5 199.8 194.3 194.4 191.9 187.7 177.6 175.1 170.6 161.2 151.4 155 151.7 139.1 138.6 157.3 172.3 160.7 142.6 129 110 100.6 93.6 90 96.7 83.8 72 89.8 95.2 98.8 102.1 97.9 87.8 74.9 64.8 54.7 45.6 32.9 22.8 17.6 11.7 -2 -2 -2 -2 -2 -2 -2 -2 -2 -2 -2 -2 -2
-2 -2 -2 -2 -2 -2 -2 -2 -2 -2 -2 -2 -2 -2 -2 -2 -2 -2 -2 -2 -2 -2 -2 -2 -2 -2 -2 -2 -2 -2 -2 -2 -2 -2 -2 -2 -2 -2 -2 -2 -2 -2 -2 -2 -2 -2 4.9 10.6 15.1 21.1 28.6 37.6 45.9 55.6 68.2 80.4 90.1 103.3 117.3 129.2 138.9 148.5 156.3 158.7 157.2 152.1 147.1 140.3 135.6 132.6 128.5 128.6 126.5 127.1 128.6 126.7 151.4 139.7 144.5 152.6 162.4 162.1 159.9 162.5 166.1 168.9 169 167.7 162.2 170.9 178.1 181.8 186.4 189.7 189.4 185.9 183.9 183.2 181.8 182.2 193.9 210.8 208.3 206.4 203.2 201.5 198.6 207.9 209.7 212.8 212.5 206.3 205.3 200.9 211.1 222 229.9 245.9 260.1 276.2 280.8 284.9 293.8 304.9 305.2 306.3 304 301.8 298 293.4 288.2 284.7 276 273.1 271.3 266.2 259.7 253.2 239.3 236.7 249.3 250 246.3 238.8 228.3 224.2 217.6 202.8 207.8 206.3 201.2 194.8 182.9 174.1 168.6 160.6 157.4 153.1 148.6 148.5 158.5 176.3 168.4 155.5 136.8 125.2 115.5 130.4 128.6 117.1 107.9 102.7 112.7 118.9 118.1 111.8 102.7 95 90.3 79.2 63.6 52.1 44.4 36.2 33.9 31.9 43.4 37.5 23.7 -2 -2 -2 -2 -2 -2 -2 -2 -2 -2 -2
-2 -2 -2 -2 -2 -2 -2 -2 -2 -2 -2 -2 -2 -2 -2 -2 -2 -2 -2 -2 -2 -2 -2 -2 -2 -2 -2 -2 -2 -2 -2 -2 -2 -2 -2 -2 -2 -2 -2 -2 -2 -2 -2 -2 -2 -2 -2 7.3 12.4 15.8 20.7 26.9 35.9 46 54 65.9 78.4 92.3 105.9 118 131.9 144.8 154.1 159.8 162 157.6 154.2 152.8 149 145.3 148 154.7 151.3 162.7 172.1 175 170.1 161.4 162 170.3 174.7 173.5 170.7 172.7 172.8 173.2 174.2 173.3 175.3 182.4 183.5 191.4 195.6 197.5 193.4 189.9 188.2 198.8 204.5 207.3 220.3 230.6 226.6 222.7 212.5 210.1 205.8 219.5 225.2 229.2 226.1 223.6 218.7 217.5 224.2 229.2 247.7 256.4 272.1 276.4 285 306.3 306.9 315.6 317.5 317 308.7 305.5 296.9 292.4 289.6 286.1 281 274.8 269.7 268.9 260.2 273 272 265.7 259.7 255 248.4 238.4 233.4 226.6 222.4 212.5 218.6 215.3 208.7 204.9 195.7 179 168.9 169 192.6 181.7 184.7 182.4 181 173.1 162.8 148.4 132.4 128.8 151.9 148.4 136.7 124.7 119.6 128.5 132.9 127.7 117.4 109.7 103.3 93.1 85.3 76.3 68.2 67.7 73.5 65.7 68.9 72.1 56.4 44.5 36 26.2 -2 -2 -2 -2 -2 -2 -2 -2 -2 -2
-2 -2 -2 -2 -2 -2 -2 -2 -2 -2 -2 -2 -2 -2 -2 -2 -2 -2 -2 -2 -2 -2 -2 -2 -2 -2 -2 -2 -2 -2 -2 -2 -2 -2 -2 -2 -2 -2 -2 -2 -2 -2 -2 -2 -2 -2 -2 4.5 11.1 13.9 18.2 23 29.8 36.9 46.5 57.3 68.9 80.5 93.2 110.2 125.2 140.2 153.1 165.9 171.4 172.9 170.3 169.4 167.7 165.9 181.4 182.4 193.5 195 196 194.6 189.3 184.3 179.2 178.4 180.3 180.3 178.5 180.6 185.1 183.1 181.5 181.9 186.8 197.6 197.1 199.2 198 198.9 205.6 209.1 214.9 219 223.1 226.6 236.8 239.9 237.1 230.3 225.6 224.6 233.5 234.9 236.5 235.1 232.3 228.6 232.1 244 243.4 262.9 272.3 287 295.1 302.5 308.5 313.4 320.7 325.6 326.3 321.2 312.4 306.8 297.6 292.8 289.1 285 282.1 277.2 269.5 273.5 283.3 279 277.8 272.3 261.4 255.9 251 243.3 237 224.8 219.8 218.9 219.9 213.6 209.3 203.3 199.2 186.1 173.1 186.3 197.4 184.4 189.7 186.6 182.5 173.2 162.4 144.8 137.4 157.1 156 148.7 139.5 126.4 132.2 141.3 137.4 131.3 120.4 116.8 104.7 99.1 102.1 94.7 97.4 106.3 103 92.3 89.6 82.3 72.5 60.9 46.4 29.7 -2 -2 -2 -2 -2 -2 -2 -2 -2 -2
-2 -2 -2 -2 -2 -2 -2 -2 -2 -2 -2 -2 -2 -2 -2 -2 -2 -2 -2 -2 -2 -2 -2 -2 -2 -2 -2 -2 -2 -2 -2 -2 -2 -2 -2 -2 -2 -2 -2 -2 -2 -2 -2 -2 -2 -2 -2 1.7 9.8 13.6 17.3 21.5 26 32.4 38.8 49 61.4 72.1 85.1 98.9 115.7 131.5 145.9 163.5 178.4 189.3 198.6 198.6 203.6 208.8 211.1 210.3 212.7 217.7 215.5 207.4 199.4 194.6 192.7 190.9 192.9 199.6 207.8 210.1 204.3 197.8 196.6 198 201.8 205.2 204.2 212.6 215 214.8 222 222.9 227.3 232.5 244.3 242.1 243.3 243.2 240.9 234.2 234.2 237 237.9 237.9 239.2 238.1 235.6 234.7 241.1 250.4 265.2 272.7 279.3 287.3 310.2 325.7 333.5 337.9 334 328.1 324.6 322.1 311.6 307.6 298.8 293.5 287.2 287.6 284.2 278 279.9 287.6 292.7 296.5 281.8 276.2 269.4 260.2 254.4 249.7 238.2 229.3 223.9 227.1 231.1 223.5 215.6 203.3 196.3 187.5 186.5 203.2 196.4 187.8 194.3 191.3 183.8 178.3 167.4 154.9 167.4 167.8 156.6 151.5 144.2 135.2 138.9 142.4 141.3 135.4 129.7 133.7 134.7 132.5 134.1 140.1 141 136.3 127.3 119.1 111.2 103.2 91.8 78.1 58.3 41.1 19.1 -2 -2 -2 -2 -2 -2 -2 -2 -2
-2 -2 -2 -2 -2 -2 -2 -2 -2 -2 -2 -2 -2 -2 -2 -2 -2 -2 -2 -2 -2 -2 -2 -2 -2 -2 -2 -2 -2 -2 -2 -2 -2 -2 -2 -2 -2 -2 -2 -2 -2 -2 -2 -2 -2 -2 -2 -2 6.6 11.5 14.7 21.4 24.7 30 36.4 44 53.8 64.5 77.6 90.6 104.3 121.2 136.8 154 172.4 189.4 200.1 206.7 211.5 217.6 223.9 226.9 228.9 228.5 224.8 220.1 214.2 209.7 208.7 209.9 212.7 214.8 218.5 216.1 213 210.3 207.1 205.3 208.2 209.3 213.8 224.5 223.6 223.8 226.5 227.8 231.9 241.4 246.6 248.9 253.2 252.9 246.2 240.8 243.6 246.1 246.3 244.8 241.3 239.5 238.8 242 252.5 267.8 274.7 279.9 284.1 290.7 308.8 333.5 339.8 337.2 331.6 324.4 321.1 318.9 315.2 305.5 300.4 297.6 291.2 283.5 283.4 290.5 306 313.7 309 303.7 298.2 293.7 286.8 275.8 270.7 262.7 252.7 245.5 243.3 245.1 238.9 228.2 208.7 200.1 193.8 191.5 202.8 197.9 189.9 190.4 198 196.5 194.3 189.1 183.2 177.6 173.7 173 168.4 159.3 152.1 145.7 148.2 152.9 151.6 150.8 149.6 152.8 153.4 159.9 167.8 167.5 159.6 152.3 142.5 132.8 125.1 114 104.4 88.4 72.5 54.3 28.4 -2 -2 -2 -2 -2 -2 -2 -2 -2
-2 -2 -2 -2 -2 -2 -2 -2 -2 -2 -2 -2 -2 -2 -2 -2 -2 -2 -2 -2 -2 -2 -2 -2 -2 -2 -2 -2 -2 -2 -2 -2 -2 -2 -2 -2 -2 -2 -2 -2 -2 -2 -2 -2 -2 -2 -2 -2 -2 6.9 13.4 19.1 24.4 29.5 33.8 42.2 49.9 57.2 70.2 85 96.4 108 123.8 139 157.4 182.7 196.7 206.9 214.3 219.2 226.2 232.3 236.8 236.2 233 231.8 228.2 224.8 224.2 226.1 227.6 229.8 227.5 225.1 221 218.4 217 213.7 214.2 215.7 225.4 233 230.1 229.7 230.7 238.8 242.1 256.4 258.5 257.1 255.9 254.6 252 248.7 252 255 252.6 250.3 247.6 242.9 242.8 254.7 261.9 269.1 274.5 282.9 285.2 292 304.2 318.2 344.1 340.3 334.4 325.1 318.7 316.7 312.7 308.7 302.4 295 288.3 294.1 316.2 333.9 330.1 323.1 314.8 314 306.6 295 288.7 281.2 274.1 267 257.4 252.3 249.7 240.5 233.3 221.9 212.8 211.2 198.9 199.7 209.2 197.5 194.7 198.5 203.8 202.1 194.4 188 184.8 184.3 182.1 180 170.1 162.6 156.3 161.9 167.6 162.7 160.8 160.8 164.8 170.3 173.3 185.3 187.5 180.9 170.4 161.7 150.5 139.9 131.2 119.4 102.8 88 69.2 53.9 42.2 25.2 -2 -2 -2 -2 -2 -2 -2 -2
-2 -2 -2 -2 -2 -2 -2 -2 -2 -2 -2 -2 -2 -2 -2 -2 -2 -2 -2 -2 -2 -2 -2 -2 -2 -2 -2 -2 -2 -2 -2 -2 -2 -2 -2 -2 -2 -2 -2 -2 -2 -2 -2 -2 -2 -2 -2 -2 -2 4.5 11.8 16.7 22.8 29.8 33.6 39.2 48.2 56.2 64.4 77.7 92.3 100.2 111.8 126.7 146 166.8 186.2 202.1 215.8 223.9 230 236.2 240.6 240.8 240.1 240.2 240.8 240.2 238.6 237.7 236.5 234.9 233.7 232.2 229.9 226.2 227.9 228.7 230.3 234.2 236.2 235.6 232.7 233.1 237.2 241.5 257.5 267.5 266 261.3 259 256 252.9 253.1 255.3 256.5 255.6 254.7 252.6 248.4 244.7 258.5 269.9 275.7 281.4 288.7 287.2 289.2 295.2 321.1 346.2 340.6 333.8 329.6 321.6 311.9 304.9 301.2 298.8 301 312.9 332.1 343.8 344.7 342.4 335.5 330.5 320.6 311.2 301.9 290.6 284.7 277.3 269.8 261.1 252.6 245.2 238.6 227.1 224.2 226.6 224.2 210.4 218 213.4 207.8 201.9 205.5 205.4 204.3 200.3 196.7 192.7 188.7 194.6 191.6 183.8 172.3 172.8 172.8 169 167.1 175.2 172.9 176.7 180.5 191.9 206 201.4 190.9 178.5 162.9 151.5 140.5 128.8 113.4 107.2 107.1 92.3 71.7 58.1 44.1 28.5 -2 -2 -2 -2 -2 -2 -2
-2 -2 -2 -2 -2 -2 -2 -2 -2 -2 -2 -2 -2 -2 -2 -2 -2 -2 -2 -2 -2 -2 -2 -2 -2 -2 -2 -2 -2 -2 -2 -2 -2 -2 -2 -2 -2 -2 -2 -2 -2 -2 -2 -2 -2 -2 -2 -2 -2 3.2 10 14.9 19.5 27.3 34.5 39 48.5 56.7 63.9 72.2 82.8 92.5 101.8 117.6 137.1 155.2 176.1 195.1 211.5 224.2 234.2 239.7 243.3 243.1 246.2 247.5 248.4 248 247 246.1 245.1 242.3 240.2 236.8 234.8 234 234.6 239.5 243.5 245.5 247.9 248.2 244.9 241.4 245 260 270.3 274.2 273 265 261.5 260.5 261.2 261.7 261.7 260 258.8 260.6 258.7 253.8 262.6 284.1 294.9 295.9 300.2 296.9 291 290.7 300.3 334.2 336 336 332 330.1 325.4 311.9 305.5 304 316 339.5 349.7 359.6 357.9 351.5 346 337.7 329.8 321.2 310.6 300.3 288.5 284.2 275.9 270.9 264.2 254.9 244.1 232.6 229.1 234.7 228.7 225.5 219.1 218.3 213.5 206.9 208.6 207 210.6 207.3 203.7 206 204.7 202.6 200.8 195.1 188.9 182.8 177 171.1 173.2 179.2 184.5 181 186.8 200.4 213.8 209.4 202.7 193.3 177.9 159.1 156 148.3 142.5 133.6 125.3 115.1 105.5 90.4 78.9 63.2 45.8 -2 -2 -2 -2 -2 -2 -2
-2 -2 -2 -2 -2 -2 -2 -2 -2 -2 -2 -2 -2 -2 -2 -2 -2 -2 -2 -2 -2 -2 -2 -2 -2 -2 -2 -2 -2 -2 -2 -2 -2 -2 -2 -2 -2 -2 -2 -2 -2 -2 -2 -2 -2 -2 -2 -2 -2 -2 7.3 13.9 18 23.9 30.7 37.2 46.6 56.7 64.8 74.2 81.9 90.3 99.9 110 127.7 150.3 169.8 188.6 207.8 221.8 232.2 238.3 243 246.6 249.1 251 252.1 251.7 253.2 254.1 251.7 249 247.1 244.9 241.2 239.9 245.5 248.7 250.4 251.5 252.8 254.8 251.6 251.3 258.2 269.3 276.9 278.1 283 288.4 288.1 283.8 283 286.1 284.2 280.8 278.3 278.6 270.4 277.5 292.1 304.6 306.7 310.1 307 300.8 296 299.5 311.9 327.8 330.8 332.7 333.5 330.6 324.2 317.3 315.4 328.6 361.6 379.8 374.4 370.1 362.7 354.7 344.4 338.1 331.9 322.5 306 296.8 285.5 278.6 273.5 268.1 261.2 254.2 239.5 234.1 239.9 236.6 230.4 225.2 219.2 214.1 216.5 219.8 216.3 209.3 210.4 209 209.5 206.7 207.2 208.3 202 191.7 188.6 184 183.9 180 182.2 186.7 189.3 192.5 205.8 215.8 219 209.1 203.3 197.3 189.2 186.6 175.7 171.8 159.8 153.8 143.6 130.2 118.5 104.9 85.6 70.5 51.7 33.1 -2 -2 -2 -2 -2 -2
-2 -2 -2 -2 -2 -2 -2 -2 -2 -2 -2 -2 -2 -2 -2 -2 -2 -2 -2 -2 -2 -2 -2 -2 -2 -2 -2 -2 -2 -2 -2 -2 -2 -2 -2 -2 -2 -2 -2 -2 -2 -2 -2 -2 -2 -2 -2 -2 -2 -2 -2 12.1 15.9 20.7 26.1 30.7 42.7 54.4 65.2 75 82.8 92.5 101.8 112.5 125.7 145.4 168.2 188.1 203.4 217.1 228.2 235 241.2 246.2 250.3 253.6 256.2 256.7 259.6 261.4 263.8 265.8 265.6 265.2 261.7 255.8 256.1 257.4 257 257 261.2 264.9 265.4 265.5 274.8 290.8 295.3 298.3 308.9 313.7 313 309.5 313.7 315.1 312.4 312.1 307 297.6 296.5 305.4 310.7 311.6 313 313.8 311.5 305.2 305.3 318.1 329.6 332.7 334.2 338.8 338.5 336.2 332.6 327.5 334.1 386.7 397.4 390.8 381.9 370.6 364.5 353.8 345.1 338 328.7 319.9 302.5 288.1 280.5 275.9 270.7 266.4 260.8 246.7 240.8 240.9 241.1 235.3 232.4 229.6 222.1 224 222.5 221.2 218.8 215 214.5 214.8 212.1 212.1 214.5 210.4 201.3 197.9 196.1 194 190.5 190 192.7 195.1 195 196.3 206.3 221.5 224.4 222.8 222.7 220.4 218 212.5 202.6 193.7 180 171.1 157.5 144.8 130.1 116 96.8 71.3 51.2 34.5 18 -2 -2 -2 -2 -2
-2 -2 -2 -2 -2 -2 -2 -2 -2 -2 -2 -2 -2 -2 -2 -2 -2 -2 -2 -2 -2 -2 -2 -2 -2 -2 -2 -2 -2 -2 -2 -2 -2 -2 -2 -2 -2 -2 -2 -2 -2 -2 -2 -2 -2 -2 -2 -2 -2 -2 -2 -2 12.2 15.9 25.5 29.5 38.1 47.2 61.7 75.1 86.1 96.1 107.3 116.2 128.2 143.4 166.2 182.4 199.9 210.8 218.3 225.2 232.2 243.5 248.6 255 258.6 260.9 264 264.8 267.8 270.9 275.1 277.6 278.4 277 278.2 276.4 275.9 276.4 274.2 275.3 277.4 283.9 295.5 307.4 318.3 328.2 334.7 337 337.9 336.5 345.9 348.3 345.8 343.2 340.7 338.4 337.4 337.8 336.8 333.2 325.6 326.4 323.4 319.4 320.9 327.8 339.9 350.1 356.4 357.6 346.7 339.1 335.4 349.4 392.3 407.4 401.9 395.2 386.8 377.4 363.6 356 344.8 337.3 322.7 308.8 296.9 283.2 279.4 273.3 264.3 260.9 255.1 246.4 245.1 241.7 234.7 231.1 226.8 222.3 218.5 223.7 226.6 223.9 222.5 221.1 219.6 214.8 218.9 221 218.7 213.1 205.8 204.5 202.9 199.4 196.7 197.3 200.2 204 205.6 212.4 223.6 234.8 240.8 245.4 248.3 242.2 235.3 226.3 214.9 201.9 192.6 181.5 167.1 154 137.8 118.6 97.8 87.2 66.9 42 18.9 -2 -2 -2 -2 -2
-2 -2 -2 -2 -2 -2 -2 -2 -2 -2 -2 -2 -2 -2 -2 -2 -2 -2 -2 -2 -2 -2 -2 -2 -2 -2 -2 -2 -2 -2 -2 -2 -2 -2 -2 -2 -2 -2 -2 -2 -2 -2 -2 -2 -2 -2 -2 -2 -2 -2 -2 -2 -2 10.8 16.7 26.4 33.5 41.6 56.2 70.9 86.6 98.7 111 122.1 132.4 145.5 159.6 178.7 190.9 202.2 213.4 220.5 227.6 236.9 247.2 254.2 260 264.8 266.4 267.1 269.2 271.5 272.8 276.7 280.6 284.8 288 291.1 294.3 297.5 299.1 299.3 302.8 310.2 317.2 326.2 340.4 358.8 373.1 374.4 368.2 371.3 380.6 387 382.5 377.4 375.2 377.9 373.5 363.5 360.3 366.2 368.7 366.6 361 348.3 344 352.4 370.6 378.2 370.6 363.1 360.1 350.7 347.5 370 411.4 414 405.8 399.4 387.2 375.2 362.9 351.7 340.3 329.7 314.8 301.9 292.4 284.4 278.2 273.4 270.9 262 252.8 250.8 244.9 240.7 237.5 227.7 225.5 223.2 229.3 231.6 232.6 231.2 224.4 220.9 218.6 226.1 231.8 228.9 223.9 219.7 218.1 213.6 212.7 209.5 207.4 209.2 216.5 218.1 224.8 229.1 232.4 258.1 261.7 258.8 256 249.5 242.2 229.1 215.1 204.3 194.7 181.1 172 157.6 139.4 122.6 105.1 84.7 63.8 44.1 22.4 -2 -2 -2 -2 -2
-2 -2 -2 -2 -2 -2 -2 -2 -2 -2 -2 -2 -2 -2 -2 -2 -2 -2 -2 -2 -2 -2 -2 -2 -2 -2 -2 -2 -2 -2 -2 -2 -2 -2 -2 -2 -2 -2 -2 -2 -2 -2 -2 -2 -2 -2 -2 -2 -2 -2 -2 -2 -2 -2 9.8 20.2 28.2 33.1 45.8 65.2 83.4 98.6 110 125.7 138.3 146.1 158.5 171.7 185.1 193.9 207.5 218.1 227.5 234.8 242.1 250.4 259.4 265.4 267.8 271.1 272.9 274.1 274.3 277.5 280.6 284.9 288.4 293.5 299 304.7 310.4 314.4 318.9 325.4 330.7 341.5 364 384.3 391 397.8 404.2 406.4 415.5 425.5 422.6 442.7 425.2 442.9 441.1 429.3 417.8 420.7 417.6 403.6 393.8 383 390.8 404.6 401.8 395.9 383 374.2 366.4 366.7 373.7 412.9 418.9 413.9 406.9 394.9 383.2 370.8 355.5 345.7 336.5 323.2 310.8 302.1 290.8 284.6 278.7 275.3 271.6 261.2 254.2 250.1 245.7 243.8 235.1 229.2 222.8 222.8 228.3 233.8 235.4 233.7 233.7 232.1 235 234.4 232.9 233.2 231.9 232.1 228.7 225.1 223.9 223.1 222.4 227 233.9 235.3 237 242.2 272 278 274.3 272.2 266.2 256.9 249.4 236.5 219.5 198.9 192 182.2 171.4 160.3 143.4 123.9 107.7 87.9 62.8 41.8 25.3 -2 -2 -2 -2 -2
-2 -2 -2 -2 -2 -2 -2 -2 -2 -2 -2 -2 -2 -2 -2 -2 -2 -2 -2 -2 -2 -2 -2 -2 -2 -2 -2 -2 -2 -2 -2 -2 -2 -2 -2 -2 -2 -2 -2 -2 -2 -2 -2 -2 -2 -2 -2 -2 -2 -2 -2 -2 -2 -2 -2 12.6 20.4 27.5 37.4 53.5 74.7 89.9 108.8 124.3 136.1 147.3 159.3 173.4 181.9 190.1 202.2 215.8 227.6 233.4 241.4 250.4 258.8 265.4 268.6 271.9 274.6 277.1 277.6 278.1 281.9 285.6 289.3 293.9 298.8 304 310.6 318.2 325.9 335.3 344 358.7 375 388.1 400.6 416.9 437 463.2 471 473.6 499.8 499.8 490.1 487 496.8 510.9 501 491.3 503.3 469.6 459.5 456.1 443.2 437.4 428.6 417 404 399.4 399.6 424.7 434 432.4 422.6 417.2 407.1 391.7 380.9 370.8 354.7 347.1 336.4 328.3 317.1 302.9 295.1 290.4 281.4 276.1 272.2 260.3 255.3 251.5 246.6 241 233.2 228.1 228.2 233.4 240.1 244.3 240.9 237 236.6 239.7 238.2 236.8 236.3 237.5 242.2 244.1 243.5 240 240.8 242.5 244.2 245.2 243.8 246.3 261.4 283.7 283.8 283.1 278.9 271.7 266.9 258 247.9 235.3 219.8 200.7 187.1 181 169.2 156.8 144.3 127.2 108.9 88.6 68.2 47.8 31.6 8.9 -2 -2 -2 -2
-2 -2 -2 -2 -2 -2 -2 -2 -2 -2 -2 -2 -2 -2 -2 -2 -2 -2 -2 -2 -2 -2 -2 -2 -2 -2 -2 -2 -2 -2 -2 -2 -2 -2 -2 -2 -2 -2 -2 -2 -2 -2 -2 -2 -2 -2 -2 -2 -2 -2 -2 -2 -2 -2 -2 -2 13.8 19.6 30.4 45.2 62.3 80.9 103 124.6 136.7 148.4 161.3 174.3 184.4 190.4 201.6 211.6 225.4 236.2 241.8 251.9 259.9 264.2 266.4 268.1 272.7 277.6 282.1 282.5 282.8 284.4 290.9 296.1 302.9 306.6 311.6 316.8 324.6 335.8 347.7 362.3 378.6 394 411.7 438.1 466.9 488 548.7 555.4 554.1 556.6 544.7 527.6 549.9 574.3 575.7 582 551.5 549.1 537.8 544 515.1 486.6 459.8 447.9 443.9 459.3 467.3 460.7 448.8 438.3 425.7 417.6 409.5 394.8 383.2 366.4 352.6 345.8 338.3 326.6 317.1 305.9 298.4 295.3 290.6 284.9 273 261.3 255 251.8 248.1 239.7 233.2 238.2 242.8 247.3 247.6 245.2 240.4 241 240.7 240.6 238.9 240.1 242.4 253.9 258.1 262.3 258.7 259 269 272.4 274.6 277.7 269.4 275.6 289.4 290.8 289 283.4 277.8 269.1 263.7 255.1 243.8 234.1 218.7 202.2 182 175.2 168.8 156.6 139.7 125.4 106.6 91.5 65.2 32.6 34.3 24.4 11.3 -2 -2 -2
-2 -2 -2 -2 -2 -2 -2 -2 -2 -2 -2 -2 -2 -2 -2 -2 -2 -2 -2 -2 -2 -2 -2 -2 -2 -2 -2 -2 -2 -2 -2 -2 -2 -2 -2 -2 -2 -2 -2 -2 -2 -2 -2 -2 -2 -2 -2 -2 -2 -2 -2 -2 -2 -2 -2 -2 -2 13.6 21.8 36.3 51.2 64.2 88.2 117.9 140 152 165.6 177.7 182.9 192.2 203.2 213.7 222.2 234.7 241.9 249.8 257.8 261.6 264.6 265.8 271.1 276 281.1 285.6 286.4 285.8 289.1 298.7 306.1 312.3 317.8 324.5 330.2 338.8 346.4 354.7 368.7 392.4 422.9 454.2 491.3 562.2 572.1 572.6 570.3 566.4 561.7 561.5 567.5 574.3 580 585.2 588.2 584.8 573.3 563.1 537.5 513.7 514.8 511.1 493 483.4 475.8 462.3 449.8 442.6 431.7 421.2 409.6 395.7 380.9 365.2 359.3 345.5 336 329.2 318.4 312.7 301.8 303.8 299.2 289.6 274.3 263.7 256.3 252.6 248 246.5 247.7 246.1 249.7 250.9 249.3 244.4 240.8 242.6 247.2 245.7 243.9 245.5 258.7 264.8 263.7 266.5 286.2 293.8 296.8 296.2 293.1 293 293.2 292 291.3 291 288.2 283.1 276.3 263.2 255.7 250.2 236.3 226.5 215.1 197.9 182.2 168.1 163.7 155.6 137.9 122.7 97.3 97 87.4 68.4 55.3 40.1 27.4 12.7 -2 -2
-2 -2 -2 -2 -2 -2 -2 -2 -2 -2 -2 -2 -2 -2 -2 -2 -2 -2 -2 -2 -2 -2 -2 -2 -2 -2 -2 -2 -2 -2 -2 -2 -2 -2 -2 -2 -2 -2 -2 -2 -2 -2 -2 -2 -2 -2 -2 -2 -2 -2 -2 -2 -2 -2 -2 -2 -2 -2 15.8 26.6 37.4 51.2 71.7 99.4 140 153.2 172 179.2 185.8 189.7 206.6 211.9 218.6 230.5 240.6 248.8 254.6 258.6 261.8 265.7 271.1 277.5 280.1 283.2 288.9 290.3 292.7 298 308.9 315.7 320.6 325.4 332.1 338 342.5 349.1 359.8 382.9 416.9 454.1 513.6 554.2 557.2 554.3 550.9 547.3 548.1 552 553.7 558.4 563 568.4 573.9 581.8 579.9 579.3 577.9 566.1 547.8 525.3 509.4 505 490.1 468.5 445.5 441.1 430.5 419.8 407.4 395.8 381.9 372.1 364.4 351.1 336.7 326.6 321.4 315.2 312.5 310.1 303.5 290.5 276.8 264.4 259.9 255.7 249.9 251.8 250.8 254.1 253.8 252.4 249.3 245.5 245 250.4 249.3 245.3 245.7 264.1 268.4 271.6 273.4 302.1 303.9 305.1 306.5 301.7 300.6 298.9 298.3 295.1 291.1 287.5 284.3 274.7 263.5 254.7 247.9 240.3 231.1 217.6 205.1 195 179 163.8 156.9 137.4 130.9 141.3 130.7 115.7 103.8 88.3 72.5 51.6 41 24.8 -2 -2
-2 -2 -2 -2 -2 -2 -2 -2 -2 -2 -2 -2 -2 -2 -2 -2 -2 -2 -2 -2 -2 -2 -2 -2 -2 -2 -2 -2 -2 -2 -2 -2 -2 -2 -2 -2 -2 -2 -2 -2 -2 -2 -2 -2 -2 -2 -2 -2 -2 -2 -2 -2 -2 -2 -2 -2 -2 -2 9.2 18.5 28.3 37.8 57.2 84 130.1 156.3 170.3 175.4 180.4 185.4 203.2 209.3 217.3 225.7 235.7 245.8 254.9 258.6 260.9 266.6 275.9 279.4 282.8 285.1 288.1 291.7 295.5 300.5 306.5 315 319.3 321.8 327.4 334.2 337.7 343 356.7 382 410.9 448.4 511.5 534.9 535.7 531.9 531.7 532.8 535.6 541.3 545.9 550 552.1 554.6 560.4 569.6 584.9 589.2 584.2 570.6 548.9 528.6 515.3 504.8 486.1 466.2 452.9 439.9 430.2 419.3 406.9 396 381.3 372.7 363.5 357 341.6 327.2 321.9 321.9 324.2 319.5 311.4 292 281.5 271.2 263 259.6 254.6 255.4 255.8 255.6 255.3 252.2 249 245.6 246.8 250.2 247.4 246.3 258.1 269.2 277.4 288.6 292.4 310.9 311.7 307.7 307.5 309.3 305.6 302 297.1 292.2 288.6 281.1 274.8 262.5 253.5 248.4 237.8 232 224.9 214 207.4 189.9 174.2 154.1 153.9 160.4 155.5 151.1 138.7 126.4 108.5 91.5 76.7 59.6 42.3 28.1 15.9 -2
-2 -2 -2 -2 -2 -2 -2 -2 -2 -2 -2 -2 -2 -2 -2 -2 -2 -2 -2 -2 -2 -2 -2 -2 -2 -2 -2 -2 -2 -2 -2 -2 -2 -2 -2 -2 -2 -2 -2 -2 -2 -2 -2 -2 -2 -2 -2 -2 -2 -2 -2 -2 -2 -2 -2 -2 -2 -2 -2 8.9 15.2 25.8 37.6 68.2 114.1 153.3 166.4 172.4 172.8 180.2 190.4 204.3 212.5 221.8 229.7 238.9 249.6 257.5 261.3 268 273.1 275.2 282.7 285.3 287.6 290 296.1 300.4 305.8 313.7 319.2 321.6 323.5 327.2 330.7 337.8 352.6 376.2 406.5 441.4 482 502.3 507.9 511.7 515.4 517.9 523.2 530.9 538.3 542.4 545.2 550.2 557.6 566.5 585.1 594.6 584.8 569.5 553.4 536.2 517.6 499.5 477 466.2 457.1 446.3 435.1 422.4 404.9 391.6 378.1 370.1 364.4 357.3 348.4 334.7 331.2 328.6 324.7 321 314.3 296.4 286.9 276.1 267.6 260.4 260.6 261.3 259.1 258.2 256.6 252.3 249.1 248.7 246.5 250.7 258.6 265.4 276.5 279.2 293.4 309.5 315.8 313.8 311.5 312.3 307.9 304.3 301.3 296.7 291.8 286.4 282.3 276.1 267.5 256.7 245.8 240.9 233.1 226.3 219 209 203.9 186.1 175.3 178.3 178.4 169.4 162.3 153.8 142.8 126.6 108.9 97.7 76.5 61.3 44.8 31 18.9 -2
-2 -2 -2 -2 -2 -2 -2 -2 -2 -2 -2 -2 -2 -2 -2 -2 -2 -2 -2 -2 -2 -2 -2 -2 -2 -2 -2 -2 -2 -2 -2 -2 -2 -2 -2 -2 -2 -2 -2 -2 -2 -2 -2 -2 -2 -2 -2 -2 -2 -2 -2 -2 -2 -2 -2 -2 -2 -2 -2 -2 7.5 13.8 25.7 50.1 94 141 158.9 166.7 172.1 177.4 183.2 193 205.2 210.4 221.2 227 239 250.6 260 263.6 268.4 272.5 278.4 284.1 285.8 287.9 295.4 299.8 304.5 310.2 315.9 318.7 320.4 322.1 325.1 332.3 344.6 367 395.3 425 452.4 469.3 482.9 490.9 501.2 508.1 516.1 527.4 535.4 541.9 548.2 553.6 558.4 564.2 580.3 586.7 579.9 565.7 551.1 537.7 520.4 502.3 477.5 469.6 458.5 451.5 439 424 409.4 394.8 385 376.3 364.4 356.8 348.1 340 340 336.2 330.7 324.5 312.4 299.8 289.1 279.4 271 266.8 262.7 264.3 262.6 261.2 258.3 253 250.2 250.2 255.5 266.8 270.4 281.9 289.3 305.4 318.9 317.8 319.6 316.7 312.2 305.5 301.5 298.2 294.7 289.3 284.4 279.9 274.8 268.5 259.9 248.4 242.2 233.1 225.9 219.4 214.6 206.2 209 205.4 198.7 190.1 177.5 170.5 162.4 155.3 141.4 126.4 106.2 92.8 78.6 64.1 49.9 38.6 23.6 -2
-2 -2 -2 -2 -2 -2 -2 -2 -2 -2 -2 -2 -2 -2 -2 -2 -2 -2 -2 -2 -2 -2 -2 -2 -2 -2 -2 -2 -2 -2 -2 -2 -2 -2 -2 -2 -2 -2 -2 -2 -2 -2 -2 -2 -2 -2 -2 -2 -2 -2 -2 -2 -2 -2 -2 -2 -2 -2 -2 -2 -2 8.2 17.1 40.1 66.1 103.5 148.5 159.7 168.2 172.7 178.7 187.2 197.7 201.4 206.4 217.9 227.4 240.2 251.7 260.4 263.7 268 273.2 278.8 285.5 290 293.3 298.1 300.2 305.6 310.2 314.5 317.1 319.3 322.5 326.5 336.3 356.3 381.1 402.5 422.7 441.5 460.9 477.6 490.4 502.3 511.1 522.4 532.7 539.9 547.7 553.6 555.9 561.8 580.8 584.5 576 563.5 552.6 538.2 522.7 508.6 492.7 468.6 459.3 451.1 439.7 424.9 410.5 398.9 386 376.4 365.1 356.3 349.3 345.6 343.9 339.1 332 321.7 309 299.1 290.6 283.1 276.3 272.5 268.5 267 265.8 264 259.4 253.5 256.1 261 266 274 285.5 299 311.9 315.4 317 316.4 315.8 313.1 307.7 301.3 295.5 290.5 284.6 281.8 274.1 270.3 265.8 257.6 249.8 243.5 231.2 221.7 215.1 213.9 217.1 214.2 209.5 201.9 197.9 187.7 179.3 164.2 157.5 149.7 137.4 122.5 106 94.1 78.4 66 50 38.4 30.3 18.2
-2 -2 -2 -2 -2 -2 -2 -2 -2 -2 -2 -2 -2 -2 -2 -2 -2 -2 -2 -2 -2 -2 -2 -2 -2 -2 -2 -2 -2 -2 -2 -2 -2 -2 -2 -2 -2 -2 -2 -2 -2 -2 -2 -2 -2 -2 -2 -2 -2 -2 -2 -2 -2 -2 -2 -2 -2 -2 -2 -2 -2 -2 10.9 26.3 51.1 81.8 127.2 152.2 160.2 166.4 172.5 182 189.3 194 198.5 203.8 214.4 228.9 244.2 254 260.6 265.3 268.9 272.7 287 291.4 291.2 292.8 297.1 300 303.9 309 314.6 317.8 319.8 323.7 331.8 347.6 367 383.7 402 421.8 444.2 467.5 483.4 493.4 505.2 521.5 537.3 544.6 547.6 550.6 553.8 568.5 590 585.9 575.1 564.5 552.8 543.7 528.9 513.8 497.4 480 460.9 450.8 436.2 422.1 410.7 396.8 386.2 376.2 367.8 360.1 353.7 350.3 348.2 338.8 331.8 321.4 304.5 297.4 291.7 288.1 282.8 275.3 274 270.4 268.1 267.6 263.1 263.1 267.6 272.7 280.3 289 307.6 319.2 321.4 319.3 322.9 318.4 310.6 306.7 299.2 292.7 288 282 277.1 271.4 265.3 257.4 254 245.9 239.9 231.1 223.5 222.6 224.3 222.6 216 212.2 207 196.8 189.3 183.2 173.6 165.4 151.2 144.8 135.6 123.5 107.7 97.4 78.6 62.4 55 44.8 36.9 29.3
-2 -2 -2 -2 -2 -2 -2 -2 -2 -2 -2 -2 -2 -2 -2 -2 -2 -2 -2 -2 -2 -2 -2 -2 -2 -2 -2 -2 -2 -2 -2 -2 -2 -2 -2 -2 -2 -2 -2 -2 -2 -2 -2 -2 -2 -2 -2 -2 -2 -2 -2 -2 -2 -2 -2 -2 -2 -2 -2 -2 -2 -2 -2 12.8 34 62.7 103 136.4 151.2 158 166.2 177.5 184.4 187.7 192.2 202.7 212 226.3 239.2 247.2 256.2 265.4 268 273.2 286.3 288.3 289.8 289.7 291.7 295.4 298.4 302.5 310.9 316.1 319 320.8 329 338.9 356.2 371.4 393.3 416.8 440.3 464.4 479.8 490.7 504.4 525.4 539.6 543.1 544.7 550.7 559.6 581.6 592.7 587.9 578.6 567.2 555.5 547.6 532.5 512.6 499.9 484.3 468.4 449.2 432 418.2 405.4 395.3 386 381.3 372.9 364.4 356.2 351.4 346.5 338.8 331.1 320.9 306.9 298.5 297.8 291.6 287 283.7 284.1 277.4 272.8 271.6 272.6 282 284.1 289.6 290.4 307.5 317.9 329.5 329.4 327 321.4 314.7 306.5 298.4 292.3 280.9 277.5 274.4 268.8 261.5 251.9 246.6 241.7 236.8 240.1 237 234.5 230.9 225.5 221.5 217.4 210 203.6 196.9 184.4 177.5 171.6 163 154.1 144.9 132.5 123.4 110.6 98.9 82.4 72 64.5 55.9 42.3 31.3
-2 -2 -2 -2 -2 -2 -2 -2 -2 -2 -2 -2 -2 -2 -2 -2 -2 -2 -2 -2 -2 -2 -2 -2 -2 -2 -2 -2 -2 -2 -2 -2 -2 -2 -2 -2 -2 -2 -2 -2 -2 -2 -2 -2 -2 -2 -2 -2 -2 -2 -2 -2 -2 -2 -2 -2 -2 -2 -2 -2 -2 -2 -2 2.4 23.8 48.3 81.1 107 128.4 142.6 156.3 167.9 172.4 181 191.8 201.2 211.1 227.7 235.4 245.2 255.8 261.1 267.9 277.2 280.4 284.1 288.8 289.6 290.4 291.7 295.4 299.1 306.4 310.4 315 320.9 326.6 335.2 350 370.3 390 417.4 444.7 466.9 483.4 494.8 510.9 531.2 542.6 543.8 549.7 561.2 580 600.2 600 592.1 583.6 573.1 560.3 546.7 531 510.2 499.5 483.4 467.2 445.7 426.4 414.3 401.6 395 388.1 379.6 373.6 366.8 359.6 352.6 346.5 337.7 329.3 318.2 311.6 304.2 299.5 294.9 289.1 289.7 289.2 280.1 279.4 288.1 289.9 294.9 297 299.7 307.2 324.9 329.3 330.8 324.9 320 315.3 305.1 298.1 291.1 277.7 271.6 268.9 262.7 259.3 255.4 244.1 237.5 236.2 241.5 242.6 236.8 231.8 226.7 222.6 217.8 212.5 206.5 199 192.1 184.3 173 166.9 161.8 153.1 144.6 136 121.9 111 102.2 89.1 79.7 74.2 70.6 54.4 41.8
5.7 2.3 -2 -2 -2 -2 -2 -2 -2 -2 -2 -2 -2 -2 -2 -2 -2 -2 -2 -2 -2 -2 -2 -2 -2 -2 -2 -2 -2 -2 -2 -2 -2 -2 -2 -2 -2 -2 -2 -2 -2 -2 -2 -2 -2 -2 -2 -2 -2 -2 -2 -2 -2 -2 -2 -2 -2 -2 -2 -2 -2 -2 -2 -2 13.1 29.8 54.2 79.2 98.6 122.6 139.6 154.8 172.3 187.2 196.8 202.4 210.2 226 230.1 241.5 250.9 261.1 269.2 276 279.2 284.2 285.9 289.5 295.4 292.2 295.4 298.1 301.6 304.2 312.8 317.7 324.5 331.2 345.5 368 396.1 426.3 457.5 478.1 493.1 507.1 528.4 546.9 559.7 561.4 569.8 584.8 606.7 610.7 606.2 595.8 583 569.8 556.6 542.9 522.4 505.8 491.8 475.3 456.4 437.5 421.1 408.4 400.7 395.9 388 379 371.7 366.1 360.7 355.3 344.8 337.3 327.7 320.5 314.2 305.8 300.5 298.6 295.6 295.8 289.7 289.6 290.7 303.4 304.2 303.7 314.5 316.9 329.5 335.2 333.2 326.5 320.7 316.8 309.9 300.6 293.4 285.5 270.2 265.2 259.9 253.6 251.2 251.3 248.8 242.7 239.4 242.7 238.8 235.6 230.4 223.8 218.6 213.8 207 201.2 194.1 188.4 181.7 175.2 168 161.6 156.8 148.8 134.7 124.8 115.2 104.7 98.5 90.6 79.3 68.1 58.5 47.9
19.8 11.6 6.4 1.4 -2 -2 -2 -2 -2 -2 -2 -2 -2 -2 -2 -2 -2 -2 -2 -2 -2 -2 -2 -2 -2 -2 -2 -2 -2 -2 -2 -2 -2 -2 -2 -2 -2 -2 -2 -2 -2 -2 -2 -2 -2 -2 -2 -2 -2 -2 -2 -2 -2 -2 -2 -2 -2 -2 -2 -2 -2 -2 -2 -2 -2 16.5 31.2 50.9 75.8 95.8 115.5 137.3 171.7 185.9 200.1 200.8 206.2 221.9 229.4 236.1 244.3 257 263.5 272.7 278.8 281.4 285.3 293.7 295.9 295.7 296.3 296.6 296.5 301.7 308.1 314.1 320.4 331.4 350.4 378.2 408 440.9 482.4 506.6 517.2 539.2 557.1 572.5 577.4 585 600.7 622.4 625.4 612.9 602.5 591.3 576.2 561.4 547.9 527.8 506.6 493.1 476.1 460 443.3 430.5 415.3 405.7 398.9 392.9 384.1 377.1 369.9 365 358.4 351.4 342.9 337.7 330.7 321 314.4 308.8 303.5 302.5 305.3 303.1 300.1 300.9 310.5 319.1 319.6 329.3 338.8 341.7 344.4 343 335.6 326.6 317.5 310.3 303.1 292.6 285 279.3 266.7 260 259 254.7 252.5 251.8 248.1 242 240.6 240.8 239.3 235.7 230.9 225.1 218.9 213.7 207.6 200.4 195.7 188.7 181.5 176.5 169 160 154.7 148.9 139 123.3 122.3 119.7 111.2 98.2 86.4 75.4 63.3 53.6
31.5 24 13.7 7.2 2.8 0.7 -2 -2 -2 -2 -2 -2 -2 -2 -2 -2 -2 -2 -2 -2 -2 -2 -2 -2 -2 -2 -2 -2 -2 -2 -2 -2 -2 -2 -2 -2 -2 -2 -2 -2 -2 -2 -2 -2 -2 -2 -2 -2 -2 -2 -2 -2 -2 -2 -2 -2 -2 -2 -2 -2 -2 -2 -2 -2 -2 -2 18.4 31.6 53.8 69.2 90.2 115.1 154.1 181.5 193.8 200.5 201.5 214.4 225.5 235.4 244.1 252.3 264.1 272.3 274.2 280.4 287.3 290.1 292.1 292.6 293.6 293.9 293.6 297.3 306.4 311.3 320 335.6 365.3 392.1 422.6 474.2 516.3 543.2 551.9 570.4 584.8 583 592.4 613.7 631.5 627.5 615.9 604.8 591.5 575.6 560.5 541.8 523.1 507.3 490.9 476.4 462 447 433.6 420.2 410.4 402.8 396.9 390.9 383 375.1 369.1 364 357.2 350.6 343.3 337 330.1 324.2 318.6 311.9 310.2 311.1 310.6 309.5 311.6 320.5 329.2 337.7 343.2 357.2 356.2 356 350.6 342.8 332.1 324.3 315.2 307.8 298.8 289.3 281.2 275.2 270.8 267 258.3 253.5 253.7 250.7 246.8 243 245.6 242.4 241.1 236.5 230.9 225.7 221.1 216.2 208.4 201.3 195.6 189.7 181.1 175.5 173.1 162.8 155.1 148.9 135.4 134.3 133.8 124.4 115.6 106.7 96 82.8 72.7 63.9
40.2 34.2 25.3 17.6 12.5 6 -2 -2 -2 -2 -2 -2 -2 -2 -2 -2 -2 -2 -2 -2 -2 -2 -2 -2 -2 -2 -2 -2 -2 -2 -2 -2 -2 -2 -2 -2 -2 -2 -2 -2 -2 -2 -2 -2 -2 -2 -2 -2 -2 -2 -2 -2 -2 -2 -2 -2 -2 -2 -2 -2 -2 -2 -2 -2 -2 -2 4.7 24.2 36.2 55.7 73.9 94.9 131.3 167.2 181.3 197 197.3 212.3 223.2 234.8 243.6 248.9 261.3 267.3 271.3 278.4 283.4 287.2 287.5 286.1 289 290.1 292.1 299.1 308.3 314.2 323.5 344.1 375.4 415.3 457.7 501.8 531.5 558.8 569 575.3 572.6 576.3 597.2 604.7 602.7 597.1 591.9 583.1 569.3 551.5 534.5 518.6 505.1 491.8 478.4 462.7 448.5 435.8 421.9 413.9 407.1 399 393.1 388.4 380.4 374.4 370.5 362.6 356.1 351.1 347 340.5 334.2 327.3 320.7 315.9 318 317.9 317.3 324.4 329 333 345.3 355 370.5 374.7 375.3 374 361.1 347 336.1 324.8 318.1 309.2 301.7 294.9 283.1 274.6 271.9 265.7 262.7 256.1 260.9 256.2 254 250.2 247.9 243.3 240.9 236.4 232.1 227.5 222.9 216.5 209.1 200.8 195.5 187.4 181.3 176.3 170.9 164.2 158.2 151.5 146 140.2 131.9 126.5 119.8 110.9 102 94.3 80.1 68.1
49.4 42.9 37.1 30 24.6 17 10.2 1.3 -2 -2 -2 -2 -2 -2 -2 -2 -2 -2 -2 -2 -2 -2 -2 -2 -2 -2 -2 -2 -2 -2 -2 -2 -2 -2 -2 -2 -2 -2 -2 -2 -2 -2 -2 -2 -2 -2 -2 -2 -2 -2 -2 -2 -2 -2 -2 -2 -2 -2 -2 -2 -2 -2 -2 -2 -2 -2 -2 14.1 28.6 43.8 62.2 84.1 115.6 143.8 164.2 183.2 189.3 198.4 218.9 234.3 241.5 247.8 254.4 264.2 268.4 275.6 279.7 283.4 283.2 283 288 292.1 296.8 305 311.8 324.1 339.8 361.9 404.3 428 470.9 507 525.7 536 543.8 545.9 546.6 554.8 568.6 572.5 572.1 566.7 562.9 553.6 540.6 526.5 511.9 497.9 485.3 476.1 463.3 451 436.7 425 417.5 409.1 403.5 397.7 390.6 384.7 381.1 374.9 370.1 364.9 358.4 353.1 348.8 342 333.7 328.6 323.8 318.4 321.1 326 326.8 334.3 336.4 344.9 356.2 366.3 378.1 384.2 385.2 376.5 367.2 354 342.7 328.6 329.7 326.4 309.3 299.8 290.3 278.5 273.9 272.3 271.3 266.5 265.6 260.2 256.3 252.1 247.3 245.4 241.6 238.5 236.2 232.6 228.3 220.1 211.9 201 193.3 188.5 182.7 179.5 172.5 168.9 161.1 155.9 150.9 140.1 132.9 128.2 120.9 113.1 107 95.5 86.1 74.5
53.1 50.5 42.3 41 37.4 29.2 22.7 17.6 6 1.5 -2 -2 -2 -2 -2 -2 -2 -2 -2 -2 -2 -2 -2 -2 -2 -2 -2 -2 -2 -2 -2 -2 -2 -2 -2 -2 -2 -2 -2 -2 -2 -2 -2 -2 -2 -2 -2 -2 -2 -2 -2 -2 -2 -2 -2 -2 -2 -2 -2 -2 -2 -2 -2 -2 -2 -2 -2 8.1 26.4 35.2 51.9 72.7 98.5 123.5 148 161.7 172.7 189.4 214.4 227.2 236.3 242 247.4 258.8 265.4 271.9 275.8 278.8 284.3 285.8 288.2 293.7 300.3 304.8 312.2 332.2 355.4 391.1 415 432.7 470 494.3 510.2 516.4 517.7 516.2 519.4 523.1 535.5 538.6 539.9 541.7 537.4 522 505.1 496.2 479.1 474.2 467 457.1 443.8 435.7 427.9 419.3 408.1 403 401 395.7 389.7 384.1 379.7 373.8 369 363.2 358.6 353.2 347.1 339.1 335.2 330.5 325.1 324.8 333.1 334.7 335.7 342.7 348.2 355.6 361.7 363.8 371.3 378.7 380.5 378.3 375.4 364.6 353.4 362.9 351 335.9 321.3 307.7 297.8 291.7 285 275.7 274.7 269.8 267.8 262.4 256.9 253.6 248.9 247.9 244.6 240.3 237.7 234.5 229.8 221.8 213.7 205.3 193.1 188.9 184 181.5 178.7 170.2 166.9 160.4 155.1 147.8 143.6 134.1 121.4 114.9 104.9 96.8 86.1 68.5
57 55.5 51.6 51 45 40 35.5 30.6 24.7 16.7 8.7 1.3 -2 -2 -2 -2 -2 -2 -2 -2 -2 -2 -2 -2 -2 -2 -2 -2 -2 -2 -2 -2 -2 -2 -2 -2 -2 -2 -2 -2 -2 -2 -2 -2 -2 -2 -2 -2 -2 -2 -2 -2 -2 -2 -2 -2 -2 -2 -2 -2 -2 -2 -2 -2 -2 -2 -2 -2 23.3 30.8 41.4 60.8 79.1 107.7 129.2 153.6 173.8 184.4 209.1 216.8 229.4 234.8 241.3 249.8 257.6 267.7 275 280.7 283.2 287.3 292.4 295.5 298.1 303.6 318.7 363.7 369.8 394.8 412.1 433.5 451.7 468.9 476.5 484.3 485.2 489.9 489.9 491.1 494.8 498.7 495.9 501.5 495.3 479.6 462.7 455.9 452.1 452.1 448.9 433.2 428.9 421.3 414.1 407.4 401.2 399.6 393.8 390.5 387.8 382.7 378.3 373 366.3 362.9 359 352.6 346.9 341.5 336.5 330.6 328 330.4 337.1 341.2 347.3 351.2 354 359.9 360.9 359.6 368.8 376.8 378.4 385 392.2 387.7 395 379.7 360.3 349.4 334.4 321.2 315.6 309.1 294 284.6 276.4 276.2 271.2 270.9 263.6 258.1 254.2 249.5 246.8 244.9 241.1 237.3 230.4 221.9 214.2 204.5 197.1 193.6 189.7 184.9 178 171.5 169.1 161.7 154.7 146.6 139.9 132.4 119.9 111.9 109.9 104.9 95.9 102.9
62.6 59.9 57.1 55 53.4 48.1 44 42.6 37.9 28.5 24 14.5 4.8 -2 -2 -2 -2 -2 -2 -2 -2 -2 -2 -2 -2 -2 -2 -2 -2 -2 -2 -2 -2 -2 -2 -2 -2 -2 -2 -2 -2 -2 -2 -2 -2 -2 -2 -2 -2 -2 -2 -2 -2 -2 -2 -2 -2 -2 -2 -2 -2 -2 -2 -2 -2 -2 -2 -2 10.9 31.4 35.8 50.6 65.6 92.2 119.7 142.5 168.8 179.8 190.3 208.7 221.7 231.4 234.5 245.3 251.8 262.1 275.5 281.6 286.1 292.3 296.6 300.3 299.3 308 322.4 359.6 373.7 391 402.5 410.4 428.8 436.3 441.4 450.9 458.6 463.1 464.5 460.5 459.2 461.6 459.6 456.5 446.7 439.5 425.1 418.6 416.6 417.9 423.3 413.6 407.6 407.1 401.8 399.7 396.3 393.8 390.8 389 385.4 380.2 376.7 371.4 366.1 363 357.6 351.6 347.8 345 338.6 334.1 329.2 340.4 342.7 346.3 348.3 348.3 350.6 351.4 354.3 358.8 376 389.2 396.3 403.3 433.3 425 413.3 396.7 379.9 365.1 346.9 335.7 332.4 323.6 310.3 295.9 281.5 277 279.9 272.5 265 258.3 256.2 253.6 254.7 250.8 246.9 240.2 232.4 224.7 213.8 209.2 202.1 198.4 194.5 188 181.1 177.1 170.3 162.1 152.8 145.4 137 127.3 134.3 131.5 121.4 118 114.5 118.8
66.4 64.1 60.2 59.7 56.9 55.2 50.8 50.7 48.5 42.2 36.4 29.9 19.8 7.9 -2 -2 -2 -2 -2 -2 -2 -2 -2 -2 -2 -2 -2 -2 -2 -2 -2 -2 -2 -2 -2 -2 -2 -2 -2 -2 -2 -2 -2 -2 -2 -2 -2 -2 -2 -2 -2 -2 -2 -2 -2 -2 -2 -2 -2 -2 -2 -2 -2 -2 -2 -2 -2 -2 -2 18.7 32.8 42.7 59 82.1 104.9 124.1 157.6 167.8 171.6 187.8 207.5 223.2 233.9 242.4 249.1 260.2 270.3 281.6 294.4 295.8 296.5 296.8 298 303.8 320 334.3 365.4 372.9 381.6 390.2 401.3 413 426.2 430.8 431.9 435.7 439.6 437.3 436.2 436.3 435.6 428.1 421.3 411.5 407.2 401.7 400.4 400.1 399 395.8 403.1 399.5 399.3 395 391.9 390.6 388.6 386.8 381.7 377.9 375 371.1 366 360.3 356.5 351.9 348.8 345.6 342.2 335.5 337.9 342.1 343.6 346.7 347.6 349.5 350.3 351.9 354.6 367.8 384.5 402.3 408 428.5 441.5 434.1 420.3 407.9 388.6 373.6 367 359.2 354.3 341.9 324.5 313.2 296.3 286.9 282.1 276.3 269.5 266.1 271.4 269.9 263.4 255.2 249.7 242.7 234.8 228.2 220.4 214.5 205.2 199.4 197.2 190.1 183.4 179.1 172.7 165.2 159.9 148.2 138.3 148.9 148.7 139 129.8 124.2 123.6 127
69.9 68.1 65.2 62.6 61.4 58.6 56.4 56.4 51.1 53.6 49.4 41.8 33.2 23.9 13.5 -2 -2 -2 -2 -2 -2 -2 -2 -2 -2 -2 -2 -2 -2 -2 -2 -2 -2 -2 -2 -2 -2 -2 -2 -2 -2 -2 -2 -2 -2 -2 -2 -2 -2 -2 -2 -2 -2 -2 -2 -2 -2 -2 -2 -2 -2 -2 -2 -2 -2 -2 -2 -2 -2 -2 28 38.2 51.3 69.6 90.6 112.2 140.9 150.5 159 188.5 199.7 214.2 229.1 242.6 248.6 259.1 271.3 283.3 289.9 293.7 294 295.8 297 297.9 301.7 322.1 341 348.2 360.5 372.9 381.2 394.2 407.9 417.6 421 429.1 428.6 421.8 422.2 421.5 415 410.2 407.9 404.9 401.7 399.5 399.8 398.4 393.9 388.2 384.7 382.8 383.4 384.4 388.9 388.3 384.1 381.8 379.3 377.3 374.4 368.6 364.1 359.8 358.2 353.2 349.9 346.2 343.4 342.2 344.9 345.6 346.3 347.4 353.7 353.9 358.1 360.6 365.9 377.3 397.7 404.8 413.7 445.5 446.9 438.8 429.2 413.1 409.4 397.8 383.7 376.8 366.6 354.8 340.6 330 320.7 300.2 291.8 283.1 277.4 290.5 284.2 276.9 271.3 264.5 257.4 250 241.9 230.5 228.1 221 210.6 206.4 197.2 190 182.3 177.2 174.5 166.3 157.9 152.3 159.3 158.7 153.3 147 138.6 133 133.1 134
72.9 70.8 68.4 66.3 63.8 61.6 59.9 59.3 53.8 57.4 53.5 45.9 39.4 36.5 30.2 19.5 7 -2 -2 -2 -2 -2 -2 -2 -2 -2 -2 -2 -2 -2 -2 -2 -2 -2 -2 -2 -2 -2 -2 -2 -2 -2 -2 -2 -2 -2 -2 -2 -2 -2 -2 -2 -2 -2 -2 -2 -2 -2 -2 -2 -2 -2 -2 -2 -2 -2 -2 -2 -2 -2 20.7 32.3 44.7 61.2 75.6 98.4 125.7 141.6 155.4 180.5 197 201 222.3 235.7 247 257.2 269.7 276.7 282.1 283.1 287.6 292.2 294.8 296.5 298.2 320.6 332.3 337.6 339.4 348.8 363 382.1 402.5 409 407.2 409 410.8 414.8 412.6 408.6 405.8 401.9 399.3 401.2 404 399.4 398.9 395.6 392 384.4 377.3 380.2 381 381.5 386.7 383.4 380.9 379.5 378 378.6 374.8 371.6 369.2 362.6 360.9 359.6 355.6 348 348 346 348.9 350.4 353.1 358.2 360.2 364.2 365.5 370 381.6 398.3 409.8 422.7 437 453.1 451.1 444.6 437 430.2 417.9 407.4 396.7 386.9 375.4 360.5 344.5 344.4 329.4 316.7 303 298.7 298.7 297.1 289.7 283.6 278.2 269 261.5 253.6 242.8 236.4 227.6 222.4 212.1 202.2 196.9 188.3 182.1 174 172.8 168.5 165.4 167.2 165.2 163 158.1 150.5 140.9 141.4 137.8 135.2
76 73.9 71.4 68.9 67.2 64.6 62.5 60.8 60.3 60.5 57.8 54.4 48.5 45.5 41 33.3 22.4 9.8 -2 -2 -2 -2 -2 -2 -2 -2 -2 -2 -2 -2 -2 -2 -2 -2 -2 -2 -2 -2 -2 -2 -2 -2 -2 -2 -2 -2 -2 -2 -2 -2 -2 -2 -2 -2 -2 -2 -2 -2 -2 -2 -2 -2 -2 -2 -2 -2 -2 -2 -2 -2 12.2 28.4 38.8 53 67.2 87.8 114.5 135.6 160.1 173.4 191.5 204.7 219.7 234.8 251.6 256.8 263.9 265.1 267 271 276.2 283.4 293.4 294 292.2 302.2 315.5 322.3 329.5 335 347.6 366.1 385 388.3 391.7 395.6 398.9 404.4 407.6 403.6 398 391.4 392.1 392.1 397.5 390.8 381.3 386.4 387.2 374.4 374.3 374.3 377 378.3 380.3 379.8 379.5 378.5 381.3 378.8 376.2 374.3 371.4 365.7 363.3 363.3 356.3 355.5 354.9 352.4 352 357.8 362.7 369.1 367.1 373.3 375.7 381.7 401 409.3 423.5 439.1 447.1 450 449.5 453.9 446.5 436.1 426 411.9 399.2 389.8 377.7 362.3 359.7 351.4 340.1 328.7 320.2 318.9 313.9 306.4 299.3 292 282.4 272.1 261.8 254.2 244.2 238.1 229.4 221.3 212.3 204.5 201.7 195.7 186.4 180.2 175.8 170.9 170.6 167.7 164.3 159.6 155.1 154.5 153.8 148.3 143.6 137.2
80.7 77.6 75.4 73.1 70 67.3 65.2 62.7 60.8 61.1 60.8 58.7 55.4 51 49.7 43.8 35.1 26.6 18.5 10 -2 -2 -2 -2 -2 -2 -2 -2 -2 -2 -2 -2 -2 -2 -2 -2 -2 -2 -2 -2 -2 -2 -2 -2 -2 -2 -2 -2 -2 -2 -2 -2 -2 -2 -2 -2 -2 -2 -2 -2 -2 -2 -2 -2 -2 -2 -2 -2 -2 -2 8.6 23.3 36.7 49.4 63.2 83 100.8 130.4 148.5 161.2 180 210.2 219.1 231.6 252.6 260.2 259.5 261.1 262 262.7 269 275.5 279.9 287.6 287.8 293.1 299.4 308.6 322.3 328.1 332.8 342.5 361.9 365.2 370 372.3 381.9 391.5 392.5 387.9 385.7 380.9 379.3 377.1 377.7 370.7 368.5 369.4 376.8 374.3 374.3 374.3 376.3 376.4 377.3 379.8 379.7 379.6 382 383 379.7 376.3 372.3 366.6 363.8 360 360.4 361.5 360.5 359.4 363.2 368.5 372 373.1 376.7 378.9 381.1 390.9 403.9 420.8 433.2 440.9 441.1 443.8 458.7 454.3 446.8 438.3 422.4 413.7 400.2 389.5 378.5 371.7 363.3 354.5 346 338.9 331 323 319.5 313.1 304.3 294.8 285.2 273.1 262.1 250.2 241.8 237 230.2 223.2 214.6 208.8 203.4 197.5 190.3 184.9 179.3 171.3 169.4 165.5 160.7 160.2 161 158.6 153.9 149.8 145.9 142
86 82.3 78.7 76.2 73.4 70.3 67.3 64.9 63.5 62.3 61.6 60.5 59.5 58.1 55.7 52.9 45.5 39.9 33.5 24.1 15.4 -2 -2 -2 -2 -2 -2 -2 -2 -2 -2 -2 -2 -2 -2 -2 -2 -2 -2 -2 -2 -2 -2 -2 -2 -2 -2 -2 -2 -2 -2 -2 -2 -2 -2 -2 -2 -2 -2 -2 -2 -2 -2 -2 -2 -2 -2 -2 -2 -2 -2 17.9 31.7 41.6 58 74.1 99.4 128.9 145.1 152.1 171.3 202 213.3 226 239.5 255.4 254.3 250.8 256.3 263.9 267.8 269.5 271.6 272.4 282.2 288.2 292.9 301.3 312.6 320.7 327.6 331.7 344.3 357.1 356.1 360.9 370.5 376.3 377.5 374.5 371.9 363.9 355.7 357.3 358.1 365.1 365.7 370 377.5 382.6 384.2 383.4 382.6 382.2 385.9 381 381.2 382.9 388.4 386.5 382.4 380.8 374.4 370.2 366 364.1 368.4 367.1 365.3 368.5 371.6 373.3 373.3 375.7 380.5 384.6 390.4 401.7 412.9 424.1 431.5 439.5 440.2 453.5 460.1 460.7 448.5 437.2 428.1 411.8 398.4 388.9 382.1 374.5 365.3 358.6 348.2 340.3 331.5 325.9 320.7 313.5 304.1 293.8 283.3 272.4 263.7 252.1 243.4 237.2 229.7 220.5 217.3 211.3 202.2 193.1 189.3 185.7 179 173.6 172.9 175.4 178.6 175.6 171.9 169.8 164.9 159.2 154.8 149.6
89.6 87.4 84.1 80.9 77.9 74.3 70.9 67.2 65.3 64.2 62.6 61.5 61.6 60.7 58.9 59.6 57.2 51.8 45.9 38.2 28.9 19.6 10.8 -2 -2 -2 -2 -2 -2 -2 -2 -2 -2 -2 -2 -2 -2 -2 -2 -2 -2 -2 -2 -2 -2 -2 -2 -2 -2 -2 -2 -2 -2 -2 -2 -2 -2 -2 -2 -2 -2 -2 -2 -2 -2 -2 -2 -2 -2 -2 -2 13.4 25.9 40.2 51 70 94.8 117.8 139.1 152.2 179.7 188.1 200 221.4 237.1 249.1 249.7 249.6 258.5 264.2 265.3 264.7 265.3 267.2 276.2 285.9 287.6 298.3 302.7 310.1 315.3 330 343.6 344.3 344.7 351.9 355.5 358.5 357.9 356.4 355.4 350.6 348.1 353.3 358 360.6 370 374 376.2 382.3 386.6 404.7 405.7 400.5 392.6 385.7 384.2 391.8 394.1 389.9 385.1 382.6 376.3 370.5 366.3 371 372.6 372.2 373.6 375.8 375.6 376.7 378.6 383.4 389.4 393 399.7 409.8 415.4 422.6 428.5 436.3 453.6 462.8 468.6 464.5 454.5 441.2 429.7 419.8 401.9 392.1 383.3 373.8 365.9 358.2 348.3 338.9 331.5 326.5 320.3 312 304.2 293.4 282.9 271.5 261.7 250.7 243.9 236.6 229.8 221.9 214.5 205.5 197 196.1 195.7 190.9 185.5 184.3 184.6 183.7 183.6 184.7 182.3 180.8 175 171.9 164.9 165.5
94.7 91.5 88.2 85 82 78.1 75.2 71 67.2 65.2 63.3 63.3 62.9 61.8 61.4 62.9 65.2 61.3 56.5 49.6 42.5 32.9 23.1 14.5 -2 -2 -2 -2 -2 -2 -2 -2 -2 -2 -2 -2 -2 -2 -2 -2 -2 -2 -2 -2 -2 -2 -2 -2 -2 -2 -2 -2 -2 -2 -2 -2 -2 -2 -2 -2 -2 -2 -2 -2 -2 -2 -2 -2 -2 -2 -2 -2 21.1 37.3 49.8 63.7 92.1 115.4 130.8 154.8 161.4 176.9 205.2 227.1 234.8 244.4 248 252 266.5 265.3 262.3 261.9 262.5 267.6 269.3 275.8 283.7 292.4 301.1 305.8 308.2 322.8 331.6 330.9 333.3 333.2 333.4 339.4 341.3 344.7 345.5 345.9 350.8 355.7 359.5 360.9 364.4 374.7 370 372.8 390.8 412.7 420.2 412 406 394.5 392.2 399.3 394.5 389.6 385.3 381 377.2 375.2 376.9 375.7 375.2 377.4 383.2 381.6 379.6 381.2 386.2 393.9 401.1 404.3 407.5 412.7 418.4 422.7 432.2 449.9 459.8 463.4 472.5 469 464.6 451 436.5 422 411.2 399.3 387.6 378.3 366.3 356.8 348.7 341.8 334.2 332.2 325.8 317.4 304.8 293.8 282.4 271 260.5 253.3 246.2 235.4 227.6 219.2 211.5 210 206.4 200.5 197.4 191.7 194.9 192.2 195.8 193.8 195.2 195.2 191.8 187.6 183.1 177.9 170.1 167.2
98.9 95.3 91.5 88.8 86 82.7 79.5 75.4 70.9 67 65.3 64.1 63.7 62.6 62.1 62.8 67.2 69.1 65.4 59.4 51.5 44.7 36.4 26.4 15.6 -2 -2 -2 -2 -2 -2 -2 -2 -2 -2 -2 -2 -2 -2 -2 -2 -2 -2 -2 -2 -2 -2 -2 -2 -2 -2 -2 -2 -2 -2 -2 -2 -2 -2 -2 -2 -2 -2 -2 -2 -2 -2 -2 -2 -2 -2 -2 13.9 28.1 46.6 58.5 88.8 108.5 129.6 149 160.4 184 210.8 222.7 225.9 234.5 246.6 260.4 266.1 264 260.1 259.5 262 262.1 263.6 267.1 278.1 289.2 294.5 294.5 298.6 303.1 310.1 317.3 326.3 324.7 334.6 338.1 343.2 344.3 347.6 352.7 358.2 358.2 359.7 360.4 363.7 367.5 370.3 377.6 396.5 432.9 431.3 423.1 413 405.1 405.6 400.8 396.7 390 386.3 384.1 380.9 380 380.1 381.2 386 387.4 389.9 389.1 387.8 389.6 394.5 400.2 411.2 412.2 415.3 419 422.5 433.6 446.6 452.7 458.4 461.6 469.6 472.6 468.4 459.9 447.9 435.3 417.7 404 392 383.6 369.9 361.1 350 343.9 342.1 337.3 328.4 316.5 305.4 297.1 283.2 273.2 261 253.4 242.5 231.3 228.2 220.7 218.7 211.1 203.7 200.5 198.1 199.3 196.4 200.7 203.2 202.1 203 201.8 198.8 193 186.5 182.4 174.4 178.7
103.8 99.6 96.6 93.5 90.2 87.4 83.8 81.1 76.1 69.3 66.5 65.1 64.4 63.5 63.1 64.3 68.1 70.7 71.5 68.1 62.2 55.2 47.1 38.6 27.5 16.6 -2 -2 -2 -2 -2 -2 -2 -2 -2 -2 -2 -2 -2 -2 -2 -2 -2 -2 -2 -2 -2 -2 -2 -2 -2 -2 -2 -2 -2 -2 -2 -2 -2 -2 -2 -2 -2 -2 -2 -2 -2 -2 -2 -2 -2 -2 -2 20.7 41.4 55.2 82.8 112.7 126.5 145 156.9 181 203.8 215.7 219 229.6 248.2 264.7 262.4 259.2 259.1 258.3 258.5 259 261.1 264.9 267.4 273.2 277.9 279.8 281.8 291 297.8 302 307.2 310.7 319.1 334.5 339.7 342.6 349.2 357.1 356.4 359.6 361 358.7 361.5 367.7 374.7 384.4 403.6 429.6 437.7 429.3 419.6 412.7 415.7 406.9 400.6 400.2 395.2 388.3 384.1 385.7 387.5 389 391.7 393.9 392.9 391.5 393.4 394.6 400.7 410.4 418.4 421 422 423.4 430.8 440.7 447.5 457.2 461 466.9 475.3 477.1 473.2 466.3 458.1 442.5 426.1 408.2 397.3 383.7 374.9 366.7 357 348.8 346.5 340.3 330.2 320.5 304.2 295 286.5 276.1 266.8 257.5 246.9 240.5 231 225 216.5 207.4 205.6 206.2 202.3 202.1 200.5 206.8 206.8 207.5 208.9 206.4 201.9 195.1 187.6 184.3 181.1 209.9
110.9 105.5 101.4 98.2 95.5 91.8 90.1 86.3 81.1 74.8 69.6 67 65.7 64.9 64.9 66.5 68.1 70.7 72.5 73.3 70.8 64.6 56.9 48 38.3 30.6 20.3 9 -2 -2 -2 -2 -2 -2 -2 -2 -2 -2 -2 -2 -2 -2 -2 -2 -2 -2 -2 -2 -2 -2 -2 -2 -2 -2 -2 -2 -2 -2 -2 -2 -2 -2 -2 -2 -2 -2 -2 -2 -2 -2 -2 -2 -2 17.8 30.7 53.8 71.5 111.1 139.6 151.8 162.1 177.5 189 194.2 217.5 222.8 254.3 263.1 259.7 258.6 258.8 258.7 256.1 256.4 258.1 259.8 260.4 265.6 260.7 262 268.6 274.4 283.9 290.1 295.6 306.9 318.5 320.6 322.6 332.2 339 348.4 351.2 353.6 357 359.6 368.4 378.9 382.3 391.8 412.6 447 443.1 432.3 425 424.2 419.9 412.7 410.2 406.4 399.6 391.3 391.8 393 398.7 395.7 398.9 397.1 395.7 395.4 400.4 406.8 411.6 419.8 426.2 427.3 427.1 432.2 438.1 445.3 455.2 462.3 471.2 481.9 485.9 483.1 477.7 467.6 459.9 445.1 428.6 414.6 400.1 389.7 381.2 369.8 361.4 355.5 347.9 339.3 329.4 316.8 304.6 293.7 286.5 276.8 267 257.2 247.5 238.4 231.1 220.8 211.2 206.8 208.1 204.6 204.7 204.2 205.9 210.6 212.3 212.1 212.4 212.4 206 199.6 190.9 191.1 193 218.9
116.2 111.8 105.8 101.3 99.7 99.1 95.3 91.1 86.3 79.6 74.1 69.5 67.1 66.9 65.3 66.4 67.9 69.2 70.8 73.5 75.5 72.3 65.3 55.3 47 40.3 33 22.2 12.4 -2 -2 -2 -2 -2 -2 -2 -2 -2 -2 -2 -2 -2 -2 -2 -2 -2 -2 -2 -2 -2 -2 -2 -2 -2 -2 -2 -2 -2 -2 -2 -2 -2 -2 -2 -2 -2 -2 -2 -2 -2 -2 -2 -2 -2 28.1 49.3 90.7 120.2 144.8 171.5 178.3 178.5 182.4 203.1 216.1 224.5 258.7 263.1 258.1 257.5 257.8 259.4 253.6 252.5 254.2 252.9 250.5 248.1 248.1 251 258.5 268.6 275 282.1 288.7 299.6 307.9 312.2 317.7 324.9 340 350.3 354.2 356.7 364.5 375.3 378.6 383.3 391.7 408.1 422.3 444.3 447.7 436.7 436.2 431.9 426.6 423 418.4 416.3 405.9 401.6 404.2 407.9 405.2 407.2 404.1 398.8 399.4 402.5 409.6 417.5 422 426.8 430.4 432 434.5 449.9 456.3 460.9 466.9 473.3 490.4 494.2 490.7 484.7 477.7 467.9 456.9 443.5 431.6 418.7 407.1 394.4 383.7 372.9 364.1 358.7 349.1 337.3 326.3 317.1 305.3 295.3 285.7 275.7 267.7 255.1 245.1 236.9 227 218.9 211.8 210.8 205.9 204.9 206.8 206 209.1 211.2 213.8 216.4 221.5 219.5 213 207.9 197 203.1 216.9 219
121.1 116.5 110.3 109.5 106.1 103.8 100.2 96 88.4 85.2 80 73.8 70.5 68.4 66.6 65.8 67.2 68.6 70.1 71.8 73.6 74.9 71.1 64.2 55 47.8 41.7 31.2 21 13.1 -2 -2 -2 -2 -2 -2 -2 -2 -2 -2 -2 -2 -2 -2 -2 -2 -2 -2 -2 -2 -2 -2 -2 -2 -2 -2 -2 -2 -2 -2 -2 -2 -2 -2 -2 -2 -2 -2 -2 -2 -2 -2 -2 -2 26.3 53.5 102.5 123.7 158.5 176.7 180 180.4 195.3 204.5 211.1 236.4 254.4 255.1 251.1 252.4 253.5 250.5 248.1 250.7 248.1 248.1 248.1 248.1 248.9 255.2 253.5 257.3 267.8 271.7 281.6 284.1 294.3 302 313.3 331 349.6 356.7 361.9 369.7 382.3 392 393.1 398.8 420.6 427.3 454.4 461.2 453.5 447.6 445.4 440.2 434.8 430.4 426 420.5 414 420.5 419.7 418.7 417.1 412.7 411.2 410.7 413.8 416.3 420.2 424 427.8 432.5 438.3 440.3 459.7 470.4 475.7 481.8 486.3 495.8 499.3 497.9 492 485.7 478.8 469.7 457.4 446.1 433.1 417.8 409 401.5 388.3 378.2 368.6 359.3 350.3 338.8 326 316.3 303.1 294 284.2 275 268.5 259.3 244.6 234.1 224.2 218 213.2 209.2 207.3 206.1 207.9 208.9 209.2 214 216.2 221.9 226.1 223.6 218.4 212.9 216.5 220 221.6 217.9
124.6 122.1 117.9 115.3 112.4 108.4 104.7 99.9 94.5 90.9 85.8 80.3 74.9 70.3 67.7 66.5 66.6 67.8 70.2 71.2 71.9 73.3 73.9 69.6 61.2 53.6 47.5 40.4 31.7 22.6 13.8 -2 -2 -2 -2 -2 -2 -2 -2 -2 -2 -2 -2 -2 -2 -2 -2 -2 -2 -2 -2 -2 -2 -2 -2 -2 -2 -2 -2 -2 -2 -2 -2 -2 -2 -2 -2 -2 -2 -2 -2 -2 -2 -2 34.4 83.1 104 126.7 166.1 178.8 183.1 187.9 200.2 203.7 211 245.7 247.4 248.1 248.1 248.1 248.1 248.1 248.1 248.1 248.1 248.1 248.1 248.1 257.7 261.5 258.3 258.2 255.8 261.3 273.4 276.8 284.7 294.2 308.1 334.7 354.7 361.2 380.4 394.4 401.2 409.3 424.1 433.7 444.5 459.1 468.2 469.3 464 454.8 453.8 446.5 438.5 435.8 430.5 424 432.9 434.8 430.2 430.9 430.2 426.5 427 434 435.6 431.4 431.3 434.8 436.4 442.1 446.5 455.2 483.7 490 498.5 499.9 504 501.2 496.2 492.5 488.3 484.9 477.1 468.6 458 446.9 435.8 423.5 409.1 399.1 388.9 383.8 370.5 361 348.6 336 321.6 310.8 300.5 292.6 284 274.7 267 258.5 245.8 232.7 229.6 221.1 215.7 211.9 212.9 209.4 209 209.1 209.2 217.8 219.6 224 229.2 226.2 221.7 219.5 229.9 225.3 221.2 216.5
129.5 126.2 124.6 119.2 116.4 113 109.3 105.5 102.1 96.7 91.5 87 80.5 74.6 68.7 67.3 67.4 67.8 69.1 70.1 71.2 72.7 73.6 72.5 66.7 59.6 51.5 47.9 40.5 33.4 23 13.6 -2 -2 -2 -2 -2 -2 -2 -2 -2 -2 -2 -2 -2 -2 -2 -2 -2 -2 -2 -2 -2 -2 -2 -2 -2 -2 -2 -2 -2 -2 -2 -2 -2 -2 -2 -2 -2 -2 -2 -2 -2 -2 64.4 94.4 111.6 144 177.3 196.2 190.4 201.3 205.3 232.6 239.5 250.1 248.1 248.1 248.1 248.1 248.1 248.1 248.1 248.1 248.1 248.1 248.1 248.1 258.6 260.4 256.2 255.7 255.7 257.1 259.9 267.3 276.7 294.9 308 332.5 354.2 377.4 400.3 413.3 421.4 435.7 449.6 465.4 475.4 479.8 479.3 471.1 465.7 464.3 460.4 454.3 449.9 444.6 437.4 438 445.6 447.6 448.7 445.9 446.3 449.5 452.2 451.2 446.4 439.3 442.8 446 452.2 455.9 462.9 482.8 491.8 499.5 502.1 500 494.6 489.4 485 480.1 482 480.7 476.2 469.4 460.8 447.4 434.3 425.7 413.7 399.8 392.1 385.6 374.2 359.6 343.6 331.7 322.9 312.8 300.6 291.1 282.4 274.2 269.2 256.8 245.7 237.3 231.8 226.2 220.8 215 211.6 209 208.8 209.2 216.7 220.6 222.9 225.3 227 223.5 222.2 226.2 229.4 223.4 220 215.8
138.8 132.2 129.6 123.8 120.5 117.6 113.6 111 108.1 103.8 97.7 92 86.9 78.7 71.5 69.1 68.1 68.3 68.4 69.1 70.5 72.2 72.6 71.8 69.4 63.1 55.2 51.7 47.7 42 32.9 22.2 13.9 -2 -2 -2 -2 -2 -2 -2 -2 -2 -2 -2 -2 -2 -2 -2 -2 -2 -2 -2 -2 -2 -2 -2 -2 -2 -2 -2 -2 -2 -2 -2 -2 -2 -2 -2 -2 -2 -2 -2 -2 51.1 87.1 106.4 126 161.3 184.4 206.7 216.5 230.8 243.7 252.6 251.1 249.7 248.1 251.6 257.1 251.3 248.1 248.1 248.1 248.1 248.1 248.1 248.1 251.3 261.5 259.8 255.7 255.7 255.7 255.7 258 261.1 274.5 294.3 308.6 334.8 367.7 394 419 430.6 445.8 453.8 470 480.4 487.5 482.8 479.8 481 475.7 472.6 468.2 462.6 457.7 448.8 445.4 458.7 461.7 465.7 465.1 464.3 465.6 467.3 467.2 463.5 459.6 458.4 455.8 457.1 470.8 477.6 487.8 493.8 497 499.5 495.7 490.7 484.5 479.8 480 478.6 479 477.8 473.9 466.4 459.1 451.5 436.1 425 415.5 403.4 397.1 386.1 371.7 357.5 343.4 328.6 318 308.9 298.5 289.2 281.3 270.8 263.4 251.4 243.7 237.7 234 226.4 219.9 214.3 210.7 210.1 209.1 209.5 216.6 222.4 224.1 225.5 223.4 222.8 224.3 228.9 225.9 221.1 217.2 216.5
144.8 141.8 134.3 128.3 126.9 125.7 119 116.6 114.2 109.3 104.8 98.1 92.7 84.5 77 70.9 68.8 68.5 68.7 68.1 68.9 70 71.1 71 69.9 66.7 57.8 52.8 50.1 48.6 42 31.1 22.3 12.3 -2 -2 -2 -2 -2 -2 -2 -2 -2 -2 -2 -2 -2 -2 -2 -2 -2 -2 -2 -2 -2 -2 -2 -2 -2 -2 -2 -2 -2 -2 -2 -2 -2 -2 -2 -2 -2 -2 -2 61.7 97.9 116.3 158.6 179.1 191.3 224.8 249.3 256.9 255.6 257.3 252.7 249.5 251.4 258.1 253.5 248.1 248.1 248.1 248.1 248.1 248.1 248.1 248.1 259.9 264.5 257 255.7 255.7 255.7 255.7 255.7 260.6 276.8 298.8 314.7 345.9 377.8 403.9 432.1 454.3 461.5 473.5 478.7 479.6 478.9 482.6 491.7 497.9 486.7 481.9 479.8 472.9 467.1 457.8 466 476.7 479.6 478.9 479.7 479.6 486.9 487.7 485.3 476.1 471.7 467.7 467.9 475.2 479.4 486.3 492.9 497.1 497.3 493.4 490.6 484.5 479.4 476.5 477.6 478.5 479.6 476.2 468.5 461.7 455.3 445.3 434.2 422.8 413 402.4 393.8 380.1 360 352.1 338.2 325.5 315.3 304 293.5 285.8 279.4 268.7 257.9 250.7 244.4 237.4 231 224.6 219.3 214 211.4 209.9 210.2 213.4 221.3 224 223.6 224.1 222.6 222.6 224.2 226.4 223 219.5 217 216.5
149.9 146 143.1 133.5 132.5 129.3 125.2 121.4 118.1 114.1 110.3 104.8 98.9 93.1 84.2 74.5 70.1 68.8 68.1 67.5 67.4 68 69.1 70 69.5 67.3 61.6 53.5 50.3 48.6 47.3 39.3 29.4 21.4 10.8 -2 -2 -2 -2 -2 -2 -2 -2 -2 -2 -2 -2 -2 -2 -2 -2 -2 -2 -2 -2 -2 -2 -2 -2 -2 -2 -2 -2 -2 -2 -2 -2 -2 -2 -2 -2 -2 -2 66.8 114.8 147.1 168.9 177 197.3 237.4 255.3 258 255.9 254.1 248.3 250.2 262.3 262 254.4 248.1 248.1 248.1 248.1 248.1 248.1 253.1 259.3 265 263.9 257.3 255.7 255.7 255.7 255.7 255.7 260.2 278.8 308.4 322.1 348.9 375.3 408.4 443 458.6 465.1 463.3 465.1 468.2 479.4 493.5 502.4 502.7 500.4 496.7 491.5 480.9 471 470.6 485.9 490.1 491.8 487.8 491.3 500.3 506.7 509.9 507.7 503.4 491.5 487.9 484 485.2 485 488 502.7 503.7 497.4 491.1 482.9 477.5 471.2 469.2 466.2 466.2 467.6 467.9 464.4 458 448.9 436.1 427.2 418.2 410.7 398.5 387.7 373.4 357.6 343.9 330.3 320.3 308.8 299.8 291.4 284.2 277.3 267.5 260.4 251.2 242.2 235.4 227.7 222.5 220.2 218.5 215.3 211.5 216.9 218.8 220.9 222.3 221 220.7 219.2 220.3 226.6 219.8 216.8 218 221.6 213.1
155.9 150.9 145.3 139.3 138.5 136.8 132.5 126.7 122.4 119 114.8 110.3 103.4 99.8 90.9 82.3 72.8 70.6 68.2 67.3 65.7 65.7 66.4 67.3 67.9 66.7 63.4 54.8 51.1 44.5 44.3 41.2 35.1 29.3 18.6 9.2 -2 -2 -2 -2 -2 -2 -2 -2 -2 -2 -2 -2 -2 -2 -2 -2 -2 -2 -2 -2 -2 -2 -2 -2 -2 -2 -2 -2 -2 -2 -2 -2 -2 -2 -2 -2 -2 70.4 118.5 140.4 148.6 161.7 194 243.1 254.8 254.8 251.9 248.3 248.3 262.6 274.6 270.9 250.9 248.1 248.1 248.1 248.1 251.8 251.1 266 267.2 266.7 264.1 258.2 255.7 255.7 255.7 255.7 255.7 262 275.3 297.3 317.6 336.1 374.9 424 454.2 459 457.8 456.4 459 473.8 481.4 494.9 502.1 501.6 510.3 505.2 496.6 485.3 484.2 494.9 502.2 502.7 503.2 502.1 511.2 514.2 521.5 526.8 528.1 523.8 514.6 508 503.5 496.3 497.9 511 506.5 499.2 491 481.6 473.6 463.2 466 461 457.2 452.2 455.2 454.8 451.8 447 438.5 428.7 420.7 411.5 404.9 392.6 383.4 368.2 354.3 339.1 329.3 318 308.1 298.9 290 283 277.5 270.4 262.9 254.2 246 237.5 229.9 226.7 220.9 218.6 215.1 212.5 215.3 220.5 221.1 220.1 220 217.7 215.3 219.3 222.4 216.5 215.3 217.9 211.5 208.2
162.3 155.9 148.8 142.5 142.7 141.9 137.6 134.1 128.9 125 120.3 114.2 109 105 100 90.1 80 73.4 69.4 66.8 64.8 64.1 64.2 64.7 64.8 64.8 62.7 57.4 49.9 43.7 40.6 37.5 34.5 30.7 24.6 15.2 -2 -2 -2 -2 -2 -2 -2 -2 -2 -2 -2 -2 -2 -2 -2 -2 -2 -2 -2 -2 -2 -2 -2 -2 -2 -2 -2 -2 -2 -2 -2 -2 -2 -2 -2 -2 -2 83.6 110 112.3 123.1 152.3 211.9 236.7 256.6 256.1 253.3 255.6 262.4 271.8 272.9 260.8 252.9 248.8 251.4 250.3 253.5 253.8 258.6 266.8 271.3 266.4 262.8 255.7 255.7 255.7 255.7 255.7 255.7 266.4 275.1 295 319.8 358.5 396 420 440.4 447.5 443 445.7 448 464.9 487 498.7 512.5 510.3 515.5 507.6 495.4 488 505.6 513.2 513.7 520.5 521.1 519.3 530.9 536.7 537.6 537 532.3 526.1 518.4 511.9 505.6 501.4 505.8 505.4 498.8 490.7 473.5 461.2 449.9 449.6 449.3 447.9 445 442.8 445.5 443.4 439.4 434.9 429.6 422 413.5 404.6 395 386.5 375.5 364 350.3 338.5 328.6 316.6 303.7 293.8 284.7 276.7 272.1 264.8 259.7 253.1 249.1 243.1 237.5 230.6 227.6 222.5 219.2 216.2 219.4 222 220.3 219.2 217 215.4 215.4 217.6 218.1 215.1 215.2 212 206.6 206.6
169.8 162.2 154.6 147 146.2 144.6 141.1 138.3 136.5 132.8 126 121.3 114.2 109.6 106.1 98.8 87.8 79.5 72.4 68.8 66.1 63.7 61.2 61.9 61.6 61.2 60.5 58.9 53 45.9 41.4 35.2 32.3 29.8 25.9 23.3 10.9 -2 -2 -2 -2 -2 -2 -2 -2 -2 -2 -2 -2 -2 -2 -2 -2 -2 -2 -2 -2 -2 -2 -2 -2 -2 -2 -2 -2 -2 -2 -2 -2 -2 -2 -2 34.9 72.4 78.6 86.3 103.4 131.3 210.3 226 247.3 254 259.8 265.1 272.2 274.9 268.9 262.6 257.7 253.8 256.1 266.4 263.4 260.7 266.3 276.5 275.2 274.4 265.4 259.1 261.1 259.4 260.3 263.1 269.4 273.8 282.7 308.7 346.8 370.3 403.1 409 415.9 427.9 429.2 435.1 442.4 470 494.5 498.8 498.2 497.1 500.3 490.5 477.6 487 511.9 519.2 519.8 525.7 524.9 538.1 536.4 530.3 525.8 519.6 518.1 514.5 507.6 499.5 494.1 500.5 501.2 498.4 488.6 470.6 455.2 443 434.8 431.6 434.4 432.3 427 427.1 432.6 431.2 427.9 423.2 416.8 410.3 404 394.4 386.5 380.5 369 356.8 344.1 333.6 326.2 311.4 299.3 290.8 282.3 278.5 271.4 267.3 258.5 250.9 245.9 240.7 240.5 236.4 232 226 220.4 219.5 221.8 221.3 219.9 218.5 217 215.7 213.1 209.8 207.9 206.6 206.6 208.6 206.6 206.6
174.4 169 159.2 152.2 151.6 147.4 144.5 142.1 140.3 138.3 131.9 128.4 121.2 114.9 111.2 105.5 98 87.3 78.4 71.4 68.3 65.1 63.2 59.7 59.1 57.6 57.1 56.3 54.9 47.2 41.3 36.1 30.9 26.5 23 20.1 12.6 5.1 -2 -2 -2 -2 -2 -2 -2 -2 -2 -2 -2 -2 -2 -2 -2 -2 -2 -2 -2 -2 -2 -2 -2 -2 -2 -2 -2 -2 -2 -2 -2 -2 -2 -2 25 43.9 57.9 73.1 84.9 121.4 197 214.9 230.8 245.9 258 269.1 271.3 271.3 273 277 267.2 266.4 280.6 278.1 274.1 277.4 286.4 282.5 285.8 287.3 269.9 264.4 266.4 275.1 273.1 269.8 277.6 292.8 300.6 342.5 379.9 392.3 404 403.4 407.3 417.1 421.6 430.5 456.2 468.3 472.8 474.5 467.4 467.8 468 460.7 457.6 473.9 491.8 497.6 498.6 502.1 518 522.7 515.8 508.9 504.9 499.9 498.5 491.7 485.7 480.1 478.7 480.9 485.6 476.5 463.8 451 436.6 429 418.8 421.9 420.9 416.4 413.3 411.8 416.3 417.1 415.7 412.9 408.3 400.1 391.7 385.2 379.1 369.6 361.9 345.8 335.6 329.4 317.9 309.9 301.9 293 284.8 279.4 273.3 264.3 256.8 251.2 247.6 243.2 241.8 234.5 230.3 228.4 222.9 220.3 222.4 221.6 220.3 218.7 217.2 215.3 210.8 206.6 206.6 206.6 206.6 206.6 206.6 206.6
178.7 173 163.7 159.2 157.7 151.2 147.8 145 143.3 141.7 139.7 133.9 127.1 121.2 115.3 108.3 105.5 96.4 85.8 75.6 71.4 67.3 63.3 60.9 58.4 54.4 52.6 51.5 52.4 47.4 41.3 36.2 31.1 25.8 21.6 17.8 13.2 10.9 -2 -2 -2 -2 -2 -2 -2 -2 -2 -2 -2 -2 -2 -2 -2 -2 -2 -2 -2 -2 -2 -2 -2 -2 -2 -2 -2 -2 -2 -2 -2 -2 -2 -2 -2 31.5 43.1 55.6 76.7 137.2 159.5 194.8 219 235.5 250.8 264 261.5 259.9 273.2 278 284.6 309.4 309.7 322.3 321.8 321.1 303.3 297.6 307.3 300.9 290.3 287.1 284.4 277 273.8 281.9 313.7 323.1 360.2 369.6 384.4 388.7 390.2 403 401.5 411.1 416.3 429.5 441.1 444.3 439.1 436.1 435.5 435 429.4 431.2 437.9 451.9 460.7 468.4 477.7 479.5 487.5 494.2 492.2 487.3 482.5 479.5 473.4 464.5 459 453.5 465.8 470.1 466.4 454.8 443.6 430.3 421 414.6 409.8 406 405.5 405.2 402.5 401.8 403 402.5 397.1 400.8 395.1 388.9 383.2 375.5 369.7 362.9 349.4 337.7 328.7 324 316 307.5 301.7 293.6 286.9 278.9 270.8 263.7 255.2 252.1 250.2 249.7 244.8 240.7 235.4 231 227.9 224.7 224.2 223.9 223.2 223.5 220.6 215.2 209.6 209.2 206.6 206.6 206.6 206.6 206.6 206.6
180.3 170.5 166.1 164.4 161.5 156.4 153.2 148.1 146.1 144.7 143 138.9 132.8 127.3 121.3 114.9 107.9 103.1 95.1 82.9 75.3 70 65.2 62 59.5 56.7 53.1 50.3 48.4 46.5 43.6 37.5 31.1 25.3 22.9 17 14.2 11.7 8.8 -2 -2 -2 -2 -2 -2 -2 -2 -2 -2 -2 -2 -2 -2 -2 -2 -2 -2 -2 -2 -2 -2 -2 -2 -2 -2 -2 -2 -2 -2 -2 -2 -2 -2 12.6 26.8 40.2 62.5 115.8 143.3 189.2 207.3 219 237.9 242.6 242.3 250.1 268.5 281.5 304.3 325.1 330.7 337.1 329.4 317 316.4 329.8 326 316.8 316.1 303.8 302.8 293.3 314.9 327.1 344.6 366.7 369.5 370 369.8 384.4 384.1 394.6 395.7 400.9 423.8 430.7 426.7 421 416.8 411.4 411.9 413.1 411.5 405.9 407.5 425.2 433.2 443 450.2 466.5 465.4 465.4 463.5 461 456.9 452.2 445.3 439.4 436.9 428.9 441.7 448.7 448.5 436.9 427.6 418 413 406.5 397.4 395.1 394 390.3 392.4 394 389 382.5 389.8 387.7 384.1 378.6 371.9 366.9 357.6 346.1 331.7 330.4 325.7 322 314.4 306 299.2 293.1 286.2 278.5 271 264.7 259.7 258.3 255.8 252.1 248.9 244.2 242 237.9 237.6 237 236.8 234.2 230.3 226.4 221.6 216.8 214.4 212.3 210.8 211.6 211.7 208.1 206.6 206.6
178.4 176 173 169.4 165.5 162.5 159.8 155 151.1 146.9 145.1 142.5 138.2 134.2 128.8 121.1 118 112.4 102.6 91.3 83 73.6 67.1 63 60.2 56.9 53.6 52.9 49.3 46.3 42.1 38.1 30.5 25.2 23.5 19.1 15.5 12.1 8.8 5.3 -2 -2 -2 -2 -2 -2 -2 -2 -2 -2 -2 -2 -2 -2 -2 -2 -2 -2 -2 -2 -2 -2 -2 -2 -2 -2 -2 -2 -2 -2 -2 -2 -2 -2 14.3 31.7 68.3 109.2 134.7 155.7 194.8 209.3 213 223.1 229.5 242.4 260.9 293.2 311.6 317.6 317.7 323.3 324.3 319.6 321.7 328 326.3 327.3 328.4 326.4 323.9 328.3 341.1 351 354.5 366.2 371.6 370.5 372.1 382.8 378.9 382.4 387.1 410 419.2 418.7 415 410.8 405.7 403.5 400.5 397.3 394.1 388.7 392.7 402.8 409.6 414 424.7 442.5 443.4 441.4 436.9 436.7 433.1 429.7 425.5 416.5 410.1 415.8 414.7 422.3 423.9 418.4 414.1 403.4 397.7 390.4 382.3 382.7 382.6 382 378.9 377.5 374.7 370.6 378.7 375.5 369.2 361.9 355.7 350.3 341.3 327.8 326.5 323.6 319.4 314.4 307.9 300.9 295.5 290.8 283.5 278.7 273.6 268.9 262.2 260.3 259.7 255.1 252.5 249.3 246.6 246.1 247 246.4 244.7 243.1 238.5 229 223.5 220.9 218.3 216.3 217.9 214.4 215.2 212.5 212.2 214.9
176.7 179.6 177.1 174.8 173.1 170.7 164.6 159.7 156.1 151.8 147.6 144.2 142.6 139.6 134 127.3 123.3 117.8 111.5 101.5 90.4 79.4 71.4 67.2 62.7 61.1 56 53.4 50.6 48.3 45.1 39.8 34.8 31.1 26.5 21.5 17.4 14.3 11.6 11.2 -2 -2 -2 -2 -2 -2 -2 -2 -2 -2 -2 -2 -2 -2 -2 -2 -2 -2 -2 -2 -2 -2 -2 -2 -2 -2 -2 -2 -2 -2 -2 -2 -2 -2 -2 24.6 64 112 125.5 146 169.9 183 181.3 197.7 216.2 239.5 268.5 284.1 292.6 305 309.8 310.7 314.6 317.7 320.9 318 318.7 330.1 345.7 347.3 346.7 340.2 350.7 352.7 360.1 366.6 366.7 380.8 383.1 378.7 373.7 371.4 377.9 395.6 408.8 406.2 401.3 395.3 391.6 387.1 385.7 383.5 376.9 376.7 380.4 384.1 392.5 398.6 402.7 410.6 412.7 412.9 413.1 411.5 402.8 396.7 390.4 389.1 392.8 395.2 394 390.1 400.2 402.8 397.8 391.6 383.6 376 373.7 372.2 371.5 369.5 365.6 361.2 356 351 353 350.2 343.1 333.6 323.5 317 320.7 323.1 322.7 317.5 312.2 307.8 305.2 301.3 299.9 295.9 288.6 282 275.8 269.8 266.3 264.7 260.7 257.8 254.9 252 249 249 248.6 247.6 246.8 245.7 240.7 231.3 225.9 223.5 221.4 219.6 217.7 217.8 219.1 221.2 224.4 221.3
174.1 175.7 179.6 181.6 181.6 178.7 171.1 164.8 159.7 156.7 151.3 146.9 144.8 142.7 139.1 134.2 129.4 124.6 118 109.7 101.6 88.7 78.8 72.9 67.1 64 58.5 55 52.9 52 48.1 43.1 37.7 32.9 29.5 25.4 21.7 17.9 15.9 14.1 11.8 6.1 -2 -2 -2 -2 -2 -2 -2 -2 -2 -2 -2 -2 -2 -2 -2 -2 -2 -2 -2 -2 -2 -2 -2 -2 -2 -2 -2 -2 -2 -2 -2 -2 -2 19.5 52.6 96 121.7 137.7 141.8 152.1 167.4 190.2 209.7 230 247.1 266.4 279.6 284.6 296.4 301.3 303.7 308.9 306.3 307.4 319.8 335.1 348 355.3 353.9 350.4 350 350.3 350.9 363.3 376.7 380.9 375.2 374.1 368.8 366.9 377.2 382.4 394 388.5 382.7 381.4 378.2 371.1 365.3 360.3 358.8 365.2 367.1 370.4 378.3 386.5 391.9 391.3 391 389.2 385 380.8 375.5 372.2 364.8 366 371.9 374.6 370.7 366.9 375.5 381.9 383.9 377.9 369.1 362 362.6 361.4 357.5 349.5 348.1 345.4 340.9 332.7 327.3 320.4 320.4 319.7 313.3 305.9 312.6 318.3 316.9 318.7 314.3 311.6 310.6 308.1 300.7 294.3 287 280.9 275.5 271.2 268.3 265.1 261.3 259.5 256.6 252.7 249.3 249.1 248.7 248.3 247.6 245.7 240.2 233.7 230.5 228.6 225.1 222.3 222.7 224.4 223.8 224.2 224.8 222.4
168.4 173.8 177.6 180.1 182.8 182.9 180 173.1 164 159.6 156.3 151.1 147.1 145.1 142 139.6 133.7 129.8 123.7 117.7 109.1 99.1 87.1 78 71.2 66.9 61.5 58.7 57 54.8 50.6 47.6 41 38.4 34 28.7 25.5 23.4 19.4 17.8 15.1 12.1 7.3 4.9 -2 -2 -2 -2 -2 -2 -2 -2 -2 -2 -2 -2 -2 -2 -2 -2 -2 -2 -2 -2 -2 -2 -2 -2 -2 -2 -2 -2 -2 -2 -2 27.5 63.7 85.6 105.6 116.3 125.3 133.6 163.2 179.8 199.3 217.5 226.5 238.5 252.7 260.9 274.6 281.3 279.9 285.4 289.3 301.4 315.9 325.4 337.1 343.6 345.6 346.9 352.1 358.5 358.3 362.6 366.5 363.6 359.9 358.7 357.4 364.5 370.6 373.9 373.8 371 370.7 369 362 355.8 350.6 349.3 352.9 353.8 354.9 351.1 361.7 368.5 377.6 377.2 376.9 372.6 365.8 361.9 354.6 346.4 338.9 340.1 348.2 354.3 356.4 354.2 362.3 364.8 367.2 363.2 359.3 351.6 352.6 349.5 340.4 331.5 331.4 325.9 322.5 317.3 313.6 313.2 310.9 305.6 301.7 300.1 309.7 307.4 304.8 308.7 311.4 309 307.8 303 301.6 296.7 290 282.5 275.8 271.3 267.5 263.5 261.4 258.5 255 251.7 248.6 247.6 246.1 245.8 244.4 243.3 239.6 236.4 234.4 233.4 229.5 226 227.7 229.5 228 227 226.6 222.4
165.9 170.3 174.3 177.7 180.7 183.4 183.2 180.1 172.2 164 158.6 156.4 151.5 148.5 144.9 142.3 139.7 135.6 130.1 123.5 117.1 108.3 94.6 86.1 77.7 73.2 70.2 65.6 61 58.9 57.8 55.5 52.9 48.3 42.4 37 32.4 27.9 25 21.6 18.8 14.5 11.4 8.1 -2 -2 -2 -2 -2 -2 -2 -2 -2 -2 -2 -2 -2 -2 -2 -2 -2 -2 -2 -2 -2 -2 -2 -2 -2 -2 -2 -2 -2 -2 -2 32.1 52.8 76.1 84.5 92.5 107.8 128.9 147.1 154.8 177.4 192.8 206.8 217 219.8 237.6 249 255.9 263.5 272.3 277.7 285.4 291.7 299.2 307.3 320.7 329.8 339.3 345.1 346 352.5 353.4 352.7 351.3 348.7 346.1 346.6 350.6 354.7 368.3 360.4 357.1 358.2 351.1 344.8 337.3 338.3 333.2 341.9 344.4 342.6 341.9 342.7 346.8 351.2 353.1 354.2 353 348 340.5 326.6 322.6 322.4 322.6 321.3 320.3 329.6 334.6 341.7 344.1 343.2 342 340.3 337.7 339 334.1 328.2 316.5 308.2 300.6 300.8 306.3 305.4 305.7 303.4 296.6 291.3 297.5 298.9 299.1 300.3 303.1 302 300.9 300.8 302.4 301 293 287.2 282.1 275.6 270.7 265.7 262.6 260.1 257.5 253.9 250 246.1 245.4 245.1 244.1 242.9 242.1 239.1 235.6 233.7 232.7 231.3 231.4 231.7 232.3 231.2 232.9 230.8 225.5
165.3 167.2 169.3 174.2 178.2 180.9 183.9 183.4 181.2 174.2 163 159.3 155 152.1 148 145.2 143.4 140.4 136.2 130.1 123.6 116.2 106 92.6 83.1 78.3 75.4 70.9 65.1 63.6 63.3 59.7 58.8 54.9 50 44.9 37.9 33.8 28.8 25.8 22.5 18.8 14.2 9.9 3.4 -2 -2 -2 -2 -2 -2 -2 -2 -2 -2 -2 -2 -2 -2 -2 -2 -2 -2 -2 -2 -2 -2 -2 -2 -2 -2 -2 -2 -2 -2 18.2 40.9 54.8 63.5 91 112.2 117.5 125.4 137.3 150.6 167 181.3 190.7 201.6 211.7 213.8 229.3 243.1 251.2 260.1 263.6 269.4 282.8 295 302.2 305.1 316.8 329 334.8 334 332.6 334.9 339.2 331.9 328.4 337.4 337.7 335.9 335.7 334.5 337.5 331.8 327.8 320.8 325.7 322.3 327.2 330.1 332.1 329.4 324.8 326 327.9 333.5 333.5 329.4 324.9 317.2 307.6 295.2 292.4 292.6 300.8 302.3 310 311.9 315.5 319.3 315.9 315.1 316.6 314.5 310.2 306.1 300.7 296.8 295.5 296.5 293.5 299.5 296.2 297.5 298 297.5 287.3 289.2 291.8 292.7 292 291.6 292.3 291.6 290.7 292.8 292.7 290.1 286.5 281.3 275.2 270 265.8 263.5 260.2 256.5 254.1 253.3 247.2 245.6 244.7 244.5 243.4 242.2 241.2 238.6 236.7 235.5 235 234.5 234 235.4 237 238.6 235.7 231.3 226.5
166.6 166.7 168.5 171.1 175.6 178 181.6 184.2 184.4 181.2 172.5 162.3 158.5 155.5 151.8 149.2 145.6 143.6 140.3 134.5 129.3 120.8 108.5 100.7 91.2 82.4 76.9 72.9 68.8 67.2 67.6 64.6 62.9 60.1 56.7 51 44.4 38.6 35.1 28.2 26.8 22.8 16.9 12 5.9 -2 -2 -2 -2 -2 -2 -2 -2 -2 -2 -2 -2 -2 -2 -2 -2 -2 -2 -2 -2 -2 -2 -2 -2 -2 -2 -2 -2 -2 -2 -2 21.2 38.3 67.2 84.4 100.1 101.4 108.3 116.8 132.2 142.2 149.8 159.8 176.9 188.7 200 203.9 211.2 224.4 233.5 242.2 250.4 258.4 267.3 276.7 281.7 287.6 299.4 309.1 315.2 316.2 313.5 313.5 311.2 304.8 308.6 315.8 307.7 309.3 312.9 311.4 307.4 305.2 310.1 307.9 306.9 309.7 318.2 317.5 314 310.1 305.1 298.2 301.9 302.9 302.6 299 294.8 286.3 277.8 272.5 273.7 280.7 285.8 289.3 290.9 296.1 298.6 296.8 301.2 297.2 300.3 300 299.1 296.5 294 297.7 290.8 287.5 287.5 287.3 290.2 289.6 284.2 281.1 281.6 283 283.1 282.2 282.8 280.9 282.9 283.8 284 283.2 283.6 278 272.6 269.3 266.5 264.1 262.2 256.6 252.9 250.6 246.6 245.1 245.3 245.4 244.3 244.4 245.3 243.3 241.2 239.4 237.9 237.3 236.4 237.6 237.6 238.6 236.8 233.7 232.3 229.3
169.8 170.9 170.3 171.4 172.9 176.2 179.2 182 185.3 185.2 181.5 173.2 163.6 158.2 155.6 153.2 150 145.9 143.5 139.8 133.4 126.1 119.1 110.6 98.8 88.7 79.2 74.5 72.8 71.4 68.5 68.4 66.2 63.5 60.6 56 47.7 44.6 38.9 35.1 31.6 26.4 21.9 14.9 9.5 -2 -2 -2 -2 -2 -2 -2 -2 -2 -2 -2 -2 -2 -2 -2 -2 -2 -2 -2 -2 -2 -2 -2 -2 -2 -2 -2 -2 -2 -2 -2 -2 30.6 51.3 68 69.8 81 90.1 104.1 109.9 117.8 122.9 135.8 146.2 158.8 175.3 185.1 190.5 193.6 206.4 215.9 225.3 231.2 237.5 252.3 257 262.4 268.7 280.7 286.4 289.6 289.4 291.3 292.4 284.1 283 285.9 285 290 292.4 289.9 288.5 289.1 297.7 295.7 295.9 299.1 295.7 292.8 291.3 287.4 283.5 276.9 283.7 287.6 282 275.9 268.4 265.3 265.7 259.2 260 266.8 274.9 284.6 284.8 287 288.2 287.8 287.9 296.2 298.8 293.5 293.9 290.4 286.1 279.9 278.2 280 278 277 278.6 277.2 274.2 272.6 270.9 271.2 269 270.2 269.6 273.8 274.3 274.3 275.6 275.2 272.7 269.2 266.9 264.5 263.5 259.8 257 252.4 249.1 245.8 245.1 245.3 246.5 248.5 249.7 251.1 251.3 249.6 247.3 244.9 243.3 241.9 240.9 239.4 239.9 240 238.5 239.5 237.7 237.2
175.5 175.2 175 175.2 174.7 173.7 175.8 179.1 182.9 185.9 185.5 179.1 172.1 163 159.5 157 152.9 148.5 145 143.1 138 131.7 123.9 114.7 105 96.3 85.7 79.3 76.1 74.3 70.6 69.3 68 66.5 64 60.4 54.4 48.1 44.3 39.8 34.7 30 26 19.2 12.3 5.7 -2 -2 -2 -2 -2 -2 -2 -2 -2 -2 -2 -2 -2 -2 -2 -2 -2 -2 -2 -2 -2 -2 -2 -2 -2 -2 -2 -2 -2 -2 -2 -2 28.2 43.6 52.2 63.3 75 84.7 91.4 99 101.8 116.3 125.2 134.7 144.3 157.7 168.6 170.6 175.5 187.9 198.3 203.4 208 219.2 231.2 242.2 247.1 249.2 255.6 262.5 266.1 269 266.1 259.7 260 262.4 264.7 264.9 267.3 268.9 271.2 262.8 267.7 272.7 272.1 276.3 279.6 279 273 267.9 262.9 274.3 277.4 273.9 267.9 260.8 255 251.3 252.5 255.9 259.6 263.2 277.1 279.5 280.4 280.3 281.5 291 294.3 292.5 289.2 287.7 284.8 278.7 274 271.6 270.8 265.1 267.3 266.7 262.8 262 260.8 258.8 259.7 260.3 259.5 257.8 260 262.3 264.1 265.3 264.9 266.9 265 263.7 259.5 257.4 257.7 253.4 249.9 245.3 244.1 244.7 245.3 247.4 249.2 251.7 253.5 254.8 256 258.6 257.8 253.2 249 245 243.1 242.2 241.4 241.6 241.4 244.1 245.4 242.7
183.1 179.6 178.5 177.2 175.3 175.4 176.9 178.9 181.3 184.2 185.9 185.7 181.9 171.7 163.1 158.8 156.8 152.3 148.5 144.1 141 135.1 128.5 119.6 110.1 101.6 91.6 85.1 78.4 74.2 71.4 68.8 69 69.9 66.7 61.3 57.2 53.2 48.3 42.9 39.6 34.7 28.8 23.4 15.1 9 -2 -2 -2 -2 -2 -2 -2 -2 -2 -2 -2 -2 -2 -2 -2 -2 -2 -2 -2 -2 -2 -2 -2 -2 -2 -2 -2 -2 -2 -2 -2 -2 -2 15.7 31.4 40.5 58.4 64.7 72.4 81.1 88.8 95.2 103.8 113.2 119.8 129 137.6 145.2 151.2 158.5 167.9 175.9 181.7 188.2 196.4 204.1 213.6 222.1 229.3 236.5 236.7 237.9 235.6 236.6 238.3 243.5 246.3 250.1 250.1 251.5 250.2 244.9 248 249.8 253.6 255.7 260.7 262.1 262.9 262.1 254.6 262 261.3 260.5 258.3 252.5 249.8 255.1 253.5 255.2 258.2 268.6 277.9 279.9 276.8 275.8 284.8 287.3 284.4 281 279.1 274.4 270.2 263.6 261.3 259.2 258.5 258.4 255.1 252.9 251.9 251.1 248.7 248.4 247.9 247.6 249.1 249.1 250.9 251.7 252.5 254.9 255.5 256 256.9 255.9 252.1 250.2 249.5 246.8 243.2 239.9 240.1 242 243 246.6 248.9 251.1 253 254.4 256 259.1 258.7 257.1 252.4 247.8 246 245.4 243.1 243 244.7 248.4 248.4 243.8
193.2 189.2 185.8 182.6 181.1 180.6 180.4 180.7 181.5 182.4 184.2 186.5 185 179.6 170.9 164.3 160.8 156.8 152.2 146.8 142.8 138.6 132.7 124.1 114.1 106 97.3 88.3 84.5 76 71.2 69.4 68.9 69.6 67.7 61.6 59.4 56.8 50.7 48 42.7 38.2 29 23.3 16.5 6.1 -2 -2 -2 -2 -2 -2 -2 -2 -2 -2 -2 -2 -2 -2 -2 -2 -2 -2 -2 -2 -2 -2 -2 -2 -2 -2 -2 -2 -2 -2 -2 -2 -2 -2 -2 17.7 29.4 46 58.2 69.9 71.7 80.7 86.4 93.2 98.7 104.9 111.7 120.7 129.4 134.6 136.8 147.4 153.6 158 161.9 169.8 176.8 184.7 190.3 202.1 207.7 208.1 213.1 213.2 215.9 221 226.9 229.7 229.8 227.7 230.5 228.6 230.9 232.7 235 238.6 246.2 253 254 245.6 239 242 241.3 243.8 247.5 249.3 247.4 250.4 249.3 250.5 254.7 260.8 264.6 267 264.8 263.1 267.5 269.4 270.1 266.9 262.3 255.8 253.5 249.5 249.8 247.4 245.7 243.9 244.1 242 241 237.8 236.6 237.3 238.8 239.8 240 238.2 240.7 241.7 243 243.7 247.1 246.5 246.2 245.4 242.7 241 238.9 235.6 234.9 235.4 237 239.9 241.1 244.6 246.5 249.8 252.5 254.1 256.5 258.1 258.6 257.4 254.9 251.2 247.9 246.6 244 243.6 245.3 245.7 244.2 240.4
201.7 196.4 191.9 189.1 187.2 185 183.5 181.6 182.3 183.7 184.2 184.7 185.4 183.8 178.5 170.1 164.9 160.4 156.2 150.9 145.1 140.1 135.3 127.1 116.9 107.2 96.9 92.8 85.2 77.6 72.8 69.5 68.9 68 65.7 64.4 61.6 56.9 54.6 50.3 44.6 39.4 31.9 23.2 14.7 5.1 -2 -2 -2 -2 -2 -2 -2 -2 -2 -2 -2 -2 -2 -2 -2 -2 -2 -2 -2 -2 -2 -2 -2 -2 -2 -2 -2 -2 -2 -2 -2 -2 -2 -2 -2 -2 -2 22.4 38.6 48 54.6 61.5 69.4 73.7 78.5 83.2 91.4 98.5 108.4 111.5 115.4 118.1 125.9 132.2 137.2 142.2 147.2 151.6 159.5 165.4 173.1 180.6 186.7 186.5 192.1 198.3 202.4 204.9 206.2 208.4 209.6 212.7 216.9 213.3 211.7 215.2 219.3 224.8 227.3 219.4 218.9 222.7 226.4 226.6 231.4 233.9 227.1 224.3 228.5 235.4 238.1 241 243.8 245 247.3 248.1 248.6 249.2 248.5 249.6 248.2 243.4 240.5 238.5 234.9 232 232 228.1 228.4 228 224.6 224.2 225.3 224.5 225.6 226.6 226.5 226.2 228.4 228.5 229.3 231.3 232.9 232.9 231.8 229 226.5 224.9 226.7 228.2 230.4 231.1 233.8 237.1 240 243.2 245.3 248.3 251.4 253.9 255.5 257.1 257.4 256.7 254 250.6 246.9 244 243.3 243.6 243.9 243.4 238 235.6
213.2 205.7 201.3 198.1 194 190.7 187.7 185.5 185.2 185 184.6 184.9 185.7 185.8 182.7 177.6 168.8 165.5 159.8 155.2 148.7 142 134.7 128.9 119.9 112.8 105 97.1 86.8 81.3 77 73.4 71 70 68.4 66.8 65 59.8 55.6 52 47.1 41.6 34.8 25.6 14.2 4.8 -2 -2 -2 -2 -2 -2 -2 -2 -2 -2 -2 -2 -2 -2 -2 -2 -2 -2 -2 -2 -2 -2 -2 -2 -2 -2 -2 -2 -2 -2 -2 -2 -2 -2 -2 -2 -2 -2 -2 26.4 38.1 39.5 46.3 54.4 60.3 63.4 70.3 77.9 85 90.9 95.6 98.3 102.4 108.3 113.4 119.9 121 130.1 135.1 140.5 148.7 154.1 158.3 161 167.9 172.5 177.2 181 184 187.3 189.8 192.9 192.3 192.1 192 194.2 197.9 196 196.6 198.5 200.6 206.3 210.7 208.9 210.6 210.7 206.6 208.3 211.5 215.3 220.2 224 223.2 224.4 227.5 228.1 230.4 231.7 229.5 228.7 226.2 223.9 224 222.6 220.4 217.8 217 214.8 213.7 211.9 209.6 208.8 209.5 209.6 211.6 213.6 212 212.5 216.2 215.2 214.8 217.8 215.2 213.5 214.6 214.6 215.4 217.3 220.1 224 226.4 228.9 230.8 235.3 239.1 241.9 245.2 248 250.7 252.7 254.2 255.1 255.2 254.7 251.8 247.8 243.5 242.4 242.6 240.8 239.8 237.5 236.1 234.6
221.7 219.2 212.7 207.9 203.1 198.1 192.7 190.2 189.2 187.9 186.9 186.8 186 186.2 185.9 183.2 175.8 168.7 164.9 159 151.4 142.6 138 131.4 125.8 117.1 108.3 99.5 91.6 86.3 82.6 77.7 74.5 72 70.2 69.2 66.8 63.2 58.1 54.5 50.4 44.7 37.1 28.4 17.4 3.5 -2 -2 -2 -2 -2 -2 -2 -2 -2 -2 -2 -2 -2 -2 -2 -2 -2 -2 -2 -2 -2 -2 -2 -2 -2 -2 -2 -2 -2 -2 -2 -2 -2 -2 -2 -2 -2 -2 -2 -2 -2 18.6 26.9 38.3 46.2 53.1 55 61.5 66.8 76 80.7 84.5 86.6 90.8 95.1 99.6 103.3 107.7 114.3 121.5 127.5 130.5 134.2 139 146 150.5 155.1 158.3 162.5 165.4 166.9 172.6 170.8 170.6 170.7 172.7 174.4 175.9 177.5 180.6 184.4 186.8 190 189 190 187.3 185.9 189.8 193.6 198.2 202.8 204.1 206.7 208.9 208.5 209.7 209.7 209.8 210.3 209.7 208.6 208.1 206.6 204.8 204.7 200.7 199.8 198.8 198.5 195.3 194.6 195.5 195.8 196.4 198.6 200.2 200.5 201.8 202.8 201.9 201.2 201.7 203.7 205 207.6 211.5 213.7 216.5 219.6 222.3 225.8 228.5 232.1 235.5 238.6 242.3 244.7 247.3 249.2 250.3 251.4 252.3 252.3 251.3 248.2 243.2 238.8 238.9 237 236.2 235.6 235.9 236.3 235.9
223.1 229 221.9 217.7 213 206.3 197.5 195.6 194.2 192.6 192 188.8 187.1 185.9 185.7 185.5 182.5 175 166.7 162 157.2 150.7 140.9 133.7 127.8 122.2 112.4 103.3 96.6 93 87.8 84 78 74.6 72.8 70.5 68.9 67.2 63.3 58.6 55.5 47.3 40.4 31.3 17.4 11.2 -2 -2 -2 -2 -2 -2 -2 -2 -2 -2 -2 -2 -2 -2 -2 -2 -2 -2 -2 -2 -2 -2 -2 -2 -2 -2 -2 -2 -2 -2 -2 -2 -2 -2 -2 -2 -2 -2 -2 -2 -2 -2 8.8 20.4 29.7 36.7 42.4 49 54.8 62 66.6 72.8 76.2 81 83.5 85.9 89.6 91.7 95.6 101.8 108.9 112.9 117.8 121.5 127.4 130.7 136.8 138 139.7 141.5 143.3 148.8 150.7 148.8 149.8 151.2 154.5 155.6 159.1 160.7 164.5 167.8 169.1 169.8 169.5 169.1 169.3 172.5 175.5 177.6 180.2 184 187.8 191.8 190.6 191.7 193.2 194 195.5 195.3 194.2 192.7 192.3 191.6 190.9 187 185.3 184.3 182.5 182.2 183.1 183.8 185 186.9 188.5 189.9 190.9 191.9 194.1 194.6 196.9 198.9 201.8 205.6 209 211.5 215.2 217.5 220 223.5 226.5 228.8 231.6 232.6 236 237.7 240 242.2 244.2 244.3 245.8 247.2 246.3 243.9 239.4 237.5 236.8 236.6 236.1 234.1 233.3 233.7 234.6 234.5
215.5 224.5 226.7 224.8 221.9 217.5 210.3 200.7 197.7 198.6 195.9 191.8 190.1 188.8 185.4 184.4 185.3 180.4 173.3 169.3 162.6 154.3 147.1 137.8 132.7 126.9 118.2 111.6 103.4 98.4 92.6 87.3 82.1 78.5 75.9 74.6 71.6 70 66.2 62 57.9 51.2 43 32.4 23.2 14.2 6.4 -2 -2 -2 -2 -2 -2 -2 -2 -2 -2 -2 -2 -2 -2 -2 -2 -2 -2 -2 -2 -2 -2 -2 -2 -2 -2 -2 -2 -2 -2 -2 -2 -2 -2 -2 -2 -2 -2 -2 -2 -2 -2 -2 16.7 23.1 29.3 34.6 41.3 47.1 52.4 60.8 63.7 65.6 70.9 73.9 77.6 80.2 83.5 86.7 91.5 94.4 99.7 102.6 107.3 112.9 114.1 116.3 118.5 121.5 124.4 127.9 128.7 127.7 128.4 131.5 134.2 138.1 139.7 141.7 145.7 149 150.2 151 150.2 151.6 151.8 154.5 156.6 160.9 163.6 167.1 170.2 172.3 176.8 178.3 178.7 180.7 182 181.9 181.1 180.9 177.7 175.5 172.2 170.2 167.5 170.9 172 173.5 174.6 176.1 179 181 181.7 185.3 186.6 185.8 188.7 194.9 196.7 199.5 202.4 205.7 208.3 210.9 213.4 214.1 216.2 218.6 220.4 222.4 224.6 225.7 228.2 230.9 232.5 234.7 235.7 236.9 234.7 238.3 237.7 235.5 234.7 235.1 235.5 232.9 231 229.2 229.8 231.6 232.5 233.1
216.2 220.9 230.2 232.7 229.2 224.9 219 208.7 199.9 202.1 200.4 197.6 194.7 191.5 188.2 185.6 184.4 183.5 179.1 174.6 168.3 161.5 153.3 145.1 138.7 132 125.1 117 109.3 102.5 98.1 94 88.2 82.9 79.8 77.2 75.2 72.4 70.2 66.7 60.5 53.2 46.2 38.5 29.3 18.2 12.1 -2 -2 -2 -2 -2 -2 -2 -2 -2 -2 -2 -2 -2 -2 -2 -2 -2 -2 -2 -2 -2 -2 -2 -2 -2 -2 -2 -2 -2 -2 -2 -2 -2 -2 -2 -2 -2 -2 -2 -2 -2 -2 -2 -2 -2 15.4 22 26.2 29.1 33.7 42.6 50 52.3 55.8 58.8 65 69 71 74.3 78.2 79.2 82.1 87 90.5 93.5 95.8 95.4 99.5 101.8 105.3 109.1 110.6 110.5 109.8 113.7 115.4 117.5 120.6 122.2 126.3 128.2 129.8 130.7 130.6 133.3 133.8 136.8 140.3 144.3 148.4 152.7 156.1 160.6 163.7 165.9 165.7 165.4 167.1 166.8 167.1 165.1 161.5 158.6 157.4 157.9 157.6 161.1 164.1 165.5 167.1 171.3 172.8 175.5 176.2 176 172.6 188 190.3 192.9 193.8 195.7 197.2 199.1 200.8 203.5 205.4 208.1 210.4 213.2 215 215.9 217.6 218.7 220.1 221.5 223.3 224.7 226 227.6 226 229.3 229.5 229.7 227.6 226.2 224.8 225.3 225.1 227.9 228.3 234.9 236 239.1
220.4 221.2 226 238.4 234.3 227.8 221.8 212.9 203.6 203.4 206.4 204.1 200.3 196.5 193.6 190.8 186.9 183.7 182.4 179.3 173.5 168 161.1 153.2 143.9 135.7 131.5 125.3 116.5 109.3 103.3 99.5 94.1 88 84.4 81 77.7 76 73.5 71.7 64.3 56.3 49.9 41.9 34.9 28.5 18.2 -2 -2 -2 -2 -2 -2 -2 -2 -2 -2 -2 -2 -2 -2 -2 -2 -2 -2 -2 -2 -2 -2 -2 -2 -2 -2 -2 -2 -2 -2 -2 -2 -2 -2 -2 -2 -2 -2 -2 -2 -2 -2 -2 -2 -2 -2 -2 -2 -2 -2 20.3 33.2 36.6 41.8 46.8 52 55.6 59.2 62.3 63.6 66.2 69 72.6 75.8 75.6 76.7 79.2 81.4 82.8 85.9 88.2 90.8 91.5 92.1 93.8 98.1 99.7 102.7 104.4 107.6 107.1 108.4 111 113.8 115.2 117 120.6 123.8 128.6 133.6 138.1 141.9 145.5 149.3 150.6 152.3 151.9 149.9 148.7 148.5 147.9 142.7 140.3 140.5 140.3 143.4 149.6 153.2 154.1 153.4 157.8 160.7 165.3 166.4 159.3 175.3 179.6 182.2 185.1 186.9 188.5 189.7 192 194.3 196.7 199.6 202.6 205.7 206.4 209.7 210.5 212.7 213.4 214.5 214.9 215.2 215.5 215.4 216.2 213.4 213.7 210.5 208.9 211.7 220.9 225.9 225.5 230.1 229.1 228.4 235.8 237.6 234.1
221 222.8 225.9 229.1 228.4 225.1 221.6 216.4 210.1 207.6 205.6 204.9 202.8 201.7 199 194.3 190.5 185.2 183.1 181.9 178.5 172.9 166.1 159.8 152.2 143.2 136.3 132.3 122.6 114 109.6 105.5 97.9 93.1 90.2 86.3 82 78.6 78.1 73.4 66.7 59.2 52.7 44.5 39.7 32.5 23.4 13.1 -2 -2 -2 -2 -2 -2 -2 -2 -2 -2 -2 -2 -2 -2 -2 -2 -2 -2 -2 -2 -2 -2 -2 -2 -2 -2 -2 -2 -2 -2 -2 -2 -2 -2 -2 -2 -2 -2 -2 -2 -2 -2 -2 -2 -2 -2 -2 -2 -2 -2 -2 -2 27 31.3 37 36.5 40.3 44.2 49.9 52 54.8 57.4 60.5 60.6 60.6 62.1 61.9 62.5 69.9 71.6 72.5 71.6 74.5 76.5 79.3 81 82.2 83.4 84.3 86.5 89.6 92 94.5 97.1 96.8 98.8 103.6 107.9 113.6 117 121.9 126.3 129 127.3 126.9 122.1 121.3 121 119.2 116.9 116.5 124.6 127.7 125.5 127.6 134.7 137.5 139.4 139.1 145.7 147.8 150.1 155.4 155.1 163.2 167.2 171 173.4 175.3 177.3 176.9 178.9 182.1 185.3 187.2 191.5 192.8 195.3 199.4 200.9 201.5 202.3 203.1 202.5 201.6 200.6 197.2 195.3 195 195 194.5 200.2 210.9 219.2 219.6 220 221.6 221.8 224.8 232.5 232.4 228.8
222.3 223.4 226.5 227.4 227.2 225.5 221.5 218.8 214.7 213.5 212.8 210.5 206.8 203.3 200.8 198 194.8 190.5 186.4 184 182.3 178.4 172.3 166.4 160 150.8 142.3 137.9 132.5 122.1 114.5 109.3 105.6 98.6 94.7 90.5 87.8 83.3 80.8 75.2 70.2 63.3 56.2 49.4 43.3 35.4 26.4 14.4 -2 -2 -2 -2 -2 -2 -2 -2 -2 -2 -2 -2 -2 -2 -2 -2 -2 -2 -2 -2 -2 -2 -2 -2 -2 -2 -2 -2 -2 -2 -2 -2 -2 -2 -2 -2 -2 -2 -2 -2 -2 -2 -2 -2 -2 -2 -2 -2 -2 -2 -2 -2 -2 -2 5.1 13.3 13.6 20.2 25.1 31 37.2 40.9 42 45.3 46 46.4 46.6 45.4 47.7 49.5 52.4 54.9 58.8 59.2 60.2 62.5 64.1 64.5 65.1 69.3 71.7 74.4 74.9 73.5 72.8 77.3 82.7 87.5 91.6 95 98.1 100.3 93 85.6 84.8 85 86 91.2 94 99.4 103.8 108.4 109.8 111.3 115.2 119.8 123.7 126.9 130.4 133.2 136.8 138.3 143.2 146.2 150.4 153.4 157.1 159.3 158.4 158.7 156.8 159.2 160.8 164.6 167.1 173.7 172.4 177.1 180.9 182.9 184.6 188 189.3 187.8 185.5 185.1 182.9 182.7 182.4 183.4 191.3 202.2 208 211.5 213.6 214.1 211 209.8 209.8 212.7 218.4 231.7
222.5 224 227.3 228.9 226.4 224.8 222.2 220.1 218.8 216.6 216.9 216.2 214.2 211 208.2 201.8 199 196.3 191.1 187.7 182.7 180.6 177.9 172.1 166.8 154.8 149.2 143.5 139.4 131.3 121.8 115.2 109.6 102.5 98.1 96.4 92.5 87.9 83.2 78.1 69.9 68.9 60.8 51.4 45.4 36.6 29.1 17.2 -2 -2 -2 -2 -2 -2 -2 -2 -2 -2 -2 -2 -2 -2 -2 -2 -2 -2 -2 -2 -2 -2 -2 -2 -2 -2 -2 -2 -2 -2 -2 -2 -2 -2 -2 -2 -2 -2 -2 -2 -2 -2 -2 -2 -2 -2 -2 -2 -2 -2 -2 -2 -2 -2 -2 -2 -2 2.5 5.2 9.7 17.4 21.5 26.1 28.3 29.1 31 32.5 34.4 36.2 37.5 38.9 39.9 39.8 40.4 42.4 42.6 43.2 45.1 45.1 45.4 47.9 50.6 51.4 51.8 45.1 48.9 49.3 50 51 53.8 54.1 55.2 55.7 55.3 58.2 61.3 66.5 69.7 75.3 79 81.5 85.6 87.9 91.8 96.5 100.7 104.4 109.1 111.9 114.6 114.5 118.2 122.6 127.4 132.5 134.6 135.4 136.2 137.6 136.3 135.7 138.3 140.8 141.4 143.9 148.9 151.9 155.7 159.2 164.1 171.4 177.1 179.2 176.8 172.4 176.5 183.5 182 180.4 181.4 186.4 188.4 197.7 204.8 205.2 201.1 202.2 202.4 206.5 213.1 230.4 236.6
