ncols 200
nrows 91
xllcorner 620000
yllcorner 135450
cellsize 50
163.4 162.6 162.2 162 161.6 160.7 159.7 158.5 157.3 156.4 155.9 155.5 155.7 155.9 156.3 156.4 155.8 155.3 154.9 154.2 154.6 155.2 155.8 157.1 157.6 157.5 157.5 156.2 154.8 153.9 153.3 154.6 157 159.3 161.1 162.7 162.7 162 160.8 159.5 158.1 156.5 155.1 153.5 152 150.6 149 147.9 148.1 148.3 148.4 148.3 148.1 147.6 147 146.3 145.3 145.2 145 143.6 143.3 143 140.9 136.3 128.6 117.3 108.1 103.1 100.1 96.9 94.1 90.3 86.5 83.7 82.4 87.6 95.8 103.1 112 120.7 128.2 130 132.9 135.9 137.3 135.7 130.8 124.6 119.1 113.3 123.7 137.3 143.1 144.9 145.7 145.7 145.8 146.1 146.4 146.7 146.3 145.7 144.8 143.5 142.3 142.4 142.9 143.5 144.1 144.8 144.6 144.2 143.7 143.1 142.1 141.3 141.4 141.9 142.5 142.7 142.5 142.3 142.1 141.3 140.3 139.6 139.2 138.3 137.4 136.5 136.6 135.5 135.2 134.5 131.7 123.2 112.9 104.2 101.8 100.6 102.3 106.2 109.3 112.6 116.7 119.8 123.7 132 134.1 134.9 134.8 134.7 134.6 134.4 134.3 134.7 135 134.4 133.2 132.7 133 132.9 132.6 131 125.3 115.8 108 99.3 91.1 84.6 78.5 72.5 71 72.7 75.4 78.6 81.9 84.6 86.8 90.6 94.7 100 106.2 114.6 122.7 127.8 129.3 129.5 129 128.5 128.3 128.4 127.7 128.1 127.7 127.2 126.7 125.6 124.9 121.7
164.9 164.2 163.4 162.9 162.1 160.8 159.7 158.6 157.6 156.7 157 157.4 157.7 157.9 158 157.7 157 156.3 155.6 155.7 156.1 156.4 157.1 157.6 158.6 158.1 157.3 156.3 154.9 154.4 153.8 155.1 156.5 158.7 160.8 162.5 162.5 162.4 160.9 159.5 158.1 156.2 154.6 153.1 151.6 150.1 149.4 149.1 149.2 149.2 149.2 149 148.8 148.2 147.6 147 146.1 145.9 145 143 141 140.1 138.4 134.9 129 120.7 112.7 107.8 104.5 100.4 95.6 91.6 87.6 84.7 82.6 85.2 90.7 98.7 106.7 115.2 124.3 131.5 137 141 143.3 142.5 140 137.2 131.3 122.3 123.5 137.8 143.9 146.1 146.7 146.8 146.8 146.7 147.1 147.1 146.5 145.8 144.3 143.3 142.9 143.1 143.7 144.3 144.9 145.3 144.8 144.3 143.7 142.9 141.8 141.9 142.2 142.7 143.2 143.3 143.1 142.8 142.3 141.7 140.7 139.6 138.7 137.9 137.2 136.5 135.6 133.6 130.9 127.6 123.9 115.2 105.9 103.9 105.8 109.7 112.6 118.3 123.9 128.3 130 130 131.7 134.1 135.2 135.2 135.1 135 134.8 134.7 134.6 134.9 134.3 133.6 132 130.2 130 130.1 129.1 125.6 117.7 106.6 96.9 90.4 85.5 80.2 75 72.4 74.4 78.2 81.6 86.3 91.6 95.9 101.9 107.3 112.2 116.7 121.5 126.9 130 130.9 130.6 129.9 129.2 128.5 128.9 128.7 127.5 125.3 122.9 120.6 118.1 117 116.1 112.7
166.7 165.8 164.5 163.4 162.4 160.8 159.6 158.7 157.9 157.6 158.2 158.7 159 159.1 159.2 158.5 157.8 157 157 157.3 157.7 158 157.9 158 158.2 157.8 156.9 156 155.3 154.7 154.1 155.1 156.6 158.3 160.3 162.1 162.3 162.3 161.9 160.3 157.9 155.7 154.2 152.6 151.5 150.8 150.1 150 150 149.8 149.6 149.5 149.1 148.2 147.4 146.9 146.2 145.1 143.8 141 136.7 132.9 130.5 127.6 123.7 119 116.4 113.5 109.7 104.6 99.2 94.3 89.3 85.6 82.5 84.7 86.1 90.2 98.1 106.1 114.7 124.1 131.5 137.9 143 144.4 144.4 143.1 139.2 129.4 126.8 137.9 144.6 147.2 147.8 148 147.5 147.5 147.6 147.3 146.5 146 144.4 143.7 143.3 143.9 144.5 145.1 145.7 145.4 144.7 144.1 143.5 142.6 142.2 142.6 142.9 143.3 143.7 143.8 143.4 143 142.6 141.9 141.2 140.2 139.2 138.3 137.8 137.3 136.6 135.3 131.9 124.1 115.6 108.8 104.5 107 115.8 119.1 123.2 128.9 132.7 134.1 133.9 133.8 134 135.2 135.5 135.6 135.4 135.3 135.2 135 134.9 134.6 133.6 132.7 130.6 127.3 121.2 120.3 120.3 116.6 108.7 97 89.3 84.8 81.1 76.8 73.9 75.6 79.8 84.1 90.5 97.6 104.5 113.2 118.5 123.6 125.5 127.8 129.4 131.2 131.6 131.3 130.6 129.8 129.1 128.5 127.5 125.7 121.7 117.5 113.7 108.1 104.7 103.4 102.8 101.8
168.5 167.2 166 164.4 163 161.5 160 159.2 159.2 159.1 159.7 160 160.1 160.2 160 159.3 158.6 158.4 158.6 159 159.3 159.2 158.6 158.5 158.4 157.5 156.8 156 155.2 154.7 154.1 155.1 156.7 158.4 160 161.8 162.2 162.3 162.3 160.6 158.2 156.1 154.5 152.9 151.7 151 150.4 149.9 149.6 149.3 149 148.7 148.2 147.5 146.8 145.9 144.5 142.1 140.1 137.4 132.5 125.7 121 118.6 116.3 114.4 114.2 113.5 110 105.1 99.9 93.9 88.8 85.1 84.7 89.3 88.7 88.1 90.1 95.7 104 112.9 122.1 130.5 137 143 145.3 145.8 142.9 133.5 131.7 140.5 145.6 148.1 148.8 148.7 148.4 148.3 147.5 147.2 146.5 145.9 145.1 144.8 144.3 145 145.8 146.4 146.2 145.3 144.6 144 143.3 142.5 142.9 143.3 143.4 143.6 143.8 143.9 143.6 143.2 142.8 142.1 141.4 140.5 139.6 138.6 137.9 137.5 136.8 135.3 132.6 120.8 111.5 105.8 105.9 115.9 124.5 129.4 131.8 134 135.1 135.5 135.4 135.1 135.4 135.9 135.9 135.9 135.8 135.7 135.5 135.4 135.2 134.6 133.4 132.9 132.1 128 119.6 112.2 109 104.7 97 90.3 85.1 80.5 77.3 75.4 77.3 81.1 86.3 93.1 101.9 110 118.9 126 128.3 129.4 130.4 131.1 131.7 132.1 131.9 131.3 130.6 129.8 129.1 127.4 123.7 118.9 112.3 104 98.3 93.4 91.2 90 89.5 90.1
171.5 170.1 168.4 165.9 164 162.2 160.6 160 160.4 160.6 161 161.1 161.2 161.3 160.8 160.2 159.5 160.1 160.3 160.6 160.7 160.1 159.5 159.1 158.4 157.6 156.9 156 155.1 154.5 154.9 155.6 157.1 158.5 160.2 161.8 162 162.3 161.7 160.1 158.1 156.4 154.5 153.1 151.7 151 150.2 149.5 148.7 148.1 148 147.7 147.3 146.7 145.5 143.3 139.9 135.6 133.2 130.4 125.5 119 113.5 110.3 108.8 109 110.2 109.8 107.7 103.1 98 92.1 87.9 85.2 91.5 97 95.3 92.3 90.5 90.5 93.4 102.4 111.7 121 129.7 137.8 144.4 146.6 144.9 137.6 134.4 144 142.9 142 141.9 142.1 142.8 144.7 146 146.3 145.9 145.8 145.9 145.7 146 146.3 147 147.3 146.3 145.4 144.6 143.9 143.2 143.2 143.6 144.1 144.2 144.1 144.4 143.9 143.6 143.2 142.6 142 141.1 140.3 139.5 138.7 137.9 137 135.2 132.9 125.6 114 108.9 108.1 115.4 124.2 131.6 135.1 135.1 136.1 136.8 136.7 136.6 136.5 136.6 136.8 136.4 136.3 136.2 136 135.9 135.7 135.3 134.6 133.7 133.4 132.6 129 120.6 108.3 99.2 93.7 88.8 85.1 80.2 78.2 77.4 79 82.6 87.6 95.4 104.4 113.9 122.9 128.9 130.5 130.7 130.7 131.5 132.5 132.5 132.4 132 131.3 130.6 129.4 127.2 122.4 114.7 104.1 97.5 92.1 88.8 85.6 82.5 80.5 77.9 75.8
174.7 173.9 171.7 168.7 165.6 163.4 161.6 161 161.4 162.1 162.2 162.3 162.5 161.9 161.4 160.9 161.3 161.8 162 162 161.4 160.8 160.2 159 158.4 157.5 156.7 155.9 155 154.9 155.1 155.8 157.1 158.6 160.3 161.5 161.8 161.2 160.5 159.3 157.7 156 154.1 152.9 151.4 150.2 148.4 146.5 145.4 144.7 145.1 145.8 146 144.7 142.8 138.7 132.1 127.1 124.3 120.9 115.7 110.8 106.6 103 102.2 103.1 104.3 104.3 102.7 99.1 94.3 89.3 86.1 85.5 99.3 102.4 99.7 96.1 93.3 91.8 93 97.5 105.2 114.7 123.5 131.8 138.8 140 134.4 129 130 133.1 137.6 140.2 141.9 143.3 143.9 143.1 141.9 140.3 138.7 139.3 139.3 140.8 143.3 146.3 147.4 147.2 146.6 145.4 144.8 144 143.5 144 144.5 144.9 144.9 144.7 144.4 143.9 143.5 142.9 142.3 141.4 140.3 139.3 138.6 137.9 137.3 135.7 132.5 124.8 115.5 110.6 110.4 118.5 127.1 133.5 135.8 136.2 136.6 137.4 137.7 137.6 137.5 137.4 137.1 137 136.8 136.6 136.5 136.4 136.2 135.8 135.5 134.8 134 133.2 131 124.3 117.7 104 92.8 88.4 84.5 81.5 79 79.1 81.2 84.6 90 97.7 108 116.7 126.5 131.4 132.3 132.7 132.7 132.8 133 132.8 132.6 132.4 132.1 131.4 129.9 127.5 122.7 112.9 101.5 92.3 88.8 87.2 83.8 80.3 76.9 73.2 69.1 68
179.4 177.8 175 171.3 167.4 165.1 163.3 162.3 162.8 163.5 163.7 163.7 163.3 162.6 162.1 162.4 162.5 162.6 163.1 162.7 162 161 159.9 158.5 158 157.5 156.7 155.6 155.1 154.9 155 156 157.1 158.6 160 161 161 160.3 159.6 158.4 156.6 154 151.9 150.3 149.6 148.1 146 142.1 138.7 138.8 140 141.6 143.1 141.7 137.6 131.2 124.4 118.8 114.7 111.4 106.5 102.6 99.7 97.9 96.8 96.7 97.1 96 95.3 92.3 89.5 89 84.8 95.9 102.9 102.2 101.2 100.9 101.2 101.5 102.4 105 108.3 112.5 117.9 121.7 123.3 128.7 137.6 143.4 142 144.2 149.7 150.6 151.8 150.7 151.6 150.1 149.9 149.9 149.6 148.7 147.7 147.9 145.5 141.6 141.4 141.5 141.2 144.5 144.9 144.1 144.2 143.9 144.9 145.8 145.6 144.9 144.2 143.4 143.1 142.5 141.3 140.1 139.4 138.3 137.6 136.7 135.2 132.7 124.7 115.7 112.7 112.9 121.2 129.4 134.9 136.9 137.2 137.5 137.7 138.3 138.5 138.3 138.2 138 137.5 137.3 137.1 136.9 136.9 136.7 136.3 135.8 135.1 134.1 132.8 128.9 124.3 117.8 108.1 96.7 88.8 84.7 81.7 80.4 81.3 83.9 87.2 92.4 99.5 110 121.1 128.1 132.3 133.7 133.8 133.9 133.5 133.6 133.2 132.6 132.3 132.2 132 130.4 128.3 123.6 113.9 101.3 89.3 79.2 85.4 81.4 77.5 73.5 71.4 69.5 67.6 64.9
182.8 180.9 177.8 173.4 170.2 167.4 164.9 163.7 164.2 164.9 165 164.8 164.1 163.4 163 163.1 163.1 163.2 163.1 162.6 161.7 160.7 159.7 157.9 157.4 157 156.5 155.3 155.3 155 155.1 156.2 157.3 158.1 159.5 160.6 160.2 159.6 159 157.4 155.2 152 148.5 145.9 144.8 144 142.6 136.8 131.5 129.5 131.3 135.4 137.4 135.9 130.5 123.3 117 111.7 107.6 104.3 100.9 97.6 95.1 93.9 93 92.3 91.1 91.3 91.4 91 90.5 88.7 96.3 97.4 98.6 100 101.8 103.9 106.6 108.3 110 111.8 114.4 116.5 119.1 123.1 132.6 143.8 148 147 145.1 145.6 149.4 151.4 152.5 152.8 152.4 151.6 152 152 151.6 150.5 149.4 149.5 149.5 149.2 148.9 148.2 146.9 145 143.6 142 141.9 142.6 145.4 145.8 145.7 144.8 143.7 142.7 142.7 141.7 140.1 138.9 137.8 136.9 135.7 134.6 130.2 121 116.3 114.9 116.2 121.2 129.6 136 137.7 138.1 138.2 138.6 138.9 139.2 139.2 139.1 138.8 138.4 137.8 137.7 137.3 137 137 136.5 135.8 134.9 133.4 130.7 125.7 120.1 112.9 104.4 95.9 90.5 86.1 82.8 81.7 83.4 86.2 89.7 94.7 102.1 111 121.1 131.5 133.8 133.9 134.2 134.3 134.2 134 133.7 132.9 132.5 132.3 133.3 134 130 125 116.9 104.9 94.3 90.2 87.3 81.4 80 81.3 74.5 69.8 67.6 64.8 62.5
185.2 183.2 180.3 176.2 172.6 169.1 166.4 165.5 166 166.2 166.1 165.6 165 164.4 163.7 163 163.1 163.2 163 162.1 161 160.5 159.5 157.5 156.9 156.5 155.9 155.4 155.8 155.3 155.2 156.2 157.4 158.2 159 160.1 159.5 159 158.5 156.9 155.2 152 147.9 142.7 138.6 137.2 137 132.9 126.7 120.9 123 128.4 130.3 129.3 123.7 116.6 110.5 106.1 102.7 99.5 96.7 94.2 93 92.2 91.8 90 87.7 89.7 87.6 87.3 90.3 95.1 100.4 103.4 102.6 103.6 106.1 107.9 107.7 108 109.2 111 111.7 112.4 115.2 121.3 134.2 144.6 148.6 148.8 147.9 148 150 152 152.8 153.3 153.2 152.5 153.3 153.9 153 151.9 150.9 150.5 150.2 150 149.7 148.6 147.4 146.5 146.4 146.8 146.7 146.2 145.5 142.2 141.7 143.1 142.8 142.4 144.4 141.1 139.3 138.4 137.1 134.9 131.7 127.7 120.6 117.3 116.8 123.3 127.8 128.2 133.6 137.4 138.6 139 139 139.4 139.7 139.7 139.5 139.3 138.9 138.6 138.2 137.9 137.5 137.2 136.9 135.8 134.1 131.6 128.4 121.6 114 106.1 99.5 95 90.8 86.8 84.7 83.8 85.5 88.2 91.8 97 103.9 112.5 120.5 128.6 133.1 134.5 133.9 134.2 134.5 134.2 134 133.6 132.6 133.1 135.6 135.1 132.8 128.2 119.1 106.2 95.7 93.5 88 85.1 89.8 93.6 93.8 80.6 71.3 68.5 63.6 67.9
186 184 181.1 177.7 174 170.2 167.8 167.3 167.3 167.2 166.8 166.2 165.7 165.3 164.7 164 163.3 163.1 162.3 161.4 160.5 159.5 159.3 157.4 156.4 156 155.6 155.1 155.1 156.3 155.8 156.3 157.6 158.3 159.1 159.5 159.3 158.6 157.7 156 154.2 151 147.2 140.5 132.4 128.7 128.6 127.8 122.8 117.4 116.5 121 122.3 120.6 115.5 109.3 105 101.9 99.5 96.4 93.7 92.5 92.1 92.1 92 93.3 94 93.7 94.4 94.9 98.8 102.5 104.7 105.1 107.1 110.6 115.4 116.5 111.6 106.2 104.3 104.6 105.4 107 112.5 123.8 136 145.5 149.3 149.7 149.6 149.8 151.4 152.7 153.2 153.7 154.1 153.9 154.6 154.5 153.5 152.4 151.4 150.9 150.7 150.5 150 149 148 147.1 147 147.2 147.3 147 146.6 146.3 146.4 145.1 141.6 138.3 139.2 141.2 139.5 138.8 137.6 136.2 131.6 122.8 119.4 119.2 126.9 131.4 135.1 133.7 135.7 138.3 139 139.8 139.9 140.2 140.1 139.9 139.6 139.3 138.6 138.1 137.5 137.4 137.2 136.4 135.2 133 129.2 123.7 117.6 109.1 101.4 96.9 93.2 89.7 87.4 86.1 86.8 88.1 90.4 94 99.4 106.4 115.1 122.9 128.6 132.2 133.4 134.6 133.7 133.5 133.6 133.4 133.4 133.1 133.9 135.3 134.3 131.6 126.6 119.1 104 99.4 97.2 90.5 90.1 97.6 103.5 107.4 105.5 88.7 75.6 71.9 72.2 75.3
185.8 183.8 181.4 178 174.5 171.4 169.6 168.6 168.5 167.9 167.1 166.5 166.1 165.8 165.1 164.3 163.1 162.3 161.5 160.6 159.7 158.9 159.3 163.8 161 156.1 155.4 154.9 154.9 157.1 156.3 156.5 157.6 158.2 158.9 158.8 158.7 158 156.8 155.1 152.9 150 145.8 138.9 131 124.1 121.1 119.8 118.1 113.5 111.3 113.1 113.3 112.8 107.9 103.7 100.4 97.9 95.5 92.7 92.7 92.1 95.2 97.5 98.8 98.4 99 100.4 104.2 109.9 112.8 108.3 107.9 108.8 113.1 120.6 125.6 123.2 114.7 107.4 103 100.1 99.5 103.1 112.8 126.4 137.2 146.6 150 150.9 150.8 150.7 152 153.1 153.8 154.2 154.6 154.8 154.7 154.3 153.3 152.5 152 151.5 150.9 150.6 150 149.4 148.4 147.6 147.4 147.5 147.4 147.1 146.7 146.3 145.8 144.8 143.2 143.9 141.9 139 138.5 138.8 136.7 133.3 125.6 121 119.7 128.8 134.6 136.4 137.7 137.3 137.6 138.5 139.4 140.1 140.5 140.5 140.3 140 139.7 139.2 138.3 137.4 136.8 135.9 135.4 134.1 131.9 127 119.6 112.8 105.7 99 95.1 91.7 89.9 89.1 89.3 90.3 91.9 94.4 98 103.6 110.4 118 126 130.8 132.4 132.9 133.4 133.6 133 132.2 132.2 131 131.3 132.1 131.5 130.4 129.8 125.4 115.2 106.2 102.6 97.7 91.7 94.3 103.1 110.4 116.1 116.2 109.6 95.4 79.9 73.1 71.1 62.6
184.7 183.4 181.3 178 175 173.3 171.6 170.6 169.2 168.2 167.2 166.4 166 165.4 164.6 163.2 162.2 161.4 160.7 159.8 158.9 158.4 160.7 163.8 156.9 155.6 155.4 155.3 155.3 152.7 155.6 156.6 157.4 158.2 158.2 157.5 157.4 156.9 155.2 154.1 151.5 148.4 145.8 140.9 134 127.1 120.3 114.5 111.9 109.2 106.6 106.6 106.9 105.9 102.7 99.4 96.8 93.2 93.7 92.7 95.5 99.4 102.9 105 106.2 106.4 108.3 113.7 118 118.8 116.3 112.1 111 113.4 120.3 128.6 133.5 127.4 115.7 108.4 104.5 101.3 100.1 102 110.9 124.3 137.4 146.9 150.4 151.6 151.8 151.5 152.7 153.6 154.4 154.8 155 154.5 154.3 154.1 153 152 151.6 151 150.3 150.3 149.7 148.9 147.9 147.2 147.2 147.1 147 146.3 145.8 145.4 145 144.2 143 141.9 140.7 139.9 139.3 138.4 138.8 128.1 122.4 121.9 130.4 136.4 138.1 138.7 139 138.6 138.7 139.1 139.6 140.4 140.6 140.7 140.4 140.1 139.8 138.9 138 137.1 134.7 132.8 130.7 127.9 123.8 116.1 109 103.5 98.1 94.3 92 91.1 92 93 94.8 96.6 99.1 104 109.8 115.8 122.7 129.3 132.8 134.1 133.7 133.2 133.4 132.4 130.4 129.4 128 128.2 127.9 127.4 126.7 125 119.6 112.7 109.1 103.6 97.9 94.3 99.1 107.8 112.5 104.2 83.2 61.4 71 40.2 16.8 1.7 1.3 1.2
183.6 182.4 180.9 178.4 176.6 174.7 173.1 171.2 169.2 167.9 166.5 165.9 165 164 163.2 162 161.3 160.6 159.8 159 158.2 158.9 161.6 159.1 156.7 155.9 155.9 156.1 156.2 156.1 153.1 156.4 157.1 157.7 157.5 157 155.5 153.7 152.5 151.8 150.1 144.4 141.5 139.6 135.5 129.5 123.2 116.9 111.5 108.3 105.1 102.8 102.1 101.6 99.7 96.9 94.6 93.3 92.5 98 102.3 106.8 110.9 115.9 120 122.6 124.7 126.3 127 123.5 117.3 113.9 114 119.4 128.6 136.9 139.8 132.5 119.5 110.9 106.9 103.6 101.3 102.4 109.3 119.9 136.7 145.8 151.2 152.2 152.8 152.2 153.2 154.1 154.9 155.3 155.1 154.4 154 153.7 152.2 151.2 150.5 149.8 149.3 149.2 148.8 148 147.1 146.7 146.8 146.7 146.1 145.5 144.3 144 143.5 142.5 141.6 140.7 139 137.7 135 131.2 133.3 139.5 131.3 133.7 138.1 139.9 140.3 140.1 140.1 140 139.9 140.3 140.8 141 141.2 140.8 140.4 140.1 139.4 138.6 137.7 136.5 134.7 132.1 125.8 118.5 111.9 106.5 101.5 98 95 94.2 94.6 96.2 97.5 100.2 104.1 107.1 111.1 117.4 123.2 127.9 132.4 134.3 135.2 135.3 133.4 133.1 132.2 131.1 129.3 125.6 126.2 127.3 126.5 123.6 121 118.7 113.4 107.4 104.4 100.1 102.3 107.6 106.2 81.4 62.5 38.7 16 17.6 19.5 7.1 1.4 -0.4 -2.4 -2.4
181.2 181.9 180.5 179.4 177.7 176 173.9 171.5 169 167.2 165.9 164.9 163.8 162.6 161.9 161.2 160.5 159.7 159 158.2 158.6 160.4 159.4 157.3 157.4 156.7 156.5 156.6 156.9 157.1 154 155.2 157 157.1 157 156.1 153.1 150.2 148.9 148.1 146.6 140.7 135.1 133.6 131.3 127 123.3 119.2 114.8 110.4 105.6 101.9 100.1 98.2 96.6 96.1 93.3 97.9 100.4 105.3 110.6 116.3 123.7 131 134.7 136 136.9 134.6 130.5 123.7 117.8 117.1 119.5 127.8 137.4 144.1 143.5 136.5 125.6 115.3 109.9 106.3 102.8 102.6 108.6 120.1 137.2 146.8 152 153 153.3 153.4 154.3 155.2 155.5 155.4 155.3 154.5 153.3 152.2 150.8 150 149.3 148.5 148.2 147.7 147.2 146.9 146.3 146.2 145.9 145.6 145.3 144.7 143.4 142.5 141.9 140.7 139.8 138.2 135.8 130.9 127.2 125.8 131 135 139.8 139.4 141.3 141.8 141.7 141.5 141.4 141.4 141.3 141.6 141.7 141.7 141.3 140.8 140.4 139.7 139 138.3 137.5 136.7 135.6 132.4 124.4 113.9 106.3 101.2 97.6 96.3 96.7 98.9 101.4 104.2 107.1 110.7 115.3 119.2 123.5 127.7 132.2 134.7 135.8 135.7 134.6 133.9 132.6 132.3 132 129.9 129.4 128.3 126.8 125.3 123.2 120.1 116.5 112.9 109.5 108.2 108.2 110.7 110.5 87 43.8 36 16 16.8 16.1 14.6 17.9 10.5 0.5 -2.4 -2.4 -2.4
179 180.1 180.1 179.6 178.4 176.7 174.4 171.9 169.4 167.8 166.7 165.1 163.3 162 161.2 160.5 159.8 159.1 158.4 158.7 160.1 159.8 158.1 157.9 157.6 157.3 157.1 157.3 157.3 157.9 156 148 156.3 155.7 153.9 152.8 151.1 147.5 143.9 143.4 141.3 137.8 131.1 126.1 124.2 121.4 118.8 116.5 114.2 109.1 104.5 101.2 98.1 96.3 96.1 95 100.8 106.6 110.1 115.1 122.3 130.3 136.4 140.7 143.2 144.1 140.5 135 128.9 122.2 120.1 121.6 129.1 136.6 144.9 147.2 144.6 137.9 128.6 118.5 112.7 108.5 104.4 103.4 108.4 119.7 135.7 145.6 151.9 153.8 154.3 154.7 155.2 155.9 155.6 155.6 155.4 154.4 153 151.6 150.2 149.2 148.4 147.5 146.8 146.2 145.7 145.2 144.9 144.8 144.6 144.4 144.1 143.8 142.4 140.9 139.9 138 135.2 132.3 128.6 131.4 132.9 136.2 138.6 140.8 140.5 138.6 142.2 142.7 142.4 142.3 142.3 142.4 142.4 142.2 142.2 142.1 141.4 140.8 140.1 139.3 138.5 137.9 137.5 136.3 134 128.9 119.4 109.4 102.3 99.1 98.6 101.1 104.4 107 111.3 115.4 119.4 123 126.8 129.8 132.2 134.1 135.3 136.2 135.7 135.6 134.3 133.3 130.9 131.5 133.6 130.6 130.3 130.2 129.3 128.2 126.6 124.5 120.2 119.9 118.9 118.2 110.8 73.2 55 35.7 15.9 17 16.7 16 15.6 14.6 13.5 17 -2.4 -2.4 -2.4 -2.4
176.5 178.2 179.4 179.2 178.3 177 175.1 173.2 171.3 169.6 167.8 166.3 163.8 162.4 161 160.1 159.3 158.8 158.8 159.7 160.2 159 158.5 158.4 158.1 157.6 157 156.6 156.8 157.1 156.9 155.8 144.3 153.3 149.7 148.2 146.2 143.4 136.9 136.9 139.5 137.7 132.1 123.1 117.3 113.9 111.8 109.8 108 104.2 100.6 97.9 97.5 97.5 98.7 102.6 108.9 115 120.3 126.6 134.4 140.5 145.5 148.3 148.2 145.9 138.9 132.6 128 124.5 124.9 130.4 137.5 145 147.8 148.1 145.1 138.2 129.3 119.9 114.5 109.7 105.3 104.6 108.9 117 129.4 141.4 149.4 153.9 154.8 155.4 156 156.2 155.9 155.6 155.4 154.1 152.8 151.3 150.2 149.3 148.2 147.2 146.6 146 145.1 144.4 143.5 142.6 142.7 142.9 142.3 141.3 140.2 138.8 136.8 134.8 133.5 133.8 133.4 135.4 139.1 140.8 142.1 143 143.8 143.6 138.5 142.1 143.1 143.2 143.3 143.2 143 142.8 142.8 142.2 141.5 140.6 139.6 138.6 137.7 137.1 136.3 133.7 129.3 123.1 113.6 104.8 100.8 100.1 103.6 108.4 113.1 117.6 122.5 127.6 130.9 133 134.4 135.2 136.1 136.2 136.5 136.5 135.9 133.3 131.9 134.5 130.8 130.6 131.2 131.5 131.1 130.7 129.9 129.3 128.7 127.5 127 127.3 107.9 80.6 56.6 28.7 16.8 17.2 17.3 17.3 16 14.7 14.6 13.9 13.2 22.8 -2.4 -2.4 -2.4 -2.4
172.9 175.4 177.2 177.8 177.7 177.1 176.2 175.1 174 172.5 170.2 167.7 165.2 163.5 161.9 161 160.3 159.7 159.5 159.2 159 159 158.8 158.6 157.9 157.2 156.7 156.4 157 157.2 157.3 156.9 152.5 140.4 141 138.8 138.9 137.4 132.2 131.1 135 134.9 132.4 125.7 118 111.9 107.6 104.4 101.4 98.8 98.7 97.9 98.2 100.1 105.8 112.6 118 124.1 130.7 137.6 143.7 148.5 150.9 151.1 149 143.4 139.2 136.6 132.4 129 132.3 139.8 145.6 149.6 149.6 148.9 146.2 139.9 131.6 120.8 115.2 109.9 105.9 106.4 111.6 117.9 125.9 137.4 147.8 153.6 155 155.7 156.1 156.4 156.2 155.9 155.2 153.9 152.5 151.2 150.3 149.3 148.3 147.4 146.7 145.9 145.1 144.4 143.2 142 140.7 140.7 140.2 138.8 137.8 136.3 136.3 137.2 139 139.5 137.4 138 140.8 142.1 143.4 144.2 144.9 145.6 143.9 137.5 141.2 144.3 144.1 144 143.7 143.5 143.1 142.2 141 139.9 138.8 137.6 136.5 134.7 132.7 128.4 121.9 115 108 102.6 101.6 105.7 111.3 117.5 122.6 127.9 131.9 134.7 135.7 136.6 137 136.5 136.2 136.6 136.8 135.5 133.3 135.6 133.3 131.9 131.6 131.7 132.3 132.2 131.7 131.2 130.6 130 129.4 127.2 119.8 98.1 62.8 27.3 17.2 17.2 17.2 19.9 20.7 17.9 14.8 14.1 13.4 15.2 16.8 9.5 -2.4 -2.4 -2.4 -2.4
168.5 171.8 174 175.1 176.3 176.4 176.4 176.1 175.4 174.1 171.9 169.4 167.2 165.3 163.4 162.5 161.6 160.8 160.3 159.9 159.4 159.4 159.1 158.2 157 155.7 155 155.3 155.5 156.4 156.6 153.4 151.1 144.6 136.5 132.4 131.6 131.5 127.8 125.4 129.3 129.9 130 125.7 119.9 113.4 107.8 102.6 100 100.1 98 99.4 102 107.2 115.5 121.3 127.2 133.7 139.7 145.7 150.2 153.1 153.4 152.1 148.6 144.8 145 143 136.2 135.2 140.3 146.3 150.1 151.7 150.8 149.4 145.8 138.7 129.1 119.6 113.8 109.3 107.3 109.4 115.7 124.4 132.9 140.3 148.7 154.2 155.4 155.7 156.1 156.3 155.6 155 154.4 153.6 152.2 151 149.9 148.8 147.7 146.8 146.3 145.7 145 144.2 143 141.8 140.7 139.3 138.9 138.4 137.8 138.6 139.6 141 141.3 140.6 139.7 140.1 141.9 143.2 144.3 145.1 145.8 146.2 146.3 144.3 138.5 138.9 145 144.7 144.3 143.9 142.4 141.1 140.1 139.1 137.5 135.5 132.6 129.7 126.3 121 114.4 108.2 104 102.9 107.8 113.9 120.2 126.4 131.8 134.7 135.8 136.8 137.4 137.4 137.3 136 135.4 135.2 134.3 135.3 134.6 133.9 132.8 133.1 132.7 132.8 133.2 132.6 132.8 132.7 127.9 124 113.7 83.1 62.8 39.4 17.5 18 20.7 19.2 17.8 18.5 18.7 17.2 24.9 14.3 17.3 9.6 -2.4 -2.4 -2.4 -2.4 -2.4 -2.4
163 166.7 169.5 171.5 173.1 174.1 175.1 175.3 175.4 175.1 173.6 171.2 169.9 167.7 165.8 164.5 163.2 162.1 161.4 160.8 159.9 159.8 158.9 157.9 155.7 152.7 150 150.3 150.1 149.3 151.2 151.8 150 146.3 139.2 131.8 125.1 123.7 121.3 119.4 122.9 124.1 125.4 121.5 116.2 111.1 105.5 101.6 100.6 99.4 100.1 101.6 107.5 115.8 124.2 130.9 137.2 141.9 147.1 151.5 155.3 155.8 154.6 152.8 149.9 149.3 149.1 145.6 140.9 142.6 147.3 150.4 152.1 152.4 151.3 147.7 142.1 134.8 125.6 117.2 112.4 109.8 109.2 112.5 118.6 128.1 138.8 146.4 152.6 155.1 155.6 155.8 155.9 155.3 154.7 154.1 153.4 152.5 151 150.1 149.2 148.2 147.1 146.1 145.5 144.8 143.8 143.2 142.6 141.6 140.7 141 140.9 140.4 140.4 141.4 142.2 142.2 141.8 141.2 140.2 140.9 142.6 143.4 144.3 145.1 145.9 146.4 146.7 146.6 144.5 137.5 134.3 143.3 144.3 143.4 142 140.1 138.9 136.5 134 130.1 125.8 122.2 119.1 113.6 108.1 105.6 105.5 110.2 116.5 123.1 129.6 134.2 136.3 137 137.2 137.1 137.3 137.1 136.4 134.6 134.5 134.7 135 134.1 133.4 133.6 133.9 134.2 133.9 134 134 133.3 123.5 113.6 92.4 72.9 58.8 36.5 18.4 17.4 14.1 18.4 22.4 21.9 21.2 18.9 17.6 18 17.4 10 -2.4 -2.4 -2.4 -2.4 -2.4 -2.4 -2.4 -2.4
156.2 159.5 163 167.6 169.5 171.1 172.6 173.3 173.8 174.1 174 173 171.8 169.7 168.3 166.7 165.2 163.9 162.5 161.6 160.4 159.9 159.4 158.4 155.5 151.3 147.9 143.7 142.4 141.6 142.5 147.9 148.3 147.1 141 136 128.5 121.1 116.8 114.6 116.6 117.8 119 116 111.1 106.1 101.9 101.3 98.9 99.5 100.8 106.9 115.8 123.5 131.1 138.9 145.1 149.2 152.9 155.8 156.5 156.5 156.2 154.9 153.4 152.3 150.8 147.6 146.8 149.3 151.7 152.9 153.4 151.8 149 144.5 136.9 129.9 122.1 115.1 111.4 110.7 113 117.1 122.6 131.4 141.8 150 155.4 156.2 155.8 155.4 155 154.3 153.7 153.1 152.3 151.2 149.9 149.1 148.5 147.5 146.4 145.5 144.7 143.9 142.9 142.6 141.9 141.8 142.6 142.9 142.2 141.6 141.9 142.3 142.9 142.4 142 141.4 140.9 141.6 142.6 143.3 144.3 145 145.6 146.2 146.1 146.1 145.9 144.7 135.7 135.4 133.2 141.8 139.5 138.2 135.4 131.7 127.4 123.1 118.8 115.4 112.4 109.4 107.6 108.2 114.6 120 125.6 132.3 136.8 137.9 138.4 138 137.2 137.6 137.9 134.9 134.7 137 135.8 135 134.2 134.6 134.7 134.9 135.2 135.1 135.2 135.2 134.3 115.8 84.4 73.6 54.3 30.5 18.7 17.5 15.5 14.1 14.2 17.6 18.7 21.2 21.9 18.1 14.3 -2.4 -2.4 -2.4 -2.4 -2.4 -2.4 -2.4 -2.4 -2.4 -2.4 -2.4
149 153.1 158.2 163.5 165.8 167.2 168.8 170.2 171.2 172 172.4 172.4 171.8 170.5 169.5 168.3 167.2 165.8 163.8 162.4 161.2 160.8 160.1 158.3 154.9 150.8 147.6 143.7 139.6 137.4 138.4 141.8 144.4 145.2 143.3 139.3 134.1 126 117.7 113.9 111.6 111.5 111.9 110 106.6 101.5 101.8 99.8 99.1 99.6 105 111.9 119.2 125.1 131.9 138.8 145.7 149.5 152.5 154.4 155.8 156.7 156.9 156.6 155.9 155 153.3 152.3 152.6 154 154.6 154.6 152.8 149.9 144.2 136 128.3 121.5 116.3 113.5 112.3 113.3 117.5 123.3 129.6 136.6 145.5 152.6 156.2 156.6 156 155.1 154 153.4 152.8 152.3 151.2 150 148.7 148.1 147.4 146.8 145.7 144.8 143.9 143.6 143.4 143.3 142.9 143.3 143.9 143.7 143 142.6 142.9 143.3 143.3 142.7 142.2 141.7 141.8 142.3 143 143.1 143.9 144.4 144.8 145.2 145.2 145.2 144.7 143.5 141.5 133.3 133.9 129.7 125.5 128.3 127.2 124.7 120.5 116.5 113.6 111.9 109.8 109.1 111.3 118 124.8 130.1 134.4 137.9 139.4 139.9 138.7 137.8 135.2 134.6 137.1 138.2 137.3 136.4 135.1 134.3 134.7 135.4 136.4 136.2 135.5 135 134.8 113.8 99.3 65.1 43.3 32.7 18.6 17.4 17.2 14.1 14.1 15.2 16 15.4 17.1 17.4 16.2 10.1 -2.4 -2.4 -2.4 -2.4 -2.4 -2.4 -2.4 -2.4 -2.4 -2.4 -2.4 -2.4
144.1 147.6 155 160.4 161.9 162.3 163.7 165.6 167.5 168.9 169.5 170.4 170.3 169.5 168.8 167.9 166.5 164.9 163.6 162.4 161.4 160.3 159.5 157.3 153.9 148.5 144.3 141.6 137.6 133.6 133.2 135.8 139.4 141.7 142.1 139.9 135.6 131.6 124.1 113.9 110.3 108.6 107.4 104.6 102.3 100.5 102.8 102.6 102 103.3 106 110.8 116.1 118.9 124.2 132.5 139.3 144.1 145.8 147.3 150.7 154.5 156.8 157.6 157.9 157.8 156.7 155.8 156.2 156.2 156 154.6 149.8 144.7 135.5 126.2 119.7 116.7 115.6 115.7 116.3 118.8 123.4 130.1 137.4 144.2 150.1 155.4 156.7 156.2 155.2 154.4 153.5 152.8 152.2 151.6 150.2 148.9 147.7 147 146.4 145.8 145.3 145.1 144.9 144.7 144.5 144.2 143.9 144.3 144.5 144.4 144.2 143.9 143.6 143.9 143.7 143.1 142.6 142.1 142.4 143 143.2 143.3 143.5 143.8 143.7 143.9 143.8 143.2 142.2 140.4 138.4 135.2 130.7 128.5 130.6 127.4 121.6 117.2 117.1 116.8 115.5 113.2 110.9 111.9 117.9 125.2 133 136.4 137.9 138.7 137.4 133.4 134.6 137.1 138.7 138.9 138.3 137.2 136 135.3 134.3 134.4 135.1 135.6 136.2 135.7 125.1 117.1 105.6 72.1 49 21 18.5 17.6 14.3 14.3 15.9 19.1 19.5 19.4 18.9 14.8 15.1 11.6 -2.4 -2.4 -2.4 -2.4 -2.4 -2.4 -2.4 -2.4 -2.4 -2.4 -2.4 -2.4 -2.4 -2.4
142.6 145.1 153.2 157.7 157.4 156.9 157.8 160.2 162.7 164.8 166.2 166.4 166.8 167.3 166.1 164.4 162.2 160.9 159.6 159.1 158.8 158.9 157.8 156.5 152.4 146.7 141 137.6 134.7 131.1 127.3 129.8 133.4 136.3 137.9 137.3 134.6 131.7 127.6 121 114.3 108.1 108 103.7 100.3 102.7 101.8 104.7 106 105.6 106.2 109.2 111.2 113.3 116.3 122.7 130.6 134 134.9 138.2 144.2 151.2 156.9 158.5 159.3 159.6 159.2 158.8 158.3 157.6 156.4 151.9 146.1 136.6 127.1 120.3 118.1 118.2 119.7 121.2 122.8 125.8 132.5 138.3 145 150.6 155.7 158.5 157.9 156.1 154.5 153.8 153.1 152.3 151.6 150.7 149.4 148.4 147.9 147.9 147.4 146.8 146.3 146.2 146.1 145.8 145.4 145 144.8 144.9 144.8 144.7 144.6 144.5 144.3 144.1 143.8 143.5 143.1 142.9 143 143.3 143.4 143.5 143.4 142.8 142.6 142 141.6 141 138.7 136.4 132.9 129.5 126.7 125.6 122.7 123.2 123.1 126.2 123.8 120.5 120.9 121.2 121.2 121.8 124.6 129.2 130.3 131 131.6 133.1 138.7 139.5 140.5 139.3 139.3 138.4 137.4 136.5 135.3 134.5 134.3 134.8 135.2 133.8 132.4 122.1 89.4 62.2 44 26.4 20 21.4 21.1 16.8 16.5 20.5 23.9 24.6 23.6 19.3 13.7 9.8 -2.4 -2.4 -2.4 -2.4 -2.4 -2.4 -2.4 -2.4 -2.4 -2.4 -2.4 -2.4 -2.4 -2.4 -2.4 -2.4
141.2 143.2 150 154.5 153.7 151.5 151.4 154.2 157.5 160.2 160.6 161.3 161.8 162.7 161.6 158.2 156.3 153.8 153.7 153.5 153.3 153.7 153.3 153.7 152 148 142.7 136.1 131.2 128.8 125.3 123.9 127.4 130 131.9 133.1 131.1 128 125.4 120.8 114.3 109.7 108.4 101 100.1 102.5 108.1 111.2 110.6 108.2 107.5 108.7 110.6 112.7 114.7 117.8 123.2 126.2 129.1 133.4 141.5 150.3 156.9 159.8 160.6 160.5 159.8 159 158.1 157.1 154.3 148 140.5 129.6 122.5 119.8 120.2 122.5 125.2 128.5 131.1 134 140.4 147.8 153.1 158.2 160.8 160.8 157.8 155.4 154.2 153.7 153.1 152.2 151.5 150.9 150.1 149.1 148.6 148.3 148.3 147.8 147.4 147.3 146.9 146.5 146.1 145.7 145.3 145.3 145.2 145.1 145 144.9 144.5 144.6 144.6 144.2 143.9 143.7 143.7 143.6 143.4 143.3 142.8 142.1 141 140.3 139.7 138 135.2 131.7 128 125.4 124.2 122.4 120.3 120.4 120.8 121.1 121.9 123.1 124 124 123.9 123.9 127.1 131.9 137.5 141.8 141.5 141.3 142.2 141 140.3 139.2 139.3 138.5 137.2 135.8 134.4 134.4 134.5 134.4 121.2 107.5 88.3 59.8 50.4 33.9 21.3 18.3 20.4 23.4 22.7 17.9 21.8 25.5 25.2 23.8 19.4 11.3 -2.4 -2.4 -2.4 -2.4 -2.4 -2.4 -2.4 -2.4 -2.4 -2.4 -2.4 -2.4 -2.4 -2.4 -2.4 -2.4 -2.4 -2.4
140.2 141.1 147.1 151.1 150.7 146.7 146.6 148.7 152.8 155.6 154.8 155.4 156.6 157.2 156.1 152.4 147.9 144.8 144.2 145.9 146.3 147.6 147.7 148.6 148.6 148.2 145.4 140.3 135.4 133.3 130.3 126.6 122 122.6 124.3 125.8 125.7 123.1 119.3 115.6 111.4 108.1 104.1 98.9 103.3 111 117.6 120.2 116.9 114.6 112.8 112.6 112.4 115 117.8 118.8 121.3 126 131.3 138.4 147.3 154.2 159.5 161.2 161.1 160.8 160.1 159 156.5 153.9 152 145.6 135.8 127.1 122.5 121.3 123.6 128.8 132.9 136.3 139.4 143.5 147.5 153.7 161.4 163.9 164.8 162.9 159.9 157.1 155.8 154.6 154.3 154 153.1 152.5 151.6 150.5 149.8 149.4 149 148.7 148.4 148 147.6 147.2 146.7 146.3 145.8 145.7 145.7 145.6 145.5 144.9 144.7 144.8 144.9 145 144.7 144.4 144.1 143.9 143.5 142.4 141.9 141.3 140.1 138.6 137.2 134.4 131.6 127.6 125.7 125.6 128.5 130.7 130 127 128.7 132.9 135.6 135 133.7 127 124.3 126.8 131.2 137.9 141.6 142.9 143.1 143.1 142.4 140.8 140 138.6 137.8 137.1 136 133.3 131.8 124.2 112.9 102.2 67.3 50.4 41.9 22.9 16.3 8.5 7.8 10.5 10.8 17.2 17.8 19.7 22.8 22.3 17.4 12.3 -2.4 -2.4 -2.4 -2.4 -2.4 -2.4 -2.4 -2.4 -2.4 -2.4 -2.4 -2.4 -2.4 -2.4 -2.4 -2.4 -2.4 -2.4 -2.4 -2.4
140.1 139 142.4 146.2 145.7 143 141.1 143.4 147.8 150.9 149.6 149.5 151.3 151.8 151.5 147.6 141.5 136.9 135.9 136.1 136.4 138.5 140.2 142.1 144.4 145 145 143.1 140.4 137.7 134.3 128.9 122.8 117.5 116.8 117.9 119.2 117.7 114.4 111.4 109 106.9 97.2 102.1 110 117.8 126.2 126.4 122.3 123.2 122.7 122.8 118.7 121.1 124.3 122.3 123.4 128.1 135.7 144.6 152.8 159.2 162.2 161.9 161.5 161.1 160.1 158.6 155.8 151.6 147.6 141.2 133.3 126.5 123.2 123.4 129 135.5 140.7 144.5 148.9 153.3 155.4 160.4 166.9 169.1 168.6 166.6 163.9 161.7 159.9 158.3 157.3 156.3 155.3 154.7 152.9 151.8 151 150.6 150.2 149.9 149 148.6 148.2 147.8 147.4 146.8 146.3 146.2 146.1 146 145.6 144.8 144.9 145 145.1 145.4 145.1 144.8 144.4 144 143.3 142.2 140.9 140 139.3 136.5 133.8 130.7 127.5 128.1 132.2 134.6 136.7 137.1 135.6 131.1 135.5 138.3 137.8 136.7 134.1 127.3 123.8 127.8 133.8 139.6 142 143.5 143.4 143.3 142.1 139.5 139 137.6 136.9 132.7 121.1 80.5 57.4 60.7 44.6 23.7 7.5 1.6 1.2 0.7 0.2 9.4 10.3 6.1 8.1 11 13.4 13.8 15.3 12.9 -2.4 -2.4 -2.4 -2.4 -2.4 -2.4 -2.4 -2.4 -2.4 -2.4 -2.4 -2.4 -2.4 -2.4 -2.4 -2.4 -2.4 -2.4 -2.4 -2.4 -2.4 -2.4
140.7 137.3 138.5 140.4 140.7 139.3 137.8 139.2 142.7 144.6 143.8 144.8 146.8 148.6 147.8 144.4 138.7 133.8 130.4 128.6 128.5 129.9 132.5 135 137.8 140.5 142.9 143.2 142.7 140.6 136.2 129.8 122.4 115.4 113.4 112.8 112.9 112.5 110.8 109.1 107.2 102.5 97.4 106.3 113.8 125.3 132.8 133.5 132.6 134.1 133.6 129.2 124.1 128.6 130.4 127.2 126.6 130.4 139.6 148.7 157.3 162.6 163.6 163.3 162.5 161.5 159.9 158 155.1 150.7 144.2 136.1 130 125.6 124.1 126.5 133.4 141.2 148.3 155.5 159.5 161.6 163.2 165.6 169.7 172.5 171.8 170.2 168.5 166.6 165.1 162.9 161.1 159.7 158.5 156.6 154.6 153.1 152.4 151.8 151.6 151 150 149.3 148.9 148.5 148 147.4 146.8 146.7 146.6 146.3 145.5 144.9 145.1 145.3 145.6 145.9 145.5 144.9 144.4 143.9 143 141.8 140.6 138.7 136.9 133.6 131.2 130.2 131.1 134.4 136.9 139.2 139.4 139.2 136 136.6 139.4 139.5 138.3 136.8 133.6 126.9 124.8 130.3 135.6 140.4 143 144.2 143.2 138.9 117 101.5 100.1 102.8 102 82.6 63.7 26.4 13.9 5.5 1.4 0.9 0.2 -0.1 -0.9 -2.4 -2.4 -2.4 -2.4 -2.4 -2.4 -2.4 -2.4 -2.4 -2.4 -2.4 -2.4 -2.4 -2.4 -2.4 -2.4 -2.4 -2.4 -2.4 -2.4 -2.4 -2.4 -2.4 -2.4 -2.4 -2.4 -2.4 -2.4 -2.4 -2.4 -2.4 -2.4 -2.4
141.9 137.7 135.5 135.1 134.6 134.7 134.7 135.9 137.9 138.4 137.1 137.3 139.8 142.5 142.5 140.6 137.6 133.1 128.9 126.4 124.7 124.5 126 127.9 130.7 133.7 137.3 140.2 142.3 140.7 137.4 131.6 124.4 117.3 113 111.3 110.1 108.8 108.2 107.2 105.5 96.2 101.1 108.3 117.9 129.2 137.1 140.9 141.9 142.3 138.6 131.6 129.8 135.9 136.2 131.2 128.5 132.8 142.8 152.7 160.3 163.6 163.9 163.5 162.5 161.1 158.8 156.7 150.4 147 141.7 134.7 129.7 126.1 125.3 129.2 137.5 146.6 155.6 160.3 162.2 163.4 165.6 168.7 171.7 173.3 173.3 172.5 170.8 169.8 169.2 167.4 164.9 163.1 161.2 158.4 156.1 154.5 153.7 153.3 153.1 152.1 151.2 150.2 149.5 149.1 148.5 147.9 147.4 147.2 147.1 146.8 146 145.5 145.6 146 146.1 146.3 145.8 144.4 143.6 143.8 142.5 141.4 139.8 136.7 133.4 131.3 131.2 132.7 131.3 128.3 121.4 126.2 136.5 138.2 138.7 139.7 140.5 139.9 138.3 135.8 131.6 127.2 128.5 124.6 120.9 134.5 122.1 120.6 115.8 92 65.2 49 47.7 29.5 26.7 5.7 1.3 0.8 1.1 0.7 0.4 -0.8 -2.4 -2.4 -2.4 -2.4 -2.4 -2.4 -2.4 -2.4 -2.4 -2.4 -2.4 -2.4 -2.4 -2.4 -2.4 -2.4 -2.4 -2.4 -2.4 -2.4 -2.4 -2.4 -2.4 -2.4 -2.4 -2.4 -2.4 -2.4 -2.4 -2.4 -2.4 -2.4 -2.4 -2.4 -2.4 -2.4
139.7 137.1 134.9 133.3 131.8 131.3 131.9 132.7 133.4 132.7 132.3 132.9 133.8 135.5 136.1 135 133.2 131 127.8 124.8 122.7 121.6 121.5 122.3 123.7 126.9 130.5 134.3 137.7 138.2 135.8 131.8 125.2 119.3 113.4 110.5 108.7 107.7 107 105.7 98.8 94.7 107.2 110.7 119.7 130.5 140 145.8 148.5 147 140.8 133.7 137 142 140.5 134.1 131.3 136 146.2 156.4 162.4 164 164.2 163.4 161.8 159.9 157.6 154.8 148 144.9 140.2 133.9 129.6 127.3 126.1 129.4 138 147.2 154.4 158 160.2 161.6 164.3 168.2 172 173.6 173.2 172.5 171.9 171.8 171 168.8 167.1 165.6 163.1 160.3 157.6 155.9 155.3 154.9 154.2 153.2 152.1 151.2 150.3 149.9 149.3 148.5 147.9 147.7 148 147.5 146.5 146.2 146.1 146.4 146.9 146.3 145.2 144 142.6 138.8 136.7 123.7 130.2 131.3 123.4 118.9 115.3 114.3 107.9 100.1 80.3 68.3 79.9 95.1 122.4 133.8 129.8 123.7 108.3 95.7 98.4 108.7 107.7 85 81.2 85.6 58.6 58.4 64.6 32.9 28.6 15.9 4.9 3.8 0.9 -0.4 -2.4 -2.4 -0.5 -0.6 -0.9 -1.4 -2.4 -2.4 -2.4 -2.4 -2.4 -2.4 -2.4 -2.4 -2.4 -2.4 -2.4 -2.4 -2.4 -2.4 -2.4 -2.4 -2.4 -2.4 -2.4 -2.4 -2.4 -2.4 -2.4 -2.4 -2.4 -2.4 -2.4 -2.4 -2.4 -2.4 -2.4 -2.4 -2.4 -2.4 -2.4 -2.4
138.1 136.8 135.4 134 132.9 132.8 131.6 130.4 130.2 129.7 129.1 129.6 129.5 130 129.8 129.6 129.3 127.9 125.4 123.3 121.2 119.6 119.2 119 119.3 120.4 123.5 126.7 129.9 131.1 128.6 126.7 122.5 117.8 113.2 109.3 108.1 107.5 107.2 105.9 93.8 98.9 109.9 112.6 120.5 130.3 142.2 147.8 150.8 148.6 141.7 138.6 143.6 147 143.1 135.8 133.7 138.2 148.7 158.9 164 164.5 163.7 162.1 160.3 158.6 156.4 153.4 148 143.9 136.7 132.9 130.4 129.1 128.5 129.9 134.7 142.8 148.6 151.9 154.2 158.5 163 167.9 171 172.5 172.4 171.6 170.8 170.7 170.3 169.1 167.6 166 163.9 161.5 159.6 158.1 156.9 156.4 155.3 153.9 153.1 152.5 151.6 150.8 150.3 149.4 148.5 148.5 148.5 148 145.7 145.3 141.8 139.7 138.6 141.8 139.5 138.9 120.9 100.2 92.9 81 78.5 78.8 86.2 83.4 70.3 71.4 68.1 59.3 44.7 36.5 32.6 27.5 52.1 70.7 72.9 71 50.3 38.5 46.2 60 40.7 36.2 26.2 14.9 3.4 12.1 8.3 5.3 6.3 3.9 1.6 0.8 -0.4 -2.4 -2.4 -2.4 -2.3 -2.4 -2.1 -2.4 -2.4 -2.4 -2.4 -2.4 -2.4 -2.4 -2.4 -2.4 -2.4 -2.4 -2.4 -2.4 -2.4 -2.4 -2.4 -2.4 -2.4 -2.4 -2.4 -2.4 -2.4 -2.4 -2.4 -2.4 -2.4 -2.4 -2.4 -2.4 -2.4 -2.4 -2.4 -2.4 -2.4 -2.4 -2.4 -2.4
140.3 140.2 139 139.5 141.1 140.3 136.4 132.3 130 128.5 127.6 127.1 126.6 126 126.3 126 125.5 124.8 122.7 121.1 119.9 118.9 118.3 118.1 117.4 116.7 118.2 120.2 122.4 123.6 122.3 120.5 118.6 115.3 111.6 109.2 108.8 109.2 110.6 106 96.1 107.8 110.6 114.4 116 127.2 138.1 146.7 152 150.5 146 145.9 150.3 150.7 144.8 138.7 137.2 141.4 151.7 160.7 164.2 163.7 162.6 160.5 158.4 156.1 153.3 148.6 143.6 138.7 135.2 134.7 135.1 135.7 134.3 131.3 132.6 136.6 141 144.3 151.2 158.6 164 167.5 169.2 170.2 170.6 170.1 169.8 169.6 168.8 167.7 166.6 165.8 163.9 162.3 160.6 159.4 158.7 158 156.8 155.4 154.5 153.7 152.8 151.6 150.4 150 148.2 142.3 134.4 134.1 120.4 111 92.5 80.9 78.3 82.7 74.8 81.7 65.4 58.1 61.1 52.2 42.4 50 54.9 44 42.8 36.5 27.8 28.6 28.6 30.4 26.2 11.3 8.3 8.1 8.4 10.5 6.7 1.5 1.2 0.8 -2.4 -2.4 -2.4 -2.4 -2.4 -2.4 1.6 4.2 3.7 2.7 0.9 0 -1 -2.4 -2.4 -2.4 -2.4 -2.4 -2.4 -2.4 -2.4 -2.4 -2.4 -2.4 -2.4 -2.4 -2.4 -2.4 -2.4 -2.4 -2.4 -2.4 -2.4 -2.4 -2.4 -2.4 -2.4 -2.4 -2.4 -2.4 -2.4 -2.4 -2.4 -2.4 -2.4 -2.4 -2.4 -2.4 -2.4 -2.4 -2.4 -2.4 -2.4 -2.4 -2.4 -2.4
147.9 147.2 145.2 146.5 149.5 148.4 142.4 137.1 132.3 129.6 128.6 127.8 126.7 125.2 124.4 123.9 123.4 122.3 121.7 121 121.2 122.6 122 119.6 117.2 116 115.8 116.2 117.2 117.7 116.7 116.1 115 112.4 110.4 109.5 110.2 114.4 117.8 114.8 111.1 110.2 111.4 112.9 115.6 123.5 134.2 145.2 153.4 154 152.8 154.2 155.8 153.8 148.6 143.5 140.7 145.1 155 162.4 163.2 162.5 160.9 158.1 155.1 151.3 147.4 143.1 139.8 138.2 138.5 140.9 144.1 144.4 140.3 134.3 134 136.8 138 140.9 148.4 155.4 161.3 165.2 166.5 167.2 168.2 168.2 168.3 167.7 166.9 166.4 165.8 164.7 164 162.8 161.6 160.2 159.4 158.8 158.1 157.1 156.6 155 152.9 150.7 146 140.2 108.6 94.6 81.9 85.7 82.5 73.1 61.2 55.5 57.2 48 37.9 35.1 42.5 31.5 35.2 33.7 32.4 28.3 29.6 30.1 17.4 7.1 5.4 1.7 -2.4 -2.4 -2.4 -2.4 -2.4 -2.4 -2.4 -2.4 -2.4 0 -0.4 -1.1 -2.4 -2.4 -2.4 -2.4 -2.4 -2.4 -2.4 2.1 2.1 1.1 -0.1 -0.9 -1.6 -2.4 -2.4 -2.4 -2.4 -2.4 -2.4 -2.4 -2.4 -2.4 -2.4 -2.4 -2.4 -2.4 -2.4 -2.4 -2.4 -2.4 -2.4 -2.4 -2.4 -2.4 -2.4 -2.4 -2.4 -2.4 -2.4 -2.4 -2.4 -2.4 -2.4 -2.4 -2.4 -2.4 -2.4 -2.4 -2.4 -2.4 -2.4 -2.4 -2.4 -2.4 -2.4 -2.4
156.1 153.4 150.6 152.9 154.2 151.3 144.9 139 134.6 133.2 134.1 134.2 131.2 128.5 126.4 125 124.1 123.7 124.4 126 129.1 131.5 129.4 124 119.6 116.6 115 114.7 115.1 114.5 114 113.4 112.7 111.1 109.9 110.7 113.9 122.1 124.6 118.1 110.9 107.9 106.7 108 110.6 120.2 133.9 145.4 154.8 159.2 159.5 159.7 159.1 157.7 154.7 150.3 145.6 147.8 156.6 161.5 161.4 160.8 158.4 155.5 151.1 147.5 145.1 142.4 141.2 142.7 146.1 149.8 152.4 151 144.4 137.6 138 142.8 144 142.3 144.7 149.5 155.8 161.3 163.7 164.1 165.2 166.4 166.8 166.4 165.2 164.6 164 162.3 162.1 161.5 161.2 160.8 160.2 159.1 158.8 158.2 156.9 153.9 147.3 124.1 107.9 95.7 68.3 64.4 64 57 51.7 52.3 50.4 41 43.9 41.9 35.2 31.6 29.7 29.2 29.2 15.9 7.9 6.1 2 1.7 -2.4 -2.4 -2.4 -2.4 -2.4 -2.4 -2.4 -2.4 -2.4 -2.4 -2.4 -2.4 -2.4 -2.2 -2.4 -2.4 -2.4 -2.4 -2.4 -2.4 -2.4 -2.4 -2.4 -2.4 -0.3 -0.9 -2.4 -2.4 -2.4 -2.4 -2.4 -2.4 -2.4 -2.4 -2.4 -2.4 -2.4 -2.4 -2.4 -2.4 -2.4 -2.4 -2.4 -2.4 -2.4 -2.4 -2.4 -2.4 -2.4 -2.4 -2.4 -2.4 -2.4 -2.4 -2.4 -2.4 -2.4 -2.4 -2.4 -2.4 -2.4 -2.4 -2.4 -2.4 -2.4 -2.4 -2.4 -2.4 -2.4 -2.4 -2.4 -2.4
159.2 156.5 155.5 156.1 154.8 150.8 144.5 139.9 138.1 139.6 145.5 147.6 144.3 139.1 134.5 132.7 131.6 131.7 133.4 136.2 139.1 140.2 134.8 129.2 123.8 119.1 116.4 114.6 115.1 113 112.6 112 111.1 110.7 111.1 114.3 120.9 130 129 119.9 109.8 98.9 90.5 97.4 101.2 115 130.6 143.4 153.8 159.6 161.5 162.9 162.7 162.4 159.8 156.4 152.7 154.4 159.4 161.6 160.4 158.9 156.5 154.2 151.2 150.8 149.8 146 145.9 149.4 153.6 155.5 156.1 153.7 147.1 140.8 140.8 147 151.9 150 146.3 146.8 150.1 155.1 158.2 159.7 163.1 164.5 165.2 164.9 163.6 162.5 161.7 160.3 160 159.7 159.5 159.4 159 158.5 158.3 157.4 137.8 118.5 106.7 83.8 56.9 48.7 39.5 46.6 47.2 51.4 48.9 42.4 33.8 29.2 29.4 29.5 23.9 9.3 3.6 1.7 1.4 1.1 0.7 0.4 -0.1 -2.4 -2.4 -2.4 -2.4 -2.4 -2.4 -2.4 -2.4 -2.4 -2.4 -2.4 -2.4 -2.4 -2.4 -2.4 -2.4 -2.4 -2.4 -2.4 -2.4 -2.4 -2.4 -2.4 -2.4 -2.4 -2.4 -2.4 -2.4 -2.4 -2.4 -2.4 -2.4 -2.4 -2.4 -2.4 -2.4 -2.4 -2.4 -2.4 -2.4 -2.4 -2.4 -2.4 -2.4 -2.4 -2.4 -2.4 -2.4 -2.4 -2.4 -2.4 -2.4 -2.4 -2.4 -2.4 -2.4 -2.4 -2.4 -2.4 -2.4 -2.4 -2.4 -2.4 -2.4 -2.4 -2.4 -2.4 -2.4 -2.4 -2.4 -2.4 -2.4 -2.4
157.6 158 158.3 157.3 154.3 149.6 145 144.2 145.1 149.2 152.8 152.9 151.1 148.1 145.5 143.4 141 140.4 140.3 140.7 139.6 139.4 134.4 129.2 125.3 121.1 117.9 116.7 118.7 113.8 112.4 111.9 111.4 111 113.2 118.9 127 134.4 131.7 118.9 101.9 82.8 71.4 74.5 86.8 102 111.8 127.2 142.8 152.8 158.4 163.2 164.8 165.5 163.5 161.6 159.7 160.9 162.8 163.1 162.6 161.5 159.9 157.9 156.1 156.1 153.9 149.4 151.8 155.9 157.8 158.2 157.1 154.7 149.1 142.7 143.2 149.6 156.6 157 153.2 151.5 150.9 151.6 153.2 157.3 161 162.4 163.6 164.2 163.6 161.5 159.7 157.7 156.8 157.2 156.4 157.8 158.6 155.9 142.3 132.8 93 70 64.9 44.1 38.5 40.7 44.9 48.3 38.1 29.4 31.3 33.5 30.8 20.9 12.8 6.6 3.8 0.5 -0.4 -2.4 -2.4 -1 -2.4 -2.4 -2.4 -2.4 -2.4 -2.4 -2.4 -2.4 -2.4 -2.4 -2.4 -2.4 -2.4 -2.4 -2.4 -2.4 -2.4 -2.4 -2.4 -2.4 -2.4 -2.4 -2.4 -2.4 -2.4 -2.4 -2.4 -2.4 -2.4 -2.4 -2.4 -2.4 -2.4 -2.4 -2.4 -2.4 -2.4 -2.4 -2.4 -2.4 -2.4 -2.4 -2.4 -2.4 -2.4 -2.4 -2.4 -2.4 -2.4 -2.4 -2.4 -2.4 -2.4 -2.4 -2.4 -2.4 -2.4 -2.4 -2.4 -2.4 -2.4 -2.4 -2.4 -2.4 -2.4 -2.4 -2.4 -2.4 -2.4 -2.4 -2.4 -2.4 -2.4 -2.4 -2.4 -2.4
135 151.2 155.1 153.5 152.2 148.4 146.7 145.3 142.9 147.6 152.3 153.7 151.6 148.7 146.7 145.3 142.7 139 136.1 132.8 125 122.7 123.3 125.6 123.2 122.2 118.3 116.9 119.2 115.5 114.3 113.4 112.8 109.9 108.3 115 125.8 127.4 118.9 98.8 78.4 67.1 60.7 63.4 68.2 73.9 87.5 103.3 115.5 137.2 152.6 160.3 165.2 166.7 166.1 165.5 164.7 165 165.1 164.5 164 163.7 162.9 161.3 159.8 158.3 155.4 153.5 157.3 159.3 160.3 160 158.6 155.1 149 144.8 145.1 151 158 161.1 159.8 159.3 157.5 155.7 154.8 157.6 161.4 163.1 164 164.5 163.2 161.6 159.7 157.5 152.2 144.6 147 154.7 140.5 111.2 87.7 71.7 53.1 42.4 45.9 44.1 44.3 39.8 31.6 33.2 40.9 31.1 22.3 18.7 14.1 5.3 2.8 1.2 0.2 -2.4 -2.4 -2.4 -2.4 -2.4 -2.4 -2.4 -2.4 -2.4 -2.4 -2.4 -2.4 -2.4 -2.4 -2.4 -2.4 -2.4 -2.4 -2.4 -2.4 -2.4 -2.4 -2.4 -2.4 -2.4 -2.4 -2.4 -2.4 -2.4 -2.4 -2.4 -2.4 -2.4 -2.4 -2.4 -2.4 -2.4 -2.4 -2.4 -2.4 -2.4 -2.4 -2.4 -2.4 -2.4 -2.4 -2.4 -2.4 -2.4 -2.4 -2.4 -2.4 -2.4 -2.4 -2.4 -2.4 -2.4 -2.4 -2.4 -2.4 -2.4 -2.4 -2.4 -2.4 -2.4 -2.4 -2.4 -2.4 -2.4 -2.4 -2.4 -2.4 -2.4 -2.4 -2.4 -2.4 -2.4 -2.4 -2.4 -2.4 -2.4
113.7 128.1 135.1 135.3 135 136.7 135.3 123.2 115 118 129.6 144 146.7 142.3 139.9 138 135.3 131.8 121.7 102.9 90.5 87.1 95 111 121.5 122.7 120 118.2 117.7 117.3 118.3 114.9 98 83.7 78.1 84.6 97.4 100.3 92.3 77.1 64.8 60.8 58.7 57.8 59.8 60.3 61.1 80.7 98.1 120.6 144.8 154.7 162 166.6 166 164.4 165.1 165.4 166.2 165.5 165.2 165.4 164.6 163.6 162.4 160.6 158 158.7 160.6 162.1 162.6 162 160.2 155.7 150.1 147.6 147.3 150.6 157.3 162.1 163 163.1 161.8 159.4 157.2 159.5 162.4 163.9 164.9 164.2 162.7 161.7 160.9 159.7 155.6 146.9 128.6 106.6 80.4 70.1 56.1 47.5 38.7 46 53.2 41 32.1 43.1 44 36.6 31.9 24.5 23.8 4.2 2.1 1 0.1 -0.8 -2.4 -2.4 -2.4 -2.4 -2.4 -2.4 -2.4 -2.4 -2.4 -2.4 -2.4 -2.4 -2.4 -2.4 -2.4 -2.4 -2.4 -2.4 -2.4 -2.4 -2.4 -2.4 -2.4 -2.4 -2.4 -2.4 -2.4 -2.4 -2.4 -2.4 -2.4 -2.4 -2.4 -2.4 -2.4 -2.4 -2.4 -2.4 -2.4 -2.4 -2.4 -2.4 -2.4 -2.4 -2.4 -2.4 -2.4 -2.4 -2.4 -2.4 -2.4 -2.4 -2.4 -2.4 -2.4 -2.4 -2.4 -2.4 -2.4 -2.4 -2.4 -2.4 -2.4 -2.4 -2.4 -2.4 -2.4 -2.4 -2.4 -2.4 -2.4 -2.4 -2.4 -2.4 -2.4 -2.4 -2.4 -2.4 -2.4 -2.4 -2.4 -2.4
94.6 108.2 113.6 111.8 109.9 109 106.8 99.9 92 97.4 106.5 119.7 131.7 133.2 133.1 131.4 128.1 122.2 99.5 77.1 69 66.8 71.9 89.9 111.1 117.9 119 118 117.9 120.4 121.3 102.4 75.4 63.6 63 64.4 71.8 76.1 70.8 63.8 59.4 56.5 55.4 56.3 62.8 67.2 70.3 73.9 89.9 111.7 138.3 150.2 159.1 165.5 157.4 145.2 143 157.7 166.8 164.7 161.3 162.6 164.7 165.3 164.2 162.5 161.5 161.9 163 164.3 164.5 163.2 160.7 156.1 155.4 154.8 152.3 151.8 156.1 161.8 164 163.4 162.6 160.6 160 161.8 163.4 164.6 165.6 164.5 162.9 162.3 162.5 160.1 131 94 81.2 74.3 65.3 53.2 48.1 43.4 42.1 43.8 32.9 41 46.1 40.2 30.6 17.2 5.1 1.5 1.2 0.3 -0.5 -1 -2.4 -2.4 -2.4 -2.4 -2.4 -2.4 -2.4 -2.4 -2.4 -2.4 -2.4 -2.4 -2.4 -2.4 -2.4 -2.4 -2.4 -2.4 -2.4 -2.4 -2.4 -2.4 -2.4 -2.4 -2.4 -2.4 -2.4 -2.4 -2.4 -2.4 -2.4 -2.4 -2.4 -2.4 -2.4 -2.4 -2.4 -2.4 -2.4 -2.4 -2.4 -2.4 -2.4 -2.4 -2.4 -2.4 -2.4 -2.4 -2.4 -2.4 -2.4 -2.4 -2.4 -2.4 -2.4 -2.4 -2.4 -2.4 -2.4 -2.4 -2.4 -2.4 -2.4 -2.4 -2.4 -2.4 -2.4 -2.4 -2.4 -2.4 -2.4 -2.4 -2.4 -2.4 -2.4 -2.4 -2.4 -2.4 -2.4 -2.4 -2.4 -2.4 -2.4 -2.4
85.6 92.9 96.6 96.6 92.9 91.4 87 81.6 77.8 80.6 86.3 93.7 102.8 115.6 125.6 126.9 123.3 103.2 78 71 68.9 66.6 63 75.7 100.8 120 119.9 120.1 120.5 124.3 117.4 88.1 69.6 64.7 62.5 62.7 64.3 65.2 63.1 60.8 57.7 55.3 55.9 59.7 75.6 86.2 85.8 85.1 95.4 111 112.4 144.5 155.3 158.5 137 117.2 119.9 144.1 159.2 156 149.9 151.6 156.3 159.4 164.1 164.3 163.3 164.1 165.2 165.8 165.7 164.2 161.7 160.2 161.6 161.3 159.4 155.5 156.1 161.2 163.8 163.7 162.8 162.1 162.7 163.7 164.5 165.7 166.7 164.9 163.9 161.5 161.4 152.9 91.3 85 72.2 63 54.4 48.8 45.9 38.5 42.6 33.3 36.4 34.2 19.1 5.4 1.6 0.8 -0.1 -2.4 -2.4 -2.4 -2.4 -2.4 -2.4 -2.4 -2.4 -2.4 -2.4 -2.4 -2.4 -2.4 -2.4 -2.4 -2.4 -2.4 -2.4 -2.4 -2.4 -2.4 -2.4 -2.4 -2.4 -2.4 -2.4 -2.4 -2.4 -2.4 -2.4 -2.4 -2.4 -2.4 -2.4 -2.4 -2.4 -2.4 -2.4 -2.4 -2.4 -2.4 -2.4 -2.4 -2.4 -2.4 -2.4 -2.4 -2.4 -2.4 -2.4 -2.4 -2.4 -2.4 -2.4 -2.4 -2.4 -2.4 -2.4 -2.4 -2.4 -2.4 -2.4 -2.4 -2.4 -2.4 -2.4 -2.4 -2.4 -2.4 -2.4 -2.4 -2.4 -2.4 -2.4 -2.4 -2.4 -2.4 -2.4 -2.4 -2.4 -2.4 -2.4 -2.4 -2.4 -2.4 -2.4 -2.4 -2.4 -2.4
78.8 79.6 80 79.4 78.4 76.8 74 70.8 68.2 69.6 72.8 77.5 85.3 96 111.3 123.5 127.9 121.8 95.2 70.1 65.4 65.4 64.8 75.3 97.6 120.5 122.4 123.7 124.9 128.1 116.3 86.8 68.3 63.6 61.9 62 62.1 62.7 60.9 60.1 59.2 57.9 58.4 65.9 92.1 112.3 113.2 112.1 109.2 107.4 114.7 114.7 142.1 147.4 123.6 107.1 108.2 130.8 145.1 141.3 125.5 126.1 141.6 149.4 154.8 163 163.1 163.8 165.4 166.3 166.1 164.9 163.8 164.2 164.8 164.9 164 160.8 158.3 161.5 163.4 164.4 163.7 164.4 165 165.6 166.4 166.3 166.5 164.3 161.2 135.9 118.5 108.8 70.2 70 73.1 62.2 50.3 39.7 35.9 33.5 32.6 27.9 11.1 1.5 0.7 0.2 -0.4 -2.4 -2.4 -2.4 -2.4 -2.4 -2.4 -2.4 -2.4 -2.4 -2.4 -2.4 -2.4 -2.4 -2.4 -2.4 -2.4 -2.4 -2.4 -2.4 -2.4 -2.4 -2.4 -2.4 -2.4 -2.4 -2.4 -2.4 -2.4 -2.4 -2.4 -2.4 -2.4 -2.4 -2.4 -2.4 -2.4 -2.4 -2.4 -2.4 -2.4 -2.4 -2.4 -2.4 -2.4 -2.4 -2.4 -2.4 -2.4 -2.4 -2.4 -2.4 -2.4 -2.4 -2.4 -2.4 -2.4 -2.4 -2.4 -2.4 -2.4 -2.4 -2.4 -2.4 -2.4 -2.4 -2.4 -2.4 -2.4 -2.4 -2.4 -2.4 -2.4 -2.4 -2.4 -2.4 -2.4 -2.4 -2.4 -2.4 -2.4 -2.4 -2.4 -2.4 -2.4 -2.4 -2.4 -2.4 -2.4 -2.4 -2.4 -2.4
74.3 74.7 74.5 73.6 72.9 70.7 69.1 67.1 65 65 65.8 68.1 75.8 85.9 94.5 109.2 116.7 111.6 86.1 76.1 66.3 65.4 63 69.3 91.3 122 129.4 133.9 134 134.4 121.6 96.8 74.2 63.1 61.4 61.4 60.7 59.9 58.7 57.6 56.6 57.2 59.2 71.9 91.8 116.4 132.2 124.6 112.6 101.4 104.3 111.3 123.1 137 124.1 102.9 96.8 117.1 127.7 126.7 115.5 107.7 119.8 133.1 143.7 151.4 152.6 154.1 158.3 163.9 166.3 165.6 165.4 166.4 167.1 167.4 166.5 164.2 161.6 161.8 163.6 164.8 164.9 166.2 166.6 167.4 167.2 166.2 165.1 151.4 114.4 80.9 64.7 55.8 54.6 55.1 51.9 49.4 39.8 26.5 33.9 32.5 25.5 13.2 1 -0.1 -1 -2.4 -2.4 -2.4 -2.4 -2.4 -2.4 -2.4 -2.4 -2.4 -2.4 -2.4 -2.4 -2.4 -2.4 -2.4 -2.4 -2.4 -2.4 -2.4 -2.4 -2.4 -2.4 -2.4 -2.4 -2.4 -2.4 -2.4 -2.4 -2.4 -2.4 -2.4 -2.4 -2.4 -2.4 -2.4 -2.4 -2.4 -2.4 -2.4 -2.4 -2.4 -2.4 -2.4 -2.4 -2.4 -2.4 -2.4 -2.4 -2.4 -2.4 -2.4 -2.4 -2.4 -2.4 -2.4 -2.4 -2.4 -2.4 -2.4 -2.4 -2.4 -2.4 -2.4 -2.4 -2.4 -2.4 -2.4 -2.4 -2.4 -2.4 -2.4 -2.4 -2.4 -2.4 -2.4 -2.4 -2.4 -2.4 -2.4 -2.4 -2.4 -2.4 -2.4 -2.4 -2.4 -2.4 -2.4 -2.4 -2.4 -2.4 -2.4 -2.4 -2.4
69.8 70.1 70.6 69.9 69.4 67.5 66.9 64.9 63.5 63.5 63.4 64.2 68.5 75.1 79.4 87.2 92.2 89.6 78.6 72 63.7 66.5 67 71.7 86 111.7 136 141.9 138.9 129.8 113.7 92.7 74.5 62.8 60.3 57.8 54.8 54.2 52.9 52.3 51.6 54.6 59.7 73.2 85.9 103.6 122.6 118.2 105.7 93.4 89.6 90.8 108.3 123.2 117.2 101.4 93 104.1 106.9 108.4 104.8 100.1 100.2 109.3 132.1 138.5 135.2 141.8 148.7 157.4 166.8 167 166.9 168 169.1 168.6 167.6 166 163.9 164.4 165.1 165.6 165.8 167.4 168.1 168.5 167.6 165.8 154.1 120 81.9 60.1 56.4 53.4 45.6 38.4 43.9 41.1 30.9 33.4 29.3 24.8 1.7 0.7 -0.6 -2.4 -2.4 -2.4 -2.4 -2.4 -2.4 -2.4 -2.4 -2.4 -2.4 -2.4 -2.4 -2.4 -2.4 -2.4 -2.4 -2.4 -2.4 -2.4 -2.4 -2.4 -2.4 -2.4 -2.4 -2.4 -2.4 -2.4 -2.4 -2.4 -2.4 -2.4 -2.4 -2.4 -2.4 -2.4 -2.4 -2.4 -2.4 -2.4 -2.4 -2.4 -2.4 -2.4 -2.4 -2.4 -2.4 -2.4 -2.4 -2.4 -2.4 -2.4 -2.4 -2.4 -2.4 -2.4 -2.4 -2.4 -2.4 -2.4 -2.4 -2.4 -2.4 -2.4 -2.4 -2.4 -2.4 -2.4 -2.4 -2.4 -2.4 -2.4 -2.4 -2.4 -2.4 -2.4 -2.4 -2.4 -2.4 -2.4 -2.4 -2.4 -2.4 -2.4 -2.4 -2.4 -2.4 -2.4 -2.4 -2.4 -2.4 -2.4 -2.4 -2.4 -2.4 -2.4
66.2 65.7 65.8 64.6 64.2 64.5 64.4 63.9 63 62.2 61.4 62 67.3 70.7 73 75.9 76.8 74.7 70.9 66.1 62.6 65.4 68.8 75.3 87.2 105.7 121.8 126.3 119.5 107.4 92.6 78.6 70.7 61.3 55.3 51.7 49.1 48.2 47.5 48.1 49.6 52.5 57.7 67.8 79 89.4 103.5 104.1 92 80.3 77.8 79.7 86.8 104.1 105.3 92.9 89.2 95.7 97.2 95.9 97.5 93.2 92.4 98.8 120.4 124 115.2 125.6 138 151 161.8 166.7 167.2 169.1 170 169.6 168.4 167 165.6 166 166.1 166.4 166.7 167.9 168.6 168.2 167.1 159.5 122.2 84.8 61.9 57.7 59.9 60.9 48.1 39.2 40.9 34 32.4 23.7 5 1.5 -0.1 -1 -2.4 -2.4 -2.4 -2.4 -2.4 -2.4 -2.4 -2.4 -2.4 -2.4 -2.4 -2.4 -2.4 -2.4 -2.4 -2.4 -2.4 -2.4 -2.4 -2.4 -2.4 -2.4 -2.4 -2.4 -2.4 -2.4 -2.4 -2.4 -2.4 -2.4 -2.4 -2.4 -2.4 -2.4 -2.4 -2.4 -2.4 -2.4 -2.4 -2.4 -2.4 -2.4 -2.4 -2.4 -2.4 -2.4 -2.4 -2.4 -2.4 -2.4 -2.4 -2.4 -2.4 -2.4 -2.4 -2.4 -2.4 -2.4 -2.4 -2.4 -2.4 -2.4 -2.4 -2.4 -2.4 -2.4 -2.4 -2.4 -2.4 -2.4 -2.4 -2.4 -2.4 -2.4 -2.4 -2.4 -2.4 -2.4 -2.4 -2.4 -2.4 -2.4 -2.4 -2.4 -2.4 -2.4 -2.4 -2.4 -2.4 -2.4 -2.4 -2.4 -2.4 -2.4 -2.4 -2.4
62.9 62.7 62.6 62.6 62.5 62.5 62.5 62.6 62.7 62.8 62.5 62.4 66.6 67.6 69.1 69.6 69.1 67.1 64 60.9 59.1 71.7 70.8 73.3 74.5 91.1 99.7 99.4 93.2 85.3 77.2 71.6 67.6 57.6 56 49 44 44.8 44.4 43.5 45.2 49.7 55.9 61.1 68.8 74.6 83.7 89.8 82 72.6 70.2 70.8 76.4 82 92.4 86.8 84 87.7 88.4 86.8 87.1 86 86.3 93.8 108.6 109.1 102.1 111.3 129.1 143.9 150.7 154.4 157.2 162.2 167.2 169.7 169 167.1 166.6 166.5 167.1 164.2 167.3 167.7 167.9 160.9 146.4 118.8 89.2 65.3 53.7 53.6 55.3 59.1 48.2 42.2 34.4 31.8 17.9 5.8 1.3 -0.6 -2.4 -2.4 -2.4 -2.4 -2.4 -2.4 -2.4 -2.4 -2.4 -2.4 -2.4 -2.4 -2.4 -2.4 -2.4 -2.4 -2.4 -2.4 -2.4 -2.4 -2.4 -2.4 -2.4 -2.4 -2.4 -2.4 -2.4 -2.4 -2.4 -2.4 -2.4 -2.4 -2.4 -2.4 -2.4 -2.4 -2.4 -2.4 -2.4 -2.4 -2.4 -2.4 -2.4 -2.4 -2.4 -2.4 -2.4 -2.4 -2.4 -2.4 -2.4 -2.4 -2.4 -2.4 -2.4 -2.4 -2.4 -2.4 -2.4 -2.4 -2.4 -2.4 -2.4 -2.4 -2.4 -2.4 -2.4 -2.4 -2.4 -2.4 -2.4 -2.4 -2.4 -2.4 -2.4 -2.4 -2.4 -2.4 -2.4 -2.4 -2.4 -2.4 -2.4 -2.4 -2.4 -2.4 -2.4 -2.4 -2.4 -2.4 -2.4 -2.4 -2.4 -2.4 -2.4 -2.4 -2.4 -2.4
62.5 62.4 62.3 62.1 61.9 61.8 61.6 61.5 61.4 61.4 61.4 61.5 62.1 62.6 62.6 62.1 61.1 60.7 60.3 59.9 63.9 65.2 67 70.8 70.2 76 79.7 78.1 75.8 72.1 68.4 64.7 58.9 56.4 55.2 48.4 44.1 43.3 43.6 42.4 42.2 43.7 48.6 54.3 59.4 62.9 67.2 72.8 69.1 64.7 63.3 63.5 66.4 69.6 75.4 77.8 78.6 79 79.8 79.3 79.6 80 80.8 85.5 94.6 95.4 94.8 99.8 120.4 133.1 136.5 139.7 143.9 149.1 156.2 164.5 169.2 164.5 160.8 159 156.5 166.2 166 165.6 148.5 120.9 104.5 79.4 57.4 47.8 46.7 51.5 46.4 51.1 34.2 34.4 25.7 13.4 4.3 1.5 -2.4 -2.4 -2.4 -2.4 -2.4 -2.4 -2.4 -2.4 -2.4 -2.4 -2.4 -2.4 -2.4 -2.4 -2.4 -2.4 -2.4 -2.4 -2.4 -2.4 -2.4 -2.4 -2.4 -2.4 -2.4 -2.4 -2.4 -2.4 -2.4 -2.4 -2.4 -2.4 -2.4 -2.4 -2.4 -2.4 -2.4 -2.4 -2.4 -2.4 -2.4 -2.4 -2.4 -2.4 -2.4 -2.4 -2.4 -2.4 -2.4 -2.4 -2.4 -2.4 -2.4 -2.4 -2.4 -2.4 -2.4 -2.4 -2.4 -2.4 -2.4 -2.4 -2.4 -2.4 -2.4 -2.4 -2.4 -2.4 -2.4 -2.4 -2.4 -2.4 -2.4 -2.4 -2.4 -2.4 -2.4 -2.4 -2.4 -2.4 -2.4 -2.4 -2.4 -2.4 -2.4 -2.4 -2.4 -2.4 -2.4 -2.4 -2.4 -2.4 -2.4 -2.4 -2.4 -2.4 -2.4 -2.4 -2.4 -2.4
61.6 61.3 61.2 61.1 61 60.9 60.8 60.7 60.2 60.2 61 61.3 61.6 61.8 61.6 60.2 58.6 57.7 59 60.8 59.3 64 68 68 65 66.6 67.5 66.7 66.9 64.9 62.1 59.4 56.5 54.7 52.7 47.9 45.4 43.1 42.2 42 42 42.7 46.1 48.8 50 54 57.8 59.6 59.8 59.1 59 59.2 60.4 62.9 66.7 69.8 73.2 73.1 73.3 73.9 74.4 74.8 75.7 78.3 82.8 85.7 88.5 96.6 108.1 119.1 122.5 125.4 130.7 136.1 145.9 157 160.2 144.3 144.3 143.1 150.4 156.7 155 150.8 123.7 97.9 88.6 57.5 44.6 42.8 46.7 53.1 42.9 35.1 31.9 15.8 10.3 5.2 1.5 -2.4 -2.4 -2.4 -2.4 -2.4 -2.4 -2.4 -2.4 -2.4 -2.4 -2.4 -2.4 -2.4 -2.4 -2.4 -2.4 -2.4 -2.4 -2.4 -2.4 -2.4 -2.4 -2.4 -2.4 -2.4 -2.4 -2.4 -2.4 -2.4 -2.4 -2.4 -2.4 -2.4 -2.4 -2.4 -2.4 -2.4 -2.4 -2.4 -2.4 -2.4 -2.4 -2.4 -2.4 -2.4 -2.4 -2.4 -2.4 -2.4 -2.4 -2.4 -2.4 -2.4 -2.4 -2.4 -2.4 -2.4 -2.4 -2.4 -2.4 -2.4 -2.4 -2.4 -2.4 -2.4 -2.4 -2.4 -2.4 -2.4 -2.4 -2.4 -2.4 -2.4 -2.4 -2.4 -2.4 -2.4 -2.4 -2.4 -2.4 -2.4 -2.4 -2.4 -2.4 -2.4 -2.4 -2.4 -2.4 -2.4 -2.4 -2.4 -2.4 -2.4 -2.4 -2.4 -2.4 -2.4 -2.4 -2.4 -2.4 -2.4
60.9 60.8 60.7 60.3 60 59.2 59 59.3 59.8 60.5 57.2 47.7 47.8 50.3 51.8 51.1 52.2 52.9 54.1 56.5 55 54 54 55.2 57.1 60.1 58.8 60.2 60.5 59.2 58.6 56.1 53.5 52.4 50.4 48.8 46.5 44.3 42.9 42.3 41.6 41 41.2 44 46.8 48 49.8 49.8 51.4 52.1 53.1 54.2 56.3 58 61.8 66 65.3 68.8 68.4 69.4 70.8 71.6 72 73.8 76.7 80.1 82.8 93.2 103.6 107.3 103.6 106 110.4 123.2 132.5 145 149.4 135.9 125 112.3 123.3 132.2 146.8 129.7 98 84.8 83.3 51.3 47.8 46.5 52.2 34.4 36.6 25.2 12.6 5.7 3.6 -2.4 -2.4 -2.4 -2.4 -2.4 -2.4 -2.4 -2.4 -2.4 -2.4 -2.4 -2.4 -2.4 -2.4 -2.4 -2.4 -2.4 -2.4 -2.4 -2.4 -2.4 -2.4 -2.4 -2.4 -2.4 -2.4 -2.4 -2.4 -2.4 -2.4 -2.4 -2.4 -2.4 -2.4 -2.4 -2.4 -2.4 -2.4 -2.4 -2.4 -2.4 -2.4 -2.4 -2.4 -2.4 -2.4 -2.4 -2.4 -2.4 -2.4 -2.4 -2.4 -2.4 -2.4 -2.4 -2.4 -2.4 -2.4 -2.4 -2.4 -2.4 -2.4 -2.4 -2.4 -2.4 -2.4 -2.4 -2.4 -2.4 -2.4 -2.4 -2.4 -2.4 -2.4 -2.4 -2.4 -2.4 -2.4 -2.4 -2.4 -2.4 -2.4 -2.4 -2.4 -2.4 -2.4 -2.4 -2.4 -2.4 -2.4 -2.4 -2.4 -2.4 -2.4 -2.4 -2.4 -2.4 -2.4 -2.4 -2.4 -2.4 -2.4 -2.4
59.1 58.5 58.1 58.1 58.1 56.8 52.2 49.8 48.4 48 47.9 47.8 48.5 48.4 48.7 49.7 49.7 49.4 49.2 49 49.3 49.8 56 54.1 53.2 53.6 53.6 55.4 56.4 56.9 54.7 53.1 50.6 50.1 49.7 49.1 47.4 45.7 44.2 43 42.1 40.6 39.3 39.4 40.6 41.9 43.5 45.7 47.7 49.3 49.7 50 49.6 52.2 55 58.9 63.2 63.6 65.5 66.9 68.1 68 68.8 70.8 74.6 76.1 79.5 84 88.7 92.1 95.8 96.3 104.1 112.3 116.6 128.4 130.9 123.8 105.5 99.1 103.3 117 140.7 108.7 84.6 82 75.5 50.4 49.5 42.5 34.5 29.1 19.3 12.8 1.7 1.7 1 -2.4 -2.4 -2.4 -2.4 -2.4 -2.4 -2.4 -2.4 -2.4 -2.4 -2.4 -2.4 -2.4 -2.4 -2.4 -2.4 -2.4 -2.4 -2.4 -2.4 -2.4 -2.4 -2.4 -2.4 -2.4 -2.4 -2.4 -2.4 -2.4 -2.4 -2.4 -2.4 -2.4 -2.4 -2.4 -2.4 -2.4 -2.4 -2.4 -2.4 -2.4 -2.4 -2.4 -2.4 -2.4 -2.4 -2.4 -2.4 -2.4 -2.4 -2.4 -2.4 -2.4 -2.4 -2.4 -2.4 -2.4 -2.4 -2.4 -2.4 -2.4 -2.4 -2.4 -2.4 -2.4 -2.4 -2.4 -2.4 -2.4 -2.4 -2.4 -2.4 -2.4 -2.4 -2.4 -2.4 -2.4 -2.4 -2.4 -2.4 -2.4 -2.4 -2.4 -2.4 -2.4 -2.4 -2.4 -2.4 -2.4 -2.4 -2.4 -2.4 -2.4 -2.4 -2.4 -2.4 -2.4 -2.4 -2.4 -2.4 -2.4 -2.4 -2.4
56.5 53.4 51.8 49.7 49.2 48.9 48.5 49.8 50 48.8 48.2 47.2 46.5 46.5 46.5 46.3 46.2 46 45.4 44.6 43.2 45.8 49 52 52.1 52.4 51.5 51.8 52.7 52.9 51.2 49.6 48.5 48.8 49.5 49.5 48.1 46.7 44.8 43.3 42.3 40.5 39.1 36.9 35 36 37.9 41.5 43.6 45.9 46.4 46.5 46.7 48.6 51.2 54 57.7 59 62.2 64 64.4 64.9 66.4 69.8 73 72.6 74.2 77.2 80 82.7 85.5 89.5 91.6 97.4 107.6 116.3 125.5 105.8 87.6 90.5 97.9 111.9 128.7 93.7 83.3 79.9 67.8 45.9 36.1 44.4 27.7 15.4 6.3 1.2 0.1 -0.1 -2.4 -2.4 -2.4 -2.4 -2.4 -2.4 -2.4 -2.4 -2.4 -2.4 -2.4 -2.4 -2.4 -2.4 -2.4 -2.4 -2.4 -2.4 -2.4 -2.4 -2.4 -2.4 -2.4 -2.4 -2.4 -2.4 -2.4 -2.4 -2.4 -2.4 -2.4 -2.4 -2.4 -2.4 -2.4 -2.4 -2.4 -2.4 -2.4 -2.4 -2.4 -2.4 -2.4 -2.4 -2.4 -2.4 -2.4 -2.4 -2.4 -2.4 -2.4 -2.4 -2.4 -2.4 -2.4 -2.4 -2.4 -2.4 -2.4 -2.4 -2.4 -2.4 -2.4 -2.4 -2.4 -2.4 -2.4 -2.4 -2.4 -2.4 -2.4 -2.4 -2.4 -2.4 -2.4 -2.4 -2.4 -2.4 -2.4 -2.4 -2.4 -2.4 -2.4 -2.4 -2.4 -2.4 -2.4 -2.4 -2.4 -2.4 -2.4 -2.4 -2.4 -2.4 -2.4 -2.4 -2.4 -2.4 -2.4 -2.4 -2.4 -2.4 -2.4 -2.4
51.5 50.1 51.7 52.3 52.4 53.7 54.2 54.8 53.4 51 48.9 46.8 45.3 45.1 44.9 44.6 44.1 43.9 43.6 42.8 42.2 41.9 43 47 50.5 49.4 48.7 49 49.2 48.8 47.8 46.7 47.3 48 49.2 49.6 48.6 47.5 45.3 43.7 42.5 40.5 38.1 35.7 33.4 33.1 35.3 39 40.9 42.8 43.2 44.1 46 48.2 49 52 53.9 56 58.7 60.2 61.2 62.4 64.4 68.5 70.4 69.7 70.3 72.1 74.9 78.1 80.6 83.4 84.5 85.9 91.5 102.4 107.1 92.2 81.5 84.8 92.5 105.6 119.7 91 79.8 70.1 39.4 37.3 42.8 29 17.6 8.5 1.2 -0.1 -1.3 -2.4 -2.4 -2.4 -2.4 -2.4 -2.4 -2.4 -2.4 -2.4 -2.4 -2.4 -2.4 -2.4 -2.4 -2.4 -2.4 -2.4 -2.4 -2.4 -2.4 -2.4 -2.4 -2.4 -2.4 -2.4 -2.4 -2.4 -2.4 -2.4 -2.4 -2.4 -2.4 -2.4 -2.4 -2.4 -2.4 -2.4 -2.4 -2.4 -2.4 -2.4 -2.4 -2.4 -2.4 -2.4 -2.4 -2.4 -2.4 -2.4 -2.4 -2.4 -2.4 -2.4 -2.4 -2.4 -2.4 -2.4 -2.4 -2.4 -2.4 -2.4 -2.4 -2.4 -2.4 -2.4 -2.4 -2.4 -2.4 -2.4 -2.4 -2.4 -2.4 -2.4 -2.4 -2.4 -2.4 -2.4 -2.4 -2.4 -2.4 -2.4 -2.4 -2.4 -2.4 -2.4 -2.4 -2.4 -2.4 -2.4 -2.4 -2.4 -2.4 -2.4 -2.4 -2.4 -2.4 -2.4 -2.4 -2.4 -2.4 -2.4 -2.4 -2.4 -2.4 -2.4
50.6 51.1 54.1 55.1 55.2 54.2 54.6 54.8 53.3 51.8 49.7 47.3 45.1 44.4 44 43.7 42.8 41.9 41.6 41.1 40.7 40.7 41.3 43.4 46.6 46.3 45.8 45.7 45.6 45.5 44.9 44.3 44.6 46.2 48.3 49.7 49.4 47.6 45.5 43.9 42.3 40.4 38 35.6 33.3 32.1 33.6 36.1 38.3 39.8 42.2 45.7 48.3 48.7 48.8 50.3 51.9 53.4 55.1 56.3 57.9 59.6 63.8 65.4 66.8 66.5 67.2 68.7 71.3 74 76.7 78.3 78.9 79.2 80.2 87.4 91.4 79.6 77.1 80.5 88.3 95.5 91.6 80.4 55.6 48.6 44.3 40.3 46.3 23.1 14.3 1.5 0.1 -1.1 -2.4 -2.4 -2.4 -2.4 -2.4 -2.4 -2.4 -2.4 -2.4 -2.4 -2.4 -2.4 -2.4 -2.4 -2.4 -2.4 -2.4 -2.4 -2.4 -2.4 -2.4 -2.4 -2.4 -2.4 -2.4 -2.4 -2.4 -2.4 -2.4 -2.4 -2.4 -2.4 -2.4 -2.4 -2.4 -2.4 -2.4 -2.4 -2.4 -2.4 -2.4 -2.4 -2.4 -2.4 -2.4 -2.4 -2.4 -2.4 -2.4 -2.4 -2.4 -2.4 -2.4 -2.4 -2.4 -2.4 -2.4 -2.4 -2.4 -2.4 -2.4 -2.4 -2.4 -2.4 -2.4 -2.4 -2.4 -2.4 -2.4 -2.4 -2.4 -2.4 -2.4 -2.4 -2.4 -2.4 -2.4 -2.4 -2.4 -2.4 -2.4 -2.4 -2.4 -2.4 -2.4 -2.4 -2.4 -2.4 -2.4 -2.4 -2.4 -2.4 -2.4 -2.4 -2.4 -2.4 -2.4 -2.4 -2.4 -2.4 -2.4 -2.4 -2.4 -2.4 -2.4 -2.4
50.1 50.8 54.2 54.8 54.8 54.8 54.4 54.5 52.5 50.6 49.1 47.7 45.8 44.9 44.3 43.1 41.9 40.8 39.8 39.7 39.8 40.3 40.9 41.6 42.9 43.1 43.1 43 42.9 42.9 42.6 42 42.6 44 46.6 48.1 48.3 46.4 44.7 43.5 41.9 40.1 38 35.2 32.2 31.3 33.2 35 36.7 39.2 43.1 47.6 50 49 47.8 48.4 49.8 50.5 51.9 53.4 54.5 57.8 61.2 62.6 63.1 63.2 64.7 67 69.2 71.4 73.5 74 73.7 74.4 75 74.6 76.6 74 74.3 77.7 83.9 88.2 75 50.4 52.6 61.3 43.4 41.3 29.2 16.8 6.4 0.7 -0.8 -2.4 -2.4 -2.4 -2.4 -2.4 -2.4 -2.4 -2.4 -2.4 -2.4 -2.4 -2.4 -2.4 -2.4 -2.4 -2.4 -2.4 -2.4 -2.4 -2.4 -2.4 -2.4 -2.4 -2.4 -2.4 -2.4 -2.4 -2.4 -2.4 -2.4 -2.4 -2.4 -2.4 -2.4 -2.4 -2.4 -2.4 -2.4 -2.4 -2.4 -2.4 -2.4 -2.4 -2.4 -2.4 -2.4 -2.4 -2.4 -2.4 -2.4 -2.4 -2.4 -2.4 -2.4 -2.4 -2.4 -2.4 -2.4 -2.4 -2.4 -2.4 -2.4 -2.4 -2.4 -2.4 -2.4 -2.4 -2.4 -2.4 -2.4 -2.4 -2.4 -2.4 -2.4 -2.4 -2.4 -2.4 -2.4 -2.4 -2.4 -2.4 -2.4 -2.4 -2.4 -2.4 -2.4 -2.4 -2.4 -2.4 -2.4 -2.4 -2.4 -2.4 -2.4 -2.4 -2.4 -2.4 -2.4 -2.4 -2.4 -2.4 -2.4 -2.4 -2.4 -2.4 -2.4 -2.4
49.6 50.6 51.4 51.6 51.8 52 51.9 51.3 50.3 49.4 48.2 47.5 46.5 45.4 44.1 42.7 41.4 40.2 39.1 39 38.8 39.1 39.5 40.1 41.3 41.1 41.1 40.8 40.5 40.2 40 40.3 41.1 42.8 45.5 46.5 46 44.4 42.7 41.7 40.9 40 38.2 35.2 31.7 31.8 33.5 34.4 35.4 37.6 42.9 47.5 50 48 45.9 46.4 47.4 48.3 49.7 50.6 52.2 55.6 58.3 59.3 59.7 60.3 62.3 65.2 68.1 69.9 70.7 68.8 69 70 70.3 69.9 69.6 70.3 71.7 76 78.7 81.8 68.6 59.4 61.8 41.3 23.9 31.2 25.4 10.6 1.2 -0.3 -2.4 -2.4 -2.4 -2.4 -2.4 -2.4 -2.4 -2.4 -2.4 -2.4 -2.4 -2.4 -2.4 -2.4 -2.4 -2.4 -2.4 -2.4 -2.4 -2.4 -2.4 -2.4 -2.4 -2.4 -2.4 -2.4 -2.4 -2.4 -2.4 -2.4 -2.4 -2.4 -2.4 -2.4 -2.4 -2.4 -2.4 -2.4 -2.4 -2.4 -2.4 -2.4 -2.4 -2.4 -2.4 -2.4 -2.4 -2.4 -2.4 -2.4 -2.4 -2.4 -2.4 -2.4 -2.4 -2.4 -2.4 -2.4 -2.4 -2.4 -2.4 -2.4 -2.4 -2.4 -2.4 -2.4 -2.4 -2.4 -2.4 -2.4 -2.4 -2.4 -2.4 -2.4 -2.4 -2.4 -2.4 -2.4 -2.4 -2.4 -2.4 -2.4 -2.4 -2.4 -2.4 -2.4 -2.4 -2.4 -2.4 -2.4 -2.4 -2.4 -2.4 -2.4 -2.4 -2.4 -2.4 -2.4 -2.4 -2.4 -2.4 -2.4 -2.4 -2.4 -2.4 -2.4 -2.4 -2.4
48.9 49.2 50.1 50.3 50.4 50.6 50.5 49.8 49.1 48.3 47.7 46.9 46.1 45 43.6 42.3 40.9 39.8 38.8 38.4 37.9 37.6 38.1 38.3 38.4 38.6 38.8 38.8 38.6 38.5 38.7 39.2 40.5 42.2 44.6 45 44 42.3 40.8 40 39.6 38.9 38.3 35.4 32.5 31.3 31.5 31.9 33.5 35.8 40.8 45.7 47.7 45.9 43.7 44 45.1 46.1 46.7 48 50.3 52.9 54.8 55.7 56.4 58 60.7 63.6 67.3 69.4 68.8 65.2 64.4 65.4 66 65.8 66.4 67.9 71 73.9 75.5 75 72 59.6 43.6 34.4 24.4 22.7 19.4 1.6 0.2 -2.4 -2.4 -2.4 -2.4 -2.4 -2.4 -2.4 -2.4 -2.4 -2.4 -2.4 -2.4 -2.4 -2.4 -2.4 -2.4 -2.4 -2.4 -2.4 -2.4 -2.4 -2.4 -2.4 -2.4 -2.4 -2.4 -2.4 -2.4 -2.4 -2.4 -2.4 -2.4 -2.4 -2.4 -2.4 -2.4 -2.4 -2.4 -2.4 -2.4 -2.4 -2.4 -2.4 -2.4 -2.4 -2.4 -2.4 -2.4 -2.4 -2.4 -2.4 -2.4 -2.4 -2.4 -2.4 -2.4 -2.4 -2.4 -2.4 -2.4 -2.4 -2.4 -2.4 -2.4 -2.4 -2.4 -2.4 -2.4 -2.4 -2.4 -2.4 -2.4 -2.4 -2.4 -2.4 -2.4 -2.4 -2.4 -2.4 -2.4 -2.4 -2.4 -2.4 -2.4 -2.4 -2.4 -2.4 -2.4 -2.4 -2.4 -2.4 -2.4 -2.4 -2.4 -2.4 -2.4 -2.4 -2.4 -2.4 -2.4 -2.4 -2.4 -2.4 -2.4 -2.4 -2.4 -2.4 -2.4 -2.4
48.4 48.1 48.7 48.9 49 49.2 49.1 48.4 47.8 47.5 47.2 46.4 45.6 44.5 43.4 42.2 41.1 40 38.9 37.8 37.1 36.6 36.7 36.9 37 37 37.1 37.3 37.3 37.2 37.7 38.4 39.5 41.2 43.2 43.2 42.2 40.5 39 38.5 38.3 38.2 37.6 35.6 32.8 31 29 29.2 30.8 33.7 38.4 43 44.7 43.4 41 41.7 42.7 43.5 43.8 45.5 47.4 49.8 52.2 52.9 53.7 55.9 59.3 63.1 66.4 67.7 65.7 61.2 60.2 61.1 62.6 62.9 65 66.2 69.7 71.4 70.3 69 67.1 50.6 36.1 30.3 21.5 15.8 5.8 0.6 -0.7 -2.4 -2.4 -2.4 -2.4 -2.4 -2.4 -2.4 -2.4 -2.4 -2.4 -2.4 -2.4 -2.4 -2.4 -2.4 -2.4 -2.4 -2.4 -2.4 -2.4 -2.4 -2.4 -2.4 -2.4 -2.4 -2.4 -2.4 -2.4 -2.4 -2.4 -2.4 -2.4 -2.4 -2.4 -2.4 -2.4 -2.4 -2.4 -2.4 -2.4 -2.4 -2.4 -2.4 -2.4 -2.4 -2.4 -2.4 -2.4 -2.4 -2.4 -2.4 -2.4 -2.4 -2.4 -2.4 -2.4 -2.4 -2.4 -2.4 -2.4 -2.4 -2.4 -2.4 -2.4 -2.4 -2.4 -2.4 -2.4 -2.4 -2.4 -2.4 -2.4 -2.4 -2.4 -2.4 -2.4 -2.4 -2.4 -2.4 -2.4 -2.4 -2.4 -2.4 -2.4 -2.4 -2.4 -2.4 -2.4 -2.4 -2.4 -2.4 -2.4 -2.4 -2.4 -2.4 -2.4 -2.4 -2.4 -2.4 -2.4 -2.4 -2.4 -2.4 -2.4 -2.4 -2.4 -2.4 -2.4 -2.4
47.8 47.5 47.3 47.5 47.7 47.8 47.8 47.3 46.6 46.8 46.6 45.4 44.2 43.5 42.9 42.4 41.4 40.2 39.1 38.2 37.3 36 35.9 36 35.9 35.4 35.5 35.8 36.1 36 36.6 37.4 38.4 40.2 41.1 41 40.8 39.5 37.7 36.9 37.2 37.1 37 35.4 33.4 31.5 29.3 27.7 28 31.4 35.7 40.1 41.9 40.7 38.5 39.3 40.4 41.1 41.5 42.9 44.7 47.1 49.3 50.3 51.1 54.7 58.5 61.9 64.3 64 62.7 57.7 57.4 59.1 58.9 59.7 61 48.8 62.1 66.7 66 62.9 60 45.4 30.2 20.3 14.2 12.8 1.2 -0.1 -2.4 -2.4 -2.4 -2.4 -2.4 -2.4 -2.4 -2.4 -2.4 -2.4 -2.4 -2.4 -2.4 -2.4 -2.4 -2.4 -2.4 -2.4 -2.4 -2.4 -2.4 -2.4 -2.4 -2.4 -2.4 -2.4 -2.4 -2.4 -2.4 -2.4 -2.4 -2.4 -2.4 -2.4 -2.4 -2.4 -2.4 -2.4 -2.4 -2.4 -2.4 -2.4 -2.4 -2.4 -2.4 -2.4 -2.4 -2.4 -2.4 -2.4 -2.4 -2.4 -2.4 -2.4 -2.4 -2.4 -2.4 -2.4 -2.4 -2.4 -2.4 -2.4 -2.4 -2.4 -2.4 -2.4 -2.4 -2.4 -2.4 -2.4 -2.4 -2.4 -2.4 -2.4 -2.4 -2.4 -2.4 -2.4 -2.4 -2.4 -2.4 -2.4 -2.4 -2.4 -2.4 -2.4 -2.4 -2.4 -2.4 -2.4 -2.4 -2.4 -2.4 -2.4 -2.4 -2.4 -2.4 -2.4 -2.4 -2.4 -2.4 -2.4 -2.4 -2.4 -2.4 -2.4 -2.4 -2.4 -2.4 -2.4
48.4 47.3 47 46.6 46.4 46.5 46.4 46.1 45.8 46 45.4 44.1 43.2 42.7 42 41.4 40.8 40.2 40 39.2 37.7 36.3 35.1 35 34.5 34.1 34 34.4 34.7 34.8 35.5 36.2 37.4 38.6 40.1 40 39.4 37.6 35.9 35 35.1 34.8 34.8 35 34.1 32.6 30.3 27.9 26.6 28.5 33 36.9 39.2 38 36.5 37.1 38.1 38.8 39.9 41 42.2 44.4 46.8 48.2 50.1 53.4 57.6 59.9 61.3 59.5 56.7 53.4 54.4 55.2 55.3 56.7 44.2 42.5 47.8 60.8 61.8 58.5 52.4 36.1 24.3 13 10 1.6 0.5 -0.8 -2.4 -2.4 -2.4 -2.4 -2.4 -2.4 -2.4 -2.4 -2.4 -2.4 -2.4 -2.4 -2.4 -2.4 -2.4 -2.4 -2.4 -2.4 -2.4 -2.4 -2.4 -2.4 -2.4 -2.4 -2.4 -2.4 -2.4 -2.4 -2.4 -2.4 -2.4 -2.4 -2.4 -2.4 -2.4 -2.4 -2.4 -2.4 -2.4 -2.4 -2.4 -2.4 -2.4 -2.4 -2.4 -2.4 -2.4 -2.4 -2.4 -2.4 -2.4 -2.4 -2.4 -2.4 -2.4 -2.4 -2.4 -2.4 -2.4 -2.4 -2.4 -2.4 -2.4 -2.4 -2.4 -2.4 -2.4 -2.4 -2.4 -2.4 -2.4 -2.4 -2.4 -2.4 -2.4 -2.4 -2.4 -2.4 -2.4 -2.4 -2.4 -2.4 -2.4 -2.4 -2.4 -2.4 -2.4 -2.4 -2.4 -2.4 -2.4 -2.4 -2.4 -2.4 -2.4 -2.4 -2.4 -2.4 -2.4 -2.4 -2.4 -2.4 -2.4 -2.4 -2.4 -2.4 -2.4 -2.4 -2.4 -2.4
49.7 48.5 47.3 46.5 45.9 45.5 45.1 45 44.8 44.8 44.1 43.1 42.6 42.2 41.6 40.9 40.2 39.6 40.2 39.1 37.9 36.5 35.2 34.3 33.7 33.1 32.7 33.1 33.4 33.7 34.2 35.2 36.4 37.6 38.8 39 38.2 35.9 34 32.9 32.7 32.5 32.9 33.5 33.9 32.6 30.7 28.7 26.7 26.5 30.9 35.1 37.1 36 34.9 34.9 36 37.2 38.3 39.4 40.5 42.5 44.3 45.4 48.4 51.8 54.9 56.6 57 54.8 50.4 49.6 50.4 50.6 50.2 40.5 42.1 53.2 56.5 57.7 58 54.6 49.2 30.6 21.2 12.3 1.9 0.9 -0.1 -1.3 -2.4 -2.4 -2.4 -2.4 -2.4 -2.4 -2.4 -2.4 -2.4 -2.4 -2.4 -2.4 -2.4 -2.4 -2.4 -2.4 -2.4 -2.4 -2.4 -2.4 -2.4 -2.4 -2.4 -2.4 -2.4 -2.4 -2.4 -2.4 -2.4 -2.4 -2.4 -2.4 -2.4 -2.4 -2.4 -2.4 -2.4 -2.4 -2.4 -2.4 -2.4 -2.4 -2.4 -2.4 -2.4 -2.4 -2.4 -2.4 -2.4 -2.4 -2.4 -2.4 -2.4 -2.4 -2.4 -2.4 -2.4 -2.4 -2.4 -2.4 -2.4 -2.4 -2.4 -2.4 -2.4 -2.4 -2.4 -2.4 -2.4 -2.4 -2.4 -2.4 -2.4 -2.4 -2.4 -2.4 -2.4 -2.4 -2.4 -2.4 -2.4 -2.4 -2.4 -2.4 -2.4 -2.4 -2.4 -2.4 -2.4 -2.4 -2.4 -2.4 -2.4 -2.4 -2.4 -2.4 -2.4 -2.4 -2.4 -2.4 -2.4 -2.4 -2.4 -2.4 -2.4 -2.4 -2.4 -2.4 -2.4 -2.4
51.1 49.8 48.5 47.6 46.4 45.8 45.3 44.8 44.9 44.1 43.6 42.7 42.3 41.6 40.9 40.3 39.7 39 39.2 38.6 37.5 36.3 35 34.3 34.1 33.3 32.7 32.5 32.8 33 33.3 34.2 35.4 36.5 37 37.6 36.7 35 33 31.6 31.3 31.2 31.5 32.1 32.6 32.3 30.5 28.7 26.9 25.5 28.6 32.6 34.8 34.5 33.4 33 34.3 35.6 36.7 37.8 38.9 41.3 42.8 43.7 45.5 49.1 52.5 53.4 52.6 50.3 46.7 46.5 47 44.8 41.4 44.2 49 52.4 53.9 54.6 54.2 51.2 44.4 24.9 14.8 6.7 1.3 0.4 -0.6 -1.5 -2.4 -2.4 -2.4 -2.4 -2.4 -2.4 -2.4 -2.4 -2.4 -2.4 -2.4 -2.4 -2.4 -2.4 -2.4 -2.4 -2.4 -2.4 -2.4 -2.4 -2.4 -2.4 -2.4 -2.4 -2.4 -2.4 -2.4 -2.4 -2.4 -2.4 -2.4 -2.4 -2.4 -2.4 -2.4 -2.4 -2.4 -2.4 -2.4 -2.4 -2.4 -2.4 -2.4 -2.4 -2.4 -2.4 -2.4 -2.4 -2.4 -2.4 -2.4 -2.4 -2.4 -2.4 -2.4 -2.4 -2.4 -2.4 -2.4 -2.4 -2.4 -2.4 -2.4 -2.4 -2.4 -2.4 -2.4 -2.4 -2.4 -2.4 -2.4 -2.4 -2.4 -2.4 -2.4 -2.4 -2.4 -2.4 -2.4 -2.4 -2.4 -2.4 -2.4 -2.4 -2.4 -2.4 -2.4 -2.4 -2.4 -2.4 -2.4 -2.4 -2.4 -2.4 -2.4 -2.4 -2.4 -2.4 -2.4 -2.4 -2.4 -2.4 -2.4 -2.4 -2.4 -2.4 -2.4 -2.4 -2.4 -2.4
52 50.8 49.6 48.2 47.1 46.6 46.2 46 46 45 43.8 42.8 42 41 40.2 39.5 39 38.4 38.3 37.8 37.1 35.9 35.2 35 34.3 33.7 33.1 32.6 32.3 32.3 32.5 33.3 34 35.1 35.7 36.3 35.3 33.8 31.9 30.5 30.1 30 30.1 30.6 31.1 31 30.4 28.9 26.6 24.3 25.8 30.4 32.6 32.6 31.6 31.4 32.7 34 35.1 36.1 37.7 40.2 41.2 42.3 43.6 46.6 50.3 50.5 49.2 47.2 44.8 43.9 41.5 41.2 45.5 46.1 46.7 49.6 52.9 54.8 51 48.2 38.7 22.5 12.3 2.8 1 0.1 -0.7 -1.6 -2.4 -2.4 -2.4 -2.4 -2.4 -2.4 -2.4 -2.4 -2.4 -2.4 -2.4 -2.4 -2.4 -2.4 -2.4 -2.4 -2.4 -2.4 -2.4 -2.4 -2.4 -2.4 -2.4 -2.4 -2.4 -2.4 -2.4 -2.4 -2.4 -2.4 -2.4 -2.4 -2.4 -2.4 -2.4 -2.4 -2.4 -2.4 -2.4 -2.4 -2.4 -2.4 -2.4 -2.4 -2.4 -2.4 -2.4 -2.4 -2.4 -2.4 -2.4 -2.4 -2.4 -2.4 -2.4 -2.4 -2.4 -2.4 -2.4 -2.4 -2.4 -2.4 -2.4 -2.4 -2.4 -2.4 -2.4 -2.4 -2.4 -2.4 -2.4 -2.4 -2.4 -2.4 -2.4 -2.4 -2.4 -2.4 -2.4 -2.4 -2.4 -2.4 -2.4 -2.4 -2.4 -2.4 -2.4 -2.4 -2.4 -2.4 -2.4 -2.4 -2.4 -2.4 -2.4 -2.4 -2.4 -2.4 -2.4 -2.4 -2.4 -2.4 -2.4 -2.4 -2.4 -2.4 -2.4 -2.4 -2.4 -2.4
54.1 51.9 49.8 48.7 47.9 47.5 47.4 47.2 47 45.9 44.9 44 43.1 42 40.7 39.9 39 38.1 37.4 36.8 36.4 35.8 35.8 35.8 35.2 34.5 33.8 33.2 32.4 32.4 32 31.8 32 33 34.4 34.8 33.8 32.3 30.9 29.6 29 29.2 29.7 30.2 30.2 30 29.8 28.9 26.9 24.5 24.2 27.8 30.5 30.4 29.7 29.9 31.1 32.3 33.4 34.5 36.5 38.6 39.5 40.5 41.9 44.6 46.9 47.6 46.8 44.9 41.7 41.1 40.6 41.5 42.5 43.7 44.5 46.2 50.1 50.4 48.3 45.3 35.2 22 12.1 1.6 0.8 0 -0.9 -1.7 -2.4 -2.4 -2.4 -2.4 -2.4 -2.4 -2.4 -2.4 -2.4 -2.4 -2.4 -2.4 -2.4 -2.4 -2.4 -2.4 -2.4 -2.4 -2.4 -2.4 -2.4 -2.4 -2.4 -2.4 -2.4 -2.4 -2.4 -2.4 -2.4 -2.4 -2.4 -2.4 -2.4 -2.4 -2.4 -2.4 -2.4 -2.4 -2.4 -2.4 -2.4 -2.4 -2.4 -2.4 -2.4 -2.4 -2.4 -2.4 -2.4 -2.4 -2.4 -2.4 -2.4 -2.4 -2.4 -2.4 -2.4 -2.4 -2.4 -2.4 -2.4 -2.4 -2.4 -2.4 -2.4 -2.4 -2.4 -2.4 -2.4 -2.4 -2.4 -2.4 -2.4 -2.4 -2.4 -2.4 -2.4 -2.4 -2.4 -2.4 -2.4 -2.4 -2.4 -2.4 -2.4 -2.4 -2.4 -2.4 -2.4 -2.4 -2.4 -2.4 -2.4 -2.4 -2.4 -2.4 -2.4 -2.4 -2.4 -2.4 -2.4 -2.4 -2.4 -2.4 -2.4 -2.4 -2.4 -2.4 -2.4 -2.4
54.4 51.8 49.8 49.1 48.9 48.7 48.6 48.5 48 47.1 46.1 45.2 44.3 43.1 41.7 40.8 39.9 39 38.1 37.4 36.9 36.4 36.5 36.4 35.8 35.2 34.6 34 33.6 32.7 32.6 31.6 31 31.9 33.1 33 31.8 30.5 29.2 28 27.9 28.6 29.3 29.5 29.3 29.1 28.7 28.4 26.5 24 23.5 26.1 28.5 28.3 27.7 28.4 29.6 30.7 32.1 33.8 35.6 36.8 37.9 38.5 39.5 41.4 43.1 44.8 44.1 41.4 40.7 39.1 39.9 40.9 41.2 41.7 42.5 43.6 46.4 46.7 45.6 43.7 34.5 22.9 13.7 1.6 0.8 -0.1 -1 -1.8 -2.4 -2.4 -2.4 -2.4 -2.4 -2.4 -2.4 -2.4 -2.4 -2.4 -2.4 -2.4 -2.4 -2.4 -2.4 -2.4 -2.4 -2.4 -2.4 -2.4 -2.4 -2.4 -2.4 -2.4 -2.4 -2.4 -2.4 -2.4 -2.4 -2.4 -2.4 -2.4 -2.4 -2.4 -2.4 -2.4 -2.4 -2.4 -2.4 -2.4 -2.4 -2.4 -2.4 -2.4 -2.4 -2.4 -2.4 -2.4 -2.4 -2.4 -2.4 -2.4 -2.4 -2.4 -2.4 -2.4 -2.4 -2.4 -2.4 -2.4 -2.4 -2.4 -2.4 -2.4 -2.4 -2.4 -2.4 -2.4 -2.4 -2.4 -2.4 -2.4 -2.4 -2.4 -2.4 -2.4 -2.4 -2.4 -2.4 -2.4 -2.4 -2.4 -2.4 -2.4 -2.4 -2.4 -2.4 -2.4 -2.4 -2.4 -2.4 -2.4 -2.4 -2.4 -2.4 -2.4 -2.4 -2.4 -2.4 -2.4 -2.4 -2.4 -2.4 -2.4 -2.4 -2.4 -2.4 -2.4 -2.4 -2.4
54.4 51.6 49.9 49.5 50 50.1 49.8 49.4 48.7 48.2 47.3 46.4 45.5 44.2 42.8 41.7 40.8 39.9 39 38.3 37.8 37.4 37.4 37.3 36.6 36 35.4 34.7 34.4 34 33 32 31 30.8 30.8 30.4 29.2 28 27.2 26.9 26.8 27.6 28.6 28.6 28.3 28 27.6 27.3 25.4 23.7 22.4 24.8 26.9 26.5 25.7 26.6 28 29.6 31.3 32.9 35.1 35.7 35.9 36.5 37.5 38.8 40.8 42.4 41.4 41 37.8 37 37.3 39.4 38.7 39 39.7 40.8 42.5 42.8 43.2 42.2 37.6 26.3 21.1 11.5 0.9 0 -0.8 -1.8 -2.4 -2.4 -2.4 -2.4 -2.4 -2.4 -2.4 -2.4 -2.4 -2.4 -2.4 -2.4 -2.4 -2.4 -2.4 -2.4 -2.4 -2.4 -2.4 -2.4 -2.4 -2.4 -2.4 -2.4 -2.4 -2.4 -2.4 -2.4 -2.4 -2.4 -2.4 -2.4 -2.4 -2.4 -2.4 -2.4 -2.4 -2.4 -2.4 -2.4 -2.4 -2.4 -2.4 -2.4 -2.4 -2.4 -2.4 -2.4 -2.4 -2.4 -2.4 -2.4 -2.4 -2.4 -2.4 -2.4 -2.4 -2.4 -2.4 -2.4 -2.4 -2.4 -2.4 -2.4 -2.4 -2.4 -2.4 -2.4 -2.4 -2.4 -2.4 -2.4 -2.4 -2.4 -2.4 -2.4 -2.4 -2.4 -2.4 -2.4 -2.4 -2.4 -2.4 -2.4 -2.4 -2.4 -2.4 -2.4 -2.4 -2.4 -2.4 -2.4 -2.4 -2.4 -2.4 -2.4 -2.4 -2.4 -2.4 -2.4 -2.4 -2.4 -2.4 -2.4 -2.4 -2.4 -2.4 -2.4 -2.4 -2.4
54.4 51.6 50 49.7 50 50.4 50.3 50.1 49.5 49 48.4 47.5 46.6 45.4 44.1 42.8 41.8 40.8 39.9 39.2 38.8 38.3 38.1 37.8 37.4 36.8 36.1 35.6 35.3 34.7 33.9 33 31.8 29.7 28.8 28.5 28.3 28.1 26.7 26.4 26.2 26.3 26.8 26.8 26 25.7 25.3 24.7 23.3 22.1 21.6 22.9 24.9 24.1 23.3 25.5 27 28.2 30.3 32.7 34.9 35.4 34.3 34.6 35.5 36.7 41.2 41.5 40 37.1 35.7 34.6 33.2 35.8 36.7 37.1 37 37.7 38.6 39.7 40.6 40.7 40.2 29.9 17.3 4.4 1 0.1 -0.9 -1.8 -2.4 -2.4 -2.4 -2.4 -2.4 -2.4 -2.4 -2.4 -2.4 -2.4 -2.4 -2.4 -2.4 -2.4 -2.4 -2.4 -2.4 -2.4 -2.4 -2.4 -2.4 -2.4 -2.4 -2.4 -2.4 -2.4 -2.4 -2.4 -2.4 -2.4 -2.4 -2.4 -2.4 -2.4 -2.4 -2.4 -2.4 -2.4 -2.4 -2.4 -2.4 -2.4 -2.4 -2.4 -2.4 -2.4 -2.4 -2.4 -2.4 -2.4 -2.4 -2.4 -2.4 -2.4 -2.4 -2.4 -2.4 -2.4 -2.4 -2.4 -2.4 -2.4 -2.4 -2.4 -2.4 -2.4 -2.4 -2.4 -2.4 -2.4 -2.4 -2.4 -2.4 -2.4 -2.4 -2.4 -2.4 -2.4 -2.4 -2.4 -2.4 -2.4 -2.4 -2.4 -2.4 -2.4 -2.4 -2.4 -2.4 -2.4 -2.4 -2.4 -2.4 -2.4 -2.4 -2.4 -2.4 -2.4 -2.4 -2.4 -2.4 -2.4 -2.4 -2.4 -2.4 -2.4 -2.4 -2.4 -2.4 -2.4
54.7 51.8 49.7 49.3 50 50.8 51.2 50.9 50.3 49.7 49.2 48.7 47.7 46.7 45.3 44 43.2 42.2 41.2 40.2 39.7 39.2 39 38.4 37.8 37.4 36.9 36.4 36 35.4 34.8 34.1 32.5 30.5 30.1 30.5 31.1 30.2 29.3 28.1 26.5 25.4 25.1 25 24.3 23.4 22.1 21.1 20.2 20.3 20.4 21.1 22.1 21.5 20.7 23 25.7 28 30.3 33 35.2 34.7 33.1 32.9 33.2 34 36.3 35.3 36.2 36.6 33.8 33.1 33 34.6 35 34.8 34.5 34.2 35.3 38 40.1 40.5 40.6 35.9 16.3 2.8 0.9 0 -0.9 -2.4 -2.4 -2.4 -2.4 -2.4 -2.4 -2.4 -2.4 -2.4 -2.4 -2.4 -2.4 -2.4 -2.4 -2.4 -2.4 -2.4 -2.4 -2.4 -2.4 -2.4 -2.4 -2.4 -2.4 -2.4 -2.4 -2.4 -2.4 -2.4 -2.4 -2.4 -2.4 -2.4 -2.4 -2.4 -2.4 -2.4 -2.4 -2.4 -2.4 -2.4 -2.4 -2.4 -2.4 -2.4 -2.4 -2.4 -2.4 -2.4 -2.4 -2.4 -2.4 -2.4 -2.4 -2.4 -2.4 -2.4 -2.4 -2.4 -2.4 -2.4 -2.4 -2.4 -2.4 -2.4 -2.4 -2.4 -2.4 -2.4 -2.4 -2.4 -2.4 -2.4 -2.4 -2.4 -2.4 -2.4 -2.4 -2.4 -2.4 -2.4 -2.4 -2.4 -2.4 -2.4 -2.4 -2.4 -2.4 -2.4 -2.4 -2.4 -2.4 -2.4 -2.4 -2.4 -2.4 -2.4 -2.4 -2.4 -2.4 -2.4 -2.4 -2.4 -2.4 -2.4 -2.4 -2.4 -2.4 -2.4 -2.4 -2.4
54 51.9 49.6 48.9 50.8 51.8 52 51.6 51 50.4 49.9 49.4 48.7 47.9 46.6 45.3 44.4 43.6 42.6 41.6 40.7 40 39.8 39.8 39.2 38.6 38.1 37.5 36.7 36.2 35.5 34.6 33.5 32.6 32.8 33.8 33.8 32.8 31.6 30.3 28.4 26.4 25.5 24.7 24.3 23.9 22.9 21.4 19.9 19.1 19 19 19.3 18.8 19.5 23.4 26.7 29.2 31.8 34.1 35.4 33.9 32.4 32 41.2 32.8 33.9 34.2 33.5 33.1 32.3 31.6 32.3 33.7 33.2 32.6 32.2 32.1 34.5 38.7 42.5 43.7 42.4 35.2 13.8 2.7 0.8 -0.3 -1.4 -2.4 -2.4 -2.4 -2.4 -2.4 -2.4 -2.4 -2.4 -2.4 -2.4 -2.4 -2.4 -2.4 -2.4 -2.4 -2.4 -2.4 -2.4 -2.4 -2.4 -2.4 -2.4 -2.4 -2.4 -2.4 -2.4 -2.4 -2.4 -2.4 -2.4 -2.4 -2.4 -2.4 -2.4 -2.4 -2.4 -2.4 -2.4 -2.4 -2.4 -2.4 -2.4 -2.4 -2.4 -2.4 -2.4 -2.4 -2.4 -2.4 -2.4 -2.4 -2.4 -2.4 -2.4 -2.4 -2.4 -2.4 -2.4 -2.4 -2.4 -2.4 -2.4 -2.4 -2.4 -2.4 -2.4 -2.4 -2.4 -2.4 -2.4 -2.4 -2.4 -2.4 -2.4 -2.4 -2.4 -2.4 -2.4 -2.4 -2.4 -2.4 -2.4 -2.4 -2.4 -2.4 -2.4 -2.4 -2.4 -2.4 -2.4 -2.4 -2.4 -2.4 -2.4 -2.4 -2.4 -2.4 -2.4 -2.4 -2.4 -2.4 -2.4 -2.4 -2.4 -2.4 -2.4 -2.4 -2.4 -2.4 -2.4 -2.4
55 51.3 48.9 48.6 51.1 52.9 52.9 52.4 51.7 51.1 50.6 50 49.4 48.7 47.8 46.6 45.7 44.8 43.8 42.9 41.9 41.3 41.1 41.1 40.7 40.3 39.8 39.3 38.1 36.4 35.5 35 34.4 33.8 34.2 35.2 35.4 34.9 33.5 32.4 30.8 28.9 27.4 26.5 27.2 27.7 26.4 23.9 22 20.2 19.3 17.8 17.4 17.5 21.4 25.3 28 30.5 33.2 35.4 34.9 32.5 35.6 37.5 30.7 32 32.7 32.8 31.7 30.3 29.6 30.2 32 33.3 32.8 31.2 30.6 30.6 34.5 40 47.4 50.2 46 34.8 16.7 3.4 0.8 -0.4 -1.5 -2.4 -2.4 -2.4 -2.4 -2.4 -2.4 -2.4 -2.4 -2.4 -2.4 -2.4 -2.4 -2.4 -2.4 -2.4 -2.4 -2.4 -2.4 -2.4 -2.4 -2.4 -2.4 -2.4 -2.4 -2.4 -2.4 -2.4 -2.4 -2.4 -2.4 -2.4 -2.4 -2.4 -2.4 -2.4 -2.4 -2.4 -2.4 -2.4 -2.4 -2.4 -2.4 -2.4 -2.4 -2.4 -2.4 -2.4 -2.4 -2.4 -2.4 -2.4 -2.4 -2.4 -2.4 -2.4 -2.4 -2.4 -2.4 -2.4 -2.4 -2.4 -2.4 -2.4 -2.4 -2.4 -2.4 -2.4 -2.4 -2.4 -2.4 -2.4 -2.4 -2.4 -2.4 -2.4 -2.4 -2.4 -2.4 -2.4 -2.4 -2.4 -2.4 -2.4 -2.4 -2.4 -2.4 -2.4 -2.4 -2.4 -2.4 -2.4 -2.4 -2.4 -2.4 -2.4 -2.4 -2.4 -2.4 -2.4 -2.4 -2.4 -2.4 -2.4 -2.4 -2.4 -2.4 -2.4 -2.4 -2.4 -2.4 -2.4
54.3 50.3 47.2 47.5 51.1 53.5 53.5 53 52.4 51.8 51.3 50.6 50.3 49.6 48.7 47.8 46.9 45.9 45 44.1 43.2 42.5 42.5 41.8 41.4 41 40.5 40 39 37.1 36.4 36 35.5 34.9 35.6 35.9 36.2 35.9 34.6 33.6 32.7 31.3 30.2 29.9 30.5 30.3 27.9 26 24.3 22.7 21 18.2 16.5 17.2 22.4 26.1 28.8 31.5 33.6 34.9 33.4 41.6 33.8 28.8 29.8 31 31.9 30.9 29.2 28.5 27.9 30.5 33.7 34.4 32.4 29.7 28.4 28.9 33.3 39 47.3 52.3 48.7 35.5 17 3.2 0.7 -0.6 -1.9 -2.4 -2.4 -2.4 -2.4 -2.4 -2.4 -2.4 -2.4 -2.4 -2.4 -2.4 -2.4 -2.4 -2.4 -2.4 -2.4 -2.4 -2.4 -2.4 -2.4 -2.4 -2.4 -2.4 -2.4 -2.4 -2.4 -2.4 -2.4 -2.4 -2.4 -2.4 -2.4 -2.4 -2.4 -2.4 -2.4 -2.4 -2.4 -2.4 -2.4 -2.4 -2.4 -2.4 -2.4 -2.4 -2.4 -2.4 -2.4 -2.4 -2.4 -2.4 -2.4 -2.4 -2.4 -2.4 -2.4 -2.4 -2.4 -2.4 -2.4 -2.4 -2.4 -2.4 -2.4 -2.4 -2.4 -2.4 -2.4 -2.4 -2.4 -2.4 -2.4 -2.4 -2.4 -2.4 -2.4 -2.4 -2.4 -2.4 -2.4 -2.4 -2.4 -2.4 -2.4 -2.4 -2.4 -2.4 -2.4 -2.4 -2.4 -2.4 -2.4 -2.4 -2.4 -2.4 -2.4 -2.4 -2.4 -2.4 -2.4 -2.4 -2.4 -2.4 -2.4 -2.4 -2.4 -2.4 -2.4 -2.4 -2.4 -2.4
50.7 49.6 47.4 48.2 53.1 53.2 53.6 53.5 53.2 52.6 52.3 52.1 51.5 50.7 49.8 48.8 48.4 47.4 46.5 45.8 44.9 43.7 43.3 42.6 42.1 41.6 41.2 40.7 39.5 38.1 37.3 36.8 36.4 36 36.2 36.4 36.6 36.7 35.8 34.7 33.8 33 32.7 32.7 32.8 32.5 30.2 27.7 26 24.4 22.5 19.9 17.4 17.3 21 25.4 28.8 30.9 32.9 33.9 42.4 35.5 28.4 28.1 29.5 31.4 31.9 29.6 27.7 26.5 29.4 34.1 37.4 35.6 32.3 28.4 26.6 27.4 32 37 45 49.9 42.5 29.5 11.7 1.7 0.2 -1.1 -2.4 -2.4 -2.4 -2.4 -2.4 -2.4 -2.4 -2.4 -2.4 -2.4 -2.4 -2.4 -2.4 -2.4 -2.4 -2.4 -2.4 -2.4 -2.4 -2.4 -2.4 -2.4 -2.4 -2.4 -2.4 -2.4 -2.4 -2.4 -2.4 -2.4 -2.4 -2.4 -2.4 -2.4 -2.4 -2.4 -2.4 -2.4 -2.4 -2.4 -2.4 -2.4 -2.4 -2.4 -2.4 -2.4 -2.4 -2.4 -2.4 -2.4 -2.4 -2.4 -2.4 -2.4 -2.4 -2.4 -2.4 -2.4 -2.4 -2.4 -2.4 -2.4 -2.4 -2.4 -2.4 -2.4 -2.4 -2.4 -2.4 -2.4 -2.4 -2.4 -2.4 -2.4 -2.4 -2.4 -2.4 -2.4 -2.4 -2.4 -2.4 -2.4 -2.4 -2.4 -2.4 -2.4 -2.4 -2.4 -2.4 -2.4 -2.4 -2.4 -2.4 -2.4 -2.4 -2.4 -2.4 -2.4 -2.4 -2.4 -2.4 -2.4 -2.4 -2.4 -2.4 -2.4 -2.4 -2.4 -2.4 -2.4 -2.4 -2.4
54.3 52.6 47.9 44.9 48.5 52.9 53.3 53.7 52.3 52.4 52.9 52.9 52.6 51.8 50.9 49.9 49.7 49.1 48.5 47.8 46.2 44.7 43.8 43.1 43.7 42.8 41.9 40.8 40.1 39.3 38.4 37.9 37.4 36.8 36.6 36.8 37 37.1 36.9 35.7 35.1 34.4 34.5 34.4 34.2 33.4 31.4 28.7 26.6 25.5 24.1 22.6 19.2 18.1 19.6 23.2 27.7 30.6 39.9 39 32.7 28.3 27.5 27.6 29.8 31.8 30.8 27.9 25.7 26.2 31.9 37.4 40.3 36.5 31.9 27.9 25.1 25.6 29.6 34.9 40.2 43 39.1 24.2 6.9 1.1 -0.5 -2.4 -2.4 -2.4 -2.4 -2.4 -2.4 -2.4 -2.4 -2.4 -2.4 -2.4 -2.4 -2.4 -2.4 -2.4 -2.4 -2.4 -2.4 -2.4 -2.4 -2.4 -2.4 -2.4 -2.4 -2.4 -2.4 -2.4 -2.4 -2.4 -2.4 -2.4 -2.4 -2.4 -2.4 -2.4 -2.4 -2.4 -2.4 -2.4 -2.4 -2.4 -2.4 -2.4 -2.4 -2.4 -2.4 -2.4 -2.4 -2.4 -2.4 -2.4 -2.4 -2.4 -2.4 -2.4 -2.4 -2.4 -2.4 -2.4 -2.4 -2.4 -2.4 -2.4 -2.4 -2.4 -2.4 -2.4 -2.4 -2.4 -2.4 -2.4 -2.4 -2.4 -2.4 -2.4 -2.4 -2.4 -2.4 -2.4 -2.4 -2.4 -2.4 -2.4 -2.4 -2.4 -2.4 -2.4 -2.4 -2.4 -2.4 -2.4 -2.4 -2.4 -2.4 -2.4 -2.4 -2.4 -2.4 -2.4 -2.4 -2.4 -2.4 -2.4 -2.4 -2.4 -2.4 -2.4 -2.4 -2.4 -2.4 -2.4 -2.4 -2.4
56.9 56.2 49.9 43.4 46.4 52.2 54.4 53.8 53.2 53 52.8 52.6 52.7 52.1 50.9 51.8 51.8 50.1 50.2 50.1 48.6 45.6 44.5 44.1 44.4 43.6 42.9 41.8 40.9 40 39.5 38.8 37.7 37.7 37.4 37.3 37.4 37.6 37.3 36.5 36.3 35.8 35.9 35.4 35.1 34 32.3 29.6 28.1 27 24.8 23.9 22.4 20 19 21.6 33.6 41.4 31.5 26.8 25.2 24.9 25.5 27.6 29.7 30.7 29 25.7 24.6 28.3 33.2 38 40.1 36.4 31.2 27.1 23.8 23.7 27.2 31.5 34.8 35.9 29.9 7.7 1.4 0 -1.5 -2.4 -2.4 -2.4 -2.4 -2.4 -2.4 -2.4 -2.4 -2.4 -2.4 -2.4 -2.4 -2.4 -2.4 -2.4 -2.4 -2.4 -2.4 -2.4 -2.4 -2.4 -2.4 -2.4 -2.4 -2.4 -2.4 -2.4 -2.4 -2.4 -2.4 -2.4 -2.4 -2.4 -2.4 -2.4 -2.4 -2.4 -2.4 -2.4 -2.4 -2.4 -2.4 -2.4 -2.4 -2.4 -2.4 -2.4 -2.4 -2.4 -2.4 -2.4 -2.4 -2.4 -2.4 -2.4 -2.4 -2.4 -2.4 -2.4 -2.4 -2.4 -2.4 -2.4 -2.4 -2.4 -2.4 -2.4 -2.4 -2.4 -2.4 -2.4 -2.4 -2.4 -2.4 -2.4 -2.4 -2.4 -2.4 -2.4 -2.4 -2.4 -2.4 -2.4 -2.4 -2.4 -2.4 -2.4 -2.4 -2.4 -2.4 -2.4 -2.4 -2.4 -2.4 -2.4 -2.4 -2.4 -2.4 -2.4 -2.4 -2.4 -2.4 -2.4 -2.4 -2.4 -2.4 -2.4 -2.4 -2.4 -2.4 -2.4 -2.4 -2.4
57.3 56.7 52.5 43.3 43.5 48.6 54.1 54.4 54.2 54 53.7 53.4 53.5 53.3 53.2 52.3 51 50.7 50.7 49.8 50.2 49.1 47.9 45.4 44.9 44.4 44.1 43 42 41.1 40.3 39.5 37.8 37.5 37.6 37.6 37.7 38.3 38 37.5 37.4 37.2 36.9 36.3 35.6 34.8 32.7 30.2 29.6 29.2 29.6 25.2 25.5 20 18.5 21.9 29 27.1 24 21.8 22.4 23.3 25.2 27.3 28.1 27.9 25 22.3 24.5 28.4 32.8 36.7 37.4 34.7 30.2 26.2 23.4 23.1 24.9 26.7 24.9 15.4 4.9 1.6 -0.2 -1.6 -2.4 -2.4 -2.4 -2.4 -2.4 -2.4 -2.4 -2.4 -2.4 -2.4 -2.4 -2.4 -2.4 -2.4 -2.4 -2.4 -2.4 -2.4 -2.4 -2.4 -2.4 -2.4 -2.4 -2.4 -2.4 -2.4 -2.4 -2.4 -2.4 -2.4 -2.4 -2.4 -2.4 -2.4 -2.4 -2.4 -2.4 -2.4 -2.4 -2.4 -2.4 -2.4 -2.4 -2.4 -2.4 -2.4 -2.4 -2.4 -2.4 -2.4 -2.4 -2.4 -2.4 -2.4 -2.4 -2.4 -2.4 -2.4 -2.4 -2.4 -2.4 -2.4 -2.4 -2.4 -2.4 -2.4 -2.4 -2.4 -2.4 -2.4 -2.4 -2.4 -2.4 -2.4 -2.4 -2.4 -2.4 -2.4 -2.4 -2.4 -2.4 -2.4 -2.4 -2.4 -2.4 -2.4 -2.4 -2.4 -2.4 -2.4 -2.4 -2.4 -2.4 -2.4 -2.4 -2.4 -2.4 -2.4 -2.4 -2.4 -2.4 -2.4 -2.4 -2.4 -2.4 -2.4 -2.4 -2.4 -2.4 -2.4 -2.4 -2.4 -2.4 -2.4
57.7 57.2 55.1 45 42.3 44.2 52.7 54.4 54.4 54.4 54.4 54.3 54 53.7 53.5 53.5 52.3 51.7 51.5 50.6 49.2 47.6 46.5 46.8 46.8 48.3 48.7 48 44.4 42.4 41.7 40.7 39.6 38.2 37.7 37.2 37.8 38.6 38.9 38.5 38.5 38.4 37.7 37.4 36.4 34.7 32.9 31.5 31.7 31.8 31.8 31.9 44.2 28.2 18.6 16.3 23.6 22.2 18.6 18.8 20.6 23 25 26.9 26.9 25.2 21.5 20.5 24.7 29.1 31.9 34.9 35.8 33.3 29.2 25.6 21.5 16.5 8.5 3.2 1.9 1 0 0 -2.4 -2.4 -2.4 -2.4 -2.4 -2.4 -2.4 -2.4 -2.4 -2.4 -2.4 -2.4 -2.4 -2.4 -2.4 -2.4 -2.4 -2.4 -2.4 -2.4 -2.4 -2.4 -2.4 -2.4 -2.4 -2.4 -2.4 -2.4 -2.4 -2.4 -2.4 -2.4 -2.4 -2.4 -2.4 -2.4 -2.4 -2.4 -2.4 -2.4 -2.4 -2.4 -2.4 -2.4 -2.4 -2.4 -2.4 -2.4 -2.4 -2.4 -2.4 -2.4 -2.4 -2.4 -2.4 -2.4 -2.4 -2.4 -2.4 -2.4 -2.4 -2.4 -2.4 -2.4 -2.4 -2.4 -2.4 -2.4 -2.4 -2.4 -2.4 -2.4 -2.4 -2.4 -2.4 -2.4 -2.4 -2.4 -2.4 -2.4 -2.4 -2.4 -2.4 -2.4 -2.4 -2.4 -2.4 -2.4 -2.4 -2.4 -2.4 -2.4 -2.4 -2.4 -2.4 -2.4 -2.4 -2.4 -2.4 -2.4 -2.4 -2.4 -2.4 -2.4 -2.4 -2.4 -2.4 -2.4 -2.4 -2.4 -2.4 -2.4 -2.4 -2.4 -2.4 -2.4
57.5 56.9 54.7 46 40.9 40.1 49.7 54.3 54.4 54.6 54.4 54.2 54.2 53.9 53.8 53.9 52.9 52.6 52.3 51.3 50 48.3 47.3 46.4 46.2 46.1 45.8 45.2 44.6 44.3 47.1 48.7 48.6 44.6 41.2 39.1 39.3 39.7 39.9 39.6 39.6 39.1 37.8 37.8 36.3 35.1 33.4 34.2 36.8 41.5 41.4 35.2 31.7 28.6 19.8 15.2 13.8 16.5 11.8 15.5 19.3 22.6 25.2 26.1 24.9 21.7 17.4 21.7 27.1 29.7 33 34.9 33.6 27.4 18.8 9.4 1.5 0.5 -0.2 -2.4 -2.4 -2.4 -2.4 -2.4 -2.4 -2.4 -2.4 -2.4 -2.4 -2.4 -2.4 -2.3 -2.4 -2.4 -2.4 -2.4 -2.4 -2.4 -2.4 -2.4 -2.4 -2.4 -2.4 -2.4 -2.4 -2.4 -2.4 -2.4 -2.4 -2.4 -2.4 -2.4 -2.4 -2.4 -2.4 -2.4 -2.4 -2.4 -2.4 -2.4 -2.4 -2.4 -2.4 -2.4 -2.4 -2.4 -2.4 -2.4 -2.4 -2.4 -2.4 -2.4 -2.4 -2.4 -2.4 -2.4 -2.4 -2.4 -2.4 -2.4 -2.4 -2.4 -2.4 -2.4 -2.4 -2.4 -2.4 -2.4 -2.4 -2.4 -2.4 -2.4 -2.4 -2.4 -2.4 -2.4 -2.4 -2.4 -2.4 -2.4 -2.4 -2.4 -2.4 -2.4 -2.4 -2.4 -2.4 -2.4 -2.4 -2.4 -2.4 -2.4 -2.4 -2.4 -2.4 -2.4 -2.4 -2.4 -2.4 -2.4 -2.4 -2.4 -2.4 -2.4 -2.4 -2.4 -2.4 -2.4 -2.4 -2.4 -2.4 -2.4 -2.4 -2.4 -2.4 -2.4 -2.4 -2.4 -2.4 -2.4
57.6 56.5 51.7 44.6 39.6 38.5 46.1 53 54 53.9 54 53.9 53.5 53.2 53.2 53.9 53.9 53.6 52.8 51.8 51 49.4 48.4 47.3 46.8 46.4 46.1 45.5 45 44.7 44.6 44.2 43.4 42.3 41.6 45 46.9 46.8 46.8 46.8 46.8 46.8 44.2 37.9 44.9 44.6 41.9 38.1 35.7 34.9 34.2 33.3 32.3 29 25.8 17.3 13.7 11.2 11.2 12.3 16.2 21.2 24.3 24.5 21.4 18.5 18 23.1 26.9 29.9 33.3 27 13.9 1.7 0.9 -0.1 -2.4 -2.4 -2.4 -2.4 -2.4 -2.4 -2.4 -2.4 -2.4 -2.3 -2.3 -2.4 -2.4 -2.4 -2.4 -2.4 -2.4 -2.4 -2.4 -2.4 -2.4 -2.4 -2.4 -2.4 -2.4 -2.4 -2.4 -2.4 -2.4 -2.4 -2.4 -2.4 -2.4 -2.4 -2.4 -2.4 -2.4 -2.4 -2.4 -2.4 -2.4 -2.4 -2.4 -2.4 -2.4 -2.4 -2.4 -2.4 -2.4 -2.4 -2.4 -2.4 -2.4 -2.4 -2.4 -2.4 -2.4 -2.4 -2.4 -2.4 -2.4 -2.4 -2.4 -2.4 -2.4 -2.4 -2.4 -2.4 -2.4 -2.4 -2.4 -2.4 -2.4 -2.4 -2.4 -2.4 -2.4 -2.4 -2.4 -2.4 -2.4 -2.4 -2.4 -2.4 -2.4 -2.4 -2.4 -2.4 -2.4 -2.4 -2.4 -2.4 -2.4 -2.4 -2.4 -2.4 -2.4 -2.4 -2.4 -2.4 -2.4 -2.4 -2.4 -2.4 -2.4 -2.4 -2.4 -2.4 -2.4 -2.4 -2.4 -2.4 -2.4 -2.4 -2.4 -2.4 -2.4 -2.4 -2.4 -2.4 -2.4 -2.4 -2.4 -2.4
58.5 57.3 54.2 44.9 39.7 38.1 42.8 46.7 47.4 50.4 51.9 51.5 50.1 50.2 51.2 53 54 53.9 53 52.5 51.8 50.5 49.5 48.1 47.8 47.3 46.8 46.3 45.5 45 44.7 44.5 43.9 42 41 42.1 42.4 42.3 41.5 41.2 39.9 38.6 38.2 38 36.4 36.6 35.9 36 36 35.5 34.6 33.8 33 30.6 27 22.3 18.7 15.5 12.3 11.3 12.9 18.1 22.2 21.6 16 14.8 19 23.9 26.3 29.8 25.3 5.9 1 0 -0.8 -2.4 -2.4 -2.4 -2.4 -2.4 -2.4 -2.4 -2.4 -2.4 -2.4 -2.4 -2.4 -2.4 -2.4 -2.4 -2.4 -2.4 -2.4 -2.4 -2.4 -2.4 -2.4 -2.4 -2.4 -2.4 -2.4 -2.4 -2.4 -2.4 -2.4 -2.4 -2.4 -2.4 -2.4 -2.4 -2.4 -2.4 -2.4 -2.4 -2.4 -2.4 -2.4 -2.4 -2.4 -2.4 -2.4 -2.4 -2.4 -2.4 -2.4 -2.4 -2.4 -2.4 -2.4 -2.4 -2.4 -2.4 -2.4 -2.4 -2.4 -2.4 -2.4 -2.4 -2.4 -2.4 -2.4 -2.4 -2.4 -2.4 -2.4 -2.4 -2.4 -2.4 -2.4 -2.4 -2.4 -2.4 -2.4 -2.4 -2.4 -2.4 -2.4 -2.4 -2.4 -2.4 -2.4 -2.4 -2.4 -2.4 -2.4 -2.4 -2.4 -2.4 -2.4 -2.4 -2.4 -2.4 -2.4 -2.4 -2.4 -2.4 -2.4 -2.4 -2.4 -2.4 -2.4 -2.4 -2.4 -2.4 -2.4 -2.4 -2.4 -2.4 -2.4 -2.4 -2.4 -2.4 -2.4 -2.4 -2.4 -2.4 -2.4 -2.4 -2.4 -2.4
59.3 58.4 56.3 46.7 40.8 37.4 36.3 36.2 35.9 38.3 42.1 44.2 45.4 47.3 51 53.2 54 54.2 53.7 53.2 52.5 51.5 50.3 49.1 48.5 48.1 47.6 47.1 46.4 45.9 45.6 45.3 45.1 43.8 43.1 43 43.1 42.9 41.7 40.4 38.5 37 36.1 37.7 37 36.8 36.9 36.8 36.9 36.4 35.5 34.5 33.7 32 29.8 26.6 24.5 21.3 16.7 12.9 10.1 14.4 18.2 17 13.6 12.9 19.4 22.4 23.4 24.1 5.9 1 -0.2 -2.4 -2.4 -2.4 -2.4 -2.4 -2.4 -2.4 -2.4 -2.4 -2.4 -2.4 -2.4 -2.4 -2.4 -2.4 -2.4 -2.4 -2.4 -2.4 -2.4 -2.4 -2.4 -2.4 -2.4 -2.4 -2.4 -2.4 -2.4 -2.4 -2.4 -2.4 -2.4 -2.4 -2.4 -2.4 -2.4 -2.4 -2.4 -2.4 -2.4 -2.4 -2.4 -2.4 -2.4 -2.4 -2.4 -2.4 -2.4 -2.4 -2.4 -2.4 -2.4 -2.4 -2.4 -2.4 -2.4 -2.4 -2.4 -2.4 -2.4 -2.4 -2.4 -2.4 -2.4 -2.4 -2.4 -2.4 -2.4 -2.4 -2.4 -2.4 -2.4 -2.4 -2.4 -2.4 -2.4 -2.4 -2.4 -2.4 -2.4 -2.4 -2.4 -2.4 -2.4 -2.4 -2.4 -2.4 -2.4 -2.4 -2.4 -2.4 -2.4 -2.4 -2.4 -2.4 -2.4 -2.4 -2.4 -2.4 -2.4 -2.4 -2.4 -2.4 -2.4 -2.4 -2.4 -2.4 -2.4 -2.4 -2.4 -2.4 -2.4 -2.4 -2.4 -2.4 -2.4 -2.4 -2.4 -2.4 -2.4 -2.4 -2.4 -2.4 -2.4 -2.4 -2.4 -2.4
60.7 59.7 58.7 52.4 43 39.2 36.8 34.4 33.8 34.3 35.4 38.4 42.5 48.9 52.6 54 54.7 54.8 54.3 53.8 53.2 52.4 51.2 50.1 49.5 48.9 48.4 47.9 47.3 46.8 46.5 46.3 46.1 45.4 44.4 44.2 43.6 43.5 42.3 40.8 38.2 36.9 37.5 37.5 37.8 37.9 37.9 37.8 37.6 37.4 36.4 35.4 34.4 32.6 30.7 29.5 28.1 25.8 21.8 18.2 12.8 9.5 11.6 12.2 10.7 11.1 14.7 11.1 6.3 6.7 2.3 0.4 -1.1 -2.4 -2.4 -2.4 -2.4 -2.4 -2.4 -2.4 -2.4 -2.4 -2.4 -2.4 -2.4 -2.4 -2.4 -2.4 -2.4 -2.4 -2.4 -2.4 -2.4 -2.4 -2.4 -2.4 -2.4 -2.4 -2.4 -2.4 -2.4 -2.4 -2.4 -2.4 -2.4 -2.4 -2.4 -2.4 -2.4 -2.4 -2.4 -2.4 -2.4 -2.4 -2.4 -2.4 -2.4 -2.4 -2.4 -2.4 -2.4 -2.4 -2.4 -2.4 -2.4 -2.4 -2.4 -2.4 -2.4 -2.4 -2.4 -2.4 -2.4 -2.4 -2.4 -2.4 -2.4 -2.4 -2.4 -2.4 -2.4 -2.4 -2.4 -2.4 -2.4 -2.4 -2.4 -2.4 -2.4 -2.4 -2.4 -2.4 -2.4 -2.4 -2.4 -2.4 -2.4 -2.4 -2.4 -2.4 -2.4 -2.4 -2.4 -2.4 -2.4 -2.4 -2.4 -2.4 -2.4 -2.4 -2.4 -2.4 -2.4 -2.4 -2.4 -2.4 -2.4 -2.4 -2.4 -2.4 -2.4 -2.4 -2.4 -2.4 -2.4 -2.4 -2.4 -2.4 -2.4 -2.4 -2.4 -2.4 -2.4 -2.4 -2.4 -2.4 -2.4 -2.4 -2.4 -2.4
62.8 62.2 61.2 58.2 51.1 42.8 39.6 36.8 33.7 32.1 32.8 35.5 44.6 52.3 54.4 55.3 55.6 55.3 54.8 54.4 53.9 53.2 52.1 51.2 50.5 49.9 49.3 48.7 48.2 47.7 47.6 47.4 47.3 46.6 45.7 45.3 44.2 43.9 42.8 42.2 40.8 39.5 38.2 38.3 38.6 38.9 39 38.8 38.5 38.1 37.1 36.1 34.9 33.2 32.3 31 29.8 27.4 24.3 22.5 18.4 11.7 8.3 7.8 6.3 5.6 5.4 3.2 1.7 1.7 1.7 -2.4 -2.4 -2.4 -2.4 -2.4 -2.4 -2.4 -2.4 -2.4 -2.4 -2.4 -2.4 -2.4 -2.4 -2.4 -2.4 -2.4 -2.4 -2.4 -2.4 -2.4 -2.4 -2.4 -2.4 -2.4 -2.4 -2.4 -2.4 -2.4 -2.4 -2.4 -2.4 -2.4 -2.4 -2.4 -2.4 -2.4 -2.4 -2.4 -2.4 -2.4 -2.4 -2.4 -2.4 -2.4 -2.4 -2.4 -2.4 -2.4 -2.4 -2.4 -2.4 -2.4 -2.4 -2.4 -2.4 -2.4 -2.4 -2.4 -2.4 -2.4 -2.4 -2.4 -2.4 -2.4 -2.4 -2.4 -2.4 -2.4 -2.4 -2.4 -2.4 -2.4 -2.4 -2.4 -2.4 -2.4 -2.4 -2.4 -2.4 -2.4 -2.4 -2.4 -2.4 -2.4 -2.4 -2.4 -2.4 -2.4 -2.4 -2.4 -2.4 -2.4 -2.4 -2.4 -2.4 -2.4 -2.4 -2.4 -2.4 -2.4 -2.4 -2.4 -2.4 -2.4 -2.4 -2.4 -2.4 -2.4 -2.4 -2.4 -2.4 -2.4 -2.4 -2.4 -2.4 -2.4 -2.4 -2.4 -2.4 -2.4 -2.4 -2.4 -2.4 -2.4 -2.4 -2.4 -2.4 -2.4
64.7 64.4 63.5 61.2 59.3 59.2 55.6 51.4 42.7 32.6 31.3 34.2 46.7 52.9 55.4 56.3 56.3 55.8 55.3 54.9 54.5 54 53 52.3 51.6 51 50.3 49.7 49 48.8 48.8 48.6 48.5 47.7 47.3 46.9 44.7 43.3 42.7 42 41.2 40 39.3 39.3 39.6 39.8 39.9 39.6 39.3 38.6 37.8 36.8 35.5 34.2 33.5 32.8 31.5 29.2 27.1 25.5 23.9 26.1 25.9 20.6 6.4 4.6 1.7 0.8 0.6 1.7 -2.4 -2.4 -2.4 -2.4 -2.4 -2.4 -2.4 -2.4 -2.4 -2.4 -2.4 -2.4 -2.4 -2.4 -2.4 -2.4 -2.4 -2.4 -2.4 -2.4 -2.4 -2.4 -2.4 -2.4 -2.4 -2.4 -2.4 -2.4 -2.4 -2.4 -2.4 -2.4 -2.4 -2.4 -2.4 -2.4 -2.4 -2.4 -2.4 -2.4 -2.4 -2.4 -2.4 -2.4 -2.4 -2.4 -2.4 -2.4 -2.4 -2.4 -2.4 -2.4 -2.4 -2.4 -2.4 -2.4 -2.4 -2.4 -2.4 -2.4 -2.4 -2.4 -2.4 -2.4 -2.4 -2.4 -2.4 -2.4 -2.4 -2.4 -2.4 -2.4 -2.4 -2.4 -2.4 -2.4 -2.4 -2.4 -2.4 -2.4 -2.4 -2.4 -2.4 -2.4 -2.4 -2.4 -2.4 -2.4 -2.4 -2.4 -2.4 -2.4 -2.4 -2.4 -2.4 -2.4 -2.4 -2.4 -2.4 -2.4 -2.4 -2.4 -2.4 -2.4 -2.4 -2.4 -2.4 -2.4 -2.4 -2.4 -2.4 -2.4 -2.4 -2.4 -2.4 -2.4 -2.4 -2.4 -2.4 -2.4 -2.4 -2.4 -2.4 -2.4 -2.4 -2.4 -2.4 -2.4 -2.4 -2.4
66.7 66.4 65.2 63.7 61.2 59.7 54.3 50 40.5 36.1 31.2 32.2 44 53.1 56.2 56.8 56.6 56.3 55.9 55.5 55.1 54.7 54.1 53.3 52.6 52 51.4 50.5 49.7 49.4 49.5 49.5 49.5 48.8 48.1 47.3 45 43.7 43.2 42.4 41.7 41.1 40.6 40.4 40.6 40.8 40.7 40.3 39.9 39.2 38.5 37.5 36.1 35.4 34.8 34.2 33.2 31.8 30 29.9 28.9 29.3 29.6 19.2 5.1 1.7 1.7 -0.3 -0.9 -2.4 -2.4 -2.4 -2.4 -2.4 -2.4 -2.4 -2.4 -2.4 -2.4 -2.4 -2.4 -2.4 -2.4 -2.4 -2.4 -2.4 -2.4 -2.4 -2.4 -2.4 -2.4 -2.4 -2.4 -2.4 -2.4 -2.4 -2.4 -2.4 -2.4 -2.4 -2.4 -2.4 -2.4 -2.4 -2.4 -2.4 -2.4 -2.4 -2.4 -2.4 -2.4 -2.4 -2.4 -2.4 -2.4 -2.4 -2.4 -2.4 -2.4 -2.4 -2.4 -2.4 -2.4 -2.4 -2.4 -2.4 -2.4 -2.4 -2.4 -2.4 -2.4 -2.4 -2.4 -2.4 -2.4 -2.4 -2.4 -2.4 -2.4 -2.4 -2.4 -2.4 -2.4 -2.4 -2.4 -2.4 -2.4 -2.4 -2.4 -2.4 -2.4 -2.4 -2.4 -2.4 -2.4 -2.4 -2.4 -2.4 -2.4 -2.4 -2.4 -2.4 -2.4 -2.4 -2.4 -2.4 -2.4 -2.4 -2.4 -2.4 -2.4 -2.4 -2.4 -2.4 -2.4 -2.4 -2.4 -2.4 -2.4 -2.4 -2.4 -2.4 -2.4 -2.4 -2.4 -2.4 -2.4 -2.4 -2.4 -2.4 -2.4 -2.4 -2.4 -2.4 -2.4 -2.4 -2.4 -2.4 -2.4 -2.4
68.8 68.5 67.5 65.5 63.5 61 53.6 49.2 40 34.9 30.3 30.8 40.6 52 57 57.4 57 56.6 56.2 55.9 55.6 55.3 54.9 54.3 53.6 52.9 52.1 51.3 50.5 50 50 50 49.9 49.2 48.5 47.8 46.1 44.9 44.1 43.3 42.7 42.3 41.8 41.3 41.6 41.7 41.5 41.1 40.4 39.8 39.1 38.2 37.3 36.6 36 35.5 34.7 33.4 32.7 31.8 30.4 30.4 18.2 6.4 2 -2.4 1.5 -0.9 -2.4 -2.4 -2.4 -2.4 -2.4 -2.4 -2.4 -2.4 -2.4 -2.4 -2.4 -2.4 -2.4 -2.4 -2.4 -2.4 -2.4 -2.4 -2.4 -2.4 -2.4 -2.4 -2.4 -2.4 -2.4 -2.4 -2.4 -2.4 -2.4 -2.4 -2.4 -2.4 -2.4 -2.4 -2.4 -2.4 -2.4 -2.4 -2.4 -2.4 -2.4 -2.4 -2.4 -2.4 -2.4 -2.4 -2.4 -2.4 -2.4 -2.4 -2.4 -2.4 -2.4 -2.4 -2.4 -2.4 -2.4 -2.4 -2.4 -2.4 -2.4 -2.4 -2.4 -2.4 -2.4 -2.4 -2.4 -2.4 -2.4 -2.4 -2.4 -2.4 -2.4 -2.4 -2.4 -2.4 -2.4 -2.4 -2.4 -2.4 -2.4 -2.4 -2.4 -2.4 -2.4 -2.4 -2.4 -2.4 -2.4 -2.4 -2.4 -2.4 -2.4 -2.4 -2.4 -2.4 -2.4 -2.4 -2.4 -2.4 -2.4 -2.4 -2.4 -2.4 -2.4 -2.4 -2.4 -2.4 -2.4 -2.4 -2.4 -2.4 -2.4 -2.4 -2.4 -2.4 -2.4 -2.4 -2.4 -2.4 -2.4 -2.4 -2.4 -2.4 -2.4 -2.4 -2.4 -2.4 -2.4 -2.4 -2.4 -2.4
69.4 69.3 68.2 66.4 64.1 52.2 50.1 41 37.7 32.3 28.7 29.1 40.7 52.2 57.6 58 57.8 57.3 56.8 56.5 56.2 55.9 55.6 54.9 54.6 53.8 53 52.1 51.3 50.7 50.6 50.6 50.4 49.7 49.2 48.6 47.5 46 45.2 44.4 43.8 43.4 43 42.5 42.6 42.7 42.3 41.6 40.9 40.2 39.5 38.9 38.5 37.8 37.3 36.8 36.2 35.4 34.2 32.5 30.9 17.9 5.2 6 4 -2.4 -0.9 5.4 -2.4 6.4 -2.4 -2.4 -2.4 -2.4 -2.4 -2.4 -2.4 -2.4 -2.4 -2.4 -2.4 -2.4 -2.4 -2.4 -2.4 -2.4 -2.4 -2.4 -2.4 -2.4 -2.4 -2.4 -2.4 -2.4 -2.4 -2.4 -2.4 -2.4 -2.4 -2.4 -2.4 -2.4 -2.4 -2.4 -2.4 -2.4 -2.4 -2.4 -2.4 -2.4 -2.4 -2.4 -2.4 -2.4 -2.4 -2.4 -2.4 -2.4 -2.4 -2.4 -2.4 -2.4 -2.4 -2.4 -2.4 -2.4 -2.4 -2.4 -2.4 -2.4 -2.4 -2.4 -2.4 -2.4 -2.4 -2.4 -2.4 -2.4 -2.4 -2.4 -2.4 -2.4 -2.4 -2.4 -2.4 -2.4 -2.4 -2.4 -2.4 -2.4 -2.4 -2.4 -2.4 -2.4 -2.4 -2.4 -2.4 -2.4 -2.4 -2.4 -2.4 -2.4 -2.4 -2.4 -2.4 -2.4 -2.4 -2.4 -2.4 -2.4 -2.4 -2.4 -2.4 -2.4 -2.4 -2.4 -2.4 -2.4 -2.4 -2.4 -2.4 -2.4 -2.4 -2.4 -2.4 -2.4 -2.4 -2.4 -2.4 -2.4 -2.4 -2.4 -2.4 -2.4 -2.4 -2.4 -2.4 -2.4 -2.4 -2.4
69.9 69.2 67.9 67.2 58.8 45.2 41.5 38.4 34.1 29.5 27 29.3 41.5 53.5 58.3 59.5 58.7 58.2 57.7 57.2 56.9 56.6 56.3 55.8 55.4 54.6 53.7 52.9 52.1 51.3 51.3 51.1 50.7 50.2 49.5 49 48.1 47.2 46.4 45.6 45 44.6 44.2 43.5 43.4 43.3 42.6 41.9 41.1 40.5 39.8 39.1 38.7 38.4 38.3 38 36.9 35.4 35.2 32 12.9 5.6 5.3 5.3 5.4 6.3 6.8 6 6.5 6.6 -2.4 -2.4 -2.4 -2.4 -2.4 -2.4 -2.4 -2.4 -2.4 -2.4 -2.4 -2.4 -2.4 -2.4 -2.4 -2.4 -2.4 -2.4 -2.4 -2.4 -2.4 -2.4 -2.4 -2.4 -2.4 -2.4 -2.4 -2.4 -2.4 -2.4 -2.4 -2.4 -2.4 -2.4 -2.4 -2.4 -2.4 -2.4 -2.4 -2.4 -2.4 -2.4 -2.4 -2.4 -2.4 -2.4 -2.4 -2.4 -2.4 -2.4 -2.4 -2.4 -2.4 -2.4 -2.4 -2.4 -2.4 -2.4 -2.4 -2.4 -2.4 -2.4 -2.4 -2.4 -2.4 -2.4 -2.4 -2.4 -2.4 -2.4 -2.4 -2.4 -2.4 -2.4 -2.4 -2.4 -2.4 -2.4 -2.4 -2.4 -2.4 -2.4 -2.4 -2.4 -2.4 -2.4 -2.4 -2.4 -2.4 -2.4 -2.4 -2.4 -2.4 -2.4 -2.4 -2.4 -2.4 -2.4 -2.4 -2.4 -2.4 -2.4 -2.4 -2.4 -2.4 -2.4 -2.4 -2.4 -2.4 -2.4 -2.4 -2.4 -2.4 -2.4 -2.4 -2.4 -2.4 -2.4 -2.4 -2.4 -2.4 -2.4 -2.4 -2.4 -2.4 -2.4 -2.4 -2.4 -2.4 -2.4
69.9 68.7 67.2 64.4 47.1 42.6 39.6 33.4 28.8 25.4 26.6 31.4 44.2 56 59.1 60.2 59.9 59.2 58.6 58.1 57.6 57.2 56.7 56.4 56 55.3 54.5 53.7 52.9 52.1 51.9 51.4 51 50.6 49.9 49.4 49 48.3 47.5 46.7 46.2 45.5 44.9 44.2 43.9 43.5 42.9 42.2 41.4 40.7 40.1 39.4 39.1 39 38.9 37.9 37.2 34.8 21.5 6.4 5.7 5.5 5.7 5.7 6.1 6.1 6.7 7.3 5.9 6.2 -2.4 -2.4 -2.4 -2.4 -2.4 -2.4 -2.4 -2.4 -2.4 -2.4 -2.4 -2.4 -2.4 -2.4 -2.4 -2.4 -2.4 -2.4 -2.4 -2.4 -2.4 -2.4 -2.4 -2.4 -2.4 -2.4 -2.4 -2.4 -2.4 -2.4 -2.4 -2.4 -2.4 -2.4 -2.4 -2.4 -2.4 -2.4 -2.4 -2.4 -2.4 -2.4 -2.4 -2.4 -2.4 -2.4 -2.4 -2.4 -2.4 -2.4 -2.4 -2.4 -2.4 -2.4 -2.4 -2.4 -2.4 -2.4 -2.4 -2.4 -2.4 -2.4 -2.4 -2.4 -2.4 -2.4 -2.4 -2.4 -2.4 -2.4 -2.4 -2.4 -2.4 -2.4 -2.4 -2.4 -2.4 -2.4 -2.4 -2.4 -2.4 -2.4 -2.4 -2.4 -2.4 -2.4 -2.4 -2.4 -2.4 -2.4 -2.4 -2.4 -2.4 -2.4 -2.4 -2.4 -2.4 -2.4 -2.4 -2.4 -2.4 -2.4 -2.4 -2.4 -2.4 -2.4 -2.4 -2.4 -2.4 -2.4 -2.4 -2.4 -2.4 -2.4 -2.4 -2.4 -2.4 -2.4 -2.4 -2.4 -2.4 -2.4 -2.4 -2.4 -2.4 -2.4 -2.4 -2.4 -2.4 -2.4
69.6 68.6 67.5 56 45.9 41.6 36.3 29.7 23.9 22.3 27.4 35.6 49.4 59.1 61.1 61.3 60.8 60.1 59.4 58.9 58.2 56.8 56.7 56.3 56.1 55.5 54.8 54 53.3 52.6 52.2 51.8 51.4 50.9 50.1 49.4 49.3 48.7 48 47.3 46.7 46.1 45.5 44.9 44.3 43.7 43.1 42.4 41.7 41 40.7 40.2 39.8 39.7 38.8 39.2 24.2 8.6 6.8 6 5.7 5 4.5 6 4.4 5.8 6.8 6.8 5.6 -2.4 -2.4 -2.4 -2.4 -2.4 -2.4 -2.4 -2.4 -2.4 -2.4 -2.4 -2.4 -2.4 -2.4 -2.4 -2.4 -2.4 -2.4 -2.4 -2.4 -2.4 -2.4 -2.4 -2.4 -2.4 -2.4 -2.4 -2.4 -2.4 -2.4 -2.4 -2.4 -2.4 -2.4 -2.4 -2.4 -2.4 -2.4 -2.4 -2.4 -2.4 -2.4 -2.4 -2.4 -2.4 -2.4 -2.4 -2.4 -2.4 -2.4 -2.4 -2.4 -2.4 -2.4 -2.4 -2.4 -2.4 -2.4 -2.4 -2.4 -2.4 -2.4 -2.4 -2.4 -2.4 -2.4 -2.4 -2.4 -2.4 -2.4 -2.4 -2.4 -2.4 -2.4 -2.4 -2.4 -2.4 -2.4 -2.4 -2.4 -2.4 -2.4 -2.4 -2.4 -2.4 -2.4 -2.4 -2.4 -2.4 -2.4 -2.4 -2.4 -2.4 -2.4 -2.4 -2.4 -2.4 -2.4 -2.4 -2.4 -2.4 -2.4 -2.4 -2.4 -2.4 -2.4 -2.4 -2.4 -2.4 -2.4 -2.4 -2.4 -2.4 -2.4 -2.4 -2.4 -2.4 -2.4 -2.4 -2.4 -2.4 -2.4 -2.4 -2.4 -2.4 -2.4 -2.4 -2.4 -2.4 -2.4 -2.4
66.6 63.3 63.5 48.7 44.1 40.2 33.2 26.6 22 21.8 28.8 43.5 57.2 60.7 61.2 61.6 60.9 60.2 59.6 58.7 58 55.9 55.8 56.4 56.2 55.7 54.9 54.2 53.6 53 52.5 52.1 51.6 50.8 50.1 49.2 49 48.4 48.1 47.6 46.9 46.3 45.7 45 44.5 43.9 43.3 42.7 42.9 42.2 41.5 41 40.3 39.7 36.4 16.8 8.1 6.6 5.5 5.1 5.5 6 6.1 6.9 6.4 7 5.1 3.1 -2.4 -2.4 -2.4 -2.4 -2.4 -2.4 -2.4 -2.4 -2.4 -2.4 -2.4 -2.4 -2.4 -2.4 -2.4 -2.4 -2.4 -2.4 -2.4 -2.4 -2.4 -2.4 -2.4 -2.4 -2.4 -2.4 -2.4 -2.4 -2.4 -2.4 -2.4 -2.4 -2.4 -2.4 -2.4 -2.4 -2.4 -2.4 -2.4 -2.4 -2.4 -2.4 -2.4 -2.4 -2.4 -2.4 -2.4 -2.4 -2.4 -2.4 -2.4 -2.4 -2.4 -2.4 -2.4 -2.4 -2.4 -2.4 -2.4 -2.4 -2.4 -2.4 -2.4 -2.4 -2.4 -2.4 -2.4 -2.4 -2.4 -2.4 -2.4 -2.4 -2.4 -2.4 -2.4 -2.4 -2.4 -2.4 -2.4 -2.4 -2.4 -2.4 -2.4 -2.4 -2.4 -2.4 -2.4 -2.4 -2.4 -2.4 -2.4 -2.4 -2.4 -2.4 -2.4 -2.4 -2.4 -2.4 -2.4 -2.4 -2.4 -2.4 -2.4 -2.4 -2.4 -2.4 -2.4 -2.4 -2.4 -2.4 -2.4 -2.4 -2.4 -2.4 -2.4 -2.4 -2.4 -2.4 -2.4 -2.4 -2.4 -2.4 -2.4 -2.4 -2.4 -2.4 -2.4 -2.4 -2.4 -2.4 -2.4 -2.4
67.2 61.5 53.5 46.4 41.6 37.1 30.1 25.1 22.3 23.8 29.1 43.8 57.1 60.6 61.1 61 60.8 60.2 59.6 57.8 56.5 53.9 54 54.9 56.2 55.8 55.1 54.5 53.8 53.3 52.9 52.3 51.5 50.7 50.1 49.2 48.9 48.6 47.9 47.5 47 46.4 45.7 45.2 44.7 44.1 43.7 44.4 44.8 43.2 42.1 41.4 35 16.3 9.5 7.8 6.9 6.4 5.9 4.9 7 6.4 7.1 6.8 3.7 -2.4 -2.4 -2.4 -2.4 -2.4 -2.4 -2.4 -2.4 -2.4 -2.4 -2.4 -2.4 -2.4 -2.4 -2.4 -2.4 -2.4 -2.4 -2.4 -2.4 -2.4 -2.4 -2.4 -2.4 -2.4 -2.4 -2.4 -2.4 -2.4 -2.4 -2.4 -2.4 -2.4 -2.4 -2.4 -2.4 -2.4 -2.4 -2.4 -2.4 -2.4 -2.4 -2.4 -2.4 -2.4 -2.4 -2.4 -2.4 -2.4 -2.4 -2.4 -2.4 -2.4 -2.4 -2.4 -2.4 -2.4 -2.4 -2.4 -2.4 -2.4 -2.4 -2.4 -2.4 -2.4 -2.4 -2.4 -2.4 -2.4 -2.4 -2.4 -2.4 -2.4 -2.4 -2.4 -2.4 -2.4 -2.4 -2.4 -2.4 -2.4 -2.4 -2.4 -2.4 -2.4 -2.4 -2.4 -2.4 -2.4 -2.4 -2.4 -2.4 -2.4 -2.4 -2.4 -2.4 -2.4 -2.4 -2.4 -2.4 -2.4 -2.4 -2.4 -2.4 -2.4 -2.4 -2.4 -2.4 -2.4 -2.4 -2.4 -2.4 -2.4 -2.4 -2.4 -2.4 -2.4 -2.4 -2.4 -2.4 -2.4 -2.4 -2.4 -2.4 -2.4 -2.4 -2.4 -2.4 -2.4 -2.4 -2.4 -2.4 -2.4 -2.4 -2.4
56.5 50.5 46.3 41.4 38.8 33.6 29.8 27.3 24 20.4 28.6 34 54 59.2 59.8 60.1 59 59.5 59.3 55.9 53.7 49.9 51.5 53.8 56 55.6 55.5 54.8 54.2 53.3 52.6 51.9 51.2 50.6 49.8 48.8 48.6 48.7 47.5 47.3 47.1 46.4 45.8 45.3 44.9 44.3 44.8 45 44.2 43.3 35.7 21 9.5 6.2 5.4 5.7 4.8 5.6 4.4 3.1 2.8 -2.4 -2.4 -2.4 -2.4 -2.4 -2.4 -2.4 -2.4 -2.4 -2.4 -2.4 -2.4 -2.4 -2.4 -2.4 1.6 -2.4 -2.4 -2.4 -2.4 -2.4 -2.4 -2.4 -2.4 -2.4 -2.4 -2.4 -2.4 -2.4 -2.4 -2.4 -2.4 -2.4 -2.4 -2.4 -2.4 -2.4 -2.4 -2.4 -2.4 -2.4 -2.4 -2.4 -2.4 -2.4 -2.4 -2.4 -2.4 -2.4 -2.4 -2.4 -2.4 -2.4 -2.4 -2.4 -2.4 -2.4 -2.4 -2.4 -2.4 -2.4 -2.4 -2.4 -2.4 -2.4 -2.4 -2.4 -2.4 -2.4 -2.4 -2.4 -2.4 -2.4 -2.4 -2.4 -2.4 -2.4 -2.4 -2.4 -2.4 -2.4 -2.4 -2.4 -2.4 -2.4 -2.4 -2.4 -2.4 -2.4 -2.4 -2.4 -2.4 -2.4 -2.4 -2.4 -2.4 -2.4 -2.4 -2.4 -2.4 -2.4 -2.4 -2.4 -2.4 -2.4 -2.4 -2.4 -2.4 -2.4 -2.4 -2.4 -2.4 -2.4 -2.4 -2.4 -2.4 -2.4 -2.4 -2.4 -2.4 -2.4 -2.4 -2.4 -2.4 -2.4 -2.4 -2.4 -2.4 -2.4 -2.4 -2.4 -2.4 -2.4 -2.4 -2.4 -2.4 -2.4 -2.4 -2.4
63.3 55.3 46 41.4 39.6 38.2 35 30.1 25.3 21.3 24.9 29.1 42.8 55.4 55.9 60.8 52.2 50.2 51.2 52.8 49.1 42.8 48.3 50.3 54 57.1 56.4 54.2 53.4 52.9 52.1 51.2 50.6 50 49.6 48.9 48.3 47.6 47.2 47.1 47 46.5 46 45.5 45.1 45.1 45.1 44.2 33.7 16.9 10 8.4 3.6 0.4 -2.4 -2.4 -2.4 -2.4 -2.4 -2.4 -2.4 -2.4 -2.4 -2.4 -2.4 -2.4 -2.4 -2.4 -2.4 -2.4 -2.4 -2.4 -2.4 -2.4 -2.4 -2.4 -2.4 -2.4 -2.4 -2.4 -2.4 -2.4 -2.4 -2.4 -2.4 -2.4 -2.4 -2.4 -2.4 -2.4 -2.4 -2.4 -2.4 -2.4 -2.4 -2.4 -2.4 -2.4 -2.4 -2.4 -2.4 -2.4 -2.4 -2.4 -2.4 -2.4 -2.4 -2.4 -2.4 -2.4 -2.4 -2.4 -2.4 -2.4 -2.4 -2.4 -2.4 -2.4 -2.4 -2.4 -2.4 -2.4 -2.4 -2.4 -2.4 -2.4 -2.4 -2.4 -2.4 -2.4 -2.4 -2.4 -2.4 -2.4 -2.4 -2.4 -2.4 -2.4 -2.4 -2.4 -2.4 -2.4 -2.4 -2.4 -2.4 -2.4 -2.4 -2.4 -2.4 -2.4 -2.4 -2.4 -2.4 -2.4 -2.4 -2.4 -2.4 -2.4 -2.4 -2.4 -2.4 -2.4 -2.4 -2.4 -2.4 -2.4 -2.4 -2.4 -2.4 -2.4 -2.4 -2.4 -2.4 -2.4 -2.4 -2.4 -2.4 -2.4 -2.4 -2.4 -2.4 -2.4 -2.4 -2.4 -2.4 -2.4 -2.4 -2.4 -2.4 -2.4 -2.4 -2.4 -2.4 -2.4 -2.4 -2.4 -2.4 -2.4 -2.4 -2.4
71.1 67.7 60.3 55.9 50.1 43.6 35.6 30.9 25.3 21.5 21.5 29.1 34.1 45.6 44.8 43.4 41.3 39.9 39.2 38.3 36.3 39.3 52.2 58.3 58.9 58.1 57.4 55.4 54.5 53.5 52.5 51.3 49.9 49.8 49.1 48.2 47.4 46.7 46.4 46.6 46.6 46.6 46.2 45.7 45.3 45.3 45.3 25.6 14.3 8.3 1.9 0.7 -2.4 -2.4 -2.4 -2.4 -2.4 -2.4 -2.4 -2.4 -2.4 -2.4 -2.4 -2.4 -2.4 -2.4 -2.4 -2.4 -2.4 -2.4 -2.4 -2.4 -2.4 -2.4 -2.4 -2.4 -2.4 -2.4 -2.4 -2.4 -2.4 -2.4 -2.4 -2.4 -2.4 -2.4 -2.4 -2.4 -2.4 -2.4 -2.4 -2.4 -2.4 -2.4 -2.4 -2.4 -2.4 -2.4 -2.4 -2.4 -2.4 -2.4 -2.4 -2.4 -2.4 -2.4 -2.4 -2.4 -2.4 -2.4 -2.4 -2.4 -2.4 -2.4 -2.4 -2.4 -2.4 -2.4 -2.4 -2.4 -2.4 -2.4 -2.4 -2.4 -2.4 -2.4 -2.4 -2.4 -2.4 -2.4 -2.4 -2.4 -2.4 -2.4 -2.4 -2.4 -2.4 -2.4 -2.4 -2.4 -2.4 -2.4 -2.4 -2.4 -2.4 -2.4 -2.4 -2.4 -2.4 -2.4 -2.4 -2.4 -2.4 -2.4 -2.4 -2.4 -2.4 -2.4 -2.4 -2.4 -2.4 -2.4 -2.4 -2.4 -2.4 -2.4 -2.4 -2.4 -2.4 -2.4 -2.4 -2.4 -2.4 -2.4 -2.4 -2.4 -2.4 -2.4 -2.4 -2.4 -2.4 -2.4 -2.4 -2.4 -2.4 -2.4 -2.4 -2.4 -2.4 -2.4 -2.4 -2.4 -2.4 -2.4 -2.4 -2.4 -2.4 -2.4 -2.4 -2.4
