ncols 200
nrows 97
xllcorner 340000
yllcorner 330500
cellsize 50
92.8 91.9 93.4 95.2 97.5 98.2 98.9 96.6 88.1 87 87 87 87 87 87 87 90.9 95.7 98.7 99.9 101 101.2 102.4 104.5 104.5 103.2 103.8 101.7 102.8 103.7 104.9 104.5 108.2 113.5 120.3 123.9 118.8 114.6 117.6 119.2 119.6 118.5 118.8 116.1 116.8 115.4 114.1 113.6 112.4 111.6 107.7 107.5 103.5 97.6 95.5 88.7 85.3 85.5 89.1 88.2 88.6 89 89 89.7 91.4 90.5 90.9 89.6 89 86.7 87.5 87.6 89.2 91.2 93.3 93.5 96 100.9 101.2 99.9 102.1 102 100.6 100.2 100.5 100.7 96.1 97.6 100 100.1 96.2 99.3 98.7 99.1 99.6 96.2 93 89.4 86.9 87.4 87 86.6 84.7 85.1 84.8 84.6 84.4 84.4 85 87.8 91.8 90.9 93.6 93.8 91.9 92.5 91.4 90 88.6 87.9 86.6 87.2 86.8 87.3 88.6 89.6 91.7 93 93.1 92.1 91.1 89.6 88.3 87.4 87.1 86.6 84.9 85.3 86.4 88.1 87.9 87.1 86 86.1 87.3 87.4 87.6 87.8 88.5 88.8 88.9 89 89.2 89.7 89.8 89.8 89.6 89.6 89.5 89.6 89.4 89.1 88.6 88.5 88.4 88.7 88.3 88.7 89.1 89.8 89.8 89.3 88.3 88.4 87.6 87.5 86.9 87.3 87.3 87.1 87.5 87.4 87.6 90.3 87.2 86.7 86.7 86.7 86.4 86.5 86.5 86.9 87 87.7 89 89 89.8 90.5 91.4 91.8
92.2 94 94.4 95 97.3 98.7 99.4 95.1 87 87 87 87 87 87 87 87 88.5 94.5 97.5 99 101.5 100.3 102.2 104.3 104.3 102.5 100.5 103.2 109.6 107.8 107.7 108.8 110.1 114.3 117.5 124.6 120.1 116.9 120.3 122.1 118.7 115.5 116.7 115.1 115.4 117.9 120 115.5 113.4 113 110.3 108.8 105.6 102.2 97.9 92.3 86.7 86.2 85.5 87.2 88.9 89.3 89.2 88.5 89 89.7 89 88.6 88 88.1 87.9 87.3 90 95 97.6 98.5 100.3 100.9 100.9 98.9 100.1 99.9 100.3 100.6 101.1 100.9 100 100.3 99.9 100.7 99.1 99.8 98.4 99.7 98.6 96.9 92.5 91.1 88.8 87.4 86.5 85.3 84.3 85 84.9 84.7 84.4 84.8 85.1 87.7 92.4 93.5 95.3 94.4 93.2 93.1 91 89 88.6 88 88.7 88.2 87.8 87 87.7 89.4 90.3 91.2 92.2 92.1 91.4 89.5 88.7 87.2 87.4 86.5 85.3 84.9 86.1 87.9 88.1 87.2 85.6 86.8 87.8 88.8 88.6 88.2 88.2 88.5 88.7 88.9 89.4 89.8 89.8 89.9 89.7 89.7 89.7 88.9 89.5 89 88.7 88.6 88.5 88.6 88.1 88 88.1 88.7 89.1 89.6 89.9 89.4 87.9 87.8 87 86.2 86.8 88.8 89.4 89.3 87.4 86.5 86.1 86.2 86.5 86.7 86.8 87.1 86.8 86.7 87 87.9 89 89.9 90.3 91 91.8 91.3
91.7 94.9 94.4 93.1 95.3 98 97.1 90.8 87 87 87 87 87 87 87 87 87 90.7 94.6 98.2 101.1 102 103 104.9 104.1 101.7 101.2 101 105.4 109 109.9 113.8 114.4 116.6 117.1 119.7 121.7 118.9 123.1 122 118.5 115 117.8 119.2 118 118.6 118.9 115.8 113.6 114.1 112.2 109.9 107.1 103.8 99.8 97.1 90.9 87.5 85.4 85.1 87.7 89.4 89.1 88.3 88.7 89.2 88.5 87.9 87.7 88.1 88.1 88.6 92.6 97.8 100.9 101.5 101 100.7 100.3 98.9 97.1 94.6 98.9 99.9 99.7 99.7 100.2 100.4 99.9 100.5 101.1 99.5 99 98 98.9 97 92.9 91.9 89.7 87.8 86.7 85.4 84.6 84.8 84.8 84.7 84.7 85.2 85.6 90 95.9 96.5 96 94.3 93.3 93.7 90.9 88.2 87.9 88.8 89.3 88.8 88.4 87.5 87 88.3 89 89.8 90.7 92.3 91.1 89.2 87.7 87.1 86.1 85.6 85.2 84.9 85.5 86.6 87.4 86.5 86.1 86.9 87.9 88.4 88.8 88.3 87.8 88.2 88.5 89 89.5 89.8 89.8 89.9 89.9 89.6 89 88.9 88.8 88.9 88.8 88.8 88.7 88.4 88.2 88 88.5 88.2 88.1 88.2 87.4 87.4 88 90.3 89 88.5 90.1 87.4 87.1 86.2 86 86 86 86.2 86.4 86.7 87 86.7 87.1 86.8 87.9 88.2 89.1 90.6 91.3 92.1 92.1 92.4
92.4 93.3 92.3 91.2 93.2 95.5 93.6 90.3 87 87 87 87 87 87 87 87 87 87 92.2 98.2 100.1 99.9 102.6 102.6 102.6 102.3 101 101.8 104.7 106.9 109.5 115.3 118 118.4 116.3 115.6 115.8 118.6 117.5 118.7 114.6 120.5 118.7 117.8 119.1 116.9 116 114.9 115.1 114.3 112.2 109.5 106.8 104.3 102.8 102.4 94.6 88.9 87.9 85.7 87.5 91.4 90.4 88.6 89 89 88.7 87.2 87.8 89.2 91.4 95.8 98.1 97.9 99.3 100.4 100.4 99.8 99.3 98.5 98 97.8 96.8 99.1 99.5 98.6 98.6 98.9 99 99.7 100.1 98.5 99.1 99.1 98.7 99 97.2 93.2 89.7 88 87.7 86.5 84.8 84.8 84.5 84.9 84.8 85.4 86.5 91.3 96.7 96.8 96.6 94.3 93.5 93.7 90.5 87.3 88.2 89.2 89.5 89.1 88.7 88.3 87.6 87.3 88.3 88.5 89.3 89.8 90.7 89 88.3 87.7 85.4 85.2 85.2 85.3 86.2 86 86.9 86.8 86.4 86.7 87.4 87.9 88.4 88.4 87.7 88.6 88.9 89.3 89.7 89.7 89.7 89.7 89.3 88.8 88.9 89.1 88.8 88.6 88.4 88.6 88.6 88.2 88.2 88.3 88.2 88 87.7 86.5 86.6 86.7 86.7 87 86.4 87.7 89.6 87.4 86.9 86.5 86 86 86.3 86.5 86.6 86.7 86.5 86.7 87.1 87.5 88.1 88.4 89.6 91.1 92.4 92.2 92.3 92.9
94.2 94 91.8 90.8 91.3 91.8 90.7 87 87 87 87 87 87 87 87 87 87 87 90.1 96.2 98.6 99.1 102.1 103.4 104.9 104.7 103.6 104.6 105.8 106.2 108.4 112.7 116.6 119.6 116.2 115.3 115.4 116.6 115.6 116.6 117.9 119.4 117.7 115.5 116.1 114.7 113.9 115.5 115.9 108.5 103.2 104.9 106.8 105.7 103.7 99.4 94 90.7 92.6 89.5 89 92.1 92.3 89.6 88.6 89.5 88.9 88.8 90.6 92.4 96 99.3 99.1 98.4 99.1 98.3 98.6 98 97.9 97.3 95.9 94.6 93.4 97.9 100.1 99.7 98.5 98.8 97.8 98.8 99.8 98.4 97.9 97.6 96.9 97.7 96.9 91.7 88.2 88.8 87.8 85.7 85 84.4 85.8 85.6 85.3 85.1 87.3 92.8 94.3 97.3 96.9 95.6 94.2 93.7 92.6 89.8 89.6 89.1 89.5 89.3 88.9 88.4 87.1 87 87.8 88.3 88 87.9 88.2 88.7 88.5 87.9 85.4 85 85.1 85.3 85.4 85.2 86.3 86.3 86.6 86.8 87.9 87.9 88.2 88.1 87.3 88.5 88.9 89.1 89.1 89 88.9 89.2 89 88.4 88.7 88.9 88.6 88.6 88.6 88.6 88.3 87.9 87.9 88 87.9 87.7 86.9 86.4 86.5 86.5 86.4 86.5 86 85.7 87.7 87.3 86.9 86.5 87 86.4 87 86.9 87.2 86.8 86.6 86.9 87.3 88.2 89.8 89.5 90.8 91.4 92.1 92.4 92.8 93.3
94.6 93.2 91.6 91.4 90.7 88.9 87 87 87 87 87 87 87 87 87 87 87 87 88.8 93.5 96.7 100.4 103 103.6 104.9 105.4 105.2 104.7 106 106.1 106.9 109.2 112.4 115 116 116.4 116.2 115 116.7 117.3 116.3 116.7 114.3 113.7 115 115.8 116.5 116.2 109.5 101.3 96.2 98.3 102.8 103.3 98.8 93.1 89.6 89.6 95.1 93.3 89.1 87.9 89 88.6 88.2 89.9 91.1 90.9 92.7 96.3 98.6 99.2 99 99.3 99.2 98.3 98.2 97 94.9 96.2 96.4 93.8 92.8 98.8 100.4 99.3 98.7 99.5 98.2 98.5 99.4 99.4 97.7 96.4 96.6 94.9 93.3 91 87.8 87.9 86.5 85.5 85.5 85 86.5 86.2 85.8 85.3 88.2 95.2 95.6 95.4 96.4 95.6 95.1 94.2 94.2 92.4 90.6 89.8 89.2 89.1 88.7 88.1 88.2 87.6 87.3 87.4 87.3 86.8 87 86.4 87.1 86.3 85.6 85 84.7 84.8 85 85.1 85.4 85.8 86.5 86.9 87.8 87.9 87.7 87.1 87.1 87.7 88.6 88.6 88.5 88.4 88.6 88.7 88.6 88.4 88.3 88.6 88.4 88.4 88.4 87.8 87.4 87.5 87.6 87.7 87.6 87.3 86.8 86.3 86.3 86.3 86.1 85.9 85.8 85.8 86.3 88.7 86.3 87 87.5 87.6 88 87.7 87.1 86.9 87 87.2 87.7 89.1 89.3 90.5 91.4 92.7 93.6 93.8 93.9 94.4
90.8 90.1 92.4 92.1 90 89.1 87 87 87 87 87 87 87 87 87 87 87 87 89.5 93.4 97.2 100.4 103.8 104.2 104.3 104.3 104.5 104.8 105 104.4 105.7 110.7 113.4 111.7 113.4 113.1 114.3 115.5 115.1 116.2 114 115.4 112.8 112.4 113.5 115.2 117.1 111.2 101.3 93.8 95.7 97.2 97.8 98.9 94.3 90 89.5 91.3 93.5 95.7 92 89.4 89.3 90.3 89.9 90.5 91.7 93.1 95 98.1 98.5 99.8 99.4 100 100.6 98.2 94.4 93.4 94 94.7 93.9 93.3 90.5 92.7 94.1 98.4 99.2 99.4 99.1 98.4 98.6 99.1 98.7 96.9 95.6 94.1 92.9 90.8 87.9 85.5 85.3 85.8 85.3 85.3 86.4 86.1 85.7 85.2 88.1 92.8 95.1 95.2 94.8 95.4 95.4 93.8 93.3 94.6 92.8 91 89.6 89.1 88.9 88.9 88.5 88 87.8 88.1 87.1 87 86.3 85.1 85 85.8 85.6 85 84.4 84.5 84.6 84.7 84.9 85.5 85.4 86.5 87.5 87.7 87.2 86.3 86.7 87.2 87.7 88 88.6 89.6 89.1 88.6 88.5 88.5 88.3 88.2 88.2 88.2 88.3 87.9 87.6 87.2 87 87.3 87.2 87 86.7 86.2 86.8 86.6 86.4 85.8 85.7 85.6 85.6 86.9 90.2 87.2 88.3 87.5 87.7 88 87.3 87.8 88.3 88.1 88.1 88.8 91 91.3 91.8 93.3 94.9 95.6 95.8 96.9
90.9 91.7 92.9 93.5 91.3 90.4 88.1 87 87 87 87 87 87 87 87 87 87 87 87 92.9 96.3 98.4 101.9 103.7 104.3 103.2 103.4 103.3 103.6 104.5 107.1 114.4 117 113.9 112 109.6 112.6 114.9 114.4 115.7 118.4 116.8 113.2 111.4 112.4 112 111.7 105.6 99.3 95.3 93.8 94.3 95.1 98.8 95.7 92 91 90.9 92.3 94.2 96.4 92.5 91.6 91.3 90.6 91.2 93.4 95.2 96.6 98.2 97.9 99.3 98.8 98.8 97.1 97.6 95.1 94.1 94.2 94.7 94.6 94.5 93.6 91.8 91.8 94.1 99.3 100.1 99.5 98.9 98.3 99.5 98 96.4 94.4 93.6 93.1 90.8 87.8 85.8 85.7 86 85.3 85.6 85.7 85.8 85.4 85.4 86.4 90.3 92 93.3 95.3 96 95.7 93.9 92.4 94.1 95 94.2 91 90.3 90.1 89.9 89 89.3 88.5 88.4 88.2 86.8 85.7 86.2 85.9 86.9 86.8 85.1 84.6 84.5 84.6 84.7 84.7 84.6 84.6 85.8 87.1 87.2 86.4 86.7 86.9 86.6 86.8 87 89 90.7 89.8 88.3 88.2 88.1 88.1 88.1 88 87.8 87.9 87.6 87.2 86.8 87.1 87.1 86.7 86.5 86.2 86.4 86 86.1 85.8 85.9 86 85.8 85.8 86 86.9 89.4 88 87.3 88.2 88.8 88.7 88 87.8 88.1 89 90.3 91.6 92.2 93.2 94.5 96.1 95.8 97.9 99.9
91.5 91 91.8 92.6 93.4 93.4 90.3 87 87 87 87 87 87 87 87 87 87 87 87 89.6 95.2 98 100.1 102.9 103.3 102.7 102.6 102.6 104.5 106.8 112.5 114.5 116.9 115.7 109.2 111.3 113.2 116.8 116.3 115.9 118.8 116.3 112.8 111.8 109.3 107.8 107.4 97.9 96.5 96.4 95.1 93.7 94.7 98.4 96.2 96.2 92.9 91.2 91.3 93.5 94.5 94.7 93.1 92.6 92.5 92.6 93 96 96.9 96.5 95.5 97.3 95.4 96.8 95 96 95.4 94.1 92.1 93.1 95.6 95.6 95.2 93.3 92.2 91.5 95.3 99.2 99.5 100.1 99.3 99.4 97.4 96.9 95.5 95.6 93.9 91.5 89.3 87.6 86.1 85.6 85.6 85.8 85.9 85.2 85.1 87.4 89.1 89.4 89.4 91.1 94.6 96 96 94.4 93.7 93.9 93.7 94.4 92.5 93.5 92.7 90.9 89.6 89.3 89.5 89.3 88.8 87.8 85.8 86.8 86.5 87.1 87.9 86.8 84.7 84.4 84.7 84.7 84.6 84.5 84.6 85.5 86.3 86.9 86.3 86.9 86.6 86.2 86.2 85.9 90.2 91.5 90.4 88.8 88.1 88.2 88.1 88.1 87.3 87.3 87.5 87.3 86.9 86.5 87 87 86.6 86.2 86.2 86 85.8 85.7 85.9 86.2 86.2 86 86 86.2 86.7 89.6 88.6 88.5 88.8 88.4 89 88.1 88.3 88.6 89.2 90.1 92.2 93.2 94.1 94.3 97.4 98.9 101.1 101.4
91 91.2 91.3 92.2 93.6 94.7 92.2 87 87 87 87 87 87 87 87 87 87 87 87 87 92.5 97.5 99.5 101.9 103.3 103.1 102.9 102.8 102.4 104.7 109 111.9 112.5 111.1 111.3 114.1 117 116.8 113.4 117 116.9 112.1 111 109.8 109.2 109 108.3 101 93.9 93.5 94.6 92.9 92.7 95.7 95.8 98.3 97.3 92.7 92.3 92.9 93.9 92.6 90 90.5 92.3 92.8 93.7 94.5 95.4 94.8 94.8 95.2 95.7 97 95 95.8 95.7 94.6 91.2 91.1 91.7 94.6 95.1 94.3 93.3 93.1 90.6 94.9 99.1 99.4 100.2 99.7 98.4 97.1 96.8 97.5 96.5 93 90.1 90.3 88.1 86.5 84.6 85.5 86.3 87.9 85.3 90.4 90 87.4 86.6 89.1 91.7 95.2 95.5 95.7 94.5 93 93.5 92.9 91.8 94.9 94 91.7 90.5 89.1 89 89.2 88.8 87.8 86.1 86.9 88.4 89.8 90.2 88.3 85.4 84.4 84.2 84.6 84.5 84.5 84.6 84.7 85.6 86.4 86.2 85.7 86.7 85.9 85.3 86.1 89.9 91.1 91.4 89.8 88.3 88.4 88.3 88.1 87.6 87 86.6 86.4 86.5 86.4 86.8 86.8 86.5 86.5 86.1 85.9 86 85.9 85.7 85.9 86.2 86.2 86.2 86.9 87.6 88.3 88.9 89 88.5 88.9 89.2 89.4 89.1 89 90.4 91.3 92.4 93.2 93.4 95.2 99.6 100.5 101.3 101.6
91 92.6 93.6 100.1 99.5 100.4 95.4 90.4 87 87 87 87 87 87 87 87 87 87 87 87 87 94.6 99.6 104.4 104.2 102.3 102 102.3 102 104 108.6 109 108 109.8 112.8 116.5 118 117.1 110.2 112.4 114.2 111.5 110.8 107.5 107.6 110.3 107.1 103.5 97 94.3 93.6 93.9 93.2 93.7 94.5 95.7 94.9 94.4 93.7 96.3 95.7 93.8 89.8 89.9 90 91.9 94.1 93.9 94.8 94.8 95.1 97 101.9 101 98 95.9 95 94.5 93.2 93.5 91.7 89.7 91.2 92.6 93.1 95.2 94 92.5 98.6 98.8 100 99.2 98.2 97.7 96.7 96.5 96.9 96.6 94.1 92.7 89.5 87.1 85.5 87 88.5 90.1 89 84.3 87.2 87.1 85.4 86.7 89.4 91.8 94.9 95.8 95.4 93.9 92.5 92.6 91.3 92.6 93.1 92.7 91.8 89.5 89 88.9 88.8 86.7 85.7 86.1 88.1 89.3 88.4 87.4 84.8 84.5 84.2 84.6 84.5 84.6 84.7 84.8 85.9 85.6 85.1 85.8 85.5 85.1 85.3 86.9 90.4 90.6 90.8 90.8 89.3 88.5 88.3 88.3 87.8 86.8 86.6 86.4 86.2 85.8 86.4 86.6 86.5 86.1 85.8 85.7 86.1 86 85.6 85.7 85.8 86.5 86.6 87.5 88.4 88.8 88.4 90 88.8 89.3 89.5 89.5 89.4 89.7 90.3 90.8 91.5 92.8 94.2 96.1 98.7 100.2 101 101.9
90.1 92 97.4 103 104.3 103.4 99.2 93.8 90.4 87 87 87 87 87 87 87 87 87 87 87 87 87 98.6 105.3 105.5 103 101.3 101.7 102.1 105.1 110.4 110.9 108.3 109.4 114 115 113.2 112.1 109.9 109.6 110.5 114.3 111.3 108.6 110.2 111.5 107.3 105.4 103 96.6 93.6 92.7 92.7 94.7 92.6 92.1 92.2 92.2 92.2 92.2 93.7 97.9 93.8 90 90.6 89.9 92.6 93.7 94 93.7 93.3 97.7 102.8 102.9 101 95.7 95.3 95.6 93.9 93.2 92.9 89.4 88.4 89.6 89.9 91.2 91.6 91.6 98.2 99 97.5 99.1 97.1 97.6 97 96.3 95.9 96.4 96.7 94.4 91.4 87.7 85.6 89.7 90.6 88.4 85 84.8 84.8 85.6 86.1 86.5 87 88.8 91.2 94.5 95 94.1 92.9 91 90.7 91.8 92 92.7 91.4 90.5 89.9 89.4 88 86.6 86.6 85.4 86.3 87.3 86.6 86.1 84.8 84.6 84.3 84.5 84.5 84.6 84.8 84.9 85.2 85.1 85.7 85.6 85 84.8 85 88.2 91 90.8 91 91 89.7 88.9 88.5 88.4 87.9 87.3 86.7 86.4 86.1 85.8 86.3 86.4 86.3 86 85.8 86.1 86 86.5 86.5 86.3 86.4 86.7 87.8 88.3 88.5 88.5 88.8 90.2 89.1 88.9 89.2 89.4 89.6 90.1 91.1 91.3 91.1 92.2 93.9 95.5 97.4 98.7 100 99.9
88.4 90.5 97.5 104.1 107 107.9 106.3 102 97.1 91.8 87.8 87 87 87 87 87 87 87 87 87 87 87 93.1 104.2 105.9 103 100 101.6 101.5 104 108.7 111.4 110.7 111.9 112.7 112.3 110.5 109.7 110.4 110.6 110.8 114.1 112.6 110.7 112.3 111.8 109 107.1 107.9 106 104.3 101.2 101.5 101.3 96.7 94.4 93 94.2 93.4 94.3 94 98.9 96.7 92.8 93.4 90.3 90 93.6 94 92.3 91.1 95.9 102.2 103.3 102.1 98 97.8 98 94.9 93.7 94.3 91.2 93.4 94 88.5 87.8 88.2 88.8 93.4 96.9 94.2 98 93.3 94.2 94.7 95.3 95 96.1 97.1 96.3 93.1 88.6 90.5 87.3 85.3 86.8 85.6 84.9 84.6 85.4 85.8 86.1 86.3 86.9 87.8 89.8 92.7 93.2 90.7 89.6 90.3 91.1 91.3 89.5 90.3 90.6 91.5 91.3 88.4 87.1 87.3 87 85.2 84.9 85.3 85.2 84.5 84.6 84.5 84.5 84.6 84.7 84.8 85 84.8 85.7 85.7 84.9 84.7 84.7 85 88.7 90.7 90.9 91.1 91.3 90.2 89.4 88.4 88.2 87.7 87.5 86.9 86.6 86.4 86.4 86.3 86.2 86.1 85.8 85.9 86.2 85.3 86.6 87 86.7 87.8 88.3 87.4 89.2 88.8 89.2 88.7 90.5 89.9 89.2 89.4 89.7 89.9 90.2 90.5 90.9 91.6 92.9 94 95.5 97.5 99 98.9 98.1
87.7 90.7 97.9 104.8 106.9 109.3 111 110.2 106.7 101.1 92.5 89 87 87 87 87 87 87 87 87 87 87 93 99.2 100.6 102.1 100.3 100.2 101.9 103.5 105.2 106.8 107.7 111.6 111.6 116.4 112.4 109.7 111.1 112.2 111.7 116.1 113.1 109.5 108.7 109.7 109.1 108.2 107.4 108.1 108.5 107.7 106 104.3 99.4 99.4 97.8 95.7 93 95.3 95.3 100 97.6 94 91.9 95.5 92.7 91.7 93.1 91.4 91.5 94.1 101.7 102.8 100 98.2 97 98 95.1 94.4 94.6 93.6 92.8 94.9 95 91.4 88.1 87.9 88 89.3 91.5 96.6 94 94.5 94.4 93.7 93.6 97 97.3 97 88.2 90.5 86.6 85.7 85.5 85.7 85.2 83.9 84.9 85.1 85.6 85.8 85.8 86.1 86.3 88 89.3 89.2 90.3 91.7 92.4 91 89.6 86.3 90.5 91.3 92.1 91.7 90.7 89.6 88 87.4 86.5 85.1 85.5 85.6 84.3 84.3 84.4 84.6 84.9 85.2 85.4 85.6 85.3 84.9 84.6 84.7 84.6 84.7 85.4 89.4 90.9 91.1 91.4 91 90 89.2 88.5 88.1 87.6 87.4 87 86.8 86.5 86.5 86.3 86.1 85.8 85.7 86 86.3 86.3 86.9 87.1 87.1 87.9 88.2 88.4 88.9 91.4 90 89.8 90.4 89.8 89.7 89.8 90 90 90.3 90.6 90.9 92.7 94.3 95.9 96.8 98.5 99.6 98.3 95.6
86.5 89 95.9 101 103.8 108.3 113 111.4 106.3 103.7 96.2 90.3 87 87 87 87 87 87 87 87 87 87 93.8 97 95.9 99.9 100.9 98.6 100.8 102.8 101.7 106.2 113.7 112.3 110.9 115.9 111.6 111.5 112.1 112.5 115 119.9 115 108 107 107.5 106.9 106.9 107.2 108.5 109.3 108.2 108.4 105.7 103.7 103.2 101.2 99.6 94.3 93.9 93.3 100.6 98.8 97.9 97.8 101.6 96.5 92 91.4 92.6 91.4 92.1 99.6 101.6 97 95.1 97.4 95.7 94.9 94.5 95.6 94.8 96.6 100.4 99.8 95.1 91.3 90.2 88.6 87.7 88.2 92 95.4 93.5 93.2 93.9 96.5 97 96.9 89.3 88.9 90.9 88.4 86.8 85.6 85.6 85.5 85.5 85.2 85 85.4 85.9 85.5 85.1 85.4 86.5 87.8 87.8 91.1 94 93.8 92.6 89.7 91.3 92.3 92.3 92.1 92.1 91.5 90.4 89.2 88 87.3 85.4 85.1 84.8 84.5 84.6 84.6 84.5 84.8 85.1 85.4 85.6 84.8 84.7 84.8 85.2 85.3 84.9 86.2 89.4 90.7 91.5 91.5 90.6 89.9 89.4 89 88.6 88.4 88.3 87.7 86.9 86.6 86.3 86.2 86.2 86.7 86 86.6 87.1 86.6 86.9 87 88 88.5 87.7 89.1 88.7 89.9 89.8 90.6 90.6 90.1 89.6 89.8 88.9 88.7 89.3 89.8 90.7 93.9 96.2 96.8 97.8 98.1 97.1 95.1 93
86 89.2 92.6 94.3 101.3 108.6 108.2 107.3 102.5 98.4 95.8 91.5 88.6 87.5 87 87 87 87 87 87 87 91.3 94.5 97.3 94.9 97.5 98.1 98.4 101.6 102.8 102.7 108.7 112.5 112.8 114.2 113.8 112.1 112.3 111 115.1 119.7 118.5 114.4 109.6 108.7 108.1 102.6 102.8 104.3 106.7 108.3 109.2 108.3 105.9 104.8 105.7 103.3 99.3 96.9 94.4 93.3 95.8 100 100.4 101.1 100.6 99.3 102.4 99.4 98.7 94.5 94.3 94.4 95.7 94.5 94.4 96 97.7 96.3 95.8 96.4 95.8 98.8 100.8 101 97 91 89.2 88.1 87.4 87.7 87.9 93.5 93 93.6 93.6 96.1 97.7 96.5 95.4 90.3 89.5 88.9 87.6 86.4 86.2 86 85.7 85 85.2 86.1 86 85.7 85.7 85.2 85.2 85.9 87.8 91.4 92.6 94.1 92.4 91.4 91.8 92.3 92.9 90.3 89.6 89.2 89.7 89.4 88.6 87.7 86.3 84.5 84.5 84.7 84.8 84.7 84.6 84.6 85 85.1 85.3 85.1 84.9 85.3 85.7 85.3 84.7 85.2 88.6 90.3 91.6 92.2 91.2 90.5 90 89.5 89.1 89.1 88.9 88.5 87.6 86.7 86.5 86.4 86.9 86.4 86.8 86.8 86.8 87 86.7 88 88.2 88.9 88.9 88.5 89.6 89.2 89.5 89.3 89.8 88.7 89.1 89.9 89.9 90.1 90 89.9 91.4 95.1 96.8 97.4 98.1 98.5 95.5 91.8 90
86.6 88.5 91.2 92.1 96.8 99.8 100 99.2 99.1 97.3 99.9 94.6 93.9 92.1 88.5 87 87 88.8 91.9 91.5 89.5 93.4 94.9 99.8 101 102.2 100.5 102.8 111 115.5 113.4 115.1 119.1 118.5 113.8 110.9 110.1 110.8 114.3 118.4 122 119.1 113.3 110.9 110 108.1 102.9 103.1 101.6 104.4 106.9 108.6 107 105.7 105.4 104 101.8 98.8 97.9 93.1 93.3 93.9 93.8 97.3 99.4 98 98.8 101.6 98.4 99.7 98.5 98.3 92.7 92.7 92.7 95.2 95.7 97.1 98.6 97.8 97 95.5 97.3 99.6 100.1 97.5 91.7 88.4 88 91.3 91.8 88.6 88.4 90.4 89 89.9 92.4 95.8 95.4 95.1 93.1 89.4 88.5 87.8 86.3 84.9 85.7 85.9 84.5 86.1 86.2 86.4 86.2 85.4 84.9 85 85.2 87.1 91.4 93.1 93.6 91.9 93.2 91.8 92.8 92.8 92.3 87.2 87.1 87.4 88.2 87.9 86.9 86.1 84.6 83.9 84.4 84.9 84.8 84.6 84.5 84.7 84.9 85.1 85.4 85.2 85.6 85.6 85.2 85 86.5 86.2 89.4 91 91.8 91.9 91.1 90.6 90.1 89.9 89.3 89.1 88.5 88 87.8 87 86.5 86.7 86.3 87.1 87.6 87.4 86.8 87.3 88 88.7 89.1 88.9 89 89.1 88.5 89.2 89.8 90.1 88.6 89.2 90.9 90.9 91.8 92.2 91.5 93.2 95.1 96.8 96.6 96.1 95.7 92.5 89.8 89.9
87.8 87 86.7 89.2 92.9 92.9 90 91.8 95 99.1 100.5 102.1 97.2 97.8 97.1 87.3 88.9 87 91.6 90.8 91.9 95.6 97.8 104.2 107.9 111.6 111.3 112 119.1 119.8 122.5 121 122.8 121.6 119.5 110.8 110 110.5 114.6 116.7 116.5 115.1 114.1 110.5 108.2 106.1 100.2 102.6 100.7 104.4 106.2 107.5 106 104.5 102.5 104.4 104.8 101.6 100.1 99.5 93.4 93.6 94.1 95.2 97.8 94.6 97.8 97.4 94.6 98.5 93.9 92.7 92.7 94.1 93.5 96.5 95.7 96.8 98.1 97.3 96 95.5 96.2 98.6 98.8 97.4 90.3 88.1 87.6 90.2 89.9 88 87.9 87.4 87.4 88.2 89 91.3 91.5 95.5 92.4 90.5 90 87.8 86.6 86.6 85.2 85.4 85.2 85 84.8 85.6 85.9 84.7 84.7 84.8 84.8 85.6 89.8 94.6 94.1 92.8 93.6 92.7 92.4 92 90.9 89.3 86.9 89.3 87.9 86.7 86.4 86 84.8 84 84.1 84.4 85 84.9 84.7 84.6 84.8 85 85.2 85 85.6 85.5 85.2 85.3 86 86.7 88.5 90.2 91.1 91.7 91.7 91.1 90.5 90.3 90.2 89.5 88.7 88.7 88.2 88.1 87.7 86.8 87.1 87.6 88.1 88.2 87.9 87.9 88.6 89.2 89.3 89.5 89.8 89.8 88.7 89.2 89.1 90.5 89.9 90.7 90.9 92.4 93.6 94.7 93.3 94.6 95.3 96.7 95.5 94.6 93.4 90.8 89.3 89.4
88.7 87.7 87.8 88.8 91.1 87.7 86.5 87.8 88 90.1 96.4 97.2 95.6 101.8 101.3 91.1 87 87.6 90.2 91.1 97 101.4 100.6 105 108.4 111.6 114.4 115.3 124.9 121.6 122.5 122.5 124.2 123.9 122 114.7 115.4 113.9 114.3 115.4 112.8 111.7 109.5 109.4 108.6 107.1 104.6 105.7 105.5 104.6 105.3 107.8 103.7 97.7 98.6 105.6 105.4 101.8 102.4 100.4 98.4 93.2 93.9 94.6 94.5 93.8 93.6 95.1 94.1 94.3 93.9 92.7 92.5 92.7 95.8 97.6 96.4 93.3 95.6 97 94.8 93.9 95.3 96.8 96.4 93.8 89 88.5 87.8 87.6 88 87.6 87 87.3 87.1 87.2 87.5 87.7 87.4 88.8 90.5 91.2 89.4 87.8 87.1 86.9 85.8 85.2 84.9 84.6 84.6 84.7 85.9 84.5 84.5 84.5 84.6 84.8 87.8 93.1 92.5 92.2 92.5 92.7 91.8 90.9 90.2 90.5 89.1 89 88.8 86.3 85.5 85 84.7 84.6 83.9 84.1 85.1 85.2 84.9 84.7 84.7 84.8 84.9 84.9 85.6 85.4 85.1 86.1 86.3 86.3 87 88.9 90.4 91.2 91.5 91.7 90.7 90.4 89.9 89.9 89 88.9 88.7 87.9 88.1 87.6 87.9 87.7 87.5 88.6 88 87.9 89.1 89.8 90.5 90.8 90.7 89.9 90.1 89.9 89.1 90 89.6 90.7 91.1 92.6 93.8 94.8 95 94.9 94.7 94.8 94.2 94.5 91.7 89.9 88.9 89.9
90.5 89.2 90.6 91.4 90.9 89.8 88.5 87.6 86.9 87.6 93.5 97.6 99.3 101 97 92.1 89.1 88.9 89.9 93.5 100.8 99.7 100.6 105.5 109.7 111 111.4 113.1 118.3 117.1 122.2 126.1 125.7 126 124.1 119.6 117.6 115.3 113 114.4 114.1 111.9 108.6 108.1 107.5 106 102.7 102.2 102.6 100.7 101.4 100.7 96.4 96.4 101.3 105.3 104.8 102.2 101.7 100.7 103.3 97.2 93.7 94.1 94.5 94.3 93.8 93.4 93.4 93.4 96.2 94.8 92.3 92.6 94.3 97.7 97.3 95.1 94.2 96.1 95.1 92 93.5 94.7 94 93.2 91.6 89 87.9 87.3 87.3 86.8 86.8 87.1 87.5 87.8 87.7 87 87 87.2 89.1 88.8 88.2 87.3 87.1 86.5 85.8 85 84.9 84.6 84.7 84.7 85.5 84.7 84.5 84.9 85 85.3 85.7 89.3 92 90.5 91.4 92.4 92 91.6 91.6 91.4 90.5 88.2 87.2 86.3 85.1 84.6 84.3 84.7 84.5 84 84.1 85.8 85.2 84.8 84.8 84.8 85.1 85.1 85 85 85.2 85.2 85.3 85.5 86 87.6 90.5 91.5 90.9 91.4 91.1 90.8 90.1 89.6 89.5 89.3 89.1 88.7 88.3 87.6 87.4 87.6 88.1 88.4 88.6 88.5 89.4 90 90.7 91.1 89.9 90.6 90.9 88.4 87.7 89.6 89.9 90.6 90.8 92.6 93.8 94.3 94.7 94.3 94.5 95 95.3 93.7 91.1 89.7 89.3 89.9
89.7 90.9 92.9 94.5 91 90 90 88 86.3 86.7 92.6 96.5 98.7 99.1 97.2 95.2 92.6 89.8 89.5 91.5 95.3 99 109.2 114.4 114.9 109.2 110.5 111.3 113.1 113.6 116.2 120.9 124.6 124.9 122.6 120.9 115.5 115.2 110.5 110.9 113.3 110.5 108.9 107 106 104.5 98.9 96.4 96.4 96.4 96.4 96.4 96.4 96.4 97.7 99.2 101.8 102.5 100.7 97.5 98.7 95 94.1 93.9 93.8 94.1 93.7 93.4 93.4 93.4 95.4 96.1 92.6 92.6 93.3 97.2 97.8 96.5 95.8 96.6 95.3 91.7 93.4 93.6 93.6 94 93.2 91.4 89.7 87.5 87.3 87.2 87.6 87.1 87.2 87.1 89.8 88.9 89.3 88.8 89.9 90.9 89.4 88.7 88.3 86.7 85.3 84.8 84.4 84.4 84.4 84.7 85 85.1 85 84.9 84.8 85.2 86.1 87.1 90.5 89.7 89.5 91 91.6 91.3 91.4 91.5 90.5 86.2 86 85.9 84.7 84.1 83.7 84.3 84.5 83.9 84 84.7 86.2 85.2 84.8 84.9 85.2 85.3 85 85.2 85.2 85.3 85.5 85.4 85.3 87 90.6 91.8 92.7 92.5 92 91.4 90.9 89.5 89.3 89.1 89.1 88.6 88 88.4 87.9 87.9 87.6 87.9 88.3 88.6 89 90.2 90.9 90.8 90.9 90.1 89.8 89.2 89.2 88.1 90.2 90.2 90.9 92.1 92.6 93 93.6 93.7 94.1 94.4 93.6 91.5 90.9 89.6 88.8 89.4
88.1 90.3 91.2 94 91.5 90 90 87.9 86.6 86.5 90.8 93.4 96.3 97.4 98.9 104.7 98.9 90.6 89.6 91.4 93.6 102.6 109.4 112 117.5 111.4 109.5 108.1 95 98.1 111.5 118.8 122.9 122.7 119.8 117.7 115.1 112.6 110.9 111.6 111.6 111.1 109 105.4 103 104.8 96.4 96.4 96.4 96.4 96.4 96.4 96.4 96.4 98.3 98.4 101.3 102.5 101.8 98.7 98 94.4 93.6 93.5 93.5 93.8 93.6 93.4 93.4 93.7 93.4 94 94 95.4 95.2 94.9 97.2 95.5 96.7 97.5 95.2 91.3 92.5 92.6 93.4 94.2 94.1 95.3 92.7 88.4 87.5 88.3 88.8 88.7 89.2 89.6 90.8 90.5 88.6 87.8 87.9 91.5 93.8 92.6 90.6 87 85.5 85.1 85.1 85 84.8 84.3 84.7 85 85.1 85 84.8 84.8 85.3 84.6 87.4 89.1 88.4 89.9 91 89.6 90.7 91.5 90.2 86.3 84.7 84.3 83.9 83.3 82.8 83.8 84.2 84.1 83.5 84.1 87.4 87.4 85.6 84.8 85.2 85.2 85.4 85.4 85.4 85.5 85.5 85.4 85.3 86.9 89.9 91.6 92.4 92.5 92.3 91.8 91.2 89.9 89.4 89.6 89.1 88.5 88.5 88.4 88.1 88.1 88.4 87.9 89 88.7 89.5 89.9 90.4 90.9 90.1 89.9 89.6 89.6 89.3 87.7 90.1 90.3 90.8 91.2 91.4 92.1 92.4 92.7 92.7 93.7 90.9 89.1 89.8 88.6 88.9 89.9
90 90.3 91.9 91.2 91.7 91.1 90.4 89.8 87.9 86.8 88.4 89.5 92.1 96.4 104.1 104.8 101.7 94.8 92.4 92.8 98.3 104.5 107.5 112.7 115.2 115.6 111 100.2 90.2 95.2 108.5 116.9 121.1 119.2 114.5 108.3 105.3 106.4 106.7 107 109.4 110 108.8 105.4 103.9 103.9 98 96.4 96.4 96.4 96.4 96.4 96.4 100.4 101.8 101.5 102.4 101.7 102.2 99.7 96.5 95.2 93.9 93.6 94 93.8 93.4 93.4 93.4 93.4 93.4 93.6 98 97.7 95.7 92.1 95 93.4 93.5 97.1 95.6 93.1 92.2 92.7 93.4 93.8 94.7 95 91.8 89.1 88.2 89.4 89.7 89.7 89.7 90.5 89.6 90.2 88.1 87.9 88.1 89.2 93.8 93.4 90.6 89 86 85.7 85.4 85.1 84.9 84.7 84.1 84.7 85.2 85.2 85.2 84.2 84 84 84.9 87.9 89 89.7 90.8 90.4 90.2 90.7 89.6 86.7 85.3 83.6 84 83.2 83.1 83.6 84.1 85.1 83.6 84.1 86.8 85 85.2 84.8 84.8 85.2 85.3 85.4 85.5 85.5 85.4 85.3 85.2 86.7 89.1 91.5 92.1 92.2 92.3 92.1 91.3 90.3 90 89.6 89.3 88.4 88.2 88.1 88.1 88.2 88.4 87.6 89 89 89.3 90.1 90.4 90.6 90.2 90.4 89.2 89.2 88.6 88.8 90.4 91.3 91.5 91.8 91.9 91.5 92 92.2 91.8 92.2 88.7 87 88.1 88.1 89.5 90.2
94.3 94.2 95.4 91.4 91.7 93.6 92.9 91.5 93.4 91.7 87.9 86.9 88.3 91.4 93.3 100.7 98.9 95.4 93 90.5 92.5 98.7 106.2 113.5 115.7 117.3 109.2 96.5 90.2 95.2 106.9 117.2 121.5 118.9 108.5 97.2 93.8 93.8 95 97.3 101.9 105.8 106.4 104.8 107.5 106.8 99.9 96.4 96.4 96.4 96.4 96.4 97 104.2 101.6 101.4 100.4 100.6 100.2 99.1 97.7 95.8 94.7 93.8 94.9 94.7 93.4 93.5 93.4 93.4 93.4 93.7 99.1 97.4 95 92.8 92 90.7 93 95.9 94.2 92 90.8 91.8 92 92.1 91.1 89.7 90.4 89.3 88.6 89 89 88.8 88.4 88.4 88.5 89.4 89 88.2 88.3 88.7 90.8 94.6 93.6 89.4 85.9 85.9 85.5 85.2 84.8 84.3 84.3 84.5 85.2 85.3 85.1 84.5 83.8 84.8 84.5 86.8 87.8 88.7 90 91.3 90.9 90.4 89.1 86 84.1 84.3 84.3 83.2 82.6 83.7 85.6 85.7 83.8 84.8 86.8 86.2 85.2 85.2 84.8 84.9 84.9 85 84.9 84.9 85 85.1 85.2 86 88 91 91.8 91.9 92 91.9 91.2 90.6 90 89.3 88.6 88.3 88.9 88.9 88.8 88.5 88.2 88.2 88.9 89.4 89.6 90.4 90.5 90.7 90.2 89.5 89.1 88 88.4 88.2 89 91.3 91.4 92.3 91.6 91 91.5 91.3 91.5 91.2 87.7 87.2 87.3 87.8 89.1 90.4
96.1 96.8 98.1 93.8 93.3 95.3 97.6 96.9 97.6 93.6 91.3 90.5 90.3 91.7 93.3 95.6 93.9 93 91.3 89.8 90.7 91.8 96 105 113.1 112 107.8 98.6 87.2 87 102.3 114.9 120 117 102.4 93.3 87.8 87.8 89.3 94.4 99.5 99.4 102.8 104.1 104.9 105.2 104 102.7 96.4 96.4 96.4 96.4 105.8 105.7 104.4 103.8 100.4 102 99.7 99.4 97.8 97.9 98.2 99.6 100.1 95.7 93.4 93.7 93.4 93.4 93.4 93.6 98 97.7 93.3 94.9 93.5 90.9 90.4 93.2 91.3 90 92.6 93.7 93.9 94.3 93.2 89.8 89 88.7 88 89.2 88.9 88.9 88.8 89.4 89.2 89.4 88.9 88.1 88.1 87.9 89.7 92.3 93.5 90 86.7 85.7 84.8 85.3 85 84.4 84.2 84.5 84.5 85.1 84.3 83.7 84 84.8 84.4 84.4 85.9 88 89.7 90.6 90.9 90.8 88.8 86.7 86 84.8 84.6 84.2 83.3 83.8 85.1 84.4 85.1 86.1 86.1 85.2 85.1 85.6 86.3 85.7 85.2 84.9 85 84.9 85 85.1 85.7 86.9 89.2 91.1 91.4 91.7 91.8 91.4 91 90.6 90.6 90 89.1 89.2 89.1 88.8 88.7 88.7 88.3 88.6 88.8 88.8 89.6 90.4 90.5 90.6 90.1 88.6 88 87.5 87.5 87.6 87.7 89.5 91.5 92 91.4 90.6 90.8 89.8 89.8 90.3 87.6 87.5 87.5 87.9 88.7 90.6
97 97.8 99.7 98.2 98.8 98.7 99.6 100.7 98.5 94.8 93.3 92.5 91.4 90.9 90.9 90.4 90.2 90.2 90.2 90.1 90.2 91 92.1 95.3 100.7 105.3 101.1 93.9 87 87 90.8 100.2 103.5 102.2 94.9 87.8 87.8 87.8 87.8 98.3 104.2 105.6 105.1 104.4 104.4 104.3 104.3 104.3 99.2 96.4 96.4 99.7 105.7 105.1 102.9 104.7 101.5 101.3 99.3 98.8 101.2 102.1 101.8 101.5 103.5 100.2 93.4 93.4 93.4 93.6 93.7 94.2 96.8 97.3 93.3 95.7 95.3 90.7 90.8 91 90 90.1 91.7 94.6 94.8 94.2 93.3 91.7 89.1 88.7 88.7 89.7 89.1 89.1 89.4 90.5 90.5 88.9 87.7 88 88.6 89.2 90.3 91.3 89.8 88.8 87.4 85.8 83.9 85.3 85.5 85.5 85.1 83.3 83.9 84.7 84.8 83.9 84.5 84.8 84.6 83.6 84.4 87.3 88.7 90.9 91.1 90.6 88.9 87.1 86.2 85 84.2 84 83.6 84.1 83.6 84.3 85.9 87.5 87.6 86.5 85.7 88 88.7 88.3 85.9 85.2 85.2 85.2 85.2 85.6 86 89 89.9 90.8 91.1 91.4 91 90.6 90.4 91 90.9 90.2 89.8 89.1 88.9 88.6 88.5 88.8 88.8 88.2 88.6 88.5 89.3 90.2 90.4 90.5 90.1 89.2 88.2 86.9 87.2 87.7 87.8 87.7 88.5 89.8 91 90.7 89.8 89.8 89.8 89 87.3 87.3 87.6 88.1 89.1 90.8
97.4 97.8 98.6 99.9 100.9 101.3 102 103.6 99 95 96 96.2 94.2 92.5 94.2 90.1 89.3 89.2 89.5 89.9 90 92.3 94.9 96.4 98.5 93.3 91.2 91.2 87 87 87 91.3 90.7 89.2 90.7 89.2 87.8 89 93.4 98.5 105.6 105.3 102 103.5 104.5 105.7 105.1 104.1 100.7 100.4 100.8 104.2 104 102.2 101.9 103.6 103.1 98.7 94.4 97.4 101.8 102.1 100.9 102.7 103 100.2 93.7 93.7 93.4 93.4 94 94.8 96.1 96.1 95 94.5 93.6 90.2 92.6 90.6 90.1 91 92.1 96.6 94.1 92.4 92.9 92.2 90.7 89.5 89.3 88.9 90.1 89.5 90.2 90.6 90.5 88.6 88.2 88.8 88.4 88.3 89.6 90.2 92.5 90.7 88.1 84.8 84.6 84.1 84.5 85.3 85 84.1 83.5 84.5 84.7 84.2 84.9 85.2 84.7 83.6 85.3 87.6 87.8 89.3 89.1 88.6 88 86.3 85.5 84.7 83.7 83.6 83.5 83.4 83.4 85.1 87.6 88.7 88.4 87.6 88.4 89.8 89.7 88.8 87.1 85.5 85.6 85.5 85.7 85.7 87.9 89.3 90.1 90.7 91 90.7 90 89.6 90.2 90.9 90.7 90.3 89.8 89.9 89.8 89.4 89.1 88.6 88.2 89.4 88.8 89.1 89.4 90.2 90.2 89.9 89.1 88.2 87.7 85.3 87.2 87.8 87.6 87.3 87.5 87.7 90.1 89.8 90.5 90.2 89.5 90.4 88 87.9 88.7 89 90 91.7
96 100.2 99.1 100.5 101.8 103 103.3 103.4 107.7 105.5 101.3 96.2 96.6 92.8 94.6 92.2 89.4 89.4 89.2 89.4 90.5 93.6 99.8 104 104.1 100.4 100.7 99.6 90.5 87 87 87 87 87 87 89.3 91.1 92.2 92.9 92.7 94.9 98 95.5 97.9 103.1 106.5 104.9 103.7 102 101.2 101.9 106 102.9 99.5 100.2 104.8 102.9 98.4 90.8 94.3 100.8 97.2 96.5 100.7 100.4 97.6 96.1 93.8 93.6 93.6 94.2 95.2 95.5 96.2 97.3 96.1 91.7 90 91.7 89.7 90.7 91.5 94.1 97.6 95.5 93.1 92.5 92.3 91.3 89.2 89.6 90.4 90.2 89.4 89.5 89.6 90.6 89.5 88.7 90.4 89.2 88.7 90 90.8 90.5 91 89.7 84.9 84.5 84.2 83.2 84.1 85 84.4 83.7 84.7 84.8 84.7 84.3 84.9 85 84.1 84.4 86.3 87.6 88 87.7 88.6 86.9 85.5 84.7 84.7 84.2 83.2 83.2 83.6 84.4 86.8 89.3 89.2 88.2 87.8 89.6 90.5 89.2 88.7 88.1 86.3 85.5 85 85.7 85.9 86.2 87.8 89.8 90 90.5 89.7 89 89 89.4 90.2 90.6 90.2 89.8 89.7 89.7 89.5 89.1 89.4 89.1 88.9 89.2 89.3 90.2 90.4 90.2 90.3 89.3 87.8 87.1 85.2 87.2 87.3 86.8 87 87.3 87.6 88.9 89.3 89.9 89.7 88.5 87.1 87.3 90.5 89.7 90.2 91.7 92.4
95 96.6 97.6 98.9 100.7 102 102.7 99.9 105.4 103.4 102.3 105.8 98.1 93.7 94.6 94.9 89.7 90 89.6 89.7 90.3 92.8 96.8 102.3 105.7 107.2 108 106.1 92.7 88.7 87 87 87 87 87 87 87.6 91.7 91 90.2 90.4 91.3 91.2 96.8 103.7 105.3 104.2 103.1 101.6 99.7 102.1 105.5 99.9 98.5 99.1 104.5 103 97.8 91.8 88.5 91.6 87.5 89.6 96.7 100.4 99.2 97 95.8 94.3 93.8 94.3 94.6 95 95.7 96.1 94.3 90.1 88.9 89.4 90.5 91.3 92.7 94.5 97.1 96.4 94.2 93.9 93.3 92.2 89.3 89 88.9 89.3 89.1 89.8 88.9 89.4 89.6 89 89.9 89.9 89.3 90.1 91.4 91.2 91.5 88.9 86.2 85.2 84.6 83.7 83.3 83.9 84.6 85.1 84.8 85.1 84.8 84.3 84.5 84.3 83.6 83.9 85.2 87.1 88.8 87.4 87.5 85.8 85 84.9 84.8 84.2 83.1 82.7 83.5 85.4 89 90.3 90 87.9 88.1 90.2 90.3 88.9 88 87.9 86.5 85.8 85.2 85.6 86.2 87.8 89.1 89.1 89.1 88.9 88.7 88.4 88.4 88.7 89.3 90 90.2 89.9 89.8 89.7 89.6 88.9 89.3 89.7 89.5 89.8 89.2 89.8 90.4 91 90.7 89.4 87.7 87.2 86.5 86.4 86.5 86.5 86.8 87 87.9 88.3 88.7 89 87.4 86.8 87.6 87.3 87.8 90.2 91.8 92.7 93.4
97.1 98.4 97.9 99 99.9 100.4 101.2 100.3 100 97.1 96.5 99.3 100.8 95.5 95.5 99.2 92.9 91 90.7 90.5 91 92.6 95.4 97.2 101.3 105 106.5 106.4 94.7 95.2 88.5 87 87 87 87 87 87 89.6 90.5 90.6 90 92 93.8 99.7 104.6 104.4 103.7 103.3 103.7 100.6 102.4 103.6 99.6 98.4 98.5 103.3 103.3 100.7 95.1 88.5 87.7 87.1 87.9 95.8 100.2 98.7 96.1 96.9 93.7 94.2 94 94.3 94.5 95.1 95.4 92.1 88.9 89.1 89.2 90.5 92.3 93.2 92.4 94.8 94.5 95 94.3 92.4 91.4 90.2 89.4 89.3 89.9 89.5 89.4 88.8 89.1 88.8 88.4 88.9 90.7 90.1 89.3 90.9 92.6 91.3 88.2 85.6 85.2 84.8 84.1 84.2 84.5 83.5 85.1 85 85.3 84.9 84.7 83.8 83 83.3 83.7 84.9 87.1 87.9 86.9 84.3 84.8 85 85 84.8 83.5 83.2 82.8 83.4 86.9 89.7 89.9 89.8 87.5 88.4 89.2 89.1 88.3 88.2 87.8 86.9 86.3 86.4 86.6 86.8 89.3 89.1 89.3 89.6 89.3 89 88.5 88 88.8 88.8 89.3 90 89.9 89.8 89.6 89.8 89.6 89.6 89.2 89.9 89.8 88.4 89.8 90.4 90.5 90 88.7 87.6 87.4 87.3 86.7 86.4 86.6 86.7 86.9 87.6 88.4 89.6 88.5 86.8 87 87.3 87.2 87.6 90.1 89.7 91 91.9
98.1 98.8 98.6 99.4 100.7 101.3 100 99.8 100.8 97.7 96.2 96.9 101.7 96.2 97.6 98.2 96.4 92.6 92 91.8 91.9 92.7 94.2 95 96 101.1 105.1 104.3 99.3 97.4 91.1 87 87 87 87 87 87 89.7 90.5 90.8 90.2 91.6 97 102.2 107.4 107.1 105.4 103.8 105 103.8 101.5 101.6 101.1 98.5 99.5 105.3 103.8 101 97.6 90.6 87.5 87 88.3 94.1 97.1 97.3 95.8 93.4 94.1 94.3 94.6 92.9 92.7 93.2 93.5 91.7 89.1 90 90.2 90.8 92.9 92.6 90.8 91.8 92.6 93.1 93.1 91.1 91.7 91 90.4 90.3 89.8 89.6 91.7 91 91.2 91.7 90.4 88.3 88.9 90.7 89.5 91.9 93.1 91.9 90.4 87 84.5 84.1 84.2 84.1 83.7 83.3 82.9 82.8 82.8 82.8 83.4 84.2 83.5 83.4 83.9 85.2 88.6 87.5 86.5 84.6 84.5 85 85.1 85 83 83.3 83.1 83.8 87.4 88.1 88.3 88.6 87.2 88.1 89 89.2 88.4 88.3 88.3 88.1 87.4 86.7 86.6 88.3 88.8 89.3 89.3 89.1 88.9 89 88.7 88.3 88.8 88.7 89 89.5 89.6 89.6 89.9 90.3 90.1 90.2 89.7 89.5 89.9 89.2 89.6 89.9 89.9 89.2 88.6 87 86.5 86.4 86.6 86.5 86.7 86.9 87.4 88 88.8 89.3 88.1 86.2 87.1 86.9 86.9 89.3 91 92 92.7 93
98.9 99.4 99.4 99.3 101 102.1 101.8 100.1 97.5 100.6 95.8 96 100.7 97.6 95.4 95.7 97.6 95.8 95.4 94.5 93.7 93.8 94.8 97.1 97.4 97.3 101.9 103 99.5 97.2 94.4 90.9 87 87 87 89.9 93.4 97.7 92.8 90.8 90.7 93.4 97 103.9 107.6 108.1 105.9 104.2 106.1 105.6 103.1 102.3 102.9 99 100.9 102.1 100.8 98.8 98.1 94.8 87.7 87 87.6 90.4 92.1 94 93.3 95.7 96.2 96.2 95.4 93.4 91.8 92.5 92.5 91.1 89.2 89.7 90.4 91.4 91.8 91.1 91.2 93.6 93.1 92.2 93.1 92.3 92.4 92.9 92.9 91.5 90.7 90.8 89.7 92.5 93.5 92.8 93 90 88.4 89 90 90.8 94 90.4 86.8 85.1 84.2 82.8 83.3 83.6 82.9 82.8 82.5 82.6 82.7 83.4 85 84.8 84.3 83.9 84.3 84.6 88.2 87.7 86.7 85.1 83.5 84.5 85.4 84.8 83.3 83 82.3 86 87.5 89.1 88.1 86.2 86.9 87.8 89 89.3 88.6 87.5 88 88 87.8 86.6 86.2 87.2 87.4 87.9 88.3 88.2 88.2 88.2 88.3 88.8 88.7 88.7 88.8 89.2 89.5 90.9 90.8 90.6 90.3 90.4 90.3 89.4 89.7 89.7 88.7 89.6 89.4 88.3 87.7 86.4 86.6 86.3 86.7 86.1 86.5 87 87.4 87.7 87.4 87.2 86.5 86.6 86.9 86.7 87.5 90.5 91.6 93 94.1 93.7
99.7 101.2 102.9 101.1 101.6 101.6 100.9 100.6 99.1 102.6 96 96.8 97 97.4 97.4 95 96.8 99 98.9 97.9 96.2 95.7 96.2 98.7 100.7 97.4 96.7 103.1 100.1 95.7 94.2 96 93.9 90.5 98.7 108.5 108.6 106.7 98.3 92.2 91.5 91.3 90.1 96.8 106.4 107.9 105.9 104.6 104.3 104.7 104.3 102.7 104.4 103.5 104.1 102.7 100.5 97.6 97.8 98.1 92.6 86.9 87 87.6 88.2 88.9 90.4 96.8 98.5 98.7 96.6 94.8 92.7 92.3 92.7 90.1 88.5 89 89.5 90.9 90.8 92 95.1 95.2 93.5 92.1 93.4 94.5 91.9 94 93.6 92 91.4 92.4 92.3 90.7 91.6 92.6 92.2 91.7 88.7 89.4 90.1 90.2 93.8 93.6 90.8 84.8 83.4 83.1 82.6 82.5 82.8 83.7 82.6 82.6 82.8 84.8 85.1 84.5 84.1 84.3 84.5 84.7 86.7 86.6 87.1 85 83.3 84.4 85.5 83.4 83.3 83.2 83.9 87.6 88.4 88.9 87.9 86.5 86.8 87.9 89 89.3 89.7 89.2 86.8 86 86.8 86.1 85.8 85.9 85.5 86.8 87.1 87.1 87.4 87.8 87.8 88.9 88.9 88.6 89.1 89.3 89.6 90.6 91.1 90.9 90.7 90.2 89.9 89.6 89.2 89.4 88.6 88.4 89.1 88 86.7 86.4 86.4 86.4 85.7 86 86.7 86.7 86.6 87.5 87.5 86.3 85.6 85.8 86.1 87.1 89 91 92 91.7 94.8 94.4
103.4 107.3 108.3 107.3 102.2 101.7 103.3 101.1 99.2 98.6 96.4 97.2 97.7 97.4 97.7 95.1 95.6 98.6 101 99.3 98.3 98.5 101.1 100.5 100.6 97.3 95.9 100.1 99.7 94.6 95.6 95.9 96.2 97.8 103 111.8 112.9 109.4 102.5 97.7 100.9 95.6 91.1 90.2 98.3 105.9 107.2 106.2 105.2 104.4 103 101.9 103.4 105.1 103.7 101.7 100.3 98.4 98.7 98.2 96.4 88.3 86.9 87.5 87.8 88 91.5 95.9 98.1 99.1 98.6 97.9 95 93.9 93.1 89.4 88.6 88.3 89.2 90.6 91.4 92.4 93.7 94.7 93.2 92.1 93.1 92.8 91.8 93.5 92.1 91.3 92 95.3 95.2 93.1 91 90.4 90 88.9 88.9 89.1 89.4 92 92.5 93 92.2 87.6 83.6 83.8 83 83.8 83.1 83.7 83.9 84.2 84.6 84.6 84.4 84 83.3 83.9 84.5 84.6 85.5 86.9 87.1 84.1 83.4 83.9 83.7 83 82.9 82.3 86.8 88.8 89.1 88.6 87 86.9 87.2 87.8 89.2 89.5 89.4 89.5 87.9 86.8 85.6 85.6 85.9 85.5 85 85.9 86.5 86.7 86.9 87.2 88.4 88.5 88.8 89.2 89.3 89.5 89.6 91.4 91.7 91.6 91.2 90.6 90.3 89.7 89.8 88.7 88.7 88.6 88.3 87.2 86.9 86.6 86.4 86.2 85.5 86 86.4 86.7 86.6 87.2 86.1 85.6 85.5 85.5 85.9 87.4 89.6 91.2 92.3 92.5 93.7 95.5
106.5 107.1 108.5 110 108 102.8 102.5 98.9 96.3 97.9 100.2 97.8 99.8 98 99.2 95.3 94.2 94.5 97.7 99.3 99.8 102.8 102.6 101.8 100.6 97.7 96.9 96.4 98 94.3 94.2 95.1 95.6 97.3 102 112.5 114.5 111.5 107.5 109.8 107.1 101.2 94.1 92.6 90.6 101.2 105.6 101.3 100.4 104.3 102.6 101.8 101.8 104.6 103.5 100.4 98.7 98.4 99.5 98 94.6 87.2 87.2 87.3 87.3 87.4 93.7 96.1 96.2 97.9 98.1 98.3 97.4 96.1 91.7 88.7 88.7 88.6 89.6 90.5 91.4 93 93.4 92.8 91 91.9 93.5 93.1 92.4 92.6 92.8 92.2 92.6 95 95.3 93.3 93.3 89.6 89.2 88.6 88.6 88.7 88.4 88.8 92 89.3 87 84.8 83.9 84 82.7 83.2 82.6 83.4 83.3 83.8 84.7 85.2 83.7 83.5 82.9 83.1 84.5 84.2 85 86.4 86 83.5 83.2 84.2 82.8 82.6 83 82.3 86.5 89.1 89.4 86.8 87.5 87.3 87.9 87.9 88 88 88.3 89.3 89.2 87.1 85.4 86.2 87.1 86.5 85.7 85 85.7 85.9 86.6 87.5 88.4 88.5 88.8 89 89.6 89.5 89.9 91.4 91.7 91.8 91.7 91.2 90.7 89.5 89.8 89 88.3 87.4 88 87.2 87.1 86.8 86.2 85.9 85.3 85.9 86 86.3 86.6 86.3 85.4 85.2 85 85.4 85.8 87.3 88.6 91.1 92.7 93.2 94.2 95
106.1 108.3 108.5 109.9 108.1 104.9 102.9 98.6 96.1 98.4 103.2 97.1 99.1 97.1 98.9 96.8 95 94.5 94 99.9 103.9 105.1 103.8 101 99.5 98.3 96.8 95.4 95.2 94.5 94 94.8 95.3 95.6 101 111.5 114.1 110.1 104.6 109.6 114.3 104.9 92.9 92.1 91.7 98.4 92.5 91.7 90.6 97.4 98.9 99.7 100.1 101.9 102.6 98.6 98.9 99.2 96.8 96 91.9 89.9 89.5 89.4 88.1 89.5 92.9 94.1 94.1 95.7 97.6 96.8 97.1 97.4 91.8 88.9 88.9 89.1 90.3 90.5 91.1 91.5 93.3 92.6 91 91.9 93.8 93.2 92.9 92.6 92.5 91.8 92.7 92.7 93.4 95.2 95.4 94.3 89.8 89.4 88.3 88.5 89.5 90 89.1 90.7 89.3 87.7 84.7 83.3 82.6 82.4 82.7 83 83.1 82.8 83.2 84.8 84.1 82.9 82.8 83 83.9 84 85.2 86.3 85.4 83 83.8 83.5 83.2 82.3 83.3 83.3 83.8 87.7 89.7 87.5 87.4 88.2 89 88.8 88.3 87.8 88.6 88.9 88.3 87.6 86.4 86.2 87.9 86 85.2 85.3 85.2 85.9 86.7 87.6 88.5 88.2 88.3 89.3 89.7 90 90.4 91.1 91.5 91.6 91.4 90.9 90.8 89.7 89.4 88.8 87.7 87.6 86.9 86.7 86.9 86.1 85.8 85.1 85.2 85.5 85.6 85.9 86 85.4 85.2 84.7 84.8 85.1 85.6 87.8 89.4 91.2 92.6 94.1 94.3 95.6
107.7 108.2 109.6 110.2 109.6 107.2 105.5 97.1 94.6 99.3 102.2 98.1 98.4 96.4 95.9 99.9 94.2 94.2 94 99.2 105.4 105.3 101.8 99 96.9 96.3 95.4 95.5 95.5 96.1 95.5 95.1 94.8 95.2 97.6 105.9 113.4 113.6 103.7 104.8 108.8 109.6 97.1 90.5 91.2 91.7 90.8 88.4 88.3 88.8 92.3 95.6 97.5 100.3 102.3 96.2 92.5 91.4 90 85.9 84.8 87.3 86.3 86.2 88.9 89.6 89.6 88.1 88.9 91.6 95.9 94.4 96.2 97.5 97 93.6 91.4 89.9 91 90.1 90.5 91.4 91.9 91.2 91.1 92.5 93.4 92.6 92.7 93 92.8 92 93.9 93.3 94.4 95.5 95.2 94 90.5 89.8 89.7 88.8 89 91.6 92.3 92.7 92.4 91.6 88.3 83.8 82.5 82.5 82.5 82.2 82.5 82.3 82.6 83.9 83.9 82.7 83.7 84.1 84.4 84.5 85 85.2 83.3 82.7 83.1 83.6 84.1 84.3 85.9 86.4 85.5 86 89.2 87.9 87.8 88.9 90 89.4 88.9 87.7 88.5 89.3 89.1 88.7 87.3 86.2 86.3 85.6 85.1 85.1 85.5 86.1 86.9 87.5 88 87.4 88.3 89.4 89.4 89.9 89.9 90.2 91.1 91.2 91 90.6 90.4 89.7 88.9 87.6 87 86.3 86 86 86.5 85.6 85.6 85.4 85.2 85.3 85.4 85.4 85.3 85.5 85 84.3 84.5 84.7 85.5 88.4 90.2 91.5 92.9 94.5 96 95.4
104.5 105.2 108 108.2 110.7 107.8 102 92.7 92.8 95.9 99.6 100.7 99.6 98.8 96.3 97.1 95.7 94.4 94.7 96.9 103.5 103.2 99.6 97.5 95.3 97.2 97.7 97.7 95.5 96.7 96.7 94.9 94.7 94.4 94.8 103.5 111.6 111.1 102.5 102.8 101.6 100.5 96.7 91.4 91.2 90.4 89 88.5 88.3 88.5 88.8 89.8 91.7 93.7 90.7 91.2 86.8 85.1 84.9 84.9 84.9 84.9 85 84.8 84.9 87 86 84.9 84.9 86.8 89.9 91.3 93.3 95.8 96.6 95.7 94 91.1 90.1 89.4 88.9 90.2 90.8 89.7 90.6 89.5 89.3 92.6 92.1 92.6 93.1 92.1 92.1 92.6 94.2 94.6 93.9 91.4 88.6 89.3 89.1 89.8 90.3 90 92.2 93.6 93.5 92.4 91.4 86.7 83.1 82.7 82.4 82.2 82 82.9 82.7 83 83.6 82.6 83.7 84.2 84.6 84.5 84.3 82.6 82.5 83.1 83.8 85.1 85.4 86.7 87.2 87.3 86.9 86.4 88.2 87.7 88.8 89.8 90 89.7 89.3 87.9 88.1 89.4 89.8 89.1 87.5 86.8 87 85.4 85.1 86.5 86.6 86.6 86.4 86.8 87.4 87.4 88.1 88.7 88.9 89.1 89.6 89.7 90.1 90.6 90.5 90.1 90.5 89.3 88 87.5 86.3 86 85.7 85.4 85.6 85.2 85.3 85.5 85.5 85.4 85.4 85.5 85.6 85.7 84.9 84.4 84.4 84 85.4 88.8 91 91.7 92.9 94.5 95.5 96.4
100.7 102.9 104.9 108.9 112.1 104.4 101.4 93.7 93.8 92.8 95.9 101.6 97.8 97.7 96.8 96.7 97.8 95.2 96 99.2 101.9 100.4 98.1 96.3 97.3 100.1 101.4 99.1 95.5 96.2 97.1 95.9 95.4 95.7 97.3 104.6 111.6 112.5 108.9 107 104.1 103.7 104.4 99.6 93.7 94.3 91 89.1 89 89 88.8 89.7 90.7 90.8 87.6 88 86.1 84.9 84.9 84.9 84.9 84.9 84.9 84.9 84.9 84.9 84.5 84.9 84.9 84.9 84.4 86 86.4 90.1 92.6 93.6 95 93 90.5 89.7 89 89.1 89.5 88.6 89 88.2 91.5 92.4 91.7 93.2 93.4 93 92.2 92.5 93.7 91.7 89.8 89 89.1 88.5 88.8 88.2 87.2 87.6 89.2 91.3 92.4 92.7 91.7 88.3 83.1 82.5 82.4 82.2 81.9 83.3 82.7 82.3 82.5 82.7 83.6 84.2 84.1 82.7 83.5 83 83.8 85.6 86.4 85.4 86.3 87.4 87.4 87 86.9 86.3 87.6 88.1 89 89.9 90 89.8 89.3 88.3 88.1 88.7 89.8 89.3 88.4 88.2 87.2 85.8 86.7 87 86.5 86.8 86.2 86.3 86.8 87.6 88.3 87.7 88.3 88.6 88.8 89.1 89.6 90.1 89.6 89.1 89.6 87.9 87.4 86.5 86.9 86.3 85.6 85.3 85.2 85.8 85.1 85.3 85.5 85.4 85.4 85.6 85.8 86.4 86.6 85.2 85.2 85.4 85.7 89.1 91.6 92.9 93.3 94.4 94.8 94.9
100.4 100.8 102.6 104.8 104.4 100.7 100.2 94.9 94.1 92.3 95.3 98.1 95.4 97 99.7 99.2 98.7 97.9 97.3 98.4 101.8 101.3 99.3 96.7 96.6 99.9 103 99.6 95.5 95.1 96.7 97.1 97.1 98.7 101.8 106.6 112.3 114.7 110.6 108.9 101.7 98.7 99.3 97.5 96.9 96.2 97.3 95.3 93.4 91.4 90.8 91.2 92.1 91.8 89.9 90.8 88.7 85.2 84.9 84.9 84.9 84.9 84.9 84.9 84.9 84.9 85.3 84.9 84.9 84.9 84.9 84.9 84.4 85.6 86.8 90.2 91.4 91.9 90.9 89.8 88.6 88.5 87.5 87.3 89.2 89.6 89.6 90.4 92.6 93 93.4 93.4 91.6 92 92.3 89.7 88.4 87.7 88.6 87.5 87.2 86.6 86.6 86.9 87.5 90 91.2 91.5 91.5 86.8 84.4 82.5 82.3 82.1 81.9 83.2 83.1 82.7 82.1 82.2 82.5 83.7 83.6 82.4 84.4 84.8 85.2 85.5 86.1 85.6 86.3 87 87.3 86.9 86.6 86.1 86.4 86.9 87.5 89.7 89.5 89.2 88.3 88.5 88.4 88.8 89.5 89.7 88.6 88.3 87.5 88.5 88 86.9 86.4 86.9 87 86.7 87.1 87.7 88.2 88.6 88.1 88.1 88.2 88.8 89.4 89.5 89.3 88.4 88.3 86.3 86.7 86.5 86.5 86.2 85.4 85.2 85.5 85.7 85.1 84.2 85.4 85.4 85.4 85.7 86.2 87.2 88.4 88 89.8 88.1 84.9 88.1 91.3 93.3 92.5 93.8 94.4 94.8
98.9 100.9 102.4 105 104.7 100.3 100.2 96.6 93 92 91.9 94.4 98.1 97.7 99.3 99.1 97.5 98.2 102.2 103.7 99.6 100.3 103.1 98.6 97.1 100.5 102 98.7 96.4 95.5 96.4 97.8 99.4 99.8 100.3 104.2 110.9 117.3 113.4 110.7 106.8 102.5 101.8 102.7 104.5 103.8 101 99.2 95.7 91.4 89.7 91 90.8 90.7 91.1 91.4 91.9 97 88.6 84.9 84.9 84.9 84.9 84.9 84.9 84.9 84.9 84.9 84.9 84.9 84.9 84.9 84.9 84.6 85.5 87 90.6 91.3 89.6 88.6 87.7 87.5 87.1 88.1 90 91 89.7 91.2 92.2 91.9 93 92.6 91.6 91.2 90.9 90 88 86.8 88.2 87.1 87.2 87.1 86.2 86.6 87.3 90 90.1 89.7 89.6 86.9 83.5 82.6 82.3 82.5 82.9 82.7 83.4 82.5 82.1 82 82.4 82.9 82.2 82.9 84.2 84.1 84 84.1 84.2 85.5 86.8 87.2 86.4 86 86.2 85.4 84.7 86.7 88.6 88.4 89.7 88 88.5 88.6 88.7 88.9 89.1 89.4 88.6 88.1 87.5 86.3 86.2 86.5 86.6 86.9 87.1 87.3 87.4 87.7 88.1 88.7 88.5 88.4 88.2 88.6 89.2 89 89.1 88 87.2 86.3 86 86.4 86.1 85.8 85.3 85.3 85.4 85.6 85.1 84.7 84.6 85.8 85.9 86.3 87 87.6 88.3 89.5 90.9 89.1 85.6 86.7 90.4 92.8 92.3 93.5 94 93.9
98.1 100.3 103.1 105.3 107.6 103.6 100.8 98.3 92.4 92.1 92.5 97.4 96.9 100.4 99.5 98.5 101.1 103.2 101.1 97.1 96.7 95.9 97.9 96.1 99.4 102 96.9 95.8 96.2 97.5 98.5 100.7 101.7 100.2 99.2 101.1 104.9 114.3 116.4 114.7 111.5 108.7 105.4 103.2 110.5 105 99.7 102.4 100.2 93.9 89.4 89.8 89.4 89.3 89.4 89.4 90.1 91.9 98.4 90.1 84.9 84.9 84.9 84.9 84.9 84.9 84.9 84.9 84.9 84.9 84.9 84.9 84.9 84.9 85 86.2 87.1 88.3 88.3 87.4 86.9 84.9 86.3 88 89 89.9 89.8 91.3 91.5 91.3 91.1 91.6 90.7 90.8 90.6 89.3 86.9 86.5 87 86.6 87.3 87.3 85.9 86.5 87.4 89.5 90.7 90.1 87.9 84.6 84.5 82.5 82.3 82.6 82.8 82.9 82.3 82.4 82.2 82 82.6 82.7 82.9 82.6 83.8 83.8 83.7 83.6 83.7 85.4 85.4 85.3 86.5 85.8 86.4 86.3 84.9 85.2 87.1 88.4 89.3 89.7 89 88.9 88.9 89 88.6 89.3 89.2 88.8 87.7 87.7 87 85.9 86.4 86.4 86.7 86.1 86.5 87 87.1 88.2 88.1 88.4 88.2 88.4 88.8 89.1 88.6 87.8 86.8 86.1 85.8 86.2 85.8 85.5 85.1 85.3 85.4 85.2 85.3 85.4 85.1 86 86.6 86.6 86.4 87.1 87.8 88.3 90.8 90.6 85.7 85.7 89.9 92 92.1 94.7 94.4 93.3
99.1 102.6 103.8 102.7 104.7 103.4 101.1 99.3 96.9 94.7 96.4 96.2 96.6 100.6 98.3 98.7 102.2 102 98.5 100 99 95.9 98.5 100.7 101.7 98.1 93.6 93.6 95.5 97.2 98.4 99.3 99 99.9 100.2 100.2 104.4 114 114.9 115.4 114.8 112.6 111.6 112 112.5 97.8 97 92.7 95.8 100.9 98.2 96.5 93.8 89.4 89.5 91.1 94.9 94 93.6 94.4 93.6 88.2 84.9 84.9 84.9 84.9 84.9 84.9 84.9 84.9 84.9 84.9 84.9 84.3 85 85.9 85.7 86.5 86.8 86.9 86 84.7 84.9 84.9 87 88.4 89.2 90.3 91 91.6 91.3 90.7 90.4 90.4 89.6 88.6 86.6 85.6 85.8 86.5 87.7 88.3 85.8 87.5 87.5 87.5 89.8 90.3 86.4 87.2 84.7 84.4 83.1 82.4 82.6 82.3 82.1 82.5 82.7 82.4 82.6 82.6 83.1 82.3 83.5 83.4 83.3 83.2 83.7 85 86 86 86.4 86 86.1 85.9 84.3 84.3 86.3 88.3 89 88.7 88.7 88.8 88 87.4 88.5 89.1 88.9 88.1 87.6 87.6 86.8 86.3 86.1 86.2 86.4 85.9 87.4 87.1 87.3 87.7 88 88.2 88.1 87.6 88.4 88.4 87.3 87.6 86.7 85.7 85.7 85.9 85.7 85.4 84.9 85.3 85.5 85.4 85.4 85.5 85.6 86.1 86.4 86.6 86.6 87.5 87.8 89.6 91.8 91.7 89 85.8 89.3 92.5 93.2 93.8 93.4 92.1
102 107.3 110 109.1 104 100.5 100.4 100.6 97.4 96.8 95.3 94.6 95.2 99.1 96.8 98.7 100.9 98.1 102.6 105.9 103.7 103.7 104.6 103.9 99.3 94.3 93.6 93.6 94.9 94.4 93.6 93.6 95.9 101.7 101 99.6 104.5 115 115.9 113.5 116.1 115.8 116.2 116.2 111.1 92.6 93.2 92 95.2 95.5 101.9 103.2 99.4 92.3 89.4 88.8 93.1 96.4 96 92.3 94.1 93.9 86.4 84.9 84.9 84.9 84.9 84.9 84.9 84.9 84.9 84.9 85 85.5 85 85.3 85.4 86.4 86.5 86.6 85.9 85.6 85 85 85.6 87.1 87.7 88.5 90.8 91.3 91.3 91.1 91.2 89.3 90.2 89 86.4 86.4 85.1 85.6 87.5 86.9 86.2 86.4 87.1 87 88.3 88.1 88.7 87.2 84 85.9 83.3 83.5 82.1 81.8 81.9 82.8 82.7 82.7 82.6 82.6 82.2 83.1 84 84.5 83.8 84.1 84.5 85 85.7 86.1 85.9 85.5 85.4 85.3 84.4 84 85.6 87.4 88.8 88.4 87.5 88.9 88.8 88.1 88.5 89 89 88.6 88.2 87.8 86.8 86 86.8 86.2 86.6 85.9 87.3 87.1 87.3 87.6 87.8 87.7 87.3 87.6 87.7 87.7 86.1 86.4 85.8 85.5 85.3 85.3 85.4 85.4 85.2 85.5 85.4 85.3 85.5 86.1 85.8 86.1 86.2 86.5 86.9 87.6 88.5 90 90.7 90.9 89.9 85.2 87.9 91.4 92.6 91.5 92.3 91.1
106.3 109.7 110.8 111.5 106.1 100.9 99.7 99.5 97.4 95.4 94.2 93.6 94.3 96.6 95.5 94.3 97.7 96 103.4 107 104.4 103.7 102.2 99.6 95.5 93.6 93.6 93.6 93.6 93.6 93.6 93.6 93.6 96.8 101.1 102 106.9 115.6 113.1 112.2 116.8 117.7 115.8 116 106.1 93.1 91.5 92 94.3 98.9 101 103.6 105.3 96.1 90.1 89.4 89.1 91.1 91.7 97.6 93.5 92.4 92.2 88.4 84.9 84.9 84.9 84.9 84.9 84.9 84.9 84.9 84.9 85.1 84.9 84.9 85.2 86.3 87.3 87.5 86.9 85.8 85.3 85.3 85.8 86.7 87.6 86.7 89.2 89.5 90.9 91.4 89.4 89.1 89.3 89.2 88.1 87.2 85.9 85.7 86.5 86.2 85.6 85.7 85.5 86.1 87.4 88.6 89.7 88.8 86.6 85.3 84 83.3 83 82.1 82 82.5 82.2 82.3 82.5 82.7 82.7 83.8 84.3 84.6 85 84.7 84.8 84.6 85.3 85.8 85.6 85.5 85.4 85.2 84.3 83.9 84.6 86.1 87.6 87.9 87 89.2 89.3 88.8 88.8 88.9 88.9 88.9 87.9 86.7 86.8 87.2 87 86.5 86.6 85.8 86.7 87.3 86.9 86.4 86.7 86.8 86.7 86.7 86.8 87 86.5 85.8 85.5 85.3 85.2 85.1 85.3 85.4 85.2 85.5 85.3 85.6 85.7 86.4 86.1 86.5 86.7 86.7 87 87.3 88.9 90 91 90.3 89 85.3 85.6 88.9 91.4 92 90.7 91.8
98.4 103.9 107.4 107.6 105.7 102.4 100.6 98.7 96.6 94.6 93.2 92.7 93.2 94.5 96.6 91.4 93.8 96.4 105.2 110.4 110.4 109.2 101.8 97.3 93.6 93.6 93.6 93.6 93.6 93.6 93.6 93.6 93.6 93.6 98.8 101.8 105.5 108.5 106.8 111.1 113.3 114.6 116.7 119.1 117.3 108.3 99.3 108 103.3 100.9 100.5 99.6 100 96.1 90.2 90 91.1 89.2 91.3 94.9 97.9 94.8 96.3 92 85.9 84.9 84.9 84.9 84.9 84.9 84.9 84.9 84.8 85 84.8 84.5 84.8 85 86.5 86.8 86.1 85.8 85.6 85.9 86.7 87.2 87.7 87.3 87.1 88.2 87.4 90.5 88.6 89.5 88.7 88.2 87.6 87.7 86.4 86.5 87 86 86.4 87.2 86.4 85.6 86.8 87.4 90.2 88.6 88 87 85.8 84 82.5 82 82 82.2 82 82.3 82.5 83.4 82.6 82.2 84 84.4 84.7 84.9 84.8 84.5 84.9 85.6 85.8 85.2 85 85 84 83.8 84.1 84.8 86.2 86.6 87.3 89.1 89 88.5 88.7 88.9 88.8 88.7 88.4 87.5 86.7 86.8 86.6 86.1 86.7 86.6 87.2 87.2 87.2 86.4 87.7 86.3 86.3 86.6 86.4 86.3 85.8 85.5 85.4 85.2 85 84.9 85.1 85.3 85.3 84.8 85.9 85.9 85.8 86.5 86.7 87 87.1 87.2 87.5 87.8 88.4 89.3 90.8 90 89.6 86.4 85.2 86.9 89.9 90.6 91 91.8
97.3 102.5 103.9 101 102.3 102.1 99.9 99 95.7 94 93.4 92.1 92.3 92.8 93.5 91.6 92.7 97.6 103.8 107.5 109.4 109.7 111.6 104.1 93.6 93.6 93.6 93.6 93.6 93.6 93.6 93.6 93.6 93.6 96.1 101.7 104.9 105.7 106.6 110.3 112.4 109.4 114.1 114.9 115.6 114.3 110.7 107.7 104 103.3 101.4 104.7 95.6 89.4 89.5 89.8 89.4 89.3 90.4 97.5 97.6 98.1 96.5 94 93.8 86.3 84.9 84.9 84.9 84.9 84.9 85.1 84.8 84.9 84.8 84.6 84.5 84.4 85.7 86.1 86.2 86.1 85.9 85.7 86.8 87 86.4 88.1 90.3 89.7 88.3 87.9 87.9 88.8 88.7 87.1 87 86.8 86.4 86.6 86 85.1 86.8 88 86.2 87.3 88.2 87 88.8 89.4 87.4 87.3 85.5 84.8 82.3 82.1 81.7 81.6 82.2 82.2 82.5 82 82.6 81.9 83 83.7 84.5 84.6 84 83.9 84 84.4 84.9 84.8 84.8 84.8 84.9 83.8 83.6 83.9 85.2 86.4 87.7 89.1 89.2 88.1 87.7 88.5 88.4 87.8 87.9 88.3 87.5 86.6 85.8 85.8 86.9 87.7 87.9 86.8 86.8 86.3 87.2 86.7 85.9 86.4 85.9 85.6 85.3 85.5 85.5 85 84.9 84.8 84.9 85.1 85.2 85 85.7 85.8 85.8 86.4 86.7 86.9 87 87.6 88.4 88.5 88.9 88.7 89.3 89.1 88 87.5 85.1 85.8 88 90 91.4 91.4
97.9 98.4 99.3 99 99.4 100.7 101.4 97.9 95.5 95 94.6 92.7 92.9 94.2 95.6 94.1 96 100.7 103.5 105.9 107.5 110.2 112.9 105.9 93.6 93.6 93.6 93.6 93.6 93.6 93.6 93.6 93.6 93.6 93.6 98 103.9 106.7 107.9 109.9 110 100.6 108.6 109.9 110.9 110.4 108.9 106.8 103.8 103.4 102.6 99.4 99.3 93.3 91.3 90.7 89.2 89.3 89.5 94.4 98.5 95.2 93.2 95.9 92.2 95.2 87.5 84.9 84.9 84.9 84.9 84.9 85 84.9 84.9 85.5 85 84.6 85.1 85.3 85.9 86.2 85.4 84.7 85.8 88.3 89.3 87.1 87 87.6 88.8 89.6 87.1 86.2 86.6 85.8 87.2 87.4 85.7 86.2 84.7 85.2 86.1 86.4 85.5 85.5 84.4 85.3 86 89.9 89 86.5 84.4 84.6 82.9 82.6 82.1 81.7 81.6 81.6 81 82.3 82.4 82.4 82.9 83.7 84.3 84.5 83.8 83.2 83.2 83.7 85.4 85.3 85 85 84.5 83.3 83.7 83.5 84.3 85.9 87.8 88.7 88.3 88 87.7 88 87.9 87.3 87.3 88.1 87.2 86.3 85.6 85.9 86.3 87.2 87.7 87.3 86.5 86.5 87.3 86.8 85.6 85.6 85.2 85.1 85.3 85.4 85.5 85.1 84.7 84.6 84.7 85 84.7 84.9 85.5 86.2 85.7 85.5 85.6 86.6 87 88 88.9 89.3 90.1 89.3 89.2 89.1 87.4 85.6 84.6 84.6 87.3 89.9 91.5 91.8
99.9 101.1 100.5 99.7 100.1 101.8 100.8 98.8 97 96.3 94.3 92.4 94.9 98.3 100.7 98.1 100.1 102.5 102.5 104.9 105.2 105.2 102 95.5 93.6 93.6 93.6 93.6 93.6 93.6 93.6 93.6 93.6 93.6 93.6 96.2 101.9 108.2 107.6 111.3 111.3 100.6 101.6 105.7 106.4 108.2 103.4 100.9 101.2 100 100.3 102.4 101.3 99.7 98.2 92.8 91.2 89.3 89.5 89.8 93.3 94.8 95 93.7 91.7 94.8 92.2 85 84.9 84.9 84.9 85.9 85.7 85.7 86.9 88.4 87.7 84.8 85.5 84.7 85 86 85.5 85.7 86 88.7 90.5 89.6 86.5 84.9 85.2 86.7 86 85.6 84.9 84 85.2 87.3 86 84.9 84.6 85.5 86.1 86.3 87.5 85.8 84.4 83.6 84.9 89.2 89.9 86.7 82.5 82.4 83.5 83 82.5 81.9 81.6 81.9 81.7 82.1 82.2 82.2 82.2 83.5 84 84.4 83.7 83.1 82.8 83.3 84.8 85.6 85.5 85.4 84.5 83.4 83.7 83.8 83.4 83.8 86.9 87.5 87.1 87.3 86.8 86.5 88 88.5 88.5 88.1 87.1 86.1 85.3 86.2 86.3 87 87.1 87.2 86.3 86.7 86.8 86 85.1 85.2 85.2 85 85 85.3 85.5 85.2 84.8 84.4 84.5 84.4 84.7 84.6 84.9 86 86.5 86.3 86 86.9 87.1 88.1 89 89.9 90.9 89.8 88.7 88.7 86.3 84.8 84.5 84.6 85.2 88.7 92.2 92.6
102.4 103.2 105.7 106.2 103.7 100.8 100.8 99.6 98.4 97.2 93.7 92.7 95.4 98.6 101.5 101.2 100.6 101.4 101.2 101.8 100.2 95.5 95.2 94.7 93.6 93.6 93.6 93.6 93.6 93.6 93.6 93.6 93.6 93.6 93.6 94.1 101.2 102.5 111.7 111.5 111.8 100.6 100.6 100.6 105.2 104.3 100 100 101.2 99.9 100 99.9 99.6 101.8 99.9 95.7 95.9 90.3 89.8 89.6 89.7 92.9 93.9 93.9 91.9 94.5 97.1 94.8 88.1 85 85.8 86.9 86.8 86.2 87.9 90.6 90.6 87.6 87 85 84.7 85 85.3 84.3 85.8 88.8 91.8 91.4 88.9 85.4 85.9 87 87 85.2 84.3 83.9 84.4 84.6 85.8 86 85.4 86.3 86.8 87 87.8 85.7 84.8 83.2 85.2 88 89.4 85.8 82.9 83 83.6 83.4 82.8 82.2 81.7 81.7 81.8 81.7 82 82 82 82 83.1 84 83.5 83.1 83 83.4 83.9 84.4 84.5 84 83.1 83.7 84.4 83.6 83.4 83.5 84.1 83.7 84.1 84.5 84.4 85 86.1 87.4 87.9 87.7 87.8 86.9 86 86 86.1 86 86.1 86 86.3 86.6 86.1 85.7 84.6 85.1 85.1 84.9 84.9 85.3 85 85.1 85.2 84.8 84.1 84.8 84.7 84.5 84.6 84.7 86 86.2 87.1 86.8 87.7 88 89 89.9 90 89 87.3 86.7 85.4 85.1 84.9 84.5 85.2 86.2 91.4 92.4
100.8 102.3 109.3 106.2 101.2 97.9 99.3 100 99.4 97.2 93.3 92.1 96.2 98.7 101.5 101.9 100.5 99.8 99.9 100.9 99.3 95.8 94.8 94.4 93.6 93.6 93.6 93.6 93.6 93.6 93.6 93.6 93.6 93.6 93.6 95.5 101 105.1 108.2 109.8 100.6 100.6 100.6 100.6 103.3 100 100 100.4 99.9 99 99 99.6 100.5 100.4 99.2 99.6 97.1 89.5 89.5 89.7 89.7 89.9 92.4 94.8 94 96.6 97.3 96.5 94 94.5 90.9 88.4 87.8 87.8 89.4 90.9 91.1 89.9 89.2 85.5 84.6 84.2 84.1 83.9 86.2 88.9 92.4 93 90.5 88.7 89.2 90.8 90.2 87.6 87 85.2 84.3 85.1 85.5 86.1 85.2 85.7 86.7 88 87.4 85.5 85.5 83 82.8 84.9 86 82.6 82.9 83.9 83.5 83.3 83.1 82.6 82.4 82 81.1 81.4 81.7 81.8 81.8 81.9 82.1 83.6 83.3 82.9 83.3 83.7 84.2 84.2 84.6 84.3 83.7 84.6 84.9 84.1 83.7 84 84.3 84.3 84.9 84.5 84.5 85.1 85 84.5 84.5 84.8 86.2 87.2 87 85.7 85 85.2 85.6 86.1 86.1 86.4 85.4 84.9 85 84.8 84.7 84.6 84.5 84.2 84.5 84.7 84.9 84.6 84.8 84.7 84.5 84.4 84.5 84.6 85 86.1 86.1 87.3 87.6 87.6 88.8 88 88.9 89.3 89 87.3 85.6 84.9 84.9 84.6 84.9 85.9 88 90
101.3 103.4 108.5 103.4 98.1 96.9 96.7 97.5 97.7 94.9 92.2 92.8 97.8 101.1 97.3 99.5 99.5 98.1 98.3 99.1 99.8 96.4 94.8 94.9 93.6 93.6 93.6 93.6 93.6 93.6 93.6 93.6 93.6 93.6 93.6 97.8 107.5 107.4 108.5 110.7 105.5 102 103.8 100.6 99.4 106 101.9 101.9 100 99 99 99 99 95.5 91.3 95.6 99.3 98.2 98.8 94.6 91.4 91 93.5 95.6 95.9 93 94.9 96.8 95.3 95 93.2 89.3 90.1 90.8 91.6 91.3 91.7 89.9 88.7 86.2 84.7 84.1 84.3 83.9 86.6 89.3 92.2 92.5 91.3 89.7 91.5 92.3 91.5 89.1 88.5 86.8 84.3 83.5 86.7 87.2 86.7 87.1 88.4 89.2 87.7 86.5 85.6 83.2 82.8 83.9 84.6 83.2 84.8 84.6 83.3 83 82.7 82.3 81.7 82 81.8 81.4 81.3 81.6 81.8 82.1 82 82.7 83.2 83 83.1 83.8 85.8 85.2 85.2 85.6 84.8 85 84.8 85.2 84.3 84.3 84.6 85 85.2 84.8 85.3 84 84.2 84.5 85.1 84.6 84.7 85.6 86.6 86.4 85.2 85.8 85.6 86.2 86.1 85.9 85.2 85 85.4 85.2 84.9 84.9 84.8 84.6 84.4 84.5 84.7 84.2 83.9 84.6 84.4 84.2 84.4 84.6 84.7 85.3 85.6 86.4 86.5 85.6 86.2 86.4 88 88.6 88.4 86.1 85 84.8 84.4 84.5 84.7 86 88.3 89.6
100.2 107.4 104.7 100.9 100 95.5 97.7 98.3 97.1 93.6 91.2 94 97.9 97.4 94.7 94.4 96.8 97.3 98 98.2 98.9 98.1 96.5 96 95 93.6 93.6 93.6 93.6 93.6 95.3 97.3 96.4 97.1 99.2 102.7 108.6 109.4 113.7 103.8 106.3 99.6 104.4 104.5 104.4 109.6 101.9 96.9 96.9 102.6 99 100 96.1 87.5 87.5 87.5 91.8 98.6 101 99.6 95.5 93 91.7 93.8 94.3 92.9 92.7 96.6 96.3 95.6 92.4 91.3 89.8 92.5 93.3 94.2 93.3 90.4 88.2 85.8 85.4 84.2 84 83.8 87.5 90 90.6 91.1 90.6 90.3 90.5 90.8 92.3 90.8 88.7 87.6 85.7 83.8 85.1 87.4 86.9 86.3 87.9 88.6 86.9 86.7 85.5 83 82.8 82.9 82.2 83 84.1 84.8 83.4 83.4 83.7 82.8 81.7 81.6 81.7 81.6 81.5 81.5 81.7 82 82.3 82.9 83.2 83 83 84.2 85.2 84.5 85 85.4 85 85.6 84.5 85 84.9 84.6 84.9 85.3 85.8 85.6 85.4 85 84.3 84.6 84.6 85 84.7 85.1 86 85.9 85.9 85.1 85.4 86.3 86.1 85.5 85.2 85.1 85.7 85.4 85.2 84.3 84.2 84.6 84.5 84.4 84.4 83.9 84.3 85 84.5 84.3 84.4 84.7 86.1 86.9 86.8 87.8 87.9 87.9 88.1 88.5 88 88.4 88.4 85.6 85 85 84.9 84.6 84.7 85.6 90.4 91.9
100.4 102.8 101.4 102.5 101.2 100.9 99.6 97.1 95.8 93.9 91.1 92.2 95.2 94.5 93.5 93 95.7 96.9 97.4 97.3 98 97.3 97.2 98.5 99 96.6 93.6 93.6 93.6 94.3 99.5 102.9 102.2 104.3 100.9 102.2 105.4 108 111.3 110.8 109.9 100.1 100 103.6 111 116.1 103.6 96.9 96.9 96.9 102.3 97.1 87.5 87.5 88.9 87 85.8 91.5 99.7 99.8 97.4 92.4 90.5 90.3 91.8 91.1 92.8 92.1 92.1 93.7 93.6 95.9 94.9 91.8 94.4 94.3 93.4 91.9 89.1 88 86.9 85.2 84.2 84.4 88 89.9 88.9 88.6 88.6 89 89.1 89.7 91.8 91.2 89.3 88.7 86.6 85.2 83.8 85.4 86.3 87.3 87.2 85.9 87.1 87.3 86.1 83 84.2 84.9 83.3 84 85.2 84.7 83.9 85 85.6 85 81.7 81.1 81.5 81.4 81.4 81.4 81.4 81.9 81.9 82.1 82.8 82.8 82.9 84.2 84.2 84.2 84.5 84.4 83.7 83.3 83.4 84.2 85.1 85.6 85 85.8 85 84.1 84.1 84.1 85.1 84.6 85.1 84.6 84.8 85.2 85.3 85.4 85.5 85.6 86.1 85.8 85 85.1 85.1 85.5 85.7 85 84 84.1 84.2 84 83.9 84.3 84.5 84.7 85.9 86.3 85.7 85.5 86.7 86.9 88 88.2 88.6 89.4 90 90.1 90.2 90.7 91 90.8 90.4 87 86.1 85.5 85.2 84.7 85 85.4 90.5 93.8
98.6 98.5 99.3 99.8 100.8 100.7 100.1 97 95.3 94.4 93 91.7 91.2 91 90.1 91.3 93.9 96.1 96.7 96.7 96.8 96.8 97.4 98.6 99.3 97.9 93.8 93.6 100.5 112.6 104.8 104.9 104 103.3 101 101.2 103.7 106.2 106.9 110.2 111.9 108.7 100.7 104 104.8 105.5 106.3 100.4 96.9 99.6 99.6 97.2 90.8 87.5 85.8 85.8 85.8 85.9 93.4 98.7 96.1 94.7 90.5 90.9 91.9 94.2 91.2 90.4 91.2 92 92.2 92.6 93.5 93.8 93.8 93.3 92.1 91.7 91.6 90.2 88.7 85.9 84.2 84.3 86.9 89.1 87.4 87.1 87.8 89 89.8 90.7 91.6 91.1 88.6 88.4 88 86.2 85.2 83.9 83.9 85.2 83.9 84.2 86.4 87.2 87 84 86 87.3 85 83.8 85.2 84.7 84.7 85.2 85.1 84.9 83.5 81.9 81.3 81.4 81.4 81.4 81.3 81.5 81.9 82 81.6 82.1 82.9 83.4 84.2 83.9 83.7 84.3 84.1 83.9 83.7 83.6 84.5 86 87.4 87.4 86.5 85.8 84.8 84.5 84.2 84.8 84.7 84.9 85 84.9 85 85.3 85.4 85.4 85.9 85.7 85.1 84.7 84.7 85.1 84.5 83.5 84.3 84.5 84.5 85.2 85.1 85.3 85.4 86.5 86.8 87.2 87.1 87.1 86.8 87.7 89.2 90.1 90.5 91.3 91 92.1 92.4 93.8 93.2 92.2 91.6 89 86.9 86.2 86 86 86.2 87.3 92.1 94.7
95.3 97 97.9 98.5 98.9 99 98.8 96.7 95.8 96.4 95.5 93.4 92.5 91.5 90.1 89.6 93.2 96 96.3 94.8 93.6 95.9 97.6 98.1 98.8 99.1 97.3 95.2 98.3 114.6 111.6 105 102.4 101.3 102.1 103.4 103.5 102.3 104.7 106.3 109.6 113.7 107.4 104.6 106.3 105.6 106.4 103.6 99.7 97.6 95.2 96.3 93.4 92 85.8 85.8 85.8 87.5 90.7 96.3 96.2 95.5 93.2 91.7 92.2 92 94.3 92.8 92.4 92.2 90.8 90.8 93 94.1 92.9 93.7 92.7 92.3 93.3 92.9 90.5 87.6 84.4 83.8 85.2 88.2 85.8 86.5 87.7 88.8 88.6 88.3 89.4 88.7 88 87.9 87.8 86.6 85.3 84.4 83.7 83.3 83.5 83.6 83.9 87.9 88.5 87.5 86.2 87.9 87.7 84 84.8 85.2 85.3 84.9 84.5 84.5 83.5 82.3 81 81.2 81.1 81 81 81.1 81.5 81.6 81.6 81.7 82.1 83.4 85 85.1 84.6 84.4 84.9 85.5 84.6 84.6 85.3 86.4 88 88.2 86.9 86.2 85.9 85.5 85.2 85.9 85.6 85.4 84.8 84.5 84.6 84.6 84.7 85.6 85.4 84.4 84.8 85.1 84.6 83.8 83.3 83.9 84.2 85.1 85.2 86 86.4 86.5 87.1 87.3 87 87.4 88 87.7 87.9 89.1 90.3 91.9 92.4 92.3 92.9 93.9 95 95.4 94.7 93.9 93.1 91.7 89.9 89.7 89.3 87.7 87.7 92.4 94 96.2
93.7 96.5 97.8 97.9 98.5 98.8 99.2 100.2 98.5 98 97.5 95.3 93 90.8 90.1 89.6 91.5 95.4 95.3 94 93.6 95.7 96.6 96.5 97.1 98.3 100.7 98.4 98.6 106.7 108.1 102.4 101 100.6 100.6 103.8 106.2 105.3 102.3 101.8 104.7 108.1 111.2 106.9 106.4 107.2 106.3 105 99.5 95.5 95.7 93.4 96.2 86.2 94.2 86.5 87.5 87.6 89.9 93.7 96.8 98.3 94.3 90.9 91.8 93.4 94.9 94.3 93.9 95 91.8 90.7 91.4 93.3 92.7 93.5 91.4 90.1 91.9 94.8 92.6 89.2 84.2 84.4 85.1 86 85.6 85.1 87.7 88.5 88.1 87.1 87.3 86.8 86 86.3 86.7 85.5 87.8 87.5 86.9 85 84.1 83.9 83.7 85.4 87 86.4 86.5 88 88.1 86.5 84.5 84.9 85.1 84.9 84.4 84.7 84.1 83.5 82.1 81.1 80.8 81 81.1 81 81.1 81 81.3 81.7 82.2 83.1 84.7 85.2 85 83.8 83.7 85.5 85.4 85 85.1 86.6 88.4 88.5 86.5 86.9 87 86.7 86.9 86.3 86 85.3 84.4 84.2 84.2 84.3 84.3 84.8 84.6 84.1 84.1 84 83.8 83.3 83.3 83.7 84.1 84.9 85.8 86.2 86.7 87.6 88.1 88.4 88.3 88 89 89.1 89.2 90.7 92 92.3 93.6 94.5 94.9 95.2 94.5 95 95.7 94.8 94.9 94.3 93.7 92.6 90.8 89.7 91.4 94.5 97 98.2
93.7 96.4 97.2 98 98.6 98.8 99.3 99.9 99.2 98.8 98.2 97.2 95.8 91.9 88.8 91.4 95.6 92.9 95.1 92.4 92.1 94.6 98.8 95.9 95.7 95.7 99.4 102.3 103 102.1 100.4 100.9 101 101.2 100.5 100.3 103.9 105.3 101.3 100.5 100.7 105.2 105.9 106.8 106.8 107.6 106 106 98.8 97 96.5 94.4 86.2 86.6 88.5 88.4 87.8 87.5 87.5 91.8 95.8 98.6 96.6 94.8 92.9 95.2 95.3 95 94.8 97.1 96.1 92.1 91.6 92.6 91.5 93 88.7 85 87.1 90.9 93.3 88.9 84.4 84.7 87.9 86.7 85.6 85.7 86.7 87.5 87 85.6 85.7 85.9 84.7 86 87.1 89.1 92.8 94.4 92.7 88.6 86.8 85.9 84.1 83.5 86.6 86.6 86.1 87.5 87.7 86.4 84 84 84.6 84.9 84.7 84.9 84.4 83.8 82.7 81.6 80.9 81.3 80.9 81.1 81.3 80.9 80.9 81.7 82.5 83.2 84.3 84.7 84.8 84.7 84.6 85.1 85.2 84.7 85.3 86.5 88.3 88.1 86.6 86.9 86.4 87.9 87.4 86.7 86.3 85.3 84.4 84.1 84.1 84.1 83.9 84.5 84.5 83.9 83.9 83.9 84.2 83.8 84.3 84.5 84.6 84.7 85.5 85.6 85.8 86.6 88.7 89.4 89.4 89.4 89.8 90.6 91 91.9 92.4 93 94 94.8 93.9 95 95.6 96.1 96.5 96.6 95.9 95 94.9 93.9 92.6 93.8 94.8 96.2 99.2 100.3
92.6 93.9 94.8 95.6 96.1 97.4 98.6 98.8 97.6 97.6 98.1 98.2 95.6 91.3 89.1 95.7 92.9 93.9 94.2 92.8 90.9 91.9 99.7 96.2 95.8 95.7 99.3 103.7 102.8 100.7 100.4 103 105.8 106.6 103 101 104.2 104 101.3 100.6 100.2 100.8 104.5 106 107.9 106.9 106.1 108.2 107.4 94.1 92.9 93.1 93.7 91.6 90.9 90.4 92.1 87.6 87.5 88.7 95.8 98.9 96.3 95.6 94.1 93.8 92.6 94.3 95 97 98.2 96.8 93.9 90.8 91.6 89.7 88.8 85.1 84.9 85.6 89.1 86.9 84.5 84.7 86.9 87.8 85.5 84.7 85.8 86.7 86.5 85.2 84.8 84.4 84.9 85 88.4 91.3 93.8 96.2 95.9 91.7 87.9 86.6 85.9 83.3 85.8 87.2 86.3 86.5 86.7 86.3 84.5 82.8 83.5 83.9 84.9 85.2 84.7 84.1 83 82.1 81.9 81.1 80.9 81.2 81.4 80.8 80.9 81.2 81.6 82 82.8 84.1 83.8 83.7 83.2 83.3 83.3 84.8 85 86.3 87.8 88.8 87.6 86.4 87.6 88.1 87.4 87.1 86.3 85.3 84.5 84.1 84 83.8 83.6 84.4 84.4 83.7 83.7 84 84.6 84.3 84.9 85.6 85.6 85.7 85.9 86.1 86.6 87 88.7 88.9 89.8 90.9 91.2 91.9 92.3 92.8 93.7 94.8 95.4 96.4 96.7 96 96.3 96.6 96.4 96.5 96.5 95.7 95.5 93.9 93.7 95.5 97.3 97.9 100.2 102.1
89.7 90.7 91.6 93.5 95 96.5 99 96.3 94.1 94.7 95.5 93.8 92 88.8 92.7 96.9 94.8 90.8 92.7 91 91.6 94.3 99.7 99.1 99.6 100.8 107.6 109.1 104.9 101.3 102.9 108.6 117.1 114.4 110.4 102.3 102.5 101.9 100.6 100 100.4 103 104.4 107 108 108.1 107.6 110.8 111.6 93.8 91.7 90.1 87.8 88.6 100 97.7 89.7 91.5 87.5 87.5 95 98.8 95.9 96.6 95.2 93.9 93 93.9 96.1 97.6 98.8 97.6 95.9 92.9 91.3 91.9 89.6 84.8 84.8 84.7 86.6 86.4 85.5 84.3 84 86.1 86.9 85.1 85.6 86 85.6 85.2 84.7 84.4 86.8 87.8 91.2 92.7 93.4 93.5 92.5 90.6 88.9 87.5 86 84.4 83 87.6 87.3 86.1 85.9 85.1 84.1 82.5 81.9 82.2 83.4 85.1 84.8 84.4 83.4 82.4 81.4 81.3 81.5 81.1 81.1 81.2 80.7 80.5 80.9 81.4 83 83.3 83.4 83.5 83.7 82.9 82.7 83 84.5 85.2 87.9 88.5 88.2 87.2 87.5 88.2 86.7 86.5 85.5 84.6 84.5 84.1 84.1 84 84.2 84 84.2 83.7 83.8 84 84.6 85 85.9 86.7 86.7 86.4 86.2 86.9 87.5 87 89 90.9 92 92.9 92.8 93.4 93.7 94.1 94.6 95 96.3 96.8 97.5 96.4 96.7 96.9 96.4 96.7 96 96.1 94.8 93.7 94.4 94 97.3 99.5 101.4 103.7
88.1 89.3 89.9 91.7 94 96.6 97.8 95.9 92.8 92.9 91.6 88.6 88.8 92.6 96.5 98.1 99.2 94.4 91.3 91.8 91.5 95.3 96.8 101.2 102.9 103.8 111.3 113.6 109.4 106.7 108.3 109 115.5 120.1 112.5 107 102.4 102.7 101.9 101.1 101.7 104.8 105.4 106.5 106 110.6 111.2 112.1 115.3 106.1 90.4 89.5 88.8 88.4 88.6 91.4 90.4 88.9 88.4 91.2 95.6 98.7 99 96.7 95.1 92.9 93.7 95.7 97.7 95.9 95.4 95.9 96.6 94.8 92.1 91.3 90.8 85.2 84.9 86.2 87.8 87.1 86.5 84.5 83.8 84.4 86.7 85.6 85.9 86.4 86.4 86.4 86.4 84.9 87.9 88.4 90.2 93.1 93.4 91.7 93.2 92 89.9 88.7 86.6 85.3 84 83.6 85.5 86 85.2 83.4 82.7 82.5 81.9 81.6 81.6 83.9 84.6 84.1 83.4 82.4 81.4 81.3 81.2 81 81 81.5 81.1 80.8 80.5 81.1 82.7 83.4 83.5 83.3 83.1 83 82.7 82.8 83.2 85.7 88.1 88.4 88.5 88.4 88.2 88.1 87.2 86.2 85.1 84.5 84.3 84 83.9 84.3 84.3 83.6 83.8 83.6 84.5 84.5 84.5 85.4 86.6 87.3 87.2 86.9 86.7 87.4 87.8 87.7 88.7 90.2 91.9 93.4 94.9 95.5 95.7 96.1 96.4 96.4 96.6 97.3 97.1 96.7 97 96.9 96.6 96.3 95.5 96.4 95.7 94.5 95.4 93.2 95.4 98.8 102.1 104.6
88.2 89.8 92.5 92.9 93.9 96.6 98.3 95.7 92.1 89.1 86.9 90.3 92.2 91.8 97.4 98.4 98.9 99.2 95.3 92.4 93.2 96.6 100.5 103.4 105.3 106.5 110.4 112.8 113.1 112.5 111.2 106.9 108.8 111.8 103.3 102.2 103.5 102.7 104.6 104.7 103.3 104.9 106.4 104.9 102.1 99.3 101.5 107.2 114.8 121.4 101.4 90.6 107.4 112.2 98.6 87.9 89.4 88.8 89.7 94.9 97.4 99.3 99.6 97.9 96.6 94.6 94.7 95.2 98.2 93.2 92.6 93.7 93.7 94 94.1 92.6 91.9 89 85 88.1 90.4 89.4 87.8 85.3 83.8 83.6 86.3 86.3 86.5 86.7 86.7 87 86.9 85.9 87.9 89 89.9 93.1 93.7 93.8 95.1 92.9 90.9 89.9 87.8 87.4 85.6 83.3 82.7 84.1 85.1 82.9 82.2 82.4 81.8 81.4 80.7 81.3 83.4 83.8 83.1 82.3 81.5 81.2 81.1 81.1 81.3 81.2 81.1 80.7 80.6 80.8 81.7 83.2 82.9 82.7 82.5 82.4 82.2 82.9 83.3 86.8 88 88.2 87.9 87.1 87.3 88 86.7 86 84.9 84.1 84.1 83.7 84.1 84.7 83.9 83.3 83.3 83.9 85.3 85.1 85.1 86.1 87.2 87.4 87.6 87.8 88.2 88.3 87.8 88.2 88.4 88.9 91.5 92.7 94.8 96.1 95.9 95.9 96.2 96.3 97.1 97.5 97.1 96.9 97 96.6 95.9 96.7 96.1 96.3 96.6 95.7 95.8 96.7 97 97.4 100.9 104.5
89 91.3 93 94.9 96.9 100.5 98.8 94.6 91.3 88.4 87.5 93.9 90.4 88.2 93.3 96.3 99.6 100.6 100 91.8 92.2 98.2 102.1 103.1 104.9 106.3 104.1 107.7 110.3 111.4 111 109.1 108.9 107.5 108.9 102.9 102.9 101.6 102.6 104.2 103.7 103.9 103.9 102.7 95.7 88.4 85.9 98.3 109.6 119.7 122.6 114.5 114.5 113.7 112.9 106.7 92 90.4 96.2 99.1 98.7 98.3 95.9 96 98.8 98.1 94.4 95.5 97.4 92.7 92.1 92.1 93.4 95.7 94.8 95.6 94.8 91.9 88.3 88.4 90 90.2 89.2 86.4 84.1 83.6 85.4 86.6 86.2 86.6 86.4 86.4 86.6 86.5 89.1 90.5 91.1 93.2 95.6 98.1 98.8 94.8 92.7 91 89.9 88.8 86.3 84.1 83.6 83.1 83.1 82.7 81.5 82 81.6 81.7 81 80.7 81.9 83.3 82.8 82.2 81.6 81.2 81.2 81.3 81.4 80.9 80.7 80.6 80.9 81.1 81.9 82.2 82.7 82.7 82.3 82.3 81.9 82.4 84.6 87.1 88 88.2 87.2 86.1 87.8 89.3 88.3 86.6 85.6 84.5 83.9 83.7 84.6 84.2 83.2 83.1 83.1 84.3 85.3 85.8 85.9 87.2 87.4 87.7 88.5 89.4 89.5 89.6 89.8 89 89.4 90.3 91.2 91.7 93.4 95.4 95.9 96 96.3 97.2 97.4 97.2 96.3 95.9 96 97.6 97.6 97.2 97.1 97.5 97.7 96.5 96.8 97.8 98.2 99.5 100.3 101.9
88 89.7 91.6 93.9 98.3 100.4 98.8 95.2 92.1 88.9 87 93.2 90.2 87.3 93.1 95.7 96.9 99.3 98.8 96.9 96.7 100 102 100.5 101.3 102.7 100.4 96.4 102.3 104.7 106.3 107 107 106.4 107.6 105.1 105.4 104.4 101.5 99.4 99.1 96.8 97.5 102.6 96.8 88.3 84.2 94.5 105 112.3 120.1 121.7 114.1 113.2 116.6 111.6 106.6 100.4 99.2 99.6 97.4 94.3 93.3 94.7 97.5 99.7 95.8 93.6 93.1 91.2 93.3 94 93.6 94.5 97.2 97.7 95.1 94.4 90.2 89 88.6 88 88.3 86.8 84 83.8 85.3 86.6 85.8 86.2 86 84.8 85.1 87.1 89.4 90.7 91.1 91.5 95.9 99.3 99.8 97 94.4 91.8 89.9 90.1 89.7 87.3 85.2 84 83.6 82.3 82.3 81.8 81.7 81.9 81.5 81 80.7 81.5 82.2 82.4 81.3 81 81.2 81.4 80.9 80.5 80.5 80.5 80.7 81.3 81.8 82.1 82.4 83.4 82.7 82.1 82.1 82.6 84 88.2 88.4 88.5 87.8 87.2 89 89.6 89 87.5 86 85 84.5 84.2 84.8 83.9 83.1 82.9 84.1 85.4 85.5 86 86.7 87.9 88.1 89.2 90 90.7 90 90.9 91.1 91.5 91.4 91.2 91.9 93.6 94.2 95 95.3 95.5 96 96.8 96.4 96.6 96.1 96.2 97.6 98 98 97.6 98.1 98 98.7 98.8 98.5 98.4 99 101.2 102.6 103.1
86.4 89.7 94 96.1 99.2 99.8 98.4 96 92 88.8 86.9 91.8 90.2 89.2 91.8 90.4 95.3 97.7 100.3 100.7 100.8 98.3 100.7 99.2 96.3 98.6 97.7 93 90 93.8 94.7 102.3 106.6 105.5 109 107.8 107.9 105.8 102.8 98.6 97.4 92.5 94.2 107.5 106.6 93.3 85.3 84.8 96.2 104.3 114.2 119.2 117.9 113.7 107.9 102.5 97 95.2 95.8 95.5 95.2 94.4 93 93.3 92.5 94.2 92 88.5 87.5 88.5 89.5 90.8 93.2 94.3 96.1 96.6 96.8 94.8 90.1 87.3 86.8 86.4 86.4 86.5 84.7 85.2 87.4 86.8 85.6 84.4 85.9 85.3 84.6 86.3 88.4 90.4 89.7 90 94.3 98.6 99.7 98.2 95.8 93 89.4 90.9 90.8 89.9 87.1 85.8 84.2 82.5 82.3 81.9 82.3 82 81.6 81.6 81.1 80.9 81 81.2 81.2 81 80.9 80.9 80.7 80.4 80.4 80.4 80.3 80.9 81.9 82.6 83.1 83.2 82.7 82.1 82.2 82.7 86.2 88.1 88.5 88.4 87.3 87.9 88.2 88.8 88.2 87 84.8 84.8 84.9 84.8 84.6 83.6 82.9 83.6 84.6 85.4 85.9 87 87.8 88.1 88.8 89.7 90.8 91.2 91.6 92.1 92.6 92.6 92.5 92.5 93.5 93.9 95.2 95.5 95.6 95.9 96.5 96.5 96.6 96.3 95.5 96.2 97.2 98.2 97.6 98.1 98.8 98.6 99.6 99 98.5 98.5 100.2 101.2 102 103.1
88.6 90.9 93.8 98 100.5 99.3 97.4 95.1 90.7 89 88.2 90.1 91.7 88.7 89.1 95.4 94.4 93.2 95.8 98.3 100 96.5 98.1 100 97.2 97.7 96.9 89.6 86.2 90.6 96.1 98.7 98 102 103.8 112.1 110.6 97.2 102.4 105.1 102.4 98.5 100.5 107.3 107.7 94.5 89.3 87 90.6 99.8 109.6 112.1 108.7 102.4 98.2 95.6 94.5 94.2 94.4 95.3 95.9 95.9 92.9 92.3 94.5 95.1 95.7 93.6 90.8 87.2 86.8 86.6 88.9 92.7 94 92.6 94 92.8 90 87.2 86 86.5 87.2 87 87.5 87.4 86.6 85.3 84.2 83.7 83.9 83.9 83.7 84.6 86.8 88.7 89.7 89.1 92.8 98.5 100.5 98.2 95.6 92.6 89.9 90.4 89.7 90 88.7 86.9 85.4 83.7 83.8 82.4 81.9 81.9 82 82.4 81.6 81.6 82 81.7 81.2 80.9 80.9 80.8 81.3 80.3 80.3 80.3 80.2 80.8 81.8 82.4 82.3 82.2 82.3 82.1 82.2 83.2 86 87.5 88.2 87.8 86.8 86.8 86.8 87.1 88.2 87 85.9 84.9 84.4 84.6 84.3 83.6 82.9 84.1 84.4 84.8 85.8 86.8 87.1 88 88.8 89.8 90.9 90.7 91.3 91.3 91.9 92.7 92.3 93.4 93.7 93.8 95.4 95.9 95.7 96.6 95.6 95.7 96.4 96.7 96.3 97.5 98.4 97.4 96.4 98.4 99.1 98.9 99.3 100.4 98 99.1 100.3 101.2 102 102.9
89.4 93 96.2 100.4 101 98.8 96.9 94.3 89.9 88.2 87 88.2 89.1 88.6 89.5 96.8 93.9 90.4 90.8 92.3 94.1 97.3 100 98.2 95.3 93.4 93.3 85 86.3 88.6 95.6 95.6 103.1 103.3 103.2 102.6 106.4 97.3 102.7 104.8 102.2 108.1 106 104.5 105.2 100.9 94.9 94.2 92.5 96.4 104.1 103.8 102.2 98.3 97.5 95.3 94.8 94.1 93.5 95.2 95.6 95.9 93.8 95.3 96 96.1 97.8 99.5 93.7 86.9 86.8 86.6 86.7 89.1 90.9 91.4 90.9 92.5 89.9 86.7 86.1 86.5 86.7 86.8 87.7 87.4 83.9 83.9 83.6 83.5 83.4 83.4 84.1 84.2 84.3 86.8 88 89.6 93.2 97.3 99.1 97.9 94.9 92.5 92.7 89.4 89.4 89.8 88.7 87.1 86 85.2 84.1 83.2 82.6 82.7 81.1 81.3 81 81.7 81.2 82.1 81.5 80.8 80.9 81.2 80.4 80.6 80.3 80.2 80.2 80.3 81.2 82.2 81.7 81.5 82 82 82.1 83.3 85.8 86.9 87.7 87.3 86.6 86.4 86.6 87 88.2 86.9 86.3 84.8 84.3 84.2 84 83.4 83.7 84.6 84.5 85.5 86.5 86.8 87 87.9 88.8 89.7 90.2 89.8 90.1 90.2 91 91.8 92.4 92.8 93.8 94.3 95.4 95.5 96.1 95.9 96.8 95.9 95.9 96.2 96.1 96.7 97.8 99.1 98.4 99.2 99.5 97.7 98.6 100.6 100.6 101.3 101.9 101.7 102.4 103.4
90.3 94.8 98.5 101.3 101.7 99.1 97.3 95.7 92.3 91 88 86.6 87 86.9 86.3 92.7 90.9 93.8 90.9 90 92.2 94.5 93.9 92.7 94.5 92.2 90.4 86.6 83.5 84.7 88.7 90.2 96.6 99.5 102.4 102.1 99.4 98.5 102.7 100.8 102.4 110.1 110.7 106.4 106.2 105.4 98.5 99.4 97.2 96.8 96.9 99.3 103 100.8 95.4 94.3 94.1 94 94.7 94.6 94.6 94.9 95.2 95.6 96.5 96.6 98.4 100.5 96.9 86.6 86.8 86.6 86.4 87.9 87.1 89.1 87.7 89.7 88.2 87.2 86 86 86.8 86.5 87.2 87.3 85.1 83.8 83.5 83.5 83.4 83.9 83.9 84 84.1 84.4 86.3 89 92.4 94.9 96.8 96.7 95 93 93.6 90.6 90.3 89.7 89.5 88.4 87.5 85.8 84.3 84.3 83 82.1 81.4 81.9 81.8 81 80.4 81.7 81.8 81.6 81.1 81.3 80.9 80.8 80.3 80.3 80.3 80.5 81.6 82.6 81.5 82.3 82 82.7 83 83.8 85.5 86.6 86.6 87.4 87.2 86.9 86.7 87.3 88.2 87 84.8 85.3 84.1 84.1 83.8 83.5 84.5 84.7 84.5 85.5 87.1 87.4 87.4 87.6 88.5 88.5 88.6 89.1 90 89.9 89.8 90.7 92.5 93.6 94.7 95.2 95.1 95.7 96.4 96.1 97 96.6 97.2 97.1 97.1 97.7 98.1 99.7 99.4 100 98.7 97.8 98.8 101 101.6 101.4 101.9 101.5 103.7 103.5
89.1 93.5 96.9 100.9 101.8 100.5 98 96 95.4 93.9 90.4 86.5 84.2 83.7 85.4 86.5 92.3 97 95.8 92.5 91.4 94.2 94.2 91 94.8 92.8 89.3 88.4 83.8 85.4 87.3 87.6 93.5 95.4 94.6 97.5 100.3 99.3 100.4 99.2 99.2 104.9 109.2 108.1 104.1 106.1 104.4 102.6 100.2 97.2 96.5 96.9 99.9 98.6 94.2 94.7 94 94.5 95.5 95.3 94.8 95 96.6 97.3 98.2 96.7 98.8 100 99.6 96.2 94.2 91.6 90.6 90.5 88.7 86.1 88.7 90 87.4 86.2 85.3 86.2 86.6 86.8 87.1 86.1 84.8 83.6 83.6 83.9 84.3 83.6 83.7 83.8 83.9 84.1 84.9 88.1 91.9 92.8 94.3 94 93.5 92.9 92.6 92.2 91.1 90.7 90.5 89.8 88.3 88.9 87.7 86 83.9 82.7 82.1 82.2 81.4 80.8 81.1 80.7 81.7 81.6 81.6 81.5 80.5 80.5 80.4 80.3 80.4 80.5 81.8 82.3 82.3 82.2 82.3 82.5 83 84.2 85.2 86.3 85.3 86.5 87.5 87.4 87 87 86.8 86.6 86 84.6 84.8 84.3 83.9 83.8 84.3 84.5 84.5 85.4 87.2 86.7 86.6 87.3 88 88.4 88.6 89.6 90.5 90.4 90.7 91.4 91.7 93.2 94.3 95.2 95.3 95.2 96.4 96.1 96 96.5 97.1 97.6 97.7 97.9 98.4 99.4 99.2 100.1 99.1 97.8 98.4 100.3 101.6 101.6 102.2 102.4 103.7 103.4
86.5 90.6 94.6 96.5 97.5 99.3 98.8 97.4 94.6 94 91.2 84.7 82.3 81.7 84.3 89.2 96.7 96.6 95.5 92.9 89.7 90.7 91.9 92.6 92.7 91.3 87.4 86.6 83.1 83.6 83.3 84.1 91.1 92.5 90.2 95.1 99 98.7 99 99.9 98.3 100.6 102.8 106.4 103.6 107.7 109.2 106.3 107.4 102.3 97.8 95.9 97 96.4 94.6 95.7 95.3 95.2 95.5 96.4 95.7 97.1 99.4 96.6 98.2 97.3 97.5 98.7 99.8 99.4 98.8 97 96 95.5 94.2 90.3 87.1 88 87.8 87.5 86 86.8 88.2 88.2 86.8 84.5 83.8 83.6 84 84.1 84.1 83.6 83.6 83.7 83.9 84 84.8 87.6 92 92.9 93 92 92.1 91.6 92.2 92.4 92.6 90.7 90.1 90.1 90.4 90.6 88.2 86.6 84.5 82.9 81.4 81.8 82 80.9 80.6 81 80.4 80.8 81.7 80.8 80.5 80.3 80.3 80.4 80.2 80.3 81.4 81.3 82.1 82.1 82.6 83.2 84.2 84.7 85.8 86.6 85.8 86.2 86.8 86.8 86.9 86.7 86.8 86.6 86.2 84.2 83.6 83.8 83.5 83.4 84.1 84.3 84.4 85.1 85.9 87 87 87.9 88.7 89.3 89.3 89.9 90.6 90.5 91.4 92 91.8 92.4 93.5 93.4 94.6 94.7 95.8 95.8 96.6 96.1 96 96.4 97 97 98.9 99 98.9 99.6 98.9 98 97.8 99.6 101.3 102 101.6 101.8 102.2 102.9
84.1 88.3 92.4 94.3 94.2 96.6 98.4 97.4 94.8 93.6 92.2 85.2 82 81.8 84.1 90.5 92.2 89.8 91.1 90.4 91.1 91.9 89.6 90 91.5 89.6 86.9 85.6 83.7 82.8 82.5 82.8 85.2 88.4 88.1 89.6 91.5 95 95.9 99.4 98.6 97.7 97.1 104.7 106.9 109 111.3 110.7 109.5 107.4 102.7 98 94.6 94.4 95.7 97.3 96.6 96.3 96.7 96.9 96.6 98.4 99.2 98.2 96.5 95.4 95.9 97.2 98.3 100.2 99.1 98.4 98.2 96.5 95.5 91.7 86.2 86.8 87.5 88.4 87.3 86.3 88.1 88.7 87.4 83.9 83.8 83.6 84 84.2 84 83.8 83.7 84 84.3 84.6 85.3 88.4 91.1 91.7 92.1 90.1 90.7 91.1 92.1 92.2 93.6 90.5 92 90.2 90.3 89.7 88.3 86.4 85 83.9 82.7 82.1 81.9 81.7 81.3 81 80.8 80.9 81.5 81.3 81 80.3 80.3 79.8 79.9 80.1 80.7 81.7 81.7 82.3 83 83.7 84.7 85.8 86.7 86.8 86 85 86 86.9 86.9 86.5 86.2 86.2 86.1 85.3 84.5 83.9 83.6 83.2 84.3 84.2 84.2 85.2 85.6 86.5 87.6 88.4 89.7 90 88.8 90.6 90.7 91.5 92.3 92.2 92.7 92.4 92 92.4 94.9 94.1 95.6 95.9 96.4 96 96.6 97.9 98.2 98.9 98.5 99 100.4 100 99.8 97.7 98.4 99.1 101.3 101.8 101.9 101.7 102.2 102.4
83.6 86.2 89.5 91 90.7 91.7 94.5 94.7 94.4 93.5 90.8 85 81.9 81.8 83.4 86.4 87 86.5 88.5 89.8 90.1 89.3 91 88.6 88.8 89.1 88.3 85.9 87.1 85.6 83.2 82.8 84.4 84.6 85.3 87.3 89.9 92.8 92.9 92.8 94 92.2 96.6 104.2 106.6 108.2 110.3 111.7 111 108.5 107.1 102.5 96.8 93.7 95.2 98.6 99.4 98.1 97.3 96.6 97.2 98.2 98.9 97.7 95.5 94.1 94 95 97.1 99.7 99.1 99.2 98.4 97.4 96 92.5 87.2 87.5 88.6 89.5 88.6 86.8 87.2 88.3 88.2 85.8 84.7 83.7 84.6 83.7 83.8 83.7 83.9 84.5 84.9 85.3 86.1 89.1 91.2 91.4 90.3 90.2 89.9 92.1 93.7 92.9 93.7 93.5 91.4 90.2 89.3 89.6 89.6 87.2 85.7 85.1 84.4 82.8 82 81.6 81.4 81 81.3 81.2 81.2 81.3 81 80.3 80.1 79.9 79.9 80 81.9 82.3 81.7 81.8 82 82.7 84.5 85.7 86.7 86.7 85.9 84.1 85.2 86.6 86.6 86.1 85.9 85.5 85.1 84.1 84.1 83.5 84.2 83.9 84.3 84.2 84.6 85.2 86.4 86.4 87.9 88.3 89.7 89.8 90 91.6 91.2 92.9 93 93.3 93.5 93.1 93.3 93.4 94.1 94.6 95.4 96.7 97.1 97.5 97.8 99 100.5 100.8 99.8 99.3 100.1 99.8 99.9 99.9 99.5 99.7 100.8 101.4 101.3 101 101.9 102.5
84.8 86.9 88.8 88.8 87.6 88 89.8 92 93.2 92.5 89.7 84.8 82 81.7 82.2 84 83.7 83.8 88.9 88.5 85.9 85.4 87 88 89.2 87.4 85.6 86.3 88 87.3 86 84.5 84 83.4 84.1 86.8 92.2 91.1 88.6 88.7 91.1 91.7 93.3 101.2 105.7 104.5 109 108.3 108.6 108.5 107.2 105.5 100.6 94.1 93.1 95.6 98.3 101.7 98.9 97.8 97.7 97.9 97.6 97.3 96.9 94.3 93.5 94.5 95.6 98.6 98.3 98.9 99.2 97.9 97.5 95.4 92.7 89.7 90.7 88.1 88.8 88.1 87.4 89 88.2 87.7 84.9 84.1 83.8 83.7 85.4 83.7 84.1 84.5 85 85.3 86.6 88.3 90.8 90.5 88.5 88.7 90.9 93.2 94.5 94.8 94 94.1 92.9 91.1 89.5 89 88.9 86.9 85.6 85.5 85.3 84.5 83.4 81.4 81.1 81.2 81.6 81 81.6 81.1 80.4 80.5 80.5 80.4 80.2 80 80.7 82 82.2 82.1 81.8 83.6 84 85.1 85.9 86 85.8 83.8 85.2 86.6 86.5 85.3 84.7 85.5 85 84.1 83 83.9 83.9 83.9 84.3 85.1 85.9 86.3 86.8 87.2 88.3 89.5 90.1 90 90.2 91.1 92.4 93.6 93.6 93.8 93.3 93.6 93.5 94 95.2 94.9 96.4 97.7 97.4 97.9 99.9 100.3 100.9 100.9 101.1 99.9 100.3 99.8 99.6 99.8 98.6 99.9 99.9 100.9 101.2 101.8 101.9 101.9
85 86.7 88.4 89.7 88.3 87.4 89.1 91.3 91.2 89.1 88.3 85.7 82.6 82.2 81.9 82.2 82.2 83 83.8 84.5 82.7 82.4 82.8 84.7 85.2 84.9 85.4 86.2 88 87.3 86.1 85.3 84 82.7 84 86.7 88.8 87.3 86.5 85.9 88.2 91.4 93.8 94.6 101.1 102.5 103.9 106.6 110.5 110.7 107.8 105.8 101.9 95.2 92.8 94.7 96.9 101.8 101.4 99 99 98.9 98.4 97.1 97.2 95.3 94.1 93.7 96.2 98 97.8 97 96.3 96.6 95 96.3 95 93.2 89.8 86.9 86.4 88.6 89.7 90 89.1 86.9 87.2 84.2 83.8 84 85.1 84.2 83.7 84.4 84.9 85.3 87.2 88 88.3 89.3 88.5 89.3 92.4 94.8 95 95 93 93.5 92.5 91.1 89.6 88.8 88 86.5 85.1 86 85.2 84.3 84 82.5 81.5 80.8 81.7 81.1 81.4 81.7 80.4 80.1 79.6 80.9 80.6 80.5 80.5 80.8 81.9 83 84.3 84.9 84.5 83.7 84.1 85.6 85.1 84.3 85.5 86.5 85.7 84.8 85 84.9 84.4 83.8 83 83.4 83.2 84 84.8 86.2 87.4 87.5 87.7 88.2 89.4 90 90.9 91.5 91.6 92.4 93.3 93.5 94.5 93.8 93.5 94.5 94.6 95 96.5 96.9 97.3 97.9 98 98.5 99.5 100.3 100.9 100.9 101.5 100.5 100.7 100.4 99.5 98.8 98.9 99.7 99.6 99.8 100.7 101.4 101.8 102
85.8 87.9 89.2 90.6 91.1 89.5 90.8 91.9 90.6 89 87.5 87.5 83.8 83.2 82.5 81.9 82.4 82.7 82.7 81.6 81.4 80.9 81.1 81.5 82.3 84.2 86 87.4 88.2 87.9 86.4 85.2 83.2 82.1 82 84 86.4 85.8 85.7 86.2 87.9 90.6 90.8 91.7 98.4 100.2 101.5 108.2 109.8 111.9 111.3 108.1 102 97.3 93 94.6 97.7 101.3 101.9 100 98 98.2 97.7 97.7 97.5 94.7 91.5 91.3 93.5 94.2 95.6 93.7 92.1 92.6 91.1 94.7 95.6 92.4 92.3 89.8 86.2 88.5 90.3 89.1 88.5 87.7 89.8 86 85.9 88.2 87.6 84.9 83.6 85.7 85.3 84.9 86.3 87.5 86.8 87.7 88.3 89.8 91 93.8 94.1 93.2 93.4 93 92.6 91.1 89.3 88.4 87.5 87.1 86.4 87.3 86.5 85.7 84.8 84 82.4 81.1 80.7 80.5 81 81.4 80.5 80.4 80.6 81.3 81 80.9 80.6 81.8 82.9 84.7 85.2 84.7 84.2 84.7 85.6 85.8 85.6 85.4 85.6 87 86.2 85.9 85 84.2 83.7 83.1 83.3 82.9 83.6 84.3 84.8 86 87.5 88.2 88.2 89.1 89.3 90.3 90.8 92.1 92.1 93.4 93.4 93.7 94.6 94.8 95.7 95.7 95.5 95.3 96.7 96.7 97.6 98.3 99.1 99.7 100 100.5 100.3 99.8 100.2 99.9 100 101.2 99.5 99.3 98.5 98.8 99.5 99.3 100.6 100.9 101.5 101.2
87.7 88.7 88.8 89.7 90.3 89.2 89.6 90.4 90.5 89.7 88.4 85 83.6 82.4 81.8 82.3 82.5 82.5 82.2 81.4 81.1 81 80.7 80.8 81.4 82.2 85.1 85.9 86.7 87.7 86.2 83.4 82.6 82.4 81.8 83.2 84.3 84.6 84.5 85.7 87.4 89.2 90.2 90.8 95.1 100.1 101.7 102.1 107.5 110.8 112.5 113.1 106.9 98.8 95.3 95.4 97 99.4 102.1 100.9 98.3 98.8 98.8 98.6 96.1 91.6 90.6 90.6 90.9 94 94.8 92.5 91.2 91.2 92.4 93.6 93.1 90.1 92 93.2 87.1 87.6 89.2 90 88.4 86.4 88.1 88.5 86.8 86.6 86.3 84.7 84.6 84.7 84.6 84.3 85.2 84.5 85.6 87.7 88.7 90.6 92 90.9 93 93 92.9 92.9 90.9 91.2 90 88.5 88.5 88.2 87.6 88.6 87.8 87 85.8 84.6 83.2 82.2 81.5 81.3 81 81.3 80.7 80.2 82 82.2 81 80.6 80.4 80.7 82.5 84.8 84.9 85.5 86 86.6 86.6 86.1 85.6 85.4 86.1 87.3 86.9 86.1 84.9 83.9 83.2 83.2 82.6 83 83.7 84.6 85 85.3 86.9 87.5 88.3 89.2 89.4 89.8 89.9 91.4 91.9 93.6 94 93.8 93.6 94.4 95.6 95.9 95.8 96.2 96.7 99.1 99.2 100 100.6 100.5 101.1 101.3 100.8 100.5 99.4 99.5 98.6 99.9 99.4 99 99.5 99.7 100.2 100.6 100.6 100.4 99.2 101.8
90 89.8 89.9 89.9 90 88.1 87.8 87 87.1 86.2 87.5 84 81.4 82.1 81.9 82.3 82.6 81.7 81.3 81 80.7 80.7 80.7 80.8 80.9 81.1 81.1 81.2 81.6 83.3 83.5 83.1 83.3 83 81.8 82.3 83.1 83.3 84.2 85.3 86.9 90.2 90.4 90.4 91.1 98.4 101.8 100.9 102 107.1 111.5 113.6 110.1 101.9 94.5 92.5 93.1 97.7 100.7 101.8 101.2 99.6 98.3 97.5 93.7 91.2 90.7 90.5 90.7 90.5 90.7 92.5 92.3 90.9 92.1 94 90.7 90.1 91.4 91.5 87.5 86.6 87.8 88.2 86.8 86.1 90 88.2 87.5 87.2 85.7 84.9 84.6 85.6 85.1 84.2 84.3 84.6 85.1 87 90.2 92.4 92.9 91.6 91.6 91.9 92 91.8 90.8 91.1 91.2 89.8 89 90.6 89.7 89.8 89.9 89 87.5 85.5 84.6 83.4 82.5 81.9 80.2 81.2 80.2 80.2 82.2 82.5 81.2 80.2 80.1 80.3 83.4 85 84.5 85.8 86.2 86.5 86.8 87.1 86.6 85.7 85.7 86.7 87.1 85.9 84.3 82.9 83.1 83 82.6 83.4 84 84.8 85.1 85.5 85.2 85.9 87.3 88.6 89.2 88.7 89.3 90.1 91.6 93.5 95.4 95.1 93.6 94.3 95.1 95.9 96.6 97.4 97.1 98.8 100.9 101.1 102 101.8 101.9 101.9 101.8 100.6 99.7 98.8 99.2 99 98.4 97.9 98.9 99 99.8 100 100.2 100.6 101.6 100.9
90.1 90.8 90.7 90.5 90.2 88.3 86.8 85.8 85.2 84.1 84.2 81.5 80.4 80.7 81.5 81.4 81 81 81 80.9 80.9 81 81 81 81 81 80.9 80.9 81 81.8 82.8 83 82.4 82.1 81.9 82.2 83.1 83.4 84.4 85.5 88.1 91 90.6 88.9 88.8 92.8 98.2 99.6 101.3 107.8 112.5 108.5 110.8 104.6 97.9 92.2 88.9 89.5 94.5 97.7 99.1 99 97.3 95.9 92.5 91.2 91.1 91.1 90.9 90.8 91.7 92 93.1 91.2 94.4 92.5 90.9 91.3 92.9 91.7 85.9 85.9 85.8 86.1 86.6 91.1 88.5 87.8 87.6 90.6 88.8 84.9 83.8 84.3 84.8 84.2 84.4 84.6 84.8 86.4 91.1 92.4 92.7 91.4 91.5 91.1 92.1 90.9 90.2 90.9 91.4 89.5 89.4 90.9 90.7 90.8 90.3 89.7 88 86.6 85.4 84.5 83.2 82.5 81.5 81.2 79.4 81 81.9 81.8 81.8 80.8 80.5 80.2 82.8 84.4 84.7 85.4 85.9 86.3 86.6 86.9 87.2 87 86.2 86.9 86.6 85.4 84.2 83.2 83.1 82.7 82.5 83.9 84.6 84.9 85.7 86.6 85.8 85.7 86.2 87.4 88.2 89.1 89.7 89.9 91.3 92.8 94.7 94.4 93.9 94.5 96.4 96.5 96 97.1 97.9 98.8 100.3 101 100.9 101.4 101.9 101.9 101 100.1 100 98.9 97.9 99 98.2 97.5 99.1 98.9 99.6 99.8 99.4 100.5 99.5 99
90 90.4 91.3 90.9 89.9 89.3 87.9 87.4 85.5 85.5 84.5 81.2 80.1 80.9 81 81 81.2 81.2 81.2 81.2 81.2 81.1 81.1 81 81 81 81 81 81.1 81.7 82.8 84.8 84.5 82.3 82.1 82.3 83.1 83.9 84.9 86.8 89.6 91.2 89.9 89.9 88.9 89.2 96.5 98.8 98.9 101.8 106.7 105.6 111.2 107.9 102.8 96.7 90.2 87.6 88.4 93.2 96 97.1 97 95.7 94.4 93.1 93.6 92.9 93.6 92.2 92.7 93.6 94 93.9 93.4 91.5 90.6 92.6 94.7 93.6 92.4 89.6 88.7 90.8 91.2 88.3 89.8 89.1 88.6 94.1 86.6 84.1 84.4 84.8 84 84.3 84.4 84.6 85 85.9 89.9 91.5 92 91.9 91.7 91.6 92.1 91.1 90.1 90.7 91.3 90.3 90.3 91.7 92.3 91.4 90.3 90.3 88.8 87.1 87 85.9 83.4 82.2 81 80.9 79.6 81.5 82.3 82.2 81.2 80.8 80.8 80.5 80.8 82.4 83.7 84.8 85.3 85.7 86 86.1 86.5 87.2 86.7 86.7 86.2 84.8 83.7 83 83.4 82.2 83.7 85.1 86.1 86.4 86.8 87.2 86.4 86.2 86.6 86.6 87.5 89 89.6 90.4 91.2 93 93.7 95 94.8 95.3 97.5 98.1 97.4 97.8 98.8 99.9 100.6 100.7 100.8 101.4 99.8 101.1 100.8 100.2 100.1 99.7 98.5 97.8 97 98.4 99.5 98.8 99.2 99.2 98.3 100.1 100.4 98.1
90.4 90.9 91.3 90.4 89.3 89.2 88.7 87.4 87.3 88.1 86.9 83.4 81 80.5 80.6 80.9 81.3 81.3 81.3 81.3 81.2 81.2 81.1 81.1 81 81 81 81 81.3 81.9 82.1 82 82.4 82.6 82.2 82.3 83.8 85.2 86.4 88.7 90.8 89.6 91.8 91.6 90.2 93.3 97.4 97.9 98.7 106.2 102.6 106.5 112.5 108.7 105.5 101.2 94.4 90.6 88 88.9 92 94.3 95.2 95 93.2 93.9 96.2 95.5 94.5 94.6 92.8 91.9 91.8 92.5 92.5 92.1 90.4 86.4 87.1 89.5 94.3 94.4 94.7 94.9 90.2 89.1 91.8 89.4 87.1 89.3 87.4 84.7 84.9 84.2 84.1 84.3 84.5 84.6 85.3 85.5 87.6 89.2 90.6 90.6 92 93.2 91.1 90 90.5 91.1 92.7 91.5 91.4 92.2 93.2 92.2 91.5 90.7 89.6 88.2 87.7 86.2 84.1 82.5 81.4 81 80 82 82.5 81.6 80.9 80.9 80.9 81.5 80.9 82.2 83.3 83.5 84.5 85 85.3 85.7 85.7 85.9 86 86 86 84.9 84.2 82.8 82.9 82.7 84.1 85.5 86.3 86.8 87.3 87.9 86.9 86 86.3 87 87.7 89 90 90.9 92 93.2 94 94.1 95.1 96 98.2 99.2 98.9 98.8 99.1 100.4 101.4 101.7 101.4 101.5 100.6 100.4 100.8 99.8 100 99 97.8 96.7 97.4 98 98.5 98.8 98.1 98.8 97.6 97.6 97.7 97.6
89.4 89.8 90.6 90.3 89.2 88.9 89.1 88.3 87.7 88.3 88.1 86.5 83 80.6 80.5 80.8 81.2 81.5 81.6 81.4 81.3 81.2 81.2 81.1 81.1 81.1 81.1 81 81.5 82.1 82.2 81.8 82 82.4 82.1 82.4 83.9 86.5 88.7 91.4 91.8 89 92.5 94.2 94.6 98.8 102.3 96.4 95.2 98.4 104.7 106.5 113.4 107.3 105.4 103.2 98 94.5 90.8 87.9 88.2 89.2 94.5 94.1 94.3 95.8 96.9 93.9 93.3 93.1 92 87.2 87.3 89.6 91.9 92.8 89.8 87.3 87.4 86.3 87.4 92.6 95.6 91.4 86.3 92.1 91.1 89.2 89.1 88.4 86.7 85.6 85.6 84.3 84.1 84.4 84.6 84.7 85 85.7 86.2 87.8 88.7 89.8 91.9 92.6 91.1 90 91.5 92.1 93.2 93.2 91.8 91 93.1 93 92.5 92.2 91 89.9 88.5 87.5 85.2 83.6 81.8 80.7 80 81.1 82.6 81.9 81.3 81.3 81.2 81.7 81.4 82.3 83.6 83.9 83.1 83.9 84.2 84.6 85.1 84.5 85 85.7 85.7 84.7 83.5 82.8 83.3 83.1 84.2 85.3 85.9 87 88 89.1 88.3 86.5 87.2 87.8 88 88.7 89.9 92.1 93.2 94.4 95.1 95.5 95.2 96.8 98.6 99.5 99.4 99.4 99.8 99.5 100.9 101.1 100.4 100.5 99.7 98.6 100.1 99.3 99.6 99 97.7 97.5 97.8 97.8 97.4 97.7 98 98.2 96.7 97 96.5 96.3
88.8 87.8 89.8 88.9 89.1 89.3 89.6 89.3 88.6 87.9 86.8 87.4 84.6 80.6 80.6 80.9 81.1 81.7 81.7 81.4 81.4 81.3 81.2 81.2 81.1 81.1 81.1 81.2 81.8 82.1 82.1 82 81.8 81.9 81.9 82.5 83.4 85.4 88.8 91 91.9 87.2 90.1 94.4 97 99.6 101.3 100.7 97.2 95.7 100.4 107 108 104.3 99 100.2 100.4 97.6 93 88 87.5 88.5 92.5 96.2 95.2 97.7 92.3 91.3 90.7 89.7 90.3 87.5 87.1 88.4 91 92.9 88.5 88.5 88 88.4 88.2 86.2 87 87.5 87 91.8 90.6 89.2 89.4 90.2 87.4 85.5 85.1 84.7 84.2 84.9 86.2 86.9 85.8 87 86.5 87.2 90 89 89.8 89.8 89.6 90.1 91.9 93.1 93.4 93.6 92.9 91.9 92.9 92.9 93.6 92.8 91.7 91 89.9 88.8 87.5 84.7 83.5 81.7 81.2 80.6 82 82.1 81.5 81.5 81.5 81.7 81.3 82.3 83.9 83.5 83 83 83.2 83.9 84.2 84.5 84.8 85.1 84.8 83.6 82.9 83.2 83.8 83.5 84.3 85.2 86.5 87.8 88.8 89.7 89.5 87.7 88.1 88.6 88.3 90.5 91 93.2 94.7 95.9 95.5 95.7 96.9 96.7 98.6 99.8 99.2 99.4 100.8 100.7 100.9 100.9 100.1 99.2 99.9 98.1 98.9 99.1 97.6 99.2 98.5 98 96.8 96.5 96.4 96.4 96.9 97.5 97.5 97 96.2 95.6
90 89.3 89.9 89.6 89.7 90.7 90.6 89.6 88.5 85.7 85 85.2 82.9 81.4 80.7 81.9 81.9 82 81.7 81.4 81.5 81.3 81.3 81.2 81.2 81.1 81.1 81.4 81.9 82 82.1 82.1 81.8 81.8 81.9 82.7 84.3 86 87.8 89.7 91.1 87.7 89.5 94.5 96 97.8 97.1 100 100 100.4 100.8 108.1 104.6 104.7 96.3 97 100.8 99.1 93.9 90 89.3 89.3 89.2 93 93.4 93.2 90 89.6 89.1 89.4 90.6 89.4 87.4 87.2 89.1 91 88.7 89.3 89 90 91.3 90.4 87.1 85.9 86.2 90.2 90 88.4 87.9 87.8 87.1 85.9 86.4 86.1 85.6 86.1 87.7 88.2 88.4 89.3 88.2 88.7 91.2 92.2 90.5 89.7 89.1 89.3 91.6 93.5 94.5 94.9 93.8 94 92.7 94.5 94 93.7 92.1 92.6 91.2 90.8 88.6 86 84.3 82.6 81.2 80.1 80.4 81.3 81.5 81.3 81.2 80.8 81 82 83.2 83.6 82.4 82.1 83 83.5 83.9 84.4 84.1 84.3 83.8 82.4 82 82.8 84.1 84.4 85.1 86.2 86.6 87.9 89.6 90.7 90.4 89.8 88.9 88.8 89 91.4 92.8 93.2 95.1 96.5 96.7 96.3 97.5 98 97.8 98.9 97.9 99 100.7 100.7 100.6 100.4 99.8 99.2 99.5 98.8 99.1 98.4 98 97.8 98.2 97.4 96.5 96.2 95.9 95.5 95.8 96.4 96.5 96.3 95.8 95.1
92.4 92.5 92 92 93.1 92.2 90.6 89.5 89.4 84.9 84.3 84.1 82.8 81 81 81.8 82.4 81.8 81.7 81.5 81.5 81.4 81.3 81.2 81.2 81.2 81.2 81.6 81.9 82 82 82.1 81.9 81.8 81.7 82.8 83.3 84.9 86 87.6 88.6 88 90.5 94.2 95.5 97.8 96.6 97 98 98.4 100.5 106.4 107 106.1 98.1 96 99.7 94.6 89.3 88.7 88.7 88.5 88.3 88.3 88.5 88.4 88.3 88.4 88.4 90 90 87.8 87.1 87 88.3 89 87.4 89.3 90.6 91 92 89.8 86.6 87 88.7 90.5 89.3 87.1 89.3 90.1 88.9 87.7 88.2 88.7 89 89.2 88.6 89.3 89.3 89.9 89.2 89.4 90 91.7 91.1 90 89.9 88.6 89.7 92.3 94.4 95.1 94.3 96.6 96.1 95 93.9 94 93.2 93.9 92 91.6 89 87.9 85.3 83.5 81.7 80.9 79.9 80.5 80.9 81.1 81.1 81.1 80.9 81.9 82.8 83 82.8 83 82.8 83 83.4 83.1 83.4 83.6 83 81.9 82.8 83.9 84 84.7 86.2 87 87 88.5 89.9 90.5 90.4 90.9 89.8 89.7 90 91.5 93.6 93.9 95.5 97 97.9 97.5 98 97.8 98.4 97.9 98.2 98.4 99.1 99.1 100.2 100.4 99.2 98.8 99.3 98.2 97 96.8 97.8 97.8 97.9 97.1 96.4 96.1 95.7 95.7 95.1 94.8 95.6 95.9 95.8 95
94.7 94.7 94.2 94 92.5 90.2 89.3 89.2 88.7 85.8 85.9 85.9 84.3 81.6 81.3 82.2 82.9 81.6 81.7 81.5 81.5 81.5 81.4 81.3 81.2 81.2 81.3 81.7 81.8 81.9 82 82 82 81.9 81.7 82.5 82.8 84.7 85.7 87.5 88.7 90.2 90.8 93.8 92.1 93.4 96.6 98.9 100.2 100.6 101.1 104.2 106 107.9 98.6 95.7 97.8 92.3 88.2 88.1 88 88.4 88.6 88.6 88.4 88.6 89 89.2 89.8 90.5 89.4 87.4 86.8 86.9 86.6 87.5 88.7 89.8 91.3 91.5 92.7 91 86.9 86.4 89.6 91.4 89.2 87.5 89.7 91.2 91.2 90.5 90.5 91.3 91.6 91.4 91.4 90.7 89.8 92.2 90.4 89.3 90.2 91.8 91.5 89.7 89.4 89.4 88.7 89.1 91.9 94.4 96.4 95.8 97.2 94.8 95.2 93.3 92.6 93 92.6 91.3 90.3 89.8 88.5 85.2 83.5 81.2 80.4 80.6 80.3 80.2 80.3 80.5 80.5 81.4 82.3 81.9 82.9 82.8 83 82 81.8 83 83.7 83.6 81.9 81.8 83.2 83.8 83.8 85.8 87.2 87.7 88 89.5 90.9 91.5 91 92.1 92.4 91.8 91.4 92.2 94.4 95.9 96.1 97.5 98.3 97.7 98.8 98.9 98.5 98.7 98.1 98.7 99 98.6 99.3 100.5 99.5 98.4 98.8 97.9 97.1 97.3 97.3 96.6 97 97 96.3 96 95.5 95.1 95.2 95.3 95.2 95.2 95.1 94.6
92.7 96.1 93.8 92.8 90.5 89.9 90.1 88 88.2 86.5 85.7 86.3 85.4 83.9 82.2 82.2 82.7 81.4 81.4 81.5 81.5 81.6 81.5 81.4 81.3 81.2 81.5 81.7 81.8 81.9 81.9 82 82 82 82 82.3 82.3 84.8 86.9 88.5 93.5 93.1 89.5 90.3 91 91.5 94.5 98.5 96.1 97.7 100 102.4 106.9 110.1 100.9 98.6 95.4 93.5 88.1 88.6 88.7 88.9 89 88.9 88.5 88.9 89.4 89.8 90.2 89.5 88.8 89.6 88.6 87.1 87.1 88.1 90.5 91.4 91.3 92.2 92.3 91.4 87.3 86.9 88.5 91.1 90.2 87.5 89.7 89.7 90.9 93.9 93.3 94 94.2 94.5 95.1 93.3 94.4 94.5 93.8 92.7 93.1 93.5 92.3 90.4 89.7 89.6 88.8 89.1 90.2 91.5 92.9 95.7 97.1 95.2 95.7 94.9 93 92.1 92.6 91.6 91.8 91.7 89.9 86.2 84.5 83.2 80.7 80.2 80.1 79.1 80.1 80.3 81.2 81.5 81.5 81.1 81.4 81.4 81.9 81.9 82.1 81.9 81.7 82.2 81.6 81.6 82.9 83.7 85.3 86.9 88.2 89.2 89 90.3 91.3 91.7 92.6 92.6 93.1 93.6 93.3 93.9 94.8 96 96.6 97.2 97.3 97 97.6 98.8 99.3 99.1 98.7 98.2 98.2 98.6 99.4 100.6 99.7 97.9 97.5 98.1 97.4 96.5 96.1 96.2 96 96.5 96.2 95.8 95.3 95 95 95 94.9 94.9 94.9 94.4
93.4 96.5 91.7 92.9 92 90.8 88.4 86.6 87.1 85.3 83.8 84.9 84.8 83.1 81.8 81.8 82.1 81.4 81.1 81.4 81.5 81.7 81.6 81.4 81.3 81.3 81.5 81.6 81.7 81.8 81.9 81.9 82.1 82.1 82.1 82.2 82.9 86.1 87.6 90.9 95.2 92.7 90.5 91.3 92.3 92.1 92 93.4 96 96.3 101.6 103.9 107.4 106 103.3 102.2 98.6 92.8 88.4 89 89.2 89.3 89.3 88.6 88.8 89.2 89.7 90.1 90.6 90.8 88.3 89.4 89 87.1 88.1 90.5 91.2 91 91.3 92.1 92.1 91.3 90 88.2 89.3 90.3 90.3 87.1 88 88.7 91.2 94.8 95.6 96.6 98.2 99 99.3 97.3 96.2 96.3 95.2 94.3 93.3 93.4 92.7 91.9 91.2 91.2 91.2 90.6 91.1 92 90.3 90.7 92.5 94.8 97.5 97.2 93.6 93.9 93.9 93.6 92.9 92 89.8 88.1 86.6 85.5 81.6 80.1 80 79.9 79.5 80.2 80.7 80.7 81 81.1 81.1 80.4 80.1 80.9 81.9 81.2 81 81.9 82.1 82.3 82.6 83.8 85.7 87.1 88.5 90.6 90.3 90.7 91.1 92.2 93.7 93.2 93.1 92.5 93.5 94.2 95.4 95.9 96.3 97.4 97.1 97.5 97.5 97.4 97.4 98 98.4 98.3 98.3 98.9 98.9 99.3 98.5 97.3 97.4 97.7 96.7 96.7 96.3 95.5 95.7 95.9 95.9 95.8 96.1 95.7 95.1 94.7 94.5 94.5 94.8 94.3
92.6 93.1 91.5 91.9 88.9 89.3 87.2 84.7 85.2 82.6 81.5 82.2 82.1 81.2 80.9 81 81.2 81.4 83.2 82.5 81.4 81.8 81.7 81.5 81.4 81.4 81.5 81.6 81.7 81.8 81.8 82.1 82.3 82.4 82.2 82.8 84.3 86.8 88.4 91.6 93.6 94.1 92.3 93.3 93.6 92.8 92.2 94.2 93.6 97 102.7 106.3 107.4 105.2 104.7 103.1 101.9 97.2 92 88.7 89.5 89.7 89.9 88.7 89.1 89.5 90 90.4 90.8 91 89.6 89 88.9 90.1 90.8 91.4 90.9 90.8 90.4 91 91.5 91.1 90.2 89.1 88.7 89.2 88.5 87.2 88.1 90.8 92.2 93 96.1 98.3 100 101.2 101.4 100.4 100 98.7 97.3 95.7 94.4 92.5 91.8 92 91.9 92.1 92.4 92.1 92 92.5 92 91.5 90.8 93.3 95.8 98 96.3 94.8 95 94.4 93.6 93.6 91.4 90.2 88.6 86.6 83.7 81.3 79.8 79.9 80.1 80.1 79.7 79.9 80.3 80.1 80 80.4 80.8 81 81.2 81 81.2 81.5 82.3 82.6 82.7 84.3 86.3 87 89.3 91.9 91.5 91.4 91.7 92.9 94.1 93.6 94.4 93.2 93.7 93.9 94.9 95.3 96.2 97.1 97.6 97.9 97.8 97 97.5 96.7 96.9 97.4 97.5 98.2 98.6 97.8 97.1 97.4 97.3 97.1 96.7 96.2 95.4 95.6 95.2 95.5 95.7 96.2 96.2 95.8 95.6 95.1 94.8 94.4 94.3 93.7
87.1 88.6 90.9 89.7 87.6 87.9 84.6 81.1 80.9 81.1 81.1 80.6 80.7 80.8 80.6 80.6 80.9 81.2 83.6 83.3 81.6 81.5 81.6 81.6 81.7 81.9 81.7 81.8 81.9 82 82.3 83.1 82.8 82.6 82.9 84.3 86 88.9 90.4 89.8 91.6 95.1 94 93.7 94.4 92.8 92.8 94 93.8 96.6 103.2 109 109.4 109.7 107.1 104.1 102.4 101.5 98 95.2 93.6 91.2 89.6 88.9 89.4 89.8 90.2 90.6 91 91.2 91.5 92 91.3 91.1 91.7 91.1 90.4 89.6 89.2 89.1 90.3 90.6 89.8 88.9 88.6 88.2 89 88.7 89.8 92.2 93.2 93 96.5 98.7 100.5 102.4 102.9 103.3 104.7 102.9 100.2 98.6 97.2 95.5 93.9 92.7 92.7 92.8 92.7 93 92.5 91.6 91.3 91.2 91 91 93.9 96.5 97.7 95.6 95.9 95 94.3 93.8 93.1 91.3 90 87.9 85.8 82 80.6 79.8 79.9 79.8 79.4 79.6 80.1 79.7 79.1 79.6 79.8 80.2 80.7 81 80.9 81.2 81.5 82 83.1 83.7 86.1 87.4 89.5 92.7 92.4 92.2 92.3 93.3 94.8 96.2 95.4 93.7 93 93.4 94 93.7 96.2 96.8 97.3 97.5 95.9 96 96.6 96.6 95.8 97.2 97.2 97.8 97.7 96.7 96.2 96.2 96.1 96.1 96.2 95.3 94.3 95 95.4 95.3 95.8 96.4 96.4 96.2 94.7 94.8 95.2 95.2 95 94.5
83.6 83.9 86.5 84.5 83.5 82.2 81.2 82 81.6 81.8 82.1 82.4 81.9 81.3 82.7 83.7 83.3 83.1 83.9 83.8 82.5 81.8 82 82.2 82.3 83.1 82.1 82.1 82.1 82.5 83.2 84.4 84.5 85.3 87.7 89.2 90.5 92.7 91.5 92.5 93.8 96.5 95.1 93.9 93.2 92 93.3 95 100.9 99.8 106.3 108 106.1 104.4 105.2 104 101.7 100.8 100.6 98.9 94.5 92.1 91 89.2 89.7 90 90.4 90.8 91 91.2 89.5 88.8 90.4 90 91 90.1 89.4 89.1 88.7 89.1 89.1 89.3 89.4 89 88.8 88.7 89.8 88.9 90.7 92.6 94.7 95.5 97.3 100.2 102.6 103.3 104.7 106 107.4 107.2 104.9 101.9 99.5 96.6 95 93.6 92.8 92.6 92.9 93.5 92.8 91.2 91.6 92.2 92.8 93.5 92.1 95.1 97.5 97 96.1 95.9 95.6 94.5 93.9 92.2 89.9 89 86.5 81.5 80.8 80 80 79.8 79.8 79.1 79.3 79.2 79.6 79.3 79.7 80.3 80.8 80.9 80.9 81.1 82.2 82.4 82.5 84 85.1 87 89.3 92.5 92.4 93.3 93.2 94 94.6 96.3 95.3 94.2 92.6 92.3 92.8 94.7 96.1 96.6 96.7 97.4 96.1 95.2 95.2 96.4 95.6 97.5 96.5 97 96.4 95 95.8 95.4 95.4 95.5 95.5 95.3 94.6 95 94.9 95.4 96 95.4 96.2 96 93.9 93.9 94.4 95.3 95.4 95.4
81.7 81.9 81.4 81.9 82.5 82.8 83.3 83.8 83.6 84 83 83.3 84.8 85.2 85.9 85.7 85.4 85.3 85.3 84.7 83.9 82.7 82.6 82.8 83.1 84.8 85.1 85.3 84.7 85.9 86.9 86.6 86.6 87.6 89.7 91.3 93.5 94.1 93.5 95 94.8 95.1 96.1 94.5 92.1 91 92.6 96.5 102.2 98.7 107.7 111.1 104 100.5 100.4 103 101.9 100 100.6 99 92 87.7 89.6 89.2 89.3 89.6 89.9 90.1 90.4 90.1 89.3 88.9 89.2 89.8 89.6 89.2 89.3 89.9 88.5 88 89 89.5 89.2 88.8 89 89.3 90.7 91.5 92.2 94.2 96.4 97.7 98.6 102.1 105.6 107.8 108.6 107.8 108 109 106.6 104.5 101.9 99.1 96.5 95.7 95.1 93.3 93.4 93.4 92.5 92.2 92.7 93.1 93.8 94.7 93 93.8 96.4 98 98 96.9 96.7 96.5 95.5 92.8 92 91.3 86.7 83.3 82.2 81.5 79.9 79.7 79.7 79.9 78.4 79.7 79.6 79.7 79.7 80.3 80.6 79.9 81.2 82.4 82.8 82.9 83 83.2 84.5 86.1 88.5 91.2 92.1 93.9 93.4 93.8 95.1 94.9 93.9 94 92.4 92 92.1 93.5 95.6 97.5 97.3 97 95.5 94.7 96.5 96.7 96.7 97.4 96.7 95.8 95.1 95.2 95.5 95.5 95.6 95.4 95.2 95.4 95.4 94.6 94.8 95.2 95.7 94.7 95.7 95.8 94.5 93.9 94.1 94.5 95.6 94.5
80.5 80.8 82.3 82.9 83.5 84 83.6 84.2 84.4 84.7 84.5 84 85.6 87.5 87.6 88.4 90.2 90.1 89.5 89.4 87 85.5 84.5 84.1 85 87.6 87.5 87 87.4 89.2 89 89.2 89.7 89.8 93.3 94.7 96.4 97 95.9 97.4 99 97.4 102.5 101.2 97 94 91.4 94.3 97.3 96.9 101.2 105.2 102 99 95.4 94.7 96.3 96.2 97.5 100.3 97.6 91.7 87.6 88.9 89.6 88.9 89.2 89.5 89.5 89.1 88.7 88.6 88.6 89.1 89.4 89.7 89.8 89.9 90.1 89.2 89.1 89.8 90 89.9 89.6 90 91.1 92.1 93.4 95.3 97.1 98.8 101.3 104 106.6 110.5 111.8 109.5 109.1 109.5 108.6 107 102.7 99.8 98.2 96.7 96 94.3 94.5 93.7 92.8 91.8 91.8 92.2 94 94.9 93.1 92.5 95.3 97.6 99.7 98.9 97.3 97 95.9 94.7 93.7 92.2 87 84.1 83.1 82.2 80.3 80.4 80 79.5 79.1 79.6 79.2 79.5 79.8 80.3 79.7 80.3 81.7 82.9 83 83 82.3 83.2 84.7 85.8 88.2 90.5 92.2 92.5 93.5 93.2 94.3 94.9 94.8 93.8 93 92.4 92.8 93.1 95.1 97.1 97 96.3 94.9 95.2 95.4 95.6 96.7 96.6 96 95.4 95.3 95.4 95.3 95.2 95.3 95.5 95.2 95.6 95.4 95.2 94.8 94.7 95.1 95.1 95.1 95.1 95.3 95.1 94.8 94.4 95.4 94.3
80.5 81.3 82.5 83.4 84.1 84.6 83.1 83.7 83.8 84.4 84.9 85.1 86 89 91.9 94.4 95.1 96.3 97.4 95.6 94.3 88.9 87 86.7 91.5 90.8 91 91.9 92.4 92.9 94.4 95.3 97.1 95.3 97.7 101.7 103.5 104 104.7 101.6 103.5 103.5 108.3 108.1 104.6 101 95.5 93.3 92.8 93.6 95.2 95.7 94.1 93.5 91.2 88.1 87.9 87.9 88.1 90.2 94.5 95.4 91.3 89.9 90.3 89.5 88.6 88.6 88.5 88.1 87.8 88.1 88.8 87.8 88.4 89.2 89.9 91 91.9 90.1 89.8 90.2 90.7 90.6 90.2 89.1 90.6 91.6 93.4 95 96.7 99.2 102 105.2 108.4 111.3 112.5 112.3 111.1 112 111.8 110.2 106.1 103.1 100.6 98.4 95.8 95.7 94.9 94.5 93.3 91.8 91 91 93.4 93.8 93.7 93.8 92.7 97.1 99.9 101 99.8 97.5 95.7 95.4 95.2 92.1 89.5 87.6 84.9 83 81.9 80.2 79.4 79 79.2 79.2 79.4 79.2 79.5 79.9 80.1 80.1 80.8 82.2 82.6 82.4 82.7 83.6 83.7 84.6 86.8 89.6 91.5 91.9 94.3 94.2 94 93.9 94.5 93.7 93.3 93 92.3 92.2 94.1 95.2 96.7 95.8 94.8 94.4 94.8 95 96 95.8 95.2 94.3 94.8 95 95 95 94.8 95 95.2 95.6 95.3 94.7 94.6 94.6 94.6 95 95.1 94.3 94.5 94.6 94.7 94.9 95 94.5
80.5 81.1 82.1 83.9 84.7 84.6 85.5 86.7 86.8 86.2 86.6 88.4 91.8 93.4 97.6 99 98.7 99.8 100.7 99.3 98.7 97 94.2 90.9 92.5 93 95.8 96.3 102.8 102.8 100.5 99.2 99.7 101.7 105 104.8 108 105.6 112.4 113.9 114.2 114 111.8 109.3 110.1 109.4 104.4 103.1 98 96.2 92.7 88.4 88.3 88.7 88 87.4 87.2 87.1 87 87 87 89 94.9 92.5 92.5 89.1 90.4 90 87.8 87.6 87.2 87.5 87.7 88.2 88 88.5 89.9 91.5 92.8 90.7 90.4 90.7 91 90.4 89.5 88.7 90.2 91.7 93.5 93.9 96.1 99.6 102.9 105.1 107.8 110.9 112.6 113.2 113.4 113.5 114 111.9 109.2 106 103.2 100.5 97.8 95.4 96.5 94.9 93.9 92.5 90.3 92.3 92.7 93.9 94.5 95.2 93 94.8 98.5 101.7 100.8 99.1 98 96.6 95.7 95.5 92.6 89.5 87 84.5 82.7 81.7 79.8 79 78.8 79 79.1 79 79.5 79.8 79.8 79.9 80 81.5 82 82 82.5 82.6 83.7 84.1 84.6 86.9 89.6 91.4 93 93 94.2 94.3 93.9 93.3 93.2 92.7 91.7 91.8 92 93.8 95.6 95.6 94.5 93.3 93.6 93.9 94.5 93.7 93.9 93.4 93.1 93.3 94 94.7 94.9 95.1 95.4 95.1 94.6 94.4 93.5 93.1 94.3 95.3 95.2 94.2 93.8 94.9 94.7 94.7 94.6 93.1
80.2 81.6 82.4 83.6 85.3 86.1 86.8 88.4 87.8 87.7 90.4 95.6 95.5 98.3 99.3 99.3 99.3 100.1 100.7 98.6 98.6 97.9 96.9 94.5 97.6 98.9 100.8 103.4 105 103.3 104.2 103.1 103.2 104.2 105.5 106.4 106 103.1 113.2 116.3 117.2 116.5 111.6 111.6 113.8 113.1 110.6 110.2 105.9 102.1 95.5 88.8 88.3 87 87 87 87 87 87 87 87 87 87 88 96.9 97.7 95.3 93.5 88.9 88.3 88.6 87.4 87.7 88.5 88.2 88.2 89.3 90.1 90.9 88.8 88.9 90 91.1 90.6 89.5 88.8 90.6 91.7 92.7 92.9 95.5 98.6 102.2 104.6 106.9 109.9 112.6 114.3 114.8 114.4 114 113.3 111.7 108.3 104.6 102.1 99.1 97.6 95.8 96.6 94.2 93 90.5 90.6 92 93 94.3 94.2 92.2 94.5 97.8 100.2 101.9 100.3 99.6 96.6 96.2 97 95.1 93 88.9 85.7 83.4 82.6 81.6 79.8 79.3 78.7 78.7 78.7 79.5 79.6 79.1 79.5 79.6 79.5 79.5 79.8 81.6 82.2 82.6 83 83.4 84.3 86.3 89.2 91.6 92.1 93.4 94.1 93.6 93.5 92.8 91.9 91.6 91.5 91.4 92.6 94.6 95.1 94.1 92.8 93.5 94 94.1 93.8 93.4 93.2 92.8 92.4 93 93.7 94.1 94.5 95 95.3 95 94.9 93.4 93 93.3 94.4 94.6 93.7 94.8 95 95.1 94.5 94.1 93.5
81.9 82.7 82.5 83.2 85 87.1 89.2 91.3 90.8 93.7 95.4 96.4 97.3 98.9 99.3 99.1 99.7 100.3 100.1 100.6 100.3 99.9 99.9 99.1 101.5 104.6 107.1 108 111 110.5 107.9 105.8 106.1 107.3 109 108.2 105.6 104 113.3 117.8 119 117.6 115.7 115.6 113.4 108.9 107.4 106.3 107.6 102.6 97.2 92 90.7 88.1 87 87 87 87 87 87 87 87 87 87 87 92.2 96 96.9 93.2 90.9 89.4 87.4 88 88 88.2 87.9 88.8 88.5 89.5 88.9 88.9 89.1 90.4 89.6 89 88.9 89.6 91.4 92.7 92.7 94.1 98.1 101.7 104.2 108.1 111.5 114.3 115.2 115.1 114.8 113.8 113.6 112.4 108.9 104.7 101.1 99.5 97.8 95.2 97.8 94.5 92.7 90.5 90.4 91.4 92.3 93.7 93 91.9 93 95.2 97.3 101.1 102.5 101 97.7 97.2 96 95.8 92.6 89.4 85 83.8 83.5 81.6 80.2 79.6 79.4 78.7 78.5 78.9 79.2 78.7 79.1 79.2 80 80.1 79.7 80.7 81 81.3 81.8 82.3 83 84.4 86.2 88 90.6 90.9 92.7 93 93.1 92.2 91.8 91.3 91.3 91.1 92 92.4 94.9 93.7 92.6 93.2 93.3 92.6 93 93 93.2 92.6 92.4 93 93.2 93.4 93.6 94.4 95 94.5 94.7 93.5 92.9 93.1 94 95.1 95 95.4 94.8 94.7 93.1 93 94
83.4 84.3 83.3 84.1 85.2 87.7 90.7 93.1 95.4 96.4 97.4 97.2 98.2 98.8 99.2 99.2 101.8 102.3 102 101.5 101.7 102.3 102.7 103.9 105.6 109.4 112.3 113.2 111.5 110.6 110.1 108.6 108.3 110.1 112.5 110.8 106.5 103.5 113.9 118.7 119.7 121.5 122.1 120.1 115.5 111.9 109.1 104.9 98.8 95.8 94.4 89 89.1 90.9 90.6 89.2 87 87 87 87 87 87 87 87 87 87 87 90 90 90.4 90.5 87.7 88 87.9 87.8 88 88.1 88.5 89.7 90.5 89 88.7 90.6 89.5 88.5 89.4 89.8 91.1 92.7 93.5 95.3 98.6 101.5 104.2 108.5 112.1 115.4 115.7 116.2 115.1 113.5 113.5 113 109.3 105.5 101 98.6 98.1 97.1 98.8 95.3 93.1 91.2 91.1 92.1 92.6 93.4 93.5 91.4 92.9 95.3 96.7 100.1 103.3 101.4 98.9 97.5 96.7 95.9 94.6 89.9 85.8 83.2 83.3 83.2 81.5 81.1 79.5 79.3 79.1 79.6 79.1 78.5 78.9 80.2 80.1 80.3 79.8 79.4 79.7 80 80.4 81.2 82.5 83.1 85.2 86.9 87.7 89.7 91.3 93.5 92.9 92.7 92.8 92.1 90.8 92.6 91.3 91.7 94.3 94.4 93.5 93 92.6 92.4 92.9 92.6 93.2 93.1 92.9 92.8 93.1 93.1 93.7 94.5 94.4 94.8 94.3 94.1 93 93.3 95.1 96.6 97.5 96.2 95.8 94.7 93.8 93.5 93.4
