ncols 200
nrows 82
xllcorner 320000
yllcorner 634150
cellsize 50
319.2 323.6 328.2 329.6 329.7 329 327.2 323.4 317.7 313.6 310.3 310.4 312.3 313.8 313.9 313.8 314.3 314.5 313.3 312.4 309.2 304 299.8 295.5 289.1 278.6 267.7 259 250.1 241.1 234.1 226.8 220.6 214.3 209.2 204.4 200.6 198.5 196.7 196.1 196.5 197.2 197.5 197.4 196.7 195.6 193.4 190.9 187.7 183.8 180.7 179.8 179.1 179.7 181.2 182.2 184.2 185.1 186.5 188.3 189.8 192.5 194.9 198.4 204.5 210.9 219.8 229.1 239.8 251.7 263.2 275.7 285.8 294.2 301.7 311.9 322.9 338 353 362.1 371 368.9 364.6 353 339.2 325.6 312.7 299.9 286.6 274.5 263.3 253.8 244.8 237.4 232.2 226.8 220.8 214 207.5 199.3 192.3 188.2 186.6 184 178.8 174.7 173.5 173 172.6 172.7 173 174.9 179.5 183.6 185.1 184.4 187.6 190.6 188.9 190.7 187 196.2 200.5 205.6 211.3 218.9 226.8 234.5 240.4 245.2 250.3 255.7 261.9 267.8 275.3 285.5 296.1 307.9 313.9 309.3 299 288.1 275.6 261.4 248 235.5 225.4 217.6 211.5 206.5 202.2 198.8 196.1 195.2 194.3 195 195.8 194.9 192.1 189.1 184.9 177.3 179.7 183.3 186.8 188.5 188.7 188.7 190.8 193.3 194.8 196.9 197.7 197.5 198.4 197.6 196.4 194.6 194.8 194.1 193.3 191.6 189.4 185.8 180.5 172.3 170.4 186.3 205.1 223.4 238.3 251.6 263.6 272.7 279.5 280.7 278.2 268.8 258.2 247.5
322.9 331.4 335.6 336.6 336.7 335.7 333.7 329.5 321.8 315.3 311.6 310.3 310 309.7 309.1 307.3 305.4 304.5 303.3 302 299.7 295.4 290.2 285.8 280.6 271.3 261.5 251.7 243.7 236 229.3 223.1 216.8 210.6 205.7 201.9 199 197.6 196.3 195.2 195.3 194.8 194.7 194 191.9 190.8 189.8 186.6 183.5 181.1 180.3 180.2 181.1 183.7 186.3 187.4 188.2 188.9 190.9 193.6 196 198.5 201.4 205.7 213.1 221 230.6 241.2 254.3 271.8 284 291.1 297 304.2 311 318.5 329.7 342.7 358.4 366.2 369 365.5 358 346.8 334.3 321.5 305.6 290.3 276.5 267.5 259 251.8 246.1 241.4 237.3 231.6 224 216.2 208 199.4 192.2 188 184.8 182.5 177.9 174.7 174.1 174 174 174 173.8 175.6 179.9 184.8 187 187.1 187.7 191.6 194.1 195 193.9 192.2 192.2 192.2 198.7 206.3 215.8 225.2 232.9 239.2 245.3 253.1 260.5 267.4 275.5 284.4 297.5 308.7 310.2 302.5 295.8 286.1 272.2 258.8 247 236.3 227.4 219 212.2 207.7 204.7 201.5 199.2 198.4 197.2 198.1 198.1 196.9 193.7 190.6 186.2 179.6 182.9 187.4 190.2 192 192.8 193.9 195.8 199.8 204.2 207.8 210.9 214.1 216 215.1 212.4 209.3 208.2 207.6 204.9 202 198.5 192.8 185.7 177.1 170.6 186.5 205.4 222.9 236.8 249.8 262.4 272 279.6 282.9 280.3 271 260.7 250.3
327.2 337.1 340.6 342.8 342.9 341.7 339 332.4 322.1 312.3 305.3 302.3 300.8 301.5 300.1 296.7 294 291.5 289.5 287.8 286.2 282.9 278.5 273.5 268.4 261 252.4 243.2 236.3 230 223.8 218.1 212.6 207.1 203.2 200.1 198.2 197.2 195.9 194.6 193.6 192.9 191.7 186.6 184.7 185.7 183.3 182.4 182.4 181.4 180.7 183.4 186.9 190 191.7 193.4 193.3 194.1 195.7 199.3 202.9 205.9 209.2 214 222.2 231.4 242.2 253.5 271.6 288.9 298.6 302.9 305 310.7 316.3 322.6 334.4 347.8 359.6 366.8 367.3 362.2 353.9 343.6 332.5 319.5 304.4 291.1 279.7 269.6 261.6 257.1 253.6 249.3 244.1 237.4 228.8 219.5 210.2 199.8 192.6 187.8 184.2 179.3 176.5 175.3 174.9 175.1 176.6 177.2 177.6 178.7 180.6 184.6 187.2 188.1 190.4 194 196.5 197.8 198.5 196.5 192.2 192.2 192.2 197.3 203.3 215.6 226.4 234.3 242.5 250.6 258.9 267.1 274.9 287 300.6 309 309.7 304.9 294.2 282.7 270 253.5 245.7 237.4 229.6 221.7 214 208.8 206.1 203.8 202.5 201.3 200.2 200.3 200.3 198.5 195.8 192.3 187 183.1 185.4 190.2 193.1 195.2 197.2 199.1 200.3 204.3 210.2 215.9 222.1 228 231.7 232 228.8 225.1 223.5 222.7 220.2 214.7 208.7 199.2 190.9 183 171.3 185.9 204.5 221.8 236.5 248.9 260.4 270.1 278.1 282.2 281.1 272.5 262.9 252.6
328.2 338 344.6 347.1 344.7 340.6 335 327.1 317.3 306.3 296.7 291 288.4 288.5 288.1 284.7 281.5 277.8 275.1 273.3 270.4 266.3 262.3 257.4 252.8 246.6 240 234.3 228.7 223.7 217.9 213.6 208.9 204.6 201.4 199 197.3 196.3 195.2 193.4 191.9 190.9 188.4 185.1 184.3 183.6 182.8 182.7 182 181.8 181.4 190.6 192.1 196 198.6 200.6 200.5 201.3 203 206.9 210.8 214.3 218 224.5 233.6 243.1 255.5 267.9 285.4 300.9 309.7 313.6 312 314.7 319.1 324.3 334.4 346.8 357.4 364.6 366.8 362.9 355.3 346.4 335.6 325.2 312.8 300.6 288.5 276.7 269.5 265.7 262.5 257.6 250.9 243 233 221.9 210 199.6 191.9 187.3 184.5 179.5 177 176.2 175.8 177 179 180.6 181.3 182.4 183.4 184.8 186.7 190 193.9 196.9 199.8 201.1 201.4 200.8 200.7 198.9 195.2 195.7 197.9 203.5 219 230.9 240.1 249.6 259.4 267.9 277 289.7 305 316.8 319.8 312.7 300.5 290.4 277.3 261.8 248.1 238.2 230.7 222.6 214.7 210 207.7 206.4 205.7 204.6 203.2 202.9 202.3 200.1 197.2 193.8 190.7 186.9 185.2 190.8 194.2 198.5 200.8 203 204.1 207.8 214.4 221.2 228.3 235.2 241.3 242.9 242.5 240.2 239 238.8 234.1 227.1 218 205.4 193.8 186.4 172.6 185.7 203.9 221.4 235.8 248.5 259.9 269.2 276 281.7 282.1 274.4 265.3 255.4
326.4 335.7 343.2 346.2 341.9 334.8 328 319.6 309.5 297.5 287.9 281 277.6 275.8 275.3 273.5 268.7 264.4 261.1 257.2 253.2 248 243.9 241.1 238.5 234.5 230.7 227.5 222.6 218.3 213.4 209.6 206.3 202.8 200 197.6 196.4 194.9 193.1 191.5 190.2 188.4 186 184.9 184.3 183.7 183.3 182.5 182.5 182.1 186.3 193.3 196.3 201.7 207.2 208.9 208.8 209.8 211.6 215.7 219.9 223.8 229.1 237.5 247.5 256.7 268.6 282.1 298 309.7 316.8 320.4 318.1 317 320.7 321.6 330.1 341.6 353.3 363.3 368.6 366.1 359.6 352.8 343.3 332.6 321.3 311.2 300.6 290.1 281.4 276.5 271.4 264.9 255.5 245.7 234.2 222 209.1 200 192.8 187.4 184.6 180.4 178.2 177.2 176.5 177.5 179.9 181.6 182.3 184.4 186.5 187.1 187.2 189.7 195 200.2 202.8 204.2 205 204.6 204.9 203.6 202.3 198.3 197.6 199.8 215.7 231 242 251 261 271.4 283.1 294.9 310.1 322.5 325.9 317.8 308.4 298 284.9 269.6 254.4 243.1 233.2 224 215.9 211.8 210.3 209 208.7 207.6 206.6 206.6 204.9 202.3 199.4 196.2 193.5 190.1 185.1 190.3 195.8 201.2 204 205.9 208.6 212.1 218.4 225.1 231.9 239 245.3 250.4 254.1 253.9 254 251.7 244.5 235.4 224.7 211.1 197.6 188.5 174.8 186.5 203.5 220.3 235.4 248.7 259.8 268.9 276.5 282.6 283.6 276.8 268 258.4
326.2 334.5 340 342.7 337.1 329.1 320.9 311.4 300.7 288.4 279.6 272.8 268.5 264.1 261.9 259.5 253.6 249.5 245.5 242.1 238 233.9 231.3 230.5 230 228.7 225.2 221.5 217.1 213.4 209.5 206.4 203.2 200.6 198.4 196.4 194.5 192.7 191 189.9 188.6 186.5 185.9 184.9 184.7 184.3 183.9 183.1 184.7 190.1 194.4 198 202.5 208.3 216.1 217.5 217.9 219.5 222.1 226.6 232 236.1 242.2 253.5 264 273.5 284.1 295.8 306.3 314.1 318.1 319.3 319.2 313.2 312.9 315.9 324.6 336.6 349.9 362.6 373.5 374.3 367.8 362.1 354.9 346.6 336.4 325.4 316.4 307.6 298.1 288.4 279.9 269.9 258 245.9 233.4 221.6 209.7 200.2 193.5 188 185.1 182.1 179.8 178.1 177.3 177.6 179.8 181 182.7 185 188 189.3 189.8 192.2 196.4 202.9 206.5 208 209.1 210.1 209.6 208.4 207 205.1 197.7 199.4 215.4 232 245 256.4 266.9 279 291 302.2 314.2 327.7 332.1 326.5 317.4 305.2 291 278.9 263.4 248 235.4 225.3 218.5 215 213.4 212.3 211.8 210.8 210.1 210.1 208.1 205.3 202.1 199.4 196.7 194.1 190.8 190.1 196.5 202.8 206.7 210.1 213.4 216.6 222.3 228.6 235.4 242.7 250.5 257.1 263.5 266.4 266.8 261 252.5 242.1 230.8 216.5 200.5 191.6 176.1 186.9 202.5 218.9 234.7 248.3 259.4 268.3 276 283 284.4 278.9 271.2 260.7
327.7 333.7 337.9 337.6 331 321.9 311.3 301.1 290.9 279.9 271.2 266.1 261.7 257.3 253.7 250.4 246.1 242.3 239.1 235.7 231.8 229.4 226.9 224.9 222.1 220.6 219.1 216.8 213.1 209.6 206.6 203.6 200.7 198.4 196.3 194.3 192.2 190.6 189.3 188.3 186.8 186.1 185.6 184.9 185.4 184.7 184.2 190.1 193.1 196.1 198.7 203.4 209.8 216.4 223.3 226.7 228.4 232.5 237 240.9 245.7 251.1 258.8 269.2 279.5 289.3 300.5 306.8 312.1 317.1 316.7 312.1 308.2 304.3 304.7 308.5 318.3 332.2 345.7 358.9 373.3 382.5 378 373.7 368.2 362.5 354.3 345.1 334.9 324.4 313.7 301.7 287.4 274.2 258.7 243.6 231.3 220.4 209.7 200.5 194 189 186.5 183.8 182.1 179 178.2 178 179.5 181.6 183.8 185.4 188.4 191.1 193.4 196.3 200.5 207.2 210.7 212.9 215.3 216.5 214.9 213.7 212 209 198 200.5 214.4 231.9 247.4 261.6 274.6 287.5 298.9 308.3 318.6 334.2 340.4 336.9 328.7 315 301.2 288.1 272.2 255.4 240.6 229.8 224 220.7 218.3 217.2 215.9 214.6 213.7 213.1 211.8 208.9 206.1 203.2 200.3 197.7 195.5 193.6 195.7 203.2 208.4 213.4 217.7 221.3 225.7 231.9 238.9 247.4 256 264.2 271.3 275.2 273.8 266.9 259.1 248.4 237 223.7 206.9 197.7 184.6 183.1 198.9 216.6 232.8 246.4 258.3 267.6 275.2 282.5 284.7 280.3 272.9 262.3
324.5 331.2 334.1 330.2 322.9 310.7 299.3 290.1 281.1 272.5 266.3 262.1 258.7 256 252.5 249.1 245.1 241.2 238.7 237.5 235.9 233.9 233.5 231.2 226.5 220.4 214.9 212.4 209.5 206.6 204 201.4 199 196.7 194.4 192.3 190.4 188.7 187.9 187.1 187 186.6 186.1 185.8 185.6 185.1 189.1 195.3 198.2 201.3 204.5 208.2 217.7 227.4 234.9 238.6 243.6 249.2 254.4 260.6 264.7 268.9 277.7 286.4 297 305.7 313 316.6 316.2 314.4 310 302.2 296.2 294.8 295.6 300.5 311.2 327.1 341.3 354.4 369.3 382.1 384.7 385.1 383.4 379.4 373.1 365.4 354.5 339.4 326.4 311 291.7 273.5 255.5 240 228.4 218.3 208.1 200.6 194.2 189.4 187.5 184.4 181.7 179.7 179.1 179.4 180.7 182.6 185 186.8 190.1 193.1 197.3 201.1 205.9 212.1 215.7 219.7 221.5 222.9 222.8 220.2 217.4 212.9 201.9 202.6 215.3 232.5 248.8 263.6 279.7 295.3 308.3 318.2 326.2 340.4 350.4 348.5 337.9 325.4 312.8 298 282.4 268.1 253 241.2 233.2 228.1 225.4 223.3 221.7 219.9 217.9 216.9 215.6 213.2 210.2 207.3 204.4 202.1 200 197.8 196.6 203.6 209.7 215.4 221.3 226 230.2 236.1 243.2 251.7 261.8 270.8 277.5 279.2 277.4 271.4 264.1 254.4 242.7 230.5 214.7 204.7 193.9 181.2 194.5 212.8 229 243.3 256.1 266.2 274.5 282.7 286.9 282.5 275.3 264.7
325.2 331.6 330.2 324.4 314.9 301.7 291.1 283 275.6 271 268.2 266.1 262.8 260.1 256.7 252.6 248.9 245.9 243.9 243.2 241.2 240.5 239.1 236.7 229.4 219.9 213.2 209.7 207 204.6 202.4 200.2 197.9 195.7 193.4 191.1 188.2 188.5 187.5 188.4 187.7 185.8 186.3 185.5 186 189.4 194.7 200.5 203.8 206.8 209.9 214.9 226.4 238.1 248.1 254.2 262.2 271.4 279.4 286.6 289.6 288.9 294.8 304.5 313.7 317.9 322.7 324.1 318.7 308.5 299.6 291.2 285.8 284.6 288 294.5 307.1 323.8 340 352.9 367.9 380.6 388.3 394.4 396.5 394.8 389.8 382.1 368.8 351 335 314.9 292.6 271.8 252.7 236.7 225.4 216 207.1 200.2 194 189.5 187.2 183.7 180.7 179.7 179.7 181 182.1 183.7 186.6 189.7 193.5 196.8 201.5 205.8 211.1 217.2 223.2 226.5 228.2 229.5 229.2 226.8 223 217.3 208.7 203.4 216.4 232.2 248.9 265.5 284.1 300.9 320.6 332.7 339.7 349.2 360.2 357.1 347 338.4 326.1 311.8 296.1 281.1 267.6 256.6 246.2 237.5 233 231 228.4 226.1 223.5 221.3 219.5 217.7 214.9 212.4 209.6 206.6 204.5 202.2 200.2 205 211.4 218.1 224.5 230.8 235.4 241.2 248.6 256.9 266.3 275.1 280.4 281.3 279.7 275.1 268.6 259 248.2 237 225.3 213.2 201.5 188 190.8 207.8 225.3 240.4 254.2 265.7 274.9 283.3 289 285.4 278.2 269.4
328.8 331.2 325.9 317.6 307.1 295.1 285.8 279.8 275.9 274.5 272.4 270.1 268.1 265.6 261.5 257.2 254.1 252.1 250.4 249.4 246.9 246.5 245.9 240.6 230.9 218.3 211.5 208 205.5 203.3 201.2 199.1 196.9 194.8 192.7 190.5 189.2 188.3 187.3 186.7 186.5 186.7 186.6 187.4 188.8 194.4 200.9 208.5 213.4 214.8 215.9 222.8 236 251.6 266 274.7 285.3 298.9 309.7 314.8 314.4 311.6 313.2 321.7 327.9 328.4 328.7 324.5 313 301.4 290.9 281.8 276.6 276 282 293.7 307.9 325.5 342 355.9 372.8 385.4 394.1 400.2 404.5 403.4 399.1 390 376.4 358.7 337.6 314.8 291.6 269.3 249.6 233.1 222.5 213.4 207.1 199.2 193.6 189.2 185.1 182.2 181 180.1 181.4 182.6 183.1 185.2 188.9 192.3 196.9 202 206.5 211 216.1 222.6 229.3 233.5 235.5 236 235.3 233.3 228.7 221.1 208.6 203.9 216.3 231.9 249.2 266.7 288.3 308.5 334.2 347.2 353.5 361.1 368.5 367.1 361.4 353 340.5 329.4 313.4 297.6 285.1 272.8 260.3 250.2 243.3 239.2 235.8 232.7 229.6 226.8 224.7 222.6 220 217.6 214.8 211.8 208.6 206.4 204.4 208.3 214.8 222.4 228.7 235 240.8 246.9 254.4 262.5 270.6 278.3 283.2 285.5 285 279.5 272.5 263.1 252.8 242.6 232 221.4 208.6 194.1 185.5 203.6 221.4 238 253.3 265.9 275.3 284.1 290.7 287.2 281.2 274.6
331.4 327.4 319.1 311.4 301.6 290.8 284 280.8 279.4 278.8 278.2 278.7 278.8 276 272.6 268.6 265.3 262.1 257.8 256.8 254.8 253 252 242 230.6 218.7 211.1 206.8 204.3 201.7 199.6 197.5 196.1 194.1 192 189 189.6 189 188.1 187.3 187.6 187.2 187.1 188.2 193.9 200 208.7 217.6 223 224.4 224.3 231.9 246.4 263 282.4 296.9 307.1 319.2 334.1 341.3 338.3 334.7 333.8 336.5 336.5 333.7 328.7 320.2 306.8 293.7 283.3 273.9 267.4 268.9 279.2 295 313.6 330.9 346 360.3 378.5 394.6 404.6 410.3 410 405.9 399.4 391.3 380 358.7 336.1 312.9 289.3 267 246.8 230.3 219.4 209.9 202.7 197.6 192.3 187 183 182.2 181.4 180.8 182 183.5 184.4 186.6 190.3 194.4 199.6 205.6 211.9 217.1 221.8 228.3 236.1 241.7 243.3 242.9 241.1 238.5 233.1 225.5 213.7 203.4 214.2 231.1 249.1 268.9 291.6 319.2 343.3 360.5 368.3 375.5 378 379.3 373.6 364.4 354.3 344 329.3 314.8 301.7 287.6 274.1 262.8 253.2 248 243.1 238.6 235.5 232.7 230.5 227.6 224.7 222.1 219.4 216.7 213.1 210.8 208.9 211.4 218.2 226.8 233.7 240.7 246.6 253.4 261 268.1 276.3 284.4 289.4 291.2 289.6 283.7 276 266.8 256.6 246.3 237 226.8 215.4 199.8 187.9 201.9 220.3 237.3 253.1 267.2 276.9 285.6 291.5 289.7 285.7 280.3
331.2 322.3 312.8 305.5 297.4 289.3 286.9 284.5 283.8 285.9 289.1 291.6 291.9 289 285.8 280.1 274.5 270.9 266.7 264.6 262.4 261.2 257 244 228.3 217.7 210.5 205.7 202.5 200.1 197.8 196.3 195.1 193.2 191.5 190.5 189.8 189.4 188.9 188.4 188.6 188.6 188.9 192.8 198.5 207.7 219 227.8 232.7 233.6 233.1 238.5 255.8 274.2 294.7 314.5 324.1 337.2 352.9 359.2 356 356.6 351.7 349.8 345.6 334.8 326.4 314.7 300.2 287 275.5 265.8 259.2 263.2 275.1 292.6 310.2 329.3 347.5 365 383.6 398.9 409.2 413.1 411.2 407.1 397.4 383.7 370.3 352.1 331 308.6 285.3 263.9 243.7 226.6 215.5 206.5 200.3 194.9 189.7 184.9 183.6 183.5 183 182.5 182.5 183.7 185.6 187.8 191.5 197 203.1 209.5 215.9 221.6 227.5 235.5 243.4 249.3 251 249.8 247.3 243.4 238.2 229.6 217.2 205.7 210.3 229.4 249.5 269.1 294.5 321.3 347.8 368.2 382.8 386 387.1 387.4 382.6 375.8 369.8 357.1 342.8 330.3 316 300.4 285.4 272.7 262.8 255.8 250 245.4 241.5 238 235.3 232.2 229.3 226.6 223.9 221.3 217.7 215.3 213.1 215.1 222.9 231.8 239.6 247.2 254.2 261 267.5 274.7 284 291.9 295.4 296 293.2 285.7 277.9 269.6 259.3 248.5 239.5 230.6 220.1 205 190.3 201.6 219.6 238.1 254.3 269 280.5 289.2 294.6 296 292.9 288.4
322.9 316.1 308.9 302.2 297.6 294 290 289.1 292.9 299.4 304.1 305.9 306.4 303.1 295.5 288.2 282.2 278.4 274.9 273.3 272.1 271.7 261.1 242.2 224.4 216.5 209.7 204.5 201.2 198.2 196.6 195.5 194.3 192.4 191.6 190.8 189.9 189.6 189.3 190.3 192.5 192.6 193.3 198.1 206.7 217.6 229.1 238.4 244.7 244.6 242.9 245.3 264.3 283.2 303 324.7 335 348.4 364.4 370.7 372.4 371.8 366.3 361.5 353.9 340.2 325.1 310.2 295.6 280.7 268.1 258.5 252.2 254.6 267.1 283 299.4 318 336.9 357 372.6 387 394.5 399 400.2 395.2 384.1 369.8 354.6 340.5 321.5 300.5 279 259.3 239 221.8 211.3 202.7 197.2 192.6 187.8 185.7 186.5 185.8 186.4 186 185.1 185.7 187 189.5 193.5 199.8 206.5 213.3 219.6 226.3 235 245.1 252.2 257.7 260.5 258.8 254.5 249.3 242.8 232.6 219.8 209 207 226.1 246.4 267.8 294.7 318.3 341.9 368.3 387.5 393.8 393.2 393.3 393.4 391.5 386.2 370.6 356 342.7 327.1 310.3 294.9 281.7 272.1 264.6 257.3 251.5 246.7 242.6 239 236.5 234.1 231.7 229.3 226.6 222.3 218.6 216.7 218.8 227.2 237.3 247.4 256.1 262.9 269.7 276.3 283.9 292.7 298.2 299.6 297.7 294.1 286.9 279.9 271.7 261.5 250.9 240.9 232 221.5 208 191.6 200.7 219.5 238.8 255.6 270.4 284.1 294.7 301 303.4 300.4 294.7
317 313 309.3 305.2 301.8 298.6 295.9 298.9 306.2 313 318.7 321.6 320.1 313 303 295.4 289.8 286.1 283.9 283.5 284.4 279.6 258.6 235.8 222.6 215.9 209 203.4 199.5 196.5 195.6 194.8 193.6 192.1 191.4 191.5 190.5 190.2 190.8 193.5 195.7 197.7 199.2 205.8 214.8 227 239.1 250.7 258 257.6 253.5 252.3 269.1 288.3 306.2 327.4 341.9 355.9 370.6 379.8 387.2 382.4 375.1 369.1 357.3 345.1 324.3 307.6 290.4 275.2 262.6 253.6 247.1 247.4 255 269.3 285.6 301.8 318.8 334.7 349 361.3 369.8 376.3 378.7 375.1 364.7 349.9 337 323.8 308.1 288.6 269.7 250.7 229.8 216.1 206.5 199 194.2 189.8 186 187.6 188.4 189.3 189.8 188.6 188 187.8 188.9 192 196 202.5 209.6 216.6 223.6 231.9 242.6 253.9 261.3 267.4 271.1 270.1 263.6 255.3 246.2 235.1 223.1 213.4 208.5 221.2 241.3 261.9 286.3 312.5 338 367.1 387.7 395.2 396.9 398.2 406.1 405.3 399 384.9 367.9 351.7 336.3 320 305.5 294.2 284.9 275.4 266.9 260 253.2 248.4 243.8 241.5 239.4 237.5 235.5 233 227.8 222.9 219.9 223.7 232.9 244.8 256 265 272 278.7 285.9 293 300.4 303.9 302.2 299.6 295.8 288.7 280.6 271.6 261.6 249.6 240.9 232.4 222.2 209.7 197.2 199.1 218.1 237.6 255.8 271.6 285.4 297.4 306 309.6 305.9 299.8
317 314.7 311.5 308.4 306.1 304 305 311.3 319.8 328.7 334.6 334.2 328.4 321 310.2 302.3 297.7 296.1 295.7 297.5 295.4 278 255 233.2 221 214.1 207.2 201.4 197.6 195.5 195.2 194.5 192.9 192.3 191.8 192.4 191.1 191.9 192.7 196.7 199.7 202.6 205.5 212.5 222.9 236 247.5 262.4 269.1 271 267.4 260.9 269.7 288.8 306.2 325.6 349.7 361.2 374.8 386.6 395.8 390.9 380.4 374.9 362.9 347 326.3 305.6 288.1 272.9 261.8 251.2 244.9 241.5 245.6 255.5 269.5 284.4 298.9 312.6 324.2 335.4 344.5 350.7 353 351 341.5 330.9 319.2 305.9 291.6 275.6 257.8 238.1 221.5 210.2 202.3 195.5 190.4 186.9 187.4 188.2 189.4 190.2 190.4 190 190.2 191.3 192 194.8 198.7 205.4 213.6 221 228.7 239 251 262.6 272.7 280.7 287.7 290.2 277.2 262.5 250.3 238.8 227.3 218.1 210.5 214.9 234.6 253.9 278.7 307 332 359.9 377.5 388.2 393.6 398.8 409.6 416.2 409.1 398.3 381.6 360.8 344 331 319.7 311.4 301.9 290.4 278 269.2 261 254.6 249.5 246.9 244.4 243.4 241.9 238.9 233 226.5 223.5 229 240.1 252.6 263.8 273.3 280.4 287.2 294.3 302 308.6 308.1 304.7 302.1 296.8 287.6 278 269.7 259.4 249.2 240.8 232.3 222.1 210.6 201 198 217.6 236.6 256.4 273.1 286.6 298.8 307.7 310.5 307.8 302.6
320 318 314.5 312.5 310.9 311.7 317 326.6 340.2 346.7 345.7 341.7 335.9 329 318.6 311.3 307.4 310.2 312.7 313.4 300.9 273 250.5 230.4 219.2 212.4 205.8 199.8 196.5 195.7 195.1 193.8 192.5 192.3 192.4 192.4 192.6 193.6 197.6 200.9 204.2 207.3 212.9 220.1 228.9 242.4 256.4 273.4 281.6 285 282.4 275.4 275.3 289.9 311.7 329.9 349.1 366.1 382 391.6 399.4 395.4 382.6 376 368.1 348.9 327.5 304.6 287.4 272.7 261.7 252.5 246.4 238.8 238 246.9 258 268.6 281.9 292.9 302.9 312.1 320.8 327 329.4 328.1 321.8 313.7 301.3 288 274.7 260.6 242.9 226.5 213.6 204.7 198.5 192.2 188.5 188.1 189.1 189.2 189.8 190.1 190.3 190.4 192.8 194.5 196 198.3 201.5 209.7 218.1 227.1 236.9 248.3 261.6 274.8 286.2 297 306.4 311.3 294.6 274.4 254.3 242.2 231.4 222.1 212.5 212.3 226.1 247.7 274.5 300.9 322.9 347.4 362.9 372.3 381 392 404.5 416.3 415.1 406.1 389.7 370.6 354.2 344.2 337 328.9 319 308.5 294.6 278.9 269.5 261.9 256.9 253.7 252.1 251 248.7 244.9 237.4 230.6 227 235 247 259.7 271.2 280.9 288.6 295.3 301.7 308.7 312.2 310.2 306.5 302.6 294.8 283.9 275.2 267 257.4 248.5 241 232.1 221.1 214.4 206.3 200.9 217.6 237.4 257.2 274 287.7 299.6 305.5 306.9 306.3 302.9
323.8 323.5 321 318.9 318.5 323.4 334.8 345.5 355.6 357.3 354.1 348.8 342.2 335.1 326 320.2 319.6 322.8 324.5 319.3 301.3 270.2 246 227.6 217.6 211.1 204.5 199.2 196.4 195.6 194.2 193.1 192.9 193.1 193.3 193.1 193.9 195.8 200.3 205.5 211.2 215.6 221.3 225.6 234.8 250.4 265 282 291.4 296.5 299.6 293.2 285.3 296.6 316.6 336.9 354.3 368.3 382.7 392.5 401.4 394.8 375.1 360.9 358 345.9 328.8 308.2 288.7 274.7 263.5 254.9 248 238.6 233.1 239.3 248.5 258.4 269.2 279.1 289.2 299.7 308.3 315.2 318.4 316 310.9 300.3 285.9 272.8 259.4 244.6 229.1 217 207.3 200.5 195 189.1 188.9 189.8 190.5 190.6 190.6 190.7 190.9 192.6 195.2 197.6 199.8 202 207 215.1 224 234.2 245.2 258.4 272.3 287.6 302.4 315.7 322.8 327.2 307.8 284.4 260.5 245.8 235.1 225.9 218.3 212.9 214.5 239.6 262.6 287.7 310 330.6 343.4 352.6 364.4 377.7 392.9 405.9 413.1 408.4 396.6 380.8 366.4 359.6 353.2 344.5 333.6 324.8 309.1 291.7 279.2 270.1 265.1 262.7 261 258.2 255.1 249.2 240.9 233.9 230.7 240.6 252.4 265.1 278 288.3 297 303.4 309.7 313 312.3 308.9 305.5 300.5 291.5 281.7 273.5 265.4 256.6 248 241.1 232.4 225.2 222.2 211.9 201.1 216 236 255.1 271 285.3 295.3 298.7 301.2 302.5 302.3
331.2 331.8 331 329.8 331 338.6 350.5 357.9 364.3 366.4 361.6 354.7 347.5 340.3 333.9 330.3 326.7 332.4 331.5 320.7 294 268.6 242.7 225.5 217.1 209.9 203.2 198 196.2 195.1 193.8 193.6 193.3 193.6 194 194.4 195.8 197.8 203.4 211.5 219 225 229 231.5 238.2 253.2 273.2 288.7 299.3 306.3 311.4 309.2 299.6 305.5 325.4 344.2 359.8 372.7 384.5 396.8 391.8 375.2 355.9 337.7 332.9 328.1 315.9 302.5 288.5 278.6 267.5 254.5 244.4 236.6 230.6 232.4 239.7 248.2 258.4 270.2 280.4 291.8 302.9 311.6 315.3 312.4 304.5 290.4 274.1 259.4 244.8 230.8 219.6 210.3 203.1 196.6 191.6 189.6 191 191.3 191.8 191.9 192 192 193.4 195 197.7 200.9 203.8 206.6 212.7 220.5 229.1 240.4 253.1 267.6 284 302 319.7 334.4 338.4 334.7 316.5 290.7 266.8 250 238.6 230.3 223 214.7 215 227.2 248.7 271.2 292.5 309.3 322.2 334.7 346.7 360.7 377.7 394.7 404 407.9 403.1 389.1 376 371.3 367 350.7 350.3 338.4 320.5 302.3 288.6 279.6 273.8 272.1 269.9 266.1 260.2 253.2 244.7 237.6 234.8 246.2 257.9 270.8 284 296 307 313.4 318.1 319.7 317.2 310.2 303 297.1 289.1 280.8 273 265.3 256.3 248.4 242 235.6 231.5 228.1 218.8 208.2 208.4 227.7 247.8 265.4 279.4 288.1 292.3 295.6 298.8 302.3
341.7 341.9 342.2 343.1 347.6 355.3 361.5 366.6 372.3 371.9 366.1 359 352.2 346.2 341.1 338.2 332.2 339.6 332.8 314.9 292.4 264.9 240.6 223.2 214.5 208.2 201.6 197.4 195.8 194.4 193.8 193.9 194.1 194.3 192.5 195.3 196.8 200.6 208.6 220 228.5 235 237.9 239.2 243.5 258.3 276.9 294.1 307.6 316.8 322.9 322.4 312.8 314.3 329.5 348.3 365.4 377.5 384.6 378.2 365.7 349.6 332.2 315 305.5 299.9 291.3 282.5 275.4 267.8 258.8 247.9 237.9 230.5 225.8 227.7 233.3 239.7 250.3 264.9 278.9 292.7 305.8 314.1 315.7 310.5 298.9 281.3 263.5 246.2 231.9 221.3 212.9 205.5 198.8 193.6 190.9 192.1 192.3 192.7 193.7 193.2 193.3 194.4 196.3 198.7 201.7 204.9 208.1 211.7 217.8 225.3 234.3 246.6 260.2 276 295.6 317.8 337.1 348 350 341.5 320.5 294.5 271 253.7 242.6 233.9 227 219.3 216.1 218.9 234.6 254.3 273 288.9 302.3 316.2 328.8 343.8 360.6 377.9 388.7 398.3 402.2 394 382.7 380 370.4 370.9 363.5 350.4 330.4 310.4 297.5 288.3 282.8 280.7 277.7 273 266.5 258 248.6 241 241.8 253 264.5 277.1 291 304.6 318.1 326.9 327.7 325.4 321.5 312.9 303.1 296.1 288.9 281.2 273.8 266.3 258.2 251 244.8 240 236.8 234.1 226.4 216 207.5 217.1 237.7 258.3 271 280 286.4 290.8 296.3 301.6
352.1 352.7 354.6 357.8 361.5 366.5 371.9 374.9 377.4 375.7 369.1 362.8 357.5 350.3 346.6 344 339.3 338 329.9 314.6 284.8 263.5 239.4 219.5 212.2 207.1 200.9 197.6 195.3 194.2 194.4 194.7 194.9 194.3 194.7 196.2 198.4 204.6 215.3 229 241.2 248.7 248 247.7 250.3 261.5 281.8 298.6 317.5 325.5 331.3 328.3 323.9 326.1 336.7 353.6 368.1 373.3 364 350.1 336 321.7 305.6 291.4 279.7 274.1 268.6 262.2 256.4 250.7 244 236.6 229.3 222.4 218.9 222.1 227.3 233.2 243 259.7 276.9 292.9 307.7 317.2 315.5 303.5 287.6 270.6 251.6 234.4 222.6 214.1 207.8 200.9 194.9 191.9 193.1 193.6 193.5 194 194.9 194.3 195.2 198.4 201.3 205.3 209.8 213 214.9 217.5 222.4 230 239.1 251.3 265.9 283.4 305 328.7 349.5 359 352.6 338.9 318.9 295.9 273.4 255.8 245.2 236.8 230.4 224.6 217 217.8 222.2 239.6 254.5 269.3 282.6 295.7 309.8 325.1 340.7 356.6 369.6 383.1 397.3 392.3 386.1 380.4 384 382.4 374 359.7 339 319.7 305.2 298 292.8 289.5 285.4 280.3 271.9 262 252.3 243.8 249.5 260.6 272 283.7 297.8 312.2 326.9 337.8 339.2 333.8 323.7 314 304.3 296.3 289.4 282.9 276.1 269.1 261.9 254.8 249.7 245.7 243.2 242.2 237 225.2 212.9 211.5 231.5 251.4 264 272.9 280.7 287.1 293.1 300.1
363.1 365.2 367.1 367.3 370.8 375.3 379.1 380.3 382.6 378.6 372.5 367 360.3 354.3 351.2 347.5 342 337.8 328.2 304.9 283.3 259.6 235.5 217 212.6 206.7 200.2 197.2 195.2 194.5 194.7 194.9 194.3 194.8 195.3 197.6 199.5 210.2 224.5 239 252.9 261.1 259.3 256.4 259.8 270.4 289.4 304.4 323.7 329.6 334.6 335.9 335.3 339.7 347.9 358.8 360.7 348.7 335.6 321.2 307.2 293.1 280.3 269 259.9 254.8 248.8 242 236.9 232.4 227.9 223 218.4 214.7 214.8 217.3 221.9 227 236.1 251.2 267.8 283.6 298 308 302.6 290 274.1 256.5 238.5 224.2 215.6 209.1 203.3 196.9 193.3 193.8 194.9 194.9 194.7 195.1 195.9 196.4 198.9 203.3 207.9 214 218.9 223 224.4 224.4 227.7 234.1 243.8 256.5 271.9 291.1 314.1 339.3 359.3 362.8 350.6 334.7 314.5 293.4 274.1 257.7 247.5 239.2 232.7 227.1 220.3 219.5 218.9 226.6 236.4 249.3 263 275.2 288.3 303.2 319.3 332.7 348.8 364.6 377.4 382.1 383.4 390.2 394.5 390.9 383.7 368.1 347.5 329.7 314.5 310.6 308.2 301.6 294.6 286.5 275.5 264.9 254.8 247.2 256.8 268.2 280.1 292.4 304.7 318 332.5 344.7 347.3 341.8 330.6 319.7 307.9 298.2 291.2 285.4 279.4 273.7 267.2 261.6 256.8 254.2 252 249.5 243.1 232.2 217.7 214.3 229.9 249.2 261 269.2 277.2 284.3 291.3 298.9
374.4 373.9 374.5 375.1 377.9 379.9 382.9 384 385.5 381 375.4 367.9 360.8 358.6 354.6 348.1 344.5 335.7 322.1 301.3 277.6 255 234.6 216.1 212.3 205.6 200.2 196.9 195.4 195.2 195.1 195.4 195.1 195.3 196.6 198.8 202.9 218.1 234.4 249.8 263.8 273.3 272.5 269 272.2 278.3 290.1 308.1 324.2 336.8 343.3 345.7 344.3 347.6 349.1 348.7 334.5 320.5 306.7 292.3 278.6 267.2 258.6 249.9 242.8 237.4 230.5 225.5 221 217.4 214.8 212.8 212.7 211.8 212.7 213.9 216.7 221.1 227.7 238.7 251.6 265.5 277 284 281.6 271.3 258.3 241.5 226.3 216.7 210.4 204.8 198.6 194.1 194.9 195.6 196.5 196.4 196.4 197 198.4 199.3 203.1 208.7 217 225.1 230.9 234.2 234.8 233.2 234.1 240 249.4 263.2 279.5 299.7 322.6 346.5 362.1 359.5 344.2 327.6 308.2 290.2 274.3 259.6 248.9 241.3 234.7 228.7 222.4 224 222.2 221.2 226.4 233.8 243.8 255.4 268.6 281.6 295.9 312.1 328.1 342.9 356.9 372.2 386.6 398.6 404.1 404.2 393.2 375.5 357 340.1 329.4 327.9 323.9 315.2 305 292.6 279.1 266.3 255.7 253.8 263.5 275.8 289.2 302.2 312.9 325.3 339.4 348.4 349.7 346 336.9 326 313.3 302.7 295.3 290.8 286.8 282.9 276.2 270.4 265.2 262.9 260.5 256.3 247.2 231.6 217 221.1 234.5 249.2 259.9 267.6 275.1 282.7 289.9 297.7
380.1 380.4 381 382.1 382.7 384.4 385.9 385.6 386.1 381.1 374.5 367.8 363.5 360.1 355.6 350.9 342.5 331.3 317 294.2 272 251.4 235.6 214.7 209.5 205 199.9 197 195.8 195.7 195.7 195.9 195.9 196.7 198.9 200.1 207.9 225.6 241.6 259.5 273.3 285.5 288.4 286.6 287.7 291.5 299.3 316.5 334.1 348.6 349.4 350.7 347.6 343.1 331.8 320.7 306.7 292.7 278.6 265.7 255.6 247.7 240.2 233 228.2 223.4 218.5 215 213.3 211.4 209.4 208.2 208.6 209.3 210.2 211.3 211.8 213.6 218.7 227.3 235.4 244.5 252.4 257 255.9 249.7 239.2 226.7 217.5 211 204.8 199.3 194.4 195.8 197.2 197.3 197.9 198.1 198.2 199.7 200.9 201.9 209.3 216.5 229.8 239.8 244.8 246.6 245.2 242.3 242 248.1 257.9 271.7 287.7 307.1 328.5 347.9 359.9 353.5 335.9 320.2 302.7 287.7 274.5 262.9 253.1 244.9 236.5 229.4 223.9 229.6 229.6 224.4 222.9 226.1 232.4 239.8 250.3 263.5 277.6 292.7 307.1 322.3 345.9 368.8 389.7 404.4 414.6 414.5 402.9 386.1 370.2 356.6 348.9 343.7 336.5 327.3 314.1 297.9 282.7 269.4 259 258.9 268.9 283.6 297.9 311.2 322.5 334.2 347.4 353.9 354.4 351.6 343.5 333.1 321.7 310.5 302.4 298.7 296 292.4 285.9 278.8 273.8 270.5 267 260.6 246.5 227.1 219.5 229.1 240.4 251.9 260.4 267.8 275.1 282.1 289.1 295.2
386.6 386.7 387.5 387.3 385.8 386.2 387.4 386 382.3 377.6 370.5 365.5 360.2 357.4 354.7 344.5 334.2 320.8 304.9 285.8 266.4 257.1 236.6 215.7 208.5 203.8 199.5 196.7 196.3 196.3 196.3 196.6 195.8 198.4 199.8 202.4 212.7 231.8 247.7 268.8 282.9 295.8 306.9 305.3 303.3 306.3 312 325.7 343.1 352.6 348.8 344.3 333.6 319.4 305.3 292.8 279 265.5 255.2 247.3 238.4 232 225.3 220.9 217.9 215.2 213.2 212.5 211.4 209.5 207.6 207.4 207.7 207.9 207.7 207.8 208.1 207.8 210.4 215.5 221.8 227.1 230.6 232.5 231.2 228.4 220.7 214.9 209.6 204.5 199.5 195.7 195.5 198.1 198.6 199.6 200.2 200.4 200.4 201.6 203.6 209.1 216.4 230.7 246.5 257.9 260.8 260.5 257.7 253.2 252.9 257.6 267.7 280.5 295.2 313.3 331.4 346.9 356.2 343.9 329.5 315.6 300 288.6 280.6 271.3 259.2 249.6 239.1 230 227.4 236.7 240.2 236.1 227.9 224.4 224.4 230.3 238.3 248.9 261.7 275.7 290.9 313.6 338.6 363.5 387.8 406.9 420.8 423 411.5 396.8 383.1 372.7 365.1 357.5 348.9 337.6 321.7 303.8 286.8 273.8 265 263.9 275.1 290.5 305.9 319.8 332.2 344.1 355.5 360.4 360.1 357.7 350.2 340.6 331.4 320.8 311.3 306.8 304.1 300.8 294.9 288 282.3 277.4 271.2 259.6 240.1 224.9 228.7 238.6 249.2 258.7 267 274.7 281.3 287.2 293.2 299
394 392.6 391.9 389.9 388.2 387 384.5 380.3 374.5 367.3 360 354.9 351.4 345.9 340 330.6 319.3 306.3 292.9 282.4 274.1 259.8 236.2 216.1 208.7 203.6 199.1 196.9 196.8 196.9 197.1 197.4 196.9 197.9 200.7 205.1 214.5 234.8 254 275.1 291.8 306.6 314.9 312.8 315.7 316.6 318.3 328 343 338.1 326 317.3 306.1 293.2 279 265.9 253.9 245.1 237.7 230.2 224.2 220.2 217.2 215.1 213.5 212.2 212.2 210.7 209.4 207.9 206.8 206.3 206.6 206.2 206.3 205.7 205 204.6 204.6 206 209.9 213.7 216.1 217.4 215.8 213.2 209.6 205.9 202.3 198.7 196.5 196 197 198.5 200.5 201.9 202.3 202.9 202.5 203.8 207.4 215.4 227.4 246.7 265.4 277.9 283.1 280.8 276.6 272 269.4 270.2 277.6 289.5 301.8 318.1 333.6 344.3 345.9 337.1 325.8 314.9 302.6 294.7 292 279.8 265.9 252.6 240.4 230.8 235.6 248.2 253.6 251.3 244.8 235.2 226.7 227.4 231.1 237.8 249.8 261.9 280 303.1 328.4 354.2 381.2 403.8 421.7 427.4 416.9 406.6 395.5 385.8 377.4 369.3 360 346.6 327.5 309 290.9 278.2 270.5 268.2 280.2 295.3 311.5 327.6 341.5 353.6 363.3 366.1 365.6 362.3 354.8 346.7 339.8 329.8 321 314.5 310.7 306.4 300.6 295.1 288.7 282.1 274.2 256.1 234.9 230.6 240.2 251.5 262.4 272.1 279.9 286.9 293.1 298.2 303.2 307.5
400.7 399 396.8 394.3 390.9 387.4 382.7 375.2 365 356.4 349.5 343.2 337.5 330.8 323.4 315.5 305.7 294.6 284.6 277.1 269.6 257.5 234.8 216.6 209 203.3 198.8 197.2 197.5 197.6 197.8 197.4 197.5 198.2 201 206.9 216.3 236.8 255.6 278.4 298 310.1 314.3 320 318.5 315.8 314.1 312.5 313.1 306.8 297.5 287.1 276.4 264.3 252.8 243.2 236.4 230.9 224.7 219.3 216.7 215.2 214 213 211.7 210.7 209.5 208.3 207.7 207.4 207 206.4 205.7 205.3 204.8 204.3 203.8 203.1 202.6 202.5 203.1 204.8 206.6 207.7 207.4 205.8 202.9 199.9 197.6 196.2 196.6 197.7 198.8 200.2 201.9 203.7 204.6 205.4 205.2 206.9 212.9 224.2 242.4 264.7 284.5 299.8 305.5 302.8 298.6 293.4 288.3 288.1 293.1 301.2 309.6 323.1 336.4 344.4 345.1 337.7 325.8 317.2 309.6 304.4 300.5 287.5 271.2 254.8 242 232.1 240.3 258.4 266.7 266.5 260.7 251.9 236.9 229.4 229.2 231.3 238.7 250.8 267.6 290.5 316.3 344 369.8 394.8 417 426.1 422.2 416.2 405.8 396.7 388.9 380.3 369.3 352.8 331.7 312.5 295.2 283.9 276 273.6 286 299.7 315.6 332.3 349.3 361.8 370.2 375.8 371.6 365.9 359.4 355.1 348.1 338.1 328.4 321.8 316.4 311.5 306.8 301.9 294.9 287.7 274.5 253.7 232.9 234.8 249.9 263.8 274.9 283.3 290.3 296.6 303.2 308.9 314.3 317.3
406.5 405.3 402.2 398 394.6 389.4 381.7 371 361.3 351.7 343 335.2 327.9 320.9 311.2 301.1 291.1 280.9 271.9 262.9 254.9 245.9 230.7 215.8 208.8 203 199.4 197.8 198 197.9 197.7 197.7 197.9 198.3 199.2 208 218 237.2 254.5 278 297.2 304.6 306.3 306.3 301.2 294.2 290.1 285.2 281.5 275.7 267.2 257.5 248.2 240.7 234.1 229.2 225.9 221.5 217.3 214.6 213.9 213.4 212.3 212 211.7 211.2 209.3 208.7 210.1 210.3 208.5 207.9 206.5 204.7 204.2 203.8 203.6 202.7 201.9 201.7 201.5 201.5 202.7 203.7 203.2 201.1 198.8 197.1 195.8 196.7 197.7 199.2 200.7 202 203.7 205.3 207 207.9 207.7 210.6 220.2 236.6 259.5 283.2 302.9 320.7 325.6 325.3 322.6 316.8 310.9 307.9 308.4 312.8 318.7 330.7 342.3 350.3 352.9 346.1 336.6 325.3 316.7 314.2 310.4 293.4 273.4 257.2 244.4 235.3 240.1 260.1 274.6 280.4 277.1 268.5 255.5 242.6 230.1 231.5 232.6 239.6 255.4 277.1 302.1 328.6 355 379.2 401.8 416.1 422.1 422.8 415.1 406 398.4 388.7 375.8 357.7 336 316.5 300 289.8 281.1 279.9 289.9 302.9 318.4 335 351.9 366.5 372.7 376.1 372.8 368.8 365.6 362.5 356.3 345.9 335.6 328.6 322.7 317.7 312.2 306.7 299.7 291.6 277.5 254.4 234.4 237.2 255.6 271.9 283.6 291.6 298.4 305.2 311.7 318.7 324 326.4
412.6 411 408 403.8 400.4 391.8 380.4 369.9 360.2 349.8 340.8 334.4 328 320.2 310.7 301 287.9 273.8 263 252.3 241.8 232 222.7 214.9 208.4 203.1 200.3 198.3 198.3 198.3 198.3 198.3 198.5 198.5 197.4 206.5 217.6 239.9 256.4 268.4 275 277.9 277.4 273.5 270 265.8 261.9 257.4 253.1 247.3 240.7 234.4 230.3 227.3 223.9 221.9 219.8 216.5 214.9 213.3 212.6 212.4 213.5 213.8 212.3 210.5 209.8 211.9 210.9 210.1 209.6 207.5 206.1 204.8 204 203.2 202.7 202.4 202 201.4 200.3 200.2 199.9 200.4 199.5 198.4 197.1 195.9 196.2 197.5 198.8 200.3 202.1 203.8 205.4 207.3 209.3 210.2 211 215.4 229.1 250.4 274.9 296.2 321.3 337.9 343.5 345.6 344.8 340.2 334.2 328.4 325 327.1 333.3 343.2 351.9 359.5 363 356.5 346.9 334.3 325.6 326.6 319.1 299.9 277.1 259.8 247.3 238.6 240.6 258 275.9 290.5 292 284.7 272 259.4 248.6 236.7 233.6 235 245.1 263.9 287.4 312.9 340.1 362.8 385.4 405 417.2 423.4 420.1 414.7 406.7 394.9 380.5 362.4 340.7 322.1 305.7 295.1 285.6 287.3 294.5 305 319.3 334.8 350.7 363.2 373.1 376 376 374.3 372.5 367.9 360.8 351.6 342 334.9 329.5 323.7 318 312.7 304.5 295.2 281.6 257.2 237.1 238.6 258.4 276.6 288.8 297.5 304.7 311.9 319.3 326.4 332 334.4
417.2 416.1 412.7 407 401.6 393.3 382.6 372.6 362.1 351.7 343.2 338 332.4 327.7 320.8 312.2 302.3 284.4 265.6 249.3 237.4 228.2 220.8 214.1 208.3 203.4 200.7 199.1 198.8 198.8 198.8 198.8 198.8 198.9 198.9 207.3 215.3 231 240.4 244.3 246.3 247.8 246.8 244 243.3 240.5 238.9 237.2 234.2 229.3 226.5 224.4 222.1 219.9 217.8 216 214.8 213.9 213.7 212.9 212.8 212.9 213.2 212.9 212.2 211.7 211.2 211.6 210.5 209.2 208.6 207.5 206.5 205.4 204.5 203.7 202.9 202.1 201.1 200.3 199.6 198.7 198.2 197.8 197.1 196.7 196.2 195.8 196.7 198.2 199.9 201.8 203.7 205.7 207.3 209.2 211.3 212.5 213.9 221.8 241.4 265 285.5 312.1 336.8 352.3 358.5 360.2 358.2 354.9 351.5 347.9 346.1 347.3 352.7 359.9 367.1 373.4 375.1 368.5 356.6 341.8 335.6 339.5 330.1 308 284.1 264.1 251.7 242.4 240.5 254.5 275 296.3 307 299.8 287 275.6 263.1 250.3 238.1 235.2 239.5 255.1 276 298.9 323.4 348.1 373.5 396.4 412.5 422 424.9 422.7 413.9 400.8 384.5 365.8 345 326.9 312.3 301.8 295.3 295.9 302.2 308.3 319.6 332.7 347.8 360.9 372.5 379.6 381.7 383.4 379.7 371.9 364.1 357.3 349.1 341.9 335 327.7 321.9 315.1 307 296.9 284 262.6 239.6 240 260.9 280.4 293.3 303.1 310.5 318.3 325.9 332.8 339 342.2
418.2 419.9 415.4 410.7 403.4 396.8 388.4 376.9 365.8 356.4 349.5 343.5 339.8 337 331.6 324.5 313.7 298.2 278.3 256.3 239.8 227.2 219.6 213.4 208 203.9 201.2 200.1 199.4 199.3 199.4 199.5 199.6 199.7 199.5 205.1 212.8 218.7 222.9 226.1 228.5 228.9 229 228.5 228.7 227.7 226.4 224.9 222.3 220.7 219.6 218.4 217.1 215.5 214.1 213.9 213.8 213.4 213.2 213.1 213.3 213.5 213.7 214.1 214 213.4 212.9 211.9 211 210 209.2 208.2 207.2 206 204.9 204 203.2 202.1 201.1 200.3 199.5 198.7 197.8 197.2 196.6 196.2 195.8 196 197.6 198.9 200.5 202.4 204.6 207 209.3 211.1 213.5 215.6 217.7 225.3 245.8 268.5 293.9 321.8 345.9 362.1 370.6 371.8 367.6 363 360.2 360.5 363 367 372.9 379.3 385.3 389.8 388.4 380.7 368.4 353.5 349.2 354.4 341.6 318.8 294 271.4 257.4 247.3 242.3 251.1 272.5 291.7 308.5 312.2 304.8 292.6 278.5 263.2 248.6 237.3 237.7 250.2 268 288.8 313 339.8 364.1 388.1 407.6 420.7 428.8 428 419.8 404.9 387.2 368.9 349 330.3 318.2 309.4 306.6 306 309.1 314.2 323.3 335.4 349.1 360 374.5 383.4 388 391 384.9 376.1 367.4 359.4 352.6 346.7 338.8 331.4 323.8 316.1 308.3 298.3 286.3 268.6 244.4 241.8 263.4 284.1 298.7 308.6 316.8 324.5 332.6 339.7 345.9 350.4
420.5 421.2 419.4 416.9 410.8 403.6 391.7 379.4 371.4 365.3 360.3 352.3 348.1 346.4 340.5 333 321 304.9 284.6 261.9 244.1 230.4 221.1 214.4 208.6 204.5 201.7 201.2 200.9 200.2 200.1 200 200.1 200.2 200.2 199.4 209.1 215.6 218.2 219.3 220.2 221.1 221.4 221.3 220.7 219.8 218.6 216.8 215.3 214.5 214.6 214.6 213.8 212.9 212.7 213.4 214 213.5 213.7 213.9 214.2 214.4 214.5 214.6 214.7 214.2 213.6 212.7 211.9 211 210.1 209.1 208 206.8 205.5 204.3 203.3 202.2 201.1 200.3 199.5 198.7 197.8 197.1 196.5 195.9 196 196.8 198.4 200.1 200.7 202.6 204.8 206.9 209.8 212.8 215 217.6 220.3 225.4 241.6 265.3 292 318.2 339.5 358.9 371.3 376 372.2 367.7 367.6 371.8 377.8 384.5 392 398.7 404 406 402 394.1 379.8 364.8 367 369.2 354.6 330.9 305.2 280.1 263.6 253.3 245.7 248.7 265.8 284.9 304.1 316.5 318.6 306.6 296 280 261.6 243.3 238.5 247.6 264.2 283.9 306.4 331.4 356.7 380.9 402.2 418 427.5 429.6 423.6 406.7 389.7 371.6 351 335.4 324.4 317.4 315.8 315.6 316.5 321.7 329.5 340.5 353.4 366.1 378.4 385.7 393 396.1 389.5 380.6 372.9 366.8 358.9 350.9 341.1 332.6 324.1 316.1 308.1 299 288.2 273 251.3 245.3 266.1 287.8 302.1 312.5 321 329.3 339.2 347 353.3 358.6
426.4 426.3 428.6 427.2 417.9 409.4 394.7 384.5 378.3 373 367.5 361.6 355.3 348.8 340.8 332 320.7 303.7 283.8 262.1 247.2 235.5 224.9 216.2 210.6 206.1 203 202.5 202.5 201.1 200.6 200.5 200.6 200.7 200.8 200.1 209 213.1 214.6 215.7 216.3 216.8 216.2 216.4 215.9 215.4 214.3 213.2 211.4 210.4 211 212 211.8 212.5 213.2 214.1 215.2 215.2 214.8 215 215.3 215.6 215.9 216 216 215.6 214.7 213.6 213.2 212.2 211.1 210 208.9 207.4 206 204.7 203.6 202.4 201.2 200.4 199.6 198.5 197.6 196.8 196.8 196.7 196.8 197.8 198.7 199.6 200.5 202.7 205.5 207.9 210.3 213.5 216.7 220.6 223.4 226.7 236.1 257.3 280.2 305.2 328.4 348.1 359.8 365.8 368.1 369.4 373.9 382.8 393.8 402.7 410.1 416.2 420.4 421.2 416.1 408 393.7 384.9 387.4 383.3 366 340.9 315.4 290.6 270.9 259.7 252.6 248.9 260.2 278.6 298.2 315.6 322.3 317.7 311.4 295.1 274.2 253.3 240.3 243.3 263 281.5 302.2 325.5 350.6 375.2 397.3 413.9 424.9 428.5 424.5 408.5 391.1 374.7 355.3 340.1 331 325.7 323.2 322.5 324.1 329.5 336.7 345.9 358.5 371.1 382.2 389.4 396.7 398.7 394.2 386 378.5 371.5 363.2 353.2 342.2 331.6 322.7 314.4 306.9 299 289.2 274.8 253.9 250.7 270.2 289.2 302.1 312.6 322.1 332.3 343.7 352.7 360.1 367.4
429.8 435.9 437.3 429.9 420.3 415 397.3 389.8 386.6 380.3 373.1 365.8 355.7 345.7 335.7 325 312.5 297 280.2 260.8 248.4 237.3 226.7 217.8 211.6 207.8 204.7 204 203.6 202.6 201.2 201.1 201.2 201.3 201.2 202.5 205.7 209.9 211.7 212.8 213.6 213.8 213.4 212.8 211.8 211.1 210.8 210.5 209.9 210.1 210.7 211.3 212 212.8 213.6 214.6 215.9 216.5 215.8 216.1 216.4 216.9 217.6 217.4 217.2 216.9 216.5 215.5 214.2 213 212 210.9 209.4 207.8 206.3 205.4 204.2 202.9 202 201.4 200.5 198.5 197.3 196.8 197.4 197.8 198.6 198.9 199.8 200.5 202.3 205.2 208.4 210.5 213.8 217.1 224.7 230.1 231.4 228.4 234 248.8 268.4 291.4 314.3 333.3 345.3 355.1 363.4 370 380.8 396.6 410.5 421.9 427.7 432.1 434.4 434 429.7 420.8 408.5 405.6 405.5 397 376.9 351 325.1 301 279 266.4 258.8 252.1 256.1 272.4 292 310.4 322.3 325.6 321.2 306 285.4 261.7 244.1 242.2 261.3 280.3 300.9 322.6 347.2 370.8 393.4 410.5 423 426.7 421.9 409.2 394.3 380.2 363.7 349.2 339.4 334.6 332 330.7 331.7 336 343.6 352.5 364.3 375.6 385.6 394.5 399 401.5 398.4 390.2 381 372.7 363.9 353.1 341 328.7 318.4 310.2 303.3 295.9 286.6 273.4 253.2 256.5 273.7 289 301.3 312.5 322.7 333.6 344.6 354.8 364.5 373.8
430.4 437.6 437 430.8 420.5 409.5 397 395.4 391.3 385.1 377 365.7 352.6 342.1 328.1 313.3 299.6 286.5 272.9 260.9 247.7 235.3 226.7 218.1 212.5 208.9 206.8 205.4 204.8 204.1 202.5 201.6 201.6 201.5 201.5 202.1 204 207.2 209.4 210.5 211.2 211 210.8 210.3 209.7 209 209.3 209.2 209.3 210 210.7 211.4 212.1 212.9 213.9 214.8 216.4 217.8 217.6 217.4 217.8 218.3 218.9 219.3 218.7 218 217.9 216.8 215.4 214 212.7 211.6 210.1 208.5 207.3 206.7 205.4 204.3 203.7 202.8 201.4 199.9 198.7 198.3 199.4 201 202.2 202.5 203 203.7 205.4 208.7 211.6 215.9 223 231.7 240.4 243.9 242.3 234.2 234.7 242.7 259.3 279.5 299.4 316.8 329.3 342.7 357.9 372.6 388.4 405 423.8 436.6 442.2 445.8 447.3 446.3 441.2 432.7 425.2 423.9 419.5 407.9 386.9 361.4 335 310.6 289.5 274 264.4 257 256 268 286.1 305.6 325.5 332.9 328.3 313 290.3 267.1 244.3 243.5 260.2 280.3 301.2 322.2 346.2 370 391.6 408.2 420.5 425 419.8 408.4 396.5 387.5 375.8 362.9 350.4 344.5 341.6 339.9 339.9 343.6 350.9 359.6 370.8 382 392.3 399.2 403 404.7 400.3 392.1 382.2 373.1 362.7 351 337.7 324.2 312.2 303.3 295.9 287.8 278.6 265.6 251.5 260.3 274.5 288 299.7 310.8 321.3 332.8 343.8 355.6 367.1 378.4
432.1 436.2 436.2 426.9 413.5 403.1 398.4 396.4 391.6 385.3 376.4 363.6 350.2 334.5 318.7 304.1 288.8 276.1 266.8 255.7 243.5 234.5 225.3 217.7 213.7 210.7 209 207 205.9 205.2 203.6 202.2 202.3 202.4 202.6 202.6 203 206.5 208.6 209.7 210.2 209.9 209.6 209.2 208.8 208.5 208.6 209 209.3 209.8 210.7 211.4 212.1 213 214 215.1 216.2 217.5 219.2 219.1 219.2 219.7 220.3 220.1 219.8 219.2 218.6 218.1 216.7 215.2 213.6 212.7 211.2 209.5 209.5 209.6 208.8 207.6 206.7 205.5 204 203 202.2 201.9 202.6 204.7 205.9 206.1 206 207.5 210.1 215 219.8 230.7 241.4 251.1 256.8 256.9 253.6 245.4 237.7 241.2 253.8 269.8 286.5 301.7 315.6 336 354.7 374.3 392.5 411.5 429.3 442.7 452 456.7 458.2 457.2 452.9 444.6 441.5 439 431.6 417.4 395.9 371.6 345.2 320.4 299 281.2 270.6 262.7 256.8 266.2 284.2 302.3 324.2 335.3 331.7 313.7 291 269.4 245.5 245.3 260.3 280.7 301.7 324.1 348 370.7 390 405.4 416.7 421.8 416.1 407.1 403.6 400 389.3 376 366 358.1 352.7 351.5 352 352.8 358.8 367.9 379.2 389.7 398.8 404 406 404.5 398.8 391.7 382.4 371.9 360.2 347.2 333.9 319.3 305.2 295 285.7 275.7 264.6 253.1 251.4 260.6 274 287 298.2 308.4 318.3 329.7 342.7 355.9 368.1 380.2
430.3 429.4 424.3 412.4 402.1 398.8 395.1 391 386.3 380.1 369.5 358.4 342.2 325.6 311.3 296.9 282.8 267.5 256.3 247.1 240.1 232.9 223.9 217.5 214.2 212.5 211.3 209 206.7 205.8 204.2 203.2 203.6 203.5 203 202.7 202.9 205.5 207.4 208.8 209 208.7 208.5 208.2 207.8 207.8 208.2 208.8 209.3 209.9 211.1 212.1 213 213.9 215 215.7 216.6 217.7 219.7 220.3 220.6 221.3 221.3 221.2 221.2 220.7 220.2 219.7 218.8 218.1 217.7 217.2 215.3 213.6 214.7 215.1 214.1 212.7 211 210 208.8 207.4 206.4 206.1 207 208.8 210 210.3 210.5 212.6 217.5 224.5 235.4 248.4 261.1 270.8 275.1 273.3 266 255.8 245.9 243.4 252.5 265 278.8 296 313.7 333.2 354.8 375.8 394.7 412.8 429.3 442.3 452.6 460.1 465.6 466.7 463.1 458.6 457.3 452.7 441.7 425.5 403.4 379.7 355.1 330.5 308.6 289.8 277.3 268 259.4 266.4 283.7 302.6 322.8 335.4 334.3 313.2 290.9 271.5 253.8 246.3 258.9 281.4 303.5 324.3 347.9 370.4 388.9 402.8 414.8 419.1 420.3 413.5 411.8 407 399.1 392.1 385.4 376.5 371.8 369.2 368 366.7 369 377.8 388.1 397.2 403.9 406.7 404.5 399 392.7 386.3 378.4 368.3 355.5 341.7 327.7 312.9 298.3 285.5 274.6 264.8 257.8 258.1 258.3 260.6 272.4 285.1 296.2 305.6 315.2 325.7 340.1 354.4 368 380.2
423.1 417.4 408.7 399.1 391.4 388 384.1 378.9 372.5 367.3 357.7 345.5 332.1 316.6 303.3 289.5 278.4 264 251.5 243.2 235.8 228.9 222 217.7 215.2 214.9 213.7 210.9 208 206.3 205.2 204.6 205.8 204.1 203.9 202.5 203.5 204.4 206.1 207.4 208.3 207.9 207.8 207.6 207.6 207.7 207.9 208.5 209.2 210.2 211.4 212.4 213.4 214.6 215.7 216.8 218 219.2 220.4 221.5 222 222.6 222.9 222.8 222.7 222.2 221.7 222.1 222.2 224.7 226.4 223.4 220.8 220.5 221.1 221.8 221.1 219.5 218.1 216.6 214.3 212.5 212.2 211.3 211.4 213.2 214.2 215.1 216.2 221.9 231.2 241.5 252.7 266.1 278.9 287.8 291.6 288.9 278.7 265.7 253.8 246.7 251.5 262.9 277.5 295.1 313.2 334.8 356.5 375.4 393 410.1 424.3 435.8 446.3 456.3 465.6 470.9 472.7 472.6 472.3 466.5 452.4 432.9 410.3 386.7 362.3 339.4 319 299.2 284.8 274.2 262.5 268.4 284.3 303.2 323.7 339.3 336.1 313.5 290.6 273.1 256.8 247.6 256.1 281.5 305.3 326.3 349.1 369.8 388 403.2 415.2 423.6 424.4 421.7 419.5 414.8 412.2 407 402.8 398.6 393.8 390.1 387.5 383.1 384 389.1 396.7 403.5 407.4 405.6 398.6 391.3 384.7 378.1 369.8 359.7 346.7 332.8 319 304.6 289.8 276.3 265.3 260.4 262.5 267 266.6 264 269.9 282.2 294.1 303.7 313.3 324.7 338.4 352.4 365.8 377.2
413 404.6 396 386.6 378.8 373.7 368.5 362.3 356.4 348.9 341.3 333.7 319.6 306.8 295.5 282.8 273.4 261.1 248.6 239.8 231.6 226.4 222.3 218.4 218.1 218 216.2 212 208.6 207 206.4 206.5 207.4 206.6 204.6 203.6 204 204.4 206.2 206.8 207.2 207.7 208.1 208.1 207.7 207.8 207.9 208.5 209.2 210.2 211.3 212.3 213.5 214.6 216 217.4 218.6 219.6 220.7 222.4 222.8 223.2 224.3 224.4 224.2 224.2 225.9 229.6 232.6 236.5 236.4 234.8 233.5 233 229.9 229.5 228.8 227.4 226.4 223.9 224.3 222.7 221.2 219 218.9 220 220.3 220.5 225.4 238.2 251.4 262.4 273.4 285.8 297.9 303.9 304.5 299.9 288.7 273.7 261.1 251.9 252.8 262.9 277.4 295.6 316.6 336.4 354 369.6 384.5 398.9 411.4 423.8 441.4 453.8 465.8 475.8 483.2 486.3 483.6 475.6 460.3 437.2 413.4 390.3 367.6 345.3 326.2 306.9 290.8 279.1 265.4 272.3 286.9 306.9 325.9 340.7 336.2 314.3 292.2 274.9 259.8 250.2 253.1 281.1 306.3 330.3 349.3 369.5 388.4 403.6 416.7 427.2 431.6 433 431.6 427.2 428.6 423.6 420 417.4 412.8 409 405.1 399.6 399.6 401.6 405.2 407 405.7 399.3 391.5 383.6 376.4 368.8 360.2 349.9 337.2 323.7 310 296.4 281.5 268.2 262.7 265.9 270.5 274.7 274.3 268.9 269.7 280.1 291.8 302.4 313.1 324.5 337.4 350.8 363.1 373.9
405.7 397.2 387.3 376.4 368.3 360.4 353.8 346.9 338.4 331.6 325.1 317.1 307.3 296.6 285.8 274.1 264.5 254.8 246 237.4 231.2 226.3 222.8 221.4 222.4 221.8 217.6 213.1 209.2 207.8 207.2 207.9 208.3 208.7 204.3 204.2 204.5 205.3 207.6 207.9 207.7 208.2 209.2 208.9 208.2 208 208 208.6 209.1 209.9 210.8 212.2 213.6 214.9 216.7 218.2 219.5 220.5 221.4 223 223.8 224.9 225.5 225.8 225.8 226.6 232.3 238.5 245 248.5 249.4 248 247.3 245.7 241.5 238.9 236.2 235.3 235.5 236.2 239.4 240.1 237.2 235 232.8 228.9 227.1 228.8 240.4 256.3 269.2 282.7 293.4 304.1 314.1 319.2 316.3 308.1 295.1 280.1 267.5 257.4 256.4 265.8 278.5 296.7 318.9 335.4 345.5 356.2 368.2 380.8 400.1 421.6 439.5 454.4 468.2 480.9 490.9 495.9 491.7 480.3 461.3 437.4 412.5 388.4 367.8 346.7 328 309.7 292 277.5 268 277.1 293 311.6 329.3 339.7 333.2 314.6 294.8 278.3 263.2 253.3 253 279.1 304.7 329.8 349.8 369.4 387.1 403.7 418.2 430.2 438 440.3 439.2 437.8 437.2 437.1 435.2 434.5 432.6 427.3 419.6 413.7 412.5 411.9 411.4 408.5 402.5 393.7 384.4 375.1 367.1 358.9 350.3 339.9 328.2 315 302.2 288.7 273.9 268.4 270.3 274.8 279 281.6 281.2 274.5 271.3 279.8 291.1 302.3 313.4 324.9 336.6 348.9 360.2 371.2
403.5 394.1 380.9 369.9 360.5 352.5 343.1 332.6 324 316.5 309.7 302.5 294.6 285 274.4 265.3 257.9 250.6 243.3 236.4 231.6 227.5 225.8 225.9 226.8 225.3 220.2 213.6 209.3 208.3 207.7 208.2 208.7 209.2 204.2 205.1 205.6 206 208.2 208.7 208.6 208.7 209.5 209.2 208.7 208.4 208.4 208.8 208.9 209.7 211.1 212.6 215.3 217.1 219 219.7 221.3 222.1 222.3 223.6 224.9 226.1 226.8 227.2 228 231.7 239.1 248.3 257.4 260.4 261.1 262.1 260.6 258.5 255.1 252.1 247.4 246.3 249.8 253.9 258.5 260 259.4 255.5 249.6 242.6 237 238.8 250.8 268.9 285.6 299.7 312.8 323.1 331 333 326.8 314.3 297.8 283.9 271.3 263.1 260.5 268.7 280.5 294.9 312.3 325.4 330.1 340.6 356.5 379.4 400.4 420 438.2 454.5 469.3 483 494.4 498.4 495.3 473 451.2 428.9 404 382.3 361.8 342.2 323.7 305.3 287.4 274.7 272.5 284.2 300.5 319.1 333.7 340.6 331.5 315.7 297.5 280.2 267.5 256.5 252.1 274.5 301.3 325.7 349.2 367.9 384.3 401.9 416.7 430.3 439.5 444.2 446.1 446.9 445.7 447.4 449.5 450.4 447.2 438.5 428.3 425.8 422.8 420.3 416.9 409.8 400.8 389.5 376.7 365.6 357.2 349.2 340.3 330.1 319.4 307.5 295.8 282 271.5 275.1 281.5 285.2 287.9 289.1 287.8 280.4 276.1 284.2 294.9 305.6 316.5 327.7 338.5 349.3 359.9 370.3
403.9 391.1 377.8 367.5 356.7 346.7 337.4 324.3 313.1 303.2 294.7 288.7 282.5 273.8 266.1 260.5 254.2 247.8 241.7 236.3 232.3 230.1 230.5 230.7 230.8 228.6 222.7 214.4 209.8 208.7 208.3 208.7 209.1 209.6 205.2 205.7 206 206.5 208.9 209 209 209.1 209 209 208.8 208.8 208.8 209 208.9 209.5 211.6 214 217.6 218.9 219.5 220.3 222 223.2 224.6 225.5 226.9 227.2 228.2 228.6 229.7 234.9 244.7 254.9 264.4 270.5 274.2 275.2 274.9 272.8 270.2 267 261.7 260.7 265.5 271.1 275.2 279.3 281 277.3 268.4 258.6 249.9 248.1 260.5 280.3 301.2 318.9 332.2 342.9 347.4 343.2 331.8 316.2 299.3 287.2 274.5 267.3 265.4 270.9 279.5 290.4 301.8 311.3 323.4 341 360.1 381.7 399.8 419.1 437.2 452.5 466.7 480.3 490.6 495.5 480.1 458.4 434.9 412.7 390 369.3 349.8 331.7 313.3 295.7 280.9 275.5 281.2 294 310.2 326.7 338.2 341.1 331.3 316.4 298.5 282.3 271.3 260.4 253.7 268.5 295.5 319.8 343.2 362.8 379.9 396.3 412.1 426.5 438.2 447.1 451.8 454 454.8 458.7 465.3 466.1 462 453.7 445.8 438.7 432.1 427 419.7 409.9 397.3 382.9 368.3 355.9 347.7 339.9 331.1 320.9 311 300.7 289.5 276.9 274.9 283.8 291.3 294.4 296 295.9 293.9 285.7 280.4 289.4 300.4 310.7 320.9 331.6 342.3 353.1 363.5 373.1
401.4 389.5 377.9 367.1 356 345.4 335.8 324.6 312.7 300.6 289.7 280.7 275 269.2 263.7 258.1 252.7 247.3 241.9 237.4 234.2 234.2 234.7 234.4 234.5 231.6 224.7 215.2 210.5 209.4 208.8 209.2 209.6 209.9 206 206.7 206.5 207.3 209.5 210 210.2 211.1 211.1 210.3 210 210.5 210.8 210.4 210.1 210.4 213.2 216.5 218.7 220.1 220.8 221.4 224.3 227.4 230.9 232 230.6 230.6 229.8 230.1 230.5 235.3 243.7 254.4 269.9 278.5 287.7 287.5 288.8 285.7 282.9 280.1 275.8 276.9 283.3 287.2 290.7 297.6 300.8 298.1 288.2 276.4 264.6 258.2 270.4 290.8 311.8 331.7 347.7 356.9 359 350.7 335.9 317.7 300.2 289.2 277.7 272 272.8 277.5 285.6 293.9 304.1 313.9 325.9 344.1 365.4 385 399.5 418 435.2 449.7 461 471.8 480.9 476.6 458.8 437.4 415 394.1 373.1 353 335.4 317.3 300.5 287.2 279.4 282.9 291 305.3 320.3 333.9 342.3 341.7 331.8 317.2 302.4 285.5 275.3 264 256 259.6 287.4 313.7 336.3 356 374 390.1 406.5 419.5 433.2 445.3 453.4 458.5 462.4 471.6 475.5 475.8 471.8 466.1 457.7 447.2 438.6 430.1 420.6 408 391.5 375.2 360 348.7 339.9 332.2 322.9 313.4 303.8 293.5 283.5 275.5 281.2 290.7 298 301.6 302.8 302.5 298.7 290.1 285 294.4 305.2 315.2 325.3 336 346.6 357.1 367.4 376.8
398.3 388.2 377.7 366.1 353.7 344.6 336.2 325.4 315 302.9 292.6 282.6 274.7 267.9 262.4 257 251.7 247 242.4 238.5 237.1 237.2 237.4 237 237 233.6 225.6 215.3 210.9 210.1 209.6 209.2 209.7 210.4 206.9 206.5 207.1 208.1 210.6 212.5 214.4 216.3 217.7 216 215.9 217 217.2 215.9 213.9 213.6 216.9 219.5 221.2 222.6 223.8 225.2 228.2 231.6 235.9 237.4 236.6 237.8 237.6 232.6 231.8 233.7 239.9 248.9 265.1 283 294.6 300.7 302.6 299.9 296 291.2 288.4 292 298.7 303 308.4 315.2 320.5 317.9 308.1 294.9 281.8 274.6 278.7 299.8 320.9 343.1 357.9 366.9 366.9 355.8 337.7 317.7 301.3 289.8 279.9 277.2 279.9 284.9 295 305.2 316 328 340.1 352.3 368.7 387.9 403 419.2 433.5 444.8 453.4 460.4 462.3 452.4 435.3 413.8 393.6 374.5 354.4 335.2 318.1 302.1 289.4 283.5 286.1 292.7 302.1 315.4 328.3 340.3 345.8 343.2 333.3 319.4 304.2 287.6 277.9 267.6 258.4 258.5 280.7 304.9 324.7 341.7 360.5 379.2 396.5 410 426.6 442.5 453 459.6 467.2 473.7 478.2 479.4 477.8 472.5 464.5 452 440.7 430.6 419.9 404.1 385.5 368.2 354.3 343.4 333.9 325.9 317.3 307.8 298.5 288.7 278.5 278.7 288.2 298.3 304.2 307.2 308.1 306.7 303.2 294.5 289 298.7 309 318.8 329.2 340 350.6 361.1 371.3 380.7
394.5 385.7 375.8 363.5 352.9 346.6 337.2 327.7 317.3 306.1 294.3 285.2 277.5 269.5 262.4 256.1 251 246.6 242 240.7 239.5 238.2 237.6 238.9 237.7 232.7 224.5 214.9 211.6 211.1 210.6 210.2 210.4 211 207.4 207.2 207.6 209 211.8 215.8 219.1 222.3 226.2 225.7 224.4 224.5 223.1 220.8 218.7 216.8 217.9 220.6 222.8 224.9 227 229.7 230.7 234.5 242 246.6 250.8 250.5 245.8 237.9 233.9 233.9 236.9 243.3 255.2 272.3 286.7 298.7 306.6 308.9 308.5 300.9 299.4 305.7 313.8 320 326.6 335.2 340.6 337.7 327.8 314.7 302.1 295.4 291.2 308.9 331.8 352.3 367.3 375.1 372.6 359.3 339.5 317.8 301 290.1 282.9 283.1 287.4 293 305.7 318.6 331.1 342.8 355.4 368.8 381.4 395.8 409.4 420.5 431.9 439.8 444.5 448 442.9 431 411.9 392.1 372.3 353.9 335 317.4 301.1 291.2 288.7 291.9 297.1 303.9 313.6 325.7 339.2 347.5 349.8 345.4 336.2 321.5 305.4 291.5 281.3 272.6 258.8 261.2 276.1 293.4 307.7 322.8 342 362.4 380.5 398.9 419.4 438 451.9 460.3 468.8 474.7 478.4 480.7 479.6 475.9 466.5 453.8 441.3 430.1 416.6 398 378.6 361.8 349.6 338.7 328.4 320 311.6 303 294.1 284.5 279.2 284.9 295.1 304.8 309.6 312.3 312.1 310.7 307.1 299.6 294.5 302.3 311.6 321.3 332 343.5 354.5 365.1 376.5 386.5
388.1 379.5 370.1 360.3 353.7 346.8 337.7 330.2 321.7 308.6 297.2 288.2 279.6 270.8 261.9 255.1 250.2 245.9 241.8 240.7 239.3 238.1 237.8 238.7 235.8 229.5 221.4 214.8 212.4 211.8 211.6 211.3 211.5 211.6 208.2 207.7 208.1 208.9 213.6 217.8 222.5 227.4 232.8 235.8 233.9 231.7 228.8 225.4 224 222.1 220.9 223.5 225 227.7 230 232.8 235.2 239.4 249.5 258.5 263.2 262.7 256.2 246.5 237.8 235.8 236.3 240.5 247.2 257.9 271.3 283.3 292.2 299.4 303.9 305.1 310.9 321 328.3 336 345 353.4 359.7 356.5 346.9 335.5 325.4 318.1 314.5 320.2 343.3 363.4 377.7 384.3 379.9 364.3 342.4 319.1 302.5 291.5 286.9 290.7 296.4 302.1 310.7 327.8 344 357.9 370.6 383.2 394.8 405.4 413.5 421.5 430 435.3 436.5 433 425.2 410.9 391.5 371.9 352.5 333.7 316.2 300.3 295.2 295.6 298.2 303.4 309.2 316.2 326.2 339.9 351 355.7 355.9 350.6 339.8 323.8 306.8 294.7 284.8 277 265.3 260.1 278.1 298.7 315.9 333.1 346.3 356.8 369.2 387.1 412.7 434.5 449.8 459.9 468.5 476.2 480.2 481.9 481.2 474 463.2 451 439.5 427.9 412.1 391.9 372.2 356.8 344.4 333.2 323 314.4 306.9 298.9 290.3 282 283.7 292.2 302.1 309.7 314 317.1 316.9 315 311.3 305.3 300.6 305.8 314.4 323.9 335.1 346.7 358.3 370.2 382.4 393.6
380 371.4 363 354.5 347.7 341.1 334.6 327.5 318.6 308 298.6 290.1 280.5 270.4 260.6 253.3 248.4 244.3 241.2 238.9 237.5 235.7 235.4 233.8 230.1 225 218.8 214.5 212.8 212.5 212.4 212.2 212.2 211.8 208.1 208.2 208.4 208.7 215.1 219.9 225.8 233.5 240.1 244.5 246.5 242.8 237.1 231.9 229.9 228.9 229.4 232.7 235.2 237.1 235 235.8 241.4 251.2 261.4 271.8 277.3 275.8 270.4 257.8 244.2 238.1 237.6 239.4 244 250.3 257.4 266.1 275.5 283.6 292.6 304.4 317.4 329.7 339.8 348.3 358.5 368.4 376.1 372 366 355.8 347.8 341.3 337.9 342.2 357.6 375.8 387.8 392.7 387.6 368.6 345 320.3 303.6 294.2 293 299.2 306.8 314 317.8 332.4 352.1 368.1 382.9 395 404.8 413.4 419.3 423.5 428 429.4 426.7 420.2 409.1 392.3 372.8 352.9 333.1 315 302.8 301.4 304.8 307.2 310.5 316.4 323.1 331.3 341.8 354.8 362.6 365 363.1 357.1 345.3 326.9 309.7 297 287.6 279.8 267.5 262.9 282.9 307.3 326.7 344 358 373.3 389 401.9 415.6 432.7 448.4 458.8 468 475.2 479.3 480.3 477.9 469 457.8 446.2 434.7 423.5 406.9 387.3 367.9 352.8 339.8 328.1 318.5 310.9 303.4 295.5 288 285.4 291.3 299.8 308.5 314.8 318.9 322.1 322.3 320.3 316.7 310.5 305.8 309 318 327.6 338.7 350.6 362.6 374.5 387.7 400.4
371.6 363.3 355 347.1 340.5 334.9 329.3 322.4 312.9 303.2 294.5 286.9 277.4 267.2 256.7 250.8 246.1 242.2 240 238 236 233 230.4 227.7 224.6 220.6 216.9 214.5 213.3 213.1 213 213 212.8 211.8 207.3 208.6 209 210.1 216.2 221.3 229.6 241.7 249.7 254.9 258.5 256.2 250.7 243.3 240.9 241.1 245.2 246.6 246.8 247 241.7 239.9 247.6 263.3 275.5 286.3 294.1 294.4 288.2 270.8 256.1 243.4 239.4 240 243.7 247.8 253.3 259.6 266.9 273.2 280.6 292.3 306.8 322.6 337.6 351.6 365.2 378.3 385.7 386 380.8 373.9 369.5 365.4 364 367.9 377.6 389.1 399.1 403.6 392.4 371.4 345.9 320.8 303.9 299 302 310 319.2 327 332.1 337.7 355.8 374.7 391.6 404 414.2 421.4 425.3 426.5 425.7 421.3 415.1 407.3 394 376.3 356.5 336.8 315.9 306.9 308.7 315.6 320.5 323.4 325.2 332.3 340.5 348.6 359.4 367.7 372.4 372.9 370.4 364.1 351.9 331.5 314.1 300.1 289.6 280.9 269.4 265.9 289.2 313 332.8 351.6 369.3 385.7 399.4 414.3 428.8 439.8 450.4 460.3 469.1 474.3 477.1 476.8 473.3 463.7 452 439.9 428.2 416 401.1 382.7 364.9 348.5 335.5 324.1 316.1 308.7 301.4 293.7 288.3 291.7 300.4 309.2 316.6 321.7 325.1 328 328.3 326.2 321.7 315.3 310.9 312.6 321.3 331.3 342.7 354.7 366.5 378.4 391.4 403.3
363.4 355.4 347.1 339.6 332.9 328.1 323.8 316.2 306.7 296.8 288 278.9 269.4 259.8 252.7 248.9 244 239.4 237.2 235.3 233.2 229.9 226.5 223.7 221 218.1 215.6 214.7 214 213.7 213.5 213.4 213.1 212.2 209.2 209.3 209.4 212 215.5 221.8 233.5 250.7 262.4 267.8 272.3 272.3 268.5 262 259.4 259.4 259.8 258.7 257.3 255.2 248.1 244.8 252.1 270.2 287 300.2 309.7 312.5 303.9 287.2 270.8 253.8 242.1 240.9 244.9 248.6 252.5 257 262.6 268.6 275.7 284 294.2 307.4 323.2 340.4 358.5 373.5 387.5 396.2 392.8 391.2 390.8 390.5 388.2 391.8 398 406.1 414.1 418.1 400.2 375.4 346.6 320.4 306.7 308.5 317.1 326.2 334.9 342.5 347.4 355.6 361.3 378.6 396.6 412.5 422.8 428.3 431.5 431.6 427 420.4 411.9 400 384.5 363.4 342.5 322.4 311.1 315.2 325.1 334.4 340.6 343.5 344.6 351.6 358.4 366.3 374.2 379.4 381.8 381.9 379.3 372.1 358.5 338 320.7 305.1 291.4 282.4 270.6 264.9 295.3 320.9 340.6 361.3 379.7 394.9 407.5 422.9 435.7 446.7 458.7 467.3 472.9 476.4 475.6 474 468.1 457.4 445.2 432.8 420.3 406.7 392.6 377.8 361.3 344.7 331.4 321.8 314.5 307.4 299.9 293 291.9 300.4 310.5 319.9 327.2 331.7 333.7 334.8 334.3 331.9 327 320.7 316.1 317.3 323.6 334.2 345.6 357.1 368.9 380.6 393 404.8
357.1 348.2 339.7 331.9 325.4 320.8 316.7 309.5 299.9 289.5 279 269.2 261.4 255.2 250 246.2 240.2 235.4 233.1 231.8 228.9 225.8 223.1 221 218.8 216.6 215.6 215 215.1 215 214.8 214 213.2 212.2 210.1 210.2 210.1 213.1 217.4 224 242.5 263.8 277 283.6 287.2 288.2 286.4 281.6 278.8 275.9 274.2 272 269.3 262.4 253.2 250.4 259.3 278.2 296.7 312.6 321.7 323.4 319.7 305.9 286.7 269.2 251.9 243.7 244.7 248.2 252.1 258.4 264.9 269.7 272.9 280.1 288.5 298.1 310.8 325.1 342.5 360.1 378.5 392.8 398.1 404.6 410.2 411 409.9 412.1 417.3 424.4 430.8 429.9 407 378.4 348.3 320.6 313 322.6 333.3 343.1 352.4 360.4 365.4 376.3 381.6 385.6 399.7 419.4 431.9 437.2 439 435.8 428.8 419.6 408.8 395.4 377.6 354.8 333.3 316.1 317.3 330.9 342.5 355.6 362.9 365.1 365.1 371.3 377.5 383.7 388.7 392.6 394.7 393.9 388.8 379.5 365.4 346 327.4 309.8 293 282.7 269.5 275.7 300.9 323.8 345.7 366.3 385.7 401.8 415.5 430.5 446.4 458.4 467.5 474.4 476.9 475.3 472.7 469.6 462 450.9 438.1 425.6 411.9 397.7 383.6 369.4 355.2 340.8 329.3 320.8 313.3 305.9 299.1 294.2 299 310.4 321.5 331.5 339 341.9 342.7 342.7 340.9 337.7 333.3 327.6 323.5 322.1 326 335 345.6 357.1 368.9 380.5 391.5 402.5
358.2 348.4 338.4 328.9 320.2 313.7 307.9 301.1 291.9 280.8 271.3 264.2 258.2 252.9 247.7 241.7 236.1 232.6 230.1 228.3 225.5 223.1 220.9 219.3 217.8 216.5 215.8 216.3 216.9 216.7 216.1 215.4 213.9 212.6 210.4 210.7 210.8 214.4 221.1 229.4 251.6 272.9 291.6 299.9 301.9 302.6 301.4 300.1 297.2 293.9 291.5 287.6 281.3 272.3 258.4 255.4 266.9 286.7 306 324.3 334.8 340.7 339.7 323.8 302.6 280.3 262.6 247.8 245.6 247.5 252.4 264.6 276.7 286.4 287.5 282.2 286.1 293.8 303.5 315.4 329 344.8 363.1 380.1 394.5 410.9 421.5 427.1 430.8 434.5 438.2 442.4 446.3 439.9 412.7 381.8 350.5 325.1 326.5 339 350.3 361.2 372.2 381.5 387.8 396.8 404.2 411.1 421.3 430.8 442.6 447.5 446.7 439.9 430.8 418.4 405 390.1 370.1 350.1 330.4 318.5 328.8 345.7 362.5 374.5 381.7 385.1 384.8 389 394.2 399.1 403.8 405.3 406.7 404.3 398 387 372.2 352.8 335.1 315 295.5 282.9 268.4 285.1 305.5 325.5 347.1 367.4 387.6 404.4 422.1 439.1 452.7 465.6 475.3 480.4 479 474 469.7 464.8 456.3 444.6 431.7 417.5 403.1 388.8 375.1 361.8 350.4 340.3 330.5 321.4 313.1 305.5 298.8 299.1 310 322.5 334 344 349.4 350.7 350.9 349.6 347.3 343.4 339.2 335.1 331.2 328.2 328.9 336.3 346.1 356.8 368.7 380.1 390.7 400.7
359.5 350.2 341.6 331.8 322.3 313.2 304.7 295.7 286.5 277.5 270 263.7 257.4 252.3 249 245.8 236.3 232.2 228.9 226.6 224.1 222.5 220.8 219.5 218.7 217.4 217.7 219.8 220.3 218.5 217.2 216.8 214.9 210.1 210.9 211.4 211.4 214.6 223.1 237.7 254.8 277.5 300.5 313.4 316.4 318.9 317.6 317.6 315.6 313 309.6 302.3 292.8 278.4 263.7 262.3 275.7 295.4 314.7 331.6 346 355.6 352.5 334.6 311.8 287.8 266.9 251.3 247.9 248.3 254 272.3 288.6 300.4 306.2 302.4 288.5 292.7 299.7 309.8 320 331.5 347.8 365.3 382.9 402 422.9 441.6 451.6 456.7 459.1 459.9 460 445.8 417.9 386.6 354.2 332.6 341.8 357.3 372.4 384.9 399.5 409.9 413.7 419.2 427.9 435.2 444.8 452.1 454.5 456.9 451.1 441.7 430.4 416.5 399.4 381.8 363.6 345 327.6 323.1 339.8 361.5 378.4 391 398.4 402.9 403 405.8 410.5 413.8 417.6 418.6 417 414.1 406.6 393.9 376.3 356.9 338.6 318.7 299 283.3 270.3 289.7 308.8 325.8 345.8 366.5 386.5 404.5 424.5 442 454.5 466.1 476.2 479.3 476.4 471.6 466.5 460.4 451.7 440.8 425.9 409.5 395 382.8 373 363.1 354.3 344.7 333.8 322.8 313.4 305.1 301.6 309.2 322.2 335.1 346.8 354.6 358.1 359.1 358.6 356.9 353.4 349.5 345.3 341.1 337.2 333.9 333.1 340 348.5 358.1 368.9 379.4 389.5 399.5
365.4 354.9 347.4 338.3 327.6 317.2 307.2 297.4 288 279.9 274.2 268.4 262.1 259.5 257.5 250.3 240.7 233.6 229.4 226.2 223.9 222.6 221.7 221.7 222 222 223.5 224 223 220.3 217.9 216.7 214.9 211.7 211 211.8 211.8 217 225.8 240.8 256.8 279.5 304.6 322.3 329.2 334 335.6 335.1 333.2 331.4 327.7 317.5 303.4 284.9 271.3 274.5 286.4 305.3 323.7 340.2 354.9 364.8 361.2 343 319 293.7 269.7 252.8 249.2 249.8 255.3 275.3 297.7 313.7 322.2 322.3 312.6 300.6 300.4 307 315.1 323.7 335 350.5 368.9 392.7 420.9 449 465.5 470.9 473.6 473.8 467.8 450.7 423.2 392.1 360.3 344 357.2 372.5 392.4 411.5 428.5 439.5 444.4 446.7 453.7 459.8 466.4 469.1 466.3 462 455.5 444.2 429.8 412.7 391.8 373.2 356.6 340.2 328.2 331.3 350.8 372.9 393 406.3 414.4 419 421.1 423.2 427.4 431 432 429.4 425.3 421.3 412.7 397.9 377.7 358.5 338.9 319.8 300.8 285.2 273 287.2 308 327.5 343.6 362.1 384.4 404.1 422.9 440 453.4 462.9 471.2 474.3 473.2 469.1 463.7 457.3 448.4 437.9 423.4 406.3 394.1 385.3 378.6 370.6 360.4 348.3 335.7 323.3 313.5 305.8 310.5 321.7 335.1 347.8 358.2 364.5 367.1 368 366.7 363.9 360.1 356 351.5 346.9 343.1 340 340.2 347.3 355.2 362.3 370.1 379.3 388.9 398.2
376.1 367.1 359.6 349.1 336.3 324.8 313.6 304 295.1 287.8 282.7 278.4 273.8 270.2 265.3 257.5 248.7 240.3 236.4 232.9 229.8 227.9 227.2 227.6 228.6 229.4 229.9 228.2 225.7 222.6 219.4 217 215.4 212.4 212.6 212.5 212.5 219.7 228.6 242 259.2 286 312.7 334.3 339.1 344.8 349.2 350.3 351 350.2 345.7 330.7 311.5 292.2 286.3 291.5 299.8 315.3 332.7 348.1 361.6 370.4 367.3 348.9 322.7 296 271.8 254.3 251.3 251.2 256.3 280 303.8 326.3 341.8 342.9 338.2 330.6 322.4 313.8 313.7 318.9 326.9 336.8 353.2 376.1 401.5 425.2 445.3 464.1 480.2 483.9 476.9 457.9 431 401.8 371.4 362.4 379.6 388.4 407.5 432.9 454.2 470.3 476.5 477.7 481.4 485 488.1 484.4 477.5 469.5 459.6 446.7 429.1 409.4 389 370 352.9 339.3 330.9 340.5 360.8 382.6 403.8 418.5 428.4 433.4 436.8 438.7 443.3 445.1 442 436.6 431 424.6 414 396.7 376.2 356.5 337 318.1 300.8 285.7 272.8 289.7 309.8 326.8 341.8 359.4 380.7 401.5 420.8 438 451.3 461.8 470.1 474 473.8 471.5 468.2 462.9 453.2 442.4 429.7 416.4 403.7 392.1 382.8 373 361.5 348.6 335.8 323.3 312.6 311.1 323.8 336.6 349 360 368.2 373.7 376.9 377.2 375.2 371.5 366.8 362.4 357.3 352.3 348.7 346.3 347.2 353.7 360.7 366.4 372 379.6 388.4 397.4
390.9 381.6 371.2 358.1 344.8 332.3 320.9 311.1 302.9 296.7 292.4 288.5 285.4 281.8 276.2 268.3 258.9 249.5 244.5 243.9 240.4 238 237.1 236.4 237.9 238.3 234.7 230.8 228.8 225.9 219.8 217.2 215.9 212.7 213.3 212.9 213.8 219.8 228 243.2 266.6 297.4 322.9 343.9 352.9 360.2 364.8 367.6 370.9 370.2 360.9 341.7 320.4 301.1 301.9 309.3 316.9 328.9 344.3 358.7 369.9 376 373 351 324 297.4 275 260.2 253.2 253.3 257.6 282.3 311.2 337.8 357.6 365.1 363.4 357.8 350.1 340.9 332.6 327.9 329.1 332.1 338.2 350.7 372.4 395.3 420.7 453.3 478.2 490.4 484.9 464.5 441.1 414.2 385.8 384.2 404.1 413.2 425.3 450.6 475.8 495 503.9 507.7 508.9 509.7 507.4 499.7 490.5 477.9 463.2 448.7 429.3 409 389.9 373.3 358.1 342.3 336.6 350.1 371 391.9 412.5 428.7 439.5 445.5 449.4 451.6 455.2 454.1 448.6 442 432.1 423.6 409.6 392.3 372.5 351.8 332.2 314.8 300 283.6 274.3 291 310.2 326 342.7 361.2 379.8 398.4 417.2 434.1 449.3 462.4 472.4 477.1 478 477.8 476.6 471.6 462.2 452.1 440.3 427.8 414.1 400.7 387.3 373.1 359.7 346.6 333.3 321.5 312.1 320.4 335.2 349.2 362.1 371.4 377.9 383.6 387.1 386.3 383.3 379.2 374.3 368.8 363.2 357.9 353.7 351.6 353.7 357.4 363.4 368.9 373.9 380.2 388.5 397.5
405.4 395.3 381.1 367 353.1 340.2 327.9 317.6 310.5 305.4 302.7 299.4 297.3 293.7 287.5 279.4 271.2 262 255.3 251.2 248.6 248.5 249.3 247.8 247.9 245.5 240.8 233.7 230.3 225.8 219.4 217.6 215.9 213.2 213.6 213.4 215.2 219.9 229.2 246.5 274.8 305.5 332.6 353.2 366.1 376.2 382.8 387.5 390.3 388.9 375.5 354.7 331 314.9 320.9 328.1 337.9 350.6 361.7 373 381.5 385.1 375.6 350.8 324.1 298.5 275.8 262.8 254.9 255.3 259.4 284.6 315.9 342 363.9 379.9 385.1 383.1 375.4 366.6 356.5 349.9 345 343.9 345.6 346.9 353.1 369.9 399.4 432.2 465.3 488.9 483.5 470.6 455 432.7 412.1 404.3 424.3 442.6 455.6 472.7 494.2 513.2 525.3 531 533.3 531.5 522 513.7 501.7 487.3 471.1 451.4 429.2 409.2 390.7 374 357.9 344.2 344.5 364.2 384.8 402.6 421.8 437.3 448.1 455.9 461.2 462.5 461 458.2 451.5 442.6 431 419.2 402.9 384.5 364.8 344.3 325.1 310.5 298 282.1 276.6 297 308.2 326 342.1 361.2 380.6 400.4 419.7 437.8 452.1 465.6 476.9 482.5 484.1 484.7 484.1 480.6 472.1 462.3 451.7 438.8 425.2 411.5 396.1 379.7 364.3 349.1 333.1 320.2 315.1 329.6 346.2 362 375.3 383.4 389 394.7 397.9 395.7 391.3 387.1 382.1 376.4 370.6 364.9 361.3 359.6 361 363.8 367.6 371.6 376.3 382.6 389.6 398.5
415 405.5 391.5 376 361.4 348.1 334.7 324.4 318.2 314.7 312.6 311 309.1 305.5 298.7 290.6 282.7 274.9 267.6 261.9 258.6 258.6 260.8 261.1 258.6 253.1 244.9 236 232.2 223.8 219.7 217.7 214 214.1 213.8 214.3 216.9 221 232.5 251.6 281.3 310.5 338.2 362.3 377.6 389.6 398.8 406 407.3 403.8 389.1 366 343.3 335.1 341.3 347.1 357.8 368.8 379.2 388.6 393.5 391.3 375.9 350.8 324.4 298.7 276.5 264.4 257.6 257.2 262.1 290.2 319.1 345.2 370 389.9 400.5 402.2 398.9 391 379.7 371 365 361.2 359.7 358.9 358 362.6 381.2 414.4 451.1 472.8 479 478.1 471.6 458.3 444.8 433 435.2 461.7 478.5 494.7 512.4 529 541.1 548.3 550.4 545.9 536.3 524.8 511.4 494.8 476.2 453.6 429.6 409.8 392.2 375.5 358.7 346.6 356.2 377.4 397.9 415.5 431.4 445 455.6 464.1 468.3 467.1 462.6 456.9 449 437.9 425.1 410.2 393 374.7 354.8 335.3 319.5 306.4 293.6 277.1 291 308 319.6 326.5 341.4 359.1 379.4 399.2 419.7 439.3 454.9 469 482.1 488.9 490.7 491.6 491.4 488.8 482.2 473.5 462.7 449.7 436.2 422.2 405.5 387.6 370 353.2 335.8 319.9 321.1 338.8 357.1 374.6 388.9 395.8 401.2 406.1 409.1 404.9 399 394.3 389.7 384.4 379 374.1 370.5 368.1 368.7 371.5 374.4 377.7 381.3 387.7 394.7 401
422.1 412.4 400.5 383.9 368.3 354.1 341.3 330.4 324 321.7 320.7 320.2 319.5 316.3 309.2 301.6 294 286.3 279.3 273.6 270.4 269.9 272.4 270.6 265.6 258.4 247.9 237 228.6 222.7 219.8 218.4 214.7 214.3 214.5 216.2 218 223.3 235.5 255.5 283.8 311.6 338.8 366.4 388.9 401.9 412.6 421.1 425.5 422.1 404.1 381.5 362 358.7 366.5 373.9 380.4 387.8 396.2 403.9 403.5 396.4 377 350.5 323 297 276.7 265.7 259.3 258.9 265.1 295.4 322.3 349.3 374.6 396.2 411.3 417.3 417.9 413.7 403.6 394.1 387.3 380.8 375.2 373.3 370.1 370.3 375.4 400 430.3 457 478.1 487.3 488 481.4 469.8 452.5 443 472.5 493 508.9 524.7 539.1 551.8 559 560.7 557.6 547.3 534.8 518.8 500.4 480 456.7 432.6 408.5 389.5 373.5 357.5 353.1 371.2 393.2 411.4 427.3 441.9 452.2 460.9 466.8 468.9 465.2 458.6 449.4 439.7 429 415 398.5 382.2 362.8 343.7 326.4 313.8 302.3 285.1 280.5 300.4 317.2 330.9 341.4 349.2 360.8 378.5 398.5 420.5 440.9 456.5 472.7 486.7 495.3 498.5 498.4 497 493.9 488.8 483.1 472.5 459.6 445.9 431.7 413.6 394.5 375.4 357.2 339.1 322.9 326.6 346.4 366.8 386 400.1 406 411 416 417.7 412.5 406.1 400.8 396.2 391 385.6 381.8 379.1 377.1 376.8 379.2 382.2 385.2 389.3 395.1 401.2 406.4
426.7 416.2 404 386.3 368.2 354.4 342.8 333.8 327.7 324.5 323.3 323.1 322.8 320.5 315.5 309.1 301.5 294.2 288.6 284 279.9 278.1 279.2 274 268.8 257.2 241.2 231.5 224.8 223.1 216.5 215.6 215.1 215.4 216.4 218.3 219.8 226.1 239.8 257.8 282.8 309 338.4 368.3 394.9 413 427.6 436.9 441.9 438 422.9 403.1 389.3 387.4 392.7 398 402.2 407.3 413 416.8 411.5 396.2 373.7 346.9 319.2 292.9 275.5 267.2 261 261.6 271.3 298.7 326.8 353.5 378.9 402.6 420.6 431.5 436.4 435.1 427.8 416.1 409 399.4 392.5 391.1 388.7 381.1 383.5 399.5 422.9 451.8 480.9 499.5 501.8 498.1 488.4 466.8 455.6 482.3 502.3 518 533 546.6 558.8 564.8 568.5 565 556 542.1 524.4 505 484 460.7 435.9 412.4 391.7 372.9 359.2 366.2 387.2 406.9 424.6 439.8 451.2 458.3 462.8 464.8 463.7 457.2 449 439 428.9 417.3 403.6 387.6 369 349.4 332.8 319 308 294.4 280.6 293.2 310.3 327.2 341.4 352.9 361 369.4 383.3 401 422 441.4 457.7 477.2 491.5 502 507 507.1 503.5 499.5 495 487.9 476.2 463.5 450.9 436 417.5 398.2 379 360.1 341.4 326.3 332.3 353.6 375 395 406.7 412.3 417.4 422.5 424.3 418.6 412.1 406.2 401.7 397 392.3 388.2 384.7 383.5 384.2 386.9 390 393.1 397.4 402.6 408.6 411.4
421.9 408.4 394.8 380.5 365 352.7 342 333.4 328.1 325.7 324.4 324.8 323.8 321.8 318.4 312.8 304.6 297.2 291 286 281.1 276.5 272 263.7 255.4 240.9 229 228.1 225.9 221.4 216.3 216 216.4 215.7 218.7 220.2 221.7 228.2 243.4 262.3 287.8 316.9 344.9 375.7 402.8 424.8 440 450.8 456.2 454.6 444.4 430.8 419.4 417.5 420 423.4 426.2 427.9 427.7 423.2 408.6 387.7 363.2 336.7 309.8 287.6 273.2 267.6 262.7 264.8 280.3 305.8 331.2 358.8 384.8 409.3 430.3 444.8 453.6 456.9 452.5 443.2 434 420.2 412.8 411.3 408.8 396.2 398.8 417.2 434 457.7 485.7 508.5 513 510.7 502.1 482.9 465.9 491.1 509.7 525.9 539.3 552.9 564.1 570.8 573.3 570.5 562.4 547 528.5 508.4 488.5 466.7 441.9 418.3 395 372.9 366.1 383 402.9 421.3 437.7 451 459 462.2 462.3 460.4 455.6 447.7 437.5 426.3 416.2 405 391.2 373.5 355.4 337 323.4 311.1 299.7 282.4 282.2 303.8 319.9 335.3 350.1 363.7 373.6 382.1 395.7 410.9 428.9 444.1 462.6 482.4 498.5 510.6 515.7 517.8 513.9 506.8 500.8 490.5 478.2 465.5 452.4 436.5 417 398.2 380.4 362.1 343.5 330.1 338.3 360.3 382.7 402.4 411.6 416.8 422.1 427.2 428.7 423.4 417.6 411.3 406.6 402.2 397.7 393.5 389.9 389.3 390.9 394.2 397.6 401.5 405.2 410 414.8 416.7
408.6 395.7 382.6 370 358.9 348.9 338.9 329.9 324.9 323.1 322.6 321.9 320.4 317.5 313.9 305.5 294.8 287.6 280.8 275.6 269.9 263.7 257.6 249.9 239.7 230.3 229 228.7 224.6 216.7 216.9 215.9 216.5 217.9 220.6 222.3 223.7 230 247.3 272.8 297.6 327.5 356.4 386.7 413.7 434.4 450.1 462.7 470 471 465.7 457.6 449.9 446.8 446.9 448.8 448.4 444.5 436.2 417.4 396 373.3 347.1 321.4 297.7 280.4 271.2 265.8 267.7 271.5 288.3 313 337 364 390.9 416.1 439.2 456.9 469.1 476.5 473.5 466.9 460.1 445.9 437.8 439.2 436 416.2 408.6 432.4 450 469.6 495.3 518.6 523.7 520.5 514.1 501.1 478.9 499.4 517.2 532.2 545.1 558.2 568.6 574.8 577.3 573.9 564.7 548.8 529.6 510.8 490.8 469.8 446.4 422 397 372.2 379.3 397.6 416.4 434.6 450.1 461.7 466.5 466.1 462 457 448.1 437.3 425.7 414.1 402.3 390.2 375.7 358.8 341.7 326.7 315.5 302.1 285.1 286.1 300.2 315.2 330.3 346.4 360.8 373.9 387.9 398.8 408.7 423 437.3 450.4 469.2 488.2 505.4 518.1 522.8 525.6 524.1 516 505 492.6 478.9 466.6 453.4 435.8 415.9 398.6 382.1 364.1 345.6 333.3 344.6 366.9 389.3 407.9 415.4 420.8 426.3 431.4 433.2 428.4 422.6 416.7 411.8 407.4 403 398.1 393.5 393.8 397.3 401.6 407.1 410.3 411.9 415.7 418.3 416.8
394.4 382 369.7 358.4 347.8 338.7 330.8 322.7 315.5 311.5 310.2 308.6 305.8 302 297.1 289.5 279.7 272.4 265.9 260 254 248.7 243.8 238.6 232.5 229.2 228.9 226.6 224.1 217.1 216.3 217.6 220.6 222.1 223.1 225.2 227.1 234.8 255 282.6 309.6 338.2 366.8 396.6 422.4 442.5 459.8 473.6 482.7 486.2 483.6 479.8 474.6 471.7 470.4 469.1 462.6 448.8 428.3 404.1 380.6 355 329.3 306.3 286.2 275.9 269.6 270.5 273 278.3 295 318.5 344.8 373.4 400.8 423.6 445.1 465.4 481 489.4 487.6 485.6 481.9 473.9 469 470.2 459.7 435 419.9 446.1 469.5 492.7 515.7 530.7 533.3 530.2 525 516.7 503.2 509 523.7 538.3 551.1 563.4 572.5 578.5 580.5 575.9 561.3 544.8 527.5 509.2 489.1 467.8 445.5 421.4 395.2 378.7 393.4 410.3 428.4 445.3 460 469 471.6 468.4 461.8 452.6 440.4 426.7 414.1 400.4 388.5 374.7 360.6 344.1 328 317 305.6 290.3 287.4 299.8 311.2 325.7 341.2 356.3 370.8 386.2 400.7 412.7 423.5 434.8 446 457.4 476.1 495 511.7 522.9 528.7 532 529.1 521.8 509.9 493.5 478.4 464.3 449.6 432.1 414 399 383.9 367.1 349.7 337 348.2 370.9 394.1 412 419.6 425.3 430.8 436 438.1 433.4 428 422.2 417.1 412.6 407.8 401.9 398.8 397.8 400.8 406.7 413.9 417.8 417.5 418.7 416.6 411.3
379 367.3 356.5 345.1 335.4 326.5 319.4 312.2 304 298.7 295.8 293.5 289.9 285.3 279.5 272.5 264.2 258.2 253.8 249.8 246.2 242 237.3 233.3 230.1 228.2 226.9 225.5 218.7 218.8 218 219.3 225.8 228.1 230.5 231.3 234 243.5 265 290.9 318.1 346.2 376 402.6 425.3 446.4 464.5 480.9 492.6 499.3 500.9 499.6 495.7 491.6 486.7 477.1 460.4 438.4 414.1 388.2 362.6 336.6 312.6 292.4 279.6 272.6 273 276 278.7 284.5 297.7 317.8 345.4 372.9 398.2 420.9 445 467.9 486 496.9 497.9 497.8 496.9 494.1 491.6 490.1 480.2 457.9 439.8 456.7 487 512.7 528.8 537.3 540 539 534.2 528.6 519.9 521.1 531.7 544 556.7 567 575.3 579.9 580.2 570.8 555.6 539.2 522.3 502.8 481.7 460 438.1 415.1 390.6 395.6 410.4 424.8 441.2 456.1 468.9 474.8 475.2 469.4 460 447.3 431.2 415.9 401.7 387.6 374.4 360.4 346 330.7 319.4 307.3 294.5 287.7 294.1 305.9 319.1 333.1 350.1 365.6 381.6 397.3 412.1 425.5 435.4 445.4 453.4 467.1 484.9 501.7 515.9 525.2 531.8 535.5 530.2 521.8 509.1 492 474.9 458.9 442.8 426.2 410.5 397.7 384.7 370.7 355.2 341.7 350.6 373.9 397 415.2 423.1 429.5 435.3 441.4 443.3 438.4 432.9 427 421.6 416.6 411.9 407.7 405.1 403.5 403.4 408.3 415.4 420.8 418.3 413.3 407.1 399.6
363.3 351.7 340.9 330.6 321.2 313 305.9 299 292 286.1 282 278.6 274.7 270 263.8 257.1 253.3 250.8 248.3 245.3 242 237.9 233.4 230.5 229.1 227.1 225.7 225 219.2 219.3 219.6 224.4 228.6 231.3 235.5 239.1 244.1 254.3 273.7 298.6 323.9 352.1 378.2 402.7 424.7 446.2 467.6 486.4 500.2 508.8 514 514.4 511.8 505 492.2 472.3 449.2 424.1 397.9 370.4 344 319.3 297 282.2 275.4 276.2 279.5 282.4 286.5 290.9 300.6 315.2 331.6 354.8 382.5 410.3 439.8 465.6 485.5 498.8 504 505.6 506.2 505.7 505.8 505.8 503.6 485.9 466.2 460.1 489.3 516.9 532.9 541.7 545.4 545.5 542.9 538.8 532.1 532.8 539.6 549.9 561.2 569 575.1 578.3 575.1 564.2 549.6 532.1 513.6 493.3 471.2 448.3 424.6 402.9 406.2 418.6 431.1 444.2 456.4 469.3 475.5 478.2 475.4 467.6 455.8 440.7 422.8 405.9 390 374.2 360.4 347.4 333.8 320.9 309.7 296.4 290.2 296.1 301.9 309.8 324.1 340.6 357.1 372.5 388.6 406.2 422.4 435.3 445.4 455.8 463.9 477.1 491.5 505.1 517.5 525.9 532.5 532.8 526 517 504.7 488.8 470.5 453.7 436.9 421 407.9 396.1 385.3 372.6 359 345.1 352.5 375.8 399.3 417 425.3 432.5 440.1 446.5 448.3 443.6 437.8 432.1 427.4 422.6 418.8 415 412 408.8 406.2 407.7 414.2 418.9 413.2 403.4 394 385.7
347.6 336.2 325.9 315.9 306.4 298.9 292 285.6 280.4 275.3 270.6 266.4 262 258.1 250.8 248.4 249.7 247.2 243.7 241.1 239.3 234.3 231.8 230.2 228.6 226.9 225.5 224.5 219.7 219.8 220.1 226.5 230.8 234.6 239.3 244.9 249.1 259.7 277 299.4 323.5 348.5 373.3 399 422.9 446.6 469.2 489.1 504.6 515.7 522.5 523.5 519 506.4 486.7 461.3 435 408.4 381.4 353.6 327.4 304.3 285 280.2 279 282.4 286.8 292.3 299.9 303.6 309.6 325.8 346 358.7 373.4 405.2 435.3 461.3 482.7 497.3 505.6 510.5 512.8 514.3 518.2 519 517.9 512 493 475.5 484.8 512.4 531.4 543.4 547.9 549.9 549.2 547.3 543.2 543.5 548.3 556.4 564.3 571.3 576.3 578.2 570.8 557.8 541.1 522.8 503.8 482.7 458.9 433.2 413.1 422.5 432 442.6 452.7 462.3 470.8 481.5 485.4 482.5 476 465.2 452.2 434 414.7 396.8 378.9 361.5 347.5 335.1 322.5 311.5 299.3 292.2 295.5 305.7 313.1 316.8 327.5 341.9 359.9 377.5 395 413.4 428.4 440.3 452.1 463.9 472.2 483 494 507.1 518.5 525.5 529.4 526.4 519.5 509.6 496.1 481.9 465.6 449.1 433.3 418.4 405.5 395.2 385.3 374.9 362.1 348.9 355.1 377.9 401.1 418 426.7 434.5 442.3 450.3 452.5 447.8 442.5 438.3 434.5 430.5 427.2 423 419.5 415 409.5 405.5 408.1 412.4 404.1 393.3 382.6 371.7
331.7 320.6 310.4 302.3 295.1 287.6 281.1 276 271.2 266.3 262.1 258.8 255.8 248.4 248.4 249.2 249.9 246.7 241.1 237.8 235.8 233 231.3 229.7 228.2 226.7 225.3 224 220.2 220 220.7 227.2 234.7 241.7 247.1 251.4 256.7 266.4 281.4 297.3 317 341.5 366.3 393.9 420.7 445.8 469.3 490.1 506.4 518.3 526.1 524.9 514.6 496.9 474.7 448.6 421.1 393.1 365.8 338.5 312.9 292.1 283.6 283.8 284 289.2 297.2 308.9 317.1 319 321.9 337 359.6 377.9 392 408 430.8 458.5 479.6 494.8 505.9 514.1 519.2 524.8 528.7 529.1 527 522.8 515.7 502.9 498.1 505.2 526.4 541 548.9 553 554.2 553.6 551.6 552.4 556 562.3 569.1 574 575.9 572.1 562.6 548.5 531.8 513.2 493.9 471.3 447.4 429.1 439.8 448.1 455.9 463 470.7 480.2 489.2 494.5 493.4 487.4 476.8 462.3 446.7 428.1 408 389 370.7 354.4 340.9 327.4 314.9 303.7 293.9 297.2 308.2 316 326.2 330.6 335.8 342.3 360.4 378.5 395.7 412.4 428.6 441.7 455.2 468 477.1 487 496.5 508 517.3 522.6 523 518.5 510.6 499.1 485.9 473.1 458.5 444 429.4 416.3 403.4 393.4 384.4 374.3 362.8 351.9 358.6 380.3 402.8 418.5 427.5 436.6 445.2 452.4 454.4 451.1 447.5 445.1 441.2 438.1 434.3 429.7 426.9 422 415.7 408.6 402.1 398.6 392.6 385.5 376.7 366.3
316 306.7 299.6 293.1 286.9 280.9 274.8 269.7 265 261.2 257.7 255.1 253.5 249 253.5 254.8 252 245.6 239.7 236.5 234.3 232.5 230.8 229.3 227.8 226 224.2 221.8 220.9 220.6 220.4 232 241.7 252.3 258.2 262.2 267.2 275.4 284.6 295.5 314.4 337 361.7 388.3 416.7 443.3 468.2 490 506.3 517.3 523.4 520.3 504.8 484.2 460.9 435.6 407.9 379.4 352 325.7 302.4 287.9 287.7 289.5 291.1 298.9 313.1 326.3 332.7 338.9 344.1 348.8 369.8 391.2 410.2 427 445.2 463.8 481.7 496.8 508.9 518.7 527.1 533.2 534.9 534.9 533.5 531 526.5 522.1 521.3 514.4 519.9 539 550.1 556.3 558.8 559.1 558.5 559.3 563 567.8 571.5 573.4 570.8 563.8 552.8 539.5 522.9 505 483.2 459.4 440.1 452.2 462.6 469.6 475.1 481 488 497.7 502.6 503.6 500.4 492.2 477.2 459.3 441.2 421.7 402.9 382.4 365.9 349.8 335.7 322.7 309.9 298.1 297.5 310.1 316.8 326.3 336 343.9 348 356.6 364.6 375 393.5 410.4 426.7 441.6 455.8 468.9 479.8 489 498.4 507.7 515.5 518.6 516 509.6 499.1 487.5 476.1 464.4 450.6 435.9 423.5 411.8 400.7 391.6 383 372.4 361 353.7 363.9 383.6 402.2 417.8 428.7 438.4 447.3 453.5 455.1 453.8 452.5 450.9 447.8 444.2 440.4 437.7 434.5 430.4 426 415.9 406.6 396.4 389.6 384 377.9 369.8
306.7 300.8 294.9 290.7 286.9 280.7 274 267.3 263 259.3 255.8 254 253.9 256.2 258.2 256.6 250.3 242.9 238.2 235.4 233.6 232 230.4 228.9 227.7 226.1 223 221.6 221.3 221.4 228.7 236.6 248.8 260.8 267.7 274 279.4 283.9 294.2 307.4 320.3 334.5 357.7 384.3 413 441.2 468.2 490.2 505.9 514.4 516.3 508.8 491.7 470.9 447.4 422 395.3 368 341.7 317.1 295.2 290.2 292.4 294.9 302.1 314.2 329.5 340.1 347.4 353.8 361 368.5 376.9 399.1 420.1 438.9 457.7 475.5 490.2 503.9 516.4 527 534.6 538.8 539.8 540.5 539.9 538.1 535.5 533.6 533.5 534.5 534 541.8 552.3 558.4 561.8 563.2 563.7 565.3 568.1 570.4 570.6 568.8 562.8 554.2 542.9 529.9 514.9 497.6 470.2 450 460.8 472.4 481 486.7 491.8 496.7 503 509.9 513.4 513.2 503.7 490.1 473.1 453.6 433.5 415.4 396.4 379.1 362.9 347.9 333.9 320.4 304.9 298.9 308.4 317.5 326.9 336.7 347 357.4 365.2 365.4 376.7 384.8 396 410.7 426.7 441.6 455.5 468.4 481.3 490.6 500.1 507.2 513.2 514.1 508.8 499.8 487.5 476.4 466.3 455.6 442.4 427.7 416.6 406.2 396.9 388.8 380.4 369.8 360 361 377.9 395.3 408.5 420.9 430.1 439.5 448.8 455.1 456.7 456.7 456.5 455.6 453.1 450.5 447.9 446.4 442.4 439.3 435.1 425.8 416.3 406.7 397.7 393 387.6 380.8
304.6 301.4 298.8 296.6 292.8 285.7 276.5 266.7 261.7 258.4 257 255.3 255.4 258.6 260.6 257.6 247.8 240 236.1 232.8 232 231.3 230.1 228.8 227.6 225.3 222.8 221.9 221.6 221.8 233.4 243.8 258.3 268.7 278.9 286.9 292.5 297.1 308.4 321.8 334.8 348.4 362.7 385 413.9 443.2 469.2 491 505.2 511 510 497.9 478.5 458 434.3 409.2 383.2 357.2 333.6 311.5 294.6 293.5 296.5 301.8 312.3 327.5 341.9 352.3 360.2 369.7 376.2 385.4 395.2 405.7 428.2 448.4 467.5 485.3 499.8 513.1 525.3 534.3 539.9 544 546.6 547.6 547.1 545.7 543.7 542.6 543.3 544.6 546.4 551.4 556.6 560.9 564.1 566.2 567.5 569 570.6 570.3 568.1 563.1 555.2 546 535.1 521.7 506.9 487.6 463.7 466.9 481 489.8 497.6 503.4 508.2 511.8 516.6 518.7 519.8 513.9 499 482 465.9 446.1 426 407.3 389.4 373 357.4 343.5 330.1 314.3 300.7 301.4 315 324.8 337.6 349.5 360.8 371 378.4 380.7 388 396.1 407.3 418.4 432.2 444.8 456.6 469.3 483 492.8 500.6 507.1 510.9 508.4 500.5 489.5 477.3 465.3 454.8 444.7 432.3 420 409.8 400.1 391.5 383.2 374.9 367 368 378.4 395.5 410.8 423.6 433.6 439.5 445.4 452.5 456.8 458.6 459.8 460.8 460.6 458.9 456.9 454 451.6 447.8 445.6 441.3 433.8 424.9 417.6 411.6 408.3 402.2 393.8
310.7 308.8 306 301.8 297.4 289 276.5 266 260.9 259.4 258.3 258.1 258.9 259.4 261.7 256.2 246.3 239.1 233.6 231.2 231 230.7 229.8 228.6 225.9 223.5 223 222.4 221.7 230.9 240.6 253.7 267.8 278.1 291.9 300.6 306.6 313.3 323.8 338.1 350.6 362.5 378.1 399.5 423.2 449.9 474.4 492.8 504.1 508.4 504.4 489.3 467.2 444.9 421.9 397.6 372.7 349 326.7 306.9 297.1 296.8 300 306.9 322.2 339.6 353.2 367.5 375.5 383.7 396.2 406.4 416.2 425 437.3 457.4 477.2 495.7 509.4 523.1 533.9 542.3 547.9 553 555.8 556.3 555.5 553.5 551.6 551.9 552.3 553.8 555.9 558.7 561.3 564.7 567.4 568.8 569.7 570.6 571 568.9 565.1 559.2 552.7 541.4 524.4 507.2 492.4 477.4 470.4 482.8 494.9 504 512.3 519.3 523.1 526.3 527 524.9 521.9 510.4 492.3 474.6 456.7 437.4 417.2 400.5 383.5 366.6 350.4 335.9 322.6 308.7 301.7 311.1 321.3 334 348.4 358.9 370.2 379.6 387.1 392.8 397.3 406.3 417.6 427 440.7 450.7 460.7 472.9 485.6 493.9 500.8 506.2 507.7 502.3 492.5 481.3 468.3 453.7 442.3 432 420.7 410.4 401 392.6 384.8 377.2 371.5 375.4 384.9 396.8 411.9 427 439.9 447 451.3 455.4 458.2 460.4 462.5 464.7 465.2 464.3 462.2 458.7 454.5 451.6 447.8 444.4 443.2 444.2 438.1 431.6 428.5 424.8 419.7 410.4
315.7 313 308.2 301.3 295.3 288.4 275.3 265.2 262.3 261 259.9 259.6 260 262.3 262.1 254.6 244.4 237.9 231.9 230.4 230.3 229.8 229.2 228.6 224.8 223.9 223.2 222.9 228.4 237.8 249.2 263.2 276.2 289.6 304.9 315.4 321.9 328.6 339.7 353.4 367.6 380.9 400.7 419.4 439.6 461.4 481.2 495.9 503.7 505.7 500.6 481.2 457.8 434.8 410.5 385.5 361.7 341.1 321.7 304.8 299.7 299 301.9 311 330 350.9 368.8 383.1 392.7 402.3 413.4 424.1 433.9 443.9 454.1 469.6 488.5 505.2 519.8 533.5 543.8 551.4 557.1 562.4 564.6 564.4 562.8 560.8 559.2 559.2 560.6 561.8 563.7 565.5 566.7 569 570.2 571.4 571.8 571.7 570.9 568.7 564.7 559.1 550.4 535.8 524.2 512.1 501.7 491.9 480.3 496.1 507.5 517 525.8 532.2 536.1 537.1 534.2 527 518 504.7 486.3 466.2 447.5 429.2 407.7 392.3 376.3 360.2 345.1 331.4 318 305 304.3 320.2 332.2 341.3 355.4 366.8 376.9 386.6 395.4 403.6 412.4 419.4 427.7 438.8 449.5 457.1 466.4 477.9 487.8 494.5 500.1 504.2 503 496 486.1 474.4 459.2 441.7 429.5 419 408.4 399.7 390.8 382.3 378.4 378.9 382 388.9 399.8 412.3 426.4 441.6 453.9 458.7 461.6 463.8 464.4 464.7 466.4 466.5 463.3 460.3 457.9 453.2 448.9 445.7 442.1 439.4 438.7 442.9 441.3 440.8 439.9 436.5 431.4 423.1
314.1 311 305.6 298.7 291.8 284.3 272 265.7 264.4 262.8 261.7 261.7 266 269.1 262.4 250.5 241.7 235.5 230.7 230.4 230.6 230.1 229.4 228.8 225 224.5 223.8 222 235.2 245.1 256.6 271 284 301.4 315.6 327.5 335.7 345.2 357.6 371.3 385.3 402.7 421.6 439.4 457.1 474.7 490.2 499.8 505.5 505.3 497.3 475.2 451.3 426.6 402.6 377.5 354.7 336 319.6 305.7 303.3 301.7 303.7 312.4 335.6 359.8 378.6 392.1 405.7 418.7 430.7 440.6 450.8 461.5 472.8 484.8 498.8 514.3 528.7 542.7 552.7 560 566 569.7 572 571.6 569.6 568 566.3 566.5 568.9 570.2 571.6 572.2 572.5 572.9 573.8 574.2 574.4 573.5 572.4 570 566.3 562 556.5 549.9 542.1 529.2 519.8 505.5 489.9 507.7 518.9 528 536.9 543.5 546.6 546.5 541.1 528.3 514.8 498.7 479.8 458.8 438.4 418.1 399.9 385 369.8 354.8 341.1 327.5 313.6 305.1 309.4 329.8 345.1 355.5 363.6 377 387.9 397.5 407.3 415.4 423.4 430.1 438.7 449.4 457.4 464.2 474.3 483.8 490.4 494.7 497.7 498.9 494.8 487.8 479.5 466.4 447.2 429.6 418.7 408.6 398.6 391.2 387.2 387.1 389.1 390 395.1 402.4 412.7 424.3 437.1 451.3 462.8 467.8 469.7 470.6 469 466.4 463.6 460.4 456.7 454.4 450.7 445.1 439.9 436.3 433.4 430.8 431.2 436.8 442.2 445.7 444.7 441 436.7 427.3
306.3 302.8 299.3 293.3 286.5 278.8 270.7 267.1 265.7 264.2 263.6 266.5 273.8 273.2 258.9 246.4 238.9 233.7 230.8 230.9 231 230.4 229.8 229.8 224.9 223.7 224.4 232.2 242.5 252.3 264.6 278.2 293.1 310.4 327.6 339.6 351.7 363.3 377.2 391.7 408.3 424.7 441.4 458 474.3 488.9 500.4 506.8 508.9 506.4 496.6 472.6 447.7 422.9 398.1 373.9 353.7 335.1 319.4 308.2 307.6 308.4 305.7 311.2 330.5 351.4 373.6 395.1 413.4 429.1 443.2 457.5 467.2 478.5 489.8 500 511.2 524.3 537.5 551 561.2 568.7 574.1 577.3 579.3 578.5 576.7 575.2 573.7 573.8 576.5 579.2 579.6 578.9 578 577.8 577.7 577.7 577.5 577 576.6 575.1 571.9 567.3 562.1 556.2 549.9 542.7 533.5 519.7 501.8 514.6 527.6 537.9 546.7 554.4 556.2 555.7 545.8 529.1 512.7 494.4 473.6 451.8 429.5 407.1 389.3 375.9 362.4 349.4 337.6 325 310.4 306.9 318.7 339.5 356 367.3 373.2 387 398 408.5 418.5 426.3 433 440.8 449.8 459.9 466.5 474.4 482.3 489.2 492.1 493.8 493.8 489.7 483.9 477.6 470 454.4 434.6 420.5 409.7 400 397 397.8 398.8 400.5 402.2 403.5 405.6 413.6 422.7 433.3 445.5 457.2 468.1 476.1 478.3 476.6 471 464 458.6 453.8 449.3 445.4 439.7 433 427.6 423 421.1 420.1 424 432.2 438.4 442.2 442.4 440.4 435.9 427.6
297 293.9 291.5 287 281.2 274.6 270.3 268.2 266.7 265.7 269 274.1 275.9 269.6 255.3 242.2 235.7 232.3 231.5 231.7 231.3 230.8 230.4 225.4 225.4 225.4 226.8 238.6 248.2 260.3 274.7 286.9 304 322.1 338.4 352.8 368.9 383.3 397.4 412.6 429.7 446 461.6 476.5 490.7 503.5 512.9 516.8 516.7 511.5 498.4 472.8 447.5 422.5 397.8 373.3 351.7 334.2 318.8 311.9 311.6 313 311.1 311.4 323 343.4 365.9 390.9 416.1 437.6 455.6 470.9 482.6 492.9 503.5 513.6 523.4 535.4 547.4 559.9 571 578.7 582.8 586.2 586.7 585.3 583.6 581.9 581.2 582.6 585 587.3 587.3 585.7 583.5 583.1 582.8 582.3 581.6 581.4 581 579.9 576.9 572.9 567.6 562.1 556.6 550.9 542.8 527.9 512.5 521 534.8 545.9 556.1 564 562.6 559.9 543.5 525.7 509.2 490 467.9 447.3 424.2 401.6 382.7 368.2 355.8 344.2 333.1 321.9 310.6 310 326.1 346.1 364.7 379.9 388.1 395.9 407.4 418.5 428.6 436.2 442.8 450.8 459.3 467.1 475.5 482.4 489.2 493.9 493.5 492 487.9 479.7 472.4 465.7 457.5 441.8 423.5 410.9 408.3 407.9 410.3 412.5 414.3 416.3 418.9 419.2 418 423 430.4 439.8 449.8 460.5 471.2 481.7 482 474.9 466.8 458.9 452.3 446.4 440.1 434.1 427.2 420.9 414.9 410.5 407.5 408.2 415.1 422.3 426.1 429.5 432.5 432.7 432.2 429.2
288.7 286.4 284.2 280.8 277 273.1 271.4 269.5 267.8 269.5 273.8 274.4 269.4 261.3 248.7 238.1 234.3 231.6 232.1 232 231.6 231 225.2 225.1 225.9 228.1 234.3 243.5 254.3 268.5 285.2 297.9 312.4 331.8 350.1 369.2 385.4 402.4 417.5 433.9 450.5 467.4 481.7 494.1 505.7 518.3 526 528.7 527.4 518.6 501.1 476 450.9 426.4 400.6 375.9 356.6 337.6 320.1 316.3 320.6 323.3 318.4 313.6 318.5 335.1 357.2 383.7 410.2 434.7 454.7 472.6 489.4 503 514.5 524.9 536.1 548.5 560.3 572.2 581.2 588.3 592.8 594.7 593.8 592.1 590.4 589.4 589.1 590.3 592 593.5 593.2 591.4 589.7 588.6 587.8 586.9 586 585.7 585.7 584.3 581.5 577.5 572.5 567.4 563.1 558.2 551.3 541 522.8 532.4 544.5 554.2 562.7 566.4 562.8 554.4 538.3 521.7 504.8 484.7 464.2 443.5 420.1 397.6 379.9 366.3 354.8 343 331.2 320.4 311.3 314.8 333.8 354 373.6 390.3 401.1 407 416.3 427.1 436.7 444.6 452.3 460.5 466.8 475.4 482.7 488.4 493.6 496.2 494.7 489.9 481.5 472.1 462.9 454.5 445.1 429.2 416.3 419.3 421.9 424.8 427.5 429.8 431.8 434 435.3 433.8 430.5 432.6 436.7 443.2 453 463.5 473.9 481.7 477.8 468.9 459.6 450.8 443.4 435.3 427.8 421 413.8 406.9 401.7 396.8 391.8 393.6 401.9 407.2 412.1 417.2 421.4 424.5 426.9 423.8
290.7 287.6 283.9 279.8 276.5 273.6 271.3 269.8 269.2 271.1 272.1 269 262.4 252.3 241.5 236.5 233.4 231 232.4 232.4 231.8 230.8 226.7 226.6 226.4 228 238.7 246.5 256.7 270.8 287.9 303.6 321.8 342.5 362.8 379.7 399.2 421.3 436.3 454.3 471.3 486.8 499 511.7 523.9 534.1 540 541.5 536.5 525.2 505.8 482.4 457.8 433.5 408.7 383.2 362.3 341.1 322.6 324.4 336.8 342.9 332.8 322.1 318.4 326.4 346.6 369.8 394.6 420.1 447 469.9 488.3 504.4 519.9 532.6 547.2 560.7 573.2 583.4 590.7 596.9 600.3 601.3 600.6 599 597 596.7 597.4 599.1 600.1 600.7 600.1 597.7 596.1 594.7 593.3 592.3 591.2 590.2 589.4 588.3 585.7 582.1 577.3 572.4 567.9 563.9 558.3 548.8 536.5 546.1 554.3 561.5 567.3 567.3 560.1 548 532.9 518.2 500 479.9 459.2 438.6 415.6 395 377.4 365 353.7 343.3 331.6 320.2 312.4 320.5 341.9 363.3 382.2 401.6 413.2 418.9 424.4 434.7 443.9 452.3 459.9 466.6 474.1 482.6 487.5 492.4 495.9 497 494.8 486.7 476.9 466.4 456.1 445.8 435.6 425.6 429.1 434.5 439.8 443.7 446.9 448.6 449.9 451.2 450.3 447.5 443.1 444.5 448 447.4 453.5 463 471.6 475.4 469.5 460.1 450.6 440.3 431.5 423.9 414.6 406.2 399.6 392.6 387.9 381.9 378.3 380.4 387.8 393.3 398.7 404.2 409.6 414.7 418 416.8
296.7 294.2 289.5 284.1 278.8 274.4 272.5 272.2 275.5 274.4 270 263.8 255.1 244.7 238 235.3 232.5 231.2 232.5 232.7 231.6 227.4 227.1 227 226.8 234.4 242 251.9 260.4 268.6 281.7 298.2 319.5 342.6 365.8 387.2 410.6 431 450 470 487.8 502 514.1 527.1 538.9 547.7 552.2 550.9 543.6 531.8 513 490.4 466.2 442.2 417.8 392.2 367.7 346.2 327.1 335.5 353.3 359.8 346.9 331.9 322.9 323.4 334.3 355.6 379.2 406.3 434.4 457.4 474.1 492 511.3 531.4 552.4 568.8 583 593.2 599.7 603.9 605.7 607.7 606.8 605 604.7 605.3 606 607 607.4 608 606.7 604.4 602.3 600.4 598.7 598.1 597.2 595.9 594.5 593.1 590 586.8 582.2 577.3 572.6 569 564.5 558.8 553.9 557 561.4 566.7 569.5 566.5 555.8 542.1 527.5 512.5 494.7 474.7 454.5 434 411.6 393 377.7 364.3 352.5 341.7 330.7 320.1 312.9 324.9 350.9 373.6 394.2 412.1 423.8 429.6 434.7 441.6 450.2 458.3 466.1 472.8 481.5 488.9 492.5 497.4 499.6 497.2 491.1 482.8 473.1 463 452.3 441.6 433.8 437.7 444.6 450.5 456.7 461.9 465.7 467.1 468 469 467.5 466.4 462.3 464.6 466.8 459.4 452.7 457.5 463.1 468.7 459.9 448.4 437.8 428.1 420.3 411.4 401.3 392.4 385.6 379.6 373.9 368.6 366.1 369.1 374.6 379.3 384.2 389.5 395.2 400.4 404 403.9
303.9 300.9 295.5 289.3 282.6 279.4 278.4 278.4 277.8 274.1 266.1 256.2 246.8 239.9 237.2 235.2 231.6 231.2 232.1 231.8 228.8 227.7 227.7 227.6 227.3 236.9 247.9 259 268.1 276.3 279.1 293.2 310.8 335.7 359.2 383.5 408.1 429.9 452.2 474.2 493.1 509.9 525 539.2 549.7 557 560.4 558.7 551.5 539 520.8 499 475.4 450.6 426.3 401 375 350.2 332.9 350.2 369 377.5 363.1 346.1 330.9 325.5 328.4 342.3 363.4 391 415.5 432.4 450.8 474.9 503.9 528.6 552.3 571.4 586.1 597.3 605.5 608.8 610.2 611.7 612 610 610.7 611.4 612.2 613.3 614.3 615 613.3 610.5 607.7 605.9 605.1 605.1 605.4 605.9 603.9 600.4 596.7 592.5 587.7 582.1 577.5 574.1 569.7 565.7 563.6 563.6 566.5 569 568.6 563.1 550.5 536.8 522.2 506.5 489.2 470.4 450.8 430.3 409.8 392.8 378.3 364.9 352.1 340.8 329.7 319.8 315.2 329.3 356.1 382.1 401.7 420 431.9 439.2 445 450.2 456.2 463.4 472 479.2 485.8 492.4 497.3 501.1 499.4 495.1 487.6 479 469.7 459.6 448.9 440.9 443.5 452 459.2 466.1 472.8 478.3 481.4 484.6 485.9 486.7 486.5 485 483.1 483.5 482.7 476.3 459.5 452.9 451.9 455.6 451.7 437.4 426.7 416.3 406 395.5 387.3 378.7 371.1 366 360.8 356.7 354.1 355.6 358.9 362.8 367.7 372.3 377.1 381.9 385.4 386.3
311.8 307.9 301.8 294.9 288.6 286.6 284.7 279.5 273.6 265.6 256.1 246.4 241 238.1 236.1 233.9 231.4 231.4 231.9 232.2 228.6 228.1 228.1 228.1 231.2 242.2 255.2 266.9 275.9 284.5 292.5 292.3 306.4 325.1 349 373.8 399.6 423.2 447.6 470.5 489.8 509.2 528.4 544.6 556.3 563.8 567.1 565.4 559 546.5 529.8 507.9 483.6 458.7 433.2 408.1 381.5 354.7 340.8 362.6 383.2 394.4 381.9 363.2 344.3 332.1 330.5 336.9 355.6 374.9 396.7 423.6 451.9 479 504 524.9 546.9 567.5 583.7 594.1 604.5 611.5 610.4 612.2 613.8 614.3 615 616 618.5 620 621.2 620.9 618.7 615.7 612.6 612.7 613.5 614.8 615.3 613.6 611.4 607.5 603.3 598.4 593 587.1 582.8 579.1 575.2 571.1 568.7 567.9 568.7 568.1 565.4 557.6 545.4 531.8 516.4 500.5 484 468 450 430.6 412.3 395.4 379.9 366.5 353.3 340.5 327.2 319.7 316.3 334.3 361.7 386 407 425.2 437.9 446.6 452.6 457.5 462.4 469.2 477.4 484.7 490.7 496.5 500.7 501 498.3 493.3 485.2 476.1 467.1 457 447.6 446.7 455.5 463.5 471.2 478.6 484.4 490.1 495.6 500.1 502 503.4 503 501 498.8 498.2 498.3 493.3 474.1 458.7 446.1 441.5 438.4 428.4 415.2 401.6 390.1 381.6 373.1 365.3 358.3 352.9 348.3 344.4 340.8 341.4 344.1 346.7 350.9 356 360.8 364.9 368.6 370.5
319.9 314 305.8 298.6 293.7 288.5 282.4 273.7 263.7 256.2 246.7 242 240.2 237.3 235.1 233.3 232.3 232.7 231.9 229.5 229.2 228.8 228.6 228.7 237.9 248.1 261.8 273.1 283.6 293.1 301.5 307.2 306.4 319.8 337.1 362.8 388.8 414.2 438 460.6 481.8 504.3 526 544 558.2 567.3 570.4 570.2 564.9 553.4 536.2 517 493.2 467.9 439.6 412.6 385.3 356.4 353 375.6 393.7 413 405.3 381.6 360.1 344.2 336.5 335.9 348.2 368.1 396 424.8 452.4 477.6 497 515.8 538.9 556.6 571.2 581.7 592.2 600.7 605.3 608.3 612.7 616.2 618.2 621.2 623.3 625.5 626.4 625.5 622.6 619.8 619 620 620.7 621.6 622.1 620.6 618.4 615.5 611.5 606 599.5 593.1 588.7 585 580.3 575.8 573.3 571.7 570.9 567.4 561.7 552.5 539.6 525.2 509.2 494.7 481 466.3 449.7 432.1 414.2 396.6 380.2 366.1 353.6 340.9 327.4 320.3 316.5 332.9 358.6 382.5 404 423.6 438.9 450.5 458.4 464 472.2 480.5 488.2 494 498.2 500.9 502.4 500.9 497.7 492 483.4 474.2 464.8 455.8 452.1 457.8 465.3 471.8 480.1 487.6 494.4 501.1 508.1 512.9 515.4 517.6 517.7 514.4 511.9 511.2 511 507.8 493.7 470.2 452.6 437.5 423.3 413.1 400.9 388.2 376.6 368 359.4 352.9 346.6 341.1 335.9 331.4 327.1 326.9 329.7 331.4 335.1 340.1 345.2 348.9 353.2 358.3
324.6 318.1 311.3 301.2 293.6 283.6 272.5 262.2 255.4 248.8 243.2 240.4 239.1 238.2 236.5 235.2 234.3 233.3 228.9 230.4 230.1 229.7 229.8 234.6 241.7 252.7 266.2 278 291.3 304.4 313.6 317.5 322 322.1 333.6 351 377.5 403.7 427.4 450.6 473.9 498.3 520.5 541.5 555.4 564.7 569.3 570 566.6 558.8 544.3 526.5 501.4 476.2 446.2 417 387.6 359 367.1 389 411 431.9 425.8 400.3 377.4 357.8 343.2 337.7 343.3 362.4 389.9 419.2 445.8 467.6 482 501.2 521.5 536.6 550.6 561.1 570.6 579.7 591.2 598 604.9 614 619.6 624.6 627.5 630.9 631.8 628.9 626.2 624.8 625.8 626.6 627.9 630.3 631.9 631.6 629.4 624.7 619.3 613.1 606.2 599.5 594.8 590.7 585.9 581 577.4 574.4 571.1 566 558.1 547.3 533.7 517.2 502.2 489.2 476.1 461.7 445.9 429.9 412.6 395.5 378.6 363.7 352.1 342 328.9 321.9 317.8 332 350.9 374.5 398.4 421 440.3 454.1 464.7 475.5 485.2 493.8 500.7 504.9 507 507 505.1 502.4 498 491.7 483.3 474 464.9 460.2 462.1 467.2 474 480.2 488.4 495.4 502.5 509.9 518.4 524.4 528.2 531.1 530.9 527.8 524.1 522.8 521 516.9 508.1 489 465.5 442.7 423 405.7 389.6 377.5 368.3 359.4 351.6 345 338.3 332.7 326.9 320 314.4 313.8 315 316.7 320.7 325.3 330.2 334.5 338.6 342.3
324.2 317 308.3 297.2 285.6 272.2 263.2 257.4 251.3 245.4 241.5 239.6 239.8 240.6 237.8 236 233.2 232.9 231 230.7 230.6 230.2 232.6 237.8 244.7 256 269.4 283.1 296.9 310.5 321.9 329.8 333.6 336.8 341.8 348.9 366.8 392.6 417.4 440.5 466.5 491.7 514.4 534.8 550.1 560.8 566.2 568.2 566.9 561.5 549.6 532.1 508.1 482.6 452.4 423 392.5 366.2 383.8 405 428 446.4 443.6 417.2 392.5 369 351.9 343.5 344.2 357 384.6 413.2 432.8 448.8 463.2 480.4 497.2 512.1 524.9 536.4 547.8 558.8 570 576.8 589 603.3 613.1 620.2 625.6 630.5 630.2 628.5 627.7 629.4 632.4 635.9 639.9 642.3 643.1 642.5 638.8 634.2 629.1 622 613.5 606.1 601.2 596.5 591.7 586.7 581.4 576.3 570.9 563.9 554.1 541.8 526.2 509.1 494.4 481 467.6 453.3 438.8 424.1 406.8 391.1 375.3 361.1 350.9 340.8 329.4 322.7 321.3 333.6 350.6 375.1 398.2 421.7 443.8 461.8 476 488.1 497.9 507 513.3 515.8 515.4 514.1 509.6 505.3 500.1 493.8 486.3 477.9 470 470.1 472.9 477 482.9 489.5 495.9 503.6 511.1 519.2 528.5 535.9 540.5 542.3 541.1 537.9 534.4 532 527.7 520.3 509.5 493.5 474.3 453.3 430.3 408.8 391.5 379.4 368.5 359.6 351.1 343.6 337.6 331.9 325.4 317.1 307.5 300.5 300.4 301.8 305.2 310.2 316.3 320.9 322.6 324.7
320 311.2 298.6 285.2 273.7 264.3 259.5 253.3 246.6 242.2 240.4 239.8 241.4 239.8 237 232 232.7 231.7 230.9 231 231.1 231.2 232.9 240.1 247.5 259.1 272.6 286.3 300.2 315.5 329.2 341.3 347.9 351 356.2 357 367.4 384.8 409.4 432.7 458.7 483.7 508.2 530.2 547.4 557.7 564.5 568.1 568.6 563.2 552.8 536.1 512.9 485.7 455.6 428.3 397.5 377.3 398.7 420.8 443.1 463.3 458.2 433.8 405.2 380.8 363.2 351.7 347 352.7 374.5 396.5 413.9 426.9 440.8 456.7 470.5 484.5 497.1 510 522.7 535 540.5 555.7 570.8 585.7 598.8 606.8 611.9 615.9 617.8 621.3 625.6 632.2 637.9 643.8 649 652.1 654.4 655.8 653.8 645.9 637.9 630.2 620.8 612.8 608.4 603.6 598.7 593.5 586.8 578.9 570.4 561.6 550.6 535.8 517.3 499.3 482.7 470.4 457.4 443.5 428.6 414 399.4 385.9 371.6 358.3 348.2 339.3 329.5 323.7 322.2 337.3 353 374.1 398.1 423.6 448.2 469.6 485.1 498.2 510 519.5 525.2 526.5 524.7 523.7 518.7 510.6 504.5 496.8 489.4 482.6 477.6 480.3 482.7 486.4 491.9 497.6 504 512.3 520.5 529.1 538.9 546.6 550.7 552.3 551.1 548.1 542.9 538 530.3 519.8 506.4 490.7 472.6 454.4 435 416 400.6 387.8 376.4 366.7 360 353.2 346.9 339.4 332.2 324.4 314.1 300.7 289 287.8 290.7 299.5 304.9 306.9 305.3 308
