ncols 200
nrows 87
xllcorner 200000
yllcorner 735250
cellsize 50
445 444.3 439.6 437.3 437.4 444.3 441.4 454.1 470.5 476.3 473.2 467.6 460.5 453.2 439.3 435.7 430.5 421.1 440.1 446.7 470.3 487.8 499.6 507.3 518.7 531.6 547.4 563.7 582 592.8 601.1 598.7 593.1 585 560.1 550.1 542.5 535.4 537.7 533 526.2 516.7 501.1 483.8 478 478.5 470.6 462.5 454.1 446.1 448.5 452.1 445.2 430.2 421 415.6 407.9 410.2 405.7 406.2 386.7 375.3 356.8 347.5 339.4 333.1 323 311.6 308.7 310.1 304.6 304.7 311.7 308.3 306.7 294.8 289.1 280.5 272 265.8 256.1 247.1 238.8 224.4 215 206 194.5 186.2 179 171.7 163.7 159.2 152.6 144.8 142 139.8 133.3 119.5 112.3 103.7 94.7 83.8 71.4 60.5 51 43.6 38.6 35.2 33.6 32.1 29.5 29 29.8 28.6 27.5 27.5 28.9 33.6 37.2 39.2 41 42.1 41.3 45.3 43.8 38 42.9 38.4 39.4 41.2 40.4 38.7 35.9 32.7 30 27.2 23.4 20.7 14.7 12.8 14.9 17.5 21.1 25.5 29.7 32.3 23.4 17.1 12.2 6.7 -1.2 -1.2 -1.2 -1.2 -1.2 -1.2 -1.2 -1.2 -1.2 -1.2 -1.2 -1.2 -1.2 -1.2 -1.2 -1.2 -1.2 -1.2 -1.2 -1.2 -1.2 -1.2 -1.2 -1.2 -1.2 -1.2 -1.2 -1.2 -1.2 9.9 17.2 26.6 32.8 41.2 49.9 60.7 67.8 82.8 100.3 104.2 119.8 143 162.3 183.7 203.6 214.8 193.9 192.3 186.1 179.1
437.6 429.7 425.2 424.8 426.4 430.7 431.9 437.9 455.1 462.4 465.3 463 455.2 442.6 431 428.7 418.4 427.5 444 462.1 481.4 492.8 504.4 513.8 526.5 546.9 559.2 568.9 584.5 586.8 586.6 585.5 570.9 557.6 544.1 530.7 530.1 529.4 528.4 521.3 511 500.4 489.2 487.7 478.5 469.9 465.9 469.1 461.9 459.2 469.2 475.6 465.9 455.3 439.4 424.1 422.6 422.4 421.4 419.3 406.3 390.8 378.2 363.1 355.2 346.5 334.2 323.1 319 321.6 321.5 326.1 319.9 322.7 318 308.7 300 295.6 286.5 279.5 268 258.8 247.1 232.9 223.3 212.5 201.1 192.6 182 175.6 168.9 162.3 158.4 149.5 146.4 145.2 138.3 123.1 114.3 103.5 97.4 89.2 73.7 64.1 54.6 46.7 40 38.2 36.8 36.1 35 30.3 25.9 26.1 25 24 26.2 30.8 32.4 33 34.4 36.9 38.5 40.9 40.6 36.6 35.9 35.2 37.4 41.6 41.7 37.6 35.6 31.5 28.1 26.6 23.6 20.2 14.5 7.4 10.3 12.3 15.6 20 22.4 22.6 19.3 11.4 6.6 2.5 -1.2 -1.2 -1.2 -1.2 -1.2 -1.2 -1.2 -1.2 -1.2 -1.2 -1.2 -1.2 -1.2 -1.2 -1.2 -1.2 -1.2 -1.2 -1.2 -1.2 -1.2 -1.2 -1.2 -1.2 -1.2 -1.2 -1.2 -1.2 7.1 13.9 20.3 30.2 38.7 45.1 54.6 66.2 73.8 92 111.8 135.1 146.5 162.8 174 183.3 195.7 224.5 226 222.9 212.5 206.8
424.6 415.8 409.1 414.5 415.1 416.9 420.6 432.9 453.3 464 470.7 456.4 445.5 434.7 421.9 418.7 421.7 444.2 455.5 463.1 482.9 496.5 504.2 516.8 530.9 551.4 562.4 573.2 584.3 581.4 577.1 570.9 555.7 549.7 538.7 526.9 522.6 526.9 521.8 509.5 506.3 499.6 488.7 483.2 475.4 464.8 472.8 475.4 475.2 482.6 504.7 507.1 502.4 471.7 456.5 441.3 438.4 432.9 429.1 431.2 420.6 417.9 404.3 393.9 386 368.1 350.8 337.8 335.6 339.1 340.9 341 334 335.4 324.6 318.1 310.1 304 296 286.5 276.8 262.6 254.1 239.7 229.5 217.2 203.6 194.6 188.1 179.9 173.4 164 161.2 152.7 148.1 149.2 141.4 121 111.5 103.2 93.2 85.2 74.9 65.8 57.3 49.9 43.4 39.3 38.7 38.9 39.3 32.3 25 21.9 21.4 22.3 23.9 26.3 28.1 28.1 27.4 30.2 34 36.2 39.3 36.3 31.7 31.5 34.7 38.4 42.5 34.6 32.1 28.2 25.4 24.3 22.9 21.8 16.2 11.2 5.8 7.9 12.7 16.2 20.2 20.5 13.9 7.3 3.8 -1.2 -1.2 -1.2 -1.2 -1.2 -1.2 -1.2 -1.2 -1.2 -1.2 -1.2 -1.2 -1.2 -1.2 -1.2 -1.2 -1.2 -1.2 -1.2 -1.2 -1.2 -1.2 -1.2 -1.2 -1.2 -1.2 -1.2 -1.2 5.7 11.8 18.2 25 35.1 43.1 52.2 59.9 77.5 96.7 121.3 140 158 171.2 180.7 187 193.5 199.2 217.4 251.2 252.6 241.5 234.7
414 410.1 399.1 404.2 402.5 402.5 402.2 422.5 452.3 460.1 460.5 449.8 437.9 425.7 416.2 412.9 427.2 447.2 458.8 475.7 484.6 493.6 507.2 518.4 535.6 553.7 565.7 569.6 572 567.2 561.2 560.4 555.6 538.6 532.5 516.8 508.8 513.6 511 505.6 502 493.7 477 478.5 464.1 468.2 475.1 478.4 477.6 510.3 530.7 531.8 526.3 492.1 471.3 461.7 448.1 443.3 450 440.2 440.2 432.7 425.8 426 413.9 382.4 368.1 362.1 352.8 356.3 357 351.7 346.9 345.8 333.1 321 315 306.3 300.6 290 276.2 265.4 254.3 241.8 226 215 203.2 194.1 185.2 177.9 169.7 161.5 157.8 150.9 142.4 148.4 144 121.4 111.9 102.2 91.4 83.2 75.2 66.8 58.4 51.1 45.9 41.2 39.1 38.5 36.7 31.3 25.7 22.9 20.6 20.5 24.2 26.4 24.4 26.1 24.1 23.7 27.2 32.4 36.4 32.1 25.9 28.5 31.6 37.2 37.7 30.4 26.4 24.3 21.3 20.4 22.4 22.9 15.3 7.6 3.4 5.8 13.2 16.9 19.3 19.2 12.1 4.5 -1.2 -1.2 -1.2 -1.2 -1.2 -1.2 -1.2 -1.2 -1.2 -1.2 -1.2 -1.2 -1.2 -1.2 -1.2 -1.2 -1.2 -1.2 -1.2 -1.2 -1.2 -1.2 -1.2 -1.2 -1.2 -1.2 -1.2 -1.2 3.8 9.4 17.5 23.1 31.3 40.5 51.7 65 82.7 109.4 125.9 153 167 180.1 184.4 189.5 198.7 204.5 211.6 222 240.5 253.4 268.3 260.1
400.6 395.6 391.4 392.5 387.6 390.2 389.3 411.9 441.2 448.1 448.2 444 431.5 419.5 406.7 413.7 436.7 449.8 459.1 472.9 485.9 490.6 504.7 520 538.6 554.8 559.6 554 551.8 559.1 557.7 552 531.4 520.5 516.2 505.6 508 504.4 505.4 494.3 485.3 479.5 463.4 457.1 469.8 481.1 482.6 483.6 486.2 518.3 538.8 545.6 547 520.1 492.3 480 464.8 462.8 478.2 470 460.6 450.5 448.5 449.2 422.8 402.4 380.8 377.7 371.3 378.7 367.9 370.3 358.6 353.7 342.3 330.8 316.6 306.9 299.9 285 274.2 261.3 251.5 240.2 225.8 211.1 197.9 188.3 180.1 171.3 163.5 154.4 150.2 143.9 135.3 142.7 139.7 116.9 112 98.5 88.8 82 76.6 67.3 60 51.7 45.4 40.9 37.5 35.9 32.9 29.3 25.5 21 19.3 19.9 24 23.5 21 19.2 20.5 19.1 22.2 28.8 29.2 23.6 20.5 22.8 28.8 30.7 28.1 27 19.2 17.4 17.4 17.4 21.7 19.8 12.2 5.1 2.3 6.3 12 15.3 19.3 19.2 11 -1.2 -1.2 -1.2 -1.2 -1.2 -1.2 -1.2 -1.2 -1.2 -1.2 -1.2 -1.2 -1.2 -1.2 -1.2 -1.2 -1.2 -1.2 -1.2 -1.2 -1.2 -1.2 -1.2 -1.2 -1.2 -1.2 -1.2 -1.2 4.3 6.2 11.9 22.2 30.9 41 55.4 72.2 92.4 117.7 146.4 162.8 179.2 190.1 197 200.6 203.9 208.4 212.8 220 231.7 239.5 252.9 272.3 285
388.7 381.9 385.2 380.4 381.2 380.6 382.6 403.5 426.4 434.5 436.2 430.8 419.1 407.3 408.2 414 436.4 451.4 463.3 476.3 484.3 492 502.8 521.8 535.6 539.1 536.1 550.8 543.8 547.3 542.3 537.2 522.7 514.7 503.9 496.2 499.4 486.9 478.6 473.3 469.6 458.9 447 462.8 484.3 497.6 502.8 501.9 503.6 526.1 553 554.6 554.3 528.3 501 493.6 483.2 491.1 493.3 496.7 488.2 489.4 471.5 450.5 431.1 409.6 392.9 390.3 384.3 387.3 381.8 380.5 370.1 360.3 348.7 337.5 320.9 311.3 302 288.5 272.6 260.1 250.8 235.9 222.7 204.5 192.6 180.1 175.2 162.2 153.3 147.1 142.4 135.7 130.2 134 132 115.1 103.5 92.6 83.8 77.2 71.5 67.7 61 51.3 41.9 36.6 32.8 31.1 30.1 27.5 24.3 19.2 18.1 21.1 24.1 24.6 22.6 16.4 17.6 17.7 20.5 27.7 26.6 24.2 15 20.2 20.6 22.2 22.9 17.6 12.4 11.6 12.8 15.6 19.4 13 5.7 1.9 -1.2 5.2 9.8 14.3 18.1 19.1 7.7 -1.2 -1.2 -1.2 -1.2 -1.2 -1.2 -1.2 -1.2 -1.2 -1.2 -1.2 -1.2 -1.2 -1.2 -1.2 -1.2 -1.2 -1.2 -1.2 -1.2 -1.2 -1.2 -1.2 -1.2 -1.2 -1.2 -1.2 3.6 2.3 9.1 16.4 28.7 42.4 56.9 75.7 99.4 119.6 157.2 177.3 194.4 196.5 201.4 207.9 210.8 212.9 217 222.8 229.6 239 245.5 254.9 269.5 289.7
379.3 374.5 370.1 372.4 367.7 368.9 376.4 390.7 408.3 422.9 423.7 415.7 405.5 407.1 409.6 415.6 439.4 454.1 468.4 480.2 483.9 497.5 506 512.3 516.1 525 539.5 545 535.6 537.3 537.5 531.5 510.7 506.3 486.3 480.4 485.5 473.9 458.6 450.4 449.6 439.6 446 466 491 513.8 526.4 527.1 523.6 546.2 560.9 558.4 548.7 528.3 512.3 506.2 501.4 515.4 508.2 508 503.7 499.6 485.4 464.5 443.3 420.3 406.4 405.6 400.7 399.1 402.4 393.3 383.8 372.7 356 343.5 322.4 308.8 296.7 285.5 272.4 254.3 241.4 227.5 219.1 200.7 184.4 170.9 161 151.7 144.3 139.4 134.1 128.2 123.6 122 122.5 112.5 95.3 89.5 79.2 71.9 70 65.5 60.6 53.8 47.2 38.4 31.9 27.6 24.8 22.3 19.7 17.7 19.9 23.2 27.1 27.8 24.6 16 12.5 11.4 17.7 28.1 23.9 19.2 9.3 15 17 15.3 18.1 15.8 9.4 7.4 9.1 13.1 13 8.5 2.3 2.1 -1.2 5.3 12.9 15.4 20.2 15.5 -1.2 -1.2 -1.2 -1.2 -1.2 -1.2 -1.2 -1.2 -1.2 -1.2 -1.2 -1.2 -1.2 -1.2 -1.2 -1.2 -1.2 -1.2 -1.2 -1.2 -1.2 -1.2 -1.2 -1.2 -1.2 -1.2 -1.2 4.1 3.9 6.4 11.5 21.7 38.6 72.5 85.2 99.4 131.6 148.9 163.6 182.6 210.2 213.7 217.7 217.9 225 225.7 228.6 232.7 237 245.9 254.2 263 273 294
368.6 370.6 370.6 364.5 362.1 362.3 370.8 383 395.3 410.9 411.4 405 402.1 405.1 407.4 421.2 442.4 460.3 474.4 486.1 495.1 504.8 506.6 506.1 515.1 521.5 526.8 529 531.6 536.3 527.1 517.9 505.1 492.9 472 476.2 471.5 457.6 444.8 430.5 423.4 434.1 446.1 461.9 486 511.8 544.4 544.9 554 559.1 577.6 562.2 550.5 538.2 530.9 519.2 523.1 530.6 525.7 526.3 530.3 508.2 504.1 485.8 456.3 432.8 426.8 421.8 413.3 412.3 410.9 403.6 390.2 374.3 358.5 345 320.2 306.5 294.4 278.5 265.3 248.3 236.3 221.2 210.8 191.5 179.6 163.1 153.1 143 136.6 132.4 127.3 121.6 117.2 113.3 108.4 97.8 92 87.3 79.1 73.7 70.1 66.7 62.3 55.4 49.9 41 33.6 28.1 23.4 17.9 17.3 18.8 21.3 24.6 29.6 29.3 20.6 14.3 9.1 10.2 18.6 17.6 19.6 12.7 5.3 9.6 10.1 10.2 11.4 10.9 8.4 5.1 6.7 11.4 10.2 5.4 1.5 -1.2 -1.2 4 9.5 16.9 20.2 10.7 -1.2 -1.2 -1.2 -1.2 -1.2 -1.2 -1.2 -1.2 -1.2 -1.2 -1.2 -1.2 -1.2 -1.2 -1.2 -1.2 -1.2 -1.2 -1.2 -1.2 -1.2 -1.2 -1.2 -1.2 -1.2 -1.2 5.7 9.9 8.8 10.2 13.9 24.8 45 78.2 115.3 140.5 156 163.5 172.3 181.6 195.4 209.4 220.7 226.1 228.9 233 237.3 240.1 246.3 255.1 262 267.7 285.1 302.3
363.4 361.9 362.2 360.9 357.9 361.7 371.8 386.3 385.1 397.2 402.7 398.9 401.6 405.3 416.3 428.7 444.8 465.3 478.3 488.6 493.2 498.1 497.3 500.2 511.4 518 520.9 523.8 525.8 522.9 514.1 500.4 486.4 471 462.1 464.2 446 436 424.8 416.1 419.5 427 442.2 462.1 487.1 511.8 546.8 553.6 565 569.1 569 563.2 558.9 557.5 544.2 534.8 532.9 539.2 533.2 536.3 530.2 528.1 509.8 492.6 462.7 452.7 441.5 436.8 423.4 419.9 415.3 406.2 392.7 374.8 355.7 336.8 313.5 303.4 291 277 260 242.9 229.7 215.4 203.7 188.3 175.8 159.9 148.2 139 133.6 128.3 122.8 117.2 113.1 109 102.6 96.4 90.9 84.5 78 72.6 69.7 67.3 63.3 57 50.4 44.1 36.5 29.8 22.3 15.8 17.2 19.5 23.5 26 29 23.6 14.8 10.9 8.6 9.6 11 13.9 21.7 7.4 3.8 5.1 6.5 7.7 7.6 8.8 7 5.4 5.4 10.6 7.6 -1.2 -1.2 -1.2 2.8 3.1 8.8 16.7 16.8 7.5 -1.2 -1.2 -1.2 -1.2 -1.2 -1.2 -1.2 -1.2 -1.2 -1.2 -1.2 -1.2 -1.2 -1.2 -1.2 -1.2 -1.2 -1.2 -1.2 -1.2 -1.2 -1.2 -1.2 -1.2 -1.2 7.6 6.9 15.4 16 18.2 20.8 26.3 40.7 65.7 105.6 149.8 172.2 170.6 162.5 174.2 184.5 203.4 213.2 225.9 235.5 242.8 245.6 250.9 256.9 266.4 273.6 283.3 295.5 310.8
350.2 349.8 340.6 353.8 360.8 369 392.4 406 399.8 398.5 399.1 406.6 403.4 408.4 419.7 425.7 435.3 460.1 470 476.2 478.2 485.5 503 515.6 521.5 524.4 517.8 517.7 511.4 504.3 493.9 483.8 467.6 463 452.2 448.6 432.7 419.6 412.2 415.3 416.3 421.5 434.7 446.5 487.5 521.5 548.2 561 563.5 569.9 564.4 566.2 566.8 569.8 562.4 542.3 535.3 544.5 536.7 541.1 539.9 528.7 514 500.2 481.7 466.6 458.3 444.8 435.6 436.3 424 411.8 396.1 380.6 352.8 333.9 315.3 302.3 290.7 274.2 257.8 239.4 227.2 217.3 198.7 186.8 175.8 159.8 147.7 138 132.3 126.4 121.9 114.1 110.5 105.7 100 94.5 88.5 82.8 77.1 71 68.7 66.4 63.9 59.5 51.1 44.3 37.8 30.7 21.2 15.1 15.7 19.4 23.8 26.1 28.6 16 14.1 11.8 9.6 8.2 8.2 7.9 11.5 5 3.4 3.8 5 4.1 4.1 5.4 6 2.4 3.3 5.8 5.9 -1.2 -1.2 -1.2 -1.2 1.8 10 21.7 11.1 -1.2 -1.2 -1.2 -1.2 -1.2 -1.2 -1.2 -1.2 -1.2 -1.2 -1.2 -1.2 -1.2 -1.2 -1.2 -1.2 -1.2 -1.2 -1.2 -1.2 -1.2 -1.2 -1.2 3.1 6.2 8.6 12 14.6 18.1 22.3 26.1 29.4 30.7 41.9 69.4 101 134.1 151.5 150 156.8 164.9 179.3 205.7 222.8 238.7 239.8 247.1 255.6 258 265.6 274.2 283.5 294.2 306.4 321.2
335.8 343.1 352 358.5 364.3 376.1 397.3 416.1 406.9 403.4 407.7 410.6 404.7 410.1 420.6 425.4 433.6 447.4 459.5 471.4 488.4 497.4 503.5 513.1 519.3 523.4 519.6 515.4 498 483.6 478.5 469.7 450.5 451.7 440.3 432.5 419.2 410.3 410.2 411.9 414.5 418.4 430.8 447.9 487.4 534.4 563.3 569.8 564.1 559 568.7 565.7 573.8 564.7 559.8 549.8 537.6 547 545.3 540.5 535.2 521.5 518.6 514.2 491.8 478.1 466.2 460.5 440.2 435.5 432.8 417.3 397.5 383.4 356.3 337 318.2 300.6 288.3 273.5 256.7 239.5 225.3 212.9 195.4 184.9 174.2 159.8 149.9 141.2 133.7 128.7 121.7 113.2 106.8 102.9 98.7 93 87 81.8 76.5 69.8 65 64.2 62.5 59.7 50.1 42.6 35.9 28.7 20.7 14.4 15.3 17.1 18 19.5 22.1 15.3 14.6 13.4 13.4 9.4 7.9 6.9 8.4 5.4 2.6 -1.2 -1.2 -1.2 2.7 4 5.2 1.9 -1.2 -1.2 -1.2 -1.2 -1.2 -1.2 -1.2 -1.2 5.1 13.1 -1.2 -1.2 -1.2 -1.2 -1.2 -1.2 -1.2 -1.2 -1.2 -1.2 -1.2 -1.2 -1.2 -1.2 -1.2 -1.2 -1.2 -1.2 -1.2 -1.2 -1.2 -1.2 -1.2 4 8.5 16.1 15.5 17.1 20.9 24.6 27.1 29.7 33.2 34.1 43 68.9 102.5 126.8 133.1 138.8 150.5 164.9 187.8 216.8 243.5 252.1 256.3 257.9 263.5 267.6 274.4 279.3 287.7 297.3 314.6 333.5
337 347 357.4 359.7 366.3 380.7 396.5 414.8 409.1 411.3 420.3 422.4 420.8 421.8 423.9 425.4 430 443.4 461 484.8 488.9 491.8 497.6 502.3 512 515 507.7 502.5 493.2 473.2 457 445.6 435.1 440.5 438.2 422.3 409.7 406.9 407.6 408.7 412.7 418.8 432.4 447 479.1 522.8 552.8 562.9 546.3 556.3 559.4 556.4 568.5 571.2 559.2 543.5 536.5 540.8 545.4 539.9 522.9 530.5 528.3 513.6 502.4 487.2 475.5 466.1 443.6 432.9 426.3 417.3 406.7 388.2 359.7 336.3 318.9 299.7 284.9 272.7 256.3 239.9 224.5 214.3 198.4 186.2 175.4 162.3 149.7 141.4 133.5 124.2 119.1 114.1 108.4 99.9 97.1 91.7 85.7 79.8 74.6 68.4 62.1 59.4 60.7 56.6 45.5 40.5 34.2 27.8 18.8 13.7 14 13.6 14.4 14.2 13.2 11.2 11.9 12.6 10.7 7.3 6.5 6.2 12 3.9 -1.2 -1.2 -1.2 -1.2 -1.2 5.9 -1.2 -1.2 -1.2 -1.2 -1.2 -1.2 -1.2 -1.2 -1.2 -1.2 3 -1.2 -1.2 -1.2 -1.2 -1.2 -1.2 -1.2 -1.2 -1.2 -1.2 -1.2 -1.2 -1.2 -1.2 -1.2 -1.2 -1.2 -1.2 -1.2 -1.2 -1.2 -1.2 3.8 5.4 8.6 16.4 19.4 21 22 24.2 27.7 30.3 32.3 34.9 40.7 47.9 68.2 99.4 121 128.5 138.7 152.6 170.8 195.9 223.9 245.9 256.6 266.5 274.8 279.2 279.6 291.1 298.7 300.2 305.5 320.7 334.1
338.9 346.2 361.5 365.5 374.2 397.2 408.4 409.7 417.2 427.9 426.4 428.8 431.4 431.6 433.7 439.6 442.5 446 465.6 478.6 477.9 480.1 485.5 494.3 499 501 493 488.2 481.5 464.3 448.3 426.5 415.2 425.4 418.7 408.9 406.9 404.4 406.8 408.2 412.4 421.9 428.2 441.1 473.6 512.4 536.9 535.4 549 547.3 552.4 554 570.4 565.4 555.3 534.7 527.7 533 530.2 520.3 525.2 523.1 518 515.4 503 498.1 485.8 470 447.1 432.4 420.1 415.4 411.4 389.9 364.2 345.6 320.4 302.2 285.7 271.5 258 242.4 227.6 214.2 200 185.7 174.9 162.9 152.2 140.4 133.7 122.8 115.2 111.3 105 98.3 94.5 90.2 84.3 78.3 74 68 61 55.3 55 49.5 43.8 39.4 34 27.7 19.5 13.2 11.6 10 11.4 11.1 8.7 7.8 8.6 10.1 4.8 4.4 4.3 3.9 -1.2 -1.2 -1.2 -1.2 -1.2 -1.2 -1.2 -1.2 -1.2 -1.2 -1.2 -1.2 -1.2 -1.2 -1.2 -1.2 -1.2 -1.2 -1.2 -1.2 -1.2 -1.2 -1.2 -1.2 -1.2 -1.2 -1.2 -1.2 -1.2 -1.2 -1.2 -1.2 -1.2 -1.2 -1.2 -1.2 -1.2 -1.2 -1.2 -1.2 3 7.7 10.9 13.1 19.2 20.5 22.8 22.8 25.8 27.8 30.9 33.7 38.9 46 64 77 100.5 121.8 131.6 144.3 156.4 178.4 203.2 224.6 248.3 260.4 273.7 280.9 285 287.3 300.4 305.4 311 321 330.9 340.9
337.7 348.1 367.6 384.5 392.7 403 411.2 411.8 424.5 429.7 433.1 433.6 436.6 434.9 446 453.9 459.7 470.6 484.2 491.6 489.1 490 488.4 490.6 488.2 479 476 472.4 463.7 449.1 434.6 419.2 405.4 397.2 396.8 402.6 402.3 403.7 406.5 405.9 413 423.8 435.5 452.2 480.5 500.4 508.7 527.4 535.1 542.5 554.2 555.8 554.4 548.9 537.6 525.8 517 523.9 511 517.2 519.3 514.3 509.7 505.8 502 496.7 486 463.3 445.1 435.1 420.4 414.2 401.5 389.8 373.3 350 326.4 304.2 289 273 258.2 243.9 226.6 212.8 200 186.7 175.3 165.1 153.9 141.6 131.9 124.2 116.2 109.7 102.3 95.5 91.9 86.9 82.1 77.3 74 68.3 61.4 55.5 51.2 46.2 41.3 36.4 31.6 26.3 20.1 16.4 12.9 11.6 5.4 2.6 4.6 5.8 3.6 4 2.3 -1.2 -1.2 1.8 -1.2 -1.2 -1.2 -1.2 -1.2 -1.2 -1.2 -1.2 -1.2 -1.2 -1.2 -1.2 -1.2 -1.2 -1.2 -1.2 -1.2 -1.2 -1.2 -1.2 -1.2 -1.2 -1.2 -1.2 -1.2 -1.2 -1.2 -1.2 -1.2 -1.2 -1.2 -1.2 -1.2 -1.2 -1.2 -1.2 -1.2 -1.2 -1.2 -1.2 3.7 6.8 11 15.2 14.8 16.9 18.4 22.3 26.3 29.7 32.8 39.1 49 59.3 69.6 79.5 98.1 117.7 131.6 149.3 167.9 188.7 207.6 228.1 246.1 258.9 272.8 283 293.8 295.1 303.6 314.7 319.9 324.5 332.8 347
336.3 352 382.4 391.2 396.1 405.9 414.6 422.8 435 443.3 442.4 444.9 452.4 452.2 462.9 474.8 474.9 485.6 490 491.7 494.9 491 485.5 484.8 481.8 471.2 459.9 450.1 441.9 431.7 420.4 406.2 396.1 393.2 405.3 405.5 403.5 403.9 404.4 406 421.2 431.4 450.2 466.4 481.3 491.2 509.2 520 525.1 530.4 542.5 551 538.6 527.4 520.2 509.3 499 502.9 507.4 511.1 503 508 497.7 497.6 495.9 486.8 483.1 458.9 442.8 429.5 418.9 409.9 400.3 391.7 377 355.9 330.6 310.6 291.2 274.1 257.2 244.2 229.7 212.4 199 189 175.1 164.1 154.1 141.2 129.8 123.9 115.9 110.1 103 95.7 90.3 84.6 80.1 75.5 72.2 66.2 57.8 54.2 49.2 43.9 38 32.7 29.5 26 21.4 17 13.9 11.4 9 3.5 1.7 3 3.4 2.1 -1.2 -1.2 -1.2 -1 -1.2 -1.2 -1.2 -1.2 -1.2 -1.2 -1.2 -1.2 -1.2 -1.2 -1.2 -1.2 -1.2 -1.2 -1.2 -1.2 -1.2 -1.2 -1.2 -1.2 -1.2 -1.2 -1.2 -1.2 -1.2 -1.2 -1.2 -1.2 -1.2 -1.2 -1.2 -1.2 -1.2 -1.2 -1.2 -1.2 -1.2 -1.2 -1.2 -1.2 6.1 5.7 6.9 9.9 12.8 13.7 16.2 20.2 26.7 33.3 40.4 50.8 53.5 64 74.9 85.6 95 113.9 132.3 154.3 175.3 192.5 210.9 227.3 245.9 263.5 279.5 289.4 298.8 308 313 316.7 326.1 331.6 338.9 349.6
344.8 358 389.8 389.6 394.3 412.5 416.9 427.5 431.6 441.4 436.8 444 456.6 467 469.9 482.2 482.9 486.8 489.4 490 487.8 486.1 481 475.9 472.4 469 452.7 445 432.7 423.4 411.1 394.9 394.3 407.3 418.3 425.4 422.4 421.8 420.4 419 439.5 449.7 474.5 473 484.8 495.1 511.4 521.5 527.8 525.5 531.6 538.3 530.6 517 508 491.4 478.3 490.2 494.8 494.9 493.3 493.4 490.6 494.5 486.1 481.1 474.2 453.4 437.6 424.6 416.4 402.2 392.1 390.4 375.7 354.3 331.3 314.2 291.6 277.1 260.7 246.3 231.6 216.1 202.7 190.7 178 165 153.3 142.5 131.5 124.9 118 110.2 102.7 95.5 90.2 84.2 78.4 74.7 70.2 63.4 55.1 50.1 46 41.3 36.3 31.6 26.9 23.2 20.7 17.3 15 11.5 8.9 5.9 2 -1.2 2.1 -1.2 -1.2 -1.2 -1.2 -1.2 -1.2 -1.2 -1.2 -1.2 -1.2 -1.2 -1.2 -1.2 -1.2 -1.2 -1.2 -1.2 -1.2 -1.2 -1.2 -1.2 -1.2 -1.2 -1.2 -1.2 -1.2 -1.2 -1.2 -1.2 -1.2 -1.2 -1.2 -1.2 -1.2 -1.2 -1.2 -1.2 -1.2 -1.2 -1.2 -1.2 -1.2 -1.2 -1.2 4.9 9.3 9.7 7.4 6.6 7.6 10.7 12.5 16.1 22.9 33.8 42.5 51.6 63.1 74.6 83.4 88.4 94.1 109.3 133.6 157.1 179.8 195.9 210.6 229.4 247.5 263.1 283.5 295.6 307.3 317.9 325.1 330.1 335.5 339.9 345.8 356.8
350.8 370.9 379.5 381.5 404.7 418.7 423.1 423.2 430.8 437.4 433.1 448.5 468.6 470.8 475 475 473.8 475.4 477.6 477.8 474.7 470.8 474.2 465.2 460.8 456.9 439.3 432.7 417.2 407.5 390.8 394.6 408.6 419.9 433.3 440.2 443.9 443.6 445 450.6 457.3 463.5 476.5 488.8 507.2 511.6 526.6 527.8 528.2 517.5 531.6 531.3 523.5 501.2 490.2 477.4 471.4 478.1 482.5 485.5 482 477.7 487.9 489.2 484.9 478.9 468.5 443.7 429.1 417 412.2 396.1 385.6 379.4 370.4 352.6 335.4 319.4 297.8 278 264 247.9 233.4 217.8 205.4 190.3 179.2 167.5 154.3 143.2 133.5 124.6 118.2 109.4 102.6 95.4 88.7 82.9 77.1 72.1 65.9 60.5 53.7 47 42.3 38.8 35.1 30.6 25.3 19.7 16.5 14.6 13.5 11.2 8.9 4.9 2.2 -1.2 -1.2 -1.2 -1.2 -1.2 -1.2 -1.2 -1.2 -1.2 -1.2 -1.2 -1.2 -1.2 -1.2 -1.2 -1.2 -1.2 -1.2 -1.2 -1.2 -1.2 -1.2 -1.2 -1.2 -1.2 -1.2 -1.2 -1.2 -1.2 -1.2 -1.2 -1.2 -1.2 -1.2 -1.2 -1.2 -1.2 -1.2 -1.2 -1.2 -1.2 -1.2 -1.2 -1.2 -1.2 -1.2 5 8.9 15 7 6.9 7.6 8.9 11.2 16.3 21.2 28.8 39.6 51.8 64.6 77.7 87.4 94.6 98.9 108.4 136.9 157.9 181.2 211.6 227.7 241 254.8 270 286.3 300.3 314.8 323.5 331.2 336.1 341.7 347.8 354.2 367.1
346.4 359.7 368.6 386.2 406.6 422.5 420.8 424.1 425.7 426.2 432.6 447 458.7 463.7 457.1 456.2 458.4 455.4 461.9 459.8 460.6 459.6 463.1 454 443.7 438 418.9 411.2 398.2 383.2 390.5 403 415.2 433.7 448.9 456.9 463.7 470 474.2 479.5 485 493.5 487 494.2 521.1 529.3 535.3 533.6 520.4 512.1 505.2 507.7 495 489 470.4 463.7 459.6 465.3 472.5 471.6 466.1 475.8 478.2 480.8 482.4 472.4 462.2 442.6 424.6 412.3 403.2 394.2 379.3 377.4 361.8 348.9 334.6 316.8 299.8 278.4 264.8 248.8 233.6 220 203 191.2 178.5 168.8 155 141.7 131.1 124.6 117.4 110.3 104.2 96.6 88.6 81.8 76.4 70.8 63.2 55.1 50 43.6 39 35.4 31.9 27 22.6 18.6 16 13.6 11.6 9.7 6.6 3.8 -1.2 -1.2 -1.2 -1.2 -1.2 -1.2 -1.2 -1.2 -1.2 -1.2 -1.2 -1.2 -1.2 -1.2 -1.2 -1.2 -1.2 -1.2 -1.2 -1.2 -1.2 -1.2 -1.2 -1.2 -1.2 -1.2 -1.2 -1.2 -1.2 -1.2 -1.2 -1.2 -1.2 -1.2 -1.2 -1.2 -1.2 -1.2 -1.2 -1.2 -1.2 -1.2 -1.2 -1.2 -1.2 -1.2 -1.2 4.6 7.1 13.5 7.1 7.3 8.4 8.9 10.5 12.3 20.5 34.2 49.4 53.1 65.8 79.7 89 98.3 105 118.8 136.7 162.6 195.5 217.5 235.8 248.6 264.6 274.5 288.6 302.4 313.5 328.2 333.8 341 348.5 357.6 365.9 376.4
349.4 359.9 370 389.8 403.1 416.4 423.6 423.2 419.9 428.2 433 434.4 443.9 451.2 448 443.5 442.6 445.5 442.3 443.3 446.9 444.8 442.6 432.8 423.1 416.5 400.6 394.5 373.6 384.5 399.1 409.9 413.7 433.6 462.9 479.2 487.5 491.6 496.9 498.3 514.3 515.6 519.7 514.7 522 522.8 528.6 528.2 511.7 500.8 500.3 492.2 485.2 468.8 460.7 449.7 441.8 453.2 458.9 459.1 461.5 459 466 471.5 475.6 474.3 458.6 438.2 421.8 409.2 398.9 388.1 372.4 363.7 356.9 345.5 331.4 315.4 298.3 280 266.7 249.7 233.8 220.9 205.3 194.2 179.8 166.7 155.6 144 135.2 125.1 116.6 111.8 105.3 97.6 89.3 80.5 74.4 68.1 61.9 57.8 51 44.3 38.4 32.3 28.7 24.3 20.2 16.9 15 12.9 10.9 9.1 6.2 3.2 -1.2 -1.2 -1.2 -1.2 -1.2 -1.2 -1.2 -1.2 -1.2 -1.2 -1.2 -1.2 -1.2 -1.2 -1.2 -1.2 -1.2 -1.2 -1.2 -1.2 -1.2 -1.2 -1.2 -1.2 -1.2 -1.2 -1.2 -1.2 -1.2 -1.2 -1.2 -1.2 -1.2 -1.2 -1.2 -1.2 -1.2 -1.2 -1.2 -1.2 -1.2 -1.2 -1.2 -1.2 -1.2 -1.2 -1.2 3.5 6.1 10.8 9.8 8.3 8.5 9.2 10.6 12.4 21.4 33.2 44.9 56.9 70 79.5 91.6 104.2 117.6 131.1 147.6 175.9 194.7 216.5 241.6 258.2 274.3 284.8 298 306.8 313.8 328.1 336.9 345 352.8 366.4 374.9 377.2
343.1 367.4 377 399 418 433.7 425.6 425.3 417.2 422.5 429.1 436.8 428.5 439.3 438 428.5 428.3 427.6 428.3 428.4 431.5 426.2 416.1 413.4 404.2 397.9 382.9 371 369.1 384.8 396.6 406.6 411.3 431.3 468 488.9 497.6 498 507.2 501.8 518 529.2 530.7 530.1 539.2 527.6 514 516.7 503.3 490.9 489.3 485 469.7 465.4 459.4 442.4 437 442.7 442.8 442.2 453.3 450.6 461.8 459.5 469.9 467.4 456.9 438 418.6 404.1 391.4 379.9 363.9 356.6 353.3 345.5 330.6 316.4 299.9 279.8 266.3 250.9 236.6 221.8 206.2 190 176.8 164.7 152.8 143.3 134.1 124.7 116.5 109.6 102.3 96.3 87.6 79 73.2 68.3 63.5 58 51.6 45 39.1 32.7 26.6 21.5 17.4 13.6 11.9 10 9.9 8.6 6.2 2.5 -1.2 -1.2 -1.2 -1.2 -1.2 -1.2 -1.2 -1.2 -1.2 -1.2 -1.2 -1.2 -1.2 -1.2 -1.2 -1.2 -1.2 -1.2 -1.2 -1.2 -1.2 -1.2 -1.2 -1.2 -1.2 -1.2 -1.2 -1.2 -1.2 -1.2 -1.2 -1.2 -1.2 -1.2 -1.2 -1.2 -1.2 -1.2 -1.2 -1.2 -1.2 -1.2 -1.2 -1.2 -1.2 -1.2 -1.2 2.3 4.7 9.4 12.8 10.5 10.1 10.2 11.4 12.9 19.2 36.3 46.6 58.7 69.5 82.9 97.1 109.2 123.5 138.9 157.1 173.8 200 226 246 268.3 282.6 297.6 306.9 313.5 322.9 326.7 332.7 345.9 350.2 364.5 371.9 379.1
339.3 360.5 374.7 410.2 429 432.7 427.2 421.5 414.4 412.9 418.3 427.1 420.5 423.7 424.2 423.5 412.8 411.3 410.4 409.4 406.6 404.6 396.9 390.7 382.8 375.4 364.8 354 361.7 367.4 381.2 391.8 401.7 420.1 461.2 470.4 477.9 475.8 488.4 504.4 518.3 529.7 541.1 538.5 547 530.7 519.5 504.4 490.8 480.6 479.9 474 471 457.3 449.7 435.1 426.7 433.7 424.9 425.9 430.5 437.4 450.6 453.2 456.4 451.8 448.5 440.6 413.4 396.4 385.1 370 361.3 347.3 344.4 341.2 327.6 314.3 296.4 279.6 265.1 250.6 235.2 220 206 191.6 180.7 167.6 153.4 142.1 131.5 122.1 113.1 106 100.5 91.6 86.2 80.3 75 69.8 64.7 58.6 50.6 45.4 38.6 32 25.6 19.7 14.2 9.2 8 8.1 8.5 6.6 5.8 3.3 -1.2 -1.2 -1.2 -1.2 -1.2 -1.2 -1.2 -1.2 -1.2 -1.2 -1.2 -1.2 -1.2 -1.2 -1.2 -1.2 -1.2 -1.2 -1.2 -1.2 -1.2 -1.2 -1.2 -1.2 -1.2 -1.2 -1.2 -1.2 -1.2 -1.2 -1.2 -1.2 -1.2 -1.2 -1.2 -1.2 -1.2 -1.2 -1.2 -1.2 -1.2 -1.2 -1.2 -1.2 -1.2 -1.2 -1.2 2.2 3.7 7.4 10.1 10.7 10.6 12.7 13.2 13.3 23.9 34.7 48 60.1 71.9 86.1 99.9 116.7 130.8 148.9 166 190.2 217.2 239.5 260.6 280.3 298.4 305.5 313.8 319.6 324.7 327.9 335 340 347.5 363.4 368.5 377.1
326.3 344.2 370.1 402.9 413.1 420.9 417.6 414.2 411.8 410.7 415.6 412.5 409.5 405.1 408.1 404.7 404.3 394.6 392.5 386.4 384.7 384.1 379.2 371.3 356.7 355.9 348.3 344.5 345.5 351.7 362.2 379.2 386.3 401.5 435.9 430.7 447.6 463 476.2 491.6 513.5 522.8 527 530.9 538.7 530.2 522.5 508.5 490.1 477 468.3 468.4 467.7 447.4 439.6 431.1 420.8 420.8 413.9 413.5 415.3 414.1 431.2 444.9 448.5 434.8 433.2 428.4 413.5 391.7 375.4 362.3 351.7 342.7 332.7 331.5 322.3 310.5 294.2 280.4 264.6 249.4 232.6 218.4 204.5 190.2 177.1 166.6 154.9 144 132.4 121.9 110.1 101.6 97 90.4 84.3 79.4 74.7 69.6 64.6 58.6 52.6 44.6 37.8 31.3 24.9 18.4 12.7 11.1 9.6 8.2 6.9 3.8 2.3 1.6 -1.2 -1.2 -1.2 -1.2 -1.2 -1.2 -1.2 -1.2 -1.2 -1.2 -1.2 -1.2 -1.2 -1.2 -1.2 -1.2 -1.2 -1.2 -1.2 -1.2 -1.2 -1.2 -1.2 -1.2 -1.2 -1.2 -1.2 -1.2 -1.2 -1.2 -1.2 -1.2 -1.2 -1.2 -1.2 -1.2 -1.2 -1.2 -1.2 -1.2 -1.2 -1.2 -1.2 -1.2 -1.2 -1.2 -1.2 3.3 3.5 5.1 7.7 9.1 13 15.6 15.4 15.3 25.3 35.5 53.7 65.7 76.9 94.4 107.5 123.5 142.6 158.2 175.9 201.4 228.4 258.3 278.1 295.9 308.9 315.8 321.5 324.5 328.5 330.3 336.6 339.3 345.1 350.1 364.8 377.6
319.9 339.2 371.8 391.5 403.3 408.8 410.1 404.4 402.3 401.1 392.6 396.4 394 388.3 382.8 387.5 387.1 379.7 371.8 371.3 368.5 358.1 352.2 344.7 337.6 338.4 325.2 337.7 339.5 344 349.3 359.6 372.1 386.7 398.1 407 423 445.4 460.6 484.1 486.7 498.6 514.2 517.3 527 514.6 507.2 503.8 510 493.6 474.7 461 456.8 446.7 442.1 424.3 412.8 417.6 405.1 399 405.3 401 413.8 424.3 425.7 421.6 416.7 411.6 404.1 378.3 372.9 355.3 345.3 333.2 328.7 324.9 316 304.6 291 275.5 261.9 246.1 231.4 217 201.8 184.9 174.1 159.8 149.8 143.1 128.9 119.7 112.8 104.3 92.8 87.8 81.9 77.2 72.4 67.6 62.8 57.1 50.8 44.2 38 31.1 24.6 17.4 14.4 13.3 11.4 9.4 7.3 5.2 3.6 -1.2 -1.2 -1.2 -1.2 -1.2 -1.2 -1.2 -1.2 -1.2 -1.2 -1.2 -1.2 -1.2 -1.2 -1.2 -1.2 -1.2 -1.2 -1.2 -1.2 -1.2 -1.2 -1.2 -1.2 -1.2 -1.2 -1.2 -1.2 -1.2 -1.2 -1.2 -1.2 -1.2 -1.2 -1.2 -1.2 -1.2 -1.2 -1.2 -1.2 -1.2 -1.2 -1.2 -1.2 -1.2 -1.2 -1.2 -1.2 3.6 5.8 6.1 7.8 9.5 14.7 16.8 18.8 22.2 28.3 39.5 51.3 66.7 84.3 100.4 117.8 137.3 151.8 171 187.4 207 237.9 262.7 287.6 302.4 314.6 322.1 325.7 328 330.8 333.3 338.3 342.1 353 355.3 361.1 374.1
315.3 336.6 362.7 388 400.5 396.6 395.6 392.5 389.6 389.5 387.3 386.4 385.6 376.5 370.4 369.4 362.1 353.6 350 349.7 345.6 339.1 329 323.6 322 320.2 319.7 324.1 329.6 332.5 336.1 344 357.1 368.3 379.5 393 414.3 443.4 455.5 457.6 459.4 475.9 484.2 488.3 509.2 519.4 516.4 510.1 509.1 494.4 487.4 476.5 454 443.4 440 418.6 402.8 407.7 404.6 392.5 391.7 388.8 397.3 404.3 405.6 395.7 396.9 386.9 391.3 374.5 361.8 349 338.8 325.9 317.5 313.9 303.5 297.9 285.5 269.4 254.9 237.9 226 211.3 199.6 180.9 166.3 154.2 142.8 135.5 126.2 120.4 110.1 101.6 92.5 84.6 79.4 74.9 69.8 64.5 60.1 55.2 49.4 43.1 35.4 29.2 24.1 19.4 15.5 16.2 13 9.6 7.1 4.2 2.4 -1.2 -1.2 -1.2 -1.2 -1.2 -1.2 -1.2 -1.2 -1.2 -1.2 -1.2 -1.2 -1.2 -1.2 -1.2 -1.2 -1.2 -1.2 -1.2 -1.2 -1.2 -1.2 -1.2 -1.2 -1.2 -1.2 -1.2 -1.2 -1.2 -1.2 -1.2 -1.2 -1.2 -1.2 -1.2 -1.2 -1.2 -1.2 -1.2 -1.2 -1.2 -1.2 -1.2 -1.2 -1.2 -1.2 -1.2 3.2 4.7 4.7 6.2 8.2 13.6 17.7 19.6 25.9 30.8 36.7 45.3 55.8 68.3 87.6 108.1 123.7 138.1 161.6 182.4 207.6 230.6 249.1 274.1 294.4 312.6 323.1 328.1 330.3 332 333.1 335.8 343.9 344.8 355.1 359.5 363.3 369.5
309.8 337.4 355.7 371.9 378.5 383.9 388.1 384.4 383.6 385.4 378.1 380.6 367.4 360.9 356.8 360.8 345.7 338.3 333.7 326.7 320.5 312.6 302.7 302.9 302.7 306.4 309.6 312 319.6 326 335.1 343.8 353 370.5 378.7 405 432 438.9 432.3 448.5 455.7 462.1 478.5 494.6 513.5 518.2 514.4 512.8 499.1 506.1 494.7 487.2 468.4 447.6 431.9 412.3 396.6 389.5 388.9 378.6 379.4 373.8 371.8 379.3 384.1 375.9 381.9 382.9 374.8 363.9 352.5 339.7 331 321.7 313.3 304.5 302.2 290.2 276.6 261.1 246.5 228.3 213.6 201.7 187.8 172 158.1 146.4 136.8 128.8 120.4 113.6 106.9 98.5 90.1 82.6 77.3 72.3 66.6 62.3 58.6 53.2 46.2 39.1 36 29.6 24.8 20.2 15.1 17.8 13 8.8 5.9 3.1 2.4 -1.2 -1.2 -1.2 -1.2 -1.2 -1.2 -1.2 -1.2 -1.2 -1.2 -1.2 -1.2 -1.2 -1.2 -1.2 -1.2 -1.2 -1.2 -1.2 -1.2 -1.2 -1.2 -1.2 -1.2 -1.2 -1.2 -1.2 -1.2 -1.2 -1.2 -1.2 -1.2 -1.2 -1.2 -1.2 -1.2 -1.2 -1.2 -1.2 -1.2 -1.2 -1.2 -1.2 -1.2 -1.2 -1.2 -1.2 3.3 5.4 7.3 7.4 8.9 17 22.6 27.5 37.1 44.3 53.3 58.5 69.4 79.9 93.1 112.2 132 149.9 170.8 196 231.8 264.6 278.5 295.7 314.1 326 328.1 331.9 337.3 336.4 340.2 342.7 348.2 350 357.8 362.4 364.8 370.8
306.6 334.2 354.9 360 369 375 376.3 369.7 373.2 372.7 370.6 362.8 353 343.7 343 334 330.3 320.2 315.8 307.7 290 289.8 298.2 307.6 312.3 311.4 313.3 318.8 324.1 328.4 330.9 334.1 345.9 363.6 378.2 396.1 407.9 414.1 436.4 449.8 455.2 471.8 496.7 506.6 516.5 523.9 517.1 500 503 507.1 498.2 491.4 482.2 459.4 444.1 420.3 400.5 382.7 372.4 365.5 353.1 355.3 352.4 353.8 354.8 363.8 365.5 362.6 363 349.1 344 333.2 320.9 314.8 303.2 297.3 288.3 278.6 267.8 251.5 237.1 219.5 206.9 194.1 180.4 166.2 153.6 141.4 129.1 119.6 111.8 105.9 100.4 92.3 85.9 79.6 74 69.6 64.2 59.3 55.9 50.8 44.1 39.1 35.4 31.7 26.6 20.3 14.9 10.8 8.3 6.1 4 2.2 -1.2 -1.2 -1.2 -1.2 -1.2 -1.2 -1.2 -1.2 -1.2 -1.2 -1.2 -1.2 -1.2 -1.2 -1.2 -1.2 -1.2 -1.2 -1.2 -1.2 -1.2 -1.2 -1.2 -1.2 -1.2 -1.2 -1.2 -1.2 -1.2 -1.2 -1.2 -1.2 -1.2 -1.2 -1.2 -1.2 -1.2 -1.2 -1.2 -1.2 -1.2 -1.2 -1.2 -1.2 -1.2 -1.2 -1.2 2.4 5.8 6.1 7.9 8.9 12.2 20.9 29.3 33.3 44.5 54.8 63.9 73.5 86.5 101.2 114.3 132.8 152.7 171.8 193.5 222.2 261 281.2 299.9 313.5 319.6 330.9 336.5 340.4 341.3 340.3 345.6 351 355.9 355.2 360.7 366.4 367.3 371.5
317.7 341.8 355.5 359.6 365.7 365.3 361.5 354.6 346.2 347.9 351.6 334.6 331.1 331.1 319.4 310.6 297.1 297 295.3 276.9 287.7 297 309.4 313.8 314 315.2 320.2 326.9 331.7 336.8 341 346.3 365 376.2 376.3 386.3 403.5 422.8 435.9 454.5 461.7 494.3 506.9 513.1 517.9 514.3 499.6 501.1 502.7 504.5 495.8 490.1 471 446.5 424.8 412.7 396.9 375.5 360.9 352.1 340.8 336 333.4 331.4 340.1 340.2 340.8 342.8 341.7 331.1 333.6 333.6 318 307.5 296.6 288.2 278.7 268.2 255.4 242 226.7 207.7 199 185.9 172.5 159.7 147.3 136 124.6 111.1 104 102.2 94.8 87.6 81.5 75.9 68.7 64.7 60.5 55.7 53.1 48.2 41.4 38.8 35.4 31.3 27 21 15.8 11.4 6 3.9 2.1 -1.2 -1.2 -1.2 -1.2 -1.2 -1.2 -1.2 -1.2 -1.2 -1.2 -1.2 -1.2 -1.2 -1.2 -1.2 -1.2 -1.2 -1.2 -1.2 -1.2 -1.2 -1.2 -1.2 -1.2 -1.2 -1.2 -1.2 -1.2 -1.2 -1.2 -1.2 -1.2 -1.2 -1.2 -1.2 -1.2 -1.2 -1.2 -1.2 -1.2 -1.2 -1.2 -1.2 -1.2 -1.2 -1.2 -1.2 3.4 6 7 7.5 11.1 12.7 19.5 26.1 31.8 39.8 49.2 62.6 73.3 84.9 99.8 114.9 134.7 152 172.9 195.8 220.3 251.6 278.9 298.2 312.5 322.9 330.8 333.4 340.8 345.9 346.6 347.2 351.3 352.3 363.2 362.1 363.1 370.7 372.6 375
319.9 323.8 331.3 341 344.9 338 332 325.7 325.6 324.8 330.5 315.3 308.4 300.8 298.9 293.1 280.5 272.3 276.3 291.2 296.4 295.7 300.4 317.9 317 317.7 324.4 329.3 333 338.8 346.2 354.1 374.1 381.6 380.8 399.4 415.1 442.5 460.1 477.8 489 510.2 520.8 520.7 520.3 507.6 508.2 504.6 506.5 493.5 481 477.7 461.5 432.2 413 401.7 386.6 371.8 354.3 340.7 325 319.4 317.3 318.1 318.7 317.5 320.1 321.1 323.4 319.5 334.9 335 314.2 301.9 290 280.1 270.9 259.6 247.7 236.5 221.7 206.3 191.6 177 165.2 150.1 142 130.6 120.5 110.1 100.5 95.1 90.1 83.8 78.4 72.9 67.1 60.3 56.3 51.2 46.6 42.3 40.6 37.7 34.3 31.4 28.3 24.4 16.6 11.8 7.4 4.5 2 -1.2 -1.2 -1.2 -1.2 -1.2 -1.2 -1.2 -1.2 -1.2 -1.2 -1.2 -1.2 -1.2 -1.2 -1.2 -1.2 -1.2 -1.2 -1.2 -1.2 -1.2 -1.2 -1.2 -1.2 -1.2 -1.2 -1.2 -1.2 -1.2 -1.2 -1.2 -1.2 -1.2 -1.2 -1.2 -1.2 -1.2 -1.2 -1.2 -1.2 -1.2 -1.2 -1.2 -1.2 -1.2 -1.2 3.6 5.1 8.6 8.6 12.7 20.7 19 24.3 31.2 41 48.9 59 70.3 84.1 98.4 113.3 129 147.8 168.4 190.4 221.8 250.5 275.7 294.6 311.2 322.4 330.5 339 342.9 343.1 347.2 352.3 353.6 356.7 364.2 367.6 367.3 370.9 375.2 377.9 380.8
313.7 315.2 314 316.8 312.5 315.5 309.6 302.5 307.2 302.4 300.1 296.1 290.4 289 284.1 276.4 262.6 264 275.8 286.6 289.3 296 301.9 313.5 315.5 318.2 323.5 331.4 337.4 348.6 356.4 371.9 382.9 390.4 394.1 406.1 427.6 447.9 474.2 500.4 509.3 520.7 527.6 521.5 517.5 522.4 514.3 520.1 506.7 482.9 467.5 461.3 446.1 421.9 408.7 394.3 376.8 361.5 349.4 333.7 322.5 312.3 306.5 304.8 304.1 306.8 305.9 311.8 316.7 312.4 324.9 327.1 311.3 294.7 282.8 273.3 259.4 245.9 234.6 224.6 212.4 200.8 187.6 175 163.8 147.2 138.7 129.1 120.4 108.8 99.5 92 86.9 81.7 76.4 70.2 64.7 59.5 55 50.7 45.5 42.7 39.8 36.1 32.9 30 25.8 21.3 17.1 12.5 8.4 5.2 2.1 -1.2 -1.2 -1.2 -1.2 -1.2 -1.2 -1.2 -1.2 -1.2 -1.2 -1.2 -1.2 -1.2 -1.2 -1.2 -1.2 -1.2 -1.2 -1.2 -1.2 -1.2 -1.2 -1.2 -1.2 -1.2 -1.2 -1.2 -1.2 -1.2 -1.2 -1.2 -1.2 -1.2 -1.2 -1.2 -1.2 -1.2 -1.2 -1.2 -1.2 -1.2 -1.2 -1.2 -1.2 -1.2 2.9 7 7.5 9.9 12.3 17.4 22.9 25.4 32.2 41 49.8 60.3 74.5 87 100.8 112.3 128.4 147.5 167.9 195.9 212.8 240.2 262.3 293.8 306.7 322.9 330.4 336.8 344.1 349.9 352.3 355.5 354.4 357.9 361.7 369.9 374.7 374.2 376.3 378.6 381.9 384.1
297.5 306.5 302.4 295.5 292.5 293.5 287.1 285.8 286.7 284.3 283.3 278 273.1 272.4 267.6 260.6 262.5 271.1 279.1 284.3 288.7 293.2 298.7 303.9 313.4 322.7 334.7 344.8 346.7 361.1 369.9 379.9 393.7 408.3 409.2 418.6 434.5 453 470.2 505.1 528.4 536.2 532.9 519.8 523.2 530 532.5 516.2 495.6 469 451.1 439.4 428.4 417.3 396.4 388.9 368.9 351.6 338.8 328 318.9 308.6 302.2 300.2 295.4 295.8 296.8 302.4 306.7 301.9 316.3 315.8 307.3 291.6 275.1 262 251.1 236.5 225.4 214.8 200.9 193.2 179.7 173.5 161.6 148 137.8 127 119.5 108.3 98.7 91.5 86.6 80.3 73.8 67.8 62.6 57.4 52.6 48 45.4 43.1 38.9 34.9 32.3 29.5 23.7 18.6 16.3 11.6 8.3 5.8 2.7 -1.2 -1.2 -1.2 -1.2 -1.2 -1.2 -1.2 -1.2 -1.2 -1.2 -1.2 -1.2 -1.2 -1.2 -1.2 -1.2 -1.2 -1.2 -1.2 -1.2 -1.2 -1.2 -1.2 -1.2 -1.2 -1.2 -1.2 -1.2 -1.2 -1.2 -1.2 -1.2 -1.2 -1.2 -1.2 -1.2 -1.2 -1.2 -1.2 -1.2 -1.2 -1.2 -1.2 -1.2 -1.2 3.2 7.5 9.1 11 14.5 21.3 23.7 30.1 41 50.5 63.2 73.9 86.3 100.4 113.6 129.8 146.1 165.9 187.9 215.5 242.3 271 293.4 304.1 316.1 328.9 337.5 345.7 350.3 355.8 358.2 360.4 363.5 365.5 368.2 375.7 377.6 377.8 379.2 383.8 385.1 387.4
288.9 292.3 282.4 276.2 267 263.8 267 264.5 269.8 267.3 267.6 261.2 257 252.4 256.9 258.7 263.7 272.4 277.7 284.8 296.1 305.7 307.9 308.8 315.4 328.6 347.3 354.6 364.9 373.9 378.1 394.5 409.8 417.2 415.2 426.1 445.6 462.8 469.9 504.3 526.9 530.9 533.7 521.7 540.2 549.2 535.2 510.8 483.6 460.4 443.2 427 415.9 404.5 388.4 374.7 359.4 343 334.7 323.9 315 305.8 298.4 292.8 289.1 291 289 292.9 296.5 294.4 310.2 313.3 299.5 286.1 267.7 255.7 241.6 228.6 217.7 208.6 195.4 186.7 175.7 167 155.3 144.3 137.1 126.6 116.9 105.4 97.8 91.8 82.4 75 70.6 66.1 60.4 55.3 50.4 46.3 44 41.6 38.3 35.1 31.5 28.7 25.5 20 14.3 11 7.7 4 2.1 -1.2 -1.2 -1.2 -1.2 -1.2 -1.2 -1.2 -1.2 -1.2 -1.2 -1.2 -1.2 -1.2 -1.2 -1.2 -1.2 -1.2 -1.2 -1.2 -1.2 -1.2 -1.2 -1.2 -1.2 -1.2 -1.2 -1.2 -1.2 -1.2 -1.2 -1.2 -1.2 -1.2 -1.2 -1.2 -1.2 -1.2 -1.2 -1.2 -1.2 -1.2 -1.2 -1.2 -1.2 -1.2 4.1 7.2 10.3 18 22 22.5 31.1 39.5 51.9 60.2 74.9 87.4 99.9 113.4 130.8 149.5 167.5 188.1 211.5 235.1 266 294 308.4 321.8 331.8 339.1 346.5 344.6 356.2 361.4 361.9 365.4 368 370.9 372.2 378.7 382 382.2 383.9 386.1 389.3 391.6
271.3 271.3 266.7 259.6 248.2 248.5 247.7 245.2 249.3 252.3 246.7 244 247.9 251.9 255.3 259.2 267.7 282.7 288.1 292.2 302.2 317.1 325.8 331.9 335.8 341 343.1 362.9 369.3 383.8 399.8 411.5 416.3 424.4 421.2 441 457.9 468.3 474.6 504.2 509.4 527.3 539.8 536.5 548.1 538.6 531.5 500.8 473.2 457.7 435.2 420.5 407.7 395.9 386.3 364.5 352.2 340.6 329.5 318.6 312.6 304 298.4 292.7 284.7 281.6 282.9 288.4 288.4 288.3 300.1 306.1 293.7 278.7 264.2 251.1 237.6 223.8 213.2 204.5 196.7 185.6 175.4 164.9 154.8 139 134.5 124.8 118.4 104 95 88.5 78.7 73.7 69 64.1 59.1 53 48.6 45.3 43 40.2 37.4 33.3 29.6 26.5 23.2 18.1 13.4 10.3 7.1 4.4 -1.2 -1.2 -1.2 -1.2 -1.2 -1.2 -1.2 -1.2 -1.2 -1.2 -1.2 -1.2 -1.2 -1.2 -1.2 -1.2 -1.2 -1.2 -1.2 -1.2 -1.2 -1.2 -1.2 -1.2 -1.2 -1.2 -1.2 -1.2 -1.2 -1.2 -1.2 -1.2 -1.2 -1.2 -1.2 -1.2 -1.2 -1.2 -1.2 -1.2 -1.2 -1.2 -1.2 -1.2 -1.2 2.2 5 6.8 10.6 24.1 27.4 32 40.3 52.3 60.4 72.6 86.3 102 114.8 130.6 150.2 169.4 190.7 212.8 234.4 259.2 289.8 310.2 319.9 330.6 341.1 347 354.6 355.7 359 364.2 367.7 370.3 374.3 377.8 379.5 379.7 383.6 385.3 388.4 388.1 389.7 394.9
254.3 249.6 247.2 243.4 240.5 240.3 237.2 236.4 237.7 239.4 239.8 241 243.4 248.8 256.3 260.1 268.1 284.6 293.2 300.2 310.5 327 334.1 347.2 357.6 359.7 360.9 365.6 380.8 402 418.7 430.1 429.8 425.8 430.8 450.5 470.5 483 486.7 495.2 513.3 533.6 539.5 534.5 540.1 535.8 516.7 488.5 465.2 447.4 431.8 417.2 403.5 392.2 376.1 360.1 344.6 339.7 330.7 323.5 314 308.7 304.7 292.8 283.4 276.3 275.2 279 277.9 278.3 285.2 294.4 286.9 274.3 257.1 240.8 230.2 221 212 202.7 193.4 179.8 169.7 160.1 152.1 140.9 132.5 127.7 117.1 101.4 91.5 85.6 77.4 72.8 68.3 63.5 58.7 53.4 48.5 45 41.3 38.5 35.2 31.4 27.9 25.3 22.3 16.5 12.7 9.8 6.9 5 -1.2 -1.2 -1.2 -1.2 -1.2 -1.2 -1.2 -1.2 -1.2 -1.2 -1.2 -1.2 -1.2 -1.2 -1.2 -1.2 -1.2 -1.2 -1.2 -1.2 -1.2 -1.2 -1.2 -1.2 -1.2 -1.2 -1.2 -1.2 -1.2 -1.2 -1.2 -1.2 -1.2 -1.2 -1.2 -1.2 -1.2 -1.2 -1.2 -1.2 -1.2 -1.2 -1.2 -1.2 -1.2 3.7 5.2 7.8 11.7 28.5 34 41 51.3 62.3 72.9 84.9 103.8 117.8 134.8 154.1 171 194.7 219.6 243.1 266.6 289.7 306.6 318.7 330.1 339.7 345.7 348 359.9 365.7 368.3 366.5 367.8 376.7 379.9 380.2 384.3 388.6 386.6 387.2 390.8 392.1 392.9 396.3
253.2 249.5 247.3 240.1 236.4 237.3 235.5 235.8 236.9 238.2 239.5 241.4 244.6 246.9 252.3 257.1 266.6 281.8 292.1 303.3 319.2 329 341.2 356.2 365.5 367.8 374.8 388.6 398 432.8 437.6 440.7 436.4 430.1 448.4 455.9 473.7 477.1 479.4 498.5 517.8 535.6 536.6 526.7 518.9 511.3 496 478.8 459.2 444.4 431 415.1 402.9 383.1 373.1 370 359.3 350.7 341.9 330.6 320.2 314.2 310.9 298.9 287.9 279.7 271.7 269.5 270.6 271.5 270.9 277.6 273.9 265.4 247.7 233.7 223.2 213.6 205 197.4 188.3 179.3 169.5 160.6 149.8 139.9 131.1 124 115.9 100 92.5 84.3 76.8 69.8 66.4 62.7 57.6 52.6 47.8 44.5 40.5 36.3 32.8 29.4 26 22.3 18.6 15.6 11.2 7.8 4.5 3.5 -1.2 -1.2 -1.2 -1.2 -1.2 -1.2 -1.2 -1.2 -1.2 -1.2 -1.2 -1.2 -1.2 -1.2 -1.2 -1.2 -1.2 -1.2 -1.2 -1.2 -1.2 -1.2 -1.2 -1.2 -1.2 -1.2 -1.2 -1.2 -1.2 -1.2 -1.2 -1.2 -1.2 -1.2 -1.2 -1.2 -1.2 -1.2 -1.2 -1.2 -1.2 -1.2 -1.2 -1.2 2.3 4.1 4.9 7.4 15.7 28.8 39.4 51.3 62.3 74.1 92.7 106.7 128.2 144.7 161.2 180.4 207.2 230.8 253.2 274.5 292.2 307.2 315 327.1 337.8 344.9 350.4 357.9 359.3 365.2 370.4 374.6 377.8 377.3 378.5 385.9 389.7 392.6 390.6 389.5 389.3 395.4 396.7 398.2
244.2 243.1 240.8 237.5 234.3 234.3 234.1 237 240.6 241.4 244.3 244.3 246.2 252.1 259.3 268.2 273 286 300.1 310.8 320.3 340.3 353.9 359.9 364 377.6 396.2 406 412 437.4 445 446.6 437.4 435.1 449.9 462.2 461.2 468.2 489.1 505.3 515.6 525.3 527.5 513.4 506.5 501.2 487.6 473.6 456.3 443.6 431.8 421.2 405 398.9 386.4 376.8 369.3 361.7 347.6 336.9 325.3 320.1 313.9 309.1 302 288.1 275.5 258.9 264.4 263 262.4 268.6 263.7 253.8 240.9 228.5 215.4 206.9 200.5 191.6 182.2 176 164.3 156.3 146.6 136.5 131.9 119.1 112 100.5 91.1 81.1 75.4 69.3 62.8 59 55.1 51.2 47 43.4 40.5 36.3 32.5 26.9 21.5 19.9 16.3 12.4 8.3 4.5 -1.2 -1.2 -1.2 -1.2 -1.2 -1.2 -1.2 -1.2 -1.2 -1.2 -1.2 -1.2 -1.2 -1.2 -1.2 -1.2 -1.2 -1.2 -1.2 -1.2 -1.2 -1.2 -1.2 -1.2 -1.2 -1.2 -1.2 -1.2 -1.2 -1.2 -1.2 -1.2 -1.2 -1.2 -1.2 -1.2 -1.2 -1.2 -1.2 -1.2 -1.2 -1.2 -1.2 -1.2 -1.2 -1.2 3.9 4.4 5.1 7.8 18.1 31.2 45.2 60.4 74.9 88.6 108.8 130.5 149.7 176.6 193.8 216.4 236.6 254.9 278.8 294.7 306.1 318.1 325.1 336.6 345.3 349.8 356.1 360.4 361.4 367 370.7 373.9 378.6 384 388.3 387.5 390.5 393 395.2 393.7 393.2 393.7 397.3 400.5
239.3 239.7 237.9 234.9 232.2 233.8 236.6 249.1 254.3 256.5 262.8 261.4 259.5 264.3 261.1 271.1 286.4 305.5 315.2 336 346.1 353.9 363.2 365.7 376.7 390.5 396.8 404 415.8 422 441 439.6 435.8 433.8 435.6 447.7 466 478.7 481 497 506.7 522.2 522 515.5 508.8 495.5 479.9 466.6 453.7 448.4 440.9 430.9 419.4 422.6 406.8 388 373.9 365 352.9 338.4 334.2 331.1 320 315.5 310.2 294.7 279.9 266.4 252.9 255 254 262.1 255.5 245.3 232.1 220.3 205.4 195.2 188.7 183.7 177.9 168.8 160.6 149.5 140.9 136.1 128.2 117.1 106.5 95.5 84.5 77.1 72.6 68.2 61.3 57.3 53.5 49.4 45.8 42 39.5 34.8 30.8 25.9 20.8 18.6 13.2 9.3 5.9 2.5 -1.2 -1.2 -1.2 -1.2 -1.2 -1.2 -1.2 -1.2 -1.2 -1.2 -1.2 -1.2 -1.2 -1.2 -1.2 -1.2 -1.2 -1.2 -1.2 -1.2 -1.2 -1.2 -1.2 -1.2 -1.2 -1.2 -1.2 -1.2 -1.2 -1.2 -1.2 -1.2 -1.2 -1.2 -1.2 -1.2 -1.2 -1.2 -1.2 -1.2 -1.2 -1.2 -1.2 -1.2 -1.2 3.5 4.4 4.5 3.9 8.1 23.6 37.8 51.2 65.6 84.6 102.2 124.9 148.3 168 188.1 215.3 238.6 256.8 274.7 291 305.2 312.8 321.5 328.6 339.3 347.6 353.4 358.5 361.8 363.7 366 369.2 374.8 378.3 382.3 388.6 391.1 395.1 393.2 397.9 397.8 396.9 397.7 399.5 400
230.3 235.3 238.9 234.6 231.4 239.8 257.4 268.5 274.1 274.6 277.6 277.9 275.8 282.7 286.2 284.4 284.3 292.8 316.3 336.3 351.7 368.9 376.5 386.4 408.4 407.5 406.4 416.3 429 430.7 435 438.9 436.6 430.4 432.3 450 472.4 497.1 490.9 490.1 498.7 511.2 510.4 507 507.9 495.3 477.5 465.6 461.3 456.6 440.2 441.8 440 437.4 416.8 397.7 387 370.7 355.7 347.5 343.5 335.3 330.8 322.6 312.6 299.3 283.2 268 250.9 242.1 244.7 255.1 250.8 238.2 225.7 211.7 195 188 177.9 169.3 165.3 156.9 152.9 145.4 133.5 128.3 121.1 112.4 99.9 88.9 77.8 74 69.8 65.3 60.4 55.8 52.2 47.6 43.9 40.4 38.1 33.5 29.5 24.8 20.6 16.5 11.3 7.1 3.9 -1.2 -1.2 -1.2 -1.2 -1.2 -1.2 -1.2 -1.2 -1.2 -1.2 -1.2 -1.2 -1.2 -1.2 -1.2 -1.2 -1.2 -1.2 -1.2 -1.2 -1.2 -1.2 -1.2 -1.2 -1.2 -1.2 -1.2 -1.2 -1.2 -1.2 -1.2 -1.2 -1.2 -1.2 -1.2 -1.2 -1.2 -1.2 -1.2 -1.2 -1.2 -0.4 0.5 1.8 2.7 3.2 3.7 4.8 3.9 5.1 7.3 23.7 37.8 50.3 63.1 87.4 112.3 140.3 158 183.5 209.2 226.8 246.3 262.8 280.7 295.9 303.6 312.9 324.7 334 338.7 345.2 350.7 354.9 359.1 361 363.5 367.9 374.2 378.4 381.6 386.5 391.2 393.4 396.9 398.5 398.9 401 401.9 400.1 401.3
226 231.9 229.5 221.4 243.3 273.5 280 287.7 294.9 296.9 297.2 294.6 299.5 305.7 306.5 302.5 302.5 311.8 310.2 307.6 334.4 359.6 379.5 399.7 409.5 414.4 422.9 418.1 426.7 441.8 433.1 422.2 430.4 434.5 434.3 451.4 488.2 498.5 502.6 503.1 497.8 491 501.7 498.3 501.1 487.5 472.3 469.3 458 457.2 456.8 453.2 455.4 440.5 418.2 402.1 389.6 377.7 371.1 356.9 351.3 343.5 339.7 330.6 314.6 303.3 283.2 265.9 248.5 235.6 232.3 238.2 237.5 229.8 216.7 200.4 185 179.5 167.9 162.6 152.9 145.3 142.8 139.6 129.4 124.1 115.6 106.4 97 85.5 78.4 71.2 67 62.9 58.4 54.3 50.9 46.1 41.8 38.2 35.5 32.1 28.3 24.5 20 16.6 10.9 6 -1.2 -1.2 -1.2 -1.2 -1.2 -1.2 -1.2 -1.2 -1.2 -1.2 -1.2 -1.2 -1.2 -1.2 -1.2 -1.2 -1.2 -1.2 -1.2 -1.2 -1.2 -1.2 -1.2 -1.2 -1.2 -1.2 -1.2 -1.2 -1.2 -1.2 -1.2 -1.2 -1.2 -1.2 -1.2 -1.2 -1.2 -1.2 -1.2 -1.2 -1.2 -1.2 1.5 2 2 2.6 2.9 3.8 4.6 3.6 4.4 6.6 17.8 34 49.5 66 86.8 110.2 129.4 146.2 166 190.7 210 223.3 243.8 264.3 291.2 301.8 313.4 320.6 328.6 335.3 342.6 347.1 350.3 354.6 356.8 360.7 365.8 371.7 375.5 380.5 384.7 388.1 391.6 395 399.9 403.5 403.6 403.2 401.6 404.5
212.9 223.2 236 252 267.8 295.9 303.8 313.3 315.7 315.9 319.2 317.5 324.4 323.9 323.4 324 323.2 325 326.6 329.5 327.7 345.1 373 384.3 399.5 408.5 410.3 418.3 416.5 424.2 424.8 416.3 418.6 428.4 444.2 456.2 483.7 484.2 489.3 480.7 475.8 489.1 489.3 487.8 482 471.6 468.1 460 476.4 481.2 472.7 463.6 461.2 437.7 421.9 402.6 397.9 386.4 379.5 369.1 358.5 350.5 343.9 336.2 321.1 302.7 284.6 262.2 248.6 235.2 218.8 222.9 220.1 216.7 202.9 192 178.3 167.8 160.3 155.3 144.6 136.3 136.1 133.7 124.8 119.3 113.1 104.2 95.6 82 74.3 70 65.8 61.6 57.3 53.2 49.4 45.3 39.5 35.9 33.7 30.8 27.6 25.8 21.8 16.8 10.5 5.5 -1.2 -1.2 -1.2 -1.2 -1.2 -1.2 -1.2 -1.2 -1.2 -1.2 -1.2 -1.2 -1.2 -1.2 -1.2 -1.2 -1.2 -1.2 -1.2 -1.2 -1.2 -1.2 -1.2 -1.2 -1.2 -1.2 -1.2 -1.2 -1.2 -1.2 -1.2 -1.2 -1.2 -1.2 -1.2 -1.2 -0.3 0.1 -0.6 -1.2 -1.2 -1.2 -1.2 2.2 2.5 3.2 3.7 4.3 4 4.5 5 6.3 16.5 32.4 48 66.5 94.3 124.4 153.2 165.7 177.2 191 212.2 232.1 245.5 267.2 276.2 283.4 296.5 298.6 311.5 326.4 332.1 342.7 345.9 351.8 352.7 356.1 361.2 366.4 370.9 375.4 381 385.9 389.6 394.8 399 402 401.7 404.1 404.4 404.2
221.7 238.2 252.1 267.7 306.2 319.1 328.7 332.2 332.9 333.1 339 339.4 343.8 349.7 356.8 353.5 344.1 340.6 341.4 344.5 346.3 352.2 350.9 366.6 379.3 388.7 392.1 399.7 396.6 412 411.1 424.8 431.3 422.7 427.6 441.1 459.7 465.2 463.2 463.4 452.1 462.7 471.8 473.1 464.6 461.6 458.9 465.3 484 488.9 487 472.3 456.4 442.3 428.9 416 407.3 397.9 390 383.7 370.3 364.6 355.1 344 323.6 305.8 281.6 259.6 240.1 229.2 220.1 206.1 206 198.7 192.8 184.9 177.4 162.9 151.7 145.3 138.3 130 124.2 123.3 120.7 115.9 108.4 102.6 92.4 85 74.1 68.5 64.4 60.2 56.2 52.3 48.3 44.2 38.3 33.5 30.6 29.7 27.7 25.5 23 18 11 7.5 3.4 -1.2 -1.2 -1.2 -1.2 -1.2 -1.2 -1.2 -1.2 -1.2 -1.2 -1.2 -1.2 -1.2 -1.2 -1.2 -1.2 -1.2 -1.2 -1.2 -1.2 -1.2 -1.2 -1.2 -1.2 -1.2 -1.2 -1.2 -1.2 -1.2 -1.2 -1.2 -1.2 -1.2 -1.2 -0.6 0.2 1 0.7 -1.2 -1.2 -1.2 -1.2 -1.2 2.8 3.6 4.3 4.1 4.2 4.7 4.7 6 20 34.3 48.3 58.4 80.2 107.2 140.4 146.6 158.2 183.1 195.6 213.5 232.7 254.9 261.7 275.2 286.2 290.7 293.1 303.1 318.6 327.6 333.4 342.7 345.1 349.8 354.2 358.7 362.7 368.9 376.5 382.8 389.8 395 396.3 399.4 400 403 408 410.1
238.5 249.2 263 284.9 317.4 332.8 338.7 345.8 347.9 352 358.5 358.5 364.9 375.9 377.3 365.8 357.9 351.8 349.8 354.9 361 364.4 368.5 376.3 392 394.2 396.3 395.4 393.3 401.5 409.2 414.2 423.2 428.1 422.5 422.6 430.6 443.5 438.4 439.8 436.5 435.2 444.7 445.4 444.4 456.7 471.3 473 489.9 488.8 481.4 463.6 451.4 448.5 434.1 428.9 425.5 413.8 412.8 402.4 392 373.2 358.5 349.2 335 307.7 297.2 271.2 248.5 230.8 215.4 200.9 190.5 190.6 182.9 177.2 170.4 158.7 146.5 137.6 129.9 123.5 116.1 116.6 113.3 109.9 102.6 96.1 92.9 84.3 73.5 66.7 62.6 58.4 54.3 50.4 46.5 42.5 37.5 31.9 28.1 28 25.4 23.9 21.6 14.1 10.8 8.4 4.1 -1.2 -1.2 -1.2 -1.2 -1.2 -1.2 -1.2 -1.2 -1.2 -1.2 -1.2 -1.2 -1.2 -1.2 -1.2 -1.2 -1.2 -1.2 -1.2 -1.2 -1.2 -1.2 -1.2 -1.2 -1.2 -1.2 -1.2 -1.2 -1.2 -1.2 -1.2 -1.2 -1.2 -1.2 0.3 0.9 1.6 2.1 2.1 -1.2 -1.2 -1.2 -1.2 -1.2 -1.2 3.7 3.1 3.5 3.5 4.2 8.7 24.3 40.3 53.9 57.5 85.2 101.7 103.6 118.8 143.2 158.9 177.9 217.9 221.9 228.9 245.9 253.8 267.4 275.8 271.6 281.6 296.3 307.1 316.3 327.5 335.4 340.2 347.3 349.2 354.8 362.8 368.9 375.8 385.5 388.7 392 395.2 396.6 400.4 403 406.5
239.7 257.6 275.7 291 319.4 336 350.2 357.5 363.6 371.3 377.8 380.6 389.8 393.1 387.6 378.4 374.4 370.9 367.4 370.5 372.6 378.1 380.9 388.3 394.1 397.9 405.3 403.4 407.1 408 414.3 424.3 437.1 431 428.7 425.5 422.9 423.8 424.1 421.2 421.2 424.3 425.9 430.6 444.1 451.7 466.9 481.2 485.6 481.1 466.1 459.7 455.1 446.4 443 438.7 434.1 430.9 421.1 413.2 394 371.3 359.3 346.5 331 316.7 298 270.7 253.5 233.1 215.6 201.8 188.1 180 177.5 171 162.4 151.8 141.8 130.6 122 114.3 108.9 108 106.1 102.7 95.9 94.6 87.9 78.6 71.9 64.9 60.3 56.3 52.3 48.4 44.4 40.3 35.9 31 29 27.8 26.5 22.7 19.8 15.7 12.6 8.2 -1.2 -1.2 -1.2 -1.2 -1.2 -1.2 -1.2 -1.2 -1.2 -1.2 -1.2 -1.2 -1.2 -1.2 -1.2 -1.2 -1.2 -1.2 -1.2 -1.2 -1.2 -1.2 -1.2 -1.2 -1.2 -1.2 -1.2 -1.2 -1.2 -1.2 -1.2 -1.2 -1.2 -1.2 1.5 1.7 2.1 2.1 2 3.4 3.1 -1.2 -1.1 -1.2 -1.2 -1.2 -1.2 -1.2 -1.2 3.6 5 9 22.4 36.5 46 45.8 60.8 81.5 97.3 111.1 128.2 145.2 157.9 181.6 194.1 214.2 235.6 241.6 242 245.3 249.1 261 259.9 279.9 291.2 315.1 319.6 321.8 331.2 340 347.4 354 360.6 370.2 378.6 380.2 386.4 388.6 390.5 393.4 396.4 397.9
246.4 264.3 284.8 296.5 322.8 341 356 367.7 377.1 385.3 385.1 388.4 396.3 400.1 408.8 399.5 398 392.2 384.1 385.2 389.4 391 389.5 394.6 399.2 402.7 403.1 404.1 411.4 419.2 424.6 442.2 452.7 453.7 448.6 441.1 434 427.5 421.2 421.2 421.2 421.2 423.3 430.3 439.2 450 451.5 458.9 468.5 465.7 460.6 463.9 460.3 470.1 468.6 468.7 456.5 455.7 443.7 431.1 408.2 378.3 365.2 352.7 351.9 328.2 295.1 275.5 253 235.4 218.7 200.4 187.2 172.4 168.6 163.3 155.1 146.5 134.9 124.1 115.4 108.4 103.6 99.3 98.3 94.4 93.8 87.8 77.8 69.6 65.2 61.9 56.2 52.2 49.7 45.4 44.5 40.3 36.8 32.3 30.3 28.5 29.1 25.3 21 16.1 11.8 6.6 -1.2 -1.2 -1.2 -1.2 -1.2 -1.2 -1.2 -1.2 -1.2 -1.2 -1.2 -1.2 -1.2 -1.2 -1.2 -1.2 -1.2 -1.2 -1.2 -1.2 -1.2 -1.2 -1.2 -1.2 -1.2 -1.2 -1.2 -1.2 -1.2 -1.2 -1.2 -1.2 4.9 5.2 4.3 4.2 4.9 5.6 6.6 5.4 5.9 7.1 5.9 6.7 6.9 5.4 2.6 -1.2 -1.2 -1.2 -1.2 -1.2 12 23.9 31 36.8 41.9 61.2 85.2 99.8 112 127 160.3 164.9 180.4 188.3 210.9 215.6 213.7 221.4 232.6 248.2 253.4 257.6 263.6 281.5 294.3 299 310 319.9 329.1 331.9 343.5 348.1 362.4 370.2 372.9 376 378.8 381.3 384.6 389.3
252.6 270 293.7 310.9 325.2 345.1 356.2 364.9 381.6 393.7 402.4 409.5 418.5 429.3 425.3 425.6 419.6 409.9 402.3 400.2 404.4 405.7 401.8 403.8 407.8 404.3 403.2 412.7 421 428.2 433.9 442.6 448.5 455.9 463.6 460.2 454.1 447.9 437.7 428.5 422.1 421.2 421.2 424.3 434.5 443 445.7 445.7 452.2 453.1 461.3 466.7 478.3 483.5 482.1 485.7 475 467.8 459.2 439 416.7 389 369.6 357.1 348.1 322.9 297 277 254.9 236.5 220.5 204.5 187.1 174.7 159.1 150.4 146.5 142.4 131.1 118.6 109.1 102.6 99.4 95.4 89.6 84.9 85.8 76.2 67.5 60.2 55.7 54.7 52.4 44.6 42.9 37.8 38.4 39.1 37.5 35 29.3 26 30.8 29.2 24.6 17.3 10.4 4.7 -1.2 -1.2 -1.2 -1.2 -1.2 -1.2 -1.2 -1.2 -1.2 -1.2 -1.2 -1.2 -1.2 -1.2 -1.2 -1.2 -1.2 -1.2 -1.2 -1.2 -1.2 -1.2 -1.2 -1.2 -1.2 -1.2 -1.2 -1.2 -1.2 -1.2 -1.2 -1.2 7 9.3 10 10.2 10.2 10.3 11.3 11.1 12.4 12 10.7 10.4 10.3 12.6 12.2 11.5 11.6 10.5 -1.2 -1.2 -1.2 2.1 4.9 12.2 18.5 36.8 60.3 70.3 82.2 103.6 131.4 161 186.7 186.7 184 188.4 197.3 204.9 213.2 226.5 234.1 242.6 261.1 263 265.6 267.6 284.1 293.4 293.6 297.8 305.5 317.8 334.7 345.3 352.6 354.1 357.2 359 363.3 369.5
252.5 265.8 285.5 296.1 318.3 346.8 363.8 379.5 395.6 408.9 419.5 427.6 436.3 433.4 436.9 437.8 431.7 429.9 433.8 430.7 419.7 415 413 411.9 411.1 413.2 408 414.4 428.4 434 436.2 442.2 460.3 471.5 473.8 469.9 463.3 455.6 446 438.2 438.1 435.5 440.2 443.3 437.7 438.3 444 444.3 450.6 465.2 467 476.1 482.3 490.1 489.6 484.1 476.1 460.7 445.4 432.9 418.7 384.3 366.7 344.1 336.1 316.3 296.8 278.1 259.8 245.8 224.1 205.3 193.3 180.5 167.5 157.4 146.9 131.7 120 110 101.6 97.1 93 87 82.5 79.5 73.9 65.8 59.3 50.9 46.5 45.4 43.7 39.8 36.3 32.7 32 32.3 35.2 32.8 29.7 23.6 26.6 27.1 23.8 15.8 7.8 4.5 -1.2 -1.2 -1.2 -1.2 -1.2 -1.2 -1.2 -1.2 -1.2 -1.2 -1.2 -1.2 -1.2 -1.2 -1.2 -1.2 -1.2 -1.2 -1.2 -1.2 -1.2 -1.2 -1.2 -1.2 -1.2 -1.2 -1.2 -1.2 -1.2 -1.2 -1.2 -1.2 10.2 14.2 17.3 17.6 17.5 17.5 16.1 18.6 17.7 15.8 15.2 15.3 15.7 20.5 18.2 16.3 14.3 13 8 5.5 -1.2 2.1 2.2 2.1 9.2 20.9 33.6 50 59.6 82.9 128.4 170.2 168.9 177 177.8 172.9 173.9 184.7 195.8 204.1 209.9 214.7 228.6 254 253.4 251.5 261.2 257.4 246.7 257.5 264.5 279.2 296.7 306.6 319.7 321.7 325.9 334.2 335.4 347.3
264.1 273.6 289.6 315.2 335.6 362.2 377.6 394.8 412.1 421.7 423.8 435 449.2 454.8 456.7 464.3 457.9 458.6 455.6 443.4 435.4 429.6 424.6 421.4 419.3 420.6 418.8 427.1 430.7 438.3 443.5 448.4 468.4 482.9 484.2 483.9 476.4 460.2 454.1 451.6 458.2 462.2 463.2 467.3 468.4 460 459.6 456.4 450.6 460.4 466 477.9 483.9 483.2 473.6 462.1 451 431.6 420.3 420.7 406.5 377.8 354 334.6 329.2 314.1 299.5 286 275.3 265.1 229 210.8 200.5 187.6 168.9 157.1 146.1 134 122.5 111.6 102.5 93.8 84.9 84.3 76.3 71.8 66.7 60.8 53 45.8 40 38.4 33.2 33.3 31.4 28.5 25.6 25.9 28.9 26 26.9 21.5 20.7 19.6 17.9 13.1 6.5 4.4 -1.2 -1.2 -1.2 -1.2 -1.2 -1.2 -1.2 -1.2 -1.2 -1.2 -1.2 -1.2 -1.2 -1.2 -1.2 -1.2 -1.2 -1.2 -1.2 -1.2 -1.2 -1.2 -1.2 -1.2 -1.2 -1.2 -1.2 -1.2 -1.2 -1.2 -1.2 -1.2 8.8 11.2 19.7 22.4 24.6 24.3 21.1 22.3 21.8 18.9 20 19.6 23 26.7 23.8 22.8 18.7 15.2 13 6.1 6.7 2.1 2.1 2.1 3.8 13.3 20 35.7 48.7 69.1 109.1 131.1 141.8 157 163.4 166.8 165.8 166.5 179.2 180.8 191.4 194.2 200.3 217.3 222.5 234.2 233.1 232.6 223.5 222.8 226.5 240.5 259.4 271.1 284.9 293.2 299.7 304.5 306 317.5
274.2 288.9 310.4 330.6 350.7 372.1 387.1 399.5 411.3 429.7 449.5 459.3 465.4 476.5 481.9 487.8 484.8 479.6 477.7 471 457 451 442.5 441.4 440.9 436 436.3 435.7 438.2 444.9 447.2 458.7 476 485.7 498.6 496.1 488.5 475.9 466.3 469.8 469.4 471.9 484.2 495.5 495.4 486.7 483.3 485.6 475.6 477.4 469.9 469.1 463.2 456.2 446 432.9 420.9 409.6 395.9 389.7 389.9 370.6 357.9 342.8 322.5 311.2 303.8 296.1 286.9 268.3 238.6 220.3 206.8 194.4 171.9 156.3 143.5 130.8 120.5 109.3 98.4 92.3 82.8 73.8 69.3 65.5 61.6 56 48.9 42.7 37.2 32.8 28.9 28.8 26.2 22.1 18.6 16.3 18.1 20.2 24.6 20.9 17.2 17.6 16 10.3 7.4 -1.2 -1.2 -1.2 -1.2 -1.2 -1.2 -1.2 -1.2 -1.2 -1.2 -1.2 -1.2 -1.2 -1.2 -1.2 -1.2 -1.2 -1.2 -1.2 -1.2 -1.2 -1.2 -1.2 -1.2 -1.2 -1.2 -1.2 -1.2 -1.2 -1.2 -1.2 -1.2 -1.2 -1.2 8.5 19.2 23.9 30.2 30.7 28.7 29.6 29.2 29.3 29 32.4 31.8 31 30.6 32.2 29.4 24.8 16.6 11.4 7.7 2.1 2.1 2.6 2.9 10.8 14.4 27 43.4 54.8 58.4 72.1 95.4 127.7 147.8 153.5 155 156.4 154.2 155.2 174.4 179.4 175.6 182.5 194.4 199.5 202.4 201.4 191.3 191.3 199.6 205.2 219.2 235.6 247.4 258.2 268.7 277.9 278.7 282.6
288.6 303.1 318.2 331.6 352.9 376.2 395.4 414.6 430.6 450 465.1 474.9 487.6 499.8 506.8 510.6 507.8 506.6 501.2 495.2 484.9 476.6 468.4 466.5 466.2 460.9 458.8 450.9 453.4 459.3 456.8 471.6 484.7 495.5 504.4 509.1 506.8 497.2 496.3 494.1 495.8 498.6 503 513.6 514.6 508.9 515.9 517.8 512.1 509.4 500.3 496.2 467.7 445.1 426.5 411.2 403 389.8 376.9 368.7 360.5 354.2 351 340.1 322.4 312.7 305.5 296.4 295.1 268.9 242.3 227.7 211.3 193 174.7 154.8 141.8 132.1 122.3 109.7 99.9 90.1 78.9 71.2 65.1 60.2 56.2 50.3 45.7 38.9 33 28.3 22.5 20.9 20.8 19.5 16.3 13.3 12.2 16.2 18.7 18.6 18.7 13.7 11.3 8.8 5.9 -1.2 -1.2 -1.2 -1.2 -1.2 -1.2 -1.2 -1.2 -1.2 -1.2 -1.2 -1.2 -1.2 -1.2 -1.2 -1.2 -1.2 -1.2 -1.2 -1.2 -1.2 -1.2 -1.2 -1.2 -1.2 -1.2 -1.2 -1.2 -1.2 -1.2 -1.2 -1.2 -1.2 2.1 4.7 8.2 18.1 25.6 28.9 36.9 38.2 34.8 35.9 38.9 43.6 44.5 38.5 38.7 38.5 36.2 29.4 24 19.5 10 7.2 2.5 2.7 3.2 9 15.2 19.1 30.7 38.1 47.3 54.9 69.9 92.8 111.2 131.7 140.2 141.1 146.8 143.2 143.8 155.4 158 167.3 167.8 170.4 164.6 166.7 162.5 169.4 185.3 176.9 190.5 206.5 218.4 233.2 243.9 253.2 247.3 257.5
298.1 309.6 325.4 342.8 362.3 379.5 402.9 425.9 447.7 466.9 488.9 492.6 506.7 517.7 524 529.3 531.1 531.7 528.8 524.9 512.9 505.8 503.6 497.2 489.6 484.3 474.4 470.2 472 470.4 473.4 482.4 496 511.7 526.1 531.7 533.9 534.7 528.2 533.4 530.8 533.2 533.3 538.2 538 537.7 542.3 546.7 536.8 528.4 515.4 485.7 457.8 441.4 422.6 405.3 389.2 375.8 364.7 354.1 349.9 341.4 334.1 324.2 314.7 302.6 294.2 282.5 268.1 256.4 244.8 234.1 212.8 195.7 172.9 157.4 142 130.3 126.8 109.2 98.2 88.1 77.8 71.4 63.8 56 48.8 44.9 40.3 35.8 30 23.8 20.2 18.3 16.3 15.5 14 9.4 7.5 8.2 14.6 14.4 16.6 12.7 10.4 8.5 -1.2 -1.2 -1.2 -1.2 -1.2 -1.2 -1.2 -1.2 -1.2 -1.2 -1.2 -1.2 -1.2 -1.2 -1.2 -1.2 -1.2 -1.2 -1.2 -1.2 -1.2 -1.2 -1.2 -1.2 -1.2 -1.2 -1.2 -1.2 -1.2 -1.2 -1.2 -1.2 5.6 11.9 13 15.6 22.1 21.5 29.8 36.4 41.1 50.9 54.3 51 50.8 55.7 57.3 57.7 55.1 48.7 44.5 37 33.9 27.1 19 8 4.6 2.4 2.9 15.5 15.8 17 25 27.7 30.7 32.1 42.7 59.3 76.9 100.5 114.6 122 135.8 136.2 131 122.4 122.1 133.5 143.8 145.9 137.8 135.2 139.3 154.7 160.9 164.3 160.4 169.6 200 207.1 219.2 225.4 217.8 225.5
307.3 316.1 330.9 355.5 373.7 392.6 415.7 439.5 463.3 488.4 505.4 517.8 522.8 534 537.8 544.1 550.8 541.9 547.5 547.5 543.5 537.7 529.3 523.9 509.1 503.9 498.3 492.1 486.4 487.2 495.1 507 517.4 535.6 546.2 567 571.6 572 576.2 576.5 568.5 565.2 570.3 573.8 570.6 571.1 576.7 574.7 565.5 531.4 502 473.9 447.6 432.1 417.3 398 383.5 368.5 355.6 344.2 333 328.9 323.8 314.4 304 296.1 286.9 276.1 264.3 249.8 234.3 219 203.9 184.7 168.6 156.9 141.4 128.8 118.5 116.2 104.8 93.6 84.1 76.4 62.6 55 48.4 41.1 36.8 32.5 27.4 21.3 17.6 16 14.4 13 13.5 10 4.5 3 5.4 7 11.9 11.6 8.5 5.2 -1.2 -1.2 -1.2 -1.2 -1.2 -1.2 -1.2 -1.2 -1.2 -1.2 -1.2 -1.2 -1.2 -1.2 -1.2 -1.2 -1.2 -1.2 -1.2 -1.2 -1.2 -1.2 -1.2 -1.2 -1.2 -1.2 -1.2 -1.2 -1.2 -1.2 -1.2 -1.2 12.3 18.8 22 28.7 36.6 44.6 48.1 53 52.8 55.6 62.9 70.7 72.2 74.1 71.3 74.1 69.8 61.8 51.2 48.4 41 33.3 27 14.4 6.8 5 3.2 4 14.2 16.3 18.7 17.2 18.7 21 31.4 41.8 48.6 56 67.6 98.4 109.7 115.6 117.5 114.1 96.9 95 107.7 111.9 103.9 111.1 120.9 138.9 139 161.9 161.3 151.7 166.4 185.2 189.7 185.3 186.5 198
314.9 322 341.5 357.7 376.8 398 425.2 448.6 477.6 502.2 513.3 524.4 530.2 540.6 547.7 549.7 549.6 560 566.7 568.1 568.8 563.6 556.3 543.7 529.3 526 516.8 509.9 511.6 514.5 521.2 534.6 546.8 564.9 578.3 602.4 602.5 605.6 609 610.3 608.3 600.9 605.2 603.6 604 605.8 615.9 604.7 564.1 527.4 494 469 453.9 443.3 421.6 403.8 389.6 376.9 359.6 346.6 335.6 323.1 309.2 298.7 286.5 282.4 274.8 260.3 255.8 243.4 224.1 205.9 193.9 180.7 165.8 156.3 141.5 133.8 124.3 113.1 102.5 93.6 86.8 76.6 63.1 55.8 49.3 39.6 34.7 28.5 22.4 19.6 16.8 12.4 11.4 8.6 11 8.9 4.1 2.3 -1.2 3.2 10.2 6.7 5 -1.2 -1.2 -1.2 -1.2 -1.2 -1.2 -1.2 -1.2 -1.2 -1.2 -1.2 -1.2 -1.2 -1.2 -1.2 -1.2 -1.2 -1.2 -1.2 -1.2 -1.2 -1.2 -1.2 -1.2 -1.2 -1.2 -1.2 -1.2 -1.2 -1.2 -1.2 -1.2 10.5 19.5 24.8 28.1 31.4 44.1 48.1 56.6 63.2 76.2 85.8 90.9 84.6 85.6 85.3 82.8 81.8 77.6 69.5 60.1 55.3 46.8 42 30.2 22.2 11.3 6.2 4.6 3.6 9.2 13.9 14.1 15 17.1 19.9 22.8 23.1 27.2 33.3 41.1 53.9 76.6 88.8 92.3 88.3 81.6 75.2 77.9 81.9 77.5 87.2 95.6 115.1 120.1 138.4 138.5 147.7 163.7 150.1 151.5 146.2 155.1 171
325.8 333.9 350.5 360.8 382.4 403.3 424 452.6 476.7 496.6 511.9 522.4 534.1 546.7 553.3 550.1 562.7 568.6 579.2 582.9 585.3 582.5 578.3 563.2 550.9 545.2 537.7 541.4 539.1 540.8 551.9 556.8 573.7 597.7 615.8 635.8 642 646.6 636.7 638.7 639.4 638.9 633.2 634.1 648.5 641.6 650.6 608.5 567.6 528 499 480.6 472.1 462.2 435.3 417.5 401 384.4 369.4 356.1 347.8 337.4 327.1 315.4 299.4 281 265.7 253 236.3 225.7 215.1 203 191 176.3 163.8 152.1 141.4 143 126.6 110 99.4 91.4 82.4 72.8 62.7 58.6 49.5 41.4 34.4 26.4 19.4 16.5 14.3 11.2 8.4 6.9 6 4.4 -1.2 -1.2 -1.2 -1.2 -1.2 -1.2 1.4 -1.2 -1.2 -1.2 -1.2 -1.2 -1.2 -1.2 -1.2 -1.2 -1.2 -1.2 -1.2 -1.2 -1.2 -1.2 -1.2 -1.2 -1.2 -1.2 -1.2 -1.2 -1.2 -1.2 -1.2 -1.2 -1.2 -1.2 -1.2 -1.2 -1.2 -1.2 -1.2 12 21.3 28.4 38.5 43.1 41.4 53.1 59.4 72.9 86.7 101.6 106.4 112.2 111.6 105.8 95.9 87.2 81.4 75 67.5 63.2 54.8 48.1 40.5 27.9 17.3 9.2 4.9 5 5.2 8.7 14.1 15 15.8 17.3 22.1 20.8 22 23 23.1 31.1 45.3 60.8 68.7 63 59.7 59.3 62.2 53.6 61.2 81.1 85.1 85.1 92 104.3 114.7 128.1 144.2 135.8 131.9 127.4 134.8 146.8
338.9 349.6 358.4 367.9 385.8 398.5 424.7 446.8 474.2 489.1 505.4 522.2 534.8 546.6 546.2 554.4 566 576.8 582.7 590.2 597.5 597.7 588.3 577.8 570.1 571.3 575.8 576.9 569.1 562.6 576.8 592.5 607.4 627 645.3 658.9 672.3 677.3 675.4 672.3 667.5 668.6 665.9 673.6 671.5 664.1 653 619.1 568.2 537.7 520.2 505.8 498.7 480.1 462.1 432.4 419.6 407.5 402.9 377.6 362.2 347.5 339.4 329.5 307 286 272.4 258.2 242.1 226.9 209.2 197.1 184.3 173 163 159.1 149 136.6 125.7 109.9 100 89.4 77.5 69.6 61.6 56.3 47.7 39 32.1 23.6 18.1 15 11.9 10.4 7.7 6.3 4.3 -1.2 -1.2 -1.2 -1.2 -1.2 -1.2 -1.2 -1.2 -1.2 -1.2 -1.2 -1.2 -1.2 -1.2 -1.2 -1.2 -1.2 -1.2 -1.2 -1.2 -1.2 -1.2 -1.2 -1.2 -1.2 -1.2 -1.2 -1.2 -1.2 -1.2 -1.2 -1.2 -1.2 -1.2 -1.2 -1.2 -1.2 -1.2 -1.2 -1.2 14.6 20.7 33.6 44 50.3 45.7 48.5 53.8 72.2 87.7 100.2 110.1 113.9 112.9 113.2 114.6 108.4 100.1 91.6 80.3 69.2 61.3 54.5 46.9 34.1 22.6 17.2 10.4 6.7 5.4 5.7 7.4 8.3 16.1 15.8 16.5 17.6 19 20.6 21.1 24.6 26.4 33.4 42 48.2 45.7 45.1 45.8 43.1 46.9 54.9 71.6 72.5 73.1 70.3 88.3 105.8 116.2 122.6 113.9 109.5 119.3 119.1
343.6 360.7 370.7 384 396.4 406.2 422.4 443.8 476.9 494.2 506.6 523.2 539.8 542.8 554.2 562.1 570.5 581.8 590.2 597.8 600.5 608.7 600.2 590.2 588.3 593.7 598.5 589.1 595.1 597.8 614.9 629.6 645.9 655.9 667.6 679.4 685.9 692.9 705.5 699.6 694.4 692.2 697.2 694 689.6 672.8 656.9 617.2 586.2 563.9 560.1 537.2 520.5 501.3 482.5 460.5 436.6 436.6 431.1 413.6 393.4 366.4 353.4 338.4 313.5 296.1 286.2 272.7 241.1 223.8 209.8 195.9 184.5 173.2 165.8 155.7 145.5 133 124.2 111.4 100.7 89.8 81 71 61.6 51.8 44.7 36.6 31.5 26.6 20 13.1 9.4 7.8 6.6 5.4 4 -1.2 -1.2 -1.2 -1.2 -1.2 -1.2 -1.2 -1.2 -1.2 -1.2 -1.2 -1.2 -1.2 -1.2 -1.2 -1.2 -1.2 -1.2 -1.2 -1.2 -1.2 -1.2 -1.2 -1.2 -1.2 -1.2 -1.2 -1.2 -1.2 -1.2 -1.2 -1.2 -1.2 -1.2 -1.2 -1.2 -1.2 -1.2 -1.2 8.2 15.6 26.7 38.8 52.4 53.2 51.9 53.7 58.1 68.1 75.9 84.4 98.5 108.6 114.3 116.7 119.5 117.4 114.6 105.7 94.6 84.3 73 61.2 52.2 42.5 31.5 25.8 19.6 13.6 11.3 6.9 8.9 9.3 9.2 9.3 14.6 17.1 18.3 19.2 22.8 25.5 24.3 23.3 24 28.1 30.2 33 37 39.5 37.8 44.8 49.6 60.6 58 51.6 60.4 80.8 89.1 93 101 96.9 102.1 99.4
360.1 367.5 375.1 386.7 405.7 415.4 437.3 456.7 472.1 496 509.9 518.2 537.3 544.1 555.3 561.3 574.7 582.2 593.6 602.7 611.3 612.1 611.9 600 600.7 608.1 607.1 623.1 629.3 638.6 656.9 661 657.2 666.1 669.4 669.7 682.1 697 701.6 709 697.2 702.7 708 706.6 691.8 676.5 660.1 636.2 616 612.3 594.3 565 547 517.7 496.9 473.7 477.5 470.2 459.6 436.5 408.8 400.3 381.2 349.6 328.6 310.6 289.9 272.1 245.2 222.6 206.8 197.4 189.8 180.3 169.8 157.3 147.7 135.6 123.8 114.4 105.4 95.3 85.9 77 65.8 54.3 45.2 36.4 30.8 24 18.5 13.9 9 6.4 5.2 3.6 2.1 -1.2 -1.2 -1.2 -1.2 -1.2 -1.2 -1.2 -1.2 -1.2 -1.2 -1.2 -1.2 -1.2 -1.2 -1.2 -1.2 -1.2 -1.2 -1.2 -1.2 -1.2 -1.2 -1.2 -1.2 -1.2 -1.2 -1.2 -1.2 -1.2 -1.2 -1.2 -1.2 -1.2 -1.2 -1.2 -1.2 -1.2 5.3 11.1 17.1 23.6 36.4 52.2 59 56.7 58.3 60.7 60.2 72.6 72.4 77.6 97.6 118.9 125.6 128.8 127.8 125.3 127.3 117.8 106 97.5 90.2 76.5 62.3 49 35.9 30.7 27.2 23.5 16.1 11.9 6.9 8.3 9.7 9.8 10.6 10.1 17.1 16.3 18.2 19.5 22.4 20.7 21.7 26.3 26.7 30 28.4 29.2 31.3 34.5 34.6 39.9 46.1 49.1 49.4 59.8 72.1 77.2 83.1 82.6 85 90.6
370.5 381.8 394.5 401.6 411.4 424.7 440.9 460.5 480.5 500.5 507.1 524.2 545.2 551.2 557.7 563.2 573.7 585.9 599.8 608.9 616.2 615.4 615.1 601.7 611 619.3 632.7 642.2 644.9 650.2 651.3 649.1 653.2 653.4 652.5 665.7 670.2 672.5 683.7 679.7 686.1 689.3 699.8 692.4 683.4 674.4 675.8 657.6 655.9 644.9 621.1 597.8 565.1 540.9 521.6 511.4 504 492.9 478 454.5 442.1 421.9 393 370.6 340.7 322.8 301.3 282.8 262.8 237.2 216.2 208 200.5 191.2 181.3 169.6 156.2 144.8 136.6 125.3 116.7 107.7 97.7 86.9 76 63.6 53.2 41.8 31.6 25.9 21.6 15.8 10.9 5.1 3.7 2.8 2.1 -1.2 -1.2 -1.2 -1.2 -1.2 -1.2 -1.2 -1.2 -1.2 -1.2 -1.2 -1.2 -1.2 -1.2 -1.2 -1.2 -1.2 -1.2 -1.2 -1.2 -1.2 -1.2 -1.2 -1.2 -1.2 -1.2 -1.2 -1.2 -1.2 -1.2 -1.2 -1.2 -1.2 -1.2 -1.2 -1.2 5.3 8.8 18 26 31.6 45.7 55.9 58.4 57.8 59 62.2 66.1 70.5 70.7 80.7 103.6 127.1 132.1 135.6 135.9 138.4 138.6 129.4 119.6 109.8 101.8 89 77.1 65 51.4 43.2 34.5 29.5 22 16.6 12.5 8.4 9.3 12.4 16.1 15.1 12.3 13.3 14.6 15.2 13.8 14.4 16.4 20.1 25 24.9 24.8 24.7 24.7 27 27.4 28.6 30.5 35.2 41.9 57.7 60 64.1 65.3 73 70.3 79.4
376.8 391 405.3 416.7 430.6 435.1 441.9 465.1 486.1 495 519 525.1 547.8 553.7 556.8 564.2 572.6 585 602.2 606.8 608.8 617.3 609 606.2 611.4 626.2 634.3 643.5 642.7 647.2 643.2 632 639.7 636.9 652.4 654.3 655.3 665.1 667.1 665.2 677.2 698.7 686.2 676.2 677.9 676.9 665.3 672.6 669.2 651.2 640.3 624.1 596.8 573.3 563.1 546.9 534.1 518.2 505.9 481.5 451.7 423 406.7 376.5 353.8 333.9 312.9 289.4 267.2 245.4 233 226.8 225.4 206.3 193.6 182.6 171.3 160.6 148.3 136.5 129.1 120.7 109.7 94.9 87 70.7 60.3 47.3 35.9 26.4 19.1 13.1 6.6 3.9 3.3 2.5 -1.2 -1.2 -1.2 -1.2 -1.2 -1.2 -1.2 -1.2 -1.2 -1.2 -1.2 -1.2 -1.2 -1.2 -1.2 -1.2 -1.2 -1.2 -1.2 -1.2 -1.2 -1.2 -1.2 -1.2 -1.2 -1.2 -1.2 -1.2 -1.2 -1.2 -1.2 -1.2 -1.2 -1.2 -1.2 -1.2 10.8 9.8 16.2 23.9 33.2 44 54.5 59.3 57.7 57.6 57.9 60.9 66.6 69.6 73 81 99.8 123.3 134.8 138.8 143.2 148.5 147.9 143.7 135.4 125.4 114.7 103.7 91.3 81.6 69.3 59.6 51.1 42.1 33.7 26.1 18.5 15.5 13.9 17.1 20.5 21.5 19.5 17.9 17.1 16.5 18.3 20.8 21.1 20.1 16.7 17.2 18 19.9 21.3 23.5 24.8 26.3 29.3 30.1 31.9 36.6 44.8 51.8 48.7 45.1 50 50.4
375.3 393.8 412.8 424.8 442.7 457.9 467.2 475.7 484.9 514.4 530.6 532.5 544.3 552.3 557.4 564.1 572.2 585.1 594.1 601.4 610.2 611.9 603.6 608.3 624 623.7 632.4 633.3 634.2 630.3 622.4 624.7 622.3 632.3 640.6 646.1 645.7 650.6 643.8 658.2 675.5 677.5 670.7 674.9 676.4 666.5 672.7 665.7 658.7 650.1 640.9 627.1 597.2 593.9 601.4 578.7 552.3 534.9 510 482.5 460.5 440.7 409.3 389.8 361 344.7 319.9 297.9 280.1 256.1 256.5 264.4 246.2 224.5 207.3 195.4 186.8 178.5 164.3 151.3 140.1 130.1 117.6 105.1 90.1 75.3 63.6 52.6 41.1 29.4 17 10.3 3.3 2.1 -1.2 -1.2 -1.2 -1.2 -1.2 -1.2 -1.2 -1.2 -1.2 -1.2 -1.2 -1.2 -1.2 -1.2 -1.2 -1.2 -1.2 -1.2 -1.2 -1.2 -1.2 -1.2 -1.2 -1.2 -1.2 -1.2 -1.2 -1.2 -1.2 -1.2 -1.2 -1.2 -1.2 -1.2 -1.2 -1.2 -1.2 5.2 8.7 9.1 22.3 28.8 42.7 55.9 63 59.6 56.7 56.6 58.3 61.9 67 71.8 76.4 82.3 90.4 112.4 132.7 144.5 152.7 158.7 159.7 157.6 151.7 142 130.4 121.9 114.1 101.6 88.3 74.7 64.8 60.2 49.3 40.9 31.2 24.2 23.1 17.6 17.7 21.6 19.6 19.7 20.7 20.6 21.8 21.6 22 23 23.4 21.2 21.4 21.4 19.3 17.9 19.4 20 24.4 26.6 26.8 27.9 32 31.9 29.4 32.9 34.3 32.8
378.3 393.2 409.6 429 449.7 458.9 471.3 490.6 512.5 520.3 527.4 540 543.9 551 558.3 565.3 575.8 589.3 601.1 608.3 605.6 602.1 602.7 616.9 617 621.1 624.9 622.9 620.4 620 605.3 603 611.3 611.9 620.4 625.3 634.7 624.9 643.2 660.5 660.8 659.1 676.2 685.9 667.4 663.2 660.4 657.6 655.1 642.8 631.8 605.7 595 613.7 606.1 586 557.9 537.4 513.7 496.5 473.7 455.6 429.3 398.6 371 344.8 329.3 313.9 284.4 281.6 289.4 283.4 263.7 243.8 228 213.3 198.7 188.2 176.9 165.8 155.7 147.9 133 114.8 95 79.8 68 57 46 32.5 22 8.1 -1.2 -1.2 -1.2 -1.2 -1.2 -1.2 -1.2 -1.2 -1.2 -1.2 -1.2 -1.2 -1.2 -1.2 -1.2 -1.2 -1.2 -1.2 -1.2 -1.2 -1.2 -1.2 -1.2 -1.2 -1.2 -1.2 -1.2 -1.2 -1.2 -1.2 -1.2 -1.2 -1.2 -1.2 -1.2 -1.2 -1.2 -1.2 2 5.2 7.8 9.8 18.4 35.9 49.7 61.7 60 56.5 55.1 56.5 60.1 66.1 73.2 75.2 80.8 86.7 92.3 107.7 133 152.8 168.3 172 178.1 177.7 172.1 160.9 145.5 135 128.9 121.8 108.8 93.7 82.4 69.5 65.4 58.8 48.5 42.7 35.6 27.8 19.2 19 20.4 21.3 21.7 21.9 22.2 22.9 23.2 24.7 25.5 26.5 26.9 27.2 27.9 27.4 25.5 20.3 22.5 19.1 21.4 22.6 23.9 25.1 24.1 28.3 28.5 27.1
382.7 400 419.2 438.9 454.7 464.6 482.9 506.6 519.3 529.7 536 536.6 537.8 547 555.5 563.7 572.7 583.5 595.1 593.2 581.4 591.7 607.5 612.2 612.1 610.8 609 607.4 605.3 594.1 591.8 589.4 592.7 601.1 607.3 610.5 607 632.1 643.8 639 644.4 667.5 675.1 674.2 674 654.5 646.3 644.9 646.6 631.1 609.1 597.6 612.1 613.7 603.9 586 557.8 535.9 530.6 506 490.4 465.9 439.7 409.7 377.8 357.3 341.6 309.3 304.1 309.3 306.8 296.4 274.8 264 248.9 229.9 219.5 209.1 200.7 191.8 177.7 157.3 141.8 121.3 95.4 84.1 72.4 59.7 48.3 35.5 22.2 7.9 -1.2 -1.2 -1.2 -1.2 -1.2 -1.2 -1.2 -1.2 -1.2 -1.2 -1.2 -1.2 -1.2 -1.2 -1.2 -1.2 -1.2 -1.2 -1.2 -1.2 -1.2 -1.2 -1.2 -1.2 -1.2 -1.2 -1.2 -1.2 -1.2 -1.2 -1.2 -1.2 -1.2 -1.2 -1.2 -1.2 -1.2 -1.2 -1.2 2.3 5.1 6 15.5 41.4 56.3 59.9 55.6 54.8 55.7 57.5 64.5 72.3 76.4 76 83.4 90 97.5 109.3 128.4 155.4 178.1 187 193 194.9 192.7 181.6 162.1 153.3 147.9 138.6 124.7 114 104.2 86.1 82.1 78.3 70.3 61.6 53.9 43.8 37.2 28.1 23 23.6 22.2 22 23.1 23.9 24.6 25.3 26.2 29.1 29.5 29.6 30.4 32.5 33.2 31.9 30.2 24.4 20.3 20.2 20.1 21 20.9 22.1 23.3 23.1
390.4 404.9 423.7 443 455.3 469.2 489.1 506.7 526.6 536.6 541.8 538.8 537.6 539.6 543.2 552.5 562.6 572.1 577.6 568.9 576.8 593.1 597.6 603.9 600.9 594.8 589.2 589.2 586.1 578.3 573.2 572.2 575.2 578.5 584.9 583.9 599 616.9 621.4 622.4 653.7 671 677.6 675.6 662.8 639.9 627.6 627.9 623.9 602.5 604.1 610.3 617 601 591.3 577.9 551.9 546.9 532.6 510.5 491.5 482.2 453 419.1 396.4 365.8 334 323.2 331.5 338.6 332.3 313.1 294.7 280 267.4 253.6 249.7 245.7 239 223.5 200.9 183 154.6 125.9 104.7 88.9 76.2 62 48.3 38.9 27.1 10.3 -1.2 -1.2 -1.2 -1.2 -1.2 -1.2 -1.2 -1.2 -1.2 -1.2 -1.2 -1.2 -1.2 -1.2 -1.2 -1.2 -1.2 -1.2 -1.2 -1.2 -1.2 -1.2 -1.2 -1.2 -1.2 -1.2 -1.2 -1.2 -1.2 -1.2 -1.2 -1.2 -1.2 -1.2 -1.2 -1.2 -1.2 -1.2 -1.2 -1.2 3.2 4.7 39.4 51 60.5 57.8 49.6 52.5 50.8 55.8 63.5 70 72.5 75.3 84.9 90.3 101 111.5 130.3 155.8 180.6 199.3 207.6 212 212 203.8 179.4 169.8 163 151.9 141.4 133.1 119.7 108.4 102.1 97.1 85.4 74.9 69.8 65.9 61.1 49.9 40.4 33.9 33.6 30.9 27.9 30.9 29.5 28.6 29.7 32.5 33.8 33.6 33.9 35.1 36.5 37.6 38.7 37.5 31.3 25.2 21 20.3 20.7 22.9 24.1 24.8
399.1 414.1 432.4 446.7 460.4 470.7 495.5 513.1 530 536.5 537.8 534 534.6 530 534.5 532.8 539.6 546.8 554 560.9 575 584.2 581.3 579.5 577 574.4 574.6 572.3 565.4 562.1 556.7 555 556 554.7 564.2 578 588 592.5 605.2 631.9 648.4 662.9 663.4 657 641.7 624 604.7 601.6 599.9 594 605.2 609.4 601.8 587.3 577.5 557.7 557.4 543.2 536.5 510 492.8 473.5 453.5 428.9 398.1 368.1 361.7 358.4 361.6 368.7 358.3 344.5 320.9 306.4 293.8 285.8 281 276.6 259 234.9 219 190.6 160.8 133.2 122.4 100.5 80.7 64.2 51 34.9 24.6 9.3 -1.2 -1.2 -1.2 -1.2 -1.2 -1.2 -1.2 -1.2 -1.2 -1.2 -1.2 -1.2 -1.2 -1.2 -1.2 -1.2 -1.2 -1.2 -1.2 -1.2 -1.2 -1.2 -1.2 -1.2 -1.2 -1.2 -1.2 -1.2 -1.2 -1.2 -1.2 -1.2 -1.2 -1.2 -1.2 -1.2 -1.2 -1.2 -1.2 -1.2 -1.2 12.3 39.4 57.8 56.9 48.6 40.4 40.7 48.3 53.4 63.4 67.5 70.8 76 84.2 93.6 106 119 135.6 160.8 181.6 198.5 214.1 219.2 219.4 217.8 201.7 188.3 181.5 169.7 158.6 147.1 135.4 130.7 124.1 116.1 104.4 92.6 86.4 83.3 77.9 70.5 62.8 57.3 52.4 47.2 42.2 39.4 37.1 41.4 40.4 40.9 40.7 38.4 38.2 39 41.1 42.7 43.3 40.4 37.2 33 29.5 27.3 26.4 28.8 29 30
404.7 422 437.2 456 468.9 489.9 506.6 520.9 530.4 528.3 523.2 523.6 526.2 526 526.8 522.9 526.1 534.2 540.3 555.4 560.8 564.9 562.9 559.7 556.6 554.3 551.8 552.6 546.3 545.3 541.8 539.6 536.6 545.5 554.4 558.9 576.2 591.3 603 625.2 645 643.1 645.9 638.3 623.5 602.7 582.4 577.9 579.6 592.7 593.2 589.6 580.2 564.4 552.6 550.8 546.1 536.4 524.8 506.8 482.8 464.6 445.2 415.2 413 407.2 403.1 403.8 400.2 405.3 393.9 377.9 358.6 347.7 334.2 321.5 306.8 285.5 256.2 230.2 206.2 182.2 161.8 139.5 117.8 101 83.6 68.7 56.7 38.8 20.9 10.8 -1.2 -1.2 -1.2 -1.2 -1.2 -1.2 -1.2 -1.2 -1.2 -1.2 -1.2 -1.2 -1.2 -1.2 -1.2 -1.2 -1.2 -1.2 -1.2 -1.2 -1.2 -1.2 -1.2 -1.2 -1.2 -1.2 -1.2 -1.2 -1.2 -1.2 -1.2 -1.2 -1.2 -1.2 -1.2 -1.2 -1.2 -1.2 -1.2 -1.2 -1.2 16.8 42.3 58 48.5 37.6 31.4 35.5 44.8 53 62.2 66.8 68.4 74.8 85.5 98.3 111.4 124.9 143.8 164.8 177 190.8 199.9 187.4 188.4 193.2 207.5 206.7 201.1 186.5 179.4 164.5 154 147.2 142.4 134.6 123.5 110.7 104.2 97.8 94 88.8 83 76.8 79.5 71.7 61.2 56.9 51.4 50.9 51.8 53.9 50.4 47.5 45.7 46.6 46.5 47.3 46.9 45.7 42.5 39.4 36.8 36.3 33.7 33 35.1 37.2
410.6 431.7 450.3 467.4 484.6 490.2 498.2 512.4 515.2 510.3 506.1 509.4 513.1 511.6 513.4 510.9 513.9 519.5 530.1 539.2 549.3 549.1 549.1 544.3 539.7 537.3 530.5 525.5 526 526.7 522.5 516.1 532.4 539 538.3 552.9 576.5 592.8 609.6 618.6 617 620.6 614.4 603.3 593.7 578.9 560.6 573 573.8 575.7 573.8 559.8 545 533.5 530.8 527.5 531.5 525.7 515.8 499.8 470.2 448.6 426.6 433.7 445.8 443.6 438.1 433 421.8 421.5 419.9 400.2 390.3 373.6 357.7 342.8 309.7 279.6 248.5 224 197.3 172.2 152.2 134.1 110.9 95 80.6 69.6 59.1 40.1 18.5 9.5 -1.2 -1.2 -1.2 -1.2 -1.2 -1.2 -1.2 -1.2 -1.2 -1.2 -1.2 -1.2 -1.2 -1.2 -1.2 -1.2 -1.2 -1.2 -1.2 -1.2 -1.2 -1.2 -1.2 -1.2 -1.2 -1.2 -1.2 -1.2 -1.2 -1.2 -1.2 -1.2 -1.2 -1.2 -1.2 -1.2 -1.2 -1.2 -1.2 -1.2 -1.2 22.7 44.3 47.3 30.6 25.4 29 32.5 38.6 47 53.9 58.9 60.5 69.6 81 96.5 113.3 129.7 148 163.9 175.6 184.6 165.9 156.7 152.8 174.2 198.7 216.6 216.8 206.7 200.5 184.6 173.2 166.6 157.2 148.5 137.6 130.6 124.7 120.3 110.2 105 100.7 101.7 102.3 95.7 84.6 77.7 75.3 71 63.8 61.3 57.2 56.7 57.2 56.6 57.8 56.1 52.8 49.8 46.7 46.7 47.1 47.6 43.7 40.4 41.1 43.1
417.3 439 458.6 469.3 481 483.9 489.1 499.6 499.9 495.4 491.3 498.7 503.7 502.3 500.3 498.2 500.2 509.8 522.7 529.4 523.1 519.7 527.7 528.5 521.9 511.5 508 510.1 503.1 501.5 498.8 505.4 513 527.4 542.3 554.7 566.8 590.6 605.9 600.9 595.4 590.4 581.1 566.4 558.3 542.8 552.4 554.3 547.8 551.8 543.5 522 514.6 507.1 504.4 497.3 507.8 513.1 500.3 476.2 455.5 442.7 452.1 457.1 475 465.1 450.5 442.7 434.9 432.2 412.7 410.6 394.9 380.1 359.7 337.9 305.9 265.4 237.5 218 193.1 170.8 151.3 130.3 112.1 95.1 77.7 64.4 52.1 37.9 24.5 11.9 -1.2 -1.2 -1.2 -1.2 -1.2 -1.2 -1.2 -1.2 -1.2 -1.2 -1.2 -1.2 -1.2 -1.2 -1.2 -1.2 -1.2 -1.2 -1.2 -1.2 -1.2 -1.2 -1.2 -1.2 -1.2 -1.2 -1.2 -1.2 -1.2 -1.2 -1.2 -1.2 -1.2 -1.2 -1.2 -1.2 -1.2 -1.2 -1.2 -1.2 13.3 22.7 37.4 28.8 17.2 24.3 28 29.8 30.7 34.4 38.3 40.8 56.6 68.6 75.6 94.6 121.9 141.4 150.6 163.2 163.7 156.6 145.9 134.2 145.7 167.5 197 224.1 229 228.3 215.3 201.5 191.1 182.7 172.9 160.4 155.5 147.8 139.7 133.5 130.6 121.9 119.5 122.8 122.9 117.6 110.5 104.3 99.1 96.3 91 81.7 72.2 71.3 69.7 71.5 74.2 72.4 69.4 62.6 58.2 59.1 56.9 56.3 52.1 49.8 51.4 53.4
427.3 442.6 457.8 466.5 471.4 474.1 478.9 487.3 485.4 479.9 478.3 485.3 490.4 493.9 486.2 487.5 481.8 494.9 499.5 506.6 503.7 499.9 498.5 498.9 497.9 493.2 483.8 487 484.1 485.4 484.7 501.3 521.2 531.5 541.5 546.3 558.2 564.5 575.7 577.7 571.2 550.8 537.3 523.3 516 535.1 539.5 529 528.3 530.3 511.1 487.8 485.6 481.6 473.1 474.9 485.5 495.1 473.5 460.7 458 464.7 473.1 480.5 476.4 471.4 455.8 449.1 440.5 415.3 421.1 407.8 388.4 366.5 350.3 326.4 294.4 254 232.8 217.3 193.5 169.9 149.1 129.3 108.9 91.8 80.1 67.1 55.9 42.4 27.4 13.9 -1.2 -1.2 -1.2 -1.2 -1.2 -1.2 -1.2 -1.2 -1.2 -1.2 -1.2 -1.2 -1.2 -1.2 -1.2 -1.2 -1.2 -1.2 -1.2 -1.2 -1.2 -1.2 -1.2 -1.2 -1.2 -1.2 -1.2 -1.2 -1.2 -1.2 -1.2 -1.2 -1.2 -1.2 -1.2 -1.2 -1.2 -1.2 -1.2 -1.2 9.3 19.2 21.8 9.9 16.4 23 24.1 26 26 27.9 34.1 42.6 57.7 72.8 80 98.3 129.6 144.8 153 158 147.9 140.3 129.1 130.1 143.1 167.4 198.7 229 239.3 245.1 234.1 219.1 204.1 201.2 190.9 182.6 175.8 168.2 162 150.9 146 141.1 142.7 145.4 142.4 137.7 132.4 124.6 118.2 115.1 115.2 108.3 100.3 93.8 88.5 88.8 89.1 88.5 87.7 80.8 79.3 77.8 74.8 72.2 68.1 63.2 63.5 65.1
413.9 436.3 448.9 452.5 460.4 465.1 464.5 472.6 470 468.2 461.8 469.7 473.4 473.4 464.9 467.4 465.8 480.6 484.3 486.2 479 475.2 476.3 474.4 473.2 470 465.7 464.7 467.1 467.3 478.3 491.5 507.9 519.6 532.9 540.6 549.1 559.7 552.4 538.3 524.6 512.6 503 497.6 508.6 511.3 507.5 512.1 506.8 498.9 483.4 471.2 460.6 456.3 456.7 454.9 478.6 471.1 456.8 460.3 477.1 480.9 497.6 490.8 478.8 466.1 454 449.8 420.5 418.8 415.4 390.1 377.1 356.8 337.4 310.8 267.2 242.4 223.2 207.6 190.7 168.8 140.6 124.1 107.9 88.8 78.9 67.9 56.2 42.6 25.3 14.5 6.1 -1.2 -1.2 -1.2 -1.2 -1.2 -1.2 -1.2 -1.2 -1.2 -1.2 -1.2 -1.2 -1.2 -1.2 -1.2 -1.2 -1.2 -1.2 -1.2 -1.2 -1.2 -1.2 -1.2 -1.2 -1.2 -1.2 -1.2 -1.2 -1.2 -1.2 -1.2 -1.2 -1.2 -1.2 -1.2 -1.2 -1.2 -1.2 -1.2 -1.2 7.3 -1.2 3.3 10.3 18.2 22.7 23.8 18.2 30.2 39.9 50.2 64.2 78.7 86.9 98.5 130 143.6 149.1 144.7 137.7 129.5 118.1 126.4 141.9 166.2 198.7 219.9 230.3 238.5 239.8 237.9 225.7 216.5 203.9 195.8 189.7 187.3 186.3 172.9 169.4 167.5 167.7 169.6 166.8 161.5 158.2 151.7 145.3 140.7 133.9 128.4 122.2 115.4 110.3 112.6 109.7 109.5 103.9 102.6 102.5 97 92.4 90.8 89.8 85 85.9 85.2
419.6 428.7 432.9 445.2 446 443.3 444.6 448.9 446.8 446.8 442.6 444.3 448.7 451 443.1 441.4 453.9 457.9 463.9 460.5 457.8 452.9 450 452.7 449.6 442.8 441.1 445.6 442.8 458.5 467.7 481.1 491.5 509 519.5 525.1 533.1 533 524.6 515.2 497.8 484.6 477 477.3 485 484.7 484.7 479.7 474.1 467 465.5 453.5 444.1 438.7 437.3 445.3 457.4 451.4 458.8 475.2 485.6 498.6 499.5 480.6 466.4 454.8 457.6 432.7 418.1 413.5 400.3 388 360.2 338.8 315.9 283.9 252.8 229.1 215.6 198.2 180.6 156.8 136.5 119.6 103.6 86.5 74.2 62.7 52 34.6 22.9 15.5 8 -1.2 -1.2 -1.2 -1.2 -1.2 -1.2 -1.2 -1.2 -1.2 -1.2 -1.2 -1.2 -1.2 -1.2 -1.2 -1.2 -1.2 -1.2 -1.2 -1.2 -1.2 -1.2 -1.2 -1.2 -1.2 -1.2 -1.2 -1.2 -1.2 -1.2 -1.2 -1.2 -1.2 -1.2 -1.2 -1.2 -1.2 -1.2 -1.2 -1.2 -1.2 -1.2 -1.2 -1.2 7.4 17.4 12.8 17 25.5 36.7 49.2 66.6 79.5 90.2 105.4 129.3 143.9 137.6 131.7 126.9 119.5 112 123.9 140 163.2 189.5 198.3 215.2 220 226.5 241.5 242.4 224.4 213.5 210.3 206.7 204.9 203 197.1 188.4 189.4 191.6 190.7 193.2 191.8 188 182.9 178.2 169.1 159.1 151 143.7 137.9 138.7 137 135.1 132.6 127.6 124.7 117.7 116.6 108.7 107.1 106.1 103.2 105.6 109.5
416.4 425.4 424.8 422.9 419.7 416.6 422.2 425.5 424.9 424.7 417.4 419.2 422 416.1 423 425 432.2 437.7 441.5 440.3 433 431.7 431.6 429 429.9 425.8 424.4 421.5 425.3 446.6 459 477.3 494.3 493.3 505.2 498.2 497.6 498.8 499.4 485.1 470.4 467.5 467.8 459.9 463.2 462.2 458.9 455.4 449.3 447.8 445.6 439.1 429.3 425.4 425.7 428.4 430.4 453.7 480.3 490.5 492.4 491.8 475.9 468.6 457.8 448.5 432.3 412.2 409.4 393.4 392.6 370.4 350 320 298.9 270.5 244 220.5 208.5 189.7 171.8 150.9 129.7 107.5 91.8 79.5 66 55.3 45.2 26.3 18.6 12.3 -1.2 -1.2 -1.2 -1.2 -1.2 -1.2 -1.2 -1.2 -1.2 -1.2 -1.2 -1.2 -1.2 -1.2 -1.2 -1.2 -1.2 -1.2 -1.2 -1.2 -1.2 -1.2 -1.2 -1.2 -1.2 -1.2 -1.2 -1.2 -1.2 -1.2 -1.2 -1.2 -1.2 -1.2 -1.2 -1.2 -1.2 -1.2 -1.2 -1.2 -1.2 -1.2 -1.2 -1.2 -1.2 -1.2 -1.2 -1.2 7.7 16.7 30.7 41.9 54.5 69.8 82.7 97.6 125.6 137.6 126.6 122.9 116.2 110.6 111.4 126.5 138.8 152.5 171.2 161.7 176.7 189.3 209.7 218.9 230.2 233.2 225.7 219.6 218.8 220.3 221 212.9 201.9 203.4 210.2 212.9 214.6 217.9 213.6 211.8 209.4 198.9 187.7 182.1 175 170.1 173.7 168.4 161.3 156.7 154.3 146.3 137.7 131.6 125.1 127.7 128.9 125.2 124 120.8
399.9 413.6 417.1 415.9 417.2 407.1 401.8 398.6 391.6 386.7 388.5 394.6 392.5 390.8 387 401.1 412.1 416.1 421.1 419.6 412.1 409.3 408.2 410 411 409.6 406 407.9 422.4 436 452.3 461.9 471.4 471.4 475.9 472.5 464.7 467.7 457.1 450.9 455.1 451.8 450.8 449.4 444.9 449.3 437.4 432.8 432.8 426.5 422.6 419.4 421.2 420.2 408.7 410.4 429.6 463 489.9 492 490.2 482.3 470.6 456.9 448 431.6 411.4 410.9 392.3 380.8 364.7 355.5 326.8 301.8 273 266.8 236.9 213.3 202.8 182.4 151.3 136.3 121.3 103.6 87.9 72.9 62.7 53.4 41 28.5 16.8 8.5 -1.2 -1.2 -1.2 -1.2 -1.2 -1.2 -1.2 -1.2 -1.2 -1.2 -1.2 -1.2 -1.2 -1.2 -1.2 -1.2 -1.2 -1.2 -1.2 -1.2 -1.2 -1.2 -1.2 -1.2 -1.2 -1.2 -1.2 -1.2 -1.2 -1.2 -1.2 -1.2 -1.2 -1.2 -1.2 -1.2 -1.2 -1.2 -1.2 -1.2 -1.2 -1.2 -1.2 -1.2 -1.2 -1.2 -1.2 -1.2 -1.2 9.9 23.3 36.7 53 66.6 82 92.3 103.5 115.6 118 111.6 111.4 110.3 110.9 134.1 140.5 143.9 150.6 143.8 140.4 156.3 177.4 199.6 214 236 235 235.6 238.6 237.3 234.4 231.2 221.3 217.2 221.9 228.5 231.6 233.5 236.2 236.8 235.7 227.9 218.8 210.7 206.3 203.1 201.3 193 184.1 179.5 174.7 170.4 163 153.6 150.9 155 150.1 146.9 147.9 139.6
393.5 398.1 396.7 395.4 393.8 393.2 384.9 378.7 378.3 378.9 374.8 380 368.5 367.6 375 385.2 388.6 396.5 400.4 395.2 390.9 387.7 388.6 389.8 391.9 389.5 387.8 391.8 405 418.8 436.3 450.8 447.9 451.5 453.2 452.5 441.2 438.4 434.9 447 447.9 449.5 454.5 451.1 450.2 447.8 436 423.4 416.5 410.4 406.8 405.1 406.5 407 399 405.3 436.3 459.3 468.8 479.8 476.6 469.6 458.6 448.7 435.4 413.4 403 388 377.8 362.6 346.4 341.5 318 281.1 256.8 248.8 226.1 201.8 193.8 168.7 143.1 124.3 109.4 94.7 81.9 70.8 60.3 50.9 38.5 23.7 15.8 8.7 -1.2 -1.2 -1.2 -1.2 -1.2 -1.2 -1.2 -1.2 -1.2 -1.2 -1.2 -1.2 -1.2 -1.2 -1.2 -1.2 -1.2 -1.2 -1.2 -1.2 -1.2 -1.2 -1.2 -1.2 -1.2 -1.2 -1.2 -1.2 -1.2 -1.2 -1.2 -1.2 -1.2 -1.2 -1.2 -1.2 -1.2 -1.2 -1.2 -1.2 -1.2 -1.2 -1.2 -1.2 -1.2 -1.2 -1.2 -1.2 -1.2 8.4 21.2 33.1 43.3 61 74.4 85 91.1 104.1 104.5 111.1 111.8 111.3 113.1 128.9 141.8 144.4 140.3 133.6 131.5 139.1 152 167.9 183.4 201.1 227.6 238.2 238 236 234.5 232.9 233.1 234.8 237.8 238.5 240.9 245.7 247.6 254.5 255.6 253.8 254.8 241.1 236.6 233.1 227.3 214.3 208.8 203.7 197.6 197.2 189 181.5 175.2 181.7 173 170.4 172.6 161
375.4 375.8 386.1 384.5 382 378.8 368.3 375 370.1 359.5 352.2 348.5 355.4 350.6 360.1 371.3 378.8 378.4 370.7 370 366.5 363.2 364.4 364.9 371 369.9 375.9 380.3 391.8 403.5 419.5 425.9 423.5 427.7 423.5 428.7 429.3 422 434.2 439.7 437.4 446.8 451.9 450.7 449.9 443.9 436.1 429.1 418.8 410.7 405.8 402.1 403.4 397.1 398.1 413.9 430.1 450.2 468.8 475.9 459.7 453.9 448.8 436.6 416.8 404 386.7 372.9 363 344.7 325.9 314.7 288.3 257.2 238.7 225.1 207.9 188.6 177.7 145.2 135.1 120.1 102 85 73.6 62.3 52.7 44.5 28.5 20 11.5 -1.2 -1.2 -1.2 -1.2 -1.2 -1.2 -1.2 -1.2 -1.2 -1.2 -1.2 -1.2 -1.2 -1.2 -1.2 -1.2 -1.2 -1.2 -1.2 -1.2 -1.2 -1.2 -1.2 -1.2 -1.2 -1.2 -1.2 -1.2 -1.2 -1.2 -1.2 -1.2 -1.2 -1.2 -1.2 -1.2 -1.2 -1.2 -1.2 -1.2 -1.2 -1.2 -1.2 -1.2 -1.2 -1.2 -1.2 -1.2 -1.2 10.4 11 18.6 26.3 34.1 44.5 60.5 74.5 83.2 89.8 96.8 109.7 114.5 123.6 132.6 127.2 138.4 136.8 129.1 127.5 128.7 132.4 139.9 154.4 170.1 184.6 208.3 227.1 239.3 237.4 234.8 233.9 237 241.5 245 246.3 245.7 248.8 257.9 264.9 270.5 269.3 273.3 272 265.5 262 250.1 239.8 235 230.8 226.5 221.3 215.1 204.5 202.8 200.9 198.8 200.3 190.5 180.2
354.5 357.5 363.1 366.7 363 363.6 360.5 359.3 351.2 343.5 333.9 329.1 329 346.3 346.5 352.2 354.4 348 345.9 350 347.6 345 347.2 354.1 356.4 359.8 362.7 371.3 376.2 390.3 399.7 398.6 402.4 406.8 413.8 415.1 414.1 421.6 424.2 428.4 437 433.1 434.5 431.2 427.1 421 425.7 423.3 409.5 410.6 404.1 397 392.5 399.5 412.8 429.7 441.7 444.7 453.4 452.8 444.1 443.8 437.3 418.7 409.5 390.6 365 350.8 338.9 318.7 303.4 288.2 268.4 245.5 224.8 205.8 188.5 175.9 154.7 137.9 122.2 104.5 91.3 77.6 62.4 51.7 40 29.4 21 12.6 -1.2 -1.2 -1.2 -1.2 -1.2 -1.2 -1.2 -1.2 -1.2 -1.2 -1.2 -1.2 -1.2 -1.2 -1.2 -1.2 -1.2 -1.2 -1.2 -1.2 -1.2 -1.2 -1.2 -1.2 -1.2 -1.2 -1.2 -1.2 -1.2 -1.2 -1.2 -1.2 -1.2 -1.2 -1.2 -1.2 -1.2 -1.2 -1.2 -1.2 -1.2 -1.2 -1.2 -1.2 -1.2 -1.2 5.8 10 14.1 20.1 26.6 34.1 41.7 46 49.6 54.2 59.5 67.8 75 82.9 88.6 94.9 107.7 124.1 133.4 136.6 134.5 127.7 125.5 125.4 126.2 128.2 132.2 140.2 158.5 182.9 203.8 220.2 230.2 239.5 233.8 233.5 235.5 239.4 240.6 240.6 247.8 253.6 260.4 267.1 277.8 283.8 290.7 288.7 286.7 281.1 264.5 259.5 257.3 253.4 248 239.8 237 230.2 226 222.7 222.1 221.8 212.7 206.3
339.4 341.4 346.2 346.9 347.6 347.8 344.1 345.3 338.2 331 331.7 324.2 311.6 324.8 332.8 328.2 335.4 330.7 328.7 329.6 335.7 340.2 346.5 350.2 351.7 352.9 351.7 350.5 357 360.2 370.1 375.4 378.6 394.8 405.4 407.8 414.7 419.7 418.1 419.1 426.4 416.1 410.2 406.6 403.3 397.7 402.4 404.8 397.6 398.2 391.6 376.4 393.5 413 429.4 436.2 464.7 471.9 467.8 455.5 455.3 444.3 436 427.4 406.6 387 365.9 335.9 307.8 295 295.8 278.4 266.1 248.7 225.6 201.9 191.1 170.1 145.9 134.8 123.8 110 92.2 77.3 66.1 51.4 39.8 26 14.6 7.8 -1.2 -1.2 -1.2 -1.2 -1.2 -1.2 -1.2 -1.2 -1.2 -1.2 -1.2 -1.2 -1.2 -1.2 -1.2 -1.2 -1.2 -1.2 -1.2 -1.2 -1.2 -1.2 -1.2 -1.2 -1.2 -1.2 -1.2 -1.2 -1.2 -1.2 -1.2 -1.2 -1.2 -1.2 -1.2 -1.2 -1.2 -1.2 -1.2 -1.2 -1.2 -1.2 -1.2 -1.2 8.4 13.5 17.6 18 22.2 27.7 40.6 53.9 61.6 68.1 72.2 76.8 82.3 86.9 87.2 90.9 96.2 99.9 99.9 119.4 125.4 127.7 126 124.8 124.2 124.2 124.2 125.7 130.1 139.7 154.4 178.1 198.8 207.2 220.3 235.1 237.9 227.5 234.4 233 233.4 237.8 247.2 253.6 264.5 274.2 285.6 291.7 298.3 298.1 297.4 296.5 282.1 278.7 277.1 270 265 263 255.5 249.4 247.8 242.7 243.1 244.7 242 237.6
326.5 324.5 331.3 328.8 333.4 333.1 325.1 327.2 316.5 317.6 309.7 306.6 304.2 305.1 301 301.5 309.7 307.6 306.4 316.6 320.9 326.7 339.6 347.3 351.4 343.3 333.9 332 334.9 346.3 366.5 380.5 392.3 402.6 407.1 412.4 416.3 410 406.8 407.5 409.9 402.8 394 387.4 384.7 384 385.6 384 383.4 376.9 364.5 383.3 402.8 419.7 437 449.6 482.2 482.5 475.5 465.8 450.4 444.1 450.6 440.8 420.1 405.7 387 363.5 337.1 315.3 271.9 243.4 240.1 227.9 208.2 188.7 174.5 160.2 139.5 129.6 110.4 89.7 77.2 65.1 52.1 43.9 36.9 24.3 16.7 9.1 -1.2 -1.2 -1.2 -1.2 -1.2 -1.2 -1.2 -1.2 -1.2 -1.2 -1.2 -1.2 -1.2 -1.2 -1.2 -1.2 -1.2 -1.2 -1.2 -1.2 -1.2 -1.2 -1.2 -1.2 -1.2 -1.2 -1.2 -1.2 -1.2 -1.2 -1.2 -1.2 -1.2 -1.2 -1.2 -1.2 1.1 4 4.9 5.8 5.1 5.2 6.1 7.4 10.2 20.9 23.3 28.3 27.2 29.8 42.5 56 69.6 79.1 85.6 93.4 99.3 104.3 108.5 111.2 113.7 114.7 115.9 114.1 126 124.9 125.1 124.6 124.2 124.2 124.2 125.2 127.9 136.2 152.6 171.1 190.1 202.3 216.5 225.4 232.8 229.5 225.1 232 235.4 239.5 248.4 254.2 271.6 282.4 291.1 298.6 306 305 304.5 299 291.9 292.2 293.9 281.5 278.2 275.9 273.3 267.3 266.5 265.7 269.2 266.7 268.6 265.5
305.5 307.4 317.1 312.8 309.6 316.7 312.2 303.9 296.7 299.5 289.1 289.3 286.9 280.1 282.3 275.5 284.7 287 294.3 289.7 295.5 311.2 322.4 339.6 330.9 324.8 323.3 322.1 322.8 328.5 348.9 364.8 375.7 386.2 406.2 413.6 406.2 399.3 394.5 391 397.9 391.1 388.4 377.3 372.2 370.8 370.3 373.6 367.2 353.9 372.7 396.8 416.8 426.9 443.5 460.8 468 484.7 486.3 466.9 457.4 452.8 440.7 433.5 420.1 416.8 403.7 376 353.7 317.8 301.9 271.2 240.7 209.1 184.8 168.1 153.8 140.6 128.2 112.8 97.8 78.6 67.5 53.3 44.2 39 29.8 15.4 10.9 3.2 -1.2 -1.2 -1.2 -1.2 -1.2 -1.2 -1.2 -1.2 -1.2 -1.2 -1.2 -1.2 -1.2 -1.2 -1.2 -1.2 -1.2 -1.2 -1.2 -1.2 -1.2 -1.2 -1.2 -1.2 -1.2 -1.2 -1.2 -1.2 -1.2 -1.2 -1.2 -1.2 -1.2 -1.2 -1.2 -1.2 -1.2 3.6 6 6.3 7.6 8.1 8.4 9.2 13.4 26.8 30.1 36.2 42.7 47.4 47.3 58.3 69 77.8 85.9 96.3 106 110.8 114.5 119.8 125.1 127.6 128.8 132.5 135.1 134.7 130 128 125.2 124.2 125.1 124.8 125.3 133.8 141.7 150.5 167.7 186.2 203.3 215.8 227.7 235.9 225 227.1 234.9 239.8 252.2 260.7 276.5 280.8 288.6 296.3 302.2 302.5 305.7 300.1 300 300.4 298.6 290.4 288.5 290.3 288.4 287.3 284.2 283.5 290.1 290.8 288.1 286.5
278 282.1 289.5 296.3 296.8 297 291.2 280.3 278 274.1 268.3 271 266.9 265.4 267.1 262.2 263.9 263.4 273.1 278.6 286.5 301.4 306.2 311.5 313.1 308.7 310.2 311.3 314.7 320.9 329.3 337.8 351.8 370.8 383.6 383.3 384.9 380.9 377.6 377.6 376.2 370.5 364.9 365.3 363.2 364.8 362 351.6 345.1 358.2 371.5 388.6 407.8 428.5 454.1 463.7 470.5 479 471.7 456.8 460.4 454.3 443.1 437.8 422.2 403.1 388.3 360.6 334.9 327.1 311.8 285.4 257.9 228.5 202.9 174.8 153.5 132.3 106.5 91.6 86.6 69.3 55.9 46.6 36.9 30.6 14.5 12.5 9.4 9.2 5.7 -1.2 -1.2 -1.2 -1.2 -1.2 -1.2 -1.2 -1.2 -1.2 -1.2 -1.2 -1.2 -1.2 -1.2 -1.2 -1.2 -1.2 -1.2 -1.2 -1.2 -1.2 -1.2 -1.2 -1.2 -1.2 -1.2 -1.2 -1.2 -1.2 -1.2 -1.2 -1.2 -1.2 2.3 3.5 3.7 4.2 5.9 9.2 9.8 11 11.8 12.8 16.5 23.7 32 38.8 52.7 59.4 60.2 62 74.5 80.1 82.6 97.5 110.4 115.9 121.4 124.9 132 134.9 136.4 139.6 142.7 140.3 139.5 137.6 132.2 127.1 127.5 126.6 126.5 131.2 135.1 139.5 149.8 163.2 185 203.8 213.8 223.5 227.2 215.3 221.5 227.7 243.5 254.6 261.6 265.8 273 270.6 286.3 297.6 302.5 298.1 303.5 300.4 297.6 297.1 299.4 303.5 299.5 301.7 300.1 304.8 306.8 304 303.1 302.5
255.2 259.2 261.5 259.4 263.7 271.5 268.1 262.2 257.8 259.7 257.7 257.8 257.5 255.9 258.9 250.1 250 253.5 259.7 263.3 274.4 287.8 289.1 296.5 293 294.4 297.3 307.2 303.5 309.3 315.6 321.9 330.4 340.2 348.2 348.8 360.8 361 358.7 359.8 355.3 350.2 351.4 349 347 352.4 343.4 338.8 343.9 350.9 355.6 381.7 406.6 422 451.5 453.7 470.6 464.3 455.7 460.4 450.4 439 432.3 428.6 417.6 391.6 372.8 336.1 317 312.3 292.6 269.7 246.2 219.9 197.7 173.1 147.4 129 107.3 83.3 68.3 53.6 41.2 31 29.3 23 16.2 14.7 15.9 15.1 4.4 -1.2 -1.2 -1.2 -1.2 -1.2 -1.2 -1.2 -1.2 -1.2 -1.2 -1.2 -1.2 -1.2 -1.2 -1.2 -1.2 -1.2 -1.2 -1.2 -1.2 -1.2 -1.2 -1.2 -1.2 -1.2 -1.2 -1.2 -1.2 -1.2 -1.2 -1.2 -1.2 7.3 5.4 5.3 6.5 8.5 9 10.3 11.5 14.1 17.8 22.1 27.1 31.3 36.3 40.5 54.6 72 74.1 70.4 71 87.3 101 103.1 118.5 126.7 133 137.5 138.1 139.7 139.9 141.5 143.3 143.4 144.2 147.1 142.1 135.8 131.9 131.6 130.9 130.6 132.2 135.8 141.4 154.7 173.5 194.3 209.1 216.6 217.9 217.1 206.6 218.8 235.3 242.7 243.1 247 247.4 249.3 264.1 286.6 292 289.7 292.3 294.2 294.8 298.6 301.4 306 310.3 312.9 311.2 316 317.9 311.7 313.3 313.7
242.5 251.3 244.3 241.9 255.5 258.3 246.2 242.8 230.1 226.5 232.2 238 237.3 238 234.8 241.7 248.5 247.3 245.3 244.7 254.5 267.4 273.7 280.4 277.8 282 288.4 289.7 295.8 299.2 303 310.8 323.2 329.5 331.1 335.8 339.6 338.2 337.8 335.5 334.3 332.2 338.6 338.8 332 337.3 334.8 340.5 355.9 368.8 363.6 367.9 391.1 419.7 435.5 443.7 461.6 448.8 448 432.2 439 427 413.4 403.3 391.4 376.9 357.7 329.5 308 284.8 260.3 246.7 225.9 205.8 185.5 163.1 144.7 126.6 105.3 82.6 59.5 42.2 34.6 31.1 25 18.9 15.1 15.3 17.5 16 -1.2 -1.2 -1.2 -1.2 -1.2 -1.2 -1.2 -1.2 -1.2 -1.2 -1.2 -1.2 -1.2 -1.2 -1.2 -1.2 -1.2 -1.2 -1.2 -1.2 -1.2 -1.2 -1.2 -1.2 -1.2 -1.2 -1.2 -1.2 -1.2 -1.2 -1.2 -1.2 7.5 12.8 10.6 14.2 14.4 16 16.1 12.2 11.6 14.1 18.9 25.4 30.9 35.9 43.6 47.5 53.6 72 86.5 85.9 82.7 84.1 92.1 101.8 118.7 134.4 140.8 142 143.2 144.5 143.2 143.9 144.3 144.4 146.7 147.2 144.2 142.9 138.7 136 135.4 135.9 136.6 136 143.8 153.7 166.9 176.4 195.2 205.9 204.7 202.9 200.7 201.4 216.4 220.6 225.7 228.7 234.1 232 251.3 274.7 277.9 283.1 285 280.8 287.4 293.1 299.5 304.1 308.6 308.6 312 321 319.7 315.1 318 315
222.9 228.3 228.3 224.1 231 228.7 223.7 221.9 212.1 210.1 211.6 213.3 212 214.4 219.4 226.1 230.5 238.4 239.2 239.2 243.3 252 258.3 261.1 266.3 273.1 277.4 282.5 286.5 287.9 294.4 304.7 319.5 323.2 326.3 333.8 329.7 320.1 309.1 306.9 314 315.4 318.4 312.6 331.4 332.5 336 354.5 370.1 382.7 378.3 380.3 398.6 407.8 409.1 434.6 436.3 431.5 444.9 424 409.2 406.2 389.7 379.8 372.2 364.6 338.7 318.6 293.4 275.9 255.5 225.2 203.9 180.8 163.5 145.9 131.6 115.1 93.4 77.6 63.5 43.5 31.7 29.3 26.6 21.6 16.2 11.2 11.3 12.1 -1.2 -1.2 -1.2 -1.2 -1.2 -1.2 -1.2 -1.2 -1.2 -1.2 -1.2 -1.2 -1.2 -1.2 -1.2 -1.2 -1.2 -1.2 -1.2 -1.2 -1.2 -1.2 -1.2 -1.2 -1.2 -1.2 -1.2 -1.2 -1.2 6 6.2 6.4 11 15.3 18.7 23 27.5 31 31.6 28.7 20.2 14.4 17.7 24.1 28.7 35.8 42 50.7 61.8 68.7 79.4 88.5 92.9 91.4 90 93.9 104.6 121 139.6 143.4 145.5 147.3 149.7 146.7 145.5 145.2 143.7 144.1 142.2 140.9 141.5 138.6 140.1 140.8 141 140 141.5 150 163.8 180.4 189.2 190.4 188 188.4 189.5 194.1 201.5 209.9 213.6 210.6 211.5 222.9 246.5 260.6 254.2 270.2 270.4 273.6 283.9 287.3 293.9 298.3 306 306.8 314.4 319.5 314.8 313.7 312.8 313.1
197.7 203.3 200.3 196 194.4 196.2 195.6 193.7 192 194.4 197.2 198.6 203.4 205.8 208.6 212.3 214.3 219.3 224.5 231.8 235.7 240.8 247.2 250.1 248 256.7 264.3 266 270.5 276.6 282 294.4 304.9 306 309.9 319.8 308.5 298.8 295.7 293.7 289.5 298 316.3 333.8 334.4 334.9 342.6 358.7 376.7 382.3 389.8 395.5 395.9 393.2 404.1 410.5 410.2 422.4 417.8 415.2 402.4 381.4 357.3 345 340.2 335.6 321.9 305.1 274.9 257.3 234.9 218.7 197.7 165.2 143.5 125.2 111.5 98.6 88.4 79.6 66.8 50.4 36.5 19.6 16 19.6 12.9 8 13.1 10.8 -1.2 -1.2 -1.2 -1.2 -1.2 -1.2 -1.2 -1.2 -1.2 -1.2 -1.2 -1.2 -1.2 -1.2 -1.2 -1.2 -1.2 -1.2 -1.2 -1.2 -1.2 -1.2 -1.2 -1.2 -1.2 -1.2 23.1 17.4 15.1 24.3 21.3 23.2 18.9 23.9 28.7 38.1 44.9 47.2 50.4 48.9 44.5 34.8 38.2 32.8 27.8 28.1 35.3 42.8 55.8 66 70.9 77.1 85.2 88.4 91.9 94.5 98.8 109.5 129.2 147.4 149.8 151.3 155.3 153.3 147.5 144.6 143.9 141.5 138.5 136.7 137.5 140.9 144 143.2 143.1 142.9 142.8 149.7 165 179.5 184.2 187.3 185.3 185.3 188.5 192.9 201 201.4 207.5 204 199.2 205 227.4 246.9 240.4 258.6 256.5 272 278.8 280.9 284.5 292.3 300.7 303.9 313.2 313.8 313.5 309 307.9 305.5
165.1 166.4 168.2 168.1 172.2 171.6 173 171.7 180.3 188.9 196.8 201.9 211.6 216.6 219.1 224.3 228 228.2 231.6 233.6 233.7 232.7 233.6 235.6 238.8 241.5 243.5 245.9 249.2 257.4 268.1 272.3 278.2 282.8 286.7 289 284 280.9 278.3 281 285.8 298.6 308 316.5 323.6 347.6 355.7 357.1 368.3 385.7 388.2 386.1 384.5 383.6 378.6 387.1 394.3 405 402.9 392.1 384.1 368.5 346.5 320.4 299.6 306 290.7 275.3 255.1 232.1 203.7 190.6 177.3 152.8 130.1 114 105 94.2 73.6 61.5 56.6 44.8 35.4 19.4 7.6 7.7 5 8.5 11 8.7 -1.2 -1.2 -1.2 -1.2 -1.2 -1.2 -1.2 -1.2 -1.2 -1.2 -1.2 -1.2 -1.2 -1.2 -1.2 -1.2 -1.2 -1.2 -1.2 -1.2 -1.2 -1.2 -1.2 31.8 47 59.8 54.2 39.8 35.9 35.2 37.2 27.5 38.2 40.9 43.6 49.9 50.6 58.8 63.3 67.6 64.8 56.1 57.1 60.6 59.6 61.1 55 56.3 53.7 46.5 55.2 61.9 68 76.9 85.7 94.4 99.8 113.1 133 141.9 153 154.5 156.9 157.6 146.8 142.5 139.5 135.6 135.2 133.6 134.8 140.6 146 148 147 149.7 149.1 155.5 165.6 173.6 180 184.3 183.2 184.9 188.1 189.6 190.9 195.1 198.1 199.1 195.5 198 221.6 230.7 234.3 242.1 255.2 269.9 275.6 274.7 280.5 286.9 288.4 294.8 309.6 307.4 305.7 302.9 300.4 298.9
136.3 147.4 151 162.5 171.3 180.8 186.6 197 201.5 209.3 215.3 224.2 234.3 236.7 235.1 245.7 246.7 247.5 248.7 250.5 253.9 254.8 255.3 256.9 257.4 257 259.1 260.7 261.6 261.4 263 261.3 257.7 259.8 261.8 267.8 268.5 271.8 269.6 272.7 275.4 288.7 297.3 299.1 315.3 328.5 347.2 357.8 364 367.8 376.3 376.2 378.2 379.9 365.2 362.9 377.2 388.5 396.9 384.6 362.5 339 317.5 303.6 277.7 277.3 269.5 256.1 240.3 204.8 182.3 161.3 146.6 132.6 122.9 117.2 125.2 106.7 83.6 60.1 41.5 37.2 22.4 7.8 2.2 -1.2 -1.2 5.3 -1.2 -1.2 -1.2 -1.2 -1.2 -1.2 -1.2 -1.2 -1.2 -1.2 -1.2 -1.2 -1.2 -1.2 -1.2 -1.2 -1.2 -1.2 -1.2 -1.2 -1.2 -1.2 -1.2 -1.2 -1.2 36.2 49.6 69.5 79.9 66.6 56.7 57 57.4 45 45 57.9 62.7 74.4 63.9 70.4 79 82.3 84.5 79 74.2 73.9 80.4 90.3 88.8 88.2 85.2 85 71.9 66.1 59.3 60.8 73.6 85.6 93.9 111.5 133.4 143.8 150.3 148.3 151.6 149.3 150.1 138.7 131.1 131.2 129.9 132.7 136.4 140.3 144.9 151.9 159.3 162.7 158 159.4 162.9 169.3 175.4 175.2 181 183.8 185.3 188.2 188.1 189.5 190.8 192.4 189.4 183.8 212.8 214.2 218.6 227.8 249.4 263.2 264.7 267.5 268.5 276.3 281.6 295.4 299.4 298.3 296.9 294.5 293.3 295.5
158.7 166.7 173.8 180 190.8 198.7 202.5 208.3 212.1 217.8 223.2 232.4 242.3 244.5 246.7 252.7 259.2 264.6 263.1 264.3 267.4 269.1 271.3 271.1 270.1 274.3 273 275.5 276.1 281.9 278.4 277 272.6 268.2 265.2 266.1 264 264.6 267.9 270.5 276.4 286.1 290.2 300.3 327.7 334.4 335.5 338.6 348.3 347.5 350.7 352.6 364.1 368.2 352.6 344.3 345.7 367.6 357.4 350.3 328.7 306.5 298.1 273.4 259 238.5 229.8 220.8 198.7 178.9 157.3 142.5 137.4 132 121.2 123.4 115 96.4 74.6 58.8 39.7 27.7 16.6 7.1 -1.2 -1.2 -1.2 -1.2 -1.2 -1.2 -1.2 -1.2 -1.2 -1.2 -1.2 -1.2 -1.2 -1.2 -1.2 -1.2 -1.2 -1.2 -1.2 -1.2 -1.2 -1.2 -1.2 -1.2 -1.2 -1.2 -1.2 -1.2 6.9 28.2 47.4 69.1 87.8 87.7 72 62.3 68 64.1 61.6 67.5 73.8 88.1 82.8 79.6 91 104.1 117.1 106.9 96.3 89.7 91.2 86.9 98.9 101.6 100.4 103.5 107.2 104.7 89.7 79.5 74.1 68.3 72.8 81.1 102.6 127.8 130.2 123.6 130 129.7 129.8 127.1 123.3 120.9 126.9 131 136.8 139.5 143.6 153.6 161.1 164.1 164.1 164.2 164.1 165.8 168.5 169.7 176.1 181.5 183.8 184.9 185.9 187.1 187.6 185.4 184.8 184.5 202.1 203.8 212.1 227.2 238.2 247.4 249.6 253.2 258.9 265.7 275 284.7 281.1 285 281.1 285.6 289.1 293
169.2 180.3 191 200.9 211.2 220.3 234.4 239.5 240.5 244.1 243.9 252.8 258.7 261.5 265.7 275.9 288.3 290.5 287.2 285.8 284.1 285.4 288.1 286.6 282.8 284.9 287 289.2 294.1 300.7 297.6 294.2 291.3 284.6 282.1 283.7 285.3 277.3 271.4 271.1 280.6 278 290.4 317.8 337.1 353.6 349.9 342.3 339.4 332.5 333 335.2 334.5 337.4 336.9 332.5 319.1 314.8 320.8 309.8 303.3 282.9 258.9 246.5 235 223 204.9 190.1 173.5 162.3 150.9 139.3 130.6 122.8 120.6 106.7 90.3 68.3 57.1 43 34.4 19 10.4 -1.2 -1.2 -1.2 -1.2 -1.2 -1.2 -1.2 -1.2 -1.2 -1.2 -1.2 -1.2 -1.2 -1.2 -1.2 -1.2 -1.2 -1.2 -1.2 -1.2 -1.2 -1.2 -1.2 -1.2 -1.2 -1.2 -1.2 -1.2 -1.2 15 27.3 41.2 60.1 84 92.4 82.3 69.4 77.5 80.1 79.8 79.7 77.5 78.4 83.5 84.2 92.4 104.1 121.9 137.1 134.6 122.6 110.3 105 98.5 104.5 110.7 115.8 120.1 125.1 120.4 112.7 107.2 103.3 99 87.5 77.1 81.5 88.2 98.5 105.3 110.8 116.3 119.2 115.4 110.8 116.7 125.7 133.1 139 144.3 153 161.6 166.5 164.3 164 164.2 165.9 165.2 165.4 167.9 172.4 175.9 180.2 181.9 183.8 183 178.9 177.1 184.7 190.6 203.4 210.5 213.2 227.1 233.5 238.1 244 248 259.3 266.4 265.1 269.8 267.9 269.7 274.5 278.9 278
184.7 204.8 218.9 234.6 249.9 254.1 265 267.8 277 279 282.4 288.6 287.2 287.4 291.2 301.1 311.3 312.3 309.4 307.5 311.7 316.7 312.7 308 301.1 293 298.7 301.1 306.4 314 320 318.2 318.1 309.8 308 301.9 300.1 299.7 293.4 288.2 279.5 277.2 291.7 313.8 332.8 349 354 347.5 342.3 326.8 314.4 315.8 312.1 312.1 320 312.9 301.8 291.7 278.2 272.3 261.1 248.9 230.2 219.1 214.3 212.2 194.4 179.8 173.7 167.1 157.2 133.7 123.6 117.2 114.6 94.9 71.5 54.1 46.3 32.9 19.1 9 -1.2 -1.2 -1.2 -1.2 -1.2 -1.2 -1.2 -1.2 -1.2 -1.2 -1.2 -1.2 -1.2 -1.2 -1.2 -1.2 -1.2 -1.2 -1.2 -1.2 -1.2 -1.2 -1.2 -1.2 -1.2 -1.2 -1.2 -1.2 -1.2 20.1 30.7 41.1 56.8 70.8 90.1 97.9 98.6 88.7 84.7 90.5 92.5 99.9 97.4 87.9 86.9 91.2 102.2 110.3 113.3 128.3 143.5 141.1 135.4 123.6 112.2 108.3 121.1 132.1 134.2 133.5 131.1 131 128.9 125.8 121.3 116 106.7 100.4 97.2 83.5 86.1 88.8 92.8 99.9 99.8 102.3 111.3 117.1 124.1 131.5 140.6 148.4 154.9 160.8 160.4 158.5 161.9 164 164.1 163.2 165.1 161.5 166.5 169.9 173.3 174.6 173.5 173.6 173.1 179.5 186.5 195.8 202.9 206.7 217.3 221.3 226.9 231.1 237.2 252.9 252.5 250.4 257.2 257.4 254.6 247.5 247.4 246.8
195.4 224.2 244.1 253.3 263.5 280.6 290.3 292.9 305.5 309.5 310.6 317.9 320.9 319.3 322.9 330.4 332.8 332.7 327 330.8 331.5 341 343.2 336.3 321.9 318.7 314.9 319.1 326.4 343.7 343.9 339.2 346.3 345.8 345.9 333.7 328.1 316.8 309.6 301.6 296.1 293.9 291.1 290.8 300.5 317.5 325 336.8 327 327.2 313.2 302 294.5 288.4 287.4 287 280.7 267.4 255.7 241.1 234.9 225.8 210.3 200.6 193.7 188.9 185.8 180.4 168.9 161 141.4 121.9 110.6 100 88.1 71.9 58.1 42.2 33.3 24.4 16.5 -1.2 -1.2 -1.2 -1.2 -1.2 -1.2 -1.2 -1.2 -1.2 -1.2 -1.2 -1.2 -1.2 -1.2 -1.2 -1.2 -1.2 -1.2 -1.2 -1.2 -1.2 -1.2 -1.2 -1.2 -1.2 -1.2 -1.2 34.3 48.8 58.6 52.7 53 57.3 77.7 84.1 103 115.1 121.9 114.7 97.4 94.7 98 105.1 110.5 111.5 104.3 103.7 108 121 120.2 129 134.1 140.2 146.2 139.3 127.1 115.7 128.5 143.1 148.4 150 152.6 156.6 150.1 152.3 145 137.1 128.5 124.8 120.7 117.7 110.4 106.6 104.3 105.4 102.3 97.7 103.4 112.1 118.1 121.8 127.3 132.6 137.9 144.5 152.6 155.2 159 156.5 155.2 150.6 153.1 152.9 158.6 166.5 169.4 168 167.9 167.8 171.7 175.6 184.4 186 189 193 205.4 209.7 216.8 223 221.7 225.7 223.9 229.2 227.6 229.4 222.6 217.6 215.8 220.4
