ncols 200
nrows 82
xllcorner 320000
yllcorner 262950
cellsize 50
278.1 289.8 294.4 281.5 280.1 294.9 313.7 324.4 334.8 344.4 351.9 353.6 356 358.2 359.8 361.4 362.8 364.8 363 361.8 361.1 360.6 358.7 357.1 356 353.9 349.6 342.8 332.8 321.7 308.7 294.4 282.1 276.4 276.5 278.4 284.2 293.4 310.4 322.9 327.3 324.9 331.3 333.2 338.1 340.5 342.6 343.9 345.7 346.2 348 350.6 353.8 357.4 361.3 360.6 358.7 355.5 352.5 350.8 349.5 348.7 347.7 348.1 346.9 344.2 340.7 339.9 340.9 339.8 341.8 345.9 350.9 350.2 347.3 342.9 336.6 331.2 317.2 301.9 289.7 288.3 290.3 298.6 309.5 305.5 314.3 314.1 308.8 299 303.9 314.3 324.4 332 334.6 336.6 340.4 336.4 335.6 336.6 339.1 339.2 336.6 331.1 326.7 320.9 314.3 304 295.5 287.7 280.5 273 252.4 258.1 257.4 257.2 256.3 258.2 263 267.7 271.1 274 277.2 279.7 278.5 276.5 274.8 274.2 271 264.7 254.2 243.1 226.9 207.8 191.4 181.1 175 176.9 177.5 177.9 179.5 180.8 182.4 183.5 183.5 187.7 188.3 190.1 193.2 197.9 203 208.9 213 226.1 226.6 237.4 247.1 259 273.8 291.4 313.8 320.7 327.2 332.4 343 344.8 347.2 351.2 357.2 363.7 365.8 359.5 348.7 332.8 317.5 295.2 282.3 275.6 284.2 292.5 293.5 289.8 282.1 273 266.6 261.2 260.5 260 262.2 263.9 264 262.5 262.6 262.4 260.1 258.1 254.2 249.4 240.1 234
286.7 288 294.8 296.8 289.1 282 297.6 313.8 326.6 337.6 343.4 346.8 350.4 353 356.5 359.4 360.7 360.8 360.1 360.2 361.3 361.8 360.4 358.6 355.8 351.9 346 335.1 323.7 309.8 294.7 284 290.8 294 298.1 298 306.6 319.2 331.4 341.8 342.1 341.9 344.8 347.2 349.8 350.9 353.3 354.7 354.6 355.4 355.9 358.5 362.8 364.4 364.9 363.1 361.3 359.5 357.5 355.8 355.5 352.2 349.1 347.8 345.8 343 338.7 334.6 334.6 335.7 337.4 341.7 343.6 341.1 335.1 329.7 321.1 311 300.8 286.7 268.8 264.9 264.7 265.8 271.6 279.5 286.9 292.7 292.5 295.7 305.8 315.6 323.9 333.4 339.2 340.7 343.7 341.4 341.2 344 346.1 343.6 340 333.5 326.6 319.2 309.6 301.1 294.7 288 279.7 267.8 269.6 268.2 268.1 268.2 268.4 271.2 276.2 278 279.2 281.5 283.2 283.8 282 280.3 278.7 277.4 274.6 270.1 263.8 252.9 237.6 217.1 199.3 184.9 175.3 176.6 176.8 177.8 178.9 179.6 180.5 182 182.4 187.2 187.7 189.6 193.3 198.5 202.7 207 213.1 220 235.4 248.7 260.8 273 287.1 307.9 325 325.2 325.5 328.1 332.6 337.7 347.2 354.9 363 367.4 366.2 357.6 346.9 333.7 320.4 298.9 281.3 270.2 272.8 280.7 288.2 286.9 282.1 272.9 261.3 252.3 249 249.1 248.3 251.6 253.3 252.2 254.1 255 255.1 255 252.2 246.8 241.6 233.7
296 298 295.4 297.6 299.6 294.6 286 300.5 318.3 327.1 334.1 339.1 343.7 346.8 349.3 352.1 354.5 356 356.7 358.3 359.8 360.9 359.9 357.5 353.5 347.7 338.4 325.7 311.3 294.3 292.1 300.9 307.9 311.6 315.7 320.9 329.6 340.1 347.3 356.3 352.7 353.4 355.1 357.7 360.6 362.3 362.7 363.6 363.5 363.5 365.2 367.5 369.2 370.2 370 369 367.2 365.1 362.6 361 358.1 353.5 348.9 343.8 340.5 337.4 333.3 329.8 327.4 327.3 326.6 327.4 331.2 330.1 325.3 320 310.3 299.1 286.7 272.6 256 251.8 249.5 250 254.5 262.8 269.4 277.8 290.2 300.8 310 318.7 326.2 335.7 343 345.9 348.6 346.1 346.7 349.9 350.8 345.7 340.7 334.6 325.1 315.7 307.3 300.6 293.9 286.3 285.3 283.4 282 281.8 281.5 281.5 284.3 285.8 285.3 284.7 285.2 286.2 287.3 285.9 283.9 282.8 282.5 281 279.1 277.2 271.9 258.8 243.4 222.8 203.4 189.2 175.7 175.8 175.9 176.9 177.4 178 178.8 179.9 181.7 184.6 186.2 189.4 192.9 196.6 201.5 207.2 215.5 228.8 247.9 265.5 281.4 297.3 310.5 321.9 326.8 326.2 326.1 326.4 329.5 334.3 346.3 358.8 365.1 364.7 361.1 353.3 342.1 334.3 321.1 305.6 284.7 269.7 262.3 268.5 277.4 282.9 282.1 275.9 265.4 247.4 239.9 237.5 236.9 237.1 238.9 240.6 243.8 246.4 247.1 248.4 248 245.2 240.5 233
312.6 308.6 303.8 300.3 301.6 303.4 304.8 293.5 295.3 314.4 329.7 336.3 339.1 342.2 343.8 345.4 347.5 350.7 353.7 355.3 356.8 356.7 355.2 352.8 347.7 339.3 327.6 311.9 295.9 304 311.5 316.9 318.5 324.6 331.7 340.5 351.9 357 360.1 361.3 360.2 361.4 363.7 366.8 369 369.9 370.6 370.8 370.9 370.6 371.5 373.4 375.4 376.6 376.3 374.3 372.2 369.8 367.5 365.1 360.6 356.5 351.7 344.8 337.4 329.6 323.6 321.2 317.4 313.8 312.8 311.6 314.6 315.4 313.7 311.6 302.9 291 277.3 260.8 249.9 246.2 242.6 242.5 248.1 255.3 264.5 277.3 289.8 301.3 312.3 320.4 327.5 337.2 346.9 353.3 357.9 351.4 351.6 353.4 352.5 344 337.9 332.1 323.9 314.6 307.3 301 298.5 295.5 293.9 293.4 292.4 292.5 294.5 293.9 292.4 290.8 289.8 288.8 289.5 290.5 290.8 289.1 287.5 286.1 287.2 286.5 284.4 281.1 274.6 264 247.3 227.6 206.1 192.5 179.6 175 175.2 175.7 176.1 176.6 177.9 179.6 182.6 184.5 185.9 188.3 192.1 195.3 199.7 206.9 220.4 239.2 262.1 281.2 303.5 316 324.2 328.9 327.4 326.8 326.6 327 329.2 333.5 346.2 359.4 366.4 363 358.3 350.2 338.5 330.9 320.1 304.5 288.3 278.8 261.2 256.2 263.8 270.4 277.6 277.9 270.2 255.3 241.7 232.9 228.1 227.4 229 230.1 231.9 236 238.2 239.9 240.8 240.9 238.5 233.2
332.9 326.6 320.1 314 313 312 313.4 313.9 312.6 298.2 315.9 329.5 338.4 344.4 343.5 341.2 343.7 346 348.9 350.5 352 352.9 350.2 344.9 338.4 326.4 312.7 309.4 314.7 320.1 323.6 328.1 334.6 342.5 351.9 362.1 364.6 365.9 365.9 366.2 366.2 368.1 370.6 373.9 375.8 377.4 377 376.6 376.4 376.5 377.4 378.5 380.6 381.3 380 377.8 375.1 372.8 372.6 369.3 363.4 357.5 352 344.9 337.2 327 316.9 309.2 304 302.7 300.9 295.4 299.4 299 299.1 298.6 292.6 283.1 271.4 255.7 245.5 243.6 240 239.3 243.9 250.9 260.7 273.1 284.3 299 310.3 320.5 327.7 338.6 349.7 357.7 357.4 353.2 351.7 349.6 345.6 342.8 338.1 332.5 322.1 316.1 311.1 308.3 306.3 304.5 304.2 308.3 311.2 309.9 305.8 302.6 299.4 296.5 294.3 293.6 295.1 297.3 296.7 293.9 291.8 290.3 291 290.9 288.5 284.3 277.9 267.6 253 232.3 213.4 196.6 183.6 174.8 174.9 174.7 174.8 175.2 176.5 178.7 182.6 183.6 184.6 186.9 189.6 192.8 198.1 207.1 220.5 243.3 267.9 294.6 313.9 317.8 320 327.6 327.4 326.2 326 327.8 331.3 335.4 349.5 358.7 365.7 364.2 358.7 348.5 339.3 329.7 320.7 308.7 292 282 273.7 252.8 249.5 255.5 260.4 264.9 269.3 258.2 245.4 234.9 223 221.8 220.3 220.4 221.9 222.9 224.3 228.2 231.4 231.6 228.3 226.1
347.5 343.6 340.2 334.8 332.4 332.3 323.9 323.5 323.1 321.7 303.8 320.9 338 341.9 342.6 341.1 342.3 343.3 345.1 346.1 344.9 345.7 338.4 328.8 322.1 317.7 318.3 325.5 329.2 333.1 339.4 347.6 356.4 365 371.1 374 374.4 373.7 373 372.4 372.7 374.4 378.3 380.3 381.7 383 382.9 383.2 383.7 383.5 384.2 385 385.4 384.1 381.5 379.5 378.6 377.3 376.9 371.2 364.9 358.3 350 342.3 331.9 319.9 308.9 296.7 288.4 280.8 280.3 279.2 280.3 280.4 279.4 278.4 278.6 274.8 269 251.2 242.6 239.4 236.8 235.4 239 244 252.2 263.7 278.6 294.6 305.8 316.9 325.2 336.1 347.6 352.3 351.7 349.7 349.5 345.6 345.3 343.4 341.3 336.3 330.2 323.7 319.7 317.5 316.5 319.9 324.7 326.9 322.6 319.1 314.3 309.6 305.7 302.1 300 299.7 301.6 302.9 301.9 299.4 297 297.2 297.2 296.8 294.2 290.6 283.5 269.7 252.5 232 217.6 202 186.8 172.1 174.5 174.3 174.1 174.1 175.3 178.6 182 183.3 184.2 185.9 188.4 191.8 197.8 207.7 219.5 241.7 264.3 286.9 309 315.6 316 317.1 323 324 325.3 328.2 332.4 340.7 350.3 359.5 366.6 364.2 359.1 350.6 340.4 330.9 320.7 308.6 298.2 288.3 276.8 265.2 251.9 242.5 245.3 244.4 251.1 249.5 243.2 235.7 222.2 221.3 214.7 213.4 212.8 213.2 212.4 212.9 213.1 213.7 213.7 213.4
360.7 358.2 353.7 350 347 343.2 333.9 332.3 332.2 330.6 325.1 312.6 319.8 336.2 337.7 338.2 340.1 341.5 342.9 345.2 348.1 345.2 346.4 345.6 341.8 337.8 338.9 341.1 347.1 351.5 359.3 367.6 373.2 378.5 381.8 383.3 382.8 381.7 380.4 379.5 380.6 381.8 383.9 385.8 387 387.7 388.5 389.1 388.8 389 389.2 388.5 388.4 385.7 383.9 383.4 382.8 382.2 380.3 374.2 366.9 360.1 350.5 339.1 319 309.6 298.9 290.1 281.3 274.6 269.4 263.1 261.1 264.4 265.5 264.6 261.1 258.2 255.9 247.8 242 239 235.2 232.3 234.7 236.9 243.9 250.6 269.4 286.5 294.7 308.3 318.1 330 341.2 347 342.9 343.1 344.6 343.9 346.9 348.1 347.2 343 337.5 334 333.3 333.9 336.9 334.2 337.5 336.1 332.2 325.2 319.8 314.4 310.6 307.6 305.4 304.9 305.5 305.6 304.5 302.8 302.5 303.9 304.2 302.6 299.5 296.5 287.2 269.3 251.2 231.2 218.4 202.9 189.5 175.8 174.2 174.1 173.5 173.7 174.6 178 182.7 183.7 184.9 186.7 189.8 194.8 199.2 206.7 217.3 234.1 251.2 270.1 293.5 303.3 312.8 314 314.4 318.7 324.4 327.5 333.8 344.6 353.8 362.7 366.8 362.5 357.7 350.2 342.7 335.3 325.7 313.5 302.1 289.5 283.1 275.9 268.5 257.2 242.9 237.4 230.1 228.9 227.5 225.9 221.5 219.3 212.5 210.1 208.2 207.1 206.2 205.7 205.9 206.6 206.1 205.9
374 371.6 367.9 360.9 358.8 354.7 347 341.5 339.6 338.5 313.5 333 334.9 337.5 336.9 338.6 342 344.6 346 348.5 351.2 353.7 356.4 356.8 355.2 354.8 356.9 361.9 364.5 368.5 375.2 381 383.6 386.9 388.5 389.4 388.9 388.1 387.3 384.9 386.6 387.3 388.3 390.1 391.8 392.3 392.5 392.3 391.7 391 390.5 390.1 389.7 389.4 390 389.2 387.5 385.4 382.1 378.7 374.2 367 355 342 334.1 321.5 308.1 300 292.4 288.7 283.4 272.1 264.3 255.7 254.1 253 250.9 248.6 244.9 242.4 239.9 235.8 233.1 230.9 230.4 231.8 234.6 239.8 248.8 266.3 280.4 292.6 306.7 321.8 333.6 333.8 333 338.2 344.2 347.4 350.4 354.4 354.8 351.6 349.2 348.4 349.8 350.9 350.8 345.1 344.9 340.4 336.4 330.6 323.6 318.5 314.4 312 309.6 308.3 307 305.8 304.4 303.4 305 307.9 308.6 304 297.9 289.9 279 264.8 246.5 230.9 217.7 202.7 189.9 177.3 174 173.9 173.6 173.1 174.2 174.9 180.1 184 184.7 186.2 189.7 194.9 201.1 205.9 212.7 226.5 240.3 256.2 270 286.2 303 311.6 313.3 315.4 321.9 330.6 339.7 345.5 355.5 359.9 358.8 356.9 352.9 347.3 341.6 333.8 325.1 316.7 308.4 299.9 292 284.9 277.6 271.5 265.1 258.2 246 236.6 228.6 222.1 218 213.4 209.7 207.3 205.7 204.1 203 201.3 201 201.3 201.8 202.3
386 382.7 377.9 372.6 371.2 365.6 354.3 349.1 345.5 341.1 334.5 341.4 339.3 342.1 343 346.1 347.4 349.1 349.9 352.3 355.6 359.5 362.7 362.4 363.8 366.5 370.7 373.2 378.3 381.5 385.6 388.9 391.5 392.7 394.6 395 394.7 393.6 391.9 390.9 391.1 390.9 391.2 394.2 395 395.7 395.8 394.8 393.7 393.4 393.1 393.7 396.3 397 395.1 390.7 389.2 387.3 385.2 383.4 380.7 374.3 367.1 359 348.9 337.5 326 313.7 302.6 294.3 288 279.1 269.1 262 252.7 249 245.9 243.1 240.6 238.8 237.4 238.3 235.1 230.6 228 227.4 228.2 231.2 234.6 242.8 256.9 273.6 285 304.2 313.9 314.4 320.1 331.5 339.9 345.8 353.7 360.2 362.5 359.9 359.9 361 363.1 363.1 357.2 350.7 346.2 342.3 337.7 331.9 325.8 320.1 316.2 312.6 308.7 307.5 306.7 304.7 301.7 300.1 299.4 300.2 301 297.4 290.8 282.4 270.8 256.9 242.2 230 215.1 200.4 188.9 178.1 174 173.7 173.5 173.2 173.5 175 180.3 182.7 183.7 185 187.8 194.5 203.9 211.8 217.5 226 226.8 245.5 261 271.4 292.4 310.8 313.9 316 320.5 332.3 343.5 351 355.1 349.4 349.5 348.2 345.2 341.8 335.2 328 322 315.3 309.5 304.4 298.5 293.5 287.2 279.3 272.7 267.3 260.4 254 245.5 229.6 222 215.5 210.1 206.4 203.1 201.9 201.2 199.7 198.6 198.2 199.4 199.4
394.4 390.5 386.1 382.2 376.1 368.1 360.3 355.5 350.4 338.6 344.9 346.8 344.5 347.1 347.7 351.2 352.3 354.8 355.9 359.2 364.3 368.5 371.1 373.9 376.8 380.5 381.8 384.3 388.6 390.9 393.8 396.3 398.7 401.2 402 401.7 400.3 398.3 396.7 395.2 394.7 395.1 396.5 398.3 399.1 399.4 398.4 397.3 396.3 396.6 397.7 397.6 397.2 395.8 394.3 391.9 389.9 389.4 388.9 387.7 384.1 381.6 378.7 374 364.6 352.5 341.2 327.4 314.6 302 290.7 282.6 274.7 265.7 254.9 249.2 244.8 242.2 239.5 237.3 235.7 235.9 238 237.5 229.1 226.3 225.4 225.2 226.6 231.6 240.5 254.2 266 276.7 290.6 300 308.3 323.7 337.3 349.1 359.8 366.1 369 368.6 369.1 372.5 373.5 369.9 361.9 352.5 346.2 342.9 339 330.3 324 318.7 313.2 309.3 306.6 305.2 303.9 302.1 299.5 294.9 293 290.6 289.7 287.1 281.9 273.6 262.6 250.4 238.9 225.5 212.7 199.7 190 179.6 173.7 173.6 173.4 172.5 173.1 176.1 179.9 181.5 182.8 183.8 186.7 196.9 207.5 214.5 222.6 230.2 235 244.9 251.9 270.6 285.1 309.3 316 318.6 325.4 335.4 341.9 346.5 348.9 343.1 338.4 336.3 334.3 333.2 329.2 323.5 318.1 313.1 307.7 303.3 299.2 294.8 290.1 285.4 279.9 272.8 265.8 258.5 251.2 243.7 235.5 223.6 213 207.7 203.3 200.1 199.2 197.4 197.9 196.5 196.8 195.2
404.4 399.5 394.5 387.9 378.4 368.6 362.8 356.8 348.3 346.7 350.2 352 351 353.9 354.6 357.5 360.4 363.9 366 368.4 373.6 379.7 384.5 387.6 389.6 390 392 394.3 397.2 399.7 401 404.6 406.5 408.9 409.1 408.1 405.3 401.8 400 399.3 399 400 401.3 402.4 403.1 402.4 401.1 399.9 399.6 400.5 401 399.4 398.7 396.2 394.7 394 393.1 392.8 392.6 392.6 391.5 388.5 385.5 381.6 374.2 364 351.1 337.8 324.9 312.6 299.4 285.6 275.2 265.9 257.3 250.8 245.8 241.2 237.7 236.2 233.5 231.7 231.4 231.2 226.6 224.7 223.6 223.3 222.9 224.4 228.6 235.7 246.7 258.3 270.8 282.8 303.1 320 334 352.5 364.9 373 374.1 374.5 376.5 381.7 381.5 371.5 362.6 351 344.3 341 336.5 328.5 319.6 313.7 309.1 305.6 302.9 301 299.4 297.9 296.4 292.2 285.8 282.1 278.9 275.4 271 264 254.9 244.3 232.5 220 207.8 198.3 190.6 182 176.1 173.2 173.3 172.9 172.7 176.8 180.4 180.9 182 183.4 187.8 202.1 210.2 221.2 240.4 248.2 252.6 260.4 264.8 272.9 283.8 301.8 318.6 325.2 333.6 337.1 337.3 337 338.1 336.4 330.8 328.8 326.8 322.8 318.2 313.9 312.5 309.7 304.6 299.9 294.4 290.8 286.4 281.1 276.3 270.6 262.8 256.7 250 246.2 233.2 226.4 221.1 208.6 201.4 198.8 199.6 197.1 196.4 195.5 194.9 193.8
412.4 406.9 399.9 391.9 381.2 371.2 363.8 353 350 356.5 357.2 357 359.1 360.7 364.2 366.8 371 374.8 382.3 386.9 391.3 398.5 399.9 400.1 401.1 401.8 402.2 404.1 407.4 410.1 412.6 414.3 415.6 416.7 418 414.9 410.9 407.3 404.6 403 402.9 403.6 404.7 405.2 405.3 404.8 403.8 403 402.9 404.2 403.2 401.7 400.6 398.8 397.1 398 397.5 396.7 396.4 396.3 395.3 392.8 388.4 381.8 372.9 363.3 353.4 341.6 328.4 317.5 305 291.3 278.6 267.1 258.8 252.3 247 243.2 239.3 235.6 232.6 230.9 228.5 227 224.5 223.9 223.6 222 221.3 221.5 222.7 228.5 235.9 247.1 260 276.2 295.2 312.8 333.4 350.4 366.4 377 377.6 379.9 381.3 386.5 378.2 368.9 356.7 346.2 340 336.1 329.6 321.7 314.8 309.3 304.9 301.3 298.5 296.5 294.7 293.6 291.7 288.8 282.9 273.1 267.2 263 258.8 251.7 244.2 233.3 222.8 213 203.7 196.1 191.2 186.7 180.7 171.9 173 172.6 172.1 177.5 179.9 180.2 181.5 184.1 193 204.5 214.4 236 256.1 269 277.8 280.6 283.8 296.3 303.1 310.7 321.1 327.9 330.5 333.9 333.9 332.7 327.8 325.9 321.4 320.2 315.6 311.4 307.8 305.1 304.4 301.5 296.4 291.4 284.8 279.8 275.3 271 266.5 260.6 253.9 246.6 240.9 237.9 229.1 222.3 214.9 206.1 198.6 196.6 195.5 195.6 195.4 194.2 193.8 193.1
414.2 407.9 400.7 392.2 379.6 369.1 361.6 360.7 360.1 364.4 364.4 365.1 368.7 371.7 377.8 378.3 383.7 390 395.1 402.9 408.9 412.6 413.1 412.9 412.9 412.4 413.1 414.9 416.7 418.6 420 421.3 422.3 422.6 421.7 418.8 414.8 411.7 407.5 406.8 406.6 407.7 408.6 408.8 408.8 408.5 407.7 408.1 409.7 407.8 406.2 405.6 403.5 401.1 399.9 400.3 400.8 400.9 398.7 395.5 393.1 390 385.1 377 366.9 357.2 347.7 337.5 325.4 317.2 306.3 294.1 281.5 270.2 261 253.8 249.7 247.3 244.8 239.5 234.2 230 227.5 226.6 226.9 225.6 224.9 223.1 221.1 220 220.5 223.6 231 239.7 250.1 266.8 282.4 304.6 328 346.2 365.7 378.3 378.6 379.4 376.1 379.1 368.5 357.7 347.4 341.1 336 330.8 325.3 317.7 311.1 306.2 301.9 298.2 295 292.6 290.3 289.5 287.2 282.2 277.1 269.2 251.9 250.3 244.9 239.5 230.7 222.2 215.7 209 201.3 196 193.7 189.6 184.8 175.4 172.3 172.7 172 176.6 178 178.9 181.9 187.3 198.3 208.4 218.9 248.5 270.2 289.9 301.5 305.5 305.4 311.1 317 319.6 323.2 326 326.1 326.8 325.6 323.3 320.5 317.7 313.8 305.5 302.1 298.8 296.2 295.4 294 288.9 285.1 279.4 273.5 266.8 262.8 258.4 253.7 248.2 242.1 236.5 231.4 226 220.8 212.6 205.1 198.5 194 192.5 194.1 195.4 194.6 193.2 192.9 192.5
413 399 393 379.1 377.5 376.7 371.9 369.1 364.1 373.8 374.3 378.7 384 388.5 391.2 394.2 398.6 404.5 408.9 416 422 423.6 424.9 424.7 424.3 423.6 423.7 423.7 424.2 424.6 424.7 425.6 426.7 427 425.9 422.1 420.1 417.6 414.5 412.8 411.9 412.2 413 413.4 414.1 414.3 413.6 412.3 411.4 412 411.4 409.4 406 403.3 402 401.4 401.5 399.9 396.7 392.5 388.3 384.1 377 368.1 358.8 349.3 338.4 329.7 321.4 314.4 304.3 293.4 283.3 273.7 264.5 257.3 250.6 246.5 243.4 233.6 229.5 232.6 236.6 235.3 230.6 226.1 223.4 222.5 221.4 219.1 219 220.2 226.7 233.9 241.5 256.3 272.1 294.8 322 343.3 365.7 378.1 375.6 372.5 367.2 361.8 356.1 346.6 338.1 333.8 329.3 320 315 311.7 307.9 304.9 300.9 297.5 294.2 291.7 290.5 287.6 284.3 278.9 271.5 262 255.1 242 229.9 226.4 220 213.6 211.1 207.2 201.2 197.8 197 192.7 184.2 173.9 172.5 172.8 172.1 173.6 175.4 178.9 182.7 190.9 204.1 210.4 226.7 258.1 285.1 308.7 316.8 320 321.8 321.5 323 324.8 325.8 326.2 323.6 321.5 318.6 314.7 310.6 304.4 298.4 292.1 286.4 286.7 284.5 282.5 278.1 274.1 269.6 264.7 260.8 255.4 251 246 241.8 236.9 230.7 225.5 219.8 215.5 209.3 201.3 197.9 194.6 191.5 195.7 195.8 195.8 194.1 193.4 193 193.2
414 407.6 393.8 394 390.5 385.8 378.8 380 372.2 384.9 390.6 395.7 399.6 404.4 410 412.5 415.4 418.7 421.6 427 429.4 431.1 432 432.5 432.1 431.9 431.7 431.6 430.7 429.9 429.6 430.7 431.6 431.7 430.6 428.6 427 425.8 423.5 421.3 418 418.5 419.8 420.1 421.5 421.2 420.3 419.2 418.1 417.7 415.3 412.3 408.5 404.6 402.4 400.9 399.4 396.2 389.8 385.8 380.7 373.3 365.9 357.6 348.3 338.5 330.3 322.8 316.4 309.2 299.9 290.9 281.9 272.2 263.3 254.5 245.8 238 234.3 231.2 241.4 245.2 243.1 240.9 234.5 229.1 225.2 222.4 221 219.5 217.9 218.3 220.9 226.3 232.9 244.1 260 283.9 316.1 341.7 358.2 373.6 372.9 364.2 355.9 346.9 337.8 330.7 325 326.9 319.1 312.9 308.2 306.5 306 304.4 301.2 298.1 295.3 292.5 288.5 287.6 283.1 276.8 263.2 259 243.3 235.4 219.9 216.9 212.7 208 202.3 201.4 199.8 198.3 197.6 192.1 178 175.5 172.7 170.6 172.1 171.6 174 178.1 184.2 195.7 207.3 215.7 239.6 269 293.6 314.4 316.1 320.2 322 324.6 327.6 327.1 328.5 325.1 321.7 315.7 309.5 300.5 293.9 284.7 276.4 269.4 264.9 269 265 264 260.8 258.2 256.7 254.1 250.6 245 238.3 233.7 229.3 224.3 218.5 211.8 206.5 202.9 197.7 193.7 192.6 192.9 189.6 192.5 194.9 194.3 193.3 193.7 193.3 193.7
415.1 403.3 405.4 402.3 402 398.5 395.4 392.3 380.9 398 404.3 409.7 415 419.8 425.8 426.7 427.2 429 430.9 434 436.7 437.4 438 438.7 439 439.4 439.5 439.2 438.9 438.5 438.4 438.9 439.5 437.6 436 435.4 434.6 433.6 432.4 429.6 427.1 428 429.1 428.7 427.8 426.9 424.5 423.5 421.4 419.3 416.6 413.1 409 405.1 400.7 397.5 394.8 390.9 382.4 376.4 369.6 359.7 351.7 342.9 335.5 329.1 322.7 315.8 308.9 301.4 293.8 284.1 274.9 266.7 256.2 246.4 237 233.9 239.7 249.2 254.3 254.5 252.1 249.3 243.2 233.7 229.2 223.9 220.9 219.7 218.3 215.5 217.2 219.6 224.5 234.8 250.8 273.7 306.2 335.5 347.1 364.2 367.3 358.4 345.7 335.9 329.8 324.6 317.9 312.5 308.6 304.6 302.9 302.8 304.1 305 302.2 299.2 296.4 293.3 288.9 284.2 282.3 276.9 269.1 254.3 230 239.9 238.4 233.3 222.8 212.7 205.2 201.1 194.6 194.4 191.7 183.7 180.3 177.5 174.9 170.1 171.8 171.4 172.7 178.8 185.1 200.7 209.3 228.7 258.1 281.3 301.1 302.3 305.4 312.4 319.8 323.7 325.8 326 322.9 321.8 312.3 301.7 293.1 283.1 272.2 263.5 256.1 249.1 243.3 241 237.9 238.7 242.2 245.9 248.6 247.8 243.2 236.7 229.1 222.7 217.7 212.7 207.5 201.5 197.6 194.6 191.4 188.8 187.9 186.8 188.6 190.5 191.3 192.5 192.7 192.2 191.1 191.6
418.1 414.7 413.3 410.3 412.4 410.6 406.1 404.1 393.1 407 414.5 421.8 428.7 432.4 435.6 436.6 436.6 436.8 438.4 439.4 441.7 443.5 444.2 445.2 446 446.6 447.4 447.7 447.7 449.2 448.8 448.4 447.6 446 443.6 442.3 442.6 439.6 437.2 434.8 433.5 433.2 433.4 432.8 431.3 428.8 425.5 421.7 417.2 413.7 411 407.7 402.7 398.2 394.5 390.9 385 379 369.2 360.5 353.6 344.7 337.5 330.6 325.5 319.9 314.1 306.8 300.8 292.7 283.6 274.3 264.6 253.6 239.2 237.5 242.4 248.4 259 263.6 266.8 265.8 262.8 259.8 253.6 244.8 233 226.7 222.2 218.5 217.9 215.9 214.7 215.5 218.3 226.6 240.8 262.3 293.5 319.2 334.2 343.6 354.4 355.7 337.6 326.7 320.3 315.5 311.7 307.5 303.3 300.6 299.6 299.8 301.4 302.1 300.2 298 295.9 293 288.9 283.3 276.2 274.6 267 244.9 252.7 252.4 243.4 236.9 223.3 215.4 209.4 203.4 197.8 191.4 188 185.8 181.4 178.7 176 173.8 172 171.5 172.1 178.9 186.2 203.4 209.1 236.5 274.1 290.2 294.5 296.5 296.7 299.9 312.3 322.5 321.5 316 307.3 302 300.4 289.9 278.1 267.8 258.1 251.6 244.7 238 231.7 227.7 225.4 225.1 229.4 235 242.4 243 238.6 231.8 225.8 219.1 212.3 205.4 200.3 196.4 193 189.9 187.1 185 183 188.8 190.6 189.7 189 189 189.8 190.4 189.1 188.7
431.5 427.4 423 419.4 422.9 420.9 416.9 409.1 408.4 417.9 423.6 430.2 435.7 441.2 443.9 444.9 446.2 446.3 446.8 447 448.6 449.5 450.2 451 452.5 454.1 455.7 455.3 456.1 457.3 455.7 453.9 450.3 450.9 449.6 445.6 443.5 442.1 438.5 435.6 433.4 432.4 431.4 430.7 429.1 425.3 421.8 417 411.5 405.5 402.9 398.7 393.2 387.2 382.8 377.6 370.1 362.8 353.3 342.5 337.5 330.9 325.6 321.4 316.9 311.8 305.9 298.9 290.8 283 273 263.8 250 239.5 243.5 256.3 263.8 264.9 270.2 277.2 276.4 275.9 274.4 270.5 262.5 255.9 246.3 230.1 223.1 218.9 217.5 216.1 214.1 213.9 214.8 219.6 230.5 252.7 277.8 295.2 314 326.5 333.8 341.7 328.6 318.3 314.8 311.1 307.3 303.6 300.7 299 298 297.2 296.8 298.4 298.9 296.7 294.9 291.4 287.3 282.5 270.4 261.3 261.6 262.7 257.2 247.1 244.8 240.1 231.9 224.7 215 204.5 198.2 194.6 189.6 186.2 182.2 178.8 175.9 173 171.8 170.4 172.4 179.3 186.8 203.7 215 242.1 273.5 284.5 286.9 286.6 288.4 295.3 300.3 304.5 303 297.1 290.6 283.2 280.2 274.8 264 256.4 251.7 246.8 241.6 236.1 229.5 222.9 217.8 214.6 217.9 226.9 235.6 236.4 232.9 228.5 223.2 218.7 211.8 202.9 197.9 194.2 191.1 188.2 185.1 182.8 183.9 189.2 190.4 188.4 188.7 188 187.5 187.4 187.3 187.3
443.6 439.9 433.4 428.7 430.4 428.3 418.3 411.4 418.4 426.2 433.5 439.6 448.1 453.9 454.2 452.7 453.6 453.2 455.8 455.4 454.9 455.7 456.2 456.5 458.2 459.3 462.6 463.7 462.4 458.6 457.3 455.8 450.4 450.7 449.2 443.2 441.3 439.6 435.6 432.4 429.2 426.9 424.3 422.3 420.7 417.5 412.8 408.7 401.5 396.2 391.3 386 379 372.2 366.9 362.6 356.3 347.3 339.9 332.2 326.4 321.1 317.1 312.4 307.7 303.2 298.2 290.2 284 273.8 262.9 250.6 241.7 253.4 264.2 273 278.7 278.7 283.5 286 286.9 286.2 284.9 279.7 273.1 267.6 257.5 241.3 225.9 219.4 217.1 215.3 214.6 212.7 213.4 213.8 219.8 235.9 257.8 278.8 291.8 307.6 315.4 320.2 312.6 309.1 308.3 309.1 306.1 302.3 299.7 298.7 299.3 298.4 298.1 297.6 296.1 291.4 293.5 290.8 286.3 281.7 277.9 274.7 270.7 261.9 261.4 259.6 256.7 252.6 245.1 233.7 221.2 206.9 198.2 193.4 190.2 188.4 186.5 178.3 175.5 172.7 171.4 171.1 171.9 180.1 186.3 203.3 225.9 256.7 268.1 270.9 277.7 277.7 280.2 283.4 290.7 288.9 285.9 280 270.2 265.4 260.2 257.4 252.7 249.2 246.3 244.8 242.3 239.2 235.3 232.6 228.4 220.6 212.1 215.2 225.9 227.5 224.2 222.7 218.6 214.6 208.1 201.3 195.6 191.8 189.7 187.2 184.3 184.8 179 189 187.5 186.4 186.4 185.8 184.9 185.7 185.8 185.7
456.6 449.6 440.5 436.4 433 424.4 422.8 427.2 430.4 439.2 447.1 454.8 460.3 460.6 459.1 458.3 459.1 460.4 467.5 465.8 460.2 457.6 459.3 460.7 460.3 465.4 466 465.8 455.9 456.2 449.6 444.6 440.5 442.5 430 431.2 429.5 427.2 426.8 422.3 417.5 415.6 410.6 407.7 405.2 401.7 397 392 386.8 381.9 375.6 371.2 364.5 357.9 351.5 345.5 340.3 334.1 327.4 320.8 316.6 313.6 308.9 304 299.4 294.1 288.6 282.3 275.5 263.4 248.7 242.9 255.1 270.7 279.2 287.4 287.9 289.8 295.6 294.5 295.2 294.7 292.1 287.3 282.6 276.9 268 252.2 230.9 220.3 216.4 214.7 213.4 212.4 212.5 212.2 213.1 221.1 236.3 258.3 276 286.3 295.7 298.1 300 300.2 302.7 304.8 304.9 303.2 300.9 300.3 300.3 300.5 300.8 300.6 299.5 297.6 295.8 292.7 287.6 283.4 278.1 274.6 273.7 274.9 273.3 271 267 260.8 253.6 242.6 228.6 212.6 198.4 198.4 188.6 187.3 185.1 175.6 173.5 172.7 171.4 170.6 171 179.7 185.9 209.2 238.7 253.2 260 262.2 264.6 265.4 269.6 273.8 275.3 273.2 268 264.1 259.3 255.8 251.6 248.5 245.9 243.4 242.7 241.8 239.9 236.9 234.7 231.9 226.9 220.1 212.5 201.9 210.4 213.9 213 212.7 210.5 208.3 203.9 198.5 192.6 189.3 187.8 185.9 186.3 186.6 182.4 182.5 184.8 184.3 184.9 184.6 183.2 183.7 184.3 183.8
465.9 458.4 448.6 442.2 433.2 432.4 439 444.8 450.4 456.3 462.7 467.5 468.3 466.5 463.9 463 463 467 464.9 464.6 463.4 457.3 458.9 461 451.9 449.7 446.5 446.8 430.9 429.8 423 417.6 414.7 413.3 413.1 410.7 410.2 407.3 406.1 403.9 400.5 395.7 391.6 388 385.7 383.7 380.3 375.9 370.9 366.7 360.1 355.6 350.5 344.5 338.6 334 328.2 323.6 316.9 312.3 307.7 304.4 300.6 295.3 291.2 286.6 276.7 270.3 260.7 246.9 248.9 266.3 277.1 283.5 293.2 299.5 297.2 302.3 304.4 302.8 302.9 301.5 298.4 294.9 290.7 284.6 277.1 257.2 236.3 221.4 216.6 215 213.7 212.5 210.8 210.7 210.8 212.4 219.7 233.4 257.8 267.4 272.5 279.9 284.8 290.4 296.4 300.6 302 302.2 302.2 302.4 302.3 302.3 303.1 303.8 302.8 300.5 296.5 293.5 289.2 283 282.6 282.1 282.5 282.2 280.4 277.5 273.3 267.1 259.3 249.1 234.9 218.4 203.4 197.7 189.9 184.2 182.2 173.5 171.6 171.8 172.6 170.6 170.8 179.2 186.4 212.7 236.9 247.8 250.7 254.8 256.1 259.6 268.3 268.9 261.7 257.4 254.8 253.2 250.6 245.9 242.4 239.9 239.1 239 239.2 238.4 237.3 235.5 232.8 229.4 225.5 219.9 212 203.6 197.7 200.2 201.1 201.7 200.6 199.4 196.8 192.5 188.9 186.9 185.6 185.9 186.5 185.4 184.5 174 178.8 180.6 185.5 183.4 182.3 182.3 183.2 182
479 468.5 455.8 446.4 445.5 452.7 460.3 467.5 470.2 471.2 472.9 474.7 474.2 470 467.4 464.9 465.8 465.4 462.2 459.4 453 447.4 441.6 434.8 427.1 421.4 415.6 413.4 405.6 400.6 397.8 396.9 394.8 393.1 391.3 389.2 387.3 386.1 384.4 382.8 379.1 375.1 370.6 368.1 366.3 363.9 360.8 357.4 352.2 347.8 344.3 341.1 337.3 333.1 327.6 323.4 318.5 314.1 308.3 304.1 301.7 297.5 289 284.7 276.5 268.4 260.5 253.2 246.3 256.4 274.4 282.8 290 297.4 303.6 307.8 307.3 309.2 311.3 311.4 310.1 308.8 305.8 301.6 296.8 289.4 276.4 258.8 239.5 222.9 217.6 214.8 213.3 211.5 210.6 208.2 209.9 210 211.4 213.1 229 251.7 255 264.1 269.5 280.3 287.3 291.8 295.2 300.9 302.3 303.8 304.9 304.9 305.6 306.5 306 303.8 300.7 296.6 291.9 289.1 287.7 286.6 285.7 285.4 283.8 280.3 276.2 270 262 252.2 240 226 211.2 200 190.9 185.4 180.8 174.1 171 173.2 172.1 170.6 169 178.9 187.4 213.1 227.6 240.4 243.8 248.4 251.3 256.4 262 259.2 253.2 247.5 244.3 240.2 236.1 233.1 230.3 230.1 230.3 231.6 233.8 235.2 234.8 234.5 232.9 230.6 227.5 221.6 212.6 203 194 193.4 192.4 191.4 191.4 191.1 189.7 187.2 185.5 184.5 186.8 186.7 184.5 181.8 178.6 173.2 172.8 177.5 183.4 182.6 181.9 181.5 181.1 180.3
483.2 472.1 460.2 453.6 465.1 475.2 481.7 484.6 484.9 481.4 479.9 480.9 480 474.8 470.1 466.8 466.4 459.9 454.7 447.8 437.1 428.1 420.4 411.9 405.6 399.3 391.8 386.9 384 379.9 376.7 376.5 376.3 375.4 373.7 372.1 369.7 367.9 366 363.5 359.7 355.5 351 348.4 345.8 343.5 340.6 338.2 335.1 332.4 330.2 328.3 325.3 321.8 316.9 313.9 309.9 305 300.4 297.1 293.1 286.4 277 264.6 256.6 250.8 253.2 260.6 269.3 279.1 286.3 293.2 301 307 309.7 313.5 316.6 316.2 316.3 318 314.7 311.7 308.5 306.3 301.2 287.7 272.5 255.4 236.3 225.3 219 216.2 213.5 212 211.1 208.6 208.9 208.7 208.9 209.9 212.6 220.7 232.9 246.6 256.3 264.2 272 278.8 291.8 301.2 302.9 303.1 305.3 306.8 307 307.5 306.9 305.2 302.3 298.8 295.4 292.3 290.5 287.8 285.4 283.3 281.4 278.9 274.7 268.6 261.6 252.6 243 230.7 216.8 205 192.9 187 183.5 175 170.6 170.8 170.7 170 169.8 177.4 186.7 207 220.8 230.6 236.4 241.6 249.1 254.1 254.8 256 246.2 240.3 235.8 232.6 228.9 225.4 223.4 222.1 222.1 223.1 225.5 227.2 228.8 229.3 229.7 229.4 227.1 219.1 209.9 198.7 190.7 187.3 185.9 184 182.9 182.8 183.4 184.1 182.7 184.2 186 190.6 185 175.9 172.4 172 171 179.5 181.7 182.2 180.5 180.1 178.8 178.4
489.4 480.7 462.3 474.2 485.2 491.8 496.3 496.8 493.2 489.8 486.9 486 484.3 478.8 470.1 454.9 449.8 439.4 432.6 427.8 419.4 410.3 399.9 391.3 385 379.7 376.4 368.1 361.2 359.6 357.9 358.5 359.6 359.6 357.9 356.5 353.8 351.1 348.9 347.1 343.3 339.1 334.7 332.7 328.1 327.2 325.9 323.8 320.8 317.8 316.4 315.8 313.1 311.2 308.6 306.8 301.2 298.2 294 288.8 283.4 274.7 257.6 252.2 264.3 267.8 272.3 277.9 283.9 292.8 296.7 305.7 312.1 315.1 318.7 321 322.4 321.4 321.6 322.9 318.3 315.1 312.1 307.9 302.2 291 278 257.9 234.9 224.8 220.3 217.2 213.6 210.4 210.3 207.2 208.2 207.9 207.8 208.4 209.1 213.4 219.2 226.3 238.1 248 261.2 281.2 294.3 301.9 304 302.3 302.2 303.6 305.3 305.3 304.2 302 299.4 297.1 293.6 292 288.4 284 280.3 278.7 277.2 274.8 270.8 264.2 258 250.7 241.5 230.8 218.9 208.5 196.2 187.1 181.2 177 172.8 169.2 169.5 169.6 168.5 178 185.5 199.6 215.3 224.3 232.2 238.1 241.8 248.1 253.2 242.7 238.9 234.7 230.5 225.7 221.7 219.2 217.2 215.7 215.7 215.8 214.2 217.2 219.1 222.7 226 227.4 223.6 216 205.3 193.6 187.2 184.9 183 181 181.4 181.6 181.5 181 180.8 184.1 187.5 188 182 171.9 165.3 166.5 167.1 175.5 176.1 177.1 175.8 174.6 172.4 172
496.8 487.2 476.5 492.4 501.1 504 505.8 502.8 498.1 494.2 491.3 487.7 484 476.2 461.6 447.1 425.7 416.3 409 401.8 400 391.5 383.1 375.1 369.4 362.5 356.9 352.3 348.2 345 343.8 343.5 343.7 344.2 341.4 339.8 338.1 336.1 333.7 331.6 326.2 323.5 319.9 318.3 317.2 316 313.9 311.8 310 307.9 306.9 305.6 303.6 302 299.5 297.9 294.2 290.5 285.4 281 275 259.8 254.6 271.8 280.6 283 288.9 294.3 299.3 306 311.1 315.3 320.3 323.9 325.2 326.8 326.8 325.8 324.9 325.2 322.8 319.6 315.2 310.4 303.3 292.8 281.3 266.9 245.2 232.4 223.8 217.6 213.7 210.9 209.5 207.7 206.7 206.8 207 207.5 207.2 208.8 212.5 219.2 227.2 237.1 243.6 259.3 276.8 288.7 295.9 299.6 298.5 297.7 298.2 298.6 297.9 296 292.4 289.4 287 284.3 280.3 275.9 272.8 270.1 268.2 268.9 264.3 257.5 252.9 246.1 237.9 227.8 219 211.4 200.3 188.7 184.1 182.1 175.9 173.2 169.7 169.6 169.4 173.6 182.8 194 212.6 220.1 228.9 234.3 236.5 239.4 240.5 238 234.4 229.1 225.3 220.9 216.5 213.3 211.8 209.3 206.6 206.7 206.4 209 212.6 217.5 226.8 227.8 219.3 209.1 196.8 187.4 183.3 182 180.7 179.2 179.8 183.7 182.7 181.3 180.4 179.5 180.5 179.6 173.4 164.9 163.2 164.9 163.8 164.8 167.2 168.5 168.3 166.4 162.7 161.5
505.5 494.7 496.2 508.8 511.3 511.5 510.7 507.3 503.2 498.4 492.8 483.2 469 455.4 440.9 426.9 412.2 398.6 389 382.8 377.5 371.4 363.9 358.8 350.3 346 342.4 339.5 337.1 334.8 334.3 333.5 333.2 331.5 329.2 327.2 325 324.2 322.1 319.2 316.3 313.1 310.6 309 307.8 307 304.2 301.9 300 298.6 296.7 295.1 295 293.8 292.3 290.4 287.4 284.3 279.9 275.4 261.1 256.6 269.2 284.8 294.4 297.1 301.1 305.3 310.8 314.9 318.6 321.6 325.6 330.3 331.3 331.2 331.1 329.9 328.7 328 327.5 323.6 318.7 312.8 306.8 299.2 289.8 276.3 264.9 248.3 233.1 219.9 213.9 210.9 209.2 208.5 206 204.5 205.8 205.9 206.1 206.6 208.3 212.2 215.7 219.2 228.9 237.9 250.1 266.7 281 289.7 291 290.1 288.9 287.3 287.3 285.6 282.5 278.6 275.9 271.9 267.7 263 259.6 257.1 255.7 254.5 253 248.2 244.9 239.1 232.5 225.5 218.3 209.4 200.3 192.1 184.9 182.1 179 173.8 169.9 169.2 169.2 169 178.6 185.6 199.1 212.3 225.6 232.3 231.8 232.6 235.9 235.8 230.6 224.7 220.6 216.7 213.3 209 206.3 203 199.8 200.3 196.1 200.9 208.7 218 216.6 211.5 202.7 196.3 187.5 183.6 180.8 179.8 179.2 177.2 176.6 179.8 181.9 182 179 176.6 176.9 174.4 167.1 163.7 163 162.6 161.9 161.8 161.8 160.9 160.4 156.9 157.2 156.2
518.4 513 515.5 519.3 519.1 517 514.4 512 508.4 500.9 488.5 468 446.5 430.1 416.3 405.4 395.9 384.3 372.6 364.2 358.4 353.2 348 342.2 337.7 334.6 332 331.7 330.4 329 328.1 327.3 325.5 323.5 321.6 320.2 319 316.4 313.5 310.8 307.7 305.7 303.2 302.2 300.3 298.6 296.2 293.8 290 288.2 285.9 285.3 285.9 285.4 284.7 283.9 282.3 279.5 274.7 266.6 258.8 271.1 286.1 290.2 297.5 301.9 305.3 310 315.7 321.4 325.4 327.7 330.4 333.6 336.1 336.3 335.4 334.6 333.7 332.3 330.6 327.2 322.5 317.4 312.5 306 297.2 288.7 280.4 267.5 254.2 234 216.7 211.7 208.7 207.6 207.2 205.3 204.1 204.9 205.4 205.6 205.7 206.8 207.9 207.7 212.4 221.1 233.6 243.5 255.5 266.4 273.7 276.7 275.8 273.1 271.3 270.7 267.8 264.2 260.4 256.5 252.9 247 242.7 242.1 241.2 239.5 239.8 239 235.5 230.6 224.5 218.6 211.4 204.6 197.1 188.8 184.1 181.7 179.9 176.1 171.1 169.1 169.1 169.1 172.5 179.5 185.7 197.2 209.7 218.9 223.4 226.6 229.2 230 225.5 220.1 215.2 212.4 211.3 208.7 206 199.3 190.9 192.9 192.8 192.8 194.9 195.1 192.3 189.2 186.3 184.1 182.7 181.8 180.1 178.4 177.4 175.6 172.3 175.9 177.4 177.1 174.7 175.1 174.3 171 163.3 163.8 162.5 161 160.3 159.5 158.5 156.6 158.4 157.4 157.3 156.6
528.9 526.4 525.6 525.2 522.8 520 517.6 514.5 506.1 492 473.3 453.1 431.9 410.1 397.4 387 376.5 366.4 354.7 348 342.8 340.7 337.8 336.2 333.8 331.1 327.9 325.3 324.9 323.9 324.7 323.1 319.7 317.8 315.2 311.5 308.2 305.2 301.5 298.3 298.3 297.2 294.6 293.3 291.3 288 285.9 284 279.8 277.6 275.9 273.1 272.1 269.5 268.3 272.5 274.8 272.9 268.4 261.2 265.5 271.2 291.6 297.1 300.8 305.1 309.8 314.6 320.2 326.2 330.2 333.1 335.8 338.8 340.3 341.1 341 340.2 339.3 338 335.4 333.1 328.8 324.5 319.2 312.6 305.6 298.5 293.3 284.9 275.8 253.6 230.7 215.5 209.9 207.3 206.6 205.8 202.9 203.5 203.6 204 203.9 203.9 203.5 203.6 205.1 209.6 216.9 228.3 240.1 247.1 252.9 257 259.8 260.3 257.6 254.7 251.7 247.6 243.8 238.6 233.9 230.6 227.1 224.9 225.9 226 226.6 227.9 225.7 221.2 214.7 208.5 202.9 197.1 192.2 185 183.3 181.3 181.1 177.6 171.6 169 168.9 168.6 168.3 172.3 178.1 185.4 191.7 198.9 210.5 216.4 219.8 223 217.1 212.6 208.8 207.3 207.6 207.2 204.1 198.4 191.5 186.8 186.3 185.5 183.8 181.7 180.6 179.7 179.5 179.4 179.6 179.1 178.1 176 173.9 172.6 170.3 170.6 171.8 171 170.8 170.7 171.7 173.2 167.9 166.4 166.3 159.9 158.5 157.6 156.5 155.8 155.6 155.5 155.4 156.1
537.2 534.1 532 528.6 524.5 520 514.7 506.8 491.6 470.3 448.4 429.6 411.8 396.8 382.3 369.7 359.8 351.3 343.7 337.1 333.8 332.8 332.9 327.1 322.8 322.8 320.5 318.6 319.8 316.9 315.8 315.7 312.4 309 306.2 302.3 303 304.2 302.2 297.9 295.4 293 289.4 287.4 287.8 286.4 286.8 285.4 283.7 282.6 280.1 278.5 277.3 274.4 271.3 268.6 265.6 263.6 261.5 262.8 277 291.7 294.9 301.2 304.9 308.7 312.7 317.1 324 329.7 334.5 338.6 341.3 344 344.5 345.9 345.9 345.7 344.7 343.2 341.4 339 335.5 332.3 326.9 321.5 316.1 311.7 307.3 301.3 288.6 273.3 248.9 226.1 212.7 208.3 206.3 205.3 204.6 201.5 201.9 202.2 201.9 202.8 202.4 201.7 201.8 202.6 206.8 212.1 221 231.4 238.6 243.3 246.2 247.3 243.7 238.9 234.5 229.2 224 221.9 220.2 217.3 214.5 212 210.2 207.9 211.2 214.9 215.2 211 205.3 199.9 195.3 191.1 187 183.2 182.2 181.5 181.1 176.2 171.6 169 168.7 168.3 168.3 167.8 170 174.8 180.9 187.6 195 201.6 204.9 205.8 206.3 203 201.1 200.9 200.5 199 196.3 191 185.1 180.5 181.4 181.2 179.5 177.2 175.4 174.3 175.7 176.6 176.9 176.9 175.8 172.4 170 169.2 168.1 167.9 166.5 164.3 161.4 160.7 159.6 160.8 159.4 157.7 157.1 157.2 157.5 157.3 156.2 155.9 155.7 155.8 155.5 155.2
541.9 539 535.6 531.2 525.6 518.6 508.9 492.8 469.5 447.9 427.6 410.3 394 378.1 364.2 355.7 346.3 339.9 333.6 331.5 329.2 329.6 329.5 330.9 329 326.1 323.1 322.5 320.8 318.2 317.8 318.1 316.1 314.3 313.4 313 313.7 312.3 310 306.4 304.2 304.3 301.1 300.6 298.4 296.7 294.4 294 293.1 290.2 286.8 284.3 282.3 279.7 277.6 274.4 272.1 265.5 261.2 275.8 289.3 297.8 301.8 304.6 307.9 311.2 315.5 321.5 328.3 334.5 339.8 343.7 347.2 350.3 349.2 350.9 351.6 351.9 350.2 348.4 346.6 344.7 342.1 338.3 334.4 330.8 328.2 325.9 322.6 313.7 299.4 286.1 267.5 241.9 221.5 210.6 207 205.2 204.3 203.2 201 199.6 200 201.6 201.4 200.8 200.5 200.2 201 203.3 207.8 214.2 221.4 228.2 230.9 231.1 229.1 224.4 219 215 212 210 208.1 206.3 203.9 201.9 201.1 200.7 201.7 202.8 204.3 200.6 196.7 193.4 189.8 185.5 181.5 178.4 178.2 178.6 178.8 174.6 172.6 170.5 168.6 168.5 168.1 168.2 166.2 166.2 167.6 177.6 181.4 185.5 189.9 192.2 193.8 194 193.5 193.3 192 189.4 185.4 182.7 180.1 177.8 177.7 178.6 178 176.9 174.7 173.8 173.9 174.3 175 173 170.1 167.5 167.3 166.3 164.7 163.9 162.8 159.8 159.1 158.8 158 157.8 157.5 157.4 156.9 156.5 156.4 156.5 156 154.9 155 155 155.5 155
546.3 541.7 536.6 531.6 524.7 512.9 497.1 470.3 446 427.3 408.6 391.3 374.7 358.4 348.1 341.4 337.2 336.7 337.2 337.1 337.2 335.1 335.8 335.9 336.7 334.4 333.8 333.5 334.4 333.4 332.8 331.8 329.9 327.4 323.9 322.5 321.2 319.3 317 315.3 312.7 310.4 308.6 305.3 303 301.2 299.9 299.9 297.6 294.7 290.6 287.5 284.8 281.9 280.6 278.7 275 265.6 267.2 285.9 295.9 302 306 308.8 311.4 314.3 318.2 324.3 332.8 339.2 344.5 349.3 351.7 352.2 352.2 355.1 358.3 358.4 356.3 354.6 352.7 350.2 348 344.7 341.8 339.2 337.7 335.7 329.2 319.2 306 294 278.5 259.3 234.3 214.8 208.3 205.7 204.4 203.6 202.5 199.7 199.2 199.4 200.4 199.9 199.6 199.1 198.6 198.9 200.2 203.2 207.1 210.6 214.2 215.4 213.8 209.7 206.2 203.5 202.1 201.1 198.8 196.6 194.5 191.7 191.6 191.3 194.3 197.5 195.5 193.6 191.1 186.3 180.9 177.8 175.5 174.6 175.2 174.7 174.9 177.6 176.1 176.2 174.7 169.3 168.4 168.4 167.4 168.1 166 166.9 168.6 174.5 179.1 180.9 182.5 183.4 184.1 184.4 183.8 182.9 180.9 178.9 177.4 174.7 174.4 175.5 176.9 176.5 174 174.2 173.1 175 172.5 168.6 167.3 166.2 166.3 163.5 162.8 163.1 162.8 160.6 158.6 158.4 158 157.9 157.6 157.2 157.1 156.7 156.4 157 156.1 156.9 155.9 155.2 154.2 158
549.5 544.5 538.4 531.6 520.7 502.3 473.2 447.5 427.3 407.7 390 373 357.4 345.6 342.5 342.8 345.9 348.8 349.9 350.6 351.8 350.5 352.8 354.9 355.3 354.3 352.7 351.1 350.3 350.4 348 343.8 340.8 338.8 334 331.3 329.3 326.2 322.8 319.7 316.9 314 311.7 308.6 305.7 304 303.2 302.4 300 297.9 294.9 291.3 288.1 285.1 282.7 281.1 275.8 264.3 275.5 290.4 300 306.1 310.4 313.4 315.3 318.3 321.8 327.9 335.1 343.2 349.2 354.2 356.1 355.5 355.6 358 365.3 366 361.9 359.8 358.4 355.1 351.8 349.8 347.3 346.3 344.3 339 331.9 325 312.3 299.6 283.6 267.1 250.2 223.3 211.9 207.7 205.9 204.9 201.8 201.2 199.3 198.5 197 198.2 198.5 197.9 197.3 196.8 196.9 197.3 198.5 198.5 198.9 199.4 199 198.4 196.5 195.5 194.2 192.9 190.8 188.7 185.5 183.1 182.5 182 181.2 184.7 191.8 190.5 184.9 178.9 177.5 177.3 177.8 176.8 175.9 175.6 174.2 172.4 172.6 174.1 174.8 174.2 169.3 168.9 167.2 168.3 166.6 166.2 167 166.7 166.8 167 171.2 173.1 174.1 174.6 175.2 175.1 174.5 171.8 175.4 173.4 171.7 174.8 174.7 170.9 170.3 170.4 166.7 169.9 165.3 166.3 166.3 165 162.2 159.9 159.8 158.8 163.3 159.8 158.5 158.3 158.1 158.1 157.7 157.3 157 157.1 159.8 160 159.5 158.9 158.3 157.4 156.5 156.9
552.6 546.3 539.2 529.3 513.1 485.1 454.3 432.2 411.2 392.1 372.2 357.6 349 345.9 350.7 355 360.5 365.5 367.7 368.7 370.7 372.1 373 373.7 376.4 374.2 372 371.8 369 366.9 365 359.9 351.8 348.2 344.2 339.4 335.6 331.5 327.4 323.3 319.8 315.5 313.6 310.7 308 306 304.9 303.8 302 300.7 298.8 296 292.6 288.6 285.6 282.3 277.1 266.9 279.5 293.4 304 310.3 315.2 318.5 320.7 323.9 328 333.6 339.6 346.4 353 357.3 358.9 358.5 359.8 363 370.5 370.9 366.9 363.8 362.2 359.2 356.5 354.4 352.3 350.2 346.1 339.1 334.6 327.6 316.4 302.9 287.5 264.8 249.6 229.7 218.1 209 208.9 205.8 203.8 201.2 199.6 198.8 197.3 197.6 197.5 197 196.3 194.9 192.9 191.9 192.5 191.5 191.7 191.4 191.5 190.6 190.5 188.4 187.2 185.8 185.8 184.7 184 185.5 190 192.4 187.5 180.5 181.3 181.8 179.3 178 189 189.1 185.1 182.9 181.3 179.6 176.5 174.3 172.6 171.5 171.8 173.9 171.2 169.1 169 168.7 166.3 166.4 165.7 166.7 166.3 166 165.7 165.7 165.2 165 166.6 168.1 167.5 167.1 169.2 168.6 168.3 170.5 167.5 163.2 161.7 162.6 161.4 161.1 163.4 166.2 164.1 160.8 159.8 159.7 159.4 157.2 159.1 156.7 158.6 157.1 156.5 157.8 156.9 158.6 162.5 163.8 163.6 162.8 161 160.9 160.4 159.1 158.4 157.2
554.1 546.4 539.6 526.2 498.9 469 444 422.5 396.7 376.8 359.1 351 354.6 361.1 368.7 375.1 381.9 386.8 388.8 392.5 397.4 399.3 400.3 401.2 402 401.5 399.5 396.1 392.5 383.3 377.4 369.7 362.3 356 350.9 344.9 339.6 334.4 330.2 325.8 321.1 317.3 314 311.3 309.1 306.2 305.8 304.6 302.5 300.9 298.7 295.7 292.9 289.8 287 283 274.5 268.1 284.3 298 308.3 315.1 320.3 323.8 325.5 327.3 332.4 339 344.7 350.9 356.5 360.6 361.1 361 363.6 367.8 374.6 374.5 370.5 366.9 365.2 363.8 360.9 358.9 357.5 351.7 345.5 338.7 334.6 328 318.6 304.8 289.2 272.7 257.9 242.6 230.7 220.6 213.6 211.4 207.7 202.7 199.8 198.8 198 196.2 196.1 195.6 194.9 193 193 191.6 191.4 190.2 189.9 189.2 188.5 187.7 187.1 186.6 185.8 185.9 184.5 184.5 194.3 196.7 195.4 194.6 193.6 187.7 180.3 179.7 180.7 191.1 190.7 190.9 187 185.5 182.8 180.4 179.2 177.3 174.9 172.8 171.8 170.9 169.4 169.9 169.8 168.9 168.1 167.1 166.1 166.2 165.8 165.8 165.5 165.2 165 165.6 164.9 165.1 165.1 165.1 164.9 165.4 165.5 164.3 162.5 161.9 161.8 161.8 161.8 160.9 160.6 161.5 160.2 160.4 159.9 159.4 159.7 159.5 159.2 158.9 156.4 159.7 162.3 164.7 166.7 167.1 167.7 168.3 168.2 167.8 166.8 164.9 164.1 162.9 162.2 161.4
555.5 547.5 540 517.4 486.8 456.6 434.2 410.9 388.1 366 354.7 363.4 373.6 382.6 392.8 400 407.9 412.6 418.7 421.1 424.6 428.6 427.1 427.1 427.4 425.6 422 413.5 404.1 394.6 384.6 375.2 367.5 359.8 353.2 346.6 339.4 333.3 326.9 322.5 318.7 315.2 311.5 308.8 306.4 303.4 301.2 298.7 295.5 292.3 289.6 287.3 286.1 284.6 280.8 273.1 270.6 278.6 289.7 301.6 312.7 319.9 325.3 328.7 331.3 333.4 335.9 341.8 349.4 356.4 361 363.3 361.3 361.7 365.7 369.7 372.6 373.6 371.4 368.6 367.8 366.9 365 362.7 360.8 351.7 343.1 337 333.1 326.4 315.6 301.6 288.6 276.4 263.2 251 242.6 233.4 219.1 218.2 211.3 208 204 200.7 198.1 197 195.1 194.3 193.6 193 192 191.7 191.2 190.8 190.3 188.9 188.6 188 187.6 187 186.3 185.6 185.5 191.5 195.1 196.9 195 195.1 193.9 187.6 184.7 188.3 190.3 192.6 194.7 193.3 192.4 190.5 187.9 182 179.7 178.4 176.8 174.4 173 172.7 171.9 171.2 170.2 169.6 168.9 168.1 166.8 165.9 164.5 164 165.7 165.2 164.9 164.9 164.4 164.4 164.4 164.5 164.1 164 164 163.4 162.3 162.2 162 161.6 161.3 160.9 160.7 160.7 160.3 158.7 160.1 160 159.9 159.9 160.8 168.2 172 181.8 182.3 180.3 176.9 176 175.6 177.2 177.9 176.2 172.8 170.8 169.7 167.6 166.7 164.6
557.9 549.6 532.9 504.9 475.6 450.7 424.5 400.8 377.8 359.6 370.7 384.6 396.3 407.8 419.8 428.2 436.5 441.6 448.6 450.6 451 451.8 451.3 446.7 443.2 439.4 433.7 424.7 412.6 399.9 388 374.8 367.5 358.9 349.1 341.6 332.7 325.7 319 315.9 313.2 310.1 305.2 299.8 298.5 294.5 289.7 286.6 284.4 280.3 281.7 277.3 276.7 274.4 273.8 273.6 276.9 284.8 293.2 306.6 317.7 325.1 330.4 334 337.1 337.9 340.5 346.5 353.1 357.7 360.6 360.6 360.2 362.1 366.5 369.5 371.3 373.1 372 368.9 368.4 368.1 366.7 364.3 358.5 348 340.5 334.3 328.3 321.2 311.1 299.8 285.2 269.4 262.9 253.7 244.3 228.2 233.2 227.5 220.9 216.2 210.2 207.9 204.6 200.9 197.6 196.2 194.7 193.6 193.1 192.3 191.7 190.9 190.3 189.9 189.4 188.7 187.6 186.7 186.1 185.3 187.9 193.1 195.3 195 195.1 194.4 191.6 190.4 190.9 189.8 190.1 191.4 193.4 193.8 193.9 192.1 190.5 187.3 181.8 179.1 177.3 176.2 175.2 174.6 175.8 173.8 171 170.1 170.2 168.1 167.5 166.8 166.2 165.7 165.3 165.1 164.8 164.7 164.3 163.8 164.3 164.1 163.8 163.6 163.4 163 162.7 161.2 161.8 161.8 161 160.9 160.7 160.2 160.4 158.7 160.3 161.3 162.1 166.1 171.4 181.9 186.9 191.7 189.4 188.7 187.6 187.9 188.6 188.3 186.7 184.7 182.3 179.4 177.4 175.7 174.7 172.4
560.6 546 520.6 490.9 464.9 443.8 417.7 394.2 369.5 376.2 393.1 410 423.3 436.7 448.2 454.1 461.8 468.7 473 475.2 471.9 465.9 462.3 456.9 453.6 447.4 440.6 429.4 416.8 402.2 383.4 368.8 361.9 353.3 342.3 332.4 324.6 316.6 311.7 308.5 306.4 301.3 296.2 291.9 288.5 285.3 280.9 280.4 280.9 281.2 281.3 278.9 280.5 279.4 278.5 278.4 281.2 284.2 295.3 309.5 320.6 329.5 334.4 338.1 341.8 341.9 344.5 347.9 351.2 354.9 357 357.5 358.1 362 365.4 368.1 370.7 372 370.2 368.7 367.7 367.5 365.3 362.3 355.2 346.5 339.6 332.3 325.3 315.9 304.6 297.4 284.8 276.6 269.5 260.3 250.3 246.4 240.4 233.1 227.7 222.8 217.9 214.4 209.6 205.9 202.4 200.4 198 196.3 194.9 192.7 191.7 190.6 189.9 189.3 189 188.4 187 186.9 186.8 186.8 189.6 192.7 195.2 194.9 195.2 195.1 195.5 195.1 195 193.6 193.7 193.2 193.6 193.4 194.4 192.7 192.2 189.3 183.9 180.8 178.9 178.1 177.3 176.5 175.7 174.6 172.3 171.3 170.3 168.8 167.7 167.2 166.6 165.8 164.4 164.8 163.1 163.5 164.3 163.8 163.9 164.1 163.6 162.8 162.5 163 162.8 162.4 161.5 161.7 161.1 161 160.6 160.5 162.3 167.7 168.7 169.7 167.8 170.8 182.8 191.3 195.7 199.4 198.9 197.8 197.2 197.1 197.4 197.2 196.5 193.8 191.1 189 188 186.1 184 180.9
558.7 535.1 506.9 477.6 453.4 433.5 410.9 384.4 379.3 397.3 416.4 434.5 449.5 462.7 471 486.9 496.1 498.4 496.3 490.7 484.9 477 469.7 463.1 457.2 450.5 442 430.1 415.5 395.9 376 361.6 354.4 344.9 335.2 324.7 316 308.9 304.5 301.4 298 293.3 290.2 287.4 288.5 290.5 290.4 289.9 286.3 288.9 288.1 285.3 286.5 286.8 285.3 285.4 289.4 290.5 297.6 314.1 326.3 333.6 336.7 339.8 342.4 343 343.7 344.8 347 349.3 351.1 352.4 355.4 358.9 362.5 365.8 367.5 367.8 367.1 366.7 365.9 365.3 363.7 360.4 351.9 344.5 339.1 334 327.4 319.4 311.7 304.1 297.4 290.1 283 275.6 267.3 259.3 252.2 244.6 238.2 231.2 226.2 221.3 214.8 212 208.5 205.7 202.1 200.3 198 195.9 194.4 193.7 192.6 190.8 189.3 188.5 189.1 188.4 189.2 190.2 191.5 192.2 193.8 195.5 195.8 196.5 197.1 197.2 197.2 196.9 196.9 196.5 195.3 195 193.4 192.7 191.8 190.9 188.1 182.6 180.8 179.5 178.3 176.9 175.5 174.3 173.4 171.2 169.9 168.9 167.9 167.6 167.5 166.4 165.7 163.1 163.4 164.6 163.5 163.7 163.8 163.1 163.5 162.5 161 160.5 162.4 160.5 161.7 161.7 161 160.1 165.1 169.6 173.6 176.1 178.4 178.2 176.2 168.9 180.1 193.4 200.8 205.6 208.4 207.6 207.3 207.7 208.4 208.8 208.6 205.6 202.9 200 198.8 197.5 195.3 191.4
550.8 523.1 495.2 467.1 444.2 420.6 398 388.6 403.8 421.5 438 457.3 473.3 489.7 507 517.5 516.7 513.2 506.7 499.8 491.7 482.8 474.4 466.8 458.9 450.2 439.7 425.4 405.6 384.9 366.4 351 345.8 337.5 328 318.6 309.8 303.5 298.7 296 291.5 290 290.7 293.6 295.4 294.9 295.5 296.2 296.7 297.1 296.8 295.8 296.5 295.9 298 302.6 307.1 309 300 315.9 328.3 336.2 338.8 340.5 341.3 341 340.2 340.3 341.1 342.4 344.2 346.9 350.7 354.2 358.2 360.6 362.9 363.9 363.6 363.3 362.3 361.6 361.5 358.7 350.6 343.6 340 337.5 331.9 324.5 319.1 314.3 307.3 300.3 293.3 286.9 280.5 274.1 266 256.5 250.5 243.9 238.3 233.2 224.3 219.3 214.8 211.7 208.7 205.2 203.6 201.9 200.1 197.9 196.3 194.7 194.6 193.8 193.3 192.5 192.9 193.3 194.3 194.2 195.4 196.7 197.6 198.3 198.9 198.6 198.5 199.2 199.3 199.1 198.5 198.3 197.3 196.5 195.6 194.3 191.4 186.5 182.2 181.3 178.8 176.8 176.8 175.8 174.6 172.8 170.6 169.3 168.9 169.1 169 168.1 167.3 165.7 165 164.6 164.2 163.6 162.7 163.6 161.6 161.6 162.9 162.5 161.7 161.9 161.6 164.2 167.2 172.5 176.7 179.7 182.6 184.1 184.3 183.9 180.5 173.9 177.2 191.5 202.7 209.2 212.6 214.9 216.6 217.7 219.9 220.7 220.6 218.3 215.7 213.1 209.5 207.7 205.6 202.3
544.6 511.9 486.9 463.4 435.4 414.4 415.5 414.5 427 442 463.1 480 499.9 517.7 527.7 530.9 527 521.1 513.1 505 495.5 485.3 476.9 468.3 458.5 447.3 433 409.4 390.4 371.5 355.6 342.4 335.8 329.2 321 312.6 305.1 298.8 294.3 292.3 294.1 296.2 299.2 301.5 302.8 301.6 302.4 303.4 304.8 305.8 308.1 308.4 306.7 307.8 313.3 321.9 327.6 324.7 317.2 313.2 328 336.3 340.7 341.6 340.2 338 336.9 335.5 335.5 336.1 337.7 340.9 344.3 347.2 350.8 353.6 356.3 358.1 358.4 357.7 357.9 357.8 358.5 356.6 349.4 345.1 344.4 341.1 336.2 332.5 328.5 324.2 319 311.4 304.4 297 290 283.7 277.1 269.5 262 255.7 249.4 243.6 235.6 224.9 222.4 218.6 212.1 213.3 210.9 207.8 205.6 203.3 201.7 200.3 199.3 198.4 198 198 197.7 198.9 197.4 198.3 198.4 199.1 199.3 200.1 200.6 201.2 202.1 202.9 204.3 204 203.8 203.4 201.6 200.8 198.5 196.8 194 189.7 184.9 186.3 181.4 180.3 178.5 177.4 176.3 175.3 173.6 170.8 170.4 170.5 170.8 170.1 169.8 169.4 166.8 164.7 164.3 163.9 163.7 164 163.3 162.7 163 163.1 165 168.1 172.6 177.8 181.6 186.2 190.5 191.2 190.4 189.2 187.5 183.7 178.6 173.2 179 193.7 203.6 212 217.3 221.1 225.6 227.7 229.8 231.5 232.2 230.7 228 225.6 222.3 219.1 215.3 212.6
540 506.7 477.4 457.5 449.6 442 442.9 432.6 448.7 467.9 486.1 504.8 523.8 535.6 541.1 538.6 532.6 525.3 516.9 507 497 486.8 476.8 466.4 454.6 439 414.5 394.8 377.6 358.9 341.4 332.5 321.3 319.3 312.7 304.4 298.6 296.2 294.4 297.7 300 302.2 307.7 311.9 313.6 308.3 312.7 315.5 318.2 320.8 322 318.3 322.2 325.6 330.3 337.9 339.2 336.3 328.3 328.2 330.7 334.1 337.6 339.8 339.3 337.6 335.6 333.3 331.8 331.6 332.9 334.9 338.1 340 341.8 344.4 346.3 349.5 350.9 350.4 349.9 351.4 353.5 351.9 348.8 348.2 347.8 345.3 342.9 340.4 337 332.9 328.1 321.2 314.6 307.5 299.5 292 285.5 280 273.7 266.7 259.6 252.7 242.2 232.6 228.8 223.8 219.8 220.2 217.5 215.1 212.5 209.5 207.7 206.4 205.3 204.2 203.8 203.3 203.6 203.4 202.8 202.9 202.5 202.6 202.8 203.8 205.3 206.8 208.5 209.3 210 209.3 209.2 207.1 205.5 202.8 201.8 199 195.9 188 192 189.2 190.2 184.4 190.5 187.2 181.7 178 175.7 173.9 172.6 172.5 172.5 172.1 171.1 170.4 168.1 165.7 164.7 164.6 164.9 164.7 163.8 167.6 169.6 169.8 172.9 181.5 187.3 192.2 196.9 198.4 199.5 198.4 195.3 191.2 187 182.6 176.1 172.5 179.9 188.5 202.9 214.8 223.2 228 232.5 235.8 238.9 240 242 240.2 238.1 234.4 231.8 227.6 223.4 218.5
541.4 512.6 490.1 477.8 471.9 467 456.2 455.6 475.5 491.1 511.5 528.5 542.3 550.2 547.8 543.3 536.9 528.6 518.1 508.4 496.7 484.8 473.2 460.3 439.4 418.6 396.2 378.5 360.5 342.1 330.1 320.1 313 308.5 303.3 299 297.5 299.4 301.3 304.6 308.4 309.9 317.2 323 322.7 314.8 324.2 328.7 332.7 335.5 334.1 332.4 336.1 339.2 343.9 348 346.4 340.8 341.3 339.8 338.3 338.2 338.3 338.4 338.2 336.7 335.2 333.6 331.3 328.9 328.2 329.8 330.6 331.9 332.5 334.2 336.1 339.9 341 341.1 340.5 339.2 341.1 344.9 346 348.1 349.6 349.5 348.5 346.4 343.5 339.4 335 329.2 322.6 315 307.1 300.4 293.1 287.3 282 275.6 263.4 256.7 246.9 241.2 235.4 231.6 230.3 229.7 228.4 225 221.5 218.2 216.7 214.5 212.8 211.7 210.7 210.6 210.5 209.7 209.1 209.2 209 208.9 209.5 212 215.9 216.2 217.8 217.4 215.4 212.7 211.6 209.3 206.7 206.1 204 201.7 191.4 195.3 194.2 195.3 191.1 192.3 194.4 197.2 195.6 189.2 183.4 177.6 175.8 174.4 174.6 174.3 173.2 171.6 167.4 167.6 169.5 170.6 170.4 170.8 171.6 173.6 178.3 181.8 189.9 196 201.4 204.9 214.1 214.4 211.4 205.6 197.9 189.9 186.3 180.5 177.4 180.2 184.3 192 203.9 217.3 228.4 234.4 239.1 243.1 246.9 248.6 249.9 248.8 245.2 241.2 237.4 234 229.5 223.7
553.2 527.2 510.1 498.7 488.7 483.5 463.2 483.4 500.6 519 532.9 547 556.6 557.6 552.4 545.4 539 529.7 518.7 506.9 493.8 480.5 463.7 440.9 420.5 397.6 376.7 358.2 342.8 328.2 317.5 310.3 305.6 301.7 301.5 301 302.5 304.9 308.7 313.2 318.1 323.1 325 329.9 330.4 329.8 329.5 337.3 342.6 344.5 343.5 344.2 346.1 348.7 351.5 351.7 349 347 347.2 346.9 346 344.4 342.4 339.5 337.5 334.8 332.6 331.6 329.5 327.2 322.3 320.1 321.8 321.9 323.1 324.4 326.5 329.8 331 331.3 331.5 330.7 330.5 334.6 341.6 345.3 349.4 350.7 351 350 347.8 343.4 339.3 334.7 328.7 321.3 313.6 307.2 300.5 295.2 289.5 281.7 273.7 266.9 258.5 254 249.4 244.5 241.8 240.5 238.8 234.3 231.5 228.9 226.8 223.8 222.7 221.2 220.7 220.1 220.2 219.2 219 219.8 220.2 223.1 227.1 227.7 228.6 228.9 227.8 225.3 219.6 217.6 213.5 211 209.6 208.3 205.1 194.1 200.7 199.2 197.9 198.2 196.7 196.8 196.9 196.6 195.2 193.9 191.7 186.9 180.9 176.7 177.5 176.4 175.1 174.2 172.8 173.9 174.6 176.8 177.9 181.3 186 191.6 192.9 199.6 207.7 213.5 221.1 223.4 226.3 223.8 217.1 209.6 201 190.4 186.5 183 183 185.5 189.3 202 213.2 223.5 231.7 238.6 244 248.6 253 255.4 256.2 255.2 251.5 246.8 242.2 237.2 232.5 227.8
575.7 554.5 538.3 527.8 510.5 489.4 489.5 508.7 524.8 537.6 553.1 563.8 566.2 561.4 554 547.4 539 528.7 516.6 502.7 489.3 462.1 439.8 417.4 392.4 374.7 355.7 341.3 327.4 315.8 309 305.1 303.4 303.7 304.7 303.9 306.4 312.4 318.7 323.5 330.9 334.2 334.3 336.5 336.5 338.4 340.9 342 346.2 349.3 351.4 352.8 353.4 356.2 356.1 355.5 354.2 352.5 352.8 354 353 351 347.7 344.1 340.2 337 334.4 331.7 327.6 320.7 317.6 316.4 311.8 312.7 313.5 315 316.3 318.8 319.8 321.2 322.6 321.7 321.9 326.1 333.1 340.5 344.6 346.8 348 349.7 349.2 344.9 341 338.1 333.6 327.1 320.1 314.3 308.3 302.2 296.2 290.7 283.9 277.4 272.5 267.6 262.8 259.2 255.1 253.2 250.9 246 243.1 240.3 238.1 236.5 234.8 233.4 232.7 233 234 234.9 236.8 237.4 239 240.8 241.1 238.1 236.4 234.8 232.8 229.2 225.8 220.7 216.8 213.6 212 210 204.8 203.5 204.7 203.4 203.4 203.2 201.8 201.3 201 200.9 199.2 196.4 193.3 192 190.3 181.3 179.9 179.6 178.7 179.1 181.4 182.9 185.6 188.4 190.7 193.3 200 203.9 209.6 216 222.7 233.6 239 240 237.3 230.1 220.2 212.5 201.5 192.2 187.7 183.4 188.1 191.3 194.5 207.7 222 232.2 240.1 244.3 247.5 251.9 256.7 259.6 259.9 256.8 254.1 250.5 244.8 239 232.9 228
586.5 576 555.3 538.6 521.7 512.5 522 534.9 547.2 561.8 570 573.4 570.3 563.6 555.3 548 538.4 524.5 511.4 493 464.2 439 418.7 391.1 372.3 358 340.9 326.7 315.4 309.8 307.7 307.3 307.7 308.5 309.5 307.6 313.4 322.4 328.2 335.8 341 342.1 346.8 345.3 344.3 346.6 349 348.4 353.5 357.2 360.1 361 361.9 363.9 362.5 362.3 362 360.5 359.8 360.6 359.8 357.1 352.5 349 346.1 344.3 341.5 339.1 335.4 333.6 330.3 326.5 323.4 319.8 313.1 303.5 303.3 305.9 304.8 307.5 310.6 310.7 312.3 316.6 322.3 331 337.8 340.8 343.3 344.7 347 342.9 340.4 338.7 336 331.8 325.2 320.1 314.9 309.3 303.5 299.9 295.1 289.1 285.3 282 276.9 272.1 268.8 266.5 264 259 255.8 253 251.1 248.9 248 246.8 247.2 247.6 250.1 252.2 255.3 255.7 253.6 251.5 247.8 244.2 241.5 239.4 237.4 233.8 229.8 224.5 219.5 216.3 213.7 211.1 200.5 208.7 211.3 212.6 211.6 208.2 206.8 205.8 205.4 205.5 203.5 198.8 195 194.1 191.2 186.6 181.2 189.2 189.4 190.6 192.3 194.3 196.4 202.9 203.6 207.8 212.2 220 224.6 234.5 241.9 248.6 250.2 248.8 239.1 224.6 210.5 199.4 194.6 189.9 187.3 190 194.2 197.8 200.3 209.4 229.6 242.3 248.9 251.9 251.6 252.9 256.8 259.1 258.8 256.3 253.2 249.7 244.6 238.5 232.1 227
594.5 585.8 572.7 553.7 547.7 547.1 550.6 562.3 572.6 580.1 580.4 578.4 573.5 564.5 555.3 547.1 533.1 516.7 500.2 469 440.4 418.9 395.5 373.3 357.8 340.6 326 316 311.9 309.6 309.4 312.1 313.8 316.4 317.9 311.9 322.6 331 338.1 345.3 351.5 354.1 351.6 351.1 353.9 357.2 357.3 359.4 362.3 365.6 367.8 370.4 370.7 371.1 370.7 369.5 369.3 367.3 367.1 365.7 364.7 361.6 358.4 355.1 352.1 350 349.8 346.2 344.1 342.8 341.4 338.1 335.5 332.2 327.9 322.7 315.5 307.7 296.8 290.3 295.2 298 300.3 304.4 310.2 318.2 328.4 334.3 338.1 339.7 339.6 339.5 337.8 336.3 335.3 333.4 329.4 324.1 319.2 316 313.1 310.3 304.8 300.5 297.1 292.7 288.1 284.5 281 277.5 274 270.9 268.6 265.5 263.8 262.3 261.8 260.4 261.2 262.1 264.4 267.3 268.4 266.2 263.2 257.6 252.7 248.9 245.7 243.4 240.8 236.6 231.6 226.6 222.1 218.8 215.9 213.2 208.6 215.2 223.4 221 215.7 212.7 212.4 211.1 210.5 210.1 206.3 200.4 197.8 196.2 193.3 192.9 189.8 194.8 196.5 198 201.1 205.5 212.5 216 214.6 219.8 227.6 232.2 243.2 254.1 257.5 254.7 250.3 239.7 225.8 210.2 200 194.8 192.8 193.7 194.6 197 200.4 204.8 208.4 215.1 230.9 249.5 256.5 259.7 258.4 256.8 259.3 258 255.1 251.1 249.1 245.9 241.7 236.8 230.9 224.9
602.4 595.8 589.2 583.3 577.2 579.1 581.6 585.8 589.7 589.3 586.6 581.6 573.9 564.1 554.9 542.2 522.6 504.5 471.2 442.8 417.3 398 374.8 359.9 342.3 326.3 317.1 313.5 311.2 316.1 317.8 320.6 323.3 325.9 325.4 315.1 328.9 339.7 348.9 356.5 362 363.1 359.2 360.9 363.6 365.5 368.8 369.2 372 374.8 375.9 378.2 378.8 378.4 378.6 377.8 376.6 375.3 373.2 371.3 370.6 367.9 366.4 364.2 361 357.7 355.5 354.1 354.3 352.9 351.5 348.1 345.2 341.1 337.1 333.4 329.8 325.2 319.7 312.7 303.8 295.3 285.9 289.4 293.6 302.9 315.5 326.5 331.3 332.8 333.3 333.5 333.2 332 332.3 332.1 329.8 326.7 324.1 321.8 320.3 317.3 313.1 309.1 306 302.7 299 294.1 290 286.4 283.8 282.3 280.4 278.8 276.4 274.1 274 272.8 273.6 273.6 275.2 277.4 277.7 274.3 269.1 262.8 257.6 252.7 248.6 245.2 242 238.5 234.6 230.4 225.8 222.1 218.6 214.3 216 222.6 232.4 228.2 222.4 219 218.7 217.2 214.9 212.7 207.1 203.8 201.2 199.1 198 196.2 191.2 199.9 203.7 207.3 212.1 218.8 222.6 224.2 228.1 234.4 244.4 252.5 263.1 274.2 269.2 253.7 239.4 223.9 210.1 203.8 201.6 201 200.9 202.1 203.5 206.7 209.5 213.6 216.8 223.5 235.2 250.3 261.2 266.9 266.4 263.8 262.8 259.6 254.9 249.7 244 239.7 235.2 231.6 227.2 221.7
609.6 606.3 601.3 599.9 597.7 597.4 599.1 601 599.4 596 590.1 581.8 572.4 563 549.6 529.9 508.9 476.1 444.5 419.8 400.6 381.1 362.3 345.2 327.5 319.4 317.1 317.2 320.2 323.4 327.8 332.1 333.4 334.2 330.7 328.1 343 339 358.2 366.4 368.3 368.7 369.7 367.5 372.6 375.2 379.1 381.1 382.2 384.3 386.3 387.1 388.2 387.3 387.3 386.6 386.2 384.8 381.1 378.9 378 375.4 374 371.7 368.7 365.7 364.3 362.6 361.9 360.7 359.8 358.4 355 351.3 346.8 343.6 341.6 336.7 333.8 326 318 308.2 299.3 288.6 281.7 289.7 303.2 315.2 321.8 323.4 324.1 325.3 326.1 325.9 326.9 327.3 326.9 326.4 326.3 325.8 323.9 321.1 318.4 315.3 312.4 309.4 305.1 301 297.8 294.5 292.5 291.9 290.7 288.6 286.6 284.5 283 282.4 282.5 282.7 284 284.9 283.4 279 272.9 266.6 261.3 255.9 251.2 248.2 245 241.2 237.4 233.4 229.2 224.5 219.8 215.2 221.9 229.9 232.1 229.3 225.5 224.4 223.4 221.5 218.8 215.3 211.6 208.9 206.9 204.5 202.8 200.6 194.3 206.1 214.2 219.4 223.7 228.5 232.1 236 243.4 252.9 261.7 272.4 277.6 278.4 266.3 246.4 228.2 215.3 209.4 209.1 210.5 210.8 213.9 217.2 219.8 222.6 222.6 224.2 227.7 226.6 230.2 246.3 264.1 271.4 272.4 267.9 265.2 262.5 259.4 252.7 245.9 239.9 231.7 225.4 221.5 218
615.9 614.3 612 610 609.8 609.8 608.7 608.2 605.4 598.7 591.3 581.6 571.2 559 540 510.8 481.8 452.5 424.7 406.1 387.9 365.5 345.6 331.1 322.9 318.4 321.2 324.6 330 335.3 340.6 342.4 342.6 340.5 327.8 341.4 355 358.5 356.9 368.2 373.2 374.5 376.5 377.9 379.9 385.1 388.3 391.1 393 395.6 396.3 397 396.3 395.8 395.7 396.2 395.7 394.8 392.7 389.3 388.1 383.5 380.6 378.5 375.6 372.9 370.9 369.6 368.4 367.2 366.4 364.7 361.8 358.6 354.3 351.9 349.2 344.1 339.6 331.9 325 316.2 309 301.1 293.2 279.5 289 298.5 305.9 310.4 314.4 315.8 316.5 317.8 320.1 321.1 321.9 322 323.4 325.1 324.7 322.9 321.2 318.3 316.3 313.7 310.2 306.4 303.7 301.5 300.3 299.1 298.7 297.5 295.4 293.2 291.9 290.7 289.8 290 291.1 291 287.7 281.8 275.8 269.6 264.7 259.9 254.2 250.7 247.6 243.9 238.7 233.4 227.8 223 217.3 224.5 231.5 235 235.1 234.5 233.6 232.3 229.9 227.6 225.6 223 220.1 219.2 216.2 212.3 208.4 205.1 202.1 212.2 225.4 230.7 235.8 239.2 242.3 251.5 263.9 271.9 279.6 286 287.9 281.7 268.3 244.2 226.7 221.3 222.5 223.9 226.8 230.9 234 236.1 238.1 239.1 238.5 237.9 239.1 238.5 234.8 248.4 267.5 277.5 277.3 272.7 269.3 265.4 263.4 257.4 249.7 242.9 235.5 228.4 221.3 215.4
622.1 620.6 619.3 617 617.4 615.7 613.3 611.4 606 599.9 591 579.7 568 548.6 522.3 490.1 461.3 434.2 411.9 394 370.8 350.5 334.7 326.9 321.1 326.5 329.7 337.4 343.8 348.8 352.9 351.2 350.8 339.8 341.1 349.7 361.3 369.8 372 374.7 379.7 381.8 384.2 386.9 388.5 393.8 396.7 400.2 402.2 404.5 406.7 407.2 407.2 406.5 405.4 404.5 404.1 403.1 402.4 400 397.4 394 389.7 386.6 382.3 380.1 377.4 375.6 373.8 372.3 371.6 369.1 366.3 363.7 360.2 356.3 352.5 348.3 343.9 335.5 328 318 312.2 304.7 296.9 288.9 277.7 280.5 288.7 297.1 303.6 306.7 308.7 310.1 313.3 314.1 314.7 316.5 318.2 319.4 320.3 320.4 319.8 318.9 318.3 315.5 312.9 310.8 309.3 307.9 307.1 306.5 306.5 305.7 302.8 300.2 298.7 297.4 296.8 296.9 296.5 295.1 291.6 284.6 278.4 272.1 266.9 261.4 256.3 252.9 248.6 243.5 237.1 230.9 223.6 224.8 227.6 232 238.5 240.8 240.3 242 242 239.8 238.8 238.7 238.3 236 234.8 233.1 228.5 223.6 216.8 210.8 207 218.7 231.9 239.5 244.7 251.6 264.1 274.5 279.7 285.3 295.7 298.9 292.2 282 269.1 246.2 244.1 248.5 250.6 248.6 247.3 250.4 251.5 253.5 255.3 255.7 253.4 252 249.6 251.9 251 255.8 271.7 285 284.2 281.2 275.9 271.8 266.8 260.6 253 244.6 236.5 229.1 222.4 219.7
627.2 625.7 623.5 623.2 622.2 618.8 615.1 611.9 606.4 599.7 588.7 576.3 558 527.9 498.1 469.9 444.9 418.8 401.5 377.8 358.3 341.3 330.5 326.6 331 337.8 343.7 352.9 358.2 362.5 363.5 361.1 357.5 344.1 361.3 369.5 369.6 376.3 383.3 387.8 390.8 393 394.8 395.9 398 402 406.5 409.3 411.4 414.7 416 417.3 417.2 417 416 414.8 413 411.7 410 407.8 405.5 402.4 397.9 395.1 390.2 386 383.3 380.4 378.1 376.8 375.1 372.6 370.1 368.5 363 358.1 354.4 350.4 344.1 336.5 329.6 323.6 317.8 311.3 304.9 295.1 284.6 275.2 275.2 284.4 292.1 298.8 301.8 303.3 306.4 307.2 307.3 310.1 310.5 312.8 314.2 314.2 313.9 314.5 315.1 313.8 311.6 310.8 311.9 312.8 313.4 313.9 313.6 312.7 309.1 306.5 303.8 302.7 302.4 302.6 301.7 299.2 293.6 287.1 280.7 274.2 268.5 262.8 257.6 252.8 248.2 241.9 234.7 226.9 230.8 233.7 235.1 241 246.2 248.8 251 252.1 251.3 252.2 252.6 251.5 250.8 251.3 250.3 246.7 240.8 232.7 224 216.9 211.4 223.2 237.9 247.3 257 268.7 280.5 288.7 295.5 300.4 301.4 298.8 292.7 286.5 276.8 260.3 268.1 272.8 276.5 272.7 267.9 263.3 266.3 265.9 268.4 268.8 267.3 263.2 261.7 260.9 263.7 266.4 277.1 290.7 292.8 291.9 288 283 272.7 264.9 256.4 247.8 240.1 233.9 230.1 225.5
631 629.4 627.3 626.4 623.9 620.3 617.8 613.1 605.9 597.6 585 564.8 536.3 502.6 475.9 451.3 429.3 410.4 387.2 366.3 351.3 336.7 331.7 339.1 346.3 352.9 362 371.6 376.4 378.6 377.4 370.8 353.7 353 372.7 380.3 386.2 389.7 394.1 399 403 406.3 406.6 407.6 410.4 412.7 416.3 418.6 421.7 423.2 425.1 427.6 428.3 427.8 427 424.9 422.4 419.7 417.7 415.6 413.1 410.3 406.3 401.5 397.4 392.9 389 385.3 382.4 380.9 378.7 375.6 372.7 370.4 364.3 358.8 354.3 349.8 341.7 335.4 329.5 325.8 319 312.5 307.4 301.3 292.8 274.2 271 271.6 279.1 289.7 293.2 296.4 298.9 299.5 299.4 301.4 302 303.4 304.8 306.7 308 306.8 307.3 307.8 306.6 307.5 311 313.8 317.1 318.4 319.7 319.2 315.7 312.3 309.1 307.4 306.6 306.4 305.3 300.8 295.7 289.1 282.2 274.3 267.6 262.4 257.2 252.3 245.4 237.3 234.9 237.5 240.6 243.1 246.7 250.7 256.4 259.2 262.2 263.8 262.8 265.6 265.3 264 262.3 261.4 259.6 254.4 246.6 237.3 228.7 221.8 216.6 226.5 243.4 256.7 272.2 283 291.8 300.6 309 311.2 308.7 303.6 299.8 297.3 287.7 280.1 285.5 289.3 291.4 287.8 282.4 276.2 275.3 276.1 274.8 276.3 276.8 274.7 273.6 270.6 270.9 278.1 283.6 295.2 298.3 298.3 295.1 291.8 285.8 276 266.7 254.5 246.1 241.8 235.6 230.9
633.6 632.6 631.3 629.2 626 621.8 616.5 611.6 604.5 594 576.5 547.7 514.5 485 460.4 438.2 416 397.6 377 360.3 338.4 340.5 347.7 354.8 363.4 372.9 382.3 389.2 393.6 395 391.6 366.7 364.2 370.7 382.7 391.8 397.3 401.7 406.4 409.7 412.3 416.4 417 418.7 420.5 422.9 424.8 427.3 430 432.8 434.4 436.2 437 437.8 436.1 433.9 431.1 427.8 425.5 423.1 419.6 416.9 413.5 409.5 402.7 397.9 394.8 390.4 385.6 382.7 379.5 376.7 374.2 370.8 363.8 357.8 350.4 344.7 337.1 331.5 326 321.7 316.9 311.1 306.9 301.3 295 288.6 272.7 268 268.8 273.6 281.1 285.2 288.3 288.4 289.1 290.9 290.5 291.5 292.2 294.9 296.9 297.5 297.8 299.7 300.1 302.8 306 311.2 317.2 321.2 323.7 324.1 320.8 317 313 310.9 308.2 307.5 306.2 301.9 295.9 288.9 280.7 273.4 266.5 260.3 255.2 248.2 238 242.4 245 249.1 252.1 254.5 258 261.6 267.6 269 274.3 275.3 276.2 277 275.8 274.7 271 269 264.4 257.4 249.3 241.6 234.4 227.5 222.3 229.3 246.6 264.3 278.9 291.7 301.9 310.7 317.5 316.7 313 308.6 304.3 299.8 295.4 296.5 299.9 301.2 299 295 290.9 287.3 287.2 285.4 285.9 284.2 283.8 283.8 281.8 280.9 283.2 284.9 292.6 299.1 302.5 304 301.8 299.4 294.9 287.6 277.9 268.5 258 249.6 243 239.8
636.6 635.4 633.8 631.7 628.4 622.9 615.7 610.8 601.8 590.4 562.6 528.2 497.3 471.8 448.4 426.6 407.7 387.9 370.9 343.1 352.8 358.9 366 374.8 385.2 394.5 403.6 410.4 411.3 411.8 405.9 376.9 377.5 386.4 396 406.6 412.3 416.5 420.1 422.8 425.6 427.2 428.6 430.8 431.4 432.6 434 436.1 438.1 440.9 443.3 445.3 445.9 445.9 444.6 441.9 438.8 435.6 432.6 428.9 426.2 422.9 419.2 415.4 410.3 404.7 399.8 394.8 389.9 384.5 380 376.9 373.6 367.8 361.6 355.5 346 338.7 331.7 325.9 320.3 315.9 311.1 306.9 302.6 298.4 294 288.8 283.5 277.1 270 264.1 265.5 272.6 277 277.2 280.5 280.6 279.8 280.3 280.7 282.4 283.7 284.7 286.5 288.1 288.7 293.8 298.8 304.2 311.3 316.6 323.6 325.9 321.8 317.6 314.8 312.4 308.9 306.5 303.1 299 293.9 287.2 278.7 271 264.5 258.2 251.3 248.2 247.2 252.4 257 260.8 264 266 268.2 271.7 277.5 283.3 286.2 286.5 285.7 286.3 282.9 279.9 277.4 276.2 271.2 262.9 254.2 246.1 238.9 234.2 226.8 235 250 269.4 282.1 293 305.5 314.9 319.1 318.2 316 312.5 308.6 305.1 303.5 303.8 302.9 302.6 301.2 299.6 298.4 298.4 298.5 296.6 295.1 294.8 291.7 290 289.2 291.7 294.8 298.3 300.2 304.1 307 308.2 307.8 305.4 301 295.2 285 276 265.7 255.9 250.1 246
638.8 637.7 635.6 633.2 628.6 622.7 616.2 609.1 597.9 576.5 545.5 512.6 485.9 459.7 438.1 419.4 400.9 381.3 361.5 364.7 372.2 379 387.2 397.6 408.3 415.9 425.1 430.7 431.7 429.6 416.7 392.9 391.8 402.9 412.9 419.7 425.7 430.6 432.9 435.1 438.1 439.5 440.9 441.9 442.5 442.6 443.7 444.9 447 449.3 451.5 452.8 454.2 453.7 451.8 448.8 445.2 442.1 438.7 435.3 431.5 428.1 425.1 420.1 414.8 407.4 402.7 398.4 392.1 387.1 380.4 375.1 369.5 362.4 354.6 347 338.8 331.3 324.6 319.3 312.7 306.9 305.6 302.6 298.7 295.9 292.4 288.6 284.2 279.2 274.2 269.1 264.1 261.8 263.8 265.6 269.2 269.8 268 268.7 269.6 270.4 272.1 273.3 273.9 279.1 279.3 283.7 289.9 294.9 300.7 306.7 311.3 317.3 317.4 314.3 312 309.6 307.1 304 299.4 294.3 288.5 282.1 275.5 268.8 262.6 256 256.9 256.8 253.7 261.8 267.3 270.9 272.9 274.4 277.3 280.9 290.1 295.5 297.5 298.6 297.1 296 291.3 286.4 283.4 283.2 279.9 269.8 261 252.3 245.1 238.7 229.5 238.2 252.5 269.2 282.1 294 305 315.9 321.6 319.6 317.4 314.4 310.4 307.9 306.5 305.6 302.7 299.7 299.2 300.2 301.9 300 298.7 298.2 296.6 295.1 294.9 295.1 295.3 297.7 299.7 302.5 307.7 311.9 314 313.8 312.7 309.1 305.1 299.9 290.4 280.3 268.4 256.7 249.8 247.2
640.4 639 637.4 633.9 629.3 623.6 616.4 607.8 593.1 567.4 535.3 505.8 480.5 451.8 432.6 411 387.4 374.6 380.4 388 395.4 403.3 412.4 423.1 436.1 443.4 448.3 450.7 451 447.1 431.8 417.4 408.6 423 431.9 436.6 439.8 443.3 445.4 447.1 449.6 451.3 451.8 452.8 453 452.3 452.6 453.7 455.4 457.4 459.5 459.9 460.7 460.2 458.9 455.2 451.1 447.2 443.1 439.8 436.3 432.4 429.4 424.4 418.3 412.1 406 400.2 394.4 387.5 380.8 369.3 361 353.8 345.6 336 326.6 318.6 314.3 313.1 308.4 302.1 298.7 297.6 294.6 291.4 289.6 285.3 282.5 277.5 271.5 268.2 265.8 263.4 259.8 257.7 257.6 256.6 256.9 257 257.9 257.9 259.6 260.2 262.5 263.6 266.5 273.9 278.9 285 291.6 296.4 300.4 304.5 308.1 307.7 305.9 303.8 301.9 299.7 296.8 292.4 286.9 280 273.7 267.6 266.9 264.8 264.8 264.1 263.3 268.9 276 279.1 280.5 282.7 286.2 293.9 305 307.3 306.8 306.9 303.9 300.9 296.1 292.1 287.3 283.3 279.6 272.4 264.2 257.3 252.2 244.1 232.8 246.8 254.1 267.1 277.7 291.7 306.3 315.3 320.6 318.5 314.9 312.2 309.3 306.9 305.6 303.5 299.2 295.9 294.8 295.2 297.1 295.8 294.8 293.1 292.2 291.1 291.3 295.5 295.1 299.8 302.1 304.3 310.8 315.7 314.5 313.9 311.4 308.5 305.6 298.6 292 279.2 266.2 251.8 238.1 235.5
640.8 639.9 637.4 633.8 629.2 623.9 616.5 607.4 592.4 566 531.1 503.2 477 452.2 434.5 414.5 407 407.5 409.4 414.6 424.4 430.8 443 453.5 462 467.8 473.3 477.4 475.9 469.9 457.1 434.3 435.3 447 452.6 456.3 456.6 458.3 459.1 461.1 462.7 463.5 463.9 462.2 462.3 461.5 461.2 461.9 462.7 465 466 466.6 466.5 465.5 463.5 460 455.6 452 446.9 443.9 440 435.9 432.5 427.2 421.1 414.2 408 401.9 394.4 387.6 377.4 366.1 356.8 346.7 337.6 329.7 325 319.9 317 311.8 309.4 307.2 304.4 300.7 297.7 293.5 290.2 288.1 287 285.2 283.4 280.6 278 275 270.9 266.4 261.5 258.4 256.4 254.2 252.8 250.7 249.6 249.9 250.1 252.9 260.4 265.2 269.3 274.6 281.3 286.4 290.5 293.7 297.8 300 299.9 298.2 296.8 295.4 294.3 290.6 287.2 281.8 276.2 275 273.3 274.1 276 276.8 275.7 270.9 282.2 285.7 287.8 290.3 296.3 307.3 316.5 317.7 314.8 310 306.4 303.2 300.4 297.2 291 284.5 277.5 268.7 262.2 255.6 248.4 240.3 242.2 258.2 258.9 270 279.5 294 306.2 312.7 314.5 312.7 309 306.8 304.9 303.5 301.3 298.4 293.8 290.1 289.3 289.7 290.9 290.2 289 287.4 285.9 285.5 285.8 288 290 295.1 299.7 302.3 305.9 308.4 307.3 304.7 302.9 300.4 295.9 290.3 281.7 267.3 256.8 242.5 225.9 221.9
640.3 637.8 636 632.8 628.3 623.8 616.2 607.9 594.3 568.7 536.5 510.7 485.1 466.9 445.6 436.1 436.3 439.7 438.8 446.5 455.5 464.1 472.5 483.6 492.4 499.3 503.1 503.9 501.2 492.7 469.5 455.5 462.9 472.3 474.5 474.9 476.8 477.8 477.7 477.5 477.8 475.5 476.2 473.7 471.8 469.8 468.7 468.7 469.5 472.2 472.3 472.6 471.7 469 466.4 462.8 459 454.3 450.3 446.6 442.9 439.1 435 429.7 423.8 416.6 409.3 402.9 395.2 385.7 380.4 374 367 359.9 352.3 346.4 340.8 335.4 330.4 325 320.9 315.7 311.8 307.7 303.5 299.3 296.2 293.8 291.9 290.2 288 286.4 284.2 281.4 276.9 274.7 273 269.5 267.3 264.3 261.3 259.3 255.6 251.3 248.4 246.5 245.7 250 255.2 265.2 270.8 276.1 279.9 283 287.1 292.7 295.4 293.4 292 291.9 291.8 290.9 286.6 282.9 282.2 284.2 283.5 283.9 285.6 285.3 285.1 282.3 288.4 293.1 296 300.2 307.1 318.5 326.3 325.2 322.1 315.3 310.8 306.3 300.8 295 288.6 281.1 272.9 265.1 257.9 255.3 252.1 255.2 258.5 260.3 270.3 279.3 286.4 296.1 305.3 308.6 308.2 305.6 302.8 300.1 298.1 295.9 293.1 289.1 285.7 282.9 283.3 283.9 285.2 284.4 283.1 281.6 278.8 280 280.9 281.4 281.6 287.4 292.8 296.1 299 299.6 298.5 296.1 291.8 288.9 283.9 275.4 262.5 252.1 241.2 228.9 218.7 213.2
638.3 638.1 635.3 632.5 629 623.8 616.2 608.1 596.6 578.9 554.3 527.4 513.1 497.1 480.2 466.7 468.7 470.2 475.7 482.1 489.2 499.1 509 517.3 524 528.9 531.5 527.4 522.5 506.1 477.8 486.2 487.3 497.5 500.5 500.9 500.3 499.6 497.7 495.4 492.4 490.1 487.5 484.4 482.6 480.1 477.7 476.8 477.7 478 478.3 477.7 475 471.5 467.6 464.6 461.1 457 452.9 449 444.9 441.1 436.7 430.3 424.2 417.5 410.5 402.9 396.3 390.3 384.5 378 371.6 365.1 359.7 353.9 347.6 341.5 335.8 329.8 324.7 320 314.6 310.1 305.4 301 298.1 295.5 293.3 291.9 290.3 289.2 286.6 284.2 280.3 278.5 276.3 274.3 272.3 270.5 268.5 266.9 264.5 261.3 257.7 253.1 247.5 244.9 245.2 248.7 258.5 264.9 269.4 274.1 278.3 282.6 286.3 288.7 287.6 288.6 288.6 288.3 287.3 284.1 285 287.7 288.3 290.6 293.2 294.4 294.5 293.9 291 299.4 305.4 310 318.2 327.5 328.7 325.3 320.9 312 305.9 301.6 295.8 286.1 278.2 268.6 262.4 258.7 252.9 248.5 258.8 270.2 271.9 269.5 272.6 280.5 288.3 297.3 304.4 303.4 300.7 297.4 294.1 292 290 287.4 283.2 277.9 276.2 275.9 275.3 275 276.2 275.5 275.5 274.6 274.7 275.2 274.7 275.7 276.9 279.8 284.7 287.2 288.5 289 288.5 286.3 280 273.1 266.9 255.3 246 235.5 226.5 218.2 212.9 208.7
638.2 638 636.4 633.6 629.8 623.4 617.1 609.6 597.6 584.5 568.6 551.9 535.6 522.3 498.4 500.2 501.5 505.5 511 519.2 525.5 530.5 537 543.5 548.1 549.1 547.3 542.5 535.1 516.2 509.1 514.2 516.2 521.3 523.6 525 523.3 521.3 517.8 510.7 506.8 501.3 497.2 494 491.4 487.3 487.1 485.4 485.7 485.2 482.7 480.9 478.2 474.8 470.4 466.3 463.1 459 454.8 450.6 446.5 442.4 436.8 429.6 422.8 416.6 410.5 403.9 398.1 392.8 387.5 380.6 373.6 367.9 360 354.4 348.4 342.8 336.7 330.6 325.2 320.1 314.7 310.7 306.4 301.9 298.9 296.1 294.2 292.2 289.9 288.5 286.7 284 281.1 278.8 276.8 275.8 274 272.3 270.5 268.8 267.5 265.3 263.3 260.4 256.3 250 246.4 243.3 242.6 250.1 259.4 264 268.1 272.7 276.9 280.9 281.3 282.8 283.9 284.6 284.3 285.1 288.1 290 292.2 295.6 299.1 301.4 302.7 302.2 301 304.2 312.2 318.9 329.4 334.8 327.6 322 315.2 306.1 293.9 284.2 277.3 270.4 263.8 259.1 255.6 252.7 251.4 256.8 269.8 278.5 279.3 279.4 280.1 283.8 290.2 297.6 300.5 298.9 293.9 288.3 281.7 277.8 277.1 275.3 272 267.2 266.7 266.4 265.7 266.1 266.4 267.8 269 270.6 270.2 268.3 266.4 266.3 267.3 271 275.5 277.7 278.1 278.2 279.2 279.7 272.1 263.4 250.2 241.4 227.7 220.8 216.9 213.4 208.9 204.8
637.5 637.8 635.9 633.2 627.8 622.1 617.3 609.2 598.2 586.8 571.4 555.4 542.9 528.1 510.8 521.2 524.4 531.1 535.7 542.5 546.8 549.5 554.8 557.8 560.5 560.5 557.8 554 549.5 544.7 540.1 540.1 539.1 542.1 542.5 541.4 538.3 533.9 529.3 523.5 517.1 512.3 506.9 500.7 495.8 490.7 489 487.9 487.8 487.5 486.1 484.3 481.4 477.5 472.5 467.8 463 459 454.9 450.5 446.2 442.2 435.9 429.3 422.4 414.6 408.8 402.9 397.4 392.2 386.1 380.1 373 366.2 360.2 353.3 347.5 341.4 335.1 329.2 323.7 318.8 314.1 308.9 305.3 300.8 297.1 294.5 292.6 290.3 288 285.6 284.3 282.2 279.9 277.7 276 274.4 273 271.4 270 268.6 267.4 266.3 265.3 263.7 261.4 258.5 254.4 248.3 242.3 240.2 240.6 249.4 257.4 263 267.2 271.1 273 276.7 278.9 280.9 281.4 283.5 288.3 291.8 295.6 299.4 304.8 308.8 310.2 310.6 309.6 306.8 316.1 324.9 333.4 334.1 326.7 320.3 304.4 292 285 275.6 269.8 267 262.7 262.2 260.1 262.1 265.7 272.1 279.8 284.3 284.9 283.5 283.9 285.4 290.6 294.8 294.9 291.8 289.1 284.1 273.6 267.4 263.6 261.5 258.5 258.2 258 258.9 258.9 260.7 259.6 265.5 271.7 273.2 273.6 270.3 265.9 256.1 252.2 257.4 266.2 271.6 272.3 270.2 268.1 265.5 260.6 250.8 239.9 223.6 215.5 214 212.3 211 208.1 205.5
636.7 635.7 633.3 628.8 624.9 621.7 616.2 607.4 596.6 584.1 569.3 557.3 546.5 536 536.9 538.5 542.8 548.4 552 555.6 558.9 562 564.1 566.4 568.8 569.6 568.5 565.1 562 558.7 556.9 555.9 556.1 557 557.3 554.7 549.1 544.2 537.6 531.5 525.2 518.4 511.9 506.4 500.8 496.2 493 491.2 490.5 490.6 489.1 486.4 484.3 478.7 473.7 468.2 463.3 458.7 455.1 450.7 444.9 439.9 434.3 427.6 420.5 413.5 406.8 401 394.8 389.2 383 377.1 370.6 363.5 357.2 350.4 344 337.7 330.5 325.6 320.7 316.4 312.1 307.2 301.9 298 294.6 292.2 289.6 287.1 284.9 282.3 281 279.1 277.1 275 273.2 271.7 270 268.8 267.8 266.3 265 264.6 264.2 264.1 263.2 261.7 259.1 255.8 250.3 243.4 237.1 237.9 242.6 252 256.5 261.2 265 270 273.8 276.6 278 282.3 288 292.2 297.2 302.5 309.2 313.3 315.5 316.9 317.8 315.5 321.1 327.1 331.2 332.3 328.2 321 306.4 306.9 297.8 290.5 284.4 280.4 275.6 269.8 273.5 276.7 284.3 287.5 289.5 289.1 286.1 283.3 286 287.5 289 290 290.5 288.2 284.2 278.5 271.5 264.7 262.6 259.3 256.8 255.8 255.7 255.1 254 254.7 261.5 267.6 276.9 279.6 280 275.7 269.8 262.4 251.3 241.5 253.5 264.1 265.8 263 258.5 252.4 244.7 235.6 226.1 214.6 207.8 204.6 203.7 204.8 206.6 205.3
634.6 632.6 630 627.2 624.3 619.3 611.5 602.4 591.4 578.4 565.7 558 549.4 548 548.9 549.6 554.1 559.1 564.5 567.3 569.2 571.5 573.1 575 576 577 576.7 575.8 573.1 570.6 569.4 569.4 569.9 570.2 569 564.9 557.6 551.6 544.4 538.1 530.4 523.7 517.3 511 504.8 499 494.2 490.6 491.7 491.2 487.9 486.4 484.3 479.1 472.7 467.6 462.6 457.9 453.2 448.2 442.5 437 431.1 423.7 416.5 409.8 403.2 396.9 391.2 385.1 378.9 372.2 366.2 359.8 352.8 346.3 339.7 333.2 327.1 322 317.2 311.8 309.2 302 298.7 294.5 290.6 288.1 285.6 283.1 280.8 278.9 276.7 275.2 273.4 271.4 269.4 267.6 266.1 265.3 264.6 263.2 262.4 262.1 262.1 261.8 262.4 261.5 260 258.4 255.8 252.1 245.7 235.8 235.4 238.1 244.8 251.6 257.7 263.1 267.8 271.4 274 281 288.3 292.8 297.6 304.3 311.3 316.7 320.5 322.6 323.3 324.4 325.5 328.3 329.2 329.5 326.3 318.7 323.3 320.8 308.5 305.1 299.1 295 288.9 288.5 291.2 295.2 300 298.2 293.7 291.2 289.5 289 290.4 285.8 281.6 285.2 286.1 282.5 277.9 273.3 266.5 262 261.5 260.1 258.4 257.9 257.3 254.7 254.8 260.3 268.7 276.8 283.3 286.4 284.4 278.1 270.9 263.4 254.8 237.7 238.8 251.9 253.9 252.5 247.6 238.9 227.5 217.8 210.4 202.9 199.5 197.3 196.7 196 198 198.4
631.8 629.8 627.9 624.9 619.9 613.7 604.4 594.8 582.9 572.8 565.9 560.5 557.1 557.3 559.8 563 565.8 570.8 573.2 575.3 577.6 579 580.8 581.3 582.3 583.3 583.8 582.5 582.2 581.1 579.2 578 577.6 577.1 576.4 572.3 563.7 556.4 549 541.6 534.4 527.3 520.4 513.6 507.1 500.8 494.8 489.3 486 486.2 483 481.5 484.5 478 470.8 465 460.4 455.5 449.9 444.2 439.5 431.4 424.6 417.4 410.5 403.8 397.6 391.4 385.3 379.2 372.4 365.1 359.6 352.9 346.3 339.6 332.8 327.5 322.1 316.5 311.9 307.4 302.7 298.1 294.2 290.4 286.7 283.8 281 279 276.6 274.1 272 270.1 268.6 266.9 265.2 263.9 262.5 261.7 261.1 260 259.7 259.3 258.9 259.6 259.8 260.2 259.1 258.5 257.6 255.2 252 244.6 234 233.6 233.9 240.4 248.4 256.9 262.9 264.8 271.3 278.4 285 292.8 298.5 305.4 313.7 320.6 325.7 328.8 330.8 330.7 330 330.6 330.5 331.5 330.1 330.7 330.2 327.4 325.8 320.1 312.1 308.2 304.7 305.7 311.3 312.7 311.6 308.5 299.9 294.3 290.8 291.6 292.5 289.3 282 278 274.6 275.1 271.7 266.2 261.2 257.2 252.2 248.7 251.2 251.2 257.9 254.5 251.8 264.2 275.5 285.8 291.8 292.3 287.9 281.4 272.7 261.9 251.2 238.4 221.4 231.6 236.1 235.9 231 222 211.6 206.1 199.9 195.2 192.9 190.6 188.9 188.4 189.1 189.8
631.7 629.6 625.9 618.5 611.4 602.8 592.5 581.8 574.5 569.7 567.4 564.9 564.4 566.8 569.3 572.3 575.8 578 579.6 581.5 583.2 584 585.9 586.8 587.9 589 589.8 590.2 589.8 589.4 588.1 586 583.8 582 581.2 576.4 567.6 559.2 551.6 543.5 535.8 528.5 521.6 514.8 508.3 501.3 493.6 486.3 479.8 476.7 473.3 472.1 470.8 470 464.6 459.8 455.6 450.2 444.5 437.2 430 422.4 414.9 408.1 401.5 395.2 389.4 383.3 376.9 371 364.2 357.1 350.6 344.6 338 332.1 325.5 320.9 314.9 310.1 306.3 302.2 297 292.9 289 285 280.9 278 275.4 273.3 270.6 268.1 265.9 264.2 263 261.8 260.6 259.4 258.6 257.6 257.6 257 257 255.7 256.4 256.8 257 257.4 257.9 257.9 257.4 256.7 255 251.2 243.9 234.3 232.3 231.3 237 246.6 254.2 260.9 266 274.4 282.1 290.5 298.3 306.3 315.4 325.1 332 334.1 335.4 334.2 334 333.8 334.8 335.5 335.2 334.6 334.6 335.2 335.1 332.4 328.3 324.4 319.5 321.3 325.3 325.2 322.9 316.1 306.9 303.5 303 297.5 294.5 290.3 286.4 274.9 264 261 260.3 255.7 251.6 248.5 246.4 245 243.5 242.3 247.2 252.2 249 258.2 275.1 283.2 285.9 285.6 283 277.2 269.2 259.5 248 232.3 220.8 213.4 211.6 209.7 207.4 203.1 200.8 197.1 193.2 190.3 188.3 187.1 185 184.1 183.1 181.7
631.8 627.3 622.6 611.4 598.1 585.3 575.5 571.6 570 569.2 569.6 569.8 571.5 573.2 576.6 579.5 581.8 583.5 584.7 586.5 588.2 589 590.6 592.5 593.9 595 596.5 597.4 597 596.2 595 591.4 588.6 585.7 582.1 575.8 568.1 559.7 552 543.2 535.6 528.2 521.2 515 508.5 499.8 491.2 481.9 473.7 466.6 462.1 459.5 456.8 454.7 453.5 449.4 443.8 438.6 432.6 425 416.7 409.9 402.7 396.2 390.6 385.1 379.2 373.1 365.8 359.9 353.4 346.9 340.5 334.8 328.2 323.4 318.2 313.6 308.9 303 299 295.7 291.2 287 282.9 279.3 274.5 271.4 268.7 266.4 264.1 262 260 258.3 257.3 256.5 256.1 255 254.5 253.8 253.3 252.8 253.5 253.7 253.6 254 254.7 255.3 255.8 256 256 255.7 254.8 253 249.4 244.2 235 230.9 229.7 233.5 246.8 254.3 261.5 268.6 276.9 287.2 296.3 306.2 317.7 328.3 335.3 337.1 339.6 338.9 338.2 338.1 338.7 339.5 339.4 340.5 341.3 341 342.9 342.3 339.5 336.7 334.8 336.7 337 335.6 331.3 325.7 320.9 316.1 314.4 308.2 301.8 298.1 295.2 287 277.4 269.6 256.8 252 250.8 249.7 249.1 252 251.6 247.5 247.3 238.4 248.9 251.2 258.5 265.6 267.9 266.5 261.8 255.3 246 239.3 231.2 224.6 218.7 210.8 204.5 201.2 199 196.4 194.6 192.7 191.1 189.5 187.9 186.5 184.6 183.4 182.1 180.8
630.2 625.9 619.6 609 586.1 564.6 564.4 565.4 568.1 571.6 574.5 575.8 578.1 579.9 582.4 584.6 586.4 588 589.5 591 592.5 593.9 595.5 596.9 598.9 600.8 602.9 603.4 602.6 601.2 599.2 595.6 593.2 587.3 580.4 572 564.1 557.6 549.1 541 533.2 526.2 519.5 514.1 505.7 496.5 487.1 476.9 466.8 447.3 447.1 442.6 439.6 434.7 432.1 428.3 423 417.1 411.2 404.7 398.1 392.7 386.9 381.6 376.5 371.2 365.3 358.4 353 347.6 341.4 335.8 330.3 324.7 320 316.1 310.5 305.6 300.8 295.3 289.9 286.4 282.9 278.8 275.5 272 268.7 265.2 262.3 260.3 258.5 256.5 255 254 253.4 252.6 251.6 250.8 250.8 250.5 250.1 249.7 250.2 250.7 251 251.7 252.4 252.8 253.5 254 254 254 253.9 253.3 251.6 248.7 244.8 234.9 229.5 228.7 231.9 247.5 253.6 262 270.2 281.7 293.8 305.5 318.2 331.1 338.1 339.2 341.4 342.1 341.5 341.3 341.1 342.3 343.4 343.3 344.4 346.5 349.8 350.6 349.4 347.5 346.8 346.6 345.9 342.8 337.4 333.4 329.1 324.5 320.1 311 310.7 299.6 292.9 287.3 281.9 273.1 263.3 257.1 257.7 256.9 258.4 259.6 259 260 260.3 249.5 235.2 246.7 249 241.7 240.3 236.4 233.4 230.4 225.6 220.3 216.9 212.8 207 202.8 202.1 201 199.7 199 196.9 194.2 192.3 190.2 188.5 186.7 185.4 184 182.3 180.8
628.6 623.3 613.8 601.9 572.9 550.2 553.7 562.9 568.8 573.8 578.6 580.8 582.6 585.2 587.4 589 590 590.9 592.6 594.3 595.6 597.1 598.5 601 602.9 605.4 607.3 607.5 605.2 602.5 598.6 597.3 595.1 585.7 575.9 567.1 559.5 551.6 543.8 535.9 528.6 522.4 517.2 509.8 500.6 491.6 481.6 471.1 458.2 429.3 401.5 412 413.4 410.6 406.1 401.3 395.4 390 384.7 381 376.4 371.6 366.1 361.7 356.7 351.3 346.9 341.8 337.9 333.3 329 324.3 320 314.8 310.6 306 301.5 296.8 291.9 286.7 283.3 279 275.4 272 268.7 265.7 262.9 260.4 257.6 255.4 253.6 252.2 251.3 250.5 249.8 249.9 248.4 247.6 247.2 247.2 246.9 246.8 247.3 248.2 248.7 248.8 249.9 250.5 251.4 252 252 252 252 251.7 251.1 249.8 247.1 243.4 235.5 227.8 226.1 231.4 243 253.3 263.7 273.5 288.2 301.8 316.1 328.9 336.9 340.1 341.3 342.7 343.2 343.5 343.8 343.7 344.2 345.4 347.7 350.6 354.7 357.6 357.4 355.2 354.3 353.7 351.2 347.6 342.8 338.8 334.9 330 326 318.7 312.4 304.5 297.9 292.4 285.1 278.3 269.6 272 269.5 267.5 266.8 266.1 266.2 266.3 264.3 259.4 242.5 230.9 232.9 230.8 233.6 225.2 227.9 226.8 216.6 216.7 214.1 213.5 214 215.1 218 218.6 216.7 208.7 203.7 199.2 195.9 192.3 191.8 190 188.7 187.8 186.4 184.6
627 620.9 612.1 587.7 559.4 537.5 543.1 560.6 570.7 577.1 582.7 585 587.2 589.4 591.1 591.8 592.6 593.7 595.1 596.3 597.9 599.9 601.9 604.1 606.4 609.3 608.9 607.5 604 597.9 595.1 590.8 584.7 577.3 568.2 560 551.9 544.6 536.9 529.2 522.9 517.1 511.9 503.3 494.2 484.9 475.1 464.8 452.7 420.2 380.8 374.3 381.7 382.4 377.8 374 369 364.1 359.2 354.7 350 345 340.3 336.5 333.5 331.3 330.6 327.5 324.6 321.4 317.9 314.2 310 304.9 299.8 294.6 290.2 285.8 281.9 278.6 276.1 269.9 269.1 266.6 263.7 260.7 257.9 255.5 253.5 251.7 250.4 248.9 247.9 249 245.9 245.9 245.1 244.6 244.4 244.2 244.1 244.1 244.5 245.5 246.1 246.9 247.6 248.3 249.2 249.9 250 249.6 249.5 249.4 248.7 248.1 246.6 243.9 239.6 231.8 226.3 225.8 234.3 244.6 254.9 264.1 277.9 293.9 310.1 325 334.3 338.9 340.8 342.3 343.3 344.2 344.6 344.7 345.9 348.3 351.4 354.8 360.6 364.3 364.1 360.9 359.6 357.7 353.9 349.8 346.3 341.9 338.5 334.9 331.6 327.8 322.8 316.7 308.3 299.2 295.4 291.6 285.3 281.2 277.8 274.4 274.3 273.9 272.7 270.3 265.6 256.8 247.6 240.6 238.3 233.1 230.1 227.6 226.9 225.2 226.8 230 231.5 235.7 239.3 240.7 242.6 241.9 232.7 226.9 216.8 206.4 201.5 196.8 195.6 193.8 193.3 192.3 191.1 189.9
625.5 620.4 611.4 588.8 558.3 529.9 528 553.2 570.5 579.3 585 588.4 590.3 591.8 592 592.7 594 594.5 596.8 597.8 600 602.3 604.2 604.9 607.9 608.2 607.2 603.8 597.8 591.3 584 578 572 565.9 557.2 549.9 542.8 535.7 528.9 522.8 517.2 511.2 503.7 495.4 486.5 478.1 468.4 458.6 447.4 422.6 385.2 347.2 355 352.6 348 344.6 340.4 335.7 332.2 328.7 322.2 319.8 316.3 313.6 314.1 315.5 314.5 312.1 309.8 308.4 305.5 301.7 296.6 292.5 287.5 283.8 280.7 276.8 273.1 271.5 268.9 265.2 263.5 260.9 258.8 255.9 253.8 251.8 249.9 249 248.1 246.8 245.3 244.9 243.9 243.2 243.2 242.7 241.5 241.4 241.4 241.4 242 242.2 243.1 244.7 245.7 246.6 247.2 247.9 247.8 247.8 247.7 247.3 246.8 246.2 244.6 242.3 239.2 235 227.4 224.4 226.5 236.1 245 255.4 266.5 280.7 297.4 315.2 327.5 334.3 338.7 340.5 342.6 343.6 344.5 346.1 348.2 352 356.2 360.4 368.2 369.7 368 364.5 361.9 358.5 355 351.8 347.6 345.1 341.4 338.6 335.3 331.6 326.6 322.3 316.1 313.4 310 305 297.9 293.4 287.3 282.7 287.7 284.8 283.3 279.1 275.3 264.2 258 258.7 256.5 251 251.8 250.3 249.9 249.8 250.9 252.9 255.9 259.8 262.6 262.6 260.9 256 248.5 240.5 231.4 223.3 216.1 205 204.4 200.9 198 197.2 196.1 195.5
623 617.3 607.4 585.5 555.3 524.8 516.9 535.3 562.8 579.5 585.4 587.7 589.4 590.5 591.3 591.9 592.9 595.2 598 599.9 602.2 603.4 602.9 603.3 604.6 603.1 598.2 593.3 587.1 580.3 572.7 566.5 559.5 553.4 545.4 538.9 533.6 527 521.7 516.3 510.7 502.4 494.8 486.8 478.7 471.4 463.1 453.3 439.7 421.4 385.9 349.3 335.3 329 321.3 315.2 310.9 306.1 304.2 302.6 299.4 297.5 295.4 294.8 295.2 295.6 295.2 294.4 293.1 292 290 287.1 283.9 281.1 277.9 274.3 271.1 268.2 265.7 264.7 261.9 259.1 256.7 255.2 253.8 251.9 250.1 248.3 247.5 246.6 245.8 244.7 243.3 241.9 241.1 240.9 240.5 240 239.5 238.9 238.6 238.6 239.4 239.6 240.4 241.3 242.4 243.9 244.9 245.5 245.8 245.9 245.7 246.1 245.5 244.7 242.5 240.2 236.9 233.3 228.8 223.8 222.2 231.9 240.5 248.5 256.6 269.4 283.9 298.2 318.2 327.9 334 336.4 338.1 341.4 344.8 347 350.4 355.2 359.6 365.3 372.1 371.9 369.5 365 361.7 358.2 355.2 352.1 349 346.6 344.1 340.9 337.8 333.2 329.9 326 324.2 321.1 317.8 314.1 309.7 306 304.5 295.5 297.1 293.3 293.9 291.4 282.8 279.4 278.1 277.4 277.2 272.2 272 270.5 269.1 270 272.7 273.8 276 277.5 275.8 274.2 271 264.7 257.9 250.9 243.8 236.7 223.2 216.4 215.8 211.2 207 206.7 205.8 203.9
618.8 611.5 602.1 585 552.3 521.2 505.2 524.6 549 576.8 584 586.1 587.2 587.9 589.3 591.1 593.3 595.5 598.7 600.6 602.4 601.9 600.1 598.2 596.5 592.3 588.1 580.9 573.7 566.9 558.4 552 545.1 538.5 532.3 527.2 522.9 516.4 511.2 504.6 497.9 490.7 483.8 477.2 471.6 464.6 455.8 443.2 430.7 415.3 392.9 358.8 327.5 317.6 309.6 304.7 299.6 294.1 291.7 289.9 287.3 284.9 283 281.9 284.7 286.3 285.9 284.5 283.1 281.3 279.1 277.2 274.9 271.8 269.9 267.6 264.1 261.7 259.7 258.3 256.9 254.5 252.4 251.2 249.5 247.5 246.1 245.8 245.1 244.2 243.5 242.8 241.2 239.3 237.9 237.5 237 237.5 236.9 236.4 236.3 236.1 236.7 237 237.3 238.3 239.3 240.8 241.7 242.8 243.5 243.8 244 244.4 244.7 244 241.6 240.3 237.9 234.2 229.8 225.1 221.9 226.6 234.3 241.6 250.1 259.6 271.2 284.4 299.2 315.4 323.8 323.2 329.6 339.1 343.8 346.7 351.2 359.6 360.9 361.9 365 368.7 366 363.1 360.9 357.3 354.4 352 350.6 348.3 345.2 342.2 339.2 336.2 333.7 331.5 329.3 326.7 324.1 321.4 318.4 315.3 312.5 308.7 305.9 301.9 301.9 301 299 296.4 294.5 293.8 291.6 291.3 291.1 290.6 290.8 292.3 292.7 291.6 290.5 289 286.1 282.4 276.4 269.2 262.5 256.1 249.2 242.5 237.1 231.3 228.4 220.2 218 216.7 214.7 213
611.6 605.1 596.7 582.5 548.6 516.4 495.7 514.2 536.8 565.6 580.8 581.7 581.1 580.5 586.2 591.6 594.7 597.3 600 599.7 598.2 597.8 596.7 590.7 587 581 573.6 566.5 559.2 551.6 544.4 537.5 530.7 525.3 519.5 512.5 506.8 500.4 494.7 489.3 482.5 476.5 470.3 465 460.2 451.1 440.3 427.8 415.4 402.2 389 375.3 352.1 331.8 315.3 305.1 299 294.8 291.2 287.2 283.5 281.5 280.2 277 274.6 275.4 276.4 276.4 276.7 274.3 271.1 269.1 267.6 266.2 264.2 261.8 260 258.1 255.6 253.7 252.2 250.8 249.2 246.1 245.8 244 242.6 242.2 242 241.6 241.2 240.9 239.3 238.4 236.1 234 232.4 233.7 235.1 234.5 233.6 233.8 233.4 233.3 233.7 234.7 236.6 237.6 238.6 239.6 240.6 241.2 242.2 242.5 243.5 243.2 242.4 240.8 238.9 235.9 229.2 224.1 220.7 223 227.7 234.9 245.4 255.6 263.2 272.2 283 297.2 303.9 307.1 322.4 333.7 341 345.2 348.1 354.3 357.5 355.7 354.6 355.5 359 358.4 356.8 354.2 353.3 352.7 350.3 347.6 344.8 342.8 339.9 337.9 336.6 335.1 333.3 331.2 328.4 326 323.3 320.2 317.2 313.7 311.1 309.1 308.5 307.8 306.8 305.6 306.6 306.5 305.6 305.1 304.3 303.6 304 303.6 302.5 301.8 301.3 298.4 293.5 287.2 278.7 271.4 264.9 258.4 252.8 248 244.2 239.1 234.9 229.2 226.9 225.1 222.5 219.8
605.5 599.5 592.4 577 544.2 511.3 482.1 504.4 524.4 549.3 554.9 556.7 558.2 576.1 589 594 596.7 598.9 600.1 598.2 594.1 590.2 586.5 580.2 573.2 566.3 558.9 550.5 542.6 535 528.6 521.8 516.1 510.2 503.7 497.7 491.2 484.9 478.9 473.5 467.1 461.2 454.6 447.2 438.7 429.1 418.1 408.6 398.2 387.7 378.2 367.5 357.4 346.6 336 326.6 316.9 305.5 297.5 289.5 283.2 279.2 276.8 274.6 271.4 268.8 267.5 267.1 269.3 265 262.7 261.2 261.2 260.8 259.1 257.6 255.3 253.2 250.9 250.3 248.7 247.1 246.2 245.3 243 241.2 239.6 238.7 238.3 238.1 238 237.4 238.2 237.6 236.6 234.1 230.8 229.6 232.6 232.7 231 230.9 232 231.2 232.2 232.7 232.9 234.3 235.4 236.4 237.5 237.3 238.8 240.4 241.2 241.7 242 241 239.6 237.5 233.7 227.9 219.4 219.5 223.7 231.4 238.8 248.8 255.2 263.3 273.2 281.4 289.7 295.1 314.4 328.3 334.7 340.3 342.7 344.4 346.1 348.1 348.2 348.2 348.5 349.6 350.8 352.5 351.2 349.3 347.2 345.4 344.3 342.5 340.7 339 337.4 336.1 334.8 332.8 330.6 328.3 326 323.2 319.4 316.6 314 312.8 312.4 312.3 312.4 313.8 315.4 314.2 314.2 312.5 310.8 309.8 308.5 306.1 303.2 301.4 298.5 294.4 289.4 283.5 275.9 270 264.3 258.6 254.1 249.4 244.4 243.1 239.6 236.3 233.1 229.9 227 224.2
601.7 596.8 589.4 572.8 539.3 504.8 468.9 492.5 511.6 523.1 526.1 539.9 563.6 584.4 593.7 596.8 598.7 599.4 598 593.4 588.5 584.2 577.2 569.3 560.9 552.2 543.7 535.1 526.2 517.9 510.4 502.7 498.4 493.8 488.6 484.4 479.5 471.3 465 458.5 450.6 442.7 434.3 425.4 416.6 407.1 398.1 390.2 381.8 373 364.2 355.6 346.2 336.9 327.8 320.4 310.9 303.9 297.4 290.6 283.6 277.5 274.5 272.3 270.4 268.4 266.3 264.1 262.5 261.3 259.5 258.4 257.7 258 257.1 253.1 251.9 250.9 249.7 250.7 248.7 246.5 245.6 244.7 242.5 241.3 240.1 238.6 236.6 234.9 233.2 233.6 233.1 234.6 234.3 231.7 230.9 229.5 231.5 230.6 229.8 230.2 231 232.1 231.6 230.3 228.8 228.7 231.3 232.7 234.3 233.1 236.1 237.6 237.8 239.4 240.1 240.8 239.8 238.6 234.9 228.8 216.8 218.6 223.4 229.1 236.6 241.9 247.7 254.5 261.8 267.6 275.3 288.3 307.4 319.9 328.5 334 336.8 338.4 339.4 341.7 343.2 343.5 343.5 344.1 345.5 347 346.7 345.9 344.6 344.5 343.9 341.9 340.2 338.8 337.4 336 334 332.5 330.5 327.9 325.8 323.4 321.2 318.7 316.8 315.4 315 314.8 316.5 317.4 318.8 316.8 315.5 313.6 313.1 309.9 305.9 302 298.7 295.3 291.9 287.6 282.2 276.4 271.3 265.9 260.4 256.4 252.2 249.9 247.3 245.2 243 240.4 236.9 233.5 230.2 227.6
598.6 593.2 584 565.2 536.5 501.9 465 478 494.1 510.7 531.1 554.4 576.8 592.4 596.8 599.1 600.2 598.9 594.9 589.7 584.2 576.1 567.5 558.9 549.7 540.2 530.6 520.6 510.8 500.4 490.9 482.9 478.5 475.8 472.4 465.7 460.3 452.5 446.5 438.8 429.7 420.8 411.1 402.1 393.4 385.7 378.2 370.7 363.4 355.7 347.2 339.4 331.3 323.6 315.6 309.3 304 296.6 290.2 284.2 277.5 273.8 271.7 269.6 268.2 266.5 264 262.6 262 261.6 258.8 257.5 257.3 257.3 255.8 254.5 250.7 251.2 253 252.8 249.8 247.8 247.7 246.5 244.2 242.1 240.8 239.7 237.9 235 234.4 232.8 229.8 229.7 230.2 230.3 229.1 225.6 228.7 228.3 229.2 230.7 231 231.5 232.8 233.4 233.7 233.1 231.6 226.7 226.8 227.3 232.9 232.4 236 237.2 237.2 238.4 239.3 238.7 236.5 229.1 215.6 218.2 221.7 226.6 232.3 236.5 239 243.4 250 256.2 268.2 287.6 303.3 312.4 321.5 328.3 331.6 332.7 334.2 335.1 336.9 337.5 338.2 339 339.3 340.4 341.6 341.9 344.5 343.9 342.1 340.8 339.4 337.8 336.1 334.2 333.2 331.8 329.1 326.3 323.9 320.5 318.6 316.7 315.2 314 313.3 314 315.2 318.2 314.9 311.8 310.9 309.9 308.9 306.6 302.8 297.5 293.6 290 286 281.1 275.6 270.4 265.2 260.6 256.1 252.2 249.4 247.3 246.9 245.9 244.9 242.3 239 235.8 231.9 229.7
593.7 586.2 574.6 549.2 524.1 493.3 461 470.1 491.8 512.7 537.8 563.7 587.2 597.2 599.4 600.8 601.3 598.3 592.6 587.5 580.5 569.6 560.5 551 541 530.8 520.2 509.1 495.8 482.2 466.3 457.6 448.6 449.8 446.5 441.1 434.2 426.9 420.9 413.5 404.9 395.7 386.9 377.9 370.1 363.8 355.7 349.4 342.1 334.9 327.3 320.6 314.1 307.1 301.9 297 293.1 287.7 282.8 279.6 276 272.2 268.9 266.8 265.7 264.7 261.7 260.2 260.5 260.5 258.8 256.7 256.8 256 256.9 255.3 251.3 252 254.1 255.7 253.1 250.8 248 245.9 243 240.9 240.1 239.1 237.3 237.8 236.2 234.9 233.2 231.1 228.6 225.3 225.9 225.1 225.7 227.9 229.3 230.6 231.7 232.2 232.9 234.3 234.4 234.5 234.6 235.2 234.8 233.1 230.9 222 229.1 234.7 233.6 234.9 235.6 234.1 229.3 218.2 216 219.2 224.5 224.1 228 232.3 233.1 237.4 243.1 251.7 264.7 279.6 294 305.7 313.1 320.2 325.6 327.5 328.2 328.6 329.9 330.5 331.6 332.4 333.2 334.5 337 341 341.1 340.4 339.9 339.1 336.3 335 333.6 332.4 331.1 328.6 325.6 322.4 320.4 317.4 314.6 312.8 311.9 310.3 310.1 310.7 310.3 309.8 308.7 307.1 305.4 303.4 301.7 299.1 295.7 291.2 287.2 283.3 278.9 273.3 267.1 263 258.4 254 250.4 246.3 244.4 243.9 245.2 246.5 245.1 242.1 239.9 236.7 234 230.1
578.9 568.4 550 529.6 508.5 482.4 449.8 463.6 488.3 511.8 540.5 568.2 591.5 598.1 600.3 601.6 602 597.6 591.3 583.5 573.5 565 554.8 544.4 534.5 524.6 514 503 488.9 465.4 436 417.4 412.5 418.1 418.9 417 411.1 403.9 396.6 388.8 380 372.2 363.2 355.5 347.3 339.9 331.7 324.6 318.3 310.6 306.9 301.5 296.9 293.2 289.5 285.4 283.3 278.3 274.1 274.4 275.4 271.6 266.4 264.5 263.3 261.9 258.9 258.2 259.1 260 259.6 256.5 255.3 254.3 251.8 253.1 252.2 252.2 254.7 253.6 251.4 249.5 247.5 244.7 241.9 240.2 240.2 241.3 238.4 233.7 231.7 233.1 232 229.5 226 226.9 226.4 224.4 222 226.8 226.7 230.8 231.1 230.9 231.4 231.6 232.1 233 233.7 234.5 235.9 237 236.5 234.8 224 221 216.3 219.3 229.2 214.7 214.9 225.6 230.8 229.2 227 225 224.6 228.1 230.5 233 239.7 248.8 259 269.2 280.3 292.7 304.4 310.5 316.6 320.3 322.1 322.6 322.6 323 323 323.8 325.5 319.3 330.9 337.1 338.8 338.8 337.1 335.4 333.1 330.9 329.3 327.9 326.2 322.5 319.1 316 314.8 311.8 306.7 306.8 306.6 306.9 307.2 305.9 304.4 303.8 302.9 301.4 298.9 296.1 293.1 289.6 286.1 282.5 279.5 275.6 270.4 263.9 259.1 255.1 251.1 247.2 243.9 240.7 238 237.5 240.3 240.3 240.3 239.8 238 236.3 233.1 225
542.5 534.3 523.1 505.1 489.2 465.3 430.5 458.1 483.8 509.1 541.4 572.2 592.9 597.9 599.8 601.2 598.4 593.3 586.9 577.4 568.3 559.5 548.2 538.6 529.4 519.3 509.9 499.6 489.1 477 452 417.2 390.2 389.3 389.6 393.3 389.1 383.1 375.2 366.7 357.9 348.4 339 330.3 322.8 314.8 308.7 302.6 298.2 294.4 290.5 288.1 285 281.9 278.3 275.8 273.5 270.1 270.5 269.8 266.8 263.9 262.2 261.2 260.8 259.5 257 256.8 261.6 262.1 260.3 259.3 256.7 253.6 253.3 253.6 252.2 251.7 251.5 250.1 248.2 249.3 249.2 243.8 241.3 240.1 242.6 239.9 238.9 235.2 231.7 231.4 230.9 230.3 228.8 227.1 226.1 224.6 221.8 222 225 228.3 228.5 228.5 228.9 228.6 229.2 230.3 232.5 232.2 232.8 233.7 232.5 232.4 232.8 230.7 232.6 227.6 213.1 217 234 234.7 235 231.5 226.8 223.4 222.1 226.1 229.2 230.2 238.3 245.7 252.5 259.5 270 280.3 290.9 298.9 304.9 309.4 312.2 314.4 313.7 312.5 309.8 307.2 306.3 304.3 310.5 332.4 334.7 333.8 331.1 329.6 327.6 325.4 323.2 320.8 318.1 315.2 312.3 309.3 307.2 300.3 290.4 296.5 302.2 302.5 301.4 299.6 297.7 296.6 295.9 293.9 290.3 286.4 283.4 279.7 276 272.9 269.6 263.9 259 255.7 251.7 247.7 244.2 241.3 237.6 231.3 226.2 224.6 233.7 233.1 232.7 233.1 232.7 231.7 227.6 214.3
511.5 501 490.9 477.7 465.5 445.4 417 453.1 479.3 508.1 538.1 569.6 585.2 593.2 596.8 594.5 591.6 588.2 579.2 570.3 561.4 551.2 540.8 531.9 522.8 513.9 504.3 494.7 485.5 475.9 463.6 439 410.3 386 361.6 369.7 366.6 361.6 354.9 344.8 334.2 323.6 314.3 307 300.1 295.3 289.9 287 284.1 281.3 278.6 276.2 274.5 272.6 270.5 268.5 265 261.8 263.2 262.1 259.4 259 257.5 257.8 258.4 257.7 255.3 257.6 260.9 257.4 257.8 256.6 255.2 252.8 252.6 253 250.7 249.8 247 242 241.9 248.6 248.1 240 239.2 238.2 240.6 238.1 235.5 231.2 232.8 230 227.9 229.8 229.4 227.6 227.4 226 223.9 220.1 217.7 221.2 222.6 225.7 225.7 226.5 226.9 230.4 229.5 229.3 228.5 227.8 227.4 228.5 229.7 231.2 233.4 231.5 215.9 212.8 228.8 231.1 232.2 230.6 228.8 222.8 222.1 224.9 226.9 230.5 237.4 241.4 246.2 251.7 259.3 266.9 275.2 285.1 289.1 294.5 297.6 298.7 293.5 287.7 283.4 284.9 288.7 293.5 314.3 325.1 327.9 327.2 323.8 320.7 318.9 318.3 313 310.1 307.6 305 302.2 299.2 289.1 281 277.2 292.5 299.3 299 294 291.1 287.9 286.4 284.7 283.2 278.9 275.9 272.9 268.9 264.9 261.9 256.8 253.7 250.7 246.8 243.8 240.8 236.2 233.5 230.3 238 237.3 230.2 222.9 218.7 216.8 217.5 220.2 219.3 210.1 209.5
484.5 473.9 463 453.3 444.1 429.4 422.1 451.9 476.9 504.8 533.3 563.1 580.1 582.7 584.3 584 580.4 573.5 566.7 558.7 549.7 540.4 531.5 523.6 515.4 505.7 497.5 489 481.2 472.5 461.6 450.4 434.4 409.7 380.6 348.3 346.9 334.4 324.5 320.3 309.5 300 293.2 287.8 281 279.4 278.4 275.8 273.2 270.6 269 267 265.8 264.9 262.7 261.7 260.4 257.8 256.4 256.8 256.6 256.2 254.8 256.2 257.8 257.3 253.7 251.3 258.1 256.8 255.3 254.3 252 248.9 250.7 250.6 249.2 247.7 244.8 242.6 243.2 244.2 243 237 235.8 235.2 236.7 236.3 230.4 227.6 229.8 227.9 224.7 227.9 228.6 226.7 224.8 224.7 224.1 223.3 223.5 220.4 214.8 220.8 223.8 224.7 225.8 227 228 227.6 226.7 225 224.4 225.5 227.7 229.7 230.5 229.3 223.1 209.4 211.5 223.4 229.4 231.1 228.7 222.6 220.2 221.9 224.6 229.5 234.8 236.9 240.5 245.8 250.9 256.4 262.4 269.6 275.6 279.6 273.5 276.3 272.8 265.7 265.3 267.7 272.1 289.5 310 319.1 322.4 321.7 316.9 310.7 300.7 296.4 290.6 288.9 288.2 290.1 288.2 281.5 272.4 265.8 277.6 289.8 290.6 288.8 286.3 282.4 279.8 278.2 274.3 271.7 268.7 265 262.2 259.4 256.8 253.4 250.4 244.9 246.3 245.8 244.2 240.8 239.2 238.5 242.2 241.8 240.2 237.1 233.4 230.9 228.2 224.5 220.6 217.8 217.6 223.9
460.9 450 438.7 428.6 419.9 400.3 426.2 452.8 477.8 500.7 521.5 541.2 555.7 565.4 564.4 563.9 561 557.4 549.7 542.5 534 526.8 520.1 511.8 503.7 496.6 489.5 483.3 475.2 466.8 456.8 446.4 434.7 422 398 368.1 343.6 330.4 315.9 309.2 305.5 301.6 298.9 295.2 291.5 287.3 284.1 280.3 277.3 274.6 270.7 265.3 261.6 260 259.1 259.8 257.8 254.9 253.4 254 255 253.3 253.7 254.8 258.7 258.5 255.8 249.3 252.4 254.9 254.4 253 251 246.9 247.1 245.2 244.2 243.2 240.9 239.6 239.5 238.9 237.2 235 233.1 231.7 233.2 233.3 230.1 227.4 227.5 225.1 224.1 225.6 224.1 223 221.9 222.3 220.4 220.5 222.2 224 219.4 213.6 225.6 223.8 224.4 226 226 225.3 225 224.3 223 224.6 226.8 228.2 228 227.4 226.1 223.5 205.5 211.1 226.6 229.1 228 224.6 220.9 222.6 227.7 228.4 230.4 232.5 236.2 240.9 244.6 249.2 253.4 256.5 260.7 265 263.8 254.5 254.7 255.5 257.3 268.7 285 302.4 315.5 320.4 321.3 318.9 313.5 296.5 282.7 277.7 272.4 268.1 266.1 267.8 267.2 261.8 258.1 266.3 283.5 286 284.6 282.4 279.8 277.6 274.4 271.1 267.7 264.3 260.6 258.2 254.9 254.9 256.1 254.8 254.9 258.5 257.8 255.7 252.3 245.9 246.2 244.1 245.4 243.3 241.7 240.5 239.1 237.7 236.9 235.6 232.8 230.9 233 237.9
