ncols 200
nrows 82
xllcorner 290000
yllcorner 844000
cellsize 50
127.6 130.1 130.7 131.1 130.5 128.9 129.2 129.9 130.5 131.1 131.2 131.6 132.5 132.5 132.4 133.2 133.8 135.2 137.3 135.1 133.2 133.2 133.1 132.4 131.8 131.1 129.6 130 130.7 131.3 134.9 134.7 135.5 136.2 139.7 149.9 155.5 155.6 157.1 161.6 163.2 162.2 159.1 156.9 158 157.2 156.4 153.4 146.7 145.6 144.6 144.4 144.3 144.1 144 143.8 143.6 143 142.4 140.2 140.1 140 139.3 139.8 140.1 140.2 140.3 141.2 141.2 140.7 139.9 139.2 139.6 139.5 139.5 139.5 139.3 138.5 138.2 138.6 138.6 148.3 155.3 143.6 146.9 151.1 142.9 139.1 142.9 146.9 146.4 145.1 145.1 146.8 147.6 148.2 142 141.9 141.6 141.6 141.9 142.5 142.9 142.7 143.2 143.6 144.1 144.9 144.9 144.3 143.8 143.1 143.4 143.1 143.1 150.3 172.2 178.6 164.1 161 162.9 165.1 164.7 163.3 162.4 161.5 163.7 158.6 160.1 154.2 136.7 126.1 125.7 138.3 154.7 158.4 158.5 157.9 158.5 158.4 158 156.8 155.4 153.1 149 144 142.3 142.1 140.7 133.2 128.7 125.3 124.9 123.9 120.1 109.4 102.1 100.9 96 103.7 106.5 109.4 115.5 125.3 140.8 150.7 152.8 155.3 157.9 159.8 163.1 166.9 169.3 171.5 179.5 170.4 185.6 189 188.5 188.8 188.6 188.7 188.5 188.6 189.7 189.6 189.5 189.1 188.8 188.7 188.5 188.3 188.3 188.6 188.7 188 188.2 188.5 186.8 174.4
131.6 130.2 131.7 131.4 131.1 130.5 130.7 131.4 132.2 132.9 133.6 133.7 133.7 133.4 133.3 133.6 134.3 134.3 136.4 135.5 133.2 133.2 133.5 133.2 132.4 131.5 130.4 130.6 131.3 131.6 135.3 135.3 135.3 135.4 141.6 154.4 156 156.2 155.1 156.5 158.2 158.7 156.5 154.6 154.1 153.4 151.6 149.6 147.9 146.7 145.3 144.2 144.1 144 143.8 143.7 143.5 142.5 141.6 140.8 140.6 140.4 140.3 140.7 141.1 141.7 142.2 142.4 142.6 142.1 141.4 141 140.9 140.7 140.6 140.5 140.3 139.8 139.2 138.4 139 140 145.2 140.8 139.5 140.3 146.5 139.5 145.6 147.2 146.9 145.5 147.5 149.9 155.8 158.7 148.9 143.4 141.9 141.6 141.8 141.9 142 142.5 143.2 143.6 144 144.9 148.3 149.6 152.6 151.6 148.1 148.3 157.4 169.5 184.7 177 165.2 160.2 162.3 163.1 165.1 165.6 165.6 165.5 164.3 161.5 160.2 156.4 146 136 129.6 124.1 140 155.5 154.5 153.9 152.9 152.1 151.7 150.7 149.7 146 142.3 141.7 138.7 135.8 129.3 127.9 125.9 126.2 125.8 120 111.9 102.8 101.4 99.2 94.6 107.9 110.3 114.2 120.5 129.1 142.6 151.8 154.5 157.2 159.9 163.7 167.2 170.4 172.1 174.8 185.3 184.2 173.8 183.2 189.2 187.8 187.2 187.5 187.5 189.6 190.3 190 190.1 190.1 189.7 188.9 187.8 187.6 187.8 188 187.7 187.9 188.5 188.8 188.9 174.8
134.3 131.1 133.8 133.6 132.7 132.2 132.2 132.9 133.7 134.3 134.5 134.7 135 134.6 134.4 135 135.6 134.4 135.7 133.4 133.2 133.2 136.1 134.4 133.7 132.9 131.5 131.2 131.9 132.5 135.2 135.1 135 135 145 156.9 156.3 155 152.3 151.1 155 155.3 154.6 153.4 153.5 153.5 152.6 151.4 148.7 146.4 144.6 144.1 144 143.9 143.9 143.9 143.6 142.4 141.3 141.4 141.3 141.1 142 142.6 143.2 143.8 144.1 144.2 144.1 143.3 143.4 143.1 143.1 142.9 142.8 142.7 142.6 141.8 141.3 140.5 138.7 138.3 138.2 138.2 138.4 144.2 140.2 139.7 144.8 147.2 147.3 145.7 148 152.7 162.8 165.4 155.1 145.3 142.1 141.7 141.8 142.1 142 142.4 143.2 143.6 144 149 153.8 156.4 158.5 162 163.4 165.7 177.2 185.3 185.4 175.1 170.1 162.7 162.9 164.7 166.3 165.7 165.8 165.7 164.4 161.2 157.1 148.6 139.8 135.6 134.3 124.1 129.7 143.9 151.4 150.6 149.4 148 145.4 144.6 143 139.3 134.6 130.2 126.3 125.1 124.8 125.9 126.9 125.8 119.1 116.6 105.2 102.1 100.4 96.4 106.6 109.6 113.4 119 124.3 134 148.9 159.2 159.1 161.3 163.9 167.3 171 173.6 179.9 178 187.3 188.8 185.8 182.3 180.3 183.6 188.7 188.6 189.3 190.3 190.9 190.2 190.2 190.3 190.3 190.4 189.2 187.8 186.3 185.5 184.7 181.7 179.7 183.1 181.1 173.4
135.8 134.2 133.6 135.4 134.3 133.8 133.7 134.4 135 135.2 135.4 135.5 135.7 135.9 137.5 137.4 135.6 135.3 135 133.8 133.2 133.5 134.8 133.6 133.3 133.3 133 132 132.8 135.6 136.5 136 135.4 134.8 147.8 157.1 157.7 152 151.9 153.1 152.3 153 152.5 151.4 151.5 151.6 154.2 155.2 151.9 148.2 144.3 144.1 144.1 144.1 144.1 144 143.8 142.7 141.8 142 142 143 144 144.6 145.2 145.6 145.9 146 145.5 145.3 145.2 145.2 145.3 145.2 145 144.9 144.8 144.4 143.9 142.7 141.4 139.9 139.5 138.7 138.3 140.2 139.5 139.3 139.8 140.2 139.5 140 148.7 157.8 164.9 166.8 158.6 150.1 144.7 143.3 142.6 142.3 142.3 143.5 143.1 143.6 144.8 156.4 170.1 166.9 167.3 167.7 169.9 180.4 185.5 185.3 181.9 174.7 169.3 165.1 166.8 169.7 167.1 166.2 166.1 166 156.3 146.6 138.3 135.2 132.9 131.1 133 127.4 122.7 130.4 132.6 132.9 133.1 133.1 131.6 129.6 126 123.4 123 120.6 120.5 120.1 123 122.6 121.8 117.4 117.3 111.5 104.3 101.4 95.8 103.6 108.8 112.6 116.9 121.8 128.4 142.4 159 160.8 161.7 164.9 167.9 175.6 186.8 190 189.7 188.3 189 190.4 189.4 188.8 189.2 189.6 189.6 189.6 190.2 191 191.6 190.8 190.4 190.2 190.3 190.3 189.9 189.4 188.1 187.5 184.6 182.2 180.1 178.8 176.8 174.7
136.5 136.3 134.4 136.3 136.9 135.6 135.2 135.7 135.9 136.1 136.3 136.4 136.6 136.8 136.7 137.1 136.2 135.3 135.5 135 133.9 135 133.8 133.6 133.7 133.7 133.7 133.3 133.2 136.1 137.2 137.3 136.3 138.3 147 152 150.4 151.9 152.8 154.3 150.9 150.5 150 149.6 149.4 150.2 153.8 155 154.3 148.3 144.8 144.6 144.4 144.2 144.2 144.2 143.9 142.9 142.8 143.1 143.8 144.9 145.9 146.7 147.1 147.4 147.7 147.7 147.3 147.2 147.1 147 147.2 147.4 147.2 147.1 146.9 147 147.5 145.7 144.1 142.6 141.1 140.2 139.5 139.7 139.7 139.3 139.2 139.2 141.2 149.1 154.8 161.8 166.5 172.1 165.6 152 145.4 146.5 144.5 143.8 145.6 149.2 149.3 144.6 148.1 165.4 181.7 179.2 178.7 178.8 178.2 183.2 186 185.6 177.3 168.7 165.5 167.4 166.4 170.1 167.4 166.2 166.1 158.5 143.7 136.2 134.4 132.9 132 131.8 132.5 132 128.2 122.8 123.8 123.4 122.5 122.1 121.3 121.3 121.3 120.3 119.7 119.2 118.5 117.4 116.6 116.8 116.7 113.4 110.8 107.8 103.5 97.4 100.2 108.5 113 117.3 121.6 128.4 140.7 156.1 161.8 161.8 163.7 167.8 175.8 188.3 190.3 190.4 190.3 186.6 189.9 190.4 191.3 191.5 191.9 192.4 191.9 191.1 192.3 193.2 193.4 192.4 191.4 190.4 190 189.9 189.6 189.6 189.5 188.4 187 184.7 182.6 180.6 178.4 176.2
138.6 138.8 135.8 137.5 136.9 136.5 136.7 137 136.8 136.9 137.1 137.3 138 138.1 137.6 136.8 136.4 136.2 136.3 136.2 134.9 133.9 133.8 134.3 134.8 134.8 134.4 134.2 134 134 135.3 136.7 138 138.1 144.5 149.6 151.8 153.1 153.9 153.9 150.9 151.4 151 150.7 151.8 152.9 154.1 155.4 156.2 150.3 145.6 145.3 145 144.7 144.4 144.4 144.1 143.8 144.1 144.6 145.5 146.6 147.7 148.5 148.9 149.3 149.6 149.4 149.2 149.1 149 148.9 149.1 148.8 149 148.9 148.5 148.6 148.4 148.4 147 145.3 143.7 142.2 141.5 140.8 140.6 142.7 140.3 142.3 148.7 154.6 161.5 170.6 173.6 174.3 164.3 151 144.8 143.6 143.5 144 147.9 153.2 148.2 145.4 158.1 172.8 182.1 183.2 184.2 184.6 183.2 183.8 186.1 184.9 171.3 166 167.8 169.8 170.3 168.6 166.3 165.8 165.7 151.5 137.1 135.2 133.8 133.1 132.5 132.5 132.8 132.6 127.6 120.8 122.4 123.1 122.5 120.8 121 121 120.6 120.1 119.8 119.8 119.1 116.1 115.4 114.6 112.6 111.7 111.7 107.5 98.3 98.1 108.1 112.5 116.9 122.1 129.8 141.6 154.7 162.8 164.1 164.3 167.1 172.7 188.1 189.4 190.2 190.4 187.6 185.9 187.4 189.9 194 194.5 195.4 197.4 198.1 196.4 196.3 196 196.3 195.3 195 194.2 192.5 190.8 189.3 190 190 188.9 187.5 186.1 184.7 182.5 180.3 178.1
140.5 137.3 138.1 138.4 137.9 139.4 138.9 138.9 139.6 139.5 139.2 138.6 139.7 139.4 138.3 137.1 137.1 136.9 138.2 137.4 135.3 134.8 135.6 136.2 135.9 135.5 135.2 134.9 134.7 134.5 135.8 137.5 139.8 140 145 150.2 151 151.4 155 157.5 156.1 153.1 152 152.1 152.9 153.6 154.8 156 157.2 151.5 145.5 145.6 145.3 145.1 144.9 144.6 145 145.6 146.2 146.8 147.5 148.6 149.7 150.2 150.5 151 151.4 151.3 151.1 151 150.9 150.7 150.8 150.1 150.1 150.5 150.2 149.6 149.3 148.9 148.7 148.1 146.4 144.9 143.2 142.6 142.4 144 143.5 145.9 149.4 157.9 164.6 170.3 174.3 169.4 160.8 151 144.1 143.1 144.8 144.3 151.7 148.4 145.9 154.2 169.9 180.5 182.9 183.9 184.8 185.7 185.7 184.1 183.1 183.3 169 167.9 169.6 169.9 169.6 167.9 167.4 165.9 165.5 148.7 137 135.3 134.3 133.7 133.1 133 131.8 127.9 122.5 121.1 121.7 121.9 121.9 119.7 119.5 117.7 116.4 116.3 116.1 116.3 116 115 114.3 114.7 113.9 112.8 111.1 99.6 95.7 107.5 111.8 114.9 121 130.2 145.2 158.7 162.4 164.4 165.9 166.5 174.6 187 190.1 188.8 188.5 189.9 186.3 187.7 189.9 192.3 198.5 198 199.8 200.8 201.7 200.8 200.5 200 200.1 199.5 199.3 198 196.3 194.4 192.5 191.4 190.3 189.4 188 186.6 185.9 184.4 182.2 180
140.4 140.6 140.6 141 140.6 141.7 141 142 141.5 139.7 140.1 139.5 140.9 140 138.9 137.6 137.5 137.6 138.1 136.9 135.5 135.6 137.5 137.1 136.6 136.2 135.9 135.6 135.4 135.3 136.4 138.6 141.1 142 147.8 151.3 150.6 150.7 156.5 159.1 157.7 154.6 153.2 153 153.3 154.1 155.3 157 156.1 148.2 144.8 144.9 145.1 144.9 144.7 145.3 146.5 147.8 148.4 149 149.7 150.5 151.6 152 152.1 152.6 152.9 153.1 153 152.8 152.7 152.5 152.4 151.5 151.1 151.2 151.4 151.1 150.4 149.6 149.3 148.9 148.6 147.5 145.1 144.5 143.3 144.2 150.5 147 148.7 159.8 163.8 171.2 171.9 163.7 156.5 151.4 145 143.4 146 150.1 151.9 146.8 149.6 161.1 174.1 180.4 183.2 184.9 185.5 185.8 183.9 182.8 181 180.3 170.8 169.7 169.3 169.2 169.1 168 167.4 166.9 155.8 159.2 139.3 135.3 134.1 133.9 133.6 132.8 128.4 125.7 124.2 123.3 119.3 119.3 118.7 117.9 117.2 116.7 116.6 116.7 116.7 116.9 117 115.5 114.6 115.1 115 113.6 101.4 95.9 106.9 106.7 117.8 122.1 122.6 140.4 158.8 163.2 163.1 164.3 167.1 173.1 190.7 189.7 190.1 189.4 187.5 186.8 188.1 189.9 193.6 200.6 200.1 200.2 201.2 203 204 203.4 203.6 203.8 203.8 203.6 203.1 201.5 199.6 197.7 195.8 194.1 192.5 190.7 188.7 187.3 186.6 185.9 184.1 181.9
141.3 143.3 143.7 143 143.3 142.6 143 142.3 141.6 140.1 139.9 140.9 141.1 140.4 139.4 138.3 138.5 138.9 138.2 137.2 136.4 137.1 137.9 137.7 137.3 136.8 136.6 136.4 136.5 136.5 137.8 139.7 142.2 144.8 149.6 154 154.4 155.2 155.4 157.6 154.8 154.8 154.8 153.8 153.8 154 155.4 155.2 148.8 144.8 144.5 144.7 144.8 144.9 145.9 146.8 147.9 149.2 150.5 151.3 151.9 152.6 153.6 153.7 153.7 154.2 154.5 154.6 154.8 154.7 154.5 154.3 153.7 153.2 151.8 151.8 151.8 151.5 151 150.3 150 149.6 149.6 148.4 146.6 145.5 144.1 144 152.3 150.4 158.7 160.6 163.1 173.6 172.3 166.5 158.4 152 144.6 144.3 149.5 151.3 148.2 148.8 152 163 172.7 178.1 182.1 184.7 185.2 185.2 182.8 179.6 178.6 181 175.7 170 169.1 169.4 169.7 168.9 167.5 163.9 162.4 160.6 138.5 135.1 134.2 133.6 133.2 130.2 126.6 125.2 124.2 124.9 121.2 118.8 118.2 117.6 117.1 116.8 117 117.1 117.2 117.2 117.8 116.7 115.8 115.1 115.5 107.2 97.4 105.3 106.8 117 127.2 132 135.3 136.5 156.6 163.8 164.1 165.2 167.9 176.9 191.1 189.9 190.1 190.2 188.6 188.2 190.2 193.1 197.1 200.5 201.5 202.2 203.5 205.2 206.4 206.1 206.3 206.5 206.2 205.9 205.4 203.9 202.5 201 199.2 197.2 195.1 192.9 191 189.3 187.8 186.6 185.8 183.8
144.3 144.4 144.5 144.6 144 143.6 143 142.3 141.7 141.3 141.9 141.8 141.6 140.6 139.9 139.7 140.9 139.9 138.2 137.5 138 138.5 137.7 138 137.9 137.7 137.9 137.9 136.7 137.5 137.7 140.7 144 145.9 149.7 153.7 154.3 147.8 153.1 154.4 154.1 153.9 154.1 154.9 154.4 153.7 152.9 149.4 144.8 145 145.3 145.7 145.8 146.8 147.9 148.9 151 151.4 152.4 153.4 154.1 154.7 155.3 155.3 155.3 155.8 156.3 156.9 157.4 156.9 156.6 156.7 155.7 154 153.2 152.3 152.2 151.8 151.9 151.1 150.9 151 150.2 148.9 147.4 145.5 144 144.2 151.6 159.3 158 154.6 162.1 173.8 173 168.8 156.6 146.8 144.7 148.8 150.9 148 149 155.7 154.3 164 167.9 172 178.7 181 181.4 182.9 179.9 176.5 177.3 180.7 173.3 171.2 170.6 170.8 170.3 168.2 166.9 163.9 163.3 152.9 138.1 135.5 135.3 135.2 134 129.4 126.6 125.6 124.6 125.7 126.1 118.7 118.7 118.2 117.5 117.3 117.3 117.5 117.7 117.7 118.1 117.1 116.5 115.7 111.9 100 101.2 105.2 109.4 125.6 135 143 151.5 150.7 147.5 164.6 165.3 166.8 172.8 186.5 187.6 190.5 190.3 190 189.8 190 192 200.5 202.2 202.4 203.3 204.5 206.1 207.5 208.8 208.9 208.9 208.7 208.4 208.2 207.5 206.1 204.6 203.1 201.6 200 197.9 195.7 193.5 191.6 190.1 188.7 187.2 185.7
145 145.4 145.3 145.2 145.2 144.7 144.1 143.6 143.1 143.1 143.9 142.7 142.2 141.5 141.8 141.1 139.6 138.6 138.7 138.5 138.7 138.4 138 138.2 138.9 139.7 139.3 138.8 137.6 138.4 139 138.9 144.9 146.6 148.8 151.1 151 151.3 151.7 151.6 152.5 153.1 153.2 155.7 158.7 155.7 149.4 145.6 144.6 145.1 146.1 146.6 147.4 148.6 149.9 151.2 153.6 154.2 154.9 155.8 157.2 157.5 156.6 156.7 156.7 157.8 159.6 160.6 160.6 159.8 159.1 157.5 155.3 155 154.3 153 152.5 153.2 153.4 153 152.8 151.8 150.8 149.4 147.6 145.4 144.5 145.4 148.2 158 162.9 154.8 165.5 170.5 170.7 169.6 151.8 147.3 147.4 151.8 150.1 148.4 150.5 157.4 157.2 166.7 168.5 173.6 175 176.3 175.2 179.1 177.2 175.8 178.9 177.2 173 171.8 171.2 170.7 170.2 168.5 165.1 166.5 163.9 144.8 138.1 136.3 136.3 136.2 135.6 130 127 125.9 125.3 126.9 128.2 119.9 118.9 118.3 117.9 117.8 117.8 117.9 118.1 117.6 116.6 115.2 114.9 116 105.7 97.1 104.8 105.4 115.5 134.4 143.6 158.5 165.5 164.6 148.9 163 165.4 168.7 183.2 188.5 191.9 191.1 190.8 190.4 190.6 192.2 198.8 203 203.1 204 205.6 206.7 207.9 209.5 211.1 211.3 211.3 211 210.7 210.1 209 207.8 206.5 205 203.5 202.1 200.4 198.4 196.3 193.8 192.1 190.7 189.2 188
146.7 146.6 146.5 146.5 146.7 146.2 145.6 145.1 145.1 145 145.1 143.2 142.1 142.5 142.5 140.5 139.1 140.6 139.9 139.2 138.7 138.4 138.5 138.6 139 140.4 140.3 140.3 141.2 141.5 140.2 140.2 145.1 147.5 149 150.4 150.9 150.9 151 149.6 148.4 149.1 151.7 154.9 157.8 149.9 146.6 145.4 144.8 145.9 146.9 148 149.2 150.5 151.7 153.3 154.6 156 157.1 158.4 159 159.3 158.5 158 157.7 157.6 158.4 157.6 156.9 157.1 156.2 156 155.8 155.7 154.8 155 154.7 155.4 155.3 155.1 155.7 153.3 152 150.2 149.4 147.6 145.9 146.8 148.7 155.4 158.7 154 163.7 166.3 167.4 169.7 156.8 149.4 149.5 150.4 151.3 148.7 150.3 153.1 162.6 166.4 165.9 164.7 168.1 175 175.4 173.1 175 175.5 175.5 173.5 171.9 171.3 170.4 170.3 170.4 169.3 166.6 167.2 155.8 141 138.7 137.2 137.1 137.1 137 130.6 127.4 126.7 126.8 128.6 130 119.6 119.1 118.7 118.4 118.3 118.3 118.2 118.4 117.5 116 115.6 115 108.5 104.6 96.7 104.3 105.5 120.5 137.7 154.9 165.7 165.6 165.1 163.8 149.7 165.2 169.7 183.8 190.4 190.7 191.5 191.1 190.7 191.4 194.8 203 203.5 204.7 206.3 208 209.1 209.9 211.3 212.9 213.6 213.5 213.2 212.7 211.6 210.4 209.3 208.1 207 205.5 204 202.5 200.7 199 196.5 194.1 192.6 191.4 189.9
148.1 147.9 147.7 148.2 148.1 147.6 147.1 147.1 147 147.1 145.6 143.2 141.7 141.2 140.1 140.2 140.2 140.7 140.4 140.5 140 139.5 140.1 140.7 140.2 140.6 141.1 142.1 142.9 142.9 140.8 139.9 146.2 147.8 149.6 150.4 150.7 150.1 149.6 149.5 147.9 148 147.5 146.2 146 146 145.8 145.7 146.5 147.7 148.8 150 151.2 152.4 153.7 154.1 155.4 156.6 157 157.9 158.7 159.6 158.9 158.5 158.6 158.4 158.4 158.5 158 158.3 156.3 156.6 157 156.6 158.2 158.3 157.3 157.3 157.5 158.3 157.8 155 152.6 152.3 151.5 149 148.7 148.2 149.5 151.6 152.9 151.7 155.8 161.6 162.7 159.9 156 152.5 151.9 152.7 156.1 152.7 152 153.6 165.6 163.7 163 167.5 167.1 170.3 174.3 169.5 170.8 170.5 172.9 170.8 170.4 169.8 169.1 168.3 168.2 166.3 165.1 162.2 148.7 141.9 139.7 138 137.9 137.6 137.5 131.5 127.8 127.7 127.7 127.6 129.1 120 119.4 119.1 118.9 118.8 118.8 118.7 118.7 118.3 116.1 115.6 114.8 104.1 104.8 99.9 103.6 105.9 125.4 142.1 166.1 166.5 166.6 167.6 170 158.6 169.8 169.8 181.8 190.3 190.5 191 191.3 192.1 193.7 200.6 203 204 206.6 208.7 210.4 211.6 212.4 213.2 214.6 214.8 214.7 215.1 215 213.6 212.4 211.2 210.1 208.5 206.8 205.7 204.4 202.8 201.5 199.2 196.7 194.6 193.1 191.6
149.2 149.1 148.9 149.9 149.6 149.1 149.1 149 148.3 147.6 144.8 142.3 141 140.9 140.8 140.1 141.6 143 142 141.6 142.2 142 142.7 142.2 142.4 142.6 142.7 143.2 143.7 143 140.2 141 145.5 148.9 149.7 150.1 150.6 150.4 149.8 149.2 148.8 148 147.2 147 147.2 147.4 147.3 147.6 148.5 149.5 150.7 152 153.2 154.5 155.1 155.1 156.2 157.2 157.7 158 158.7 159.9 159.6 159.3 159.4 159.2 160.2 161.7 161.7 162.2 161.1 159.6 159.6 163.1 162.1 160.7 159.9 159.2 158.8 159.8 160.9 157.2 153.5 160 155.9 152.7 150.7 150.2 149.1 149.8 149.2 149.3 158.2 172 175.5 172.3 170.4 165.2 157.4 155.4 156.9 154.6 158 164.3 157.6 161.3 169.9 173 169 171.7 174.1 173.2 170.4 161.1 169.6 169.7 169.3 168.2 167.1 161 158.5 159.3 157.9 150.8 147.2 142.3 139.5 137.8 137.5 137.3 137.1 134.4 128.5 128.1 127.7 127.3 126.5 123.8 120 119.5 119.4 119.3 119.2 119.2 118.8 117.6 116.6 116 115.6 104.9 104.5 98.4 103.6 109.4 127.2 146 166.4 168.2 170.4 178.9 178.4 162 169.2 177.3 177.8 184.1 188.9 190.8 191.4 192.6 196.6 200.6 203 205.4 208 210.8 212.7 214 214.8 215.6 216.5 216.7 217.1 217.4 217.4 216.1 214.5 213.2 212.1 210.1 208.2 206.7 205.6 205 204.1 201.8 199.9 198 196 194.1
150.4 150.2 150.1 152.7 151 150.4 149.8 149.1 148.4 147.7 145.1 142.3 141.7 142.8 144.5 144.8 144.8 145.1 143.4 142.4 143.1 144.2 144.5 144.7 145 145.2 145.7 145.9 144.9 142.5 141.5 141.7 149 148.8 149.4 149.8 150.3 150.7 150.1 149.5 149.2 148.5 147.8 148.3 148.5 148.6 149.2 149.5 150.5 151.7 153 154.6 155.8 156.5 156.4 156.4 156.9 157.7 158.3 159.3 162.8 164.1 164.7 166.7 166.7 166.2 167.1 166.6 166.9 166.2 165.1 163.7 163.5 164.6 163.9 162.3 162.8 162.4 161.3 165.3 162.8 157.6 160.7 164.7 163.4 161.6 157.7 155 151.3 150.3 150.3 150.7 159.6 169.9 177.3 178.2 177.5 172 163.1 159.4 159.3 155 164 166.9 165.1 167.1 166 167.5 171 175.7 180.5 173.8 172.8 172.9 169.8 170.5 168.9 165.8 163.6 160 158.5 156.1 157.7 166.2 153.2 142.5 139.5 137.4 137.7 138.9 138.2 135.4 128.7 128.5 128.2 127.9 127 127.7 121.4 120.2 119.8 119.7 119.6 119.6 118.7 117.8 117.3 116.9 116.5 111.6 105.5 98.4 103.6 108.1 125.3 147.7 169 171.4 177.1 189.4 175.2 161.1 175.1 184.3 184 184.9 189.8 190.3 191.7 194.4 197.7 201.6 204.1 206.9 209.5 212.2 215 216.5 217.3 218.3 219.2 219.3 219.4 219.8 219.7 218.5 217 215.5 214 211.7 209.9 208.6 207.2 206.4 205.9 204 202.4 200.7 198.4 196.2
151.6 151.4 151.4 152.5 152 151.5 151 150.3 149.6 148 147.6 147.3 145.5 146 146 146.1 146.3 146.1 145.7 145.2 145 146.8 146.4 147.2 147.6 147.9 148.4 148.9 146 143 143.3 142.9 148.7 148.9 148.7 149.4 149.9 150.4 150.3 149.8 149.5 148.8 149.3 149.6 149.7 150.9 151.3 151.7 153 154.4 155.6 156.8 159.2 157.1 157 157.4 157.7 158.7 161.8 166.4 170.5 170.4 171.3 171.2 169.4 170.1 170.3 169.1 168.5 168.8 168.3 165.5 165.9 165.8 166.2 165.2 166.4 166.1 165.9 165.4 161.7 162.7 164.8 164.4 163.9 162.3 159.8 157.1 155.2 152.2 151.7 151.6 159.3 164.7 172.4 174.7 175.2 172.9 165 162.6 161.5 156.3 163.9 168 170.5 171.7 168.8 171.8 177 182.3 181.9 169.4 170.2 179 177.5 169.4 169.2 165.7 163.5 160.9 157.9 156.3 167.2 172.9 162.3 144.6 139.9 137.5 137.2 138.6 139.5 139.4 134.2 129.1 128.8 128.4 128.2 129 129.3 122.2 120.2 120.1 120.1 119.8 118.8 118.3 117.9 117.2 116.8 116.4 107.4 103.8 101.3 108.3 122.9 143.7 167.1 188.8 189.7 191.5 178.1 165.9 168.8 185.8 187 186.3 189.2 191.3 194 196.6 199.8 203 206.1 209.1 211.3 214 216.6 219.1 220.1 221.2 222 222.5 222.1 222.1 222.1 220.8 219.5 218 215.9 213.7 212.2 211 209.8 208.4 206.8 206 204.6 202.7 200.7 198.4
152.2 152.2 152.6 153.4 153.1 152.6 152.1 151.6 150.9 150.5 150.4 150.9 149.2 147.4 147.7 147.7 147.7 147.8 148.4 147.5 148.2 147.6 148.4 149.1 149.8 150.6 151 151.4 144.7 143.4 143.3 143.9 147.7 148.5 147.9 148.6 149.3 150 150.5 150.1 149.8 150 150.7 150.8 152.1 153 153.4 155 155.7 157 158.3 159.5 159.4 158 157.9 158.2 159 163.6 169.3 170.2 172.3 172.6 173.1 172.9 171.9 171.3 170.5 170.1 169.5 168.8 168.6 167.3 166.9 169.3 170.7 170 169.5 168.1 165.8 164.5 161.2 165.9 165.7 164.8 163.9 162.7 160.9 157.9 156.7 156.3 154 154.1 155.6 160.1 165.3 167.9 169.1 165.1 162.1 160.6 160.3 160.7 164.4 168.6 172.1 169.3 170.2 174.6 183.4 189.7 175.7 164.3 164.3 174.5 182.9 178.4 172.5 168.1 161.6 157.7 156.5 156.9 167.5 174.1 170.4 151.4 141.7 137.2 137.1 137.3 137.5 138.5 138 130.6 129.4 128.9 129.5 130.1 130.5 130.5 125.1 120.6 120.5 119.8 119.4 118.9 118.5 117.5 116.7 115.1 106.7 106.2 98.5 108.2 122.3 145.4 161.8 184.7 190.6 191.1 188.7 184.5 182.8 175.2 187.3 190.6 190.3 193.2 196 200.2 201.8 204.9 208.1 211.4 213.6 215.7 218.4 221.1 222.8 224 224.8 225.5 225.3 224.9 224.4 223.2 221.9 220.1 218 215.9 214.4 213.2 212 210.9 209.7 208.3 206.6 204.7 202.7 200.7
154.4 154.1 154 154.2 154.1 153.5 153 152.4 151.9 151.4 151.2 151.2 149.5 149.2 149.6 150 150.4 150.5 151.2 150.5 149.1 149.2 149.9 150.6 151.4 151.5 151.5 152 145.3 144.1 144.2 151.8 149.6 148.2 147.5 147.9 148.6 149.3 150.3 150.9 151 151.4 151.9 153.2 154.4 155.1 155.6 158 159.2 159.6 160.7 160.2 159.7 159.2 159.3 159.6 164.4 169.8 171.3 172.8 173.5 173.6 174 172.9 172 172 171.4 171.3 170.7 170.1 169.6 168.7 168.5 169.4 171.7 172.6 170.9 168.1 165.4 164 167.9 168.1 167.5 166.5 165.3 164 162.2 158.9 157.5 156.8 156.3 157.4 157.3 157.1 161.9 163.9 165.2 163.2 162.6 162.6 163.3 164.6 167.6 171 169.4 174.3 179.4 182.2 181.3 176.4 164.3 164.3 164.3 164.3 176.1 179.4 174.4 170.7 161.9 159.8 158.4 157.4 167 170.8 169.8 162.6 145.2 140.8 138.1 137.7 137.5 138 138.1 134.6 132.3 131.6 130.3 130.9 131.4 131.4 130.6 126.3 120.9 120.5 120 119.6 118.9 117.5 117.6 113.8 107.8 106.2 99.3 108 121.9 144.2 162.1 185 190.2 190.7 191 190.8 189.4 179.4 187.7 191.4 192.2 194.8 199.4 202 204.8 207.1 209.9 213.2 215.2 217.6 220.3 222.9 225 226.6 227.3 227.7 227.5 227 226.4 225.2 224 222.3 220.1 218 216.6 215.4 214.3 213.1 211.8 210.4 208.6 206.8 205.1 203.5
155.9 156 155.9 155.7 155.3 154.3 153.7 153.1 152.1 152.1 152.1 151.6 150.6 150.5 151 151.4 151.8 152.5 152.1 151.8 150.8 151 151.4 152.1 152.2 152.3 151.6 153.1 146.1 145.2 144.9 151.2 150.6 150.4 148.3 149.5 149.3 151 151.4 151.8 152.4 153 154.2 155.6 156.5 157.3 158.3 160.4 161.5 161.4 160.8 160.3 159.9 160.3 162.2 170.3 171 171.8 173.4 174.9 174.3 175.6 174.8 173.5 172.7 172.8 172.5 172.5 171.9 171.4 170.9 170 170.1 170.9 170.5 172.1 169.1 168.5 165.1 166.8 168 168.7 168.4 168 166.8 165.4 164 160.9 160.1 159.4 158.1 160.8 161.7 162.9 162.6 163.1 163.2 163.7 163.5 164.5 167.2 168.8 170.4 172.4 176.4 180.7 173.9 169.2 165.9 164.3 164.3 164.3 164.3 168.5 175.5 178.3 176.6 178.3 171.7 162.9 160.6 163.4 168.4 169.8 171 169.3 159.8 152.6 144.9 140.3 138.6 137.7 137.7 136.4 134.7 134 134.1 130.5 130.8 131.5 131 130.7 122.8 121.3 120.8 120.3 119.1 117.7 117.7 113.2 109.8 106.4 100.5 106 122.2 145.8 163.5 182.3 191 191.3 190.3 189.7 190.2 183.9 186.3 190.6 194.7 197.7 200.6 203.9 206.2 208.3 211.8 215 216.8 219.4 222.1 224.8 227.2 228.9 229.5 229.8 229.5 228.8 228.2 227.2 225.9 224.3 222.3 220.1 218.8 217.6 216.5 215.1 213.8 212.6 210.3 208.7 207.2 205.6
157 157.4 157.3 157.2 156.6 156.1 155 153.9 152.5 153.5 152.7 152.8 152 151.8 152.2 152.8 153.7 153.3 153 152.9 152.5 152.8 152.9 152.6 153 153.1 152.3 151.4 150.2 146.8 146.7 149.8 150 149.1 150.6 150.4 152 151.1 154.9 153.9 154.2 154.8 156.7 158.3 158.4 159.1 159.4 160.8 161.9 161 160.4 160.3 160.8 168.2 171.2 172 172.6 173.5 175.5 176.6 176.8 177 176.1 175.4 174.6 173.8 173.7 173.7 173 172.5 171.7 171.3 171.6 171.5 170.9 169.7 169.1 169 169.2 166.4 167.4 168.8 169.2 169.1 168.2 166.8 164.3 163.5 161 160.4 159.7 161.2 163.8 164.4 171 170.8 165.9 164.8 165.8 167.3 172.6 173.2 176.1 172.4 175.6 175.5 165.7 164.3 164.3 164.3 164.3 164.5 164.3 171.6 167.4 173.4 179.3 174 174 170.8 165.5 166.6 169.2 170.8 171.9 171.7 170.2 169.8 167.4 155.6 143.1 139.6 139.2 140.7 139.1 135.5 134.7 133.2 134.2 131.9 131.4 131.6 128.9 122.2 121.9 121.2 119.1 117.8 118.1 113.7 111.4 107.6 102.5 102.4 122.4 142.9 153.8 169.8 190.6 191.6 189.5 189.1 189.4 180.7 187 193.1 200.8 202.2 203 204.7 207.1 209.7 213.5 216.5 218.4 221.2 223.9 226.6 229.2 230.7 231.2 231.6 231.3 230.6 230 229.2 227.9 226.2 224.4 222.3 221 219.9 218.5 217.3 216.2 214.8 212.3 209.7 208.2 206.6
158.2 158.5 158.7 158.5 158 157.4 156.9 155.9 157.7 157.2 157.1 155.7 155 153.1 154 154.8 155.3 154.1 153.9 153.8 153.4 153.5 153.1 152.7 152.4 152.8 152.9 152 149.4 146.8 147.1 148.3 150.1 149.7 150.6 150.2 150.4 151.7 152.7 154 155.6 156.7 159.6 160.8 161.6 160.7 160.2 159.8 160.1 160.1 160.3 160.3 172.1 172.1 172.1 172.7 176.1 176.7 176.6 177.7 177.6 177.9 177.3 176.7 176.2 175.2 175.1 174.9 174 173.2 172.4 171.7 172.2 172.3 171 170.4 169.7 169.3 168.2 165.1 168.3 169 169.4 169.6 169.6 167.1 164.7 162.8 162.2 161.4 160.4 163.8 170.3 165.9 172.2 174.7 168.9 175.5 177.7 175.4 173.5 170.6 173.9 168.9 169.8 170.2 164.3 164.3 164.3 164.3 166.5 167.2 170.9 174.6 168.3 163.4 169.3 168.8 179.1 172.6 169 170.2 170.8 171.8 172.4 172.3 172.9 174 173.4 168.7 157 143.3 143.1 143.1 143.5 143.6 143.8 141.9 135.8 135.4 135 134.6 131.7 123.5 122.2 122.2 119.7 118.4 119 113.3 111.7 109 99.9 106 129.6 145.2 154 167.8 191.5 191.2 189.2 187.4 184.9 183.8 191.4 197.5 201.9 203.2 204.5 205.8 208.1 211.4 215.1 218.1 220.2 223 225.6 228.1 230.7 232.4 232.8 233.2 232.9 232.4 231.8 231.1 229.9 228.2 226.4 224.4 223.2 221.9 220.8 219.7 218.6 216.9 214.4 211.8 209.2 207.6
159.3 159.7 160 159.9 159.3 158.8 158.1 157.3 160.1 160.6 161 160.6 158 155.1 155.9 156.8 156.1 155 154.8 154.4 154.1 153.7 153.3 152.9 152.5 152.1 152.4 152.3 151.3 147.4 147.7 148.7 149.9 150.8 150.5 150.1 150.5 152.1 152.8 152.3 154.4 156.6 157.2 158.1 160.3 160.4 160.6 160.6 160.2 160.4 161.8 167.3 171.3 171.8 172.9 173.8 176.3 176.7 177.2 178.5 178 178.2 177.6 176.8 176 176 175.7 175 174 173.3 172.9 172.2 172.8 172.8 172.1 171.3 172.2 168.8 168.1 167.9 168.6 169.2 169.5 169.5 169.5 167.3 164.9 163.3 162.5 161.8 162.1 166.2 174.1 176.7 177.8 172.8 175.8 179.3 179.8 178.2 175.6 174.5 172 169.1 169 165.2 164.3 164.3 164.3 164.3 166.3 164 175.8 172.4 170 176.1 174.6 177.8 179.8 171.1 166.3 168.9 171.1 171.2 171.5 171.9 171.1 171.3 171.5 168.7 162.7 149.3 143.4 143.1 143.2 143.8 144.6 144.6 139 136.9 136.1 134.8 135.9 123.4 122.9 122.2 120.3 117.7 118.6 113 108.1 107.3 100 113.2 123.8 143.3 153.4 169.3 191.3 190.9 189.4 186.3 182.3 188.8 193.2 198.7 203 204.5 205.9 207.3 209.3 213 216.6 219.6 222 224.6 227.1 229.6 232.2 233.9 234.3 234.8 234.5 234.1 233.6 233 231.8 230.1 228.3 226.6 225.5 224.3 223.2 222.1 220.9 219 216.6 213.9 211.2 208.6
163.3 163.2 162.3 160.9 160 159.1 158.2 158 160.1 160.6 161.8 164.6 158.3 157.9 158.3 158.2 156.9 155.9 155.6 155.3 154.9 154 152.9 152.7 152.4 152.1 152 152.5 152.6 148.8 148.2 148.6 149.7 150.8 150.8 150.3 150.9 152.2 152.8 152.3 152.3 153.2 155 157.8 160.3 161.1 161.3 161.4 160.9 161.6 166.5 170.5 171.8 172 174.8 175 176.4 179.1 180 180.5 178.7 178.5 177.8 176.9 176 175.6 175 174.4 173.7 172.7 172.1 171.9 173.4 173.4 170.4 169.7 169.3 168.6 168.6 168.4 168.6 169.3 169.6 169.8 169.6 166.8 165.2 163.5 162.8 162 162.7 167.1 174.6 169.6 169.1 169 169.4 169 172.6 173.4 170.4 168.9 168.4 167.2 167 165.4 164.3 164.3 164.3 169.3 168.1 164 165.3 177.3 179.5 180.2 180.5 177.9 169.5 167.5 164.8 165.2 169.2 168.6 169.4 169.9 169.2 168.6 164.9 156.4 146.8 141.3 141.1 141.8 143.8 144.6 144.8 145.3 144.1 140 138.3 135.2 134.3 124.3 121.2 115.5 112.7 113.9 115.6 111.3 108.2 101.6 105.1 126.3 147.8 146.7 151 163.5 184.4 190.3 188.3 182.9 188.2 189.7 194.7 202.2 203.6 204.8 206.2 207.7 210.4 214 217.9 221.1 223.9 226.5 229 231.6 234 236 236.5 236.7 236.2 235.7 235.2 234.8 233.8 232 230.1 229 227.9 226.8 225.6 224.5 223 221.1 218.7 216 213.3 210.2
163.9 164.4 163 161.5 160.2 159.3 158.9 158.7 159.8 160.9 163.4 162.3 159.8 160.7 159.9 159.1 158.2 157 156.6 156.5 155.9 155.3 154.2 153.1 152 151.3 151.5 153.1 152.9 151.3 149.8 149 149.7 150.4 151.7 153.8 155 153.3 159.6 153.5 153.7 155.2 156.8 158.4 160.7 161.1 161.8 162.2 163.4 168.9 172 174.7 176.2 178.2 178.3 178.1 181.4 182.6 183.2 181.3 180 178.7 178.1 177.7 176.5 175.2 174.5 174 173.6 172.8 171.7 171 170.5 170.4 170.2 169.7 169.5 169.1 169.2 169.2 169.1 169.2 169.5 169.8 170.1 167.6 165.8 163.8 163 162.5 162.9 167.4 175.5 169.1 168.5 168.5 168.9 168.6 168.4 168.2 167.8 167.4 166.7 165.6 165 164.3 164.3 164.3 168 171.5 168.5 164.8 176.4 183.1 184.9 173.9 170.9 168.5 167.4 164 162.6 153.6 149.3 147.7 148.9 151.4 152 148 141.2 134.7 128.7 128.7 127.7 133.7 138.7 145.2 146.3 146.9 146.8 143.6 138.1 136.4 127 116.5 112.7 112.4 112.1 111.3 111.7 110.7 109 100.3 118 141 148.1 158.1 160.5 168.1 190.2 189.5 186 183 187.7 191.5 198.6 203.4 204.2 204.9 206.3 208.4 211.5 215.2 219.6 223 225.9 228.5 231.1 233.6 235.5 237.5 238.8 238.5 238 237.5 237 236.5 235.6 233.6 232.4 231.3 230.2 229.2 228.1 226.9 225.1 223.3 220.8 217.9 214.8 211.8
164.2 164 163.6 162.1 160.7 159.7 159.5 159.2 160.1 161 161 160.7 160.7 160.6 160.7 160 159.1 158.2 157.8 157.8 156.8 156.3 155.5 154.4 153.3 152.2 151.9 153.1 154 152.8 150.9 150.1 150.6 151.6 157.7 158.2 157.2 156.5 158 155.9 156.5 158.4 160.2 159.9 160.9 161.6 164.1 166.6 170.7 174.5 175.5 177.6 180.7 182.9 185.6 182 183.9 186.4 186.5 186.1 185.6 181.5 179.2 178 177.6 175.4 175.2 174.8 175 174 173 171.9 172.2 171.5 170.8 170.4 170 169.9 170 170.1 169.3 169.2 169.5 169.7 169.6 169.1 166.2 164.3 163.3 163.3 163.8 169.9 173.2 169 168.7 168.3 168.4 168.2 168.3 167.8 167.2 166.6 165.8 164.9 164.3 164.3 164.3 168.2 172.6 173.9 172.2 168 184.7 177.7 166.5 168 169.4 166.9 165.1 160.3 148.1 142.2 141.8 141.9 142 140.7 137.2 133.5 127.9 126.3 128.2 128.2 127 126.3 127 131.4 141 146.5 149.5 147.9 140 132.1 116.4 113.2 112.9 112.9 112.3 111.6 111.1 110.6 99.6 108.8 135.4 157.3 157.6 165.5 176.3 188.9 189.7 188.2 184.5 186.2 189.5 194.1 201.8 204.2 204.9 205.5 207.1 209.3 212.3 216.8 221 224.4 227.8 230.7 233.2 235.1 237 239 240.8 240.4 239.9 239.4 238.9 238.2 236.7 235.6 234.5 233.4 232.3 231.3 230.2 229 227.1 225.3 222.5 219.5 216.4 213.3
164.3 163.8 163.8 162.3 161.3 160.6 160 159.5 159.9 160.3 160.7 161.3 161.1 160.9 160.7 160.6 160.1 159.4 159.1 158.9 157.8 157.2 156.8 155.7 154.6 154.1 154.1 154.8 155.6 153.7 151.8 151.7 154.2 155.2 157.6 157.2 158.4 160.3 159.8 158.9 160.6 161.9 163.5 165.1 165.5 168 170.6 173.2 175.9 177.6 179.2 184.9 184.7 185.6 186.3 188.7 185.6 186.6 189.2 189.6 181.2 179.8 180.3 181.3 178.7 177.5 176.2 176.4 176 174.6 173.7 173.3 173 173.1 172.3 171.8 171.4 171.3 171.9 172.7 171.2 169.8 169.3 169.4 169.4 169.4 166.9 164.9 163.7 164.1 164.9 169.4 169.9 169.4 168.7 168.4 168.1 168.7 168.1 167.6 166.6 166 165.8 165.6 166.1 164.3 164.3 165 169.4 170.6 169.5 171.6 175.3 168.8 166.4 166.7 167.7 165.8 160.7 151.9 143.1 140.9 142 141.5 141.8 136.7 135 128.9 123 122.7 123.1 126.9 127.1 128.8 126.6 124.6 128.2 136.2 127.7 118.8 119.6 113.9 113.4 113.2 112.7 113.2 113 111.9 111 108.3 101.3 123.5 148.8 162.5 169.2 177.5 191.6 190.8 189.9 186.7 184.9 187.6 191.3 196 201.6 203.3 204.6 206 208.1 210.4 214.2 218.7 222.4 225.8 229.2 232.6 235 236.7 238.5 240.5 241.7 242.3 241.8 241.4 240.7 239.2 237.6 236.7 235.7 234.7 233.6 232.5 231.4 230.4 228.8 226.6 223.8 220.9 217.9 214.8
164 164 164 163 162.1 161.4 160.9 160.8 161.2 161.5 162 161.8 161.6 161.4 161.4 161.3 161.3 160.9 160.6 159.9 158.8 158.1 157.8 156.9 157.4 157.7 158 158 156.4 153.9 152.2 154.8 158.9 158 158.8 158.7 158.9 158.9 161.1 163.3 165.4 166.6 167.9 168.8 170.7 172.5 175.4 177.4 179.7 182.4 182.7 184.2 186.6 188.1 190 190.3 190.4 190 186.8 185.8 181 184.7 185 183.6 181.4 180 178.5 181.3 177.1 175.9 175.6 175.2 174.7 174.3 173.9 173.4 173.2 173 174.1 174.9 174.2 171.4 170.3 170.9 170.6 170.4 168.5 166.2 165.6 165.4 165.4 167 167.7 167.4 167.5 167.7 168.1 167.7 167.8 167.2 166.7 166.8 166.4 165.9 165.6 164.3 164.3 167.2 169.4 170.2 170.9 171.7 169.3 168.2 167.4 166.7 167.4 168.6 155.1 145.6 142.8 141.4 141.8 140.8 135.4 129.9 125.7 123.2 122.2 121.7 120.5 124.7 127.7 128.7 125 116 108 104.6 104.2 104 103.9 103.7 103.7 106.2 108 108.6 108.9 109.1 106.6 100.4 118.5 144.7 161.4 172.8 187.2 191.5 190.9 189.9 189 188 185.8 188.5 193.1 197.7 201.1 203.7 205 206.5 208.9 212 216.3 220.7 224 227.2 230.6 234.4 237 238.5 240.1 241.8 242.7 243.6 243.8 243.2 241.6 240 238.7 237.8 236.9 235.9 234.8 233.8 232.7 231.6 230.4 227.7 224.9 222.1 219.3 216.4
164.1 164.3 164.6 164.2 163.4 162.7 162.1 162.6 163 163.4 163.7 163.5 163.4 163.4 163.3 163.3 163.5 162.6 162.3 161.6 160.7 160.8 159.2 158.4 158.5 158.6 158.5 158.3 158.4 154.9 152.7 154.8 158.8 159.4 159.8 159.8 161 163.2 166.3 168.7 170.1 171.2 171.3 172.2 174.5 176.6 179.4 181.5 185.1 185.9 186.4 187.1 188.4 188.4 188.5 188.4 186.9 186.9 189.8 182.9 186.6 188.1 186.8 183.1 182.9 181.9 180.5 179.2 180.9 179 177.5 177.3 177 176.8 176.6 176.2 175.9 174 173.8 175.2 173.7 171.6 171 171.6 173.8 173 170.5 167.6 167.5 166.6 165.6 165.4 167.5 167.4 167.6 167.7 168 168 167.7 167.3 167.4 167.6 167.3 166.8 165.6 164.3 164.3 169.3 170.3 171.4 172.4 173.5 172.7 169.4 168.5 168.4 173.1 167.8 152.9 146.3 141.6 140.3 142.3 131.6 124.5 124.9 123.5 121.9 120.8 113.6 112.1 111.8 117.6 121.8 106.7 104.1 106.1 109.7 111.2 111.3 110.9 110.1 110 103.4 101.3 103.6 102.8 101.5 101.1 108 127.4 157 169.6 183.6 190.1 190.4 191 189.8 188.3 187.9 186.4 189.8 194.1 198 200.6 204 205.4 207.4 209.8 213.6 218.5 223 226.2 229.2 232.1 236 238.3 239.9 241.5 242.8 243.7 244.6 245.1 244.1 242.5 240.9 239.8 238.9 238 237.1 236.1 235 234 232.9 231.5 229.1 226.2 223.4 220.6 217.6
165.4 165.2 165.5 165.6 164.8 164.1 163.9 164.7 165.2 165.6 166.1 165.6 165.4 165.4 165.3 165.3 165.8 164.5 164 163.2 162.9 161.7 160 159.3 159 158.8 158.7 158.4 154.3 153.3 153.8 158.3 159.7 160.1 160.5 160.9 164.5 167.6 170.6 173.1 174.1 173.7 174.5 175.6 178 180.4 183.5 186.4 187.6 190.1 191.5 191.6 191.5 190.9 189.7 189.1 188.3 185.5 184.2 188.5 189.1 188.7 188 186.1 185 183.8 182.3 181 181.1 179.9 179.9 180.3 179.9 179.1 178.3 178.1 177.9 177 173.1 174 173.8 171.4 171.2 175.6 183.3 184.2 179.4 170.1 169.6 168.1 166.9 166.3 167.9 167.7 167.4 168.3 167.5 167.9 168.6 168.7 168.3 168.3 168.2 166.9 165.5 166.1 167.8 171.2 172.2 173.8 175.4 176.7 176 172.6 170.8 170.6 171.2 159.3 147.6 138.5 128.4 123.6 122.8 121.1 126 125.5 123.2 122.4 113.7 113 111.2 110.5 105.7 106.3 112.1 134.7 134.2 123.6 118.6 116.7 111.1 110.4 109.8 109.5 109.4 108.3 106.3 106.9 110.7 116.6 134.1 156 174.6 190 190.5 190.6 190.9 190.7 188.9 187.8 186 191 194.6 198.8 201 203.5 205.8 208.2 210.9 215.7 220 225.3 228.2 230.5 233.5 237.1 239.4 241 242.5 243.8 244.7 245.5 246 244.9 243.3 241.8 240.9 240 239.1 238.2 237.3 236.3 235.2 233.8 232.3 230.1 227.6 224.8 221.8 218.7
167 166.6 166.4 166.7 166.3 165.6 165.8 166.6 167.4 167.9 168.3 168.1 167.6 167.4 167.3 167.3 168 166.5 165.7 164.4 163.2 161.9 161.6 161.7 161.6 160 159.8 156.4 154.5 154.9 155.2 159.1 160.5 161.2 161 161.4 168.4 172 174.3 175.2 176.2 177.6 178.2 179.9 181.4 183.6 186.6 189 190.5 191.2 192 192.1 191.6 191.5 190.6 190.9 191.5 185.5 188.8 191.5 190 189.2 188.4 187.7 186.6 185.6 184.4 183.1 181.9 184.7 184.2 183 181.2 180.3 179.1 178.9 178.8 178.2 175 172.7 172.2 171.5 173 182.6 186.8 188.6 183.4 180.3 175.5 171 169.2 166.3 168.5 168.5 168.2 167.4 168.1 168.8 169.3 170.1 169.9 169.5 169.1 168.1 168.3 170 171.7 173.4 175 176.8 178.4 179.3 177.6 173.3 171.1 166.6 151.2 145.2 137.4 123.6 116.6 115.7 113.9 114 109.9 105.8 112.6 115 114.2 113.8 112.1 111.7 106 117.1 135.5 137.1 137 136.1 128.4 125.8 121.9 117.9 112 109.5 109.1 108.5 108.9 111.2 116.4 124.3 143.1 162.4 180.8 190.6 191.4 191 190.9 190.7 191 188.6 188.5 192.3 195.9 199.7 202.1 204.4 206.8 209.8 213.7 218.4 222.6 226.8 229.7 231.9 234.9 238.1 240.5 242 243.6 244.9 245.7 246.4 246.6 245.8 244.2 242.9 242 241.1 240.2 239.3 238.4 237.4 236.2 234.6 233.1 230.9 228.6 226 222.9 219.8
168.5 168.2 167.9 167.6 167.7 167 167.7 168.5 169.3 170.2 170.6 170.5 170 169.5 169.3 169.3 170.3 168.5 166.8 165.2 164 162.6 162.6 162.9 162.8 162.5 159.2 156 157 156.6 156.2 159.4 160.8 161.8 162.8 163.6 170 175.2 175.8 176.9 178.2 180.5 182.6 184.5 186 187.4 189 190.8 191.5 192.3 192.2 192.7 193.1 196.6 198.5 198.3 195.7 192.5 194.7 193.9 194.6 190.7 188.8 188 187.4 186.3 185.2 184 183.5 185.6 183.3 182.8 184.3 183.6 181 180.1 180 180.2 174.7 173 172 172.1 174.5 180.1 179.7 181.1 180.3 176.6 175.6 171.5 169.9 169.3 169.2 169.2 168.7 167.8 168 169.1 169.5 170.7 171.8 171.9 171.1 170.8 171.9 173.9 175.8 177.6 179.1 180.4 179.7 179.9 177.5 176.8 171.6 151.4 136.1 126.6 120 117.5 116.8 115.2 110.8 109.1 114.3 114.3 111.7 108.1 105.7 105.9 105.9 105.7 114.8 129.6 136.6 137.1 136.9 138.2 138.1 131.4 126.5 124.9 121.8 117.8 113 114.5 118.8 113.4 121.2 134.9 152.5 169.3 188.3 191.3 186.9 183.8 189.9 190 190 188.8 190.7 194 198 201.4 204.5 207.3 210 213.1 216.8 221 224.7 227.4 231 233.3 236.3 239 241.5 243.1 244.6 245.9 246.6 247.3 247.2 246.4 245 244 243.1 242.2 241.2 240.1 239 237.9 236.8 235.5 233.9 231.7 229.4 226.6 223.4 220.3
170.1 169.8 169.5 169.1 168.8 168.8 169.5 170 171.3 173 173.4 173 172.5 172 171.5 171.4 171.7 169.4 168.1 166.3 164.7 163.1 163.3 163.4 162.8 159.6 158.6 157.5 157.7 157.4 157.2 159.9 161.1 162.2 163.7 166.1 169.9 175.1 177.6 178.9 180.2 183.8 186.8 189.1 190.5 191.3 190.8 191.3 192.3 193.4 194.1 194.6 199 199.7 198.2 196.4 194.4 190.3 196.7 194.9 194.1 192.9 190.1 188.6 187.5 186.4 185.2 184.9 185.2 183.3 182.8 187 188.6 188.1 183.7 181.5 181.4 175.9 174 173.9 173.1 172.8 173.5 174 174.4 180.6 178.6 175.1 173.9 172.1 171.1 170.3 169.8 169.6 168.7 167.8 168 169 169.8 171.6 174.1 174.8 174.4 174.9 175.6 177.8 180 181.9 183 183 181.1 182.2 183.7 190.6 169.3 141.7 124.6 119.1 118 117.3 116.3 115.5 106.8 117.6 116.5 116.9 115.4 114.4 113.7 112.4 108.5 108.3 115.2 126.2 135 137 135.9 137.3 137.8 138.2 135.3 127.9 125.4 124.5 124.7 123.8 122.5 112.3 123.9 138.1 158.7 176.6 180.2 171.6 183.8 188.4 189.5 188.7 185.1 188.7 191.8 196.2 199.7 203.2 206.5 209.3 212.2 215.2 218.5 222 224.6 227.1 230.8 234.6 237.3 239.9 242.6 244.1 245.6 246.9 247.5 248.1 247.8 247 246 245.1 243.9 242.8 241.6 240.5 239.4 238.3 237.2 236.1 234.8 232.4 230 227.2 224 220.9
171.7 171.3 171 170.7 170.3 170.4 171 171.6 172.8 174.4 176.1 174.9 174.4 173.9 173.4 172.8 171.5 170.3 169.4 167.6 166 163.8 163.4 161.8 161.8 159.1 158.8 158.6 158.4 158.4 160.2 162.6 162.6 163.3 165.1 167.7 170.4 175.1 178.4 180.6 182.5 187 188.5 191.3 192.6 191.6 191.8 192.3 192.9 194 198.1 201.3 200.9 200 198.7 197.2 195.5 198.9 200.3 201.7 195.9 192.8 192.9 190.3 190.6 188.7 186 186.4 185.2 184.1 184 183.9 185.1 184 180.9 178.5 175.8 175.2 175 174.6 174.2 173.9 173.3 173.4 173.9 174.1 174.6 173.9 172.7 172.3 171.7 170.9 170.4 169.4 168.6 168.1 168 169 169.9 172.2 174 175.4 175.6 176.6 178.3 179.7 183 185.5 186.6 185.9 191.7 194.1 195.4 191 165.1 137.1 122.1 119.2 116.5 116.7 116.4 107.4 108.8 113.4 121.2 119.3 118.4 117.7 115.7 114.4 112.3 114.4 117.4 130.6 140.5 136.7 135.4 135.7 137.1 138.5 137.3 135.4 129.6 127.5 127.8 127.1 120.6 113.6 135 150.7 142.6 146.9 155.4 176.1 189.2 188.9 188.6 188.4 189.9 189.7 193.6 197.6 201.3 204.9 208.3 211.3 214.3 217.3 220.1 223 225.5 228.1 231.8 235.6 237.9 241.3 243.4 244.7 246.2 247.4 248.1 248.5 248.5 247.7 246.6 245.4 244.3 243.2 242 240.9 239.8 238.7 237.6 236.3 235 232.9 230.5 227.7 224.5 221.7
173.2 173 172.6 172.2 171.7 171.4 172.5 173.1 173.8 175.4 177.1 177.1 175.8 175.3 174.8 174.1 172.6 170.8 170 169 167.3 164.9 162.5 161.2 160.2 159.4 159.6 160 160.5 161.9 162.7 163.5 163.8 164.6 167 169.4 172.2 174.9 178.6 182 186.4 188.2 189.5 191.5 193 192.6 192.9 193.3 196.3 201.9 202.6 203.3 201.7 200.8 200.8 204.7 204.6 206.4 203.9 201.1 199.4 196.1 194.4 192.4 191.6 191.6 190.1 188.5 185.8 185 184.2 183.3 180.1 179.5 179.5 179.3 177.1 175.7 175.6 175.6 174.9 174.6 173.5 173 174.1 174.5 174 173.3 172.6 172.9 171.8 171.5 170.1 169.3 168.8 168.4 168 169 169.9 171.6 173.3 174.9 176.1 177 179.4 180.2 183 185.7 185.9 195.3 196.1 189 181.6 179.2 168.1 140.1 122.7 119.3 115.9 113.5 109.1 110.5 108.8 114.1 118.5 120.6 120.1 118.8 117.8 118 118.4 120.1 127.6 146.3 148.7 137.6 135.6 136.3 137.6 136.4 135.3 135.4 134 133.6 131 127.9 115.4 129.5 149.8 164.6 170.8 171.2 181.2 190.9 190 189.7 189.4 189.3 191 192.8 194.8 198.5 202.2 206 209.6 213.2 216 218.7 221.4 224.4 227.5 230 233.8 236.1 238.4 240.8 243.7 245 246.3 247.6 248.2 248.3 248.5 248 247 245.8 244.7 243.5 242.4 241.3 240 238.7 237.4 236.1 234.8 232.9 230.7 228 225.2 223.1
174.9 174.4 174 173.5 173 172.7 173.4 174.6 175.2 176.4 178 177.9 177.2 176.7 176.1 175.2 172.5 171.4 170.7 170 167.9 166 162.1 161.5 161.6 159.9 160 160.1 160.4 163 163.9 164.6 166.6 170.1 173.5 175.2 176.8 177.7 179.4 182.8 186.7 188.3 190 191.7 192 192.8 193.1 197.9 202.8 203.4 203.5 203.4 202.7 204.2 208.9 209.2 207.9 208 205.4 203.2 200.4 198 196 193.1 191.4 190.2 190.4 190.3 187.7 187.3 185.3 185 183.4 182.6 181.5 181 179.9 178.6 177 176.9 175.6 175 174.1 174.3 174.9 174.9 174.1 173.2 172.8 173.4 173.4 171.4 169.9 169.6 169.1 168.7 168.3 169 169.8 171.1 172.7 174.6 176.3 177.2 179.8 181.2 182.9 187.9 194.3 194.5 184 181.2 175.5 171.5 167.8 149.5 127.6 118.7 116 113.8 109.2 112.9 113 114.6 120.3 123.3 125.8 128.2 123.8 124.5 132.9 143.4 148.2 147.8 148.7 138.1 135.8 135.1 135.3 135.4 135.5 134.7 135 135.4 133.9 119.5 125 144.8 161.5 176.5 188.8 191.9 191.7 191.5 190.9 190.4 190.1 190.3 192 193.7 195.8 199.3 202.9 206.6 210.2 213.9 217.4 220.1 222.8 225.8 228.9 232 234.3 236.7 239 241.3 243.7 245 246.3 247.4 247.8 248.1 247.6 246.9 246.3 245.6 244.9 243.8 242.4 241.1 239.8 238.4 237.1 235.9 234.6 232.7 230.7 228.6 226.2 223.9
176.2 175.8 175.3 174.9 174.3 174 174.4 175.6 176.7 177.4 178.8 178.8 178.7 178 176.9 174.4 172.8 172.1 171.4 170.7 169.1 167 163.7 163 162.5 161.5 161.9 162 164.2 164.2 168.8 169.1 169.9 173.7 177.5 180.5 183 182.4 183.2 184.5 186.6 189.5 191.2 191.8 192.8 193.9 197.7 198.7 200.5 201.7 203.9 206.6 208.3 209.6 209.5 209.5 210 209 206 204 202.1 199.2 197 193.4 191.2 190.2 190.3 189 189.6 188.8 187.3 184.9 183.5 184.5 183.2 182.3 179.2 180.6 180.3 178.3 176.9 175.6 175.2 175.7 176.8 174.3 173.6 173.1 172.6 173.7 173.9 169.6 169 169.6 169.4 169 168.6 169 169.7 170.5 171.9 173.4 174.8 176.1 179 181.2 193.8 192.8 191.3 183.7 181.6 179.5 175.8 171.2 167.8 156.2 134.2 121.6 116.9 112.5 113 113.3 113.5 115.9 123.7 124.2 134.2 148.3 140.5 141.5 150.2 149.9 148.8 148.8 149.1 138.6 136.5 135.1 135.3 135.5 135.6 135.7 136 137.6 137.2 126.1 143.8 155.1 173.9 190.9 191.7 192.5 192.1 191.5 191.8 191.1 190.8 191.4 193 194.4 196.1 199.8 203.5 207.1 210.7 214.2 217.7 221 224.2 227.1 229.7 232.2 234.8 237.1 239.5 241.8 243.7 245 246.1 246.9 247.3 247.6 247.2 246.7 246 245.4 244.7 243.5 242.2 240.8 239.5 238.2 236.9 235.6 234.4 232.5 230.2 227.6 225 223.1
177.6 177.2 176.7 176.3 175.5 175.2 175.5 176.5 177.7 178.8 179.6 179.5 179.2 178.6 177.1 174.3 173.5 172.8 172.1 171.4 170.3 168.4 166.4 165.7 163.1 162.9 163.9 164.4 164.6 165.2 168.4 170.2 172.2 175.9 179.6 183.3 186.1 187.3 187.9 188.5 188.9 191.3 191.9 191.9 194 196.3 199.8 200.2 203.6 206.8 209.8 211.1 211.9 211.7 211.6 211.3 210 210.1 206.6 204.8 201.7 200.2 196.4 192.7 190.9 190.3 190.7 189.7 190.6 190.7 186.4 183.1 182.8 182.9 183.2 182.9 182.5 180.8 180.4 180 177.6 176.3 175.1 176.9 176.7 174.3 173.7 173.2 172.7 172.1 172.7 169.3 169.3 169.1 169.3 169.1 168.9 168.9 169.7 171.4 172.2 173.3 174.6 182.8 184.9 191 195.9 193 183.9 181.7 180.5 178.6 176 172.3 167.5 158.6 138.5 124.8 119.2 109.2 113.8 114 115.1 115.8 120.7 124 141.3 150.1 149.8 150.3 150.7 150.6 151.3 151.1 151.7 144.8 137.4 135.8 135.4 135.5 135.6 135.9 137.5 140.6 141.1 130.3 153.5 160.9 177.6 188.5 191 192.2 192.1 191.6 191.8 192 191.6 192.4 193.8 195 196.7 200.3 203.8 207.3 210.9 214.4 217.9 221.2 224.5 227.3 229.9 232.5 235.1 237.6 240 241.8 243.7 244.8 245.6 246.4 246.7 247 246.7 246.2 245.7 245.1 244.5 243.3 241.9 240.5 239.2 238 236.7 235.4 234.2 231.9 229.3 226.7 224 221.4
179 178.5 178.1 177.6 176.8 176.5 176.8 177.5 178.6 179.8 180.2 179.7 179.4 178.8 175.9 175.5 174.8 174.1 173.3 172.5 171.4 170.5 168.1 167.6 163.7 163.9 164.9 164.7 164.4 167.1 168.9 173.4 174.7 178.4 182 185.7 188 189.9 191.7 192.6 193.2 192.7 193.4 197.6 201.8 203.5 204 209.2 212.7 213.8 214.3 214.9 215 214.6 214.5 215.3 214.9 212.3 208.4 204.2 199.4 197.7 195.7 191.7 191 193.6 193.1 191.5 190.2 189.6 185.8 185.1 183.4 183.2 184.6 185.5 186.1 182.7 181.9 181.8 178.4 177.1 176.4 176.2 176.3 174.9 174.3 173.8 173.2 172.6 172.3 171.2 170.2 169.4 169.1 169 168.8 169 170.5 172.3 173.1 173.9 179.5 187.9 183.2 183.5 184.8 183.3 181.9 179.9 177.9 177.2 174.8 171.5 167 161.7 144.6 130.4 118.5 109.3 115 115.8 115.4 115.9 121.3 135.1 150.8 150.6 150.9 151.5 152.3 153 154.1 154.4 155.2 154.4 138.2 136.8 136 136.1 137 137.8 140.3 145.6 150 145.6 136.1 152.2 158.8 180.1 186.9 190.6 191.2 191.7 191.9 192.1 192.3 193.1 194.3 195.4 197.4 200.5 204 207.5 211.1 214.6 218.1 221.4 224.7 227 229.5 232.1 234.7 237.3 239.6 241.5 243.3 244.3 245.1 245.9 246.2 246.5 246.2 245.7 245.1 244.6 244 242.8 241.4 240.1 238.9 237.7 236.4 235.1 233.6 231 228.4 225.8 223.1 220.5
180.6 179.9 179.5 178.8 178.1 177.8 178 178.5 179.6 181 180.8 180.2 179.7 178.9 177.9 177.5 176.7 175.7 174.7 173.7 172.4 171.9 171.1 166.1 164.6 164.7 165.5 165.4 165.6 169.1 171.2 174.6 178.9 180.9 184.6 187.6 189.8 191.6 193.5 195.4 197.2 197.9 200.2 201.8 204.4 207.5 213.1 213.7 215.4 217 217.5 217.1 216.9 217.7 217.7 217.5 218 215.1 212.6 207.3 203.2 197 193.9 192.1 190.4 193.3 193.5 193.6 192.5 187.2 186.3 186.3 185.4 184.6 187.1 185.2 185.7 183.4 182.3 181.5 179 177.8 176.2 175.9 175.8 175.5 175.2 174.7 174.2 173.6 173.7 173.9 173.1 170.7 169.7 169.2 169 170.5 172.4 173.5 174.4 175.5 181.5 180.1 175.1 176.6 178.6 179.8 179 177.4 175.8 174.2 171.5 168.2 165.9 165.1 153.5 134.9 118 111 115.5 117 116.5 116.7 129.5 144.6 151.5 151.5 152.1 152.9 153.4 153.9 154.2 155.5 155.5 151.9 148.6 139.3 138.8 139.7 140.7 143.7 153.2 161.6 161.7 162.1 153.3 140.4 157.4 180.7 192 191.1 191.7 192.1 192.3 192.5 192.4 193.6 194.7 195.9 198.5 201.9 204.9 207.9 211.3 214.8 218.3 221.6 224.1 226 228.4 231 233.6 235.6 237.9 240.6 242.4 243.6 244.6 245.3 245.7 246 245.7 245.1 244.5 243.7 243 241.9 240.6 239.2 238.1 237 235.9 234.7 232.4 230 227.5 224.9 222.2 219.2
182.7 181.7 180.8 180.1 179.4 179.1 179.3 179.6 180.8 182 181.4 181.8 182.3 181.3 180.1 178.8 177.9 176.9 175.9 174.9 173.3 172.4 171.7 170.8 165.6 166 166.6 167.4 168.4 170.9 173.4 176.8 180.3 183.4 186.9 189.4 191.6 193.4 195.3 197.5 200.4 202.7 204 204.9 209 213.5 215 216.3 217.4 218.4 219.1 219.4 219.5 220.1 218.6 216.5 217.3 215 210.7 208.4 204.9 201.8 196.6 190.9 190.9 194.8 195.1 194.6 188.4 186.3 186.6 186.3 183.7 183.7 183.7 184.2 185.1 182.1 180.8 179.7 178.6 177 176.3 176.3 176.2 175.6 175.4 175.2 174.9 174.6 174.8 177.6 177.7 172.3 170.2 169.7 169.7 171.8 173.6 174.7 175.8 178 178.8 175.5 174.1 174.9 175.1 175.4 177 175.7 174.5 173.3 169.7 167.1 164.7 164.2 162 136.5 116.9 109.2 117.6 118 117.6 119.8 132.9 146.3 151.9 152.6 153.2 153.9 154.5 155.2 155.8 155.5 155.1 167 166.8 163 159.9 151.5 146 161.2 176 186.9 178.3 173.8 171.1 150.2 154.4 177.5 193.2 191.9 192.2 192.5 192.7 192.6 192.7 193.8 194.9 196.1 199.5 203.4 206.4 209.4 212.4 215.3 218.5 221 223.4 225.3 227.3 229.8 232 233.9 236.2 238.9 241.5 242.8 243.9 244.8 245.1 245.5 245 244.3 243.5 242.7 242 240.9 239.6 238.4 237.2 235.9 234.7 233.5 231.3 228.9 226.5 223.9 220.9 217.9
184.7 183.8 182.8 181.6 180.4 179.9 179.9 180.9 182.1 182.6 183.9 185.3 184.6 183.5 181.8 180.1 179.1 178.1 177.1 175.9 174.3 173 172.3 171.2 166.3 167 167.7 168.4 170.8 173.1 175.7 179.1 182.5 186 188.8 191.2 193.3 195.8 198.4 201.1 202.6 205.4 207.6 209.4 212.2 215.1 216.8 218.1 219.3 219.6 220.3 221 221.6 222.1 221.5 218.3 216.8 213.6 210.6 206.9 204.8 204.9 198.4 193.6 193 194.8 195.2 190.2 187.2 187.2 187.5 187.3 185.2 183.7 183.7 183.7 184 182.1 180.5 179.3 178.2 177.8 176.9 176.7 176.6 176 175.6 175.3 175.1 174.9 175.4 177.6 178.3 176.6 174.2 171.6 170.6 172.4 174.7 175.7 177.4 177.4 176 174.9 174.7 174.3 173.4 174.6 174.2 175.2 174.3 172.9 169.3 168.4 165.3 154.9 142.1 120.6 114.9 110.8 118 119.9 129.5 129.4 133.7 149 152.8 153.5 154.9 155.5 156.2 156.8 157.4 157.2 165.1 167.2 171.7 175.4 175 169.6 166.3 181.3 191.6 192.1 190.3 187.5 182.1 159.7 152.1 174.8 193 192.9 192.7 192.4 192.2 192.1 192.7 194.1 195.1 196.2 199.4 203.7 207.4 210.4 213.4 216.4 219.1 221.6 223.8 225.2 226.2 228.4 230.3 232.1 234.4 237.2 239.5 241.8 242.9 243.9 244.7 244.5 243.5 242.7 241.9 241.2 240.3 239.3 238 236.8 235.5 234.3 233.1 232 230.2 227.8 225.1 222.2 219.6 216.7
186.7 185.8 184.6 183.3 182 181.5 181.5 182.7 184 185.9 187.4 188 186.9 185.2 183.6 181.9 180.3 179.3 178.3 176.8 175.2 173.7 172.8 169.5 167.1 167.8 168.5 170 172.5 175.4 178.2 181.3 184.9 188.6 192.1 194 196.6 199.4 202 203.7 204.4 207.4 211.4 212.2 213.4 215.7 218.5 220 221 221.3 221.6 222.3 223.2 224.3 223.3 221.7 220.1 214.5 212.3 207.1 204.6 203.1 199.6 194.2 194 194.1 192.5 187.7 191.5 190.4 190.4 189.1 186.8 184.8 183.7 183.7 183.5 180.9 181.4 179.8 179.5 178.7 177.8 177 177 176.3 175.7 175.5 175.3 175.1 175.3 176.1 177.3 176.8 175.9 175.8 173.1 175 178.1 176.8 177 177.1 176.3 175.7 175.1 175.1 173.2 173.3 172.3 173.7 173.7 171.9 171 170.2 167.5 148.5 122.2 117.4 114 111 121.1 122.8 131.4 131.9 136.4 149.7 153.5 154.1 154.9 156.4 157.8 158.5 159.1 159.4 166.4 170.1 175.3 174.8 174.4 169 184.1 192.9 193.7 193.7 192.4 192.8 190.3 171.6 148.2 166.7 184.2 191.7 191.6 191.2 191.7 191.7 192.4 194 195.5 196.9 199.6 203.5 207.6 211.4 214.4 217.9 219.9 222.1 224.1 225.4 226.3 226.4 227.8 229.6 231.7 234.4 237.4 239.7 241.6 242.6 243.3 243.2 242.2 241 240.2 239.3 238.3 237.3 236.3 235.1 233.9 232.7 231.6 230.5 229 226.4 223 220.1 217.7 215.2
188.2 187 185.8 184.7 183.3 183.3 183.7 184.9 186.6 188.5 190.5 190.2 188.7 187 185.3 183.6 181.9 180.5 179.4 177.8 176.2 174.6 173.9 173.3 168 168.9 170 172 174.4 177.3 180.1 183.4 187.1 190.8 194.5 197.6 200 202.9 204.6 205.3 206.1 209.4 213 214.7 215.4 217.1 218.5 221.7 222.7 223 223 223.2 223.8 224.3 223.7 222.2 219.7 216.2 212.4 206.1 204.4 202.7 200.6 194.9 192.4 192.2 189.1 194.8 193.8 193.7 194 194.5 190.1 186.9 184.2 183.7 183.7 183.7 182.7 181.2 180.5 179.6 178.7 177.7 177.3 176.6 175.9 175.7 175.5 175.4 175.3 176 175.3 174.2 174.3 175 176.2 184.6 185.5 180.9 179.4 178.5 176.3 175.9 175.5 175.1 173.1 172.4 172.2 172.8 173.2 171.6 172 172.9 172.5 146.1 120.8 117.6 114 111.4 119.1 121.2 131 133 139.1 150.8 154.4 154.8 155.4 156.4 157.9 159.8 159.9 162.1 173.3 175.6 174.7 174.1 174.2 177.9 193.5 193.7 194 193.7 193.1 193.4 192.1 184 167.5 152.4 173.1 187.8 189.1 190.6 191.2 191.6 192.2 193.7 195.5 197.8 200.3 204.1 208 211.8 214.7 217.5 220.2 222.4 224.4 225.7 226.2 226.4 226.4 226.5 228.1 231.3 234.8 236.2 237.7 239.9 240.9 241.2 240.5 239.4 238.5 237.4 236.4 235.4 234.4 233.5 232.2 231 229.9 228.8 227.6 224.3 221 218.1 215.8 213.6
189.3 188.1 186.9 186 185 185.4 186.4 187.4 189.2 190.8 191.3 191.3 189.9 188.3 186.7 185.1 183.5 181.9 180.3 178.6 176.9 175.8 173.2 169.5 169.6 170.7 172.1 174.1 176.5 179.4 181.9 185.1 188.6 192.1 197.6 200.5 203.6 205 205.7 206.7 209.1 211.5 214.2 216.2 217.7 218.9 219.6 221 223.2 223.2 223.2 223.4 223.9 223.8 223.5 221.4 218.8 214.6 209.8 204.9 202.7 201 199 195.4 192 189.1 190.8 195.1 194.7 194.6 195 194.3 192.1 190 185.2 183.8 183.7 183.7 183.7 182.1 181.5 180.6 179.6 178.6 177.7 177 176.3 175.9 175.8 175.6 175.5 176.1 175.6 174.6 174.5 173.8 175.1 186.8 186.1 182.3 181.3 178.3 175.6 174.8 174.6 173.6 173 172.9 172.7 174.6 174.6 175.1 175.3 176.6 178.5 155.8 126.8 118.4 115.2 113.4 114.3 124.1 130.3 135.7 143.1 150.9 155.7 156.1 156.4 156.6 161.2 161.3 161.1 167.2 175.6 176.9 177.3 176.4 176.4 184.4 194 194.4 193.8 193.6 193.6 193.9 193.5 193.3 182.5 170.7 163.9 168.9 175.6 183.2 190.2 191.3 191.9 193.6 195.3 198 201.1 204.5 207.9 211.3 214.1 216.7 219.4 221.9 224.4 225.6 226.1 226.3 226.5 226.3 226.5 229.5 231.7 231.9 233.8 236.3 237.9 238.3 238.1 237.3 236.6 235.6 234.6 233.6 233.1 232.4 230.3 228.9 227.8 226.7 225.6 222.2 219.2 216.3 214.2 213
190.4 189.2 188.1 187.2 187.2 188.1 189 189.9 191 191.6 192.1 191.7 190.6 189.1 187.5 185.9 184.4 182.8 181.2 179.2 177.7 176.9 172.9 170.7 171.5 172.4 174.3 176.3 178.6 181.1 183.6 186.8 190.3 193.6 200.7 202.5 204.6 205.9 207.4 209.3 210.9 213.4 214.9 216.7 218.5 220.3 221.1 222.1 222.1 223.3 223.4 223.6 223.3 222.9 222.3 220.4 217.4 213.7 209.6 204.7 200.2 198.9 198 195 188.8 189.1 196.5 194.7 195.3 195.4 195.3 193.9 192 190.3 188.1 183.8 183.7 183.7 183.6 183.3 184 181.6 180.6 179.4 181.5 179.2 178.7 177.3 177.9 178.4 177.1 177.6 176.4 176.9 175 173 176.4 184.8 182 180 179.7 177.9 175.2 174 174.1 173.7 173.6 173.5 173.3 175.5 177.5 179.6 181.4 183.6 184.9 164 138.6 122 118.9 115.3 112.5 123.9 129.3 135.3 143.4 151.8 156.7 157.6 157.3 160.2 161.1 159.8 165 173.5 176.1 178.4 177.3 176.6 177 188.9 194.8 194.6 194.5 194.3 194.1 193.6 192.9 189.5 187.8 185.7 182 178.5 173.2 174.9 177.3 185.3 192.3 193.8 194.8 197.7 200.5 203.7 207.3 210.9 213.6 216.1 218.7 220.7 222.4 223.3 223.6 223.8 224.2 225.5 226.1 227.6 227.8 228.1 230 232.5 233.3 234.2 235.8 235.6 234.8 233.7 233 232.5 232 231.3 229.1 227 225.7 224.6 223.5 220.5 217.7 215.1 213.3 211.9
192.1 190.9 189.8 188.9 189.2 190.1 191 191.8 191.9 192.5 193 192.2 191.1 190 188.4 186.8 185.2 183.7 182.5 180.2 179 176.3 172.2 171.6 172.4 174.5 176.6 178.6 181 183 185.3 187.9 191.9 196.5 201.5 203.4 205 206.5 209.9 211.6 213.3 214.7 216.1 217.5 218.9 220.2 221.5 220.4 220.4 221.5 223.3 223.4 221.7 221.9 221 219.5 215.7 212 208 203.6 199.7 202.5 201.1 193.2 189.1 194.9 194.9 194.5 195 194.3 193.6 192.2 190.9 190.1 189.3 188 187.2 187 185.4 186.3 187.7 183.3 182 184.1 186.3 187.4 182.9 180.4 183 181.1 180.6 180.8 179.8 178.5 175.6 173.1 179.4 182 177.8 175.6 176.2 176.4 173.9 174.2 174.5 174.3 174.2 174.1 174.4 176.6 179.6 183.5 187 188.7 191 173 149.7 127.3 121.3 117.3 111.8 120.2 128.9 135.7 145.8 153.7 157.5 158.4 159.3 161.3 161.3 166 171.2 177.2 176.2 177.9 177.1 177.2 178 189 194.7 194.5 194.3 194.2 194 193.3 192.1 191.8 192.5 191.8 193 177.6 183.3 190 180.7 179.5 187.7 190 195.5 197.9 200.2 202.6 206.2 209.7 212.8 215.3 217 218.5 220.2 220.1 219.5 219.8 220 221.3 223.5 224.9 225.8 225.8 228.1 229.4 229.6 231.4 232.8 233.8 232.9 232.4 231.9 231.4 230.9 230.2 228 225.9 224.3 223.3 222.6 220.8 218 215.3 213.8 211.9
193.8 192.7 191.7 190.9 190.9 191.8 192.7 193.2 193.2 193.4 193.8 192.7 191.5 190.4 189.2 187.6 186 184.6 183.4 180.8 180 178.2 174.2 172.1 174.4 176.7 179 181.1 183.8 185.9 187.9 190.3 194 197.9 202.5 204.1 205.7 209.2 210.8 212.2 213.4 214.4 215.8 217.3 218.4 219.7 221 220.9 218.5 219.9 221.8 223.3 222.5 221.1 216.6 216.9 213.7 209.2 207.3 203.3 200.4 199.2 197.5 189.5 188.8 195.2 195.5 195.3 194.7 193.9 193.3 192.1 190.3 189.4 189.5 189.9 189.8 189.7 188 187.9 185.2 184.2 184.1 186.8 186.8 190.6 194.8 194.8 195.8 195.5 190.6 184.7 179 175.5 174.3 174.4 179.4 178.5 174.4 173.2 174.2 173.8 173.4 173.2 173.1 174.2 174.8 174.7 175.5 178.9 181.8 185.8 191.3 193.8 189.3 174.3 157.6 137.7 123.9 118.5 113.3 116.1 128.6 138.1 148.8 156.2 158.7 159.1 161.8 162.4 167.3 171.7 174.2 177.4 178.4 177.9 177.7 177.8 180.4 189.5 194.5 194.4 194.2 194 193.9 193.3 192.9 193.1 193.3 192.8 182.7 178.4 190.4 192.5 193.5 181.7 186.2 192.1 197.4 199.5 200.3 202.3 205 208.5 211.7 214.3 215.2 216.3 216.8 216.4 215.2 215.1 216.4 218 219.2 220.9 223.1 224.3 226.5 227.7 228.1 229.7 231 232.4 232 231.3 230.8 230.3 229.7 229 226.9 225 223.6 222.8 222.1 220.5 218.7 216.2 214.3 212.1
195.6 194.5 193.6 192.9 192.6 193.5 194.4 194.6 194.7 194.7 194.2 193.1 192 190.9 189.8 188.5 186.9 185.6 185.8 182.3 181.6 177.4 175.1 174.2 176.6 178.9 181.2 184 188 191.4 192.6 193.9 196.3 200 203.5 206.2 209.8 209.6 211 212.4 213.4 214.4 215.6 217 218.1 219.2 220.3 220.3 219.2 218 219.9 221.2 221 219.4 217.6 214.5 210.3 208.8 207.3 205.1 201.5 196.9 192.2 189.1 190.9 197 199.5 200.3 197.8 196.8 195.8 194 193.1 190.5 189.6 189 189.2 190.2 187.9 187.1 187.1 189.4 186.8 185.7 188.9 191.3 197.4 198.6 198.6 198.5 194.8 189 182.5 178.5 174.8 175.6 176.3 175.1 171.2 171.9 172.6 171.5 172.7 172.6 172.5 172.4 173.5 174.7 178.5 180 180.5 183.6 183.6 180.8 175.6 167.6 165 149.1 131.8 120.6 115.5 112.1 125.7 140.2 151.7 158.8 159.2 161.1 164.5 167.2 175.2 174.9 176.3 177.3 178.8 178.6 179.3 182.1 183.5 193 194 194 193.1 193.9 194.2 193.5 193.3 193.1 193 193.2 186.9 179.1 191.2 193 193.5 184.6 186.3 198.4 198.8 198.9 199.3 202 204.8 207.4 210.3 212.5 213.4 214.3 213.5 212.8 211.8 213.5 215.9 218.1 219.7 220.3 221.3 223.1 225.3 226.8 227.5 228.6 230.6 231.7 231.8 231.1 230.2 229.3 228.6 227.9 226 224.2 223.7 222.7 221.7 220.1 218.5 216.8 214.5 212.3
197.6 196.4 195.6 194.9 194.3 195.2 196 196 196.1 195.7 194.9 193.4 192 191.1 190.3 189.2 187.7 187.9 186.3 184.1 178.9 177.6 175.6 175.2 177.9 181 183.2 187.3 192.2 196.5 194.7 195.9 198.3 202.1 206.5 210.7 211.5 211.6 211.7 212.5 213.5 214.4 215.4 216.8 217.7 218.6 219.6 219.7 219 217.3 217.6 217.9 217.1 216.3 214.7 211.6 210 208.6 207.1 205.2 202.9 195.4 192.1 190.3 197 197.8 202.4 201.7 201.1 200.2 198.4 197.8 197 194.1 192.4 192.4 194 192.5 189.5 190.2 191.3 191.7 188.8 187.3 191.4 193.7 195.8 198.7 198.7 199.1 195.8 190.1 183 178.8 173.8 173.1 173.9 171.4 169.7 170.5 170.6 170.4 172 173.4 174.2 172.9 179.1 173.9 179.8 174.7 175.4 174.9 172.6 169.8 166.9 166.8 165.2 160 142.6 125.7 116.1 111.8 123.8 143.3 155.4 158.5 160.1 167.1 168.3 177.1 175 174.8 177 177.3 180.7 182.3 182.7 183.4 188.5 194 194.2 193.9 193.5 193 194.4 193.9 193.7 193.5 193.3 193 186.7 179.9 189.7 193.1 196.1 190 186.2 195.5 198.7 197.8 199 201.6 202.8 204.5 207.7 210.4 211.7 211.4 211.1 213.2 211.6 216.1 219.9 222.5 224.1 224.5 223.9 225.8 227.9 227 227.3 227.7 229.3 229.6 229.8 229.9 229.3 228.6 227.8 227 225.9 224.7 222.5 223 221.4 219.9 218.3 216.8 214.7 212.5
198.7 197.9 197.6 196.8 196.1 196.9 197.4 197.4 197 196.2 195.4 194.2 192.6 191.2 189.9 188.7 188.2 186.1 186.5 183.9 178.6 177.6 176.3 180.7 181.9 183.6 185.4 189.2 192.8 195.8 197.2 198.1 200.4 204.1 206.7 212.7 212.8 212.7 212.5 212.3 213.3 214.4 215.4 216.5 217.4 218.3 219 218.7 217.9 217 215.7 216.2 216.4 215.4 213.2 210.6 208.8 208.1 206.9 205.1 200.9 194.6 191.9 191.5 198.1 203.7 203.8 203.4 203 202.4 201.8 201.2 200.1 197.8 195.4 195.5 196.1 196.9 196.1 197.4 197 194.4 192.1 192.2 194.9 196.9 199.8 198.6 199.2 199.3 197.7 189.8 182.9 178.5 173.2 174 173.5 171.5 169.6 171.1 171.9 173.2 174.4 177.1 176.4 183.5 185.6 183.6 174.8 176.3 173.8 171.3 169.2 166.8 165.9 165.6 165.5 163.9 154 134.6 117.2 111.8 124.2 144.9 156.6 159.5 166.1 167 177.3 176.2 174.7 177.5 178.3 180.6 182.6 183.7 184.6 190.1 195.1 195.3 195 194.5 194.9 194.7 194.6 194.3 194.1 193.9 193.5 191.9 180.6 185.2 191.8 196.5 199.4 191.6 182.6 186.3 187.6 193.6 197 198.1 199.8 201.5 204.5 207.2 208.4 208.5 209.5 212.1 215.7 220.2 224.1 227 228.3 230.7 233.3 233.1 230.2 229.4 228.4 227.9 227.8 227.6 227.7 227.9 228 227.6 226.8 225.9 224.8 224 223.5 222.6 221.2 219.6 218.1 216.7 215 212.7
199.8 199.2 199.1 198.8 198.1 198.6 198.8 198.4 197.5 196.7 195.9 195.1 193.4 191.8 190.4 189.1 187.4 186.7 185.3 184.3 179.4 181 181.1 183.6 184.9 186.1 187.6 190.9 193.7 196.4 197.8 199.5 201.8 204.5 208.3 211.5 213 213.3 212.9 212.6 213 214.1 215.1 215.8 216.5 217.4 217.8 217.2 216.5 216.4 214.9 217.4 216.2 214.5 211.5 209.9 207.9 206.8 205.5 200.6 197 193 192.2 198.1 201.3 204.9 205 204.6 204.1 203.3 202.7 202.1 200.7 198.9 197.6 197.6 197.9 199.2 200.1 199.3 198.3 196.9 196.2 196.2 196.4 198.3 200.3 200.5 200.3 200 199.1 192.1 182.6 178.7 176 173.5 174.3 175.1 170.5 172 172.1 176.2 182.4 185.8 187.6 190 199.2 187.2 180 179.3 174 171.7 168.4 167.7 166.2 165.8 165.4 164.7 163.3 143.2 119.9 113.4 123.3 146.6 157.4 162.4 168.5 169.3 176.7 175.5 175.7 178.6 179.7 182.9 186 192.6 196.1 198 197.4 196 195.7 195.6 195.4 195.2 194.9 194.7 194.5 193.9 192.7 187.3 182.1 192.8 194.5 198 199.7 199.6 197.1 185.8 190.1 193.6 194.4 196.3 198.1 200.1 202.6 204.7 206.7 207.4 210.3 217.9 224 225.1 228.6 231.7 232.8 235.7 238.9 238.3 235.2 232.2 231.3 228.7 227.6 227.2 226.8 226.4 226 226.2 225.8 224.9 224.3 223.7 223.1 222.2 220.9 219.4 217.9 216.5 215 212.9
201 200.5 200.4 200.3 200 200.2 199.8 198.9 198.1 197.2 196.4 195.9 194.3 192.6 191 189.6 187.8 186.3 185.4 184.8 181.2 180.8 184.2 185.6 186.9 188.4 190 192 194.8 197 198.9 201 203.1 205.7 209 210.9 213.2 213.5 213.3 213 212.7 213.8 214.5 215 215.5 216.2 216.5 215.8 215.2 214.9 215.1 215.6 215.5 212.8 211 208.8 207.4 203.3 200 196.7 194.1 193.1 199.1 200 206.8 206.6 206.2 205.7 204.9 204.2 203.6 202.6 200.9 199.8 199.6 199.5 199.7 200.3 201.1 200.2 199.3 198.3 197.6 197.6 197.6 198.7 199.9 200.2 200.4 200.3 199.8 191.4 182.8 180.1 178.7 179.1 173.3 166.3 165.1 165.2 170 178.7 192.6 194 192.4 190.7 193.7 185.4 182.8 179.5 173.8 170.1 167.6 167.3 166.9 166.1 166.1 165.2 165.1 147.9 121.2 114.9 120.6 148.2 159 166.2 168.9 175.5 175.9 175.4 178.9 181.2 183.1 191 196 199.3 200.6 201.4 201.5 201 198.6 196.6 195.9 195.6 195.4 195.5 195 194.5 193.2 183.6 186.1 196.3 197.6 198.8 199.2 200.7 199.6 192.8 186.5 193.4 196.8 198.2 199.9 201.6 203.3 205.3 207.8 211.2 216.8 224.5 226.3 228.1 230.4 232.8 235.9 237.1 238.7 238.1 236.2 233.9 231.2 228.7 226.9 226.8 226.5 226.1 225.7 225.4 225 224.5 223.9 223.4 222.7 221.8 220.7 219.2 217.8 216.3 214.9 213.1
202.3 201.7 201.7 201.6 201.6 201.1 200.3 199.4 198.6 197.7 197 196.4 195.2 193.5 191.8 190.2 188.5 187.1 186.4 186 181.6 180.4 185.7 187.4 189.1 190.8 192.6 194.4 196.2 198.2 200.4 202.5 204.6 207.1 208.7 211.7 213 212.9 212.9 212.9 212.9 213.1 213.6 214.1 214.6 215.1 215.2 214.6 214 213.4 213.7 211.1 213 211.3 207.6 204.8 201.9 201 198 197.2 193.3 195.6 199.1 208.7 208.3 207.8 207.3 206.6 205.8 205.1 204.5 202.8 202 201.8 201.7 201.6 201.5 201.6 202.1 201.2 200.3 199.4 198.9 198.8 198.7 198.8 199.7 200.1 200.4 200.6 199.6 193.5 183 181.1 180.7 166.4 162.5 161.1 161 160.4 162.8 174.4 194.1 199.2 192.6 187.3 187.7 180.5 181.2 177.4 171.4 167.3 166.7 166.6 166.6 166.5 166.6 166.2 165.8 153 123.5 116.7 118.3 151.2 162 168.3 174.4 177 177.2 178.8 181.8 185.9 194 196.7 199.1 201.9 202.5 202.5 202.5 202.3 201.2 199.2 199.6 199.3 198.6 198.2 198 198.3 193.6 185.2 183.8 187.6 192.5 197.8 201.3 201.6 201.3 200.6 191.6 191.9 202.4 202.5 202.9 204.8 206.9 210.3 211.8 217.1 222.4 224.8 226.9 228.8 231.2 233.6 235.5 236.5 236.2 235.6 235 233.8 231.4 228.7 226.3 226.2 226.1 225.8 225.4 225.1 224.7 224.1 223.6 223 222.2 221.3 220.3 219 217.6 216.1 214.7 213.2
203.3 203 203.1 203.4 203.2 202.4 201 199.9 199.1 198.2 197.5 196.9 196.1 194.4 192.8 191.2 189.6 188.3 186.9 183.2 181.9 181.8 187 189.5 191.5 193.2 194.9 196.5 197.9 199.6 201.6 203.7 206.2 208.2 209.7 213.4 212.7 212.8 212.9 212.9 212.8 212.1 212.4 212.7 213.1 213.5 213.9 213.9 213.4 212.8 211.3 208.7 206.4 205.5 202.4 201.1 202.2 198.4 195.3 194.5 194.4 202.3 206 208.1 208 207.9 207.8 207.4 206.7 205.9 204.7 204.1 204 203.9 203.8 203.7 203.6 203.4 203.2 202.1 201.1 200 199.6 199.6 199.5 199.5 200.2 200.1 200.2 200.5 199.6 194.5 182.4 175.3 165.4 162 160.1 160.3 158.7 157.1 158.9 167.9 186.2 193.2 180.2 183.2 186.1 185 181.2 175.5 169.6 167.1 167 166.9 165.9 164 165.5 165.6 162.6 152 128.3 116.2 117.5 156.6 164.5 170.9 175.6 178.4 181.8 182.5 184.5 194 197.3 201.5 203.4 204.2 203.8 203.5 203.5 203.5 203 200.3 199.3 198.7 198.9 198.3 198.3 198 195.6 186.8 184 186.3 190.6 201.7 203.2 203.3 204 202.7 197.6 190.5 196.1 204.9 205.6 207.3 211.2 215.9 219.3 220.6 222.8 225 227 228.5 230.2 232.6 234.5 235 234.9 234.7 234.1 233.5 231.6 228.6 225.7 225.6 225.4 225.3 225.1 224.7 224.3 223.8 223.2 222.7 221.5 220.3 219.3 218.4 217.6 216.2 214.7 213.1
204.1 204.7 205.3 205.2 204.7 203.8 202.4 201.1 199.7 198.7 198 197.4 196.9 195.3 193.7 192.2 190.8 189.9 188.9 183.9 184.7 185.8 189.4 191.4 193.5 195.2 196.8 198.4 199.5 201.1 203.1 205 207 208.2 213 214.6 212.9 212.9 212.8 212.7 212.7 211.4 211.4 211.8 212.1 211.8 209.8 209.4 205 207.3 205.8 204.7 205.6 204.2 202.1 200.5 196.9 195.1 194.6 196.3 202.2 209.3 209.1 208.6 208.6 208.5 208.3 207.8 207.5 206.7 206.3 206.2 206.1 205.9 205.8 205.6 205.3 204.7 203.7 202.7 201.6 200.6 200.2 200.2 200.3 200.2 200.4 200.2 200.2 200.4 200.7 194.9 178.8 167 162.6 161.3 160.6 159.7 156.4 155.6 155.4 159 169.6 176.6 176.2 178.3 184.7 186.7 181.7 172.3 167.6 167 166.9 166.9 163.5 149.6 144.8 152.3 146.8 147.4 127.3 115 129.7 159.5 166.8 172.1 176.5 180.3 183.7 186.4 193.1 197.1 201.3 205.5 207.4 208.2 207.7 206.6 205.5 204.5 204.4 202.7 200.8 199.4 198.6 197.4 198.3 198.1 197.3 188.7 185.8 189.2 194.5 202.2 203.6 204.4 205 205.2 203 194.5 203 200.7 205.8 208.3 214.9 218.1 219.7 221.2 223.1 225.3 227.1 228.6 230 231.6 233.2 233.3 233.5 233.4 233.9 232.7 231.7 228.6 225.5 225 224.8 224.7 224.6 224.4 224 223.4 222.9 222.2 221 219.9 219.4 218.7 217.5 216.2 214.7 212.8
205.2 206.4 207.6 207.1 206.6 204.6 203.3 202 200.7 199.5 198.7 198.3 197.6 196.3 194.6 193.3 192.9 192 191 185.5 184.5 186.6 191 193.1 195.3 197.1 198.8 200 201 202.5 204.7 206.6 208.5 210.8 216.7 215.4 212.9 213 213.1 213 212.8 210.8 210.7 210.8 210.5 208 207.1 199.9 199.9 201.4 202.2 202.9 200.9 199.8 197.8 196.6 196.9 199.5 202.9 207.8 211.1 210.8 210 209.2 209.2 209.1 208.9 208.2 207.9 208.3 208.2 208 207.9 207.7 207.1 206.6 206 205.1 204.1 203.2 202.2 201.1 200.8 200.8 200.8 200.7 200.5 200.4 200.3 200.4 195.5 187.1 172.6 165.9 162 161 156.6 154.8 153.1 153 153.5 155 157.1 161.4 163.7 167.4 182.4 189.6 178.9 169.9 168.5 167.8 167.2 160.5 145.6 131 132.2 128.8 118.5 114.2 114 118.6 140.6 162.2 169.5 174.4 178.6 182.1 185.8 191 196.1 199.9 204.3 208.8 210.3 211.9 211.6 210.5 209.4 208.3 206.6 204.4 202.5 200.7 199 197.3 198 198.4 197.9 190.4 187.6 188.9 196 201.1 203.1 204.6 205.2 205.5 204.6 198.6 197.7 203.7 205.7 209.9 213.8 217.3 219.6 221.6 223.5 225.4 226.7 228 229.3 230.7 231.8 231.9 232 232.2 234.7 233.6 231.6 228.6 225.5 224.4 224.2 224.1 223.6 223.8 223.6 223.1 222.5 221.7 220.5 220 219.5 218.9 216.9 215.7 214.5 212.6
206.3 209.8 209.6 209.1 206.9 204.8 203.3 202.1 200.8 200.2 200 199.3 198.5 197.6 196 194.3 194 193.8 193.5 189.3 187 190.5 193.4 195.1 197 199 200.5 201.5 202.5 204 206.1 208.2 210.1 215.9 219 215.3 212.8 212.3 212.4 213.4 212.7 210 209.6 207.6 206.4 204.9 203.1 202.4 201.5 199.9 198.7 198.7 198.3 198.4 197.4 202.7 207.8 210.4 210.4 210.9 211.3 211.1 210.7 209.9 209.7 209.6 209.4 208.7 208.5 210.1 209.9 209.6 209 208.5 207.9 207.3 206.4 205.5 204.6 203.6 202.7 201.7 201.3 201.3 201 200.7 200.6 200.5 198.7 180.9 182.2 172.3 166.8 165.6 159.1 147.8 142.4 148.9 149.6 144.6 141.7 139.5 138.3 135.8 135.3 142.1 160.3 167.9 166.7 166.5 167.1 168.1 161 144.8 125.6 116.9 116.8 116 116.1 113.8 126.2 143.3 157.9 166.6 171.9 176.3 180.2 184.4 188.3 194.7 198.8 203.1 207.7 211.6 213.2 215.1 215.5 214.4 213.2 210.9 208.6 206.3 204.1 202.3 200.2 198.4 195.7 195.3 193.1 189.8 188.1 192.2 193.1 195.1 199.1 204.4 205.2 204.7 204.2 204.1 196.4 199.8 205 209.5 213.2 216.5 218.9 220.5 222.1 223.8 225.6 226.6 227.4 228.7 230.2 230.2 230 229.8 230.4 230.5 230.6 228.8 225.6 222.7 222.9 223.1 223.3 223.4 223.2 222.7 222.1 221.1 220.6 220.1 219.5 219 217.8 215.7 214.2 212.4
207.2 207.3 208.5 207.4 206.3 204.9 203.5 202.1 201.7 201.4 200.9 199.7 199 198.3 197.5 196.2 196.1 195.7 190.1 187.7 188.1 195.1 197.3 197.3 198.8 201 202 203.1 204.1 205.4 207.5 209.7 213.7 218.3 217.1 213.5 212.9 212.6 212.4 213.2 211.3 208.1 204 205.2 206.1 206.7 208.1 208.7 205.7 202.5 206 205.7 202.6 203.3 205 210.6 211.3 211 210.9 211.1 211.6 211.3 211 210.6 210.3 210.2 209.9 209.8 213.3 212.2 210.9 210.3 209.8 209.2 208.6 207.9 206.8 205.9 205 204.1 203.1 202.2 201.7 201.4 201.1 200.8 200.6 200.2 191.8 199.7 197.7 183.9 159.9 153.4 145.3 137.5 136.7 139.4 137.9 130.7 128.6 125 122.5 122.4 123.3 122.8 133.1 143.5 148.9 152.7 164.4 166.1 150.9 130.4 117.6 116.5 115.7 121.7 120.1 121 138.1 156.6 165.8 171.6 174.4 177.4 182.6 187.4 193.8 198.3 203 207.2 211.3 214.5 216.4 218.3 218.8 217.6 215.3 213 210.7 208.4 206.1 203.9 201.6 199.3 195.9 194.3 192.6 190.9 191.3 194.6 199.6 203.3 204.6 204.9 205.5 205.9 205.9 206 205.1 199.7 203.7 207.7 211.4 214.8 217.2 218.8 220.5 222.2 224.1 225.9 226.6 227.1 227.5 227.6 227.8 227.8 227.1 227.1 227.2 226.4 224.1 222.7 222.7 222.8 222.9 223 222.7 222.2 221.7 221.2 220.7 220.2 219.6 219.1 217.4 216.1 214.7 213.2
209.9 208.2 206.4 206.1 205.4 204.2 202.5 201.7 201.5 201.3 200.9 200.3 199.3 198.6 198 197.9 197.1 194.2 188.3 188.9 195.2 198.5 199.3 199.5 200 201.7 203.5 204.6 205.6 206.8 209.5 212.9 216.1 216.8 213.1 212.7 212.5 211.9 211.3 206.6 204.6 206.2 208.6 208.1 209.1 210.6 212.8 212.6 210 207.7 209.6 211.7 212 210.6 209.8 211.5 211.7 212 211.5 211.6 211.8 211.6 211.3 212.5 213.9 213.8 214.6 216.9 216.2 214.5 212.7 211.1 210.5 209.9 209.4 208.1 207.2 206.3 205.4 204.5 203.8 203 202.1 201.6 201.2 200.9 200.5 199.6 190.1 201 199.3 179.7 162 146.9 131.8 127.6 125.4 125.8 125.1 124.3 132.3 134.9 138.2 139.8 133.6 129.1 123.4 128.7 132.5 138.7 154.8 165 141 117.9 119.6 125 128.3 129.5 129.9 125.7 139.7 162.2 168.1 172.5 175.8 180.5 185.6 192.2 196.5 201.3 206.1 210.9 215.1 217.9 219.7 221.4 221.9 220.1 217.5 214.9 212.6 210.3 208 205.7 203.4 200.8 198.1 195.8 194.7 193.7 194 200.1 204.3 205.7 205.9 206.3 206.3 206.9 207 207.2 207.3 206.4 203 206.9 209.5 212.9 215.6 217.2 219.2 221 222.6 224.4 226.2 226.3 225.9 225.8 225.9 225.7 225 224.2 223.9 222.7 222.5 222.3 222.3 222.4 222.5 222.7 222.5 222 221.7 221.5 220.8 220.3 219.7 218.9 217.4 216.7 215.7 213.9
210.4 208.1 206.2 205.2 204.7 203.7 201.7 201.6 201.3 201 200.7 200.3 199.6 198.9 198.1 197.5 199.5 194.3 189.2 197 197.6 199.3 200.8 202.8 203.3 204.2 205.1 206 207.9 209.8 211.2 214.8 214.5 214 215.7 215.8 213.8 212.7 210.8 207.6 208.3 208.8 211 210.8 211.4 213.2 213.6 212.2 210.2 209.9 210.4 212.2 212.5 211.7 212.2 212.4 212.9 212.6 214 215.8 215.7 217.8 219.3 219.1 218.8 218.8 218.7 218.7 218.3 216.8 214.8 213.3 211.7 210.7 209.6 208.6 207.6 206.9 206.1 205.4 204.6 203.7 202.5 202.1 201.7 201.2 201 199.7 193.4 201.7 200.1 175.7 157.7 138 125.9 124.3 135.4 132.9 132.3 139 160.6 161.5 161 158.6 147.4 133.1 122.6 124.9 128.6 128.5 148.4 154.4 122.6 123.3 134 139.3 141.3 140.8 139.4 134.1 126.2 147.2 166.8 173.3 178.2 183 187.9 194.8 199 203.6 209 214 217.9 220.8 222.8 224.6 225.1 222.7 220.3 217.6 214.9 212.2 209.8 207.5 204.9 202.5 200.4 197.9 196.5 195.4 195.4 204.3 206.6 207.1 207.2 207.4 207.1 207 208.1 208.2 208.2 207.6 206.5 207.2 208 211 213.9 215.9 218.2 220.1 221.4 223 224.1 224.3 224.4 224.2 224.1 223.6 222.9 222.8 222.7 222.4 222.2 222 221.9 222.1 222.2 222.4 222.3 221.8 221.8 221.9 221.2 220.4 219.8 218.8 218 217.1 216 214.6
212.5 211.2 209.2 205.6 202.5 202.2 204.1 203.2 201.9 200.7 200.4 200 199.5 199 198.2 197.6 200.9 192.4 191 198.5 198.8 199.1 202.2 205.9 206.7 207.6 208.2 209.8 211.5 214.1 217.5 216.4 214.8 217.3 218.3 218 215.8 212.2 209.6 213.1 214 213.5 213.2 213.7 214.7 215.3 214.4 212.7 210.3 211.8 212.5 213.7 213.4 213 213.8 215.6 219.5 223 224.9 224.9 225.1 224.8 223.2 222.1 220.8 220.4 220.3 220.2 219.8 219 217.1 215.4 213.8 210.5 210 209.2 208.5 207.8 207 206.3 205.5 204.4 203.1 202.5 202.1 201.8 201.6 201.2 200.3 200.7 195.6 171.5 151.2 129 132 143.2 153.7 155.4 152.1 147.7 161.2 161.9 161.1 159.6 154.9 136 122 124.2 126.6 128.1 151.3 132.2 118.9 139 145 151.5 151.7 149.3 146.1 139.6 130.6 142.4 164.6 175 180.3 185.6 190.9 195.4 201.4 207 212.6 216.7 220.1 223.1 225.2 227.4 227.7 225.3 222.9 220.4 217.7 215 212.3 209.9 207.8 205.7 203.4 200.9 198.9 197.5 196.3 204.9 207.3 206.9 207.4 207.4 207.5 207.6 208.2 208.9 208.9 208.4 207.9 206.1 207.7 209.4 212.8 214.9 217.2 219.3 220.5 221.8 221.9 222.1 222.3 222.5 222.8 222.8 222.7 222.6 222.4 222.1 221.9 221.6 221.6 221.7 221.9 222.1 222.1 221.6 221.9 222 221.7 220.9 220.1 219 218 217 216 214.9
216.4 213.7 211.9 210.5 207.1 206.9 205.6 204.5 203.3 201.6 199.7 199.3 198.9 198.8 198.4 197.3 198.4 192.9 194.2 194.4 199.1 199.1 203.5 207.6 209.8 210.5 211.1 213.6 214.5 218.9 219.9 216.8 216.3 217.4 216 214.9 213.7 213.2 216.7 218.4 217.9 217.5 217.5 217.4 217 214.2 212.7 211.4 210.7 211.5 214 214.6 214.4 216.1 220 225 225.6 226.3 226.6 226.8 227.1 226.9 225.8 224.7 223.4 222.1 222 221.7 221.2 220.3 219 217.2 214.9 212.6 211.5 210.4 209.4 208.6 207.9 207.2 206.3 205 203.7 203 202.6 202.4 202.1 201.9 201.2 199.3 192.4 166.8 145.9 125.7 137.5 156.3 165.1 166.2 165 164.3 164.4 163.6 160.7 159.1 156.6 140.4 121 122 125.3 127.3 143.3 118 133.2 149.8 155.7 158.7 159.5 157.6 153.5 147.7 138.7 147.7 166.6 177.4 182.3 187.7 193.3 199.4 205.7 210.7 215.6 219 222.3 225.3 227.6 230.4 230.3 227.9 225.5 223.1 220.5 217.8 215.4 213.2 211 208.9 206.4 203.9 201.4 199.9 198.3 201.1 205.2 205.6 206.5 207.5 207.9 208.2 208.3 208.6 209.2 208.6 208.8 208.8 206.7 208.3 212.4 214.3 216.3 218.4 219.7 221 221.1 221.3 221.7 222.3 222.6 222.5 222.4 222.3 222.1 221.8 221.6 221.3 221.2 221.4 221.6 221.8 221.9 221.4 222 222.1 222.2 221.4 220.6 219.9 218.4 216.9 215.8 213.9
218.4 216.7 216.2 215 211.9 210.8 209 206.8 204.6 203.4 203.8 204 205.3 203.5 202.8 202.8 200.5 198.4 194.2 195.8 199.7 200.2 201.2 205.1 209.9 210.6 214.3 216.3 217.6 218.5 217.3 215.5 215.9 216.2 218.2 217.2 216 217.8 220 221 219.8 218.5 218.8 218.2 216.2 213 212.9 212 212 212.4 215 215.8 215.7 219.1 223.4 226.2 227.2 227.8 228.2 228.6 228.9 228.9 228.6 227.3 226 224.7 223.6 223.1 222.6 221.6 219.9 218.2 216.5 214.8 213.1 212 210.9 209.8 208.8 208 207 205.7 204.4 203.5 203.3 203.1 202.9 202.7 201.5 199.9 193.8 167.9 142.2 125.7 154.7 162.6 165.9 167.7 166.5 165.7 166.6 165 161.5 159.5 159.6 158.3 144.7 136.3 120.8 120.5 122.6 128.5 146 158.1 163.3 166 166.7 165.8 162.9 157.9 144.1 151.7 173.9 181.3 185.3 190 194.6 201.7 208.7 213.9 218 221.2 224.5 227.6 230 231 229.9 228.3 226.7 225.1 223.2 220.9 218.7 216.5 214.3 211.9 209.3 206.8 204.3 202.3 200.2 202 205.4 206.3 207.3 208.2 208.9 208.9 209 209.2 209.5 209.7 209.9 209.1 208.8 207.9 211.9 213.9 215.8 218 219 220.2 220.6 221.1 221.7 222.2 222.3 222.2 222.1 222 221.8 221.5 221.3 221 220.9 221.1 221.3 221.5 221.7 221.4 222 222.2 222.3 221.9 221 221 219 216.8 215.6 213
224.5 220.4 220.4 219.2 216.5 214.6 212.6 210.1 207.6 207.8 208.1 210.4 211.8 211.7 210.9 209.9 210.8 212.5 203.8 197.5 201 201.6 202.6 203.5 205.6 208 210.9 213.6 213.6 216.6 215.3 215.1 217.3 218.7 220.3 220.7 220.7 222.1 224 223.3 221.9 220.2 219.8 216.9 213.3 213.2 213 213 213.2 216.5 220.1 221 221.6 223.5 225.8 227.1 228.3 229.3 229.8 230.1 230.5 231.5 230.6 229.2 227.9 226.5 225.4 224.8 224.3 222.8 221.1 219.4 217.7 215.9 213.6 212.6 211.6 210.7 209.7 208.8 207.2 205.7 204.3 203.4 203.6 203.8 203.7 203.1 202 201.5 193 165.7 138.6 128.5 159.4 165.2 167.6 169.2 167.9 167.3 168.2 167.9 163.1 159.2 159.3 159 159.1 151.4 131.8 124.3 126.3 145.1 158.9 169.5 172.8 173.3 173.2 171.6 171.4 171.2 151.3 171.1 174.2 182.6 187.3 191.4 196.9 206.7 211.2 216 219.7 223.6 227.1 229.5 231.7 232.7 232 230.4 228.8 227.2 225.2 222.8 220.5 218.3 216.1 213.8 211.3 208.9 206.7 204.4 202.8 203.2 205.3 206.6 207.5 208.6 209.5 209.6 209.7 209.8 210.1 210.9 210.8 210 209.4 209.9 211.2 213.5 215.8 217.8 218.9 219.8 220.5 221 221.6 222.1 222 221.9 221.9 221.6 221.4 221.1 220.9 220.7 220.3 220.7 221 221.2 221.4 221.6 222.1 222.2 222.4 222.4 221.6 221.2 219.7 217.3 215.5 212.1
222.3 224.8 225.2 225.6 219.9 216.7 214.8 212.7 211.6 211.7 212.3 214.8 217 217.3 217.7 216.9 219.3 220.1 211 197.1 205.8 208.2 205.9 206.4 206.4 208.7 208.6 209.2 211.4 213.3 214.8 219.1 221.4 222.4 222.3 221.9 221.8 222.5 224.4 224.8 223.8 219.4 215.1 213.9 213.9 214.2 214 214.7 220.3 224.1 224.3 224.1 224.5 225.2 226.6 227.9 229.2 230.4 231.3 231.7 232.3 232.4 232.3 230.8 229.5 228.3 227.2 226.7 225.8 224.1 222.4 220.7 218.9 216.3 214.2 212.6 211.7 210.8 209.8 208.2 206.6 205.2 204.3 203.4 203.3 203.5 203.6 203.5 202.8 193.5 178.1 159.1 128.1 144.4 163.2 168.4 169.7 170.6 169.8 169.2 169.6 169.7 168.4 160.3 159.3 158.7 157.4 158.5 145.1 133.8 140.9 157.3 172.7 178 178 177.4 176 174.7 174.8 175.4 159.8 176.3 171.8 181.9 188.8 192.6 198.8 206.5 213.2 217.9 221.4 225.3 228.8 231.3 233.3 234.7 234.5 233 231.1 229.1 227 224.7 222.4 220 217.7 215.5 213 211.3 210.1 207.2 205.1 204.6 205.2 206.7 207.8 209.2 210 210.2 210.3 210.4 210.6 212.5 211.8 211.3 210.9 210 211.8 214.2 216 217.7 218.7 219.6 220.4 221 221.5 221.8 221.7 221.7 221.8 221.4 221 220.8 220.5 220.1 219.4 219.8 220.2 220.6 221.1 221.7 222.2 222.2 222.2 222.4 222.1 221.3 220 218.4 215.7 212.6
225.6 225.7 227.8 227.2 221.5 219.1 217.2 215 215.1 215.3 216.6 218.9 221.5 221.5 222 223.1 224 221.1 201.4 200.3 212.8 216.7 216.2 212.9 214.1 216.4 214.3 209.7 213.9 212.4 214.4 217.5 218.8 221.7 221.5 221 221.5 222.5 224.7 224.2 217.1 215.2 214.7 214.3 214.8 215.3 218.1 225.1 225.9 226.1 226.2 226.1 225.6 226.1 227.4 228.7 230 231.2 232.4 233.1 233.3 233.4 233.6 232.1 231.3 230.1 229 228.5 227.1 225.4 223.7 221.9 219.3 216.7 214.7 212.8 211.8 210.8 209.6 207.7 206.1 205.2 204.3 203.4 202.9 203.1 202.8 202.5 193.3 181 164.4 142 131.5 162.2 161.7 168.8 171.6 171.8 172.1 171.4 170.6 170.6 170.7 169.8 160.1 159.2 157.4 157 154.4 152.1 162.5 173.5 178.3 179.4 178.9 177.9 176.4 175.8 172 152.9 159.7 179.7 178.9 181.3 189.7 193 200.6 207.2 213.7 219.3 222.9 226.4 229.8 232.3 234.2 236.1 236.7 235 233 231 228.9 226.5 224.2 221.9 219.5 216.9 214.9 213.1 211.3 209 205.7 206 206.5 207.1 208.5 209.8 210.6 210.7 210.9 211.2 211.6 214 213.7 213.5 213.6 211.4 212.2 214.1 216 217.5 218.4 219.3 220.2 220.9 221.4 221.5 221.5 221.6 221.8 221.4 220.6 220.4 220 219.3 218.6 218.8 219.3 219.7 220 219.6 221.1 221.4 221.5 221.7 222.2 221.4 220.7 219.9 218.6 216.7
226.8 226.5 226.9 226.8 223.3 220.9 218.5 216.5 217.2 218.1 220.1 223 225.1 225.5 225.7 226.4 225 203.8 199.8 203.3 218.9 220.3 219.4 217.1 217.3 218.1 218.2 217.7 216.7 215.7 216.4 217.2 217.1 218.7 218.1 219.3 220.2 221.2 221.9 217.1 215.6 215.4 214.2 216.4 219 223.1 225.8 226.5 227 227.1 227.3 227.4 226.8 226.8 228.2 229.6 230.8 232.1 233.6 234.2 234.4 234.6 234 233.2 232.7 232 230.9 230 228.3 226.7 224.9 222.3 219.7 217.2 215.3 213.4 211.9 210.9 209.1 207.5 206.2 205.2 204.3 203.4 202.6 202.2 201.8 197.9 184.6 176.2 164.3 135.3 144.2 161.1 160.5 163.1 172.1 173.2 173.9 172.1 171.6 171.4 171.4 171.3 168.1 160.2 159 159.1 161.8 171 177 179.3 180.8 180.4 179.8 178.5 176.5 172.5 157.3 174.3 181.8 183.6 182.3 179.3 189.7 195.1 202.2 208.1 214.4 219.9 223.8 227.5 230.5 232.8 234.7 236.4 237.4 236.3 234.6 232.9 230.6 228 225.3 222.7 220.1 217.5 215.1 213.3 212.1 209.6 207.4 208.1 208.4 208.6 209.1 210.3 211.1 211.3 211.8 212.5 212.7 214.6 214.6 214.7 214.9 213.1 211.2 213.7 216.1 217.4 218.2 219 219.9 220.8 221.3 221.3 221.4 221.6 221.7 221.4 220.2 220 219.3 218.5 217.8 217.9 218.3 218.8 218.7 218.6 219.1 219.6 219.6 220.3 221.2 220.8 221.3 220.8 220.7 220.3
225.7 226.6 226.7 225.4 224.5 222.2 219.6 218.2 218.7 219.9 221.9 224.3 225 225.2 224.4 223.4 206.2 203 209.1 214.1 221.7 220.7 219.8 218.5 218 218.3 218.4 217.6 216.9 216.1 216 215.9 216 216.8 217.7 217.7 218.8 220 217.7 217.3 217.1 217.4 217.5 219.6 225.6 226.7 227.2 227.8 228 228.2 228.4 228.5 228.7 227.8 229.1 230.4 231.7 233.2 234.8 235.4 235.6 235.8 235.1 234.5 233.9 233.4 232.7 231.3 229.6 227.9 225.3 222.7 220.2 217.8 215.9 214 212 210.6 209.3 207.9 206.6 205.3 204.4 203.6 202.8 202 201.8 189.5 180.5 174 167.6 142.8 141.5 157.3 138.8 145.8 163.2 174.1 174.3 173 172.8 172.6 172.3 172 170.6 168.3 162.8 165.9 173.8 176.9 178.1 179.3 180.7 180.5 180 177.7 173.6 163.7 180.3 182.4 184.2 183.9 182.3 180.4 189.7 197.4 203.5 209 215.2 220.5 224.5 228.5 231 233.2 235 236.7 237.4 237.4 235.3 233.2 230.8 228.5 225.8 223.2 220.6 218 215.6 213.3 211.5 209.9 210.8 210.2 210.5 210.8 211.6 211.3 211.7 212.5 213.3 213.6 214.5 214.8 215.5 215.6 214.8 213.8 212.8 213.9 216.2 217.3 218.2 219 219.8 220.6 221.1 221.2 221.3 221.5 221.6 221.3 219.9 219.2 218.5 217.8 217 217 217.4 217.5 217.6 218 218.3 218.2 219 219.3 220.3 220.1 220.8 221.7 221.9 220.8
219.8 226.1 227.6 226.4 225.7 224.8 221.3 219.6 219.9 220.9 222.9 224.7 224.3 224.2 221 216.7 206.3 208.4 224.8 227.8 226.3 225.3 224.8 221.8 221.4 220.5 218.6 217.9 217.9 217.7 217.1 217.3 216.7 217.4 218.1 218 217.8 217.9 218.5 218.6 218.6 219 219.6 222.1 225.5 227.2 228 228.7 228.7 228.7 228.7 228.6 229.2 229.1 230.3 231.6 232.2 234.2 235.7 236.4 236.6 236.8 236.3 235.7 235.2 234.6 233.8 232.3 230.7 228.7 226 223.2 220.6 218.3 216.4 214.2 212 210.4 209.1 207.7 206.4 205.2 204.1 203.1 202.5 201.9 201.7 185.1 177.4 171.6 167.8 153.6 126.5 127.7 131.5 138 160.2 174.8 174.8 174.2 173.9 173.6 172.7 172 171.5 170.8 171.4 171.5 176.6 177.8 179.4 180.9 181.7 181.1 180 176.7 164.1 174 182.5 183.9 184.5 183.4 183.8 186.2 190.6 193.8 204.3 209.9 215.2 220.6 224.4 228.4 231.2 233.5 235.3 236.5 236.1 236.2 235.4 233.2 230.9 228.5 226.1 223.7 221.1 218.6 216.2 213.9 211.7 211.6 212.1 212.5 213.5 213.2 214.3 215.4 214.7 214.5 214.9 215.9 217 217.1 217.1 217.2 216.2 215.2 214.2 214 216.2 217.3 218.1 218.9 219.8 220.8 221.1 221.2 221.3 221.4 221.5 221.3 219.9 219.2 218.4 217.5 216.6 215.8 215.5 216.6 216.9 217.4 217.8 218.6 220.9 221.1 220.8 220.8 220.8 221.5 222 221.5
219 219.2 223.2 225.9 225.4 225.5 223.4 220.4 219.9 220.9 222.5 224.9 224.4 221.1 214.3 207.3 212 226 231.8 235.7 235.5 235.3 234.7 234 234.1 231.9 229.7 227.2 226.8 224.9 225 221.8 219.2 218.2 220 220.3 220.3 219.5 219.9 221.1 221.9 220.9 221.2 222 223.7 225.3 227 228.4 228.6 228.6 228.6 229 229.9 230.6 231.6 231.7 232.3 234.7 236.7 237.3 237.8 237.8 237.4 237 236.4 235.5 234.5 233.3 231.6 229.5 227.4 225 221.7 218.3 216 213.8 211.5 209.9 208.6 207.3 206 204.9 203.8 202.7 201.3 200.7 197.1 180.8 172.2 167.7 164.8 162.5 141 136.5 131.6 138.1 163.8 175.9 175.6 175 174.1 173.3 172.5 171.7 171.3 170.9 172.3 175.8 179.7 180.6 181.5 182.3 183.1 183.8 182 178 170.1 168.6 181.8 184.3 184.9 183.2 185.3 193.3 195.6 194.4 198.5 209.7 215.3 220.6 224.5 228.4 231.2 233.7 235.1 236 235.6 235 234.6 233.2 230.9 228.5 226.1 223.7 221.4 219.6 217.5 215.3 213.1 213 213.4 214.4 215.9 216.7 217.3 217.9 218.8 217.9 217.9 217.2 218.4 218.7 219 218.1 217.3 216.7 215.7 214.9 216.2 217.3 218.2 219.2 220.2 221 221.2 221.3 221.4 221.5 221.6 221.8 220.6 219.4 218.2 217.1 216.5 216.4 215.1 215.5 215.9 216.3 216.5 217.3 221.8 222.3 222 222.3 221.9 222.3 222.7 219.3
222.1 219.2 218.9 218.1 216.5 216.5 217.6 218 217.3 217.3 217.6 219.3 218.9 212.7 211 221.9 229.3 233.5 241.2 240.6 239.9 240.4 239.5 238.5 238.3 237.1 236.5 234.3 234.3 231.9 231.8 231.1 229.9 229.8 228.1 228.8 226.8 225.7 222 222.4 226.6 226.8 223.1 223.1 225.9 226.9 226.9 228 228.6 228.5 228.8 229.7 230.6 231.5 231.7 231.8 232.4 234.8 237.2 238.6 239.2 238.8 238.5 238.1 237.2 236.1 235.1 234 232.3 230.2 228.2 224.7 222.5 219 215.6 213.3 211.1 209.5 208.1 206.8 205.7 204.6 203.5 202.5 201.4 200.3 186.6 171.2 162.5 162.9 162.3 158.1 147 136.8 131.9 139.3 167.2 177 175.7 175.1 174.5 173.5 172.6 172.2 172 172.5 174.2 181.3 181.4 182 182.8 183.7 184.5 185.4 184.7 181.5 174.8 166.3 177 184 185.2 185.7 187.9 196.7 196.3 196.4 200.1 209.1 215.7 220.7 224.5 228.1 230.9 233.5 234.6 235.5 235.1 234.5 233.9 233.2 230.9 228.5 226.2 223.8 221.4 219.6 217.9 216.1 214.7 215.1 216.8 217.3 217.4 218.3 218.3 219 219.9 221 220.4 218.9 219.8 220.1 219.3 218.9 217.5 217.6 217.1 216 216.5 217.7 218.7 219.7 220.7 221.1 221.3 221.4 221.5 221.6 221.6 221.8 222.3 221 218.4 216.8 216.5 216.3 215.6 215 214.4 214.5 214.5 215.1 218.4 222.3 223.1 224.8 224.5 223.4 221.2 217.1
234.3 233.1 228.1 224.1 219.7 218.7 216.6 214.8 213.8 213.8 214.9 214.5 213 209.7 226.6 232.1 236.5 239.4 241.6 241.1 240.3 240.9 240.1 239.6 238.8 237.8 236.9 236 235.3 234 233.9 233.3 231 229.6 229.1 233.1 230.3 228.7 225 223.4 224 225.1 225.5 224.2 229.3 229.9 229.7 229.1 228.3 228.6 229.5 230.1 230.6 231.1 231.6 231.8 232.4 234.8 237.4 239.6 240.2 239.6 239.1 238.5 237.3 236.1 235 234.2 232.5 230.5 228.1 225.1 222.3 219.1 216.3 212.9 210.6 209 207.7 206.6 205.5 204.4 203.3 202.2 201.1 191.8 173.9 154.8 146.6 144.2 153.7 151.4 142.4 138 131.8 145.2 172.2 176.7 175.7 175.2 174.6 173.9 173 173.1 173.4 174 180.9 182.8 183.1 183.7 184.2 185 185.9 186.5 186 184.2 179.3 171.3 170.5 184.7 186.7 186.7 193.9 196.6 196.2 196.9 201.4 209.6 216.1 220.5 224.4 227.7 230.5 232.9 234 235 234.6 234 233.4 232.8 230.7 228.5 226.2 223.8 221.4 219.6 217.9 217 216.4 216.6 218.2 218.5 219.3 219.8 220.2 220.4 220.6 220.9 220.8 220.5 221.1 221.4 221.4 220.2 219.3 218.9 218.9 218 216.7 218.1 219.1 220.1 220.9 221.2 221.4 221.5 221.5 221.6 221.6 221.8 221.8 220 218.5 217 217 216.8 216.6 216.4 216 215.2 214.1 213.9 214.9 219.2 222.2 225.3 225.8 223.7 219.3 207.3
239.6 237.9 236.3 233.3 222.6 229.5 228.1 226.5 226 229.4 227.1 226.8 231.6 234.5 237.6 240.7 242 242.9 243 242.7 242 242.3 241.2 241 240.5 239.5 238.6 237.6 236.9 236.3 236.2 235.4 232.5 231.2 228.7 229.5 233.7 231.7 230.2 228.1 224.6 224.6 224.1 224.8 229 230.9 229.3 229.3 228.7 228.6 229.2 229.8 230.3 230.8 231.2 231.7 232.5 234.6 237.9 240.3 241.3 240.3 239.7 238.9 237.6 236.2 234.9 234.5 232.8 230.6 227.5 224.5 221.7 218.9 216 213.2 210.2 208.5 206.6 205.7 204.2 203.1 202.1 201.9 203.6 182.7 159.4 134.4 135.8 135.9 132.2 135.7 137.2 134.8 133.2 153.9 177.5 176.3 175.8 175.2 174.7 174.1 173.4 174 174.6 178.8 183.2 184.4 184.9 185.4 186 186.5 187.2 187.2 186.3 184.5 183.5 174.8 172.5 186.7 187.7 188.9 195.2 196.3 196.6 197.5 202.8 210.3 216.2 220.1 224.3 227.3 230.1 232.2 233.4 234.5 234.1 233.6 233 232.5 230.3 228.1 226 223.8 221.5 220 219.3 218.7 218.4 218.8 219.6 220.3 220.9 221.6 222.3 222.5 222.5 222.1 221.9 222.5 223.5 223.9 222.9 222 221.1 220.4 220.2 220 218.1 218.5 219.5 220.6 221 221.3 221.5 221.5 221.5 221.5 221.6 221.7 221.4 220.9 219.4 217.9 217.5 217.5 217.3 216.7 216.1 215.7 214.7 213.9 213.2 215.4 215.8 220.1 224 221.5 213 198.1
242.3 240.7 239.8 238.2 224.9 233.7 233.6 234.2 235.9 237.1 238 238.8 241.7 245.2 247.6 249.3 249.3 249.1 248.7 248 247.7 246.3 245.3 245.1 246 243.9 242 240.9 239.8 239.4 240.4 240.1 238.2 236.8 230.8 228.3 227.5 230.3 231.2 230.1 229.3 228.1 224.2 223.6 225.4 226.3 226.9 229.4 228.9 228.5 229 229.5 230 230.4 230.9 231.4 231.9 234.4 238.2 241.5 243 241.6 240.6 238.3 236.3 235.2 234.5 234.2 232.5 229.8 226.9 223.8 220.6 217.8 214.9 212.1 209.7 207.5 205.6 204.4 203.7 202.2 197 190.6 197.9 172.2 148.4 133.9 138.8 140.2 139.7 133.6 131.4 130.9 132.2 160.8 176.8 176.1 175.6 175 174.5 173.9 173.7 174.1 175.1 183.4 184.6 185.9 186.6 187.2 187.7 188 188.8 188.4 187.3 186.6 186 176.3 177.7 187.5 188.5 195.6 196.4 196.7 197.3 198 202.5 210.9 215.9 219.8 223.6 226.4 229.3 231.8 233 234.2 234.3 233.8 233.2 232.3 230.5 228.4 226.2 224 222.4 221.3 221 220.5 220.4 221.3 222.6 222.5 223.1 223.8 224.6 225.4 225.2 224.7 223.8 223.2 223.6 224.4 224.7 223.8 222.9 222 221.8 221.4 219.5 218.8 219.9 221.3 221.2 221.5 222 222.1 222.2 222.2 222.1 221.5 221 220.8 220.2 218.7 218.2 218 217.8 217.7 217.4 216.6 215.5 214.2 213.5 212.4 210.4 212.1 219.2 216.2 199.1 197
246.2 245.4 244.6 240.2 228.8 235.7 237.7 238.9 240.7 242.3 243.5 245.2 248.4 251.7 255.1 255.3 255 255.7 256 255.8 255.1 253.5 252.1 252.7 251.6 249.7 247.8 244.9 243.6 242.6 243.8 245.6 245.4 240.6 235.5 233.4 231.1 228.8 227.4 225.9 224.9 224.5 223.8 223.7 223.5 223.6 224.2 227.2 227.2 227.7 228.7 229.2 229.7 230.1 230.6 230.8 231.4 234.3 237.8 241.3 243.5 242.5 239.7 237.6 235.6 234.2 233.6 233.3 231.4 228.7 226 223 219.6 216.3 213.5 211.1 209.6 207.8 205.1 203.2 202.2 200 203.2 195.5 170.8 154.7 137 138.4 141.1 142.7 145.1 145.1 145.1 147.1 159.1 174.7 176.5 175.7 175.2 174.7 174.1 173.6 173.7 173.9 183.3 185 186.1 187.3 188 188.3 188.6 189.2 190.4 189.9 190 189.5 188.8 180.3 180.8 188.5 196.1 197.7 196.9 197.2 197.9 198.8 203.8 210.6 215.3 219.2 222.4 225.4 228.6 231.2 232.8 234 234.9 234 233.2 232.3 231.2 229 227 225.4 224 222.8 222.6 223.3 222.5 224.1 226.2 224.7 225.3 226.1 226.5 226.8 227.3 226.8 226 225.4 224.6 223.9 223.9 224.4 224.7 223.8 223.3 222.1 220.4 219.2 220.7 222.4 222.1 221.9 222.2 223.1 223.3 222.8 222.3 221.7 221.1 220.6 220.1 219.6 218.7 218.5 218.4 218.2 218.1 217.4 217.2 215.1 213.2 211.9 211.5 209.9 207.3 202.9 199 197.1
250.5 250.3 244.1 233.4 233.1 238.6 241.6 243.4 245.1 247 248.4 249.5 252.7 255.9 258.4 259.9 260.1 260.4 261.1 260.8 259.9 257.7 256.5 255.3 253.9 252.5 250.2 247.8 246.6 245.1 244.5 242 240.7 239.1 239.6 237.7 235.8 232.9 231.7 231.3 229.9 226.1 224 223.8 223.5 223.1 223.3 225.1 225.3 226.1 227.4 228.9 229.4 229.8 230.3 230.2 230.9 232.9 236.9 240 241.5 241.6 239.1 237 234.9 233.3 231.9 231.5 229.8 227.2 224.7 222.2 218.8 215.4 212.5 211 209.4 207.8 205.3 206 205.6 205.3 195.9 194.7 193.2 167 140.2 136.4 141.6 144.9 148.6 151.2 156.5 151.4 170 176.6 176.4 175.4 174.8 174.3 173.8 173.2 173.6 180.4 184.7 184.1 187.4 188 188.4 189.2 189.5 191.2 192 192.4 192.9 192.8 191.8 187.4 183.5 193.1 197.6 197.2 197.3 197.8 198.6 199.9 204.5 209.5 214.4 218.4 221.5 224.8 228 230.5 232.1 233.8 234.6 233.9 233.1 232.3 231.5 230.1 228.5 227.1 226.6 226 225.5 224.7 225 226.6 228 228.2 227.5 228.2 228.7 229.3 228.8 228.3 227.7 226.5 225.6 224.9 224.8 224.8 224.9 224.9 224.6 222.9 221.2 220.2 221.8 223.5 223.2 222.9 222.6 223.2 223.5 223 222.5 221.9 221.3 220.8 220.2 219.7 219.3 219.4 219.2 218.3 217.4 215.8 216.9 215.8 213.7 211.5 209.4 210.4 199.9 199.1 198 198.6
253.6 245.9 239.5 242 243.7 243.6 245.3 247.1 247.2 249 251 252.9 255.8 258.7 261 263.3 263.5 263.7 263.6 263.2 261.7 259.8 257.6 256.1 255 254.1 252.8 251.3 249.4 247.7 246 245.1 246.1 245.4 241.8 239.2 237.9 236.1 235.9 235.9 235.3 231.4 225.6 225.9 225.1 224.4 223.6 223.6 224.1 224.7 226.8 227.3 228.9 229.5 229.4 229.7 230.3 233.7 238.3 238.6 238.4 238.9 239.5 236.6 234.7 232.2 230.6 229.7 228.2 225.6 223.1 220.6 217.1 213.4 210.6 209.9 208.8 207.7 206.4 204.6 198.9 196 193.6 194.7 184.6 167.2 148.6 134.3 140.8 145.6 153.2 163.2 169.1 156.7 161.3 175.9 171.1 175.2 174.4 173.9 173.4 173.2 177.4 184.3 184.9 187.7 188.7 188.4 188.8 189.6 191.7 193.4 194.5 195.2 195.8 196.1 193.6 188.7 182.4 181 184.6 189.3 193.9 196.8 198 201.3 205.1 209.4 213.9 217.8 220.9 224.1 227.3 229.8 231.5 233.3 234.4 233.7 233.2 232.6 232.1 230.7 229.1 228 228 227.9 227.3 226.8 226.3 227.3 228.1 228.9 229.4 230 230.9 231 230.5 230.1 228.9 227.6 226.7 226.2 226.6 227.5 226.7 225.9 225.3 223.7 222.1 221.8 222.8 224.5 224.3 224 223.7 223.6 223.5 223.3 222.7 222.1 221.5 220.9 220.4 220.4 220.5 219.6 218.5 217.5 216.6 214.6 214.9 214.9 213.9 211.6 208.7 203.4 199.2 199.4 200.1 210.3
248.2 241.9 251.1 254.4 250.3 247.4 249.1 250.6 250.7 252.5 254.4 256.4 258.9 261.3 263.6 265.3 266.2 265.9 265.8 264.7 262.9 260.5 258.3 257.5 256.6 255.8 254.5 253 250.8 249.7 248.5 246.6 245.6 244.8 243.2 240.1 238.5 236.2 235.6 236 234.6 232.7 228.7 227.9 226.8 225.6 224.5 223.3 222.8 223.4 225.9 227.4 228.2 229.3 228.5 229 229.6 234.8 239.2 237.4 236.1 236.7 237.8 236.9 234.6 231.4 229.6 228 226.6 224 221.5 219 215.4 209.9 208.4 207.8 207.1 206.1 206.1 198.4 195.7 193.7 189.5 190.9 180.8 163.9 146.1 134.2 138.7 144.7 160.3 159 167.7 162.7 155.8 160.4 159.9 166.1 172.5 172.1 172.4 175.1 184.4 185.7 187.3 188.4 189.1 189.8 189.9 191.1 193.7 195.9 196.8 197.5 197.3 197.1 193.5 187.1 182.5 184.5 182.8 183.7 184.3 184.4 193.4 201.1 205.3 209.6 213.3 217.7 221 223.6 226.7 229.2 231 232.5 233.9 233.8 233.6 233.2 232.7 231.4 230 228.8 228.8 228.8 228.7 228.6 228.2 228.8 229.5 230.3 231.1 231.7 232.3 232.7 232.3 231.5 230.2 229.1 228.6 228.2 229.9 227.8 227.1 226.6 225.9 224.2 222.8 223.7 224.4 225.6 225.3 225.2 225.1 225 224.4 223.5 222.9 222.3 221.7 221.1 221.1 221 220.6 219.7 218.9 217.8 216.7 214.3 213 212.2 212.5 210 207.7 201 201 201.8 211.1 216.3
249.6 258.1 261.1 259.8 251.2 248.3 251.2 253 255.3 256.6 258.4 259.9 261.5 263.8 265.7 267.3 268.7 268.4 267.6 266.5 264.5 261.3 260.1 259.2 258.3 257.4 256.3 254 251.6 250.4 248.9 245.7 244.6 244 243.3 241 238.6 236.3 235.3 235 233.6 232.2 229.6 228.4 227.3 226.2 224.9 223.7 222.7 223.2 225.9 228.4 229.1 228.1 227 227.7 228.6 230.4 235.3 236.1 235.6 235.2 236.1 235.1 234 230.5 228.7 226.9 225 222.4 219.9 217.1 212.2 207.9 206.9 206.5 206 205.2 200.8 197.5 196 192.4 189.7 182.8 177.9 154.6 147.2 144.1 134.8 136.9 143.2 156.2 158.4 157.4 157.2 158.1 159.8 164 171.6 172.6 176.9 183.6 187.3 189 188.9 189.6 190.2 190.8 191.4 193.4 195.7 197.9 198.7 198.2 197.6 196.2 191.2 185.9 187 194.5 196.3 198.1 197.4 185.2 190.5 201.4 205.3 208.2 211.7 217.1 220.9 223.6 226.2 228.4 229.8 231.3 232.8 233 232.9 232.8 232.9 232.2 230.8 229.7 229.7 229.6 229.6 229.5 229.7 230.3 230.9 231.7 232.5 233.4 233.8 234.2 234 232.8 231.9 231 230.7 230 229.8 228.5 227.7 226.5 225.4 224.5 224.9 225.8 226.6 227 226.9 226.8 226.7 226.6 226.1 224.2 224.1 222.8 222.1 221.6 221.5 221.4 220.6 219.8 219 217.2 215.1 213.5 212.2 211.2 210.8 210.4 209.8 201.2 201.6 201.6 203.4 215.7
261.5 261.9 259.3 257.3 255.9 253.6 256.3 257.2 259.1 260.1 261.3 262.9 264.7 266.7 268.4 270.2 271.8 272 270.7 268.8 266.7 264.1 263.6 262.6 261.6 260.2 257.7 255 252.4 251 249.2 245.9 243.6 242.9 242.2 240.9 238.6 236.4 235 234 233.1 231.5 230.3 228.9 227.8 226.6 225.5 224.4 223.6 222.3 222.8 223.8 227.8 225.4 225.1 225.6 226.9 228.1 230.3 234.3 234.6 234.3 234.2 233.1 231.1 229.1 227.2 225.4 222.9 220.3 216.7 211.7 208.4 207.3 206.3 206 205.7 206.4 199.4 196.5 195.3 193.6 185.9 183.8 171.7 151.4 148.3 147.8 142.8 135.3 135.3 154.1 158.4 158.2 159 158.5 160.7 165.6 177 173.9 180.4 185.8 189.5 189.8 190.1 190.8 191.5 192.1 193.3 195.2 197.1 199.3 199.5 199.2 197.9 194 188.9 184.4 192.3 198.2 198.6 198.4 198.4 188.2 191.9 200.2 204.9 208.5 211.8 215.2 220.2 222.7 225.8 227.5 229.1 230.6 231.9 232.7 233 233.2 232.8 232.4 231.7 230.5 230.5 230.5 230.3 230.2 231 231.7 232.3 233.1 234 235 236 236.3 235.6 234.6 233.7 233 232.2 231.1 230 229.3 228.9 227.6 225.9 225.5 226.5 227.6 228.6 228.8 228.7 228.6 228.5 227.9 226.7 225.4 225.4 225.2 224.9 223.9 222 221.5 220.7 219.9 218.8 217 215.5 213.4 212.2 210.4 207.2 207.7 203.9 201.9 201.7 202 202.2 208
265.6 263.6 261.5 260.4 259.1 258.3 259.1 260 261.4 262.7 264.4 266.1 268.1 270.8 272.8 274.5 275.9 277.1 276.3 274.4 272.9 272.2 270.3 268.2 266.2 264.5 262.1 257.9 254.1 251.5 249.5 247.2 246.7 244.6 242.5 240.4 238.6 236.4 234.5 232.5 232.8 232.4 231 229.5 228.4 227.3 226.2 225.3 224.5 223.2 221.9 221.3 221.8 223.7 223.1 223.9 224.9 225.8 227.6 230 234 235.2 233.3 231.6 229.1 227.5 225.7 223.4 221 217.8 210.8 207.6 207 206.9 206.3 205.2 205.6 204.6 199.1 197.2 193.3 185.6 183.8 182.3 169.4 152.1 148.9 148.6 141.4 142 139.8 135.7 150.2 154.4 160.7 161 164.4 179.3 181.2 183 185.2 189.2 191 190.7 191.3 192 192.7 193.3 194.7 196.3 197.4 199.3 199.6 198.2 195.9 191.9 187.2 188.7 198.1 198.6 199 198.4 197.9 188.5 193.3 200.8 204.8 208.5 211.7 214.4 218.7 222.1 224.9 226.5 228.1 229.8 231.4 232.3 233.1 233.4 232.9 232.4 231.9 231.4 231.3 231.2 231.1 231.3 232.2 233.1 233.7 234.5 235.6 236.6 237.7 239.1 238.4 237 235.5 234.4 233.3 232.1 230.9 230.2 229.7 228 226.4 229 229 228.9 229.5 230.3 230.5 230.4 229.6 228.5 227.4 226.7 226.6 226.5 225.3 224.7 224.2 222.3 221.5 221.8 222.5 221.6 219.4 215.8 212.2 210.9 207 204.6 203.4 202 202.2 202.6 202.9 212
267.3 265.2 264.1 263.3 262 261.6 262.4 263.2 264.5 266 267.6 269.6 271.7 274.9 277.2 278.5 279.9 281 280.4 278.9 278 275.8 273.7 271.8 270.2 268.3 266.4 263.7 259.5 255.3 252.9 250.1 249.7 247.6 245.2 241.4 238.7 236.4 234.1 232.6 230.3 231.3 232.1 231 229.1 228 227.1 226.2 225.4 224.2 222.8 221.4 222 220.9 221.2 221.2 221.8 222.5 224.7 228.2 233 239.1 235 231.1 226.8 224.6 221.9 219.2 216.7 211 208.4 207.2 206.8 206.6 206.5 205.3 205.1 197.8 193.7 189.6 186.5 184.8 182.9 181 164.2 155.4 150.3 148.4 141.4 141.7 142.5 143 135.6 143.1 162.8 167.1 179 182 184.6 186.2 189.3 191.6 191.7 191.9 192.7 193.5 194.2 194.1 197.5 197.4 197.3 198.6 199.1 197.1 193.7 189.8 190.2 198.7 198.9 199.3 199.3 198.9 198.4 189.3 195 201.1 205.1 208.4 211.4 214 217.8 222.2 224 225.9 227.6 229.4 231.2 232.7 233.5 234.1 233.7 233.1 232.6 232.2 232 231.9 231.8 232.5 233.4 234.3 235.1 236.2 237.7 239.2 240.6 240.9 239.8 238.1 237 236.1 235.3 234.6 233.8 232.6 230.1 228.5 227.4 231.5 230.6 230.5 231 231.5 232.1 231.4 230.3 229.2 228.1 227.9 227.9 226.6 225.8 225.3 224.9 223.7 222.9 224.1 225.1 224.2 222.3 217.2 212.8 211.6 210.4 207.5 205.8 203.1 202.7 203.2 204.1 220.6
