ncols 200
nrows 95
xllcorner 200000
yllcorner 910600
cellsize 50
63.9 61.7 59.9 59 57 58.4 56.7 56 57 56.1 55.7 54.5 49.4 47.3 45.7 10 -1.9 -1.9 -1.9 -1.9 -1.9 -1.9 -1.9 -1.9 -1.9 -1.9 -1.9 -1.9 -1.9 -1.9 -1.9 -1.9 -1.9 -1.9 -1.9 -1.9 -1.9 -1.9 -1.9 -1.9 -1.9 -1.9 -1.9 -1.9 -1.9 -1.9 -1.9 -1.9 -1.9 -1.9 -1.9 -1.9 -1.9 -1.9 -1.9 -1.9 -1.9 -1.9 -1.9 -1.9 -1.9 -1.9 -1.9 -1.9 -1.9 -1.9 -1.9 -1.9 -1.9 -1.9 -1.9 -1.9 -1.9 -1.9 -1.9 -1.9 -1.9 -1.9 -1.9 -1.9 -1.9 -1.9 -1.9 -1.9 -1.9 -1.9 -1.9 -1.9 -1.9 -1.9 -1.9 -1.9 -1.9 -1.9 -1.9 -1.9 -1.9 -1.9 -1.9 -1.9 -1.9 -1.9 -1.9 -1.9 -1.9 -1.9 -1.9 -1.9 -1.9 -1.9 -1.9 -1.9 -1.9 -1.9 -1.9 -1.9 -1.9 -1.9 -1.9 -1.9 -1.9 -1.9 -1.9 -1.9 -1.9 -1.9 -1.9 -1.9 6.1 37.8 50.9 49.3 41.9 22.3 -1.9 -1.9 -1.9 -1.9 -1.9 -1.9 -1.9 27.2 30.9 36.1 46.6 45.1 50.6 38.4 35.4 31.2 32.5 37.2 51.9 53.6 55.1 68.7 90 88.5 83.7 77.6 91.6 91.6 93.6 115 124.5 122.3 111.7 106.2 115.4 116.8 112.3 129.5 119.9 130.8 132.4 133.9 134.8 125.8 126.1 127.5 131.5 145.4 144.7 140.8 134.9 117.6 103 89.5 77.7 73.6 72.8 72.8 72.8 72.8 72.8 72.8 72.8 72.8 72.8 72.8
63.5 61.3 59.4 58.8 57.5 58.3 60 58.8 59.4 60.7 61.2 59.9 54.2 49.8 46.9 1.9 -1.9 -1.9 -1.9 -1.9 -1.9 -1.9 -1.9 -1.9 -1.9 -1.9 -1.9 -1.9 -1.9 -1.9 -1.9 -1.9 -1.9 -1.9 -1.9 -1.9 -1.9 -1.9 -1.9 -1.9 -1.9 -1.9 -1.9 -1.9 -1.9 -1.9 -1.9 -1.9 -1.9 -1.9 -1.9 -1.9 -1.9 -1.9 -1.9 -1.9 -1.9 -1.9 -1.9 -1.9 -1.9 -1.9 -1.9 -1.9 -1.9 -1.9 -1.9 -1.9 -1.9 -1.9 -1.9 -1.9 -1.9 -1.9 -1.9 -1.9 -1.9 -1.9 -1.9 -1.9 -1.9 -1.9 -1.9 -1.9 -1.9 -1.9 -1.9 -1.9 -1.9 -1.9 -1.9 -1.9 -1.9 -1.9 -1.9 -1.9 -1.9 -1.9 -1.9 -1.9 -1.9 -1.9 -1.9 -1.9 -1.9 -1.9 -1.9 -1.9 -1.9 -1.9 -1.9 -1.9 -1.9 -1.9 -1.9 -1.9 -1.9 -1.9 -1.9 -1.9 -1.9 -1.9 -1.9 -1.9 -1.9 -1.9 -1.9 -1.9 3 43.2 46.4 54.1 50.5 39.9 12.9 -1.9 -1.9 -1.9 -1.9 -1.9 -1.9 6.2 24.5 11.9 13.9 16.7 15.7 17.2 13.8 12.5 24.6 35.1 54.8 57.1 76 80.7 90.7 91.8 96.9 99 103.8 95.4 89 112.5 111.8 110.2 103 98 95.7 96 97.7 114.6 105.7 110.9 120.4 131.1 133 125.2 128.9 129.1 127.8 136.6 145.2 150.8 142.2 123.6 105.7 95.8 86.8 81.6 79.1 72.8 72.8 75.6 82.9 91.2 84.8 79.6 72.8 72.8
62.5 60.4 58.6 57.2 55.9 55.5 57.2 59.9 62.9 64 64.2 65.8 60.3 53.9 21 1 -1.9 -1.9 -1.9 -1.9 -1.9 -1.9 -1.9 -1.9 -1.9 -1.9 -1.9 -1.9 -1.9 -1.9 -1.9 -1.9 -1.9 -1.9 -1.9 -1.9 -1.9 -1.9 -1.9 -1.9 -1.9 -1.9 -1.9 -1.9 -1.9 -1.9 -1.9 -1.9 -1.9 -1.9 -1.9 -1.9 -1.9 -1.9 -1.9 -1.9 -1.9 -1.9 -1.9 -1.9 -1.9 -1.9 -1.9 -1.9 -1.9 -1.9 -1.9 -1.9 -1.9 -1.9 -1.9 -1.9 -1.9 -1.9 -1.9 -1.9 -1.9 -1.9 -1.9 -1.9 -1.9 -1.9 -1.9 -1.9 -1.9 -1.9 -1.9 -1.9 -1.9 -1.9 -1.9 -1.9 -1.9 -1.9 -1.9 -1.9 -1.9 -1.9 -1.9 -1.9 -1.9 -1.9 -1.9 -1.9 -1.9 -1.9 -1.9 -1.9 -1.9 -1.9 -1.9 -1.9 -1.9 -1.9 -1.9 -1.9 -1.9 -1.9 -1.9 -1.9 -1.9 -1.9 -1.9 -1.9 -1.9 -1.9 -1.9 12.5 12.9 31.9 51.9 61.2 57.3 53.2 25.9 15.3 -1.9 -1.9 9.2 9.8 7.6 3.6 3.6 3.6 5.5 10.7 7 10.9 9.8 16 21.9 44.5 52.4 62.4 89.5 102.8 99.6 98.1 93.8 91.9 103.4 88.8 83.3 100.7 99.1 96 90.7 90.4 93.5 91.3 91.8 94.2 93.3 99.6 121.4 138.9 127.5 124.5 126.6 137.4 137.9 133 134.2 142.8 144.7 120.6 101.1 100.2 98.2 91 83 72.8 72.8 79 80.7 86.3 103.7 101.1 89.5 94.4
58.3 58.5 57.1 55.7 54.4 53.3 53.1 54.7 60.3 65.5 68 66.8 63.7 57.3 41.8 4.5 24.7 -1.9 -1.9 -1.9 -1.9 -1.9 -1.9 -1.9 -1.9 -1.9 -1.9 -1.9 -1.9 -1.9 -1.9 -1.9 -1.9 -1.9 -1.9 -1.9 -1.9 -1.9 -1.9 -1.9 -1.9 -1.9 -1.9 -1.9 -1.9 -1.9 -1.9 -1.9 -1.9 -1.9 -1.9 -1.9 -1.9 -1.9 -1.9 -1.9 -1.9 -1.9 -1.9 -1.9 -1.9 -1.9 -1.9 -1.9 -1.9 -1.9 -1.9 -1.9 -1.9 -1.9 -1.9 -1.9 -1.9 -1.9 -1.9 -1.9 -1.9 -1.9 -1.9 -1.9 -1.9 -1.9 -1.9 -1.9 -1.9 -1.9 -1.9 -1.9 -1.9 -1.9 -1.9 -1.9 -1.9 -1.9 -1.9 -1.9 -1.9 -1.9 -1.9 -1.9 -1.9 -1.9 -1.9 -1.9 -1.9 -1.9 -1.9 -1.9 -1.9 -1.9 -1.9 -1.9 4.9 -1.9 -1.9 -1.9 -1.9 -1.9 -1.9 -1.9 -1.9 -1.9 -1.9 -1.9 -1.9 16.7 31.5 22.4 16.4 50.5 74.9 73.3 77.6 66.4 45.6 31.1 8.2 3.6 3.6 3.6 3.6 3.6 3.6 3.6 4.3 7 9.4 11.8 10.6 10.9 23.4 35 48.9 59.3 86.7 104.5 103.8 93.9 87.1 85.7 89.9 80.8 73.2 79.8 79.3 82.3 87.2 88 89.4 90.7 90.6 90.7 91.1 93.7 120.4 134.3 123.8 125.7 125.9 142.3 152.7 149.1 143.6 140.6 125.1 109.7 98.6 100.4 103.4 99.2 85.6 78.1 75.9 77.3 80 88.7 84.7 88.1 90.5 103.4
53.7 54.6 54.7 54.1 52.4 51.2 50 50.1 51.9 57.9 69.2 72.3 67.2 61.1 57.1 48.5 -1.9 -1.9 -1.9 -1.9 -1.9 -1.9 -1.9 -1.9 -1.9 -1.9 -1.9 -1.9 -1.9 -1.9 -1.9 -1.9 -1.9 -1.9 -1.9 -1.9 -1.9 -1.9 -1.9 -1.9 -1.9 -1.9 -1.9 -1.9 -1.9 -1.9 -1.9 -1.9 -1.9 -1.9 -1.9 -1.9 -1.9 -1.9 -1.9 -1.9 -1.9 -1.9 -1.9 -1.9 -1.9 -1.9 -1.9 -1.9 -1.9 -1.9 -1.9 -1.9 -1.9 -1.9 -1.9 -1.9 -1.9 -1.9 -1.9 -1.9 -1.9 -1.9 -1.9 -1.9 -1.9 -1.9 -1.9 -1.9 -1.9 -1.9 -1.9 -1.9 -1.9 -1.9 -1.9 -1.9 -1.9 -1.9 -1.9 -1.9 -1.9 -1.9 -1.9 -1.9 -1.9 -1.9 -1.9 -1.9 -1.9 -1.9 -1.9 -1.9 -1.9 -1.9 -1.9 -1.9 2.4 11.8 12.1 -1.9 -1.9 -1.9 -1.9 -1.9 -1.9 -1.9 -1.9 -1.9 -1.9 -1.9 -1.9 16 33.6 73 75.1 90 98.4 74.4 59.9 39.2 18.2 6.4 10.6 19.3 3.6 3.6 3.6 3.6 9.6 12.8 15.7 12.4 11.5 30.1 29.1 34 42.9 60.3 79.5 96.5 101.2 94.1 81.8 79.3 75.3 73 72.7 73.7 80.1 92.7 101.6 91 91.6 90.3 91.2 91.6 91.4 94.3 116.2 122.8 116.3 124.8 128.1 139.8 153.5 159.8 156.9 147 128.4 107.9 99.6 98.7 101.9 96.9 86.1 79.9 76.1 77.9 80.1 85.2 83 78.4 76.2 86.3
50 50.5 50.4 50.9 50.2 48.6 48.4 48.3 48.9 50.9 57 68.9 73.9 66.6 59.2 56.5 50.5 32.5 0.9 -1.9 -1.9 -1.9 -1.9 -1.9 -1.9 -1.9 -1.9 -1.9 -1.9 -1.9 -1.9 -1.9 -1.9 -1.9 -1.9 -1.9 -1.9 -1.9 -1.9 -1.9 -1.9 -1.9 -1.9 -1.9 -1.9 -1.9 -1.9 -1.9 -1.9 -1.9 -1.9 -1.9 -1.9 -1.9 -1.9 -1.9 -1.9 -1.9 -1.9 -1.9 -1.9 -1.9 -1.9 -1.9 -1.9 -1.9 -1.9 -1.9 -1.9 -1.9 -1.9 -1.9 -1.9 -1.9 -1.9 -1.9 -1.9 -1.9 -1.9 -1.9 -1.9 -1.9 -1.9 -1.9 -1.9 -1.9 -1.9 -1.9 -1.9 -1.9 -1.9 -1.9 -1.9 -1.9 -1.9 -1.9 -1.9 -1.9 -1.9 -1.9 -1.9 -1.9 -1.9 -1.9 -1.9 -1.9 -1.9 -1.9 -1.9 -1.9 -1.9 -1.9 4.9 6.2 12.1 -1.9 -1.9 -1.9 -1.9 -1.9 -1.9 -1.9 -1.9 -1.9 -1.9 -1.9 -1.9 40.1 80.9 102.8 102.7 99.3 100.2 83.6 63.4 40 21.4 14 22.6 37.9 14.2 3.6 3.6 31.5 29.8 27.8 24.6 18.1 19.5 35 37.6 35.2 43.6 73 76.7 97.2 101.6 95.5 77.9 72.5 72.9 73.6 73.4 79.2 88.5 104.9 104.5 103.6 100 97 109.2 95.1 91.9 96.8 125.3 114.1 115.2 124.7 131.6 132 142.6 156.1 150.7 143.9 118.4 106.9 99.7 94.3 105 91.9 90.2 78.7 76.3 78.5 83.6 81.8 87.8 76.9 76.2 76.2
47.7 48.2 48.5 48 48 47.8 47.7 47.6 47.5 48.4 51.6 56.7 64.1 64.4 57.1 56.2 53.8 41.1 2.4 0.5 0.8 -1.9 -1.9 -1.9 -1.9 -1.9 -1.9 -1.9 -1.9 -1.9 -1.9 -1.9 -1.9 -1.9 -1.9 -1.9 -1.9 -1.9 -1.9 -1.9 -1.9 -1.9 -1.9 -1.9 -1.9 -1.9 -1.9 -1.9 -1.9 -1.9 -1.9 -1.9 -1.9 -1.9 -1.9 -1.9 -1.9 -1.9 -1.9 -1.9 -1.9 -1.9 -1.9 -1.9 1.2 -1.9 -1.9 -1.9 -1.9 -1.9 -1.9 -1.9 -1.9 -1.9 -1.9 -1.9 -1.9 -1.9 -1.9 -1.9 -1.9 -1.9 -1.9 -1.9 -1.9 -1.9 -1.9 -1.9 -1.9 -1.9 -1.9 -1.9 -1.9 -1.9 -1.9 -1.9 -1.9 -1.9 -1.9 -1.9 -1.9 -1.9 -1.9 -1.9 -1.9 -1.9 -1.9 -1.9 -1.9 -1.9 -1.9 -1.9 1.6 -1.8 -1.9 -1.9 -1.9 -1.9 -1.9 -1.9 -1.9 -1.9 -1.9 -1.9 -1.9 -1.9 23.5 64.6 89.6 107.9 108.7 106.6 102.9 83.6 65.4 52.3 27.3 25 36.7 40 24.7 7.6 15.1 64.9 59.4 54.1 39.1 28.2 23.1 28.7 39.1 38.5 52.5 75.6 85.5 84.2 85.1 79 72.2 74.9 76.4 75.7 73.9 73.9 91.1 100 109.4 104.6 114.1 103.8 108.1 99 93 92.9 116.9 118.2 110.6 123.1 126.6 136.9 136.8 151.1 149.7 135.9 109.6 106.1 94.1 89.4 96.1 84.6 82.4 97.1 82 78.2 79.1 81.8 81.5 76.2 76.2 76.2
46.4 46.7 46.9 47.1 46.9 47.3 47.1 47 46.5 47.7 48.8 52.9 55.4 54.9 54.4 53.7 52.6 50.4 2.4 2.4 34.6 -1.9 -1.9 -1.9 -1.9 -1.9 -1.9 -1.9 -1.9 -1.9 -1.9 -1.9 -1.9 -1.9 -1.9 -1.9 -1.9 -1.9 -1.9 -1.9 -1.9 -1.9 -1.9 -1.9 -1.9 -1.9 -1.9 -1.9 -1.9 -1.9 -1.9 -1.9 -1.9 -1.9 -1.9 -1.9 -1.9 -1.9 -1.9 -1.9 -1.9 -1.9 2.5 5.5 2.4 2.8 -1.9 -1.9 -1.9 -1.9 -1.9 -1.9 -1.9 -1.9 -1.9 -1.9 -1.9 -1.9 -1.9 -1.9 -1.9 -1.9 -1.9 -1.9 -1.9 -1.9 -1.9 -1.9 -1.9 -1.9 -1.9 -1.9 -1.9 -1.9 -1.9 -1.9 -1.9 -1.9 -1.9 -1.9 -1.9 -1.9 -1.9 -1.9 -1.9 -1.9 -1.9 -1.9 -1.9 -1.9 -1.9 -1.9 -1.9 -1.9 -1.9 -1.9 -1.9 -1.9 -1.9 -1.9 -1.9 -1.9 -1.9 -1.9 -1.9 -1.9 10.7 58.6 81 105.4 110.8 109.4 98 83 71.5 74.9 44.1 28.9 28.1 36.8 31.2 21.1 67 83.6 87.3 74.3 53 42.3 36.8 26.5 29.4 36.5 60.3 86.2 80.1 78.7 69.8 71.8 77.8 72.5 75.7 76.2 86 102.8 99.1 96 110.2 100.8 105.3 104.9 105.4 101.9 100.8 95.9 115.2 114.6 109.2 109.5 111.6 132.2 133.6 140.9 145.5 133.9 109.7 98 83.8 81.1 82.7 81.1 87.1 90 90.7 80.4 80.2 81.1 84.9 88.5 76.2 76.2
45.8 45.7 45.6 46 45.4 46.1 46.6 46 46.5 47.9 48.7 49.9 52.7 54.1 53.8 52.8 49.4 48.8 16.4 13.8 34.4 -1.9 -1.9 -1.9 -1.9 -1.9 -1.9 -1.9 -1.9 -1.9 -1.9 -1.9 -1.9 -1.9 -1.9 -1.9 -1.9 -1.9 -1.9 -1.9 -1.9 -1.9 -1.9 -1.9 -1.9 -1.9 -1.9 -1.9 -1.9 -1.9 -1.9 -1.9 -1.9 -1.9 -1.9 -1.9 -1.9 -1.9 -1.9 -1.9 -1.9 -1.9 5.1 10.3 4 4.5 -1.9 -1.9 -1.9 -1.9 -1.9 -1.9 -1.9 -1.9 -1.9 -1.9 -1.9 -1.9 -1.9 -1.9 -1.9 -1.9 -1.9 -1.9 -1.9 -1.9 -1.9 -1.9 -1.9 -1.9 -1.9 -1.9 -1.9 -1.9 -1.9 -1.9 -1.9 -1.9 -1.9 -1.9 -1.9 -1.9 -1.9 -1.9 -1.9 -1.9 -1.9 -1.9 -1.9 -1.9 -1.9 -1.9 -1.9 -1.9 -1.9 -1.9 -1.9 -1.9 -1.9 -1.9 -1.9 -1.9 -1.9 -1.9 -1.9 -1.9 22.8 47.6 87.3 98.7 102.6 99.9 85.4 71.3 71.6 74.6 60.4 38.5 32.4 40.7 40.9 34.3 73.5 99.8 96.5 94 71.6 61.7 47.2 40 37.8 36.2 51.3 82.2 69.4 71.3 85.5 76.9 75.9 73.1 73.6 80.5 101.2 108.2 106.8 94.7 102 99.8 99.6 104.1 110 120.2 109.5 96.5 98.6 98.7 96.4 95.8 104.9 129.8 129.4 135.5 144.1 128.5 101.7 82.5 81.1 81.1 84.9 85.8 99.4 92.6 96.7 106.9 107.8 102.3 104.6 91.9 84.3 76.2
45.1 45 45.4 44.8 44.4 44.7 45.1 45.6 46.9 47.8 48.2 49.5 52.8 54.5 53.9 54.8 53.2 48.8 45.9 43.7 35.5 -1.9 -1.9 -1.9 -1.9 -1.9 -1.9 -1.9 -1.9 -1.9 -1.9 -1.9 -1.9 -1.9 -1.9 -1.9 -1.9 -1.9 -1.9 -1.9 -1.9 -1.9 -1.9 -1.9 -1.9 -1.9 -1.9 -1.9 -1.9 -1.9 -1.9 -1.9 -1.9 -1.9 -1.9 -1.9 -1.9 -1.9 -1.7 -1.9 -1.9 -1.9 2.1 4.4 8.1 7.2 -1.9 -1.9 -1.9 -1.9 -1.9 -1.9 -1.9 -1.9 -1.9 -1.9 -1.9 -1.9 -1.9 -1.9 -1.9 -1.9 -1.9 -1.9 -1.9 -1.9 -1.9 -1.9 -1.9 -1.9 -1.9 -1.9 -1.9 -1.9 -1.9 -1.9 -1.9 -1.9 -1.9 -1.9 -1.9 -1.9 -1.9 -1.9 -1.9 -1.9 -1.9 -1.9 -1.9 -1.9 -1.9 -1.9 -1.9 -1.9 -1.9 -1.9 -1.9 -1.9 -1.9 -1.9 -1.9 -1.9 -1.9 -1.9 -1.9 -1.9 34.1 68.8 88.2 94.3 94.9 88.3 80.5 64.7 65.3 81.1 61.7 43.6 38.7 51.6 55.6 51.2 86.1 109.4 108.2 99.5 83.9 71.9 60.3 54.5 55.4 42.1 64.2 52.6 64.9 88.7 94.1 87.7 85.4 75.7 75.3 90.7 106.7 101.8 100.2 94.7 95.4 97.4 100.9 117.4 134.3 128.5 115.3 97 93.8 90.5 87.6 87.6 105.1 125.5 131 132.9 128 102.5 82.7 81.1 88.3 96.1 104.2 120.9 122.4 118.4 122.7 123.1 116.3 115.8 104.8 104.8 100.6 76.2
44.3 44.6 44.1 43.7 42.7 42.4 43 44 46 46.9 48.4 49.7 51.5 54.1 56.9 58.5 60.2 58.1 50.1 43.6 29.4 -1.9 -1.9 -1.9 -1.9 -1.9 -1.9 -1.4 -1.9 -1.9 -1.9 -1.9 -1.9 -1.9 -1.9 -1.9 -1.9 -1.9 -1.9 -1.9 -1.9 -1.9 -1.9 -1.9 -1.9 -1.9 -1.9 -1.9 -1.9 4.1 -1.9 -1.9 -1.9 -1.9 -1.9 -1.9 -1.9 -1.9 -1.9 -1.9 -1.9 -1.9 -1.9 -1.9 2.4 6.3 2.1 -1.9 -1.9 -1.9 -1.9 -1.9 -1.9 -1.9 -1.9 -1.9 -1.9 -1.9 -1.9 -1.9 -1.9 -1.9 -1.9 -1.9 -1.9 -1.9 -1.9 -1.9 -1.9 -1.9 -1.9 -1.9 -1.9 -1.9 -1.9 -1.9 -1.9 -1.9 -1.9 -1.9 -1.9 -1.9 -1.9 -1.9 -1.9 -1.9 -1.9 -1.9 -1.9 -1.9 -1.9 -1.9 -1.9 -1.9 -1.9 -1.9 -1.9 -1.9 -1.9 -1.9 -1.9 -1.9 -1.9 -1.9 -1.9 21.3 42.4 64.9 80 86.7 77 70.9 71.2 63.3 63.4 68.1 54.4 42.4 39.5 43.7 46.1 75.8 94.9 119.6 110.2 104 91.4 75.5 73.1 62 63.7 55.2 60.6 66.4 74.5 103.7 105.8 94.4 102.4 100.8 84.7 86.2 100.3 107.2 102.4 96 94.7 94.7 101.4 126.2 133.1 134.8 113.1 104.7 90.3 87.6 87.6 87.6 106.8 123.6 118.1 108.4 99.1 89.7 81.1 81.1 89.7 101.9 110.2 131.3 145.3 139.2 123.8 123.9 117.7 111 103.3 104 114.4 105.6
43.7 43.7 42.9 42.5 41.7 41.3 41.3 41.7 43 46.2 48.8 51.3 51.9 53.4 56.9 60.7 62.9 63.5 56.2 49.7 40.3 5.3 -1.9 -1.9 -1.9 -1.9 -0.3 0.4 -0.6 -1.9 -1.9 -1.9 -1.9 -1.9 -1.9 -1.9 -1.9 -1.9 -1.9 -1.9 -1.9 -1.9 -1.9 -1.9 -1.9 -1.9 -1.9 -1.9 1.3 5.4 5.1 -1.9 -1.9 -1.9 -1.9 -1.9 -1.9 -1.9 -1.9 -1.9 -1.9 -1.9 -1.9 -1.9 0 3 4.4 2.4 1.2 1 -1.9 -1.9 -1.9 -1.9 -1.9 -1.9 -1.9 -1.9 -1.9 -1.9 -1.9 -1.9 -1.9 -1.9 -1.9 -1.9 -1.9 -1.9 -1.9 -1.9 -1.9 -1.9 -1.9 -1.9 -1.9 -1.9 -1.9 -1.9 -1.9 -1.9 -1.9 -1.9 -1.9 -1.9 -1.9 -1.9 -1.9 -1.9 -1.9 -1.9 -1.9 -1.9 -1.9 -1.9 -1.9 -1.9 -1.9 -1.9 -1.9 -1.9 -1.9 -1.9 -1.9 -1.9 16.1 39.1 50 66.6 75.1 74.8 72.4 70.6 65.7 63.3 60.1 53.1 45.8 42.2 41.7 41.3 45.2 84 87.1 106.5 101.8 92.5 89.3 83 80.4 73 62.1 57.9 81.8 94.6 97.4 97.6 104.1 99 103.2 116.1 91.6 88.7 92.9 102.3 97.7 97.5 94.7 94.7 106.9 117.6 121.8 125.6 113.2 102.3 88 87.6 87.6 87.6 92.6 101 103.7 111.6 102.4 83.2 81.1 81.1 86.4 100.4 109.7 133.5 145.2 144.2 136.3 129.7 123.4 122.1 105.4 103.2 103.8 104.8
42.8 42.2 41.7 41.3 40.8 40.4 40 39.7 40.5 43 47.1 50.8 52.8 54.2 56.4 59.4 62.5 66.1 64 54 49.8 2.9 0.9 -0.2 -1.9 -1.9 1.2 1.9 1.2 0.2 -1.9 -1.9 -1.9 -1.9 -1.9 -1.9 -1.9 -1.9 -1.9 -1.9 -1.9 -1.9 -1.9 -1.9 -1.9 -1.9 -1.9 -1.9 2.4 15.9 11.8 -1.9 -1.9 -1.9 -1.9 -1.9 1.3 -1.9 -1.9 -1.9 -1.9 -1.9 -1.9 -1.9 0.3 3.6 6.2 2.4 2.4 5.4 2.4 3.4 -1.9 -1.9 -1.9 -1.9 -1.9 -1.9 -1.9 -1.9 -1.9 -1.9 -1.9 -1.9 -1.9 -1.9 -1.9 -1.9 -1.9 -1.9 -1.9 -1.9 -1.9 -1.9 -1.9 -1.9 -1.9 -1.9 -1.9 -1.9 -1.9 -1.9 -1.9 -1.9 -1.9 -1.9 -1.9 -1.9 -1.9 -1.9 -1.9 -1.9 -1.9 -1.9 -1.9 -1.9 -1.9 -1.9 -1.9 -1.9 -1.9 -1.9 -1.9 -1.9 21.8 30.7 46.6 59.3 72.3 72.5 77.4 81.5 66.8 64.4 57.5 46.9 42.9 40.9 41.1 41.6 45.2 79 87.4 85.2 95.2 90.5 89.8 87.2 83.2 86.6 66 69.2 95.1 109.9 116.8 110 102.5 101.1 101.3 106.8 90.4 87 98.2 96.3 96.3 97.5 96 94.7 105.3 121 119.9 119.3 111.5 99.8 87.6 87.6 87.6 87.6 87.6 100.3 116.7 117.5 104.1 81.1 81.1 81.1 87.5 104.9 113.3 123.5 138 145.6 160.9 137.3 132.2 119.1 107 109.3 102.5 103.7
41.6 41 40.6 40.3 39.8 39.5 38.9 38.3 38.1 39 44 48.8 53.4 55.4 57.5 59.2 61 64.9 66.3 60.4 56 48.5 2 1.3 1.3 1.4 2.4 21.6 3.8 0.6 -1.9 -1.9 -1.9 -1.9 -1.9 -1.9 -1.9 -1.9 -1.9 -1.9 -1.9 -1.9 -1.9 -1.9 -1.9 -1.9 -1.9 -1.9 9.1 21.7 15.1 8.5 11.9 14 2.4 2.4 8.8 2.8 3.9 -1.9 -1.9 -1.9 -1.9 -1.9 4.8 13.1 18.1 3.3 2.4 2.4 2.4 11.6 -1.9 -1.9 -1.9 -1.9 -1.9 -1.9 -1.9 -1.9 -1.9 -1.9 -1.9 -1.9 -1.9 -1.9 -1.9 -1.9 -1.9 -1.9 -1.9 -1.9 -1.9 -1.9 -1.9 -1.9 -1.9 -1.9 -1.9 -1.9 -1.9 -1.9 -1.9 -1.9 -1.9 -1.9 -1.9 -1.9 -1.9 -1.9 -1.9 -1.9 -1.9 -1.9 -1.9 -1.9 -1.9 -1.9 -1.9 -1.9 -1.9 -1.9 -1.9 -1.9 -1.9 -1.9 31.6 58.8 65.6 79.4 94.6 87.6 70.9 64.8 58.1 48.8 45.5 46.6 44.1 42.5 43.6 58.9 62.5 61.5 88.4 87.3 89.7 93.7 95.9 91.4 76.2 74.9 97 109.6 113.5 117.3 114.3 108.5 102.1 97.7 91.3 86.8 89.8 94.2 100 97.8 98.7 100.5 107.2 113.8 117.2 113.5 108.9 92.3 87.6 87.6 87.6 87.6 93.6 97.4 114.7 116.1 97 81.1 81.1 81.1 89.6 103.3 109 119.8 140.2 153.2 155.7 144.2 136.4 124.8 124.6 117.4 108.6 100
39.9 39.8 39.4 39.6 38.9 38.5 37.9 37.2 36.6 36.8 38.5 45.5 49.1 54 57.8 61.1 62.8 64.5 66.2 65 61.3 53.1 13.2 8.5 31.6 23.8 32.6 27 21.4 2 -1.9 -1.9 -1.9 -1.9 -1.9 -1.9 -1.9 -1.9 -1.9 -1.9 -1.9 -1.9 -1.9 -1.9 -1.9 -1.9 -1.9 -1.9 11.5 16.4 18.6 17.8 26 25.4 9.8 4.8 2.4 8.4 8.2 9.9 2.1 1.6 1.9 4.5 17.7 25.8 32 31.4 6.4 2.4 12 27.2 19.7 -1.9 -1.9 -1.9 -1.9 -1.9 -1.9 -1.9 -1.9 -1.9 -1.9 -1.9 -1.9 -1.9 -1.9 -1.9 -1.9 -1.9 -1.9 -1.9 -1.9 -1.9 -1.9 -1.9 -1.9 -1.9 -1.9 -1.9 -1.9 -1.9 -1.9 -1.9 -1.9 -1.9 -1.9 -1.9 -1.9 -1.9 -1.9 -1.9 -1.9 -1.9 -1.9 -1.9 -1.9 -1.9 -1.9 -1.9 -1.9 -1.9 -1.9 -1.9 -1.9 -1.9 23.2 42.5 80.8 94.4 94.5 83.8 74.2 66.1 53.9 46.8 47.7 58.3 58.6 43.7 45.7 48.2 42.9 48.1 82 83.2 94.3 104.8 97.4 85.5 88.6 88.8 88.7 106.1 110.5 126.6 128.2 117.3 112.2 96.2 90 88.9 88.3 91.2 97.8 102.4 101.6 102.7 109.9 111.7 105.6 103.1 93.5 91.5 87.6 87.6 92 89.3 99.3 97.5 86.1 81.1 81.1 81.1 81.1 81.1 91.4 98.7 109.5 130.2 150.2 148.3 147.9 150.7 140.5 135.6 129.9 122.4 117.7 113.5
39.4 38.4 38.2 38.2 38.1 37.5 36.8 36.2 35.6 35 35.1 38.4 43.5 49 55.3 61.3 65 64 67.2 70.2 68.3 55.3 45.4 42.1 37.4 34.4 33.9 33.5 26.7 19.3 -1.9 -1.9 -1.9 -1.9 -1.9 -1.9 -1.9 -1.9 -1.9 -1.9 -1.9 -1.9 -1.9 -1.9 -1.9 -1.9 -1.9 0.2 13.2 21.5 21.7 18.3 25.1 28.1 15.4 9.1 2.4 5.9 11.5 13.5 2.4 8.6 7.7 12.2 19.7 28.9 36 35.6 13.9 8 21.9 34.6 16.5 -1.9 -1.9 -1.9 -1.9 -1.9 -1.9 -1.9 -1.9 -1.9 -1.9 -1.9 -1.9 -1.9 -1.9 -1.9 -1.9 -1.9 -1.9 -1.9 -1.9 -1.9 -1.9 -1.9 -1.9 -1.9 -1.9 -1.9 -1.9 -1.9 -1.9 -1.9 -1.9 -1.9 -1.9 -1.9 -1.9 -1.9 -1.9 -1.9 -1.9 -1.9 -1.9 -1.9 -1.9 -1.9 -1.9 -1.9 -1.9 -1.9 -1.9 -1.9 -1.9 -1.9 -1.9 26.3 51.7 74.5 80.3 84.1 74 65.1 52.2 51.2 53.5 67.1 62.9 50.1 40.3 38.5 37.2 41.1 48.2 62.8 86.5 97.1 87.2 92.4 87.3 99 85.3 102.8 111.1 114.3 119.5 121.6 115.3 102.6 92.5 92.8 93.3 96.2 101.9 111.4 105 111.2 111.7 114.1 98.5 95.5 92.5 89.3 87.6 88 91.1 91.3 92 84.9 81.1 81.1 81.1 81.1 81.1 81.1 87.5 103.7 113.5 129.2 141.4 148.4 161.9 161.5 148 140.2 132.1 134.7 120 112.6
38.9 37.9 37.3 37.1 37 36.5 35.9 35.3 34.5 34.1 33.7 34 38.2 43.3 50.4 56.5 63.7 64.1 67.1 69.9 70.8 56.5 48.5 45.6 43 38.3 33.3 32.7 33.4 23.1 -1.9 -1.9 -1.9 -1.9 -1.9 -1.9 -1.9 -1.9 -1.9 -1.9 -1.9 -1.9 -1.9 -1.9 -1.9 -1.9 -1.9 2.3 18.3 26.7 30.2 18.7 23.4 29.9 24.1 24.8 8.1 7.9 11.3 17.7 10 14 18.7 19.8 22.9 26 29.9 32.4 25.6 24.1 29 32.2 22 1.7 -1.9 -1.9 -1.9 -1.9 -1.9 -1.9 -1.9 -1.9 -1.9 -1.9 -1.9 -1.9 -1.9 -1.9 -1.9 -1.9 -1.9 -1.9 -1.9 -1.9 -1.9 -1.9 -1.9 -1.9 -1.9 -1.9 -1.9 -1.9 -1.9 -1.9 -1.9 -1.9 -1.9 -1.9 -1.9 -1.9 -1.9 -1.9 -1.9 -1.9 -1.9 -1.9 -1.9 -1.9 -1.9 -1.9 -1.9 -1.9 -1.9 -1.9 -1.9 -1.9 -1.9 -1.9 17.1 32.4 62 74.5 75.9 58.5 52.8 62.4 62.6 56.3 53 45.7 35.4 29.7 30.7 37.4 43.2 61 83 79.1 82.9 97.4 98.6 97.1 106 105.2 115 110.5 109 120 110.1 98.5 108.1 108.8 92.2 92.8 102 108.6 116.6 116.4 119.7 112.6 97.2 92.6 90.1 89.3 99 89.8 92.4 91.8 90.2 85.5 81.1 81.1 81.1 81.1 81.1 81.1 81.1 95.2 109.6 127.8 138.8 157.2 167.8 167.4 151.2 140.6 126.3 123.8 116.3 110.9
38.3 37.5 37 36.8 36.1 35.4 35.1 34.5 33.6 33.2 32.9 32.9 33.4 37.9 43.7 49.5 58 63.9 64.9 70 73.3 57.3 50.1 47.8 46.2 43.2 37.9 31.6 31 25.8 1.2 -1.9 -1.9 -1.9 -1.9 -1.9 -1.9 -1.9 -1.9 -1.9 -1.9 -1.9 -1.9 -1.9 -1.9 -1.9 -1.9 -1.9 21.1 30 37.4 25.1 27 34.4 36.1 34.6 23.8 18.4 20.3 20.8 14.9 17.2 24.6 22.3 25.3 35.5 34.6 29.4 28.4 33.6 39.3 36.5 33.1 15.9 -1.9 -1.9 -1.9 -1.9 -1.9 -1.9 -1.9 -1.9 -1.9 -1.9 -1.9 -1.9 -1.9 -1.9 -1.9 -1.9 -1.9 -1.9 -1.9 -1.9 -1.9 -1.9 -1.9 -1.9 -1.9 -1.9 -1.9 -1.9 -1.9 -1.9 -1.9 -1.9 -1.9 -1.9 -1.9 -1.9 -1.9 -1.9 -1.9 -1.9 -1.9 -1.9 -1.9 -1.9 -1.9 -1.9 -1.9 -1.9 -1.9 -1.9 -1.9 -1.9 -1.9 -1.9 -1.9 -1.9 33 71.2 67 57.6 52.5 68.2 58.3 50.9 49.7 36.6 25.7 20.7 26.3 33.6 41 52.2 84.5 70.8 85.1 90.3 103 111.7 113.4 117.5 114.7 111.3 106.5 104.1 99.9 102.8 119.4 116.2 107.2 95 103 106.7 115.8 111.1 109.6 99.6 91.1 90.3 89.8 90.1 100.4 87.7 93.9 91.2 90.8 90.8 81.1 81.1 81.1 81.1 81.1 81.1 81.1 92 106.4 122.1 136 145.8 154.6 156.5 139.9 132.7 116.6 114.8 116.7 110
37.3 37.1 36.5 35.9 35.4 35 33.6 33.3 32.7 32.6 32.6 32.5 32.3 34 39 44 50.2 57.5 64.1 68 70.1 59.3 51.5 46 44.9 45.9 41.9 32.7 28 26.4 3.4 -1.9 -1.9 -1.9 -1.9 -1.9 -1.9 -1.9 -1.9 -1.9 -1.9 -1.9 -1.9 -1.9 -1.9 -1.9 -1.9 -1.9 17.5 31.4 42.3 34.7 34.5 39.4 41.7 41.6 38 32.7 23.9 19 20.8 25.9 26.5 24.6 27.1 38.6 32.8 27.6 29.5 36.1 39.8 40.2 36.2 28.7 2.1 -1.9 -1.9 -1.9 -1.9 -1.9 -1.9 -1.9 -1.9 -1.9 -1.9 -1.9 -1.9 -1.9 -1.9 -1.9 -1.9 -1.9 -1.9 -1.9 -1.9 -1.9 -1.9 -1.9 -1.9 -1.9 -1.9 -1.9 -1.9 -1.9 -1.9 -1.9 -1.9 -1.9 -1.9 -1.9 -1.9 -1.9 -1.9 -1.9 -1.9 -1.9 -1.9 -1.9 -1.9 -1.9 -1.9 -1.9 -1.9 -1.9 -1.9 -1.9 -1.9 -1.9 -1.9 -1.9 20.6 58.5 58.4 51.4 58.8 59.2 53.9 51.5 41.3 32.5 21.8 19.9 19.8 32.9 45.6 56.9 70.1 65.4 78.1 103.6 127.4 123.4 121.3 124.1 126.9 115.2 108.3 106.6 99.4 107.1 114.5 110.6 112.6 112.4 105.4 114.4 116.1 103.9 92.7 91.6 92.9 98.7 96 104.1 93.8 88.4 88.5 90 88.9 91.4 82 81.1 81.1 81.1 81.1 81.1 81.1 89.6 101.5 115.3 128.2 142.1 148.7 145.9 130.9 127.2 114.6 114.1 108.9 103.4
36.6 36 35.7 35.3 34.9 34.6 33.8 32.5 32.3 32.2 32 31.7 31.7 31.7 33.7 40.5 44.8 52.3 58.6 67.1 71.1 57.3 50.2 44.5 41.8 43.6 43.7 36 29.7 24.9 17.5 2.7 -1.9 -1.9 -1.9 -1.9 -1.9 -1.9 -1.9 -1.9 -1.9 -1.9 -1.9 -1.9 -1.9 -1.9 -1.9 -1.9 2.4 27.9 41.4 47.6 41.7 46.5 45 43 37.5 28.9 21.5 19.3 19.7 27.6 30.7 27.4 31.8 40.6 32.6 28.3 35.3 35.4 38.7 38.4 35 27.6 25.4 -1.9 -1.9 -1.9 -1.9 -1.9 -1.9 -1.9 -1.9 -1.9 -1.9 -1.9 -1.9 -1.9 -1.9 -1.9 -1.9 -1.9 -1.9 -1.9 -1.9 -1.9 -1.9 -1.9 -1.9 -1.9 -1.9 -1.9 -1.9 -1.9 -1.9 -1.9 -1.9 -1.9 -1.9 -1.9 -1.9 -1.9 -1.9 -1.9 -1.9 -1.9 -1.9 -1.9 -1.9 -1.9 -1.9 -1.9 -1.9 -1.9 -1.9 -1.9 -1.9 -1.9 -1.9 -1.9 -1.9 26.8 44.4 48.6 54 46 49.9 45.8 35.2 25.5 21.2 18.7 17 30.3 48.5 59.7 63.4 64.4 83.9 116.5 134.4 131.5 130.1 124.7 126.7 121.3 113.2 108.2 100.8 107.7 110.1 129.9 123.7 128.3 116.6 116.7 102.3 92.6 92 99.5 93.3 96.3 90.3 108.5 92.5 83.3 88 92.7 86.7 89.7 81.1 81.1 81.1 81.1 81.1 81.1 85.2 85.7 97.1 109.3 123.9 135.3 135.4 140 129.9 116.6 111.1 113.1 109.3 98.5
36.2 35.5 35.3 34.4 34.2 33.6 32.5 31.6 31.6 31.4 31.1 30.9 30.8 30.7 31.1 34.7 40.2 46.9 54 60.1 60.8 53.1 47.4 41.6 38.8 39.3 40.1 38.7 33.3 26.9 19.1 5.7 -1.9 -1.9 -1.9 -1.9 -1.9 -1.9 -1.9 -1.9 -1.9 -1.9 -1.9 -1.9 -1.9 1.5 8.2 3.2 2.6 15.1 38.4 47.2 46.8 52.9 49.9 47.9 39 30.3 23.5 22.8 23.7 29.5 32.9 33.9 35.6 38.6 30 27.5 30.4 35 36.8 38.5 34.3 25.3 22.6 2.6 -1.9 -1.9 -1.9 -1.9 -1.9 -1.9 -1.9 -1.9 -1.9 -1.9 -1.9 -1.9 -1.9 -1.9 -1.9 -1.9 -1.9 -1.9 -1.9 -1.9 -1.9 -1.9 -1.9 -1.9 -1.9 -1.9 -1.9 -1.9 -1.9 -1.9 -1.9 -1.9 -1.9 -1.9 -1.9 -1.9 -1.9 -1.9 -1.9 -1.9 -1.9 -1.9 -1.9 -1.9 -1.9 -1.9 -1.9 -1.9 -1.9 -1.9 -1.9 -1.9 -1.9 -1.9 -1.9 2.4 35.1 45.1 45.9 42.2 38.3 33.6 26.5 20.9 15.3 15.2 15.5 23.6 38.6 51.6 63.9 85.5 99.9 114.5 128.6 134.7 137.5 135.5 131.1 123.5 118.2 109.5 101.7 106.6 125.6 135.1 141.9 130.4 118.7 107.9 95.6 93 101.4 101.1 93.1 92.8 89 113.5 100.3 82.4 88.2 86.5 82.7 81.1 88.1 87.3 91.4 81.1 81.1 81.1 88.9 92 94.7 105.1 115.1 125.2 131.6 128.8 119 110.1 103.8 94.6 91 95.2
36 35.3 35.1 34 33.4 32.8 31.7 30.8 30.7 30.5 30.2 30.1 29.7 29.7 29.8 31.9 36.1 42.4 48.9 53.9 53.7 49.1 44.1 38.6 36.3 36.2 36.8 37.1 35.7 31 16.2 14.8 -1.9 -1.9 -1.9 -1.9 -1.9 -1.9 -1.9 -1.9 -1.9 -1.9 -1.9 -1.9 5.9 9.2 13.4 13.8 12.3 14.5 30.8 48.2 49.6 59.9 58.7 52.3 45.7 40.8 38.8 33.9 35.6 34.5 34.3 36.6 37.7 33.2 19.2 26.4 30.1 28.2 28.7 28.9 27.9 24.2 11.4 3.2 -1.9 -1.9 -1.9 -1.9 -1.9 -1.9 -1.9 -1.9 -1.9 -1.9 -1.9 -1.9 -1.9 -1.9 -1.9 -1.9 -1.9 -1.9 -1.9 -1.9 -1.9 -1.9 -1.9 -1.9 -1.9 -1.9 -1.9 -1.9 -1.9 -1.9 -1.9 -1.9 -1.9 -1.9 -1.9 -1.9 -1.9 -1.9 -1.9 -1.9 -1.9 -1.9 -1.9 -1.9 -1.9 -1.9 -1.9 -1.9 -1.9 -1.9 -1.9 -1.9 -1.9 -1.9 -1.9 1.9 37.7 46.2 41.9 40 34.2 22.9 15.4 13.5 11.7 11.5 11.7 14.6 28.6 42.5 57.7 88.5 104 114.9 120.5 134 138.9 142.8 136.9 129.7 118.5 109.1 106.3 106.6 124.8 140.6 144.2 124.8 104.1 96.6 95.8 105.9 113.2 116.2 97.3 89 104.6 114.4 100.1 83 84.3 82.3 81.1 84.1 99.7 91.5 89.5 85.7 81.1 81.1 83.4 91.7 101.7 106.6 115.8 122.4 133.2 125.1 115.3 103.9 91.5 86.5 76.2 86.4
35.6 35.2 34.5 34.4 34.3 33.3 32.2 30.8 29.3 29.3 29.3 28.9 28.5 28.5 28.8 30.8 33.7 38 42.7 47.4 48.2 43.9 40 36.3 34.4 33.5 33.2 32.9 32.7 26.8 16.9 8.2 -1.9 -1.9 -1.9 -1.9 -1.9 -1.9 -1.9 -1.9 -1.9 -1.9 -1.9 -1.9 4.5 11 15.8 16.8 15.7 16.7 21.7 39 51.9 60.3 63.4 62.4 56.7 48.8 44.5 40.5 35.7 34.5 36.1 36 35.3 27.7 18.4 20.7 26.8 28.2 27.1 26.3 25.1 18.1 7.2 5.2 -1.9 -1.9 -1.9 -1.9 -1.9 -1.9 -1.9 -1.9 -1.9 -1.9 -1.9 -1.9 -1.9 -1.9 -1.9 -1.9 -1.9 -1.9 -1.9 -1.9 -1.9 -1.9 -1.9 -1.9 -1.9 -1.9 -1.9 -1.9 -1.9 -1.9 -1.9 -1.9 -1.9 -1.9 -1.9 -1.9 -1.9 -1.9 -1.9 -1.9 -1.9 -1.9 -1.9 -1.9 -1.9 -1.9 -1.9 -1.9 -1.9 -1.9 -1.9 -1.9 -1.9 -1.9 -1.9 2.1 33.2 30.5 35.4 29.1 26.7 14.7 11.3 7.2 6.4 7.1 7.9 9.9 20.9 30.5 46 72.2 108.4 119.2 123.3 126.4 140.8 144.3 142.6 134.6 117.1 108.2 106 110.4 137.5 144.2 138 111.1 100 97.2 98.7 106 114.5 113.2 99.8 89 97.6 100.2 95.5 82.3 81.7 83.4 87 92.1 97.6 87.9 88.3 93.6 90.8 88.7 84.9 96.7 107.6 115.6 117.5 121.4 129.3 120.5 108 95.6 92.4 87.2 76.2 76.7
35.1 35.3 34.9 34.7 34.5 33.9 33 32 30.3 29.6 27.9 27.7 27.6 27.6 27.8 28.9 31.2 34.5 36.8 38.9 39.5 40.5 39.1 35.3 33.6 32.6 31.5 30.2 27.4 23 19.3 2.2 -1.9 -1.9 -1.9 -1.9 -1.9 -1.9 -1.9 -1.9 -1.9 -1.9 -1.9 -1.9 6.7 12.9 17.5 21.3 20.4 21.8 21.8 30.7 43.9 56.2 62.5 71.1 65.2 57.6 50.4 43.2 38.3 35.2 34.1 35.4 28.2 20.8 18.4 17.5 26.3 32.9 23.6 18.1 19.7 10.7 7 4.7 -1.9 -1.9 -1.9 -1.9 -1.9 -1.9 -1.9 -1.9 -1.9 -1.9 -1.9 -1.9 -1.9 -1.9 -1.9 -1.9 -1.9 -1.9 -1.9 -1.9 -1.9 -1.9 -1.9 -1.9 -1.9 -1.9 -1.9 -1.9 -1.9 -1.9 -1.9 -1.9 -1.9 -1.9 -1.9 -1.9 -1.9 -1.9 -1.9 -1.9 -1.9 -1.9 -1.9 -1.9 -1.9 -1.9 -1.9 -1.9 -1.9 -1.9 -1.9 -1.9 -1.9 -1.9 -1.9 0.9 13.9 20.5 17.9 18.2 16.4 8.7 6.1 5.7 5.4 6.1 6.3 8.9 13.1 21 30.5 54.3 98.4 120.4 130.6 135.4 134.4 144.1 144.9 148.2 126.4 108.2 107.9 127.8 137.1 134.7 113.7 102.3 107.7 117.6 110.5 107.3 107.9 103.9 95 92.8 98.8 99.3 99.6 84.1 84.6 90 101.2 100 99.4 90.8 91.4 92.8 99.8 105.1 98.2 100.9 105 109.3 118.1 114.9 122.7 122.6 121.6 102.1 93.9 85.4 76.4 76.2
36.5 36 35.5 35.2 34.9 33.8 33.4 32.2 31.2 30.5 28.8 27.2 27.1 26.8 26.9 27.8 30.4 32 34.2 35.7 34.1 34 34.6 33.8 33.1 32.4 31.4 27.8 23 20.2 16.3 2.2 -1.9 -1.9 -1.9 -1.9 -1.9 -1.9 -1.9 -1.9 -1.9 -1.9 -1.9 2.4 9 14.8 19.6 23.3 23.6 26.9 27.5 27.8 34.2 48.7 55.9 64.5 64.8 61.2 55.6 51.9 41.5 35.4 33 28 22.8 19.5 22.9 17.5 11.7 18 11.7 11.7 11.7 12.7 15.1 8.2 1.2 -1.9 -1.9 -1.9 -1.9 -1.9 -1.9 -1.9 -1.9 -1.9 -1.9 -1.9 -1.9 -1.9 -1.9 -1.9 -1.9 -1.9 -1.9 -1.9 -1.9 -1.9 -1.9 -1.9 -1.9 -1.9 -1.9 -1.9 -1.9 -1.9 -1.9 -1.9 -1.9 -1.9 -1.9 -1.9 -1.9 -1.9 -1.9 -1.9 -1.9 -1.9 18.9 18.9 10.9 15.6 -1.9 -1.9 -1.9 -1.9 -1.9 -1.9 -1.9 -1.9 -1.9 0.1 2.4 6.9 4.3 5.2 8.4 4.8 4.5 4.4 4.8 5.2 5.3 6.3 11.3 14.4 23 51.3 84.6 116.9 128 135.4 143.2 142.2 141.9 138.5 119.2 118.7 110.2 125.8 131.3 112.1 103.5 107.1 124.4 118.4 114.7 110.7 110 97 100.1 105.6 109.3 102.1 91 88.9 94.4 113.4 109 109.7 107.2 95.7 91.8 96.7 96 101.1 100.4 96.3 99.5 110.2 115.2 104.8 118 121.6 118.5 112.2 87.8 78.1 76.2 76.2
37.7 36.7 36.1 35.8 35 34.4 33.8 33 31.9 31.1 30 28.5 27.4 27.8 23.8 26.5 28.2 29 30.5 31.5 31.3 31.4 31.6 31 31.5 30.4 29.2 25.1 21.9 17.3 14.4 9.4 -1.9 -1.9 -1.9 -1.9 -1.9 -1.9 -1.9 -1.9 -1.9 -1.9 -1.9 4.3 12.7 15.3 19.7 23.5 24.6 28.1 31.1 24.4 21.7 32 45.1 56.9 60 59.4 57 51.3 44.6 34.5 29.8 26.8 25.3 21 16.7 21.1 13 11.7 11.7 11.7 17.8 15.9 12.8 10.6 6.5 -1.9 -1.9 -1.9 -1.9 -1.9 -1.9 -1.9 -1.9 -1.9 -1.9 -1.9 -1.9 -1.9 -1.9 -1.9 -1.9 -1.9 -1.9 -1.9 -1.9 -1.9 -1.9 -1.9 -1.9 -1.9 -1.9 -1.9 -1.9 -1.9 -1.9 -1.9 -1.9 -1.9 -1.9 -1.9 -1.9 -1.9 -1.9 -1.9 -1.9 17.7 24.2 33.8 31.7 33 26.4 18.4 -1.9 -1.9 -1.9 -1.9 -0.3 1 0.2 1.4 5 6 4 3.8 5.1 5.1 4.6 5 4.7 4.5 4.6 4.9 7 11.5 20.9 43.5 75.4 104.3 126.5 147.3 150.7 146.3 140.8 139.8 130 118.2 110.6 114 111.3 107.8 118.4 122.6 125.1 112.9 110 102.7 104.1 97.7 97.4 105.8 109.6 109.7 91.9 93.3 102.6 116.7 109.4 109.3 111.7 103 102.4 100.9 92.3 90.2 93.2 86 93.3 102.5 96.1 101.5 105.4 112.9 102.9 90.5 79.6 76.2 76.2 76.2
38.1 37.4 36.8 36.1 35.5 35.1 34.7 34 33.4 32.7 32 29.9 28.8 27.1 23.8 23.8 25.4 27.6 29.1 30.5 30.9 31.1 30.5 29.6 28.4 29.4 29.7 24.1 20 16.8 13.9 9 -1.9 -1.9 -1.9 -1.9 -1.9 -1.9 -1.9 -1.9 -1.9 -1.9 -1.9 9 16.1 18.1 21.5 24.6 25.2 26.9 29.3 22 19.5 18.7 23.6 37.1 50 51.3 45 42 38.2 32.8 27.2 23.7 21.5 17.9 12.6 14.1 13.9 13.5 15.3 17.5 15.2 15.5 14.9 14.8 9.6 -1.9 -1.9 -1.9 -1.9 -1.9 -1.9 -1.9 -1.9 -1.9 -1.9 -1.9 -1.9 -1.9 -1.9 -1.9 -1.9 -1.9 -1.9 -1.9 -1.9 -1.9 -1.9 -1.9 -1.9 -1.9 -1.9 -1.9 -1.9 -1.9 -1.9 -1.9 -1.9 -1.9 -1.9 -1.9 -1.9 -1.9 -1.9 -1.9 -1.9 21 35.3 52.2 50.5 42.3 41.9 58.1 33.2 -1.9 -1.9 7.3 4.5 4.2 13.7 10.6 9.5 4.9 3.8 2.5 4.9 12.8 7.6 5.1 5.3 5.4 5 4.6 5.3 8.4 14.1 40.1 72.5 94.8 121.9 147.1 160.7 148.1 141.6 135.6 137.3 124.7 111.6 111.4 113.2 116.1 126.4 127.7 118.2 113 101.8 101.1 98.5 97.9 98 113.5 112.4 101 97.5 104.4 106.6 116.2 106.5 114.1 121.4 117.1 110.7 100.9 87.4 81.6 78.3 74.8 78 77.9 83.7 81 72.2 69.4 71.2 79.3 88.7 91.8 85.8 76.2
39.7 38.1 37.3 37 36.7 36.3 35.4 35.5 35.1 34.4 33.8 32.3 31 28.8 23.8 23.8 23.8 25.2 27.1 28.7 30.1 31.4 30.9 28.7 27.3 27.9 27.8 24.7 21.7 16.7 14.1 8.1 -1.9 -1.9 -1.9 -1.9 -1.9 -1.9 -1.9 -1.9 -1.9 -1.9 -1.9 10.4 17.8 21 22.8 25.3 25.7 26.1 25.9 23.8 20.8 18.7 18.4 19.2 28.4 29.6 31.9 33.8 31.5 29.7 26.2 20.7 16.1 12.9 11 11 10.7 10.7 12.4 14.1 15.6 13.4 15.2 15.8 12.6 2.4 -1.9 -1.9 -1.9 -1.9 -1.9 -1.9 -1.9 -1.9 -1.9 -1.9 -1.9 -1.9 -1.9 -1.9 -1.9 -1.9 -1.9 -1.9 -1.9 -1.9 -1.9 -1.9 -1.9 -1.9 -1.9 -1.9 -1.9 -1.9 -1.9 -1.9 -1.9 -1.9 -1.9 -1.9 -1.9 -1.9 -1.9 -1.9 -1.9 27.2 49.7 57.1 58.4 62.6 64.3 59.5 49.8 25.6 2.4 9.1 14.2 12.9 17.3 24.4 20.7 16.2 5.1 4.8 13.1 21 20.5 21.7 24.5 7.8 4.8 4.5 5.1 7.5 12.6 38.3 68 95.1 126.6 152.4 156.8 151.5 134.1 135 128.9 118 116.1 113.9 114.4 119.5 121.1 121.3 112.7 109.4 99.2 100.9 99.6 99.9 103.1 116.1 112.1 98.5 101.9 111.4 113 109.6 100.9 109.9 115.4 117.6 109 92.1 82.2 69.4 69.4 69.4 69.4 69.4 69.4 69.4 69.4 69.4 69.4 82 95.1 100.3 81.5 79.2
41.8 40.6 39.4 38.2 37.9 36.4 36.5 36.6 36.7 36.1 35.5 34.9 34.5 30.3 25.4 23.8 23.8 23.8 25.2 27.1 30.1 31.2 32 30.1 25.9 25.8 24.3 23.1 19.4 17.2 15 11.8 1.8 -1.9 -1.9 -1.9 -1.9 -1.9 -1.9 -1.9 -1.9 -1.9 3.2 15.3 19 22.3 23.6 26.8 28.6 27.4 27.5 26.4 24.7 20.5 18.5 18.3 18.6 19.6 21 23.3 25.7 25.2 24.1 19.2 14.9 11.2 10.6 10.5 10.2 9.8 9.7 10.2 10.7 10.8 13.6 14.5 12.1 4.4 -1.9 -1.9 -1.9 -1.9 -1.9 -1.9 -1.9 -1.9 -1.9 -1.9 -1.9 -1.9 -1.9 -1.9 -1.9 -1.9 -1.9 -1.9 -1.9 -1.9 -1.9 -1.9 -1.9 -1.9 -1.9 -1.9 -1.9 -1.9 -1.9 -1.9 -1.9 -1.9 -1.9 -1.9 -1.9 -1.9 -1.9 -1.9 -1.9 16.3 34 49.2 59.9 67 75.7 67.5 51.3 38.9 15.3 21.4 15.3 14.7 17 25.8 29.9 24.2 19.2 4.8 11.2 19.5 15.7 13.5 9.4 6.3 5.6 4.5 4.9 6.4 11 38.5 70.1 98.8 128 149.4 153.3 136.9 125.4 123.5 121.9 127.9 129.9 132 117 123.5 120.9 119.5 113.2 108.5 96.3 97.4 97.8 106.3 105.7 113.1 110.7 97.2 102.4 113.3 110.2 93.3 96.2 114.2 110.4 100.6 93.9 78.1 69.4 69.4 69.4 69.4 69.4 69.4 69.4 69.4 69.4 69.4 69.4 76.2 76 76.2 78 82
43.2 42 40.9 39.7 37.7 37.4 37.6 37.7 36.9 36.9 36.8 36.4 36.2 33.9 30.5 25.6 23.8 23.8 24.3 27.2 30.1 31.4 31.4 29.1 25 23.8 22.2 21.9 20.4 18.3 16.9 14.5 10.5 1.2 0.3 -0.4 -1.9 -1.9 -1.9 -1.9 -1.9 -1.9 6.6 17 20.3 23.2 23.6 25.8 28.5 29.9 31.2 30.7 28.6 27.8 22.4 19.1 18.9 19.1 18.9 18.6 19.1 20.6 20.4 18.4 14.5 10.9 10.5 10 9.8 9 8.9 9.5 10.2 10.9 11.6 13 11.7 6.4 -1.9 -1.9 -1.9 -1.9 -1.9 -1.9 -1.9 -1.9 -1.9 -1.9 -1.9 -0.6 0.2 -1.9 -1.9 -1.9 -1.9 -1.9 -1.9 -1.9 -1.9 -1.9 -1.9 -1.9 -1.9 -1.9 -1.9 -1.9 -1.9 -1.9 -1.9 -1.9 -1.9 -1.9 -1.9 -1.9 -1.9 -1.9 -1.9 22.8 33.1 32.9 47 60.2 69.3 64.8 55.5 39.8 32.7 39.6 31.3 16.4 18.6 25.8 31.4 29 26.9 19.7 7.3 8.8 12 12 7.5 5.5 4.7 4.4 5.5 6.3 15.1 43.2 67.9 88.9 126.3 139.1 128.8 112.8 128 127.7 127.6 129.5 134.6 138.9 130.2 124.4 121.3 120.9 115.9 107 93.1 94 86.5 96.7 99.3 108.9 97.6 96.5 100.9 106.3 95.8 83.1 87.5 98.8 85 71.6 69.4 69.4 69.4 69.4 69.4 69.4 69.4 69.4 69.4 69.4 69.4 69.4 69.4 89.2 96.3 83.4 89 97.8
44.6 43.5 42.4 41.9 40.5 38.7 38.8 37.3 37.2 37.2 37.2 37.6 37.3 35.2 32.4 29 23.8 23.8 24.3 27.3 29.7 31.1 30.8 27.5 24.6 22.1 20 19.7 20.3 20.1 19.2 17.1 14.5 3.9 2 0.8 0.1 -0.2 -1.2 -1.9 -1.9 -1.9 9.9 17.9 21.4 23.8 24.1 24.8 27.5 29.7 30.6 32.8 33.2 32 27.2 23.6 20.4 19.5 19 18.3 17.8 17.7 17.7 16.7 14.3 11.4 9.9 9.6 8.9 8.1 8.4 9.1 9.9 10.5 13.9 14.5 12.6 9.6 1.6 -1.9 -1.9 -1.9 -1.9 -1.9 -1.9 -1.9 -1.9 1.1 2.6 2.2 2.1 -1.9 -1.9 -1.9 -1.9 -1.9 -1.9 -1.9 -1.9 -1.9 -1.9 -1.9 -1.9 -1.9 -1.9 -1.9 -1.9 -1.9 -1.9 -1.9 -1.9 -1.9 -1.9 -1.9 -1.9 -1.9 -1.9 -1.9 32.3 52.8 57.5 48.8 50.9 51.1 50.4 41.8 37.3 38.1 50.3 32.1 26.7 28.2 34.2 31.1 30.6 25 16.8 7.5 7.8 7.7 6.8 6.3 4.5 4.8 5.2 6.1 15.6 25.2 36.5 57.9 82.4 81.9 85.8 104.5 117.7 124.5 141.2 137.4 134.7 134 125.3 113.7 112.8 114.9 114.1 109 97.5 85.6 81.1 87.3 93.2 98.4 95.8 92.6 95.1 92 71.7 69.4 69.4 69.4 73.9 74.9 72.5 69.4 69.8 69.4 69.4 69.4 69.4 69.4 69.4 69.4 69.4 69.4 73.2 93.8 98.2 88.1 86.1 104
46.7 45 44.2 44.3 43.8 42.3 39.5 37.5 38.1 38.6 37.7 37.4 37.1 36.2 34.1 31.7 27.5 23.8 23.8 27.3 29 30.3 29.9 28.9 25.6 22.9 20.1 18.3 18.8 19.6 20.6 19.2 16.9 14.7 10.3 2.1 1.5 0.7 -0.3 -1.3 -1.9 1.6 11.4 18.6 22.4 24.1 24.6 25.3 26 28.7 30.4 31.8 32.1 32.1 29.8 27.6 25.1 23.7 20.2 18.9 18.7 17.8 17.4 16.5 13.7 11.6 10 9.2 8.4 8.4 8 8.5 8.9 9.3 12.5 15 14.6 11.4 7.2 -1.9 -1.9 -1.9 -1.9 -1.9 -1.9 2 5.3 6.9 12 12.4 11.6 10.4 9.1 -1.9 -1.9 -1.9 -1.9 -1.9 -1.9 -1.9 -1.9 -1.9 -1.9 -1.9 -1.9 -1.9 -1.9 -1.9 -1.9 -1.9 -1.9 -1.9 8.9 7.7 -1.9 -1.9 -1.9 -1.9 27.7 39.4 54.2 57.3 60.2 51.2 52.8 48.3 44.5 34.4 48.4 41 38 36.8 37 34.3 29.4 24.7 17.4 10.4 7.5 7.3 6.8 6.2 4.9 5 5.2 6 7.8 10.5 20 33.7 55.4 69.5 77.8 85.3 96.5 109.4 138.3 140.8 137.9 134.1 129.2 104.5 108.5 105.3 108.5 107.7 94.1 77.2 71.6 70 67.9 70.7 69.5 68.7 77.2 73.4 74.2 69.4 69.4 69.4 79.6 87.4 89.4 94.2 85.1 81.9 69.4 69.4 69.4 79.6 69.4 71.4 69.4 69.4 77.7 83.3 86.5 75.2 85 96.8
49.8 47.7 45.8 45.5 45.3 44.7 41.7 38.9 38.6 38.8 39.8 38.4 36.6 36.2 34.4 32.1 28.5 25.1 24.7 26.7 28.3 28.7 28.1 27.2 26.4 24 21.3 19 16.8 17.3 19.4 18.9 18.7 16.2 13.6 5.9 2.2 1 0 -1.1 -1.9 4 12.3 22.3 24.4 24.4 25 25.6 26.2 27.8 29.8 30 30.1 30.7 30.4 29.4 27.4 26 24.6 20.2 19.5 18.4 17.9 16.3 14.6 12.5 10.9 9.8 8.7 8.5 8.1 7.6 7.7 7.5 9.3 14.1 16 13.4 7.4 1.8 -0.3 -1.9 -1.9 -1.9 3.1 12.4 14 13.7 14.1 13.8 11.3 10.2 9.5 1.9 -1.9 -1.9 -1.9 -1.9 -1.9 -1.9 -1.9 -1.9 -1.9 -1.9 -1.9 -1.9 -1.9 -1.9 -1.9 -1.9 3.7 33 19.2 19.8 2.1 -1.9 25.5 43.1 51.9 57.2 64.5 56.8 61.6 64.6 61.8 53.1 47.1 38 38.7 43 38.3 39.3 38 40.6 36.6 28.6 22.8 16 8.3 7.4 7 6.2 5.7 5.7 5.6 5.6 6.6 10.2 21.9 46.1 81.5 93.1 96 92.4 88.6 104.6 128.9 129.5 135.3 127.1 119.1 116.1 95.6 91.4 90.2 84.8 74.6 68.3 66.5 68 62.7 55.7 50 52.7 71.1 69.4 69.4 69.4 69.4 69.4 73.7 75.2 87.3 97.4 93.7 89.3 84.5 79 87.8 108.7 107.4 84.8 76.1 86.9 76 75.2 75.2 75.2 93.3 95.6
50.8 50 48.2 45.9 45.5 45.3 45.6 40.8 38.8 39 39.2 39.1 39.2 35.4 33.4 32.3 29.6 27.3 25.4 26.3 26.6 27.4 27.9 25.8 25.2 24.1 22.2 19.9 17.5 15.2 14.6 16 17.4 12.7 10.8 7.9 2.1 1.1 0.2 -0.8 -1.9 -1.9 16.1 26.3 28.7 25.7 25 25.6 26.3 27.2 28 28.8 29.5 30.3 31 30.1 29.4 28.5 26.9 25.3 23.9 21 18.4 16.7 15.4 14.1 12.4 10.8 9.2 8.6 8.2 7.7 7.3 7.1 6.9 8.9 14.6 12.3 8.8 3.4 1.7 0.6 -1.9 7.8 12.6 13.4 13.9 14.4 14.9 13 11.8 11 9.8 5 2.4 2.4 8.4 7.6 4.6 4.2 -1.9 -1.9 -1.9 -1.9 -1.9 -1.9 -1.9 -1.9 -1.9 3.2 32.6 57.5 55 33.9 25.3 21.9 31.3 52.5 69 81 80.8 72.3 65 62.9 65.3 58.2 49.2 46.2 40.6 37.7 40.3 39.2 39.2 43.7 42.5 40.3 36.6 21.5 13 7.8 7.2 6.5 6.4 5.9 5.8 5.7 6.5 7.9 20.7 45 83.8 104.8 96.5 88.3 78.6 86.2 94.8 105.1 98.5 106.2 98.9 93.2 81.4 74.6 67.7 68 63.4 61.2 59.4 60.5 61.6 55.5 50 58.6 67.9 75.7 69.4 69.4 69.4 69.4 69.4 82 95.5 94.4 91.4 92.4 94.7 103 102.9 109.4 93.8 91.8 85 86 75.2 75.2 75.2 84 88.9 95.2
55.4 52.7 51.1 48.7 46.7 44.3 43.5 41.4 38.1 37.1 37.3 37.9 37.9 36.5 33.3 31.1 29.3 27.3 25.9 25.5 25 25.8 26.5 25.1 24.2 23 21.5 19.3 16.7 15.1 13.6 12.2 11.5 7.8 6.8 5.1 2.4 1.4 0.6 -0.3 -1.3 -1.9 12.5 23.4 24.8 26.1 25.6 25.6 26.6 27.1 27.8 28.6 29.4 30.2 30.9 31 30.7 30 29.3 28.6 26.9 25.2 24.1 18.1 15.9 14.9 14 12.1 10.4 9.2 8.6 8.1 8.1 8.1 7.6 6.1 9.7 10.6 2.9 2.9 -1.9 -1.9 -1.9 13.2 13.8 13.9 14.4 14.5 14.8 16.1 20 12 11.1 11.7 10.6 13.1 12.9 10.1 11 12.6 1.1 -1.9 -1.9 -1.9 -1.9 -1.9 -1.9 -1.9 -1.9 -1.9 47.2 86.8 80.5 65.9 38.6 52.9 57.3 55.7 74.2 80.4 88.4 92.8 74.5 65.7 64 62.4 62.9 51.3 50.2 38.5 38.6 39.8 40.7 45.5 50.6 51.8 42.6 31.4 20.1 9.8 7.7 7 6.3 6.2 6.1 5.9 5.9 7.4 10.2 17.7 45.4 59.9 68.4 65 62.9 66.4 71.8 75.5 78.7 83.9 84.4 76.8 62.5 63.6 63.2 59.7 59.7 57.2 50 50 50.3 63.4 58.9 67.1 69.4 82.3 84.9 81.6 72.9 71.7 73.8 89.5 97.9 107.7 97.8 106.2 108.2 108.4 100.6 91.9 91.5 97.3 90.8 75.2 75.2 75.2 84 87.2 89.9 94.9
57.5 56.6 53.4 52.1 50 46.7 44.3 40.9 37.7 36.5 35.4 35.1 35.9 35.4 33.2 31.6 27 25.9 25.5 25.1 24.5 24.2 24.8 24.5 23.6 22.4 20.8 18.8 15.7 15 13.2 11.6 9.6 5.9 3.9 2.9 2.6 1.9 0.8 -0.2 -1.3 -1.9 15.1 23.8 28.1 29.6 28.6 25.6 26 27.3 27.8 28.6 29.4 30.2 30.9 30.9 30.9 30.9 30.9 30.2 29.6 28.7 27.2 25 20.9 17.8 16.1 14.4 12.6 11.4 9.5 8.9 8.6 8.6 8.5 7.8 2.9 2.9 2.9 2.9 -1.9 -1.9 13.7 13.5 14.7 14.8 14.9 17.2 19.3 21.2 23.1 17.5 12.9 12.4 11.8 13.2 11.3 8 8.9 9 0.4 -1.9 -1.9 -1.9 -1.9 -1.9 -1.9 -1.9 -1.9 -1.9 52.3 97.1 92.5 79.5 58.8 67.4 88.5 78.1 77 90.7 101.1 94.1 71.6 68.3 77.1 69.4 68.2 62.5 52.5 41.4 40.2 41.5 47.5 56 59.4 56.1 45.9 36.5 25.3 16.8 9 7.9 6.6 6.6 6.6 6.1 7.4 8.5 8.9 10.8 17.5 29 40.3 53.9 64.5 77.4 82.5 79.3 87.8 88.1 73.4 58.3 60.9 62.8 61.3 56.7 50 50 50 50 57.2 64.7 62 70.5 67.1 84.4 93.3 81.7 76.2 77 76.2 95.2 112.4 119.2 117.8 112.9 105.5 98.4 91.8 91.4 88.5 88.4 83.9 75.2 75.8 81.1 90.2 92.3 99.1 98.7
60.5 58.9 56 54.2 52.1 49.8 46.6 43.5 39.1 36.2 33.9 33 32.2 32.3 31.8 30.7 26.8 23.9 22.5 22.9 24.4 22.6 23.5 23.8 23 21.7 20 17.2 15.8 14.8 12.7 11.7 11 6.9 4.8 6.8 2.4 1.7 0.6 -0.4 -1.9 -1.9 12.6 23.8 32.3 36.1 25.3 25.1 25.1 26.6 27.8 28.6 29.4 30.2 30.7 31.1 31.1 31.1 31.1 31.1 30.5 30.4 30 28.7 26.4 24.1 19.2 16.9 15.9 15 13.7 10.9 9.1 9.2 8.8 8.2 2.9 2.9 2.9 5.2 10.1 12.5 13.8 16 17.5 16.4 17.1 20.2 22.2 23.8 23.2 18.8 14.1 13.2 12.4 10.9 8.8 2.4 3.7 2 -1.9 -1.9 -1.9 -1.9 -1.9 -1.9 -1.9 -1.9 -1.9 -1.9 47.2 97.5 95.3 86.4 89 108.7 102.6 104.1 101.9 87.7 82.8 76.9 71.2 69.8 71.2 76.9 79.5 82.6 75.1 61.8 44.9 46 49.6 56.6 59 58.8 54.6 47.7 32.6 22.4 15.2 8.7 6.9 6.8 7 7.1 7.2 9.1 10.4 11.4 15.5 22 30.6 43.5 53.3 56.2 63.9 65.1 76.7 73.6 53.8 49.9 70.8 75.6 61.9 57.1 50 50 50 50 60.6 62.8 62.5 63.6 67.2 77.1 93.9 93.3 85.7 85.3 85.3 98.6 114.7 122.4 123.1 117.7 109.5 101.9 94.6 91.5 85.7 82.5 75.2 75.2 77.4 87.9 100.4 102.5 109.9 96.3
60.4 59.5 56.3 55.2 54.2 51.9 49.1 46.3 43 38 34.5 32.5 31.2 30.5 30.8 30.8 28.4 24.5 21.8 19.2 20.2 19.3 21.5 22.3 22.4 20.7 18.9 17.2 15.9 14.8 12.6 10.8 10.8 7 4.1 4.9 2.7 1.5 0.5 -0.5 -1.9 -1.9 14.8 25.2 32.7 34.6 24.9 24.8 24.7 25.2 27 28.6 29.4 29.8 30.3 31.2 31.3 31.3 31.4 31.8 31.4 31.3 31.5 31.2 29.8 27.6 24.7 20.9 19.2 18.5 17.2 14.8 12.6 9.9 9.7 9.7 5.3 2.9 2.9 2.9 11.7 12.9 14.2 17.3 19.2 18.4 18.3 18.8 24.6 25.3 21.3 18.3 15.2 13.7 13 11.6 8.4 2.4 -1.9 -1.9 -1.9 -1.9 -1.9 -1.9 -1.9 -1.9 -1.9 -1.9 -1.9 8.8 37 72.8 89.2 86 106.8 114.3 109.5 110.1 104.8 94.2 87.9 79.7 88.3 85.5 88.4 80.4 84.1 90 87.4 75 62.2 45.5 46.3 49.9 65.2 67.7 69.8 59.1 43.1 31.2 17.4 11.1 8.5 8.5 7.9 6.8 6.4 8.3 10.5 11.8 14.4 17.3 24.7 35 37 39.4 45 45 47.2 42.7 41.2 56.5 76.1 87.5 72.6 68.7 58.2 50 50 52.1 62.2 63.9 62.3 63.6 82.6 83.6 94 113.6 108.4 97.1 95.7 107.9 117.2 121.3 122.2 116.2 109.3 105.9 99.3 93.4 79.5 75.2 75.2 75.2 75.2 85.6 95.8 96.4 101.1 90.9
58 59.2 57.2 54.8 53.8 53 51.5 49.1 46.1 42.7 38.2 33.2 31.1 29.7 28 27.6 28.3 27.2 22.2 18.3 16.3 17.1 18.6 20.2 21 20.7 19.3 17.6 16.1 15 13.5 11.1 13.3 7.5 5.2 5.4 4.8 1.6 0.6 -0.4 -1.4 -1.9 7.7 24.1 27.2 38.1 25 24.9 24.7 24.1 25.3 27.1 28.9 29.3 29.9 30.8 31.5 31.5 31.6 32.1 32.3 32.2 32.4 32.3 32.2 30.9 29 26.1 23.5 21 19.1 18.1 16.7 14.2 10.5 9.9 10.4 3.2 2.9 2.9 10.8 13 14.7 17.3 20.5 19.8 18.6 18.7 18.5 18.8 17.8 15.4 14.1 13.5 13.3 11.3 9.7 1.3 -1.9 -1.9 -1.9 -1.9 -1.9 -1.9 -1.9 -1.9 -1.9 -1.9 -1.9 18.1 36.8 53.8 55.6 75.9 102.1 108.9 109 110.4 107.1 109.4 93.3 85.4 94 100.2 100 83.3 81.3 82.9 83.2 74.2 61.8 48.9 48.1 47.9 60.3 73.8 73.4 68.8 49.8 36.6 24.2 14.8 10.7 8.6 7.9 7.6 7.2 7.9 9.3 10.6 15.9 19.3 24.9 25.8 28.5 28.9 33.2 42 54.7 57.9 61.3 62 82 95.6 88.9 74.8 58.3 50 50 56.7 64.2 66.8 62.7 64 82.2 86 91.8 113.4 117.6 120.1 120.8 112 116.5 120.4 121.8 117.2 108.9 106.9 95.7 85.7 93.6 89.9 75.2 75.2 80.5 94.6 94.3 99.2 98.5 94.6
56.6 54.6 53.5 51.5 51.1 50.8 51.2 50.3 48.4 46.1 42.8 37.6 33.8 28.9 26.3 25.5 26 26.8 25.4 21.5 16.5 15.2 15.2 16.3 18.8 19.6 18.9 17.2 15.7 14 12.9 11.8 12.8 7.6 5 4.6 5.5 1.8 0.8 -0.1 -1.1 -1.9 4.9 18.3 24 26.9 26 24.9 24.1 23.2 24.2 25.4 27 28.8 29.5 30.4 31.2 31.7 31.8 32.3 32.8 32.8 32.6 32.7 32.9 32.9 31.6 30.1 27.3 24.7 22.4 20.1 18.2 16.6 14 11.5 11.3 9.2 10.9 2.9 10.6 13.6 14.9 15.9 19.5 21.7 19.1 18.9 18.4 18 16.2 15 14.4 13.9 13.2 11.4 7.7 1.7 -0.4 -1.9 -1.9 -1.9 -1.9 -1.9 -1.9 -1.9 -1.9 -1.9 -1.9 20.6 41 47.7 58.5 79.3 102.1 115.7 117.5 117.6 116.4 109.4 108.1 106.3 93.5 93.2 85.5 82.6 83 89.8 88.5 82.7 64.9 52.9 49.9 48.4 52.1 66.3 78.9 83.3 63.6 44.3 30.5 21.5 19.1 15.5 8.5 9 9.1 9.2 9.6 9.3 15.6 23.4 26.4 26.4 29.2 43.2 57.8 72.1 74.5 72.5 70 71.8 83.5 98.3 104.1 82.5 62.6 57.7 50 57.8 66.3 67.9 64.6 66.4 81.2 90.2 97.6 107.2 118.6 128.7 123.8 111.5 121.8 119.8 121.5 110.4 103.7 94 91.6 89.1 93.6 96.5 85.9 81.3 86.3 97.7 98.3 94.9 97.7 95.9
58 55.5 52.6 51.4 50.5 49.8 49 49.8 49.2 47.8 46.3 42.7 37.1 30.5 26.3 24.8 25.1 25.9 25.2 25.3 20.9 16.9 14.7 13.9 15.2 16.6 18.5 18 16.2 14.1 12.6 12.5 9.2 6.7 5.6 5.2 5.2 2 0.9 -0.2 -1.2 -1.9 4 9.2 19.5 18.3 28 28.8 24.2 22 22 23.7 26 28.3 29.3 30 30.9 31.7 32 32.4 32.7 33 32.9 33 33.2 33.2 32.9 32 30.4 28.1 26.9 23.6 21.2 19.2 17.2 17.2 14.3 12.6 10.7 5.1 14.5 14.5 15.3 15.8 16.9 22.6 21.1 20.1 18.8 18.2 17.3 16.1 14.9 14 12.9 9.5 8.2 6.1 1.3 0.6 -1.9 -1.9 0 -1.9 -1.9 -1.9 -1.9 -1.9 -1.9 22.5 40.9 44.5 55.3 76.6 97 105 118.9 124.7 115.2 112.5 114.1 104.3 97.6 95.5 87.8 88.9 99.6 96.7 88 73.2 66.3 62.9 58.8 50.5 53.5 59.5 74.6 85.9 70.1 53.2 41.7 29.7 22.2 23.2 15.4 9.6 9.5 9.2 8.7 9.3 10.8 22.3 32.1 39.8 46.2 58.7 72.3 77.7 76.5 75.9 73.2 76 82.8 103.7 97.4 80.6 70 62 55.4 63 72.1 76.3 74.1 77.6 90.2 96.1 107 104.7 111.4 118.5 109.9 107.8 115.6 118.9 115.3 106.8 103 103.1 99.9 93.8 93.7 92.3 88.4 87.6 88.4 91.5 89.2 89.2 90.9 86
59.4 58.2 55.6 52.4 50.5 49.5 48.8 48.2 48.6 47.9 47.7 45.2 41.2 36.6 31 25.3 23.1 23.4 24.5 25 25.1 21.2 16.7 14.2 14.2 14.7 15.9 16.3 16 14.6 12.6 11.1 10.4 8.4 5 4.6 4.5 2.1 0.9 -0.1 -1.1 -1.9 -1.9 4.4 13.4 10.2 20.4 29.3 28.1 21.1 20.5 22.6 25.5 28.3 29.3 30 30.7 31.5 32.1 32.3 32.5 33.2 33.2 33.3 33.3 33.4 33.3 32.9 31.4 30 28.1 26.1 24 21.2 20.2 18.7 18 16.3 12.4 7.3 14.3 15.5 15.5 16.2 17.2 17.4 17.7 23.4 22.2 21.1 20.2 19 16.7 12.6 11.2 10.2 9.9 9 8.4 5.7 2.1 1.8 4.2 4.5 -1.9 -1.9 -1.9 -1.9 -1.9 21.2 33.6 52.9 69 83.9 93.1 109.7 121.7 122.2 115.1 107.7 107.4 106 107.9 94.6 91.6 105.6 107.6 103.3 85.5 68.8 66.9 71.6 65.6 59.9 53.1 57.3 58.4 80.9 70.3 54.2 42.4 34.8 29.4 23.7 21.6 22.1 10.3 9.3 10.5 10.1 11.2 18.5 32.1 39.1 48.7 55 65.5 74.7 74.9 73.8 70 67.7 68.1 72.8 78 68.7 61.7 55.5 55 64.3 72 76.5 91.5 93.8 105.7 94.1 110.4 97.4 97.2 97.2 106.1 106.2 114.3 122.5 116.6 118.5 116.1 116.3 108.4 99.3 97.9 101 94.5 92 89.6 88.9 88.7 89.4 88.3 82.7
61.2 60 58.9 55.9 53.5 50.8 49.3 48.6 48.4 48.2 48.1 47.2 45.6 41.7 34.7 27.8 23.4 22.3 23.2 24.2 25 25.4 22.1 15.8 14 13.3 13.3 14.3 15.9 14.2 13 10.8 9.9 9.4 7.8 5.9 3.6 2.4 1.7 0.7 -0.2 -1 -1.9 -1.9 5.9 6.7 15.4 28.1 26.9 19.1 19.9 25.2 30.4 29.5 29.3 30 30.4 29.3 31 32.4 33.5 33.4 33.5 33.7 33.9 33.3 33.3 32.5 32.1 31.3 29 27.6 25.1 23.5 22 20.4 20.2 18.8 14.5 14.1 15.4 16.2 16 16.8 17.7 17.9 18.4 18.4 23.1 23.2 24.6 20.9 15.4 13.1 12 11.5 11.2 12.1 14 13 11.7 9.6 10.6 5.2 3.6 -1.9 -1.9 -1.9 -1.9 30.8 35.3 51.6 74.9 90.4 95.9 100.4 106.5 106.2 107 107.4 113 102.6 100.9 104.8 105.2 116.8 113.2 102.1 96.4 87.2 77.8 78 76.6 70.7 60.1 58.6 56.1 53.6 63.5 50.9 41.3 43.4 42 32.5 28.7 31.5 20.8 10.4 9.9 9.7 11.6 10.8 26.7 40.3 53.5 55.5 65.4 74.5 81.4 78.3 74.8 65.2 59.9 57.8 54.3 54.4 54.5 53 54 65.2 71.3 82.4 100.3 113.7 112.1 103.3 97.2 97.2 97.2 101.9 108.2 109.3 117.6 123.2 128.8 135.7 132.8 125.8 117.8 110.4 110.2 108 97.8 93.6 92.1 89.1 89.8 89.6 89.4 88.8
62.8 62.5 60.8 59.4 56.7 54.4 52.4 49.7 48.8 48.5 48.5 48.5 47.9 45.1 40.5 33.3 27.1 22.1 21.4 22 23.3 25 25.2 20.3 16.9 13.8 13 13.3 14 15 13.6 12.3 9.2 6.9 6.2 4.5 3.8 2.4 2.4 1.5 0.5 -0.4 -1.4 -1.9 6.6 4.4 5.6 19.4 17.9 17.8 16.7 25.8 32.2 30 29.3 29.9 29.7 27.6 28.5 30.6 31.9 33.6 34.4 33.8 33.2 33.2 32.3 31.4 30.4 29.7 29.4 27.3 25.9 25.4 24.3 22.6 21.7 19.7 14.7 19.4 18.6 17.1 16.6 17.3 18.1 18.4 18.6 18.7 19.2 20.1 20.9 19.5 15.4 14.4 14.7 17.8 18.1 18.9 22.3 23.4 20.9 19.8 20.5 11.9 5.8 2.1 -1.9 -1.9 19.3 25.8 36.9 45.4 69.6 86.2 96.1 95.3 102.9 105.2 106.2 108.7 110.5 103 104.7 112.1 119.6 119.9 119.5 124.6 122.9 107.4 87 89.6 94.2 84.9 72.6 65.2 62.4 54.2 49.5 47 47.7 49.2 49.1 48.5 38.5 44.6 38.1 23.5 13.5 10.3 11 11.3 13.6 34.9 52.1 62.9 70.7 82.7 92.7 89.8 81 70.7 63.9 56.4 54.8 51.7 49.6 52.1 54.8 63.9 71.7 85 101.6 117 121.2 105.7 97.6 98.2 108.7 114.4 120 119.7 124.7 137.9 145.2 146.2 141.6 132.4 126 119.6 114.9 110.2 101.6 95.3 93.2 90.6 90 89.6 87.3 85.4
65.5 65.7 64 62.8 60.3 57.8 55.8 53.6 51.1 48.9 48.4 48.5 49.4 47.7 44.2 38.7 33.4 25.4 22 20.5 20.6 23.1 24.4 23.3 19.5 18.1 14.6 12.8 12.7 14.3 13.8 12.2 10.8 8.3 6.8 3.7 3.5 2.6 2.4 1.6 0.7 -0.3 -1.2 -1.9 6.2 4.5 4.3 4.9 12.3 12.7 12.7 19.3 26 27.4 28.9 31.2 32.1 27.6 27.6 27.8 30.3 32.4 33.5 34 33.1 32.7 32 31 30.1 28.2 27.1 26.6 25.8 25.8 25.3 23.6 24.2 20.5 17.1 21 21.6 21.3 17.8 18.2 18.7 18.7 18.9 19 19.8 21.1 21.9 20.8 18.8 18.4 19.3 21.4 23.3 26 28.2 30.4 31.9 31.5 23.2 19.9 16 3.8 1.5 1.7 21.5 22.9 42.4 52.7 69.8 79.5 83.1 87.5 89.8 97.4 108.1 112.7 111.7 111.2 105.6 114.7 126.6 123.6 126.3 131.6 124.2 113.2 100.8 98.5 101.4 90.6 81.7 73.8 76.7 72.2 59.6 50.8 51.4 55.2 51 48.9 50.4 56.7 63.4 56 29.5 13.3 11.2 11.6 11.5 30.4 50.9 76.1 74.1 85.7 99.1 95.5 85.3 73.9 67.4 62.2 59.1 55.2 43.7 50.2 53 62.9 72.9 90.2 104.8 118.2 118.7 119.4 130.2 118.9 117.7 120.4 124.1 127.8 129.9 140.1 150.6 153.8 155.1 146.7 133.7 126.1 119.3 112 106.2 102.2 97.3 94.2 91.9 90.7 86.1 79.2
68.7 67.9 67.7 67.5 66.9 63.3 58.5 56.8 54.8 52.9 49.7 48.7 48.2 47.7 45.2 42.2 36.5 31.2 23.5 20.7 20.2 20.5 22.2 23 23.4 20.9 17.8 14.8 13.1 13.3 12.6 10.4 8.3 6.1 4.9 3.6 3.2 2.9 2.4 1.6 0.8 -0.1 -1 -1.9 2.4 5.1 4.6 5.7 10.3 11.5 14.5 20.4 22.4 25 31.3 36.1 34.9 29.4 27.6 27.6 29.5 31.9 32.1 32.2 32.2 32.2 31.7 30.8 30.1 28.4 25.4 24.1 22.9 24 25.4 24.9 25.3 22.7 19.3 23.3 22.5 21.2 21.2 22.2 22.1 21.5 20.9 20.5 21.4 22.4 23.5 25.6 25.4 24.6 25.6 24.7 26.1 29.1 30.2 37.3 36.8 32.8 27.2 26 22.1 16 6.8 9.4 15.6 29.3 39.1 56.6 67.2 71.7 75.4 98.7 103.7 93 105 116.5 107 107.1 107.2 113 137.1 140.4 131.2 124.9 122.1 120 110.7 111.3 110.8 96.4 86.3 75.6 80.3 82 71.1 67.3 54 51.1 50.2 49 54.8 57.2 65.5 60.8 48.9 27.2 12.7 11.6 11.8 16.6 39.2 64.2 76.1 81.3 103 99 91.2 79.4 64.3 57.3 54.1 44.4 42.8 49.4 57.6 64.8 81.2 96.4 110.5 118.7 121.8 123.8 138.4 138.9 124.6 127.1 129.8 135.3 136.7 149.3 158.2 159.7 157.3 151.2 137.3 131.4 126.2 120.4 115.1 108.5 102.8 99.4 95.5 93.6 91.4 87.7
72.5 69.5 68.1 65.9 64.8 69.6 68 59.9 57.5 54.4 52 49 48.1 47.2 45.9 43.1 38.9 35.3 27.5 21.5 18.7 18.3 19.1 20.7 22.3 21.6 19.9 17.5 14.5 13 11.9 11.7 10.3 7.2 5 2.8 -1.9 2.5 2.4 1.9 1 0.1 -0.8 -1.9 0.8 6.2 10.6 7.9 14.8 21.1 18.3 21.7 22 24.6 30.7 33.1 34.4 29.5 27.6 27.6 27.6 27.6 30.5 30.6 30.7 31.1 30.8 30.8 30.1 30.1 26.5 24.1 24.1 24.1 24.1 23.6 25.5 26.1 22.3 24.4 24.8 22.9 23.4 24.2 24.7 24.4 23.6 22.9 22.7 23.1 24.2 26.7 29.3 32.2 32.3 30.6 29 29.9 31.2 33.7 37.9 35.2 33.5 33.5 32.2 29.2 14 14.3 24.4 37.6 58.1 63.4 75 83.4 89.1 96 98.5 103.6 101.3 105.7 106 111.6 110.8 121.6 137.1 142.6 132.3 126.8 128.1 133.9 126.7 122.7 117.3 103.3 83.3 81.8 80.9 86.8 68.2 73.8 69.1 55.3 49.7 49.3 53.2 57.9 58.3 62.9 52 35.5 17.7 13 12 13.9 32.7 52.6 61.7 72.8 96.2 89.8 86.7 68.3 55 46.1 39.7 37 41.8 51.8 57.7 67.6 83.9 104.1 112.1 120.8 123.6 125.6 141.5 147.8 134.9 136.3 139.7 142.7 146.6 152.1 161.4 162.5 154.5 146.3 135.8 129.7 124.3 118.5 113.1 107.5 102.9 98.8 96.8 97.1 93.9 91.3
74.5 71.6 68.9 68.2 64.8 65.1 72.4 66.2 60.3 56.9 53.8 50.5 48.6 47.9 45.9 45.1 40.9 36.4 31.3 25 19.4 18.3 17.9 18.1 20.6 21.4 22.2 20.8 17.5 15.2 13.1 12.5 11.4 10.1 6.1 3.7 -1.9 0 2.4 2.4 1.5 0.5 -0.4 -1.9 -1.9 5.6 9 12 19.7 21.1 20.6 22.6 23.5 20.4 28.8 29.6 29.8 29.5 27.9 27.6 27.6 27.6 27.6 29.4 29.8 29.9 28.8 28.6 29.3 28.8 27.9 24.5 24.1 24.1 24.1 24.1 24.1 24.2 24.1 25 25 24.9 24.7 25.5 26.1 26.3 26.6 26.1 25.7 25.3 25.1 26.6 28.4 33.7 38.1 33.6 33.2 32.7 33.5 34.7 36.6 36.3 36.3 36.4 35.6 33.5 25.9 16.1 32.6 45.9 58.2 67.6 89.2 104.3 96.9 98.2 106 110.1 108.9 106.4 105 106 120.3 131.2 148.8 150.7 147.5 140.3 141.5 144.5 139.9 132.7 117 94.7 92.8 100.9 94.3 97.1 78.4 77.7 80.6 76.6 70.3 50.7 48.9 52 62.2 62.8 51.6 39.5 25.6 13.4 12.4 14.1 27.3 40.6 50.1 70.8 89.3 79.3 71.4 59.3 49.2 41.3 35.7 38.3 45.9 51.4 53.7 65.7 79.1 99.9 110.8 119.5 124.1 131.3 149.4 156.4 148.8 144.6 145 146.2 149 153.8 157.1 155.7 147 140.7 134.7 129.5 124.5 117 110.1 105.5 101.9 98.5 96.7 96 93.1 88.2
75.3 74.1 70.8 68.9 65.7 66.1 68 67 64.3 60.5 56.6 52.6 49.5 48 46.7 44.8 43 38.7 34.1 29.2 22.2 18.4 17.2 15.5 16.4 18.2 21.1 21.9 21.2 18.4 15.6 14 13.3 11.6 9.7 4.6 2.4 -1.9 1.3 2.4 1.9 1 -0.1 -1.9 -1.9 7.7 15.6 17.5 19.2 20.6 21.5 24.1 23.7 20.4 21.9 27.3 29.1 28.9 27.9 28 27.6 27.6 27.6 27.6 29.2 27.6 27.1 26.3 26.6 27.3 26.7 23.3 24.1 24.1 24.1 24.1 24.1 24.1 24.1 23.8 24.8 25.8 25.8 26.5 27.3 27.8 28.3 28.1 28.3 27.5 27.7 28.2 29.6 31 32.9 34.3 36.5 36.3 36.8 36 36.2 36.4 36.3 36.2 34.4 31.6 26.9 20.7 35.1 44.3 59.8 70.2 87.4 103.5 102.5 104.7 107.6 108.2 105.5 105.1 120.4 125.7 124.8 144.3 149.6 157.4 156.8 151.4 146.7 147.8 139.5 130.7 115.6 103.4 108.6 113.2 116.9 99.7 89.2 88.7 92.6 89.1 83 52 49.1 48.7 59.3 57.1 47.5 38.2 29.5 16.4 12.8 13.3 16.4 28.9 45.1 62.3 73.7 64.9 55.2 46.8 41 38.3 35.4 45.4 62.1 57.2 54.1 58.2 74.2 89.5 106.8 115.6 123.1 132.8 147.7 157.3 160.7 149.5 153.6 149.6 151.2 153.4 156.9 150.7 145.8 142.4 138.9 132.8 129.6 121.1 107.6 104.7 101.1 97.2 95.9 93.9 91.1 86
75.8 75.1 73.3 70.2 68.4 68.2 67.7 66.9 64.2 61.7 60.1 54.6 50.6 48.8 46.6 44.3 41.3 38.5 34.7 30.1 24.9 19.7 17.6 15.4 13.7 15.4 17.5 20.4 21.2 20.5 18.5 16.8 14.7 12.6 10.5 5.6 2.4 -1.9 2.5 2.4 2.3 1.3 0.7 -0.6 -1.9 7.4 21.6 24.8 24.8 25.4 25.5 22.4 20.4 20.4 20.4 26.3 28.4 28.3 28.7 29.6 31.5 31.3 28.3 28.3 28.5 27.4 26.3 24.9 23.9 24.6 24.4 24.2 24.1 24.1 24.1 24.1 24.1 24.1 24.1 24.1 24.2 25.7 26.1 25.6 27.5 28.9 29.1 29.4 29.7 29.8 30.3 30.8 31.3 32 32.9 35.2 36.5 38.1 39.1 39.9 39.4 36.9 36.6 36.4 29.8 25.2 24 23.6 33.7 50.6 70 70.1 80.9 93.4 106.7 106.6 106.9 107.9 106.4 108.9 127.9 142.3 145.9 144.6 154.3 159 159.9 155.5 147 151 142.9 138.2 124.2 109.8 115.9 128.2 121 111.8 103 99.5 98.2 95.2 82.3 65.4 50.9 48.4 47.2 46.6 45.1 39.3 27.9 20.5 13.3 13.7 14.4 18.2 32.1 47.2 50.8 45.2 39.3 34.4 38.1 35.6 37.1 52.8 66.3 58.1 55.4 67.2 81.1 98.3 113.9 121.5 124.9 131.8 150.8 162 160.8 153.2 157.1 153.1 152.8 154.3 150.6 149.1 143.8 140.3 132 126.8 118.4 113.2 107.1 103.8 100.4 95.7 91.9 90.6 87.6 83.7
75.7 74.6 73.3 70.4 67.6 66.9 69.5 69.2 67.6 64.3 61.3 59.1 54.2 48.8 46.6 44.3 41.5 37.6 34 30.3 27 22.8 16.9 14.8 13 12.2 13.2 17 20.1 21.6 20.9 18.7 16.5 14.8 12.9 9.1 4.1 -1.9 2.6 2.4 2.5 2.4 2 0.2 -1.9 5.9 19.3 21.9 24.6 26.2 25.2 20.4 20.4 20.4 20.4 20.4 24 28.1 28.8 29.8 30.9 31.2 31.4 29.6 29.8 27.8 26.3 25 24.1 24.1 24.1 24.1 24.1 24.1 24.1 24.1 24.1 24.1 24.1 24.1 24.1 24.3 25.5 25.6 28.2 29.5 30 30.4 30.7 30.8 31.3 31.9 32.5 33.3 34.7 36.7 39.3 42.4 43.2 45.2 45 43.7 40.6 39.1 31.1 25.6 24.7 32.3 42.8 59.3 67.9 73 73.5 88.2 102.2 104.8 114.8 120.1 131.5 144.5 150 153.4 160.9 155.2 152.3 159.4 161.3 148.1 144.9 150.1 147.8 139.1 122.9 111.5 114 126 118.8 115.1 110.5 106.3 105.3 99.6 79.5 64.7 51.9 49.1 49.6 49.5 49.4 46.8 38.5 23.9 15.4 13.9 14 15.1 21.7 27.7 27.5 25.8 27.1 31.2 39.5 33.1 40.6 59 74.3 69.7 67.1 69.7 73.5 90.4 107 114 115.4 129 143.6 149 152 154.7 155.9 155 155.1 154.7 149.9 142.2 137.8 133.2 127.2 122.7 116.1 107.6 104 100.3 96.7 90.8 87.2 85.6 76.7 72.8
74.5 74 72.1 69.4 66.8 64.7 64.2 69.3 71.1 66.7 64 59.6 56.3 53.1 47.5 44.6 40.7 38.4 35 30.9 26.8 23.6 18 14.5 12 10.6 11 13.7 17.9 20.2 21.7 19.8 18.4 16.6 14.5 11.6 6.4 -1.9 -1.9 1.8 2.7 2.8 2.1 0.4 -1.9 3.3 12.8 20.3 25 27.4 28.3 22.3 20.8 23.5 20.4 20.4 22.5 27.9 28.7 31 32.7 33.3 34.1 33.7 32.4 29.8 27.9 24.9 24.1 24.1 24.1 24.1 24.1 24.1 24.1 24.1 24.1 24.1 24.1 24.1 24.1 24.1 24.1 25 26.8 29.9 30.4 30.6 31.5 32 32.5 33 33.8 34.6 35.9 36.5 39.2 42.9 47.4 49.7 50.5 51.7 46.7 43.3 39.5 35.9 28.9 32.6 48.2 58 69.4 72.6 73.1 85.3 106.4 110.2 123.3 144.5 146 152.8 153.5 155.7 164.8 163.3 155.3 152.8 149.7 144.1 142.3 136 130.1 123.4 117.7 111.7 115.9 129.4 126 114.5 109.6 108.3 103.5 93.2 79.7 66.5 54.3 51.6 55.5 62.1 57 56.1 47.2 30.3 25.2 14.4 14.4 14.3 15.7 16.3 20.4 19.6 20 28.8 33.3 38.3 54.1 67.8 78.1 82.3 84.5 77.3 75.5 80.5 87.6 96.3 109.2 125.6 132.2 143.9 150.4 162.7 161.7 157.5 157 151 143.9 138.5 133.5 128.5 123.8 120.4 110.5 101.8 95.9 91.3 85.9 80.1 75.4 72.3 68.4 68.4
73.2 72.1 70.5 68.3 65.3 62 61 62.6 66.5 66.7 67.7 65.8 59.4 57.3 51.9 45.6 40.7 37.4 35 32.1 28 22.1 18.5 15.1 11.5 10 9.6 10.6 14 18.2 19.8 20.1 19.6 17.8 15.4 13 9.9 5 -1.9 -1.9 2.3 2.4 1.3 0 -1.9 3.5 11.5 19.5 24.8 30.1 31.4 28.7 27.1 29.2 26.3 24.6 26.3 29.2 31 35 38.5 37.3 36.6 35.2 33.4 31.8 29.1 27 24.4 24.1 24.1 24.1 24.1 24.1 24.1 24.1 24.1 24.1 24.1 24.1 24.1 24.1 24.1 24.3 24.4 26.4 30 31.1 31.9 32.4 33.8 34.3 34.6 35.1 36.4 37.1 39.4 41.7 47.1 51.9 55.9 58.3 56.2 53.3 49.5 47.3 36.1 34 47.5 69.4 83.3 80.4 87.8 94.4 110 112.4 131.8 148.2 147.4 152.9 151.6 152.9 154.2 155.9 155.5 154.8 160 149.6 140 133.8 122.8 122.1 120.6 122.8 124.7 128.7 132.7 124.8 110.4 101.9 93.6 85 75.3 69.5 61.9 55.4 55.1 62.7 62.6 53.4 48.5 38.2 27 22.5 15.7 15.3 16.3 17 18.3 17.7 19.3 24.3 34.6 50.9 57.2 72.7 83.9 91.2 89.7 77.8 71.6 76 85.4 92.4 103.6 113.9 123.1 136.3 149.4 163.5 162 151.6 148.1 146.1 139 131.8 128 121.1 116.7 111.4 96.8 90.4 82 75.9 71.3 68.4 68.4 68.4 68.4 68.4
73.4 70.7 68.4 66.2 63.5 59.3 59.3 59.3 62 63 64.5 68 67.5 59 56.6 51.1 43.6 39.2 34.4 31.7 28.4 24 18.1 14 12 9.5 9 8.6 11.3 14.9 18.3 19.4 19.1 19 16.6 14.2 11.9 8.1 2.2 -1.9 0.1 1.3 0.8 -0.4 -1.9 4.1 13.7 18.6 25.2 33.6 34.4 32.3 29.8 30.9 27.9 27.8 29.2 33.1 36.2 40.2 42.6 41.2 39.8 37.8 36 32.5 29.8 28.3 25 24.2 24.1 24.1 24.1 24.1 24.1 24.1 24.1 24.1 24.1 24.1 24.1 24.1 24.1 24.1 24.1 24.1 26.5 28.8 31.5 31.9 32.9 34.3 35.4 35.7 36.8 37.3 39.7 41.7 43.9 49.2 54.3 61 62.8 61.1 57.7 51.5 42.4 40 46.8 65.2 79.6 88.8 91.2 102 112.2 119.8 134.6 147.6 146.2 147.5 147 149.1 148.3 158.5 159.5 161.5 163.3 150.3 145.7 138 124 126.3 134.5 130.5 132 129.7 132 132.6 113.3 107.7 101.5 86.4 72.1 71.8 63.6 60.8 59 61.5 62.8 58.2 50.3 42.9 35.4 31.1 20 15.3 15.4 16.4 17.5 18.3 19.9 23.8 35 42.9 61.7 80.2 92.1 85.5 83.1 68.7 69.8 83.2 101.1 105.7 104.1 109.4 112.8 122.5 136.5 153 151.4 142.5 145.1 146.8 125.3 121.3 115.6 105.2 100.7 90.8 80 69.3 68.4 68.4 68.4 68.4 68.4 68.4 68.4 68.4
73 69.6 66.5 63.5 59.3 59.3 59.3 59.3 59.3 59.3 61.5 61.3 68.7 62.1 58 51.4 47.2 41.2 35 31 27.2 24.6 20.4 14.7 11 9.1 8 7.3 8.6 12.5 15.7 18.6 19.3 18.8 17.9 15.1 11.9 11.8 5.2 -1.9 -1.9 -0.5 -0.2 -1 -1.9 6.7 13.5 20.1 26.2 31.6 35.4 35.2 33.4 31.8 30 30.7 33.4 35.6 40.2 44.6 44 42.7 41 40.9 39.8 37.7 33.3 30.1 26.5 24.1 24.1 24.1 24.1 24.1 24.1 24.1 24.1 24.1 24.1 24.1 24.1 24.1 24.1 24.1 24.1 24.1 24.1 25.6 27.4 29.4 31.8 32.8 34.7 36.5 37.1 37.7 40 41.9 43.8 46.7 51.1 57.6 62.7 59.8 56.8 51.9 46.3 48.7 51.9 64.8 73.7 85 96.6 106.1 110.2 128.1 136.7 142.2 143.2 138 147.2 148.5 147.9 162.4 167.5 162.4 172.6 156.2 144.3 137.6 134.9 135.4 137.2 135.6 132.4 131.7 130.8 131.1 133.2 122.9 109.9 93.8 74.5 77.1 74.7 70.1 62.5 63.6 67.6 63.6 57 53.1 48.7 40.9 34.1 20.2 18.5 17.1 17.5 18.8 20.3 23.7 34.3 39 57.6 73.1 82.1 85 74.5 66.5 66.5 76.7 99.4 102.9 104.5 109.1 107.4 104.5 112.9 125.1 133.9 138 132.4 114.3 102.7 97.1 93.5 87.4 72 68.4 68.4 68.4 68.4 68.4 71 69.4 68.4 68.4 68.4 68.4
74.3 68.9 64.9 60.6 59.3 59.3 59.3 59.3 59.3 59.3 59.3 59.3 61.1 58.4 55.9 54.5 51.3 45.6 38.5 31.8 28 24 20.8 16.3 10.6 8.8 7.2 6.4 7 9.6 13.4 16.5 18.9 18.8 17.6 15.6 12.7 11.3 9 3.3 -1.9 -1.9 -1.5 -1.9 -1.9 8.3 15.7 23.1 28 33.5 36.3 36.5 35.7 34.6 32.6 32.4 35 37.4 41.4 48.5 49.8 47.4 44.3 42.5 41.4 39.6 37.2 33.1 30.3 25.4 24.1 24.1 24.1 24.1 24.1 24.1 24.1 24.1 24.1 24.1 24.1 24.1 24.1 24.1 24.1 24.1 24.1 24.1 24.8 28.4 30.3 31.6 33.3 35.2 37.3 38.2 40.2 42.1 44.1 46.7 49.1 52.4 56.2 58.5 57.3 58.8 50.6 54.8 60.4 68.3 76.8 87.3 100.4 109.2 111.1 126.5 134.9 139.9 143.7 137.2 152.3 152.5 156.2 160.9 172.4 162.2 168.4 152.7 149.4 141.7 140.8 139.9 137.2 137.7 145.5 137.3 130.6 127.9 144.8 129.2 115.8 94.7 76.2 84.1 82.9 71 66.4 68.8 68.4 69.4 60.7 57.9 55 47.3 45.9 36.1 27.7 20.8 24.1 24.5 22.6 21.6 25.7 34.8 50.6 68.8 88.9 81.5 65.7 56.2 55.9 71.2 88.1 100.1 106.1 115.7 104.8 103 106.4 112.8 123.5 122.6 108.6 93.1 88.1 78.8 68.8 69.3 75.8 73.8 72 70.6 76.2 79.4 82.9 83.4 74.9 71.2 68.4 68.4
72.6 68.2 64.8 61.2 59.3 59.3 59.3 59.3 59.3 59.3 59.3 59.3 59.3 61.7 59.3 55.6 53.2 48.5 42.6 34.9 29.5 24 19.9 16.1 12.3 7.8 4.9 4.3 6 7.5 10.1 13.3 16.4 18 17 15.2 13.2 10.7 10.9 5.3 4.6 3.9 4.1 4.2 5.2 10.1 16.6 24.7 31.5 31.6 35.6 36.9 36.5 35.6 33.9 33.4 35.6 36.6 39.5 47 50 47.3 46 43.9 41.8 38.8 36 32 29.3 28.7 27 24.1 24.1 24.1 24.1 24.1 24.1 24.1 24.1 24.1 24.1 24.1 24.1 24.1 24.1 24.1 24.1 24.1 24.1 24.1 26.9 30.4 31.9 33.2 35.4 37.8 40.1 42 44.1 46.7 49 51.2 53.5 55.9 58.4 61 57.4 56.6 72.5 80 82.1 92.1 107.8 121.7 122.4 128.2 133.8 135.8 133 139.4 151.1 152.4 154.3 160.2 161.9 156.7 156.6 155.5 153.4 145.7 140.9 140.2 136.2 132.3 137.3 131.4 127.4 122.8 128 121 110.1 94.5 78.8 84.1 84.5 85.8 72.3 73.6 75.3 74.2 66.3 66.8 63.8 52.3 46.9 43.1 36.7 29.6 28.1 32.4 31.9 27.6 30.9 39 52.7 72 83.9 73.8 57.7 53.6 56 79 90.6 102.8 114.8 120.7 115 100.6 102.4 98.5 97.3 90.5 82.9 75.3 68.3 78.1 84.1 85.8 90.1 90.5 82.5 79.4 83.9 95 94 93.8 86.7 75 68.4 68.4
74 72.9 68.5 64.9 59.3 59.3 59.3 59.3 59.3 59.3 59.3 59.3 59.3 59.7 62.6 57.7 52.9 49.6 44.6 39.3 32.9 25.2 20.2 15.7 11.5 7.8 4.3 4.3 4.3 4.9 7.6 10.1 13.5 15.6 14.4 13.2 12 11 10.1 5.8 5.1 8.3 8.1 7.8 5.5 10.2 18.1 24.9 30.4 31 32.2 35.1 35 34.7 34.2 34.4 35.7 36.6 40.7 46.5 49.1 50.9 51.3 46.6 44.8 41.2 36.3 32.9 30.7 30.5 30.1 28.9 24.1 24.1 24.1 24.1 24.1 24.1 24.1 24.1 24.1 24.1 24.1 24.1 24.1 24.1 24.1 24.1 24.1 24.1 24.1 25.3 29.5 31.4 33.5 35.2 37.9 41 43.7 46.6 48.8 51 53.1 55.4 57.8 58.9 58.5 60.4 69.5 86.5 89.2 92.9 109.9 124 126.6 128.5 131 136.1 134.9 144.2 154.6 152.3 152.9 153 155.5 155.7 156.3 154.9 151.4 150.8 145.8 136.4 135 131.3 129.5 128.9 128.2 121.7 125.2 120.4 112.8 99.2 87.2 88.1 87.2 86.4 82.1 73.9 74.4 73.6 65.5 64.8 65.9 62.2 51.6 50.4 50.5 44 32.9 36.8 38.6 33.2 29.3 36.7 48.5 59.7 62.5 63.6 54.5 54.8 65.8 81.1 84.9 97.9 106.2 102 96.9 93.9 87.8 83.2 79 68.6 66.1 73.6 83.6 96 100.4 100.2 106 98.9 91 94.9 96.5 109.9 105.5 97.9 92.6 82.6 72.2 68.4
75.8 78.9 80.4 71.8 67.6 61.4 59.3 59.3 59.3 59.3 61.9 61.2 59.3 61.9 63.5 61.4 53.8 49.4 45.2 40.9 35.2 29.2 23.3 16.8 12.7 7.9 4.3 4.3 4.3 4.3 4.5 8.1 10.2 12.4 11.9 10.8 11.2 11.3 7.7 4.3 4.8 10 11.9 10.9 9.6 10.6 17.2 24.1 29.4 30.6 31.7 33.4 33.6 34.5 34.6 35.1 36 38.2 44 50.2 52.9 56.4 56.8 55.3 51.9 44.8 40.1 36.8 34.4 33.3 33.9 33.6 29.6 31 25.8 24.1 24.1 24.1 24.1 24.1 24.1 24.1 24.1 24.1 24.1 24.1 24.1 24.1 24.1 24.1 24.1 24.1 24.4 27.7 30.5 32.5 35 38.5 41.9 45.3 48.6 50.8 52.9 55.2 57.9 60.2 60.7 62.7 68.6 75.2 82.4 98.4 111.3 118.9 126.9 130.6 133.4 136.5 139.3 145.4 144.9 146.6 151.7 153.7 158.4 154.6 153.4 157 159.1 155.7 148.8 136.3 133.5 135.6 129.4 129.8 120.7 116.2 121.6 116.9 107.4 92.5 90.3 89.8 89.3 85.8 82.3 76.6 72.5 71.4 65.2 64.3 65.6 63.5 65.9 61.7 50.7 47.2 41.7 38.1 44.5 41.8 28.7 40.5 50.3 52.8 53.5 52.3 56.9 66.1 68.9 74.4 73.3 80.4 80.1 81.3 77.9 79 73.1 68.6 66.8 78.3 81.6 87.4 97.6 109.9 126.2 125 120.8 111.5 102.3 102.2 102 105.2 105.5 106.4 97.6 89 84.9 78.8
77.9 78 80.6 76.1 75.9 69.1 59.9 59.3 59.3 61.3 65.4 66.6 63.7 64.1 65.2 65.5 61.6 51.7 46.1 42.5 37.3 33 25.8 19.5 14.6 9.1 4.3 4.3 4.3 4.3 4.3 5 7.3 8.9 9.2 8.8 9.2 7.4 4.3 4.3 5.7 10.8 14.6 17.1 14.4 14.1 18.5 24 28.5 30.5 32.3 33.7 33.2 33.2 33.5 35.8 36.7 38.7 45.5 50.8 55.6 58.2 59.9 59 56.5 54 46.7 45.2 42.6 41.6 37.9 37.5 34.7 35.9 33.8 31.9 24.1 24.1 24.1 24.1 24.1 24.1 24.1 24.1 24.1 24.1 24.1 24.1 24.1 24.1 24.1 24.1 24.1 24.1 25.3 29.7 32.8 36.2 39.1 43.4 47.4 50.6 53.1 55.7 58.4 60.7 63.3 66.8 71.4 79.7 86.9 95.8 108.1 119.4 128.3 131 130.8 133.2 135.7 140.7 140.9 148.4 149.9 154.8 155.4 158.4 156.3 165.3 167.9 162.1 157.3 138.2 134.1 130 128.8 129.1 119.7 113.9 117.1 109.3 96.4 89.2 92.9 91.1 89.2 84.7 81.8 75.7 70.9 67.5 64.9 65.7 64.4 65.2 67.2 64.6 60.5 57.3 41.4 37.9 30.6 32.1 26.3 34.3 50.5 48.7 52.6 56.2 58.2 60.7 60.6 63.2 62.6 61.4 64.2 61.5 58.9 61.9 66.9 78.9 84.5 98.4 94.3 101.1 108.3 112.4 126.1 128.8 129.4 120.6 108.7 108.8 110.9 106.6 119.1 115.1 101.4 96.8 88.9 80.3
79.5 79.9 79.1 78.2 78.5 79.4 65.6 59.3 59.3 59.3 66.4 70.2 70.6 67.5 65.9 66.5 68.2 57.5 47 43.1 39.2 33.6 27.7 22.6 15.5 9.8 4.7 4.3 4.3 4.3 4.3 4.3 4.3 5.9 6.8 7.8 7.2 4.3 4.3 4.3 4.4 10.3 16.9 21.5 21.9 18.8 20.7 24 30.2 31.5 32.9 34 34.6 34.6 34.6 35.6 37.3 43.1 47.3 51.4 56.4 60.1 60.3 58.9 56.7 54.2 50.7 48.8 45.9 44.7 41.6 41.7 39.3 40.1 37.4 33.5 24.3 24.1 24.1 24.1 24.1 24.1 24.1 24.1 24.1 24.1 24.1 24.1 24.1 24.1 24.1 24.1 24.1 24.1 24.1 25.1 29 33.5 36 40.5 44.7 49.5 53.2 56.2 58.8 61.4 63.9 67.7 72.7 81.9 94.9 106 112.7 120.6 127.3 128.3 128.9 130 132.6 137.3 141.9 151 154 155 157.1 163 169.3 175.3 171.4 167 160 147.8 139.5 137.1 127.5 119.5 111.6 110.3 109.3 104.3 91 92.6 93.3 91.6 86.5 88.7 86.5 78.2 71.6 68.4 67.6 70.8 70.4 68.5 67.6 65.2 63.7 56.8 48.2 39.4 29.7 29.6 27.2 32.1 41.4 42 56.5 69.5 67.2 63.1 57.2 62.3 64.7 55.6 54.7 59.8 73.9 84.3 96 104.6 103 111.6 109.9 117.6 112.5 113.6 123.3 129 129.8 123.1 112.3 112.5 115.7 117.2 120.5 111.2 105.1 98.8 92.9 86.6
81.5 86.7 86 82.1 78.9 74.9 67.5 60.2 59.3 60.7 65.8 74.3 77.1 77 70.9 67.8 67.4 65 54.2 43.3 41 36 29.8 23.6 17 11.4 6.8 4.3 4.3 4.3 4.3 4.3 4.3 4.3 4.3 5.3 4.3 4.3 4.3 4.3 4.3 8.8 16.3 23.2 24.8 24.1 25 28.1 32.4 33.8 34.7 34.4 35.1 35.3 35.6 36.3 38.6 46.1 48.2 53.2 57.6 59.2 58 57.7 56.2 53.8 49.8 49 47.1 45.2 44.9 44.3 43.1 40.1 34.2 29.3 26.2 24.1 24.1 24.1 24.1 24.1 24.1 24.1 24.1 24.1 24.1 24.1 24.1 24.1 24.1 24.1 24.1 24.1 24.1 24.1 24.1 28.1 32.8 36.9 41.2 46.4 51.6 55.4 58.9 61.4 65.4 70 73.9 79.3 91.8 109.3 118.8 123 127 128.3 127.9 128.2 129 138.5 143.2 149.8 152.3 155 158.5 161.2 172.1 179.7 176.5 169.6 160.9 152.5 146.9 138.4 122.5 114.2 109.9 106.2 103 95.3 90.5 91.1 97.6 95.1 88.5 92.6 95 87 78.7 69.7 71.1 80.2 85.9 86 84.5 79.8 73.4 60.2 47.7 43.4 36.2 30.9 28.7 34.3 37.4 38.3 50.6 58.9 59.4 61.1 53.3 49.1 51.9 53.7 61.6 60.4 80.4 92.9 102.4 111.9 110.4 113.1 111.4 114.1 112.3 120.8 124.6 129.5 128.6 130.6 118.5 115.5 121.8 122.4 120.3 112.3 103.5 98.4 96.6 91.3
87 91.1 93.7 93.5 90.7 77.4 70 68.5 65.6 63.9 72 80.6 88.5 85.1 81 75.9 69.2 67.3 58.1 43.6 41.2 37.7 33.3 27.4 19.3 12.1 7.3 4.3 4.3 4.3 4.3 4.3 4.3 4.3 4.3 4.3 4.3 4.3 4.3 4.3 4.3 8.6 14.4 21.1 26.1 26.1 28.2 31.6 34.2 35.4 36.5 36.8 36.7 36.5 37.3 37.8 40 44.4 46.9 52.2 57.2 57.5 56 54.1 50.8 47.2 47 47.4 46.8 46.4 45.9 48.1 45.5 41.5 37 31.3 24.9 24.1 24.1 24.1 24.1 24.1 24.1 24.1 24.1 24.1 24.1 24.1 24.1 24.1 24.1 24.1 24.1 24.1 24.1 24.1 24.1 24.1 26.9 32.5 37.9 43 48 53.5 58.4 63.5 67.7 72 76 82.8 89.2 104.7 117 123.2 127.2 129.1 131.2 129.7 128.8 131 139.6 142.4 147.4 157.8 158.9 159.1 163.8 166.4 166.4 168.7 167.6 159.3 153.5 143.5 123.6 117.5 114.7 106.4 99 92.9 91.2 90.8 95.8 100 97.1 98 98.3 98.5 81.3 74.6 71.2 80.8 90.5 93.1 95.8 89.1 84.3 73.7 58.2 46 38.9 30.3 30.4 33.2 34.7 37.2 45.4 54.4 52.6 48.6 49.6 54.7 63.8 69 84 76.6 78 91.9 93.9 94.7 108.5 115.6 110.2 108.3 108.4 121.7 130.7 130.2 130 131.1 123.1 126.5 136.7 125.6 122.7 106.6 104.6 101.6 99.4 95.2
93.6 98.1 101.8 101.5 92.4 83.3 76.9 77 79.1 74 76.6 83.7 93.8 99.6 94.6 85.3 75.5 67.7 64.1 56.9 41.1 38.1 35.3 31.2 26 16.8 8.3 4.3 4.3 4.3 4.3 4.3 4.3 4.3 4.3 4.3 4.3 4.3 4.3 4.3 4.3 7.7 13.4 20.4 24.4 27.5 30.2 35 37.4 37.7 39.5 41 40.9 40.4 40.3 39.9 39.9 40.7 45.2 50.1 52.1 55.5 53.6 50.4 47.4 46 45.7 45.8 47.2 47.8 48.1 51.5 48.4 44.4 39.3 33 24.3 24.1 24.1 24.1 24.1 24.1 24.1 24.1 24.1 24.1 24.1 24.1 24.1 24.1 24.1 24.1 24.1 24.1 24.1 24.1 24.1 24.1 24.1 26.7 32.6 38.5 43.9 50 56.2 62.6 69.2 75 80.2 87.9 96.7 106.1 116.6 127.2 135.5 138.2 140 140.3 134.5 131.6 137 140.6 144.5 150.4 154.1 157.4 157.5 158.9 162.6 170.2 171.7 165.1 156 146.1 138.5 130 121.2 112.6 104.7 98 91.1 90.8 92.4 98.6 99.9 98.6 97.8 96.5 90.4 77.1 73.7 78.6 92.6 94.1 94.2 96.5 95.9 87.6 71.2 57.2 45.5 36.8 31.5 32.3 34.4 35.8 38.6 54.1 61.9 57.9 61.1 70.8 69.3 79.3 96.7 82.6 77.1 86.3 94.7 98 98.5 114 106 106.4 107.6 109.3 126.7 132.8 131.4 130.9 126.9 127.1 132.1 126.3 120.2 108.9 107.9 107.3 105.1 106.1
99.1 105.8 114.7 107.3 93.1 87.2 82.6 82.6 85.3 84.6 81.9 85 95.9 105.9 110 102.1 85.3 79.6 71.9 64.7 50.7 38.4 35.3 33.4 29.4 22.6 12.2 5.3 4.3 4.3 4.3 4.3 4.3 4.3 4.3 4.3 4.3 4.3 4.3 4.3 4.3 8.2 12.9 19.3 24.9 26.8 30.9 36.5 41.1 42.7 41.6 42.7 43 42.5 42.3 42.6 42.3 41.1 45.4 50.4 52.5 52.5 50.8 48.5 46.6 45 44.8 45.3 47 47.4 50.7 51.4 48.8 43.4 37.3 28.3 24.1 24.1 24.1 24.1 24.1 24.1 24.1 24.1 24.1 24.1 24.1 24.1 24.1 24.1 24.1 24.1 24.1 24.1 24.1 24.1 24.1 24.1 24.1 24.1 25.1 32.3 38.2 45.2 52.6 60.5 68.2 77 83.6 92.6 102.8 113.6 123.3 131.9 142 153.8 155.9 145.3 140 137.9 138 140.5 143.8 149.6 151.5 153.5 155 158.2 163.5 169.6 170.8 165.8 158.3 154.1 149.2 141.8 132.3 121.5 107.6 101.6 92.5 91.6 91.7 93.9 98.6 97.9 100.7 100.9 90.6 83 80.5 87.9 99.7 97.4 96.7 96.7 93.1 86.6 80.6 73.8 59.9 49.8 39 34.8 34.7 36.9 47.1 63.4 61.7 59.9 64.1 64.1 70 82.1 91.1 86.5 78 81.5 98.5 91.8 88.3 97.9 94.9 105.7 113.1 104.7 110.7 122.9 132.3 134.5 131.3 130.4 132.1 126.1 114.2 109.7 109.8 113.9 116.1 127.6
109.4 121 127.1 122.9 108.1 96.2 89.7 88.9 90 91.9 94.4 90.9 97.2 111 120.9 112.7 98.6 89 83.9 71.9 61.2 41.1 34.2 33.3 32.5 27 18.8 9 4.3 4.3 4.3 4.3 4.3 4.3 4.3 4.3 4.3 4.3 4.3 4.3 4.3 6.2 12.3 19.5 25.8 30.6 32.8 36.8 41.5 45.2 46.2 45.9 45.4 46.1 44.6 45.1 45 46.5 50.3 51.7 53.3 52.8 51.1 49.2 45.4 44.2 44 44.5 44.6 43.4 49.2 50.3 46.9 42.1 35.9 25.3 24.1 24.1 24.1 24.1 24.1 24.1 24.1 24.1 24.1 24.1 24.1 24.1 24.1 24.1 24.1 24.1 24.1 24.1 24.1 24.1 24.1 24.1 24.1 24.1 24.1 24.1 31.9 38.2 47.4 55.8 65.8 75.9 86.6 97.2 108.4 120.1 129.8 137.9 143.8 150.1 156 160.4 151.2 140.7 140.1 140.4 142.1 144.3 149.6 154.4 154.2 156.1 164.2 164.5 164.1 164 161.1 157.4 153.1 147.7 142.9 127.3 116 104.8 98.7 93.8 96 94.3 97.3 97.9 97.7 100 99.6 84.2 88.1 96.4 99 99.8 101.3 100.6 99.1 90.8 88.9 82.1 70.1 59.8 54.1 47.1 41.5 48.1 54.1 59.7 65.5 63.2 60.3 61.7 74.1 81 86.2 86.5 82.8 79.3 92.9 86.9 84.2 86.3 90.9 96.5 100.6 101.3 110.4 121.1 125.8 127.6 127.8 128.9 135.9 126.3 115.5 111.3 117.3 124.8 137.2 135.8
122.9 141.3 151.2 156.5 129.5 111.3 99.1 97.1 98.9 101.4 102.6 96.4 99.6 113.7 122.5 116 104.1 96.4 93.8 84.6 66.4 48.1 34.8 31.5 30.5 30.3 24.8 15.1 6.6 4.3 4.3 4.3 4.3 4.3 4.3 4.3 4.3 4.3 4.3 4.3 4.3 6.1 12.4 18.8 24.7 31.3 35.6 37.8 41.3 47.1 48.5 50.7 50.2 48.6 47.3 46.4 46.4 49.4 54.3 57.3 57 54.5 54.9 50.7 45.8 45.1 44.7 44.9 44.7 42.8 43.1 46.1 42.5 38.8 34.2 26.6 24.1 24.1 24.1 24.1 24.1 24.1 24.1 24.1 24.1 24.1 24.1 24.1 24.1 24.1 24.1 24.1 24.1 24.1 24.1 24.1 24.1 24.1 24.1 24.1 24.1 24.1 24.1 31.3 39.1 49.8 60.2 73.3 86.1 98.3 110.6 123.4 133.9 140.5 146.1 150.3 153.3 154.1 153.3 150.6 146.2 142.8 142.2 143.9 146 150.5 153 156 159 160.2 160.1 163.8 163.3 162.5 155.5 152.4 144.3 133.7 120.9 111.3 106.3 96.7 99.1 97.3 100.4 100.5 98.3 97.4 96.6 89.2 100 105 104 102.3 99.7 97.3 94.1 91.7 90.4 87.2 75 72 66.1 55.5 55.8 61.6 69.5 78.7 97.9 98.8 81.9 71.9 66.6 72.2 83.1 86.2 88.1 88.7 89.9 88.8 82.5 83.6 84.6 89.4 100.2 99.6 109.2 101.1 120 120.5 125 126.1 134.7 120.9 112.5 111.9 127.4 142.7 141.1 141.5
126.8 147.5 161.8 165 139.4 118.5 105.2 101.9 107.8 108.1 99.4 96.2 98 114.7 124.6 114.1 108.1 101.9 98.1 89.9 76.3 57.2 39.8 30.4 28.1 28.6 28.6 20.6 11 4.3 4.3 4.3 4.3 4.3 4.3 4.3 4.3 4.3 4.3 4.3 4.3 5 12.1 19.4 22.8 29.6 34.6 38.2 41.6 47.2 51.5 54.9 56 54.1 51.6 47.9 48.8 53.8 59.7 62 61.6 59.4 55.6 51.4 47.1 45.7 47.2 45.8 46.3 42.6 41.1 41.4 40.5 37.1 32.3 30.4 24.9 24.1 24.1 24.1 24.1 24.1 24.1 24.1 24.1 24.1 24.1 24.1 24.1 24.1 24.1 24.1 24.1 24.1 24.1 24.1 24.1 24.1 24.1 24.1 24.1 24.1 24.1 24.8 29.6 41.1 53.2 67.2 82.2 95.3 109.9 123.4 135 142.9 146.7 150.3 154 154.2 150.2 148.2 146.4 146 145.1 144.3 145.7 148 151.2 155.8 157.3 156.9 153.9 156.3 160.5 158.8 157.8 154 148.3 140.2 128.2 116 105.1 99 103.1 101 102.4 104 107.6 107.4 101.1 98.3 100.1 102.3 102.4 101.6 100 98.1 95.5 94.1 91.7 88.7 81.9 75.7 71.9 75.6 78.1 72.9 73.9 80.4 95.4 95.6 92.9 79.6 80.9 92.5 91.8 86.7 84.7 82.1 82 81.8 81.5 82.2 82.8 82.6 86.1 94.1 99 94.3 108 114.3 117.6 123.9 117.3 101.4 104 116.6 142.3 142.9 142.7 149.5
130.2 140.5 159.6 163.8 137 119.2 107 104.3 110.9 101.1 94.9 94.9 94.9 111.3 119.5 116 110.8 106.8 103.2 97.8 83 66.5 44.2 33.9 26.4 25.3 25.7 22.1 14.5 8.4 4.3 4.3 4.3 4.3 4.3 4.3 4.3 4.3 4.3 4.3 4.3 4.3 10.4 18.9 22.4 27.1 32.3 37.2 42.8 47.6 54.7 58.5 60.2 59.7 56.7 54.1 54.6 58 62.1 64.3 65.1 60.7 56.5 52.6 49.2 48 49.3 48.3 47.7 43.2 41.1 40.1 39.8 37.3 31.7 30.1 29.3 24.1 24.1 24.1 24.1 24.1 24.1 24.1 24.1 24.1 24.1 24.1 24.1 24.1 24.1 24.1 24.1 24.1 24.1 24.1 24.1 24.1 24.1 24.1 24.1 24.1 24.1 23.7 25.2 29.3 38.2 54.1 72.7 88.3 105.4 119.8 133.6 143.7 148.5 151.3 153.3 152 149 147.4 146.1 145.4 144.6 144.6 145.4 146 148.7 153.7 156.6 155.8 148.5 148.2 149.5 151.7 153.6 151.1 147.5 138 132.7 129 117.1 111.2 110.9 105.3 104.8 103.7 105.1 104.6 106.9 104.9 104.9 105 104.9 104 102.6 100.9 99.5 98.7 95.4 94.7 94.5 85.3 88 92.4 89.2 85 79 79.9 84.4 91.2 89.4 83.2 86.4 94.9 92.7 89.3 85.9 83.1 82 86 86.9 83.7 82.9 83.3 83.1 84.4 90.1 89.4 98.3 97.7 96.7 95.3 93.3 94.1 107.1 124 142.1 143.6 148.5 173.5
135.1 139.7 153.6 156.3 129.7 117.4 106.4 106.9 103.9 94.9 94.9 94.9 97.2 109.1 114.5 114.5 111.6 109 106.8 105.5 96.6 80 58 36 25.8 20.9 20.1 20.2 15.9 9.9 5.9 4.3 4.3 4.3 4.3 4.3 4.3 4.3 4.3 4.3 4.3 4.3 8.7 15.5 19.7 24.5 30.3 36.1 42.3 48.6 55.6 61.4 63.1 63.8 63 61.4 59 62.4 66.6 65.4 66.2 62.3 58.1 51.1 49.8 50.1 49.8 49.5 49.2 46.7 42.7 38.4 36.9 36.9 30.5 27.9 26.1 24.1 24.1 24.1 24.1 24.1 24.1 24.1 24.1 24.1 24.1 24.1 24.1 24.1 24.1 24.1 24.1 24.1 24.1 24.1 24.1 24.1 24.1 24.1 24.1 24.1 24.1 24.1 24.2 25.5 31.2 44.2 57.5 78.1 97.5 116.8 128.2 140.7 147.4 149.5 150 150.3 148.5 146.9 145.8 144.8 143.9 144.2 145 145.7 146.5 148 151.4 150.7 147.8 147.8 149 150.8 150.6 148 143.1 138.3 135 127.2 122.2 123.7 124 121.9 121.6 115.8 107.3 106.3 107.4 109.2 109.6 110.5 111.2 111.2 111 108.6 106.7 106.3 108 104.9 101.4 102 103 100.1 98.9 95.5 89 85.6 84.5 86.1 91.9 87.6 88.9 91.7 91.6 89.2 88.5 89.8 90.7 93.2 94.1 92.9 89.4 88.7 88.4 87.3 85.4 88 88.1 90.3 91.9 96.6 100.8 106.1 130 139.2 142.3 151 161.8 184.8
131.8 134.4 145.8 150.1 126 112 103.3 100.6 97.7 94.9 94.9 94.9 102.9 108.8 112.4 112.6 112.1 110.9 110.2 109 100.4 88.7 73.7 46.7 33.4 19.7 15.9 15.1 14.2 12.2 8.1 4.3 4.3 4.3 4.3 4.3 4.3 4.3 4.3 4.3 4.3 4.3 6.9 12.5 18.9 23.1 28.4 36.1 42.8 49.3 57.1 62.3 65.9 67.1 66.4 66.1 66.3 67.7 71.7 70.9 69.4 67 63.9 56.4 50.9 49.7 50.2 50.6 50.2 49.7 43.9 36.6 34.5 37.5 32.5 24.6 24.1 24.1 24.1 24.1 24.1 24.1 24.1 24.1 24.1 24.1 24.1 24.1 24.1 24.1 24.1 24.1 24.1 24.1 24.1 24.1 24.1 24.1 24.1 24.1 24.1 24.1 24.1 24.1 24.7 25.2 29.5 38.9 51.3 72.8 87.2 112.5 135.4 138.2 140.7 144.5 146.2 147.3 147.7 146.2 144.9 144.3 143.2 143.8 144 144.2 145.6 147.4 149 148.1 147.8 147.8 148.4 150.1 151.2 150.9 149.3 144.3 140.6 137.7 135.5 131.5 131.5 132.5 132.2 129.2 126.6 120.8 115 113.1 112.9 113.4 114.9 115.2 114.5 113.5 114.9 114.4 112.3 110.1 109.4 108.6 106.5 103.5 100.7 98.5 97.7 92.9 90.8 88.7 89.7 94.1 99.1 100.2 96.5 93.7 92 91.7 91.1 91.2 92.4 92.4 91.3 89.3 90.5 90.5 90.2 89.7 92.3 96.5 100.6 107.1 115.1 125 131.1 133.9 145.9 153 173.3 205.6
124.4 131.8 146.3 137.5 122.5 108.2 101.9 101 101 94.9 94.9 94.9 106.5 113.5 113.7 114 114.7 114.7 113.3 112.6 103.1 94.3 81.8 55 39.3 25.9 14.9 11.9 10.5 9.4 8.2 4.6 4.3 4.3 4.3 4.3 4.3 4.3 4.3 4.3 4.3 4.3 4.8 10.2 17.7 22.9 29.4 36.2 42.3 49.5 56.5 62.1 66.6 69.2 69.7 69.5 70.1 72.1 74.8 76.8 72.9 71.8 69.8 63.9 53.4 51.9 53.9 52.7 54.1 51.5 45 36.2 34 32.3 26.1 24.1 24.1 24.1 24.1 24.1 24.1 24.1 24.1 24.1 24.1 24.1 24.1 24.1 24.1 24.1 24.1 24.1 24.1 24.1 24.1 24.1 24.1 24.1 24.1 24.1 24.1 24.1 24.1 23.1 24.4 25.7 27.5 33.5 44.5 62.5 81.2 101 124.6 127.8 130 136.4 139.8 141.9 143.5 143.8 142 141.4 142.1 142.3 142.1 143.5 144.8 146.3 147.7 149.5 149.2 148.2 147.6 148.7 149.3 149.7 148 143.4 141.8 138.5 138.6 136.7 134.7 133.3 134.8 133.5 129.7 127.1 126.4 123.7 122.8 120.6 120.2 118.8 119.4 121.6 119.6 120.7 120.1 120.5 119.3 118.4 116.6 113.5 111.7 108.9 105.4 104.4 100.7 96.7 94.4 95.8 99.6 101.9 102.2 102.4 99.2 97.1 96.9 94.3 93.2 93.6 93.3 93.3 94.9 93.2 93.6 101 107.9 113.2 115.8 119.1 119.6 122 123.4 130.5 142.7 158.6 172.7 194.5
120.6 132 142 127.8 117.2 105.1 100.8 100.6 97.1 94.9 94.9 94.9 106.6 113.3 113.5 114 112.8 115.1 115.7 113.5 105.7 96.7 86.6 62.1 46.7 31.7 19 11.3 9 7.4 6.6 7.6 5.3 4.4 4.3 4.3 4.3 4.3 4.3 4.3 4.3 4.3 4.3 8.8 15.3 24.6 30.5 36.5 43.4 50 56.2 62.2 66.5 69.6 71.8 72.3 73.1 74.7 75.1 76.9 75.8 74.3 74.4 74.1 67.2 54.6 55 56.6 56.1 55.3 50.5 40.5 34.6 31.8 24.1 24.1 24.1 24.1 24.1 24.1 24.1 24.1 24.1 24.1 24.1 24.1 24.1 24.1 24.1 24.1 24.1 24.1 24.1 24.1 24.1 24.1 24.1 24.1 24.1 24.1 24.1 24.2 24.1 26.3 26 25.1 26.9 31.3 40.3 51.4 67.3 85.4 99.1 114.4 115.8 125.7 136.9 139.3 136.1 134.6 135.9 137.8 137.2 138.1 139.9 141.2 142.4 143.2 145.4 147.5 149.1 150.7 146.1 144.1 144.8 145.6 142.2 139.9 138 135.6 134.3 134.7 134.1 133.1 132.2 130.7 129.6 128.6 128.9 129.6 129.2 130.2 130 128.6 124.9 125.3 124.4 125 124.7 126.1 126.7 125.5 124.3 124.7 124.2 124.3 121.8 118.8 112.4 104 101.2 101.5 101.9 102.3 103 105.3 102.7 102.9 101.8 101.6 100.4 100.2 102.2 104.1 105 104.7 108.8 109.3 111 115 116.5 117.6 118.3 122.5 129.5 133.8 139.2 145 153.3 169.5
118.4 130.3 132.3 119.2 109.1 101.6 98 96.1 94.9 94.9 94.9 97.4 104.8 110 113.6 113.7 110.8 110.9 113.5 116.3 113.3 100.5 88.6 70 52.5 38.5 25.3 12.5 8 5.5 5 5 7.4 7 4.9 4.3 4.3 4.3 4.3 4.3 4.3 4.3 4.3 8.6 14.5 23.7 30.8 36.9 44.1 50.2 56.2 61.4 66.1 69 71.7 74.4 75.9 76.3 76.8 77.6 77.8 76.2 75.7 73.6 70.4 59.9 59.5 62 62.7 59.1 53.1 46.6 41 37.2 30.4 24.1 24.1 24.1 24.1 24.1 24.1 24.1 24.1 24.7 24.1 24.1 24.1 24.1 24.1 24.1 24.1 24.1 24.1 24.1 24.1 24.1 24.1 24.1 24.1 24.1 24.1 24.2 25.1 29.4 32.8 36.2 26.8 28.7 35.1 43.4 58 72.4 90.3 100.3 102 106.6 122.2 134.3 128.1 127.9 129.1 130.2 130.8 131.2 133.2 134.6 136.5 137.6 139.5 140.7 141.7 142.8 140.2 138.6 138.1 136.6 136.9 135.8 133.9 133 132.6 132.7 132.8 131.9 131.5 130.9 131.1 130.2 131.6 132.9 133 133.6 134.4 134.6 137.4 134 138.1 138.4 134.1 135.6 133.5 133.1 130.9 130 128.9 125.8 121.9 118.7 114.4 111 112.3 110.6 109.6 107.5 107.9 107.1 108.1 108 109.7 107.9 108.4 110.5 111.9 112.9 114.1 114.8 115.9 114.7 114.4 118.1 123.4 127.4 135.9 138.6 141 142.8 143 146 151 171.4
123.6 135.9 129.1 114.6 105.5 98 96.8 95.1 94.9 94.9 96.9 100.9 104.4 106.3 111.6 120.5 107.2 106.8 106.3 111.9 112.8 106.5 92.7 75.3 60.1 43 28.2 16.5 7.3 5 5 5 5.2 8.3 7.2 5.7 4.3 4.3 4.3 4.3 4.3 4.3 4.3 8.3 12.3 19.6 29.8 38.4 45.2 51.1 56.2 60.9 65.2 68.6 71.7 74.9 77.2 78.1 79 79.8 80 78.6 78 76.2 72.6 68.5 67.8 68.8 66.6 64.6 57.4 51.9 49.7 47.9 42.1 34.8 31.6 25 24.1 24.1 24.1 25.8 27.5 26.1 24.7 24.1 24.1 24.1 24.1 24.1 24.1 24.1 24.1 24.1 24.1 24.1 24.1 24.1 24.1 24.1 24.1 24.1 28.2 31.5 32 35.4 30 27.7 30.1 38.2 49.3 65.7 77.1 90.6 97.9 94.6 111.1 117.4 121.2 121.6 124.4 125.8 126.9 125.4 125.5 125.9 128.1 130.8 132.1 133 134.1 133.3 131.8 131.4 130.5 130.7 131.3 131 131.1 131.1 131.2 131.3 131.4 130.9 130.9 131.1 131.3 132.2 132.7 133.5 134.7 135.4 136.2 138.1 138.6 138.7 140.5 140.5 140.2 140.3 137 137.5 137.2 133.1 131.8 130.3 128.6 125.5 122.9 122.3 123.8 126.8 127.1 126.4 128.8 138.3 140.6 130.5 124.2 127 130.5 131.1 128.2 127.1 124.8 124.8 123.7 123.5 123.7 124.3 125.5 129.8 135.2 137.4 138.9 141.2 142.6 145.4 149.8 172.2
132 134.3 122.5 111.6 102.5 98.2 98 96.4 97.2 101.6 99 101.9 102.8 102.8 107.4 110.8 104.3 101.7 100.2 103.8 109.8 103.7 91.7 79.6 61.8 48 34.2 19.3 8.6 5 5 5 5 7.7 8.8 8.3 6.8 6 4.7 4.3 4.3 4.7 6.5 8.8 10.9 19.5 27.3 37.2 46 51.9 56.5 60.8 64.6 68.2 71.6 74.8 77.5 80.1 81.4 82 82.6 81.3 80.6 78.6 77.2 76.7 75.3 74.5 74.4 69.8 63.7 56.1 55.4 56.1 55.5 49.3 43.2 38 33.6 24.1 24.1 26.1 31.3 31.1 26 25.5 24.3 24.1 24.1 24.1 24.1 24.1 24.1 24.1 24.1 24.1 24.1 24.1 24.1 24.1 24.1 31 39.7 36.9 38.8 38.1 36.7 35.3 28.4 31.4 39.4 51.8 62.9 74.7 82.6 85.2 93.4 105.2 111.6 112.6 113.6 122.2 119.9 121.6 121.3 121.7 122.7 123.2 123.6 125.4 126.3 126.5 126.5 125.8 124.9 125.2 125.3 125.8 126.4 127 128 128.2 128.5 128.8 129.9 130.5 130.7 131.8 133 134 135.6 136.9 139.3 140.2 139.9 141 141.5 141.7 143.7 144.2 146.3 144.8 141.5 137.7 136.7 136.1 135 133 131.1 128.8 126.7 126.8 127.4 129 130.5 133.8 135.3 136.7 135.9 131.6 133 131.1 129.7 127.3 125.5 124.5 124.3 124.7 125.5 125 124.7 130.2 133.9 135.9 138.2 139.8 142.9 144.6 160.5 185.5
129.3 130.6 117.5 107.5 100.2 98.9 101.5 98.3 95.9 103.7 99.4 98.9 98.3 98.7 101.1 105 102.6 99.5 97.8 97.3 99.5 96.3 86.9 76.9 65.1 54 36.9 21.7 10.6 5 5 5 5 5 8.5 10.3 9.7 7.9 5.1 4.3 4.3 7.1 8 10.5 12.6 17.7 27 36.9 44.8 50.9 56.5 60 63.6 67.1 71 74.3 77.4 80 82.6 83.9 84.5 85.5 87.3 83.5 81.4 82.7 83 84.2 82.5 77.1 70.1 64.1 59.5 58.7 59.1 60.1 54.1 43.8 40.6 34.9 26.9 24.1 29.5 31.5 26.6 25.9 24.1 24.1 24.1 24.1 24.1 24.1 24.1 24.1 24.1 24.1 24.1 24.1 24.1 24.1 24.1 26.8 39.3 45.6 36.2 35.9 41.2 47.8 47.8 30.1 31 40 50.1 58.7 69.8 79.6 83.9 87.5 101.9 95.9 105.8 111.6 115.6 116 117.9 120.1 121.6 120.7 120.8 119.9 119.7 119.2 119.3 119.8 119.4 119 118.3 119.9 120.1 121 122.6 124 124.8 125.5 126.9 128.2 129.6 130.9 132.8 133.9 135.5 137.3 139.7 141.3 142.7 142.9 143.4 143.3 144.9 145.7 147.1 148.8 148.6 148.4 148.9 148.4 146.9 147.6 147.9 147.5 145.5 148 148.5 143.4 141.6 137.2 135.6 135.9 135.8 130.7 129.8 129.1 128 126.4 125.8 125.6 125.3 126.3 126.4 126.1 128 132.2 134.6 136.8 138.6 141.2 141.7 154.9 180.6 218.2
134.2 126.9 113.8 105.3 99.4 99.2 101.2 95 94.9 99.7 96.8 94.6 93.9 93.4 94.7 98.5 103.7 97.8 95 93.8 94 92 81.4 74.5 63.5 54.6 41.5 25.7 11.7 5 5 5 5 5 5.3 8.7 11.4 10.1 6.3 4.3 5.2 7.3 9.6 12.1 14.5 18.3 24.3 33.4 40 51.4 55.4 59 62.6 66.6 69.6 73.2 76.7 79.8 82.7 84.9 86.4 87.3 87.9 88.2 86.3 88.2 91.3 92.9 91.2 85.3 78.2 71.5 63.1 61.3 62.4 65.4 62.4 51.6 43.6 38.7 29.7 24.8 26.8 29.6 28 24.1 24.1 24.1 23.1 24 24.1 24.1 24.1 24.1 24.1 24.1 24.1 24.1 24.1 24.1 24.1 24.1 28.6 35.6 36.8 38.6 48.5 49.7 49.5 44.2 33.1 36.3 43.3 50.1 58.4 61.8 65.2 70 79.3 89.9 89.4 96 100.6 101.4 109.6 119.8 121.6 118.5 114.5 111.4 110.1 110.8 111.4 112.7 113.9 111.3 110.3 112.3 111.5 113.6 115.2 117 119.3 120.5 123.1 124.5 125.6 127.6 130.4 132.8 134.4 136.8 139.9 141.6 143.3 145 147.1 146.1 149.8 151.1 151.8 152 155.7 155.8 157.5 157.9 160.4 160.1 161.7 163.1 162.6 160 158.8 156 151.9 150.1 146.1 142.1 140.9 140.6 134 129.3 128.1 127.4 127.2 127 126.5 126.6 127.8 127.7 131 138.4 142.6 142.2 142.4 144.2 153.9 175.2 202.5 227.2
135.1 121.3 111.2 104.5 100.2 105.6 99.2 93.9 94.6 94.7 92.9 92 91.1 90.1 90 94.2 98.5 96.4 92.4 90.9 91.4 89.3 79.2 66.6 59.8 52.7 42.1 26.9 13.2 5 5 5 5 5 5 6.5 11.2 10.5 8.3 5.3 4.9 8 9.1 12.6 17 20.2 25.1 30.4 37.6 47.5 51.9 57.8 62.8 66.1 69.2 71.9 75.5 78.8 81.9 85.1 86.8 88.4 88.7 89.5 91.1 92.9 95.4 98.6 98.8 94.4 90.5 82.4 73.8 63.2 62.9 65.5 62.3 54.3 47 42.6 34.5 28.2 28.4 29.7 31.3 30.6 23 24.1 24.1 25.3 24.2 24.1 24.1 24.1 24.1 24.1 24.1 24.1 24.1 24.1 24.1 24.1 24.1 25.5 34.5 43.2 53.6 51.9 48.6 43.6 38.8 34.4 39.8 44 46.9 49.7 53.9 58.2 61.4 70.2 77.4 83.6 83.4 81.8 91.2 105.8 114.9 113.8 104.3 104.7 104.2 104 102.2 104.5 101.9 101.6 100.9 103.1 103.3 104.9 106.4 107.8 110.2 112.9 115.3 118.5 121 123.3 126.4 129.3 131.6 134 137.7 141.6 144.5 147.2 149.4 151.1 153.8 155.2 158.1 158.9 159.8 161.2 164.1 165.6 167.4 168 168.9 167.9 168.5 168.1 167.1 165.9 163.2 160.3 158.8 156.5 151.1 146.2 143.1 136.7 134.3 132.4 130.6 129.2 128.2 127.9 130.1 138.4 145.1 152 153.2 155.2 155 160 169.2 189.9 209.5 230.1
128.4 118.8 113.8 105.5 102.5 103.4 97.4 93.9 94.6 93.9 92.1 91.2 89.5 88.7 87.9 88.6 96.3 95.6 90.6 88.5 86.7 84.1 76.2 66.9 57 49.3 41.2 28.1 13.7 5.4 5 5 5 5 5 5 7 10.4 8.7 6.9 5.3 8.4 10 11.7 15.4 19.2 26.4 32.3 38 41.6 45 51.9 62.1 66.6 69.1 71.4 74.4 77.7 81 84.2 87.1 89 89.7 91.2 92.5 95.3 98.4 101.4 103.6 100.9 97.3 90.7 81 68.1 66.5 68 64.5 58.4 49.6 44.2 39.6 37.6 33.7 33 34.8 41.1 40.5 37.6 30.1 30 24.1 24.1 24.1 24.1 24.1 24.1 24.1 24.1 24.1 24.1 24.1 24.1 24.1 35.8 41.9 46.7 53.7 56.9 58.7 55.8 49.9 48.3 34.9 38.6 42.5 42.2 46.3 47.5 53.5 57.1 63.7 68.5 70 71.2 75 81.3 84.8 82.8 91.9 96.1 99.1 94.4 91.7 96.5 93.3 92.3 90.3 91 91.3 91.8 94.1 96.2 98.8 101.4 105.1 109.2 111.4 115.5 119.1 123.1 126.9 130.6 133.9 137.7 141.9 145.6 149.5 152.2 154.7 158.9 160 162 165.7 168.1 172.6 171.5 175.3 176.5 177.5 177.3 177.8 179.6 179.1 178.7 173.4 169.6 168.6 166.1 162.8 160 158.3 153.7 150.3 144.2 140.2 137.9 138.9 140.2 142.7 144.7 150.6 155.8 158.9 162 164.5 170.9 180.9 199.3 217.6 230
128 119.7 113.9 105.6 101.8 99.6 95.1 96.1 92.7 92.1 92 90.8 88.6 86.6 85.4 85.6 89.5 94.4 88.2 86.4 81.5 77.9 72.5 66.7 58.7 47.3 37.9 27 15.1 6.7 5 5 5 5 5 5 5 6.1 5 5 6.3 9 11.1 13.8 17.4 21.3 25.9 35.9 43.4 51.1 58 51.3 60.6 66.2 67.3 70.9 73.9 76.9 80 83.2 86.3 88.9 91 92.4 93.8 95.4 99.5 102 105 104.4 101.9 96.9 88.2 70.6 74.4 74.9 72.9 64.5 55.4 45.6 42.9 40.6 42.8 39 39.6 45.4 49.4 52.8 50.8 40 31.8 24.1 24.1 24.1 24.1 24.1 24.1 24.1 24.1 24.1 24.1 24.1 36.2 49.1 51.3 52.3 58.2 65.8 70.6 69.7 61.7 48.7 35.8 39.5 39.6 42.3 43.5 44.7 49 52.7 53.8 58.3 59.1 60 64 69.7 76.2 76.3 81.3 82.1 85.7 86.9 86.7 87.2 89.8 89.1 85.7 83.8 81.7 83.3 84.2 85.7 85.9 87.8 90 94.1 98 103.5 107.2 112.3 117.5 122.1 127.4 132 136.1 141 144.5 150.1 154.2 157.7 161 165.2 168.9 173.8 178.9 177.9 181.5 182.6 183.7 185.6 187.5 188.2 186.8 184.7 183.3 181.2 178 175 171.9 168.7 165.1 165.6 164.5 159.3 157.7 156.1 157.9 159.5 160.5 161.8 162.9 165.8 171 178.1 186.5 197.4 210.1 241.7 253 257.9
127.9 119.4 111.3 105.6 102 99 97.9 102.6 97.6 92.3 92.2 91.7 89.9 87.5 86.6 85.5 84.1 86.3 85.5 84.5 78.4 74.8 69.5 65.2 57.8 46.4 36 27.9 16.3 8 5 5 5 5 5 5 5 5 5 5 7.9 10.9 11.5 15.3 18.4 22.5 27.7 37 44.7 53.2 60.6 62.5 57.2 61 63 70.1 74.5 77.2 79.6 82.2 85.2 88.3 91.2 93.3 94.7 97.3 99.1 102 105.3 105.4 102.9 99.6 94.3 76.2 79.5 83.2 82 74 64.9 61.6 60 55.5 51.7 48.9 48.1 51.4 55 61.4 62.8 59.7 55.7 48.7 27.9 24.1 24.1 24.1 24.1 24.1 24.1 24.1 24.1 28.4 41.6 53.8 61.7 61.9 66.5 71.4 78 79 71.6 61.4 47.9 36.8 39.8 43.9 43.7 44.7 46.2 48.3 51.1 53.4 54.9 57.1 60 61.9 66.1 70 72.6 74.1 76.4 77.8 78.9 82.7 87.3 88.2 86.4 79.3 77.4 76.9 77 76.9 78.4 80.6 80.5 79.4 80.9 86.2 92.2 97 103.9 109.9 114.1 120.5 125.3 130.9 136.3 142.7 148.3 153.4 158.6 164.8 169.1 175.9 180.8 184.6 190.9 194.2 199.9 203.5 207.7 211.1 219.8 220.2 215.3 208.7 207.5 203.5 195.8 185.5 176.4 175.8 175.2 175.7 175.4 175.4 177.2 179.5 176.9 189.6 190.4 196.5 208 209.9 216.7 222.3 236.4 249.6 257.5 265
127.6 118.8 111.2 104.1 105.2 103.6 103 107.2 104.2 94.1 92.4 92.3 90.4 88.4 86.4 85.2 85.1 84.8 84 82.5 73.2 67.9 63.7 56.1 50.7 40.7 33.6 27.5 18.7 9.2 5 5 5 5 5 5 5 5 5 5 5.3 10.1 14.5 17.7 20.7 24.6 30.4 37.5 45.2 53.6 62.3 66.6 68.1 68.6 70.9 69.3 75.2 77.6 80 82.4 84.8 87.6 90.6 93.3 95.3 97.3 99.3 101.3 103.6 105.4 105.1 101.2 93.7 83 85.4 86.9 88.5 88.4 78.4 73.2 73.9 70.3 61.5 55.4 56.4 59.8 64.4 66.2 67.1 65.9 63.2 55 44 39.5 27.6 24.1 24.1 24.1 24.1 24.1 24.1 38.6 50 59.5 73.3 72.9 70.8 72.5 75.2 84.9 72.5 63.9 53 37.9 40.2 41.4 41.9 43.6 50.3 48.7 49.5 51.7 54.5 60.1 58.8 59.5 61.9 63.4 67 67.7 67.7 71 70.5 72.6 78.1 82 77.6 74.6 73.6 73.8 74.7 74.6 75.1 73.5 74.3 75.8 75.4 77.9 79.9 85.1 90.4 96.8 101.6 106.1 111.4 117.4 123.6 129.3 135 141.7 148.9 156.8 165 172.5 179.8 186.2 193.3 200.1 207.4 214.8 220.8 227.4 233.6 239 240.5 239.6 237.1 230.6 223.8 215.6 205.3 195.2 193.3 191.5 193.8 195.9 199.1 200.5 216.6 223.1 222.2 222.2 233.5 238.8 238.8 244.5 255.9 259.8 264.6 267.3
127.3 119.4 112.5 104.7 104.6 106.8 105.6 109.2 107.1 98.3 93.4 92.7 91.5 91 88.2 84.9 85 85.3 84.6 75.5 66.8 63.5 58.2 48.9 42 37.2 31.9 28 19.4 11.1 5 5 5 5 5 5 5 5 5 5 5.9 9.7 14.7 19.3 22.8 27.8 31.6 39.3 45.9 53.4 62 68.1 71.9 74 75 74.2 74 78.9 80.7 82.7 85.2 87.6 90 92.7 95 97 99 101 102.3 103 103.7 103.6 94.3 87.2 91 95.9 94.4 91.9 91.4 89.7 79.8 76.6 70 66.7 64.1 67.2 72.9 73.1 73.7 71.2 67.3 61.6 57.5 52.4 45.7 24.1 24.1 24.1 24.1 24.1 24.1 34.9 61.1 74.5 84.1 82.1 74.8 73.5 74.1 76.1 70.8 63.1 53.1 41.5 38.7 42.3 41 41.6 51.3 46.3 51.8 55.4 56 57.3 58.3 58.7 59.2 58.2 57.3 60.7 61 60.9 63.6 65.4 69.4 71.5 74 68.7 67.6 70.8 73.5 72.2 72.6 70.3 69.8 71.1 71.2 68.8 68.8 74.4 81.9 88.1 92.5 96.8 99.1 102.4 105.5 110.8 116.6 121.5 131 139.7 151.5 164.4 174.7 183.1 190.6 199.1 206.9 215.8 222.5 230.5 235.2 238.1 240.2 239.6 238.5 235.6 232.6 231.6 226.5 223.5 220.1 217.1 218.4 224.2 231.5 237.6 241.5 242.5 242 242.3 245.5 249.1 250.2 253.7 260.2 262.8 265.9 270.2
127.2 120.9 112.8 106.1 105.4 108 108.7 111.2 108.9 100.8 95.9 94.9 93.8 93.1 94.2 91.8 85.1 86 86.1 81.3 67.8 60.8 51 42.2 35.8 33.2 31.5 28.2 23.1 11.7 5 5 5 5 5 5 5 5 5 5 5 8.5 14.2 19.9 24.2 28.5 33.1 40.7 48 54.7 61.6 67.8 71.2 75 77.7 78.9 75.7 80.9 82.6 84.2 86.2 87.8 89.9 92 94.6 96.7 98.7 100.7 101.3 102.4 103.5 101.9 98.9 96.5 99 99.7 101.4 100.2 99.6 96.1 91 80 76.5 73.8 73.3 73.3 76.9 79.2 84.2 83.4 76 67 59.3 57.3 49.6 34.4 29.1 24.4 24.1 24.1 24.1 39.4 60.4 83.9 85.9 87.1 82.9 77.2 74.7 69.1 65.5 56.1 51.4 47.8 44.8 39.5 39.9 43.4 49.1 47.1 50.1 54.7 56.3 56.8 58 57.8 56.6 55.4 53.8 53.8 54.3 51.9 53.8 54.2 59.3 66.1 65.3 61.8 61.5 63 62.3 62.9 67.7 65.9 64.1 63.5 64.7 65.5 64.2 65.7 68.7 73.5 80.5 85.3 89.7 94.5 95.1 94.6 94.9 99.7 107.2 116.3 133 144.8 156.8 169.8 178.9 190.6 201.7 217.1 228.8 235.1 236.9 238.8 240.3 241.7 243.8 244.4 244.7 243.4 242.4 241.5 241.8 242 241.7 243.5 249.5 252.3 254.9 256.5 258.7 258 257.3 257.5 257.7 261.2 263.4 266.6 270.2 273.5
129.3 122.4 112.2 105.9 105.8 108.1 112.4 112.2 109.5 102.9 97.9 97.9 95.2 94.7 98.3 100.4 89.8 84.7 84.4 81 67 56.6 42.1 36.6 33.4 33.1 31.5 28.4 23.2 14.1 5 5 5 5 5 5 5 5 5 5 5 8.1 13.9 20.1 24 31.2 36.8 39.2 49 55.5 60.8 67 71.1 75 77.7 81.1 82.3 78.7 84 85.9 87.7 89.3 90.8 92.4 94.1 96.3 98.4 100.5 101.4 103 103.7 103.5 103.6 106.3 105.4 106.4 105.3 106.1 105.5 100.4 93.4 88.4 86.2 79.4 77.9 79.1 83 84.8 87.7 89 87.1 73.9 63.3 58.6 54 42.3 38.8 30.6 24.1 24.1 24.1 34.9 56.2 80.2 86 87.7 84.5 79.7 76 63.6 59.6 50.6 48.4 45.4 46.3 58.7 51.3 42.1 46.2 48.8 55.9 61.7 59 57.1 56.3 54.4 53.6 54.5 51.9 51.1 52 47.7 47.7 50.9 53.1 55.9 58.2 58.2 59.8 59.8 58.9 58.8 57 55.4 57.4 57.1 57.8 57.4 61.6 59.6 63.8 68.6 70.6 70.4 73.5 78.7 83.5 82.3 81.3 82 85.4 96.2 109.1 125.4 137.6 152.6 161.2 173.4 184.7 197.4 214.5 230.9 242 251.8 257.4 261.3 262.4 262.8 261.6 260.9 260.1 256.9 255.1 254.4 253.6 255.7 258.9 260.9 264 266.5 268.7 269.9 271.3 270.6 271 272.6 274.3 277.2 279.3 285.2
130.7 120.8 113.3 106.7 106.4 109.1 113.2 109.2 107 103.2 103 101.7 98.5 97.5 98.5 104.3 92.5 82.5 82.6 80.8 68.1 51.5 39.4 34.9 32.6 32.3 31.2 28.1 24.9 18.4 6.4 5 5 5 5 5 5 5 5 5 5 7.8 12.1 18.6 24.1 31.9 37.3 40.8 49.4 56.6 61.9 67.1 71.6 75 78.6 82.5 84.7 85.3 83.6 87.4 89.2 90.8 92.3 93.8 95.4 96.7 99 100.7 102.2 103.4 104.9 104.9 105.9 109.4 113.8 111.3 108.9 107.4 106.9 106.1 98.8 92.4 89.4 88.9 80.3 81.1 85.2 87.2 88.5 90 89.7 79 74.7 62.5 54.1 46.9 41.8 30.4 25.8 24.1 25.4 32.9 44.6 68.5 78.6 83.9 81.5 75.4 69.1 64.5 62.7 51.5 46.4 46.5 65.2 64.5 58.6 57.8 41.2 52 51.8 64 73.7 67.5 55 53.7 52.3 50.5 47.7 47.7 47.7 47.7 47.7 47.7 47.7 49 53.1 52.8 54.3 60 59.5 57.7 55.2 50.7 47.7 47.7 49.2 49.1 50.2 53.3 57.1 62.7 65.6 66.4 66.6 70 74.9 75.5 75.2 76 76.1 81.2 92.1 108.1 124.4 138.7 152.1 164.6 174.8 188.9 201.7 216.9 232.5 246.3 259 265.8 270.5 275.9 278.1 280.1 280.9 279.7 277.8 275.9 275.1 273.1 270.6 270.7 270.9 270.4 271.8 272.5 273.3 274.5 276 278.9 282 288.3 295.7 305.7
136.6 124.1 116.6 108 106.8 107.7 112.3 108.9 106.5 106.5 106.5 106.9 107.6 102.5 101.4 100.2 91 81 80.8 79 65.3 49.2 35.9 31.4 31.5 31.7 32.1 30.1 26.2 20.7 11.2 5 5 5 5 5 5 5 5 5 5 5.3 11.6 17 24 29.9 35.1 41.8 50 56.8 62.3 67.4 71.8 76 79.8 83.7 86.9 88.4 87.5 89 90.6 92.2 93.7 95.2 96.6 97.8 99.5 101 102.4 103.8 105.5 106.9 109.3 111.5 114 116.4 111.6 108.8 107.4 105.7 99 96.8 94.1 91.4 88 84.2 86.6 91.2 88.9 89.1 88.9 85.9 80.7 66.9 58.3 51 42.8 32.7 25.8 28.8 39.8 45.9 45.5 58.4 69.9 72.4 73.4 72.7 73.9 75.6 60.5 49.2 47.3 55 70.2 75 68.3 64.7 51.5 48 52.3 59.8 66.1 76 62 55 51.4 50.3 47.7 47.7 47.7 47.7 47.7 47.7 47.7 47.7 47.7 47.7 47.7 47.7 47.7 55.2 47.7 47.7 47.7 47.7 47.7 47.7 47.7 47.7 52 54.2 56.8 59.5 60.4 66 69.7 70 72.9 72.6 72.3 73.2 83.3 94.2 104.8 121.6 138.8 155.7 171.8 188.6 199.5 212.2 222.1 239 247.7 257.2 265.4 268.2 274.6 281.4 284.2 286.5 288.5 290.8 295.6 295.8 292.1 288.9 283.4 280.1 280 280.2 279.9 279.5 282.6 283.4 281.5 281.6 287.9 298.9
141.5 124.9 118 110.5 107.5 109.6 113.8 111.6 107.7 107.1 108.4 110.9 114.2 112.3 104.6 98.3 88.1 78.5 79.9 77 62.8 47.8 33.9 29.4 30.8 32.6 33.3 32.2 28.4 23.9 13.1 5 5 5 5 5 5 5 5 5 5 5 9.2 16.7 23.8 30.5 35.8 41.7 47.3 55.8 62.6 67.3 72.2 77.1 81.1 85.1 88.9 90.9 91.4 88.6 92.5 93.5 95 96.4 97.7 98.8 100.3 102.2 104.1 105.7 108.4 109.8 111.1 113.5 115.5 116.2 115.1 111.7 108.7 105 100.4 98.3 95.4 93.8 87.8 85.1 85.6 86.2 89.2 89.4 89.2 84.8 80.5 70.9 66.3 59.7 45.5 34.9 30.7 36.8 53.4 48.9 52.9 67.4 74.2 68.9 67.3 67.6 66.4 65.3 64.1 55.1 59.8 78.6 82.3 80.8 81.7 68.4 54.7 47.8 45.5 54.5 56.5 54.9 64.6 56.8 52.1 47.7 47.7 47.7 47.7 47.7 47.7 47.7 47.7 47.7 47.7 47.7 47.7 47.7 47.7 47.7 47.7 47.7 47.7 47.7 47.7 47.7 47.7 47.7 47.7 47.7 51.6 54 56.3 60.5 63.8 64.7 65.3 69.4 66 67.8 74.8 85.2 95.9 108 122.3 136.3 154.9 180.8 192.9 196.5 210.7 218.5 231.3 244.5 256.5 261.2 271.3 279.2 284.8 287.9 294.7 299.6 302.9 303.7 302.2 299.8 297.8 296.1 295.9 299.1 298.5 296.3 298.1 303 307.4 310.9 307.5 310.3
136.4 127.3 123.8 112.5 109.1 109 114.2 110.2 109.2 109.3 110.6 116.9 117.2 120.5 108.2 97.3 83.9 75.9 72.5 70.8 61 46.5 32.9 29 29.7 35.1 34.7 33.3 30.7 27 20.2 6.6 5 5 5 5 5 5 5 5 5 5 6.9 15.2 22.8 28.5 34.9 41.4 47.9 55.1 62.8 67.2 71.7 76 81.5 86.7 90.4 92.8 94.7 95.3 93.3 94.9 96.2 97.4 98.6 99.8 101.4 103.4 105.5 107.5 109.3 111.1 113 114.1 115.5 116.1 116.7 115.4 111.2 105.6 103.6 101.3 96.8 94.9 86.9 85.1 84.8 84.7 85.8 91.5 92.9 88.1 83.4 73.3 68 63.6 55.3 40.6 37.2 35.7 47.3 51.7 66.1 60.9 69.6 68.7 66.8 65.7 65 62.9 61 73.5 83.4 83.9 79.1 83.6 77.2 70 59.6 56.9 48 47.9 54 54.5 47.7 53.1 47.7 50.2 47.7 47.7 47.7 47.7 47.7 47.7 47.7 47.7 47.7 47.7 47.7 47.7 47.7 47.7 47.7 47.7 47.7 47.7 47.7 47.7 47.7 47.7 47.7 47.7 47.7 47.7 50.5 54.5 58.1 60.5 63.2 64 63.4 64.3 64 70.3 81.8 92.6 109.1 119.1 138.2 152.1 178.9 183.9 191.1 204.5 210.9 223.4 238.4 253.1 265.4 271.8 277.9 284.8 295.9 304 305.1 304.1 304.2 304.2 302.7 302.7 301.6 299.3 297.9 297.2 299.3 304.3 308.9 312.8 317.1 320.5
138 128.6 130.4 113.7 109.1 109.1 108.3 108.4 111.5 111.9 112.9 120.9 120.6 119 109.1 93.6 81.9 74.1 67.5 64.1 55.7 44.3 32.3 29.2 29.8 36.2 36.2 34.4 31.6 30.3 24 13.3 5 5 5 5 5 5 5 5 5 5 5 12.7 21.5 28.8 34 41.1 46.8 54.1 62.1 67.5 71.7 75.3 80.2 85.8 91.1 94.9 96.6 97.7 97.7 95.7 98.1 98.7 99.9 101.5 102.9 105 107.1 109.2 110.4 112 113.8 115.5 117 117.9 119.6 120.2 115 108 106.4 102.8 98.6 93 86.1 83.8 84.2 83.7 83.8 88.1 96.1 91.5 89.7 83.4 69.7 64.5 61 49.5 36.6 34.6 43.1 55.4 78.7 70.6 71.5 68.2 68.3 67 62.7 61.4 62.6 84.1 85.9 83.4 78.4 78.5 78.2 75.9 68.2 61.9 52 55.3 49.9 53.2 52.6 47.7 49.4 47.7 47.7 47.7 47.7 47.7 47.7 47.7 47.7 47.7 47.7 47.7 47.7 47.7 47.7 47.7 47.7 47.7 47.7 47.7 47.7 47.7 47.7 47.7 47.7 47.7 47.7 47.7 47.7 47.7 49.2 56.5 59.3 60.9 58.7 59.4 59.8 60.8 67.8 81 94.6 108.1 125 135 144.8 167.4 177.5 186.1 194.9 204.3 226.8 240.8 251.8 259.6 265.7 273.3 281.5 296.2 300.8 301.4 303.9 307 308.6 311.6 311.3 306.1 302.4 300.3 299.7 300.4 299.6 303.9 310.1 319.6
135.3 126.6 123.6 112.2 109.1 109.1 109.1 109.1 111.3 114 113.6 122.2 120.9 119.2 109.4 94.9 83 73.3 66.6 58.4 50.8 43.4 31.2 27.1 31.3 36.4 38.9 37.2 35 32.4 27.8 19.7 9.3 5 5 5 5 5 5 5 5 5 5 10.4 18.1 26.3 33.2 41.3 47 51.1 59.6 66.4 71.5 75.3 79 84.1 89.8 95 98.5 100.7 101 99.7 99.5 100.7 102.2 102.8 104.5 106.3 108.5 110.9 112.2 114 115.3 116.9 118.8 119.8 121 120.9 118.9 114.9 108.8 104.8 101.2 92.6 87.2 83 82.9 82.4 82.2 82.7 89 89 87.9 79.6 75.2 69.5 61.9 51.8 38.4 40.8 44.5 60.2 76.9 70.4 71.3 69.1 77.6 70.9 63.5 63.7 69.5 83.6 84.5 84.3 82.9 81.4 79.8 78.5 74.7 69.4 54.6 55.5 56.6 48.7 53.1 47.7 47.7 49.8 47.7 47.7 47.7 47.7 47.7 47.7 47.7 47.7 47.7 47.7 47.7 47.7 47.7 47.7 47.7 47.7 47.7 47.7 47.7 47.7 47.7 47.7 47.7 47.7 47.7 47.7 47.7 47.7 47.7 47.7 54.1 54.8 52.5 54.5 58.3 58.3 62.6 64.5 77.6 95.6 106.1 125.8 129.2 142.4 158.4 167.5 179.2 194.2 213.3 225.9 236.1 245.9 257.6 266.8 275.3 282 292.6 298 303.5 306.8 311.1 314.8 316.1 310.9 307.5 305.3 302.4 300.1 293.8 299.6 304.5 312.1
133.4 127 119.7 112.6 109.1 109.1 109.1 109.1 109.1 111 112.9 120.1 122.2 123.5 111.3 95.5 83.1 73.3 66.6 57.3 48.3 38.2 29.7 26.4 31.9 36.9 38.6 39.4 38.5 35.2 31.8 24.8 11.7 5 5 5 5 5 5 5 5 5 5 8.6 15.3 23 32.5 39.9 46.3 51.6 56.6 64.8 70.2 75.4 79.1 83.2 87.8 93.1 98.4 101.8 103.7 102.9 99.9 103.5 104.1 104.7 106.1 107.9 109.7 112 114.5 116 116.9 118.6 120.7 121.7 123 123 123.3 120.3 115.9 110.4 104.9 96.9 92 87.2 85.2 82.3 81.3 81.7 84.6 87.4 83.8 75.4 72.4 68.8 60.8 51.2 41.5 41 47.5 65.9 69.4 72 75.6 84.9 82 74.6 67.6 68.3 80.9 86.7 85.8 84.7 84.5 86.2 86.7 83.4 81.4 78.1 69.5 61.4 57.6 52.9 48.7 47.7 47.7 47.7 47.7 47.7 47.7 47.7 47.7 47.7 47.7 47.7 47.7 47.7 47.7 47.7 47.7 47.7 47.7 47.7 47.7 47.7 47.7 47.7 47.7 47.7 47.7 47.7 47.7 47.7 47.7 47.7 47.7 47.7 47.7 47.7 47.7 47.7 51.1 55.2 59.5 61.6 65.7 77 88.7 94.1 99.8 118.1 140.5 154.6 171.2 183.3 200.1 212 226.9 238.6 247.4 256.8 264.7 277.3 288 293.9 297.9 300 303.9 309.5 313.2 312.5 306.5 303.5 298 294.7 289.2 293.2 296 302.4
136.7 130.7 120.6 114.1 109.4 108.5 108.6 109.9 110.2 110.8 111.8 113.8 121.7 124.3 113.4 97 84.6 75.4 66.5 56.5 46.1 37.3 28.5 24.3 29.6 35.3 38.1 39 40 39.7 33.8 29.2 21.5 8.3 5 5 5 5 5 5 5 5 5 5.6 15 23.5 31 35.7 45.5 52.1 57 60 67.5 73.5 78.5 82.6 87.3 92.1 96.9 101.7 104.1 105.3 105.2 104.1 106.4 107.1 108.1 109.7 111.5 113.1 115.7 118 119.6 121.1 122.3 123.6 125.9 127.5 129 126.5 122.3 119.3 115.9 106.5 100.4 98.3 93.2 85 81.9 81.4 83.7 86.8 75.7 73.5 69.6 64.9 58.3 51.6 46.6 39.7 45.7 61.8 69 79.5 83.7 83.1 76.8 75 74.2 85.7 92.3 97 91 86.8 84.3 83.8 83.1 84.6 81.6 79.9 72.5 68.3 65 65.4 55.8 47.7 47.7 47.7 47.7 47.7 47.7 47.7 47.7 47.7 47.7 47.7 47.7 47.7 47.7 47.7 47.7 47.7 47.7 47.7 47.7 47.7 47.7 47.7 47.7 47.7 47.7 47.7 47.7 47.7 47.7 47.7 47.7 47.7 47.7 47.7 47.7 47.7 47.7 52.9 59.7 61 66.3 67.7 72.8 81.8 95.2 106 119.8 140.1 158.3 173.1 189.7 204.7 215.4 223.1 230.9 240.9 248.4 258.9 270 277.8 286.1 292.9 298 301.2 302.3 302.5 300.8 295.8 286.4 281.2 280 282.1 283.8 291.4
138.1 133.9 123.6 115.6 114.5 114.2 115.1 114.4 111.6 112.5 111.5 113.9 118.2 121.4 113.4 96.3 82.2 77.6 67.7 57 46.8 36.7 26.5 22.4 28.9 33.3 36.3 39 40.7 41.5 37.8 32.1 25.6 14.1 5 5 5 5 5 5 5 5 5 5.9 13.4 21 27.9 34.4 41.5 50.4 54.9 59.8 63.4 69.1 76.8 82 86.8 91.4 95.9 100.1 104.3 107.2 107.7 105.6 107.5 109.6 110.5 111.3 112.7 114.5 116.7 119.3 121.8 123.4 123.9 125.5 128.4 130.9 132.6 130.8 130.4 127 123.9 120.9 109.4 103.6 101.4 95.6 87.7 83.4 79.8 75.9 75.2 76.3 74.2 71.5 64.7 57.6 56.1 45.2 48.2 65.6 85.1 89.3 91.9 82.6 77.6 81 92.7 104.7 99.1 95.4 90.7 89.1 87.6 85.7 83.6 80.9 79.2 76.2 73.3 70.8 66.6 64.3 63.8 58.7 47.7 47.7 47.7 47.7 47.7 47.7 47.7 47.7 47.7 47.7 47.7 47.7 47.7 47.7 47.7 47.7 47.7 47.7 47.7 47.7 47.7 47.7 47.7 47.7 47.7 47.7 47.7 47.7 47.7 47.7 47.7 47.7 47.7 47.7 47.7 47.7 47.7 51.1 55.1 60 65.2 69.9 72.9 76.7 83.5 100.3 114.9 130.5 151 166.6 182.9 199.3 208.4 215.9 221.1 227.4 234.6 240.3 250.5 259.5 269.1 280.5 289 293.9 296.4 295.2 294 288.2 279.1 275.6 274.4 275.1 275.5 278.9
