ncols 200
nrows 89
xllcorner 170000
yllcorner 864750
cellsize 50
-2.1 -2.1 -2.1 -2.1 -2.1 -2.1 -2.1 -2.1 -2.1 -2.1 -2.1 -2.1 -2.1 -2.1 -2.1 -2.1 -2.1 -2.1 -2.1 -2.1 -2.1 -2.1 -2.1 -2.1 -2.1 -2.1 -2.1 -2.1 -2.1 -2.1 -2.1 -2.1 -2.1 -2.1 -2.1 -2.1 -2.1 -2.1 -2.1 -2.1 -2.1 -2.1 -2.1 -2.1 -2.1 -2.1 -2.1 -2.1 -2.1 -2.1 -2.1 -2.1 -2.1 -2.1 -2.1 4.8 13.2 19 20.6 22.4 25.4 39.7 41.4 43 45.1 51.6 56.1 57.1 58.8 57.8 59 62.5 68.4 72.4 78.8 83.1 86.6 87.7 88.8 89.3 89.4 90.3 92.7 96 100.6 103.1 104.1 108 110.3 113.5 118.4 123.3 128.1 131.5 135.7 138.9 141.7 144.1 146.9 148.4 149.9 151.4 152.7 153.6 154.1 155 155.3 155.5 155.7 155.8 155.6 155.6 155.4 154.9 154.3 153.5 152.3 151.4 150.3 149.7 149.4 149 148.5 148.3 148.5 148.2 148.1 148.3 148 148.1 147.5 146.6 144.8 142 137 132 127 123.9 115.4 114 118.2 115.1 115.4 114.5 118.1 119.2 120.5 123 126.5 131.9 134.8 139.8 144.3 146.9 150.3 153.9 158.2 163.3 165.5 167.9 167.9 168.3 168.6 169.5 169.6 170.1 170.4 170.7 170.2 169.6 167.9 167.4 166.2 165 162.8 160.4 160 157.7 155.3 154.4 153.7 155.3 156.5 156.6 158.5 164.9 155.7 143.4 133.7 136 139.5 142.8 144.7 145.6 146.4 147.4 151.7 156.2 160.2 164.7
-2.1 -2.1 -2.1 -2.1 -2.1 -2.1 -2.1 -2.1 -2.1 -2.1 -2.1 -2.1 -2.1 -2.1 -2.1 -2.1 -2.1 -2.1 -2.1 -2.1 -2.1 -2.1 -2.1 -2.1 -2.1 -2.1 -2.1 -2.1 -2.1 -2.1 -2.1 -2.1 -2.1 -2.1 -2.1 -2.1 -2.1 -2.1 -2.1 -2.1 -2.1 -2.1 -2.1 -2.1 -2.1 -2.1 -2.1 -2.1 -2.1 -2.1 -2.1 -2.1 -2.1 -2.1 -2.1 4 16.2 19.6 21.2 22.8 24.8 29 36.6 40.8 48.2 50.8 51.9 57.9 58.6 56.3 57.2 58.4 64.4 70 75.4 80 84.1 86.9 88.2 88 86.7 89.9 93.2 94.9 96.5 100.5 103.4 106.2 108 110.3 116 120.4 126 129.2 132.9 136.5 139.3 142.5 145.6 147.5 149.7 151.3 152.7 153.9 155.2 156.2 157 157.8 158.1 158.2 158.2 158.1 158 157.6 156.9 155.7 155.2 154.7 154.2 153.3 152.2 151.7 151.2 150.1 149.8 150 150.3 150.5 150.5 149.9 150.5 149.6 148.7 147.7 145 139.6 137 131.4 126 119.1 119.8 118.9 120.1 119.7 118.2 119.4 121.1 122.4 124.7 128.1 131.6 136.7 140.4 145.2 148.8 152.3 158.6 163.1 164.9 167.9 168.5 168.1 168.1 169.6 170.4 171.3 171.5 171.2 170.9 170.5 168.2 167.8 165.9 165.9 166.2 165 162.3 161.6 158 155.1 155.8 157.2 159.9 163.2 166.3 166.4 166.2 152.2 139.4 135.9 140.1 142.8 144.7 146 147.4 151 156.3 163.7 169.2 174.8
-2.1 -2.1 -2.1 -2.1 -2.1 -2.1 -2.1 -2.1 -2.1 -2.1 -2.1 -2.1 -2.1 -2.1 -2.1 -2.1 -2.1 -2.1 -2.1 -2.1 -2.1 -2.1 -2.1 -2.1 -2.1 -2.1 -2.1 -2.1 -2.1 -2.1 -2.1 -2.1 -2.1 -2.1 -2.1 -2.1 -2.1 -2.1 -2.1 -2.1 -2.1 -2.1 -2.1 -2.1 -2.1 -2.1 -2.1 -2.1 -2.1 -2.1 -2.1 -2.1 -2.1 -2.1 -2.1 -2.1 7.8 19.5 21.9 23.2 24.4 25.3 39 40.1 40 43 50.5 54.4 53.8 54.1 56.7 58.4 55.5 66.7 70.6 76.1 80.5 84.1 87.4 86.9 86.1 92.8 94.6 94.2 95.1 97.6 101.5 104.9 107 109.3 112.3 117.6 122.2 126.1 128.9 134 137.7 140.6 143.5 146.7 148.8 150.8 152.7 154 155.5 157.1 158 159 159.8 160.5 160.7 160.7 160.6 160.2 159.7 159.1 158.4 157.9 157.4 156.3 155.2 154.4 153.4 152.3 152 152.2 152.5 152.6 152.9 153.1 153.2 152.8 152.3 151.8 149.8 148.2 145.2 140.3 130.9 127 123.5 124.4 124.3 123.4 123.7 126.2 122.8 124.3 123.7 127.5 130.6 133.6 138.1 143.5 147.5 150.5 153.8 160.9 165.5 165.2 168.7 166.2 167.1 169 170.2 171.5 172.6 172.6 172.2 171.1 169.9 169.4 168.2 168 168.5 169 166.1 165 161.5 156.4 157.4 159.2 161.3 163.2 165.2 172.2 170.2 155.9 147.2 136.8 139 142.7 144.6 146.5 152.2 156.9 163.3 168.7 174.2 180.2
-2.1 -2.1 -2.1 -2.1 -2.1 -2.1 -2.1 -2.1 -2.1 -2.1 -2.1 -2.1 -2.1 -2.1 -2.1 -2.1 -2.1 -2.1 -2.1 -2.1 -2.1 -2.1 -2.1 -2.1 -2.1 -2.1 -2.1 -2.1 -2.1 -2.1 -2.1 -2.1 -2.1 -2.1 -2.1 -2.1 -2.1 -2.1 -2.1 -2.1 -2.1 -2.1 -2.1 -2.1 -2.1 -2.1 -2.1 -2.1 -2.1 -2.1 -2.1 -2.1 -2.1 -2.1 -2.1 -2.1 2.3 9.7 13.7 21.6 21 23.2 27.2 38 39.6 40.1 48.7 48.1 50.6 56.1 52.1 56.1 51.2 56.6 66.9 70.9 75.3 79.6 83.1 82.3 86.3 91.2 94.3 93.8 94.6 98 99.4 102.3 106 109 111.9 115.4 118.8 122.4 125.7 130.1 135.1 138.8 142 145.3 148.2 149.9 152 154.2 155.8 157.3 158.9 160 161 162 162.5 162.9 163 162.9 162.4 161.8 161.2 160.8 160.2 159.1 158.1 157.6 156.7 155 154.8 154.6 154.7 154.8 154.7 154.7 154.5 154.7 154.9 154.3 153.1 151.9 150.8 148.2 137.5 133.7 128.5 128.8 127.1 127.4 127.4 130 130.1 127.3 126.5 125.8 129.7 132.8 135.4 139.2 143.6 146.6 150.6 153.9 159.3 166.5 169.5 167.2 167.1 169.1 170.4 171.7 173.1 173.8 172.7 171.7 171.1 170.6 170.1 169.9 170.1 170.3 168.8 167 162.5 157.8 159.6 162.5 164.8 164.9 164.7 163.5 167.6 154.7 144.9 138 139.3 141.6 144.4 150.7 155.9 160.7 167 172.3 178.3 181.9
-2.1 -2.1 -2.1 -2.1 -2.1 -2.1 -2.1 -2.1 -2.1 -2.1 -2.1 -2.1 -2.1 -2.1 -2.1 -2.1 -2.1 -2.1 -2.1 -2.1 -2.1 -2.1 -2.1 -2.1 -2.1 -2.1 -2.1 -2.1 -2.1 -2.1 -2.1 -2.1 -2.1 -2.1 -2.1 -2.1 -2.1 -2.1 -2.1 -2.1 -2.1 -2.1 -2.1 -2.1 -2.1 -2.1 -2.1 -2.1 -2.1 -2.1 -2.1 -2.1 -2.1 -2.1 -2.1 -2.1 0.4 3.2 8.8 14 19.6 21.9 24.3 33.3 35.5 35.9 40.5 46.6 48.2 51.8 47.6 48.3 48.7 50.1 54 64.5 72.4 75.1 79.1 79 84.8 89.2 89.5 90.2 92.3 96.9 98.7 100.3 103.1 107.1 110.6 112.8 115.8 118.8 122.4 126 131 135.6 139.7 143.2 147.1 149 151.8 153.8 155.5 157.1 159.1 160.9 162.1 163.1 164.2 164.6 165.1 165.1 165.2 164.6 164 163.5 162.7 161.7 160.7 160.1 159 157.8 157.5 157.3 157 156.9 156.7 156.5 157.2 157 157.2 157.3 155.8 154.9 154.4 152.5 148 136.4 138 132.6 135.1 133.5 130.8 132.4 132.4 131.3 127.5 129.1 128.1 130.9 134.1 136.4 140.8 143.7 148.5 151.7 155.1 162.4 167 168.4 166.2 168.4 169.8 172.4 173.4 173.4 172.6 172.8 172.3 171.7 171.4 171.6 171.8 171.7 170.3 167 163 159.7 160.1 162.3 166.1 167.1 165.9 162.3 158.1 146.4 141.4 140.2 140.8 141.9 144.8 154 160.2 166.7 169.4 175.7 182 185.5
-2.1 -2.1 -2.1 -2.1 -2.1 -2.1 -2.1 -2.1 -2.1 -2.1 -2.1 -2.1 -2.1 -2.1 -2.1 -2.1 -2.1 -2.1 -2.1 -2.1 -2.1 -2.1 -2.1 -2.1 -2.1 -2.1 -2.1 -2.1 -2.1 -2.1 -2.1 -2.1 -2.1 -2.1 -2.1 -2.1 -2.1 -2.1 -2.1 -2.1 -2.1 -2.1 -2.1 -2.1 -2.1 -2.1 -2.1 -2.1 -2.1 -2.1 -2.1 -2.1 -2.1 -2.1 -2.1 -0.7 1.3 3.7 8.6 12.6 21.5 22.5 23.9 27.8 32.9 33 37.1 41.8 44.7 45.9 46.9 47.3 47.9 49.2 51.6 57 65.6 71.1 76.2 78.8 82.3 84.3 88.1 89.4 91.6 94.9 97.9 99.9 102.8 106.5 110.1 112.2 114.1 117 120.7 124.5 128.2 132.3 136.9 141 144.1 148.4 151.1 153.5 155.5 157.5 159.4 161.2 163 164.2 165.3 166.3 166.7 167.2 167.3 167.4 166.8 166 165.2 164.4 163.5 162.5 161.9 160.8 160.3 159.9 159.6 159.4 159.2 159.7 159.8 159.2 158.6 159.5 158.9 158.2 157.2 156.3 154.9 146 143.8 140 138.1 139.3 136.8 136.7 136.7 134.7 130.3 134.3 132.9 132.1 132.1 134.6 137.5 142.5 147.5 151.1 155.2 159.2 168.4 173.5 166.2 167.5 170.9 172.1 172.9 173.3 173.2 173.4 173.1 173.1 173.2 173.4 173.6 173.2 172.5 170.6 168.4 165.6 162.3 164.2 164.9 166 163.9 162 155.7 147.3 147 142.8 141 145.8 148.9 152.6 161.3 165.5 169.2 173.5 181.4 183.8
-2.1 -2.1 -2.1 -2.1 -2.1 -2.1 -2.1 -2.1 -2.1 -2.1 -2.1 -2.1 -2.1 -2.1 -2.1 -2.1 -2.1 -2.1 -2.1 -2.1 -2.1 -2.1 -2.1 -2.1 -2.1 -2.1 -2.1 -2.1 -2.1 -2.1 -2.1 -2.1 -2.1 -2.1 -2.1 -2.1 -2.1 -2.1 -2.1 -2.1 -2.1 -2.1 -2.1 -2.1 -2.1 -2.1 -2.1 -2.1 -2.1 -2.1 -2.1 -2.1 -2.1 -2.1 -2.1 0.6 2.4 13 13.9 17.4 17.5 22.6 22.6 24.4 27.5 33.5 41 43.7 43.9 44.8 45.7 46.4 47.5 49.2 51.9 54.8 60.6 66.6 73.4 77.8 83.5 88.7 89.3 91.1 91.5 93.9 97.9 100 103.6 106 108.4 110.3 113.3 116.1 119.1 123.1 126.8 129.9 134.7 138.2 142.8 147 149.9 152.5 154.7 156.9 159.4 161.6 163.3 165.1 166.4 167.7 168.5 168.9 169.3 169.4 169.6 168.7 167.9 167 166.4 165.8 165.1 163.8 163.4 163 162.6 162.2 161.8 161.9 162 162.1 161.4 161.2 160.6 161.1 160.1 159.2 158.3 154.6 147.7 148.5 146 146.7 144.7 140.8 142.2 137.5 132.1 135.4 132.8 134.7 134.6 132.6 135.2 139.9 146.1 150.9 155.5 160.1 162.2 169.5 170.6 168.4 170.1 171.1 172.1 173.2 174 174.7 174.8 175.9 176.4 176.5 176.8 175.8 174.3 172.8 170.7 168.6 166 165.5 166.4 166.5 165.9 164.1 160.4 156.9 156.7 153.5 146.2 150.6 155.7 156.9 163.1 166.3 170.1 173.6 179.3 183.3
-2.1 -2.1 -2.1 -2.1 -2.1 -2.1 -2.1 -2.1 -2.1 -2.1 -2.1 -2.1 -2.1 -2.1 -2.1 -2.1 -2.1 -2.1 -2.1 -2.1 -2.1 -2.1 -2.1 -2.1 -2.1 -2.1 -2.1 -2.1 -2.1 -2.1 -2.1 -2.1 -2.1 -2.1 -2.1 -2.1 -2.1 -2.1 -2.1 -2.1 -2.1 -2.1 -2.1 -2.1 -2.1 -2.1 -2.1 -2.1 -2.1 -2.1 -2.1 -2.1 -2.1 -2.1 0.3 1.8 11.8 8.6 17.2 21.3 23.2 18.7 20.4 22.7 26.2 36.3 39 42.7 46.6 49.3 45.6 48.2 50.4 49.8 51.5 53.7 57.7 61.4 66.4 74.6 78.6 83 86.6 90.4 91.7 92.1 94.5 98.4 103.4 105.1 106.6 109.1 112.4 115.3 117.7 121.5 124.7 127.1 131.3 136.8 141.4 145.5 148.1 151.3 154.5 157 159.2 161.4 163.6 165.6 167.2 168.6 170 170.6 171 171.1 171.3 171.5 171.2 170.7 169.8 168.9 167.7 166.8 166.4 166 165.6 165.1 164.4 164.3 164.4 164.5 164.3 164 163.6 162.8 162.7 162.5 161.7 158.1 151.3 155.4 151.9 150.2 150.5 149.9 144.7 140.4 135.5 137.3 136.7 135.8 136.5 137.2 135.2 137.4 144 147.8 157 158.8 158.6 162.6 169.2 169.2 169.6 170.7 171.7 173.6 175.5 176.8 176.7 177.1 177.9 178.8 178 176.6 175.4 174.1 173.6 171.5 169.6 168.7 168.3 168.5 168.7 166.6 165.2 161.6 160.6 158.8 158.2 146.7 157.6 160.2 164.5 169.5 172.2 173.3 177.1 181.6
-2.1 -2.1 -2.1 -2.1 -2.1 -2.1 -2.1 -2.1 -2.1 -2.1 -2.1 -2.1 -2.1 -2.1 -2.1 -2.1 -2.1 -2.1 -2.1 -2.1 -2.1 -2.1 -2.1 -2.1 -2.1 -2.1 -2.1 -2.1 -2.1 -2.1 -2.1 -2.1 -2.1 -2.1 -2.1 -2.1 -2.1 -2.1 -2.1 -2.1 -2.1 -2.1 -2.1 -2.1 -2.1 -2.1 -2.1 -2.1 -2.1 -2.1 -2.1 -2.1 -0.9 0.2 1.6 4.6 17.9 18.1 15.8 24.7 24.9 23.5 23 24.5 26.7 37.2 40.9 41.5 46.5 50 49.9 49.2 52.5 47.3 51.4 52.7 56.9 56.3 59 69.4 75.1 80.9 82.4 86.4 89.4 90.6 93.2 96.9 101.4 105.3 107.6 109.8 112.1 114.5 117 119.6 122.5 125.9 129.7 133.4 138.8 143.7 147.4 150.9 153.6 156.7 159.4 161.7 163.9 166 167.7 169.2 170.6 171.9 172.6 172.8 173.2 173.6 173.8 173.4 172.5 171.8 171.1 169.8 169.5 169 168.6 168 167.3 166.6 166.7 166.7 166.3 165.2 165 164.6 164.5 164 162.7 156.3 158.4 159.9 161.3 155.7 158.1 155.6 147.4 149 142.5 140.8 142.2 137.7 138.4 138.8 138.5 138 141.6 146 150.2 154.1 157.6 159.9 166 166.3 168.3 169.8 171.2 173 174.9 176.8 177.8 178.3 179.1 179.9 178.6 177.2 176.1 175 175.3 174.7 172.8 171.9 171.3 171.1 170.5 170.5 170.2 169.8 166.5 164.1 161 159.9 156.3 161.6 164.7 169.6 172.2 173.4 175.2 179.2
-2.1 -2.1 -2.1 -2.1 -2.1 -2.1 -2.1 -2.1 -2.1 -2.1 -2.1 -2.1 -2.1 -2.1 -2.1 -2.1 -2.1 -2.1 -2.1 -2.1 -2.1 -2.1 -2.1 -2.1 -2.1 -2.1 -2.1 -2.1 -2.1 -2.1 -2.1 -2.1 -2.1 -2.1 -2.1 -2.1 -2.1 -2.1 -2.1 -2.1 -2.1 -2.1 -2.1 -2.1 -2.1 -2.1 -2.1 -2.1 -2.1 -2.1 -2.1 -0.1 0.3 1.5 2.9 9.7 17.2 12 15.4 20.6 24.8 22.8 23.2 24.9 24.6 25.5 28.5 39.4 45.3 46.1 51.2 50.5 46.8 44.8 52.4 50.8 50.5 51.9 53.7 61.4 67.5 75.8 79.8 83.2 86 88.6 92.2 95.6 98.5 102.9 106.6 109.4 111.8 114.3 116.8 118.9 121.6 125.1 128.8 132.2 137.6 141.6 146 149.5 153.1 156 158.8 161.7 164.3 166.2 168 169.5 171 172.5 173.7 174.8 175.3 175.8 176.1 175.8 175.7 175.1 174.4 173.2 172.5 172.1 171.5 170.9 170.3 169.4 169 168.8 168.5 167.8 168.3 167.3 167 166.7 164.4 159.9 163.3 162.8 165.3 160.9 165.8 161.2 152.5 154.8 150.7 146.2 144.9 140.7 142.2 142 142.3 139.8 141.3 145.6 148.9 152.1 158.9 158.7 160.3 162.2 165.5 166.7 169.8 172.2 174.1 176.1 178.7 179.5 180.7 180.8 179.2 178.3 177.7 176.8 176.6 176 175.1 175 174.2 173.7 172.8 172.4 171.9 170.3 168.4 165.9 164.6 163.7 159.2 164.2 166.8 167.7 173 173.1 174.7 174.6
-2.1 -2.1 -2.1 -2.1 -2.1 -2.1 -2.1 -2.1 -2.1 -2.1 -2.1 -2.1 -2.1 -2.1 -2.1 -2.1 -2.1 -2.1 -2.1 -2.1 -2.1 -2.1 -2.1 -2.1 -2.1 -2.1 -2.1 -2.1 -2.1 -2.1 -2.1 -2.1 -2.1 -2.1 -2.1 -2.1 -2.1 -2.1 -2.1 -2.1 -2.1 -2.1 -2.1 -2.1 -2.1 -2.1 -2.1 4 9.6 5.1 1.8 1.9 2 2.6 4.3 8.5 7.4 9.5 18.6 23.2 24 22.6 23.2 23.9 23.8 24.2 25.2 26.3 31.4 37 45.5 45.6 43.4 40.2 43.7 45.5 48.7 50.5 52.8 57 67 74.9 79.8 84.3 87.4 89.7 92.4 95.4 97.9 100.3 104.4 108.3 111.5 114.1 116.7 119.4 121.9 125.1 128 131 135.5 140.1 144.4 147.9 151.8 155.4 158.5 161.6 164.3 166.2 168.2 169.6 171.2 173.1 174.7 176 177.1 177.7 178.3 178.1 178.2 178.1 177.7 176.8 175.9 174.9 174.3 173.6 173 171.9 171.8 171.6 171.3 170.8 170.4 169.6 169.3 168.8 166.6 165 166.1 166.2 167.8 167.6 169 168.5 156.4 161.8 158.8 153.1 147.3 145.3 142 143.8 145.3 144.1 143.5 142.4 145 146.4 153.7 156.9 158.3 160.3 162.9 164.8 167.1 171.4 173.8 176.4 178.1 180.9 181 181.4 180.1 179.1 178.6 178.2 177.7 177.2 176.7 177.1 177 176.3 176.6 176.2 175.3 172.6 170.6 168.9 167.4 165.5 161.4 160.7 161.3 163.9 166.8 169.4 171.2 173.6
-2.1 -2.1 -2.1 -2.1 -2.1 -2.1 -2.1 -2.1 -2.1 -2.1 -2.1 -2.1 -2.1 -2.1 -2.1 -2.1 -2.1 -2.1 -2.1 -2.1 -2.1 -2.1 -2.1 -2.1 -2.1 -2.1 -2.1 -2.1 -2.1 -2.1 -2.1 -2.1 -2.1 -2.1 -2.1 -2.1 -2.1 -2.1 -2.1 -2.1 -2.1 -2.1 -2.1 -2.1 -2.1 -2.1 -2.1 14.1 13.4 13.2 5.6 0.1 0.1 2.6 3.8 5 11.8 9.1 12 23.3 23.3 22.5 23.4 23.5 23.4 23.6 24.3 24.7 25.6 28.4 36.6 42.5 40.7 37.2 38 41.2 46.1 49.2 50.7 52.3 60.7 73.5 80.2 84.8 87.7 90.2 92.7 95.4 98 100 102.9 105.5 110.1 113.6 116.3 119 121.5 124.4 127.3 130.2 133.3 137.4 142 146.4 150.6 153.5 157.2 161.4 164.2 166.3 168.3 169.8 171.6 173.5 175.5 177 178.3 179.5 180.4 180.5 180.6 180.7 180.5 180.1 179.1 178 177.2 176.5 175.8 175.3 174.9 174.4 173.9 173.5 172.5 172.3 171.2 171.7 171.1 165.6 168.1 168.3 169.2 170.5 172 169.7 162 166.2 165.2 158.2 154.4 153.5 146.9 146.9 147.1 147.4 146.3 146.7 145.9 147.8 147.4 151.3 156.4 158.5 160.7 163.8 165.7 169.7 172.8 175.8 178.2 180.9 181.4 181.9 181 180 179.4 179.2 178.8 178.1 178.4 178.5 178.6 178.6 178.5 178.4 176.9 173.6 172.6 171.2 169.8 167.7 165.7 162.8 162.4 163.5 164.2 166.3 167.7 170
-2.1 -2.1 -2.1 -2.1 -2.1 -2.1 -2.1 -2.1 -2.1 -2.1 -2.1 -2.1 -2.1 -2.1 -2.1 -2.1 -2.1 -2.1 -2.1 -2.1 -2.1 -2.1 -2.1 -2.1 -2.1 -2.1 -2.1 -2.1 -2.1 -2.1 -2.1 -2.1 -2.1 -2.1 -2.1 -2.1 -2.1 -2.1 -2.1 -2.1 -2.1 -2.1 -2.1 -2.1 -2.1 -2.1 -2.1 16.1 18.6 17 9.9 7.5 11.2 4.1 4.6 12.4 18 23.6 11.3 21.9 21.1 14.4 21.3 22.3 22.8 22.9 23.7 24.4 25.1 26.7 32.6 36.2 36.1 35.9 37 39.3 41.6 47.2 49.9 51 54.6 66 77.5 84.7 86.9 89.7 92.5 95.2 97.5 99.5 102 103.5 107.8 112.3 115.3 118.3 120.7 123.4 126.4 129.5 132.2 136.2 139.9 143.8 149 152.5 157.1 160.9 163.9 166.4 168.5 170.2 172.1 174 175.9 177.8 179.3 180.5 181.7 182.9 183.1 183.1 183.1 182.8 182.3 181.1 180.2 179.4 178.7 178.2 177.7 177.1 176.6 176.1 175.6 174.8 174.1 174.3 173.3 173 169.1 170 171.2 173.3 170.9 174.3 163.7 166.8 170.2 166.9 161.1 161.3 153.3 149.5 151 149 148.7 148.4 148.2 149.3 150.7 150.4 154.9 156.6 160.1 162.9 165.2 167 169 172.6 176.5 179.7 180.8 181.2 181.2 181 180.3 180.2 180 179.7 179.7 179.7 179.7 179 178.8 179 177.8 176.1 174 172.5 171.1 169.4 167.9 165.7 162.8 165.2 166.2 165.9 167.7 169.6
-2.1 -2.1 -2.1 -2.1 -2.1 -2.1 -2.1 -2.1 -2.1 -2.1 -2.1 -2.1 -2.1 -2.1 -2.1 -2.1 -2.1 -2.1 -2.1 -2.1 -2.1 -2.1 -2.1 -2.1 -2.1 -2.1 -2.1 -2.1 -2.1 -2.1 -2.1 -2.1 -2.1 -2.1 -2.1 -2.1 -2.1 -2.1 -2.1 -2.1 -2.1 -2.1 -2.1 -2.1 -2.1 -2.1 -2.1 19.5 20.9 20.2 15.6 11.6 18.9 25.8 20.1 20.3 26.8 25.1 23.1 12.4 14.1 20.8 18.1 21.7 21.9 22.4 23.3 24 24 26.2 29.8 33.1 34.8 35.4 35.6 36.2 37.7 48.5 47.6 49.6 52.1 60.6 69.1 79.2 84.9 87.8 89.4 94 96.7 99.1 100.4 102.2 104.7 108.9 112.7 116.1 119.9 122.5 125.5 128.4 130.9 134.7 138.3 141.7 147.1 152.2 156 160.3 163.4 166.2 168.7 170.5 172.3 174.1 175.9 177.7 180 181.4 182.8 184.3 185.3 185.7 185.7 185.5 185.1 184.2 183.3 182.4 181.6 181.1 180.5 179.8 179.3 178.8 178.3 177.7 176.4 176.5 175.6 176.1 173.1 171.9 173.3 173.6 171.6 175.4 174.9 167.6 173.4 172.9 164 167.8 159.1 156.6 154.6 152.7 152.1 151.6 152.1 151.2 153.1 153.5 153.3 155.8 158.1 160.8 163.9 165.5 167 168.8 172.4 176.9 179.6 180.3 180.5 180.6 180.6 180.8 180.9 180.9 180.9 180.8 180.6 179.8 179.3 179 178.9 177.7 175.8 174.1 172.8 170.7 168.9 166 164.5 166.5 166.4 168.1 169.9 171.7
-2.1 -2.1 -2.1 -2.1 -2.1 -2.1 -2.1 -2.1 -2.1 -2.1 -2.1 -2.1 -2.1 -2.1 -2.1 -2.1 -2.1 -2.1 -2.1 -2.1 -2.1 -2.1 -2.1 -2.1 -2.1 -2.1 -2.1 -2.1 -2.1 -2.1 -2.1 -2.1 -2.1 -2.1 -2.1 -2.1 -2.1 -2.1 -2.1 -2.1 -2.1 -2.1 -2.1 -2.1 -2.1 -2.1 19.4 22.8 21.2 20.4 18.5 15.2 14.3 22.6 24.6 24.7 23.9 22.3 22 21.7 21.2 21.1 16.5 21.2 22 22.5 22.8 23.2 23.2 25.1 26.6 31.1 35.8 35.8 34.5 35.1 36.2 43.5 45.8 45.4 49.7 63.3 70.9 77.5 82.8 86.2 90.1 95.6 99 100 101.6 103.1 103.6 106.5 110.7 114.1 117.8 120.1 122.2 126.7 129.5 132.9 136.5 140.1 145.4 151 155.6 159.6 162.9 165.1 168.2 170 171.8 173.6 175.4 178 180.3 182.1 183.9 185.4 186.8 187.6 188.1 188 187.8 187.3 186.4 185.5 184.6 183.9 183.2 182.5 182 181.5 181 180.2 179.5 179.1 177.8 178.4 176.6 174.6 174.8 175.3 174.1 175.4 177.5 169.2 174.2 173.4 171.6 169 165.5 162.9 161.6 159.4 156.9 155.7 154.4 152.8 154.6 154.4 155.8 156.6 156.7 158.6 160.7 163.2 165 166.5 168.4 173 176.8 177.9 179.1 179.2 180 180.6 181 181.3 181.1 181.3 181.2 180.2 180.1 179 179.1 178.6 177.7 176.6 174.9 171.8 169.9 168 165.6 168.6 168 170 171.8 173.5
-2.1 -2.1 -2.1 -2.1 -2.1 -2.1 -2.1 -2.1 -2.1 -2.1 -2.1 -2.1 -2.1 -2.1 -2.1 -2.1 -2.1 -2.1 -2.1 -2.1 -2.1 -2.1 -2.1 -2.1 -2.1 -2.1 -2.1 -2.1 -2.1 -2.1 -2.1 -2.1 -2.1 -2.1 -2.1 -2.1 -2.1 -2.1 -2.1 -2.1 -2.1 -2.1 -2.1 -2.1 -2.1 4.4 23.2 24.5 24.4 20.8 19.7 19.5 15 20.2 22.4 23 21.7 22.2 22.2 22 21.6 21.3 21.6 20.9 21.3 21.5 21.8 22.1 22.8 24.3 26.9 33.1 37 34 32.3 33.8 34.9 41.6 45 44.3 50.3 64.2 72.3 78.9 83.2 84.8 89.8 96 99.7 101.4 102.9 104.1 104.6 106.2 110.5 114.9 117.7 121.3 124 124.8 129.2 131.9 135.4 139.1 143.8 150.1 154.4 158.6 161 164.8 167.5 169.2 171.3 173.1 175.5 178.2 180.4 182.2 184.2 186 187.8 188.9 189.8 189.9 189.9 189.9 189.5 188.7 187.9 187.1 186.3 185.5 184.7 184.2 183.7 182.3 182 181.5 181.1 179.8 179.5 179.9 176.6 175.9 174.7 176.9 178.9 176.2 175.6 176.9 175.4 169.6 168.5 169 165.6 164.4 162.2 159.7 159.9 158.2 157.8 157.1 158.2 159 159.5 159.2 159.4 160.3 163.5 164.4 166 168.1 170.5 173.7 174.8 176 177.1 179.2 180 181.2 181.5 182.4 181.9 181 181.1 180.5 179.9 179.6 178.8 178.6 176.8 173.8 170.3 168.8 167.8 168.8 169.6 170.6 172.1 173.7
-2.1 -2.1 -2.1 -2.1 -2.1 -2.1 -2.1 -2.1 -2.1 -2.1 -2.1 -2.1 -2.1 -2.1 -2.1 -2.1 -2.1 -2.1 -2.1 -2.1 -2.1 -2.1 -2.1 -2.1 -2.1 -2.1 -2.1 -2.1 -2.1 -2.1 -2.1 -2.1 -2.1 -2.1 -2.1 -2.1 -2.1 -2.1 -2.1 -2.1 -2.1 -2.1 -2.1 -2.1 -2.1 13.9 22.4 23.9 23.9 21.6 21.1 20.8 17.1 18.2 20.7 21 21.3 21.8 22.3 22.3 21.9 21.7 21.8 20.2 19.8 22.1 22 21.9 22.5 25 26.7 33.4 32.9 33.3 32.4 34.2 34.5 39.2 41.8 43.4 44.3 61 71.6 79.6 81.3 82.4 90.6 95.6 96.4 100 103.3 105.6 105.8 106.2 109.7 113.2 117.6 121.3 124.8 127.4 129.1 131.8 134.6 138.4 142.5 148.7 153 157.4 160.5 163.4 166.2 168.2 170.3 172.9 175.3 177.6 180 182.2 184.2 186.2 187.7 189.1 190.6 191.8 192.4 192.4 192 191.7 191.2 190.3 189.5 188.7 187.8 187.3 186.1 185.2 185.1 184.9 184.8 183.6 182.3 183.6 183.5 182.6 178.3 176.3 180.9 180.9 180.1 182.4 181.4 174 172 172 169.5 168.4 167.5 165.7 163.3 163.3 161.8 159.7 160.4 161.7 162 160.9 160 162.5 163.5 163.4 164 164.3 166.3 168.2 169.7 171.5 175.2 176.4 177.1 178 181.9 183.3 182.7 182.3 181.5 180.8 180.7 180.1 180.7 180.2 178.9 177.7 174.3 168.9 171.4 171.6 171.5 171.8 172.4 173.5
-2.1 -2.1 -2.1 -2.1 -2.1 -2.1 -2.1 -2.1 -2.1 -2.1 -2.1 -2.1 -2.1 -2.1 -2.1 -2.1 -2.1 -2.1 -2.1 -2.1 -2.1 -2.1 -2.1 -2.1 -2.1 -2.1 -2.1 -2.1 -2.1 -2.1 -2.1 -2.1 -2.1 -2.1 -2.1 -2.1 -2.1 -2.1 -2.1 -2.1 -2.1 -2.1 -2.1 -2.1 -2.1 15.2 23.4 24.7 23.4 22.9 23.9 20.8 19 19.2 20.4 21 20.9 21.4 22 22.5 22.4 22.1 21.8 20.8 20.4 22.2 21.5 22.2 22 24.4 26.3 27.9 28.9 31.2 32.1 33.9 34.7 39.5 42.2 41.9 43.1 65.1 70.2 75.2 76.9 78.2 83.4 86.8 93.4 99.5 102.8 105 105.6 107.1 108.1 112.4 117.8 121 124.3 128.3 129.7 131.4 133.2 136.5 141.3 146.3 151.2 156.5 159.2 161.9 164.1 166 168.4 171.6 174.5 177 179.5 181.8 183.7 186 187.9 189.6 191.2 192.7 193.1 194.2 194.3 194 193.7 193.3 192.7 191.8 190.9 190.4 189 188.1 188 187.9 187.3 186.6 185.7 184.6 185.9 185.2 183.2 177.2 180.7 183.2 184.2 185.9 185.7 179.6 175.6 174.9 172.9 172.6 172.2 170.5 169.2 167.6 165.3 164.1 162.6 163.2 164 163.4 163.1 163.6 165.2 165.7 166.7 166.5 166.9 166.5 167.9 169.3 170.6 171.9 173.1 174.1 176.1 182 182.9 182.8 181.8 181.5 181.7 181.8 181.9 181.3 180.3 178.8 176.5 171.6 173.5 174.1 174.2 174.8 174.3 175.3
-2.1 -2.1 -2.1 -2.1 -2.1 -2.1 -2.1 -2.1 -2.1 -2.1 -2.1 -2.1 -2.1 -2.1 -2.1 -2.1 -2.1 -2.1 -2.1 -2.1 -2.1 -2.1 -2.1 -2.1 -2.1 -2.1 -2.1 -2.1 -2.1 -2.1 -2.1 -2.1 -2.1 -2.1 -2.1 -2.1 -2.1 -2.1 -2.1 -2.1 -2.1 -2.1 -2.1 -2.1 -2.1 7.5 23.5 26.4 24.6 24.5 24.9 21.5 19.7 19.4 21.6 22.1 21.1 21.6 22.2 22.1 21.7 21.3 21.2 20.6 21.4 22 21.9 22 21.7 22.4 23.6 26.1 32.9 32.8 33.4 35.4 34.5 35.6 42.3 41 42.9 52.7 61.9 74.1 75.9 79.1 78.4 80.5 89.6 97.6 101.2 101.4 103.4 105.9 107.1 109.5 116.7 120.5 124.1 128.3 130.6 132.5 134.6 136.4 139.7 144.3 148.8 153.2 156.9 159.8 161.9 163.8 166.1 169.6 172.7 175.2 178.6 181.1 183.9 185.8 187.7 189.5 191.4 193 193.9 195.1 195.7 196 195.7 195.4 195.3 194.9 194.1 193.1 191.9 191.1 191 190.7 189.8 188.9 187.9 188 187.4 188.2 187 183.1 178.8 183.9 186.3 186.3 187.7 180.3 178 180.8 177.3 175 174.7 174.1 173.2 172.1 170 168.7 166.6 165.1 165.5 165.9 164.3 164.3 166.3 167.4 168.9 168.2 167.7 168.8 168.7 168.2 169.1 170.3 171.8 173.2 175.1 176.2 177.3 178.5 181.1 181.5 182.2 182.5 182.9 182.5 181.9 181.1 176.8 175.3 175.7 175.5 176.2 176.4 176.6 177.6
-2.1 -2.1 -2.1 -2.1 -2.1 -2.1 -2.1 -2.1 -2.1 -2.1 -2.1 -2.1 -2.1 -2.1 -2.1 -2.1 -2.1 -2.1 -2.1 -2.1 -2.1 -2.1 -2.1 -2.1 -2.1 -2.1 -2.1 -2.1 -2.1 -2.1 -2.1 -2.1 -2.1 -2.1 -2.1 -2.1 -2.1 -2.1 -2.1 -2.1 -2.1 -2.1 -2.1 -2.1 -2.1 13.9 23.6 26.8 26 27.2 25.7 24.2 21.3 21.2 21.4 21.9 21.8 21.9 21.8 22 22 22 21.5 20.9 21.1 21.9 22.7 22.3 22 23 24.5 26.8 32.4 31.8 32.3 32.8 33.5 34.4 38.6 40.6 45.8 54.9 60.1 70.6 76.7 80.8 75 76.1 84.1 90.7 94.4 94.8 101.9 105 105.9 108.3 114.1 120.3 122 128.9 131.5 133.9 135.4 137 139.4 142.6 146.8 151.2 156 158.6 160.2 161.5 163.9 168.1 170.5 172.9 176.4 179.6 183.1 185.5 187.3 189.2 191.1 192.9 194.5 195.8 197.1 197.6 197.9 197.9 197.7 197.3 196.9 196 194.9 194 193.9 193.2 192.5 191.5 190.4 191 190.5 189.6 190.1 188.8 185.8 182.5 186.4 188.8 189.6 188.8 184.5 179.8 179.5 179.7 177.8 177.2 177.1 176.7 175.1 174.2 171.6 168.8 168 168.3 166.4 164.7 165.9 167.7 169.8 170 169.3 169.7 170.1 170.6 171.1 171 172.3 172.9 173.6 174.7 175.8 176.6 178.8 180.6 182.1 183 183.6 183.8 183.6 182.7 173.4 179.5 179 177.7 177.8 178.2 178.5 180.3
-2.1 -2.1 -2.1 -2.1 -2.1 -2.1 -2.1 -2.1 -2.1 -2.1 -2.1 -2.1 -2.1 -2.1 -2.1 -2.1 -2.1 -2.1 -2.1 -2.1 -2.1 -2.1 -2.1 -2.1 -2.1 -2.1 -2.1 -2.1 -2.1 -2.1 -2.1 -2.1 -2.1 -2.1 -2.1 -2.1 -2.1 -2.1 -2.1 -2.1 -2.1 -2.1 -2.1 -2.1 -2.1 16.4 21.1 25 27 31 27.1 24.3 21.7 21.9 21.8 21.8 22.1 22.1 22.4 22.6 22.8 22.2 22 21.7 21.3 21.6 22.7 22.9 22.9 23.7 24.4 27.4 29 30.4 32 33.8 34.7 33.3 33.5 35.1 46 50.7 55.5 67.5 71.6 71.7 70.5 70.2 74.8 79.1 86.4 90.9 96.7 103.3 103.4 107.3 111.9 116.3 117.6 128.8 132.6 135.1 136.4 137.3 139.4 142 145 149.4 154.2 157.1 158.2 159.3 162.5 165.3 168.4 170.9 174 176.7 181.2 184.5 186.7 188.6 190.5 192.4 194.5 196.2 197.5 198.9 199.5 199.5 199.8 199.7 199.3 198.7 197.8 197 196.5 195.9 195.3 194.4 193.6 193.1 193 192.7 191.9 192.2 191.2 189.3 188.7 190.3 192.3 192.8 190.3 180.6 183.7 187 184.5 180.5 179.5 179.8 178.8 175.8 175 173.5 172.8 170.1 168.5 168.1 167.2 168.7 170.4 171.6 171 169.8 171 171.5 172.2 172.6 172.6 173.6 174.8 175.9 176.7 176.9 178.3 180.1 181.7 183 184.1 184.5 184 183.5 176.1 181.4 181.8 181.8 180.7 182.2 187 185.6
-2.1 -2.1 -2.1 -2.1 -2.1 -2.1 -2.1 -2.1 -2.1 -2.1 -2.1 -2.1 -2.1 -2.1 -2.1 -2.1 -2.1 -2.1 -2.1 -2.1 -2.1 -2.1 -2.1 -2.1 -2.1 -2.1 -2.1 -2.1 -2.1 -2.1 -2.1 -2.1 -2.1 -2.1 -2.1 -2.1 -2.1 -2.1 -2.1 -2.1 -2.1 -2.1 -2.1 -2.1 2.6 8.3 21.9 26.7 27.5 28 26.3 23.7 23 22.7 22.6 22.7 22.2 22.3 22.7 23.1 23.3 23.4 22.6 21.7 21.4 22.1 22.4 22.5 22.7 23.4 24.4 27.7 31.7 32.7 32.1 31.6 32 32.5 32.4 33.7 44 46.5 44.3 51.4 59.9 66.2 70.6 66.9 68.2 76.1 81.4 88 92.5 96.8 101.1 104.6 108 111 113.8 126.4 131.3 134.5 136.6 137.4 139.5 142.1 144.7 147.5 152.1 155.6 156.5 158.3 161.2 163.6 166.5 168.6 171.7 173.9 178.3 182.6 185.4 188 189.9 191.8 193.5 196 197.6 199.3 200 200.1 201 201.4 201.6 201.1 200.5 199.8 199.2 198.6 197.9 197.4 196.8 195.9 196.1 195.6 193.9 193.4 194.5 193 193.9 193.1 193.6 194.4 194.1 187.5 183.7 192.2 189.7 184 182.3 182.2 181 179.5 178.8 177.1 176.7 175.3 175.1 171.5 170.5 169.3 171 172.5 172.6 172.4 171.7 172.5 173.2 174 173.6 175 176.2 177.7 178.5 178.5 179.9 180.5 181.2 182.7 183.8 184.2 183.1 182 176.8 181.7 183.4 182.6 183.4 184.9 186.2 187.6
-2.1 -2.1 -2.1 -2.1 -2.1 -2.1 -2.1 -2.1 -2.1 -2.1 -2.1 -2.1 -2.1 -2.1 -2.1 -2.1 -2.1 -2.1 -2.1 -2.1 -2.1 -2.1 -2.1 -2.1 -2.1 -2.1 -2.1 -2.1 -2.1 -2.1 -2.1 -2.1 -2.1 -2.1 -2.1 -2.1 -2.1 -2.1 -2.1 -2.1 -2.1 -2.1 -2.1 -2.1 -2.1 8.1 21.3 26 31.4 33.1 32.4 25.5 24.4 31.5 23.8 22.7 22.4 22.7 23 23.1 22.8 23.3 23.3 22.3 21.6 22.3 23.2 23.3 22.9 23.3 24.2 24.9 29.9 31.3 32 32.5 31 30.9 30.8 31.4 35.6 40.7 44.9 49.2 54.9 62.5 65.8 63.3 66.1 71.9 80.1 87.6 91 95.1 98.8 103.1 107.1 108.9 110.8 118.8 126.4 132.3 136.8 137 137.9 142.9 145.1 147.4 149.3 153.2 154.6 157 158.9 160.9 163.3 166 169.4 171.4 175.3 179.2 183.7 186.6 188.9 190.7 192.8 195.3 197.4 199.2 200.5 201.1 202 202.7 203.2 203.1 202.6 202.3 201.7 201.1 200.5 199.9 199.4 198.8 198.2 198.2 197.5 196.3 196.9 197.1 196.7 196.8 194.2 196.1 197 193.3 184.4 187.6 190.3 187.6 187.6 185 184.6 183.9 181.9 181.4 180.1 179 178.3 175.8 173.2 172.7 173 173.5 174.2 174.5 173.8 173.8 174.7 175.5 175 176.1 177.4 178.8 180.2 181.3 181.9 182.4 183 182.8 183.7 183.8 183.2 182.6 180.8 181.3 183.1 184.2 184.6 185.5 186.8 188.1
-2.1 -2.1 -2.1 -2.1 -2.1 -2.1 -2.1 -2.1 -2.1 -2.1 -2.1 -2.1 -2.1 -2.1 -2.1 -2.1 -2.1 -2.1 -2.1 -2.1 -2.1 -2.1 -2.1 -2.1 -2.1 -2.1 -2.1 -2.1 -2.1 -2.1 -2.1 -2.1 -2.1 -2.1 -2.1 -2.1 -2.1 -2.1 -2.1 -2.1 -2.1 -2.1 -2.1 -2.1 -2.1 7.5 21.7 26.3 30.4 34 33 26.5 29.9 30.8 26.1 23 22.6 22.9 23.1 22.9 22.8 23.1 23.5 23.1 22 22.9 23.8 24.6 24.2 22.9 23.7 24.2 25.6 30.2 32.8 35.3 30.8 28.7 29.4 30.1 31.2 39.9 45.5 52 55.2 59.8 63.8 56.6 66.4 72.2 77.8 87.7 86.2 93.6 100.4 99 105.3 107 109.3 116.7 120.5 126.2 131.8 135 134.7 141.3 145 147.3 148.8 150.2 152.9 154.7 156.7 158.9 161.2 163.8 166.9 168.9 172 175.2 179.1 184.7 187.7 189.7 192 194.5 196.8 198.5 200.3 202 203 203.9 204.6 205.2 204.9 204.6 204.2 203.6 203.1 202.5 202 200.8 200.3 199.5 199.2 198.9 198.7 198.3 199.2 198.3 196.1 196.4 198.9 196.9 189.9 188.1 189.6 191.4 190.5 189.1 189.5 187.5 185.7 184 182.7 182.4 181.4 180.7 178.2 177 176.4 175.5 176 176.4 175.8 176.1 176.6 177.2 177.2 178.5 180.8 184 183.8 184.4 184.1 184.2 184.3 185.1 184.5 184.1 184.6 183.9 182.9 181.5 183.8 184.8 186 187 188.3 189.4
-2.1 -2.1 -2.1 -2.1 -2.1 -2.1 -2.1 -2.1 -2.1 -2.1 -2.1 -2.1 -2.1 -2.1 -2.1 -2.1 -2.1 -2.1 -2.1 -2.1 -2.1 -2.1 -2.1 -2.1 -2.1 -2.1 -2.1 -2.1 -2.1 -2.1 -2.1 -2.1 -2.1 -2.1 -2.1 -2.1 -2.1 -2.1 -2.1 -2.1 -2.1 -2.1 -2.1 -2.1 5.5 16.9 26.8 30.6 34.1 34.3 30.9 29.2 30.9 31.9 27.5 23.8 23.2 23.2 23.4 23.5 23.5 23.1 23.5 23.4 22.4 23 24.2 24.3 24.1 23.8 24.4 24.5 24.8 26.4 34.2 28.6 27.9 28.9 29.1 29.7 30.9 37.9 45.6 49.5 53.1 54.3 51.1 49.5 58.6 70.8 73.9 77 78.4 90.7 98.6 95.5 100.1 107.5 108 115.2 119.5 121.5 126.9 130.3 129.7 137.1 143.3 146.1 147.9 149.3 151.1 153 155.2 157.5 160 162 164.2 166.9 170.1 172.9 175.9 180 184.5 188.8 191.1 193.5 196 197.9 199.6 201.3 203 204.7 205.5 206.3 206.4 206.4 206.4 206.2 205.7 205.1 204.6 203.6 202.6 202.4 201.8 201.2 200.1 201.5 201.5 200.1 198.2 197.9 199.9 200.5 195.7 188.2 190.7 191.9 191.5 191.4 191.2 191.7 190.2 187.1 185.3 184.4 185 184.7 181.5 182.3 181.9 179.6 177.8 178.3 177.8 178.3 178.4 178.9 180.4 182.6 184.3 185.9 186.2 186.9 187.5 186.7 187.1 186.8 186 185.2 184.3 184.9 184.2 180.5 184.4 185.3 187 188.3 189.3 190.4
-2.1 -2.1 -2.1 -2.1 -2.1 -2.1 -2.1 -2.1 -2.1 -2.1 -2.1 -2.1 -2.1 -2.1 -2.1 -2.1 -2.1 -2.1 -2.1 -2.1 -2.1 -2.1 -2.1 -2.1 -2.1 -2.1 -2.1 -2.1 -2.1 -2.1 -2.1 -2.1 -2.1 -2.1 -2.1 -2.1 -2.1 -2.1 -2.1 -2.1 -2.1 -2.1 -2.1 -2.1 13.4 19.3 23.9 29.2 32.8 34.5 32.9 29.8 29.2 31.6 28.6 24.5 23.8 23.2 23.9 23.9 23.7 23.8 23.7 23.6 23.1 23.3 24.4 24.1 23.7 23.9 24.4 25.8 25.6 25.6 25.2 26.2 26.3 27.6 28.7 29.3 29.7 33.1 41.6 43 43.3 43.1 39.3 46.8 52.3 66.4 68.9 70.5 76 84.6 90 94.6 100.4 104.9 105.7 113 118 121.2 122.8 126.2 125.9 133.5 141 143.4 146.2 148.3 149.7 151.4 154.3 156.7 159 161.2 163.4 165.7 168.1 170.6 173.4 176.1 180.6 185.3 189.1 191.9 194.6 197.3 198.9 200.5 202.1 203.7 206 206.9 207.9 207.9 208.1 208.1 207.7 207.4 207 205.9 204.3 205 204.1 204.3 203.8 203.9 202.3 203.4 201.8 201 201 198.6 195.4 192.7 193.9 194.7 193.8 193.4 193 193.3 193.2 190.8 188.9 188.2 187.5 187.4 185.9 185.7 186.1 183.7 181.9 181.8 181.2 181.4 183.3 182.3 186.6 187 186.6 188.4 189.3 189.6 189.6 188.7 187.5 188.7 187.2 187.1 185.6 184.4 184.5 182.6 183.1 185.8 187.9 189.7 190.4 191.4
-2.1 -2.1 -2.1 -2.1 -2.1 -2.1 -2.1 -2.1 -2.1 -2.1 -2.1 -2.1 -2.1 -2.1 -2.1 -2.1 -2.1 -2.1 -2.1 -2.1 -2.1 -2.1 -2.1 -2.1 -2.1 -2.1 -2.1 -2.1 -2.1 -2.1 -2.1 -2.1 -2.1 -2.1 -2.1 -2.1 -2.1 -2.1 -2.1 -2.1 -2.1 -2.1 -2.1 -2.1 18.9 23.4 23.6 26 31.4 32.9 31.8 31.4 30.9 29.1 26.3 24.9 24.2 23.7 23.8 24.4 24.3 24.2 24.1 24 24 24 25.7 24.3 23.9 24.3 24.7 25.8 26 26.1 26.5 26.5 26.8 27.3 28.3 29 29.6 29.9 31 31.8 34 35.9 43 53.1 54.1 63.6 67.3 70.5 74.1 81.4 87.6 96.4 96.3 101.4 101.6 108.5 112.2 115.1 116.8 119.7 122.4 131 136.8 141 143.9 145.6 147.4 150.5 153.1 155.1 157.9 160.5 162.7 165 167.5 170 171.7 173.4 176.7 181 184.7 188.6 193.1 195.8 197.7 199.3 200.9 202.9 205.2 207.1 208.3 209.6 209.8 210 209.7 209.3 209.1 208.5 207.7 207.1 206.9 206.9 206.4 206.1 205.3 205.2 204.1 203.5 202.9 200.3 199.6 197.3 194.4 196.7 196.3 196.5 195.7 195.1 194.9 193.9 191.7 191 191.4 189.8 189.5 189.5 189.4 188.9 186.6 186.2 186.1 186.9 187.9 188.8 191.8 190.6 190.5 191.1 192.4 191.9 191.7 190.1 189 188.8 188.8 188.2 186.8 185.8 185.9 185.1 183.4 185.2 188.8 190.9 192 192.4
-2.1 -2.1 -2.1 -2.1 -2.1 -2.1 -2.1 -2.1 -2.1 -2.1 -2.1 -2.1 -2.1 -2.1 -2.1 -2.1 -2.1 -2.1 -2.1 -2.1 -2.1 -2.1 -2.1 -2.1 -2.1 -2.1 -2.1 -2.1 -2.1 -2.1 -2.1 -2.1 -2.1 -2.1 -2.1 -2.1 -2.1 -2.1 -2.1 -2.1 -2.1 -2.1 -2.1 -2.1 17.1 21.5 23 25.6 34.7 38.1 36.5 33.3 33.4 34.5 29 26 24.7 24.3 23.9 24.7 24.2 24.1 24.1 24.1 23.9 24.1 25.6 24.7 24.2 24.8 26.6 27.5 26.7 26.3 27.1 27.5 27.9 28.2 28.4 28.6 28.8 29.7 30.1 31.7 34.2 36.5 43.9 52.5 54.2 66.3 68.2 74.2 77.1 82 88.4 91.1 94.7 94.7 95.6 103.1 111.1 112 113.8 116.8 120.1 128.8 132.6 138 140.5 142.9 144.2 147.2 151 153.3 155.9 158.6 161.6 164.4 166.9 169.2 170.9 172.9 176 179.6 182.8 186 189.1 194.2 196.4 198 199.8 202.1 204.4 206.6 208.4 210 210.7 211.1 211.7 211.3 211.2 211 210.4 209.8 209.3 208.8 208.9 208 207.5 208 206.7 206.7 205 201.6 201.2 202.3 197 200.9 200.1 198.4 198.4 198.4 199 196.1 194.6 193.8 194.3 194.6 193.8 193.3 191.8 192.4 191.2 190.8 189.6 190.9 193.5 194.8 195.2 196.2 194 192.7 194 194 193 191.5 191 191.2 190.9 190 188.8 187.7 187.3 187.6 187.2 186.7 189.1 191.5 192 193.1
-2.1 -2.1 -2.1 -2.1 -2.1 -2.1 -2.1 -2.1 -2.1 -2.1 -2.1 -2.1 -2.1 -2.1 -2.1 -2.1 -2.1 -2.1 -2.1 -2.1 -2.1 -2.1 -2.1 -2.1 -2.1 -2.1 -2.1 -2.1 -2.1 -2.1 -2.1 -2.1 -2.1 -2.1 -2.1 -2.1 -2.1 -2.1 -2.1 -2.1 -2.1 -2.1 -2.1 -2.1 5.2 19.6 24.6 29.5 34.6 37.7 40.4 34.6 33.8 37.8 37.5 34.1 25.3 24.8 24.3 24.9 24.4 24 23.9 24 23.6 23.5 25.8 23.9 23.9 24.6 25 25.8 26.5 26.4 26.7 26.4 28 28.2 28.4 28.6 28.9 29.7 32.5 32.9 33 36.4 43.8 57.3 55.8 62.1 69 72.3 73.8 82.7 89.4 90.4 91.8 94.2 90 93 104.8 107.5 112.1 115.7 116.6 125.8 129.3 133.4 137.7 139.8 140.5 140.9 145.6 150 152.8 156 159.8 163.3 166.2 168.6 170.6 173.2 176.4 179.1 181.9 184.8 187.7 191.4 195.1 196.8 199 201.3 203.8 206.3 208.2 210.3 211.4 212.2 212.9 213.4 213.4 213.3 212.8 212.2 211.7 211.2 210.7 210.6 210.6 210.1 209.7 209 208.3 203.8 202.4 203.1 197.9 202.7 206 201.7 200 200.4 202.3 198 198 196.6 197 197 196.1 197 196.3 196.9 197.7 195.8 195.7 196.2 196.4 197.3 197.5 199.6 198.9 197.4 196.6 195.9 194.9 193.2 193 192.9 192.4 191.8 190.8 188.8 189.2 189.8 190 186.5 189.4 191.7 192.3 192.3
-2.1 -2.1 -2.1 -2.1 -2.1 -2.1 -2.1 -2.1 -2.1 -2.1 -2.1 -2.1 -2.1 -2.1 -2.1 -2.1 -2.1 -2.1 -2.1 -2.1 -2.1 -2.1 -2.1 -2.1 -2.1 -2.1 -2.1 -2.1 -2.1 -2.1 -2.1 -2.1 -2.1 -2.1 -2.1 -2.1 -2.1 -2.1 -2.1 -2.1 -2.1 -2.1 -2.1 -2.1 5.1 20.1 27.5 33.5 33.5 35.2 38.1 35.3 34.4 35.4 37.6 37.4 26.2 25 24.8 25.2 24.8 24.3 23.7 23.5 23.5 23.5 23.4 24.3 24.9 25.6 26 26.1 26.1 26.4 26.9 27.5 27.9 28.2 28.4 28.6 28.9 29.1 31 31.6 33.6 35 39.7 49 55.7 65.3 67.9 74.4 78.1 85.8 89.8 89.3 87.6 87.1 90 91.3 96.7 103.8 109.9 115.1 115.9 121.9 126.8 130.3 134.2 135.9 135.7 139 142 145.9 149.8 153.3 157.3 160.8 163.9 166.8 169.2 171.6 175.3 178.3 181.1 184 186.9 190.4 193.4 196.1 198.7 201.2 203.7 205.8 207.4 209.8 212.1 213.2 214 214.6 215.1 215.6 215.2 214.7 214.1 213.6 213.3 213.6 212.8 211.8 210.8 211 210 207.5 204.3 202.8 203 202.4 210.4 207.7 202.6 202.2 202.2 201.1 200.2 199.1 199.2 198.6 198.9 200.3 202 202.2 202.9 202.3 201.5 201.1 201.2 200.3 199.7 199.5 199.3 200.3 199.4 200.3 199.7 198.6 196.5 194.4 193.8 193.3 192.4 190.4 190.7 190.9 190.4 189.5 191 192.6 193.4 193.7
-2.1 -2.1 -2.1 -2.1 -2.1 -2.1 -2.1 -2.1 -2.1 -2.1 -2.1 -2.1 -2.1 -2.1 -2.1 -2.1 -2.1 -2.1 -2.1 -2.1 -2.1 -2.1 -2.1 -2.1 -2.1 -2.1 -2.1 -2.1 -2.1 -2.1 -2.1 -2.1 -2.1 -2.1 -2.1 -2.1 -2.1 -2.1 -2.1 -2.1 -2.1 -2.1 -2.1 -2.1 -2.1 22.9 25.3 30.4 32.1 32.3 36.6 37.2 36.5 32 35 36.6 25.9 25.4 25.2 24.9 25.2 24.6 21.8 19.2 21.7 22.8 25 25.1 25.6 25.6 25.9 26.2 27.1 27.1 27.2 27.7 27.7 28.5 29.4 29.5 29.6 29.8 30.4 30.6 32.1 35.5 46 51.7 54.9 59.8 65.9 77.7 85.5 84.1 90.2 84 89.2 91.5 89 91.4 93.7 95.7 105.6 113.8 112.9 117.7 124.2 129.2 132.2 133.4 131.1 135.1 139.4 142.6 146.8 150.1 153.1 158.7 162.5 165.8 169.4 172.6 175.5 178.1 180.8 183.2 186.3 189.6 192.6 195.7 198.5 201 203.4 205.2 206.9 209 211.5 213.1 214.1 214.7 215.4 216.7 217.4 217.1 216.5 216 216 215.6 215.2 214.3 213.1 212.6 212.7 211.3 211.2 204.5 205.9 201.8 204.9 210 208.6 204.1 204.8 203.7 203.2 203.3 201.5 200.6 201 202.9 204.4 207.4 207 206.3 207.1 207.2 206.8 206.4 204.7 203.4 202.4 202.9 203.1 205.8 206.9 206.4 200.9 201.6 197.2 195.7 194.3 193.5 193.1 193.7 192.3 191.4 191.5 193.4 194.3 195.2
-2.1 -2.1 -2.1 -2.1 -2.1 -2.1 -2.1 -2.1 -2.1 -2.1 -2.1 -2.1 -2.1 -2.1 -2.1 -2.1 -2.1 -2.1 -2.1 -2.1 -2.1 -2.1 -2.1 -2.1 -2.1 -2.1 -2.1 -2.1 -2.1 -2.1 -2.1 -2.1 -2.1 -2.1 -2.1 -2.1 -2.1 -2.1 -2.1 -2.1 -2.1 -2.1 -2.1 -2.1 13.2 18.7 21.1 25.7 30.1 32.6 38.5 37.1 37.1 31.1 33.4 31.5 26.9 26.8 25.7 25.2 25.9 17.2 11.7 10.6 12.1 20.9 21.6 22.4 26.1 25 24.9 26.6 27.2 27 26.9 27.6 27.4 28.1 29 30 30.5 30.4 31.2 30.6 32.2 33.6 46.6 56.5 56 59.2 70 80.7 87.8 81.5 88 86 90.8 92.9 92 90 92.4 93.7 98.8 108.4 107.7 115 121.6 125.2 127.4 128 125.2 129.9 137 139.7 142.3 144.9 151.5 156.3 161.7 164.9 168.7 172.2 175.5 178.7 182.1 184.1 186.6 189.2 190.9 195.2 197.6 200.7 202.8 204.7 206.3 208.3 210.9 213.2 214.3 215.3 216.6 218.5 219.1 219 218.8 218.4 218 217.3 217.2 216.7 215.8 215.9 215.7 213.9 214.4 212.6 208.9 209 204.8 210.5 215 212.7 206.8 206.9 206.9 206.4 205 204.1 203.5 205.7 208.3 209.7 209.7 210.1 211.1 212.2 211.8 211 211 210.2 209.5 207.9 208.8 209.9 210.8 209.3 209.3 209 205.5 202.5 198.3 197.9 195.7 194.8 195.2 193.8 191.3 194.9 195.4 196.5
-2.1 -2.1 -2.1 -2.1 -2.1 -2.1 -2.1 -2.1 -2.1 -2.1 -2.1 -2.1 -2.1 -2.1 -2.1 -2.1 -2.1 -2.1 -2.1 -2.1 -2.1 -2.1 -2.1 -2.1 -2.1 -2.1 -2.1 -2.1 -2.1 -2.1 -2.1 -2.1 -2.1 -2.1 -2.1 -2.1 -2.1 -2.1 -2.1 -2.1 -2.1 -2.1 -2.1 -2.1 5.5 17.7 20 27 28.6 32.6 36.6 36.2 33.9 30.9 30.6 31.7 28.3 28.1 24.3 20.4 10.3 5 2.5 2.5 2.6 6.6 10.7 13.4 16.6 18.3 16.6 23.3 26 27.1 26.6 26.9 27.4 27.6 28.6 29.6 30.6 30.5 32.5 30.6 32.9 33.6 38.6 52.5 57.6 60.6 71.5 79.6 79.2 80.7 80.9 88.6 91.5 93.2 93.1 95.1 91.7 92.8 93.5 98.2 98.9 112.5 118.7 118.8 119.6 119.7 120.3 125.9 131 135.1 138.9 142.5 148.7 153.6 159.4 164.2 167.4 171.8 175.6 178.9 182.1 184.6 187.7 190 192.1 194.2 196.2 198.9 201.4 203.4 205.2 206.9 210 213 215.3 216.5 218.4 220.4 220.9 220.7 220.6 220.4 219.9 218.8 218.6 218.7 217.1 217.8 217.9 216.1 216.2 216 215 213.7 210.9 212.5 217 218 215.9 211.9 208.6 208.8 207.5 206.2 207 208.1 210.5 211.4 212.8 213.4 214.9 216.9 216.6 216.3 216 215 214.9 214.2 214.4 213.4 213.2 213.5 213.7 213.2 211.3 209.8 203.8 203.2 201.8 199.9 198.7 195.2 192.1 196 196.2 198
-2.1 -2.1 -2.1 -2.1 -2.1 -2.1 -2.1 -2.1 -2.1 -2.1 -2.1 -2.1 -2.1 -2.1 -2.1 -2.1 -2.1 -2.1 -2.1 -2.1 -2.1 -2.1 -2.1 -2.1 -2.1 -2.1 -2.1 -2.1 -2.1 -2.1 -2.1 -2.1 -2.1 -2.1 -2.1 -2.1 -2.1 -2.1 -2.1 -2.1 -2.1 -2.1 -2.1 -2.1 11.1 18.3 19.9 22.5 26.6 32.8 31.5 31.5 32.2 30.1 28.6 25.2 22.4 20.4 19.3 8.7 2.4 1.6 0.6 0.8 1.1 1.8 2.6 8 9.4 10.5 12.7 16.7 20.9 25.2 26.1 26.9 27.6 27.8 28.9 29.8 30.5 30.5 30.5 31.1 32.6 34.4 35.5 41 52.4 67 73.5 72.5 75.8 77.4 85.7 88.6 91.7 93.4 94.5 98.3 97.6 92.1 92.9 93.6 96.1 110.9 115.8 116.6 117.3 119.2 117.4 123.7 128.9 131.7 135 140.1 144.1 149.1 156.9 162.2 166.2 170.7 175.1 178.9 182.3 185.4 187.2 189.7 192.2 195.3 198.5 199.8 199.1 200.9 202.5 205 207.9 212.3 214.7 218 220 221.8 222.6 222.4 222.2 222.1 222 221.6 221 219.9 219.4 219.9 219.9 219.9 218.3 218.3 217.8 217.2 214.8 213.6 216.1 219.2 219.9 219.4 217.1 213.9 209.1 209 210 211 211.8 212.9 214.9 216.5 218.6 219.1 220.2 223.1 222.3 222.4 220.4 218.1 219.3 218.8 217.8 217 216.2 215.7 213.9 210.9 208.9 208.4 207.2 205.6 202.7 200.4 193.8 195.6 196.8 198.7
-2.1 -2.1 -2.1 -2.1 -2.1 -2.1 -2.1 -2.1 -2.1 -2.1 -2.1 -2.1 -2.1 -2.1 -2.1 -2.1 -2.1 -2.1 -2.1 -2.1 -2.1 -2.1 -2.1 -2.1 -2.1 -2.1 -2.1 -2.1 -2.1 -2.1 -2.1 -2.1 -2.1 -2.1 -2.1 -2.1 -2.1 -2.1 -2.1 -2.1 -2.1 -2.1 -2.1 -2.1 11.3 17 18.9 22.2 25.2 28.1 28.3 30 28.5 26.1 24 21.8 18.6 17.2 8.6 2.3 -2.1 -2.1 -2.1 -0.9 -0.3 0.4 1.2 2.1 6 8.9 11.8 11.5 14.4 16.9 21.7 26.6 28 28.1 29.4 30.1 30.5 31.2 31.7 31.7 33.5 34.6 36.5 47.2 46.4 63.9 67.3 72.5 78.6 80.1 84.6 84.6 91.8 93.5 97.8 102.2 103.6 93.8 92.4 93.3 96.5 106.5 113.5 115.5 117.3 118 115 121.8 127 129.2 133.8 138.7 142.4 147.4 153.9 159 164 169.6 173.6 177.8 181.7 184.7 186.9 191 195.6 200.6 202.3 204.6 206.7 208.2 209.8 210.4 211.7 213.6 213.9 217.1 220.4 223.2 224 224.1 223.9 223.7 223.6 223.5 222.2 221.5 221.2 222.1 222.1 221.7 221.3 221 219.2 219 218.3 216.8 215.5 218.1 219.1 221.4 222.5 222.2 215.2 212.3 212.9 213.2 213.1 213.6 215.4 218.6 220.1 221 223.1 225 228.2 228.6 226.5 223.5 222.8 221.8 221.3 220.1 219.4 219.4 217.6 214.5 212.8 212.1 210.7 208.4 204.2 202.3 198.5 195.3 197.6 199.1
-2.1 -2.1 -2.1 -2.1 -2.1 -2.1 -2.1 -2.1 -2.1 -2.1 -2.1 -2.1 -2.1 -2.1 -2.1 -2.1 -2.1 -2.1 -2.1 -2.1 -2.1 -2.1 -2.1 -2.1 -2.1 -2.1 -2.1 -2.1 -2.1 -2.1 -2.1 -2.1 -2.1 -2.1 -2.1 -2.1 -2.1 -2.1 -2.1 -2.1 -2.1 -2.1 -2.1 -2.1 -2.1 4.2 8.1 20.6 25 27.9 28.2 28.4 23.6 20.3 20 20.8 7.5 7.3 4.6 -2.1 -2.1 -2.1 -2.1 -2.1 -2.1 -1.1 -0.2 0.8 1.7 2.6 10.2 10.6 10.6 11.5 15.4 18.4 25.7 29.7 30.1 30.8 32.2 33.2 35.4 30.3 32.1 36.2 34.7 35.6 38 55.9 64.3 61.6 75.3 84.8 85.5 85.2 93.3 98.2 103 105.7 106 106.2 92.9 93.9 95.5 105.8 110.7 113.1 115.3 113.8 113.5 120.1 125.1 127.1 132.2 137.2 141 145.9 150.9 156 160.9 165.2 170.5 175.6 181.5 185.5 190.4 195.3 201.5 204.5 206.7 210.3 212.3 213.3 214.2 214.7 214.8 216.8 218.2 218.8 221.8 224.5 225.1 225.5 225.6 225.4 225.3 225.2 224.9 224.5 223.3 223.2 223.1 222.9 223.3 223.2 222.8 221 220.4 219.2 216.7 216.2 218.8 223.3 224.4 224.2 222.3 217.2 217.2 216.5 216.6 216.6 217.3 218.8 220.8 222.7 224.3 225.9 228.1 230.3 231.2 228.6 226.7 223.9 223.2 222.2 222 222.6 221 218.2 216.8 214.5 213.5 210.9 207.4 205 203.8 201.4 197.7 197.4
-2.1 -2.1 -2.1 -2.1 -2.1 -2.1 -2.1 -2.1 -2.1 -2.1 -2.1 -2.1 -2.1 -2.1 -2.1 -2.1 -2.1 -2.1 -2.1 -2.1 -2.1 -2.1 -2.1 -2.1 -2.1 -2.1 -2.1 -2.1 -2.1 -2.1 -2.1 -2.1 -2.1 -2.1 -2.1 -2.1 -2.1 -2.1 -2.1 -2.1 -2.1 -2.1 -2.1 -2.1 -2.1 -2.1 -2.1 18.4 25.9 27.5 27.5 25.9 20 14.6 6.5 -2.1 -2.1 -2.1 -2.1 -2.1 -2.1 -2.1 -2.1 -2.1 -2.1 -2.1 -2.1 -0.7 0.3 1.3 2.3 9.3 8.4 9.9 12.2 13 17 22.2 27 32.2 34.1 36.3 37.2 32 24.5 25.2 31.7 36.7 35.2 46.3 55.9 58 77.6 82.2 84 86.5 96.1 103.2 106.9 108.9 108.9 102.2 94.5 94.2 95.3 101.9 110.9 108.5 108.3 108 111.6 117.8 121.9 127.3 129.5 135 139 142.9 148.4 153.9 157.6 162.8 172.7 179.4 184.2 189.2 194.6 199.4 205 207.3 209.2 212.5 214.7 217.1 217.3 217.8 217.6 219.9 220.9 221.8 223.4 225.5 226.2 226.7 227 227.1 226.9 226.7 226.5 226.4 225.6 225.5 224.7 225.2 225.4 225.3 223.9 223.6 222.8 220.2 220.5 218.1 219.4 223.5 225.4 226.9 226.1 224.7 221.4 219.1 219.1 220.5 219.6 218.6 220.8 223.6 225.1 227.2 228.9 230.4 232.2 232.2 229.6 226.6 225.1 224.1 223.8 223.3 222.9 221.3 220.1 218.1 215.7 214.2 212 209.6 206.5 205.1 200.8 199.7
-2.1 -2.1 -2.1 -2.1 -2.1 -2.1 -2.1 -2.1 -2.1 -2.1 -2.1 -2.1 -2.1 -2.1 -2.1 -2.1 -2.1 -2.1 -2.1 -2.1 -2.1 -2.1 -2.1 -2.1 -2.1 -2.1 -2.1 -2.1 -2.1 -2.1 -2.1 -2.1 -2.1 -2.1 -2.1 -2.1 -2.1 -2.1 -2.1 -2.1 -2.1 -2.1 -2.1 -2.1 -2.1 -2.1 -2.1 4.7 20.1 22.6 23.6 20.6 17.1 -2.1 -2.1 -2.1 -2.1 -2.1 -2.1 -2.1 -2.1 -2.1 -2.1 -2.1 -2.1 -2.1 -2.1 -2.1 -0.9 0.2 1.3 2.5 10.4 9.8 15 11.7 13 16.9 22.9 30.5 35.7 34.8 37.4 31.4 20.2 19.3 20.7 27.6 31.1 33.4 46.9 57.9 66.4 77.3 83.9 87.7 96.7 104 111.1 113.5 111.1 105.2 95 94.8 95 101.2 109.5 101.6 104.3 109.2 111.2 116.5 122.1 125 127.9 134.8 137.5 140 144.9 149 156.5 166.4 174.2 182.5 187.9 192.1 197.4 201.7 206.2 208.4 210.6 212.5 214.7 216.4 220.2 219.6 219.5 221.1 223.1 224.3 225.5 226.6 227.4 227.7 228.1 228.5 228.6 228.3 228.1 228 228.2 227.2 226.1 226.3 226.4 226.3 226.1 225 223.5 223 223.8 220.7 219.8 223.6 227.9 228.5 228.6 229.2 227.8 225 224.6 222.2 221.1 220.5 221.4 224.1 226.7 229.4 230.5 232.2 233.6 233.7 232.8 230.6 227.3 225.4 225 224.1 223.4 223.6 221.8 220.6 219 217.4 215.4 213.1 209.2 206.1 204 201.5
-2.1 -2.1 -2.1 -2.1 -2.1 -2.1 -2.1 -2.1 -2.1 -2.1 -2.1 -2.1 -2.1 -2.1 -2.1 -2.1 -2.1 -2.1 -2.1 -2.1 -2.1 -2.1 -2.1 -2.1 -2.1 -2.1 -2.1 -2.1 -2.1 -2.1 -2.1 -2.1 -2.1 -2.1 -2.1 -2.1 -2.1 -2.1 -2.1 -2.1 -2.1 -2.1 -2.1 -2.1 -2.1 -2.1 -2.1 -2.1 14.9 19.3 18.3 11.4 -2.1 -2.1 -2.1 -2.1 -2.1 -2.1 -2.1 -2.1 -2.1 -2.1 -2.1 -2.1 -2.1 -2.1 -2.1 -2.1 -2.1 -0.9 0.3 1.7 4.9 8.2 5.9 8.1 10 11.4 20.1 26.7 34.4 31.3 32.7 22.8 19.1 17.4 17.9 20.7 25.1 32.8 47 57.6 65.2 79.5 84.6 90 101.3 107.2 113.7 116.3 109 112.8 98.4 95.8 95.1 100.8 106 109.4 110.4 111.8 115.6 118.6 118.2 122.3 126.6 130.1 129.8 131.2 141.3 150.7 158.6 166.5 174.4 181.3 187.1 192.9 198.5 200.7 206.6 209.5 212.1 213.7 215.5 216.9 218.3 219 220.2 222.9 224.4 225.4 227.5 228 228.3 228.7 229.1 229.6 230 230.1 229.8 229.9 229.9 229.1 228.6 228.1 228 226.7 226.8 226.5 226.1 224.9 224.7 223.2 220.8 223.9 227.8 230 230.4 231.5 232 231.4 228.3 227 224.3 225 224.4 226.3 228.7 231.3 233.6 234.7 234.7 234.7 234.5 233.9 232.5 230.6 229.3 225.8 224.6 224.7 224.1 223.4 222.8 221.1 218.4 215.5 209.4 209 207.1 203.7
-2.1 -2.1 -2.1 -2.1 -2.1 -2.1 -2.1 -2.1 -2.1 -2.1 -2.1 -2.1 -2.1 -2.1 -2.1 -2.1 -2.1 -2.1 -2.1 -2.1 -2.1 -2.1 -2.1 -2.1 -2.1 -2.1 -2.1 -2.1 -2.1 -2.1 -2.1 -2.1 -2.1 -2.1 -2.1 -2.1 -2.1 -2.1 -2.1 -2.1 -2.1 -2.1 -2.1 -2.1 -2.1 -2.1 -2.1 -2.1 7.8 6.5 10 -2.1 -2.1 -2.1 -2.1 -2.1 -2.1 -2.1 -2.1 -2.1 -2.1 -2.1 -2.1 -2.1 -2.1 -2.1 -2.1 -2.1 -2.1 -2.1 -0.5 1.7 2.6 2.5 2.4 2.3 3.4 5.9 13.8 19.2 27.6 27.4 20.9 19.4 16.6 16.1 18.2 20.4 22.8 31.2 43.3 56.5 62 74.4 84.9 93.2 103.5 109.3 112.5 113.4 111.9 114.9 102.8 99 96.5 97.9 108.9 113.6 114 112.1 115.7 114.6 114.9 117.3 125.1 124.8 124.5 133.4 142.9 150 155 164.7 172.2 178.5 184.6 190 194.1 200.1 206.4 209.5 212.9 215.1 216.7 217.9 218.2 218.9 219.7 224.7 225.8 226.1 227.8 228.5 229.2 229.6 230.1 230.6 231 231.4 231.5 231 231.1 231 230 229 228.7 228.9 229.3 228.9 228 226.6 226.4 224.9 221.2 224.1 228.2 230.6 232.4 233.8 234.4 235 234.1 232.5 230.8 228.5 227.4 228.5 230.1 232.6 234.6 236.6 235.7 235.1 234.5 234.7 234.7 235.1 233.6 230.5 227.2 226.6 225 224.6 224 224.1 222.5 219.5 216.7 214.1 211.6 207.2
-2.1 -2.1 -2.1 -2.1 -2.1 -2.1 -2.1 -2.1 -2.1 -2.1 -2.1 -2.1 -2.1 -2.1 -2.1 -2.1 -2.1 -2.1 -2.1 -2.1 -2.1 -2.1 -2.1 -2.1 -2.1 -2.1 -2.1 -2.1 -2.1 -2.1 -2.1 -2.1 -2.1 -2.1 -2.1 -2.1 -2.1 -2.1 -2.1 -2.1 -2.1 -2.1 -2.1 -2.1 -2.1 -2.1 -2.1 -2.1 -2.1 -1.3 -2.1 -2.1 -2.1 -2.1 -2.1 -2.1 -2.1 -2.1 -2.1 -2.1 -2.1 -2.1 -2.1 -2.1 -2.1 -2.1 -2.1 -2.1 -2.1 -2.1 -2.1 3.2 2.1 0.8 0.7 0.5 0.6 1 2.1 13.4 17.6 18.9 16.7 15.4 16.2 17.5 18.9 24.1 23.9 23.4 31.8 46.4 55.9 71.5 84.7 93.6 103.3 111.7 113.6 113.2 115.2 116 109.7 106.2 96.6 96.1 108.9 116.1 113.2 112.8 113.5 114.3 112.5 112.7 114.6 114.4 125.7 137.6 141 147 151.6 162.8 170.1 176 179.6 183.8 190.3 197.1 202.5 207.4 212.4 216.6 217.4 217.7 218.1 218.8 219.6 223.7 227.2 226.5 227.5 228.1 228.8 229.4 229.9 231.4 231.9 232.3 232.3 232.3 232.3 232.3 232.1 231.6 231.3 230.9 231.2 230.9 229.4 228 227.9 226.7 224 223 228.3 231 232.8 234.8 236.7 236.4 237.5 238 236.1 234.7 232.9 231.1 231.3 233.7 235.2 236 236.7 236.9 236.7 236.9 235.7 236.3 235.2 234 229.9 227.5 225.9 225.1 224.7 225.3 224.6 219.6 220.7 219.1 215.5 210.3
-2.1 -2.1 -2.1 -2.1 -2.1 -2.1 -2.1 -2.1 -2.1 -2.1 -2.1 -2.1 -2.1 -2.1 -2.1 -2.1 -2.1 -2.1 -2.1 -2.1 -2.1 -2.1 -2.1 -2.1 -2.1 -2.1 -2.1 -2.1 -2.1 -2.1 -2.1 -2.1 -2.1 -2.1 -2.1 -2.1 -2.1 -2.1 -2.1 -2.1 -2.1 -2.1 -2.1 -2.1 -2.1 -2.1 -2.1 -2.1 -2.1 -2.1 -2.1 -2.1 -2.1 -2.1 -2.1 -2.1 -2.1 -2.1 -2.1 -2.1 -2.1 -2.1 -2.1 -2.1 -2.1 -2.1 -2.1 -2.1 -2.1 -2.1 -2.1 5.4 -2.1 -0.9 -0.9 -2.1 -2.1 -2.1 -2.1 2.3 11 14.4 12.6 13.7 16.3 19.2 19.6 23.4 23.1 23.1 23.6 33.1 56.5 69.5 83.9 92.9 104.1 110.8 112.8 113.5 117.8 112.6 111.6 113.9 97.4 96.1 109.5 115.7 113.8 113.3 112.1 110.6 108.2 106.9 108.3 114 125.8 133 139.6 144 148.8 158.1 166.6 171.5 174.9 179.7 185.5 191.7 197.4 203.9 211.2 215.5 217.3 217.5 218 218.8 220 223.5 226.2 227 227.6 227.7 228.4 229 230.5 232.1 232.6 233 233.4 233.3 233.3 233.4 233.7 233.3 233.1 233.5 233.3 232.8 231.9 230.7 230 229.7 227.2 227.2 228.1 231.8 234.2 235.9 237.9 240 240.3 240.9 240.3 239.1 237.8 236.9 236.5 234.7 236.5 238.5 238.9 239 238.5 238.4 238.2 238 237.9 235.3 233.5 230.2 227.2 225.7 226.1 225.7 223.4 225.3 224.4 222.8 218.9 214.3
-2.1 -2.1 -2.1 -2.1 -2.1 -2.1 -2.1 -2.1 -2.1 -2.1 -2.1 -2.1 -2.1 -2.1 -2.1 -2.1 -2.1 -2.1 -2.1 -2.1 -2.1 -2.1 -2.1 -2.1 -2.1 -2.1 -2.1 -2.1 -2.1 -2.1 -2.1 -2.1 -2.1 -2.1 -2.1 -2.1 -2.1 -2.1 -2.1 -2.1 -2.1 -2.1 -2.1 -2.1 -2.1 -2.1 -2.1 -2.1 -2.1 -2.1 -2.1 -2.1 -2.1 -2.1 -2.1 -2.1 -2.1 -2.1 -2.1 -2.1 -2.1 -2.1 -2.1 -2.1 -2.1 -2.1 -2.1 -2.1 -2.1 -2.1 -2.1 -2.1 -2.1 -2.1 -2.1 -2.1 -2.1 -2.1 -2.1 -2.1 -2.1 5.4 11.6 14.3 16.1 20.9 24.6 20.7 21.1 21.7 23.6 25.9 43.3 70.4 78.3 90.2 97.9 105.8 109.5 112.5 114.1 112.5 114.3 114.7 98.6 96.9 106.9 114.4 116.8 115.5 107.5 105.6 104.6 105.7 108.2 115 122.3 130.2 136.2 142.7 146.8 151.1 159 163.6 169.7 174.9 180.9 187 193.6 201.6 206.2 210.5 214.3 215.2 217.5 218.2 220.3 223.9 226.1 228.8 229.8 230.4 229.1 229.6 231.2 232.7 233.2 233.5 234 234.3 234.3 234.4 235.1 234.9 235.5 235 234.5 234 233.7 233.2 232.7 231.9 231.3 230.1 226.5 232.1 234.8 236.8 238.7 240.5 243.6 242.8 242.9 242.4 242 242 242.1 240.7 238.7 240.8 242.6 243.8 242.9 242.3 240 239.6 239 237.8 235.5 234 230.6 228.3 228 227 225.5 227.4 227.6 226.7 223.7 221.6
-2.1 -2.1 -2.1 -2.1 -2.1 -2.1 -2.1 -2.1 -2.1 -2.1 -2.1 -2.1 -2.1 -2.1 -2.1 -2.1 -2.1 -2.1 -2.1 -2.1 -2.1 -2.1 -2.1 -2.1 -2.1 -2.1 -2.1 -2.1 -2.1 -2.1 -2.1 -2.1 -2.1 -2.1 -2.1 -2.1 -2.1 -2.1 -2.1 -2.1 -2.1 -2.1 -2.1 -2.1 -2.1 -2.1 -2.1 -2.1 -2.1 -2.1 -2.1 -2.1 -2.1 -2.1 -2.1 -2.1 -2.1 -2.1 -2.1 -2.1 -2.1 -2.1 -2.1 -2.1 -2.1 -2.1 -2.1 -2.1 -2.1 -2.1 -2.1 -2.1 -2.1 -2.1 -2.1 -2.1 -2.1 -2.1 -2.1 -2.1 -2.1 -2.1 7 11.5 10.9 20.4 28.6 21.5 18.6 21 23.9 25.1 31.6 51.9 68.3 82 87.9 100 106.9 114.8 121.9 123 124.3 111.3 100.8 97.4 106.5 116.7 119.3 116.3 103.7 102.3 104.7 106 110.6 113.6 120 126.6 136 139.9 144 145.3 153.7 157.1 165.8 171.6 177.7 182.9 189.3 196.8 201.9 206.3 210.9 214.4 216.1 217 219.5 224 227.8 230.6 231.9 231.5 230.9 231.4 232.6 233.3 233.7 234 234.5 235 235.3 235.7 236.4 236.7 236.5 236.2 235.8 235.5 235.2 234.7 234.3 234 233.7 232.3 230.8 231 235.3 237.2 238.9 240.6 241.8 244.8 245.2 245.3 245.4 246.4 247.5 246.1 243.5 242 243.1 245.3 246.9 244.6 241.6 240.5 240.1 239.8 238.2 236.1 234 232.4 230.1 229.3 227.9 229.6 230 229.1 228.4 226.1
-2.1 -2.1 -2.1 -2.1 -2.1 -2.1 -2.1 -2.1 -2.1 -2.1 -2.1 -2.1 -2.1 -2.1 -2.1 -2.1 -2.1 -2.1 -2.1 -2.1 -2.1 -2.1 -2.1 -2.1 -2.1 -2.1 -2.1 -2.1 -2.1 -2.1 -2.1 -2.1 -2.1 -2.1 -2.1 -2.1 -2.1 -2.1 -2.1 -2.1 -2.1 -2.1 -2.1 -2.1 -2.1 -2.1 -2.1 -2.1 -2.1 -2.1 -2.1 -2.1 -2.1 -2.1 -2.1 -2.1 -2.1 -2.1 -2.1 -2.1 -2.1 -2.1 -2.1 -2.1 -2.1 -2.1 -2.1 -2.1 -2.1 -2.1 -2.1 -2.1 -2.1 -2.1 -2.1 -2.1 -2.1 -2.1 -2.1 -2.1 -2.1 -2.1 -2.1 -2.1 -2.1 8.6 27.2 20.8 16.6 19.1 24.4 25.1 24.6 37.5 54.6 68.5 75.7 88.7 104 119.6 127.9 128.7 125.8 112.3 103.6 97.9 104.2 114.8 118.8 112.5 100.4 106.2 108.2 108.7 114.3 117.2 123.4 124.3 132.7 130.8 138.1 142.2 147.7 154.8 160.6 166.1 172.8 179.6 184.4 192.5 198.3 202.2 208 212.5 214.6 215.8 218.4 223 227.5 228.6 229.6 233.3 232.6 232.9 232.9 233.6 234 235.1 236.3 236.7 236.6 237 237.6 237.9 238.1 238 237.9 237 236.7 236.2 236 235.6 234.5 234.6 233.3 232.9 235.6 237.3 239.3 241.8 241.8 243.8 247 249.2 249.7 249.8 250.5 252.1 252.3 250 246.6 246.1 247.5 248 244.4 242.3 241.9 241.4 240.7 238 237.6 236.5 234.3 232 232.4 233.3 233.4 232.6 229.5 228.5
-2.1 -2.1 -2.1 -2.1 -2.1 -2.1 -2.1 -2.1 -2.1 -2.1 -2.1 -2.1 -2.1 -2.1 -2.1 -2.1 -2.1 -2.1 -2.1 -2.1 -2.1 -2.1 -2.1 -2.1 -2.1 -2.1 -2.1 -2.1 -2.1 -2.1 -2.1 -2.1 -2.1 -2.1 -2.1 -2.1 -2.1 -2.1 -2.1 -2.1 -2.1 -2.1 -2.1 -2.1 -2.1 -2.1 -2.1 -2.1 -2.1 -2.1 -2.1 -2.1 -2.1 -2.1 -2.1 -2.1 -2.1 -2.1 -2.1 -2.1 -2.1 -2.1 -2.1 -2.1 -2.1 -2.1 -2.1 -2.1 -2.1 -2.1 -2.1 -2.1 -2.1 -2.1 -2.1 -2.1 -2.1 -2.1 -2.1 -2.1 -2.1 -2.1 -2.1 -2.1 -2.1 -2.1 16.2 15.8 13.4 16.7 21.1 23 23.6 28.4 40 55.5 66.4 77.7 93.1 123.5 131 130.4 121.6 120.5 108.4 97.4 100.3 104.9 102.2 99.6 101.9 104.4 113.4 115.8 119.7 123.5 119.5 123.3 127.7 132.7 133.5 137.1 141.9 150.1 152.5 161.3 162.9 174.6 179.8 187.7 194.1 198.5 204.4 207.9 209.7 210.7 213.3 218.3 224.5 222.6 226.3 233.1 232.6 232.4 233.3 233.9 234.3 235.9 238.1 238.4 238.5 240 239.3 238.8 238.9 239.1 239.3 239.2 238.2 237.8 237.6 237.7 237.3 236.9 236.3 233.7 237.1 238.6 241.2 243.2 244.4 246.4 247.5 248 250.9 253.3 252.6 254.1 257.3 258.1 255.8 252.5 249.4 249.4 247.6 244.6 243.7 242.9 242 240.6 238.1 240.7 239.4 236.5 234.1 235.7 235.2 234.3 231.6 233.2
-2.1 -2.1 -2.1 -2.1 -2.1 -2.1 -2.1 -2.1 -2.1 -2.1 -2.1 -2.1 -2.1 -2.1 -2.1 -2.1 -2.1 -2.1 -2.1 -2.1 -2.1 -2.1 -2.1 -2.1 -2.1 -2.1 -2.1 -2.1 -2.1 -2.1 -2.1 -2.1 -2.1 -2.1 -2.1 -2.1 -2.1 -2.1 -2.1 -2.1 -2.1 -2.1 -2.1 -2.1 -2.1 -2.1 -2.1 -2.1 -2.1 -2.1 -2.1 -2.1 -2.1 -2.1 -2.1 -2.1 -2.1 -2.1 -2.1 -2.1 -2.1 -2.1 -2.1 -2.1 -2.1 -2.1 -2.1 -2.1 -2.1 -2.1 -2.1 -2.1 -2.1 -2.1 -2.1 -2.1 -2.1 -2.1 -2.1 -2.1 -2.1 -2.1 -2.1 -2.1 -2.1 -2.1 -2.1 6 5.7 14.5 19.2 21 20.8 23.9 28.9 40.2 56.2 69.7 85.9 105.2 120.7 118.7 126.9 126.1 124.4 97 95.4 96.5 97.7 98.4 108.9 113.9 116.1 121.9 123.7 124.5 122.7 122.6 126.7 132.1 129 129.7 135.8 142.1 145.5 150.9 159.1 168.8 175.9 181.8 189 193.6 197.8 199.9 202.4 204.3 207.9 213.1 216.3 218.9 220.6 227.5 231.3 232.3 233.5 234.1 234.4 236.2 239.3 240.6 240.5 241.7 241.4 239.9 239.9 240.1 240.2 240.3 240.5 240.1 239.7 239.3 238.9 238.2 237.1 237.1 238.2 240.6 242.6 244.6 246.1 247.1 247.8 250.2 250.9 252.4 255.1 256.9 259.8 261.4 260.7 258.7 258.3 255.2 250.8 248.5 245.8 243.8 244.2 243.1 240.9 242.4 242.8 240.1 237.9 237.4 236.7 235.7 235.1 235.6
-2.1 -2.1 -2.1 -2.1 -2.1 -2.1 -2.1 -2.1 -2.1 -2.1 -2.1 -2.1 -2.1 -2.1 -2.1 -2.1 -2.1 -2.1 -2.1 -2.1 -2.1 -2.1 -2.1 -2.1 -2.1 -2.1 -2.1 -2.1 -2.1 -2.1 -2.1 -2.1 -2.1 -2.1 -2.1 -2.1 -2.1 -2.1 -2.1 -2.1 -2.1 -2.1 -2.1 -2.1 -2.1 -2.1 -2.1 -2.1 -2.1 -2.1 -2.1 -2.1 -2.1 -2.1 -2.1 -2.1 -2.1 -2.1 -2.1 -2.1 -2.1 -2.1 -2.1 -2.1 -2.1 -2.1 -2.1 -2.1 -2.1 -2.1 -2.1 -2.1 -2.1 -2.1 -2.1 -2.1 -2.1 -2.1 -2.1 -2.1 -2.1 -2.1 -2.1 -2.1 -2.1 -2.1 -2.1 -2.1 -2.1 -2.1 14.2 18.7 18.2 20.6 24.4 33.4 42.8 63.1 86.2 98.3 107.3 120.1 123.4 128 132.2 99.8 93.7 93.8 97.2 107 114.2 121 120.6 122.8 123.8 123.7 123.6 123.3 126.6 128.4 124.7 125.5 126.6 135.7 140.7 149.5 158.3 164 170.4 176 180.9 187.2 189.6 190.7 194.7 198.5 200.7 208.5 212.6 218.5 217.1 223.4 230 233.3 233.5 234 234.4 235.9 239.5 240.3 241 242.3 243.6 242 240.8 241 241.1 241.4 241.8 241.6 241.3 240.9 240.5 239.4 238.9 238.9 239.3 241.7 244.1 246.4 248.2 249.4 250.4 252.2 253.6 254.5 254.7 256.3 259.1 261.9 263.2 260.3 260.1 259.4 257.4 254.2 249.8 247.6 246.4 245.8 245.3 244.5 245.2 244.8 242 242.6 241.1 238.7 237.4 237.7
-2.1 -2.1 -2.1 -2.1 -2.1 -2.1 -2.1 -2.1 -2.1 -2.1 -2.1 -2.1 -2.1 -2.1 -2.1 -2.1 -2.1 -2.1 -2.1 -2.1 -2.1 -2.1 -2.1 -2.1 -2.1 -2.1 -2.1 -2.1 -2.1 -2.1 -2.1 -2.1 -2.1 -2.1 -2.1 -2.1 -2.1 -2.1 -2.1 -2.1 -2.1 -2.1 -2.1 -2.1 -2.1 -2.1 -2.1 -2.1 -2.1 -2.1 -2.1 -2.1 -2.1 -2.1 -2.1 -2.1 -2.1 -2.1 -2.1 -2.1 -2.1 -2.1 -2.1 -2.1 -2.1 -2.1 -2.1 -2.1 -2.1 -2.1 -2.1 -2.1 -2.1 -2.1 -2.1 -2.1 -2.1 -2.1 -2.1 -2.1 -2.1 -2.1 -2.1 -2.1 -2.1 -2.1 -2.1 -2.1 -2.1 -2.1 -2.1 9 9.1 17.3 21 26.3 32.9 49.7 72.2 90.6 98 111.3 117.6 127.2 120 102.5 92.3 92.8 100.4 113.2 117.2 122.7 127.2 124.5 124.5 124.8 128.9 123.3 127.2 124.9 122.6 123.4 124.7 128.2 136.2 145.5 152.8 158.4 164.5 169 175.6 179.3 180.1 184.1 184.7 189 194.1 202.6 206.2 210.7 214.8 221.4 229.5 233.9 232.7 233.4 234.2 235.3 238.6 238.8 240 242.3 243.3 244.5 242.6 242 242.4 242.9 242.7 243 242.7 242.4 241.8 241.4 241.1 240.7 240.6 242.9 245.2 247.2 249.3 251.5 251.7 253.7 255 256.2 257.3 257.2 257.5 260.2 259.7 259.6 260.9 260.9 260.1 258.6 252.3 251.1 249.4 248.1 248.1 247.7 247.9 244.9 246.8 246.6 245.6 244 241.7 239.6
-2.1 -2.1 -2.1 -2.1 -2.1 -2.1 -2.1 -2.1 -2.1 -2.1 -2.1 -2.1 -2.1 -2.1 -2.1 -2.1 -2.1 -2.1 -2.1 -2.1 -2.1 -2.1 -2.1 -2.1 -2.1 -2.1 -2.1 -2.1 -2.1 -2.1 -2.1 -2.1 -2.1 -2.1 -2.1 -2.1 -2.1 -2.1 -2.1 -2.1 -2.1 -2.1 -2.1 -2.1 -2.1 -2.1 -2.1 -2.1 -2.1 -2.1 -2.1 -2.1 -2.1 -2.1 -2.1 -2.1 -2.1 -2.1 -2.1 -2.1 -2.1 -2.1 -2.1 -2.1 -2.1 -2.1 -2.1 -2.1 -2.1 -2.1 -2.1 -2.1 -2.1 -2.1 -2.1 -2.1 -2.1 -2.1 -2.1 -2.1 -2.1 -2.1 -2.1 -2.1 -2.1 -2.1 -2.1 -2.1 -2.1 -2.1 -2.1 -2.1 -2.1 6.4 16.6 21.7 29 37.6 57 81.7 93.7 99.1 105.6 109.2 104 98.1 91.2 93.5 105.5 115.4 121.6 124.9 128 124.8 124.2 126.2 127.4 123.9 122.2 121.4 122 123.1 124.2 126.4 134.1 141.2 147.4 152.2 155.2 163.8 170.9 171.3 170.6 174.6 178.8 182.5 187.9 196.7 204.5 207.9 213.2 221 227.8 231.1 229.5 228.4 231 233.7 237.2 236.4 236.4 241.3 243.3 244.9 244.4 243.9 244.3 243.9 243.2 243 243.5 244.1 243.7 243.6 243.2 242.7 241.5 243.8 246.3 248.4 250.2 252.6 254.7 254.7 256.4 257.6 257.5 257.7 258.5 259.5 261.5 261.2 261.9 262.9 262.3 261.6 257.1 253.5 251.5 250.8 250.2 250.1 250 248.3 249.1 249 248.7 247.6 247.1 244.9
-2.1 -2.1 -2.1 -2.1 -2.1 -2.1 -2.1 -2.1 -2.1 -2.1 -2.1 -2.1 -2.1 -2.1 -2.1 -2.1 -2.1 -2.1 -2.1 -2.1 -2.1 -2.1 -2.1 -2.1 -2.1 -2.1 -2.1 -2.1 -2.1 -2.1 -2.1 -2.1 -2.1 -2.1 -2.1 -2.1 -2.1 -2.1 -2.1 -2.1 -2.1 -2.1 -2.1 -2.1 -2.1 -2.1 -2.1 -2.1 -2.1 -2.1 -2.1 -2.1 -2.1 -2.1 -2.1 -2.1 -2.1 -2.1 -2.1 -2.1 -2.1 -2.1 -2.1 -2.1 -2.1 -2.1 -2.1 -2.1 -2.1 -2.1 -2.1 -2.1 -2.1 -2.1 -2.1 -2.1 -2.1 -2.1 -2.1 -2.1 -2.1 -2.1 -2.1 -2.1 -2.1 -2.1 -2.1 -2.1 -2.1 -2.1 -2.1 -2.1 -2.1 -2.1 6.9 16.4 21.4 30.2 43.7 68.3 83.5 89.4 93 91.7 93.3 90.7 91.7 95.5 109.8 119.3 126.9 128.5 129.4 124.7 123.1 122.9 125.1 120.2 119.2 119.9 122.8 124.2 124.9 125.6 132.6 137.8 144.3 149.1 152.5 157.1 161.5 164.4 165 168.3 173.7 179.5 189.2 196.1 202.9 205.8 211.7 219 225.5 229.3 223.8 220.8 225.7 228.4 229.9 230.7 233.3 238.3 243 245.6 246.5 247.4 245.3 244.2 243.7 243.2 243.5 242.9 244.6 245.3 244.5 244.4 242.9 244.3 246.5 249.5 252.1 254.3 255.7 256 257.7 258 258.4 258.8 260.3 261.5 261.6 262.6 263.7 264.3 264.4 263.8 260.9 256.6 254 253 251.4 251 250.6 248.3 250.4 250.8 250.2 250.5 249.2 248.5
-2.1 -2.1 -2.1 -2.1 -2.1 -2.1 -2.1 -2.1 -2.1 -2.1 -2.1 -2.1 -2.1 -2.1 -2.1 -2.1 -2.1 -2.1 -2.1 -2.1 -2.1 -2.1 -2.1 -2.1 -2.1 -2.1 -2.1 -2.1 -2.1 -2.1 -2.1 -2.1 -2.1 -2.1 -2.1 -2.1 -2.1 -2.1 -2.1 -2.1 -2.1 -2.1 -2.1 -2.1 -2.1 -2.1 -2.1 -2.1 -2.1 -2.1 -2.1 -2.1 -2.1 -2.1 -2.1 -2.1 -2.1 -2.1 -2.1 -2.1 -2.1 -2.1 -2.1 -2.1 -2.1 -2.1 -2.1 -2.1 -2.1 -2.1 -2.1 -2.1 -2.1 -2.1 -2.1 -2.1 -2.1 -2.1 -2.1 -2.1 -2.1 -2.1 -2.1 -2.1 -2.1 -2.1 -2.1 -2.1 -2.1 -2.1 -2.1 -2.1 -2.1 -2.1 -2.1 1.9 15.5 21.3 35 57.1 71.1 79 84.5 83.4 83.9 89.5 92.2 100.2 115.5 123.1 132.3 134.6 131.7 126.1 121.7 120.5 118.6 117.1 118.1 118.7 122.3 124.6 125 125.7 128.6 134.8 139.2 146.7 148.2 152.8 157 156.5 159 170.7 175.3 179.5 190.3 197.1 201.6 205.9 209.3 216.2 221.8 224.1 219.4 218.7 221.6 222.9 225.8 228.5 232.6 236.6 242 245.3 247.5 249.9 246.5 244.6 244.1 244.1 244.9 245.7 246.2 246.7 246.7 246 245.4 245.1 247.7 249.5 252.3 254.6 256 257.4 257.7 258 259.3 260.8 261.7 262.2 262.5 263.3 265 266.1 266.5 266.1 266.4 263.5 260.5 257.1 254.2 252.2 251.3 250.9 251.1 252 251.4 251.7 251.5 251.1
-2.1 -2.1 -2.1 -2.1 -2.1 -2.1 -2.1 -2.1 -2.1 -2.1 -2.1 -2.1 -2.1 -2.1 -2.1 -2.1 -2.1 -2.1 -2.1 -2.1 -2.1 -2.1 -2.1 -2.1 -2.1 -2.1 -2.1 -2.1 -2.1 -2.1 -2.1 -2.1 -2.1 -2.1 -2.1 -2.1 -2.1 -2.1 -2.1 -2.1 -2.1 -2.1 -2.1 -2.1 -2.1 -2.1 -2.1 -2.1 -2.1 -2.1 -2.1 -2.1 -2.1 -2.1 -2.1 -2.1 -2.1 -2.1 -2.1 -2.1 -2.1 -2.1 -2.1 -2.1 -2.1 -2.1 -2.1 -2.1 -2.1 -2.1 -2.1 -2.1 -2.1 -2.1 -2.1 -2.1 -2.1 -2.1 -2.1 -2.1 -2.1 -2.1 -2.1 -2.1 -2.1 -2.1 -2.1 -2.1 -2.1 -2.1 -2.1 -2.1 -2.1 -2.1 -2.1 -2.1 -2.1 4.7 20.3 38.5 48.7 59.2 66 75 79.9 95.7 92.4 102.4 120.4 125.8 134.4 137.5 131.2 128.8 120.9 117.8 114.4 113.2 117.4 112.6 118.5 124.5 127.9 130.1 128 128.1 133.6 138.4 143.4 148.7 149.7 150.9 158.7 167.1 173.3 178.5 188.1 197.2 201.4 206.4 208.7 212.8 216.5 217 219.8 221 225.2 227.3 228.6 228.5 232.3 236.5 239.7 243.3 246 247.2 245.6 245 244.4 245.5 246.3 246.6 247.1 247.5 248.4 248 247.3 246.2 248.4 250.7 252.9 254.4 255.4 256.3 257.5 258.6 259.8 261.6 262.6 263.4 264.5 264.5 265.3 267 269.2 269.6 269.6 267.1 265.6 263.4 261.2 256.5 254.4 252.6 253.4 253.4 252.9 252.9 252.9 253.5
-2.1 -2.1 -2.1 -2.1 -2.1 -2.1 -2.1 -2.1 -2.1 -2.1 -2.1 -2.1 -2.1 -2.1 -2.1 -2.1 -2.1 -2.1 -2.1 -2.1 -2.1 -2.1 -2.1 -2.1 -2.1 -2.1 -2.1 -2.1 -2.1 -2.1 -2.1 -2.1 -2.1 -2.1 -2.1 -2.1 -2.1 -2.1 -2.1 -2.1 -2.1 -2.1 -2.1 -2.1 -2.1 -2.1 -2.1 -2.1 -2.1 -2.1 -2.1 -2.1 -2.1 -2.1 -2.1 -2.1 -2.1 -2.1 -2.1 -2.1 -2.1 -2.1 -2.1 -2.1 -2.1 -2.1 -2.1 -2.1 -2.1 -2.1 -2.1 -2.1 -2.1 -2.1 -2.1 -2.1 -2.1 -2.1 -2.1 -2.1 -2.1 -2.1 -2.1 -2.1 -2.1 -2.1 -2.1 -2.1 -2.1 -2.1 -2.1 -2.1 -2.1 -2.1 -2.1 -2.1 -2.1 -2.1 -2.1 17.1 39.9 39.6 61.7 71.8 69.5 84.3 91.6 101.5 122.9 128.4 132.7 135.1 131.1 129.9 123.2 117.8 111.8 113.8 111.8 113 120.1 126.7 130.2 129.9 130.4 127.7 128.3 131.2 138.4 139.1 143.8 150.5 158.2 164.8 170.7 179.8 187.8 196.5 202.7 204.6 208.3 210.4 216.3 220.9 223.7 226.6 228.9 227.1 230 231.4 233.1 236.7 237.5 239.8 242.8 244.5 244.6 244.7 245.4 246.8 247.4 247.5 247.9 248.6 249.6 249.8 249.3 247.8 247.8 251.5 253.1 253.3 255.4 256.2 258.2 259 258.8 261.8 263.5 264.6 266 267 267.8 269.6 272.5 275.7 274.1 270.7 268.4 266.9 264.8 262.4 260.8 257.1 254.8 255 253.9 254.3 255.2 255.4
-2.1 -2.1 -2.1 -2.1 -2.1 -2.1 -2.1 -2.1 -2.1 -2.1 -2.1 -2.1 -2.1 -2.1 -2.1 -2.1 -2.1 -2.1 -2.1 -2.1 -2.1 -2.1 -2.1 -2.1 -2.1 -2.1 -2.1 -2.1 -2.1 -2.1 -2.1 -2.1 -2.1 -2.1 -2.1 -2.1 -2.1 -2.1 -2.1 -2.1 -2.1 -2.1 -2.1 -2.1 -2.1 -2.1 -2.1 -2.1 -2.1 -2.1 -2.1 -2.1 -2.1 -2.1 -2.1 -2.1 -2.1 -2.1 -2.1 -2.1 -2.1 -2.1 -2.1 -2.1 -2.1 -2.1 -2.1 -2.1 -2.1 -2.1 -2.1 -2.1 -2.1 -2.1 -2.1 -2.1 -2.1 -2.1 -2.1 -2.1 -2.1 -2.1 -2.1 -2.1 -2.1 -2.1 -2.1 -2.1 -2.1 -2.1 -2.1 -2.1 -2.1 -2.1 -2.1 -2.1 -2.1 -2.1 -2.1 -2.1 13.3 43.1 58.6 62.4 64 83.1 90 99.9 120.2 125.6 128.8 129.3 128.5 129.3 126.4 120.3 114.4 111.9 111.8 115.1 121.5 128.4 128.3 131.5 132.4 128.4 126 127.9 130.7 136.5 142.9 142.9 157.1 162.1 169.6 178.9 186.5 194.8 203.2 198 199.6 208.9 217.6 220.2 224 225.1 225.3 226.8 229.1 231.9 232.7 236.7 238.4 237.4 239.6 241.8 243.3 244.4 246.7 248.3 248.5 248.5 248.8 249.6 250.7 251.3 251.1 251.1 249 251.6 253.5 253.6 254.7 256.4 258 258.9 260.6 261.3 264.2 265 267.5 268.9 270.7 272.7 276.7 280.2 281.4 275.3 271.9 270.2 266.7 264.4 262.4 260.6 259.8 258.2 255.1 255.6 256.2 255.9
-2.1 -2.1 -2.1 -2.1 -2.1 -2.1 -2.1 -2.1 -2.1 -2.1 -2.1 -2.1 -2.1 -2.1 -2.1 -2.1 -2.1 -2.1 -2.1 -2.1 -2.1 -2.1 -2.1 -2.1 -2.1 -2.1 -2.1 -2.1 -2.1 -2.1 -2.1 -2.1 -2.1 -2.1 -2.1 -2.1 -2.1 -2.1 -2.1 -2.1 -2.1 -2.1 -2.1 -2.1 -2.1 -2.1 -2.1 -2.1 -2.1 -2.1 -2.1 -2.1 -2.1 -2.1 -2.1 -2.1 -2.1 -2.1 -2.1 -2.1 -2.1 -2.1 -2.1 -2.1 -2.1 -2.1 -2.1 -2.1 -2.1 -2.1 -2.1 -2.1 -2.1 -2.1 -2.1 -2.1 -2.1 -2.1 -2.1 -2.1 -2.1 -2.1 -2.1 -2.1 -2.1 -2.1 -2.1 -2.1 -2.1 -2.1 -2.1 -2.1 -2.1 -2.1 -2.1 -2.1 -2.1 -2.1 -2.1 -2.1 -2.1 29.5 46.6 52 57.1 73.2 81 90.1 114.7 121.4 123.9 122 125.8 125.1 122.2 116 112.5 116.3 119.2 118.7 120.6 124.3 126.2 130.1 134.6 126.3 126.2 125 127.9 129.5 133.8 138.5 158.1 160.4 168 174 177.9 185 190.7 188.6 196 204.8 212.6 218.6 223 224.8 225.6 225.9 224.6 224.9 232.2 236.6 240.4 239.7 238 239.2 241.7 244.1 245 246.4 249.5 249.5 249.6 250.6 251.8 252.8 252.9 252.4 253 252 252.9 254.7 255.5 256.4 258.6 259.9 261.4 263.9 265.5 266.2 269.6 271.6 273.6 275.4 280.1 285.8 290.2 281.7 274.9 271.1 268.2 266.9 263.8 262 260.2 261.1 258.6 258.3 257.8 257.5
-2.1 -2.1 -2.1 -2.1 -2.1 -2.1 -2.1 -2.1 -2.1 -2.1 -2.1 -2.1 -2.1 -2.1 -2.1 -2.1 -2.1 -2.1 -2.1 -2.1 -2.1 -2.1 -2.1 -2.1 -2.1 -2.1 -2.1 -2.1 -2.1 -2.1 -2.1 -2.1 -2.1 -2.1 -2.1 -2.1 -2.1 -2.1 -2.1 -2.1 -2.1 -2.1 -2.1 -2.1 -2.1 -2.1 -2.1 -2.1 -2.1 -2.1 -2.1 -2.1 -2.1 -2.1 -2.1 -2.1 -2.1 -2.1 -2.1 -2.1 -2.1 -2.1 -2.1 -2.1 -2.1 -2.1 -2.1 -2.1 -2.1 -2.1 -2.1 -2.1 -2.1 -2.1 -2.1 -2.1 -2.1 -2.1 -2.1 -2.1 -2.1 -2.1 -2.1 -2.1 -2.1 -2.1 -2.1 -2.1 -2.1 -2.1 -2.1 -2.1 -2.1 -2.1 -2.1 -2.1 -2.1 -2.1 -2.1 -2.1 -2.1 -2.1 28.2 35.5 47.8 61.4 69.7 76.9 97.4 110.4 115.1 118.8 120.5 121.1 113.9 108.4 108.4 111.6 117.3 119.7 118.6 120.4 124.3 127.9 127.3 124.6 127.1 122.4 121.3 125.8 133.5 141.8 159.4 159 167 169.2 175.4 182.4 184 180.6 188 197 204.6 210.1 217.4 224.2 226.3 224 224 224 232 236.2 241.2 242.8 239.7 242.5 243.8 243.8 242.8 245.9 247.3 247.7 249.9 252 253 253.4 253.7 254.4 254.9 254.1 252.1 254 254.6 256.3 258.7 260 262.6 264.8 266.9 269.5 270.5 272.7 275.5 278.5 282.5 287.5 291.5 289.5 279.1 271.8 268.9 267 266.5 263.9 263.8 264.4 262.1 262.5 261.1 262.1
-2.1 -2.1 -2.1 -2.1 -2.1 -2.1 -2.1 -2.1 -2.1 -2.1 -2.1 -2.1 -2.1 -2.1 -2.1 -2.1 -2.1 -2.1 -2.1 -2.1 -2.1 -2.1 -2.1 -2.1 -2.1 -2.1 -2.1 -2.1 -2.1 -2.1 -2.1 -2.1 -2.1 -2.1 -2.1 -2.1 -2.1 -2.1 -2.1 -2.1 -2.1 -2.1 -2.1 -2.1 -2.1 -2.1 -2.1 -2.1 -2.1 -2.1 -2.1 -2.1 -2.1 -2.1 -2.1 -2.1 -2.1 -2.1 -2.1 -2.1 -2.1 -2.1 -2.1 -2.1 -2.1 -2.1 -2.1 -2.1 -2.1 -2.1 -2.1 -2.1 -2.1 -2.1 -2.1 -2.1 -2.1 -2.1 -2.1 -2.1 -2.1 -2.1 -2.1 -2.1 -2.1 -2.1 -2.1 -2.1 -2.1 -2.1 -2.1 -2.1 -2.1 -2.1 -2.1 -2.1 -2.1 -2.1 -2.1 -2.1 -2.1 -2.1 -2.1 18.9 34 51.2 63.7 70.8 88.1 98.6 102.1 104.1 106.4 112.3 106.5 102.5 105.4 109.6 115.5 116.7 117.2 119 121.9 122.8 124.6 124.1 124.2 120.4 119.8 124.6 133.2 140.2 148 158.2 166.3 172.6 172.5 175.6 178.3 177.8 186.8 196 203.3 208.8 216.6 221.7 224.2 224 224 224.6 232 236.6 241.4 237.7 241.5 243.6 245.6 245.6 245.2 245.5 246.2 246.5 249.6 252.2 254.2 255.1 255.5 256.2 255.8 255.9 254.4 253.4 255.1 256.9 258.9 260.2 262.6 266 268.9 271.2 273 274.6 276.9 279.6 284.1 287 291.4 289.9 282.2 275.4 269.2 268 267.6 266.8 266.8 268 267.8 266.9 266.9 268.2
-2.1 -2.1 -2.1 -2.1 -2.1 -2.1 -2.1 -2.1 -2.1 -2.1 -2.1 -2.1 -2.1 -2.1 -2.1 -2.1 -2.1 -2.1 -2.1 -2.1 -2.1 -2.1 -2.1 -2.1 -2.1 -2.1 -2.1 -2.1 -2.1 -2.1 -2.1 -2.1 -2.1 -2.1 -2.1 -2.1 -2.1 -2.1 -2.1 -2.1 -2.1 -2.1 -2.1 -2.1 -2.1 -2.1 -2.1 -2.1 -2.1 -2.1 -2.1 -2.1 -2.1 -2.1 -2.1 -2.1 -2.1 -2.1 -2.1 -2.1 -2.1 -2.1 -2.1 -2.1 -2.1 -2.1 -2.1 -2.1 -2.1 -2.1 -2.1 -2.1 -2.1 -2.1 -2.1 -2.1 -2.1 -2.1 -2.1 -2.1 -2.1 -2.1 -2.1 -2.1 -2.1 -2.1 -2.1 -2.1 -2.1 -2.1 -2.1 -2.1 -2.1 -2.1 -2.1 -2.1 -2.1 -2.1 -2.1 -2.1 -2.1 -2.1 -2.1 2 15.7 38.8 57 66 78.8 87.2 91.5 98 97.3 96.8 95.9 90.8 97.4 100.1 107.7 112.1 112.9 117.9 121 121 121.5 122.9 126.5 121.8 119.9 124.1 132.2 138.9 145.8 154.2 163.4 170.8 168 170.1 170.4 177 190.2 200 204.1 211 218.7 221.5 224.5 224.7 225.9 230.8 233.6 238.8 238.2 237.7 237.7 241.7 246.6 246.5 245.8 245.1 244.8 246 249.3 253.3 256.2 257.8 258.5 257.2 257.2 256.2 256.4 256.4 255.8 257.5 259.3 260.5 262.5 265.6 268.2 271.1 274.1 275.4 277.4 279.6 284.3 287.1 290.1 290.4 282.1 275.1 271.1 269.6 268.3 269.3 271.2 272.3 271.1 271.5 273.8 274.8
-2.1 -2.1 -2.1 -2.1 -2.1 -2.1 -2.1 -2.1 -2.1 -2.1 -2.1 -2.1 -2.1 -2.1 -2.1 -2.1 -2.1 -2.1 -2.1 -2.1 -2.1 -2.1 -2.1 -2.1 -2.1 -2.1 -2.1 -2.1 -2.1 -2.1 -2.1 -2.1 -2.1 -2.1 -2.1 -2.1 -2.1 -2.1 -2.1 -2.1 -2.1 -2.1 -2.1 -2.1 -2.1 -2.1 -2.1 -2.1 -2.1 -2.1 -2.1 -2.1 -2.1 -2.1 -2.1 -2.1 -2.1 -2.1 -2.1 -2.1 -2.1 -2.1 -2.1 -2.1 -2.1 -2.1 -2.1 -2.1 -2.1 -2.1 -2.1 -2.1 -2.1 -2.1 -2.1 -2.1 -2.1 -2.1 -2.1 -2.1 -2.1 -2.1 -2.1 -2.1 -2.1 -2.1 -2.1 -2.1 -2.1 -2.1 -2.1 -2.1 -2.1 -2.1 -2.1 -2.1 -2.1 -2.1 -2.1 -2.1 -2.1 -2.1 -2.1 -2.1 1.9 20.4 48.5 58.2 73.3 77.7 79.8 86.8 93 99.3 89 83.3 88.4 91.9 100.8 105.1 106.8 117.3 119.6 119.6 118.9 120.5 126.6 120.1 120.1 124.9 130.9 137.4 143.8 151 158 163.1 165.7 167.6 165 174.3 191.3 201 205.3 211.9 218.6 222.6 226.2 227.4 229.6 233.2 235.8 240.2 243 240.8 237.7 240 244.3 246.3 244.4 237.7 243.1 247.6 251.8 254.2 258 260.7 260.7 258.8 258.2 257.8 257.5 257.5 258.1 258.5 259.6 261.3 262.9 265.6 268.2 271.1 273.2 275.9 278.3 281.3 284.6 287 289.9 289.3 281.8 275.5 272.8 271.2 270.3 269.9 273.6 275.8 278.3 279.4 281.8 281.4
-2.1 -2.1 -2.1 -2.1 -2.1 -2.1 -2.1 -2.1 -2.1 -2.1 -2.1 -2.1 -2.1 -2.1 -2.1 -2.1 -2.1 -2.1 -2.1 -2.1 -2.1 -2.1 -2.1 -2.1 -2.1 -2.1 -2.1 -2.1 -2.1 -2.1 -2.1 -2.1 -2.1 -2.1 -2.1 -2.1 -2.1 -2.1 -2.1 -2.1 -2.1 -2.1 -2.1 -2.1 -2.1 -2.1 -2.1 -2.1 -2.1 -2.1 -2.1 -2.1 -2.1 -2.1 -2.1 -2.1 -2.1 -2.1 -2.1 -2.1 -2.1 -2.1 -2.1 -2.1 -2.1 -2.1 -2.1 -2.1 -2.1 -2.1 -2.1 -2.1 -2.1 -2.1 -2.1 -2.1 -2.1 -2.1 -2.1 -2.1 -2.1 -2.1 -2.1 -2.1 -2.1 -2.1 -2.1 -2.1 -2.1 -2.1 -2.1 -2.1 -2.1 -2.1 -2.1 -2.1 -2.1 -2.1 -2.1 -2.1 -2.1 -2.1 -2.1 -2.1 -2.1 5.9 40.5 50.3 59.2 62.3 68.5 84.7 87.3 92.8 78.8 77.8 82.1 87.3 96.3 99.8 102.7 110.3 117.9 117.5 116.9 122.9 125 120 119.4 125.6 130.9 133 144.6 152.9 156.5 163.8 163.8 163.7 165.2 176.3 190.2 199.1 208.8 213.5 213.8 217.6 224.6 228.2 232 235.2 236.3 240 244.9 243.1 237.7 237.7 242.4 240.2 237.7 237.7 243 248.4 255.7 256.5 259.5 262.7 263.5 260.8 259.6 258.8 258.6 258.3 258.8 260.2 260.6 261.9 263.2 265.1 267.6 271.6 274.2 275.8 277.7 280.7 284.8 287.3 290.2 287.3 279.5 275.2 273.4 272.3 272.6 274.1 275.6 273.8 275.3 278.3 280.4 283.9
-2.1 -2.1 -2.1 -2.1 -2.1 -2.1 -2.1 -2.1 -2.1 -2.1 -2.1 -2.1 -2.1 -2.1 -2.1 -2.1 -2.1 -2.1 -2.1 -2.1 -2.1 -2.1 -2.1 -2.1 -2.1 -2.1 -2.1 -2.1 -2.1 -2.1 -2.1 -2.1 -2.1 -2.1 -2.1 -2.1 -2.1 -2.1 -2.1 -2.1 -2.1 -2.1 -2.1 -2.1 -2.1 -2.1 -2.1 -2.1 -2.1 -2.1 -2.1 -2.1 -2.1 -2.1 -2.1 -2.1 -2.1 -2.1 -2.1 -2.1 -2.1 -2.1 -2.1 -2.1 -2.1 -2.1 -2.1 -2.1 -2.1 -2.1 -2.1 -2.1 -2.1 -2.1 -2.1 -2.1 -2.1 -2.1 -2.1 -2.1 -2.1 -2.1 -2.1 -2.1 -2.1 -2.1 -2.1 -2.1 -2.1 -2.1 -2.1 -2.1 -2.1 -2.1 -2.1 -2.1 -2.1 -2.1 -2.1 -2.1 -2.1 -2.1 -2.1 -2.1 -2.1 -2.1 26.3 38.8 45.4 56.5 63.4 73.9 78.8 78.1 72.4 69.5 76.4 80.7 87.4 88.1 95.1 106.4 114.6 116.8 117.2 123.1 123.2 119 118.6 131 128.8 132.1 147.4 152.9 156.6 158.8 160 160.5 171.4 178.6 187.8 200.4 210.2 213.5 210.7 214.1 219.6 228 232.4 234.4 236 242.4 243.8 237.7 237.7 237.7 237.7 237.7 237.7 240.6 252.4 254.1 257.9 260.9 262.1 264.5 268.6 262.9 260.2 259.7 259.5 259.1 260.1 261 262.4 264 265 266.2 267.3 270.7 273.4 274.3 276.6 279.4 284.9 288.7 289.5 287.5 281.7 275.1 273.3 271.5 272.1 274.9 275.2 278 281.1 281.5 283.7 283.7
-2.1 -2.1 -2.1 -2.1 -2.1 -2.1 -2.1 -2.1 -2.1 -2.1 -2.1 -2.1 -2.1 -2.1 -2.1 -2.1 -2.1 -2.1 -2.1 -2.1 -2.1 -2.1 -2.1 -2.1 -2.1 -2.1 -2.1 -2.1 -2.1 -2.1 -2.1 -2.1 -2.1 -2.1 -2.1 -2.1 -2.1 -2.1 -2.1 -2.1 -2.1 -2.1 -2.1 -2.1 -2.1 -2.1 -2.1 -2.1 -2.1 -2.1 -2.1 -2.1 -2.1 -2.1 -2.1 -2.1 -2.1 -2.1 -2.1 -2.1 -2.1 -2.1 -2.1 -2.1 -2.1 -2.1 -2.1 -2.1 -2.1 -2.1 -2.1 -2.1 -2.1 -2.1 -2.1 -2.1 -2.1 -2.1 -2.1 -2.1 -2.1 -2.1 -2.1 -2.1 -2.1 -2.1 -2.1 -2.1 -2.1 -2.1 -2.1 -2.1 -2.1 -2.1 -2.1 -2.1 -2.1 -2.1 -2.1 -2.1 -2.1 -2.1 -2.1 -2.1 -2.1 -2.1 -2.1 31.7 41.4 48.4 51.8 63.8 68.3 69.1 65.3 63.7 67.8 74.8 76.7 79.7 92.4 106 114.6 119.5 120.9 122.1 123.5 118.6 120.1 133.8 132.1 134.9 144.5 151.6 150.6 151.8 150.2 162.9 172.4 181.9 189.6 200.4 205.6 207.9 208.5 215.6 223.9 227.2 232.5 234.2 235.9 243.5 244.7 237.7 237.7 237.7 237.7 241.1 244.6 250.5 258.5 265.5 262.6 264.2 264 266.5 267.5 266.1 262.4 260.6 259.9 259.4 260.7 262.3 264.3 265.7 266.5 267.6 267.9 268.1 270.5 272.5 274.6 278.2 282.4 289.1 289.9 286.4 282.9 275 272.1 272.7 273.1 274.6 276.6 280.8 282.9 284.6 287.5 288
-2.1 -2.1 -2.1 -2.1 -2.1 -2.1 -2.1 -2.1 -2.1 -2.1 -2.1 -2.1 -2.1 -2.1 -2.1 -2.1 -2.1 -2.1 -2.1 -2.1 -2.1 -2.1 -2.1 -2.1 -2.1 -2.1 -2.1 -2.1 -2.1 -2.1 -2.1 -2.1 -2.1 -2.1 -2.1 -2.1 -2.1 -2.1 -2.1 -2.1 -2.1 -2.1 -2.1 -2.1 -2.1 -2.1 -2.1 -2.1 -2.1 -2.1 -2.1 -2.1 -2.1 -2.1 -2.1 -2.1 -2.1 -2.1 -2.1 -2.1 -2.1 -2.1 -2.1 -2.1 -2.1 -2.1 -2.1 -2.1 -2.1 -2.1 -2.1 -2.1 -2.1 -2.1 -2.1 -2.1 -2.1 -2.1 -2.1 -2.1 -2.1 -2.1 -2.1 -2.1 -2.1 -2.1 -2.1 -2.1 -2.1 -2.1 -2.1 -2.1 -2.1 -2.1 -2.1 -2.1 -2.1 -2.1 -2.1 -2.1 -2.1 -2.1 -2.1 -2.1 -2.1 -2.1 -2.1 23.7 33.1 42.5 46 56.7 61.1 61.6 60.4 59.9 62.7 66.7 69 76.1 87.6 100 112.4 117 119.7 122.6 123.2 119.6 123.3 133.8 133.7 136.3 144.2 146.8 146.5 144.8 145.9 154.3 170.3 184.2 190.6 198.2 202.3 206 207.6 214.9 223.9 227.2 233.1 234.4 237.9 242.9 243 237.7 237.7 237.7 239.9 246.2 258.9 266 265.9 274.4 269.9 266.1 266.1 266.2 266.7 269.3 269.4 262.4 260.1 259.9 260.8 262.9 264.7 266.3 267.6 268.1 268.1 267.5 269 269.9 272.4 276.4 280.9 286.2 291.1 286.1 281.1 274.1 271.4 271.8 273.2 275.7 277.2 279.6 280.9 286.2 288.4 289.9
-2.1 -2.1 -2.1 -2.1 -2.1 -2.1 -2.1 -2.1 -2.1 -2.1 -2.1 -2.1 -2.1 -2.1 -2.1 -2.1 -2.1 -2.1 -2.1 -2.1 -2.1 -2.1 -2.1 -2.1 -2.1 -2.1 -2.1 -2.1 -2.1 -2.1 -2.1 -2.1 -2.1 -2.1 -2.1 -2.1 -2.1 -2.1 -2.1 -2.1 -2.1 -2.1 -2.1 -2.1 -2.1 -2.1 -2.1 -2.1 -2.1 -2.1 -2.1 -2.1 -2.1 -2.1 -2.1 -2.1 -2.1 -2.1 -2.1 -2.1 -2.1 -2.1 -2.1 -2.1 -2.1 -2.1 -2.1 -2.1 -2.1 -2.1 -2.1 -2.1 -2.1 -2.1 -2.1 -2.1 -2.1 -2.1 -2.1 -2.1 -2.1 -2.1 -2.1 -2.1 -2.1 -2.1 -2.1 -2.1 -2.1 -2.1 -2.1 -2.1 -2.1 -2.1 -2.1 -2.1 -2.1 -2.1 -2.1 -2.1 -2.1 -2.1 -2.1 -2.1 -2.1 -2.1 -2.1 -2.1 19.5 28.8 42.6 50.1 54.2 55 54.6 53.8 53.5 57.4 64.9 78.3 88.1 99 109.4 113.3 119.9 121.3 117.8 116.7 125.3 133.9 133.8 141.5 148.1 153.6 145.2 142.7 145.6 154.6 170.7 186 193.9 199.8 205.6 205 206.1 213.3 220.6 225.5 231.1 233.7 240.8 245.3 243.8 243.7 246.7 249 254.5 259.6 268.8 279.1 275.9 280.8 278.3 271.3 267.3 266 267.5 272.8 272.8 265.5 259.8 259.8 260.2 262.2 263.1 263.7 265.5 267.6 267 266.7 266.5 267.8 270.2 273.2 278.1 282 284 284 281.9 272.8 270 271 272.2 275.5 277.3 278.1 281.1 286.4 288.2 288.9
-2.1 -2.1 -2.1 -2.1 -2.1 -2.1 -2.1 -2.1 -2.1 -2.1 -2.1 -2.1 -2.1 -2.1 -2.1 -2.1 -2.1 -2.1 -2.1 -2.1 -2.1 -2.1 -2.1 -2.1 -2.1 -2.1 -2.1 -2.1 -2.1 -2.1 -2.1 -2.1 -2.1 -2.1 -2.1 -2.1 -2.1 -2.1 -2.1 -2.1 -2.1 -2.1 -2.1 -2.1 -2.1 -2.1 -2.1 -2.1 -2.1 -2.1 -2.1 -2.1 -2.1 -2.1 -2.1 -2.1 -2.1 -2.1 -2.1 -2.1 -2.1 -2.1 -2.1 -2.1 -2.1 -2.1 -2.1 -2.1 -2.1 -2.1 -2.1 -2.1 -2.1 -2.1 -2.1 -2.1 -2.1 -2.1 -2.1 -2.1 -2.1 -2.1 -2.1 -2.1 -2.1 -2.1 -2.1 -2.1 -2.1 -2.1 -2.1 -2.1 -2.1 -2.1 -2.1 -2.1 -2.1 -2.1 -2.1 -2.1 -2.1 -2.1 -2.1 -2.1 -2.1 -2.1 -2.1 -2.1 -2.1 8.7 24.3 43.3 47.4 49.1 47.1 47.2 51.1 55.9 68.2 80.9 91.3 98.3 105.3 118 120.7 118.6 110.5 116.6 128.1 134.3 135.5 143.3 150.1 145.9 144.7 143.9 150.7 158.9 172.8 184.5 195 200.8 205.4 206.3 207.7 213.9 221 227.3 229.3 233.2 237.2 243.9 254.8 250.1 254.3 260.1 268.6 270.7 275.3 283.5 281.8 285.1 282.7 272.1 267.3 263.5 263.3 273.5 271.2 260.1 259.4 259.4 260.1 261 262.4 262.1 262.7 262.9 263.4 265 264 265.6 268.1 269.8 273.7 276.9 278.3 279.5 280 271.1 267.8 269 270.9 273 275 278.1 280.9 282.8 285.8 286.9
-2.1 -2.1 -2.1 -2.1 -2.1 -2.1 -2.1 -2.1 -2.1 -2.1 -2.1 -2.1 -2.1 -2.1 -2.1 -2.1 -2.1 -2.1 -2.1 -2.1 -2.1 -2.1 -2.1 -2.1 -2.1 -2.1 -2.1 -2.1 -2.1 -2.1 -2.1 -2.1 -2.1 -2.1 -2.1 -2.1 -2.1 -2.1 -2.1 -2.1 -2.1 -2.1 -2.1 -2.1 -2.1 -2.1 -2.1 -2.1 -2.1 -2.1 -2.1 -2.1 -2.1 -2.1 -2.1 -2.1 -2.1 -2.1 -2.1 -2.1 -2.1 -2.1 -2.1 -2.1 -2.1 -2.1 -2.1 -2.1 -2.1 -2.1 -2.1 -2.1 -2.1 -2.1 -2.1 -2.1 -2.1 -2.1 -2.1 -2.1 -2.1 -2.1 -2.1 -2.1 -2.1 -2.1 -2.1 -2.1 -2.1 -2.1 -2.1 -2.1 -2.1 -2.1 -2.1 -2.1 -2.1 -2.1 -2.1 -2.1 -2.1 -2.1 -2.1 -2.1 -2.1 -2.1 -2.1 -2.1 -2.1 -2.1 3.8 30.2 39.4 41.2 41.5 43.6 50.1 55.8 69.8 84.6 98.5 101.9 103 109.8 113.2 114.5 107.6 118.8 130.1 134.3 137.7 146.3 142.5 139.7 142.2 147.4 156.5 163.7 171.1 184 193.7 201.4 209 208.4 212.2 215.3 219.7 226.2 228.8 234.2 239.9 244.3 249.6 254.1 256.9 265.7 274.6 278.2 282.1 287 285.2 287.7 283 271.2 265.2 256.7 255.3 259.4 259.3 258.4 258.8 258.8 260.5 260.4 262.2 260.7 260.5 260 260.4 262 261.1 262 263.4 265.2 268 272.7 272.5 273.9 272.7 261.4 270.1 268.3 268.7 269.5 272.4 275.5 278.8 280.6 283.3 284
-2.1 -2.1 -2.1 -2.1 -2.1 -2.1 -2.1 -2.1 -2.1 -2.1 -2.1 -2.1 -2.1 -2.1 -2.1 -2.1 -2.1 -2.1 -2.1 -2.1 -2.1 -2.1 -2.1 -2.1 -2.1 -2.1 -2.1 -2.1 -2.1 -2.1 -2.1 -2.1 -2.1 -2.1 -2.1 -2.1 -2.1 -2.1 -2.1 -2.1 -2.1 -2.1 -2.1 -2.1 -2.1 -2.1 -2.1 -2.1 -2.1 -2.1 -2.1 -2.1 -2.1 -2.1 -2.1 -2.1 -2.1 -2.1 -2.1 -2.1 -2.1 -2.1 -2.1 -2.1 -2.1 -2.1 -2.1 -2.1 -2.1 -2.1 -2.1 -2.1 -2.1 -2.1 -2.1 -2.1 -2.1 -2.1 -2.1 -2.1 -2.1 -2.1 -2.1 -2.1 -2.1 -2.1 -2.1 -2.1 -2.1 -2.1 -2.1 -2.1 -2.1 -2.1 -2.1 -2.1 -2.1 -2.1 -2.1 -2.1 -2.1 -2.1 -2.1 -2.1 -2.1 -2.1 -2.1 -2.1 -2.1 -2.1 -2.1 8.3 28.5 35.1 37.4 42.1 46.3 54.2 76 90.3 104.7 100.8 103.7 104.3 109.1 110 105.2 120.2 127.7 130.5 141.9 150.9 136.6 137.4 145.1 152.4 160 169.5 171.1 182.3 192.8 202.1 210.3 210.4 209.5 213.9 220.5 226.6 230.2 235.8 243.4 246.7 250.7 257.5 259.9 267.6 277.9 286 286 286.6 285.2 282.5 272.9 263.5 253.4 248.6 249 253.8 254.2 254.3 255.6 257.6 259.5 258.8 258.6 258.7 258.4 257.9 257.6 257.8 258.3 259.4 260 260.8 262.4 264.8 267.7 266.4 264.7 258.6 266.6 265.8 265.4 267.2 269.8 272.3 275 277.9 280.8 282.2
-2.1 -2.1 -2.1 -2.1 -2.1 -2.1 -2.1 -2.1 -2.1 -2.1 -2.1 -2.1 -2.1 -2.1 -2.1 -2.1 -2.1 -2.1 -2.1 -2.1 -2.1 -2.1 -2.1 -2.1 -2.1 -2.1 -2.1 -2.1 -2.1 -2.1 -2.1 -2.1 -2.1 -2.1 -2.1 -2.1 -2.1 -2.1 -2.1 -2.1 -2.1 -2.1 -2.1 -2.1 -2.1 -2.1 -2.1 -2.1 -2.1 -2.1 -2.1 -2.1 -2.1 -2.1 -2.1 -2.1 -2.1 -2.1 -2.1 -2.1 -2.1 -2.1 -2.1 -2.1 -2.1 -2.1 -2.1 -2.1 -2.1 -2.1 -2.1 -2.1 -2.1 -2.1 -2.1 -2.1 -2.1 -2.1 -2.1 -2.1 -2.1 -2.1 -2.1 -2.1 -2.1 -2.1 -2.1 -2.1 -2.1 -2.1 -2.1 -2.1 -2.1 -2.1 -2.1 -2.1 -2.1 -2.1 -2.1 -2.1 -2.1 -2.1 -2.1 -2.1 -2.1 -2.1 -2.1 -2.1 -2.1 -2.1 -2.1 -2.1 15.2 26.7 32.9 38.1 43.8 55.1 75.5 84.7 96.5 95.7 96.2 99.4 105.8 103.7 105 117.2 125 130.2 138.1 140.6 134.1 141.1 151.2 152.6 161.2 172 172.9 177.8 187.7 199.2 202.6 203.4 207.3 211.5 223.5 228 231.4 237.2 240.4 247.8 254.6 257.1 260.2 266.7 274.9 283.8 285 281.9 278.4 270.6 258.4 254.4 247 243.4 244.1 249 250.9 251 253.4 255.9 256.2 256.2 256.2 256.2 256 255.9 255.8 256.3 256.1 256.4 257.2 257.6 258.2 260.3 259.2 259.2 258.6 256.1 258.1 262.6 263 264.7 267.9 269.5 273.1 275.6 279.3 281.8
-2.1 -2.1 -2.1 -2.1 -2.1 -2.1 -2.1 -2.1 -2.1 -2.1 -2.1 -2.1 -2.1 -2.1 -2.1 -2.1 -2.1 -2.1 -2.1 -2.1 -2.1 -2.1 -2.1 -2.1 -2.1 -2.1 -2.1 -2.1 -2.1 -2.1 -2.1 -2.1 -2.1 -2.1 -2.1 -2.1 -2.1 -2.1 -2.1 -2.1 -2.1 -2.1 -2.1 -2.1 -2.1 -2.1 -2.1 -2.1 -2.1 -2.1 -2.1 -2.1 -2.1 -2.1 -2.1 -2.1 -2.1 -2.1 -2.1 -2.1 -2.1 -2.1 -2.1 -2.1 -2.1 -2.1 -2.1 -2.1 -2.1 -2.1 -2.1 -2.1 -2.1 -2.1 -2.1 -2.1 -2.1 -2.1 -2.1 -2.1 -2.1 -2.1 -2.1 -2.1 -2.1 -2.1 -2.1 -2.1 -2.1 -2.1 -2.1 -2.1 -2.1 -2.1 -2.1 -2.1 -2.1 -2.1 -2.1 -2.1 -2.1 -2.1 -2.1 -2.1 -2.1 -2.1 -2.1 -2.1 -2.1 -2.1 -2.1 -2.1 -2.1 18 28.2 36.9 41.3 55.3 70.5 80 84.8 82.9 93.2 94.9 97.8 98.1 102.5 111.7 122.3 126.3 129.8 129.7 131.1 139.5 145.4 151.1 155.7 172 173.2 175.7 182.3 191.1 195.3 196.9 205.1 210.4 221.8 230.1 231.6 230.5 236.5 247.6 255.2 256.4 258.7 261.6 272.4 279.5 279.5 273.9 262.5 261.9 256.2 252.5 245.1 239.6 241.7 244.2 247.1 249.4 250.7 252.4 253.7 253.7 253.7 253.6 253.6 253.7 253.8 251.2 253.4 253.3 254.3 254.5 254.6 254.9 255 254.9 254.8 253.5 256.4 259.3 260.6 262.2 265 267.4 270.5 273.5 277.5 279.6
-2.1 -2.1 -2.1 -2.1 -2.1 -2.1 -2.1 -2.1 -2.1 -2.1 -2.1 -2.1 -2.1 -2.1 -2.1 -2.1 -2.1 -2.1 -2.1 -2.1 -2.1 -2.1 -2.1 -2.1 -2.1 -2.1 -2.1 -2.1 -2.1 -2.1 -2.1 -2.1 -2.1 -2.1 -2.1 -2.1 -2.1 -2.1 -2.1 -2.1 -2.1 -2.1 -2.1 -2.1 -2.1 -2.1 -2.1 -2.1 -2.1 -2.1 -2.1 -2.1 -2.1 -2.1 -2.1 -2.1 -2.1 -2.1 -2.1 -2.1 -2.1 -2.1 -2.1 -2.1 -2.1 -2.1 -2.1 -2.1 -2.1 -2.1 -2.1 -2.1 -2.1 -2.1 -2.1 -2.1 -2.1 -2.1 -2.1 -2.1 -2.1 -2.1 -2.1 -2.1 -2.1 -2.1 -2.1 -2.1 -2.1 -2.1 -2.1 -2.1 -2.1 -2.1 -2.1 -2.1 -2.1 -2.1 -2.1 -2.1 -2.1 -2.1 -2.1 -2.1 -2.1 -2.1 -2.1 -2.1 -2.1 -2.1 -2.1 -2.1 -2.1 16.6 23.5 31.9 36.7 47.6 67.7 79.1 78 76.2 84.1 91.1 94.6 98.4 100 111 119.1 123.5 124.7 126.6 127.9 131.9 139.9 147.4 153.6 167.8 172.4 176.3 177.7 184.6 192.9 193.6 196.2 206.6 220.4 231.1 231.7 226.2 229.9 244 249.4 253.8 253.1 255.1 260.9 267.1 266.9 261.4 259 257.9 254.9 247.1 240.7 238.6 239.8 242.4 244.9 248 249.7 249.8 251.2 251.3 251.1 249.2 249.8 249.8 248.9 247.5 248.9 249.7 251.1 251.7 252.6 253 253.3 252.8 251.7 252.5 255.5 257 257.9 259.2 262.5 266.5 269 272.1 276.1 278.2
-2.1 -2.1 -2.1 -2.1 -2.1 -2.1 -2.1 -2.1 -2.1 -2.1 -2.1 -2.1 -2.1 -2.1 -2.1 -2.1 -2.1 -2.1 -2.1 -2.1 -2.1 -2.1 -2.1 -2.1 -2.1 -2.1 -2.1 -2.1 -2.1 -2.1 -2.1 -2.1 -2.1 -2.1 -2.1 -2.1 -2.1 -2.1 -2.1 -2.1 -2.1 -2.1 -2.1 -2.1 -2.1 -2.1 -2.1 -2.1 -2.1 -2.1 -2.1 -2.1 -2.1 -2.1 -2.1 -2.1 -2.1 -2.1 -2.1 -2.1 -2.1 -2.1 -2.1 -2.1 -2.1 -2.1 -2.1 -2.1 -2.1 -2.1 -2.1 -2.1 -2.1 -2.1 -2.1 -2.1 -2.1 -2.1 -2.1 -2.1 -2.1 -2.1 -2.1 -2.1 -2.1 -2.1 -2.1 -2.1 -2.1 -2.1 -2.1 -2.1 -2.1 -2.1 -2.1 -2.1 -2.1 -2.1 -2.1 -2.1 -2.1 -2.1 -2.1 -2.1 -2.1 -2.1 -2.1 -2.1 -2.1 -2.1 -2.1 -2.1 -2.1 3.7 18.7 23 28.5 40.6 60.5 74.6 74.4 74.1 84.1 89.5 94 92.7 91.3 104.1 109.7 114.3 117.4 124.4 127.1 135.3 141 144.4 149.8 155.9 162.6 167.5 179.4 188.1 186.6 186.7 187.2 208.7 218.4 223.3 219 217.9 223.3 231.8 235 239.4 245.1 250.2 252.4 257 254.3 251.1 251.7 253.3 243.6 239.8 237.8 240.4 241.1 242.5 244.5 246.6 247.1 248.5 248.7 247.9 244.1 239.7 243.4 245.1 245.7 246.3 245.6 246.7 247.7 249.7 250.7 251.7 252 250.8 247.9 251.6 253.9 254.9 256.5 257.6 261.8 264.5 269.4 273 276.3 279.5
-2.1 -2.1 -2.1 -2.1 -2.1 -2.1 -2.1 -2.1 -2.1 -2.1 -2.1 -2.1 -2.1 -2.1 -2.1 -2.1 -2.1 -2.1 -2.1 -2.1 -2.1 -2.1 -2.1 -2.1 -2.1 -2.1 -2.1 -2.1 -2.1 -2.1 -2.1 -2.1 -2.1 -2.1 -2.1 -2.1 -2.1 -2.1 -2.1 -2.1 -2.1 -2.1 -2.1 -2.1 -2.1 -2.1 -2.1 -2.1 -2.1 -2.1 -2.1 -2.1 -2.1 -2.1 -2.1 -2.1 -2.1 -2.1 -2.1 -2.1 -2.1 -2.1 -2.1 -2.1 -2.1 -2.1 -2.1 -2.1 -2.1 -2.1 -2.1 -2.1 -2.1 -2.1 -2.1 -2.1 -2.1 -2.1 -2.1 -2.1 -2.1 -2.1 -2.1 -2.1 -2.1 -2.1 -2.1 -2.1 -2.1 -2.1 -2.1 -2.1 -2.1 -2.1 -2.1 -2.1 -2.1 -2.1 -2.1 -2.1 -2.1 -2.1 -2.1 -2.1 -2.1 -2.1 -2.1 -2.1 -2.1 -2.1 -2.1 -2.1 -2.1 -2.1 9.4 18.2 21.5 32.4 54 65.7 67.5 75.2 87.8 89.8 82.6 83.5 88 96.5 103.1 105.4 115.7 125.3 126.7 138.3 145.3 150.4 152.8 155.8 164.1 167.8 180.2 185.9 183.3 182.7 183.8 207.9 212.5 214.7 209.1 213.9 222.7 228.5 231.4 233.7 234.1 237.5 239.2 244.9 248.5 249 248.2 243.7 237.6 236.6 235.5 238.8 240.3 241.9 242.2 241.4 242.9 245.1 242.7 238.1 234 234.8 237.4 239.9 242.4 243.1 243.5 245 245.4 248.2 250.1 250.9 250.7 249.2 246.8 249.6 252.3 253.2 254 258.6 261.7 265.5 270 273.9 277.1 280.1
-2.1 -2.1 -2.1 -2.1 -2.1 -2.1 -2.1 -2.1 -2.1 -2.1 -2.1 -2.1 -2.1 -2.1 -2.1 -2.1 -2.1 -2.1 -2.1 -2.1 -2.1 -2.1 -2.1 -2.1 -2.1 -2.1 -2.1 -2.1 -2.1 -2.1 -2.1 -2.1 -2.1 -2.1 -2.1 -2.1 -2.1 -2.1 -2.1 -2.1 -2.1 -2.1 -2.1 -2.1 -2.1 -2.1 -2.1 -2.1 -2.1 -2.1 -2.1 -2.1 -2.1 -2.1 -2.1 -2.1 -2.1 -2.1 -2.1 -2.1 -2.1 -2.1 -2.1 -2.1 -2.1 -2.1 -2.1 -2.1 -2.1 -2.1 -2.1 -2.1 -2.1 -2.1 -2.1 -2.1 -2.1 -2.1 -2.1 -2.1 -2.1 -2.1 -2.1 -2.1 -2.1 -2.1 -2.1 -2.1 -2.1 -2.1 -2.1 -2.1 -2.1 -2.1 -2.1 -2.1 -2.1 -2.1 -2.1 -2.1 -2.1 -2.1 -2.1 -2.1 -2.1 -2.1 -2.1 -2.1 -2.1 -2.1 -2.1 -2.1 -2.1 -2.1 -2.1 -2.1 3.7 24.5 48.3 59.6 65.9 73 80.6 78.9 81.7 80.8 83.8 92.6 95.8 109 118 127.3 129.6 136.8 145.3 150.2 153.5 159.9 167.6 169.8 175.2 180.4 182.4 182.2 183.4 205.8 205.3 202 194.6 202.8 213.2 219.1 228.6 229.7 231.2 237.3 240.5 244.6 246.1 246.5 245.8 241.1 236.5 234.7 235.4 235.5 236 238.4 237.2 237 239.2 240 238.2 230.5 230.6 233.5 234.7 237.1 238.8 240.2 241.8 242.7 245.1 246.6 247.6 248.9 248.2 247.4 244.5 248.6 250.8 251.6 255 258.8 262.4 265.2 269.2 274.9 277.9 280.7
-2.1 -2.1 -2.1 -2.1 -2.1 -2.1 -2.1 -2.1 -2.1 -2.1 -2.1 -2.1 -2.1 -2.1 -2.1 -2.1 -2.1 -2.1 -2.1 -2.1 -2.1 -2.1 -2.1 -2.1 -2.1 -2.1 -2.1 -2.1 -2.1 -2.1 -2.1 -2.1 -2.1 -2.1 -2.1 -2.1 -2.1 -2.1 -2.1 -2.1 -2.1 -2.1 -2.1 -2.1 -2.1 -2.1 -2.1 -2.1 -2.1 -2.1 -2.1 -2.1 -2.1 -2.1 -2.1 -2.1 -2.1 -2.1 -2.1 -2.1 -2.1 -2.1 -2.1 -2.1 -2.1 -2.1 -2.1 -2.1 -2.1 -2.1 -2.1 -2.1 -2.1 -2.1 -2.1 -2.1 -2.1 -2.1 -2.1 -2.1 -2.1 -2.1 -2.1 -2.1 -2.1 -2.1 -2.1 -2.1 -2.1 -2.1 -2.1 -2.1 -2.1 -2.1 -2.1 -2.1 -2.1 -2.1 -2.1 -2.1 -2.1 -2.1 -2.1 -2.1 -2.1 -2.1 -2.1 -2.1 -2.1 -2.1 -2.1 -2.1 -2.1 -2.1 -2.1 -2.1 -2.1 4.7 37.8 53.9 59.5 65.5 69.5 72.9 77.6 79.5 84.7 88.4 98.9 113.5 119.2 125.7 127.4 135 139.7 148.8 157.6 164.8 170.2 170.3 175.7 179 182 183.2 182.9 199.3 195.4 187.7 181 195.3 202.7 204.4 212 218.2 227.5 234.2 240.7 245.9 245.1 244.7 244.6 238.1 234.1 231 233 232.7 232.6 231.9 232.2 233.8 235 234 231.7 227.6 229.4 231.5 233.2 234.6 236.7 237.4 238.6 242.3 244.3 244.8 245.1 246.7 246.1 245 243.8 246.5 248.9 252.2 254.9 258.4 261.2 264.2 268.8 275 278.2 280.5
-2.1 -2.1 -2.1 -2.1 -2.1 -2.1 -2.1 -2.1 -2.1 -2.1 -2.1 -2.1 -2.1 -2.1 -2.1 -2.1 -2.1 -2.1 -2.1 -2.1 -2.1 -2.1 -2.1 -2.1 -2.1 -2.1 -2.1 -2.1 -2.1 -2.1 -2.1 -2.1 -2.1 -2.1 -2.1 -2.1 -2.1 -2.1 -2.1 -2.1 -2.1 -2.1 -2.1 -2.1 -2.1 -2.1 -2.1 -2.1 -2.1 -2.1 -2.1 -2.1 -2.1 -2.1 -2.1 -2.1 -2.1 -2.1 -2.1 -2.1 -2.1 -2.1 -2.1 -2.1 -2.1 -2.1 -2.1 -2.1 -2.1 -2.1 -2.1 -2.1 -2.1 -2.1 -2.1 -2.1 -2.1 -2.1 -2.1 -2.1 -2.1 -2.1 -2.1 -2.1 -2.1 -2.1 -2.1 -2.1 -2.1 -2.1 -2.1 -2.1 -2.1 -2.1 -2.1 -2.1 -2.1 -2.1 -2.1 -2.1 -2.1 -2.1 -2.1 -2.1 -2.1 -2.1 -2.1 -2.1 -2.1 -2.1 -2.1 -2.1 -2.1 -2.1 -2.1 -2.1 -2.1 -2.1 26 42.7 52.7 59.6 62.5 67.8 74 81 83.1 91.9 99.2 108 117.1 121.2 124.6 132.5 139.9 149.8 160 161.3 167.8 170 174.4 179.4 178 183.5 178.6 187.6 182.7 178.3 171.6 178.9 186.9 190.5 209.8 216.3 219.9 224.7 232.3 241.2 241.7 242.8 240.8 237.4 231.6 230.9 231 229.9 228.5 227.6 229.4 231 229.4 229 225 225 228.2 230.9 232.1 233.3 234.6 233.1 236.3 239.7 242.8 242.4 242.6 243.9 243.9 241.9 243.7 247.4 250.1 252.2 254.7 256.8 260.2 265.5 269 273.7 276.8 279.6
-2.1 -2.1 -2.1 -2.1 -2.1 -2.1 -2.1 -2.1 -2.1 -2.1 -2.1 -2.1 -2.1 -2.1 -2.1 -2.1 -2.1 -2.1 -2.1 -2.1 -2.1 -2.1 -2.1 -2.1 -2.1 -2.1 -2.1 -2.1 -2.1 -2.1 -2.1 -2.1 -2.1 -2.1 -2.1 -2.1 -2.1 -2.1 -2.1 -2.1 -2.1 -2.1 -2.1 -2.1 -2.1 -2.1 -2.1 -2.1 -2.1 -2.1 -2.1 -2.1 -2.1 -2.1 -2.1 -2.1 -2.1 -2.1 -2.1 -2.1 -2.1 -2.1 -2.1 -2.1 -2.1 -2.1 -2.1 -2.1 -2.1 -2.1 -2.1 -2.1 -2.1 -2.1 -2.1 -2.1 -2.1 -2.1 -2.1 -2.1 -2.1 -2.1 -2.1 -2.1 -2.1 -2.1 -2.1 -2.1 -2.1 -2.1 -2.1 -2.1 -2.1 -2.1 -2.1 -2.1 -2.1 -2.1 -2.1 -2.1 -2.1 -2.1 -2.1 -2.1 -2.1 -2.1 -2.1 -2.1 -2.1 -2.1 -2.1 -2.1 -2.1 -2.1 -2.1 -2.1 -2.1 -2.1 -2.1 25.4 43.6 50.2 54.5 66.7 75.8 83.5 89.3 96.9 103.7 110 118.3 122.6 120.9 127.7 140.4 146.6 155.8 159.7 162.3 167.1 173.4 176.2 173.9 177.9 173.3 171.6 171.1 170.6 165.5 169.8 183.7 203.6 211.7 212.6 214.4 217.8 223.6 231 235.8 233.8 231.6 231 228.1 227.8 230.6 224 223.8 223.6 224 225.4 224.1 223.2 220.4 224.4 228.3 231.4 232.4 233 231.8 229.6 233.1 236.7 239.2 241.1 240.7 240 237 239.4 244.7 247.4 250.4 253 255.5 258.8 261.1 265.8 270.1 273.8 276 278.5
-2.1 -2.1 -2.1 -2.1 -2.1 -2.1 -2.1 -2.1 -2.1 -2.1 -2.1 -2.1 -2.1 -2.1 -2.1 -2.1 -2.1 -2.1 -2.1 -2.1 -2.1 -2.1 -2.1 -2.1 -2.1 -2.1 -2.1 -2.1 -2.1 -2.1 -2.1 -2.1 -2.1 -2.1 -2.1 -2.1 -2.1 -2.1 -2.1 -2.1 -2.1 -2.1 -2.1 -2.1 -2.1 -2.1 -2.1 -2.1 -2.1 -2.1 -2.1 -2.1 -2.1 -2.1 -2.1 -2.1 -2.1 -2.1 -2.1 -2.1 -2.1 -2.1 -2.1 -2.1 -2.1 -2.1 -2.1 -2.1 -2.1 -2.1 -2.1 -2.1 -2.1 -2.1 -2.1 -2.1 -2.1 -2.1 -2.1 -2.1 -2.1 -2.1 -2.1 -2.1 -2.1 -2.1 -2.1 -2.1 -2.1 -2.1 -2.1 -2.1 -2.1 -2.1 -2.1 -2.1 -2.1 -2.1 -2.1 -2.1 -2.1 -2.1 -2.1 -2.1 -2.1 -2.1 -2.1 -2.1 -2.1 -2.1 -2.1 -2.1 -2.1 -2.1 -2.1 -2.1 -2.1 -2.1 -2.1 9.1 35.7 42.6 54.4 64 71.5 90 98.1 101.1 102.8 106.4 112.3 112.6 113.1 125.4 135 141.7 155.2 153.2 152.2 167.7 164.7 167.3 169.8 171.9 165.5 160.6 163.6 162.9 166.2 169.6 186 203.4 206.5 212.3 213.4 215.9 225.1 230.5 229.2 229.1 227.9 225.8 220.6 220.1 218.2 216.1 219.4 220.7 221.2 221.1 219 218.4 220.8 221.6 226.4 231.1 230.2 232.7 230.9 227.5 230.6 233.1 235.2 235.9 233.5 233.8 241.3 242.4 243.8 246 249.7 252.9 256.1 260.7 263.9 267.2 269.7 273.3 275.2 276.9
-2.1 -2.1 -2.1 -2.1 -2.1 -2.1 -2.1 -2.1 -2.1 -2.1 -2.1 -2.1 -2.1 -2.1 -2.1 -2.1 -2.1 -2.1 -2.1 -2.1 -2.1 -2.1 -2.1 -2.1 -2.1 -2.1 -2.1 -2.1 -2.1 -2.1 -2.1 -2.1 -2.1 -2.1 -2.1 -2.1 -2.1 -2.1 -2.1 -2.1 -2.1 -2.1 -2.1 -2.1 -2.1 -2.1 -2.1 -2.1 -2.1 -2.1 -2.1 -2.1 -2.1 -2.1 -2.1 -2.1 -2.1 -2.1 -2.1 -2.1 -2.1 -2.1 -2.1 -2.1 -2.1 -2.1 -2.1 -2.1 -2.1 -2.1 -2.1 -2.1 -2.1 -2.1 -2.1 -2.1 -2.1 -2.1 -2.1 -2.1 -2.1 -2.1 -2.1 -2.1 -2.1 -2.1 -2.1 -2.1 -2.1 -2.1 -2.1 -2.1 -2.1 -2.1 -2.1 -2.1 -2.1 -2.1 -2.1 -2.1 -2.1 -2.1 -2.1 -2.1 -2.1 -2.1 -2.1 -2.1 -2.1 -2.1 -2.1 -2.1 -2.1 -2.1 -2.1 -2.1 -2.1 -2.1 -2.1 2.4 30.2 42 53.5 58.9 65.5 90.2 95.4 99.2 99.6 98.9 99.1 94.5 103 115.6 132.8 132.5 142.6 143.1 147.5 158.1 158.2 156.7 161.7 161.2 157 153.7 154.1 165.9 169.3 171 180.7 194.4 201.9 205.5 208.9 215.6 222.9 227.7 225.9 226.4 225.1 220.8 215.8 213.9 213.2 211.8 216.4 220.3 219.7 215.9 211.3 213 218.9 221.3 222.1 227.1 228.4 232.1 230.6 226.5 228 231.4 231.8 230.3 232.4 235.7 239.3 241.9 243.9 246.2 248.8 252.1 257.2 261.8 266.1 268.2 270.3 270.8 273.5 274.9
-2.1 -2.1 -2.1 -2.1 -2.1 -2.1 -2.1 -2.1 -2.1 -2.1 -2.1 -2.1 -2.1 -2.1 -2.1 -2.1 -2.1 -2.1 -2.1 -2.1 -2.1 -2.1 -2.1 -2.1 -2.1 -2.1 -2.1 -2.1 -2.1 -2.1 -2.1 -2.1 -2.1 -2.1 -2.1 -2.1 -2.1 -2.1 -2.1 -2.1 -2.1 -2.1 -2.1 -2.1 -2.1 -2.1 -2.1 -2.1 -2.1 -2.1 -2.1 -2.1 -2.1 -2.1 -2.1 -2.1 -2.1 -2.1 -2.1 -2.1 -2.1 -2.1 -2.1 -2.1 -2.1 -2.1 -2.1 -2.1 -2.1 -2.1 -2.1 -2.1 -2.1 -2.1 -2.1 -2.1 -2.1 -2.1 -2.1 -2.1 -2.1 -2.1 -2.1 -2.1 -2.1 -2.1 -2.1 -2.1 -2.1 -2.1 -2.1 -2.1 -2.1 -2.1 -2.1 -2.1 -2.1 -2.1 -2.1 -2.1 -2.1 -2.1 -2.1 -2.1 -2.1 -2.1 -2.1 -2.1 -2.1 -2.1 -2.1 -2.1 -2.1 -2.1 -2.1 -2.1 -2.1 -2.1 -2.1 -2.1 14.7 35.3 44.9 49.2 72.1 82.9 86 96 94.8 89.8 87.2 86.6 94.9 111.1 120.3 124.8 136.3 139.4 139.8 145.8 142.8 145.7 145 157.4 159.6 147.2 152.9 163.4 163.1 167.6 179.2 188.4 193.7 198.3 208.1 213.7 220.6 222.1 223 221 219.9 215 207.8 204.1 204.8 208.1 212.1 215 214.5 210.2 211.4 215.4 220.2 224.3 223.2 223.7 227.1 230.7 227.4 225.6 225.2 225.7 227.7 228.6 231.7 236.5 240.1 242.8 245 247 248.2 250.7 254.8 262.4 265.2 268.5 270.1 271.3 272.3 273.7
-2.1 -2.1 -2.1 -2.1 -2.1 -2.1 -2.1 -2.1 -2.1 -2.1 -2.1 -2.1 -2.1 -2.1 -2.1 -2.1 -2.1 -2.1 -2.1 -2.1 -2.1 -2.1 -2.1 -2.1 -2.1 -2.1 -2.1 -2.1 -2.1 -2.1 -2.1 -2.1 -2.1 -2.1 -2.1 -2.1 -2.1 -2.1 -2.1 -2.1 -2.1 -2.1 -2.1 -2.1 -2.1 -2.1 -2.1 -2.1 -2.1 -2.1 -2.1 -2.1 -2.1 -2.1 -2.1 -2.1 -2.1 -2.1 -2.1 -2.1 -2.1 -2.1 -2.1 -2.1 -2.1 -2.1 -2.1 -2.1 -2.1 -2.1 -2.1 -2.1 -2.1 -2.1 -2.1 -2.1 -2.1 -2.1 -2.1 -2.1 -2.1 -2.1 -2.1 -2.1 -2.1 -2.1 -2.1 -2.1 -2.1 -2.1 -2.1 -2.1 -2.1 -2.1 -2.1 -2.1 -2.1 -2.1 -2.1 -2.1 -2.1 -2.1 -2.1 -2.1 -2.1 -2.1 -2.1 -2.1 -2.1 -2.1 -2.1 -2.1 -2.1 -2.1 -2.1 -2.1 -2.1 -2.1 -2.1 -2.1 3.3 30.8 39.8 42 51.7 68.5 78.4 84.3 85.2 84.1 84.2 84.9 92.7 106.1 112.3 116.1 118.5 125.5 129.1 131.4 132.9 137.7 137.8 146.7 148.7 146.9 149.3 157.2 160.9 166.2 178.4 188.6 195.3 200.3 209.2 212.6 218.3 220.5 216.3 214.8 213.7 206.9 199.6 193.9 199.6 203.5 206.2 205.8 202.5 204.6 210.9 215.4 220 224 225.3 223.3 223.4 224 223.9 223.9 224.4 226.2 227.5 228.6 232.4 235.2 239.5 242.9 245.1 248.2 250.1 250.7 255.1 261.6 264.3 266.8 268.6 270.3 271.6 272.7
-2.1 -2.1 -2.1 -2.1 -2.1 -2.1 -2.1 -2.1 -2.1 -2.1 -2.1 -2.1 -2.1 -2.1 -2.1 -2.1 -2.1 -2.1 -2.1 -2.1 -2.1 -2.1 -2.1 -2.1 -2.1 -2.1 -2.1 -2.1 -2.1 -2.1 -2.1 -2.1 -2.1 -2.1 -2.1 -2.1 -2.1 -2.1 -2.1 -2.1 -2.1 -2.1 -2.1 -2.1 -2.1 -2.1 -2.1 -2.1 -2.1 -2.1 -2.1 -2.1 -2.1 -2.1 -2.1 -2.1 -2.1 -2.1 -2.1 -2.1 -2.1 -2.1 -2.1 -2.1 -2.1 -2.1 -2.1 -2.1 -2.1 -2.1 -2.1 -2.1 -2.1 -2.1 -2.1 -2.1 -2.1 -2.1 -2.1 -2.1 -2.1 -2.1 -2.1 -2.1 -2.1 -2.1 -2.1 -2.1 -2.1 -2.1 -2.1 -2.1 -2.1 -2.1 -2.1 -2.1 -2.1 -2.1 -2.1 -2.1 -2.1 -2.1 -2.1 -2.1 -2.1 -2.1 -2.1 -2.1 -2.1 -2.1 -2.1 -2.1 -2.1 -2.1 -2.1 -2.1 -2.1 -2.1 -2.1 -2.1 -2.1 18.6 28.5 35.1 43.3 56.8 66.9 76.2 80.5 83.9 84.6 86 93.4 100.6 104.4 106 110.8 120.4 118.9 122.4 130.5 136.5 138.4 142.2 143.8 145.5 151.6 160.3 167.5 167.7 180.4 188.3 194.3 197.7 203.1 205.7 209.2 212.3 210.6 209.7 205.2 199.3 194.3 191.6 195.6 197.1 197.4 197 199.5 202.8 208.4 214.8 221.6 223.9 224.8 223.3 222.7 221.3 222.5 222.6 225.1 226.6 227 228.6 231.5 234.4 236.9 241 244.1 248.7 252.8 253.1 254.3 259.2 262.9 263.4 266.3 267.9 270.8 271.5
-2.1 -2.1 -2.1 -2.1 -2.1 -2.1 -2.1 -2.1 -2.1 -2.1 -2.1 -2.1 -2.1 -2.1 -2.1 -2.1 -2.1 -2.1 -2.1 -2.1 -2.1 -2.1 -2.1 -2.1 -2.1 -2.1 -2.1 -2.1 -2.1 -2.1 -2.1 -2.1 -2.1 -2.1 -2.1 -2.1 -2.1 -2.1 -2.1 -2.1 -2.1 -2.1 -2.1 -2.1 -2.1 -2.1 -2.1 -2.1 -2.1 -2.1 -2.1 -2.1 -2.1 -2.1 -2.1 -2.1 -2.1 -2.1 -2.1 -2.1 -2.1 -2.1 -2.1 -2.1 -2.1 -2.1 -2.1 -2.1 -2.1 -2.1 -2.1 -2.1 -2.1 -2.1 -2.1 -2.1 -2.1 -2.1 -2.1 -2.1 -2.1 -2.1 -2.1 -2.1 -2.1 -2.1 -2.1 -2.1 -2.1 -2.1 -2.1 -2.1 -2.1 -2.1 -2.1 -2.1 -2.1 -2.1 -2.1 -2.1 -2.1 -2.1 -2.1 -2.1 -2.1 -2.1 -2.1 -2.1 -2.1 -2.1 -2.1 -2.1 -2.1 -2.1 -2.1 -2.1 -2.1 -2.1 -2.1 -2.1 -2.1 12.3 25.5 34.3 43.6 54.1 61.8 69.9 75.1 78.5 86.8 86.1 91.4 97.5 95.5 99.6 108 116.4 118.6 117.8 128.5 131.5 140.3 143.8 144.7 146.9 161 164.7 173.3 170.3 182.9 186.2 188.5 192.9 196.1 202.8 206.2 205.6 206.2 206.5 198.1 193.8 187.8 192.3 193.3 194.7 195.3 196.3 199.2 202.9 209 216.3 223 224.9 223.6 222.5 221.7 220.6 222.7 222.3 225.3 226.7 227.7 229.1 232.6 235.2 236.9 239.7 244.4 250.3 255 256.8 255.2 254.5 255.4 258 261 263.2 269.4 271.3
-2.1 -2.1 -2.1 -2.1 -2.1 -2.1 -2.1 -2.1 -2.1 -2.1 -2.1 -2.1 -2.1 -2.1 -2.1 -2.1 -2.1 -2.1 -2.1 -2.1 -2.1 -2.1 -2.1 -2.1 -2.1 -2.1 -2.1 -2.1 -2.1 -2.1 -2.1 -2.1 -2.1 -2.1 -2.1 -2.1 -2.1 -2.1 -2.1 -2.1 -2.1 -2.1 -2.1 -2.1 -2.1 -2.1 -2.1 -2.1 -2.1 -2.1 -2.1 -2.1 -2.1 -2.1 -2.1 -2.1 -2.1 -2.1 -2.1 -2.1 -2.1 -2.1 -2.1 -2.1 -2.1 -2.1 -2.1 -2.1 -2.1 -2.1 -2.1 -2.1 -2.1 -2.1 -2.1 -2.1 -2.1 -2.1 -2.1 -2.1 -2.1 -2.1 -2.1 -2.1 -2.1 -2.1 -2.1 -2.1 -2.1 -2.1 -2.1 -2.1 -2.1 -2.1 -2.1 -2.1 -2.1 -2.1 -2.1 -2.1 -2.1 -2.1 -2.1 -2.1 -2.1 -2.1 -2.1 -2.1 -2.1 -2.1 -2.1 -2.1 -2.1 -2.1 -2.1 -2.1 -2.1 -2.1 -2.1 -2.1 -2.1 6.8 20.3 32.5 48 56.7 59.3 61.4 64.9 68.8 76.7 83 89.9 93.3 91.3 98 104.6 111.5 116.6 130 135.9 138.8 143.4 153.1 144.7 147.7 162 166.5 169 169.9 183.6 183.5 187.5 189.4 191.8 199 203.3 201 201.1 200.9 191.8 187.4 188.8 193 194.2 197.8 198.5 197.2 198.6 204.7 210.1 215.7 222.7 225.8 225.3 222.8 220.4 219.9 220.1 223.2 225.9 228 229.8 229.2 231.8 235.9 237.9 240.1 245.4 251.4 256.5 257.4 257.5 253.8 253.9 255.9 256.7 260.1 265.3 268.2
-2.1 -2.1 -2.1 -2.1 -2.1 -2.1 -2.1 -2.1 -2.1 -2.1 -2.1 -2.1 -2.1 -2.1 -2.1 -2.1 -2.1 -2.1 -2.1 -2.1 -2.1 -2.1 -2.1 -2.1 -2.1 -2.1 -2.1 -2.1 -2.1 -2.1 -2.1 -2.1 -2.1 -2.1 -2.1 -2.1 -2.1 -2.1 -2.1 -2.1 -2.1 -2.1 -2.1 -2.1 -2.1 -2.1 -2.1 -2.1 -2.1 -2.1 -2.1 -2.1 -2.1 -2.1 -2.1 -2.1 -2.1 -2.1 -2.1 -2.1 -2.1 -2.1 -2.1 -2.1 -2.1 -2.1 -2.1 -2.1 -2.1 -2.1 -2.1 -2.1 -2.1 -2.1 -2.1 -2.1 -2.1 -2.1 -2.1 -2.1 -2.1 -2.1 -2.1 -2.1 -2.1 -2.1 -2.1 -2.1 -2.1 -2.1 -2.1 -2.1 -2.1 -2.1 -2.1 -2.1 -2.1 -2.1 -2.1 -2.1 -2.1 -2.1 -2.1 -2.1 -2.1 -2.1 -2.1 -2.1 -2.1 -2.1 -2.1 -2.1 -2.1 -2.1 -2.1 -2.1 -2.1 -2.1 -2.1 -2.1 -2.1 3.4 18.3 25.9 45.9 51.1 50.4 50.4 52.9 57.5 68.6 78.7 85.5 83.9 86.6 93.3 96.5 104.5 115.8 133.1 148.9 145.4 146.2 153.1 145.7 138.3 153.9 163.1 168.7 169.3 179.7 181.1 184.6 187.3 189.5 192.8 196.7 195 194.5 190.9 186.8 184 189.3 192 195.5 198.3 200.7 198 198.8 203.9 209.9 215.1 221.7 226.5 227.7 221.5 219.7 215.9 218.8 223 225.8 230.1 230.1 229.4 230.8 234.1 236.2 239.5 242.9 249.8 255 255.6 257.7 255 254.5 254 254.6 255.4 259.6 263.2
-2.1 -2.1 -2.1 -2.1 -2.1 -2.1 -2.1 -2.1 -2.1 -2.1 -2.1 -2.1 -2.1 -2.1 -2.1 -2.1 -2.1 -2.1 -2.1 -2.1 -2.1 -2.1 -2.1 -2.1 -2.1 -2.1 -2.1 -2.1 -2.1 -2.1 -2.1 -2.1 -2.1 -2.1 -2.1 -2.1 -2.1 -2.1 -2.1 -2.1 -2.1 -2.1 -2.1 -2.1 -2.1 -2.1 -2.1 -2.1 -2.1 -2.1 -2.1 -2.1 -2.1 -2.1 -2.1 -2.1 -2.1 -2.1 -2.1 -2.1 -2.1 -2.1 -2.1 -2.1 -2.1 -2.1 -2.1 -2.1 -2.1 -2.1 -2.1 -2.1 -2.1 -2.1 -2.1 -2.1 -2.1 -2.1 -2.1 -2.1 -2.1 -2.1 -2.1 -2.1 -2.1 -2.1 -2.1 -2.1 -2.1 -2.1 -2.1 -2.1 -2.1 -2.1 -2.1 -2.1 -2.1 -2.1 -2.1 -2.1 -2.1 -2.1 -2.1 -2.1 -2.1 -2.1 -2.1 -2.1 -2.1 -2.1 -2.1 -2.1 -2.1 -2.1 -2.1 -2.1 -2.1 -2.1 -2.1 -2.1 -2.1 -2.1 15.2 18.5 35.5 43.8 42.7 42.5 44.3 49.5 63.5 70.7 74.1 76.9 80.6 88.7 101.7 114.5 127.3 141.4 149.6 148 149.2 152.5 140.9 137.9 150.6 159.8 163.5 168.7 179.1 180.9 183.9 185.4 186.8 189.6 192.3 192.7 190.6 185.3 183.2 184.5 191.7 191.7 195.7 198.7 200.1 197.7 198.9 202.9 208.8 215.3 220.7 225.9 229.1 221 218.6 218.6 221.6 223.4 225.8 230.1 230.3 229.7 229.8 230.5 233.5 241.5 244 247.5 252.4 251.9 254.2 253.4 252.7 253.3 253 255 256.3 258.2
-2.1 -2.1 -2.1 -2.1 -2.1 -2.1 -2.1 -2.1 -2.1 -2.1 -2.1 -2.1 -2.1 -2.1 -2.1 -2.1 -2.1 -2.1 -2.1 -2.1 -2.1 -2.1 -2.1 -2.1 -2.1 -2.1 -2.1 -2.1 -2.1 -2.1 -2.1 -2.1 -2.1 -2.1 -2.1 -2.1 -2.1 -2.1 -2.1 -2.1 -2.1 -2.1 -2.1 -2.1 -2.1 -2.1 -2.1 -2.1 -2.1 -2.1 -2.1 -2.1 -2.1 -2.1 -2.1 -2.1 -2.1 -2.1 -2.1 -2.1 -2.1 -2.1 -2.1 -2.1 -2.1 -2.1 -2.1 -2.1 -2.1 -2.1 -2.1 -2.1 -2.1 -2.1 -2.1 -2.1 -2.1 -2.1 -2.1 -2.1 -2.1 -2.1 -2.1 -2.1 -2.1 -2.1 -2.1 -2.1 -2.1 -2.1 -2.1 -2.1 -2.1 -2.1 -2.1 -2.1 -2.1 -2.1 -2.1 -2.1 -2.1 -2.1 -2.1 -2.1 -2.1 -2.1 -2.1 -2.1 -2.1 -2.1 -2.1 -2.1 -2.1 -2.1 -2.1 -2.1 -2.1 -2.1 -2.1 -2.1 -2.1 -2.1 -2.1 4.9 19.6 31.9 36.1 37.8 41.3 47.9 59.8 65.7 66.9 69 73.9 92.1 117.1 122.5 124.7 131 141 143.7 145.7 134.9 131.2 138.6 151.9 158.2 162.7 165.5 178.4 181.1 183.7 182.9 185.1 187.7 188.1 187.7 183.1 180 180.3 185.6 192.6 193 193.6 198.3 200.8 196.6 197.7 203.3 209.2 214.5 219.1 223.6 226.1 217.7 213.8 217.9 222.1 223.4 225.6 228.4 233.1 229.9 227.9 227.9 230.7 241.2 244.7 246.7 249.1 250 249.8 249.4 251 252.8 251.9 252.7 253.6 255.2
-2.1 -2.1 -2.1 -2.1 -2.1 -2.1 -2.1 -2.1 -2.1 -2.1 -2.1 -2.1 -2.1 -2.1 -2.1 -2.1 -2.1 -2.1 -2.1 -2.1 -2.1 -2.1 -2.1 -2.1 -2.1 -2.1 -2.1 -2.1 -2.1 -2.1 -2.1 -2.1 -2.1 -2.1 -2.1 -2.1 -2.1 -2.1 -2.1 -2.1 -2.1 -2.1 -2.1 -2.1 -2.1 -2.1 -2.1 -2.1 -2.1 -2.1 -2.1 -2.1 -2.1 -2.1 -2.1 -2.1 -2.1 -2.1 -2.1 -2.1 -2.1 -2.1 -2.1 -2.1 -2.1 -2.1 -2.1 -2.1 -2.1 -2.1 -2.1 -2.1 -2.1 -2.1 -2.1 -2.1 -2.1 -2.1 -2.1 -2.1 -2.1 -2.1 -2.1 -2.1 -2.1 -2.1 -2.1 -2.1 -2.1 -2.1 -2.1 -2.1 -2.1 -2.1 -2.1 -2.1 -2.1 -2.1 -2.1 -2.1 -2.1 -2.1 -2.1 -2.1 -2.1 -2.1 -2.1 -2.1 -2.1 -2.1 -2.1 -2.1 -2.1 -2.1 -2.1 -2.1 -2.1 -2.1 -2.1 -2.1 -2.1 -2.1 -2.1 -2.1 12.2 21.8 29.3 33.9 40.3 47.5 56.1 59.6 61 64 77.7 106.5 114.2 120.7 121.2 125.3 130.7 135.6 128.2 123.2 134.6 143.5 150.8 159.1 163.7 163.5 171.5 178 181.9 180.7 181.7 183.8 184.1 182.7 180.1 177.5 176.4 183.8 191.1 191.6 191.8 195.1 198.4 193.5 196.1 201.9 209.5 215.7 216.2 220.6 219.6 218.3 214.4 218 222.2 223.4 225.5 227.4 230.5 229.1 226 224.1 231.9 239.7 244.3 245.1 245.7 243.9 248.5 248.2 249.7 250.8 250.2 251 251.8 253.3
-2.1 -2.1 -2.1 -2.1 -2.1 -2.1 -2.1 -2.1 -2.1 -2.1 -2.1 -2.1 -2.1 -2.1 -2.1 -2.1 -2.1 -2.1 -2.1 -2.1 -2.1 -2.1 -2.1 -2.1 -2.1 -2.1 -2.1 -2.1 -2.1 -2.1 -2.1 -2.1 -2.1 -2.1 -2.1 -2.1 -2.1 -2.1 -2.1 -2.1 -2.1 -2.1 -2.1 -2.1 -2.1 -2.1 -2.1 -2.1 -2.1 -2.1 -2.1 -2.1 -2.1 -2.1 -2.1 -2.1 -2.1 -2.1 -2.1 -2.1 -2.1 -2.1 -2.1 -2.1 -2.1 -2.1 -2.1 -2.1 -2.1 -2.1 -2.1 -2.1 -2.1 -2.1 -2.1 -2.1 -2.1 -2.1 -2.1 -2.1 -2.1 -2.1 -2.1 -2.1 -2.1 -2.1 -2.1 -2.1 -2.1 -2.1 -2.1 -2.1 -2.1 -2.1 -2.1 -2.1 -2.1 -2.1 -2.1 -2.1 -2.1 -2.1 -2.1 -2.1 -2.1 -2.1 -2.1 -2.1 -2.1 -2.1 -2.1 -2.1 -2.1 -2.1 -2.1 -2.1 -2.1 -2.1 -2.1 -2.1 -2.1 -2.1 -2.1 -2.1 -2.1 6.1 19.5 28.3 36.3 46.2 53.3 53.4 53.4 59.4 93.3 107.6 112.2 117.1 115.5 119.8 115.6 119.5 117.7 127.3 130.2 138.6 147.2 153.2 158.4 159.4 166.2 174.8 174.1 177.9 181.4 179.9 178.5 178.6 179 177.5 174.5 179.3 188.3 190.5 188.9 189.8 186.5 189.5 196.7 199.1 205.8 209.1 212.7 217.1 217.6 216.8 211.6 216.4 221.8 222.1 223.5 225.6 226.7 224.5 224.1 223.1 232.2 236 240.7 238.2 239.9 243.4 248.5 246.9 248.1 249.1 249.3 249.7 250.8 252.8
