ncols 200
nrows 82
xllcorner 420000
yllcorner 355350
cellsize 50
294.4 285.9 286.8 286.6 286.3 290.4 295.4 298.6 299.8 300 300.2 299.7 298.5 298.1 297.7 298.4 299.3 299.9 298.3 296.3 296.3 298.7 300.4 302.2 303.5 304.7 304.1 302.6 301.4 299.2 298.2 297.8 296.4 296.7 295 292.4 292.1 291.9 292.6 291.8 290.6 294 297.4 299 302.4 304.6 306.7 308.7 310.6 312.4 313.7 313.2 312.6 311.8 310.6 309.6 311.2 313.4 316.3 319.3 321.5 324.1 325.8 327.1 328 327.6 325.2 319.4 315.6 312 309.1 305.2 302.5 301.6 299.9 298.3 297.5 298.1 300 302 303.4 304.5 302.8 299.6 296.2 293.5 291.8 291 293.1 293.7 296 299.5 302.7 307.8 313.9 321.8 328.2 336.1 342.9 341.9 347.2 352.9 354.8 356.8 357.5 358.6 360.9 363.7 366.6 365.3 362.5 359.8 357 353.1 350 350.7 351.7 350.3 348 343.6 339.8 336.1 332.5 329.2 326.1 323.4 319.4 316.2 313.5 312.7 311.2 309.5 308 304.7 302.7 301.1 299.1 296.1 294.1 291.5 288 286.1 282.3 279.6 278.7 280.4 282.7 284.1 284.9 284.8 284.1 283.4 284.1 285.2 286.3 287.6 284.8 283 282.1 283.2 286.4 288.4 288.7 287.1 287.5 288.5 289 286.7 282.4 279.3 273 265.4 257.4 250.4 242.2 234.7 229.9 224.8 219.5 215.2 210.6 206.7 199.7 194.8 192.2 187.8 182.1 170.1 135.1 110.9 91.3 91.4 82.4 103.6 111.6 138.9 136.4 136.5 132 127.7
295 285.3 290 291.6 291.8 293.8 297.6 299.1 300.2 300.4 300.3 298.5 297.3 297.1 296.5 295.9 296 296.6 296.1 294.4 295.3 297.8 300.2 302.3 303.4 304.6 304.3 303.2 301.6 299.6 297.5 296.7 296 295.9 294.2 291.2 288.9 289.1 289.4 289.7 290 293.4 296.1 297.7 300.3 302.2 304.3 305.8 307.7 309.8 311.7 312.8 311.8 310.5 309.1 307.5 309 312.1 314.8 316.9 319 321.7 322.8 323.8 324.3 324.8 324.6 322.7 320.1 317 313 308.8 305.8 303.1 301 298.8 296 295.7 298 299.9 301.5 302.3 301 297.6 294.2 291.7 289.9 289.6 290.7 292.9 295.8 300.1 305.3 310.3 315.8 322.6 330 336.8 343.6 346.3 348.7 351.4 353.1 354.8 354.2 356.4 359 361.9 364.9 365.7 364.6 362.2 358.9 355.9 353.8 353.8 354.3 354.4 352.2 348.4 344.8 340.9 337.1 333.4 330 327.2 324.2 321.5 318.4 317.1 317.1 314.6 312.1 309 305.3 303.1 300.3 296.7 294.2 291.2 288.5 285.9 283.4 279.2 276.9 277.5 280.5 281.9 283.3 281.7 281.1 281.1 282 283.2 284.8 286.2 286 285.7 284.8 284.1 286.2 288.2 289.8 290.7 292.1 294.8 296.7 297.1 293.5 289 282.5 274.3 265.2 257 248.4 240.8 234.5 228.9 224.3 221.3 215.6 209.1 205.6 201.5 198.7 193.5 187.3 157.9 128.3 98.5 82.4 98.5 114.1 150.8 149.1 146.1 142.6 140.5 135.7 130.2
295.5 286.9 290.5 293 294.9 297.9 300.2 301.8 301.8 301 299.5 298 296.6 296 295.1 294.2 294.5 294.7 293.7 292.1 293.5 295.8 298.6 301 303 304.5 304.8 303.8 302 299.9 298.2 296.7 297.4 296.4 294.2 291.8 288.9 286.3 286.6 289.3 292.4 293.6 294.9 296.8 298.4 299.9 302 303.4 305 307.1 309.7 310.8 310.2 308.3 306.5 305.5 307 309.1 311.9 314.2 315.7 316.6 318.5 321 323.6 324.8 325.4 324.4 323.2 320.7 316.7 312.6 309.5 305.8 303.4 298.9 295.3 294.1 295.3 297 298.6 299.1 298.1 295.6 292.3 290.1 288 287.8 290 294.3 297.2 301.4 306.5 312.6 318.1 324.6 331 337.1 341.7 344.5 346.3 347.7 348.6 349 350.1 353.1 355.4 358.9 362 363.4 363.4 361.8 358.7 357.8 355.5 355.9 356.3 356.6 354.6 351.5 347.4 343 339.9 337.3 333.7 330.4 327.2 324.6 322 320.8 320.3 318.6 316.7 313 308.6 304.8 301.4 298.1 293.6 290.8 287.4 283.8 282.1 277.9 275.4 275.1 278.2 279.9 281 279 278.4 279.8 281.1 282.3 284 285.5 286.9 288.2 287.6 286.9 288.1 289.2 290.5 292.9 295.3 298.5 301.7 305.2 303.4 298.4 291.9 283.7 274.5 264.3 255.6 247.1 240.4 235.9 233.4 225.7 220 214.3 211.6 207.7 204.3 198.4 192.7 157.2 127.2 102.3 84.8 101.5 130 157.4 154.6 151.8 149.2 145.5 140.9 134
295.2 289.3 293.3 295.8 298.5 301.1 303 303.8 304 303.2 300.8 298 295.4 294.5 293.5 293 292.4 292.6 291.1 290.4 291.6 293 296.4 297.5 299.9 303 303.9 303.7 302.2 300.6 299.1 298.1 298.1 296.7 293.2 289.6 286.5 285.3 291 295.3 296.5 296.2 295.9 296.1 297.9 299.3 300.3 302 303.7 305.1 308 309.1 308 306.1 304.1 303.3 304.3 306 307.6 310.1 311.3 313.7 316.5 319.8 322.5 324.6 325.5 325.1 324.3 322.7 319.6 315.9 312.3 308.6 304.9 300.2 294 290.5 290.7 293.1 294.9 295.6 295 293.5 290.6 288.4 286.4 287.2 290 294.3 298.6 302.8 307.7 313.1 318.7 324.7 330.3 334.8 338.8 341 341.6 342.7 343.6 344.7 346.1 349.1 351.5 354.5 357.9 359.5 359.6 359.6 358.1 357.3 357 356.8 356.7 356.3 355.4 351.9 348.2 344.5 341.8 339.2 336.6 333.5 330.4 327.6 325 323.7 322.8 322.2 319.6 316.6 311.7 306.4 301.3 296.6 292.5 287.9 284.1 281.4 279.1 275.3 272.7 272.9 274.9 276.3 277.5 277 277.6 277.6 282.5 284.3 285.9 285.8 286.2 287.5 288.5 288.8 290.5 291.6 293.4 294.6 297.5 301.3 304.8 309.1 311.1 307.6 300.4 292.2 283.7 273.2 263.7 254.8 248.2 245.4 241.1 231.8 225.5 221.8 218.2 214.6 210.3 205.2 183.5 158.7 134.1 113.6 98.6 93.1 124.7 164 160.7 157.6 154 149.3 142.7 138.2
293.4 293.8 296.8 299.4 302.6 303.8 306.2 306.3 305.2 303.8 301.2 298.7 295.5 293.4 292.7 291.5 291 290.8 289.5 288.7 288.6 289.2 290.7 292.9 295 298.8 302 302.1 301 300 299.3 298.3 297.8 295.9 291.5 286.6 283.5 288 293.8 298.5 299.3 298.9 298.5 298.1 298.1 298.6 299.5 300.7 302.4 304.2 306.6 307.7 306.6 304.6 302.6 301.7 301.3 302.5 304.9 306.5 308.9 311.6 309.9 316.8 320 321.4 323.1 323.4 323.8 323.8 321.4 318.4 314.9 311.3 306.1 300.9 293.9 288.3 286.5 289.2 291.5 292 292.6 291 289 286.8 285.1 286.1 290 294.3 299.7 304.1 308.5 313.6 317.7 323.1 327.5 331.2 334.1 335.7 335.9 337.1 338.2 338.5 340.7 344.1 345.8 348.4 351.6 353.7 354.9 354.2 353.5 354.1 354.9 355 355.4 355.8 353.8 350.9 347.4 345.4 343.8 341.3 338.8 335.1 332.8 330.4 327.5 326.1 324.9 323.7 321.5 317.2 312.1 306.2 300.4 294.7 290.4 285.1 282.1 279.5 275.3 271.7 270.3 270.6 271.9 271.2 272.5 273.5 276.4 280.1 283.2 285.6 287.1 287.1 286.7 288.6 290.1 290.1 290.6 292.8 295.6 298.4 298.9 302.4 306.9 312.4 314.7 313.3 307.7 302.2 293.2 283.8 272.9 263.5 256.6 252.3 245.3 239.2 235 229.5 224.4 219.7 215.6 196.1 176.1 159.9 143.2 123.6 101.1 82.7 116.7 148.9 166.9 162.9 159.1 153.9 146.6 142.5
294.9 298.5 301.3 304.1 305.9 307.2 308.1 308.2 307.5 304.6 301.5 299 296.3 294 292.5 291.8 289.4 289.3 289 287.9 287.1 286.9 287 288.6 289.5 292.9 296.4 298.1 298.5 296.8 295.4 294.5 294.2 293.2 288.6 283.8 285.8 293.6 297.6 300.9 302.2 302.1 301.8 301 300.2 300.3 300.2 300.1 300.4 302.7 304.6 305 303.6 301.8 300 298.9 300.3 301.4 303.5 305.6 308 310.8 312.2 313.3 316.1 317.8 319.5 320.7 321.5 322.9 322.9 320.9 317.8 312.3 306 300.8 294.6 288.2 283.6 285.3 287.7 288.6 289.2 289.7 287.6 284.8 281.4 286.2 289.8 293.5 298.1 303.2 309 312.1 314.9 317.9 321.7 325.6 328.7 329.6 330.3 331 331.6 331.5 332.1 335.4 338.9 338.9 341.8 344 345.6 347.1 348.1 348.6 349.7 352 353.4 353.1 351.5 349.9 347.7 344.6 343.2 341.2 339.4 337.3 334.5 331.1 327.9 326.4 325.1 322.3 318.7 315.2 311.9 307.3 301.4 295.2 290.1 285.6 281.6 277.8 274.3 271.2 268.4 268.4 268.5 267.9 269 270.8 273.4 277.1 280.6 285 285.7 285.6 286.5 289.6 291.8 291.2 292.7 293.5 295.7 302.1 306.1 305.8 308.2 313 316.5 317.5 314.7 311.4 302.6 291.9 282.9 273.3 265.5 258.7 254.2 253.6 247.5 239.8 229.6 225.3 201.7 180.6 170.7 166.9 151.6 129.6 106.6 90.7 108.9 144.1 173.8 169.6 165.5 159 152.1 146
298.8 301 303.8 306.6 309.3 311 311.8 312 309.9 306.4 302.9 299.5 296.9 294.5 292 291.8 290.2 289.6 290.6 289.2 288 287.3 286.1 285.7 285.6 287.6 290.7 292.7 293.1 293.7 291.8 289.8 288.5 287.2 284.2 281.7 290.6 298.1 302.5 303.2 304.1 304.8 305.1 304.2 303.2 302.9 302.5 301.9 300.3 300.6 301.9 300.9 299.8 298.6 297.3 297.2 298.8 300.4 303.2 306 308.1 309.1 309.9 310.8 313 314.2 315.6 316.3 318 319.4 321.8 322.2 318.7 312.2 306.2 299.8 293.7 287.2 280.9 279.9 283.1 284.7 286 287.4 286.2 278.5 284 288.9 290.8 293.5 297.6 301.1 305.4 309 310.8 313 316.2 319 321.5 323.6 324.8 324.4 324.1 325 326 327.5 328.8 330.2 332.2 334.4 336.6 338.7 340.3 340.9 342.6 344.8 344.6 346.6 346.5 346.4 344.5 343.7 341.9 339.5 338.1 335.2 332.9 329 326.4 324.3 322 319.6 317 314.3 310.5 306.7 301.8 297.8 293.1 289.7 285.8 280.9 277.3 273.3 267.9 266.3 265.1 265.8 266.2 268.7 271.2 273.9 277.4 281.3 282.3 283.8 286.9 290.1 292.5 293.5 295.1 296 297.2 300.7 310.4 314.7 314.3 314.2 316.6 319.2 319 317 310.1 299.2 295.5 284.6 274.5 268.2 264.9 263.4 259.6 245.6 229.1 213.7 196.4 181.8 177.9 171 153 131.4 110.5 92.1 105.5 136.3 181.7 179.3 171.4 164.1 157.4 149.7
300.4 303.5 306.3 309 311.8 314.5 315.3 315 313.2 309 304.9 301.1 297.4 295.1 292.7 291.8 290.8 291 293.6 293.7 292.9 291 289.7 286.4 285.5 284.4 285.5 287.3 288 288.3 287.4 285.5 284.2 283.5 281.1 282.8 290.9 296.3 300.3 302.5 304.1 305.7 306.3 306.7 306 304.7 303.7 302.4 301.1 299.8 299.9 298.3 296.2 295.1 294.9 296.6 298.9 301.3 304.1 306.2 307.6 306.7 307.6 308.5 310.1 311.1 308.9 308.4 308.5 311 317.4 321.4 316.5 311.1 304.5 297.2 288.7 282.1 276.6 274.7 275.7 277.9 279.5 281.1 278.7 278.6 287.3 291.1 293.1 295.3 298 299.5 302.9 305.4 307.1 308.9 313 315.3 316.7 318.1 319.3 320.3 320.8 321.4 321.5 322.3 323.2 324.6 326.3 328.4 330.6 331.9 333 333.4 334.1 336 335.9 335.4 335.8 337.5 338.4 338.6 338.6 337.1 335.2 333.6 330.7 326.4 322.9 320.2 318 315.9 314.1 312.8 310.5 307.2 304.4 302.4 299 296.1 292 287.1 282.8 276.5 269.9 267.2 263 262.4 262.5 266.2 270.7 273.4 275.5 276.3 278.5 281.2 284.4 289 292.1 295.1 296.9 298.8 299.8 301.1 307.6 319.4 321.3 317.8 318 320.4 320.7 319.6 317.1 298.8 295.9 294.5 283.8 279.8 275.9 270.7 262.9 246.1 224.8 208.1 198.4 185.7 181.4 171.2 151.2 130.2 109.4 91.2 106.1 135.6 185.1 181.7 176.7 167.5 161.1 154.3
301.4 304 306.9 309.8 312.7 315.6 316.9 316.1 313.5 309.8 306 302.2 298.1 295.6 293.4 291.8 291.6 295 297.4 299.2 299.9 299.7 294.9 291.6 288.4 285.2 283.3 282.7 283.3 283.6 283.4 281.9 281.2 280.3 279.9 280.5 284.3 288.5 293.8 297.2 298.8 300.9 302.6 304.5 304.7 304.7 303.2 301.8 300.3 299.7 299.5 297.4 293.8 292.1 294.3 297.3 299.8 302.1 304.9 305.8 306.2 304.8 305.2 306.1 306.8 306.6 303.9 301.4 302 304.9 310.9 313.5 312.6 307.7 302.4 294.6 285.8 279.2 274.7 270.9 269.6 268.9 268.6 268.1 270.7 279.6 288.1 292.5 295.7 298.2 300.7 302.1 304.1 304.8 306.1 308.3 310.1 311.7 314.6 315.1 316.2 317.3 318.5 318.1 318.7 319.4 320.4 321 321.7 323.3 324.5 325.1 326.3 327.1 327.5 328.3 328.7 328.9 328.9 328.2 328.8 327.6 332.9 332.8 331.4 329.9 328 325 321.6 318.4 315.9 314 312.2 310.2 308.5 306.6 307.2 306.2 301.8 297.9 293.3 288.9 283.2 276.4 271.7 268.3 264.5 259.6 258.4 263.4 268.5 271.8 273.6 273.9 275.3 277.6 281.9 286.5 289.9 293.3 297.1 300.5 300.8 302.2 306 310.4 318.6 320.8 320.4 320.8 322.8 323.8 322.4 317 305.5 279.4 295.2 291.9 286.8 279.2 265.5 246.1 225.5 213.4 199.6 189.7 179.7 166.5 146.3 122 102.1 90.4 110.7 151.3 191.6 186.9 181.6 171 164.2 158
302 304.4 307.2 310.1 313 315.5 317.2 317.3 314.5 310.8 307 303.2 299.1 295.9 293.8 291.9 293.4 297.1 299.6 301.8 303.1 303.3 300 297 293.9 290.7 287.5 285 283 281.8 281.1 281.1 282 280.6 279.6 279.1 279.8 283.2 286.8 288.7 289.4 292.1 296 299.1 300.8 301.5 300.3 299.9 299.2 300 299.3 297.1 292.2 290.2 296.1 299 301.3 303.1 304.8 305.8 305.2 303.5 302.1 301.3 301.1 300.9 299.1 298.1 299.3 301.9 305.3 307.8 306.8 303.5 298.4 293.4 285.5 280.1 277.4 274.6 270.4 265.3 263.3 267.3 275.4 286.1 290.3 294.3 296.4 299.2 300.6 302.2 302.7 303.5 304.6 306 308 311.1 313.1 313.6 313.8 314.7 316 316.6 317.4 317.7 318 318.6 319.4 319.8 320.2 320.7 321.4 322.1 322 321.8 321.9 322.1 322.3 322 321.7 318 322.5 323.7 325 324.5 322.2 321.6 318.6 316.7 314 312.4 310.3 307.6 306.1 304.9 306.1 304.7 301.4 297.5 292.9 286.7 282 275.1 271.5 267.7 263.9 260.8 254.6 256.9 263.6 267.6 268.9 269.7 272.5 275.7 279.1 283.4 287 290.1 293.1 296.5 299.1 301.1 302.8 305.6 311.5 317.8 321 321.4 323.2 324.8 325.5 322.1 317.8 311.7 279 300.6 293.8 280 268 251.2 232.5 215.8 203.5 193.4 182 163 141.9 113.3 93.9 84.5 112.6 154.5 198 191.7 184.8 173.7 164.9 158.6
302.6 304.9 307.5 310.4 313.3 315.2 316.9 317.7 315.5 311.8 308.1 304.1 300 296.2 294.2 292.3 293.3 297.3 300.6 302 302.5 302 300.6 299.1 296.7 294.3 291.5 289.1 286.6 285 284.1 285 286.6 285.1 283.2 280.6 279.1 278.1 280.8 282 282 282 284.2 288.2 292.8 295 293.7 293.3 292.9 295.5 295.4 292.2 286.9 291.9 300.8 304.1 302.9 302.6 304.4 306.1 304.7 303.2 300.3 297.6 296.5 295.9 296.1 297.4 301.2 302.5 305.5 308.6 307.9 306.8 303.5 298.9 293.1 289.1 286.2 283.4 280.2 272.9 263.1 263.6 272.4 281.9 289.1 295.4 296.9 299.1 300.2 300.6 300.7 301.7 302.1 303.4 305.1 308.1 310.2 311.1 311.6 312.5 314.1 315.9 316.2 316.3 316.5 315.7 316.5 316.6 316.3 316.1 316.6 317.1 316.9 316.8 316.8 316.9 316.9 317.1 317.3 317.5 318 318.3 318.6 311.1 306.1 303.5 310.7 314.3 312.2 310.9 307.9 305.1 303.4 301.6 302 301.5 299.2 295.9 290.8 286.4 282.5 279.3 274.7 268.7 263.2 260.1 254 251.2 257.3 262.1 264.2 265.4 269.3 273.6 277 280.1 282.7 285.8 287.4 290.9 294.9 297.9 299.7 302.2 306 312.1 320.4 323.5 323.8 325.5 326.8 326.6 324 317.6 311.6 306 293.6 285.1 269.8 254.3 237.1 220.9 207.9 197.8 186.8 167.2 140.8 111.1 92.8 82.8 107.1 140.4 201.5 193.8 184.4 172.5 161.5 155.3
304.1 306.4 308 310.7 313.2 314.9 316.4 316.7 315.5 312.1 308.4 304.2 300.5 296.8 294.5 292.6 295.3 298 300.1 299.9 300.4 300.1 299.2 298.2 297.9 297.4 295.9 293.5 291.3 289.9 292.6 293.2 290.8 288.1 284.5 281.6 279.2 277.7 277.5 276.4 275.3 276.2 277.8 281.4 284.4 285.8 284.3 283.1 283.3 285.6 286.4 283.6 280.1 292.7 301.6 306.2 305.4 303 304 305.2 304.7 302.6 299.1 294.6 293.2 293.4 295.2 299.8 303.3 306 314 306.5 299.8 299.8 306.9 304.2 296.5 293.7 289.7 285.2 280.7 273.8 263.1 261.7 262.4 271.2 277.9 282.2 288.6 295 301 299.4 298.3 301.2 302.9 304.1 305.4 307.7 308.8 310.7 311.5 313.8 314.3 314.7 314.6 314.7 314.5 313.5 313.4 313.4 313.3 312.4 312.9 312.8 312.6 312.4 312.1 311.9 311.9 312.8 313.7 313.8 314.4 313.7 314.4 313.3 302.6 292 298.1 310.1 310.4 308.7 305.5 302.9 300.9 298.2 297.3 297.4 294.8 292.3 289.2 287 284.9 281.7 278.1 272.5 266.4 262.5 255.1 248.6 251.5 256.3 259.1 261.2 266.6 270.4 273.5 274.7 276.8 277.7 279.7 284.1 289.5 295.9 296.6 300.8 305.4 310.3 319.9 325.5 326.7 327.6 328.1 328.8 328.6 323.7 318.7 310.5 298 287.2 276.4 261.5 243.8 228.4 213.7 203.8 192.5 171.7 142.3 115.5 91.2 85.6 104 132.4 172.3 177.9 168.9 160.5 152.2 146.2
305.9 308.5 309.8 311.5 312.7 314.1 315.5 315.9 314.7 312.2 308.6 304.9 300 297.5 295.1 293.3 295.3 297.7 298.9 298.5 298.3 298.2 297.4 297.4 300.5 301.7 303.3 301.7 299.3 297.6 297 295 291.2 285.6 281.9 279.8 280 279.8 280.4 280.7 279.3 276.9 274.3 275 278.2 278.9 279 277.7 276.6 277.2 276.6 275 279.3 288.5 296.8 301.7 303.7 301.1 299 298.2 297.8 297.4 293 291.7 291.4 294.2 298 301.8 306.3 311 312.6 303.9 297.8 297.1 299.5 303.7 299.1 295.3 290.5 285.4 279.8 270.5 263.1 258.8 258 262 267.6 270.4 275.7 283.4 288.3 292.3 299.9 303 304.1 305.2 306.4 308.7 310.9 311.5 313.3 313.8 314.2 314.2 313.6 313.1 312.6 311.9 311.2 310.7 310.6 308.8 309.2 309 308.5 308.3 307.9 307.8 307.9 309 309 310.4 311.2 310.2 310.6 311.1 311.6 307.5 310.8 309.8 308.8 306.1 303.4 300.8 298.3 294.9 293 291.9 291.7 290 288.1 286 283.9 282.2 278.2 273.1 268.4 263.3 257.3 249.9 244.2 247.1 251 258.9 263.3 265.7 266 265.4 267.3 269.3 275 282.4 290.9 296.2 297.6 300.9 305.3 310.3 317 326.4 330.5 330.8 331.8 332.1 332 329.9 323.3 315.5 304.1 293.4 283 270.2 251 235 220.3 208.5 197.1 177.5 148.5 120.9 93.1 88.4 102 122.5 140.1 149.8 150.9 146 139.2 134.7
307.3 310.2 311.8 312.7 313.2 313.9 315.1 314.6 313.7 311.8 308.3 304.2 299.8 297.7 295.4 295 295.7 297.2 297.7 297.3 296.9 296.5 296.4 296.4 298.1 300 302 302 300.2 299 297.1 289.8 285.4 284 284.7 283.4 282 282.8 284 283.2 281.2 278.5 276.7 274.9 274.1 273.2 272.6 272.1 271.2 270.9 270.9 271.1 275.3 281.7 292.3 296.9 299.7 296.4 294 292.1 290.1 288.8 288.5 289.6 292.8 296.3 298.9 300.9 306.9 311.7 311.7 305.7 299.4 294.8 294.4 297.3 301.6 297 292.5 287.6 279 269.2 258.8 257.2 255.6 257.3 260.8 263.3 267.1 271.6 275.3 287.4 302.4 304.1 305.2 306.3 307.4 309.7 311.6 312.3 313.7 314.1 314.2 314.2 313.6 313 312.3 311 309.7 308.3 307 305.4 305.6 305.2 304.5 304.1 303.7 303.8 303.8 304.4 306.1 307.9 308.3 307.3 308 307.6 308.6 309.8 309.2 308 306.5 303.9 301.8 299.7 296.7 293 290.6 288.4 287.7 287 285.7 283.7 282 280 278.2 273.6 268.4 263.2 258 251.7 243.3 240.7 246.5 254.3 257.3 258.7 257.5 256.5 258.9 265.9 279.6 287.9 293.3 297.4 299.5 302.9 306.2 309.7 313.9 325.3 335.6 335.2 334 335.6 334.8 331.5 326.1 317.8 307.4 296.6 285.4 272.2 258 241.7 227.6 216 204.3 184.6 157.5 124.9 100.5 83.1 91.9 108.5 125.6 133.7 134.6 130.1 124.5 127.6
309.1 311.3 313.9 313.8 314.2 314.6 312.7 313.9 312.2 310.1 306.4 303.4 299.3 297.2 296 296.3 297.4 297.3 296.7 296.2 295.6 295.6 294.7 294.6 295.5 296.1 295.8 296.7 297.6 297.2 291.8 285.8 290 290.8 287.9 285.6 283.8 283.3 282.2 280.5 278.8 278.1 279.7 279.7 279.9 277.9 277.8 277.3 275.8 273.5 271.7 269.7 269.6 271.6 276.6 283.5 290.5 291.7 289.4 287.4 285.4 283.4 287.5 292.3 296.2 297.8 299.7 303.1 306.6 311.4 313 309.1 303.4 295.7 294.2 294.6 298.4 299 294.4 288.5 276.7 263.8 256 255.3 254 255.4 257.1 259 262.8 267.2 276.8 290.2 302.6 304.4 306.2 307.3 308.4 310.6 312.3 313 314.1 314.4 314.5 314.7 314.5 313.8 312.7 311.1 309.4 307.6 305.9 299.8 302.6 301.9 301.1 299.7 299.1 299.4 299.6 300.8 302.5 304.5 304.4 304.5 305.1 305.7 306.3 306.8 306 304.9 303.8 302.4 300.1 297.5 295.7 292 288.6 286 283.3 282 281.3 281.9 281.2 279.2 275.6 271.7 267.2 262.6 256.9 251 243.6 237.1 238.2 243.8 247.3 249.6 248.4 247.3 254.6 263.3 275.6 287.2 291.6 296.6 300.3 304.3 306 306.9 310.7 317.2 330.8 336.3 335.2 335.7 334.6 331.1 328.1 318.5 308.5 297.6 286.1 274.1 262.3 248.2 235.4 222.7 208.9 189.5 164.3 134.6 109.3 88 85.5 95.3 111.6 117.5 118.5 116.4 118.2 123.3
311.7 312.4 314.4 315 314.6 313.8 313.8 312.1 310 307.9 304.5 301.5 298.7 297.9 298.1 298.1 298.4 298.6 297.6 296.8 296.3 295.5 293.3 292.5 292 292.3 292.4 292.1 292.2 290.2 287.8 293.9 297 295.3 292.2 289.8 286.7 284.2 283.1 281.5 281.7 281.7 283.1 284.8 286.8 287.9 288.6 288.2 286.3 283.6 278.6 273 269.6 268.4 270.2 273 278.4 284.1 283.9 280.9 278.3 280 289.6 294.8 295.4 295.6 299.3 303.4 307.2 310.4 313.3 310.9 304.8 296.8 293.7 293.4 296.3 301.4 296.6 285.3 271.7 258.6 255.2 253.8 253.1 253.7 255.5 257.3 261 269.2 279.5 289.8 304.1 304.7 306.3 308 309.5 311.6 313 313.7 314.5 314.6 314.8 315 315.1 314.5 313.5 312.2 310.6 308.8 306.9 304.7 302.3 299.6 298.5 296.8 294.7 295.6 295.8 297.7 299.9 301.2 302.2 302.7 302.3 302.4 303.5 304.5 302.9 301.8 300.6 299.4 297.3 295.4 293.8 291.1 289 285.3 280.7 277.9 278.1 278.9 279.1 278.2 274.9 271.6 267.3 260.6 255.3 249.5 243.1 235.5 232.1 238 238.5 240.2 240.6 241.8 251 258.4 269.2 279.8 285.2 291.8 296 299.9 303.9 304.3 307.7 311.7 321.3 334 336.6 331.6 331 326.3 320 314.5 304.9 293.6 281.4 268.5 255.2 244.1 238.6 226.9 208.1 189.6 168.4 145.2 121.3 97.2 86.1 90.4 101 103.5 109.2 115.8 117.6 125.1
313.5 313.8 315.2 315.5 314.5 313.4 312 309.9 307.7 305.6 303.5 301.7 300.6 302 300.8 300.5 300.7 300.3 299 297.6 296.8 296.1 294.2 293 291.6 290.7 289.7 289 288.8 288.5 291.5 297.7 303.2 305.2 302.6 298.5 292.5 287.7 284.5 283.9 284.5 285.9 287.3 290.2 293.1 295.3 297.9 298.2 296.3 290.3 284.6 276.8 272 269.8 268.6 267.6 268.3 269.9 273.1 273.8 272.1 276.1 285.8 296.8 297.8 293.7 299 303.3 306.1 309.2 310.9 310.4 300.8 295.2 293.6 292.5 295.9 302.5 296.3 282.5 268.5 257.4 255.2 253.1 252.5 252.1 254 255.9 260.1 268.6 279.3 288 297.6 305.9 307.4 307.8 309.4 311.8 313.4 314.2 313.5 314.6 314.6 314.7 315.1 314.7 313.8 312.9 311.8 310.1 308.7 306.1 303 298.6 296.1 294.8 293.9 292.9 291.8 290.4 296 298 299.1 298.6 299 299.2 300.2 301.2 301 299.1 298.9 298.4 294.2 292.9 291.3 288.4 288.6 285.8 281.4 275.2 274 275.8 277.3 276.1 274.7 271.6 267.3 260.5 254.2 248.2 242.2 237.5 229.9 228.6 230.4 230.8 230.9 236.6 244.1 251.2 260.4 268.5 277.1 282.9 288.4 294 298.1 302 305.2 309.8 317.2 329.6 333.8 329.5 322.9 320.7 315.7 311.3 298.4 285.2 269.5 254.1 241.4 232.6 225.2 213.7 200.4 184.4 165.6 146.2 126.7 106.2 89.9 85 91.5 99.5 109.3 114 117.2 123.2
315.5 316 316.3 316.2 315.3 314.3 313.2 311.9 310.2 308.3 306.1 304.2 303.5 305.8 305.1 303.1 303.3 302.5 301.1 299.5 297.6 296.6 295.1 294.3 293.8 292.7 291.7 291.3 291 290.1 292.1 298.1 302.7 306.2 305 302.4 297.3 291.8 287 288.2 289.7 291.1 292.5 296.5 298.8 300.8 303.2 303.3 301.3 296.7 289.9 280.9 275.1 271 269.5 268.4 266.9 267.3 267.4 269.5 268.2 270.8 275.3 292.3 294.1 292.7 299.1 302 302.2 305.3 306.8 312.3 300.2 294.7 292.8 292.4 306.6 302.2 294.6 282.2 270 260.8 256.2 254.8 251.8 250.5 251.4 253.6 258.3 265.7 275.4 281.5 287.8 298 304.8 305.9 308.5 310.3 311.5 312.7 312.7 313.5 314.3 314.4 315.4 314.8 313.9 313 312.1 310.7 308.6 306.3 304 300.4 298.2 296.7 293.1 291 289.4 287.8 290.1 293.9 294 294.3 294 295.6 296.8 297.9 298.3 298 297.7 295.3 292.7 289.6 288.5 284 280.9 279.8 277.3 271.3 269 270.4 273.6 275.6 274.4 272.2 268.8 263.5 258.9 251.9 244.1 239.9 232.6 225.2 223 222.9 225.2 230.3 237.4 242.9 251.4 260 267.8 275.4 283.7 289.5 294.4 299.1 303.9 307.1 314.6 322.9 329 324.5 318 314.5 312.5 304.2 288.4 269.7 251.8 236.2 222.7 211.4 203 195.3 185.9 172.7 156.3 140.8 124.7 110.9 96.9 87.4 94.3 99.7 104.6 110.9 116.1 124.4
317.9 318.3 317.9 317 316.1 315.3 314.7 313.5 311.9 310.2 308.5 306.9 305.3 308.4 307.6 306.5 305.9 304.6 303 301.3 299.2 297.2 296.5 296.3 296.2 295.8 295.4 295 294.6 292.8 292.3 297.5 301.9 304.5 304.7 303.2 300.8 295.6 290.4 291.8 296.8 299.4 302.6 303.3 305.7 307.3 308.9 308.6 306.4 302.5 297.4 291.7 282 275.2 273.3 271.4 271.1 268.8 265.9 265.1 265.5 264.1 266.2 279.5 289.6 270.9 286.3 286.9 286.3 294.6 306.8 303.8 307.1 300.9 301.3 304.2 302.5 299.7 294 284.9 275.5 267.4 263.1 258.2 253.8 250.7 249.3 252 256.1 261.6 269 274.6 279.6 287.7 295.8 303 306.2 308 309.7 310.8 311.6 312.5 313.4 314.6 315.7 314.9 314 313.1 311.9 310 307.9 305.4 304 302.5 302.3 300.7 296.1 292.7 289.6 286.8 288 290.6 290.1 290.3 290.3 291.2 293.5 295.9 297.9 297.5 294.9 294.8 292.5 290.4 288.8 285.4 280.8 274.9 270.6 267.5 265.4 266.1 270.5 273.3 273.8 272.9 270.1 266.1 261.7 256.9 249.9 245.1 240 234.2 224.2 219.5 219.3 224 231.3 236.6 244.4 254.8 264.1 273.6 281.7 288.3 293.4 297.9 302.6 309.3 307.6 307.6 314 312.7 303.2 302.3 303.3 289.9 271.8 250.6 229.9 212.3 199 187.1 175.6 171.6 166.6 156.7 142.7 126.2 116.5 108.5 97.8 87.2 90.8 100.9 104.8 110.2 118 127.1
322.9 322.3 322.4 320.9 320.6 318.4 316.6 315.2 313.7 312.2 310.8 309.1 309.4 310.5 310.1 309.2 308.1 306.4 304.7 303 300.9 299.5 299.9 300 299.8 299.4 299 298.3 297.1 294.6 293.8 296 299.8 302.5 302.7 302.6 301.8 297.1 292.5 293 299.1 304.2 306.9 309.5 311.5 314.4 315.6 314.9 314.8 312 309.9 305.9 299.7 293.3 287.9 284.7 283.2 281.3 278.6 274.3 271.7 267.4 262.9 279.2 273.3 246.5 246.5 247.7 255 286.1 291.1 295.4 299.2 297.4 295.5 293.9 293 292.7 291.1 289.6 285.1 275.5 269.2 261.7 256.2 250 248.7 249.9 253.4 258.3 263.8 268.8 273.3 278.7 286.8 294.5 300.1 304.1 305.6 307.8 310.3 311.8 313 314.4 315.9 315.3 314.6 314 313 310.8 309.5 308.1 306.9 305.5 303.4 300.9 299.7 296.4 291.1 287.4 284.6 287.6 286.6 286.7 286.8 286.8 287.4 292.8 296.2 296.5 295.5 293.9 291.5 289.4 286 282.8 281 275.4 272.3 267.4 262.1 261.3 267 271.2 271.7 272.9 271.4 268.9 265.2 260.2 254.4 248.9 244.2 239.7 234.1 224.5 214.3 217.5 224.6 231.8 241.5 252.2 263.7 273.9 281.2 287.1 290.8 295.8 300.6 303.3 300.1 298.1 297.9 299.2 290.9 290.3 286.1 274.2 254.7 230.4 209.1 191.2 175.3 162.4 146.9 145.1 143.8 137.7 129.2 118.3 111.1 104.2 96.2 87.9 92.1 99 104.1 109.7 116.8 129
329.8 330.5 329.4 327.2 325.1 323.7 321.6 319.4 316.5 314.4 313.1 311.4 311.4 312.5 312.7 311.8 310.6 308.3 306.5 304.8 303.1 303.3 303.4 303.7 303.4 302.7 302 301.3 299.2 296.9 295.2 294.1 297.4 299.4 300.5 300.9 301.4 298.9 294.9 295.1 299 303.9 305.8 308.1 311.7 315.2 318.9 321.6 320.6 318.4 316.7 312.7 308.4 303.6 299.5 297.6 294.7 293.7 291.4 287.7 282.1 274.9 265.3 273.3 271.2 246.5 246.5 246.5 246.5 279.8 299.2 298.3 296.8 294.7 290.1 287.1 286.4 286.3 286 284.9 283.6 277.9 271 262.5 255.1 250.3 248.5 249 253.4 257.2 261.4 265.3 269.9 273.7 278.1 285.2 290.8 296.5 300.5 305.6 309.2 311.7 313.7 315.5 316.2 316.1 315.5 315.1 314.1 312.9 311.9 310.6 308.7 306.8 305.1 303.2 301.5 299.7 294.5 288.5 285.9 283.3 284.7 282.9 281.6 278.9 281 286.7 289.4 292.8 292.9 291.4 289.9 286.9 282.9 280.5 279.4 277.3 275.2 271 266.1 257 261.6 266.7 270.2 272.1 271.3 270.6 266.7 262.2 256.6 251.4 247 243.5 239.3 232 218.5 211 218.4 227.7 240.1 253.3 264.1 273.5 278.3 283.7 288.3 293.5 298.6 298.4 295.6 291.9 289.8 290.7 285.2 278.8 272.9 259.6 240.3 216 193.3 174.7 157.4 145.3 130.4 121.7 122.9 118.5 113.9 107.1 104.2 101.7 91.8 86.9 91.6 95 102.2 109.2 115.6 123.7
336.2 336.7 336.2 335.7 334.4 334.2 331.1 327.4 322.8 319.1 316.9 314.7 314 314.5 315.4 314.3 313.1 310.5 308.3 307.4 307 307.1 307.3 307.5 306.4 305.7 305 303.8 301.5 299.8 298.1 296.3 298 297.9 298.2 298.7 299.9 299.1 297.4 297.3 298 300.6 303.2 305.9 308.9 312.7 317.2 319.2 319.3 317.9 316 313.6 309.9 304.9 303.5 302.8 300.9 297.6 295.6 290.9 285.5 275.1 266.3 262.3 261.8 246.5 246.5 246.5 250.7 261.1 273.9 288.6 296.2 294 285.6 281 280.4 280.8 281 280.4 279.3 275.8 270.7 262.3 255.6 250.1 247.5 252 263.3 270.1 267.9 268.2 270.7 271.9 272.9 275.8 281.1 287.4 294.6 304.7 310.2 312.3 314.8 316.3 316.4 317.7 317.4 316.6 316.7 315.1 313.7 312.2 310.3 308.5 306.8 304.7 302.6 297.9 295.5 291.3 288.8 285 280.4 278.1 276.5 276.5 272.2 274.3 276.5 279.9 284.4 286.9 286.5 284 280 277.8 276.9 275.9 274.7 273.3 269.6 259.9 254.9 262.9 266.7 269 270.9 271.3 269.6 267.7 260.6 254.8 249.6 246 239.9 232.8 223.4 208.1 207.3 221.4 237.7 252.7 265 270.8 274.8 281.1 285.3 290.9 293.9 293.6 290.7 287 285.3 283.6 278.9 268.8 261.7 247.8 228.4 206.5 184.4 166.6 150.5 135.1 121.3 111.4 106.9 98.4 91.4 87.9 86.7 86.8 86.7 83 90.2 93.2 101 106.1 112.9 122.1
337.5 339.6 339.7 339.5 339.5 339.5 338.9 336.9 332.6 327.4 322.7 319.5 317.7 317.4 317.7 317.5 316.6 314.2 312.3 311.1 310.7 310.8 311.3 311.2 309.9 308.6 307.9 306 304.4 302.7 301 299.3 299.4 300.1 300.3 300.3 301.3 300.7 300.3 300.6 301.9 302.9 303.9 305.1 307.7 311.2 314.6 315.8 316.5 315.7 313.9 312.1 309.2 306.2 303.4 301 298.8 296.2 292.9 289.2 282.5 272 265.3 262.2 266.8 260.9 257.8 258.3 261.3 266.5 268 275.8 295 295.4 284.5 276.4 275.8 276.2 276.5 276.8 275.1 272.9 269.9 264.8 256.9 251.6 246.4 253.7 266.2 273.3 275.5 275.2 275.5 270.6 266.5 268.3 272.7 282.4 293.8 305 311.3 312.9 315.9 316.9 318.8 320.3 320.8 320 320.2 319.3 317.4 314.7 312.5 309.7 308.4 306.1 302.3 302.6 301.8 298.9 296.9 295.1 291.9 289.1 285.3 281.5 275.8 268.9 266.3 267.7 269.7 272.8 274.1 273.6 272 272.3 273 272.2 270.8 269.6 267.9 261.3 252.2 256 261.6 264.2 266.5 269 270.3 268.3 264.5 257.1 250.2 244.2 237.7 227.4 215.8 203.9 204.2 216.8 234.4 246.5 257.5 264.6 270.2 275.5 280.3 286.2 288.4 289.7 288.8 285.2 279.8 276.6 275.4 263.7 251.8 237.2 220.6 202.5 182.8 164.6 147.2 131.7 120.2 108.7 100.2 87.4 84 86 89.9 90.3 92.2 92.8 94.5 93 99.7 106.7 110.1 118.1
336.1 338.1 339 339.3 341 342.5 342 341.1 338.6 334.8 330.9 326.8 323.8 322.7 322.6 321.8 320.6 319.5 316.5 314.8 314.4 314.8 315.7 314.9 313.5 312.1 310.6 308.9 307.3 305.6 303.9 302.1 302.5 304.2 304.4 303.9 303.7 304.4 304.2 304.5 305.9 307.1 307.9 307.4 307.3 309 311.7 312.3 313 313.5 311.8 310.3 308.1 306.1 304.1 300.8 297.5 294.3 290.1 285.9 282.5 276.4 268.5 264.7 262.5 261 259.2 260.7 269.8 279.1 275.4 270.1 283.1 292.8 278.4 273.5 273 273.3 273.1 272.9 272.4 271.1 268.1 264 257.4 250.1 245.2 249.5 261.8 270.6 272.5 271.9 268.6 262.5 261.7 264.4 271.9 282 292.5 304.4 310.9 314.7 316.8 319.9 321.8 322.9 323.7 323.7 322.6 322.1 320.7 318.1 315.7 312.6 310.7 308.7 307 306.7 306.6 304.5 302.8 300.9 298.9 296 292.6 287.9 283.9 278 270.1 263.3 259.6 261.7 262.9 263.8 261.1 260.7 262.1 262.6 260.7 262.9 262.7 260 249.7 245.7 255.3 259.1 260.9 264 266.6 265.2 262.9 256.5 248.9 240.9 233.5 224.3 213.8 199.9 201.9 214.6 228.8 237.8 247.8 256.4 262.1 269.1 275.9 280.3 284.3 287.5 286.8 281.6 274.4 271.7 269.3 261.5 248.2 230.6 216.3 202.2 185.8 168.7 150.8 135.6 122.7 106.5 87.3 84.3 95.6 108.8 119.2 118 112.7 106.9 99.6 93.4 96 105.5 113.1 124.2
330 333.7 335.2 337.1 338.9 340.9 343 343.4 343.2 341.5 338.9 336.1 333.5 331.3 329.2 328.4 326.8 324.4 322.1 319.8 319.1 319.2 320.1 319.2 317.5 316 314.1 311.4 309.8 308.5 307.2 305.8 306.8 307.8 308 306.7 306.7 308.6 308.1 308.4 309.9 311.3 311.6 311.3 311.1 309.7 310.3 311.5 312.8 313.8 314.2 313.7 312.2 310.3 307.8 305.3 302.3 299.2 295.7 294.8 293.4 290 283.2 277 270.8 266.9 262.9 257.8 257.3 262.9 276.3 287.3 287.1 282.3 275.5 272 269.5 270.5 270.7 271.6 271.2 270 266.9 262.1 256.4 251 246.4 243.9 253.3 266.9 266.8 262.1 259.2 256.8 259 263.3 270.1 279.9 289.7 302.6 312.7 316.5 320.1 322.5 324.6 326.1 328 328.4 328.1 325.6 324.1 321.1 318.9 315.4 314 312.2 310.7 311.4 311.3 310.4 308.6 306.7 303.1 299.9 296.8 291.4 287.4 282.9 274.8 269.2 263.6 257.5 254.4 253.6 251.9 250.9 250.3 248.9 248.2 248.9 248.6 248.9 248.3 237.9 245.1 250.4 253.5 254.1 257 257.9 255.8 252.5 247.9 238.3 230.1 226.3 219.4 195.9 208.6 214.4 223 228.6 236.8 246.1 255.7 263.4 270.2 275.9 283.2 283.1 280 275.4 271.3 268.1 266.4 258.2 247.3 232.8 219.5 205.1 190.1 170.9 154.1 139.6 123.1 103.7 86.3 86.9 104.1 139.1 133.5 126.5 119.9 114 107.9 93.2 98.4 106 115.2 123.8
323.4 328.8 331.1 333.1 336.5 340.1 342.2 345.1 346 346.3 345.7 344.9 344.4 343.6 343.1 341.3 337.6 333.8 331.4 328.6 326 324.8 324.5 323.5 321.8 319.9 318 315.5 313.5 312.2 310.7 309.4 310.6 311.3 310.5 308.2 309.7 311.8 311.7 312.2 313.3 314.4 314.8 314.6 313.6 312.2 312.5 312.5 313.1 315.2 317.1 320.3 322.1 320.1 317.4 313.1 309.3 306.2 304 303.8 303.4 301.1 294.9 286.7 280.3 273.5 270.7 268.5 262.3 255.2 264.8 276.9 280.7 277.1 273.9 270.8 268.1 268.9 270 270.6 269.9 268.8 266.1 264.1 260.5 256.4 250.3 246 244.2 258.4 256.3 252.8 253.4 255.2 258 262.4 268.4 277 286.5 298.9 313 318.3 321.9 324.6 328.1 329.4 331.6 332.2 331.8 330.2 328.3 325.9 323.1 321.2 317.7 314.8 314.8 315 315.6 315.5 313.1 311 307.9 303.8 300.4 294.4 290.7 285.8 279.1 276.7 275.1 269 257.8 251.7 248.6 245.8 243.7 241.4 239.2 237.3 235.4 232.6 231.6 229.9 231.7 234.8 238.5 243.4 245.8 247.5 246.6 243.6 238.5 233.4 227.9 226 218.7 192.7 205.9 213.1 218.4 225 230.8 236.9 245.4 254.1 263.7 272.8 274 275.3 275.3 272.7 266.9 263.6 261.3 257 248.6 239.7 225.5 211.4 196.9 179.6 159.7 140.6 123.4 107.6 87.3 84.8 102.4 146.1 139.4 133.1 126.7 119 111.9 92.7 93 109.9 118.2 125.4
318.1 323.5 326.3 329.1 333.8 339.1 341.8 345.5 347.9 348.5 349.1 350.3 350.9 350.8 350.2 349.2 348.1 345.9 342.1 337.7 334 331.7 330.5 329 327.5 325.6 323.2 320.3 318 316 314.6 313 313.5 314.2 312.4 311.3 313.2 314.2 314 314.6 315.8 316.8 317.3 316.6 315.8 314.8 313.7 313.6 315 316.9 319.6 322.4 324.9 326 323.6 320.2 316.6 313.8 312.4 312.2 312.4 309.5 302.3 296 288.4 283.5 279.8 275.3 269.9 259.3 253.6 263.7 272.9 273.7 272.6 269.6 266.9 267.9 269.1 269.5 269.3 268.2 266.7 265.5 263.8 260.6 252.7 246 242.6 248.3 247.3 255.9 262.2 264.9 263.9 265.6 267.9 275.5 284.1 294.8 308.8 320.6 324.1 326.6 330 332.2 335.1 336.1 335.5 334.5 331.7 330.2 327.4 325.2 322 319.2 318.4 318.8 319 318 316.4 314 311.2 308.5 302.6 296.6 293.8 289.6 286.7 285.7 285 280.4 272.3 263.8 257.9 256 253.7 251.4 247.4 247.1 250.7 250.4 244.3 236.5 230.5 226.1 220.4 223 227.2 231.1 233.6 235.1 231.7 227.7 225.6 225.4 222 200.1 195.8 206.9 215.7 221.9 225.5 229.5 236.4 247.3 256.7 265.4 269.8 272.7 272 267.5 261.9 258.5 256.3 255.6 250 241.9 233.1 219 206.1 188.4 168.6 147.2 123.4 105.6 89.4 89.2 84.6 111.8 145.2 139.1 131.7 124.1 116.5 102.9 95.2 107.2 114 123
312.5 317.1 320.9 326.2 331 336.4 341.5 345.5 349.2 350.3 352.7 353.7 353.9 353.7 354.1 353.6 352.7 351 348.9 346.3 342.5 339.7 338.1 335.4 334.7 332.9 330.6 327 324.5 321.9 319.3 317.6 316.4 315.9 314.2 314.1 315.2 316 316.1 316.9 317.9 318.8 318.8 318.2 317 315.8 314.6 314.8 315 315.8 318.4 321.4 324.2 327.3 326.2 323.5 320.7 318.6 317.8 319.7 319.7 318.5 315.6 307.2 297.8 289.9 285.9 281.3 274.9 266.8 254 252.3 263.2 268.9 268.8 268.1 264.7 266.7 268.4 268.4 268.5 268.2 266.9 266.4 264.7 259 251.6 245.5 242.7 244.7 252 262.6 272.7 278.5 281.7 277.2 270.4 275.8 283.6 292.3 304.6 320.4 324.5 328.3 331.1 333.5 337.2 337.5 337.9 336.6 335.3 333.2 330.5 327.4 324.8 321.8 320.6 320.3 320.9 320 318.1 315.8 312.3 309 304.3 299.7 296.4 294.6 293.9 293.6 293.3 288.7 281.2 275.1 270.5 270 268.2 262.7 258.2 257.3 256.5 255.4 250.5 243.1 240.4 239.7 232.8 224.2 217.4 211.4 214.1 224 225 219.7 218.5 221.1 220.3 199.8 189.3 202.5 213.5 217.3 217.7 223.1 225.6 235 248.3 262.4 265.9 266.2 264.2 260.8 257 253.9 251.8 252.4 251.6 242.4 234.9 224.3 209.9 196.3 174.7 151 126.9 106.3 96 90.8 86.7 87.3 111.3 143.7 137.7 129.7 121.8 115.4 109.5 99.1 120.9 124.6
308.7 311.9 316.3 321.7 328.1 332.7 338.9 345.6 349.7 352.3 354.2 355.2 355.6 356 355.7 355.4 354.8 353.3 351.8 350.4 348.3 346.3 344.2 342 342.4 342.1 340.1 336.4 333.3 331.3 326 322.3 319.6 317.9 317.2 317.1 317.2 317.5 317.9 318.8 319.8 320.9 320.2 318.6 316 314.5 313.3 312.1 312.2 313.5 314.9 316.8 318.7 322 321.9 322.2 319.3 317.7 319.1 323.1 321.4 318.7 316.6 313.5 304.1 296.9 293 285.8 279.1 271.8 262.9 250.7 257.7 264.3 265 264.1 261.6 264.3 266.2 266.6 266.9 267.1 267.1 266.2 264 258 250.5 243.3 242.9 258.5 262.8 264.8 274.2 280.3 284 284.8 282.2 278.9 284.5 290.9 301.1 315.7 324.4 328.7 330.9 334 335.9 336.9 337.4 337.3 335.8 334 331.4 327.8 326 323.7 322.1 320.9 321 320 318.4 316.2 314 311.1 307 303.6 300.5 298.3 298.6 298.2 296 292.3 287.8 284.5 280.8 280 276.8 270.6 265.7 263.6 260.6 257.4 253.4 248.6 244.9 241.3 237.6 231.9 225 219.3 209.3 204.3 208.4 204.6 200.3 201 200.6 193.3 186.4 193.6 203.7 209.5 211 212.3 216.8 227.1 241.1 252.9 257.8 257.7 255.7 252.4 250.1 247.8 248.4 252.9 254.6 246.6 235.8 225.7 213.8 201.8 176.9 149.4 127.8 114.7 103.8 95.9 88.6 84.2 92.4 113.7 143.1 135.6 128 121.7 118 110.6 114.2 121.6
306 308.2 311.7 317.3 322.6 327.1 334.8 342.7 349.7 353.1 355.5 355.7 356 356.6 356.8 356.5 356.2 355.1 354.7 354.2 352.3 350.8 349.4 346.6 347.3 347.8 347.3 346.3 344.4 340.2 333.4 329.1 323.8 321.9 319.9 319.5 319.5 319.2 319.9 320.9 321.7 321.9 320.3 318 315.5 312.4 310.9 308.9 308.7 309.9 310.6 311.7 312.7 314.2 315.9 316.1 314.1 312.9 312.1 314.1 315.5 315.8 313.5 310.7 304.7 301.2 296.4 289.3 280.1 273.3 265.5 256.3 252.1 260.4 260.8 259.1 256.4 260.8 262.5 264.4 265.3 265.5 266.3 264.9 262.4 257.5 249.5 240.8 244.6 268.4 274.3 275.5 279.2 282.6 283.9 285 285.2 284.5 287.2 290.1 299.2 308.5 321.3 327.7 330.7 333 333.9 335.4 335.9 336.1 334.9 333.5 331.9 329.7 327.5 324.6 323.6 322.9 321.8 320.1 318.2 316.4 314.3 312.3 309.8 306.3 303.3 300.7 301.1 300.9 299 295.8 294.1 290.4 288.4 284.5 280.9 276.4 271.8 267.7 263.7 259.6 253.9 248.6 243.8 238.4 233.4 228.4 225.2 223.9 222.6 210.8 200.8 200.8 201.8 196.1 188.2 186.4 184.9 183.5 188.5 195.6 202.7 204.1 211.8 220.9 232.5 244.7 249.7 249.9 250 246.9 243.9 243.8 248.2 253.8 255.9 250.3 239.3 228.2 217.1 204.9 180.6 156.1 137.8 126 112.9 101.9 94.3 86 84.4 97.4 126.2 141.8 133.7 129.7 123.7 118.4 119 117.3
303.3 303.4 306.8 311 316.6 323 330.2 340.2 348.6 355 356.1 356.6 356.4 356.8 357.8 357.6 357 357.2 357.3 357.2 355.9 354.4 353.2 350.7 351.1 350.4 350.1 349.8 350.4 349 347.1 336.5 329.4 325.5 323.4 321.9 321.9 321.2 320.8 321.4 321.9 320.6 318.6 315.2 311.3 307.8 306.3 305.2 305.4 305.6 305.2 306 307.5 308.9 310.3 309.7 309 307.9 306.5 305 304.7 305.1 304.2 300.5 297.2 296.5 293.2 286.9 279 274.6 268.3 260.3 249.9 253.6 256.5 253.6 251.8 256.8 258.6 260.6 262.4 263.2 264.2 263.3 260.9 255.7 248.9 240.8 248.9 268.9 276.9 280.7 279 279 280.5 283.2 285.1 286 286.5 290 295.3 306.1 316.1 325.7 329 331.6 332.8 333.7 333.6 334 333 331.9 330.9 329.9 327.5 326.3 325.4 324.4 322.9 321.8 320.8 319.6 317.5 315.2 313.4 309.7 306.5 303.9 303.2 300.8 299.6 299.2 296.8 293.7 291.4 288 284.2 280.6 275.2 271.5 266.2 260.5 253.2 245.9 241.1 237.1 233.7 232 229.6 228.2 223.4 220.2 217.4 219.6 216.9 215.3 207 201.5 193.5 187.5 183.8 179.9 191.6 198.5 207.6 216.5 226.5 238 245 246.7 247 243.3 239.3 241.7 248.7 251.9 251.8 248.2 241.5 229.5 214.2 203.1 180.9 162.1 146.6 137.6 122.2 108.4 102.1 96 84 87.6 114.3 151.3 144.9 137 129.9 125.3 124.9 124.2
304.4 302.6 302.7 306.1 310.9 317.5 326.5 334.8 344.6 351.9 354 354.7 355.1 356 357.8 358.1 358.1 358.7 359.2 359 358.1 357 355.4 353.8 352.2 351.8 351.5 351.2 353.5 354.3 353.9 347.6 333.4 325.9 322.9 323.4 324 323 322.1 321.3 319.4 317.7 315.7 311.9 307.8 304.8 303 301.8 302.8 303 302.3 301.5 302.3 303.7 304.9 304.9 303.7 302.2 300.5 299 297.5 295.8 293.6 291.2 289.3 288.2 285.8 282.7 278.1 274.9 270.6 265 258.1 248.2 248 246.6 246.2 249.1 252.4 255.1 258.1 259.5 260.8 261.1 257.7 254.2 247.8 240.8 247.6 266.2 272.6 276.4 274.7 274.8 276.6 280 282.7 283.2 284.7 289.8 295.3 305.2 315.5 324.4 327 329.8 331.6 332.2 332.1 331.5 330.6 330.2 329.8 328.7 327.5 327.2 326.2 325.2 324.1 322.9 321.8 320.7 319.3 317.6 315.3 312.7 309.1 306.3 303.6 300.9 300.1 298.9 296.8 294.7 292.3 289.7 286 282.6 278.2 273.1 266.8 259.5 252.8 251.6 250.6 246.4 242.7 238.1 235.4 232.7 229.1 226.9 225.8 225.4 222.8 221.1 215.8 212.8 203 195.5 189.6 184.1 177.8 191.4 206.6 217.2 226.1 236.5 240.6 241.3 242 238 234.8 242.4 248.1 247.3 245.6 243.8 239.4 227.4 210.8 195 180.1 165.4 153.1 139.8 127.6 114.8 104.6 100.3 86 84.3 108 155.2 150.7 142.4 135.7 131.1 130.8 132.2
305.6 302.1 300.9 302.6 306.2 312.9 322 331 340.5 347.4 349.8 351.5 354.5 356.5 357.5 357.8 358.2 358.6 359.4 359.3 358.8 358 356.9 355 353.5 353.2 352.9 352.6 354.9 356.7 358.3 346.9 331.9 324.5 320.2 320.8 323.1 323.1 320.9 318.3 315.9 314.2 312.1 307.9 304.5 301.8 299.6 298.5 298 298 296.1 294.5 294 296.2 298.5 298.8 298.1 296.4 294.6 292.7 290.4 288.1 286.9 284.5 284.6 283.6 283.1 280.2 277.2 275.4 273.2 270.3 266 260.7 255.3 249.5 245.5 243.8 244.4 248.4 252.8 253.7 254 254.3 253.7 248.8 242 240.8 249.1 259.7 262.4 261.9 265.1 265.9 272.1 276.5 279.1 280.4 283.6 288.3 294.7 302.9 313.5 322.2 324.2 326.8 329 330.7 330.6 329.5 328.5 328.3 328.2 327.8 326.6 326.3 326.2 325.7 324.2 323 321.5 319.9 318.6 317.5 315.3 312.6 309.5 307.4 304.9 301.8 300.5 298.2 296.6 294.5 292.2 289.3 286.9 283.6 278.2 272.3 266.7 263.7 263.3 262.9 259 255.1 250.6 245.4 242.5 239.1 236.2 233.5 231.4 229.4 227.4 223.7 219.4 210.5 203 196.1 191.7 189.8 178.6 176 200.6 218.7 225.5 232.6 235.2 233.6 231.7 227.4 233.5 242.8 228.3 230.8 239.3 237.4 234.2 223.1 205.7 193.9 185.8 170.6 158.9 144.4 129.3 117 107.9 100 87.4 84.5 104.3 148.9 152.9 144.6 139.5 136 134.9 134.2
305.9 303 300.5 301.4 303 308.5 317 325.3 333.2 339.8 344.2 350.3 354.7 356.9 357.3 357.6 358 358.4 358.9 358.6 358 357.3 356.2 354.9 352.8 351.8 352.3 353.3 354.6 355.4 353.2 338.9 330.1 322.6 318.5 316.7 317.6 319.9 319.9 317.4 315.5 311.7 307 304.1 301.4 298.8 296.5 294.4 293 292.2 292.8 291 289.8 288.1 287.2 288.9 291.5 289.3 287.9 285.2 283.1 281.3 280.4 278.7 278.6 279.6 281.2 280.5 279.6 277.1 274.6 271.9 268 264.2 259.9 253.6 249.8 245.3 243.3 242.6 244.2 245.2 243 241.3 243.8 248.2 243.6 239.2 253.6 251.8 248.5 252.4 254.7 259.4 265.9 272.8 276.1 280 283.8 288.2 294.7 303 311.1 318.1 321.4 323.8 326 328.2 328.9 328 326.4 324.9 324.9 324.4 324.1 323.8 324.7 324.6 323.5 321.4 320.2 318.6 317 315.4 314 311.7 309 306.2 304.3 302.3 301.2 298.6 296.5 294.3 291.5 288.5 285.1 281.2 278.1 274.7 273 271.6 270.3 267.4 264.4 260.7 255.2 251.6 248.2 245.1 242.1 239.1 236.3 233.6 230.9 227 223.6 215.5 207.2 196.9 188.3 186.2 178.8 171.8 184.4 201.4 215.7 225 229.4 226.6 223.3 221.3 234.1 215.9 214.8 214.1 215.1 230.8 228.3 224.3 211.1 195.9 187.2 180.1 163.1 146 128.8 117.4 109.8 104.5 94.3 83.8 101.5 133.1 151.9 144.7 140.2 137 135.8 135.9
306.8 303.7 300.8 298.8 300.9 305 310.8 319 326.8 334.7 343.5 350.5 354.8 356.5 357 357.4 357.6 357.5 357.5 357.3 356.8 355.7 354 352.7 351 349.5 350 351.5 352.8 351.9 342 334.6 326.1 321.1 316.7 313.9 313.4 315 312.7 312.8 312.4 309 303.8 300.3 297.9 296.7 296.1 296.9 297 296.6 298 298.2 297.9 296.8 294.8 289.6 284.9 282.4 281.2 280.4 278.9 277.7 275.8 274.4 272.9 272.8 278.3 280.6 280.2 278.3 275.7 272.9 269.9 266 262.7 257.9 252.8 249.1 247.4 243.6 241.7 242.3 241.8 239.5 238.1 235 237.5 237.3 241.5 242.1 250.5 256.5 260.6 263.9 268.6 274.6 277.4 281.2 284.8 288 294.6 302.8 310 315.3 320.3 323 325.3 327.3 328.4 327.1 325.1 322.9 321 320.3 320.6 320.5 321.4 322.4 321.5 320.7 318.7 316.2 313.7 313 311.6 310 307.4 305.4 304.2 303.4 300.8 299.4 299 296 292.5 289.1 287.2 285.1 282.5 280.4 278 276 273 270.1 266.3 263.2 258.9 255.5 251.8 248.9 246.9 243.7 240.8 237.6 234.2 230.9 227.3 222.2 214.4 201.6 189.5 189.1 182.3 172.7 164.1 177.9 195.5 216.4 223.9 210.9 212 217.5 227.1 224.1 212.3 213 201.1 225.1 223 220.2 219.1 208 191.4 179 165.4 146.6 125.5 113.9 109 106 99 83.6 101.2 133.2 149.5 143 139.6 136.7 135.2 135.8
307.2 304 300.9 298.2 299.8 302.5 307.5 313.1 323.1 328.5 340.3 347.9 352.5 355 355.2 355.3 355.5 355.6 355.5 355.4 354.7 353.1 351.4 349.9 348.8 347.6 346.9 347.4 349.8 344.7 336.2 329.5 323.3 318.9 316.3 312.9 310.3 308.8 306.4 305 304.2 302 300.4 300.4 300.4 301.6 301.9 302.5 303.2 302.4 302 302.3 302 300.9 299.6 294.3 292.2 290.6 289.7 290.1 287.7 285.5 282.8 280.7 276.6 271.2 270.5 277 277.4 277.2 275.2 272.1 270.2 266.8 263.5 260.2 257.6 253.4 250.2 244.3 245.5 254.5 253.4 248.2 239.8 238.4 237.2 235.8 237.6 247.6 255.4 261.1 266.8 273.8 278.6 279.9 281.3 283.3 285.9 289.1 294.5 301.7 309 314.6 318.8 321.8 324.6 326.5 326.5 325.5 323.7 321.5 319 315.5 315.7 316.3 317.9 318.6 319 317.4 315.3 313 310.5 309.2 308.5 307.9 306.5 305.1 303.9 302.5 301 299.5 298.1 295 293.7 291.5 289.5 287.8 286.7 283.4 281.8 279.3 275.6 271.4 267.6 264.4 261.1 257.7 253.4 250 247.5 244.3 242.6 240.6 237.2 233.8 230.6 226.9 221.3 209.3 195.9 191.5 183.7 173.7 162.1 153.4 174.5 197.9 214.3 209.3 204.6 203.3 204 220.6 200.8 201.7 199.7 218.7 217.1 215.3 214.6 213.3 198.7 180.8 166.1 149.6 132.6 117.1 108.7 105 101.8 84.7 97.9 150.3 145.9 140.7 137.5 135.1 134.6 134.9
307.2 303.9 300.8 298.5 291 293.4 303.9 309.3 315.6 323.9 327.7 337.4 346.6 351.2 352.5 352.6 353.3 353.5 353.6 352.6 351.8 350.4 348.8 347.1 345.2 344 343.5 344.2 344.5 337.3 330.5 325.2 320.3 317 314.1 311.4 309.1 307.5 307.3 309.3 309.7 308.6 306.9 303.3 304.8 307.2 307.8 308.4 309.1 308.5 307.6 306.8 305.6 304.4 302.5 300 297.8 296.9 295.1 294.2 291.2 288.7 286.2 283.8 280 274.3 268.3 270.9 273.4 273.5 273.3 270.8 269.8 267.3 264.7 261.9 258 252.4 248.1 247.2 250.2 255.1 254.3 246.3 241.1 240.5 240.2 236 235.9 248.7 260 269.5 274.1 280.4 284.7 286.7 287.8 291 291.8 293.4 299.2 304.8 309.3 313.5 317.2 320.7 323 324.4 324.3 323.2 321.4 319.6 317 313.5 311.9 312.6 314.4 314.6 314.8 314 312.6 309.7 307.6 305.9 305.3 305.5 304.8 303.9 302.5 301.2 300 298.8 297 296.1 294.9 293.2 291.5 289.4 288 285.8 282.6 281.2 277.3 272.6 268.9 266.2 260.3 256.7 252 249 246.5 244.1 241.8 241 239.1 236.3 231.9 228.1 225.6 215 201.5 192.6 184 173 163.5 145.5 155.4 171.9 186.5 191 205.3 214.6 202.9 208.4 212.3 189.9 197.2 212.7 211.5 210.5 210.8 210.6 204.3 187.5 168.8 152 137.3 123.3 110.8 104.2 95.9 85.8 98.5 145.4 144 138.8 135.4 133.1 132 132
307.7 304.1 300.3 300.1 291 303.2 301.8 305.2 308.5 314.9 322 329.8 338 343.6 347.7 348.9 351.5 351.6 351.2 350.3 349 347.6 345.5 343.5 341.8 340.3 340 338.2 335.8 331.4 326.3 321.7 319.8 316.3 313.9 312.4 310.9 309.4 311.5 313.7 312.8 311.1 309.8 306.5 309.4 311.7 313.3 314 314.9 313.9 313.4 313.7 310.3 308 306.4 304.1 303.7 302.5 300.3 297.6 294.3 291.3 287.8 284.6 281.1 276.9 269.8 266 265.2 266.1 266.9 268.5 268.6 267.1 265 260.9 256 249.5 252.2 255 255.4 253.1 245.5 247.8 251.5 250.3 247.5 242 235.9 239.1 263 273.7 278.2 284 287 289.3 291.8 293.7 296.1 298.9 305.8 311.4 314.4 315.4 317.3 318.7 320.3 320.9 320.7 319.9 318.2 316.6 314.7 311.5 308.1 309.9 311.1 310.6 310.6 310.1 309.1 306.5 304.7 302.9 302.2 302.7 302.5 301.9 299.4 299.8 298.8 297.6 296.7 295.8 294.9 293.6 292 290.4 288.6 286.8 284.9 282.5 279.4 275 269.8 263.9 258 252.6 248.5 244.8 241.8 238.6 234.9 232.9 232 233.6 226.5 227.3 222.9 214.9 205 195.9 184.5 175.7 167.4 153.4 139.9 149.2 159.7 176.6 200.3 207.9 209.3 194.5 202.2 188.9 190.2 209 206.8 205.9 205.6 205.5 204.9 191.1 173.5 157.9 141.7 128.5 115.8 105.1 93.7 84.3 101.1 147.6 141.4 137.9 134.2 131.2 129.4 128.1
306.9 302.4 298.5 301.2 303.6 299.9 301.8 303.6 306.6 311.2 315.9 323.7 330.1 336.1 341.9 345.9 348.9 351.1 351 349.9 347.5 344.7 343.1 341.4 339.2 336.8 336 334.6 332.6 331.7 328.2 324.4 321.3 318.9 317.1 315.5 313.8 312.2 313.7 316.3 315.6 314.1 312.3 310.8 314 316.3 318.6 319.6 321.1 320.8 321.4 320 317.1 313.1 311.4 310.2 310.9 308.6 307 302.7 297.1 293.1 290.1 286.8 281.7 278.4 277.3 274 270.2 266 262 259.7 258.1 256.7 255.4 253.2 255.5 258 257 258.5 256 249.4 250.3 256.6 270.1 264.7 255.6 250.3 240.6 236.1 252 241.4 242.2 280.8 286.9 289.2 291.3 293.5 296.2 300.4 307.3 314.2 317.5 318.5 317.8 316.5 316.5 316.6 316.5 316 314.7 313.2 312.1 309.3 305.3 307.1 307.5 306.7 306.4 305.8 305.2 303 301.6 300 299.1 299.7 300.1 300.2 299 298.4 297.5 295.6 295.1 295.3 294.3 293.7 292.2 290 288 287 284.5 283.3 279.6 276.4 270.9 265.9 257.3 247.9 238.1 234.9 229.9 225.1 219.1 215.9 214.5 215.8 212.1 208.2 202.5 197.4 192 185.9 179.4 175.3 173.5 164.9 142.6 130.9 143.2 157.3 176.3 190.8 204.6 185.3 171.4 173.9 183.4 200.3 203 201.9 200.1 200 197.5 189.8 172.5 157.8 144.1 129.7 115.2 101.3 91.5 83.2 104 143 140.7 137.3 134.1 130.6 127.6 125
300 296.2 296 295.4 298 300.4 302.7 304.5 307.7 309.9 313.7 318.7 324.5 331 338.3 344.3 349.4 354.5 355.1 353.1 350.6 346.1 343.7 341.8 340.8 339.3 338.8 337.8 337.8 336.7 333.6 330.7 327.1 323.1 320.1 318.3 316.7 314.6 315.1 318.1 317.9 316.3 314.9 314.5 318.5 321.6 323.8 324.9 329.3 334.5 337.4 331.6 326.3 322.7 323.8 325.2 321.8 316.4 313.9 307.4 300.8 296.2 292.9 288.9 288.1 287.8 285.5 282.6 278.8 275.9 271.2 268.8 266.9 265.5 265.4 265.5 264.1 263.4 262.2 259.8 257.4 248.4 254.4 260.1 270.9 273.9 272.5 254.6 245.1 235.8 241.8 235.2 235.7 259.7 282 287.7 289.4 291.4 295.8 300.3 305.4 314.1 318.1 319.8 319.4 317.2 315.2 312.2 312.2 311.6 311.2 310.5 309 307.3 302.9 303.1 305 303.3 302 301.4 301 299.5 298.2 296.7 296.1 296.7 297.4 297.4 297.2 296.5 295.8 295.2 294.6 292.9 293.8 293.7 292.4 289.7 288.1 284.4 283 281.8 278.8 274.3 269.6 262.6 252.1 241.1 231.8 222.5 216.5 210.7 205.9 203.3 201.1 197.9 191.4 185.6 180 174.4 170.9 168.3 165.1 162.8 163.3 159.5 136.6 127.6 128.3 140 150.2 167.3 189.7 180.5 155.5 146.2 146.8 191.1 197.5 200.3 197.5 195.3 191.5 184.8 168 152.4 138.4 124.6 108.8 92.9 80.7 83 105 139.2 138.5 138.3 136.5 134.8 128.8 124
298.1 301.7 303.3 300.4 299.3 300.8 303.5 306.1 310.4 314.3 318.6 320.3 325.1 330.7 338.4 345.5 356 359.6 360.1 358.1 354.9 349.9 346 344.4 344.1 343.9 343.7 345.1 347.8 345.9 341.2 335.9 330.9 326.5 323 320.9 319.1 316.9 316.7 319.7 320.1 319.1 317.4 317.7 321.5 326 329.6 336.2 337.5 338.2 338 335.9 332.8 330.4 329.8 329.3 326.3 320.3 315.8 309.3 304.6 299.3 295.8 295 294.8 293.6 292.4 290.4 286.4 281.8 277.5 274.6 273.6 272.3 271.5 270.2 268.5 240.7 230.2 255.6 257.1 251.9 255.5 255 254.9 266.2 266.1 254.6 246.3 234.2 236.9 234.5 237 256.8 282.1 284.4 287.3 290.1 294.3 298.8 305 312.6 316.7 317.8 318.2 316.5 313.4 310 307.1 307.3 308 307.5 305.5 303.4 299.9 298.9 300.9 299.8 297.9 297.1 297.1 295.8 294.7 293.4 293.2 293.8 294.8 294.8 295 294.5 294 293.6 293.3 293.1 293.5 293.1 291.8 289.3 286.6 283.5 279.7 275.7 270.5 266.9 260.2 251.3 240.2 234.4 228.2 219.7 210.1 203.7 197.7 194.4 191.7 185.2 175 166.4 157.7 150.5 147.7 146.7 144.5 143.2 142.1 135.9 125.5 122.2 121.9 122.3 125.1 136.5 160.8 177.3 138 136.1 146.9 177.6 186 188.8 192.4 191.8 188.8 176.6 161 144.2 129.6 114.6 98.8 85 79.8 93.6 113.9 134.3 136.9 141.2 142.8 139.6 132.7 124.4
312.5 313.2 311.8 307.7 303.7 301.3 305.3 308.4 313.6 319.4 323 326 330.2 333.7 341 350.2 359.3 363.3 366 364.4 360.8 355.2 349.8 348.4 350.4 355.7 358.7 360.5 361 351 343.7 337.4 332.3 328.6 325.2 322.5 321.2 319.4 318 321.6 322.6 321.9 320.8 319.3 324.6 329.4 334.6 337 338.1 337.8 338.2 336.2 335 333.7 332.4 330.2 327.5 324.3 319.3 312.8 307.7 303.5 300.5 300.5 300.3 298.9 297.2 295.3 291.6 287.2 283.1 279.7 277 275.2 266.3 227.8 228 226.8 235.8 259.9 254.9 258.3 254.5 253.8 248.1 251.9 262.4 254.6 246 232.9 233.4 241.7 262.3 275.1 278.8 282.9 286.4 289 293 297.7 303.6 309.4 313.2 315.3 314.8 313.7 311.6 308.2 305 304.2 305.7 304.2 301.9 299.4 296.5 294.5 296.1 296.4 294.6 293 293.2 292.2 291.5 290.8 290.4 291 291.8 291.8 292.2 292.3 292 291.8 292 292.2 292.4 292.3 290.5 288.5 285 280.3 273.8 268.4 263.2 256.9 246.5 241.4 235.2 231.7 223.5 216.5 204 195.9 189.8 183.6 174.5 164.9 153.8 142.1 131.6 127.6 126.3 126.7 125.9 125.6 125.4 123.8 127.2 129.8 128.3 125.5 122.2 118.4 137.5 159 133 133.6 137.3 158.6 170.8 173.9 177.4 180.7 178 167.4 150.3 132.1 115.9 100.6 86.2 81.2 83 102.9 130.9 134.3 134.7 137.7 141.9 134.9 130.2 123.3
318.2 319.1 317.6 313.9 308.9 307.4 308.1 310.2 315.4 321.7 328.3 334.1 336.9 339.7 344.9 353.6 360.4 365.4 369 368.8 365.3 361 355.6 352.8 355.5 359.3 362.3 361.2 353.7 348.2 342.2 336.6 332.3 329.5 327.5 324.7 323.4 320.4 319.6 322.7 325.2 326.5 326.4 324 328.7 332.7 334.7 336 337.6 338.7 339.2 339 338.2 337.3 335.6 333.4 332.1 329.4 324.9 320 313.3 308.6 305.1 305.4 304.5 302.8 300.8 297.8 294.5 289.9 268.1 237.3 226.3 226.8 226.8 226.8 226.8 260 256.2 258.5 261.6 224.1 224.1 224.1 232.9 237.2 255.5 255 245.2 231.4 240.4 259.5 265.3 270.5 276.8 281.3 285.9 288.6 292.4 297.4 302.1 306.7 310.3 310.7 310.5 310.4 308.8 306 302 301 303.6 302 300.2 296.1 292.7 289.9 291.3 292 290.8 289.4 289.5 289.3 288.3 287.4 287.3 288.2 288.8 288.7 288.9 289.2 289 289.9 290.1 290.3 290.7 290.3 289.2 286.5 283.6 279.3 271.7 260.3 253 245.4 239.1 232.6 230.4 221.9 213.9 206.6 196.3 188.4 168.8 168.4 149.7 139.6 132.5 136.9 146.2 149.8 149.1 144.9 141.1 137.3 131.4 133.5 136.1 139.8 138.5 134.1 129.5 118.1 128.2 160.1 131.3 131.3 131.5 150.1 150.6 157.7 163.3 167.3 167.2 157.3 141.1 121.7 104 90.4 83 79 92.9 107.1 135.1 129 128.5 126.9 124.8 117.8 110.4 104.4
315.8 319 322.5 319.6 315.6 313.9 313.6 314.8 316.2 321.3 329.3 335.1 339.6 343.9 348.5 353.4 359.3 365.2 370.5 369.1 367.4 364.4 360.7 358.1 359 361.7 361.9 355.9 349.3 344 339.9 336.1 333.3 331 329.6 327 325.6 321.7 321.5 325.4 328.2 331 331.6 329.6 331.1 334.7 337.2 338.9 340.6 341.2 341.6 342.8 342.3 342.7 342.2 339.4 337.8 335 330.8 325.3 318.4 313.1 310.4 310.3 308.5 306.2 302.6 299.7 240.4 225.6 225.6 225.6 225.6 232.6 231.7 231 262.9 262.1 269.1 270.1 248.3 224.1 224.1 224.1 224.1 232.5 262.6 255.7 242.9 229.6 247.3 263.2 272 276.4 279.3 281.3 285.7 289.1 292.2 295.9 301 305 306.7 306.7 306 306.7 306.3 304.8 300.7 298.4 300.1 300.6 298 293.3 289.4 286.4 287.5 289.1 288.8 286.9 285.9 286.4 285.5 284.6 283.6 284.4 285.3 285.5 285.7 286 286.1 287.6 288.2 288.5 288.3 288.5 288.2 285.9 282.4 278.4 266.9 247.7 237.8 234 231.2 230.6 227 210.7 200.1 189 151.5 152.5 155.4 144.6 135.6 134.7 148 160.8 168.7 173.2 172.8 168.3 161.9 153.3 148.4 145.3 144.9 145.3 143.3 136.9 129.5 115 116.6 152.1 132.6 130.4 132.3 126.4 123.5 133.6 145.4 154.4 162.6 151.6 131.9 117.3 99.4 83.1 78.6 86.9 97.2 106.4 115.1 120.9 116.2 111.3 104.5 97.3 87.3 84.5
307.3 313.9 321 324.3 324.4 322.8 321.7 321.2 321.4 322.6 327.7 334 338.7 341.9 346 351.6 356.9 361.5 366.2 366.9 365.1 364.4 362.9 362.3 361.7 361.4 358.5 350.2 345.5 341.7 338.8 336.4 334.7 332.4 331.2 329.3 327.6 322.5 323.9 327.1 331.2 334.7 335.6 335.5 334.4 337.4 339.8 342.4 344.4 344.7 345.1 346 347.9 348.2 347.3 345.6 341.7 338.4 334.7 330.2 323.9 317.2 314.9 314.2 311.6 308.2 290.6 228.2 225.6 225.6 229.1 229.9 230.2 241 251 262.3 271.6 275.8 277.4 273.7 257.2 224.1 224.1 224.1 224.1 224.1 236.2 255.6 239 232.1 251.7 264.9 273.8 279 281.4 282.6 285 289.1 292.4 296.1 301.1 304.5 303.9 302.6 302.7 304.1 303.8 303.9 301.3 296.7 296.6 298.7 296.8 292.6 288.6 284.7 283.4 286 285.4 284.6 283.4 282.6 281.8 281.8 280.8 281.8 282.9 283 283.1 283.2 283.4 284.2 285.7 285.6 285.7 285.8 287 284.5 281 274 255.3 239.4 234.4 229.1 223.8 218.2 212.4 204 183.3 142.4 142.4 139.4 136.9 144.1 152.4 162.1 172.6 180.7 190.9 196.5 196.6 191.1 183 171.1 169.5 164.1 158 153 147.3 140.7 129.1 115.5 113.4 135.8 144.7 118.3 113.9 104.1 102.3 108.8 123.6 135.3 144.8 151.1 133.6 117.7 94.4 80.4 82.5 93.1 97.2 101 103.4 103.5 99.7 93.3 86.6 81.9 80.4 80.8
296 303 314.6 322.9 328 328.9 328.2 327.7 327.3 327.4 328.6 332.8 335.6 338.9 342.6 347 351.3 355.3 358.4 360.3 361.2 361.2 360.7 360.5 360 359 354.5 346.5 342.1 338.8 337.4 336.2 335 333.8 332.6 331.1 329 323.7 327.8 330.6 334.8 338.9 339.4 339.2 337.4 339.8 342.1 345.2 348.6 349.3 350 351.6 352.5 352.9 351.5 350.3 346.6 341.2 338.2 333.6 327.1 321.1 319.6 317.2 313.4 309.2 256.6 227.8 230.6 244.7 250.3 257.3 256.2 258.7 265.4 277.6 263.3 252.7 277.8 278.2 259.9 230 224.1 224.1 224.1 229.8 240.1 254.1 237.8 227.9 247.1 264.6 273.9 279.2 282.2 283.8 285.5 287.1 292.2 296.3 300.7 302.2 300.2 298.8 301.3 302.9 302.8 303.3 302.2 297.7 291.6 294.7 296.4 291.6 287.3 283.4 279.4 281.9 282 281 280.4 280.1 279 278.8 278 279.7 280.3 280.5 280.7 280.9 281.1 282 283 283 283 284.1 285.4 284.1 278.7 265.3 246.1 234.7 229.2 224.7 213.5 197.9 207.8 154.4 142.6 140.4 139.2 143.9 152.8 166.6 177.8 186.5 194.1 203.1 213.1 219.4 220.7 216.4 207.1 197.8 197.1 194.3 185 169.3 156.3 145.6 132.9 119.6 110.9 114.7 117.4 110 106.3 111.4 110.1 103.2 101.8 116.5 125.1 135.2 140.7 116.4 96.9 77.9 81.6 87.2 89.6 91.3 91.2 89.9 86.4 83.1 80.4 79.2 80 77.3
288.3 296 305.9 317.9 323.9 326.4 332.3 332.4 332.3 321.5 330.2 333 334 335.4 337.3 339.9 343.7 346.5 348.7 351.7 353.4 355.5 355.8 355.9 355.5 354.6 349.8 343.4 339.9 337.6 336.2 336 335.1 334.2 332.7 331.3 327.7 326.4 334.9 335.2 340.4 343 343.3 342.3 340.4 341.6 344.9 349.1 352.7 354.3 354.8 355.3 356.2 356.8 355.4 353.4 351.8 348.3 343.6 340 333 325.6 321.5 318.4 314.9 295.4 229 230.1 241.7 242.4 258.3 260.1 258.8 266 270.9 267.9 260.5 263.4 245.5 277.2 261.2 235 224.1 224.1 224.1 234.8 256.8 255.3 240.8 226.8 241.9 264.7 272.5 279 282.2 284.8 284.4 284.4 289 295.2 297.2 297.3 295.3 295.9 299.8 301.8 302.4 301.6 300.7 295.7 289.6 290.1 293.3 290.7 286.4 282 277.8 278.1 279.4 279.7 278.9 278.1 277 275.8 275.7 277.5 277.8 278.1 278.3 278.6 278.9 279.6 280.5 281 280.7 282.2 282.5 279.8 272.8 255.3 240.5 230.9 223 210 194.8 183.1 170.3 152.7 141.1 139.3 154.5 169 181.4 192.1 200.5 206.6 216.9 226.1 233.9 239.5 235.3 229.2 219.6 217.6 217.7 213 207.5 191.9 176.7 160.1 146.8 131.5 121.1 110.4 109.4 108.3 121.2 130.3 129.2 120.9 103.2 98.8 106.7 117.2 122 125.4 109.1 84.7 77.9 79.3 81.7 82.8 82.7 81.9 81.4 80.2 77.9 77.3 77.8 79.4
279.7 289.8 299.6 311.6 316.4 323.8 330.7 333.8 329.4 322.4 321.4 332.9 333.5 333.4 334.7 336 338.6 341.1 343.8 345.6 347.3 350.2 350.7 351.1 350.6 348.3 345.9 340.8 338.3 336.4 335.9 335.3 334.7 333.9 332.7 331.2 326.7 329.4 334.6 337.9 345.2 347.1 346.6 345.8 345.4 346.1 348.1 352.3 355.9 357.5 358.5 359.1 360.1 360.5 358.2 356.2 354.9 353.7 348.1 343.4 336.7 329.3 322.8 317.8 302.4 242.4 228.9 241.7 256.6 263.7 260.5 257.6 268.8 276.3 266.3 267.5 266.7 267.5 253.8 240.3 276.9 263 235.6 234.2 235.8 250 264 257.5 247.2 228.6 234.6 256.7 271.2 278.1 282.2 285 284.7 283.7 284 289.9 291.9 291.2 290.6 294.8 299.3 300.4 299.3 298 295.4 291.3 287.2 289.1 294.4 291.5 287.3 282.6 277.4 274.5 275.4 276 276.7 276.2 274.9 273.4 273.6 275.4 275.4 275.4 275.7 276 276.3 276.6 277.4 277.5 278.1 279.5 279.8 271.9 255.7 243.7 235.8 228.2 211.1 191.2 172.1 158.5 151.6 144.4 142.9 159.6 178.3 194 205.2 214.4 221.5 230 239.5 246.8 245.2 240.5 235.5 229 227.3 226.5 221.9 217.1 210.5 206.1 200.8 188 168.7 154 141.4 131.8 132.8 138.8 148.6 155.6 153.4 141.4 127.9 111.4 98.9 98 99.8 108.6 118.8 107.2 93.5 84.2 77.9 77.9 77.4 77.5 77.3 77.6 77.9 78.8 81.1 80.7
280.3 283.5 291.7 300.2 308.2 318.6 327.3 331.5 329.6 326.5 325.7 329.9 332.4 332 332.3 333.4 336.2 337.5 339.1 341.4 344.3 346.2 346.3 347.9 347.1 345 342.2 339.4 337.2 335.6 333.9 333.3 332.9 332.6 331.9 330 328.2 333.4 335.1 337 346.5 350.9 350.3 349.5 349.1 349.4 352.3 355.6 358.9 360.7 361.6 362.4 363.4 364.1 362.7 361 359.3 356.9 352.5 345 338.5 330.8 322.4 311.6 270.9 244.6 259.6 256.3 269.1 275.6 274 272.5 274.3 271.8 273.8 268.4 268.4 269.4 253 240.9 243.1 261.9 252.8 245.8 247.7 271.3 266.7 259.4 250.8 236.4 226.4 248 267.8 276.8 281.6 284.2 283 279.9 278 280.3 284.4 283.2 286.5 291.9 295.5 295.3 294.5 292.2 289.8 286.6 282.2 289.5 294.8 293.3 288.3 283.4 278.4 274.4 272.4 272.4 273 273.7 272.1 270.6 270.9 273.3 274 272.8 273.1 273.4 273.7 273.3 274.4 274 275.7 277.1 275.5 264 246.2 240 233.8 215.9 192.9 168.5 150.9 145.8 153.6 161.5 169.5 186.3 203.2 216.3 226.9 234.2 240.2 247.7 254.4 251.6 247.4 241.8 238.1 234.3 233.4 230.4 226.2 221.5 191.7 179.5 207.3 205.8 201.3 182.1 168.8 162.7 163.1 165.9 172.6 169.5 164.9 157.2 149.1 127.3 115.1 104.3 96 94.7 102.8 111.6 112.8 114.3 96.2 89.2 85.7 85.4 84.7 83.1 80.1 81 82.6 82.9
280.7 277.5 284.5 292.5 301.6 310.9 321.5 327.3 328.9 328.6 328.4 328 331.2 330.9 330.3 331.4 334.8 337.5 339.1 341.2 343.7 345.8 347.3 347 345.4 342.7 340.7 338.2 336.7 336 334.8 333.7 332.5 331.2 329.9 328.8 328.8 331.9 335.8 338.7 345.1 351.4 352.2 351.9 353 354.8 356.8 359.5 361.8 363.5 364 364.6 365.7 366.2 365.1 363.5 361.9 358.7 353.5 345.1 338.4 330.1 321.4 297.8 261.5 275 282.8 272.5 283.6 277.9 273 271.5 266.6 272.2 273.3 269.8 269.4 270 250.8 232.7 238.1 258.2 248.4 250.5 263.4 277.5 270.1 261.2 253.8 241.3 224.3 239.2 261.2 275 279.7 281.8 280.4 275.4 272.7 274.3 273.9 270.5 273.5 278.9 281 282.6 283.8 283.8 281.6 280 279.1 287.5 291 291.4 288.2 283.9 279 274.4 270.4 269.5 269.4 270.6 269.6 268 268.2 271 272.1 270.6 270.5 270.8 271.1 270.5 271.8 270.8 271.7 272.4 268.2 254.5 240.6 235.3 216.5 195 173.2 150.1 158.1 171.4 182.1 188.8 199.8 212.5 224.2 237.5 243.8 251.2 258.3 262.9 259.4 255.2 251 247.4 243.9 240 238.6 235.7 232.2 218.7 186.8 179.1 184.8 198.1 204.5 206.7 203.1 191.7 185.3 181.6 175.9 171 164.5 156.4 146.2 134.4 123.2 113.1 104.1 96.8 93 92.8 93.8 96.6 97.5 96.6 90.2 89.1 88.3 86.2 83.4 83.3 94.7 93
281.6 276.2 280 287.6 295.9 304.6 315.8 322.9 325.1 326.2 327.8 327.7 329.1 329.1 328 330.4 334.7 338.3 340.3 342.4 344.6 346.2 347.5 347.1 345.7 344.8 343 340.6 338.3 337.1 336.1 335.2 334 332.8 331.7 330.5 330.1 331.3 335.2 337.3 341.7 345 349.6 350.3 353.4 355.9 358.2 361.3 364.3 366.1 366.4 366.7 367.2 367.8 367.4 365.8 364.1 360.9 352.9 345.3 337.9 330.6 313.5 272.7 272.3 287.3 299.1 285.1 283.9 282.6 276.1 265.4 271.5 272.8 273.5 272.6 291.7 300.8 238.5 226.6 234.9 247.5 250.1 250.1 247.9 281.9 274.6 264.5 255.4 246 226.2 230.1 249.6 266.7 276.5 278.8 277.2 271.8 265.5 263.7 258.9 253.3 255.8 259 261.3 262 264.3 270.6 271.7 276.2 279.6 284.5 286.3 286.1 286.5 284.2 281.3 275.9 269.5 265.5 265.9 266.5 266.5 264.3 266.1 268.6 269.5 269.2 268.4 268.2 269.3 270.4 269.5 267.2 265.5 263.9 254.6 241.4 227.9 212.4 190.9 169.4 151.9 160.8 180.2 195 206.3 215.1 224.1 233 242.2 251.4 259.1 266 271.3 267.7 262.9 259.4 256.6 252.3 250.1 246.5 242.9 240.4 237.3 220.2 209.7 185.4 198.2 207.9 211.9 210 202.4 199.7 192 185.8 178.9 171.5 160.4 152.4 142.1 134.3 128.2 120.6 112.5 105.7 98.4 93.1 91.2 91.1 89.6 89 88.2 92.4 91.8 85.6 84 86.6 95.6 94.6
285.1 276.8 275.7 282 288.8 297.7 306.7 315.8 321.3 322.5 324.8 326.5 325.5 324.3 327 331 335 339.1 341.3 343.1 344.4 346.4 347.4 347.9 346.7 345.8 344.9 342.3 339.6 338.4 337.6 336.7 335.4 334.2 333.2 332.5 332.5 332.5 333.3 336.1 339.2 341.9 345.5 347.7 350.2 353.7 357.1 360.6 363.8 365.7 366.4 365.9 366.6 366.9 367.8 367.2 365.7 362.6 352.5 343.5 336.2 330 306.6 286.5 287.7 298.8 301.1 290.9 293.3 276.5 287.2 239.5 239.5 272.6 274 273.3 300.9 320.9 313.6 234.8 227.4 229.5 230.7 232.7 244.9 284.9 277.3 266.3 257.4 249.1 236.2 222.5 232.8 248.4 259.8 272.6 270.3 264.9 261.5 256.4 250.3 242.3 241.2 244.6 248.2 254.3 262.2 269.6 276.1 278.4 278.4 281.6 282 281.3 282.2 287.1 284 277.8 269.6 263.3 260.9 260.8 260.9 259.8 264.1 266.1 266.7 266.1 264.7 264.5 268.2 270.8 268.2 265.7 261.4 250.1 239.6 227.4 210.7 188.1 162.5 149.2 164.9 182.2 200.6 215.6 227 234.9 242.2 250.1 256.4 265.5 275.1 278.4 275.3 271.6 267.2 263.8 261.6 259 256 252.8 250.4 247.3 244.5 242.8 235.7 212 217.6 217 215.5 216.7 206 202.2 192.6 187.6 177.4 167.6 165.9 160.3 151.7 141.2 131.6 124.3 118.3 114.2 108.6 100.9 93.6 91.7 91.7 101.9 120.3 116 95.8 94.9 90.7 93 96.9 96.4
286.6 278 273.5 277.1 283.1 291.5 300.2 308.8 316.6 319.3 318.7 317.4 326.6 327.8 329.6 332.6 335.5 339.4 341.8 343.5 345.1 346.7 347.4 348.2 347.7 346.8 346 344.5 342.1 340.1 339.2 338.2 336.9 335.6 334.3 334.2 334.4 334.6 334 335 336.1 338.4 341.4 344.4 346.9 350.6 354.4 357.9 360.8 362.5 363.2 363 364.3 364.7 365.1 364.8 363.9 361.2 349.1 340.9 335 328 302.6 286.2 294.7 302.4 297.4 295 286 283.5 247.7 239.5 260.1 273.9 275.2 301.4 317.9 330.4 322 311.2 238.1 228.2 228.5 230.3 242.4 286.3 279 268.7 259.7 251.9 243.4 230 220.2 229 240.7 252.8 259.9 257.8 255 253.4 246.8 234.7 228.3 235.2 243.4 249.9 263.2 278 280.7 279.2 276.2 277.6 276.7 275.4 279.2 282.9 283.7 280 271.7 264.5 259.2 253.8 251.4 253.3 259.3 261.8 262.5 262 259.1 261.8 259.7 257.6 251.6 247.6 245.7 237.3 226.1 213.5 194.5 167.6 151.1 167.6 184.9 203 217.5 232.2 242.2 249.8 256.2 262.8 269 279.8 285.9 283.1 280 275.7 271.8 268.2 266.9 264.6 262.4 259 256.5 253.7 250.2 247.6 243 237.9 233.9 227.2 220.6 213.7 207.8 200.4 192.7 183.8 179.5 177.4 173 165.7 157 146.6 135.3 127.6 121.7 117.1 110.1 103.1 96.5 92.8 95.9 105.3 109.3 112 103.6 103.2 97.6 96.1 99.3 98.3
284.2 278.1 272.5 273.7 278.7 285.3 295 304.8 311.4 312.4 312.4 320.1 327 330.3 331.7 333.9 336.3 339.5 342.8 344 345.6 347 347.7 348.5 348.9 348.2 347.3 346.2 344.7 342.7 341.4 340.6 339.6 338.6 337.3 336.8 337 336.8 336.6 336.2 336.4 337.8 339.9 341.8 344.5 347.9 351.6 354.9 357.5 358.9 359.6 361.1 359.9 360.1 360.3 360 358.6 356.6 346.8 338.3 332.1 324.1 307.2 303.7 302.1 299.5 301.4 292 285 282.7 266.3 266 273 274.6 296.5 310.5 322.9 332.1 332.3 321.3 306.6 250.7 228.4 230.3 244.1 291.7 282.9 278 270.2 259.6 249.9 239.4 229.9 223 223.7 232.8 236.2 238.8 240.2 241.3 238.7 227.1 223.2 228.7 236.3 243.8 254.4 266.1 276.1 279.2 276.8 271.5 270.6 272.3 276.5 279.9 281 279.6 277.4 271.5 263.4 257.5 248.1 238.7 239.8 245.8 256.3 256 246.1 237.9 232.7 235.4 232.2 229.2 227.3 221 211.8 200.1 180.9 157 159.7 180.6 201 218.4 233.4 245.1 253.8 261 268.2 278.7 290.3 291.7 291.2 287.4 283.5 279.4 276.2 274 272 270.4 267.7 264.5 261.1 257.7 253.5 250 244.7 239.4 232.4 225.4 220.8 214.5 206.1 197 189.6 189.1 187.2 181 175 168.9 160.5 151 139.7 130 123.6 116.4 111 104.2 99.2 96.5 98.6 105.1 108.2 109 105.8 101.4 101.7 101.2 101.1 101.5
282 275.8 271.6 273.8 279.3 282.3 289.5 297.6 301.7 307.4 316.6 322.9 327.1 330.3 332.2 334.1 336.7 339.6 342.3 344.2 345.8 347.3 348.1 348.8 349.6 349.2 348.6 347.6 346.5 345 344.2 343.4 342.6 341.4 340.1 339.1 338.8 338.6 338.6 337.4 337.4 337.8 339.2 341 343.1 346.2 349.4 352.6 355.5 356.8 358.1 359.3 358.2 356.7 355.4 354.6 353.4 351.3 344 336.7 329.9 324.8 320.6 316.5 312 306 296.9 293.4 292.8 282.8 284.7 286.7 286.1 283.3 303.6 313.1 329.4 331.2 332.8 329.6 319.4 306.5 290.5 301.8 304.2 292.6 290 286.7 279 271.2 261.6 254 247.5 237.8 224.3 221.3 217.1 215.6 216.5 218.8 219.1 216.6 214.4 215.5 222 230.7 242.2 255.7 268.5 275.9 275.4 269.9 266.4 269.5 273.8 275.8 276.1 276.1 276.5 275.6 274.4 267 258 243.8 224.4 219.6 232.7 243.7 227.8 216 215 217.1 214.8 210.7 206.2 202.6 196.2 186.8 173.1 154.6 166.7 190.6 211.8 229 243.7 256.5 262 269.7 285.1 297.5 297.3 295.5 292.8 289.6 286.5 283.7 281.5 278.6 277.1 274.6 271.3 267.9 264.6 260.8 256.9 252.3 246.6 240.1 233.4 225.5 219.9 213.5 203.9 196.9 197.4 196.2 190.7 184.2 176.8 169.8 162.2 154.3 143.8 132.8 124.8 117.4 111.1 105.3 101.3 99.7 101.7 106.4 108.8 107.5 105.8 105.8 106.8 107.9 106.4 106.6
279.2 271.8 270.3 277.1 290.4 298.4 293.8 298.4 303.6 310.9 319.7 323 326.3 328.2 330.8 333 336.3 339.1 341.7 344 345.2 346.5 348.4 349.2 349.9 350 349.4 348.4 347.5 346.8 346.4 345.5 344.7 343.5 342.2 341 340.7 340.6 340.5 339.4 338.5 338.4 338.6 340.3 342.1 344.9 348.1 351.2 354.1 355.7 356.7 357.4 356.6 353.5 352.4 350.3 348.6 346 341.1 334.4 327.7 322.3 318.1 313.8 308.3 302.2 302.2 300.5 297.1 285.7 287.1 286.5 285.8 285.6 295.6 315.5 323 331.4 333.1 332.1 326.8 316.8 305.7 302.3 298.8 296.6 294.8 292.7 287.7 281.5 272.7 265.4 261.8 255.3 248.7 243 238.1 232.8 228.7 224.6 221.1 217.9 215.9 212.6 208.5 211.5 225.8 242.8 257.2 268.1 271.3 268 261.4 267.1 271.1 270.7 270.4 270.1 269.3 269.3 268.8 268.1 268.2 258.8 232.9 213 208.8 216.6 210.2 201.4 200.2 197.8 193.6 186.1 180.4 179.2 177.7 173.8 166.3 156.1 169.3 197.1 219.1 236.1 251.4 258.9 266.7 276.5 297.7 300.9 300 298.2 295.7 292.8 289.9 287.3 285.3 283 280.8 277.5 274 269.8 266.7 262.5 257.7 252 246.7 242.2 234.7 220.4 222.3 213.2 205.1 202.3 204.6 201.9 195.2 186.4 179.2 171.6 164.3 156.2 146.3 136.9 126.9 117.3 111 106.8 103.1 105.6 105.1 109.8 111.6 111.1 108.9 111 112 113.2 112.2 114.6
273.8 269.3 272.6 280.6 297.4 305.3 303.9 306.1 314.5 318.3 321.7 324.3 325.8 327.1 328.9 331.4 334.4 337 340.4 343.5 344.6 345.8 347.6 349.5 350.4 350.7 350.3 349.3 348.5 347.9 348 347.6 346.7 345.5 344.3 343.1 342.7 342.6 342.5 341.3 340 339 338.8 339.6 341.5 343.6 346.5 349 351.6 353.7 354.7 355.5 354.8 353.3 351.3 348.6 345.5 342.5 337.4 332.1 325.6 320 315.6 311 308.4 308.1 308 303.8 299.1 289.5 290.7 287 289.4 285.8 303.8 306.1 319.6 322.5 325.7 327.8 319.2 312.8 309 305.6 301.9 299.9 297.8 294.9 290.4 286.6 282.1 277.2 273.8 270.3 264.3 259.2 254.5 250.4 246.7 242.7 238.9 236.6 233.6 229.6 224.2 214.1 207.5 228.5 245.7 256.5 263.1 261.3 256.2 263.5 267.3 265.9 264.6 262.2 259.8 258.2 256 254.9 251.2 242.4 229.5 214.6 199.1 190.3 194.2 191.8 188.3 183.5 171.4 166.2 162.1 161.4 161.2 160.6 158.2 157.2 180.6 204.4 224.4 240.8 251.5 258.8 271.4 286.6 299.9 301.3 301.6 300.5 298.7 296.4 293.5 290.9 289 287.5 284.5 280 276.7 272.1 267.2 261.2 258.3 240.7 235.6 224.5 226.1 211.4 197.5 198.6 206.6 205.7 210.7 205.9 199.8 191.8 181.4 173.2 167.1 159.8 151 139.6 130.3 118.6 112.1 110.5 110.2 110.1 110.1 112.6 116.4 117.4 115 116.5 119.6 122.2 124.6 124.9
269.9 267.6 274.7 284.2 302.3 310.1 310.6 312.6 320.6 322.1 323.2 322.9 322.8 324 326.1 329.3 332.3 336 339.9 343 343.7 345.1 346.7 348.7 350.6 351 350.5 350.3 349.5 349.1 349.2 349.2 348.8 347.6 346.5 345.5 344.6 344.6 344.4 343 341.6 339.7 339.8 338.8 340.3 342.1 344.1 346.7 349.2 350.8 351.7 352.7 352.9 351.6 350 348.2 345.2 341.3 337.1 329.6 325.4 319.7 317.6 314.7 314 313.2 311.1 306.2 299.9 289.2 293.1 287 303.1 304.2 304.7 311 323.8 325.8 327.3 326 321.3 316.4 312 308 304.1 302.2 300.3 297 294 291.1 288.9 286.7 283.6 280.6 276.1 271.4 267.6 263.3 260.7 257.2 253.7 251.1 248 243.1 238.4 228.9 212 213.4 231 242.3 246.2 247.8 247 253.8 258.1 258.1 254.6 250.3 245.7 243 239.7 235.8 231 222.2 216.6 209.6 199.6 188.8 179.2 179.5 174.6 171.6 168.4 176.8 178.7 177 173.2 165.8 165.1 173.9 191.2 210.3 227.4 243.7 249.2 262.8 278.3 295.1 299.7 302 302.1 301.5 299.9 298.3 296.7 293.9 291.2 289.1 286.6 282.9 278.4 274.9 268.7 263.6 235.9 219.8 216 216.1 207.7 194.9 182 174.2 171.6 170.4 190.2 209.2 203 194 184.6 176.5 169.9 163.6 153.6 141.2 128.6 117.9 114.5 118.4 115.8 115.3 116.2 117.5 122.3 124 124.9 126.5 131.1 134.7 135.1 133.8
269 267.4 276.8 285.9 305.3 314.8 318.4 320.4 322.8 322.9 323.5 323.2 322 321.1 326.3 328.2 331.6 335.5 339.5 342.6 343.9 344.2 345.2 347.5 349.7 350.6 350.3 350 349.9 350.3 350.4 350.4 350.5 349.9 348.9 347.6 346.6 345.6 345 343.5 341.7 339.5 338.3 337.4 338.9 340.6 341.8 344.4 346.2 347.5 348.4 349.2 349.5 349.3 347.8 346.3 345.3 341.5 337 334.3 330.7 324.5 320.8 319.4 319.4 317 313.2 308.3 300.9 288.6 298 307.3 312.9 317 319.6 323.2 322 324.6 328.7 329.5 324.3 320.2 314.9 310.4 306.4 304.5 302.1 300.6 298.5 295.7 294.9 295.1 295 292.9 288.5 282.7 278.6 275.2 272.4 269.9 266.7 263.6 260 255.6 248.9 241.2 227.3 209.1 209.3 222.1 228.3 232.4 234.8 241.4 245.4 245 241.5 234.7 229.6 223.6 218.8 212.6 205.7 198.9 197.8 197.5 191.8 182.4 173.9 170 169.3 181 189.8 194.5 196.5 195.3 188.9 184.2 183.1 191.3 205.8 219.9 232.8 242.8 253.5 269.1 284.2 295.5 299 301.2 304.2 303 302.6 300.6 298.3 295.9 293 290.2 288 284.9 279.8 276 271.5 265.1 260.6 232.5 209.5 202.7 195.5 183.9 171.3 160.2 157.5 159 168.6 212.1 203.6 196.3 187.3 178.8 172.2 164.7 157.1 140.5 125.8 125.2 125.7 124 122.2 121.9 122.7 124.4 128.6 132 135.6 141.1 146.8 146.8 146.3 143.2
272 265.4 282.7 292.3 310.1 315.9 319.6 321.2 320.1 320.9 321.3 319.5 317.4 321 325.7 328.9 332.1 335.2 339 342.1 343.4 344 343.4 345 346.7 348.6 350.1 350.1 350.6 351.1 351.3 351.5 351.8 351.8 350.7 348.8 346.7 345.9 344.7 342.8 340.6 337.9 336.7 336.1 337.6 339.2 340 341 342.5 343.5 344.4 345.6 345.8 345.8 345.3 343.7 343.8 343.3 340.7 342 336.3 329.2 324.7 323.7 322.1 318.6 314.8 309.7 301.5 290.3 296.3 306.6 312.7 315.5 316.9 319.7 319.1 323.3 331.2 332.1 326.3 324.2 319.4 313.5 308.6 306.9 305.4 303.9 302.8 301.6 301 302 303.2 301.7 298.6 294.3 289.1 285.7 282.9 279.8 276.1 271.8 268 263.3 258.4 251.1 243 228.3 210.4 202.6 209.3 214.8 220.2 225 230.1 229.9 226.2 219.4 212.1 203.2 192 184.5 180.8 180.8 176.2 182.8 179.7 173 174.1 185.2 195.9 203.9 210.8 214.5 216.6 214.6 208.2 204.4 204.1 209.5 219.6 232.1 242.6 248.1 260 275.1 288.7 294.7 298.4 301.3 302.8 306.2 304.2 302.6 299.6 296.9 294.2 292.6 288.9 285.3 281.2 277.5 272.5 267.7 263.4 252.8 230 194.5 184.5 170 161.7 148.4 145.5 144.7 165.9 197.8 203.9 196.2 187.6 179.4 171.6 161.3 147.9 133.9 132.3 133.3 131.7 130.8 129.1 130 130.8 132.2 135.2 141.4 145.8 153.7 159.1 156.7 154.9 153.2
273.1 267.3 282.2 304 310.7 312.5 314.7 316 315.2 316.3 316.8 314.4 315 319.5 323 326.9 330.8 334.9 338.8 341.2 342.9 343.4 342.7 340.1 340.6 342.7 344.2 347.7 351.4 351.9 352 351.8 351.2 349.7 349 346.4 344.3 342.7 341.6 340.8 338.7 336.3 335 335.1 336.6 338 338 339 340.1 341.1 342.3 343.5 343.6 342.6 342 342.2 342.2 342.3 342.5 343.8 337.5 332.3 328.3 326 323.3 320 316.1 310.7 302.6 292.8 294.6 303.7 310.1 314.4 314.5 316.1 317.6 322.2 335.1 331.3 328.8 327.7 324.7 318.9 312.4 309.8 308.5 307.7 306.8 305.9 305.9 306.8 308.4 308.2 306.5 303.4 299.6 296.2 292.9 289.2 284.9 278.3 273 268.7 263.2 257.4 251.2 243.5 227.7 211.5 203 199.9 204.6 208.7 212.2 212.7 208.7 201.2 192.3 188.7 193.3 192.1 186.9 180.3 177.1 174.3 176.6 186.8 199.3 211.7 222 229.2 233.8 237.1 237.8 234.5 225.8 221.2 221.2 227.7 234.1 241.2 247.2 258.5 270.8 281.6 289.8 294.4 298.1 301.1 303.3 304.1 303.9 303.1 302 298.8 296.1 293.4 290.4 286 282.6 278.4 273.9 269.4 265.6 261 240.4 208.5 180.4 168.6 170.9 154.3 145.4 150 143.3 165.1 191.8 200.5 186.2 173 163.6 151.4 139.8 139.3 137.8 139.7 137.4 135.3 135.2 137.7 139 140.1 144.2 149.4 155.3 162.1 166.7 166.4 166.1 165.9
277.5 262 276.3 288.8 300.5 303.1 306.1 307.1 308.7 309.3 308.3 306.8 308.9 313.7 319 326.6 329 333.6 336.6 338.1 339.5 340.7 338.6 335.4 333.9 335.1 338 343.1 348.6 349.7 350.1 348.8 347.3 345.7 343.2 340.9 337.8 338.7 338.5 338.2 335.8 333.8 332.3 334.8 336.1 336.9 336.6 337.4 338.1 339 340.2 341.4 342.3 340.8 340 340.1 340.2 340.2 340.9 340.3 336.6 333.2 329.3 326.5 323 319.4 315.3 310.6 302.2 294.9 291 300.6 306 309.3 311.6 313.5 315.7 320.1 330.2 331 330.4 331.7 330.7 326.4 318.7 314.2 313.1 312.2 311.3 310.6 310 310.8 313.2 314.6 313.5 310.2 307.2 303.5 300 297 291.1 283.4 276.5 271.7 265.7 260.2 252.8 242.5 230 217.8 213.3 212.7 207.4 200.9 194.4 194.6 192.1 194.6 204.9 209.2 207.5 200.5 190.3 185.7 193.1 197.4 204.1 216.4 227.6 238.4 246.5 251.6 256 259.1 258.5 254.7 247.7 237.1 233.6 240.8 245.8 248.9 257.6 270.4 282.9 286.6 289.4 292.6 296.2 302.5 302.6 303.7 304.4 303.1 301.5 299.4 296.3 293.6 290.6 286.9 282.8 278.8 274.5 271.2 266.6 262.3 242 211.1 178.8 176 168.8 166.4 166.6 146.9 134.3 140.4 171.7 167 189.9 171.1 164.3 144.8 143.5 143.2 143.3 142.7 142.1 140.4 141.9 145.3 147.3 149.7 153.7 158.5 164.8 172.8 178.9 185.3 186.9 184.7
279.9 258.3 266.7 276.3 287.3 289.9 295.9 299.5 301.4 302.5 301.5 299.7 304.5 311 318.2 325.2 329.3 332 333.4 334.5 335.9 336.6 335 332.9 331.3 330.8 332.4 336.8 343.2 345.1 345.1 344.1 342.6 339.9 337.2 334 332.2 333.2 335.8 335 333.6 331.9 330.9 333.2 335.9 336.5 336.8 337.5 338.6 338.3 338.9 340.1 340.8 339.4 338.3 337.8 337.9 337.9 338.2 337.5 335 331.8 329.2 326 322.8 318.1 314 309.3 301.9 296.4 292.5 295.5 302.4 306.8 309.1 311 313.3 316.2 323.5 327.8 331.8 334.7 335.8 333.5 325.1 319.6 317.8 317 316.8 315.1 314.1 315.3 317.1 317.7 316.5 313.9 311.1 307.5 304.3 300.2 295.7 286.7 280 273.4 267.1 260.5 249.6 231.2 228.2 231.8 233.7 232.4 229.5 223.5 220.5 218.5 219.6 224.4 229 228.7 218.9 205.2 190.2 198.9 210.3 220.5 230.4 241.8 251.9 260.5 266.6 270.7 274.4 278.1 277.2 274.2 269.1 261.5 257.9 258.2 260.9 264.9 271.1 280.8 287.7 290 292.3 294.2 295.9 298.6 301.2 302.7 303.7 302.6 300.6 298.4 296.5 293.7 290.8 287 281.4 277.3 274 270.1 266.3 262.5 243.8 218.8 190.1 169.6 171.7 172.7 170.2 151.5 134.3 142.8 164.9 164.7 187.9 172.9 151.2 150.8 150 148.6 149.5 148.2 146.8 145.9 147.3 150.7 154.7 159 163.8 168 174.1 180.7 192 198.1 196.8 193.9
290 265.4 254 262.7 268.6 275.9 282.2 288.9 293.4 295.5 293.9 293.6 301.7 312.1 320 326.5 330.7 331 328.1 330.6 331.6 333.3 333.5 331.1 329.1 328.2 328.7 332.5 337.8 339.4 339.7 338.4 336 333.3 331.9 329.3 326.9 328.4 332 334.3 332.4 330.3 329.6 332 334 334.9 336.4 338.1 339.4 339.3 338.7 339.2 339.3 338.2 337 336 335.6 335.9 335.3 334.9 333.8 330.6 327.9 326.7 324.1 319.3 314.1 308.1 302.3 296.5 294.1 296.2 300.5 304.2 306.6 308.9 312.1 315.7 320.6 326.8 332.9 337.8 340.6 338.2 333.1 328.4 323.6 322.9 321.5 319.2 317.4 318.1 319.3 320.1 318.9 316.1 313.2 310 306.2 301.3 296.1 288.7 281.6 272.2 263.4 253.2 241.3 238.5 244.3 248.1 245.4 241.4 242.2 241 242.1 244.1 246.4 250.3 255.5 250.4 226 204.2 199.6 212.1 223.7 237.1 250 261.5 270.7 276.7 281.7 284.8 286.9 288.8 289.6 289.7 287 282.9 280.5 277.5 278.2 280.2 281.4 286.8 290.9 292.6 294.4 295.8 296.9 298.2 298.9 300.6 301.1 300 298.3 296.5 294.3 291.3 290 285.9 280.3 276.5 272.5 268.7 264.7 260.6 256.5 221.2 192.3 169.6 177.9 167.5 172.8 162.9 142.5 153 152.6 164.1 161.7 157.6 160.4 163.9 155.8 154.8 156.3 153.8 153.3 153.5 155.3 158.3 162.4 165.8 170.4 176.5 182.8 188.6 197.8 203 202.8 201.6
298.9 286.4 264.9 250.5 252.6 260.9 271.2 277.2 283 286.1 284.3 291.1 299.9 310.3 319.7 326.1 330.2 327 325.2 325.4 327.8 328.8 330.1 329.3 327.9 326.3 325.2 327.4 332.6 333.6 333 330.6 329.9 327.8 328.9 327.3 322.1 325.2 330.7 335 332.9 330 327.7 329.7 333.3 336 338.1 339.6 340.1 340.3 339.8 339.1 338 336.9 335.8 334.8 333.8 333.2 332.8 332.4 331.8 330.9 329.9 328.8 325.9 320.4 314.6 311.1 310.7 298 295.8 298.2 301.8 303.3 306 309 312.4 315.5 321.5 328.2 334.8 340 343.9 344 339.3 335.6 330.8 327.5 324.7 321.2 319.8 319.7 320.3 321.7 320.8 317.9 314.1 310.7 306.3 301.2 295 283.4 273 263 253.5 245.8 247.5 254.1 259 261.4 260.9 259.1 257 257.4 260.1 261.4 265.6 269.5 267.7 250.5 224 201.3 211.4 220.8 231.2 247.2 264.2 278.4 283.2 288.2 292.8 294.4 296.3 296.4 296.9 298.9 299.9 298.9 295.1 292.2 290.1 289.2 289.8 291.6 294.7 297 297.7 298.3 298.9 297.8 297.9 298 298.1 297.1 295.7 294.4 290.6 289 286.7 283.8 278.8 273.1 269.1 266.3 262.1 257.9 253.7 234.7 206.6 177.5 168.1 166.9 167.2 154.8 150.5 158.4 164.4 166.8 165 160.8 174.1 170.4 161.2 161.8 161.6 160.9 162.5 161.4 165 166.3 170.7 174.6 179 184.5 191.4 196.3 201.9 206 209.1 210.1
293.9 292.2 285.6 269 252 247.9 254.3 266 271.6 273.1 274.3 286.1 295.9 304.8 313 319.2 321.7 322.5 320.9 320.9 322.4 325.2 327.2 329 328.6 328.7 327.4 324.4 327.1 325.3 324.7 321.7 320.3 322 323.5 322 315.7 319.7 327.6 334.9 334.5 329.9 326.7 329.6 334 338.1 339.7 340.2 340.6 340.3 339.6 337.7 336 335.3 334.6 333.6 332.4 330 329 329.7 329.7 331.1 331 329.4 326.3 313.3 312.2 311.3 313.1 301.4 297.8 297.4 301 303.1 306.3 309.3 312.9 318.3 326.6 331.5 336.2 341.8 345.4 347 343.5 338.1 332.9 327.8 325.5 321.6 320 319.4 320.8 321.9 321.6 318.8 315 310.9 301.7 291.8 281.9 269.3 261.9 261.5 259.6 253.6 260.3 266.2 270.3 272.5 274.1 274.1 274 275.2 276.7 277.5 278.9 276.9 270.4 252.4 224.3 206.5 214.9 226.9 234.9 255.1 272.8 287.2 292.5 297.5 301.6 302.8 302.7 302.5 303.8 304.7 307.3 311 307.7 303.6 300.9 299.3 298.1 299.9 300.2 301.3 301.8 301.2 300.6 298.5 295 294.1 293.7 293.7 292.5 290.8 289.2 285.2 282.5 280.4 276.1 271.3 265.9 262.5 258.7 254.3 246.2 236.8 221.3 200 180.2 163.5 156.5 165.4 165.4 184.1 176.3 153 143.2 160.4 177.2 172.3 166.4 166 164.6 167.1 169.2 170.1 174.2 176 181.2 185 190 194.7 199.3 204.2 209.4 215.1 221.7 224.3
288 285.7 273.6 275.1 273.6 254 241.8 250.1 261.4 259 267.3 278.8 288.9 298 306.6 311.8 314.5 317.4 317.1 316.6 319.4 322.8 325.2 327.8 328.6 329.1 327.5 319 319.4 320.4 318.1 314.1 311.8 312.6 314.9 313.3 309.3 314.6 321.5 329.6 333.4 329.5 323.5 328.9 334.8 338.9 340.4 340.7 340.5 340.2 338.1 335.9 334 333 332.7 332.4 330.8 328.5 325.7 326 327.5 328.5 329 328.1 326.5 313.3 313.4 311.1 308.9 303.8 298.7 297.7 300.3 302.8 306.4 309.8 314 321.6 330.4 335.6 338.9 342.1 343.5 343.4 341.3 337.6 332.5 327.1 324.3 321.9 319.6 317.8 317.2 319.3 319.5 317.3 313.9 306.5 291 279.4 275.1 277.6 278.7 276.6 270.3 268.4 271.4 275.3 278.3 281 283.2 285.9 287.4 288.5 287.8 288.2 286.4 280.9 272.8 258.5 233.3 214.2 220.6 231.9 244.2 263.3 279.5 291.6 298.6 303.7 308.3 309.4 310.1 309.6 309.1 309.7 311.8 314.5 317.3 318.6 316.4 314 311.6 310.5 308.8 309.1 308.8 305.8 303 300.3 294.4 289.7 288.3 288.6 288.6 286.9 285.2 282.4 279.4 277.3 272.9 268.9 263.9 258.9 255.4 247.1 235.4 227 219 209 181.8 169.6 172.3 188.5 189.4 165.6 151.6 132.4 137 153.7 178.7 175.7 171.3 171.8 171.4 170.8 174.6 180.8 183 188.6 193.6 200.6 205.3 209.3 213.5 215.5 221.8 225.5 227.9 230.9
263.7 252 225.9 224.2 249.2 273 256.9 239.2 246.6 248.7 258.2 269.2 281.9 291.3 299.6 304.9 309.6 312.6 313.5 311.5 315 319.2 321.6 324.1 326 325.9 324.6 319.5 310.8 311.9 310.8 306.3 303.9 304.7 307.6 306.5 303.4 304.3 312.4 321.3 328.9 326.9 319.5 328.7 329.4 329.7 330.9 341.5 341.1 340 337.3 335 332.2 330.6 329.5 329.8 328.8 326.4 323.1 322.6 324.7 326.1 327.3 326.3 319.4 314 313.6 310.9 306.3 303.9 299.8 300.2 301.4 302.5 306.3 310.7 316.3 322.9 331 337.2 339.4 340.4 339.4 337 333.6 332.2 329.5 325 322.6 321.1 318.9 315.5 313 313.5 314.9 315.1 311.4 298.9 281.4 286.5 289.4 291.2 288.7 282.4 274.2 277 279.7 282.5 285 288.4 291.3 293.4 296.4 297.1 295.6 292.2 287.2 281.2 273.6 262.6 245.9 228.4 222.2 236.9 252.3 270.3 285.2 296.1 303.9 309.5 314.2 315.5 316.9 315.8 314.2 315.1 317.4 319.8 324 325.8 326.8 325.7 322.4 321.7 321.3 318.1 315.5 311.1 308.2 301.7 296.8 287.7 283.2 282.5 282.1 282.1 281.5 279.8 276.9 272.9 270.4 266.2 262.1 257.4 249.9 237.8 228.4 220 214.7 212.6 201.4 186.3 195 195.8 165.8 156.6 135.9 126.8 152.3 162.4 182.2 178.8 175.9 175.8 177.2 179.7 182.1 188.3 192.2 196.9 204.6 211.7 217.4 222.6 226.7 228.7 232.8 237.6 239.1 240.3
225.8 215 212.3 212.3 212.3 245.9 267.2 252.2 235.4 238.8 249.3 261.5 275.1 285.4 293.8 299.8 304.6 307.8 309.6 307.1 310.7 314.6 316.7 319 320.8 319.3 316.6 310.9 302 300.2 301.4 298.1 296.8 297.9 300.4 300.4 297.9 299.8 305.6 314.4 318.9 319.5 323.4 327.6 326.4 317.5 323.3 330.6 342 341.2 338.4 334.9 332.4 330.6 327.4 326.3 326.2 324.7 321.7 321 323.2 327.3 322.8 325.2 320.5 314.2 314.5 310.6 306.3 304.8 302.8 303.9 304.8 304.4 304.3 311.7 318.6 324.4 331 337.2 340.8 338.8 335 332.4 329.3 327.2 326 321.4 319.2 317.5 315.5 312.5 309.3 307.8 308.4 306.1 304.4 290.8 292.7 298.7 298.4 294.3 288.6 283.3 279.5 283.6 287.3 289.9 291.9 295.1 297.3 299.9 303.3 302.8 299.2 294.5 289.4 283.6 275.9 267.3 257.7 240.4 224.2 242.1 258.7 282.6 288.5 299.8 308.5 314.9 320.1 322.3 321.3 320.3 319.6 320.4 322.8 325.3 329.3 331 333.7 331.3 330.3 330.2 329.3 330.5 323.1 317.7 313.3 307.8 300 290 278.3 275.1 273.3 274.7 275.3 274.5 272.2 268.8 267.1 263.7 258.6 250.9 241.3 234.6 220.7 218.5 227.2 223.6 209 206.8 211.7 179.8 152 150.1 135.2 147.9 151.8 187.2 185.6 182 180.3 180.9 184 186.7 191.4 195.9 199.5 204.8 211.2 218.6 224.4 231.4 237 240.9 244.9 249.9 249.9 245.6
212.3 212.3 212.3 212.3 212.3 212.3 247.3 258.9 247.6 231 239.6 256 267.5 280.3 288.9 295 299.5 302.7 303.1 303.2 306.5 309.6 311.8 313.9 315.1 314.4 311.8 305.9 295.5 291.1 291.9 291.7 290.3 292.3 294.4 294.1 293.2 295 299.6 304.4 307.1 307.2 310.4 321.8 324.5 319 328.8 330.3 342.5 342.4 339.1 334.6 332.6 330.9 327.7 323.9 322.9 321.3 319.9 320.3 317.8 325.3 321.4 321.5 321.5 318 317.3 313.5 305.7 303.7 306.8 309.2 310.6 309 304.8 309.4 318.6 324.5 331.8 337.8 341.2 338.5 333.8 331.1 327.9 324.2 321.3 318.1 316.6 314.2 311.7 308.8 305.9 303.9 303.1 298.4 292.8 293 300.9 301.5 299.7 295.9 292.3 288.9 286.9 289.3 293.6 297.4 298.3 300 303.5 307 310.5 307.9 302 296.9 291.7 287.6 281.4 273.2 262.7 243.9 230.5 248.6 265.7 278.6 287.7 301.1 311.1 316.8 322.2 326.2 328.4 327.3 326.9 326.8 328.3 331.1 335.3 342.2 344.9 344.2 342.1 342.9 344 343.3 330.8 322.5 319.7 314.8 305 294.1 280.7 271.7 267.6 267.5 268.2 267.6 266.6 263.9 263 259.1 250.6 241.4 230.3 231 229.6 230.2 235.9 233 226.4 222.4 222.3 200 166.8 151.4 149.9 161 175.9 190.7 188.8 184 185.2 187.1 190.3 194.1 198.7 202.2 205 210.3 216.2 223 228.7 238.2 245.9 250.4 254.9 257.2 253.6 247.7
225.4 220.2 222.1 219.7 213.9 214.1 227.9 235.6 256.3 237.8 231.4 249.6 261.8 274.1 283.3 290 293.5 296.5 298.5 300.1 302.9 306.3 309 311.1 312.5 311.8 309.3 303.6 293.2 285.4 286.5 285.1 285.2 287.6 289.6 290.3 289.4 292.1 294.5 298 299.6 298.5 304.3 316.2 327.4 324.9 329.9 335.5 339.8 341.4 338.8 334.5 331.1 328.3 325.6 322.6 319.9 318.5 317.2 315.9 315.9 318.9 319.4 319.6 321.3 319 316.5 310.1 307.1 309.7 312.3 315.6 314.6 311.1 306.6 308.7 315.7 322.5 329.5 337.6 343.2 343.7 337.8 335.2 331.2 324.9 320.3 316.9 315.1 313.2 311.6 308.7 305.5 303 303.8 301.3 298.6 299.7 305 305.9 304 301.5 298.7 295.7 292.6 295.7 300.2 302.6 304.6 308.1 313.7 320.9 322.6 313.3 306.4 300.7 296.5 292.7 288.4 280 264.5 244.8 238.5 255.8 269.9 276.1 291.2 308.7 314.9 321 326.7 334.8 345.5 345.1 343.8 341.7 340.5 344.3 348.7 350.5 349.7 349.2 348 347.3 347.3 345.4 343.4 338.7 327.4 321.1 312.1 299.3 289.8 274.8 265.8 263.6 262.3 261.1 259.6 258.2 254.8 249.2 241.9 233.3 222 228.5 237.3 240.3 239.7 237.9 234.9 230.6 228.7 219.4 195 165.4 178.3 187.8 198 195.5 190.6 186.4 190.6 195.8 197.4 203.3 207.1 208.2 212.9 217.6 223.7 228.9 237.5 246.5 252.9 258.1 260.3 258.5 253.5 248.5
260.8 255.5 247.7 228 243.8 236.9 233.4 235.5 240.6 229.3 226.6 248.1 256.1 265.3 272.6 281.8 287.9 290.2 289.9 295.3 299.2 302.6 306.3 309.4 311.6 312.2 309 301.7 288.2 280.2 279.3 280.2 280.4 285.4 286.6 286.4 287.7 290.8 293.1 292 291.5 292.6 299.5 307.9 319.4 324 327 331.5 334.3 337.5 336.5 332.5 328.4 325.3 323 321 319 317.8 316.1 315.4 315.5 318.9 317.8 318.4 318.2 314.4 311.9 307.4 313.3 317.8 319.9 317.4 316 312.9 310.1 307 311.9 318.3 327.3 335.4 342.8 346.8 345.7 340.3 335.4 328.5 323.8 319.1 317 316 314.3 311.7 308.8 309.4 308.1 305.7 299.6 305 309.7 310.6 309.2 307 303.2 300.3 297.4 301 305.2 308.6 315.9 318 323 327.8 329.4 323.2 312.7 306.9 302 298.2 294.3 285.9 265.9 243.7 245.7 266.6 273 283.3 308.3 313.4 323.2 327.7 331.2 341.7 353.2 356 354.9 354.1 353 352.8 352.2 349.7 349.7 350.2 347.4 346.5 345.9 344.7 342.9 325.3 323.9 329.7 320.4 304.2 290.6 278.2 265.3 261.7 257.3 255.8 254.2 251.1 246.7 242.2 235.8 227.1 227.6 235.9 242.9 243.9 242.5 239.8 239.7 236.9 231.7 227 214.2 194.7 200.7 204.2 203.2 197.1 192 192.9 198.6 204.7 209.5 213.3 216 219.5 220.9 229.2 234.1 243.5 249.7 254.8 260.7 266.9 264.5 259.8 253.6 247.8
257.3 253.9 245.9 234.8 235.7 242.9 242.8 236.6 227.9 223 223.8 241.1 250.1 256.7 262.9 270.3 277.2 279.8 285.1 291.4 295.3 299.3 305.5 308.7 311.2 312.7 310.1 301.3 283 277.6 275.3 275.7 279.2 283.8 284 283.3 286.3 289.5 290.2 289.3 286.9 291.3 298.3 305 313.3 319.4 322.7 326 329.1 332.8 332.6 330 325.6 323.5 321.4 319.9 318.4 317.4 315.5 314.5 315.9 315.7 315.8 315.6 315.2 310.7 309.2 313.9 318.7 324.8 323.9 320 318.1 316.6 314.2 311.4 309.1 314.9 322.4 331.9 338.9 347.8 349 346 340.7 335.1 327.3 322.8 320.5 319.1 316.6 314.3 312.7 312.1 308.8 304.2 303.8 310.6 315.9 316.4 314.6 312.8 309.6 306.8 304.3 303.7 308.6 318.5 325.8 329.2 332.2 332.6 333.5 329.3 320.2 313.5 308.4 305.8 299.2 291.4 267.5 245.5 251.8 271 274.1 280.3 288.3 309.2 336.9 338.5 338.6 344.9 353.7 356 357.1 357.1 356.6 354.5 352.6 351.4 350.5 350.1 346.8 345.6 344.9 343.1 341.6 338.4 323.7 326.9 324 308.5 296.8 283.8 269.5 259.9 252.6 251.7 248.5 245.3 241.1 235.9 230.6 226 233.1 240.2 245.4 245.7 244.6 240.4 242.4 241 235.9 230.4 223.9 219 214 210.6 203.7 198.8 197.5 202 206.7 214.1 220.5 224.9 227.7 231.4 239.5 247.3 252.5 257.1 259.4 259.2 266.9 269.8 265.7 260.5 254.9 248.7
246.6 248 252.2 236.6 232.3 250.4 252.6 252.8 248.7 238.8 221 225.7 234.8 248.3 254 258.3 264.2 269.8 279.5 286.3 292.3 298.9 304.4 307.6 310.6 311.6 310.3 300.2 282.2 276.1 272.4 271.9 273.5 277 277.2 278.1 282.8 283.3 282.3 281.9 289.3 296.9 301.8 307.1 312.2 316.2 318.7 320.4 322.4 327.7 327.9 326.2 324.8 322.5 320.6 318.9 317.7 316.5 315.9 314.6 313.6 313.2 311.6 311.1 310.3 311.4 312.9 316.7 323 331 329.8 325.8 322.7 319.9 317.7 314.6 311.1 311.8 317.7 325.5 332.8 343.2 349.8 348.8 345.5 341.7 336 332.6 327.6 322.5 320.1 317.2 315.4 313.2 310.9 305.3 308.4 316.4 320.3 321.7 320.7 320 317 314 311.8 309.4 313.5 325.3 331.8 335.4 337.6 336.7 336.1 332.7 326.1 318 313.5 309.4 304.4 293.5 269.2 246.7 256.6 272.1 282.7 286.6 288.3 295.2 339.2 349.3 348.6 349.3 353 354.9 356.1 357.5 356.3 354.4 352.5 351.2 349.9 348.1 347.3 345.1 343.4 342.3 341.1 339.5 336.8 333.3 327.7 313.8 291.7 242.8 274.4 260 252.4 248 244.1 240.5 236.2 232.4 229.3 228.5 236.5 243.3 245.3 246.1 245 244.6 244.8 243.4 240.2 235.2 230.8 223.1 216.1 209.3 205 203 204.5 209.4 214.9 221.3 228.5 236 243.3 249.5 256.9 262.6 266.6 267.6 265.9 265.2 264.8 270.5 265.5 261.6 256.1 250.6
255.3 253.6 250.2 242.9 229.6 232.2 236.6 242.7 250.4 249.9 229.7 220 238.1 238.3 244.2 251.4 257.3 263.4 270.7 278.6 287.6 297.5 303.3 306.4 306.2 307.5 306.2 301.1 287.2 276.8 272.5 269.2 268.6 269.3 271 275.2 276.2 276.3 277.1 285.3 293.4 301.3 305.4 311.5 315.3 315.5 314.4 316 317.5 320.7 323.7 323.8 324.3 322.8 320.9 319.4 319 317.5 315.1 314.3 313.8 315.1 314.5 313.8 313.9 315.7 320.9 320.5 325.4 332.9 333.4 330.9 326.4 323.5 319.6 315.8 313.1 311.5 315 320.6 328.6 338.2 348.7 350.8 350.3 347.6 345.5 342.8 335.6 329.7 323.1 320 317.4 314.4 310.3 306.3 309.9 317.8 323.4 326.6 326.8 327.7 324.3 321.8 319.2 316.3 319 328.7 334.1 338.2 340.3 339.7 338 334.8 329.4 323.1 318.5 311.9 306.1 293.9 270.1 249.8 258.6 272.9 285.7 287.5 289.4 293.2 351.8 352.8 351.8 352.1 353 354.6 355.8 357.1 356.1 354.3 352.4 351 349.5 348.6 347.2 345.3 343.3 341.8 340.6 338.5 336.4 333.7 327 301.3 247.4 247.6 253 264 254.5 249.1 243.2 239.4 237.1 232.7 229.7 232.4 238.8 243 244.9 246.6 246.6 246.8 246.4 244.5 242.9 236.4 231.6 224.9 219.4 212.9 208.5 209.5 210.2 216.1 221.4 228.6 239.5 247.4 255 262.1 268.9 274.4 278.2 278.8 275.8 272 266.7 265 264.5 261.4 257.1 251.3
247.1 243.2 238.2 227.5 220.2 219.5 221.8 226.7 242.1 250.7 233.6 220.1 250.4 260.7 254.8 252.2 257.1 262 267.6 273 280.3 291.1 301.3 303.6 299.5 295.4 292.7 289.2 281.7 277.3 274.1 270.5 267.4 266.1 268.4 270.4 271.5 272.7 275.8 283.6 291.3 300.3 306.4 309.1 311.7 311.4 310.4 313.1 317.1 321.3 326.2 327.3 323.8 325.6 320.9 319.6 319.4 318.3 316.2 316.3 318.2 321.3 318.9 318 319.5 321.7 327.6 327.9 329.1 334.3 335.6 334 329.2 325.5 321.4 317.7 315 313.4 314.4 318.8 326.1 334.3 345.1 353.2 356.5 353.1 351.7 348.9 342.5 334.1 326.9 322 318.7 314.7 310.7 308.5 312.3 319 325 330.1 332 336 337.2 335 330.9 325.9 323.8 331 335.7 340.5 343.8 342.9 340.8 337.6 334 328.6 321.1 314.5 306.4 294.9 271.2 253 260.2 273.4 284.4 292.3 306.5 334.6 349.9 352.6 351.8 352.3 352.5 354.1 355.6 356.7 356 354.1 352.3 350.8 349.6 349.1 347.6 345.3 343.4 341.7 340.1 337.8 336.8 331.9 327.5 308.6 284.6 249.1 251.9 260.2 254.8 252.6 247.7 249.9 249.4 243.4 238 239.3 242.8 244.7 245.2 246.4 247.3 246.3 246.1 244 243 238.9 232.7 225.6 220.1 214.4 212.2 213.6 215 220.4 226.6 235.9 244.6 252.9 262.6 270.4 277 281.8 287.8 287 282 277.3 270.3 266 261.9 261 257.8 253.4
236.1 227.3 223 217 210.6 207.6 207.5 209.3 243.3 249.8 230.8 222.6 252.4 272.8 271.6 265.6 264.3 266.6 269.5 273.5 278.1 284.5 294.3 298.2 291.2 287.9 286.5 284 280.1 276.4 273.3 271.2 267.4 264.3 265.9 267.8 269.1 270.4 273.5 279.2 287.1 293.1 297.1 302 305.4 305.7 307.8 315.1 320.7 324.9 333.2 336.2 328.5 321.5 321.1 319.1 318.4 318 317.4 318.3 322.2 328 328.8 328.3 334.6 335.9 334.9 330.8 332.3 336 340.8 338.1 333.5 328.5 324.2 321.1 316.8 315.3 315 318.3 325 333.6 340.9 356 359.7 360.6 357.7 353.9 347.8 338.7 329.9 324 319.4 315.5 311.6 311 314.2 321 326.9 332 337.2 341.1 342.4 340.4 337.4 334.2 332.6 332.4 338.2 343.1 346.1 346.1 344 341.6 338.1 333.5 323.4 316.2 306.7 295.4 273.4 256.6 262.9 274.5 282.4 284.6 288.6 315.9 340 348 350.5 351.2 352 354.1 355.6 356.2 355.9 354 352.2 350.5 350.3 349.4 347.4 345.4 343.4 341.8 340.1 337.5 331.7 324.3 326.2 322.9 317.9 287.8 262.5 252.3 258.3 252.7 252 250.6 250.4 249.5 249 246 246.7 245.5 245.3 244.2 246.3 245.5 244.5 243 240.5 237.9 233.3 228.1 219.9 215.9 215.2 217.2 218.7 223.8 232.9 242.4 251.4 257.5 267.1 276.6 284.3 287.4 298.8 292.7 285.6 279.6 272.9 267.5 262.9 260.6 262 257.2
226.4 215.3 207.4 206.9 206.7 207.8 206.8 207.8 225.8 247.8 229.2 222.1 247.4 270.9 276.1 280.3 282.8 277.5 279 278.7 280.2 283.4 287.6 290.4 287.4 285 284 281.9 279 275.3 272.2 269 265.4 263.4 265.6 265.5 267.1 269.3 272.1 275.1 279.6 283.9 287.5 294.8 297.8 301.2 307.5 319.4 327.7 333.4 339.2 339.4 324.7 326.6 320.6 319.5 318.7 318.5 319.5 322.1 325.6 328.7 337.7 337.8 338.4 341.7 342.8 340.4 338.3 340.7 341.4 341.3 336.3 332.7 331 329.2 324.3 317.5 316.4 319.3 327.2 333.8 338.3 356.3 361.7 362.8 360.3 356.3 353.3 344.1 333.5 325.7 320.1 316.2 313.4 311.7 315.2 320.3 325.4 330.5 336.1 340.1 342.4 342.8 341.2 340.7 339.8 337.7 340.5 345.1 347.7 348.8 348.2 346 342.2 336.8 326.1 319.1 309 297.7 276.4 260.1 262.7 273.7 281 284.6 287.9 289.3 319.4 338.4 343.1 347.4 350.6 353.5 355.6 356.7 355.6 353.8 351.9 350.2 349.1 349 347.2 345.2 343.3 341.6 339.9 336.4 331.2 326.8 328.5 326.2 320.9 313.8 285.6 265.7 254.8 252.8 251.5 251.1 250.5 246.4 240.9 237.4 242.1 242 243.6 244.1 243.7 244 239.8 234.2 240.2 236.6 232.2 228.4 221.1 218.9 217.6 218.4 220.9 225.8 236.8 247.1 255.1 262.8 269.7 282.4 298.4 300.6 297.1 293.2 287.3 280.4 274.1 268.3 264.7 262.9 264.2 260.7
224.7 219.4 207.3 206.9 206 205.2 206 207.6 240.4 248.7 227.4 221.3 243.4 268.4 275.1 280.9 288.5 291.8 293.6 294.3 289.3 285.9 286.2 285.6 283.1 280.3 285.5 284 280.6 274.3 270.8 267.5 262.3 262.3 264 266.4 268.5 269.8 272.1 274.5 277.1 280 284.2 287.7 293.2 300 308.1 320.9 333.4 339.3 342.3 340 335.4 325.7 322.1 320 319.5 320 323.3 326.9 332.2 338.6 337.5 338.2 338.6 347.7 348.6 346.4 344.5 344.3 344.2 343.9 340 337.3 336.2 336.9 331.5 322.1 319.1 322.8 329.3 334 340.3 355.1 362.5 363.5 362.7 359.5 356.6 349.7 338.3 329.3 322.2 316.9 314.9 313.6 315.2 317.9 321.4 326.8 332.4 337.4 341.1 342.8 344.1 344.9 344.6 343.4 345 346.8 348.6 350.4 350.8 349.8 348 341.5 330.9 323 314.6 302.7 285 267.9 261.5 272.8 280.7 284.5 287.1 275.8 288 324.2 333.7 341.3 348.9 352.1 354 355.1 354.8 353.4 352 349.6 348 347.4 345.6 345.9 342.9 340.9 339 337.4 334.4 331 329.5 327.9 323.5 317.8 302.1 276.8 267.5 255.5 250.8 246.9 237.7 236.2 234.9 235.4 239 239.8 242.5 243.4 243.7 243.2 242 238.4 236.7 235.1 232.3 227.6 223.9 221.1 218.9 220.8 222.2 227.5 235.6 251.4 261 267.6 278.6 292.6 308.1 303.1 297.6 292.5 287.2 280.1 274.8 269.5 266.6 265.1 265.9 262.1
197.4 206 221 208.5 206.6 205.9 204.5 205.5 238.6 237.2 229.1 220 242.2 264.4 273.7 279.6 286.2 291.3 293.2 296.7 296.5 292.5 288 282 276.9 274.4 278.5 283.4 282.2 274.9 269.2 262.3 258.6 264.7 268.8 271 271.9 272.8 273.6 275 277.2 280.3 282.8 287.4 292.7 299.5 305.8 317.5 330.2 338.3 341.7 340.3 335.5 328.2 324.5 322.2 321.1 321.6 328.5 329.5 335.8 342.1 344.4 343.9 350.3 351.5 351.5 350.2 347.9 346.7 346.7 346.7 343.6 342.4 342.9 342.1 336.4 327.2 321.7 325.5 330.6 336 343.7 353.8 364.5 365 363.9 362.1 358.9 353.6 343.1 331.7 324 320.1 317.2 317 318.6 322.2 325.9 329.3 330.5 335.1 339.7 342.7 345.5 346.6 347.8 347.1 348.4 348.7 350.3 352 353.1 352.9 351.6 347.5 337.1 328.2 317.2 306.7 295.4 279.4 265.5 270.3 279.2 286.1 288.3 270.5 276.7 306.3 322.9 335.3 343.9 348.8 351 352.4 352.6 352.4 351.4 348.9 347.2 345.5 343.8 343.6 340.3 339 337.8 336.1 334.7 332.5 329.8 327.2 320.8 318.6 312.5 294.5 279.8 262.4 250.4 243.3 239.9 237.5 236.6 237.3 237.8 240.1 241.3 242.8 243.6 242.6 240.3 238.2 238.5 236.1 233.9 229.5 224.5 221.8 220.4 219.1 223 228.5 239.9 254 266.5 274.6 285.5 303.4 309.5 306.4 301.5 295.4 288.3 282.6 277.5 272.7 269 266.9 266.6 263.6
204.6 197.4 217.2 208.6 206.8 205.9 204.8 207.5 222.1 211.2 210.9 227.2 249.5 264 272.7 278.5 283.2 286.6 289.9 294.2 298.5 296.4 293.3 279.3 275.6 266.8 272.5 278.2 281.9 277.1 265.3 256.7 265.5 272.2 274.8 275.6 276.1 275.9 276.6 277.7 279.9 282.5 284.7 289 294.5 301 304.5 309.8 317.8 330.6 342.1 341.7 335.5 328.8 326.2 325.4 323.2 329.6 326.4 330.5 336.4 343.8 344.8 344.2 348.2 351.2 352.3 352 351.2 349.1 348.9 348.9 346.9 346.7 347.3 344.3 335.3 327.4 324.3 326.4 331 335.6 343 351.2 367.6 367.7 365 362.1 359.3 355.2 347.8 336.2 327.9 323.8 321.7 321.1 322.6 326.1 330.9 334.9 336.2 337 340.1 344.1 347.5 348.7 349.7 349.8 350.4 350.7 352.3 352.8 353.1 354.7 355.5 351.1 342.1 330.5 319.7 309.7 298.9 289.6 275.7 269.6 276.6 291.3 300.1 281.9 267.6 280 302.6 327.3 339 344.8 347.2 348.4 349.8 350.3 348.9 347.4 345.5 343.9 342.5 341 339.6 339.1 335.8 333.1 330.7 329.4 328.1 325.9 323.1 320.6 313 299.2 281.2 265.5 253.1 246 240.7 239 238.6 238.8 239.1 239.8 241.1 243.3 244.6 243.4 235.8 234.8 236.1 234.7 233 224.8 224.2 220 219.5 216.5 222.5 227.2 239.1 255.4 269.6 281.7 293 309.6 310.9 308.4 304.5 298.7 293 288 282.2 275.5 271.5 269.7 266.6 264.5
215.9 217.5 217.2 216 207.1 206.2 205.6 208.9 214.7 228.2 236.4 246.3 260.7 267.7 272.4 275.6 279.3 282.1 285.3 290.9 295.4 295.8 290.2 270.3 261.8 258 263 269.8 273.5 271 255.5 257.3 271.4 278.3 282.3 281.7 280.1 280.1 279.7 280.4 282.8 286 289.5 292.8 298.6 302.8 303.4 307.1 311.4 323.5 340.6 343.7 336.9 331 330.8 327.1 324.6 324.7 326.6 331.2 337 341.3 341.4 341.6 343 346.1 348.6 350 354.7 354.3 352.6 352.3 349.7 348 347.2 342.6 335 327.4 325.8 326.5 329.7 334.7 343.2 353.7 367.9 374.7 367.1 362.8 359 355.5 350.4 343.3 335.8 329.2 326.2 325.1 325.6 329.4 334.6 339.9 341.6 342.2 343.7 347.1 349.7 350.7 351.7 352 352.3 351.6 351.7 352 352.3 350.9 351 349.2 342.9 330.6 321.6 312.3 302.8 293.7 283.7 272 274.9 286.4 303.7 291.1 268.4 267.3 269.9 309.9 327.6 338.2 342.8 344.9 346.9 348.3 346.9 345.4 343.8 342.3 340.7 341.6 339.4 335.9 333.1 329.8 326.9 325.3 323.3 322.2 321 317.7 310.3 295 278.9 265.8 255.6 248.3 243.5 242.2 241.7 240.3 239 240.5 241.5 242.7 243.6 243.6 238.3 231.5 231.8 226.3 220.6 227.1 221.9 217.6 215.1 215.1 219.5 227.1 238 254.8 269 281.9 294.3 312.7 313.8 310.5 306.3 301.6 296.7 291.1 284.6 277.5 273.3 270.5 267.9 265.7
