ncols 200
nrows 82
xllcorner 350000
yllcorner 830800
cellsize 50
161.6 159.1 180.5 197.1 207 215.3 221.3 227 231.2 234.4 237 238.9 240.4 241.2 241.4 240.4 238.5 234.9 230.1 224.3 218.8 213.7 213.2 213.7 213.4 210.4 207.4 203 199 195 191.1 186.1 180.7 173.2 166.5 160.5 157.4 153.9 143 134.1 135.3 135.5 136.5 136.9 137.6 142.1 144.9 152.9 146.3 145 148.1 152.7 147.5 148.1 149 150.1 151.4 154.5 157.1 157.8 158.1 157.2 160.8 167.9 173.7 177.7 180.8 183.3 185 186.8 188.5 188.6 188.5 188.4 188.1 186.6 184.9 182.5 180.8 179.4 178.4 177.6 176.9 177.1 177.4 178 181.2 184.2 184.3 183.8 182.9 182.8 183 184.8 188.5 192.5 194.4 196 197.3 198.2 197.9 196.3 197.2 199.6 202.6 205.8 207.9 211.6 218.5 226.3 236.8 247.6 260.5 272.2 281.8 290.7 297.1 302.2 305.1 306.8 309 309.7 309.8 309.9 310 309.3 308.2 307 305.5 303.7 301.5 299.3 297.2 295.2 293.8 290.6 288.1 285.5 283.1 280.3 278.1 275.4 274.6 274.7 274.8 274.3 273.6 273.2 272.2 271 270.1 268.6 262.7 268.4 274.9 283.8 289.4 292.1 291.9 289.4 283.7 278.8 272.6 267.3 262.7 259 255.8 252.7 250 252.3 257.3 264.3 268 271 271.5 269.8 267.1 262.5 257.6 253.4 249.9 246.5 241.3 251.3 256.6 259.5 260 259.2 257.9 256.2 253.2 250 245.5 240.4 235 229.3 226.7 221.4 216.9 214.8
162.1 161.4 189.2 202.7 212.4 219.8 228.3 234.4 239.6 242.6 245.3 247.1 248.3 248.2 247.1 244.9 242.2 238.4 233.6 229 225 220.3 220.3 222.7 221.8 217.3 212.5 208 203 197.9 192.4 187 181.2 176.1 169.5 162.7 162.8 159.6 148 135.6 135.4 136.3 137.1 137.1 137.3 142.6 149 153.7 148.4 146 151.1 148.5 147.6 148.1 149.1 151.3 154.8 158.4 160.3 162.9 163 161.2 159.4 162.8 170.6 172.7 175.8 178.4 180.3 182.2 183 184.3 184.5 184.1 184.1 183.7 182.4 180.8 179.8 178.7 178.1 177.5 177 177.2 177.5 179 183.7 187.3 187.7 186.8 185.4 185.3 185.3 186.5 190.8 194 196.6 198.3 199.8 200.2 200.4 199.3 199.5 200.9 202.8 205.5 207.5 211.2 216.2 223.8 232.1 242.2 253.5 263.8 274.6 284.7 292.9 298.5 303.5 306.3 306.5 306.7 306.8 306.8 306.9 306.5 306.2 305.6 304.6 303 301.3 299.6 298 296 293.8 291.2 289.1 286.9 284.5 282.6 280.5 279.7 278.8 279.4 279.6 279.6 279 278.3 276.3 274 272.2 270.6 268.7 259.3 271.8 277 282.7 286.5 287.6 286.2 282.8 278.4 273.4 268.2 264.4 260.5 257.3 254 251.1 247.8 252.5 257.9 264.1 268.6 270 269.5 267 262.5 257.8 253 249.5 246.4 238.5 249.2 254.7 257.4 258.6 257.4 255.8 254.1 250.6 246.8 241.9 235.3 230.6 224.7 220.3 216.2 212.6 211.2
161.5 178.3 194.1 204.2 212.7 221.1 228.7 236.8 243.9 248.7 252 254.4 255.5 255 252.4 249.7 246 242 238.1 234.3 229.9 226.2 227.4 229.4 228.6 223.6 218.4 212.4 207 201.8 194.9 188.3 182.4 176.7 171.4 168.5 170 159.7 143.8 135.8 136 137.3 137.2 137.2 144.8 144.3 149.4 151.8 147.3 146.7 149.5 148.1 147.7 148.2 149.4 153.6 158.5 161.6 163.5 165.2 166.3 164.1 160.8 163.9 166.7 167.4 170.9 172.6 174.5 176.8 178.5 180.6 180 181.3 181.7 181 180.1 179.3 179 178.6 178 177.5 177.1 177.4 177.7 180.7 185.8 189.3 190.1 189.7 188.5 187.6 187.3 188.1 192.4 195.5 198.3 200.5 201.9 202.7 202.5 201.2 200.2 201.9 204 205.3 207.8 211.5 215.2 220.3 226.5 234.5 247 259.8 274.1 282.4 290.6 296.4 300.3 302.9 304.6 304.9 304.7 304.6 304.5 304.5 304.2 303.7 303.2 302.1 300.8 299.1 297.5 296 294 291.7 289.8 288 286.6 284.8 283.8 283.5 284.5 285.4 286.5 286.6 285.8 283.9 280.9 277.8 274.9 271.8 269.9 265.7 262.1 272.7 277.8 280.3 281.8 282.1 280.4 277.6 274.1 270.2 266.3 262.4 258.7 255.4 252.2 248.8 246.9 253 259.1 263.3 262 267.5 264.7 261.1 256.7 252.6 249.5 246.8 239.2 243.5 250.4 253.4 254 253 250.6 247.3 245.1 237.6 234.1 227.2 218.8 213 212.9 212.8 212.7 212.3
167.9 183.1 194.6 203.3 210.8 218.8 227 235.3 243 250.5 256.5 259.8 261 260.7 259 257.1 253.8 248.7 244.3 238.6 234.3 230.7 230.9 232.2 232.2 229.3 223 216.1 209.4 203.8 195.2 187.9 181.7 176.7 175.2 175.3 173.2 163.2 140.1 136.1 136 137.4 138.6 141.1 143 144.3 147.2 147.6 146.1 147.1 151 148.1 147.8 148.2 149.8 156.5 161.2 164.1 166.4 167.9 168.4 165 164.7 162.7 165.1 165.3 166.8 168.5 170.8 172.5 175.2 177.2 177.8 179 179.2 178.7 177.9 178.9 179.1 178.6 178 177.6 177.4 177.4 177.9 182.4 188.6 191.4 192.5 192.6 192.2 191.2 190.5 190.2 194.2 197.3 200 202.1 203.8 205 204.3 202.4 201.1 201.7 204.6 206.6 208.2 211.3 215 219.5 229.1 239.1 248.4 260.2 273.1 283.1 290.7 295.3 299 301 302 301.9 301.7 302.2 302.4 302.6 302.2 301.7 301.3 300.2 299.1 297.9 296.5 295.6 294.3 291.9 290.9 289.9 289.2 288.7 289 290.4 291.4 293.4 293.9 293.1 291.5 288.6 285.3 280.7 276.5 272.9 270.6 265.5 261.7 266.8 271.7 275.6 277.9 278.6 279.1 278 275.9 272.6 269.2 265.3 261.2 257.5 254.1 250.4 244.5 247.6 253.8 258.4 262.5 260.5 257.6 255.3 253.6 251.6 247.5 244.9 241.4 239.5 245.1 249.3 248.2 247 241.7 239.7 231.9 225.7 220.3 214.6 214.2 214.6 215.9 216.8 215.9 216.1
171.3 185.2 195.7 203.8 210.5 218.4 226.8 236.8 245.2 254 261 265.6 267.4 268.6 268 267.8 264.7 257 249.7 244.5 239.2 235.2 234.7 237.1 238.8 234.9 226.1 217.7 208.2 201.6 193.9 185 180.4 177.3 177.2 177.3 173.5 161.5 146.6 136.7 136.2 136.8 141.1 141.8 142.4 143.3 144.6 145.7 146.4 150.8 150.3 148.4 148.3 148.3 152.1 159 163.6 167 168.7 169.8 170 167 164.9 163.1 163.4 164.2 165.6 167 168.9 170.9 172.9 174.8 175.9 175.3 176.2 176.4 177.4 178.2 178.8 178.5 178.1 177.7 177.8 177.8 180.2 185.5 190.2 193 194.6 195.6 195.9 196.1 195.6 194.3 195.1 197.7 201 203.3 205.5 206.9 205.8 203.6 203.1 202.5 204.6 207.1 210.2 212.2 214.9 221.1 231.8 239.4 248.6 260.6 273.9 284.9 292 294.9 297.7 298.3 298.8 298.8 298.7 299.1 299.5 300 299.8 299.5 299.3 298.4 297.4 296.2 294.8 293.9 293.2 292 291.7 291.6 292.8 293.7 295.3 297.2 299.1 300.7 300.6 298.7 295.7 292.2 287.5 282.7 278 274 270.2 267.1 263.8 254 264.6 269.8 274.2 276.3 278.6 278.9 277.8 275.3 272 268.1 263.9 260.1 256.4 252.1 248.3 241.2 247.7 251.8 254.9 256.3 256 254.1 252 249.5 246.7 243.1 241.1 241 240.6 244.8 244.3 241 235.2 226.7 223.3 217.8 215.5 216.4 218.2 219.4 220.9 221.4 220.5 220.1
181 182.7 187.8 198.5 207.8 217.8 227.6 237.5 247 255.7 264.2 270.2 275.3 276.7 278.1 276.7 273.5 267 256 249.5 242.7 239.1 238.5 239.2 236.8 233.4 227.1 216.8 206.8 199.2 188.2 181.6 177.4 176.4 177.3 178.2 171.8 159.8 149.6 136.5 135.5 136.1 136.3 141.5 142.7 143.9 145.4 147.3 149.6 151.5 149.9 148.7 148.7 148.7 154.4 160.7 165.5 170 171.7 172.7 172.1 168.3 165.8 165 164.6 164.5 165.7 166.8 168.6 170.8 172.1 174 172.9 172.4 174.6 176.2 177.2 177.3 178.6 179.1 178.4 178.1 178 179.1 182.5 186.9 191 194.4 196.4 198.6 200.1 200.6 199.7 197.4 196.3 198.4 201.3 204.6 207 207.6 206.5 204.8 204.8 204 204.9 207.7 210.9 213 215.6 222.4 231.1 240 248.7 260.6 274.5 285.4 290.4 292.9 294.5 295.3 295.7 295.7 295.7 296 296.4 297.2 297.2 296.9 296.7 296.1 295.3 294.5 293.2 292.1 291.4 291.7 292.3 293.6 295.3 297.8 300 302.1 304.5 305.6 305.1 302.7 298.9 293.6 288.3 282.9 277.8 273.9 270.5 266.1 263.9 260.2 254.4 264.6 270.4 275 278.1 279.4 279.4 277.6 274.7 270.4 265.7 261.7 257.7 253.4 249.5 245.3 238.3 244.5 248.2 250.3 249.9 249.7 248.7 246.6 243.3 239.6 236.2 231.6 233.4 235.8 232.5 226.3 219.5 217.2 216.9 217.8 219.7 221.7 223.7 224.4 225.1 225.7 224.7 224.7
186.3 188.8 190.4 194 203.4 215.5 227.2 236.7 246 256 265.2 273.9 281.7 286.1 287.8 287 281.7 273.3 263.8 254.2 245.6 241.3 239.3 235.7 231.2 226.4 220.8 211.3 202.9 193.4 182.5 177.7 174.9 172.8 174.3 175.7 170.1 158.5 148.2 136.9 136.8 136.9 136.7 142.3 142.6 144 146.5 149.9 151.7 153.9 150 149.2 149.3 149.6 153.7 160.2 166.2 171.2 175 175.7 172.7 168.9 166.9 167.8 167.1 167 167.6 168.3 168 169.9 172.2 174.5 171.7 172.1 174.8 176.3 177.2 178.6 179.7 179.8 179.6 180 180.7 181.6 184.5 189.7 192.7 196.1 199.3 201.7 203.8 204.2 202.9 200.8 198.3 199.6 203.8 205.7 208.1 208.6 207.5 206.5 206.1 206.1 206.8 208.8 211.3 213.9 217.5 222.2 230.6 242.1 253.6 264 277.8 285 290.3 292 292.4 292.6 292.6 292.4 292.6 293 293.3 293.9 294.1 294.1 294.1 293.6 293 292.4 291.4 290.2 290 291 292.9 295.2 297.6 300.2 302.4 305.3 307.6 308.3 306.7 304.1 299 293.1 287.5 282.1 277.1 273.7 270.5 265.8 262.9 260.6 253.2 258 265.6 273 278.1 279.5 279.5 278.4 276.1 271.7 267.3 262.8 258.4 254.4 250.3 246.2 240.9 235.6 241.8 243.5 243.7 243.9 242.4 239.9 237.3 234.5 231.6 227.2 221.7 219.8 219.6 220.1 219.1 219.7 219.6 221.8 224.8 226.4 227.4 228.1 229.4 230.3 230.4 228.7
191.5 194.2 197.2 200.1 203.8 215.5 227.2 236.4 245.5 256.1 266.5 277.2 287.2 294.5 296.3 294.2 288.1 280.2 271.2 263.5 254 244 239.1 234 229.1 220.4 211.2 204.3 196.5 186 176.9 173.3 170.5 169.6 169.9 174.1 170 156.6 145.6 138 136.9 136.6 137 139.9 142.5 143.9 148.5 151.1 152.6 152.2 150.7 149.8 150.1 150.9 153.9 159.1 165.4 172.3 175.6 175.4 173 170.3 169.7 169.8 169.3 170.1 171.3 172 171.2 169.7 171.1 171.9 172 172.5 174.2 176.1 178 179.8 180.1 181.7 183.5 184.2 184.3 184.8 187.6 192.8 195.3 198.4 202.2 205.4 206.8 207 205.8 203.7 202.4 203.2 206 207.9 209.2 209.9 210.1 209.3 208.3 208.3 209.1 210.6 212.9 215.8 218.6 224.1 232.2 242 255.6 269.3 282.2 289.9 291.4 291.3 291.3 291.1 290.6 290.2 289.7 290 290.2 290.5 291.2 291.2 291.7 291.8 291 290.3 289.1 287.8 288.1 289.6 292.1 294.4 297.1 300 302.8 305.6 307.7 307.9 306.1 302.9 297.7 291.9 286.3 281.1 276.2 272.7 269.1 265.4 261.9 259.4 256.5 249.1 260.4 268.2 274.8 278.7 279.4 278.1 276.1 272.4 267.9 263.2 258.9 254.8 250.8 246.7 242.3 237.4 230.7 236.3 236.2 236.1 236.4 234 230.3 224.8 222.8 221.8 222.2 223 223.4 223.4 224.6 225 224 225.3 228.4 230.1 231.2 231.8 233.5 234.7 235.5 234.4
197.4 202 204.6 207.7 209.1 217.5 228.2 237.8 246.1 257.1 269.1 280.2 290.6 300.1 302.2 300.6 294.7 286 277.9 270.1 262 249.5 241.3 234.2 227.8 218.2 206.4 197.6 187.6 178.7 173.2 169.7 166.2 164.8 164.4 166.9 163.4 154.1 145.4 138.2 137.4 136.7 137.1 142.4 143.3 145.3 149 151 154.2 153.4 153.4 153.3 153.5 151.1 152.9 157.2 164.2 170.5 174 173.9 172.8 171.5 171 171.2 171.8 172.7 174 175.2 174.3 172.6 171.5 171.5 172.1 173 173.9 175.5 177.7 179.3 180.8 184.1 186.8 187.7 187.2 188.1 190.9 194.1 196.9 200.3 203.9 207.1 208.4 209.1 208.2 206.3 205.6 206 208 209.8 210.9 212.2 213 212.6 211.7 210.9 211.4 213.4 214.8 216.4 220.3 225.6 234.4 246.4 259.6 272.1 285.1 293.2 293.5 292.4 291 290.1 289.2 288.6 288 287.5 287.4 287.6 288.2 289 289.9 289.9 288.9 288.2 286.5 285.3 286.4 288.3 290.7 293 295.6 298.3 301.3 303.8 305.3 304.9 302.9 299.8 295.5 290.3 284.7 279 274.7 270.8 267.4 264 260.7 257.8 255.2 248.9 254 261.1 268.1 274.1 277.8 277.5 275.8 272 267.5 263.2 258.7 254.1 249.7 245.6 241.5 237.4 233.2 228.7 229.6 229.3 225 224.2 223.5 222.8 227.7 227 226.9 228 228.3 228.4 228.6 229.1 228.2 228.9 231.6 233.7 235.1 236.3 237.9 239.5 241.2 240.8
208 211 214.4 217.7 219.7 221.5 231.2 240.4 249 259.5 270.5 282.3 295.5 304.4 308.7 307.4 303.2 297.7 289.1 281.3 271 262.5 251.7 238.3 231.1 219.5 209.3 198.9 183.6 176.2 171.4 167.2 164 161.3 159.4 161.4 155.7 151.8 142.6 139.2 138.1 137.2 137.3 142.2 143.5 145.3 149.2 151.9 155.7 156.7 158 155.8 154.1 151.9 152.1 154.7 160.7 168 171.2 171.4 171.1 170.7 170.5 171.2 173 174.7 176.5 177.2 176.3 175.4 174.6 172.6 173 173.9 174.9 175.9 177.3 178.8 181.9 185.6 187.6 188.9 189.5 190.6 193 195.5 197.3 199.6 203.4 206.8 209.5 210.2 210.6 209.3 208.9 208.8 210.5 212.2 213.4 214.8 216.1 216.6 215.9 214.5 214.9 217 218.3 219.6 221.4 228.6 237.9 248.9 262.1 275.8 287 293.6 295.4 294.8 293.2 290.8 288.7 287.7 287.2 286.8 286.6 286.5 286.6 287.1 288.1 288 286.9 286 284.1 283.3 284.3 286 288.3 290.6 292.7 294.6 296.7 298.1 299.5 299.6 297.9 295.4 290.9 286.6 281.7 276.1 272 268.1 264.7 261.8 259.1 256.2 253.4 249.3 246.3 254.2 261.7 269 274.4 275.8 274.8 271.3 266.6 261.7 257 252.6 247.9 243.1 239.2 235.5 231.8 228.5 226.3 228 228.4 229 228.6 231.2 232.6 231.9 232 232.2 232.2 232.1 232.5 232.9 232.9 232.4 235.3 237.6 239.7 241.6 244.4 247.2 249 249.6
219 222.3 225.7 226.7 228 228.3 236.5 244.9 252.6 261.2 272.7 285.5 300 309.5 314.3 315.8 313 306.6 298.9 292 285.3 275.6 263.7 252.3 238.9 225.6 212.3 198.6 186.7 177 172.1 168.3 165.2 161.9 159.4 155.7 151.8 146.3 141.8 140.2 139.1 136.8 137.7 143.3 143.5 145.2 149.5 153.4 158.2 158.9 158.3 156.8 154.7 153.4 152.6 153.9 157.4 162.9 166.8 167.9 168.2 168.8 169.4 171.5 174.3 176.3 178.8 179.1 178.5 177.8 176.7 174.4 173.8 174.7 176 176.7 177.7 179.6 183.4 185.8 187.8 189.6 190.5 191.6 193.5 194.9 196.5 198.1 202.5 206.7 210 211.5 212.3 212 211.4 212 213.5 215.1 216.7 218 219.7 221.3 220.6 219.8 220 221.5 223.4 224.1 224 231.5 240 250.7 264.3 277.4 288.8 295.3 298 297.2 294.6 292.1 289.6 288.1 287.3 286.7 286.3 286.2 286.1 286.1 285.8 285.4 285.1 284 282.6 281.9 282.1 283.6 285.7 287.7 288.8 289.5 289.7 290 290.2 289.8 289 287 283.1 279.4 275.4 272.2 268.7 264.9 261.1 258.6 256.1 253.4 251 248.5 244.6 247.1 253.5 261.1 268.9 273 272.2 268.6 264 258.9 253.9 248.7 243.9 239.3 235.1 231.8 228.9 229.1 231.4 234 234.7 234.6 234.7 234.9 235.2 235.1 235.1 235.5 235.5 235.8 236.7 236.7 237.4 238 240.1 241.5 244.6 247.4 250.9 253.8 255.6 256.4
229.4 233.8 236.8 236.7 239.4 240.6 242.9 248.9 254.9 262.7 276 289.5 304.7 315.1 320.7 320.2 317.3 312.6 306 300.7 294 285.4 274.2 262.1 249.2 232.1 214.1 199.7 190.1 179.7 175.1 172.6 168.7 164.3 161.6 157 152.1 146.8 142.6 140.4 138.6 137.9 136.8 141.1 144 146.4 150.4 154.9 158.4 158.2 157.7 157.4 155.6 154.7 153 152.9 154.7 159.2 163.8 164.9 165.1 166.6 168.6 171.7 174.5 177.5 180 181.2 180.9 180.5 179.2 176.3 174.7 175.3 176.8 177.5 178.6 179.8 182.3 185.2 189.3 190.4 191.1 192.2 193.2 194.2 195.8 197.9 202.2 206.5 210.4 212.8 213.6 213.8 214.1 215.3 216.9 218.7 220.5 222.6 224.8 226.2 226.5 226.2 226.2 227.6 228.7 229.6 228.7 233.8 242 253.2 265.9 278.4 289.4 295.9 298 297 294.8 292.4 290.2 288.7 287.5 286.9 286.4 286.2 286 285.8 285.6 285.2 284 282.8 281.8 280.9 280.3 280.5 281.8 283.3 283.4 282.6 282.3 281.5 280.3 278.1 276.5 273.4 270.7 268.1 266.8 265.1 262.1 258.4 254.9 252 249.4 248.2 246.4 245.2 244 242.5 245 251.2 258.3 263.8 266.5 264.6 259.6 254.3 249.9 244.5 237.2 231 230.6 230 230 232.4 235.1 236.8 237 237.8 237.9 237.8 237.8 237.9 238.3 238.7 239 239.6 240.5 240.8 241.5 242.1 241.7 246.6 250 253.8 257.4 260 261.2 261.7
240.8 247.1 250.4 251.9 251.1 252.6 252.6 254.7 259 268.5 281.1 295.7 309.9 319.9 322.6 321.7 318.6 315 310.3 304.6 299.4 290.4 280.3 269.6 254.3 233.8 217.1 202.3 192.2 182.8 179 176.9 172.1 168.2 165.1 161.4 157.6 151.9 144 140.9 138.9 137.9 138 142.9 144.1 148 152.1 155.6 158.6 158.3 158.2 157.5 156.8 154.9 154 154.6 154.1 156.8 160.5 161.3 162 164.1 167.3 170.7 173.9 177.6 181.4 184.4 184.3 183.1 180.8 178.1 176.3 176 177 177.9 179.1 180.4 182 185 188 189.2 190.1 191.2 192.3 193.8 195.7 197.8 201.8 205.8 209.7 212.3 213.6 214.8 216.4 218.9 220.8 223 225.4 228 231 233.4 234.3 235.1 235 235.1 235.6 236 234.7 235.7 243.9 254.1 267.3 279 289.7 295.5 297.1 296.4 294.6 292.2 290.8 289.7 288.6 287.8 287.1 286.4 286 285.6 285.4 284.3 283.1 281.8 280.9 280 279.1 278.5 277.7 277.3 277.1 275.6 274.4 272.9 270.8 268.5 266.3 263 260.5 257.9 256.6 255.7 254.2 252.7 251.6 252 252.1 251 247.8 245.9 244.9 244.8 241.8 241.2 246.1 251.8 254.8 253.9 252 249 243.6 234.1 232 235.2 233.9 231.7 231.2 234.4 237.7 239.3 239.9 240.1 240.1 240.2 240.4 240.9 241.4 242.2 243 243.5 243.9 244.5 245.7 247.1 249 254.3 255 259.3 263.1 265.3 266.8 267.5
254.9 260.1 265.9 268.3 265.1 264.6 265.6 266.2 270.8 278.8 290.2 303.4 314.7 321.3 322.7 321 318 314.7 311.4 306.9 301.4 293.2 283.8 273.1 257.3 233.6 218.3 203.2 192.6 185 180.7 178.5 174.4 172 168.8 163.6 159.6 152.6 146.2 142.9 140.6 138.2 138.2 143.2 144.8 147.9 152.2 157.1 159.3 158.7 158.7 158.9 157.9 156.5 157.1 156.6 155.2 154.9 156.1 158.8 160.3 163 166.3 169.6 173.4 178 182.6 185.8 185.6 184.3 182.4 180.4 179.5 178.8 178.5 179.1 179.1 180.5 182 184 186 187.5 188.5 190.1 191.9 193.8 195.9 197.9 201 204.6 207.8 210.8 213.3 215.7 218.8 221.9 224.7 227.4 230.5 234.4 239.2 242.3 244.1 245.1 246 244.6 243.4 242.4 240.4 239.3 248.2 257.1 268 279.1 289 293.8 296 295.7 294.6 293.2 291.9 290.9 289.7 288.9 288.2 287.4 286.6 285.5 285 283.6 282.6 281.6 280.5 279.5 278.3 276.8 274.9 273.5 271.9 269.9 268.6 267.9 265.7 264.4 263.3 262.3 261.8 261.5 260.5 259.4 257.9 257 255.8 255.6 254.2 252.2 249 248 247.9 246.8 245.8 242.9 239.8 239 237.9 237.7 239.3 235.3 234 237 238.6 236.4 236.8 234.7 232.1 236 240.1 241.7 242.2 242.3 242.7 243.2 243.7 244.2 245 246 247 247.7 248.6 249.2 251 252.5 254.1 254.3 260.8 264.8 268.1 270.4 271.9 273.2
270.4 275.1 278.6 282.7 282.3 279.2 276.6 277.7 281.6 287.4 298.5 308.2 317.1 321.3 321.2 319.2 315.2 311.8 309.9 307.4 302.5 294.2 285.6 275.2 257.9 237 219 202.9 192 183.6 180.1 178.2 176 175.4 174.8 168.4 161.6 156.4 149.8 146.4 142.2 139.4 138.9 142 145.1 148 153.2 158.1 158.8 159.2 160.7 160.1 159.6 159.4 159.1 157.4 157.8 156.5 155.2 157 160 162.6 165.5 168.4 173.1 177.2 181.1 184.3 185.5 185 183.7 184.3 184 183.6 182.9 182 181 181.2 182.3 183.2 184.4 185.9 187.8 189.7 191.4 193.1 195.6 197.9 200.7 203.8 206.9 209.9 212.8 216.8 220.9 224.9 228.5 232.2 236.4 241.3 245.9 251 253.8 256 256 254 250.6 249.6 248.4 244.6 254.6 259.6 270.4 280.2 288.3 292.8 295.7 296.7 296.8 295.4 293.7 292.2 290.7 290.1 289.4 288.4 286.9 285.8 284.7 283.7 282.8 281.8 280.8 279.7 278.7 278.5 277.2 275.8 274.2 272.6 271.4 270 268 267.4 266.8 266.1 265.6 264.9 264 262.4 260.8 259.5 258.4 257.1 255.3 252.2 251.4 251.3 251.1 250.1 247.8 243.9 242.2 241.7 241.6 241.7 242.8 242.1 243.3 244.5 244.4 242.2 240 238.4 233.9 239.5 243.7 246 245.9 245.8 246.2 246.8 247.6 248.7 249.6 250.8 252.1 252.5 253.6 254.3 256.3 257.9 260.2 262.2 265.5 269.3 272.2 274.4 276.3 278.2
286 292.5 295.7 297.6 294.9 289.4 286.9 287.9 289.2 296.4 306.2 313.4 318.7 320.1 318.7 315.4 310.8 307.4 305.3 302.2 298.1 291.6 282.3 271.1 254.7 236.9 221.2 202.8 190.2 181.7 179.5 178.4 177.5 178.6 180.1 176.2 167.7 159.8 151.8 146.1 144.7 142.5 138.8 140.3 145.5 149.8 154.7 160.3 160.1 162.4 162.6 162.1 162.2 160.7 159.8 157.7 159.2 156.4 155.8 156.6 158.8 162.2 165.6 169.7 172.7 176.1 179.5 182.7 184.6 185.2 186.9 188.5 188.4 188 186.8 185.3 183.7 182.5 183.2 184.3 185.1 185.9 187 188.9 190.3 192.6 195 197.4 199.4 202.8 206 209.2 212.4 217 222.7 227.8 232.4 236.8 241.2 246.3 252.9 259.2 265.3 267.6 266.5 264.2 260.6 258 256.6 255 256.7 265.8 274.8 282.3 290.1 295.3 298 299.2 299.7 297.8 295.7 293 291.9 291.1 290.1 289.3 287.8 286.7 285.6 284.5 283.5 282.3 281 280 279.6 279.1 278.1 277.2 275.8 274.5 272.9 271.5 270.2 269 268.5 268.2 267.7 267 265.9 264.4 263 261.6 260.2 258.3 255.7 254.1 254.8 254.6 254.2 252.2 248.4 246.8 246.1 245.4 245.4 246.6 248.9 250 250.4 249.7 247.8 245.7 243.5 240.6 235.6 242.7 249.5 252.1 252 251.7 250.9 250.8 251.9 253.7 255.3 256.5 257.8 258.2 259 260.4 261.4 262.5 264.9 267.3 269.8 272.4 275.3 277.9 280.3 282.5
300.7 306.7 308.5 310.9 307.4 300.8 295 294.6 299.3 305.6 311 316 317.2 315.3 313.5 310.1 305.6 300.8 297.4 293.4 288 280.9 272.1 261.4 248.3 236.3 219.3 200.4 187.8 181.1 178.8 177.7 176.2 177.4 178.9 178.2 171.6 161.6 150.5 146.4 147.3 145.2 139 139.7 146.7 153.4 156.9 161.7 163.4 164.3 164 164.3 163.6 162.4 160.9 160.5 159.3 156.9 156 156.4 158.1 162.4 165.9 168.7 171.5 175 178.4 181.7 185 188 191.1 193.1 192.6 192.3 191.5 189.3 187.2 185.4 184.4 185 185.9 186.8 188.1 188.8 190.7 192 194.5 196.2 198.1 200.9 204.1 208.3 211.9 217.9 224.5 230.1 234.8 239.8 245 251.4 258.2 267.2 274.2 277.2 277.1 274.7 270.2 266.8 264.6 264.4 260.9 270.1 278.6 286.6 294.4 299 302.5 303.5 302.2 299.8 296.9 294.2 292.7 291.7 290.8 290 288.8 287.7 286.7 285.7 284.7 283.6 282.4 281.1 280.5 279.9 279.4 278.5 277.4 276.1 274.6 273.5 272.4 271.4 270.7 270.3 269.8 269.1 267.9 266.5 264.7 263.1 261.1 259.1 257.6 257.6 258.2 257.7 256.6 253.8 251.5 250.5 250.3 249.8 250.1 250.4 252.2 253.5 253.6 252.8 251.1 249.4 246.9 243.3 237.2 246 256.3 259.4 259.5 259.1 258.4 257.6 258.1 259.6 261.4 262.4 262.8 263.1 264.7 265.4 266.4 267.2 269.3 271.4 273.3 275.1 277.9 280.4 283 285.6
313.2 318.1 321.8 321.5 316.9 308 304.2 302.5 304.9 309.1 313.5 314.9 313.1 311.6 307.1 302.4 296.1 291.2 285.6 282.1 276 269 261 251 240.4 226.6 212.7 199.9 187.1 179.7 178.1 176.6 174.8 173.9 175.1 176.4 172 160.2 152.3 147.4 147.3 146.3 139.1 139.5 148.2 157.1 159.9 163.8 164.9 166.1 166.7 167.4 166.5 165.2 164.2 163.1 160 158.1 156.5 156.6 158.2 162.1 165.3 167.8 170.7 174.7 178.7 182.1 186.5 191.1 195.8 198.5 198.4 198.1 196.6 193.9 191.4 189.4 187.9 186.8 187.3 187.8 188.9 190.1 191.2 192.5 194 195.5 197 200.1 203.1 207.1 211.7 218.3 225.5 230.9 236.6 242.2 247.8 254.8 263.1 273.1 279.2 284.3 287 284.4 280 275.3 270.6 269.7 269.9 274.8 282.8 292.4 298.6 303.7 306.3 306.6 304.7 301.3 297.6 294.9 293.4 292.2 291.5 290.8 289.8 289 288.3 287.5 286.8 285.7 284.3 282.7 281.5 281 280.8 280.1 279.5 278.5 277.1 276.3 275.6 274.8 274.5 274.4 273.2 272.1 270.5 268.8 267 264.8 262.7 261.3 260.7 260.7 260.7 260.2 259.2 257.4 256.1 255.3 255.2 254.1 254.2 254.2 255.2 256.2 256.3 255.3 254.2 252.8 250.1 245.2 238 248.5 264.1 268.2 269.1 268.1 266.6 265.9 265.8 266.5 267.7 268.7 269.1 270 269.6 270.1 271 271.9 273.4 274.9 276.5 278.4 280.5 282.9 285.7 289.4
322.4 328.8 330 329.2 321.4 312 307.7 304.7 306.3 309.7 312.8 310.5 306.7 301.2 294.2 287.3 281.3 274.4 269.6 267.3 261.9 255.8 247.1 239.4 228.9 219.9 210.5 200.8 186 178.5 175.9 174.3 173.3 171.4 171.5 171.8 168.7 158.8 150.3 147.4 147.4 147 139.6 139.5 152.4 159.6 163.3 166.1 167.5 169.4 170.7 171.1 169.8 168.5 166.6 163.2 161 159.3 158.3 157.9 158.2 161.4 164.3 167.1 170.7 174.7 178.8 183.4 188.4 193.3 199.8 203.6 205.1 204.6 202.1 198.3 195.9 193.9 192.1 191.1 190.3 189.9 190.1 191 192 193.9 196.5 197.2 199.5 198.8 201.8 206 211 217.3 224.3 230.1 236.2 243 249.1 256.4 264.2 274 282.3 288.5 291.8 292.5 288.7 284.3 280 276 277 280.5 288.9 296.4 301.9 305.3 307.7 307.7 304.9 300.8 297.6 295.4 293.9 292.6 292.2 291.5 290.8 290.3 289.6 289.2 288.9 288.9 288 286.7 285.8 285.2 285 284.5 283.6 282.5 281.4 281.7 281.2 280.4 280.1 279.4 278.3 276.2 274.5 272.7 270.6 268.9 267.3 266.2 265.4 265.2 264.5 264.2 263.7 262.5 261.1 261.1 261.2 259.9 258.6 258.5 258.2 258.9 258.7 257.6 256.5 255.1 252.5 247.3 240.4 254.1 270.5 276.7 276.7 275.9 274.9 274 274.4 274 274.7 275.2 275.4 275.2 275.3 275.2 275.7 276.6 278.6 279.6 280.5 282.2 284.9 288 291.4 294.8
329.4 335.1 336.6 332.9 322.6 315.2 309 303.1 302.3 303.2 303.1 301.9 297.4 291.1 281.6 273.4 266.9 260.8 256.3 252.1 247.6 241.8 237 226.9 220.6 213.1 205.6 197.3 185.6 175.6 171.7 170.2 168.6 168.5 166.1 165.7 162 155.3 148.2 147.6 148 146.2 138.6 139.7 154.3 161.1 165.4 169.4 171.9 173.8 175.1 174.9 173.4 171.9 168.3 164.2 161.9 160.8 160.2 159.1 158.6 162.2 165.1 167.9 171.4 175.3 179.2 183.6 188.9 195.8 202.7 207.4 208.9 207.7 205.1 202.1 200.1 198.2 196.6 195.2 194 192.9 192.3 192.5 193.4 196.1 198 199.9 201.1 201.9 201.6 204.5 209 213.8 219.9 225.9 232.9 239.4 245.6 253.3 261.2 270.2 278.9 286.7 292.4 294.5 293.9 291.6 288.7 285.1 284.6 285.7 292.5 298.3 303 305.4 305.4 304.3 302.1 298.9 297 295.7 293.9 292.8 292.9 292.6 292.9 292.8 292.9 292.6 292.3 292.6 292.1 292.2 291.6 291.3 291.2 291.7 290.8 289.6 288.6 289 289 289.4 288.5 287.3 284.8 282.9 279.9 278.3 276.8 275.3 274.1 273.8 272.5 272 272.3 270.7 269.9 268.3 267.6 267.1 266.8 265.5 263.7 262.6 262.1 261.6 260.8 259.8 258.6 257.1 255.1 247.9 241.6 256.9 275.9 282.6 282.9 283.6 283.6 283.1 282.6 282.9 282.9 282.1 281.2 280.9 280.7 280.5 280.7 281.7 283.1 283.9 285.7 288 290.6 294.6 299.3 303.3
335.2 336.5 335.8 331 321.3 312.3 304.4 297.4 293.6 292.7 291.4 290 286.7 276.9 269.5 261.7 255.5 249.8 244.6 240.9 235.7 231.2 224.4 218.9 212.6 206.8 200.8 194.7 187.4 175.5 167.7 165.8 163.9 162.9 160.5 157.8 158.7 153.8 148.2 147.9 148.6 148.3 139.9 140.2 152.3 163.5 167.2 173.7 177.5 179.5 181.3 180.8 179.8 175.7 170.3 165.9 163 161.7 160.9 159.3 159 162 165.3 168.1 171.3 175.3 179.5 183 187.9 194 200.5 205.4 207.1 206.8 205.4 203.7 201.9 200.5 199.4 198.3 197.4 196.8 196.3 196.4 197.3 199.1 200.4 202.3 203.5 204.1 205 204.8 205.5 209.5 214.4 220 227.1 230.9 237.8 245 251.6 260.3 270.5 279.6 287.2 292.5 294.7 294.4 294.2 293 292.3 291.5 293.8 297.2 299.1 301.6 300.6 299.5 297.1 295.8 295.3 295.2 295.1 294.7 294.6 294.7 295.3 296 296 296.6 296.6 297 297 297.6 298.4 298.4 298.1 298.7 298.9 298.1 298.6 298.2 298.8 298.5 297 295.4 292.4 290 287.4 285.5 284.4 283.4 283.1 283.1 282.3 281.3 280.8 279.8 277.2 276.5 275.3 274 272.1 270.2 268.6 266.9 265.6 264.4 263.2 262 260.6 258.8 256.2 248.4 244.5 261.5 277.3 284.6 287 289.3 290.2 291.4 291.8 292.2 290.1 288.1 287.2 286.8 286.4 285.9 286.3 287.5 288.9 289.5 292 296.4 301.3 305.8 309.7 313.6
335.9 336.7 333.4 325.7 316.1 306.1 297.7 290.3 284.1 280.3 279.7 277.5 273.6 266.9 259 252.5 246.1 240.5 234.7 230.2 225.2 221.2 216.8 213 207 201.2 196.4 190.7 183.3 170.8 163.2 160.7 159.6 158.6 157.2 155.5 153.1 150.7 148.7 147.6 147.8 148.9 143.9 139.7 150.6 165.9 173.1 178.8 182 185.3 189.1 188.4 184.2 178.8 172.7 167.3 163.5 162.4 160.4 159.2 160.1 162.6 165.6 167.3 170 174.6 178.4 181.8 185.5 190.1 195.3 199.4 201.8 203.2 202.8 202.6 202.1 201.6 200.8 200.4 200.2 200.7 201.3 202.1 203.5 204.7 205.9 206.4 207.8 207.6 207.8 208.5 210.2 212 212 212.6 214.6 219.9 225.5 232.5 237.7 245.9 256.7 267.4 275.7 283.4 288.5 292.4 294.5 296 296 296.1 296.2 295.6 294.8 294.2 294.2 294.7 294.6 294.6 294.6 295.9 297 297.5 297.6 297.8 299.1 300.2 300.9 301.8 303 303.2 303.3 303.6 304.2 304.5 305.1 305.8 306.7 306.3 307.3 309.2 308.4 306.9 305.5 303.4 301.1 299 296.8 294.8 293.8 294 293.8 293.9 293.7 292.7 291.2 289.2 286.7 283.9 282.4 280 277.2 274.7 272.7 270.5 268.6 266.7 265.1 263.8 261.5 259.3 254.5 247.6 245.4 264 277 286 290.6 294 296.3 297.9 297.9 296.8 295.8 294 293.2 293 292.9 292.7 293.6 295.1 296.4 298.4 300.5 305.6 310.9 319 322.2 327
336 334.7 327 318.8 308.1 298.6 291.2 283.6 275.9 270.1 266.6 264.2 262.4 257 250.6 243.8 237.4 230.6 225.6 220 214.3 211.9 207.5 203.6 198.8 196 190.1 182.8 176.2 165.5 161.2 157.2 156.1 156.4 155.5 155.3 152.5 150.5 149.1 147.4 147.1 140.3 140 139.7 162.5 171.3 176.3 180.7 186.2 191.1 192.8 191.4 187.2 181.6 175.6 168 164.9 162.1 160 159.7 160.3 163 165.2 167 169.7 173.4 176.4 179.8 183.2 187 190.2 194.2 197.1 198.4 199.7 200.7 201.3 201.4 201 201.8 203.3 205.5 207 209.5 210.3 210.7 211.5 212.5 213.5 213.2 212.6 212.4 213.5 215.4 217.9 219.5 221.5 221.4 223.2 224.9 226.9 231.4 241.7 251.2 259.8 266.6 272 277.4 286 293 294.6 295.7 294.9 293.4 291.7 290.8 292.1 293.1 293.1 294.4 296.3 298.4 300.1 301.2 302 303.4 304.4 305.8 306.6 307.3 308 308 309.1 310.4 310.8 311.4 312.3 313.4 314.5 314.7 316.9 317.2 316.5 315.4 313.8 311.9 310 308.2 306.2 304.7 304 305.7 306.1 306 305.9 304.5 302.6 299.4 295.9 292.9 290 286.8 282.8 279.9 276.8 273.7 271.4 269 267.1 264.7 262 259.2 254.8 248.6 250.8 264.7 276 286.1 291.6 296.4 298.9 301.5 302.3 301.9 300.7 300.4 300.3 300.3 300.3 300.9 302.7 304.8 307.5 313 314.7 320.8 325.5 322.1 329.7 335.4
336.9 331.9 321.7 310.8 303.2 292.2 283.9 276.5 268.6 262.5 258.7 254.8 250.9 246.3 240.6 234.4 227.4 220.8 214.5 206.4 201.3 193.4 186.3 181.8 179.4 178.2 178 174.4 166 161.3 159 156 152.1 152.2 145.3 144.2 152 151.9 150.6 147.8 141.6 140.6 140.1 144.8 165.2 173.8 178.4 183.2 189.3 194.7 194.1 194.4 190.7 184.3 176.5 169.4 165.4 162.8 160.7 161 161.8 162.6 165.3 167.9 170.3 172.8 175.3 178.1 181.2 184.2 186.7 189.5 192.2 194.7 196.3 197.6 198.7 199.5 201.1 203.9 207.1 210.6 214 215.9 217.6 218.3 219 219.4 219.3 218.8 217.8 216.6 217.9 220.6 223.8 225.4 227.2 228.1 228.1 233.4 235.6 235.7 233.6 237.7 241.4 246.6 250.1 258.9 266.9 275.4 281.2 284.8 285.8 286.4 285.2 286.2 288 292 293.6 295.7 298 300.4 302.8 305.4 306.9 309.2 310 310.9 311.6 312.6 313.8 314.7 316.1 317.6 318 319.1 320.5 322.5 323.7 324.4 325.4 325.2 324 323.7 322.1 320.5 318.7 316.8 315.7 314.5 314.7 317.6 318.1 318 318 316.4 313.8 310.1 306 301.6 297.4 293.2 288.9 284.7 280.2 276.7 273.6 271 268.6 266 263.3 260.5 257.2 252.3 251.8 263.2 273.4 283.4 290.8 296.5 300.4 303.6 305.4 306.7 307.7 308.5 309.1 310.2 310.5 311.6 314.3 316.9 319.1 322.4 325.3 331.7 337.3 341.8 344.7 347.6
336.7 329.8 318.9 307.1 297.3 286.7 277.3 268.7 262.3 255.3 249.3 244.2 240.5 236.2 231 224.3 218.3 212.4 205.4 196.8 179 165.5 154.7 152.9 154 160.5 159 158.4 158.8 159.9 157.5 156.6 151.2 145.2 145 143.7 142.5 152.7 149.7 145.1 141.1 140.6 140.1 145.8 168.7 175.9 180 185.6 191.9 195 195.4 195.7 191.5 184.5 176.7 170.4 166.9 164.5 163.1 162.1 162.3 163.5 166.3 168.7 170.3 171.6 174.2 177 179.4 181.6 183.7 186 188.9 191.2 193.1 194.9 196.4 198.9 201.6 205.9 210.2 214.3 218.4 221.3 223.6 224.9 225.5 225.8 226 224.9 223.7 221.7 224.4 227 229.7 232.2 234.2 235.5 236.2 238.8 244.9 249.1 251.5 252.9 252.3 254 257.9 252.7 256.1 260.7 265 271.5 275 277.2 281.2 285.7 289.7 294 296.8 300.1 301.5 304.5 307.5 308.2 311.6 314.2 315.5 316.3 317.9 320 321.3 322.5 324 325.1 327.1 328.8 331.2 333.5 335.1 335.3 335.5 335.8 334.3 331.8 330.1 328 326.7 325.3 324.2 323.7 327.2 329.4 331.1 330.9 330.3 328.5 324.4 320.5 316.1 310.9 305 300.1 294.6 289 283.5 278.6 275.2 272.6 269.9 267.5 265.1 262.5 259.4 255.2 251 261.6 270 279.4 288.5 295.4 301.2 305.9 310.5 313 316.3 317.5 318.8 320.5 321.8 323.6 325.6 327.2 331.9 336.4 340.8 345 349.7 353.7 360 358.4
336.6 328.3 316.8 304.8 293 282.6 272.3 262.6 255.6 247.9 239.9 232.7 229.6 226.3 221.5 217.1 210.4 203.7 197.1 184.3 162.5 163.1 171.3 172.1 169.2 155.4 150.5 147.9 147.4 149.7 146.9 146 145.9 145.1 144.6 143.8 142.1 146 142.2 141.7 141.3 140.7 140.7 147 162.3 178 180.8 187.5 193.7 196.4 197.6 196.7 192.3 184.7 177.1 171.2 168.5 165.9 163.2 162.4 163 164.3 165.6 167.5 169 170.3 172.5 174.9 175.5 176.9 180.4 182.7 185.8 187.8 190.1 192.7 195.3 198.3 202 206.2 211.8 216.9 221 224.5 228.3 231.5 234.4 234.2 233 231.2 229.6 227.6 230.8 233.5 236.6 239 241.6 242.9 245 247.1 252.9 259.3 263.9 267 268.5 269.7 271 269.5 268.2 268.7 270.3 273.2 275.5 278.4 283.6 288.3 294.4 299.5 301.9 304 307.4 311.6 314.4 312.8 317.9 319.7 321.9 324.4 326.8 329 331.2 333.2 334.5 336 338 340.3 343.6 346.2 348.5 348.8 348.8 346.6 343.7 341.1 338.2 335.4 333.1 333.3 334.8 337.3 339.9 342.5 343.9 343.3 342.5 339.4 335.4 330.9 325.5 319.5 312.6 305.1 299.4 293.1 286.8 281.3 277.6 274.4 271.8 269.4 266.7 264.1 261.2 257.3 254.1 258.9 268.3 277.8 287.8 296.3 302.6 309.8 315.5 320.1 323.2 326.1 328.3 331 333.6 335.8 338.5 340.2 345.6 350.4 356 367.1 368.2 363.1 358.9 366.8
338.2 328.8 315.5 302.9 290.3 278.2 269.3 259.3 249.1 239.8 232.4 225.7 219.5 216.3 212.5 207.1 201.9 196.5 191 175.8 160.8 182.3 186.6 174.4 168.9 163.4 153.4 152.9 153 147.1 146.4 146.6 144.9 148 149.4 146 144.2 142.2 141.4 141.6 139.9 140.6 145 149.1 157.3 176.9 184.8 190.9 195.3 198.7 200.2 198.4 192.5 184.8 178.1 172.4 169.7 166.6 163.2 162.3 163.3 164.7 166 167.3 168.6 170.4 172 173.6 174.7 176.6 178.1 179.2 183.1 185.8 188.6 190.1 194.2 198.6 202.4 206.5 211.8 217.1 221.9 227.3 232.7 236.6 239.3 239.2 238.5 237.4 235.3 234.7 237.5 240.8 243.9 246.7 249 250.8 253 256.3 257.5 267.1 273.1 277.6 279.6 280 278.9 276.9 276.7 276.2 277.5 279.7 282 284.2 290.8 296.3 301.7 304.6 306.9 310.1 315.6 319.3 319.2 322 326 328.5 330.4 333 336 339 342.3 345.7 347.6 350.1 352.4 354.6 356.5 360.1 361.4 360.3 359.7 357.1 353.3 349.5 346.3 344.6 344.3 346 347.9 350.1 352.1 353.6 355.7 355.5 353.2 350.5 346.7 341.4 334.6 326.9 318.3 308.9 302.8 296.2 289.3 284.3 280.1 276.8 274.1 271 268.1 266.2 263.1 259.4 255 259.7 269.6 279 288.2 297 304.9 313.5 320.9 326.6 331.3 335.6 339 341.6 345.1 348.4 351.2 354.5 360 364.5 368 367.5 369.2 374.6 374.4 376.7
340.9 329.6 313.9 300.8 286.8 275 267 257.4 246.4 235.5 226.6 218.3 212.2 206.5 202.5 199.2 196.3 189.9 181.1 164.6 172.9 197.8 205.2 195.4 187.9 168.8 162.5 158.3 155.8 155.9 156.7 156.5 156.4 155 153.6 143.1 141 141 140.4 148.1 148.2 146.7 148 148.3 158.8 173.9 186.9 193.2 197.5 200.9 201.3 199.4 192.4 185.2 178.9 173.9 169.7 166.6 162.9 162.4 164.2 165.9 167.5 168.8 169.9 171.4 173.3 174.6 175.7 178.2 179.6 181.7 184.5 187.7 190.7 193.2 195.7 197.9 202 205.9 211.2 216.9 223.1 229.3 235.4 239.8 242.7 243.4 243.4 242.8 242.1 241.9 244.9 248.3 251.4 254.4 256.9 259.3 262.7 265.7 268.3 270.1 280.5 285.9 287.1 287 286.3 284.7 284.6 284.8 286.1 288.4 290 292.3 297.9 303 306.3 309 312.5 317.8 323 325.8 327.7 331.8 334.5 337 340 343 346.1 349.3 353.7 358.1 361 364.5 367 369.2 370.7 371 371.6 370.9 367.5 365.1 361.4 357.2 355.7 357.4 358 358.1 360.1 360.6 362.4 363.8 365.4 365.7 364.3 362.6 358.1 349.9 341.5 333.7 324.6 314.9 306 298.9 291.9 286.9 282.4 279.2 276.3 273 270 267.9 264.9 261.1 257.2 260.3 271 280.2 289.2 298 309.6 315.3 326.1 334.7 339.7 344.9 349.8 354.2 357.9 359.4 363 368 373.4 378.5 382.1 383.5 385.4 386.4 386.4 387.4
338.9 331.1 318.7 302.9 289.6 275.2 266.2 255 244.3 233.8 223.7 216.8 207 200.6 193.8 192.7 188 183.2 173.9 160.7 189.4 214.8 223.8 215.4 201 182.2 171.1 163.1 162.5 162.7 162.7 161.4 160.9 159.5 157.7 142.6 142.5 146.5 148.9 148.5 148.4 148.4 148.2 146.6 162.1 179.5 192.9 198.7 200.9 202.3 202.1 199 192.4 184.9 178.9 174.1 169.3 166.2 163.3 163.2 165.6 167 169.5 171 172.1 173 174.3 176.5 178.6 180.6 182.5 184.6 187.3 190.5 193.3 196.3 199.3 201.5 202.1 206.3 212 217.2 223.7 230.3 236.4 242.1 245.7 247 248.2 247.8 247.5 249.2 251.9 255.7 259.2 262.2 265.3 267.9 270.6 273.5 276.5 280.6 282.8 287.9 290.3 291.1 291.4 292.1 293.3 293.9 296 296.3 299.3 302.3 305.9 310 313.9 318.1 321.3 325.6 330.1 333.5 337 340.8 344.1 347.6 351.6 354 357.4 360.9 365.3 368.4 371.3 374.2 377.6 379.5 381.3 381.3 379.5 376.5 373.6 371.6 369.4 367.6 367.4 369.4 369.7 370.9 372 373 374 375 376.2 376.6 375.9 373.2 367.5 360.2 350.8 340.2 331.3 322 310.6 303 297 289.8 284.6 281 277.9 274.9 271.9 269.5 266.9 263.3 259 260.8 271.9 280.9 289.8 299.9 311.2 319.1 330.7 338.6 346.1 352.4 358.2 363.5 366.6 371.8 375.8 380.7 386 391.1 393.6 395.6 396.4 397.9 398.9 399.3
336.9 333.6 322.9 307.9 291.2 277.7 264.7 252 240.4 230.6 221.3 214.2 205.6 198.2 186.3 180.1 178.7 168.6 162.1 172.6 203.5 230.5 233.5 225.9 210.9 197.7 185.8 175.8 169.5 167.5 165.6 165 167.4 164.7 159.2 142.4 142.3 142.8 148 148.4 147.9 148.8 149.1 154.6 170.4 189.2 199.2 202.4 205.4 207 202.2 197.4 190.8 184.3 178.3 173.4 168.3 165.3 163.1 164.5 166.7 169.3 172.1 173.5 174.3 174.8 176 178.2 181 183.5 185.9 188.4 190.8 193.4 196 198.8 201.9 204.7 206.9 207.5 213.1 218.2 223.4 230.3 236.7 243.2 247.8 249.7 251.3 252 252.9 255.6 258.5 262.6 266.4 269.7 273.1 275.6 278.9 281.7 284.3 287.9 290.9 293.2 294.7 296.5 298.6 300.8 302.6 304.6 305.8 306.2 307.4 310.4 315.1 318.6 323.3 328.7 331.2 333.1 338.1 340.9 346.5 350.5 354.1 356.9 360.6 364.1 367.2 370.6 373.6 375.7 379.3 383.1 386.6 388.4 388.3 387.1 385.1 382.4 380.1 378.1 378.4 378.1 378.5 380.2 381 382.4 383.7 385.1 386.2 387 387.7 388.1 387.7 385.8 379.8 371.8 362.1 350.2 337.6 328.2 317.4 307.4 300.5 293.8 286.8 283 279.7 277 273.7 270.9 268.5 265.5 261.6 262.6 272.5 281.3 291.4 302.9 315 322.8 333.4 341.5 350 357.2 364.1 369.5 375.9 381.5 385.7 391.2 396.8 401.6 405.7 408.1 409.2 409.2 410.2 409.6
334.9 332.7 327.1 314.5 295.7 281.7 265.6 249.6 236.8 225.9 216 208.8 200.5 189 180.5 168.9 166.7 165.9 178.4 197.1 222.2 238.7 240.7 233.7 220.1 207.3 195.1 185.4 178 174.2 171.9 170.1 169.6 165.8 159.3 144.8 143.3 142.4 144.3 149.2 149.8 149.7 153.8 166.1 184.5 199 204.5 208.2 211.3 207.7 201.2 194.6 188.7 182.2 176.2 171.8 167 163.8 164.2 166.1 168.3 171.7 174.5 175.7 176.7 177.5 179.2 182.1 185.6 188.8 191.4 193.4 195.8 197.8 199.7 202.4 205.4 208.4 211 212.4 213.7 218.9 223.7 229.7 236.8 243.3 248.1 251.7 253.7 256.7 259.2 261.8 264.9 269.3 273.2 276.5 279.9 283.2 286.8 290.5 292 294.8 297.9 301.1 303 305 307.2 309.1 310.7 312.8 315.2 315.5 316.8 320.2 323.3 327.2 331.9 336.7 340.4 339.9 345.1 348.8 352.7 356.5 359.5 363.6 367.6 371.5 374.3 377.1 380.3 383.4 386.7 390 392.2 392.8 392.7 391.5 389.9 387.8 385.9 385.8 386.2 387.5 390.2 391.6 392.4 393.7 395.1 397.4 398.1 398.5 399.3 399.9 399.9 398.9 393 384.6 374.1 360.2 347.1 333.6 323.5 313.4 304.4 295.6 289.8 285.6 282.3 279.5 276.6 273.5 271 266.7 260.7 264 273.6 283.1 295 305.7 316 325.2 334.5 343.8 351.5 358.4 366.3 373.8 379.3 386.3 396.7 398.9 405.2 410.4 414.3 417.4 418.1 418.2 417.9 419.2
333.5 331 325.2 315 299.9 284.8 268 248.3 231.8 220.4 210.9 200.7 187.9 176.8 168.1 165.4 170 185.4 200.6 220.3 238.8 246.3 247 238.2 228.2 215 203.5 194.3 187.4 183.1 179.8 175.6 171.2 166.1 159.3 147 144.6 143.5 142.4 149.1 150.3 153.8 163.5 178.3 194.9 204.8 210.4 214.2 212.6 207 199 191.6 184.9 178.8 173.1 168.7 164.8 164.6 165.6 168 170.7 174 176.4 177.9 178.9 180.2 183.9 187.8 192.2 195.5 197.9 199.4 200.7 202.4 204.1 206.7 209.4 212 214.8 216.4 218 220 225.5 231.8 238.3 244 249.5 253.9 258.5 261.7 264.4 267.6 271 275.1 279.1 282.8 286.5 290.2 294.5 297.9 300.5 303.6 306.9 309.1 311.4 313.9 317 319.9 321.5 322.3 323.8 324.5 325.8 327.8 330.5 336.1 341.5 345 347.9 349.1 348.6 353.7 357.6 360.6 363.7 368.2 373.1 376.5 378.7 381.1 384.2 387.6 390.8 393.9 395.4 396 396.5 396 395.5 394.5 394.3 394.8 395.2 398.3 400.8 402.5 404.6 405.2 405.9 407.2 409 409 410.4 411.6 411.4 409.5 405 400.3 384.8 371.4 357.7 344 333.4 321.9 311.3 301.6 293.9 288.5 285 281.9 279.1 276.3 273.1 268.4 261.8 266.9 275.6 286.1 297.5 306.9 315.5 324.9 330.9 343.6 351 358.1 364.3 372.9 379.9 388.1 396.7 404 411.5 416.3 421 422.6 424.6 426.1 428.4 437.1
332.1 328.8 324.5 311 299.5 284 265.4 245.3 227.7 216.7 206.8 190.4 179.6 167.2 166.9 174.4 190.6 207.3 221.7 238.8 249.9 253.5 252.6 243.6 234 220.8 211.2 203.7 195.2 187.2 183.8 178.1 172.5 165.6 157.6 151 147.1 145.4 143 144.3 154.5 158 170.2 185.8 197.8 206.1 214.8 216.1 210.5 202.9 193.2 186.2 180.9 175.8 170.3 166.5 165.2 165.9 167.3 170 173.3 176.7 179.6 181.2 181.8 183.3 188 193.2 198.2 201.7 203.7 204.5 206.1 207.3 209.6 211.4 213.7 216.5 219.1 220.6 222 224.5 227.8 233.8 240 245.7 251.5 257.5 262 266.9 270.5 273.8 277.3 280.8 285.1 289.5 294 297.8 304.1 307.7 310.7 313.8 316.8 318.8 321.1 324.6 327.6 329.2 330.6 332 333.3 334.9 336.8 338.9 342.2 346.2 349.5 354 355.9 355.9 354.7 356.1 360.3 363.3 367.2 372 376.5 379.9 382.1 384 386.6 389.9 393.1 395.5 397.2 398.6 400 401.5 402.8 403.4 403.2 405.3 406.6 407.7 408.6 410 411.4 412.2 413.7 414.6 415.5 416.3 417.7 418.1 416.7 414.6 410.7 403.4 393 380.2 368.2 354.2 344.8 333.4 321.1 311.3 301.2 294.3 288.4 284.4 281 277.8 274.1 269.5 263 268.8 277.7 287.8 298.3 306.9 313.4 321.9 335.5 339 347.7 355 361.1 368.2 376.3 385.4 395.6 409 412.1 421.7 425.6 430 432.7 436 437.5 438.5
326.5 325.6 321.8 309.3 296.2 282.2 263.4 244.1 227.3 214.5 199.1 185 168.2 168.9 174.9 194.1 213.4 227.2 238.5 251.6 259.4 260.8 257.7 249 239.3 228.1 216.7 210 200.5 193 186.2 179.5 172.5 164.5 159.8 156.1 150 147.8 143 144 150.2 157.8 171.8 184.4 194.6 200.9 206.1 206.7 202.8 194.3 186.4 180.6 174.9 170.2 167.3 165.7 166.3 167.6 169.2 172.6 176.2 180 182.7 184.7 185.6 186 191.7 197.7 202.2 205.5 207.5 210 211.5 212.9 214.7 216.9 219.6 222.4 224.9 225.9 227.4 229.7 232.7 236.4 243 250.5 256.7 262 267.7 271.5 276.1 281 283.9 288.1 292.8 298.4 306.3 312.1 315.8 320.2 323.2 325.5 327 330.1 333.5 335.8 338 339.4 341 342.9 343.9 345.1 345.4 348.9 352.7 356.7 360.2 361.9 361.4 360.7 359.3 359.9 362 364.6 368.8 372.7 377.6 381.8 384.5 385.9 387.8 390.2 393.6 395.8 398 400.6 403.1 405.4 407.2 408.2 409.7 411.2 412.6 414.1 415.1 416.8 417.1 417.2 417.5 418 418.8 419.5 419.8 419.6 418.2 415.2 409.7 403.9 396.1 383.7 371.8 361.4 348.4 338.7 327.5 316.5 306.1 298.6 292.3 287.6 283.1 278.8 274.9 270.5 266 270.8 279.4 289 296.9 303.8 309.7 316.7 326.1 329.2 344.4 345.5 353 360.3 369.9 379.4 391 405.3 415.1 423.1 429.9 434.4 439.2 441.4 444.1 446.4
319 322 317.5 307.9 294 278.5 261.4 242.9 226.9 214 199.1 184.9 169.1 171.4 193.9 214.4 227.8 237.7 250.7 261.5 266.3 265.8 260.6 252.9 243.9 233.4 221.6 212.7 202.3 196.2 187.2 179.2 173 165.1 160 157 154.3 149.6 143 144.2 147.6 150.3 163.3 173.9 183.6 191.9 192.8 193.3 190.2 184.4 178.8 173.4 170.4 167.7 165.8 167 168.2 169.4 171.4 175.2 179.1 183 186.2 188.4 190.1 190.5 193.8 200.1 204.9 208.9 212.1 214.8 216.7 218.6 220.9 223.6 226.3 228.5 230.7 232.5 233.7 237 239.5 242.7 247.4 254.9 260.1 266.3 271.8 277.1 282.6 287.6 292.6 297.5 302.2 309.4 317.8 323.4 328.2 332.6 334.9 337.2 339.1 341.8 344.9 346.8 348.6 349.8 351.3 353 353.4 354.4 354.8 359.2 363 366.1 367.9 367.4 366.2 364.2 362 360 361.8 364.2 367 371.4 376.8 380.9 384.3 386.1 387.6 390 393.1 395.4 398.2 401.7 404.9 407.9 409.5 411 412.8 414.7 416.3 418 418.8 418.9 418.6 418.5 418.5 418.8 419.2 418.8 418.3 416.3 412.1 409.7 404.5 399.7 391.1 381.7 370.9 359.9 349.3 339.1 329.1 318.2 308.6 301.2 295.1 289.7 284.7 280 276 272.3 266.9 272.5 280.1 288.7 294.6 299.4 304.2 308.8 312.6 318.4 327.2 334 340.3 349.3 359.7 371.8 385.6 400.5 412.7 424.9 431.5 437.3 441 443 444.9 448.4
312.2 317.1 314.7 306.2 292.8 274.6 259.2 241.4 226.3 213.9 200.1 185.3 170.2 174 200.4 222.6 236.2 248.7 259.1 267.2 270.9 268.5 263.2 254.8 244.3 233.1 224.7 211.6 200.7 194.1 186.4 177.1 171.4 166.7 162.1 159.7 158.3 154 143.8 142 145.2 148.3 153.8 162.8 170.6 178 181.9 181.7 180.3 177 172.7 169.4 167.5 166.4 166.8 168.4 169.9 171.2 174.1 177.9 182.2 187.3 191 193.2 195 196.4 197.6 202.9 208.6 212.9 215.9 219.7 221.6 223.7 227.1 229.4 232.5 235.5 237.4 238.8 240.7 244.3 248.2 251.3 255 259.4 265.8 272.4 279.1 285.7 291.1 296 301.1 306.8 313.6 320.9 328.4 334.9 339.9 342.9 345.7 348.4 349.5 352.7 357.4 358.4 360.6 360.9 361.8 362.7 363.3 363.7 365.2 368.5 371.7 374 374.8 372.6 369.2 365.3 362.6 360.9 360.3 362.2 365.1 368.7 373.7 378 381.2 383.9 385.6 388 390.5 393.6 397.2 400.6 404.2 407.4 409.6 411.7 414.1 416.4 417.9 418.7 418.7 418.4 417.8 417.2 416.9 416.5 416 414.8 413.6 409.7 405.4 401.1 397 390.9 383.7 375.2 364.7 354.6 345.5 335.9 327.4 317.5 308.6 302.1 297.1 291.6 285.9 281.4 277.4 273.8 268 273.1 280.1 286.3 291.4 294.8 298.4 302.9 307.6 312.9 318.9 325.6 330.9 338.6 349.9 364.1 379.8 397.3 413.1 424.4 431.7 436.5 439.4 442 442.9 440.5
303.1 311.1 311.9 304.5 291.7 275.4 258.6 242.9 229.8 213.7 201.2 186.2 170.7 170.7 197.4 222.5 238.4 253.5 264.1 270.4 270.8 267.8 262.6 253.3 237.4 230.3 220.2 206.9 198.8 191.1 184.7 178.5 172.8 168.1 163.5 160.1 159.3 158.9 150.7 144.7 143.8 146 149.1 154 161.1 164.6 170 172 172.3 170.9 168.8 166.6 165.7 167.1 168.9 170.4 171.9 174.2 177.3 180.5 184.5 189.2 193.3 196.3 198.9 201 203.8 207.8 212.5 217.2 221.1 224.3 227.8 231.1 234.8 237.7 240.8 244.5 247 247.8 249.5 253.5 257.1 260.8 264.5 266.5 273.3 281.4 288.7 295.6 300.7 304.6 310.3 316 324.7 334.9 341.4 347.2 352 354.3 355.7 359.7 362.7 365.4 363.6 370.1 369.9 371.5 372.1 372.1 372.8 373.3 375.1 377.7 380 381.3 380.1 376 371.3 366.5 362.7 360.3 359.4 360.3 361.7 364.4 368.4 371.7 375.1 378.4 382 384.4 387.4 390.6 394 397.5 401.1 404.8 408 411.4 414.5 417.1 417.7 417.3 416.7 416 415.3 414.6 413.9 412.7 411.8 410 405.1 400.6 396 392 387.5 381.3 373.7 366.1 358.6 348.3 340.2 332.3 324.6 316.3 309 302.9 297.8 292.8 287.4 283 278.4 274.7 270.7 273.3 279.4 284.6 288.8 292.5 296.3 300.9 306.3 311.1 315.8 321.1 327.8 337.2 348 362.7 379.7 397.2 413.3 424.1 431.7 433.9 435.7 436 437 434.3
295.7 304.5 308 303.2 292.9 275.7 261 245.7 232 216.8 203.2 185.6 172.5 171.8 194.4 218.1 239.4 255.6 266.2 270.2 268.4 264.3 258.7 247.1 230.4 223 213.1 202.2 195.5 190.6 184.5 179.3 173.3 168 163.7 159.5 156.3 153 149.8 145.3 144.6 148.2 145.8 148.8 154 157.1 161.8 164.1 165.8 166.5 165.8 166.2 168 169.7 171.1 172.6 174.7 177.7 180.6 183.4 187.3 192.2 196.2 200 203.1 206.4 209.6 213.5 217.4 223 227.7 231.5 236.5 240.9 243.4 247.5 250.2 253.4 255.7 258 261.4 265.4 268.5 271.5 275.1 278.3 282.9 291.6 299.8 306.7 312.2 316.1 321.1 328.8 338.7 347.9 355.1 361.6 364.6 367.1 368.3 372.2 374.3 376.8 378.1 378.7 378.4 378.1 378.5 379 380.4 380.8 382.8 384.9 386.6 386 382.4 377.6 372 366.2 362.2 359.2 357.7 357.3 358.1 359.6 361.6 364.8 368 372.8 377.9 378.8 382.6 385.8 389.1 392.2 396.6 401.2 406.7 409.9 412.9 414.4 414.7 413.6 412.8 411.9 411.4 411.2 409.5 406.7 403.4 398.2 392.9 389.7 386.9 383.1 378.4 372.6 365.6 358 350.3 342.4 335.9 329.2 322.6 315.5 308.4 303.2 298 293.6 288.8 283.9 279.4 275.7 271.8 275.1 280 284.2 288 291.7 295.8 300.5 306 310.7 315.4 320.9 329.1 338.9 350.6 367 383.3 399.9 411 424 429.4 431 430.4 427.8 424.8 420.9
288.7 297.9 303.4 301 292.4 277 261.5 249.1 235 219.3 204.9 185.1 171.3 171.9 195.8 219.4 238.6 252.3 262.8 266.7 265.3 259.4 250.9 237.7 224.9 215.7 207 199.4 191.4 187.4 183.5 178.9 174 169.4 165.5 161.2 156.4 152.1 150.8 149.8 144.3 145 144.7 145.3 147.2 153.2 156.8 159.9 163.5 165.4 167.3 168.9 170.6 172 173.4 175.4 177.7 181 184.1 187.4 191.4 196.5 201.7 205.8 210.1 214.1 217.8 222 227 232.8 237.5 242.2 245.6 249.7 253.5 257 260 263.1 267.2 271.9 275.6 278.8 282 285.8 289.3 291.8 295.2 301.5 309.2 316.3 322.9 328.4 335.2 343.1 351.9 361 368.3 373.8 377.5 378.7 379.8 381.1 382.4 383.8 384.9 385 384.7 383.8 384.4 384.9 386.1 387.1 388.8 387.8 382.7 383 383.1 377.3 371.5 365.5 360.7 357 354.4 353.6 354 354.9 356.1 358 361.9 366.1 370 373.5 376.4 379.6 381.8 386.2 392.2 398.5 403.7 406.2 408.8 410.1 409.2 408.6 407.3 406.9 405.7 403.6 400.8 395.2 389.9 387 384.3 382.4 380.2 376.9 371.6 365.1 358.6 351.2 344.2 337.6 332.3 325.7 319.3 312.8 307.4 302.4 297.8 293 288.4 283.7 280.7 276.8 273.1 277.6 281.4 285.2 288.7 291.9 295.8 300.7 305.8 310.7 315.8 322.7 332.1 342.5 354.8 372.1 389.5 400.7 412.5 420.8 423.9 423.2 420.1 415 411.1 405.8
282.4 290.2 296 297.2 291.2 276 259.3 248.7 234.4 221.3 206.8 184.6 172.8 172.3 199 221.3 236.5 252.7 262.4 264.2 260.9 253.4 243.7 229.9 219.8 209.4 201.4 197.2 192.3 186.7 181.8 178.6 174.7 170.9 167.1 162.7 158.7 154.2 152.2 151.6 146.3 143.9 144.3 144.8 145.1 147.9 154.8 159.6 163.4 166.8 169.3 170.7 172.9 174.6 176.1 178.5 181 184.7 188.4 192.5 198 206.2 213.1 218.9 222.4 226.1 228.9 232.3 236.9 241.1 246.1 251.6 255.8 260 264.4 269 273.8 277.9 282.3 285.8 288.7 292.2 296.2 299.8 303.8 306.3 307.6 312.3 319.9 329.2 337.6 344.3 353.2 360.7 368.9 375.2 379.7 384.4 387.5 386.9 387.6 389.2 390.3 389.4 390.1 389.8 389.1 387.6 387.8 389.1 390.3 390.6 390.4 385.6 382.7 382.4 382 376.2 370.3 364.3 359 354.9 352 349.6 349.3 349.7 351.7 353 355.6 359.2 363 365.6 368.6 371.1 374.9 379.6 385 392.3 396.7 400.1 402.2 402.3 401.6 400.5 400.4 398.9 396.5 394.1 390.5 384 381.2 379.7 378.5 377.3 372.4 368.6 363.6 358.2 351.1 344.8 338.1 333 327.4 321.5 315.3 310 305.3 301.1 297.1 292.6 288 283.4 280.1 277 276.6 279.1 282.5 287.4 290.4 293.5 296.6 300.6 305.6 311.7 317.7 325.5 336.3 348 364.1 380.3 389.5 398.7 406.6 412.7 414.2 410.8 404.9 399.9 392.1 386.3
273.5 281.8 289.3 291.9 286.3 272.7 258.6 248 233.8 222.8 209.6 188.5 173.3 179.2 205 222.1 241.2 258 265.8 266 260.1 251 238.5 225.4 214.5 204.4 196.3 191.6 189.5 185.7 182.8 178.1 174.5 171.3 167.9 165 161.5 157.6 154.4 153.3 149.7 146 148.4 144.6 144.7 145.7 151.2 158.8 163.2 167.6 170.4 172.9 175.1 177.1 179.4 182.7 186.1 190.2 194.5 201 210.7 218.6 227.4 232.6 235.4 237.8 240.4 243.4 247.7 253.1 257.6 262.1 266.8 272.3 277.4 282.1 286.6 290.4 295 300.9 304.8 308.6 311.7 314.2 318.1 321.2 321 327.8 339 349.6 357.5 364.5 369.5 378.5 384 389.6 392.3 394.4 395 395.2 395.4 396.5 397.6 396.4 394.7 392.9 391.4 390.2 389.6 390.1 390.6 390.1 389.6 386 388.2 387 379.6 374 368.2 362.7 357.7 352.9 349.4 346.6 345.1 345.3 346.1 348.5 350.4 353.1 355 357.2 360 363.4 366.9 372.6 377.8 382.7 387.2 390.1 391.4 391.7 391 390.7 390.1 388 385 381.7 379.2 376.3 374.4 372.3 369.9 366.9 363.4 358.6 353.8 348.6 342.6 336.6 331.7 326.8 322 317.1 311.8 307.3 303.7 299.5 295.8 291.9 287.4 282.5 280.8 279.7 280 281.9 285.1 288.3 291.9 295 297.9 301.6 307.2 314.3 322 331.3 344.4 358.8 371.7 381.1 387.2 393.3 397.4 400.9 401.5 398.1 392.5 384.4 378.1 372.8
265.1 273.9 280.6 283.1 277.5 267.6 255.1 244.1 233.4 224.4 210.6 191.8 174.4 186.3 212.1 230.9 249.3 262.7 270.3 268.6 259.6 248.1 234 220.2 210.3 201.9 195.1 189.3 185.4 182.8 179.9 177.3 174.2 170.9 168.3 165.8 162.4 159.4 157 154.7 152.8 146 143.3 144.4 144.6 145.6 149.9 157.3 163.7 168.4 172.3 175.7 178.3 181.3 184.7 188 192.9 198.1 204 212.6 221.6 230.6 238.7 244.8 247.9 249.8 251.9 255.3 260.6 266.8 270.1 274.5 280.2 285.8 291 296.9 301.8 306.6 312.6 317.9 321.3 323.1 325.5 327.8 331.2 335 339.4 343.6 352.4 364.2 372.3 379.8 386.9 393.1 397.8 400.7 401.6 402.1 402.7 402.5 402.9 402.5 401.9 399.9 397.6 394.9 393 391.1 389.8 389.1 387.9 386.7 385.6 384.8 383.4 380.5 376.5 370.8 365 360.3 355.4 350.9 346.4 343.1 341 340.9 342.2 343 345.3 347.3 349.4 351.5 353.8 357 360.3 364.7 369.6 373.2 375.3 379.2 381 381.5 381.7 381.7 380.8 378.4 375.1 373 370.7 368.4 366.4 364.5 361.9 358.2 354.2 349.7 344.8 339 334 329.8 325.5 321.8 317.7 313.1 309.1 305.6 302.1 297.9 294.1 290.3 286.1 283.5 282.6 282 283.8 285.6 288.6 291.4 294.1 296.4 299.5 303.6 310.7 320 330.2 342.3 359 365.4 373 378.1 382.1 385.6 388 388.6 386.4 383.9 380.6 375.7 369.3 362.9
255 263.8 270.7 271.5 266.7 259.1 248.3 240 230.4 220.2 207.9 192.3 174.3 188.1 218 239.9 255.6 267.5 273.2 269.5 259.5 246.3 232.1 216.4 206.3 199.1 194.5 189.8 184.9 180.4 177.9 175.7 173.7 172 169.4 167.2 164.3 162.4 159.5 153.9 150.8 147.6 145.5 148.5 144.8 146.3 149.3 157.1 164.2 170.2 175.1 178.7 182.3 186.7 190.8 195.2 201.1 208.1 216.9 225.6 234.2 243.1 251.3 257.6 262.1 265 267.8 271.3 275.7 280 285.5 290.7 296.4 302.1 308.3 313.7 319.1 324 327.3 330.9 333.6 335.8 338.4 342 345.8 351.2 356.4 362.2 369.5 377.6 386.1 392.5 399.3 403.9 407.1 408.2 407.9 408.2 408.2 407.8 407.2 406.2 404.8 402.7 399.3 396.3 392.9 389.7 387.3 384.8 382.7 380.1 381 380.5 378.5 375.9 371.6 366.2 360.8 356.1 351.7 347.3 342.8 339.9 337.2 336.8 337.7 339 341 342.9 344.9 346.6 348.9 351.8 354.9 358.5 362.1 365 367.6 370.5 372.1 373.2 373.6 373.3 372.8 370.7 368.6 366.3 364.2 362.1 359.6 356.9 353 349 344.4 339.6 335.5 331 327.3 323.7 320.6 317.3 313.7 310 306.9 303.9 300.7 296.5 292.3 288.8 286.4 285.8 286 286.2 289.2 293.2 295.2 295.9 297.5 299.5 302.4 307 315 327.2 338.6 350.8 359.9 366.7 371.6 375.7 379.3 381.3 380.3 376.8 374.5 373.5 369.9 364.5 359.8 352.7
244.2 252.1 258 260.7 257.5 249.1 244.2 234.3 224.4 217.1 208.1 191.9 175.3 190.4 222.7 245.6 261.5 272.1 274.6 269.2 258.1 244.7 229 215.1 203.4 195.6 191.1 187.4 183.4 179.9 177 175 173.1 171.7 170.3 168.6 166 164.2 161.3 153.8 150 148 145.5 144 144.8 145.4 148.8 156.7 166.3 172.9 178.5 182.4 186.7 192 196.9 203.6 213.3 222.7 231.8 239.6 247.1 256.3 264.2 276.8 279.3 283.2 284.4 288.1 290.8 296.4 301.9 307.5 311.7 317.5 324.2 329.8 335.3 339.2 341.2 343.2 345.2 348 351.4 354.9 360.3 365 370.4 376.1 382.5 389.8 397.5 403.8 409.6 412.4 413.3 413.7 413.9 413.4 412.5 411.7 410.8 409.5 407.1 404.3 400.3 396.1 391.1 386.5 382 378.1 375.7 374.6 376.3 375.9 373.7 370.2 365.5 361 356.3 352 347.7 343.3 338.9 335.7 333 331.4 333.2 334.9 336.6 338.6 340.3 341.9 344.3 347.2 350.1 352.8 355.2 357.5 360.4 362.3 364.6 365.8 366.3 366.2 365.5 364.5 362 360.2 358.3 355.8 352.2 348.4 345 340.5 335.8 331.5 328.1 325.6 322.2 318.9 316.5 313.8 311.5 308.6 305.5 302.6 298.8 295.6 292.2 289.8 290.3 290.7 290.6 293.5 299.3 303.6 303.8 302.1 302.8 304.2 307.1 311.5 320.1 332.9 343.8 353.3 359.6 365 370.7 374.7 377.3 379.1 375.6 371.4 369.5 368.4 364 357.6 350.6 343.6
233.9 241.1 246 247.7 244.3 240.3 235.4 228.6 220.7 214.3 203.3 189.6 175.2 195.3 228 252.3 267.2 274.7 274.9 269.3 256.2 241.3 228.8 214.2 201.4 193.3 187.6 183.9 181.1 178.7 175.8 174.2 173 171.6 170.3 168.4 165.5 164.2 162.2 156.6 153.9 149.2 146.4 145.2 146.4 145.1 148.2 156.9 167.2 175.3 181.8 187.3 192.8 199.5 207.4 215 229.6 238.6 247.9 255.5 262.1 268.8 276.1 280.9 281.3 288 295.5 299.6 303.7 309.8 314.2 318.7 324.3 330.6 337.1 343.3 348.1 352 354.7 357.7 359.6 361.2 364 366.8 372 377 382.2 387.1 392 399.4 405.6 411.6 414.8 416 416.3 416.4 416.1 415.4 414.4 413.4 412.2 410 407.1 403.1 398.7 394.2 387.1 381.8 377 373.4 369.2 367.7 367.7 367.6 365.8 361.7 358.4 354.7 350.3 347.4 343.8 339.6 335.2 332.4 329.5 327 329.1 330.7 332.2 334 335.7 337.5 340 342.5 345.1 347.2 349.1 351.4 353.4 354.5 355.7 357.2 358.3 358.5 357.8 356.5 355.1 353.2 350.6 347.7 344.8 340.9 336.5 332.6 328.8 325.8 322.9 319.9 318.1 315.8 313.1 310.4 307.8 305.5 302.4 300.2 298.1 296.5 294.1 294.8 296 296.9 298 305 312.4 317 317 312.3 309 309.8 313.3 317 325.6 335.2 344.4 352.1 357.5 361.4 371.1 375.4 378.6 378.5 372.9 369.2 366.7 363 358.4 350.9 343.9 337.3
225.2 229.1 233.2 234.8 233 230.2 224.9 219.8 211.9 206.4 195.8 182.5 176.1 209 235.6 257.3 271.1 276 277.1 269.7 256.1 240.4 226.4 211.6 200.2 193 187.8 183.1 178.6 177.5 175.2 173.5 172.6 171.8 169.9 167.7 164.6 161.6 158.5 155.1 151.4 148.2 146.5 145.3 147.2 145.4 148.3 155.8 167.8 178 185.4 192.1 199.5 208 213.8 220.6 237 244.9 251.7 261.4 268.6 275.3 282.8 286.7 292 298.6 303.8 308.2 315.6 319.9 325.6 332.2 337.8 345 349.2 356 360 364.3 367.5 368.3 369.7 371.3 373.5 376.9 381.1 385.2 389.5 394.5 399.9 406.3 411.3 415.4 416.6 416.3 416.2 416 416.2 415.5 414.6 412.8 410.6 407.8 404.2 399.7 395 388.8 382.9 377.8 373.5 369.1 364.6 361 359.9 359.4 357.6 354.8 351.1 347.8 344.5 341.8 339.2 335.2 331.6 328.3 326.3 323.1 323.6 325.9 327.7 329.6 331 333.2 335.4 337.5 339.6 341.3 342.5 343.9 346.8 348.2 348.5 348.9 349.4 349.3 348.4 347.2 345.8 344 341.6 338.9 336.7 332.3 328.8 325.5 322.2 319.6 318 316.5 315.3 313.6 311.6 309.2 307.8 305.9 303 301.1 299.7 298.9 299.6 301.3 303.8 305.2 311.9 322.9 330.2 332.2 331.6 327.5 320.7 317.8 318.9 322.4 327.9 335.6 344.5 350.6 355.4 360.7 370.2 374.7 377.2 375.3 371.1 366.2 360.5 357.4 351.8 345 338.9 330.9
217.5 219.7 220.9 220 219.4 215.4 210.7 205 200.7 194.9 181.9 176.3 191.8 220.1 242.3 261.3 274.3 280.4 281 272.4 257.7 241.3 228.1 213.3 200.7 193 187.2 181.6 178.1 176.5 174.1 172.4 171 170.6 169.1 167.1 164.3 161.4 159.2 157.1 153.2 149.2 146.3 143.3 145.6 146.6 149.4 157 169.5 180 188.1 194.8 204.5 214.4 222.7 231.6 240 248.8 257.4 266.3 271.9 278.7 286.9 292 297.4 305.7 312.4 319.9 326.1 331.5 337.4 343.1 348.2 353.9 360.3 364.9 369.3 373.9 376.4 376.4 376.5 377.4 379.8 382.8 386.6 390.3 393.8 397.6 402.7 408.1 412.2 414.7 414 413.2 413.3 413.6 413.7 413.9 413.4 411.8 409.6 405.3 400.3 395.7 390 386 381.2 376.3 371.3 366.3 361.6 356.1 351.6 351.5 350 347.1 344.5 341.6 339 336.5 333.7 330.7 327.7 325.2 323.1 320.6 317.6 320.1 322.5 324.2 326.3 328.6 330.7 332.7 334.1 335.2 336.4 336.8 338.1 340 341.6 341.6 341.6 340.6 339.1 337.6 336.1 334.2 332.2 330 326.9 324.5 321.9 319.5 317.5 316.4 315.1 313.9 313 312.1 310.3 309.2 308.1 306.4 304.2 303.6 304.1 305.7 308.4 311.8 316.7 321.7 330.5 339.8 342.1 341.7 340.8 337.8 332.3 326 325.6 327.9 331.5 337.5 343.6 349.2 354.2 362.5 370 372.8 373.4 371.3 367.6 362.4 354.8 349.1 343.4 338.1 332.2 325.3
206.5 206.8 206.3 205.1 200.5 198.6 197.7 192.6 189.2 179.7 177.8 185.2 205 227 248.8 262.9 276.8 283.8 282.3 272.1 258.8 241.3 228.2 215.2 199.9 192.6 187.5 184.2 181.4 178.4 175.2 172.3 169.8 168.3 167 165.6 164.3 163 161.9 159.7 156.1 149.5 146.4 145.3 145.4 147.7 150.7 156.6 167.4 177.9 187.7 195.3 204.3 215.4 224.4 233.8 242.8 251.2 259.5 267.8 274.3 281.2 288.9 294.3 301.6 311.8 317.9 326.7 332.7 337.4 342.4 348 352.3 358 366.4 370.4 375.9 379 380.3 380.9 380.3 381 382.8 385.4 388.5 391.9 395.1 397.8 402.1 405.2 407.3 408 408.5 409 409.2 409.8 410.4 411.2 411.5 410.6 408 403.7 397.5 392.1 388.1 383 378.2 372.8 367.1 362.1 357.2 351.7 346.7 344.1 342.6 341.1 339.4 337 334.5 332.6 330.5 327.7 325.2 322.6 320.1 318.2 314.8 315.1 316.4 318.5 321.7 324.2 325.7 326.7 328.6 329 330.7 330.8 331.2 331.9 333.4 333.1 332.8 331.6 330.2 328.4 326.8 324.8 323.5 321.8 319.7 318 315.7 314.9 314.2 313.2 312.6 312.1 311.3 310.8 310.7 310.2 309.2 309 308 309.4 312 317.4 324.3 331.3 337.6 343.4 348.6 351.1 349.8 348.5 345.9 342 337.2 334.5 333.5 334.3 336.2 338.5 343.2 348 354.5 362.1 367.9 371.6 371.3 368.1 364.5 358 350.5 344.9 338.7 332.7 327.2 321.7
198.6 198 195.6 186.4 188.2 188.3 183 179.8 179.2 178.5 190.8 200.5 208.8 228.3 250.1 263.9 279.1 283.5 280.8 272.2 258.6 242 226.5 213.7 200.9 195 190.9 187.5 184.2 180.5 176.7 173.5 170.2 168 166.5 164.7 163 161 159.5 157.1 156.3 150.2 146.1 146.1 144 147.7 150.6 156 165.5 174.9 184.5 193.5 203.8 213.4 223.9 234.5 243.4 251.9 261 269.5 276.2 283.9 290.8 297.4 305.5 313.9 320.8 329 334.9 339.7 344.4 349.9 354.4 360 366.1 372.3 378.8 381.9 382.2 382.2 382.2 383.2 384.8 386.6 389.1 391.7 394 396.2 398.3 399.7 400.8 402.5 403 404 405 405.4 405.5 406.4 406.5 405.7 402.6 395.4 391.2 386.7 382.7 378.4 373.7 368.5 362.6 357.1 351.5 347.2 343 339.7 337.7 336.5 334.6 332.6 331 329 327.4 325.2 323.1 320.5 318.3 315.5 312.9 310 312.3 314.4 316.6 319.1 320.9 321.5 322.4 323.3 323.5 323.9 324.6 325.1 325.8 325.1 323.9 323.5 321.8 319.9 318.9 318.2 316.2 314.4 312.7 312.6 312.1 311.6 311.2 310.6 310.7 309.9 310.7 311.4 311.6 311 311.6 312.9 314.8 318.8 325.4 334.2 345.4 354.9 359.9 363.5 363.8 359.8 355.1 351.7 348.6 345.6 342.9 342.4 340.9 340.3 340.7 340.5 344.2 349.3 354 359.3 364.9 367.6 367.4 364.9 360.2 354.6 348.5 342.9 334.4 327.8 323.1 318.4
190.5 185.1 182.7 184.3 185.6 186.3 181.3 187.4 190.9 201.1 213.5 221 228.1 230.3 251.3 266.2 280.5 284.4 280.8 273.6 257.7 242.3 227 214.9 207.7 201.7 195 191.4 187.8 183.2 178.9 174.9 171.8 168.6 166.3 164.6 162.9 161.2 159.6 156.3 156.7 151.1 146.1 145.7 146.5 149.7 151.8 155.6 165.9 174.9 182.2 191.2 201.3 210.8 220.9 231.9 239.9 249.9 260.6 270 278.3 286.7 293.4 300.1 308.3 314.9 322.4 329.7 335.7 342.1 346.7 351.6 357.7 362.6 368.4 373.7 380.4 382.9 382.3 382.2 382.6 383.7 385.7 387.8 388.8 390.5 392.2 393.9 395.4 396.5 397.3 397.8 399 399.9 400 399.9 400.2 399.7 398.3 394.9 390.2 386.5 384 380.1 375.7 371.6 367.3 362.1 356.3 350.6 346.6 343.2 339.9 336.9 333.7 332.5 331.1 328.7 328 326.5 324.5 322.2 320.5 318.2 315.5 312.8 310.5 307.2 308.8 309.9 311.6 314 315.6 316.4 317.1 317.9 318.2 318.8 319.2 319.5 319.4 318.6 318 316 314 312.8 311.8 310.2 307.8 307.5 307.8 308.5 308.6 308.4 308.2 308 308.4 309 310.9 312 312.8 314 316.4 319.8 328 336.3 343.5 352.8 360.6 367.2 371.9 374.5 372.8 365 360.1 355.9 353.1 350 348.3 347 346.2 345.5 345.1 345.6 347.2 350.1 352.7 357.2 361 363.3 362.9 361.1 356.9 352.3 346.7 338 329.9 324.7 320.2 315.6
184.6 183.5 190.7 199.2 202.5 204.8 208.2 213.9 221.1 228.8 235.7 241.3 247.8 249.3 253.4 268.4 278.2 282.8 278.1 270.1 258.4 245.5 235.1 227.9 218.5 208.9 201.9 197.3 192.7 187.8 182 177 172.9 170.1 167.5 164.7 162.2 160.7 158.7 155.1 155.4 148.8 144.6 146.7 147.8 150.1 160.6 160.9 165.4 172.4 180.5 188.7 198.3 208 216.8 227.9 238 249.1 260.7 270.8 280.3 289.3 296.3 303.8 312.1 318.7 325.1 332.1 339.2 345.5 350.1 354.9 359.8 365.4 371 375.6 379.8 381.5 380.9 380.8 382.3 383.8 384.9 385.9 386.8 387.9 389.5 391.7 393.5 394.5 395.3 394.9 395.3 394.8 394.3 392.9 392 390.2 386.4 383.3 379.4 377.2 374.3 371.1 367.5 363.3 358.6 354 349.3 345 341.7 339 336.2 333.9 331.3 330 328.7 326.5 325.6 323.7 321.7 319.1 317.3 315.1 312.6 310.5 308.4 306 305.5 306.1 307.1 309.3 309.8 310 310.8 310.7 312.2 312.7 313.3 313.2 313 311.5 311 309.5 307.9 307.3 304.8 304.2 303.2 302.8 303.4 304.4 304.8 305.3 305.6 305.8 307.3 309.3 311.4 314 317.4 323.9 329.8 334.7 339.3 344.9 352 358.8 365.9 371.9 375.1 377 374.6 368.6 363.9 359.6 356.7 355.5 355.3 355.9 353.5 351.2 349.3 349.3 350 350.3 351.9 354.6 357.6 359.1 358.6 356.8 352.4 347.5 341.5 333 326.6 321.9 317.9 313.6
183.7 194.3 202.7 213.4 223.9 231.3 236.4 239.7 245.2 250.3 253.9 257 259.7 261.2 263.8 272.3 277.5 279.4 278 271.7 263 255.5 247 238.6 229.8 219.7 211.5 205.7 199.6 193.1 185.9 181.2 175.2 170.7 167.7 165.1 161.9 159.3 158.1 156.3 151.2 148 144.8 147.5 149.1 151 154.2 158.1 163.7 170.4 180.1 190 199.1 208.8 217.6 227.4 239.1 250.6 261.2 271.6 281.2 290.5 298.5 306.5 315.2 321.5 328 335.6 342 348.3 353.4 357.8 361.9 368.1 374.1 377 380.5 377.6 377.2 377.6 378.8 380.9 382 382.5 383.5 385.1 387.2 390 392.5 393.4 393 391.9 390.3 388.4 386.9 384.1 381.7 378.9 375.7 372.7 369.5 366.8 364 361.1 358.3 355 351.4 348 344.1 340.2 337.4 335.1 333 331.2 329.6 328 326 324.4 322.7 320.8 319.1 316.8 315.3 313.1 310.8 308.7 306.6 304.4 301.8 302.8 303 303 302.6 303.6 302.7 302.9 303.7 304.2 304.3 305.2 305.4 305 304.1 303.2 302.4 302.1 301.2 300.6 299.6 299.7 299.6 301 301.2 302.6 303.6 304.8 307 310.6 315 320.3 325.7 332.3 336.8 339.5 342.2 346.6 352.1 357.9 363.1 368.2 371.7 373.7 372.2 369 365.2 362.4 360.8 359.9 359.7 360.3 359.9 358.1 356.6 354.1 351.9 350 350.3 351.6 353.5 354.7 354.9 352.1 347.6 342.5 337.1 330.5 325.2 321.2 316.7 312.6
190.1 200.7 215 231.8 247.1 259.7 262.6 264.4 268 270.5 271 272.8 273.2 274.9 277.8 279.9 281.4 282.8 281.5 278.1 272.1 266.1 257.5 249.3 241.7 232.9 223.2 215.1 207.3 199.5 192.5 186.1 178.7 172.5 168.6 165.2 162.2 159.6 157.4 155.4 152.3 148.5 146.1 148.8 149.7 150.4 156.1 162.2 166.2 169.6 178.4 188.6 199.4 208.9 216.2 226.2 238 248.4 259.1 269.5 279.7 289.9 299 308 315.7 324.1 331.3 339.3 346.5 352.3 357.2 360.6 364.1 367.8 372 374.3 375.3 373.9 374.5 374.1 375 376.5 378.5 380.2 381.7 382.7 385.7 389.1 390.7 390.4 389.5 388.1 386.2 382.5 377.1 374.1 370.4 367.2 365.3 363.6 361.8 360.2 357.7 354.9 352.3 349.1 346.3 342.6 338.9 335.6 333.2 331.5 330 328.9 327.2 325.5 323.6 321.6 319.7 318.1 316.5 314.7 313.2 311.3 309.1 306.8 304.6 302.3 299.1 299.6 300.1 299.9 298.7 297.7 297.4 296.4 295.7 295.8 296.1 295.9 297.1 297.8 298 298 298.5 298.2 298.1 297.5 297.5 297.3 297.8 298.6 299.1 299.2 301 304.3 307.6 312.7 317.3 322.9 327.6 333.3 335.9 337.1 339.1 342 345.2 349.9 355.3 359.4 362.9 366.5 367.8 366.9 366 365.2 364.8 364.3 364.6 364.3 363.2 361.9 359.9 356.3 352.8 349.7 347.2 347.6 348.8 349.9 349 345.1 340.5 335.3 329.4 325.4 322.8 319.7 316.5 312.2
199.4 209 229.2 246.9 266.8 278 279.6 280.2 280.7 282.3 284.7 285.2 284.7 284.8 285.9 287.4 288.4 287.8 286.7 285.5 284.2 281.6 275.4 268.4 258 248.9 237.9 226.1 216.5 208.2 199.4 190.3 182.5 175.6 170.3 166.8 163.6 160.8 158.5 156.4 151.8 144.8 146.8 149.4 150.1 150.3 152.2 158.3 162 168.2 174.5 183.7 197.5 207.2 215.6 225.4 236.3 245.5 256 267 279.5 287.9 295.8 307.4 315.7 325.3 332.8 340.7 347.9 353.4 358.8 362 364.2 366.5 368.6 370.4 371.6 371.3 371.1 370.7 371.6 371.7 373.5 376 378.5 380.6 383.2 386.1 386.4 385.5 382.3 379.6 374.9 372.2 368.2 364.8 362.7 360.5 358.5 357.2 355.3 354 352.7 350.3 347.5 344.2 340.9 337.7 334.8 332.2 330.1 328.1 326.6 325.5 324.1 322.8 320.3 318.6 317.1 315.5 314 312.4 310.8 308.9 306.6 304.7 302.5 300.5 298.8 296.5 297 296.8 295.6 294.7 294 292.9 291.8 291.5 291 292 292.4 293.1 293.8 294.6 295.6 295.6 295.5 295.3 294.6 294.8 295.3 295.9 296.1 296.5 298.8 302.4 306.7 311.4 316.2 321 324.3 327.5 330.7 330.7 331.6 333.6 336.2 339.7 344.7 349.1 352.7 357.4 361.6 363.6 365 366.6 366.9 366.4 366.1 365 363.4 361.8 359.3 355.3 350.9 347.9 344.7 343.1 344.3 344.7 343.4 339.1 332 325.9 320.4 318.3 316.8 315.8 314.2 310.3
208.9 219.8 232 252.7 273.1 281 285.6 287.6 289.2 290.9 292.1 292.4 293.1 294 296.1 298.2 298.3 298.1 298.6 298.7 298.1 295.9 291 284.5 273.7 261.4 250.1 239.7 229.1 217.3 205.7 194.9 185.9 178.6 172.2 167.9 164.9 161.5 158 156.2 153.5 145.6 147.5 149.8 150.2 150.2 151.6 155 160.6 168 174.6 183.4 194.6 204.5 213 222.2 231.8 241.8 252.2 263.5 274.1 283.9 294.4 304.3 314 322.9 331.2 338.7 345.2 352.1 357.1 360.2 361.1 362.3 365 366.3 366.8 367.2 366.3 366.5 367.7 367.4 368.4 370.4 371.7 373 377 376.8 372.8 367.4 363 361.2 360.4 359.8 358.6 357.2 356.5 355.6 353.7 352.5 350.8 349.3 347.7 345.4 342.8 340 337.1 334.2 331.4 329 327 325.2 323.4 322.3 321.1 319.8 318.2 315.4 314 312.6 311.1 309.5 307.8 306.2 304.3 302.5 300.7 298.8 297.5 295.8 294 293.7 293 292.3 291.5 290.3 289.4 288.8 288.4 288.9 289.6 290.6 292.5 293.4 294.2 294.3 294.4 293.7 293 292.7 292.7 293 292.6 293.4 295.4 298.2 302.8 307.2 310.5 314 317 318.6 320.5 322.1 324.1 326.7 328.6 331.8 336 340.2 344.6 350.6 355.8 359.8 362.3 364.2 365.2 364.7 363.4 362 361.1 358.2 355.3 351.5 347.2 344.3 340.8 336.6 338.5 338.5 335.3 329.7 322.4 315.9 311.6 310.5 310.7 311.1 310 307.1
222 234.1 244.2 254.3 273 282.4 288.3 293.7 297.9 300.9 303 304.4 305 305.4 307.8 310 312.7 313.2 313.8 313.4 312.9 310.3 305.8 298.5 289.1 277.5 265.5 253.5 239.7 226.6 211.4 200.3 190 180.6 173.9 170.1 166.5 162.5 160.7 158.7 154.5 146.5 147.3 149.8 150.4 150.8 150.8 153.5 160 168.1 175.5 185.5 193.7 201.2 208.6 217 226.1 236.9 248 258.1 268.6 280.6 291.3 301.2 310.2 319 327.7 335.2 341.2 347 351 355.9 357 359 359 360.6 360.3 359.3 358.8 360 362.2 362.5 362.7 361.7 362.2 364.2 363.6 356.7 353 352.4 352.1 352.6 353.5 353.1 352.7 351.6 351.8 350.6 349.4 348.4 347.3 345.5 343.7 341.8 338.7 335.8 333.7 330.4 327.7 326 324.1 322.4 320.9 319.4 318.2 316.8 315.2 313.5 311.4 309.8 308.5 307.1 305.5 303.9 302.5 301 299.1 297.5 296.2 294.7 293.5 292.2 291.4 290.6 289 288.1 287.5 286.8 286.2 286 286.5 288.6 291.2 292 293.2 293.8 293.8 292.4 290.7 290.1 290.5 289.8 289.2 290.6 292.4 294.9 297.8 301.3 304.3 306.8 309.2 311.4 313.5 315.2 317.5 320.3 322.2 325 329.1 334.2 337.8 343.5 349.8 354.1 357.1 359.5 359.8 358.5 356.8 355.9 354.4 352.1 349.3 345.7 342.9 339.9 336.3 331.3 330.6 329.7 326 319 312.7 308.5 304.9 303.2 302.7 303.8 303.2 301.1
237 249.2 261.1 269.8 279.3 289.4 297.6 304.3 308.7 313.3 316 319.8 320.6 320 319.8 322.6 325.4 328.2 329.4 329 328 324.9 320.3 312.6 303 290.3 275.4 260.8 247 231.5 216.2 204.4 193.5 183.8 175.1 171.1 168.2 164.1 161.4 159.6 156 147.5 147.3 150 150.5 150.4 150.5 152.6 159.2 167.1 174.1 183.6 191.6 199.1 206.2 214.3 223.1 233.1 243 254.5 266.5 277.8 288 298.1 306.1 315.4 322.5 329.4 334.1 338.8 342.2 345.6 348.4 348.5 351.4 351.2 351.1 350.3 349.9 351.3 352.7 353.4 353.1 350.5 348.7 346.9 345.2 344.1 343.6 344.7 346.6 347.7 347.8 349.7 348.8 348.8 348 346.8 345.8 344.5 343.5 341.8 340.3 338.5 336.3 333.2 330.5 327.7 325.6 323.6 321.6 319.9 318.2 316.8 316 314.3 312.7 311 309.6 307.9 306.5 305.2 303.7 302.4 301.1 299.6 297.6 296.1 294.8 293.6 292.3 291 289.7 288.6 287.9 286.8 285.8 285 284.6 283.8 283.3 284.1 286.3 288.5 291.5 292.8 292.4 291 288.6 287.5 287.5 286.9 286.5 287.3 289.4 291.7 294.1 296.3 299.4 301.3 303 305.8 308.3 310.2 311.2 314.1 317.2 319.4 323.4 327.6 331.4 335.9 342.5 346.6 349.5 351.6 351.5 348.9 347 346.5 345.1 343.8 340.8 338.2 336.3 333.2 330.9 326.9 321.1 319.2 315.7 310.8 305.8 301.2 298.5 297 297.5 298.4 297.9 295.5
253.4 261.7 274.3 282.5 291.1 300.3 309.2 317.7 324.8 330.6 335.2 337.4 338.9 337.8 336.8 336.5 340.1 344.2 346.3 345.5 346.2 340.2 332.9 323.4 312.6 299 286.2 271.8 254.7 237.8 223.2 207.7 196 184.9 176.4 171.5 167.9 165.5 162.8 160.3 157.7 154 147.4 148.3 150.7 150.8 150.5 153.5 158 164.7 171.7 182 190.7 198.8 206.2 213.8 221.9 231.1 242.1 253.2 264 275.7 284.5 294 302.1 309.4 315.9 320.5 323.9 327.9 332.2 335.1 339.1 339.6 341.6 341.3 340.7 339.1 337.8 337 338.4 338.5 338.6 336.1 332.8 333.1 333.4 333.8 326.8 331.1 338.7 346 349.5 350.8 350.1 349.2 347.1 345.3 343.8 342.2 340.5 339 337.4 336.1 333 330.3 327.2 325.4 323.4 321.9 320.3 318.5 317 315.9 315.5 313.6 311.6 309.6 307.7 306.3 304.8 303.4 302 300.8 299.6 299.3 296.1 294.3 293.1 291.8 290.8 289.4 288.7 287.7 288.7 290.1 289.1 288.7 286.3 283.5 282.4 281.4 279.9 281.3 284.6 288 290.5 289.2 285.8 284.7 284.5 283.4 283.6 284.8 286.7 289.3 291.6 293.7 295 297.7 299.5 301.6 304.4 306.2 308.2 310.4 312.9 316 317.3 321.1 324.5 328.7 334.2 338.6 341.1 341.5 341.5 339.2 337.6 336.9 335.8 333 329.8 328.5 326.4 324.7 324 319.9 314.4 309.2 305.9 300.7 297 294.8 292.8 292 291.7 292.2 292.1 289.7
268.8 279.2 288.2 295.9 303.2 312.4 323.1 334.1 340.8 347 354.2 357.5 357.6 357.3 355.5 355.6 357.4 360.9 366.2 364.4 355.9 354.4 346 334.8 319.9 304.9 294.4 278.8 261.6 244.8 227 209.7 196.4 185.6 176.7 170.2 165.9 162.5 160.9 159.3 157.3 153 147.8 147.8 147.8 151.9 151.6 151.3 156.8 161.4 168.2 180.3 190 199 206.6 213 222.5 232.2 241.6 250.9 262.2 272.9 281.5 290.2 297.3 303.7 308.9 312.5 315.7 319.1 321.9 323.6 326.1 328.1 329 329.1 327.5 325.3 323.8 325 325.3 325.6 323.9 320.7 321.2 323.3 325.4 317.7 331.3 337.2 342.7 348.5 353.5 355.3 354.6 352.3 348.9 346.6 344.6 342.9 340.8 338.9 337.4 335.2 333.5 329.7 326.5 324.2 322 320.9 319.6 316.8 316.6 315 314.1 312.2 310.6 308.1 306.8 305.6 305.3 305 300.9 299 297.9 296.4 295.3 293.7 291.8 291.1 293.1 292.7 292.7 292.2 292.7 293.2 292.3 292 291.5 291.3 291 289.3 287.7 281.2 277 278.8 282.5 283.9 281.4 281.6 281.6 280.2 279.9 283.3 285.4 287.4 289.9 291.2 292.4 294.3 296.9 299.4 303.1 304.5 306.3 308.5 310.4 312.4 313.7 316.1 317.7 320.6 324.5 329.3 331.8 332.7 332.3 330.8 330.8 329.8 327.9 324.5 320.2 319 317.2 315.4 313.9 305.4 307.2 301.8 297.4 293.6 290.9 289.1 288.1 287.2 286.5 286.7 286.2 283.5
285.4 296.7 304.4 311.6 319.2 328 338.1 346.9 355.2 364 370.8 374.2 375.8 375.3 374.4 376.4 377 381.8 384 382.4 376.2 366.8 357.6 343.9 326.7 312.7 300.7 283.9 266.6 248.5 230.6 211.4 197.6 187.5 178.9 172.9 168.2 163.5 161.9 160 157.9 157 147.7 147.7 147.7 147.9 148.8 152.5 155.2 159.8 166.2 175.3 187.3 197.5 206.7 214.5 222.2 231.1 240.7 249.9 260.2 270.9 277.4 286.1 292.1 297.2 303 305.3 307.1 309.3 311.3 313 314.4 315.6 314.6 314.9 312.8 311.5 310.8 310.6 310.6 310.6 309.5 307.4 311.4 310.6 314.2 323.8 330.8 338.8 351.1 359.4 362.4 361.6 359.3 355 352.8 349.8 347.4 345 342.9 341 338.9 336.1 333.6 331.4 328.5 325.6 322.4 320.1 318.6 316.3 315 312.5 311 309.8 308.8 305.4 304.7 304.2 303 301.1 298 297 297.9 296.7 296.4 297.2 296.1 295.8 295.6 295.1 295.8 295.5 296.2 296 294.5 294.8 295.1 295.1 293.8 292.4 290.2 286.9 280.8 273.8 274 276 277.2 278.3 279.2 277.7 276.1 278.5 282.8 285.5 287.9 288.5 291 293.4 295 297.5 301 304.2 306.1 307.8 309.5 311.4 312.1 313.3 315.2 317.3 319 320.9 323.2 324.5 325.1 325.1 323.6 321.2 319.4 316.1 313.3 312.3 310.8 307.7 304.3 301.5 299.8 295.4 292.5 289.4 287 285.1 284 283.2 282.3 281.9 280.9 278.4
304.4 317.3 325.3 331.6 336.7 343.6 352 361.7 369.5 381 387.2 389.8 392.3 393.1 394.4 394.4 395.1 395.8 395.2 393.4 386.4 378 367.2 351.6 333.2 318.5 303.3 285.8 268.7 250.8 231.9 212.9 200.1 189.9 182.4 177.1 172.3 168.5 166.6 164.2 162.2 160.4 155.5 148.1 147.7 147.9 148.2 148.7 153.2 158.5 164.6 173.3 184.7 197.1 207.4 214.8 221.6 231 240.2 248.9 258.8 266.8 273.9 279.7 283.8 289.4 294.5 295.4 295.9 296.3 297.6 298 298 299.5 299.7 299.5 299.5 300 300.4 299.8 299.5 299.7 298.3 293.6 296.5 302.4 315.1 323.3 333.1 351 362 367.7 367.3 365.7 362.7 358.1 355.4 353 350.6 347.6 344.9 343.7 341.4 338.6 335 332.5 329.8 326.9 323.9 321.6 319.9 318 316.2 314.3 313.3 312 312 310.5 307.2 307 304.3 305.7 303.9 302.1 301 300.7 299.8 299.1 298.4 298.3 298.1 297.9 298.6 298.7 298.5 298.1 297.3 297.3 296.8 296.4 295.1 293.1 291.2 288.4 286 284 276.3 269.3 268.9 269.7 271.1 271.3 269.6 272.7 277.3 281 284.1 286.7 289.8 292.5 294.2 297 300.4 303.8 305.6 307.2 308.9 310.5 311.2 312.1 313.4 314.8 316 317 318.5 319.5 320.9 321.6 320.1 318 314.3 311.5 308.6 306.3 304.1 301.9 299 297.3 293.9 291.1 288.4 285.9 283.5 281.7 280.3 279.2 278.2 277.5 274.8 272.3
328.5 339.4 344.2 348.4 354.3 360 366.6 378.4 386.5 393.5 399.7 405.5 409.2 410.1 410.3 409.9 407.4 407.2 406.2 403.3 395.8 384.9 371.6 356 339.2 320.7 307.4 290.4 272.2 253.4 236.3 216.8 200 189.7 182 176.2 171.3 167 163.3 161.3 160.3 158.6 155.6 150.7 149.2 148.8 148.5 147.3 151.3 155.7 164.9 173 185 195.9 207 214.5 221.4 229.9 238.6 247.1 254.8 262.8 268.7 273.5 275.4 278.1 281.6 282.2 283.3 283.9 284.8 285.6 286.2 287.7 289.1 289.7 290 290.4 289.9 290.6 291.3 288.1 282.6 280.6 294.7 305.7 314.8 326.2 341.5 357.3 366.9 372.1 372.9 369.4 366.5 363.2 359.2 357.4 355.8 353.2 350 347.6 345 342.3 337.4 334.4 331 327.6 323.7 322.4 320.7 319 318 316.9 315.8 315.4 314.3 312.6 310.8 309.1 308.8 307.9 306.6 305.2 304.3 303.3 302.2 301.3 300.7 300.4 300.4 300.5 300.9 300.5 300.1 299.4 298.9 298.5 298 296.8 295.5 293.8 292.2 290.6 288.9 286.1 283.3 280.7 276.5 270.4 261.4 262.4 262.4 265.7 270.1 276 280.2 285.7 289.7 292.5 294 297 300.7 304.4 306.8 307.9 308.9 310.2 311 311.6 311.8 312.9 313.6 314.2 315.5 316.8 317.8 318.5 317.2 314.7 311.5 308.2 305.1 302.9 300.5 297.9 295.5 293.1 290.6 288 285.5 282.9 280.4 278.4 276.9 275.5 273.9 272.1 269.6 266.5
352.9 361.1 365.9 368.8 374.2 378.8 386.8 388.6 393.9 408.1 413.6 419.5 422.1 422.8 420.9 417.1 415 412.5 409.9 406.5 400.1 390.7 379.2 364.5 346.7 327.1 310 295 276.5 257 237.6 220.9 201.2 190.1 182.6 176.6 170.9 166.8 164 161.7 159.6 158.1 156.1 154.5 153.6 150.6 148.9 147.3 150 153 160.7 171.8 184.5 196.7 206.8 213.9 220.8 228.7 236.8 243.8 251 257.5 262.3 265.8 267.9 269.5 271.9 273.4 274.3 275.2 276.7 276.8 277.4 279.3 280.8 281.4 281.6 281.9 281.3 283.3 277.2 268.4 274 289.3 298.2 305.7 315.7 330.2 345 360.6 369.7 374.8 374.6 372.6 369.9 366.1 363.5 362.8 362.1 360.6 357.5 353.6 350.3 347 342.3 336.9 332.3 328.2 324.6 322.6 321.1 320 319.1 317.7 316.7 316.3 315.4 314.2 312.9 311.4 310.4 309.1 307.7 306.5 305.8 305.1 304.2 303.4 303 302.5 302.5 302.4 302.5 302 301.2 300.4 299.9 299.5 298.9 298 297 295.6 294.1 292.3 290.4 287.2 285.4 283.1 280.8 278.6 271.1 258.9 255.2 257.5 262.4 269 276.8 283.4 290 292.9 294.9 298.3 301.9 305.3 307.3 309.1 309.7 310.4 311.1 310.6 310.8 310.8 311.3 311.7 313 314.3 314.5 314.5 313.3 311.5 309 306 303 300.7 298.5 296.1 293.3 290.9 288.4 285.7 283.2 280.8 278.5 276.3 274.6 273.1 270.9 268.6 265.9 262.6
374.1 382 385.7 388 392.6 397.3 402.2 407.1 413.8 421.3 427.9 430 429.9 428.7 425.2 420.8 418 414.7 411.5 408.3 404.4 395.5 384.3 368.2 348.6 329.6 313.9 296.3 278.1 258.8 239.6 222.2 201.7 190.4 183 177.4 173.1 170 167.3 165 162 160.6 157.6 155.4 154.8 152.3 149.7 148.9 149 151.5 159 169.8 181.5 195 205.5 212.8 219.6 227.3 234.4 241.2 247.7 252.7 257.5 261.3 263.2 263.9 265.7 265.8 266.1 267.2 268.8 269.3 269.6 270.7 272.6 272.8 273.1 273.6 273.3 265.3 258.5 272.3 282.5 290.3 297.3 307.5 318.3 332.5 347.3 362 371.6 376.9 377.9 376 373.5 371 368.7 367.6 368.6 367.6 365 361.4 357.3 353.6 349.3 344.6 339.2 333.2 328.4 324.2 322.3 320.7 319.7 318.9 317.8 316.7 315.7 314.6 313.2 312.4 311.5 311.2 308.6 307.5 307 306.5 305.6 304.6 304.4 304.2 304.5 305.1 305.1 303.4 302.5 301.3 300.5 300 299.5 299 298.1 296.9 295.8 294.4 292.4 289.4 286.9 284.5 282.2 280.4 278.6 273.8 262 250.5 254.3 263.6 273.1 283 291 295.2 296.8 300.4 304.2 307.1 308.7 309.9 310.3 310.9 310.2 309.2 309.1 308.1 308.1 308.7 310.4 311.5 311.6 310.9 309.8 308.1 306.1 303.7 300.8 298.4 296.2 294.2 291.6 288.9 286.5 284.1 281.8 279.6 277.5 275.4 272.8 270.9 269.1 266.6 263.8 260.8
393.7 399.9 401.6 403.4 406.1 410 415.5 420.9 427.5 432.6 435.5 434.1 432 430.4 427.3 424 420.4 415.8 411.7 406.5 399.2 388.5 376.9 360.7 346.7 329.4 313 294.3 277.3 258.2 238.7 221.2 201 190.5 183.7 178.8 174.2 171.4 167.5 164.7 161.6 159.8 157.8 156.3 154.5 151.9 150.6 148 148.8 149.9 153 164.4 178.5 192.6 203.2 211 218.6 225.7 231.6 237.1 241.4 245.6 250.9 253.4 256.2 256.1 255.9 256 256.3 257.7 259.7 260.2 260.6 262.1 263.7 264.9 264.4 263.2 258.1 251.7 265.6 275.6 283 290.5 299.6 309.4 320.4 334.4 349.3 362.8 373 380.1 381.6 381.2 379.4 379.9 380.6 380.4 379.3 377.2 374.5 370.2 366.1 361.9 357.1 352.6 347.7 342.6 336.9 329.9 325.7 323.8 321.7 320.5 319.3 319.1 317.5 316.3 315.1 314.4 313.8 314.3 311.8 310.8 309 307.8 306.8 305.9 305.7 305.4 305.1 306.2 306.1 304.8 303.1 301.9 301.1 300.4 299.9 299.4 298.9 298.2 297.1 295.7 294.3 292.9 291.9 289.7 287.9 286.5 286.3 285 277.7 255 247.4 256.9 270.7 285.2 292.9 297.3 299.4 302.4 305.3 307.2 307.8 308.5 309 308.8 308.4 307.7 306.9 305.1 304.9 305.8 307.4 308.4 308.6 308.1 307.1 305.8 303.6 300.9 297.9 295.7 293.9 291.7 289.5 287.6 285.3 283.1 281.1 279 276.9 274.7 272.5 270.4 268.4 265.6 262.6 259.6
407.4 413.2 415.8 417.6 420.5 424.5 429 434.1 438.5 438.6 436.9 433.8 431.6 429.2 426.8 422.8 418.1 413 408 401.9 391.5 382 370.9 356 343.3 327.2 309.8 290.5 273.4 257 234.2 216.8 200.9 191.2 183.8 178.8 174.6 171.2 168.1 166.4 164.7 163.2 160.9 156.6 153.6 152.2 152.6 154 152.2 148 149.6 151.6 173.6 187.5 198.1 205.1 211.9 218.6 223.7 229.6 233.3 236.6 239.5 240.5 242.8 245.2 245.1 246 246.6 248.4 249.6 250 251.6 253.4 254.9 255.9 253 249.9 246.6 257.6 267.9 275.7 282.6 292.4 303.6 314.2 324.8 336.4 350.7 363.3 374 381.5 385.8 387.6 390.4 393.1 395 396.1 394.3 391.1 386 380.5 375.4 370.4 366 361.8 356.9 351.9 345.9 338.7 331.5 326.5 324.7 322.8 321.3 320.5 318.8 317.8 317.2 317.1 318.1 318.1 317.1 315 312.7 310.4 308.7 308.1 307.4 307.2 306.5 306.9 307 306.2 304.5 302.9 301.8 300.9 300.3 299.8 299.3 298.8 298.2 298 298.9 299.8 301.2 301.2 299.7 296.8 293.8 292.5 289.9 276.1 244.5 247.4 273.7 287.4 292.6 296.4 299.4 301.1 302.9 304.4 305.5 305.8 306.2 307.9 306.8 305.2 304.2 301.9 301.8 302.7 303.9 305.2 305.3 304.5 303.8 303 300.5 297.7 294.8 292.4 290.9 289 287.9 286.1 284.8 282.9 281.9 280.1 278.3 276 273.5 271 268.6 266 263.6 260.5
419.7 426.1 430.4 432.4 434.1 436.8 439.3 440.4 440.5 439 435 431.6 428.6 425.8 422.2 418.7 412.8 404.8 398.3 390.1 382.7 374.2 361.9 349.3 338.3 321.6 303.6 285.8 269 251.9 230.5 212.9 200.8 191 183.5 178.5 173.8 169.7 166.6 164.7 163.9 161.9 158 155.3 152.4 154.1 154.7 156.4 156.5 156.7 149.8 148 154.3 172.9 190.8 196.9 204.6 213.9 219.9 225.3 229.8 234.2 234.2 235.8 236.7 237.5 238.6 239.8 240 240.3 240.9 241.8 242.1 244.1 245.8 245.1 243.8 239.3 251.6 260.8 268.9 276.4 284.5 296.3 309.5 320.6 330.9 341.2 354.5 365.1 375.4 382.9 388.5 392.5 396.8 402 406 409.6 409.7 405 399.1 392 386 381.2 377.3 372.3 366.8 361 355.1 347.4 340 333.3 328 326 324.3 321.9 320.3 319.6 319.5 320.2 321 320.6 319.9 318.3 316.1 312.7 310.6 310 309 308.7 309.1 310 310.1 310.5 309.1 307.1 305.3 303.1 301.8 301.1 300 299.3 300.4 301.4 302.3 304 307.1 307.9 307.1 303.8 298.5 295.3 291.4 282.8 249.9 243.4 269.6 282.3 287.2 293.4 296.7 298.2 300 301.8 303 303.1 303.2 304.2 304.1 302.6 300.8 298.7 297.9 299.1 301.3 302 302.4 301.1 298.7 297.5 295.8 293.2 290.4 288.3 286.9 285 284.7 283.6 283.3 284 283.9 283.1 281.4 278.8 275.7 272.5 269.9 267.5 265.3 263.6
427.4 434.8 438.7 440.1 440.3 439.9 440.1 439.5 435.2 432.8 429.6 426.8 424.4 420.7 415.7 408.6 400.8 392.8 383.9 377.7 368.5 360 351.8 339.7 329.1 314.9 298.5 281.2 264.3 247.9 227.8 210.9 200.3 190.4 183.8 178.5 173.8 169.6 166.3 163.8 162 159.5 157.4 156.3 156.3 157.8 159.5 157 156.5 157.4 155.9 149.5 149.8 153.1 166.5 176.1 197.9 211.1 217.6 222.7 226.6 229.6 231.8 232.8 232.9 233.7 234.3 235.5 234.2 234 234.4 233.7 235.1 236.2 236.8 234.7 234 245.8 253 262.7 270.6 280.2 291.1 305.3 319.2 329.8 339.6 348.8 358.5 367 375.2 381.8 388 393.6 401.7 410 414.4 418.3 421.6 418.2 411.2 403.3 397.3 391.2 386.5 382.4 375.8 369.3 362.5 355.5 347.7 340.3 333.3 329.9 326.8 323.5 322.1 321.6 322.5 325.5 326 324.8 323.3 321.1 318.8 316.2 314.5 314.3 313.5 313.2 313.3 314.1 314.9 315 316.3 316.4 315.1 311.7 307.7 304.3 302.7 300 303.9 306.8 308.9 311.5 312.9 313.5 312.9 310.3 305.2 297.6 293.6 283.4 253.7 238.9 258.4 271.8 275.5 281.2 281.2 287.2 291.8 296.2 299.6 300 299.4 300.3 299.5 298 296.8 295.3 292.5 294.7 296.9 297 297.7 296 292.3 289.5 287.5 285.4 283.3 281.7 280.8 279.7 279.3 279.2 280.1 281.5 283.5 283.8 282.2 279.8 276.1 273.7 271.1 269.8 268.1 266.7
431.3 437.8 440.6 440.8 438.6 435.2 430.8 429.5 426.7 425.2 421.1 417.3 412.3 407.4 401.4 394.7 388.6 381.2 372.8 364.2 354.4 346.5 339.8 330.6 318.6 304.9 292.4 276 259.3 242.2 225.9 209.5 199.7 191.1 185.3 179.6 174.9 171.3 167.7 165.3 163.8 161.4 158.1 159.1 160.5 159.7 160.6 159.4 159.6 161.1 158.3 155.7 149.9 149.5 159.2 178.7 196.6 207.8 216 221.6 225.4 228.5 229.3 229.9 230.2 229.8 229.9 229.2 227.3 227.7 227.7 220 216.3 222.2 224.1 228.7 240 248.1 256.6 266.3 275.6 288 303.3 318.7 330 339.2 347.1 353 360.1 366.7 373.7 379 384.9 393.3 405.8 415.3 421.8 426.5 430.1 428.4 421.8 414.4 407.1 399.5 394.1 389.5 383.7 376.4 368.9 361.2 353.6 346.2 339.8 334.6 330.6 326.4 325.4 325.4 329.5 333.2 333.1 329.7 327.1 324.8 321.6 319.2 318.2 318.1 317.8 317.4 318.1 320.4 321.5 322.6 323 322.5 321.1 318.3 315.1 311 307.5 301.6 307.2 310.4 312.7 314.4 316 315.2 313.2 310.6 305.4 298.2 291.9 281.6 254.7 234.3 243.8 261.9 267.5 270.5 272 273.2 275.5 278.8 284.5 287.4 288.3 290.8 291.9 290.6 290 289.9 287.1 287.4 288.4 288.9 288.6 287.1 283.9 281.4 279.6 278.1 277 275.7 274.1 273.7 273.3 273.2 274.7 277.4 280.1 280.3 278.9 276.9 274.4 272.1 270 269.4 269.6 269
433.3 435.9 436.8 433.7 430.1 427.1 425.1 421.4 417.5 413.3 408.7 403.1 397.7 393.1 385.5 380.1 372.7 364.2 356.4 348.5 340.6 333.8 327.6 319.2 309.7 298.5 285.8 269.9 254.2 238.6 221.5 205.9 198.5 192.2 185.9 181.1 177.6 172.9 169.8 170.6 168.1 162.4 159.4 161.2 160.8 161.3 162.7 165.6 168.3 167.8 166 161.6 155.4 151.2 156.2 175.6 200.8 209.8 214.8 219.2 222.2 224 224.4 224.6 224.8 223.7 222.9 219.1 217.2 217.3 215.6 214.9 226.2 227.1 226.7 235.3 243.1 251.3 259.9 272.6 285.7 301.4 318.1 329 338.3 346.3 351 355.3 360.8 365.3 370.7 375.7 382.8 393.1 407.1 416.8 424.6 430.7 433.8 433.1 427.4 420.2 412.5 406.1 400.3 395.3 389.4 383.4 375.1 366.9 359.2 351.9 345.9 340.9 336.1 331.9 331.5 332.7 336.3 338.3 337.7 334.2 330.9 328.8 326.8 323.3 321.2 320.9 320.9 320.9 322.1 323.7 325.1 326.9 327.5 327.2 325.6 321.6 317.6 312.8 308.2 301 305.8 308.7 310.7 311.7 311.2 310.2 308.2 306 302.3 295.9 286.7 278.2 258.7 232.7 233.9 245.3 257 261.7 265.1 266.6 267.3 269.2 271.8 275.7 277.6 278.8 279.8 280.8 281.1 280.4 279 279.3 281.4 280.2 282.1 280.6 278.2 276.1 274.1 272.6 271.9 270.4 267.8 267.7 268 268.9 270.4 273 275.2 275.1 274.9 272.5 270.6 267.9 269 268.9 269.7 269.7
431.4 430.6 428.5 424.6 420.6 415.4 410.4 407.9 405 397.7 392.2 386 381 373.8 367.5 360.8 353.2 345.5 338.4 331.5 324.5 318.5 313.2 306.2 299.8 289.1 278.8 265.5 249.3 233.7 215.9 203.8 197.5 192 186.4 182.8 181 174.8 173.2 171.3 166.7 162.9 160.9 162.3 162.8 164 166.4 171.5 174.6 172.9 169.6 166.1 158.8 148 155.3 174 199.2 207.4 211.2 214.9 217.2 217.4 215.7 215.1 215.4 210.9 205.3 205 205.4 206.1 204.4 212.4 215.8 218.4 227.5 236.6 247.9 258.3 271.2 284.6 300 315.6 325.2 334.1 342.3 346.9 350.1 353.4 358.5 362.6 367 373.3 381.7 393.2 403.9 414.3 424.4 428.8 431.8 431.5 427.6 422.3 417.1 411 406.6 402.8 395.8 387.7 379.5 372.1 364.5 357.3 351.9 346.1 342.1 339 339.8 341.4 343.4 344.1 343.6 340.5 334 331.7 329.2 326.5 324.7 323.7 323.6 324 324.9 325.9 327.2 328.5 328.5 328.1 326.5 322.5 317.4 311.9 306.8 291 300.3 302.1 303.9 304.7 303.6 301.5 300.5 298.8 295.2 290.5 281.8 274.3 265.1 244.4 229 231.2 244.7 251.8 254.8 257.5 260.3 262.2 263 265.7 268.3 270.4 271.2 272 272.8 271.8 270.8 272.4 274 275.5 277.3 276.2 274.1 271 270 267.7 266.3 265 263 262.8 262.6 263.3 265.6 266.7 268.7 269.7 270.4 267.1 265.8 262.5 264.6 265.6 266.8 267.9
427.3 423.2 418.2 410.2 402.8 396.4 391.1 386.7 381.3 376.6 372.5 367.9 363.9 357.4 349.8 342.7 336.2 329.4 322.5 316.7 310.3 305.4 300.4 295.3 288.3 279.9 271 258.4 244.2 229.5 211.8 201.2 196.6 192.2 187 182.9 180.7 175.7 174.9 174.1 170.9 162.9 164.4 166.1 166.1 167.2 170.4 178.2 179.6 177.4 174.2 169.3 157 148 152.1 173.7 195.1 201.5 204.9 208 209.3 209.3 207.9 205.9 204.3 198.5 194.4 196.8 197.6 198.6 202.7 209.2 217.5 225.6 234.9 247.5 260.2 271.7 284.8 298.2 312.4 322.8 330.5 337 341.7 344.2 346.5 348.5 352.3 357.3 363.6 370.6 380.9 391.6 401.8 412 419.7 424 425.3 425.2 424.1 421.4 417.3 412.7 408.1 403.2 398.2 390.2 382 374.9 367.8 361.9 356.9 351.1 347.6 345.8 345.9 346.7 348.8 348.9 347.9 344.5 338.7 334.8 331.8 329 327.2 326 325.4 325.4 325.5 325.5 326 326.1 326.6 325.7 322.8 319.4 314 308.4 303 289.4 294.3 293.2 294.6 296.3 293.4 290.9 289.9 287.7 285.3 281.9 272.6 270.1 265.1 258.3 248.7 228.5 228.2 240.5 246.6 250.8 253.9 254.3 255.1 257 259.4 260.1 260.7 262.6 263.8 264.7 266.3 268.2 270.1 272.7 272.2 270.8 268.5 266 265 263.3 261.6 260.1 258.4 257.4 256.2 255.9 258 259.8 261.5 263.1 263.1 261.6 260.3 258.2 258.6 259.9 262 261.8
422.8 417 406.7 399 389.3 381.3 375.4 370.2 364.8 362.5 355.7 351.9 346.8 337.4 333.4 327.1 319.3 314.4 308.7 302.1 297 292.5 288.1 284.3 278.4 270 259.1 248.4 236.7 224.2 209.6 199.5 195.8 192.8 187.3 181.9 178.3 175.7 175.5 168.3 165.4 164.6 167.9 168.9 168.8 170.4 176.8 183 184.6 182.3 177.5 170.3 164.4 150.5 153.4 174.1 190.4 195.9 199.2 201 201.2 200.2 195.6 193.8 192 188.1 188 191.1 196.2 201.1 207.2 216.4 224.3 232.6 244.4 258.8 271.7 284.7 295.6 307.7 319.9 327.8 332.2 337.6 338.4 339.5 341 343 346.2 351.7 360.5 368.8 379.4 390.4 400.5 409.1 415.8 419.1 419.1 418.5 417.6 415.3 413.5 411.5 406.1 401.7 396.8 390.7 383.6 377.1 369.7 364.2 359.4 354.4 350.9 348.8 348.7 350.4 351.7 351.4 349.7 346.1 341.3 337.2 334 331.2 329 325.7 324.8 323.9 323.1 322.3 321.8 321.8 321.3 320.1 318 314.1 308.3 303 297.6 288.9 287.1 284.2 283.1 283.7 281.3 279.4 278 275.9 273.4 267.7 265.7 265.5 259.9 255.4 250.1 241.3 222.7 225.9 235.6 243.9 247.9 248.8 249.4 250.2 252.9 254.4 255.4 256.4 256.8 257.7 261.3 263.1 265.7 267.4 268.6 267.4 265.2 262.8 261.8 259.8 257.9 256.2 254.4 253.5 252.2 253.3 253.9 253.9 254.5 254.6 255.6 253.9 254 253.3 254 254.6 255.5 255.1
417.4 409.5 399.8 385.5 374.9 366.5 359 353.5 349.7 343.9 339.1 334.6 327.1 320.6 314.2 307.3 301 295.8 290.8 286.6 280.2 276.7 273.9 270.5 263.4 254.7 246.4 237.6 229.3 219 207.6 199.4 196.8 192.2 186.5 181 177.3 172.9 169.9 168.1 167.3 169.1 168.8 170 171.4 174.6 181.8 186.3 186.8 184.6 179.4 171.3 164.5 151 151.6 175.2 183.8 189.2 191.9 192.2 190.2 185.5 178.9 179.8 179.7 180.2 192.4 197.9 202 206.9 213.6 219.7 227.5 238.4 252.1 265.8 277.7 288.9 299.4 310.3 320.7 327.3 333.2 334.1 334 333.2 333.6 334.5 339.3 347.8 356.6 366.2 377 387.5 396.8 404 408.5 410.3 411.1 409.4 406.8 406.4 406.2 403.8 402 398.7 394.4 389.5 383.9 377.4 371.2 365.3 359.8 355.2 351.4 348.9 348.9 350.7 350.9 349.6 347.4 344.6 340.1 336.6 333.6 329.8 326.7 322.1 320.5 318.8 317.5 316.2 314.4 314.3 314.3 313.1 310.2 305 300.1 294.4 290.4 284.3 279.2 276.6 274.1 272 270.9 269.8 263.9 266.5 266.2 266.4 262.2 258.1 255.3 251.7 247.3 241.5 230 220.2 224.8 234.6 240.9 243.7 244.4 245.1 246.4 248.6 251.4 251.7 251.2 253.5 256.4 258.8 262.5 265.3 265.9 264.4 261.9 259.6 257.5 256.1 254.2 252.5 250.9 249.5 248.9 249 249 248.9 248.9 248.8 248.3 247.5 247.2 247.7 248.2 248.8 248.7 247
402.9 391.5 379.6 368 358.9 350.7 340.9 337.2 332.2 326.3 320.1 313.7 305.7 297.4 293 286.6 280.8 277 272.9 269.9 265.7 260.6 256.9 251.3 244.3 239.1 230.9 226.6 219.5 213.5 205.3 197.6 194.3 190 186 181.3 175.4 171.9 170.6 172.4 170.7 172.6 172 172 174.2 179.5 184.8 187.3 186.9 183.6 180 173.6 165.5 152.2 150.4 169.2 178.8 183.1 183.3 182.1 175 169.7 171.4 174 181.8 187 194.1 200.1 204.7 209.8 214.3 219.6 228.9 241.4 255 268.7 279.5 290.2 299.5 308.8 317.7 323.5 326.4 327.1 326.2 326 325.2 326.4 334.5 344.1 352 361.8 371.4 381.2 390 396.1 400.6 401.8 401.3 401.6 401.4 400.1 399.6 399.2 397.3 394.6 390.8 386.5 381.3 375.4 368.8 362.7 357.2 351.1 346.8 345.1 345.8 346.7 346.2 345 342.7 339.6 335.1 331.7 330.3 326.3 321.7 318.2 313.8 310.7 309.8 309.5 306.6 305.9 305.6 305 303 298.3 292.7 286.7 282.9 275.6 271.6 269.2 266.5 264.6 263.3 263.6 263 263.5 261.8 259.3 257.1 253.2 250.9 246.9 243.3 233.5 230.5 217.2 219.4 224.8 233.2 236.1 238.3 240.3 241.5 241.5 244.1 244.6 245.7 248.2 251.1 255.1 259.5 262.5 263.5 262.9 259.5 255.1 253.8 253.6 250.7 249.1 247.4 245.5 244.9 244.9 244.2 244.1 243.6 243.3 243 241.2 241 241.2 241.7 241.1 240.2 238.8
388 373.6 360.8 350.2 339.9 332.4 326.5 320.1 314.6 308.4 301.4 294.8 287.3 280.1 273.6 268.5 263.9 260.2 255.6 252.2 248.1 245.2 239.6 233.7 228.5 222.1 217.8 212.9 209.7 206.9 201.3 194.7 190.4 187.4 184.6 181.1 174.2 173.1 174 174.1 171.5 173.4 175.2 175.9 177.7 182.2 186.3 186.8 185.2 183 179.5 174.3 164.7 152.4 150 162.7 168.6 170.5 170.7 167.5 164.6 170.9 176.4 178.2 182.2 187.1 192.3 197.7 202.6 206.4 210.3 219.6 229.9 242.8 255.3 268.4 278.2 287.7 296.5 304.2 311.2 314.9 317.8 317.1 316.1 315 315.9 320.3 329.6 338.4 347.4 356.6 364.4 373.2 380.7 386 389 390.4 391.7 393 392.6 392.5 391.9 391.3 390.3 388.3 384.7 380.9 375.8 370.3 363.6 357.1 350.3 345.1 341.1 339.5 339.5 339.8 339.1 337 334.7 332.3 330.8 327.9 323.8 318.6 314.3 310.6 304.7 302.7 300.4 298.7 293.3 296 295.1 294.9 294.7 291.6 284.8 279.6 274.8 268.5 265.5 261.4 261.5 259.6 258.9 258.2 258.2 256.8 254.8 252.9 251.1 249 246.3 243.1 239.4 232.5 226.8 215.1 216.6 217.7 226.6 231.4 234.1 235.9 237.3 239.2 237.3 240.8 242.9 243.3 248.2 253.5 258.1 260.1 261.1 261.8 258 253.2 250.7 249.5 247.5 245.6 243.9 242.1 241.4 241.1 240 239.3 238.4 237.5 236.8 235.4 235.6 235.8 234.9 233.9 232.7 230.9
370 355.2 341.9 330.7 319.7 315.4 308 301.9 294.9 289.5 284.4 278.4 273.3 267.6 263.1 258 252.4 248.7 244.4 239.4 235.1 231.4 228 223.7 218.9 214.4 209.9 205.8 201.4 197.4 192.5 188.7 190.1 187.9 184.9 178 175.7 177.4 177.6 172.9 171.9 173.5 177.5 180.1 180.4 183.8 185.9 184.8 183.2 180.8 177.7 171.7 160.9 152.2 151.4 153.7 157.3 158.8 159.9 161.4 171.5 174.8 176.1 178.9 181.6 185.6 189.5 193.4 197.9 202.1 210 218.8 229 241.9 253.8 265 274.3 282.1 289.8 296.4 301.2 303.8 304.9 304.5 304.2 305.8 308.5 315.3 323.8 331.9 339.5 346.8 354.3 360.8 367.6 372.3 375.5 380.6 383.3 383.8 383.1 382.3 382.6 382.6 381.7 379.9 377.5 373.9 369.3 362.6 355.6 348.7 341.9 336 332.2 331.3 329.6 330.3 328 326.2 325.6 324.8 321.9 317.5 312.6 308.6 304.2 300 295.6 290.5 287.2 286 281.2 282.2 282.4 282.2 283.4 281.6 276.8 271.2 265.7 262.2 260.4 258.3 258.6 258.1 255.9 254.1 253.6 252.6 251.4 249.7 248 246.2 243.2 240 236.8 228.9 227.2 216.2 213.4 215.4 221.9 226.9 229.3 231.5 233 232.1 235.5 237.4 237.9 242.4 246.4 251.4 254.2 257.2 258.6 258.2 256.2 252.4 248.6 246.6 245.1 243.4 241.2 239.2 238 237.4 236.2 235.3 234.1 232.9 230.7 229.7 230.6 230.2 229 227.4 226.1 224.5
349.8 332.2 317.6 310.5 306.7 299.8 293.6 287.2 282.6 276.5 271.9 268.1 263.7 259.6 255.4 251.4 247.5 243.6 239.4 236.1 231.4 228.7 223.2 218 213.5 210.5 204.7 205.4 202.2 199.6 196.3 192.2 188.7 182.9 180.3 179 180.4 181.9 180.8 175.7 173.4 175.3 180.5 183.1 182.4 183.8 183.6 182.4 180.5 178.1 175.6 170.7 164.2 154.8 151 153.2 154 156.9 163.4 168.6 170 170.1 173.4 178.5 181.6 181.9 184.4 188.3 193.3 201.3 209.8 218.8 229.1 239.7 250.6 260.8 269.6 277.3 283.5 288.4 291.9 293.7 294.5 294.4 294.5 296.3 303.2 310.6 318.5 325.5 331.1 335.7 340.8 346.6 352.4 360.4 366.4 371.6 373.9 374.1 370.6 370.3 370.4 370.8 371 370.2 368.1 364.2 358.7 351.8 345.2 337.4 331.1 324.4 321.3 321.4 321.3 323.6 322.4 318.7 316.1 312.1 307.6 305.9 301.3 297.5 293 288.2 284.1 278.4 277.2 274.5 272.8 271.7 270.8 272.1 271.3 268.3 263.9 261.1 256.2 256 255.7 255.5 255.7 254.4 251.9 253.4 251.8 250 249 247.2 245.5 243.4 240.3 237.1 230.8 228.3 224.4 219.6 211.1 212 216.1 222 224.7 226.9 227 227.9 231.4 232 234.3 236.6 242.3 247.4 251 254.7 255.9 255.9 254.8 252 247.9 245.7 243.6 241.5 239.4 237 234.8 234.3 233.2 231.6 230.5 228.6 225.9 224.7 224.5 224.4 223.3 222.4 220.8 219.3
335.1 318.2 308.6 303.6 298.8 293.9 289.2 284.5 278.9 273.8 270.2 265.5 261.9 258.2 253.7 249.2 245.9 241.9 237.4 233.9 229.4 224.8 221.7 219.9 216.6 213.8 211.2 208.6 206.1 202.4 197.4 193.2 186.2 186.5 186.1 187.6 187.6 187.5 185.3 183.8 179 179.8 185 186 184.3 183.1 181.8 180.1 177.4 175 173 170.4 164.8 156.3 150.9 151.6 151.8 156.4 162.7 164.6 168.2 171.6 175.7 177.5 178 180.4 183.4 190.1 203.8 208.8 212.3 218.1 228 238 247.4 255.8 264 270.7 276.4 281.5 284.2 285.8 285.9 286 285.8 291.9 298 305.5 312.7 319.1 324.4 328.9 333.2 338.3 345.1 351.8 358.5 363.6 365.6 364.5 362.1 359.2 358.7 358.4 359.5 359.3 357.8 354.2 349 341.1 332.4 324.8 316.4 310.3 308.3 309.4 311.8 314.4 311.9 309.3 307.3 303.7 299.4 296.9 293 290.3 285.2 280.5 275.5 271.1 268.3 266.4 264.4 263.3 263 262.2 260.2 258.4 257.1 254.7 251.8 252.4 251.7 252.4 252.4 249.6 251 250.6 249.2 248.6 246.9 245.6 243.8 241.5 238.6 234.4 224.8 222.6 219.9 216 208.3 209.5 212.2 216.5 220.3 222 222.1 224.8 226.8 227.6 234.5 237.4 242.2 246.3 249.3 251.3 253.4 254.6 253.5 251.6 248.8 246 243.3 241 238.3 236.1 233.3 231.2 230.8 229.3 227.5 224.9 222.4 220.7 220.2 219.5 218.3 217.1 215.6 214.1
322.5 312.7 306.2 299.4 296.5 291.9 287.6 283.5 279.1 275.1 271.2 267.6 262.9 258.6 254.2 250.3 247 242.9 239.3 235.8 231 227.5 224.5 222 219.9 216.2 212.7 209 204.6 199.9 195.3 192.5 195.2 194.6 192.4 194.1 194.5 196.2 194.8 193.2 191.5 189.7 188.6 187.1 184.8 182.5 179.5 178.5 175.6 172.9 171 169.1 163 154.8 151.7 151.2 153.3 153.7 162.4 169.3 174.5 175.1 174.8 177.6 181.2 183.2 187.2 191.4 199.9 203.8 209.1 216.8 226.9 234.2 242.5 251 256.7 263 268.4 272.6 275.5 277.5 277.9 278.4 280.2 288.2 293.7 299.7 306.7 312.6 318.1 322.6 327 332.9 339.8 347 352.6 355.6 356 354.5 351.9 349.5 348.8 347.8 347.9 347.6 346 343 336 328.1 319.9 310.6 304.1 299.5 297.9 300.1 303.9 304.4 303 300.8 298.6 295.4 290.5 288.7 286.2 282.9 277.7 273.4 269.2 266 263.4 260.6 258.9 257 256.2 255.3 254 252.5 250.9 249.3 248.2 248.1 247.8 247 248 249.8 249.5 247.6 247.6 246.7 245.4 244.7 242.9 240.7 237.9 234 229.3 224.4 221.9 214.2 209.2 206.8 208.5 212.2 215.5 215.8 218 221.5 223.1 229.1 234.5 239.8 244.2 247.3 249.7 251.7 252.7 253 252.9 251.5 249.6 247.1 243.6 241.9 238.8 236.2 233.7 231.2 229 227 224.6 221.8 219.7 218 216.5 215.4 213.7 211.5 210 208.6
316.3 309.7 305.1 301.6 297.5 293.2 288.8 285.1 280.9 276.4 272.3 268.8 264.7 261.1 257 253.2 249.4 244.4 240.4 236.6 231.8 226 221.6 218.2 215.6 211.4 208.8 207.9 206.1 203.7 200.2 198.9 197.8 195.2 194.6 198.7 201.8 204.2 202.5 201 197.8 194.1 190.1 187.8 184.4 182.8 178.2 173.9 171.8 169.2 167.1 165.8 162.8 155.8 152.3 149.8 151.2 154 163.7 170.5 173.2 173.2 175.4 180 182.4 183.4 186.6 188.9 192.5 199.8 205.6 213.3 221 228.7 236.3 242.6 248.5 253.7 259.3 263.6 266.9 268.7 270.1 271.6 276.6 284 288.5 294.5 300 306.1 311.5 316.2 321.9 328 335 341.3 346.1 348.8 348 345.1 341.6 339.3 338.7 338.2 337.3 336.1 334.6 330.7 323.8 315.5 307.7 299.2 292.1 289 289.4 290 294.6 296.4 295.4 292.4 289.8 287.4 284.2 280.6 276.8 274.8 272.1 267 264.7 261.3 258.2 255.5 253.3 251.6 250.5 249.6 248.6 246.9 245.8 244.4 244.4 243.8 241.8 244.2 245.1 246.4 244.4 243.4 244.5 244.4 244.5 242.1 243.8 242.7 240.6 238 234.5 230.5 226.4 221.3 215.6 204 205 207.7 209.1 210.7 213.7 219.6 225 229.3 234.7 240.7 243.9 247.4 249.5 250.3 250.5 250.3 250.3 251.7 251.4 249.7 247.2 243.6 240 237.1 234.7 232.3 229.4 226.4 223.4 220.4 217.8 215 213 209.2 207.4 205.6 204.5 202.5
315.4 311 307 303.1 299.1 295.2 291.2 287.8 283.5 278.8 275.8 272.3 269 265.3 259.8 255 251 246.7 242.8 238.8 232.4 226.7 224.5 223.6 219.8 217.1 214.9 212.9 209.6 207.1 204 200.3 197.6 196 197.5 202.3 205.5 207.1 207.4 205.6 202.5 198.1 192.4 187.9 184.3 182.2 177.7 172.2 169.3 167.4 165.5 164.7 160.4 155.6 153.2 152.3 151 155.3 160.5 168.3 173.1 172.8 175.4 178.1 181.3 182.1 184.1 188.5 191.1 194.8 201.7 210.4 215.8 219.4 227.1 233.8 239.5 244.3 248.9 254.1 258.6 261.3 262.7 267.2 273.6 279 284 289 294.3 300 305.3 310.8 316.9 323.1 328.5 334.5 339.7 341.4 339.5 335.6 333 329.7 327 325.7 323.6 322.9 321.4 317.9 312.1 304.2 296 287.2 282.8 280.1 281.6 284.9 286.6 288 288 285.1 282.2 278.9 276.3 272.5 270.3 269.1 266.8 262.8 259.9 256.9 253.6 250.6 248.4 246 245.2 244.4 243.6 241.6 240.7 239.6 238.1 235.4 238.2 239.4 241.2 242.7 243.6 243.5 236.3 238.5 238.2 244.2 246.3 245.9 244.3 241.5 237.6 233.5 229.6 225.5 218.6 206.4 202.5 203.8 205.3 205.4 211 218 224.5 230.6 235.9 241.2 244.5 247.8 248 248.5 248.8 248 248.5 250 250.8 250.6 249 245.6 242.3 237.5 234.4 234.1 232 228.9 225.7 222.8 219.5 216.8 214.2 211.8 208.6 205.6 202.3 200.4
