ncols 200
nrows 90
xllcorner 480000
yllcorner 510850
cellsize 50
95.8 95 93.8 93.3 93.1 91.8 90.3 89.5 89.4 88.5 85.3 84.3 81.1 86.2 88.1 88.3 86.4 84.5 77.8 68 60.6 56.3 48.7 33.6 18.8 34.3 46.2 57.2 73.9 62.4 37 28.2 57.2 76.9 78.8 83.1 89.3 93.2 86.2 85.8 89.6 90.1 91.5 95.4 96.8 98.2 101 104.5 105.5 107 106.4 106.8 107.5 107.7 105 101.4 99.9 96.3 99.3 99.9 99.1 97.9 104.6 104.6 105.1 105.6 106.2 108 110.4 111.9 111.1 109.5 107.8 105.8 103.7 102.2 101.1 98.6 72.6 45.4 23.1 1.4 0.7 0.2 -1.6 -1.6 -1.6 -1.6 -1.6 -1.6 -1.6 -1.6 -1.6 -1.6 -1.6 -1.6 -1.6 -1.6 -1.6 -1.6 -1.6 -1.6 -1.6 -1.6 -1.6 -1.6 -1.6 -1.6 -1.6 -1.6 -1.6 -1.6 -1.6 -1.6 -1.6 -1.6 -1.6 -1.6 -1.6 -1.6 -1.6 -1.6 -1.6 -1.6 -1.6 -1.6 -1.6 -1.6 -1.6 -1.6 -1.6 -1.6 -1.6 -1.6 -1.6 -1.6 -1.6 -1.6 -1.6 -1.6 -1.6 -1.6 -1.6 -1.6 -1.6 -1.6 -1.6 -1.6 -1.6 -1.6 -1.6 -1.6 -1.6 -1.6 -1.6 -1.6 -1.6 -1.6 -1.6 -1.6 -1.6 -1.6 -1.6 -1.6 -1.6 -1.6 -1.6 -1.6 -1.6 -1.6 -1.6 -1.6 -1.6 -1.6 -1.6 -1.6 -1.6 -1.6 -1.6 -1.6 -1.6 -1.6 -1.6 -1.6 -1.6 -1.6 -1.6 -1.6 -1.6 -1.6 -1.6 -1.6 -1.6 -1.6 -1.6 -1.6 -1.6 -1.6 -1.6 -1.6
96.2 95.3 95.1 94.7 94.2 92.5 91.4 90.3 83.9 75.4 76.3 83.1 90.3 91.6 90.5 87.8 85.5 83.9 79.8 73.5 65.5 59.9 51.5 37.7 22.4 40.6 55.8 68.5 76.6 57.9 29 35.3 52.1 73.6 84.9 89.4 93.3 97.4 101.9 103.1 103 103 103.3 104.3 105 105.3 107.2 108.9 112.3 111.9 112.5 112 112.4 113.8 113.3 111.6 106.6 110 109.2 109 106.3 103.8 110.3 109.6 109.8 109.5 110.7 111.6 114.1 114.8 114 112.8 110.7 108.1 106.3 106.4 105.6 103.2 96.4 56.9 42.4 28.4 12.7 9.4 1.6 -1.6 -1.6 -1.6 -1.6 -1.6 -1.6 -1.6 -1.6 -1.6 -1.6 -1.6 -1.6 -1.6 -1.6 -1.6 -1.6 -1.6 -1.6 -1.6 -1.6 -1.6 -1.6 -1.6 -1.6 -1.6 -1.6 -1.6 -1.6 -1.6 -1.6 -1.6 -1.6 -1.6 -1.6 -1.6 -1.6 -1.6 -1.6 -1.6 -1.6 -1.6 -1.6 -1.6 -1.6 -1.6 -1.6 -1.6 -1.6 -1.6 -1.6 -1.6 -1.6 -1.6 -1.6 -1.6 -1.6 -1.6 -1.6 -1.6 -1.6 -1.6 -1.6 -1.6 -1.6 -1.6 -1.6 -1.6 -1.6 -1.6 -1.6 -1.6 -1.6 -1.6 -1.6 -1.6 -1.6 -1.6 -1.6 -1.6 -1.6 -1.6 -1.6 -1.6 -1.6 -1.6 -1.6 -1.6 -1.6 -1.6 -1.6 -1.6 -1.6 -1.6 -1.6 -1.6 -1.6 -1.6 -1.6 -1.6 -1.6 -1.6 -1.6 -1.6 -1.6 -1.6 -1.6 -1.6 -1.6 -1.6 -1.6 -1.6 -1.6 -1.6 -1.6 -1.6
96.9 96.1 96.2 96.1 94.8 92.8 90.9 90.5 82.9 88.6 90 89.6 92.4 93.1 91.2 89 87.6 87.5 85.1 78.9 70.3 63.7 52.3 39.9 25.4 44.7 65.1 76.5 68.8 48.8 23.5 37.9 47.3 57.9 84.5 91.3 95.7 100.5 106.3 107.4 112 112.4 111.5 112 111.5 112.3 119.5 112.9 115.8 119 120 119.3 118.8 120.5 120.6 119.1 115.8 116.6 114.8 113.7 109.9 114.3 117.4 116.5 117 115.7 115.8 118.1 119.9 120 119.6 117.3 114.5 110.6 108.8 109.8 108.8 106 104.7 65.6 46.8 39.2 31.7 23.7 11.8 0.7 -1.6 -1.6 -1.6 -1.6 -1.6 -1.6 -1.6 -1.6 -1.6 -1.6 -1.6 -1.6 -1.6 -1.6 -1.6 -1.6 -1.6 -1.6 -1.6 -1.6 -1.6 -1.6 -1.6 -1.6 -1.6 -1.6 -1.6 -1.6 -1.6 -1.6 -1.6 -1.6 -1.6 -1.6 -1.6 -1.6 -1.6 -1.6 -1.6 -1.6 -1.6 -1.6 -1.6 -1.6 -1.6 -1.6 -1.6 -1.6 -1.6 -1.6 -1.6 -1.6 -1.6 -1.6 -1.6 -1.6 -1.6 -1.6 -1.6 -1.6 -1.6 -1.6 -1.6 -1.6 -1.6 -1.6 -1.6 -1.6 -1.6 -1.6 -1.6 -1.6 -1.6 -1.6 -1.6 -1.6 -1.6 -1.6 -1.6 -1.6 -1.6 -1.6 -1.6 -1.6 -1.6 -1.6 -1.6 -1.6 -1.6 -1.6 -1.6 -1.6 -1.6 -1.6 -1.6 -1.6 -1.6 -1.6 -1.6 -1.6 -1.6 -1.6 -1.6 -1.6 -1.6 -1.6 -1.6 -1.6 -1.6 -1.6 -1.6 -1.6 -1.6 -1.6
98.1 96.9 97.5 97.5 95.7 93.3 91.1 88.6 88.9 91.7 92.7 93.3 93.8 93.7 91.8 89.9 90.2 89.8 88.5 84.7 76.9 66.4 54.2 40.4 33.5 51.4 71.1 78.1 67.8 47.9 25.8 39.5 49 56 89.4 94 98.2 102.3 110 115.3 117.9 119.1 118.3 116.9 117.9 118.5 119.3 120.6 118.1 123.2 124.6 124.8 125.3 125.4 123.6 121.9 117 120.2 117.3 113.5 115.6 117.3 119.3 120.2 121.3 121.9 121.8 125.2 127.4 127.5 126.3 123 119.1 114.8 111.3 111.2 110.1 107.6 107.6 79.4 58.1 45.9 38.3 34.5 28.6 2 0.3 -1.6 -1.6 -1.6 -1.6 -1.6 -1.6 -1.6 -1.6 -1.6 -1.6 -1.6 -1.6 -1.6 -1.6 -1.6 -1.6 -1.6 -1.6 -1.6 -1.6 -1.6 -1.6 -1.6 -1.6 -1.6 -1.6 -1.6 -1.6 -1.6 -1.6 -1.6 -1.6 -1.6 -1.6 -1.6 -1.6 -1.6 -1.6 -1.6 -1.6 -1.6 -1.6 -1.6 -1.6 -1.6 -1.6 -1.6 -1.6 -1.6 -1.6 -1.6 -1.6 -1.6 -1.6 -1.6 -1.6 -1.6 -1.6 -1.6 -1.6 -1.6 -1.6 -1.6 -1.6 -1.6 -1.6 -1.6 -1.6 -1.6 -1.6 -1.6 -1.6 -1.6 -1.6 -1.6 -1.6 -1.6 -1.6 -1.6 -1.6 -1.6 -1.6 -1.6 -1.6 -1.6 -1.6 -1.6 -1.6 -1.6 -1.6 -1.6 -1.6 -1.6 -1.6 -1.6 -1.6 -1.6 -1.6 -1.6 -1.6 -1.6 -1.6 -1.6 -1.6 -1.6 -1.6 -1.6 -1.6 -1.6 -1.6 -1.6 -1.6 -1.6
98.9 98.3 99.3 99.2 96.8 94.2 91.6 87.3 92.6 94.1 95.3 95.9 96.2 94.6 92.8 91.7 92.4 91.8 89.7 86.7 82.2 67.4 56.3 40 41.9 60.4 77.4 80.1 76.5 51.5 28.8 40.6 50.3 61.4 91.5 96 100.6 105.3 113.4 118.4 121.3 122.9 122.6 122.1 123.3 124.3 124.8 125 124.4 126.2 128.1 129 129.3 128.1 127.1 123.4 119.9 121.1 118.3 118.2 120 120.8 122.2 122.7 124 125.2 125.4 127.7 129.3 129.7 131.2 127.7 123.9 118.7 114.8 112.9 111.2 111.9 111.2 104.7 74.8 57.2 48.7 49.6 39.2 20.7 1.6 0.2 -1.6 -1.6 -1.6 -1.6 -1.6 -1.6 -1.6 -1.6 -1.6 -1.6 -1.6 -1.6 -1.6 -1.6 -1.6 -1.6 -1.6 -1.6 -1.6 -1.6 -1.6 -1.6 -1.6 -1.6 -1.6 -1.6 -1.6 -1.6 -1.6 -1.6 -1.6 -1.6 -1.6 -1.6 -1.6 -1.6 -1.6 -1.6 -1.6 -1.6 -1.6 -1.6 -1.6 -1.6 -1.6 -1.6 -1.6 -1.6 -1.6 -1.6 -1.6 -1.6 -1.6 -1.6 -1.6 -1.6 -1.6 -1.6 -1.6 -1.6 -1.6 -1.6 -1.6 -1.6 -1.6 -1.6 -1.6 -1.6 -1.6 -1.6 -1.6 -1.6 -1.6 -1.6 -1.6 -1.6 -1.6 -1.6 -1.6 -1.6 -1.6 -1.6 -1.6 -1.6 -1.6 -1.6 -1.6 -1.6 -1.6 -1.6 -1.6 -1.6 -1.6 -1.6 -1.6 -1.6 -1.6 -1.6 -1.6 -1.6 -1.6 -1.6 -1.6 -1.6 -1.6 -1.6 -1.6 -1.6 -1.6 -1.6 -1.6 -1.6
99.8 99.8 100.9 100.9 98.5 95.8 92.7 92.3 94.9 96.7 97.7 97.4 97.7 95.5 93.8 94.3 93.9 92.9 91.1 89.1 85.5 72.3 61.6 42.1 49.1 67.5 82.7 82.7 78.3 54.2 36 40.2 52.5 66.6 92.9 98.2 104.7 109 115.4 120.9 123.7 125.3 125.6 125.8 126.7 128.2 128.9 128.2 128.2 129.6 131.2 131.2 130.5 127.2 125.2 123.4 124.4 121.9 121.6 121.8 122 123 124.1 125.6 127.2 129.2 129.6 128.6 129.4 129.8 129.5 129.2 125.9 122.6 118.4 115.3 114 114.9 113.7 112.1 100 73.7 58.2 59 48.6 32 3.6 1.4 -1.6 -1.6 -1.6 -1.6 -1.6 -1.6 -1.6 -1.6 -1.6 -1.6 -1.6 -1.6 -1.6 -1.6 -1.6 -1.6 -1.6 -1.6 -1.6 -1.6 -1.6 -1.6 -1.6 -1.6 -1.6 -1.6 -1.6 -1.6 -1.6 -1.6 -1.6 -1.6 -1.6 -1.6 -1.6 -1.6 -1.6 -1.6 -1.6 -1.6 -1.6 -1.6 -1.6 -1.6 -1.6 -1.6 -1.6 -1.6 -1.6 -1.6 -1.6 -1.6 -1.6 -1.6 -1.6 -1.6 -1.6 -1.6 -1.6 -1.6 -1.6 -1.6 -1.6 -1.6 -1.6 -1.6 -1.6 -1.6 -1.6 -1.6 -1.6 -1.6 -1.6 -1.6 -1.6 -1.6 -1.6 -1.6 -1.6 -1.6 -1.6 -1.6 -1.6 -1.6 -1.6 -1.6 -1.6 -1.6 -1.6 -1.6 -1.6 -1.6 -1.6 -1.6 -1.6 -1.6 -1.6 -1.6 -1.6 -1.6 -1.6 -1.6 -1.6 -1.6 -1.6 -1.6 -1.6 -1.6 -1.6 -1.6 -1.6 -1.6
101.2 101.3 102.3 102.2 100 97 92.7 94.3 97.1 99 99.4 99.1 98.3 96.9 95.5 94.9 94.8 93.8 93.4 91.6 89.1 78.8 68.1 47.3 54.7 75.3 85.6 84.4 78.7 56.4 36.9 29.1 54.2 75.2 95.8 100.5 106.6 112.9 118 122.6 125.3 127.1 128.8 129.9 131 132.5 132.5 131.5 132.1 133.4 134.1 133.4 131 127.7 128.9 126.9 125.9 125 124 124.3 125.4 126.4 128.3 129.2 134.1 136.9 134.7 133.2 131 130.2 129.2 128.8 126.6 124.2 121.5 118.2 116.8 116.3 115 113.8 112.7 82.9 69.3 62.5 53.1 39.2 27.5 3.1 0.3 -1.6 -1.6 -1.6 -1.6 -1.6 -1.6 -1.6 -1.6 -1.6 -1.6 -1.6 -1.6 -1.6 -1.6 -1.6 -1.6 -1.6 -1.6 -1.6 -1.6 -1.6 -1.6 -1.6 -1.6 -1.6 -1.6 -1.6 -1.6 -1.6 -1.6 -1.6 -1.6 -1.6 -1.6 -1.6 -1.6 -1.6 -1.6 -1.6 -1.6 -1.6 -1.6 -1.6 -1.6 -1.6 -1.6 -1.6 -1.6 -1.6 -1.6 -1.6 -1.6 -1.6 -1.6 -1.6 -1.6 -1.6 -1.6 -1.6 -1.6 -1.6 -1.6 -1.6 -1.6 -1.6 -1.6 -1.6 -1.6 -1.6 -1.6 -1.6 -1.6 -1.6 -1.6 -1.6 -1.6 -1.6 -1.6 -1.6 -1.6 -1.6 -1.6 -1.6 -1.6 -1.6 -1.6 -1.6 -1.6 -1.6 -1.6 -1.6 -1.6 -1.6 -1.6 -1.6 -1.6 -1.6 -1.6 -1.6 -1.6 -1.6 -1.6 -1.6 -1.6 -1.6 -1.6 -1.6 -1.6 -1.6 -1.6 -1.6
102.6 103 103.4 104.5 102.5 98.5 93.6 95.9 99.3 100.8 100.5 100.7 100.5 99.2 97.9 95.3 96.6 96.9 96.8 95.1 91.8 79.6 66.9 50.9 59.7 82.7 86.7 85.5 69.3 49 36.3 48.8 37 65.5 86 99.9 109.1 115.4 120.5 125 128.4 131 132.9 134.2 136.1 136.8 136.7 136.2 136.1 136.6 136.6 134.9 132.7 131.4 131.9 129.8 131.6 132.2 130 129.9 130.4 134.7 137.8 138.2 142.2 143.8 142.7 140.4 137.1 132.4 130.2 129.3 127.6 125.6 123.7 120.8 120 118.3 116.1 115 113.9 96.7 75.1 65.5 52.4 39.6 37.6 22.6 1.3 0.1 -0.6 -1.6 -1.6 -1.6 -1.6 -1.6 -1.6 -1.6 -1.6 -1.6 -1.6 -1.6 -1.6 -1.6 -1.6 -1.6 -1.6 -1.6 -1.6 -1.6 -1.6 -1.6 -1.6 -1.6 -1.6 -1.6 -1.6 -1.6 -1.6 -1.6 -1.6 -1.6 -1.6 -1.6 -1.6 -1.6 -1.6 -1.6 -1.6 -1.6 -1.6 -1.6 -1.6 -1.6 -1.6 -1.6 -1.6 -1.6 -1.6 -1.6 -1.6 -1.6 -1.6 -1.6 -1.6 -1.6 -1.6 -1.6 -1.6 -1.6 -1.6 -1.6 -1.6 -1.6 -1.6 -1.6 -1.6 -1.6 -1.6 -1.6 -1.6 -1.6 -1.6 -1.6 -1.6 -1.6 -1.6 -1.6 -1.6 -1.6 -1.6 -1.6 -1.6 -1.6 -1.6 -1.6 -1.6 -1.6 -1.6 -1.6 -1.6 -1.6 -1.6 -1.6 -1.6 -1.6 -1.6 -1.6 -1.6 -1.6 -1.6 -1.6 -1.6 -1.6 -1.6 -1.6 -1.6 -1.6 -1.6 -1.6
104.8 105.1 105.2 106 104.1 99.4 95.8 97.3 101.7 102.3 101.9 102.7 102.4 101.5 101.8 99.8 98.4 99.3 99.6 98.9 95.7 85.3 68.1 55 63.2 86.2 88.7 85.1 62.5 42.4 41.4 55.3 60.7 49.3 78.6 100.3 111.1 117.5 122.9 127.3 130.7 133.6 136.5 138.7 139.7 139.7 138.9 138.7 139 139.3 138.3 136.6 135.2 134.5 135.2 134.9 139.2 140.7 138.8 140 143.5 145.2 149.3 147.8 144.4 146.4 146.2 145.9 143.8 139.1 134.2 130.6 128.4 126.6 125.2 124.7 124.1 121.8 118.5 115.7 114.4 113 104.3 86.4 66.6 47.6 37.6 30.2 2.7 1.4 0.8 -1.6 -1.6 -1.6 -1.6 -1.6 -1.6 -1.6 -1.6 -1.6 -1.6 -1.6 -1.6 -1.6 -1.6 -1.6 -1.6 -1.6 -1.6 -1.6 -1.6 -1.6 -1.6 -1.6 -1.6 -1.6 -1.6 -1.6 -1.6 -1.6 -1.6 -1.6 -1.6 -1.6 -1.6 -1.6 -1.6 -1.6 -1.6 -1.6 -1.6 -1.6 -1.6 -1.6 -1.6 -1.6 -1.6 -1.6 -1.6 -1.6 -1.6 -1.6 -1.6 -1.6 -1.6 -1.6 -1.6 -1.6 -1.6 -1.6 -1.6 -1.6 -1.6 -1.6 -1.6 -1.6 -1.6 -1.6 -1.6 -1.6 -1.6 -1.6 -1.6 -1.6 -1.6 -1.6 -1.6 -1.6 -1.6 -1.6 -1.6 -1.6 -1.6 -1.6 -1.6 -1.6 -1.6 -1.6 -1.6 -1.6 -1.6 -1.6 -1.6 -1.6 -1.6 -1.6 -1.6 -1.6 -1.6 -1.6 -1.6 -1.6 -1.6 -1.6 -1.6 -1.6 -1.6 -1.6 -1.6 -1.6
107.5 107.6 107.2 106.9 104.1 101.4 101 99.6 104.9 104.7 104 104.8 104.3 104 104.9 103.8 96.7 101.1 101.7 101.1 94.9 88.3 69.1 54.5 63.3 85.6 89.3 80.5 60.1 40.2 55.1 65 71.1 64.1 82.2 103.5 113.3 119.3 124.4 129.6 133 136.5 139.8 141.5 142.1 141.9 141.2 140.9 141.2 140.8 139.9 138.1 137.5 138 138.2 137.6 142.2 145.3 147 147.3 150 152.4 153.6 151.2 146.9 148 147.6 147.2 145.4 142.7 139.1 134.9 130.4 128.9 128 127.3 126.7 124.9 121.9 117.3 115.1 113.5 112.9 110.5 97.1 83.2 73.7 63.7 48.6 13.4 2.2 0.7 -0.6 -1.6 -1.6 -1.6 -1.6 -1.6 -1.6 -1.6 -1.6 -1.6 -1.6 -1.6 -1.6 -1.6 -1.6 -1.6 -1.6 -1.6 -1.6 -1.6 -1.6 -1.6 -1.6 -1.6 -1.6 -1.6 -1.6 -1.6 -1.6 -1.6 -1.6 -1.6 -1.6 -1.6 -1.6 -1.6 -1.6 -1.6 -1.6 -1.6 -1.6 -1.6 -1.6 -1.6 -1.6 -1.6 -1.6 -1.6 -1.6 -1.6 -1.6 -1.6 -1.6 -1.6 -1.6 -1.6 -1.6 -1.6 -1.6 -1.6 -1.6 -1.6 -1.6 -1.6 -1.6 -1.6 -1.6 -1.6 -1.6 -1.6 -1.6 -1.6 -1.6 -1.6 -1.6 -1.6 -1.6 -1.6 -1.6 -1.6 -1.6 -1.6 -1.6 -1.6 -1.6 -1.6 -1.6 -1.6 -1.6 -1.6 -1.6 -1.6 -1.6 -1.6 -1.6 -1.6 -1.6 -1.6 -1.6 -1.6 -1.6 -1.6 -1.6 -1.6 -1.6 -1.6 -1.6 -1.6
111.2 110 108.5 106.1 103.1 104.5 101.6 102.8 107.3 108 107.3 107.2 106 105.5 107.3 106.8 100.6 102.6 103.4 101.2 94.5 85.2 63.7 66.8 60.5 82.6 89.5 75.3 56.8 50.6 66.1 78.4 88.2 82.6 77.8 103 114.1 120.2 125.2 131.1 135.9 139.8 142.8 144 144 143.9 143.7 142.8 142.5 141.9 141.3 140.7 139.6 140.9 141.3 140.4 142.2 145.5 149.9 152.5 154.4 153.9 153 150.3 149 149.2 148.9 148.6 145.9 143.4 140.9 137.1 134.2 131.7 130.8 129.9 128.1 126.3 124.1 120.1 116.2 114.2 112.9 111.9 109.7 107.2 105.2 102.1 70.6 45.9 27.1 2.3 0.4 -1.6 -1.6 -1.6 -1.6 -1.6 -1.6 -1.6 -1.6 -1.6 -1.6 -1.6 -1.6 -1.6 -1.6 -1.6 -1.6 -1.6 -1.6 -1.6 -1.6 -1.6 -1.6 -1.6 -1.6 -1.6 -1.6 -1.6 -1.6 -1.6 -1.6 -1.6 -1.6 -1.6 -1.6 -1.6 -1.6 -1.6 -1.6 -1.6 -1.6 -1.6 -1.6 -1.6 -1.6 -1.6 -1.6 -1.6 -1.6 -1.6 -1.6 -1.6 -1.6 -1.6 -1.6 -1.6 -1.6 -1.6 -1.6 -1.6 -1.6 -1.6 -1.6 -1.6 -1.6 -1.6 -1.6 -1.6 -1.6 -1.6 -1.6 -1.6 -1.6 -1.6 -1.6 -1.6 -1.6 -1.6 -1.6 -1.6 -1.6 -1.6 -1.6 -1.6 -1.6 -1.6 -1.6 -1.6 -1.6 -1.6 -1.6 -1.6 -1.6 -1.6 -1.6 -1.6 -1.6 -1.6 -1.6 -1.6 -1.6 -1.6 -1.6 -1.6 -1.6 -1.6 -1.6 -1.6
113.3 110.9 108.1 107.6 108.4 105.3 101.1 107 111.2 111.3 110.5 109.1 106.9 105.8 106.1 105.1 102.9 101.6 102.3 99.1 86.4 70.8 83.9 78.9 61.5 79.1 89.1 72.4 54.2 56.7 74.5 94.4 98.1 99.1 79.9 99.3 114.5 120.6 126.4 131.9 137.4 141.7 144.8 145.4 144.8 144.1 144.3 144.2 143.5 142.8 142.2 142.2 141.4 142.7 143.4 143.5 143.8 145.8 151.4 156.3 157.1 155.6 154.1 151.6 151 150.8 150.2 149.9 147.2 144.7 142.1 139.8 138.3 135.5 133.2 131.4 129.4 127.4 125.3 122.4 119.5 116.2 113.1 112 111 109.1 105.6 102.8 99.8 61.8 41.5 21.2 1.3 -0.2 -1.6 -1.6 -0.5 0.1 0.5 0.5 -1.6 -1.6 -1.6 -1.6 -1.6 -1.6 -1.6 -1.6 -1.6 -1.6 -1.6 -1.6 -1.6 -1.6 -1.6 -1.6 -1.6 -1.6 -1.6 -1.6 -1.6 -1.6 -1.6 -1.6 -1.6 -1.6 -1.6 -1.6 -1.6 -1.6 -1.6 -1.6 -1.6 -1.6 -1.6 -1.6 -1.6 -1.6 -1.6 -1.6 -1.6 -1.6 -1.6 -1.6 -1.6 -1.6 -1.6 -1.6 -1.6 -1.6 -1.6 -1.6 -1.6 -1.6 -1.6 -1.6 -1.6 -1.6 -1.6 -1.6 -1.6 -1.6 -1.6 -1.6 -1.6 -1.6 -1.6 -1.6 -1.6 -1.6 -1.6 -1.6 -1.6 -1.6 -1.6 -1.6 -1.6 -1.6 -1.6 -1.6 -1.6 -1.6 -1.6 -1.6 -1.6 -1.6 -1.6 -1.6 -1.6 -1.6 -1.6 -1.6 -1.6 -1.6 -1.6 -1.6 -1.6 -1.6 -1.6 -1.6
114.4 111.1 110.1 111.2 111.4 108 103.9 110.9 114.6 114.3 112.2 110 107.5 104.9 104.3 103.5 101.2 98 94.8 90.9 78.1 92.1 92.9 90.8 74.7 77.9 90.3 73.9 53.3 61.3 73.2 94.3 101.9 102.5 97.1 95.9 114.1 119.5 125.5 132.1 138.3 142.8 145.7 145.5 144.9 144.1 144.6 145.1 144.3 143.6 143.5 143.8 143.1 144.2 145.1 145.7 146.9 149.5 154.8 160.6 161.5 158.9 157.1 155.2 153 152.4 151.9 151.2 148.8 146.6 144.8 143 141.6 139.1 136 133.3 130.9 128.6 126.4 124.2 121.8 119.2 115.3 112.3 110.4 109 107.1 105.2 104.2 103.7 60.1 42.1 2.3 0.3 -1.6 0 1 1.4 1.9 6.2 1 0.2 0 -0.6 -1.6 -0.7 -0.6 -1.6 -1.6 -1.6 -1.6 -1.6 -1.6 -1.6 -1.6 -1.6 -1.6 -1.6 -1.6 -1.6 -1.6 -1.6 -1.6 -1.6 -1.6 -1.6 -1.6 -1.6 -1.6 -1.6 -1.6 -1.6 -1.6 -1.6 -1.6 -1.6 -1.6 -1.6 -1.6 -1.6 -1.6 -1.6 -1.6 -1.6 -1.6 -1.6 -1.6 -1.6 -1.6 -1.6 -1.6 -1.6 -1.6 -1.6 -1.6 -1.6 -1.6 -1.6 -1.6 -1.6 -1.6 -1.6 -1.6 -1.6 -1.6 -1.6 -1.6 -1.6 -1.6 -1.6 -1.6 -1.6 -1.6 -1.6 -1.6 -1.6 -1.6 -1.6 -1.6 -1.6 -1.6 -1.6 -1.6 -1.6 -1.6 -1.6 -1.6 -1.6 -1.6 -1.6 -1.6 -1.6 -1.6 -1.6 -1.6 -1.6 -1.6 -1.6 -1.6 -1.6
114.8 112.3 112.6 113.7 113.8 110.3 108.2 114.7 117.5 116.4 113.7 110.8 108.4 106.5 105 103.2 97.4 88.4 88.4 87.2 94.3 95.5 94.1 92.3 86.9 78.7 91.4 79.6 58.5 64.9 73.7 89 103.7 104.1 103.5 88.8 108.6 117.9 123.6 130.4 137 142.3 144 144.7 144.4 143.9 144.5 145.7 146 145.7 145.7 145.5 145.1 145.9 146.8 148.3 149.9 153.8 159.8 163.4 163.3 161.6 160 158.1 156.6 155 154.5 153.5 152.2 149.9 147.7 146.1 144.1 142.8 139.3 135.5 133.1 130.4 128.1 125.9 123.9 121.7 117.7 114.3 112.6 110.9 108.9 107.1 105.4 105 103.7 74.7 46.7 1.9 1.6 1.9 40.5 38.2 16 13.5 11.1 1.9 1.6 1.3 1 0.9 0.8 0.5 0.2 -0.3 -0.7 -1.6 -1.6 -1.6 -1.6 -1.6 -1.6 -1.6 -1.6 -1.6 -1.6 -1.6 -1.6 -1.6 -1.6 -1.6 -1.6 -1.6 -1.6 -1.6 -1.6 -1.6 -1.6 -1.6 -1.6 -1.6 -1.6 -1.6 -1.6 -1.6 -1.6 -1.6 -1.6 -1.6 -1.6 -1.6 -1.6 -1.6 -1.6 -1.6 -1.6 -1.6 -1.6 -1.6 -1.6 -1.6 -1.6 -1.6 -1.6 -1.6 -1.6 -1.6 -1.6 -1.6 -1.6 -1.6 -1.6 -1.6 -1.6 -1.6 -1.6 -1.6 -1.6 -1.6 -1.6 -1.6 -1.6 -1.6 -1.6 -1.6 -1.6 -1.6 -1.6 -1.6 -1.6 -1.6 -1.6 -1.6 -1.6 -1.6 -1.6 -1.6 -1.6 -1.6 -1.6 -1.6 -1.6 -1.6 -1.6 -1.6
116.9 114.9 114.9 115.8 115.9 111.5 113.3 117.7 119.2 117.5 114.6 111 108.5 102.2 98.6 97.5 88 99.8 99.4 96.8 96.1 96.1 94.4 89.5 78.2 86.8 91.7 84.1 69.7 66.4 74.9 84.7 100.8 104.9 106.1 99.4 104.2 115 121.7 127.8 134 139.3 142 143.3 143.5 143.7 145 146.3 147.6 148.6 148.4 148 147.5 148.2 149.9 151.6 153.9 158.4 163.9 165.1 164.8 163.4 162.7 161.1 159.5 158 156.9 155.8 154.7 153.6 151.9 147.8 146.4 144.9 141.5 138.2 135.5 133 130.3 127.6 125.4 123.3 120.3 117 114 112.6 110.6 109 107.3 105.6 104.9 103.8 101.1 84.2 82.4 80.8 57.5 42.1 30.6 33.3 48.2 60.3 61.7 51 37.6 26.9 4.2 1.8 1.3 0.7 0 -0.9 -1.6 -1.6 -1.6 -1.6 -1.6 -1.6 -1.6 -1.6 -1.6 -1.6 -1.6 -1.6 -1.6 -1.6 -1.6 -1.6 -1.6 -1.6 -1.6 -1.6 -1.6 -1.6 -1.6 -1.6 -1.6 -1.6 -1.6 -1.6 -1.6 -1.6 -1.6 -1.6 -1.6 -1.6 -1.6 -1.6 -1.6 -1.6 -1.6 -1.6 -1.6 -1.6 -1.6 -1.6 -1.6 -1.6 -1.6 -1.6 -1.6 -1.6 -1.6 -1.6 -1.6 -1.6 -1.6 -1.6 -1.6 -1.6 -1.6 -1.6 -1.6 -1.6 -1.6 -1.6 -1.6 -1.6 -1.6 -1.6 -1.6 -1.6 -1.6 -1.6 -1.6 -1.6 -1.6 -1.6 -1.6 -1.6 -1.6 -1.6 -1.6 -1.6 -1.6 -1.6 -1.6 -1.6 -1.6 -1.6
119.5 118.1 118.1 118.3 117.1 115.6 118 121.1 121.3 118.3 115 109 100.3 104.2 103.5 99.7 100.6 106.6 100.4 100.6 97.9 96.3 93.6 84.2 85.8 92.9 95 92.9 78 71.4 73.9 86.2 101.6 104.9 107.3 109.4 106.7 108.9 117.8 124.4 130.1 135.7 138.9 141.3 142.7 143.7 145.7 147.6 151.2 152.7 152.3 151.8 151 151.4 153.2 155.4 158.8 163.6 166.5 166.6 165.6 164.8 164.6 164 162.6 161.9 160.5 158.7 156.8 155.3 153.6 149.7 147.3 145.6 143.5 140.5 137.5 135.1 132.4 129.6 127.1 124.8 122.5 119.5 116.4 113.7 112.2 111 109.2 107.4 106 104.6 103.5 102 100.9 100.2 91.5 66.1 59.9 68.2 98.3 98.1 96.3 89.8 83.4 79.4 76 74.3 2.3 1.1 0.3 -0.6 -1.6 -1.6 -1.6 -1.6 -1.6 -1.6 -1.6 -1.6 -1.6 -1.6 -1.6 -1.6 -1.6 -1.6 -1.6 -1.6 -1.6 -1.6 -1.6 -1.6 -1.6 -1.6 -1.6 -1.6 -1.6 -1.6 -1.6 -1.6 -1.6 -1.6 -1.6 -1.6 -1.6 -1.6 -1.6 -1.6 -1.6 -1.6 -1.6 -1.6 -1.6 -1.6 -1.6 -1.6 -1.6 -1.6 -1.6 -1.6 -1.6 -1.6 -1.6 -1.6 -1.6 -1.6 -1.6 -1.6 -1.6 -1.6 -1.6 -1.6 -1.6 -1.6 -1.6 -1.6 -1.6 -1.6 -1.6 -1.6 -1.6 -1.6 -1.6 -1.6 -1.6 -1.6 -1.6 -1.6 -1.6 -1.6 -1.6 -1.6 -1.6 -1.6 -1.6 -1.6 -1.6 -1.6 -1.6 -1.6
122.1 123.3 122.3 120.5 118 118.2 121.1 123.3 122.1 119.9 115.9 109.2 110.4 111.1 110.1 106.5 108.6 111.1 106 103.1 99.6 95.8 93.4 80.6 93.4 97.9 99.5 98.1 86.3 79.2 73.1 82.3 98.5 104 108.2 112.5 107.3 119.8 116.7 120.2 126.9 134.3 138.8 141.3 142.6 143.6 145.7 148.7 154 157.8 157.3 155.8 155.9 156.4 157.4 158.8 163.3 166.4 167.2 166.2 165.4 164 163.9 164.2 164.7 164.9 163.4 160.7 157.7 156.2 154.3 150.7 148 146.4 144.4 141.2 138.1 136.2 133.9 131.5 128.9 126.6 124.1 121.1 118 115.3 113.3 112.2 110.9 109.3 107.3 105.5 104.2 103 102 101.1 100.2 98.2 98.1 98.3 99.3 100 99.7 97 88.5 81.6 76.4 72.1 15.3 1.3 0.4 -0.5 -1.6 -1.6 -1.6 -1.6 -1.6 -1.6 -1.6 -1.6 -1.6 -1.6 -1.6 -1.6 -1.6 -1.6 -1.6 -1.6 -1.6 -1.6 -1.6 -1.6 -1.6 -1.6 -1.6 -1.6 -1.6 -1.6 -1.6 -1.6 -1.6 -1.6 -1.6 -1.6 -1.6 -1.6 -1.6 -1.6 -1.6 -1.6 -1.6 -1.6 -1.6 -1.6 -1.6 -1.6 -1.6 -1.6 -1.6 -1.6 -1.6 -1.6 -1.6 -1.6 -1.6 -1.6 -1.6 -1.6 -1.6 -1.6 -1.6 -1.6 -1.6 -1.6 -1.6 -1.6 -1.6 -1.6 -1.6 -1.6 -1.6 -1.6 -1.6 -1.6 -1.6 -1.6 -1.6 -1.6 -1.6 -1.6 -1.6 -1.6 -1.6 -1.6 -1.6 -1.6 -1.6 -1.6 -1.6 -1.6
126.2 128.2 125.5 122.9 120.3 121 123.6 125.5 124.3 121.4 116.9 111.2 113.3 114.4 115 112.2 113.9 114.9 110.8 104.7 100.9 97.7 95.4 81.2 95 101 102.7 101.9 94.6 88.8 85.3 76.3 90.7 103.4 108 113 114 122.7 121.8 119 121.4 129.8 135.5 139.8 142.3 143.6 145.2 148 153 158.4 159.9 159.6 158.6 159.4 160.3 162 164.7 165.8 165.7 165.2 164.5 163.9 163.4 163.8 164.5 164.4 163.2 161.4 158.8 156.5 154.4 151.6 148.7 146.7 144.2 141.3 138.2 136.9 134.8 132.5 130.5 128.1 125.6 122.6 119.5 116.4 114.5 113.3 112 110.5 108.4 106.6 104.8 103.6 102.5 101.2 100.2 98.7 98.3 97.9 98.4 99.1 99.9 98.7 92.6 83.7 75.1 70.1 48.3 1.4 0.4 -0.5 -1.6 -1.6 -1.6 -1.6 -1.6 -1.6 -1.6 -1.6 -1.6 -1.6 -1.6 -1.6 -1.6 -1.6 -1.6 -1.6 -1.6 -1.6 -1.6 -1.6 -1.6 -1.6 -1.6 -1.6 -1.6 -1.6 -1.6 -1.6 -1.6 -1.6 -1.6 -1.6 -1.6 -1.6 -1.6 -1.6 -1.6 -1.6 -1.6 -1.6 -1.6 -1.6 -1.6 -1.6 -1.6 -1.6 -1.6 -1.6 -1.6 -1.6 -1.6 -1.6 -1.6 -1.6 -1.6 -1.6 -1.6 -1.6 -1.6 -1.6 -1.6 -1.6 -1.6 -1.6 -1.6 -1.6 -1.6 -1.6 -1.6 -1.6 -1.6 -1.6 -1.6 -1.6 -1.6 -1.6 -1.6 -1.6 -1.6 -1.6 -1.6 -1.6 -1.6 -1.6 -1.6 -1.6 -1.6 -1.6
131.4 131.2 128.3 125.7 124 123.9 125.8 127.6 126.3 122.6 118.2 114.4 114.9 117.1 118.9 116.5 116.2 116.7 113.7 108.3 104.6 100.7 97.5 83.3 97.8 102.3 104.9 106.1 104.3 97.9 93.3 95.1 77.3 98.1 108.3 112.9 119.4 124 124.7 126.8 127.6 125 130.6 134.3 137.8 141 144.5 147.2 150.9 155.8 160.3 160.8 160.8 161.7 162.5 163.1 163.9 164.5 164.8 164.8 164.3 164 163.6 163.3 162.8 162.4 160.8 159 157.8 155.3 153.6 151.8 149.1 146.3 143.7 141 137.6 136.3 134.9 133.2 131.2 128.9 126.3 123.5 120.5 117.5 115.7 114.2 112.6 111 109.7 108.1 105.9 104.3 103.2 101.9 100.3 99.1 98.1 97.2 96.8 98.2 99.7 99.1 95.4 87.9 78.6 72.8 68.5 1.8 0.9 0 -1.6 -1.6 -1.6 -1.6 -1.6 -1.6 -1.6 -1.6 -1.6 -1.6 -1.6 -1.6 -1.6 -1.6 -1.6 -1.6 -1.6 -1.6 -1.6 -1.6 -1.6 -1.6 -1.6 -1.6 -1.6 -1.6 -1.6 -1.6 -1.6 -1.6 -1.6 -1.6 -1.6 -1.6 -1.6 -1.6 -1.6 -1.6 -1.6 -1.6 -1.6 -1.6 -1.6 -1.6 -1.6 -1.6 -1.6 -1.6 -1.6 -1.6 -1.6 -1.6 -1.6 -1.6 -1.6 -1.6 -1.6 -1.6 -1.6 -1.6 -1.6 -1.6 -1.6 -1.6 -1.6 -1.6 -1.6 -1.6 -1.6 -1.6 -1.6 -1.6 -1.6 -1.6 -1.6 -1.6 -1.6 -1.6 -1.6 -1.6 -1.6 -1.6 -1.6 -1.6 -1.6 -1.6 -1.6 -1.6
134.6 133.8 131 128.5 126.7 126.8 128.9 130.1 128.1 123.8 119.9 117.6 118.4 120.3 120.1 118.4 118.3 117.4 113.5 109.1 105.9 102.6 99.1 86 101.2 104.4 106.4 107.8 108.3 104.5 97 103.9 93.6 89.3 106.7 113.4 119 123.1 125.5 127.1 130.2 132.2 133.5 134.7 135.8 135.7 141 145.2 150.2 155.3 158.8 160.7 161.6 162.5 162.8 163.1 163.4 163.9 163.9 162.8 163.1 163 164.3 163.6 162.1 160.3 158.5 157.2 156.4 154.2 152.7 151.1 148.4 145.8 143.2 140.5 137.2 135.7 134 133.3 131.8 129.5 126.6 124 122 118.8 116.4 114.9 113.3 111.9 110.7 109.3 107 104.9 103.8 102.8 101.3 99.9 98.8 97.7 96.8 97.6 100.6 100.2 96.5 90.6 81.8 79.4 75.4 60.7 1.7 0.7 -1.6 -1.6 -1.6 -1.6 -1.6 -1.6 -1.6 -1.6 -1.6 -1.6 -1.6 -1.6 -1.6 -1.6 -1.6 -1.6 -1.6 -1.6 -1.6 -1.6 -1.6 -1.6 -1.6 -1.6 -1.6 -1.6 -1.6 -1.6 -1.6 -1.6 -1.6 -1.6 -1.6 -1.6 -1.6 -1.6 -1.6 -1.6 -1.6 -1.6 -1.6 -1.6 -1.6 -1.6 -1.6 -1.6 -1.6 -1.6 -1.6 -1.6 -1.6 -1.6 -1.6 -1.6 -1.6 -1.6 -1.6 -1.6 -1.6 -1.6 -1.6 -1.6 -1.6 -1.6 -1.6 -1.6 -1.6 -1.6 -1.6 -1.6 -1.6 -1.6 -1.6 -1.6 -1.6 -1.6 -1.6 -1.6 -1.6 -1.6 -1.6 -1.6 -1.6 -1.6 -1.6 -1.6 -1.6 -1.6
137.7 136.9 134 131.4 130 131.2 132.4 131.6 130.4 125.8 124.2 121.6 122.1 125.7 122.9 121.1 121.4 118.8 114.9 111.3 107.8 103.1 100.9 88.4 101.7 106.2 108.6 109.9 110.5 106.2 101 107.6 104.8 98.2 101.2 102.6 109.4 117.8 123.1 126.5 129.5 132.9 136.2 138.4 140.6 139.4 139.4 143.9 149.9 155.6 158.2 160.4 161.4 162.6 163.1 161.6 161.5 160.9 160.1 160.2 160.5 161 163.2 163.8 162 160.4 158.5 156.6 154.9 153.3 151.7 149.8 146.9 143.6 140.8 138.6 136.1 133.2 131.4 131.8 131.7 129.7 127.1 124.9 123.4 120.6 117.9 115.6 114.2 112.8 111.5 109.9 108 105.9 104.4 103.6 102.5 101.3 100.4 98.8 97.3 96.7 99.2 100.1 97.7 93.7 87.9 83.8 80.1 78.3 48 1.7 0.3 -1.6 -1.6 -1.6 -1.6 -1.6 -1.6 -1.6 -1.6 -1.6 -1.6 -1.6 -1.6 -1.6 -1.6 -1.6 -1.6 -1.6 -1.6 -1.6 -1.6 -1.6 -1.6 -1.6 -1.6 -1.6 -1.6 -1.6 -1.6 -1.6 -1.6 -1.6 -1.6 -1.6 -1.6 -1.6 -1.6 -1.6 -1.6 -1.6 -1.6 -1.6 -1.6 -1.6 -1.6 -1.6 -1.6 -1.6 -1.6 -1.6 -1.6 -1.6 -1.6 -1.6 -1.6 -1.6 -1.6 -1.6 -1.6 -1.6 -1.6 -1.6 -1.6 -1.6 -1.6 -1.6 -1.6 -1.6 -1.6 -1.6 -1.6 -1.6 -1.6 -1.6 -1.6 -1.6 -1.6 -1.6 -1.6 -1.6 -1.6 -1.6 -1.6 -1.6 -1.6 -1.6 -1.6 -1.6
141.4 141.2 137.3 134.3 135.4 135.2 135.6 134.5 132.6 130.1 129.7 126.2 126.8 130.8 127.5 125.6 125.3 122.5 117.3 113.6 108.1 100.6 90 100.3 104.8 107.8 110.7 112.1 112.2 110.8 104.2 109.5 106.4 103.4 93.6 94.6 95.3 104.5 116.2 123.2 127.6 130.2 135.1 138.3 141.5 141.5 140 142.8 148.3 152.4 155.7 158.8 161 162.8 163.1 161.3 160.4 160.2 160.9 160.9 160.5 160.5 162.1 163.6 162.8 161.1 159.4 157.6 155.9 154.1 151.7 149.1 145.3 141.4 137.6 135.5 132.8 130.1 128.7 128.8 129.6 128.3 126.6 126 124.8 122.1 119.5 117.2 115.3 113.8 111.8 110.2 108.4 106.7 104.7 102.7 102.3 101.3 100.7 98.6 96.8 95.3 95.5 97.3 95.9 92.6 89.4 86.4 83 81.4 78.7 41.2 1.5 0.4 -0.7 -1.6 -1.6 -1.6 -1.6 -1.6 -1.6 -1.6 -1.6 -1.6 -1.6 -1.6 -1.6 -1.6 -1.6 -1.6 -1.6 -1.6 -1.6 -1.6 -1.6 -1.6 -1.6 -1.6 -1.6 -1.6 -1.6 -1.6 -1.6 -1.6 -1.6 -1.6 -1.6 -1.6 -1.6 -1.6 -1.6 -1.6 -1.6 -1.6 -1.6 -1.6 -1.6 -1.6 -1.6 -1.6 -1.6 -1.6 -1.6 -1.6 -1.6 -1.6 -1.6 -1.6 -1.6 -1.6 -1.6 -1.6 -1.6 -1.6 -1.6 -1.6 -1.6 -1.6 -1.6 -1.6 -1.6 -1.6 -1.6 -1.6 -1.6 -1.6 -1.6 -1.6 -1.6 -1.6 -1.6 -1.6 -1.6 -1.6 -1.6 -1.6 -1.6 -1.6 -1.6 -1.6
145.8 143.1 139.4 139 141.8 140.3 138.5 137.4 135.2 133.7 132.2 129.7 128.9 131.2 129.5 127.2 125.9 124 119.5 115 108.2 99.1 101.6 106 109.7 110.7 111.4 111.4 108.8 108.7 108.1 112.3 112.8 110 102.4 112.9 111.9 109.2 106.2 110.9 116.1 122.8 130.4 135.5 139.9 142.9 143.1 143.8 145.4 147.3 151.6 156 159.2 161.6 162.1 160.8 160.6 163 164.9 165.7 163.5 160.5 161.2 163 163.5 162.4 160.8 158.5 156.8 153.1 150.9 148.9 147.1 143.7 138.7 133.3 129.9 127.4 126.7 125.8 126.1 125.3 124.5 124.5 124.4 123 121 119.1 117.2 114.7 112.3 110.5 108.6 106.9 104 101.9 102 101 99.2 97.3 95 92.9 92.2 93.2 92.1 89.3 86.7 84.5 82.7 80.8 80.4 46.9 29.6 1.5 -0.1 -1.6 -1.6 -1.6 -1.6 -1.6 -1.6 -1.6 -1.6 -1.6 -1.6 -1.6 -1.6 -1.6 -1.6 -1.6 -1.6 -1.6 -1.6 -1.6 -1.6 -1.6 -1.6 -1.6 -1.6 -1.6 -1.6 -1.6 -1.6 -1.6 -1.6 -1.6 -1.6 -1.6 -1.6 -1.6 -1.6 -1.6 -1.6 -1.6 -1.6 -1.6 -1.6 -1.6 -1.6 -1.6 -1.6 -1.6 -1.6 -1.6 -1.6 -1.6 -1.6 -1.6 -1.6 -1.6 -1.6 -1.6 -1.6 -1.6 -1.6 -1.6 -1.6 -1.6 -1.6 -1.6 -1.6 -1.6 -1.6 -1.6 -1.6 -1.6 -1.6 -1.6 -1.6 -1.6 -1.6 -1.6 -1.6 -1.6 -1.6 -1.6 -1.6 -1.6 -1.6 -1.6
150.4 148.1 143.2 143.8 147.3 145.3 142.5 140.1 138.5 137.1 135.9 134.3 132.8 131.8 131.7 131.6 129.2 125.7 120.7 116.1 108 97.5 106.1 110.3 113.1 114.7 115.8 117.2 118 116.2 113.5 115.5 116.7 115 110.4 118.5 122.5 121.6 117.2 114.9 119.1 129 135.1 136.6 139.5 144 144.8 147.9 151.5 154.2 153.7 153.8 156.9 160.1 161.2 161.7 163.1 165.8 167 166.7 165.4 161.6 160.3 161.5 163.2 163 161.8 159.4 156.2 152.5 149.5 147.7 146.7 142.8 137.6 132.4 128.2 125.3 124.7 123.8 122.6 122.2 121.6 121.9 122.3 122.1 121.2 119.7 118.2 115.8 112.7 110.9 109.2 107.2 105 101.1 100.6 98.5 95.7 93.5 91.6 90.3 90.2 89.8 89.2 86.4 83 71.2 71 77.7 74.2 47.4 31.7 1.4 -0.3 -1.6 -1.6 -1.6 -1.6 -1.6 -1.6 -1.6 -1.6 -1.6 -1.6 -1.6 -1.6 -1.6 -1.6 -1.6 -1.6 -1.6 -1.6 -1.6 -1.6 -1.6 -1.6 -1.6 -1.6 -1.6 -1.6 -1.6 -1.6 -1.6 -1.6 -1.6 -1.6 -1.6 -1.6 -1.6 -1.6 -1.6 -1.6 -1.6 -1.6 -1.6 -1.6 -1.6 -1.6 -1.6 -1.6 -1.6 -1.6 -1.6 -1.6 -1.6 -1.6 -1.6 -1.6 -1.6 -1.6 -1.6 -1.6 -1.6 -1.6 -1.6 -1.6 -1.6 -1.6 -1.6 -1.6 -1.6 -1.6 -1.6 -1.6 -1.6 -1.6 -1.6 -1.6 -1.6 -1.6 -1.6 -1.6 -1.6 -1.6 -1.6 -1.6 -1.6 -1.6 -1.6
155.8 154.7 150.2 149.8 151.5 149.9 147 144.2 141.7 140.8 140.2 139.1 138.1 137.9 138.2 136.5 132.9 128.1 122.3 116.9 108.3 103.8 110.5 114.6 117.5 119.5 120.3 121.8 122 119.6 117 118.3 119.8 119.6 120.1 125.3 130 130.4 128.1 123.2 119 128.8 137.2 140.5 141.4 144.3 147.2 150.4 154.1 157.4 157.9 157.9 158.6 159.9 161.2 162.8 165.6 168.4 169.1 168.8 166.7 163.7 160.3 159.8 161.6 162.2 161.4 159.1 154.4 150.2 147.3 145 142.4 138.8 134 129.8 126.3 123.4 123 121.5 120.3 119.2 118.7 119 119.3 118.9 119.7 118.3 116.2 116.1 113.6 110.8 109.1 107 104.5 100.7 96.4 92.2 88.8 86 77.4 81.3 88.8 88.7 87 83.3 75.5 50.9 53.5 47.5 46.6 29.2 12.1 0.6 -1.6 -1.6 -1.6 -1.6 -1.6 -1.6 -1.6 -1.6 -1.6 -1.6 -1.6 -1.6 -1.6 -1.6 -1.6 -1.6 -1.6 -1.6 -1.6 -1.6 -1.6 -1.6 -1.6 -1.6 -1.6 -1.6 -1.6 -1.6 -1.6 -1.6 -1.6 -1.6 -1.6 -1.6 -1.6 -1.6 -1.6 -1.6 -1.6 -1.6 -1.6 -1.6 -1.6 -1.6 -1.6 -1.6 -1.6 -1.6 -1.6 -1.6 -1.6 -1.6 -1.6 -1.6 -1.6 -1.6 -1.6 -1.6 -1.6 -1.6 -1.6 -1.6 -1.6 -1.6 -1.6 -1.6 -1.6 -1.6 -1.6 -1.6 -1.6 -1.6 -1.6 -1.6 -1.6 -1.6 -1.6 -1.6 -1.6 -1.6 -1.6 -1.6 -1.6 -1.6 -1.6 -1.6
160.5 158.1 159.2 160.3 161.6 158 151.6 148.7 146.9 146 145.3 143.7 142.4 144.6 145.6 142.9 137.7 132.1 125.8 120.2 113.5 110.6 116.9 120.4 123.1 125.7 126.4 126.7 126.8 126.2 122.2 122.1 124.5 126.4 126 130.4 135.9 136.1 134.4 130.4 120.5 130.2 136.9 141.1 142.9 146 149.5 152 153.8 157.9 159.4 160.9 160.9 163.6 165.7 166.2 168.8 170.3 170.9 170.4 168.3 165.4 162 159.3 158.9 158.7 157.4 156 153 147.7 143.3 141.1 138.4 134.4 131.1 127.2 123.8 120.3 121.4 120.8 118.7 117.1 116.4 115.9 116.1 115.7 116.4 114.3 113.2 113.3 112.6 110.5 107.9 104 99.6 96.1 88.8 83.9 77.3 77 89.6 78 69.5 67.8 65.6 70 69 54.2 77.9 77.5 58.7 47.1 42.5 0.8 -1.6 -1.6 -1.6 -1.6 -1.6 -1.6 -1.6 -1.6 -1.6 -1.6 -1.6 -1.6 -1.6 -1.6 -1.6 -1.6 -1.6 -1.6 -1.6 -1.6 -1.6 -1.6 -1.6 -1.6 -1.6 -1.6 -1.6 -1.6 -1.6 -1.6 -1.6 -1.6 -1.6 -1.6 -1.6 -1.6 -1.6 -1.6 -1.6 -1.6 -1.6 -1.6 -1.6 -1.6 -1.6 -1.6 -1.6 -1.6 -1.6 -1.6 -1.6 -1.6 -1.6 -1.6 -1.6 -1.6 -1.6 -1.6 -1.6 -1.6 -1.6 -1.6 -1.6 -1.6 -1.6 -1.6 -1.6 -1.6 -1.6 -1.6 -1.6 -1.6 -1.6 -1.6 -1.6 -1.6 -1.6 -1.6 -1.6 -1.6 -1.6 -1.6 -1.6 -1.6 -1.6 -1.6
165.6 169 170.3 168.5 168.6 164.3 159.4 157.5 152.7 150.4 150.2 148 148.4 150.7 150.4 146.9 142 136.6 130.8 124.4 114.9 115.7 121.5 126.8 131.2 133.3 132.7 131.1 131.8 130.7 127.2 127.9 130.6 133.4 132.6 136.8 141.9 143.2 140.7 137.3 128.5 134.6 140.8 143.4 145 148.6 152.6 156.2 155.4 159.9 162.6 164.7 165.8 166.2 168 169.1 170.5 172 172.5 171.7 170 167.1 164 160.6 157.1 154.7 152 149.5 147.6 144.8 138.5 136.1 134.1 131.4 128.3 125.2 122.9 119.9 116.6 120 118.4 116.4 115.4 114.7 113.6 112.7 112.6 110.4 107.7 107.1 109.1 106.5 100.7 94.9 90.3 87.3 78.7 88.1 93 92.9 91.6 89.5 87.9 86.3 76.3 64.3 65.3 77 78.7 77.9 75.2 61.5 45.4 35.2 -1.6 -1.6 -1.6 -1.6 -1.6 -1.6 -1.6 -1.6 -1.6 -1.6 -1.6 -1.6 -1.6 -1.6 -1.6 -1.6 -1.6 -1.6 -1.6 -1.6 -1.6 -1.6 -1.6 -1.6 -1.6 -1.6 -1.6 -1.6 -1.6 -1.6 -1.6 -1.6 -1.6 -1.6 -1.6 -1.6 -1.6 -1.6 -1.6 -1.6 -1.6 -1.6 -1.6 -1.6 -1.6 -1.6 -1.6 -1.6 -1.6 -1.6 -1.6 -1.6 -1.6 -1.6 -1.6 -1.6 -1.6 -1.6 -1.6 -1.6 -1.6 -1.6 -1.6 -1.6 -1.6 -1.6 -1.6 -1.6 -1.6 -1.6 -1.6 -1.6 -1.6 -1.6 -1.6 -1.6 -1.6 -1.6 -1.6 -1.6 -1.6 -1.6 -1.6 -1.6 -1.6 -1.6
169.5 173 173.2 172.8 171.7 167.6 165.1 164.4 158.4 153 154.2 154.9 156.1 155 152.4 149 144.3 139.9 135.2 127.9 114.3 118.4 125.2 131.2 136.9 138.8 137.9 136.2 137.4 137.5 136 137.9 138.4 139.1 139.1 143.8 148.6 147.7 145.5 141.6 135.7 139.2 144.5 146.4 148.6 151.2 154.4 158 159.3 162 166.5 169 170.3 170.3 169.9 171.8 172.5 173.7 174.1 173.4 171.5 168.7 166 163.3 160.8 157.4 153.1 147.9 143.8 141 138 135.4 133.4 130.7 128 125.6 123 119.8 116.4 116 116.7 116.3 115.3 114.1 113.2 113.8 112.5 110.8 108.9 98.1 98.2 95.1 88.9 84.3 85.2 90.1 94.8 95.1 94.9 93.4 91.9 90.4 89.4 87.7 85.5 83.5 81.8 80.6 79.4 77.2 74.5 54.7 43.3 35 2 -1.6 -1.6 -1.6 -1.6 -1.6 -1.6 -1.6 -1.6 -1.6 -1.6 -1.6 -1.6 -1.6 -1.6 -1.6 -1.6 -1.6 -1.6 -1.6 -1.6 -1.6 -1.6 -1.6 -1.6 -1.6 -1.6 -1.6 -1.6 -1.6 -1.6 -1.6 -1.6 -1.6 -1.6 -1.6 -1.6 -1.6 -1.6 -1.6 -1.6 -1.6 -1.6 -1.6 -1.6 -1.6 -1.6 -1.6 -1.6 -1.6 -1.6 -1.6 -1.6 -1.6 -1.6 -1.6 -1.6 -1.6 -1.6 -1.6 -1.6 -1.6 -1.6 -1.6 -1.6 -1.6 -1.6 -1.6 -1.6 -1.6 -1.6 -1.6 -1.6 -1.6 -1.6 -1.6 -1.6 -1.6 -1.6 -1.6 -1.6 -1.6 -1.6 -1.6 -1.6 -1.6
172 172.8 172.8 172.6 172.3 171.4 169.7 167.7 159.5 157.5 158.3 159 159 156.6 154.5 151.8 146.6 142.7 138.2 128.6 111.5 127.5 135.6 137.3 139.5 141.6 141.3 142.2 143.2 143.8 142.5 145.2 147.1 147.3 146.7 151.6 154.1 152.9 151.2 146.1 144.5 143.6 147.5 150.5 153.3 155.7 158.1 160.7 161.3 163.7 167.8 171.1 172.9 173.4 172.4 173.8 174.8 175.9 176.6 176.4 173.2 170.3 167.5 166 165.2 161 155.3 149.9 145.7 143.4 140.1 137.7 134 130.9 128.4 126.1 122.7 120.4 115.5 118.3 109.4 111.5 111.5 106.8 108.4 113.9 112.7 112.1 108.4 97.6 99.2 98 98.7 100.2 99.4 99 96.9 94.4 93.2 91.7 90.4 89.3 87.2 85.2 83.6 82 80.2 78.5 76 73.1 66.8 58 57.3 45.3 38 11.1 -1.6 -1.6 -1.6 -1.6 -1.6 -1.6 -1.6 -1.6 -1.6 -1.6 -1.6 -1.6 -1.6 -1.6 -1.6 -1.6 -1.6 -1.6 -1.6 -1.6 -1.6 -1.6 -1.6 -1.6 -1.6 -1.6 -1.6 -1.6 -1.6 -1.6 -1.6 -1.6 -1.6 -1.6 -1.6 -1.6 -1.6 -1.6 -1.6 -1.6 -1.6 -1.6 -1.6 -1.6 -1.6 -1.6 -1.6 -1.6 -1.6 -1.6 -1.6 -1.6 -1.6 -1.6 -1.6 -1.6 -1.6 -1.6 -1.6 -1.6 -1.6 -1.6 -1.6 -1.6 -1.6 -1.6 -1.6 -1.6 -1.6 -1.6 -1.6 -1.6 -1.6 -1.6 -1.6 -1.6 -1.6 -1.6 -1.6 -1.6 -1.6 -1.6 -1.6 -1.6
177.3 173.8 172.7 172.5 172.2 171.7 171.2 167.1 161.5 162.8 162.7 162.4 161.8 160 157.7 153.9 148 142.9 137.9 123.8 121.9 137 142.2 145.2 142.7 144.2 145.5 147.5 149 149 147.8 151.4 154 153.1 152.9 157.3 159.5 158.6 157.4 152.6 152 150.3 151.4 155.8 158.4 160.7 163.8 166 167 168.6 171.3 173.2 174.8 175.6 174.8 175.9 177 178.1 179.1 182.1 181.1 175.3 171.4 168 164.2 160.4 157.8 153.9 149.4 146.8 142.6 139.3 136.8 134 131.3 127.9 124.7 123.3 122.2 122.9 119.1 113.4 115.2 115.6 112.4 103 111.6 109.2 98.7 102.7 107.6 107.5 105.3 104.4 102.3 99.9 97.7 95.7 94 92.3 90.6 89.1 87.8 86.8 84.6 82.3 80.2 78.6 76.5 74.8 70.5 57.7 49.3 34.8 29.8 32.4 23.9 -1.6 -1.6 -1.6 -1.6 -1.6 -1.6 -1.6 -1.6 -1.6 -1.6 -1.6 -1.6 -1.6 -1.6 -1.6 -1.6 -1.6 -1.6 -1.6 -1.6 -1.6 -1.6 -1.6 -1.6 -1.6 -1.6 -1.6 -1.6 -1.6 -1.6 -1.6 -1.6 -1.6 -1.6 -1.6 -1.6 -1.6 -1.6 -1.6 -1.6 -1.6 -1.6 -1.6 -1.6 -1.6 -1.6 -1.6 -1.6 -1.6 -1.6 -1.6 -1.6 -1.6 -1.6 -1.6 -1.6 -1.6 -1.6 -1.6 -1.6 -1.6 -1.6 -1.6 -1.6 -1.6 -1.6 -1.6 -1.6 -1.6 -1.6 -1.6 -1.6 -1.6 -1.6 -1.6 -1.6 -1.6 -1.6 -1.6 -1.6 -1.6 -1.6 -1.6
181.1 177.6 173.2 172.5 172.2 171.6 170.6 167.3 167 166.5 166.2 165.9 164.7 162.4 160.1 155.5 148.6 141 128.7 117.2 134.1 140.7 144.8 147.2 146.8 149.5 151.6 153.4 153.8 153.9 153.5 155.7 159 157.9 157.1 160.4 162.4 162.2 160.9 158.6 158.2 158.3 157.4 162.2 165.5 167.8 170.6 170.4 169.9 172.1 174.6 175.2 176.2 177.1 177.1 178.1 179.2 180.4 181.6 185.7 187.5 181.6 172.6 167.9 163.9 161.1 157.5 153.3 150.6 147.4 144.3 141.7 138.2 135 132.7 129.7 128.7 127.1 125.1 124.8 122.4 119.7 118.2 116.4 112 103.1 98.1 97.6 104.2 110.6 109.5 108.2 107.9 106.8 103.8 102 99.8 97.7 96 94.3 92.6 90.9 89.8 88.8 86.6 84.1 81.8 79.4 77.2 75.4 55.1 39.5 37.5 36.5 37 53.4 37 33.6 29.4 28.1 17.8 -1.6 -1.6 -1.6 -1.6 -1.6 -1.6 -1.6 -1.6 -1.6 -1.6 -1.6 -1.6 -1.6 -1.6 -1.6 -1.6 -1.6 -1.6 -1.6 -1.6 -1.6 -1.6 -1.6 -1.6 -1.6 -1.6 -1.6 -1.6 -1.6 -1.6 -1.6 -1.6 -1.6 -1.6 -1.6 -1.6 -1.6 -1.6 -1.6 -1.6 -1.6 -1.6 -1.6 -1.6 -1.6 -1.6 -1.6 -1.6 -1.6 -1.6 -1.6 -1.6 -1.6 -1.6 -1.6 -1.6 -1.6 -1.6 -1.6 -1.6 -1.6 -1.6 -1.6 -1.6 -1.6 -1.6 -1.6 -1.6 -1.6 -1.6 -1.6 -1.6 -1.6 -1.6 -1.6 -1.6 -1.6 -1.6 -1.6
183.4 179.4 175 172.6 172.3 171.7 170.4 170.7 170.2 169.7 169 168 166.2 163.3 159.6 152.8 141.5 125.6 122.2 131.8 141.1 144.3 148 148.8 151.1 154.4 155.2 156.7 157.1 157.5 157.2 159 162.4 164.2 163.3 161.9 164.1 164.1 163 162.9 164.1 165.3 166.4 168.8 171.9 173.9 175.1 173.9 172.5 174.4 176.3 177.4 178 178.9 179.4 180.3 181.4 182.6 184 185 184.3 181.8 174.8 168.8 164.8 161.4 157.7 157.2 155.2 150.9 145.8 141.5 137.7 134.5 132.6 131.7 130.8 128.5 128.1 126 123.2 119.9 117.8 115.4 111.1 112.2 108.9 105.7 110.8 112 110.8 111 109.6 107.7 105.3 104 101.9 99.8 98 96.3 94.5 93 92.4 90.5 87.8 85.9 83.3 81.1 79.8 78.7 75.9 43.2 41.3 38.1 49.6 53 34.7 32.2 31.6 28.3 1.9 0 -1.6 -1.6 -1.6 -1.6 -1.6 -1.6 -1.6 -1.6 -1.6 -1.6 -1.6 -1.6 -1.6 -1.6 -1.6 -1.6 -1.6 -1.6 -1.6 -1.6 -1.6 -1.6 -1.6 -1.6 -1.6 -1.6 -1.6 -1.6 -1.6 -1.6 -1.6 -1.6 -1.6 -1.6 -1.6 -1.6 -1.6 -1.6 -1.6 -1.6 -1.6 -1.6 -1.6 -1.6 -1.6 -1.6 -1.6 -1.6 -1.6 -1.6 -1.6 -1.6 -1.6 -1.6 -1.6 -1.6 -1.6 -1.6 -1.6 -1.6 -1.6 -1.6 -1.6 -1.6 -1.6 -1.6 -1.6 -1.6 -1.6 -1.6 -1.6 -1.6 -1.6 -1.6 -1.6 -1.6 -1.6 -1.6
184 181.4 177.5 173 172.5 172.5 172.2 171.6 170.9 170.2 168.5 167.8 164.9 157.4 149.7 140.5 129.5 127 133 141.6 145.3 148.7 150.4 152.5 154.8 156.4 158.1 159.8 160.2 160.2 160.2 161.7 165.2 167.7 168.3 166.7 165.8 166.7 165.8 166.5 168.7 170.2 171.5 173.7 176.3 177.9 178.6 176.6 176.1 177.4 178.9 180.6 180.4 182 183.1 183.7 184.1 185.5 185.7 185.4 183.7 179.9 175.4 170.7 167.2 163.9 162.3 159.6 157.9 153 148.1 143.2 138.7 135.8 134.5 133 132.3 131.5 130.6 128.2 124.8 121.3 118.6 116.3 115 114.8 110.9 111.5 114.5 113.5 113 112.6 111.3 110.2 108.6 106.6 104.5 102.5 100.9 98.8 96.8 94.7 93.3 90.7 88.4 86.8 85.1 83.7 81.3 79.7 77.5 74.1 54.1 43.6 53.7 54.5 35.6 35.6 35.4 22.9 21 0.5 -1.6 -1.6 -1.6 -1.6 -1.6 -1.6 -1.6 -1.6 -1.6 -1.6 -1.6 -1.6 -1.6 -1.6 -1.6 -1.6 -1.6 -1.6 -1.6 -1.6 -1.6 -1.6 -1.6 -1.6 -1.6 -1.6 -1.6 -1.6 -1.6 -1.6 -1.6 -1.6 -1.6 -1.6 -1.6 -1.6 -1.6 -1.6 -1.6 -1.6 -1.6 -1.6 -1.6 -1.6 -1.6 -1.6 -1.6 -1.6 -1.6 -1.6 -1.6 -1.6 -1.6 -1.6 -1.6 -1.6 -1.6 -1.6 -1.6 -1.6 -1.6 -1.6 -1.6 -1.6 -1.6 -1.6 -1.6 -1.6 -1.6 -1.6 -1.6 -1.6 -1.6 -1.6 -1.6 -1.6 -1.6 -1.6
185 182.9 179.4 175 172.7 172.4 172.6 172.2 171.2 170 168.8 166.1 165.8 165.8 157.7 138.7 130.9 140.5 148.2 151.6 149.8 155.9 155.4 157.6 158.2 159.6 160.2 162.1 162.8 162.7 164.1 165.1 167 169.5 169.8 168.9 169.4 170.5 170 169.7 173 174.4 175.2 178 179.5 180.9 181.2 178.2 179.3 181.2 182.7 183.8 184.8 185.9 187.7 187.9 187.9 187.7 187.3 186.8 183.4 179.3 174.9 170.8 168.9 166.3 163.5 160.5 156.9 153.7 149.8 145 141 139.1 138.9 136.6 134.5 133.3 133.6 130.8 126 121.9 119.3 117.5 116 114.5 113.7 115.9 116 115 115.1 114.6 113.4 112.3 111 109.2 106.9 105.3 103.7 101 97.5 95 93.5 91.7 89.9 89.1 88 87.9 85.7 83.8 81.9 79 77 72.5 73.7 49.5 36.6 45.4 41.9 23.7 19.2 -1.6 -1.6 -1.6 -1.6 -1.6 -1.6 -1.6 -1.6 -1.6 -1.6 -1.6 -1.6 -1.6 -1.6 -1.6 -1.6 -1.6 -1.6 -1.6 -1.6 -1.6 -1.6 -1.6 -1.6 -1.6 -1.6 -1.6 -1.6 -1.6 -1.6 -1.6 -1.6 -1.6 -1.6 -1.6 -1.6 -1.6 -1.6 -1.6 -1.6 -1.6 -1.6 -1.6 -1.6 -1.6 -1.6 -1.6 -1.6 -1.6 -1.6 -1.6 -1.6 -1.6 -1.6 -1.6 -1.6 -1.6 -1.6 -1.6 -1.6 -1.6 -1.6 -1.6 -1.6 -1.6 -1.6 -1.6 -1.6 -1.6 -1.6 -1.6 -1.6 -1.6 -1.6 -1.6 -1.6 -1.6 -1.6 -1.6
183.4 181.6 179.2 175.5 173.9 172.8 172.9 172.2 171.4 170.4 169.4 168.2 167.2 167.1 161.1 147.6 138.6 147.7 154.6 159 154.3 158.5 158 159.9 161.2 161.7 162.3 163.7 165.3 166.1 166.3 168.4 168.8 170.2 170.8 171.4 172.3 173.5 173.9 172.8 175.1 177 176.9 179.5 182 182.4 182.1 181.2 183 185 186.8 188.2 190.2 191.2 191.7 191.7 191.1 190.3 190.3 188.6 184.8 181.1 176 174.1 170.7 167.1 164.9 162 158.6 154.2 151.2 148.2 145.4 144.2 143.8 141.5 137.8 135.5 135.9 131.8 127.8 124.3 120.4 118 115.9 114.5 116.9 117.4 117.1 117.2 117.1 116.5 115.3 113.8 112.4 110.5 108.8 107.3 104.6 101.7 99.7 98.6 97.1 94.7 93 93.2 93.1 92.8 91.1 89 85.6 82.8 80.9 78.8 77.5 70.2 45.4 44.1 44.3 34.3 -1.6 -1.6 -1.6 -1.6 -1.6 -1.6 -1.6 -1.6 -1.6 -1.6 -1.6 -1.6 -1.6 -1.6 -1.6 -1.6 -1.6 -1.6 -1.6 -1.6 -1.6 -1.6 -1.6 -1.6 -1.6 -1.6 -1.6 -1.6 -1.6 -1.6 -1.6 -1.6 -1.6 -1.6 -1.6 -1.6 -1.6 -1.6 -1.6 -1.6 -1.6 -1.6 -1.6 -1.6 -1.6 -1.6 -1.6 -1.6 -1.6 -1.6 -1.6 -1.6 -1.6 -1.6 -1.6 -1.6 -1.6 -1.6 -1.6 -1.6 -1.6 -1.6 -1.6 -1.6 -1.6 -1.6 -1.6 -1.6 -1.6 -1.6 -1.6 -1.6 -1.6 -1.6 -1.6 -1.6 -1.6 -1.6 -1.6 -1.6
181.2 179.1 176.8 175 175.9 175.8 174.9 173.9 171.5 170.1 167.1 166 165.9 168.9 167.8 162.3 153.1 148.4 160.6 162.1 158.6 160.1 160.1 162 163.7 164.1 164.5 167 167.8 168.6 169.4 170.4 171.3 172.3 173.2 173.7 174.5 175.4 176.9 176.9 177 178.9 179.6 179.7 182.2 182.6 182.5 184.2 186.1 188.2 190 191.7 192.8 193.8 194.5 194.7 194 192.9 193.1 190.8 187.1 183.3 177.8 177.2 173.1 168.5 166.4 164.3 160.2 155.8 153.6 151.4 149.1 149.1 149.2 145.8 141.7 137.8 137.4 133.1 132.9 127.9 123.3 121.3 118.6 118.1 119.2 119.1 119.5 119.3 119 118.4 117 115.3 113.5 111.8 110.5 107.5 105.4 106 104.8 103.5 102.3 100.7 99.1 98.4 98 97.3 95.9 93.1 89.2 86.1 84.1 81.4 78.9 76.8 68.5 44.7 36.8 1.7 -1.6 -1.6 -1.6 -1.6 -1.6 -1.6 -1.6 -1.6 -1.6 -1.6 -1.6 -1.6 -1.6 -1.6 -1.6 -1.6 -1.6 -1.6 -1.6 -1.6 -1.6 -1.6 -1.6 -1.6 -1.6 -1.6 -1.6 -1.6 -1.6 -1.6 -1.6 -1.6 -1.6 -1.6 -1.6 -1.6 -1.6 -1.6 -1.6 -1.6 -1.6 -1.6 -1.6 -1.6 -1.6 -1.6 -1.6 -1.6 -1.6 -1.6 -1.6 -1.6 -1.6 -1.6 -1.6 -1.6 -1.6 -1.6 -1.6 -1.6 -1.6 -1.6 -1.6 -1.6 -1.6 -1.6 -1.6 -1.6 -1.6 -1.6 -1.6 -1.6 -1.6 -1.6 -1.6 -1.6 -1.6 -1.6 -1.6 -1.6
179.9 177.1 175.5 175.5 177.9 179.2 177.3 175.3 172.7 170.5 166.5 166.5 166.9 171 172.8 167.6 162.3 155.9 164.7 164.1 161.8 163.5 164.2 165.6 166.2 167.3 168.5 169.5 170.3 170.9 171.2 172.2 173.4 174.1 174.9 175.3 175.9 177 178.7 179.7 180.1 180.9 181.8 182.1 183.1 183.1 184.6 186.4 188.2 190.1 191.5 193 194.5 195.6 196.4 196.9 196.8 195.5 194.4 191.8 188.1 184.1 181.7 178.8 174.9 170.7 168.4 165.7 161.4 158.9 157 154.1 152.5 153.1 154 151.1 144.8 140.2 136.9 137.3 136.5 130.7 127.3 124.3 121.6 121.5 122 121.6 121.6 121.3 121.1 120.3 118.8 117.7 114.6 113.3 111.3 111 110 111 110.1 108.7 107.4 106.3 105 103.4 102.1 100.7 99 97 92.4 89.1 86 82.9 80 77.6 75.2 57.6 32.9 1 -1.6 -1.6 -1.6 -1.6 -1.6 -1.6 -1.6 -1.6 -1.6 -1.6 -1.6 -1.6 -1.6 -1.6 -1.6 -1.6 -1.6 -1.6 -1.6 -1.6 -1.6 -1.6 -1.6 -1.6 -1.6 -1.6 -1.6 -1.6 -1.6 -1.6 -1.6 -1.6 -1.6 -1.6 -1.6 -1.6 -1.6 -1.6 -1.6 -1.6 -1.6 -1.6 -1.6 -1.6 -1.6 -1.6 -1.6 -1.6 -1.6 -1.6 -1.6 -1.6 -1.6 -1.6 -1.6 -1.6 -1.6 -1.6 -1.6 -1.6 -1.6 -1.6 -1.6 -1.6 -1.6 -1.6 -1.6 -1.6 -1.6 -1.6 -1.6 -1.6 -1.6 -1.6 -1.6 -1.6 -1.6 -1.6 -1.6 -1.6
179.2 175.5 175.3 176.3 178.6 180.8 178.7 175.6 173.5 172.3 168.4 168.2 170.2 171.3 170.9 167.8 163.3 165.8 165.7 164.8 163.6 165 166.6 167.6 168.9 170.1 171.3 171.7 171.9 172.2 172.4 173.6 174.6 175.5 176.2 176.5 177.1 178.7 180.6 181.9 182.6 183.3 184 184.5 184.8 184.4 185.5 187.4 189.2 190.9 192.3 193.6 195 196.5 197.8 198 197.8 196.2 193.7 191.2 188.7 185.4 183.7 180.3 176.4 173.8 171.6 168.1 164.9 163.2 160.4 158.1 156.7 157.1 157.3 153.4 146.7 142.5 140.4 138.9 137.1 133.2 130.3 127.1 126 125.2 124.9 123.4 123.8 123.5 123.2 122.3 121.3 120.3 118.2 116.6 116.4 117 114.6 115.2 114.4 113.4 112.5 110.7 109 106.6 104.5 102.2 100.4 97.8 95.5 91.2 86 82.7 80.2 78.1 75.1 59.8 31.7 0.6 -1.6 -1.6 -1.6 -1.6 -1.6 -1.6 -1.6 -1.6 -1.6 -1.6 -1.6 -1.6 -1.6 -1.6 -1.6 -1.6 -1.6 -1.6 -1.6 -1.6 -1.6 -1.6 -1.6 -1.6 -1.6 -1.6 -1.6 -1.6 -1.6 -1.6 -1.6 -1.6 -1.6 -1.6 -1.6 -1.6 -1.6 -1.6 -1.6 -1.6 -1.6 -1.6 -1.6 -1.6 -1.6 -1.6 -1.6 -1.6 -1.6 -1.6 -1.6 -1.6 -1.6 -1.6 -1.6 -1.6 -1.6 -1.6 -1.6 -1.6 -1.6 -1.6 -1.6 -1.6 -1.6 -1.6 -1.6 -1.6 -1.6 -1.6 -1.6 -1.6 -1.6 -1.6 -1.6 -1.6 -1.6 -1.6 -1.6 -1.6
177.5 175.3 174.9 175.7 178.7 181 179.4 177 175.1 174 171.9 166.9 167.3 167 165.9 164.1 164.1 165.5 165.8 165.2 165.1 167 168.7 169.8 170.9 172.2 172.7 172.9 173.2 173.4 173.7 174.8 175.8 176.9 177.5 178 178.8 180.9 182.5 183.9 184.6 185.2 185.8 186.4 186.4 186.1 186.9 188.3 189.9 191.1 192.3 193.8 195.2 196 197.1 197.2 197.5 197 194.8 192.3 189.3 187.7 185.6 181.9 179.2 176.6 173.8 170.6 169 166.9 163.6 161.7 160.5 160.8 158 153.7 148.9 146.6 145.2 142 139.3 136.3 133.5 131 130.6 128.2 126.8 125.6 125.8 126.1 126 125.9 124.4 124.1 123.9 121.9 121.5 119.1 118.3 119.3 119 118 116.4 114.2 111.6 109.1 106.1 102.6 99.4 96.4 94.1 90.6 85.1 82.5 80.4 77.9 69.1 42.2 22.7 1.2 -1.6 -1.6 -1.6 -1.6 -1.6 -1.6 -1.6 -1.6 -1.6 -1.6 -1.6 -1.6 -1.6 -1.6 -1.6 -1.6 -1.6 -1.6 -1.6 -1.6 -1.6 -1.6 -1.6 -1.6 -1.6 -1.6 -1.6 -1.6 -1.6 -1.6 -1.6 -1.6 -1.6 -1.6 -1.6 -1.6 -1.6 -1.6 -1.6 -1.6 -1.6 -1.6 -1.6 -1.6 -1.6 -1.6 -1.6 -1.6 -1.6 -1.6 -1.6 -1.6 -1.6 -1.6 -1.6 -1.6 -1.6 -1.6 -1.6 -1.6 -1.6 -1.6 -1.6 -1.6 -1.6 -1.6 -1.6 -1.6 -1.6 -1.6 -1.6 -1.6 -1.6 -1.6 -1.6 -1.6 -1.6 -1.6 -1.6 -1.6
176.1 174.4 173.7 174.8 177.2 180.1 179.5 178 176.3 175.2 172.3 167.7 167.5 167.5 165.9 165.6 165.2 165.7 165.8 166.1 166.7 168.6 170.6 171.8 172.7 174.1 174 173.8 173.8 173.9 174.3 175.4 176.9 178.1 178.3 178.1 180.9 183.6 184.8 185.9 186.2 186.1 187 187.5 187.6 187 187.6 189 190 191.2 192.8 193.7 194.3 195 196.1 197 197.5 197.7 195.6 193.3 192.2 191.1 187.3 183.7 180.2 177 174.2 173.7 173.4 170.4 166.8 165.1 163.8 163.2 159.8 155.1 152.1 151.1 149 146.2 142 138.7 137.4 136 134.1 131.4 129.6 128.1 127.9 128.2 129.5 129.8 129.6 129.8 128.4 126.8 124.1 122.8 123.5 123.5 122.9 122.1 120.9 116.6 112.8 109.9 106.5 102.7 98.1 94.4 91.2 88.2 84 81.7 79.4 75.7 55.9 35.2 12.4 1.1 -0.3 -1.6 -1.6 -1.6 -1.6 -1.6 -1.6 -1.6 -1.6 -1.6 -1.6 -1.6 -1.6 -1.6 -1.6 -1.6 -1.6 -1.6 -1.6 -1.6 -1.6 -1.6 -1.6 -1.6 -1.6 -1.6 -1.6 -1.6 -1.6 -1.6 -1.6 -1.6 -1.6 -1.6 -1.6 -1.6 -1.6 -1.6 -1.6 -1.6 -1.6 -1.6 -1.6 -1.6 -1.6 -1.6 -1.6 -1.6 -1.6 -1.6 -1.6 -1.6 -1.6 -1.6 -1.6 -1.6 -1.6 -1.6 -1.6 -1.6 -1.6 -1.6 -1.6 -1.6 -1.6 -1.6 -1.6 -1.6 -1.6 -1.6 -1.6 -1.6 -1.6 -1.6 -1.6 -1.6 -1.6 -1.6 -1.6 -1.6
175.5 173.7 172.7 173.4 175 178.2 179 177.8 176.7 174.3 172 167.7 168.2 169.7 169.2 167.7 166.7 166.7 166.5 166.4 167 168.6 170.8 172.1 173 173.6 173.2 173.1 173.2 173.2 174.5 175.7 177 177.6 178.2 179.8 182.7 184.9 186.1 186.5 186.6 186.3 186.9 187 187.6 187.5 188.2 189.6 190.3 191.3 192.7 193.2 193.5 194.4 195.4 196.3 197.1 197.8 197.2 196 195.4 194.1 190.5 187 184.2 180.6 176.7 176.7 176.6 173.5 169.7 167.5 165.8 164.6 161.9 157.5 157.1 156.4 155.5 152 147.8 143.5 142 139.9 137.9 135.1 132.4 130.7 130.1 130.9 132.2 133 133.3 133.8 131.9 130 127 126.1 126.4 125.4 124.2 123.1 121.3 118.1 113.7 110.1 106.6 102.6 97.4 93.3 89.7 85.8 81.6 78.7 76.8 66.1 40.4 28 16.3 0.9 -0.3 -1.6 -1.6 -1.6 -1.6 -1.6 -1.6 -1.6 -1.6 -1.6 -1.6 -1.6 -1.6 -1.6 -1.6 -1.6 -1.6 -1.6 -1.6 -1.6 -1.6 -1.6 -1.6 -1.6 -1.6 -1.6 -1.6 -1.6 -1.6 -1.6 -1.6 -1.6 -1.6 -1.6 -1.6 -1.6 -1.6 -1.6 -1.6 -1.6 -1.6 -1.6 -1.6 -1.6 -1.6 -1.6 -1.6 -1.6 -1.6 -1.6 -1.6 -1.6 -1.6 -1.6 -1.6 -1.6 -1.6 -1.6 -1.6 -1.6 -1.6 -1.6 -1.6 -1.6 -1.6 -1.6 -1.6 -1.6 -1.6 -1.6 -1.6 -1.6 -1.6 -1.6 -1.6 -1.6 -1.6 -1.6 -1.6 -1.6
174.6 173.1 172 171.8 173.2 174.8 175.6 176.1 175.7 173.8 170.6 168.7 169.5 169.3 168.8 168.6 167.9 168.5 167.9 165.7 164.9 166.8 169.6 170.8 171.6 172.5 172.5 171.5 171.3 171.3 173.5 175.4 176.2 176.2 176.5 180 182.5 183.5 184.8 185.9 186.3 186.5 186.3 186.6 187.3 188 188.8 190.2 190.9 191.7 192 192.4 193.1 194.1 195 195.9 197.1 198 198.1 198.1 197.8 196.5 193.3 190.5 188 184.5 180.6 180.8 179.8 175.5 172.2 169.7 167.8 166.1 163.4 161.7 161.3 160.5 159.5 156.6 153.6 150.1 146 144.1 142.1 139.5 136.2 134 133.2 133.6 135 135.1 135.9 135.1 132.5 131.1 129.7 128.8 128.2 126.5 124.8 122.8 121 118 113.9 109.6 105.8 101.3 96.5 92.4 88.7 83.8 79.5 76.3 74.3 58 37.7 21 16.7 0.7 -1.6 -1.6 -1.6 -1.6 -1.6 -1.6 -1.6 -1.6 -1.6 -1.6 -1.6 -1.6 -1.6 -1.6 -1.6 -1.6 -1.6 -1.6 -1.6 -1.6 -1.6 -1.6 -1.6 -1.6 -1.6 -1.6 -1.6 -1.6 -1.6 -1.6 -1.6 -1.6 -1.6 -1.6 -1.6 -1.6 -1.6 -1.6 -1.6 -1.6 -1.6 -1.6 -1.6 -1.6 -1.6 -1.6 -1.6 -1.6 -1.6 -1.6 -1.6 -1.6 -1.6 -1.6 -1.6 -1.6 -1.6 -1.6 -1.6 -1.6 -1.6 -1.6 -1.6 -1.6 -1.6 -1.6 -1.6 -1.6 -1.6 -1.6 -1.6 -1.6 -1.6 -1.6 -1.6 -1.6 -1.6 -1.6 -1.6 -1.6
174.7 173.3 172 171.4 171.6 172.1 173 173.4 173.7 172.5 170.1 170.5 170.7 169 167.8 168.6 168.5 169.3 168.3 166.4 164.6 165 168 169.3 170.4 171.5 171.5 169.3 169.7 170.6 172.4 173.8 173.9 174.2 176.6 179.7 181 181.4 182.1 183.6 184.5 184.9 185 185.9 186.5 187.8 189.8 191.3 191.7 191.5 192 192.6 193 194 195 195.9 197 198 198.5 198.7 198.5 197.2 196.3 194.1 191 187.7 184.2 183.4 181.9 178.1 174.8 171.3 169 168.4 167.1 165.6 164.3 162.9 161.2 159.5 157.8 154.3 149.6 146.7 145.1 143.6 140.9 138.2 137.2 137.6 139.2 137.8 138.3 137 134.4 133 131.1 130 129.7 127.9 125.6 123.1 120 117.3 112.9 107.1 104.6 100.3 96.6 92.3 86.8 82.1 78.1 74 69.7 40.5 32 27.2 16.6 0.3 -1.6 -1.6 -1.6 -1.6 -1.6 -1.6 -1.6 -1.6 -1.6 -1.6 -1.6 -1.6 -1.6 -1.6 -1.6 -1.6 -1.6 -1.6 -1.6 -1.6 -1.6 -1.6 -1.6 -1.6 -1.6 -1.6 -1.6 -1.6 -1.6 -1.6 -1.6 -1.6 -1.6 -1.6 -1.6 -1.6 -1.6 -1.6 -1.6 -1.6 -1.6 -1.6 -1.6 -1.6 -1.6 -1.6 -1.6 -1.6 -1.6 -1.6 -1.6 -1.6 -1.6 -1.6 -1.6 -1.6 -1.6 -1.6 -1.6 -1.6 -1.6 -1.6 -1.6 -1.6 -1.6 -1.6 -1.6 -1.6 -1.6 -1.6 -1.6 -1.6 -1.6 -1.6 -1.6 -1.6 -1.6 -1.6 -1.6 -1.6
174.4 173.1 171.8 170.9 171.1 171.3 171 170.8 170.6 169.6 168.6 170.3 170.7 168.7 165.7 166.3 168.6 169 167.9 166.6 164.3 162.5 164 166.9 169.7 170.2 169 166.4 166.8 169.3 170.9 171.1 170.5 170.8 175.9 177.6 177.9 178.6 180.3 180.8 181.9 182.3 184 185.2 186.9 188.2 190.1 191 190.7 191.3 192 192.9 193.3 193.8 194.8 196.7 196.9 197.4 197.4 197.1 197.2 196.7 196.5 196.3 194 190.6 187.2 183.9 182.1 180 176.3 172.8 171.9 171.6 170.1 167.4 165.3 164 162.6 161.1 160.7 157.8 153.2 149.4 148.4 146.7 144.3 142.3 141.3 140.9 141.3 140.3 139.5 138 136 134.3 132.4 130.9 130.7 130.4 128.5 123.9 120.5 117.1 111.8 105.8 99.9 96.4 92.1 86.7 82.1 79.8 76.7 72.7 68.9 44.6 42.3 26.6 1.1 -1.6 -1.6 -1.6 -1.6 -1.6 -1.6 -1.6 -1.6 -1.6 -1.6 -1.6 -1.6 -1.6 -1.6 -1.6 -1.6 -1.6 -1.6 -1.6 -1.6 -1.6 -1.6 -1.6 -1.6 -1.6 -1.6 -1.6 -1.6 -1.6 -1.6 -1.6 -1.6 -1.6 -1.6 -1.6 -1.6 -1.6 -1.6 -1.6 -1.6 -1.6 -1.6 -1.6 -1.6 -1.6 -1.6 -1.6 -1.6 -1.6 -1.6 -1.6 -1.6 -1.6 -1.6 -1.6 -1.6 -1.6 -1.6 -1.6 -1.6 -1.6 -1.6 -1.6 -1.6 -1.6 -1.6 -1.6 -1.6 -1.6 -1.6 -1.6 -1.6 -1.6 -1.6 -1.6 -1.6 -1.6 -1.6 -1.6 -1.6 -1.6
173.4 172.5 171.2 170.7 170.5 170.6 170.5 168.9 168.1 168.8 167.6 167.6 168.7 166.7 163.5 162.9 164 163.7 166.4 166.3 165.5 162.3 159.4 163.8 168.1 165.6 165 161.8 163.9 167.7 168.2 167.6 166.9 169.4 173.9 174.8 174.7 175.9 177.8 178.1 178.8 180.9 183.9 185.1 186.6 188.2 189 189.3 188.8 189.5 192.2 193.2 194.3 194.6 196.8 197.1 195.2 195.2 195.5 196.1 196.2 196.3 196.1 195.7 195.4 192.9 189.3 185.3 181.3 178.8 176.5 174.3 174 173.8 172.3 169.3 166.2 164.9 163.6 162.3 161 160.2 156.7 153.2 149.7 149.1 148 146.4 144.1 142.2 142.2 141.2 140.2 138.7 136.6 135.1 133.9 133.3 131.8 130.2 128 124.5 120.8 117.4 112.7 106.4 99.8 92 85.6 81.8 78.4 76.1 73.8 70.7 66.9 60.2 42.7 25.4 0.9 -1.6 -1.6 -1.6 -1.6 -1.6 -1.6 -1.6 -1.6 -1.6 -1.6 -1.6 -1.6 -1.6 -1.6 -1.6 -1.6 -1.6 -1.6 -1.6 -1.6 -1.6 -1.6 -1.6 -1.6 -1.6 -1.6 -1.6 -1.6 -1.6 -1.6 -1.6 -1.6 -1.6 -1.6 -1.6 -1.6 -1.6 -1.6 -1.6 -1.6 -1.6 -1.6 -1.6 -1.6 -1.6 -1.6 -1.6 -1.6 -1.6 -1.6 -1.6 -1.6 -1.6 -1.6 -1.6 -1.6 -1.6 -1.6 -1.6 -1.6 -1.6 -1.6 -1.6 -1.6 -1.6 -1.6 -1.6 -1.6 -1.6 -1.6 -1.6 -1.6 -1.6 -1.6 -1.6 -1.6 -1.6 -1.6 -1.6 -1.6 -1.6
172.3 171.9 170.5 170.7 170 169.9 169.6 169 166.4 165.4 163.9 164.5 167.1 165.2 161.7 159.8 157.9 157.7 163.4 165.1 164.8 163 157.1 157.9 162.6 162.6 158 157 160.4 163.9 163.8 162.9 164.9 168.1 170.9 171 171.1 173.4 174.4 174.7 177 180.8 182.4 184 185.8 187.3 187.7 186.6 185.8 187.7 190.4 190.8 192.7 195 195.9 194.6 192.9 193.1 194.1 195.3 196.1 196.1 195.5 195 194.8 193.5 190.7 186.2 181.8 178.3 176.3 176 175.7 175.4 173.6 170.8 168.1 165.8 164.6 163.2 161.9 160.9 159.3 156.9 150 149.5 148.8 147.4 144.9 142.9 142 141.5 139.7 138 136.9 136.9 135.8 134.7 133 130.3 127.2 124.2 121.6 118.8 115.1 109.1 102.3 92.7 84.2 79.4 75.8 74.7 71.8 68.5 66 64 46.2 28.9 1.7 0.3 -0.4 -0.8 -1.6 -1.6 -1.6 -1.6 -1.6 -1.6 -1.6 -1.6 -1.6 -1.6 -1.6 -1.6 -1.6 -1.6 -1.6 -1.6 -1.6 -1.6 -1.6 -1.6 -1.6 -1.6 -1.6 -1.6 -1.6 -1.6 -1.6 -1.6 -1.6 -1.6 -1.6 -1.6 -1.6 -1.6 -1.6 -1.6 -1.6 -1.6 -1.6 -1.6 -1.6 -1.6 -1.6 -1.6 -1.6 -1.6 -1.6 -1.6 -1.6 -1.6 -1.6 -1.6 -1.6 -1.6 -1.6 -1.6 -1.6 -1.6 -1.6 -1.6 -1.6 -1.6 -1.6 -1.6 -1.6 -1.6 -1.6 -1.6 -1.6 -1.6 -1.6 -1.6 -1.6 -1.6 -1.6 -1.6 -1.6 -1.6
171.2 171.2 170.3 170.5 170.1 169.4 168.9 168.4 167.2 166.3 163.7 161.3 163 166.5 164.3 160.2 155.5 154.2 158 159.2 160.3 159.9 155.8 151.3 156.4 157.2 154.1 152.8 156.5 158.2 158.3 159.8 163.2 166 167.4 167.3 167.7 169.7 170.1 171.8 175.3 177.2 179.7 182.2 185 185.9 184.8 183.7 182.9 183.9 184.9 185.3 187.2 189.8 191.5 191 190.9 191.5 192.7 194.5 196.1 195.8 195 194.4 194.3 193.5 191.2 187.1 182.8 179.6 177.3 176.5 176.5 175.9 174.1 171.3 168.5 166.5 165.3 164 162.8 161.7 160.4 158.4 150 149 148.1 146 143.8 142.8 142.4 141.4 140 137.9 136.6 136.2 135.7 134.5 132.3 130.9 127.3 123.2 120.9 117.5 115.3 109.4 101.7 93.7 84.8 78.6 72.9 73.2 71.4 67.6 62.9 61.2 59.9 38.3 17.7 1.6 0.8 0.3 -0.5 -1.6 -1.6 -1.6 -1.6 -1.6 -1.6 -1.6 -1.6 -1.6 -1.6 -1.6 -1.6 -1.6 -1.6 -1.6 -1.6 -1.6 -1.6 -1.6 -1.6 -1.6 -1.6 -1.6 -1.6 -1.6 -1.6 -1.6 -1.6 -1.6 -1.6 -1.6 -1.6 -1.6 -1.6 -1.6 -1.6 -1.6 -1.6 -1.6 -1.6 -1.6 -1.6 -1.6 -1.6 -1.6 -1.6 -1.6 -1.6 -1.6 -1.6 -1.6 -1.6 -1.6 -1.6 -1.6 -1.6 -1.6 -1.6 -1.6 -1.6 -1.6 -1.6 -1.6 -1.6 -1.6 -1.6 -1.6 -1.6 -1.6 -1.6 -1.6 -1.6 -1.6 -1.6 -1.6 -1.6 -1.6
168.9 170 170.2 170.3 170.1 169.4 169 168.5 169.4 167.7 165 161.3 157.2 162.3 167.3 163.7 157.8 153.5 150.8 152.2 154.1 155.3 153.8 148.3 149.5 151.8 149.1 149.6 153 154 154.1 157.2 159.6 161.8 163.2 164 165.1 166.1 166.7 169.9 172.4 175 177.6 180.2 182.8 183.5 182.5 181.3 180.4 181 181.8 182.7 184.6 187.2 188.6 188.8 189.3 189.9 191.3 193.1 195.4 195.8 194.9 194.2 193.9 193.1 191.2 187.7 183.1 180.7 178.4 176.5 176.2 174.3 173 171.6 168.8 167.3 165.6 164.2 162.8 161.5 160.9 158.7 154.1 148.5 146.6 143.6 142 141.3 141.1 140.5 139.5 138.2 136.4 135.8 135.8 135.9 135.3 133.3 126.9 121.3 117.7 113.6 109.8 105.3 98.7 91.7 84.8 78 71.9 68 66.1 64.9 59.9 51.5 52.2 46.9 23.7 5.2 1.9 1 0 -0.9 -1.6 -1.6 -1.6 -1.6 -1.6 -1.6 -1.6 -1.6 -1.6 -1.6 -1.6 -1.6 -1.6 -1.6 -1.6 -1.6 -1.6 -1.6 -1.6 -1.6 -1.6 -1.6 -1.6 -1.6 -1.6 -1.6 -1.6 -1.6 -1.6 -1.6 -1.6 -1.6 -1.6 -1.6 -1.6 -1.6 -1.6 -1.6 -1.6 -1.6 -1.6 -1.6 -1.6 -1.6 -1.6 -1.6 -1.6 -1.6 -1.6 -1.6 -1.6 -1.6 -1.6 -1.6 -1.6 -1.6 -1.6 -1.6 -1.6 -1.6 -1.6 -1.6 -1.6 -1.6 -1.6 -1.6 -1.6 -1.6 -1.6 -1.6 -1.6 -1.6 -1.6 -1.6 -1.6 -1.6
168.5 168.7 170.1 170.3 170.5 170.4 169.4 168.8 168.7 167.8 166.5 162.8 154.5 159.3 163.8 165.9 161.9 156.6 151.8 147.2 147.4 148.7 150.3 147.2 143.7 145.8 144.4 146.2 148.9 150 150.7 153.3 155.8 157.4 159.3 161.5 163.2 163.1 164 166.2 168.1 170.9 174.1 177.3 179.7 180.6 180.1 179.1 178.2 178.5 179.4 181 183.3 185.5 186.6 187.1 187.6 188.6 189.7 192 194 194.3 193.9 193.5 192.8 191.9 190.6 187.1 182.7 180 177.8 176.5 174.3 172.8 171.5 170.3 169.1 167.1 165.1 163.3 161.3 160.5 159.8 157.9 154.6 150.2 145.2 143 140.6 140 139.7 140.3 140.2 138.7 136.8 136 135.8 137 136.5 131.8 124.4 117.9 114.3 109.4 104.3 99.6 93.9 88.2 81.9 76.3 69.5 60.3 55 53.2 47.6 44.9 40.4 39.4 29.8 18.4 7.5 1.5 0.6 -0.3 -1.6 -1.6 -1.6 -1.6 -1.6 -1.6 -1.6 -1.6 -1.6 -1.6 -1.6 -1.6 -1.6 -1.6 -1.6 -1.6 -1.6 -1.6 -1.6 -1.6 -1.6 -1.6 -1.6 -1.6 -1.6 -1.6 -1.6 -1.6 -1.6 -1.6 -1.6 -1.6 -1.6 -1.6 -1.6 -1.6 -1.6 -1.6 -1.6 -1.6 -1.6 -1.6 -1.6 -1.6 -1.6 -1.6 -1.6 -1.6 -1.6 -1.6 -1.6 -1.6 -1.6 -1.6 -1.6 -1.6 -1.6 -1.6 -1.6 -1.6 -1.6 -1.6 -1.6 -1.6 -1.6 -1.6 -1.6 -1.6 -1.6 -1.6 -1.6 -1.6 -1.6 -1.6 -1.6 -1.6
166.9 167.8 169.5 170.2 170.4 170.4 170.4 169.6 167.5 165.8 159.9 157.8 153.6 154.4 157.2 158.6 159.5 157.8 155.9 150.4 143.2 143.4 145.4 143.9 139.2 140 139.8 143 145.1 145.4 147.4 150.2 153.1 156.4 158 159.9 161.2 160.5 161.3 163.1 165 168 171.3 174.4 176.1 177.5 177.4 176.8 175.9 176 177.7 180.2 182.3 183.4 184.4 185.4 186.4 187.6 189 191.3 193.3 193 193.1 192.3 191.3 190.1 187.8 184.5 180.9 178.7 176.5 174.3 172.4 171.5 170.4 169.2 168 166.4 164.2 161.8 160 159.5 158.8 156.2 152 148.9 145.3 142.9 139.8 138.5 137.9 139.1 140.4 140 138.4 136.2 136.6 138 135.9 129.4 122.5 116.6 111.3 104.7 99.6 93.2 87.7 82.9 78.1 73.8 70.6 58.9 46.4 42.9 41.4 38.1 34.4 26.2 18.3 19.9 -1.6 2 1.3 0.4 -0.4 -1.6 -1.6 -1.6 -1.6 -1.6 -1.6 -1.6 -1.6 -1.6 -1.6 -1.6 -1.6 -1.6 -1.6 -1.6 -1.6 -1.6 -1.6 -1.6 -1.6 -1.6 -1.6 -1.6 -1.6 -1.6 -1.6 -1.6 -1.6 -1.6 -1.6 -1.6 -1.6 -1.6 -1.6 -1.6 -1.6 -1.6 -1.6 -1.6 -1.6 -1.6 -1.6 -1.6 -1.6 -1.6 -1.6 -1.6 -1.6 -1.6 -1.6 -1.6 -1.6 -1.6 -1.6 -1.6 -1.6 -1.6 -1.6 -1.6 -1.6 -1.6 -1.6 -1.6 -1.6 -1.6 -1.6 -1.6 -1.6 -1.6 -1.6 -1.6 -1.6 -1.6 -1.6 -1.6
165.5 165.3 168.8 169.5 169.1 169.6 169.7 169.4 167.6 164.2 161.4 156.7 153.5 150.4 148.6 149.9 150.9 151.5 153 152 144.9 138.7 138.1 137.2 135.7 134.6 137.9 139.7 140.6 142.7 146.6 150.2 153.8 155.7 156.1 157.4 158.7 157.6 158.3 160.4 162.6 165.4 168.2 170.7 172.5 174.1 174.6 174 174.2 175.1 176.9 178.8 179.8 181.3 182.3 184 185.6 186.8 188.7 190.6 191.9 192.5 190.9 190.4 189.1 186.9 183.9 180.9 177.7 176 174.2 172.3 170.4 169.4 168.7 167.9 166.8 165.1 163.1 159.7 157.8 157.5 157 153.8 150 146.4 143.4 141.2 138.4 136.7 137.1 137.8 139.8 140.7 137.8 135.4 137 138.1 133.9 127.1 121.1 114.6 107.4 100.1 93.5 87.4 82.2 78.5 75.1 71.9 65 50.4 40.9 36.8 35.2 33.3 31 21.6 13.5 2.6 -1.6 12 4.3 1.2 0.4 -0.4 -1.6 -1.6 -1.6 -1.6 -1.6 -1.6 -1.6 -1.6 -1.6 -1.6 -1.6 -1.6 -1.6 -1.6 -1.6 -1.6 -1.6 -1.6 -1.6 -1.6 -1.6 -1.6 -1.6 -1.6 -1.6 -1.6 -1.6 -1.6 -1.6 -1.6 -1.6 -1.6 -1.6 -1.6 -1.6 -1.6 -1.6 -1.6 -1.6 -1.6 -1.6 -1.6 -1.6 -1.6 -1.6 -1.6 -1.6 -1.6 -1.6 -1.6 -1.6 -1.6 -1.6 -1.6 -1.6 -1.6 -1.6 -1.6 -1.6 -1.6 -1.6 -1.6 -1.6 -1.6 -1.6 -1.6 -1.6 -1.6 -1.6 -1.6 -1.6 -1.6 -1.6 -1.6
163.4 161.5 165.3 167 166.4 168 166 168.1 166.1 162.8 159.1 157.8 155.2 150.3 150.8 144.7 145 145.9 144.8 144.2 140.3 136.8 134.5 133.1 133.4 130.7 133.1 135.7 139.7 142.9 145 148.5 151.3 153.1 153.3 155 156 155.5 155.7 156.9 159.4 162 164.6 166.9 169.2 171.3 171.8 171.6 172.9 175.5 176.9 176.9 177.3 179 180.6 182.9 184.7 186.5 188.4 190.2 190.9 189.9 188 187.2 186 183.3 179.9 177 174.9 173 171.1 169 167.3 166.2 165.6 164.7 163.2 161.8 159.9 156.7 153.6 152.6 152.3 149.9 146.3 143.5 140.7 138.7 137.6 135.6 136.6 137.4 138.9 139.6 136.8 134 135.7 134.5 131.4 124.7 118.4 110.9 103.6 96.6 90.7 84.2 79.5 75.7 72.5 66.3 54.9 42.9 35.6 29.8 28.8 25.6 22 16.8 8.2 7.9 20.2 21 11 2.2 1.2 0.5 -0.3 -1.6 -1.6 -1.6 -1.6 -1.6 -1.6 -1.6 -1.6 -1.6 -1.6 -1.6 -1.6 -1.6 -1.6 -1.6 -1.6 -1.6 -1.6 -1.6 -1.6 -1.6 -1.6 -1.6 -1.6 -1.6 -1.6 -1.6 -1.6 -1.6 -1.6 -1.6 -1.6 -1.6 -1.6 -1.6 -1.6 -1.6 -1.6 -1.6 -1.6 -1.6 -1.6 -1.6 -1.6 -1.6 -1.6 -1.6 -1.6 -1.6 -1.6 -1.6 -1.6 -1.6 -1.6 -1.6 -1.6 -1.6 -1.6 -1.6 -1.6 -1.6 -1.6 -1.6 -1.6 -1.6 -1.6 -1.6 -1.6 -1.6 -1.6 -1.6 -1.6 -1.6
161.7 159.5 160.6 162.2 161.3 162.3 160.5 164.4 162.7 160.2 158.6 157 154.4 148.4 147.2 144.6 141.7 142.3 140.9 137.3 135.1 133.4 130.7 130.9 130.2 128.7 128.9 135.2 138.3 140.1 142.2 145.5 148 149.6 150.6 151.7 153 153.3 152.8 154 156.4 158.9 160.6 163 165.6 167.6 168.6 168.9 170.6 174.1 174.8 175.1 176 178.1 179.5 181.7 184.1 186 187.9 189.1 188.8 187.3 185.3 183.7 182.5 180.6 177.5 174.6 172.8 170.4 167.6 164.6 163.5 162.2 160 158.9 157 155.2 153.9 151 148.1 146.3 145.9 144.9 142.5 140.4 138.1 137.1 136.5 134.9 135.7 136.6 137.2 137.8 136.5 132.7 132.3 131.2 127.8 121.8 114.6 107.1 99.8 93.1 88.2 83.1 77.5 71.1 65.3 57.3 51.2 39 32.6 28.6 22.2 16.5 5.4 2.6 7.6 15.2 27.2 35.9 25.6 12 2.7 1.3 0.7 -0.3 -1.6 -1.6 -1.6 -1.6 -1.6 -1.6 -1.6 -1.6 -1.6 -1.6 -1.6 -1.6 -1.6 -1.6 -1.6 -1.6 -1.6 -1.6 -1.6 -1.6 -1.6 -1.6 -1.6 -1.6 -1.6 -1.6 -1.6 -1.6 -1.6 -1.6 -1.6 -1.6 -1.6 -1.6 -1.6 -1.6 -1.6 -1.6 -1.6 -1.6 -1.6 -1.6 -1.6 -1.6 -1.6 -1.6 -1.6 -1.6 -1.6 -1.6 -1.6 -1.6 -1.6 -1.6 -1.6 -1.6 -1.6 -1.6 -1.6 -1.6 -1.6 -1.6 -1.6 -1.6 -1.6 -1.6 -1.6 -1.6 -1.6 -1.6 -1.6 -1.6
160.4 158.9 156.8 156.3 156.1 156.7 156.4 157.6 157.4 156.6 156.1 154.3 150.2 145.1 140.6 140.9 140.1 139.3 138.1 135.6 133.7 131.5 129.4 128.1 128.9 127.3 126.4 131.3 133.7 136 138.6 141.3 142.1 143.4 145.6 146.7 149 150.8 150.2 151.3 153.3 155.3 156.6 158.5 161.5 164.1 165.5 166.6 168.1 170.6 173.5 175.4 176.6 178.3 178.3 181.1 183.5 185.1 186.6 187.1 186 184.3 182 180.3 179 177 175.7 173 170.2 167.2 163.6 159.9 156.5 154.6 152.9 150.4 148.4 147.2 146.3 144.6 141.7 139.5 139.5 139.9 139.3 137.6 136.5 135.5 135.4 134.9 133.6 133.7 135.1 135.9 136 132.5 129.2 127.3 124.2 117.9 110 102.6 95.9 89.5 83.9 77.4 70.4 60.9 51.4 46 44 35.4 27.3 22 16.6 11.6 4.9 13.4 16 23.7 37 48.6 41.1 23.2 9.3 2.5 1.6 0.8 -0.2 -1.6 -1.6 -1.6 -1.6 -1.6 -1.6 -1.6 -1.6 -1.6 -1.6 -1.6 -1.6 -1.6 -1.6 -1.6 -1.6 -1.6 -1.6 -1.6 -1.6 -1.6 -1.6 -1.6 -1.6 -1.6 -1.6 -1.6 -1.6 -1.6 -1.6 -1.6 -1.6 -1.6 -1.6 -1.6 -1.6 -1.6 -1.6 -1.6 -1.6 -1.6 -1.6 -1.6 -1.6 -1.6 -1.6 -1.6 -1.6 -1.6 -1.6 -1.6 -1.6 -1.6 -1.6 -1.6 -1.6 -1.6 -1.6 -1.6 -1.6 -1.6 -1.6 -1.6 -1.6 -1.6 -1.6 -1.6 -1.6 -1.6 -1.6 -1.6
157.8 157.4 156.9 155.3 152.6 152.2 152.1 152.8 153.3 153.1 152.6 150.2 145.7 143.4 139.8 138.2 137 135.9 134.5 133.7 130.1 128.7 127.5 127.4 126.8 126.6 124.4 126.2 128.4 129.5 132.2 135 135.8 137.1 138.9 141 144.3 147.4 147 148.2 150 150.9 152.1 154 157 160.7 164.3 165.1 165.5 168.2 171.2 173.2 175.8 177.8 177.9 180.8 181.7 183.2 184.2 184.4 183.3 180 177.6 175.2 175.2 174.1 172.2 167.1 164.1 160.5 155.9 151.6 148 146.4 144.7 142.5 139.9 139.2 138.6 137.9 135.6 133.4 134 134.5 135.7 133.9 133.4 133.2 134 132 130.1 130.1 131.3 133.2 133.2 130.3 126.8 123.8 120.1 113.2 105.4 97.3 89.9 83 74.9 63.9 54.9 47.2 39.9 34 32.5 26.9 19.5 13.9 9.5 7.1 17.2 22.8 28.7 39 49.2 49.4 36.9 26.2 12.2 -1.6 2.2 2 1 -0.3 -1.6 -1.6 -1.6 -1.6 -1.6 -1.6 -1.6 -1.6 -1.6 -1.6 -1.6 -1.6 -1.6 -1.6 -1.6 -1.6 -1.6 -1.6 -1.6 -1.6 -1.6 -1.6 -1.6 -1.6 -1.6 -1.6 -1.6 -1.6 -1.6 -1.6 -1.6 -1.6 -1.6 -1.6 -1.6 -1.6 -1.6 -1.6 -1.6 -1.6 -1.6 -1.6 -1.6 -1.6 -1.6 -1.6 -1.6 -1.6 -1.6 -1.6 -1.6 -1.6 -1.6 -1.6 -1.6 -1.6 -1.6 -1.6 -1.6 -1.6 -1.6 -1.6 -1.6 -1.6 -1.6 -1.6 -1.6 -1.6 -1.6 -1.6
152 152.9 153.3 154.6 153.1 150.1 147.4 150.6 150.5 150.1 148.8 146.3 144.7 144.1 141.3 138.8 136.9 136.4 135.9 134.9 131.8 127.3 124.5 123.5 123.6 123.2 123 123.6 123.5 122.9 125 127.8 131 131.7 132.7 135.4 139.3 141.7 142.4 144.2 146.2 146.3 147 149.3 152.4 156.6 161.8 163.3 163.9 166.3 168.2 170.6 174.2 174.6 176.8 178.9 179.3 180.6 181.4 180.8 178.2 174.2 171.3 170.1 169.9 168.7 165.4 158.9 156.1 151.8 147 144.4 139.6 139.2 139.5 136.3 133.1 132.5 131.1 130.5 129.8 127 128.9 128.9 130.2 129.9 129.8 130.7 131.3 129 126.7 125.9 127.9 129.8 128.8 127.2 123.9 119.6 114.6 107.8 100.1 91 82.2 74.1 64.7 53.5 42 34.5 28.9 25.1 22.3 19.9 14 10.4 18.6 22.4 29.4 37.8 45.8 50.7 48.6 38.3 26.8 16.2 -1.6 -1.6 4.5 3.7 2.5 0.9 -0.4 -1.6 -1.6 -1.6 -1.6 -1.6 -1.6 -1.6 -1.6 -1.6 -1.6 -1.6 -1.6 -1.6 -1.6 -1.6 -1.6 -1.6 -1.6 -1.6 -1.6 -1.6 -1.6 -1.6 -1.6 -1.6 -1.6 -1.6 -1.6 -1.6 -1.6 -1.6 -1.6 -1.6 -1.6 -1.6 -1.6 -1.6 -1.6 -1.6 -1.6 -1.6 -1.6 -1.6 -1.6 -1.6 -1.6 -1.6 -1.6 -1.6 -1.6 -1.6 -1.6 -1.6 -1.6 -1.6 -1.6 -1.6 -1.6 -1.6 -1.6 -1.6 -1.6 -1.6 -1.6 -1.6 -1.6 -1.6 -1.6 -1.6
147.6 147.5 146.2 145.8 147.3 145.7 142.6 145.7 148 148.2 147.3 147.1 147.3 145.2 143.3 141.1 138.4 135.6 134.9 133.6 130.4 125.6 125.5 124.1 122.5 121 121.7 122.1 122 122.3 120.9 122.5 125.2 124.6 126.8 129.6 132.9 136.2 137.4 138.8 140.9 139.7 140.3 142.8 147.9 153.5 158.2 160.2 159.6 161.6 164.3 166.1 169.5 169.2 173.5 175.9 177.2 177.7 177.5 176.1 173.1 169.1 165.4 165.1 164.3 162.5 158.4 153.3 148.2 142.2 140.5 138.2 133.1 134 133.8 131.2 127.7 126.5 125.3 124.6 122.9 120.5 122.5 122.8 124.1 124.8 124.9 125.2 125.7 124.1 123.1 121.7 124.2 126.2 125.5 123.3 120 114.8 108.1 102.6 95.2 86.2 74.9 63.4 53.9 45.3 37.2 26.3 18.4 20.5 16.8 24 22.7 27.7 35.9 39.4 43.9 50.4 50.3 43.2 33.6 24.2 13.2 6.3 -1.6 6.6 9.4 9.2 6.2 3.4 1.9 0.6 -1.6 -1.6 -1.6 -1.6 -1.6 -1.6 -1.6 -1.6 -1.6 -1.6 -1.6 -1.6 -1.6 -1.6 -1.6 -1.6 -1.6 -1.6 -1.6 -1.6 -1.6 -1.6 -1.6 -1.6 -1.6 -1.6 -1.6 -1.6 -1.6 -1.6 -1.6 -1.6 -1.6 -1.6 -1.6 -1.6 -1.6 -1.6 -1.6 -1.6 -1.6 -1.6 -1.6 -1.6 -1.6 -1.6 -1.6 -1.6 -1.6 -1.6 -1.6 -1.6 -1.6 -1.6 -1.6 -1.6 -1.6 -1.6 -1.6 -1.6 -1.6 -1.6 -1.6 -1.6 -1.6 -1.6 -1.6 -1.6
146.5 145.4 145 144.5 143.2 142.5 142.5 140.1 142.5 143 144.8 146.6 146.6 144.8 143.8 142.1 139.7 135.6 131.1 128.5 127.8 126.4 128.9 126.8 124.9 122 121.1 120.9 121.6 122.3 120.1 118.9 117.9 116.7 119.4 120.9 124.6 131.9 130.9 133.5 136 133.2 132.9 139 144.9 149.3 152.4 154.9 151.6 153.3 154.5 157.9 162.2 163.8 167.8 171.7 172.8 171.9 172.1 171.2 167.8 163.8 160.7 159.3 158.5 157.2 153.3 146 138.8 135.7 134.4 132.1 128.1 128.8 127.4 125.3 122.6 120 118.5 117.9 115.9 115.1 116.2 116.3 117.8 118.3 118.1 117.4 117 116.3 117.1 117.1 119.1 121.1 120.8 118.1 114.5 109.3 102.2 96 90.5 80.8 66.6 53.7 44.6 38 34.6 24.6 35 28.7 31.8 39.5 44.1 46.7 51.6 52.9 51.5 44.4 34.1 24.8 16.9 11 6.2 7.5 9.5 12.1 15.2 14 13.2 11.4 6.7 3.1 1.8 1 0.2 -0.2 -1.6 -1.6 -1.6 -1.6 -1.6 -1.6 -1.6 -1.6 -1.6 -1.6 -1.6 -1.6 -1.6 -1.6 -1.6 -1.6 -1.6 -1.6 -1.6 -1.6 -1.6 -1.6 -1.6 -1.6 -1.6 -1.6 -1.6 -1.6 -1.6 -1.6 -1.6 -1.6 -1.6 -1.6 -1.6 -1.6 -1.6 -1.6 -1.6 -1.6 -1.6 -1.6 -1.6 -1.6 -1.6 -1.6 -1.6 -1.6 -1.6 -1.6 -1.6 -1.6 -1.6 -1.6 -1.6 -1.6 -1.6 -1.6 -1.6 -1.6 -1.6 -1.6 -1.6 -1.6
148.7 148.3 147.6 147.1 146 144.9 144.7 141.3 139.5 138.5 138.3 140.3 141 141.8 141.4 140.3 138.3 135.2 131.3 130.4 129.3 130.5 131.2 129.1 127.2 123.2 120.4 119.8 119.3 119 117.8 116.9 113.9 116.5 116.4 114.1 116.1 124 122.8 128.8 130.6 127 132.4 138.1 140.7 142.8 144.8 147.5 146.3 145.6 150.1 154 154.9 157.3 161.4 167.2 167.9 167.3 168 166.2 162.6 158.9 155.9 154.4 153.3 151 144.8 137.4 132.1 129.7 128 125.8 123.3 123.2 121.6 119.8 117.5 114.9 112.8 111.1 110.2 110.3 110.1 110 111.2 111.8 111.5 110.8 109.7 110.8 112.4 112.3 114.3 115.2 114.1 111.6 108.4 103.6 96.1 88.6 80.5 69.5 56.5 45.7 34.7 22.3 23.8 21.6 37.2 45.2 46.6 51.4 56.2 57 57.1 53.4 43.3 27.4 16 7.2 6.2 6.2 9.6 15.4 18 18.1 18.8 17.4 16.7 17.6 14.1 13.2 8 2.8 2.1 1.3 0.5 -1.6 -1.6 -1.6 -1.6 -1.6 -1.6 -1.6 -1.6 -1.6 -1.6 -1.6 -1.6 -1.6 -1.6 -1.6 -1.6 -1.6 -1.6 -1.6 -1.6 -1.6 -1.6 -1.6 -1.6 -1.6 -1.6 -1.6 -1.6 -1.6 -1.6 -1.6 -1.6 -1.6 -1.6 -1.6 -1.6 -1.6 -1.6 -1.6 -1.6 -1.6 -1.6 -1.6 -1.6 -1.6 -1.6 -1.6 -1.6 -1.6 -1.6 -1.6 -1.6 -1.6 -1.6 -1.6 -1.6 -1.6 -1.6 -1.6 -1.6 -1.6 -1.6 -1.6
147.2 146.6 146 145.4 144.9 144.1 143.2 141.4 140 140.3 138.8 138.9 136.2 135.7 137.6 137.3 134.3 133.1 131.2 133.8 134.5 134.4 133.5 131.6 128.5 124.2 120.3 119.8 119.4 118.2 117.8 116.8 119.1 121.7 122.5 122.2 113 113.6 113.7 121 123.1 124.6 130 132.5 132.8 134.7 137.2 140.4 140.5 142.7 148.3 149.3 150.7 153.4 157.1 161.4 163.3 164.3 164.4 161 157.3 153.7 151 148.8 146.3 140.9 132.7 128.2 125.6 123.6 121.6 120.1 118.7 118.6 116.7 114.8 113.3 111.5 109.5 106.5 104.8 106.1 106.1 105.5 105.6 106.8 106.2 105.5 105 106.5 107.7 106.5 106.8 107.5 106.9 103.9 99.7 90.8 82.1 75.2 67.5 57.1 47.5 38.5 24.4 40.2 45.4 36.8 49.3 55.2 57 59.3 60.1 59.7 55.4 42.8 29.5 16.4 5.8 9.7 14.3 12.5 23.9 34.9 33 25.1 22.5 20.2 18.8 20 23.2 31 24 14.7 9.9 3.2 2.2 1.2 -1.6 -1.6 -1.6 -1.6 -1.6 -1.6 -1.6 -1.6 -1.6 -1.6 -1.6 -1.6 -1.6 -1.6 -1.6 -1.6 -1.6 -1.6 -1.6 -1.6 -1.6 -1.6 -1.6 -1.6 -1.6 -1.6 -1.6 -1.6 -1.6 -1.6 -1.6 -1.6 -1.6 -1.6 -1.6 -1.6 -1.6 -1.6 -1.6 -1.6 -1.6 -1.6 -1.6 -1.6 -1.6 -1.6 -1.6 -1.6 -1.6 -1.6 -1.6 -1.6 -1.6 -1.6 -1.6 -1.6 -1.6 -1.6 -1.6 -1.6 -1.6 -1.6
146.1 144.5 143.5 142 141.2 139.9 139.8 139 138.5 139.6 140.3 140 138.8 138.6 136.4 134.6 134.6 137.6 136.9 136.2 135.4 134.7 133.5 133.3 131 128.7 124.7 119.7 119.2 118.9 120.2 119.8 121.7 122.1 123 123.6 122.7 117.9 110.2 114.4 116.9 120.8 124.1 125.7 125.6 126.8 130.4 133.1 134.3 138.6 142.3 144.2 145.8 149.6 153.7 156.4 158.6 161 159.5 155.5 151.5 148 145.3 141.1 136.5 131.4 126.9 123.6 121.1 119.1 117.1 116.1 114.9 114.2 112.7 111.2 109.8 108.1 106.4 103.4 100.4 101 101.7 101.9 100.7 101.7 101.6 101.1 101.3 101.8 101.9 96.3 94.4 94.5 94.3 90.4 84.5 68.4 59.5 55.4 50.8 43.4 37.6 29.1 33.7 52.5 56.6 58.7 59.6 58.8 58.9 57.9 57.4 54.6 45.1 31.6 18.5 5.7 9.4 19.3 22.5 23.1 37.9 48.6 46.7 33.8 26.7 24.2 24.5 27.5 31.8 42.8 42 33 25.1 16.2 11.3 4.7 2.6 1.4 -1.6 -1.6 -1.6 -1.6 -1.6 -1.6 -1.6 -1.6 -1.6 -1.6 -1.6 -1.6 -1.6 -1.6 -1.6 -1.6 -1.6 -1.6 -1.6 -1.6 -1.6 -1.6 -1.6 -1.6 -1.6 -1.6 -1.6 -1.6 -1.6 -1.6 -1.6 -1.6 -1.6 -1.6 -1.6 -1.6 -1.6 -1.6 -1.6 -1.6 -1.6 -1.6 -1.6 -1.6 -1.6 -1.6 -1.6 -1.6 -1.6 -1.6 -1.6 -1.6 -1.6 -1.6 -1.6 -1.6 -1.6 -1.6 -1.6 -1.6
148.2 145.1 141.7 139.7 137.8 137.2 136.6 136.5 136.5 136.6 136.7 136.2 135.4 134.8 134.7 135.2 134.7 135.4 136.1 135.8 134.5 133.5 132.3 132.6 132 130.7 127 123.3 121.8 121.3 121.7 121.4 122.6 122.9 123.2 124 123.7 121.8 119.6 111.4 110.3 114 119 119.2 119.4 120.7 123.3 125.8 129.8 133 135.1 137.5 139.6 144.1 150.1 155.3 156.4 156.6 153.8 149.6 145.9 143 138.9 133.6 129 125.9 123.6 120.6 118.9 117.1 115.5 114.2 113.2 110.9 109.2 107.8 106.4 105.6 105.4 103.3 98.2 92.6 92.6 93.4 92.1 92 93 94.4 92.9 90 87.7 82.2 79.7 79.8 79.5 76.4 64.4 38.5 28 28.9 23.7 24.9 21.3 28.1 49.1 56.2 54.6 50.1 48.5 46.8 43.9 42.6 43.5 44 35.4 24.1 12.8 5.9 15.7 22.7 25.3 31.1 46.8 51.9 50.4 42 36.8 33.3 34.1 36.7 39.7 46.8 48.9 47 44 34.5 21.5 18.4 12.9 5.1 2.7 1.8 1.1 0.5 -0.2 -1.6 -1.6 -1.6 -1.6 -1.6 -1.6 -1.6 -1.6 -1.6 -1.6 -1.6 -1.6 -1.6 -1.6 -1.6 -1.6 -1.6 -1.6 -1.6 -1.6 -1.6 -1.6 -1.6 -1.6 -1.6 -1.6 -1.6 -1.6 -1.6 -1.6 -1.6 -1.6 -1.6 -1.6 -1.6 -1.6 -1.6 -1.6 -1.6 -1.6 -1.6 -1.6 -1.6 -1.6 -1.6 -1.6 -1.6 -1.6 -1.6 -1.6 -1.6 -1.6 -1.6 -1.6 -1.6
149.7 147.9 143.7 139.5 136.9 135.2 134.4 132.8 131.7 131.5 131.9 131.7 131.7 131 131.2 131.8 132.1 131.5 132.8 132.3 131.8 131.7 131.2 131 130.6 129.2 127 124.2 123.2 122.8 122.7 122.7 123.1 123.5 123.8 123.6 123.5 121.6 119.6 118.2 111.9 106.5 115.7 117.3 116.9 118.5 121.2 122.5 125.2 127.2 129.7 132 136 142.1 149.2 152.3 152.3 150.8 147.9 143.9 140 136.5 132.8 127.8 124.4 123.1 122.2 119.7 117.3 115.9 114.4 113.1 111.6 109.5 108 106.2 103.7 101.2 101.8 102.3 100.2 92.2 85.2 84.5 83.9 83.9 83.3 81.9 80.8 76.1 72.1 69 66.8 65.6 64.1 58.7 39.4 28.8 41.4 43.2 42.8 44.7 45.8 49.8 49.9 45.8 42.1 37.2 32.2 29.2 27.8 28.5 30.7 32.2 29 19.8 11.7 10.8 18 23.7 26.5 34.5 48.3 52.7 55.2 50.6 45.5 44.2 44 45.3 45.6 50.9 50.6 49.7 47.9 45.2 32.3 33.5 25.7 18.5 13.6 4.3 2.1 2.5 1.6 0.4 -1.6 -1.6 -1.6 -1.6 -1.6 -1.6 -1.6 -1.6 -1.6 -1.6 -1.6 -1.6 -1.6 -1.6 -1.6 -1.6 -1.6 -1.6 -1.6 -1.6 -1.6 -1.6 -1.6 -1.6 -1.6 -1.6 -1.6 -1.6 -1.6 -1.6 -1.6 -1.6 -1.6 -1.6 -1.6 -1.6 -1.6 -1.6 -1.6 -1.6 -1.6 -1.6 -1.6 -1.6 -1.6 -1.6 -1.6 -1.6 -1.6 -1.6 -1.6 -1.6 -1.6 -1.6
147.4 147.6 144.8 139.6 136.8 135.3 130.7 128.1 124.9 126.1 125.2 123.6 126.5 124.8 127.4 128.3 131.3 134.3 131.2 128.8 128.5 128.1 128.6 129.6 129 127.8 126.3 126.1 125.9 124.4 123.2 123.6 124 123.9 124 123.8 123 121.2 119.2 116.8 113.9 104.1 110.8 114.7 116 118.3 120.4 120.4 121.7 124.5 127.1 130.8 134.2 140.2 145.7 147.3 145.5 144 141.6 138 133.8 130.5 126.8 123.4 119.9 120 120.2 118.5 116.7 115.1 113.4 112.1 110.1 108 106.3 105.5 103.3 97 95.1 97.3 98.6 93.9 84.6 76.8 74.9 74.7 74.3 70.7 68.6 64.5 61.1 58.1 55.7 54.2 52 44.4 28.8 38.4 56.9 61.6 60.6 57.3 55.4 47.1 40.3 34.8 32.1 29.4 24.9 21.2 19.1 19.1 21.8 20.6 16.8 14 9.7 14.9 20.6 25.6 35.3 43.5 49.6 54 56.1 56.7 55 52.6 50.9 50.7 52 52.7 51.8 50.8 49 46.2 35.8 44.9 41.5 32.2 23.7 18.6 6.6 5.8 4.4 3.1 1.9 1.6 1.2 0.6 0.3 0.2 0 -1.6 -1.6 -1.6 -1.6 -1.6 -1.6 -1.6 -1.6 -1.6 -1.6 -1.6 -1.6 -1.6 -1.6 -1.6 -1.6 -1.6 -1.6 -1.6 -1.6 -1.6 -1.6 -1.6 -1.6 -1.6 -1.6 -1.6 -1.6 -1.6 -1.6 -1.6 -1.6 -1.6 -1.6 -1.6 -1.6 -1.6 -1.6 -1.6 -1.6 -1.6 -1.6 -1.6 -1.6 -1.6 -1.6 -1.6
138.9 145.2 143.1 134.9 128.6 127.6 126.2 128.9 131.6 128.3 127 123.6 121.3 120.4 122.1 125.5 129.5 133.3 132 131 129.5 127.3 126.2 126.9 127.6 127.1 128.2 129.1 129.5 129 126.6 125.1 123.6 123.3 123.1 123.3 122.5 122.1 120.4 117.7 110.9 105.6 107 112.6 116.7 118.6 119.2 117.1 121.1 123.1 125.8 128.9 132.8 138.7 142.6 142.8 140.3 138.2 135.2 131.7 127.9 125.3 122.9 120.2 117.2 117.3 118.3 117.4 115.7 113.9 112.2 110.8 108.5 106.4 104.8 101.2 100.8 94.4 86.8 89.4 94.1 93.9 87.8 78.3 67.4 66.2 65.6 63.7 61.7 58.1 54.5 50.9 47.9 45.7 41.8 34.4 34.9 51.4 67 68.9 66.7 61.7 47.9 36.8 29.9 26.2 24.6 22.1 19.3 16.3 14.5 14.9 11.7 12.9 13.1 16.1 16.6 19.4 24.3 29.8 45.3 50.6 52.2 55.3 56.2 56.7 56.6 56.4 54.5 54 54.6 54.4 52.9 51.4 49.5 46.4 45.8 45.4 43 40.4 38.7 24.7 20.3 23.2 19 12.8 7.4 3 2.2 2.6 2.2 1.9 1.5 1 0.3 -1.6 -1.6 -1.6 -1.6 -1.6 -1.6 -1.6 -1.6 -1.6 -1.6 -1.6 -1.6 -1.6 -1.6 -1.6 -1.6 -1.6 -1.6 -1.6 -1.6 -1.6 -1.6 -1.6 -1.6 -1.6 -1.6 -1.6 -1.6 -1.6 -1.6 -1.6 -1.6 -1.6 -1.6 -1.6 -1.6 -1.6 -1.6 -1.6 -1.6 -1.6 -1.6 -1.6 -1.6 -1.6
132 134.1 136.5 130.6 130.2 131.5 135.7 137 135.9 133 127.8 129.9 127.4 125.2 120.1 121.2 121.5 121.4 126.2 130.6 128.5 127.5 126.1 123.7 127 128.8 129.1 128.6 127.4 123.3 121.9 123.4 122.8 122.2 122.5 122.7 122.3 122.2 121.6 119.6 113.6 104.6 104.7 111.6 116.2 117.5 117.6 115 118.1 119.8 122.3 126.1 131 135.4 138.3 137.8 135.3 132.8 129.9 126.4 122.8 120.8 119 117 114.9 114.5 116.8 115.8 114.3 112.6 110.9 109.4 106.8 105.8 104.1 101.2 93.7 89.4 81.1 80.1 85.4 89 88.1 79.3 67.2 58.9 56.6 58 55.5 52 48.2 44 40.2 37.8 33.2 35.2 44.7 59.1 70.4 67.8 60.7 51.4 38.9 29.6 24.1 19.2 16.6 12.4 14.7 18 25.3 26.7 26.5 26.8 27.8 26.4 23.3 27 36.3 35 50.5 53 54.4 56.7 57.9 58.5 58.4 58.2 57.7 56.8 55.8 54.9 53.4 51.5 49.3 46.8 46 44.2 38.9 27.8 18.9 9.3 15.8 27.8 32 23.5 22.7 26.7 15.3 13.1 3.8 3.6 3.3 2.8 2.4 2.1 1.6 1 0.6 0.4 0.5 0.2 -0.2 -0.3 -0.2 -0.4 -0.8 -1.6 -1.6 -1.6 -1.6 -1.6 -1.6 -1.6 -1.6 -1.6 -1.6 -1.6 -1.6 -1.6 -1.6 -1.6 -1.6 -1.6 -1.6 -1.6 -1.6 -1.6 -1.6 -1.6 -1.6 -1.6 -1.6 -1.6 -1.6 -1.6 -1.6 -1.6 -1.6 -1.6
138.5 132 133.3 135.4 140.4 139.8 139.1 137.6 134.4 133.4 135.8 133.6 131.7 131 128.1 127 125.3 124.3 117.8 120.7 119.6 118.6 118.6 117.2 122.8 126.2 122.2 118.1 113.1 114.6 110.7 111 111.5 116.2 122.4 122.3 121.8 121.4 121.3 120.3 117.8 112.5 101 106.2 112.4 109.3 111.6 110.6 115.1 116.9 119.3 123.3 127.8 131.7 132.2 132.5 131 128.6 125.9 122.9 119.9 117.2 115.4 113.8 111.7 112.4 114.5 113.4 112.1 110.7 109.3 107.6 105.9 102.8 102.9 99.9 92.2 82.4 74.3 71 75 78.9 79 73.6 63.7 55.3 49.2 46.6 45.7 43.2 41.6 37.8 36.9 36.2 38.9 46.6 57.9 65.9 63.6 57.4 47.7 38.3 30.7 25.3 21 18.3 22.7 25.3 28 33.4 41 42.4 42.6 43.3 43.6 43 40.9 44.7 52.3 42.8 50 54.9 56 58.1 59.4 60.2 59.9 59.6 59.2 58.3 57.2 55.4 53.1 50.7 49 47.6 37.6 26.8 16.9 13.4 14.2 11.6 23.8 31.8 38.7 36.8 35.7 37.1 35.1 24.9 21.2 25.4 23.9 13.9 6.7 3.7 3.4 3.1 2.7 2.4 -0.1 1.9 1.4 1.1 1 0.7 0.3 -0.1 -1.6 -1.6 -1.6 -1.6 -1.6 -1.6 -1.6 -1.6 -1.6 -1.6 -1.6 -1.6 -1.6 -1.6 -1.6 -1.6 -1.6 -1.6 -1.6 -1.6 -1.6 -1.6 -1.6 -1.6 -1.6 -1.6 -1.6 -1.6 -1.6 -1.6 -1.6 -1.6
144.1 141 142.1 143.1 142.5 138.9 139.8 140 139.8 139.5 137.8 136.2 135.6 134.5 133 130.9 124.2 123.1 118.2 115.8 115 114.8 114.2 113.6 114.4 113.3 112.1 117.6 121.9 124.4 122.2 117.1 113.7 108.2 111.6 122.2 122.2 120.6 120.1 120.1 119.1 114.8 105.3 99.7 102.9 101.3 100.6 102.7 110.6 113.5 117.1 121 124.2 127 128.9 128.6 127.7 125.4 122.6 120.3 117 113 111.5 109.6 107.5 109.8 109.8 110.2 109.4 108.4 107.3 105.9 104.2 100.8 93.8 91.6 87.9 79 69.4 61.2 63.1 65.6 66.7 63.3 59.8 52.3 43.5 39.4 38.8 40.7 41 42.6 43.5 43.8 50 60.4 60.9 56.5 50.6 43.7 37.6 31.7 24.4 20.4 20.9 27.3 34.1 39.9 43.7 49.6 56.2 59.1 59 57.7 55.4 57.1 57.3 57.5 54.8 42.2 51.1 56 57.8 59.5 61.5 61.8 61.4 61 60.5 59.3 58 55.4 53.1 51.6 48.8 37.6 20.1 22.7 28.8 29.1 14.2 24.9 37.2 43.6 42.4 40.1 38.7 38.2 37.1 36.3 33.2 35.2 31.1 26.1 31.9 35.4 28.2 24.1 14 13.4 14.9 3.1 3 3 6.2 1.8 1.4 0.7 -1.6 -1.6 -1.6 -1.6 -1.6 -1.6 -1.6 -1.6 -1.6 -1.6 -1.6 -1.6 -1.6 -1.6 -1.6 -1.6 -1.6 -1.6 -1.6 -1.6 -1.6 -1.6 -1.6 -1.6 -1.6 -1.6 -1.6 -1.6 -1.6 -1.6 -1.6 -1.6
145.8 145.6 145.5 145.4 142.3 144.9 144 142.5 142.6 141.5 139.8 138.4 137.6 135.5 133.2 131.9 131.3 130.9 130.2 131.9 118.1 123.5 124.4 121.2 117.3 121 123.7 125.4 127.2 128.3 127.9 124.8 122.1 115.6 107 111.1 119.2 119.7 118.2 117.7 113 109.2 99.1 99.3 99.2 98.6 97.7 98.5 101.6 107.4 112.4 117.8 120.6 122.4 123.7 124 124.8 122.8 120 116.7 113.6 110.9 107.7 105 105.3 104.9 104.2 103.2 100.5 104.1 104.4 103 101.7 98.4 84.1 76.5 74.5 71.4 63.8 55.7 52.1 54 54.7 53.4 50.2 44.7 47 48.6 50.1 52.5 55.6 57.1 57.6 59.5 60.2 57.1 51.5 45.1 39.6 34.9 29.5 25.1 18.9 27 30.9 37.2 44.9 52.7 57.9 61.9 65.6 65.3 62.2 60.4 59.5 59 58 55 46.9 50.9 53.1 57.7 59.4 62.1 64 63.5 63 62.4 61.3 59.9 57.6 55.8 54.8 52.9 44.4 30.8 23.5 45.3 46.8 36.1 16.7 35.9 48.3 48.1 46 43.4 41.3 39.5 38.9 37.7 36.5 36.2 35.9 35.3 34.7 34.6 33.6 34.9 35.2 36.3 35.8 34.6 27.3 11.6 19.8 17 10.4 4.9 1.3 0.5 -0.2 -1.6 -1.6 -1.6 -1.6 -1.6 -1.6 -1.6 -1.6 -1.6 -1.6 -1.6 -1.6 -1.6 -1.6 -1.6 -1.6 -1.6 -1.6 -1.6 -1.6 -1.6 -1.6 -1.6 -1.6 -1.6 -1.6 -1.6 -1.6 -1.6
146.9 146.6 146.1 145.4 144.5 145 146.3 145.6 144.5 143.4 141.8 139.8 137.8 135.8 135 133.9 134.3 134.1 133.2 134.5 131.6 129.3 127.5 125.1 125.1 128.7 129.3 129.7 130.7 130.3 129.8 127.8 125.1 119.5 109.1 106.1 106.5 109.3 112.6 109.5 102.9 98.3 101.6 105.6 105.2 101 101.1 97.2 97.4 99.3 104.7 112.6 115.7 117.9 119 119.8 121.1 120.6 118.2 115 110.7 108.6 105.3 101.8 102.6 100.1 97.6 93.7 88 88.6 89.9 88.1 87.4 84.5 75.4 66.3 62.5 58.5 58 51.2 49.5 47.7 44.1 44.3 49.7 52.3 55.1 58.6 59.5 58.8 60 60.6 58 55.1 51.8 48.2 41.3 37.9 33.3 24 22.5 27.3 30.6 35.8 45.3 53.1 57.4 63 66.9 67.9 68.3 66.7 63.3 61.7 60.9 57.6 53.9 49.9 51.7 57.1 57 58.7 61.7 64.9 65.6 65.1 64.4 63.2 61.9 60 58.1 57.4 56.6 54.5 43.9 29.1 33.9 53.1 45.9 29.2 19.4 41.7 52.1 50.6 49.4 47.5 45.3 43.1 40.8 39.9 38.9 37.4 37.3 36.8 35.6 34.5 33.9 34.4 34.2 36.4 36.3 35.1 16.3 27.4 30.2 32.4 30.9 22 15 6.7 1.7 1 0.3 -0.4 -1.6 -1.6 -1.6 -1.6 -1.6 -1.6 -1.6 -1.6 -1.6 -1.6 -1.6 -1.6 -1.6 -1.6 -1.6 -1.6 -1.6 -1.6 -1.6 -1.6 -1.6 -1.6 -1.6 -1.6 -1.6 -1.6
150.6 150.1 149.8 148.8 147.2 145.1 147.7 147.9 146.8 144.8 142.5 141.1 139.7 138.8 137.1 135.6 136 136.6 136.7 135.8 133.6 130 128.5 128.9 130.4 133 133.3 133.1 132.6 131.5 130.5 128.7 125.5 122 117.9 109 102.3 100.5 101.6 103.1 101.5 111.9 113.4 116 112 106.2 103.7 100.5 101.1 98.7 96.8 103.7 108.4 112.7 114.1 115.5 117.3 118.8 116.2 112.6 108.4 105.5 103 97.8 96 93.2 89.1 83.6 77.7 74.7 75 74.1 75.1 71.4 65.5 60.2 53.7 47 50.4 45.1 49.2 47.3 50.7 54.8 59.6 60.8 59.7 56.5 54.2 49.7 46.1 44.2 43.9 42 40.3 36.8 32.1 30.9 27.4 22.9 31.1 38.6 43.1 45.6 55.6 64.4 66.8 68.3 69.2 69.2 68.2 66.1 63.8 62.1 59.2 56 56.5 53.6 57.3 59.1 59.2 60.9 64.7 67 67.4 66.8 65.5 63.4 61.5 59.8 59.8 59.4 58.8 57.3 45.7 27.6 43.7 56.5 46.8 25.7 29.6 46.6 54.8 53.6 53.3 51.6 49.3 46.5 43.5 42.3 41 38.9 37.8 36.7 35.3 33.9 33.2 32.4 33 35.1 34.3 30.4 18.6 31.6 33.7 34 35.7 36.9 36.1 25.6 17.6 10.6 1.9 1.3 0.6 -1.6 -1.6 -1.6 -1.6 -1.6 -1.6 -1.6 -1.6 -1.6 -1.6 -1.6 -1.6 -1.6 -1.6 -1.6 -1.6 -1.6 -1.6 -1.6 -1.6 -1.6 -1.6 -1.6 -1.6 -1.6
160.5 159.3 158.2 155.4 152.5 149.6 148.9 150.1 148.4 146 143.7 143 142.8 140.9 139.1 137.6 137.5 137.7 137.2 136.1 134.6 133.9 133.5 134.6 136.1 136.9 136.3 135.5 134 132.5 130.4 128.3 124.9 120.2 115 116.3 120.5 115 117 118.4 118.7 120.1 120.5 119.3 115.1 110.8 107.8 109 112.7 107.1 99.1 97.7 98.8 105 107.3 108.8 112.8 115.2 113.4 110 106.6 103.3 98.5 93.9 91.3 85.4 77.2 71.7 68.4 64.9 62.9 63.6 64.2 62.4 58.8 53.9 45.9 53.4 56.8 61.2 61.9 60.3 61.2 59.2 56.7 53.8 50.4 45.6 40.7 36.5 32.4 31.6 31.3 30.9 30 27.8 25.7 25.1 26.3 31.2 39.8 49.3 55.5 53.7 60.3 67.4 69.5 69.3 69.2 69 67.5 65.4 62.3 59.8 59.3 59.5 59.9 58.1 59 60.3 60.2 62.9 67.1 68.9 68.7 67.8 65.7 63.7 61.7 60.5 60.6 60.8 60.6 59 46.1 31.2 52.2 55.5 42.1 24.9 37.6 46.4 53.1 57.6 57.2 55.2 52.5 49.6 46.2 44.6 43.5 41.1 38.7 36.8 35.5 34.5 33.5 32.6 30.5 30.6 28.7 19.7 25.9 35.3 37.3 36.7 37.6 39.7 40 40.3 32.7 33.4 26 13.3 6.2 1.7 0.6 -0.3 -1.6 -1.6 -1.6 -1.6 -1.6 -1.6 -1.6 -1.6 -1.6 -1.6 -1.6 -1.6 -1.6 -1.6 -1.6 -1.6 -1.6 -1.6 -1.6 -1.6 -1.6 -1.6
167.6 166.4 164.6 161.6 158 154.7 150.1 150.7 149.4 147.2 145.5 144.4 143.7 142.9 141.8 140.9 140.5 140.3 140.2 139.6 139.5 139.7 139.7 140.7 141.3 140 138.3 135.7 133.3 131.6 129.4 126.8 122.6 117.9 115.1 122 124.7 125.1 124.6 122.9 123.2 122.5 121.6 120.8 118.5 114.5 111 113.1 115.5 115.2 113.1 109.9 97.4 94.9 95 95.4 102.4 109.7 109.5 107.2 103.3 98 87.4 83.8 87.6 78.8 58.6 55.8 58.3 56.4 53.9 54.6 55.6 53.5 51.6 44.5 59.7 67.3 74.1 76.8 74.1 66.6 59.4 52.1 46.9 42.9 40.2 34.5 31.2 31.5 32.3 32.7 30.1 28.6 26.5 28.3 28.5 29.7 33.5 38.4 47.4 57.3 63.5 59.8 64.3 70 70.8 70.1 69.4 68.8 67.1 65.3 63.3 62.3 61.8 61.9 61.3 60.2 61.6 62.6 62.1 65.6 69.2 70.2 69.8 68.2 66.6 64.3 62.4 61.4 61.6 62.3 62.2 58.7 43.9 35.7 49 37.5 31.4 34.2 42.4 46.9 53.2 59.5 61.9 59.1 55.8 52.4 48.5 47.8 46 43.2 40.4 38.5 36.9 36.4 36 34.2 33.9 33.6 30.7 16 34.9 38.5 39 40.8 41.9 42.3 41.9 42 41.2 42.3 44 31.7 17 11.7 6.3 1.3 0.5 -0.3 -0.8 -1.6 -1.6 -1.6 -1.6 -1.6 -1.6 -1.6 -1.6 -1.6 -1.6 -1.6 -1.6 -1.6 -1.6 -1.6 -1.6 -1.6 -1.6 -1.6
169.5 168.6 166.7 164.7 161.6 156.2 151.8 151.8 150.4 148.9 147.8 147.4 146.1 146 146.7 146.3 145.5 145.5 145.7 144.9 144.1 143.8 144 144.1 143.5 140.9 137.8 134.8 131.7 129.8 127.2 124.3 120.1 118.6 119.8 124.9 126.9 127 126.7 125.9 124.9 123.9 123 121.9 120.3 118 115.1 115.2 117.5 118.2 117.5 115.1 109.6 106.3 99.6 93.5 90.3 96.8 99.3 94 88 83.8 83.6 75.3 75 66.1 67 64.7 64.1 61.7 61.1 60.6 57.5 59.1 58.9 63.2 68.7 76.4 80.4 80 76.8 65.5 53.5 44 37.8 35.2 33.5 31.1 36.4 36.6 37.3 36.6 34.5 31.7 30.8 32.5 33.9 36.5 40.6 47.2 56.9 65.8 67.3 65.4 70 72.2 72.1 71.4 70.6 69.7 68.1 66.1 64.5 63.8 63.4 62.8 62.2 62.1 63.7 64.3 64.6 68.5 71.1 71.3 70.2 68.6 67.1 65.5 63.6 62.4 62.1 62.8 61.8 50.8 35 44.3 43.1 41.9 45.1 48 49.3 53.1 60.9 66.2 65.3 63 59.3 54.6 50.2 51.8 49 45.7 42.8 40.8 39.5 39.2 38.8 38 37.4 36.5 34.1 16.1 36.3 40 42.1 43.7 45.2 45.1 44.4 44 44.5 44.2 45.5 46.2 41.2 34.8 27.9 15.4 1.9 1.1 0.5 0.1 -0.3 -0.6 -1.6 -1.6 -1.6 -1.6 -1.6 -1.6 -1.6 -1.6 -1.6 -1.6 -1.6 -1.6 -1.6 -1.6 -1.6 -1.6
167.3 165.7 164.2 162.5 159.4 154.2 154.1 153.3 152.4 151.8 152.3 151.5 151 151.9 152.5 151.7 151.2 149.9 147 146.1 145.6 144.9 144.7 144.2 142.9 140.3 137.2 133.5 130.1 127.2 124.3 122.4 123.4 124.8 125.8 127.3 127.9 127.5 126.7 126.5 125.7 124.6 123.4 122.5 121.4 119.3 119 119 118.9 118.5 118.4 117.9 115.7 115.1 111.7 104.3 98 89 91.2 96.4 101.2 101.1 99 88.4 82.8 78.5 71.7 67.4 64.9 62.7 61.3 59.2 55 55 55.1 55.1 59.6 66.4 71.7 72.6 69.1 58.2 46 38.2 35.7 38.9 40.4 42.6 43.4 42.8 42.9 42.5 41.3 41 38.2 35.1 41.4 47 53 60.4 68 72.7 70.7 69.8 71.2 72.7 73.4 72.5 71.6 70.7 69.2 67.2 65.9 64.9 64.1 63.6 63.1 63.6 64.7 65.3 67.4 70.8 73.1 72.3 70.7 69.2 67.6 66.1 65 63.6 62.6 63.5 57.6 42.5 45.8 48.1 45.6 53.1 57 58.5 60 64.8 69.6 68.4 66.7 64.8 61.5 56.3 52.8 55 52 48.7 45.6 43.6 41.8 41.3 40.7 41.2 40.6 39.4 36 20.5 37.1 41.7 45.2 46.6 47.2 47.8 47.5 47.2 47.5 47.2 46.8 47.5 48.5 49 47.9 36.2 21.1 5.8 1.8 1.3 0.9 0.6 0.3 0.1 0.1 0 -0.2 -0.5 -0.4 -0.5 -0.6 -0.7 -0.8 -0.7 -0.5 0.5 -1.6 -1.6
166.9 164.9 163.8 161.4 161.1 160 160.7 159.7 156.5 157.1 157.4 157 156.2 156.3 156 154.2 152.4 151.4 148.5 145.8 143.3 142.4 143 143 142.1 139.6 135.9 132.1 128.3 125 123.3 123.6 125.6 127.5 127.8 128.2 128.2 127.4 126.6 126.1 124.9 123.9 123.3 122.5 121.3 120.4 119.7 118.8 118 118.1 117.8 117.7 116.9 116 114.9 112.5 110.7 103.9 102.7 106 104.5 104 103.6 98.9 90.1 79.7 69.7 63.5 59.8 57.3 53.4 49.7 49.1 49.8 45.5 43.5 44.5 52.9 55 56.1 54.6 45.8 38.2 34.5 43.9 50.3 53 55.3 53.7 51.2 51.1 51.6 52.4 53.2 48.6 42.2 48.1 58.4 68.3 72.6 74.7 74.5 73.9 73.4 73.8 74.5 74.5 73.6 72.7 71.7 69.8 68.2 67.1 66.3 65.4 64.6 64.1 64.6 65.5 66.8 70.5 74.1 75.8 73.9 71.8 70.1 68.5 66.9 66.6 65.5 64.7 65 52 38.7 56.3 48.8 48.4 59.6 67.1 70.7 72.4 71.7 70.5 69.6 68.2 65.5 60.7 55.5 56.3 57.5 55.1 52.1 48.7 46.8 45 43.1 42.4 43.1 42.9 41.5 40.1 28.7 38.7 44 46 47.4 48.6 49.4 50.3 50.1 49.6 48.8 47.9 48.6 49.5 49.6 49.5 48.6 40.8 27.7 15.6 7.5 2.7 1.9 1.6 1.4 1.3 1.2 1 0.8 0.8 0.8 0.6 0.6 0.6 0.5 0.6 1.2 -1.6 -1.6
167.4 166.8 165.6 164.4 164.6 164.7 164.5 163 160.8 159.9 159.2 159.1 158.7 157.7 156.2 154.5 153.3 152.6 149.9 145.9 141.1 138.5 138.3 139.8 140 137.8 134.2 130.2 126.6 124 123.9 125.2 127.4 128.4 128.7 128.4 127.6 127 126.4 125.5 124.3 123 122.1 120.7 119.6 118.1 116.8 115.8 114.4 113.8 114.8 116.2 115 113.2 111.8 109.6 107.7 106.8 104.6 101.2 99.1 98 98.3 94 82.9 71.7 63.9 57.1 52 49.8 47.6 45.9 46.5 46.1 44.4 43.2 44.3 43.3 41.4 40.5 41.2 48.7 52 49 51.4 54.8 63.3 67.2 65.2 62.9 63.4 65.3 65.2 65.2 59.5 49 50 66.5 79.2 77.7 76.8 76 75.2 75.1 75.7 75.8 75.6 74.6 73.7 72.5 70.6 69.3 68.3 68 66.7 65.9 65.2 65.9 66.9 68.4 72.6 76.8 78.3 75.9 73.2 71.5 69.8 68.5 68.4 67.6 66.8 63.7 48.9 48.5 58.6 48.3 49.7 64.3 73.1 75 73.7 71.7 70.4 69.9 67.2 62.4 59.2 58.5 59.7 59.1 57 54.1 51.2 48.8 46.4 44.4 44.1 44.7 44 40.4 39.2 35.7 41.3 42.8 46 49.2 50 51.4 51.7 51.9 50.4 49 49.1 49.5 50.1 50 49.7 49 48.3 47 40.5 33.1 26.2 22.1 14.6 11.2 9 2.5 3.2 2.7 4.1 2.2 1.9 1.9 1.9 1.7 1.7 -1.6 -1.6 -1.6
171 170.4 167.3 167 166.9 166.7 165.3 164.3 162.8 161.7 160.9 160.1 159 157.6 155.7 153.4 152.6 151.8 150.6 148 143.1 136.8 133.3 132.8 132.5 130.9 129.7 127.8 125.2 125 124.7 125.9 128.5 129.3 128.8 127.9 127.1 126.5 125.9 124.4 122.6 120.9 119.2 116.8 114.6 112.9 111 110 109.2 108.2 109.3 111.1 107.3 100.6 100.5 100.8 99.5 99.5 97.4 95 92.9 89.4 86.1 78.5 70.3 62.8 57 51.4 48.2 50.7 50.2 53.5 54.8 53.8 49.9 51.3 54.9 58.9 58.2 41.9 57.6 65.9 65.4 53.3 53.3 55.4 63.9 76.6 77.9 78.2 80.1 79.4 75.9 74.8 65.8 54.2 49.6 67.7 79.8 81 78.6 77.7 76.6 76.4 76.9 77.2 76.6 75.6 74.7 73.3 71.8 70.6 70.2 69.2 68 67.4 67 67.6 68.6 71.2 75.8 79.4 80.5 78 75.1 73.2 71.3 69.9 69.7 68.7 65.6 52.3 47.5 56.9 51 48.5 56.4 69.2 75.2 75.9 73.4 71.1 70 68.6 64.3 62.9 64 63.2 62.2 58.7 59.3 56 53.2 50.4 47.4 45.3 45.2 44 42.1 34.9 30.1 30.2 41.1 45.5 47.9 49.1 50.3 52.1 52.9 52.8 52 49.8 50.2 50.8 50.5 50.4 49.9 49.3 49 48.6 47.2 45.8 44.9 44.4 41.7 40.9 35.6 30.5 28.9 26.6 26.4 32.2 32.1 31.8 31.6 27.3 9.1 -1.6 -1.6 -1.6
173.8 170.9 169.2 169.1 168.4 166.8 165.5 164.9 163.7 162.4 161.2 160.2 159 157.9 155.6 153.1 151.4 149.8 148.5 147.7 144.4 137 133.2 129.6 128.9 128.3 127.2 126.3 126.5 126.1 125.7 127.1 129.2 129 127.6 126.3 125.1 124.5 123.7 122.8 121.7 118.8 114.3 110.9 108.3 104.4 101.7 98.9 99.8 99 97.6 96 91 86.1 84.2 85.8 86.7 86.4 86.6 84.8 78.4 71.8 62.6 58.6 59.4 54.5 51.3 51.5 55.4 60.1 59.9 60.9 62.2 61.1 60 61.6 65.7 71.1 60.5 62.9 82.4 93.4 74.6 61.2 55.8 56.1 62.4 75.2 91.1 91.8 91.1 88 86.1 83.5 69.1 50.9 60.5 59.6 76.9 84.4 81.4 79.1 78.7 78.8 78.6 78.6 77.9 77.2 76.5 75.4 74.1 72.9 72.8 72.4 70.4 70.1 70 70 73 77.7 81.2 82.7 82.3 79.5 77.7 75.2 73.5 72 71 67.8 55.5 49.4 63.2 56.5 47.5 54.9 65.8 75.3 78 76.2 73.9 71.6 69.5 66.5 66.6 68.1 66.9 65 64.1 63.5 58.6 59 55.7 52.7 48.7 46.3 45.5 43.5 42.3 42.4 41.2 37.8 38 42.5 44.6 47.1 49.8 52.2 53.4 53.4 53.3 52.8 52.2 50.7 50.7 50.8 50.3 49.8 49.5 49 48.3 47.5 46.9 46 44.5 42.6 41.6 39.9 39.3 38.6 37.6 36.6 35.4 34.2 33.2 17 8.6 -1.6 -1.6 -1.6
174.5 172 170.7 169.9 168.5 166.7 165.7 164.9 164 162.7 161.6 160.6 159.6 158.5 156.2 154.2 152.4 151.3 150.7 146.3 140.7 136.5 133.5 129.2 127.5 127.9 126.8 127.8 128.1 127.4 126.8 127.8 127.8 126.4 124.4 123 120.3 118.7 117.2 118.1 119.3 116.4 108.6 104.4 100.4 95.4 91 88.3 89 90 87.7 83.5 79.6 77.5 75.6 72.9 72.1 71.5 68.6 71.9 62.5 67.9 67.6 60.9 53.8 52.5 53.7 60.5 65.3 68.1 68.2 67.4 68 69.7 70.7 72.8 77.4 81.7 60.4 92.9 99.4 100.8 89.7 68 63.4 63.1 63.2 81.1 96.6 97.4 95.1 93.6 91.9 84.1 69.5 59.4 69.5 71.8 79 86.9 85.4 82.4 81.4 81.7 81.5 80.9 80.4 79.7 79 78.1 77.2 76.6 76.2 76.7 76 73.7 74.1 76.3 80.5 84.1 84.8 85.4 83.5 81.1 79.8 78.2 76.5 74.4 67.8 59 47.8 62.2 68.7 49.1 50.5 60.2 67.3 75.9 78.8 78 75.2 73.3 71.3 68.1 72.1 71.5 70 67.7 67.1 67.4 65.9 62.8 59.9 56.5 52.9 49.9 48.3 44.2 44.4 45.7 44.6 42 41.7 45.3 44.5 46.5 49.2 51.6 53.1 54.2 54.5 54.8 53.7 52 51 50.6 50.3 49.4 48.7 48.6 48.3 47.7 47.9 46.9 45.9 44.1 42.4 41.6 40.8 40.1 38.9 37.8 36 34.1 33.1 19.7 8.1 -1.6 -1.6 1.6
175.6 173.4 171.9 170.4 168.8 167.3 165.9 165 164.1 163.1 162 160.8 159.7 158.6 157.1 155.4 153.6 151.8 147.3 142.9 137.3 131.4 126 127.5 124.4 128.1 129.4 129.8 128.7 128.3 128 127.1 124.5 121.1 117.8 110.2 106.2 101.6 101 105 109.7 113.8 103.3 95.9 90.3 83 79.3 75.4 76.8 77.7 77.6 69.7 75.2 76.1 73.3 79.1 88 84.2 74.7 67.3 69.5 74.1 71 67.5 60.5 57.4 53.6 66.9 71.7 74.6 74.5 73.3 74.1 77.4 79.1 82 87.5 95.5 73.7 95.7 102.9 105 106 101.9 85.6 82.7 88.1 97.8 100.8 100.9 99.6 97.6 94.4 84.2 64.5 68.5 78.6 82 79.6 90.8 89.7 85.8 84.3 84.4 84.1 83.3 83.2 83.2 82.7 82.6 82.1 82.3 82.2 82.3 82.9 82.7 84.1 86.9 87.8 88.3 88.2 87 84.7 83.2 82.1 80.8 76.4 64.2 52.9 53.4 61.3 63.9 55.1 49.3 57.4 68.6 74.3 76.9 79.7 79.4 78.8 76.7 73.8 74.6 76.4 74.6 72.8 70.7 72 73.1 70.6 67.3 64.1 60.6 56.9 53.3 50.1 43.6 48.3 47.3 46.4 45.3 44.6 49 48.5 49 50.2 51.4 52.9 54.5 55.7 56.4 55.5 53.7 51.9 50.5 49.5 48.2 47.4 47.3 47.4 48 48.5 48.6 47.4 45.5 44.2 43.3 42.4 41.6 40.2 38.8 36.6 34.6 32 23.4 -1.6 -1.6 -1.6 2.4
176.7 174.8 173.4 171.6 169.9 168.4 167.2 166.2 165 163.6 162.1 160.6 159.3 158.5 156 153.6 151.9 147.9 142.4 139.3 137.3 134.2 120.6 111.6 113.3 123.3 130.1 129.9 129.2 127.8 124.9 123.4 120.5 116.8 108.2 95.6 92.5 93.5 89.8 90.4 94 108.3 99.3 86.1 79.4 84.8 91.6 86.7 83 79.3 77.3 84 89.2 88.2 82.6 84.9 93.9 91.1 80 73.1 77.4 79.7 77.1 74.6 70.8 66.3 61.4 68.1 74.8 78.5 79.7 79.8 82.7 86.3 87.5 91.3 101.8 103.9 94.9 97.1 106.3 110.2 112.1 113 111.6 109.3 107.3 106.1 106.1 105.5 104.1 102.2 97.8 89.4 70.2 74.6 87.7 90.1 78.4 96 94.4 90.8 88.8 88 88 87 86.9 87.2 87.9 88 89.1 90.1 90.8 89.5 91.5 92.9 93 91.8 92.3 90.9 90.2 88.6 86.4 85.7 82.9 77.2 65.1 55.4 61.5 72.9 70.5 56.8 53.1 51.9 61.7 67.7 77.3 80.7 81.5 81.8 82.3 80 77 79.2 80.8 79.4 77.2 74.7 77.6 80.7 79.6 73.5 68.5 64.4 60.2 55.1 49 49.6 49.9 48.8 48.3 47.7 46.1 50.6 50.8 51.2 52 52.5 53.7 55.3 56.7 57.4 57 55.1 53.3 51.8 48.8 47.2 46.3 45.7 46.1 46.7 47.6 48.6 48.3 47.1 46.1 45 43.7 42.1 40.6 39 36.5 33.7 31.8 27.8 -1.6 -1.6 -1.6 1.4
177.3 176.2 174.8 173 171.2 169.7 169.1 168.4 166.4 163.9 162.1 160.4 159.5 158.5 155 151.8 147.7 143.3 140.7 139.4 136 121.6 118 127 120.2 108.6 125.5 129.8 128.1 125 121.3 115.3 111.8 104.2 96.6 96.9 106.9 106.8 100.3 95.7 87.5 102.4 87 86.9 93.5 97.1 101.4 97.2 92.3 92.5 93 95.7 100 97.3 88.5 87.7 96.9 96.4 85.6 82.3 87.2 89.7 85.1 80.3 78.5 73 65.1 69.5 77.5 82.6 85.9 90.1 94.7 98.3 98.1 104.3 111 108.4 100.1 100.5 110.6 116.5 120.3 122 119.6 115.4 112.4 111.2 110.2 110 108.5 106.7 104.3 98.6 80.9 89.3 92.5 96.7 96 89.2 101.3 95.3 95.2 95.2 94 92.7 91.8 92.7 94 95.2 96.3 98.6 99.4 97.6 97.3 98.5 97.7 97.4 95.9 93.9 91.5 89.9 88.1 85 77.4 68.9 75.1 73.3 76.2 75 66.6 53.4 65.3 60.6 66.2 76 80.6 83 84.5 84.9 84.5 82.1 81 83.1 84.5 83.7 81.1 79.2 82.6 87.4 85.1 79.6 73.3 67.7 61.2 54.6 43.8 54.6 52.5 51.3 50.9 49.7 49.5 52.3 52.9 53.5 53.8 54.1 54.9 56.1 57.6 58.3 57.8 56.4 54.1 52.8 49.8 46.6 45.6 45.6 45.6 46 47.1 48 48 47.2 46.1 44.9 43.7 42.3 40.6 38.7 35.4 32.2 29 17.9 -1.6 -1.6 -1.6 2.4
177.5 176.9 175.6 173.8 172.3 171.6 170.8 169.9 167.3 164.9 162.5 159.9 158.6 156.7 153.2 149.1 141.7 136 133.5 133.1 122.3 117.8 130.7 127.5 124.5 116.3 115.4 127.2 125.3 120.2 110.1 99.1 94.2 95.6 101.3 108.3 117.9 118.2 109.2 97.7 92.6 96 87.6 100 107.7 110.1 109.3 107.8 106 105.5 106 107.2 110 106.1 93.8 89.8 101.7 101.7 90.3 93.1 101.7 103.7 96.8 86.4 82.1 76.8 66.1 75.2 83.5 92.6 98.2 102.9 108 111.8 108.5 112.3 114.7 112.1 103.4 99.4 110.3 119.8 124.2 125.7 124.4 119.9 116.6 115.5 114.7 114.1 113.4 111.6 109.7 97.7 104.6 103.3 100.3 101.1 103.4 96.9 104.6 100.6 101.1 102.3 101 100.3 99.7 101.3 102.1 103.4 103.8 105.5 105.4 103 103 104.4 102.8 101.2 98.4 95.4 93 91.1 88 78.9 74.3 81.6 79.8 76.6 76.6 73.8 63.5 57.6 72.7 66.1 66.2 77.2 83 86 87.3 87.9 86.5 84.6 84.1 85.2 86.2 87.2 87 85 85.6 90 91.9 84.9 76.1 68.6 60.3 51.4 55.3 58.3 55.7 54 53.5 51.5 51.8 54 54.7 55.2 55.5 55.9 56.3 57.1 59.6 59.6 58.8 57.7 54.7 53.1 51 47.4 45.9 45.6 44.5 45.6 46.5 47.1 47.3 47 46 44.5 43.2 42.2 40.8 37.6 33.9 29.9 26.2 18.2 5.7 -1.6 -1.6 5.9
177.8 177.2 176.3 175.1 174.2 173.4 172.4 170.7 168.6 166.4 164.2 160.4 157.3 154.6 149.9 142.9 128 120.5 118.3 115.6 119 130 129.7 126.1 121.9 113.4 107.5 116.2 111.1 105.2 103.1 100.4 105.8 106.5 112.1 118.8 122.4 121.9 112.9 104.5 97.1 89.6 87.4 102.2 116.7 118.7 118 117.5 118 117.8 117.1 116.4 116.1 112.5 97.8 94.2 105.5 104.8 94.6 100.9 111.7 111.8 105.2 95.3 88.8 83.1 77.4 79.7 91.7 101.7 112.4 114.8 115.7 114.8 114.2 116.7 118.1 115.5 107.4 113.7 105.2 120.1 126.2 128.7 127.6 124.2 121.1 120.2 119 118.3 118.2 116.8 114.7 111.2 113.1 112.5 109.8 108.4 110.1 102 109.8 106.1 104.6 108.3 108.9 109.5 110.6 110.9 111.3 110.9 110.5 110.9 109.5 109.5 109.3 108 105.9 103.5 100.1 97.1 95.3 92.7 86.2 71.7 86.3 85.4 80.5 78 77.4 73.8 64.9 60.5 75.5 72.4 64.5 77.3 84 88.8 91.6 91.6 89.7 88.2 87.1 87 87.5 88.3 89.3 88.5 88 86.2 83.2 80.2 75.1 66.8 57.4 56 63.9 62.2 59.5 57.1 54.8 54.1 55.3 55.7 56 56.5 57.1 57.5 57.6 58 60.1 60.2 59.4 57.9 55.3 52.6 50.3 47.9 46.5 45.2 40.5 41 42.7 45.9 46.7 46.5 45.6 44 42.8 41.6 40 36.5 33 29.1 25.1 18.7 9.7 -1.6 -1.6 4.7
178.6 177.7 176 175.8 175.3 173.2 171.2 170.1 169.5 168 165.8 162 156.9 150.4 141.6 129 133.7 139.5 139.4 136.2 134.5 128.6 125.6 122.7 114.6 114.3 113 108.2 108 105.9 100.7 105.1 114.4 116.6 119.5 122.3 124.5 123.5 117.4 110.9 106 103.6 86.5 103.5 117.1 121.9 124.3 124.1 122.6 121.6 120.2 118.8 117.2 110.4 97.3 99.6 109.3 107.3 99 105.4 114.2 112.8 104.6 93.9 87.1 81.1 88.1 93.2 90.5 103.4 115.7 118.7 118.4 117.5 117.8 120.6 121.7 118 117.4 120.4 122.2 121.1 128.8 130.8 130.2 127.3 125.6 124.5 123.3 122.9 121.8 120.6 118.5 116.5 118.3 118.3 116.1 114.9 116.7 108.7 113.4 111.5 108.6 115.3 117.5 119.3 120.5 120.5 120.1 119.4 118.2 115.4 112.6 112.7 114.4 111.8 107.7 104.5 101.2 99.9 98.1 91.8 81.3 78.3 90.1 86.9 82.7 80.9 78.3 70.6 60.2 68.6 78.8 77.1 67.4 78.4 86.6 92.4 96.3 95.8 93.8 92.8 91.3 89 87.6 87.4 86 85.3 83.5 77.3 72 70 69.3 62.8 56.3 67 69.1 66.2 62.7 58.9 56.2 56.7 57.1 57.3 57.5 57.8 58.4 58.6 58.3 58.9 60.3 60.9 60 58.2 55.7 53.2 51.3 48.9 46.2 45.5 42.7 38.1 38.8 42.1 44.3 45.2 44.5 43.4 42.2 41 39.7 36.8 33.3 28.7 23.8 18.5 11.9 6.4 -1.6 -1.6
177 175.7 174.4 173.3 172.3 170 168.9 168.2 168.1 167.2 162.8 157.6 149.4 139.3 131.1 138.5 143.3 141.4 139.7 133.9 132.2 130.5 126.1 122.6 125.5 125.5 125.3 124.1 122.2 110.5 100.7 106 117.2 121.3 122.7 125 124.7 123.8 121.3 118.6 116.2 108.5 94 107.2 114.1 121.2 125.4 124.8 123.5 122.4 121.2 118.5 112.5 101.6 100.6 106.8 113.7 111.3 101.6 110.1 116 107.3 95.7 90.8 92.2 93.2 94.1 101.1 103.8 98.5 112.7 119.9 121.7 120.9 121.7 123.8 124.5 122.2 123 125.7 127.2 128.5 127.6 131.7 133.2 131.7 129.9 128.7 127.6 126.5 125.2 123.2 120.7 119.8 123.7 123.2 120.2 119.8 120.3 111.1 115.7 120 115.2 120.5 124 125.7 127.7 128 127.2 126.4 125.2 120.4 117.8 116.2 115.7 112.9 108.6 105.2 101.6 99.9 92.2 83 76 89.6 89.9 87.1 84 81.1 74.2 63.7 66.8 77.6 81.4 77.6 75 83.8 90 95.8 100.6 99.8 98 96.8 94.6 91.8 89.9 88.2 86.4 84.3 79.5 77.4 76.5 72.2 67.3 60.9 70.1 77.9 74.3 69.6 64.5 60.8 58.5 59.2 59 58.8 58.9 59.3 59.5 59.7 59.5 59.6 61 61.4 60.5 58.5 56.2 53.8 51.9 49.9 46.9 44.4 41.4 38 34.5 35.2 38.2 41.2 42.4 42 41.1 40 39 36.9 32.7 28 23.3 18.2 13.7 5.8 -1.6 -1.6
171.6 168.4 166.4 164.8 164.4 163.7 163.5 162.1 160.6 156.7 152.4 146.4 133.8 142.5 146 145.2 143 141 138.2 139.1 136.9 133.1 131.4 130.4 129.8 128 128.4 127.4 120.6 107.1 102.3 107.3 119.2 124.9 124.7 126.7 126.6 125.4 124.3 123.9 118.2 100.2 108.3 114.9 110.3 117.1 123.4 123.4 123.1 122.2 120.5 115.5 105.2 106.2 109.3 114 116.6 115.4 108.5 115.2 115.5 103.8 96.9 102 103.9 102 97.2 107.8 113.5 112 113.1 120.4 124.3 125.8 126.9 127.6 128.5 127.7 127.5 130.3 131.9 132.7 132.7 131.8 135.9 136.9 135.4 134.6 133.6 132.3 130.7 127.9 124 123.6 127.9 125.8 123 124.5 122.7 112.4 118.4 123.8 123 124.6 128.4 131.7 132.9 132.6 131.3 129.9 127.8 124.6 120.6 118.1 114.4 111.8 108.2 104.1 97.4 92 84.8 82.1 90 92.3 89.4 86.7 84.1 77 64.5 65.1 77.5 82.4 82.6 78.1 71.7 84.1 90.6 96.7 100.8 101.8 101.1 100.2 97.7 94.7 92.7 91 90.7 88.9 86.7 85.3 83.6 79.3 72 60.9 77.6 82.9 77.2 70.6 64 62.3 61.8 61.9 61.7 61.4 61 60.6 60.6 60.7 60.7 61.1 61.9 61.9 61 58.8 56.5 54.4 52.6 50.9 48.2 45.2 41.9 40.3 41.2 37 31.9 34.3 37.1 39.4 39.9 38.4 36.8 33.3 29.5 24.1 20 14.5 8.1 4.2 -1.6 -1.6
160.5 157.8 154.7 153.1 152.8 152.9 152.5 151 148.2 143.3 138.5 142 148.1 146.9 145.9 144.7 142.5 140.6 140.2 140.5 137.8 136.6 136.3 135.1 133.9 131.5 126.8 117.3 109.4 100.7 107.4 113.7 124.2 127.3 126.4 127.8 128.1 127 127 124.4 118.6 97.8 116.5 120.2 116.4 116.4 121.2 121.7 121.2 121.1 119.6 112.7 108.6 114.7 117.2 118 119.3 116.5 114 117 113 104 107.9 114.5 114.2 108.7 99.4 112.1 118.3 120.1 119.1 124.5 127.1 130.5 131.9 132.1 133 132.5 133.1 136.2 138 138.2 137.7 136 137.5 141.6 142.5 141.7 140.9 139.6 137.6 134.3 130 126.9 131.9 130.2 128.3 129.4 127.5 120.6 117.2 125.1 128.2 127.4 131.6 135.3 137.1 135.9 134.2 131.9 129.4 125.8 122.1 117.6 113.5 111.5 108.1 100.7 92.6 84 90.9 93.1 93.9 91.8 88.8 85.8 81.7 72.7 63.5 72.2 82.9 84 82.9 78.4 73.1 82.2 89.8 94.1 97.7 100.3 100.9 101.9 102.3 98.7 95.9 94.8 94.8 94.8 91 87.2 82.7 78.4 69.6 70.9 81.9 84 75.5 68.4 65 66.4 65.1 64.6 64.3 63.8 63.3 62.9 62.4 62.2 62 62 62 61.8 61.5 59.6 57.1 55.2 53.5 51.7 49.2 46.3 43.9 44.3 43.7 41.6 37 31.4 31.9 36.8 39.4 37.8 32 25.6 17.9 13.7 8.9 6 3.7 3.9 -1.6 -1.6
153.8 156.1 151.1 148.1 142.8 144.4 143.9 141.9 139.4 145.6 147.5 148.4 148.1 147.2 146.1 144 143 141.7 141.5 141 139.3 139.4 139.1 135.1 132.9 120.8 112.4 104 108.1 112 118.9 123.5 130.6 129.8 128.8 128 128.4 127.6 126.8 124.8 119.1 99 118.4 122.1 122 119.3 121.3 121 120.8 120.8 119.2 113.7 114.2 119.1 120.5 120.9 121.3 117.4 118.1 119.1 114.2 108.3 116 121.1 117.5 106.5 104.8 116.1 123.1 124.9 126.3 128.1 131.4 134.5 137.1 137.5 138.3 137.5 137.8 140.6 143.2 143.7 143.4 141.5 134.9 144.9 147.6 148 148.1 147.4 145.6 142.1 138.5 131.8 136.5 136.6 133.6 134.8 132.6 126.6 117.6 124.9 130.3 131.1 131.9 135.2 136.7 136.8 135.8 133.1 129.8 125.4 121.1 116.9 114.8 113 106.4 92.7 91.5 99.5 96.4 94.9 93.6 89.1 84.2 73.3 70.3 73.3 66.7 73.8 83.9 84.5 81.8 76 78.5 81.9 87.7 91.6 94.9 97.6 100 101.8 103.2 101.5 99.6 99 98.9 98.5 93.3 87.6 81.6 73 72.3 77.7 77.7 78.2 71.7 66.5 69.5 70 68.3 67.1 66.6 66.2 65.7 65.3 64.8 64.2 63.8 63.3 63 62.9 62.5 60.6 58.9 56.9 54.7 52.6 50.1 47.8 47.1 46.1 43.8 41.3 38.5 35.3 29.1 36.3 39 34.3 23.4 15.2 8.9 6.3 4.1 4.1 4.2 -1.6 -1.6 -1.6
