ncols 200
nrows 82
xllcorner 350000
yllcorner 780600
cellsize 50
471.8 463.3 459.7 446.3 461.3 467.1 474.1 477 476.4 472.8 466.7 458.9 449.4 442.4 434.9 430.3 430.1 426.8 445.5 458.2 465.3 468.7 469.5 470.5 475.7 484.8 494 496.4 498 498.8 505 518.1 525.6 530.5 529.8 527.1 519.6 518.1 518.3 516.5 514 511.2 506.6 501.6 490.2 475.5 466.5 460.2 454.4 447.4 446.5 440.2 442 439.9 439.2 436.8 436.3 431.1 439.9 455.4 472.5 487.4 498.7 499 500.1 507.1 516.2 525.9 538 546.5 552.7 554.3 558.3 560.7 563.7 566.8 568.8 570.5 573.8 579 581.8 587.5 594.1 599.7 606.6 613.9 621.2 630.6 637.5 650.2 656.7 659.3 665.5 675.5 685.3 695.6 706.8 719.9 728.3 732.8 734.8 735 736.2 733.5 733.5 736.4 739 740.8 740 735.2 727.3 714.2 703.5 689.5 680.7 672 666.1 660.2 653.1 646.2 638.5 630.5 620.6 612.4 606 598.7 593.3 586 578.7 571.2 561.1 551.7 544 538.1 532.4 526.7 523.9 520.3 517.6 513.4 510.3 506.1 505.2 504.8 503.9 506.7 506.9 504.9 499.2 492.2 482.1 470.9 460.4 449.3 440.5 432.1 421.2 419.9 413.9 416.8 419.7 422 424.9 426.6 427.8 427.9 428.4 429.3 430.4 427.5 434.4 444.5 453.3 457.4 462 464.1 464.6 463.2 461.9 459.5 455.1 452.2 447.6 445.3 447.8 449 449.9 452 453.6 454.5 454 453.7 452.8 452.6 451.7 448.7 442.3 429.2 420.2 410.7
464.6 456.3 449.8 440.8 453.3 458.8 464.4 467.4 465.2 460.2 452.3 442.6 429.5 425.3 420.8 416.8 416.3 421.1 435.3 444.6 450.9 452.6 453.2 454.3 463.7 472.3 479.1 482.8 483.1 493.1 504.5 514.2 521.3 524.8 524.3 517.3 509.8 507.1 506.6 504.9 502.8 497.7 493.7 487.5 475.6 459.6 453.1 447.4 443.7 436.5 435 430.7 431.5 431.3 425.5 424.7 433.1 445.6 455.5 468.4 484 499.9 510.8 511.2 512.4 516.6 523.6 532.6 542.4 551.6 557.1 560.1 565.1 568.6 571.3 575.2 578 581.5 584.6 589.8 593.5 598.2 607.6 615 620.5 629.5 639.1 648.4 658.4 666.1 673.3 677.7 680.9 689.2 700.5 712.7 724.1 734.7 741.7 747.5 749.6 749 744.5 740.3 741.2 742.2 743.2 742.8 739.4 731.3 721.3 710.2 699.1 683.7 674.6 665.9 659.5 653 645.6 636 629.7 622.6 615.5 608.7 601.2 596.6 592 585 577.8 570.1 559.8 551 543.7 537 530.4 524.7 521 516.7 514.5 510.9 506.4 503.6 499.3 498.9 498.5 500.1 499.9 497.5 493.3 486.2 477 465.3 457 447.1 437 428.8 420.2 413.5 409.8 408.3 409.5 412.3 417.2 418.5 418.6 418.6 420.1 421.8 422.2 420 431.9 440.1 447.8 451.5 453.5 455 454.5 453.6 451 446.4 443.4 440.7 437.7 435.7 436.6 437.7 437.8 439.5 441.8 443.5 444.8 446.2 448 450.3 450.1 447.1 441.4 428.2 416.8 408
457.7 448 439.6 432.7 445.1 450.5 454.9 455.8 453.7 447.4 437.3 423.3 416.5 412.5 408.2 402.1 400.3 413.2 424.3 432.9 438 439 438.2 440.7 450 457.5 462.1 459.3 475.1 490.3 502.2 509.8 514.8 517.4 516.1 508.3 500.8 495.8 494.7 492.4 489.6 484.9 480.7 472.2 458.4 446.1 439.2 433.7 433.8 428.7 424.6 421.4 424.5 424.5 422.2 431.6 440.2 453.4 465.1 479.3 497.2 513.4 520.1 521 522.4 523.9 531.8 538.5 546.8 554.6 561.2 566 570.7 575 576.6 582.2 587.3 594 599 602.2 606.5 613.8 622 632.1 641.1 646.6 655.8 664.1 673.6 681.8 687.7 695 700.7 706.3 718 726.2 737.4 748 757.3 764.2 765 759.1 751.6 748.2 747 746.3 744.9 741.4 736 726 716.7 704.6 691.8 678.9 668.1 658.1 650.8 644.4 634.7 626.9 621.6 615.6 608.9 603.1 597 593.1 589.7 583.1 576.8 569.3 560 551.8 544.5 536.4 525.3 522.2 519 515.8 511.9 509.7 505.9 502.1 496.5 493.4 493.4 493.3 492.3 490.8 487.3 480.4 471.7 460.5 452.6 443.2 435.1 425.7 417.6 408.9 405.3 401.6 403.8 406.7 409.4 410.4 412 413 414.6 414.5 414.2 419.4 428.2 435.2 440.1 443.6 445.3 445.1 443.9 442.4 439.7 435 432.6 429.4 428.4 426 426.6 426.1 428.7 430.3 431.9 434.1 437.2 441.1 444.8 448.1 448.7 445.8 437.6 428.5 416 403.4
447.3 439.2 427.8 421.9 437.2 442.2 445 445.9 442.6 434.8 422.7 412 404 400.4 397 386.9 392.5 404 413.1 420.4 423.3 424.8 425.1 428.2 438 443.6 445.8 451.9 469.9 484.8 496 503 506.7 509.3 505.7 498.7 492.3 485.8 483.8 480.4 477.1 472 461.1 451.8 441.3 434.1 426.7 423.1 422.4 420.4 411.6 409.2 411.6 423.6 432.4 439 448.9 458.6 473.7 490 507.3 522.6 528 528.8 531 530.4 536.3 545.2 551.9 558.2 564.9 569.7 575.5 581.4 585.1 589.4 598 604.8 610.7 616.8 621.5 628.4 640.7 652.5 661.9 664 669.9 677.6 685.4 693.2 698.9 705.6 712.4 719.9 729.1 737.9 749.2 761.4 771.3 774 772.8 764 756.4 751.3 748.8 747.6 743.3 737 730 720.7 711.3 697.1 686 674 658.9 650.7 643.6 635.6 624.3 617.7 611.1 606.2 601.2 596.1 592.1 589.3 585.8 581.1 574.6 567.4 560.5 552.6 546.7 537.7 527 525.1 521.1 517.5 512.3 507.3 501.9 499.6 496.2 490.9 487.7 487.4 486.5 483.7 480.5 474.1 466.5 456.1 447.7 440.3 432.1 424.2 416 409.1 396.6 395.6 398.2 400.8 403.5 405.1 406.6 407.5 407.8 407.2 405.7 416.3 423.2 428.8 433.5 436.6 437.1 435.8 433.1 431.7 429.1 426.5 423.3 420.7 419.1 417.5 416.6 419.1 420 423 425.2 428.7 431.3 437.1 442.6 446.1 447.4 443.8 435.9 428 415.2 402.2
438.3 429.4 413.9 416.1 430.2 433.2 434.3 434.1 429.9 421.6 409.7 401.1 394.6 387.7 381.5 375.4 385.3 394.6 401.9 406.9 409.6 411.6 409.1 417.1 425 429.8 428.4 448.2 462.7 478 489.7 495 497.5 497.8 493.6 488.5 483.5 473.9 468.6 463.1 458.9 452.3 442.2 437.3 429.5 425.2 417.7 413.3 412.5 411.8 406.4 408.5 417 426.3 435.8 446.7 459.8 470.6 482.5 497.3 515.5 529.1 534.3 536 538.6 540.1 541.2 550.4 557.4 563 568.8 574.5 580.9 587.3 593.5 600.5 608.7 617.7 626.2 632.2 639 647.9 659.4 671.4 677.2 680.4 681.8 686.9 694.2 701.5 708.1 714.1 721 729.9 737.5 748 759.4 770.6 776 778.4 772.1 762.7 756 751.2 746.4 743.9 738.2 731.3 724.1 715 701.7 690.8 680.1 665.7 652.7 644.1 636.4 628 617.5 606.2 600.1 596.4 592.1 589.7 586.7 585.5 581.9 577.9 571.5 565.7 560 554.5 547.5 536.8 534.5 530.7 526 521.9 517 510.3 505.5 500.9 494.6 487.4 485.2 478.2 478.7 476.4 473.7 467.7 460.9 451.4 444.6 437.3 429.8 421.9 412.5 406.9 397.8 391.5 392.8 395.9 398.6 400.1 401.6 402.2 401.3 399.4 403.8 411.7 417.6 423.3 427.4 429.5 429 427 425.6 422.7 421.1 418.2 415.9 412.6 410.9 410.3 410 412 414 416 419.1 422.3 428.8 435.1 440.4 444 445.4 442.2 434.3 425.2 414.6 399.6
429 419.9 400.3 408.6 423.1 424.3 424.1 421.6 416 405.7 398.9 390.7 385 373.1 367.3 368.9 378.7 385 389.6 392.3 396.3 398 397.7 406.7 412.7 414.6 427.4 442.3 455.6 470.8 480.8 486.5 488.2 488.4 480.8 475.2 468.5 462.9 455.6 450.1 441.6 434.4 429 424 420.9 416.6 410.9 404.2 403 397.7 404.5 417.6 426.7 436.4 444.7 456.7 471.6 483.8 494.3 503.2 521.1 533.5 539.5 542.9 545.1 548.9 550.4 555.5 562.5 567.3 572.2 579.6 587.7 595 603 612.8 622.9 631.6 642.4 650.8 659.6 668.5 676.1 682.8 687.7 689.5 690.8 693.2 699.7 706.3 713 719.5 725.9 734.3 741.5 752.7 763 772.7 776.4 775.3 767.6 758.4 753.2 745.6 740.8 735.9 730.9 724.5 716.6 704.7 695.1 684.1 671.6 658 647.7 638.6 630.3 620.8 610.5 599.5 592.6 587.8 585 581.3 580.4 578.4 577.4 574.1 570.5 566.1 559 555 551.1 545.7 544 539.3 533.1 528.7 523.7 517.1 508.9 504.5 498.8 491.8 485.9 477.1 464.7 464.3 462 458.6 454.3 448.1 441.6 434.1 427.4 419.7 409.8 402.3 395.7 386.8 387.3 390.9 394.3 396.1 397.1 397.5 395.3 390.3 398.1 405.5 411.9 416.8 420.7 422.7 422.1 420.1 418.1 415.7 413.9 411.6 409.1 406.5 404.5 403.6 404.8 405.8 408.8 410.8 414.2 420.6 427 432.8 438 442.2 442.9 439.8 432.1 422.9 411.9 393.3
418.8 407.5 392.6 399.6 413.3 415.5 413.5 408.3 403.6 394.3 388.1 382.6 376.8 370.7 363.1 364.6 372.9 376.3 379.3 382.4 386.5 386.7 391.3 398 400 407.8 423.3 436.6 448.4 460.4 470.7 476.8 477.7 474.5 467.3 461.3 456.7 451.5 446.1 438.5 431.1 421.3 418.2 415.1 411.7 406.1 401.8 395.9 393.9 405.8 418.5 430.5 441.4 449.5 460.5 469.1 479.6 491.8 500.8 511.3 527.1 536.7 545.4 548.3 551.6 554.6 556.2 560.8 566.7 570.3 576.6 583.3 593.6 603.1 612.1 623.4 635 647.3 659.9 669.9 677.3 685.6 688.6 693.3 696.7 697.5 696.4 696.9 700.7 706.2 712.6 719.4 725.7 733.8 741 752.6 761.9 768 768.5 765.8 757.3 753.4 746.4 738.6 732.5 727.2 721.7 716.4 705.2 697.1 687.7 674.3 663.4 652.4 642.2 632.9 623.3 613.6 604.6 595.2 587.7 582.5 579.1 576.1 573.7 574.9 573.7 570.7 566.3 563.6 561.3 559.7 556.8 555.5 553.1 550.9 544 539.3 534.4 527.6 519.6 511.7 503.9 496.7 490.8 484.1 474.2 460.6 450.3 449.1 445.8 441.5 436.2 430.9 425.4 417.4 401.1 394.1 389.2 385.1 382.1 385.3 390.1 391 391.6 390.2 389.5 383 390.4 399.2 404.9 409.3 412.9 414.9 415.3 413.3 411.3 409.7 408.1 405.4 402.8 401 398.4 397.9 399.5 401.1 403.8 406.6 412.2 417.6 423.9 428.8 434.6 438.8 440 436.6 429.3 420.2 409 390.5
407.2 396.5 381.6 393.5 404.6 408.5 403.8 399.1 393.2 385.5 381.3 376 371.8 367 360.3 358.7 367.2 368.8 371.8 376.1 377.5 376.1 386.9 389.3 389.5 402.7 415.8 428.4 439.4 450.6 458.6 465.3 467 463.9 458.4 453.4 448.3 440.2 436.6 430.9 422.6 413.3 408 405.7 401.2 395.4 388.5 395.2 406.2 417.7 430 442.7 454.5 463.9 472.4 481.6 488.8 497.2 508.5 521.8 533.9 543.4 549.6 553 555.3 558.6 561 564.7 570.8 575.5 581.8 589.3 600.4 612.8 623.1 636.5 648.1 661.9 672.3 686.2 693.7 696.5 698.4 701 704.5 703.8 701 698 698.5 701.7 707.9 713.7 720.1 729.1 732.9 744.6 752.6 757 756.3 753.7 748.7 742.8 735.8 729.2 721.8 716.9 712.1 703.9 696.4 688.5 676.4 666.7 657.2 647.1 636.7 626.1 616 607.2 598 588.9 582 577.4 574.1 572.9 573.1 572.1 571.5 567.3 566.3 566.9 565.9 564.4 564.2 564.2 563.2 559.8 557.8 552.3 546.6 539.2 529.8 519.4 512.2 503.7 497.4 489.1 480.4 470.5 456 445 438.7 434.8 430.9 424.5 417.5 415.4 405.1 396.1 386.4 380 374.7 382.5 385.8 386 385.9 385.4 383.4 378.2 383.5 393.4 397.8 401.3 405 407.6 408.7 407.5 405.8 404 402 399.2 396.8 394.7 394 392.4 395.2 395.5 399.1 403.9 409.5 415.3 420.3 424.5 430.2 435.3 436.8 432.7 426.1 416.2 403.4 387.1
396.3 387 373.8 384.5 395.7 398.8 395.1 390 383.6 378.3 374.1 370.4 367.4 363.6 359.5 354.3 361.4 360.5 365.7 369.4 368.6 373.8 380.7 379.8 384.5 395.4 407.6 419.5 429.9 439.7 447.5 453 455.3 452.2 447.1 445.4 440 431.9 427.7 423.2 415.3 403.5 398.3 394.7 389.3 383.9 392.2 405 410.9 422.3 434.7 448.9 463.4 474.3 482.2 491.3 501.6 507.9 517.1 532.6 542.9 549.7 554 556.5 559.1 562.5 565.2 569.2 574.3 581.1 589.4 599.3 611.2 624 635.2 647.7 661.1 676.3 690.7 700.8 704.3 705.1 707.6 707.7 710.5 710.2 703.5 698 695.1 695.8 698.7 704.6 710.7 717.8 722.5 727.8 735.5 740.6 739.7 738.3 735.5 731.6 724.8 716.2 709.9 702.2 697.8 693 686.7 677 669.5 660.6 651.3 641 630.3 618.4 607.5 598.3 590.2 581.8 576.4 572.4 569.4 568.7 570 571.3 569.6 567.7 567.5 566.3 566.1 567.7 570.1 570.9 569.2 568.9 566.5 561.5 555.1 547.7 537.7 527.9 518.9 508.6 502.5 493.2 484.4 475.9 467.4 457.5 448.8 443.3 437.8 430.6 426 421.6 409 402.2 392.1 379.5 374 378.3 380.2 381.9 381.2 380.8 378.4 373.6 382.4 387.4 390.8 393.8 398.4 401.2 402.6 401.3 399.5 397 396.2 394 392.3 390.9 389.4 387.8 389.8 392.3 396.9 401.5 406.6 411.1 413.9 419.5 425.2 430.4 431.9 427.8 421.1 411.9 398.8 383.8
383.6 376.7 366 376.1 385.6 387.7 386.3 381.6 376.5 372.5 368.8 365.6 362.6 359.8 356.5 352.9 355.6 354.9 359.3 360.6 363.3 371 374.1 373.1 379.5 388.4 398.2 408.5 420 429 434.8 439.9 441.6 440.7 439.2 435.6 430.2 424.7 419.8 413.2 406.5 392.2 386.3 384 376.2 394.1 405 414.7 423 429.4 440.7 453.9 466.9 482.7 492.4 503.6 514.2 521.9 527.7 541.6 549.1 555.3 558.8 559.6 561.6 564.9 568.2 573.7 578.2 585.8 596.6 608.3 622.5 633.4 646.7 657.4 670.4 684.7 698.8 706.9 711 712.4 713.6 713.3 713.2 711.5 705.3 698.1 692.1 688.5 689.3 693.8 699 704.2 711.2 715.2 720.5 724.1 722.7 723.4 720.4 718.6 712.1 701.5 693.9 690.8 687.4 682.3 674 667.4 661.3 654.4 644.7 633.7 622.3 608.1 597.9 589.4 582.5 576 569.3 566.6 565.4 566.9 567.4 569.7 567.8 567.2 568.3 565.5 569.2 569.9 573.2 574.8 575.9 576.4 574.8 569 561.2 553.6 543.1 533.8 522.8 512.5 504.9 495.8 486 477.2 469.9 461.1 452.2 445.2 439.4 434.3 429.9 424.5 412.2 401.5 391.9 380.4 369.6 375.7 377.8 376.2 376.9 375.5 373.1 367.9 376.8 381.7 384.8 388 393.7 395.9 396.6 395.5 394.1 392.6 391.4 388.5 387 386.2 384.7 383.2 384.7 389 393.3 398 401.8 404.3 407.5 413.8 420.2 424.4 425.6 421.3 415.9 406.9 395.2 381.1
370 366.1 360.5 366.2 373 376.5 376.6 373 370.7 367.8 363.8 360.8 357.8 356 353.4 346.6 352.1 350 353.5 355.3 362.1 367.9 368 367.7 373.7 381.5 389.9 399.2 410.6 419.9 425.7 429.6 431.2 430.8 430.3 427.7 422.3 415.4 408.1 400 392.1 383.8 374.5 374.4 389.9 401.3 414 422.8 432.6 441.8 451.4 464.5 477.7 491.1 503.7 516.1 526.9 534.2 541.1 549.2 555.4 558.4 561 562 564.5 567.5 571.4 575 583.2 592.5 603.7 615.2 628.7 640 652.9 662.3 675.2 688 702 707.5 711.6 714.3 715.7 714.4 713 710.8 703.9 695.3 688 683.6 679.9 681.7 682.5 687.6 692.2 696.6 701.9 708.4 708 708.1 708.5 706.3 698.9 689.3 683.8 680.5 677.3 670.7 663.2 658.3 652.5 646 635.6 625.2 610.1 598.6 590.2 581.7 573.5 567.3 563.1 560.4 560.8 563.1 566.9 568.6 568.2 566.5 567 567.8 569.4 572.7 576.5 579.2 580.7 580.8 579.6 574.2 565 556.8 545.2 535.6 523.9 513.5 504.9 496.9 486.5 478.4 471.6 462.9 453.2 444.6 439.1 435.1 430.2 423.3 412.2 400.3 389.5 380.5 365.4 371.7 375.1 371.6 372.6 371.3 368.8 362.9 371.4 375.4 379.7 384.1 388.8 390.8 391.1 391.8 390.5 388.1 387 385.2 383.5 382.1 381 379.6 382.5 385.3 388.9 393 395.8 397.9 401.9 409.1 414.5 418.4 418.5 415.6 411.2 403 393 377.8
357.9 356.6 354 357.7 363.3 365.9 365.9 364.7 364.2 362.4 359.4 356.8 354 352.6 349.1 344.4 347.1 346.7 347.7 352.6 360.6 363.6 361.4 363 369.1 373.9 382 392.2 401 412.7 420.2 425.2 425.1 423.3 422.3 420.4 415.3 408 394 386.9 379 370.1 378.4 390.3 400.4 410.9 421.2 431.9 441 451.9 460.5 472 484.8 499.9 515.2 526 535.3 543 548.8 554.4 558.4 559.7 561 561.9 565.3 569.2 572.1 578.1 587 598.2 609.1 620.9 631.4 643.8 654.6 662 673 686.2 694.8 703 707.4 710.1 712.3 710.7 708.9 706.3 700 690.7 683.5 676.4 670.5 668 669.1 670.9 675.4 681.5 686.8 690.4 694.4 695.6 695.5 690.5 684.2 679.1 675.9 672.1 668 661.3 655.5 650.7 644.6 636.4 626.7 613.2 601.6 591.8 580.9 574.1 564.6 559.4 555.6 554.4 557.2 560.6 564 565.9 565.8 564.6 565.8 566.5 568.4 570.5 575 579 582 582.5 581.1 575.1 565.7 557 545.7 534.9 523.6 512.6 504.2 495.3 486.5 478.6 471.6 462.2 452.5 445.5 438.9 433.9 429.1 422 412 399 387.8 380.5 361.1 367.2 369.9 367.8 367.6 366.9 364.7 359.9 366.7 370.7 374.5 379.4 384.1 386 386.8 388.2 387.5 386.1 383.8 381.7 379.9 379 376 375 379 381.5 384.7 388.7 391 394.3 398.6 403.5 409.2 412.2 412.5 409.9 405.3 398 388.6 376.1
348.9 348.8 348.8 351.1 353.9 357.2 358.3 358.8 359 358.5 356.7 354.2 350.8 348.6 345.7 341.9 342.4 341.4 346.3 353.3 358 359.2 355.8 359.7 364.9 370.4 375.9 387.4 400.9 411.6 418.6 422.4 422.2 418.5 415.9 412.1 406.2 395.4 381.4 373 366.3 378.3 391.6 401 410.8 421.7 430.9 440.2 450.2 460 470.2 480.1 492.9 505.5 521.8 532.8 541.8 548.6 552.3 556.2 557.2 557.4 556.7 562.1 564.7 568.6 573.5 579 587.7 599.4 610.6 621.4 630.8 642.8 652.7 660.5 668.7 680.6 687.4 695.2 698.1 703.7 704.7 703.1 702.2 700.7 693.3 684.1 672.9 666.5 659.2 655.2 652.1 654.1 660.1 667.3 673.2 676.6 680.5 680.5 680.4 678.1 674.5 669.3 667.2 664.6 659.8 654.8 648.2 643 636.1 628.9 619.2 606.8 593.8 582 572 563.1 556.6 551.7 549 547.1 554.3 555.8 557.2 560.5 563.4 563 563.9 563.9 566.4 567.8 571.8 575.3 577.4 577.9 576.1 570 561.9 553.8 542.4 531.1 520.6 509.8 500.8 493 483.3 475.6 469.4 460 450.4 443.7 437.3 430.6 426.1 419.9 409.6 397.5 387.5 379.6 361.3 362.3 362.8 361.3 361.2 362.7 360.1 354.7 362.1 365.6 369.3 374.2 378.4 380.8 382.3 383.9 383.8 382.7 380.5 378.3 376.6 375.4 374.1 371.4 374.9 377.5 381 384 387.1 390.5 395.9 400.3 403.7 406.3 406.9 404.3 397.6 391 384.7 375.2
342.1 343.1 344.2 343.6 347.3 350.3 352.6 354.4 355 353.5 352.2 349.1 346.2 344.7 342.2 339.2 332.3 341.2 347.7 351.6 355.3 354.8 352 356.5 359.8 367.7 374.4 385.8 398.5 408.2 416.4 419.5 418.3 413.4 408.6 401.6 390.6 378 362.2 365.6 382.1 392.1 400.7 412.1 420.9 431.3 440.1 449.2 459.6 468.6 478.8 489.2 500.2 516.2 527.8 536.3 545.7 550.8 554.1 554 554 553.3 555.3 559.8 563.3 568 574 579.9 587.7 598.7 609.7 620 627.5 638.8 647.1 654 663.1 671.1 680 684.4 688.1 691 693.5 691.7 692.1 691.4 684 675.3 664 657.3 649.3 641 638.5 639.7 645 652.8 657.8 662.6 665.4 665.4 665.6 664.3 661.6 660.4 659.9 658.2 653.8 649.1 643.1 636.7 630 621.5 611.5 600.7 584.9 573.8 563.5 554.6 550 545.5 542.6 541.8 549.1 549.2 552.6 556.1 557.1 558.8 561 561.3 561.9 562.5 565.8 566.6 568.9 568.1 565.6 562.5 555.8 546.9 535.8 524.4 515 505.6 497.8 488.8 479.3 472.6 465.8 456.8 448.1 441.1 435.3 428.7 423.3 417.4 407.5 396.4 386.3 378 360.4 355.3 353.9 354.8 354.3 356.1 355.4 351.1 355.9 360.8 364.7 368.6 372.5 374.8 377 379.3 380.1 379.5 377.6 375.8 373.4 372.9 370.8 366.3 370.2 373.4 377.1 380.6 383.2 388 393 396.6 399.2 400.4 399.5 396.9 390.7 384.7 379.7 372.4
337.2 337.4 337.6 339.2 340.8 343.7 347.1 350.4 351.5 350.4 348 345.4 342.7 341.5 338.7 336 329.1 340.4 346.9 350.2 351.6 350.4 345.5 351.8 357.9 364.7 373.1 381.8 395.1 405 412.6 414.2 412 406.1 396.1 382.5 373.1 362.3 367.6 379.6 392.2 401 410.6 420.2 431.8 440.7 449.5 459.2 468.7 478.6 489.6 500.2 513.8 523.8 534.2 539.7 548.5 551.2 552.2 551.4 549.6 549.7 551.2 555.6 560.1 566.8 572.1 578.9 586.6 596.9 606 614.9 622.6 631 640.1 646.3 651.9 661.3 667.7 670.1 673.2 678.8 678.6 677.1 677.4 676.1 672.7 665.3 655.4 643.4 635.1 627.4 627.4 628.3 631.6 638.8 644 648.8 649.6 650.6 650.2 651 650.5 651.5 653.3 652.7 650.2 646.6 639.9 632.5 625 616.2 604.9 592.7 578.9 567.7 556.9 549 542.4 538.6 536.1 536.7 542.7 543.5 547.7 548.9 551.6 552.8 555.5 556.2 556.1 555.6 557.3 557.8 557.6 556.3 554.9 552.6 546 535.2 525.3 517 507.9 498.8 490.7 482.3 473.5 466.4 460 451.4 444 437.2 430.3 424.6 419.8 413.4 403.5 393.6 384.2 376.6 365.5 351 349 348.5 350 349.5 349.9 347.3 350.7 354.4 358.9 362.7 366 367.8 370.8 375.2 376.5 376.5 375.5 374.3 371.7 371.1 368.5 358.6 366.6 370.1 373.4 376.7 380.5 385.4 389.9 392.3 393 393.1 392.1 388.5 383.6 377.5 373.4 367.8
332.1 333.1 335 335.9 338.1 340.7 343.6 345.9 347.6 346.9 344.6 342 339.1 337.9 335.5 332.1 326.8 336.9 342.9 346.1 347.4 346.6 344.8 350.6 356.4 362.4 369.5 376.9 387.4 397.2 405.7 407.6 403 388.4 375 367.2 362 358.7 374 388.9 400.8 411.9 420.3 429.8 441.2 450.5 461.7 470.5 480.7 490.5 501.8 514.2 525.5 532.4 541 545.2 545.5 551.8 549.7 548 547.1 544.9 547.3 550.4 555.1 562.4 569.5 576.5 584.2 593.7 600.5 608.9 616.6 623.1 630.8 638.2 642.9 648.3 654.1 658.3 662 662.9 663.3 662.8 664.7 665 662.9 656.8 644.8 633 624.2 613.3 615.6 618 621.6 626.5 630.8 634.5 633.5 632.8 634 635.1 639.5 644.3 646.1 648.3 648 644 636.8 630.8 621.9 611.2 599.1 584.6 571.7 558.7 548.7 542.6 536.4 533 529.2 530.1 536.8 538.1 541.1 543.3 545.4 546.1 548.1 549.7 548.8 547.7 546.9 546.6 545.5 545.3 543.8 539.5 532.2 523.7 516.2 507.4 497.9 489 482 475 465.1 458.6 452.9 446.3 437.8 431.6 426 420.5 414.9 408.1 398.4 388.9 380.9 373.3 365.8 355.9 343.4 342.6 346 345.4 343.8 343.2 344.3 348.8 352.9 356.3 359.3 362 365.8 370.7 372.5 375.6 375.6 373.9 371.8 368 366.7 360.6 360.9 366.1 369.7 373 377.7 381.8 385.5 386.5 386 385.1 384.1 380 375.2 370.5 366.3 360.3
327.7 330.3 332.8 334.9 336.7 338.7 341.4 343.3 343.6 343.2 341.4 338.6 336 334.3 331.8 328.6 323.2 333.7 338 340.9 342.1 341.4 342.3 348.1 353.8 359.5 364.2 372.9 382.4 389.7 394.9 394.8 381.9 368.1 358.7 351.4 351.4 367 384 397.4 410.2 421.1 431 440.7 452.7 463.8 473.7 485.1 494.4 503.7 515 525.7 533.6 540.3 544.6 547.4 548.4 549.7 549.6 547.4 545.4 543.4 542.7 546 550.8 556.6 562.8 570.1 579.6 588 594.7 601 608.6 614.5 621 626.1 632.9 637.7 643.4 645.3 651.7 655.1 652.8 650.6 651.9 651.3 649.8 646 635 624.7 613.8 604.4 604.5 606.6 609.8 614.5 617.4 617.1 615.6 614.1 616.1 618.1 628.1 635.7 642.5 644.7 645.2 643 636.7 627.9 619.2 609.4 598.1 581.7 567.2 555.3 542.6 535.6 530.1 526.4 523.9 523.9 529.1 529.9 534.6 536.3 536.7 539.1 541.6 541.1 540.1 538.6 536.9 533.5 530.3 530 529.4 525.3 518.7 511 503.2 495 486.6 478.8 472.7 463.3 455.3 449.8 444.9 438.5 431.2 426.1 420.8 415.4 409 402 392.5 383 376.4 370.5 363 355.9 343 340.8 342 342 340.9 339.9 339.5 341.1 346.5 350 352.5 355.7 361.1 365.6 371.1 375.6 376.6 375.2 372.5 369.5 365.4 359.4 349 361.1 365.5 369.9 373.8 377.7 380.5 379.7 377.5 376.6 375 370.4 364.3 360.9 358.3 354.1
324.2 328.5 332.1 334.8 336.2 337.9 340.3 342.6 342.2 341.6 340.4 337.7 334.6 332.1 329.6 326.2 321.9 328.8 333.1 335.4 336.8 335.3 340.2 344.7 349.6 353.8 361.5 370.7 379.2 383.4 386 377.3 362.5 348.8 342.3 357.5 367.6 379.8 388.9 403.6 417.5 429.8 441.4 453.7 466.3 477.1 487.2 496.8 507.6 515.8 524.9 532.5 539.2 545.2 547.2 548.1 546.6 547 545.7 543.9 540.1 538.4 537.6 542 546.3 551.1 556.3 563.5 573.2 581.8 587.8 593.1 598.8 605 611.7 617.2 623.6 629.5 633.9 638 643.9 647.3 644.9 641.3 641.5 641.1 638.8 634.3 626.3 615.1 604.2 596.1 592 594.5 597.9 602 602.7 599.8 595.7 595.2 598.2 607.5 619.3 628.2 633.5 641 642.6 642.4 638.4 632 621.9 611.8 599 584.1 567 552.7 541.3 532 523.2 520 517.9 518.4 521.1 522.4 527.8 529.1 531.1 532.3 533.2 533.2 532.9 527.6 526.7 522.9 519 518.1 517.7 512.8 505.1 497.6 490.8 483.7 475.9 468.9 460.1 453.1 446.2 440.9 436 429.2 424.4 419.2 415.1 408.8 402.3 395.4 383.7 375.3 368.2 363.8 358.6 353.1 346.2 337.7 337.4 337.4 338.4 334.4 335.9 336.3 338.2 343.5 346.9 350.4 354.9 362.6 371.4 377.4 378.6 376.6 373.9 369.6 364.8 357.7 344.7 356.6 361.1 365.1 368.2 371.8 373 371.9 368.8 367.1 364.8 359.8 355.2 352.2 350.2 346.1
326.2 329.5 332.4 335.1 336.1 339.1 341.2 342.3 341.6 340.7 340.2 337.1 333.7 330.1 327.1 324.8 320.8 323.9 329.1 330.9 332.2 330.5 337.4 344.5 350.3 356.3 361.7 370.5 375.6 378.1 376.3 362 344.9 339.8 355.2 368.8 382.9 389 401.9 411 424 437.2 451.1 462.3 476.6 488.3 499.4 509.3 517.1 525 532.4 538.9 544.3 548.5 549 545.4 543.1 543.8 543.9 538.3 535.1 534.7 533 535.9 541.4 546.1 551.1 557.9 566.9 574.5 579.8 584.6 591.4 598.4 604.5 610.5 616.1 621.7 626.5 630.2 635.9 638.1 637.7 632.9 631.6 631.3 627 624.5 617.7 606.1 596.1 587.6 582.2 582.8 586.7 588.1 587 585.2 580.8 583.4 589.4 599.9 611.6 621.5 629.2 638.2 641.5 644.3 643.4 639.4 628.5 616.8 603.6 584.5 570.3 553 541.4 532.3 523.8 514.7 509.9 508.4 513.6 516.7 520.4 521.1 522.9 524.3 524.6 525.7 524.8 521.3 518.2 514 510.1 507.3 503.2 496.8 490.2 484.4 477.9 471.7 463.9 456.4 449.4 442 436 431.8 426.4 419.2 415.7 412.3 408.3 402.3 396.1 387.4 378.2 369 361.8 358.3 354.4 350.2 344.5 340.2 334 335.6 335.6 331.2 333.1 333.7 334.6 337.7 342.8 346 352.6 361.6 369.9 375.6 377.2 375.3 372.2 368.3 363.6 358.3 342.3 349.5 355.6 359.7 362.9 365.8 366.9 365.1 362.3 359.4 355.2 352.3 347.3 345 342.4 334.1
327.7 330.6 333.5 336.4 338.4 340.4 342 342.3 341.9 341.2 339.9 337.2 334.3 329 325.9 323.5 316.9 320 323.1 326.8 325.8 329.8 336 342.6 349.6 356.2 361.6 367.5 371.8 373.2 365.2 349 335 347.7 361 379.4 393.6 402.3 409.5 423.4 432.6 444.1 458.3 470.6 484.4 496.4 509.4 517.1 524.8 532.1 538.8 542.8 546.3 548.4 547.8 542.4 539.1 537.3 539.2 533.8 529.6 529.2 529.3 532.6 535.4 541.1 547.7 553.6 560.1 567.8 573.7 578 585.4 591.1 598 602.5 607.7 612.1 615.5 621 623.2 628.7 628.8 623.2 620.5 620.3 617.2 615.4 610.1 599.1 590.1 581.6 572.7 572.7 574.6 574.2 572.4 569.7 569.7 573.9 581.4 591.5 600.4 614.2 625.7 635.9 641.5 647.9 649 644.7 635.2 621.9 609 590 572.2 557 543.8 533.9 524.6 514.9 508.9 502 507.4 510.1 512.4 513 514.9 516.1 517.2 517.2 516.4 514.1 509.4 505.8 500.9 496.3 491.1 482.1 478 473.8 467.1 459.8 454.1 446 439 431.1 426.6 421.8 416.9 411.5 407.9 404.8 401.5 395.7 386.7 378.8 367.9 359.7 354.8 351.6 349.7 345.9 340.4 337.4 331 329.6 332.2 329.5 331 330.5 331.8 335.4 340 343.3 350.9 358.4 365.1 370.3 372.1 370.8 368.6 365.8 361.6 357.3 344.8 339.7 349 353 356.5 359.3 360.4 358.2 355 351.7 347.7 345 341.2 339.6 337.6 330.5
329.7 332.8 335 338.7 341.4 343.2 344.3 344 342.7 341.2 339.3 336.2 332.4 327.9 323.8 321.4 317.8 315.3 320.6 321.7 324.6 330.2 336.4 344 350.2 355.9 360.8 364.7 367.7 366.4 352.7 333.6 339.1 350.7 367.9 385.8 400.2 411.8 423.6 431.8 443.1 452.5 465 477.9 491.4 504.6 515.2 522.6 530 538 543.9 546.5 548 546.8 544.9 539.8 534.3 532.7 532.8 528.6 525.7 523.1 524.7 528.5 532 537.1 542.9 549.2 554.8 561.8 567.2 572.4 577.7 583.4 589.8 595.4 597.7 603.4 607.1 609.9 612.6 618.4 619 614 607.9 607.7 606.5 604.9 600.4 592.1 584.5 575.2 562.5 560.4 562.1 560.9 558.2 557.7 560.4 566.2 575.2 585.8 598.3 609.5 621.3 633.4 640.8 649.7 653.2 649.6 639.7 626.3 612.7 594.8 577.2 560.2 546.7 534.9 525.6 517.1 508.1 502.9 501.7 504 504.6 503.7 507.3 508.9 509.9 510.6 509.6 507.6 502.3 496.6 487.6 484.9 477.2 470.6 468.5 463.5 458.1 450.3 444.4 436.5 429 421.9 416.4 411.4 407.4 402.3 400.1 397.8 393.2 385.8 378.5 366.7 358.2 353.1 350.8 349.4 346.2 342 338.7 335.9 333.9 329.8 327.3 328.7 328 328.6 328.9 331.2 336.6 340.9 346.8 353.2 358.8 362.8 365.1 365.3 363.2 360.5 357.1 352.8 346 328.6 338.3 344.2 350.1 353.5 355.2 353.1 348.9 343.8 341.7 339.1 336.2 334.3 328 334.3
332.5 335.5 338.6 342.2 345.1 347 347.5 345.6 343.3 339.7 336.5 332.5 328.8 325.3 321.8 319.5 316.4 311.6 317.7 319.2 325 331.9 337.4 344.1 350.7 355.6 359.2 360.9 362.1 355.6 342.1 330 341.4 355.5 373.6 390.2 405.4 420.9 433.3 442.4 449.3 462 473 485.5 498.6 509.6 518.3 526.1 535.3 542.9 547.3 549.3 549.1 546.3 541.1 534.2 529.5 525.6 527.1 525.1 521.1 518.5 520.3 524.8 529.3 533.7 538.7 544.5 550.1 556.3 561.1 565.7 571.4 574.8 580 585.6 590.5 591.5 595.6 600.1 604.5 608.9 610.6 605.4 595.4 593.3 593.1 593.1 588.6 582.9 576.3 568.6 560.3 550.7 551.4 549.2 547 547 553.3 559.6 569.7 580.9 593.5 604.5 615.2 629.6 640.4 649.8 654.5 650.8 641.5 629.2 615.5 597.4 579.6 562.1 548.2 536.9 526.7 516.3 507.3 502.6 495.5 498.3 497.8 495.9 499.6 501.7 503.2 503.9 504.5 502.1 496.7 488.7 481.4 474.9 469.3 462.9 459.6 454.6 449.7 442.6 434.9 428.3 420.6 412.9 407.7 402.9 399 395.9 394.4 391.4 385.5 380.8 373.9 363.1 355 351.1 351.6 350.3 346.8 343.3 339.3 335.6 332.6 332.3 325 326.2 325.9 326.2 326 327.7 332.5 337.6 341.4 346.4 351 353.8 355.4 356.3 355.1 354.1 350.8 348.2 343.3 327.5 327.4 340.4 344 347.3 349.2 346.5 343.9 337.5 334.7 332.9 330.4 324.1 328.9 339.3
336.5 340.5 343.7 346.3 350.6 351.9 349.2 345.4 341.9 337.3 331.8 329.1 325.4 322.4 319.8 317.4 315.4 309.8 315.7 323.2 328 333.3 339.1 344.2 349.4 353.1 356.1 356.4 354 343.3 329.3 332.8 345.4 360.6 375.6 393.3 410.1 426.6 442.6 454.6 463 471.5 482.9 493.9 504.9 514.1 522.1 530.5 540.1 546.5 549.8 549.8 548.4 544.2 538.9 529.6 525.3 523.3 523.6 522.2 517.6 512.8 516.6 521.3 526.5 531.4 535.5 540.6 546.3 550.6 554.4 559.1 562.1 567.3 569.8 575.5 581.3 583.3 587.9 591.3 595.2 601 601.4 595 584.5 575.2 578.9 579 575.8 569.6 565.9 559.7 553 546.3 542.2 537.8 538.5 540.6 545.1 553.6 565.8 575.8 588.2 598.7 611 626.3 638.1 648.1 653.1 650.3 642.3 631 615.9 600 579.8 561.8 549 538.6 529 518.6 508.7 502.8 496.1 493 493 491.2 493.4 495.5 497.5 497.3 498.5 497.5 492.5 485.1 476.2 468.9 463.1 458.1 453.3 447.1 441.7 435.3 426.8 420.9 414.7 406.6 400.6 396.8 393.6 391.4 389.6 387.1 382.8 378.9 372.1 363.2 361.1 357.7 355.5 354.8 352.8 350.2 345.3 340.3 338.6 336.3 332.2 324.1 322.7 322.8 323.2 324.4 329 333.4 335.6 338.2 341.2 344.2 344.7 345.9 344.2 343.7 343.7 342.7 339.9 331.5 321.2 333.4 339.2 342.3 343.4 340.9 336.2 331.4 326.3 325.2 319.1 327.2 333.6 341.4
342.2 346.1 350.9 354.5 356.2 352.9 347.9 344.3 340.3 334.6 330 326.2 321.7 318.1 316.8 314.6 312.1 308.5 319.2 325.9 330.6 335.6 340.3 343.9 347.3 350.5 352.6 351.3 344.9 334.5 323.5 337.2 358 373.4 387 398.4 414.1 430.9 448.6 461.6 473.7 484.3 494.3 503.6 512.1 519.3 526.2 535 544 549 552.3 551 548.3 543.5 536.6 529.9 522 520.1 521.5 520.1 514.9 510.4 515.7 519.2 524.7 528.1 531.9 536.5 540.5 545.5 548.8 552.4 554.5 558.8 563.3 566.5 571.2 573.5 578 583.2 587.3 590 589.4 582 571.9 560 562.3 560.1 559.7 556.1 553.4 549.3 543.2 537.4 532.2 529.7 527.2 534.2 540.4 550.3 560.6 571.8 581.9 594.5 605 623.7 634.3 645.6 651.6 649.1 641.3 630.4 617 599.8 582 563.2 549.5 539 529.9 519.3 509.9 503.2 496.5 491 486.7 488.1 488.9 491 492.9 492.6 494.2 492.8 488.3 481 471.3 463.6 456.9 452.3 447 441.2 434.8 428.2 420.7 413.8 407.8 402.5 395.9 391.7 390.1 389.1 387.6 385.2 382.5 379.6 374.6 371.1 369 366.5 363.1 362 359.8 356.3 350 344.3 341.2 339.4 336 329.9 326.1 318.1 316.9 318.9 325 328.3 329.6 331.5 331.4 331.6 332.1 333.9 334.7 334.8 336.8 337.2 335.7 331.7 316.7 326.3 333.8 336.7 337.6 335.1 330.5 323.7 316.6 316.8 326.4 331.8 336.9 340.5
351.4 357.9 360.3 361 360.4 356.2 349.3 344.3 340.1 334.7 329.4 325.2 319.9 316.3 313.9 312 308.7 304 320.1 326.9 332.2 336.2 340.4 343.5 345.2 347.3 347.4 342.9 334.8 327.2 326.6 347.4 367.2 382.3 396.4 410.6 424.4 436.6 451.4 467.7 481.8 493.2 504.5 512.1 518.9 525.9 531.2 539.2 546.8 551.6 553.7 551.8 547.8 543.7 534.6 528.4 522.6 518.6 520.2 516.9 513.2 508.2 513.9 517.4 519.9 525.7 530.2 533.2 537.6 541.8 544.1 546.1 549.1 552.2 555.7 559.2 564.1 565.6 570.3 575.3 577.6 578.2 575.7 568.8 556 546.4 545.2 541.9 543.3 539.9 539.8 536.7 533.7 528.5 523.1 522.5 523.7 530 538.1 545.7 555.6 567.5 579 591.2 603.4 618.9 632.4 642.6 649.3 648.3 640.5 629.9 616.7 600.4 583.2 565.1 551.2 539.7 529.7 519.2 511 503.4 496.6 491 483 482.7 484.2 486.6 488.4 488.2 489.4 488.4 483.9 477 466.3 459.2 452.6 445.3 441.3 434.8 427.8 422.5 414.3 408.5 403 397 392.4 388.8 387.7 386.7 386.7 386.4 384.4 381.9 378.5 376 374.4 373.3 370.9 368.2 364.9 358.9 352.1 346.6 341.5 339.4 336.8 333.2 328.5 324.7 317.4 315.7 317.1 322.2 323.9 324.8 323.5 324.1 323.2 324 326.4 327.3 329 331.2 330.9 328.3 312.3 320.2 326.2 332 333.4 331.1 324.5 309.8 312.5 323.3 329.9 333.2 335.7 336.5
362.1 365.3 365.6 364.2 362 356.9 350.3 344.2 340.6 335.3 329.1 324.7 320.5 316.3 311.8 309.9 306.2 302.6 319.3 326.4 332.2 336.7 340 342 343 342.4 340 333.9 327.5 318.9 335.6 355.5 372.6 390.6 405.1 419 432.6 447.1 460.6 474.2 488.8 501.2 512.3 518.4 523.4 528.2 535.5 543.6 550.2 555.4 555.4 553.5 548 543.2 535.9 528.1 522.2 519.3 518.5 514.8 510.6 504.7 511 515.2 520.3 524.8 528.2 531.9 534.8 538.4 540.5 541.9 543.6 546 549 554.2 558.3 559.7 561.2 564.6 567.4 565.8 558.5 550.5 534.8 529.3 528.6 525.6 527.4 524.5 524.3 523 520.5 519.1 513.3 513.4 520.1 527.1 534.9 544 553.2 564 577.9 588.6 601.8 616.6 630.6 640.8 647.5 645.6 638.7 627.5 616 599.9 583.8 564.9 550.1 539.6 529.1 518.9 510.3 503.2 496.1 490 484.1 477.3 478.8 480.5 483.6 483.7 484.2 482.3 478.2 471.5 462.1 454.1 448.4 442.1 434.8 429.3 422.6 416.2 410.8 404.7 399.2 394.1 388.7 385.5 384.6 385 387.1 388.1 387.5 385.8 383.1 380.7 379.2 377.7 374.9 372.1 368 359.4 352.3 346.1 341.2 339.3 337.3 333.4 329.4 326.7 320.7 320.7 313 313.2 311.4 318.4 316.8 316.7 316.2 317.7 317.9 319.9 322.1 324.4 325 323.4 313.6 312.4 321.8 327.4 328.5 327 318.1 299.7 315.8 323.2 328.6 331.5 331.3 330.2
368.1 368.9 369.2 366.1 361.9 357.3 349.2 343.2 339.1 334.3 328.4 322.7 319 315.5 311.2 308.4 305.6 300.4 317.8 326.9 331.9 336.5 339.9 341.1 340.7 339.2 333.9 326.4 318.8 322.3 342.4 360.9 375.7 392.5 410.3 426.4 439.9 452.8 467.6 481.5 493.1 504 514.3 521.6 528.6 532.7 538.5 546.1 552.4 557.2 557.9 555.3 547.8 543.7 536.9 529.5 522.3 518.8 511.7 509.9 506.5 505.4 510 516.2 520.9 525.9 528.9 530.2 531.7 534.4 535.9 538 539.7 540.8 543.6 547.8 551.5 552.9 554 553.9 553.6 551 544.4 527.9 515 511.7 510.5 512.4 513.1 509.3 509.6 509.3 509.6 509 503.6 508.8 516.8 525.1 533.3 542.2 554.7 564.3 577.3 588.7 600.3 614.5 628.8 638.6 644.7 642.2 635 625.6 614.1 598.5 583.4 564.9 549.5 537 526.8 515.8 507.8 501.4 493.9 488.2 482.3 476.7 471.5 474.1 477.4 478.2 478.7 476.7 472.7 465.5 455.9 449 443.4 437.7 431 423.2 417.2 412.5 407.1 401.9 395.8 390.6 386 382 379.1 383 386.6 389.8 390.9 390.1 387.6 385.7 382.9 380.3 377.2 374 368 359.1 352.6 346.5 341.9 339.8 337.7 334.4 329.3 327.1 324.7 322.8 319.2 315.3 308.5 308.8 308.4 309.6 306.5 306.5 304.7 302.9 307.8 315.1 316.6 318.5 315.4 310.2 317.5 323 324.3 323.1 315.9 297.2 313 320.1 325.3 326.7 325.6 323.8
369.5 369.6 370 366.6 361.4 355.6 347.1 340.4 336.6 331.5 324.8 319.7 316.3 313.2 310.1 306.8 303.6 303 317.6 326.2 330.5 335.2 336.9 338.1 335.9 333.6 327.7 317.4 317 331.6 347.2 362.7 377.8 394.5 412.8 429.8 441.3 455.2 468.6 484.3 495.6 504.5 512.9 520.1 526.4 530.6 538.8 546 553 556.1 556.2 554 550 546.5 541.2 533.5 524 519.4 514.5 507.7 501.4 501.5 510 515.7 521.2 524.9 527.4 528.1 528 530.6 532.4 533.7 534.4 535.2 537.4 540.8 544.4 545.5 546.8 546 543.1 536.7 527.3 509.8 499.1 496.4 495.7 500.8 500.4 497.7 496.2 497.7 498.7 500 497.4 505.4 515 523.6 533 541.7 553.1 565.5 578.2 590 601.2 610.8 626.6 635.3 640.5 637.5 631.2 621.8 611.5 596 582.3 565.3 549.1 535.3 523.7 513.2 505 498.9 491.4 486.3 480.9 475.1 469.2 468.9 471.5 473.3 473.5 470.4 466.3 458.9 450.8 445.1 439.9 433.3 427.7 421.9 415.3 408.9 401.8 398.1 388.8 385.9 380.5 377.8 374.8 379.8 385.6 390 392.5 392.5 390.2 387.5 384 380.6 377.3 373.1 366.6 358.4 353.2 347.2 343.1 340.3 338.1 334.2 329.6 327.6 325.6 323 321.1 318.4 314.7 308.7 307.1 304.1 304.2 303.8 306.9 302.8 301.6 299.6 311.9 314.2 313.5 303.4 312.7 317.6 319.8 317.9 312.5 295.6 307.3 315.2 319 320.8 319.8 318
367.1 365.1 365.7 364.3 358.1 350.4 344.2 336.9 332.8 326.3 321.4 317.1 313.6 310.4 307.6 306.2 301.2 304.1 316 323.9 328.7 331.9 332.1 332.6 331.3 328 321.9 310.6 322.1 338.7 351.6 365.2 380.4 395.1 411 428.4 440.2 453.7 467.8 482.5 495.1 504.4 510.6 517.5 523.6 529.2 536.2 544 551 556.2 554.7 551.5 547.6 546.8 545.3 538.1 529.4 522.1 516.5 509.9 503 497.1 509.3 516.4 519.7 522.7 524.2 524.9 525.7 525.7 527.8 528.2 529.3 529.2 530.8 532.4 534.8 536.5 535.8 534.8 531.4 523.1 508.3 497.2 491 486.5 485.3 490 489.5 486.2 485.7 488.4 489 487.2 487.7 501.8 512.8 523.1 532.9 542 552.6 566 578.9 590.1 601.2 610.6 624.2 631.5 634.9 633.4 627.7 617.7 607.6 593.9 580.1 563.5 547.2 533.9 522.1 510.2 501.8 495.1 489.4 483.5 477.9 470.7 466.8 462.4 465.8 468.3 466.8 464.7 459.6 452.9 445.5 440.9 436.2 430.7 425.1 420.3 414.9 409.5 405.6 400 393.7 385.5 376.7 370.1 367.9 375.4 381.6 387.1 390.9 391.8 389.5 385.9 381.4 378.6 375.3 371 364.9 358.1 352.6 347.1 343.1 340.8 338.8 335.2 331.3 327.6 325.6 322.2 319.7 317.2 313.3 307.5 316.6 315.4 306.6 314.4 319.5 315.8 312 300.9 299 309.7 309.9 306.7 304.4 310.9 311.4 305.6 294.7 292 292.9 305.6 311 313.3 312.8 311.6
362.7 360.4 359.1 358 352.8 345.3 340.4 333.8 327.7 321.7 317.9 315 312.5 309.5 306 302.8 294.3 304.7 313.4 320.3 324.3 325.7 328 327.8 325.3 321 315.2 311.8 328.2 341.7 353.3 366.1 380.9 393.7 407.9 422.9 435.9 446.9 463.4 478.5 491.3 499.2 505.6 512.8 519.6 526.3 532.8 540.2 546.2 551 552.5 551.1 550.2 548.6 546 543 534 525.4 520.1 513.8 503 497.5 506 513.6 516.7 518.4 519.6 518.9 520.6 521 522.6 522.9 524.5 524.5 523.9 524.5 524.9 525.2 524.2 521.7 519.2 509.6 494.1 483.6 479 476.6 474.4 476.4 478 476.1 475.6 477.6 476.7 470.4 483.5 500.6 512.7 522.8 533.2 542.5 555.6 568 579.4 589.7 599.5 608.4 620.2 625.8 628.4 627.1 622.4 614.1 603.6 589.6 577.2 560.8 547.2 532.6 518.5 507.1 498.3 492.4 485.5 479.6 473.2 467.5 462.9 454.5 460 462.9 461 457.5 452.9 447.2 441 437.1 433.9 428.9 422.8 418.6 413.4 409.2 403.8 400 392.8 384.4 375.7 369.2 362.5 368.2 375.5 381 385.1 386.5 384.6 382.2 378.9 376.2 372.7 368.6 361.2 354.9 350.9 346.4 343 341 339.2 336.4 330.2 326.2 324.2 321.2 317.7 312.7 308.3 320.5 319 309.9 314.1 323.7 324.4 320.3 317.1 315.1 299.6 298.3 300.8 304.1 296.9 297.9 292.4 291.1 291.7 293.2 288.3 288.3 297.6 301.2 302.8 302.3
355.3 354.6 351.8 350 345 339.3 333 328.4 321.3 316.4 312.3 311.1 310.7 309.8 306.9 299 293.1 301.6 309.6 314.8 318.1 319.2 320.3 321.1 319.3 310 305.6 316.6 330.7 342.5 354.3 366.1 377.5 392.1 403.1 415.9 426.3 439.8 454.1 470.4 481.3 490.7 498.9 505.9 515.2 522.4 528.2 536.3 542.1 546.9 550.3 550.6 550.3 548.5 546.6 543.6 536.5 528.5 522.2 515.5 506.5 498.1 494.7 508.4 512.8 514.3 514.1 514.7 515.3 516.4 517.3 518.2 518 518.6 518.2 516.5 515.3 513.8 512.3 507.7 503.4 495 483.1 473.5 468.9 466.5 463.2 465 466.3 466.7 465.6 467.3 461.2 476 492 505.3 519.3 530 540.7 548.4 557.5 567.8 578.1 588.1 597 604.3 613.9 618.2 620.8 619.9 615.9 608.7 599.3 585.7 574.5 560.3 546.1 531.3 517.2 503.3 494.9 488.6 481.7 475.1 468.8 463.9 458.6 452.5 454.9 456.8 454.4 450.9 447.1 440.6 436.1 433.5 431.1 426.8 420.9 415.9 410.7 406.3 402.3 397 388.9 381.2 372.6 366 357.7 360.4 367.5 373.6 378.1 380.2 380.3 378.1 375.9 373.5 369.9 363.8 356.5 350.3 346.7 343.7 341.6 340.1 338.5 334.3 327.4 323.8 321.3 319.2 316.9 312 310.4 320 315.1 311.9 324.8 330.8 328.4 324 320.5 316.5 312.2 298.2 297.9 297 295.4 294 301.1 308.1 312.4 312 303.1 291.4 283.8 285.1 285.2 291.3
346.6 346 342.4 340 335.7 331.3 325 321.1 317.3 311.1 308.2 307.7 309.2 308.1 304.2 299.4 291 300.8 306.4 309.4 312.3 313.4 315.6 316 313.2 303.1 304.8 318.4 332.4 343.7 355.7 366.2 376.4 386.3 399 409.2 419.2 430.7 444.8 457.4 467.6 477.1 486.7 494.8 503.8 514.4 520.8 530.9 538.6 544.6 548.6 549.4 548.8 548.2 546.5 541.8 536.4 529.9 523.8 517.3 509.8 499.1 489.5 497.2 506.1 507.8 507.4 507.3 508 510.8 512 511.4 511.4 512.3 512.2 510.1 506.1 502.7 500.3 495 488.3 482.6 471.9 463 459.9 456 453.8 455.5 456.2 455.5 456.6 453.7 466.4 482 496.2 512.4 525 539.4 547.7 554.3 559.6 565.4 574 584.1 592.3 599 605.8 610.8 612.5 612.2 609.1 602.6 593.7 582.4 571.7 560.9 547.3 531.9 515.7 501 491.2 485 478.6 469.6 464.3 458.6 453.6 447 449.3 451.2 450.5 446.4 440.5 435.1 432.6 430.6 428.1 424.4 417.9 412.4 407.5 403.2 398.1 393.4 385 376.7 368.9 364.1 357.5 356.2 361.3 366.6 371.8 374.1 374.9 374.2 372 369.5 365.7 358.9 351.8 345.9 342.3 340.2 338.7 336.9 335.6 330.8 324.3 320.9 318.1 314.4 313.7 311.2 311.6 314.1 313 322.3 333.1 335.5 332.7 327.1 321.7 316.4 308.3 311.8 295.7 295 298.9 307.2 316.8 322 324.3 323.4 319.2 311.9 303.9 294.3 283.6 281.5
337.7 334.7 331.8 328.8 324.8 322.7 317.4 314.8 310 307.2 304.3 302.7 302.5 302.4 301.5 297.3 288.6 299.8 304.1 306.3 308 310 311 310.7 308.6 301 308.2 320.6 331.6 343.2 355.7 365.6 375.2 382.8 394.5 404.8 415 425 436.6 449 457.7 464.9 472.5 481.1 491.1 502.9 514 524.6 534.8 543.3 547.3 548.9 547.3 546.1 544.6 539.8 535.3 529 523.6 518 512.1 502.4 493.9 483.4 497.4 500.9 500.1 498.9 499.8 502.9 505.4 505 504.5 504.9 504.6 502.5 498.6 493.2 487.9 482.6 474.7 467.8 462.1 453.9 449 445.7 444.6 445 445.5 445.4 443.4 456.5 469.9 484.3 501.7 515.8 530.3 541.6 549.4 555.5 558.8 562.3 568.6 576.7 584.7 590.9 596.7 600.4 602.9 602.9 600.5 595.6 587.7 578.4 569.5 559.4 546.6 532 514.2 500.2 488.1 480.4 472.5 464.4 459.9 454.6 449.2 443.6 444 446.6 447.1 442.8 438.1 432.8 429.4 427 424.6 420.9 413.8 407.1 400.9 396.3 392.7 388.5 382.4 373.3 364.4 361.2 357.5 350.4 357.2 361.1 365.2 368 369.1 368 366.7 364.1 360.1 354.1 346.6 340.9 337 336.4 335.5 331.9 328.9 322.6 316.1 315.2 314.9 313 313.3 312.4 317.1 316 319.4 330.6 337.7 340.4 337.2 330.8 322.9 316.2 318.2 317.6 316.3 316 317.5 322.7 331.2 332.2 331 328 323.8 317.2 307.6 298 293.9 291.4
330.4 324.8 321.3 318.8 315.9 312.4 310.3 306.1 303.4 300.7 299.1 297.9 298.5 299.6 297.1 295.3 288.9 298.1 301.2 303.2 305.1 306.3 307 307 303.4 299.7 310.5 321.2 331.1 342.4 352.8 361.6 372.1 380 389.9 400.4 409.2 419.3 430.1 440.4 449.1 457.8 467.7 477.5 487.9 502.9 514.5 525.2 533.8 543.1 546.1 547 546.3 543.7 542.1 538.6 534.7 529.1 522.9 518.4 512.9 505.8 497.5 487 484.7 491.4 492.8 491.4 491.4 495.4 497.1 497.4 496 495.5 495.8 494 490.3 483.2 476.3 469.7 461.6 455.1 449.5 444 440.1 436.6 435.6 436.8 436.8 432.2 446.2 461.1 474.6 489 501.4 516.2 530.1 541.2 547.5 554 556.8 558.2 562.3 568.8 575.4 581.4 586.9 590.2 592.8 592.6 591.2 588 580.4 573.8 565.7 555.9 544 530.4 513.8 497.8 485 475.6 467.8 461.2 455.7 451.1 445.9 440.3 438.7 443.2 445.5 441.8 437.1 431.2 426.9 422.5 420.2 416 409.6 401.3 396.3 392.5 389.7 385.9 380.1 371.7 362.4 359.5 355.9 350.7 352.3 357 359.7 362.3 363.4 362.5 360.8 357.3 353.8 348.7 341.2 335 329.1 330.2 329.9 325.2 317.4 317.3 316.1 316.8 318.5 324.1 325.8 324.5 322.5 320.3 323.9 333.3 341 343.4 340.5 333.6 324 323.7 323.7 326.1 327.7 331.3 335 338.9 340 339 335 331.1 324.5 318.6 303.1 306.1 306.6 304
322 317.7 313.1 310.1 307.5 303.4 301.9 300.3 297.2 295.2 294.5 294.1 295.8 294.5 294.4 292.4 287.2 293.1 297.2 300.4 301.8 303 303.1 301.8 296.7 302.5 308.6 318.1 328.9 338.4 348 358.9 367.2 376 385.5 391.1 401.4 409.5 421 436.1 447.7 459.3 469.4 479.6 494.2 508.1 519.3 529.6 538.1 543.4 544.7 545 543.3 542 539.3 536.3 533.9 529.8 523.4 520.3 516.8 510.9 502.2 492.4 481.7 475.4 482.8 483.3 483.4 487.1 489.1 490 488.9 487.4 487 485.1 480.7 474.1 464.9 456.2 448.7 443.6 438.9 434.5 430.2 428 428 428.7 427.4 433.5 444.5 461.6 475.2 486.9 496.9 507.4 523.4 534 543.3 548.9 551.5 552.5 554.4 558.5 564.3 570.3 575.7 578.8 580.9 581.1 580.7 578.1 573.2 568 561.5 552 540.6 527.9 512.4 495.1 480.1 473.2 465.6 457.1 452.4 447.7 441.4 436.2 436.4 440.6 442.9 440.6 434.8 429.1 423.1 419.5 414 410.5 404.2 399 392.6 389 386.1 382.6 376.7 369.8 362.3 357.9 354.3 350.4 345.3 351.2 354.1 356.6 358.6 357.7 354.8 351.2 347.3 340.8 332.9 326.9 323 320.4 319.4 318.4 319.3 323.2 322.6 326.3 334.5 336.9 335.7 332.3 334 330.7 334.3 337.6 342.8 343.8 340.7 334.3 332.3 333.3 335.3 338.2 341.1 343.6 346 346.5 346.3 344.2 339.3 332.4 323.1 314.9 318.9 320.2 315.4 309.7
313.8 309.6 305.8 302.3 298.2 295.1 293.4 292 291.1 290 289.4 288.7 290.8 291.7 291.1 288.2 285.1 288.9 293.2 297 298.1 298.2 294.3 291.7 300 304.6 310.5 320.9 331.5 341.6 352.2 361.7 370.7 379.6 389.3 399.6 409.2 416.5 428.9 441.6 452.4 464.8 477.7 490.2 503.4 517.1 526.8 536 543.1 544.8 543.5 541.1 538.1 536.4 534.2 532.6 531.1 528.4 523.8 521.2 519.7 515.4 508.5 500.5 490.7 480.6 471.7 473.7 475.4 478.3 481.9 482 481.1 480 479.3 476.2 469.7 463.1 453.8 445.1 439.6 434.6 429.5 425.9 423 420.5 418.3 420.8 420.5 430.8 441.3 455.7 468.1 483.5 491.5 498 511.7 525.2 534.2 539.5 541.3 543.9 544.2 546.8 552.3 556 563.2 566.9 568.2 568.4 569.4 568.9 565.9 561.3 556 548.5 537.7 525.8 511.1 496.7 479.5 469.3 462.9 455.8 448.5 443.8 436.8 431.9 432.4 437.9 440 437.7 431 425 421 416.6 410.2 402.8 399.4 394.4 388.6 385 382.3 379.3 374.3 367.6 360.4 355.5 352.9 349.9 343.8 344.4 347.4 350.9 353 351.6 348.7 344 337.3 326.4 323.1 322.4 321.7 325 328 331.6 336.1 335.5 333.5 339.4 346.4 349.7 349.4 347.8 344.4 340.4 343.4 345 346.5 345.6 343.1 338.6 343.3 343.9 346 348.5 350.8 352.5 353.1 353.8 351.7 347.4 340.6 325.6 330.2 330.8 329.7 326.9 322.3 315.6
306.6 301.6 299.1 295.6 291.8 289.2 288 287.3 285.6 284.6 283.5 283.6 284.7 287.1 287.4 286.9 283 285.6 286.3 288 287.2 286.7 290.4 299 306.3 313.1 309.6 319.9 335.6 347 355.2 366.7 374 382.7 392.3 405.2 419.7 431.8 443.1 452.1 462.1 473.3 486.7 500.9 513.2 524.8 532.9 540.6 545.4 543.6 541.7 536.2 532.8 531.7 531.5 527.6 526.6 524.1 521.6 520.5 521.1 519 514.3 507.1 499.1 490.1 480.5 468 466.5 469.9 473.6 475 474.1 472 470.9 466.1 458.7 452.8 444.8 439.4 432.4 427.2 422.8 420.1 416.6 414.1 409.3 409.9 415.2 424.6 435.3 449 461.1 471.3 482.9 488.6 496.7 511.5 520.6 526.4 528.8 529.1 530.9 534.4 540.4 544.1 548.5 551.1 553.5 555.4 558.8 559.8 558.8 556 550.5 543.2 533.6 523.5 511.1 497.8 481.2 469.4 461.9 454.1 446.4 439 433.4 428.4 430.5 435.1 436.6 434.8 429.2 422.5 419 413.3 407.6 400.2 392.5 388.9 384.4 381 377.9 376 371.9 365 358.2 353.2 351.5 348.5 344.3 339.1 342.4 345.9 348 346.4 343 338.9 330.1 324.2 324.3 322.7 328.1 335 339.4 342.9 345.3 345.2 347.4 348 355.1 359.5 360.4 358.5 355.8 353.6 352.6 351.5 350.8 348.6 345 348.2 351.6 354.1 355.1 356.8 358.2 358.5 358.6 357.5 353.9 348.1 335.5 339.7 339 337.5 335.4 332 328.1 322.8
302.2 296.9 293.3 290.7 287 284.7 283.2 282.4 280.9 279.1 278.3 279.3 280.7 281.9 283 281.5 280.8 281.1 282.9 285.2 295.1 299.9 303.3 308.8 313.8 321 322.6 323.9 330.1 348.1 357.3 366.9 376.6 384.1 396 411.2 428.1 442.1 451.7 460.8 470.4 481.2 494.2 506 518.6 529.5 538.1 543.1 540.2 537.6 534.3 528.9 525.5 525.1 525.2 520.9 519.5 518.4 517.7 518.8 520.3 520.5 517.7 510.7 503.8 495.7 487.8 479.8 470.3 462.3 465.5 467.6 468.7 467.2 463.3 455.9 446.9 444.6 439 432.5 427.7 422.2 418.1 414.7 411.2 407.7 404.4 401.5 411.8 419.3 427.6 440.3 452.8 459.9 468.2 476.8 483.2 492.9 503.6 510.4 513.6 514.8 517.2 521.2 527.2 531.4 535.4 539.2 541 541.9 546.8 550.1 550.6 549 544.7 537.6 530.4 522 512 500.1 485.7 471.3 461.3 453.6 445.2 437.4 429.4 424.3 427.9 433.1 433.1 432 427.7 421.7 417.1 412.4 407.2 399.1 392.3 383.6 377.7 375.5 371.7 372.2 368.9 362.7 356.5 352.2 349.9 347.3 343.8 340.7 335.9 340.9 342.2 341.2 339.1 335 324.9 325 326.3 330 336.5 345.2 352.2 356.5 356.1 356.9 358.7 356.3 364.4 368.8 369.7 368.6 365.7 362.9 359.9 357 354.8 351.9 350.1 352.9 358.7 362.9 363.4 363.5 363.2 361.8 359.9 356.8 347.2 348.8 347.7 346.1 344.8 342.6 339.9 336.6 333 328.7
296.6 291.8 288.6 286.7 283.5 281.1 278.7 277.7 276.7 275.8 275.7 276.2 278.4 279 272.5 277.3 279.3 288 292.3 296 303 308.7 313.9 319.8 324.4 329.6 332.8 332.6 333.6 340.9 358.4 368.3 378.5 387.4 400.5 415.8 433.1 448.1 458.5 467 476.1 486.6 498.5 510.4 520.2 530.8 538 540 535.8 531.7 525.3 518.8 515.3 515.9 516.1 512.7 509 509.9 511.3 513.9 516.7 518.6 517 511.2 505 497.4 489.2 482.7 476.5 466.2 458.5 460.3 461.4 459 448.7 440.1 435.4 432.1 425.3 425.9 421.5 417.2 411.3 407.9 405.5 401.6 397.3 394.6 406.3 413.9 420.2 430.7 441.7 447.4 455.3 461.8 468.9 477.8 484.7 491.2 495.5 498 500.1 504.4 512.3 518.2 520.7 523.2 526.3 528 535.2 539.9 541 540.2 538.5 532.4 526.3 519.8 511.7 501.9 490.3 475.6 464.1 454 445.2 436.2 428.1 414.2 426.1 429.8 430.3 430 427.1 420.8 415.5 410.3 405.2 398.5 390.9 382 375.6 367.6 367.3 367 365 359.9 353.8 350.1 347 345.9 343.1 340.3 335.4 334.9 335 335 333.7 327.7 325.9 327.9 331.9 336.4 344.7 353.6 361 366.6 367.4 368.9 370.1 368.5 373 376.4 377.1 375.4 372.2 369.3 365.8 364 361.1 357.7 357 358.2 366.7 369.8 369.3 368 365.7 363.1 360.3 357.3 356.1 355 353.3 352 349.3 347 344.3 340.9 337.8 333
290.4 287.7 284.3 281.9 278.8 276.9 274.5 273.4 272.2 272.5 273 273.1 268 274.4 275.3 280.7 285.1 291.9 296.9 302 309.4 316.1 321 327.6 333.8 338 341.4 342.9 344.9 352.2 361.1 368.9 380 391.5 404 419.1 434.7 448 459.7 470.6 479.9 489.6 503.4 514.9 524.9 532.6 536 535 533.6 527.6 519.2 508.6 504.4 504.8 507.7 502.9 502 499.8 503.3 506.8 511.5 514.9 514.5 509.1 503 496.3 489.1 482.4 476.5 471.6 464.6 454.7 450.8 454.3 458.1 456.2 452 447.1 439.3 422.7 421.2 416.7 411 399.7 393.5 392.6 390 389.7 398 407.2 411.6 420.8 429.9 436.9 442.6 446.2 450.6 458.6 465.8 470.9 474.9 480.1 483.2 489.8 498.6 505.1 508.7 511.8 514 514.9 522.6 528.4 530.8 531.3 529.6 526.5 521.7 516.9 510.8 501.4 491.5 478.7 467.2 456.7 446.4 436.3 425 414.5 422 426.3 427.5 427.9 425.4 419.4 412.8 407.4 401.8 395.3 388.3 380.9 373.7 365.1 362.5 361.7 360.1 355.3 350.1 346.4 345 344.3 341.8 339.9 337.2 331.5 329.6 328 328.2 326 334 337.3 339.1 346.8 352.3 359.9 370.7 377.9 378.8 379.3 378.1 375.6 379.1 382.3 382.6 380 378.4 375.7 372.5 369.2 367 364.3 364.4 363.7 371 373.7 372.2 370.1 367.1 363.6 362.3 360.5 360.6 359.3 357.7 355.9 353.5 351 348.1 344.6 341.4 335.4
286.3 283.2 279.9 277.5 275.3 273.2 270.8 270.3 270.5 268.9 268.8 268.3 272.6 274.4 276.5 284.9 289.5 293.8 300.9 306.8 317.3 321.6 328.3 334.1 342.4 348.2 351.7 355.4 356.6 361.5 368.6 377 380.4 394.6 408 421 434.1 447.1 459.8 470.8 484 494.4 508.1 519.4 529.1 533.3 535 530.8 526.3 521.2 513.6 508.4 497.4 494.8 495.1 492.5 488.1 488.6 492.3 497.5 503.4 509.2 508.5 505 498.3 491.8 485.1 479.4 474.7 470 466.6 464.4 468 468.8 469.3 468 464.1 458.5 450.9 442.3 435.8 427.8 419.5 411.2 403.3 385.8 382 384.6 389.9 396.8 402.4 408.5 414.9 421.6 429.6 432.5 432 439 446.1 449 453.4 458.9 467 477.8 487.3 493.5 496.2 499.6 500.4 502 509.1 516.8 519.8 521 521.7 520.1 516.9 513.4 508.3 500.2 491.1 479.7 469.4 460.3 450.6 435.9 422 411.7 417.1 422 422.3 423.7 421.9 415.9 409.3 403.2 397 389.5 381.6 377.3 370.8 366.5 357.9 353.9 353.9 349.9 346.4 343.7 342.8 342.5 341.2 339.1 336 331.2 329.3 329.7 336.9 342.1 343.5 345.6 349.9 354.4 359.9 367.5 377.7 385.7 387.7 387.4 384.5 380.3 385.4 387.1 387.1 385.1 382.8 382.4 380.8 378.4 374.3 370.7 370.9 370.2 375.3 376.9 375.3 373 369 366.3 362.6 364.9 364.9 363.4 361.3 359.9 357.9 355.7 352.1 349.3 343.3 337.1
281.9 279 275.3 273.6 272.4 269.8 268.9 269.1 268.4 267.5 266.9 271.6 272.9 274.6 280.4 287.8 291.4 296.4 305.4 314.2 321.1 327.7 333.7 341.1 350.2 356.9 364 369.2 370.9 373.3 380.8 388 395.5 403.2 412.5 425.1 436 447.2 459.9 471.6 484.9 498.4 513.5 523.9 529.6 533.3 531.9 527.9 523.6 516.9 512.7 505.7 498.2 488.7 486 481.1 478.6 478.4 481.5 487.7 494.8 500.9 502.9 501.2 492.7 485.6 479.6 473.5 470.1 465.3 463 465.4 469.5 473.2 475.7 478 475.9 471.8 464.6 457.2 450.4 442 430.6 422.8 414.7 402.9 386.9 377.2 383.8 389.5 394.4 399.6 404 407.7 413 416.8 418.2 424.2 428.7 431.6 436 442.6 453.9 465.5 475.5 481.3 484.7 487.9 489.8 491 496 504.9 507.8 510.8 513.9 514 511.8 508.7 505.4 497.9 489.1 481 472.9 465 457.8 442.7 425 406.8 411.5 415.5 416.4 415.8 415.3 410 404.5 397.1 390.9 385 375.5 370.1 365.4 361.5 357.5 353.6 345.6 345.8 343.9 341.5 339.8 340.1 339.9 337.5 331.5 330.8 333 341.4 347 350.2 351.5 352.6 357.8 361.6 368 376.2 385.7 391.8 394.9 393.6 390 388.2 391.7 392.4 391.6 390.5 389.3 390.4 390.1 387.5 384.5 381.7 378.1 377.5 378.9 380.1 377.5 374.9 371.4 368.1 366.5 369.1 369.2 368.9 366.6 365.4 363.4 360.9 356.5 352.7 345.9 336.7
277.9 273 271.1 270.3 269 267.8 267.2 267.8 266.4 265 265.9 271.3 272.8 276.6 280.2 287.5 293.4 298 310.4 317.8 326 332.7 339.5 350.1 357.9 365.1 374.2 381.2 383.8 385.9 391.2 400.8 406.3 412.2 421.3 430.1 440.5 451.4 463.6 477.1 490.5 505.3 518 524.4 530.4 532 529.8 523.1 520.7 513.9 511.5 503.7 494.4 484.7 481.2 476.5 474.2 472.6 475.1 479.6 486.8 491.7 494.6 494.8 487.6 476.8 470.2 465.2 461.7 458.7 457.8 460.6 464.6 469.9 471.4 475.1 478.6 479.1 479.4 475.4 465.4 456.4 446.3 435.9 429.5 416.4 398.6 379 375.9 383.5 386.8 391.2 394.1 396.3 398.6 401.2 404.9 409.3 412.3 414.8 422.1 431.1 442.6 454.3 460.6 468.7 473.7 476.8 479.1 481.4 486.9 492.5 498.5 503.9 507.7 508.1 506.3 503.7 499.3 494.2 487.8 480.6 473.8 469.6 464.4 453 430.6 415.3 404.5 407 407.9 408.2 407.1 404.9 398.3 389.4 384 377.5 369.8 363.9 362.2 356.4 352.7 349.1 345.7 340.3 338.9 336.4 336.4 335.2 335.3 333.7 332.3 337.7 338.6 345.1 352.2 356.4 359.3 362.1 366.7 370.5 375.7 384.4 391.4 397.4 400 398 395.4 394.1 397.2 399 397.8 398.8 400.2 400.5 401.2 398.1 392.9 389.5 385.6 382.9 382.7 382.1 379.6 376.5 373.2 369.5 370.4 373.5 374.8 376.1 374.5 372.7 368.7 365.1 361.7 355.9 347.4 337.9
275.6 271.2 268.6 267.5 266.3 264.5 263.2 263.3 263.5 264.6 269.8 270.5 272.8 277.3 281.7 286.6 294.2 300.9 311.3 320 329.2 337.1 347.8 357.8 366.7 373.3 383.4 392.8 398.2 401.2 407.4 416.2 420.8 424.4 431.8 438.8 447 456.8 469.3 482.6 497.3 512.3 520.8 526.5 529.5 528.3 523.9 517.4 511.1 507.4 504.1 502 495.4 485 478 473.7 469.8 468.4 469 473.5 477.7 482.8 484.8 484.5 479.2 468.1 459.6 454.4 450.8 449.7 450.7 453 457.1 460.3 465.4 466.2 471.6 477.3 479.7 481.7 479.4 472.9 462.2 450.6 440.7 428.1 410 390 362.9 371.1 380.2 383.3 384.7 387.4 387 387 391.6 394.6 397.6 402.9 410.6 419.9 431.9 442.3 448.9 456.9 462.4 466.7 469.1 473.4 478.2 484 491 498.9 503.5 504.1 500.6 498.1 494.4 489.8 484.8 479.4 475.3 471 465.8 458.2 441.3 423.3 406.9 394.5 399.3 398.8 397.7 397.6 392.6 381.2 374 369.3 363.7 359.5 356.4 352.4 349.1 344.9 341.9 340.6 339.6 337.9 336.2 335.2 334.2 333.9 341.9 342.1 339 347.3 354.6 360.7 367 371.1 375.3 381.1 385 390.2 398.3 401.7 403.6 403.1 401.4 400.7 404.3 406.8 407.5 408.8 410.3 410.4 410 405.9 401.5 396.2 392.6 388.8 386.3 383.2 381.3 377.5 375.2 370.3 374.5 379.3 382.1 382.6 382 378.5 373.4 368.6 364.1 357.3 349.8 339.3
273.1 269.8 266.6 263.1 264.2 260.9 262 262.3 263 267.8 269.7 270.4 272.9 276.7 282.8 288.7 296.9 305.6 311.9 320.3 331 342.3 351.9 363.6 371.9 381.4 392.2 403.6 409.6 413.9 423.3 431.5 437.9 443.4 448.1 452.2 456.7 464.7 476.5 488.9 502.1 514 522.9 528.1 528.8 523.2 519.7 511.6 505.4 502.6 500.5 497.2 492.6 483.4 476.2 471.2 467.2 465.8 463.5 465.3 467.7 471.2 474.7 471.7 466.8 457 449.2 441.8 438.7 438.6 434.2 440.5 445.5 449.2 454.5 457.6 460.8 466.8 474.6 482.2 482 480.2 474.3 462.6 449 436.1 420.6 401.7 382.4 356.7 368.1 375 375.3 375.3 376.6 377.5 380.7 381.8 386.3 393.1 399.9 408.5 417.4 429 438.5 446 451.9 456.3 458.4 464.8 470.4 477.7 485.9 494.9 501 500.9 497.3 494 491.1 487.4 482.7 477.9 473.5 468.7 465 458.9 449.9 439.4 420.5 404.2 385 391.1 389.5 389.3 385.1 374.1 366.3 362.9 359.4 355.4 351.2 348.9 346.4 344.5 342.9 343.5 342.9 342.3 340.8 336.8 338.9 343 345.3 346.8 347.5 347 355 361.8 370.6 377.9 383.9 390.3 395.2 397.3 403.9 408.3 408.7 409.4 410 410.9 412.6 415 415.6 418 418.2 417.3 416.1 411 406.1 400.9 398.2 395.1 390.7 386.5 382.6 379 376.5 373.2 379.2 383.6 388.1 388.2 387 382.6 377.1 371.1 365.4 357.8 348.7 338.6
269.6 267.9 265.2 258.9 259.6 260.5 261.2 260.8 264.9 267.8 269.7 271.7 275 278.4 284 290.7 296.7 305.7 314.5 322.4 331.5 344.7 354.1 365 374.6 386.4 399.6 410.6 418 423 433 443.3 452 456.4 461.1 466.8 471.8 476.7 485.9 497.7 508.4 515 522.2 525.5 525.7 519.4 513.7 506.9 500.4 499.5 496.4 491.8 487 481.2 474.3 469.2 464.5 463.1 457.2 457.3 458.2 460.1 464.1 460.7 455.3 445.3 437.4 431.7 425.9 426 422.7 428.1 427.7 436.5 441.8 446 449.6 454.4 466.8 475.9 479.4 479 477.7 470.8 458 442.3 427 409.2 391.4 374.7 349 360.5 364.1 365.7 365.7 368.8 369.7 371.6 375.3 382.6 389.6 396.8 403.9 414.8 425.9 434.2 441.1 446.2 449.1 455.6 463 472.3 482.1 490.4 496.3 496.9 493.3 489.2 486.4 483.1 478.9 474.9 470.9 465.3 462.8 458.5 450.7 442.5 429.9 411.9 396.5 379.5 384.3 381.6 378.1 369.9 364.2 360 356 353.8 351.8 348.4 346.5 344.6 345.9 345 344.7 343.5 341.1 338.1 341.8 345.5 348.7 350.6 352.4 353.7 355.6 361.8 372.9 381.5 389.1 395.6 403.3 407.3 408.2 413.8 414.2 414.3 416.7 418.1 419.7 421.6 425.1 425.2 424.4 422.6 419.9 415.9 412.1 408.2 403.6 399.9 394.8 388.5 383.3 381.4 379.6 378.1 383.9 389.2 392.3 393.1 391.2 386.5 380 373.5 366.5 356.9 347.5 335.4
265.2 264.1 257.1 258.5 259.2 258.8 262.4 264.7 266.3 268.9 270 272.3 273.4 277.9 284 290.3 297.3 306.6 315.9 322.6 330.4 343 353.5 363.8 374.4 386.1 401.1 413.3 422.6 427.4 439.3 449.6 458.8 464.1 467.5 476.7 484.7 488.9 496.4 506 512.6 516 521.2 521.2 519.7 514.5 509.4 503.1 494.5 493.6 488.7 484.2 482.1 477.7 472.3 466.6 464.2 460.2 454.9 450.7 451.4 450.7 451 449.6 444.7 436.7 427.9 420.5 416.6 413.6 409.1 416.1 417.7 418.9 425.9 432.3 436.6 443.3 453.1 463.9 470.6 473.5 474 470.3 462 447.6 430.9 414.7 398.9 381.9 368.5 347.2 337.1 347.9 354.8 357.2 358.9 361.9 366.8 370.5 377.7 385.7 392.8 401.9 413.4 423.4 431 436.1 440.8 446.4 455.3 464.7 477 485.4 490.9 491.2 488.6 484.7 481.3 477.5 475 471.2 467.4 464.1 459.5 455.7 449.3 441.2 430.7 418.3 403.9 392 375 372.1 372.2 367 362.7 357.9 355.6 353.2 350.9 350.7 352.8 348.8 346.9 346.1 345.6 344.2 343.1 339.5 344.2 347.6 352.4 356 358.5 360.6 360.9 365.3 375 383.5 391.7 398.3 406.7 411.7 415.7 417.3 418.7 420.2 423 426.3 428.5 430.4 431.1 430.1 428.4 426.1 422.1 418.3 417.2 413.4 408.2 403.2 398.2 390.7 387.5 384.3 381.8 382 388.1 393.5 396.8 397.3 395.5 390 382.8 375.6 367.3 356.9 346.2 334.5
256.7 260.1 259.8 259.6 265 268.4 267.1 267.1 269.3 272.1 273.8 275.1 276.1 279 284.5 291 298.5 305.1 314.6 323 332.4 340.3 351.8 361.4 370.8 384.7 398 415 423.7 428.4 437.9 450.2 459.1 463.1 474.1 483 490.9 496.7 502.9 510.4 514.9 517.7 520 517.1 513 506.9 503.1 496.5 489.9 485.5 481.1 477.4 474.1 470.7 469.4 462.6 461.4 459.1 454.8 447.1 442.1 441.7 441.8 439.1 435.1 428.9 419.5 413.1 406.9 403.1 395.7 403.4 406.1 401.2 410.7 418.2 423 429.6 440.2 447.8 455.8 460.7 464.3 464.7 460.2 451.7 437.4 418.9 402.9 389.6 375.9 362.4 343.5 327.1 333.6 346 348.7 351.9 356 360.9 367.1 374.3 381 389.9 401.4 412 420.4 426 432.1 441 451.4 460.9 472.5 480.7 485.2 485.9 484.1 480 476.6 474 471.4 468.2 464.3 460.3 456.2 452 445.8 438.2 429.1 419.9 410.7 403.1 388.2 376.1 368 364.7 359.8 361.8 360.1 358.3 356.6 354.4 352.4 350.3 349.1 347.9 347.3 348.7 343.1 340 345.3 349.8 356.5 361.8 364.6 367.5 368.5 363.8 376.7 386 393.5 400.4 408.1 414 418.2 420.3 421.7 424.4 428.7 432.6 435.9 436.9 435.5 433.4 431 428.6 423.7 421.5 420.7 417 411.1 406.9 401.8 396.9 392 387.6 384.3 386.3 393.8 398.9 401.6 402.3 399.4 392.8 385.3 377.2 368.5 358.2 346.9 335.3
275.1 274.3 274.2 276.1 278 279.7 275.8 273.5 273.9 275.9 278.2 279.3 280.5 283.6 286.1 287.5 298.1 307.2 314.5 323.5 332.4 340.2 347.9 358.7 368.8 379.5 393.5 409.1 418 424.4 433.5 446.6 458.9 465.5 475.5 487.5 494.1 503.9 505.4 510.4 519.1 521.3 521 516 508.3 504 498.5 491.9 486.5 480.4 474.6 471 466.3 463.7 463.1 460.1 459.1 458.3 454.5 447.9 437.3 432.9 432.5 430.3 426.6 422.3 415.2 406.3 399.2 393.7 388.5 392.4 392.5 391.5 397.2 403.8 408.1 414.9 422.8 429.1 437.5 444 451 455.5 455.4 451.8 442.3 425.4 409.8 394.9 380.2 368.7 354.3 336.9 322.7 329.4 335.2 340.7 346 350.2 354.5 362.1 370.9 379.6 391 401.6 409.3 417.5 424 434.7 447.5 458.3 468.5 475.7 479.8 480.3 478.4 474.9 471.4 469.6 467.5 463.9 460.5 456.3 452.4 448 443.1 436.8 428.1 420 411.8 401.9 386.8 372.3 370.3 367.8 367 365.7 364.1 362.2 359.5 357 354.7 353.2 351.4 349.6 349.2 348.2 346.4 341.4 346.8 352 360.4 365.3 369.3 373.7 375.5 375 377.3 384.2 390.2 399.2 407.6 415 419.3 421.4 423 427.1 431.7 436.2 440.6 441 438.6 436.4 432.9 429.8 426.9 425.4 423.5 419.2 412.9 408.6 406.2 401.6 396.5 391.5 387.4 391 399.2 403.6 406.7 406.2 401.9 395.1 386.5 378.1 368.8 359.6 349.6 337.5
284.6 282.4 283.2 284.3 286.4 286.7 285.3 282.3 280.9 282.6 282.8 284.1 286.3 288.4 292.5 296.8 300.1 302.6 314 323.1 334.1 340.4 344.5 353 363.5 375.3 387.8 400.6 411 419.1 428.8 441.3 454.5 463.8 477.3 486.2 497.7 499.3 505.3 508.6 520 522.4 521.6 519.9 516.6 511.1 503.2 494.7 487.4 481.3 469.7 464.5 459.6 457 456.1 457.1 456.9 455.9 452.7 446.3 438.7 421 423 422.2 419.8 415.7 410 399.7 391.6 386.7 379 380.3 381.7 383.8 385.7 388.1 394.6 399.9 406.5 413.9 422.2 429.6 437.7 445 450.9 452.1 446.1 436.5 420.7 404.4 387.5 374 357.9 341.7 328.2 315.4 323.2 329.3 334.4 338.3 344.3 350.8 358.1 367 378.1 390 398.3 411 420 430.5 442.5 453 462.9 469.8 473.1 474.6 472.4 469.9 467.3 465.5 462.9 457.3 451.3 450.5 448.4 445.3 440.1 434.3 427.6 418.6 401.5 384.5 378.7 382.3 380 383.4 378.5 374.5 370.5 367.9 366.2 361.8 359.6 356.3 354.2 351.8 350.3 348.3 346.1 342.7 347.8 355.7 364.2 370.3 374.1 380 381.5 382.2 384.7 387.7 393 398.7 402.9 413.6 419.6 422.7 426.5 430.1 433.9 438.6 442.2 443.4 441.6 439.1 435.9 432.1 429 428.3 424.2 419.9 416.5 413.5 409.9 405.1 400 395.7 390.3 397.8 403.4 407.9 410.6 409 403.9 395.7 386.8 377.9 368 359.2 348.3 337.5
293.5 292.5 293.3 293.1 293.6 294 291.8 290.2 288.7 288 288.1 289 291.9 293.7 298.1 303.1 306.8 309.9 317.5 324.8 328.3 338.5 343.9 350.8 357.8 368.9 383.4 394.4 402 411.5 421.2 430.9 442.1 457.8 471.5 481.6 494.3 496.2 501.6 505.6 516.4 520.9 524.5 525.4 523.4 517.6 509.1 501.3 496.4 490.6 473.5 461.9 453 451.6 450.8 452.1 453 452.4 447.8 444 437.1 427 408.1 412.4 411.1 406.9 400.4 391.8 382.1 377.1 371.5 370.2 371.5 372.6 374.6 378.9 382.7 388 394.3 401.3 409.7 416.2 427.2 439.5 447.9 452.4 449.5 443.8 433.7 415.7 397.9 380.2 364.3 347.7 334.8 320.8 312 317.6 324.7 328.8 335.4 342.2 348.9 356.1 367.5 383 396.2 407.3 416.6 426.8 438.4 448.5 457.6 462.1 466 468.1 467.2 465.2 462.8 461.4 459.9 455.1 448.7 444.2 443.3 442.4 435.1 429.3 416.7 415.3 402.4 388.5 399.1 401.5 396.2 394.5 396.3 392.7 385.9 379.1 374.3 368.8 365.2 361.3 357.6 354.6 352.3 349.2 347.7 344 349.1 356.9 365.5 373.2 379.3 383.9 387.1 390.4 391.1 394.6 400.8 408.2 411.6 413.2 417.9 424.4 428.6 432.7 436 439.3 443.8 445.2 444 442.2 438 433.9 430.3 428.6 427.1 423.3 418.4 415.9 412.3 407.6 402.6 399.3 395.2 401.6 407 411.1 414.4 411.4 404.6 395.4 385.8 376.6 366.3 356.8 347 335.4
302.2 303.8 303.4 303.5 303.1 301.2 301.3 298 295.1 293.9 294.8 295 296.4 298.7 301.4 307.7 312.6 315.8 321.9 329.7 335.2 336.7 339.2 349.6 354.6 362.1 372.1 385.2 397 404.8 414.9 425.3 438.7 450.5 463.9 475.9 485.4 492.7 499.5 504.4 513.9 523.4 526.4 527.1 524.5 519.3 512.4 504.6 499.7 489.1 476.5 462.7 455.7 450.5 444 444.5 446.8 446.2 444.5 440.3 434.3 425.7 414.1 398.8 400 396.1 389.8 381.6 373.3 367.6 360.6 359.8 363 360.6 363.3 368.1 375.1 380.2 385.3 391.4 398.8 408.1 421.1 435.4 446.3 451.1 451.2 446.2 437.5 420 403.4 387.5 372 353.3 338.5 325.2 312.7 306.9 313.3 320.7 327.4 331.7 335 350.7 364.8 380.2 393.3 404.8 412.9 421.9 433.2 442.5 449.5 454.6 458.4 461.9 461 459.9 459 457.1 455.4 451.6 447.7 443.5 438.1 436.4 420.9 411.5 411.7 402.8 405.9 413.6 412.5 413.3 413 411.8 409.7 406.3 401.1 392.8 386.8 378.4 371.8 367.1 362.9 358.6 354.4 352.5 350 347 348.9 358 365.5 373.9 382.7 389 391.9 397.2 399.4 404 410.9 416.4 419.9 421.9 423.8 425.1 429.5 434.6 439.1 442.3 444.7 447.3 447 444.9 440.7 437.8 435.8 434.8 430.7 425.6 420.1 416.9 412.8 408.5 405.7 401.9 398.5 404.5 409.4 415 416.5 411.4 403.5 393.8 383.1 373.5 363.9 354.1 343.7 333.4
309.7 313.2 314.6 314.1 312.8 312.8 313.6 310.5 305.6 302.6 302.2 302.5 302.7 304 306.2 311.2 317.1 320.3 325.7 331.7 340 344.3 345.9 345.5 354.2 360 366.7 377.9 389.5 398.8 409.2 421.4 432.7 449.1 459.9 474.5 484.9 488.7 497.3 506.7 516 521.9 526.6 526.4 524 519.5 513.7 507.6 498.5 488.7 476.7 464.1 454.4 446.3 441.8 439.9 440 443.3 441.4 438.4 432.8 425 413.1 401.9 383.9 383.3 379.1 371.5 364.5 357.8 351.9 347.4 350.3 350.3 353.6 356.8 361.6 367 375.7 382.8 390.4 402.4 415.6 429.9 441 448.5 448.8 441.4 432.4 418.5 404.9 392.2 376.2 361.6 345.5 331 317.8 301.5 305.1 313.3 318 321.4 334.3 348 363.6 378.2 390.5 402.3 409.8 420.4 429.4 436.7 442.5 449.9 453.8 457.6 457.8 457.3 456.8 455.4 452.2 447.7 441.8 434.8 431.8 441 430 424.6 421.8 418.6 423.5 423.3 424 423.9 423.6 423.6 422.6 419.9 418.9 412.2 402 391.4 382.4 374 367.4 362.5 358.9 356.6 353.8 353.3 351.4 355.7 365.1 373.6 383.7 391.5 397 402.1 406.6 412.9 418.8 423 425.5 427.8 429.4 429.5 430.7 436.3 441.6 445.4 447.7 449.5 448.1 446.8 443.9 440.5 439.4 437.4 432.6 427 419.6 417 413.2 410 407.1 402.2 404.2 406.1 411.3 416.3 416.2 411.1 402.3 391.1 381.2 370.1 360.2 350.3 340.4 330.7
317.6 320.6 323.5 321.3 322.2 323 323.5 321.7 317 312 309.5 307.9 308 309.3 312.1 316.4 322.7 325.9 331.7 337.4 343.8 348.9 353.2 354.7 356.5 360.6 368 374.2 385.8 394.3 406.9 419.7 430.2 446.1 456.7 468.6 478.4 491.3 499.6 511.9 518.8 522.9 526.2 526.2 522.8 518.9 515.7 510.4 499.8 487.9 477.1 463.8 450.9 442.9 436.7 430.5 435.4 436.8 437.9 435.6 431.1 423.5 413.9 402.6 391.4 378.8 367.7 361.8 354.1 350.4 345.1 339 338.3 340.6 342.3 345.8 349.9 356.5 361.6 374 383.5 396 409.4 422.2 434.4 439.8 440.8 432.7 423.4 412.1 400.3 387.3 376.7 362.4 351.5 337.4 322.5 301.8 297.5 305.9 308.3 319.3 331.2 345.2 359.9 373.6 387.9 398.9 407.7 416.1 424 431.7 437.8 444.1 449.6 454.2 455.5 455.8 455.6 454.5 448.3 446 450.3 447.7 445 444.2 439.6 431.8 432.5 431.7 432.6 435.2 436.3 437.1 433.9 436 435.9 435.2 433.6 427.3 417.1 406 394.6 384.2 374.2 367.7 363.6 359.6 358.2 359.5 354.5 356.3 366.3 375.2 383.9 394.3 399.6 405.7 411.4 418.6 424.6 428.5 430.7 433.1 433.6 433.9 432.1 435.7 443.2 446.7 450.6 451.1 450.7 449 446.6 443.7 441.1 438.6 433.6 427.4 420.7 416.6 413.5 410.8 408.7 404.9 406.1 407.7 412 415.7 414.3 409.3 400.3 389.9 377.6 367 356.6 346.8 337.4 328.2
324.1 328.5 330.8 331.6 330.9 331.7 330.8 328.5 325.1 321.3 317.9 315.9 314.9 315.4 318.5 322.9 329.6 332.9 336.7 344.5 350.9 356.5 361.2 361.4 363.7 367.3 369.5 376 382.1 391.9 401.3 416.6 428.7 441.2 452.3 464.1 475.5 491 502.5 512.9 519.1 523.7 525.8 528.4 525.4 520.9 516.3 509.5 498.6 489.6 479.2 462.8 446.4 436.7 431.6 425.4 427.1 430.5 434.1 431.8 428.9 420.9 413.6 405 393.6 380.1 365.8 349.3 348.4 344.7 339.8 335.2 329.5 332 335.1 337.5 343.7 349.4 355 367.7 378.5 390.5 403.5 414.5 423.6 427.6 424.1 417.7 412.6 401.6 393 381.5 370.7 359.9 348.8 338 325.1 316.7 300.7 294.6 307.8 315.7 327.7 341.9 354.9 369.7 383.3 395.1 404.7 412.2 420.2 428.1 436.3 440.8 446.2 451.2 453.5 453.8 454 454.2 456.8 457 455.7 452.4 448.9 447.1 441.1 441.5 440.9 439.9 441.2 444.1 445.7 446.8 446 446.5 448 446.9 444.1 438.8 430.8 417.6 405.6 394.3 382 373.8 369.1 364.4 364.4 364.7 362.2 361.2 365.8 373.9 382.8 393.5 400.7 407.6 414.9 422.3 428.6 433.2 435 437.5 437.4 438.4 436 438.5 443.2 446.8 451.2 452.3 452.4 449.9 448.6 445 440.7 438.7 433.3 427.6 422.1 416.6 413.3 411.2 409 408 407.5 408.5 412.1 414.5 412.4 407.1 397.8 387.1 375.4 365.1 354.3 343.3 335.1 325
329.1 331.8 334.4 335.7 336.7 336.9 335.3 334.9 333 328.5 326.9 324.5 322.9 323.2 326.9 333.7 337.3 342.4 347.4 352.5 359 366.6 368.5 370.2 371.2 373.2 375.9 379.7 384.7 391.7 402.3 414.7 425.9 437.5 449.5 462.8 477 491.1 502.8 511.4 518.3 522.3 525.8 529.2 527.8 522.2 515.6 507.5 498.5 491.1 479.1 459.4 442.4 430.2 425.4 421.3 420 423.8 428.6 428.7 422.1 419.1 414 406.9 397.6 385.1 372.4 357.7 346.6 335.1 333.6 329.9 317.8 324.9 328.8 332 337.5 343.3 350.8 360.9 374.6 385.7 396.8 406.2 413.2 413.7 409.1 400.4 395.9 390 382.4 371.6 361.7 350.8 340.7 332.2 324.6 316.1 305.9 290.2 302.2 310.8 324.1 337.4 349.8 364.8 377 390.3 402.1 411.9 420 427.7 434.8 440.7 445.2 449.5 452 454.7 457 458.8 460 459.8 458.7 456 454.9 448.1 447.8 447.6 448.1 445.9 449.3 451.4 453.7 455.9 456.6 456.9 457.5 455.7 452.4 446.7 439.1 427.4 414.1 401.4 389.9 380.1 373.3 369.5 370.1 370.1 368.8 365.2 368.9 371.8 381.9 392.5 400.6 409 416.4 423.9 431.9 436.6 439.1 440.6 440.9 442.4 442.7 441.9 445.8 447.8 450.7 452.6 452.3 451.2 449.3 446.1 442.2 438 431.8 427.9 422.4 416.2 413.6 411.4 409.4 409 408.8 408.8 410.8 412 409.9 404.2 394.8 385.1 373.5 362.8 351.5 340.5 331.9 322.2
329.6 332.7 334.8 337.9 340.5 341.5 341.3 340.7 340 336.9 335.2 332.3 332.2 334.2 336.8 342.3 346.3 350.6 354.7 360.7 366.4 371.6 375.8 378.4 379.3 381.3 383.7 386.7 391.6 396.9 406.8 416.7 426.7 438.7 452.1 465.8 481.5 490.7 502.1 510.7 517.6 522.1 525.4 526.6 524.3 520.2 513.6 506.3 500.5 489.2 473.2 454.8 437.8 425.2 417.8 412.9 413.6 417.1 421.6 423.8 421.7 416.7 410.3 405.2 397.6 387.5 374.5 362.5 349.5 337.8 327 318 318.5 317 322.6 325.6 330.1 336.6 347.6 357 370.3 380.6 388.9 397.1 399.8 399.9 395.7 387 379.4 375.2 369.1 359.8 350.3 341.7 331.4 325.4 321.3 314.8 306.2 292.3 294.8 307.2 318.9 326.2 340.3 358.1 374.2 389.7 402.1 412.1 421.7 429.7 434.9 441.5 445 448.5 453 455.7 458.9 459.3 460 460.5 460.1 459.5 457.2 455.8 455.5 455.8 456.8 455.7 455.7 458.9 462.6 465.1 465.3 464.2 463.4 460.4 457.9 452.4 445.2 434.1 420.9 406.2 395.1 387 380 375.8 376.5 377.3 374.4 372.4 374.5 381 381 391.8 401.5 412.6 418.9 425.7 432.5 437.6 441 442.8 444 445.1 444.7 445.4 447.1 449.2 450.6 451.6 451.8 450.6 448.9 446 441.3 436.4 432 427.5 422.5 417.4 413.3 411.5 410.1 409.6 409.2 408.8 409 409.4 407.4 401.3 392.2 380.9 370.1 359.9 349.4 338.7 327.6 318.4
328 331 334 338.5 341.9 345.5 345 346.7 347.1 345.3 344.8 343.5 344.3 344.7 349.2 354.2 355.8 360.1 363.5 369.3 375.4 380.5 383.9 386.3 389 390.8 394 397.3 400.6 403.3 411.6 421.1 431 442.9 457.7 469.1 482.3 491.5 502.9 511.5 516.2 520.4 525.5 525.9 522.5 515.2 510.2 504.8 497.1 483.6 466.1 449.6 432.8 418.1 409.4 404.6 404.6 408.2 413.1 415.7 416 412.6 410.3 404.2 395.9 385.8 373.8 364.5 351.5 340.3 327.2 319 309.2 306.5 314.4 319.6 323.1 334.1 347.3 357.2 367.1 374.7 381.3 386.4 388 385.4 382.4 376.3 366.7 359 354.1 345.8 337.7 329.7 322.6 318.8 315 310.2 304.8 296.6 288.9 303.5 315.9 331.2 345.3 358.8 372.8 388.1 402 414.4 423.7 431 436.4 441.7 445.5 449 452.6 456.5 458.9 459.1 460.3 461 461.2 459.5 459.8 460.9 460.8 461 463.2 462.6 461.8 466.1 471.5 473.1 472.2 469.3 466.7 463.7 461.5 457.3 450.3 440.9 428.2 413.7 403.4 395 389.2 386 383.6 385.9 381.1 379.6 377.6 385.3 383.2 391.3 404.6 415.1 421.7 425.7 431.9 436.3 440.4 442.6 444.2 445.8 446.2 446.1 448.2 449.6 451 451.2 450.9 449.3 447.6 445 440.8 436.4 432 426.8 421 417.3 412.9 410.7 409.6 409.5 408.7 407.7 407.8 407.5 404.4 397.8 389.2 377.9 365.7 354.7 344.2 334.7 324.9 313.4
324.8 327.6 331.8 336.7 343.1 347.2 350.6 352.1 354.9 356.5 357 357.8 355.2 355.9 361 363.8 366.5 370.3 373.2 379.4 385.1 389.9 393.1 396.7 399.8 403.1 404.2 409.3 410 413.3 419.3 426.9 438 449.7 463.8 474.5 484 492.6 502.8 509.4 512.8 517.4 521.1 524.2 521.9 510.7 505.3 500.8 491.3 473.8 457.5 442.3 425.7 409.8 399.1 391.9 394.8 397.8 402.8 406 408.3 406.9 403.3 399 390.6 383.2 372.1 363.6 350 339.7 328.8 319.2 311.2 300 307.9 313.8 320 333.2 346.1 357 364 368 372.1 374.7 373.6 369.9 366.4 362.8 354.6 348.6 340.9 332.6 323.5 319.4 315.7 312.2 308.2 305.5 301.6 284.5 290.8 305 318.5 333.8 347.9 359.5 373.3 387.6 402.6 416.9 426.2 433.8 439 443.6 445.3 448.9 453 456.4 457.4 459.1 460.2 460.8 461.2 461.5 461.6 463.5 465.2 465.8 467.6 470.2 470.7 473.7 481.1 479.6 475.9 472.6 468.6 466.8 463.5 460.4 453.5 445 435.2 425.3 416 405.7 399.3 395.6 395.7 394.8 390.1 386.7 383.3 388.4 396.4 391.5 405.1 415.1 421.4 426 431.5 434.9 438.6 440.4 443.5 445.5 447.5 448.3 448.1 449.7 450.4 449.7 448.9 447.4 445.2 442.5 439.7 436.1 432.4 427.2 422.4 417.9 413.6 411.1 406.8 408.6 407 405.8 405.5 404.4 400.7 394.2 384.4 373.1 361.4 349.4 339.2 329.4 319.3 308.4
323.1 326.5 330 335.2 344.9 350.4 355.3 359.8 363.2 366.2 368.2 368.9 369.1 371.7 375.2 376.2 378.9 381.7 385.5 390.8 398.4 401.4 405.1 409.4 412.6 413.7 415 418.2 420 424.8 431.5 436.6 446.4 458.6 469.6 478.1 484.1 493.1 501.5 507.7 508.7 513.1 517.8 517.9 519.5 508.5 501.8 494.7 483.6 466.2 450.8 434.5 417.9 400 389.1 380.5 380.8 383.9 391 395.1 397.2 399.2 392.4 388.3 383.2 375.1 365.4 356.5 345.9 335.2 328.8 318 310.6 304.8 296.4 307.1 317.6 331.4 343.5 351.8 359.5 361.5 362.7 362.9 361.2 357.4 351.8 345.5 340.6 335.9 328.9 320.1 313.8 310.4 308.7 306.7 303.5 300.8 297.7 279.1 294.8 307 321.9 335.5 350.1 362.7 376.4 390.5 405.7 418.4 429.2 436.1 441.2 444.4 445.7 447.1 450.9 454.4 456.1 457.6 458.4 460.5 461.6 462.4 464.9 465.4 469.5 470.4 470.9 476.7 477 478.8 484.2 484.2 477.4 471.9 469.9 468 465.8 462 455.4 447.7 441.7 435.9 429.3 421.4 413.2 409.5 411.2 409.1 403 397.2 393.1 393.5 401.1 400.6 403 413.9 420.5 426 430.1 433.5 436.6 438.8 441.7 444.9 447.1 448.1 448.2 448.9 448.9 447.1 446.6 444.2 442.3 439.7 437.7 435.5 432.5 427.6 422.2 418.5 414.6 411.1 408.4 401.7 404 403.6 401.2 399.9 395.7 388.9 379 366.3 355.3 343.5 332.6 322.8 312.6 302.8
321.3 324.5 330.1 336.1 346 351.6 358.7 367.3 372.8 373.9 377.3 380 381.5 385.5 389.2 390 394.3 396.6 400.6 406.9 414.5 418.2 419.1 421.9 421.6 422.2 424.6 428.9 433.1 440.1 444.1 450.4 457.3 466 474.7 479.3 485.4 489.5 496.6 502.5 505.5 508.6 510.2 511.2 510.8 505.2 496.8 483.1 472 458.8 443.4 427.5 410.2 392.2 379.5 370.5 366.4 370.9 378.2 383.4 384.8 383.9 380.2 375.9 370.7 363.5 355.5 349.6 338.9 330.1 322.7 314.4 307.8 303.2 291.1 302.4 316.1 327.8 338.3 346.6 352.5 353.9 354.4 354.3 350.6 343.3 336.7 331 325.7 321.3 317 310.8 306.1 303.7 301.8 301.3 298.4 294.7 290.2 278 296.1 312.8 326.6 338.7 349.7 364.9 380.7 396 410.9 422.7 431.5 438 442.3 443.4 444.1 445 447.4 451.6 453.8 454.9 456.4 459.7 461.8 465.3 468.1 470.2 472.4 475.2 477.8 477.5 478.8 479.3 482.8 483.2 475.5 470.4 469.1 467.9 466.6 464 459.6 457 451.6 448 440.8 436.8 433.9 432 429.5 424.9 417.3 408.5 398.3 400.8 405.5 408.2 400.7 411.5 419.5 424.6 428.8 432.4 434.6 436.3 439.7 443.4 446.3 447.8 447.5 447 446.4 443.8 442.7 440.7 438.2 436.4 435.5 434.6 431.1 426.8 422.1 418.2 415.2 410.3 406.8 403.1 396.5 399 397.1 394.8 391 383.9 374.2 361.3 346.9 336.3 325.1 316.3 307.6 302.3
318.8 326.1 332.9 340.8 347.9 355.1 363.8 373.1 380.8 385.8 387.8 391.2 393.8 396.1 400.9 405 410.3 412.6 420.2 427.8 432.2 432.7 432.9 432.6 432.8 432.6 436.2 442.1 447.7 457.7 458.9 461.8 468.4 473.1 476.5 478.7 482.6 486.1 488.6 495 498.7 501.7 503.7 505.8 505.9 495.8 487 476 466.1 452.4 438.2 420.2 401.1 385.3 371.6 359.8 351 357.9 365.6 369.8 372.2 371.1 366.3 358.7 353.8 347.8 341.8 338.9 332.4 322.5 316 311.2 305.6 301.4 290.5 298.9 311.6 320.6 329.6 338.5 344.7 346 345.4 342.8 337.3 330.4 324.1 316.4 310.6 308.1 303.4 299.1 297.6 297 295.3 294.2 292.7 282.8 271.5 284.1 300.8 317.5 330.6 344.7 358.6 372.3 383.4 400.6 415.5 426.3 434.2 438.3 442 443.6 441.3 442.5 445.1 448.3 451.2 454.7 456.9 459.4 462.5 467.1 470.9 472.9 475.1 477.3 478.5 478.6 477.2 474.7 476.5 475.3 469.7 466.2 466.8 466.9 467.2 466.4 467.8 464.6 461.1 457.9 452.6 447.4 445.8 443.9 440.2 434.7 427.9 420.9 406.6 410.2 411.4 412.1 409.8 409.5 416.2 422 425.4 430 432.7 435.6 437.7 441.7 445.3 446.8 446.3 444.3 443.2 441.2 438.8 436.4 434.1 432.1 432 431.9 428.7 425.2 420.6 416.6 413.9 409.3 403.8 399.5 395.9 390.7 391 390.1 386.2 378.2 368.7 356 340.9 331.5 323.3 313.8 307.3 305.1
321.3 328.4 335.9 342.8 350.8 360.4 369.7 378.8 386.5 394.7 399 400.7 403.1 406.9 412.4 418.5 426 431.6 438.4 444.8 447.8 448 445.6 444 444.1 448 451.4 455.1 462.1 465.7 469.8 473.4 476.8 477.9 477.9 479.2 479.3 479.6 483.7 485.2 488.4 493.5 494.7 496.5 492 486.1 478.6 469 460.8 448.8 434.4 416.5 396.3 377.2 364.5 354.2 340.6 344.5 349.2 355.3 357.7 357.2 350.2 343.2 336 330.9 327.2 324 320.3 314.1 309.1 305.6 301.7 299.3 288.7 295.7 305.6 313.7 321 329.4 335.7 336.7 335 332.4 325.3 318.5 310.8 306.6 303.2 301.1 297.1 293.6 290.9 288.8 288 286.8 284 268.8 269.9 289.7 305.9 320.7 334.7 348.4 364.6 379.8 393.2 408.6 419.8 426.8 435.7 437.8 440.3 440.5 439.4 440.4 440.8 445.8 449.6 452.8 455.9 458.9 462.6 468.3 473.1 474.7 474.4 475.3 476 476.3 473.6 468.7 467.5 464.5 462.3 460.4 461.7 464.2 467.5 470 472.6 470.6 468.3 464.7 459.8 454.9 452 450.3 447.6 443.5 435.4 426.5 419.5 417.9 417.8 417.1 418.9 418.6 419.5 421.6 422.7 428.8 430.7 433.8 437 439.9 444.6 445.4 445 443.1 440.5 437.7 434.6 432.3 428.4 428 427.6 427.7 425.8 422.6 417.9 414.5 410.8 406.4 400.8 392.6 386.9 382.1 384.5 383.1 381.1 373.7 364 350.2 340.1 333.7 331 318.7 310.9 307.4
322.5 330.8 338.6 345.8 355.3 365.6 375.5 385.8 394.9 402.3 408.9 412 413.8 416.5 423.8 432.2 440.2 446.6 453.5 459.4 462.2 459.5 458 455.5 456.8 461.2 465.1 466.8 471.1 474.1 476.5 480.8 481.5 479.5 476.5 479 478.9 465.9 469.4 475.1 479.2 482.9 484.1 484.2 480.3 473.7 466.2 459.5 455.3 446.5 434.3 419.3 395.4 375.8 359.5 346.1 338.2 331.9 335.6 338.9 339.5 339.8 336.1 328.7 322.3 319.8 314 310 307.9 305.4 302.2 299 297.5 295.3 280.7 292.1 300.2 307.1 313.4 320 324.9 326.5 323.5 321.3 315.2 308.3 303.3 299.9 296.9 294.1 289.4 287.7 285.2 283.8 283.1 281.2 270 263.6 280.1 295.6 310 323.5 337.7 353.8 369.7 385.1 401 415.2 423.9 425.7 429.7 434.7 435.5 437.3 437.9 437.3 438.6 442.3 447.3 451.7 456.8 461.8 465.7 471.8 474.5 474.8 473.2 472.2 470.4 471.2 468.6 461.8 458 454.3 452.3 453.6 457.4 460.3 467.1 471.9 475.1 474.7 472.2 469.1 464.4 460.1 456.8 454.2 452.3 448.7 440.7 432.5 429.3 425.9 426 424.5 423.8 425.8 425.3 427.3 428.7 429.7 433.2 434.5 437.5 440.6 443.7 444.7 444.1 440.9 436.4 434.4 430.9 427.9 423.8 422.2 421.9 423.1 421.5 417.9 415.3 411.8 407.5 402.5 397 385.5 378.8 376.4 379.6 379.1 372.3 367.5 357.5 347 339.6 336.9 332.5 322 311 304.8
327 334.9 343 349.9 358.2 368.8 379.4 390 400.3 410.1 417.2 422.7 425.4 427.3 434.4 444.6 451.5 461.1 469 473.9 473.9 472.4 471.3 470.3 469.6 470.7 474.1 476.2 477 480.5 481.1 484.4 486.6 480.8 478.1 473.4 473.8 464 447.2 456.3 467.7 468.5 467.9 467.9 466.7 460.9 456.5 448.8 448.8 442.3 432.4 418.8 397.6 376.4 358.5 344.6 332.7 321.7 322.9 323.7 323.1 322.8 321.4 316 313.8 312.6 308 304 300.5 297.4 295.8 294.2 292.9 290.6 277.2 288.2 295.2 302.2 305.3 308.2 309.7 311.8 312.4 310.1 304.3 300.4 295.7 293.3 290.4 287.6 283.1 281.8 279.7 277.9 276.3 272 259.6 275.3 289.4 300.4 313.1 326.7 341.1 357.5 374.2 388.7 404.7 418.7 426.4 427.8 425.2 429.2 429.7 432.4 434.3 434.2 436.6 441.6 445 451.8 459.3 465.8 471.3 474.9 475.2 473.4 470.5 468 464.7 462.3 458.8 452 446.5 442.7 441.8 444.1 451.7 457.1 464.6 470.6 474.1 474.3 473.2 470.7 466.6 462.1 458.4 455.4 455 451.5 443.5 440.9 436.5 434.7 433.4 431.3 429.2 432.3 431.6 432.1 433.6 435.4 437 438.5 440.6 442.7 443.6 443.8 443.4 440 436.5 432.9 426.4 420.5 417.2 416.2 415.8 416.7 416.4 413.5 411.8 408.2 403.1 396.4 392.7 382.1 373 368.6 372.2 371.5 357.8 350.3 350.5 343 336.2 331.5 328.1 316.4 306.5 299.4
330.8 339.2 347.7 354.4 362.6 371.4 383.3 395.1 407.5 417.1 426.5 432.4 436.4 439.9 445.8 455.8 463.5 472.4 480.7 484.7 485.2 483.7 484 482.6 480.7 471.6 478.2 479.9 481 483.9 483.9 483.4 485.1 482.2 475.6 468.6 464.9 458.1 440.2 434.5 446.5 449.7 449.7 449.9 448.8 447.2 445.1 440.5 437.1 436.6 428.1 414.8 400.3 382.2 357.5 342.1 332.5 321.5 311 311 310.9 309.6 308.6 306.7 304.6 305.8 301.3 296.8 293.8 291.4 290 288.4 287.6 285.8 272.1 283.8 289.8 295.7 298.5 300.6 300.7 300.5 300.9 300.8 297.3 292.9 289.8 286.1 283.4 281.3 276.9 274.8 272.8 268.6 262.1 256.4 270 284.5 296.7 309.2 319.4 330.9 345.4 361.3 377.5 392.9 409.7 421 427.2 429.3 423.6 423.3 424.7 426 427.5 431.2 434.1 440.4 445.4 452.9 461.6 469.8 475.6 477.4 474.7 470.7 467 462 457 452.8 447.6 439.4 432 428 429.7 436 443.8 451.8 459.2 465.7 469.1 471.2 470.4 469.2 466 462.8 459.3 457.4 455.7 453.3 450.4 446.3 442.6 442.6 440.3 438.3 437.3 439.7 440.3 440.9 442 441.3 442 445.5 445.5 446.3 445.6 445.3 443.3 441.4 438.8 432.7 430.1 424.8 417.5 410.1 406.4 409.4 410.9 408.9 407 402.6 398.3 389.9 380.3 371.7 361.6 354.3 360.4 352.2 339.8 332.4 329.5 331.5 325.5 324.2 318.9 308.3 302.9 294.8
334.1 342.4 350.7 357.5 364.2 373 387.3 402.7 413.8 421.3 430.5 437.7 443.5 449.1 456.8 465.3 474.4 482.2 488.6 491.2 492.4 491.9 489.9 486.8 480.7 476.3 480.2 481.6 481.6 483.6 484.9 483 477.9 478.3 470.2 463.8 457.5 449.5 436.2 430.2 423.9 424.2 429.5 430.2 430.9 429.7 429 428.1 426.3 427.2 422.7 413.4 399.8 382.9 359.4 342.2 331.5 321.7 309.5 301.8 301.2 300.7 299.3 297.8 297.9 297.5 294.1 291.5 288.3 286.4 284.3 282.4 279.6 278.8 268.4 280.9 286.6 290.7 293.4 294.5 294.7 293 293.3 293.8 291.1 287.4 284.6 281.2 277.4 275.3 270.2 267.5 263 256.4 255.1 259.3 277.7 292.5 306.2 318.1 329.3 341 353.1 368 382.5 398.8 412.1 422.6 427.7 427.7 423.5 416.1 418.4 420 422.5 428.1 432.2 437.8 445.1 453.9 463.2 470.7 476.1 475.6 472 466.2 460.7 455 447.3 440.3 435.4 424.2 413.9 411.1 417.6 426.3 434.5 444.4 449.2 456.2 460.1 462.7 466 465.1 463.8 460.6 457.2 456.8 456.1 453.3 453.7 450.4 449.8 448.9 446.7 446.2 446.1 444.1 450.3 450 450 447.5 451.5 450.8 449.7 451.2 450.1 448.3 446.6 443.8 440.5 436.1 431.8 426.3 420.5 412.4 400.4 401.5 404.3 403.6 401.1 395.6 383.6 372.4 359.5 350.8 347.9 343.4 336.3 328.1 325.7 316.8 316.8 312 311.5 312.3 307.7 301.5 296.3 295.3
336.9 346.1 353.5 360.1 365.9 375.8 388.8 405.3 416.4 424.8 432.5 440.5 447.4 457.6 466.1 473 482.1 491.3 495.3 495.7 496.7 492.6 490.5 485.6 481.3 476.9 474.4 480.1 479.5 480.6 483.1 481.3 474.5 471 462.4 456.1 448 441.1 433.5 418 405.3 403.3 408.5 410.6 411.6 413.7 414.2 414.8 416.1 420.1 418 410.5 397.9 381.7 361.9 346.7 332.8 319.6 310.5 295.4 294.1 294.3 294.1 293.4 291.1 291 286.9 284.2 284.7 281.2 278.7 277.2 274 269.8 269.4 278.1 283.5 286.3 288.6 289.4 289.1 288.5 287.8 286.1 284.2 281.5 279.6 276.5 272.7 265.9 264.2 261 252 250.4 251.4 270.5 285.5 299.9 313.4 326.5 338.3 351.6 364.2 377.4 390.8 404.5 414.4 423.1 426.2 424.1 419.5 414.2 413.8 412.7 418.3 424.8 430.5 436.9 445.2 454.2 462.9 469.5 473.3 471.6 467.5 461 454 446.9 437.1 426 418.5 406.7 400.1 399.9 406 415.6 423.3 432.8 439.7 444.7 449 453.3 457.9 459.3 459.6 457.6 455 453.3 455.2 454.7 455.9 455.4 454.9 454.6 454.4 453.9 455.1 457.5 459.2 457.1 458.3 453.9 458.5 457.2 456.6 454.3 453.9 451.7 449 445.8 441.7 437 432.1 426.5 420.6 415.6 409.7 402.2 389.4 395.6 394.7 380.5 371.4 370 370.8 362.8 359.3 363 358.6 354.6 346.6 336.6 323 314.6 307.4 305.2 302.4 298.2 302.7 309.2
340.2 348.4 356.1 361.5 367 375.9 388 403.8 417.1 426.2 433.3 439.4 449.7 463.3 472.3 479.9 489 498.7 501.5 498.4 494.2 489.1 484.5 480.2 474.2 472.5 466.9 472.7 474 474.2 475.7 474 471.5 465.1 457.4 448.7 439.9 430.9 423.6 412.5 398.1 393.9 389.1 394.8 395.9 396.5 399.4 401.4 404.4 410.5 411.5 406.8 396.9 379.1 364.7 350.5 333.9 318.2 308.1 299.3 285.6 286.9 286.6 284.9 283.5 284.7 280.8 278.6 278.8 277.2 273.3 270.6 267.6 258.9 268.5 274.5 278.9 282 284.1 284.9 285 284.1 283.3 281.1 276.4 275.4 273 270.2 267.4 262 258.6 256 247.4 247.8 262.4 278 292.3 307.1 319.7 333.4 347 362.3 373.5 386 398.4 408.4 416.7 422.8 423.7 422.1 416.1 409.5 410.4 406.5 412.8 420.7 427.1 435.2 443.6 453.1 460.9 466.1 467.7 465.9 461.4 454.3 446.3 436.2 423.4 409.8 400.9 392.3 386.7 388.7 394.7 403.9 412.2 419.9 427.6 432.6 436.8 442.7 448.2 451.4 452.7 452.2 449.9 450.3 451.7 454.6 455.5 458.8 459.9 460.3 460.1 461.4 463.6 466.6 467.2 466.5 464.7 461.7 464 462.2 459.7 458.5 456.2 455.2 451.2 447 442.5 436.8 431 425.2 419.1 413.3 409.1 403.9 396.4 379.5 381.5 371 378.1 387.2 385.2 379.1 375.2 374.1 371.6 367.1 360.2 347.6 331.6 317.6 307.4 302.4 300.2 306.7 315.9 319.5
339.6 348.9 356.3 362.4 368.1 374.7 385.9 397.6 414.1 424.9 431.1 437.2 447.2 463.7 475.1 483.3 492.3 500 502.6 499.3 490.3 486.8 482.2 472.2 469 462.8 460.7 450 461.4 462.9 464.2 464.7 462.8 458.6 451.8 443.1 434 424.2 415.4 400.9 385.4 374.5 378.9 380.4 382.8 384.1 386.9 388.4 393.2 399.6 404.8 401.5 392.3 379.8 367 350.7 335.4 320.5 307.8 299 289 276.4 275.4 278.8 279.6 277.6 273.5 273.4 272.1 271.2 267.9 266.3 263.3 259.2 264.7 269.9 274.6 278.9 280.6 281.5 281.7 280.9 279.5 276.4 270.7 269.5 266.2 263.5 263.2 260.1 254.4 250 245.1 253.7 270.3 283.5 297.2 311 325 338.3 353.5 369 380 390.7 401.8 410.4 415.8 421.2 421.1 418.7 411.9 404.9 394.1 405.2 410.4 417.5 424 431.6 442 449.5 456.7 460.2 461.1 458.9 453.7 445.3 435 421.4 406.1 393.1 384.2 378.5 375.6 377.5 385.8 392.5 400.3 407.9 414.2 421.9 425.4 430.6 437.6 442.1 444.6 445.1 443.5 445.3 449.5 452.3 455.9 460.9 464 464.1 465.5 469.2 471.6 472.9 472.6 473.7 471.9 469.5 469 463.8 464.1 461.6 459.5 457.3 453.2 448.4 441.9 436.8 430.2 422.5 415 410.1 401.2 401.1 394.8 384.3 375.5 381.7 391.9 394.8 391.3 384.6 382 379.9 376.3 370.6 362.3 348.3 331.2 315.4 306.5 301.8 311.9 324.6 331.4 337
340.3 347 354.6 360.9 368.8 373.4 381.2 395.3 408.1 420.3 424.1 434.3 439.1 457.5 469.4 477.6 488 495.6 499.1 495.3 487.9 479.3 468 466.5 460.2 455.6 453.7 448.8 443.5 449.6 451.7 453 452.2 449.7 444.6 437.4 426.6 419.5 409.8 394.5 380 368.2 370.1 368.7 368.5 372.8 376.2 378.9 383 389.5 395.5 396 389.9 379.9 366.7 352 335.9 319.9 305.6 297.4 290.7 282.9 270.4 269 272.8 270.2 267.7 265.7 264.7 264.6 263 261 256.7 256 260.2 264.7 269.6 273.9 277.5 278.7 278.7 277.2 275.1 271.8 266.7 262.7 259.5 257.8 258.3 256.8 251 242.4 243.3 262.6 273.9 287.4 300.1 315.1 328.1 342.6 357.8 371.6 381.6 391.6 401 408.4 413.9 417.4 415.9 410.7 407.5 399.8 391.2 399.6 408.7 413.7 420.6 427.1 436.3 444.1 450.7 453.9 453.8 450.8 444.8 435.1 421.7 405.7 391.6 381.1 372.3 366.4 365.8 367.7 375.1 380.8 387.6 395.6 403 410.6 417 421.4 426.4 432.7 435.7 437.5 437.5 439.6 443 449.1 456.6 462.4 465.6 468.3 472.1 475.5 479.1 480.3 479.2 476.8 476.9 474.4 473 470.3 466.6 464.7 462 459.2 453.5 450.8 444.3 437.6 431.7 423.9 418.9 413.7 405.8 394.9 384.1 381.2 383.5 389.2 396.5 398.1 392.4 387.1 385.1 383 378.8 371.7 361.1 341 327.4 313.9 306.7 305.7 326.2 340.8 346.1 358.6
339.1 345.7 352.3 361.3 368.7 373.8 383.5 395.3 406 414 422.9 430.8 436.6 445.4 458 468.9 478.7 486.6 490.4 487.5 483 477.4 468.9 454.3 450.6 447.6 446.1 441 430.5 438.5 440.7 440.7 440.1 439.6 437.2 430.3 421.7 411.2 400.2 388 374.8 365.8 357.9 357.6 357.6 361.5 366.4 369.8 374.9 380.5 385.1 388.1 383.8 376.4 364.2 352.6 336.7 317.1 304.6 295.6 289.4 281.9 273.1 265.6 267.3 266.7 263.4 261.1 258.6 257.3 257.4 256.7 244 254.5 256.5 259.9 264.9 269.5 273.2 276 275.7 274.1 272.3 268.5 264.8 259.9 255.1 252.7 253.2 252.5 246.9 240.2 254.7 264.9 275.4 288.7 301.4 316 329.9 344.2 359.4 370.6 380.6 389.2 397.2 405 412.6 413.6 413.1 408 403.1 395.6 389.8 391.3 403.9 409 415.5 423.6 430.7 435.2 443.1 446.8 445.5 442.1 436.5 425.6 410.3 395.1 382.7 372.2 363 357.9 355.3 358.4 364.7 371.5 377.1 385.1 392.1 401.4 409.4 414.1 418.3 423.5 426.9 429.3 430 433.5 439.2 445.5 453.4 461.6 467.7 472.2 476.6 481.9 483.6 485.2 484.3 480.8 479.9 478.1 475.5 473.3 471.4 467 463.9 460.8 457.4 451.1 443 439.8 433.6 427.8 421.8 415.4 407.8 399.6 392.5 384.8 387.1 392.8 397.3 398.1 393.5 389.2 386.2 384.6 379.7 371.8 358.6 339.2 326.2 315.7 307.4 317.1 340.6 352.8 364.1 377.9
338.2 344.5 350.3 359.9 368.2 375.3 384.8 393.3 402.6 410.8 416.8 424.3 427.6 433.4 447.4 457.2 465.1 476.5 480.9 481.3 479.8 470.3 463.4 453.8 447.9 438.4 435.4 431.6 426.5 423.9 427.6 428.9 428.6 428.6 428 421.1 413.1 402.9 392.5 381.1 366.7 354.4 351.3 347.4 347 348.6 356.8 360 365.1 371.2 376.7 379.7 377.8 371.3 361.3 350.8 334.4 313.9 303.2 296.3 288.4 282.1 274 266.4 258.6 257.4 258.4 257 254.5 252.9 252.4 248.2 241.1 253.6 255.5 262.2 261.5 265.4 269.5 272.5 273.4 271.5 268.9 265.8 261.5 257.3 252.8 249.7 249.3 247.2 238.7 237 256 266.8 277.2 288.7 301.9 316.6 328.7 344.7 357.4 366.3 376.9 384.6 394.2 402.5 408.6 407.8 403.8 403.3 396.2 390.9 381.2 391.2 396.6 405.1 410.3 416.2 422.1 429 434.2 437.4 437.4 433.1 426.5 413.2 401 386 374.9 364.3 356 351.4 345.4 350.6 354.7 360.9 368.7 377.4 385.1 393.4 402.3 408.7 411.7 414.6 418.1 419.4 421.1 426.1 432.7 441.2 450.8 460.1 466.3 473.9 478.7 483.7 487 488.5 486.9 485.9 483.1 484.1 480.8 476.8 473.4 470 466.2 462.6 459.4 454.4 449 442.9 435.8 429.7 424.1 417.4 410.2 402.3 393.4 389.4 394.8 397.2 398.3 397.8 393.5 389.2 385.7 383.9 377.6 369.2 359.9 342.5 326.1 315.9 310.6 326.5 346.7 361 378.9 392.7
336.8 343.5 347.3 357.6 365.6 373.6 380.9 389.2 396.6 403.9 410.8 415.3 420.9 427.3 437.1 447 456.8 465.7 470.4 475.5 474.6 468.3 458.7 452.6 445.9 435 425.6 418.4 418.1 415.9 410.2 416.4 415.7 418.2 418.3 414.8 408.7 400 386.6 375.4 363.8 345.7 341.8 339.5 339.1 341.2 348.7 352.2 356.7 361.6 367.4 373.2 372.9 367.9 358.8 346.5 329.7 310.5 301.7 295.5 289 281.5 272.7 267.3 262 256.2 250.5 250.1 248.7 247.5 246.1 241.4 245.3 247.9 248.2 250.3 258.4 262.4 266.5 270.3 270.9 268.7 266.7 263.3 260.4 255.9 251.2 247.5 245.2 242.2 235.4 245.3 258.2 267 277.6 290.2 301.8 316 327.2 341.3 352.9 360.6 371.6 380.2 386.6 396.4 401.2 402.5 398.8 396.6 388.6 382.1 375 383.8 394 400.5 404.5 408.3 416.2 423.5 427.8 425.1 430.7 425.7 420 409.2 392.5 380.9 371.1 361.2 351.9 344.9 341.1 343.5 347.8 353.5 361.9 370.4 378.8 386.4 394.9 400.8 404.8 406.4 408.2 405.3 409.5 418.4 427.3 436.5 446.1 455.3 466.1 475.1 480.6 485.8 489.6 490.1 490.6 489.9 488.1 486.7 482.7 480.8 476.5 471 469.1 464.8 460.6 456.2 450.5 444.5 437.4 430.6 425.8 418.8 409.5 399.5 395.9 397.8 399.8 400.1 399.5 396.9 392.7 387.3 383.7 380 375.2 368.7 360.2 346.4 327.5 313.3 320.5 333.5 351.9 370.3 390.5 402.5
332.7 338.7 345.8 353.7 361.2 369.4 373.8 382.2 390.7 397.1 403 409.3 415.5 421.7 428.9 438.7 449.1 456.3 462.6 466.2 465.1 460.2 453.7 445.5 441.4 432.5 421.2 415.8 409.4 404.2 400.1 393.4 398.6 404.8 407 405.9 402.7 394 383.2 372 359.4 347.9 340.4 331 329.2 334.1 341.7 345.2 347.5 353.7 362.7 367.5 367.8 362.7 354.1 342.8 322.1 307.6 300 294 287.9 281.6 275.5 269.8 264.5 258.3 253 246.3 241 238.2 240.9 237.7 240.1 242.1 243.8 246.1 251.1 259.7 263.1 265.7 267.2 266.2 264.5 262 259.3 256.1 251.1 245.6 249.4 233.4 233.1 255.1 260.4 267.7 278.7 289.5 302.2 315.1 325.4 335.3 345.1 353.3 363.3 373.6 380.7 387 390.6 391.2 388.9 389.6 384.5 374.8 370.2 380.3 386.3 393.7 396 403.4 408.6 415.9 421.1 422.5 424.3 420.9 414.6 405.7 393.6 371.6 364.4 357.2 348.4 341.4 333.1 336 340.3 347.6 355.8 364.9 372.4 379.4 386.1 392.5 396.5 398.3 396.5 394.1 396.3 407.7 419.1 431.6 443.5 454.8 466.5 475.4 481.3 487.3 491.1 493.1 494.8 492.7 491 488 485.8 482.2 480.3 473.7 471.1 467.1 461.8 457.2 451.3 444.6 438.1 431.9 425.5 418 407.7 402.6 403.6 403.1 402.6 402.1 400 397.1 392.6 386.9 382 378.2 373.5 365.8 357.3 346.4 329.2 317.3 330.2 343.6 358.2 379 397.5 409.4
327.8 330.2 340.9 348.6 353.9 359.6 364.1 373.1 381.7 389.5 395.3 401.7 409.8 415.5 422.6 430.9 441.5 447.4 453.2 456 455.6 452.5 445.6 439.2 434.1 431.8 424.5 414.5 405.3 395.2 391.4 388.2 376.6 392.1 392.8 398.4 395.7 390.4 382.5 371.1 358.2 344.2 336.7 328.9 318.4 323.7 327.8 334 341.3 348 356.3 361 361 357.9 350 335 319.8 307.1 298.3 292.6 286.6 280.4 273.9 269.5 264.4 259.2 251.7 248 243.5 237.7 232.2 234.3 232.8 237.7 239.5 242.5 247.3 253.9 261 263.1 263.7 264 262.9 261.6 258.4 254.4 249.6 243.8 240 231.6 243.9 256.9 264.8 271.3 280.3 288.8 301.6 312.3 321.7 330.3 338.1 345.7 354.6 364 373.5 378.7 382.3 381.1 380.1 381.7 377.8 369.3 367.1 370.6 376.5 383.2 388.3 394.6 402.5 407.8 413.9 414.1 417.3 414.7 410.2 402.6 391.6 374.6 364.1 354.5 345.7 339.4 333.2 330.3 333.6 341.6 350.8 361 367.8 373.1 377.7 383.8 387.7 387.6 384.8 386.5 392.5 402.9 414.6 427.8 441.6 455.8 465.5 473.7 483.1 489.3 493.4 494.8 496.4 494.1 493.4 490.5 488.6 485.8 482 478.4 471.5 467.8 462.6 457.7 450.2 444.7 438.6 431.3 425 414.4 412.5 410.9 409.8 409.3 406.8 404.1 402.3 397.8 393 387.5 381.8 376.8 371.7 361.9 353.8 343 321.9 327.3 341.2 354.3 368 388.1 404 413.5
320.6 325.6 333.7 341.6 345.6 351.7 356.3 364.6 372.4 379.6 387 393.9 402.4 410.4 413.8 422.7 431.6 438 442.3 442.9 441.5 440.9 436.6 431.8 426.5 423.4 423 415.3 402.2 384.1 381.4 378.2 367.2 379.8 380.4 386.9 389.4 386.6 380.4 369.4 355.8 340.8 332.6 326.6 314.3 317 322.4 328.1 334.6 341.4 348.9 352.6 354.3 351.6 343.1 327.4 315.8 304.9 298.1 291.2 285.2 279.2 273.6 269.7 265.3 259.8 252.9 247.9 243.5 238.6 233 229 230.1 232.5 236.4 239.3 243.1 248 253.6 259.1 261.7 262.8 263.5 262.6 258.3 253.5 248.4 242.7 237.2 228.6 245.6 256 265 272 279.6 288.6 299.1 308 315.1 323.1 331.3 338.2 346 354.2 363.9 371.1 375.1 375.8 374.1 370.9 369.3 365 360.9 364.2 373 374.1 378.8 382.6 393.5 400.7 404.8 407.4 410.9 408.6 405.6 398.6 387.4 375.4 364.6 353.2 344.4 336.3 331.3 321 329.9 337 346.4 355.4 362.1 367.2 369.7 373.9 376.7 375.7 377.6 382.7 391.2 401.5 414.9 428.8 443.7 458 467 476 484.6 489 493.6 497.3 497.9 494.7 492.8 492.1 489.8 487 483.9 479.6 474.2 469.4 463.7 456.9 452.5 445.1 438.3 431.4 423.8 419.9 418.8 417.9 416.1 414.3 410.8 407.7 404.3 400.1 394.6 387.7 382 376.3 369 359.4 350.9 336 331.8 334.9 348.7 363 377.9 395.4 408.7 417.4
312.2 321.6 329.5 333.7 340.8 344.7 351.2 357.1 364.6 372.7 381.9 389.5 395.5 404.7 402.9 413.6 423.2 424.7 431.3 431.9 431.7 427.3 423 420.4 416.5 411.9 414.4 408.8 397.8 385.1 373 366.6 354.9 371.2 373.5 373.6 382.2 380.5 376.9 370 356.6 339.6 329.8 322.9 318.2 307.9 316.8 318.4 325.9 334.5 340.7 344.7 346.8 345.4 337.3 322.6 310.5 303.5 294.9 288.5 284 279.5 273 267.9 264.2 259.7 254.6 249.1 244.6 242.5 238.8 223.5 226.2 226.9 231.3 235 238.3 244.9 250.6 255.2 259.3 262.3 264.2 262.8 258.1 253.2 247.4 241.4 235.9 227.6 244.6 254.9 263.9 269.6 276.3 284.8 291.9 299.3 306.9 314.2 321.1 329.2 336.6 345.3 354.4 363.5 369.1 373.1 372 370 366.4 364.1 356.8 360.1 363.4 365.5 369.1 371.4 383.2 388.6 394.8 399.4 402.8 402.4 400.1 394.9 385.4 374.8 366.8 354.6 344.2 334.4 326.9 317.9 323.7 332.8 341.6 349.1 355.4 359.6 360.8 362.8 365.6 367.8 372 380.8 390.4 403.6 416.7 431.5 449.4 460.8 470.8 478.3 484.7 490.1 494.5 496.6 497.1 495.8 494.6 492.7 488.8 486.6 484.6 479.7 474.4 469.2 464.3 458.6 452.9 444 438.1 432.4 426.2 425.7 425.2 422.8 421.5 418.6 415.2 411.7 407.3 403.1 395.5 388.2 381.2 374.8 366.5 351.8 337.5 346.2 344 340.8 355.6 369.3 385.8 399.9 411.4 419
305.3 314.4 322.4 320.3 333.1 341.6 348.5 354.4 359.3 369.1 377 386.8 393.4 400.2 404.3 403.6 411 416.1 415.6 418.3 417.6 413.9 411.1 406.9 402.8 401.1 401.5 398.8 390.8 378.6 369.2 355.7 353.1 359.6 362.9 365.7 369.7 373.4 370.9 365.6 352.6 336.9 325.3 319.8 314.6 299.7 308.2 309.5 318.6 327.8 334.3 335.7 336.8 336 333.5 322.7 311.4 303.7 294.1 286 282.3 277.1 272.4 267.1 263.3 259.1 255.3 252.9 249.6 239 232.9 224.8 221.2 222 225.7 230.3 234.3 240.3 246.4 251.7 257.1 262.4 264.9 262.1 258.1 253.5 246.8 239.8 231.4 233.9 245.5 254.7 261.8 264.8 269 275.8 285.1 290.3 296.8 303.2 311.6 320.3 328.5 336.6 347.7 355.7 362.5 367.7 370.9 370.8 368.3 362.8 355.5 348.9 355.6 354.3 360.4 361.4 370.8 376.7 385.4 391.4 395.5 395.4 393.5 387 381 369.1 362.3 354.6 343.7 339 323.2 319.4 319.4 328.3 336 342.5 347.6 352.6 354.1 356.3 359 360.2 371.4 379.6 392.2 405.4 420.3 438 452.9 461.7 471.9 479.3 486.3 490.3 492.8 494.1 495 494.5 492.4 491.4 488 485.8 482.5 479.1 472.7 469.9 464.6 458.1 450.6 445 438.1 433.6 432.7 430.5 429.5 427.5 424.5 423.1 418.5 414.9 408.8 404 395.7 388.4 381.3 374.6 363 344.9 355.2 355.9 350.4 349.6 359.8 376.4 390.4 404.3 412.8 420.2
299.2 302 307 317.3 330.3 337.8 344.7 350.8 358.4 370.8 380 386.2 391.4 395.9 396.9 393.6 402 403.2 402 404.9 403.4 398 395.8 393.2 390.8 387.5 389.6 392.2 385.5 373.6 364.7 356.5 342.9 343.9 348.7 352.8 355 361 360.4 355.5 342.9 330.7 321.7 315.2 311.7 304.7 299 302.9 310 319.2 324.9 328.8 329.6 329.2 325.8 318.4 312.6 305.7 292.2 281.5 277.9 273.7 270 266.7 262.8 259.7 260.7 253.5 243.6 238.4 233.2 229.2 220.6 220.2 222 225.7 230.2 235.1 242.3 248.4 255.1 261 263.2 260.7 257.7 252.2 245.7 232.7 223.8 233.8 244.5 254.5 260.7 263.3 267.1 269.3 276.5 283 288 293 300.5 310.5 319.6 328.7 339.7 349.8 357.4 366.1 371.7 368.9 365.3 360.5 351.8 341.4 345.3 344.5 348.8 351.6 357.4 365 374.5 383 387.9 388.5 388.6 385.6 376.4 366.7 359.3 353.2 341.1 344.4 324.8 314.1 313.9 323.9 330.7 337.2 341.2 345.2 345.8 346.6 349.5 362.5 370.2 381.8 395.4 409.5 426 441.7 453.5 463.4 472.7 479.9 485.9 488.1 488.8 490.1 490.7 490 488.9 487.3 484.1 484.3 481.8 477.7 473.5 468.8 465.2 458.1 450.8 446.1 442.2 436.4 436.2 433.3 432.4 431 428.2 426.3 422.6 417.6 409.8 404.4 396.4 389.7 382.7 373.6 356.9 361.6 364.7 363.5 359.2 356.8 371 382.5 393.3 405.5 413.4 419.7
292.5 296 309.9 318.7 327 334.3 343.3 348.2 358.5 373.3 379.6 383.1 386.8 388.6 383.1 380.2 387.2 389.5 387.2 390.4 386.9 383.4 380.4 375.5 373.8 375 373.7 379.7 378.6 366.9 361.2 352.4 346.4 336.2 333.6 337.4 342.4 347 344.9 343.2 333 324.1 315.3 311.5 308.6 303.2 288.7 294.6 302.3 309.7 315.2 320.4 321.2 320.8 318.6 313.1 307.1 300.5 290.9 282.4 273.9 271.9 274.4 273.6 271 262 256 249.7 244.3 239.1 234.1 229.9 225.1 217.1 218.9 221.1 225 230.4 238.3 244.4 251.9 256.7 258.1 257.1 254.9 250.9 244 227.8 221.8 233.1 243.1 250.4 256.3 259.8 262.8 265.9 267.6 274 281.2 286.9 293.8 303.4 314.8 324.9 334.9 344.2 352.8 362.9 367.5 362.3 359.7 354.3 346.8 337.1 333 333.9 337.6 343.6 347.2 353.9 364.1 373.9 378 379.7 378.5 376.5 369.9 363.9 357 347.3 338.1 328.9 323.8 312.1 309.7 319.5 325.8 331.4 334.4 333.5 330.5 345.6 354 362.4 372.3 386.3 401.3 414.6 429.6 441.2 452.3 462 472.4 477.6 482.4 483.3 482.7 482.3 483.2 483.2 482.4 481.4 481.2 480.8 478.2 475.5 473.1 468.2 465.9 460.2 453.6 449.3 443.3 438.5 438 436.9 435.6 433.3 430.2 427.1 422.6 418.3 411.3 405 396.2 387.4 373.1 372.9 375.6 373.3 372.8 371.5 363.8 362.3 377.6 389.7 397.9 403.6 410.1 418.9
292.1 302.2 312.1 321.1 330.4 337.4 346 351.4 354.9 370.9 374.9 377.9 378.7 378.5 371.2 367.1 368.3 368.2 369.4 371.5 368.2 363.8 363.9 359.8 358.6 360.2 359.9 359.4 365.4 358.8 354.3 350.2 342.5 337.2 330.1 325.3 328.2 332.1 331.9 329.7 323.3 316 312.2 308.2 305.1 298.3 284.9 284.2 293.9 299.5 307.1 310.7 311.5 311.1 311 307.3 302.3 295.9 289.7 281.7 279 272.6 270.4 267.5 264.5 259.6 254.8 250 245 240.4 235.6 233.7 226.5 222.1 216.1 215.2 220.2 227 234 241 247.4 250.9 251.7 251.8 251.5 248.2 242.2 234.8 220.7 230.6 240.4 247.2 253.1 255.1 258.5 261.2 264 269.5 275.7 283.3 290.7 299.9 310.4 321 330.1 339.6 348.5 357.8 360.4 358.3 354.5 347 341 333 317 321 324.6 330.5 335.3 342.7 353.2 360 366.2 367.7 367 365.8 362.2 356.2 351.2 344 337.4 327.9 316.4 311.2 304.3 313.2 319.1 323.8 325.5 326.3 338.2 347.4 352.5 364.5 377.1 392.2 403.9 416.6 427.4 440.4 448.5 458.4 466.8 472 476 477.2 475.8 474.4 473.5 475 472.4 473.9 474.9 475.4 475.2 474.1 472.2 469.1 467 462.1 455.7 450.9 447.4 443 441.3 439.6 436.9 433.8 430.6 427.6 423.5 417.8 411.3 404.4 394.2 383.6 378.3 380.1 384.6 380 379.2 377.7 371.3 373.4 379.7 392.4 398 404.5 408.6 414.2
