ncols 200
nrows 82
xllcorner 280000
yllcorner 613300
cellsize 50
361.7 355.4 350.3 344.4 334.3 324.1 318.4 311.9 306.5 300.6 298.2 294.1 291.5 288.1 286.1 283.3 282.4 281.7 282.7 281.4 278 270.8 260.5 249.4 243.9 246.3 253.8 257.8 256.4 249.1 242.6 238.6 232.4 230.7 227.5 232.2 243.7 262.4 268.9 273.9 278.2 281.2 286.3 291.9 302.9 310.4 315 315 310.3 306.1 302.2 295.5 289.5 284.7 281.9 279.4 274.6 266 249.2 246.3 248.8 272.9 297.5 313.5 317.3 319.4 321.1 321.7 322 326 330.4 336.3 345.6 358.2 366.1 370.7 378.9 383 385.7 388 390.4 392.1 393.9 394.8 395.3 396.2 398.3 401.5 404.8 407.6 414.1 420.4 425.7 428.8 430.8 431.3 429.7 426.2 420.2 412.6 403.4 393 386.2 384.3 383.1 381.7 380.7 379.9 376.5 371.7 365.6 357.8 347.6 338.9 324.3 325 332.6 350.3 367 379.2 388.1 395.7 403 408.7 411.4 410.6 409.1 406.4 402 396 388.4 382.4 375.9 371.9 368.8 364.1 361 352.4 363.9 374.5 384.5 396.4 410.8 421.6 428.5 431.6 438.4 444.5 442.8 434.9 429 426.1 426.4 426.4 429.1 438 438.6 434.6 428.5 438.3 449 455.7 456.8 455.9 451.2 433.8 412.2 390.2 370.3 351.2 329.7 327.6 328.7 347.5 363.3 383.4 396.3 402.7 402.2 399.8 414.3 428.5 442.9 453.8 460.2 463.9 463.7 458.8 444.5 420.9 402 392.1 377.5 391.5 404.9 414.6 418.9 428.1 439.4 448.6
354.7 349.9 343.7 334 324 314.9 309.9 305.2 299.7 292.4 290.1 285.3 283.2 279.7 275.2 270 265.3 268.4 270.9 269.8 262.9 246.6 228.1 224.4 224 222.6 225.4 225.6 227.8 227.3 228.2 230.1 229.7 229.9 224.8 243.9 260.6 268 272.8 276.8 282.3 288.6 296 308.9 316 322.7 325.8 325.3 322.2 317.7 307.8 299.6 292.2 288.1 284.7 281.5 278.3 270 260.2 250.7 247.7 249.4 281.6 302.2 309.8 311.7 313.2 314.2 315.4 323.1 327.9 333.5 340.1 346.3 349.6 360.9 367.3 370.9 375.1 378.2 380.9 383.6 386.2 388.3 391.5 394.6 397.8 401.5 404.9 408.6 415.4 421.1 426.1 429.3 432 432.7 430.6 427.6 422.9 415.3 409.9 402.2 394.2 390.8 390 389.3 387.8 385.9 381.8 377 370.3 362.2 352.2 342.4 335.1 325.6 327.5 344.8 360.1 373 383.5 391.1 398.5 404.8 410.2 411.6 410.7 407.6 403.8 399.5 393.3 388.1 382.7 378.8 373.8 370.1 366.3 357.8 354.4 368.2 376.2 387.9 399.8 409.3 415.3 420.6 427.6 430.1 423.6 421.6 421.6 426.1 430.5 436.4 445.1 450.7 452.5 450.8 444.1 446.2 452.1 455.6 457.8 450.8 438 419.3 401.1 384.3 364.8 344.1 330.1 328.8 339.1 359.3 378.9 397.3 409.9 414.8 415.9 411.2 421.2 437.2 452.2 462.5 468.7 472.5 471.4 467.1 454.9 432.5 414.8 402.5 382.8 397 405.3 418.2 429 436.4 444.6 453.7
344.1 340.1 334.2 325.7 316.2 308.1 303.3 299 294.1 289.8 280.3 276.1 273.2 264.6 256.8 252.8 249.6 251.3 252.3 246.3 233.6 220.9 223.6 224.4 225.3 225.6 226 223.5 224 226.4 227.1 228 228.7 228.4 231.9 249.6 264 272.4 276.3 280.6 287.7 296 307.2 319.6 331.2 338.1 339.7 339.6 336.9 327.9 317.8 307.8 298 291.2 286.3 283.8 280.9 277 273 260.1 253 248.4 268.2 289 300.3 304.8 306.7 303.1 312.4 319 325.3 331 335.7 339.2 344.3 348.4 355.9 360.7 364.9 367.5 370.8 373.5 377 381.1 385.5 390.2 395 400.6 403.3 409 414.9 420.5 424.9 427.7 430.3 430.5 429.8 427.4 422.8 417.2 414 408.1 402.3 398.7 396.7 394.6 392.8 390.4 385.9 380.9 373.7 366.1 356.1 346.4 337.9 326.7 327.9 340.4 353.8 367.9 377.3 384.5 391.6 398.8 405.3 409.5 410 408.2 406.4 403.2 398 393 389.6 384.1 379 375 370.5 363.4 358.3 357 369.5 380.1 388.9 395.5 402.3 410.4 416 412.4 410.4 414.6 427.3 435.9 446.2 455.1 459.9 462.5 464.2 464.3 462.7 464.7 467.5 467.9 466.2 455.7 433 411.8 393.3 376.4 356.8 340.6 329.9 328.8 347.7 369.2 391.7 407.1 417.9 425.9 429.5 431 435.3 450.3 461.7 470.5 476.9 479.5 478.9 474 461 439 420.3 406.3 387.8 400.5 405.4 421.7 432.9 439.5 447.2 455.4
329.8 327.4 322.8 316.6 306.7 301 294.9 292.6 289.1 285.4 280.3 263.4 255.4 246.9 237.5 231.6 228 226.1 221.9 222.3 222.5 223.3 226.1 232.5 238.5 241.9 237.8 234.8 235.2 233.6 222.8 222.9 225.6 240 256.8 262.9 269.8 275.1 280.9 285.7 298.3 311.4 325.7 337.7 348.9 355.3 355.7 353.9 347.3 338.1 326 314.8 303.5 294.4 289.1 286 283.8 281.4 278.7 273.4 257.8 248.5 254.8 280.4 292.4 297.7 291.1 302.3 310.4 317.1 323.7 327.9 332.8 334.1 336.4 338.5 345 349 352.8 355.8 358.8 363.6 368.2 373.7 379.5 385.2 392 397.4 401.5 407.4 413.4 418.6 421.7 423.4 424.6 424.9 425.2 424.2 421.4 419.2 416.4 412 407.8 403 400.4 398.6 396.6 392.9 388.5 382.8 376.4 369.1 360.7 352.5 341.6 333.6 328.1 336.6 349.2 361.8 370.9 377.7 384.4 392.3 399.5 406.1 408.4 409.6 408.3 406.1 403.4 399.1 394.9 389.7 385.7 380.1 374.6 369.9 366.4 363.4 357.8 369.8 378.1 386.5 393.6 398.6 400.9 399.2 406 423.9 438.4 448.7 457.6 466.4 471 470.6 470.6 471 471.5 472.5 472.1 470.7 465 454.7 429.8 407.2 387.9 370.2 354 340.3 330.8 329.6 350.1 377.8 394.9 413.5 426.7 436.6 442.6 446.4 454.3 463.3 471.7 479.2 484 487.1 487.1 479.7 464.7 439.5 420.8 405.1 405.9 400.5 409.4 420.9 430.2 439.9 445.7 454.2
314.2 313.4 311.2 305.1 299.8 291.9 289.5 288.4 284 281.4 274.7 263.7 237.4 221.9 220.6 220.8 221.1 221.1 218.7 222.4 222.5 226.8 233.3 246.3 256.9 260.2 259.1 257 255.9 254.7 251.3 242.2 252.1 264.8 270.2 273.3 276.2 280.9 286.5 298.6 313.4 328.9 342.4 353.5 364.6 368.7 368.9 364 356.9 346 334.5 321.8 309.5 301 293.1 289.1 286.4 283.8 280.3 275.2 264.3 256.6 249.7 266 283.2 284.8 288.7 302.8 311.5 317.4 323.1 327.7 329.8 330.3 331 330.2 334.1 338.8 341.6 343.6 346.3 351.4 358.8 365.6 372.6 380.1 385.9 391.8 397.8 404.9 410.9 414.8 416.2 416.6 416.5 417.3 418.1 418.5 419.4 419.5 417.1 414.5 410.9 407.1 403 399.8 397.2 393.2 389.3 383.8 378.1 371.9 363.9 356.6 346.2 334.7 329.3 333.9 344.3 356.1 365.4 373.1 380.8 388.1 396.2 402.5 407.9 410.3 410.7 409.4 407.7 404.7 400.8 395.5 391.2 383.9 378.4 373.6 371.1 370.1 366.5 359.7 369.7 379.1 385.7 388.4 388.5 401.3 414.1 426.9 439.1 447.6 455.3 465.3 470.5 471.1 471.4 474.3 475.9 474.8 473.4 471.2 465.3 451.6 427.9 405.2 385.8 366 351.6 338.7 331.1 334.2 360 383.1 403.7 422.1 435.4 447.1 456.1 462.5 470 476.7 483.6 489.1 493.7 496.7 492.5 482.4 466.6 440.9 422.7 413.6 417.4 415.4 409.3 417.3 428 437.8 444.5 455.3
298.1 299.6 297.7 294.2 288.9 285 283.7 282 280.8 276 270.1 256.9 232 219.9 219.9 220 219.3 219 221.9 222.8 229.9 237.1 246.5 253.4 261.5 265.5 265.5 265 263.6 263.3 263.5 262.7 270.8 275.8 280.4 282.5 285.7 290.4 299.5 312.4 329.2 343.1 355.5 365.8 373.7 377 376.9 371.2 363.2 352.6 341.2 329.6 317.5 308.1 300.9 294.8 291.1 287.3 285.5 280.8 270.7 266.2 252.2 249.4 262.4 277.2 291.3 300.8 311 317.6 322.2 325.4 326.7 327.1 326 324 325.1 327.5 332.3 334.8 337 341.7 348.4 356.3 365.5 373.3 378.9 384.8 393.2 401.8 407.2 408.7 408.4 407.1 406.5 407.8 410.7 414 416 417.8 418.5 416.5 413 409.5 403 398.2 395.3 391.9 388.1 382.9 377.6 371.6 364.3 358.3 348.8 338.8 330.3 331.4 339 350.5 361.7 370.3 378.2 385.5 393.5 402 408 411.4 413.2 412.8 411.5 409.6 405.4 399.7 395 387.6 380.6 376.4 374.4 374.4 371.6 368.1 360.9 370.2 376.7 379.9 389.3 400.4 411.6 419.7 430.6 440 447.6 456.6 460.9 464.4 468.6 472.3 475 476.8 475.5 472.8 466.2 453.7 420.8 403.4 384.3 364.6 350.7 338.2 332.1 345.1 367.3 391.5 412.8 429.6 444.1 457.7 469 477.2 483.8 489.7 496.5 501.8 506.1 504.9 498.3 485.1 467.3 445.2 424 422.6 428.4 428.7 428.5 414.5 433.3 443.1 448.4 444.5
287.3 285.3 284.9 282.9 280.5 278.2 277.2 277.3 273.9 273.5 266.9 249.6 219.7 219.1 216.4 219.4 230.3 233.7 233.9 236.9 241.3 248.5 255.7 259.6 265.4 269.9 271.9 274.3 276.4 276.4 275.7 276.4 279.6 277.6 286.3 291.8 298.4 307.9 316.5 330.5 341.6 352.6 362.2 370.5 377.4 382.6 382.5 377.1 368.7 358 346.4 334.1 325 317.8 310.1 303 296.9 290.9 287.4 282.6 280.2 273.9 258.9 256 250.4 258.3 277.7 294.4 308.2 315.1 319.5 322.9 324.3 323.9 322.1 319.3 317.5 318.2 322.2 325.2 326.3 331.5 339 348.7 358.8 365.9 375 380.4 388.9 398 401.1 399.9 398.7 397.2 396.2 398.6 403.8 409.6 413.3 416.6 418.9 418.9 416.4 411.9 403.8 397.3 393.6 389.9 385.6 380.7 375.4 369.9 363.1 355.8 347.5 340.9 333 330.4 337.1 348.5 357.9 366.8 376 384.9 393.5 401.7 408.5 413.1 416 416.8 416.5 414.6 410.1 404.2 399.2 390.8 385.7 381.8 380 379.3 377 373.6 369.3 364.5 373.1 378.8 384.9 392.7 400.8 409.5 418.7 428.5 436.7 443.2 448.8 453 463.6 470.5 475.6 478.1 477.7 474.9 464.3 455.9 430.6 405.5 384.4 367.1 352 337.6 334.6 347.5 369.3 396.5 417.6 436 453.2 467.6 479.9 489.7 497.8 505.9 511 515.3 517.3 514.2 502.8 487.5 470.1 451 434 434 437.6 439.5 438.9 432.7 440.2 449.6 453 460.6
287.9 275.8 265.4 264.8 259.6 263.3 268.9 271.3 270.5 269.9 262.5 245.1 219.3 217.8 219 221.7 236.3 243.7 246.6 248.5 250.4 256.3 266 269.2 271.6 274.4 277.4 282 283.6 285.7 286.7 286.7 288.1 286.1 294.2 303.6 313.6 320.6 330.6 341.2 348.8 357.1 364.4 372.9 379.6 383.6 383.2 377 370.1 360.5 351.2 341.5 333.9 326 317.1 311.1 301.2 294.6 289.9 285.4 282.3 266.7 273.4 272 264.5 251.4 259.6 276.5 300.6 310.5 315.8 318.7 321.1 321 319.9 315.2 308.3 310.2 310.2 310.8 321.8 326.7 338.2 350.1 360.9 368.1 372.5 377.3 385 391.3 392.2 391.6 388.8 386.7 383.4 388.5 397.7 405.1 410.6 415.7 419.6 421 418.3 413.2 405.3 396.4 391.3 386.5 382.4 377.9 372.1 366.5 359.2 350.9 342.7 338.1 338.3 330.9 334.5 344.2 354.6 366.3 375.4 385.3 394 402.6 409.4 415 419.4 421.5 421.8 418.7 414.9 409.2 403.8 396.7 390.8 386.7 385.4 384.5 381.9 379 375 369.5 367.5 373.4 375.4 379.3 390.2 398.3 406.9 416.3 422.2 426.5 431.1 444.1 460.8 469.9 477 479.5 479.7 478.4 472.5 453.5 429.3 403.4 382.6 366.6 351.9 339.8 334.6 347 369.5 397.5 419.8 441 459.6 477.3 492.1 503.1 511.3 518.1 524.1 527.7 526.5 519.8 506.1 490.2 474.1 450.9 433.8 443.8 448.6 451.6 451 448.6 450.5 456.3 458.9 461.7
297.3 290.2 285 281.6 276.4 264 247.9 260.3 259 261.3 258.5 240.5 218.7 218 218.6 219.9 237.2 254.7 259.1 261 262.5 268.1 276.5 276.9 277.9 281.9 285.1 287.8 289.6 291 292.3 293.5 295.8 298.6 303.9 316.8 323 329.1 337.9 346.2 352.4 358.6 364.5 371.4 376.9 379 378.6 375.5 370 363.6 355.7 347.1 339 330.6 322.9 315.4 307.2 300.7 294 288.8 283 268.4 279.2 277.6 272.9 260.1 252.1 257.5 287.3 305.1 311.4 314.7 317.3 318.5 318 314.4 305.4 298.4 310.7 315.8 321.2 329.2 340.8 351.7 360.7 367.1 371.4 376.6 381.1 384.3 384.3 383.2 378.6 372.8 370.4 382.4 393 402 409.2 415.2 420 421.7 418.7 413.1 405.7 395.6 390.2 383.5 378.6 373.3 368 360.8 353.5 344.8 344.8 344 342.1 340.6 334.1 339.1 349.1 363.8 373.9 384.7 394.1 403.2 409.2 416.5 422.6 425.8 425.1 422.8 419.3 413.8 408.1 402.2 397.4 394.3 392.1 389.5 387.6 383.6 378.9 374.8 366.8 373.3 378.2 383.2 387.4 386.6 394.8 401.2 407 418.2 431.4 443.2 453.3 466.7 479.5 486.2 485.7 481.6 472.5 451 425.8 401.8 381.7 365 350.4 342 335.8 345.5 368.2 394.9 421.9 444.2 465.6 485.3 501.9 512.7 521.1 529.3 535 535.1 531.4 522.7 507.2 494.4 479.8 461.3 449.5 451.9 461.7 463.8 463.5 460.3 460.9 462.6 465.5 464
309 299.3 292.4 287.8 282.8 273.9 258 251.9 238.5 248.2 247.3 235.3 218.4 214.8 217.7 219.6 239.8 258 266.2 273.6 278.6 284.1 286.8 290.6 292.5 293.3 295.9 297.5 297.3 297.6 299 301 304.9 309.1 307.1 324.6 330.2 336.4 342.8 349.7 353.1 357.2 361.6 365.8 369.4 372.9 374 373.4 370.4 365.8 358.3 350 341.2 332.9 324.7 317.9 311.4 304 297.5 290.7 280.7 269.8 283.9 282.6 279.5 276 261.7 252.6 267.7 293.6 305.4 310.1 313.4 314.4 313.7 309.6 293.7 299.6 309.1 314.7 325.4 333.5 342.2 351 360.2 365.7 369.4 373.7 377.3 378.6 377.2 374 366.7 358.1 370.7 380.1 391 399.4 408.7 416.5 420.1 421.6 418.8 412.3 403.7 394.4 388.1 379.7 374.2 366.9 359.8 352.4 354.8 354.6 352.6 350 348.4 345.7 339.9 336.6 344.8 357.5 370.5 382.7 392.2 401.7 408.9 415.6 423 428.2 428.6 426.1 422.7 418.2 412.7 407.1 403.3 400.4 398.8 396.3 392.4 388.3 383 378.2 370.8 374.1 382 387.9 394 398.7 401.5 407.4 410.9 425.4 438.5 452.4 464.2 474.6 483.1 487.8 489.1 483.2 470.6 447.3 423.5 401.8 382 364 349.9 343.8 335.8 345 366.4 393.7 422.1 446.7 470.8 491.7 508.3 518.9 530.1 538.5 542.7 541.6 537 523.2 509.5 499.2 483.7 464.5 467.5 472 474.6 475.4 474.1 471.2 472.1 469.9 471.2 468.6
313.2 301.7 295.7 289.7 282.4 277.2 264.9 253.7 244.6 227.3 232.5 229.8 219 215.5 217.1 219.4 242 262.4 277.6 282.9 295.8 303.1 305.7 306 308.7 311.1 310.4 313 312.9 313.6 313.3 313.4 318.8 324.4 325.3 326.2 335.8 341.7 345.1 349 350.8 352.9 355.6 357.1 361.6 366.1 369.7 371.5 369.8 365.7 359.4 350.1 341.6 333.7 326.5 319.9 313.1 305.9 297.8 289.4 273.3 285.8 287.9 287.5 285.9 281.2 275.8 259 252.9 270.1 290.6 302.6 307.4 308.6 304.9 296.1 289.8 301.8 310.2 319.8 327.8 335.3 343.7 351.1 358.9 364.2 367.3 371.1 372.4 371.5 369.5 363.7 349.9 357.6 369.1 378 390.9 400.5 409.1 414.7 418.2 419.7 417.1 410.9 402.8 393 385.7 375.5 367.9 363.3 361.7 360.2 361.3 361.3 359.6 357.3 355.2 352.3 344.8 335.4 340.7 350.2 363 377.8 388.6 397.9 404.9 414.3 422 429.8 432.1 429.6 425.9 421.4 416.6 412 408.3 405.4 404.2 402.1 398.2 392.8 386 379.3 371.6 371.7 381.3 389 397.6 404 408.8 413 420.5 429.3 442.9 455.4 466.4 475.7 484.6 491.4 489.7 480.8 467.4 445.9 422 400.7 381.1 363.5 350.8 344.2 337.4 343 364.4 394.4 423.5 450 473.3 494.6 512.1 526.2 537.9 546.1 548.8 546 537.9 524.3 511.9 503 488.2 482 482.8 484.1 484 483.2 481.8 479.6 479 476.7 476 472
314.2 301.7 295.2 287.1 284.5 277.6 268.1 257.6 248.3 239.4 227.3 221.7 219.4 217 215.7 224.1 249.2 268.8 285.3 294.6 308.3 319.1 323.8 327.2 330.1 329.9 328.8 329.2 331.2 333.1 334.7 338.5 339.6 339.7 339 326.5 337.9 342.6 344.6 345.8 346.5 346.8 348.4 351.4 355.6 360.5 365.1 368 366.3 362.6 355.1 348 340.7 333 325.9 319.2 312.3 303.7 294.1 280 286 290.1 291.7 291.2 289 285.6 280.5 267.8 256.3 257 261.8 281.7 296.4 295.6 282.5 285.3 293.1 305.6 313.8 321.8 330.9 337.8 344 350.3 356.8 361.1 364.2 366.1 365.6 364 361.5 353.5 343.4 358.1 367.4 377.5 389.4 399 405.9 410.5 413.1 414.6 412.1 407.9 400.5 391 381.3 370.1 361 365.8 365.2 366.8 369.1 369.1 367.5 365.1 362.4 359.2 351.2 339.3 339.7 347.3 361 375.2 384.9 396.8 405.3 414.5 422.9 430.2 434.2 433.2 429 424.5 419.7 415.7 414.3 411.6 409.5 406.4 401.6 394.7 387.2 378.1 377.3 376.3 375.8 386.7 396.2 403.6 412 419.4 428 437.1 447.7 457.4 467.4 475.8 483 487.9 486.2 478.5 465 444.5 422.3 399.5 381.6 363 351.9 344.8 338.7 345.2 364.2 394.5 422.2 447.4 471.6 495.7 515.4 530.1 541 549.4 550.4 544.4 534.7 525.1 514.5 507.8 502.3 497.3 493.3 491.7 491.2 490.2 487.7 485.5 484.2 481.3 478.8 474.3
312.3 303.1 293.7 287.5 283.9 275.9 268.4 259.7 245.4 235.9 231.7 227 218.7 216.9 213.8 236.6 260.7 281.8 294.8 311.8 326 335.1 342.9 347.3 348.2 347.9 347.5 348.3 350.9 353 354.9 355.4 353.5 350.7 348.4 343.3 339.9 343.3 344.2 343.1 342.7 341.5 341.8 344.6 350.1 355.2 359.5 361 359.5 355.4 350.2 344.5 337.7 331.1 324.3 317.6 308.6 296.5 277.6 280.7 292.1 294.4 294.2 293.8 291.9 288.5 284.1 266.8 263.7 264.4 258.8 256.4 278.9 278.7 282 295.6 303.4 307.1 316.4 322.5 331 338.5 343.7 348.6 351.5 357.3 359.4 359.7 358.3 355.1 350.9 342.3 343.1 355.1 364.5 373.8 382.4 389.3 394.1 398.8 403.2 406.3 405.1 400.9 395.7 385.8 374.5 367.1 369.6 370.3 371.8 375.9 378.1 378.3 376.8 374.1 370.9 366.8 357.4 346.1 339.7 347.2 356.2 372.3 384.3 395.1 404.2 414.1 422.3 429.1 434.2 434.9 432.6 429.1 424.4 421.6 418.8 417.6 414.9 410 403.9 396.1 388.5 379.7 382.2 381.6 374.5 383.1 393.3 403.5 415 425 434.5 444.1 453.2 461.2 469.1 475.7 481.3 484.4 483.3 475.6 460.4 442.5 420.8 398.9 380.2 363.2 351.3 345 339.1 343.9 362.3 390.1 419.5 442.8 467.3 493.1 513.2 527.1 536.6 541.2 540.1 537.4 530.1 523.2 515.8 511.4 506.5 503.5 500.1 497.1 496.3 495 492.3 490.1 487.2 483.7 480.2 476.3
315 303.5 295 287.2 281.6 274.5 265.1 253.3 238.3 233.7 231.1 227 217.6 216 223.5 253 276.9 294.6 312.1 327.8 341.1 351.9 362.5 366.4 369.6 370.3 372 370.7 373.2 373.8 372.6 368.4 364.3 360.7 355.7 350 345.2 344.9 343.7 341.5 340.2 339.1 338.3 338.7 342.7 347.8 350.4 351.6 350.6 347.6 343.7 339.3 334 327.6 320.9 312.9 302 282 289.9 294.6 296.8 297.3 297.9 298.3 293.8 289.8 282.9 265.9 278.9 279 264.7 260.4 258.7 277.2 290.8 300.9 309.2 315 319 324.1 330.2 337.2 343.5 348.2 350.5 351.3 352.3 351.5 348.7 342.7 335.1 325.7 332.3 349.2 356.4 365.3 370 378.1 385.9 392.4 394.3 394.4 394 389 383.9 376.8 373.6 370.9 374.8 378.4 382.3 385.9 386.8 386.4 385.4 383 379.4 373.8 362.8 350.6 338.6 344.5 353 369.9 382.3 392.4 402.6 412.3 419.9 425.5 430.2 433 433.9 432.2 429.5 425.7 424.6 422.7 419.4 414.4 407.7 399.3 389.8 384.3 387.6 386.6 383 380.3 391.7 405.2 418.8 430.1 440.8 449.9 458 466.9 474.3 480.6 484.9 487 483.5 471.6 458 441.5 417.7 396.5 379.2 363.8 354.9 345.5 340.9 345.9 357 386.9 415.6 439.9 464 487.4 505.9 517.9 524.3 528 528.8 527.4 524.9 520 516.6 513.3 510 507.1 504.2 501.4 500 498.3 495.6 492.6 489.6 485.2 480.9 476.5
311.5 300.4 293 285.6 279.4 273.4 259.7 245.8 236.5 228.3 222.7 220.5 216.8 212.7 237.7 268.4 295.5 312.8 328.5 342.6 353.6 366.8 379.3 386.9 389.6 392.5 395.1 394.8 393.1 390.4 385.2 380.8 375.2 368.9 361.6 355.1 348.3 346.5 344.8 341.9 340.1 336.6 335.3 333.8 335.7 339.1 342 343.2 343.1 341 338.2 334.9 329.1 323 314.8 306.1 293.2 289.2 297.8 300 301.7 302 301.7 300.2 296.2 288.7 274.5 260.6 282.9 283.4 279.4 266.7 256.4 274.5 291.6 302.3 310.6 317.4 321.3 325.9 332 335.4 341.3 345.1 346.5 345.1 343 339.1 332.2 327.1 324.3 338.5 346.7 353.3 359.5 369 378 387.2 393.5 397.3 397.6 398.6 399 395.3 390.3 381.3 378.5 379.5 382.9 388.7 392.7 395.2 395.5 394.3 392.8 389.9 386.2 379 368.9 355 345 341.7 351.1 364.3 376 387.1 396.6 406.3 413.7 419.9 424.5 429 432.8 434 434.4 430 429 427.3 424.4 420 412.6 403 391.8 389.5 394.3 393.2 388.8 379.7 388.8 403.3 417.4 430.9 442.7 452.1 461.3 471.1 479.2 485.6 489.3 490 481.8 468.3 455.1 437.6 415.4 393.6 376.5 364.6 355.4 341.6 341.7 350.1 356.9 380.6 408.8 433.5 454.9 475.7 492.1 503 509.8 513.6 515.9 517.7 517.5 516.3 514.6 513.3 512 509.9 507.5 505.2 503.3 501.1 498 494.5 491 486.2 481.6 476.7
310.4 299.5 292.3 283.6 277.6 268.5 255.1 239.3 235.9 232.5 230.2 229 218.3 215.2 244.2 274.5 311.1 330.1 342.1 355.3 370.8 384.4 395 402.9 406.9 409 412.2 409.7 405.1 401.2 395.3 390.3 383.7 373.9 366.6 360.1 353.3 351.2 346.8 343.9 340.3 337 332.6 328.8 330.3 331.2 333.8 336.4 336.6 335.4 333.3 329.5 323.7 316.7 307.7 298.4 290.3 300.2 303.9 305.2 307.4 306.9 304.6 302.3 295 286.7 267.6 286.4 288 288.2 284.5 276.4 262.7 264.5 288.4 301.4 309.7 317 323.3 327.3 333.8 336.8 338.1 339.7 339.3 330.6 328.5 319.2 303.3 317 333.5 341.5 348.6 355.8 363.4 374.9 385.1 391.7 396.4 400 402.5 403.4 401.4 396.7 392.9 387.5 387.9 388.7 392.4 397.4 402 403.8 403.8 402.6 399.9 396.3 390.8 383.6 372.9 358.7 349.1 341.1 341.7 352.9 366.8 377.6 387.8 396.2 403.3 409.4 415.6 421.4 427.9 432.2 434.7 435.8 434.5 433.1 430.4 425.8 419.2 407.2 397.1 395.7 399.8 398.8 393.5 385.2 384.5 400 412.9 426.6 440.4 452.6 464.6 476.1 484.2 489.3 492.6 485.4 476.6 466.5 453.3 436.3 413.8 393.8 374.3 364.3 353.6 342.3 345.8 350.4 358.2 373.2 400.5 424 443.3 461 475.9 487.1 493.2 499.1 503.8 506.8 509.3 511.1 511.8 512.9 512.6 511.3 509.7 507.4 505.1 503.2 499.6 495.7 491.3 486.3 481.3 476
307 297.5 288.4 280 272.1 258.8 241 246.7 237.2 233.3 231 230.9 231.5 212.2 226.3 260.1 289.8 321.1 348.8 365.8 382.2 395 405.8 414.5 420.2 419.9 420.1 415.6 410.7 406.4 401.8 396.1 388 380.2 373.6 366.9 361.6 356.5 350.4 344.9 340.7 335.9 331.6 328.1 324.7 326.2 326.2 329.4 329.9 328.6 326.5 323.1 315.9 308.4 299.2 288.4 301.3 306.3 309.7 310.9 311.2 309.7 306.3 300.7 292.3 275.8 273.1 292.9 293 292.1 289.3 284.6 268.2 262.3 279.8 296.8 307.7 315.6 321.9 327.5 333.4 336.4 337.2 335.3 332.3 323.5 311.3 296.7 311.3 326.8 335.8 343.6 349.6 358.1 371.1 381.9 389.9 394.6 398.4 401.7 404.6 406 404.2 400.8 397.9 395.9 396.8 398.1 401.4 406.9 410.2 411.8 411.6 409.8 407.2 402.7 394.9 386.5 376.1 362 351.3 346.9 344.4 344.7 354.6 365.2 375.9 385 393.5 400.7 408.9 414.8 424.2 431.2 437.3 440.3 442.9 441.3 437.3 432.2 425.2 415 404 399.6 406.6 404.7 397.1 389.5 385.4 394 407.5 420.9 435.5 450.2 463.6 475.3 484.1 485.6 483.3 480.1 474.8 465.6 452.9 434.8 412.6 389.7 371.5 362.2 351.6 344.2 347.6 353.1 357.5 366.7 388.3 410.6 430.9 445.9 459.4 471 478.5 486 492.5 497.8 502.5 506.2 508.9 511.1 511.9 511.7 510.7 508.7 506 503.6 499.6 495.2 490.5 485.7 480.3 475
300.4 292.2 283.1 273.7 254.8 251.3 261.3 256.5 245.3 235.7 230.8 230.6 229.3 215.2 213.5 235.9 269.4 297.9 325.9 351.8 381.1 399.8 409.6 416.5 419.9 418.7 417.6 416.4 413.2 409.4 405.6 400.8 393.1 386.7 380.4 374.2 365.9 361.6 352.6 346.2 341.3 335.5 331.1 327.3 322.2 321 320.8 320.6 322.1 319.8 317.9 311.8 308.5 300.7 293.6 304.5 308.5 312.2 315.3 316.1 315 312.4 308.1 296.6 285.9 268.2 291.1 298.1 297.8 296.3 293.7 288.7 277.1 266.9 272.3 289.4 302.4 310.6 315.4 324.3 329.3 332.4 331.9 329.3 324.3 314.8 298.4 295.7 319.9 332.1 339.6 347 356.7 367.3 377.7 386.8 393 397.4 400.2 403.5 406.2 407.2 406.5 404.8 402.6 403.8 402.6 406.5 409.4 414.9 417.6 418.6 417.7 416.5 412.4 408.5 398.6 388.4 376.3 362.3 353.6 349.8 350.6 348.3 344.5 352.4 362.1 373 382 391 401.8 410.9 420.8 429.4 437.6 444.8 449.6 450.3 446.2 440 432.2 422.8 413.3 409.8 411.5 409.9 402.5 396.5 392.7 387.3 402.5 416.1 429.5 444.6 458.6 468.9 475.5 478 478.8 477.5 471.8 461.8 448 432.9 411.6 389.5 373.6 360.7 352.8 344.5 348.9 358.4 364.1 373.4 379.5 397.6 412.5 428 442.6 454 463.7 472.4 480.4 489 496.4 502.3 506.5 509.4 511.4 511.1 510.1 508.1 505.3 502 497.5 493.1 488.8 483.2 477.2 472
290.6 279.6 268 274.8 273.7 274.5 272.6 263.1 250.2 239.3 232.1 229.7 228.5 222.9 211.6 213.4 244.3 277.3 304.6 336.1 368.3 396.7 404.3 409.1 409.8 410.1 410.7 411.3 413 413 411.1 407.8 402.2 394 386.5 380.9 372.1 362.2 354.7 347.9 341.7 335 329.8 326.1 322.9 320.9 313.4 315.2 310.8 308.4 304.2 300.1 300.7 304.9 306.3 311.1 315.7 318.2 319.5 319.6 317.5 314.8 306.5 291.9 271.7 286.5 300.1 303.8 303.9 301 297.6 292.8 287.6 275.2 262.7 270.2 281.8 285.6 294.2 301.6 310.5 317.2 315 316.8 311.6 306 288.2 301.9 321.9 336.6 347.9 356.8 365 373.1 382.7 389.1 394 397.7 400.2 403.2 405.9 407.9 408.4 408.2 408.2 408.4 409 412.1 415.8 420.7 422.9 423.9 423.7 421.9 416.9 410.8 400.6 389.8 374.4 363.9 356 353.4 354.4 354.3 353.8 347.9 347.9 359.4 371.6 379.4 393.7 405.3 416.6 427.4 439.9 450.1 458.1 457.3 453.5 447.5 440.6 432.5 421.5 420.1 419.6 415.3 409.9 405.4 399.7 392.3 394.4 410 422.5 435.4 450.5 463.2 470.9 474.5 476.4 474.4 469 458.9 448.2 432.8 408.6 393.6 376 362.2 352.1 350.4 351.5 361.5 367.5 384.6 402.5 407.8 420.5 428.2 431.2 433.5 442.5 456.3 470.9 481.7 491.2 499 503.9 507.4 510.1 510 508.7 506.8 503.4 499.3 494.8 489.9 485.1 479.6 473.9 468.7
290.4 290.9 286.7 288.1 286.8 286.3 281.8 271.7 252.8 241.1 233.4 229.4 228.4 222.7 215 211.1 222.1 255 285.8 323.9 359.1 383.6 390.6 393.6 394.5 397 400 403.9 411.7 418.4 419.5 416.4 408.8 400.1 390.8 382.6 374.2 363.3 357.3 351.4 344.8 336.4 330.8 326.7 323.8 320.3 318.2 314.4 315.6 312.7 312.2 312.7 312 312.1 313.3 316.8 320.1 323.3 324.6 323.4 319.2 311.3 299.5 280.7 284.8 298.3 306.1 310.3 310.8 307.6 302.5 297.1 293 288.7 281.6 272.6 269.8 265.5 264.4 269.4 276.3 284.9 287.8 288.3 291.9 295 281.7 303.5 320.3 335.1 348.8 359.1 367.7 375.1 383.1 388.6 392.3 394.3 397.3 401.1 404.6 408 410 411.8 413 413 414.9 417.6 421.2 424.6 427.3 428.7 428.3 424.5 418.6 409.7 398.3 387.6 375.7 365.5 354.8 358.4 358.8 359.2 359.1 357.7 352.1 348.2 359.5 374.7 387.8 400.8 413.2 427.2 439.5 450 458.9 461.9 459.5 453.1 449.1 442.5 431.3 432.9 429.8 425.2 420.2 413.5 404.9 400.1 394.4 399.7 415.8 427.7 432.1 455.6 469.2 472.9 474.1 471.5 466.7 459.4 450.6 436.2 418.2 396.5 376.6 363 347.3 351.7 356.3 367.4 373.3 394.3 413.6 423.8 432.4 441.1 448.5 455.5 462.6 468.2 467.7 474.7 489.4 496.8 502.4 506 508.1 508.2 507.1 504.3 500.5 496.2 491.2 486.2 481.3 475.4 470.1 466.4
302.8 300.7 297.6 296.1 293.7 290.6 286.6 276 257.6 244.3 233.9 229 227.7 221.6 213.8 213.5 212 235.7 271.4 309.8 342.6 368.1 373.8 376 376.3 380.2 386.6 398.7 408.7 417.3 419.4 415.6 407.3 398.4 390.1 383.3 375.3 367.4 362.5 355.8 349.1 340.2 333 329.4 326.4 323.1 313.3 319.5 318.6 317.6 317.2 317 318 318.8 320.2 323 325.9 328.1 328.4 325.5 319.6 305.2 292.9 274.6 293.6 303.9 312.6 316.5 319.2 316.2 310 303.3 298.1 294.8 290.9 285.8 285.9 286.7 279.5 273.1 269.2 269 266.6 271.2 274.3 277.5 280.8 291.3 304.9 327.8 347.1 356.6 364.9 372 378.7 383.6 387.1 389.1 392.3 397.8 403.5 409.6 412.2 414.4 416.3 417.7 419.3 422.1 424.9 428.2 430.9 431.8 429.6 425 417.7 410 400.8 390.9 378 366.4 363.1 363.8 365.2 365.8 365.8 363.2 360.5 356.8 350.4 365.7 381.4 395.5 408.8 422.9 435.7 447.1 458 462.8 461.9 458.5 457 453.4 447.7 444.5 441.7 436.1 430.5 421.2 413 409.7 404.7 397.1 409.8 425.5 442.6 456.5 465.8 470 473.1 472.7 468.9 461.5 452.4 440.6 420.3 397.7 377.3 363.8 348.9 353 364.6 374.3 383.2 402.8 420.6 429.2 436.7 444.3 451.9 460.9 469 475.6 481.2 485.8 488.3 494.9 501.3 504.4 505.8 505.8 504.3 500.9 496.5 492.1 487.4 482 476.3 470.5 467 463
313.8 310.8 307.3 304.7 299.4 294.5 289.7 281.9 267.4 250.4 237.5 229.5 226 214.5 212.9 212.9 212.8 223.1 261 294.1 324.6 350.4 355.3 356.7 357.2 364.2 378.9 392.5 403.2 409.7 410.7 406.6 399 390.5 385.7 383.8 380.7 375.7 370.6 362.8 354.3 346.5 339.6 334.1 330.2 320.7 324.5 323.1 322.1 322.6 322.6 323.1 324.8 326 327.3 329.7 331.6 332.7 330.3 326.2 316 301.7 289.3 282.1 297.5 308.2 316.5 322.8 327.2 325.7 320.2 312.7 304.2 299.1 294.2 294.3 294.1 294.2 293.8 291.5 284.3 281.8 276.2 275.1 277.4 277.3 275.7 272.5 282.7 311.3 334.5 349.9 357.7 364 369.6 373.5 377.1 379 387.7 395.1 403.3 410.1 413.2 414.9 417.2 419.9 421.8 423.9 426.7 429.6 430.8 431 428.8 424.2 418.3 413.4 405.4 392.7 377.3 366.6 369.2 370.5 372.6 374.9 375.1 372.3 368.9 364.6 355.7 354.5 371.4 385.8 399.8 411.5 425.9 437.3 448.5 455.8 459.8 463.2 466.4 465.6 463.6 457.6 452.9 446.7 440.6 431.6 425.8 420.8 414.9 406.1 407.6 422.1 436.9 452.3 461.9 468.8 473 472.9 468.7 462 453.7 440.9 418.4 396.9 379.3 365.4 352.9 355.5 369.4 378.8 390.8 407.3 420.1 428.7 437.2 444.9 454.8 465 473.7 481.1 487.9 493 497.1 499.3 501.7 503.6 504.2 503.5 501.2 497 492.3 488 482.9 477.4 472.4 467.9 462.8 458.6
325.2 322.8 316.5 312.8 306 300.1 293 285.3 274.9 258.6 242.6 230.5 218.6 212.3 212.5 212.6 212.1 220.6 255.1 280.6 306.2 331.6 339.3 340.9 344.1 358.4 372.1 384.8 394 398.6 398.8 394.4 386 382.9 385.4 389.9 390.6 385.2 378 369.3 361.2 353.4 346.4 340.2 333.3 330.2 329 327 327.6 329.3 330.8 331.4 331.6 333.1 334.2 335.7 335.4 334.7 329.5 324.9 314.7 300.9 287.2 291.7 300.6 311.4 320.5 328.9 333.9 334.8 330.2 323.5 315.1 305.7 301.3 299.7 298.3 298.8 299.9 299.4 296.8 290.5 285.6 287.9 289 287.6 283.6 282 274.8 286.2 311.8 334.2 347.2 353.4 356.9 361 364.4 371.8 381.8 391.2 400.8 406.9 410.7 413.8 417.2 419.7 421.1 422.8 425 426.9 427.7 428.3 427.5 425.2 422.7 418.1 407.4 391.8 375.9 374.7 376.7 380.6 384.2 386.8 386.2 383.4 379 372.4 360.8 352.3 363.5 376.3 389.1 401.2 412.7 424.7 437.1 445.5 460.2 468.1 476 478.7 476.1 470.4 465.8 461.6 452.5 442 436.3 431.3 425.8 415.4 409.7 418 429.7 443.9 456.9 465 468.5 470 467.2 461.7 454.1 435 418.4 399.5 380.9 368.1 355.5 355.9 372.3 381.8 393.5 409.2 419.9 429.1 436.3 446.5 458.7 469.8 479 487 494.2 498.8 502.1 503.4 504.1 504.8 503.9 501.7 498.1 493.7 488.9 484 478.7 473.4 468.4 463.5 458.7 454.2
337.8 333.2 326.6 321 314 305.9 298 289.5 281.4 269.2 251.8 233.9 223 211.8 212.1 211.2 209.9 216.5 232.7 258.5 286.3 314.4 322.1 324 339.7 352.4 364.4 374.8 381.9 385.1 383.9 380.1 376.5 380.7 388.9 394.6 397.1 392.1 385 377.8 367.8 360.4 353.3 346.3 335.9 335.5 334.4 334.6 335.4 336.7 338.2 339.1 340 341 340.7 340 338.5 335.6 330.6 323.6 313.7 301.5 288.3 293.9 303.8 315.3 325.7 333 338.8 340.7 338 333 325.5 317.4 308.7 305.4 303.2 303.5 303.7 303.3 301.5 283.3 297.6 296.6 296.6 295.2 294.2 290.4 284.3 277.6 285.5 310.8 327.7 336.9 342.8 346.5 349 363.1 374.9 384.9 393.8 400 404.7 408.6 413.4 415.1 416.5 418.1 420.7 422.6 424.1 427.3 430 430.4 426.3 419.1 410.5 388.4 376.7 385.4 389.9 393.3 395.9 397.7 397.7 393.8 387.6 378.6 368.3 355.9 358.5 368.5 372.9 380.9 393 413.7 434.2 449.9 464.3 477.1 486.1 490 489.7 482.5 477.8 473.2 466.6 456.2 450.8 442.8 435.5 422.8 413.8 421.5 430.6 442.1 451.3 459.7 465.7 469 468.2 464.8 454.7 438.4 421.8 403.5 385.6 370.5 357.3 356.5 373.3 384.4 391.5 405.6 417.6 427.5 439.1 450.7 462.7 474.2 484.2 492.3 499.1 503.6 505.7 506.1 506.7 505.8 503.8 500.5 496.2 491.6 485.6 478.1 473.2 468.3 463.4 457.6 453.3 449
350.6 346.2 337.9 330.8 322.6 313.6 301.7 293.4 285.7 272.7 255.9 238.7 220.6 211.8 210.9 210.9 208.4 221.3 251.7 279.2 295.1 295.5 308.7 322.4 333.8 345.1 355.6 363.4 369 371.3 370.6 368.9 370.2 378.6 390.5 397.9 402.7 398.6 391.4 384.6 374.3 367.4 358.9 352.6 343.5 344.1 342.9 343.2 343.6 344.1 345.8 346.9 346.5 346.3 345.3 343.7 341.2 336.7 330.8 323.1 314.1 301.6 287.2 292.2 304.5 317.6 328.4 336.5 342.1 344.8 345.3 342.6 336.1 329.8 322.8 315.4 310.7 308.5 309.2 307.5 305 291.9 302.6 302.7 302.8 302.3 301 300.4 297.4 291.3 283.4 286.1 301.9 312.9 325.7 323 344.2 354 366.4 376.8 384.7 390.3 396.2 400.6 402.9 404.3 406.7 408.6 410.5 416.8 423.3 428.6 433.4 432.2 427.6 422.6 413.8 395.8 385.9 397.4 402.5 409.4 410 410.4 408.7 404.4 396.5 386 374.6 363 354.7 367.4 379.3 391.3 403.1 418.3 436.5 453.3 469.1 483.2 494.7 501.1 500.5 498.4 491.8 486.1 478.3 471.4 463.3 452.7 441.2 426.1 419.1 428.7 435.1 444.8 455.2 465.2 470.7 473 471.1 465.9 459.3 444.1 425.2 406.2 388.5 372.3 361.5 357.1 371.6 382 392.6 405.8 417.8 429.6 441.9 454.5 466.7 478.6 488.8 496.8 503.2 507 507.7 508.3 508.1 506.2 503 498.8 494.7 486.8 480.1 466.5 463.7 460.8 454.7 450.8 448.2 445.8
365.8 360.1 350.5 343 331.8 320.5 306.4 294.9 285.4 275.8 260.9 240.3 219.8 210.7 210.2 210.4 208.2 228.4 254.7 279.2 290.1 295.6 308.4 321.4 329.7 339.5 348.3 354 357.2 358.3 358.9 357.1 362.1 376.1 389 397.7 403 405.2 397.6 391.3 381.7 373.1 364.7 358.1 354.6 354.1 353.4 352.4 352.6 353.3 355.3 355.1 353.9 352 350.3 347.9 343.4 336.4 329.9 319.7 309 297 301 295.4 299.8 314.9 329.1 338.3 344.7 348 351.4 351.1 347.9 342.6 336.6 330 323.6 319.7 315.3 311.3 306.4 304.8 307.3 307.7 307.5 306.7 306.2 305.5 303.8 300.7 294.5 285.1 280.8 291 303.4 319.1 334.6 347.2 357.2 366.9 373.8 378.4 382.3 387.6 390.8 393.8 395.6 396.6 405.1 414.9 423 429.7 433.6 434.2 432 426.7 417.9 403.6 396.1 407.3 415 421.5 423.7 423.9 420.7 414.5 406.4 394.1 380.5 369.7 356.3 364.2 380.9 393.9 407.6 422.3 439.6 457.8 473 488.8 501.7 509 510.7 507.8 501.3 494.7 489.5 482.4 471.9 460 444.3 430.4 427.5 437.1 444.3 454 463.8 472.4 477.2 475.8 473.3 469.1 459.5 442.9 423.1 406.3 390.3 374.2 362.4 356.4 370 380.3 393 406.8 419.3 432.4 445.7 458.9 471.6 482.8 492.8 499.7 505.2 508.6 509.3 509.1 508.3 506 502.9 499.5 495.9 491.6 484.6 476 461.5 448.7 443.5 442.4 440.7 439.6
379.1 372 365 354.3 341.7 327.4 311.8 297.5 286.2 277 260.2 239.8 221.5 210 209.8 208.8 210.5 225.5 251.3 269 281.2 295.2 307.3 317.5 326.3 333.2 338.2 341.4 345.1 346.6 346.5 344.3 358.5 373.2 385.4 395.7 401.5 405.8 402.6 398.2 391.1 382.4 372.2 361.4 364.5 364.5 363.6 362.9 362.3 363.2 363 362.9 359.9 357.2 353.7 350.1 344.8 336.8 328.3 317.5 305 298.1 307.8 303.8 289.9 307.7 324.9 335.6 343.1 351.4 355.4 357.7 357.6 354.7 349.6 342.3 335.1 329.4 323.1 315.5 307.8 310.4 312.1 312.6 313.1 312.4 312.3 310.5 309.5 308.8 303.9 296.8 286.3 283 290.1 306.3 324.3 339 349.8 356.4 361.1 364 366.9 369.9 375 378.1 380.2 384.3 399.1 414.9 425 432.2 436.8 438.4 436.2 431 423.1 408.9 405.6 416.6 426.9 434.1 435.9 435.1 430.2 424.6 415.3 400.6 387.5 374 362.1 358 376 394.3 409.8 426.2 443.6 459.7 474.8 490.3 503.7 513.9 518 516.3 509.1 498.8 496.4 488.8 479.6 463.7 458.4 437.4 436.1 447.4 458.7 468.5 473.5 478 479.4 478.9 475.4 468.2 457.5 439.8 419.7 403 388.7 372.7 360.3 355.3 369.1 379.4 393.7 407.7 422.2 435.7 449.8 463.4 475.8 486 494.1 501.4 506.2 509.7 510.3 509.7 508.2 506.4 503.7 500.6 497.2 492.5 485 475.9 464.9 445.9 432.6 433.9 433.1 431.4
394.8 386.7 376.3 364.1 349.6 333.7 316.3 299 285.8 274.8 260.2 242 220.7 209.2 208.2 208.2 209.9 232 250.1 271.6 283.9 292.5 302.7 313.7 322 326.2 328.3 331.8 332.9 334.6 336.1 340.1 353.4 367.8 381.5 393.8 403.6 408.3 408.1 405.4 399.4 390.3 379.8 374.3 374.3 373.5 373.3 372.4 371.3 370.7 369.7 368.5 363.7 359.3 355.1 350.6 343.5 333.3 325.2 312 301.7 308.8 311.5 310.4 303 296.7 314 328.5 341.5 352 357.6 362.1 364.8 363.7 360.6 352.7 344.1 336.5 327.9 319.1 308.6 314.6 317.4 318.9 318.6 319.9 319.3 316.9 314.5 313.3 310.3 305.7 302 286.3 284.3 293.3 312.7 329.3 339 343.2 342.4 344 347.6 353.3 351.9 366.5 375.5 394.4 405.5 417.6 428.6 437 441.4 443.6 442.5 437.6 428.2 415.7 416.5 427.8 437.7 446.1 449.4 447 441.1 434.6 423.9 408.3 393.8 380.9 369.4 358.1 366.9 387.6 406.2 423.5 441.7 458 473.6 489.5 503.9 514.8 520.9 520.7 513.3 505.7 502.2 493.6 485.6 476.7 466.6 453 445.2 460.3 473.1 479.7 481.1 481.9 482.6 480.9 476.6 468.8 456.5 435.4 414.5 397.4 383.6 372.5 356.8 356.1 364 378.8 393.6 409.1 423.4 438.2 452.7 467.3 478.5 487.2 495.9 501.9 506.4 509.6 510.6 510.6 509.5 507.6 504.6 501.4 498.4 493.1 485.8 476.8 467 451 431.7 425 424.4 423.7
406.8 396.9 386.2 372 357.1 340.2 320.5 299.7 284.7 273.6 258.9 243.4 228.6 208.7 207.5 208.6 209.4 237.5 265.7 274.4 282 290.8 298.4 308 314.5 318.4 319.8 321.9 323.3 324.4 324.8 337 349.3 364.5 380.1 393.9 404.4 409.9 414.1 411.9 406.3 396.7 387.3 383.8 381.8 380.4 380.4 378.5 376.3 374.4 373.4 370.3 365.1 360.5 355 348.9 340 330.4 318.9 305.4 310.6 315.6 319.1 317.4 311.9 294.3 306.5 322.4 338.3 349.6 358.3 364.6 369.7 370.5 368.4 362.2 350.9 341.8 331.7 324.5 310.1 320.5 324 327.2 329.1 330.2 330.1 326.7 320.9 317.9 315.7 311.1 307.7 299.2 288 287 298.6 313.6 319.4 318.7 315.1 329.7 341.2 351.1 362.2 373.6 387.5 398.8 409.4 421 432.4 441.1 446.3 447.8 446.9 441.9 434.4 423.3 426.3 438.1 447.4 454.2 456.6 455.7 452.5 445.4 430.8 415.7 400.9 388.1 376.8 366.2 358.5 377.1 397.1 415 433.8 452.6 469.5 485.2 499.6 510.6 517 517.5 513.1 507.5 504 500.1 491.6 485.6 480.7 463.6 458.2 471 483.6 486.9 487.3 487.5 485.2 481.5 476 466.5 449.8 429 409.8 392.1 380 371.5 361.1 356.9 362.3 377.8 393.9 409.3 424.8 440.4 455 468.1 479 488.1 495.8 501.4 505.4 508.8 511.2 512.4 511 508.5 505 500.7 497.1 493.3 486.8 477.2 468.3 456 439.5 418.2 416.5 416.5
419.4 406.7 393.8 379.8 364.2 346.9 321.7 299.2 284.2 272.6 260.1 244 225.9 206.4 207.6 208.7 218.3 244.7 267.1 276.1 283 288.2 294 300.8 306.3 310.1 311.2 312.2 309.8 318.8 326.9 338 349.3 365.4 381.4 395.6 405 412.6 418.4 417.1 411.9 404 396.7 391 388.5 387.3 384.4 381.8 379.2 375.9 373.7 368.7 364.2 358.6 352.3 345.4 336 323.6 308.9 313.9 319.1 324.6 326.8 325.4 320.1 307.7 298.9 315.9 332.7 346.3 356 364.5 371.4 374.9 373 365.9 355.1 345.4 336.2 328.4 314.8 325.8 331.2 334 336.9 338.6 341.8 338.4 333.8 328.3 322.9 318.3 313.3 307.7 296.4 288.2 287.3 294.6 309.8 319.4 334.8 344 352.3 362 370.7 380.8 390.4 400.4 411 423.6 435.6 443.1 448.5 451.7 450.1 446.4 441.8 432.9 435.9 443.7 452.3 459.6 464.6 465.7 462.9 455.4 440.8 425.2 409.8 394.9 382.7 372.2 362.5 361.5 384.8 404 423.6 441.9 460.6 476.6 490.3 500.3 505.8 507.7 509 506.5 505.5 501.6 496.1 493 489.8 478.1 478.3 489.6 492.6 494.1 494.4 492.8 488.2 482 472.7 460.2 443.1 423 404.8 388.5 376.6 372.2 365.4 357.6 362.7 376 394.1 409.5 426.1 440.8 454.3 465.4 477.1 487.1 493.6 498.1 502.8 506.9 512.5 512.2 510.3 507.2 503.4 499.2 495.4 491.2 486.1 478 470.5 459.1 448.7 430.8 407 403.6
426.7 412.7 398.7 384.2 367.8 349 322.5 300.5 284.1 270.5 256.6 240.4 222.6 205.7 207.7 208.5 224.2 250.3 267.2 275.1 283.5 285.9 289.5 293.9 298.4 300.8 300.4 297.3 308.8 318.4 328.2 339.1 352.1 367.6 383.5 396.5 405.1 414.4 420.6 421 416.7 410.6 403.9 398.9 395.8 392.1 387.6 383.4 379 374.4 369.8 364.8 359.5 354.4 347.1 338.1 328 315.4 314.4 321.8 328.1 332.1 334.5 332.7 325.5 313 297.6 310.5 325.6 341.4 352.3 362 370.8 375.2 373 366.2 357.8 348.2 339.6 331.9 323.5 332.5 336.6 340.3 342.1 347.1 351.5 351.3 347.4 339 333.3 326.3 319.1 312.9 305.1 292.2 288.4 300 315 328.7 341 350.2 358.3 366.6 374 383.3 392.2 401 410.7 423.1 433.2 441.2 447.9 454.1 453.7 451.4 447.4 445.2 448.3 452.8 461 468.3 473.5 476 474.3 467.1 453.7 434.7 417 402.6 386.3 376.1 370.9 362.2 369.8 390 409.7 428.4 447.5 463.5 476.1 486 492.8 496.7 499.9 500.7 503.2 502.3 500.3 498.3 497.3 495.7 496.4 499.7 501.6 502.4 501.8 498.3 490.7 480.1 468.7 452.5 434.4 415 399.8 384.9 378 371.9 367.3 365.1 363.4 375.4 391.7 408.9 426.9 440.7 451.2 461.9 472.5 481.3 487.3 492.7 498.5 503.7 509.1 508.7 506.6 504.4 500.7 496.5 492.1 488.3 483.4 477.1 470.3 461.6 450 439.1 422.5 403.5
428.9 414.2 400.7 387.6 369.7 348 324.3 303.6 285.8 270.2 255.2 235.1 210.2 205.7 207.5 209.3 231.5 258.2 268.2 273.7 278.9 282.4 283.9 287.4 288.2 287.2 288.3 301.5 311.2 319.9 330.1 341.4 354.2 369.5 384.3 396.3 404.7 413.7 418.9 420.5 420.4 416.1 412.2 406.6 400.4 395.2 389.7 383.2 377.3 370.3 364.2 358.7 352.7 346.8 339.1 329.6 321.2 316.6 322.4 329.7 335.7 340 342.1 339.6 332 319.4 305.9 307.5 317.8 333.1 346.8 358.6 367.8 371.3 370.8 365.8 358.9 351.5 343 334.6 330.7 338.5 343.6 347.6 350.8 356.3 360.4 361.3 358.1 350.9 342.3 333.4 324.1 316.1 308.9 301.1 288.9 298.4 315.3 330.7 340.6 350.8 359.7 367.4 375.2 383.6 392 399.5 408.4 418.2 428.3 438.8 448.2 454.4 456.1 454.8 454.1 454.3 456.9 462.9 468.3 475.8 481.9 484.5 483.6 477.9 463.6 443.7 423.7 408 389.5 384.9 378.4 369 362.9 372.9 393.4 412.9 431 446.8 460.5 470.4 478.7 485 488.4 494.7 499.1 501.6 502.9 503.2 503.4 504.1 505.7 508.1 509.8 510.5 509.3 504.1 494.9 476.6 457.1 432.2 420 410.4 401.4 383.5 379.8 375.2 368.2 368.7 361.6 369.3 388 405.7 423.6 437.6 448.5 457.3 465.9 473.2 480.6 486.9 493.2 499.6 503.7 504 503 500.9 497.5 492.5 488.6 485.1 481.2 476 470.2 462.7 450.3 441.7 431.3 415.8
427 412.6 399.8 386.6 369.9 347.8 325.8 305.8 286.6 274 258.7 231.9 206.9 206.5 206.6 211.3 237.7 255.5 263.2 268.9 273.1 276 277.3 278 274 281.2 294.3 302.8 310.9 320.9 331.5 342.5 355.9 369.3 382.9 394.6 404.2 412.3 417 420.5 422.7 422.1 418.7 414.1 407.6 400.1 390.5 382.1 373.4 364.1 355.8 349.4 343.8 337.4 330.5 323.7 316.7 322.7 328.4 337.4 343.1 347.2 347.9 345 337.9 325.7 312.2 301.4 314.5 327.3 340.6 351.9 362.6 367.3 367.5 364.8 359.6 352.9 344.6 338.1 336.7 342.8 348.7 352.9 357.1 364 368.2 369.6 365.2 359.6 347.9 336.4 325.3 318.5 313 304.2 291.6 295.7 311.3 328.7 341 349.1 358.1 366.3 373.3 380.8 388.3 395.6 402.9 412.7 422.7 434.1 444.9 451.6 456.3 458.6 459.4 461.2 464.6 470.3 476.8 482.8 488.1 490.6 490.1 484.2 471.6 450.7 431.4 413.6 405.8 396.2 385.8 376.5 368.2 364.8 377.8 396 414.2 429.2 441.9 453 462.1 464.5 479.3 486.1 493 498.2 501.6 504.1 506.9 509.6 513 516.3 517 517 514.2 507.4 498.1 486.1 470.5 448 426.3 406.6 396.6 387.8 381.7 377 374 373.2 366 362.5 380.4 400.7 418.5 431.4 442.2 451.1 457.6 465.1 472.1 479.9 486.7 493.1 497.7 499.7 497.7 497.1 493.2 487.3 483.6 481.1 477.8 474.3 470.4 463.6 451.6 442.6 433.1 422.8
421.7 408.9 397 383.6 367 345.9 325 306.8 288.4 274.5 252.8 223.2 206.5 205.2 205.3 217.4 224.2 228.6 243.2 248.3 255.1 263.1 263 253.8 272.8 286.2 294.3 303.3 311.6 321.3 331.5 342.2 353.9 366 379.1 390.6 401.6 409.9 415.4 420.1 423.2 425.7 424.9 421.2 414.2 405.5 394.1 382.8 368.9 358.3 351.8 347.6 340.6 335.6 331.3 325.5 322.6 327.7 335 344.6 350.7 352.6 354.2 349.8 343.1 330 315.6 307.1 313.5 321.5 335.2 347 357 362.4 364.9 363 359 352.9 345.9 340.4 341.2 347.2 352.5 358.7 365.8 370.7 374.4 375.6 372.4 362.1 347.3 339.8 330.4 322.6 316 307.5 293.7 294.2 310.3 328.7 341.9 348.1 355.1 361.4 368.6 375.7 381 388.9 396.7 405.1 416.3 427.8 438.9 448.8 455.6 460.3 463.7 466.6 471 476.2 483.7 489.2 493.6 495.8 494.6 489.1 477.5 456.2 437.2 427.7 417.5 406.6 393.3 385.4 376.8 369.5 365.5 379.3 396.2 411.8 424.8 434.2 437.1 456.1 468.4 477.8 485.9 493.1 499.6 505.1 509.7 514.6 519 522.2 523.5 522.7 517.7 509.5 500 487.4 473.1 454.4 432.1 413.2 401.5 391.6 384.1 381 378.1 376.2 368.8 363.6 373.7 393.4 410.4 422.8 433 442 448.3 456 464.2 471.5 478.1 486.7 489.9 492.7 492.4 491 486.1 482 478.8 475.4 472.7 470.8 469.5 463.6 454.3 443.2 434.6 425.7
415 403.9 391.2 378.1 362.5 345.2 325.5 306 287.5 270.8 252.9 220.1 206.2 205 204.7 225.4 233.2 241.2 244.9 255.4 255.4 255.6 258 272.8 269.9 270.8 290.2 301 309 317.9 327.9 336.5 348 359.2 371.3 385.9 397.2 405.1 412.5 419.1 424.1 428 429.9 426.6 420.1 411.7 398.5 386.2 372.6 365.1 360.9 355.8 349.6 342.3 333.9 327.2 328.6 333.5 341.7 350.9 356.9 359.4 358.2 352.9 344.5 333.4 320.5 315.1 305.1 319 331.5 342.7 351.8 358.6 361.2 360.2 356.8 353 348.9 344.7 340.7 350.5 357 361.6 371.2 375.6 381 381.6 377.2 363.1 354.6 348 336.9 326.4 318.2 310.4 296.7 293.2 308.7 325.4 335.5 343.1 350.2 356.8 362 369 374.9 380.7 387.9 398.7 409.5 422.2 434.3 446 453.9 460.6 466.6 470.8 476.5 482.6 489 494.4 498 499.9 498.4 492.7 482.5 466.8 449.4 443.1 432.2 418.8 407.7 397.2 386.7 378.2 369.4 367.4 376.1 393 402.5 403.3 430.7 445.6 457.5 467.3 477 486.2 495.8 503.5 510 516.7 521.4 526.5 529 526.2 520 511 500.3 488.3 474.4 456.3 434.4 418 403.7 394.3 387.1 383.6 379.8 378.6 372.6 367 365.4 385.5 400.9 412.3 422.1 431.3 440.4 448.1 457.2 463.4 470.5 479.5 483.2 483.6 485.1 484.3 481.1 477.9 474.6 472 469.5 467.3 465.3 462.1 454 442.3 436.2 426.6
405.7 396.1 385 372.8 356.7 338.7 321.2 303.4 287.6 270.4 255.4 228.4 205 204.3 203.8 229.8 242.4 251.5 261.4 266.6 269.7 272.6 276.6 282 286.5 290.8 295.9 299.3 295.3 310 321.3 328.9 340.3 351.3 363.2 377.4 389.2 399.9 408.1 417 423.6 429 432.3 430.7 426 418.6 405.1 393.7 384.7 379.2 372.1 363.2 355.1 346.5 337.3 329.4 333.6 339.4 348.7 358.2 361.9 363.5 360 353.5 345.5 335.1 324.2 320 314 316.1 327.3 337.6 345.3 352.4 355.9 356.3 355.7 354.3 352.5 350 347.8 352.5 359.2 365.2 372.5 378.2 384.2 385.6 381.6 374.7 368.3 356.4 343 330.8 321.3 312.6 300.9 294.7 302.6 313.2 325.3 334.4 341.4 350 356.2 360.1 364.9 369.5 379 393.1 405.4 416.6 429 440.6 451.6 459.4 467.2 474.6 480.3 486.8 493.3 498.5 502.3 504 502.7 496.9 487.9 474.4 467.2 460.4 448 432.5 422 409.3 396.8 385.8 379.2 374.9 369.5 374.3 393.6 409.1 423.1 436.1 446.4 455.8 465.5 477.6 490 500.4 508.9 515.6 523.3 530.7 532.5 528 521.3 512.3 500.2 488.4 475.3 455.5 435 419.2 405.3 396.3 393.2 389.3 384 379.9 375.2 368.2 365.3 382.2 389.8 401.8 411.1 420.6 432 439.6 447.2 454.9 461.9 470.5 474.1 476.7 478 478.2 477.6 474.9 471.8 469.2 467.1 464.2 461.6 457.3 451.3 441.2 434.9 425.9
395.8 386.5 376.2 362.8 344.2 329 313.8 299.2 286.3 270.1 253.1 228.3 204.7 203.8 206 233.2 250.4 260.9 266.6 271.3 274 277.4 280.5 283.9 288.5 295.9 301.2 306.2 310.4 304.6 315.4 322.5 332 342.8 354.9 367.7 379.1 391.9 402.8 412.9 421.1 427.5 433.3 434 431.1 425.7 417.4 408 400.5 394.2 384.4 372.4 359.5 348.9 339.7 333.2 337.9 346.5 355.6 364.2 367.3 366.4 362.1 354 345.1 335.5 327.1 322.8 317.8 313.7 323.2 333.1 339.5 346.5 351.5 354.2 356 357.3 356.4 355.1 353.4 353.9 360.4 367.1 372.8 381 387.5 388 385.6 383.2 378.1 367.7 354.6 339 325.4 313.3 304.6 297.8 295.5 309 316.6 325.7 333.8 340.4 347.9 350 351.7 363.5 375.9 388.7 400.8 411.9 423.1 434.5 445.8 455.3 463.3 471.7 479.7 488.7 496.2 501.5 505.5 506.9 505.3 501 493.8 486 479 472.5 462.5 451.1 437.7 421.5 407.3 396.4 388 382.2 377.2 371.7 389.1 402.7 414.6 425.4 435.3 444.7 455.5 467.8 481.1 494.4 505 515 522.4 531.4 532.3 527.6 521.6 512.8 501.2 489.6 476.3 454.8 431.9 417.4 408.8 402.9 400.6 396.1 388.9 383 379.6 372.8 367.5 372.7 382.3 391.6 402.7 414.1 423.8 432.2 438.7 444.6 452.4 461.9 466.4 469.6 472.5 473 474 472.4 469.3 467.2 465 462.4 459.2 456.1 449.4 441.5 432.1 421.2
384.4 374.7 362.3 348.1 332.7 318.3 304.9 292.4 278.8 267.1 254 230.3 203.9 202.9 205.5 231.4 251.9 262.7 268.3 272.4 276 278.2 281.4 284.7 290.2 298.6 304.6 309.5 314.2 318.5 323 327.9 328.3 336.4 347 358.4 369.9 382.5 395.4 407.4 417.7 425.4 432.2 435.4 435.2 433.2 426.8 419.9 412.2 404.8 393.2 380.4 366.2 353.9 345.4 337.7 342.3 352.1 360.5 368.9 370.8 369 363.5 354.6 343.7 334.9 330.2 325.2 322.2 314.3 320.6 327.7 337.2 344.3 348.6 353.6 356 358.9 360.4 360 358.6 359.3 361.9 368.2 376.9 383.6 389.4 390.2 391.1 389.8 386 376.5 363.6 348.3 332.9 318.7 308.5 301.7 293.4 306.2 307.5 318.7 326.7 332.6 335.4 346.9 355.1 365.9 377.1 387.6 398.6 409.2 419.7 429.7 439.7 447.5 454.6 464.6 475.7 486.2 494.9 501.2 504.8 506 505.8 504.1 500 494.6 488.7 482.7 474.9 463.1 451.4 436.7 419.8 398.6 399.2 391.5 383.7 373.1 380.6 396.2 406.2 415.1 422.9 428.3 434.9 459.4 475.5 488.5 501.1 511.4 519.1 526.8 529 526.7 520.9 512.9 502.9 491.6 477.7 458.6 440.1 429.6 418.1 409.1 403.1 399.8 392.3 386.4 381.3 375.3 371.7 370.4 382.6 389.6 396.8 408.1 415.5 424.1 428.6 434.9 442.3 452.2 458.6 463.4 467.2 469.5 471.5 470.4 468.1 466.3 463.6 460.4 457 453.2 447.9 441.5 432.2 424.6
369.8 361.2 348.8 333.7 320.3 305.6 287.2 284.6 277.4 267.2 254.3 235 205.7 203.1 204.5 227 251.5 263 268.4 273 277 279.5 280.8 284.3 291.2 301 307.3 312.1 316.7 323 328.4 332.5 336.5 340.6 337.3 353.4 365 379.2 391 403.5 414.5 423.9 431.8 436.6 440.1 440.1 435.8 429.5 421.6 411.3 400.8 388.9 375.3 362.3 350.3 339.6 349.8 359.7 369.5 374 374.5 372.2 366.3 357.5 344.2 339.7 334.4 330.8 324.9 320.3 318.6 325.7 332.4 342.9 347.7 353.1 357 360.5 364 364.1 364.4 365.1 366.9 370.5 376.3 385 391.5 394.7 396 396.1 390.9 381.5 368.9 354.9 338.1 323.4 314.5 307.3 295.8 307.3 315.9 321.5 326.6 332.5 339.9 347.8 358.1 367.5 377.2 387.6 397.6 407.7 416.4 424.8 431.6 438.2 446.4 455.3 468.5 479.1 488 495.8 499.5 502.2 505.2 506 505 502.4 497 491.5 484.7 472.9 461.9 449.9 433.6 419.3 410.1 400 388.1 376.3 377.4 386.7 392.7 401.4 416.5 430.3 442.4 458.9 471 484.4 495.9 506.2 514.1 520.3 525.1 525.9 521.6 513.8 504.4 493.7 481.9 467.1 453 437.6 424.3 416.5 405.7 402.2 395.8 388.8 383.9 377.8 376.4 370.6 376.1 383.1 391.3 402.3 410.5 415.6 421.6 427.9 434.4 443.3 450.7 458 463.5 465.9 468.8 468.8 466.9 465.1 462.4 459.1 456.6 452.9 448 441.8 430 420
356.2 346.2 333.9 315.9 301.7 291 290 281.6 272.7 263.4 251.9 235.1 208.2 202.6 204.3 222.9 249.8 262.3 267.6 271.5 274.6 277 279.3 284.4 293.5 301.4 308.2 315.1 320.6 326.5 331.8 337.6 342.5 346.8 351.5 356.3 361 375.8 388.7 401.4 412.6 421.7 431.2 437.5 442.3 444 441.3 435.8 427.4 416.9 406.9 396.1 383.1 369.5 356 349.3 356.8 366.5 375.4 379.9 380.4 377.2 370.6 363.1 352.6 347.1 339.6 334.4 327 323.7 317.1 323.1 329.2 340.1 345.9 352.7 356.9 361.2 365 368.1 368.6 371.6 373.6 375.9 379.7 389.1 395.4 400.4 401.7 399.5 393.7 384.2 371.1 356.7 340.1 327.6 319.4 311.3 296.9 305.1 316.2 322.7 327.7 333.3 339.7 348.4 358.8 367.2 376.6 386.4 396.1 405.4 412.2 418 422.2 428.1 436.8 445.2 457.1 468.4 476.9 484.3 490.6 495.9 501.8 505.8 507.8 508.9 505.8 500.5 492.7 482 470.1 458.6 442.3 429 418.7 404.5 384.1 383.8 389.2 386.2 396.1 407.7 421.5 435.4 447.8 458.6 468 479.1 489.7 499.8 508.2 516.5 522 525.3 521.4 513.8 505.8 496 484.3 471.9 458.1 442.7 425 413.6 408.8 405.8 396.2 391.6 389.6 382.9 380 374.4 371.7 377 387.4 395.2 404 410.3 416 421.8 428 436.9 445.5 452.4 458.8 462.3 465.1 465.5 464.5 462.6 460.1 456.6 454 449.3 445.8 439.4 428.2 412.3
337.6 330.1 316 303.7 300.3 292.5 279 272.3 266.8 256.4 245.2 231.3 207.9 201.6 203.7 218 249.2 261.4 266.4 268.8 272.4 274.2 276 281.3 291.1 299.9 308 316.5 322.5 328.7 334.4 341.7 347.2 353.6 358.8 365.5 371.2 368.5 389.7 400.1 411.1 421.1 429.7 437.5 442.8 444.9 443.1 437.9 429 421.1 412.6 402.7 389.8 377.1 362.1 356.1 363.5 372.7 380.8 385.6 386.5 383.7 377.5 369.7 362.3 354.2 341.5 335.6 329.4 322.9 322.6 322 326.6 333.4 343 350.2 356.2 361 364.8 368.5 372.3 376.3 379.2 381.5 388 395.2 400.6 405.6 405.8 401.5 394 384.4 371.9 355.1 339.8 329.1 320.2 312.3 299.5 298.7 314.7 323.9 331.4 333.4 339.1 346.8 356.7 365.6 373.7 383 393.7 400.4 404.6 407.2 408.3 412.9 421.2 429.8 440.5 451.4 461.7 470.1 479 485.8 494.4 501.7 506.1 509.9 510.1 504.1 496.2 487.5 476.3 465.6 449.5 435.1 420.9 404.8 384.2 387 395.8 399 392.5 406.7 421.3 436.7 448.4 458.3 466.2 474.1 483.9 492.7 502.8 514.1 520.2 523.7 520.1 513.5 506.1 497.1 485.6 473.8 460.7 442 423.3 414.8 409.2 406.9 399.2 393.2 388.6 384.2 384 373.9 372.3 373.8 377.7 388 397 403.6 410.8 416.1 422.4 431.1 438.5 446.7 454.7 459 461.3 462.4 462 460.1 457.1 452.8 448.8 445.1 442.4 432.6 422.8 403.1
323.4 312.1 300.5 299.4 290.6 279.3 273 264.4 252.3 243.9 235.1 223.3 204.1 201.3 203.3 219.1 247.4 260.1 263.8 265.3 268.3 268.5 270.1 274.3 283.6 293.2 302.7 310.4 319.6 326.6 334.2 342.8 350 358.2 365.6 374.7 381 386.6 394.1 402.6 410.9 420.2 429.2 437.7 442.1 443 441.4 435.7 428.9 421.9 415.1 405.8 394.1 380.2 366 361.6 370.2 380.6 388.2 391.9 391.8 387.8 382.3 377.1 367.7 358.8 348 336.3 330.3 327.9 326.4 321.7 324.8 329.8 337.7 347.4 353 358.9 363.6 367.7 374.3 379.5 384.1 387.5 394.7 400.7 409 411 407 401.9 393.7 383.9 371.3 352.7 339.7 328.3 318.7 316.5 299.9 297.8 307.4 318.4 323.4 328.9 334.7 343.4 351 360.5 370.5 379.5 387.3 392.1 391.6 387.5 389.5 395.1 402.5 412.6 423.3 433.8 445.4 455.3 465.1 474.7 484.4 492.8 499.4 504.4 505.3 503.1 498 489.3 480.3 470.6 456 437.8 421.6 404.6 382.6 390.1 402.5 408.1 406.5 398.1 417.3 433.6 445.5 453.9 462.2 470.6 480.3 488.9 499.1 510.7 517.6 520.3 517.5 513.1 506.6 497.5 486.5 474.4 458.7 439.4 424.6 415.3 410.6 408 402.4 395.5 387.7 387.5 386.8 375.6 375.9 376 375.6 378.7 388.7 396.3 405.7 412.2 419 426.9 433.7 442.6 451.4 456.6 458.7 460.5 460.2 456.9 453.1 447.8 443.3 439.2 432.8 427.1 414 395.4
301.6 304.9 303.8 296.2 286.2 275.4 264.9 249.4 232.8 227 219.8 207.1 201.6 200.9 203.7 226.1 251.1 257.6 261.6 260.7 259.4 252.6 247.7 253 260.7 266.7 276.9 292.6 306.4 317.4 330.1 340.7 352.3 362.7 372.3 381.7 388.6 394.6 398.5 404.6 411.9 419.7 427.3 434.2 437.5 437.6 435.1 431 425.5 419.5 413.1 405.2 393.9 381.4 364.6 369.6 380.4 387 394.5 397.4 396.6 391.2 386.6 380.3 370.8 360.4 349.9 338.9 330 332.5 330.3 326 324.6 326.9 331.7 338.4 345.1 351.5 360.6 366.8 372.9 379.2 386.2 392.1 397.6 404 411.6 412.8 408.8 402.5 393.6 382.9 369.4 350.9 336.6 333.3 326.6 318.8 301.3 298.4 302.6 309.3 313.9 315.8 323.5 336.2 345.9 355.1 363.8 370.8 376.8 376.1 369.6 363.3 361.8 368.9 377.3 388.8 402.6 415.7 428.1 440.1 451.3 462.6 473.6 482.5 489.8 495.5 499.3 499.4 497 491.2 484 475.1 458.2 440.7 420.9 404.2 386 394.6 407.6 416 417.5 410.7 412.1 427.6 438.8 448.4 458.5 467.9 476.4 485.6 495.5 506.7 513.8 517.5 516.4 513 506.6 496.7 485.1 470.9 455.1 437.5 424.3 420.1 412.1 407.4 404.3 397.8 388.3 384.8 387.5 377 380.9 380.6 380.7 382.7 380.3 391.8 400.6 408 414.4 421.9 428.9 439.6 448.2 453.3 456.6 459.4 459.5 453.5 449.5 441.4 437 432.3 426.4 413.2 400.2 386.2
302.5 299.5 295.2 289.4 278.4 270.7 253.9 231.2 218 201.9 202.3 199.7 202.1 201.8 206.1 229.6 250.7 253.8 254.5 249.3 237.8 226.8 220.9 222.7 227.2 234.6 246 261.3 276.9 295.1 325.2 338.1 352.5 364.4 375.5 385.8 394.5 402.2 406.4 409 412.1 418.5 423.7 426.9 429.2 428.8 426.7 423.7 419.6 413.8 407.8 400.4 389.3 371.8 372.3 381.5 389.3 394.8 398.8 400.4 397.9 393.7 388.8 381.4 371.8 361.2 350.2 337.9 336.6 337.2 335.6 331.6 327.4 331.4 332.2 331.3 337.9 344.3 351.5 360.9 368.9 376.7 384 391.8 399.5 405.5 410.6 413.4 410.3 404 393.7 381.6 367.7 356.6 349.4 340.5 331.6 323.3 309.2 299 305.2 308.7 321 329.4 331 321.6 334.3 345.5 354.5 360.5 361.3 352.2 345.5 356 364.4 367.7 366.5 364.6 381 397.5 410.5 424.6 438.8 451 462.1 470.9 479 486.2 491.8 495 496.2 493.4 486.4 477.8 464.1 443.5 424.3 408.1 392.4 394.5 410.3 422.1 425.6 421.1 410.6 420.9 433.4 443.8 454.2 464.7 474.5 483.8 492.9 502.6 510.3 514.4 515.4 512.4 505.3 495.2 481.2 466.6 450.4 433.7 424.7 416.9 411.9 406.8 403.8 398.9 393.8 384.9 380.4 381.2 385.9 383.7 384.8 385 385.1 381.3 394.3 403.6 410.2 416.8 425.9 435.3 443.7 449.3 453.4 456 456.6 449.5 444.3 433.1 427.2 419.3 412 404.9 390.5 380.3
295 291.9 285.9 280.6 274.2 262 238.6 214.4 199 200.6 201.2 200.2 202.8 203.8 205.4 232.6 245.1 246.9 242.3 230.8 210.5 213.2 213.3 215.9 216.2 217.8 221.8 233.6 256.8 290.4 315.8 332 347.6 361.6 375.7 387.4 398.4 406.5 409.4 410.1 411.5 414.4 416.9 418.3 419.4 418.9 417.4 414.3 409.1 403.3 398.7 393.5 382.5 375.8 387.8 396.3 400.4 405.7 409.2 406.8 400.7 395.6 388.8 381.1 371.3 360.6 347.7 342.7 343.8 344.9 341.9 337.1 330.3 335.3 337.7 340.1 340.4 337 346.6 353.7 363.8 372.9 382 390.4 400 406.3 412.3 414.7 412.3 406.1 395.9 384.9 374.2 364.7 354.1 344.9 335 325 312.4 299.7 310 314.5 325.7 335 339.2 339.5 338.4 331.9 341.8 337.7 339.7 348.6 365 375 386.4 391.1 390.7 386 373.4 377.7 392.7 409.5 423.8 436.8 448.8 457.8 467.1 475.3 484 490.8 494.9 493.6 488.3 480.4 467 448.3 430.5 414.1 399.5 390.5 409.7 422.3 428.3 427 418.9 417.4 428.5 438.5 447.6 460.4 471.9 481.3 489.6 498.7 505.8 511.8 513.9 511.4 504.4 494.4 479.6 465.7 449.4 432.3 422.4 416.2 412.3 409.1 403.3 400.8 394.7 383.2 382.4 387.5 390 390.2 388.8 391.3 392 388.1 383.7 395 404.5 410.9 421.2 429 436.2 443 448.4 452.5 453.2 446.7 433 417.2 411.8 414.3 407.2 400.1 394.6 384.3
285.5 284.9 281.6 275.1 267.3 249.9 224 197.3 201.4 201.5 202.5 204.5 215.1 208.3 204.8 213.7 230.8 225.1 217.9 210.6 213 215.5 220.1 224.4 226.7 220.1 219.4 220.9 242.4 272.2 296.3 313.6 331.9 351.4 371.3 385.7 397 403.4 406.4 405.8 405.6 405.9 406.6 406.7 406.7 406.7 404.1 399.8 393.9 390.3 387.9 385.9 379.2 390.8 399.5 406.5 411.1 415.5 417 413 403.6 397.1 390.3 380.7 368.8 357.1 345.5 349.8 352.8 351.5 346.7 340.4 331.7 338.8 342.4 347.1 349.5 353.4 352.1 347.5 357.1 368.4 378.1 389.2 399 408.5 414.8 417.9 414.5 408.1 399.9 390.5 380.6 369.4 358.4 348 336.1 326 313 301.1 301.7 316.6 326.6 338.6 344.1 346.4 347.4 348.4 347.4 349 357.3 369.6 379.9 389.2 397.6 403.5 407.7 407.6 397.6 386.5 375.9 390.3 408.4 420.4 436 446.5 455.7 465.5 476.3 484.7 490.3 492.4 489.2 483.2 474.9 457.7 438.3 421.4 406.5 391.3 402.8 417.3 425.1 429.2 425.6 420.7 425.9 434.1 444.9 457.6 467.6 476.9 485.9 494.9 503.2 511.8 514.4 511.4 503.3 492.9 477.9 463.8 448.1 433.5 422.9 416.8 412.6 409.7 404.5 400.6 395.5 383.7 387 390.4 391.3 392.1 394.4 396.3 395.7 391.1 384.7 385.6 396.6 405 412.6 422.6 430.3 437.2 443.1 448.4 448.8 442 421.8 414.5 422.9 422.1 414.5 409.5 395.2 384.5
264.3 275.9 273.8 269.5 259 236.9 207 200.4 201 202.1 204.5 219.6 231.3 233 212.3 205.4 206.4 208.4 211.7 209.5 233.4 240.7 244.8 250 251.4 244.5 225.6 219.6 227.6 246 265.6 283.1 302.4 328.7 349.7 371.5 384.7 391.6 395 395.4 394.6 394 394.4 393 390.3 390.1 386.7 382 376.7 373.6 374 378.7 385.7 394.8 404 412.7 418.5 422.3 422.8 416.4 407.4 399.9 390.7 378.5 366.6 354.6 356.8 359.1 360.6 358.8 353.9 344.4 334 341.5 348.2 353.4 358.3 362.7 363.6 360.4 354.5 362.5 374.3 385.6 397.1 407.4 415 418.6 415.1 409.7 403.7 395.8 384.5 373 361.8 349.3 336 324.7 313 303 302.1 314.6 324.2 339.8 350.9 352.7 354 357.1 361 364.6 367.3 379.2 390.1 399.9 408.1 415.1 420.7 423.6 419.6 410.9 401.4 390.5 391.1 407.9 424.2 431.7 444.7 453.6 467.3 478.5 485.8 489.9 490.5 487.9 480.2 465.6 446.4 429.1 413.2 399 393.6 406.1 417.6 424.5 426.8 422.7 425.3 431.7 440.1 452.5 462.5 472.8 481.5 491.3 501.1 512.8 514.5 510.6 501 488.3 478.3 462.9 447 433.5 424.5 418 413.5 409.5 406.7 402.6 396.7 384.8 389.4 393.4 396.5 397.5 398.8 402.2 401.7 395.8 390.5 387.1 392.5 398.2 406.2 417.4 427 432.3 436.9 442.3 443.9 429.5 410.7 417.8 419.2 420.2 417.2 415.4 402.1 385.9
234.9 247.8 258.6 259.1 247.3 226.6 200.9 200 201.4 202.6 214.5 227.1 241.8 249.4 243.5 227.5 222.6 226.6 233.5 242.4 248.7 258.6 266.9 270.3 269.5 262.6 246.4 231.4 221.8 224.1 233.5 252.2 277.5 298.3 320.9 343.3 357.4 370.3 377.2 379.5 379 377.9 376.3 375.4 374.4 371.7 368.5 364.1 359.2 351.1 362.3 375 383.9 393.1 404.7 413.3 421 425.9 423.8 416.2 411.5 404.8 395.8 385.3 374.3 364.5 366.5 369 368.3 364.8 357.6 345.3 335.4 344.9 353.9 358.7 364 370 372.9 370 362.5 357.7 369.9 380.9 391.7 402.7 409.6 416.6 417.4 412.8 405.9 396.2 385.8 373.7 362 345.1 332.3 319.9 316.3 310 303.2 310.4 321.8 340.7 354 357 359 367.9 371.8 375.9 381.6 389.4 399.7 409.6 418.9 427.4 434.8 438.4 437.6 431.2 422.7 411.2 388.2 395.7 411.4 415.3 428.7 444.6 456.8 473.2 483.8 490.5 494.1 492.2 483.2 470.3 453.3 435.1 418.2 405.5 394.5 395.3 405.1 413.8 419.8 420.2 421.2 426.3 434.6 445.4 457.2 469 478.7 487.7 496 510.1 514 509.3 497.5 485.9 475.2 462 447.2 435.2 426 418.1 413.1 410.9 406.4 401 394.6 386.1 393.6 398.1 400 404.4 405.1 404.9 403.3 400 393.4 389 389.1 392.1 394.1 411.8 420.8 427.2 431.7 433.7 422.6 414.8 418.5 426.3 424.1 421.2 423.7 418 403.1 388.4
237.4 216.9 234.2 241.3 235.2 218.9 200.1 199.5 201 211.5 222.5 237.1 249.1 255.3 255.7 252.2 248.6 249.6 251.9 259 267.8 275.3 280.9 284.4 283.1 278.6 268.8 256.4 247.7 229.5 225.1 230.5 248.6 269.4 290.7 308.2 324.2 340.2 355.2 360.7 360.3 359.1 358.1 357 355.8 353.5 350.4 347.6 343 336.2 355.3 368.8 379.8 391 400.8 410 418.2 422.7 420.3 417 414.3 409.7 403.2 395.1 385.9 371.8 376.8 377.7 375.6 371.4 361.6 347.2 337.2 349.1 359.2 365.1 370.3 377.9 380.4 377 370.3 359.8 370.7 378.6 388.7 395.3 411.6 422.2 422.9 416.7 407.5 396.6 383.8 370.9 356.8 339.2 329.1 324.6 321.2 314.5 303.7 305 319.7 337.1 354.5 360.3 361.5 374.3 378.9 385.6 392.4 399.4 408.8 416.8 426.2 434.9 442.9 447.8 449.8 446.1 440.2 429.2 407.7 396.1 400.6 417.8 432.7 446.3 459.6 475.2 485.7 492.2 496.6 495.7 485 470.7 454.3 437.2 417.3 404.6 398.9 396.1 397.8 402 405.1 408.7 413.1 424.9 432.9 443.9 454.3 465.2 475.4 484 491.4 504.2 509.4 506 494 484.1 473 460.3 447.1 435.5 426.4 418.8 413.8 411.3 407 403.1 393.8 388.1 394.9 402.1 404.5 408.4 409.3 409.8 407.1 401.7 394.2 393.5 396.1 395.5 400.4 399.3 411.2 408.3 413.8 410.3 416.7 424.5 438.7 439.8 439.4 437.6 431.2 425.7 412.3 392.8
260.7 235.6 212.6 216.9 209.2 207.1 199.2 199.2 200.9 218.8 233.7 246.3 255.5 259.2 261 262.3 263.6 264.9 268.7 276 282.6 289.2 294.8 297.1 295.6 291.5 285.1 277.5 270.8 256.9 236.5 225 225 239.2 258.5 275.7 291.4 308.1 326.5 336.7 340.2 339 337.8 337 336.2 334.7 332.4 331.9 327.7 323.6 346.4 361.3 373.9 385.3 396.4 405.2 410.9 414.9 413.7 415.5 415.5 412.6 408.9 403.2 395.1 387.5 387.2 385.7 382.6 377.6 365.7 346.7 341.4 354.1 365.5 372 378.7 385.3 387.4 383.4 378.2 372.4 372.6 382 390.2 402.7 419.6 426 426.2 420.1 410 397.2 383 364.4 346.7 339 335.3 333 329.4 320.8 308.2 305.1 315.2 328.7 344.6 357.4 364.4 376.4 384.7 391.5 400.6 408.8 415.6 422.9 432.2 440.5 449.2 454.6 457.7 456 451.6 442.7 428.7 415.3 396.9 414 431.1 446 461.9 476 486 491.7 496 492.1 480.6 466.6 449.7 430.3 412.1 406.2 401.5 400.2 397.7 399.5 403 410.1 409.7 413.9 423.1 435.9 449 461 471.7 480.7 487.4 497.2 504.5 502.4 491.9 481.3 471.4 461.6 449.7 437.4 426.8 420.7 414.8 413.5 409.1 405.8 394.5 391 397.4 405.8 407.6 413.8 414.8 413.6 408.7 402.4 397.2 397.2 400.8 403.2 400.6 397.8 400.2 411.5 417.2 426 434.2 441.7 445 444.4 443.7 442.5 438.3 433.3 417 396.8
266.8 255.6 245.1 228.3 222.6 210.3 197.2 198.6 207.7 228 246.4 256.2 261.8 265 266.8 270.6 272.6 277 283.4 289.3 295.7 303.7 307.4 307.1 305 299.3 294.1 286.8 277.7 253.9 265.2 252.9 233.3 225.9 231.7 247.4 263.9 280.6 294.6 307 315.5 317.4 315.6 315.8 314.6 312.7 310.7 310.1 308 314.3 332.4 347.8 363.5 377.3 386.5 395.4 401 403.6 405.4 411.1 413.7 414.6 414.1 410.8 403.3 398.5 395.7 393.9 389.4 382.7 370.3 349.1 343.5 359.1 370.7 378.4 385.6 394 395.9 392.6 386.9 380.2 377.7 386.6 396.6 410.8 422.7 430.7 430.5 422.9 412.3 397.3 377.6 356.6 349 347.9 345.4 341.4 335.4 326.8 316.1 304.9 306.8 319 331.9 346.8 362.4 373.8 386.2 395.3 405.1 415.2 421.8 428.3 436.3 443.7 451.8 458.5 463.1 462.9 458.8 455 447.9 433.4 412.7 403.8 425 442.3 459.2 472.1 481.6 486.3 486.2 481.7 471.8 458.4 440.1 421.1 410.6 406.2 406.8 404.1 403 399.4 403 411.2 421.6 428.7 432.4 426.4 439.5 454.8 467 476.6 483.8 492.7 500.8 499.2 488 479.2 471.1 460.6 453.5 442.4 430.1 420.4 415.9 414.3 409.9 404.8 392.6 397.7 405.7 405.6 409.4 416.9 416.5 413.8 409.7 403.6 398.7 399 402.6 406.8 408.4 412.7 417.6 423.7 427.7 433 440.1 444.1 448.5 449.2 447.9 446.4 443.5 435.9 419.2 398.8
267.9 260.9 249.5 235 220.4 201.9 198.1 198.3 215.8 239.7 253.6 261.3 266.4 268.7 271.5 276 280.6 286.6 293.4 299.5 307.7 314.2 316.8 316.3 312.4 306.4 298.4 290.9 273 275.1 279.6 273.5 257.2 240.4 229 229.6 237.4 260.3 268.3 279.3 286.5 290.1 289.8 291.6 289.9 287.8 286.6 283.7 286.8 294.8 305.2 325.9 346.8 363.5 375.4 382.2 384.1 389.1 398.1 405.4 410.2 414.8 417 415.9 410.9 407.8 405.2 402 397.3 388.5 374.1 349.4 346.8 365.4 376.6 386.2 395.3 403 405.8 402.1 395 386.5 385.9 392.1 402.5 417.6 430.3 437.4 437.2 429.4 416.7 396.4 376 361.4 361.4 357.5 352.9 346.6 338.5 329.5 318.9 306.2 306.6 307.3 320.6 337.1 356.2 370 383.7 395.8 406.6 417.5 426.3 432.8 439 445.6 452.1 457.9 461.8 463.4 464.6 463.4 457.9 447.2 428 408 414.5 432.7 449.8 464 473.1 476.4 477 472.3 462.9 446.6 428.6 418.7 417.7 415.8 413.3 410.6 408.1 403.9 401.4 409 419.8 431.1 441.1 445.8 434.2 446.5 462 472.3 481 490 497.2 495.4 485.8 477.2 471.1 460.5 453.4 446 436 424.9 417.9 414.9 412.1 404 396.1 402.1 407.4 411.5 414.7 416.5 417.9 414 409.9 404.5 400.8 401.8 405.8 408.5 411.4 415.5 420.2 425.3 429.4 435.6 441.4 447.5 450.4 451.2 450.8 449.9 446.9 438 421.7 400.8
267.9 260.5 247.9 230.9 212.4 199.5 197.3 201.6 227.2 245.7 256.7 263.8 268.7 272.2 276.6 280.7 286.6 293.1 300.2 308.8 318.7 324.5 327 324.1 318.3 311.1 302.3 292.5 285.1 288.7 288.7 286 278.9 261.9 246 233.5 233 242.6 256.1 262.9 266.2 267.7 269.4 268.6 265.2 261 259.8 266.8 266.4 271.3 275 299.6 320.9 336.6 357 366 366.9 381.7 390.8 398.2 405.8 413.1 418.5 419.1 417.7 414.5 412.5 409.5 403.4 394.6 381.1 350.3 352.7 370.6 382.8 394.3 403.9 411.6 414.6 410.3 403.7 390.1 396.3 400.5 411.4 425 438.5 445.4 444.5 435.6 421.2 400.1 385.2 377.8 373.7 365.7 357.8 349.1 338.5 328.5 316.6 310.4 314 308.9 309.2 326.4 345.4 364 377 388.7 405.6 417.7 426.3 432.6 438.4 442.7 446.7 449.9 452.8 457.8 464.4 467.8 464.9 457.8 442.7 426.4 415 420.1 436.3 454.5 464.5 468.8 468.7 464.7 451.7 440.6 434.2 429.6 426.3 425.4 423 420.7 418.2 410.5 405.1 404.5 417.7 432.1 445.2 453.6 457.4 455.1 460 469.8 477.7 485.8 493.8 491.9 485.4 475.8 468.1 459.5 452.9 447.6 437.7 429.9 420.7 415.9 412.2 404.4 398.7 407.4 409.2 415.2 418.5 418.4 418.5 414.8 412.1 406.3 402.4 405.4 408.4 410.6 413.7 416.5 420.6 425.4 431.8 437.5 442.6 447.8 452 453.5 453.1 452.4 449.7 440.2 422.6 401.2
266 258.1 241.5 223.8 203 198 197 213.6 234.5 247.3 256.9 264.7 270.2 275.8 279.3 284.8 290.6 299.3 308.2 318.4 328.1 333.4 333 328.9 322.1 314.3 304.8 297.2 296.7 295.3 293.6 291.4 286.5 279.7 254 233.9 237.4 238 238.9 244.1 243.2 246.1 251.4 264.6 272.8 280.2 287.3 292.9 297.3 300.8 290.4 275.1 283.7 311.9 338.1 345.2 361.1 371.9 379.5 392.8 401.6 409.9 418.1 420.8 420.7 419.8 418.7 416.1 410.8 403.1 391.7 367.9 353.4 373.2 387.5 400.9 411.8 419.8 422.9 418.8 411.2 404.3 406.9 410.6 420.4 433.8 446.7 452.7 451.5 440.2 428 415.2 400.6 389.2 381.8 371.4 360.6 349.3 336.8 326.1 315.1 318.5 318.6 314.1 308.1 309.4 329 347.1 362.1 381.1 398.6 411.1 420 425.1 427.6 429.1 432.2 436.5 441.5 447 455.4 462.4 464.1 460.7 452.6 440.7 428.1 424.1 428.9 441.8 455.4 466 469.8 466.7 460.6 454.2 447.4 442.8 440 438.7 439.1 437.6 430.2 419.8 410.4 404.7 416.1 431.7 446.6 457 465.6 468.2 461 467 475.7 482.7 489.2 487.9 484.2 474.3 468 460.7 453.6 446.6 440.7 434.3 424.1 416.6 412.1 404 405.2 408.7 414.1 417.8 420 421.7 420.5 416.1 412.9 408.4 405.3 408.5 410.8 412.2 415.3 418 421.5 426.3 432.2 438.1 443.3 448.9 453.8 456 454.9 454.2 450.9 440.3 420.7 402.1
264.9 253.2 235.9 216.9 198.8 197.2 196.1 201.4 222.1 236.9 253.7 264.6 271.3 277.3 282.8 286.8 292.5 302.8 313.3 324.2 332.4 337.8 336.3 331.3 324.2 315.4 307.9 308.5 306.8 303.6 298.9 294.5 289.4 273.5 241.1 247 253.5 258.9 261.7 264.5 264.2 274.2 282.3 291.9 302 309.5 316.5 321.1 324.6 321.5 314.3 294.9 285.6 299.2 323.1 338.9 347.9 351.1 371.8 385.1 397.5 405.6 413 417.1 419.1 419.8 418.9 416.7 413.2 407 393.2 372.1 355.4 373.8 392.4 408 418.4 425.2 427.4 424.6 414.8 414.2 417.8 422.8 431.3 444.1 455.5 460 458.6 446.6 435.2 423.2 410.3 395.4 384.3 373.7 359.7 347.6 336.8 323.4 321.6 324 322.7 319.4 317.3 310 311.7 329 346.8 369.1 386.6 398.9 405.3 409.9 412.8 413.4 417.7 421.8 425.9 432 439 446 451.7 455 454.7 449.8 444.3 434.5 436.2 445.2 462.2 471.5 477.5 478.8 478.7 474 466.7 460.1 460.4 459.4 457.8 454.8 443.3 428.6 414.6 408 407.9 424.6 441.9 453.3 461.4 462.7 466.7 469.9 474 479.5 483.8 484.6 481.2 473.8 467.1 461.8 454 447.6 439.8 433.2 426.2 417.2 411.7 399.3 408 414.9 414 419.7 421.8 424.5 421.4 418.1 413.6 409.8 408.6 407.7 412 415 418 421 423.8 427.4 433.4 440 445.4 450.8 455.2 457.6 456.9 454.5 448.4 436.5 418.9 400.6
264.2 251.6 233.4 209.8 196.6 196.4 197.4 227.5 232.9 221.2 233.6 254.4 270.2 279.3 286.1 289.3 296.9 307.4 319.9 328.8 335.5 339.8 338.8 334.4 327.4 319.8 317.2 319.1 318.1 312.4 304.1 298.3 292.9 275.6 240.4 257.3 259.9 261.9 265.7 273.4 284.1 294.6 304.3 312.9 322.6 334.4 343.8 348.4 345.7 342 327.8 308.3 295.5 297 312.6 325.2 330.3 348.6 366 379.8 390.3 398.5 404.6 408.7 411.3 411.3 411.5 410 406 400.8 389 365.2 357.7 379.9 399.7 412.9 422.5 427.5 428.8 427.7 422.2 424.7 428.2 432.8 441.8 452.4 462.2 465.5 462.3 451.9 441 429.4 415.7 400.7 386 373.1 359.8 347.2 335.1 323.8 327 328.1 326.8 324.4 320.9 314.4 310.3 313 331.5 349 364.6 376.2 383.1 390.2 393.3 396.8 399.7 402.4 405.8 412.4 419.8 428.3 436 443.6 449.2 452.8 454.1 452.9 449.2 456.8 472.2 483.8 490.8 494.5 496.7 495.5 489.7 485.2 484 482.9 476.9 467.3 455.1 434.8 417.9 408.4 414.5 412.2 421.7 437.6 448.5 455.3 464.5 472.5 479.6 484.3 485.5 484.5 479.6 472.8 465.9 460.1 452.5 448 439.4 433.1 425.9 420.2 407 400.5 413.6 418.9 421.2 418.9 425.3 425.4 424 419.7 415.7 413.3 412 408.9 411.3 416.9 419.9 423 427 431.6 436.2 442 447.7 452.2 455.7 457.7 457.3 453.2 443.4 432.7 415 396.6
262 250.1 231.8 209.8 196.2 194.1 214.4 230.7 244.2 252.8 251 243.6 250.6 275.5 285.5 291.6 302.2 313.1 323.2 330 337.7 342.7 342.1 338.2 332.2 327.7 327.6 329.4 328.6 323.4 313.3 304.8 296.1 269.7 236.1 261.5 263.8 264.8 272.3 291.4 309.1 320 327.8 335.1 345 357.9 363.5 364.1 360.8 352.5 339.2 319.7 305.3 289.1 301.6 316.1 333.5 349.7 365.1 378 386.6 392.7 396.8 399.8 400.2 400.2 398 396.9 394.3 390.8 374.7 355.8 366.6 388 405.8 414.8 421.5 425.5 428.2 428.3 427.8 431.3 436.6 443.4 451.5 458.8 465.8 468.6 464.6 455.6 444.7 435.1 419.4 404.2 388.4 372.7 358.7 346.8 334.2 329.9 331 332.1 332.4 329.3 321.5 318.7 313.2 313.1 317.5 331.4 342.2 350.2 354.7 365 370.7 375.2 378.1 380.1 382.4 387.7 395.2 404 412.1 424.4 441.9 453.2 461.8 467.2 467.3 473.3 487.1 498.4 505.4 510.5 513.7 514 511.3 507 503.1 497.6 490.2 479.2 459.1 437.1 419.5 415.8 419.6 423.2 421.2 422.5 433.8 448.2 461.4 473.5 485 491 489.8 485.1 479.3 473.2 467.3 457.3 452.4 447.4 440.2 433.1 425.2 420.6 406 407.4 417.8 421.8 423.6 423.1 426.3 426 425.5 422.5 420.8 417 417.2 415.8 416.6 417.5 422 425.5 430 435.2 439.8 445.3 449.4 453.6 455.9 456.9 454.9 449.4 440.9 428.6 410.4 394.1
258.3 243.8 226.3 206.8 193.7 212.3 222.8 236.1 252.2 260.6 264.9 269.5 271.1 267.3 282.9 293.9 304.5 315.7 324.5 332.3 341.4 346.1 346 343.1 338.6 337.1 339.1 341.7 339.9 334.6 325.9 315.5 305.4 279.7 243.6 263.3 266.1 270.2 281.4 307.9 324.5 335.6 345.5 354.3 362.1 369.2 372.3 373 370.1 361.5 347.3 329.2 316.4 299.4 306 321.5 331.9 349.2 364.9 375.4 381.4 385.6 389.3 391.6 390 387.4 384.8 383.7 382.4 379.9 363.7 360.9 375.2 391.7 403.4 411.6 417.7 422.3 424.2 425.6 429.2 433.6 439.9 447 454.7 460.7 466.2 468.9 465.6 457.9 447.9 437.1 423.9 407 390.6 373.6 359.9 348.6 336.8 336.2 336.5 338.8 337.3 334.7 325.4 322.4 319.3 312.9 315.5 319.2 321.5 326.3 331.2 339.3 346.3 351.5 355.8 358.4 360.3 364.5 372.6 380 390.8 402 425.8 454.6 470 480.7 488.1 496.5 504.1 512.5 520.5 524.5 525.6 525.1 521.5 516.9 512.1 507.7 499.1 484.1 460.6 438.1 418.7 419.6 428.9 436.8 434.4 429.1 433.7 446.8 461.4 477.1 489.4 496.5 493.1 485.9 479.9 473.5 462.5 454.3 449.7 444.5 438.1 433.5 426.3 420.2 405.7 412.6 418.3 422.5 425.8 427 432.3 431.2 428.4 425.6 422.5 421.7 420.9 422.5 418.4 416.4 422.1 426.5 434.1 439.8 444.4 448.5 452 455.8 456.5 456 451.7 446.2 437.8 421.8 405.1 392.4
251.7 234.9 216.9 202.8 192.4 208.5 223.7 241.8 257.4 264.5 270.6 278.3 283 286.8 287.3 298.7 310 318.9 327.1 335.5 345.7 350.9 352.6 350.9 348.4 348.9 351.2 353.1 350.4 345.4 336.3 326.3 312.7 289.6 256.4 260.8 268.3 276.1 290.8 315.1 330.5 340.3 350 360.1 369.4 375.7 379.7 380.6 377.2 367.6 352.2 334.5 323.6 311.1 295.4 324.2 336.1 344.1 358.6 369.8 376.1 378.8 380.7 381.5 377.5 374.4 372.6 370.6 369.1 363.2 355.5 359.8 375.4 387.7 397.1 404.8 410.1 414 416.1 420.3 425.6 431.2 437.4 445.1 452.6 459.3 464.6 467.8 467 460.1 450.5 440 429.3 411 394.7 378.3 365.2 351.2 341.1 343.8 344.4 345.9 345.2 340.5 334.3 326.4 320.3 314.3 314.9 317.9 323.9 331.7 336.7 339.4 339.4 344.4 350.8 360.9 366.7 376.3 386.9 398.4 414.2 431.1 444.9 465.2 481.9 491.6 502.7 512.2 521.2 530 535.2 536.6 535.2 533.1 529.5 524.4 519.4 512.1 500.9 485.3 461.8 440.4 423.2 423.2 442.6 447.8 447.6 440.8 440.9 450.8 465.7 480.6 491.1 498.7 495.7 487 479.1 470.9 460.7 450.4 446.7 440.1 435.1 431.9 425.9 419.4 407.9 413.1 419.6 425.3 428 431.2 434.8 435.2 430.7 430 426.3 425.4 425.4 425.2 422.4 419.8 421.5 428.4 436.8 444.4 449.1 450.8 454 459.4 459.4 455.7 451.2 444.9 432.6 416.1 403.7 392.2
241 223.6 210.9 198.5 192.2 199 224.2 246.1 258.3 266.9 276.3 285.9 294.8 296.3 291.9 305.1 313.8 321.9 330.1 339.6 350.5 356.6 359.2 359.3 359.2 361.6 363.3 363.2 360.9 355 345.6 332.4 318.6 295.7 264.7 258.4 272.4 278 289.2 312 328.5 339.3 351.1 360.8 370.9 378.9 384.1 386.5 383.6 373.2 356.6 342 328.3 318.7 303.7 317.8 334.2 342 350.6 361.6 369.2 370.2 370.7 367.2 363.6 359.7 355.7 349.6 349.7 349.1 352.6 357.9 366.4 379.6 389.2 395.7 400.4 403.9 405.4 411.7 417.2 425.1 432.7 441.4 448.7 455.7 460.8 465.1 465.6 461.5 455 445.5 433.8 419.4 401.9 386.3 371.7 352 350.1 354.2 354.4 356.3 354.7 348.5 340.7 329.5 323 315.7 314.6 319.6 320.2 332.6 341.2 348.3 354.2 366.2 374.6 382.9 391.5 401.9 415.9 428.9 439.1 451.2 463.6 478.1 489.7 502.2 514.1 523.9 533.6 539.9 543.7 543.3 541.1 538 532.5 525.8 518.3 510.9 499.8 484 462.6 441.2 437.2 436.4 454.5 459.2 460.3 457.9 451.1 459 472.2 484.4 496 501.9 498.1 488.5 478.3 467.8 456.5 448.8 441.1 437.3 432.9 429.5 423.9 418.9 407.7 417.6 424.1 428.8 432.6 437 439.1 437.7 435.9 433.3 429.7 429.2 428.9 428.3 427.4 426.7 422.4 433 439.9 446.5 451.2 453.9 458.3 462.9 462.3 457.5 452.5 445.6 431.6 415.1 403.3 395.3
227.5 213.7 203 196.5 192 201.1 227.4 249.2 261.2 272.2 282.7 295.9 303.3 305.8 305 304.2 316.3 324.3 332.5 343.3 354.5 361.3 364.5 368.2 371.4 373.8 374.4 373.2 369.9 364 353.3 338.6 320.4 297 267.7 255 272 281 295.7 314.8 328.1 339.6 349.3 361.8 372 380.4 386.6 389.6 387.7 377.6 362.7 346.7 332.5 325 309 314.7 334 343.5 348.4 354.1 360.3 362 359.5 354.7 348.9 344.5 343 349.5 353.6 356.7 361.9 366.5 361.8 368.9 377.9 383.9 388.9 392.6 401.8 406.7 406.2 417.9 428.2 436.9 443.8 449.5 454.7 460.2 464.3 462.6 456.5 448.8 438.8 427 409.1 391.4 370.4 350.8 364.4 367 367.2 367.8 364.6 355.6 345.7 333.8 325.5 322.5 315.5 319.6 325.7 333.6 339.5 350.5 357.8 368.5 381.6 391.2 401.1 413.8 429.6 441.2 451.2 461.4 472.5 483.9 497.2 509.9 520.8 529.1 535.8 539 541.8 542.1 540.5 533.9 525.7 518.9 512.5 505.2 494.5 476.2 453.7 446.2 451.7 443.7 464.5 470.6 472.4 470.9 471.5 473 479.1 489.9 503.3 507.6 500.7 489 477.3 464.7 454.1 446.3 440 435.3 431.2 426.5 419.5 414.3 413.3 424.5 425.8 429.7 435.9 440.5 443.2 445.7 441 436.7 433.2 433.9 433.1 432 431.5 432 425.7 435.6 442.1 448.7 454.3 457.1 462.5 466.1 464 459.8 454.8 447.4 431.1 415.6 404.6 394
213.1 207.1 196.8 195.9 194 212.2 237.3 253.2 265.9 280.7 293.3 305.5 311.2 314.6 313.2 310.9 317.9 327 335.5 346.8 357.1 365.4 370.1 375.5 380.2 383 384.1 382.3 376.8 369.5 359.1 342.8 320.3 298.2 277.2 249 271 280.3 296.6 313.8 327.6 339.9 350 362.5 372.7 380.3 387.1 391.2 390.5 382.9 370.4 354 339.5 331.9 320.8 307.6 327.2 336.5 344.1 349 351.8 350.8 345.8 341.6 335.3 342.9 349.1 355.3 363 369.4 372.1 375.3 375.7 369.6 378.9 382.5 391.8 402.3 410 412.4 420.6 422 420.1 429.8 437.2 444.9 452.2 458.3 462.6 462.5 458.7 452.4 443.7 433.6 414.3 391.9 370.6 369.5 378.5 380.8 381.2 379.6 374.2 363.7 351.9 340.4 330 324.3 317.9 316.4 324.3 335.2 339.9 349.5 361.9 375.5 384.6 393.3 403.9 417.5 430.3 441.7 452.6 463.6 474.7 485.7 497 507.7 517.1 524.4 529.1 530.9 532.5 531.4 527.5 521.1 515.1 510.6 506.7 499.8 482.3 465.8 465.8 468.8 462.1 454.8 475.7 479.9 482.1 482.6 484 484.6 487.9 499 509.2 511 503.9 488.7 474 461.8 451 443.7 439 435.3 430.4 421 414 411.9 418.9 422.5 426.9 432.9 439.3 444.4 447.2 448.2 445 439.5 437.6 437.7 437.5 436.3 437.4 438.9 437.6 434.3 443.7 452.5 457.5 462.6 467.7 468.5 465.1 460.8 456.1 448.2 433.6 418.4 404.3 394.2
197.5 196.1 195.8 192.8 206.1 227 246.9 259.8 274.6 290 304.3 313.4 319.9 321.7 319.6 318.7 317.6 328.1 336.9 347.4 357.8 368 376.1 383.1 387.9 391 391.3 388 381.7 372.5 361.9 347 324.1 312.3 295 265.8 260.3 279.7 290.6 305 321.6 335 347.6 358.5 369.4 378.9 386.5 392.5 393.8 389.2 378 361.2 347.4 338.2 333.7 319.3 308.6 326.2 331.7 336.6 336.5 336.9 332 336.8 344.2 350.4 357.6 367.7 374.4 378.7 386 386.4 387.2 382.3 384.8 391.5 406 416 418.5 428.4 431.6 428.3 431.9 430.7 434.5 440.5 449.9 456.2 460.7 461.8 460 455 448 436.7 412 386.7 378.8 384.8 391.3 395.8 395.6 391.6 383.8 372.7 358.7 345.7 331.9 327.4 320 319 318 329.7 337.4 348.5 364.2 378.8 391.1 399.8 407.5 416.9 427.7 437.4 446.5 456.8 468.3 479 488.2 496 503.4 510.7 514.7 516.5 517.5 516.3 513 507.2 504.6 503.8 504.1 501.9 496.1 492 484.6 481 470.5 464.3 483.9 487.1 491 493.8 494.3 495 498.2 511.6 513.7 512.2 503.1 489.3 474.5 459 448.2 442.4 437.8 432.6 424.1 424.7 420.4 413 421.5 426.1 429.1 433 439.1 444.8 449.8 450.9 448.5 445.8 442.7 441.3 441.9 442.2 445.2 448.4 444.4 435.5 445.9 455.3 462.3 468.5 470.8 470.8 466.3 461.3 456.1 448.6 432.6 421 407.5 395.2
194.4 195 190.9 210.3 226.4 240.3 255.4 267.7 283.2 299.4 311.6 321.2 327.4 329.8 328.5 326 325.2 329.6 338.7 345.9 356.2 366.2 378.6 387.9 392.9 396.7 396.6 393.4 387.3 378.2 367 352.8 333.5 322.6 307.4 285.5 264.3 268.2 285.7 300.7 316.8 328.4 341.6 354.8 365.8 376.2 384.6 391.5 396.2 392.5 383.7 370.3 358.7 346.8 340.6 332.9 323.1 317 324.5 321.9 323.1 331.2 338.5 343.6 353.3 359.9 370.4 377.4 382.2 391.4 398.2 399.5 400.5 397.8 389.6 399.3 413.9 422.3 426.8 434.7 438.7 436.5 441.8 442.9 444.3 448.6 452.7 457.2 461 463.2 462.3 458.5 452.5 432 405.2 384.8 395.8 402.1 406.5 411.6 410.4 403.6 393.1 379.7 364.1 351.3 336.4 327.8 322.1 322.7 319.7 323.5 331.9 343.7 357.5 373 385.8 396.3 403.7 412.2 421.3 429.8 436.5 445.3 455.4 464.8 473 480.2 488.4 494.7 498.3 499.8 499.7 498.9 496.4 493 492.9 500.7 506.1 506.7 502.8 497.9 492.1 486.1 473.4 474 487.4 491.1 495.9 502.2 504.2 507.4 515.9 521.5 517.8 510.3 500.3 486.6 473.8 457.1 449.2 443 438.7 430.1 427.1 426.8 419.9 419.3 425.7 428.7 433.8 437.3 440.9 445.1 448.4 453.4 452.4 453.6 449.8 445.8 447.4 448.9 452.9 454.5 452 442.8 445.6 458.5 466.9 471.6 473.5 471.9 466.3 461.4 455.8 448.6 436 421.1 408.2 395.9
189.7 198.9 214.4 226.7 240.4 255.2 263.3 277.1 292.4 305.7 318.3 329.5 336.1 339 339.3 336.6 334.4 336.1 343.2 350.5 360.5 373.8 382.4 390.5 396.2 400.2 401.7 399.3 393.4 385 375.2 361.1 340.8 327.2 312.1 298.6 282.3 252.6 269.3 283.7 295 308.5 329.4 347.2 358.9 369.9 379.5 389.3 395 393.8 388.5 379.3 368.4 353.2 346.4 339.9 334 326.7 327.7 331.3 338.5 342.7 350.3 358.8 363 371.4 380.3 384.5 393 405.3 411.2 412.9 413.8 410.5 399.8 403.4 416.6 426.3 431.9 435.3 442.9 445 450 453.9 456.6 459.2 462.3 464.8 466.1 465.7 464.6 460.8 452.3 428.2 404.6 406.6 418.3 421.4 425.1 429.6 425.3 415.9 402.5 385.6 370.1 354.6 337.7 329.6 325.8 326.4 322.3 321.3 323.8 333.1 348.5 363.6 374.9 384.7 393.4 401.6 409.9 419.4 425.4 432.3 441.9 448.9 455.9 463.2 471.4 477.3 481 482.5 482.3 480.4 476.6 471.9 481.6 499.2 506.5 507.3 503.4 497.3 491.6 486.3 479 479.4 484.9 489 496.8 505.8 511.6 517.4 529.2 528.9 518.8 507.6 496.9 485.2 468 460.8 450.2 444.1 437.8 433.3 430.5 426.2 424.3 423.3 430.9 433.5 436.4 440.4 445.2 448 450.1 456.5 457.7 459.4 461.5 455.5 451.6 454.8 457.2 457.9 456 448 447.3 461.5 468.9 472.8 473.5 470.9 465.2 460.5 455 447.8 435.6 422.5 410.4 396.3
202.5 211.4 228 240.5 254.2 262.8 271.4 283.2 298.9 311.8 325 336.2 343.8 347.6 350.1 346.9 343.4 343.8 344.4 356.1 363.4 374.2 384.5 393.9 401.6 406.4 407.8 405 399.1 392.4 382.7 367.7 347.3 331.8 315.8 301.2 281.8 258.5 254.7 266.7 279.5 298.3 317.8 334 349.2 362.7 374.6 384 390.7 393.6 391.8 387.4 377.1 358.7 351.3 345.5 338.1 338.5 339.4 340.1 348.9 353.3 365.3 370.4 377.2 379.5 390.7 399.6 410.3 419.1 423.3 425.9 425.7 421.9 414.2 406 421 429.4 436.9 438.8 446.7 451.2 456.6 461.8 464.4 468.2 470.9 472 471.8 470.4 468.6 464 451.8 421.8 423.9 432.1 437.2 443.7 447.7 443.1 434.7 422.2 407.6 389.3 372.1 353.8 337.4 327.7 330.5 329.9 327.8 323.7 321 323.8 334.6 347.8 361.4 370.7 379.3 386.2 394.2 402.6 408.1 416.6 424.7 432.3 436.6 444 451.7 457.8 461.7 463.4 463 460.4 453.1 456.8 482.3 495.1 500.3 500.4 496.9 491.8 485.2 480.5 476.4 473.3 471.9 485.5 496.2 507.4 517.9 529.5 535.9 529.7 517.4 506 495.6 485.1 474.5 462.4 452.8 444.7 437.4 436.9 431.6 425.7 427.3 430.6 434.1 436.9 442 445.7 451.6 453.5 454.9 460.1 459.9 464 469.2 469.5 461.3 459 457.7 459.7 458.8 448.6 450 461.8 467.7 470.6 471 468.1 463.3 459.1 454.1 447 435.2 423.8 412.1 396.7
215.3 229 240 250.9 261 269 277.8 286.9 303.7 316.8 330.3 342.8 351.7 358.4 360.5 357.4 354.3 354.1 354.2 362.1 367.8 377.3 388.3 398.5 406.8 411.2 412 409.2 404.6 397.1 385.7 370.5 352.4 336.2 315.9 299.4 274.7 282 273.1 260.2 267.1 281.4 299.9 320.3 337.2 351.8 363.6 374.5 382.8 386.7 390 389.2 381.1 362.9 358.1 351.2 343.8 345 353.4 354.3 359.5 364.9 375.2 383.8 387.8 390.9 399.8 412.4 422.7 430.7 434.5 436.1 434.8 431.4 422.3 416.8 430.8 435.8 440.7 444 452.8 456.8 461.7 467.9 472.1 475.4 477.9 478.3 476.8 475.3 472.8 467.8 448.1 442.9 446.9 453.5 461.8 466.3 463.1 456.5 442.2 426.7 408.5 388.1 367.3 348.2 333.5 333.6 332.6 333.8 331.4 329.9 330.2 325.8 324.6 331.1 341.3 352.2 361.8 370.5 379.6 385.4 392.4 400.4 406.8 413.1 419.1 426.9 433.9 440.2 442.7 442.8 442.1 438.8 441.3 463.9 480.8 488.3 491 488.8 485.5 479.4 471.7 465.7 458.9 454 465.8 484.5 499.2 512.8 525.3 539 539.5 527.4 515.7 505.2 495.1 484.8 475.3 466.6 457.1 442.5 440.5 436.7 431.9 426.2 431.5 434.3 436.7 439.8 445.1 450.5 457.7 463.7 465.6 468 467 467.1 474.5 475.8 474.4 458.9 458.3 459 457.6 445.6 450.3 458.7 463.5 466.3 467.8 464.7 460.9 457 452.1 445.4 435 424.6 411.8 396.3
234.5 238.3 248.5 257.4 266.4 274.8 281 294.2 310.3 324.8 339.3 352.5 362.5 369 369.6 367.9 365.4 365.3 366.1 369 374.1 382.2 393.6 403.6 412.1 416.2 416.4 413 407.1 398.8 387.3 372.3 351 331.9 312.4 298.8 298.9 296.7 291.2 278 268.7 264.6 282.1 300.7 318.5 333.5 348.5 361 371.8 377.4 381.7 382.5 377.7 361.6 362.8 356.5 351 352.8 361.9 367 373.5 377.8 386 394.2 397.8 405 402.8 421.6 431.7 438.5 442.2 442.5 441.1 437.3 429.8 429.9 437.3 441.3 446.1 449.9 457.7 463.4 468.4 473.6 477.6 481.4 483.4 482.9 481.2 479.8 476.4 465.9 455.5 465 470.9 476.3 480.2 480 473.6 463.5 446.2 426.6 405.7 381.8 360.1 341.7 335.6 340.1 339.5 338.3 336.8 334.1 335.7 333.2 328.5 325.6 331.4 338.5 345.9 356.2 363.6 369 375.4 382.7 390.8 395.7 402.2 408.4 415.2 419.9 423.3 424.3 420.5 428.7 449.5 468.8 476.4 478.5 477.4 474.4 468.9 461.2 452.3 443.4 434.9 453.9 469 486.2 503.2 520.3 538.5 547.2 538.5 525.6 514.5 505.1 494.7 485.1 475.9 467.2 456.9 445.4 443.1 438.2 430.6 430.8 436 437.3 439.9 444.3 446.6 454.4 460.3 468.7 476.3 477.1 477.5 477.7 474.3 478.5 477.1 468.4 461 457.9 454.9 447.6 447.2 453.7 457.5 460.3 462.8 460.6 457.6 453.5 448.5 441.3 432.6 422.4 407.2 388.7
241.5 248.5 255.4 264 271.5 278.1 289 302.7 316.2 330.2 347.3 359.8 373.7 377.4 378.8 377.5 377.2 378.2 379.4 380.3 381.6 391.6 400.5 410.2 416.6 420.4 419.5 414.9 407.8 399.4 388 368 339.9 330.5 323.9 312.4 310.6 308 304.3 297.6 287.5 273.7 263.5 280.2 293.9 309 323.2 336.7 348.2 355 356.3 367.1 367.8 367.4 368.7 360.4 358.9 363.5 370.1 374.3 381.1 387.7 394.6 403.1 408.9 416.3 419.4 425.5 437.7 442.8 446.1 447.1 445 441.1 438.6 439 444 446.4 450.5 455.2 462.1 467.2 473.1 477.1 481.8 486.4 487.4 486.5 484.5 482.3 477 476.9 476.7 481.2 484.2 488.6 491.3 489 480.8 466.7 445.9 422.6 398.6 375.2 355.4 341.1 343.5 347.6 345.3 342.6 340.5 338.1 335.8 336 335 331.8 327.5 328.7 334.6 341.8 350.6 355.4 361 368.6 375.8 377.4 385.2 390.9 398 402.5 404.6 405.6 425 441 457.8 465.8 466.5 464.5 461.1 456.1 450.1 440.1 430.1 426.7 443.2 461 475.8 492.8 511.9 533.3 548.5 548.4 535.9 524.7 514.2 504.2 494.1 484.8 476.5 467.6 458.1 451.3 445.1 438.6 431.1 435 439.6 442.5 444 447.5 454.7 457.7 464.6 477.4 483.2 487 486.9 486 475.8 477.5 477.9 471.9 461.6 457.3 452.9 450.5 442.5 443.6 448 452.2 454.3 453.1 451 447.1 442.3 433.1 424.6 413.1 395.2 389.4
249.5 254.7 263.1 269.2 276.2 284.4 294.8 310.8 325.9 339.8 353.6 370.2 379.8 385 388 389.4 390.1 390.9 392.5 393.2 394.9 400.6 407.5 415.3 421 423.9 421.5 416.6 409.2 400.6 387.8 370.5 358.4 345.6 334.2 321.8 325.2 320.5 319.5 313.7 306.5 293.5 274.9 263.1 264.8 282.3 294.5 309.1 319.6 325.6 333.2 350.7 364.9 372.2 372.9 369.5 364.7 369.5 377.2 383 389 396.6 403.8 408.9 416.8 422.3 426 429 437.7 443.6 446.7 448.3 447.8 444.8 444.4 444.4 447.4 450.1 453.6 457.1 464.5 470 474.8 478.7 482.2 485.2 486 485.2 484.2 482.9 482.2 484.1 488.8 492.7 496.7 499.9 501.5 496.8 484.9 465.8 441.1 417.4 393.4 371.2 351.4 341 348.1 354 353.6 351.2 346.8 343.5 340.6 339.6 339.1 336.4 333.1 328 330 335.3 339.6 344.5 349 349.7 352.8 365.9 372.8 380.3 384.7 394 410.6 421.6 436.4 447.7 453.1 454.2 451.8 448.2 443.2 437.2 429.9 416.8 423.7 441.8 455.4 470.2 486.5 503.3 525.4 541.9 549.9 546.1 533.5 524 513.8 503.9 493.5 483.1 475.1 467.6 456.7 453.3 447.3 440.2 436.5 438.5 444.5 448.4 449.9 451.4 456.9 463.4 475 485.7 490.2 493 491.8 490.2 479.6 477 476.1 469.5 461.4 456.3 449.5 445.9 436 430.5 432.1 436.7 440.8 440.6 439.6 436.3 429.2 418.6 406.9 397.9 391.5 392.4
255.2 261.9 267.7 272.4 279.9 290.4 303.8 318.9 336.8 354.4 367.9 378.2 387.1 392.1 397.8 399.7 400.7 403 403.6 402.8 402.9 406.3 412.7 418.1 422 424.5 423.2 418 409.8 400.7 391.4 379.5 365.4 357.9 345.5 339.4 337.1 338.5 335.8 329.3 317.2 309.6 297.5 283.7 268.6 270.9 266.1 281.6 293.2 304.7 321.6 334.7 351.4 366 372.2 371.4 372.2 376.5 385.3 391.1 394.7 401.5 409.3 414.2 420.3 424.6 428.2 432 434.4 439.3 442.6 444.5 444.9 444.1 444.5 446.9 449.3 451.9 454.7 457.9 464.6 469.9 472.5 475.1 476.9 478.7 478.3 477.5 478.9 480.1 483.4 489.6 496.5 501.8 506.3 508 506.3 500.1 486.7 463.6 438.3 413.4 389.2 367.6 350.3 350 358.2 363.3 363.7 360.5 358.4 353.7 348.4 345.7 343.5 341 336.5 334.6 328.8 331.3 333.8 336.7 338.7 349 360.6 371.8 383.2 393.3 405.3 418.1 429.8 434.1 438.2 439.1 440 437.8 436 430.8 424.4 417.4 409.7 419.5 435.5 450.1 464.7 477.3 495 515.7 530.8 541.3 545.9 540.1 531.3 522.9 513.2 502.5 492.4 482.1 474.8 466.6 460.1 455.3 448.3 438.4 442.3 446.3 452.9 457.5 458.5 459.9 463.4 474.7 486.6 493.5 497 497.8 496.2 492.4 481.9 475.2 470.8 464.8 459.6 454.5 446.5 438.6 427.3 419 416.5 414 417.9 419.5 418.9 416.3 408 401 394.8 394.6 393.8 405.3
260.7 265.9 271.9 276.1 286.4 299.7 312.7 327.3 344.6 357.6 374.1 385.3 392.2 399.9 403.9 407.3 408.9 409.5 410 408.2 407 409.3 413.6 418.5 421.8 423.6 422.8 418.7 410.2 404 397.8 385.4 380.7 371 356.4 358.8 355.5 354.6 347.7 340.4 329.1 317.9 308.6 297.6 277.9 289.9 287 271.9 271.9 277.2 297.8 312.7 331.7 351 363.3 369.3 377.6 385.1 391.1 395.4 400.2 405.5 412.5 416.7 421 424.9 426.8 428.6 430 432.4 435.8 438 438.8 440.5 441.8 444.7 447.9 450.9 453.4 456.8 461.6 465.7 466.9 467 466.1 466.3 464.6 467.3 470.1 475.6 483 491.4 499.9 507.1 511.7 513.7 510.6 503.4 489.3 463.9 438.7 413.9 387.7 365.6 347.9 357 365.7 372.1 373.2 371.9 370.7 367.5 359.8 352.2 348.6 346.5 342.1 335.4 335.2 333 332.5 332.7 337.4 341.2 350.9 363.6 375.6 386.4 402.2 415.6 422.8 424.5 425 424.4 422.2 420.6 418.1 411.3 404 398.8 414.1 431 442.9 458.3 471.8 488.1 507.7 522.5 531.7 538.2 538.7 534.6 528.5 520.7 511.7 501.3 491.4 482.6 476.8 469.5 462.7 456.1 449.3 447.6 446.5 452.6 459.7 465.1 467.9 471.6 470 484.3 493.8 498.7 501 502.2 499.6 492.9 482.7 473.7 466.7 459.9 455.7 447.7 437.2 426.9 419.3 419.4 418.7 411.5 408.2 402.9 400.4 399.1 397.6 395.2 397.4 404 413.5 416.9
264.7 271.7 278 282 292.5 307.6 321.9 337.8 348.8 365.4 381.4 391.6 397.9 403.6 408.4 410.9 411.5 411.4 409.6 407.1 407.6 409.6 413.3 417 420 421.4 421 416.9 412.3 407.9 402.4 396.6 390.3 381.2 375.3 374.5 372.7 366.7 360.2 350.9 339.7 324.2 313.9 293.1 292.3 302.1 303.4 296.2 279.2 272.4 272.4 290 309.9 333.3 349.5 364.3 374.7 387.2 390.6 394.9 401.6 406.5 411.7 416.6 419.8 422 422.5 423.2 422.6 425.4 427.1 430.2 433.4 434.8 437.1 440.1 443.9 446.7 448.5 451.5 454.6 456.8 457.9 455.8 453 447.9 446.1 447.9 452.3 467.7 477.2 486.5 497.4 505 510.4 514.5 513.2 505.4 490.6 465 439.1 413.4 391.5 370.2 350.6 361.6 371.4 379.8 381.8 384.3 384.5 379 370.9 361.8 356.1 351.3 344.6 339.1 339.5 339.6 336.8 337 336.3 335.3 340.1 349.1 360.2 372.2 385.2 396.7 403 408.7 408.8 406.4 404.9 403.7 397.4 389 396 414.3 429.5 442.1 454.2 466.4 481.8 498.1 515.9 524.4 529.4 533 533.2 530 524.8 518.4 509.9 500.5 490.7 484.7 478.7 471.7 464.4 456.8 447.2 447.7 451.6 455.8 464.4 468.7 475.9 483 487.5 492.1 499.3 503.4 504.9 504.3 500.5 491.9 480.5 471.5 462.4 456.2 449.1 438.2 430.5 421.8 417.5 413.4 410.7 405.8 402.5 401.2 401.1 404.6 410.3 412 415.1 418 426.7 428.5
269 276.6 284.8 288.8 298.2 311.4 327.7 342.5 365.5 378.8 387.8 395.6 400.7 402.7 405.4 407.2 407.4 406.4 404.7 401.8 402.3 404.9 408 411.3 414.6 417.7 417.4 414 414.3 411.5 406.2 403 398.4 392.7 389.4 387.1 381.7 375 367.9 357.6 342.8 328 312.8 291.5 306.9 312.1 314 310.8 301 289.6 274.7 278.5 292.1 314.4 337.9 354.5 366 378.3 387.5 395.9 401.6 407.9 410.8 413.5 415.3 416.4 415.6 414.7 414.5 415.6 418.5 422.4 425 427.3 430.6 433.9 437.2 439.7 442.3 443.9 446 448 447.1 439.4 433.6 426.2 417.5 427.9 441.3 453.1 464.3 475.4 485 494.2 504.8 512 512.1 506.3 491.5 464.8 438.3 415.4 394.2 373.5 356.4 358.1 375.4 385.6 391.2 396.3 397.1 393 383.4 374.4 366.6 358.9 349.3 342.3 348.4 348 345.9 343 338.6 339.1 338.7 338.7 343.9 353.1 362.2 372.7 380.6 387.4 388.3 388.1 387.3 383.8 383.6 395.1 412.6 428.3 442.7 455.4 471 483.2 498.2 511.5 519.5 524.8 528.2 529.6 529.2 526.5 522.2 515.9 508.3 499.8 492.5 486 480.7 473.6 465.5 457 445.6 450.3 457.3 463.6 469.6 476.3 483.8 492.8 496.5 497.1 501.4 505.6 506.4 503.7 498.9 490.8 477 468.8 459.9 451.3 440.8 424.4 419.5 425.1 419.5 418.6 418.5 415.8 407.9 408.6 410.7 418.6 430.8 432.6 436 436.1 437.4 434.9
273.6 283 289.3 294.9 304.2 318.5 330.8 354.9 372.9 385.1 390.7 393.3 395.1 396.1 397.8 399.1 398.6 395.9 391.9 389.1 389.7 395.5 400.2 403.5 406.1 408.9 411 412.1 414.3 412.7 412.6 411.1 407.6 407.4 403.1 396.8 388.1 378.4 371.2 358.7 343.1 322.7 301.4 303.9 320.4 322.7 322.6 320.1 316.7 310.5 306.7 287.2 276.6 298.4 317 337.6 356.3 370.5 381.3 391.5 399 404.9 408.6 410.9 409.8 408.8 408.5 407.7 407.3 407.5 410.8 413.6 416.4 419.2 422.7 425.2 427 430.5 433.8 436.2 437 436 433.8 421.3 411.7 402.4 405.1 418.5 428.5 439.9 449.7 459.1 468.8 484.4 498.4 507.5 511.7 507 493 466.4 442 419 396.2 377.8 361.5 365.5 378.3 389.9 396.9 402.8 407.7 405.1 401.2 391.6 380.2 369.1 356.5 346.7 358.8 358.6 354 348.7 346 342.9 342.3 340.9 339.9 343 347.2 355 361 366.5 370 372.7 377.3 380.1 394.5 412.4 427.8 443.1 457.7 469.9 485.7 502.1 515.2 520.4 522.4 524.2 525.6 525.6 525.8 523.8 519.1 512.6 506.3 499.8 492.4 487.1 479.8 474.2 464.4 455.8 449.1 452.6 461.2 468.1 471.5 482.4 492.2 499.7 501.1 501.3 502.3 506.2 504.9 501.8 496.6 485.7 474.3 462.2 455.5 442 422.6 428.1 441.7 446.8 446.1 444.4 440.1 430 412.1 414.2 420.9 432.4 441 444.5 445.8 445.4 444.2 444.5
275.5 282.3 289.8 297 303.6 317.1 335.8 357.1 372.8 380 385.2 387.3 387.7 387.4 389.3 388.8 385 380.3 375.9 376.7 379.7 385.2 388.7 394.1 395.6 398.7 402.4 405.7 411.4 414 417.4 417.9 418.5 416.5 409.5 402.6 392 382.1 371.2 354.3 336.9 314.5 308.9 325.1 333.5 334.7 335.9 334.4 329.3 324.1 319 303.1 278.5 280.7 300.4 317.6 343.8 362.7 376.6 387.2 396.4 402.2 404.6 403.7 403.4 402.6 401.1 399.8 398.8 399.6 402.7 406 409 411 412.8 414.7 417.3 420.8 423.5 425.5 426.2 424.8 419.6 402.3 389.1 382.4 394 404.7 415 425.5 436.5 444.1 460.6 477.9 492.4 502.9 508.5 506.5 493.4 471.7 445.9 424.8 404.6 387.3 374 364.4 375 391.1 404.3 413 418.6 422.7 417.7 407.4 395 379.6 366.1 352.3 366.8 369.7 366.6 358.4 353.3 349.6 347.3 339.7 341.7 343.9 346.5 347.6 352.2 356.8 361.9 365.4 376.5 387.5 408.1 427 442.1 456.4 473 488.3 505 518.8 526.1 526.4 524.8 523.7 522.6 521.1 522.2 520.5 515.8 509.4 503.9 497.9 492.8 487.8 481.7 472.7 463.7 456.5 452.5 457.8 465.2 472.3 478.6 488.6 497.6 503 504.9 504.3 503.9 504.6 503.1 499.4 492.5 482.1 471.2 459.5 447 427.1 438.4 447.9 456.4 461.6 461.1 459.6 452.9 438.3 416.6 420 428 437.5 446.1 450.7 452 452.4 451.7 453.7
277.7 283.7 289.2 296.2 305.1 316.2 334 352.9 363.3 372.9 378.3 379.3 379.8 378.2 376.8 374.2 371.9 368.2 365 367.2 370.3 373.6 376.7 379.7 383.8 388.4 393.8 402.2 409.9 417.2 421.5 424.2 427.1 423.1 414.1 404.3 392.6 378.4 363.1 346 328.3 314.7 328.7 340.1 344.6 349.3 349.8 348 343.8 336.1 326.3 317 302.8 277.2 292.6 309 332.9 358.5 372.7 383.2 393.3 398.1 399.7 399.4 398.9 396.9 394 391.6 390.3 393.4 396.4 400 401.5 402.8 403.4 404.1 406.1 409.1 412.5 413.9 415.8 414.5 398.9 377.8 371.2 388.1 401.4 411.3 417.8 424.1 427.9 433.4 450 464.2 490 500.7 507 505 496.6 481.1 457.8 435.6 416.4 399.3 385.7 378.8 377.4 395.1 412.1 423.4 432.4 436 431.3 418.6 403.5 387.3 374 354.2 373.7 380.7 379.9 372.5 365.3 359.3 354.2 349.9 345.3 345.3 347.2 348.6 351.2 353.9 356.5 368.1 379 403 423.5 441.3 454.4 473.8 491 505.1 518.9 529.4 533.5 530.3 524.7 521.2 517.7 515 516.8 514.9 511.3 506.5 501.1 496.2 492.3 487.6 481 473.3 464.3 458.9 458.6 461.2 469.6 478 484.9 493.1 500.7 505.1 507.1 506.5 505.2 504.1 500.5 494.6 487.5 478.9 468.4 452 432 437.7 451.2 460.9 466.5 469.8 470.1 469 464 448.8 426.6 422.1 432 441.5 450.1 454.7 458.1 458.2 459.5 460.8
279.2 284.6 290 295.3 303.9 317.3 332.7 345.1 354.2 365.9 372 372.4 371.4 367.6 364 360.3 358.9 357.8 355.8 356.8 359.3 361 363.9 368.3 373.5 379.2 388.1 399.3 411.4 420.9 426.9 431.9 432.6 426 414.7 400.7 387.6 372.5 357.8 341.3 324.4 335.3 346.4 353.4 359.7 365.4 367.6 363.8 355.3 346.5 337.1 328.1 312.8 286.7 289 305 323.9 348.5 368.6 380.5 389.8 394.3 396.9 397.5 395.5 390.7 386.6 383 378.2 385.2 388.7 391.8 393 393.6 393.4 393.6 395.2 397.6 401.7 405.8 407.5 401.3 380.4 357.2 378.6 394 409.3 420.4 429.5 437.3 444.3 451.5 463.1 473.5 491.3 499.9 505.1 506.3 500.3 490.7 470.1 450.4 432 413.8 401.5 390.1 384.6 400.6 419.1 432.7 441.6 444.9 440.3 427.5 412.2 397.2 377.8 356.6 375.8 387.9 392.4 388.3 381.2 371.4 363.4 356.5 351.8 347.8 348.4 348.5 349.9 352.7 362.1 374.5 393.8 413.1 437 454 470.3 487.7 504.3 514.2 525.1 534.8 537.1 531.2 521.6 516.9 511.5 505.6 508.1 507.6 504.8 501.1 497.6 493 489.4 484.2 479.8 473.4 463.6 456.7 460.9 464.6 474.6 482.8 488.7 496.3 502.3 505.7 508.5 507.2 505.3 502.5 497.1 490.2 482.7 476.5 463.5 442.1 436.8 453.1 461.4 466.4 472.7 475.9 476.3 475.2 470.1 458.6 436.2 424.8 433.7 440.8 451.9 458.9 463.3 464 464.9 466.9
279.1 284.8 290.5 294.9 302.4 314.9 328 337.5 350.5 360.9 368 365.3 362.1 356.6 351.6 347.3 345.4 344.4 344 344.6 345 350 356.7 363.1 368.3 376.6 388.2 403.7 416.1 425.8 432.6 437.4 435.5 426.6 412.5 397 383.6 366.9 349 331.5 344 353.1 360.3 368.1 375.6 381.7 381.6 377 369.1 357.6 345.2 333.4 319.8 298.4 283.1 303.9 318.5 342.5 362.7 377.4 386.8 394.1 396.5 396.1 393.2 387.3 379.8 373.7 370.3 377.9 379.9 380.7 382.1 382.2 381.9 382.3 384.2 387.8 393.6 397.7 397.5 383.2 360.3 366.6 383.2 396.4 410.5 422.9 434.1 444.3 454.6 465 474.3 482.7 492.1 498.8 502.4 504.1 503.1 496.2 484.2 467.7 449.6 429 418.6 404 386.3 406 426 439.5 448.6 451.4 447.8 437.8 420.2 400.5 378.3 360.8 376 393.8 403.5 404.6 398.6 388.8 376.3 366.1 360.6 354 350.9 349.8 349.8 356.8 357.3 373.1 394.3 417.4 441.1 461.9 478.3 495.6 508.5 518.1 523.3 529.4 530 522.5 516.1 511.2 505.6 499.6 498.7 498.5 497.3 494.7 491.1 488.8 485.7 482.7 478.5 473.4 464.4 462.3 462.3 472.5 479.9 486.7 492.2 498.1 503.4 507.1 509 507.2 504.3 499.7 493.6 486.7 479 467.6 456.3 434.9 445.8 461 467.1 471.8 479 482.5 483.1 480 476.8 468.7 445.1 428.4 437.7 441.2 452.5 463.2 467.7 469.5 470.8 473.3
278.6 284.1 290.1 295.2 302.1 310.1 320.8 333.9 345.2 356.4 360.6 357.5 350.3 344.3 338.8 335.1 332.5 331.8 340 347.8 353.6 359.1 364.3 368 372.9 382.6 395.9 409.8 422.2 431.1 437.2 439.4 435.8 424.7 409.1 392.8 376.8 358.7 351.2 359.8 361.6 367.3 375.7 382.9 392.8 396.7 395.8 391.1 381.2 368.9 354.2 340.9 323.7 302.4 283.5 304.1 316.3 339.2 359.4 373.1 383.6 390.1 393.6 392.8 388.3 381.6 374.7 366.5 361.5 368.2 371.3 371.7 372.8 371.1 369.4 369.6 373 379.9 385.8 388.8 384.4 362.7 350.8 373.8 384.8 397.2 409.9 421.7 433.1 444.8 457.5 469 477.5 484.5 490.3 493.9 497.2 499.4 501.1 498.6 491.6 479.4 466.7 450.5 444.9 426.3 408.3 413.2 433.6 447.2 455.5 457.8 458.9 446 424.8 400.7 382 368.3 374.4 396.1 408.8 415.8 414 407.5 395.4 379.7 366.9 358.4 355.3 352.9 351.7 352.5 357.8 365.4 388.2 409.7 432.8 457.1 477.1 490.2 503.9 512.9 515.5 516.8 516.1 512.4 508.9 504.1 498.5 493 487.3 489.1 488.8 487.1 485.3 484.3 481.6 480.4 476.4 471 460.7 463.8 469.6 477.3 483.9 489.3 494.5 499.1 503.6 507.2 508.3 505.7 502 496.7 489.5 483 474.4 465.9 448.7 438.4 454 463.8 470 476.2 484.8 488.7 488.6 485.9 484.4 477.1 461.1 442.4 437.2 445.2 450.5 464.2 469.9 474.6 477.9 480.5
279.4 284.4 289.2 294.8 300.3 311.3 322.9 333.8 344.6 355.7 355 348.3 341 335.8 332.1 325.4 330.9 340 348.5 356.5 364 370.4 375.7 380 379.9 391 405 418 429.1 438.5 444.5 444 437.3 428.2 408.4 390.5 370.6 369.2 370.4 374 381 385.5 393.5 404 408.7 411.5 409 403.1 393.8 380.5 364.3 346.3 326.7 305.6 282.2 303.8 313.6 329.2 355.4 370.9 379.6 385.3 387 386.2 382.1 375.7 368 359.1 347.6 357.5 360.8 360 356.6 356.9 356.9 352.8 363 370.3 376.9 379.1 364.3 344.8 363.7 373.9 383.3 395.7 407.1 419.3 431.1 443 454.5 467.1 476.4 481.4 483.6 486.1 488.1 490.9 493.6 496.2 494.4 486.8 478.5 470 462.5 449.3 428.9 423.4 446.2 456.8 463.7 469.7 469.5 453.9 431 408.2 390 373.3 374.6 396.7 412.8 423.9 427.2 421.8 407.6 392.2 373.1 372.5 362.5 358.8 356.7 354.6 356.4 363.6 371.5 394.6 418.4 440.9 460.7 472.8 483.6 496.4 499.9 503.3 505 503.3 500.7 495.8 491.1 486.2 479.1 475.6 479 478.5 479.8 478.4 476.6 476.8 473.6 467.4 463.2 466.8 473.3 480.3 485.8 491.1 495.4 498.8 502.1 505.2 505 502 498.3 492 485.4 477.4 469.5 460.3 446.1 438.4 455 465.1 471.8 478.7 487.4 492.5 492.5 492.4 490 485.1 477.6 457.6 442.2 445.3 454 461.1 472.4 478.5 483.6 487.2
278.8 283.7 287.5 293 298.2 307.4 318.6 330.3 338.7 345.8 344.3 338 333.4 329.4 320.4 323.6 334.4 345.3 355.9 365.7 374.5 381.9 388.4 394.1 398.6 392.4 414 426.2 436.3 445.3 449 447.3 442.3 431.1 410 388.1 383.2 385.7 387.3 394.2 399.6 404.2 411.6 417.9 423.3 422.7 418.8 412.8 403.6 390.4 372.6 353.3 330.6 307.2 285.6 302.5 314.6 322.4 343.2 359.6 372.5 379.6 381.1 379.5 374.6 366.6 360 351.2 336.7 344.3 348.7 344.5 337.9 337.5 340.3 338.1 350.6 356.3 363.8 366.4 346 350.7 361.8 370.6 379.5 391.9 402.6 415.3 427.5 439.4 451.3 461.2 468.5 471.2 472.8 473.6 475.7 479.9 484.3 488.5 493.1 491.5 488 483 475.7 467 448 443.3 460.5 468.9 475.2 481.4 479.9 463.9 439.2 416.2 399.4 377.4 379.3 398.1 413.5 427.7 435.9 429.3 414.1 398.3 377.1 369.4 368.5 363.6 363.2 359.5 355 359.3 366.1 377.4 399.5 420.2 437.3 450.7 462.5 473.9 483.6 490.4 493.8 494.2 491 487 482.7 478.2 472.9 460 470.2 470.5 470.4 471 471.4 471.9 470.1 454.7 465.7 471 476.3 480.2 485.6 492.2 495 497 499.6 502.1 501.4 498 493.7 487.8 479.1 471.6 460.2 453.7 446.9 447 452.5 465.1 472.6 479.8 488.3 493.6 496.5 497.2 494.3 491.1 483.8 477.3 469 456.7 447.6 458.9 475 482.6 489.2 493.8
