ncols 200
nrows 82
xllcorner 310000
yllcorner 631950
cellsize 50
195.2 194.8 194.5 194.6 194.8 194.3 193.8 193.5 193.5 194.1 193.5 193 194.2 194 193.9 192.8 193.3 193.4 193.9 193.4 193.5 193.3 194.8 196.4 198.3 195.9 194.5 193.2 193.2 193.1 192.4 192.6 192.5 192.2 192.5 194.2 193.1 198 201.4 205.5 208 207.9 210.9 214.4 217.7 220.3 222.9 224.9 225 226 228.2 228.9 230.4 232.5 233.5 234.6 235.5 238.7 243.8 248.4 253 261 268.1 275 282.6 290.9 299 305.7 314 322.5 331.1 337.9 340 334.3 325 314.8 295.1 281.7 270.2 263.4 255.8 259.1 259.4 258.5 257.5 257.6 255.6 252.9 249.6 247.3 244 241.5 238.6 234.9 229.8 224 223.2 221.7 223.7 221.6 216.4 217.8 224.1 230.7 231.7 229.2 229.6 228.1 226.3 227.1 229.7 233.1 238.4 244.8 254.7 265.7 278.5 296.3 308.8 317.6 324.2 327.8 323 314.7 305.2 296.9 290 282 276.3 269.4 261.8 253.2 241.2 230.2 223.4 220.9 219.7 218.8 210.6 201.5 190.3 182.6 179.6 177.6 177.6 177.6 176.5 177.7 177.6 177.8 177.7 180.4 187.6 198.5 205.6 208.5 205.1 215.1 222.4 230.2 237.2 244 256 264.5 270.7 280.8 291.1 301.2 310.4 317.3 324.1 330.7 337.5 344.8 348.9 352.3 356.6 357.3 358.8 368.7 376.4 382.4 389.1 396.4 404 410 415.9 422.2 427.6 431.9 435.6 437.5 438.3 436.8 436.2 432.2 426.1 417.1 407.1 397.5
195.4 195.2 195.6 194.6 194.6 194.2 193.7 193.5 193.3 193.1 193.1 193.2 193.1 193.1 193.2 193.4 193.1 193 192.9 193 192.9 197.2 200.1 201 202.1 194.6 194.1 193.5 193.3 193.2 193 192.4 192.2 192.1 192.1 192.5 192.1 193.1 196.5 200.9 203 204.4 206.9 209.8 212.6 216 217.5 217.5 217.5 218.3 220.9 222.4 224.3 226.5 228.5 231.3 235.1 238.9 243.1 248.6 255.8 264 272.5 280.7 287.7 294.3 301.7 308.6 316 326 334.9 339.4 334.8 327.5 311.5 306.9 292.4 278.8 266.5 257 249.6 249.2 247.1 246.2 245.6 245.9 244.9 243 241.1 238.4 237.1 234.3 230.6 225.6 220.2 217.1 216.6 215.7 214.5 211.9 205.8 207.3 212.9 217.3 219.6 216 216.6 217.9 218.1 220.7 223.4 226.6 232.3 239.2 250.6 264.4 277 292.1 303.6 309.6 311.4 309.9 305.1 296 287.4 278.5 273.5 267.7 262 257.1 250.8 242.8 233 224.6 218 217.2 217.5 215.2 204.9 194.6 182 180.2 177.7 177.7 177.7 177.7 177.6 178.1 178.2 177.8 177.3 183.9 195.4 205.3 210.7 213.7 212.9 217.3 227.1 235.1 241.6 248.9 259.8 269.7 276.6 289.3 303 314 323.7 330.3 334.9 340.7 346.9 353.3 356.8 360.1 361.7 363 365.6 374.3 380.1 386.6 394.2 401.5 409.3 414.8 422.3 427.9 433.5 438 442.5 446.2 443.8 440.9 435.7 429.2 420.4 410.4 400.6 390.6
195.6 195.3 195.8 195.3 194.3 194.2 193.7 193.5 193.3 193.1 193.2 193.3 193.1 193.5 193 192.8 193.2 194.7 196.3 197.2 199.7 203.9 205.6 206.2 206.9 207 200.3 194.1 193 192.9 192.5 193.2 193.1 193 192.2 191.7 191.8 191.9 192.5 194.7 196.6 199.5 202.2 205.2 207.7 210.4 211.3 210.6 210.9 212.6 214.6 217.5 220.5 224 227.3 230.7 235.2 239.4 243.7 251.4 260.5 267.3 277.8 285.8 294.4 300.3 306.4 314.4 321.1 330.9 341 340.7 333.9 324.3 308 280.6 282.1 267 249.4 248.2 244.3 237.2 237.7 235.5 235.4 236.7 236 233.9 232.6 229.6 227.6 225.9 222.2 216.4 213.2 210.7 208.2 206.3 203.8 202.1 199.8 199.3 201.4 203 203.9 203.2 204.4 206.3 207.6 210.8 215 220.6 226.7 233.9 247.1 260.6 272.6 284.1 292.9 298.1 295.9 291.6 286 278.8 271 263.6 258.4 252.6 248.7 243.4 238.9 233.9 228.5 221.3 215 211.8 209.8 205.4 196.2 186.6 179.7 178 177.9 178 178.2 178.3 178.1 178.2 177.8 177.5 181.6 192.8 202.8 209.9 215.1 217.5 219.8 218.1 231.5 239.6 245.9 252.3 263.4 272.5 281.7 296 312.5 325.7 334.4 341.1 344.3 352.8 356.8 364.4 368.1 369.9 370.7 372.3 372.5 377.5 383.9 390.8 398.1 407.1 413.6 420.9 428.4 434.8 439.1 443.4 449.9 452.9 448.6 441.3 432.9 422.9 413.9 403.6 392.6 381.8
195.7 195.4 195.6 195.1 194.6 194 193.8 193.6 193.4 193.2 193.2 193.3 193.2 193.7 193.8 194.3 196.9 199 200.3 201.5 206 210.1 211.6 212.6 213 211.3 205.4 195.9 192.8 191.1 192.4 193.3 193.2 193.4 192.8 192.1 191.7 191.8 192 192.1 192.6 194.9 197 199.3 201.6 203.7 203.4 208.3 209.8 211.3 214.1 217.3 220.5 223.9 226.9 230.8 235.6 240.3 246.8 256.2 266.4 272.8 283.6 291.9 300.2 306.2 312 319.8 328.6 336.5 340.1 334.4 325.7 313.4 301.9 262.8 250.4 246.7 244.5 243.9 241.2 230.7 229 228.5 228.1 227.8 225.6 223.9 223 221.6 218.5 215.1 211.4 207.3 203.9 202.8 200.8 197.9 195.4 195.7 193.7 192.4 193.5 194.1 194.9 195.3 196.9 198.4 199.6 202.4 207.1 212.1 219.1 227.2 240.9 253.1 264.3 273.3 278.2 280.6 278.7 273.5 267.6 261.9 255.8 249.2 244.8 240.5 235.2 232.7 229.7 226 221.2 216 210.7 205.8 202.9 195.6 187.8 181 178.4 178.2 178.2 178.1 178.5 178 177.1 177.6 177.7 180.4 188.4 199.6 208.4 213.2 217.9 220.8 224 229.2 228 242 249.2 256.4 264.4 273.6 283 298.1 315.1 328.5 338.3 344.9 353.6 360.2 365 373.5 378.5 379.4 377.6 377.6 377.6 383.2 388.3 395.4 403.6 412 419.8 428.9 435.5 440.3 444.6 449.7 455.8 456.7 451.4 440.5 429.3 417.3 406.5 395.1 384.4 373.4
195.8 195.5 195.4 194.9 194.5 194.5 194.3 193.9 193.7 193.8 195.1 194 195.6 196.5 195 198.1 200.6 202.5 203.8 208.9 214.9 219.6 220.6 219.5 217.9 214.5 208.8 200.1 193.3 192.8 190.8 193.1 193.4 193.3 193.1 192.4 191.6 191.7 191.8 192 192.2 193.2 194.3 195.3 197.9 200.1 204.6 208.4 211.1 211.9 214.9 217.7 220.4 223.7 226.8 231 236.1 243.5 252.1 261.2 270.6 279.6 288.9 298.1 305.7 312.7 319.4 324.3 332.8 332.7 328.4 320 311.5 297.9 283.1 265.1 250.9 245.7 242.6 238.9 234.4 227.6 218.9 219.7 219 217 215.1 212.7 211.3 210.5 208.7 204.6 200.8 197.1 192.6 191.5 191.1 189.9 187.6 187.7 187.1 186.9 186 186 186.8 188.3 189.9 191.5 193.2 195.3 200 205 210.8 218.6 231.4 243.1 251.6 257.9 259.8 260.6 259.3 255.1 250 246.6 241.7 237.7 234.6 229.1 224.9 222.7 220.9 217.4 213.9 209.1 205 200.5 193.6 185.9 179.9 178.7 178.2 178.8 178.9 178.8 178.2 178.9 177.4 177.7 178.9 187.3 196.9 205.2 211.4 215.7 220.5 223.6 227.5 232.9 237.2 238.5 249.3 257.5 265.7 273.3 282.5 296.3 313.5 323.7 335.3 343.8 352.8 360.6 371.6 380.6 387.1 387.5 386.3 384.7 384.4 387.6 392 399.7 410.2 420.7 429.9 437.7 441.4 446.9 452.2 455.9 459.1 457 450.8 438.4 427 414.1 402.7 389.3 377.1 363.6
196.8 195.9 195.5 195.4 195.4 195.9 195.5 195.1 195.4 197.1 197.8 197.1 198.3 198.8 200.6 202.6 204.7 207 211.8 216.8 224.4 231.3 229.7 225.5 221.9 214.3 209.7 202.4 195.3 193 192.6 191.8 192.7 192.7 192.9 191.8 191.5 191.6 191.7 191.8 192 192.7 193.6 195.9 199.1 199.8 201.7 204.3 208.8 212.4 215.2 217.9 220.6 223.9 228.6 232.9 239.9 250.2 259.1 266.5 274.7 287.2 295 305.5 312.5 319.5 325.2 327 330.9 323.5 311.3 298 288.4 280.7 269.2 256.2 244 239.6 233.5 227.4 223.7 219.7 213.2 206.4 208.5 206 202.7 199.5 198.4 197.5 196.5 194.5 190.4 187.2 185.8 185.4 185.1 184.1 184 183.3 183.1 182.7 184.3 183.7 183.7 183.3 182.6 182.7 186.1 186.9 190.9 198.6 204.4 209.4 218 226.8 236 240.3 241.9 240.9 239.1 237.8 236.5 232.6 230.5 226.9 221.8 217.8 216.3 214.9 213.3 208.5 205.6 201.9 198.1 190.1 181.7 179 179.4 179.6 179.6 179.4 179.6 178.9 179.4 178.6 177.6 178 182.6 194.8 203.8 208.4 213.9 218.8 225.2 228.9 231.9 237.2 247.7 236.3 247.1 257.5 263.5 272.2 281.5 291.2 305.6 318.8 329.8 340.5 351.8 362.7 374.3 384.1 389.9 391.1 391 391.6 391 392.4 397.4 405.1 413.9 425.2 435.6 441.6 447.9 455.5 459.1 462.6 460.1 455.4 448.4 438.4 426.1 414.2 402 386 373.4 362.6
197.9 197 196.5 196.6 197.6 198.6 198.3 198.1 198.4 199.1 199.4 200.6 201.9 203.1 205.9 208.1 210.5 214.3 221 228.5 237.6 240.7 240 232.6 223.6 215.9 211.1 205 198.3 193 192.4 192.9 190.1 192.1 192.4 191.6 191.5 191.6 191.7 191.8 191.8 191.9 192 194.2 197.5 197.5 198.8 202 206.9 211.7 215.4 218.4 222.1 226.5 232.3 237.8 245.4 255.4 264.4 271.5 279.4 291.9 300.8 307.6 316.1 320.1 321.9 316.9 312.3 303.9 293.5 281.2 270.9 262.6 251.7 241.9 231.4 227.3 221.1 215.3 212.1 208.1 202 195.4 197.2 193.3 188.4 185.1 185.3 185.4 185.5 184.9 184.7 184.7 184.5 183 184.4 184.6 184.2 183.8 183.5 183.5 182.9 183.1 183.8 183.6 183 182.9 182.4 181.5 181 185.3 193.6 202 205.9 209.9 215 220 223.1 223.4 224.5 224.4 222.6 220.2 218.6 215.9 211.5 210 208.6 207.2 204.3 200.1 195.8 189 182.7 179.5 179 178.8 179.1 179.7 179.7 179.6 178.9 178.6 179.2 179.9 179 181.2 190.2 199.5 205.5 211.2 216.8 223.3 230.3 233.8 237 244.7 254.5 252.4 243.2 253.6 262.4 270.9 279.4 288.4 298.9 310.9 323 334.5 345.6 357.1 368.8 381.2 389.2 394.2 394 394.7 395.5 398.5 401.7 407.5 420.5 429.7 437 444.3 454.6 462.3 466.6 465.6 462.3 455.1 448.4 438.5 429.3 417.7 403.6 388.8 375.6 365.4
199.1 198.3 198.7 199.4 199.8 200.8 200.7 201.9 201.4 202.3 202 203.6 205.6 207.5 209.9 212.8 216.7 222.4 232.8 243.8 252.8 254.6 246.8 239.4 228.9 217 208.4 203.8 200.9 196.1 192.1 192.1 192.4 190.6 191.8 191.6 191.4 191.5 191.6 191.6 191.6 191.6 191.7 191.9 195 197.6 197.8 199.3 204.9 210.2 215.8 220.7 225 228.9 235 241.1 250.5 260 268.2 273.9 283.3 293.6 300.6 306.2 310.3 308 304.5 299.2 290.8 283 274.4 263.2 251 241.4 235.4 223.8 217.1 212 206.3 201.1 198.9 195.8 191.3 188.4 186.9 185.7 185.7 184.9 184 184.1 183.6 184.1 184.6 184.8 184.9 184 184.3 184.2 184.1 183.9 183.6 183.5 182 181.7 183 182.8 182.3 182.3 181.4 182.5 180.7 180.4 179.4 188.4 195.8 199.3 201.3 204.7 207.1 208.6 209.1 209.8 210.3 209.3 207.6 205.4 205.1 203.4 200.6 196.6 193.2 189.1 182.9 179.3 178.8 178.7 179.5 179.5 179.3 179.4 179.4 179.7 179.1 178.4 179 179.7 180.4 186.7 197.2 204.9 210.2 215.5 221.4 228.7 236 240.4 244.3 249.4 257.3 259.4 253.4 250.4 262.6 269.2 278.5 287 295.3 305.1 315.9 327.3 337.9 349.4 361.6 374.8 387.6 396.1 398.4 399.7 399.4 402 406.4 412.9 424 431.7 440.4 450.7 459.2 465.2 468.5 468.4 466 459.2 453.4 446.8 437.2 422.5 409.8 395.9 382.8 371.7
201.2 200.5 201.6 202.2 202.5 203 204 205.2 204.8 205.8 206.7 207.8 210.7 212.4 215.1 218.5 223.7 232 246.2 256.9 267.5 266.4 255.8 249.1 236.1 220.5 208.7 202.4 201.4 196.8 192.6 191.9 192.2 192.2 191.2 191.6 191.3 191.4 191.4 191.4 191.3 191.2 191.2 191.1 193 194.7 196.3 196.8 202.1 208.2 214.7 220.7 226.2 231.8 236.8 245 252.8 260.3 267.2 273.2 284.1 291.8 296.4 295.4 293.3 287.6 282.3 279 271.1 262.7 254 245.8 235.9 226.2 217.4 210.7 203.1 197.1 192 189.8 186.3 184.5 184.6 185.8 186.1 186 185.1 184.3 185.2 185.1 185.1 184.8 185.1 184 184.5 184.6 184.1 183.7 183.7 183.9 183.7 183 183.4 183.1 182.3 181.4 181.7 181.6 182.7 181.5 180.9 180.4 180.3 179.7 184.6 188.1 190.1 191.8 193.2 196.1 198.8 199.5 201.7 201 199.1 198.1 197.5 196.7 193 186.3 182 178.4 178.4 178.5 178.6 178.9 178.9 179 179.1 179.1 179.5 179.8 179.1 178.5 178.7 179.2 179.5 194.9 204.4 209.9 215.4 220.7 226.6 235.2 242.7 248.4 250.9 254.9 258 259.7 258.3 255.5 264.2 270.5 277.4 285.6 294.1 302.7 312.2 321.4 331.5 342.8 356.6 371.1 385.7 395.8 402.4 404 405.3 408.5 413.9 419 426.3 436.2 448.3 459.2 464.2 469.2 472.1 471.6 469.8 466 461.5 454.4 441.8 428.9 417.4 404.2 392.2 381.7
202.8 202.8 204.4 205.1 205.4 206.5 207.3 207.7 208.8 210.1 211.3 213.4 215.8 218.4 222.4 226 231.6 243.5 258.4 275.3 286.5 279.6 260.7 250.3 235.2 223.6 214.4 207.8 201.5 195.7 193.5 192 192.1 192.1 192.4 191.4 191.1 191.2 191.2 191.1 191.1 191.1 191 190.8 190.9 191.8 194.5 199.1 202.6 207.3 212.7 218.9 225.8 232.8 239.3 247.7 256.7 263.2 269.5 273.2 278.8 284.3 284.6 280.1 274.9 266.9 262.8 259 252.8 244.7 234.4 228.1 217.8 208.7 202.1 197.1 191 186.8 184.8 185.9 186.1 185.6 185.7 185.5 185.5 185.1 185 184.7 184.8 184.7 184.4 184.5 184.8 183.8 184.7 184.4 183.9 183.4 183.1 183.3 183.5 183 182.3 182.5 182.4 182.9 181.9 183.4 182.3 181.6 181.5 181.4 181.2 180.1 179.4 181.4 182.2 182.8 184.7 186.1 188.9 191.5 193.8 193.4 192.4 194 193.5 187.9 184.9 180 178.3 178.2 178.2 178.2 178.3 178.4 178.5 178.6 178.9 179.1 179.5 179.8 179.2 178.6 178.6 178.7 185.9 202.6 209.9 214.6 220.1 226.7 234 243.3 250.2 255.7 258.6 260.9 261.3 261.9 262.1 261 268.3 274.3 279.8 285.9 294.8 302 311.7 319.4 328.8 339.2 353.5 369.8 383.6 396.4 403.8 407.6 409.6 416.9 424.1 429 433.9 445.8 457.1 464.8 469.9 472.4 474.8 477.8 477.5 474 468.3 459.3 445.6 435.2 425.3 414.6 404.2 398.1
204.3 204.8 206.2 207.9 208.6 209.8 211.2 212.4 213 214.8 216.7 218.7 221.3 225.2 229.2 233.2 239.7 257.2 274.5 293.9 300.1 281.9 263.5 255.2 244.7 230.7 220.5 212.1 204.4 199 195.2 192 192.1 192.2 192.5 192.3 192.8 191.4 190.9 191.5 191.2 191 190.8 190.9 191 191.5 196 201.1 204.7 209.8 214.8 219.2 225.3 235.5 242.4 250 258.6 266 269.7 271.7 271.8 273 267.5 261.9 257.3 249.8 246.5 241.6 234.5 225.3 218.2 209.8 202.4 195.3 191.3 185.3 186.3 186.5 186 185.6 185.2 185 185.2 184.9 184.8 184.6 184.4 184.4 184.4 184.4 185.1 184.7 184.5 183.9 183.7 183.8 183.6 183.2 182.7 182.6 182.6 182.2 182.4 183.1 182.5 182.6 182.1 182.7 182.5 182.1 181.6 182 182.1 181.4 180.7 180 181.6 181.2 181.2 181.2 183.4 182.9 183.6 183.7 181.4 181.8 182.2 181.2 179.3 178.7 178.1 177.9 177.7 177.8 177.9 178 178.2 178.9 179.4 179.5 179.6 179.9 179.3 179.2 179.2 182.4 198.6 208.9 215.1 219.4 225.9 235.5 244.9 254.1 259.3 263.5 265.6 267.4 267.7 267.9 268.4 266.3 271.5 276.6 282.6 290.4 297.6 304.9 311.3 317.7 326.7 337.9 352.8 366.3 380.2 395.3 404.7 410.7 417.3 423.5 429.3 434.7 443.4 451.7 459.5 467 470.8 473.8 476.9 478.3 478.6 477.9 472.5 464.7 453.1 442.4 432.5 424.7 417.5 411.3
207.3 207.9 208.9 210.3 211.8 213.3 214.7 215.7 216.9 218.6 221.2 225.5 227.4 231.7 235.9 242 252.8 268 286.6 304.3 303.6 290.3 272.2 263.6 252.2 240.1 227.3 217 208.3 201 198.2 194.2 192.3 192 191.9 191.9 191.9 192.5 191.2 191.4 191.1 190.8 190.8 190.9 191.1 191.7 197.7 202.7 207.1 211 223.4 223.8 231.6 238 248.8 255.4 255.2 265 266 263.5 261.7 253.6 247.5 247.7 244 237.4 232.3 224.5 217.3 210.9 204.3 197.8 192 188.1 185.4 186.1 185.9 186 186.6 187.3 185 185.1 185.1 185 185.3 186.2 185.6 184.9 184.9 185 184.9 184.7 184.7 184.1 183.6 183.2 182.9 182.6 182.4 182 183.1 182.7 182 182.8 182.6 182.3 182.4 182.6 182.4 182.1 181.8 181.8 181.8 181.7 181.4 181.2 180.1 181.2 181.2 180.9 180.7 179.8 180 182.2 181.1 181.1 180.6 179.2 183.3 179.7 179.4 178.8 178.5 177.9 177.5 178.2 178.8 179.4 179.8 179.8 179.9 179.9 179.9 179.9 179.9 194.7 206.4 213.7 218.2 224.6 233.4 243.8 255.5 265.8 271.1 272.7 273.3 273.9 274.1 273.9 273.6 272.9 276.2 280.8 286.7 293.6 302.2 310.1 317.1 324 329.3 340.2 351.9 365.7 378.6 394 406 415.1 425.5 429.6 435.1 440.5 446.3 454.9 459.5 465.9 470.5 473.4 475.9 478.2 478.3 477.4 472.8 467.1 459.9 450.2 441.1 434.1 427.1 421
210.9 210.6 211.9 213.2 214.7 216.8 218.1 219.4 221.3 223.9 227.3 232.8 235.4 237.4 243.8 250.6 264.1 280.3 299 314.9 314.3 298.7 281.9 272.4 261.3 247.8 235.6 222.9 212.7 202.9 201.5 196 192.9 192.7 192.5 192.5 192.6 191.9 191.2 193.1 191 190.7 190.9 191 191.2 191.9 199.8 202.9 207.4 216.2 226.3 234.8 237.3 249.1 259.4 250.5 247.5 256.3 254 250.4 249.4 240.9 236.2 230.4 231.1 223.7 218.3 213.2 205.2 199.8 193.9 188.8 186.3 187 186.6 186.2 186.7 187.7 187.8 186.3 186.2 186.8 185.8 186 185 184.6 185.1 185 185.1 185.2 184.7 184.6 184.6 184.2 183.6 183.5 182.7 182.5 182.1 183.2 183 182.7 182.3 182.2 182.6 182.2 182.4 182.4 182.4 182.1 182.2 181.8 181.5 181.5 181.2 180.9 180.2 179.5 180.9 180.2 179.6 180.3 180.6 181.4 181 180.3 179.3 179.9 181.6 179.5 179.6 179.6 180 179.3 178.6 178.8 179.4 180 180.2 180.8 181.3 181.2 181.1 181 191.3 203.4 212.5 218.2 222.7 231.2 241.4 253.6 266.3 276.5 281.2 281.9 282 281.7 279.3 279 277.8 276.9 281 284.3 289.8 298.4 307.2 314.5 321.5 329.2 336.2 343.1 350.7 366.8 379 392.7 406.2 416.3 425.5 433.7 438.6 445.7 450.7 455.5 458.7 464.1 468.2 469.9 471.1 473.2 474 473.5 470.8 467.7 463 456.4 449.5 443 436.3 429.1
213.3 214.3 214.9 216.3 217.3 219 222.1 224.2 227.1 230.9 235 239.9 244.7 247.5 255.7 264.3 276.2 292.2 309.7 322.7 321.3 305.7 291.3 280.7 269.7 255.4 242.6 230.1 216.2 205.8 201.9 195 193.6 193.5 193.3 193.2 193.2 192.5 192.2 191.6 190.3 191 191 191.7 190.9 191.1 198 201.8 207.9 220.5 231 239.7 254.3 263.3 258.5 248.8 243 249.4 244.9 241.2 234.1 230.7 223.2 219.1 216.4 210.7 208.6 203.7 196.2 189.9 186.6 185.5 187.2 186.8 186.5 186.2 186 186.1 186.6 185.5 186.1 186.2 186 185.5 185.2 184.6 184.7 184.7 184.7 185 185 184.3 184.3 184 183.9 183.9 183.6 182.2 182.5 183.2 182.9 182.6 182.3 181.9 182.2 182.2 182.5 182.9 183 182.6 182.7 182.3 181.8 181.2 181.1 180.6 180 179.4 179.7 180.8 180.3 180.8 181 179.4 180.2 180.6 179.9 179.6 178.4 178.9 179.4 179.3 179.2 179.2 179.8 179.8 180.3 181.3 182.2 182.8 182.7 182.6 182.3 189 199.8 210.6 217.2 222.7 229.6 239.6 252.3 265.3 278.1 286.8 289.2 289.5 289.2 288.5 286.7 283.1 281.2 282.3 283.6 287.6 293.7 302.4 311.4 319.5 327.6 336.6 345.1 353.9 360.7 368.6 381.5 395 405.7 415.7 425.9 436.1 443.1 447 451.4 454.8 456.6 460.8 462.8 463.2 463.6 465.6 466.4 466.5 467 465.8 466.2 461.3 458.7 453.7 446.2 435.1
216.2 217.7 218.9 220.7 222.6 223.1 225.5 229.9 235 242 248.5 252 255.3 263.5 272.2 278.7 288.3 304 315.6 321.5 319.6 309.7 297.8 286.5 275.5 260.7 247.5 235.6 220.4 210.5 201.8 195.9 194.4 194.3 194.1 193.9 193.8 193.4 192.9 192.5 191.3 190.7 191.3 190.1 190.5 190.7 195.3 201.8 211.5 221.9 237.2 248.3 264.5 270.2 256.9 243.9 241.4 241.2 236.3 233.6 222.4 214.5 209.1 207.4 203.6 198.7 195.5 189.4 185.6 186.8 187.2 186.8 187.1 186.9 186.7 186.4 186.3 186.1 185.9 186.1 185.9 185.3 185.2 185.4 185.1 184.8 184.4 184.3 184.2 184.5 184.4 184.7 183.8 183.6 183.6 184.1 184 183.7 183.4 182.7 182.9 182.5 182.2 181.9 181.8 182.2 183.5 185.4 187 185.6 184.5 183.6 183.1 182.5 181 180.6 180 179.9 180.2 181 180.5 181.1 180.8 180.2 181.5 181.7 180.2 180.1 178.5 178.6 179 179.4 179.6 179.7 179.2 182.4 182.6 183.4 184.2 184.6 184.1 183.9 188.3 198.3 208.4 215.6 221.5 228.7 237.1 249.7 263.5 275.5 286.4 294.6 296.9 296.2 295.2 293.2 290.7 289.5 286.1 285.6 286.3 290.4 297.5 305.3 313.4 322.2 333.4 341.3 352.7 362.6 370 376.1 381.2 394.4 406.1 414.7 424.7 434.2 440.3 445.2 449.4 451.9 453.6 455.4 455.6 455.1 454.6 455.6 456.7 457.1 457.4 460.1 460.7 461.4 462.8 457.8 450.4 437.7
220.2 221.7 223.1 226 227.6 229.3 233.6 240.6 249.4 256.8 264.8 270.3 273.5 281.1 287.1 293.4 297 306.3 312.1 313.2 307.5 300.3 290.8 282 270.4 256.5 245.1 235.2 222.6 213.5 203.7 196.6 194.8 194.6 194.4 194.4 194.3 194 193.6 193.2 192.4 191.6 190.7 190.6 190.3 190.4 193.1 201.5 212.7 223.1 240.3 252 261.1 255 247.4 237.4 237.7 234.9 225.9 222.9 209.5 200.5 195.8 192 187.7 188.4 186.1 188 187.7 187.2 186.7 186.9 187.4 187.1 186.9 186.6 186.5 186.3 186 185.9 185.9 185.6 185.4 185.5 185.1 184.4 184.1 183.9 183.9 184.6 184.6 183.8 183.8 183.7 184.1 183.7 184.1 184 183.6 183.2 182.8 182.7 182.7 182 181 186.1 188.3 189.3 189.1 188.1 187.8 186.6 184.5 182 181 181 180.5 180.6 180.9 181.8 181.7 181.5 180.9 180.4 180.6 181.2 180.4 179.9 179.5 179.1 179.2 179.6 179.8 180.3 181.5 184.1 185.2 185.7 186.3 186.6 186.8 189.7 197 206.1 213.7 220 226.1 233.5 244.7 258 271.5 282.1 292.1 300 302.2 301 300 297.7 295.6 293.8 291.1 290.6 291.7 293.8 301.8 309.5 317.3 328 339.8 349.6 360.5 371.2 379.4 384.7 390.3 395.2 405.7 414.2 422.9 430.8 436.8 441.6 444.8 446.1 446.2 445.1 444 443.3 442.6 442.9 443.5 443.4 444.7 447.4 450.8 454.1 456.2 451.3 440.4 425.2
224.2 226.2 227.4 230.8 234.8 238.5 244 252.4 263 273.1 281.4 288.2 292.1 295.6 299.9 301.9 302.2 302.2 302.4 298.9 292.9 286.3 277.3 268.2 256.3 244.5 236.9 229.1 221.6 214.1 203.7 196.6 195.2 194.9 194.9 195.1 194.9 194.5 193.9 193.9 193.1 192.3 191.3 190.3 189.8 190.8 193.4 199.9 213.7 226.3 241.9 252.5 253.9 242.2 242.5 235 232.2 231.4 219.5 216.4 203.5 192.5 187.7 187.5 188.4 187.8 187.4 187.9 187.6 187.2 186.8 186.6 186.8 187.3 187.1 186.9 186.7 186.5 186.1 186 185.9 185.8 185.4 185.4 184.5 184.4 184.3 184.1 184.3 184.4 184.5 184.4 184 183.9 183.6 183.3 184 184.2 184.2 184.1 183.9 183 182.7 183.7 189.9 193.8 194 191.7 193.5 192.3 191.1 189.8 186.6 183.7 181 181.2 181.5 182.6 183.4 183.2 183.3 182.9 182.1 181.6 181.9 182.2 181 180.7 180.4 180.1 179.8 179.9 180.5 181.1 182.5 184.4 186.3 188 188.6 189.6 192.6 197.3 205.4 212.2 217.8 224.4 231.7 240.7 253.9 266.9 279.6 289.9 298.9 303.4 306.5 306.5 304.1 300.5 298.8 297 295.2 294.9 297.1 298.3 305.9 313.3 321.3 332.2 346.7 357 368.8 378.6 387.1 395.2 400.5 403.8 407.1 414.5 420.7 428.9 434.8 437.7 438.2 436.9 433.5 431 427.9 427 426.2 426.5 427.2 428.8 431.3 433.4 437 437.8 436.6 432.3 424.6 409.5
230.4 233 235.9 239.1 244.2 249.5 256.9 266.5 280 293.7 302.1 302.1 304.9 305.3 307.5 307.8 303.6 298.5 293.7 286.3 278.2 271.1 262.4 252.6 243.7 236 229.6 224.5 218.5 211.9 202.2 197.7 197.1 196.5 195.8 195.9 195.4 194.7 194.5 194.5 193.8 193 191.9 190.9 189.9 191.5 191.8 198.7 214.7 228.5 243.4 251.9 245.5 233.4 236 232.2 223.6 222.2 212.2 201.5 192.7 187.7 187.5 187.6 187 187.9 187.7 187 187.8 187.5 187.3 187 187 186.9 187.3 187.1 186.9 186.6 186.3 186.2 185.3 185.7 185 185.1 184.8 184.7 184.5 184.5 184.4 184.3 184.4 184.3 184.4 184.2 183.9 183.5 183.9 184.2 184.2 184.6 184.1 185.7 191.6 196.1 198.5 201.9 202.5 200.9 204.4 202.6 198.9 195.7 192.8 187.7 185.4 183.6 183.5 184.7 185.7 186.5 186.4 186 185.2 184.8 184.1 183.7 183.5 183.4 182.6 182.6 182.5 181.8 181.7 183.1 185.2 187.8 189.4 190.3 190.5 193.8 201 206.8 213.4 218.4 223.4 230.8 240.5 252.1 264.6 276.6 286.8 296.6 304.4 308.2 310.4 311.4 310.4 305.2 302.5 301.1 299.7 301.2 303.1 304 308.8 317.1 325.8 338.2 353.3 365.4 376.1 388.4 396.7 403.8 407.7 411.5 413.8 416.4 422.6 427.6 430.6 432 429.6 425.2 420.1 415.3 410.8 408.2 407.5 408.5 410.9 412.1 415.3 417.7 419.7 422 420.8 415.2 406.7 395.1
238.7 242 245.8 251.4 256.9 264.7 277.1 290 303.2 313.7 313.5 313.1 312.4 313 312.1 305.5 298.1 292.3 284 274.9 265.7 258.1 249.9 242.1 236.1 230.3 225.3 220.3 215.1 208.7 201.6 198.6 198 197.5 196.9 196.2 195.4 195.1 195.2 195.1 194.4 193.6 192.6 191.3 190.3 189.7 191.7 197.2 214.9 230.6 237.7 244.8 240.6 225.3 226.8 222 208.8 203.2 200.6 194.9 188.1 187.5 189 187.6 187.4 187.5 188 187.3 188.2 188 187.7 187.5 187.4 187.3 187.3 187.3 187 186.7 186 185.3 185.4 185.6 185.4 185.2 185.1 185 184.8 184.7 184.6 184.7 184.5 184.3 185 184.4 183.7 183.5 183.4 183.4 187.1 189.9 196.4 200.9 205.1 207.5 204.9 204.2 210.9 211.4 210.4 209.8 207.9 206.7 202.4 196.1 191.3 190.9 190.5 188.3 187.6 188.5 189.2 189.2 188.8 188.4 187.9 187.1 186.6 186.5 185.2 185.5 186.1 187.4 187.4 188.3 190.4 192.1 194.3 195 194.6 198.7 206.8 215.6 222 225.4 230.8 238.5 248.2 258.9 270.9 282.5 293 302.2 309.1 312.5 313.8 314 313.2 309 305.9 304.9 303.3 304.8 307.8 310 313.6 321.1 330.2 341.8 358.2 372.1 384.4 396.2 402.4 408.8 414.2 417.8 419.2 421.1 423.6 425.6 423.8 421.9 418 412 406.2 400.1 395.4 391.5 388.4 389.2 389.9 391.9 396.8 401.4 404.6 407.2 405.4 399.8 390.1 377.4
249.2 254.3 258.6 264.6 274.6 286.7 300.7 312.3 319.2 324.7 321.5 319.1 314.7 311.8 307.3 301.4 293.1 286.8 277 270.8 264.9 258.2 249 242.4 235.4 228.5 223.2 217.4 213.5 206.5 201.9 198.8 198.4 197.8 197.3 196.4 195.6 195.6 195.7 195.5 194.8 194.1 192.9 191.7 191 190.5 189.2 195.6 210.1 228.4 232.5 242.2 230 220.3 216.6 208.2 201.4 198.7 194.6 188.1 187.3 189.4 188.5 187.1 187.3 187.4 187.8 188.8 188.2 188.3 188.2 187.9 187.7 187.7 187.6 187.2 187 186.7 186.3 185.1 185.3 185.4 185.6 185.5 185.4 185.2 185.1 185 185 185 184.8 184.4 184.6 184.3 183.5 184.8 184.6 191.5 200.8 201.8 204.2 207.9 212.5 215.4 213.7 213.4 212.8 213.2 212.9 212.2 213.1 212.2 209.5 204.9 202.1 199.6 198.7 195.9 192.7 190.5 191.8 192.7 192.2 192 191.6 190.5 191.4 190.4 189.8 190.7 191.6 193.8 194.4 195 197.6 199.6 199.4 200.2 198.8 206.4 214.4 223.1 230.7 234.2 239.4 246.8 255.7 265 276.1 287.7 298.6 307.6 314.5 316.6 316.7 315.8 314.8 312.4 309.8 308.4 308 309 313.1 317.6 318.3 325.9 334.6 346.7 361.3 376.4 389.9 400.7 408.9 416.1 419.3 421.4 423 426.4 427.2 424.3 418.4 411.9 406.9 402.5 396.7 389.3 382 376.7 374.6 372.1 371.3 372.2 376.5 381 384.9 389.2 387.5 381.9 371.5 360.4
261.7 266.9 272.4 283.5 297.2 310.9 318 326.1 333.3 335.3 326.9 320.7 316 311.1 304.7 297.1 289.7 281.2 281.1 277.3 271.8 265.7 256.1 246.9 236.8 228.9 222.8 216.6 211.5 206.4 202.1 199.1 198.7 198.2 197.6 196.7 196.1 195.7 195.7 195.6 194.9 194.2 193.1 191.8 191.2 190.9 190 191.4 201.1 220.2 224 228.7 220.8 212.7 206 201.7 195 192.5 188.9 187.4 187.5 187.8 188.1 187.7 187.9 188 188.2 189.4 188.6 187.7 187.9 188 188 187.5 187 187.1 187 186.7 186.3 185.4 185.2 185.3 185.6 185.8 185.2 185.2 185.3 185.3 185.2 184.9 184.5 184.4 183.6 185.5 187 189.3 192.2 203.3 208.6 209.2 212.9 215.4 221.6 226.1 222.9 219.9 219.3 219.4 217.2 215.3 216.4 216.9 216.4 212.1 208.8 206.5 205.3 200.7 198.1 195.9 197.5 198.8 198.7 198 197.3 197 196.3 196.1 195.8 196.9 197.2 200.5 202.1 203.2 206.3 208.7 205.5 201.7 204.4 215.6 223.1 230.4 237.1 243.8 249.3 255.6 263.1 272.1 282.3 293.9 303.5 312.5 319.4 320.5 320.4 319.8 317.1 316.3 315.1 313.9 313.2 316.6 320.8 324 324.6 331.7 340.2 351.4 366 380.1 396 406.7 415.2 421 423.5 425.1 427.4 430.1 431.6 428.7 423.5 417.8 411.9 405.1 398.4 393 383.3 375.3 369.5 363.8 361.1 354.5 355.8 359.9 361.7 363.9 362.4 359 352.2 342.5
279.6 289.2 296.6 306.6 318 326.5 333.7 339.8 341.2 337.3 331.1 321 317.9 312.7 302.4 294.5 288.6 288.1 288.5 285.7 279.8 271.2 260.1 249.6 239.9 228.3 221 216.1 211.1 206.3 201.7 199.4 198.9 198.5 197.9 197.2 196.6 195.9 195.8 193.6 193.6 193.7 193.2 192.2 191.7 191.2 190.1 189.9 191.6 202.9 209.3 213.8 212.1 202.1 202.3 198.6 190 188.1 188 187.7 188 188 188.5 187.7 188.5 188.6 188.5 189.3 188.3 188 188.1 188.1 187.5 187 186.8 186.9 187 186.7 186.2 185.8 185.1 185.2 185.7 185.3 186 185.1 184.9 185.2 184.4 184.2 187.6 190.2 191.7 194.8 197.7 197.3 202.1 210.2 215.6 220 222.7 227.5 236.4 240.7 234.2 230.4 226.7 224.7 222 219 219 219.9 220.1 217.1 213.9 212.2 208.9 203.8 201.1 202.7 202.9 203.4 204.4 204.7 204.1 202.5 200.3 200.9 201.1 202 202.2 206.1 208.2 211.3 214.5 215.8 211.3 204.4 211.8 222 229.1 237.5 243.9 251.1 257.7 263.8 271 279.9 289.3 299.4 307.6 315.7 322.1 323.3 323.7 322.5 322.1 321.5 322.9 322.2 320 321.9 325.7 330.2 333.8 338.6 345.4 356.9 370.7 385.3 401.5 412.5 421.7 425 427.6 430.3 433 436 435 431.9 429.3 424.4 419.2 414.8 409 402.2 396.3 390.3 382 373.3 363.9 354.5 343.7 341.8 341.7 340.9 340 337.1 329.7 321.8
302.4 310.9 321.5 329.2 337.2 341.1 344.2 345.2 343.2 339.2 331.3 324.2 318.1 312 302.6 296.3 293.7 293.5 294.4 292 285.7 274.8 260.7 247.5 237.6 226.4 218.5 213.3 208.9 203.3 201.1 200.2 199.2 198.8 198.1 196.4 196.2 195.3 194.2 193 192.2 192.3 192.3 192 190.7 191.3 191 190.6 190 190.5 194.8 199.5 200 190.5 190.1 188.4 188 190.9 188.8 187.5 188.6 188.9 189.3 188.4 188.5 188.4 188.8 188.9 188.6 188.3 188.1 187.6 187.2 187 186.7 186.8 186.9 186.7 186.2 185.7 185.1 185.1 185.7 185.3 186.8 186.5 186.4 187.7 189.1 192.6 196.7 198.7 199 200.3 203.9 205.7 213.4 218.8 225.6 231.9 235.2 244.8 252.3 252.3 245.2 239.8 234.4 229.9 226.2 223.6 222.2 222.5 222.1 219.8 216.5 213.1 210.2 205.9 205.1 207.6 207.6 208 209.1 209.5 209.3 206.7 204 205.5 206.1 207.3 207.9 210.5 214 217.4 220.3 221.6 221 207 217.4 227.4 234.8 244.5 252 260.5 266.5 272.3 279.1 287.9 297.5 305.6 312.4 319 325.7 327.4 327.8 328.2 327.1 330.5 330 327.3 324.9 326.6 331.6 337.6 340.9 343.2 351.7 363.6 375.6 389 406 418.6 426.6 430.8 433.2 435.6 439.3 440.5 439 436.2 433.9 432.9 429.6 425.2 419.6 415.2 410.4 404.5 396.9 389.1 378.9 365.7 354.1 342.2 332.4 327.7 324.3 317.6 312.6 307.2
321.1 330.4 340.2 348.1 351.4 351.3 350.2 348.5 344 337.9 330.4 326.6 319.6 314.6 308.6 303.4 300 299.3 299.1 295.3 286 271.8 256.5 242.6 229.9 223.3 217.2 211.7 205.5 202.8 201.7 200 199.5 199 195.2 194.7 194.2 194.1 194 193.5 192.9 192.4 192 191.8 190.7 191.1 190.7 190.3 189.6 189.2 189.4 188.8 188.7 190.7 189.1 188.1 189.5 188.5 188.6 188.6 188.3 191.7 188.4 187.7 188.1 188.5 189.2 187.4 188.2 188.3 188.1 187.9 187.6 187.4 187.1 186.8 186.7 186.6 186.2 185.7 185.2 185.2 185.6 192 192.8 192.6 192.4 195.2 200.5 200.6 201.2 203.2 205.8 207.3 212.1 215.5 222.8 232 237 241.3 247.5 255.1 262.2 264.6 256.5 248.5 242.6 237.3 232.6 228.4 226.7 225.4 224.8 223.3 217.4 212.6 210.2 209.6 208.6 209.1 209.7 212.2 212.6 212.6 211 209.4 207.8 208.9 212.1 213.7 215.5 217 220.6 223.6 225.6 227.3 227.2 218.6 219.8 231.2 241.3 251.3 261.8 269.2 275.2 282.3 290.9 299.5 306.4 312.6 317.9 323.1 329.5 331.8 332 332.9 335.8 335 336.1 333 330.1 332.9 338.5 344.4 348.6 350.6 359.7 370.9 382.3 396.8 411.1 423.4 431.8 437.6 442.4 445.1 445.4 444.8 443.6 441.9 440.8 440.4 438.6 435.7 430.9 426.6 421.5 416 410 402.8 393.7 383.2 369.4 359.1 345.5 331.4 323.3 318.7 314.5 309.1
330.2 340.2 349.1 355.7 360.5 358.9 354 348.6 343.2 336.3 329.9 326.3 324.4 320.1 313 308 304 300.5 299.6 293.5 281.4 265.2 249.6 236 225.6 217.9 214.4 209.5 204.4 202.9 201.3 199.9 198.4 195.3 195.1 195.1 194.6 194 193.8 193.3 192.8 192.5 191.9 191.5 191 190.8 190.5 190.1 189.5 189.3 189.8 189.9 189.4 189.5 189.5 190 188.4 189.1 190.7 193.4 193.6 190.8 188.2 188.3 188.3 188.8 188.3 188.5 188 188.4 188.3 188.3 188.1 187.9 187.6 187.3 187 186.6 186 185.9 186.3 186.2 193.1 195.2 196.7 197 198.9 202 203.7 205.8 207.8 211.6 215.4 218.6 222.3 225.8 235.8 243.5 249.5 256 262.6 266.1 271.3 276.1 268.2 257.8 251.2 245.8 240.2 234.6 231.3 229.6 227.4 224.5 217.9 213.5 212.8 212.3 210.9 210.8 212.2 213.7 214.9 214.5 213.1 211.8 210.6 212.5 217.2 220.3 221.7 224.3 227.2 228.6 229.7 231.3 231.2 223.7 222.9 236.8 247 257.2 270.5 277.9 284.4 292.3 300.7 308.3 313.6 317.8 322.8 328 333.6 337.4 340.2 341.6 341.6 341.2 342.3 338.4 335.8 337.7 345.7 352.7 356.8 361.3 368.5 378.3 388 402.6 417.6 430.1 439.4 445.3 448.3 449.5 449.7 450.1 449.3 448.4 448.1 447.7 447.4 445.5 442 437.2 431.4 424.5 418 410.5 402 391.3 380.4 370.3 358.8 342.7 332.4 325.8 319.7 314.3
334.5 346.1 354.3 361.8 364.9 361.6 354.3 346.6 339.7 334.5 330.9 330 327.6 324.3 318.4 310.4 304.9 300.8 297.2 287.4 271.7 256.8 240.5 229.6 222.4 214.7 211 207.4 204.7 202.6 200.8 198.6 195.9 195.8 195.4 195.2 194.7 194.2 193.7 193.3 192.8 192.5 192 191.4 190.9 190.6 190.2 189.8 189.7 189.5 189.6 190.2 189.8 189.5 190.3 190.3 192 190.9 191 189.1 189.3 188.7 188.5 188.7 188.9 189 188.3 188.6 188.1 188.4 188.3 188.3 188.2 188.1 187.9 187.6 187.3 186.7 185.9 186.8 187.4 193.1 196.1 198.7 200.4 203.6 207 207.2 213.2 216.1 218.9 222.6 226.1 229.8 235.5 238.6 245.4 253.8 261.9 272.2 275.4 278.1 281.6 285.5 278.8 266.6 259 252.4 246.3 240.2 235.3 231.4 228.3 222.8 217.9 215.9 214.9 214 213.5 213.2 213.9 215 215.6 216.5 216.6 215.5 215.6 217.5 222.5 224.5 227.4 229.9 232.3 233.9 233.4 234.7 234.6 230.2 225.8 240.9 253 265.3 278.2 286.2 295.1 302.4 310.2 315.6 320.6 326.1 330.8 336 342.1 346 347.1 347.8 348.3 349 348 346.7 344.5 344.4 352.9 358.2 364.5 369.2 374.7 383.9 397.6 410.9 424.3 436.1 443.9 449.7 452.7 455.8 456.8 456.8 455.9 455.8 456.3 457 456.6 455 451.5 446.5 439.9 433 424.2 416 405.5 394.3 383.1 373.8 363.1 349.8 338.2 331.1 324.3 319.5
333.6 346 356.4 361.9 362.5 358.2 353.4 346.9 341.1 338.2 333.9 331.4 330 327.3 318.3 308.7 301.4 296.5 292.9 280.6 262.6 248.1 232.2 222.5 215.7 211 207.5 206.3 203.4 200.8 199.2 196.4 196.2 197.1 196.4 195.3 195.2 195.1 194.6 193.3 192.9 192.6 192 192 191.9 191.3 190.6 193.1 193.2 193.2 192.7 190.6 190.1 190.4 191.7 192.6 193.3 190.2 189.7 188.6 187.5 188.9 188.7 189 189.2 189.4 188.5 188.6 188.4 188.3 188.3 188.3 188.2 188.3 187.9 187.6 187.4 186.8 186.7 186.7 193.5 197.8 198.9 202.8 206.2 209.2 214.8 215.6 222.3 227.6 231.7 235 238.2 243 246.9 251.1 259.6 268.1 274.2 282.7 285.3 289.2 291.8 295 291.8 278.9 264.7 256.4 249.9 242.5 237.6 232.1 227.7 222.1 218.9 219.4 218.7 219 219 219.1 218.5 217.1 217.5 218.4 219.2 219 221.4 224.2 226.3 228.9 232.4 235 237.4 239.7 238.1 238.1 240 237.5 224.3 243.9 259 273.1 284.7 294.9 305.3 314.2 321.5 326.2 331.6 334.8 340.6 344.7 349.1 353.2 357.6 356.9 357 359.2 357 353.5 351.9 351.8 358 366 374.8 379.9 381.9 393 406.2 419.8 431.3 442.4 450.5 456.9 461 463.3 465.2 463.7 463 464.2 465.8 466.9 465.7 462.8 459.1 454.1 445.4 437.1 427 416.2 405 393.3 381.1 372.8 362 352.4 339.9 332.9 328.2 320.9
333.4 346.9 353.3 360.1 361 359.8 355.2 349.9 344.7 339.6 335.9 331.5 329.2 324.6 315.4 305.2 295.1 287 281.9 269.3 253.4 239.9 225.6 218.4 212.9 208.9 205.4 204.4 201.6 200 198.1 197 197 197 196.3 195.8 194.7 194.5 194.3 193.4 193 193.1 193.5 193.9 190.9 190.4 190.5 194.3 194.5 194.6 193.4 191.7 190.3 190.5 190.8 193.5 188.4 188.9 192.4 190.7 188.7 188.4 189 189.3 189.6 188.7 189 188.1 188.3 188.6 188.3 188.3 188.3 188.5 187.7 187.6 187 186.9 187.1 192.8 200 201.4 202.3 208.2 213.9 216.9 218.7 225.1 231.8 238 244.3 251 255.3 258.2 260 267.7 278.4 285.4 287.9 293.1 296.2 299.8 300.8 302.9 300.1 285.4 269.9 261.3 252.1 244.3 239.1 234.1 227.1 222.9 224 223.7 225.5 226.3 226.5 226.3 225.1 223 221.9 222 222.6 223.3 225.9 228.9 231.4 234.5 237.4 239.9 242.5 245 244 245.3 246.1 243.6 231.9 244.6 262.3 277 289.3 301.8 313.8 322.8 333.6 339.1 339.1 343.6 349.9 353.2 359.2 366.7 368.4 368.8 370 366.2 361.8 360.3 359.3 358.9 364.5 375.8 383.8 389 390.9 403.3 415.4 426.5 438 449.4 457.5 464.1 468.1 471.5 471.4 470.1 471.8 473.7 474.7 475.1 472.6 468.4 463 455.5 446.1 435.3 424.2 413.3 401.9 389.8 377.3 367.7 357.7 347.8 338 331 327.5 320.1
333.1 345.2 355.5 361.1 362.5 359.5 354.5 348.2 340.7 334.7 329.6 325.7 322.4 318.3 310.9 300.8 286.8 275.3 266.8 254.7 241.3 230.2 223.1 215.3 211.3 207.6 203.5 202.2 199.6 198.6 198.1 198.3 199 199.4 198.7 197.9 197.5 197.7 196.9 195.4 194.7 195.5 196.1 192.3 189.8 189.6 191.2 195.7 196 196.3 195.4 195.9 189.8 190.2 190.6 190.4 188.4 191.4 194.6 192 191.1 190.8 189.3 189.6 189.9 188.6 188.5 188.5 188.8 188.9 188.6 188.8 188.9 189.1 189 188.3 188.3 188.9 196.3 199.2 202 204.9 209.6 215.6 221 225.9 224.1 236.3 245.4 256.2 265.3 274.5 275.7 279.3 282.6 287.8 294.4 300.8 302 304.1 308 310.2 308.8 306.9 302.3 287.3 273.7 264.4 255.6 248.1 242.4 236 229.6 228.3 228.7 230.7 232.7 233.5 234 234.1 233.4 231.1 229.4 228.6 228.8 229 231.1 234.1 237.7 241.5 245.3 247.5 249.5 252 253.5 253.7 254.1 251.1 242 243 264.8 280.5 294.4 307.6 318.3 327.8 337.8 341.6 347.4 353.9 360.9 366 370.3 373.3 379.6 381.1 376.2 374.1 376.1 372 367.8 367 371.6 382.6 394.6 403.5 407.7 409.3 423.1 432.9 444.8 455.5 463.9 470.5 474.2 473.6 475.1 476.3 478.6 480.3 480.3 478.6 474.3 468.6 461.4 451.2 440.8 429.5 418.7 408.5 396.9 384.3 371.1 360 350.2 342.5 333.3 326.7 321.4 311.6
334.8 346.5 355.6 359.6 360.3 356 350.7 342.3 334.5 325.5 317.6 314.4 311.3 308.2 304.4 293.2 276.9 264.2 251.8 239.9 231.6 223 217.3 213.3 209.8 206.1 202.7 199.9 199 198.6 198.8 199.8 199.6 197 198.6 198.6 198.6 198.4 198.1 197.3 196.5 196.9 197.1 195.8 192.4 189.6 189.6 196.4 197.2 197 196.3 197.1 189.9 189.2 188.8 189.5 189.6 189.5 191.3 194.8 194.5 193.6 190.6 189.9 189.5 187.9 189.6 189.1 189.6 189.4 189.5 190.5 190.2 190.1 190.1 190.1 190.4 193.4 199.7 203.2 208 211.2 220.3 228 232.7 234.2 241.4 259.9 264.2 278.2 290.3 297.8 295.7 302.3 308.4 310.5 314.8 317.3 317.9 317.3 317.6 319.2 318.2 312.2 302.4 287.5 275.3 265.3 256.7 249.9 243.9 238 233 233.1 233.6 237.9 240.1 240.9 241.5 241.9 241.7 239.3 238.6 237.9 237.3 235.8 237.8 240.2 244.1 249.4 252.7 258.5 261.4 263.1 262 262.9 261.5 257.7 251.4 238.2 258 277.1 293.9 306.6 320 330.4 336.7 341.9 349.7 358.1 365 372.1 379.7 384.9 385.8 386 390.8 389.7 385.7 381.3 378.1 377.4 382 392.5 405.4 415.4 421.7 424.6 430.3 440.4 449.9 460.8 468.3 471.9 474.4 476.4 478.2 480.6 482.2 483.5 480.7 476.7 470.9 464.5 454.8 442.7 431.2 420.3 409.7 399.2 387.6 374.7 361.8 351.5 343 334.7 326.4 318.5 307.1 297.9
335.3 345.1 351.7 356.4 355.9 350.5 346.2 337.9 329.7 318.1 304.8 299.8 300.1 296.3 292.4 281.5 268.2 255 241.4 232.7 225.2 218.8 212.7 210.2 207.2 204.8 202 199.4 199.7 199.6 200.8 200.7 200 199.6 199.5 198.7 199.6 200.8 201.8 198.1 197.8 197.4 197.4 196.4 195.5 194.7 194.4 196.5 197.2 196.9 196.3 197 193.7 189.3 188.6 188.6 189.9 189.8 189.9 190.7 191.9 194.1 194.9 194.8 191 187.9 189.9 190.1 189.4 189.8 190.3 191.9 191.7 191.3 191.2 192.6 195.8 200.3 204 210.2 217.9 229.3 235.6 246 246.1 245.6 262.4 278.8 289.7 303.8 313.9 314.2 321.8 328.3 330 334.3 335.1 331.6 332.2 330.4 331.9 332.9 327.1 315.7 304.1 289.6 276.2 265.8 258.4 252 245.7 240 236.4 238 240.6 244.3 248.9 249.8 249 249.3 249.6 249.6 248.7 247.3 244.1 242 244.5 246.6 250.1 256.2 263.8 269.8 272.8 271.5 271.3 270.7 268.4 265.7 261.5 251.1 246.3 262.4 282.7 300.1 313.8 326.5 335.6 343 351.3 362 372.6 382.8 388.3 393.4 399.3 403.7 406.5 403.3 397.5 396.3 393 390.6 397.2 403 415 426.1 433.2 437 438.3 447.1 454.2 462.1 467.7 471.4 474.1 476.8 479.4 481.3 483.4 482.3 476.6 470.8 464.2 455.3 443.4 431.1 419.1 409.9 399.1 387.2 376.5 365.1 353.9 343.8 335.4 325.1 314.2 304.4 292.8 292.3
335.1 342.8 347.6 350 351 349.6 344.6 337.3 327 314.3 301.4 291.5 285.6 282.6 277.5 268.4 258.3 243.2 235.2 227 222.1 215.8 210.6 207.3 205 203.7 200.3 200.3 199.9 201.1 200.6 200.8 200.3 199.8 200.9 204.3 205.9 207.7 208.7 206.5 204 201.3 199.8 199.2 197.7 197.4 197.5 197 197.2 196.7 195.6 195.9 191.8 189.3 188.7 189.3 190.2 190.1 190 190.6 192.8 197 198.9 197.2 189.5 190.1 190.2 190.5 191.6 191.4 192.8 193.1 192.8 192.6 193.1 196.1 201.1 205.4 207.9 218.1 226.2 241 256 272.6 265.4 261.7 286.9 304.7 315.5 323.8 324.8 331.5 341.9 346.1 346.5 348 348.2 347.7 346.4 345.9 346.8 341.7 332.5 320.7 308 294.4 278.6 269.2 261.6 254.5 247.2 243 243.1 244.6 247.7 250.7 254.7 257.9 258.2 258.5 257.7 256.9 255.8 254.1 250.5 247.6 250 253.2 258.9 266.2 274.1 280.3 284.2 281.1 280.7 277.6 275.1 273.2 269.9 266.2 254.2 249.9 266.4 287.8 304.4 316.2 328.5 340.1 349.5 362 374.5 385.6 394.4 402 409.4 412.8 415.2 415.8 413.9 409.2 407.2 406.5 410.3 417.2 426 436.3 442.6 446.3 446.2 452.2 459.6 465.5 470.9 472.9 475.2 477.9 479.9 479.7 479.5 477.2 470.7 463.2 453.8 443.4 430.7 416.8 407 397.4 386.7 375.8 365.8 355.2 346.1 337.2 324.4 311.1 299.9 299.9 301 300.1
330 339 342.9 344.3 344.3 341.6 339.4 332 323.8 313.1 301.6 290.6 278.4 270.8 265 256.7 248.4 238.9 230.5 225 218.8 213.2 208.9 205.2 203.6 202.9 201.1 200.6 201.4 202 200.9 200.7 200.7 200.5 204.4 209.4 212.2 214 214.1 214.3 213.2 212.1 208.5 205 199.6 199.2 198.5 197.9 194.4 194.4 192.4 190.3 189.9 189.2 188.7 190.5 190.5 190.4 190.3 190.5 192.6 195 198.2 191.9 189.7 189.4 190.4 190.9 192.1 193.3 193.8 194.3 194.9 194.4 196.1 200.4 205.4 207.5 213 225.7 232.7 250.4 274 279.6 256.1 289.7 307.8 317.8 325.9 339.5 338 347.2 356.5 361 362.7 364.2 364.6 365.4 363.7 360.9 355.9 348.2 335.4 322.7 311.2 298 283.5 270.9 262.9 255.4 250.9 249.2 249.7 251.2 254.3 257.5 261.7 264.6 267.1 267.2 267 265.9 262.4 259.9 256.5 253.8 256.2 261 270.4 277.9 286.3 292.2 295.7 291.1 288.2 285.3 283.6 281.9 278.7 274.9 267.3 256.3 257.2 276.2 294.4 307.2 319.2 331.1 343.3 358.2 374.1 386.6 396.7 405.3 414.5 421.9 426.6 428.7 427.6 424.1 424 423.6 424.4 431.3 437.6 446 452.9 456.5 455.4 459.1 465.8 471.3 474.3 475.9 476.2 477.2 476.2 474.5 472.8 469 462.5 453.1 442.5 432.2 417.8 404.2 393.9 383.5 373.8 364.6 355.2 346.4 336.9 324 311 305 309.6 310.5 307.9 306.2
325.4 329.7 332.6 334.7 335 334.1 334.6 328.9 321.2 311.7 300.9 289 277.1 265.4 256.7 247.8 241.1 233.3 227.2 222.3 217.4 212 207.3 203.5 202.6 202.3 201.5 201.3 202.5 203.4 202.1 202 202.9 203.7 208 214.6 219 221.6 220.6 222.4 221.8 220.2 214.8 210.4 203.6 200.1 199.3 199.7 197.2 194.3 193.8 193.6 191.9 189.6 188.6 189 190.5 190.4 190.4 190.4 190 190.6 191 189.9 190.5 190.6 189.7 193 200.5 201.7 195 196 196.5 196.2 201.5 204.9 208.2 211.7 218.8 226.9 239 260.2 274 259.8 268.1 301.8 331.3 334.5 346.8 354.7 364.5 366.6 371.6 374.7 378.4 379 379.2 377.5 374.8 369.9 362.6 351.8 338.9 326.3 310.6 299.8 288.6 275.6 266.9 260 257.5 256.6 258.7 258.2 260.4 264.1 269.1 273 274.8 275.5 275.1 272.6 268.1 265.6 262.2 261 262.9 268.8 277.2 287.7 298.1 303 304.8 302.8 302.6 297.5 293.1 289.7 286.3 282.6 275.9 265.9 257.2 268 283.6 298.4 309.4 322.2 337.2 353.5 370 384.4 395.2 406.4 416.8 426.1 434.7 440.5 441.4 439.2 438.7 437 439.2 443.1 449.7 455.2 459.8 462.2 463.3 465.6 469.7 471.8 473.5 473.6 473 471.2 468.8 466.3 461.9 457.3 450.9 442.2 432.2 419.6 405.1 392.2 381.1 368.9 359.1 350.7 341.3 332.4 321.4 313.2 316.8 319.1 319.7 320.3 316.3 314
318.1 319.7 322 322.5 323.4 325.5 330.2 325.9 319.3 308.7 297.2 284.4 272.3 261.6 252.4 243.2 235.4 229.5 224.2 220.3 216.6 211.4 206.5 203 202.5 202.2 202.1 203.2 204.4 204.7 204.7 204.4 204.9 208.9 215.2 221.4 229.4 231.8 230.2 230.9 230.9 228.2 223 217.5 208.7 203.7 201.5 201 199.6 197.6 197 196.8 196.7 193.3 188.5 189.2 189.8 190.2 190.4 190.6 190 191.7 190.5 189.4 190.1 190.3 189.7 198.3 202.1 203 197 198 198.3 198.5 204.8 206.8 211.3 218.8 227 236.4 251.5 261.8 261.2 264.1 287.7 301.8 332 355.5 370 378.7 385.3 387.4 388.4 389.7 391.9 391.9 388.6 387.5 383 376.9 366.5 353.3 341.4 329.6 313.9 303.3 293.4 281.1 271.1 265.8 264.6 263.3 265.2 266.6 267 272.9 278.9 280.6 281.6 282.3 279.7 276 273.2 271.2 269.5 268.2 271.5 277.9 286.9 298.4 308.1 311.8 312.6 313.5 312.9 307.6 302.2 297.1 293.3 289.7 284.1 274.2 263.8 262.9 276.8 290.5 301.8 315.8 330.7 346 362.7 378.3 392.7 404.7 416.9 430.4 442.2 449 452.5 453.1 451.4 452.4 454 458.5 462.6 463.5 466.1 468.1 469.7 470.3 471.5 470.2 469.2 468.3 465.9 462.6 458.6 455.1 450.1 445.2 438.8 430.6 420.2 408.6 395.2 382 369.2 356.1 343.2 333.8 327.8 329.6 328.7 333.6 334.6 334.7 334.5 331.6 327.3 323.6
307 307 307.2 309.6 310.5 312.3 315.5 319.2 315.5 304 291.5 280.3 269.4 260.2 249.1 239.6 234.3 228.2 222.3 219.8 215.2 211 205.7 203.1 202.3 201.8 204.4 205.1 205.5 204.9 205.4 205.8 210.4 214.9 223.4 232.4 238.6 244.4 241.4 240.4 241.5 240.8 233.8 227.2 218.1 209.7 205.5 204.8 204.3 203 201 200 201 199 189 188.9 189.7 190.2 190.4 190.6 190.8 192.1 190.6 190.8 190.6 189.9 198.2 201.2 202.2 204.5 202.7 198.9 199 202 206 208.9 219.7 231.2 240.2 254.3 263.8 264.1 268 282.9 305.1 325.9 351.6 371.9 384.8 393.3 396.8 402.3 404.6 405.9 411.7 404.7 397.5 394 387.2 378.3 367.5 353.6 341.9 330.2 317.3 307.4 297.5 286.6 277.3 274 273.9 272.7 274.1 275.2 275.9 281.8 285.1 286.8 287.8 288 286.2 282.8 278.9 278 276.7 276.5 278.4 287.1 297.9 308.3 317.7 322.4 323.2 324.4 323 317 311 305.7 300.1 296.5 290.6 281 270.6 264.8 275.2 287 298.3 310.6 326 340.7 356.5 371.5 386.7 400.5 415.8 432.2 445.3 454.1 459.6 464.9 466.4 465.3 467.9 469.4 470.5 472.1 474.7 475.3 476.5 475.9 472.4 467.9 465 461.6 455.8 450.1 446.4 442.2 436 430.3 425 418 408.3 397.2 384 371 357.1 345.9 345.5 351.5 355.4 356.3 353.2 351.3 349.6 347.9 344.6 341.1 338.8 332.1
296.9 294.6 292.8 292 295 296.7 302 307.4 307.5 298.8 288.1 277 267.9 258.3 247.7 237.9 232.1 227 221.7 218.9 215.7 211.6 204.5 203.9 202.6 205.6 205.8 205.7 206.1 206.8 207 210.3 218.9 226.8 232.9 242.1 249.2 251.6 252.1 252.3 253.9 254.2 248.2 237.1 227.6 217.3 211.7 209.6 208.5 208.4 205.8 204.4 200.9 197.9 191.7 189 189.4 190.1 190.4 190.6 190.7 191.3 190.8 189.5 189.8 197 202.6 203.5 204.6 204.8 204.2 203.4 202.3 205 207.5 211.6 228.2 245.9 258.4 271.7 273.9 277.7 279.1 293.9 317.7 341.3 362.7 379.1 392.1 401.6 407 413.7 422.3 428.3 423 413.8 404.7 398 387.6 379.1 369.6 354.1 342.5 330.8 319.6 310.6 301.2 292.4 287.1 284 283.7 282.3 282.7 283.3 284.8 288.8 291.1 295 297.2 296.9 294.6 292.6 287.1 285.5 286.9 286.3 286.1 295.5 307.1 317.4 326.9 332 334.8 335.5 333.3 326.4 319.4 313.5 309 302.6 296.7 287.4 276.4 269 274.3 286.9 298.8 311.6 325.7 340.6 356.1 370.5 383.8 398.1 414.8 431.9 445.5 457.4 466.2 473.5 475.8 475.4 477.1 477.2 478 480.3 481.3 483 482.6 479.1 472.7 466 461.2 456.1 447.8 440.6 434.7 426.9 422.3 415.5 408.7 402.2 396.2 386.4 375.1 361.7 348.8 353.9 364 369.1 371.4 369.9 367.6 364.4 360.1 355.6 351.8 347.9 342 334.1
295.6 291.4 287.9 284.5 280.8 282.6 288.2 293.4 295.2 290.2 282.4 271.9 264.1 253.3 243.5 235.2 229.1 224.4 221 217.8 215.6 212.4 204.9 204.4 203.5 208.7 207.3 207.4 207.3 207.5 207.9 214.2 224.2 234.5 243.5 253 262.3 263 264.6 266.7 269.2 270.7 265.1 248.8 236.4 228.2 218.5 215.2 213.4 212.9 211.8 208 205.4 202.8 198.6 192.9 189.1 189.8 190.4 190.5 190.6 190.7 190.7 190.8 190.1 203.1 203.6 205 206.7 206.7 206 204.8 203.7 208.5 210.3 217.7 240.9 258.8 279 286.6 286.6 275.9 288.8 309.4 333 351.5 364.9 382.3 395.9 409 418.2 431 443.1 445.1 432.3 420.2 411 399 387.1 377.9 361.7 350.5 339.3 331.3 322.7 313.7 306 299.2 295.7 293.6 293.1 291.5 291.6 292.2 293.9 296 301.1 305.8 307.9 308 305.2 300.4 295.1 296.9 299.2 296.9 293.6 301.9 314.8 327.1 336.2 343.8 347.1 346.4 345 336.3 329.2 323.2 316 308.7 302.8 294.8 283.3 272.9 274.4 284.8 302.1 317.5 330.5 344.3 358.8 371.1 382.9 397.3 412.9 429.7 445.7 458.5 469.2 477.3 482.2 484.7 484.2 485.3 485.8 485.6 485.2 483.5 481.5 477.8 471.9 465.6 458.6 451.3 442.9 434.4 426.2 417.3 410 403.6 396.7 390.4 384.9 377.2 366 354.2 356.3 370 378.7 384.5 384.9 382.9 380.7 374.8 368.1 360.7 355.4 348 337.4 329
300.1 295.1 291.3 286.5 280.9 274.2 272.1 277.4 279.2 280.1 274.9 266.1 257.2 250 239.5 231.4 226.1 221.8 218.9 216 214.8 207.7 205.3 203.8 210.6 210.7 207.2 208.5 208.5 209.1 209.5 218.3 227.8 240.8 254.4 264.8 272.2 276.3 278.7 281 283.3 287.4 279.5 260.7 244.5 235.8 226.4 222 219 216 213.9 211.4 208 204.9 201.2 195.9 191.2 189.5 190.4 190.5 190.6 190.6 189.4 190.3 197.2 203 204.7 206.6 209.2 208.7 207.4 205.2 204.8 209.5 212.3 226.9 252.3 273.6 291.6 297.2 289.9 277.1 304.9 328.7 347 359.9 369 386.2 401.3 417.4 431.1 443.4 450.7 449.4 436.1 422.1 411.1 398 384.8 371.5 359.5 348.6 340.1 334 326 317.9 311.1 306.6 303.8 302 301.5 299.7 300.1 302.2 303.1 306.2 311.8 315.7 319 320.3 318.4 314.9 309.1 307.2 307.3 306.4 301.7 308.3 321.7 334.2 346.3 356.2 360.7 358.7 357.4 350.7 340.2 332.5 322.9 315.5 308.9 301.5 290.9 280.4 276.2 282.4 298.9 316.7 332.7 348.3 360.7 372.6 384.4 396.1 408.9 426.4 443.5 456.8 468.9 477.9 483.3 487.5 491.3 493.1 491.9 488.6 486.9 484.5 481.3 476.5 470.7 464.5 457.9 450.3 441.5 433.2 425.8 415.9 406.4 393.9 385.3 379.6 375.3 367.1 357.2 363.7 374.2 383.8 391.8 397.8 399.5 398.3 389.1 381 372.7 361.1 348.6 337.2 327.4 318.9
315.2 312.6 304.2 294.1 283.8 275.1 267.1 262.2 264.8 267.5 262.5 257.5 251.2 241.6 234.8 228 221.5 219.7 217.2 215.5 215.9 206.5 209.7 214.4 214.6 212.9 207.7 207.3 208.1 209.8 211.3 218.2 233.6 247.4 261.5 272.3 280.2 286.2 291.8 295.1 299.6 300.8 292.4 274.8 256.1 244.6 236.7 232 229.5 224.6 220.7 217.5 213.1 208.8 202.5 198.4 194.6 189.9 190.7 191 191.3 191.2 190.7 190 202.7 203.3 205.3 208 210 209.7 211 210.4 205.9 211.6 213.4 232.4 261.1 282.3 297.4 304 283.8 302.3 326.4 346.1 357.8 367.4 378.6 394.1 408.7 423.7 437.7 447.6 452.8 447.2 435.9 422.6 409.2 394.5 381.7 370.7 359.5 350.4 342.8 336.3 329.3 322.6 317 312.9 311.1 310.3 309.8 310.2 310.2 310.7 311.9 314.2 318.4 325.5 332.2 334.6 332.5 329.5 324.4 319.3 317.2 317.2 315.3 314.7 328.6 341.6 355.7 368.5 373.2 371.1 366.6 360.4 352.5 342.6 333 323.2 315 307.8 296.8 286.8 282.1 281.3 292.5 311.1 330.8 348.6 364.1 376.4 387.7 399.3 411.7 427 441.4 455.3 467.3 477.6 486.4 493 498.6 500.9 496.8 491.5 488.7 485.8 482.6 478.4 473.8 468.1 462.6 457 450.1 443.2 435 425.9 413.7 401.7 390.7 380.6 373 364.3 369.2 377.9 385.9 394.2 401.2 407.2 408.3 404 394.8 382.9 367.3 353.2 338 324.3 313.2 302.7
323.4 319 312.7 303 291.7 279.7 268.6 258.1 251.9 251.6 250 247.2 242.2 235.9 229.2 222.3 219.2 217.4 215.6 212.9 207.3 207.5 217.2 218.6 217 213 208.1 207.4 209 210.1 211.1 220 236.5 251.4 266.6 279.2 287.8 295.4 301.6 306.4 309.8 310.7 305.6 292.4 274.7 259.8 252.8 247.7 244.8 238.6 233.5 228.4 219.3 214.9 206.6 200.8 197.3 192 191 191.1 190.8 189.3 190.7 195.9 201.8 204.2 206.2 208.1 210 214 215.6 215.2 207.6 210.8 216.1 241.9 269.5 288.4 304.3 298.4 295.2 327.6 345.1 355.9 369.3 378.2 391.6 401.6 415 427.5 439 446.5 448.4 442.5 432.1 418.7 406.7 392.5 381.6 371.3 362.6 355.3 346.8 338.8 332.9 327.3 323.4 319.7 318.2 318.1 318.9 318.6 319.3 320.1 320.7 322.4 327.5 336.7 342.9 345.7 345.8 343 338.9 334 329.2 328.1 325.1 320.2 334.1 348 362.2 377.2 385.3 382.1 375.1 368.1 361 349 340.2 329.7 320.7 313.4 302.4 289.5 293.1 290 286.9 305.9 326.3 347.5 365.9 379.3 391.7 402.8 417 431.2 444.7 457.5 468.9 480.8 491.8 498.5 504.9 506.4 500.4 495.5 492.5 489.3 486.1 482.5 479.8 474.7 468.7 463.3 456.6 449.7 441.9 431.2 418.6 406.8 396.1 385.8 375.6 372.7 381.2 389.7 397.7 404.4 410.3 416 413.8 406.9 396.2 381.1 363.7 347.1 330.3 313.8 302.2 289.8
329 326.5 319.8 310.6 299.9 288 272.3 260.1 249.8 242.5 239.2 236.2 232.6 228.1 223.5 218.2 216 214.2 210.9 208.2 207.8 216.7 219.5 218.5 217.3 211.3 208.1 208.8 209.7 210.5 211.5 219.4 234.9 247.7 262.9 276.8 286.3 293.9 299.8 306 311.9 314.1 312.7 308.2 295.6 281.5 271.8 267.3 261.7 253.2 246.6 238.5 226 219.4 208.9 202.3 198 191.7 190.8 190.6 190.4 190 192.8 198.1 200.9 205.3 207.6 209.7 213.6 218.5 223 221.2 210.2 211.2 218.3 245.7 270 290 306.8 293 318.3 347.9 361.8 374.9 382.6 389.9 398 405.8 416.7 427 437.5 442.7 442.5 437.6 427.2 416.1 404.2 396.3 387.2 377.2 367.9 359.4 349.3 341.8 337.4 334.5 330.8 328.4 327.3 327.8 328 327.5 327.7 329.7 330.3 331.8 337.2 346.9 352.4 354.3 358 358.4 354.8 348.5 342.7 338.9 334.1 330.3 338.7 352.1 367.6 379.9 390.3 389 384.9 372.8 364.2 355.3 345.8 334.9 325.7 318.7 308.4 298.9 302.2 299.2 293 300 322.2 344.4 364.4 381.2 393.2 405.7 420.3 435.4 448.4 459.4 473.1 486.8 497.7 503.8 507.3 508.3 503.9 500.1 497.3 494 491.7 489.3 487 483.5 478.6 471.2 464.5 455.9 447.1 435.9 422.8 408.7 397.1 384.4 374.6 384.2 393.4 400.9 407.8 414.5 419.2 421.2 417.4 407.2 393.3 377.7 359.3 338.8 321.5 307.9 293.9 283.9
330.1 328.7 320.7 310.2 298.4 286.7 273.5 262.4 250.7 242.6 235.1 229.4 224.8 221 217.7 215.6 213.1 209.3 209.1 209.3 214.3 218.6 218.8 217.7 215.4 210.8 207.9 208.6 210.4 211.2 212 215.8 228.7 241.8 253.5 266 275.4 283 289.6 295.8 301.9 306.2 310.8 314.2 306.6 296.2 283.7 276.5 273 267.8 257.6 239.9 228.8 217.9 207.9 200.3 194.9 191.3 190.7 190.3 192.6 196.8 198.6 201.8 205.7 208.5 209.4 213.7 221.8 227.5 231.2 224.9 212.3 210.6 219.1 240.7 264.7 288.5 289 311.9 345.8 368 379.3 389 391.8 393.9 398.7 405.9 415.5 425.8 434.7 437.7 438.3 434.8 426.8 420.2 411.8 403.3 393.3 383.5 373.3 363 354.3 348.4 344.2 341.8 338.9 338.1 337.2 337.1 336.3 337.1 340 341.3 342.1 343 349.5 359.3 365.1 363.3 368.7 371.6 368.5 363.3 356.7 350.9 345.6 341.2 342.9 354.2 370.3 384 393.9 396.6 389.4 382 370.3 359 349.9 339.3 329.8 323.5 313.4 310.6 311.6 308.4 300.6 297.3 316.7 337.3 360.3 378.2 394 407 422.6 438.6 451.9 464.7 479.3 493.3 501.8 507.9 510.8 511.4 508.4 504.3 501.8 500.2 498.3 496.5 494.9 491.2 486.7 480.5 468.9 459.5 448.6 435.9 419.6 406.1 393.6 380.9 384.8 395.8 403.4 411.2 418.6 424.7 426.6 424.9 417.4 405.8 391.2 374 351.1 332.7 319.2 305.6 292.6 280.5
331.7 324.1 317.3 307.6 295.7 283.4 272 262.4 251.1 243.2 236.1 230 222.7 218 215 213.2 210.1 208.4 208.7 208.3 219.1 218.7 218 215.7 213.3 209.9 210 211.4 210.8 211.8 213 215.2 221.5 234.2 245.4 255 263 271.6 277.8 283.8 290 294.9 299.6 304.3 301.1 291.9 283.1 275.8 269.5 262.6 249.6 235.9 225.5 214.7 203.1 195.9 191.1 191.4 191.3 190.8 196.6 196.9 203.8 205.1 209.6 212.5 214.1 221.5 229.8 236 237.8 226.6 213.6 212 219.9 237.2 261.8 283.7 297.8 333.7 361 371.1 380.4 382 383 389.2 395.6 404.3 413.2 423.6 430.7 434.1 436.3 433.8 433.2 428.4 419.6 409.4 398.5 389.4 379.1 369.4 361.5 355.9 351.2 349.5 350.1 350 348.9 348 347.1 348.9 348.7 350.1 354.2 357.2 363 372.9 379.7 383.8 380.1 381.5 377.7 377.8 369.8 361.5 356.7 350.8 348.9 358.6 373.2 387.2 396.2 400.7 397.8 391.4 378.7 364.3 356.7 345 335.7 326.8 316.7 322.5 322.3 317.5 309.6 301.8 309.5 329.7 351.7 371.8 393.9 407.4 423.8 441.8 456.6 472 485.8 498.3 506.9 512.9 516.1 515.8 512.3 509.4 508.7 508 506.5 504.8 502.5 497.8 492.8 484 470.2 458.1 444.8 429.7 412.9 397.8 386.4 391 399.4 407.2 415.1 423.4 428.5 433 432.6 426.8 417.6 406.6 390.6 371.3 349.8 333.4 321 307 293 280.9
330.7 321.8 312.6 302.9 291.2 279.5 268.9 260 250.9 243.1 237 228.2 219.9 215.3 212.2 210.1 209.4 208.9 212.3 219.5 219.4 218.1 217 216.2 213.6 211.9 213 211.8 211.8 212.3 214.2 216.2 220.2 230.5 241.1 249.2 256.4 262.5 268.9 274.7 280.9 285.7 289.2 291.8 289.1 283.2 276.3 268.2 259.4 248.4 237.1 226.2 217.7 206.5 196.3 191.4 191.5 191.5 191.4 192.1 198.4 203.6 208.3 211.2 212 215.6 218.7 225.1 234.9 239.6 236.3 225.9 215.7 214.6 220 237.1 260.6 280.1 303.1 334.6 351.2 355 358.9 364.2 371.5 379.3 388.1 398.8 409 418.6 426.8 433.5 437.3 439.6 438.6 435 427.6 418.5 407.9 397.9 387.1 377.4 369.4 363.9 361.5 360.4 360.7 361.3 360.8 359 359.1 360.4 359 360.9 366.2 368.6 371.1 382.8 396.2 396.4 394.1 394 395 392.2 382 370.1 361.8 359.6 357.8 362.6 374.5 387.1 396.3 403.6 405.6 399.7 388.6 374.4 362.2 352.9 342.6 331.3 327.6 330.5 331.2 326.4 314.4 305.5 309.6 321.7 340.7 363.9 388.3 407.8 423.8 444.4 461.2 476.3 490.9 502.1 512.6 519 520.4 520.4 518.9 518.8 517.2 516.8 515.7 513.2 508.6 501.6 494.4 482 465.4 452 437.1 420.4 401.6 393.5 399.4 405.8 412.9 421.1 429.5 435.8 439.5 440.8 438.1 431 421.6 407.7 394.4 372.7 353.6 337.1 321.9 307.5 293.2 281.2
328.8 320.3 306.8 297.7 287.4 278.5 268 258.4 249.3 242.2 233.7 224.7 216.9 213 210.1 209.5 209.5 209.2 218.7 218.8 218.7 217.7 215.8 215.8 214.2 213.6 214.6 212.7 212.1 212.6 214.7 216.4 219.5 229.5 237.1 244 251 256.2 260.7 266 271.5 276.7 280.3 282.3 281 275.3 267.7 257.2 245.5 234.8 224.5 215 204.7 194.2 191.7 191.6 191.4 193.7 192.1 197.4 205.7 207.8 211.1 213.1 215.9 219.5 223.8 229.3 236.3 236.7 231.8 224.9 218.9 216.5 217.4 227.4 247.4 271.5 293.3 318.2 330 334.4 342.4 350 360.2 369 377.6 389.1 401.6 415.1 425.8 435 439.7 444 442.9 440.9 435.7 429.7 417.7 405.6 395.5 386.6 378.5 374.4 373.1 373.1 372.7 372.8 371.6 370.2 371.1 370.6 370.4 374.1 378.5 381.2 382.9 394.4 406.4 408 411.1 408 411.5 405.6 395.9 385.1 377.6 372.5 370.4 368.5 377 387.9 398.1 407.3 411.7 407.4 395.8 381.9 369.6 359.4 348.8 336.8 337.9 339 339 332 318.1 312 317.6 320.6 336.8 357.4 381 404.9 423.8 445.3 462.8 478.7 493.5 506.9 516.9 524.4 525.2 526.5 526.7 527.9 527.9 526.5 525.5 521.3 513.1 504.9 494 478.1 460 444.2 426.8 409.6 399.9 405.3 413 419.8 426.7 433.3 439.6 444.3 447.9 447.8 444 437.6 429.1 415.4 399.5 378.1 359.5 340.9 327.4 308.8 294.3 280.2
321.3 312.8 302.7 293.3 286.1 277.1 266.3 256.5 247.1 238.3 229.9 221.7 213.6 210.7 210.1 209.8 209.7 212.3 218.6 219 218.5 215.9 216.7 217.7 217.9 217.1 215.2 213.4 213.1 212.8 214.7 215.9 221.2 228.1 233.5 238.5 245.3 249.8 254.3 257.4 260.5 266.5 271.5 274.4 272.5 266.4 258 246.8 234.4 221.7 212.7 202.2 193.2 192.3 191.3 190.4 194.3 197.2 199.4 204.4 210.6 212.5 214 215.9 222 225.6 228.9 235.2 237.3 232.6 227.6 224.1 221 220.1 219.8 220.8 235.2 257 282.6 301.3 313.6 320.3 326.3 336.9 348.1 356.4 366.6 380.1 395.9 411.9 424.6 435.5 441 444.6 447 446.3 444.9 440.3 428.4 415.6 405.2 396.1 388 389.9 390.1 388.8 386.8 385.5 384.7 384.8 385.4 385.8 387.5 388.2 391.8 393.3 395.6 401.1 411.5 418.2 418.4 421 420.1 416.5 407.2 398.6 390.1 384.3 382.2 380.4 381.8 389.8 401 409.5 415.2 411.8 400.9 389 374.8 364.6 350.2 348.1 346.6 346.8 343.5 335.7 323.1 320.2 328.8 324.9 336 354.3 376.6 399.3 420.9 443 462.6 479.3 496.4 509.6 521 529.8 531.4 533.7 535 537 539.3 539.2 535.1 528.6 519.2 505.6 490 472.2 453.2 435.6 415.9 405.3 412.8 420.5 427.5 434 438.9 443.1 449.3 453.4 455.5 454.8 451.9 446 435.7 422.4 404.3 381.1 360.5 347.2 329.8 313.7 298.3 279.7
308.9 304.1 296.6 288.8 281.8 273.2 261.4 251.6 243.6 235.5 226.8 216.5 212.1 211.4 211 210.5 210.1 218.9 218.4 218.2 216.5 215.9 217.9 221.3 221.2 219.6 216.7 214.2 214 215.1 215.7 216.3 221 225.4 230.1 234.9 239.9 243 246.4 250.5 253.6 257.1 261.2 263.4 260.6 255.4 246.3 234.5 223.2 209.8 198.4 193.4 192.4 190.9 195.4 198 198.7 200.5 201.9 211.1 213.8 215.3 217.7 221.6 228.2 232.5 235.4 237.1 236.9 232.1 228.2 226.9 224.2 224.4 225.7 223.4 224.4 243.9 264.2 283.8 296.5 306.7 316.4 326.2 335 344.9 358.2 373.7 389.3 405.7 418.7 431.1 438.2 440.3 443.2 447.4 450.8 447.5 439 427 416.9 407.2 404.8 404.9 404.5 403.1 402 400.1 399.2 400.3 400.9 400.4 404.1 403.6 402.9 404.2 405.1 408.6 417.3 424.6 430.5 431.9 428.7 424.8 418.1 408.8 401.9 395 391.5 389.2 389.3 394.6 403.3 411.1 417.1 414.2 404.2 392.8 380.8 367.2 360.6 359.7 355.5 353.2 349.6 343.8 326.5 330.3 342.2 341.7 338.8 353.6 373.5 394.3 417.2 439.3 460.1 479.7 498 512 523.5 533.8 538.6 541.2 546.1 549.3 551.6 549.1 541.7 532.3 520.5 504 487.1 467.1 447.4 427.9 411.5 418.3 427.8 434.3 441 447.1 451 454.6 460 461.8 462.8 459.9 458.1 450.7 440.1 423.8 406 382.9 365.8 349.8 335.5 320 301.5 280.4
295.3 292.8 288.2 282.4 274.6 266 256 245.7 237.3 230.2 221.3 213.2 212.1 211.6 211.6 212.3 211.5 219.2 216.9 216.9 217.1 219.2 221.7 224.6 224.3 221.5 218.3 215.6 215.4 215 216.4 217.7 219.7 222.6 227.7 231.6 236.1 238.3 240.6 243.7 246.9 251.1 250.7 252 247.1 241 231.1 219.7 201.2 192.1 192 192.1 192.9 193.7 196.6 199.2 200.7 203.2 206.5 215.1 217.9 221.2 225.5 230.7 236.2 240.5 239.9 239.9 240.7 234.6 233.4 228.2 228 229 231.1 228.5 226.4 227.7 246.2 265.5 282 296 304.9 314.3 322.5 339 353.1 366.6 382 396.7 410.9 422.3 429.5 433.8 439.5 447.2 450.5 452.6 446.9 439.7 427.1 420.4 418.3 418.1 418.5 416.6 416.3 416.1 416.4 417.4 416.9 417.7 418.9 417.2 414.3 413.2 413.6 416.7 423.1 432.4 439.1 442.4 440.5 435.1 427.7 421 414 408.1 401.8 400 400.6 402.3 408.1 412.1 417.1 415.5 406.9 395 382.3 375.7 375.5 369.8 366.5 362.8 356.5 346.8 332.2 340.6 352.1 357.1 343.2 355.5 373.7 392.5 415.5 436.9 458.5 478.1 497.6 513.7 525.3 536.8 543.9 550.8 556.5 560.9 561.9 557.5 546.9 533.3 519.8 502.5 484.8 463.3 443.7 425.1 420.4 431.7 441 448.5 454.3 459 461.9 464.3 467.6 468.2 466.4 463.1 458.1 449.8 436.8 421.8 403.5 383.3 364.8 348.4 340.3 322.5 303.5 281.6
284.3 283 278.6 273.5 266.6 258.3 249.2 240.1 232.2 223.8 217.1 213 212.2 211.8 211.2 211.9 215.3 216.3 214.4 215.4 219.1 224.8 227.5 230.1 229.7 226.8 220.3 217.1 216.4 215.7 217.4 219.1 219 220.1 225 228.6 232.4 234.6 236.4 238.8 242.1 242.7 242 240.3 233.3 222.9 208.4 193 192.3 193.3 196.8 195.8 194.2 194.3 195.2 197.4 199.9 207.2 213.9 218.3 223.5 229.3 236 242.3 245 245.6 245 246.7 245.4 238.4 238.5 232.7 232.3 234 236.7 235.2 234.4 233.6 231.6 246.2 262.6 274.6 286.2 298 318.3 333.1 344.3 358 374.6 387.4 398.8 409.5 417 424.7 433 439.7 444.5 450.5 450 446 436.3 437.2 433.7 433.9 432.2 430.5 431.3 433.6 434.6 436.2 435.5 434.2 431.9 428.9 424.9 423.6 422.1 422.9 432.4 441.2 445.4 447.8 448.2 444.3 439.5 433.1 427 423.2 419 413 411.4 411.8 413.1 415.8 417.2 415.3 407 397 390 390.8 388.1 382 376.6 370.1 364.6 351.4 338.9 349.4 363.6 372.2 370.2 359.5 376.9 396.4 415.4 437.2 458 477.7 497.7 514.2 527.5 539.1 549.4 559.8 565.7 568.7 567.4 561.7 548.8 534.3 518 501.7 482.7 463 442.6 426 433.1 446.9 456.4 463.4 465.9 468.8 469.8 470.7 470.7 469 465.4 460.2 452.9 443.5 431.1 415 400.1 379.6 369.6 357.2 342.1 327.3 304.3 282.7
274.9 273.2 269.5 263.9 257.7 249.8 241.1 232.5 225.1 218.4 215.1 213.2 212.2 211.6 212.1 213 214.3 215.5 217 220.5 224.1 229.5 232.9 237.3 237.3 232.4 224.2 219.6 218.1 217.9 219.4 220.9 220.4 219.9 220.9 223.8 228.7 230.3 231.9 234.4 234.6 234.8 232.8 227.7 216.1 204.9 191.7 192 195.9 193.4 194.5 195.6 194.6 196.5 196.7 200.5 206.9 212.9 217.5 221 231.1 239.4 248 255.8 257.2 256.5 255.5 255.1 252.5 248.3 245.2 241 236.2 240.8 241.9 242.4 241.7 241.3 240.4 233.6 241 255.9 270.5 290.7 309.3 324.5 337.7 349.8 363.5 376.9 388.8 397.3 405.4 415.2 422.3 432.4 438.4 443.9 445 443.6 447.1 447.3 446 447.8 446.2 445.9 449.5 451 451.5 451.3 450.2 447.3 442.4 439 435.7 433.3 430.5 432.1 440 446.7 451.1 452.8 452.3 451.9 450.3 449 445.7 438.1 431.9 428.8 425.4 421.8 421.7 420.5 420.3 417.2 409.9 403.7 401.9 401.6 399.7 394.1 386.2 379.9 372.7 356.8 348.4 358.8 377.3 386 389.3 376.9 382.2 403 424.6 443.2 461.1 479.3 498 516 529.7 542.9 556.2 566.5 572.3 571.2 567.9 560.8 549.2 535.6 518.2 501.8 483.8 463.6 443.7 431.1 449.3 461.5 470.6 475.8 477.1 475.1 474.3 472.5 470.3 464.7 456.7 448.2 440.9 432.5 421.9 408.8 393.4 382.3 370.9 359.3 347.4 332.6 308.7 286.4
269.1 267.6 263.2 256.9 249.6 241.3 233.1 225.8 218.4 215.1 214.1 213.3 212.4 212.3 214 214.5 215.8 218.6 221.5 227 231.1 237.3 239.5 244 244.2 237.8 228.8 223 221.8 219.5 220.5 221.2 220.8 221.1 223.2 222.3 225.5 226.9 227.9 227.6 226.3 224 219 210.6 205.4 200.4 192.1 193.7 198.9 192.7 192.8 194.6 196.9 197.9 202 205.8 211.6 218 221.4 227.5 240.9 250.7 259.4 268.4 271.5 272.9 269.8 265.2 261.3 257.9 253.4 248.2 240.7 242.8 248.5 252.8 255 255 250.9 248.5 237 242.9 258.2 277.8 295.1 313.9 329.1 341.6 353.4 365.6 378.1 386.3 395.4 405 412.6 422.5 430.4 434.8 436.9 443 446.5 451.5 452.8 455.5 456.2 460.4 464.6 466.9 464.7 463.6 461.4 458.8 455.2 451.3 447.1 441.3 438.5 440.4 446.1 450.9 456.5 456.4 458 460.6 464.2 464.4 460.3 456 449 443.2 437.6 433.3 429.6 426.5 424.5 420.4 415.8 412.9 412.9 413.1 411.2 406.2 398.1 391.8 379.4 358.6 357.2 368.2 388.3 400.7 405.7 394.1 387.4 407.7 428.6 449.1 466.6 484.9 503.2 519.9 534.7 548.2 559.8 568.7 571.9 569.8 565.4 557.2 547.4 533.2 517.9 501.6 483.6 464.2 443 445 463.3 475.8 483.3 485.5 484 480.9 476.8 471 463.2 453.1 443.7 435 425.1 417.7 409.4 402.4 392.8 383.2 375 358.9 348.3 334.8 310.1 286
264 261.9 255.5 249.9 241.6 234.1 227.6 221 215.5 214.9 214.3 213.5 212.5 214.3 215.9 216.4 218.5 221.4 226.1 232.9 239.1 245.3 248.6 250.8 251.4 243.9 233.8 225.7 223.8 221.2 220.9 221.6 221.1 223.6 225.2 225 222.3 224.9 227.7 226.1 220.2 214.2 210.2 208.2 203.7 198.6 192.2 192.7 192.9 192.7 192.7 195.1 197.3 197.8 205.5 211.8 216.9 221.9 227.8 237.5 251.8 261.7 271.1 278.6 282.1 285.2 281.9 278.6 276.6 269.9 259.1 253.8 244.6 249.6 256 263.8 267.3 267.3 265.8 260.6 259 251.7 241.7 258.6 280.6 301 315.8 329.4 343 356.1 366.6 375.4 386.4 394.7 403.6 412 419.1 425.5 428.6 434.3 439.3 446.5 452.5 461 467.4 471.3 473.8 471.8 471 469.6 467.9 467.4 465.2 460.8 455.6 448.2 443.4 450.3 453.4 457.2 459.3 460.7 465 470.7 476.3 477.1 475 471.6 465.4 458.1 449.9 442.6 436.7 434.5 430.7 427.3 424.6 422.8 422.5 422.7 418.6 414.5 409.6 399.9 387.3 365 367.3 377 398.3 413 418.9 410.9 398.1 409.4 438.6 459.8 475.7 491.7 507.9 524 538.5 551.4 559.8 565.6 568.3 566.3 561.1 553.8 544.7 532 516.2 499.4 482.1 462.9 444.4 458.3 476.7 488.1 493.4 492 488 482.1 474.9 465.8 454.2 444.1 432.4 420.7 408.6 399.5 393 385.6 378.4 372 365.4 354 348.3 336 312.4 287.7
257 253.6 248.9 244.1 236.2 230.3 221.7 216.2 215.3 214.9 213.2 213.6 214.6 215.6 217.3 219.4 220.2 225 231.6 238 247.6 252.9 259.6 259.5 256.3 247.9 238.3 230.2 226.1 223.5 222 222 223.4 225.1 225.6 224.5 225.2 222.8 223.4 220.8 213.8 208.8 210.2 206.9 202.6 193.7 192.4 193.3 193.3 194.9 196 198.6 199.8 202.4 212.7 217.3 222.8 227.9 236.5 249.7 262.3 271.2 280.7 285.9 291.2 292.8 292.5 291.1 287.2 277.6 265.1 256.1 252.3 256.6 263.9 271.7 277.7 279.9 283.7 281.9 270.9 262.7 251.8 248 265.7 285.8 305.8 323.7 336.1 348.5 356.2 366.8 376.3 386.1 391.2 398.6 406.8 411 416.6 421.4 428.3 436.5 448.2 459.1 465.8 469.7 470.2 467.5 464.5 463.7 464.7 466.6 468.8 467 460.6 453.7 449 456.8 458.3 461.2 463.5 466 472.5 478.6 485.5 488.8 488.1 485 479.3 470.9 462.3 454.9 448.8 442.7 439.2 435 435.7 434.8 434.7 434.4 431.5 427.3 423.5 410.7 397.3 378.9 378.6 387.9 409 424.3 432.4 429.3 419.2 415.9 440.5 466.1 485 499 515.7 531.2 543.1 552.2 560.4 562.7 564.3 560.8 555.7 548.5 538.9 526.6 512 494.6 476.6 458.7 447.6 471.5 487.6 495.8 498.8 495.8 489.1 480.6 470.1 459.5 447.7 435.5 421.7 409 392.9 379.3 371.8 365.5 358.2 351.1 343.8 340 335.8 325.9 306.5 287.8
250.4 248.2 243 238.3 231.9 224.2 217.4 216.1 215.5 215.3 215.3 216.4 218.2 218.9 220.7 221.6 222.9 228.7 236.5 243.5 256 262.2 267.7 270 264.4 253.6 243.8 236.7 231.2 227.1 223.3 222.7 226 225.6 224.5 224.1 224.5 223.4 219.9 216.8 212.3 208 206.5 204.2 194.6 194 193.1 196.3 196.9 199.1 200.2 201.3 208.1 212.5 216.6 221.6 233.3 241 245.1 262.7 277.2 285.4 290.3 296.9 302.2 301.6 306.3 300.7 292.7 278.6 268.5 258 262.6 263.5 273.7 279.7 285.7 291.3 295.2 293.4 283.5 270.2 259.2 250.2 252.5 273 297.3 313.2 326.3 336.2 347.7 358.6 368.5 376.4 382 386.1 392.7 396.2 400.3 407.8 416.5 427.3 437 446.6 452.9 455.1 454.6 452.7 452 451.3 453.1 458.3 462.5 463.2 460.5 456.2 450.4 458.3 461.9 464.7 465.6 469.9 476.6 483.4 492.8 498.6 499.2 495 489.4 482 473.5 465.7 459.8 451.9 447.4 444.9 446.6 445.7 445.7 446.8 445.4 442.6 436.2 427.9 412.8 393.6 392 402.2 424.9 438.8 446.9 450.2 441.6 433.2 440.6 472.3 494.7 511.9 524.6 536.5 547 553.1 559 560.2 558.2 553.3 547.1 538.1 528.2 515.6 501.1 482.4 464.2 453.7 467.3 483.7 495.8 501.1 502.7 498.5 489.6 479.5 466.6 453.4 439.4 426.5 413.2 399.4 379.8 376 352.1 344.9 337.5 330.7 323.6 320.1 314.9 310 298.2 281.5
246.1 243 237.5 233 228.6 222.2 217.8 215.4 215.4 215.9 216.1 217.8 222.6 223.6 225.5 224.7 227.2 232.7 242.3 251.9 262.7 273.8 278.3 279.9 270.8 261.3 251 244 238.2 231 225.7 223.2 223.6 223.2 223.1 224.4 224.2 223.9 221.6 216.7 212.9 209.1 204.7 203.3 194.5 193.7 199.3 199 202.6 201.9 203.4 208.7 219.7 219.3 220 230.7 243.7 254.9 257.6 272.8 287.8 296.4 302.5 310.7 315.2 310.9 315.2 311 301.5 285.8 276.5 264 267.2 272.4 282.8 291.6 297.6 302.3 304.1 301.2 293.8 281.3 269.5 260.9 248.9 258.2 279 300.6 315.3 326 339.1 349.1 358.7 365.2 370.4 373.7 377.2 380.2 385.1 392.1 400.4 408.4 417.8 424.2 430.7 433 434.3 434.8 433.5 434.6 437.1 443.8 450.3 453.2 453.8 454.2 452.9 459.2 461.6 464.7 468.7 473.9 481 489.5 496.9 502.2 506.1 501.1 494.9 489 481.7 475.1 467.4 460.8 455.7 456.2 458.1 457.7 459.4 459.3 457.6 456.8 455.4 447.8 428.4 411.7 403.6 416.8 440.9 456.6 464.7 471.6 469.2 458.1 450.7 477.5 505.8 523.9 535.2 544.2 550.9 555 556.1 554.9 550.1 543.3 535.6 526 514.8 500.9 483.9 469.4 463.6 472.6 484.4 497.5 505.7 507.2 507.2 501.1 491.5 480.9 469.3 456.8 443.5 430.9 415 403.7 402.1 389.5 370.2 352.3 335.8 324.8 316.3 309.7 302.4 295.8 288.5 278.8
241.3 234.5 231.3 228.2 224.9 220.9 217.3 216.2 216.4 216.4 217.2 222.3 226.9 227.8 229.3 228 231.8 236 246.1 260.8 271.4 281.2 287.4 286.6 277.9 268.1 259.4 252.5 245.1 235.9 232 227.7 224.5 223.3 224.5 224.6 224 223.8 222.2 217.3 213.4 210 204.8 202.9 194.7 194.3 201.1 201.4 205.2 204.9 208.6 219.6 226.1 227.5 229.8 246.2 257.2 268.2 276.3 279.2 295.8 306.3 314.9 321.1 325.7 330.1 327.3 322.4 307 289.7 281.9 267.4 275 283.2 294.1 305.2 311.3 315.3 314 309.6 302.7 291.3 275.5 274.6 263.3 253.5 265.7 286.5 302.6 317.1 330.3 338.3 345.6 353.7 358.1 360.5 363.4 364.1 367.6 373.6 377 384 392.4 400 405.7 410.2 411.6 413.2 415.8 418.5 421.5 427.5 432.7 438.6 443.3 446.1 449.9 454.2 458.6 463 467.2 473.8 482.7 490.5 497.7 501.4 503.7 499.9 495.2 491.8 488.7 481.1 473.6 467.1 462.5 465.7 466.4 468.9 471.4 470.9 473.7 476 473.4 467.9 450.4 431.7 422.5 433.1 457.4 474.9 485.8 493.7 496.3 486.1 476.1 482.7 514.6 535.2 546.2 552.3 557.7 558.4 555.6 551.1 544.1 536.4 525.8 513.4 499.6 482.7 478.9 482.6 488.2 496.2 504.1 511 515.1 514.6 512 505.4 496 484.5 472.2 458.1 446.1 434.7 424.5 420.8 415.7 399.5 380.3 360.8 341.5 329 319 309.7 303.1 295 285 276.8
239.9 232.1 227.3 224.6 221.1 218.3 218.5 217.6 217 218.8 222.8 227.5 231.6 234.4 236.1 236.4 237.8 240.3 250.9 264.5 275.2 284.5 292.1 291.7 285 275.9 268.6 262 254.4 245.7 239.9 234.3 228.3 228.9 227.4 228.1 226.4 225.1 222.6 218.3 213.2 209.5 205 202.9 193.7 202 204.3 204.9 206.4 210 217.1 224.5 232.2 239.9 245.5 258.1 266.9 275.3 284.9 297 307.8 322.2 326.8 335.4 338.5 338.5 335.4 330.1 315 298.8 279.5 274.4 283.6 294.2 302.2 321.1 326.3 327.4 321.2 319 312 301.5 285.2 281.9 275 262 255.3 275.3 291.6 305.5 319.3 329.5 337.2 342.6 345.4 347.7 349 348.4 348.2 349.1 352.7 358.3 365 373.4 380.2 385.9 391.7 394.3 397.6 401.3 404.5 409.8 417.3 424.3 429.5 433.4 438.7 444.8 450.5 456.6 463.1 471 479.7 487.9 493.7 496.2 494.3 492 490.1 490.9 490.1 485.1 477.4 470.9 472.6 473.2 473.6 477.1 480.9 486.9 493.4 493.2 490.8 487 473 455.8 444.9 447.6 475 494 506.2 515.9 521.5 514.3 503.9 493.8 522.2 545.6 557 563.7 566 564.4 558.9 552.8 545.3 535.6 522.5 507.3 493.3 496.6 498.3 503 507.9 513.6 519.4 523.2 524.5 523.3 519.3 511.8 500.9 488.9 475.6 465.4 455.9 446.8 436.7 435 427.6 413.6 394.2 371.4 351.3 338 329.8 319.9 311.5 296.3 284.6 275.6
236.6 230.5 224.9 222.2 220.4 218.4 218.7 217.4 218.8 224.2 228.8 233.3 239 243 245.3 242 242.6 244.6 253.7 266 276.8 286.6 294.1 296.6 293 285.9 278.8 273 265.2 257.3 248.3 241.5 234.7 232.2 230.9 232.1 229 225.4 222.1 218.2 212.3 208.3 205.8 199.7 193.7 203.2 204.7 206.2 208.4 214.3 223.5 232.9 245.6 254.1 261.9 265.4 274.9 282.6 295 311.5 316.1 331.2 339.4 347.2 348.6 349.4 346.3 333.5 321.5 299.1 280.2 285.1 295.1 308.2 318.8 326.7 336.4 331.8 331.7 327.4 318.4 306.2 294.9 289 283 272.8 257.6 265.6 280.9 292.8 304.4 314.5 320.5 328.3 332 332.1 330.2 327.2 323.2 320.5 326.1 330.9 336.8 345.6 353.5 360.8 365 369.3 374.3 380.5 387.8 395.5 404.6 409 413.5 417.6 424.6 433.3 439 447.1 454 464 471.6 477.5 483 484.1 481.7 479.1 479.5 481 480.7 479.7 477.8 477.2 479.6 481.7 485 491.5 499.6 506.1 508.8 509.5 507.5 505.2 497.3 480.2 470.2 468.9 489.4 511.5 526 536.4 544.5 544.1 531.2 522 529.3 558.3 568.4 573.9 574.8 572.7 566.2 560.8 553.3 542.5 527 517.1 517.7 516.8 516.9 519.8 523.8 527.2 532.6 534.5 534.4 532.3 526.5 518 505.9 494.8 484.4 475.6 465.5 455.2 451.2 447.4 441 428.3 408.5 387.1 366.6 352.5 341.4 331.3 316.7 299.6 287.4 275.7
231.5 226.9 223 220.4 219.9 219 219.2 219.8 223.1 229.4 235.7 241.4 246 251 252.7 250.2 247.1 250 256.9 267.7 278.8 288.5 295.8 301.6 300.5 297.2 292.2 286.9 278.3 269.9 259.7 250.5 243.2 238.6 236.2 235 232.7 227.3 222 217.2 210.7 206.9 203.3 193.1 194.1 203.7 205.4 205.7 209.1 219.3 230.7 244.6 258.2 263.1 268.7 273 284.2 291.7 305.2 320 327.1 340.8 348.5 356.5 360.3 359.8 355.4 345.5 329.1 303.2 286.7 295.7 308.5 325.1 335.9 343.9 345 339.8 339.3 331.8 323.7 312.1 304 295.8 290.6 277.2 260.3 264.2 269.4 282.5 292.4 299.6 307.9 314 316.5 314.8 311.5 306.4 307 311.8 314.9 321.3 328.2 328.3 334.7 340.1 343.5 347.7 352.2 358 367.8 378 385.2 391.2 397.4 404 410.5 418.4 426.7 435.4 446 454.4 460.3 465.3 467.1 467.5 465.9 462.5 460 460.1 466.1 470.9 476.2 479.7 484.6 491.5 498 508 515.4 521.9 524.9 525.6 524.6 522.7 519.7 508.2 496.7 498.8 501.3 528.5 544 555.3 564.9 567.8 560.9 552.1 550.2 567.9 579.3 585.1 584.7 583.2 578 571.7 563.3 549.4 535.6 536.9 537.2 535.8 535 536.4 537.2 539.8 543.7 544.5 542.9 540.7 533.6 524.1 510.9 501.9 493 482.2 473.4 466.5 462.8 457.1 452.2 441 425.1 403.6 381.3 368.8 357.7 340.5 321.9 306 289.3 275.4
228.9 223.4 221.8 220.1 219.4 218.6 220.7 221.9 229.1 235.9 242.2 250.1 255 259.5 260.1 256.4 252.9 253.4 261.6 269.8 281.1 290.4 299.9 307.7 309.4 307.2 306.1 301.2 292.7 282.1 272.4 257 252.9 248.1 245.7 239.7 235.5 229.4 222.5 215.5 209 204 198.3 193.9 195.3 203.3 204.8 205.9 213.2 223.6 239.2 258 265.1 269.8 274.2 283.8 288.9 302.3 319.1 330.5 330.6 354.2 362.1 368.4 372.7 369.7 368.4 355.9 327.5 299.4 292.9 314.1 328.1 340.4 348.3 352.3 354.4 350.1 347.7 338.4 329.1 317.5 308.8 302.9 294.2 279.1 262.4 268.8 275.2 272.5 278.8 287.1 294 298 300 295.7 298.8 306.7 319.1 334.7 344.3 354.1 355 351.9 352.7 361.2 365.2 370.6 373.6 374.3 371 367.3 370 373.7 379 386.7 396 405.6 415.1 423.6 431.8 440.4 446.9 449.9 451.1 450.7 447.6 449.8 455.8 461.9 467.7 473 477 481.3 488.5 498.6 511 520.3 528.5 534.3 538.7 540.9 540 539.9 539.6 537.5 529.4 532.3 532.7 543.3 560.6 573.4 583.1 588.3 589.8 583.7 580 584.4 591.7 596.2 595.8 593.7 590.5 583.4 574.7 560.5 557.1 556 553.4 550.2 549.3 549.5 550.8 552.8 553.8 553.1 551.5 547.8 539.7 528.1 518.2 508.3 499.8 491.2 481.5 476.6 473 468.7 462.9 454.3 439.9 420.4 399.8 386.4 376.7 359.3 332.4 311.2 291.6 275.5
226.5 221.3 221.2 220.6 220.3 222.9 223.2 229.1 234.8 242.2 248.7 258.5 266.8 271.1 269.9 263 259.4 258.8 263.7 271.5 283.4 293.6 307.5 314.5 316.7 318.6 319.4 317.9 308.8 299.3 286.9 275 263.5 259.3 251.9 244.4 235.8 228.6 222.6 215.4 204.3 200.6 194.9 194.5 200.1 202.3 203.2 204.9 213.3 226.2 247.2 264.4 271.9 275.1 281.7 291.5 299.3 316.8 329.2 339 348.7 369.2 374 384.1 388.2 383.6 378.3 340.1 310 305.3 311.3 333.9 344.1 348.8 359.6 361.4 363.3 363.3 356.9 347.8 335.7 324.5 312.2 304.1 292.2 278.8 265 269.9 279.9 284.7 283.6 286.1 283.5 290.4 294.2 301.1 308.8 322.5 339.4 348.8 360.3 367.4 374 375.7 374.7 382.1 384.4 386.3 389.4 390.3 390.4 390.8 390.6 392.6 395.8 395.7 396.4 391.8 400.6 411 416.5 422.1 428.4 433.4 433.9 437.1 444 452.1 459.6 466.1 472.2 478.1 483 487.7 493.8 504.3 518.1 528.6 537.1 544.1 549.4 553.5 555.1 556.2 557.1 557.8 557.7 559.3 559 563.7 575 587.5 598.6 606.1 608.7 607.8 605.6 605 607.5 609.5 609 606.1 602.9 594.6 586.3 577.4 572.4 568.4 565.5 562.5 560.1 560.4 561.2 562 561.6 560 557.2 552.9 544.1 532 523.9 514.3 506.5 498.6 491.7 485.1 481.2 472.7 466.8 458.7 447 432 416.4 394.8 381.1 359.4 333.6 310.7 291.4 274.5
221.8 220.5 220.3 221.2 222.1 224.7 227.9 233.1 239.5 248.3 256.4 265.7 275.2 280.1 277.7 270.2 266.5 266.3 268.3 277 286.8 296.4 309 319.2 327.5 332.6 335.8 331.8 326 318 305.6 289.2 275.6 269.7 266.6 250.2 240 228.3 222 212.2 202.7 197.4 194.7 194.5 194.7 200.8 202.9 204.3 209.3 223.3 242.6 261.1 273.7 280.6 288.4 301.5 307 330.6 342.5 352.1 369.1 381.7 387.5 396.7 399.7 394.1 360.9 329.2 317.8 322.2 335.7 350.2 357.8 363.8 368.9 372.9 372.3 372.8 367.2 356 342.3 327.5 314.8 303.3 290.1 280.5 266.8 272.9 285 292.2 295.5 297.2 301 303.9 308.9 317.6 326.8 335.3 350.1 360.6 369.4 374.5 381.1 386 387.6 393 397.4 399.5 401.1 401.3 400.8 401.6 404.2 406.4 408.9 412.4 412.5 414.8 412.7 407.3 408.2 412.8 418.3 424.2 431.2 441.4 448.2 456.2 464.8 472 480.6 487.9 495.1 499.5 504.1 511 519 532.2 541.6 549.6 556.8 562.9 567.8 570.6 572.5 576.6 578.7 581.3 582.5 585 588.7 601.7 612.8 620.5 625.3 626.7 624.1 623.1 624.9 624.8 622.5 619 613.6 606.2 594.9 587.5 583.4 579.7 573.8 571.1 569.1 568.8 566.9 565.2 565.3 563.1 558.6 552 542.5 532.8 527.5 520.3 512.4 504.3 498.7 491.9 481.8 471.8 459.8 449 435.2 420 405.1 390.8 373.1 351.3 329.1 305.7 287.8 271.9
221.4 221.8 222 222.2 224.2 227.1 230.7 236.3 243.6 251.2 262.7 269.1 283.3 286.8 282 275.8 273.2 272.2 273.5 279.1 289 300.5 313.6 326.2 339.6 347.2 352.6 349.9 345.5 339.5 327 307.1 297.1 286 271.1 257 242.2 230.5 221.2 209.5 200 194.8 195.6 195.1 194.4 195.2 203.9 206.1 208.9 222.5 240.8 261.3 275.7 285.7 296.6 309.7 317 342.5 353.2 366.6 379.5 393.5 400.6 410.2 415.1 379.7 349.6 340 346.4 347.6 346.3 363.8 369.4 375.9 380.8 382.7 380.9 382.2 374.4 361 345.4 329.6 313 304 291.4 280.9 269.9 276.1 289.8 294.2 300.6 307.5 312 315.7 318.4 328.4 339.1 346.8 358.3 368.7 376 384.1 394.2 401.1 404.1 407 411.8 413.2 411.2 412.2 412.8 412.9 415.2 417.2 421.3 423.2 425.3 426.2 426.4 423.7 422.7 423.7 419.9 426.9 434.1 442.1 452.9 461.7 472.9 480.8 490.1 499.6 505.3 510 515.1 521 528.1 538.1 545 556.4 564.3 572.8 579.9 584.8 588.4 593 596.7 599.3 600.6 603.2 607 615.7 626 633.9 639.6 643.3 643.5 640.3 639.4 638.5 634.6 629.5 622 613.6 604.8 596.3 589.9 584.4 579.5 575.7 572.2 569 565.7 564.7 563.4 559.5 554.8 547.9 540.4 533.2 527.3 522.1 514 506.6 499.9 489.6 477.1 462.6 446.5 430.8 415.4 401.6 386.9 371.9 355.8 337.9 318 297.9 282 270.6
222.5 223.5 224 224.2 229.4 233.8 236.2 239.2 244.3 252.5 262.6 272.5 287.3 291 285.8 280 279.7 278 279.6 284.3 291.7 303.1 317.7 330.9 347.5 358 367.5 369.1 367.4 357.9 345.3 332 313.5 301.3 283.6 265.5 247.5 233.7 220.9 207.8 198.2 195 195.5 195.3 194.2 195.6 206.1 207.2 209.6 221 239 258 277.5 288.1 303.3 317.8 328.1 339.9 363.9 378.4 391.5 403.4 411.5 421.6 420.3 387 367.2 367.3 372.9 372.5 376.7 379 383.8 388.5 390.9 390.8 390.2 387.7 377.5 361.3 344.2 325.9 309.6 299.9 289 282.6 272.5 277.3 292.1 302.3 304.3 313.2 320.1 324.3 327.9 337.6 347.4 352.4 363.8 375.3 386.7 398.5 406.2 413.7 418.2 423.3 426.2 426.4 424.7 422.8 423.5 423.3 425.5 426.4 430.5 433.2 433.9 435.8 435.7 433.1 433 431.6 431.4 427.5 435.9 447.1 458.2 470.4 482.5 492.6 501.3 509.3 517.5 522.5 527.7 533.1 540.9 549.2 554.5 564.3 574 582.3 591.3 597.4 602.6 607.7 612.3 615.9 618.8 621.1 624 628.2 637.2 645.7 651.8 657.4 658.9 656 652.1 649.2 643.6 636.7 628.1 619.8 610 601.7 593.6 587.2 580.5 575.3 569 562.8 557.8 554.3 553.3 550.7 546.4 541.2 534.5 527.9 521.4 517.1 511.2 502.9 492.7 478 463.4 447 429 411.3 394.3 378.8 365.6 350.6 337.4 322 303.2 290.1 276.1 270.5
224 225.1 226.7 231.4 236.2 241 244.5 244.5 246.5 251.2 262 273.9 286.4 295.7 288.6 284.9 284.1 284.8 286.2 289.8 295.9 305.7 319.1 334.5 352.5 365.8 376.1 381.7 382.4 375.9 365.7 352.8 336 318.5 300.8 277.6 254.9 235.3 220.8 207.1 196.1 195.1 195.3 195 193.8 196.6 205.6 208.8 210.3 217.8 236.7 255.2 276.2 293 311 323.5 336.2 354.7 369.3 387.1 401.5 413 421.1 425.9 422.6 415.1 400.8 397.2 394.6 391.3 395.6 397 398.4 398.3 399 398.5 395.5 385.9 375.4 359.8 343.1 319.9 310.3 296.6 290.1 282.7 276 278.3 294 304.3 309.8 318 324.7 331.7 338 343.2 352.5 362.5 371.6 383.8 396.7 409 419 425.5 431.5 435.9 436.1 437.1 437.6 435.5 435.7 434.1 437.3 437.1 440.9 442.9 442.9 445.7 444.9 441.4 439.9 436.7 437.9 432.9 439.6 450.9 464.3 478.9 494.1 504.1 514.3 521.7 530.4 536.6 542 546.1 554.9 562.6 568.3 576.7 583.9 593.8 603 609.5 615.3 620.6 625.9 630.3 634.1 636.4 638.6 642.2 648.5 656 663.9 669 670.9 668.7 664.2 657.1 649.3 640.8 631.2 620.8 609 599.6 590.8 583.8 574.8 566.3 558.7 549.7 542.5 540.5 539.2 537 531.4 522.8 517 509.9 502.5 499.5 492.7 485.1 474.7 460.2 444.9 427 408.4 389.6 373.4 356.5 343 329.7 315.3 302.1 292 282.8 273.6 271
226.7 229 232 237.5 242.5 247.4 251.8 252 251.1 248.2 261.8 271.3 282 291.3 289.4 289 289.5 291.8 296.7 299.1 303.7 311.4 327.4 342.3 357.9 373 384.3 389.8 395 392.4 383.2 368.5 352.8 337.1 313.3 287.3 259.5 238.5 220.3 205.6 194.5 194.6 194.7 195 195.4 194.7 203.2 206.5 209.3 215.1 233.2 254.9 277.4 296.3 312.7 322.6 343 367.3 379.1 388.9 409.5 417.7 424.9 427.3 428.4 423.4 419.5 416.3 413.7 409.6 410.5 410 409.3 406 403.1 400.5 392.4 382.5 368.2 353.4 334 314.7 304.1 298.9 292.9 290.2 286 278.8 291.7 306.5 314.3 321.5 329.9 335.2 341.7 348.7 360.6 370.5 379.6 393.3 406 418.8 429.1 436.5 442.5 446.4 446.8 448.2 448.6 449.9 450.5 450.2 448.5 452.3 454 454.4 456.9 456.1 455 451.8 448.2 449.4 451.6 449 445.1 454.7 469.1 488.9 505.9 517.5 528.7 535.2 541.8 548.6 556.4 562 569.9 575.9 582.2 589 595.7 604.3 613.1 621.5 627.9 632.7 637.9 643.4 648.1 651.2 652.8 656.2 660.6 666.7 675.4 679.8 679.6 676.3 670.4 661.8 651.7 641.9 630.6 619.7 606.2 594.2 581.8 571.8 562 551.2 542.7 531.3 522.3 518.1 517.2 514.4 506.8 498.7 490.7 484.8 479 472.6 466.9 459.3 450.3 437.8 422.1 405.3 387.3 368 351 336 324.2 310.9 301.1 291.5 281.8 278.9 277.9 272.9
229.8 233.5 234 241.7 248.7 253.8 256.7 259.2 259.7 258 262.7 270.1 277.1 283.8 289.1 291.3 296.3 302.5 308.1 310.7 314.7 321.9 331.9 345.1 360.3 375 389.4 397.5 404.7 401.8 394.1 384.6 366.1 344.8 321 290.4 261.2 238.7 220.8 204.8 194.9 194.5 194.6 194.9 195.3 194.8 199.4 204.6 207.3 213.4 231.9 251.7 273.3 295.3 309.4 323.8 347.9 371.5 386.8 401.6 412.5 421.6 428.8 433.9 435.8 435.9 436 434.4 429.9 427.3 425.1 419.7 414.2 408 401.9 393.8 382.8 371.9 358 342 322.2 312.5 306.7 300 299.5 295 285.8 281.6 291.6 308 315.3 325.4 332.3 336.6 344.8 353 365.1 373.9 385.9 399.3 410.8 421.8 435.1 443.3 449.6 452.2 455.1 455.4 457.9 458.8 461.9 463.3 464 465.1 465.7 467.7 468.8 468.3 468.4 465.1 464.7 464.1 461.7 461.7 459.4 455.3 472.7 496.2 514.1 528.5 539 547.6 556.6 564.4 569.6 576.8 583.3 588.6 594.6 601.2 608.8 617 625.9 634.3 640.7 645.5 650.6 656.4 661.5 664.6 666.5 670.1 673 677.3 683.9 687 686.2 679.4 672.7 662.2 651.3 639.2 626.9 614.1 598.2 581.6 563.1 549.9 541 529.3 517.5 507.4 497.2 492.6 489.4 483.9 478.2 470.1 462.5 456.3 450.6 444.3 438.8 430.5 422.2 410.5 396.8 380.1 363.7 346 332.6 319.6 307.9 299.1 292.3 286.9 291.1 289.2 285.1 278.9
236.4 241.3 238.1 244.7 251.8 257.7 263 266.1 266.1 263.4 266.3 269 275.4 281.7 288 293.9 303 311.4 318 323.4 329.9 331.9 337.4 348 363.9 376.8 390.1 400.3 409.2 409.4 405.6 396.5 374.4 351 324.9 291.6 262 238.7 221.5 206.8 195.5 194.9 194.6 194.8 195.2 195.7 195.1 205.7 205.2 213.1 230.3 251.1 272.5 294.7 308.7 327.7 345.6 370.1 388.1 402.8 414.8 424.5 433.7 440 444.2 447 449.1 447.3 441.9 435.7 427.5 419.8 412.4 404.3 394.5 385.1 372.7 358.3 346.1 331.7 317.9 311.2 307.7 311.4 308.3 301.8 294.6 283.1 292.6 305.4 316.9 325.1 339.3 342.6 350.3 356.7 367.5 376.6 388.2 399.2 410.5 424.1 435.7 444.2 450.1 456.3 459.8 462.8 464.5 466.6 470.5 473.1 474.8 476.3 477.3 480.1 481.1 480.3 480.5 478.8 477.4 476.1 477.2 475.6 472.3 466.5 475 497.4 517.6 533.6 547.3 558.7 571.7 578.1 585.6 591 595.7 600.1 606.5 613.5 622.8 630.8 638.8 647.4 653.5 658.7 663.6 670.5 674 675.7 679.7 683.5 686.3 688.2 693 693.6 691.2 682.1 672.5 660.6 648.3 634.4 618 598.8 579.3 560.3 540.5 524.7 512.8 502.6 491.1 480.4 470 462.6 459.3 453.5 447.7 440.1 432.5 426.4 421.5 416 408.7 401 392.5 380.6 369.8 354.7 339.3 325.8 314.1 302.4 297.7 290.8 287.8 292.8 300.3 297.8 290 281.5
248 249.5 247.8 243.6 252.7 262.5 267.8 272.1 271.7 269.2 266.7 270.9 275.5 281.9 288.4 296.9 308.1 318.8 326.2 333.5 340.7 345.1 349.3 355.4 366.6 379.1 391.8 403 411.1 414 409.7 399 376.3 349.5 321.8 291.9 261.8 239.9 221 208.2 201.8 195.4 195.3 194.7 195 195.5 195.4 196.2 204.4 213.7 229 247.3 271.3 293.6 310 325.4 341.3 366.2 387.7 403.6 414.7 427.2 437.4 443.4 452.4 458.1 459.9 454.7 444.9 435.2 426.5 417.3 406.8 396.2 386 372.8 361.5 350.6 335.3 323.1 317.8 322.5 323 321.6 316 308.9 302.3 297.7 288.7 301.9 315.4 324.4 331 337.4 347.6 358 367 375.6 383.7 394.3 406.3 418.8 429.5 439.6 447.7 453.2 459.6 463.4 466.9 471.8 476.4 480.6 482.5 483.5 486.9 490.3 492.9 492.5 492 491.8 492.6 491.6 491.8 488 486 482.6 474.3 492.2 513 533.8 551.1 567.7 579.4 590.8 600 604.2 607.1 611.3 617.5 627 636.2 644.2 652.2 659.1 664.7 670.4 674.9 680.3 685.3 687.7 692.1 694.6 697 698.8 699.1 696.6 691.6 682.1 671 658.5 643.3 625.4 604.8 581.3 557.9 534.5 517.5 498 486.5 474.9 464.3 452.9 443.9 435.4 430.8 423.8 418.2 410.2 402.8 396.9 391.6 385.9 379.4 369.8 362 352.8 344.3 332.6 319.3 306.6 302.2 297.4 297.3 299.1 301 306.1 314.8 307.8 293.4 282.3
256.6 256.4 252.8 251.4 254.1 265.4 272 276.7 276.6 274.7 273.1 273.8 276.8 282.2 290 300.1 312.9 323.8 334.1 343.4 350.3 356.2 361.3 366.1 373.9 384.4 395.1 405 413.3 415 408.7 395.2 373.3 346.6 319.9 291.4 261.3 241.6 222.2 208.6 198 196 195.9 195 195.1 195.6 196 194.9 202.6 214.7 227.7 247.6 268.2 290.9 309.9 322.3 341.7 362.9 384.8 400.7 414.3 427.9 438.3 447.9 458.6 467.1 465.7 456.7 444.6 433.9 423.8 412 400.1 386.7 375.8 364.9 348.7 339.9 326.8 325.7 329.2 331.6 331.9 327.9 325.5 316.5 311.7 308.1 298.3 291.8 298.3 309.2 315.3 322.9 330.5 341.3 352.5 363.6 373.8 383.7 397 408.7 419 428.1 438 445.7 453.1 459.2 464.4 471 477.2 482.9 487.5 490.4 495.2 500 503.8 502.7 507.7 509.5 509 507.2 506.7 502.8 499.1 496.5 494.7 489.1 507 529.1 549.2 568.4 583.5 598 607.6 611.7 615.2 621.1 629.4 639.7 649.2 656.6 664 670.6 675.6 680.2 683.9 688.6 694.6 699.3 701.4 703.4 706.3 706.2 702.7 697.5 690.9 681.5 668.1 653.7 636.9 617.7 588.2 561.7 536.4 512.2 489.8 472 457 445.4 435.2 426.4 418.6 411.5 404.4 399.3 390.1 381 373.5 367.7 364.2 358.8 352 344.5 336.1 329.3 320.2 311.3 307.8 304.2 303.9 308.1 310.7 311.5 316 325.6 327.5 316.3 297.2 283.9
263.8 263.2 260.2 256.5 252.8 264.6 274.9 279.8 281.6 279.2 278 278.3 281.1 284.1 291.7 304.1 316.8 329.1 342 352.7 359.2 365.4 371.8 377.2 385.9 391.9 398.3 407.1 415.3 414.6 405.2 390.8 368.7 344.9 318.6 289.7 263 243.2 223.5 210.2 197.9 196 195.6 194.9 195.4 195.4 195.1 194.9 197.9 212.1 225.5 242.7 264.8 285.7 305.1 322.9 341.8 359.6 379.1 397.7 412.9 426.5 439.3 451.7 461.8 470.9 467.9 457.8 444 432.4 419 402.5 386.4 376 369.2 352.6 336.1 329.4 336.7 336.1 338.6 343.3 343.9 340.8 334.9 326.9 319.4 316.6 314 303.6 296.1 298.1 301.6 304 309.5 319.1 332 345.4 358.4 369.9 382.5 394.4 405.4 414.2 425 433.6 443.2 450.7 458.2 465.9 474.9 481.9 488.7 493.9 500.8 507.1 511.3 518.3 525.3 528.7 527.2 525.4 521.8 519.7 517.4 512.5 509.2 508.2 504.5 522.1 544.7 563.7 582 598.2 609.3 615.2 622 630.3 640.6 650.5 658.9 665.9 672.2 678.9 684.7 687.1 689.8 696.4 701.1 704.4 707.3 709.8 712.4 710.3 704.5 698.4 689.2 677.8 664.7 650.3 633.5 612 578.9 545.4 519.5 496.7 475.2 457.9 440.2 429.3 416.2 404.9 396.3 388.4 379.6 373.1 366.4 359.5 351.2 344.5 340 334.2 328.9 321.9 318.6 315.5 313.1 312.8 314.9 316 315.9 319.7 322.9 327 335 344.1 340.5 325.1 303.7 289.2
271.1 270.4 268 262 258.7 263.3 274.9 282.5 285.9 285.9 284.8 285 283.4 286.9 293.4 306.8 320.3 333.2 348.4 360.3 368.7 373 381.6 389 394.1 398.4 405 413.4 415.5 413.9 403.2 385.6 366.1 344.2 317.8 289.8 265.3 245.9 226.2 210.1 197.7 196 195.5 195.1 195.1 195.1 195.1 195.1 195.3 205 221.7 239.3 263.3 281 303.1 322.5 336.1 349.7 371.8 393.7 410.2 425.1 440.2 453 463.2 470.1 467.5 457.4 441.6 428.6 413 392.7 382.1 356.8 351.2 340 333.6 348.2 343.3 344.9 349 353.8 353.9 352.2 347.5 340.1 332.5 327.1 322.9 322.4 320 322.9 310.8 320.4 328.3 326.6 315.6 327 339.9 353.5 367 379.1 389.9 400.9 412.1 422.3 431.6 442.6 451.7 461.7 471.7 481.9 490.3 500.5 509.7 516.7 524.6 533.7 541.2 545.3 543.6 540.1 538.6 536.2 533.4 531.7 529.7 525.7 517.5 519 537.4 557.3 577.5 592.3 605.7 616.9 627.3 638.7 650 658.9 666.6 671.7 678.1 683.5 687.3 689.6 691.9 697.4 702.2 706.6 710.6 714.2 714.7 711.3 705 697.2 686.2 674.2 661.1 646.7 629.9 610.1 576.6 543.3 515.4 491.5 468.6 455.9 443 428 415.1 403.6 395.9 383.3 376.6 368.6 359.4 352 345.4 338.7 332.5 328.2 325.8 327.8 331.4 330.9 331.7 333.2 330.6 327.9 329 333.4 340 348.1 355 361.7 351.7 332.8 311.7 295.4
279.1 278.2 274.4 268.7 264.6 263.8 274.1 282.5 288.1 291.3 293.4 291.6 291 292.2 296.3 308.4 321.7 336.1 351.8 363.7 372.3 382.6 391.6 398.1 401.8 406.3 413 417.8 418.9 413.3 400.8 383.4 365.7 343.3 316.6 290.3 266.5 248.1 228.5 212.3 197.1 195.9 195.5 196.5 196.5 196.1 196 196 195.6 205.5 218 234.5 254.7 272.5 295.8 316.6 325.3 342.4 367.6 388.4 409 426.1 441.3 453.6 462.9 468.3 466.3 456.8 442.4 424.4 406.4 392.3 378.3 358.1 350.6 355.6 353.2 351.6 358.7 359.4 360.7 364.2 367.3 364.8 361.4 352.6 348 340.7 335.1 333.1 331.4 335.4 329.8 325 337.7 342.8 339.8 323.7 323.5 336.1 350 365.1 378 389.6 400.1 410.7 424 436.4 450.1 461.8 472.6 482.5 493.2 504.4 514.7 524 535.1 547 555.7 558.8 559.5 560 556.7 553.1 550.8 549.7 550.8 548 542.7 536.8 534 553.2 571.8 587.7 602.3 617.9 631 644 656.2 664.8 671.2 675.5 679.7 683.8 685.6 687.2 690.8 695.5 700.3 705.3 710.5 714.4 713.7 708.7 702.4 693.1 682.5 670.7 657.6 642.8 627.1 609.3 585 548.6 517.3 501.5 488.1 470.7 456.6 443.3 429.1 418.9 410.3 398.3 385.4 372.2 359.2 349.9 342.7 336.1 333.1 341.3 346.6 348 350.5 349.7 350.4 348.1 343.9 341.5 346.4 351 359.3 368.1 374.8 378.2 362.4 339.6 320.8 301.4
288 284.2 280.5 276.3 271.3 267.9 272.7 280.9 289.3 295.2 301.1 302.5 299.9 300.9 302 308.5 321.5 336.8 351.2 364.7 377.1 390.3 398.4 404.3 410.4 413.8 420 420.8 418 409.9 397.6 381 364 336.9 316.6 289.2 266.7 248.8 231 214.3 199.6 196.3 195.9 196.7 196.7 196.7 196.7 196.7 196.2 202.7 216.4 233.7 251 268.2 282.9 300 318.3 340 365 386.4 406.5 425.5 440.4 453.4 462.5 468.8 466.9 457.7 441.7 421.8 401.3 391.4 376 359.6 360.2 363.6 369.6 373.4 372.7 378.7 376.8 381.3 383.8 380.3 373.2 365.1 358.2 352.7 347.5 345.6 343.3 342.9 340.9 336.3 338.7 349.5 352.8 350.5 333.8 328.7 339.2 352.4 364 378.5 394 407.9 421.8 434.4 448.1 460.4 471.9 483.4 495.2 507.6 517.7 524.7 539.8 554 566.2 571.4 575.7 578 576.6 572.9 569 567.3 568.6 567.3 564.4 559.1 552 550.8 568.5 584 600.1 616.3 632.2 645.7 657.4 666.5 672.1 674.4 677.7 680.2 681.9 683.9 687.2 692 697 701.9 707 710.4 709.2 703.6 697.2 688 678 667.1 653.5 639.2 623.3 607.4 588 552.5 544.8 525.4 507.7 492.8 481.1 468.6 453.9 439 424.9 411.4 392.9 375.7 360.3 347.3 341.2 347.5 352 358.3 362.5 365.3 369.3 368.8 367.9 364 360.6 358.7 364.2 373.6 380.7 389.2 396.8 397.1 373.5 348.6 325.6 308
294.9 292.2 287.4 282.5 277.9 275 276 279.9 288.7 298.2 306.5 310.2 311.3 307.7 309.3 312.7 321.2 334.5 348.6 365.4 379.5 392.7 403.4 412.1 418.1 420.3 422.8 421.2 413.2 405.6 393.6 377.9 363.4 340.8 317.1 294.3 272.7 252.5 233 218 204.9 196.7 196.4 196.6 196.8 196.9 196.9 196.9 195.9 204.4 215.7 228.6 242.5 260 275.8 295.5 319.8 339.5 362.3 383.7 398.8 417.5 439.3 453 464.2 468.9 466.2 457 440.2 417 404.1 388.3 366.9 366.1 366.3 378.3 382.5 387.6 390.2 393.7 395.9 400.2 401.8 398.9 389.5 377.6 370.1 365.6 358.8 356.8 352.2 352.6 349 346.7 343 355.7 361.8 362.6 354.3 338.3 334.3 346.3 356.9 374.1 389.8 403.8 417.6 431.4 445.1 458.8 470.4 483.4 496.4 508.4 518.5 529.2 544.9 558.8 571.4 581.1 588.8 593.9 594.3 592.1 587.9 586.4 584.9 583.9 582 577.6 570.7 562.3 567.4 583.4 598 613.5 629.5 643.8 655.7 665.6 669.5 671.2 672.3 673.3 675.1 678 682.2 687.1 692.1 697.1 702.1 704.9 704.2 698.7 691.5 682.3 673.1 662 649.4 635.5 620.9 605.8 590.1 587.5 573.6 555.7 537.7 520.6 510.6 496.2 479.4 462 443.8 417 390.1 368.4 354 346.2 357.2 364.2 370 377.9 381.4 383.7 386.8 387.9 387.3 384 380.7 379.4 388 398.6 404.6 410.7 418.5 414.2 384.9 353.8 331.8 315.6
301.6 299.3 295.1 290.4 283.7 280.9 280.6 282.8 286.9 298.4 310 317.2 320.9 319.1 318.9 320.1 323.3 332.2 347.9 363.5 378 392.3 405 415.1 422.3 421 418.5 413.2 407.6 400.6 389.3 375.9 360.1 340.7 317.6 297.8 278.3 256.1 236.3 219.7 211.2 197 196.9 196.7 197 197 197.1 197.1 195.9 202.5 211.9 222.3 237.8 256 272.2 294.8 321.3 342.3 357.3 378.4 400.9 418.7 436 450.5 461.1 465.5 462.5 455.2 436.7 422.8 405.5 389.6 367.5 372.3 374.8 389.7 393.6 399.7 405.8 408.9 412 418.2 421 417.4 410.3 394.1 385.2 378.9 373 368.7 363.9 358.8 360.2 357.6 347.8 361.1 375.3 380 370.8 362.4 346.6 340.4 351.8 364.4 382.5 397.2 410.7 426.1 441.4 455.8 469 482.2 496.3 508.1 518.7 530.1 546.8 560.9 572.8 583.3 594.8 604.1 607.7 606.4 605.3 602.3 598.9 596.9 594.7 592.5 587.7 575.1 567.4 583.2 598 610.8 622.6 638.6 650.6 658.8 661.2 662.4 663.1 664.3 667.2 671.3 675.9 681.5 686.9 692.2 697.1 699.2 699 693.9 686.9 677.7 669.4 658.7 646.3 633.4 620.5 607.7 602 600.1 595.1 584.5 568.6 550.6 534.4 510.2 483.5 456.8 430.3 404.6 379.3 357.8 353.3 364.3 371.2 379.6 387.3 397.2 404.3 407.9 412.8 411.7 412.5 409.6 405.1 404.8 412.8 420.8 429.2 432.2 436.9 425.8 388.7 356.6 332.5 318.4
310.4 306.4 303.4 297.5 291.5 288.2 286 286.1 288.4 296.8 311.5 320.8 328.8 330 330.4 330.2 331.6 333.5 344.5 360.4 376.4 390.5 403.1 414.6 418 414.2 410.4 405 399.1 392.3 380.2 368.5 354.7 337.6 318.5 300.8 284.6 260.9 238.4 220.3 211.3 196.9 196.6 197.1 197.2 197.2 197.3 196.9 196.2 203.7 209.6 220.7 236.9 256.6 276 292.2 315.1 333.6 352.1 372.8 395.8 415.6 432.4 446.1 457.1 462 461 454.9 441.1 425.3 409.9 390 371 378.2 383.3 395.8 403 405.5 418.1 422.5 430.2 433.6 436.3 434.5 421.7 412.5 401.2 396.5 389.3 384.6 375.6 374.3 368.7 364.8 353.9 366.4 384 392.7 390.7 384.5 367.4 345.7 344.6 357.6 372.4 388.5 405.1 422.2 437.4 452.1 465.8 480.4 495.7 507.5 517.6 527.3 545.8 560 571.6 582.8 595.1 605.3 612.4 615.5 615.6 612.7 609.4 607.7 604.4 603.2 601.3 592.4 585.2 579.5 596.8 606.9 618 630.1 639.9 645.2 649.1 651.2 653.3 655.9 658.4 663.2 669.8 675.4 680.9 686.7 692 693.5 693.7 689.3 682.3 674 666.1 655.2 643.6 632.9 621.5 613.5 606.7 602.2 596.5 587.5 567.4 539.5 519.3 494.5 467.6 439.7 412.3 385.5 365.3 357.9 366.2 379.8 388.8 397.8 409.1 422.6 431.9 437 441.2 440.4 441.6 437.3 430.2 431.3 437.1 443.7 449.8 452.8 452.5 429.7 386.5 360.5 338.6 324.5
317.2 314.7 312 310 301.5 297 293.3 291.3 292.5 296.1 306.9 321.2 331.1 335.7 338.2 340 340.1 341.8 348.3 358.9 375.3 389.1 400.1 409.8 409.9 407.5 402.9 396.8 389.3 380.6 371.2 360.6 346.9 332.3 317.8 304.1 289.9 266.8 240.4 221.5 212.2 197.4 196.7 196.7 197.5 197.4 197 197.4 197.6 199.8 209.9 220.2 232.7 252.4 271 288.3 305.2 319.7 342.9 365.3 387.5 411.7 430.4 443.2 453.5 460.1 461 452.6 445.1 429.8 414.5 390.2 390.2 394.2 394.2 402.5 408 416.1 430.1 437.2 446.6 447.9 452.1 444.4 445.5 431.9 419 416.6 407.2 402.2 392.9 386.7 381.3 370.9 360.9 371.5 388.9 400 405.5 402.8 389.2 370.7 356.3 352.6 366.8 381.6 398.7 416.3 434 447.1 461.8 477.8 492.2 505.4 514.6 524.7 539 554.4 566.2 577.8 590.4 602.7 611.7 617.8 618 617.9 617.6 616.3 616 611.8 613 610.7 602.7 594.9 595.3 604.4 611.8 619.6 626.3 632.1 637.6 640 643.6 647.8 652.1 657.9 664.6 670.4 676.2 682 686.9 688.8 688.5 684.7 678.8 671.5 663.3 653.5 642.7 632 622.2 613.5 606.4 599 587.7 572.9 548.3 520.8 496.7 473.3 447.9 420.8 391.3 372 363.8 371 384.8 396.1 405 418 430.6 448 459.7 466.9 470.6 470.2 469.5 465.5 456 455.1 457.7 466.1 470 472.4 464.5 436.4 390.2 365 347.5 330.9
324.8 325.5 323.8 322.1 315.8 309.9 303.9 299.3 298.2 300.7 305.4 316.4 327.9 338.4 345.1 348 348.6 349.3 354.8 366.4 378 387.3 398.9 406.3 406.2 402.2 395.5 387.2 376.9 367.4 357.7 348.2 337.8 327.2 316.7 306.4 292 269.8 243.7 223.8 213.8 201.2 197.4 197.5 197.7 197.8 197.9 197.6 197.8 200.5 208 217.2 233.3 255.1 273.9 283.4 296.9 316.7 335.5 355.5 377.4 407.3 427.9 442.2 451.8 457.9 459.8 457.3 449.6 437.9 421 396.8 404.5 405.2 404.3 406.6 415.2 420.9 438.7 450.7 459.7 462.2 467.1 468.8 459.8 459.2 443.8 432.5 425.1 416.2 409.9 400.1 390.4 379.4 366.4 378.5 395.7 410.5 419.2 418.4 407.1 388.9 371.1 355.3 361.5 376.1 393 411.1 429.5 443.1 458.7 473.6 488 499.6 511.6 522 532.8 546.8 558.8 572.8 585 595.7 606.9 614.4 618.6 621.4 622.1 624.3 626.3 624.6 623.3 623.3 620.9 611.3 609 608.9 611.5 615.7 621.9 626 630.5 636.6 641.5 646.8 651.7 658 662.7 668.2 673 677.8 681.9 684.3 683.8 680.8 675.6 669.3 660.8 651.7 640.9 629.7 620.3 610.7 600.6 589.3 574.6 554.4 528.3 501.2 473.7 450.1 427.3 399.6 381.1 371.7 372.7 386.1 400.7 414.1 422.8 437.6 455.9 473.4 485.1 495.3 499.2 498.7 497.1 490.5 480.3 480.6 482.7 486.2 489.6 487 476.6 449.5 403.2 374.2 355.2 338.6
332 336.1 337 333.3 326.9 323.2 319.1 314.8 310 307.6 312.6 314.5 323.3 337.8 349.7 355.3 359.2 363.1 369.5 376.2 386 394.8 401.1 403.6 401.7 395.1 385.6 376.2 364.6 354.5 344.7 334.3 327.2 319.6 312.9 304.2 288.5 267.7 242.3 224.5 213.2 207.4 197.3 197.4 197.6 197.7 197.9 198 197.6 201.5 209 217.9 230.6 249.4 270.5 283.8 300 316 337 358.5 380.5 403.9 426.4 441.4 450.9 457.6 460.6 463 458.7 448 429.4 423.8 418.3 417.6 416.9 415.9 422.2 430.4 446.6 461 471.2 479.9 483.4 485.2 486.2 476.6 468.1 454 439.9 433.3 424.7 414.4 404.3 389.1 378.5 388.8 407.4 424.2 431.4 433 425.5 406.2 387.8 370.9 355.6 370.8 387.5 404.2 421.6 437.6 453.8 468.8 482.8 494.3 505.8 518.3 528.4 540.8 552.6 567.3 579.5 591.2 600.2 610.6 618.8 624.8 629.1 631.5 632.8 632.9 633.2 633.2 631.9 628.9 627.2 625.9 626.7 627.9 629.1 635.1 639.6 642.6 646.6 650.5 654 657.7 663 668.5 672.8 675.9 678.6 681 681.1 678.6 673.8 666.8 658.3 649.2 638.8 627.4 615.7 604.3 591.2 576.7 558.6 534.8 509.6 481.9 453.9 428 404.7 389.7 378.3 375.4 386.2 405 419.9 431.5 444.1 459.8 479.2 499 510.5 521.7 523.5 524.9 521.3 514 507.2 501.6 506.1 507.8 505.7 502.2 490.8 456.1 421.3 388.8 364.7 345.6
337.7 346.3 349.4 345.1 342.9 339.4 335.4 332.2 326.7 321.7 322 323.4 324 339.9 352.3 362.2 369.5 377 382.9 386.9 393.4 400.8 405.4 401.6 396.9 387.2 375.1 365.3 352 339 329.9 323.7 315.2 308.4 302.8 297.5 283.5 263.7 241.5 226 214.6 206.7 197.5 197.7 197.8 198 198.2 198.2 197.8 198.3 209.5 215.4 226.5 246.7 267.1 287.3 300.9 320.5 340.2 365.7 389.2 408.6 426.5 441 450.9 459.1 466.1 471 468.9 461.4 439.6 436 430.2 429.4 428.6 428.8 433.3 439.8 451.1 467.3 479.5 490.9 497.2 499.4 501.4 498.2 481 463.2 458.6 453.7 443.5 430 419.1 400.1 392.6 402.5 421.5 435.2 443.1 446.4 441 423 399.7 382.1 362.7 371.1 383.2 398.9 416.4 432.5 448.9 463.3 476.3 490 501 512.9 525.9 536.7 550 564.1 577.1 587.7 597.1 610 619.3 626.8 632.4 636.8 638.3 640 641.3 640.2 641.2 640.1 638.7 638.8 639.4 640.5 642.8 645.8 648.6 650.6 652.1 654.8 657 660 665.7 669.4 672.9 675.6 677.8 677.8 677.9 675.2 670.6 661.8 653.5 644.8 633.1 621.5 609.2 596.2 581.1 562.7 541.3 515.2 490.3 462 431.6 410.1 394.9 384.3 381.8 389.6 406.5 425 441.5 456.6 469.8 482.2 497.3 518 532.1 539.6 543.6 545.3 542 534.4 529.6 526.5 526.9 524.3 521.9 515.3 498.9 469.5 446.9 411.6 383 359.1
