ncols 200
nrows 82
xllcorner 410000
yllcorner 373450
cellsize 50
335.7 338 339.3 339.9 337.8 335.8 333.9 332.5 332.2 332.3 332.4 330.8 328.7 325.8 323.4 321.4 319.5 318.9 318.9 318.4 317.8 317.1 317.4 317.9 318.5 318.1 317.4 316.7 315.3 314 312.7 313.2 313.7 313.7 312.7 309.3 301.6 289.2 298.7 310.8 307.2 318.1 329.2 333.7 340.5 344.2 346.7 348.2 350 351.6 353.3 354.7 355.9 356 357.4 359.2 360 360.8 363.1 366.3 369.5 373.8 378.3 383 384.6 381.5 378.5 374.5 369.4 365.8 362.4 356.8 351.2 347.8 343.9 340.8 339.1 338.1 337.2 344.1 345.3 345.6 346.7 346.6 346.7 344 342.7 347.7 350.8 350.9 351.5 356.2 362.8 368.2 372.4 377.1 381.8 384 382.1 379.1 376.2 372.7 368.4 364.2 360.1 355 350.9 346.6 344.1 342.3 340.5 339.1 337.1 334.8 332.9 331.2 329.6 327.8 325.9 326.4 326.8 327 327 326.7 326.4 325.8 325.7 325.9 325.7 324.6 323.2 321.4 319.1 316.6 314 311.6 309.4 306.7 304.5 303.2 301.4 299.9 299.6 298.6 297.6 297 296.4 296 296.3 296.5 297 297.4 297.4 297.6 297.9 297.7 297.4 297.1 296.9 297.2 301 304.5 308.2 313.2 311.7 308.7 306.6 305.4 302.9 301.7 301 298.9 298.8 295.4 296.6 295.6 295.1 293.5 291.2 294.1 294.2 294.3 294.4 292.9 292.6 292.8 293.5 293 292.5 292 291.6 291.6 291.1 290.5 291.8 294.4 298 299.8 301.8 300.8
333.5 333.9 333.7 334.4 334.5 334.4 332.7 330.3 328.6 328.2 328 327.2 325.7 322.9 321.5 319.5 317.6 316.9 316.6 316.1 315.7 315 314.5 316 316.8 316.5 315.8 315.1 314 312.2 310.1 311.6 312.9 311.9 310.8 309.1 301.6 289.2 291.5 303.8 316.8 326.1 330.5 334.2 340.6 344 346.6 348.9 350.5 351.9 353.4 354.8 355.8 355.8 356.2 356.5 356.9 358.5 360.7 364.9 368.5 372 377.6 382 383.4 382 378.8 375.8 372.6 369.9 367 362.1 357.9 355 352.9 350.8 347 342.9 339.9 337.1 335.7 337.1 339.3 339.6 341 339.6 341.7 345.4 346.5 347 350.3 356.2 363.7 368.4 372.9 376.6 379.3 378.8 377.1 375 372.5 369.9 365.8 361.6 357.4 352.5 348 345.3 343.6 342 340.6 339.1 336.7 334.4 332.6 330.9 329.2 327.4 323.9 324.1 324.5 324.7 324.5 324.3 323.6 323.1 323.1 323.3 323.1 322 320.4 318.7 316.7 314.4 311.7 309.6 307.3 305 302.6 301.4 299.9 298.6 298.5 297.5 296.5 295.5 294.9 294.8 295.2 295.7 296.3 296.9 296.5 296.7 296.9 296.7 296.6 296.3 296 297.9 301.6 305.1 308.7 312.1 310.9 308.5 307.2 305.2 302.8 300.8 300.5 298.7 297.3 295 295.2 294.1 293.6 294.1 291.1 291.8 292.8 293 292.9 291.9 291.3 291.5 292.2 291.3 291.1 290.7 290.3 290.4 289.6 290 291.9 294.8 298.2 300 299.1 298
333.7 332.1 331.6 331.6 332 332.1 331 330.1 328 325.3 324.4 323.7 322.3 320.8 319.8 317.6 316.4 315.5 314.5 313.7 312.4 312.2 311.7 311.7 313.1 314.1 313.4 311 309.5 308 306.2 307.4 307.7 308.8 307.8 306 298.3 288.9 291.9 318.7 326.5 331 333.2 336.8 340 343.5 346.4 348.6 350.2 351.5 353.1 354.3 354.8 354.4 353.6 353.6 354.3 355.8 358.6 362.1 366.2 370.3 375.5 378.8 381.2 382.4 379.8 377.4 375.1 372.4 370.2 367.5 366.6 365.9 363.7 359.8 356.2 352.7 350.1 347.8 345.2 339.7 332.6 332.3 332.3 333.8 338.8 341.4 342.6 345.1 350.6 358.5 363.4 368 371.1 372.6 373.5 373.3 372.5 371.3 369.5 366.7 363.2 359.4 355.4 351 346.8 343.2 339.6 339.3 339.4 338.4 336.2 334 332.3 330.6 328.7 326.6 323 321.2 321.8 322.2 322.1 321.6 320.9 320.4 320.5 320.6 320.3 319.2 317.6 315.9 314 312 309.5 307.6 305.2 302.9 300.8 299.6 298.3 297.3 297.2 296.3 295.3 294.3 293.3 294 294.4 295 295.5 296.1 296 295.8 295.9 295.7 295.6 295.4 295.7 297.4 300 305.1 309.6 309.8 307.9 306.4 305.2 304 302.4 300.8 299.6 298.9 296.7 294.9 293.2 292.6 291.9 290.9 291.6 290.5 291.8 291.8 291.4 291 290 290.2 290 289.8 289.7 289.5 289 289.1 288.5 290.3 292.1 294.8 296.6 297.3 296.1 294.3
335 333.3 331.3 330 330 329.5 329.2 329.4 327.4 324.8 323.1 322.9 322.4 322.3 321.9 321.1 319.1 317.2 316 314.9 313.4 312.2 311.2 309.7 309 308.5 308.2 305.6 305 303.9 302.4 303.2 301.5 304.9 304.6 302.7 294.7 288.7 308.8 324.8 328.9 333 335.9 338.9 341.4 343.8 346.4 348 349.7 351 352 352.7 353 352.5 351.8 351.5 352.2 354 357 360.4 364.3 368.9 373.8 376.9 379.8 380.8 380.3 379 376.6 374.4 372.6 371.4 371 373.2 375 374.2 369.6 365.4 360.7 356.8 352.9 350.4 346.2 341.6 337.5 331.5 332.2 335.8 338.1 346.6 353.4 359.8 364 366.7 367.8 368.2 368.3 368.6 368.8 368.5 366.1 363.5 360.1 356.9 353.4 349.5 345.4 341.8 339.3 337.9 337.5 337.1 335.7 333.7 331.7 329.6 327.4 325.3 323.1 319.3 318.7 319.3 319.6 318.9 318.3 317.9 317.9 317.8 317.3 316.2 314.6 312.9 311.1 309.2 307.4 305.5 303.3 301 298.8 297.6 296.4 296.1 296 295.1 294.1 293.4 293.1 293.1 293.7 294.2 294.8 295.4 295.4 295.1 294.9 294.7 294.6 294.4 294.5 296.1 298.3 300.9 304.2 306.5 305.2 304.6 303.2 302 300.5 299.5 299.6 299 296.7 294.4 293.1 292.5 291.3 290.6 289.7 289.8 290.6 290.9 290.4 289.5 288.9 288.6 288.6 288.4 288.3 288.2 287.8 287.4 288.1 289.3 291 293 294.5 294.4 292.8 292.9
337.5 336.6 334.3 332 330.6 328.5 327.7 327.1 326.1 325.9 326.7 327 327.4 328.3 328.2 326 323.3 321 318.8 318.2 316.7 315.7 314.6 314.1 312.1 311.1 310.8 311 309.1 307.5 306 303.2 298.8 296.8 299.9 297.9 288.7 290.6 318.6 323.7 328.2 332.3 336.8 340.1 342.8 345.2 347 348.4 349.5 350.4 351 351.6 351.5 350.9 350.1 350 350.4 352.3 355.5 358.9 362.5 367.3 372.2 375.5 378.2 379.4 378.6 377.2 375.7 374.2 372.4 371.7 372.6 374.4 377.6 380 384.7 385.8 382.6 375.4 369.9 364.9 361 354.2 349.5 343.4 335.1 329.7 338.1 350.8 355.7 360.3 363 364.1 364 364.4 364.5 365.5 366.3 365.4 363 360.3 357.1 353.9 351 347.1 343.8 341.1 338.7 336.4 335.6 335.3 334.3 332.7 330.4 328.2 326 324 322.1 319.6 316.4 316.3 316.8 316.6 316.2 315.6 315.5 315.2 314.3 312.9 311.3 309.6 308 306.3 305 303.1 301.2 299.3 297.1 295.1 294.2 294.7 294.8 293.8 293.3 293 292.6 292.3 292.8 293.5 294.1 294.7 294.8 294.8 294.4 294 293.4 293.2 293.2 294.6 295.8 297.5 299.4 301.3 302.8 302.9 301.5 300.1 299.4 299.2 298.9 298.4 296 294.9 294.8 293.9 292.5 291.6 289.9 290 288.8 288.7 288.8 288.5 288.4 288.2 287.4 287.5 287.3 287.2 286.7 286.2 286.9 288.2 289.4 291 292.1 291.5 290.2 293.3
341.9 341.4 339.3 336.3 332.7 330.3 328.8 328 328.3 328.7 329.9 331.4 332.4 332.5 332.9 333.2 333 329.2 325.9 321.5 320.3 319.4 319.2 318.9 317.4 317.8 316.7 315.9 314.1 313.6 312.8 310.6 307.8 305.1 298.2 289.4 286.5 304.7 316.7 321.4 325.3 328.8 333 338 341.8 345.2 347.7 348.6 349.4 350 350.1 350.5 350.1 349.3 348.5 347.9 348.5 350.7 353.9 357.1 361 366.4 370 373.5 375.8 377 376.7 375.5 374.2 372.7 371.1 370.3 371.2 372.8 376.5 381.2 385.8 387.6 386.6 384.9 382.1 378.8 374.8 369 361.9 354.7 349 334.1 329.7 349.5 356.2 359.2 360.9 361.6 361.7 361.4 361.9 363 363.6 362 360 357.2 354.1 351 348 345 341.6 340.3 338.1 335.9 333.7 333.4 332.9 331.5 329.3 327 324.8 322.6 320.6 318.7 315.6 313.5 313.8 313.6 313.4 313.2 313.2 312.4 311.7 310.3 308.7 307 305.3 304.3 303 301.2 299.6 297.9 295.7 293.2 291.8 292.7 293.5 292.6 292.7 292 291.8 291.6 291.9 292.6 293.3 294 294.7 294.8 294.9 294.6 293.5 291.9 291.2 291.9 293.5 295.1 296.2 297.7 299.5 300.7 301 300 298.7 298.4 297.9 297.8 296.5 299.9 298 295.7 294.1 292.7 291.4 290.9 290.1 289.7 288.9 288.2 287.7 287.5 286.5 286.2 286.5 286.1 285.6 285.2 285.7 286.6 287.9 289.2 289.7 289 289.7 293
344.4 343.6 341.8 339.6 335.9 332.9 331 329.8 330.8 332.5 333.8 335.7 339.2 341.1 340.6 339.7 339.7 340.1 338.3 330.3 327.3 326.2 324.8 323.7 322.8 322.7 321.4 319.6 317.7 316.4 315.8 314.6 311.5 309.9 307.2 295 285.8 300.8 311.8 318.4 321.8 324.9 328 332.2 338.2 343 345.6 347.4 348.3 349.7 349.8 349.9 348.9 347.7 346.8 346 346.5 348.6 351.8 354.9 359.2 364.4 367.7 371 372.9 374.1 373.9 373.3 372.7 371.2 369.6 367.9 368.8 370.7 375.1 382 385.6 385.9 384.7 383.4 380.9 378.3 375.1 371.1 366.2 358.2 354.2 346.1 326.6 343.2 354.2 357.2 358.3 359 359.3 358.9 359.5 361.3 361.3 358.8 356.9 354 351.1 348.1 345.5 342.8 340.2 339.1 337.5 335.3 333.1 331.5 331 330.2 328.1 325.9 323.7 321.4 319.1 317.1 314.2 312 310.7 310.6 310.8 311.1 311.2 310.1 309 307.7 306.2 304.5 303.2 302.2 301.2 299.6 298.1 296.5 294.1 292.1 290.4 290.7 291.5 291.6 291.7 291.6 290.7 290.2 291.1 292.4 293.2 293.9 294.9 295.2 295.4 295.1 293.8 292.5 291.2 289.5 291 292.8 294.5 294.9 296 297.4 300 299.2 297.6 297.5 297.4 296.9 298.2 301.3 300.9 298.2 295.9 294.3 292.8 292 291.2 290.3 289.8 289.4 288.5 287.4 286.5 285.8 285.6 285 284.5 284.1 284.5 285.4 286.3 287.5 287.3 286.5 289.4 291.4
347.1 345.5 343.4 341.1 338.2 334.5 331.8 331.7 333.3 335.8 338.5 343.4 345.8 348.4 348.5 347.8 346.6 344.4 342.2 339.5 336.4 335.3 334.6 332.4 329.1 325.7 323.8 322.2 320.7 319 318.3 317.3 314.8 313.2 310.6 304.6 287 288 304.8 314.6 318 321 324 328.6 332.9 340.4 343.4 346.1 347 349 349.4 349.4 348.9 347.5 346.1 344.8 344.4 346 349.5 352.8 357.3 362.4 365.3 367.5 369.2 371 371.3 370.8 370.7 369.6 368 366.2 366 368.8 373.6 379.6 383.6 383.4 382.7 381.2 379.5 376.9 374 370.8 366.8 361.2 355 344.7 325.5 339.4 350.7 355.2 356.5 357.6 357.1 356.9 357.5 359.6 359 356.6 354.1 350.6 347.3 345.3 343 340.6 339 337.9 336.7 334.6 332.5 330.3 329.2 328.7 327 324.8 322.6 320.3 317.9 315.5 313.1 310.6 308.1 308.1 308.5 308.9 309 308.1 306.9 305.3 303.6 302.2 301.2 300.4 299.5 298.3 296.7 295.2 293.5 291.7 290 289 289.9 290.8 291.1 291.1 290.5 289.5 290.4 291.7 293 294 295 295.5 295.8 295.6 294.5 293.5 292.5 290.6 287.7 290.4 292.5 293.2 292.8 293.6 294.2 295.2 298.7 299.5 299.1 298 298.5 300.7 302.2 302.8 298.5 296.9 295 293.2 292.2 291.3 290.4 289.7 289.3 288.2 287.5 286.7 286.5 285.7 284.9 283.8 283.3 284.2 284.3 285.7 285.1 285.7 287.8 289.3
351.3 348.3 345.3 342.2 339.2 335.3 334.3 333.6 335.4 338.3 341.7 345.8 349.7 351.8 351.4 350.8 350.2 348.6 346.1 343.6 343.6 343.6 342.7 340.8 337.1 331.5 325.5 323.4 321.8 320.8 320 319.3 318.1 316 312.9 308.4 299.5 284.2 288.9 306.1 314.6 317.5 320.4 324.4 329.3 336.7 341.1 344.1 346.2 348.2 349 348.9 348.6 347.6 346.2 345 341.5 342.6 346.3 349.7 354.7 359.5 361.7 363.8 365.9 367.9 368.3 368.5 368.3 367.7 366.1 364.6 363.2 366.8 370.3 374.6 378.2 379.6 380.2 379 377.5 375.4 372.4 369 365.3 360.6 354.2 344.9 324.6 333.1 346.4 351.2 355.3 356.6 355.4 355.1 355.4 357.9 357.5 354.9 351.9 348.6 343.6 341 339.8 338.6 337.4 336.3 335.3 333.3 330.7 328.1 328 327.6 325.7 323.6 321.6 319.1 316.6 314.2 311.7 309.4 307 305.8 306.2 306.5 306.7 306.2 304.9 303.2 301.7 300.7 299.8 298.9 298 297.2 295.8 294.3 292.8 291.3 289.6 288.3 288.9 289.9 290.9 291.1 290.8 289.5 290.2 291.3 292.5 293.6 294.9 295.8 296.2 296.2 295.6 294.6 293.7 292.6 289.7 285.4 289.5 289.9 289.5 290.4 293.6 298.4 302.9 304 302.8 301.7 300.5 300.2 301.4 302.1 302.1 299.4 297.4 295.2 293.6 292.7 291.7 291.5 290.9 289 288.1 287.6 287.5 287.3 286.4 286.2 285.6 285.2 283.2 281.4 283.8 284.1 286.5 280.7
352.5 349.8 346.4 343.7 340.7 339.2 337 335.8 336 338.2 341.5 344.7 348.5 351.3 353.3 353.2 352.2 350.6 348.7 347.1 346.7 346.3 345.7 343 340.2 334.7 327.7 324.2 321.8 321.6 321.3 321.3 320.5 319 316 311.9 306.3 294.6 283.6 297.1 306.8 313.4 316.6 320.3 325.9 333.2 337.5 341.1 343.8 347.1 348.5 348.4 348.1 347.6 346.3 345.2 343.3 339.3 343.1 346.8 352.1 356.5 358.5 360.6 362.6 364.6 365.5 366 365.8 365.5 364 362.7 361.3 364.9 368.2 372.9 375.9 376.9 377.2 376.7 375.7 373.5 370.6 367.2 363.5 359 352.6 341.8 325 326.4 342.7 348.6 353.6 355.6 354.3 353.3 354.2 356.5 356.2 353.7 350.7 347.2 342.3 337.6 336.3 335.4 334.7 333.3 332.5 331.7 328.8 325.9 326.7 326.4 324.6 322.7 320.7 318.6 315.8 313.2 310.6 308.2 305.9 303.8 303.8 304.1 304.3 304.3 302.8 301.5 300.4 299.5 298.6 297.6 296.7 295.7 294.8 293.3 291.8 290.4 288.9 287.6 288.3 289.1 290.1 290.9 290.3 289.4 288.9 290.4 291.9 293.2 294.7 296.1 296.4 296.3 295.9 295.6 294.8 293.9 292.3 290 284.5 284.9 286.4 292.2 296 298.8 302 304.5 306.5 305.4 304.1 302.8 301.9 302.2 302.5 301.9 299.8 297.7 295.5 294 292.7 293.2 292.4 290.5 288.5 287.9 287.4 288.9 288.8 288.6 288.3 288.4 287 284 280 280.8 283 284.8
353.7 351 347.7 346.1 344.4 343.6 342.1 339.5 337.7 337.5 338.6 340.8 343.6 347.1 349 351.7 351.9 350.9 348.7 347.3 346.1 344.9 344.2 343.1 340.3 334.2 326.1 322.6 320.7 320.9 321.5 321.8 321.9 321.2 319.1 315.4 311.4 304.8 294.7 282.3 298.4 307.8 312.2 315.7 321.8 328.9 333.7 338 341.3 344.8 347 347.8 347.5 347.2 346.4 345.1 342.8 338.3 340 344.4 349.8 353.3 356 358.3 360.3 362.2 362.9 363.4 363.1 362.6 361.6 360.5 359.6 362.9 367.4 372.2 375 375.1 374.3 373.8 372.8 370.9 368.8 365.3 361.7 357.6 353 345.3 333 322.5 337.2 348.3 353.3 354.8 353.5 352.7 352.8 355.5 355.1 353 349.9 346.4 341.6 337.5 333.5 330.7 330.3 329.9 330 329.7 326.7 324.1 326.4 325.8 323.9 321.9 320 318 316 313.4 310.8 308.2 305.7 302.8 301.6 301.8 302 302.2 301.3 300.2 299.1 298.2 297.3 296.4 295.4 294.5 293.5 292.6 291.2 289.8 288.4 287 287 287.8 288.8 289.5 289.9 289 288.1 289.2 291.1 292.9 294.6 296.4 296.7 296.4 296 295.7 295.3 295 293.5 292.1 288.1 282.4 288 293.2 295.9 297.7 300.7 303 306.4 308.8 306.7 304.4 303.3 303.3 303.1 302.9 301.8 299.5 296.5 294.1 293.3 293.4 293.6 292.1 289.6 288 287.4 288.6 290.3 291.2 291.2 291.2 290.7 288.7 286.7 280.1 282 285.3
355.4 352.2 350.5 349.4 348.6 348 347.3 345.4 341.1 337.7 336.8 337 337.9 339.6 343.6 346.7 348.6 348.5 347.1 345.5 343.8 342.2 341.4 340.3 337.6 329.7 324.3 322 320 319.2 319.8 320.3 320.8 321.5 321.3 318.5 314.6 310.1 303.2 287.1 281.6 294 305.3 309.7 315.4 323.1 329.2 333.9 338 341.4 344.8 346 346.2 346 345.5 343.9 341.8 337.3 336.8 342.5 347 350.2 353.3 355.8 357.9 359.6 360.3 360.7 360.2 359.7 359.3 358.6 358.6 362.1 366.5 371.3 374.1 373.1 372.2 371.3 369.5 367.1 365 361.5 358.7 356.1 352.4 348.1 339 321.4 335.5 346.2 352.1 353.9 352.5 350.6 351.4 354.5 353.8 352.3 349.3 345.7 341.7 338 334.1 331.5 326.4 326.9 327.9 327.1 324.1 323.7 326.1 325.2 323.2 321.3 319.6 317.7 315.5 313.4 311 308.4 306.2 302.7 299.7 299.8 300 299.9 299.9 298.9 297.8 296.8 296.1 295.1 294.2 293.2 292.6 291.7 290.7 289.3 287.9 286.5 285.7 286.6 287.5 288.1 288.4 287.9 287.2 289 291 293 294.6 296.4 296.9 296.5 296.1 295.7 295.4 295 294.4 293.1 290.6 281.9 288.6 292.6 295.3 296.9 299.2 301.5 304.6 307.1 307 305.7 304 302.7 302.3 301.7 300.3 298.6 296.1 293.5 292.7 291.9 292.6 292 289.4 288 287 287.7 289.7 291 291.9 292.1 291.5 290.5 289 286.6 283.3 286.4
357.8 354.7 353.4 352.8 352.4 352.3 351.4 349.8 346.4 338.2 335 334.8 334.9 334.9 337.1 341.1 343.2 344 343.6 342 340.5 339.2 336.7 334.9 330.5 325.7 323.1 320.6 319 317.4 317.7 318.3 318.9 319.8 319.9 319 316.3 312 307.4 300.8 287.9 281.3 291.2 302.6 308.1 318 322.4 328.2 333.4 336.8 340.3 342.6 344 344.4 343.7 341.5 339.4 335.5 334 339.6 343.7 346.7 350 353.4 355.7 357.3 358.3 358.9 358.4 357.9 357.5 357.1 357.7 360.7 365.3 369.8 371.6 370.2 369.9 368.9 366.2 363.5 361 358 355.2 352.1 350.1 345.6 337.9 320.5 335.4 348.1 351.9 352.3 350.9 349.4 350.5 353.8 353.3 351.6 348.6 345.2 341.7 338.2 335 332.7 330.5 326.7 323.2 324.1 322 323.3 325.2 324.6 322.9 321.1 319.3 317.2 315.1 312.9 310.9 308.2 305.6 302.9 299.4 297.8 298 297.6 297.9 297.4 296.5 295.5 294.9 293.9 293 292.3 291.7 290.8 289.8 288.7 287.5 286.1 284.4 285.3 286.2 286.7 286.7 286.2 287.3 289.1 291.3 293.4 295.4 296.4 297 296.6 296.2 295.8 295.4 295.1 294.7 293.8 290.9 282.6 287.7 292.7 294.9 296.5 298.1 299.6 302.3 304.2 305.3 304.2 303.8 303 301.6 300 298.6 297.2 295 292.8 291.9 291 290.3 289.8 288.1 286.5 285.9 286.2 288.9 290.2 291.2 291.1 290.8 289 286.4 282.1 283.2 289.9
360.9 357.8 356.6 356.1 356.4 357.1 356.9 355 352 345.4 336.9 334 333.1 332.7 333.4 335.7 338 339.3 339.5 337.6 336 333.7 330.6 328.9 326.2 324 321.7 319.2 317.7 314.9 313.9 313.1 313.5 315.9 317 316.4 315.8 313.2 309.6 304.9 298.3 288.3 280 289.7 302.6 309.6 317.7 323.3 328 331.8 335.7 338.9 340.9 341.7 341.3 339.5 337.2 332.5 331.7 336.5 340.2 344.1 348.6 351.6 354.4 356.4 356.6 357.1 356.6 356.1 355.7 355.3 356.3 358.4 362.1 365.3 368 367.6 367.4 365.7 363.6 362.6 360.1 354.8 351.3 347.2 343.5 339.1 330.1 320.3 337.5 347.1 350.4 350.2 348.7 347.3 349.5 352.4 352.9 350.6 348.1 344.7 341.2 337.7 334.3 332 329.7 327.7 323.9 320.4 319.5 322.5 324.4 323.6 322.2 320.9 319 316.8 314.7 312.5 309.8 307.1 303.5 300.4 298.2 296.5 295.6 295.2 295.6 295.4 295.1 294.2 293.5 292.7 292 291.4 290.8 289.9 288.9 287.9 286.8 285.6 283.7 284 284.9 285.2 284.9 285.8 288.2 289.1 291.5 293.8 295.7 297.2 297 296.6 296.2 295.9 295.5 295.1 294.6 294.3 291.8 279.9 283.8 291.3 294.8 296.5 297.9 298.7 300.2 301.4 302.5 303 302.8 302 300.3 298.6 296.9 295.2 293 291.7 290 288.5 287.8 287.1 286.2 285.1 285 285.9 287.7 288.8 289.5 289.8 289.8 283.2 287.5 291.4 289.8 292.7
365.4 361.7 360.6 359.8 360.1 361.2 361.6 360.5 356.8 349.5 340.7 335.4 332 331.1 330.5 332.1 333.4 334.6 335.6 333.8 331.7 329.7 327.4 325.5 323.4 322.1 319.3 316.8 315.6 313.7 310.4 306.8 303.3 303.7 307.2 311.5 312.8 311.8 310.4 307.5 303.5 298.4 288.2 279 288.1 303.8 312 318.6 323.7 326.5 329.7 333.1 335.9 337.7 337.7 335.6 332.4 329.7 332.3 337.3 341.3 345 349.2 351.4 353.7 355.8 356.2 355.7 355.3 354.9 354.4 354.1 354.9 356.5 359.2 361.7 364.4 366.3 366.7 366.3 365.4 364.2 361.4 358 354.7 351.5 346.3 339.3 328.5 319 332.6 344.5 348.1 347.8 347 346 346.6 349.8 350.3 348.7 346.4 343.6 340.4 337 333.7 330.7 327.8 325.9 324 321 318.4 320.8 323 322.4 321.1 319.8 318.5 316.5 314.3 311.9 308.9 305.3 302 298.7 296.4 295.2 294.4 293.8 292 291.8 292 291.4 291.4 291.7 291.1 290.6 289.9 289 288 287 285.9 284.9 283.5 282.3 281.7 282.9 284.2 286.6 288.9 291.2 293.5 294.9 296.4 297.6 297 295.9 295.3 294.4 293.8 293.7 293.6 293.4 292.3 283.2 282.9 291.7 294.7 296.8 297.3 298.5 298.6 299.9 300.9 301.5 302.1 300.8 299.5 298.2 296.9 295.3 293.5 291.6 290.4 288.5 285.4 284.7 284.3 284 284.2 285.3 286.7 287.8 288.9 289.7 289.1 280.6 289.6 292 293.1 293.6
371.1 366.9 365.5 364.4 364.1 364 364.5 362.5 358.6 352.5 345.8 339.5 334 331.9 330.3 330.2 331 331.5 332.2 330.7 329.7 328.4 326.3 323.3 321.7 321.4 320.3 319.3 318.8 318 316.7 316.5 314.2 311.7 302.1 300.2 307.5 309.8 308.5 307.7 304.9 301.9 298.3 289.5 278.1 289 305.4 314.7 321.1 323.3 325.1 326.8 328.9 331.6 331.3 330.2 328.5 329.1 332.8 337 341.2 344.3 348 351.5 353.6 355.2 355.5 355 354.4 353.9 353.2 353.5 354.6 355.5 358.5 360.8 364.4 367.6 368.9 368.1 367.2 365.7 363.4 360.7 357.6 353.9 348.4 341.1 331.8 318 324.4 336.7 343.5 346.1 346 344.4 343.6 345.5 346.9 346.5 344.6 341.8 339 335.8 332.6 329.9 327.1 324.2 321.4 319.8 316.9 320 321.2 321.1 320.1 318.8 317.5 316.1 314 311.6 310.4 307.3 303.6 300 297.9 296.5 294.5 292.3 292.5 291.4 289.8 288.2 287.9 288.8 290.3 289.7 288.9 288 287.1 286.1 285.1 284.6 284 281.2 280.9 285.3 285.3 286.6 289.6 292.7 294.5 295 296.1 296.4 296.4 295.6 294.5 293.1 292.1 291.9 291.9 291.8 290.8 283 283.6 291.9 294.9 296.4 296.6 296.7 296.8 297.4 298.8 299.6 300.5 301.2 300.1 298.9 297.6 296.1 294.2 292.2 290.8 288.9 286.2 284.8 283 283.1 283.6 284.7 285.9 287.2 288.3 288.9 288.5 279.8 288.9 291.4 293.7 296.1
376.9 372.8 370.6 369.8 369.3 368.4 367.1 364.2 360 355.1 349.8 342.3 335.5 332.5 330.9 329.8 329.9 329.8 329.4 329.2 328.2 327.2 325.8 325.7 326 325.6 324.1 323.2 322.3 321.5 320.9 319.8 318.6 317.4 316.1 306.6 297 305 306.6 306 304.5 303.7 305.2 304.4 294.1 277.6 288.3 310.5 318.6 321.7 323.2 323.7 324.3 325.5 326.1 325.9 326.2 329.2 332.5 335.6 340.4 342.9 346.2 349.8 352.5 354.3 354.7 354.4 353.5 352.8 352.3 353.6 355.1 357.1 360.3 364.7 368.4 371.4 372.5 370.7 368.8 367 365 362.6 359.3 355.2 349.7 341.6 332.4 322.8 316.8 327.5 336.5 342.1 344.1 343.4 341.6 341.8 342.3 343.2 342 339.8 337.2 334.7 331.6 328.8 325.8 323 320 317.4 315.5 319 319.2 319.3 318.7 317.7 316.6 315.2 314.3 313.3 311.9 309.9 306 302.4 300.2 298.7 297.6 297.2 296.8 295.5 293.3 291.2 288.3 286.2 286.7 288.8 288 287.1 286.2 285.2 284.9 284.6 284.2 282.3 278.8 284 284.7 286.4 288.8 291.4 294 294.2 294.6 294.9 294.8 294.6 293.7 291.6 290.4 290.2 290.1 290.1 288.7 278.7 285 292.4 294.7 295.2 295.4 295 294.8 295.2 296.7 297.7 299 299.8 300.2 299.1 298.1 296.9 294.9 292.9 291 289.1 287.1 285 282.9 282.2 283.1 284 285.3 286.5 287.5 288.3 287.5 279.9 289 292.7 295.9 298.5
380.7 379.9 377.8 377.6 378.1 375.9 371.8 365.7 359.4 354 349 343.8 337.6 333.1 331 329.9 329.1 328.8 328.1 327.9 327.2 326.2 327.7 328.8 329.8 330 328.9 327.8 326.9 326 324.9 323.9 322.8 320.6 319.3 316 308.2 293.7 300.6 303 302.2 302 305 306.7 303.5 286.1 277.4 300.8 316 320.3 322.3 321.9 321.5 321.6 322.2 323 325.5 328.4 330.8 333.7 337.8 340.8 342.9 346.9 348.9 350.6 352.6 353 352.1 351.4 352.8 354.4 356.2 359.4 363.3 369.2 374.6 376.7 375.2 373.1 370.8 368.2 366 363.3 360.3 356.7 351.7 344.7 337.1 330 317.9 316.9 328.1 336 341.4 342.2 340.5 339 338.9 338.6 338.5 337.7 335.1 332.2 329 326.5 324 321.2 319 316 315.1 318 318.8 318.3 317.6 316.7 315.7 314.6 314 313.8 312.9 311.1 309.3 306.1 303.3 301.5 299.8 299.1 297.9 296.4 294.3 292 289.8 287.4 284.8 285.5 286.4 286.4 285.3 283.9 283.7 284 284.1 282.8 278.6 281.7 283.5 286.5 288.6 290.7 292.2 292.7 293 293.5 293.7 293.4 292.1 290.4 288.7 288.3 288.5 288.6 283.1 277.2 289.9 292.6 294.1 294 293.5 292.6 292.6 292.7 294.4 295.9 297.1 298.2 298.9 298.9 298.4 297 295.6 294.2 292.1 290 288 285.6 282.5 280 280.4 282.9 284.5 285.4 286.1 286.7 282.6 284.2 291.6 293.8 296.7 298.4
384.7 386.1 384.8 383.6 382 380.7 377.2 367.4 359.5 352.9 347.5 342.9 338.1 333.5 331.2 330 329.2 328.7 327.3 326.7 327.1 327.7 329.5 331.2 333.1 334.1 334.7 334.3 332.7 331.3 329.8 328.8 327.8 325.7 322.8 319.5 315.5 308.2 295.5 291.5 295.6 297.9 301.7 304.1 301.4 288.2 277.3 297.8 312.7 317.4 319.9 319.9 317.2 317.4 321.1 322.2 324.1 326.5 328.6 330.6 331.7 337.1 340.2 341.5 343.1 345.3 347.7 349.4 350.6 352.4 354 355.7 358.4 361.9 366.4 373.2 379 379.5 377.4 374.6 372 369.3 366.6 363.9 360.9 357.6 353.8 349 340.8 332.8 325.6 315 317.9 330.7 338.5 341 340 337.9 336.5 335.4 334.7 334 332 330 326.4 323.5 321 319.1 317 314.1 315.2 317.7 317.9 317.1 316.4 315.7 314.9 314.1 313.9 313.8 313.1 311.9 310.1 307.8 305.3 303.2 301.4 299.5 298.4 296.7 294.7 292.5 290.2 287.8 285.8 282.8 281.9 282.7 284.3 283.4 281.3 283.5 283.2 283 280.1 277.4 283.3 286.3 288.7 290.1 290.7 291.2 291.5 292 292.5 292.6 290.9 289.3 287.6 285.9 288.1 288.2 280.6 279.3 290 290.8 291 290.7 290.3 289.8 289.5 290.3 291.5 292.8 294 295.3 296.2 296.8 296.8 296.6 295.6 293.8 291.6 289.7 287.4 285.6 283.3 280.5 279.1 281.4 283 284.2 283.7 279.6 282.7 289.5 292.7 294.9 296.7 298.4
386.1 390.3 391 389.9 386 381.5 376.8 369 358.7 351.4 346.3 341.7 337.1 333.6 331.4 330.1 328.8 327.9 328.3 328.8 329.4 330 331.3 332.9 335 337.1 338.5 338.6 337.5 335.6 333.8 333.2 332.5 331.1 328.4 322.9 318.7 314 310.1 301.6 290.6 285.1 294.3 297.1 294.2 277.9 284.4 304.5 308.1 314 316.4 312 313 322.1 325.5 327.3 327.3 328 327 327.9 329.7 332 336 337.2 339.4 343.2 347.2 350.3 351.9 354.2 356.4 357.9 359.9 364.1 368.5 375.2 380.5 380.2 378.3 375.5 372.8 370 367.1 364.4 361.3 358.1 354.8 350.3 345.8 338.5 332.1 325.1 313.2 322.7 335.9 339.4 338.9 337.1 335 333.5 332.1 330.2 328 326 324 321.2 318.3 316.6 314.5 311.6 315.5 317.1 316.9 316.2 315.4 314.9 314.4 313.9 313.7 313.8 313.1 312 310.5 308.6 306.2 304.3 302.4 300.5 298.6 297 295.1 292.7 290.8 289.3 287.8 285.8 283.1 280.2 280.2 282 280 282.9 282.7 282.4 280.1 276.4 283.4 286.1 288.5 289.8 289.5 289.6 290 291.5 292.1 291.6 289.9 288.2 285.6 283.4 286.7 286.6 277.2 279.8 286.2 286.7 286.9 286.5 286.4 286 286.2 287.1 288.4 289.7 291 292.2 293.3 293.9 294.5 295.1 294.3 293.1 291.1 289.1 286.9 285.1 283.4 281.1 278.2 279.2 280.2 280.5 275.9 282.1 288.4 290.9 292.8 294.6 296.3 298.1
387.5 393.3 397.4 397 391.5 384.4 377.4 368.6 358.9 350.2 344.4 340.2 336.9 333.7 331.5 330.4 329.6 329.4 329.8 330.3 331.7 332.5 333.2 334.4 336.2 338 339.9 340.9 340.7 338.8 336.8 335.6 333.9 333.7 332.1 328.6 321.9 318 314.5 310 303.8 294.4 280.8 287.5 285.5 275 290.8 281.8 285.1 293.8 302.9 306 321 325.1 329.8 332.3 332.7 333.2 332.6 331.8 331.1 331.5 332.8 336 340 343.6 346.7 350.2 352.7 357.5 357.6 359.9 362.1 364.9 368.2 374.1 379.4 380.4 378.8 376.4 373.5 370.6 367.4 364.7 362.2 359.8 356.6 353.7 349.6 344.8 340 332.4 320.6 314 330.9 338.5 339.2 337.4 334.8 331.9 330.1 327.6 325.1 322.6 320.4 318.4 316.1 313.6 312 312.4 313.9 316 315.9 315.2 314.7 314.2 313.6 313.4 313.5 313.8 313.1 311.8 310.2 308.3 306.6 305.1 303.5 301.6 299.6 297.6 295.8 294.1 292.3 290.3 289.2 286.8 285.3 282.9 279.7 277.5 277.8 281.4 281.9 281.8 280.1 274.8 282.2 285.2 287.6 289.4 288.8 288.8 288.9 291.2 292.1 290.4 288.4 286.7 284.7 279.8 283.2 282.2 272.3 277.6 280.8 280.4 280.5 280.4 281 282 282.9 284.7 285.8 287.3 288.3 289.2 290.3 291.2 292.6 293.8 293.4 292 290.6 288.4 286.4 284.7 282.9 281.2 279 275.4 279.3 276.5 280 285.3 287.6 288.9 291.4 293.8 295.9 297.6
385.5 392.5 395.7 397.4 394.4 386.9 378.8 370.4 361.1 351 343.7 339.1 335.8 333.5 332 330.9 329.9 330.5 330.9 331.9 333.8 335.3 335.9 336.2 336.9 338.3 339.8 340.6 341.1 340.1 338.4 336.6 334.8 333.4 332.6 330.5 326.7 321.8 318.2 314.2 308.7 299.8 287.6 277.6 277.1 274.4 280.5 298.2 305.6 301.6 306.5 317.4 322.2 328.4 332.7 335.6 336.9 338.4 338.8 338.4 336.8 334.8 334.3 334.7 337.8 341.1 343.8 348 351.7 354.7 357.8 360.8 363.5 365.5 368.1 371.6 376.5 379.3 378.7 377 373.9 370.9 368.1 365.9 363.8 361.3 358.1 354.8 351.9 348.5 344.8 337.8 330.3 311.2 324.6 336.1 339.2 337.8 335.3 331.8 328.2 325.6 323.3 320.3 317.5 315.3 312.5 311 309.5 308.8 311.7 314 314.9 314.4 314.1 313.5 312.9 312.5 313 313.5 312.7 311.3 309.8 308.1 306.6 305.1 303.6 302 300.2 298.8 296.9 295.5 293.3 291 289.6 287.1 285.6 284 282.4 280 276.8 276.1 280.6 280.2 277.2 273.5 280.4 283.2 286.1 288.2 288.1 287 287.3 289 289.6 288.4 286.6 284.7 282 276.9 276.1 275.5 269 270.8 275.2 275.6 276.1 276.9 277.8 278.7 280.5 282.3 283.7 285.1 286.3 287.3 288.2 289.3 291 292.3 292.3 291.4 290.1 288.1 286.1 284.4 282.6 280.5 277.8 275.5 274.4 273.8 281.5 284 285.5 287.1 289.7 292.7 295.7 297.4
381.9 388.7 393.1 394.1 393.5 387.6 381.1 373.2 364.7 354 345.1 339.4 336.3 334.1 332.7 331.4 331.1 331.8 332.2 333.5 335.2 336.7 338 338.3 338.1 338.7 339.7 340.2 340.5 339.1 337.5 335.4 333.5 332.2 330.7 329.2 327.7 324.2 320.5 316.1 311.6 303.3 290.7 276.7 274.1 275.1 301.5 309.8 312.1 313.9 314.8 317.3 321.3 327.8 333 336.9 340.3 342.7 343.1 341.8 340.6 339.6 337.6 336.4 336.8 339.5 342.7 347.7 352.2 355.1 359 361.9 364.7 365.7 366.7 368.8 372 376.1 377.3 376 373.9 371.8 369.8 367.8 365.3 362.8 359.6 356.7 353.7 350.4 347 341.2 333.2 313.9 318.2 333.9 337.5 338.3 335.4 331.6 327.5 324.5 322 318.8 315.8 313.4 310.8 308.9 308.2 307.4 308.7 311.9 313.2 313.7 313.3 312.7 312.2 311.7 312.4 313 312.2 310.9 309.5 308.1 306.6 305.1 303.4 301.6 299.7 298.3 297.3 295.4 293.5 291.2 289.5 287.5 286.1 285.1 283.7 282.6 280.8 274.8 275.2 278.5 275.7 270.6 277.3 280.8 283.5 285.4 286 285.1 284.7 286.2 286.5 285.9 284.3 281.6 278.7 276.5 273 271.9 267.9 265.5 270.8 271.5 272.9 273.9 275 275.8 277.8 280 281.6 283 284.5 285.4 286.2 287.5 289.2 290.5 291.2 290.9 289.7 289.1 287.2 285.1 283.2 281.2 279.1 276.2 273 272 279.5 282 284 286.5 289.6 292.7 295.8 297.4
379.4 384.3 390 390.7 390.4 387.8 381.8 375.2 367.3 358.8 349.2 342.3 338.2 335.6 334.5 333.5 332.4 333.3 333.7 334.2 335.4 336.9 338.6 339.4 339.3 339.6 339.6 339.9 339.2 337.4 335.7 334.2 332.1 330.4 328.3 326.6 325.5 323.7 321.1 317.3 312.8 306.6 296.8 274.7 273.4 275.3 305 311.2 313.5 315.2 315.4 315.5 318.8 325 330.7 336.1 340.9 345.3 347.7 347.4 347.4 345.5 342.2 339.9 339.1 339.6 341.8 346.5 351.4 355.8 359.4 362.7 364.4 364.6 365.5 366.5 368.2 371 374.6 375 374.1 373.1 371.5 369.5 367.2 364.3 361.6 358.7 355.7 352.7 349.3 343.4 334 316.6 311 329.4 334.4 336 335.1 331.8 327.4 323.4 320.6 317.6 314.4 311.8 309.4 307.5 306.4 305.8 306.7 309.2 311.2 311.9 312.2 312 311.3 310.8 311.5 311.8 311.5 310.7 309.5 307.9 306.4 304.9 302.9 300.5 299.1 297.6 296.2 294.5 293 291.3 289.7 288.2 286.7 286.2 284.7 283.2 281.6 278.9 273.6 272.4 275.4 269.3 274.4 278.1 280 281.7 282.5 282.5 281.5 282.4 282.8 282.8 281.3 279.3 276.9 275.1 271.5 268.3 267.6 262.7 266.9 268.1 269.5 271.1 272 273.8 275.9 277.6 279.4 280.9 282.6 283.5 284.3 285.9 287.5 288.7 289.7 289.9 289.5 289.4 288.4 286.4 284.6 282.6 280.3 277.5 274.2 269.8 273.6 279.8 283.7 286.4 289 291.7 295 297.7
376.5 380.9 386.5 387.1 387.1 386.9 382.5 376.4 369.4 360.9 353.4 345.7 341.2 338 336.2 334.4 334.5 335.2 335.6 336.4 337.4 337.7 338.3 339.2 340 339.8 339.6 339.3 337.5 335.7 333.7 332 329.9 328.1 325.8 324 322.8 321.4 319.4 316.9 313.1 308.2 302 283.1 272.9 278.2 303.2 310.6 312.7 314 314.7 313.8 314.8 319.1 325.9 333 340.1 344.8 350.1 354.5 353.7 350.7 346.7 343.5 341.5 341.5 343.2 344.3 348.7 353.2 357.5 360.4 362.1 362.8 363.6 364.4 365 367.2 369 371.6 371.8 370.9 371.4 369.6 369 366.1 363.9 361.1 358 354.9 351.4 345.8 337.1 322.2 309.2 314.9 327 332 332.2 330.8 326.8 323 319.1 316.3 314.3 311.9 309 306.7 304.9 303.9 305.4 307.3 309.5 310.1 310.9 310.7 310.5 310.4 310.3 310.7 310.8 310.3 309.4 307.8 306.2 304.6 302.5 300.1 297.6 296 294.2 292.8 291.1 290.1 289.1 288.5 287.9 286.7 285.3 283.9 281.7 279.6 276.6 271.6 269.8 271.1 271.3 274.9 276.2 277.3 278.2 278.3 278 278.5 279.4 279.7 278.3 276.5 274.7 273 270.8 268.1 264.3 261.1 262.3 264.7 266.8 268.6 269.3 272.1 273.8 275.6 277.5 278.9 280.4 281.4 283 284.3 285.7 286.8 287.9 288.6 289 289.1 289.1 287.6 285.7 283.5 281.1 278.7 276.8 272.7 268.3 275.4 281.2 283.4 287.4 292.3 295.5 298
372.6 376.7 380.5 384.1 384 384 382.9 377.8 371.5 364.2 356.3 350 344.9 341.4 338.2 336.5 337.4 337.9 338.1 339.2 339.9 339.8 339.7 339.5 339.9 339.8 339.4 337.8 335.9 334 331.3 329.3 327.2 325.4 323.3 320.9 318.7 317.1 315.9 314 311.6 308 303.4 297.1 272.5 279.1 305.2 308.8 310.8 312 312.5 311.9 311.6 313.2 316.8 326.5 337.7 344.8 351.5 355.8 357.3 354.7 351.1 349.6 345 348.1 347.6 347 347.2 349 352.8 356.1 358 359.7 361.3 362.2 362.5 363.7 365.2 366.8 368.6 368 371.1 370.1 370.4 368.1 366.3 363.3 360.2 357.2 353.6 348.2 340.1 330.9 310.7 306.9 314.8 325.8 327.5 327.1 326 322.4 318.8 315.7 313.5 311.8 310 307.7 305.2 302.9 303.4 305.3 307.4 308.8 309.6 309.4 309 308.7 309.3 309.9 310.1 309.9 309.2 307.8 306.1 304.3 302.1 299.9 297.6 295.7 293.7 292.3 289.7 287.8 286.9 287.2 287.2 286.5 284.9 282.9 281 279.1 277.3 274.4 270.6 267.8 267.4 271.3 272.3 273.4 275.1 275.3 275.4 276.2 277.2 277 276 274.4 272.6 270.7 268.7 267.3 265.1 262.1 258.6 260.8 264.4 265 268.7 270.5 271.8 273.8 275.9 277.4 278.4 280 281.8 283.2 284 285 286.3 287.2 287.7 288.5 288.7 287.9 286.6 284.9 283.1 281.2 279.1 276.4 272.8 267.7 269.2 275.7 284.9 291.7 296.2 298.8
369.4 372.5 374.7 378.2 380.5 380.4 381.2 380.2 373.2 367.4 360.9 354.4 349.1 344 340.4 339.5 341.6 342.6 343 343 342.7 342.8 342.4 340.7 339.9 339.1 338 336.1 333.5 331.5 328.7 326.5 323.9 322.1 320.4 317.9 315.4 313.1 312.1 310.5 308.3 306.1 303.1 298.9 277.4 277.7 299.4 306 307.7 309 309.6 309.3 308.8 309.9 312.9 319 329.7 339.8 349.2 354.5 356 355.5 352.9 352.1 351.5 351.8 352.3 350 348.5 348.1 349.2 351.7 354.4 356.4 357.9 359.7 360.1 360.3 361.5 362.1 363.7 365.5 370.5 371.3 371.6 370.4 368.6 365.6 362.5 359.4 355.8 351.3 346.2 339.2 326.5 309.4 305.5 316.6 322.4 324 324.2 321.8 318.5 315.1 311.8 310.3 309.1 309.6 307.1 301.8 300.8 303.2 305.3 307.2 307.7 307.6 307.3 307.3 308.1 309.1 309.6 310 309.2 307.8 306.1 304.5 302.3 300.4 298.4 296.7 295.3 293.2 290.5 288.1 285.4 284 284.8 284.5 283.7 281.6 279.5 277.6 275.8 273.9 271.7 266.9 263.6 267.4 269.2 270.8 272.6 272.7 273.1 273.3 274.3 274.5 273.5 272 270.4 268.6 266.5 265 264 262.1 258.2 257.2 260.4 264.4 266.5 268.3 270.1 272.1 273.7 275.2 276.8 278.7 280.4 282 282.6 283.5 284.8 285.9 286.5 287.3 288.1 288.3 288.6 287.2 285.6 283.7 281.5 280.6 279.8 278.1 274.9 266.9 275.6 285.3 291.6 296.8
366.7 368.3 369.6 371.4 373.4 377.2 377.2 376.2 375.8 369.6 364.7 359.1 353.5 348.1 344.6 343.9 345.9 347.5 349 347.3 346.3 347.3 346.3 343.6 341.2 338.3 336.1 333.6 330.8 328.5 326.1 323.6 321.1 318.5 317.2 315.1 312.9 310.7 308.8 307.2 305.4 303.7 300.7 295.7 278.1 272.4 288.5 297.5 304 305.8 306.3 306 306.4 307.7 310.4 315.1 323.3 331.8 340.2 349.8 350.7 352.8 352 350.7 350.5 350.4 350.5 349 348.5 347.9 346.7 348.2 350.2 352.3 354.4 356 357.4 357.9 358.4 358.9 359.6 361 362.9 368.7 371 371.2 369.1 366.9 363.8 360.4 356.8 352.6 348.1 342.3 335.3 326.2 307.4 303.5 313.6 320.2 322.3 320.9 317.6 314.3 311.3 309.1 308.5 309.8 307.9 301.9 301.9 301.3 303.3 305 305.5 305.8 305.5 306.2 306.4 308.3 308.9 309.6 309.7 308 305.9 304.5 302.8 301.2 299.3 297.8 296.6 294.4 291.8 289.5 286.7 284.2 282.4 281.7 281.1 279.9 278.1 276.2 274.3 272.4 270.4 268.5 264.3 262.5 266.3 268.2 270 270.2 270.6 270.5 271.5 271.9 271 269.5 267.4 265.7 264.1 262.4 261.7 260.5 258.3 256.2 257.5 262.4 264 265.4 267.8 269.7 272 274.2 276 277 278.7 280.4 280.9 282.5 283.6 284.6 285.5 286.4 287.2 288.1 289.1 289.9 288 285.5 284.5 284.1 283.8 282.6 278.3 273.3 267.7 274.5 282.7 289.4
363.9 365 366 365.6 366 368.7 371.3 374.8 375.2 376.1 372.9 365.9 358.4 352.9 349.3 347.9 349.9 351.3 353.3 355.4 350.6 352 350.2 346.9 342.9 339.7 336.1 333 329 326.6 323.9 321.4 318.6 314.7 314.2 313.8 311.4 308.8 307 305.8 304.9 304.2 301.8 299.3 294.3 270.7 273.1 286 294.2 300.6 302.2 302.6 303.7 305.7 308.1 313 315.7 323.4 332.4 340.2 346.1 348.5 349.6 349.6 349.2 348.9 348.7 347.9 347.3 346.1 345.6 345.7 347 349 351.2 353 354.6 355.5 356.1 357.1 357.8 356.9 357.5 360.4 367 367.7 366.2 365 362.4 359 355.5 351.8 347.6 342.5 336.4 328.9 320.8 305.1 303 314.6 319.1 320.1 317.6 314.4 311.4 308.5 307.5 309.6 309.8 305.4 303.1 299.3 300.8 302.5 303.4 303.9 304.4 305.8 307.1 308.5 309.9 311.3 312.1 310.6 308.3 306.5 304.3 301.9 300.2 299 298.1 295.7 293.3 290.9 288 285 280.4 278.8 278.4 277.2 276 274.5 272.4 270.3 268.3 266.8 265.7 260.8 263.9 265.9 267.3 267.8 268.3 268.7 269.7 269.3 268 266.8 265 262.7 260.9 258.6 257.8 258 257.2 254.4 255.6 259.3 260.1 262.4 264.9 268.1 271.3 273.5 275.3 276.5 276.4 278 279 282.2 283.3 283.7 284.7 285.6 286.5 287.4 288.5 289.4 289.7 288.5 287.5 287.2 287 286.8 281.4 279.1 277.9 265.7 271 280.5
360.8 362.3 361.5 360.1 358.9 360.6 362.3 364.9 370.4 377.2 376.6 372.4 363.5 358.4 354.6 352.1 353.9 354.6 356.6 358.9 361.1 358.9 353.2 348.8 344.5 340.5 336.2 332.1 327.5 324.5 321.8 319.3 317 315.1 314.7 313.9 312.1 310 309.5 309.3 308.5 306.9 304.8 302.2 299.5 297.4 285.5 268.9 275.1 288.2 294.9 299.6 301.7 303.7 305.7 307.7 310.5 317.6 326 331.9 339.1 342.8 347 348.2 347.8 347.3 346.9 346.8 345.7 344.5 343.4 343.3 344.1 345.9 348.8 350 351.5 353.2 354.4 355.4 355.9 354.6 353 355 356.3 363.7 364 363.6 361.3 357.6 353.9 350.3 346.8 342.5 337.2 330.2 322.7 315.6 301.1 305.9 315.1 317.5 315.9 314.7 311.6 307.2 305.7 307.5 308.1 305.7 302.8 299.1 299.3 300.2 301.4 303.7 306.7 309.2 310.3 311.2 312.6 313.6 314.5 312.9 311.4 309.6 307.3 305 302.5 301.3 299.5 297.8 295.2 292.1 289.1 286 282.5 278.8 277.5 276.3 275.1 273.7 271.9 270 268.1 265.8 263.7 262.5 258.6 262.3 265.5 266.2 266.7 265.7 266 265.3 263.6 262.2 260.6 258.8 257.3 255.2 254.8 255.1 254.4 252.7 252.6 256.2 258.5 264.7 267.2 269.1 271.2 272.9 274.7 275.7 274.8 275.5 278.5 281.7 282.9 282.9 283.7 284.8 285.7 286.6 287.8 288.7 289.4 289.5 290.3 289.8 289.7 289 282.7 286.7 285.7 279.9 270.2 263.3
358.4 359.5 358.6 357.4 356.7 357.1 359.2 361.9 364.3 374.5 378.3 378.3 369.1 363.8 360 357.5 357.5 358 359.7 362.1 363.4 363.1 360.7 353.2 348.1 341.8 337 332.6 328.4 324.8 322.6 321.5 320.3 318.5 317.9 315.9 314.4 313 312.3 311.5 310.6 308.7 306.1 304 301.9 301.1 301.2 298.7 282.8 265.8 272.4 287.1 299 302 303.8 305.4 307.7 313.3 321.6 324.6 334.2 338.3 342.7 345.5 346.3 345.8 345.3 345.6 343.8 342.8 341.7 341.1 342.6 346.6 349.8 349.5 348.9 350 352.1 353.6 353.5 351.9 349.5 350.2 351.8 353.9 361.1 361 359.4 356.6 353 349.3 345.6 341.8 336.1 329.5 319.9 316.5 308.8 300.1 307.7 313.4 312.6 312 309.9 306.6 304.5 305.5 305.6 304.2 300.9 298.7 298.9 299.4 302.3 307 310.2 312.5 313.5 313.9 314.9 315.8 316.7 315.8 314.6 312.6 310.4 308 306.1 304.5 302.6 300.4 297.5 294.4 290.9 286.3 282.5 280.9 280.5 279.4 277.7 276.2 274 272.1 270 267.2 264.9 262.2 259.2 259.6 262.5 264.7 264.4 262.7 262.3 261.2 258.9 257.5 256.1 254.5 253.6 252.4 252.4 252.4 251.8 251.5 250.3 253.2 256.8 260.9 263.5 265.7 268.5 271.5 273.9 274.8 274.2 274.7 278 281.1 282.6 282.1 282.6 283.9 284.9 285.8 286.9 288.1 289.2 290.7 292.1 292.3 292.1 289.5 283.9 290.7 290.6 287.3 281.9 274.8
353.1 355.3 356 354.7 353.5 354.2 356.1 359 363.1 369.2 377.4 378.9 374.8 368.7 366 364 364 364 363.6 364.3 364.3 363.9 362.3 358.4 352.1 344.4 338.2 333.3 329.4 327.1 325.7 324.5 323.3 322.1 320 317.9 316.3 315 314.3 313.6 311.6 309.4 305.3 303.1 300.9 301.4 302.2 300.6 297.2 290.6 272.6 264.1 281.7 297 302.5 303.9 305.5 309.6 317 321.7 328.2 333.9 338.2 341.6 343.7 343.9 343.4 342.8 342.1 341.1 340 339 342.1 347.5 349.8 348.7 346.8 346.4 348 350.1 349.8 348 346.3 346.4 347.7 349.6 353.4 356.6 356.9 355 352.2 348.5 345.1 340.8 335 330.5 324.1 318.6 311.1 300.2 299 302.6 304.8 308.5 307.4 305.9 303.7 303.3 302.8 302.8 300.4 298.2 298.3 299.3 302.6 307 312.4 316 317.3 317.8 318.2 319 319.9 319 317.8 315.7 313.4 311.1 309.4 307.6 305.8 303.4 299.9 296.5 292.9 288.4 286.1 284.9 283.8 282.4 280.4 278.2 276.2 274.1 271.4 268.3 265.5 262.9 260.4 255.3 256.1 262.5 262.1 259.6 258.3 256.8 254.6 252.9 251.6 250.5 249.9 249.6 249.6 249.7 249.4 249.2 250.4 251.7 254.3 256.8 259.5 261.9 264.6 267.8 271.4 274.2 271.9 274.4 277.3 280.6 282.3 281.3 281.5 282.8 284 285 286.1 287.4 289.7 291.8 293.2 294.7 294.2 290.2 287.2 290.9 292.5 293.6 291.3 287.7
343.4 350.7 352.6 351.7 351.1 351.6 353.9 356.1 360.3 365.8 375.7 380.9 380.1 377.3 375.1 373.8 373.1 372.2 371.3 369.8 367.8 365.9 363.8 360.1 354.4 347.3 339.7 334.7 331.4 330.3 329.1 327.8 326.5 324.5 322.4 320.5 319.1 318.1 317.2 315.7 313 308.6 304.5 302.2 300 300.8 301.7 301.9 299.1 294.2 286.8 271.4 263.5 278.8 300.6 302.4 303.8 306.3 312.2 318.7 324.5 329.4 334.7 338 339.9 340.8 340.8 340.3 339.8 339.3 338.5 339.8 343.5 346.6 346.4 345.8 344.4 343.2 343.7 345.4 345.2 343.3 342.8 342.6 343.8 345.8 348.4 352.4 354.3 354.2 351.6 348.3 344.6 340.3 336 331.5 325.8 320.6 314.8 307.4 299.6 297.2 296.3 298.4 304.6 306.1 303.7 301.8 299.8 299.1 297.7 297.5 299.4 301.3 302.4 304.5 308.5 317.8 321.7 322.4 322.2 322.5 323 321.9 320.7 318.6 316.3 314.6 312.8 311.3 309.4 307.4 303.9 300.5 297 293.2 290.2 288.3 286.6 284.8 282.6 280.7 278.8 276 272.5 269.4 266.2 264 261.8 256.8 252.8 255.1 259 255.9 254 252.7 250.8 249.6 248.3 247.4 247.7 248 247.8 248 247.3 247.5 250.2 251.1 252.2 253.7 255.8 258.2 261 264.1 268.8 269.9 267.8 271.9 275.2 278.9 281.4 280.7 280 281.4 282.5 283.1 283.7 286.3 288.8 291.8 294 295.1 294.9 293.3 290.7 292.6 293.5 295.9 296.8 296.5
334.6 342.9 348.4 349 348.7 349.7 351.9 354.6 358 364 371.7 383.2 385.6 386.4 387.2 387 386 385 382.9 380.1 374.6 370.9 366.4 362.6 356.5 349.5 343.5 338.7 334.8 333.5 332.5 331.1 329.3 327.3 325.3 323.9 322.6 321.6 320.9 319.2 316.2 311.3 305.4 300.6 298.6 298 298.9 299.7 298.2 295.3 289.2 282.5 262.6 271.2 292.1 298.4 302.4 304.2 309.2 313.6 320.2 325.1 331 334.2 336.4 337.3 337.3 337.3 337 336.8 338.8 342.2 344.7 344.7 343.6 342 340.8 339.9 340 340.5 340.9 340.4 340.5 340.5 341.2 342.7 344.9 347.9 352.6 353.2 351.7 348 344.3 340.6 336.7 332.3 327.2 321.6 316.8 310.9 305.9 302.6 299.2 294.6 296 302.1 301.4 301.4 298.4 295.2 299.4 301.5 303.7 305 306.3 307 309.2 312.1 320.1 325.5 326.1 325.9 325.9 324.9 323.5 322 320.3 318.8 317.5 316.1 314.4 312.8 310.1 306.8 303 298.8 294.6 291.9 289.8 287.3 285.1 283.6 282 279.1 275.1 271.4 267.9 265.3 262.7 262.8 261.3 255.9 249.5 249.3 249.2 249.6 248.3 246.9 246.8 245.4 245.9 246.7 246.3 246.7 246 247.9 249.2 250 251.2 252.6 253.8 255.2 258 261 263 263.7 262 266.6 270.6 274.4 278.5 280.7 277.5 278.9 279.9 281 282.3 284.8 288.3 291.6 293.6 294.6 294.6 292.9 294.2 295.6 295.7 296.8 299.1 300.7
334.3 341.3 344.8 345.2 344.4 347.3 351.1 354.2 357.7 363.5 371.1 384.5 389.5 391.3 392.7 393.1 393.1 393 394.9 394.5 387.6 378.9 372.2 365.9 360.2 354.4 349.2 345 341.8 339.8 337.2 334.7 332.4 330.3 328.6 327.3 326.1 325.1 324.5 322.9 320 314.5 309.1 303.6 300 296.3 295.4 295.9 295.3 293.2 289.3 282.5 272.5 260.8 274.3 298.1 301.5 303.4 305.4 308.5 313.5 320.6 326.1 330.9 332.3 333.9 333.9 333.8 334.4 336.7 340.8 345.2 345.4 342.7 340.4 338.8 337.7 336.9 336.6 337.2 338 338.5 339.2 339.3 339.9 340.5 341.8 344.2 349 353.6 352.4 348.6 344.9 341.2 337.1 332.6 328.2 322.2 317.1 311.8 306.7 303.6 299.7 294.9 293.5 298.7 297.3 295.3 294.8 297.9 302.4 305.2 307 308.6 310.3 311.5 313.6 314.5 315.3 319.2 325.8 328.1 328.9 327.8 326.2 324.8 323.3 323.3 322 320.8 318.7 316.6 314.2 311.2 307.6 303.3 299.2 296.1 292.8 289.9 288.3 286.7 284.8 281.7 277.5 273.6 269.7 267.7 265.4 265.6 263 259.1 254.8 249.1 244.9 244.6 243.8 243.9 246.2 244.2 244.8 245.1 245.3 245.3 244.9 247.4 248.1 249 250 251 252.3 253.8 255.2 258 258.8 260 260.3 263 265.8 269 273.3 275.7 274 277.5 278.8 279.4 280 283.3 287 290.3 292.5 293.3 294 294.6 295.7 297.1 297.6 297.5 299.6 302.1
331.4 335.9 335.7 333.3 342.5 347.3 352.1 355.3 358.6 363.7 370.9 384.7 393.2 396.3 398.1 398 397.6 396.8 397.9 399 399.5 390.6 380.3 373.1 365.7 360.1 354.7 350.7 348.4 345.9 342.7 339.8 337.7 335.9 334.1 331.4 329.6 328.5 328 326.9 323.6 320.3 315 308.9 302.7 298 294.2 292.2 290.1 288.6 287.6 282 271.9 260.1 287.4 301.5 302.7 302.9 304 306.1 309.8 314.6 320.2 327.4 329.1 330.7 330.8 330.9 333.6 336 341.3 345.3 345.6 343 340 337.6 335.6 334.4 333.6 334.7 338.9 339.3 339 338.5 338.8 339.2 340.2 342.3 348 353.4 353 349.3 345.5 342.4 337.8 333.1 328.4 322.7 316.8 311.4 307.2 303.1 299.6 295.1 292.6 292.7 293.1 295.5 298.7 301.6 304 307.1 309.7 312.2 314.6 317 318.3 318.8 318.7 317.7 322.6 329.7 332.8 331.1 328.9 327.6 326.7 327.2 326.3 324.1 321.9 319.7 317.1 314 310.7 306.7 302.6 299.5 295.3 292.5 291 289.4 286.9 284.1 280.1 276 272.5 269.6 268.3 266.7 263.6 260 256.1 252 247.8 245.1 243 242 242.2 242.5 243.6 244 244.2 244.1 245.5 246 247 247.9 248.8 250.2 251.3 252.7 254.1 255.3 256.8 257.9 258.9 260.6 261.2 263.2 268.3 278 278 280.3 281.5 282.3 282 282.7 285.3 287.9 291 292.2 294.1 295.8 296.3 297.4 298.8 299.2 300.3 302.5
327.2 327.7 322.9 335.6 345.7 350.5 354.6 357.5 360.2 365.4 371.7 384.4 394.1 399.8 401.4 399.4 396.5 395.6 395.6 396.4 397.2 395.6 386.9 378.9 372.2 366.7 359.8 356.9 354.6 351.4 348.8 346.6 345.4 344.3 341.7 337.6 334.7 332.2 330.7 329.3 327.1 324.4 321.2 316.7 311.6 305.1 296.8 291.8 287.6 284.7 284 279.9 266.7 261.2 289.4 298.1 303.3 303.6 303.3 304.1 306.2 310.4 315.7 324 325.7 327.3 326.9 330.1 332.8 335 338.9 342.9 344.5 343.3 340.2 337.2 334.9 332.9 331.6 333.1 338.1 339.7 339 337.8 337.3 337.8 338.7 341 345.5 351.5 353.9 350.2 346.6 342.8 338.8 334 328.2 322 315.2 309.7 304.3 301 297.6 292.3 291.3 292.1 303.2 306.2 307.3 307.3 308 309.4 311.4 314.6 318 321.1 322.1 322.6 322.6 321.6 322.2 326.7 335.9 334.3 332 330.2 329.8 329.7 327.8 325.2 322.7 320.4 318.9 316.1 312.9 309 304.9 301 297.9 295.8 293.5 291.9 289.3 286.4 282.3 278.2 274.1 271.4 268.9 267.9 264.1 260.9 256.8 253.7 250.2 246.6 243.7 242.2 241.2 240.8 242.1 243.4 242.9 242.3 243.7 244.7 245.9 247.1 248.5 249.7 250.5 252 253.2 254 254.9 255.6 256 259.8 258.7 264.4 271.8 280.7 282.8 283 284.2 285.1 285.1 285.1 286 291 293.3 294.6 296.3 296.9 297.5 298.2 299.2 300.5 301.1 303
321.2 318.3 326.4 338 347.5 353 356.8 359.7 362.4 367.5 373.8 384.7 395.2 401 403 400.6 397.8 394.1 389.8 388.8 387 387.3 386.9 382.9 377.2 371.8 367.3 362.8 359.9 356.9 354.1 353.6 352.1 350.2 347 345.1 341.2 336.1 333.9 331.2 329.1 327 324.5 321 316.7 313.3 304.5 296.1 288.2 282.4 280.2 276.9 263.7 259.6 283.8 294.1 300.1 303.6 302.8 302.1 303.4 306.9 311.7 319.6 322.7 321.9 325.4 329.8 331.5 332.9 335.8 340 342.8 342.2 338.7 335.9 333.4 331.4 330.1 331.8 335.3 337.8 338.6 337.3 336.2 336.1 337.7 339.5 343 347.7 352.4 351.7 348.1 344.3 340.2 334.3 327.8 320.7 313.7 307.1 301.1 297.7 293.7 290.5 291.1 304.9 309.5 310.5 310.6 310.9 312.1 313.6 315 317.3 319.8 322.2 324.1 324.6 324.4 323.5 322.5 323.1 327.6 334.3 331.7 330.6 330.1 329.9 327.7 324.8 322.2 319.7 318.3 316.4 313.1 309.7 307 303.6 300.7 298.7 296.6 294.2 291.6 288.6 284.6 280.5 276 272 269.5 266.5 264 261.2 257.6 253.2 249.5 246.4 243.9 242.2 241.2 240.5 240.8 242.1 242.1 243.9 245.6 246.4 246.4 247.3 248.2 249.3 250.2 250.5 250.7 251.4 252.7 253.8 255.5 259.6 258.7 266.6 271 281.6 285.3 285.6 286.9 288.1 288.2 288.1 286.7 292 295.5 296.6 297.1 297.9 298.7 299.4 300.4 301.5 302.5 304
316.4 316.5 328.2 338.7 348.8 354.3 358.6 362 364.7 369.7 376 385 398 402.2 403.6 399 391.7 386.4 382.3 381 380.9 381.5 382.2 381.2 377.8 376.8 372.2 368.2 364.6 361.3 359.3 358.2 357.2 354.9 350.5 348.7 345.9 341.1 336.1 332.2 330.5 328.5 325.6 322.7 319.8 317.4 311.1 304.6 295.2 287.3 280.3 273.3 261.1 256.8 273.2 290.4 295.5 301.2 302 300.4 300.3 301.9 306.1 310.8 312.3 321.1 326 328.4 329.8 331 332.7 337.8 340.7 340.2 337 334.6 332.1 330 328.6 330 333 335.2 336.9 336.9 336 334.9 336.2 338 340.9 345 349.3 352.2 349.4 345.5 341.7 336.5 330.2 321.9 313.2 304.9 298.8 294.2 290 289.7 304 312.4 314.1 314.5 314.7 315.3 316.1 317.2 318.5 319.8 321.8 323.8 325.6 326 325.5 324.8 323.1 319.9 319.4 324.5 330.3 331.7 331.5 330.1 327.7 325.3 322.9 320.9 318.9 317.2 315.3 312.7 309.9 306.8 304 301.5 299 296.5 293.9 291 286.9 282.9 277.6 272.4 269.7 266.7 263.8 260.9 258.2 253.5 249.8 247.7 244.8 241.2 240.4 240 240 240.9 240.7 242.2 243.4 244.3 246.6 247.3 248.3 248.7 247.9 248.4 248.9 250.2 252.5 254.5 256.4 260.2 263 267.4 272.2 280.9 287.5 288.4 290.2 291.3 291.6 291.3 291.3 291.9 291.9 293.7 297.4 298.4 299.7 300.8 301.5 302.9 304.3 305.8
305.7 318.5 326.3 338.5 348.3 355.9 360.5 363.9 366.7 371.8 378 387.7 400.5 400.9 397.8 390.6 385.5 380.6 377.6 375.7 375.3 375.6 376.4 377.6 378 378.5 378.1 374.8 369.5 365.4 362.7 360.1 358.4 356.4 353.4 350 346.9 343.8 338.4 332.5 329.5 327.6 324.6 322 318.8 315.9 312.6 307.5 300.6 290 277 267.6 260.7 257.1 259.8 285.2 291.8 297.7 300.4 298.4 296.2 297 299.3 304.1 314.3 321.6 324.6 326.4 327.7 329.1 330.9 333.7 337 336.8 335.7 333.4 330.7 328.8 327.4 327.9 330.6 332.7 334.4 335.3 334.7 333.8 334.9 336.9 339.1 342.4 346.3 350.4 349 346.9 343.1 338.5 331.7 322 313.1 304.8 297.1 291.7 287.6 293.6 306.9 314 316.9 317.9 318.2 318.6 319 319.9 321.2 322.6 324.4 325.8 327 327 326.3 324.8 323.2 320.5 316.5 315.3 319.5 324.5 332.3 332 329.6 327.4 325 322.9 321 319.5 317.7 315.7 312.9 310 307.1 303.4 300.8 298.1 295.5 292.5 289.1 285.1 279.3 273 269.2 265.6 263.4 261.2 259 256.2 253.1 250.5 244.3 239.6 238.5 239.2 240.2 240.9 241.5 241.6 242.8 244 245 245.8 247.3 246.8 246.5 248.2 249.5 250.9 252.5 254.1 256.5 259.5 263.6 266.9 271.1 279.6 289.1 291 292.9 293.6 294.8 294.5 295 295.4 296 297.1 297.7 300.2 301.7 302.5 302.8 304 306.9 308.9
309.2 317.4 327.2 337.8 347.4 354.6 360.6 364.5 367.6 372.6 379 388.2 401.4 395.1 388.6 383.8 379.7 376.6 373.2 370.4 370.3 370.8 372 373.1 375 377.1 380.2 381.6 375 369.7 364.8 361.4 358.2 355.2 352.1 349.2 346.6 343.9 339.2 333.6 328.5 325.8 323.6 320.5 317.2 313.8 308.6 302.8 295.7 282.3 275.4 269.1 261.8 257 255.9 275.4 286.8 293.3 296.7 294.6 291.6 291.3 293.3 300.7 309.2 318.5 321.6 323.6 324.8 326.2 327.6 329.6 331.7 332.6 334.2 332.7 330.1 327.7 326.3 326 327.6 330.1 331.3 332.2 332.9 333.1 333.9 336.3 337.7 339.8 341.9 345.1 347.1 345 341.6 337 329.9 321.1 312.1 304 296.7 290.7 286.2 290 300.4 311.7 316.8 320 321.2 321.8 321.9 322.3 322.9 324.6 325.7 327 327.5 326.8 326 324.3 322.2 320.2 317 313 311.3 313.7 319.4 328.9 331.4 329.3 327.5 325.5 323.8 322.1 320.4 317.9 315 312 308.8 304.9 301.5 298.3 295.7 293 289.5 284.7 279.2 273.1 268.4 264.7 262.4 259.7 257.3 255.1 250.4 241.8 237.4 239.6 243.7 244.6 245.3 245 245 243.2 242.2 242.8 243.4 244.3 244.9 245.3 247 248.6 249.6 250.9 252.5 253.9 256.1 259.3 263.5 266.8 270.6 278.9 286.9 293.1 294.1 294.6 295.9 297.9 298.4 298.9 299.7 301.1 302.1 302.9 304.2 303.9 303.6 306.3 310 312.1
308.1 314.8 324.5 335.7 343.9 351.3 358.8 362.5 365.9 371 376 385.5 392.3 387.3 382.7 379.2 375.1 372.4 369.2 367.1 366.1 366.1 367.2 368.5 371.1 373.7 378 380.1 377.2 371.1 366.3 362.6 358.9 354.7 351.3 348.3 345.4 341.5 338.4 332.8 326.9 323.2 321.1 318.1 314.9 312.6 310.9 307.3 302.7 296.8 289.7 280.9 273.6 262.9 255.2 259.5 284.2 288.7 292.5 290.3 287.2 285.3 288 293.3 301.6 310.5 318 320.5 321.7 323.1 324.3 324.8 326.4 328.9 332.5 331.9 330 327.9 326.1 324.7 324.6 326.2 328.2 331.4 333.7 334.1 334.8 335.5 336.6 338.9 340.2 340.9 342.4 341.8 338.9 335 328.2 320.3 312.7 305 298.5 291.6 286.6 286.2 293.9 305.1 315.1 319.8 322.4 323.6 323.4 322.7 323.3 324.8 325.7 326.1 326.5 325.9 324.9 323 321.2 319.2 316.7 313.2 310.2 309.1 311.8 317.7 326.2 329.5 329.8 328.4 327.4 325.3 322.9 319.8 316.7 313.5 310.2 306.4 302.9 299.4 295.6 291.8 287.7 282.8 277.8 272.2 267.8 263.5 260.2 256.3 252.6 247.5 241.9 238.7 255.4 255.5 254.3 253 250.8 248.7 246.3 244 243.8 244.1 244.7 245.6 246.2 246.9 248.6 249.6 250.6 251.5 252.6 254 256.3 259.2 263.2 267.1 271.1 276.7 284.2 292.3 294.6 295.2 296.5 299.1 300.9 301.8 302.1 303.4 304.9 305.8 307.1 308.7 308.1 309.8 313.2 315.2
303.2 309.5 321.3 332.2 339.7 346.9 354.3 360.4 363.8 368 372.9 378.8 382.6 380.9 378.1 374.3 370.7 368.1 366 364.1 362.6 361.6 362.4 364.4 367.5 371.2 374.3 377.3 375.6 372.1 368 363.4 358.9 354.5 350.8 347.5 343.2 339.4 335.2 330.5 324.4 321.9 320.1 318.3 317.7 316.8 314.8 312.1 308.3 302.9 297 291.5 286.2 280.8 270.9 253.4 282.7 286.8 285.2 285.7 281.7 276.5 280.6 287.9 295.1 305 312.7 316.8 319 320.5 321 320.9 322 325.5 329.2 329.9 329.4 328 326.2 324.6 323 324.1 328.4 332 334.7 335.2 335.3 336.3 336.8 338.2 338.8 339.2 339.1 339.1 336.3 333 327.4 320.6 314.2 307.1 301.8 294.8 289.5 283.9 289 297.6 306.8 315.7 320.3 321.6 322 321.8 322.2 323.5 323.9 324.1 324.3 324.5 323.5 321.7 319.9 318 315.9 313.2 310.4 308 307.6 310.5 317.3 326.1 332.2 332 331.2 327.5 323.6 320 316.7 313.3 310.2 306.7 302.8 298.9 294.8 290.7 286.7 281.9 277 272.3 268 263.6 258.5 252.8 245.9 238.2 239.7 252.9 261.4 260.5 258.6 256.4 254 251.4 248.6 246.2 245.5 245.3 245.3 246.5 247.6 248.6 249.8 250.8 251.7 252.7 253.9 255.4 256.7 259.3 263.6 267.5 270.9 275.3 280.9 287.7 292.6 294.9 296.1 298.7 300.7 302.6 304.5 305.7 307.8 308.7 310 312.4 313.1 314.7 316.3 318.2
297.3 305.8 317.4 327.7 335.6 342 349.2 356.7 360.8 365 369.7 373.8 376 376 374 370.3 366.9 365.1 363.1 361 359 357.2 357.8 360.7 365.4 369 372.4 374.1 373.1 371.5 367.4 363.1 358.6 353.7 349.9 346.6 343.4 340.1 335.7 331.6 326.9 321.8 322.7 324.2 324.3 321.9 319.3 316.3 312.8 308.8 304.2 299.4 295.1 289.4 282.4 263.5 254.2 257.1 253.7 250.1 259.8 259.2 273.3 282.1 289.5 298.2 307.7 313.5 317.1 318.3 318.4 318.3 319.4 322.1 326 327.3 327.2 326.2 325.2 322.8 320.9 324.5 329.2 333.3 336.4 336.4 335.6 335.6 336.2 337 338.4 338.7 337.7 336.3 333.2 329.7 325.4 319.3 315.6 308.9 303.8 298.3 292.3 286.3 285.2 294.1 300.3 309.7 314.8 317.4 319.3 319.6 320.9 321.3 322.1 322.2 322.2 322.9 322.2 320.2 318.2 316.2 314 311.6 309.6 306.8 306 307.2 312.2 320.1 328.4 334.1 333.2 328.5 324.3 320.2 316.4 313.1 309.7 306 302.2 298.1 294 290 279.2 256.4 248.7 251.5 257.4 254.9 249.2 243.1 238 241.7 261.2 265.9 266 263.6 261.4 259.2 256.7 254.1 251.3 248.8 247.1 246.6 245.7 247 248.4 249.5 250.6 251.9 253 254.1 255.3 256.5 257.9 260.4 263.8 266.5 270.7 275 279.8 285.6 289.2 292.3 295.7 298.4 300.6 302.6 304.6 308 310.4 311.6 312.5 314.8 316.5 317.3 318.4 320.1
289.6 299.3 313.5 323.7 330.3 336.1 343 349.7 358.3 363.8 368.9 372.4 374.1 374.2 371.7 368.4 365.3 362.5 359.3 357.2 353.9 352.7 354.1 359.3 363.6 367.7 370.1 371.8 371.3 369.9 366.4 362.1 357.6 352.2 347.7 344.4 342.5 339.2 335.4 330.4 324.4 327.1 329.9 332.5 332.2 328.7 324.9 320.5 317 312.7 308.9 305.5 302.6 297.8 291.8 282 269.2 258.8 247.2 246.5 246.4 248.2 254 267.6 284 292.7 301.3 310 315.3 316.5 316.7 316.9 317.5 320.2 322.8 324.7 324.9 324.2 322.5 320.1 318.7 324.4 329.7 334.5 337.4 337.8 336 334.4 334.4 334.7 334.8 335.1 335.1 333.4 330 326.6 323.4 319.2 315.5 310.8 305.7 300.8 295.1 288.2 281.6 290.7 299.2 306.4 309.6 313.2 316.5 319.5 321.3 320.6 320.2 320.2 320.2 320.9 320.4 318.5 316.4 314.3 312.1 309.9 307.7 305.2 304 305.4 309.3 314.6 321.3 335.5 334.7 329.4 325.1 320.9 316.8 312.5 309 305.3 301.5 297.2 293.1 279 252.2 229.5 236.8 246.2 241.4 236.2 237.3 242.6 249.8 268.5 270.3 271.2 269.1 265.9 263.5 261 259.1 256.3 252.9 250.3 249.1 248.2 247.1 247.2 248.4 250 251 252.3 253.8 255.2 256.6 258.1 259.2 260.8 262.7 266.2 270.1 273.9 278.3 282.5 286.1 289.7 294.2 298.8 301 303 305.7 309.5 312.8 314.5 315.1 316.4 318.2 318.9 319.9 320.5
285.2 296.2 309.4 317 324.1 328.3 335.3 346.3 356.6 365 370.2 374 375.3 374.4 372.1 370.2 366.8 363.2 358.2 352.2 350.1 348.4 350.7 357.3 362.6 367.2 369.8 370.4 369.5 368.2 365.5 361.3 355.6 351 346.5 343.3 340.4 336.5 331.4 331 332.6 334.3 337.4 340.7 338.7 335.5 330.7 326 320.3 315.2 312.4 310 307.3 305 301.5 294.2 283.7 272 261.3 253.2 247.8 245 244.7 248 273.9 288.1 295.4 305.6 312.7 315.3 314.9 315.2 315.8 317.2 319.1 321.4 321.7 321.8 319.5 317.1 317.1 323.5 329.4 334.5 337.8 338.4 336.3 334.2 332.4 331.4 330.6 331 330.2 328 323.8 321.2 320.9 318.7 315.6 312.1 307 302.1 297.1 290.5 281.8 291.7 298.8 303.2 306.8 310.3 314.7 318 319 318.7 317.9 318 318.1 318.3 318 316.8 314.4 311.8 309.5 307 305.5 303.5 302.4 303.6 306.2 310.3 314.6 321.7 331.6 331.9 325.8 321.9 317.7 313.5 309.9 306.2 302 297.5 285.1 259 236.7 231.3 254.5 261.8 255.3 262.4 268.2 273.5 279.6 276.6 275 273.6 270.6 267.7 265.2 262.7 260 257.2 254.7 253 251.3 250 248.6 247.8 249.5 250.4 251.4 252.4 253.7 255.8 257.4 259.3 261.1 262 264.5 266.8 270.1 273.7 278.4 283.2 287.7 291.9 295 299.3 301.3 303.5 307.3 311 314.8 317.3 317.9 318.3 319.7 320.4 320.8 320.8
285.8 299.9 306.2 311.8 317.9 323.6 330.1 340.9 353.9 363.8 371.6 375.4 375.5 375.1 373.5 372 369 364.6 361.2 353.5 348.9 346.1 343.6 351.1 358.9 362.8 368.5 369.7 370.1 368.6 366 363.5 358.3 352.3 347.5 344.6 341.3 338.1 337.6 337.8 338.3 343.2 347.2 347.4 344.2 340.2 336.5 331 325.1 321.1 317.9 314.8 312.6 310.5 307.6 302 293 283.5 271.4 264.8 258.3 256.5 251.3 243.3 268.5 285.9 292 299.7 306.9 311 312.2 312.8 314.6 315.9 317.9 319.1 319.1 318.4 316.8 315 315.8 321.5 327.2 332.8 335.7 337 335 332.2 329.8 328.1 326.8 326.4 325.4 323.5 319.8 314.9 313.9 315 312.2 309.2 306 301.6 296.9 290.4 281 290.7 297.3 300.2 303.8 307.5 311.7 315.3 315.7 315.6 314.7 314.8 314.8 314.9 315.3 314 312 309.1 306.4 303.4 302 301 300.3 301.4 303.9 306.4 309.1 311 316.7 321.1 322.5 321.2 319.2 315.2 312 308 303.9 299.5 278.7 249.8 231 235.8 262.6 269.5 290.1 292.7 293.4 289.6 284.8 280 277.9 275.8 272.5 269.6 267 264.2 261.8 259 257.3 255.3 253.2 250.9 249.2 248.8 250.3 251.2 252.1 253.4 254.7 256.2 258.1 260.7 262.8 264.9 267.6 269.6 272.4 275.5 280 284.6 289.2 293.9 297 299.6 301.7 305 309.1 313 316.9 320.1 321 320.8 320.4 320.9 321.1 320.7
279.2 295.3 304.4 308 314.7 320.1 326.4 336.8 350.1 361.2 369.9 373.7 374.8 374.9 373.8 372.1 369.5 365.1 361.6 354.8 350.9 348.2 342.7 343.8 352.4 358.5 365.2 368.7 370.1 369.8 367.9 366.8 361.6 357.4 353.8 348.5 345.8 344 344.5 346.7 350.5 351.8 351.8 351.1 349.8 344.9 341.4 336.1 330.5 326.5 323.7 320.6 317.4 314.4 311 306.1 299 289.8 280.3 276.1 272.3 273.4 271.1 246.4 254.1 266 278.8 293.1 299 305.2 309.8 312.6 315.2 315.9 317.5 317.8 318.8 317.7 315.7 313.9 314.7 318.7 324.4 329.8 333 334.8 333.1 330.3 327.4 325.4 324 322.4 320.5 318.8 316.9 310.4 307.9 307.6 307.4 304.5 301.2 298.8 294.8 290.3 281.4 285.7 294.4 297.1 300.5 304.4 307.4 310.1 310.3 310.2 309.3 310.8 310.9 310.6 310.1 309.5 307.9 305.4 302.1 299.5 297.6 297.9 299.4 300.3 300.9 302.8 303.6 304.1 306.4 308.9 308.2 309.9 312 313.7 312.6 309.2 304.3 296.7 270.4 246 229 237.1 267.6 290.7 302.2 300.8 297.1 291.7 286.3 282.5 279.9 277.9 275.3 271.7 268.6 265.6 263.2 260.8 258.2 255.8 253.6 251.1 250.7 250.3 249.7 251.7 253 254.6 256.3 258.3 260.4 262.9 265.7 267.7 270.9 273.5 276 278.8 281.6 286.4 291 295.6 300 302.3 304.1 307.7 311.1 315 319.1 323 323.3 322.9 322.1 321.4 321.5 320.7
281.9 279.3 287 305 311.6 317 323.4 332.6 345.9 358.9 368 371.7 372.9 372.9 372 370.6 368.2 364.7 362 357.4 353.5 349.2 346 341.4 349 354.6 361.7 366.6 369.4 370.9 369.8 368.9 365.9 363 360.3 355.8 352.8 353.3 353.2 355 355.6 355.5 354.3 353.3 352.4 350.4 348.2 342.2 339.2 333.6 329.6 326.1 322.7 318.4 314.3 309.8 304.4 297.5 289.8 285.2 281.7 284.1 282.7 273.4 251.3 241.1 252.7 280.6 297.9 306.3 310.8 313.6 315.4 316.5 317.6 319 319 317.3 315.4 313.3 313.4 316.3 321.3 325.7 329.3 331.4 330.9 328.4 325.6 323.1 321.3 319.1 316.3 313.3 311.1 307.7 304.5 302.4 302.1 299.5 296.7 294.1 290 286.4 279.8 280.2 289.6 293.1 296.3 300.1 302.4 304 304.1 303.7 303.1 304.2 305.4 305.5 305.3 304.5 303.2 300.4 296.5 295.3 294.7 296.9 298.7 299.6 300.2 300.5 301.9 302.3 302.9 303.6 303.7 304.2 303.8 303.7 303.9 302.9 298.3 287.6 265.4 242.6 227.5 239.9 271.9 305.2 304.9 302 297.3 291.8 287.2 284.5 282 280.9 278.8 274.3 270.8 266.9 264.3 261.9 259.5 256.5 254 253 252.5 251.6 250.7 252.1 254.8 257.2 259 261 263 265.2 268.2 271.3 274.3 277.2 279.7 281.6 284.9 288.5 293 297.6 302.1 306 308.5 311.2 312.9 316.9 321.4 325.3 325.7 325.1 324.4 324.2 323.1 322.6
292 278.2 278.5 288.3 307.6 314.1 320.8 328.1 341.4 355.8 366.4 369.6 370.7 370.8 370.1 368.9 365.5 361.6 359.2 356.5 352.6 348.1 344.3 339 344.5 349.6 355.6 364.3 368.5 371 371.3 370.5 369.8 368.2 365.8 362.5 360.2 359.5 360 359.9 359.2 357.9 356.3 355 353.4 351.9 350.5 347.7 344.2 340.7 337.1 332 328.3 323.6 318.6 313.7 308.3 303.3 297.2 292.4 289.6 294.1 294.4 290.6 281.1 262.4 242.3 265.9 296.3 305.6 309.7 313 317.3 318.6 319.3 319.7 319.1 317.4 315 312.8 312 313.5 317.8 322.1 325.2 326.8 327.7 326.2 323.9 321.3 319.8 317.9 314.6 312.6 310.1 309.4 308 306.6 305.9 303.6 300.6 296.3 289.8 286.2 280.7 273.6 284.6 288.1 292.8 295.3 296.8 297.4 297 296.7 296.5 298.1 299.8 301.1 300.5 299.8 297.7 293.3 292.3 293.4 296.8 298.1 299.5 300 300 300.5 300.5 301 301.6 302 301.3 300.3 298.7 296.3 294.8 293.6 290.1 283.8 260.6 240.4 226.5 241.9 273.5 309.1 305.5 301.1 296.1 291 288 285.4 285.1 283.9 281.5 276.9 272.6 268.6 265.4 263 260.9 258.1 255.7 254.8 254.5 253.3 252.5 252.8 256.2 259.4 261.7 264 265.8 268 271 274.1 277.6 280.7 283.4 285.5 287.4 291.6 295.5 299.8 304.2 308.7 312.5 315.1 318.4 321.6 324.9 327.5 327.8 327.4 327.8 327.5 326.8 325.4
283.3 277.1 279.2 279.2 300.5 310.8 317.6 325.1 338.2 353.1 364.9 368.1 369.2 369.6 368.9 367.3 363.2 358.5 355.7 353.3 349.9 345.5 341.9 339.4 340.1 344.7 350.1 360.6 366.2 370 371.4 372 371.4 371 369.8 367.9 364.8 363.3 362.8 362.5 361.1 359.4 357.5 356 354.1 352.4 351 349.1 346.6 344.4 341.7 338 333.1 328 322.9 317.6 312 307.1 302.7 298.5 297.5 299.2 300.4 299.1 296.2 281.4 249.8 246 267.8 300.2 307 310.4 315.9 319.1 319.3 319.2 318.5 316.7 314.5 312.2 311.1 311.8 314.9 318.6 321.1 323.5 324.4 323.5 321.8 320.2 318.8 317.3 315.4 313.1 310.5 308.7 307.4 306.8 306.1 303.8 300.9 297.1 290.1 287.7 285.2 276.8 274.9 282.9 288.8 290.4 291.3 291.3 291.1 289.5 289.3 292.7 293.5 294.9 294.9 294.1 291 290.5 300.5 303.4 303.8 302.5 302.2 301.8 301.1 301.2 301.3 301.4 301.2 301 300.7 299.8 298.3 296.3 294.2 291.8 288.5 281.9 259.3 238.4 225.7 245.5 274.8 307.8 303.6 299 294.3 289.9 287.7 287.2 287.1 285.7 283 278.8 274.3 270.2 266.8 264.1 262 259.8 258.1 257.1 256.6 255.9 254.9 253 255.8 260.1 264.3 266.8 269.1 271.3 274 277 280.4 283.7 286.7 288.7 291 294 298.5 302.8 307.1 311.3 315.9 320.1 324 326.9 326.7 328.8 329.5 329.8 330.3 330.4 329.3 328.1
281.7 276.7 278.1 276.7 288.8 307.1 315 322.2 334.1 350.8 363 366.9 367.7 368.2 367.7 365.6 361.5 356.7 352.1 349.4 347.4 343.5 339.7 337.7 336.5 339.6 345.1 355.4 362.8 368.5 370.4 372 371.1 369.9 369.4 368.4 367.6 366.2 365 363.4 361.7 360 358.5 356.6 354.7 352.6 351.4 349.9 347.7 345.6 343.8 341.2 336.9 332.1 326.7 321.1 314.8 310 306 302.3 301.5 301.3 301.4 300.5 298.3 290.2 265.5 242.9 254.1 282 303.6 307.5 312.7 317.9 318.4 318.3 317.7 315.8 313.6 311.5 310 311.6 313.4 315.4 317.7 320 321.5 321.1 319.8 318.5 317.2 315.9 314.2 312.1 310.4 308.7 307.1 305.2 304.1 302 298 296.2 293.7 288.8 286.9 282.1 272.8 274.8 282.8 285 286 285.6 284.2 280.7 283 285.5 286.1 287 287.9 285.1 288.8 300 306.4 307.6 307.7 306.1 304.3 303.4 301.9 301.6 301.7 301.8 301.2 300.8 301.4 300.5 298.9 297.1 295.2 292.1 289 284.9 262.3 238.4 225.1 250.2 275.8 305.7 301.8 296.9 293.3 289 287.7 288.1 287.6 286.1 283.4 279.6 275.2 271 267.1 264.3 263.3 262.5 260.8 259.7 259.1 258 256.2 254.2 255 258.9 264.5 269 271.7 274 276.8 279.8 283.2 286.4 289.3 292.3 294.9 296.5 300.9 305.4 309.7 314.1 318.8 323.5 328.2 330.2 329.3 329.6 330.8 331.3 331.7 332.2 331.7 330.6
286.3 276.5 275.1 275.9 280.3 298.4 310.6 318.2 331.2 348.3 361.3 365.6 366.2 366.7 366.2 364.1 359.8 355 350.3 346.8 346.2 344.1 340.2 336.5 334.1 334.9 341.1 350.4 358.9 365.5 368.3 370.2 369.9 368.6 367.8 366.8 365.7 365.6 364.3 363 361.3 359.7 358.7 356.8 354.9 352.4 351.3 350.1 348.7 346.9 345.1 343.2 340.6 335.7 330.4 324.7 318.2 312.6 308.3 304.8 303.8 302.9 302.2 301.5 299.2 296 277.6 257.5 237.1 265.8 297.5 303.9 311.1 316.4 317.5 317.5 316.9 314.9 312.7 311 309.6 309.7 311.6 313.5 315.6 318 318.8 318.4 318 316.7 315.5 314.1 312.4 310.3 308.5 309 307.3 305.9 304 303.2 301.8 300.1 297.7 294.7 290.4 285 279.6 271.4 270.9 279.5 280.5 277.5 275 272.5 273.8 276 279.1 280.1 281.5 283.9 293.1 304.4 310.4 311 310.3 309.1 307.3 305.7 302.8 302.1 301.3 300.1 299.4 300.4 301.8 300.9 299.2 297.4 294.4 289.4 285.2 279.5 263.7 236.3 228.2 255.4 276.1 298.2 299.4 294.9 291.6 288.7 288.5 288.9 287.8 285.6 283.2 279.8 276.2 273 269.6 267.7 266.4 265.2 263.9 262.2 261.3 260.1 257.1 257.4 258 257.7 261.9 268.3 273.5 276.3 279.2 282.3 285.9 289.1 292.4 295.5 298 300.8 303.9 308 312.3 317 321.8 326.3 330.9 333.6 334.1 333.7 332.9 332.9 333.2 334 333.8 332.4
284.3 276.3 275.7 276.3 280.5 292 304.2 314.2 329.3 348.2 361.3 364.7 365.1 365.5 364.5 362.1 357.9 352.1 347.3 343.7 343.3 341.8 339.7 338.5 335.9 331.6 338.7 347.2 356.7 363.5 366.3 368.6 368 367.3 366.1 364.8 363.8 363.7 363.6 362.3 360.6 359.9 358.7 357 354.4 352.3 351.1 349.3 348 347.4 346.3 344.4 342.5 338.9 334 328.3 322.1 315.7 311.1 307.7 305.5 304.5 303.8 302.7 300.9 298.7 293.4 273.2 242.2 246.9 280.7 301.9 309.5 314.7 316.6 316.9 316.1 313.9 312 310.6 309.1 307.8 309.8 312.1 313.5 316.1 315.9 315.6 315.4 315 313.7 312.3 310.6 307.6 306.7 307.3 307.4 306.4 306.5 306.3 305.5 303.9 301.6 298.4 293.6 288.8 283.6 279.6 272.9 264.9 274.5 265.2 268.6 270.5 272.3 273.4 274.4 277.3 281.4 286.9 295.5 307.9 313.1 312 310.8 309.2 306.3 304.6 303.3 300.1 298.6 298.4 297.9 300.2 302.4 300.9 299.6 297.7 293 288.4 283.6 276.4 264 239.3 228.1 248.7 263.2 270.1 280.8 291.4 288 288.2 289.4 291.3 289.4 285.9 283 280.5 278.7 276.5 274.2 271.8 269.1 267.6 266 264.7 263.5 261.7 258.5 261 260.1 259.5 260.9 265.5 273.3 277.1 280.6 283.7 287.3 291.4 295.2 297.9 300.7 303.9 307.2 310.7 314.9 319.9 324.7 329.4 333.6 336.7 337.5 337.9 337 337 337.3 337.5 335.8 333.4
286.9 275.4 277.1 276.4 283.2 291.4 301 314.7 333.5 350.4 359.4 363.7 364.2 364.6 363 360.3 356.8 349.7 343.9 340.7 339.8 339.9 338.8 338.8 337.5 331.8 336.7 344 354 360.8 364.6 366.1 365.3 364 364.1 362.9 361.9 361.8 361.7 361.9 360.7 358.1 356.6 355.3 352.7 350.8 349 347.2 346.6 346 345.8 344.5 342.5 340.5 336.5 331.5 327.5 321.6 315.9 311.2 308.2 306 304.8 303.7 302.6 301.4 299.5 282.5 246.8 239.5 274.1 300.2 308.3 313.7 316 316 315.2 313.2 311.5 310.2 308.7 306.7 308.3 310.2 311.5 313.3 313.1 312.7 312.5 312 311.4 310.1 308.3 304.8 304.9 305.6 306.1 307.2 309 308.7 308.7 307.7 305.3 302 297.2 292.5 287.8 284.6 280.9 274.6 260.4 276.6 283.3 286.3 286.8 283 281.8 281.4 285.7 291.3 300.6 310.1 313.3 311.9 307.6 305.6 302.9 299.4 297.2 294.2 293.3 294.2 296.2 298.6 301.6 300.8 299.7 297.6 293.2 289.3 284 277.8 270.5 250.9 228.6 223.7 236 246.9 257.6 270.8 284.4 288.7 290.8 293.5 291.9 287.9 284.6 282.6 281.8 280.2 277.6 274.7 271.9 270.8 268.8 267.5 265.9 261.4 262.5 265.5 266 264.7 263.1 266.3 271.6 276.8 280.6 283.8 287.7 291.9 296.5 299.7 303 306 309.6 313.5 317.3 322.3 327.6 332.4 336.6 339.6 340.8 341.2 341.1 341.1 341.3 339.8 337.7 334.5
275 274.2 278.4 277.9 287.3 292.9 302.9 321 339.3 354.5 361 361.9 363.3 363.3 361.6 358.7 354.8 348.9 342.5 338.8 336.5 337.3 337.5 338.4 338 335.2 331.9 340.5 348.5 354.8 359.7 361 361.3 360.1 360.7 360.9 360 359.9 361.3 360.7 359.5 356.9 355.1 352.9 350.3 348.5 346.8 345.8 345.2 344.6 344.5 344.1 342.1 340.2 338.4 335.2 331.5 327.1 321.5 316.6 311.8 308.1 306.6 305.4 304 303 300.7 268.1 235.7 258.9 284 301.8 309.7 313.6 315.6 315.9 314.7 312.7 311 309.6 308.4 305.9 306.8 308.1 308.8 310 310.8 309.8 308.6 307.5 306.7 306.4 304.8 302.4 303 303.7 305 306.7 308.6 311.1 310.5 309.4 306.7 303.5 299.1 294.7 291.1 287.7 284.3 278.3 261 277.8 285.2 292.3 298.1 295.3 292.7 290.1 290.1 297.2 306 310.5 313.2 310.8 306.5 302.4 297.9 294.9 292.2 289.8 288.8 290.3 291.3 294.1 295.5 296.5 298.9 297.4 292.7 286 279.4 267.6 257.7 241.4 239.3 229.7 223.7 224.6 236.4 249.6 266.4 286.9 292.2 295.3 294.9 290.8 286.7 284.1 282.2 280.7 278.7 276.5 275.6 273.7 271.2 269.2 266.4 261.6 268.2 269.3 270.8 272 272.5 273.4 272.4 276 279.7 283 286.6 291.2 296.3 300.6 304.1 307.4 312.1 316 319.8 324.1 329.7 335.2 339.6 342.4 343.6 344 344.6 344.9 344.3 342 339.4 335.8
273.1 273.2 293.1 303.2 311.8 315.5 315.8 328.2 340.7 352.2 355.9 358.6 359.2 358.8 356.9 354.4 351.5 346.7 341.7 337.8 332.9 334.6 335.3 336 335.4 334.2 326.8 334.8 342.4 348.3 352.6 355.3 355.9 355.6 355.3 357.7 358.1 360 360.5 359.2 358 355.6 353 350.5 347.1 345.3 343.5 343.1 342.9 343 343.2 343.1 341.8 340.2 338.5 336.9 334.1 330.9 327.1 322.1 317 312.7 309.1 306.3 304.6 303.2 289.7 254.5 233.2 261.2 291.3 304.2 310.8 314 316.2 316.1 314.7 312.7 310.7 309.4 308.3 306.1 303.9 304.9 305.9 306.3 307.2 306.7 305.7 304.4 302.9 301.7 299.4 298.1 298.4 300.1 301.8 305.7 307.5 308.6 309.8 308.7 306.4 303.4 299.1 295.2 291.3 287.8 284.5 281.4 261.6 273.9 285.4 293.9 303 305.6 301.1 298.8 299 303.9 311.3 313.2 313.1 309.9 306.6 303.3 297.7 292.9 290.9 289 287.4 286.6 284.1 284.8 284.2 284.4 286.7 284.7 274.5 263.6 261.2 260.5 258.4 261.4 257.3 250.2 241.6 224.8 220.2 230.8 252.5 276.9 293.4 297.1 297.9 293 288.4 285.2 281.9 279.6 277.6 276.5 276.7 275.3 274.3 271.2 265.6 263.6 269.2 270.9 273 275 275.6 276 276.8 276.1 277.9 280.4 284 289.1 294.3 299.6 305.1 309.7 313.8 317.9 321.9 326.2 331.8 337.6 341.8 344.7 345 344.9 345.1 344.3 343.8 341.2 339.9 336.3
273.4 273.2 296.3 310.3 316 320 323.3 326.5 334.2 342.6 352.2 353.8 352 349.5 347.6 345.7 344.6 341.9 339 335.3 329.1 325 330.4 332.2 332 330.6 324.8 327.2 334.4 341.1 345.4 348.9 349.8 349.5 348.3 353.5 356 358.9 359 357.7 356.5 354.1 351.2 346.8 343 341.8 340.8 340.4 340.5 340.8 341.6 342.3 342 340.4 338.8 337.1 335.1 332.2 329.8 326 321.9 317.1 312.4 308.1 304.8 300.3 290.9 252.1 232.2 256.2 292.5 307.3 311.8 314.5 316.7 317 315.8 313.8 311.9 310.6 309.6 307.9 304.9 303.1 302.2 302.2 302.8 303.2 302.7 301.7 300 298.2 295.9 293.9 294.5 296.2 298.5 301.3 304.1 305.9 308.4 308 306 303.1 299.2 295.8 291.9 288 284.7 277.3 257.5 271.7 285.7 294.9 305.2 316.1 314.8 311.4 311.3 313.6 315 314.9 313.1 310.4 307.2 304 297.8 292.3 294.2 293.4 293.1 291.3 288.8 287 286.6 284.7 285.2 287.6 290.4 290.9 288 284.1 277.9 273.4 267 259.5 252 243.7 225.8 219 245.3 271.4 295.6 299.2 298.6 294.7 290 286.2 283.1 279.8 276.2 275 275.1 277 274.4 269.2 265.2 264.5 267.8 272.1 274.1 275.9 276.7 276.9 278.8 279.2 280.5 281.7 282.2 285.2 290.7 296.8 303.4 309.8 314 318.4 323.3 329 335.3 339.3 341.5 343.7 343.9 343.7 342.8 342 342.5 341.2 339.6 335.2
296.1 273.1 283.4 301.5 313.7 319.6 323 324.5 328.2 334.6 340.4 343.4 342.5 339.9 337.4 335.5 334.7 337.1 331.6 329.6 324.4 322.1 324.3 327.1 327 326.4 323.9 320.4 325.8 331.9 336.6 340.7 341.1 343.5 344.1 349.8 354.4 357.3 357.1 356.2 354.6 352.2 348.8 342.6 338.9 338 337.6 337.4 337.4 338.2 339.8 341.5 342.1 340.8 339.1 337.1 335.2 333.3 330.4 327.3 324.2 320.4 315.6 310.4 305.4 300.2 291.4 252.1 228.6 251.3 288.2 306.5 311.7 314.2 316.3 317.7 316.7 314.8 313.3 312 311.5 310.4 307.6 303.8 301 298.9 298.3 298.7 298.9 298.5 296.9 295 293.1 290.8 290.6 292.8 295.1 297.5 300.1 302.7 304.8 305.2 303.2 301.1 298.3 294.8 290.7 286.3 281.6 260.4 253.8 274.5 287.7 296.1 311.9 322.7 321.8 319.1 318 317.2 316.8 314.6 312.4 310 306.9 302.7 296.6 301.1 299.5 300 299.5 296.9 295.1 295.6 294.6 293.9 298.9 300 299.7 297.1 293.5 289.9 285.9 280.8 276 267.9 260.8 251.8 233.3 219 241.1 269.1 293.4 300 298.9 296.5 291.8 287.2 284.2 281.1 278.7 274.8 272.1 272 270.4 269.6 270.5 269.6 267 269.9 272.6 275 277.6 278 280.8 282.2 283.8 285.8 286.8 289.5 292.1 295.5 301.3 309.7 314.8 319.4 326.7 333.4 337.1 339.8 341.8 342.3 342.6 342.2 341.6 341 340.1 339.2 336.6 333.4
297.1 272.7 279.3 284.5 305.8 318.7 321 322.2 324.8 326.6 330.5 332 332.4 337.3 333.6 326.8 334.9 336.7 335.3 331.4 320.9 320.4 321.6 322.7 323.3 323.7 322 318.8 319.4 323.9 328.1 332.9 333.4 337.8 343.8 348.9 353.1 355.7 355.2 354.2 352.7 350.2 344.7 339.2 335.7 335 334.7 334.4 334.2 335 337.3 339.6 340.9 340.7 338.6 336.5 334.3 332 329.7 326.6 323.5 320.1 316 311 305.6 300.1 286.6 256.6 228.4 246.9 284.9 303.5 309.2 312.4 314.4 316.3 316.7 314.6 314.4 314.9 314.7 314.4 312 309.1 305.1 301 297.2 295.2 294.7 294.6 293.5 292.3 290.8 288.4 287.8 290.4 292.6 294.2 295.9 298.3 299.9 300 298.3 296.2 293.5 290.6 284.4 275 262.8 251.1 264 283.8 288.8 296.8 313 323.8 324.9 323.4 321.6 319.7 317 314.5 311.8 309.4 305.9 302.6 303.9 305 304.6 304.9 304.6 303.4 302.2 301.1 299.9 299.2 301.9 304.1 302.9 300.5 298.1 295 291.5 286.9 282.3 276.6 264.8 237.6 218.2 225.6 247.6 269.8 286 298.7 299.6 298.1 293.8 289.7 286.6 285.1 282.9 279.1 277.2 276.2 274.7 274.4 276.8 275.4 272.9 269.7 270.1 274.7 277.3 279.9 282.7 285.3 287.5 289.6 292.1 294.5 297 300.5 304.9 310.3 316.2 322.7 329.5 334.3 337.3 339.4 339.8 339.9 339.4 339 338.3 336.6 334.9 333 331.4 328.4
297.9 295.8 284.9 271.1 293.9 314.9 319 319.9 320.6 320.8 322.3 327.6 334.8 335.2 330.1 322.4 332.1 334.4 335.4 328.7 318.5 317.9 319.4 320.4 321.4 321.8 321.3 319.1 314.8 318.2 322.6 327.7 336 340.4 345.7 350.1 354.2 355.3 353.4 352.1 350.4 347.9 342.9 336.2 332.5 331.1 331.7 331.4 331.2 332.1 334.4 336.8 339.1 339.3 337.5 335.2 332.8 330.5 328.4 326 322.9 319.6 315.7 310.6 305.6 300.2 292.6 261.5 232.1 239.6 276.9 299 305.1 310.4 312.8 314.9 315.1 314.7 315.8 317.7 318.4 318.2 315.7 312.7 308.9 304.8 299.8 296.5 292.5 290.3 288.9 287.4 287 286.9 285.4 287.5 289.4 291.2 292.7 293.3 293.7 294 292.2 290 287.8 284.1 277.5 265.1 250.5 250.3 264.7 282.8 288.8 296 310.9 322 326.3 325.2 323.1 320.5 317.5 314.8 312.3 309.6 307.2 307.2 307.7 307.8 307.7 307.9 307.8 307.5 306.3 305.4 304.4 303.4 303.5 304.8 304.2 303 300.8 298.5 295.7 292.1 284.9 259.6 238.2 218 232.2 244.2 265.5 282 289.7 299.5 302.3 301.3 297.6 293.6 291 289.7 287.2 283.4 281.5 280.7 279.3 278.1 280.8 280.1 277 273.2 270.9 276.2 279.9 281.8 284.2 286.8 289.1 292.5 295.7 298.4 301.1 304.1 308.6 313.5 319.5 325.7 331.3 334.2 337.2 337.5 337.6 336.7 336.2 334.9 332.7 330.1 327.6 326.4 325.2 325.4
297.9 296.9 274.8 276.3 280 307.6 316.2 317 317 317.8 318.9 321.2 323.3 330.6 327.8 322.5 330.8 328.4 329.6 325.2 315.5 315.8 317.2 318.5 319.7 321 320.6 319.3 312.5 319 325.5 332.3 338.3 343.1 347.6 352.3 355.8 355.7 353.6 351.8 349.5 347 340.4 334.3 329.8 328.1 329.2 329.2 329.2 330.2 331.5 333.7 335.9 336.7 336 333.7 331.3 329.1 326.9 324.7 322.2 319.1 315.1 310.2 305.2 299.7 291.7 265.8 238.8 232.1 264.1 287.3 297.9 305.7 310.4 312.3 312.5 313.5 316.3 319.2 321.8 321.6 319.2 315.9 311.5 307.2 303.4 300 296.9 294.4 291.9 288.4 284.6 282.5 281 283.3 285.8 288.3 289.4 287.8 287.2 287.3 286.2 284.3 281.4 277.5 267.1 251 247.9 260.9 272.2 282.9 290.4 297.1 309.7 321 326.8 326.3 324.3 321.5 318.7 316 313.1 310.3 309.2 309.7 310.3 310.4 310.5 310.7 310.8 310.7 310.2 309.3 308.4 307 305.7 306 305.1 303.5 300.9 297.8 296 294.3 266.9 242.1 218.9 236.9 253.9 268.6 283.4 294.7 298.9 305.2 308.9 308 307.1 299.7 297 295.9 293 288.7 285.7 286.2 283.3 282.1 284.2 286.2 282.5 277.4 272.7 276.2 281.7 284.2 285.8 288.4 290.9 294.3 298 302.2 304.9 307.6 312.2 317.2 323.1 329.3 332.9 334.1 337.1 335.3 335.2 333.7 333 331.1 327.3 325 325.9 325.8 325.8 322.8
297.8 296.5 270.3 275.7 267.1 296.1 305.8 314.2 305.5 305.4 306.6 306.4 316.2 320.5 321.1 320.8 321.8 318.3 315.9 313.5 312.5 312.7 314.4 315.8 317.9 319.5 319.3 317 310.6 319.6 326.8 333.9 338.9 343.4 348.1 352.9 355 354.9 353.7 351.7 349 345.5 338.4 332.1 327.5 325.7 326.6 327.2 328.1 328.5 329.3 331.4 333 333.7 334 332.1 329.8 327.6 325.5 323.3 321.1 318.5 314.6 309.9 304.7 299.1 289.5 268.5 244.3 226.2 251 273.1 287.7 297.4 304.5 308.6 309.7 311.5 314.7 318.5 321.8 322.4 320.1 317.1 312.9 308.6 304.6 301.2 298 295.6 293.1 289.8 288.1 287.1 283.2 278.6 279.7 283.3 284.1 282.7 280.9 278.3 279.8 279.4 278.5 275.5 254.6 246.6 252.7 275.5 291.5 289.4 292.6 297 307 319 324.8 326.8 325.6 323 320.4 317.7 314.8 311.9 311.1 311.6 312.2 312.8 312.9 313.1 313.2 314.4 314.4 313.5 312.8 310.8 309 307.6 306 304.2 301.1 297.1 295.4 280.4 250.6 225.3 231 258 274.7 289.3 298.4 306.3 311 316.4 320.9 320.2 321.4 315.1 310.2 307 304.7 301.2 296.7 293.6 287.8 288.2 286.3 289.3 286.8 279.8 275 276.4 282.8 286.3 287.9 290.4 292.6 296.1 300.1 305.7 308.4 311.2 316.3 321.2 326.7 332.6 334.6 335.3 336.5 334.8 332.6 330.8 329.2 327.6 326 325.9 325.8 325.7 325.7 319.2
297.6 296.3 269.8 268.8 277.3 291.7 306.5 300.6 294.6 293 283 282.3 280.4 284.4 298.8 284.9 291.6 304.1 309.1 313.8 310.9 309.5 311.5 313.1 315 317.6 318.2 314.1 309.8 319.9 326.7 334 339.2 343.3 347.5 351.1 353.5 354.2 353.3 351 348.3 344.4 336.5 330.2 325.3 323.5 324.5 325.3 325.8 326.1 327.2 329 330.3 331 331.5 330.6 328.3 326.2 324 321.8 319.7 317.5 314 309.5 304.4 298.8 287.8 267.2 245.9 223 241.8 262.2 278.1 290 297.6 302.6 305.7 309.1 312.6 316.5 320.3 321.5 320.7 317.7 314.1 309.8 305.6 302.2 298.8 296.4 293.8 291.2 290.1 289.4 288.7 287 281.5 275 272.2 273.1 272.5 269.9 266.7 268.8 273 270.2 250.4 244.7 265.7 283.6 294.1 293 294.8 299.2 305.1 313.7 320.9 326.6 326.6 324.7 322.1 319.4 316.5 313.5 312.9 313.3 314.1 314.6 315.2 315.4 316 317.5 318.5 317.7 317.4 315.5 314.8 313.4 311.5 307.9 304.7 297.4 284.2 260.6 237 216.5 242.9 270.5 291.1 303.9 309.9 314.5 324.1 327.8 335.4 338.6 338 330.7 318.8 315.5 312.2 308.6 306 303.5 296 292.6 291.6 289.8 287.4 283.7 280 278.8 282.4 287.7 290.4 293.7 295.3 297.7 302 307.1 310.8 314.3 320.4 325.3 330.3 334.5 336.2 337 337.8 336.2 333.9 330.9 325.8 327 325.9 325.8 325.8 325.8 326 318.1
297.7 296.7 269.2 268.8 309.6 308.3 301.6 286.2 281.5 280.7 263.2 248.9 238.2 241 249 249.3 250.3 265.7 293.2 310.5 311.9 307.8 306.4 308.4 310.4 312.8 314.4 313.6 307.9 318.5 323.9 329.8 337.3 340.3 344.2 347.5 349.9 351 351.2 349 346.8 342.8 336.7 330.4 324.7 321.3 320.8 322.9 323.4 323.9 324.9 326.5 327.6 328.1 328.2 327.9 326.6 324.6 322.5 320.3 318.2 315.9 312.4 308.7 304.5 299 289.4 265.7 244.9 221.1 239.8 253.1 268.9 284.6 292.2 297.1 301.5 305.7 309.9 314.4 318.1 319.1 318.9 316.8 313.3 310.3 306.3 303 299.6 297.1 294.4 293.3 292.1 291.3 290.8 289.4 287.3 283.9 279.3 273.1 265 257.1 255.1 252.7 257.9 260 246.7 245.8 271 285.8 296.4 295.9 296.9 299.7 303.7 308.5 316.9 324.2 326.8 325.8 323.6 321.2 318 315.3 314.7 315.3 315.9 316.3 317.2 317.7 319.1 320.6 322 322 322.1 321.3 320.9 319.6 317.2 313.5 309.9 298.2 272.9 248 226.3 227.2 256.9 283.2 303.3 313.8 317.6 320.5 327.6 338.3 344.9 347.5 347.1 339.2 325.6 320.3 316.7 313.8 311.4 309.1 304.4 300.5 298.7 296.3 292.7 289.4 286 282.5 282.1 288.1 293.6 297.7 300 301.8 304.4 307.9 312 316.2 322.9 329.4 333.7 336.4 338 339.4 340 338.7 336.5 333.1 328.3 325.9 325.9 325.8 325.7 325.7 326 318.1
297.7 294.2 268.6 268.6 312.4 302.9 291 282.8 269.8 264.5 249.8 248.8 238.2 238.7 238.1 233.7 230.7 237.6 278.2 295.4 312.4 310.3 305.5 304 304.9 306.4 307.2 306.4 303.8 313.2 317.7 322.6 329.5 336.6 340.6 343.8 345.7 346.8 347.2 346.1 344.3 340.3 335.6 330.3 325.2 319.8 317.6 319.8 321.4 322 322.8 324 325.3 325.8 325.7 324.9 323.9 322.1 320.3 318.3 316.3 313.8 311 307.6 303.5 298.9 288.6 262.9 241.9 221.4 234.6 248.2 273.4 286.5 289.4 292.4 296.8 302.5 307.2 311.6 314.3 315.4 315.8 314.6 312.8 309.9 306.3 303.1 300.2 297.6 296.2 295.2 294.1 293.2 292.8 291.8 289.7 287.6 285.9 283.5 280.3 275.5 266.2 252.5 246.7 246.9 242.6 249.1 271.6 284.1 293.9 297.2 298 299.7 302.1 305.9 311 322.3 327.5 328.3 326.1 323.4 320.1 317.2 316.2 316.7 317.4 318 318.8 320.2 321.9 323.6 325.2 326.1 326.4 326 325.7 324.5 322.9 319.4 310.5 288.7 259.7 237.6 215.3 242.9 273 296 313.5 322.3 323 325.5 331.7 342.1 349.2 352.1 351.6 343.8 330.8 323.8 320 317.3 314.8 312.4 311.5 309.9 307.3 302.9 301.5 301 299.3 295.1 289.4 287.3 291.6 298.8 304.3 306.3 308.5 311.1 313.7 317 321.6 327.2 333.6 338 340.4 342.2 342.5 342.1 339.8 336.8 331.9 326.1 325.9 325.8 325.7 325.7 324.6 318.1
297.2 294.5 267.4 267.9 306.6 301.1 283.8 281.6 265.2 260.5 256.2 250.4 238.2 238.4 238.3 233.2 228.9 236.7 239.7 275.4 300.4 315.2 311.3 304.9 303.4 301.5 300.6 299.9 300.3 303.8 309 314.1 320.8 327.6 334.7 338 340.7 341.7 342 340.8 339.3 336.4 333.5 329.7 325.4 320.4 315.8 315 317.5 318.6 319.5 321.7 323.4 323.5 323.3 322.4 321 319.4 317.7 315.8 313.3 310.9 308.6 305.6 302.2 298.3 292.5 270.6 246.9 228.6 226.9 239.1 256.6 276.9 283.4 290.3 294.7 299.1 303.7 308.1 310.8 311.9 312.4 313.1 311.7 309.7 307 304.4 300.6 299.2 297.8 297.1 296.5 295.9 295.1 294.2 291.9 290.1 289 287.8 284.8 282.6 278.7 269.5 257.6 248.3 242.9 242.2 259.5 273.8 285.4 296.6 299 300.7 302.6 305.7 310.4 319.7 326.9 329.6 330.1 326.9 323.4 320 317.4 317.3 318.1 319.3 320.4 321.5 324.1 325.8 327.5 329.7 330.1 330.2 329.8 328.7 327.6 322.7 301.8 276.3 246 224.9 226 259.3 285.5 306 320.7 326.5 327.9 329.5 334.7 342.2 350.2 354.8 351.6 344.3 334.8 327.5 322.7 319 316.3 314.3 314.4 313.7 312.3 311.5 310.7 312.4 312.1 309.9 303.8 297 293.5 296.8 304.4 309.7 312.1 314.2 317.3 322.1 328.7 331.4 333 338.3 342.8 344.8 346.2 345.8 344.3 341.4 336.9 329.4 325.9 325.8 325.7 325.6 324.8 324.5
300.7 295.5 267.2 267.1 292.4 311.4 285.1 268.5 267 250.4 250.1 251 245.2 238.9 239.2 238.2 236.7 238.2 239.3 243.3 281.4 302.5 317.4 312.2 307.1 304.7 302.9 299.6 297.3 297.3 301.4 307.6 313.4 319.1 324.6 330.4 332.8 333.8 335.3 335.7 335.1 333.1 330.1 326.7 323.9 320.4 317.1 309.2 314.7 315.5 316.6 319.4 321.3 321 320.6 319.6 318.2 316.7 314.7 312.5 310.3 308.2 306.2 303.3 300.4 296.8 292.4 280.3 257.8 236.3 217.4 226.4 233.8 248.6 276 290.3 294.5 298.9 303 306 307.9 309 309.6 310.2 310.3 309 308.7 307.1 305.4 303.5 301.2 299.6 298.8 297.9 297.6 296 293.6 292.4 291.4 289 286.7 284.7 282.4 277.8 269.3 261.4 249.4 239.9 243.7 260.8 274.8 293.7 299.3 301 303.2 305.9 310.4 318.4 327.2 332.1 332.9 330.4 326.9 323 319.6 318.9 318 318.8 320.7 322.2 325.4 327.9 330.3 332.9 333.8 334.3 333.9 332.7 331.5 323.7 291.7 258.6 235.5 214.4 238.1 272.9 298.3 316.4 326.3 330.1 331.4 332.5 336.4 342.8 350 354.7 352.3 345.9 337.2 330.7 324.3 320.6 317.6 315.6 315.7 316.7 316.2 315.7 315.6 317.2 318.9 317.1 315.5 309.8 302.7 299.7 303.6 308.1 312.8 315.2 319.6 325.3 332.1 336.9 339.1 340.1 345 347.7 349.2 349.7 348.3 345.9 341.3 334.1 326 325.8 325.7 326.2 324.9 325.1
298 297 266.8 266.2 277 314.1 292.4 273.1 267.9 249.4 249.5 249.7 239.7 242.7 240.6 239.6 238.5 238.4 238.9 238.3 245.6 276 301.6 318.6 314.5 310.5 308.4 305.6 300.8 295.9 295.4 302.1 308.1 312.4 318.2 322.6 325.7 326.5 327.3 328.4 327 325.8 324.6 323.3 321 318.9 316.3 310.8 309 308.4 315 317.9 318.4 318 317.7 317 315.5 314 312 309.8 307.8 305.8 303.6 301.5 298.7 295.5 291.1 286.9 274.2 251.7 231.6 215.8 223.5 237.9 265.2 286.3 293.6 298.7 301.7 303.9 305.5 306.7 307.6 308.5 309.5 311 310.9 310.5 309.2 306.9 303.8 300.5 299 297.4 297 296.8 294.4 292.9 291.8 290 287.8 286.1 284.3 281.5 275.2 268.9 260.9 246.5 238.5 249.8 268.1 291.2 301.1 304.7 307.1 309.8 313.3 319.8 328.6 333 334.8 332.7 329.7 325.9 322.4 320.1 317.8 317.7 319.5 322.8 326.2 329.7 333 335.7 337.5 338 337.9 336.4 334.2 321.7 292 253.7 226.9 213.6 234.5 268.2 299.7 323.1 329.8 333.3 334.7 335.5 338.5 343.5 349.9 354.3 354.6 349.5 340 332.8 326.3 321.2 318.4 317.2 317.6 319.1 319.1 319.2 318.4 319.4 321.1 321.7 320.3 316.2 310.9 308.1 304.7 305.9 311 315.5 320.5 327.3 334.1 339.9 343.7 344.3 346.8 350.5 352.6 353.9 352.8 350.3 346.1 340.9 332.8 326.8 325.8 324.6 324.9 325
297 296.6 274.2 266 266.6 304.8 290.1 278.4 268.6 266.5 249.2 249.2 239.8 239.3 238.9 238.6 238.3 238.1 238.8 238.4 238.1 258.8 281.2 301.8 302.8 314.9 312 309.4 306.4 300.7 294.5 299.8 305.3 309.4 314.5 317.5 319.3 320.2 321.3 321.8 321.1 319.8 319.3 318.8 317.4 316.5 313.6 306.1 300.4 303.6 313.2 315.8 315.7 315.3 314.9 314.5 312.9 311.2 309.4 307.4 305.5 303.6 301.3 299 296.8 294 290.7 286.9 281.3 270.2 248.5 225.8 218 232.4 260.6 289.9 296.1 298.2 300.7 300.9 302.2 303.4 304.5 305.4 307.4 309.5 310.9 310.1 308.2 306.2 303.6 301.2 298.2 296 294.5 294 293 292 291.8 290.5 288 286.8 285.7 282.4 276.4 269.8 262.3 250.9 237.3 248.7 266.3 289.4 302.7 308.9 312.1 314 316.9 322.1 328.5 332.4 333.6 331.5 328.8 326.8 324.2 321.6 317.9 316.2 318.4 322.1 325.8 329.9 333.9 337.7 340.6 341.5 341.2 339 335.7 322.3 293.2 258.1 227.4 211.9 221.1 246.9 279.8 315.1 331.8 334.2 335.7 336.6 339.9 344.8 350 356.5 358.8 355.5 345.1 335.3 329.2 322 318.1 317.5 318.5 320.6 320.6 319.7 319.3 320 322.3 323.4 322.6 319.8 319 318.2 315.4 313 314.4 317.8 321.5 327.7 337.3 342.7 346.8 348.8 348.4 350.8 353.4 356.6 356.8 354.4 350.8 345.9 339.7 333.6 327 325 324.8 324.7
297.2 297.1 296.3 265.3 258.6 291.3 308.2 284.5 273 267.3 249.7 250.4 239.6 239 238.4 238.3 238.1 238.1 238.6 238.4 238.1 258.8 259.4 280.8 281.3 287.3 303 311.1 308.4 303.7 300.5 296.3 294.9 306.4 311.8 315 316.4 316.1 316.8 317.1 316.1 313.6 314.9 314.7 313.6 312.8 309.4 303.7 298.7 301.7 308.9 312 312.9 313 312.6 312 311 309.3 307.6 305.7 303.7 302 300.1 298.1 295.8 293 290.6 286.3 280.4 260.6 240.5 225.5 215.5 222.6 258.7 288.5 297.1 297.3 298.3 298.2 298.5 299.9 301.4 302.8 304.9 307 308.1 307.8 306.7 303.1 301.2 299.1 297.7 296.1 293.8 291.9 290.9 289.4 289.8 288.7 287.2 286.1 284.2 280.2 274.9 267.8 260.1 241.6 240.5 254.3 269.6 289.2 303.5 311.8 315.3 316.5 317.4 320.4 325.3 328.5 329.7 328.7 326.6 324.6 322.5 320.2 317.2 314.1 317.9 322.4 326.8 330.7 334.6 338.1 341.5 342.5 341.4 339.2 335.7 326.1 292.9 262.7 237.9 224.7 211.1 242.1 275.4 310.9 328.4 331.7 334 335 338.7 344.1 349.2 358.6 363.5 361.3 350.2 338.5 331.6 323.6 318.1 317.1 318.5 319.8 320.2 319 318.6 319.5 321.5 323.4 323.5 324.1 324.8 326.2 325.7 322.8 321.9 325.2 329.2 330.7 336 343.6 348.6 352 353 352.3 353.6 357.2 359.1 358.2 355.1 351 345.7 339.3 332.6 326 325.4 325
285.2 297.4 296.6 265.7 272.2 278.9 279.9 284.1 283.4 269.3 250.6 251.6 244.1 238.2 238.1 238.1 238 238.1 238.4 238.3 238.1 251.1 259.9 261.7 279.7 281.5 300 309.7 309.3 307.4 305.9 302.4 285.9 302.1 308.5 312.2 312.9 312.6 312.4 312.3 312.6 311 311.3 310.9 309.9 309.1 305.8 301.3 296.6 299.5 304.2 308.2 309.7 309.9 310 309.6 308.8 307.5 305.9 303.9 302.1 300.3 298.5 296.6 294.8 292.4 290 286.6 269 248 231 222.8 214.3 230.1 261.7 293 298 296.6 295.9 295.2 294 296.9 298.5 300.3 302.5 304.2 305.2 305.7 306.3 304.2 302.2 300.8 298.8 298.1 295.5 293.1 290.2 288.4 287.6 286.8 286.2 283.8 281.2 278.3 273.5 266.4 249.3 234.3 250.1 261.8 272.5 289.2 302.4 311.3 314.6 315.2 315.5 317 319.9 322.7 324.8 324.3 323.1 321.1 319.4 317.2 313.5 313.5 317.9 322.8 328.5 332.6 336.3 339.6 340.8 341 339.2 337.2 333.7 326.3 291.2 260.6 244.4 223.8 209.8 239.3 272.4 306.5 324.8 328.8 331.4 333.5 338.3 343.5 349 359 367 366.6 354 342 334.1 327.1 319.9 315.4 314.8 316.1 317.1 317 316.8 319.3 321.6 323.5 326.6 327.5 330.3 332.1 332.8 330.7 328.6 331 334.2 336.8 337.1 342.7 348.1 353.6 356.8 357.8 357.4 358.8 361.3 360.5 357.4 355.4 351.7 345.7 339.3 332.3 328.5 325.7
282.8 280.2 277.2 277.1 268.8 264.5 298.3 304.3 286.9 283.2 269.2 250.9 245 238.1 238.1 238 238 238 238.1 238.1 249.6 251.5 259.8 262 274.3 280.6 289.2 305.5 309.5 306.4 304.4 302.7 291.2 294.6 303.6 306.5 309.1 309.3 309.2 309.3 309.2 309.4 308.9 308.5 307.4 306.1 303.5 299.8 293.5 297 301 304.2 306.7 306.9 306.8 306.7 306.3 305.3 304 302.2 300.5 298.7 296.9 295.1 293.3 291.6 289.5 284.5 252.2 235.1 221.9 212.3 226.1 249.3 277.6 294.6 294.1 293.5 292.7 291.4 295.8 301.7 306.7 304.2 301.9 302.3 303.1 303.4 303.1 302.9 301.5 300.2 299.2 297.2 294.3 291.2 287.9 286.4 285.7 284.8 282 279.3 276.7 274.6 271 264 242.4 238.7 257.9 269.5 279.2 290.7 301.8 310.6 312 312.2 312.2 311.2 312.4 316.4 319.7 319.8 319.2 317.7 315.9 314 310.6 313.3 318 322.9 330.1 334.1 337.7 339.7 339.1 337.5 335.2 332.8 328.8 323 287.2 259.2 245.8 226.1 209.3 237.7 270.3 303.2 321.7 326 328.7 331.5 337.6 342.7 347.5 353.3 360.8 364.7 355.5 345.4 336.1 328 320.6 316.2 312.9 312.3 313.1 313.8 315.5 318.9 322.4 325.9 328.9 332.4 335.6 338.1 339.4 339.6 336.8 337 339.4 342.6 345.4 345.8 350 355.1 360.5 362.9 362.9 363.2 363.7 364.7 363.3 359.4 356.1 351.3 345.2 339.8 338 335
265.8 262 278.8 274.4 263.5 266.3 298.7 315.6 290.3 285.7 271.4 251.6 250.5 250.1 249.8 249.6 249 246.7 244.7 243.3 250 251.5 252.9 261.8 265 275.8 281.1 305.2 309.2 305.9 302.1 300.2 295.2 285.4 299.2 301.4 302.7 304.6 305.3 304.7 303.9 306 305.9 305.9 305 303.6 301.7 297.8 290.7 296.1 300.4 302.3 303.4 303.6 303.2 303.2 303.3 302.6 301.5 300.5 298.8 297.2 295.4 293.6 291.9 290.2 288.6 277.6 242.4 226.3 212.3 223.2 248.3 275.3 288.5 289.7 288.6 287.9 284.9 293.8 302.5 313.9 312.2 309.1 306.2 304.4 303.9 303.7 302.6 300.4 298.7 297.3 295.3 292.9 290.5 287.7 285.2 283.9 282.8 284.8 282.7 278.1 273.7 270.9 268.4 260.8 240.2 240.1 257.8 261 282.4 294.1 298.4 306.9 308.8 308.9 308.2 306 306.5 309.3 312.6 314.9 314.3 313.9 312.8 310.9 308.7 313.3 318 324.3 332.1 334.7 335.9 337.4 335.6 333.6 330.8 327.9 324.2 320.2 286.1 258.9 242.8 223.6 207.5 237.4 274.5 312.6 323.2 325.7 325.9 326.9 329.6 337 341.4 343.9 347.1 354.1 353.3 344.7 334.4 327.4 321.6 317.5 314.1 310.7 310 311.5 314.3 319.3 325.4 330 338.4 342.4 344.1 346.8 348.5 348.3 347.8 347.3 348.2 348.8 350.7 351.6 354.2 358.9 364 366.8 367.2 367 366.6 367.5 366.7 364.3 360 355.9 350.8 347.3 346.2 344.2
268.5 263 296.7 286.6 263.5 266.5 303.1 313.3 303.9 295.2 285.4 271.1 252.3 251.9 251.4 251.1 251.9 255.3 251.6 251.3 251.2 252.4 253 262 265.4 275.3 280.8 298.3 310 306.1 300.9 296.5 293 279.8 292.4 293.6 295.7 297.5 298.9 299.3 299.7 302.3 302.5 301.7 301.3 299.1 297.1 293.5 282.8 296.7 298.8 299.6 300 299.1 299 298.9 299.8 299.7 298.8 298.6 297.1 295.7 293.9 292.2 290.4 288.6 284.2 267.4 239.7 221.8 208.3 223.6 250.2 274.9 281.4 282.7 281.1 273.1 283.6 295.6 309.5 310.7 309.1 307.7 306.1 305.7 306.7 307.2 305.8 301.1 297.3 294.8 292.6 290.3 287.9 284.8 283.7 282.4 281 279.5 278.6 276 273.7 265.6 264.1 255.6 235.7 234.3 250.9 252.4 273.1 285.7 289.8 298.6 304.6 304.7 303.2 301.3 301 303.5 305.7 308.1 309 309.5 309.3 307.7 307.4 313 317.5 325.8 332.2 334.3 334.7 334.7 333.9 331.9 327 321.9 318 313.7 282.8 258.1 245.6 220.3 206.2 234.5 270.1 318.3 325.9 325.9 324.4 323.4 324.9 327.4 331.1 334.9 337.2 339.1 341.7 338.8 328.6 323.1 319.9 316.6 313.3 310 308 310.4 314.6 319.3 328.4 339.8 349.2 354.3 356.7 356.7 356.6 355.8 357 357.4 358.2 357.1 356.2 357.5 359.3 363.4 367.3 370.5 371 370.9 370.4 370.3 369.2 366 364.9 362.1 356.9 354.9 354.4 352.9
268.4 261.2 288.5 286.1 262.7 265 296.3 312.2 318.3 299.3 292.5 283 271 253 252.3 252.2 252.9 263.4 263.8 263.8 263.7 263.3 261.5 262.3 265.5 274.8 281.2 298.1 309.4 307.7 303.3 297.9 294.6 284.6 274.8 285.2 290.3 292.4 292.9 293.2 295 298 298.4 297.6 298.1 296.7 289.7 282.7 275.6 294 296 296.4 296.2 294.8 294.7 295 296.3 296.9 296.9 296.7 295.6 294.1 292.4 290.8 289.3 289.4 287.1 280.5 256.6 230.1 208.3 216.9 239.1 258.2 271.3 271.4 265.1 264.5 279.2 288.6 299.1 303.2 304.7 305.1 303.5 303.4 304.6 306 306.9 304.1 298.8 292.9 289.5 287.1 285.2 282.7 282.1 281.3 280.1 278.4 277.3 275.9 271.2 261.6 255.2 245.8 233.9 228.1 246.6 248.7 256.8 268.1 282.7 295.3 299.6 300.4 298.3 296.4 296.1 297.3 299.1 301.5 303.8 305.3 305.6 304.7 305.6 312.2 317.6 326.4 332.4 334.8 335.1 335.2 334.1 331.2 327 320 313.6 301.6 274.5 257.8 237.9 217.5 205.1 231 269.8 311.5 325.8 326.4 322.5 320.4 320 320.5 320.7 322.9 326.3 327.3 330.5 327.7 323 318.7 315.4 313 310.5 306.8 308.5 312.9 316.7 321.3 333.9 348.5 358.6 363.7 365.8 366 365.3 365.7 364.3 365.2 363.7 364.3 363.9 363.9 366.2 370 371.7 374.3 375.1 375 374.5 373.9 373 371.2 367.2 363.8 366.2 360.8 360.3 359.1
268.9 261.5 278.1 294.5 262.6 261.6 285 306.9 316.7 305.8 303.8 287.8 271.1 269 267.7 266.2 265.4 265.1 265.3 265.6 265.5 265.2 264.4 264.5 266.4 281.2 282.4 297.7 308.8 311.5 308.1 303.8 299.4 296 291.7 278.9 274.5 280.9 283.5 286.4 285.5 289.9 292 288.9 284.3 281.8 278 266.4 274.9 290.2 292 292.8 291.6 290.3 289.4 289.6 290.6 292.5 293.6 294.3 293.9 292.8 291.4 289.9 288.7 289.1 289.2 284.3 274.3 244.9 218 208.3 222.7 245.3 257.6 260.1 243.5 262.8 264.9 267.7 275.2 286.5 296.8 301.1 300.9 300.7 301.9 303.3 302.3 302.6 296.1 287.4 283.5 281.4 280.5 280.8 280.5 280.2 279.2 278 277.5 277.1 274.7 271.4 263.8 252.2 231.7 223 228.6 240.1 250.4 254.9 275.5 289.4 291.4 292.2 292.4 291.1 290.8 291.9 294.1 297 299.6 301.5 301.7 301 305.1 313.2 318.6 327.8 333.7 337.3 337.8 337.2 336.4 334.6 330.6 324 317.6 297.8 273.2 253.7 232 213.9 204 229.2 263 313 325.2 325.1 322.4 318.6 315.4 314.9 312.3 311.6 313.6 316.9 321.3 320.3 317.2 313.5 309.6 307.2 304 305.6 312.6 316.4 320.2 326.1 337.9 351.8 363.5 369.8 372.6 373.3 373.4 373.3 374.2 375 375.6 373.7 374.7 374.2 375.8 378.1 378.7 378.7 379.2 379.1 378.6 378 377.1 375.5 371.3 368 365.6 367.7 364.2 362.6
270.9 263.9 262.4 296.4 263.5 261 266.6 290.2 308.5 317.9 319.7 305.2 286.9 269.3 267.6 267.2 267.1 267 267.1 267.4 267.4 267.3 266.9 266.8 269.6 283.6 299 298 301.1 316.9 314.2 309.2 305.6 303.6 299.5 294.5 288.4 278.1 265.8 271 271.9 281.2 281.8 280.6 276.6 272.5 267.7 251.9 273.6 286.5 288.3 288.3 286.8 284.9 283.9 284.1 284.7 287.1 289.5 290.9 290.9 291.2 290.5 289.1 288.4 288.6 287.5 285.2 281.5 257.9 229.8 209.5 211.3 233.2 243.4 240.5 230 246.3 251.4 254.7 258.7 267 277.4 287.9 297.1 298.1 299.3 299.6 297.4 293.5 286 279.3 275.8 274.9 274.6 276.3 277.9 278.2 278.9 278.2 277.3 276.5 274 271.1 268.6 265.5 246.4 223.2 220.6 223.3 243.3 251.3 265.8 279.3 281 283.9 286.8 287.1 287 288.5 291.5 293.9 296.4 298 298 299.8 305.4 312.7 320 330.7 336.8 341.2 342.5 341.7 340.2 337.6 334.1 328.8 323 301.2 272.6 251.2 227.6 210.4 202.6 227.1 259.2 302.2 319.7 323.3 323.7 320.3 315.1 311.2 303.9 302.2 305.2 307.7 311.7 312.7 310.8 308.8 305.8 298.8 302.7 311.3 316.9 325.8 330.1 332.4 339.8 351.6 361.9 369.8 376.6 378.6 378.8 381.4 385.1 386.6 384.6 382 381 381.5 383.3 384.6 383.8 383.7 383.4 383.3 382.7 382.1 381.1 379.9 376.8 373.7 370.9 366.9 365.9 363.3
266.1 272.1 273.7 286.4 294.8 261 260 264.9 284.3 306.7 318.7 307.1 305.4 286.6 269.5 268.5 269.1 285.7 284.9 285.7 285 284.6 284.5 284.1 283.9 293.5 300.7 302.7 306.4 318.4 317.2 314.3 311.9 309.7 306.6 303.5 299.3 293.7 285.7 277.9 261.5 267.6 268.6 267.7 267.8 261 257.6 248.7 265.6 276.5 279.8 283 281.6 279.5 278.5 278.3 278.9 280.6 282 282.8 283.5 284 283.5 282.8 282.9 283.8 284.4 285.9 283.7 271.7 249.8 224.3 208.4 209.8 220.3 212.6 209.2 222.4 232.8 240.1 244.5 252.4 258.2 268.7 280.1 287.4 288.1 286.2 281.1 274.5 271 269.6 268.2 268.5 269.5 271.2 273.2 274.7 275.4 276.6 276.6 276 273.5 270.2 266.4 263 258.6 241.4 221.5 218.9 241.8 252.6 261.6 268.3 270.8 275.2 279.3 281.7 285.1 287.3 290 292.7 293.5 295.5 295.7 299.9 305.6 313.9 322.4 332.7 337.8 341.3 345.1 345.5 342.9 339.5 334.9 329 322 310.7 277.1 252.3 230.4 210.3 200.8 224.7 252.2 288.3 314.5 324.6 325 322.2 319.6 318.4 312.2 301.4 296.4 298.4 302.2 305.1 304.3 304.3 303.3 296 306.3 313.7 320.8 328.6 332.4 334.6 339.2 345.6 358.9 367.9 376.2 381.8 383.8 386.4 388.8 391 390.4 387.9 386.3 387.1 388.4 389.1 388.5 387.8 387.1 386.7 386.5 386 384.8 383.3 381.1 377.7 374 370 365.8 361.9
260.8 260.4 265.9 276.3 296.5 284.7 260.1 257.1 262 283.7 307.6 318.4 313.5 303.5 286.4 285.5 285.7 285.9 285.7 286 297.1 299.8 299.8 300.3 301.3 303.6 304.1 307.8 311.9 318.9 319 317.8 315.3 312.7 309.6 306.8 303.9 299.8 294.8 286.8 280.8 272.4 264.8 248.5 243.3 237.8 237.5 243.1 259.1 257.9 259.3 261.4 266.5 271.5 269.6 269.2 268.4 273.3 274.2 275.8 276.3 274.8 270.2 274.4 275.1 276.5 278.8 287.5 295.7 285.3 263.6 247 228.3 215.4 206.5 220.2 215.8 202.5 204.5 216.3 226.7 238.1 246.6 252.8 260.2 267.1 268.6 267.3 264.9 264.4 263.1 262.3 261.5 261.5 262.7 264.6 266.2 268.6 271.2 273.5 273.8 274.3 271.6 267.6 263 259.2 254.9 250.7 234.5 216 240.9 247.1 252 253.4 256.1 260.3 265.8 278.3 284.2 288.7 290.4 292.6 292.6 293.1 293.2 298.6 304.7 312.1 320.1 327.9 335.3 338.2 341.7 341.4 339.2 335.8 331.5 325.8 319.1 312.5 278.9 251.8 229 209.4 199.7 219.6 245.2 278.8 312.1 324.2 327 324.8 324.5 323.1 318.4 308.6 294.4 290.5 294.3 298.1 300 300.2 299.5 291.7 306 314.7 322.6 328.3 330.3 331.7 335.7 341.8 350.9 359.6 369.4 375.6 381.8 384.6 386.7 388.9 388.8 388 387.9 388.2 389.5 390.1 389.9 389.9 389.5 388.8 388.4 388 386.8 384.8 382.4 379.1 375.3 371.5 367.3 363.5
261 261 261.1 271.6 283.2 296.3 260.8 259 254.5 262.1 285.7 306.4 316.8 316.6 302.6 286.3 286.5 296.6 300.4 300.8 300.5 300.1 299.8 300.5 310 316.5 323.3 322.8 321.4 320.1 319.8 319.4 318.4 315.6 312.8 309.5 306.7 303.4 300.1 296.4 293.9 291.1 283.8 261.8 244.7 224.7 217.9 225.4 231.4 234.2 237.7 239.4 241.9 240.8 239.8 237.1 234.5 236.8 246.6 265.8 244.7 240.4 240.4 252.9 268.2 269.5 272.5 281.9 293.8 296.7 273.3 257.5 247.9 240.6 233.4 240.5 236.8 225.9 212.2 200.3 207.3 221.1 234.7 245.4 249.8 253.7 254.6 254.8 255.4 255.8 254.8 255 254.6 254.2 255.7 257.3 259.3 262.1 265.3 268.8 271.3 271.9 269.4 264.9 260.2 254.9 249.7 235 216.8 219 241.5 243.1 246.7 251.8 258 264.2 274.3 284.6 290.9 292.2 293.1 292.4 291.3 290.5 290.7 297 303 309.4 315.8 322.3 333 335.3 335.8 335.7 333 329.9 326.8 322.5 318.3 312.2 278 250.9 228.2 207.3 198.4 213.2 242.7 271.9 301.2 315.4 321 320.7 324.3 325.4 320.2 312.8 299.1 289.3 289.5 294.3 295.8 295.5 292.5 286.7 300.6 309.6 317.9 323.9 325.8 329.6 334.4 340.2 348 353.7 361.6 370.4 377.2 381.7 384.6 387.1 387.2 386.7 386.6 386.3 386.5 387.9 386.9 387 386.5 386.3 385.9 386.3 385 382.7 379.6 377.5 374.4 370.8 368 364.4
261.5 261.5 261.5 281.8 282 290.8 296.7 286 258.5 254.4 261.4 281.4 306.6 316.4 316.3 302.9 302.4 302 299.8 300.7 299.9 300.7 315.7 326.8 327.4 326.6 325.3 324.2 323 322 321.3 320 318.8 316.7 314.5 312 309.2 306.5 303.8 302.6 301.6 300.5 296.8 284.6 259.9 240.9 218.6 211.5 209 209 210.9 213.2 212.4 211 209.7 209.3 209 208.8 215.8 235.9 261.2 239.6 238.9 239.5 254.7 260.4 264.4 269.4 276.6 283.3 274.5 261.1 251.7 245.8 242.8 242.5 240.6 235.8 227.3 219.8 207.9 200.1 217.1 237.6 242 243.2 244.8 245.2 247 247.3 248.1 247.4 247 247.2 247.8 248.9 251.4 255.4 258.5 261.8 265.9 267.2 265.1 262 256.8 251.2 238.9 215.8 213.6 239.1 248.8 258.7 268.8 275 280.9 287.5 292.4 295.2 296.9 297.8 293.5 289.5 287.7 286.7 288.6 294.5 300 305.5 312 318.5 327.8 330.6 329.9 327.1 324.4 323 321.1 318.3 315.7 311 280.1 247.8 226 207 197.1 214.4 241.7 268.4 293.4 307.7 312.7 315.7 318.5 320.9 319.1 314.1 304.6 291.5 283.8 289.7 292 288.4 281.6 292.4 297 302.1 310.6 318.5 324.3 329.7 337 343 348.2 352.8 359.3 367.3 375.7 380.2 384.3 385.5 385.8 385.4 384.5 383.7 383 383.6 382.6 381.8 381 380.8 380 379.7 378.3 377 375.2 373.6 371.9 369.1 368 365.2
