ncols 200
nrows 82
xllcorner 260000
yllcorner 682200
cellsize 50
320.6 320.1 321 321 320.2 320 318.8 321.9 325.3 327.9 329.9 330.9 332.6 336.9 333.4 324.7 312.2 298.9 285 263.1 228.3 206 194 196.9 192.3 176.9 200.6 201.9 199.2 194.9 185.3 175.8 165.4 154.9 149.6 143.3 134.8 128.8 121.2 116.9 114.2 110.1 105.8 98 92.4 90.8 89.9 89 90.3 90.1 90.9 91.5 92.1 92.6 93.2 94.4 94.1 94.3 95 95.9 95.6 95.9 96.8 97.5 97.6 98.4 99.5 99.5 99.5 99.3 99.6 103.8 109.8 120.8 127.3 130.6 134 137.7 139.2 144 148.6 155.9 157.2 159.5 162.8 164.4 163.1 165.4 170.3 169.5 169.5 167.5 166.6 166.6 169.7 173.8 174.2 173.2 171.7 163.9 158.5 158.7 161.2 160.3 153.7 151.4 156.5 160 164.6 163.6 161.4 163.2 160.7 152.4 154 156.3 154.6 159.5 163 170 181.5 192.2 206 208 212 219.9 221 221.5 213.8 212.2 215 214 215.3 218.6 209.8 207.2 216.4 216.1 215.1 206.8 206.7 208 209.1 209.2 209.5 213.1 213 215.1 219.9 225.4 231.3 228.6 228.3 222.7 222.3 224.7 231.2 235.6 240.8 244.9 245.8 245.8 245.1 243 242.2 245.1 248.8 256.1 260.8 260.8 262.3 268.2 271.9 278.8 288 294.5 297.9 300.7 304 306.9 309.1 310 311.1 312 312.5 313.1 314.5 316.5 316.7 317.2 320 323.2 326.2 329.6 332.3 336.1 339.8 337.4 336 335.7
327.9 328.6 328.1 329 328 327.6 324.4 327.4 330.8 332.9 335 334.8 332.8 330 326.3 322.3 311.2 306.1 294.5 280.7 271.8 234.4 232.7 228.1 217.1 197.7 202.3 204.9 197.1 190 183 172.6 164.2 155.9 148.1 142.4 135.4 126.1 119.6 113.9 111.5 109 105.5 100.6 94.9 93 90.8 90.4 90.8 91.3 91.1 92.1 92.6 92.8 92.8 93.9 94.6 94.9 95.6 95.5 96.1 96.6 97.4 98.4 99.1 100 101.4 101.8 101.6 101.5 101.2 101.7 101.9 107.4 118.3 121.8 125.9 129.1 132.3 136.4 139.3 146.5 150.1 152.7 157.9 161.6 169.9 172.4 171 172.2 170.4 167.1 164.8 166.1 166.1 168.8 169.1 167.9 165.7 158 154.5 159.8 157.3 156 150.4 149.9 152.8 153.5 157.2 152.4 151.4 150.5 152.5 154.9 158.3 162 167.6 166.5 157.9 162 167.4 178.5 182.4 188 208.4 216.2 220.2 220.1 216.4 208.4 211.4 213 216.1 205.7 203.4 203.3 206.7 215 205.6 205.1 206.5 207.3 209.2 209.8 210.4 217.6 212.7 214.2 217.7 220.5 226.8 227.1 221.7 218.7 222.8 224 227.1 232.9 238.9 243 245.9 246 246 240.9 241.1 243.9 247.1 253.4 258.8 259.8 261.1 267.5 273 279.8 287.1 293.2 297.6 301.2 305.6 310.9 312.3 314 315.6 317.1 318.9 318.4 319 319.6 320.4 321.6 324.3 327.5 330.4 334.6 337.9 341.2 343.9 342.7 342.5 342.3
338.9 335.1 334.8 336.9 334.9 334.1 331.1 333.3 337.4 338.7 342.1 342 340.3 337.6 332.2 326.2 322.5 315.4 301.8 288.2 282.8 276.5 268 252.4 236.7 219.6 205.6 208.5 195.8 183.3 174.7 167.2 159.7 150.9 145.7 139.3 133.5 129.8 120.9 112.8 107.7 104.3 102.8 99.3 96.9 94.6 92 90.6 91 91.1 91.6 92.3 92.2 93.9 93.3 94.3 94.6 95 96.6 96.9 97.2 98.3 99.7 100.6 101.2 101.8 102.6 104 103.7 103.2 102.1 102.6 103.3 103.7 106.6 112.8 121 124 123.2 128.6 130.6 133.7 136.4 143.2 154.1 160.3 166 165.9 167.9 170.6 169.7 166.2 163.7 165.2 163.5 164.9 165.6 163.3 159.6 155.1 150.2 149.7 149.9 148.9 147.1 149 150.3 151.1 146.4 148.4 149.3 152.7 158 162.8 170.2 178.7 175 189.5 182.4 170.4 165.1 167.1 167.4 179.7 200.4 211.4 212.8 210.6 215.9 204.5 204.5 205.5 202.4 202.2 202.4 202.2 202.5 204.4 206 207.1 207.9 208.2 208.3 209.9 210.6 213.7 213 212.9 218 223.3 224.6 221.8 219.7 220.1 222.4 223.5 224.8 231.7 239.3 243.1 245.9 246.1 246 241.4 239.9 243.5 247 252.1 255 257.2 260.2 264.3 271.1 279.1 286.5 293.1 297.9 302.6 307.4 312.8 316.2 318.1 320.8 323.4 325.2 325.5 324.6 324.9 325.9 327.3 329.6 332.7 336.9 342.1 345.1 347.1 348.6 349.6 348.9 349.1
345.4 346 341.7 342.5 341.8 344.7 340.6 338.5 344.5 345.7 348 349.3 349.3 350 346.5 339.2 332.3 323.7 309.6 300.7 293.6 284.6 278 266.9 252 233.2 218.6 213.7 197.5 180.7 171.6 163.1 158.2 155.1 150 143.5 138.2 132.9 127 120.6 113.7 110.9 107.5 102.6 99.9 97.8 95.1 92.9 91.7 92 93 93 92.6 93.9 94.4 95.4 95.7 96.3 97.3 97.5 98.7 99.6 100.7 101.7 102.6 103.2 104.2 104.7 104.1 105.7 103.2 102.7 103.6 104.2 104.8 108.2 117.3 119.7 120.8 119.5 120.5 121.6 120.9 137.2 144.7 151.4 157.6 156.9 159.7 162.7 162.1 161.2 160.2 161.2 161.3 162.1 162.6 161.7 157 151.6 147 145.5 146 145.5 144.4 143.7 149.3 146.8 148 149.2 157.2 166.8 174 179.3 181.2 184.2 183.5 184 190.2 194.9 194.8 194.4 194 196.8 199.1 200.1 199.6 198.8 199.2 201.4 202.5 201 203 203.6 203.4 204.2 204.7 205.2 206.6 208 208.1 208.4 208.9 210.3 211.2 212.7 212.6 213.1 216.8 226.2 227.2 224.7 217.3 219.7 222.8 223.1 222.7 226.5 234.9 240.5 242.9 245.7 244.9 240.8 239.8 245.8 250.7 255.4 257.3 256.8 258.7 264.5 273.2 280.2 287.2 293.4 299.7 304.1 309.3 315.3 320 322.7 326.2 328.8 331.7 334 335.6 335.1 334.1 333.6 335.5 339.3 344.7 350.2 355.2 357.5 358 357.1 356.7 356.5
350 350.8 353.2 353.8 351.2 350.4 351.6 345 356.6 354.9 356.7 355.2 356.4 357.4 355.6 351.6 345.9 337.8 327.7 316.4 303.9 292.5 282.9 270.6 255 238.9 227.7 218.4 204 186.8 175.5 168.9 162.4 157.7 154.5 150 145.6 140.9 134.7 127.8 123.7 117.8 113.1 109.6 106.4 102.5 99.7 97.5 96.6 95 95.2 95 95.4 95.6 96.5 97.6 98.3 98.5 98.7 98.8 99.7 100.7 101.8 102.9 103.6 104.6 105.4 105.4 105.5 106 105.7 104.1 104.2 104.5 105.4 106.9 107.5 108.5 109.4 110.2 111.5 115.4 118.4 123.5 135.1 143.6 147.3 151.1 150 158 156 158.4 160.6 161.9 163 162.4 161.8 158.8 154.3 149.2 144.1 142.6 143.8 143.5 142.8 143.7 145 145 152.1 164.9 177.7 181.5 185.3 187.7 189.3 189.8 188.1 187.6 190.4 194.5 197.2 200.5 202.3 204.3 206.2 205.8 207.9 208.9 209.1 207.6 203.2 204.6 206.8 205.3 204.5 205.8 206.8 206.5 207 208.3 208.2 208.5 209.2 209.6 210.8 211.3 212.8 213.8 216.7 223.1 224.5 223.1 217.6 219.2 220.2 221.1 221.8 224.1 229.5 235.8 236.8 240.7 242.5 239.1 241.7 249.1 253.8 258.8 259.8 255.4 256.6 268 273.6 279.5 285.8 293.5 300.4 305.7 313.3 319 322.7 326.7 331.5 334.8 338.3 341.4 344 343 342.9 342.3 344.4 349.4 354.8 358.4 364.1 369.1 370.8 371 369.2 365.2
357.5 360.5 362.3 363.8 360.8 359.1 359.3 356.7 364.9 366.4 365.8 363.2 361.9 361.7 360.7 358.7 353.1 347.1 339.6 331.4 311 297.3 285 271.1 260.8 246.9 235.1 221.4 209.2 192.6 185.1 177.6 169.4 165.2 164.7 160.9 155.8 151.5 146 132.1 132.3 124 121.4 117.1 111.8 108 106.1 104 102.2 100.9 100.1 101.2 101.7 103 103.8 103.4 102 102.4 102.8 102 102.4 102.4 102.9 104 104.8 105.9 106.4 106.9 107.3 107.6 108.2 108.1 104.8 105.2 106.2 106.6 107.5 108.7 109 109.5 110.6 111.9 113 115.1 120.7 130.9 140.6 145.6 144.9 151.7 153.1 157.4 162.1 163.1 165.2 165.5 164.4 160.4 156.9 144.9 140.2 139 139.2 139.3 141.6 147.7 152.5 160.4 167 178.2 184.9 187.2 190.9 193.1 195.6 196.6 197.8 197.3 197 201.6 202.3 205.1 212 220 220.6 217.1 214.3 214.7 215.8 215.3 206.9 208.4 210 209.5 207.6 208 209.4 208 207.6 208.6 208.5 208.7 208.5 209.2 210.2 211.1 211.9 212.2 212.3 213.5 217.8 217.3 217.4 217.2 219.4 220.7 222.5 225.3 227.9 232.2 236.1 237.6 237.8 237.7 245 251.2 256.4 260.7 260.6 255.5 256.2 266.8 269.1 274.4 281 292.8 301.2 308.9 316 321.9 325 331 336.8 340.5 344 347.2 350.6 349.9 350.7 352.7 356.8 361.2 365 366.8 370.9 377.1 377.8 377.7 373.7 369.3
366.3 370.8 375 376 370.9 371.2 369.5 365.7 375 376.6 373.7 371 369.8 365.2 362.9 358.1 352.9 348.8 342.1 337.8 324.4 310.8 299.1 284.9 267 254 241.5 227.6 215.3 203.5 196.7 189.8 182.8 180.3 177.8 174.8 168.1 159.7 146.5 147.4 141.9 133.6 130.1 123 117.5 114.9 113.9 112.9 112.3 110.2 108.6 113.6 115 114.3 111.7 109.2 106.4 105.6 108.8 109.1 108.8 108.7 106.2 106 106.6 107.2 108.6 109.6 109 107.8 110.4 111 110.1 107.6 106.1 107.6 108.4 108.6 109.4 110.1 111.4 112.5 113.2 114.5 115.6 118.2 122.2 128.9 141 145.2 153.8 156.7 159.3 162.9 165.4 164.9 161.6 153.9 146.3 141.8 139.2 138.9 140.1 140.6 151.3 160.5 167.9 170.3 173.5 180.9 188.3 193.9 198 203.7 209.4 210.2 210.6 209.6 208.3 209.6 214.6 218.9 224.7 226.2 226.1 224.7 220.2 220.6 221.3 219.6 215.9 211.8 212.4 211.9 212.2 212.4 212.2 210.4 209 208.8 208.6 209.7 208.7 209.1 209.6 212 210.6 211.6 212.2 213 214.4 215.3 215.7 217.6 219 220.9 224 227.8 230.4 235.1 236.2 235.6 234.7 242.2 249.5 250.1 255.4 260.1 259.3 255.4 253.6 261 262.5 268.9 276.4 290.4 301.6 311.6 317.7 323.9 328.1 334.3 340.9 345.2 349.3 352.7 353.6 354.7 357.1 360.8 366.8 371.3 373.1 375.2 379.9 384.5 384.1 381.2 376.8 372.3
376.6 382.2 386.6 381.5 381.9 383.1 382.3 372.7 383.7 384 380.7 377.5 375.8 371.6 368.9 362.7 354.4 355.1 352 347.4 335.5 321.4 309.5 295.9 274.4 259 249.1 236.3 229.3 219.8 212.8 203.9 198.2 193.6 188.7 181.3 173 161.8 160.2 157.4 148.3 146.8 140.6 132.8 128.4 127.5 127.1 125.2 126.2 123.6 124.1 122.6 124.5 127.2 123.5 120.5 115.7 110.5 116.1 119 121.9 121.4 119.9 118.7 114.4 109.1 109.9 110.5 110.7 112 112.6 113.2 112.8 112.4 108.8 108.2 109.5 110.4 110.7 111.8 112.8 113.1 114.2 115.8 117.1 117.6 119.5 122.2 133 141 148.3 155.7 158.2 161.9 163.4 161.9 156.1 147.5 141 138.3 138.3 138.8 140.1 153.7 162.6 172 181.8 183.9 188.5 193.4 200.9 206.1 210.9 214.8 217.4 218.1 217.9 217.5 216.6 217.1 220.9 225.7 228.4 229.6 229.4 228.5 226.6 224.4 222.9 222.1 219.2 216.1 215.3 217.2 218 218.2 215.3 213.4 212.1 213.5 213.3 215 213.3 213.4 215.4 210.2 210.9 211.4 211.7 212.7 214.4 214.5 215.8 218 220.1 225.4 227 230.2 233.9 235.3 235.1 234.8 237.4 248.1 252.3 250 250.8 257.1 255.4 253 250.9 253.9 257.4 264.4 274.5 289.1 302.3 312.9 319.9 325.6 330.9 337.9 343.5 347.2 354.4 356.2 357.8 359.9 362.6 366.9 374 377.3 378.8 383 388 392 389.4 385.5 381.5 377.2
387.6 391 389.6 388.5 390.3 391.3 383.1 383.6 387 388.5 388.1 385.2 381.4 384.3 380.4 371.3 363.8 360.7 358.6 354.1 350.2 337.5 318.8 306 282.4 267 254.6 244.3 237.5 231.5 225.3 216.4 209.3 204.3 194.9 184.5 178.2 173 166.5 163.7 156.9 155.3 152.6 148 149 145.1 142.6 138.8 138.6 135.7 132.7 134.7 135 136.1 135 132.1 126.2 121.3 128.7 134.4 135.9 135.3 133.5 132.7 131.2 122.1 111.4 112.8 112.1 112.1 115.4 116.1 116 114.7 111.2 109.8 110.8 111 112.2 112.5 114.4 115.5 116.5 119 124.3 124.7 119.9 122.3 126.6 134.6 140.6 144.9 152.4 156.3 156.4 156.9 151.5 140.3 136.6 137 137.1 143.4 156.6 165.1 172.7 184.1 190.3 196.8 205.5 208.8 213.3 218.4 223.1 224.6 224.8 223.5 222.7 223.2 223.5 224 226.4 231.3 234.7 235.8 235.7 234.2 231.9 229.3 224.2 223.5 222 221.1 222.2 222.3 221.7 221.7 218.5 216.9 215.8 216.4 216.7 215.8 214.4 217.4 219.9 221.1 220.2 220.6 224.4 220.2 214.9 216.4 219.7 221.7 223.8 226.7 230 231.1 232.5 234 234.4 236.8 247.5 251.8 249.4 249.5 252 253.1 251.1 248.5 247.6 251 257.7 266.9 276.8 291.8 304.9 314.1 321.7 328.5 335.5 342.8 347 351.5 357.4 360.3 362.7 365.1 367.8 373.9 380.9 384.4 388.3 391.8 394.4 395.6 394.7 390.6 387.8 383.2
396.5 396.5 396 395.7 392.8 392.3 392.6 392.1 394.4 399 401.4 398.9 397.6 397.1 387.2 382.5 375.4 369.3 364.4 360.4 356.6 350 331.4 315.7 297.5 279.1 263.4 251.1 242.6 237.5 230.1 219.3 210.5 204.8 196.4 188.1 185.8 180.2 176.1 174.1 171 170.1 166.5 165.8 167.8 163.9 160.3 157.5 153 148.5 147 147.2 144.9 144.1 143.3 141.3 139.9 135.4 133.5 144.3 148.4 144.9 139.2 135.9 134.5 128.4 118.8 115.3 115.1 115.1 118.2 118.8 121.4 120.1 114.7 111.7 111.9 114.6 115.6 116.2 126.5 130 126 127 134.2 139.5 135.9 121.1 122.7 123.5 125.1 125.8 133.5 149.7 150 147.7 143.5 135.2 136 135.5 141.2 157 167 175 183.5 191.6 198.6 205.1 211.9 217.3 221.7 224.9 226.6 229.1 228.5 227.9 227.8 228.6 230.3 229.4 232.1 237.3 241.5 242.4 241.5 239.8 237.7 233 228.3 229 227.4 226.8 226.6 225.6 224.5 224.9 222.5 220.3 219.8 220.1 220.8 219.4 216.3 220.4 222.1 223.5 224.3 223.5 225.3 224.3 220.2 220.6 224.6 228.4 228.8 228.2 230.8 230.7 230.7 231.8 231.4 237.3 248.1 249.7 246.2 248.3 250.6 249.4 247.4 245.4 246.6 250.9 258.3 269.3 280.9 295.1 308.5 316.6 323.5 329.8 339.2 344.1 349.6 355.8 359.6 362.7 367.2 369.5 372.5 381 387.6 392.8 396.5 399.3 401.4 400.9 399.6 398.4 396.1 393.6
400.3 398.7 397.3 395.6 394.9 398.3 397.5 400.1 409.3 418.1 417.8 416.6 411.6 405.7 403.7 392.7 388.2 384.2 377.3 367.5 361.3 355.7 339.8 321.2 309.9 291.8 273.6 260.4 250.2 243.4 233.9 226.6 218.8 211.9 208.7 204.2 199.6 196 192.6 188.5 187.6 189.7 186.7 186.5 186.2 184.5 179.1 173.9 167.9 161.6 162 157.9 154.7 153.3 151.3 151.1 150.1 148.6 146 148.8 152.8 153.7 149.6 145.2 138.9 134.6 128.9 124.3 121.5 117.8 120.2 122.4 130.2 126 121.5 116.3 114.8 117.9 123.6 121.5 128.1 136.6 138.1 138.6 139.2 140.5 138.2 129.7 128.4 129.8 135.1 138.3 127.9 136.7 142.5 138.6 133.1 134.4 134.9 141.7 157.8 162.9 173.3 184.2 190.2 198.8 205.7 211.8 216.9 221.2 225.3 229.3 238.6 237.7 237.3 234.9 234.7 233.6 233.9 234.4 235.3 239.9 245.5 245.4 245.6 242.8 240 235.6 229.9 234.2 235.7 232.6 230 228.8 227.7 228.8 229.3 226.8 224 224.9 225.6 222.2 220 222.4 223.2 223.5 225 226.6 226.9 225 224.4 224.4 224.4 227 227.9 228.1 229.3 229.3 229.5 229.6 229.3 231.7 235.4 239.5 241.4 246 247.9 247.5 244.5 243.4 246.6 251 260.1 271.7 283.7 298.2 311.2 319 325.9 330.4 331.7 345.3 351.4 357.2 360.8 367.3 373.9 374.4 377.8 386.4 395.4 401 404.4 404.7 406 408 407.4 404.2 400.7 398.7
403.1 401.2 400 398.2 398.7 401.6 403.6 405.5 419.1 422.1 421.6 421 419.8 416 414.7 413.1 402.7 390.8 386.9 380.7 369.4 358.9 341.9 325.2 314.4 303.9 290.2 275.5 265.9 254.6 245.5 238.2 230.9 226.3 226.5 224 220.1 216.2 209.9 205.1 201.5 204.2 203.7 203.6 202.9 200.5 197 190.7 183.2 175.6 170.6 170.3 168.3 165.7 163.1 160.4 157.2 154.2 152.8 153.1 155.8 155.3 154.1 152.2 149.8 142.8 138.4 132.2 134 132.6 118.2 127.2 137 135.3 128.5 125.3 124 123.6 122.5 124.4 124.5 129.4 133.7 137.9 139.9 140.4 140.8 134.7 132.5 133.4 139.2 150.5 128.4 130.5 132.2 131.4 132.3 133.7 140.6 153.8 166.5 174.3 180 186.2 195.6 203.9 210.6 216.7 220 223.3 226.5 231.4 237.7 240.7 242 241.5 240.3 239.1 238.5 239.3 239.5 240.8 245.5 245.4 245.3 243.8 242.6 239 235.1 236.5 237.7 236.9 233.4 232.1 230.8 230.8 232.9 232.3 230.1 229.9 230.3 224.4 225.1 225.8 226.2 224.4 224.4 224.4 224.4 224.4 224.4 224.4 224.4 224.4 224.4 226.2 228.4 228.7 228.8 229 229.1 235.2 236.7 233.2 236.1 242.9 246.4 246.5 243.2 242.6 245.2 254.5 264.9 275.2 285.9 297.7 312.6 319.6 324.3 329.9 333.9 340.4 347.3 353.8 361 370.4 375.6 376.6 381.5 392.1 400.1 403.8 405.8 409.1 410.2 411.9 412.3 409 401.8 399.2
408 406.3 405.1 403.9 403 404 406.9 409.4 420.6 425.2 428.1 428.6 429.6 425 421.5 418.7 415.4 407.4 397.6 404.8 400.5 375.4 348 336.1 316.5 306.2 294 284.1 277.9 270.7 260.9 252.2 250.8 245.8 244.8 244.1 252.7 255.8 244.6 222.9 216.9 215.9 215.1 212 208.7 205.7 201.3 196.7 192.7 187.8 185.2 186.1 191 192.1 189.8 184.8 180.7 174.8 164 161.7 158.8 158.1 157.1 156.5 154.4 151.3 145 136.4 137.9 135.1 120.3 132.7 142 140.2 139.5 138 136.1 133.7 130.1 132.8 135.7 128.8 130.6 133.5 137 140.2 141.9 141.4 140.7 142.9 149 153.8 147.6 131.7 135.6 137.4 137.7 141.7 152.3 165.6 178 184 188.2 189.5 200 208.2 213.6 219.7 224.7 228.7 233.1 237.7 241.6 245.4 247 246.1 246 245.1 245.9 245.1 245.7 246.1 246.7 246 245.8 244.6 243.1 240.6 238.8 239.3 241.6 242.8 241 237.6 235.4 235.6 236.6 236 237.1 238.3 238.3 238.3 241 239.5 230.5 224.4 224.4 224.4 224.4 224.4 224.4 224.4 224.4 224.4 224.4 224.4 228.1 228.8 228.4 227.5 228.5 230.4 232.7 230.7 234.8 243.6 245.8 244.7 240.1 240.6 245.3 254 268.8 276.8 285.9 296.2 307.7 315.8 322 325.9 329.4 334.2 341.2 348.3 355.8 364.3 370.8 374.5 380.9 392 397.7 399.9 404.6 411.5 413.2 410.2 410.9 408.5 403.6 398.8
419.8 409 409.2 410.5 409.4 407.7 411.1 415.1 421.8 429.4 437.4 436.2 436.2 433.1 427.9 425 421.8 419.7 416.5 415.5 413.2 390 361.1 343.3 328.9 322 308.1 294.8 288.7 284.6 272.4 265.6 261.8 255 255.1 260.7 265 269.2 257.4 242.1 233.8 229.5 224.8 221.5 215.8 211.5 206.3 202.7 199.6 197.3 200.2 202.5 210.4 209.7 203.4 199.1 196.9 190 174.9 176.6 171 165.8 162.8 160.2 158.3 156.5 151.5 144.1 142.4 132.6 122.8 138.5 147.8 148.9 149.5 149.4 146.4 145 137.6 143.6 142.4 137.5 138.5 137.2 139.6 142.6 144.3 147.1 149.8 148.4 153.4 155.4 155 156.1 158.9 157.9 161.4 161.8 165 176.7 189.9 198.7 204.2 207.5 207.7 215.2 222.4 226.5 231.5 236.5 240.8 244.4 248.8 251.9 252.7 252.9 253 251.9 251.6 250.5 251.9 251.7 250.5 248.2 246.6 244.9 243.5 242.9 242.9 242.9 245.8 245.8 245.4 245.1 241.5 242.3 245.3 243.8 245.8 246.7 246.1 246.3 245.8 242 234 228.7 224.4 224.4 224.4 224.4 224.4 224.4 224.4 224.4 224.4 224.4 226.5 228.8 227.8 224.4 227.6 227.5 227.6 230.5 234.9 242.5 245.2 242 238.6 239.2 243.5 253.3 266.1 275.9 284.9 292.9 300.7 310.5 316.8 321.8 324.1 328.2 334.5 341.1 347.8 356.5 365.5 370.8 373.5 382.2 389.3 393.1 399.7 405.5 407.3 406.4 405.4 403.8 401.8 396.7
425.1 414.3 412.6 414.2 412.8 411 413.9 417.7 424.3 433.7 439.2 440.6 439.3 436.5 431.4 427.8 424.6 422.8 422.3 422.6 420.9 415.4 403 356.4 341.4 330 321.8 311.4 299.7 290.8 285.2 291.1 286.4 282 276 271 269.4 270.6 261.2 253.6 243.2 238.2 235.3 232.6 228.5 225.1 219.9 219.6 214.5 207.5 206.3 205.7 209.2 211 209.8 206.8 201.1 194.8 191.2 193.7 191.6 182.4 172.5 169.2 166.8 163.2 157.8 152.9 155.2 137 128.3 143.2 152.9 154.4 153.1 152.4 150.9 150.7 146.3 148.9 146.6 145.4 145.9 146.3 146.6 147.4 148.4 152.8 154.7 156.1 161.5 166.6 167.9 170.9 170.7 172.7 176.6 176.5 178.8 186.5 196.5 208.7 216.2 220.4 219.8 219.7 229.2 231.6 237.1 242.9 247.5 251.1 255.2 259.1 260.4 260.7 259.9 258.9 257.3 254.5 254.8 255.3 254.7 252.4 249.8 246.6 246.4 247 247.9 247 247.1 246.9 247.7 248.8 247.3 248.3 250.3 250.1 249.5 250.1 250.2 249.9 245.8 239.5 235.7 232.1 226.6 224.4 224.4 224.4 224.4 224.4 224.4 224.4 224.4 224.4 224.4 224.4 224.4 224.4 224.4 226.1 227.1 227 228.5 234.2 242.2 239.6 236.9 238 241.1 249.7 259.5 270.4 279.5 287.3 294.4 301.5 311.5 315.7 319.1 321.3 328.2 334.8 341.4 348.2 355.7 363.1 366.4 372.5 380.6 385.6 390.7 395 398.7 400.3 401.3 401 398 393.6
427.7 419.9 417.4 416.2 414.2 413.8 415 418.3 423 430 438.4 440.2 440.3 436.3 430.9 428 425.8 424.5 425 426.7 425.3 421.9 416.7 391.6 355.9 344.7 338.5 331 326.1 315.5 307.9 301.3 296.8 290.7 282.4 277.9 275.6 270 266.7 260.4 257.4 252.4 246.8 247.2 243.8 239.8 236.9 231.7 226.1 220.8 212.6 209.2 209.6 210.7 208.7 203.1 197.8 194.8 197.4 197.1 197.5 193 183.6 179.6 177.2 166.8 163 159.3 159.1 137.8 130.3 143.3 154.2 155.2 154.2 154.4 154.1 151.2 155 155 153.2 151.6 151.5 153.6 154.4 154.5 156.4 162.1 167.7 171.7 178.1 182.6 185.7 185.3 184 185.6 186.9 189.3 193.8 199.3 200.7 213.7 221.2 223 222.7 223.2 228.3 232.1 240.1 247.6 253.3 257.9 262.1 265.6 266.9 266.7 265.5 264.9 262.2 259.6 257.1 257.5 258.5 257 254.2 252.7 252.3 254.3 253.6 253.5 251.4 251.5 252 252.7 253.5 252.6 254 252.9 253 253.1 253.5 251 245.9 239.4 237.4 236.7 231.2 226.5 224.4 224.4 224.4 224.4 224.4 224.4 224.4 224.4 224.4 224.4 224.4 224.4 224.4 224.4 226.3 225.1 224.4 227.4 234.9 239.2 233.8 237.1 239.2 244.9 252.7 262.1 271.7 281 288.1 295.1 301.2 308.9 312.8 316.3 321.5 328.1 334.7 341 346.7 351.9 357.4 363.3 369.6 377.2 384 387.7 392.2 395.5 396.6 396.2 394.4 391.1
427.8 424.4 420.9 417.6 415.1 416.2 416.5 419.1 421.4 424.7 433.3 436.8 435.2 429.9 427.7 426.4 425.9 425 426.6 427 425.7 423.6 418.4 412.9 405.7 387.5 374.5 381.2 366.5 343.3 316.9 308.1 298 290.9 286.4 283.3 279 274.1 269.9 268.4 270.3 263.3 257.4 252.6 247.9 245.7 240.3 236.2 232.3 227.8 222.7 217.3 213.7 210.8 206.3 200.2 196.6 196.8 200.4 198.5 195.5 194.5 192.8 186.3 179.7 173.2 170.9 165 160.3 135 135 148.7 158.6 156.4 155.1 155.6 155.4 153.8 152.2 156.6 156.4 157 158.7 161 162.5 162.7 167.7 175.3 182.2 188.4 193.7 198.6 200.8 200.6 197.9 198.1 199.8 205.3 211.1 215.3 218.1 221 229.6 230.2 229 228.9 232.9 236.7 244.9 251.5 258.8 264.1 267 270.5 273.1 275.3 275.4 274.5 271.6 266.5 261.9 261.3 263.3 265.2 265.2 265.2 262.8 260.7 261.3 261.9 261.7 260.9 259.4 259.1 258.7 256.6 254.8 253.1 252 251.8 252.1 249.8 245.4 240.1 237.1 236.2 235.9 233.3 230.4 226.5 224.4 224.4 224.4 224.4 224.4 224.4 224.4 224.4 224.4 224.4 224.4 224.4 225.4 224.4 224.4 224.8 228.2 231.6 232.8 234.2 236 240.4 247.7 255.4 264.3 274 282.3 289.1 294.5 300.6 305.6 309.1 314.4 321 327.4 333.6 339.5 344.8 349.4 354.4 359.7 366.5 375.6 381 389.5 393.4 395.2 395.1 391.8 389.3
429.8 426.7 423.6 419.8 416.6 417.2 417.5 419 419.7 420.4 423.9 426.5 425.7 423.2 422 421.5 422.1 422.5 423.5 424.8 423.9 422.9 419.1 414.6 408.7 401.5 397.6 390.3 378.9 361.8 333.5 314.6 304.2 293.4 289.5 285.7 281.1 276.6 273.9 274.6 274.8 270.1 274.8 270.6 259.8 254.9 247.9 241.6 237.7 233.3 228.7 225 219.8 218 214.7 205 209.2 216.5 206.1 202 197.4 193.9 192.6 191 183.5 175.7 169.4 160.7 146 131.8 146.3 158.3 163.1 161.2 160.4 156.8 156.2 159.8 157.5 160 159.8 162.1 166.5 167.8 171.1 172.2 179.2 187.5 191.8 198.5 204.8 209.5 212.8 211.7 210.9 212.7 215.6 219.3 224.6 226.8 226.6 223.9 230.1 234.1 235.5 235.3 238.4 241.6 249.5 255.9 262.7 269.8 275.5 280.6 284.2 286.1 286.5 285.2 281.9 276.3 270.7 266.9 267.1 270.9 272.9 272.2 270.9 268.7 270.7 272.1 267.7 265.6 263.8 261.3 260.7 257.3 255 253.3 252.2 251.3 250.4 247.5 243.2 239.6 236.3 234.6 233.1 232.4 229.7 229.6 227 224.4 224.4 224.4 224.4 224.4 224.4 224.4 224.4 224.4 224.4 224.4 224.4 224.4 224.4 224.4 225.4 227.7 229.8 231.9 234.3 238.2 244.1 251.1 261.3 270.2 277.7 283.9 288.7 293.5 298 302 308 314.7 320.5 326.3 332.4 336.9 341 344.8 349 356.1 366.1 376.9 386.7 392.6 395.4 395.4 390.7 387.2
433.4 427.6 423.4 419.9 418.5 418.2 418.1 419.4 419.3 418.7 418.9 417.7 417.6 416.6 415.7 415 414.9 415.9 418.7 420.3 419.9 418.4 415.4 414 410.5 404.4 399.9 393.8 384.5 371.6 336.6 317.8 308.6 298.7 293.6 288.1 284.8 279.5 277.7 278.7 277 276.6 280.1 285.9 272 260.4 254.1 248.6 242.5 238.3 234.1 230.8 229 224.4 218.3 217.3 228.2 224.2 214.7 207.6 200.7 195.6 192.9 190.3 185.9 180 173.3 156.1 135.3 146.4 159.3 169.8 169.2 166.8 164.5 162 160.6 164.4 162.7 162.3 164.2 166 171.7 172.2 176.8 182.8 190.6 196.3 202.9 208 212.9 217.3 220.2 218.1 221.5 226.1 230.4 232.4 231 230.8 229.9 227.1 234.3 238.9 240 240.4 242.3 245.9 252.2 258.9 268.3 276.4 282.2 286.8 288.5 289.1 288.3 286.2 284.1 280.2 275.6 271.7 270.3 280.5 282.1 282 281.1 283.5 285.5 280.4 273.5 269.8 267.8 265 260.7 257.3 255.2 253.6 252.4 251.3 249.4 246.4 243.7 240.9 237.5 233.6 229.7 228.5 227.7 226.2 224.4 224.4 224.4 224.4 224.4 224.4 224.4 224.4 224.4 224.4 224.4 224.4 224.4 224.4 224.4 224.4 224.4 227.1 229.1 230.7 232.7 236.7 241.6 250.9 261.3 268.1 273.2 278.3 283.1 287.3 291.3 296.3 303.3 309.2 315.3 320.7 326 330.5 333.6 336.7 339.9 346.9 358.8 371.7 379.9 385.6 392 392.6 387.9 383.6
444.8 432.3 424.3 421.9 420.8 422.3 420.8 420.6 419.8 418.1 415.9 414.2 413.8 411.9 410.8 410.8 410.6 410.5 412.4 413.6 414.5 414 410.2 412.9 409.4 404.3 399.8 393.2 385 374.1 344 323.4 311.4 304.1 300.1 294.6 291 288.3 284.5 283.6 281 284.1 287.3 290.2 281.2 260 258 251.7 246.4 241.6 235.1 229.6 225.1 223 218.6 218.9 230.5 225.1 219.7 212.7 203.6 197.6 194.9 192.8 188 182.1 173.6 151.8 143.4 153.8 166.8 174 174.2 173 169.2 168.5 168.5 168.3 168.1 166.3 167.1 170.2 172 175.3 181.2 190.7 198.2 204.6 210.1 214.6 218.8 221.7 224.1 228 235.9 238.4 240.5 239.1 236.7 235.8 233.5 231.9 241.9 242.5 243 244 246.4 249.8 253.4 262.7 272.2 281.3 286 288.6 289.9 289.4 287.5 285.2 282.8 280.3 278.6 277.2 276.6 285.5 291.9 296 297 297.3 292.9 288.1 280.9 273.6 271.2 267.3 261.8 257.8 257 255.1 252.5 251.2 249.6 247.9 244.9 242 237.7 232.4 228.6 227.5 226.3 226.5 226.6 224.4 224.4 224.4 224.4 224.4 224.4 224.4 224.4 224.4 224.4 224.4 224.4 224.4 224.4 224.4 224.4 230.5 232.9 231 231.4 235.3 241.2 248.4 255.5 262 268.4 273 276.9 280.3 284.6 290.7 297.6 304 310.4 316.1 321 325.1 326.7 328.6 332.9 339.5 349.5 361.7 370.3 376.9 381.6 388 384.5 377.7
446.1 438.3 436.9 433.5 427.5 424.9 422.1 420.2 418.9 417.4 415.5 411.4 408.9 407.4 406.3 404.9 405.3 405.1 405.5 408.2 409.6 407.2 404.8 405.1 404.5 401.4 396.9 389.7 382.2 372.2 356.4 334.8 319.5 310.7 306.4 303.1 298.3 295.6 292.3 289.9 286.5 288.3 290.9 289.8 279.8 264.7 256.3 252.7 246.4 240 236.8 233.1 227.4 220.9 225.4 229.8 226.9 225.2 220.9 215.7 208.9 201.9 197.7 194.5 189.8 183.6 162.6 145.3 151.1 165.6 171.4 173.6 175.9 178.1 175.2 173.7 173.5 173.6 172.8 171.9 170.2 171.6 173.7 179.8 188.5 197.4 203.6 209.8 215.7 219.8 223.3 225.7 229.3 235.8 245.6 250.6 248.4 244.5 242.6 240.5 240.2 237.1 243.3 244.9 246.1 247.7 250.4 253.1 255.4 259.6 268.3 274.9 284.1 287.5 289.1 288.7 287.2 286.2 284.6 282.7 284.6 285.8 285.4 291 296.4 299.5 300.5 297 294.6 289.2 284.9 278 273.5 268.4 262.6 259.3 258.8 256.5 253.9 254.4 256 255.6 251 248 243.6 236 230.3 227.3 225.2 224.4 224.4 224.4 224.4 224.4 224.4 224.4 224.4 224.4 224.4 224.4 224.4 224.4 224.4 224.4 224.4 224.4 224.4 228 232.5 231.6 229.7 233.2 240 246 251.8 255 259.8 265.3 269.3 271.6 277.7 283.8 290 296.1 302.4 308.8 314.4 318.7 322.1 322.3 324.8 333.6 342.5 352.8 364.3 369.8 373.7 375.2 375.1 369.5
446.7 444.1 441.9 438.8 434.8 427.6 423.1 420.8 419.1 417.5 415.4 412.3 408.9 405.3 403.4 400.5 400.5 400.1 398.9 399.5 399.7 400.2 399.5 399.1 397.4 395.3 391.2 386.3 377.3 370.7 361 347.4 333.7 322.1 315.5 310.4 304.8 303.6 305.7 304.2 300.7 298.6 290.3 286.1 279.8 265.6 255.7 252.7 247.5 240.7 237.9 233.3 224.8 223.1 232.4 231.3 228.7 224 225.5 220.1 218 216.4 207 200.8 188.9 168.4 146 153 160.6 169 174.4 176.4 178.5 179.6 177 177.2 178.1 177.6 178.1 178 177.3 171.1 175.8 185.6 194.3 202.9 211.8 213.9 218.4 223.1 226.8 230.4 233.8 240.4 246.3 251.4 252.2 251.1 249.2 247.7 246.7 244.5 247.8 250.3 250.8 250.3 254.6 260.9 264.3 265 268.2 272.8 281 285.8 288.9 289.7 289.4 287.9 286.8 286.4 289.9 292.4 293.3 294.1 294.5 294.9 295.3 293 290.5 287.1 284.2 277.3 271.3 266.8 262.6 261.4 260.9 258.5 260.7 263.6 269.8 272.2 267.5 262.9 259.8 249.8 238.8 232.1 227.4 224.4 224.4 224.4 224.4 224.4 224.4 224.4 224.4 224.4 224.4 224.4 224.4 224.4 224.4 224.4 224.4 224.4 224.4 224.4 226.2 225.1 231.5 230.1 237.4 244.8 248.2 251.1 254.1 257.4 259.2 261.7 269.1 275.7 281.7 288.1 293.4 300 306.9 311.9 315.9 317.3 320.7 328.4 337.4 343.7 352.7 359.7 368.9 370.3 369.6 365.2
451 447.9 443.2 439.9 435.2 430.8 424.2 421.7 419.9 418.9 416.7 414.1 408.9 405.8 403.2 399.2 395.9 394.3 394 393.8 393.1 394.2 392.4 391.4 388.6 386.7 383.6 379.1 373 367.6 361.5 354.8 342.1 327.3 321.4 319 318.8 313.6 310.3 306.4 302.9 295.3 291.1 280.3 269.1 260.4 249.1 243.1 240.5 238.2 233.3 228.6 225.4 229.8 233.8 229.2 227 226.5 222.8 217.3 211.9 207.3 198.6 187.5 176 154.8 158.9 162.7 169.6 173.2 178.5 181.8 181.3 181.4 181 181 184.4 184.3 181.5 180.9 181.1 175 179.6 189.6 195.7 200.5 208 214.4 218.2 224.2 229.8 233.3 237.5 240.8 244.8 249.5 252.2 252.6 251.6 249.4 247 248 250.3 252.3 253.3 252.8 257.9 267.2 273 275.3 276.6 276.6 280.7 288.8 291.3 292 292.9 292.9 292.7 293.2 295.3 296.5 297.2 296 294.2 292.2 292 290.1 287.2 284.8 280.2 272.6 268.2 264.7 264.5 265.1 264.1 264.5 266.8 270.7 276.3 278.1 275.7 270.4 270.5 266.3 262.9 252.8 244.3 232.6 224.4 224.4 224.4 224.4 224.4 224.4 224.4 224.4 224.4 224.4 224.4 224.4 224.4 224.4 224.4 224.4 224.4 224.4 224.4 224.5 231.8 232.6 229.6 239.2 245 247.7 250.4 252.2 252.2 255 260 265.5 272.1 278.7 284.3 291 297.9 305.4 309.5 313.5 318.1 324.1 331.4 338.4 348.3 360.5 364.1 370.3 371.2 366.5
454.5 450.6 445.6 441.4 436.4 432.4 425.8 421.9 420 417.9 415.4 413.1 410.3 407.5 403.6 399.1 393.8 390.9 389.7 388.7 388 387.1 386.1 383.7 380.5 378 375 371 365.9 362.3 358.1 354.3 348 334.6 330.6 326.6 315.4 305.7 302.2 300.3 293.1 288.1 281.5 272.8 260.2 255.2 243.6 234 232.6 231.9 228.9 225.7 223.3 227.4 228.8 221.9 210.6 206.7 208.7 201.8 191.5 182.2 170.3 167.4 167.4 169.6 169.7 173.6 176.7 179.8 182 184.7 185.3 185.4 188 186.1 186.2 186 186.5 183.8 183.7 180.9 178.1 188.8 195.5 200.2 204.7 209.7 216.6 222.6 230.3 234.4 238.1 242.8 246.4 248.1 251.2 252.6 252.3 251.2 252.7 255.3 257.4 256.5 259.5 260.4 262.8 273.2 279.5 282.5 284.6 290.7 289.9 291.9 293.8 295.5 296.1 296.1 296.5 297.1 298.1 298.5 299 297.2 294.3 290.9 289.7 288.3 285.5 282 274.4 269.5 267 265.5 266.2 268.1 268.5 269.5 273.5 276.1 279.1 278.4 275 270.8 270.2 270 269.4 268.2 262.1 245.1 234.7 227.1 224.4 224.4 224.4 224.4 224.4 224.4 224.4 224.4 224.4 224.4 224.4 224.4 224.4 224.4 224.4 224.4 224.4 224.4 226.4 230.5 228.6 231.9 239.3 242.6 246.5 248 248.1 248.6 251.1 255.6 262.5 269.6 276.2 283.5 289.6 297.5 304.1 309.9 315.9 322.3 329.3 336.7 345.7 358.5 363.5 368.5 372.6 370.3
462.3 460.9 455.2 450.4 441.8 435.6 427 420.8 417.5 414.3 411.8 408.5 403.1 401 399.1 397.9 394.2 389.3 384.6 382 381.7 380.9 379.7 376.6 375.7 372.1 368.3 364.3 360.8 357.4 353.8 353.5 348.8 339.8 330.7 319.1 305.2 298.5 292.8 290 283.8 280.3 269.7 262.8 253.3 247 240.2 231.8 229.8 225.6 220.7 223.3 216.5 215.4 212.9 201.8 196.2 191.7 185.7 176.7 174.2 182.4 182.4 182.8 182.2 181 178 178.7 182.7 183 185.4 187.8 188.5 188.9 188.8 189.4 190.8 189.4 188 187.8 191.2 189.3 186.9 188.4 192 199.4 203.5 207.2 214.3 220.7 227.8 233.9 237.9 245.2 253.1 256.4 255.7 256.9 257.2 257.7 258.1 261.5 263 265.1 264.7 267.2 268.1 276.1 282.1 282.8 286.9 291.2 295.7 294.1 295.8 297.3 297.9 299.1 300.1 299.9 299.9 299.5 297.9 296.3 293.3 289.6 288.7 287.3 283.9 278.9 272.2 270.9 271.8 274.4 273.9 273.7 276.8 282.5 288.4 290.4 291.5 289.8 284.1 275.7 270.1 267.5 265.5 260.2 256.3 247.5 239.1 232 226.6 224.4 224.4 224.4 224.4 224.4 224.4 224.4 224.4 224.4 224.4 224.4 224.4 224.4 224.4 224.4 224.4 224.4 224.4 224.4 224.7 229.6 236 240.2 243 244.5 245.2 245.8 245.9 248.7 255.3 262.8 269.4 276 281.8 290.8 298.9 307.3 315.5 322.5 329.6 336 341.4 351.5 360.6 365.4 373.9 369.5
467.7 466 462.1 457.2 451.5 444.2 430.5 423.1 417.6 413.7 410.4 406 401.3 396.2 393.7 392.3 390.3 387.5 382.5 376.3 375.4 375.1 373.1 369.8 368.5 364 360.7 358.8 355.3 351.6 347.9 344.3 343.2 338 326.2 316.6 298.4 290.7 286.6 280.9 275.8 271.5 262.7 250.2 246 243.8 236.8 230.6 227 222 211.3 205.6 206.1 201 203.1 206.7 209.9 206.3 194.1 196.6 200.6 202.6 198.5 196.3 192.4 187.3 183.8 185 189.3 194.7 197.7 198.3 200.4 196.4 196.8 195.2 194.2 194 191.8 195.4 196.3 194.3 191.1 191.8 190.4 198.2 203.4 207.8 214.4 221.2 228.5 235.7 244.5 250.5 264.5 272.4 266.5 262.6 261.8 262.3 261.9 263 266.1 269.8 273.9 275.9 285.3 277.4 280.9 285.3 290.1 296.9 300.7 299.8 297.3 299.1 299.6 302.1 304.4 305.9 303.3 300.8 296.7 294.2 291.1 289.2 288.5 287.1 285.3 281.8 280.5 278.8 281 284.8 285.5 288.2 291.4 293.5 294.5 295 295.6 296.2 292.5 284.9 277.5 268.2 262.3 256.8 251.7 246.2 239.5 233.8 229.2 226.6 224.4 224.4 224.4 224.4 224.4 224.4 224.4 224.4 224.4 224.4 224.4 224.4 224.4 224.4 224.4 224.4 224.4 224.4 224.4 225.9 234.7 240.9 240.9 241.3 242.3 243.1 243.4 244.4 250.5 256.1 261.8 267.6 276.1 287.3 297.3 307.2 316 323 329 332.7 336.5 344.7 353.3 357.1 363.4 361.8
472.3 470.3 465.6 459.9 454.9 449.4 442.1 431.6 420.6 414.3 409.4 405.6 401.2 396.1 391.8 389.5 386.3 382.2 379 373.2 367.4 367.3 364.6 360.9 358.4 357.1 354.8 351 347.9 343.3 330.8 327.2 327.1 322.6 312 304.6 294.1 285.4 280.9 271.3 266 258.9 251.9 245.2 240.6 235.5 224.1 217.4 216.4 214.3 212.8 211.5 211.9 212.4 217.7 221.7 222.2 217.6 214.3 214.4 215.7 217.9 216.9 208.7 203.7 198.9 194.5 196.7 202.2 205.1 204.9 204.5 205.8 205 208.3 208 199.8 201.4 203 203.8 201.7 199.1 197 196.5 196.6 200.8 206.8 214.3 219.4 223.4 231.9 240.9 251.4 264.7 276.1 287.4 286.2 282 282.9 280.1 275.5 270.2 273.7 279 287 295.2 292 283.2 283.8 289.1 296.4 303.2 306.1 305.3 302.7 300.6 301.4 304 307.2 307.2 304 300.5 295.9 293.1 290.2 290.8 290.4 289.5 287.9 285.7 284.4 284.2 287.1 290.4 293.8 299.2 298.4 296.3 293.8 294.2 293.4 294.8 292.2 288.5 284.7 277.2 270.1 263.6 256.4 248.7 242.3 235.7 231.2 228.2 225.9 224.4 224.4 224.4 224.4 224.4 224.4 224.4 224.4 224.4 224.4 224.4 224.4 224.4 224.4 224.4 224.4 224.4 224.4 224.4 229.7 240 240.6 241.1 241.1 241.2 242 243.6 245.3 251 255.1 264.8 277.1 287.6 296.3 305.7 315.8 322.4 326.8 328.1 331.9 336.4 344.7 345.8 348 349.2
478 474.9 467.4 459.2 450.3 440.9 434.7 426.5 417.9 412.4 406 401.2 398.1 393.6 390.9 388.4 385.3 380.4 375.6 370.2 364.8 356.6 355.6 353.1 350.5 350.2 348.3 343.4 340.1 330.5 318.9 314.3 317.1 315.7 310.9 302.5 296.3 279.3 273.6 262.1 256.1 249.6 238 234.2 226.9 223.4 234.7 231.1 227.5 224.4 220.8 220 222.7 225.7 230.1 232.9 232.4 227.9 227.7 227.1 225.4 225.9 224 216.3 211.5 207.8 207.2 207.6 211.6 215.1 214.9 213.6 211.5 210 211.4 212.2 212.3 210.5 208.9 207.2 208.8 207.7 203.9 204.4 203.7 204.2 210.7 216.9 222.1 227.4 234.3 244.2 254.2 267 277.7 285.7 293.7 291.7 286.7 283.7 280.3 277.2 279.7 285 290.6 292.8 287.4 283.4 284.7 290.1 295 305.8 310.4 308.4 304.5 302 302.7 303.4 305 304.5 302.9 298.6 294.1 292.6 291.7 291.3 291.3 290.9 286.3 283.8 283.3 284.3 287.1 291.7 298.7 305.7 302.4 301.2 295.9 293.4 290.4 290.8 288.9 286 282.8 280.8 274.9 268 262.9 254.4 245.3 238 231.5 227.9 226.2 224.4 224.4 224.4 224.4 224.4 224.4 224.4 224.4 224.4 224.4 224.4 224.4 224.4 224.4 224.4 224.4 224.4 224.4 224.4 224.5 236.3 241 240.2 240.1 241.3 241.2 240.9 239.8 250.7 256.5 265.5 277.3 284.9 292.2 299.8 311.5 321.3 324.9 325.8 324.3 324.2 326.2 328.8 328.7 331.7
478.7 472.7 465.3 455.8 442.7 431.3 426.1 419.9 413.9 409.3 405.3 401.2 398.8 396.3 393 388.8 386.3 382.1 376.7 370.8 365.4 358.3 350.2 345.4 341.9 338.5 334.9 330.9 326.5 320.2 307.3 300.6 306.7 304 297.4 286.7 282.1 273 264 257.9 251.4 240.1 230.8 224.2 234.5 244 244.9 242 238.5 234.3 232.4 232.1 237.4 237.5 239.6 242.6 243.3 240.4 241.3 240.9 238.7 238.1 237.1 234.6 229.4 224.3 222.2 221.3 223 224.5 226.9 226 221.8 219 218.3 218.3 217.7 217.3 217.6 215.2 215.5 215.8 211.9 208.7 208.7 207.5 211 216.7 222.8 229.7 235.6 244.7 253.5 266.6 278.1 290.7 297.1 306.2 305.6 297.7 295.9 287.7 288.6 293.1 290.3 286.1 284.9 283.8 285 288.3 299 305.2 308.8 308.3 305 302.8 302.2 302.5 301 299.1 297.1 295.8 293.2 292.1 291.4 290.9 289 285 282.2 279.6 277.1 278.4 280.1 284.4 288.6 295.3 296.9 300.4 295.3 289.3 286.9 287.2 286.1 283.6 280.1 274.4 272 267.3 261.4 253.2 246.3 237.8 231.5 227.2 224.4 224.4 224.4 224.4 224.4 224.4 224.4 224.4 224.4 224.4 224.4 224.4 224.4 224.4 224.4 224.4 224.4 224.4 224.4 224.4 224.4 230.1 237.2 235 240.6 240.3 239.2 234.6 242.1 248 253.6 263.8 273 282 288 294.4 303.9 316.2 320.8 320 318.2 317.8 317.2 315.7 314 311
471 464.2 459.3 446.8 437.4 426 422.9 417.3 413.3 407.9 403.7 400.3 396.9 394.7 392 388.6 384.6 380.7 375.9 370.6 363 356.2 347.6 336.2 322.1 319.6 316.7 313.2 310.6 301.4 294.4 291.7 290.7 291.6 284.9 277.1 272.5 264.3 256.5 246.2 233.3 231.2 229 241.2 243.9 249 250.7 251.7 250.2 247.6 246.5 246.8 250.3 248.9 248.4 250.8 252.4 254.4 257.4 256.4 255.6 253.9 252.2 249.9 245 242.1 238.9 236.8 237 237.6 241.1 238.4 232.2 230 228.2 229.9 230.4 227.1 228 225.9 222.4 218.7 215.1 212.9 215.2 216.7 214.2 219.9 222.7 228.2 237.7 245.3 256.6 273.1 279.1 295 299.5 303.4 305 299 302.4 306.7 311.3 304.1 289.3 285.7 284.1 283.1 284.5 289.2 294.8 293.8 297.8 298 296.5 297.2 295 292.4 291.1 289.9 289.8 289.3 288.8 288.1 286.7 284.1 282.8 279.7 276.8 274.5 271.5 271.7 273.5 275.2 279.2 286.2 286.4 282.9 285.2 286.1 284.8 283.6 283.6 279.8 275.5 269.6 267.5 264.3 257.1 248.5 242.1 235.9 231.9 227.8 224.4 224.4 224.4 224.4 224.4 224.4 224.4 224.4 224.4 224.4 224.4 224.4 224.4 224.4 224.4 224.4 224.4 224.4 224.4 224.4 224.4 224.4 228 232.9 234.2 233.4 232.5 233 238.8 243.2 249.3 259.2 265.9 272.5 282.5 288 292.3 305.7 312 313.1 311.9 311.4 310.5 308.3 306.1 302.1
464.1 456 450.5 438.6 433.7 425.6 421.5 416.2 410 403.5 400.6 397 393.4 390.3 388.1 385.7 382 378.2 373.5 366.7 358.2 348.9 337.4 323.5 306.2 290.1 291.3 286.9 284.8 277.7 274.2 274.8 273.9 272.4 269.1 265 261 252.8 242.4 239.1 245.5 246.5 250.5 253.2 251.1 254.1 257.2 260.3 261 261.9 260.4 261 259.4 257.8 256.5 258.8 261.9 267.3 273.1 273.8 275.4 272.1 266.7 265.6 262.3 260.4 257.2 254.2 254.7 252.8 254.1 252.8 245 240.2 240 242.5 245 240.9 238.9 231.6 229.7 224.4 222.3 222.3 221.9 218.7 219.7 218.9 223.3 229.3 238.3 245 255.3 269.7 279.4 291.1 299.3 302.3 299.4 300.6 312.2 318.2 314 304.6 295.3 284.9 281.8 281.6 282 283 280.2 279.8 282.2 282.1 283 284.5 284.1 283.5 282 281.9 281.9 282.1 280.7 280.4 280 277.3 275.3 272.9 271.1 269.5 268.5 264.4 266.7 270.5 274.1 273.7 274.7 273.7 272.4 278.6 281.6 280.3 278.2 273.2 268 265.2 263.8 261.2 253.6 245.4 237.9 231.1 227.7 225.1 224.4 224.4 224.4 224.4 224.4 224.4 224.4 224.4 224.4 224.4 224.4 224.4 224.4 224.4 224.4 224.4 224.4 224.4 224.4 224.4 224.4 224.4 224.4 225.3 227.5 227.1 229 231.4 235.2 240 245.9 256.4 263.2 267.3 276.1 280.7 283.6 291.3 301.8 304.2 303 303.7 302.9 301.1 299.5 296.1
454.9 449.5 445.6 438.3 430.1 424.4 420 414.2 406.2 401.7 397.8 395.2 391.4 387 384.5 381.7 378.3 374.7 368.3 360.3 350.3 335.7 319.6 301.1 297.5 285 266.8 265.6 261.5 259.4 264 255.5 252.5 249.6 249.2 247.7 247.2 245.6 247.9 250.7 252.4 253.7 257.3 259.8 260.6 261.8 264.7 268.9 272 272.1 271.6 270.8 270.7 269 269.7 270.9 274.4 282.6 286.6 287.9 287.4 286.4 288 287.1 286.1 282.5 282.2 278.5 272.6 271.2 273 270.4 262.7 257.3 255.9 256 255.7 252.1 246.6 243.6 239.2 233.9 229.3 225.6 224.8 223.3 222.9 222.9 223.6 231.4 238.4 244.8 253.8 269.1 278.5 286.2 295.9 297.8 302.8 305 305.7 315.8 307.7 299.5 290.2 282.2 278.7 276.2 276.7 275.8 272.9 272.2 271.4 272.1 271.3 273.7 276.4 277 276.9 276.6 275.2 274.8 274.9 274.3 271.1 268.4 267.8 266.3 265.2 266.4 266.9 260 260.9 265.1 266.5 263.5 262.2 262.8 263.6 265.8 273.9 272.4 268.7 262.2 260 260.3 257.9 254.9 250.1 241.6 235.8 228.6 226 224.4 224.4 224.4 224.4 224.4 224.4 224.4 224.4 224.4 224.4 224.4 224.4 224.4 224.4 224.4 224.4 224.4 224.4 224.4 224.4 224.4 224.4 224.4 224.4 224.4 224.4 224.4 227.1 230.3 234.1 241 249.8 255.8 260.6 264.6 268.8 273.3 276.6 279.9 290.4 294.5 294.3 295.3 296.3 295.3 293.7 290.8
443.5 441.8 441.2 438.5 433.2 428.6 421.8 414.6 407 403.5 398.7 394.3 390.3 384.6 381 377.4 374.8 367.6 360.2 347.8 332.2 314.6 303 298.5 287.7 271 265.9 264.6 263.7 262.2 259.4 258.4 257.3 260.7 264.2 260.7 257.9 258.5 262.5 258.8 260.9 265.7 272.5 275.6 277.9 274.7 275.9 278.8 281.8 281.8 282.3 282.5 283.6 283.7 283.2 288.8 291.4 298.1 299.6 299.6 303.9 312.4 317.6 316.2 317.1 316.7 315.5 313.1 306.1 294.6 289.8 288.6 281.7 272.5 269.2 268.5 265.2 262.4 258.3 251.9 247.1 241.8 235.4 228.3 227.5 233.4 228.6 228 228.6 234.4 238.6 244.8 251.3 266.2 274.7 286.4 292.5 292.7 304.2 302.9 300.4 298 297.4 293 285.9 279.4 273.6 269.9 268.8 267.6 265.6 262.1 259.9 260.9 265 267.6 270.4 271.1 271.8 270.7 269.2 268.4 267.2 266.1 265.8 263.9 262.5 261.5 262 265.1 262.2 256.3 256.1 260.4 260.1 257.7 256 253.7 252 253.9 253.5 252.7 251.2 250.6 249.9 249.6 247.8 245.2 241.9 236.4 232.5 227.9 224.4 224.4 224.4 224.4 224.4 224.4 224.4 224.4 224.4 224.4 224.4 224.4 224.4 224.4 224.4 224.4 224.4 224.4 224.4 224.4 224.4 224.4 224.4 224.4 224.4 224.4 224.4 224.4 224.9 231.5 237.8 244.4 251 256.1 259.1 261.1 264.4 268.4 272 275.7 280.9 287 287.6 289.1 290.2 290.7 288.1 285.4
439.4 436.5 436 434.6 432.9 429.6 423.3 418 410.1 402.7 398.6 394.7 389.1 384.9 381.6 376.8 369.6 355.2 344.3 327.7 311.6 299.2 290 279.7 268.6 271.4 278.9 283.8 283.2 277.6 274.2 279.2 276.1 274.1 274 272.5 271.4 271.3 270.9 271.2 273.9 281.9 288.3 291.4 290.3 286.8 287.8 289.5 292.4 293.6 293.4 292.2 295.4 294.6 295.8 299.8 304.7 310.2 313.7 319.7 334.7 342.9 346 347.2 347.5 349.2 348.3 345.3 336.4 318.6 306.6 301.4 294.6 287.6 284.2 281.1 278.2 273.9 269.9 263.9 256.8 253.3 245.2 238 232 233.2 231.1 228.5 232 235.1 238.4 242.9 248.5 259.2 269.1 282.4 285.6 289.3 295.7 297.6 296.3 293.3 287.7 284.6 279.1 274.4 270.8 266.1 263 261.8 258.6 257.5 257.6 257.7 261.2 264.7 266.2 266.5 266.5 264.9 263.4 262 260.9 259.2 258.6 259.3 257.6 256.3 257.5 257.8 252.4 249.8 251 251.6 253.5 252.2 250.3 247.9 246.2 244.7 243.4 245.2 244.7 241.8 242.3 240.7 240.8 239.1 235.2 231.5 227.9 226.4 224.8 224.4 224.4 224.4 224.4 224.4 224.4 224.4 224.4 224.4 224.4 224.4 224.4 224.4 224.4 224.4 224.4 224.4 224.4 224.4 224.4 224.4 224.4 224.4 224.4 224.4 224.4 224.4 224.4 229.4 237.3 243.5 248.4 253.3 256.2 257.9 259.8 263.3 268.1 272.8 275.9 279.3 281.5 283.1 283.5 283.2 282.2 279.7
436.5 430.5 429.7 428.4 427.4 424.6 419.5 414.4 407 402 399.3 394.9 389.5 386.3 380.6 373.4 360.8 344 326.9 309.8 303 287.4 270.8 273.7 280 287.5 294.5 296.8 295 293.5 289.1 288.3 284.8 282.3 280.7 280.6 283.5 285.9 288.3 290.1 293.1 298.3 307.2 308.7 304.1 296.2 298.1 299.6 302.2 303.1 302.2 301.4 305.6 305.3 308 312.8 319.4 326.6 333.9 344.2 358.2 369.7 377 379.2 385.5 385.6 382.7 382.3 371.3 349.9 330.7 311.4 303.8 301.5 298.2 296.9 291.2 285.2 279.4 272.2 267.4 261.2 255.6 246.9 242 234.8 232.7 232.7 233.4 234.5 238.2 241.5 246.7 256.6 262.2 267.5 275.3 283 293.5 294.2 292.4 287.8 283.9 279.4 275.7 271.5 265.5 263.5 259.5 257.5 255 253.3 254 254.6 259.1 262 262.2 260.4 260.6 259.5 257.9 258 258.4 256.9 257.1 257.2 255 252.7 248.8 249.4 248.1 248.7 249.8 247.8 246.5 245.8 244.8 242 240.4 239.4 239.6 238.9 237.4 237.4 236 234 233.5 232.3 228.7 227.6 226.1 224.4 225.6 225.3 224.4 224.4 224.4 224.4 224.4 224.4 224.4 224.4 224.4 224.4 224.4 224.4 224.4 224.4 224.4 224.4 224.4 224.4 224.4 224.4 224.4 224.4 224.4 224.4 224.4 224.4 224.4 227.2 232.9 237.3 241.8 247.9 251.9 252.8 254.3 257.5 261 265.6 269.2 273 275.1 276.9 276.6 276.3 275.3 273.7
431.3 425.9 422.9 422.3 421.4 418.4 413.8 409.2 404 400.4 397.3 393.9 390.9 387 374.9 363 350.2 336.8 318.1 306 284.5 277.3 286.1 294 299.2 307.4 315.9 315.7 313.8 313.5 311.6 307.6 300.4 294.2 299 301.6 305.2 308.2 312 313.8 317.4 321.6 325.9 323.8 319 312.5 310.4 310.1 310.4 311.6 312.7 315.4 319 323.7 324.9 326.6 333.7 341.3 353.1 365.6 377.8 386.7 396.1 403.4 407.7 412.8 415.9 417.9 418.4 398.8 365.2 338.7 318.1 314.7 312.8 311.8 304.9 295.4 288.6 281.1 275.3 269.9 259 253 247.7 242.4 238.1 236.6 237.8 237.9 238.9 240.8 245.3 250.4 256.2 261.3 272.7 277 287.6 288.7 287.5 285.7 282.3 276.1 269.6 267.3 262.4 259 257.7 254.6 251.9 249.4 249.1 249.4 252.6 258.5 258.1 257.1 255.6 253.9 254.2 254.7 255.1 256.2 255.8 255.3 253 250.6 250.2 245.4 244.9 244 245.3 243.5 242.1 241.4 240.3 237.6 235.6 234.2 235.5 234 233.8 233.8 232 230.4 229.9 228.2 225.7 224.4 226.8 225.9 224.7 226.7 225.8 225.5 224.4 224.4 224.4 224.6 227.6 228.5 227.3 224.4 224.4 224.4 224.4 224.4 224.4 224.4 224.4 224.4 224.4 224.4 224.4 224.4 224.4 224.4 224.4 224.4 224.4 224.4 228.2 231.7 237.6 243.1 245.7 245.6 247.2 250.3 253.8 258.1 262.8 266.7 268.5 270.2 270.4 270.2 268.3 266.9
426.6 421.6 416.6 415.9 414.6 412.1 408.6 406.7 402 398.1 393.8 390.3 387 383.4 373.3 358.2 343.7 323.2 308.2 287.7 280.6 292 306.9 314.6 318.4 329.5 337.4 342.5 342 344 342.2 336.5 330.5 326.5 327.7 331.2 336.3 337.8 336.9 337.1 336.6 336.9 338.7 337.4 331.3 324.2 318.3 316.9 318 320.3 323.2 327.8 332.3 335.1 336.2 339.4 345.9 357.9 368.4 379.3 391.1 402.3 405.5 409.3 414.3 420.7 418 414.6 413.7 415 403.7 366.1 350 343.4 334.2 322 316.6 307.2 298.1 292.5 285.8 276.5 266.3 257.5 252.6 249 240.7 242.4 241.2 240.7 239.1 241.4 244.3 248 252.8 256.9 262.9 271.8 279.4 283.7 280.9 276.1 275.7 271.9 266.6 263 259.7 257.1 255.6 252.1 249.3 247.5 246.6 245.8 247.7 252.6 252.6 252.4 252.1 251.4 251.8 252.1 251.9 252.8 253.3 252.9 251.1 247.9 244.6 241.4 240.7 240.7 240.1 239.2 238.7 238 236.4 234.8 232.8 231.7 231.4 231.4 231.1 230.9 229.2 228.4 227.8 226.1 226.7 227.3 228.6 227.6 227.7 228.6 228.5 228.9 229.1 229.3 232.6 238.2 237.8 240.1 240.2 231.4 226.7 224.4 224.4 224.4 224.4 224.4 224.4 224.4 224.4 224.4 224.4 224.4 224.4 224.4 224.4 224.4 224.4 224.4 224.4 229.3 233.4 238.9 239.8 240.2 241.6 244.3 248.9 254.3 258.7 261.1 261.9 263.4 264.3 263.7 262.5 262.4
421.8 418 411.5 407.7 400.7 392.5 389.6 395 394.1 388.9 386.6 383.2 381.1 373.9 361.8 345 325.1 305.7 286.4 294.5 301.3 316.2 330.7 337.6 340.9 350.9 358.6 363.1 365.7 369.1 370 364 357.8 350 354 356.5 358.2 355.3 353.8 348.4 345.7 345.8 346.5 346.7 341.2 334.6 328.2 325.3 326.2 328.8 331.6 334.6 338.2 342.5 344 350.1 358.8 370 380.6 388.9 395.5 400.6 405.1 409.2 414.4 418.4 416.6 412 408.4 405.2 396.7 376.9 361.5 349.8 340.4 331.7 323.8 315.1 307.7 298.7 292 283.9 274.2 266 259.8 254.5 250.7 247.8 245.3 243.7 242.9 241.5 243 247.2 250.3 254.5 260.1 266.8 270.3 274.3 274.7 268.3 268.2 264.8 262 258.7 257.3 254.8 254.7 251.1 247.9 246.3 246.1 245.1 244 245.2 247.5 248.6 249.4 249.2 249.7 249.2 248.7 248.8 249.8 249.8 249.1 245.9 242.6 239.5 238 239.1 238.5 236.8 236.3 234.6 232.3 231.8 230.7 229.9 229.3 229.1 228.8 228.5 227.8 227.3 226.5 227.4 228.5 229.3 231 231.8 230.9 231.1 231.4 235.6 243.4 246.7 242.6 246 250.1 251.3 250.4 247.1 242.4 235.1 225.4 224.4 224.4 224.4 224.4 224.4 224.4 224.4 224.4 224.4 224.4 224.4 224.4 224.4 224.4 224.4 224.4 225.8 231.2 234.2 234.9 236.6 238.4 240.9 244.6 252.6 256.8 258 257.7 257.5 258.7 258.9 258.9 258.7
415.6 410.5 403.5 392.6 373 354.1 350.1 357.3 359.9 361.7 370 372.1 372.8 361.4 347.6 329.7 313.3 298.5 307.7 319.9 330.7 345.3 352.8 359.3 362.8 368.1 375 378.5 379.8 382.5 381.2 379.4 375.3 370.2 373 374.6 373.1 371.1 367.9 364.1 359.7 354 353.8 352.4 349 343.2 338.6 335.6 334.2 336.1 337.4 340.4 345 345.2 351.8 360.3 373.7 383.6 389.6 396.7 403 408.8 411.9 412.3 412 413.6 412.8 407.7 407 403.7 392.8 375.5 366.8 353.3 342.4 334.1 327.8 322.7 315.9 307.7 298.7 289.5 277.7 270.1 263.5 257.9 253.3 253.1 251.2 248.3 246.8 245.9 246 246.5 249.7 253.2 256.3 260.5 265.6 265.8 264.8 264.3 261.3 260.9 258.4 256.3 254.1 253.2 256.1 250 246.9 245.2 245.6 245 244.6 242.6 244.9 245.3 246.1 246.8 247.3 246 245.5 245.7 246.2 246.7 246 243.5 240.9 239.6 236.8 236.4 238.4 237.6 235.5 231.5 229.2 230.2 230.3 229.1 228.2 227.8 228.3 227 227.6 233 230.7 230 230.3 231.6 233 235.6 235.7 235.9 235.9 244.1 249.6 252.3 251.8 255.8 263.4 262.4 259.6 256.7 251.6 247.2 243 234.4 228.1 224.4 224.4 224.4 224.4 224.4 224.4 224.4 224.4 224.4 224.4 224.4 224.4 224.4 224.4 224.4 224.4 229 231 234.6 236.2 236.5 239.7 246.1 252.8 255.4 256.2 254.5 255.6 255.3 255.3 255.1
395.2 396.1 394.8 388.5 364 365.6 370.7 359.1 347.2 336.9 346.2 362.9 357.1 343.6 329.1 314.7 312.2 323.9 336.5 349.6 358.4 365.4 371.9 377.8 379.5 382.8 387.6 390.8 389.4 391.8 390.4 391.2 386.8 383.7 383.8 385.4 383 382.1 381.5 378.5 372.2 366.4 361.5 359.8 356.1 354 351 346 341.9 341.7 343.7 347.9 351.3 358.1 365.8 374.1 384 391.1 398.1 403.6 409.5 411.8 412.9 414.4 414.8 416.9 412.7 409.7 399.1 388.1 378.4 370.4 363.2 354.9 345.2 337.4 333.4 329.5 322.2 320.2 305.4 294.7 287.4 275.7 271.1 265.5 263.2 262.3 257.1 254.3 251 250.4 249.5 249.2 249.5 252.4 254.6 257.7 262.4 262.3 260.3 258 255.8 254.5 255 253.9 251.8 250.5 251 248.6 245.8 244.1 244.8 244.6 244.1 245.3 244.3 243.1 242 242.1 242.8 242.4 242.5 242.7 243 243 242.8 240.8 240.7 238.7 236.2 234.3 232.6 232.7 233.2 233.5 234.3 233.9 232.3 230.8 230.1 230.4 229.1 231.3 235.8 234.2 235.8 235.6 235.3 233.7 239 242.2 245.7 245.7 242.9 249.8 256 258.8 261.6 267.6 271.5 270.3 267.4 264.8 261.1 258.1 252.8 247.9 241.7 224.4 224.4 224.4 224.4 224.4 224.4 224.4 224.4 224.4 224.4 224.4 224.4 224.4 224.4 224.4 224.4 224.4 227.5 232.4 235.8 233.6 234.6 239.6 246.2 249.7 249.8 251.2 252.6 251.9 251.7 251.9
397.1 391.5 377.6 365.6 380.1 391.2 396 389.4 377.8 362.8 339.5 337.1 330.9 318.8 321.7 327.1 340 352.6 365.2 372.5 379.9 384 389.9 393.9 395.9 397.1 399 400.9 401.3 401.6 399.1 399.2 395.3 391.5 391.9 394 391.1 387.3 390 388.6 384.4 378.2 372.5 364.7 363.3 365.7 366.9 354.2 348.6 347.1 348.6 351.1 356.1 366.2 379.1 385.3 391.6 396.8 402.2 405.2 409 411.7 419.3 421.7 419.5 419.2 420 407.7 392.4 372 363.6 358.2 355.5 352.8 349.6 342.9 338.7 331.1 324.2 316.4 311 298 288.5 281 275.9 270.9 269.4 269.5 262.9 257.7 255.3 255 252.8 251 249.7 251.8 254 256.2 258.5 257.4 256.9 257.4 254.7 254.3 254.3 253.3 251.6 249.6 249.5 247.5 245.7 244.8 245.2 244.6 245.2 246.1 246.5 243.1 241.4 241.4 241.2 239.7 239.7 239.8 240.5 240.4 240.2 239.2 235.2 233.4 234.1 236.5 237.5 236.6 236.6 237.8 238 236.2 234.4 233 233.2 235.3 237.4 237.3 235.4 238.6 242 243.1 244.7 245.6 244.3 245.7 247.2 246.1 246.2 254.5 261.3 266.8 270.1 274.2 275.7 276.2 273.9 273.6 275.6 273.9 268.8 262.8 248.1 237.3 227.8 224.4 224.4 224.4 224.4 224.4 224.4 224.4 224.4 224.4 224.4 224.4 224.4 224.4 224.4 224.4 224.4 227.2 230.7 230.9 231.3 234.6 239.5 242.7 243.2 245.5 248.2 247.7 248.9 248.9
412.4 404.5 395.2 368.7 393.9 400.3 398.8 390.4 363.1 348.3 342 336.4 340.4 343.9 349.8 349.9 364.7 377.9 386.8 391.3 394.8 397.7 402.9 407.6 409.9 410.2 410.2 412 411.6 412.5 413 413.5 412.7 410.5 409.7 407.7 408.6 404.7 405.4 404.5 400.9 400.2 393.1 375.2 373.9 377.7 379 359.3 357.2 352.8 351.3 352.2 357.1 366.7 385.1 389.5 393.8 398.8 399.3 401 403.9 406.1 409.1 412 410.1 406.9 400.9 391.4 378.7 364 359.2 354.1 353.7 350.4 349.7 345.9 341.8 334 325.6 317.5 307.5 298.5 291.5 283.8 278.3 275.1 275.9 272.3 267.3 261.6 258.5 261 255.9 253.5 252.6 253.1 253.6 255.7 257.6 256.6 256.5 256.3 256 254.4 254 253.2 252.5 251.8 250 248 247.7 249.7 249.3 245.6 245.2 240.5 240.3 242.7 241.3 240.6 239.2 239.5 239 238.8 237.8 236.2 235.5 236.9 240.5 240.3 239.5 239.7 240.6 239.7 238.9 240.5 240.3 238.5 236.7 235.6 237.2 239 242 243.7 242.6 241.7 247.2 249.4 249.9 249.5 247.6 250.8 251.6 250.8 253.9 260.3 265.1 270.5 275.4 276.1 276.4 277.6 277.3 281.2 286 288.2 283.1 274.5 255.4 243.5 232.7 225.8 224.4 224.4 224.4 224.4 224.4 224.4 224.4 224.4 224.4 224.4 224.4 224.4 224.4 224.4 224.4 224.4 225.5 228 228.8 231.6 234.6 237.5 238.8 241.2 243.1 244.1 245.6 246.3
413.5 406.7 382.4 389.8 403.2 401.8 398.1 384.5 381.5 379.6 375 369.5 369.1 371.5 374.3 376.1 383.7 395 401.5 405.7 409.7 412.2 412.4 418.8 421.4 424 423.2 422.3 421.9 422.2 422.6 421.7 418.5 417.1 414 413.2 412.1 411.1 408.9 405.7 405 405.2 406.6 387.8 381.3 378.9 378.9 373.2 363.5 355.2 351.6 351.6 355.5 360 372.8 376.1 382.3 389.8 391 393.6 398.2 402.2 403.5 404.1 401.6 395.3 379.9 368.7 362.7 355.4 352.6 348.6 348.6 346.8 344.5 342.9 337.5 331.5 323.7 313.7 305 296.8 291 286.7 282 277.1 275.6 271.7 266.8 263 260.6 260.9 257.5 254.6 253.2 253.6 254 255.3 256 256.4 256.2 256.1 256 254.9 254.3 254 253.8 255.2 249.9 248.9 248.9 248.9 248.1 243.7 244.7 244.9 245.6 243.6 245 242.4 242.2 241.6 240.7 240.6 241.2 241.1 240.5 240.9 241.2 240.8 241.2 241.1 241.2 240.9 239.8 240.8 241.6 240.4 238.7 238.9 239.7 241.7 244.9 246.2 245.5 244.6 250.8 253.6 254.1 254.6 253.6 256.5 259.4 261.2 261.7 263.2 267.3 271.9 275.7 276.6 277.6 278.5 282 287.6 292.8 294.7 289 278.7 260.3 246.2 239.2 231.6 226.9 224.4 224.4 224.4 224.4 224.4 224.4 224.4 224.4 224.4 224.4 224.4 224.4 224.4 224.4 224.4 224.4 224.7 228 229.5 233.1 235.9 238 239 239.1 240.3 242 242.5
415.1 406.5 398.2 403 406.2 404.4 400.6 399.5 401.7 402.2 398.5 395.3 392.9 393.3 393.1 391 394.3 407.7 411.3 416.4 422.4 425.5 423.5 428.4 431.1 435.4 437 433.7 432.2 429.7 429.4 430.3 432.6 428.5 424.1 418.2 414.4 412 409.1 404.6 404.3 404.2 399.4 389.9 384.9 379.8 374.9 371.7 364.3 356.1 351.3 350.8 353.2 357.8 361.1 363.2 369.4 373.2 376.2 379.1 383.4 384.6 384.1 380.7 375.9 368.3 357.7 354.5 353.1 350.4 345.8 343.9 343.6 343.6 341.9 340 334.8 328.4 322.1 314.8 306.6 298.3 291.9 286.9 282.4 277.9 274 270.1 266 263.7 261.4 259.8 258.7 255.9 253.9 254.1 254.5 254.9 256.3 256.3 256.1 255.9 255 254.4 254 253.2 252.1 251.1 249.1 249.8 250.3 246.5 244.6 244.8 250.1 252.9 252.7 250.9 247.9 246.5 246.4 245.2 243.9 241.9 242.3 242.8 242.8 243.5 243.8 243.4 243.1 242.3 242.3 241.8 241.2 241.5 241.6 241.6 241.4 242.1 242.9 245.5 246 245 246.9 253.1 256.1 258.5 259.1 259.6 261.9 263.2 265.4 265.4 264.9 267 270.7 275.2 276.7 276.7 277.1 279.6 286.4 294.3 296 291.2 285.1 275.1 263.4 252.8 245.3 240.8 232.9 224.9 224.4 224.4 224.4 224.4 224.4 224.4 224.4 224.4 224.4 224.4 224.4 224.4 224.4 224.4 224.4 224.4 227.2 229.1 231.6 235.3 238.2 239.7 239.2 239.3 239.2 238.7
416.6 414.9 413.7 400.8 412.2 412.5 408.9 410.4 412.6 413.8 414 411.4 410.8 409.5 405.6 404.9 408.6 415 420.3 425.4 431.1 431.5 430.2 432.5 436.9 442.7 449.1 450.8 444.7 441.9 452.5 464.2 464.7 463.8 451.4 435.1 424.6 418.3 413.8 409.9 408.9 410.7 405 391.3 383.7 380 374.3 368.8 359.7 356.7 353.2 350.8 350.4 353.5 356 356.8 357.8 359.3 361.4 363.4 364.2 362.7 359 357.3 354.8 348.3 345.3 345.9 343 342 339.7 338.1 339.1 338.9 337.4 335.8 335.5 330.1 321.8 313.6 305.8 299 294.3 292.7 285.8 280.1 276.3 273.6 269.1 266.4 263.7 259.8 259.1 256.8 254.6 254.7 255 255.2 255.5 255.9 255.6 254.9 254.1 253.3 252.4 251.3 249.4 247.5 246 246.5 246.5 248.2 246.3 250.1 254.4 257 256.1 253.4 250.5 250.1 251.3 250.4 247.3 245.6 243.3 244.4 245 245.6 246.6 246.3 246.3 245.9 244.8 243.3 243.3 243.7 244.2 244.7 244.7 245 246.9 248.3 250.6 254.1 258 257.2 260.4 263.4 265.2 266.5 268.1 268.1 268.4 268.3 269.8 272.3 274.2 276.9 277.7 277.2 277.6 279.2 284.5 289.5 288.8 284.6 280.5 271.2 263 256.8 249.6 245.1 238.2 229.9 224.4 224.4 224.4 224.4 224.4 224.4 224.4 224.4 224.4 224.4 224.4 224.4 224.4 224.4 224.4 224.4 224.8 227.1 229.7 232.8 235.5 239.4 240.7 239.3 236.4 236.7
424.3 422.2 416.9 410.7 417 417.5 415.7 419 420.8 421.8 422.3 421.7 422.6 420.4 416.4 418.1 421.6 422.9 430.6 434.1 436.7 436.5 435.4 436.5 445.5 452.4 456.2 463.2 466.3 472.9 478.5 481.7 485.5 487.4 484.7 466.7 447.3 432.6 423.3 417.8 412.6 409.8 405.8 396.1 385.2 381.4 376.9 370.4 360.9 357.1 353.2 351.1 349.5 350.3 351.3 352.2 352.5 353.7 354.5 354.3 354.9 352.6 350.2 347.5 345.1 342.1 340.2 337.1 336 335.1 333.8 333.5 332.6 332.9 332.7 331.8 329.7 326.3 320.7 313.9 306.7 301.4 298.4 295 288.1 283.5 279.4 272.9 271 267 264.1 260.4 257.5 255.6 255.3 255.2 254.7 254.4 254 254.1 253.7 253.1 252.5 251.7 250.7 249.5 248.8 249 248 248.8 252.7 254.2 254.8 256.4 258.6 257.9 256.4 254.6 253.3 252.5 256 254.9 250.2 250.1 245.1 245.4 247.1 248.2 249.2 249.4 249.9 249.5 248.3 246.3 245.6 247.5 248.3 249.9 248.3 249.7 252 256.3 260.2 260.8 260.7 258.9 263.3 267.3 269.3 272.3 274.8 274.6 274.5 274.3 275.7 278 280.2 281 280.6 280.1 279.2 277.6 277.9 279.4 280.3 279.3 274.3 266.5 262.3 258.2 250.6 244.9 238.5 229.2 224.4 224.4 224.4 224.4 224.4 224.4 224.4 224.4 224.4 224.4 224.4 224.4 224.4 224.4 224.4 224.4 224.4 224.4 227.9 229.3 231.3 233.9 235.4 234.8 232.2 233.2
429 425.8 417.6 417.5 422.3 422.9 422.1 426.6 428.7 429.5 430.2 430.6 431 429.8 428.8 431.4 431.6 432.2 435.9 440.5 440.6 440.8 441.4 447.3 457.1 467.2 480.3 487.4 490.5 491.9 498 505.4 509.1 510.1 507.5 503.5 477.5 456.3 438.9 425.6 419.1 409.7 405.3 399.9 390.6 384.8 379 371.5 364.4 357.8 354.3 352.2 350 348.6 347.6 349.6 349.9 348.7 348.5 347.4 348.6 347.7 346.1 342.9 340 337.8 335.7 334.1 332.6 331 330.7 330.3 328.4 328.8 328.6 328 325.1 320.8 316.8 312.3 307.5 304.4 302 297 291.3 285.1 280.8 275.7 268.4 264.8 261.8 258.9 256.4 255.7 256.3 254.9 254.3 253.7 252.5 251.9 251.2 250.9 250.2 249.5 248.7 248.8 249.2 249.4 249.5 253.2 258.6 260 259.1 260.8 261.7 259.3 257.4 255.6 254 254.5 256 253.4 248.7 248.8 248.2 250.6 253.2 255.6 256.8 257.1 258 255.4 252.6 249.5 251.6 256.1 257.5 253.3 258.2 259.4 259.7 263.4 265.1 264.1 262.3 264.1 268.1 271 273.4 276.6 279.5 280.1 280.5 279.3 280 280.9 280.7 280.7 280.6 280.3 279 277.8 277.3 276.1 273.7 270.7 266.8 260.8 257 253.2 248.1 243.6 236.5 228.5 224.4 224.4 224.4 224.4 224.4 224.4 224.4 224.4 224.4 224.4 224.4 224.4 224.4 224.4 224.4 224.4 224.4 224.4 224.4 226.8 226.8 228.4 230.6 229.5 228.1 229.3
432.3 429.1 424.8 417.7 427.1 431.1 429.5 432 433.1 435.1 437.3 438.3 439 439.3 440 440.3 440.6 440.4 443 446.2 448.7 448.8 452.7 459.4 471.9 483.4 494.6 500.9 508.2 512.4 516.1 519.1 517.6 516.4 514.3 512 505.8 489.5 471.3 445.7 430.8 418.6 412 411.2 404.8 392.9 385.8 377.7 369.2 361.2 358.2 355.5 352.4 349.4 348.1 345.8 343.9 342.5 342.2 342.3 342.4 342.5 342.1 339.8 335.2 334.4 332.7 331.2 329.7 329.3 329.4 327.7 326.2 324.1 324.7 322.6 319.9 317.2 313.7 310.5 309.1 307 304.8 298 291.9 286.2 280.9 275.5 269.8 264.3 262.2 259.6 256.9 255.7 255.6 255 254.3 253.6 252.1 250.7 249.6 248.7 248.8 248.9 248.9 248.8 249.3 249.7 250.4 254.5 258.4 260.4 261.2 263.5 263.7 259.6 258.3 256.8 255.9 254.5 255.5 251.7 249.6 252 255.6 256.6 257.3 259.1 260.6 259.9 259.5 257.6 256.1 250.8 258.8 263.7 263.9 260.8 269.3 269.9 269.5 269.5 271.1 268.6 264.9 270.1 273.7 276.6 279.3 281.1 283.7 283.6 282.4 281.8 281.3 281.2 280.8 280.4 280.5 279.4 277.4 276.4 275.5 272.9 270.6 264.7 257.9 254.3 250.3 246.7 242.8 238.3 231.9 224.4 224.4 224.4 224.4 224.4 224.4 224.4 224.4 224.4 224.4 224.4 224.4 224.4 224.4 224.4 224.4 224.4 224.4 224.4 224.4 224.4 224.4 226.9 226.2 224.6 224.4 224.4
435.3 433.9 429.6 421.9 433.1 435 432.2 434.5 436.7 438.9 441.9 444.4 445.3 446.4 447 447.4 447.8 448 450.5 452.9 456.4 458.7 465.2 475 484.6 499.3 509 515.8 519.8 521.6 520.8 525.1 523.2 521 518.7 514.8 509.6 502.9 496.6 483.9 459.3 433.4 419 413.1 409.1 401.2 393.6 385.7 375.3 366.7 364.1 361 358.1 355.7 350.8 349.8 348.4 344.7 342.3 339.7 339.7 339.8 340.6 338.6 331.3 331.2 330.7 329.6 328.3 327.8 326.2 326.3 325.4 323.7 318.6 318 315.4 310.9 308.4 306.5 305 305.8 305 300.2 290.7 284.5 280.1 275.9 270.4 265.2 263.1 260.2 257.7 257.9 257.1 256.5 256 254.9 252 251 250.4 249.9 249.3 249.1 249.4 250.7 251.7 250.4 251.1 253.1 255.9 259.1 260.3 259.3 259.3 259.3 258.4 256.5 254.7 254.3 254.2 250.7 254.7 258 257.2 258.1 259.6 259.8 259.8 259.8 255.7 254.7 254.3 256.3 263.6 264 266.4 267.8 274.2 275.7 278 276.3 275.3 270 269.4 275.2 279.3 282.8 285.8 285.6 285.4 284.9 283.6 282 280.5 277.4 276.2 275.6 271.5 270.8 272 272.7 272 269.7 267.5 262.5 255.6 247.9 243.6 240.4 237.3 233.2 226.8 224.4 224.4 224.4 224.4 224.4 224.4 224.4 224.4 224.4 224.4 224.4 224.4 224.4 224.4 224.4 224.4 224.4 224.4 224.4 224.4 224.4 224.4 224.4 224.4 224.4 224.4 224.4
440.3 436.1 427 428.9 435.6 437.7 435.8 438.2 440.5 443 446.2 448.6 449.6 450.8 452.1 452.5 451.8 453.4 456 458.7 464.1 469.3 480.5 489.3 502 510.5 519.3 524.2 528.4 529 524.9 527 525.1 520.9 518.3 513.8 510 504.4 498.7 493.5 479.5 452.4 437.8 418.9 409.5 404.3 397.9 391.2 379.1 370.8 371.5 368.7 365.1 360.2 357.9 357.7 356.4 354.8 352.2 346.8 341.4 339.1 336 331.1 329.6 329.3 329.1 327.6 323.7 321.5 321.6 320.6 319.9 320.5 319 315.1 312.9 309.1 305.1 303.2 302.6 301.1 299.7 297.8 291.1 284.4 280.3 275.5 271.6 266.1 263.6 260.5 259.4 259.4 258.5 257.5 256.8 255 253.4 252.1 251.4 251.2 250.5 250.2 251.2 252.5 253.2 252.8 252.8 254 254.4 257.3 260 259.5 260.1 259.3 259.2 257.1 255.4 254.6 254.1 254.2 255.5 258.8 258.8 259.1 259.8 259.5 259 258.4 256.5 256 255.5 255.3 261.3 264.5 270.8 271.4 275.9 276.3 277.8 277.1 274.3 272.2 272.8 278.7 283.4 286.2 287.9 286 285.2 282 279.9 278.9 275.7 272.7 270.8 268.2 266.1 265 265.8 267.2 266.6 264.6 263 258.7 254.1 247.4 242 237.4 232.5 227.1 224.4 224.4 224.4 224.4 224.4 224.4 224.4 224.4 224.4 224.4 224.4 224.4 224.4 224.4 224.4 224.4 224.4 224.4 224.4 224.4 225.7 224.4 224.4 224.4 224.4 224.4 224.4 224.4
441.3 436.9 427.8 435.5 438.1 438.3 438.6 441.5 444.3 447.2 450.1 452.7 453.8 454.9 455.4 455.8 455.9 458.4 461.1 466 476 487.7 497.7 505.1 511.7 518.5 522.4 529.5 535.7 533.4 525.5 524.8 523.8 519.5 515.5 512.2 509.2 504.5 499.8 493.3 483.6 462.2 451.7 431.7 414.3 406 399.4 389.8 384.6 384.8 379.8 376 371.3 367.6 365.2 363 362 360.7 356 352 350.6 346.3 339.1 336.6 332.8 332.5 329.2 331.6 330.7 329 327.6 326.2 323.9 321 311.7 310.6 308.3 302.9 299.7 297.2 298.1 297.1 295.2 293.5 289.4 285.9 281.2 275.4 273.9 269.5 264.7 262.2 260.9 259.6 257.4 257.5 256.9 255.1 254.2 254.4 252.9 253.1 252.5 252.3 253.4 253.7 253.8 253.9 254.1 255.5 255.3 256.3 258.5 259.7 260.6 260.6 259.4 258.6 258.7 258 255.8 257.2 257.6 259.6 260.5 260.7 260.8 260.4 259.9 259 257.7 258.4 260.8 262.3 262.3 264.6 270 271.9 274.7 274.4 276.1 277.1 276.9 277.7 279.1 281.9 285.3 288 289.2 288.8 288.3 286.8 284 277.8 274.5 271.3 267.9 263.7 262.5 262.1 262.3 261.6 259.3 259 258.3 254.3 249.4 245.6 240.6 234.7 230.3 224.4 224.4 224.4 224.4 224.4 224.4 224.4 224.4 224.4 224.4 224.4 224.4 224.4 224.4 224.4 224.4 224.4 224.4 224.4 224.4 224.4 224.4 224.4 224.4 224.4 224.4 224.4 224.4 224.4
441 430.5 439.6 440.8 440.8 438.2 440.2 443.6 446.9 450.1 452.7 455.7 457.6 458.2 459.2 461 461.5 464.4 473.8 485.1 495.4 502.7 509.5 514.1 518.9 522.1 526.8 531.4 534.1 531.4 526.9 523.1 520.3 516.4 512.5 509.9 506.7 502.5 497.6 491 479.8 461.4 448.7 432.6 421.6 408.4 400.3 401.7 399.4 395.1 388.1 382.7 377.4 373.4 370.6 367.7 364.1 362.4 358.4 355.6 353.7 350.6 348.2 345.5 343.2 340.6 339.5 337.4 333.8 333.8 332.9 331.1 329.2 327.2 324.4 320.3 315.2 311.1 308 305.7 299.1 295 288.8 280.8 286.8 285.9 282.9 276 271.2 268.5 265 263 260.4 259.7 260.7 260.7 259.2 255.1 255.8 255.8 255.3 255 253.5 254.1 255.3 254.9 254.5 255.2 255.2 255.4 256.2 257.3 258.9 260 261 260.1 259.3 259.5 260.1 260.6 260.3 259 259.7 261.1 262.4 262.9 263.3 263.4 262.9 262 263.3 264.6 267.4 271.1 270.5 270 271.4 275.2 275.9 277.6 279.4 280.4 281.8 283.4 284.7 285.8 286.4 288.2 290.8 293.9 295.6 293.9 290.1 283.5 281.2 276.4 270.9 266.5 263.1 258.3 258 253.8 254.9 255 252.6 249 244.6 241.7 237.4 233.1 228 224.4 224.4 224.4 224.4 224.4 224.4 224.4 224.4 224.4 224.4 224.4 224.4 224.4 224.4 224.4 224.4 224.4 224.4 224.4 224.4 224.4 224.4 224.4 224.4 224.4 224.4 224.4 224.4 224.4
435 440.7 444.2 445.8 444.6 439.3 442.1 445.2 448.7 452.3 455.4 462.1 466.8 466 466.3 468 468.5 476.3 490.8 499.9 506.4 509.8 517.6 522.3 523.3 526.6 530.3 533.1 534.1 529.5 527.1 523.2 518.8 513.5 509.7 506.5 501.7 497.2 491.6 483.6 476.5 467.6 448 441.5 433.2 410.2 416.4 412.7 409.4 404.5 396.7 389 384.2 380 375.7 371 367.4 364.6 361.2 358.3 355.6 353.4 349.8 346.7 342.3 343.5 345.5 343 341.6 340.3 340.1 337.8 335 333.1 329.2 325.9 322.8 317.9 312.9 308.8 305.5 301.1 295.5 289.3 284 277 283.7 278.5 273.1 269.2 265.5 262.7 263.6 263.2 263.7 263.2 258.8 256.7 259.5 259.8 258.9 255.6 254.5 254.9 256 255.6 255.7 256.4 256.9 257.5 257.3 258.3 259.5 260.3 261.3 260.6 259.6 259.8 260.5 260.8 260.5 260.3 261.1 262.3 264.8 266.3 267.4 267.9 266.6 266.7 268 272.4 278.4 280.7 282.4 282.1 282.8 282.8 283 284.3 285.7 285.5 287.6 289.2 290.4 291.5 291.1 290.8 292.3 295.2 295 293.6 290.2 285.7 280 276.1 272.6 269.8 267.5 259 256.5 252.9 244 246.9 247.8 244.2 241.4 237.5 232.7 228.4 224.4 224.4 224.4 224.4 224.4 224.4 224.4 224.4 224.4 224.4 224.4 224.4 224.4 224.4 224.4 224.4 224.4 224.4 224.4 224.4 224.4 224.4 224.4 224.4 224.4 224.4 224.4 224.4 224.4 224.4
446.1 448.9 452.2 452.4 450.1 446.1 444.9 448.2 453.7 458.3 463.9 470.7 475.6 478 481 482.2 484.9 493.3 499.3 504.3 508 516.4 525 526.6 527.6 530.6 534.9 536.9 533.3 530.4 525.5 522.8 517.6 514 511.1 507.7 501.8 496.4 490.6 484.1 476 468.7 451.7 438.8 427.2 428.5 426.5 423.9 417.7 411 404.4 398.1 393.4 389.5 385.2 380.8 375.5 371.6 367.7 363.5 360.6 357.2 354.3 352.1 350.1 350.1 348.8 349.4 350.5 349.3 348.2 347.2 342.6 339 335.7 331.5 327.7 322.3 318.1 313.8 308.2 303.4 298.1 292.9 288.6 285.2 276.9 278.3 274 266.2 268.8 266.9 264.9 264 263.4 262.3 259.7 257.8 259.3 262.1 260.4 257.3 256.2 255.9 256 256.8 257.6 258.5 259.1 259.6 259.8 259.3 260.1 260.8 261.6 262.4 262.6 261.7 260.8 261 261.6 263.1 264.1 266.2 269 271.1 272.5 274.3 272.1 271.7 275.5 280.1 284.3 287.8 290.6 290.8 288.6 288.9 289.6 291 292.4 292.4 293.5 295 296.1 297 296.2 295.3 294.5 294.6 294.6 293.4 289.5 285.2 283.5 280.6 278.2 269.2 264.2 260 257 255.4 251.9 239.8 237.7 240.3 237.1 233.6 229.4 225.5 224.4 224.4 224.4 224.4 224.4 224.4 224.4 224.4 224.4 224.4 224.4 224.4 224.4 224.4 224.4 224.4 224.4 224.4 224.4 224.4 224.4 224.4 224.4 224.4 224.4 224.4 224.4 224.4 224.4 224.4
453.7 459.2 459.6 459.2 457.4 454.6 453 450.3 458.9 464.6 468.8 472.8 477.9 484.3 490.9 494.3 496.3 503.8 504.6 508.2 515.4 520.9 525 528.5 530 532.8 532.7 536.1 532.6 529.3 528 525.2 518.2 512.5 506.8 501.6 496.9 493.3 488.7 482 473 464.6 445.9 440.8 442.5 442.7 439.4 434.8 427.2 420.7 414.7 409 404.7 400.9 396 390.9 385.7 381.1 377.8 373.7 369.1 363.7 360.7 359.7 357.6 359.3 360.1 360.3 359.7 360.5 358.4 356.9 352.8 346.9 342.2 336.5 330.7 324.7 319.6 315.8 310.9 305.4 299.8 294.6 290.7 286.9 282.9 278.9 276.3 273.1 271.9 268.9 266 264.8 263.9 262.6 260.3 259.3 259.5 261.9 260 258.8 258.2 257.6 258.5 259.4 260.3 261 261.6 262.1 262.8 261.8 261.5 263 263.1 263.8 265.3 265.4 264.5 263.5 264.3 265.8 267.7 270.7 274.5 279.1 281.6 282 279.4 277.5 283.1 288.3 291.5 292.6 294.7 294.6 294.2 294.9 295.5 297.3 298.6 299.3 299.9 301.2 301.4 302.5 301.3 300.2 297.8 296.3 294.1 293.7 291.7 288.4 285.4 280.6 278.1 268.3 261.4 257.3 253.4 252.1 251.9 243.5 234.9 232.8 233.6 231.4 229 224.4 224.4 224.4 224.4 224.4 224.4 224.4 224.4 224.4 224.4 224.4 224.4 224.4 224.4 224.4 224.4 224.4 224.4 224.4 224.4 224.4 224.4 224.4 224.4 224.4 224.4 224.4 224.4 224.4 224.4 224.4
463 465 465.4 464.9 463.5 460 459.4 452.7 461.6 465.3 469.6 473.3 480.6 487.8 492.5 497.7 501.2 506 509.8 516.1 519.8 523 523.6 526.2 529 531 533.6 533.5 530.7 529.9 525.9 522 520.4 517.9 509.7 498.8 494.1 490.3 484.9 479.6 473.6 468.2 461.5 459.6 459.8 458.3 454.7 445.6 436.9 431.8 425.8 421 416.7 411.7 405.2 399 394.3 390.4 386.4 382.5 377 373.1 370.3 368.7 369.3 369.6 369.7 369.1 369.6 370.1 369.1 369.3 365.9 359.3 351.3 342.6 334.2 326.5 321.9 317.6 313.1 308.2 301 296.5 292 288.1 283.8 280.5 276.7 273.3 271.6 268.5 267.5 266.4 265.6 263.1 259.5 260 261.9 261.6 260.9 260.9 260.8 260.3 261.6 262.2 262.8 263.6 264.2 265 265.8 265.4 265 264.5 265.1 266.9 268.5 268.4 269.4 271 271 270.3 273.6 278.6 283.9 287.2 288.3 288.4 289 286 292.6 295.5 297.9 298.2 298.4 298.8 299 299.8 301.7 303.7 304.9 305.4 305.5 306.6 307.5 307.9 306.9 305.1 302.4 300.4 300.7 298.1 294.5 291.3 286.4 282.5 277.9 270.7 262.9 264.1 257.7 249.8 249.1 244.7 237.8 231.4 228.7 229 226.3 224.4 224.4 224.4 224.4 224.4 224.4 224.4 224.4 227.6 226.4 227.2 226.5 228.1 227.9 224.4 224.4 224.4 224.4 224.4 224.4 224.4 224.4 224.4 224.4 224.4 224.4 224.4 224.4 224.4 224.4 224.4
468.5 470.2 471.3 470.6 468.7 466.8 464.1 457.6 461.2 464.4 468.3 472.8 479.3 486.3 495 500.4 505.2 506.6 510.2 513 517.1 521.8 523.4 526.8 529.2 530.8 531.3 531 529.3 527.2 525 521.2 518.9 514.6 508.1 501.8 493.1 487 483.2 481.5 478.6 470.2 465.8 464.8 465 461.6 456.7 453.1 446.9 440.9 434.9 431.6 426.6 420.2 413.7 407.3 402.2 398.3 393.2 388.3 384.6 380 379.1 378.3 378.4 377.6 377.5 377.2 378.1 379.8 380.4 377.6 373.9 368.1 358.9 348.7 341.2 333.4 326.6 320.6 314.7 309.7 304.5 298.7 293.2 289.6 285.9 281.2 278.5 274.6 272 269.6 268.8 268.3 267 263.1 261.2 263.7 265.3 263.8 263.2 263.7 264.6 264.9 266.3 266.7 267.2 267.6 268 268.3 268.8 269 267.7 265.4 267.4 270.4 274.2 274.5 276.3 278.8 279.3 278.3 282.1 287.9 291.4 293.2 294.9 294.8 297.2 295.4 299.3 301.7 303.6 304 304.1 304.1 304.7 306.2 308.9 310.1 310.9 311.2 311.1 311.1 312.2 313.2 311.8 309.2 305.5 302.8 301 300.9 296.8 290.7 285.1 281.3 277.6 276 274.1 271 265.5 251.5 244.2 242.2 238.9 232.4 229 226.4 224.6 224.4 224.4 224.4 224.4 224.4 224.4 227 231.2 235.5 235.4 232.2 234 235.1 231.3 229.2 224.4 224.4 224.4 224.4 224.4 224.4 224.4 224.4 224.4 224.4 224.4 224.4 224.4 224.4 224.4 224.4
472.8 474.4 475.7 475.4 473.6 471.4 468.2 464 458.5 463.8 467.3 470.7 476.9 484.1 493.9 500.1 503 504.6 508.1 510.8 515.9 518.6 523.4 525.2 529 530.1 532.6 533.2 533.8 533.7 531.2 525.9 519.6 512 506 501.5 494.6 492.6 489.1 485.2 480.7 475.4 473.4 473 468.6 464.1 462.3 459.2 453.9 447.6 440.9 437.4 432.3 425.1 418.6 414.2 409.8 405.1 399.4 395.1 390.2 387.7 386.3 384.8 384.3 384.2 384.9 385.8 386.5 387.3 387.2 384.6 380.5 373 363.3 353.8 345.1 338 330.4 321.8 317.1 312.5 306.9 302 296.1 290.9 286.6 282.8 279 275.9 273.1 270.6 269.6 269.5 267.6 264.8 265.4 268.8 268.8 267 266.7 267.9 268.9 269.9 270.9 271.4 271.8 272.2 272.6 272.8 272.8 274 269.4 267.9 274.1 278.6 281.9 282.1 281.9 284.7 287.4 287.9 289.3 294.6 296.9 298.2 299.9 301.2 302.3 303 305.7 307.9 308.3 309.9 311 311.4 312.6 313.2 315.4 316.5 317.7 317.9 318.4 317.4 317.5 317.4 316.4 313 309.8 307 301.9 295.4 291.7 292.6 286.5 282.2 276.2 276.1 274.9 271.7 267.9 261 254.4 240.8 235.6 231.9 227.7 224.4 224.4 224.4 224.4 224.4 224.4 224.4 227.4 229.7 233.1 235.6 235.7 235.6 234.5 234.2 230.8 229.2 225.6 224.4 224.4 224.4 224.4 224.4 224.4 224.4 224.4 224.4 224.4 224.4 224.4 224.4 224.4 224.4
476.9 479.8 480.8 479.5 477.2 475 470.6 467.3 465.2 461.1 466 470.2 475.7 481.4 488.7 493.8 497.8 499.8 505 510 515.2 518 522.8 526.4 531.6 534.8 536.7 536.8 536.8 535.3 534.8 528.8 523.8 516 506 504.1 503 499.6 495.9 489.1 481.8 481.8 481 479.5 475.8 471.1 468.9 464.4 460.4 452.7 447.2 443.3 435.5 428.5 424.1 419.2 413.1 409.1 404.3 400.1 396.3 393.3 391.3 390.1 389.8 390.5 391.6 392.5 393.2 393.3 391.9 387.8 381.5 374 366 354.5 346.1 339.1 331.5 323.9 319.3 314.5 309 303.7 299.2 293.2 288.5 284.1 279.5 277.5 275.3 273.6 272.3 271.7 269.9 265 269.1 270.6 269.8 270.4 270.7 271.5 273.1 274.9 275.6 276 276.4 276.8 277.1 276.7 276.7 275.9 271.7 271.2 281.2 286.6 289.1 289.7 289.5 292.6 296 296.4 295.9 299.4 300.4 302.9 305.4 306.8 308.4 309.3 310.5 313.2 315.3 316.3 317.3 318.8 320.2 320.7 321.9 323.1 325.1 325.5 326.2 325.4 322 321.9 321.2 319.7 318.9 316.4 311.5 305.3 298.4 290.5 287.4 284.3 279.5 274.7 270.1 268.7 266.6 263.4 258.4 249.7 236.4 229.4 228.9 228.1 226 224.4 224.4 224.4 224.7 227.5 229.7 231.9 234.1 233.6 233.8 232.9 231.7 230.7 228.8 226.3 224.4 224.4 224.4 224.4 224.4 224.4 224.4 224.4 224.4 224.4 224.4 224.4 224.4 224.4 224.4 224.4
481.2 483.5 483 482.1 480.8 477.9 472.9 471.6 471.6 469.8 465.3 471.4 477.4 480.6 485.3 489.4 495.5 501.4 506.5 512 517.9 524.5 527.8 531.2 535.5 538.1 539.6 539.8 538.2 536.9 534.8 530.2 526.2 519.1 514.1 510.6 508.7 506.5 500.5 493.1 488 486.6 485.1 482.7 477.4 474 471.7 469.1 465.3 460.3 452.8 445.6 439.5 431.7 428.1 421.8 416.4 412.2 407.6 404.2 401.1 397.6 396.1 395.9 395.4 396.8 397.3 398.1 399.4 398.6 394.9 390.3 384.2 375.3 365.4 355.9 347 338.9 331.1 327.4 321.9 317 311 305 299.8 294.6 289.7 284.5 281.3 279.3 278.7 277.3 276 273.9 267.6 268.3 272 272.2 273.5 274.4 275.2 276.5 278 279.6 280.3 280.6 281 281.4 280.8 280.5 279.5 277 274.4 277.5 288.2 293.5 297.2 301.5 300.9 301.4 302.9 303.9 303.4 303.4 306 308.6 311 312.6 314.4 315.8 316.5 318.2 319.6 321.4 323.4 325.1 326.6 327.7 329.1 331 331.5 332.4 332.7 332.2 330.2 328.7 327.7 326.6 323.9 321 318.4 314 307.3 300.4 293.3 282.3 278.1 276.3 272.2 262.2 260.1 259.3 257.1 253.1 243.6 236.7 228.9 228.9 227.4 230.2 230.7 229.3 230.2 234.6 232.8 233.2 233.9 232.1 231 230 229.1 228.8 226.3 224.4 224.4 224.4 224.4 224.4 224.4 224.4 224.4 224.4 224.4 224.4 224.4 224.4 224.4 224.4 224.4 224.4
480.6 481.4 481.8 482 481.6 480.6 477.6 476.4 478.1 478.8 475.7 470.2 479.5 484.3 487.2 492.2 496.5 503.2 509.6 517.9 522.7 528.9 533.1 535.4 538.3 538.3 539.5 539.1 538.9 537.2 534.2 532.1 529.9 527.6 524.6 522.5 517 512.9 508.4 500.3 497.9 495.4 493.4 490.4 485.7 478.9 474.3 471 466.5 463 457 450.5 443.4 433.7 427.4 424 419.9 414.7 410.9 408 406.6 403.8 402.4 401.7 401.5 401.9 402.8 403.7 403.6 400 396.4 391.4 385.9 376.5 366.4 357.4 349.4 340.3 333.8 330.2 323.5 317.9 311.9 305.4 299.6 295.8 291.5 287.7 283.5 281.2 280.2 278.6 277.2 274.3 267.1 271.4 274.5 275.8 277.5 279.1 280.9 283.8 284 283.9 285.2 285.5 285.9 285.2 284.3 283.8 280.8 279.4 274.3 286.5 296.7 302.7 308.9 315.2 318.1 316.4 313.6 313.9 312.5 311.6 313.6 315.9 317.1 320.3 322.9 323.3 323.2 322.9 325 327.6 329.7 331.4 332.9 335.8 337.5 339.6 340.7 340.8 339.7 337.7 336.6 335.3 333.9 332.4 329.6 326.8 323.9 319.6 314.9 307.1 300.8 294.9 281.3 273.9 268.5 263.7 255.9 254.2 254.9 251.9 244.7 236.9 229.8 232.5 230.2 236.4 237.1 236.8 235.3 235.6 236.9 237 234.4 230.7 229.7 228.3 227.4 224.4 224.4 224.4 224.4 224.4 224.4 224.4 224.4 224.4 224.4 224.4 224.4 224.4 224.4 224.4 224.4 224.4 224.4 224.4
478.3 479 480.6 482.4 482.1 481.9 482.8 481.8 482.7 483.5 481.8 477.3 481.4 485.8 489.5 493.7 500.1 507.4 514.9 521.7 527.7 530.3 533.1 534.2 536.5 537.9 538.9 538.9 539.5 538.2 537.9 536.8 534.5 533 529.9 527.1 522.7 518.3 512.9 510.5 509.5 505.9 505.7 503.5 501.7 496.3 485.6 476.4 468.6 463.6 458.7 452.7 447 439 430.5 427 422.8 417.8 414.2 412.2 409.5 408.1 407.5 406.6 405.6 405.9 406.7 406.1 403.1 400 396.2 391.1 383.9 375.3 367.7 358.3 349.9 341 334.1 329.1 323.5 318.8 313 307.5 303.2 299.6 293.9 290.5 285.6 283.1 281.6 279.7 277 271.8 269.1 273.2 277.6 279.6 281.9 284.5 287.1 289.4 289.5 288.1 291 289.8 288.2 286.8 286.4 285.9 282.3 278.4 280.3 294.4 304 311.3 323.3 330.3 330 326.7 321.9 322.7 321.3 320.3 322.1 322.7 324.9 327 329 329.5 329.1 327.8 330.8 333.8 336 337.7 340.6 343.9 347.6 349.5 353.1 354.6 356.6 350.6 347.7 343.9 341.3 338.1 335.4 332.5 329.2 325 319.2 312.3 306.7 299.9 292.8 282.8 272.1 260.2 251.9 246.2 248 247 243.4 234.3 234.7 236.3 235.8 238.2 239.9 239.4 236.9 238.4 240.8 241 238.1 233.9 228.7 228.3 226.2 224.4 224.4 224.4 224.4 224.4 224.4 224.4 224.4 224.4 224.4 224.4 224.4 224.4 224.4 224.4 224.4 224.4 224.4 224.4
477.8 480.1 480.5 482.3 483.9 484.3 485.4 486.1 486.6 487.5 486.4 485.2 480.6 486.7 491.3 497.4 505.5 512.5 519.2 523.4 528.3 531.8 533.9 534.8 537.1 537.2 538.4 540.4 541.2 541.9 541.5 540.7 538.3 537 534.8 533.4 530.2 526.8 522.8 518 515.6 514 512.8 510.9 506.3 502.5 497.2 488.9 480.9 474.1 466.1 456 446.5 441.2 436.2 431.8 427.6 421.6 417.3 414.3 412.5 411.3 410.8 410 410.3 409.6 409.6 408.2 404.9 401.1 396.1 391.2 383.4 376.7 369.6 359.5 351.6 344.9 337.7 330.2 325.6 321.4 315.7 310.3 306 300.3 296.5 292.9 287.8 285 283.1 280.8 274.9 270.8 276.2 281.6 282.2 284.2 286.1 287.7 290 292.1 291.8 293.2 292.9 292 290.1 288.7 287.9 286.4 282.7 277.8 284.3 296.9 306.6 315.6 328.6 336.2 335.6 331.6 328.5 329.1 327.6 326 326.3 329 332.3 333.6 334.6 335.5 335.9 334.3 337.3 340.3 343.1 346.5 350.5 355.2 359.1 363.5 367 369 369.2 366.8 362.7 354.2 349.4 346.1 340.9 336.6 334.3 329.7 323.2 316.3 308.8 303.6 295.7 287.8 278.8 267.7 259.2 249.6 244.4 241.9 239.4 235.6 236.4 238.3 239.1 240.5 240.2 239.2 237.8 239.1 241 241.2 241 238.7 231.9 229.1 225 224.4 224.4 224.4 224.4 224.4 224.4 224.4 224.4 224.4 224.4 224.4 224.4 224.4 224.4 224.4 224.4 224.4 224.4 224.4
478.6 479.9 480.1 483 485.2 487.3 488.9 488.3 490.1 491.1 491.2 489.6 487.2 489.1 495.5 502.3 507.4 512.3 517.5 521.7 526.2 528.9 531.4 533.8 534.4 536.8 540.9 543.1 543.6 545.1 545 545.5 544.6 544.4 542.1 540.3 537.7 534 530 526.2 522 520.2 518.2 515.7 513.1 506.8 500.2 492.2 484.3 478.5 472.2 460.6 449.8 443.6 438.8 434.8 430.4 424.3 420.1 417.1 416.1 414.9 413.2 413.4 412.7 411.9 410.3 407.1 402.3 397.9 393.1 388.5 383.1 376.3 369.8 360.3 355.1 347.1 340.1 333.3 328.2 324.1 317.9 311.7 307.1 302.6 298.6 295.2 291.1 288.2 285.3 280.1 274.1 274.9 280.2 287.5 287.4 288.7 290 292 293.9 296.3 297 297.4 296.7 296.1 294.7 292.7 290.3 287.7 285.8 281.7 281.8 292.4 306.3 316.9 327.7 334.8 334.7 334.1 335 335.8 334.5 333.9 335 337.3 339.1 340.3 341.1 341.9 341.8 339.3 343.7 347.4 351.8 357.3 362.1 367.5 372 376.3 378.5 379.6 380.5 379.2 375.3 372.1 364.2 353.7 347.7 342.1 337.2 333.4 326.8 317.7 310.4 304.5 297.4 288.6 279.8 268.7 261.8 257.6 248.3 243.1 239.8 238.8 238.1 239.2 239.6 240.1 239.2 239.9 238.1 235.5 237.3 239 240.9 240.2 234.5 228.3 225.2 224.4 224.4 224.4 224.4 224.4 224.4 224.4 224.4 224.4 224.4 224.4 224.4 224.4 224.4 224.4 224.4 224.4 224.4 224.8
479.9 483.3 485 490.1 490.3 492.8 493.4 492.8 494.1 495.3 495.4 494.8 492.8 494.4 498.4 503.3 509.1 512.8 514.5 518.1 522 524.9 528.6 531.3 535.3 539 542.4 544.1 545.6 546.3 547.7 548.5 547.5 547.1 546.9 546 543.6 540.8 537.2 533.8 528.6 524.1 523.1 521.6 518.3 511.5 503.7 495.6 485.5 477.5 471.8 464.6 451.8 443.6 439.8 436.8 433.1 427.8 423.4 419.4 417.3 415.7 414.5 414.7 413.5 411.9 409.3 405.7 401.8 396.4 393 388.7 383.6 376.9 367.9 360.2 354 347.6 341.4 336.6 332.1 326 319.5 312.5 307.8 304.5 300.6 296.9 293.3 290.1 285 277.2 275.7 282 286.5 288.6 290.4 291.3 293.5 296.6 298.5 300.7 302.4 303.7 302.8 301.6 300 297.6 294.3 292.2 290.8 287.8 281.6 292 301.8 316.4 326.5 332.7 336.3 340.5 344.3 346.7 345.4 346 346.5 346.3 345.9 346.8 347.6 348.8 348.9 345.8 350 355.7 361.4 367.1 372.7 380.4 386.7 392.2 394.3 395.3 391.9 390 389.9 384.7 376.8 368.8 357.1 348.2 341.7 335.7 328.3 319 311.8 305.3 298.6 292.3 286.5 277.5 267.3 258.3 253.2 247.5 243.7 241 239.4 240.2 241.9 241.5 241.6 241.6 240.2 238.6 236.2 234.9 234.7 236 232.7 229.2 225 224.4 224.4 224.4 224.4 224.4 224.4 224.4 224.4 224.4 224.4 224.4 224.4 224.4 224.4 224.4 224.4 224.4 224.4 226.6
485.7 488.6 491.8 495.4 497.9 499 498.9 499.3 500.1 498.3 498.7 498 497.2 500.5 502.6 502.7 507.5 507.8 511.9 515.5 520.1 522.1 527.7 532.2 535.5 538.8 541.6 544 546.1 547.6 548.8 548.7 548.1 548.5 548.3 548.1 546.4 543.2 540 536 529.8 525.8 524.5 523.4 519.4 512.6 504.1 494.4 485.2 476.8 469.7 464.7 454.1 444.6 439.7 436.1 432.7 427.6 422.7 419.2 416.8 414.5 414.8 413.6 411.9 409.4 406.4 403.7 400.6 396.4 392.2 388 383.1 375.5 368.1 360.1 354.6 349.4 344 338.5 333.6 327.4 321.1 315.2 310 305 302.6 298.5 295.2 290.6 281.2 276.1 279.5 287.8 291.4 292.1 293.1 294.4 296.9 299.9 304.6 307.6 309.3 310.8 310.1 308.7 306.6 303.8 300.2 298 296.3 293.8 290.4 288.8 296.9 314 326.5 333 340.7 347.5 354.8 359.8 367.2 370.2 369 365.4 359.3 353.1 354.7 358.6 357.9 354.9 357.3 364 369.9 377.5 385.8 393 398.8 405.5 410 412.2 408.8 403.4 401.9 398.9 392.7 386.5 374.5 359.1 347.1 338.8 329.5 320.2 312.8 306.5 300.2 294.7 289.6 282 274.5 268.7 261.5 254.6 247.6 243 241.4 240.6 243.6 245 245.4 244.4 242.8 241.1 240.3 238 234.8 229.5 229.4 226.8 225.3 225.9 225.7 224.4 224.4 224.4 224.4 224.5 227.1 225 224.4 224.4 224.4 224.4 224.4 224.4 224.4 227.7 228 229.9
491.5 494.5 497 500.2 502.8 503.8 503.7 504.6 505.1 505.4 505.6 504.2 504.6 506.6 506.6 507.8 509.5 511.9 514.7 515 517.9 523 527.5 532 534.9 537.8 539.6 542 544.3 545.6 547.6 548.1 547.7 549.5 549.5 547.7 545.1 542.9 539.9 534.8 529.1 525.1 522.3 519.9 514.9 509.3 501.8 491.8 482.5 475.9 467.4 460.8 453.2 445 439.3 436.8 432.8 427.1 421.6 417.6 414.1 411.8 412 410.7 408.3 406 402.7 400.2 397.7 393.7 389.9 385.4 380.7 374 366.2 358.6 352.8 348.9 343.7 337.7 334 328.7 322.2 317.1 312.1 306.5 302.8 299.1 296.5 291.1 283 280.5 279.7 290.9 294.8 294.3 296.1 298.2 300.6 306.4 311.4 315 317 318.3 317.2 315.8 313.2 309.6 306 303 301 298.2 296.2 286.5 301.1 312.9 325.2 335.4 343.8 353.3 363.2 372.1 383.3 397.2 393.5 390.5 380.1 371.6 368.5 367.9 364.8 362.2 363.2 367.9 373.6 382.4 390.6 400 410.1 419.2 424.8 429.2 432.2 428.4 423.3 417.7 412.3 404.9 393.9 375.5 364.1 347.2 335.5 323.6 314.3 308.7 301.9 297.3 291.2 283.7 276.2 270.6 264.5 257.8 251.4 247.1 244.1 243.1 247.3 250.6 250.3 246.5 245.3 243.6 242.1 240.8 238.4 237 233.3 232.5 232.2 230.1 230.4 228.1 228.3 226.4 225.7 228.3 227.7 228.6 225.3 224.4 224.4 224.4 224.4 226.2 228.2 229.4 231.3 233.2
494.5 497.3 500.8 504.5 506.6 507 507.3 508.8 510.3 510.4 510.4 511.3 509.7 509.3 511.3 512.2 512.5 514 517.1 519.6 521.5 524.8 528 530.9 533.6 535.9 538 538.9 541.7 543.4 544.6 545.2 546 548.8 550 549.3 546.4 541.8 538.6 535.3 531.3 526.3 519.3 512.7 510.2 504.8 496.4 488.2 480 472.6 464.7 459.3 453.9 448.5 442 436.2 433.4 427.1 420.2 415 410.9 407.9 406.4 404.9 402.5 400.4 398 396.1 393.8 389.8 386.3 382 377.2 371.6 364.5 356.4 351.4 348.1 343.4 337.2 331.9 328.2 323 318.3 312.4 308.4 304.4 300.8 296.9 295.3 289.8 287 278.5 291.1 294.7 296 298.7 301.6 306.3 312.6 319 322.4 324.8 325.6 324.6 322.1 318.6 315.3 311.8 308.3 305.2 302.5 300.2 288 298.7 311.3 322.7 336.4 348.1 358.2 369.2 378.9 387.8 398 395.2 391.3 385.2 380 376.1 374.6 369.5 368.2 367.7 371.1 373.6 381 393.7 404.8 417.2 426.4 429.7 434.7 440.3 439.5 437.7 437.6 434.3 424.5 415.5 392.7 371.9 357.1 344.6 333.4 319.2 310.4 303.7 298.1 291.3 283.3 277.8 272.1 266.1 259.6 253.6 249.7 246.3 244.3 246.7 250.2 249.7 247.5 246.6 245.7 244.3 242.6 239.4 240.8 239.7 237.5 235.9 233.4 230.7 230 229.3 226.8 228.3 230.8 230.1 229.4 228.1 224.4 224.4 224.4 225.1 228.2 231.2 233.4 234.7 236.6
497.6 501.1 505 507.3 509.4 508.9 510.9 512.4 513.8 514.4 513.8 514.8 513.6 513.8 514.8 515.2 515.6 514.8 518.8 520.6 521.6 523.9 527.2 529.7 532 533.7 535.2 536.5 537.9 540.3 542.3 543 544.6 545.8 547.3 549.8 548.3 544.1 541.4 536.4 532.2 528.8 521.7 513.1 506.4 501.3 495.9 488.5 479.1 467.9 463 459.2 452.8 448.2 441.8 432.8 430.5 424.2 416.6 411 406 401.8 399.6 398.3 396.3 394.5 392.7 390.9 388.5 385.4 381.9 378 374 367.7 361.4 353.2 349.6 347.2 343.9 339 332.7 328 322.7 317.9 312.9 309 306.3 302.7 302.5 299.1 293.4 285.8 282.2 290.5 294.2 297.4 302.1 306.4 312.5 319.3 325.1 329.5 332.3 332.7 331.6 327.1 323.3 320.4 317 313.3 309.7 307 303 288.5 300 308.1 319.1 333 347 361.4 371.8 382.8 391.3 396.2 397.9 395 393.7 393.3 386.3 379.7 374 373.1 370.7 368.4 370.7 368.3 385 399.5 412.3 422.3 427.5 435.3 440 442.6 439.6 440.3 438.4 428.7 419.2 406.4 381.9 362.9 349.2 336.4 323.4 313.2 305.1 298.9 291.8 283.9 278.6 273 267.3 261.1 256.1 252.2 249 246 244.7 247.6 248.8 247.9 246.8 246.1 245.3 243.3 241.5 244 243.3 238.9 237.4 235.4 232.1 229.4 228.1 227.7 230.6 233.3 233.9 230 226.6 226.4 226 229 229.9 231.8 234.6 237.5 238.7 239.9
502.2 505.5 508.4 510.2 512.1 511.4 513.2 515.3 516.7 516.7 514.6 514.7 515.5 515.1 515.5 516.1 516.1 517.3 519.4 520 522.3 523.1 524.7 526.3 528.8 530.5 532.2 532.4 535.7 538.6 539.7 541.6 542.9 545 548.4 550.9 549.3 548.1 543.4 539 534.1 529.7 524.1 515.8 507.8 502.2 497.4 488.8 477.6 469.9 463.6 457.2 452.8 449.9 440.9 434.2 422.9 417.8 413.4 408.4 402.5 398.7 391.8 392.2 391.2 389.3 387.6 384.9 382.8 380.4 377.7 374.6 370.7 363.1 355.8 349.7 346.6 343.9 341.2 337.5 332.4 327.8 321.9 317.3 313 309.5 307.5 305 303.1 298.9 295.8 287.5 287.1 292.8 295.9 300.7 306.2 310.9 318 325.8 331.2 336.1 338.3 339 337.4 333 328.2 325.1 321.9 318.3 314.3 309.7 305.6 290.9 298.9 305.8 316.6 329 345.2 360.1 372.7 384 396.1 404.3 403.9 405.8 404.8 400.4 392.8 388.1 380.7 377.3 374.8 371.8 365.4 357.8 361.3 383.4 397.8 410.4 418.4 428.9 436.7 438.8 440.2 440.9 440.3 433.2 420.4 408.1 388.3 364.5 349.2 335.6 322.3 312.9 305.8 299.2 292.2 284.5 278.7 273.2 267.7 262.5 258.5 254.7 251.5 248.4 246 246.8 249.2 249.4 249.4 247.8 246.2 244.3 244.4 245.4 242.6 238.6 237 236.4 233.3 229.2 228.9 230.2 233 236.1 236.2 229.2 228 229.1 231.4 233.8 238.3 240.1 239.6 241.7 243.2 243.8
507.1 509.1 511.4 513.5 514.1 513.7 514.6 516.4 517.6 515.1 514.8 515.6 515.3 515 514.2 514.3 516.1 516.8 518.5 519.6 521.1 521 522.5 523.9 525.5 527.5 529.5 531.5 534.4 535 537.3 540.7 543.9 547.5 549.6 550 550.3 549.9 546.2 541.6 535.4 529.2 523.5 516 508.2 500.3 495.8 487.7 478.6 469.5 462.3 457 452.7 448 440.6 434 426.7 416.9 405.9 406.3 399 392.9 388.7 385.9 385.9 384.1 382.4 380 377.5 376 374.1 370.7 365.7 358.4 351.2 346.9 344.5 341.9 339 335.7 330.8 325.6 321.5 316.7 312.4 309.7 307.7 306.1 303 299.3 296.8 292.1 291.4 295.7 299.7 304.4 310.4 315.6 323.5 330.7 335.5 340.5 343.3 345 342.7 338 333 330.1 327.2 322.2 317.8 313.5 308.8 297.6 295 304.2 315.7 328.1 341.6 357.3 371.8 385.4 397.4 406 415.7 417.5 416.4 411.7 403.8 398.2 392.3 386.7 385.3 381.7 376.9 368.7 357.5 362.9 379.2 393 404.8 416 426.5 432 432.8 433.8 432.2 426.4 417.7 406 390 363.6 347.8 330.4 320.1 312.8 306.4 299.6 292.6 286.2 279.8 274.5 269.5 264.5 260.3 256.7 253.5 250.3 248.7 249.2 248.5 249.3 249.6 249.1 249.1 247.4 246.5 244.9 241.6 239.3 237.2 235.7 234.1 228.9 230.8 235.2 236.1 237.5 237 231.1 234 236.7 240.6 245.3 246.3 247.1 247.4 248 246.5 247.1
509.5 512.1 513.4 515.3 515.9 517.3 517.6 518.3 519.8 518.4 515.7 515.2 514.9 513.9 513.2 514.6 515.1 515.5 517.6 517.5 519.4 519.9 519.8 520.5 522.1 524.3 527.4 529.5 530.7 534 536.9 539.7 543.1 546.8 549 549.9 550.1 549.2 546.7 543.4 538.5 530.7 523.1 518.3 508.1 498.1 490.6 485 478.2 472.2 466.5 458.8 451.3 442.7 435.3 430.7 423.5 415.7 406.9 395.6 394.9 388.5 383.9 379.1 380.7 379.2 376.6 375.6 374 371.3 367.9 363.6 358.1 352.9 348.6 345.2 342.5 339.9 336.6 332.6 328.6 323.5 319.4 315.5 311.6 309.7 308.6 305.4 300.2 295.7 291.3 290.1 295.5 299.2 303.5 308.4 314.3 321 328.9 335.1 340.1 344.9 347.8 349.8 346.7 341.7 337.8 335.1 333.2 327.3 321.3 316.7 311.8 304.9 296.1 304.5 315.6 327 339.5 354.4 368.9 382.1 394.6 407.3 421 432 433 428 421.4 413.4 406.8 403.3 401.9 396.2 389.9 380.9 369.1 354 358.1 371.8 389.3 402.1 412.6 419.9 422.7 423.4 423.4 418.7 411.7 400.3 384 360.1 342.1 330 322 314.9 307.7 301.4 295.4 289.2 282.7 276.5 271.5 266.5 262.2 258.8 255.5 252.3 251.5 250.2 249.6 249.2 250.3 250.1 249.9 248.9 249.1 245.9 243 242.3 239.4 236.6 231.4 230.8 233.2 236.7 237.8 240.1 240.7 238.6 244.6 248 249.8 250.5 252.9 254.1 255.2 255 252.7 251.1
512.2 513.5 515.2 516.3 517.4 518.6 521 522.2 523.1 521.4 518.3 516.2 515 514.2 514.8 511.5 513.7 515.5 515.8 517.1 517 517.4 517.2 517.5 518.3 521.7 524 525.6 530.2 532 535.4 538.7 542.8 546.7 548.1 551 550.4 549.6 546.1 544.2 540.1 532.3 525.2 517.6 507.9 499.6 492.5 484.6 478 473.8 469.6 462.3 451.9 441.7 434 427.9 423.7 417 406.1 394.6 386.6 384.4 380.6 376.7 375.5 373.2 373.2 371.6 369.4 365.7 361.3 358.3 353.4 349.2 346.2 343.9 341.3 337.1 333.1 330.1 325.9 321.6 316.8 313 310 309.3 308.3 301.3 297.9 292.7 290.7 298.2 301 303.3 307.8 313 318.8 326.1 333.1 339.6 344.6 349.8 351.8 351.4 350.6 345.8 342.1 338.4 335 329.4 324.2 319.2 314.3 308.2 299.5 307.9 319.3 329.4 342.2 356 366.7 380.5 392.3 406.8 422.5 437.6 447.7 447.6 441.8 436.3 427.9 421.5 413.7 405.9 399.4 392.6 380.5 367.7 355.9 354.1 370 385.5 397.1 407 413.1 412 410.5 406.6 401.3 391.8 375.7 358.6 344.2 335.2 327.3 318.1 310.2 304.7 298.6 292.2 285.7 279.3 273.6 268.5 264.2 260.9 257.4 254.3 253.5 251.6 250 250.8 251 250.9 250.8 251.3 253.3 249.4 245.3 245.8 241.8 237.6 232 232 233.9 238.1 241.7 245.7 247.3 251.4 254.2 256 258.1 262.4 264.1 263.6 261.8 259.4 257.9 257
512.2 514.5 516.5 517.1 516.4 517.1 519.6 520.8 521.8 519.9 516.8 516.5 513.6 513.4 512.7 510.1 512.2 514.6 514.8 514.3 513.7 513.6 513.2 512.1 516.2 517.9 517.4 522.5 526.7 531.4 534.5 538.2 542 546 549.4 550 548.3 546.4 543.5 540.6 536.8 532.2 525.1 516.9 507.9 498.3 488.7 479.3 474.4 469.8 466 459 450.6 437.6 428.9 424.6 420.3 415.6 404.8 397 387.9 379.6 373.8 371.1 369.4 370 368.5 366.6 363.5 361.8 356.9 352.7 350.3 346.9 344.2 341.4 337.8 334.6 331 327.5 323.4 319.2 315.2 310.9 307.7 301.9 298.9 295.1 294.6 300.3 301.8 304.5 306.6 309.1 312.6 317.7 324.8 330.5 336.1 342.9 348.5 352.1 354.6 355 352.8 349.5 345.7 340.9 336.6 331.7 326.1 321.3 316.5 311.1 299.7 311.5 327.5 340.6 350.7 359.1 365.5 379.7 393.2 405.9 422.2 439.2 452.8 459.2 455.2 453.6 448.7 444.8 436 421.8 408.2 396.2 387.1 378.8 368.6 360.5 349.8 366.9 380.7 391.7 398.4 398.8 396.6 393.5 387.1 382.6 375.1 358.6 346 337.5 331.5 322.4 315.9 309 301.9 295.3 288.9 282.4 276.2 270.1 265.5 262.5 259.4 256.8 255 253.1 250.8 251.3 251.9 250.7 252 253.4 253.2 251.1 245.7 243 236.6 234 233 234.3 237.2 245.2 250.2 253.6 258.3 262.9 265.7 267.3 269.6 272 272.5 271.7 269.3 266.7 265.3 264.7
513.5 513.8 512.4 512.4 512.9 514.7 516.2 517.9 517.1 516.8 514.8 514 512.3 512.7 508.4 509.1 511.4 512.1 511.7 510.6 509.5 509.2 509.9 508.5 511.5 512.9 517.7 521.9 525.9 529.3 533.7 537.4 541.5 544.3 547.3 548.1 546.3 542.4 538.5 536.7 536.7 529.7 522.8 513.8 506 496.2 486.7 474.3 467.7 461.2 453.3 445.5 439.9 433 424.8 418.3 413 409.1 398.9 391.7 386.6 381.6 374.9 365.8 363.9 365.3 363 361.9 359.3 356.1 353.1 349.4 345.8 343.3 341.3 337.6 334.1 330.9 327.5 324 320.9 317.5 312.3 301.8 300.3 298.8 297.3 302.5 305.4 305.7 307.7 309.8 312.3 314.3 318.6 324.4 330.6 335.9 341.2 347.1 351.7 354.7 357.4 359.3 356.9 353.3 348.8 344.2 339.2 334.3 329.3 323.3 316.5 309.1 304.2 316.6 333.8 348.2 359.2 368.6 378.8 387.7 396.2 408.3 422.8 439.7 455.1 463.2 463.5 467.5 465.9 460.8 452.1 443.8 427.8 408.5 395 386.8 378.7 370.9 361.7 349.2 366.1 378 386 389.7 389.3 384.7 381.3 377.8 372.9 357.7 347.7 340.2 332.5 324.6 319.5 312.8 307.5 301.4 293.6 285.8 279.2 273 267.3 264.2 261.2 257.6 256.2 254.5 251.8 252 251.6 249.7 250.2 251.5 250.2 248.5 245.1 237.8 234.1 234.5 237.6 240.6 247.4 255.4 259.9 263.3 270.8 274.7 277 279.1 280.1 281.2 281.1 279.4 277.5 275.8 273.2 270.9
510.3 508.4 507.1 508.5 509.8 512.1 513.1 514.9 514.7 513.7 513 511.7 510.7 510.7 509.6 505.4 508 508.4 507.4 507.4 505.4 506.7 505.6 508.2 511.6 515.5 518 521.6 525.8 529 533.1 536.4 538.4 541.7 541.5 540 538.9 538.1 535.2 534 533.4 527.5 520.2 511.9 500.5 491.6 481 468 458 444.6 439.4 435.1 432.3 428.4 418.7 412.2 405.5 399.1 393.4 389.7 386.6 379.4 370.4 365.4 357.5 360 358.9 358.5 356.6 353.6 350.1 346.8 342.6 340.1 337.4 335.2 331 327.3 324.1 321.6 317.5 314.4 306.2 307.5 305.1 304.6 307.9 309 311.1 312 314.1 316.1 318.1 321 325.3 330.9 336 341.2 346.3 352.2 356.1 358.5 361.1 363 360.7 356.6 352.1 347.4 342.6 337.5 332.4 324.3 316.3 306.5 310.5 322.9 340.3 356.3 368.5 378.3 388.8 398.9 405.7 413.8 426.2 441.5 456.3 463.2 470.8 476.5 479.1 471.7 462.9 455.1 443.5 428.4 414.1 403.3 392.8 380 369.9 358.2 346.1 361.9 372 377.8 379 378.1 375.4 372.1 366.1 353.5 347.4 340.1 332.5 324.8 321.6 316.8 312.4 308.3 302.2 293.5 283.4 277.3 270.2 265.9 262.6 258.5 256.6 255.2 252.7 250 249.1 248.1 246.9 247.2 245.8 241.6 238.8 237.8 236.3 244.2 249.2 254.4 256 262.8 270.6 272.6 281 285 286 287.8 291.7 292.8 290.8 290.5 287.9 286.2 283 279.6
506.4 505 503.3 506.1 507 508.7 510.1 512.6 512.7 510.9 510.7 510.7 510.2 507.5 507.8 504.5 505.3 505.5 503.7 505 504 502.5 504.7 508.8 512.2 515.9 518.6 521.9 525.4 528.8 531.6 533.9 536 536.2 536.3 533.7 533 533 532.2 531.3 530.8 528.5 515.7 505.2 493.6 480.6 470.9 458.8 449.2 436.2 429.7 427.3 420.5 416 409.9 403.9 398.3 392.5 393.9 390.8 385.5 377.2 368 361.8 357.6 352.5 355.2 354.8 353.6 351.2 348.1 344.2 340.6 337.3 334.5 332.6 328.8 325.6 321.5 319.5 316.6 311.3 309.4 313.4 312 312.3 311.9 313.9 316 318.9 320.8 322.6 325.8 329.3 332.4 336.7 341.3 346.4 351.6 356.4 360.2 363.4 365.5 366.3 363.6 359.7 355.3 350.9 345.5 340.5 334.7 324.8 317.3 310.9 316.4 328.2 346.7 363.8 376.9 390.3 401.5 410 416.1 422.8 431.8 444.5 457.9 467.1 478.7 489.5 493.4 494.2 486.5 474 460 450.7 442.8 428.5 409.8 392.5 377.9 367 355.3 343.3 354.4 365.2 370.2 371.3 369.3 368 359 351.8 346.4 340.8 333.2 326.5 322.4 318.7 314.9 311.3 307.9 300 291.2 283.1 273.9 267.7 263.7 260 257 255.6 253.8 251.2 248.8 246.7 245 243.1 240 239.3 239.9 242.4 249.5 257.6 262.6 265.5 270.4 270.3 275.1 279.8 283.7 289.1 295 298.2 302.7 304.4 302.6 302.8 300.4 296.3 293.5 289.7
501.4 501 501.2 502.9 505.5 506.4 507.4 508.3 509 508 507 508.3 508.6 507.7 506 503.3 502.5 502 500.9 501.1 500.2 500.5 502.9 507.3 511 514.9 517.9 521.6 523.9 526.8 529.8 532.6 534 534.5 533.3 529.5 528 527.4 526.3 526.3 525.7 521.8 510.7 498.1 484.9 470 458.7 450.8 443 430.8 422 415.6 409.3 404.8 400.2 395.8 391.1 390.5 391.6 387.3 379.9 369.5 362.8 358 355.3 350.5 352 351.8 350.6 348.7 346.5 342.9 339.9 337.3 333.5 330.1 327.1 323.4 317.7 313.6 310.2 307.3 316.1 319.8 318.9 319.7 319.8 319.9 322.5 325.3 327.8 330.4 334 337.6 340.5 343.8 347.5 352.4 357.4 361.1 364.9 367.7 368.9 368.4 366.5 363 358.5 353.7 347.8 341.3 333.6 326.6 320.4 312.1 320.3 334.1 351.7 370.4 388.4 403.8 413.2 421.9 427.8 433.6 440.6 449.8 461.7 472.2 484.1 497.8 509.1 511.5 508.8 494.1 482 470.4 464.3 450 427 406.3 389.8 374.7 364.4 354.1 339.9 347.8 360.1 364.8 366.4 365 357.9 350.1 344.8 340.2 334.3 328 323.8 319.7 317.2 314.4 310.6 306.1 299 289.7 281.7 272.7 265.9 261.8 258.3 256.1 255.3 252.7 249.8 247.1 244.5 248 245.6 241 244.8 252.3 260.8 265.9 271 275.1 278 277.8 278.3 286.1 293.6 297.7 305.3 310 314.1 314.4 316.2 316.2 314.5 309 303.7 299.9
498.4 498 498.4 500 502.7 504.8 504.6 504 504.7 504.7 505.3 506.5 506.9 507 506.4 504 501.4 497.5 497.7 497.1 496.8 497.9 500.4 505.5 507.8 512.4 517 521 524.1 527.3 529.9 529.8 530.7 529.8 527.1 525.4 523.4 521 519.2 518.9 516.5 513.5 503.4 492.1 477 458.8 451.1 445 438.6 430 417.1 403.6 400.3 396.6 393 388.2 384.5 383.9 381.7 378.3 370.4 364.8 360.4 356.9 353.1 349.5 348.7 349.8 348.8 347.4 345.4 342.8 340 335.9 333.1 329.5 323.7 318.4 313.4 310.1 314.5 319.6 324.9 324.4 325.2 326.3 327.5 328.4 329.8 332.1 334.9 337.8 341.2 344.5 347.1 350.9 354.6 359.1 363.1 366.7 370.1 371.6 372.4 370.9 369 366.5 361.7 355.9 350.2 342.2 334.8 328.9 320.2 315 326.3 337.6 356.2 375.9 397.3 413.7 425 432.9 439.3 445 451.1 458.7 466.1 476.6 488.7 500.4 518.8 522.9 523.8 521.1 515.1 497.7 483.9 464.7 441.3 420 401.3 385.2 373.7 362.6 351.6 334.7 346.9 358.1 361.2 357.9 352 346.9 342.3 337.2 332.3 328.8 324.8 320.6 318.5 315.9 312.5 308.6 304.7 296 289.2 280.7 273.5 266.3 260.2 258.3 257.3 254.6 250.8 247.3 249.4 252.4 246.8 248.3 256.5 262.8 268 271.7 276.3 280.4 284.9 285.6 288.2 292.3 301.8 304.9 314.3 321.9 325.5 327.5 329.1 329.9 326 321 315.2 309.4
496 495.3 495 498.2 500.8 500.9 500.8 501.1 500.5 500.6 503.4 504.2 504.3 505.6 505 503.4 501.2 497.7 494.1 493.6 489.8 494.2 499.3 502.8 507.9 512.8 517.3 521.6 525.1 528.3 528.8 528.6 528.1 524.8 523.8 520.9 516.8 514.3 512.4 509.7 507.5 504.5 496.6 488 466 455.8 450.4 439.4 434.1 426.3 411.4 399.2 391.7 389.8 386.3 381.5 377.3 374.2 371.9 367.6 363.4 360.4 357.7 355.1 352.1 349.2 343.8 347.2 346.7 345.8 343.5 341.5 339.5 334.8 331.1 325.8 318.1 313.7 316.5 322.1 324.8 323.6 329.8 330.3 331.3 332.3 333.5 335.6 337.2 339.1 341.8 344.7 348 350.9 354 357.6 361.7 365.9 369.7 372.8 375.5 375.6 375.1 374.1 371.8 369.4 364.9 358.5 352.4 343.7 336.7 329.3 318.7 322.9 330.5 342.3 359.5 380.6 402.7 422.1 434.6 443.5 450.4 454.7 459.1 465.1 471.8 480.7 490.8 502.1 517.4 530.4 539.4 545.6 527.1 508.9 493.8 474.4 453 431.2 412.1 395.1 381.2 369.9 359.5 346.5 334.3 345.7 348.4 347.9 346.1 343.3 339.5 335.6 331.4 328.4 326 321.7 318.2 315.3 311.9 307.8 304.5 298.8 291.6 284.6 277.5 272.2 267 260.7 258.7 254.1 248.8 251.7 252.4 249.8 254.1 261.2 267.3 270.5 276 279.7 284.4 289.4 292.7 295.2 298.5 300.3 305.1 308.7 318.8 327.5 333.7 337.1 339.8 337.6 334.2 329.9 323.1 317.1
493.8 492.7 492.5 494.8 496 494.9 495.6 495.2 495.1 497.2 499.6 500.2 502.1 503.2 502.2 500.5 498.5 496.5 493.6 489.6 487.5 493.9 498.3 502.1 507.8 513.2 518.6 522.3 525.5 527.1 527.8 526.6 524.6 521.9 518.6 514.2 511.9 508.8 505.1 501.4 500.4 496.6 490.8 482.6 462.9 456.1 449.3 436.8 428.6 422 408.7 396.6 388.7 382 378.5 375.8 371.9 366.5 362.7 362.1 359.3 357.8 355.2 352.4 350 348.1 345.7 343.9 343.6 342.7 342.1 340 337.7 333.2 321.6 318.3 315.3 319.1 324.5 329.3 332.1 329.3 335.2 336.4 337.5 338.5 339.5 342 344.6 346.5 348.8 351.7 354.8 358 361.6 365.1 369.1 373.3 376.3 379.7 381 381.2 379.6 378.1 375.4 372.4 368.2 361.2 353.7 345.4 339.7 333 326.7 327.4 333.7 344.9 361.7 383.1 405.5 423.8 437.4 450.9 457.1 461.1 465.6 470.8 477 484.3 494 502.5 516.8 530.8 541.7 551.6 538.3 519.2 499 479 458.9 440.2 420.3 404.6 389 376.2 365.6 355.8 342.6 331.3 338.7 342.8 342.4 340.4 338 334.6 330.6 328.4 327.1 322.5 318.6 314.1 310.4 306.5 301.1 296.6 286.8 271.2 264.3 266.3 268.5 261.2 254.3 256 255.5 256.3 253.5 260.6 268.1 271.5 274 278.4 282.2 287.4 293.1 297.5 300.6 303.5 306.1 307.8 310.6 316.2 323.9 332.4 339 344 345 343.3 339 334.5 330.2 324
490.3 490.1 490 490.3 491 490.4 490.5 489.5 490.5 492.5 494.8 495.1 499.1 499.3 497.7 496.2 495.2 493.7 492.3 489.2 486.3 491.1 495.7 501.3 507 513.8 518 522.1 524 525.4 526.5 524.9 522.9 518.1 514.5 511 507.2 502 498 494.4 491.1 487.1 482.9 474.9 462.6 452.5 441.5 431.2 424.1 414.9 404.8 394.2 385.4 378 372.8 370.5 367.3 362.5 360 358.9 357.5 355.2 352.8 350.9 349.3 347.1 344.6 334.2 339.5 339.8 338.6 337.8 332.6 323.2 317.8 318.8 323.7 330.2 333.2 334.2 336.7 334 338.5 341.8 343 344.4 345.7 347.4 350.1 352.9 355.8 359.3 361.9 365.4 369.3 372.8 376.6 381.5 385.3 391.1 391.4 388.4 386 382.6 377.6 374.6 369.6 363.1 355.1 347.3 342.5 336.2 327 333.5 337.2 346.1 363.1 382.7 404.1 422.1 436.5 450.4 460.5 466.5 471.9 477 481.4 488.2 495.4 502.9 516.1 532.1 544.8 555.5 548.9 530.7 509.9 485.6 471.9 447.8 429.3 412.5 398.6 384.3 372.2 363.4 352.5 340.3 328.7 333.2 336.6 336.4 334.8 332.9 329.6 329.1 327.8 322.2 315.8 310 306.2 303.1 291.9 279.4 268.1 273.6 274.9 264.2 259.4 256.6 265.3 264.4 262.4 255.6 259.7 267.7 275.9 279.2 280.8 285.4 291.3 297 301.1 304 306.9 309.4 312.4 314.8 317.4 321.4 330.1 337.5 344.3 346.1 343.6 341.2 340.2 338 332.7 329.3
