ncols 200
nrows 82
xllcorner 400000
yllcorner 473900
cellsize 50
379.4 370 359.5 348 335.4 334.9 347.9 351.8 355.9 359.7 365.6 372.7 379.3 382.1 385.3 389.8 390.9 392.6 400.7 403.8 408.5 415.1 426.6 434.3 435.7 434.1 430.5 430.8 431.6 432.9 435.1 437.8 440.3 442.2 447.1 450.8 454.2 458.1 465.6 468.7 455.2 467.8 469.9 470.8 473.5 475.8 479.1 481.5 483.6 485.2 489.8 493.5 496.3 499.3 501.2 501.6 503.4 503.9 506.9 505.3 507.4 509.5 511.8 514.4 520 526.8 526.4 525.7 520.2 513.3 506.4 501.5 499.3 497 492.3 491.6 492.3 491 490 489.7 489 488.4 487.6 486.9 486.1 484.3 481.4 475.9 475.9 475.4 467.4 469.6 468.8 469.2 470.3 472.5 476.9 484.1 486.9 486.6 488 490.3 492 495.8 496.3 502.5 506.2 510.5 513.8 521.6 522.7 523.5 523.2 523.7 523 525.6 526.1 526.9 527.8 528.6 529.3 530.2 530.8 529.9 529 526.7 522.6 517.6 514.5 513.6 512.3 509.9 506.7 503.8 501.6 499.4 497.6 494.4 489.9 484.5 479.6 472.7 464.9 456.4 449.3 441.4 433.3 422.4 415.6 407.2 401.7 394.5 364.6 365.4 386.3 390.5 390.9 389.4 384.1 395.5 409.1 417.2 422.7 427.2 429.7 430.3 431.2 432 433.2 434.7 435.6 436.2 436.6 435.4 434.3 433.7 432.6 432.2 433 432.4 434.5 435.7 436.8 439.6 442.6 445.9 449.4 452.8 455.6 456.8 458.1 460.1 463.1 469.7 474.5 474.9 474.7 473.6 472.3 470.7
368.6 360.4 345.8 337.9 345.3 356.1 358.2 362.7 368.2 374.5 378.4 385.5 389.1 393.8 396.1 398.6 400.6 400.2 408.8 411.6 421.2 431.5 438.3 441.7 441.2 437.9 435.3 435.6 436.4 438.4 439.8 441.3 443.6 449.9 453.1 457.3 463.5 470.3 473 466.9 462.5 473.6 473.3 475.3 478.3 481.4 484.1 486.1 489.7 493.5 499.4 501.7 504.6 506.2 508.7 509.2 512 515.1 519.6 521.7 523.5 523.7 523.6 525.4 528.2 530.3 529 526.7 522 514.8 506 501.1 499.8 497.2 494.4 489.8 475.6 470.8 482.2 484.3 482.4 482.9 483.1 482.9 482 478.4 475.9 465.6 464.6 467.8 456.7 453.9 462.8 464.4 467.9 468.8 468.9 473.8 477.5 479.3 479.5 480.5 484.4 489.1 493.3 497.3 499.2 499.9 502.1 506.5 508.8 510.8 511.4 511.4 514.6 517.6 521.3 523.9 525.4 525.7 526 526.1 527.6 526.7 523.2 520.3 518.1 515.6 513.4 510.8 509.9 507.7 504.2 501.5 499.3 497.5 495.1 491.1 486.5 480.6 474.9 466.2 457.9 450.9 443.9 435.6 428.7 420.8 412.4 406.8 401.6 396.4 376.5 363.5 363 378.9 382.7 381.6 374 393.9 405.2 411.1 416.1 421.5 424.6 426.1 427.1 427.2 428.1 429 428.8 428.9 428.9 428.1 427 426.3 424.7 424.4 425.5 427.5 425.9 427.7 431 433.9 436.7 441.6 445.5 448.7 451.3 453.2 455.2 456.2 457.9 461.1 467 471.4 473.4 473.1 472.2 470.4
354 346.7 339.1 356.3 360.9 366.4 370.4 375.7 381.9 386.9 391.1 396.2 399.8 402.4 405.1 408.3 410.1 411.3 414 424.9 434 440.2 444.2 445.9 444.5 441.4 439.7 440.6 441.2 443.2 443.8 446.2 451.9 455.7 458.5 465 474.2 475.8 475.4 463.9 473.5 476.6 479.2 483.6 485.5 486.2 488.7 492.1 497.5 503.3 507.6 510.2 513.1 517.4 519.4 523.4 528.7 535.9 539.3 539.9 540.8 542.3 545.1 543.6 540.3 540.3 532.1 527 520.5 513.6 505.7 501.1 500.4 499.3 495.8 492.4 488.8 483.3 456.4 476 472.9 473.9 474.8 473.1 468.3 466 461.9 451.7 447.6 451.6 448.4 440.4 446.6 453.4 458.1 457.7 458.5 461.9 464.2 466.7 469 470.7 475.2 480.9 485.5 491.4 492.7 493.2 495.1 497.5 499.2 500.9 500.4 501.6 504.5 506.7 510.9 517.9 520.1 522.4 522.7 522.2 521.1 519.3 518.5 517.5 516.3 514 511.6 509.1 506.4 504.2 501.5 499.1 496.7 493.9 490.9 486.9 482.4 476.8 469.2 458.2 448.9 442.9 436.1 428.6 422.8 415.3 410.2 406.1 402.8 395.8 386.6 367.4 358.3 356.4 367.2 370.8 367.5 389 400.2 406 410 415.3 419.4 420.9 421.8 422.1 423.2 424.2 424.5 423.6 423.4 422.6 421.5 419.5 418.7 417.7 418.1 418.8 418.6 419.8 424 428.3 431.8 436.4 441.7 444.7 446.8 449.2 451.4 452.6 453.9 455.2 457.3 462.6 466.1 470.3 469.9 468.5
348.7 342.8 357.8 366.5 372.1 373.4 382.5 387.4 392.8 398.6 401.5 405.4 408.4 412.1 415.3 418.8 421.4 415.4 430.2 435.5 441.3 446.1 448.1 449.2 447.7 446.1 445.4 446.1 445.5 447.5 447.8 452 456.6 461.2 469.2 475.9 478.5 477.1 470.5 474.2 478.3 482.5 488.2 490.9 491.7 492.3 496.8 501.9 507.2 511.1 515 518.9 525.4 533.9 538.1 539.6 551.3 560.7 562.7 562.7 565 570.8 573.9 568.7 559.9 545.7 533.7 524.1 516.6 510.9 504.9 501.2 499 497.2 493 487 482.4 477.6 463.6 457.4 460 461.7 461.9 459.5 450.6 452 447.2 442.5 438.8 437.5 436.2 432.2 434.9 436.5 444 443 443.5 445.7 448.8 450.3 454.6 456.4 465.4 469.8 474.2 480.1 483.2 485.2 488.1 490.8 492.8 494.1 493.6 495.1 496.5 496.7 500.7 505.5 513.6 517.3 518.8 518.8 517.1 516.2 515.5 514.2 513.1 511.3 509.8 506.8 504.1 502.3 500 496.4 491.6 487.5 484.9 480.5 474.8 470.9 464.8 447.8 440.8 434.6 428.2 420.5 415.8 410.8 407.6 404.9 401.5 398.3 390.3 379.6 361.4 349.2 349.3 353.9 370.2 384.5 394.3 400.6 403.1 407.4 411.4 414.6 416 417 417.9 419.4 419.7 419 418.5 417.7 416.3 414.7 412.8 411.4 410.7 411.4 412.5 414.8 417.8 422 426.9 431.3 436.7 440.3 442.8 444.6 446.7 448.1 449.5 450.7 452.2 453.1 458.2 464.9 466.4 466.6
353.7 366.7 362.2 374.3 381.3 388.5 393.1 398.8 403.4 405.9 408.2 413.3 418.1 423 426.7 430.5 434.6 421.5 437.3 441 446.4 450 451.5 450.5 450.1 450.8 451 451.5 449.3 451.1 454.3 457.8 461.4 467.2 478.2 480.7 481.1 479.4 478.3 480.1 483.7 490.5 495.2 496 496.8 501.5 505.3 510.1 514.3 519.8 526.3 536.1 542.8 550.8 558.8 566 579.2 590.7 595.7 594.2 593.1 590.1 580.8 573.1 562.6 547.8 533.9 522.1 515.4 509.3 503.2 496 491.1 488 483.3 478.2 473.5 467.6 462 451.1 451.5 451.3 448 446.3 443.7 442.7 441.5 437.8 434.8 432.8 431 425.7 426.5 425.4 426.1 425.1 426.7 428.9 430.6 432.9 436.5 439.6 447.6 456.5 462.9 467.3 471.3 474.3 477.5 481.8 486.4 487.3 487.1 487.6 490 490.9 492.6 496 501.2 508.1 511.5 511.9 512.3 512.6 512 511.2 510.3 509 507.3 503.8 497.7 494.6 491.5 488.1 485.9 482.1 478.5 474.1 468.9 461.7 448.9 438.2 431.9 425.5 420.3 413.7 411.1 409.7 407.2 403.9 399.2 395.3 390.6 382.4 368.9 357.9 340.7 338 363.3 377.5 387.8 394.9 396.9 399.1 401.1 405.1 408.3 410 411.2 412.6 413.3 412.4 412.6 412 410.7 408.8 406.3 404.5 403 404.1 405 409.3 412.5 416.7 421.2 425.7 430.3 436 439.4 441.1 442.1 442.8 444.2 446.2 446.9 447.6 449.1 452.1 457.5 458.9
371.2 374.9 375.1 379.3 393.1 398.3 403.8 408.8 411.2 414.1 418.8 424.2 427.7 434.7 439.9 441.2 440.9 430.8 441.1 445.9 450.6 452.7 453.9 453 453.2 455.4 457 456.2 456.4 458.5 460 463.7 468.6 469.8 482.5 483.6 483.6 483.2 483.2 485.9 491.6 496.1 499.3 501.3 505.1 508.7 512.7 518.3 525.7 535.8 545.3 555.5 567.5 579.4 585.9 594.8 603.2 602.1 601.3 596.8 595.6 592.4 584.3 573.6 561.1 546.7 531.4 521.7 515 506.1 494.3 483.5 480.6 475.8 471.3 467.3 462.5 458.2 453.9 449.9 444.2 443.3 441 439 438.2 435.5 434.5 432.6 429.7 427.1 425.7 421.7 421.1 417.2 416.1 415.6 415.2 416.4 418.1 419.9 421.2 422.8 428.7 437.4 442.9 449.8 457.4 461.3 464.6 467.6 471.7 475.6 475.6 479.1 482 483.3 485.3 487 488.8 492.4 495 499.2 503.9 505.4 505.6 507 506.4 504.1 495.3 490.4 487.1 484.7 483.5 481.7 480.1 475.8 471.7 466 458.9 448.2 438.3 427.2 420.5 415.7 412.3 408 408.7 408.5 405.8 401.5 396.9 391.1 385.9 380 373.5 365.2 352.3 342.2 336 365.8 379 387.8 390.8 392.4 393.4 394.3 398.4 402.3 404.8 405 405.2 404 404.9 405.8 404.6 402.8 398.4 388 389.2 394.5 398.9 402.7 407.7 411.5 415.2 419.5 423.4 431.4 436.2 436.7 438 438.5 439.2 440.7 441.7 442.5 443.4 443.6 445.5 447
376.3 382.7 389.2 389 401.4 408.6 413.4 416.3 419.3 425 428.8 438.7 443.7 446.3 447 446.5 444.3 442.2 446.5 450.7 454.7 455.4 456.8 456.4 458.3 460.7 462.3 462.1 462.3 462.6 464.7 469.5 478.8 474.1 485.2 486.2 487 486.4 489 493 497.7 500.7 504 507.5 511 514.7 522.2 533.8 547.5 557.4 566.9 580.9 589.5 599.1 602.6 603.9 604.4 603.5 601.6 599.3 595.6 593.3 589.4 577 561.3 545.5 531.2 522.5 515.3 508.1 494.9 483.3 474.9 467.1 462.5 460.6 456.2 452.6 449.1 445 440.3 437.2 435.9 434 431.7 428.4 427.3 424.5 421.5 418.7 417.1 414.4 412.1 411.5 408 406.8 407.6 407.4 409 410.3 411.4 411.5 416.7 421.2 425.1 429.8 433.1 439.4 444.2 450.4 453.6 458.1 461.7 467.2 471.1 474.2 476.2 478.5 479.5 481.6 484.3 488.4 489.5 483.5 470.4 475.6 482.4 486.5 483.6 482.1 481.9 480.2 477.3 477 473.7 463.8 461.8 454.2 447 436.1 429.7 419.5 409.5 406.2 404.4 404.1 404.3 403.9 401.8 398 393.1 387.2 382.6 378.2 373.2 359.2 355.8 349.4 329.4 346.2 367.5 372.7 380.7 385.7 386.1 386.5 386.3 389.7 384 387.4 389.7 386.7 384 393.5 393.6 390.9 384.8 374 369.2 379.9 389.2 396.7 401.9 406 409.5 412.5 416.4 420.6 429.8 432.4 433.9 434.8 434.4 435.3 436.4 437 437.7 438.5 439.2 440.3
386.9 393.8 400.1 407.3 408.2 416.9 421.5 424.4 428.8 437.4 445.2 449.5 451.4 452.3 452 450.2 448.1 448.9 451.3 455 458.4 460.4 459 460 462.7 464.9 466.5 466.5 466.4 467.1 468.8 474.5 484.1 486.4 488.4 489.7 490.2 492.4 497.5 502.2 504.6 507.4 510.1 513.2 517 525.6 539.7 553.6 569.8 582.7 594.2 599.2 600 601 603.3 603.4 604.4 603.5 603.2 600.3 596.9 593.8 590.7 576.6 559.5 543.5 531.4 522.5 516 509.9 498.3 486.2 478.8 471.9 465.8 460.3 455.6 451.9 445.7 440.3 436.8 433 431.3 428.5 425.5 421.8 418 414.2 411.6 408.4 406.8 404 400.9 401.4 397.9 398.3 398 398.6 399.6 400.7 401.6 401.7 404.7 408.6 411.8 413.5 415.8 419 423.8 429.3 435.1 437.5 439.2 448.8 455.2 461.1 466 469.2 472 475.7 478.7 479.7 465.8 465.2 465.7 465.4 464.7 479.8 480.3 482.1 482.1 481 469.6 457.7 455.3 455.3 447.9 441 433.3 423.7 417.2 408.2 400.6 397.8 397.5 397.8 398 397.5 396 392.8 387.4 381.4 376.3 373.1 366.3 350.9 344.3 339.7 325.3 325.8 352.3 360.6 364.6 367.9 376.4 376 376.9 377.1 370.9 371.4 372 367.7 361.5 373.2 375.9 376.6 372 363.2 350.7 362.6 377.9 389 396.2 400.2 403.1 405.8 408.8 412 416 422.5 428.7 430.4 430.5 430.8 431 431.6 431.9 432.7 433.7 435.2
396.7 403.1 410.2 417.7 419.5 416.5 428.1 433.8 443.9 450.3 454.8 456.1 457.2 457.2 455.6 453.7 452.9 453.2 455.8 457.9 461.8 461.8 459.9 463.3 466.7 469.1 470.3 469.9 470 470.8 471.7 482.7 487 490.1 492.3 491.9 496.7 502.6 507.2 507.9 511 513.4 516.5 520.3 528.6 542.1 556.6 574.8 591.4 598.8 598.9 601.3 599.5 600.7 602.8 602.8 603.7 604.1 602.5 598.7 597.9 595 587.4 570.6 553.4 539.9 527.7 520.8 515 510.2 501.1 490.1 480 475.4 468.8 462.8 456.5 452.3 447.4 440.8 435.6 429.9 421.8 420.9 419.2 415.4 410.7 405.9 402.5 398.7 396.7 394.9 390.2 392.4 389.4 390 390 389.9 390.7 390.4 392.5 393 395.4 397.9 401.1 401.1 400.6 402.4 406 409.3 414.8 417.9 418.9 430.4 436.4 444.2 450.6 455.3 458.2 466 466 466.6 464.1 450 449.5 449.1 449.1 463 467.8 466 464.2 458.6 455.7 452.8 440.7 433.9 426.9 421 414.8 406.2 401.8 394.7 392.1 390.3 390.2 392.4 392.9 391.9 389.2 385.6 378.3 369.9 366.3 359.9 354.7 345.8 337.4 331 315.3 328.9 347.2 355.5 358 356 359.8 364.7 364.2 363.5 358.8 346.6 345.2 341 340.3 344 355.1 354.1 352 345.5 338 352.2 367.6 380 389.2 394.1 396.6 399.1 401 403.4 407 412.1 420 422.4 425.1 426.9 427.1 426.3 426.7 427.4 428.2 429.7
407.7 413.1 419.9 426.1 424.5 419.9 437.2 448.2 453.7 457.4 458.5 459.5 460.9 460.5 459.2 457.5 456.7 457.8 458.5 461.6 464.3 464 462.9 467.7 471.9 473.1 473.6 473.4 473.8 474.5 478.1 484.6 490.7 493.7 495.9 499 506.8 511.8 512.9 513.6 516.1 520 524.4 535.2 548.7 564.4 578.7 588.1 593.1 598.3 598.5 599.3 600 599.9 602 602.6 603.1 602.5 599.8 598.3 594.5 593.4 578.4 561.8 545.6 532.7 524.5 518.6 513.7 509.5 502.6 492.2 483.5 475.4 469.1 463.8 459.1 453.3 447.4 441.1 434.5 429.2 424.2 411.2 404.5 403.8 404.7 400.2 395.8 391.7 388.7 386.4 382.8 385 382.4 380.2 382.4 379.7 379.3 381.7 381.5 381.8 383.5 386 387.1 388.9 385.5 389.8 391.9 394 396.7 397.1 401.5 407.1 411.7 420.5 430.3 437.1 441.9 444.7 450.8 450.6 448.7 448 439.1 438 438.2 447.2 453 453.1 447.7 438.7 431.2 427.2 423.9 419.4 412.1 405.8 400.7 396.5 390.7 387 384.1 383.6 385.1 387.8 388.9 383.3 377.7 370.1 361.8 355.4 346.5 346.9 344.9 338 327 324.1 316.5 313.5 333.6 344.7 347.9 348.8 345.1 349.9 352.1 351.9 348.8 333.3 329.8 328.7 326 331.5 334.2 334.7 332 328.2 325.6 339.9 354.3 368.1 377.3 385.8 387.8 389.2 391.9 395.1 398.2 400.9 404.7 409.5 414.1 420.1 422 420.1 420.7 422.2 423.8 425.3
418.2 423.7 424.1 433.9 435.4 437.2 441.8 454.9 459 460.8 461.9 462.9 463.4 462.1 461.3 459.4 460.4 461.1 462.6 464.3 466.5 467.1 467.9 472 475.5 476.9 477.1 477.1 477.4 481.4 481.2 489.6 494.3 497.4 500.1 508 514.9 517.9 518.2 518.6 522.4 528.5 541.4 553.6 566.5 583.5 590.8 588.6 591.8 595 597.6 597 597.2 599.2 601.8 601.8 601.2 599.2 599.7 596.2 595.6 583.5 566.6 552.4 539.9 527.9 521.7 516.9 512.2 508.3 502.5 493.2 483.2 477.2 471.6 466.3 459 452.3 446.4 438.9 433 428.1 423.3 417.6 411.9 404.1 391.5 392.9 389.8 386 382.3 380.5 376.6 379 378.9 375.7 374.9 373.6 372.1 372.9 371.2 372.9 374.6 376 376.1 376.5 375.2 376 379.3 380.4 381.9 380 385.2 388.1 392 398.6 404.3 412.4 420.4 426.5 426.8 431.7 437.3 438.1 433.2 430.8 429.4 427.8 430.4 430.1 427.4 424.1 417.5 415.4 413.3 407.7 402 397.1 392.8 388.2 383.2 380.4 378.3 377.2 377.6 379.2 374.5 367.8 360.7 355.2 347.7 340.7 341.2 341.2 335.7 331.4 324.6 319.9 313.8 299 322.9 328.5 334.9 336.6 332.4 330.9 329.7 330.6 327 322.3 318.9 319.8 318.9 318.8 318.7 316.4 316.1 316 313.7 329.1 336.3 346.4 355 364.4 365.2 369.2 377 384.9 388 390.2 391.9 395 399.3 404.2 408.9 408.7 411.4 416.1 420.2 421.4
428.4 432.5 437.6 429.5 447.2 451.9 449.5 460 462.8 463.7 465.1 465.8 466.6 465.8 462.2 462.1 464.8 465.6 465 467.6 468.9 470.8 472.5 477 479.3 480.8 480.3 481.1 482.9 485.2 491.3 494.6 499.3 501.1 507.2 515.1 520.3 522.3 524 526.1 530.2 542.1 556 568.4 578.9 585.7 588.2 587.8 588.5 590 592.5 595 593.6 596.6 598.7 601.6 600.5 598.3 597.9 596.4 588.6 570.5 557.5 544.3 531.5 524.7 520.2 515.4 511.5 507.3 500.2 490.6 481.9 475.8 466.5 463.8 457.7 451.1 444.1 437.4 432.1 427.3 422.3 416.2 409.9 402.9 399 391.2 381.8 378.9 377.5 376 374.3 373.2 374.6 373.4 370.9 368.4 367.4 367.1 366.5 365.9 365.8 366.7 368 366.6 365 366.2 368.2 369.3 368.2 367.4 370.8 373.2 374.6 380.7 386 390.6 396.2 403 409.4 410.8 415.6 416.9 416 414.6 414.2 414.1 415.5 412.3 411.2 409.7 408.3 403.1 402.2 396.7 391.5 386.1 382.5 377.4 373.1 372 368.6 366.3 363.4 359.6 356.2 352.7 346.1 343.3 337.6 336 334.8 332 326.6 320.4 319.4 315.3 305.9 295.1 314.3 316.5 317.9 319.4 319.3 316.4 315.9 314.5 311.6 319.4 318.3 318.1 313 312 304.9 304.4 304.4 305.1 294.7 312.4 318.1 323.3 330.5 336.7 342.5 349.1 355.6 362 370.5 376.2 379.2 382.3 384.4 387.9 390.7 394.1 398.9 404.6 412.5 416.4
436.2 441 444.6 450.7 453.9 455.7 460.9 463.5 465.7 466.8 467.6 468.6 469.3 467.9 465.6 466.6 468.2 469.6 469.5 470.2 472 475.5 477.6 480.4 482.3 483.3 484 485.4 492.8 486.6 497.4 495.9 501.9 506.4 513.6 518.7 523.5 528.3 532.1 536.5 548.2 558 566 574.3 579 582.7 584.4 586.1 584.6 584.5 584.4 585 585.4 588.9 591 592.8 593 591.2 585.5 577.8 569.6 558.1 546.5 535.5 525.9 523.1 519.3 515.1 511.6 505.8 494.6 485.3 474.1 468.7 463.3 457.4 452.7 448.2 442.6 437.7 432.4 427.3 422.4 416.8 411 405.9 401 396.4 390.6 384.7 379.5 372 370.1 369.1 370.5 369.5 366.2 363.5 363.8 361.9 360.8 360.3 358.7 357.3 357.4 357.9 359 358.7 360.6 360.5 359.6 358.5 361 362.6 364.7 366.6 369.8 373.1 379.1 383.3 388.7 382.3 382.9 395 394.8 395.9 398 398.7 399.3 400.3 398.5 401.2 389.8 383.7 385.3 382.1 376.6 373.9 368.7 360.9 361.6 360.4 357.3 354.1 349.2 345.7 341.6 338.6 335.9 332.8 329.3 329.7 327.2 321.3 317.5 313.4 311.3 307.8 297.4 293.5 304.3 305.1 306.2 307.3 306.3 305 303.5 302.5 306 310.1 304.2 304.3 304.3 301.6 296.3 295 295.4 295.1 290.9 300.6 303.4 306.8 312.9 317.4 321.9 328 332.7 339 346.5 352.6 357.2 359.1 369 372.7 375.7 380.3 386.6 392.9 398.3 402.8
445.1 449.3 453.3 456.2 459.4 463.4 466.3 466.3 468.2 468.3 470.1 472.8 471.9 470.1 470.6 470.3 471.8 472.8 472.9 474.6 477.2 479.6 480 482.6 485 485.9 486.6 492.2 500 492.7 501.5 502.4 506.6 512 519 524.3 528.9 534 540 551.9 561.8 567 567.5 573 577.8 579.2 580.6 581.6 578.3 577.5 577.5 575.9 577.3 578.8 580.5 581.1 580.1 574 568 562.1 554.4 545.9 538.1 527.7 522.8 520.7 518.5 514.8 509.5 498.4 493.2 484 476.3 471.5 465.9 459.2 451.7 444.5 440.5 436.4 431 426.1 421 415.9 410.6 404.8 398.9 393.7 388.1 382.3 378 374.7 371.8 369.6 363.6 365.8 362.1 361.1 359.1 355.8 352.9 353.3 351.9 350.1 350.9 352 353 352.6 353.2 353.3 352.6 351.5 353 354.2 356 356.7 358.6 361 363.4 367.6 372.1 376.3 376.3 374.6 380.3 381.3 382.1 383 382.4 381.9 380.5 375.1 372.2 365.2 366.4 365.6 362.4 359.6 354.4 351.9 350.6 347.6 346.1 340.9 339.3 333.5 330.3 326.9 326.2 323.9 321.2 318.6 317 315.2 313.4 310 304.6 301 285.6 287.8 294.6 294.9 293.4 294 294.8 290 291.1 291.3 289.4 294.3 293.7 294.9 297 296.2 292 286.3 286.3 284.5 284.5 288.3 290.7 295.5 300.6 300.7 304.6 310.3 316.1 320.8 324.3 329 335.1 338.7 347.5 353.3 360.1 367.6 376.5 383.7 388.4 392
452.8 457 459.3 462.2 466.9 469.8 468.7 468.5 470.5 470.8 473.8 474.8 474 473 472.5 472 474.4 474.9 476 478.8 482 482.6 483.7 484.7 487.9 488.9 490.6 498.1 501.6 497 504.6 508.1 512.8 520.7 524.9 529.2 536.7 546 555.9 565.3 567.4 567.1 567.3 570.5 574.9 574.6 573.5 573.7 570 567.2 567.9 565.8 566.9 569.3 571 568.6 566.5 560.7 554.8 549.8 542.2 535.7 529.1 522.8 519.5 517.4 516 512.7 505.5 495.8 489.2 481.5 472.1 466.6 462.5 456.4 449.8 443.6 438.1 428.5 421.7 421.3 416.3 410.1 406.3 401.2 396 390.1 384.1 380.2 376.9 374.5 371.8 370 367.2 363.8 361.7 346.1 343.4 347.5 340.2 343.2 343.7 343.4 344.1 344.2 345.1 346.1 346.4 346.5 345 342.3 345.1 346.9 347.5 349.5 349.7 351.7 353.2 356.4 360.7 363.5 366.3 366.2 365 368.7 367.8 368.2 366.7 365.4 363.6 360.2 359.1 353.2 352.6 350.8 349.1 347.6 344.6 343 337.5 333.5 331.6 328.1 324.9 324.3 322.7 320.6 319.5 319.8 317.7 312.7 310.4 308.5 303.5 299.4 296.9 293.1 285.9 277.3 284.4 285.7 284.8 284.2 282.9 282.5 280.7 279.8 280 284.7 286.3 283.6 284.2 283.2 280.5 278.2 274.3 270.2 275.7 277 279.5 283.7 286 288.7 293.3 295.8 298.2 303 308.1 312.8 320 324.5 325.3 329.8 339.6 349.8 364.3 373.7 379.7 382.2
460.6 464.4 466.5 470.5 472.9 472.6 470.5 471.3 473.1 473 475.7 476 475.7 475.4 475.4 475.9 476.9 478.2 479.5 483.2 485.7 485.8 485.8 488 490.3 491.9 495.3 503.3 503.2 503.2 507.7 516.9 523.1 525.9 529.3 535.1 547.8 556.3 560.8 565.2 565.4 565.3 565.1 564.4 565.4 565 562.9 561.6 560.2 557.4 557.1 556.8 555 555.7 557.2 555.7 553 549.5 544.9 539.9 533.6 529.8 526.2 521.3 514.6 514.4 514 509.1 499.5 492.1 485.1 479.8 472.8 465.1 458.4 452.7 447.7 441.8 436.7 429.2 422.2 410.2 410.8 406.3 401.8 396.9 391.9 386.7 381.5 378.5 376.2 373.8 371.5 368.8 365.9 362.4 358.5 354.4 348.6 330.7 328.4 330.8 333.6 333.9 334.2 334.5 335.3 336.7 337.1 337.2 336.1 332.7 337 338.7 341.1 341.8 342.9 343.8 345.9 347.7 348.6 351.6 354.5 353.3 353.2 353.2 350.4 349 348.7 346.9 347 345.8 343.7 343.8 341.8 340.4 340.3 336.3 335.9 332.9 329.6 329.3 327.7 327.2 324.6 320.3 319.7 317.3 310.7 310.2 306.9 304.1 303.1 300.4 296.4 288.6 286.5 285.5 282.1 270.9 274.4 277.5 276.6 275.3 274.5 273 272.8 271.9 271.9 275.1 277 272.3 269.5 271.9 272 269.2 265.2 264.1 266.1 268.4 270.5 273.4 275.1 276 278.7 282 288.8 290.1 293.8 297.5 302.6 306 310.8 306.6 314.8 332.5 344.4 355.9 365.2 370.7
469.4 471.5 473.6 476.3 475.5 472.6 472.2 473.2 475.4 476.4 477.3 478.1 477.7 479.7 479.9 480.9 480 480.8 481.8 486.3 487.3 488.2 488.1 490.7 493 496.1 502.3 506.9 505.1 508.7 517.6 527 527.5 531.2 537.6 543.4 554.5 556.2 558.1 559.7 559.2 558.4 558.5 556.7 555.6 554.7 554.9 552.5 550.9 549.5 549.4 548.7 546.3 546.7 546 545 542.8 540.2 536.6 532.2 529.3 526.8 523.5 518.7 514.2 510.2 509.3 500.2 493.5 486.7 481.9 475.7 467.9 463.6 456.7 449.8 444.9 440.4 434.4 426 417.5 407.8 401 399.7 397.2 393 388.6 384.5 380.7 378 375.6 372.7 369.2 366 362.4 358.5 353.9 349.4 343.4 337.6 322 320.7 322.9 324.1 325.4 326 325.7 326.2 325.6 327 326.2 320.7 328 330 332.3 333.5 334.6 336 338 339.2 339.4 341 341.7 343.4 344.8 343.7 342.9 341.2 340.1 337.2 335.1 333.1 332.4 332.9 334.5 333.3 333.1 332.4 330.8 329.4 326.1 323.8 322.2 319.8 316.2 312.9 312.8 308.6 304 298.8 295.6 295.5 292.1 289 284.9 283.6 279.2 277.4 276.5 268.2 267.1 271 269.8 269.2 266.5 266.3 266 265.5 264.2 262.4 261 259 258.3 260.4 258.2 255.6 255.4 257.5 256.4 260.1 262.6 263.8 265.2 267.3 269.3 272 274.6 275.9 279.3 286.2 288.2 294.9 296.3 293.4 305.4 312.6 322.2 331.1 340.5 348.3
476.3 476.1 476.8 477.7 475.9 473.7 474.3 475.6 477.8 479 479.9 480.5 481.9 484.4 484.6 484 483.1 482.7 485.9 487.1 488.3 490.9 491.4 493.5 496 500.1 507.5 509.6 510.2 515.7 528.4 529.9 530.9 535.2 542.9 549.7 553.9 554.3 554.1 554.3 553.6 551.9 551.7 550.9 549.5 548.6 548 546.2 545.4 543.3 543.9 541.7 538.4 539.2 538.8 537.7 536.7 534.3 531.6 527.8 526.4 524.1 520.8 517.4 510.8 495.3 497.6 492.7 487.7 483.2 478.2 470.8 464.9 459.7 453.2 448.1 443.2 438.2 432.3 423.5 416.1 410.1 403.4 394.1 391.4 389 386.6 383.3 380.4 377.7 375.1 371.7 367.1 360.7 357.7 351.6 347.7 343 337.8 331.3 320.7 320.7 320.7 320.7 320.7 320.7 320.7 320.7 320.7 320.7 320.7 320.7 320.7 320.7 320.9 323.4 325.1 327.2 328.8 330.2 330.6 329.9 331.3 332 333.4 330.3 329.2 329.8 329.9 328.7 324.9 324.7 323.8 320.8 323.6 324.7 324.6 327.8 323.9 321 315.7 312.3 307.9 307.1 307.6 303.1 302.9 296.1 291.3 287.1 284.6 282.2 280.3 278.2 273.7 272.2 269.2 265.1 263.1 264.6 262.9 263.9 262 258.1 255.2 258 259 257.2 255 251.3 251.5 246 244.9 244.1 243.6 245.8 250.2 245.5 243.9 249.7 254.2 255.6 257.8 259.8 261.4 263.6 265 267 269 271.7 278.8 282.9 277.6 288.8 294.3 299.4 306.7 311.4 318.6 326.2
480.2 478.8 479.9 480.8 477.2 477.2 478 478.5 480 482 482.5 482.5 486.9 487.7 487.3 485 482.8 485.7 488.3 488.7 491.7 492.9 494.1 495.8 499.2 505.6 511.9 513.1 519.6 528.1 531.8 532.5 534.1 537.3 544.6 551.4 553.6 553 550.9 551.7 550.6 549.6 548.9 546 546.3 544.6 543.4 541.6 542.1 539.1 537.8 536.9 533.1 534.5 533.9 532.6 531.2 530.2 528 524.7 523.8 521.6 518 511.6 502.5 493.5 487.3 485.6 482.7 478.4 472.5 466.3 461.2 456.8 451.2 445.7 439.9 434.4 428.1 420.9 412 405.5 399.3 393.8 388 386.9 384.4 382 379.4 376.3 372.9 367.9 362.5 356.2 348.4 344.4 340.6 336.4 331.3 326.8 320.7 320.7 320.7 320.7 320.7 320.7 320.7 320.7 320.7 320.7 320.7 320.7 320.7 320.7 320.7 320.7 320.7 320.7 320.7 320.7 320.7 320.7 320.7 320.7 320.7 320.7 320.7 320.7 320.7 320.7 320.7 320.7 320.7 308.8 313.4 315.6 316.3 313.3 310.1 304.6 301.4 296.3 297.3 298.6 296.9 293.4 282.2 277.1 277.6 277.5 273.9 273.9 268.8 265.2 263.2 261.8 260.4 258.8 257.1 257.8 258.2 255.8 254.4 252.1 251.5 250.6 250.3 247.5 248.4 247.8 246.7 246 244.9 243.1 242.7 242.2 241.4 241.4 241 240.8 241.4 243.8 249.9 250.4 254.1 256.3 257.5 258.7 260.2 263 267.1 268.2 266.7 278.9 283.4 288.1 293.3 298.5 302.2 310.6
482.7 482.3 482.7 481.5 481.8 482.1 480.9 480.5 483 485.2 485.5 486.7 489.8 489.6 488.5 486.8 486.3 487.9 490.2 492.2 493.7 496.1 497.2 498.9 502.6 509.7 515.3 519.7 525.2 532.6 533.4 534.9 536.1 538.4 543.1 550 551.4 550.9 550.3 548.2 548 546 545.5 543 542.5 539.1 536.9 530.6 534.3 524.7 523.2 527 526 529 530 528.5 527.7 526.9 525.3 524 521.5 518.2 512.7 502.8 496.8 491.6 482.5 474.5 473.6 469.5 465.3 462 457.8 453.9 448.5 443.1 436.7 431 423.8 416.7 409.3 401.1 395 390.9 387.1 382.2 382.6 378.9 375.7 372.2 368.4 362.7 356.7 349.8 342.4 338.7 335.1 330.3 326.2 321.7 320.7 320.7 320.7 320.7 320.7 320.7 320.7 320.7 320.7 320.7 320.7 320.7 320.7 320.7 320.7 320.7 320.7 320.7 320.7 320.7 320.7 320.7 320.7 320.7 320.7 320.7 320.7 320.7 320.7 320.7 320.7 320.7 320.7 308.9 302.4 305 302.5 300.9 295.9 292.9 293.2 289.8 284.4 278.9 279.5 280.3 279.1 266.9 265.5 263.6 263.4 262.4 262.1 261.3 260.3 259.5 258.7 256.5 255.6 255.2 251 255.8 258.5 254.4 249.3 246.9 246.5 255.8 252.9 250.6 250.1 248 245.1 245 244.5 240.1 240.8 240.5 240 238.9 238.1 237.5 237.3 236.9 246.2 248.5 251.1 250.2 252.9 255.7 256.5 258 264.3 269.8 273.3 278.6 283.7 289 291.7 297.6
484.1 485.2 484.9 485.1 485.9 484.8 484.3 483.9 487.8 488.4 488 489.3 492.2 491.9 490.4 489.7 490.2 492.6 494.1 497.1 499.7 502.7 502.6 502.3 506.9 514.7 519.2 524.4 531.1 533 533.7 535.3 535.3 535.3 537.4 541.7 544.2 543.3 542.5 539.9 539.5 536.2 537.7 534.3 528.7 520.6 525.1 515.2 515.3 513.2 504.5 510.9 510.2 516.3 520.6 523.9 522.5 522.6 522.3 521.1 519 514.3 504.3 495.8 490.2 483.7 479.1 478 471.9 465.9 463.5 460.2 455.3 451.5 447 440.7 433.9 426 417.1 411 405.4 397.4 391.4 387.8 385 382.2 379.5 375.4 370.8 367.1 361.7 356.8 351.8 345.5 339.1 334.9 329.2 322.8 320.7 320.7 320.7 320.7 320.7 320.7 320.7 320.7 320.7 320.7 320.7 320.7 320.7 320.7 320.7 320.7 320.7 320.7 320.7 320.7 320.7 320.7 320.7 320.7 320.7 320.7 320.7 320.7 320.7 320.7 320.7 320.7 320.7 320.7 320.7 316.3 291.8 292 291.6 288 283.4 277 277.4 274.5 266.9 266.5 268.1 265.5 263.2 266.8 266.3 265.9 265.1 265.8 266.2 264.4 265.8 260.3 260.4 263.2 266.4 270 267.7 267.2 268.4 268.2 267.2 262.3 259.4 266.8 266 262.2 258.8 256.6 255.2 252.7 250.4 246.3 238 238.6 239.7 238.4 237.5 236.8 236 235.7 235.9 236.1 240.7 245.8 246.5 248.8 249.3 251.1 255.8 261.8 264.3 269.7 275 279.3 283.1 284.1
487.7 488 487.5 488.6 489.4 488.6 489 488.1 490.1 491 489.7 492.2 493.1 493.7 493.4 492.6 493.6 495.5 499.5 503.1 507.5 509.4 508.8 508.8 511.3 519.2 523.1 526.5 532.9 533.7 533.3 533.6 532.1 531 531.4 531.4 531.5 533.4 531.7 527 523.9 519.2 522.2 519.9 512.5 510 510.6 507.9 499.8 501.7 497.8 499.8 500.3 504.3 507 516.9 513.4 513.8 515.2 517 517.7 514 506.6 496.2 486.8 474.7 472.7 471.3 467.2 464.4 462.2 458.4 454.2 450.4 444.4 436.1 424.8 420.9 413.4 406.4 399.5 393 388.9 385.8 383.4 379.9 373.2 369.7 364.4 360.3 356.1 351.4 346.4 341.4 336.5 326.1 320.7 320.7 320.7 320.7 320.7 320.7 320.7 320.7 320.7 320.7 320.7 320.7 320.7 320.7 320.7 320.7 320.7 320.7 320.7 320.7 320.7 320.7 320.7 320.7 320.7 320.7 320.7 320.7 320.7 320.7 320.7 320.7 320.7 320.7 320.7 320.7 320.7 323.9 282.2 278.2 275.4 274.7 272.6 270.1 269.9 268.2 284.5 292.9 283.5 283.1 280.6 280.8 277.8 276.4 274.5 276 272.8 273.9 276.5 277.1 276.3 277.9 276.8 279.9 275.5 273.3 272.4 279.3 276.7 275.1 273 272 269.5 269 272.8 271.2 268.6 266.6 263.6 254.3 250.6 249.2 238.8 237.1 236.8 235.4 235 235.4 234.8 234.7 234.4 235.8 241.6 241.9 243.9 245.5 248.1 251.6 256.2 261.1 264.2 268.7 269 280.7
491.7 491.2 491.9 493.2 493 493.3 493.5 493 492.9 492.6 492.9 493.9 494.9 496.9 497.8 497.4 498.8 502.5 505.3 509.9 517 516.7 514.3 516.6 520.9 522.9 525.3 528 533.6 533.9 531.6 532.3 529.4 526.7 526 524.5 522.4 521.9 520.2 515.1 512.5 509.7 510 507 503.6 500.9 498.7 495.9 492.7 492 493 493.1 493.5 495.6 498.3 502.6 496.8 499.3 497.6 507.7 513.2 509.7 501.5 491.4 482.5 475.2 467.8 465.4 463.8 462.3 459.5 456.7 453.6 448.4 440.1 429.8 425.7 417.9 405.8 401.1 394.9 389.5 385.5 383 380.5 376.7 371.6 359.4 357.7 353.5 350.3 347.5 342.5 337.3 323.1 320.7 320.7 320.7 320.7 320.7 323.1 320.7 324.1 323.6 323.8 321.7 320.7 320.7 320.7 320.7 320.7 320.7 320.7 320.7 320.7 320.7 320.7 320.7 320.7 320.7 320.7 320.7 320.7 320.7 320.7 320.7 320.7 320.7 320.7 320.7 320.7 320.7 320.7 320.7 275.4 278.9 283.8 284 286.7 287.7 287.6 293.5 295 295.8 295.8 296.2 285.7 284.5 284.1 284.1 283.8 284.9 281.9 282.7 284 285.9 287.6 288.1 287 286 282.4 282.8 282.7 286.2 288.2 283.5 280.9 277.4 279 278.7 277.9 278.7 277.5 273.1 268.3 261.5 256.3 253.6 251.3 239.7 234.1 234.7 234.1 233.7 233.7 234.2 233.6 233.1 232.7 236 238.1 239.4 239.4 243.3 243.7 249.4 253.7 257 264 272.7
493.9 494.5 497 497.5 496.7 497 496.8 496.4 495.9 495.1 494.9 496.9 498 500.1 501.5 504.3 505.4 508.7 512.3 515.5 523.1 523.6 523.2 523.5 525.1 525.6 526.6 528.3 531.1 533.3 529.6 528.2 526.8 523.9 522.1 519.7 516.1 514.1 512.5 508.9 506.5 503.2 500.6 498.6 494.5 492 489.8 487 484.6 483.7 484.1 485.7 487.7 488.2 488.4 489.8 486.9 487.6 487.4 497.4 501.7 499.7 492.3 484.7 475.7 470.9 467.5 462.8 460.6 459.3 458.3 455.9 452.8 442.7 434.6 423.9 416.4 412.3 404.7 397.9 390.2 385.4 382.2 380.5 377.9 373.8 368.4 361.5 346.4 346.8 346.1 344.6 339.2 327.1 320.7 320.7 320.7 323.5 328.4 330.3 331 330.3 330.7 330.6 330.5 329.4 326 322 323.2 322.8 322.9 320.7 320.7 320.7 320.7 320.7 320.7 320.7 320.7 320.7 320.7 320.7 320.7 320.7 320.7 320.7 320.7 320.7 320.7 320.7 320.7 320.7 320.7 320.7 288.8 294.7 295.4 296.4 297.4 297.8 298.6 297.9 297.8 296.6 297.2 298.9 295.8 293.1 297.2 298.4 302 300.3 294.9 297.4 297.6 296.3 296.3 296.3 297.5 297.2 295.4 295.6 292.7 292.9 293.3 291.7 291.5 287.8 288.2 287.1 286.4 283.4 277.3 277.1 275 270.6 264.6 259.9 258.2 256.7 254.8 252.6 243.4 239.6 239 230.2 233.1 232.1 231.7 231.7 231.9 233.2 232.6 232 236 238.8 242 245.1 253.3 260.1
495.9 497.5 500.7 500.1 500.1 499.6 499.1 498.6 497.5 496.6 496.9 499.6 503.8 507 509.8 511.6 511.7 514.1 519.3 524.1 529 529.7 529.1 528.5 528 527.4 527.1 526.8 529.5 530.6 527.6 524.8 523.4 521.3 518.9 515.1 511.4 507.5 503.7 500 496.4 492.1 489.1 486.4 483.6 480.7 478.1 476.4 475.1 470.8 473 475.7 478.4 481.4 481.5 481.2 480.4 480.4 480.9 484.9 486.8 486.2 479.8 475.3 470.2 467.5 464.7 461.6 458.7 457 455.1 453 448.2 441 433.5 424.8 415.5 406.5 401.9 395 388.8 383.6 380.2 378 375.1 370.2 364.9 358.9 350.3 337.8 339.7 330.4 320.8 320.7 320.7 321 333.7 335.5 336.2 337.8 336.4 337.2 338.7 336.9 337 336.4 333 327.3 329.9 329.4 327.3 324.5 323.8 322.8 320.7 320.7 320.7 320.7 320.7 320.7 320.7 320.7 320.7 320.7 320.7 320.7 320.7 320.7 320.7 320.7 320.7 320.7 320.7 320.7 300 304.9 305.1 306.6 306.5 308.2 308.7 308.3 309.2 308.9 312.1 310 311 309.3 309 308.6 312.2 310.2 308.5 307.8 307.2 309.6 309.9 312.4 309.7 304.7 302.8 299.7 298 296.3 294 294 291.7 291.5 290.3 289.1 287.8 287.6 288.2 284 283.5 276.7 273.8 271.7 266.9 266.6 264.2 263 259 252.6 247.8 239.8 232.9 232.2 231.2 231.1 231 230 228.9 229.1 227.5 227 228.7 228.7 233.4 241.5
498.6 500.4 502.1 501.9 501.8 501.5 501 500.4 499.4 499.4 502 505.8 511 515.9 517.4 517.5 517.3 520.7 528.4 535.4 536.2 534.5 533.6 532.2 529.2 526.5 524.8 522.3 523.9 524.8 523.2 519.6 518.3 515.9 511.2 505.4 500.4 491.4 491.2 487.2 481.8 478.5 477 474.3 471.8 470.5 468.3 467.5 465.4 457.5 463.4 464.9 468.4 471.6 472.9 473.9 475 476.1 476.2 475.4 474.8 473.9 471.8 468.4 465.7 463.4 461 458.6 457.1 455.9 454 449.6 443.6 436.9 427.8 422.1 413.6 407 400.2 391.1 386 381.9 378.4 375.4 371.7 368.1 362.8 356.8 348.6 334.3 335 320.7 320.7 320.7 329.6 341.5 346.6 348.1 350.4 347 343.4 346.1 345.4 343.8 342.4 341.2 339.3 336.6 336 334.9 333.4 330.8 328.4 326.8 323.7 321.4 320.7 320.7 320.7 320.7 320.7 320.7 320.7 320.7 320.7 320.7 320.7 320.7 320.7 320.7 320.7 320.7 320.7 320.7 310.6 313.2 312.2 313.8 315.6 318.7 322.3 323.3 323.7 323.4 321.5 323 324.8 322.5 321.7 318.9 316.5 313.8 313.9 313.2 316.9 318.4 317.8 316.5 316.4 316.2 314.5 306.4 308.6 303.1 300.4 300.9 307.7 298.8 297.6 296.4 297.3 300 294.2 293 293.2 293.2 288.2 285.6 279.5 279.6 274.6 271.9 268.6 264.7 258.4 251.2 248 243.6 230.6 228.4 229.8 229.6 228.6 225.9 227.6 227.2 226.5 223.5 225.7 225.9
501.4 502.9 503.9 503.7 503.7 503.4 503.1 503.5 504 504.6 507.1 513.9 520.3 523.8 524.1 522.9 525.1 530.8 541.6 545 543.4 541.3 538.2 534 529.9 524.5 520.3 516.8 516.2 516.9 514 511 504.2 501.4 491.9 483.9 480 476.3 473.2 472 467.1 466.5 464 464.6 463.8 461.8 460.4 459.6 454.7 456.3 454.5 453.6 459 462.5 464.1 465.6 467.5 471.3 471.7 471.4 470.1 468.5 466.6 464.8 462.4 460 458.3 456.5 455.3 454.6 452.2 445.2 435.6 423.5 418.6 416.5 410 403.1 396.9 389 383.2 380.7 377.7 374.6 370.4 364.4 358.4 355.4 351.8 333.7 332.7 320.7 320.7 334.6 346.9 348 355.1 353.5 354.9 354.1 352.6 352.7 350.6 348.9 347.2 346.1 344.2 342.1 340.8 339.6 337.5 335.4 332.9 331.4 329.8 327.6 327 324.4 322.7 322.9 321.6 320.8 322 320.7 320.7 320.7 320.7 320.7 320.7 320.7 320.7 320.7 320.7 320.7 319.1 320.9 322.8 328.6 329.3 331.4 330.1 331.5 332.2 333.3 334.6 334.8 328.2 327.7 325.2 324.7 326.6 327.8 329.8 332.1 332.4 332.7 330.7 328.8 327.4 330.6 326.7 326 316.3 313.8 315.2 314.3 314.7 310.9 313.3 307.2 307.9 306.6 306 306.3 301.9 303.9 306.5 301.5 297.1 290.1 284.9 282.4 278.1 274.1 270 266.3 261.9 255.1 253.2 249.6 242.5 237.4 240.6 242.1 238.1 232.8 228.9 226.3 225.4 224.4
504.3 504.6 505.9 506.2 506.2 506 506.9 507.9 509.3 511 514.6 523.6 528.3 529.9 530.4 532.5 535 543.2 551.8 550.3 548.9 545.8 541.2 535.8 529.4 523.4 517.1 507.6 508.7 506.3 503.9 498.5 487.7 489 483.2 477.3 472.2 468.5 465.4 462 459.5 458.3 457.4 456.4 455 455.7 452.3 451.4 448.1 448.5 450.7 448.2 450.4 451.9 452.1 454.4 460.2 463.7 466.7 467.7 467.1 465.6 463.8 461.9 461 458.7 456.8 455 453 450.6 444.9 439.7 434.2 421.5 415.3 410.3 405.8 400.1 392.7 386.2 381.7 378.8 376.6 374.2 370.1 365.8 360.4 353.6 349 336.9 320.7 320.7 321.4 349.2 352.6 355.7 358.7 358.8 358.5 358.7 357.7 358.3 358 356.8 354.7 352.7 350.5 348 345.3 343.8 342 339.4 337.5 336.1 334.8 332.8 333.1 332.4 331.6 331.2 330 329.4 330 330.1 329.3 328.5 326.7 321.9 325 322.9 326.8 329.2 330.7 333.5 337.1 336.4 336.8 335.1 333.5 333.2 335.8 337.2 339.7 336.9 337 336.1 337.1 335.7 338.8 341.8 342.7 342.6 340.9 340.3 343.6 346.8 345.8 341.9 343.9 337.3 334.6 334.5 334.3 329 331.2 327 325.2 323.3 323.9 322.5 325 324.6 321.7 316.3 325.5 327.7 322.4 315.7 304.7 305.2 302.2 297.4 289.2 282.3 280.1 277.1 273.4 270.1 266.2 262.4 260 255.3 259.1 258.4 255.7 252.8 245.8 239.8 226.8 224.2
506.7 507 508 508.5 509.1 509.3 511.7 514.7 516.4 518.8 526.1 531.5 536.9 539.2 542.5 547.7 547.5 552.7 556.9 554.3 551.7 548.3 542.9 535.7 527.6 520.2 513.4 508 491.4 495.8 492 486.9 479.6 473.5 470.2 467.4 463.1 459.7 459.2 456.3 452.9 452.1 451.7 451.1 450.1 449.4 448.4 446.5 444.1 444.6 444.8 443.9 444.1 444.8 446 448.8 453.1 453.6 459.9 461.9 462.8 461.8 459.9 459.1 460.2 458.3 455.8 453.5 448.8 442.3 436.8 435.2 427.9 422.1 415.3 405.9 400.9 395.6 389.3 384.2 379.5 375.9 374.6 373.4 369.7 364 358.5 351.9 345.2 329.1 320.7 332.3 349.1 356.7 359.4 363 364.2 364.3 363.1 363.1 363.5 364.1 363.9 362.4 361.5 359.7 357.4 355.1 355.6 352.4 349.3 346.5 342.2 340.4 339.4 338.3 338.9 338.6 337.9 337.8 337.8 337.7 337.1 336.7 336.3 335.3 332.9 329.2 333.4 334.4 337.9 339.1 340.9 341.1 342.7 343.1 341.2 339.1 338.8 342 341 341 342.6 341.5 343 345 354.3 358.9 360.3 360.8 359.9 358.7 353.9 354 363.9 363.9 361.6 360.5 361 360.4 370.2 368.3 360.5 356.6 364 347 353.5 364.8 350.8 355.3 355.2 353.9 333.5 338.5 343 341.4 338.4 334.2 328.1 322.3 314.6 308.1 300.4 291.8 284.7 284 282.4 283.1 278.4 277.1 275.9 276.9 279.9 278.6 277.5 276.9 270 262.5 250.2 235.8
507.5 509 510.4 511.6 512.2 515.4 519.7 523.4 526.1 530.5 535.9 540.7 549.1 557.6 561.4 559.1 558 559.3 560.1 556.8 552.4 548.6 543.3 533.5 525.2 518.2 510.4 498.1 496.2 482.8 481.1 474.2 469 467.1 464.2 461.4 458.3 455.4 453.5 451.3 448.5 447.7 447.6 446.8 445.4 445.2 444.3 442.7 441.1 440.4 439.7 439.1 439.1 440 440.9 442.6 445 446.9 449.1 453.5 454.7 454.7 453.8 454.8 456.1 456.3 453.7 450.2 445.1 433.9 425.8 425.5 420.3 415 409.1 403.3 395.6 391.2 387.3 383.3 377.8 373.2 370.8 370 366 360.7 355.6 349.9 341 322.9 325.8 348.3 359 362.1 366.4 368.3 369 369.6 369.1 368.9 369.8 370.4 370.9 370.3 370 367.1 366.2 366.5 367.4 363.3 360.2 357.1 353.6 350.1 347.4 344.7 344.6 344.5 344.3 344.9 345.6 346 344.8 344.2 343.6 343 340.2 342.5 342.1 343.9 345.4 346.9 348.5 350.9 352 349.2 347.2 351 350.2 350.8 353.4 353 354.8 355.3 355.8 357.4 367.1 371.7 374.3 375.4 374.5 374.1 381.7 384.8 382.7 380.7 386.6 391.9 393.5 394.2 394.1 394.3 391.8 387.4 390.6 387.5 387.4 385.2 381.3 379.4 374.4 364 352.1 357.7 356.9 352.3 346.6 342 336.9 331.1 322.8 315.1 307 301.1 296.9 290.8 294.8 295.3 290.3 289.1 288.9 286.5 285.4 285.2 282.4 282 278.8 275.5 259.7 238.1
511 511.9 513.6 515.8 517.7 524 530.8 534.6 536.4 539.6 544.3 552.4 562.6 566.5 566.8 564.5 564.5 565 562.8 558.4 554 548.4 542 532.1 520.9 508.5 504.8 496.4 486.4 480.6 473 468.4 465.1 462.2 459.7 457.1 454.8 452 450.2 448.6 445.9 444.9 445.3 444.4 442.5 441.9 441 439.7 438 436.6 436.4 435.5 435 435.5 436.2 436.8 436.9 439.3 441.3 444 445.9 446.7 446.1 448.3 450.7 450.4 447.7 443.7 435.6 432.4 423.2 416 413.4 408.1 402.7 399.3 394.4 388.6 384.5 381.3 376.3 368 363.9 359.4 357.8 354 349.9 335.7 326.8 324.1 346.7 359.2 364.2 369.6 371.8 373.6 375.1 375.6 374.4 374.4 376.5 378.5 376.6 380 378.9 374.6 378.1 378.7 375.7 372.8 368.4 364.6 360 358 357.2 355.3 353.1 352.3 352.2 351.8 351.8 351.5 351.8 350.9 350.6 349.7 345.8 349 350 352.8 351.7 355.3 356 355.8 356 360.4 358.6 363.3 370 371.5 371.2 370 369.1 380 382.6 386.5 383.2 383 382.1 389.8 394.9 395.4 406.8 413 410.6 412.8 408.7 408.3 407.1 406.8 405.9 403.3 401.7 400.2 400.3 398.6 396.1 393.5 389.9 386.1 381.5 370.1 372 371.6 368.1 361.2 354.9 351.2 343.9 337.4 330.8 320.7 312.5 304.6 305.6 304 303.8 304.1 301.7 300.5 299.9 296.1 291.4 287.7 284.6 282.3 280.3 273.2 246.9 230.9
513.8 516.7 518.4 521.1 525.6 532.2 540.4 543.5 545.8 550.4 558.3 566.9 571.8 574.3 573.8 573.1 574.1 572.8 567 560.4 554.1 548.8 540.3 529.4 517.2 504.3 491.5 484.9 479.1 474.7 468 464.9 462.1 459.5 456.6 453.9 451.7 449 446.9 445.4 444.2 442.4 443.1 442.8 441 438.9 438.1 436.4 434.1 431.6 433.1 432.2 431.2 431.1 431.7 431.4 431.8 433.5 434.2 436.5 437.8 438.2 437.9 439.3 439.7 439.5 436.6 432.9 428.8 423.8 417.7 412.3 408.4 403.8 399.9 395.4 390.5 386.6 382.7 378.3 372 359.4 359.4 359.4 359.4 355.1 337.2 327.7 324.5 338.5 360.4 365.3 371.2 375.8 377.1 378.6 380.4 382.4 380.8 379.9 386.5 388.1 388.6 389.2 389.4 392.5 393.8 391.8 390.2 386.7 381 374.8 369.1 365.3 363.2 364.1 365.1 364.2 361.4 363.3 361.9 360.3 360.6 359.8 358.5 358.4 351 356.9 354.6 357.7 362.1 370.8 366.4 367.1 368.1 372.9 384.5 386.8 388.6 392.9 392.4 399.7 405.6 400.3 403.1 409.4 403.9 404.4 402.1 402.6 402.7 405.6 419.3 419.3 420.1 419.8 418 416.9 416.1 414.2 412.5 410.9 409.2 407.6 406.3 404.4 402.4 399.1 395.1 391.7 384.8 384.3 382 379.6 376 370.4 364.2 359.1 352.4 343.6 335 327.2 316.2 313.2 311.9 310.5 311 311.8 309.5 305.6 302.7 300.6 293.7 289.6 285.1 281.6 279.4 262.3 235.7 220.7
517.4 521.2 525.1 527.7 533.8 542.5 550.5 555.1 558.4 566.2 572.9 579.2 585.4 585.2 583.1 584.7 589 582.5 570.3 562.2 553.2 545.8 536.2 525.5 510.7 496.9 486.7 479.1 473.2 469.8 466.7 462.6 459.3 457 453.7 450.1 448.5 446.1 443.8 442.4 441.3 439.8 439.8 440.2 438.9 436.7 435.4 433.4 431.7 427.7 428.5 428.1 427.3 426.7 426.7 426.4 426.1 426.7 427.9 429.7 430.6 431.8 431.1 431.4 430.2 428.4 426.1 422.5 418.9 415.3 412.4 409.1 404.6 400.6 396.5 391.5 387.6 381.8 378 371.1 364.7 359.4 359.4 359.4 359.4 359.4 364.7 326.5 336.5 359.8 365.6 370.8 376.5 380.3 382.5 384.7 387.7 391.1 387.3 389.4 395.2 396.9 398.7 401.2 404 408.7 410.5 410.4 407.4 398.6 395.7 387.3 381.6 375.8 376.7 376 373.8 375.5 377.5 375.4 377.2 376.2 373.5 371.2 372.7 369.8 372.5 371 361.6 373.1 373.2 376.8 384.1 390.6 401.6 406 404.9 405.4 404.9 413.3 415.3 415.5 420.4 422.7 423.1 424.8 424.8 408 403.7 402.6 408.9 426.3 426.7 426.9 426.6 425.8 424.3 423.4 421.9 420.7 418 416 414.5 412.7 410.9 408.5 405.7 402.5 398.5 394.1 391.7 389.6 386.9 383.2 378.7 373.9 369.1 364 357.8 350.9 339.9 331.8 326.9 323.8 321.6 319.4 317.6 316.7 313.1 308.6 304.1 300.5 295.5 289.8 284.5 278.4 274 246.6 225.6 220.6
523 527.1 531.2 536.5 543.3 552.1 560.6 566.9 574.3 581.3 587.7 596.6 603.5 604.9 607.3 605.5 596.6 583.3 569.1 558.2 548.3 539.1 528.7 516.5 498.4 491.3 481.8 474.7 470.2 466.6 463.5 459.9 456.3 453.2 450.9 447.8 444.9 443.4 441.1 439.7 438.4 436.9 437 436.7 435.7 434.4 432.8 431 429.9 427.2 418.6 420.7 422.7 422.7 422.2 421.1 420.5 421.4 422 422.9 424.5 424.8 425 425.1 424.1 421.3 419.2 416.5 413.6 411.1 408.4 405.5 401.4 397.3 392.6 388 382 376.2 372.3 367.5 359.4 359.4 359.4 359.4 359.4 359.4 359.4 359.4 356.7 364 370.7 376.6 381.6 384.5 387.4 392.9 399.5 401.7 401.7 403.2 403.5 405.5 408.7 415.8 419.7 424.8 426.7 425 419.1 411.8 403 396.6 392.8 390.2 388.8 390.6 393.2 390.1 387.8 388.6 391.5 387.5 388.1 385.8 386.5 378.5 390.5 392.1 377.5 395.5 400.6 405.9 408.5 412.2 414.7 415.8 415.6 416.5 418.6 421.9 425.2 427.8 428.1 427.7 430.1 431.2 431.7 430.8 430.9 432.5 432.8 433.7 433.4 434 433.2 433.3 432.4 430.9 428.9 426.6 424.9 422.1 418.8 417.3 414.1 411.8 408.1 404.4 400.6 397.6 395.4 392.7 389.1 386 380.8 375.8 371.3 365.9 361.3 354.4 347.2 338.4 333.2 328.8 326.4 322.8 319.9 317.2 313.7 309.8 304.4 299.9 294 287.2 282.7 275.6 266.4 235.1 219.2 225.9
529.6 534.1 539.9 543.8 551.5 562 572.4 579.8 587 598 608.6 621.5 630.8 631.1 624 614.5 597.6 580.3 564.4 553.3 544.4 533.2 522.5 509.9 498.3 486.8 477.5 472.1 467.9 463 460.6 457.5 454.2 450.9 448 445.7 442.9 440.4 438.1 436.4 436.1 434.5 433.3 432.9 432.2 430.8 429.1 427.3 425.6 422.8 418.7 410.5 417 417.4 416.8 415.7 414.8 415.6 416.5 417.5 418.4 419 419.2 419.4 418.6 417.1 414.7 412.1 409.2 406.2 403.6 400.8 396.9 392.9 388.4 381.9 373.9 371.5 366.6 363 359.4 359.4 359.4 359.4 359.4 359.4 359.4 359.4 359.4 370.3 376.3 381.7 385.9 389.5 393 401.7 407.1 408.2 409.1 409.4 410.5 416.1 422.1 429.7 437.9 444.1 446.4 440.1 429.4 419 410.8 406.7 406.3 405.8 409.8 409.8 410.3 408.8 408.3 407.2 405.1 406.5 405.9 405.2 403.7 394.2 402 405.6 398.4 408.2 413.2 415.5 418.2 420.7 420.3 420.9 422 423.6 425.7 429.5 431.5 432.7 432.3 431.3 433.7 434.3 434.5 435.4 437.5 440.6 441.2 443.2 443.7 443.4 442.3 442.3 440.6 438.1 435.9 433.4 430.3 426.8 424.7 422.1 418.2 414.8 410.7 406.2 403.9 401.3 398.2 395.2 391.5 387.4 383 377.5 372 368.2 364.4 359.3 350.1 341.2 337.3 331.6 326.8 323.4 320.2 317 313.4 309.3 303.6 295.6 291.3 284.6 281.1 271.3 261.1 234.7 218.9 223.3
535.7 543.6 550.1 555.9 561.8 574.1 584 595 607.9 622 635.9 646.5 644.2 635 624.9 613.8 595.7 577.4 563.6 551.6 542.9 532.8 522.6 510 498.9 488.6 480.5 473.5 467.8 462.2 458.1 455.1 452.2 450 446.6 442.9 441 437.5 435.1 433.7 433.1 432.1 429.4 429.1 427.6 426.1 424.4 422.7 419.4 417.6 414.1 401.3 411.4 411.4 411 409.6 408.9 409.6 409.8 410.9 412.2 412.7 413.4 414 413.3 412.1 410.1 407.2 404.1 400.4 398.2 395.4 391.8 386.3 380.4 374.6 369.1 364.8 359.8 359.4 359.4 359.4 359.4 359.4 359.4 359.4 359.4 359.4 368.6 370.6 381.5 386.6 390.1 393.8 398.3 408.1 411.7 413.7 415.8 416.6 416.3 429.2 435.1 444 453.5 453 450.7 445.1 438.9 432 424.1 422.4 419.8 421.7 426.2 426.5 425.7 424.3 423.7 423 422 418.2 416 414.8 413.7 405.5 411.1 418.5 416.5 414.5 418.6 419.4 420.5 422.9 423.9 425.6 425.7 426.8 427.1 428.1 431.7 433.3 434.1 432.8 434.3 434.8 437.7 441.6 445.3 448.9 450.9 452.3 452.2 451.5 450.6 449.5 447.4 445 442.4 439.2 435.2 431 428.2 425.3 422 418.5 414.9 410.9 407.6 403.8 401 398.2 394.2 389 383.8 379.1 374.4 370.8 367 361.7 354.1 343.3 339.5 334.1 327.2 322.5 318.7 316.5 313 308.3 302.1 294.8 287.2 279.4 276.1 268.9 256.6 241.8 215.9 221.1
544.1 553.4 559.7 568.7 575.8 587.1 600.9 617.1 631.4 644.9 651.8 652.9 647.3 634 623.2 609.6 591.1 573.9 564.7 554.9 544.4 534.4 522.7 512.2 498.2 488.4 480 472.5 467.3 462.5 458 454.2 450.9 448.7 444.3 441.9 439.2 435.6 432.7 431.6 430.2 428.5 426.3 424.9 423 421.1 418.8 416.9 413.2 411.4 408.2 397.9 404.1 405.2 404.9 403.1 403 403.4 403.3 404.8 406.1 405.7 407.7 408.5 408.4 406.6 404.5 401.7 399 395.3 391.4 387.1 381.8 376.9 372.7 367.3 365.1 359.4 359.4 359.4 359.4 359.4 359.4 359.4 359.4 359.4 359.4 367.6 376.6 382.4 385.1 390.7 393.9 399.4 408.6 414.1 416.7 420.6 426.1 430.1 433.8 441.1 451.5 455.9 457.2 456.7 454.5 451.8 447.3 444 443.6 439.5 438.3 438.2 440.1 438.9 436.1 433.7 432.3 430.7 429.5 425.8 424 422.9 421.5 417.9 420 420 420.1 418.1 420.5 421.4 422 424.1 426 426.5 426.4 426.9 427.3 427.9 430.1 433.2 434.7 434.3 435.9 438.3 442.2 445.6 449.3 452.9 454.6 456.6 457.2 456.7 455.4 454.3 452.3 449.5 446.4 442.8 438.4 434.4 430.8 427.7 424.3 420.9 417.8 414.8 411 407.6 403.8 400.4 395.7 391.7 385.8 379.1 375.8 373.3 368.9 364.4 357 345.4 340.9 336.3 329.2 323.6 317.6 314.3 310.2 305.7 300.5 288.2 282.9 276.7 269.3 265.3 251.3 235.8 220 219.5
555.4 565.1 572.5 580.2 591.5 606.8 622.7 642.7 653 660.9 662 654.9 643.2 630.8 617.9 602.4 580.9 569.7 558.8 548.9 540.7 529.6 517.3 504.6 494.1 485.2 478.3 472 466.3 460.9 456.8 453.7 450.4 447.9 445.2 442 438.6 434.3 431.3 428.1 426.4 424.6 422.7 420 418.8 416.2 413.1 411 407.4 404.9 402.1 398.1 398.9 399.7 399.3 397.6 396.9 397.3 397.1 398.7 399.5 400.9 401.9 402.5 402.1 400.5 397.9 394.7 390.2 387.2 382.3 376.9 373.4 368 363.6 359.4 359.4 359.4 359.4 359.4 359.4 359.4 359.4 359.4 359.4 359.4 367.8 376.2 383.2 388.5 391 393.9 400.8 408.1 414.8 418.3 421.3 429.2 437.2 442.9 444.1 446.9 456.2 458.9 459.2 458.9 457.8 456.2 454.5 453.8 452 449.6 446.8 444.3 443.4 442.2 439.7 437.6 436.1 434.1 432.4 428.7 425.6 424.2 422.5 421.4 421.4 421.5 421.5 421.7 422.5 423.3 423.6 423.6 425 425.9 426.5 427 427.4 427.8 429.3 432.3 435 434.9 436.4 440.1 443.8 447.1 451 453.8 455.8 457.4 459.2 458.8 457.5 455.9 454 451.4 448.2 444.7 440.9 436.6 432.8 429.9 426.5 423.3 420.3 417.7 414.4 410.8 404.4 402.7 397.5 393.1 389.3 384.9 379.9 375.5 370.5 366.4 360.3 350.6 341.4 334.7 328.8 326.5 319.8 314 309.6 297.2 295.2 284.1 272.4 270.2 264.9 260.1 248.1 230.7 224 214.3
571.8 577.6 585.5 597.1 612 631.4 647.2 659.4 667.5 667.5 661.2 651.6 639.7 626.5 611.2 592.9 576.3 566.4 553.4 535.9 527.7 516.8 506.4 497.8 490.8 482.7 477.3 471.5 466.3 461.2 456.6 453.3 450.1 446.5 443.6 440.7 437.7 434.8 431.7 428.6 425.1 420.5 419 417.1 413.9 411.6 407.7 404.8 401.5 397.5 396.1 393.7 392.5 391.5 389.7 385.6 387.2 389.7 389.4 391.3 393.4 395.5 395.5 395.7 395.2 394.1 391.5 388.2 384.5 379.6 374.1 370.2 363.5 359.4 359.4 359.4 359.4 359.4 359.4 359.4 359.4 359.4 359.4 359.4 359.4 366.3 375.5 383 387 393.2 396.8 396.5 407 414.4 418.9 421.9 427.6 436.8 446.1 452.2 452.9 453.2 457.5 460.2 460.7 460.8 460.7 459.6 457.7 456.2 453.8 450.5 446.8 445 444 443.1 441.7 439.8 437.6 435.7 433.1 429.5 426.8 425.1 423.9 423.2 422.9 422.7 422.7 423.4 424.1 424.6 424.9 425.1 425.4 425.9 426.2 426.5 427 427.7 428 431.2 434.1 434.3 435.8 438.7 442.4 445.7 450.2 452.4 454 455.4 457.9 459.1 457.5 456.2 454.4 451.9 449.5 446.3 442.6 438.4 434.9 431.8 428.7 425.4 422.6 420.5 417.4 414 410.4 406.1 400.7 395.9 391.6 387.3 382.3 377.4 371.5 366.1 360.4 353.4 346.7 340.5 332.7 327.7 322.5 315.5 307.4 296.9 289.2 273.1 270.2 265 257.5 251.2 240.9 229.8 220 217
582.1 585.9 603.7 621.6 639.4 652.8 662.6 668.9 670.4 666.9 655.5 646 634.8 621 603 587.8 570.9 556.6 548.1 539.1 519 509.7 503.8 496.1 489.6 482.1 476.6 471.6 466.7 461 456.4 452.5 449.3 445.5 442.6 439.2 435.9 433.4 430.8 427.5 423.6 418.8 410.1 413.3 411 408.1 404.4 399.5 392.3 387.2 383.8 384 376 374.9 373.4 373.1 373 371.1 377.2 383.4 386.1 387.4 387.8 388 387.7 386.8 385.4 382.5 379.1 374.4 364.7 359.4 359.4 359.4 359.4 359.4 359.4 359.4 359.4 359.4 359.4 359.4 359.4 359.4 366.1 374.2 382.1 387.8 392.9 396 400.9 405.6 405.1 416 421.7 425.7 433.3 442 450.7 456.8 456.8 456.4 460 462.6 462.6 462.3 461.8 460.4 458.6 456.2 454.1 450.4 447.2 445.5 444.1 442.7 440.9 437.8 436.2 435.8 431.6 429.1 427.9 426.7 425.3 424.7 424.1 423.9 424.3 424.9 424.8 425.2 425.5 425.8 425.7 425.7 426.2 425.9 426.3 426.9 427.3 429.4 432.2 431.6 431.3 434.8 438.3 442.7 447.3 448.9 449.5 451 453.6 456.4 457 455.7 454.8 452.6 450.2 447.8 444.2 440.7 437.2 433.8 431.1 428.3 425.9 423.1 420.4 417.4 414.1 409.7 405 400.1 395.1 390.5 384.9 379.5 373.2 367 361.2 356 350.5 344.5 338.6 331.6 326 318.3 310.6 299.6 287.8 280.6 271.6 260.9 255.6 251.1 242.6 231.2 224.9 216.2
590.6 607.1 627.7 643.6 654.9 664.1 673.8 670.3 669.2 661.4 652.3 639.5 627.3 612.9 593.8 576.9 567.3 553.2 540.7 527.6 516.5 511.8 499.8 493.3 485.5 481.1 476.5 471.6 466.6 460.8 456 452.2 448.7 445.4 442.2 439.5 436.4 432.8 428.9 425.9 422.2 415.8 406.2 407.6 407.4 397.2 390.4 389.4 385.1 386.8 386.3 382.1 385.1 385.5 381.8 374 370.2 372.3 367.6 366.3 365.9 366.6 365.9 365.6 371.4 375.7 375.7 375.3 364.1 359.4 359.4 359.4 359.4 359.4 359.4 359.4 359.4 359.4 359.4 359.4 359.4 359.4 359.4 364.7 374.4 381.1 387 392 397 402.4 406.8 412.9 417.1 419.1 423.9 430.1 440.3 449 454.6 459.3 459 459.1 463 464.5 464.2 463.1 462.3 460.5 457.8 455.7 453.2 450.1 448.4 446.7 445 443.4 441.9 441.4 438.4 434.3 433.3 431.7 429.3 428.2 427 426.1 425.6 424.4 424.9 425.1 425.1 424.8 425.1 425.8 425.7 425.5 425.7 425.1 425 425.2 425.6 426.4 429.5 429 427.6 430.5 433.4 437.1 441.2 443.8 445.1 446.8 449.2 451.5 453.6 455.8 455.3 453.5 451 448.5 446 442.7 438.9 435.5 432.9 430.8 428 425.4 423 420.3 417.1 412.9 408.2 402.7 398.4 393 387 381.8 375.5 369.3 363.3 357.9 352.8 347.6 342.3 336.1 328.6 321.3 315.3 307.3 293 286.6 277.6 272 262.5 251.8 241.5 231.5 221.6 213.3
615.8 626.7 646.5 655.4 662 670.1 673.2 670.2 662.6 655.3 647.2 634.6 620.2 600.2 581.2 570 558.3 549.4 537.4 522.6 510.7 505.9 496.7 492.9 484.6 480 476 470.8 465.4 459.9 455.8 452.1 448.8 445.5 442.2 439.6 436.5 432.9 429.5 426.1 422.5 418.3 414 408.3 394.7 396 397.4 393.9 397 396.3 395.5 396.1 395.3 394.1 392.1 388.6 386.4 385.2 380.6 377 375.4 374.5 359.4 359.4 359.4 359.4 359.4 359.4 359.4 359.4 359.4 367 366.9 359.4 359.4 359.4 359.4 359.4 359.4 359.4 359.4 359.4 367.8 368 378.7 386.2 391.3 395.8 401.3 407.7 413.9 419.3 422.4 424.2 427.1 433.1 445.4 453.2 459.3 463.3 464.7 464.5 465.1 466.1 465.5 464.1 462.6 459.5 456.4 454.6 452.3 450.1 448.1 446.8 445.3 443.7 442.9 442.1 440 438 436.4 435.4 432.2 430.4 428.8 427.4 426.7 425.8 425.1 424.7 424.5 424.3 424.4 425.2 425 422.9 423.5 423.4 422.8 422.4 423.6 423.9 424.9 425.9 424.1 426.4 429.4 432 435.1 437.5 440.4 442.2 444.5 446.7 448.3 450.5 454.8 453.9 452.4 449.9 447.2 444.1 440.4 437.3 434.8 432.2 429.5 426.8 424.7 422.6 420.1 415.4 410.7 405.1 399.7 395.3 389.1 383.8 377.8 370.7 365.4 360.6 355.8 350.2 344.7 339.4 332.1 324.7 316.3 305.2 297 289.3 277.6 273 265.6 255.6 247.3 235 227.3 219.8
627.2 646.1 657.1 662.9 668.5 672.9 672.4 664.1 653.7 648.3 639.1 626 610.3 592.5 576.7 560.8 551.5 537.8 527.2 521.1 511.6 500.9 493.7 487.8 482.8 479 475 470.4 464 459.7 454.8 451.4 448.4 445.6 442.3 439.7 436.5 433.5 430 426.3 422 416.3 406.9 400.9 400.7 404 403.2 401.1 401.5 401.1 400.3 400.1 398.9 397.4 395.1 393.2 391.1 389.2 386.3 386.7 386.8 386.4 385 381.7 374.9 363.5 359.4 359.4 359.4 366.6 372.2 370.8 368.7 364.1 359.4 359.4 359.4 359.4 359.4 359.4 365 370.9 375.9 380.8 384.7 384.3 394.4 399.4 406.4 414.2 420.1 424.2 426.6 429.1 433.4 437.9 445.5 455.9 464.6 467.5 467.7 467.4 465.6 466.4 465.8 463.9 462.2 459.5 457.1 455.4 451.3 449.7 448.1 445.8 444.3 443.8 442.9 441.4 439.7 439.5 438.6 437.9 436.1 433.7 430.8 428.9 427.5 426 425.1 424.2 423.6 423 423.1 423 422.9 421.5 420.1 420.3 419.7 420.7 421.5 421.5 420.1 421.2 421.1 422.5 425.3 428 429.4 432.5 434.5 437.4 439.8 441.9 443.6 445.4 451.7 452.6 451.5 450.3 448.5 446 442.6 439.4 436.4 433.6 430.9 428.3 426.1 424.1 422 418 412.3 407.4 401.3 396.3 391.1 384.7 379.3 373.4 367.6 362.5 358 352.6 347.1 341.8 334.3 326.7 318.6 308.9 298.6 290.4 280.9 268.4 262 254.4 245 234.2 230 223.5
653 659.9 666 669.2 671.8 668.4 660.7 651.7 645.1 639.3 630.5 615.6 598.9 582.1 570.1 557.2 548.9 536.5 523.3 513.7 503.9 497.7 491.7 484.7 480.4 476.4 472.5 468.4 463.3 458.2 453.9 450.7 447.7 445 442.3 439.4 436.3 433.1 428.9 424.5 417.8 407.7 406.8 409.9 410 408.7 408.3 406.9 406.4 405.9 405.2 404.3 402.8 401.5 400.1 398.5 397 394.8 393.2 391.2 391.5 390.4 388.6 386.7 385.1 383.2 381.2 378.9 378.1 377.7 375.8 373.6 369.3 359.4 359.4 359.4 359.4 359.4 359.4 365.6 371.3 378 382.6 386.6 391.1 394.2 395.5 403.7 411.9 420 424.7 428.2 431.5 437 440.7 445 447.6 456.7 464.5 468 468 468.1 467.9 466.1 466.4 463.2 460.2 459.3 456.9 454.3 451.9 449.4 447.6 445.5 444.3 443.1 442.7 442 441 439.5 438.9 438.4 437.6 436.7 435.4 432.7 428.8 427.1 425.2 424.2 423.3 421.6 421 420.8 420.2 419.7 418.6 418.2 416.7 417.5 420.2 421.1 418.6 418 417.6 418.4 420.8 423.9 425.3 427.4 429.1 431 433.9 437.2 438.5 440.9 445.6 446.8 448.3 450.3 450.7 449.9 445.3 442.5 438.8 435.3 432.5 429.8 427.9 425.9 423.4 419.9 415.4 409.4 403.8 398.1 392.3 386.3 380.9 374.3 368.7 364 359.3 354.1 349.5 343.9 336.2 327.7 319.3 310.8 300.3 289.4 280.1 269.6 259.6 253.7 246.7 235.1 229.5 223.6
663.7 668.5 670.8 670 665.1 656.2 650.6 644.2 636.9 627.5 618 604.2 591.6 576.3 564.2 554.3 545 533.5 520.7 512 505.6 494.8 487.3 481.9 478.2 474.8 470.8 466.4 461.7 457.1 453.2 450.1 447.1 444.1 441.3 437.8 434.4 430.3 423.9 414 411.5 416.4 417.1 417.2 416.5 416.2 414.9 414.2 412.8 411.8 411.3 410.1 408.6 407.4 406.2 404.3 402.4 400 399.2 396.2 395.7 394 391.7 390.5 389 387.1 385.1 383.4 382.1 380.7 378.7 375.1 370.9 359.4 359.4 359.4 359.4 365.8 367.7 373.2 378.3 384 389.1 392.5 396.1 399.4 401.7 401.4 418.1 424.8 429.3 432.6 438.5 444.3 448.8 451.5 454.4 457.2 464.9 468.4 469.5 469.1 468.4 467.7 466 462.1 460.1 458.4 455.8 454.6 452.1 450 447.8 446.1 443.1 440.7 441.4 441.2 439.8 437.8 438 437.6 437.4 437.4 437.2 436 432.6 427.9 425.3 424.4 422.5 420.6 419.2 419.3 418.8 417.6 417.1 415.9 414.6 415.3 418 420.2 418.9 416.1 414.8 414.6 416.5 419.5 422 423 424.5 426 429.2 432 433.5 434.6 436 439.3 441 446.2 451.5 452.3 448.7 444.3 441.2 437.8 434.3 431.7 429.4 427 423.8 420.9 417.3 412.7 405.5 399.1 393.6 387.9 382.2 375.2 369.3 364.9 361 356.2 350.6 345.2 337.6 327.7 315.7 304.5 294.7 280.3 270.9 266.6 259.8 250.4 245.3 236.3 228.2 222.3
666.1 667.9 666.6 663 657.5 650.2 645.3 637.8 628.6 619.6 607.3 593.5 579.7 569.8 562.2 551.2 541.5 529 516.8 508 500.8 492.5 484.4 478.8 475.7 472.5 469.3 464.7 459.9 455.7 450.8 448.1 444.9 441.9 439.1 431.3 425.6 422.9 424.8 427.1 426.3 426.2 425.3 424.1 423.1 422 420.8 419.4 417.3 417.3 416.6 416.8 413.8 412.3 410.8 408.7 406.4 404.9 403.7 401.9 400.6 398.2 396.3 394.9 393.2 391.2 389.4 387.5 385.6 383.3 380.3 375.8 370.8 359.4 359.4 365.3 370.2 373.9 372.5 380.1 384.1 390.2 394.7 398.9 401.4 404.6 409.2 408.8 421 428.7 433.7 440.1 448.5 454.5 456.1 457.4 457.1 458.7 465.2 468.9 469.6 469.1 468.4 467.2 464.1 461 459.1 456 455.4 454.4 452.4 450.6 447.4 446.2 444.2 442.4 439.4 437.9 437.5 436.6 435.8 436.6 435.4 434.9 434.9 433.7 431.7 428.8 425.5 423 421.3 419.5 417.6 417.8 417.3 415.7 414.6 412.8 413.5 413.2 414.6 416.6 417.4 415.5 413.6 410.7 411.8 414.8 418.4 419.9 420.9 422.1 424.2 426.6 428.2 429.2 430 431.4 434.4 437.5 444.5 448.4 446.6 443.7 440.8 438.4 435.4 432.4 430 427.3 424.5 422.4 419.4 415.4 408 400.7 394.4 388.6 383 376.3 370.5 365.5 361.9 358.1 352.4 345.8 339 325.7 307 298.6 287.6 278.3 268.2 261.7 255.8 247.5 243 233.6 225.9 220.8
667 665.3 660.3 655.9 650 644.7 637.6 629.6 621.2 610.6 596.2 582 572 565.2 555.6 546.3 534.8 522.9 513.5 505.6 495.8 490 484.1 478.5 473.5 469 466.7 463.7 459.1 455.2 451.6 448.2 445.2 442.2 435.1 429.3 437.1 437.2 435.9 435.3 435.3 432.6 431 429.3 427.8 426.6 425.1 423.2 421.3 420.7 420.2 419.5 417.9 416.2 414.4 412.1 409.8 408.8 407.6 406.5 404.7 403.1 401.7 399.9 397.6 395.1 392.9 389.8 387.5 384.7 381.1 376.2 359.4 359.4 367.8 373.4 377.5 381.4 384.4 387.1 391.9 395.4 400 403.7 407.5 411.7 418.4 423.1 415.2 432 439.3 449.6 457.6 460.7 460.6 460 459.4 460.8 464.4 469.1 469.6 469.4 467.8 466 463 460.3 458.4 456.9 455 452.1 451.1 450.1 448.6 446.3 444.4 443 440.8 439.1 437.1 434.5 433.4 434.8 433.5 432.6 431.4 430.4 428.4 425.9 424.4 421.8 419.9 418.3 417.1 415.6 414.4 413.6 412.3 410.2 410.7 409.9 409.9 411.9 413 413.1 411.3 408.6 405.9 409.1 413.3 415.9 417.4 418.3 419 420.7 423.4 424.4 424.6 425.5 426.8 430.2 433.7 440 441.6 440.3 438.3 436.7 435.1 433.4 431.5 429.2 426.6 424.3 421.3 416.4 408.9 400.5 395.2 389.4 383.8 377.2 371.4 366.1 362.4 358.7 353.5 345.3 334.9 317.7 303 292.9 281.3 271 265.3 253.2 249.1 244.4 239.2 235.7 223.8 217.9
666.4 661 655.7 651.5 644.4 637.3 629.7 621.9 612.1 597 586.3 570.9 562 557 546.3 539.1 528.8 517.1 506.9 500.7 492.6 487.5 482.3 478 473.5 468.9 464.6 461.3 458.7 456.1 453 449.5 444.9 433.9 436.6 442.5 443.4 442.4 441.9 440.6 439.2 436.8 435.1 433 431.3 430.1 428.5 426.2 425.1 424.1 423.3 421.8 420.2 418.9 417.3 415 412.6 412 411.1 410.1 409.6 408.1 406.2 404.1 401.6 399 395.6 392.2 389 385.7 380.9 365.5 359.4 370.3 377.2 381.4 385.6 389.2 392.3 395.4 398.6 401.6 404.4 407.7 413 419.8 426.5 430.7 433.6 432.9 439.3 457 463.4 466.8 466.9 462.2 461.8 465.2 466.8 469.2 469.2 469.3 467.9 465.9 463.1 460.3 458.5 457.1 455.4 453 451.6 448.3 448.2 447.1 444.9 443.3 441.3 439.4 437.8 434.7 432.3 430.1 431.1 430.4 428.8 427.7 425.7 423.5 421.7 420.6 419.5 417.8 415.8 414.1 412.3 411.1 409.9 409 406.7 406.4 404.4 406.6 407.2 408.2 407.1 405.1 401.2 402.6 405.9 409.5 412.5 413.8 414.9 416.5 418 419.2 419.8 420.3 421.2 422.8 425.5 428.4 430.9 432.8 434.8 436.5 435.2 433.8 432.1 429.8 427.4 425 422.1 417.3 410.2 402.3 396.3 391.6 384.7 377.6 372.3 367 362.3 357.8 352.4 344.5 326.1 310.5 297.8 294.1 286.6 275.3 269 256.9 245.8 240.9 236 231.5 225.8 218.8
663.5 657.2 651.3 645 636.6 627.7 620.8 613.2 599.9 581.8 568.9 561.5 554.1 548.3 538.5 528.2 518.4 511.7 503.1 495.8 490 485.3 480.4 476.4 472.5 469 465.2 460.9 457.1 453.7 450.6 445.3 437.8 445.2 447.5 447.8 448 447.5 445.6 443.7 442 440.8 437.8 437.3 435 433.6 432 430.5 428.8 427.3 425.4 424.6 423 421.6 420.2 417.9 416.3 414.9 414.5 413.7 413.4 411.5 409.3 406.4 403.4 400.5 397.4 394.1 390.9 386.8 369.9 361.1 374.2 381.4 385 388.1 391.4 395.8 398.5 400.3 403.8 406.8 409.5 413.8 420.4 426.7 432.7 436.6 439.9 444.3 435.4 447.4 463.2 467.4 471.2 468.9 466.7 470 470.4 469.9 469.6 469.5 467.9 465.9 463.3 460.5 458.7 457.2 455.6 453.7 452.3 450.2 448.1 445.4 443.8 443.4 442.1 439.8 437.7 435.3 432.9 430.6 427.6 426.1 426.8 426 424.7 422.2 420.7 419.7 418.8 417.8 415 413 411.3 408.5 407.5 407 403.8 399.5 397.2 400.8 401.1 402.6 403 401.5 398.9 396.6 398.6 401.9 404.2 407.8 410.2 411.5 413.3 414.3 415.2 416 417 417.9 419.1 420.4 423.9 425.7 429.8 433.8 434.1 433.1 432 429.8 427.9 425.6 423.3 419.3 411.8 405 399.6 393.3 385.7 377.6 372.2 366.3 361.2 356.5 350.6 344.7 335.5 329.1 322.1 312.1 298.1 284.6 274.9 263.9 250.9 241.3 234.8 230.6 225.5 218.9
660.4 653.6 646 637.2 628.3 619.9 611 599.9 590.6 574.2 562.2 555.1 545.2 538.8 529.6 519.5 509.3 504.1 498.5 491.8 487.5 483.2 479.4 475.8 471.8 468.1 464.7 461.1 456.7 452.5 443.3 443.4 449.9 450 451.1 451.6 451.4 450.6 448.8 446.6 445.7 444.2 441.7 440.9 438.9 437 435.4 433.6 431.2 429.4 427.7 427 425.9 424.3 422.7 420.9 419.2 417.8 417.1 416.6 415.4 413.3 411.1 407.8 404.6 401.9 398.9 395.8 392.3 380.3 367 370.6 385.1 387.7 391.6 394.4 397.4 400.7 403.5 406.1 406.8 411 413.5 420.4 427.2 432.8 437.4 441.8 448.5 456 451.4 445.4 463 468.8 474.9 474.5 471.8 471.2 469.9 469.4 469.7 468.8 467.3 465.3 462.9 461.8 460 457.7 455.8 454.4 452.6 450.7 448.6 446.8 444.1 441.9 440.9 440 437.8 435.5 433.4 431.3 428.8 426.2 424.2 423.2 422.8 422.4 420.4 419.4 418 417.1 413.8 411.3 409.2 407.1 404.8 402.8 402.1 397.2 388.5 391.3 394.4 396 397.5 398.1 395.4 392.5 392.7 394.1 395.9 399.5 402.1 404.7 407.3 409.1 409.9 410 411.7 412.6 413.1 415.3 416.9 419 422.8 428.2 430.7 432.1 431.3 430.1 428.2 425.9 423.6 419.7 413.7 406.9 400.1 392.3 386.6 378.8 371.9 366.7 363 358.6 354 349.5 344 336.2 327.9 318.1 304.4 289.6 279.1 267.1 255.7 242.9 238.3 231 223.9 218.4
655 647.7 638.3 628 620.6 611 601.1 589.9 573.6 562.9 554.5 547.1 538.3 531.6 521.4 512.7 506.2 500.1 494.4 488.4 483.9 480.2 477.5 474.4 470.3 466.2 462.9 457.5 448.7 444.7 448.5 452.9 454.1 454.3 454.5 454.9 454.5 452.8 452.1 450 449.4 447.4 445.4 444.4 442.6 440.5 438.5 436.5 434.2 432 430.3 428.9 427.7 426.5 425.3 423.6 421.9 420.8 419.4 418.2 416.8 414.7 412.3 409.3 406.2 403.3 400.2 396.8 392.4 375.9 367.9 380.5 391.6 390.2 397.4 400.2 402.1 405 407.8 410.8 413 417.3 422 424.2 432.7 437.5 442.7 449.8 460.2 466.4 464.7 457.2 463.6 471.7 476.6 475.7 474 472.4 469.9 469.4 468.6 468 466.5 464.9 463.4 462 460.4 458.5 456.3 454.1 452.7 451.6 449 446.1 444.1 441.8 440.6 439.4 437.7 435.7 433.9 431.8 428.8 426.6 424.5 422.8 420.7 420.2 420 418.3 416.8 414.7 412.5 409.2 406.6 403.3 401.7 400.5 398.4 395.9 392.8 386.3 383.2 390.1 391.1 391.3 392 390.5 386.2 387 387.4 391.1 393.1 396 399.4 402.9 404.4 406.9 406.9 407.2 408.1 409.6 411.2 413.3 416.4 421 425.5 428.6 430.9 430.4 427.9 425.7 423.4 421 417.2 410.7 402.4 393.9 386.2 380.2 374.3 368.9 363.3 359.8 356.7 353.3 346.1 335.8 327.5 317.6 306.2 292.7 281.3 271.4 260.1 248.5 236.1 233.9 221.4 218.3
649.7 640.1 631 622.3 614.5 603.9 593.6 578.3 565.3 556.4 546.2 539.6 530.8 522 513.6 508.9 503.7 497.8 489.6 484.1 477.3 474.9 472.2 469.1 465.9 459.1 453.1 451.7 455.9 457.7 457.4 459.1 458.7 458.8 458.9 458.1 458.5 458.1 455.3 454.1 453.1 451.4 449.2 448.1 446.4 444.5 442.9 440.4 437.5 435.8 434.2 432.5 430.9 429.4 427.4 425.3 423.6 422.5 421 419.1 417.4 415.3 413 409.8 406.8 403.9 400.6 395.6 384.9 369.8 382 391.9 397 398.1 402.4 405.5 406.8 409.2 411.8 416.5 422 421.6 432 435.5 437.7 442.6 448.9 458.6 467.8 468.8 466.7 460.8 465.5 473.2 477.1 476.8 475.3 473.7 471.3 468.6 467.5 467.2 466.6 465 463.2 461.2 459.6 458.5 456.5 454.7 453.1 450.4 448.1 445.6 443.8 441.9 440.2 438 436.2 434.8 432.9 431.3 429 426.6 424.2 421.9 419.4 418.7 418 416.4 414.2 412.2 410.1 407 403.1 400 396.1 394.3 394.3 391 389.2 385.6 378.1 381.1 384.6 385.3 385.2 384.3 383.7 381.3 382.4 383.7 385.1 386.7 391 393.8 397.2 399.8 400.3 400.4 401.2 403.9 405.4 407.6 410 414.8 419.2 423.4 427.4 430.2 427.8 425.9 424.5 422.4 418.7 412.7 403.2 394.9 387.2 381.4 375.9 369.4 363.6 360 357.6 355.2 348.5 340.9 330.3 318.8 307.3 295.9 283.4 272.4 263.5 251.3 239 232.2 224.2 216.5
645.4 635.9 626.5 620 611.8 599.1 583.2 571.8 561.9 546.9 540.6 535.4 526.5 518.3 511 503.6 498.3 491.1 480.1 477.9 477.4 472 468.8 463.1 461.9 462.1 462.6 462.8 464.2 463.6 463.4 464.7 463.6 463.4 463.6 462.8 462.3 461.8 459.9 458.5 457 456.1 454.1 453 451.4 449.1 447.8 444.2 441.7 440.3 438.4 436.1 433.7 431.4 429 427.4 425.7 423.7 421.8 419.6 417.2 414.7 412.5 410 406.6 403.2 399.9 393.8 379.7 379 395.1 398.2 403 404.5 405.6 409.7 411 413.5 417.4 425.3 433.1 437.2 438.6 441.1 443.8 448.7 457.6 466.4 469.8 469.3 467 463.1 467.2 472.4 476.7 477.4 475.5 473.4 471 470.8 467.3 467 464.4 464.6 462.3 460.2 458.8 457.7 456.5 454.4 452.3 449.6 446.9 445.5 443.4 440.7 439.2 436.9 434.8 433.2 432 430.2 427.8 425.1 423.4 420.8 417.5 413.9 414.4 413.5 412.4 409.4 406.6 403.4 400.6 396.8 394.1 388 389.7 387.8 385.2 381.5 379.3 371.5 377.4 379 378.8 378.6 378.3 375.3 376.5 377.6 377.9 379.3 385 386.7 388.8 391.3 391.4 388.9 389.9 397 400 402.3 405.2 408.1 411.8 416.2 421.2 426.5 425.5 426.3 425.1 421.4 418.1 410.8 401.9 393.8 386.3 380.5 374.6 369.9 364.9 359.4 356.7 353.4 346 340 331.4 319 307.2 294.3 282.5 272.1 264 253.3 240.1 226.6 224.1 216.7
641.6 634.4 626.2 619.5 608.2 594.1 579.4 567 557.3 548.6 538.7 533.2 524.6 517.8 510.9 505.4 502.3 494.9 492.2 489.7 485.5 484.4 481.4 477.1 474.3 471.7 470.4 469.5 470 469.8 469.8 469.3 469.1 468.8 469.2 468.1 466.8 465.6 465.6 464 462.6 461.6 460.4 458.8 456.3 454.1 452.9 449 448.1 445.4 443.2 440.1 437 434.3 431.2 429.6 426.9 424.6 422.6 420.7 418.5 415.8 412.9 410 407.1 404.5 400.9 379.5 378.3 393.2 401.7 405.1 408.9 410.6 410.8 414.6 417 420.9 429 435.9 441.2 442.8 444.5 448.7 453.2 455.7 466.4 471 471.4 470.4 469.2 467 468.2 472.3 476.1 477 475.9 474.8 473.2 472.9 468.8 468.1 466 464.3 462.4 460.2 457 455.1 454.9 452.7 451.3 449.1 446.5 443.8 442.2 440 437.8 436.1 433.3 431 429.6 428.4 426.4 424.2 421.4 419.1 416.1 412.4 408.9 409.2 409 407.1 404.4 401.3 398.1 395 390.2 387.9 383.8 383.4 382 380.7 374.9 374 370.5 373.2 372.9 372 371.5 370.3 370.9 371.5 371.6 373.3 373.5 376.7 382.6 384 385.7 387.2 387.5 389.7 393.9 397 400 401.1 404.2 407.4 411.6 416.3 422.7 424.6 423.1 418.1 412 404.7 397.9 390.8 384.1 379.1 374.1 369.1 363.7 357.5 353.6 350.4 344.4 338.9 329.6 316.5 303.6 293.2 280.1 270.7 262.5 254 243.3 233 220 214.9
639.7 634.9 627.2 615.1 600.3 585.2 574.2 563.7 556 548.9 539.9 529.7 524.6 519.5 514.4 511 506.5 501.4 498.1 495.2 491 491 488.8 485.4 483.5 481.3 481 478.1 477.9 478.5 476.4 476.3 475.8 475 474.8 474.1 472.6 472.6 471.5 470 469 468.8 466.6 465.2 462.5 461.6 458.4 456.3 455 451 447.2 444 440.5 437.2 433.8 431.1 428.3 426.4 424.4 422.2 419.5 416.2 412.9 410.3 408.1 406.1 394.1 378.9 397.8 403.3 407.3 410.6 412.2 416.2 415.8 420.6 424.5 431.4 438.7 443.6 447.2 449.8 450.2 459 464.4 467.5 471.8 475.2 474.1 472.7 471.6 470.4 472.7 474.2 476.9 476.4 477.5 476.1 475.6 473.9 471.3 469 466.8 464.7 462.8 461 458.8 456.2 454.6 451.9 448.7 447.1 445 442.7 441.4 439.5 437.5 435.1 432.3 429.3 427.3 426.3 423.9 421.5 420.2 417.3 415 412.3 408.2 405.8 405.2 403.8 402 398.8 395.3 392.6 387.5 383.4 380.5 375.2 377.6 375.9 372.7 367.6 363.1 367.3 367.2 366.2 365.6 364.4 364.9 365.9 365.3 365.7 365.3 367.4 370.3 374.8 378.8 380.8 383.6 385.7 388 391.1 394.4 395.5 396.7 399.1 401.5 405.1 410.1 413.6 412 408.5 403.7 397.9 391.6 386.4 381.8 376.8 371.6 366.6 362.1 356.9 350.5 347 342.8 337.6 327.4 314.1 301.6 292.1 281.8 266.9 258.8 251.9 245 235.4 221.2 212.1
642 637.8 628.3 613.8 596.8 583 572.6 563.3 555.1 548.1 542.8 534.9 530.1 525.2 520.2 516.3 511.8 508.3 504.8 501.2 498.8 497.7 494.9 492.8 490.8 489.1 488.6 487.3 486 486.2 484.8 482.9 482.6 481.9 483 484.3 481.9 482.1 480.7 478.1 477.8 477.6 476.1 472.4 470.8 468.3 465.2 461.9 459.6 454.8 450.5 446.4 443.1 439.5 436.1 432.6 430.5 428.4 425.8 422.6 418.8 416.4 412.5 411 408.2 403.1 393.3 381.3 405.1 408.7 412.3 415.3 417.9 421.1 423.8 422.4 434 440.7 446.1 450 454.4 459.6 456.3 471.6 475.3 475.5 478.9 484.1 482.8 480.2 478.4 476.4 475.8 477.7 478.8 478.7 478.9 476.5 475.8 474.9 471.8 469.4 467.2 464.7 463 461.7 460.1 458.5 455.3 452.9 449.4 446.7 444.3 442.7 439.8 436.9 435.5 433.6 430.3 426.8 425.2 424.2 422.4 421.1 418.4 415.2 414.1 411.5 408.2 405.1 401.8 399.9 399.1 396.8 392.6 388.4 383.4 379.2 375.6 373 369.5 369.5 367.6 364 360.3 360.8 361.9 361.7 360.7 359.4 359.3 360 359.7 359.5 358.6 359.6 361 363.6 367.8 371.9 376.3 379.6 382 385.2 388.3 389.5 389.7 391.5 394.4 396.5 399.5 402.7 401.6 398.5 394.6 390.5 386.9 382.6 378.3 373.6 368.4 363.5 359.7 355 349.4 344.6 339.9 334.6 323.5 309.1 298.1 285.2 272.5 263.4 256.5 250.5 244 235.7 224.1 209.6
644.6 638.9 631 617.5 602.4 587.5 576.2 567.7 558.8 552.4 547 539.8 536.2 532 527.4 522.8 518.2 514.9 511.5 506.3 506.4 504.5 501.6 499.8 498 496.3 495.5 495.6 495.4 494.2 493.2 492.4 492.4 491.7 493.8 494.5 495.5 493.8 490.1 488.9 489.2 487.6 485.7 480.6 477.9 474.7 470.5 466.8 462.5 458.3 453.8 449 445.1 441.4 438.1 435.2 432.6 429.9 426.8 423.4 420.2 417.2 414.5 412.1 408.4 399.2 383.1 399.9 409.8 413.9 417.2 420.5 424.6 428.4 432.8 426.6 440.9 448.2 452.2 457.2 464 471.5 476.6 477.7 478.5 480.5 486.9 488.3 487.3 484.8 482.8 478.3 479.8 477 478.8 478.3 478.3 478.4 476.6 473.9 469.9 468.3 467.2 465.2 463.2 461.7 460.7 459.1 456.6 453.4 450.2 446.6 444.9 442.6 437.4 435.1 432.9 430.1 427.3 424.5 422.9 421.9 420.7 419.9 417.8 415 411.1 409 406.6 405.5 402.4 392.6 388.1 388.2 387.9 385.2 379 374.2 371 367.8 363.2 361.6 361 359.6 355.7 351.1 356.1 357 356.1 354.4 353.5 354 354.2 353.7 352.3 351.2 353.2 355.5 357 361.2 364.1 368.7 375.6 378.7 382.1 383.7 384.9 385.7 387.7 390.5 392.1 392.3 391.8 389.7 387.3 384.2 380.3 377.1 374.4 370.4 366.3 361.7 357.1 352.3 347.3 341.7 334.8 326.4 313.8 301 291.9 278.4 267.8 259.6 252.9 247.4 240.9 233.2 223.7 209.7
648.5 640.1 632.4 621 608.7 593.7 583 573.5 564.2 556.7 549 546.4 542.4 537.9 533 529.4 525.9 522 518.8 515.3 513.8 512 508.7 507.9 505.7 504.9 503.5 504.2 504.7 503.5 501.6 503.9 504.5 503.2 506.6 508 506.6 504.4 501.7 500.4 498.9 496.7 492.7 486.7 482.3 477.8 473.8 469.1 464.3 460.9 457.1 451.2 447.1 443.6 440.8 437.9 435.1 431.4 427.9 424.2 420.6 417.9 415.4 412.9 408.6 393.2 395.2 409.2 413.9 418.6 422.6 426.9 432.5 437.7 441.8 444.4 435 454 459.3 466.4 474.9 480.2 479.9 480.2 481.7 487.4 491.3 490.4 488.2 486 482.9 482.4 480.9 476.9 477.6 478.5 479.5 479 478 475.2 472.6 469.6 466.2 465.3 464 461.8 460.5 458.7 456.4 453.3 450.3 447.5 444.3 442.5 439.1 437.6 431.9 424.3 423.1 421.5 419.8 418.7 416.4 416.7 415.3 411.9 411.9 409.9 400.6 395.9 398 396.4 393 386.2 374.6 374.5 374.8 370.3 365.6 362.3 359.8 355.9 353.4 353.2 351.3 348.1 347.7 351.2 350.1 349.3 348.6 350 349 347.7 346.8 344 346 347.5 349.1 352.6 354.7 359.3 364.6 369.9 373 377 379.6 381.1 381.6 381.1 383.6 384.2 383 380.4 378.9 376.3 373.3 370.8 367.8 365.2 359.7 359.4 354.3 349.7 344.9 340.3 332.7 321.8 307 293.6 285.6 273.8 264.3 256.4 249.2 243.9 236.9 230.3 220.5 208.3
654.3 641.5 633.6 625.1 615.3 604.1 591.6 579.1 568.3 562.8 557.5 552.8 549.2 545.1 542.2 539.4 536.2 532.3 525.6 523.3 521.5 519.1 517.9 519 515.8 517.3 517.6 517.1 514.3 513.1 510.6 516.3 518.1 516.8 518.1 517.8 515.9 513.8 510.1 508.1 505.4 500.9 495.6 491.1 485.4 480 475.1 470.4 465.7 461.8 457.9 453.3 449.2 445.4 441.8 438.9 436.2 431.9 428.3 424.3 420.8 417 414 407.2 398.9 389.4 400.9 413.3 418.8 423.6 428.6 434.9 441.3 446.4 450.3 452.8 444.6 450.7 469 478.2 482.3 482.5 482.3 483 486.4 492.1 492.4 491.2 488.6 486.6 485.9 482.4 481.5 480.1 478.9 479.5 480.1 478.5 477.5 474.9 473.4 470.1 468.2 465.5 462.8 460.7 459.5 457.1 454.4 451.5 448.8 446.3 443.2 442.2 439.6 433.5 430.6 430.3 426.4 422.9 421.2 419.4 418.1 414.4 412.1 413.4 403.6 399.1 395.8 389.1 392.1 386.7 376.5 369.1 364.4 358.8 356.2 358.7 359.5 357.9 354.2 351.7 348.1 344.4 346.1 342.3 336.3 344.9 345 345.2 342.8 344.9 344.1 342.9 342.1 339.9 339.6 340.6 340.5 343.2 344.6 348.9 352.2 356.3 360.8 366.7 373.3 375.8 376.6 376.4 376 375.8 375 372.1 369.2 367 365.9 364.8 361.5 358.2 356.4 354.3 350.6 346.8 344.3 339.7 327.7 312.4 303.4 292.3 282.3 272.2 263.9 255.8 247.4 241.1 232.4 227.8 216.1 204.4
663.6 653.1 642.6 632 624.6 614.2 603 590.7 577.5 568.6 563.8 560 554.5 551.5 546.8 543.2 540.3 537.9 530.4 530.8 529.3 528.1 528.6 529.8 528.1 529.6 529.1 528.3 527 525.7 523.2 528.6 530 529.4 526.9 523.9 521.6 518.4 514.7 511.7 507.6 502.6 497.4 492.5 487.6 482 476.5 470.3 465.3 461.1 457.4 453.8 450 446.3 442.5 438.6 435.4 431.9 428.6 424.6 421.1 416.3 411.1 399 399.4 406 404.1 412.7 422.4 428.1 434.9 442.5 449.7 454.6 457.6 460.9 455.8 456.7 467.2 491.4 491 487.2 486.5 486.9 491 494.4 494.2 492.1 490.4 489.8 487.3 484.5 481.9 479.9 480.7 480.5 480.8 480 478.2 475.1 473.1 470.7 468.5 466.6 461.8 462.9 460.7 458.4 455.8 452.7 449.3 448.5 446.5 442.9 440.9 442.2 438.7 433.7 430.4 427.5 425 422.5 421.7 420 418.9 417.1 416.6 414 410 405 399.9 392.4 379.5 374.5 371.2 363.2 364.7 354.1 346.5 342.5 345.3 344.9 344.1 341 338.5 337.4 329.2 337.9 338.9 339.7 338 339.3 339.5 338.4 337.4 335.3 332.4 331.3 331.4 334.2 335.3 337.2 341.1 344.6 347.7 353.4 360.9 368.7 370.9 372.3 372.2 371.7 369.9 367.6 364.3 360.7 358.7 358.5 357.6 355.6 352.8 350.9 348.1 345.5 343.9 338.2 319.5 305.8 297.8 286.4 276.9 269.1 262 254.6 246.6 237.4 229.2 220.9 209.6 201.5
671 662.4 655.2 643.4 634.4 626.6 615.7 604.1 589.5 576.1 569.8 565.2 560.6 554.8 550.7 546.5 544.1 540.9 539.1 538.9 538.5 537.4 537.7 539.3 539.3 541.2 539.3 538.8 539.2 537.4 537.8 539.7 539.9 539.1 535 532.7 528.7 524.5 518.9 514.2 509.3 503.3 498.6 492.9 487.5 482.3 476.7 471.7 465.7 460.7 457.3 453.7 450.3 447 443.5 439.5 435.4 432.3 429.3 425.9 423 413.4 406.7 404.6 414 400.4 411.7 420.2 424.6 430.1 435.2 448 456.7 462.3 466.9 472.7 480.3 475.4 475.6 500.6 497 491.2 492 492.9 494.5 494.5 495.2 494.1 492.9 491 488.5 484.8 481.5 479.7 481.3 481.4 481 480.1 478.5 475.6 472.2 470 468.4 466.6 465.1 464.4 462.3 459.7 457.1 454.6 452.5 449.2 445.6 443.5 442.8 440.4 438.2 436.1 432.7 429.3 426.7 425.3 423 421.4 420.2 418.4 415.6 411.2 409.5 409.1 406.2 400 397.2 383 384.1 377.9 372.8 363.9 355.5 347.5 340.6 332.3 327 333 328.4 331 320.6 331.9 332.2 332.8 330.9 333.5 334.1 333.8 333.8 331.5 328.8 326.5 324 326.6 326.7 328.8 330.5 333.5 337 342.6 347.4 353.1 358.9 365.3 368.2 367.9 367.1 364.3 361.5 358.9 356.1 354.1 353.7 353.1 351.6 349.7 347.1 343.4 334.8 326.7 310.3 303.3 292.3 281.9 273.3 264.8 257.9 250.7 242.5 232.9 225.4 216.2 207.3 197.7
678.3 673.9 666.7 662.8 651.4 643.4 635 625.5 607.4 593.4 582.3 573.5 567.9 561.4 555.9 552.9 550.2 547.9 548.5 548.8 547.5 547.1 547.6 549.5 550.6 552.8 554.1 552 552.2 552.2 552 550.2 549 548.5 544 537.9 537.4 530.6 522.9 516.4 510.2 504.2 498.9 493 486.9 481.8 476.1 470.5 465.4 460.8 457.3 453.6 450.2 447 443.7 439.9 436.2 432.7 429.6 426.3 420.2 409.9 402.6 414.4 413.9 402.7 416.8 422.9 428.9 436.5 444.7 446.6 458.9 468.7 477.3 491.2 497 496.1 481.8 501 500.9 498.8 496.8 496.1 495.7 496 494.7 494.9 492.1 491.2 489.9 484.4 480.6 481.7 481.6 481.8 480.2 478.8 477.9 476.1 471.7 469.4 467.3 466.5 466.3 465.2 463.5 460.5 457.6 454.6 451.5 449.4 445.8 442.4 439 437.7 436.9 435.4 434.1 431.9 428.8 426.4 424.2 422.5 420.6 418.9 416.4 414.8 414.1 411 407.7 404.3 400.6 392.3 383.1 380.2 375.7 370.4 364.3 357.8 351.6 344.1 338.6 332.4 317.5 319 315 319.9 323.4 325.6 323.6 326.7 328 328.7 329 328.1 326.5 322.1 318 320.6 321.2 321.6 322.8 325.4 328.8 330.9 334.3 337.7 343.8 348.8 356.9 362.6 362.1 360.9 358.7 356.2 354.2 352.7 351.8 351.5 351.1 349.6 346.6 341.1 331.6 320.7 308.5 299.7 288.5 278.8 270 260.7 254.2 247.3 237.4 227.8 220 212.4 205.1 197
680.4 679.8 679 675.7 669.4 662.7 654 645.2 631.3 611.7 599.5 588.4 580.9 574.2 567.4 561.9 559.8 559.4 559.8 562.2 559.2 555.7 557 559.3 561.3 563.4 562.1 560.4 560.7 560.8 560.9 562.3 564.9 565.3 559 551.9 543.1 535.8 528.4 518.3 511.2 504.7 500 492.9 487.1 480.9 475.3 469.8 464.9 460.9 456.2 452.5 449.4 446.6 443.3 440 436.1 432.2 426.1 418.5 413.8 408.3 418 418.8 411.6 412.1 420.4 425.4 432.9 441.5 451.1 458.3 464.6 475 493.7 498.7 499.3 497.4 495.9 498.2 502.1 500.2 498.6 499 496.7 495.7 496.1 494.7 492 491 489.9 484.3 482 482.4 480.9 482.2 481.3 479.7 479 475.7 472.7 470.1 469.6 468 466.1 463.5 461.5 460 457.6 455.4 452.5 446.8 444.7 443.2 441 438.7 437.8 436.3 433.9 431.9 430 428.2 426.1 423.3 421.8 420.4 418.4 416.4 414.6 411.7 408.3 405 401.4 395.2 385.6 378.4 376.5 372.6 368 362.6 356.4 349.5 340.4 337.7 334.9 326.6 316.2 305.5 300.5 314.5 309.3 319.2 320.9 321.5 322.7 322.9 322.3 320.9 317.2 312.5 314.9 314.2 315.4 317.8 320.2 321.9 324 328.3 330.9 334.4 341.8 347.8 353.8 356.8 355.5 354.1 352.7 351.2 349.9 349.9 349.5 348.1 345 336.2 328 316.3 305 294.9 283.9 275.4 267.6 258.6 250.8 243.7 236.1 224.6 214.7 206.7 200.6 195.8
680.8 682.8 682.6 682.9 680.5 677.1 675.8 672.1 657.2 638.4 619.9 605.9 598.9 590.9 582.6 579.1 580.6 582.3 582.6 580 574.9 571.4 569.7 579.8 583.1 583.3 581.2 578.9 577 576.8 575.5 574.5 572.6 570.4 565.6 555.9 547.2 538.3 530.6 520 511.8 506.3 499.9 492.9 485.5 479.2 472.6 467.9 463.5 459.4 455.5 451.6 448.9 445.8 442.8 437.6 431.9 424.9 421.4 418.6 421.3 423.8 422.5 419.6 409.5 416.9 424.1 428 436.2 445.5 454 462.2 471.7 481.6 493.5 497.4 497.7 498 498.8 494.8 502 501.9 500.4 499.3 497.8 497.2 495.6 493.6 493.6 492.3 489.8 486 483.4 482.6 482.7 482.6 481.5 481.1 478.9 475.9 472.9 471.5 469.8 467.4 467.5 465.4 463.5 461.1 459 456.8 454.2 449.6 445.9 443.7 441.9 440.6 438.8 436.8 434.3 432.1 429.8 428.3 426.4 424.5 423.4 421.4 418.9 416.7 413.7 410 407.4 404.1 398.7 393.8 387.4 381.7 369.9 371.3 364.6 363.6 360.1 355.6 346.5 343.1 334.3 330.4 322.5 315.6 306.4 296.5 303.9 310.5 313.1 313.6 314.5 315.3 315.3 314.9 313.7 311.2 304.6 307 307.7 310.9 312 313.8 315.4 319.2 322 324.7 329.4 335 341.1 347.7 350.5 351.5 350.5 349.2 348.3 347.9 347.4 345.9 340.6 331.1 324 314.9 301.2 290.1 281.5 272.6 262.3 257.1 247.9 241 235.3 225.8 215.3 206.1 198.1 195
682.6 685.6 686.2 687.3 686.5 685.3 685.5 680.6 676.4 668.1 646.6 631 621.1 612 599.5 600.8 602.2 602.6 603 599.5 596.5 595.8 596.9 596.5 596.9 594.6 589.1 584.6 579.8 577.5 575.7 574.7 571.7 570 568.5 556.3 549.3 540.1 532 522.8 513.6 507.3 501.4 493.6 485.1 476.8 471.3 466.4 462.2 457.6 453.5 450.8 448 442.7 437 430.5 426.6 425 424.6 428.1 428.8 426.6 424.6 421.2 418.7 415.4 426.9 431.3 439.1 448.4 455.6 464.9 475 488.7 499.3 498.3 500.8 501.3 499.2 497.4 499.5 503.2 502 500.5 498.4 497.8 496.5 495.2 493.9 492.5 490.1 486.1 483.4 482.7 482.7 482.8 482.5 480.3 478.4 476.8 473.9 471.6 470 469.2 467.8 466 464.6 462.5 460.3 457 454.8 451.1 445.9 443.7 442 440.2 438.5 436.2 434.7 433.5 432.2 429.6 427.4 425.7 423.9 422 419.6 416.8 413.1 406.3 401.3 400.2 395.5 390.2 386 381.3 375 362.7 353.9 360.1 360 355.4 349.9 341 334.8 329.6 330.2 324.9 316.7 298.3 297.5 294 302.6 305.3 306.2 306.7 307.2 307.1 307 306.2 304.8 302.6 299.4 304.1 304.5 305.8 308.5 310.3 313.3 316.6 320.2 325.6 331.8 338.2 344.1 346.1 347.1 347.2 345.9 344.9 343.3 339.1 332.9 327.6 321.4 312.1 301.7 289.7 279.6 270.3 261.5 252.5 247.2 241 235.1 224.8 213.1 203.4 195.3 193
684.5 689.5 692.4 692.6 691.8 690.6 690.2 688 687.7 676.7 671.3 663.5 651.7 640.7 631.8 629.1 624.1 620 618.5 615 611.4 608.4 605.3 605.1 603.8 600.1 593.8 587.8 580.7 578.4 577.3 575.9 574.4 571.9 568.9 557.2 548.8 540.7 533.1 523.3 513.1 507 499 490.1 482.1 474.3 470.2 466 461.5 456.9 452.4 448.8 445.6 438 432.9 430.4 430.2 430.9 432.7 433.8 432 429.7 427.2 423.7 424.1 422 425.9 433.6 440.9 450.2 457.5 466.7 480 496.5 502.4 499.7 498.4 499.6 498.6 499.6 498.1 502.4 500.7 499.9 499.2 496.8 497.3 496.4 494.1 493 490.8 487.6 484.7 483.1 483 483.3 483.2 482.3 479.2 477.1 474.6 472.6 469.3 470.3 468.6 466.5 465.3 463.8 461.8 459.2 456.2 451.8 447.1 443.8 442.2 440.6 438.6 436.3 433.1 431.3 431.8 429.9 428 426.3 424.1 421.4 418.3 414.1 409.9 405.2 395.9 395.1 392.2 387.8 383.2 379 375 370.5 355.4 352.1 356.8 354.2 350.1 344.9 338.5 328.5 326.8 325.3 319.5 309.7 293.7 286.8 286.9 295.6 297.8 298.2 299 298.9 298.5 298 297.8 297.2 289.1 295.7 296.7 298.7 300.2 302.2 305.9 309.4 312.9 317.5 324.2 330.9 336.9 340.8 343 343.3 342.6 336.5 338.4 334.2 326.9 322.4 315.5 307.7 299.5 288.3 277.6 268.4 260.5 252.6 246.7 241.2 235.4 225.7 215.2 204.7 194.1 191.7
684.1 691 697.9 697 695.6 694.2 693.7 691.7 688.9 685.5 680.1 675.9 672.8 667.3 660.7 654 645.3 636 632.4 627.8 621.5 618.6 615.5 608.5 604.8 604.8 600.5 593.2 584.6 578.7 577.9 577.3 574.7 571.3 568 553.7 544.2 539.1 530 523 512.1 505.1 494.7 486.6 479 473.6 469.1 464.7 459.6 455.4 450 445.6 437.8 435.9 435 435.4 435.5 436.7 437.7 437.2 435.5 432.3 430.6 423.8 428.6 430.5 431.2 433.1 441.9 450.6 459 470 484 501.9 504.9 502 500.6 500 499.3 499.5 500 500 500.7 501.1 499.4 497.8 497.1 496.6 494.5 491.8 489.8 487.3 485.8 485.1 483.9 484.5 483.2 482.1 480.1 476.7 475.1 473 471.7 470.7 469.1 467 465.9 464.8 463.1 460.7 457.6 453.5 448.4 443.2 441.6 440.2 438.4 437.1 433.6 430.7 428.5 427.7 426.6 425.1 422.9 420.1 416.6 412.2 398.1 396.2 395 387.1 387.8 384.1 380.4 376.6 372.7 367.8 358.4 347.5 348.2 344.5 347.9 343.9 338.6 329.7 320.6 323.8 318.2 311.6 300 289.3 285.9 273.8 287.2 290.2 290.7 290.2 289.8 289.5 289.4 289.3 289.3 281.5 290.3 292.1 294.1 296.4 297.5 303.2 306.3 310.2 315.4 323.4 330 335.4 338.5 338.6 337.1 331.7 330.7 326.7 320.6 315.8 309.3 301.1 293.8 282.8 273.3 264.8 258.1 252.1 247 241.9 234.8 225.3 213.4 202.5 193.9 190.7
679 687.8 695 698.3 697.5 696.4 694.9 693.3 691.3 688.2 684.1 680.8 678.1 673.2 667.6 663.8 658 651.5 643.8 637.4 629.2 625.7 623 617.1 614.5 611.3 605.3 597.6 587 579.9 578.2 577.4 574.9 569.9 562.4 552.4 543.8 536.5 529.3 519.1 508.1 500.6 492.4 484.2 478.5 473.4 468.1 462.3 457.4 452.7 448.2 441 442.5 443.8 443.4 443.4 442.1 441.9 441.5 440.7 438.3 436.7 434.5 427.9 434.8 435.7 437.1 433.7 443.8 452.5 460.5 472.6 488.9 503.8 505.9 504.1 503.5 501.4 499.8 500.4 500.3 500.8 500.9 501.2 499.4 496.9 497.5 494.6 493.9 492.7 491.4 488.4 487.6 486.4 485.9 484.5 483.2 481.3 479.9 477.4 474.9 472.6 471.5 470.7 469.6 467.6 466.5 465 463.5 461.2 458.5 455.2 450.1 443.9 440.3 439 437.5 435.7 433.7 430.6 428.3 425 423.7 421.7 419.7 416.7 413 406.9 401.8 397.3 389.9 386.5 380.4 378 376.3 373.6 370.2 366.3 362.1 355.5 345.6 338.2 339.9 337.4 335.5 330.1 320.3 313.3 312.4 309.2 298.6 296 285.9 279.4 271 278 280.9 280.7 280.3 279.9 280.3 280.5 281.5 277.9 282.6 284.8 287.8 290.9 293 295.3 298 302.1 308.2 314.2 320.7 329 333.5 333.5 332.3 329.2 323.8 320.6 315.3 309.6 303.1 296 288 277.2 268.6 261.6 256 250.9 246.2 241.6 235 225.4 214 201.9 191.7 189.6
672.4 683.3 690 698.7 698.1 697.2 695.4 693.1 691.2 689.3 685.9 681.5 679.8 676 670.4 665.8 661.8 655.6 648.5 641.9 635.3 629 625.5 619.8 615 610.6 605.1 598.2 587.9 581 579.1 579.3 575.1 570.7 559.6 550.5 544.1 534.4 526.4 516.1 505.4 496.6 489.3 483.3 477.8 472.1 466.3 461.3 456.5 447.1 446.8 449 448.9 448.9 450.5 448.4 447.9 447.7 446.5 445.1 442.3 442.1 440.9 432.9 441.2 440.6 442.4 442.4 445.9 454.2 461.8 473.4 488.8 502.8 505.2 505.1 502.8 500.2 500.8 500.7 499.4 501.8 502.8 502.6 500.7 498.5 496.2 494.7 492.7 492.8 491.1 489.5 486.9 485.6 484.6 485.1 483.2 481.1 479.4 476.7 473.9 472.8 471.6 469.6 469.3 467.6 465.8 464.8 463.7 460.8 457 454.9 451.2 445.5 441.7 438.6 436.5 433.7 430.1 427.7 426.2 424.2 420.3 414.3 413 410.2 406.9 402.6 398.3 394 389.4 383.7 377.8 374.6 370.7 369 366.1 363.1 359.6 354.5 347.7 339.5 330.8 327.6 325.5 328.3 320.9 316.7 306.7 303.9 300.1 289.1 288.1 284.5 271.4 269.5 270.6 270.8 269.9 270.1 270.4 271.5 272.4 268.6 275.9 278 280.4 283.6 286.7 289.4 291.8 296.7 301.7 307.8 312.6 321.7 327.2 329.5 328.3 325.2 320.3 315 310.4 305.2 299.6 293.2 284.4 272.6 265.5 259.7 254.4 250.3 245.8 241.1 234.2 224.8 211.9 201 191.6 189.6
669.3 678.9 687.5 697.8 698.5 697.2 694.8 692.7 691.2 689.1 686.9 682.5 679.6 676.1 672.4 666.7 662.9 657.5 652.9 645.8 640.1 634.7 629.1 623.4 617.2 612.4 604.3 597.3 587.3 580.8 579.4 579 575 570.8 558.6 547.9 542.9 532.1 523.5 515.3 503.3 494 487.5 481.9 476.6 471 465.6 458.2 451.1 450.1 455.5 456.2 455.5 455.8 455.7 454 456.3 453.2 451.9 451.4 451 448.6 448.3 439.1 447.2 445.7 447.3 448 445.9 456.3 462.8 472.6 486.3 500.4 503.4 504.3 502.1 501.8 501.2 501.4 500.8 502.4 503.9 502.6 501.1 499 496.7 494.7 493.4 492.3 490.6 489.4 487.4 486.5 484.9 482.3 481.3 479.7 479.4 477.1 474.2 471.3 469.5 469.9 468.2 466.3 464.3 464 462.4 460.8 457.8 455.5 452.1 449.5 443.3 439.2 435.5 431.7 422.3 419.4 418.6 416.1 414.3 410.9 406.1 403.4 400.2 396.9 393.1 388.6 384.8 380.9 376.5 372.8 368.9 364.6 362 359.4 356.3 352.7 348.1 341.4 337.4 330.3 323.5 325.8 322.3 317.5 311.7 301.2 299.5 293.7 286.1 279 275.1 266 258.1 261.1 259.1 259.7 259.4 263 263.8 258.9 268.5 268.9 273.1 275.3 278.2 282.9 286.5 291.3 295.9 300.5 306.9 314.4 320.7 323.3 323.5 321.2 317.1 311.2 305.9 301.7 296.7 289.8 281.5 269.3 262.4 257.8 253.1 249 244.9 240.9 234.9 224.6 210.6 199.3 190.4 188.9
667.8 676.1 685.9 693.4 698 696.6 695.2 693.8 692.8 690.1 687.7 683.3 679.6 677.1 672.4 666.4 662.4 658.9 654.4 648.5 641.8 633.2 627.8 622.7 618.6 610.6 600.9 593.4 585.4 580.6 578.8 579.8 574.9 569.8 556.8 546.6 539.7 525.9 521.5 511 501.8 490.9 485.1 479.7 475.2 468.5 459.8 457.7 460.1 459.9 460.6 461.3 462.1 463.1 464 464.7 464.6 463.8 462.8 461.2 459.5 458.4 441.8 449 453.7 449.9 452.9 453.8 452 449.6 451.9 467.2 481.9 497 501.3 502.3 501.5 501.4 501.5 501.4 501.7 502 503.6 502.4 501.1 499.1 497.1 495.4 494.2 492.8 490.9 490.3 488 487.7 485.9 482.3 478.7 479.1 478.1 476.6 474.2 471.9 470.5 469.2 467.1 466.9 464.6 464 463 461.5 458.7 456 453.4 450.6 445.2 439.9 434.6 425 416.5 412 411.1 411.4 409.9 406.7 402.5 398.3 395.4 391.6 387.6 383.7 379.9 376.3 372.7 369.1 365.6 361.9 357.8 355.8 352.1 349.1 345.7 342.4 337.8 332.1 322.7 313.7 317.2 314.5 308.6 303.3 294.2 288.7 286.5 280.9 274.2 266.5 261 250.6 250.2 249.9 250.4 253.2 254.3 252.7 257.3 261.6 263.4 268.2 271.1 276.7 279.6 283.8 289.6 294.7 300.5 307.3 313.6 317.3 318.2 316.2 314.1 309 304.6 299.1 291.9 285.3 278.6 267 259.9 255.4 251 247.4 243.4 239.3 233.9 226.8 211.7 199 189.7 184.2
666.9 675.6 684.3 691.6 695.7 696.8 696.5 695.3 693.8 691.1 688.3 684.4 680.2 676.8 672.3 668.4 663.9 658.3 654.2 648.6 640.1 628.6 623.2 620.4 615.7 605.1 596.6 588.6 582.9 579.9 577.4 577.8 572.4 565.4 553.5 542.9 532.5 523.4 514.7 505.8 497.4 488.3 484 478.7 472.2 464 464.5 467.6 466.9 466.5 467.1 468.4 471.8 474.1 474.3 473.3 472.4 471.7 470.8 469.7 467.2 464.2 446.3 457.7 458.6 458.1 460.3 459.6 459.8 462.8 468.8 457.6 468.7 489.8 499 499.6 500.6 501.1 501.7 501.6 501.9 503.4 504.4 503.1 501.7 499.6 497.6 496.3 494.9 493.3 492.6 491.3 490 488.4 486.3 483.1 481 479.7 475.7 473.4 472.8 471 468.8 467.6 466.8 463.9 464.5 463 462.3 461 458 456.6 453.2 450.2 445.4 439 433.6 427.1 418.6 414.1 409.5 406.8 405.5 403.5 400.2 396.3 392.3 387.8 383.7 380.2 376 372.3 369.1 365.6 361.6 357.6 354.6 351.4 349.4 346.8 342.7 338.8 334.8 331 326.3 318 306.1 306.8 303 300.1 297.4 288.6 285.5 281.4 276.1 270.8 265 259 249.1 241.9 238.1 232.3 241.5 241.2 238 241.4 248.1 256.1 262 268.2 272.7 277.2 282.3 287.4 293.7 299.5 304.6 310.2 311.6 311.7 310.4 307.3 304.1 299.9 294.5 287.3 280 267.9 259.1 253 249.6 245.5 241.8 236.7 231.1 225.4 213.9 201 188.5 186.9
665.2 673.6 682.6 689.5 696.1 697.8 697.8 696.4 694.5 691.9 688.9 685.4 681.9 677.5 673.1 666.5 662.5 658.1 654.4 646.9 637.1 626.1 619.4 615.7 607.9 596.7 588.8 584.8 582.3 578.2 574.5 571.6 566.3 551.3 543.7 535.5 525 519.3 509.9 501.6 489.9 486.2 479.9 473.1 467.3 473.1 474.5 475.5 474.9 474.5 478.2 480.3 482.6 482.9 481.2 481.3 479.4 477.8 477.2 474.6 472.8 467.2 456.9 466.9 464.2 465.3 465.4 465.5 465.2 469.5 474.2 479.3 478.6 474.3 495.3 498.6 501.3 501.4 502.3 503.2 503.9 505.2 505.9 504.9 503.7 502.1 499.7 497.3 495.1 493.5 491.4 491 490.3 489.2 487 484.6 482.7 480.7 478.5 476.8 474.9 472.5 469.4 467.9 463.6 463.1 462.2 462.2 458.2 459.7 458.9 456.3 453 448.5 442.5 437.5 431.3 425.5 419.1 414.2 410.4 406.6 403.5 400.8 397.9 394.7 390.8 386.6 382.1 377.9 373.8 370.3 366.7 362.5 358.4 354.8 350.6 347.6 344.1 341.6 337.7 334.3 330.7 326.7 322.9 318.3 312.8 306.2 298.6 293.2 286.5 283.5 279.6 281 276.6 272.4 268 263 258.2 254.9 250.4 246.6 232.4 230.3 227.1 223.9 227.2 240 249.9 257.8 264.9 269.6 275.8 280.6 286.3 292.1 297.4 303 306.5 307.6 307.5 307 304.6 300.5 294.3 287.4 280 269.9 259.6 252.2 246.4 243.5 239.8 235.1 230 224 216 202.7 186.4 190.8
664.4 672.9 681.7 687.9 695.6 697.6 696.9 695.7 693.9 691.4 688.7 684.8 681.4 676.3 670.3 666.1 663.3 658.7 650.5 642.2 634.6 625.4 615.1 608.9 599.3 589.9 583.9 582.7 580.1 576 571 556.5 552.2 544.7 535.7 527.7 520.2 512.6 503.7 494.9 484.1 479.4 479.2 481.4 483.4 481.7 480.9 481.6 484.5 487 490.6 492 492.3 493.2 490.9 491.2 488.7 485.2 482 479.2 478 464.5 471.9 471.5 469.9 470.7 469.9 470.1 473.1 475.9 482.3 491.1 496.2 492.2 496.1 493.5 499.8 502.6 504.2 504.3 505.8 507.4 508.3 507.5 506.3 504 500.8 498.2 495.8 494.3 493.3 492.1 490.3 488.7 486.8 485.4 484.2 482 480.1 478.7 476.7 474.1 470.8 468.2 466.1 463.7 462.9 461.2 453.7 453.4 455.8 453.8 450.4 446.1 440.4 435 430.2 423.4 418.3 414.2 409.9 406.7 403.4 399.9 396.4 392.8 388.9 384.5 380.7 376.5 371.9 367.3 363.4 359.8 355.5 351.9 348 343.6 339.3 336.1 333.1 329.8 326.5 322.8 319.2 315.8 311.9 306.1 302.8 298.2 294.4 289.9 284.8 277.9 275.9 271.2 267.3 265.3 259 253.1 247.3 235.7 229.6 228 223.9 220.9 222.6 223.8 233.6 246 256.6 262.2 267.9 273.5 278.5 284.3 289.8 295.3 300.2 303.1 304.9 305 305 302.3 295.5 288.3 280.7 268.6 260.8 253 245.8 240.5 236.1 232.9 227.3 221.1 215 202.2 186.2 189
663.9 672.1 680.6 686.4 695.9 698 697.8 696.6 694.6 691.6 688.6 685.1 681.8 675.7 670.4 666.8 662.4 657.9 654.2 640.8 625.3 618.9 612.2 604.4 594.3 586.9 581.4 578.6 574.9 566.2 557.1 548.2 538.6 531.5 525.5 519.6 513.5 501.6 488.2 490.4 492.1 492.7 493.1 490.5 489.8 489.4 490.3 491.3 495.1 498.2 499.2 501.5 504 503.5 500.4 501 498.2 495.3 489.3 484.1 481.5 462.5 476.7 476.4 476 475.4 474.9 477.8 481 489 498.2 506.4 505.5 502.5 501.8 499.2 498.1 502.6 505.2 507.6 508.9 509.9 510.2 509.3 507.8 505.7 502.1 499.2 496.7 495.4 494 492.2 490.3 488.6 486.3 485.4 484.4 482.9 481.7 480.2 478.4 474.8 470.6 467.9 465 461.9 461.7 459.7 457.6 440.7 448.7 450.4 448 443.2 439.2 434.5 426.4 421 417.6 413.6 410.1 406.4 403.2 399.4 395.7 390.6 386 382 378.2 373.8 368.8 364.5 360 356.1 352.6 349 345 340.2 336.2 332 326.9 324.3 322.1 318.8 315.3 312.4 309.3 305.9 301.3 295.1 291 285.8 281.1 263.9 253.1 251 248.8 250 240.1 235.8 237.6 247.7 244.8 240.8 238.4 236.2 224.2 217.7 218.4 223.9 242.9 252.6 259.3 265.5 271.1 276.8 281.5 286.3 290.7 294.5 297.9 300.9 302.6 301.3 294.7 289.1 281.1 270.8 260.2 252.9 245 240.1 235 228.3 223.6 218.4 212.4 199.8 187.4 183.2
664 673.1 680.5 687.4 696.6 698.9 698.4 696.9 695.4 693 689.6 686.5 681.9 674.7 670.4 665.8 663.7 662.6 651.7 637.5 626.2 616.5 608.5 597.5 589.1 582.4 577.4 571.1 557.9 549.4 544.8 538.3 531.6 520.8 510 502.1 496.3 500.4 503 502.5 502.8 503 502.1 500.4 498.5 500 500.5 502.6 503.8 506.7 509 512.2 516.2 517.6 512.7 512.5 508.1 502.3 498.2 491.5 484 472.7 481.3 481.2 481.7 481 482.5 485.3 491.5 505.5 510.2 507.7 506 503.6 503.9 503.1 505 501.9 508.3 509.6 510.9 511.3 510.4 509.7 509 507 504.2 500.7 497.6 495.9 494.3 492.6 490.6 488.7 486.3 485 483.2 482.7 481.4 480.7 478.5 475.3 470.9 466.5 462.5 460.3 457.8 454.6 453.1 448.9 431.9 446 444.3 440.4 435.2 429.2 423.3 419 415.7 412.2 408.7 405.2 401.6 398.2 393.6 387.6 382.5 378.7 375.1 370.5 365.2 361.3 356.7 352.3 347.7 344.3 340.8 336.3 332.6 328.4 323.6 317.9 317.4 314.6 311.7 309.3 306 299.1 283 274.2 270.2 264.7 257.7 263.6 273.9 272.7 266.5 265.3 262 257.9 253 252.4 249.1 246.8 242.7 240.6 238.8 229.3 220.4 217.8 215 239.2 249.7 255.4 262.1 268.7 273.4 277.1 280.5 286 289.7 293.5 296.2 296.5 292.9 289 281.3 271.9 262 253.4 244.7 239.1 234.2 226.5 220.6 212.3 208 193.3 184.6 178.8
664.8 673.6 681.6 689.1 696.7 698.9 698.7 697.6 696.4 693.4 690.7 688 679.3 675.2 670.3 668.4 666.5 657.4 643.6 633 623.9 615 605.3 594.1 585.9 574.9 568.2 551.3 543.1 538.6 532.3 527.8 524.7 525.8 524.7 516.5 514.3 515.7 514.1 513.6 515.4 517.5 513.6 512.4 509.8 508.7 509.4 512.4 513.9 517.6 521.3 523.2 524.2 523.5 519.3 518.5 516 510.4 506.5 502.1 497.6 486.8 482.8 486.9 488.1 490.7 491 494.4 506.1 512.6 510.5 509.9 507.9 506 507.1 507.2 507.1 506.8 506 509.4 511.6 512.7 511.2 509.8 509 506.9 504.7 501.4 498.7 496.5 493.7 492.9 490.6 488.1 484.8 484.6 483.7 481.5 480.1 477.9 475.9 473.1 468.6 464 459.8 455.4 453.5 451 447.2 445.3 437.1 432.1 435.1 432.4 429.7 424.6 420.5 417.2 413.7 409.9 406.1 402.7 399.1 395 387.9 383.7 380.8 377.8 375.3 371.7 365.4 360.1 355 351 345.7 340.5 334.5 331.7 328.5 324.4 320.2 315.2 307.7 301.9 295.9 288 281.2 276.1 266 264.9 271.3 279.6 282.4 280 280.8 276.4 272.6 266.5 261.8 260.6 256.5 250.8 248.8 245.8 242.7 239.8 234.1 231.1 229.2 225.8 216.1 219.7 241 248.7 255.4 261.5 264.7 268.1 270.8 276.9 280.7 285.9 284.8 286.8 287.5 284.6 280 272.1 263.6 253.9 245.7 239.1 232.7 226.9 219.5 212.1 201.3 186.5 183.2 177.2
665.2 674 683.3 690.7 698.2 699.9 700.6 699.5 696.8 695 692.1 689 681.8 676.2 673.3 670.6 664.7 648.8 637.7 630 621.7 612.9 600.5 588.3 579.4 563.2 564.7 563.5 561.3 554 548 542.6 536.6 533.7 528.6 525.6 525.6 525.2 524.5 526.7 527.8 531.1 529.5 525.7 522.6 522.3 522.9 524.1 524.5 533.2 535.2 538.1 538.7 537.5 531 526.1 520.4 515.5 511.2 509.6 500.4 493.1 494.8 495.9 496.2 499.4 500.5 507.1 515.2 514.9 511.2 512.9 511.2 511.2 511.5 510.7 509.8 509.6 508.3 510 511.2 512.3 511.3 510 508.3 506.5 504.4 501.4 498 495.7 493.8 493 491.6 489.2 486.3 484 482.7 481.6 480.2 475.7 472.1 468.5 464.7 460.5 456.5 452 449 445.6 442.6 440 437 428.3 422.7 426.3 424 420.8 417.7 414.7 410.9 407.3 403.4 399.1 396.2 391.5 385.3 382.7 379.6 376.9 373.6 370.1 362.6 357.8 352.9 348.5 343.7 338.7 333.8 327.8 321 320.6 317.2 313.1 306.7 289.9 279.2 268.6 269.7 269.1 278 285.8 287.9 287.6 283.8 278.6 276.5 275.9 275.8 271.3 268.8 264.7 262.1 256.5 252.8 247.4 244.7 241.5 238.3 236.8 234.5 232 217.7 208.9 222.5 241.6 249.1 254.4 258.7 262.3 264.7 266.1 270.1 274.7 276.5 280.9 281.3 278.6 273.6 268.8 261.7 253.8 244.7 237 231 226.1 219.2 211 199.5 184.2 180.8 178
666.8 675.1 685.3 692.7 699.5 701.8 701.7 701.3 699.2 695.7 693.2 689.6 682 678.6 675.7 669.5 661.3 646.8 636.8 629.5 619.2 609.6 595.1 581.8 580.2 580.2 578.1 574.6 569 567.3 562.2 555.8 548.3 543.3 537.2 537 536.1 535.5 538.1 536.2 540.5 541.4 539.6 537.2 536.3 536 532 532.3 531.4 543.5 545.1 544.3 543.3 541 538.8 538.5 533.2 521.7 514.7 511.7 507.4 501.5 503.5 503.5 503.3 507.2 515.5 521 519.6 517.4 516.2 515.8 514.1 514 513.7 512.7 512.1 511.7 511.5 511 511.6 511.4 511.5 511.1 509.8 506.9 503.9 501.2 498.6 497.6 495.7 493.4 491.2 489.3 486.7 485 482.4 479.3 477.9 474.2 465.1 459.2 459.8 454.2 451 447.9 444.3 440.8 438.2 434.5 431.5 428.4 420.8 419 419.6 416.8 414.2 411.3 408.1 404.4 400.6 396.5 392.2 387.7 383.1 380.8 377.8 373.8 368 362.9 357.5 353.5 349.3 344.3 339.5 334.8 330.5 326.3 317.4 313.8 313.1 307.8 295.9 278.9 273.5 278.9 283.2 288.8 290.6 289.8 287.2 284.5 286 286 285.1 283 281.7 279.7 276.3 270 267.2 263.1 258.1 256.8 252.4 248.2 243.5 239.1 232 228.1 226.5 211.7 213.4 231.3 242.8 247.4 251.1 254.3 256 258.3 260.1 262.7 264.4 264 265.9 264.8 261.6 256 255.4 250.8 243.7 235.4 228.6 223.7 218.4 210.9 200.7 183.8 179.2 177.1
666.4 675.9 686.7 694.9 700.7 701.5 702.3 701.3 698.3 695.8 691.3 687 681.8 678.9 676.3 670.9 665.9 653.9 637.1 627.6 619.1 611.4 603.7 599.1 600.8 598.4 592.3 584.4 579.1 577.3 574 569.3 561.8 556.7 545.1 550.4 551.6 554.6 558 559.2 558.4 556.3 552.6 550.9 550.6 550.4 551.4 551.9 549.6 549.2 547.2 546.5 545.3 543.4 543.6 542.4 541.2 532.8 520.4 515.4 511.8 512.2 512.2 512.4 514.9 525.2 524 523.9 520.8 518.8 518.4 518.6 517 516.2 515.1 515.4 515.1 513.5 513 512.3 512.1 511.7 513.6 514.8 512.4 509.1 505.3 502.4 500.3 497 496.9 494.3 493.8 491.1 487.8 486.7 484.5 481.5 477.7 472.9 470.5 463.3 454.7 452.2 446.1 439.4 439.1 436.4 433.9 430.9 427.8 424.8 420.1 407.7 409.8 412.3 410.3 407.1 403.6 400.4 396.6 392.5 388 383.4 379.3 376.8 372.6 367.6 361.3 357.2 352.9 348.8 344 339.4 335.5 331 326.9 323 318.9 309.5 287.3 279.2 275.9 290.3 298.9 297.6 293.1 295.5 293.8 291.9 290.3 290.6 292.1 293.2 294.5 293.4 287.6 283.9 280.9 277.2 274.7 270.5 268.3 263.6 258.8 253.2 247.3 242.8 237.6 230.7 224.6 217.7 206.7 213.9 234.2 240.8 244.5 249.4 251.6 252.8 254.5 255.9 257 256 254.8 254.7 251.8 247.4 245.9 245.4 242 234.4 227.3 220.9 215.6 209.5 204 192.8 179.5 176.2
666.9 676 687.2 698.4 703 701.8 699.7 698.5 697.2 693.4 690.7 684.8 681.8 679.6 676.7 670.7 663.6 648.5 638.1 630 623 618 615.2 607.3 612.7 610 601.5 595.2 591.3 585.9 582.9 578.6 573.9 567.8 559.1 563.3 565.5 568.6 569.2 567.3 564.7 562.4 559.5 558.8 558.6 557.4 555.1 555.1 553.8 552.2 549.9 548.6 548.5 548.1 548.6 549.6 545 540.9 533 524.8 523 522.2 523.6 528.7 529.9 527.7 526.8 522.6 522.9 521.2 522.2 520.7 519.7 518.8 518.5 518.5 517 515.5 514.3 513.5 512.8 512.6 512.8 513.9 512.9 510.9 507.3 503.7 500.5 498.7 497.4 495.7 494.6 493.3 490.6 488.1 485.7 481.7 478.3 473.5 469.3 463 456.1 449.4 445.9 441.2 436.4 431.5 428 425.3 422.5 419.8 416.3 410.3 398.3 404.1 402.9 401.5 399.1 395.4 391.4 387.3 382.5 379.1 374.8 370.5 366.2 361.5 357.1 352.7 348.3 343.5 339.2 335.5 331.5 327.5 323.7 319.9 315.3 294.1 279.2 294.2 301.1 305.4 302.9 297.8 299.4 298.7 298.4 296.3 296.5 297 299.6 301 299.7 294.4 292.7 290.9 288.9 286.5 282.2 278.4 273.8 268.6 262.8 256.4 251.5 247.6 240.7 233.1 226.7 217.7 220 208.9 221.6 234.4 239 243.1 245.2 248.1 249.7 251.5 252.4 251.9 250.2 251.3 249.9 246.8 238.9 239 237.1 232.3 226.1 219.1 211.8 206.7 202.4 194.5 184.8 175.2
666.9 677.1 688 699.2 703.1 701.9 700.1 699.6 698.8 696.7 691.8 686.1 683.2 680.3 677.5 672.5 666.3 658.2 642.4 634.3 627.6 623.7 622 617.9 618.9 615 610.8 606.6 601.5 590.5 588.8 584.2 577 569.6 572.9 574 574.8 575.2 576.2 574.1 569.4 565.8 563.2 562.5 561.7 561.6 560.9 560.5 558 557.2 553.8 552.1 551.1 550.9 551 548.5 545.1 539.7 534.8 527.6 529.6 532 532.8 532.9 531.7 528.4 528.1 526.9 528.4 526.6 527.9 527.5 526.8 523.7 522 519.8 517.9 516.4 515.1 514.6 512.8 512.1 511.4 511.6 511.8 510.6 507.7 504.3 500 498.7 497.6 496.2 495.2 494 491.3 488.8 486.6 481.5 477.9 473.4 466.2 460.9 454.4 449 442.6 438.9 435.1 430.5 426.7 421.8 415.6 411.3 410.5 406.5 400.3 396.1 393.8 394.3 392.1 389.8 385.7 381.7 378.4 373.9 369.9 364.9 361.2 357.4 353.5 348.7 344.5 340 336 332.5 329.1 325.3 321.7 316.9 305.6 286.1 303.5 308.9 308.8 305.8 303.2 302.8 304 303.9 303.4 306.3 306.7 303.2 305.9 305.5 300.3 301.6 299.6 296.2 293.1 289.4 285.4 281.6 276.9 271.4 267.3 257.6 253.9 250.1 247.1 241.8 223.4 221.8 213.1 209.1 210.4 228.8 232.7 237.8 239.1 240.4 244.6 246.8 247.8 247.7 247.6 245.5 242.2 239.1 236.5 232.2 231.9 228.5 222.1 215.5 209.6 203.7 200.1 193.2 185.7 177.6
