ncols 200
nrows 82
xllcorner 260000
yllcorner 800400
cellsize 50
864.6 863.9 860.2 852.1 846.2 842.2 840.8 842.9 844 847.4 852.3 857.9 861.4 863.1 862.9 863.3 864.9 863.9 860.2 855.1 855 850.5 844.6 838.8 832.3 827.6 823.9 820.7 817.6 813.8 810.4 807.3 803.9 804 807.1 809.5 809.7 805.5 800.3 792.4 785.5 774.8 765.9 759.6 749.2 750.9 765.4 775.9 782.9 789.8 789.9 792.7 798.8 800.6 800.2 798.3 796.5 797 805.1 813.3 818 822.6 827 831.6 833.4 836.3 835.7 839.9 842.2 843.5 844.6 844.3 844.7 847.8 852.9 859.8 867.8 873.3 878.8 886.5 892.8 898.4 903.9 907 908.8 912.6 917.6 919.7 918.9 917.4 912.3 903 896.3 896.2 898.2 896.3 892 887.6 882.8 875.5 867.7 866 865.7 862.7 859.4 856.3 852.6 848.1 847.2 846.3 840.2 835.5 824.6 810.3 795.8 781 763.4 760.5 756.7 746.9 741.3 741.3 744.8 757 771.6 785.4 799.8 810.9 815.3 821.4 827.8 835.6 837.3 834.3 829.1 821.2 814.7 807.5 800.3 802.9 815.9 827.3 837.2 845.5 848.7 849.7 848 842.2 836.6 829.7 820.3 830.8 839.8 846.3 850.8 857 863.9 871.4 876.3 882.2 887.4 891.4 894.3 897.3 896.6 892.5 887.9 883.7 873.6 864.7 852.5 851.9 834.4 801.7 767 703.5 663.2 634.7 615 606.2 599 591.4 586.9 585.8 582.1 581.4 583 585.2 590.1 596.2 605.5 614.4 621.7 632 642 652.5 664.2 677.6 689.7 699.7
864.6 864.7 860.7 854.1 848.5 844.7 843.7 843.8 845.2 848.1 852.4 857.5 861.6 863.5 865.5 866.3 866.1 865.1 863.8 859.8 854.9 849.6 843.6 834.7 831.5 827.1 823.7 820.4 817.4 814.3 811.5 809.2 805.7 808.5 810.7 812.5 812.4 807.6 801.1 793.5 785.7 774.4 767.1 757.6 746.1 754.7 770.7 779.2 788.2 793.2 785.9 797.7 801.7 803.7 803.3 802.7 801.8 805.7 801.3 814.7 819.7 825.3 830.4 832.3 834.1 836.8 839.5 839.6 842.5 844.3 846.2 848.4 849.2 850.3 856.3 862.6 870.5 876 882.4 888.3 896.3 901.3 902.1 904.5 907.3 912.8 915.8 917.2 917.6 916 909.8 901.4 895.3 892.4 894.6 893.3 889.7 887.2 880.8 875.1 870.7 869.5 868.9 867.1 866 863.2 858.2 852.6 849.6 847.2 842.2 837.2 825.6 812.1 804.4 792.7 780.7 762.3 747.5 739.8 735.8 733.5 737.1 749.5 764.4 783.9 798.5 808.3 811.7 819.3 824.6 829.8 830.8 827 819.5 813.5 806.5 800.2 789.2 804.2 817.1 827.4 835.8 843.4 846.7 846.7 844 838.7 830 822 822.7 828.8 837.4 843.7 850 858.1 866.3 874.1 880.6 886.8 892.8 897.3 900.9 903.8 903.2 895.4 884.3 855.1 832.6 818.7 813.8 811.4 801.8 770.3 728.9 684.6 652.4 629.2 610.6 603 595.6 589.6 585.7 582.1 581.1 579 580.3 585.3 590 595.9 604 610.7 619.1 628.9 639.5 650.9 664.6 677 687 697.7
863.7 863.8 861.2 856.1 849.7 844.7 843.9 844.1 845.2 849.7 852.4 857.6 860.9 863.9 866.2 868 868.6 866.6 863.2 859 853.5 847 838.2 832.2 828.7 825.5 821.2 820.3 817.3 815.4 813.3 808.4 809.8 812.7 815.2 816.6 813.8 807.1 801.6 795.8 784.9 775.6 766.7 756.1 743.5 759.8 773.9 783.3 792 793 794.8 801.5 805.4 807.2 806.1 807.1 807.7 807.8 807.8 811.2 818 825.7 831.2 833.5 836.6 839.6 841.8 843.3 843 844.6 847 850 853.6 856.1 861.3 866.4 870.2 876.9 882.7 888.2 894.7 899.2 901.3 902.8 905.6 908.2 909.4 909.6 912.2 912.4 907.8 900.3 893.8 890.5 891.1 890.1 886.9 885.7 880.9 876 874.1 875.7 874.7 872.5 871.3 868.3 864.1 857.5 852.4 848.3 846.7 840.3 823.7 818.5 809.5 799.8 789.2 771.3 756.3 745.9 733.8 724.3 730 739.6 749.1 768.6 777.8 790.9 808.6 814.7 812.6 813.4 811.4 811.6 806.9 801.7 796.8 791 790.3 805.9 817.2 826.7 834.5 839.3 841.6 841.7 837 833.7 822.4 821.1 823.9 829.9 836 842.5 850.4 859.3 868.7 876.9 883.4 889.7 897.1 902.3 906.2 909.5 906 877 851.2 821.2 802 791.9 783.6 774.9 764.6 741.9 704.2 675.7 649.6 624.1 607.2 601.4 593.9 586.8 583.8 580.1 578.1 576.7 578.7 580.8 589.6 593.8 600.4 608.4 617 628.3 639.2 650.4 664.1 674.5 685.5 694.7
862.7 863 860.7 856.7 850.9 846.4 845.1 845.9 846.4 849.3 852.9 857.7 861.1 864.3 866.9 868.9 867.1 864.8 861.7 856.4 849.7 842.9 835.4 830.2 827.6 824.8 821.3 819.5 817.4 815.1 811.1 810.9 813.5 816.8 818.9 819.2 816 808.7 801.2 791.9 783 774.9 765.2 757.7 747.8 764.5 777 786.8 790.7 788.7 800.2 805.6 808.7 810.9 810.2 810.1 810.8 813.3 810.9 816.5 823 828.5 832.3 834.7 837.8 840.6 842.9 845.4 845.6 845.9 847.7 852.1 857.4 863.4 865 867.6 873.6 876.6 881.8 890 896.4 899.5 905 904.6 904.8 905.1 905.9 906.5 907.2 907 905 899.2 893.5 890.3 889.1 886.6 885.1 884.8 880.6 876.4 875.8 878.1 876.9 875.1 873.3 870.4 867.6 862 854.8 848.8 851.8 838.9 827.6 824.2 811.8 801.2 791.4 775.3 759.4 746 735.8 728.7 717.3 728.5 736.8 740.3 750.1 780.1 794.7 797.2 793.6 791.7 793 793.9 791.1 788.1 785.2 774.9 792.9 805.8 817.4 825.7 831 834.4 834.6 834.3 830.2 826.7 821.7 822.2 826.3 831.6 838.1 845.2 854.2 862.3 870.9 879.7 886.8 894.4 901.9 907.5 911.9 913.8 880.1 852.2 819.1 801.5 785.5 769.4 761.7 751.5 742.6 730.2 707.5 671.8 645.3 624.9 610.2 602.6 594.4 586.2 580.3 578.3 576.4 575 577.4 583.4 588.2 592.3 599.1 605.6 614.4 625.2 637.4 650.2 663.1 672.6 682.2 690.8
861.2 862.3 861.3 857.5 852.8 847.7 845.6 847 847.4 850.7 853.5 857.7 861.9 865.5 867.9 868.5 867 863.6 859.8 853.1 843.8 837.4 833.5 828.4 825.4 823.8 821.7 819.2 818.2 816.4 812.2 813.2 816.6 819.9 821.1 820.1 816.5 808.2 799.2 789.5 781.6 773.3 763.8 757.5 749 763.7 777 784.6 792.6 799.9 804.9 808.9 811.7 814.2 814.6 814.1 815.6 816.4 816.1 814.1 818.1 829.1 832.9 837.1 839.7 841.4 844.8 847.9 848 849.1 849.9 853.2 860.9 865 867 867.7 875.4 878.7 883.3 890 895 900.6 902.4 903.8 902.8 902.2 901.4 903.3 903.4 900.8 900.9 896.6 890.9 888.7 886.2 883.9 883.1 883.1 879 878.3 877.2 878 875.4 874.7 873.2 870.9 870 863.2 856.8 854 850.2 836.2 831.5 825.6 813.9 803.2 791.5 778.4 761.3 745.1 734.3 727.8 721 717.4 722.5 725.9 733.9 753.5 767.7 779.7 777.3 776.1 776.6 777.1 775.4 775.8 774 778.9 794.5 805.5 816.3 822.5 826.4 828.4 826.5 823.3 822 820.7 820.3 822.4 828 834.8 841.9 850.5 858.9 866.8 874.9 883.6 891.6 899.2 906.3 914.2 919.4 900.4 855.8 831 812 786.8 772.4 760.3 753.5 746.5 736.5 719.6 694.1 669.8 645 621.8 609.7 599.1 594.3 587 580.6 574.8 574.2 573.3 578.4 577.5 582.6 589.9 596.3 603.1 613.8 623.5 637.8 652.4 662.6 669.7 679.1 686
858.9 861.5 861.7 858.3 855.5 849.7 846.9 848.6 848.9 852.1 856.4 858.6 862.8 867 869.1 867.9 866.3 862.6 857.1 848.1 840.6 835.3 830.9 828.3 825.1 822.2 820.7 819.2 816.5 816.4 814.4 816.8 820.4 822.8 821.9 820.1 815 806.6 797.5 788.6 777.4 759.8 751.9 759 756.5 767.2 780.7 788 796.5 803 807.9 812.1 815 817.6 816.4 817.2 819.1 819.4 821.3 824.3 823.3 825.6 835 837.4 840.7 843.9 848.1 850.3 850.9 851.7 856 858.2 860.4 865 869.6 873 874.5 882.5 889 892.8 894.3 898.7 898.7 897.3 896.6 896.3 896.4 896.8 898.8 898 897.1 893.3 888.8 886.2 883.2 882.4 881.5 881.5 879.4 879.3 877.2 877 875.3 874.3 873.6 870.5 869.6 861.6 853.9 859.8 845.9 836.7 830.2 823 814.3 804.4 793.9 781.1 765.4 753.5 736.4 727.7 715.2 707.1 708.6 713.3 717.2 731.3 745.8 755.7 754.4 757.7 761.8 763.2 763.1 760.1 770.6 782.8 794.4 804.8 812.9 817.9 820.9 821.4 818.3 818.1 815.8 815.7 819.7 824.1 831.3 839.5 849.8 858.1 866.5 874.1 882 889.1 896.4 904.5 913.4 921.3 924.1 894.7 854 826.8 803.8 780.5 766.9 761.6 757.2 739.1 715.9 699.7 682.6 663.8 644.1 625.5 616.3 605.4 595 588.6 580.3 574.2 572.6 573.1 574.9 579.1 581.6 588.3 593.9 602.1 612.2 623.1 637.4 651.8 658.5 663.6 672.4 678.7
858.3 861.1 861.6 860.3 855.8 851.6 849.3 849.5 851 852.6 855.1 858.7 863.8 868.1 869.1 868.2 865.3 860 853.1 846.8 840.7 834.9 831.5 829.2 826.4 823.5 822.7 820.2 818.6 817.6 817.8 819.9 822.4 823.2 822 819 813.8 804.1 792.8 782.3 763.4 766.7 770.6 770.4 764 771.3 783.3 791.2 796.1 805 809.8 814.5 817 820.9 821.2 821.4 823.1 823 824.9 827.2 830.3 829 826.8 838.9 842.3 846.9 850.3 852.5 853.2 859.5 862.6 860.2 865.8 869.7 873.6 874.7 878.7 880.2 888.6 894.3 895.7 895.3 893.3 890.1 889.9 890.4 891.1 892.8 894.1 894.2 893 889.5 885.9 883.9 880.9 879.1 879.8 880.5 880.5 879.7 876.8 874.4 872.2 870.7 870.1 870.2 866.7 858.5 857.8 853.8 841.1 834 829.7 822.8 815.3 806.8 797 785 770.1 757.3 743.3 729.2 720.3 712.5 700.8 704.1 707.6 716.5 728.2 742.8 738.4 745.7 751.3 752.9 751.8 762.5 773.6 783.5 792.5 801.6 808.3 812.1 813.2 810.6 811 809.6 812.6 817.2 823.1 828.9 837.1 847.6 857.8 867.1 875.9 882.8 888.5 895.4 902.6 911.2 920.1 927 926.8 899.9 858.2 831.7 797.2 784.9 769.3 765.3 744.1 735.1 703.6 689.2 677.8 664.5 650.8 634.2 619.5 608.6 596.8 589.5 580.3 574.8 572.5 569.9 574.6 576.2 578.5 585.5 591.8 600.8 609.9 621.8 638 648.4 653.3 655.6 663.5 669.9
858 860.6 860.7 860.7 857.5 855.1 850.8 850.8 852.4 853.7 857.3 859.5 864.2 868 868.8 867.7 864.6 860.3 851.9 846 839.1 835.2 831.7 829.4 827.4 825.4 823.1 820.8 819.9 818.4 818.8 820.3 822.4 823.4 820.9 816.2 807.6 788.3 774.5 766 772.6 782.1 780 780 759.8 779.9 789.4 794.8 801.5 807.6 812.1 817.5 820.3 823.6 824.4 824.2 826.4 826.4 829.2 831.8 833.8 835.7 835.3 835.4 846.1 849.9 854.6 856.5 858.1 863.2 868.4 865.9 868.6 873.9 878.5 877.6 880.7 882.4 889.1 895.2 896.8 893 888 886.9 884 884.8 886.6 888.1 888.4 888.3 887.1 883.5 881.9 880.1 878.1 878.3 879.6 880.6 881.2 880.6 876 870.2 868.3 864.9 864.9 863.2 862.5 856.9 862.3 852.6 841.9 832.7 826.9 821.4 815.6 809.3 800.6 788.4 777.7 762.7 751.2 735 725.5 714.7 702.2 693.2 697.6 702.7 712.6 724.6 727.9 737.7 741.9 737.6 752.3 765.1 776.2 784.6 791.3 797.6 802.2 804.1 802 799.9 802.4 808.1 814.9 821 828.3 836 844.5 855.8 867 875.8 884.2 890.6 896.1 901.7 909 915.8 921.1 922.8 917.7 903.5 875.7 830.5 808.9 787.1 774.5 756 733.8 708.5 692.3 682.5 672.9 665.3 654.3 639.2 621.1 606.6 596.5 587.8 580.2 575 572.8 570 572.7 573.8 578.6 584.3 590 600.1 609.3 621.2 638.3 644.7 646.4 645.8 651 659.8
857.6 860.2 861 860.9 859 856.2 854.2 852.9 854.1 855.4 858 861.2 864.9 867.8 868.4 867.2 863.4 858.4 851.7 846.6 840.2 835.9 831.9 829.6 827.5 825.8 823.5 821.4 820.2 818.5 817.3 817.5 819.8 820.6 815 807.3 790 767.4 778.6 784.6 789.9 789.7 787.5 783.5 763 782.8 792.4 795.3 801.3 811.3 815.9 819.8 823.3 826.1 828 827.5 828.3 830 832.2 834.8 837.5 838.6 840.7 841.2 846.2 852.1 858 861.3 865 869.8 867.2 867.7 873.3 878.3 879.6 879.1 886.5 884.9 888 890.6 890.8 887.6 883.3 881.5 877.7 878.6 881.4 883 882.8 882.1 880 877.5 876.3 875.4 875 876.5 879.7 881.8 882.7 880.4 874.1 867.2 863.5 862.1 858.4 857.9 857 853.1 855.3 847.2 832.5 830 825.2 817.9 815.3 808.8 802.6 792.1 783.4 772.8 759.7 748.6 734.7 722.2 710.1 695.8 687.8 693.9 701.8 711.5 717.8 728.6 728.5 741.6 753 767.7 776.9 782.9 788.5 793.9 795.5 795.1 791.5 796.9 805.5 812.7 820 827.1 833.5 840.3 851.3 862.5 873.7 882.3 889.7 895.2 899.7 904.3 908.7 912.2 913.6 913.1 909.1 898.1 877.5 846 822 789.7 772.6 743.3 724.1 698 688 683 675.3 665 651.7 639.6 625.9 608 596.7 587.7 578.9 574.1 570.4 568.2 567.8 573.1 577.3 582.1 588.4 597.4 606.8 619.8 636.7 639 639.3 637.5 642 648.2
857.4 860.6 862.2 862.1 860.5 858 857.5 854.8 854.9 855.3 858.6 862.6 865.7 867.5 868.1 866.8 863 859.6 853.7 846.4 840.4 836.5 832.8 830.3 828.7 824.7 822.9 820.9 818.5 816.4 815.4 814.7 815.4 812.9 803.4 792.5 769 783.5 792.2 794 794.4 792.1 790.8 783.3 768.9 787.8 792.5 800.5 807.9 813.8 818.1 823.2 827.6 830.1 831.5 830.5 832.3 834.2 836 838.5 840.5 842.5 843.4 846.2 842.8 853.8 860.7 863.8 867.3 868.3 865.1 869.9 879.4 881.6 878 876.7 886.7 886.7 884.9 884.4 879.7 879.4 877.1 876.3 874 874 875.7 876.9 876.5 874 873.5 873 872.3 870.7 871.2 875.5 879.9 882.3 882.8 879.9 870.8 864.7 860.8 858.3 854.4 853.1 850.3 851.9 844 833.5 825.1 826 822.5 814.8 811.3 807.8 802.3 795.8 788.2 782.4 773.7 763.3 744.5 728.6 712.8 695.6 684.9 685.5 692.4 702.6 713 714.3 729.1 739.7 752.5 766.5 772.7 780 785.3 788.2 787.1 784.8 789.3 799.9 809.2 818.4 826.6 831.8 838 845.6 855.7 866.1 876.4 882.6 890.3 894.6 897.9 899.7 900.5 901.2 900.7 898.2 894.6 887.5 874.5 855.7 822 789.6 762.3 734.3 718.3 699.7 692.6 683.2 676.1 665.8 651.4 639.4 626.8 609.8 597.2 587.6 579.2 571.4 570.3 568.2 567.3 570.2 575.2 580 587.4 596.1 605.2 618.9 630.7 633.6 634.3 630.1 632 637.8
856.8 861.2 863.5 863.9 860.8 860.5 859.7 857.9 855.9 856.7 860.2 863.5 865.4 867.2 867.6 866.5 864.3 859.9 853.1 847.1 839.6 836.5 833.6 832.2 828.7 824.4 821.7 817.9 815.8 812.9 809.6 808.6 806.4 800 786.3 772.9 781.6 795.6 798.3 799.8 799.6 797.1 792.6 785 772.5 789.3 798.3 803.8 809.7 816.6 821.7 826.9 829.6 832.6 833.6 835.1 837.4 839.2 840.9 843.2 845.2 846.4 848.2 850.1 849.6 857.9 860.6 861.2 868.3 864.3 865.2 873 882.7 881.7 876.2 873.6 876.9 881.7 877 876.8 869.8 864.4 868.9 869.6 870.7 870.4 870.2 870.7 870.8 869.6 869.7 868.9 868 866.2 869 873.7 878.3 880.3 880.9 877.1 868 862.3 857.7 853.3 850.9 848.2 842.1 841.8 833.5 823.8 825.8 820.2 818.4 807 801.5 802.4 802.7 798.5 794.4 788.7 786.3 777.7 759.2 732.3 709.6 695 682.9 678.1 685.9 698.2 702.2 715.9 723.2 734.2 747.7 757.6 764.9 774.5 778.8 777.5 776.6 782.1 794.8 805.7 816.1 826.8 835.7 840.3 839.4 849.1 857.9 864.8 873 879 882.8 885.6 888.3 888.8 888.6 887.2 885.1 882.2 879 873.4 864.3 849.9 822.1 779.3 751.7 733.8 720.9 709 692.4 683.6 673.8 664.6 654.5 642 629.5 612.5 598.4 589 580.6 572.3 567.4 565.2 564.8 567.7 571.6 578.3 583.8 593.7 602.8 618.8 624.6 628.5 628.3 624.4 624.1 629.3
856.9 861.6 864 863.3 863.6 862.8 861.8 860.1 857.5 859.1 861.8 864 865.7 866.2 866 865.6 863.8 858.6 852.6 845.9 839.8 836.8 834.4 832.3 828.5 823.9 818.6 813.6 811 808.3 804.2 799.5 792.3 777.9 781.7 787.3 797.6 801.7 803.8 804.1 803.2 798.2 792.5 783.9 780.2 789 799.9 806.5 812.9 819.8 825.6 830.8 833.1 835.7 836.9 839.2 840.4 842.3 844.6 846.1 848 849.2 851.9 854.9 856.7 858.5 861.5 864.1 863.1 863.4 873.5 874.1 876.2 878.8 873.6 860.4 861.1 862.4 862 857.5 857.9 848.9 857.2 862.1 863.2 866.5 866.6 867.2 866.7 865.3 864.7 864.3 863.6 862.4 865.5 871.1 876.1 878.8 877.3 872.2 863.6 858.6 855.1 847.6 843.3 832.9 834.3 835.1 824 817 817.7 807.9 803.3 790.7 782.1 793.7 800.1 801.7 796.7 791.2 796.3 784.7 762 728.5 703.5 688.6 677.4 670.6 678.9 690.9 706.8 711 717.2 725.3 737.1 744 756.2 765.7 764.9 763 772.7 787.4 800 812.1 825.9 836.6 845 848.2 844.6 849.4 858.1 863.9 868.3 871.4 873.6 875.1 876.1 876.1 875.4 872.4 870.7 867.5 863.4 857.5 849 835.3 799.5 772.3 755.1 738.7 723.5 712.5 698.9 684.4 672.7 667.5 659.9 648.7 631.6 613 597.6 587.6 577.6 569.8 566.8 564.9 561.8 566.4 570 575.3 579.6 590.7 600.6 613.4 620.5 622.9 622.7 620.1 617.2 622.7
857.3 861.6 863.6 864.6 866 864.8 863.2 862 858.9 858.9 861.4 863.4 864.9 865.3 865.1 864.1 862 855.7 850.8 845.4 840.7 837.3 834.4 831.7 827.6 823.3 818.1 811.8 806.4 799.8 798 780.3 781.7 789.6 793.5 797.2 804.1 806.9 808.3 808.4 805.2 799.7 793.6 777.2 788.4 798.4 805.3 809 815.8 822.6 828.5 833.4 836.2 838.2 839.4 841.8 843.4 845.5 848.9 850.9 850.6 851.9 855.4 859.2 861.7 862.5 862.7 862.8 862.8 865.7 869.4 875.2 874.8 876.1 864.3 850.8 841.1 837.7 838.7 837 839.6 837.3 845.3 853.2 856.5 861.9 862.7 861.9 862.9 861.6 859.9 859.5 858.2 858.2 862.6 868.8 873.9 877.1 873.4 868.6 862.3 857.9 852.7 843 837.7 830.1 826.9 824.1 812.7 808 803.8 791.3 781.7 770.9 764.3 781.1 794.8 801.4 791.9 790.2 803.4 776.3 750.1 719.7 698.1 681.3 671.4 661.7 674.4 695 704.7 706.5 708 713.8 719.7 732.5 742.8 749.8 748.8 763.5 777.2 792.1 806.3 821.7 835.1 846.9 854.2 856.5 853.3 846.1 855.1 859.2 860.5 860 861.9 862.2 863.3 861.9 860.9 857.3 853.8 852.1 848 841.8 832.7 814.7 792 774.8 752.4 734.1 721.3 710.8 697.6 679.7 672.1 671.1 663 652.3 633.5 611.7 596 585.6 574.6 569.4 567.2 563.4 559.2 564.1 569.3 572 578.7 588.2 598.2 609.6 616.5 615.7 615.5 614 610.5 614.6
857.1 861.9 864.7 866.7 867.6 866.3 864.5 862.9 861.2 860.2 860.6 861.9 863.1 864 864.1 862.6 858.8 853.6 847.7 844 840.4 836.4 833.2 830.1 826.7 821.1 815 806.7 802.9 791.5 783.5 794.3 797 800.2 802 808.2 809.6 811.3 812.4 808.9 805.6 799.1 791 786.9 795 801.5 809.3 813.1 814.5 822.3 830 833.6 837.9 839.2 842.8 845.2 848.3 852.1 855.4 856 855.9 858.6 861.1 863.2 865.2 867.5 867.9 862.8 862.8 864.8 867.6 872.7 876.1 872.4 856.5 842.3 828.4 824.8 823.7 825.1 825.3 832.2 841.3 850.4 853.9 857.8 857.3 856.9 857.2 856.9 855 853.6 851.8 854.1 859.6 865.5 871.1 872.5 868.9 865.5 861.2 855 849.7 837.1 830.6 823.8 812.4 805.2 795.3 798.5 793 779.8 762.9 752.4 743.1 757.6 782.5 797 786.6 794 799.2 765.6 736.1 710 689.7 675.6 660.8 659.4 674 693.4 698.1 699.9 700 702.5 708 716.1 727.1 742.7 755.2 769.9 783.9 799.4 816.5 832 845.9 856.8 861.3 861.9 858.5 850.9 850 851.2 850.6 849.8 849.1 849.3 850.1 848.1 846.6 843.9 838 836.3 831.8 825.4 816.5 801.7 787.4 770.5 750.8 733.9 723 709.7 695.8 683.5 677.8 675 666.1 651.9 632 609.3 594.6 583.1 573.8 567.8 564.5 561.1 558.5 562.9 566 569.6 574.6 584.4 594 606.5 611.1 610.3 609.8 608.4 604.6 606.4
857.6 862.1 866.1 868.3 868.8 866.7 865.2 861.7 859.6 858.6 859.4 860.7 861.4 862.3 861.6 860 855.2 850.3 846.2 842.8 838.4 833.7 830.9 826 823.5 817.5 810.8 808 801.8 789.3 795.1 799.4 805.6 808.3 810.3 813.3 814.8 814.7 814 810.7 805 799.6 785.6 790.8 799.2 805.1 811.9 817.3 820.9 823.1 829.2 836 840.2 843.2 847.2 850.1 854 858.7 861.6 864.3 865.2 866.5 869.1 870.6 873.7 874.4 871.7 869.9 869.7 869.4 871.7 877 879.3 872.4 857.9 835.4 825.1 820.1 818.7 820.1 821.7 829.5 839.3 845.9 850.9 852.1 849.6 849.3 849.8 850.2 848.9 848.2 846.9 852.2 857.3 862.2 865.5 868 867.6 864.8 859.9 854.4 849.3 838.6 824.9 815.4 801.3 789 780.5 784.4 780.4 766.3 751 733.5 721.9 734.9 759.2 781.9 765.5 793.6 786.1 754.6 723.1 698.4 680 665.5 651.3 654.5 673.8 684.1 688.9 692.1 691.1 693.6 706 720.2 736.1 749.3 764.4 778.8 794.2 811.9 827.1 842.7 855 863.4 864.3 862.4 857.9 850.7 842.7 840.6 839.5 838.9 835.5 836.8 837.4 836.5 833.7 829.6 825.8 820.9 814 808.1 802.7 791.9 779.8 764.5 745.1 736.1 723.8 706.1 694.4 685.9 680 677.5 662.3 647.4 626.8 606.8 592.1 581.2 572.5 566.6 561.9 558.9 561.1 561.8 563.2 566.8 572.2 579.7 587.8 599.7 604.4 604.2 604.4 603.1 597.5 599.6
858.7 862.1 866.6 868.4 869.1 865.8 864.7 861 859.4 858 858.5 859.4 859.8 859.4 858.6 856.9 852.1 848.8 843.7 838 833.8 830.1 828.2 824.1 820.1 813.3 801.6 799.1 794.3 795 802 807.9 811.5 813.1 815.5 817.4 817.7 817.6 814.9 809.8 806.1 797.1 799 796.4 803.8 811 817 821.5 826.4 828.2 834.7 838.9 842.2 847.6 851.5 854.4 860.6 864.6 868.3 871.9 874.8 877.2 877.7 880.2 882.5 884.2 880.6 877.3 876.1 877.7 876.1 882.2 880.3 864 849.2 823.7 819 813.8 810.4 810.5 815.4 821.6 830.3 838.1 842.6 843.5 841.8 840.1 841.3 842.5 843.3 843.2 843.7 849.7 853.9 858.8 862.8 864.3 865.7 864.5 858.7 853.3 846.9 830 823.8 811.8 802.3 784.3 765.9 767.3 763.1 749.3 737.2 719.1 708.3 712.1 730.7 742.2 739.7 771.8 758.6 733.7 708.4 687.2 670.6 658 638.6 651.5 666.3 671.4 678.6 683 681 693.6 709 724.3 741.9 756.6 775.6 790.7 806.7 822.3 837.3 850.2 860.1 865.4 864.5 860.5 855.3 848.2 838.7 830.5 829.4 828 826.4 826.1 825.2 821.6 819.9 817.2 815.4 810.3 805.4 799.1 792.8 782.6 771.8 757.3 745.2 731.3 715.8 702.1 692.8 686.9 683.3 673 656.4 638.6 622.4 602.1 589.3 579.1 570.9 565.1 561 556.4 557.8 560.2 561.1 564.2 568.9 575.7 583.2 589.6 596.8 597.4 597.5 596.7 592.6 591.7
859.3 862.8 867.2 869.1 868.1 866.2 863.5 863.2 861.3 859 857.9 857.1 857.6 857.9 856.8 854.2 849.7 846.3 841.2 835.3 831.2 828.6 824.5 820.9 812.8 811.4 810 809.6 805.3 804.3 808.6 814.6 817.1 818.6 821.5 821.6 821.6 819.1 814.8 811.4 805.9 795.4 803.1 802.7 807.9 814.5 819.7 824.1 832 835.8 840.7 845 846 851.5 855 860.4 867.4 872.6 876.9 881.2 884.2 886.4 889.8 890.1 893.6 889 889.9 892.9 894.2 890 885.9 885.3 882.5 858 842.1 823.7 816.1 811 808.2 805.4 807.9 810 814.4 822.1 829.1 830 829.8 827.1 833.1 833.6 835.8 837.4 840.1 845.5 850.4 857.2 860.4 862 863.9 861.5 858.4 851.4 842.8 831 820.7 810.2 800.3 785.7 763.8 745.3 746.7 735.2 722.1 706.9 696.4 697.3 700.6 707.1 716.1 731.4 727 706.6 690 672.4 660.7 646.1 637.6 645.5 653.8 663.3 669.4 673 683.6 698.4 714.4 729.8 746.9 765.8 786.4 802.8 818.8 831.9 844.2 853.8 862.3 863.9 861.7 857.1 851 843 832.6 823.4 821.2 820 817.6 814.8 811.8 811.4 811.4 808.9 807.1 802.9 797.9 792.5 786.1 775.4 764 749.6 733.8 719.9 710.5 698.6 693 687.7 682.4 667.7 648.3 636.7 616.8 599.3 587.1 577 568.6 562.2 560.1 557.4 555.8 557.8 559.9 562.2 565.8 571.6 578.4 585.2 588.4 589.6 590.8 590.6 587.2 586.5
861.4 864.6 867.7 870.8 870 868.8 868 864.2 862.5 860 859.5 857 854.1 855.2 853.7 849.7 847.6 842.7 836.9 833 828.9 825.1 822.9 816.9 813.7 817.3 816.4 813.9 800.9 808.3 814.1 819.9 822.4 825.1 827.2 825.9 822.6 820.5 815.4 812 807.6 800.2 808.1 809.8 809.9 819.5 822.5 828 828 840.6 845.4 850.2 850.8 855.7 860.1 866.6 874.9 882.3 886.5 891.7 895 899 901.2 902.4 902.8 900.1 904 905.3 906.9 903.7 896.9 885.9 871.5 858.6 838.9 819.6 808.3 805.6 801.9 801.9 802.2 802.1 802.8 805.9 814.5 817.7 817.5 815.9 823.2 826.4 828.5 828.1 836 842.8 849.6 855.3 859 859.6 858.1 855.5 854.8 850.5 837.2 831.9 820.4 807.5 794 775.1 763.7 743.3 727.9 720.4 708.3 695.8 687.8 686.5 685.1 686 693.3 702.3 698.4 682.3 671.6 660.2 649.1 633.3 637.6 642 651.7 659.7 667.3 677.5 688.8 706.6 722.8 737.9 757.5 779 795.4 813.9 828.7 839.8 848.8 857 861.5 861.2 856.7 851.4 844.3 836.1 825.8 818.2 810.1 809.5 807.2 806.3 805.1 803.8 801.3 799.9 797.4 793.1 789.8 785.2 778.7 769 755.7 738.8 726.3 714.8 704.9 699.6 695 687.7 678.6 662.6 645.5 630.8 610.4 596.5 584.1 575.9 567.9 560 558.2 555.6 552.7 556.2 556.9 559.3 563.5 569.1 576 581.1 583.6 584.5 585.6 584.8 583.5 581.1
863.4 867.2 870.6 873 872.6 872.3 871 867.7 865.6 862.9 859.4 857 855.4 853.4 849 847.6 845.1 839.3 834.5 830.1 825.8 822.6 817.7 816.3 822.2 823.5 820.7 815.3 804.1 814.5 821.8 826 828.4 831 830.9 827.5 824.3 820.1 817.6 813 806.9 808 812.6 815.2 810.5 824.3 827.3 834 841.7 843.3 852.2 855.1 857.3 860.7 867 873.3 880.5 888.5 896 901.5 906.2 911.2 913.6 916.8 913.6 915.5 915.1 913.5 914.6 908.4 893.7 875.8 867.9 856.4 828.7 812.6 803.9 795 794.7 791 791.6 791.7 791.3 792 797.3 802.5 803.3 805.7 812 817.2 818.2 826 832.2 839.9 847.4 853.2 855.8 858.8 857.9 854.9 851.2 844.3 832.8 828.7 813.2 799.6 785.5 766.5 757.2 741.5 722.6 700.3 694.9 686.2 679.5 678.1 676.2 674.3 674.4 678.7 677.1 666.3 658.2 648.2 641.1 625.2 640.2 648.5 655.2 663.7 670.7 681.6 698.4 716.4 733.8 749.5 771.5 793.9 811.9 823.2 835.2 846.4 852.3 857.9 859.2 856.7 851.9 844.7 836.3 825.3 817 811.9 807.3 802.5 801 798.9 797.8 794.4 791 788 785.4 782.4 779.7 775.7 767.9 758.2 747.7 733.5 722.9 711.4 703.1 699.4 695.9 683 671.6 661.1 643.6 628.7 608.6 593.6 581.2 573 566 560.6 556.9 554.5 550.8 553.4 554.7 557.9 561.3 566.7 574.8 577.1 579.8 580.8 581.3 581.1 580.4 578.6
866.7 871.3 873.6 874.8 875.6 875.9 875.3 872.4 869 865.1 860.6 856.1 853.9 852.8 849.8 846.2 841.1 836.8 832.8 828.8 824.8 816.3 815.2 823.8 827.5 827.8 823.2 814.3 810.9 820.8 827.9 832.5 834.6 834.7 832.7 830.3 825.3 821.7 819.6 816.1 811.3 813.9 819.1 823.1 813.5 829.4 834.8 842.7 852.6 855.1 858.1 861.1 864.1 866.5 872.7 879.7 886.6 895.5 904.2 910.9 915.4 920.2 923.2 927.1 922.8 922.4 925 921.6 916.9 905.5 886.9 878.2 861.6 840.4 825.3 808.4 793.2 781.6 776.7 776 775.4 775.2 776.5 779.8 779.2 785.5 791.1 795.1 800.8 806.9 811.8 819.9 828.8 837.8 845.2 853.2 859.2 864.2 863.8 860.1 852.7 839.8 829.7 823.8 804.3 791.3 779.7 767.7 752.6 736.1 720.4 699.4 675.7 675.2 667 665.9 664.2 661.5 659.6 657.5 658.5 656 649.9 638.5 631.1 618 636.9 652.5 660.6 668.3 676.5 690 709.7 727.2 744.9 765.1 788.3 809.9 828.7 839.3 847.5 853 855.6 856.5 855.7 851.7 845.7 836.2 825.3 816.5 811.2 808.6 804.2 798.7 793.3 791.4 789.1 786.9 782.9 777.8 773.4 767 766.5 763.9 755.1 748.1 739.5 728 716.4 708 703.1 701.8 692.9 681.5 671.5 658.2 642.3 625.9 607.5 590.6 578.4 570.4 563.9 559.2 555.3 554.8 548.4 552.3 553.4 555.9 559.6 566.1 570.3 572.7 575.7 577.1 578.4 577.9 576.9 575.5
872.3 875.5 877.2 878.8 880.9 881.1 878.2 875.1 870.9 866.4 861.8 856.5 853.4 850.7 847.1 844.6 840.9 835.1 831.1 827.2 822.2 817.8 826.4 829.4 832.2 830.8 825.3 810.7 817.5 828.2 833.3 837.1 839.5 837.1 834.8 830.2 826.1 824.5 822.5 820 820.1 819.4 828.1 831.9 824.3 833.7 843.1 854.3 862 866.3 871.4 870.9 871.4 873.4 878.5 886.7 894.5 902.2 910.3 917.6 923 926.2 928.7 928 928.7 931.6 932.6 926.7 913.2 898.3 885.5 868.5 856.9 837.5 820.8 799.8 776.9 760.9 757.4 754 757.3 759.3 758.1 760.5 764.4 769.6 778.4 784 791.8 799.4 806.7 816.7 825.4 834.3 843.5 854.3 861.7 865.4 866.3 862.3 852.7 837.3 830.4 819.6 803.3 788.7 778.1 769.4 749.4 728.6 713.9 695.9 677.2 657.3 654.7 646.3 642.2 640.4 640 640.6 645 646.3 637.2 626 617.3 625.7 647.4 654.5 664.4 678.2 687.8 701.8 721.3 741.6 762.4 782.2 805 825.7 841.7 851.3 857.9 860.2 857.7 855.4 852.2 846.8 838 826.2 818.3 813 808.2 803.8 800.3 795.6 787.7 785 782 778.1 774.3 765.6 763.7 759.3 754 752 746.5 740.6 732.2 722.5 714.4 708.4 704.9 699.9 689.2 679.5 668.2 652.6 638.4 622.8 605.8 587.6 576 568.1 561.8 557.2 553.8 553.2 545.5 550.3 552.4 554 557 562.3 566.9 569.6 571.7 573.8 575.8 573.9 572.9 572.1
877.1 880.9 882.3 883.7 885.2 884.6 880.9 875.8 872.3 867.1 862 856.3 852.3 848.7 846.2 843.8 839.8 835.4 830.9 825.7 822 825.4 830.6 833.9 835.2 833.2 825.5 807.2 824.1 832.3 837.8 843.4 843.6 841.1 836.3 832.7 828.3 827.2 827 824.2 826.1 828.3 836.6 841.3 841.6 834.5 851.8 860.9 872.6 876.6 880.5 878.6 878.1 882.6 886.5 893.3 900 907.3 914.5 922.4 926.2 930.7 931.1 933.4 935.4 933.4 931.3 920.3 904.6 894.7 879.3 867 848.6 834.8 798.8 775.5 753 739.8 733.4 733.7 736.7 739.1 740.6 743.1 751.5 759.6 767.3 775.9 783.7 792.9 801.9 812.2 822.2 833.2 844.5 855.6 863.3 866 867.1 865.3 856.4 840.3 831.8 818.6 797.1 789.3 778.6 768.9 739.5 718 704.5 690.4 672.8 655.8 643.1 632.6 626.1 622 623.3 621.6 626.1 624.5 620.3 613.4 617.2 636.5 648.6 659.2 670.7 689.2 702.3 716 734.3 755.8 776.9 798 819.2 838.1 852.3 860 864.3 862.7 858.9 853.4 848.1 840.8 830.6 819 814.4 809.5 804.4 799.1 794.5 790.2 783.5 779 777.5 772.7 767.3 762.7 756.6 753.6 748.7 745.3 738.7 732.3 726 718.4 711.8 705.7 701.8 697.1 691.4 681 664.6 649.9 635.4 618.5 601.3 584.2 572.9 565.7 559.5 554.5 552.6 549.8 543.8 548.5 550.1 551.7 555.3 558.8 563.8 567.4 570.6 573 572.7 570.5 569.8 568.5
881.7 886.4 888.2 887.3 887.3 887.2 883 877.6 873.6 868.7 862.4 856.9 852.8 849 845.5 842.4 839.3 836.4 831.4 826.2 820.2 829.4 834.5 836.8 837.1 836.6 825.1 809.7 828.1 836.5 841.3 847.4 846.6 843.1 838 834 830.8 831.6 829.3 829.3 831.6 838 844.5 848.6 851.9 849.5 859.7 873.3 881.6 884.6 889.1 889.5 890.7 892.8 894.1 897.9 904.6 912.3 918.7 925.6 929.9 932.8 935.8 938.3 938.2 934.7 922.6 917.1 898.1 887.6 867.2 852.8 835.2 801.9 779.4 760.1 736.7 720.3 714.8 713.4 716.1 720.4 719.9 725.5 742 751 760 763.4 776.1 787.8 796.7 806.8 818.9 830.9 845.8 857.4 865.7 871 871.8 869 859.8 846.2 832.4 816.8 796.9 784.9 775.7 758.6 731.4 711.6 695.5 680.1 667.5 647.6 628.6 622.2 615 610 608.3 608.1 610.1 611.3 606.5 603.6 632.5 641.5 654.1 666.2 679.8 693.4 719.4 735.4 741.4 767.9 790.3 813.7 832.6 850.1 860.5 865.4 866.2 862.3 855.7 849.5 843.5 835.5 822.5 815.5 810.6 805.6 799.3 795 789.7 783 779.5 776.4 773.1 768.2 764.4 761.5 757.9 754.7 750.4 747.8 743.2 736.8 730 721.1 714.2 710.1 704.3 698.8 689.9 679.4 660.1 646.2 630.5 609.2 593.7 580.2 569.6 562.9 557 552.8 551.4 550.7 547 540.6 547.3 550 552.1 556.9 562.1 565.4 569.5 571.4 569.3 568.9 566.5 564.6
886.4 889.4 891.4 890.8 890.3 889.7 886.1 880.3 874.5 870.2 864.2 858.5 854.1 849.3 846.8 843.8 838.9 834.8 830.1 824.1 829.2 834 837.5 840 840.9 837.3 825.7 820 831.6 839.4 845.1 848.2 846.6 843.3 837.7 834.2 834.3 834.2 833.1 832.4 839 847 850.8 856.5 862 865 860.2 879.3 887.8 893.5 897 899.1 899.6 898.7 899.1 904.2 909.6 916.7 923.9 927.3 931.7 935.6 939.5 937.6 935 933 925 911.5 898.4 885.6 858.8 835.7 807.7 785.4 769.7 745.9 721.9 706.6 702.5 703.5 702.8 706.1 710.2 717.2 726.9 740.6 748.9 754.9 767.7 780.9 792.9 803.1 817 831 847.1 859.5 867.7 873.4 875.5 871.3 861.3 848.8 833.8 814.8 796.8 780.3 768.9 747.1 724 705.7 690.8 675.7 653 641.5 625.5 611.6 605.4 603.6 596.8 596.1 598.5 600 603.3 625.4 635.7 649.6 663.5 676.8 691.1 705.5 724.1 750.6 758.6 783.7 805 825.5 845.8 859.5 868.3 870.4 866.3 859.9 853 845.6 837.9 825.4 816 810.7 805.8 801.3 795.6 789.1 783.2 777.8 775.6 772.9 769.3 766 763.3 760.2 758.2 754.9 752.2 747.9 742.6 734.8 729.2 723.6 719.1 710.7 708.6 697.3 686.8 669.8 653.1 642.3 626.3 607 591.2 577 567.3 559.1 555.2 551.8 550.4 549.5 546.8 535.6 543.6 547.3 549.6 555 558.8 564.3 567.5 568.7 568 566 564.5 561.4
889 891 893 894.1 894.1 892.7 888.1 881.4 875.5 870.7 866.5 860.1 854.1 849.5 846.1 843.6 838.4 833.8 828.6 822.3 832 837.4 840.8 841.5 843.3 835.3 816.4 827.3 832 838.4 844.9 846.4 843.2 841.3 840.4 839.1 839.5 836.7 836.6 841 848.7 854.6 859.1 865.9 872.1 876.2 880 884.8 891.4 898.2 902.1 904.9 905.1 905.4 905.1 909 914 920.3 926.1 927.1 930.3 934.8 938 935.3 933.6 926.5 920.1 912.6 899.8 869.5 840.1 817.2 794.9 778.2 762 741.8 717.4 701.9 695.4 694 693.3 696.5 703.3 707.7 712.6 728.6 734.2 743.6 758.5 774.6 788.6 799.9 813.3 831.5 849.2 861.1 869.1 875.6 876.9 871.2 862.1 850.4 834.6 815.6 798.2 781.3 761.2 739.8 717.8 701.5 684.1 672.6 651.7 634.9 619.1 606.1 598.1 593.5 590.2 590.8 592.7 599.5 619.3 629 642.6 658.1 672.2 689.5 703.2 720.2 743.4 766.3 772.8 788.2 817.4 836.7 854.4 868 874.4 873.5 866.2 858.7 849.5 841 832.7 821 813.1 807.8 802.7 797.8 792.5 786.1 777.7 773.6 772.3 770.6 767.4 763.9 760.8 757.2 755.2 752.7 749.4 744.4 737.9 731.9 727.8 723.5 717.5 710 702.4 695.1 675.6 663.1 648 638.4 621.6 603.2 586.1 574.8 564.3 556.3 553.1 550.6 548.5 546.2 541.8 534.8 540.2 544.2 547.6 552.9 558.9 562.6 564.7 566.5 563.8 563.1 560.1 558.3
889.2 891.4 894.1 895.4 894.2 891.3 887.2 882 876 872.2 866.1 861.2 854.9 850 846.6 842.2 836.9 831.9 829.1 826.9 834.3 840.2 843.2 844.6 843.3 836.5 831.7 827.8 830.9 837.7 841.7 841.8 842.7 843 844.1 842.9 840.9 839.5 843.9 850.3 856.9 862.5 869.4 877.2 882.4 884.9 886.8 888.6 893.4 900.2 907.2 910.5 910.3 908 909.8 910.5 915.8 923.1 923.4 925.8 929.3 932.9 935.9 937.8 935.4 932 919 908.6 876.8 847.8 821.9 798.3 785.7 772.3 756.2 734.2 713.6 698.7 692.6 689.4 692.1 691.5 696.9 702.2 707.3 718.4 728.3 734.7 749.7 766.7 780.7 794.5 808.4 833.5 850.1 861.6 870.5 877.3 876.3 869.2 860.1 849.1 832.2 815.9 798.6 778.8 756.5 737.1 714.8 696.6 679.7 667.6 643.9 629.4 613.7 599.6 591.6 586.1 585.9 586.5 591.6 609.2 622.5 634.8 650.5 666.4 683 697.7 721.3 738 762.3 786.4 803.8 803.8 825.3 850.5 866.3 876.2 880.2 875.8 867 857.5 846.4 837.9 830.1 820.9 811.3 805.5 799.9 794.9 789.7 783.2 774.6 771.1 768.2 766 763.9 760.9 758.1 754 751.3 748.4 743.9 738.1 732.5 728.9 725.7 721.7 714.8 706.2 698.5 682.7 669.7 657.2 646.4 634.4 615.1 595.4 584.3 571.3 561.2 555.1 553.9 552 550.8 548.9 543.9 533.2 531.3 538.8 544.3 551.4 557 560.5 561.8 560.5 560.3 558.7 557.3 555.9
890.3 892.8 892.7 892.2 890.7 889 885.4 882.1 877.5 871.6 865.6 859.9 854.7 851.4 846.3 841.8 835.5 830.9 828.3 832.7 836.8 843.4 845.8 846 843.5 841.3 839.1 838.3 834.6 839.1 840.3 842.2 843.3 844.5 846.7 844.9 842.4 845.5 853 860.2 868 873.5 879.9 886.1 892.3 894 894.3 896.1 892.6 902.8 910 913.8 912.2 911.4 911.4 913.3 916.5 919.4 922.2 924.9 928.1 932 936.6 942 940.8 932.5 923.8 904.7 866.8 832.9 809.7 788.9 778.6 764.8 754.4 727.5 709 699.3 694.3 689.6 687.8 689.1 691.2 696.2 702.2 711.3 718.3 727.6 741.3 760.1 773 787.9 807.2 831.8 850.8 863.5 871.8 876.6 872.6 866 858 845.3 828.7 813.2 792.6 774.2 752.6 733.4 713.6 692.9 678.9 659.9 638.7 622.4 607.3 594.9 583.5 578.7 581.5 587.6 597.3 614 627.1 643.7 659.6 676.2 691 713.1 740.2 760.3 783.2 807.4 824.7 838.5 845.9 863.3 875.9 885.2 886.2 877.4 867.3 855.5 843.4 836.2 828.3 819.7 811 802.7 797 790.8 785.9 779.1 772.2 768.8 765.7 763 761.9 758.8 754.8 750.9 746.2 741.9 737.4 731.7 727.9 724.4 721.1 717.4 710.4 702.7 691.5 677.7 666.9 656.2 642.9 626.5 605.3 591.8 579.5 567.7 557.9 554.6 552.3 551.4 552.1 549.8 545.1 541 528 536.8 543.2 548.5 554.5 557.6 558.2 556.9 556.9 554.6 552.9 550.2
888.3 889.7 889.5 888.9 888.1 885.8 883.8 881.3 875.8 869.9 864.5 859.5 855 852 846.7 841.1 835.6 831.3 832.3 835.6 840 843.5 846.3 846.5 845.8 846.3 841.8 842.1 838.3 841 841.8 842.9 844.7 848.4 848.1 846.8 848.9 851.3 861.6 869.7 877.9 883.9 889.6 894.5 898.6 899.4 902.4 902.9 902.3 904.6 909 912.2 914 915.2 916.8 916.6 916.6 920.2 922.2 923.3 927 933.2 938.9 940 932.7 923.5 914.4 889.4 851.5 819.7 797.7 786.9 779.5 765.1 745.9 726.5 715.4 704.4 696.5 686.9 682.2 681.1 687.1 690.9 695.5 700.2 710.4 722 733.7 750.2 762.5 776.3 802.1 828.7 849.9 864.4 872.2 871.3 866.3 860.5 852.7 838.9 824 807.9 789.1 768.6 753.4 732.9 708.1 691.7 677.2 652.6 632.6 613.2 601.5 589.9 575.3 577.2 581.8 589.7 602.9 617.7 633.3 650.1 668.7 684.6 706.5 735.7 765 787.3 802.8 825 841.2 856 869 877.9 885.1 889.8 886.4 876.1 866.4 854.5 842.2 835 825.7 816.7 808.8 801 794.2 788.1 781.7 776.3 771 768 764.7 762 759.6 755 750.5 747.2 740.8 734.6 730.7 726.4 721.8 718.6 715.3 711.8 705.9 696.7 685.7 677.5 662.6 649.1 634.7 617.6 600.4 590.3 576.9 564.3 556.5 554.4 552.1 552.7 552.2 548.8 544.3 541.2 526.5 528.4 540.2 546.5 550.7 553.9 554.5 553.8 553 550.4 548 547.5
883.6 886 886.3 885.9 885.1 883.6 880.8 876.6 871.7 867.3 861.2 856.7 854.2 850.8 846.5 841.4 836.6 831.5 834.4 838.5 842 845 847.8 850.3 852.7 849.1 847.2 846.8 837.9 841.3 842.1 843.9 847.7 850.9 851 851.6 856.4 860.5 870.4 877.2 886.4 892.5 897.3 900.9 904 907 909.2 908.5 907 904.3 906.5 908.6 908 910.5 913.9 915.7 915.9 918.5 920.4 921.4 927.1 932.5 938.9 938.6 926 911 891.4 869.1 841.1 814.4 795.7 788.8 779 763.5 746.3 733.1 721.6 703.6 690 685.4 675.3 677.7 679.8 686.8 690.4 694.9 701.4 714 726.9 740.2 752.7 766.4 791.5 820.7 846.1 860.2 865.9 863.8 859.1 853.6 845.5 833.3 818.7 802.3 785 765.3 747.8 726.5 703.2 686.5 668.8 645.9 625.6 608.6 597 585.5 571.1 574.4 580.3 587.2 604.9 623.1 641.2 660.2 678.1 698.2 727.2 758.7 785.7 813.8 832 841.5 857.8 870.9 880.9 886.5 887.2 883.6 879.6 870.7 861.2 850.8 840.8 832.8 824.1 814 806 797.8 790.4 785 779.2 774.2 769.5 765.8 764 761.7 756.7 752.1 748.1 743 737.3 730.6 723.8 720.3 716.3 711.7 710 707 700.1 690.1 682.9 673.2 656.1 639.4 625.6 610 599 587.7 572.5 560.1 554.6 552.7 550.9 551.3 550.8 547.8 542.9 539.5 529.3 521.4 538.8 542.7 547.6 549.7 550.5 549.1 547.6 544.9 544 543.2
879.8 882.2 883 882.7 881.2 878.6 874.8 871.2 866.8 862.9 858.7 855.3 853.1 849.3 845.1 841.1 836.5 829.8 835.7 839.8 843.4 846.5 852.4 856.6 858.1 854.7 854.2 849.7 844.1 842.7 843.9 846.7 852.4 853.4 856.4 859 864.2 868.6 878.2 885.1 893.5 898.4 903.5 905.5 907.9 910.2 911.3 912 910.7 906.9 904.2 907.5 908.6 910.4 912.3 910.8 913.5 914.3 918.6 919.2 924.6 931.3 936.1 933.4 927.4 906.3 883.6 850.7 832.4 814.6 803.9 793.4 783 768 750.1 741.9 722.7 689.1 670.1 668.9 668.1 669.2 677.7 682.1 686 688.5 695.3 705.1 718 730.2 741.9 753.8 774.5 804 835.3 852.2 856.6 854.7 851.4 845.8 837.2 826.9 812.1 795.7 778.9 760 738.9 722.8 699.5 682.4 659.4 637.8 618.2 605.2 592.8 579.4 569.1 570.4 578.8 592.5 610.4 628.2 648.6 670.1 690.4 713.9 747.6 779.8 807.4 835.7 851.4 863.6 874.1 881.8 885.4 885.1 880.7 876.3 871.1 863.6 856 847 838.2 829.2 820.2 810.1 798.8 792.6 785.9 781.7 776.1 771.9 767.7 763.6 760.8 759.3 754.7 746.2 742.1 737.9 732.1 726.1 719.3 711.2 708.5 705 703.7 700.1 694.5 687.5 676.8 668 653.1 636.9 620.1 608.2 596.4 581.8 567.8 556.4 552.8 551 550 550 547.7 544.8 540.6 536.1 532.3 518 535.2 539.6 545.7 546.6 546.6 544.2 543 540.5 540 539.2
878 879.4 879.2 877 874 871.3 869.2 867.3 862.7 859.1 857.1 853.8 850.2 847.2 843.9 840.4 834.8 833.9 838.1 841.6 846.1 852 856.9 861 861.9 861.7 860.8 849.4 845.3 844.5 845.5 849.5 853 858.7 861.9 864.4 870.2 878.6 884.9 891.2 899.5 904.7 907.9 909.1 910 913.1 916.2 914.4 910.3 904.7 902.4 904.5 905 906.6 907.9 908.2 910.9 912.5 917.5 919 920.9 927.9 931.5 932 920.4 900.3 872.1 843.9 830.8 821.6 811.5 800.8 785.1 770.1 759.6 743.5 699.9 671.1 663.7 661 660.2 663.9 670 677.9 680 684.3 690 698 708.9 719.4 730 740.4 759 784.2 812.5 844.3 845.5 845.1 842.3 837 827.5 817.4 803.7 788.4 772.2 755.4 736.5 717.7 695.6 672.3 650.3 630.5 614.5 599.8 587.5 573.1 566 568.4 582.4 595.4 615.3 635.3 660.4 681.3 703.8 730 763.9 798.2 829.7 851.1 865 876.3 883 885.5 883.8 880.6 875.4 869.9 862.7 855.2 849 841.6 833.4 824.4 814.2 800.8 792.3 786.1 782 777.9 773.2 768.2 763.3 759.8 757.5 755.5 751.7 745.3 735.9 728.7 724.8 719 713.8 707.1 701.5 699.8 695.3 691.5 687.8 682.5 671.4 661.8 646.7 632.5 618.6 605.5 591.6 576.5 562.4 553.5 549.8 548.2 547.8 546.7 545 540.3 536.7 533.1 529.5 515.2 532.6 535.6 539.8 542.7 542.8 541.6 539.9 538 535.8 535.4
873.2 872.5 871.7 870 867.4 865.4 865.1 863.6 860.5 857.5 853.9 850.7 848.5 845.2 843 838 834.4 837.3 840.6 843.7 848.3 855.9 859.9 863.7 865.9 867.3 860.9 849.8 847.7 847.1 846.9 849 858.6 865.4 866.8 867.3 875.2 884.4 890.6 897.9 905.3 908.5 909.7 910.2 912.3 914.2 912.7 909.8 907.4 901.5 899.8 901.3 899.9 902.6 906.1 906.5 908 911.2 912.6 914.1 917.2 922.3 925.9 924.7 910.4 888 871.4 854.2 839 829.8 816.4 803.5 787.9 775.6 757.4 715.6 681.5 669 661.9 658.9 658.7 661.2 664.9 672.1 675.6 681.9 682.2 690.3 697.7 708.9 718.4 728.5 739.8 760.5 788.7 811.8 829.9 835.4 833.1 825.6 816.9 806 795.5 779.4 763 749.6 729.6 708.5 687.3 662 640.9 621.4 607.9 596.2 583.1 571.8 564.3 568.7 583.5 598.5 619.6 642.1 668.7 691.1 719.7 746.8 779 811.5 839.2 858.9 868.9 876.4 880 881 877.9 872.9 867.5 861.4 854.3 848.1 842.3 836.1 828.1 818.7 806.2 795.9 787.5 781.1 776.6 773.2 768.2 762.9 757.8 755.2 753.4 750.8 746.7 740.2 734.9 726.7 714.7 712.5 707.4 702.8 697.4 690.7 687.6 686 682.8 678 667 657.1 644.2 629.2 614.9 602.2 587.2 571.2 558.8 550.8 547.3 545.1 543.8 542.5 539.6 536.5 532.8 530.4 526.7 515.2 526.9 531.5 536.3 539 539.2 537.8 536.9 534.8 532.3 531.6
865.5 865 863.8 863.8 864 863 862.1 859.7 857.6 854.9 852.1 849.1 845.9 844.3 837.5 839.3 840 841.3 843 847 854.6 860.9 864.2 867.3 868.9 869.3 859 852.6 850.5 847.1 846.5 852.1 865.1 868.9 869.6 872.6 880.2 889.6 895.5 903.4 909.2 911.6 910.9 912.4 911.8 914 910.7 907.2 904.2 899 894.9 891.8 893.5 898.4 901.7 905.1 906.8 908.5 909.7 908.9 912.1 915.8 919.9 917.1 905.3 894.5 877 862.1 850.5 838.2 826 808.5 788.1 768.1 743.1 695.8 678.7 667.2 660.8 658.3 656.9 660.6 664.5 666.9 669.8 672.9 674 679.2 688.6 696.8 707.3 717.8 725.5 737.4 756.1 785.9 804.6 825.4 823.3 815.7 806.4 795.3 783.7 768.9 754.5 741.8 717.7 698.7 677.5 652.7 632.3 616.5 605.3 593.2 579.5 564.9 561.2 568.8 584.2 601.2 624.1 650 673.5 697.7 728.5 766.7 801.5 830 846.3 861.1 867 873.1 874.2 872.9 869.4 863.5 857.6 851.5 846.4 842.1 837.2 829.6 820.8 810.7 800 790.8 781.8 774.7 771.5 766.8 762.7 757.5 750.9 750.1 748.2 745.4 741.5 735.8 730.3 722.9 714.7 706.8 699.8 697.3 692.1 686.5 683.9 681.2 680 673.9 664.2 653.6 639.8 624.2 610.5 597.4 583.2 567.7 555.4 548.1 545 542.5 540.7 539.1 536.6 533.9 530.4 526.4 523.8 514.1 519.1 528.3 532.7 534.9 535.8 534.2 533.8 531.7 528.9 527.4
858.2 857.4 859.3 860.5 860.7 860 857.8 855.7 854 851.8 849 846.1 842.3 840.2 839.1 841.5 842.6 845.4 846 850.6 859.6 864.4 867.7 867.5 869.5 867.9 861.2 856.5 852.6 845.8 844.2 856.4 866 869.3 872.4 878.3 885.3 894.2 901 907.8 911.5 912.5 913.5 916 915.1 912.6 909.4 902.8 898.3 891.8 887.2 887.3 891.4 895.6 898.7 901.3 903.8 903 903 904.8 908 911.1 912.6 910.5 904.4 892.5 878.4 868 860.5 847.4 835.1 817.3 786.1 757.2 722.1 693.2 678.4 666.7 658.4 657.1 656.9 659.5 660.4 665.8 665.7 666.9 667.6 671.2 679 687.2 696.8 706.9 717 723.3 735.2 757.3 785.1 816.4 812.2 805.5 795.8 784.9 771.9 756.2 745.2 729.1 707.4 686.7 666.1 643.6 626.3 611.2 600.6 589 581.2 559.1 556.9 573.4 583.3 606.2 627.9 655.8 677.7 706.6 738.7 777.3 806.4 833.7 852.7 861.8 866.4 868.5 867 863.6 859.5 853.9 847.3 841.3 838.6 833.5 830.1 823.1 814.9 802.7 792.6 782.5 775.6 770 765.3 760.7 755.2 748.5 746.4 744.3 741.8 739.3 735.5 730.2 723.4 717.2 710.2 703.9 698.3 691.9 686 681.5 679.7 679.3 676.7 671.4 661.4 648.9 634.1 620.4 605.9 593.7 578.4 564 551.7 545.4 542.1 539.2 536.7 535.2 532.5 529.3 526.4 523.6 519.7 506.9 518.8 525.4 528.3 530.9 531.7 530.4 528.4 527.7 526.4 525.4
851.3 853.5 856.3 857.7 858 856.2 854 851.6 849.8 848.2 845.5 843.1 838.9 839.7 843.3 844.9 847.3 850.3 851.5 855.4 861.7 864.7 867.2 864.6 867 866.9 861.6 857.2 850.4 842.7 846.9 857.4 866.3 872.2 875.3 882.2 891.5 899.8 904.9 908.8 914 917.3 916.5 919.2 916.6 913.4 908.6 895.9 887.7 883.6 882.7 884.8 886.7 891.7 896.7 897.8 895.7 894.7 895.5 900.6 902.9 905 904.1 904.8 899.2 885.7 879.7 878 869 857.1 845 820.5 782.3 747.7 719.2 696.1 676.6 666.7 657.9 654.7 657.1 657.7 657.4 661.3 659.9 660.2 662.7 665.1 672.8 680.2 686.9 695.5 707.7 716.5 725 741.2 772.4 804.3 800.6 794.1 784.2 773.4 758.7 745.7 735.4 715 696.3 676.1 654.3 636.8 620.6 607.1 596 587.1 580.2 553.6 556.4 572.5 584.9 608.1 633 658.7 679.8 713.4 749.4 787.7 817 842.3 854.7 860.8 862.4 861.3 858.1 853.1 848.1 838.9 833.3 830.4 828.6 827.6 824.4 816.1 807.9 796.1 786 778.4 770.8 764.2 758.5 753 747.3 743.7 740.2 737.7 735 731.9 728.4 723 717.2 711.5 705.4 699.2 694.8 688.7 680.7 676.1 675 675 672.7 668.5 657.7 642.3 629.6 616.5 601.6 590.3 574.3 560.2 548.6 542.1 539.6 536.9 534.1 531.3 528.5 525.8 523.3 520.6 512 503 517.2 522.2 525.2 527.5 527.9 527.1 526.2 525.5 524.8 522.9
847.9 849.9 851.8 853 853.4 852.4 850.2 848.3 846.1 846.4 843.7 840.1 842 843.1 846.4 848.8 851 853.8 855.9 856.2 859.3 861 860.9 861 859.6 858.1 854.7 848.7 841.9 840.3 848.4 857.9 866.5 872.2 878.4 887.4 896.4 901.9 906.1 912.6 917.1 916.2 917.4 918 914.3 912.4 899.9 886.6 881.7 879.1 877.7 878.6 884.1 889.3 892.1 888.2 886.7 889.3 892.1 895.5 896.9 896.2 897.2 897.3 894 888.2 887.1 888.2 883.2 873.7 849.3 820.7 775.8 747.5 722.5 697.8 677.7 667.6 657.6 653.1 655 655.3 654.4 656.5 653.3 653.2 657.5 660.4 666.5 673.5 680.2 688.5 695.7 704.5 712.8 729.2 761.9 784.6 788.8 783.2 773.2 759.3 746.7 735.2 718.1 701.7 684.8 666 644.8 629.4 616 603.1 592.1 584.2 573.8 554.3 553.3 568.3 586 610.1 636.2 660.5 683.1 714.6 753.5 800.3 830.8 848.4 855.3 856.6 854.5 851.7 847.5 842.3 833.3 826.5 824.2 822.4 822 822.1 818.9 809.9 801 791.2 782.1 775.5 767.2 759.1 753 745 739.4 736.1 732.1 730.9 728.6 724.8 722 717.8 713.7 706.9 700.9 695.9 689.5 682.4 676.1 672.6 670.6 669.9 668 663.3 649.2 636.6 625.5 612.1 598.6 584.6 570.3 556.8 546.2 540.3 536 532.9 530.7 526.4 523.1 520.8 519.5 517.1 506.3 501.6 516.7 517.8 522.4 524.1 523.9 522.8 523.3 523.3 522.2 520.4
844 845.1 846.5 847.3 848.8 849.3 847.6 845.3 843.7 843.5 841.4 843.5 844.3 847.1 850.5 853.4 854.7 856.7 858.5 857.4 857.7 854.4 852.8 851.7 849.7 847.5 842.8 838.6 836.7 839.2 847.3 855.7 865.4 871.1 877.9 889.9 897.1 904.2 909.4 913.9 915.6 917.4 917.9 916.3 911.8 907.1 893.2 886.4 881.5 876.9 875.7 876.6 879.3 879.5 882 879.8 880.9 882.6 885.7 890.1 889 886.6 890.2 894.2 893.1 888.1 894.7 902.2 903.5 890 858.3 820.8 777.9 751.3 724 698.3 680.5 668.1 655 650.9 653.7 653.9 652.6 650.6 648.9 646.3 651.4 654.5 659.3 664.7 670.8 680.1 687.1 692.6 700.8 718.1 740.7 760.8 776.3 773.1 762 747.8 736 723.4 705.5 689 668.2 653.2 636.9 624.8 611.5 598.1 587.5 577.1 573.6 558.3 549.4 570 587.2 612 640.1 663.6 687.3 718.2 760.6 799.3 837.1 850.9 852.8 849.9 845.9 840.7 834.9 827.6 818.9 814.4 812.7 813.4 815.4 815.1 811.7 804.3 796.4 788 780 771.7 762.8 754.7 745.4 738.8 733.6 728.5 725.5 723.7 721.5 719 716.1 712.9 707.4 700.5 693.6 690.7 683.8 677.1 670.8 667.3 665.3 664.3 660 653.3 642.7 629.8 619.2 607.9 593.4 579.1 564.3 552.4 543.2 536.6 530.6 526.9 525.5 525.4 523.3 518.4 516.5 516.2 497.2 493.3 512.5 513.2 515.5 518.2 518.4 518.8 520.3 520.3 519.3 517.6
839.5 840.1 841.9 843.7 844.9 845.5 845.3 845.1 845.1 845 845.1 846 847.5 850.2 854.9 857.1 858.1 859.6 860.7 857.5 852.8 846.8 841.5 840.5 836.7 835.8 834.1 831.5 829.9 838.8 847.3 853.8 862.1 872.4 883.1 892.4 900.1 906.4 911.3 915 916.8 917.5 916.1 912.6 910.5 898.5 893.7 890.1 878.8 872.7 873.5 874.4 876.1 874.8 873 872.5 876 878.1 883 886.2 882.5 881 882.1 887.6 886.4 892.8 899.9 909.3 918 906.5 873.4 832 791.3 760 732.3 705.7 685.1 667.3 659 652.4 649.4 649.9 650 648.7 646.2 645 647.6 649.2 652.5 659.4 664.4 671.4 678.9 683.2 690.9 703.4 718.4 735 759.9 757.9 746.3 735.1 722.9 708.4 693.2 672 656.1 643.2 631.3 618.7 607.6 596.5 586 569 568 547.7 548.5 569.5 588.8 614.8 643.3 667.2 693.9 725.7 765.8 804.8 838.6 849.1 845.9 841.5 836.4 828 821 812.7 808.1 805.2 804.7 806.8 809.1 809.1 806.6 803.4 795.2 786.6 778.2 768.3 757.4 748.7 738.7 731.3 728.2 724.1 720.1 717.4 716.2 712.7 709.8 705.9 701.8 695 689.4 683.8 676.7 668.8 664.9 662.9 659.6 658.1 651.9 641.4 633.5 624 614.7 603.6 587.5 572.5 559.6 548.9 539.7 532.2 525.1 520.9 519.4 519 517.4 515.2 510.8 511.5 491.7 491.5 509 510.1 509.6 510.8 513.5 515.2 516.3 516.9 516.3 515
836.5 837.4 838.5 840.2 841.9 842.8 843.9 844.9 847.2 847.1 848.3 849.7 849.4 852.8 857.3 860.2 861.8 861.8 860.4 854.5 842.5 835.8 831.1 828 826.6 826 825.6 824 827.8 837.2 845.6 853.7 864.2 877.6 887.5 896.1 902.3 908.3 912.5 914.7 916 914.5 911.6 907.6 902.1 896.6 891.6 883.5 873.9 869.1 870.3 871.7 870.8 872.5 866.7 867.7 869.6 872.8 877.6 878.9 874.8 874.7 877.9 881.9 886.7 893 902.9 914.2 925.7 936.3 896.4 843.2 803 772.5 744.3 717.3 697.7 676.4 663.5 656.4 651.4 646.4 645.9 647 645.2 644 645.4 644 645.3 649 656.3 662.8 670.2 674.7 678.7 689.6 701.3 713.4 732.4 733.7 726.6 714.2 702.1 691.8 678 658.7 645.5 635.1 625.6 614.5 605.5 596.2 585 567.1 560.1 543.3 554.9 565.6 588.2 616.5 645.1 670.2 698.8 732.8 769.1 809.9 836.3 844 839.6 831.2 822.5 813.4 805.6 799.5 795.1 793.2 794.2 798.5 803.6 806.9 809.7 803.9 794.2 785.4 774.9 762.8 753.4 741.9 732.5 727.5 723.2 718.1 713.7 712.9 710.1 707.3 702.3 700.2 694.8 690.2 683 676.7 669.3 659.8 657.2 656.8 655.4 651.3 646.6 632.1 624.8 617.1 608.3 594.7 579.4 566.2 554.3 544.3 534.9 527.8 520.5 515.5 514 512.8 511.4 510.1 507.6 507.3 496.8 485.7 503.8 504.4 504.8 506.3 507.3 509.1 511 512.4 512.9 510.9
832.8 834.1 835.6 838.1 841.1 842.4 843.8 846.3 848.3 850 851.7 852.8 852.4 855 858.2 861.5 862.8 861.1 854.2 843.4 833.6 824.9 818.6 814.5 812.4 817.8 817.2 817.8 827 837.2 845 856.4 869.7 880.4 888.8 896.6 902.2 908.1 912.5 912.5 912.1 911.1 908.1 904.6 899.5 894.5 887.4 882 875.2 866.1 867.4 868.2 867.1 867.2 861.7 860.9 862.9 864.8 868.6 871 868.4 870.3 871.3 874.9 881 887.9 901 915.4 928.7 938.1 903.4 856.5 820 789.9 760.4 731.1 706.6 686.9 669.2 659.3 651.8 649.4 649 639.7 642.3 642.1 640.5 637.8 637.2 640.5 647.5 655.1 662.3 667.6 671 677.5 686.5 698.5 706.1 708.9 704.1 692.3 679.7 673 659.4 645.5 635.9 627.8 620.3 611.6 604.2 594 583.7 567.7 555.4 540.1 553.7 563 584.9 615.8 645.8 673.3 703.1 736.7 777.4 816 831.6 834.5 827.8 815.5 805.6 797.3 790.6 785.6 780.6 778.2 783 792.5 801.3 808.2 811 802.5 794.4 784.1 771.2 757.7 747.5 736.2 730.2 723.2 716.8 712.5 710.4 704.4 702.5 700.6 697.9 692.6 687.1 682.3 676.8 670 662.9 656.2 652.7 651.4 649 646.1 637.3 625.9 615.2 608.5 598.5 585.2 572.4 559.7 547.7 539.3 529.9 521.2 513.3 509.5 508.1 508.3 507.2 504.8 502.7 502.4 493.4 481.2 499.3 499.3 500 500.4 500.8 501.5 504.7 505.6 505.8 504.5
829.7 831.3 835.3 839.6 841.9 843.2 845.1 848.1 849.9 851 852.8 854 854 855.1 858.2 860.9 860.9 854.7 843.7 833.8 821.3 811 805.4 801.7 805.9 810.9 811.8 819.7 828.8 838.4 849.6 859.3 870.6 881.8 889.4 894.6 901.5 906.8 908.6 908.4 908.2 907.9 904.7 901.7 896.8 892.9 887.2 878.2 866 863.4 864.4 864 862.4 859 855.1 854.1 855 855.7 858.1 861.2 861 858.1 860.9 865.7 874.3 882.6 897.4 913.2 926.5 935.4 918.2 889 845 810.5 777.5 747.2 715.1 693.7 673.2 660.3 654.7 650.7 648.5 643.2 636.3 637.2 635.4 634.2 633.2 633.1 640.2 646.7 654.4 659.7 664.6 669 674.2 681.2 686.4 688.5 681.3 673.5 662.2 653.2 644.1 636.7 628.8 620.9 615.1 608.4 603.6 592.3 583.4 566.5 541.9 541.6 550.7 563 583.4 616.6 643.3 673.8 705.4 743.6 791.1 819.7 822.7 819.6 809.7 797.8 784.8 775.9 769.1 765.1 760.4 760 773.9 789.6 802.1 809.5 812.2 803 792.9 779.1 765.6 754.1 742.2 733.7 724.8 722.1 718.8 712.5 708.4 705.4 700.3 688.5 688.7 685.7 680.7 675 669.7 663.3 655.8 651 645.6 644 641 638.5 630.4 611.9 607.9 598 587.8 574.3 563.1 552.2 543 533 521.8 513.5 507.9 504.7 501.8 500.9 501 500.3 497.2 495.8 478.2 480.1 495.5 494.9 495.8 495.5 495.8 496.1 498 499.1 498.6 496.9
827 831.7 836.8 840.3 842 844.5 847.9 850.2 851.1 852.9 853.4 855.7 855.2 856 858.5 858.9 855.3 844.8 831.8 818.8 807.8 799.8 795.6 798.8 800.2 802.9 812.9 821.6 832.4 841.5 853.2 860.1 871.4 881.6 887.5 892.8 898.4 904.1 905.3 905.2 905.5 905 903.7 900 895.8 891.8 888.2 878.2 866 863.7 862.7 861 857.4 854.1 848.6 848.1 850.4 851.4 850.6 851 851.5 846.1 848.3 856.7 866.7 877.4 891.2 907.1 920.5 931.6 941.4 930.5 856.4 825.3 788.6 751.8 723.7 700.4 679 662.3 655.6 650.5 646.1 641.5 635.3 631.8 632.5 632 628.9 627.2 631.9 640.5 645.8 653.6 657.8 661.6 664.2 668.2 670.9 670.9 662.9 656 648.5 640.3 634.6 628.7 623.9 616.7 610.2 607 603.1 589.1 581.9 572.6 544.6 534.3 548.8 555.7 585.4 612.7 643.9 671.2 703 749.2 797.5 810.3 808.4 802.8 790.5 774.2 760.7 748.8 744.5 742.3 735.9 751.1 772.1 789.7 802.6 809.9 808.5 801.4 790.5 773.5 760.6 748.8 737.8 728 728.9 723.5 718.9 713.4 707.8 703.9 698.1 691.1 677.8 678.8 674.1 667.9 662.6 655.8 650.1 644.4 639.3 634.3 631.3 628.2 620.8 608.3 593.8 587 576 561.4 553.1 544.4 535.1 527.2 517.5 508.2 503.2 499.6 498.4 497.5 495.6 493.3 491.7 480.9 471.6 486.3 491.9 491.6 491.8 491.9 492.3 491.9 491.3 490.6 489.8 488.3
827.1 831.9 837 841.1 843.6 845.5 849 850.9 851.9 852.7 853.7 856.9 856.5 856.8 857 853.2 844.8 831.7 818.5 807.2 796.8 791.3 792.1 793.1 798.8 807.1 814.3 824.4 834.4 846.3 856.5 861.2 869.5 880.6 887.6 891.9 896.1 900.7 902.1 902.6 902.8 902.1 901.1 899.3 898.5 894.8 888.8 882.9 872.2 864.2 863.7 858.3 853 848 846.5 845.2 845.8 846.7 846 844.7 844.6 842 841.3 849.8 859.7 869.3 881.9 897.5 912.3 925.4 936.2 938.3 864.1 826 789.2 755.5 728.2 706.2 685.3 670.8 659.7 652.4 645.3 638.8 635.3 630.8 629 624.5 622.2 621.6 623.6 630.4 638 645.4 649.1 653.1 654.6 656.6 658.5 656.7 648.2 644.8 640.1 634.1 627.8 622.6 618.7 612.9 607.9 602.9 601.9 588.9 577.3 570.1 549.7 531.7 544.6 551.4 580.2 608.8 635.6 667.2 702.3 738.7 780.4 795.9 792.5 781.6 767.5 750.5 734.5 721.5 715 713.7 719.8 748 772.5 790.4 803.9 810 804.8 797 782.1 764.7 755 742 740.6 735.2 732.8 728.8 723.6 717.7 711.9 706.2 701.2 694.1 683.5 666.1 660.2 661.5 656.2 650.8 645.6 638.1 631.2 626.7 622.9 616.4 607.2 596.4 585.7 572.6 563.9 554.7 544 536.8 526.9 518.3 510.3 504.6 499.2 494.5 493 494.8 491.6 489.1 490.1 471.9 471.8 475.6 489.1 489.2 488.8 488.8 488.9 488.4 486.1 483.7 480.1 479.1
828.1 830.9 836 840.5 843.6 844.8 850 850.2 852.2 853.2 854.1 855.2 854.4 852.5 851.3 845 832.1 817 806.7 795.5 787.3 782.2 789.5 795.3 800.4 809.8 818.1 829.2 840.1 852.8 861.7 870.8 874.7 881.9 887.4 891.6 895.5 897.6 899.8 900.3 900.6 900.5 902.3 902 899.6 897.1 891.3 885.3 876 864 858.4 852.1 845.9 845.4 842.6 843 842 843 843.2 843.7 843.8 842.4 839.6 844.1 851.5 859.9 869.5 887.5 903.7 917.4 929.6 920.9 863.6 822.6 788 755.7 731.4 713.3 691.7 677.1 665.5 652.9 644.6 636.2 632.2 630.7 627 624.1 622.3 621.6 617.7 623.8 629.3 636.3 642.1 646.6 648 644.5 644.6 642.8 639.3 635.7 632 627.3 622.1 615.4 609.6 605.4 602.9 603.7 602.9 588.4 578.4 569.3 555.4 529.7 539.9 547.9 575.2 603.1 630.3 658.5 689.5 724.2 759.5 770.5 762.1 748.2 736.9 722.9 711 696.8 690.8 683.7 718.3 748.2 773.3 791.2 806.4 806 797.8 785.8 773.1 760.4 750.3 753.2 749.2 746.3 743.3 736 729.3 723 716.5 709 700.9 691.8 680.4 671.5 664.3 656.6 646.9 643.4 639.5 632.8 626.7 619.5 611.6 603.5 594.8 585.9 575.1 564.5 555.2 546.2 534.2 528.2 521.8 512.8 504.6 497.6 494.3 490.6 487.9 486.9 483.8 481.6 483.1 465.8 467.1 475.2 485 485.4 484.6 482.8 480.1 482 480.1 466 457.7 469.2
825.6 828.5 833.8 837.4 840.9 843 846.9 849.8 851.2 852.2 852.6 852.4 849.3 845.1 842.3 830.7 818.4 806.3 794.4 787 772.7 782.1 787.3 794.4 803.2 811.3 821.5 834.1 847 857.6 862.4 874.5 879.1 880.6 886.8 890.7 893.4 895.7 897.3 899.6 901.7 903.2 904.6 902.8 899.7 897.8 889.6 877.9 870.2 859.6 853.9 847.6 842 841.1 839.8 840.6 839.2 839.1 839.4 842.3 843.1 844 839.5 839.4 843.4 849.5 859.7 875.6 893.6 909.9 922.8 911.8 854.2 819.6 788.1 760.4 739.2 716.5 696.6 681.3 670.5 655.6 641.6 633.5 630.2 628.3 625.3 623.3 619.6 620.3 615.3 620.6 623.3 627.2 633.4 638.3 643.8 638.3 638.4 636.8 634 629.4 625.5 619.8 614.6 611.9 608.9 606.2 600 597.2 598.8 586.8 579 566.5 550.1 525.7 531.5 548.9 572.1 595.8 621.9 646.5 675 703 727 731.7 727.9 719.1 708.4 696.9 684.6 671.1 658.9 687.9 722.3 748.1 771.3 787.1 798.4 799.4 790.5 776.5 765.7 754.8 761.4 765.4 759.9 756.4 751.6 744.4 737.5 730.9 721.1 709.7 699.6 690.7 679.9 670.1 663 656 649.6 642 632.6 628.7 621.8 610.7 599.6 592.9 586.9 577.4 565.8 554.4 546.2 536.9 526.8 518.6 515.4 506 500.5 494.6 488 483.1 482.3 479.6 476.1 473.3 474.7 459.8 466.2 474.5 481.4 480.9 477.5 467.9 466.9 471.6 461.2 461.3 457.6 454.1
821.6 826.1 831.3 834.2 838.1 840.8 845.3 849.4 850.3 849.9 847.2 848.3 843.7 838.4 829.7 818.5 806.1 795.8 785.1 777.7 772.3 779.6 787.1 793.7 804.8 815.4 828.7 842.7 850.5 861.8 869.6 875.1 879.8 881.7 885.5 888.5 891 894.3 896.7 898.8 902.3 905.1 905.9 903.4 900.2 897.4 885.1 878.3 869.7 855.4 848.7 845.9 841.7 838.9 838 837.2 836 835.9 836.7 839.8 842.3 841.7 837.3 832.8 834 839.6 849.8 864.4 883.4 903.3 915.8 906.6 864 818.3 791.8 770.7 750.6 722.7 703.8 686.2 671.8 658.9 643.8 634.7 629.6 629.1 626.6 622.9 620.4 620.7 617.5 612.1 617.5 621.2 624.9 627.5 628.7 629.1 630.3 629.4 627 622.2 616.3 608.7 606.4 607.4 606.8 604.3 599.8 593.9 592 591.1 579.3 569 553.9 528.3 524.7 544.1 564.6 585.3 612.4 635.4 660.6 677.3 684.4 688.5 691.4 687.6 680.8 670.4 655.8 638.9 657.7 691.2 721 745.1 763.4 777.1 786.4 790.3 782.1 770.4 762.8 764.2 775.1 776.4 773.5 767.6 760.3 754.1 746.6 734.4 720.3 707.9 699 689.8 678.2 671.9 665.3 657.2 649.9 642.1 635.8 630.7 624.9 617.5 608.2 597.2 586.5 572.4 557 543.8 537.2 528.5 518.9 512.5 506.3 501.5 494.7 488.9 484.9 478 471.2 470 467.5 465.3 456.8 456.6 463.2 476.2 478.5 476 469.2 479.5 477.3 468.1 484 482.4 468.4 448.2
818 823 828.9 831.8 836.3 839.6 844.1 847.6 847.5 846.4 842.7 842.1 835.6 828.8 821.6 804.4 795.5 785.9 777.4 769.4 773.3 779.8 787.9 795.4 807.5 819.1 833.2 846.6 858.4 862.6 868.3 872.7 877 879.6 882.6 886.7 890.1 893.4 895.6 898.1 901 903.7 904.5 903.2 898.4 892.6 885.6 880.3 868.4 853.8 847.4 843.5 840.9 837.3 836.4 835.6 834.5 833.8 835.5 837.9 840.4 839.6 832.1 824.7 824.5 835.3 844 856.3 872.4 892.6 907.6 913.1 868.7 829.4 801.6 782.2 755.6 731.4 708.9 689.3 677 662.4 649.7 638.2 630.5 628.6 626.3 625.6 621.1 613.5 614.2 608.2 611.1 611.3 615.2 617.3 619.5 621.5 621.6 621.6 619.3 617.8 610.8 607.3 606.5 603.3 605.8 603.4 600.2 596.8 592.2 590.3 577.2 569 555.5 533.7 520.2 536.6 554.9 572.4 593.1 613.7 631.9 644.5 649.7 652.6 657.2 656.7 653.1 641.6 627.7 627.5 660.2 690.2 715.3 736.3 753.9 763.4 773.3 778.6 773.8 768.7 768.4 783.1 787.1 788.1 785 775.1 765.6 756.8 744.1 732.2 720.2 708.9 699.4 689.9 681.2 673.1 665.4 657.6 649.8 643.9 634.8 635.7 632.4 622.9 612.2 600.4 585.7 568.5 556.2 546 529 522.5 517.7 508.8 499.7 495.3 489.9 483.1 475.2 472 467.7 461.7 457.7 452.4 450.3 457 467.3 474.2 471.9 470.7 478.3 482.8 486.1 489.4 490 486.4 477.2 457.5
814.3 820.7 826.1 830.5 834.4 838.5 842.7 845.5 845 840.8 837.9 833.9 826.5 819.2 811 794.1 786.3 778.2 769.6 763.3 769.7 778.2 786.1 798.9 810.1 822.7 837.6 850 858.6 862.8 867.1 870.6 872.3 878.3 882.5 885.1 887.7 891 893.3 895.3 897.6 899.9 900.6 899 893.7 891.8 887.8 880 866.9 855.1 846.5 840.3 838.5 835.3 833.8 833.7 832.5 833 835.4 837.8 839.5 838.2 830.1 819 814.6 820.9 834.7 846.2 863 882.8 898.6 908.3 890.7 841.2 813.1 791.1 765.5 740.6 715.2 693.2 680.5 671.3 654.6 643 634.9 631.7 630.8 627.8 624.3 617.5 611.2 604.3 608.6 605.9 610.8 610 610.9 613.3 611.4 612.3 613.7 609.8 604.2 604 603.1 602.8 605 604.8 603 599.6 594.2 584.8 577.4 569.6 560.1 544.2 515.7 526.8 543.9 557.1 572.4 591.6 606.1 615.6 620.2 623.3 626.8 628.6 627.6 617.8 599.6 629.2 656.1 683.1 706.6 724.7 739.5 750.3 760.5 765.5 768.6 772 783 795.8 799.3 797.5 793.6 778.7 765.9 755 743.2 732.2 720.7 709.4 701 691.5 682.7 674.3 665.5 654.7 650.3 643.4 642.8 643.8 637.9 628.2 617.4 603.2 582.4 566.3 552.4 540.8 526.6 513.8 513 507.1 496.6 488.8 481.6 476.1 471.4 467 462.1 459.1 448.2 445.3 454.1 462.5 468.2 469.7 470.4 476 479.7 482.7 487 491.3 493.4 489.7 482.2 472.7
811.4 817.6 822.9 829.6 833.7 837.8 842 843.3 841.2 837.6 833.4 827 815.7 809.5 798.4 786.7 778.5 770.6 763.6 764.5 768.6 777.3 784.9 798.8 810.1 823.4 836.8 847.1 852.1 860.9 866.8 871.3 873.9 876.7 880.9 883.5 886.2 888.2 890.1 891.8 893.9 895.7 896.7 895.9 893.1 889.4 880.6 873.7 863.6 853 843.2 836.4 833.2 832.6 832.3 831.9 830.8 831.1 836.3 840 839.6 836.9 827.6 810.9 806.8 810 822.4 837.3 852.5 873.8 891.5 902.8 905.5 862.6 834.2 806.1 779.6 754.1 724.1 701.2 683.4 674.9 665.6 653.7 641.9 635.9 633.2 630.1 625.2 618.7 613 608.7 601.9 596.3 599.8 601.2 600.7 603.5 603.1 604.9 605.6 602.1 600.2 602.5 601.8 600.9 602.2 604.5 603 601 596.5 589.8 579.3 572.5 563.1 546.8 513.8 517.4 529.2 540.7 551.6 567.6 578.5 586 590.2 593.4 596.3 601 605.6 596.9 599.5 625 649.2 674.3 693.2 710.7 725.3 737.5 748.7 758.3 765.4 776 791 802.2 806.6 803.6 798.7 783.4 766.9 753.5 744.2 732.8 720.2 711 703 693.8 685.1 675.7 664.6 657.8 650.1 649.3 651.5 652.6 642.4 632.9 623.5 606.2 583 565.4 550.6 537 524.1 510.1 502.2 498.1 492.7 484.5 477.3 471 466.8 462 457.8 453.8 441.6 442.9 454.5 460.3 465.4 469.3 472.8 476 478.8 482.2 488.6 495.4 496 492.4 483.5 472.9
807.4 814.6 820.3 827.7 832 839.2 842.3 841.3 837.8 832.8 828.4 820.3 807.4 799.9 790 778.3 771.9 763 755.1 761.5 768.4 773.9 784.7 796.9 806.5 817.1 834.2 845 856.2 863.3 870.2 873.3 875.7 874.7 879.5 882.3 883.4 885.1 887.5 889.7 891.5 892.6 891.9 889.7 886.9 883 876.5 869.3 859.2 848.9 839.4 833.1 830.6 831.8 832.9 829.2 827.7 833.1 838.1 839 838.6 838.1 828.3 813.6 800.7 803 813.7 825.8 839.1 862.5 883.6 898.1 906.4 893.1 862 825.6 795.5 765.6 735.7 712.4 692.8 681 672.9 663.7 651.6 642.2 636.9 633.9 630 622.5 615.2 611.7 607.6 603 598.2 593.8 593.9 592.9 596 596.4 599.4 596.9 597.7 598.8 597.9 597.1 600 602.8 603.5 604.2 600.2 591.6 582.8 574.2 565.8 552.8 522.5 508.1 514.7 523.4 531.7 543.7 553.8 558.2 561.4 565.1 569 575.2 581.6 574.9 583.7 615.3 640 662.8 680.3 695.1 710.4 726.4 740.9 753.8 765.5 777.7 793 804.8 809 809.2 802.1 786.2 769.1 757 745.6 731.1 721.5 713.5 704.3 696 685.9 676.9 666.9 659.2 653 657.1 661.7 658.1 647.2 639.6 628.3 604.1 582.2 564.1 548.6 533.2 520.1 507 496.1 492 488.1 480.6 474.2 469.7 462.8 455.7 450.2 446.2 439.4 437.4 451.1 456.4 461 464.5 468.5 473.7 478.3 482.7 490.5 497.7 498 492.5 481.8 471.4
802 811.9 818.7 827.1 831.9 838.8 842.1 840.6 833.9 828.4 821.7 811.1 800.6 791.7 780.3 770.8 763.9 757.8 756.2 760.7 766.1 776.3 788.9 800.2 812.1 823.9 835.8 847.6 860 868.2 871.9 874.8 877.4 877.4 878.4 879.4 882 882.7 884.7 886.1 887.2 887.3 886.1 883.5 879.3 877.8 869.2 857.4 849.3 842 832.8 828.3 829.1 831.6 832.8 828.7 823 829.2 833.4 834.8 836.1 834.9 820.8 805.9 796.3 798.4 804.1 814.1 827.4 843.8 871.7 892.6 904.9 912.6 888 845.4 810.4 777.8 750.6 727.6 708.7 692.1 683.3 672.3 661.1 651.2 642.8 638.3 631.6 626.5 619.2 613.6 609.9 605.3 598.8 584.7 580.6 584.6 586.7 587.7 590.5 594.7 593.4 593.7 591.6 593.8 597.1 599.4 602.7 605.1 603.6 596.7 587.4 578.6 566.9 558.1 540.3 516.4 504.7 510.7 512.2 524.6 532.2 535.2 537.6 540.3 542 547.4 556.7 551.5 571.9 603.7 627.2 645.2 664.3 681.4 696.9 714.1 732.3 748.7 761.7 776.3 792.5 806.8 812.6 807.2 799.8 787.5 767.8 754.5 742.5 730.2 723.8 716.9 708.3 696.1 685.3 677.3 669.4 664.3 660.5 665 664.4 657.6 655.6 647.9 627.9 601.9 577.5 558 539.9 526.9 513.3 502.2 491.9 487 480.6 477.5 470.8 465.3 458.3 450.2 446.3 439.9 434.8 434.3 441.6 451.2 456.3 460.4 467.1 473 477.6 482.4 495.5 498.2 496.9 490.5 480.3 469
797.8 808.2 816.8 826.9 833.1 838.5 841.9 838.1 831.4 823.6 814.4 804.9 793.1 783 773.1 763.9 757.2 753.5 752.9 760.2 766.9 777.6 789.6 802 814.5 825.8 838.6 853.2 864 872 876 878.7 879 879.9 880.1 880.2 880.2 881.3 881 881.8 881.3 879 876.9 874.8 872.1 869.7 859.1 851.1 844.9 841.1 832.8 827 828.6 830.1 830.7 825.8 820.9 826.4 827.2 828.2 829.2 817.9 802.9 802.9 796 784.8 792.7 799.6 813.8 828.8 857.7 885.1 901.8 914.5 910 865.2 825.5 795 767.1 746.6 727.2 706.9 694.5 680.7 669.1 660.9 652.9 643.6 637.5 630.1 623.4 618 612 605.8 596.9 592.1 580.9 580.7 577.8 582 585.7 587.8 587 588.9 586.1 590.2 592.5 596.8 602.8 604.2 603.4 600.1 592 581.3 568.7 559.1 540.1 518 507.1 500.6 500.4 506.4 510.6 515.8 516.9 517.8 521.3 523.9 533.8 526.5 562.7 587.9 609.5 625.5 644.1 665 685.2 704.9 724.1 741.3 758.6 775.3 790.9 804.2 807.3 805.4 800.5 783.2 769.3 758.1 746.1 731 722.6 713.1 705.3 693.4 684.7 676.5 669.7 664.1 662.2 666 662.9 662 659.2 644.8 623.6 594 569.2 547.2 528.3 517.5 506.1 496.2 490 484.5 477.3 470.2 465.4 461.1 453.1 445.4 441.5 434.6 428.2 432.2 438.5 445.1 452.7 457.9 464.5 469.5 474.7 484.6 495.4 499.9 495.1 486.2 474.2 465.8
794.7 805.7 816.4 827.8 834.1 838 838.6 834.2 826.5 815.9 807.1 796.7 784.5 774.3 764.3 757.3 753.8 750.5 752.8 759.5 768.8 779.4 789 802.2 816.3 827.4 842.1 857.8 868.7 874.2 877.9 880.8 881.3 881.9 881 881.4 880.3 879.1 877.5 876.8 873.2 871.2 869.4 867.6 862.3 857.7 853.8 850.3 848.6 845.8 839.2 830.5 826.9 827.5 825.8 821.9 818.2 820.2 824.5 825.3 817.1 806.4 800.1 792.5 782.1 773.7 777.4 785.9 798.8 815.9 843.6 874.5 899.1 914.6 921.9 884.8 842.1 812.8 783.8 763 744 724.2 702.3 686.4 672.8 664.1 658 652 643.9 634.4 627.2 619.7 613.7 604.9 596.9 590.6 589 572.9 568.4 573.5 578.1 580.7 580 583.1 582.9 585.9 589.4 596 602.2 603.7 604.3 605.2 597.3 582.1 569.6 559.2 533.7 544.2 532.8 504.3 498.7 493.8 495.7 499.4 498.6 496 503.5 509.8 516.9 524.3 546.5 567 588.4 607.3 626.5 649.9 672.8 698.6 718.1 736.5 756.7 772.8 789.3 807.2 806.8 802.7 793.6 781 769 757.3 743.8 734.8 718.5 709.2 698.6 690.2 681.4 674.9 665.6 662.2 660.5 660.9 660.3 659.3 647.4 631.2 607.6 581.1 558.6 534.8 520.8 509.3 499.8 492.5 488.6 482.8 475 469.1 460.6 455.6 448.4 443.4 436.7 431.6 425.1 428.4 436.6 443.5 450 455.2 460.8 466.7 473.1 483.4 495.5 495 486.7 478.3 471.4 463.8
789.6 802 814.6 824.5 830.7 834.6 834.4 829 819.6 810.1 799.3 787.8 776.5 765.5 757.4 752.8 749.6 744.3 752.9 761.5 769.4 780.5 790 802.7 815.7 828.3 842.7 855.3 864.5 871.5 877 881.4 882.3 882.8 882.5 882.2 880.9 879 876.5 873.1 869.4 865.2 863.9 861 855.8 853.5 852 850.6 848.6 844.8 837.3 826.4 821.9 821.4 821.4 818.6 817.2 814.9 820.8 813.1 805.6 794.2 789.4 777.1 765.7 759 760.6 769.7 780.3 798.6 823.7 855.6 889.3 912.1 922 897.1 864 829 802.4 774.6 759.3 740.9 714 689.7 676.2 669.6 660.8 652.9 643.8 634.1 625.6 618.5 609.7 601.9 592.8 586.6 582.2 577 566.3 568.2 570.2 574.2 573.6 576.1 579.5 580.6 587.3 594.7 599.3 600.9 601.9 605.6 600.3 579.3 568.1 552.4 536.9 551.6 543.2 528.3 522.5 493.4 485.4 485.7 484.1 493.9 485.4 496.4 501.7 513.9 527 546.5 565.9 586.7 609.6 634 662.8 689.2 712.9 733.7 755.7 774.8 791.7 805.4 800.5 797.1 790.6 776 764.6 750.9 739.7 727.8 713 699.8 689.3 682.9 674.9 664.9 658.6 653.7 650.4 648.5 646.4 640.1 625.7 611.8 587.8 565.2 544.1 523.9 512.1 504.4 494.4 488.1 484 478.9 471.3 466.3 461.1 453.1 443.7 438.5 433.8 426.8 422.7 426.8 433.1 441.3 447.2 453.7 459.1 465.4 474.4 484 488 485.8 480.9 474.9 467 459.2
786.3 798.3 810.2 818.7 825 828.7 827.8 820.8 809.7 800.3 788.2 778.1 767.6 758 750.4 744.5 745.8 745.6 753 762.1 769.6 776.8 791.3 802.7 816.3 827.5 839.5 851 859.6 869.6 874.7 879.4 881.3 882.4 881.6 881.7 880.2 878.4 875.9 873.9 869.9 864.7 860 856.7 854.9 851.3 847.2 845.6 844.2 840.8 829.4 818 817.6 819.4 816.5 813.1 810.2 812 807.2 801.6 794 786.5 778.8 763 753.3 739.8 741.7 755 763.7 781 807.3 841.7 874 902.6 918 920.7 881.5 849.5 822.4 794.6 775.5 753.6 723.3 696.4 680.7 673.1 664.2 650.1 641.4 633.8 622.6 615 605.9 597.7 589.2 583.5 579.5 575.2 568.2 557.9 565.3 565.2 567.8 570.7 573.8 578 582.8 590.4 594.9 596.9 598.7 601.1 596.2 578.4 564.1 543.1 552.8 553.4 549.7 543.5 531 512.1 493.1 482.6 480.9 479.6 480.7 486.2 490.9 497.9 509.7 526.1 545.9 565.4 590.2 615.3 644.2 670.6 703.3 732.6 756.4 776.8 792.4 799.2 796.5 793.9 780.3 767.3 753.8 742.1 731.8 719.5 707.1 696.2 680.1 673.2 662.9 650.7 643.7 637.2 632.6 629.1 623.5 616.4 606 594 569.8 551.5 528.3 515.5 507.3 500.1 491.7 487.1 480.4 475.9 470.8 462.2 456.3 449.3 444.6 436.2 428.7 424.7 419.8 425.5 431.7 439 444.6 451.8 458.4 465.3 473.7 481.7 484.1 484.4 481.6 474.4 465.4 453.9
782.2 793.2 803.2 812.4 817.9 817.8 817.6 809.3 800.1 790 778.9 767.5 758 750.8 743.1 743.5 737.4 745.2 753.7 760.3 767.9 776.8 789.1 803.7 817.2 828.3 842.5 853.6 861.7 868.2 871.6 876.1 879.7 880.9 880.2 879.2 877.9 877.5 876.6 874.6 870.1 865.1 861.7 857.4 853.3 847.6 841.7 838.6 836.7 833.5 821.2 818.4 815.9 813.5 810 805.2 804.5 803.5 799.3 793.7 786.4 778 766.7 747.8 734.1 728.7 724.2 737.9 748.9 764.9 793 823.7 858.9 888.1 910.2 919.2 907 879.6 846.8 815.3 788.8 765 736.9 702.6 682.5 669.1 657.6 653.4 640.4 628.9 618.4 611.2 602.7 592.2 584.8 580 576 571.8 566.8 553.2 559.8 561.3 560.5 564.6 566.5 572.9 577.3 583.6 588.5 594 595.4 593.2 587.5 573.6 560.4 546.9 560 559.8 557.3 552.5 540.8 525.4 511.2 492.2 476.9 474.4 472.7 477.4 478.5 484.2 493.2 507.5 525.6 547.8 567.7 592.2 621.2 656.6 689 722.3 751.8 774.8 790.2 790.4 787.8 782.1 770.1 755.2 742.7 733.5 725.5 712.5 695.8 684.1 676.1 658.3 643.3 633.1 623.6 615.9 608.4 605.9 602.5 593.9 588.7 569.9 552.3 534.7 517.2 513.5 501.6 495.7 488.3 482 477.6 473 466.8 466.9 459.8 448.4 438.9 434.1 431.2 420.7 418.6 426.1 430.4 435.6 442 449.4 456.5 464.5 473.7 481 484 487.2 486.7 474.8 462.9 450.8
778.2 786 794 803.5 807.5 806.7 804.8 799 791.7 778.8 767.1 756.8 749.6 742.4 737.4 737.7 739.3 745.2 753.9 759.8 769.1 778.8 790.2 804.6 816.9 828.1 841.2 849.3 856.1 860.9 866.1 873.2 875.1 876.3 875.3 875.8 875.5 875.4 874.7 873.2 870.4 867.7 864.2 860.9 852.9 848.3 839.8 835.5 831.8 827.3 821.8 817.4 814.6 810.3 806.2 801.1 801 798.5 794 787.5 786.5 770.4 741.3 720.4 712.7 707.7 706.4 717.9 733.7 748.1 774.4 805.9 842.1 877.9 898.8 911.8 918.5 900.7 871.4 835.3 804.9 777.8 742.2 711.1 685.7 670.4 654.3 641.4 629.8 624.3 612.9 606.1 598.3 588.8 582 576.7 572.7 569 562.7 549.2 551 554.2 554.3 557.4 561 567.4 571.1 577.1 583.3 588 590.4 589.1 584.1 570.4 552.9 549.9 563 566.5 565.9 561.5 553.1 536.9 523.6 509.7 496.3 480.5 470.8 467.9 469 469.4 478 490.9 506.6 526.9 544.1 567.7 597 631.4 666.1 699.2 735 765.7 779.2 777.9 774.2 772.2 753.2 739.2 726.9 719.5 714.8 700.4 678.7 668 655.6 639.7 627.4 616.2 609.2 598.7 587.7 584 584.2 573.3 565.4 552 536.6 521.1 511.5 502.9 496.9 491.2 486.8 480.1 476.3 468.7 466.9 460.2 455.6 439.6 433 428.3 424.4 418.7 417 425.4 428.9 433.8 440.5 448.4 457.3 467.2 477.1 482.4 487.9 500.8 494.7 477.6 460.1 446.9
777.5 780.5 786.4 792.8 796.9 796.6 793.6 787.8 780.3 767.3 757.4 747.8 741.4 734.5 736.5 727.9 738.1 744.9 750.1 758.9 769.8 779.5 791.2 805.2 817.5 827.4 835.4 843.7 853.1 858.8 861.7 869.6 870.1 869.9 869.3 870.1 870.2 871.2 870.4 870.3 869.5 868.2 865.5 861.8 858.1 851.8 843.6 834.8 831.4 827.9 821.7 816.7 813 810.6 807.5 802.3 796.8 793.6 792.7 789.9 779.5 741.6 719 692.9 690.8 686 686 700.5 719.1 735.3 759.9 788.1 825.2 865.6 894 907.6 916 912.7 885.5 848.8 813.7 779.5 747 715.5 691.4 671.1 651.2 635.8 625.3 614.7 605 598.7 590.6 584.6 577.9 574.6 571.3 566.4 560.3 552.3 541.2 547.2 546.6 549.3 556.9 560.7 565.3 570.2 575.9 580.2 583.8 585.8 575 565.9 552.4 555.8 565.5 572.1 574.4 570.7 561.9 551.3 536.3 520.1 505.8 491.6 477.2 467.3 464.2 465.2 466.8 475.1 488.7 506.6 524.1 549.5 573.8 601.4 630.1 663.4 703.9 732.4 749.1 757.9 749.8 749.5 736.3 722.5 711.5 702.6 690.4 674.1 657.2 646.2 634.5 621 611.4 602.9 591.1 572.7 556.2 557.1 560.3 558.1 550.1 533.7 522.7 515.9 503.9 496.1 490.5 487.3 483.9 479.1 471 468.1 465.5 448.2 439.9 434.3 428.5 425.1 420.7 411.1 418.1 425 429.4 433.6 441 448.9 459 468.6 477.2 486.7 499.5 507.3 495.8 475.9 457.8 444.2
771.2 774 779.5 782.6 782.6 784.1 780.5 773.9 764.5 755.3 747.6 740.4 732.8 728.2 730.5 733.2 737.1 743.7 751.7 757.7 767.7 779.5 792.6 806.1 817.7 826.3 832.9 841.8 849 853.5 855.8 861.5 860.7 863 862.3 862.8 862.6 865.1 866.1 866.5 865.9 865.7 865.2 864.4 860.4 854 843.3 837 831.1 826.4 821.7 819.5 813.2 809 804.9 801.6 795.1 793.4 791.8 785 750.4 710.1 683.1 674 672.5 670.3 669.2 688.9 709.7 728.9 749.4 776.6 811.1 853.6 882.9 901.1 909.9 906 873.8 837.7 803.6 772.6 744.9 718.9 690.7 668.9 646.6 631.7 619.8 609.9 601.5 591.6 581.7 575.9 573.1 569 564.4 560.3 558.4 550 539.1 536.2 539.5 546.2 550.3 554.7 560 565.4 569.5 573.2 577.8 576 569.1 561.9 551.6 558 568.5 577.2 580.8 580.3 571.9 563 551 533.2 518.9 501.6 484.8 471 463.3 458.5 461.8 462.7 473.5 490.6 509.5 531.4 554 577.5 605.4 635 662.4 692.6 716.8 732.3 726.1 722 714.5 701.3 692.7 680.8 661.5 648.6 635.7 622 611.9 598.5 580.4 577.1 553.4 536.9 535.4 526.1 545.2 541.2 531.1 522.7 512.7 504.5 495.2 490.7 487.5 485.8 483.2 476.8 471.7 474.2 460.9 445 434.7 428.7 426.4 425.1 422.4 409.3 413.9 422.4 427 434.3 441.6 450 460.4 470.9 479.7 493.6 507.5 512.6 500.5 478 460 444
762.7 765.1 767.6 770 769.3 770.9 766.7 761 749 744.7 739.4 733.1 726.4 727.3 726.1 733.4 737 741.1 748.2 756.9 766.7 779.8 792.9 805.6 815.5 823.3 831.7 840.4 845.7 850.4 852.3 856.5 855.7 854.6 853.9 853.8 855.8 858.3 859.6 860.7 861.9 863.2 864.6 862.8 860.2 854.3 846.6 839.7 833.2 829.6 823.4 819.2 813.9 807.2 801.3 799.6 794.7 789 769.3 756.5 707.7 682.5 664 656.8 654.2 657.8 660.4 681 702.8 721.8 737.6 764 796.4 837.1 866.6 891.4 902.1 893.9 854.6 819.1 789.3 759.8 739.9 714.6 688.1 666 645.2 627.5 615.1 605.9 597.7 587.2 577.8 571 564.5 559.8 556.7 552.9 547.4 544.6 539.3 530.1 530.7 540.9 545.7 549.9 555.2 559.6 563.3 567.7 571.1 568 563.4 556.8 551.1 560.8 569.6 581.9 589 587 582.6 575.6 564.8 549.6 530.8 512.9 496.3 480.2 469.7 457 457.6 457.2 461.6 473.1 493.4 514.7 534.1 554.7 577.4 596.1 615.3 652.5 683 701.6 698.8 695.6 689.1 678.8 668.5 656.2 640.2 621.2 609.8 594.5 580.7 566.6 545.3 541.8 557.2 553.3 542.3 518.9 526.6 522.7 518.6 509.5 502.5 496 494.8 489.3 488 480.1 476.9 478.1 469.5 461.8 450.6 438.9 428 423.3 419.5 418 417.8 407.3 414 424.8 428 433.4 442.8 453.1 463.7 473.5 483.9 499.1 512.3 517.9 505.6 479 462 444.7
758.9 758.4 757.7 758.4 757.8 758.9 753.6 747.1 742.6 736.8 731.9 723.4 720.7 721.6 726.5 732.2 735.1 741.8 749.4 757.6 765.6 779.4 792 803.2 813 821.7 830.2 836.4 842.7 846 846.9 848.5 848.8 846.3 847.1 848 849.8 851 852 853.2 856.5 858.8 858.5 857.2 856.6 855.2 850.9 844.4 838.7 831.6 825.4 820.4 812.8 804 799.9 800.2 796.8 790.1 772 700.9 681.7 660.3 646.4 647.9 648.1 651.4 656.3 676.5 696.2 715 729.6 750.5 779.6 814 853.6 884.1 892.7 882.9 840.1 806 775.1 752.2 733.6 706.7 686.6 664.1 644.4 625 612 601.9 591.8 583.3 574.7 567 560.2 554.7 550.4 544.9 540.2 536 532.9 529.2 524.5 533.9 539.2 543.8 549.1 553.2 557.7 562.8 565.6 562.5 557.9 551.9 554.2 562.8 575.8 594.2 598.2 595.1 593.7 585.5 574.8 565.9 547.2 526.2 510.1 491.9 476.5 464.6 453 450.6 452.8 459.5 481.2 499.4 514 530.4 548.8 566.6 582.6 605.8 639.9 657.4 675 668.3 661.4 648.7 642.5 630.4 612.9 598.9 583 573 567.1 544.9 569.3 574.2 559.8 545.5 537.1 527 506.3 500.3 503.3 497.2 493.8 490.6 495.1 485.3 479.5 476.3 473.5 471.1 468.9 457.6 442.4 431.3 424 418.7 415.4 413.3 411.5 403.4 414.9 420.2 425 433 444 455.9 465.1 476.4 489.4 503.9 518.3 517.7 508 484.5 465.3 449.1
752.1 750.7 747.1 747.6 749.4 745.9 741.9 740 733.8 730.3 724.4 704 721.1 720.1 728.9 731.8 734.7 743.4 751.8 757.5 764.6 779.7 791.4 802.1 810.2 818 825.6 830.6 835.6 838.6 841.1 840.8 840.1 840.7 842.5 842.9 843.8 844.1 843.9 845.9 847.2 848.1 851.2 853.2 853.8 854 851.9 847.3 842 835.8 831.4 820.4 812.1 806.8 806 794.7 790.2 759 707.4 678.8 661.1 644.2 644.3 644.3 644.3 645.4 656 673.2 689.3 707.1 724.9 743.8 766.8 796.9 834.2 867.1 874.4 872.4 830.9 796.9 766.8 745.1 727.8 702.7 683.9 666.1 644.3 622.7 609.4 597.4 587.6 581.6 573.8 564.1 555.3 547.9 543.6 538 533.3 530.1 527.2 524.1 520.4 528.4 534 537.2 542.7 549.1 554.2 559.6 560.1 557.4 552.3 552 558.4 564.5 587.3 605 610.3 613 607.5 600.6 589.5 582.2 563.9 541.6 523.2 504.8 486.2 471.9 461.1 449.4 448.9 450.5 467.9 487 498.5 510.7 523 538.7 554.9 572.9 589.4 618.6 636.9 634.7 625.2 621.3 609.3 597.9 586.1 574.4 566.7 562.4 554.1 561.5 577.8 571.4 550.6 540.4 534.9 522.7 519.9 509.5 505.4 497.7 494.9 492.6 486.2 487.6 481 473.1 472.6 470.5 468.8 451.5 437.5 427.6 421 414.5 411.6 408.2 404.2 402.9 414.2 418.2 423.1 431.3 442.7 454.4 464.7 478.2 491.5 500.8 511.5 514.7 506.9 488.4 471.4 454.9
749.4 740.5 736.9 738 738.1 736.7 736.7 732.1 728.7 721.3 710.4 717.5 717.3 722.7 727.7 729 736.7 742.4 749.2 754.9 765.6 779.8 791.4 800.1 806.2 810.9 818.9 822 826 830.1 833 834.2 834.7 836.4 836.4 836.7 835.8 835.6 834.9 833.7 834.4 839.8 844.4 848.4 850 851.4 851.3 848.9 845.6 840.6 833.9 823 815.2 815 810.3 797 787.3 744.7 696.1 666.4 649.5 644.3 644.3 644.3 644.3 644.3 654.1 673.9 688 702.5 718.4 735.4 752 779.9 812.4 840 851.5 858.7 825.1 794.5 762.7 738.1 718.4 699.3 683.9 664.8 643.3 623 606.3 593.6 582.4 576.1 569.4 559.6 551.4 543.9 539 533.3 531.2 527.4 522.5 519.7 515.4 522.3 526.7 531.9 537.2 546.6 552.8 555.5 556.7 554.2 552 556.2 561.5 571 590.6 607.9 619.2 625.9 622.5 618 609.3 594.2 574.1 556.7 537.7 518 496.9 480 465.2 455 446.4 444.9 452.1 470.9 482.8 492.7 504 517.4 532.4 545 559.5 578.5 597.4 601.7 597.1 593.3 582.8 573.4 565.5 555.9 554 552.7 552.3 567.7 570.4 557.2 542.1 537.2 536.1 529.2 518.5 507.8 497.6 502.8 501 496.7 491.4 483.5 476.1 469.8 464.5 468.6 461 442.6 431.8 425.1 420.8 412.1 408 402.9 398.3 408.6 413.2 417.4 423.8 432.1 443 452.9 469.1 482.2 494.5 501.3 507.8 510 503.6 494.4 480.9 462.7
747 729.9 730 729.6 729.3 731.3 733 727.2 722.1 693.7 699.5 713.9 718.1 721.9 724.2 727.6 736.1 739.6 748.8 755.7 766.4 779.4 788.2 796 801 804.5 809.9 815.8 819.6 823.9 826.1 828.2 829.4 829.6 827.8 827.5 825.1 823.7 822.6 824.4 827.7 831.8 837.6 843.3 846.2 847.8 848.4 847.4 846.1 842.5 835.3 826.8 824.3 816.6 806.8 791.7 773.9 725.2 682.6 655.9 644.3 644.3 644.3 644.3 644.3 644.3 657.2 675.5 689.9 704.2 712.4 723.9 741.1 760.9 787.8 812.7 829.6 840.1 820.5 787.4 756.3 731.4 710.4 695.3 682.7 663.1 638.2 620.7 604.9 591.1 579.8 571.8 563.3 553.2 545.9 544.9 535.5 529.3 526.5 523.3 521.8 516 513.2 519 521.7 527 534.1 542.1 547.6 552.5 554 555.2 556.1 559.2 563.6 577.3 593.4 611.9 632.4 642.7 639 638.7 624.8 607.1 588.7 569.3 549 528.3 510.9 490.8 471.5 463 449 441.3 442 456 467.5 474 485.2 496.9 509.3 524.4 539.1 552.8 566.1 570.6 574 573 563.5 560.2 552.1 548 546.9 544.4 553.1 559.4 554 542.2 534.3 530.3 528.7 522.3 511.6 500.2 507.9 507.8 503.2 497.5 492.7 486 477.1 471 459 463.8 452.4 437.3 432.1 424.8 418.9 408.8 405.4 395.5 406.1 409 412.5 417.4 424.5 433.7 443.7 457.2 474.5 489 500.8 512.1 519.2 516.8 510.2 507.3 489.6 464.5
740.7 728.9 722.7 723 725.6 726.1 725.3 721.4 708.8 674.6 712 714.7 718.4 721.3 722.9 727 732.3 740.5 747.9 754.9 766.6 777.4 785 792.1 795.8 798.7 802 807 812.7 816.9 819.4 820.3 820.9 820.2 818.5 817 816.2 816.1 817.5 819.3 822.8 827.2 832.4 836.9 840 841.9 843.9 843.6 843.2 841.5 836.8 831.3 826.6 819.2 810.8 789 754 702.5 672.6 650.6 644.3 644.3 644.3 644.3 644.3 644.3 660.9 675.3 691.3 700.8 710.1 718.5 727.2 743.7 767.3 790.4 810.9 824.9 808.1 772.7 744.7 721.4 705.4 689.9 677.5 654.8 632 615.2 601.7 590.2 579.9 568.9 559.3 549.2 540.4 532.4 527.6 524.3 523.3 522.6 521.2 515.7 508.5 515.2 518.1 522.2 529.5 537.2 544.1 548.8 552.7 556.6 558.5 559.5 565.3 577.8 593.2 615.6 643.9 656.6 659.6 660.6 643.8 622.4 603.8 579.7 559.1 540.2 522.5 504.4 483.1 470.8 457.2 444.6 436.8 442.7 455.4 460 465.9 477.1 490.5 507.4 520.5 530.6 545.8 551.9 553.3 555.7 552.8 547.7 544 540.6 540.4 539.1 540.5 540.2 536.7 528.7 520.9 517.8 513.8 503.5 504.7 514.9 514.8 512.1 507.4 502.5 497 489.6 476.1 470.7 460.6 449.1 438.6 431.8 429.4 424.5 417.8 408.5 405.6 392.3 405.5 408.3 412.3 417.4 424.6 436.1 448.2 467.9 483 496.5 510 524.3 529.7 521.8 524.1 526 504.3 472.5
733.8 723.7 715.5 719.5 721.3 720.7 719.6 709.5 679.1 690.4 705.9 713.5 716.5 721.4 720.8 726 731.9 740.9 746.2 754.1 765.2 773.7 780.5 786.5 792.1 795.6 796.9 798.8 803.5 807.5 809.4 810.9 811 810.5 810.9 808.9 809.9 810.2 812.7 814.8 816.7 821.7 825.2 829 832.6 835.5 838 839.4 839.4 838.5 837.5 832.7 827.9 827.1 821.3 805.4 756 700.9 672.6 655.2 644.3 644.3 644.3 644.3 644.3 644.3 661.3 675.2 684.6 695 702.7 713.6 723.6 731.8 750.3 772.5 793.8 809.5 797 761.1 732 713.3 697.5 687.6 670.2 650 625.4 612.8 600.1 588.3 579.3 568.1 556.2 545.7 535 526.9 519.8 515.2 513.8 512.1 511 510.4 506.3 511.8 514.6 517.7 524.6 532 538.9 546.3 552.4 558.1 561.4 562.3 567.5 580.1 596.1 615.6 642.3 662.1 673.4 684 665.1 642.7 618 592.8 571.4 552.1 532.3 511.6 492.7 480.4 462.1 447.3 438.1 436 440.3 448.6 448.9 459.7 475.2 490.7 501.9 513.4 529.8 539.1 541 543.7 542.3 537.5 534.5 531.7 530.5 527.6 526 522.3 516.6 514.4 521.7 529.6 533.5 536.7 533.2 527.5 523.5 518.5 513 506.9 497.9 489.5 474.7 465.1 456.8 452.1 439.3 430.4 426.1 421.4 416.1 407 405.6 388.8 403.5 406.4 411.2 417.8 425.8 437.5 452.8 474.7 491.1 508.4 520.9 526.3 528.3 531.2 534.4 525.3 507.9 481.1
728.1 723.6 716.5 714.3 716 716.6 711.9 682.9 660.3 696.7 707.6 713.4 716.7 716.7 719.4 724.6 730.7 737.5 743.9 753.7 762.4 770.6 777.2 783.1 787.1 791 793.7 795.7 797.7 799 801 803.4 804.6 803.4 805.2 803.7 804.8 806.6 806.8 808.1 811.3 813.2 815.5 819.6 821.9 827.5 830.2 834.6 834.7 833 834.3 832.3 831.5 831.9 829 806.4 748.9 709.4 678.5 663.6 650.8 644.3 644.3 644.3 644.3 645.4 655.4 668.5 676.1 687.7 697.9 707.1 717.2 723.2 738.4 758.9 779.7 793.7 798 759.1 724.5 704.8 693.1 679.6 663.2 641.5 619.1 608.7 598.7 586.9 578.6 566.3 554.2 543.3 531.1 522.1 516 510.4 506.7 505.1 503.8 502.6 500.5 507.1 509.7 515.3 522.6 530.1 536.6 544.5 551.4 557 563.4 563.4 568.2 582.2 599.2 617.3 641.3 663 676.6 693 678 659.7 633 607.6 582.9 558.8 538.7 518.1 507.1 492.2 475.3 457.1 444.1 432.7 431.2 433.9 439.5 446 460 474.3 486.6 497.3 513.8 524.5 533.5 534.1 535.9 532.2 530 527 523 522.1 519.8 517.5 531.8 541.8 553.9 560 558.1 558.5 548.2 537.8 533.6 528.6 520.2 508.7 498.2 488.5 477.4 464.9 451 442.3 433.6 427.9 423.6 420.6 408.5 405.5 402.1 386.4 402.6 405.5 411.3 418.4 427.1 440.6 456.1 470.3 486.1 501.7 512.6 521.2 526.6 533.2 529.1 518 492.4 472.9
726.1 720.6 720.3 706.4 712.4 708.6 690.7 654.1 694.8 705.2 707.5 710.4 713.3 716.4 719.4 726.7 730.5 738 742.7 752 758.6 765.3 773.7 778.9 783.7 787.1 789 792.8 794.7 793.2 793.4 794.7 798.1 799.4 800.3 799.4 799.4 800.4 800.7 803.4 804.9 807.5 808.3 810.1 813.7 818.3 823.5 828.9 828.8 827.4 830 832.5 834.1 835.1 834.6 788.6 747.3 712.5 689.9 674.3 663.9 651.7 644.3 644.3 644.3 646.9 653.7 660.2 670.1 683.7 693.7 703.5 708.2 717.4 732.8 751.7 769.5 780.6 785.4 754.1 716.2 697.2 687.3 670.8 656.4 631.2 616.1 606.6 596.1 586.9 575.5 562.5 551.3 543.5 532.2 522 513.8 509.5 508.1 507.8 502.3 495.9 499.7 500.6 504.7 511.5 520.3 528.9 534.9 541.5 548.2 557.1 564.9 564.8 567.9 587.5 602.4 617.4 641.7 660.9 676 691.5 692.1 676.5 650 618.8 591.5 568 545.5 542.7 527.2 509.9 490.6 471.9 454.2 439.5 429 427.6 429.7 435.2 445.1 462.1 472.7 484.3 499.6 514.6 522.2 526.8 527.1 526.3 525.7 523.3 524.6 525.2 528.4 541.7 553.1 560.6 570.8 576 574.1 569.7 556.5 548.2 543.4 538 522.1 511 504.7 492.5 481.5 463.7 448.5 438.7 430.4 423.4 417.3 411.6 406.1 402.7 397.2 386.1 398.4 403.4 410.9 418.6 427.5 440.8 456.8 471.4 487.2 502 513.4 529.7 532 531 523.6 510.6 483.6 464.7
723 718.6 713 705.4 705.2 696.2 663.5 659.6 702.5 702.6 708.4 709.1 713.3 716 721.2 726.1 730.6 734.1 740.8 748.5 757.1 761.5 770 776.3 779.6 782.4 786.1 788.5 790.4 790.3 788.3 788.9 792.2 794 794.4 794.7 793.9 794.6 796.3 798.4 801.1 802.7 801.6 803.4 807 811.6 816.5 821.1 822.7 821.6 827.5 832.1 834.8 838.4 834.9 788.1 750.8 722.1 697.6 683 669.7 658.9 648.5 646.5 646.5 645.4 651.5 655.2 665.4 677.6 687.1 694.8 700.8 710.7 727.4 744.8 759.4 768.3 774.3 749.6 714.8 693.6 677.6 663 642.8 623.9 613.7 603 593.8 584.9 574.7 564.3 558.6 555 549.5 533.6 520 517.3 518.4 517.5 512 494.4 494.4 494.4 501 509.5 517.5 524.4 530 536.7 546.8 558.7 564.6 565.3 568.4 587.7 603.1 616.6 637 656.1 673.7 689 698.5 695.2 671.1 632 605.1 580.3 574.9 564.7 549.9 531.7 508.8 488.2 468.3 449.6 437.2 425.5 425.5 427 433.8 445.9 459.8 470.8 486.5 500.7 513.4 521.4 523.4 525.8 528 528.5 529.6 533.4 545.8 556 567.7 578.5 585.7 584 580.9 571.3 559.9 552.4 545.8 535.6 524.5 519.7 514.1 497.3 481.7 463.2 448 437.5 430.9 421.8 413 406.2 402.1 398.5 393.6 388.5 395.3 400.9 409.5 417.9 427.6 440.1 457.8 474.7 491.6 502.9 516.7 536.5 533.3 526.2 516.7 503.8 475.7 453.9
720.4 718.1 716.5 696.1 694.5 674.8 644.4 686.9 698.8 699.8 707.2 709.9 712.5 716 720.9 724 728.6 731.2 739.8 747 753.2 759.2 769.1 773.6 777 779 781.7 783.8 784.9 784.9 785.5 786.9 788.3 788.7 789.2 790.7 789.7 791.2 793.9 794.7 796.3 796.1 795.9 797.2 801.5 806 810.9 814.8 814.9 819 825.1 830.9 835.7 839.3 829.9 786.4 751.3 723.6 702.5 683.3 666.4 654.3 652.6 647.3 642.8 642 648.4 651.3 661.8 670.7 680.2 687.5 692.8 704.9 722.2 738.3 750.6 758.9 764.1 757.2 718.4 689.7 668.2 649.8 633.8 621.9 610.7 601.1 591.5 583 571.5 562.6 558.1 555.4 544.2 527.6 512 505.6 504.9 506 507.4 493.1 497.2 488.2 496.2 502.9 513.4 519.2 526.7 535.9 546.2 557.1 562.5 564 568.1 586.9 599.7 613 629.1 648.7 666.8 682.2 694.8 696.9 673.2 646.4 621.6 607.3 605.3 594.8 569.8 549.1 524.7 501.3 479.7 460.1 446 436.8 427.2 418.8 426.8 435.6 445.5 456.6 473.5 490.7 505.4 516.5 520.2 524.6 526.8 529.1 532.8 541.6 554.2 565.7 574.2 581.5 586.7 587.5 579.4 572 559 554.5 552.8 540.6 532.6 526.5 516.8 499.2 479.9 462.6 448.8 437.4 430 420.1 410.2 402 397.8 396.8 390.2 378.4 392.2 397.7 407 415.7 427 443 457.1 476.2 491.8 505.8 521 537.7 529.7 515.7 506.3 490.7 464 443.7
720 716.3 711 689.4 675.1 646.5 661.5 687.5 695.6 700.7 704.9 708.4 711.6 716.2 720.4 722 725.2 732.4 739.1 745.3 752.1 758.5 767 770.5 773.9 777.4 778.9 780.5 781.5 782.3 783.5 784.4 784.8 785.1 784.9 786.3 788.8 788.8 789.8 790.9 786.5 786.5 788.7 790.7 797.8 802.3 807.8 805.3 807.4 812 822 829.5 835.7 833.8 809.2 774.9 742.7 718.7 696.3 676.3 662.9 652.2 646.3 643.3 643 638.4 640.8 649.5 655.5 664.7 674.3 681.1 686.2 700.3 718 733.3 744 750.5 754.9 750.8 723.5 685.9 668.3 643.3 630.8 621.3 610 598.5 588.3 579.8 568.8 560.2 556.3 548.3 532.5 517.5 505.1 497.6 495 494.1 493.2 488.1 487.4 481.8 492.6 499.5 508.1 514.3 525.8 533.9 544 553 558.4 562.3 565.8 581.7 593.5 604.5 622.6 639.5 658.1 675.4 690.8 695.6 681.7 659.9 646 640.1 637.2 621.7 588.6 561.4 534.7 510.7 488.8 470 456 444.7 436.1 426.7 414.8 423.2 429.2 445.4 462 480.9 498.5 511.1 518.9 525.8 532 535.4 538.5 549 559.4 568.8 576.5 582.3 586.2 582.2 574.4 569 559.3 562.7 558.8 544.3 532.8 525.7 518.5 499.5 483.7 465.7 449.9 439.2 427.5 418.2 408.4 400.1 394.4 392.5 381.8 371.2 387.5 395.3 404.1 413.3 427 442.1 460.7 480 493.6 510.7 522.2 525.4 522.2 500 498.1 480 452.2 432.4
718.1 715 708.4 680.5 639.8 634.8 668.7 686.6 693.5 698.9 702.5 708.5 713 716 718 718.6 724.5 731.1 736.3 743.6 751.3 758.3 764.4 767.2 771.1 773.4 776.1 776.7 777 777.3 778.9 780.2 781.7 782.3 783.3 784.6 784.9 786.4 786.9 784.9 779.2 778.4 781.5 786.9 795.3 799.5 800.4 799.8 795.7 800.7 812.2 822.1 815.4 809.5 789.4 751.3 730.8 706.2 685.4 667.1 653.8 643.4 640.7 641.3 637.4 634 637.8 643.8 648.6 659.6 668.7 677.2 683.9 695.8 714.2 730 739.5 742.9 746.3 739.7 710.1 698.1 660.2 639.7 627.4 620.6 609.1 598.3 587.4 577.1 565.8 557 547 533.3 520.6 510.2 500.2 493.1 489.5 487 486.8 484.3 482.6 478.1 485.5 494 502.1 512.2 520.2 531.2 545.1 550.5 554.7 559.3 564.6 574.5 583.9 597.6 615.2 632.1 650.8 667.2 682.9 690.3 684.8 673 673.3 671.4 669 647.4 603.3 577.1 544.6 516.6 495 476.9 462.1 451.4 441.4 432.5 424.2 411.2 416 431.3 451.3 471 489.7 504.5 518.7 529.7 538.1 542.2 541.9 550.1 560.1 567.3 577.7 583.6 583.8 578 574.3 569.9 568.3 566.6 559.6 545.5 530.2 522.9 516.6 503.6 484.9 469.9 454.7 441.1 428.9 416.7 405.6 398 391.3 386.3 377.4 368.9 381.4 393.1 401.9 410.4 424.5 438.6 458.2 477.2 495.6 509.9 517.4 512.2 503.5 488.2 485.2 470.4 444.9 422.5
715.9 705 702.8 677.8 651.6 641.6 676.8 691.7 692.7 695.5 702.7 707.5 710.6 712.2 711.8 717.1 721.4 728 734.8 741.6 748.1 755.3 761.5 765.5 768.3 770.5 771.9 772.6 773.1 774.5 774.6 776 777.8 780.3 780.8 780 780.5 781.5 780.4 778.2 778 776.1 781.1 788.3 793 793.5 788.1 780.4 773.8 776.1 790.3 782.6 772.4 764.7 753.4 730.7 714.7 694 673 655.2 644.4 638.5 635.6 636.6 633.1 626.2 633.2 638.2 644 652.5 661.8 672.7 682.6 693.6 711 726.4 735.4 737.2 737.2 720.6 721.9 701.8 665.6 643 628.3 620 609.1 598.5 587.5 574.8 562.9 554.5 541.9 529.6 517 507.1 497.9 489.2 483.2 481.4 481.8 479.6 477.8 474 481.4 491.6 498.3 508.4 516.8 530.2 540.8 546.3 551.9 556.5 561.8 569.8 580.4 593.8 612.7 627.8 643.9 660.7 676.3 685.5 689.7 694.5 695.2 700.8 698.2 657 617.8 586.6 550.1 521.4 501.8 481.1 466.2 454.2 444 434.1 425.6 418.5 407.1 423 439.5 460.1 478.3 495.2 512.8 527.3 535.8 536.5 539.5 545.8 556.5 563.3 574.1 580.6 581 578.9 581 576 572.3 567.6 556.8 544.2 535.8 532.1 526.4 509.6 489.9 473.6 458.8 445.3 431.9 415.5 404 395.2 389.9 385.1 372.6 367.2 377.4 390.5 398.5 406.1 418.9 433.8 450.5 474.4 488.3 501.5 503.8 500.1 492.9 478.2 468.6 456.4 437.3 413.6
708.5 701 700.2 671.5 632.7 657.9 676.1 687.5 685.7 694.6 701.4 704.7 708 708.7 712.5 715.8 719.8 726.2 732.9 739.3 745.2 750.2 758.2 763.5 768.2 769.6 768.9 770 771.6 772.5 772.8 773.9 775.6 775.7 776.1 775.5 776.3 777.8 775.4 772.9 770.7 775.6 785.1 789 791 783.6 765.7 753.1 749.3 749.3 750.5 744.9 735.9 727 716.9 708.8 699.2 678.7 658.2 643.6 634.5 632.3 630.2 629 625.6 619.4 628 631.7 640.3 645.8 653.5 667.7 676.7 690.5 707.4 724.1 731.6 731.3 740.6 744.3 738.1 715.1 677.9 652 634.3 622 611.5 599.6 586.6 572.2 558.2 548.9 539.1 528.4 517.8 505.1 494.5 486 478.8 475.8 478 476.5 475.8 472.9 480.7 490.1 497.4 506.3 515.8 527.4 537.2 544.3 549.8 554.7 561.1 566.6 576.6 592.4 611.2 626.3 639.6 654.6 671.1 685.1 703 715.8 718.8 724.2 708 671 629.1 589.2 555.4 525.9 502.8 486.7 469.1 457.9 447.5 435.7 425.2 420.3 408 407.4 433.6 451.9 468.2 485 502.8 518.9 522.4 525 531.2 539.2 549.2 559.6 572.3 579.3 579 580.3 582.7 579.2 574.3 563.6 556.4 552.4 545.6 539.9 535.5 515.5 497.2 481.8 466.7 448.3 436 417 405 393.2 388.1 384.1 372.3 363.8 370.4 384.9 394.2 402.5 414.9 427.7 444.4 462.1 477.5 489.9 489.6 484.4 478.8 470.5 458.5 444.3 427.4 411.7
701.8 695.2 691.5 669 627.7 663.6 677.7 678.9 686.8 694.3 697.8 701.8 704.1 705.6 708.4 714.5 718.5 724.3 731.3 737.2 742 748.6 756 762.2 766.4 767.8 768.2 769.1 770.3 769.9 770.8 770.4 772.4 773.3 773.2 773.1 773.6 773 769.7 769.1 771.3 778 785.1 782.3 772.5 765.8 749.6 735.3 725.1 721.1 722.1 715.6 703.9 694.3 683.2 678.5 670.4 658.8 641.3 628.7 624.2 623.7 620.4 619.2 618.7 613 622.2 629.1 633.4 639.9 650.6 662.7 674.1 689.5 706.9 723.9 727.7 741.1 750.5 752.9 747.2 727.9 692.5 663.2 640.6 626.3 613 598.4 583.3 568.2 557.1 546.3 535.7 528.5 517.3 504.8 492.8 483.4 476.1 472.6 474.8 474.6 469.1 469.5 477.2 486.6 496 503.5 515 523.4 532.9 539.9 545.2 552.6 558.9 564.7 575.2 592.4 608.9 623.9 636.5 651.3 668.7 687.5 711.6 727.4 735.9 742.6 718.4 685 647.5 601.8 562 528 505.9 489.9 473 461.3 450 438 428 420.6 407.4 401.9 424.5 442.2 459.9 476.4 493.7 510.6 515.8 517 526.1 531.4 541.7 558.8 573.7 575.3 571.8 575.6 586.4 576.3 564.5 561.9 560.6 559.2 548.5 545.7 541.2 526.7 509.7 491.3 474.1 451.3 434.4 415.6 403 392 387.3 383.9 378.9 362.8 362.6 379.6 388.8 398.1 409 423 436.5 452.3 462.7 476.1 466.8 465.5 456.5 459.1 448.9 434.3 423.1 407.8
697.6 692.3 681.8 659.7 626.8 666.7 675.6 677.9 684.2 693.9 696.6 699.5 702.1 703.7 707.8 711 716.5 721.9 727.9 735.2 739.9 746 755 760.4 763.6 765.2 767.7 768.1 769.4 768.8 768.7 769.1 770.4 770.4 771.1 771.3 771.1 770.4 769.7 770.4 775.8 781.9 779 771 762.7 752.7 738.6 724.8 707.1 694 691.1 684.7 673.1 665.1 656.3 649.9 644.6 632.8 624.7 615.8 610.7 610.7 607.9 609.6 609.9 611.4 619.2 624.6 627.9 636.7 647.4 659.4 672.1 689.5 707.4 722.8 734.3 746.8 757.1 762.8 758.7 742.9 712 675.1 649.2 631 615.9 596.9 581.6 567.7 556.7 545.6 534 523.9 514.9 504.7 492.3 481.4 474 470.8 471.9 472.5 467.3 466.8 472.3 484 493.3 501.7 510.7 520.3 530.4 537.5 542.7 551.1 556.2 564.2 575.6 590.5 605.9 621.8 635.4 651.1 669.1 697.8 721.6 732.3 735.5 732.2 711.3 682.9 653.8 618.3 565.9 531.5 507.3 490.3 475.5 462.9 449.5 440.8 430.4 422.2 414.4 398.3 418.5 434 451 469 486.5 506.2 508.8 508.9 518.8 525.8 536.3 560.5 571 566.6 565.5 576.3 575.9 567.1 559.8 561.4 558.3 554.5 544.5 538.1 537.9 530.6 515.8 496.8 478 454.6 432.9 416.7 403.2 393.2 387.9 383.3 377.5 366.3 356 375.7 384.6 392.5 403 418.4 430.9 439.4 443.9 447.9 446.7 446.4 438.1 444.9 433.2 424.8 414 394.8
690.9 685 675.8 637.9 653.7 672.4 666.6 676.6 682.6 690.1 696.8 699.3 699.4 702.8 704.9 708.7 713.7 718.7 725 730.4 738.4 745.5 751.9 757.4 762 764.8 767.5 768.5 769 768.4 766.3 766.8 768.6 768.1 768 768.2 768.9 767.3 767.7 772.3 778.4 777.6 772.8 766 755.3 743.1 728.1 705.4 685 670.6 667.4 657.4 650.1 641.2 632.7 631.2 623.8 611.3 608.8 597.9 592.8 595.2 597.6 599.7 599.9 606.5 614.3 620.9 624.7 634.7 645 658.6 671.6 688.7 708.8 724 738.2 753 766.7 775.1 771.7 757.4 734.2 694.7 660.8 638.5 622.3 601.5 582.6 566.8 557.4 547 534.1 523.4 514.1 505 493.9 483.8 473.4 471.1 470.5 471.5 468.9 460.3 468.6 480.9 489.7 498.1 506 515.7 525.5 534.7 540.6 550.2 554.9 564.1 573.8 586.2 602.4 621 636.1 652.8 677.2 702.4 722.4 731.7 733.2 720.7 704.9 687.3 654.4 616.2 574.8 534 512.8 493.8 475.2 464.4 454.9 443.5 431.9 420.6 413.6 396.4 404.4 426.7 441.9 457.6 478.2 491.3 496.7 503.5 509.1 514.5 526.5 553.4 559.1 555.6 560.1 565.6 561.7 554.8 550.9 549.5 552.5 551.9 541 536.7 530 525 508 491 472.3 455.2 431.4 417.2 403 394.1 389.6 383.3 377.2 369.8 357.8 369.6 378.6 387.2 396.8 409.9 425.4 431.4 429.4 424.8 425.7 426.5 421.5 423 418.7 408.3 396.1 380.1
684.4 679.2 650.7 624.2 658.5 666.4 669 676.2 684.4 690.5 696.2 698.6 695.1 697.3 704.5 708.7 712.9 718.4 723.5 728.5 733.8 742.3 749.1 756.4 761.9 765.5 767.4 769.9 769 767.1 765.7 766 766.3 767.2 767 766.4 766.4 765.6 768.9 772.9 775.1 771.1 764.4 755.8 747 736 713.6 685.7 663.5 652.9 648.1 643.4 636 628.3 624.1 616.1 609.7 599.6 591.5 578.1 575.3 581.4 584.8 588 590.7 602 611.2 615.8 621.1 632 644 656.6 672.1 690.6 710.9 726.8 744.4 760.5 776.1 787.1 785.8 772.1 750.1 710.3 672.4 648.9 631.2 607.3 586.1 568.9 558.8 548.3 536.9 524.7 516.9 508.9 498.1 485.4 473.4 469.6 470.7 469.5 466.6 458.6 466.2 474.5 483.4 492.3 499.8 511 520.9 529.4 540.5 548.9 553.6 562 570.9 582.1 600.4 619 638.4 659.1 681.1 705.7 721.1 727.5 721.2 708.6 699.7 681.8 652.1 617.6 579.8 538.7 518.8 496.7 481 465.6 453.3 443.4 431.3 419.8 413.2 397 396.7 418.9 432.3 445.9 460.3 473.2 484.7 494.2 500.4 504.8 514.9 535.8 542.1 546.9 550.6 550.2 549 543.5 543.3 541 538.3 542.4 532.5 522.5 521.1 514.3 497.3 481.5 461.1 444.2 429.3 415.1 401.4 395 389.1 382.9 376.1 370.7 354.8 360.4 371.9 378.9 390.5 404.8 417.5 419.8 412.7 408.2 408.3 407.4 406.5 406.6 402.6 392.8 375 372.3
677.8 667.9 624.2 643.8 662.2 661.4 666.1 679.9 685.9 691.5 694.1 692.7 694.4 699.5 704.3 707.9 710.5 716 721.3 725.2 732.3 741.2 748.8 756.3 763.4 767.1 770.2 771.7 770.3 769.2 765.5 765.7 766.8 766 765.8 763.9 765 767.8 770.7 770.8 768.2 764.5 757.2 749.5 741.9 725 693.6 668.5 645.1 640.2 635.3 633.3 626.7 624 614.7 604 592 585.2 574.9 567.5 560.1 566 570.9 568.8 589.8 599.7 607.8 611.8 619.6 630.4 642 655 670.2 689.5 710.9 731.8 750.9 769 785.2 796.3 796.1 787.5 766 722.7 688.7 662.1 638.1 615 591.4 572.3 561.8 553.2 540.7 528.7 519.8 511.8 500.1 486.2 474.9 468.3 468.1 467.6 465.1 456.9 462.8 470.8 478.9 486.4 496.4 505.7 516 528.8 539.3 545.2 550 557.5 567.9 579.5 599.5 617.9 642.8 664.2 685.1 708.8 717.4 719.9 712.6 702.2 695 680.5 649.3 613.8 574 544.9 523.8 505.3 486.4 468.1 454.1 442.2 430.6 419.4 412.3 394.9 392.6 410.1 419.3 434.4 446.6 461.8 475 483.7 491.3 497 505.1 516.7 526.7 530.2 537.3 542.3 536.2 535 533 532 528.2 517.7 519.9 514.8 505 496 481 468.2 455.8 439.5 428.7 413.3 399.8 395.3 391.3 384.4 378.6 373.2 364.8 347.2 362.5 373 386.2 396.2 404 404.7 399.6 395.9 397.1 393.4 395 394.6 392.4 393.8 408.4 417.6
670.2 641.6 619.9 652.2 657.9 651.7 677.4 682.3 686.2 689.9 690.2 693.1 694.7 698.5 703.1 705.8 709.5 713.2 718.6 724.2 731.7 742 749.4 758.3 766.3 770.7 773.9 774.1 771.6 768.5 764.9 764.1 764.3 763.4 762.8 760.9 764.2 768 770.4 767.5 762.3 760.1 755.9 748.2 736.6 713 680.4 653.5 640.4 630.6 627.1 620.1 622.8 616.5 605 593.5 582.1 571.2 563 559.9 549.2 554.7 554.7 572.5 586.3 594.8 601.6 611.2 616.8 626.8 637.3 653 666.8 687.3 710.9 734.7 756.5 775.8 793.7 802.1 802.1 792.2 771.9 738 700.5 672 647.2 625.8 599 576.8 566.7 556 544.5 531.9 522.9 514.4 501.5 488.2 474 469.9 466.7 464.7 463.2 456.5 456.6 466.3 473.9 481.7 493.4 504 515.7 525.2 534.6 540.8 546 554.1 563.4 577.9 599.2 618.5 644.4 669.9 692.3 708.6 723.3 725.9 713.5 697.2 690.5 667.1 635.5 604.5 569.8 547.7 528.1 509.1 490 472.7 455.8 443.5 429.6 417.7 411.3 394 386.7 405.8 410.3 420.6 434.4 451.5 464.9 476 478.5 485.6 495.5 501.2 508.4 521 530.1 529.5 526.9 521.7 518.2 515.1 508.5 494 495.4 498.9 485 481.9 472.7 458.4 445 435.8 418.1 406.2 396.1 390 386 382.1 377.2 373.4 367.9 351.2 355.3 366.1 377.5 384.9 391.3 391.1 386.8 385.8 382.5 385.3 385.8 390.2 395 410.3 407.3 406.3
653.4 629.1 628.9 650.6 643.6 670.7 681.1 683.4 686.4 687.7 690 691.5 693.6 697.7 700.8 703.1 707.1 711.1 715.1 722.7 731.6 743.2 750.8 762.1 770.1 774.8 777.2 775.8 773.2 769.9 767.3 764.3 762.3 760.3 759.8 760.4 764.2 766.8 766.9 765.2 763.1 759.2 752 743.3 730.4 700.7 671.2 648.1 639.3 626.9 619.3 613.9 616.1 600.1 595.1 587.3 568.3 560.4 554.7 547.8 541.5 543.4 553.6 566.8 580.5 589 597.7 607 613.3 622.4 630.3 648.1 664.4 685.2 711 736.2 759.9 780.7 796.6 805 801.4 792 774.2 746.4 709.4 685.1 660.3 637.4 608.3 585 570.1 561.3 548.5 534.7 524.6 516.3 503.9 490.5 479.8 471.3 466.7 461.7 457.8 457.5 451.5 459.5 466.2 475.6 489.3 501.6 510.8 519.4 529.1 535.1 541.3 549.3 559.5 576.5 598 617.9 645.6 673.6 691.8 710.8 728.7 726.1 702 690.6 681 650.5 624.5 603.6 575.6 547.4 529.3 509.4 492.2 472.7 458 444.3 429.8 416.1 408.2 392.1 385.8 394.7 406.2 411.7 422 436.1 449 461 466 473.2 482 493.1 501.4 515.7 520 518.2 512.3 508.9 503 495.7 484.8 478.9 472.7 470.6 463 468.2 461.6 448.4 433.4 424.8 406.5 395.9 389.9 385.2 380.6 376.7 374.1 370.1 366.2 347.2 351.5 360.2 367.6 377.6 386.9 377.5 373.6 372.1 373.8 374.5 374.4 379.1 387.5 392.1 391.8 395.4
631.1 635.5 617.3 634.9 654.8 679.5 680.8 683 684.9 685.9 688.1 690.8 691.6 697.4 701.3 703 704.3 707.1 714 721.8 732.3 743.4 753.2 766.4 773.8 778.3 779.8 777.3 773.6 771.1 768.5 763.7 760 758.1 758.4 760.9 764.3 766.3 765.9 764.4 761.5 753.8 753.3 748.6 735.7 702.6 671.4 643.3 629.1 619.3 617 611.2 600.2 595.1 590.8 579.9 566.1 557.5 549.8 536.7 534.6 535.9 544.9 558.7 569.7 581.7 594.2 601.9 608.3 617.3 628.3 645.4 658.9 682.1 708.8 734.4 759.1 780.1 792.8 798.5 795.8 787.7 772.3 748.3 720 692.6 670.7 646.7 617.6 592.3 574.1 563 551.8 536.8 528.5 519.6 505.6 496.6 483 475.2 468.4 464.8 463.1 461.6 447.9 458.7 460.4 475.6 485.2 496.8 505.5 514 522.9 528.9 536.4 544.7 556.8 576.4 596.4 615.2 644.4 670.9 691.4 715.1 720 705.9 689.5 681.5 663.2 642.6 622.4 603.8 580.4 549.3 528.8 512.8 492.1 475.2 458.2 444.7 429.9 415.6 405.9 390.2 383.1 390.9 401.3 404.7 413.9 425.4 432.8 442.9 452 461.9 471.4 481 493.7 512.6 510.4 505.3 501.8 489.6 485.7 476.6 460.5 456.7 452.9 448.5 442.9 435.9 437.2 429.6 420.6 410.5 396.4 387.1 383.9 379.3 375.7 376.2 381.9 387.5 369.4 341.4 344.2 355.9 369.5 375.2 370.8 362.9 362.8 366.4 367.2 366.7 364.6 366.7 372 376.2 376.2 381.3
