ncols 200
nrows 83
xllcorner 390000
yllcorner 625000
cellsize 50
236.7 229.3 211.8 191.5 170.8 158.5 150.6 146 134.7 121.2 97.5 83.4 84.5 94.9 107.6 114.5 122.4 129.7 137.3 144.4 149.1 147.1 145.7 147.6 149.1 151.4 154.1 158.8 162.9 166.6 170.5 173.2 175.5 177 177.1 179.9 184.1 186.9 191.9 200.8 211.8 220.9 221.1 211.3 200.6 195.5 213.7 233 248.5 266.3 283.2 294.4 308.3 316.5 319.7 316 310.9 306.8 304.6 296.7 288.8 281 273.8 265.9 257.1 248.9 241.4 235.5 233.4 234.8 236.8 236.8 230.6 222.6 215 206.7 199 194.6 195.4 203.5 216.2 227.9 245.8 262.3 273.8 278.6 274.4 269.2 263.7 260.5 258.7 255.1 254.7 253.3 248.4 233.3 228.1 217.8 204.5 202.2 194.1 188.8 186.8 178.5 170.3 161.8 150.4 142.4 131 116 127.7 125.7 134.4 139.2 138.7 137 137 130.6 131.1 129.3 125.2 120.6 115.4 111.7 107.6 104.5 101.3 97.4 96.1 95 99.6 98.8 100.8 104.3 108.5 107.5 107 105.2 100.4 93.2 89.1 86.4 81.1 71.8 64.9 61.3 58.5 56.5 56.5 55.4 55.3 55.9 56.3 54.8 53.1 54.1 54.9 54.1 51.9 53.4 54.3 53.5 54.9 53 51.6 48.8 48.3 47.9 47.4 46.8 46 45.1 44.7 44.7 44.9 45.3 44.5 43.5 44.4 43.9 43.9 43.6 43.4 43.4 43.3 43.6 43.8 43.8 43.7 43.7 43.7 43.4 43.2 43.1 43.8 42.9 43.8 43 42.6 42.5
240.5 234.2 222.1 203.4 179.8 168.3 160 151.6 135.9 122.9 97.8 84.7 84.6 95.8 107.7 112.8 118.2 124.8 131.3 136.5 140.1 141.3 143.4 146.6 150 152.4 156.9 162 166.4 171.3 176.3 179.7 183.2 183.4 185.3 188.1 190.6 193.3 199.3 207.8 218.9 229.3 233.8 226.8 212.4 203.4 203.8 221 238 252.1 267.1 277.5 289.6 297 300.1 301.5 300.2 296.1 293.7 288.7 281.7 274.9 268.4 258.7 253.5 247.9 242.3 240.5 240.8 242.8 244.4 244.8 240.7 230.4 221 213.9 206.9 202.2 204.3 211.4 225.5 239.5 256.5 273 284.2 289.4 282.1 274.2 268.1 264.7 262.2 259.7 259.7 258.5 254 246 221.3 223.9 210 191 186.9 178.4 171.6 160.1 149.7 143.3 139.5 124.2 121.8 131.2 135.5 139.2 145.8 149.9 148.7 145.9 141.4 139.1 139.8 141 136.6 132.4 127.8 123.2 117.2 112.5 110.1 108.8 106.3 105.8 108.1 106.5 106.8 107.9 109.1 109.5 109.6 107.9 105.7 102.3 98.1 92 84.3 81.9 71 64.6 62.7 60.3 59.6 59.8 59.6 58.5 58.8 57.3 55.6 55 55.1 54.1 54.4 57 58.6 58.3 58.1 55.9 52.1 49.9 49.3 48.6 47.9 47.3 46.6 45.9 45.8 45.3 45.4 45.5 44.9 44.5 44.3 45 44.5 44.5 44.6 43.6 43.5 43.9 44.1 44.1 44.1 44 44 43.8 43.7 43.6 43.9 43.5 44.3 42.9 42.8 43
244.2 238.5 225 211 188.7 177.1 165.2 152.8 136.3 122.4 94.8 86.1 86.2 101.9 105.9 109.1 118.5 125 129.7 133.1 138.6 142.6 144.5 148.5 153.1 156.5 160.3 166.5 172 177.3 183 187.5 190.1 192.5 196.3 199.5 200 202.3 206.5 215.2 227.1 239.7 245.6 241.3 227.6 214.6 209.1 211.6 228.6 244 256.9 267.1 280.7 288 291.8 292.6 291.3 285.8 281.7 279.4 274.6 268.8 260.4 255.7 251.8 248.3 246.9 247.4 248.5 250.4 255.1 257.2 248.4 237.7 229.6 221.9 214.4 208.1 210.9 218.3 233.4 250.2 266.1 279.7 292.1 298.5 288.4 277.3 271.1 266.6 263.6 261.8 261.8 260.7 256.1 247.8 239.4 211.7 212 188 178.5 174.1 161.2 149.3 143.1 134.8 131.4 134.4 138.3 140.8 146.2 151.5 155.9 160.2 161.6 161.4 159.3 156.8 158.7 155.9 149.2 143.4 137 132.1 126.3 121.4 118 114.8 112 109.6 110.5 110.4 112.5 112.8 116.6 116.7 116.3 114.3 110.7 107 103.4 99.7 91.5 83.6 78.7 72.4 66.2 65.2 65.3 64 62.3 63.2 61.4 60.3 58.2 57.1 56.2 56.3 57.5 58.2 60.7 60.2 59.1 58.1 55 52.1 50.1 49.2 49.6 48.9 46.8 47.2 47.9 47.9 47.1 46.7 46 45.6 45.5 45.5 45.4 45.5 45.8 44.4 43.6 44.2 44.5 44.4 44.4 44.4 44.3 44.8 44.8 44.1 42.8 44.4 43.8 42.9 43.1 43.5
245.4 239.7 229.1 214.7 197.1 181 165.9 151.5 135.5 118 92.3 87.2 87.7 103.9 107.8 111.6 122 129.8 135.6 140.3 144.1 146.9 150 154.8 160 162.1 165.5 170.7 177.7 182.8 189.5 196 198.3 202.6 208.8 211.9 213.4 213.5 216.2 224.1 235.4 250.6 258.8 255.1 245.5 229.7 218.3 215.1 220.8 236.5 248.8 258.5 271.9 280.8 285.7 285.4 282.5 276.3 273.7 268.6 266.7 261.9 260 261.9 260.1 257.2 255.7 255.7 257.6 260.9 266.2 266 257.4 244.5 236.6 231 224.8 215 216.4 226.5 240.5 257.2 269.2 283.4 294.5 298.2 289 278.5 272.4 267.8 264.1 262.8 262.8 261.6 257 249.3 239.6 225.9 194.1 193.1 177.5 165.5 156 147.8 138.6 139.1 146.8 147 146.4 149.8 156.3 161.9 167.3 171.1 176.4 182.5 180.7 178 179.9 178 159.7 156.9 152 146.4 137.5 132.2 125.1 122.1 120 118.3 117.6 116.8 117.9 122.5 123.2 123.6 123.4 121 116.9 112 107.7 103.7 99.4 92.2 86.1 79.8 76.5 69.8 70.3 68.4 66.1 65.9 65 63.3 60.7 59.4 59.1 59.3 59 58.3 59.9 60.6 60.1 59 57.5 56.1 51.6 52.7 52.5 51 49.7 50.1 51.2 51.3 49.7 47.2 47.4 47.4 47.1 46.8 46.6 46.4 47.5 45.4 44.6 45.1 44.9 44.7 44.7 44.8 44.8 44.5 45.1 45.2 44.5 44.2 43.3 43.4 43.8 43.6
244.7 240.5 230.2 216.2 203.4 182.7 166.2 150 133.9 114.1 92.9 87.2 87.8 105.5 109.4 114.4 124.7 134.8 144.1 150.2 154.3 156.1 158.9 164.5 169.5 171.3 174.1 177.6 181.9 190.5 200.1 207.5 208.8 213.8 221.9 227.1 227.6 227.3 224.8 233.6 244 259.8 268.2 265.6 258.8 246.3 230.9 221.4 221.4 231.1 243.2 253.9 265.2 273.8 274 269.5 269.1 268.9 267.1 267.3 267.2 271.1 274.9 274.5 271.3 268.6 268.3 269.9 272.7 276.2 281.7 279.9 268.3 255.4 244.9 239 231 226.3 225.5 231.8 243.8 259.1 270.9 282.1 291.7 294.2 285.8 277.8 272.6 268.2 264.4 262.3 262.6 260.6 256.1 248.9 236.9 225.3 199.6 171.6 166.6 160.1 154.1 142.5 147.6 153.2 154.5 154.6 157.8 161.8 167.6 177.6 186.9 191.8 203.6 205.6 203.6 199.4 194.3 188.2 177.7 167 160.5 155.1 150.1 144.9 138.8 131.1 124.1 126.2 124.3 126.6 128.5 129 129.3 129.4 129.7 129.3 125.3 119 113.1 107.9 104 101.3 93.2 84.7 81.1 78.6 72.8 72.2 73 70.4 71.2 66.7 65.2 63.4 63.4 61.8 60.2 59.7 60.4 61.9 60.9 58.8 57.8 56.7 52.4 54.9 55.9 55.5 53.8 53.4 53.8 53.5 51.5 50.6 50.1 49.1 48.5 48 47.9 47.8 46.8 45 45.3 45.8 45.4 45.1 45.2 45.2 45.3 44.9 42.9 45.1 45.1 44.7 44 44 44.3 44
236 236.1 230.4 218.1 208.9 183.8 164.1 147.1 132.5 112.5 89.6 88.7 92.1 107.2 111.2 117.8 127.7 140.2 150.7 160.1 162.5 165.3 168.3 173.8 178.7 181.4 182.7 185.2 191 198.1 210.8 218.8 220.5 225 234.2 239.8 242.1 241.5 236.2 243.1 254.8 268 275.7 274.2 265.4 256.7 247.3 236.2 224.8 231 240.5 251.2 259.3 265.1 273.4 277.1 274.2 274.1 270.4 272.4 278.9 283.2 285.5 287.2 286 284.1 282.6 283.3 287.1 288.8 291 285.9 276.6 263.1 254.1 246.3 240.9 240.1 242.2 241.1 248.5 259 269.4 279.5 286.4 286.6 281.6 276 271.8 267.5 263.6 261 260.2 257.6 253 245.8 234.7 221.2 206.4 184.9 166.6 159.5 149.4 152.2 161.3 166.3 166.1 166.2 168.7 176.9 184 195.5 205.1 215.6 221.3 225.2 222.6 215.8 206.6 201.9 195 186.6 182.1 177.2 168.1 160.1 150.5 139.4 132.8 132.9 131.4 133.5 136.2 136.7 136.5 137.2 136.9 134.9 132.7 125 120.3 114.4 108.6 106.4 104.9 92.5 86.2 81.2 78.8 79.3 85.3 80.3 78.3 72.9 70.4 66.4 66.8 66.3 65 62.8 62.3 63.4 62.1 59.3 59.2 58.7 57.1 57.6 60 59.7 58 57.1 57.1 56.1 54.4 55.4 52.1 50.3 49.4 49.2 49.1 49 49.8 44.8 46.2 46 45.7 45.7 45.8 45.8 45.8 45.7 45.3 45.8 44.6 45.2 44.8 44.5 44.8 44.3
220.5 225.4 224.4 220.8 214 183.8 160.7 142.6 126.2 110 89.3 89.2 95.7 109.6 113.5 121.1 131 142.8 152.1 160.4 165.9 170.7 175.9 181 185.7 189.7 192.6 196.6 201.6 208.3 215.4 224.2 232.1 239.3 244.9 249.7 251.6 251.8 247.5 254.6 266.9 277.8 284.9 283.2 271.8 264.1 257.2 249 239.7 232.4 241.8 253.9 263.3 270.6 275.9 277.9 278 281.3 285.5 283.2 287.8 290.4 294.2 297.6 298.1 296.5 294.9 293.7 296.5 297.6 296.1 289.8 280.1 268.5 260 254.4 253.7 253.3 253 252.9 256.7 260.2 267.1 274.7 281 282.4 277.2 272.8 268.2 264.6 260.7 257.7 255.3 251.7 247.6 241.4 230 216.1 201.8 189 170.8 156 155.8 168.8 176.1 180.5 181.4 180.9 184.7 192.8 202.2 214.3 224.7 236.1 246.7 248.4 242 234.7 223.9 218.7 207.6 194.8 189.3 185.5 177.6 164.2 153.8 145 141.9 140.8 142 143.9 144.9 143.9 143.3 142.3 143.1 141.6 138.6 133.8 125.9 116.5 111 109.9 108.4 100.2 91.7 88.2 86.5 86.8 88.2 87 85.9 81.4 77.7 72.5 71.3 71.2 70.9 68 66 67.1 66.9 65.6 68.3 67 62 60.8 64.3 63.8 62 62.2 60.6 58.2 56.4 54 51.2 49.4 50.2 50.4 50.4 50.2 50.5 48.5 46.1 46.1 46.1 46.1 46.1 46.1 46.4 46.3 45.6 46.2 44.9 44.6 45.5 45.2 45.1 44.5
198.7 204.9 206.9 215.3 210.1 185.4 157.3 137.9 123.1 105.1 90.6 90.2 93 113.9 117.5 124.5 132.7 142.8 153.1 160.9 168.1 175 181.6 186.5 191.6 197.5 202.1 206.2 210.5 216.7 224.1 231.2 239.8 252.3 257.6 262.8 264.7 265.6 260.8 266.9 276.6 285.5 291.5 288.1 279 270.6 264.1 259 250.4 240.9 243.5 256.8 266.5 275.4 281 284.8 287.3 288.6 290.4 290.1 292.6 296.6 301.4 305.1 306 304.9 302.8 301.8 302.2 301.5 297.7 292.6 282.7 272.4 266.6 263.7 262.1 262.7 263 263.1 262.8 264.2 265.6 269.7 269.1 271.1 274.8 268.7 265 261.6 258.8 255.4 252.3 247.6 242.5 235.5 226.3 212.5 199.1 185.6 165.9 159 169.9 183.8 192.6 197.9 199.9 198.5 202.4 210.7 222.5 233.2 241.8 254.7 264.3 264.2 260.5 249.9 234.1 227.3 216.6 201.2 193.4 185.9 174.8 163.3 154.4 149.8 148.8 148.9 156.7 160.2 158.2 148.5 147.5 144.4 142.8 147 148.1 145.8 141.3 132.1 124.8 114.6 111 107.8 99.6 94.8 95.2 95.6 93.2 89.3 89.4 89.9 87.1 76.8 75.5 76.6 74.5 72.7 73.7 73 71.7 73.4 80.5 78.2 70 59.4 64.4 66.8 66.4 65.4 63.9 62.2 59.4 56.6 54.7 51.7 51.6 52.1 52 51.7 51.8 50.2 48.6 46.4 46.3 46.4 46.5 46.5 46.5 46.5 46.2 46 45.5 45.5 45.6 45.7 44.8 44.7
177.3 180.6 185.7 202.1 203.2 180 152.3 133 117.2 100 91.3 91 93 118 122.2 127.1 135.2 143 153.3 162.9 170.6 177.6 184.5 189.6 195.1 203.9 210.1 214 218.4 224.9 232.5 243.1 251.6 260.8 269.2 276.4 279.4 277.8 273.9 278 284.7 291.2 295.4 293.2 287.7 278.5 272.6 268.4 260.1 251.2 245.4 259.5 272 279.7 284.3 289.8 292.3 292.4 293.3 294.8 297.5 302.4 306.8 309.9 310.5 310 307.9 305.6 301.7 298.8 296.1 293.4 285.4 278.5 272.7 269 268.5 272.7 274.9 274.2 271.4 272.6 274.7 276.4 278.8 278 268.4 264.1 253.3 252.8 253.1 254.5 252.3 245.1 238.2 230.9 218.7 205.7 194.5 174.2 161.3 172.9 183.7 198.7 209.9 215.9 217.9 217.6 217.7 228 236.7 243.7 252.3 263.1 273.8 275.1 269.2 258 243.7 232.1 213.7 203.2 193.3 183.8 174.8 163.7 156.4 154.2 153.9 157.7 161.5 158.6 158.4 165 160.9 152.4 147.8 142.6 149.4 152.7 149.3 142.7 134.8 126.4 117.9 114 109 104.9 101.6 101.7 99.9 96.8 94.2 94.5 91.1 83.8 80.1 79.8 75 76.9 81.7 79.3 77.8 79.9 86.4 88.7 80 69.8 58.8 68.7 69.3 69 67.4 65.7 63.6 61.5 59.8 56.9 54.7 53.3 53.4 53.2 53.6 52.6 47.6 46.7 46.5 46.4 46.8 46.7 46.7 45.7 46.7 46.6 46.2 46.2 46.2 46.1 45.6 45.5
151.4 155.9 168.1 182.6 180 164.2 141.2 125.3 109.4 95.5 91.5 91.7 96.3 116.7 128.7 133.2 138.9 144.9 153.1 162.4 171.8 179.2 185.1 191.7 201.2 209.4 216.5 223.4 230.3 237.2 247.6 257.9 265.7 271.3 279.1 287.4 292.2 290.3 287.5 288.1 291.9 297.1 299.6 298.9 294.6 287.5 280.6 278.1 272.5 266.4 260.9 258 273.1 281.9 288.7 293.7 296.3 297.6 298 298.3 301.4 306.8 310.5 313.3 315.5 314.7 311.2 305 298.8 301.3 300.1 298.7 290.4 284.6 278.2 274.1 276.3 282.3 283.2 283.3 279 276.9 277.8 279 280.2 278.4 270 260.5 260.9 255.5 254.9 253.6 248.1 240.3 235 228.1 213.5 201.1 187 167.6 169.4 186.4 199.4 213.3 223.9 229.9 232.2 233 233 238.3 245.5 251.9 259.7 269.1 277.8 281.3 275.8 261.2 244.1 232.6 209.5 200.5 190.3 180.8 171.3 163.4 160.1 160.6 163.5 168.7 175 180.8 184.1 187.6 182.8 172.3 157.2 149.9 143.3 143.5 147.6 145.4 140.2 133.9 126.5 121.4 116 110.9 109.3 108.7 107.6 103.7 101.5 101.5 100 93.6 88.3 86.5 84.7 83.4 89.4 85.8 83.3 83.5 87.3 89.1 85.2 70.2 61 66 70.2 71.3 71.3 70.4 68.6 67.9 66.3 62 58.5 54.8 55 55.2 55.2 49.1 47.7 47.4 46.9 46.8 47.3 47 47 47.2 46.8 47.5 46.6 46.5 46.8 46.6 46.1 45.9
135.9 140.5 149.3 160.1 154.6 142.6 127.1 111.7 99.7 91.7 93.6 93.4 106.9 112.5 135 140.4 145.2 149 155.9 164.8 174.3 182.9 191.4 198.2 207.6 217.3 226.1 234.2 240.5 252.2 263.9 273.4 279.3 284 288 299.1 303.3 302.1 298.5 298.3 301.1 303.3 304.6 304.8 301.3 296.4 287.7 285.3 280.1 273.8 268.8 259.9 273.6 283.3 290 296.1 299.5 301.4 301.6 300.7 301.9 308.7 310.9 314.2 313.3 308.5 306.3 312.7 315.5 312.6 306.7 302.5 296.6 291.6 284.5 280.6 284 289.3 290.6 291 287.5 281.5 281.8 282.4 284.6 280.6 270.7 262.4 259.5 255 253.4 253.2 251.9 243.8 234.9 223.4 206.6 191.7 174 174.8 185.4 198.7 211.3 225.3 235.1 241 243.8 243.6 243.9 247.8 253.3 257.7 264.2 271.8 278.4 280.8 272.2 258.6 239.9 227 212.5 197.9 185.7 176.8 170 166.3 168.1 170.2 174.9 179.1 182.9 198.8 204.9 211.2 204.6 192.2 173.6 156.9 153.7 148.1 139.3 139.8 141.5 138.2 133 128.5 123.9 117.8 115.3 115.5 114.2 111.4 111.4 109.2 108.3 105.8 97.8 87.8 87.7 86.4 87.3 86.3 86.4 85.8 79.5 81 80.7 71.8 66.4 61.7 71.3 74.6 75.4 74.9 73.3 71.8 69.8 64.4 58.4 56.6 57.5 56.8 55.5 47.3 47.6 49 47.7 47.9 47.6 47.6 46.6 47.5 47 46.6 47.6 47.5 47.5 47.2 46.7 46.4
128.1 132.2 136.9 139.2 134.2 120 109.7 97.3 91.9 94.4 94.3 94.8 104.3 128.9 140.8 147.8 151.3 155.2 161.5 168.6 178.4 189 198.6 206.8 218.7 231.4 238.5 248 258.7 268.8 277.3 288.1 294.8 298.6 301.3 308.6 312.9 312.2 309 309.5 312 314 313.6 313 309.2 303.7 295.8 292.3 285 279.5 275.1 271.6 273 282.4 288.8 295 299.1 301 302.7 303.6 306.4 307.1 308.5 310.9 317.4 319.9 323.2 326.2 323.1 319.6 312.3 305.9 301.5 295.4 290.4 287.9 290.2 292.6 294.1 294.5 289.5 286.6 285.3 287.1 286.8 280 268.9 260.2 254.5 252.4 251 249.6 248.5 237 220.6 205.4 195.2 175.6 175.8 189.5 197.4 207.9 221.5 236 245.4 251.5 253.1 252.9 250.6 254.2 258.2 261.5 265.9 268 270.7 273.9 266.1 252.7 234.8 217.9 205.3 196.6 185.4 176.9 171.9 171.8 175.6 180.7 186.7 188.3 200.7 215.8 223.7 229 224.7 214 191 176.3 167.3 154.1 148.7 135.9 137.2 137 135.5 134.6 130.2 124.6 122.2 120.6 120.4 118.2 115 115.9 117.5 115.1 107.1 95.6 91.7 86.7 86.7 87.7 87.9 88.3 83.7 81 75.4 72.5 71.6 71.8 64.2 76.2 80 79.5 77.8 74.9 68 63.2 58.6 58.5 58.9 58.3 57.5 55.1 47.7 48.4 49 48.3 48.5 47.2 47.9 47.6 47.5 48.4 47.1 47.6 48.1 47.8 47.6 47.3
110.4 118.2 121.5 121.3 115.6 100 95.7 95.7 95.2 95.5 98.6 107.1 126.8 136.3 145.5 151.4 154.6 159.3 166 175.3 186.3 198.5 207.8 219.6 230.7 245.8 257.8 268.4 279 286.6 297.7 305.1 310.3 312.8 314.2 316.5 322 321.4 318.7 320.7 323.7 324.4 324.3 323.4 320.6 314.8 306.5 301.5 294.4 285.5 281.4 277.3 278.5 280.3 287.7 293.4 298.3 300.9 304 306.6 308.9 312.8 315 317 323.4 327.8 330 330.9 329.3 322.7 315 309.8 304 298.8 295.8 294.8 294 296.5 299.7 300.9 293.9 290.5 288.3 286.5 284.9 277.1 265.8 255.2 249.7 246.2 243.9 239.2 228 211.9 198.2 183.9 182.3 186.8 194.2 205.3 213.2 220.6 232.3 243 250.9 256.2 259.2 257.6 254.6 259.2 262.7 266.7 268 242.8 240.5 243.7 237.6 226.3 211.9 207 202.9 195.7 185.1 179.4 177.7 180.6 188.4 193.1 199.1 210.8 219.1 227.9 239.8 244 238.3 225.8 212.6 199.4 182.9 174.6 161.6 147.9 143.6 131.8 130.7 135 133.3 130 128.1 124.3 122.6 121.7 120.4 120.1 122.3 120.8 112.1 105 96.9 96.5 92.4 88.9 86.2 86.6 83.9 80.6 76.4 74.4 70.5 67.3 67.1 75.3 79.4 81.6 80.1 76.4 67.9 62.5 59.7 60.4 59.8 58.8 58.1 56.8 52.3 49.9 51 48.5 48.2 45.6 49 48.3 47.8 48 47.6 48 48.4 48.7 49 48.6
106.3 104.1 104 99.2 106.5 110.7 110.3 98.3 112.9 124.6 127.6 132.7 139.2 145 146.5 152.7 157.8 162 172.7 183.8 195.6 208.9 223.9 237.7 249.2 261.8 277.6 288.7 298.2 306.3 316.5 322.1 324.9 324.3 326 327.1 331.2 330.1 328.3 333.8 339 337.5 336.9 334 331.8 328.6 320.4 312.1 305.5 292.5 286.2 284.4 285.2 287.3 287.9 293.3 296.6 301.9 305.5 308.3 311.9 315.2 318.6 323.8 328.6 332.5 335.1 335.3 333 326.1 316.9 314.3 308 302.9 299.7 297.6 295.2 298.4 303.1 303.7 296.2 291.8 286.8 283.1 279 271.4 260 249.8 241 237 227.8 212.4 200.8 190.5 193.9 197.2 197.3 205.6 214.9 219.9 224.7 230.7 239.9 248 254 258.9 261.5 262.6 255.1 260.9 264.2 267.5 268.6 246.6 228.5 232.7 234.3 225.1 212.2 197.9 196.6 192 190.2 187.3 187.5 196 204.6 210.1 214.8 224.6 232.3 243.4 251.7 256.1 249 241.3 233.4 221.2 204.7 183.6 173.4 158.5 147.2 142.8 135.8 133.2 128.5 129.4 130.6 128.1 127.7 125.8 123 124.9 124.2 119.7 115.3 112.7 105.6 99.5 98.8 97 86.2 85 82.9 80 77.9 74.7 69 75.3 74.5 72.6 74.9 80.6 80.2 76 65.9 61.3 65.7 72.4 70.5 66.5 60.4 60 58.2 50.4 51.4 48.5 49.1 46.3 48.5 49.1 48.1 48.1 48.6 48.7 49 49 49.3 49.5
105.1 105.3 105.8 117.8 120.6 121.2 122.7 122.4 122.8 127.2 131.6 138 142.7 147.8 151.4 153.9 157.9 167.5 181.6 193 205.7 221.1 237.8 257.3 270.3 281.6 297.8 309.8 320.7 327.4 334.1 339.4 341.4 338.5 338.6 338.1 341.5 341.7 339.6 346 350.9 352 350.5 345.3 344.3 341.3 333.2 322.8 315.3 302.3 294.6 290.8 291.5 292.8 293.9 296.1 300.1 303.7 307.1 310.6 314 318.3 322.9 327.6 331.6 335.7 339.4 338.2 337.5 330.1 321.3 317.8 311.3 307.6 303.4 300.1 295.8 297.7 300.1 300.4 294.3 289.3 282.2 275.6 270.3 263.2 253.3 244 234.5 225.8 208 201.3 211.8 212.3 211.9 215.2 219.5 224.4 229.3 232.2 235.6 240.7 247 253.9 258.7 259.2 262.1 266.3 267.5 263.4 256.7 253 259.5 245.7 254.6 253.6 250.2 239.5 226.1 213.4 207.6 205.5 201.7 200.8 199.8 209.1 218.1 224.4 228.2 236.1 242.1 249.8 266.4 270.5 265.7 261.1 252.3 235.8 212.4 199.5 181 165.3 149.8 144.8 146.1 140.9 136.6 130.9 129.2 126.5 127.9 126.4 125.9 127.7 128.7 128.5 120.3 115.2 112.4 105.3 99.7 96.8 94.3 89.6 84.8 81.1 79.8 75.8 72.2 72 74.6 72.1 72.4 68.6 66.1 65.1 63 74.9 77.1 75.2 71.9 67.2 67.7 67.2 64.2 60.2 50.7 51.7 49.3 47.3 49.5 49.6 48.5 49.2 48.7 49.3 49.4 49.4 49.6 49.7
118.7 121 121.3 122 124.2 125.2 125.6 125.7 126.7 129.7 134.2 138.1 144.9 150.6 155.4 157.7 164 175.8 189.3 202 220.6 237.7 255.6 275.1 289.7 305.2 319.8 331.8 342.6 349 353.3 357.8 357.8 352.5 351.2 350 352.3 353 351.6 356.6 360.5 364.1 363.8 358.3 354.9 351.1 343 334 323.5 313.9 306.3 300.4 297.9 298.6 298.7 300.1 302.5 306.1 309.8 313.6 316.9 321.4 326.6 329.8 334.1 338.5 341.6 341.9 339.4 334.7 329.2 322.4 316.4 311.7 307.1 301.7 297.1 294.1 294.2 292.6 288.8 283.1 274.1 266.7 261.4 256 247.6 237.8 226.2 210.9 213.2 220.1 225.5 227.2 227.1 231 236.3 237.4 241.4 245 248.6 252.1 258.9 264.2 267.7 271.4 271.9 273.3 273.1 269 267.4 264 261.1 257.9 262 258.6 254.2 243.7 235.8 227 224.4 220.5 216.3 213.9 216.1 222 228.7 234.7 238.5 245 253.5 264.1 272.7 277.9 280.5 273.3 263.1 248.8 230.8 213.9 185.9 165.2 155.7 146.8 149.9 148.7 141.7 136.6 136.1 133.2 135.4 136.5 137.7 137.8 138.2 133.3 125.9 118 114.3 109 102.4 99.1 97.3 93.3 88.6 88.5 87 81.2 77.6 74.8 74.7 74.5 86.9 83.7 82.4 80.5 79.6 79 78.8 74.7 73.2 73.4 72.3 71 67.2 64.3 50.6 50.7 49.8 49.2 49.4 49.9 49.4 49.4 49.4 49.6 49.6 49.8 50 50
122.3 124.8 125.7 125.6 126.9 128.4 128.7 130 131.2 134 138.8 143.1 147.8 150.1 155.7 164 170.7 185.2 200.9 215.3 234.5 254.9 274.2 292.2 309.5 324.3 339 351 362.8 369.6 373.1 375 373.4 368 365.2 362.8 362.6 363.3 365 367.4 371.1 377.4 376 368.1 364.9 359.5 351.9 342.7 331.8 324.1 318.6 312.5 306.8 307.1 305 305.2 308.6 311.5 313.7 317.1 320.6 323.7 328.8 332.7 336.2 340.8 342.8 342.8 340.2 335.5 330.3 324.4 317.8 314 309.1 301.5 298.3 292.6 284.7 278.6 275.8 270.2 266.9 259.9 254.5 249.2 238.4 226.4 211 221.8 226.5 230.9 235.1 238.9 240.3 243.6 247.2 249.7 253.5 258.4 262.2 264.2 268.5 274.3 278.3 281.5 282.9 283.4 283.1 284 289.7 293.9 293.6 288.1 277.7 265.4 257.5 251.3 243.4 238.5 235.9 232.2 227.1 225.4 224.9 228 237 242.2 245.3 251.9 263.4 269.9 274.5 281.9 285.4 277.9 268.8 255.5 238.1 224.3 202.3 177.9 162.1 152.3 147.4 148.9 144.7 138 136.2 135.3 137.8 140.8 143.1 145.9 146.6 138.6 131.4 122.9 116.8 114 107.8 99 100 98.1 94.1 90.7 88.6 86.6 81.9 77.9 76.1 84.4 90.6 91.8 90.4 85.5 80.2 81.7 80.9 77.9 76.6 76 74.5 73 69.7 66.1 54.1 50.7 47.4 50.2 50.5 50 50.2 50 49.7 49.8 50 50.2 50.4 50.4
126.2 129.4 130.5 130.7 132.1 133.7 133.9 135.9 137.8 141.3 145.3 149.1 154.3 159.4 162.5 167.6 174.1 191.6 209.8 227.3 246.7 269.6 290.9 307.8 326.8 341.5 357.8 370.9 382 389.7 390 390.5 385.6 380.7 377.3 374.2 373 376 376.7 376.4 379 383.3 385.7 381.5 374.7 366.2 358.9 349.8 339.9 331.7 326.5 322.3 319.5 316.6 314.2 313.4 314.6 315.7 317.9 319.9 322.2 325.5 330.9 334.9 339.2 341.9 343.9 344.1 339.4 337.7 330.6 322.8 317 315.1 311.2 302 297.1 293.1 281 277 272.7 267.4 259.7 255.6 248.7 236.8 226.4 218.6 226.9 233.3 237.7 242 245.4 247.2 250.4 254.2 260.9 266.7 270.8 273.8 273.7 274.9 279.4 282.9 285.1 288 289.3 289.4 290.3 292.5 300.9 305.6 304 298.6 289.5 275 263.7 260 254.9 249.5 247.7 244.6 240 235.2 234 227.3 244.4 248 251.9 258.1 267.3 273.3 278.4 288.7 296.6 284.6 272 260.1 245.4 230 210.8 188.8 166 159.3 151.1 142 140.6 140.1 135.3 135.6 133.4 143 146.9 147.1 142.4 137.5 133.4 128.3 122.1 117.2 113.5 107 104.8 100.9 96.3 91.2 88 85.6 83.9 77.9 78.3 84.8 89.8 90 88.2 83.3 83 82.8 82.8 81.4 80.8 78.6 76.1 75.4 72.8 69.1 59.7 50.3 48 51.2 50.5 50.2 50 50 50.1 50 50.3 50.6 50.9 50.7
130.2 131.3 133.7 136.7 139.4 139.7 140.1 142.1 146.4 152.3 155.1 158.4 161.8 170.3 176.9 178.9 184.9 193.3 208.9 229.9 254.6 281.2 303.8 321.8 340.6 358.6 376 389.4 401.2 408.8 408.6 405.1 400.3 395.1 387.8 385.5 385.2 388.5 387.8 386.1 386.2 387.8 389.8 386.8 380.6 372.6 364.8 356.2 348.8 337.9 335.8 333.5 329.7 326.8 324.2 321.8 321.3 320.9 322.1 323.8 325.7 328.2 333.2 337.4 340.7 344.2 346.8 347.1 343.3 338.1 332.6 326.4 320.9 316.1 309.5 301.2 294.7 289.5 280.4 275.4 270.5 262.9 254.9 246.9 237.6 224.5 221.2 233.4 237.9 242.2 246.5 251.2 253.8 257.4 261.2 269.1 277.2 284.1 288 287 285.2 287.3 287.3 289.3 290.7 293.3 295.2 297.2 298.5 302.4 308.1 314.2 313.1 305.9 296 282.2 271.9 266.4 262.5 258.6 255.5 253.6 248.8 245.2 244.3 238.6 235.4 233.7 243.2 252.3 258.6 272.3 277.7 288 292.9 283.4 271.8 260.4 249 232.9 218.4 195.4 177.4 155.6 153.3 151.1 148.4 143.9 136.3 134.2 136.2 141.4 144.8 141.9 138.6 135.7 134 132.6 126.2 120 115.7 112.6 108.4 107.9 105.6 98.3 90.7 87.3 87.9 85.5 80.6 86.8 91.5 93.4 91.5 88.6 85.3 82.9 82.6 82.3 84.5 82.7 82.3 82.6 75.1 70.8 64.8 51.6 51.4 51.2 51.2 50.8 50.3 50.3 50.6 50.2 50.3 51.1 51.6 51.7
133.4 134 138 142.8 146.5 148.2 149.7 151.8 155.1 159.9 165.2 168.7 174.8 182.5 187.9 190.8 192.9 189.4 204.1 229.1 256.4 284 311.1 333.4 352.7 371.3 387.9 402.9 419.4 428.7 425.7 418.5 411 404.6 399.7 396.4 395.8 396.4 394.4 392.9 392.2 391.6 392.4 389.5 384.8 379.1 372.3 364.1 357.2 350.9 348.5 344.8 338.5 334.5 331.3 329.2 327.5 325.7 325.3 327.1 328.8 331.1 335.4 339.3 342.3 346.9 350.3 349.1 346.1 341.2 336 329.5 320.9 316.1 307.8 300.2 292.9 287.3 279.5 272.9 264.8 256.9 248.9 240.7 228.2 234 238.6 243 247.7 251.3 255.6 259.9 263.6 268.3 271.9 283.7 291.4 298.4 301.4 299.4 296.2 296.4 293.4 293.5 293.9 295.8 298.7 301.1 304 307.4 313.6 318.4 316.4 309.4 300.6 289.5 278.1 273 268.8 265.7 263.2 259.3 254.5 252.9 250.4 250.7 244.5 250 244.9 239.8 235.6 243.8 251.5 272.5 282.8 277.3 269 258.7 247.9 232.7 219.8 197.4 179 159.4 158.6 156.8 154.8 151.6 146.1 135.1 131.6 135.2 138 134.8 132.2 130.9 129.4 132.4 125.8 118.4 115.8 114.1 112.3 109.4 109.2 104.6 96.1 90.9 90.6 84.5 82.4 86.3 95.2 99.3 98.2 93.1 91.1 85.8 80.9 79.6 84.3 85 84 80.9 73.7 62.1 53.3 51.9 51.4 51.6 51.8 51.5 50.8 51.1 51.3 51.6 51.6 52 52.2 52.7
137.8 138.8 141.2 145.9 151.9 156.3 158.5 160.5 163.3 171 176.4 182.2 188.6 193.5 201.1 204.1 205.2 199.5 198.2 221 250.6 281.6 311.2 338.1 358.2 380.2 397.2 412.9 430 437.3 436.8 434 421.7 414.4 407.6 404 400.8 400 400.1 399.4 397.3 395.4 394.4 393 388.7 384.6 379.8 375.5 370.5 363.7 360.2 355.3 348.5 343.5 339.5 335.5 333.1 331 329.4 329.1 330.9 333.1 336.6 340.3 344.2 349.2 351.6 349.6 346.3 341.2 335.5 328.2 321.2 314.5 306.2 299.3 292.7 285.6 277.5 269.4 261.5 254.6 246.2 234.2 241.7 243.7 245.8 251.4 255.9 260 264.8 269.3 274.8 280.9 288.1 296.4 303.6 309.8 309.7 306.9 305 303.5 301.5 295.2 284.9 292.9 298.7 301.6 305.2 309.9 314.8 318.5 317.2 310.5 303 293.9 283.7 279.1 274.6 271.8 268.3 263.6 261.7 261.1 260.6 261.7 263.4 268.1 272 270.4 261.3 258.6 241.7 246.5 271.1 266.4 257.3 251.2 242.5 229.2 215.4 199.2 187.7 171.7 162.2 160.7 158.9 155 151.1 141.6 135.5 130.5 130.6 127.9 125.6 124.4 124.4 122.5 120.9 118.4 116.7 115.9 115.7 111 108 105.7 104.6 101.1 91.6 86 91.4 92.7 92.3 95.3 94.7 93.7 92.1 85.3 81 78.5 77.8 80.8 81 76.8 69.3 64 54.6 52.6 49.3 51.9 52.2 51.4 51 51 51.6 51.2 51.5 52.1 52.4 53.2
144.7 145.1 149.4 153.1 158.7 163.4 165.8 169.3 173.7 181.3 188.9 194.9 202.8 209.2 212.7 219.6 220.3 206.4 200 211.6 242.2 274.5 307.6 336.4 359.9 380.4 397.6 413.3 430.4 434.7 436.4 435.3 428.6 420.4 413.2 409.6 405 404.3 403.8 402.7 401.5 398.8 397.8 395.3 392 389.4 387.1 383.1 378.7 373.8 368.4 363.2 357.3 352.5 346.1 341.8 337.7 334.7 331.9 331.2 331.1 332.7 336.4 340 344.1 347.7 350.1 347.4 344 339.4 333.1 326.4 319.1 312.2 304.3 297.5 291.4 284 275.6 267.6 259.4 253.2 241.4 247 249.2 252.2 255.9 260.7 264.7 269 273.8 279 285.1 291.3 299.4 305 310.6 315 313.9 310.8 308.8 306.8 304.3 299.3 294.9 276.7 295.8 300.1 304 309.4 314.6 317.5 317.2 313.3 306.1 298 290.2 284.8 280.3 277 273.2 269.7 269.2 269.8 269.3 269.6 272 275.2 277.7 279.9 282.7 279.3 264.6 247.1 238.8 240.1 245.9 241.3 233 221 207.4 195.3 186.8 176.4 167.8 164.2 163.3 158.2 154.1 149.6 145.6 141.7 136.5 136.7 136.2 132.5 128.2 125.8 126.8 125.2 122.5 118.2 117 116.6 114.5 110.6 110.6 95.9 88.9 95.9 98.9 95.7 91.4 91 89.1 89.7 89.2 86.3 81.8 79.1 79.5 78.6 78.4 76.6 69 69.1 63.3 52.2 52 52.9 52.6 52.4 51.9 51.4 51.8 51.7 51.9 52.3 53.3 53.3
155.1 157.9 159.5 161.1 165.7 170.9 177.4 184.4 190.6 195.2 200.9 208.4 218 224.7 226.6 230.8 232.6 218.4 208.8 207.7 231.3 264.7 296.3 329.3 355.9 377.2 391.9 404.6 415.2 424.2 424.6 426.4 425.7 422 417.2 411.1 411.3 410.5 408.5 406.7 404.6 402.6 399.8 397.9 395.5 393 390.9 387.6 383.7 378 373.8 368.3 362.5 355.5 350.4 345.3 341 336.9 334 332.4 331.8 331.6 335.2 338.8 341.8 344.9 346.4 343.7 340.6 335.8 329.7 322.6 315.1 308.7 302 295.3 288.8 281.8 274.9 267.7 259.2 245.3 251.8 253.7 256.4 260.4 264.6 270.4 275.7 277.5 283.3 289.6 294.5 300 305 309.6 313.5 316.2 314.7 311.8 309.7 307.5 304.8 299.4 296 273.5 294.1 297.7 302.1 307 311.5 314.5 315.4 314.1 308.5 301.1 293.7 288.3 284.5 281.5 278.5 275.9 274.9 275.4 275.8 276.9 278.7 280.5 283.4 290.2 289.7 283.6 274.1 267.3 251.6 231.4 221 231.9 218.4 204.2 189.3 178.2 175.3 174.3 171.3 167.7 160.4 160.9 157 154.1 144.7 138.8 144 144.5 144.4 141.5 138.9 138.4 138.1 136.9 130.8 123.6 117.9 115.1 104.5 101.5 100.7 111 110.5 108.7 104.6 104.3 102 100.7 102.1 99.6 97.3 93 84.4 83.8 84 80.1 79.1 75.5 73.9 74.4 65.1 52.5 52.5 53.2 52.8 52.5 52.1 52 52 52.2 52.5 52.7 53.1 53.3
166.6 169 171.2 173.2 176.6 182.4 190.1 196.8 204.8 212.9 219.6 228.3 235.5 239.5 241.5 245 247.3 236.2 221 213.6 226.7 253.5 286.7 321.4 349.3 369 381.9 392.6 403.3 411.5 417.6 421 422.7 421.2 419 418.8 417.5 416.4 414.3 412.1 409.3 405.6 402.1 400.1 397 394.5 392.4 389.3 385.4 380.4 376.6 371.6 365.3 357.4 352.2 347.4 343.4 339.7 335.8 334 332.7 330.9 332 335.9 338 340.6 341.8 338.7 335.3 331.1 324.5 317.8 310.7 304.8 299.1 292.8 286.8 279.5 273.5 266.3 257.8 257 258.1 261 263.8 268.2 274.8 281.5 285 288.7 292.4 297.8 300.9 305.2 308.3 311.4 313.6 314.6 312.7 310.6 308.5 306.1 303.3 298 294.9 273.3 289.3 294.4 298.5 302.8 307.9 311 313.2 313 308.8 303.3 296.9 291.2 288.7 285.4 282.5 281.1 280.6 280.6 281.4 283.2 284.1 285.3 287.7 290.2 288.6 281.8 276 271.3 264.7 256.8 247.1 221.6 205.1 210.4 202 189.4 178.7 172.8 171 169.7 164.2 158.3 154.6 147.2 142.4 148.5 153.1 153.9 152.7 151 150.8 147.8 144.8 141 134.1 125.2 121.1 120 113.5 117.5 120.9 122.4 116.7 111.1 108.4 107.4 108.8 106.8 107.4 105.6 99.4 99.8 95.3 89.7 86.9 85.6 83.5 77.1 77 74.9 70.3 53.4 53.1 50.9 53.2 53.5 53.1 52.7 52.6 52.9 53.1 53.4 53.1 53.2
178.2 180.7 184.2 186.7 190.5 196.3 203.3 211.3 221.3 229.3 239.8 250.8 260.2 259 257.7 260 261.5 256.5 239.1 228.1 226.4 247.4 276.9 307.2 336.9 356.6 372.6 383 394.7 404.9 412.6 418.1 422.8 425.4 425.6 425.9 424.1 422.2 420.1 417.6 414.5 410 405.2 401.8 398.4 395.8 393.4 389.6 386.5 381.5 377.5 372.6 366 358.8 353.1 349.3 345.6 341.3 337.2 334.5 332 331.2 329 331.3 334.4 336.6 337.5 335.7 330.8 324.1 318.9 312.2 306 300.9 295.6 291 284.6 278.3 271.6 265 261.7 263.6 265.8 269.1 272.6 278.7 286 291.4 295.4 297.1 301.2 304.5 306.7 308.7 310.1 311.7 312.8 312.3 309.9 308.3 306.5 304 300.6 296.1 293.1 271.3 286.1 290.8 294.3 298.4 302.5 307.1 310.7 311.4 308 304 299.4 293.8 291.5 287.8 285.2 284.3 283.7 284 284.8 286.6 287.7 287.8 289 288.8 286.4 281.2 277.1 272.5 268.9 263.7 255.4 241.4 227.1 203.1 200.6 188.6 180.2 177 173.2 169.3 167.5 163.9 161.1 151.7 156.1 159.1 161.6 161.6 159.5 161.8 162.2 156.4 150.9 143.9 135 128.5 129.9 127.7 117 132 134.7 131.2 122.6 118 112.5 118.1 114.5 111.5 110.8 109.7 104.6 100.8 100.4 94.4 93.1 88.9 87.9 83.1 77.1 74.6 66.1 55 53.9 52.9 54.2 54 53.7 53.3 53.2 53.6 53.9 53.9 53.6 53.7
190.4 193.5 198.3 201.6 204.1 210.8 219.9 227.8 237.5 247 262.7 271.7 281.1 285.7 284.1 279.2 277.2 276.7 260.4 248.1 237.1 250.1 265.4 286.3 314.8 341.5 363.1 379.2 391.7 401.4 410 417.8 423.4 427.5 429.9 430.5 429 427.1 425.4 421.8 418.8 413.8 408 403.1 399.4 396.7 394.1 390.3 386.6 382.9 377.8 372.9 366.3 358.2 351.9 348.6 345.1 341.5 337.4 334.4 331.8 330.1 328.1 327 328.6 331.2 331.6 329.1 325 318.3 312.3 307.4 302.9 298.7 294.7 289.5 283.2 276.7 270.1 267.3 269 271 273.4 278.2 283.9 289.2 296.4 301 303.3 304.5 306.3 308.3 309.9 310 309.3 310.8 311.5 309.4 307.2 305.7 304.4 302 297.8 293.6 290.2 276.7 275.7 282.3 288.8 293 296.6 302.8 308 309.4 306.7 303.3 299.2 294.8 291.7 289.5 287.9 287.2 286.8 286.4 285.6 287.9 288.1 287.8 287 286.2 281.8 279.9 277.5 274.5 270.3 264.8 257.1 244.7 233.1 224.1 213.4 203.1 195.3 186.9 178.9 173.4 169 166.7 161.7 159.8 166.2 168.3 168.6 167.8 165.6 170.9 169.4 164.4 153.4 146.2 138.1 141 137.4 142.9 132 135.3 138.2 136.9 125.6 119 117.2 118.1 117.1 115.2 114.2 113 110 108 102.9 97.1 92.9 92.5 90.6 85.8 81.2 78.9 70.5 62.6 57.3 52.4 54.5 54.4 54.3 54 54.1 53.8 54.1 54.9 54.7 54.8
207.3 209.9 215.2 217.2 219.5 226.3 235.5 246.8 258.8 273.1 285.1 294.4 306 312.7 309.2 305.6 301.1 292.6 279.1 266.5 250.7 263.2 288 311.1 332.6 350.9 367.3 379.7 389.7 403 412.6 419.4 427.2 431.1 433 433.5 433.2 432.7 430.2 426.3 422.1 417.4 408.6 403.3 399.1 396 393.1 389.5 386 382 376.7 371.9 366.4 360.1 351.9 348.1 344.6 341.5 337.6 334.1 331.6 329.2 327.6 325.9 323.9 322.4 321.8 322.6 318.5 312.4 308.2 305.6 301.5 298 293.1 287.9 281.9 276.2 270.1 274 276.4 278.1 280.9 287.6 293.8 299.3 304.2 308.7 309.5 310.4 310.8 311.1 311.4 309.6 308.6 309 309 307 304.2 302.9 301.5 299.3 295 290.6 288.3 282.8 263.7 272.9 278.7 287.1 292.5 298 304.6 306.2 304.8 300.4 297.2 293.1 290.9 289.5 288.7 288.9 289.1 289.1 286.6 286.1 286.8 285.7 283.9 281.9 279.8 277.8 276.6 274.1 271.3 266.3 258.5 251.7 242.1 232 223.1 213.5 204.9 196.8 190.5 179.6 173.1 168.7 165 165.8 172.6 174.7 175 173.1 175.5 179.4 173.9 166.3 156.6 151.2 148.4 147.1 145 146.6 132.9 138.7 135.1 133.7 128.9 121.7 120 119.6 118.2 118.9 119.5 118.2 117 113.9 111.8 106.4 98.3 95.1 91.8 89.5 85.7 82.6 75.8 59.7 54.5 55.2 54.6 54.8 55.4 55.2 54.5 54.3 54.6 55.1 55.1 55.8
226.5 230.2 236 236.6 238.1 244.2 256 266.7 278.9 293.3 306 318.2 330.3 337.4 334.2 325.3 320.5 312.1 298.9 285.7 274.9 272.8 302.3 325.6 344 360.5 373.4 387.1 397.5 406.5 415.9 424.3 430.8 433.8 435.9 436.8 436.2 435.6 433.3 429.2 425.1 418 407.9 402.4 397.4 393.1 390.1 386.8 382.8 378.7 374.5 369.5 364.6 360 353.8 349.5 345.6 342.7 338.9 335 331.8 329.5 327.8 325.2 322.4 319.9 315 312.1 312.5 309.3 305.8 303.3 300.5 296.8 292.1 287.3 281.8 273.9 277.1 278.9 281.2 283.4 288.4 296.1 301.6 307.7 312.3 314 313.1 313 312.8 312.1 310.8 308.6 306.3 304.6 305.7 303.1 300.5 299.8 298.6 295.8 291.3 286.8 284.7 281.6 265.9 258.9 272.4 283.8 288.4 292.5 300.1 302.6 300.8 296.4 293.2 289.6 287.7 287.4 287.8 288.3 289.2 289.3 287.9 280 284.6 283.2 279.5 277 275.7 274.7 274.5 273.1 270.8 267.4 262.5 254.5 245.5 238.9 232.1 224 213 203.8 198.7 188.2 176.9 171.8 169.5 171.7 177.4 180.6 180.9 179.4 172.3 176.1 173 164.9 154.6 150.9 149.1 148 142.9 136.7 145.4 146.4 141.2 138 136.1 127.2 126.2 128.7 130.5 130.7 129 127.5 124.3 122 116.1 114.4 111.7 101.9 96.9 95.3 89.2 82.3 77.3 57.5 54.9 52.1 55 55.7 56 55.6 55 55 55.2 55.5 55.7 56.2
243.9 250.4 254.4 257.5 261.1 267.1 277 287.7 300 314.1 328 340.4 353.4 358.6 360.5 351.6 342.9 334.4 322.6 310.6 299.6 289.5 317.7 338.2 356.7 372.7 384 397.1 406.7 414.9 422.7 428.1 433 435.2 436.6 436.5 435.4 433.8 431.5 427.8 422.1 416 405.4 400 394.3 389.3 385.3 381.3 377.2 373.2 369.3 365.3 361.8 357.4 353.2 349.3 345 342 338.8 335.4 332.5 329.7 327.8 325.9 322.4 320 313.1 311.8 307.4 306.2 304.6 302.9 299.6 295.6 291.7 287.4 283 276.8 280.6 283.3 286 290.4 297.1 304.6 309.9 313.6 315.6 316.8 314.6 312.7 312.4 311.5 308.6 304.9 303.6 301 298.7 298.3 296.1 295.9 294.6 290.7 285.7 283.3 281.4 277.6 260.7 250.6 268.4 277.3 283 288.6 295.7 298.4 296.1 292.3 288.9 284.7 282.6 283.1 283.5 284.7 285.5 286.5 286.4 284.8 277 277.7 274.3 271.7 270.5 270.2 271.4 271.1 270.7 269.5 265.3 258.1 249.3 244.6 239.2 231 219.6 209 203.7 194.5 183.8 177.2 176.4 180.1 183.4 185.1 186.3 183.5 176.6 170.1 166.2 159.2 151.4 148.5 143.2 140.3 139.4 147.3 153.5 147.7 144.9 141.2 136.8 130.7 133.6 137.2 140.4 140.9 139.2 136.6 133.2 130.1 125.7 119.8 114.3 110.7 106.3 95.4 90.2 87.8 84 55.5 55.2 55.2 55.2 55.9 56.3 55.8 55.4 55.3 56.1 56.4 56.3 56.6
263.3 270.1 278.2 279.1 279.3 285.9 296 309.7 322.2 333.5 346.2 362.5 376.2 383.1 383.9 378.9 370.8 359.5 348.6 335.4 322.9 304.9 330.5 350.9 371.3 384.6 394.8 405.9 416.4 423.7 428.7 431.7 433.5 435 435.1 433.9 431.4 429.1 426 422.1 417.4 410 400.8 395.1 389.1 383.7 379.8 375.7 371.6 367.7 363.5 359.9 356.8 353.8 350.9 347.9 344.2 341.6 338.5 335.9 333.1 329.9 327.4 325.3 322.6 319.7 315.8 311.8 307.7 304.5 303 300.8 298 294.6 291.2 287.5 282.1 282.7 284.5 287.1 290.2 296.5 303.3 308.9 313.7 316.5 317.1 316.4 315.5 312.5 306.3 309.5 306.3 302.3 298.2 297.3 294 289.9 289.7 290.4 289.1 285.5 282.6 280.4 278.3 275.2 271 254.4 255.8 270.3 274.4 282.4 288.2 294.7 293.1 287.8 283.9 279.2 277 276 276.7 277.5 280 281.6 282.3 281.6 275.8 266.9 266.8 265.1 264.9 264.9 266.4 269.1 272 272.4 268.2 261.3 255 248.6 243.3 237.1 224.2 212.6 205.8 196.9 191.4 187.1 184.4 188.6 188.9 190.5 192.2 193.5 188 182.9 176.2 166 155.7 146.5 142.9 141.2 147.6 156.1 159 156.9 148.7 139.8 137.7 136.9 140.7 146 149.3 150.9 149.4 147.2 144.3 138.7 133.4 127.5 120.5 112 109.7 102.1 97.3 93.8 77.2 55.9 55.3 55.6 54.8 56.1 56.6 56.3 55.9 56.1 56.8 57 57.1 56.9
284.6 292.4 297.7 297.7 299.9 303.9 313.8 327.1 340.1 351.4 365.8 382 396 402.2 403.8 400.1 394.1 383.3 372.3 359.1 346 331.4 343.1 364.9 381.2 395.1 407.4 419.1 426.6 431.2 433.9 433.7 432.9 432.1 431.7 427 423.6 421.2 417.9 412.8 406.9 400.8 394.2 389.2 384 379.1 374.5 370.3 366.7 362.7 359.1 355.7 352.2 349.7 347.8 346.5 344.5 342 339 336.3 333.4 330 327.4 324.9 321.8 319.3 315.4 310.6 307.5 304.8 302.3 297.9 294.8 291.5 288.8 287.3 284.9 286.4 288.3 290.2 294 299.7 305.4 310 314.1 315.8 315.4 313.3 312 310.1 307.3 306.2 302.2 299.7 296.3 293.9 290.8 283.5 281.9 283 283.3 282.6 280.3 278.3 275.8 272.8 268.7 254.8 251.9 270 267.9 275 281.5 288.7 287.7 283.3 279.8 273.4 270.7 269 268.2 267.2 271.6 275 277.2 275.2 269.5 263.5 259.2 258.2 258.2 259.4 258 265.8 272.1 274.8 272.3 266.8 261.6 253 243.6 236.6 225.8 215.8 206.3 202.2 196.2 193.1 190.5 189.1 189.3 196.4 199.4 200.6 196.6 188.7 177.4 161.8 152.2 145 143.2 145 156.7 165.4 167.2 166.6 159.7 148.1 145.3 134.9 147.8 156.2 159.5 160.7 159.8 157.7 153.9 149.7 145 135.8 126 115.1 109.6 105 105.4 105.7 85.7 58.5 55.9 56.1 53.2 56 56.4 57 56.7 57 57.4 57.5 57.6 57.6
305.5 313.4 315.1 315.7 318.9 326.5 334.3 344.6 356.4 370.5 385.6 400.2 411.7 418.7 418.5 418 412.7 404.7 394.6 381.9 370 356 350.9 371.9 387.7 404.8 417.3 430 438.5 440 437.5 435 431.2 427.9 423.7 419.9 415.3 412.5 408.9 404 399 394.2 389.4 384.3 379.3 374.8 370.2 366.1 362.7 358.3 354 351.4 349.5 347.5 346.9 345.8 344.4 343.1 340.8 338 335.6 332.3 328.7 325.7 321.6 319 315.8 312.2 308.7 305 302.1 298.9 295.7 293.7 291.7 289.9 288.8 289.7 290.7 292.2 295.8 300.4 305 309.1 311.8 312.5 312.2 310.8 309.2 306.6 304.5 301.1 291.5 295.2 294.6 292.9 291 286.3 283.6 280.3 279.5 279.3 278.4 276.9 274.6 270.9 267.6 260.6 243.6 265.5 260.1 266.2 271.9 275.7 279 276.6 273.4 267.6 262.7 260.8 259.5 259.1 263.9 268.2 269.9 267.9 264 257.3 252.9 251.5 250.6 251.4 253.1 262.9 271.2 275.4 275.5 274.2 269.2 258.5 244.7 235.8 226.5 216.9 208.2 207.1 201.9 200.6 198.6 195.2 187.1 199.2 205 205.2 196.7 185.4 170.6 154 147.6 144.7 148.4 154.9 167.3 174.1 176.6 172.3 166.7 158 145.3 134.7 151.7 165.9 170.8 170.2 169 166.3 161.6 156.4 151.1 143 130.1 121.4 111.1 105.9 103.6 105.3 93.5 68 56.7 56.6 56.2 55.3 58.2 57.2 57.4 57.5 57.8 57.9 58 58.2
324.4 329.3 332 337 341 344.8 352.2 362.1 373.4 387.3 404 416.5 429.7 435.2 437.6 436.6 432.6 423.6 413.4 401.6 390.1 379.8 363.5 379.1 398.1 413.6 426.7 438.5 444 443.9 439.3 432.6 428.1 423.4 417.9 412.3 408.3 404.3 400.8 397.5 393.5 389.3 385.3 380.6 376.2 371.5 366.5 362.5 359.2 354.9 351.1 349.5 347.9 346.4 345.9 345 343.3 342.2 341.7 340.1 337.7 333 329.9 326.7 323.4 319.2 316.5 312.7 309.7 306.2 302.7 300.7 299.1 296.2 293.9 292.5 291.6 291.9 292.5 293.8 296.5 299.7 303.4 306.5 308.4 309 308.1 306.6 305.4 304.1 301.7 293.3 292.7 285.5 288.4 291.1 289.3 286.4 284.2 282.1 278.5 277 275.7 275.3 273.6 270.5 264.5 261.3 240.2 259.2 261.3 252.8 257.5 260.2 264 264.7 262.3 256.6 254.5 254.1 253.2 253.4 255.1 259.1 261.8 261.1 257.2 251.1 245.7 245.7 244.2 244.6 247.7 258.2 267.4 273.6 277 276.4 272.3 261.6 247.9 236 228.2 221 209.7 207.4 204.7 204 199.3 200.6 193 193.8 201.2 194.3 185.7 174 158 146.8 146.2 146.4 153 163.4 176.9 180.7 180.8 177.9 168.2 161.7 149.8 135.4 149.7 172.5 177.1 177.3 174.6 171.8 167.8 161.8 155.4 146.3 133.7 119.8 113 109.6 100.9 105.2 98.7 78.4 57.5 57.3 57.1 55.7 55.7 57.3 57.9 57.9 58.3 58.4 58.5 58.7
342.4 348.1 353.7 356.2 359.2 363.7 370.5 380.5 392.6 405.7 422.5 434.7 447.1 456.1 459.2 457.7 454.5 443.9 433.4 424 411.1 402.1 392.4 388.1 404.4 421.3 431.6 440 444.3 443.9 434.7 429.3 424.4 419.2 413.4 407.9 403.6 397.4 393 391.2 387.7 383.4 380 376.1 372.1 368 362.4 358.7 355.4 351.7 348.7 346.8 345.2 343.8 343.2 342.2 341.5 341 341.3 339.9 336.9 331.9 329.3 326.6 324.7 321 317.3 315.2 312.6 308.8 305.9 302.6 301.4 298.8 296.3 295.1 293.6 293.9 294.4 295.1 296.5 298.6 301.9 303.7 304.7 305.8 305.6 304.1 302.8 299.2 295.3 292.4 290.9 283.3 281.7 286.4 287.1 285.1 284 282.7 281.6 280.2 273.7 272.5 271 269.2 264.2 256.8 243.2 237.2 248.3 253 247.6 246.4 252.7 252.1 250.7 248.8 247.9 247.2 246.7 246.6 247.3 249.3 250.4 248.8 245.5 242.1 238.2 239.1 237 237 239.5 246.7 259.2 268.2 275.3 276.1 270.4 260.8 247.9 237.8 230.2 225.6 220.3 216.7 215.3 214.4 200.4 201.2 192.5 185.5 190.9 185.4 171.5 158.3 148.8 147.6 147.3 152.6 158 175.3 184 185 181 177.9 169.3 160.8 156.3 137.2 140.6 169.3 180.2 181.1 178.3 174.1 169 162.9 156 146.3 134.1 120.9 113.9 112.2 102.3 100.3 91.6 81.5 60.6 58.4 57.9 55.9 56.4 58.6 58.5 58.3 58.7 58.9 59.1 59.3
356.2 361.5 370.3 371.2 374.4 379.6 386.4 397.6 410.1 422.4 437.3 449.8 463.1 472.2 476.7 476.8 471.7 462.1 449.8 440 429.8 418.8 413 410.2 408 425.5 432.3 439.9 442.9 440.4 432.6 426.6 421.9 416.3 409.6 405 401 395.5 389.3 384.7 381.7 377.5 374.3 371.7 368.4 364.7 358.2 353.9 351.9 349.4 346.4 344.4 342.8 341.1 340.5 339.9 339.9 339.8 339.7 338.3 335.4 332 330.2 327.3 326 322.8 318.9 318.1 316 312.9 310 305.5 303.4 300.7 298.8 297 295.8 295.9 296.6 297.6 298 298.1 299.9 301.4 301.8 302.3 302.5 302.6 301.7 300.4 297.5 296.1 292.6 277.2 271.2 275.5 280.5 278.6 283 282.9 281.7 278.6 276 272.9 269.2 263.4 262.5 259.8 256.1 250.8 234.5 234.7 236.9 234.5 240.3 242.8 241.6 241 240.7 240.4 240.5 241.2 240.2 239.8 238.4 236.4 234.4 233.9 232.7 234.2 230.6 228.8 231.6 237.2 245.3 256.9 267.1 268.8 264.2 260.2 245.8 237.8 231.8 228.2 225.4 224.4 222 210.3 202 198.4 186.7 184.9 178.7 167.3 157.7 149.2 148.8 148.7 154.2 157.8 169.9 181.7 187.6 186.9 180.5 175.1 170.5 166.1 160.3 154.6 134.9 157.2 180.5 182.3 179.7 175 169.7 162.9 155.5 146.1 133.3 119.4 113.9 108.7 102.6 93.3 84.8 78.5 61.4 58.4 58.5 57 56.6 58.1 63.7 58.9 59.1 59.5 59.7 59.9
368.7 375.4 382.7 388.4 391.9 394.4 402.6 414.5 426.2 437.6 449.1 460.9 474.4 485 489.2 493.1 488.4 476.8 463.5 454.7 445.6 433.2 426.4 426.6 426.4 429.6 435.1 440.3 441.8 439.7 432 425 418.4 414 407.6 402.7 398.1 393.2 386.8 381.7 377.9 374 370.2 367.5 364.7 360.4 355.2 351.1 348.7 347.1 344.3 342.6 341.3 340 338.2 338.5 338.8 339.2 339.2 337.8 337 334.2 331.8 328.7 327 324.8 321.8 320.9 320 315.9 312.3 308.8 305.7 301.6 299.6 298.2 297.7 298.1 299 299.5 299.5 297.8 295.5 299.3 299.4 299.6 299.4 299.6 299.3 298.6 297.5 295.9 294.2 291.3 277.2 267.3 266.3 264.3 263.9 271.7 273.1 276.7 274.3 273 270.7 266.8 259.4 258.2 257.6 255.3 253.6 240.5 236.4 231 231.1 235.8 233.4 232.1 233.3 232.9 232.2 230.4 229.4 230.8 229.6 226.9 224.5 224.5 226.5 227.4 225.6 221.8 224.1 228.1 231.9 241.4 253.2 258.4 257.9 253.3 241.8 236.8 231.3 229.4 228.9 228.3 225.5 218.5 208.9 193.1 187.6 175.1 163.6 156.1 152.1 150 150.7 154.9 161 170.5 179.5 186.1 189.6 185.2 182.2 172.6 169.4 173.2 170.8 165.5 142.9 146.9 175.2 182.5 180.6 176.1 169.4 161.5 154.5 144.3 132.9 119.3 114.9 113.9 103.8 93.6 78.1 70.5 60.4 58.6 58.4 57.4 57.9 58.7 60 61.1 60.4 60.1 59.9 60.6
371.5 381.9 388.4 397.5 403.2 407.6 416 429.1 438.9 448.7 459.8 471.4 483.9 495.2 505.3 504.7 500.5 491.4 475.5 467.9 459.5 450 439.7 435.4 434.5 435.2 438 440.9 441.5 439.1 432.5 426.4 417.8 410.9 405.5 400.7 396 390.9 385.4 379.7 375.3 371.4 367.6 364.3 361.2 356.4 352.1 348.8 346.4 344.4 342.5 340.7 339.5 338.2 336.6 336.7 337.7 338.7 339.7 340.2 339.2 335.9 333.2 330.3 327.8 326.1 323.9 323.3 322.2 318.7 314.7 311.1 307.8 303.5 300.9 299.4 299.3 300.3 300.8 300.4 299.7 299.4 294.8 298.3 298.2 297.7 297.4 297 297.1 296.2 295.4 294.7 294 292.3 287.6 282.3 276.9 263.8 260 261.4 257.5 257 255.4 255.4 264 266.2 262.6 258.6 255 251 247.5 244.8 244 246.6 227.9 226.5 225.9 224.3 223.8 225.1 227 225.7 222.6 220.8 220.5 219.4 217.4 215.4 213 216.6 216.3 213 213.7 217.9 222.6 227.5 240.6 250.2 251.5 245.8 235.7 231.3 228.8 228.2 228.4 230.4 227.5 219.4 208.7 196.3 184.9 171.7 155.5 153.7 152.8 155.6 158.2 166.8 177.5 183.3 184.5 180.4 181.3 179.2 175.6 173.3 170.1 169.5 172.6 170.1 157.1 139.6 164 181.2 180.4 174.7 167.5 159.5 150.5 140.6 130.3 118 112.4 112.8 102.1 90 76.4 69.2 63.7 58.8 59.2 57.4 59.2 59.4 60.2 66.5 60.9 60.9 60.4 61.3
363.7 378.1 392.6 404.8 411 417.6 427.4 440.2 449.4 459.7 468.6 482.7 489.8 503.2 516.5 512.4 504.7 497.9 485.3 474.5 466.7 456.9 446.6 441.8 439.4 438.7 440.3 441.8 441.8 438.9 433.4 427.6 420.5 412.8 405.4 400.2 395.8 389.9 384.3 379.4 374.5 369.8 365.9 362.8 359.3 355.2 351.1 347.4 344.3 342.3 340.5 338.5 337.2 335.9 334.9 334.8 335.5 337.2 339.3 340.6 340.9 337.5 333.8 330.9 328 325.9 324.5 324.7 324.8 322.4 317.1 312 308.4 305.2 302.5 300.6 300.6 301.6 302.6 302.2 300.6 298.9 293.5 292.8 296.1 295.2 295.3 295 294.6 294 293.5 293.1 292.8 291.7 289.6 287.9 285.6 281.1 276.4 264.9 272.4 277.1 273.3 262.7 253.1 251.9 249.6 247.5 244.4 242.7 243.5 245.3 236.3 232.2 230.6 229.7 227.7 227 223.1 221.2 222.7 223.6 223.6 219.1 217.3 218.4 215.3 213 213.3 211.4 207.4 206.4 205.5 206.4 211.2 216.6 222.1 237.4 244.2 237.5 229.8 227.1 226.2 226.1 229.8 232 233.9 225.4 210.3 198.1 183.7 172.6 157.1 155 155.2 164.3 172.8 182.8 191.4 191.6 186.6 181.4 182.6 182.7 181.3 180.3 178.6 170.9 170.2 175.1 167.1 137.2 153.2 178.1 178.1 172.7 165.2 156.9 146.6 137.6 126.2 114.7 105.6 102.2 95.8 86.4 78.7 74.5 67.3 60 59.5 57.1 58.6 59.6 60.6 61.2 61.4 61.3 61 61.4
355.8 371.6 387.7 400.8 408.8 420.6 433.2 445.5 456.5 465.9 474.4 488.2 494.2 509.1 514.8 515.9 509.9 500.4 490.9 479 473.1 465.7 455.1 449.3 444.8 442.8 443 444.1 443.2 439.6 434.7 430.1 424.2 416.1 405.8 400.7 395.2 389.8 384 378.7 373.8 369.1 364.8 361.2 357.2 353.4 349.8 345.5 343.4 340.4 338.3 335.7 334.6 333.4 332.4 332 333.6 335.7 337.7 339.2 340.2 337.2 332.5 329.6 326.6 325 324.1 323.8 324.5 322.6 317.9 312.8 307.8 304.4 302.7 301.5 301.3 302.1 302.8 303 301.8 300.7 297.3 295.7 289.5 288.8 292.5 292.7 292.8 292.8 292.9 292.4 292 291.6 291.1 289.7 287.6 285.3 283.3 281.2 279.9 278.7 271.4 267.9 263.9 265 266.7 269.9 255.8 265.9 254.3 246.6 248.3 256.9 254.7 248.7 245.6 242.1 235.3 224.7 220.8 220.4 220.2 219.9 221 220.2 222.5 217 217.3 216 212.1 208.2 202.6 202.2 201.9 204.3 207.3 220.9 231.9 226.1 223.9 219.7 221.2 224 232.1 234.5 234.3 228.7 213.9 199.8 183.6 169.1 157.9 156.7 164.1 178.3 190.5 203.3 202.5 196.3 193.7 193.2 194.4 190.5 185.9 182.4 171.9 166.2 168.5 173.3 170.4 144.2 140.7 165.8 174.6 169.8 162.9 152.3 141.9 131.8 123.1 113.2 106.8 101.9 91.1 83.4 80.7 80.3 62.5 60.4 59.5 57.2 58.3 59.4 61.1 61.5 62.2 61.7 61.7 62.1
345.9 362.9 379.5 392.4 405 418.7 432.9 446.8 458.6 468.4 477.9 488.7 497 506.7 514.6 516.7 514.1 504.5 496.1 484.5 478.7 472.9 464 458.1 452.1 448.2 447.2 446.2 444.5 441.4 437.5 433.1 427 420 409.9 403.2 397 391.3 384.6 377.9 372.9 368.3 363.9 360.1 356.5 352.3 348.5 344.1 341.3 338.4 335.6 333.6 332.1 331.2 329.4 329.2 330.5 332.9 335.5 337.2 337.5 335.5 331.5 327.6 324 321.8 320.5 320.3 320 319.1 315.9 309.9 307.5 304.1 302.7 301.7 301.2 302.4 302.9 303.1 302.4 300.1 297.6 295.6 293.5 288.8 288.7 290.6 291.4 291.6 292.1 291.8 291.9 292 292.2 291.3 289.7 287.8 285.7 283.9 281.4 278 280 280.3 278.5 277 276.3 275.9 267.9 263.6 264.7 264.7 255.9 251 248.8 248.2 251.2 240.4 228 224 222.4 226.7 225.5 223.4 221.5 221.5 223.1 223.1 225 214.7 216.4 212.1 206.8 203.8 200.5 199.2 201.2 205.1 211.3 212.3 212 211.8 213.5 221 230 230.4 226.9 223.1 213.1 199.7 181.7 166.3 157.5 158.8 172 190 204.5 210.5 207.8 202.2 200.8 200.4 200.5 198.7 194.8 188.9 184.8 175.7 159.2 152.3 166.5 158.1 129.2 148.6 168.1 166 157.4 147.7 136.5 126.4 120.9 112.6 106 104.1 88.3 79.8 79.3 72.2 61.3 60.5 60.9 56.5 58.8 59.7 61.5 61.3 61.7 62 62.2 62.7
333.7 354 370.3 384.1 398.6 416 431.6 445.2 457.7 468.9 478.9 489.1 497.8 507.5 514.2 518.2 518.2 511.2 502.3 492.1 486.5 479.7 472.9 464.9 459.2 455.3 452.4 449.8 447.3 444.9 441.8 437.4 431.9 425.1 415.9 407.9 399.7 393.1 386.1 377.7 372 366.5 361.6 358.5 355.4 352.4 348 343.8 339.4 336.2 333.3 331.5 329.4 328.2 326.6 326.2 327.7 329.7 332 333.8 334 332.2 328.5 323.1 320.8 317.7 314.5 313.1 312.7 313.4 311.4 308.8 306.2 303.6 302 301.4 301.2 302.5 302.9 303 302.3 300 297.7 295.6 293.5 291.4 289.4 287.2 288.8 290 290.7 291.5 291.6 292.1 293.3 293.1 292 290.4 288.1 285.8 283.3 283.7 285 284 282.6 280.9 281.2 281.3 279.7 279.7 276.4 272.8 273.3 272 269.5 257 249.1 250.1 251.1 236.5 239.8 235.6 231.1 229 224 222.7 223.9 226.5 225 220.2 211.1 209.3 204.4 204.1 203.1 202.8 201.8 195.3 197 200 201 201.1 204 211.7 218.6 222 217.9 211.8 207.4 196.5 182.5 165.6 160.1 162.3 178.2 197.9 213.7 218.2 213.1 205.5 209.1 206.9 205.5 203.4 201.2 196.8 189.6 184.9 176.7 160.1 142.8 140.7 139.4 128 146.6 158.7 150.9 141.7 131.1 123.2 117.7 109.8 102.5 97 87.6 82.8 79.9 61.5 61.6 61.6 60.9 58.5 58.8 61.7 61.8 62.6 62.1 63 63 63.4
342.2 344 364.3 379.8 395.9 414.1 430 441.7 457.2 467.7 477.4 489.2 499.8 509.3 516.9 522.9 524.1 520 509.2 504.1 495.1 487.3 480.9 471.7 465 460.2 456.4 453.7 450.6 448.2 445.1 441.5 436 430.1 421.7 412.8 404.9 396 387.4 378.6 373.4 367 360.5 356.8 354.1 351.2 348 343.5 339.1 334.7 331.2 329 326.9 325.6 324 323.1 323.8 325.8 327.8 328.9 328.9 327.4 322.6 318.5 317.7 313.9 311.2 309.4 308.2 308.2 307.9 306.8 305.4 303.2 301.9 300.6 300.6 302.1 302.4 303.6 302.4 299.9 297.8 295.3 293.4 291.6 290.1 287.8 286.1 287.5 288 289.7 291.3 292.8 294.5 294.7 293.9 292.3 290.3 286.2 287 288.1 288.2 287.6 286.5 285.8 286 286 285.9 285.5 284.3 282.7 281 278.9 275.5 271.7 268.4 264.8 259.9 252.3 248.7 245.1 240 236.8 235.1 226.3 223.7 223.6 227 222.6 209.4 213 212.7 206.5 208.1 206.7 203 200.2 197.4 191 191.2 194.2 192.8 194.9 202.2 200.6 197.6 195.7 194.1 189.1 183 168.3 162 166.7 182.3 199.2 215.5 220.7 216.8 215.7 218.5 214.2 210.7 212.6 208.5 203.3 197.3 189.1 181.6 177 167.7 153.6 124.2 117.5 129.3 149 145.1 136.8 127.6 120.7 114.5 107.9 99.7 91.5 84.1 81.7 76.4 61.8 61.8 62.6 60.9 58.3 58.9 62.6 62.4 63 62.8 64.2 63.8 64
355 364.3 370.2 382.8 398.2 416.7 431.1 442.7 457.8 469.1 480.6 493.2 502.5 511.1 523.4 528.5 529.9 526.8 516.3 510.6 501.6 492.4 483.7 476.5 468.6 462.9 459.2 456 453.2 450.5 447.1 443.6 438.9 431.6 423.8 416.1 407.2 398.2 388.2 382 376.4 369.5 361.8 357.2 353.8 350.3 347.1 342.1 337.5 333.1 329.5 326.4 325.2 322.6 321.2 320.2 319.3 321.2 322.2 322.9 322.8 320.5 316.5 314.3 313.2 311.2 309 307.8 306.3 306.1 304.7 304 302.4 302.2 302.2 300.6 298.6 300.5 301.4 304.2 302.7 300.1 298 295.4 293 291.1 289.9 289.1 287.6 285.5 285.1 287.4 290.7 292.7 294.3 294.7 294 293 290.6 289.5 290.7 291.4 291.9 291.9 292.2 291.7 291.6 291.3 291.4 291.8 290.5 288.9 289 287.4 285.9 282.5 275.6 270.4 266.4 261.5 255 250.3 246.6 243.1 240.3 238 234.7 222.9 222.8 225.5 222 219.3 219.2 212.7 211.4 212 208.8 203 199.7 197.1 193.8 191.6 184.8 183.1 184.1 185.9 182.3 182.4 180.8 178.8 175.2 169.6 162.8 168.7 182.8 197.6 214.1 220.8 220.2 218.1 220.5 217.7 218.9 220.6 215.5 208.8 202.2 195.7 187.3 181.9 172.6 155.4 126.5 120 130.1 143.2 139.4 131.9 124.1 120.1 112.6 106 96.2 86.4 80.6 76.4 72.2 62.5 62.6 62.6 60.9 61.1 59.1 61.2 63 63.3 63.3 64.1 64.1 64.4
371.3 379.1 389.3 397.3 408.1 422.4 433.8 447.1 460.8 476.2 486.3 494.8 507.1 517.7 526.4 532.8 534.2 531.7 521.7 515 505.6 497 485.8 477.8 472 464.9 460.5 457 453.9 450.5 447.9 444.9 440.3 434.5 427.6 418 409.2 400.9 391.5 383.8 377.7 371.5 364.4 360 355.6 351.3 347 342.3 337.8 332.9 328.6 325.3 322.1 317.7 319.1 317.1 313.8 315 315 315.4 315.6 311.7 309.7 308.3 307.7 307.4 305.7 305.1 304.3 303.4 301.3 299.8 299.8 300.1 300.4 299.7 297.4 297.5 300.4 302.9 303.3 299.9 298.1 295.8 292.9 290.6 289.7 288.5 288.2 288.6 286.4 286.6 289.7 291.3 292.8 293.5 292.9 291.9 292.1 292.3 293.6 294.8 296.5 296.6 297.6 298.4 298.7 299.1 298.8 300.8 303.4 302.3 300.5 297.5 295.2 290.5 285.2 277.4 272.4 267.9 261.1 255.5 251.4 248.1 245.1 242.4 238.3 233.3 219.9 220.7 217.5 217.2 216.1 221.4 221.6 217.9 214.2 207.1 203 201.2 200.1 197.5 193.6 187.8 182.8 178.2 176 173.4 174.8 173.9 170.9 166 167.4 171.5 180.8 194.7 206.3 220 221.4 224.5 221.2 219 222.8 220.6 218.1 209.7 205 198.2 190.4 184.1 174.9 158.1 142.3 124.3 126.3 139.1 133 128 122.5 120.1 112.1 105 95.2 86.2 78.9 73 71.8 72.8 63.2 63.2 62.1 61.3 60 61.8 63.3 63.9 64.2 64.2 64.5 65
389.8 396.8 403.5 410.5 419.6 430.5 440.1 455.3 467.5 478.6 489.6 496.9 512.6 521.3 529.3 535.5 536.5 533.4 524.2 517.3 507 497.2 488.1 478.1 472.4 465.2 460.2 456.3 453.2 449.6 446.4 444 440 435.5 429.6 419.1 411.4 402.5 393.1 386.3 379 372 366.9 362.5 358.2 353.3 349.5 343.3 338.3 333.4 328.3 325.2 323 321.1 314.2 313.9 311.1 309 307.4 307.1 306.4 305.5 304.7 303.5 303.9 303.9 303.9 302.7 301.5 300 297.7 296.7 297.1 297.6 298.1 296.4 294.7 294.8 297.1 299.2 300.9 297.5 297.2 295.6 292.9 290.9 289 286.7 285.8 288.2 287.5 284.3 287.3 288.8 290.6 292.2 292.8 292.8 293.3 294.3 296.1 299.8 301.9 305 307.3 308.8 310 310.5 310.6 312.9 314.6 313 311 308.1 304.4 299.2 293 284.3 278.3 273 266.9 262 256.7 253.2 249.4 247.7 242.5 238.9 234 222 222.1 230.2 230.6 229 225.1 221 219.2 214.2 210.7 207.8 205.3 203.1 199 195 186.4 181.2 178.1 178 174.9 173.3 170.2 172.8 175 174.9 177.5 189.2 202.5 213.3 220.7 223.9 223.1 223.5 226.2 226.4 219.1 208.9 203.6 198 189.8 183.3 174.4 159.4 146.5 128.2 116.4 119.1 127.1 123.9 121.3 118.2 113.6 107.6 97 86.7 84.6 77.4 73.3 75.4 67.6 64.8 65 58.2 61.4 63.5 64 64.5 65.1 64.9 65.2 65.7
405.2 414 418.8 425.2 430.9 441.3 452.8 464.9 473.3 483.8 494.3 502.5 514.2 524 531.2 535.6 536 532.7 523.6 516.3 508.6 497 489.2 478.5 471.4 465.1 459.7 455.1 451.3 447.8 444.8 441.9 438.4 434.7 429 419.2 411.7 402.5 395.6 388.7 382.7 377.1 371.9 366.8 361.1 355.6 350.6 344.9 338.2 332.3 327.8 325 322.6 320.4 317 306.5 303.5 300.6 302.6 296.6 300.1 300.5 300.5 300 300.1 302.1 301.9 299.4 297.3 295.7 294.1 293.7 294.2 295.2 295.8 294.3 292.5 292.8 294.6 296.9 297.3 295.2 295.3 294.8 292.5 290.4 287.7 284 284.4 286.9 286.2 280.3 285.8 287.1 288.7 290.2 291.5 292.5 293.6 295.6 299 303.6 308.5 315.1 318.4 319.7 321.6 322.9 325.7 326.7 326.4 324.6 322.2 318.1 313.9 307.5 300.6 290.2 282.4 276.6 271.2 265.8 261.5 256.4 252.7 249.9 246.3 242.2 239.1 233.5 234.8 234.1 233.4 231.8 229.7 225.3 222.8 219.8 218.2 215.7 213 209.5 203.4 198.2 189.2 185.4 190.9 189.4 186.8 183 183.8 183.9 184.8 184.2 178.8 185.5 197.1 208 214.4 221.2 221.8 223.6 226.3 227.8 225 214.2 205.9 199.6 192.4 182 172 161.8 150.8 137.8 115.4 119.2 120.2 122.2 120.4 118.1 113.9 110.9 103.2 89.2 86.1 79.9 72 69.4 72.3 64.1 64.1 60.1 60.9 64.9 64.6 65.2 65.6 65.3 65.8 66.4
419.8 430 440.2 442.2 449.1 455.7 463 471.7 478.9 489.5 498.4 506.7 514.5 523.5 530.3 533.3 532.9 529.5 522.9 514 505.9 496.3 489.7 479.9 472 464.7 458.2 453.7 449.5 446 442.9 439.1 435.6 432.1 427 419.1 411.9 404.2 397.4 391 385.9 381 375.1 370.1 364.6 358.6 351.9 346.5 339.1 332.2 327.3 324.7 322.6 319.1 316.4 315.6 312.3 309.2 305.8 302.6 293.4 296.1 296.2 296.2 296.9 298.6 297.4 295.9 292.8 290.9 290.1 289.5 290.1 292.1 293.3 293.2 291.3 290.4 291.9 293.7 294.6 293.6 293.9 294.8 290.8 289.1 285.7 280.1 282.4 285.1 285 276 285 286.2 287.2 287.6 288.4 289.8 291.9 295.6 300.3 305.8 313.6 320 323.9 327 330.4 334.5 336.6 336.1 337.4 336.4 333.2 328 322.4 316 306.9 297.1 286.9 280.3 274.2 269.4 265 260.8 256.5 252.6 249.2 245.4 242.8 240.9 239.5 237.7 236.8 234.8 232.1 229.6 228.1 225.3 222.2 218.9 216.8 212.9 206.7 201.3 191.7 195.2 206.1 203.3 200.6 199.7 200.9 198.9 193.8 190 184.6 186.2 194.8 206.7 214.8 222.2 223.8 226.4 229.3 227.6 227 218.3 208 202.2 195.4 185.8 173.1 163.8 152.3 140.1 124.1 113.2 113.8 117 120.6 118.6 115.4 112.7 106 98.1 90.7 83.4 74.6 68.4 65.5 64.5 64.9 59.3 61.7 65.4 65.3 65.8 66 66 66.5 67
433.1 448.4 457.5 459.1 462.6 467 472.5 479.7 485.4 493 501.1 508.2 514.7 520.5 525.9 528.7 528.9 524.9 518.1 510.9 503.9 496.2 488.6 479.3 472.2 464.7 457.3 452.4 448.3 444 440.6 436.7 432.2 428.3 423.9 418.4 412.1 405.4 399.4 393.2 388.1 383.1 378.4 373.8 367.6 359.7 353.9 348.2 341.2 331.8 327 325 321.8 320.8 319.6 316.5 313.7 311 307.9 304.2 299.7 292.1 291.2 293.3 293.5 293.1 294.1 293.1 290.5 285.7 282.9 281.3 283.9 289.8 292 291.4 289.6 288 288.8 290.3 291 289.4 290 292.3 284 279 276.8 270.4 277.7 282.9 282.5 277.3 283.9 284.6 285.8 284.2 284.1 286.1 289.6 292.7 298.2 304.2 312.2 320 325 330.3 334.4 340.2 341.2 341.6 343.5 344.3 341.7 335.1 329.5 322.7 312.8 303.6 291.7 283.6 277.4 272.4 268.2 264.3 259.6 255.8 252.6 249.1 246.3 244.8 243.3 243 240.9 239 235.6 233.4 232.1 229.4 225.2 222.5 220.3 216.2 210 204.3 197.1 202.5 213.2 211.9 211.3 211.6 209.6 207.3 202.6 195.8 191.2 191.9 198.8 209.6 217.1 222.1 226.5 228.4 229.5 228.3 225.2 219.6 211.1 200.2 194.5 186.3 174.2 163.3 152.3 140.4 125.7 116.9 114.1 112.9 114.3 117.1 115.9 116.4 107 102.9 95.3 87.2 77.4 70 65.1 63.3 65.2 62 58.9 65.9 66 66.2 66.4 66.6 67.1 67.7
445.3 459 468.2 472.6 475.7 475.8 479.9 486 491.4 497.1 503.1 508.1 513.2 517.5 521 521.8 520.8 517.7 513.2 506.7 500.9 495.2 488.3 479.9 472.6 463.6 455.8 450.4 445.8 441.7 438.1 434.3 429.6 425.9 421.7 417.3 411.3 405.9 400.8 394.9 389.4 385.2 380.9 375.9 369.3 363.2 357.1 350 340.9 330.6 328.7 327.1 325.5 322.8 320.6 317.8 314.3 310.7 308.1 304.1 298.5 294.4 292.4 286.7 288.4 286.3 282.8 285.4 281.1 276.9 277.2 274.8 274.8 288.4 291.4 292.2 289.9 279 283.2 285.3 285.1 279.9 269.8 262.6 255.2 256.3 257.1 257 256.6 269 274.9 267.4 278.5 280.1 279.4 279.6 277.2 280.7 285.7 289.2 294.3 299.6 306.9 315 322.1 329.4 335.6 341.2 342.9 343.5 345.4 347.1 344.9 339.3 334.4 328 317.5 308.2 298.1 289.4 282 276.2 271.3 267.5 262.5 258.4 254 251.5 249.9 249 247.9 246.8 245.9 244.4 240.8 239.3 237.5 235 227.6 226.3 223.7 220.2 214.2 209.3 198.2 207.7 214.1 217.5 217.9 217.5 214.9 210 204.9 199.1 195.1 194.9 203.3 210.2 217.3 222.2 228.4 230.4 231.2 229.2 223.5 217.7 210.5 198.4 192.2 183.8 173.1 161.5 152 141.8 127.5 121.1 116.4 114.7 112.8 118 116.4 114 107.4 97.8 96.1 89.8 79.6 71.8 66.5 66.1 65.5 62.7 60.9 66.5 66.6 66.5 66.8 67.3 67.8 68.4
453.7 468.5 477.7 485.3 487.3 488.8 490.7 492 494.7 499 502.8 506.2 510.1 513.9 516.2 516.2 515.5 513.4 509.7 504.6 499.7 494.4 488 480.1 472.7 462.2 454.6 448.7 443.8 439 434.4 431.2 427.6 423.6 419.5 415.6 411.2 406.2 400.9 395.3 390.6 386.2 381.8 376.5 370.8 364.7 358.7 351.5 340.4 333.4 331.9 330.3 327.5 324.1 320.4 316.6 313.7 311 307.5 302.1 296.8 293.8 291.6 290.4 287.1 282 282 283.9 282.8 282.2 280.7 277.7 275.3 272.4 274.1 278.7 280.5 271.2 274.2 270.9 273 265 261.3 264.3 265.3 265.6 267.6 258.3 254.5 250.4 248.1 250 258 260.9 261.2 264 268.1 275 282.1 286.4 290.7 295.1 301.2 308 315.7 324 332.1 338 340.9 341.9 343.7 345.4 345 342.8 338.9 332.7 323.8 313.7 304.4 296.5 288.9 281.7 275.3 270.8 265.9 260.4 257.1 254.7 253.4 252.5 252.2 252.3 252 250.6 247.7 245.3 241.6 237.7 234.5 226.5 226.3 222.5 217.7 211.8 206.1 211.8 216.1 219.6 220.8 220.9 219.6 215.4 209.4 202.3 196.9 201.4 209 213.6 218.5 222.8 229.4 232.8 233.3 230.6 225.4 217.3 211.9 199.3 190.2 182.9 172 158.9 149.8 141.2 129.2 122.5 116.7 115.3 112.5 112.9 114.6 112.9 107 94.8 92.5 89.6 81.2 75.5 70 72.5 65.1 64.9 63.5 67.5 67.4 67.4 67.3 67.9 68.5 69
459.2 473.8 486.8 495.4 500.9 500.2 500.2 498.8 498.6 499.9 502 502.9 505.7 507.5 510.9 511.2 510.7 509.3 507 502.9 498.6 494.5 488.2 480.2 472 461.7 453.1 447 441.7 436.7 431.7 428.2 424.9 421.3 416.9 413.1 408.8 404.6 399.3 394.4 389.7 386.1 381.7 376.6 370.5 366 360.8 354.1 345.6 338.6 335.5 332.4 329.5 325.5 321.2 316.4 312.7 310.7 306 300.4 295.6 292.8 289.8 285.5 284.5 284.6 287.7 289.2 289.2 288.1 286 283.9 279.7 277 273.2 268.5 269.2 270.1 269.6 265.4 263.8 266.6 272.8 276.6 280 287 288.6 281.1 276.6 265.4 261.7 251.4 242 242.9 243.4 244.3 258.4 271.5 277.6 284.9 288 292.7 297.5 301.3 308.2 316.6 325.3 331.4 335.2 337.2 339.3 342.2 342.7 342.1 340 335.5 330.1 320.2 312.5 303.3 295.5 286.8 278.3 273.6 268.5 263.3 259 257.2 256.2 255.2 255.6 257.2 256.7 254.7 252.3 249.3 245.7 239.3 236.7 229.4 226.8 223.3 218.1 213.2 209 215.2 218 218.7 220.1 220.7 219.9 218.1 213.3 203.8 193.8 204.9 213.1 215.8 220.2 224.8 230.9 235.6 236 232.8 228.1 219.1 211.5 200.2 189.2 180.1 168.9 156.5 147.9 140.5 128.2 121.7 116.3 113.2 109.3 107.4 109.5 113.6 104.7 96 88.2 85.1 81.3 78 74.1 75.6 73.4 61.7 61.2 62.8 62.1 67.1 67.9 68.4 69 69.4
458.5 477.6 494 505.6 514.5 505.8 504.8 502.3 500.8 499.9 499.6 499.5 499.8 501.8 503.2 505 505.4 505.1 503 500.3 497.8 494.5 488.6 481.4 471.7 460.8 452.5 444.3 438.5 433.2 428.1 423.8 421.1 418 414.4 409.5 404.9 401.3 396.6 392.1 388.4 384.9 380.4 376.9 374.6 369.5 364.9 359.9 350.2 343 339.5 335 330.7 327.3 323.3 318.5 312.1 308.9 304.1 299.1 294.8 289.6 288.1 287.5 288.6 291.3 292.9 293.2 292 290.8 288.4 285.7 283.3 284 283.8 282.9 281.3 281.5 282 279.7 279.2 278.8 282.1 285.3 290.2 294.6 297 292.5 285.5 281.1 279.7 276.1 272.9 265.1 258.2 244.4 247.7 267.1 273.3 281.8 286.3 290.5 294.7 297.9 302.8 308.4 316.9 323.7 328.2 331.2 334.1 337.4 338.5 339 337.9 335.1 331.1 324.8 317.6 308.4 301.2 293 281.8 275.7 270.9 266.1 262.1 259.9 258.8 258.4 258.9 260.1 259 256.5 254.2 251.6 247.1 240.4 234.9 233.1 224.4 222.9 218.5 214.8 214.1 217.6 218.6 217.8 219.3 219 219 215.9 211.2 206.1 190.7 203.7 212.3 216.3 221.8 227.9 234.5 237.5 237.7 233.4 229.5 220.5 209.7 198.9 188.4 177.1 164.8 154.3 145.3 137.7 127.3 120.6 116.4 113 106.1 104.8 108.5 108.9 101.5 95.5 88.7 86.1 82.7 80.6 76.1 77.2 80.8 69.3 63 62.7 63.1 67.9 68.5 69 69.5 69.8
460.2 481 496.8 510.3 518.4 513.7 505.4 502.2 499.8 497.2 496.2 494.5 493.1 493 494.7 496.9 499.1 500.1 499.5 497.8 496.4 494.4 490.3 484.1 471.3 462.2 450.2 441.7 435.6 430.5 424.9 420.1 416.6 412.8 409.3 404.5 400 396.7 393.3 389.9 387.1 384.8 382.6 380.2 376.7 371.6 367.2 361.7 352.2 345.5 341.1 336.8 332 328 323.5 318.9 310.9 305.8 301.8 297.3 291.9 287.7 291.3 292.5 294.3 294.9 295.7 295.1 293.7 292.1 289.4 287.7 288.9 288.6 287.9 287.6 286.5 285.6 285.2 286.2 286.1 287.7 289.2 291.6 293.1 296.5 297.2 294.2 287.9 285 282.9 281.2 278.4 274.6 267.7 251.3 240.1 261.3 271.7 277.2 283.1 286.3 289.7 293.5 298.2 303.3 310.3 315.9 321 325.4 329.7 332.6 334.2 335 334.3 332.5 329 324.4 318.6 311.3 304.6 296.5 286.9 277.8 272.7 268.2 264.5 261.7 260.6 259.9 260.1 260.7 259.3 256.5 254.2 251.8 248.5 244.2 238.7 232.2 227.7 221.3 218.8 216.5 217 220.3 219.7 218.2 218.3 217.7 216.3 215.1 210.7 207.3 194.1 203.7 213.4 219.5 224.1 231.1 235.7 236.7 236.4 233.9 228.4 217.6 206.3 195.8 186.2 173.9 159.7 149.5 141.8 134.7 125.5 119.6 116.6 111.1 104.7 104 107.1 103.2 101.8 99.4 93.9 87.8 83.8 86.6 81.7 79.7 83.5 80.7 68.3 64 63.5 65.6 69.2 69.6 70 70.4
462.9 483.6 497.5 510.4 517 513.3 503.5 499.2 496.4 493.5 490.9 488.7 487.1 486 486.2 488.5 491 492.7 493.7 494.1 493.8 493.3 490.3 485.1 473.6 461.3 449.6 438.9 432 426.3 420.9 416.3 412.6 409.2 405.5 400.2 394.9 391.9 389 386.7 384.9 384.7 383.5 381.7 378 373.1 368.8 362.4 352.1 347 342 337.1 331.7 327.5 322.9 317.6 310.1 302.9 299.1 294.3 290.9 297.2 296.4 297.5 298.4 298.7 298 297 295.8 293.7 292.2 292.6 292.8 293 292.6 291.1 290.4 290.1 289.4 290.3 291.7 293 293.9 295.5 295.4 295.9 294.6 292.4 289.2 287.6 284.6 282.1 279.5 276.2 271.7 260.9 236.1 251.2 265.5 275.8 279.5 282.8 286.2 289.7 294.9 299.6 306.6 312.7 317.5 321.7 325.3 328.5 331.1 331.8 331.1 329.7 326.9 322.7 317.5 311.2 304.6 296.8 287 279.8 273.8 269.2 265.5 263.3 262.2 261.2 260.2 259.4 258.3 256.4 254 251.6 249.2 245.8 241.6 237.2 233.4 224.1 220.1 218.5 217.9 219.4 220.1 218.9 217.7 218.4 217.5 217.2 213.9 206.9 196.5 201.9 213.1 219.4 224 228.9 233.1 232.6 232.2 226.4 220.9 211 200.7 190.8 181.1 169.4 155.5 144.4 138.1 131.5 123.3 117.8 114 107.7 104.2 103.9 106.5 107 103 98.9 97.8 94.4 93.3 89.5 85.3 83.6 87 90 79.7 68.3 64.4 65.9 69.8 70.1 70.7 71
461.9 478.6 492 504 513.5 506.4 499.6 494.8 491.9 488.6 485.3 482.4 481.2 480.2 480.6 482.1 482.6 483.9 486.5 488.1 488 486.7 484.8 480.3 471.5 457.5 446 436.8 428.3 421.3 416.5 412.6 409.3 405 401.5 396.4 392.3 387.7 384.9 382.4 381.7 381.8 381.5 379.9 375.6 370.2 366.8 360.8 350.2 345.4 340.4 334.6 329.1 324.4 319.8 312.8 305.5 299.2 295 295.8 300.7 301.7 300.9 302 302.8 302.6 301.8 300.6 298.6 297 295.8 295.8 296.2 296.4 296.5 295.4 294.2 293.4 292.5 294.4 295.8 297.2 298.7 299.2 299.3 297.8 296.5 295.1 292.4 288.9 286.1 283.1 280 276.9 273.3 267 244.3 237.5 253.9 265.6 273.8 277.2 281.2 286.3 291.9 297.7 304.5 311 315.8 320.1 324.3 327.2 328.8 329 328.1 326.1 323 318.9 314.4 308.9 303 294.5 285.6 279 274.2 270.2 266.7 265 263.6 261.7 260 258.8 257.1 255.7 253.9 251.5 249.1 245.9 242.2 239.9 236.3 230.8 226.3 224.1 221.6 216.9 217.2 217.9 218.7 215.6 217.5 219.4 214.4 205.9 195.6 196.7 207.5 216.1 222 226.1 224.8 226.4 225.9 219.6 212.8 203 190.2 180 168.9 159.5 148.1 139.6 134.5 130.1 121.5 117 111.1 107.6 105.2 104.5 105.2 107.9 107 102.6 105 100.9 95.8 89.1 84.4 84.9 91.7 92.7 86.4 80.5 64.2 66.6 70.9 70.8 71.3 71.7
460 472.6 487.3 498.7 501.6 496.6 492 487.6 486.2 483.4 480.5 477.4 476 475.3 476.4 476.5 476.7 477.2 478.6 479.9 480 478.3 475.7 469.4 464.2 453.6 444 433.2 424.7 417.4 412.8 409.5 406.2 402.4 398.8 394.3 389.8 384.2 380.2 377.9 376.6 376.6 375.8 373.4 370.4 365.6 361.4 352.7 345.5 341.1 336.1 330.8 324.2 318.5 313 306.4 296.4 297.3 295.6 299.3 305.4 305.2 305 305.2 305.8 305.2 303.5 301.9 300.5 299.2 298.9 298.9 299.7 299.8 299.9 299.1 297.8 296.5 296.3 299.2 300 302.3 304.1 306.1 306.1 305.3 303.1 300 296.6 293.3 289.9 285.7 282.3 279.2 274.8 269.7 257.2 236.4 238.3 253.6 264.3 269.7 272.8 283.1 290.4 298 304.2 310.1 315.9 320.4 324.1 326.7 327.9 327.7 324.4 320.6 316.8 313.1 309.3 305 298.6 289.2 283.5 278.2 273.8 270.4 268 266.1 264.4 262.5 260.5 258.9 256.9 255.1 253.2 251.5 250.2 247.1 244.5 242.3 240.4 236.4 232.2 230 229.4 226.2 224.6 221.4 218.7 215.9 215.2 212 206 202.5 200.2 188 196.7 208.8 215 218.4 217.5 218.7 219.4 210 201.6 190.7 177.5 164.3 145.9 139.5 136.7 133 130.3 126.6 119.2 115.6 111.8 109 106.7 108.1 108.9 108.5 108.3 105.2 104.5 101.6 98.1 89.7 86.1 84.8 89.6 90 87.4 85.2 64 64.6 69.6 71.6 71.8 72.4
455.1 467.8 481.4 489.9 489.7 486.2 481.9 481.2 479.5 477.3 475 472.7 470.9 470.3 470.9 470.5 471.1 471.6 471.8 470.6 470.4 468.5 464.1 459.8 454.1 447.4 438.1 428.6 421.2 413.8 408.5 405.8 403 398.9 395.5 391.7 386.6 380.9 375.1 372.1 370.3 369.7 367.9 365 358.9 354 349.1 343.9 338.2 335.1 330.5 323.4 316.1 310.2 304.1 299.3 305 306.8 306.4 307 310 309.3 309 308.7 308.5 307.9 305.9 304 302.3 302.3 302.4 303.4 304.3 303.7 303.3 302.4 301.2 299.8 300.5 302.7 304.8 307.2 310 315.2 317.5 316.7 314 309.3 303.4 299.5 295.7 290.3 284.6 281.6 277.9 272.6 267.3 249.7 235.1 234.6 249.4 256.5 268.9 279.5 290 298.7 305.1 312.1 317.3 320.8 324.9 328.6 329.9 329.6 325.6 318.1 311.2 306.3 302.6 298.2 292.2 285.4 280.3 276.2 273 269.8 268 266.6 265.1 263.1 261 259.8 258.5 256.9 255 253.9 252.3 249.8 247.5 245 244.4 242.4 239.1 236.2 235 232.7 229.2 227.9 227.2 225.5 223.7 220.3 215.9 212.7 205.8 198.8 185.8 197.2 206 206.7 206.7 207.6 203.3 189.7 178 177 165.2 142.4 130.2 129.3 125.6 125 126.7 123.9 118.3 116 112.4 110 107.7 111.2 107.8 107.8 109.5 107.2 105.4 104.7 101.2 96.6 91.4 86.2 86.5 88.4 87.7 88.2 67.2 65.5 67.6 68.9 71.9 73
448.9 460.6 472.5 481.4 482.1 479.3 476.8 474.1 472.2 469 468.1 466.4 465.5 465.1 464.7 464.5 465.5 464.7 462.4 460.8 458.3 455.9 453.8 448.3 442.5 438.3 431.1 421.9 415.4 410.1 405.6 402.4 399.5 395.7 392.7 388.5 383.4 378.6 371.7 366.7 362.4 359.5 357.9 353.9 350.2 346 339.9 333.3 328.7 325.8 321.7 316.2 307.6 303.6 302.3 310.5 313.2 315.4 314.9 314.4 314.9 314.4 313.1 312.5 311.2 309.8 308.3 306.5 305.2 305.2 306.3 307.8 307.5 306.9 306.2 304.9 303.4 302.8 304.4 306.2 308.3 312.1 317.3 324.1 327.1 325.5 321.3 315.6 309.6 306.9 301.3 294.8 287.2 283.5 280.2 275.5 270.3 264.1 249.8 242.4 230.3 255.2 268.3 276.5 287.6 296.8 306.2 314.5 319.3 322.8 327.5 336.9 339.4 336.2 328.5 316.5 306.2 299.4 295.4 292.4 287.1 283.3 277.6 274.2 271.7 269.3 267.5 266.4 265.2 263.5 261.9 260.9 259.8 258.5 257.2 256.5 255.1 253 252.4 251.2 249.7 248.5 246.2 240.5 235.1 234.5 233.9 234.6 234 231.7 230.1 225.2 221.5 217.7 215.4 208 193.3 183.9 177.7 178.9 187.7 171.9 172.7 162.4 147.4 144.9 140.9 134.1 148.2 138.8 129.7 123.7 120.7 120.1 118.5 114.9 112.6 109.6 107.3 109 106.5 106.4 108.7 106.5 105.4 105 101.9 98.3 96.3 87.5 86.9 89 90 89.9 76.2 66.4 67.1 69.5 70.8 73.6
440.6 454.9 464.1 473 474.1 472.1 468.5 466.9 464.4 462.1 461.2 459.7 459.7 459 456.9 455.6 456.7 455.3 452.2 451.4 448.3 446.6 443.7 437.1 431.8 427.5 421.1 416.3 411.9 406.2 401.9 399.5 397.6 393.7 389.9 386.6 381.7 374.5 367.5 362.5 357.3 351.7 347.6 345.4 341.6 335.8 330.8 325.6 320.4 317.4 308.5 306 310.8 312.2 314.1 318 322.5 324.3 323.2 323 321.8 319.1 318.4 317.8 315 313.5 311.4 309.5 307.9 308.1 309.2 309.8 310.2 309.8 308.6 307.2 305.8 305.9 307.1 309.5 312.1 316.3 322.5 329.9 333.5 332.2 327.2 321.6 315.3 313.7 310 299.5 291 284.5 281.4 277.4 272.7 269.2 260.2 240.5 229.7 254.5 267.5 273.1 280.7 291.3 302.4 313.3 320.1 324.3 333.3 341.5 343 336.7 329.8 316.6 302.5 295.6 290.9 287 283.4 280.1 276.2 272.7 270.3 268.8 266.6 265.6 264.9 263.7 263.1 262.2 261.2 260.7 260.3 260.4 259.7 258.6 258.2 256.7 254.3 252.8 250.8 247.4 240.9 241.3 241.4 241.2 238.7 237.5 235 229.9 223.5 223.2 221.7 216.3 210.3 201.3 187.2 174.7 171.5 159.6 153.1 149.5 144.7 141.1 143.3 153.2 162.4 154.3 139.8 128.6 122.4 119.4 117.2 115 112.6 108.5 107 106.7 106.3 108.3 109.6 108.9 106.5 108.3 103.8 99.6 97.2 90.5 89.3 92.9 96 96.9 87.6 67.6 66.2 66.7 69.9 73.7
429.9 444.7 453.9 460.3 463.5 462.5 460.5 459.2 457.6 455.6 453.6 453.3 453.3 452.6 450.5 448.5 446.4 445 444.2 441.3 438.7 435.5 432.2 427.8 422.3 418.5 415.1 411 407.5 401.9 398.9 396.7 394.5 391.1 387.6 383.9 378.8 372.6 366.4 359.6 351.4 348 342 338.7 333.1 327.6 323.6 314.1 313.2 311.1 308.5 312.9 318.3 318.5 322.5 326.5 331.7 334.2 335.2 334.7 330 326.2 324.7 322.3 319 316.8 314.5 311.7 310.4 311 311.3 311.5 312.6 312.3 310.6 309.4 308.5 308.8 309.5 311.7 314 319.2 327.1 334.7 337.6 336.5 333.3 326.7 321.4 318.2 312.8 303.1 295.2 286.7 282 279.3 275.3 270.8 262 246.7 229.1 241.9 259.4 267.1 277 286.3 295.9 310.8 319 323.4 327.8 336.8 339.5 333 327 311.9 301.3 295.2 287.2 282.9 279.9 276.8 273.4 270.6 268.3 267 265.5 265 264.3 264.1 263.5 262.6 263 263.5 264.7 265.3 265.2 264.8 262.1 260 257.3 256.9 256 255.1 247.3 246.6 246.1 243.6 241.5 240.7 238.4 235.1 228 228 228.6 224.4 218.9 213.6 204.7 200.9 194.5 178 186.9 181.4 169 164.9 172.3 181.2 178.6 167.7 147.4 135.1 127.2 124.1 118.5 115 111.2 108.5 107.4 106.8 106.4 106.1 110.5 113.2 110.4 109.4 103.4 99.5 96.8 94.6 94.8 95.7 98 100.7 98.5 75.8 69.3 69.4 68.5 72.5
422.9 434.5 442.3 447.6 451 452.6 452.6 452.8 451.2 450.2 448.4 447.4 446.5 445.3 444.2 442 440 438.2 435.7 433 430.4 427.8 424.8 420.5 415.6 413.4 411.4 406.5 402.7 398.5 396.1 394.2 391.6 387.7 384.2 380.5 375.6 369.2 362.9 356.7 350.6 344.6 339.1 333.7 329.1 324.7 320.4 313.4 311.9 313.3 322.6 325.2 328.8 333 339.1 344.4 348 352.3 354.6 350.3 342.2 335.1 332.2 326.7 322.3 319.4 317.2 314.6 313.5 313.3 313.6 313.8 314 314.3 313 311.6 311 311.5 312.5 314.5 316.6 322 329.9 339.8 344 341.2 338.9 333.4 327.8 323.9 318.2 308.4 297.8 288.9 282.6 279.9 276.9 271.6 263.2 250.3 236.5 227.5 242.4 252.4 271.5 283.4 291.2 307.3 315.3 319.5 322.5 328.3 329.8 327 317.6 309.5 297.3 291.2 284.6 279.6 276.2 273.1 269.7 267.8 266.5 265.4 264.1 263.8 263.5 263.9 264.2 264.1 265.2 266.3 268.1 269.8 270.9 270.6 269.5 264.6 262.4 261.5 261.6 261.6 258 255.2 250.3 247.5 247.2 245.4 240.5 236.5 233.6 235.3 234.5 230.3 226.3 221.1 214.2 209.7 206.7 200.9 204.2 190.9 187.1 197.8 193.2 192.8 187 174.4 152 141.4 130.4 126.7 123.7 116.3 111.8 108.7 107.1 107 107.3 108 110.6 113.7 113.7 111.1 106 101.8 99.7 97.8 97.6 97.6 98 100.7 99.5 90.7 72.4 70 70.7 69.5
415.5 425.1 433.6 438.9 443.1 446 447.2 446.8 446.1 445.3 444.3 442.3 440.8 439.2 437.7 435.7 434 431.6 428.9 426.5 423 420.9 418.3 414.6 410.3 408.3 405.6 401.9 397.9 394.5 392.4 390.3 388.1 385.2 380.2 376.5 371.5 365.2 358.8 353.2 347.6 340.4 335.1 332 325.9 316.8 315.6 322.4 327 328.6 332.2 335.7 342.8 350.8 357.8 364.4 368.1 369.5 367.1 363 351.5 343.5 339.4 331.1 325.4 322.2 319.8 317.5 316.1 315.9 316 316.2 315.7 315.8 315.3 314 314.1 314.3 315.3 317.6 319.8 324.6 330.9 348.9 351.6 348.4 344.8 339.2 332.5 327.6 322.3 311.9 301 289.5 283.8 281.5 278.7 274.1 268.2 257.9 246.6 235 228.9 235.6 256.8 277.4 289 303 310 313.5 316.5 315.9 317.4 315.1 310.8 301.8 289.4 286.2 281 276.3 272.7 268.8 265.7 264 263.5 262.8 262.6 262.5 262.8 263.3 264.5 266.2 267.3 268.8 271.3 274 275.9 274.8 272.7 268.1 268.7 268.3 269.5 267.6 263 259.2 255.1 249.9 248.2 247.2 243.6 238.4 234.4 235.2 240.3 236.9 231.3 226.7 218.8 215.1 210.6 211.1 212.7 211.9 210.8 208.6 203.5 200.1 193 181.3 167.4 144.7 136.8 130 124.7 123.6 113.9 109.6 107.5 106.6 106.5 109.5 111.3 112.7 112.4 112.7 105.8 103.7 102.4 101.1 99.7 98.8 98.5 97.1 98.3 100.3 97.1 74.9 74.8 73.8
410.8 419.1 426.5 432.6 436.8 440.3 442.4 442.3 441.3 440.4 439.5 437.1 435.4 433.8 432 429.8 427.9 425.8 422.7 420.7 418.2 415.1 413.1 409.5 406.3 404.3 401 397.4 394.4 391 388.4 385.5 382.6 379.7 375.5 370.5 366.6 360.3 353.5 348.5 343.9 336.9 333.3 329.1 318.3 319.4 330.8 333.1 334.8 338.8 343.3 351.1 358.9 364.9 373.1 382.4 390.3 383.1 378.4 374.5 361.4 352.3 346.4 336.9 328.9 325.5 323.6 319.6 319.5 318.7 318.1 318.5 317.8 317.7 317.6 316.7 316.7 317 317.7 319.7 322.4 326.5 331.8 345.4 351.5 350.5 347.4 343.4 336.7 330.3 324.7 314.7 302.7 292.5 285.8 282.7 279.7 276.4 272.4 264.2 253.7 243.2 221.2 225.6 248 271.5 285.6 296.3 303.7 307.3 309.4 308.2 305.3 302.6 295.5 288.8 282.6 278.5 276.1 272.6 268.5 264.4 261.8 260.1 260.7 260.8 261 260.9 261.6 262.5 264.1 266.9 268.7 272.1 275.2 278.3 280.5 280.1 279.3 279.4 278.1 278 277.5 273.5 269.6 264.6 258.5 254.5 251 247.7 245.9 243.3 237.7 235.1 240.3 240.5 234.7 229.5 224 214.2 213.3 217.9 219 219.7 218.8 215.9 212.6 209.9 206 191 172.6 153.7 138.7 133.9 125.2 123.4 118.1 111 109.6 107.3 106.8 108.1 111.1 111.5 111.5 112.1 108.5 106.9 105.5 104.8 102.2 100.7 102 99 98.1 101.8 103.1 78.9 76 74.4
407.1 415.6 422.9 427.8 432.7 436 437.8 438.3 437.2 435.5 434.3 432.3 430.3 428.4 426.3 424.2 422.2 419.3 417.4 414.6 412.8 410.1 407.3 405.2 403.1 400.3 395.8 392.7 390.5 387.5 385.1 380.7 377.1 373.7 368.6 364 359.9 355.2 349.2 344.6 340.7 335.4 323.3 320.4 321.5 333.5 337.3 339.7 342.5 348.5 354.7 363.2 369.7 375.4 386 395.8 400.2 394.9 386.1 380.5 369.3 359.1 350.8 342.2 333 327.5 324.4 322.4 322.4 321.2 320.5 320.7 320.7 321.1 320.4 319.4 319.2 319.4 320.2 321.3 323.5 326.2 330.7 337.5 344.8 347.5 346.1 343.6 338.6 331.5 325.6 316.7 303.8 292.2 287.3 283.5 280.5 277.4 273.6 268.8 259.7 248.3 230 223.4 239.8 259.8 277.9 291 296.4 298.9 300.8 300.8 296 291.5 286.6 281.6 276.2 272 269.3 266.7 263.6 259.7 256.1 253.9 256.9 259.3 259.1 258.8 259.7 261 264.2 267.7 271.3 275.4 279.3 283.4 287 289.8 291.8 290.8 293.1 290.1 287.7 283.4 278 270.9 259.4 256.3 253 248.5 246.3 244.3 239.6 235 236.2 238.2 232.6 229.4 225.1 217.6 214.8 222.7 225 225.4 224.2 222.1 220 217.4 211 200.7 184 165.1 150.6 137.8 128 122.5 121.6 112.7 106.6 109.7 110 107.4 108.1 110.6 109 111 108.6 108 107.5 106.4 104.1 103.6 103.2 100.8 100.3 103.4 102.8 89.6 76.6 77.1
405.5 414.4 420.7 425.4 429.8 433 435.3 435.7 434.4 433 430.7 428.7 426.4 424.2 422.3 420.7 417.4 415 412.3 410.6 407.4 404.3 402.1 401.6 399.4 396.2 391.9 388.1 385.7 383.7 381.8 378.5 374.3 369.9 364.4 358.9 354.4 349.2 343.9 339.7 335.2 327.7 323.4 329.1 337.2 339.5 343.2 347 352.7 358.4 364.2 372.4 379 385.2 394.2 404.5 408.2 404.3 395.4 387.3 374.8 364.8 355.6 346.3 337.1 331.3 327.4 326 325.5 324.1 323.4 323.2 323.7 324.1 324.2 323.1 322.1 321.8 322.3 323.8 325 326.5 328.8 332.1 338.4 341.8 342.2 341.1 337.1 329.6 324.2 316.3 303.3 293.7 288.6 284.3 281.2 277.9 274.2 270 264.9 255.8 237.6 219 228.5 247.7 267.5 283.8 289.5 290.9 292.9 292 286.6 283.6 280.9 275.3 269.7 263.6 260.8 260.8 257.1 253.7 248.5 245.5 253.8 256.9 257.4 256.6 256.8 259.2 263.1 268.2 273.5 278.8 283.8 288.6 293 299.1 300.9 301.3 298.4 296.6 293 288.2 281.6 273.7 264.6 257.5 253 248.5 245.1 244.9 240.9 236.4 232.9 230.4 230.3 227.4 223.6 217.5 208.8 225.5 229.2 228.8 227.9 227.5 225.8 223.9 217.6 210.5 195.3 176.6 157.7 143.5 131 124.9 119.5 113.6 106.3 107.8 110.8 109 104.9 106.9 107.8 109.1 106 103.8 104.6 105.1 105.1 104.2 103.5 103.1 103.5 104.6 99.1 84.9 77.9 79.5
405.2 413.8 419.2 424.2 428.3 431.8 433.8 434.1 432.4 430.9 428.4 425.5 422.6 421 419.3 416.5 413.9 410.4 407.7 405.7 403.9 400.4 398.7 397.6 395.5 392 387.8 384.8 382.2 380.3 378 375.8 371.2 365.8 360.3 354.6 348.6 343.4 338.9 331 327.8 325.7 336.5 339.3 341.3 344.5 348.5 353 359.2 363.6 374.6 382.4 388.4 393.5 401.5 411.8 414.3 411.3 400.9 393.1 380 368.4 360.3 353 341.5 334.4 330.5 329.8 329.3 328.7 327.8 328.1 328.1 328.6 328.6 327.5 326 324.8 324.5 325.2 325.3 326.8 328 328.8 333 336.6 337.5 337.5 333.3 326.8 320.7 313.4 302.2 294.1 289.8 284.4 281.5 277.9 274.3 271.1 267.9 260.9 250.7 229.7 219.4 233.7 256.4 276.9 283.5 284.2 283.8 282.8 278.9 276.1 273.8 268.1 262.4 252.1 246.4 251.7 247.7 241 237.7 229.1 245.8 255 255.8 253 251.4 255.4 261.4 269.2 276 283.1 288.6 295.4 303.5 308 309.3 307.8 306.1 303.4 300.7 293.2 285.6 276.5 269.4 262.4 256.1 251.2 246.5 244.5 238.2 239.1 233.9 230.1 225.5 222.5 219.1 214.8 206.1 227.5 230.9 231.6 231.9 232.3 231.4 228 223.1 215.6 201 182.7 164.3 149.2 135.6 124.4 119 112.5 106.2 106.3 109.2 107.7 105 105 106.4 108.2 108 104.6 104.2 104.9 104.8 106.3 104.9 103.8 104.2 100.2 91.6 83.3 78.4 81.8
407.4 414.5 420.2 425.1 429 431.9 433.7 433.9 431.9 430 427.2 424.1 420.4 416.7 415.6 412 410 407.2 405 402.2 399.9 397.9 396 394.1 391.6 387.5 384.5 382 380.1 378.5 375.1 372.5 366.4 360.6 353.8 347.7 343.4 334.7 334.5 339.3 340.5 331.6 341.9 343.7 346.1 350 353.9 358.7 365.6 374.7 385.2 390.8 396.6 404.3 410.7 417.7 419.3 415.6 405.9 396.3 384.7 371.5 363.9 356.3 345.8 338.2 334 333.9 332.8 332.6 332 332.8 334.2 334.7 333.2 331.5 329.9 328.2 326.9 326.8 326 325.6 325.8 326.3 328.9 331.8 332.3 331.9 328.1 321 315.6 308.9 299.7 293.1 288.8 284.4 281.2 278.2 275.3 272.1 268.9 263.9 258 240.4 220.4 217.9 246.9 270.5 276.3 277.9 276.2 274 270.8 267.7 267.2 258.9 251.2 237 229.1 235.3 226.5 218.7 222 214.3 232.9 246.2 249.8 245.6 245 252 260 270.9 280.8 288.6 295.6 302.2 309.1 314.5 316 316.3 315.5 313.8 309 297.5 286.9 276.5 268.8 263.8 260.7 255.8 247.1 242.9 237 236.3 232.9 230.2 219.2 210.1 207.6 201.4 225.2 230.9 233.2 235.2 236.4 238 237.4 232.7 227.5 220.5 210.4 192.2 172 154.8 137.6 125.3 117.4 111.1 106.1 106.2 107.5 107.1 104.6 105.5 105.1 106.4 107.3 106.4 106.1 105.3 105 106.2 104.7 103.6 103.5 93.5 86.2 83.6 79.7 80.3
411.2 416.6 422.7 427.5 430.6 433 434.1 433.9 432.4 429 426 421.6 416.2 414 411.5 409.3 407.2 404 402.1 399.5 397.6 395.5 392.8 390.6 388 385 381.6 379.8 377.9 376.1 372.2 367.8 363.1 356.7 349 342 334.3 336.4 345.7 344.6 333.7 345.3 347.3 348.1 351 356.2 360.7 368.7 376.4 383.9 390.6 399.8 408.1 414 418.4 422.1 422.4 419.1 410.4 399 390.5 376.5 368.3 360 349.8 342.3 338.3 338.5 337.8 337.3 337.3 337.8 339.7 339.7 338.8 337.8 335 332.6 330.1 327.3 325.3 324 323.1 323.2 324.5 326.2 326.2 325.1 321.8 314.8 310.1 304.2 297.2 292.1 288.4 284.6 281.1 278.2 275.4 272.1 269.1 265.7 261.1 249.9 231.9 214.5 234.5 254.1 260.8 269.7 269.8 266.4 262.1 253.8 249.8 246.8 235.9 218.6 206.6 211.2 201.1 196.1 195.7 197.2 207.1 223.9 230.7 228.7 237 249.1 258.3 271.2 284.3 295.7 305.4 307.7 312.7 317.3 320.1 321.3 320 316.7 309.9 295.7 284.8 276.6 270.6 265.8 259.7 253.9 250.3 245.9 238.6 233.7 231.3 226.3 218.8 210.4 196 212 227.3 233 235.5 237.3 238.1 239 239.4 236.6 230.4 222.7 215.4 199.7 178.9 159.1 142.9 127.7 118.4 111.7 106.5 105.2 105.1 105.5 106.5 106.6 105.6 106.8 106.6 104.2 103 102.7 106.6 108.7 105.5 103 95.8 89 91.3 84.2 82.8 83.3
415 420.1 427.1 431.2 433.1 434.5 435.1 434.6 432.5 428.6 424.5 420.4 415.5 411.4 409.3 406.8 404.6 402.1 399 396.1 394.3 391.3 389.2 387.7 385.2 382.8 378.7 377.1 375 371.9 367.4 361.9 357.7 350.7 342.2 338 349.9 350.5 349.3 345.4 347.6 349.7 349.9 351.7 355.5 362.8 369.7 379.1 387.5 395.4 403.4 413.7 421 425.3 429.3 427.7 425.3 422.2 414.7 402.4 391.6 380 372.4 362.9 354 347.2 344.6 343.9 343.6 343.6 343.8 344.2 345 345.3 344.4 342.8 340.1 335.4 331.4 328 323.8 321.9 320.8 320.2 319.5 318.9 318.7 317.6 313.8 308.2 304.1 299.2 293.3 289.6 287 283.7 280.6 277.7 274.8 272.4 270.2 268.2 263.8 254 238.4 220.7 213.1 230 237.6 252.9 261.6 257.3 249 234.9 224.3 216.8 207.2 193.7 191.5 191.5 188.4 187 188.3 187.8 187.2 193.4 198.4 218.6 235.7 246.2 258.6 272.3 284.3 295.9 306.7 311 312.6 315.9 319 318.8 316.5 310.4 303.1 292.2 282.5 275.3 268.1 263.6 256.4 252.6 247.6 243.2 232.1 229.8 227.4 222.1 216.8 205.3 199 220.8 229.1 235.3 237.2 238.3 237.6 237.2 237.6 237.2 233.4 225.6 217.5 202.9 182.1 163.9 144.2 131.2 121 112.7 108.3 106.4 104.7 106.1 107.8 107.5 107.3 106.4 106.5 105.4 104.1 102 104.3 106.2 106.5 102.7 92.6 96.5 91.1 83 82.8 82.8
420.2 425.2 430.9 434.2 435.5 436.5 436.9 435.3 432.2 428.1 423.1 417.7 413.7 409.6 407 405.3 402.4 400.7 396.8 393.4 390.7 388.4 386.8 384.5 382.1 379.1 376.3 374.1 372 368.1 364.3 355.7 352 343.6 345.2 354.6 354.7 354.3 352.9 348.9 351.7 353.5 355 357.8 363.6 372.4 382.4 390.4 397.9 405.5 416.1 424.7 431.3 434.3 437 434.9 429.8 423.7 417.1 405.9 392.7 383.3 375.5 367.2 360.5 355 351.9 350.7 350.7 350.5 350.6 350.5 351 351 349.7 347.3 343.8 339.3 335.3 330.2 323.1 318.6 316.9 315.6 314.1 312 311.3 309.9 307.7 302.2 297.3 293.9 289.6 286.4 284 282.7 278.9 275 273 271.3 269.5 267.5 264.8 259.9 251.3 236.7 216.2 211 209.8 228.9 242.1 236 225.1 211.1 200.6 199.6 200.7 196.1 199.3 203.2 200.3 198.6 192 191.4 186.1 182.9 187 204.3 226.4 240 257.2 273.5 284.4 298.8 309.3 313.3 313.3 311.7 314.4 312.6 309.6 303.2 294.4 285.9 277.6 271.8 263.9 258.8 252.9 247.6 242.8 236.1 228.1 225.2 224.2 220.1 208.1 202.4 196.9 220.2 230.5 235.7 237.2 236.5 234.5 233.3 233.4 232.9 231.6 227.2 216 203.5 182.6 163.8 146.6 134.2 125.6 118.6 112.4 113.3 109.2 106.6 109 109 108.1 107.7 107.5 107.4 105.5 101.5 102.8 104.7 104.9 101.5 94.1 101.2 98.9 86.9 82.8 81.6
425.6 430.9 435.1 437 438.1 438 436.7 434.1 430.9 426.7 421.8 415.2 411.5 407.9 405.5 401.9 400.6 398.7 395.4 390.8 387.4 384.9 383.5 381.8 379.4 377.1 374.4 371.1 369.8 363.1 357 349.1 346.9 355.3 359.4 359.6 358.8 357.4 355.4 353.3 355.2 357.5 360.3 363.9 372.5 382.6 392.8 401.6 408.9 418.9 426.1 433 438.1 440 440.4 437 431.6 424.9 417.8 406.8 397.2 387.9 378.9 372.2 367.2 364 361.7 359.4 358.1 356.7 356.5 355.9 356.2 355.9 354.2 350.9 346.8 341 336 331.1 323.8 315.5 312.8 311.1 310 306.8 305.7 304.5 302.3 297.2 293.3 290.1 285.7 282.8 280.7 279.9 277.6 273.6 270.9 267.9 266.1 265.6 263.6 260.8 255 250.1 243.4 230.3 212.3 205.4 212.2 207.9 200.7 202.3 200.6 197.5 206.9 211 214.4 216.8 218.2 219.3 213.4 210.5 214.9 197 182.7 191.1 216.6 234.3 257.9 275.4 288.9 305.6 316.5 317.6 321.3 311.8 305 301.2 295.3 289.5 284.1 277.9 272.2 265.7 258.5 252.6 244.5 239.5 232.9 226.9 222.9 220.9 218.2 213.5 204.9 190.5 187.9 217.7 227.7 231.9 232.4 231.9 230.2 228.5 229.2 228.4 228.7 226.1 215.5 201.9 181.5 162.9 147.7 136.9 131.7 123.9 116.9 118 113.6 112.4 113.2 110.4 108.6 109.1 109.5 111.5 108.4 101.1 103.6 105.2 103.5 99.1 97.5 100.7 102 95.8 83.4 82.8
428.6 435 437.1 438.8 439.4 438 435.3 432.2 428 423.2 419.1 413.2 409.6 405.6 403.2 400.8 398 395.7 392.8 386.4 384.1 381.8 379.1 377.9 375.8 372.7 368.2 365 361.5 363.6 356.4 360.1 362 364.9 364.7 364.3 362.9 360.3 358.7 353.3 359.3 361.5 363.4 369.3 380.1 390.6 403.3 410.2 422.4 431.4 436.5 440.8 443.3 442.5 441.5 438.6 432.2 423.4 416.6 408.3 399.6 391.1 382.6 375.1 369.8 367.3 365.4 363.5 362.3 361.2 360.4 359.7 359.9 358.7 356.9 353.2 348.6 341.1 334.8 327.8 320.1 313.1 308.9 305.9 303.3 302.2 301.9 300.8 299.1 293.9 289.6 287.7 282.3 279.3 276.1 275.9 273.3 269.9 267.5 264.1 261.4 261.5 261.7 259.7 256.1 250.4 244 238 229.3 220.7 209.6 205.4 205.2 209.4 212.8 214.2 221.2 226.4 227.8 229.6 231.9 233 225 233 233.2 220.9 188.3 186.9 203 230.1 257.1 273.6 289.7 307.1 317.7 321.8 323.4 313.1 295.9 290 284.5 279.5 275.8 269.6 264.5 259.6 251.6 243.6 236.4 231.7 226.8 222.1 218.2 214 210.6 206.9 201.7 188.1 195.8 214.9 223.3 224 225.4 225.2 224.8 224 225.1 223.6 223.3 218.7 211.4 200.7 178.1 159.7 147.8 139.4 132.8 124.8 119.1 119.1 116.1 115.1 116.7 112.2 111.6 112.6 115.2 116.3 113.6 105.6 101.8 102.3 99.4 97.3 100.7 100.6 100.6 99.6 87.8 82.8
430.7 435.5 437.6 439.1 438.8 437 434.1 429.7 425.3 420.8 416.2 411.1 407.9 404.1 401.3 399.2 396.7 394.2 391.5 387.5 381.2 379 375.5 372.7 370.8 367.8 368.8 372.3 370.6 370.3 369.7 368.6 368.2 370.2 371.3 370.1 367.2 363.5 362.9 361 362.3 365.2 367.2 373.1 383.6 395.5 406.3 416.2 428.1 435.7 440.6 444.1 446.1 444 441.9 438.7 431.3 422.8 417.1 410.3 403.2 392.5 384.1 376.9 371.5 368.8 367.3 366.2 365 363.7 362.5 361.5 360.7 359.5 357.4 353.2 348.3 340.9 334.2 325.8 318.2 311.5 305.5 302.6 300.1 296.5 296.4 296.4 294.7 290.6 285.4 282.6 278.9 273.8 272.6 268.7 266.4 263 261.9 258.2 254.1 256 257.3 256.2 254.2 250.9 244.5 235.8 229.2 221.4 207.5 208.9 219.1 223.2 225.4 228.5 230.6 235.6 236.4 236.2 238.9 239.3 242.2 243.7 241.9 227.3 202 177.7 189.2 221.8 248.1 267.1 286.1 303.4 317.4 325.5 323 310.7 294.3 279.9 271.2 266.6 263.4 258.5 253.3 247.9 241.2 235.7 230.3 224.3 222 219.2 215.2 207.7 201.9 202.2 196.6 183.3 196.6 209.4 215.7 216.9 216.1 215 215.4 217.8 219.7 218.1 216 212.9 207 193.5 174.3 157.9 147.9 141.1 132.7 129.3 122.2 119.3 118.3 117.7 118 113.9 112.6 113.5 115.4 115.5 114.3 110.3 105.2 104.8 101.5 98.4 102 102.1 100.3 98.6 86.1 83.4
428.9 434.7 436.9 438 436.9 434.4 431.6 427.2 422.8 417.9 413.1 409 406 402.9 400.6 398.1 395.1 392.5 389.1 385.7 381.5 379.2 372.9 373.1 375.6 375 376.1 376.5 374.5 374 373.3 372.3 373.7 376.1 377.5 375.2 370.7 367.2 366.2 365 365.5 368.8 371.1 376.9 387.2 398.3 408.8 418.9 429.1 438.2 443.2 446 446.5 444.4 442.7 439.1 432.8 424.9 418.1 411.7 404.8 393.7 384.7 377.8 372.6 369.8 367.8 366.7 365.5 363.5 361.2 360.3 358.9 356.9 354.7 351.6 346.8 340.1 332.5 326 317.9 311.1 304.5 300.1 295.2 291.9 290.1 291.2 291.7 287.5 283.5 278.9 272.8 268 263.5 261.7 258.1 254.4 252.3 249.9 246.3 244.9 246 246.8 244.8 243.4 239 231.8 221 211 223.1 225.9 230.4 234.3 236.7 239.2 235.8 239.9 241 241.1 236.3 234.4 247.9 251.3 248.3 236 208.8 190.6 177.1 204.9 235.2 258.5 280.5 301.3 311.5 318.4 315.1 306.6 291.6 272.5 260.8 255.4 252.5 247.6 242.5 235.6 228.6 224 221.7 218.4 216.6 215.9 214.7 208.8 200.2 196.8 190.1 182 195.8 205.3 208.9 209.6 206.2 204.2 205.8 212.3 214.9 213.1 211.9 208.9 202.6 188.9 170.8 157.9 148.1 139.9 133.1 127 123.7 121.7 120.2 116.4 118.6 118.4 117 116.6 115.8 114.4 114.6 113.3 105.8 102.4 100.5 100.5 104.6 104.3 100.5 95.8 87.7 83.3
427.3 433.9 436 436.6 434.4 431.6 427.9 423.8 419.8 414.9 410 406.7 403.7 401.6 399.8 397.5 393.6 391.6 388.1 384.3 379.3 377 374.7 378.9 379.1 379.8 381 379.8 377.9 377.4 376.2 376.5 379.4 381.3 382.3 379.5 375.1 371.4 369.9 369.2 369.1 372.3 375.9 380.8 390.5 400.6 410.6 419.2 428.3 437.6 442 444.7 445.2 444.5 443.2 439.8 433.7 425.5 416.3 411.7 404.9 391.9 384.7 378 373 370 367.3 365.6 363.7 361.6 359.5 357.1 354.2 350.9 348.3 346.3 342.4 337.6 330.8 324.6 318 310.7 302.5 294.5 290 286.9 285 286 287.2 284.2 280.7 274.6 269 262.1 256.1 249.9 245 241.8 236.7 232 230.3 229 228.2 226.3 226.8 221.8 219.4 218.4 213.1 224.2 233.5 235.9 239.2 241.5 242.1 244.5 245.6 245.5 246.2 241 248.6 250.7 255.1 257.6 256.5 247.3 219.5 197.8 169 193.4 225.1 251.7 273.5 290.6 302.6 308.9 306.1 299.6 284.8 262.8 252.4 247.1 240.9 237.2 231.8 227 220 216.7 212 209.6 207.4 212.8 213.3 209.3 202.3 196.4 182.3 179.3 192.6 201.6 201.7 200.7 197.4 195.1 197.4 202.8 206.9 207.5 205.8 201.7 197.1 182.6 167.3 157 148.5 140.9 133.2 125.3 124.7 125.4 127.9 121.8 116.4 121.3 122.3 121.6 119.5 116.4 115.2 112.9 106.8 103.1 100.9 101.9 106.1 110.9 105.8 101.3 99.9 90
428.3 432.7 434.8 434.7 431.1 427.7 424.3 420.5 416.7 412.1 407.6 404.5 402.6 400.9 399.1 396.6 392.5 390.2 385.5 380.4 376.7 378.2 380.4 381.6 382.6 383.8 383 382.1 381.6 381.9 382 385.7 389.3 389.4 388.7 386.1 380.5 376.8 374.5 372.6 371.1 375.5 379 385.3 394.2 402.9 412 420.2 428.4 435.4 440.7 443.7 445.3 444.7 442.6 439.3 433 422.6 413.5 408.6 402.2 392.3 384.1 377.2 372.1 368.4 365.5 363.1 360 356.9 354.2 350.5 347.1 342.9 341.7 339.3 336.1 331.7 327 321.1 314.8 308.1 300.9 291.2 284.7 282 279.2 279.7 280 278.3 275.6 269.8 265.5 256.9 242.9 240.4 243.6 247.8 246.1 244.9 242.7 241.3 238.8 240.3 234.5 234 232.9 232.9 236.5 238.3 243.9 244.2 245.8 246.6 247.8 250.6 252.8 253.8 254.5 254 255.5 257.6 262 264.8 263.6 253.2 227.1 200.5 175 182.9 209.7 236.3 258.3 276.6 288.6 295.9 295.1 288 272.8 255 244.1 233.8 227.6 221.4 222.7 216.1 210.1 205.7 200.3 195.5 195.1 204 208.7 209.7 202.5 195.4 179.4 178.9 186.9 196.1 195.1 192.7 188.6 185.4 187.3 192.3 198.4 200.7 198.5 195.4 189.7 179.4 171.8 160.3 149.8 142.1 134.1 127.3 129.8 135.1 134.4 130.1 120.4 120.1 122 123 121.5 118.7 117.2 112.3 112.7 105.4 103.4 101.6 107.7 112 108 109.4 109 103.4
427.8 432.9 432.5 431.4 427.8 424.3 420.7 417 413.1 408.7 406.2 404.4 402.4 401 399.1 395 391.3 387.9 383.1 379.5 381.5 382.7 384.1 386 386.6 386.7 387.7 388.9 390.8 392.7 394.3 395.2 397.2 396.3 395.2 391.5 384.8 381.7 379.7 374.5 376.8 378.8 382.2 388.7 397.1 405.4 412.9 420.7 428.1 434.7 440.9 443.9 445.6 444.2 441.8 437.6 430.1 418.3 410.7 404 397.8 390.2 382.5 376.3 370.7 365.1 362 359 354.6 350.7 346.8 342 338.2 335 333.3 331.1 328 324.7 321.3 315.8 310.3 303.8 297 287.8 280.7 277.4 271.1 269.3 267.6 267.4 267.4 263.2 258.7 244.8 252.2 255 255.8 255.9 254.8 252.9 250.4 250.7 249.4 248.7 248.4 248.9 248.4 251.4 251.5 251.4 252.5 252.5 252.5 253.2 255.2 257.4 259 259.6 259.8 259.7 261 264.3 269.9 273.1 275.3 270.3 233 206.6 180.6 175.1 189.1 215.1 237.2 256.8 272.4 279.4 278.9 270.6 261.4 250.3 237.5 226.4 218.5 218.2 212.4 204.7 200.6 193.5 189 190.2 190.5 189.1 197.6 205.5 201.3 193.8 181.5 177 180.3 188.7 187.9 185.1 178.9 175.7 176.7 182.1 187.9 190.1 189.8 190.3 186.6 183.1 177.2 167 154.8 142.5 134.2 128.4 133.6 135.3 135.3 134.5 133.1 126.1 121.7 120.4 118.7 117.3 120.1 116 116.3 111.8 104.4 102.3 105.7 111.4 113 113.2 114.5 111.7
428.1 431.3 429.6 427.2 424.1 420.5 416.7 413.6 410.4 407.5 406.3 405 403 400.9 398.3 393.4 389.7 386.7 381.3 383.6 384.5 385.7 387.7 390.7 391.9 393 395.3 397.3 399.2 403.6 405.6 405.2 404.1 403 400.8 394.8 388.7 385.1 382.7 380.7 382.1 381.4 385.4 391.2 398.6 405.7 412.9 421.1 428.7 435.2 441.3 443.5 444.5 442.9 440.2 435.1 425.3 417.4 410.2 401.5 394.2 387.1 380.7 374.6 368.4 361.8 357.2 352.7 348.3 343.9 339.7 335.5 330.6 328.1 325.6 322.9 319.5 316.9 313.3 307.9 302.3 296 288.3 281.2 269 266.2 262 260.6 257.1 255.5 252.9 255.3 248.3 257 260.9 261.9 261.6 261.5 260.1 257.6 256.6 256 256.3 256.2 257.4 258.8 260.4 262.3 262.9 262.8 261.8 261.1 259.8 260.7 262.4 264.4 263.9 264.1 265 265.5 267.1 270.2 276 278.6 280.7 278.6 249.7 219 194.5 166.9 174.9 188.9 210.2 232.2 250.4 257.2 257.9 253.9 245.8 240.7 235.2 218.4 214.8 213.2 203.6 198.1 193.6 188.8 184.9 184.7 192.2 192.5 186.8 198.1 195.2 194.1 185.3 181.2 174.4 180.6 176.8 172.3 170 168.2 166.4 172.1 177.1 180.1 182.5 186.5 191.2 187.6 179.8 169 156.8 144.3 135.3 132.3 135.8 135.1 132.9 132.2 134.6 133.1 124.9 121 118.7 118.2 121 121.9 116.6 112.4 107.4 107.1 106.3 110.9 112.8 112.4 113.1 113.4
424.7 426.8 425.7 422.9 419.8 416.8 413.3 410.5 408.5 407.3 406.3 404.7 402.3 399.5 395.6 392.3 389.6 386 387.5 386.9 387.8 389.2 392.4 394.3 395.5 398.2 401.1 404.7 410.2 413.7 414.5 412.4 410.8 407.5 403.8 397.6 392.1 387.5 382.2 384.6 386.7 388.6 388.4 393.3 398.9 405.7 412.8 420.4 428.7 435.4 440.9 443.1 442.4 440.8 438 430.6 423.7 417 409.6 400.5 391.1 384.9 378.7 372.2 365.4 358.3 351.9 346.7 341.5 337.7 334.1 329.9 325.5 321.6 317.9 315.9 312.5 308.6 303.9 298.8 291.5 282.6 278.3 278.4 278 277.3 273 272.4 268.8 265.2 260.4 252.4 259.1 265 266.6 267.4 267.3 265.4 264.3 263.1 263.3 262.6 263.4 265.6 266.3 269.7 274.3 275.2 274.7 272.5 272.2 271.6 271.7 269.4 270.3 270.6 270.4 270.1 270.5 272.6 274.7 277 280.8 282.5 283.1 280.9 274.4 244.3 225.2 192.4 169.8 163.6 181.3 206.5 226 233.7 232.4 231.5 228.5 227.1 221.8 208.6 203.2 200.5 196.6 191.9 188.4 181.3 176.7 177.3 179.3 186.7 188.7 185.8 185.3 182 178.2 175.8 173.6 173.7 170.9 162 150.9 141.9 140.8 149.6 153.2 160.5 175.1 183.8 190.9 187.7 180.4 167.9 154.7 143.3 138.8 137.5 136.3 134.5 133.3 130.3 130.6 132.5 130.6 125.2 122.2 121 119.3 122.3 116.6 115.3 111.2 111.5 111.2 111.9 112.8 112.7 112.6 101.5
420.1 421.5 420.6 418.4 416.2 413.6 410.7 408.5 407.8 407.1 405.3 403.5 401.2 398.2 395.5 392.6 389.1 388.4 390.9 390.6 391.9 393.4 395.7 397.4 398.8 404.9 408.7 412.9 417.7 420.1 420.6 419.3 416.1 410.6 406.4 400.1 395.1 389.9 388.7 387.2 390.1 392 393.4 395.5 401 406.7 412.9 420.2 428.6 435 439.4 441 439.9 438.2 434.7 429.3 423.1 417.3 408.2 399.4 389.5 382.1 375.3 370.3 363.4 354.6 347.5 341.5 336.4 332.3 328.5 325.1 321 316.7 312.8 310 306.5 301 293.1 287.1 290 290.8 288.8 286.2 284.4 283.1 280.4 275.8 270.9 266.4 258.7 257.6 265.4 269.9 271.4 272.5 271.1 269.4 269.2 270.6 270.5 269.3 270.5 274.5 277.4 282 286.6 286.2 284.4 281.2 281.1 280.5 282.6 281.5 281.2 280 281.7 281.8 279.3 277.6 279.7 282.5 284.5 284.9 283.7 279.9 275.9 257.9 232.7 201.4 186.3 170.2 160.6 181.3 202.4 209.3 208.4 205 201.4 204.5 203.4 192.6 187 183.9 179.8 173.3 171.9 169.2 163.1 158.2 166.5 176.9 190.2 190.3 189.8 182 174 168.4 170 174.8 164.5 141.6 136 135 134.4 133.3 132.3 141.4 163.2 174.3 181.8 183.5 175.4 164.5 153.9 147 143.2 138.8 135.8 133.6 133.4 129.7 129.2 130.6 132.4 131.8 124.5 121.8 119.3 120.8 122.2 115.9 111.2 112.1 112.7 112.4 113.1 112.1 106.6 94
415.2 416 415.5 414.6 413.3 411.6 409.1 407.4 406.6 405.5 403.1 402.2 400 396.9 394.2 390.8 391.3 393.2 394.3 395 395.9 397.4 399.5 401.4 405.4 409.5 414.6 419.8 422.6 423.9 425.4 425 421.3 414.4 407.3 401.4 397.2 394.1 392.3 390.8 392.6 394.3 397.3 400.1 401.7 408.2 412.8 420.1 427.9 433.2 435.6 437.1 436.7 435.6 432.9 428.6 423.5 416.6 407.5 399.2 388.2 380.1 374.2 367.3 360.4 351.7 344 337.4 332.1 328 324.9 321.3 317.2 313 309.1 304.4 299.8 292.9 298.5 300.4 298.9 296.4 294.9 292.3 290.1 287.3 283 277.3 273 268.8 260.1 260.1 269.6 273.8 276.4 276 275.5 276.3 277.8 278 278.7 278 282 287.6 290.8 295.4 297.5 299.9 298.3 292.6 291.9 292.8 296.7 298.1 295.9 293.4 294.7 294.6 290.7 284.8 284.6 285.4 286.5 285.9 284.5 279.6 274.5 265.5 237.7 222.3 213.9 192.3 175.2 162 173.7 184 184.2 181 176 179.6 179.2 174.6 166.1 158.1 156.7 155.7 154 153.6 153.4 151.2 150.3 152.3 170 184.2 176.4 170.2 152.6 149 147.5 144.6 137.5 136.3 135.7 134.2 134.7 133.2 131.9 131.7 140.5 153.1 166.1 169.1 168.8 163.6 156.4 150.6 146.3 142.1 137.3 136 132.7 129.3 130.1 130.2 130.6 132.2 126.2 123.4 123.3 120.6 123.2 120.9 115.9 111.8 114.6 115.7 111.7 107.3 93.6 93.7
410.3 411.5 412.2 411.6 410.5 408.9 407.3 406.2 405.6 404.4 403 401.1 399.1 396.8 393.4 391.5 395 396.4 397.6 398.6 399.7 400.7 403.3 405.4 408.7 413.3 417.9 422.2 425.2 428.2 430.2 429.8 426.2 417.6 412.8 405.7 401.3 398.8 396.4 395.9 397.1 401.3 403.1 405.5 408 409.6 413.7 420.4 425.5 429.6 432.1 434.1 434.7 433.9 431.5 427.8 423.2 416.5 405.8 397 387.8 380.3 373.4 366.1 357.5 348.7 340.5 333.3 328.2 325 322 316.7 312.5 309.7 306.4 297.2 302.4 305.4 306.1 305.3 304.7 303.2 300.3 295.9 292.8 288.8 283.8 278.9 275.4 272 260.5 263.2 272.4 277.2 280 281.6 283.8 285 285.2 285.2 285.8 289.3 294.3 299.1 303.4 306.9 310.1 312.1 312.1 305.7 302.7 305 310.9 309.7 308.1 306 306.7 308 300.9 293 291.4 290.6 287.7 286 282.3 277.9 271 263.8 246.4 241.6 237.4 215.5 193.2 175.5 160.6 158 158.2 156.8 155.6 153.8 153.3 154.7 153 152.5 152.4 151.4 149.5 149 147.8 149.2 148.6 148 147.8 153.3 147.4 146.4 141.2 139.7 138.4 137.7 137.6 136.8 135.8 134.6 134.9 133 132.4 131.3 130.1 133.9 137.3 149.6 153.3 161.9 158.8 152.7 150 148.5 143.3 141.8 138.2 135.5 133.5 131.1 129.1 129 124.8 122.5 124.6 120.6 121.4 120.9 118.3 116.4 115.8 117 102.4 96.5 94.6 93.5
406.3 408.6 409.4 409.1 408.3 407.6 406.6 405.7 404.9 404.1 402.9 401.1 396.6 395.6 394.5 394.7 398.1 399.3 400.3 401.2 402.4 404.3 405.8 408.2 411.1 415.3 419.9 424.1 428.5 431.6 433.2 433.1 429.1 426.4 424.2 419.7 411.9 409 407.8 409.3 411.6 411.3 412 411.5 412.9 413.4 417.4 421.9 426.2 429.1 431 432.4 433.1 432.6 431 428.4 424 416.7 405.9 395.6 387.5 379.9 372.1 364.5 355.4 346.1 338.4 332.3 327 320.4 318.2 312.6 309.1 305.7 300.7 306.6 310.7 312.5 311.3 310 309.1 307.5 304.6 299.3 295.3 290.2 284.8 280.5 277.4 274.1 266.4 265.6 275 281.1 285.6 289 290.8 291.5 292.9 294.2 296.1 299.6 305.4 310.2 313.8 317.4 321.4 322.2 322.8 318.5 314.3 316.2 319.3 322.7 320.5 317.2 315.7 316.3 309.2 301.5 300.2 300.3 294.4 290.2 286.9 281.6 274.7 269.4 262 261.6 257.1 231.7 212.1 199 190.5 184.2 178.6 172.9 171.4 171.9 168 163.8 156.4 152.7 153.2 152.2 156.9 153.4 148 146 147.2 146.8 146.1 144.9 142.5 141.3 141.1 139.7 138.2 137.7 140.1 143.3 144.9 149.3 146 146.5 142.4 131.2 131 129.9 131.5 132 136.4 147.9 159.5 156.9 155.5 153.2 150.6 146.1 141.7 138.9 136.9 134.7 131.3 129.1 125.4 125 126.5 122.9 121.9 119.3 117.7 117.9 109.7 101.1 97.5 94.2 95.9 95.1
