ncols 200
nrows 118
xllcorner 520000
yllcorner 102300
cellsize 50
-2 3.5 3 2.5 11.5 19.2 24.3 26.2 26.6 25.7 24.1 13.7 14.2 22.1 28.3 34.5 41.1 48.5 56 62.7 69 75.8 83.1 90.2 92.9 89.6 77.1 68.5 66.4 67.7 69.1 71.8 74 76.4 79.4 83.4 87.7 91 93.3 92.1 87.1 79.1 72.2 68.4 67.1 65.4 63.6 61.5 65.8 72.1 82.4 92.5 104.6 112.4 120.2 128.3 134.6 139.6 141.6 141.2 139 134.4 128.2 116 101.1 89.4 83.9 80.1 76.9 73.5 71.9 68.8 66.8 64.8 62.4 60.3 58.5 54.6 51.8 57.2 62.7 65.4 66.6 68 67.3 66.3 66.5 72.9 80.5 87.9 93.7 95.4 92 85.6 74.7 61.4 60.5 64.5 70.7 82.4 91.1 97.4 100.7 101.8 102.7 105.1 106.9 105.5 98.7 87.4 72.3 64.8 60.9 58.4 60.8 66.5 73.6 79.8 85.3 88.3 85.1 77.5 65.6 58.4 58.8 60.6 63.7 67.3 69.2 72.2 75.4 80.8 87.8 95 100 103.1 104.6 107.3 111.6 117.3 118.6 118.1 113.8 105.6 92.6 80.7 76.3 76.5 78.6 80.9 80.2 79 77.4 79.5 85 92 99.8 106 108.4 109.3 106.5 103.2 107.4 108.4 109 118.1 125.1 129.2 125 117.5 123.8 126.8 127.3 126.3 125 121.6 118.1 113.6 114 115.9 115.7 114.9 113.7 109.1 104.4 97.8 90.2 81.6 74.2 70.1 65.6 62 57.8 57.5 57.7 59 56.8 53.5 52.8 46.2
-2 -2 -2 3.2 2.4 12.8 19 20.5 20.3 17.3 13.3 9 16.4 28.3 34.9 40.5 44.3 50 56.8 62 67.9 75.8 86.9 93.6 96.5 93.6 84.7 72.3 65.3 63.9 65.8 67 69.3 71.9 75.3 79.1 83.3 87.7 89.5 88.1 82.7 74.6 68.2 64.9 63.8 62.4 60.7 62.3 69.5 76.9 89.3 98 105.6 112.8 120.3 127.8 132.8 136.9 138.6 138.5 138 134.8 130.5 124.1 112.3 98.8 90.3 84.6 80.3 76.4 72.5 69.2 66.1 63.6 61.4 59.4 56.7 54.8 51.6 54.4 58.7 61.1 62.3 63.4 63.4 61.5 63.3 68.4 75.7 83 91.5 91.3 88.6 83 72.9 60.6 58.9 64.3 74.6 82.2 88.9 93.4 94.8 95.8 95.5 98.8 103.2 103.3 98.9 87.5 70.2 62.8 58.9 57.6 60.9 65.9 71.8 78.3 83.8 87.6 86.8 80.4 68.7 58.5 56.9 59.1 62.4 64.9 66.7 68.5 71.5 75 80.9 87.7 92.9 97.5 97.9 101.4 107.1 114.3 117.2 118.7 115.6 110.3 100 87.4 76.7 73.9 75.5 77.7 77 75.8 75.8 78.3 84.2 90.4 97.7 102.2 103.7 104.7 100.1 99.9 104.1 107 108.8 114.3 118.4 120 115.3 123.9 123.8 125 125.6 125.2 123.8 121.1 118 112.5 110 113.3 114.8 115 114 111.7 108.1 103.3 98 91.7 84.4 79 75.1 68.1 59.2 54.7 53 52.7 51 48.7 52.6 43.4
2 -2 -2 -2 3 2.5 9.3 12.7 4.8 3.1 6.9 14.4 24.9 34.8 40.6 45.6 48.7 53.5 59.2 64.6 71.4 83 92.6 97.3 99.5 96.7 90 81 70.4 63.6 61.7 62.2 64.8 67.6 71.2 74.7 79.4 83.6 86.3 84.1 78.9 70.7 64.3 61.5 60.4 59.2 60.4 66.1 74.9 84.4 91.3 98.1 105.3 112.6 118.9 125 130.3 133.5 134.2 134.9 135.3 134.6 131.9 128.1 123 113.5 104.6 96.8 91 86.3 81.9 77.9 75 72 69.2 67.3 63.7 58.4 52.3 51.7 54.3 56 57.3 59.3 58.7 58.5 60.5 64.1 71.2 78.2 84.2 88.3 84.7 80.4 71.7 60.5 57.7 64 73.8 79.6 84.5 87.7 89.3 88.3 87.5 93.9 100.7 104.7 100.2 89.3 71.4 62.1 57.1 57.3 60.6 65.2 69.7 76.2 82.1 86.5 87.7 83.1 72.7 60.3 55.9 56 60.4 62.4 64.2 65.9 67.5 71.6 75.1 81.6 86.3 89.3 93.4 96.8 102.6 108.3 114.7 116.6 116.5 112.4 105.4 92.4 78.5 72.7 72.6 74.6 74.4 73.7 74.5 77.9 82.6 89.2 94.2 97.7 98.9 101.1 95.8 97.1 99.1 102.7 109 112.8 114.6 112.6 120.4 123.1 123.5 123.9 124.3 123.7 122.2 119.9 117.1 112.5 107.2 107.1 112.2 112.8 111.8 110.4 108.4 105.4 102.9 99.3 94.8 90 83.7 76.5 65.7 57.5 52.3 49.8 47.2 45.2 51.6 41
2 1.7 -2 -2 -2 2.3 3.3 2.8 2.7 5.6 14.7 25 33.2 38.7 43.6 47.7 52.7 57 62.2 68.6 78.9 89.7 96.9 100.6 101.4 98 91.9 83.4 76.3 68 62.8 59.1 60.3 63.2 66.1 70.8 75.7 80.3 82.1 80.8 74.7 66 60.6 58.7 57.6 58.7 64.8 72.3 79.4 85.7 91.3 97.3 103.6 109.9 116.1 121.8 125.8 128.5 128.9 129 130.7 131.6 131.7 129 126.4 121.9 117.2 112.3 106.6 101.2 94.6 90.1 86.6 83.4 79.9 76.5 71.9 65.3 56.6 50.7 49.4 51 54.9 53.5 55 54.3 57.4 60.1 66.2 73.6 79.3 77.3 73.6 69.7 68.8 62.6 61.2 63.4 71.3 75.4 78.6 80.5 84.3 80.6 83.5 92.1 99.7 105.6 102.9 94.2 74.7 63.1 56.5 56 59.1 63 67.1 73.4 79.5 85.2 89.5 86.1 75.7 62.7 56 54.8 56.7 58.5 60.2 62 63.7 67.4 71.9 77 81.9 83.9 85.9 91.6 97.5 103.5 109.7 113.9 115.8 112.8 107.6 97.6 82.4 73.2 70.5 71.7 72 71.5 73.1 77.2 80.9 86.8 90.3 93.5 93.7 91.5 92.2 93.4 94.8 97.7 103.6 107.1 109.9 117.9 123.6 124.2 123.6 122.8 122.3 120.9 119.4 118 115.9 112.7 105.9 101.8 107.1 108.2 107.4 106.1 104.9 104 103.6 102.8 100.2 96.8 91.8 84.7 77.2 67.1 59.6 54.6 49 45.9 46.7 40
1.9 1.5 1.5 -2 -2 3.1 2.3 3.5 10.2 17.2 25.8 31.3 37.1 41.7 45.6 49.8 54.6 59.1 64.8 74.3 84.7 93.7 100 102.5 101.6 96.7 90.4 82.9 75.2 69.6 64.8 59.5 57 58.4 62.7 67.9 73.1 77.4 79.7 77.8 70.9 63 57.8 56.2 57.1 62.1 69.9 76.4 80.5 84.4 88.9 94.1 100.1 105.8 111.3 116.4 120.4 122.4 122.7 121.8 124.7 126.4 128 127.8 126 122.9 120.8 119.4 116.2 114 110.1 106.4 102 100.1 96.4 91.5 83.5 74.5 64.8 57.1 50.7 48.2 48.2 49.1 50.5 51.1 52 56.7 60.5 63.7 63.2 63.7 64.1 66.7 69 65.7 68.1 66.5 66.3 66.5 71.8 73.2 74.4 73.9 80.6 89.9 99.4 105.4 103.8 95.8 83.8 66 57.6 55.2 57 60.1 63.7 69.9 76.9 84.1 91 89.8 79.9 67.2 58.1 54.5 54.2 55.4 56.7 58.1 59.9 63.1 67.8 72.8 77.4 79.6 81.5 86.7 92.1 98.9 104.9 112.2 113.7 112.8 108.7 99.6 88 73.5 70.1 69 69.8 69.3 72 75.5 79.8 82.7 85.9 88.7 88.8 87.9 89.1 90.2 93.4 99.7 102.7 109.1 115.9 120.3 122.5 122.6 121.3 120.6 119.8 116.8 115.3 115.1 114.3 112.2 106.3 98.3 99.1 102.2 100.1 96.6 94.1 96.9 98.5 99.9 100.3 99.2 95 89.7 82.8 75.6 67.3 58.6 49.3 44.3 40.8 39.1
1.1 1.3 1.5 1.7 -2 -2 1.9 3.1 21.9 27.3 32 35.2 39.1 43.2 46.9 50.2 55.1 59.8 67.6 77.5 87.7 96.3 101.9 102.8 99.9 94.4 87.6 80.1 72.9 66.4 63 60 55.8 54.7 59.3 64.6 70.2 75.3 77.1 74.9 67.7 59.2 56 54.9 60 66.8 73 76.2 78.6 81.8 85 88.6 93.8 99.8 105.8 111.6 114.6 116.4 115.9 114 117.8 121.6 123.6 124.1 122.8 121.5 121.4 121.6 120.6 119.3 116.8 114.8 113.3 110.9 108 103.2 97.9 87.4 75.4 65.1 57.9 54 49.2 46.8 46.4 49 47.3 58.7 60.1 65 70.3 75.6 76.1 74.6 69.9 61 54 59.2 62.7 65.8 68.2 68.8 67.4 70.7 78.3 89.3 100 104.8 104.1 98 88.8 71.9 60.2 55.9 54.4 57 60.5 65.7 74 82.3 90.4 92.8 86.7 76.1 64.1 57 53.8 52.5 53.8 55.2 56.5 59.8 64.5 68.4 73.8 75.4 76.7 80.1 86.3 95.2 101.1 107.9 110.9 112 109.5 102.8 91.7 76.9 69.4 67.1 67.2 67.6 70.9 73.7 76.4 78.7 81.7 83.8 84.6 85 88.7 93.3 96.3 97.1 100.4 108.2 114 117.9 119.7 120.1 119.4 118.6 116.3 112.8 109 111.1 112.5 111.6 106.8 99.1 92.2 89.1 85.2 81.8 78.8 80.3 86.5 92.4 93.9 94 92.8 89.8 84.5 78.1 70.1 59.9 49 46.4 39.5 37.4
1.1 1.3 1.5 1.7 -2 -2 2.1 2.3 11.2 30.8 33.8 36.9 40.2 43.6 47 50 54.6 60.2 68.4 79.4 89.6 97.7 103.1 102.5 98.2 91.7 84.4 75.8 68.8 63.2 60.6 58.2 55.2 53 56.5 62 68.1 73.5 75.9 72.7 65.1 56.9 54.5 56.2 62.8 68.9 72.5 74.7 76 77.5 79.1 82 86.7 92.8 100.5 106.9 109.3 110.7 108.1 106.2 111.8 116.4 119.2 119.4 117.9 117 117.4 119.1 120.3 120.8 119.9 117.1 116.3 115 112.3 109 105.3 98.2 89.3 78.1 71.1 66.9 61.5 55.7 51.6 48 55.3 59.2 53.3 58.9 67.2 72.8 73.8 72.3 68.7 61.6 52.7 54.1 58.1 58.2 59.3 70.2 72.1 73.7 81 91.3 99.3 104.5 104.7 98.9 90.5 76 62.1 55.4 53.2 54.7 57.3 62.4 70.9 80.3 89 92.3 92.5 84.9 75.2 66.1 54.5 51.9 50.6 52 55.1 57.6 62.4 67.8 72.2 72.7 73 74.9 81.6 88.9 95.7 97.4 99.2 102 105 104.6 96 81.8 71.7 67.2 66.5 66.7 68.7 70.4 72 74.5 75.6 79.1 82.8 87.2 89.2 89 86.8 90.2 97 103.9 110.9 114.7 117.8 117.8 117.3 115.8 113.2 109.1 103.8 107.3 111 111.7 109.5 105.4 98.3 91.1 86.5 82.9 79 75.4 73.4 77 83.6 86.1 86.7 87 83.4 78.4 71.2 59.8 47.3 51.2 37.6 36.6
1.1 1.3 1.4 1.5 -2 -2 2.6 2.2 3.6 28.5 34.5 37.4 40.4 43.1 45.9 48.7 52.9 60.3 69.7 79.9 90 98 102.6 100.7 95.7 88.1 79.5 71 64.5 60.5 58 55.5 53 51.4 54.9 59.8 66.4 71.8 74.4 70.9 62.9 55.7 53.5 57 63.4 67.1 69.6 70.7 71.1 71.6 72.3 73.9 77.9 87.5 96.9 103.4 105.2 104.7 99.9 99.4 105.7 110.3 114.5 112.9 110.8 110.4 111.9 114.1 116.5 118.9 119.2 119.8 118.2 115.7 113.9 112.3 107.3 103.6 98.1 91.6 85.7 78.8 72.3 65.2 58.2 52.7 56.2 45.1 45.7 53.7 63.2 67.7 70.3 69.3 66.6 61.3 55.1 50.7 52.5 53.6 59.6 68.2 73.7 75.8 78.5 88.6 97.5 102.5 104.5 99.1 90.7 77.2 62.3 57.1 52.2 52.2 54.4 59.2 67.8 77.3 85 90.2 92.3 89.2 82.5 72.9 63 54.1 56.5 58.9 61.6 61.7 62.9 64.6 66.6 68.1 71.3 74.2 77.1 80.3 82.4 84.9 86.7 91.7 94.8 97.9 96.7 89.1 76.4 71.3 69.3 69.5 70 72.4 73.8 75.2 77.5 80.1 79.4 78.5 76.9 76.8 81.9 88.2 93.6 98.9 106.1 112.1 116 115.5 114.3 112.9 109.6 104.7 98.4 102.1 108.6 110.6 110.4 109.1 106.3 101.6 97.3 92.1 85.3 78.7 71.6 68 69.5 72.4 76.2 79 79.3 76.1 68.9 58.9 49.9 51.2 36.6 36.2
1.6 2 1.9 1.8 -2 -2 1.7 2.3 4.1 19 33.9 36.8 38.9 40.9 43.2 46.1 51.1 59.1 68.7 79 89.2 97.1 100.5 98.1 91.8 84.6 74.4 64.9 59.7 57.2 54.9 52.4 49.8 50.3 53.6 58.7 65.7 71.9 73.9 70.6 62 54.6 53.3 57.7 61.8 64.3 65.6 65.8 66 65.1 65.5 69 78.2 88.1 96.3 100.3 99.6 98.9 92.2 93.2 100.7 105.7 109 107 103.2 102.1 104.1 108 111.3 115.4 117.2 117.4 115.7 114.3 112.4 110.6 109.1 106.3 102.1 97.5 91.6 84.3 76.5 68 51.8 54.8 50.2 45.8 44 49.5 59.1 65.2 66.9 66.9 65 59.1 56.9 49.5 49.9 55.6 62.9 70.7 75.9 80.8 79.2 82.1 90.7 97.9 102.7 97.5 89.6 76.4 61.3 56.8 51.7 50.9 51.8 57.5 65.4 73.5 80.6 86.6 89.7 89.2 83.9 74.9 63.9 56.7 57.3 61.5 61.8 58.8 60.7 62.5 66.7 65.2 63.4 66.7 74.8 82.5 90.1 93.7 93 91 87.4 86.9 86.7 85 82.1 79.2 76.9 75.4 74 74.1 73.4 70.1 69.1 70 70.1 68.5 68 75.6 79.9 83.8 87.9 94.6 103.3 109.4 111.9 112.7 110.9 108.4 104.4 99.2 94.7 98 106.3 109.6 110 110.1 109.5 107.2 104 98.5 91.1 81.1 72.2 66.7 64.8 63.3 63.3 68.6 73.3 71.5 66.4 59.1 44.9 47.2 36.2 35.4
2.1 2 1.8 1.7 -2 -2 2.4 3.2 3.4 21.4 34.7 36.4 37.4 37.9 40.3 43.3 49.3 58.2 67.8 78.2 88.4 95.6 98.7 95.6 88.5 81.5 70.4 59.9 56 53.9 51.8 49.3 48.5 49.6 54.4 59.7 65.5 72 74.3 71.3 62.5 54.3 52.9 54.6 58.3 60.5 61.3 60.7 60.9 60.5 62.7 69.9 79.5 88.6 93.9 97.2 96.2 93.3 85.1 88.7 95.4 102 105.1 103 98.2 94.9 96.4 100.3 104.4 109.2 113.4 112.2 110.6 109.8 107.3 107.2 106.8 106.9 104.6 101.2 94.6 87.1 78.7 68.6 61.1 55.2 51 46 43.1 47 56.3 61.5 63.8 64.2 61.9 58.1 52.8 49.7 49.6 57.3 63.9 71.4 74.8 80.6 85.1 81.4 83.8 91.9 99.5 96.8 88.5 74.3 62 55.8 52.4 50.1 50.6 56.6 64.5 69.6 75.8 82.4 86.3 86.6 82.3 74.7 64.6 56 57 59.7 59.3 62.8 55 57.3 59.5 59.5 61.1 64.8 70.7 80.7 89.2 96.8 104 108.9 105.1 102.5 98.7 95.1 91.5 86.8 81.5 74.3 70.4 64.5 62 62 64 66.3 66.5 65.4 68.2 73.7 77.3 79.6 85.2 94.6 102.7 107.9 109.8 109.9 107.5 103.4 98.2 93.8 89.8 96.1 102.9 107.2 109.5 110 110.6 110.1 108.3 104.4 96.6 86.7 77.8 72.8 69.2 64.9 60.3 59.3 66.2 67.4 63 57.5 44 42.5 35.5 36.1
2.1 1.9 1.7 3.7 -2 3.4 2 2.1 4.5 24.5 33.2 34.7 34.8 34.4 36.8 41.8 47.9 56.8 67.2 77.6 87.3 94.3 97.3 94.9 87.5 79.2 67.1 56.4 52.8 50.6 48.4 46.6 47.1 50.4 55.3 60.4 66.4 72.3 76.1 73.3 65.6 55.6 51.6 51.4 54.5 56.5 57 57 56.5 57.2 62.9 70.9 79.6 87.5 91.8 93.1 91.4 87.8 79.5 83.7 91.2 98.6 101.8 100.5 95.4 89.2 89.2 93.5 98.1 104.2 107.9 107.5 106.1 102.5 101.3 102.3 104.3 105.9 105.7 102.4 96.4 88.1 77.2 66.5 58.4 54.4 50.5 46.2 42.6 45 54 58.6 61.4 60.3 58.1 55.4 50.9 47.9 50.1 58.1 64.3 69 72.2 78.2 84.7 84.6 81.1 84.7 93.6 96 87.7 72.5 60.3 54.9 51.4 49.2 50.1 56.3 62.9 66.9 72 78 82.1 84 79.7 75.7 64.7 61.5 60.6 60.6 50.2 49.5 52 54.4 56 56.2 57.8 62.9 69.7 81.1 88.7 96.1 102 105.6 108 108.5 107.8 105.3 101.9 96.5 90.2 83.6 73.9 65.8 61.8 60.3 60.9 63 62.4 63.1 67.9 72.4 72.8 77.4 85 93.9 100.9 105.5 106.9 105.5 103.8 97.6 92.2 87.5 85.9 92.8 98.8 104.8 107.8 109.5 110 109.4 109.4 107.4 102.8 95.6 87.7 81.1 74.5 67.9 61.3 56.7 59.7 62.2 60 55.1 44.3 38.6 35.5 36.5
2 1.9 -2 -2 -2 2.2 2.1 3.4 3.7 27.9 29.2 29.7 29.6 31.8 35.3 41 46.8 55.3 65.8 76.6 86.3 93 94.3 92.9 86.1 77.4 65.4 53.9 50.2 47.5 45.4 44.8 47.7 51.8 55.8 60.7 66.7 73 77.8 77.2 71 61.3 52.1 49.6 50.7 52.1 52.5 53.2 52.9 55.4 62.5 70.9 79 85.5 88.2 88.7 86.2 82.3 76.1 79.7 88.6 95.9 99.5 98.5 93.6 86.3 82.9 87 93 98.7 103.4 102.5 100.8 98.1 94.6 95.6 97.9 101.5 102.6 102.5 97.2 88.9 77 64 57.9 53.4 49.1 44.9 42 43.5 51.6 55.5 56.8 56.2 54.9 51.8 48.9 47.1 51 58.4 62.1 64.7 69.9 74.7 81.1 87.2 88.1 81.8 82.8 91.7 86.3 74.6 59.5 54.2 50.1 48.5 49.9 56.9 64.6 62.5 68 73.1 77.3 72.4 66.1 63.2 62.6 64.4 50.9 46.2 45.3 46.9 49.4 51.8 52.7 53.7 57.8 64.5 72.9 82.7 88.6 94.3 99.4 103.2 105.7 106.5 106.3 105.3 103.5 101.3 96 88.4 78.3 67.1 61.5 59.1 59.3 60 60.8 62.5 66.9 67.6 70 76.1 83.3 93.2 99.8 104.2 104.7 102.9 100 93.4 87.9 82.8 81.4 88.7 96.8 102.1 106.1 107.5 107.9 108.3 109.1 108.7 106.6 102.5 94.6 86.1 77.5 68.5 59.5 55.5 55.1 59.2 57.3 53.9 47 39.7 35.1 34.7
2.3 -2 -2 -2 2.2 2.2 2.3 3.2 14.6 22.9 24.1 23.9 25.6 29 33.3 38.2 45.5 52.8 62.5 73.3 83.5 90.1 92.8 91.1 83.7 75.4 64.8 51.3 47.2 44.4 43.2 44.5 47.8 52.2 56.7 61.2 67.2 73.8 79.5 82.4 78.1 68.9 58.9 51 47.9 47.6 48.4 49.5 50.4 54.3 61.2 69.2 77.3 83.2 84.5 83.5 80.6 75.7 70.7 74.9 84.4 93.3 97.3 95.6 91.3 85 78 81.5 88.4 95.3 99.1 97.9 95.3 91.1 88.4 89 91.5 95.9 98.9 99.9 95.4 88.7 77.8 65.7 57.9 53.8 49.3 44.4 41.7 43.9 48.2 52.6 52.7 52.4 50.2 47.8 44.9 47.5 53.2 56.6 58.9 61.9 66.7 71.3 77 82.7 89.3 92.3 84 80.4 84.9 79.5 67.7 62.5 58 53.9 54 59.2 65.5 60.7 61.3 58.3 58.8 62.3 62.3 70.5 63 54.1 48.9 46.4 44.2 44.9 46.9 48.9 50.8 55.6 59.8 69.7 75.5 84.1 88.5 93 96.8 100.4 103.3 105.7 105.7 104.6 103.5 102.8 98.6 91.7 81.1 69.8 62.8 58.7 57.4 58 59.6 63.2 63.8 65.2 69.5 76.4 85.3 93.4 98.6 101.3 102.4 101.4 98 91.2 83.2 78 78 86.1 94.4 99.9 103.3 105.3 105.8 107.1 107.9 108.2 108 104.7 97.9 88.8 76.5 64 57.4 56.3 55.6 53.1 52.8 51.4 45 40.3 35.1 34.4
2.6 -2 2.6 2.5 2.7 2.6 2.5 4.2 16.9 17.6 17.9 19.4 21.5 24.3 28.4 34.7 41.3 48.2 56.9 69.1 78.7 87.1 90.1 89.2 82.2 73.5 60.9 49.5 45.4 42.1 43.2 44.9 48.3 52.3 55.9 59.6 66 73.3 80.9 84.6 84.9 79.4 71.3 61.4 53.7 47.5 46.1 46.3 48.2 53.2 60.3 68.1 76.1 80.6 81.3 79.5 75.7 70.9 65.2 71.9 82.7 92.6 95.6 93.1 88.5 81.9 75.3 76.8 84.6 92 95.5 93.2 91.4 86.6 82.4 81.9 84.7 89.9 95.6 97.8 95.1 88.7 80.1 67.7 58 53.8 49 44.2 40.8 43.5 46.6 49.3 49.1 48.3 45.5 43 44.3 49.6 52.4 54.5 56.7 60.4 64.6 69 73.3 79.2 86.1 90.5 92.9 88.8 77.7 76.3 73.6 72 69.8 68 64.8 62.6 57.6 55 58.9 60.5 59.3 66 73.5 69.6 62.4 55.5 47.9 44.5 43 44.4 46.7 50 53.1 60.5 64.7 73.4 78.7 83.3 83.2 89.3 93.5 97.6 101 102 102.6 102.7 102.5 101.2 98.8 93.5 85.2 75.6 66.3 61.1 57.3 56.8 59 60.8 62.6 64 72.4 80 87.9 93.5 97.8 98.9 99.5 98.6 95.9 90 81 74.9 75.8 84.3 93 97.6 101.4 103.1 103.9 104.6 106.2 108 107.7 105.6 99.1 87.5 71.6 60.9 54.3 50 48.4 48.4 48.3 49.5 42.6 39.5 36.4 34.6
-2 -2 1.5 2 2.2 2.5 2.5 4.2 12.4 13 13.6 15.1 17.5 20 23.4 28.3 34.2 42.6 50.8 61.3 72.4 81.5 86.4 87.1 80.9 72.4 61.2 48.6 44.4 40.8 41.9 43.6 46.6 50.3 54 57.6 64.1 71.9 79.7 85.3 86.9 84.3 77.3 68.6 60.2 51.9 46.2 44.5 46.1 51.3 59.8 67.2 73.6 77.5 77.6 74.4 70.5 64.8 62.3 71.4 82.5 91.4 93.6 90.4 85.5 78.6 71.8 73 81.6 89.1 91.9 90.6 87.7 82.2 77.7 75.5 78.5 84.7 91 94 93.9 89.1 81.9 70.2 59.4 53.3 48.4 43.6 40 41.9 44.6 46.3 45.2 43.3 41.8 42.6 47.4 49.7 50.7 51.9 57.4 59 61.1 66 71.3 76.1 82.3 87 90.6 90.6 88.3 81.3 73 70.4 69 64.9 63.3 62.5 61.4 59.8 53.3 56.3 66.2 70.2 70 67.7 62 55.7 48.1 43.8 42.2 43.6 47 50.3 56 64.5 69.9 74.9 77.3 79.5 82.4 86.2 91.1 95.4 97.3 99 99.1 98.8 99.1 99.3 98.3 95 90.2 82.5 73.8 64 58.3 56 57 58.6 60.7 65.4 73.2 80.7 87 90.9 94.7 96.2 97 96.6 93.6 87.2 77.9 71.4 75.4 84.7 92.8 97.1 98.7 99.5 100.4 101.6 105.2 106.8 107.4 105.9 101.6 88.7 69.9 60.9 54.4 47.1 47.1 47.2 47.1 46.7 43.3 40.5 39.3 36.7
3.1 -2 -2 1.6 2.5 2.1 2.3 3.4 8.7 9.1 9.4 11 12.9 15.4 17.7 21 25.4 33.6 42.5 51.7 63.1 73.7 81.9 84.4 80.3 72.4 62.8 48.9 43.6 39.9 39.9 41.5 44.5 48.2 51.9 55.3 62.5 70.4 78.3 84.7 87.1 84.7 79 69.9 59.6 52.1 47.1 44 44.2 50.5 58.1 65.4 71.4 74.8 73.6 70.2 64.9 59.4 61 71.8 83.3 90.1 91.8 88.3 82.6 75.8 68.5 69.7 77.5 85.8 88.5 87 84.1 78.7 73.2 70.1 73.6 80.3 87.4 91.4 92.2 88.6 83.3 74.9 62.4 53.5 48 43.2 39 39.9 42.2 42.7 42.1 40 40.8 44.3 47.7 48.3 49.8 51.7 56.2 56.9 59.3 62 67.4 71.1 78.5 82.9 87.2 89.5 88.7 84.2 75.6 66.8 64 62.8 60.5 56.3 52.7 51 52.2 57.2 62.6 66.5 66.1 65 60.1 55.4 48.6 43.1 41.5 43.1 46.8 51.8 57.8 66.7 71.2 74.4 75.1 76.7 79.3 84.9 90 94 95.7 96.2 96.1 95.2 95.9 96 96.4 95.3 91.5 87.7 81.9 71.9 61.7 55.8 56.6 57.9 60.5 66.2 73.1 78.9 82.9 88.3 91.5 92.6 93.6 93.4 90.6 83.8 74.3 70 80.7 86.9 91.9 93.9 95.2 95.8 95.8 96.7 102.7 105.8 107.3 107.6 103.1 98.6 83.2 65 58 51.9 47.2 47.3 47.1 47.9 48.3 48.1 47.6 38.9
1.9 -2 -2 -2 -2 1.9 2 2.7 4 6.6 7.2 7.5 9.1 10.6 12 13.8 17.2 22.1 27.9 36.8 49.1 62.6 73.8 80.1 79.6 73.4 64.7 53.2 45.9 40.5 38.3 39.4 42.1 45.4 48.8 52.5 59.3 67.8 76.3 83.4 86 84.6 78.1 68.2 57.8 50.1 46.5 43.5 43 47.6 55.5 63.8 69.7 71.2 70.2 65.7 60.1 55.5 61.3 72.4 81.9 88.6 90 86.4 80.3 73.3 65.7 66.7 75 82.2 84.9 83.3 80.5 75.1 70.2 67.4 70.4 76.4 84.1 87.8 90.1 89.6 86.4 80.2 70.9 57.6 48.9 43.9 39.1 38.5 39.6 40 40.4 39.4 41.1 45.2 46.2 46.5 46.3 50.5 53.1 52.9 55.4 59.4 63.9 67.7 74.1 79.1 83.7 87.7 89.5 87 81.1 73.9 59.8 50.9 48.3 45.1 45.7 47.2 50.1 53.2 58.1 62.8 63 61.6 58.7 52.3 47.3 42.7 40.6 42.4 47.1 52.8 59.7 67.5 70.7 72.1 72.1 73.3 77.8 83.5 89 91.7 91.8 92.3 91.1 91.7 93.3 95 94.3 93.6 92.5 89.4 84.8 78.8 66.7 56.7 55.5 56.1 60.1 65.5 70.6 75.6 80.9 85 87.3 88.8 90.2 89.4 88 80.3 70.8 68.7 79.1 84.1 89 90.9 91 89.2 90.4 96.8 101.8 103 105.9 107.6 105.5 102.1 97.8 82.9 74 66.5 61.1 61.1 62.5 64 58 56.2 49.3 42.5
2.2 2.6 2.3 2.1 -2 -2 1.9 2.2 3.3 4.8 4.7 5 5.6 6.6 7.3 8.4 9.5 11.7 15.2 20.3 29 44.4 61.9 73.6 77.5 73 65.2 56.5 48 42.9 38 37.2 39 42 45.9 50.1 56.7 64.8 74.3 81.9 85.3 83.4 77.9 66.3 56.1 48.6 45.2 42.3 41.9 46.9 55.4 63.6 67.9 68.2 66.4 62.7 56.8 53.1 60 71.3 81.5 87.1 87.3 83.4 77.4 70.4 64.3 64.7 74 78 81.2 79.6 76.6 71.6 68.4 65.1 67 67 73.8 84.5 89.6 91 88.3 83.1 75.9 62.5 51.9 46 41.1 38.1 37.2 38.2 38.3 37.5 40.8 43.8 43.3 43.1 43.2 45.4 48.3 49.6 52.9 56 60.4 63.5 69 73.6 80.2 84.7 87.6 88.4 84.6 78 67.2 53 46 42.3 43.5 44.5 47 50.6 54.9 58.5 59.1 57.8 54.1 49.4 45.1 41.7 39.9 42 47.3 54.5 62.2 66.6 68.6 68.6 67.9 70.7 77.2 82.3 86.6 88.3 89.8 88.2 88.1 88.5 90.6 92.6 92.7 92.4 91.2 89.9 86.4 80.8 72.3 60.3 55.4 56.3 57.3 62.5 66.5 70.6 76.5 79.4 82.4 85.7 87.6 87.3 84.7 77 68.1 67.7 76.4 81.6 82.3 84 83.2 83.5 90.3 96.6 99.4 102.6 104.7 106.5 106.9 105.6 102.5 98.3 95.3 83.4 80.4 84 78.2 73.2 66.1 55.1 49.5 45
1.7 3.1 2.7 2.2 1.7 -2 -2 2.3 3.3 3.1 3.5 3.2 3 3.7 4.5 5.2 5.8 7.6 9.8 13.4 18.1 27.5 46.2 65.2 72.9 71 64.2 56.4 48.1 42.7 38.2 36 36.3 39.9 44.1 48.4 54 62.5 73 80.2 84.7 83 77.5 65.5 51.7 47.1 44.2 41.2 42.1 47.3 55.9 61.8 64.9 64.4 61.7 58.8 53.3 50.9 58.5 70.6 80.2 85.6 84.8 79.6 73.8 67.2 61 63 72 75.9 77.4 75.6 72.6 69 65.1 61.1 65.3 67.4 77.9 84.4 89.1 90.9 89.8 85.9 79.9 71.2 60.7 51.6 45.1 40.9 37.2 36.6 36.2 36.6 38.6 42.6 41 40.8 41.2 43.3 45.2 45.9 48 48.7 56.3 59.7 63.5 69 73.7 80.8 85.1 87.3 85.4 81.4 73.4 60.3 50.1 45.1 41.3 41.9 44.1 46.8 51.2 55 55.9 54.5 51.5 47 44.1 40.5 39.8 43 48.9 55.8 62.8 65.5 66.3 64.6 65.4 70 75.9 80.6 84.3 86.2 86.2 84.8 84.5 85.5 87.8 89.7 90.4 90 88.9 87.6 85.9 80.9 76.8 66 57.2 55.6 54.8 57.3 62.1 66.8 70.4 74.7 78.7 81.9 83.9 84.1 81.9 75.4 66.4 64.8 71.7 75.3 76.7 75.7 77.4 84.4 90.4 94.9 97.9 100.2 101.6 105.1 106.1 106.3 104.7 102.8 101.1 96.9 96 90.1 80.9 75.5 68.4 50.1 48.1 42
2.6 3 3 2.7 2.2 1.6 -2 -2 2.4 2.4 2.8 3.2 2.8 2.4 2.3 2.7 3.7 4.9 7 9.7 13.5 18.8 31.4 54.2 69.5 67.4 62.5 54.6 47.1 41.9 38.3 35.8 35.1 37.9 42.1 46.1 51.7 60.5 72.3 81.1 84.9 82.7 76.2 65.3 50.8 46.1 42.7 40.3 40.6 47.5 55.9 60.2 61.4 60.3 57.6 54.3 50.1 49.1 57.2 71.1 80.1 84.4 82.9 77.1 69.3 62.2 57.3 61.9 69.3 72.5 73.3 70.9 68.6 65.1 61.1 59.8 65.2 71.3 77.8 84.3 88.6 90.1 89.3 87.7 83.5 78.7 68.9 59.4 51.2 45.1 40.9 38.2 35.7 34.8 35.3 37.3 38.1 38.4 39.4 39.7 40.7 44 45.6 47.1 51.2 55.6 59 64.3 68.6 75 80.5 84.4 85.9 82.2 76 66.3 54.7 46.7 43 40.2 41.4 43.9 49.4 52.2 52.9 51.6 48 44.7 42.6 39.1 39.5 44 50.9 57.9 61.2 63.5 62.8 61.1 62.5 68.2 74.1 78.4 82.5 83.7 83.7 80.4 79.4 82.2 85 86.7 87.1 87.3 86.4 85.2 84 81.9 77.5 70.6 61.7 55.2 51.6 52.3 57.6 61.7 66.3 69.9 75.4 78.3 79.6 80.9 78.3 73.9 66.3 61.1 65.9 68.5 68.7 70.7 78.6 86.5 90 92.9 94.8 97.3 100.3 102.3 105 105 106.7 105.8 104.3 102.4 98.3 92.2 83.2 74.1 64.1 48.4 48.1 42.3
2.5 2.5 2.5 2.5 2.5 2.2 -2 -2 -2 3 2.3 3 2.7 2.2 2.2 2.4 1.9 3.1 4.4 6.2 9.6 15.1 23.4 44.3 61.9 64.8 60 52.6 45.7 40.4 37.7 34.6 33.9 36 40 44 50.5 60.9 73.2 81.4 84.3 82.2 74.3 64 50 44.9 41.3 38.7 40.4 48.1 54.5 56.5 57.5 56.1 53.2 49.8 46.2 48.2 61 72.1 79.4 83.3 80.8 75.1 67 58.1 54.6 59.7 66.1 68.5 69 67.2 64.9 62.1 57.2 60.4 64.5 72.3 78 83 87 88.8 88.4 87.5 84.6 81.6 75.7 67 62.1 54.2 46.6 41.1 38.8 35.7 34.2 34.2 33.8 35.7 36.3 37.1 38.6 40.2 42.6 44.9 42.9 51.1 55.8 59.7 66.1 71.2 75.4 80.6 83.3 82 77.4 69.1 56.6 47.9 43 40 39.6 41.9 47.4 50 50.3 48.9 45.7 42.4 39.6 37.2 39.7 46.6 52.4 57.1 59.4 60.1 58.8 57.9 60.3 67.2 72.7 77.6 80.6 81.6 81.3 77 75.7 78.6 82 83.3 83.6 84.6 84.4 83.3 81.4 79.8 78.1 73.4 67.7 55.9 50.7 50.6 53.8 59.1 63.4 66.3 70.4 72.9 75.8 75.9 75.8 71.7 65.4 58.4 60.1 64.1 66.8 73.1 80.1 84.8 88.5 90.1 92.2 95.2 97.5 99.7 101.9 103.6 104.8 105.3 104.8 103.5 100.2 94.2 85.3 77.8 71.3 48.5 52.6 43.5
2.5 2.9 2.9 2.6 2.7 3 1.6 -2 -2 2.1 1.9 2.1 3.2 2.3 2.6 2.2 2.3 2.2 2.8 4.4 7.4 11.3 18.2 34.3 56.3 60.1 57.4 51 43.8 38.7 35.9 33.1 32.2 35 39 43.1 50.7 62.7 73.4 81 83.7 80.8 74.7 63.3 50.4 44.2 40.4 37.9 40.1 47.1 51.1 52.7 52.8 51.1 48.3 45.1 44.5 52.3 63.2 71.5 78.4 81.2 79.7 73.9 65.7 56.1 53.3 57.4 61.9 64.7 64.8 63.5 61.2 58.9 54.8 61.4 67.3 70.7 75.1 81 84.4 85.1 85.8 86.6 84.5 82.5 80.6 76.6 71.8 66 58.1 47.9 42.6 40.1 36.8 34.4 33.1 33 32.9 33.5 36 36.6 38.5 39.3 42.5 45.6 50.9 55.8 60.8 65 71.2 76.9 80.3 81.4 76.3 70.7 59.4 49.9 44.2 40.3 38.5 39.8 45.8 47.7 48.1 47.1 43.4 40.1 36.7 37.1 41.1 47.1 52.3 55.1 56.8 57 55.3 56.3 59.7 66.9 72 76.7 78.7 79.2 77.7 73.6 73.2 75.4 79.4 80 80.7 81 80.8 81.5 79.1 77.8 77.3 75 70.1 59.3 52.3 50 51.3 56.3 60.7 62.8 66.2 67.7 68.8 70.4 70.8 69.2 63.9 56.7 56.7 61.1 67.7 72.7 77.2 81.3 85.4 87.7 90 92.8 95.3 98 99.5 101 102.1 103.9 104 102.8 101.3 95.8 91.5 85.5 79.7 49.9 58.3 48
2.3 2.7 2.7 2.7 2.8 2.8 2.1 -2 -2 1.7 2.1 2.8 2.9 2.6 1.9 2.5 2.3 2.1 2.2 2.8 5 8.5 15.3 28.4 51.8 56.8 54.4 47.8 41.4 36.5 34.2 31.9 31.7 34 38.1 43 53 63.8 73.2 80.4 83.1 81.7 74.7 63.9 50.9 43.8 40 36.9 39.3 45.6 47.5 48.2 47.3 46 43.3 41.2 45.5 53.9 62 68.7 74.8 78.1 77.4 72.6 64.7 55.9 49.8 53.3 57.3 59.8 60.1 59.1 57 54.6 55.9 59.9 66.6 69.4 73.7 79.5 82.5 83.1 83.8 84.7 84.5 83.9 82.4 80 77.2 73.2 70.4 56.2 43 48.2 46.3 42.1 39.1 36.2 34 31.6 31.9 34.5 37.6 39 42.2 42.1 46.9 50.8 55.8 62.4 67.4 71.9 77.5 79.1 76.5 71.2 62.9 52.5 46.1 40.8 38.1 38.7 42.2 45.4 45.7 45.3 41.6 37.9 36.2 37.6 42.3 47.7 50.6 52.1 53.8 53.1 51.4 54.1 59.8 67 71.6 74.9 76.8 76.8 74.8 71.2 69.3 73.1 76.3 77.4 77.6 77.3 76.6 76.2 76 75.9 75.3 74.6 70.4 62.3 55.7 48.6 49.1 52.6 56.8 60 60.5 61.4 63.9 65.7 66.4 65 61.4 55.3 54.5 59.6 65.3 69.3 74.3 79.6 83.6 86.1 87.9 90 92.2 94.2 96.2 99.1 99.9 101.4 102 102.4 101.3 99 95.4 91.4 85 61 59.9 49.7
2.5 2 2.7 2.5 2.4 2.4 3.5 -2 -2 2.5 2.1 2.3 2.5 2.6 2.6 2.4 2.3 2.1 2.1 2.2 3.2 6.5 12.6 25.9 48 54.5 51.7 45 39.2 34.4 32.7 30.6 30.6 34 38.4 44.4 55.4 63.4 72.6 79.7 82.7 82.3 77.3 67 54.9 44.3 40.4 36.6 37.8 40.5 42.6 43.3 42.5 41.2 38.9 40.9 46.5 52.2 57.9 64.7 70.3 73.7 73.8 70.5 64.7 56.5 48.4 48.4 52.5 55.2 55.4 54.1 52.6 51.7 56.2 62.6 65.3 68.3 73.4 77.1 79.6 80.8 81.6 82.4 83.2 83 81.9 80.5 79 77.1 75.7 71.7 68.9 65.1 60.1 53.2 49.5 44.6 39.3 33.4 30.7 30 33 34.9 37.7 39.6 44.2 47.5 53.3 61.4 66 70.3 75.6 77.5 76.4 71.8 66.4 55.9 45.5 40.4 36.6 37.1 40.6 43.9 44.2 43.1 39.6 35.7 34.9 37.4 42.4 45.6 47.7 49.3 49.3 49 49 54.6 61.4 66.6 70.2 72 74.3 74.1 71.6 67.9 66.6 70.9 73.1 74.1 74.9 74.5 73.9 73.3 73 72.8 72.7 72.6 71.1 64.8 59.4 50.5 47.5 48.2 52.8 54.2 55.5 56.7 58.5 60.1 61.7 60.6 57.2 52.5 52.7 58 61.6 66.7 73.6 77.7 80.9 83.3 83.9 86.2 87.8 90.4 94.6 97.6 98.9 100.3 101.5 101.6 101.6 100.5 97.1 92.6 85 73.1 48.6 48.9
1.7 0.8 2.9 2.5 2.4 1.4 -2 -2 2.3 3 2.6 3.2 2.9 2.7 2.6 2.4 2.2 2 2 2.1 2.7 5.9 12.7 28.2 47.6 52.8 49.2 42.6 36.9 32.5 30.3 28.7 30 34.3 39.8 46.9 56.3 64.5 72.6 78.9 81.3 81.6 78.8 71.8 62.2 51.5 41.9 37.3 36.1 36.7 37.4 38.4 38.5 36.7 36.8 41.2 45.2 49 53.4 60.1 65.1 68.1 69.5 67.2 62.8 56.9 49.8 45.6 48.1 51 50.7 50.3 48.8 52.5 56.4 60.3 63.4 67.7 72.3 74.7 76 76.8 78.2 79.8 80.4 80 79.3 78.6 78.2 78.2 77.7 76.6 73.5 70.9 66.8 62 56.4 51.1 43.6 38.6 33.3 30.4 29.1 30.8 33.7 37.3 41.7 46 52.2 57 60.9 68.6 73.3 75.6 75.8 72.8 68.6 60 50.6 41.8 37.3 35.9 38.3 42.2 42.7 41.8 38.1 34.9 33.9 36.4 40.3 43 44.9 45.5 46.1 45.6 48.9 55.3 60.8 66 68.8 69.6 71.5 71.2 68.4 64.3 64.5 67.8 70 70.9 70.3 70.7 70.8 70.6 70.5 71.4 71.4 71.2 69.2 66.8 60.8 54.4 49.1 46.6 46.4 48.9 48.6 50.7 53.4 55 56.4 56.5 53.9 50.3 51.3 56.1 61.2 67.8 72.8 75.3 77.9 79.9 79.8 81.3 85.3 87.8 91.6 94.3 96.7 98.8 99.5 100.7 101.2 100.5 97.6 93.2 84.9 73.5 47.5 46.7
4.1 1.7 -2 -2 1.5 -2 -2 2.3 2.1 2.3 2.3 2 2.5 3 2 2 2.1 2 1.9 2.4 2.5 6 12.1 29.7 48.2 51.9 47.2 40.5 34.5 30.5 28.1 28.2 30.9 35.4 42.2 49 57.3 64.7 72.1 77.4 79.6 79.7 78.3 74.1 68.1 59.7 50.3 40.3 36.4 34.8 34.6 34.1 34 33.6 36.2 39.6 41.9 44.9 49.4 54 58.7 62.9 64.1 62.9 59.8 54.6 47.9 43.6 43.9 46.2 45.9 45.7 47.9 51.2 54.3 57.8 61.9 66.6 70.1 71.3 72.1 72.8 74.7 76.4 77.2 76.4 75.7 75.4 75.2 75.5 76.2 76 75.2 73.3 70.1 65.7 62 54.2 48 42.9 39.4 33.8 30.8 28.7 30.5 33.9 39.9 45 49.8 54.5 61.1 65.2 71.5 74.8 75.4 73.1 68.5 61.3 55.4 45.8 38.8 35.7 36.5 40.3 41.3 40.9 37.1 34.2 32.9 32.9 37.2 40.1 41.4 41.9 42.4 44.6 49.9 55.6 61.1 64.1 67.3 68.8 69.4 67.8 64 61 61.6 65.3 67.1 67.5 67.1 67.8 68.6 69.1 69.1 68.7 68.4 68 69.4 67.5 62.6 59.5 54 48.1 45.8 44.6 44.6 45.5 47 49.8 51.8 52.3 49.2 47.2 50.5 58 63.2 66.1 70.5 72.4 74.6 74.2 75.1 75.5 80.5 85.1 89.4 92 93.6 96.1 97.9 98.8 100.9 100.4 97.7 92.6 84.8 71.8 48.6 44.5
11.6 8.7 3.5 -2 0.8 -2 -2 1.7 2.3 2.6 2.4 2.5 3.3 2.8 2.7 2.5 2 2.4 2.6 2.4 1.4 2.3 7.8 34.2 49 50.9 45.2 38.1 32.5 28.3 26.4 27.8 31.6 36.6 41.7 48.5 55.5 63 70.1 74.5 76.4 76 75.6 73.6 69.9 64.9 59 52.3 42.3 37.6 34.5 34.4 32.3 32.1 33.1 36.5 37.5 39.8 43.7 48.7 53.3 56.8 58.9 58.5 56.7 51.6 46.8 42 40.4 43.3 42.5 44.2 47.9 48.2 49.5 55.8 60.5 64.2 66.4 66.4 66.5 68.6 71.1 72.9 73.5 72.6 71.6 70.1 71.2 72.1 72.4 74 73.6 72.5 70.3 67.4 61.2 56 49.9 45.5 41.6 37.4 32.4 28.1 28.4 30.8 37.9 43 47.5 52.1 57.2 62.8 68.8 71.8 73.4 72.7 68.5 64.4 58.1 48 40.4 36.2 35.5 36.5 39.4 41.8 37.6 35.4 32.1 32.6 34.9 37.7 39.4 40.3 41.2 45.4 50.8 54.6 59.8 62.1 64.9 65.6 65.1 63.7 61 58.6 59.1 62.2 63.8 64.1 64.3 66.6 66.5 66.1 67 65.8 67 67.3 66 66.5 62.7 62.4 59.1 55 51.5 46.9 45.6 43.3 42.7 44.5 47.5 49.2 47.3 45.9 50.6 56.4 62.6 65.5 66.8 69.4 69.5 68.5 69.4 74.4 80.5 83.1 85.7 90.7 91.5 93.1 96.5 99 99.2 99.9 98.4 94.3 84.8 72.8 51.5 45.6
11.7 10.7 5.5 2 0.9 -2 -2 1.9 2.4 2.7 2.9 3.2 3.4 3.4 2.5 2.1 2 2.9 3.6 3 2.2 3.1 13.2 39.8 50.6 49.8 42.8 35.7 30.8 26.2 25.5 28.4 32.9 38.1 42.9 48 54.3 60.2 67.6 71.5 72.8 72.6 72 70.1 67.5 65.8 63.4 60.9 53.4 44.3 38.9 35.6 32.8 31.3 30.6 31.4 32 34.9 38.1 43.3 47.4 50.6 53.7 54.5 53.2 50.5 45.7 41.1 38 38.9 42.4 44.1 46.2 43.7 48.7 54.8 58.2 60.9 61.8 62.3 62.2 64.6 66.9 68.7 69.8 68.7 66.5 65 65.4 67.4 68.5 70.8 71.3 71.3 69.3 65.8 59.8 53.9 49.5 45.4 42.1 38.4 33.9 29.5 27.7 29.7 35.6 39.8 43.9 49 55.2 61.8 65.9 69.3 70.7 70.8 68.7 65.1 59.1 50.5 43.3 37.9 34.9 34.2 35.6 37.4 37.6 36.1 32.1 31.7 32.9 35 36.9 38.2 42 46.4 51.6 54.7 57.9 60.3 61.3 61.1 60.4 59.7 57.5 55.2 56.9 58.4 60.6 61.3 63 63.8 63.9 64.1 63.6 64.1 63.7 64.6 64.8 62.7 62.6 62.7 62.3 60.1 57.7 52.3 48.7 44 41.9 42.1 43.6 45.2 44.4 45.3 51.1 55.8 59.4 61.6 63.4 65.1 64.3 63.6 67.4 70.5 77.2 80.2 82.1 85.6 89.2 91 94.8 96.8 98.1 99.5 98 95.6 88 76.2 55.4 46.6
11.4 10.4 2.7 1.7 1.3 -2 -2 2.3 2.4 2.5 2.7 2.9 2.8 2.4 2 2.5 5.4 6.1 5.4 3.8 3.9 3.5 22.8 45.2 50.9 47.9 41.9 34.5 28.8 25.1 24.9 28.5 33.4 38.6 43 47 53 59.6 63.1 68 68.5 67.1 65.9 65 63.2 62.2 63.3 64.1 61.9 55.7 45.2 40.4 37.5 34.1 31.2 30 29.8 32 33.4 38.4 42.3 45.6 48.6 49.4 49.8 48.1 44.5 40.3 36.7 37.7 41.5 44.8 42.2 44.3 49 52.5 55.6 56.6 57.6 57.5 58.1 60.4 62.2 64.9 66.3 65.1 62.4 59.2 59.7 62.3 64.6 67.1 69.2 69.6 68.3 64.3 61.6 56.6 50.2 45.9 42.5 39.3 36.4 30.9 27.2 28.6 33.1 37.8 42.1 45.9 52.1 58.5 62.3 66 68 68 66.5 65.2 60.9 53.5 47.8 40.1 34.6 33.1 33.4 35.8 36.5 35.7 32.8 31.5 31.8 32.8 35.3 38.5 42.5 45.3 49.8 53.2 55.4 56.3 55.6 56.4 55.7 55 52.9 54.1 55.5 57 58.4 60.1 61.9 62.3 62.2 62.3 61.1 60.7 61.1 61.1 61.3 61.5 61.4 61.8 61.6 61.2 59.7 56.6 51 45.6 41.3 40.6 42.1 42.4 42.4 45.5 50.6 53.8 56.4 57.7 58.9 58.9 59.2 60.1 65.1 69.4 72.4 76.5 79.7 81.7 86.1 88.6 92.3 94.7 96.1 96.4 95.8 95 89.3 78.9 64.8 46.7
10.9 6 1.2 1.8 1.8 -2 -2 0.9 2.3 3.8 2.3 2.3 2.2 2.7 2.5 4.6 7.4 6.5 5.3 4.2 3.9 2.9 30.7 47.5 51.3 49.4 43 35.2 27.7 24.7 24.5 28.6 33.5 36.5 40.4 44.7 50.7 56.1 61.3 63.9 63.2 61.9 59.9 58.9 58.1 58.5 61 64.8 66 64.2 58.5 50 44 39.1 35.9 31.2 28.8 27.9 28.9 34.5 38 41.3 43.7 45.6 45.5 45.1 42.8 39.9 36.3 37.8 41.3 39.6 40 43.3 47.6 50.2 52 53 53 52.8 54.4 57.7 60.7 63.4 63.2 61.5 58.4 53.4 53.8 57.6 61 63.6 66 67 66.1 64.5 63.3 60.4 54.3 51.1 46.6 42.2 38.6 33.4 27.4 27.9 31.5 35.7 39.9 44.2 50.1 55.7 59.7 62.7 64.7 64.8 64.5 63.1 60.9 56.8 49.2 45.8 38.3 32.9 30.7 33.8 34.8 34.2 32.5 31.2 30.6 31.6 34.4 37.3 41.4 44 48.4 49.9 50.6 51.3 52.1 51.8 50.4 50.8 51.1 54.3 56.4 58.6 58.8 60.4 60.6 60.5 60.2 58.9 58.2 57.6 58.7 59.2 59.8 59.7 60.2 60.5 60.3 58.9 59.5 56.8 52.5 39.6 42 39.6 40 40 41 45.4 48.7 51.7 53.1 54.6 56.2 55.2 54.6 57.6 62 66.6 69.7 73.1 75.4 77.8 81.4 84.8 88.4 91.2 93.1 94.9 95.3 93.6 88 80.7 67.4 46.9
5.7 3.5 1.9 1.8 1.7 1.7 -2 -2 -2 -2 0.5 2.3 2.2 3.4 2.3 2.9 6.1 5.3 4.3 4.1 3.5 3.3 36 47.9 51.3 50 43.5 36.2 28.9 26.8 27.5 30.1 33.3 35 37.8 42.2 47.5 53.3 56.9 59.8 59.5 57.3 53.9 52.8 53.1 55.6 59.1 63.7 68.7 68 65.7 61.8 56.7 48.8 41.2 35.3 30.5 28.1 27 29.5 33.3 36.9 38.9 40.9 41.6 40.8 38.3 36.6 34.9 37.3 34.1 35.6 38.6 42.1 45.7 47.9 48.4 48.4 48.3 48.7 51.5 55.9 59.2 61 60 58.1 54.2 49.7 49.8 54.1 57.3 60.6 63.1 64.2 64.5 63.4 62.2 61.8 59.3 55.4 51.4 47.3 41.8 35.1 28.6 26.3 28.1 33.3 37.6 42.7 47.2 52.7 55.8 58.8 60.6 61.1 61.3 61.6 61 58.5 55.6 51.6 45.1 37.5 31.9 31 32.6 32.2 30.6 29.7 28.9 30.3 33.4 36.6 39.8 42.9 44.6 45.3 46.1 47.3 47.3 47.2 47.3 50 53.1 56 58.1 58.6 58.8 58.4 58 57.4 57.3 56.5 55.9 55.1 56.7 57.2 58.2 58.2 58.3 57.4 57.8 58.1 58.6 57.3 54.5 50 42.4 41 38.6 37.7 40 43.7 46.9 49.4 50.1 50.5 51.9 50.2 51.8 55.9 60.7 65.1 68.6 69.2 71.5 74.9 78.2 81.9 86.7 89.2 91.3 91.7 92.3 91.2 86.7 78.5 67.1 49.2
3 2.7 2 1.6 1.6 1 1.1 -2 -2 -2 -2 -2 -2 2.9 2.3 3.3 2.6 3 3.5 3.9 3.3 8.7 42 47.5 50.5 50.4 45.9 40 31.3 33.5 36.3 38.5 39.9 41.5 43.5 45.3 46.2 47.2 47.9 49 49.5 49.7 48.8 48.3 48.2 51.6 55.3 61.5 62.7 67.3 66.9 63.4 59 53.9 47.6 39.5 33 28.3 26.4 26.8 29.7 33 35.1 37.3 35 32.7 29.1 31.1 28.3 28.5 29.4 34.8 37.7 41.5 43.9 44.9 45.4 44.1 44.6 46.3 50.7 54.3 57.2 57.8 57 55.6 52.4 47.6 47.4 50.8 54.8 58 60.3 61.1 61.4 61.8 61.5 61.4 60.3 57.5 53.5 49.4 43.6 36.4 29.5 25.8 26 31.1 35 39.9 44.2 47.6 50.5 55.3 56.1 58.2 59.3 59.6 60.1 59.8 58.8 56.3 52.1 44.6 35.7 31 31 30.2 29.2 28.3 28.1 29.4 31.5 35.3 37.3 39.5 40.2 40.3 41.6 43.8 44.3 46.7 49.2 51.7 54.1 55.8 57 56.8 57 55.7 55.7 55.3 54.4 54.2 53.5 52.7 53.7 54.7 56.2 56.5 56.6 55.3 55.4 55.7 56.1 55.9 55.3 53.3 49 42.6 41.7 36.3 37.4 40.8 44.4 46.5 47.2 46.5 46.5 47.7 50.5 53.7 57.3 61.4 64.1 67.2 69.6 74.6 78.7 82 85.1 86.9 90.2 90.9 91.2 89.4 83.3 75.8 63.6 47.9
2.5 2.7 2 2 1.5 1.7 1.7 1.4 1.7 -2 -2 -2 -2 -2 2.4 3.6 3.3 4.1 4.2 3.6 3.7 21.7 38.4 36.2 32.3 28.7 29.5 31.8 34 35.7 37.4 37.1 38.4 40.2 40.2 42.5 44.7 47.5 48.6 47.7 50.2 49.1 47 47 47.4 47.6 47.1 46.5 45.7 45.4 43.5 45.5 45.7 47.4 48.5 40.7 36 32.6 27.3 26.7 27.5 29.4 31.3 32.7 28 27 29.1 27.7 27.8 27.9 28.5 34.3 37.6 39.7 41.3 41.6 41.1 41.1 42 45.7 49.5 52.2 54.5 54.8 53.9 51.9 49 44 41.7 48 52.2 55.1 57.2 57.9 58.2 58.6 59.3 59.6 59.5 58 54.5 50.1 45.5 39.7 32.9 26.3 25.6 27.9 32.8 37.1 41.4 44.7 47.4 51.3 53.4 55.5 56.3 57.2 58.9 60.4 60.4 57.6 54.2 49.9 42.3 35.7 30.5 29.7 27.9 27 27.2 28.9 30.8 32.6 34.2 35.8 37.6 39.6 42 44.4 47.8 50 52.6 54.5 55.6 55.8 56 55.3 55 53.6 52.7 52.4 52 50.7 50.5 50 52 53.1 53.2 52.7 53.5 54.1 54.4 54.3 54.4 53.5 54.3 53.2 51.9 45.7 44.1 40.9 36.2 38 41.5 43 42.5 43.6 44.7 48.2 51.3 54.4 57.4 60.7 64.5 68.4 73 75.9 79.6 82.2 84.9 86.7 88.2 89.8 89.5 86.6 80 75 58.1 46.5
1.5 2.4 1.8 1.5 1.6 1.7 1.6 0.6 1.7 1.8 1.8 -2 -2 -2 2.7 3.8 3.8 3.6 4.5 4.3 3.4 21.6 23 24.7 31.8 40.7 40.4 40.8 36.3 29.6 23.1 20.6 22.8 26.3 30.7 35.3 40.6 42.7 45.2 47 46 44.6 41.6 40 42 45.2 47.9 50.8 51.3 50.9 50.3 45.8 40.1 38.5 36.2 33.1 31.3 29.7 29.5 28.8 28 27.6 25.6 25.6 25.5 29.3 27.3 27.3 27.4 27.8 27.9 30.3 35.2 37.1 38.3 38.2 38.2 38.1 40.9 44.3 47.6 50 51.1 51.4 50.5 49.1 46.6 41 39.4 44.6 49.4 52.2 53.4 54.5 55.1 55.5 56.3 57 57.2 57.3 54.7 50.7 47 41.4 35.5 27.6 24.8 25.9 30.3 35 39.6 42.6 45.4 49 51.2 52.2 52.6 53.7 58.2 60.6 61.1 58.7 55 51.1 45.7 40 34.4 29.8 27.2 25.9 26.4 29.3 30.4 31.1 33.4 36.4 40.1 43.8 48.4 51.2 52.5 53.2 54.2 55.1 54.9 54 54.1 53.5 52.7 51.2 49.9 49.6 49.1 47.4 47.1 48.7 50.5 51 51.2 51.7 51.8 51.9 52 52 52.4 52.8 53.3 53.3 52 50 46.9 42.8 35.5 36.8 38.1 38.7 39.2 41.4 45.2 49.5 53 54.6 58.6 61.8 64.2 69.4 72.5 76.3 79.2 81.5 83.6 85.6 86.8 86.8 88 83.7 78.2 69.2 54.6 44.4
2 2.7 2.3 2 1.5 1.6 1 0.7 1.7 2.1 2 1.7 -2 -2 2.7 2.9 3.6 3.8 4.3 4.5 10.7 28.3 35.8 41.3 44.9 44.8 44.2 41.1 36.2 30.8 24.4 20.8 19.8 22.7 28.1 33 37.6 39.5 41.5 42.2 41.8 40 37.9 36.6 38.3 40.6 44.1 45 46.3 46.7 46.6 46.6 45.7 44.6 42.8 37.7 35.1 30.4 28.4 27.5 25.9 25.4 26.5 29.1 27.1 27.8 27.3 27.4 27.5 27.7 28.4 30.6 32.7 34.3 35.4 35.6 35.3 36.6 39.7 42.5 45.1 47.1 47.9 48 46.9 45.8 43.3 38.4 38 42.3 46.3 49.2 50 50.4 51.9 52.4 53.2 54.1 54.7 53.5 52.5 50.4 47.3 42.8 37 31.8 25.3 25.5 28.2 32.2 37.5 40 43.7 46.5 47.9 48.5 51.5 54.1 56.1 59.9 59.6 58.6 55 50.3 43.8 40.4 35.5 30 26 24.9 25.5 27.6 30.3 32.3 36.6 41.3 45 48.4 50.9 52.4 52.9 53 53.6 53.3 53 51.8 51.8 51.2 50.1 48.8 47.2 46.8 44.7 44.2 46.1 48.4 49 49.6 49.6 50.6 49.5 49.9 50 50.4 50.4 50.6 51.7 51.1 51.8 50.2 48.7 43.9 39.7 36 35.3 36.1 37.1 40.5 44.9 47.9 50.8 53.7 57.8 61.5 65.4 69 71.4 74.7 77.6 79.5 81 82.8 83.4 85.5 85.5 82.4 76.9 65.4 50.6 43.6
1.7 2.5 2.1 1.7 1.5 1.5 1.7 1.9 1.5 2.1 1.8 2 -2 -2 4.3 3.8 3.3 4.2 4.6 4.9 15.8 27.5 33.4 38.1 41 41.6 41.1 39.2 34.9 31.1 25.4 20.3 18.2 20.7 26.7 31.2 33 35.7 37.1 37.2 37.2 36.4 35.5 34.5 35.2 37.2 38.9 40.1 41.5 42 41.8 42 41.9 40.7 39.8 38.2 35.6 34 30.6 28.1 26.4 25.1 25.2 27.2 26.4 26.8 27.3 27.2 27.1 26.9 27.1 28.2 30 31.2 32.3 33.3 32.6 34.9 37.9 40.3 42.6 43.6 44.1 44.1 43 41.9 40.1 35.6 36 40 43.3 45.8 46.6 46.5 47.9 49.2 50.1 51.2 51.7 51.4 49.8 48.3 45.8 42.7 38 32.2 26.5 24.9 25 29.2 35.4 38.5 41.1 43.5 43.7 46.1 50.2 53.2 55.2 58.2 58.1 57.2 54.5 49 43.2 38.6 33.8 29.7 25.1 23.8 24.2 27.4 32 35.6 40.6 43.5 48 51.4 52.7 53.2 53.1 52.8 51.3 50.2 50.6 49.5 49.5 48.6 47.5 46.2 44.8 42.9 42.5 44.4 46.1 47.6 47.6 48 47.4 46.8 48.1 47.9 48.4 49.1 48.5 48.8 49 49.9 50.3 50 47.7 47.5 41.7 37.6 34.7 34.1 34.8 39.1 42 44.7 47.9 50.9 55.6 59.8 63.9 68.3 70.3 72.9 75.6 76.5 78.9 80 80.8 83.6 83.6 80.3 75.2 64.5 51.4 44.5
1.4 2.7 2.2 1.5 1.4 1.5 1.6 1.7 1.8 2.2 1.9 2.7 -2 -2 4.3 3.7 3.2 5.1 5.9 4.5 20 25.7 31.5 34.7 37.4 37.3 37.4 36.9 33.5 29.6 24.3 20.4 17.2 19.9 24.3 28.9 31.3 32.5 33 33.5 33.4 32.8 32.1 31.4 31.8 34.4 35.2 36.2 36.7 37.2 37.3 37.7 37.5 37 36 34.7 33.3 31.6 28.2 26.6 24.6 22.8 22.7 22.8 24.9 26.4 26.1 26 25.8 25.6 25.6 26.2 27.3 28.3 30 30.2 30 32.2 34.4 37.1 39.1 40.6 40.7 40.4 39.4 38.3 36.9 32.9 33.2 37.5 39.9 43.3 43.2 42.4 42.8 44.9 47.1 48 48.7 48.9 47.9 46.1 45.2 41.9 38.2 33.4 26.5 22.4 23.2 26.5 34.5 36.8 38.4 40.5 42.8 45.8 49 52.3 54.4 56.5 57.1 56.2 54 49.2 43.4 38 33.3 29.7 23.9 23.7 23.6 28.5 33.9 38 43 46.2 50.4 51.6 52.1 52 51.3 50.9 50.7 48.8 48.1 47.8 47.1 46.1 44.9 43.6 41.4 41.4 43.1 45.1 45.4 46.4 46.5 46.6 45.4 45.5 45.7 46 47.2 47.7 47 46.9 47 47.7 47.6 46.6 45.7 46.8 43.1 39.1 34.1 33.2 32.9 36.8 39.7 42.5 45.1 49.3 53.3 56.7 61.8 65.8 69 70.6 72.3 74.2 76 78.8 79.8 81 82 80.2 73.9 68.1 55.9 48.3
1.2 2.4 2 1.2 1.8 1.6 1.5 1.4 1.9 5.4 4.9 2.4 -2 -2 2.3 2.7 2.7 5.7 7 14.8 18.7 24.3 28.3 31.5 33.7 32.9 33.8 33.9 30.7 28.6 24.5 18.9 16.6 18.4 22.9 25.4 28.1 29.1 29.4 29.7 29.4 28.9 28.3 27.9 28.3 30.8 31.7 32 32.6 33.6 33.7 33.6 33.3 32.7 31.9 31.4 30.1 28.9 26.2 24.2 23.2 21.3 21.1 21.3 22.3 22.2 25.3 23.1 24.5 24.5 24.5 24.6 25.3 26.5 27.6 27.3 28.5 31.2 32 33.1 35.7 36.6 36.9 36.7 35.8 34.9 33.6 30.3 31.2 34.9 37.4 38.8 39.9 39 38.9 41.5 44 44.8 45.6 46.1 46 45 44.2 40.8 37.6 32.8 25.7 22.5 22 26.7 30.9 34.5 36.3 38.8 42 45.6 48.8 51.4 53.2 54.2 54.4 54.6 52.3 49.4 43.3 37.7 34.5 30.1 23.3 23.3 23.3 27.5 33.9 40.4 44.3 47.9 50.6 51.4 51.5 51.5 50.7 48.9 48.4 47.5 46.6 45.4 42.9 43.3 42.3 41.6 38.3 40.7 42.8 44.3 44.3 44.9 44.8 44.3 43.7 44.1 44.3 44.9 45 45 46 45.2 45 45.4 46.4 45.4 45.7 46.3 44.1 40.1 34.6 32 32.2 35.5 39.4 42.6 47.1 50.5 54.1 57.7 60.9 63.8 66.3 68.8 70.9 72.6 74.2 76.6 78.3 80.1 80.3 80 76.7 73.6 68.3 63.1
1.8 2.2 2.4 2.1 1.8 1.4 1 2.2 7.6 7.3 2.8 -2 -2 -2 2.1 2.2 2.3 9.1 3.9 14 18 22.9 25.6 27.9 29.7 29.3 30.3 30.3 28.7 26.6 22.2 17.8 16 17.1 20.7 22.8 24.1 25.7 26 26.5 26.1 25.5 25 24.7 25.1 26.9 27.7 28.1 28.7 30 30.2 29.8 29.8 29.3 28.5 27.6 26.8 25.6 24.3 22.1 21 20.8 20.7 20.7 20.2 21.1 21.3 23 23.1 23.2 23.3 23.3 23.8 24.9 25.6 25.6 25.7 28.5 29.5 30.8 32.4 33 33.2 33 32.1 31.2 30.5 28 28.9 32.5 34.8 36.1 36.3 35.2 35.8 38.5 41 41.9 42.7 42.6 42.4 42.4 41.2 39.4 36.1 31.6 25.6 22.7 21.9 24.5 27.4 31.2 34.3 37.3 41.3 45.1 48.1 50 51.5 52.7 52.3 52.6 50.1 46.5 42.5 37.2 33.9 29.4 23.5 23.3 23.3 28 35 41.3 45 48.7 50 50.3 50.3 50.4 49.4 48 47.8 47.5 45.4 42.8 40.4 40 39.6 38.9 37.9 39.8 41.7 42.6 43 43.4 43.4 43.1 42.2 42.1 42.5 43.6 43.7 43.7 43.3 43.2 43.8 43.3 44 46.5 46.1 43.5 42.5 39 34.9 31.7 31.5 34.5 38.7 43 47.8 52.6 56.4 59.2 60.9 64.3 65.6 67.7 69.3 71 72.7 74.1 75.4 76.7 78.8 79.2 78.9 77 72.6 69.2
1.9 3.1 2.5 1.9 1.9 1.5 6.3 6.2 2.2 2.4 3.1 -2 -2 -2 3.3 2.3 2.4 6.6 11.4 13.9 17 20 23.1 24.8 25.8 26.1 26.1 26.8 25.9 23.7 21 16.7 14.9 16.6 18.9 20.1 21.3 22.2 22.6 22.9 23.1 23 22.8 22.8 23.2 24.2 25.1 24.9 24.8 26.5 26.2 25.8 26 25.9 25 24.1 23.2 22.4 20.8 20.6 20.5 20.5 20.4 20.2 19.7 19.1 20.6 21.4 22 22 22 22 22.3 23.4 23.9 24.1 24.6 25.3 25.9 27 28.6 29.2 29.3 29.1 28.7 28 27.3 25.5 26.2 29.9 32.1 33.1 32.3 31.7 32.3 35.4 38 39.3 39 38.7 37.5 39.5 38.7 37.8 34.7 32.4 27.1 21.7 21.4 23.6 26.5 29.7 33.6 37.6 41.1 44.8 47.1 47.9 48.7 49.9 50.2 50 49 47 42.8 37.7 34.2 28.2 23.2 23 22.9 29.5 36.4 42.5 45.7 47.7 48.7 48.5 48.6 48.8 48.8 47.3 46.9 46.6 44.9 42.8 40.7 36.9 35.5 34.7 37.1 38.7 40.2 41 41.4 41.2 41.1 41.2 40.8 40.1 40.9 41.9 41.5 41.3 41.1 40.8 41.5 41.6 41.5 42.4 47.2 41.8 41.3 38.7 34.4 31.2 30.9 34.4 38.8 43.2 47.8 52.9 55.7 58.6 60.4 62.6 64.4 65.8 67.4 69 70.5 71.8 73.1 74.4 76.1 77.6 78.5 77.7 75.9 73.6
2.2 1.8 3 2.7 3.7 5.5 2.1 2.3 2 2.6 2.9 -2 -2 -2 2.6 3.6 3.8 9.9 12.1 14.5 16.5 17.2 19.8 21.6 21.9 22.8 23.8 23.3 22.5 21.2 19 15.6 14.5 15.9 17.2 18.5 19 19.7 20.4 20.9 21.1 20.9 20.8 21.1 21.5 21.9 22.3 22.3 22.3 22.5 22.3 22.5 22.3 22.4 21.5 20.6 20.6 20.1 19.9 20.2 20.2 20.2 20.2 19.9 19.5 18.8 19.8 20.9 21.3 21.3 21.2 21.1 21.2 22.1 22.2 22.2 22.2 21.9 22.5 23.2 23.9 24.5 24.8 25.1 25.3 24.7 24.1 23.7 24.1 27.4 28.4 29.1 29 28.1 28.8 28.8 31.1 35.2 34.2 35.1 36.1 36.7 36 35.6 33.6 30.6 27.9 21.7 20.8 21.5 24.9 29.3 33.6 37.9 41.4 44.3 45.3 46.2 45.9 46.9 46.9 46.9 46.9 45 41.7 37.5 31.9 26.9 22.3 22.4 22.4 30 37.1 43.2 45.6 46.4 47.4 46.7 46.9 47.2 47.6 47 46 45.6 44.1 42.9 39.9 37.2 33.9 33.5 35.1 36.3 37.8 39.4 39.3 39.3 39 39 39.2 38.8 39.5 40.3 39.9 39.6 39.3 39.8 39 38.9 38.9 39.9 40.5 40.6 38.9 35.8 32.9 30 30.3 34 39.2 44.2 49.7 52.3 55.4 57.1 58.6 60.9 62.4 63.4 65.4 66 68 69.5 70.8 72.1 73.5 75.4 76.9 77.1 77.2 75.1
2.1 2 3.4 4.6 4.8 2.3 1.8 1.7 1.7 1.9 3.1 -2 -2 -2 4.4 4.2 7.4 9.3 11 13.2 15 16.3 17.4 18.7 19.5 20 19.2 20.2 19.1 18.7 17.1 13.3 13.3 15.8 16.8 16.9 16.8 17.4 18.5 18.8 19 18.9 19 19.4 19.8 20.1 19.2 19.1 19.3 19.4 19.1 18.9 19.7 19.4 18.5 18.1 18.6 18.1 18.3 19.7 19.7 19.7 19.6 19.1 18.7 18.6 19.4 19.7 20.6 20.6 20.3 20.2 20.1 20.9 21.8 20.6 20.4 19.7 19.5 19.5 20.4 20.6 21 21.7 21.7 21.4 21.6 22.2 22.1 24.3 25.4 25.5 26.2 25.7 27.1 27 29.8 30.6 31.4 31.2 31.8 32.3 33.3 33.3 31.6 29.3 26.2 21.6 20 20.2 23.6 28.9 33.5 37.2 40.7 42.6 43.6 43.8 43.3 43.1 43.5 44.6 43.8 42 40.1 35.9 30.7 25.3 22.1 22.1 22.1 31.3 37.7 43 44.7 45.3 45.5 45.1 45.6 46.1 46.4 45.8 44.7 42.9 43 43.1 40.1 36.6 32.6 32 33.8 34.9 37.3 38.2 38.2 38.5 37.7 37.6 37.8 37.9 38 38.6 38.7 38.6 38.8 37.4 37.2 37.1 36.5 38 38.5 38 36.6 32.9 30.2 29 30.4 35.5 41 46.8 50.5 52.5 54.6 55.5 56.6 58.4 60.1 62.2 62.7 64.4 65.1 67 68.3 69.3 70.1 72.8 74.6 75.9 76.3 76
2.1 3.5 3.3 1.4 2 2.6 2.6 1.6 1.7 1.9 -2 -2 -2 -2 4.3 3.9 6 8.6 9.4 10.4 12.9 14.2 15.4 15.9 16.9 17.4 16.8 17.6 17 17 15 11.6 12.3 15.3 14.9 15 15.2 16 16.2 16.7 16.9 17 17.3 17.6 17.9 18.2 17.3 16.1 16.5 16.4 16.1 16 16.1 16.2 16.2 16.4 16.6 16.8 17.6 18.4 19.1 19.1 18.9 17.7 17.7 17.6 18.1 18.6 19.6 19.8 19.5 19.3 19.1 18.8 18.7 19.1 18.4 17.8 17.1 16.9 17 17 16.8 17.9 18.5 19.1 19.7 20.2 20.4 21.3 21.6 22.4 23.1 23.2 24.6 24.9 26 27.9 28 27.4 28.2 29.3 30.4 30.4 29.4 27.3 24.3 21.6 19.7 19.4 23.8 28.9 32.2 35.6 37.9 40.2 40.3 40.7 40.9 39.8 40.3 42.1 41.1 40 38.1 34.3 29.1 23.8 22.2 22.2 24.1 33 38.2 41.3 43.9 44.4 44.3 43.9 44.5 45 44.7 44 42.8 41.6 40.2 40.3 40 34.8 31.9 30.3 31.6 33.6 35.7 38 37.2 37.6 36.5 36.3 36.2 36.8 36.9 35.9 36.6 36.7 37.1 36.7 36.4 36 34.9 35.9 35.8 35.8 33.9 29.8 28.2 28.3 31.6 37.1 43.5 46.6 49.6 51.5 53.4 54.3 54.5 55.8 57.5 59.6 60.7 61.3 63.4 64.7 65.1 66.2 68.1 69.7 71.4 73 74.6 75.5
3.9 3.1 3.2 3.9 2.6 2.9 3.4 1.8 1.9 2.3 -2 -2 -2 -2 2.8 3.7 6.7 7.1 7.8 9.1 10 12 13.4 13.9 14.4 14.7 14.2 15.7 15.3 14.9 13.2 10.4 12.3 14.5 14.1 13.9 13.4 13.5 13.9 14.4 14.9 15.2 15.4 15.7 16 16.3 15.4 14.4 14 13.3 13.7 14.2 15.2 15.8 16 16.1 16.2 16.7 17.5 18.2 18.5 18.3 17.9 16.7 15.5 15.5 16 17.9 18.4 18.7 18.5 18.2 18 18.1 18.4 17.7 16.9 16.1 15.3 14.7 14.8 14.8 14.8 15 15.8 16.5 17 17.6 18.3 18.1 17.8 19.5 19.9 20.1 21.8 22 23.3 24.2 24.8 24.5 25.4 26.8 26.9 27.3 26 24.6 22.7 21.5 19.7 19.3 23.3 28.1 30.7 32.8 35.2 36.8 37.3 37 36.8 36.6 37.1 38.8 39.3 38.3 35.7 32.8 26.7 22.8 22.2 22.2 26.4 34.3 38.7 41.2 42.5 42.5 42.2 42.4 43.8 45.2 42.5 40.8 41 40 39 39.4 38.1 33.8 30.2 28.6 31 33.3 35.9 37.1 36.9 36.3 35.3 34.7 34.4 35.5 35.6 34.7 34.6 35.1 36.1 36 36 35.3 34 33.5 33.3 32.6 30.8 28.5 27.5 28.4 32.4 37.9 42.8 45.9 48.6 50.1 51.6 52.5 53.2 53.9 55.3 57.1 57.1 58.3 60.7 61.1 60.9 63.3 65 66.8 68.2 70.8 72.2 73.6
1.2 2.6 2.4 2.6 2.1 3 2.8 2.9 4.3 4 2.3 -2 -2 -2 3.6 3.5 5.1 5.5 7 7.9 8.9 9.6 11 11.5 11.6 12.6 13.3 14.1 14 13.6 12.1 9.6 11.9 13.9 13.3 13.3 13 12.3 12.7 13.2 13.5 13.8 13.8 13.8 14.1 14.4 13.5 13.1 12.6 12.5 13 13.3 14.1 15.1 15.7 15.9 15.9 16.7 17.2 17.7 17.8 17.5 17.3 15 14.7 15 15.5 16.9 17.8 17.7 17.4 17.1 16.9 16.8 17 16.3 15.6 15 14.3 13.9 13.1 12.9 12.9 13.4 14 15 16.2 15.8 15.6 16 15.4 16.5 16.6 18 19.3 19.9 20.1 20.3 20.9 21.7 22.1 22.9 23.8 24.4 22.6 22.9 22.8 21.4 19.6 18.7 21.4 26.5 28.2 30.1 32.2 33.1 33.7 34.3 34.4 33.9 34.2 36 36.7 35.6 33.3 30.6 26 21.5 21.5 21.7 29.5 34 37.1 39.7 40.6 40.7 39.6 40.7 41.8 41.9 40.5 39.2 38.6 38.3 37.7 37.7 37.3 34.2 29.5 28.3 28.9 32.4 34.5 35.8 35 34.4 33.7 33.1 33.2 34.3 33.9 32.9 33 33.5 34.7 34.9 34.9 34.5 33.5 32.5 30.9 30.2 28.9 28.4 29.5 31 34.8 38.4 42.1 45.1 46.9 48.3 49.3 48.6 49.7 51.1 53.1 53.5 55.3 56.4 58 58.1 59 60.2 63 65.6 65.5 67.2 70.1 71.6
4.3 2 2.1 1.8 1.8 2.5 2.7 2.6 2.4 1.8 2.2 -2 -2 0.7 3.4 4 3.9 5.2 6.1 6.3 7.3 8.3 8.9 9.4 9.8 11 11.8 12.6 12.7 12.2 11.1 8.9 10.9 12.9 12.7 12.8 12.7 11.8 11.4 11.8 12.1 12.4 12.6 12.5 12.5 12.5 12.2 11.7 11.2 11.6 12.3 12.9 13.6 13.2 14.7 14.9 15.1 15.2 16.6 17.1 17.1 16.8 16.6 15 14.4 14.8 15.3 15.8 16.1 17.2 16.4 16.5 16.5 15.5 16 15.5 14.6 13.9 13.2 13.4 11.7 11.7 11.2 11.9 13.6 13.9 14.2 14.2 13.8 13.7 13.7 14.4 16.2 15.7 16.4 16.7 17.4 18.4 18.8 19.1 19.5 20.1 20.7 21.5 21.5 22.2 22.3 21.7 19.6 17.9 20.9 22.9 25 27.6 28.8 29.7 30.5 30.1 29.8 30.1 31.1 33.3 33.6 32.8 30.9 28.2 25.1 23.2 21.6 22.1 28.9 34 36 37.6 38.3 38.2 37.1 38.2 39.1 38.3 37.4 37 36.9 36.6 36.4 35.3 34.9 34.1 30.9 26.7 27.9 31.1 33.6 33.4 32.2 32.2 31.8 31.4 32.1 33.1 32.2 31.4 31.3 33 33.2 33.8 34.1 33.9 33.3 31.8 31 29 27.9 27.9 28.3 31.2 37.5 40.2 41.9 43.8 44.9 45.9 46.9 47.2 47.5 49.5 50.8 51.4 53.2 54.4 54.9 54.5 54.6 57.8 60 61.8 64.1 64.8 67.3 70.6
4 4.2 1.9 1.8 1.7 1.8 1.8 1.9 2 3.8 2.4 -2 -2 -0.3 2.2 4.4 4.2 5.2 5.8 5.8 6 7 7.4 7.8 9.8 10.2 10.6 11.1 11.5 10.7 8.4 7.8 11.7 13 12.8 12.4 11.9 10.9 10.1 10.5 10.7 10.5 10.9 11.3 11 10.6 10.2 9.8 10.5 11.2 11.9 11.7 12.4 13.2 13.1 13.9 14.7 14.6 15.5 16.6 16.5 16 15.9 14.5 13.7 13.5 14.8 15.4 15.6 15.7 16.2 15.9 15.1 14.4 14.3 14.6 14.4 13.4 12.3 12.5 11.6 11.2 11 12.1 12.4 12.6 12.9 12.7 12.2 12.3 12.7 13 14.3 14.5 15.1 15.5 16.8 16.9 17.2 17.7 18.3 19.1 20.3 20.8 21.3 22.1 21.7 21 19.3 18.5 19.7 21.8 22.2 24.7 23.6 25.2 26.1 26.8 26.3 27.3 27.6 30.3 30.8 28.6 28 26 23.3 22.3 21.5 24.6 28.2 30.3 33.1 35.1 35.7 35.5 34.9 35.4 35.7 36.6 35.9 36.1 36.3 36.5 36.1 34.9 33.3 32 30.5 26.9 26.8 29 30.5 31.4 32.5 30.2 30 29.3 30.2 31.2 31.3 29.9 29.9 31.5 33 32.9 32.7 32.8 32.3 30.8 30.7 28.2 27.2 27.3 27.3 35 37.9 38.7 40.3 41.6 43 44 44.7 45.2 45.8 46.9 48.3 47.9 49.5 51.5 51.2 50.7 52.6 54.9 57 58.8 60 62.7 65.5 67.6
4.7 2 1.9 1.8 1.7 1.8 1.8 1.9 1.9 1.6 2.6 -2 -2 -0.7 1.5 4.5 5 4.4 5.4 5.3 5.2 5.5 6 6.6 7.7 9 9.9 9.9 9.8 8.2 6.7 7.7 10 11.5 11.7 11.1 10.6 9.8 9 9.1 8.9 8.7 8.9 8.7 8.5 8.4 8.8 9.6 10.3 11 10.8 11.4 11.9 12.1 12.6 13.3 14.1 14.8 14.6 15.7 15.9 15.2 14.4 13.4 13.2 13.5 14 13.7 15 15.3 15.6 15 14.2 13.7 13.3 13.1 13.1 13.2 11.8 11.6 10.4 10 9.9 9.8 10.9 11.1 11.4 11.5 11.2 11.5 11.9 12.1 12.7 14.1 14.4 14.9 15.3 16.1 16.7 17.3 17.9 18.3 19.2 19.7 21 18.2 21.2 20.4 18.5 16.3 18.1 21.3 21.9 20.7 19.6 19.5 18.5 18.4 18.7 21 25.8 26.8 26.4 25.2 24.9 24.2 21.1 21 20.9 24 26.4 29.3 31 31.4 32.2 32.2 32.7 32.3 33 33.2 34.6 34.6 34.6 34.7 35.1 34.2 32.6 30.8 28.4 26.5 24.4 26.4 29.1 30.6 30.1 30.3 28.7 27.6 28.2 28.7 29.5 28.8 29.7 30.3 30.8 31.2 31.4 30.4 30.9 29.4 30.3 27.2 26.4 27.1 27.9 34.7 37.2 38.3 38.2 39 41.4 41.9 42.4 42.5 42.4 44.2 41.4 44.7 46.8 48.1 47.8 48.3 51.1 53.4 55.5 56 58 60.7 63.2 65.7
2.8 2.1 1.9 1.8 1.8 1.8 1.8 1.8 1.5 1.9 3.6 -2 -2 -2 0.5 3 4.3 4.4 4.4 5.1 5.6 5.7 5.6 6.9 7.1 8.2 8.8 8.7 8.5 6.9 5.8 8 10.2 10.9 10.8 10.7 10.2 9.5 8.8 9.3 9.3 7.9 8.5 7.6 7.7 8.2 8.5 9 9.7 10.5 10.3 10.4 11 11.5 12 12.8 13.6 14.3 14.5 14.6 15.1 14.5 14.1 12.7 12.9 13.3 13.2 12.5 13.9 14.3 14.4 14 13.7 13.2 12.7 12.3 12.9 12.5 10.8 10.9 9.3 9.5 7.7 8.9 9.2 9.5 9.9 10 11 10.9 11.5 12.2 12.5 13.4 13.9 14.6 15.3 16.1 16.8 17.6 18.2 18.5 18.3 20.3 21 20.5 19.4 19.2 18.8 15.9 16.3 18.8 20.3 20.5 19 18.6 18.3 18.1 18.2 18.9 18 19.3 23 24.1 23.3 22 18.9 17.7 18.8 23 24.7 28 28.7 29.1 29.4 29.6 29.4 30.3 30.1 31.8 32.3 33 32.9 33 33.8 33 32 30.7 28.4 26.4 23.4 24.6 27.6 30.5 29.9 29.2 28 26.5 25.9 26.1 26.3 27.3 28.6 29.4 29.4 29 29.3 29.3 28.8 29.3 30 27.1 24.7 24.5 26.9 33.6 34 36 37.3 38.1 39 39.7 40.1 39.7 40.5 41.9 40.6 42.3 43.8 44.1 44.6 45.4 49.8 51.6 53.6 53.8 56.2 59 61.4 63
2.5 2.3 2.1 1.9 1.8 1.8 1.8 1.7 1.9 1.9 1.9 -2 -2 -2 -2 1.4 5.1 4.4 4.9 4.2 4.6 4.9 5.3 6 6.8 7.2 7.5 7.6 6.3 5.2 6 7.8 8.2 9.1 9.7 9.7 8.9 8.2 8.5 8.7 9 7.4 7.2 7 7.6 8.2 8.5 8.3 9.1 10 10.1 10.2 10.6 11 11.5 12.2 13 13.7 13.8 13.9 13.8 13.2 13 12.6 12 12.3 12 11.8 12.7 13.1 13.1 13.3 12.8 12.2 11.9 11.9 12.3 11.8 10.3 10.7 9.6 9.2 6.1 8 8.3 8.5 8.8 8.7 10.5 11.5 11.8 12.5 12.5 13.4 14.1 14.6 15.3 16 16.8 17.5 18.2 18.4 18.1 18.6 19.9 20.9 20 18.6 18.9 15.5 15 14.7 17 19.3 19.5 18.4 18.1 17.5 18.1 18.9 18.7 18.6 19.5 19.5 20.9 19.5 17.7 16 18.8 23.1 24 25.4 26 26.7 26.7 26.4 26.2 27.2 28 28.7 29.6 30.9 31.4 31.8 31.9 31.8 31.3 29.9 27.7 25.5 23 22.5 25.6 29.2 29.2 28.2 26.1 25.7 25.3 24.3 24.7 27.1 28.1 28.2 27.5 27.8 28.4 27.2 26 29.6 29.8 26.5 25.7 26 25.8 30.4 32.4 34.1 34.8 36.2 36.7 36.7 36.6 37.7 39.7 40.2 40.5 40.9 41.6 42.1 43.7 45.6 48.4 50.1 51.7 54.2 54.4 57.1 59.1 60.6
2.5 2.5 2.3 2 1.8 1.8 1.8 1.8 1.8 1.8 1.8 1.9 -2 -2 -2 -2 2.5 4.1 3.8 3.7 4.1 4.6 5.1 5.7 6.2 5.4 5.9 6.4 4.5 4.3 6.7 8.1 8.3 8.6 8.7 9 8.4 8.5 8.1 7.8 7.2 6.8 6.6 6.8 7 8.2 8.5 7.8 8.6 9.4 9.9 10 10.4 10.9 10.9 11.6 12.3 12.9 13.1 13.3 13.3 12.4 12.2 12.4 11.5 11.4 12.3 11.3 12.7 13.4 13.6 12.4 11.8 11.3 10.8 11.4 11.5 11.2 9.5 9 8.1 8.8 7.5 7.5 7.7 7.9 8.6 10 9.7 10.8 11.9 12.3 12.6 13.8 14.3 14.8 15.3 16 16.7 17.2 17.7 18.1 18 18.9 19.9 20.2 20.5 18.1 18.1 17 15.1 14.3 14.1 18.2 18.4 18.2 17.6 17.1 18 18.4 18.4 18.7 19 18.6 19 16.8 16.6 15.9 20.8 21 22.6 23.8 23.8 24.3 24.2 24.1 24.2 24 26.1 26.9 26.7 28.2 29.6 30 30.2 28.2 28.7 27 26 24.4 23 24 24.4 24.4 24.4 24.4 24.6 25.4 25.8 26.2 26.3 26.2 26.7 26.7 26.8 26.4 26.5 26.7 26.5 28.5 28.3 28.3 26.3 24.7 26.4 27.1 29.5 31.1 33.6 33.5 34.4 35.2 34.5 35.5 38.1 37.6 37.2 38.3 38.5 40.1 42 44.4 46.6 48.3 49.8 51.2 52.6 47.5 57.2 58.5
1.4 1.5 1.6 1.7 1.7 1.8 1.8 1.9 1.9 1.9 1.9 1.8 2.9 -2 -2 -2 -2 2.6 4.1 3.5 3.8 4.3 4.8 5.4 5.5 4.8 4.9 3.7 4.4 5.5 7.1 7.9 7.8 8 8.4 9 8.6 8.5 8.1 7.4 6.7 6.3 6.1 6.6 7.1 7.2 7.8 7.4 7.9 8.8 9.8 9.5 10.3 10.6 10.3 11 11.6 12.2 12.5 13 12.9 11.5 11.3 11.3 11.2 11.9 10.4 11.6 10.7 11.3 11.8 12 11.6 10.8 10 10.8 9.5 9.4 9.4 8.1 8.6 8.8 7.6 6.7 7.5 8.2 8.7 9.4 10 10.9 12 11.8 12.8 13.7 14.1 14.6 15.1 15.7 16.4 17 17.5 18.9 19.5 19.7 19 19.3 19.5 19.5 18.7 17.8 17 15.2 14.1 16.8 17.9 17.6 17 17 17.1 17 17.1 18.1 18 18.4 17.3 16 15.7 16.1 20 19.7 20.4 22.4 22.4 22.3 21.6 22.5 23.1 22.7 21.8 22 24.4 26.3 27.7 24.3 25.2 27.2 27.9 27.7 25.9 24 21.3 19.9 22.6 23.7 23.7 23.7 22.9 22.3 22 21.1 21.8 22.9 24.4 23.9 23.8 24 25.2 26 24.4 24.9 27.3 27.8 28.3 28.5 29.3 29.2 29 29.6 30.8 32 32.6 32.7 32.6 34.1 36.1 34 35.4 36.3 38.9 40.7 41.4 42.4 44.9 46.4 47.9 49.3 36.8 52.8 54.8 56
1.5 1.5 1.6 1.7 1.7 1.8 1.8 1.9 1.9 2 2 2 2.6 2.3 -2 -2 -2 -2 3.6 3.1 3.4 4 4.6 4.7 4.7 4.1 1.9 2 3.8 5.8 6.6 7 7.3 7.7 8.3 8.1 8.6 7.7 7.8 7.3 6.5 5.7 6 6.5 7.1 7.2 6.8 7.1 7.3 8.3 9.3 9.3 10.1 10 9.7 10.4 11.1 11.3 11.3 11.3 11.3 10.7 10.3 10.4 10.2 10.5 10.4 10.4 11.4 11.3 11 11.2 11.2 11.2 10.4 10 9.4 8.6 8.8 7.4 8 7.7 6.7 5.6 7.1 8.2 7.4 9.2 10.4 11 11.6 12.3 13 13.3 13.6 13.9 14.4 15.5 16 16.9 17.6 16.9 18.2 18.1 18.9 19.2 19.3 19.5 19.2 17.5 16.8 14.5 14.2 14.1 17.2 16.9 16.5 15.7 15.7 15.7 15.6 15.1 15.4 16.5 18.4 19 19.4 18.9 19.9 20.4 20.5 20.2 18.8 18.9 19.6 20.5 20.9 22 21.6 23.6 22.5 24.1 24.6 26.3 25.6 25.6 25.3 25 23.8 22.4 20.4 19 19.7 22.1 21.6 22.3 21.8 21.4 19.9 20 20.6 21.2 22.1 22.9 23.2 23.2 24.2 24.2 22.5 24.8 25 24.6 23.2 22.9 23.1 28.2 29.3 29.5 28.8 29.1 30.2 30.3 31.9 33.2 35.2 34.9 35.9 37.1 38.6 39.4 40.1 41.1 43.2 44.4 45.6 47.3 48.2 50.2 52.1 53.7
1.5 1.6 1.6 1.7 1.7 1.7 1.8 1.8 1.9 1.9 2 1.9 1.8 2.7 2.2 -2 -2 -2 1.3 4.7 3.1 3.7 4.3 3.6 3.9 2.3 2.3 2.6 4.3 6 6.9 7.5 8 7.9 8.4 7.7 7.7 7.8 7.4 6.4 5.8 5.3 5.3 6 6.7 6.1 6.6 7 8.7 8.9 9.2 9.3 9.2 9.3 9.2 9.8 10.6 10.6 10.4 10.4 10.4 9.7 10.3 10.1 9.9 9.7 9.3 8.7 11.4 11.7 11.1 10.3 10.5 10.8 10.5 9.5 9.1 8.3 7.5 6.8 6.6 6.4 5.8 4.9 6.2 7.4 8.2 9 10 11.1 11.8 12.3 12.8 12.9 13.2 13.5 14 15.5 15.3 16.5 16.7 17.1 16.8 17.7 18 18.9 19 19 18.5 17.5 16.7 16 14.7 12.5 15.2 16.5 16.1 15.3 15.1 15.2 14.6 14.7 15 15.6 18.7 19.2 18.4 18.6 19.2 18.6 18.5 18 18 18.3 17.8 19.7 19.6 19.8 21.1 20.3 20.6 22.3 22.8 23.1 23.2 22.4 22.8 22.2 22.7 20.8 18.9 18.2 17.6 19.7 20.1 20 20.1 19.9 18.4 18.8 19.3 19.9 20.7 21.7 22.6 22.7 23 22.6 22.4 23.4 23.5 23.3 22.8 22.3 22.4 23.2 24.8 28.5 28.5 29.2 28.6 29.3 29.8 31 34.2 33.9 33.9 35.3 37 37.6 38.3 39.7 40.4 42 42.7 41.4 47 48.4 48.4 50.8
1.5 1.6 1.6 1.7 1.7 1.7 1.8 1.8 1.9 1.9 2 1.8 1.8 3.3 2.7 1.1 -2 -2 -2 3.7 3.3 2.9 2.7 3.1 3.2 1.6 2.3 3.2 5.1 6.1 7 7.6 7.9 8.1 7.2 7.1 6.7 6.4 6.2 5.2 5 5 5 5.1 5.4 5.7 6.1 7.1 7.7 7.8 7.8 8.3 9.8 9 8.6 9.3 10.1 10.1 9.6 9.9 9.5 9.4 10.4 9.9 9.6 9 8.6 8.5 10.3 11.5 11.2 10.1 10.5 10.1 8.7 9.2 8.6 8.3 7.5 6.3 6.7 6.5 5.4 5.4 6.2 7.2 8.2 9.2 9.1 10.4 11.6 12 12.5 12.6 12.7 13.2 13.9 14.7 15.4 15.7 15.8 16.8 16.5 17.2 17.5 17.9 18.3 18 17.4 17.8 17.4 16.4 14.2 12.1 12.5 13.7 15.5 14.4 14.3 16.7 18.5 16.4 13.4 12.9 13.9 14.4 15.2 17.3 18.1 18 18.7 17.7 16.5 17.8 17.1 17.5 17.6 17.6 17.5 17.4 18.2 19.7 19.9 20.9 19.4 20.5 21.9 21 20.4 19.2 18.8 16.7 17.1 18.1 18.6 17.6 18.3 18.3 17.6 18 18.3 18.7 20.1 20.7 21.6 21.8 21.7 21.2 22.3 21.9 21.9 22.3 23 21.5 21.5 21.9 22.9 27.2 24.7 26.6 27.7 28.2 28.6 30.3 30.7 31.8 32.9 34.5 36.1 37 37.1 38.2 38.3 39.4 35.7 43.7 44.8 46.2 47.4 48.6
1.6 1.6 1.6 1.6 1.7 1.7 1.8 1.8 1.9 1.9 1.9 1.8 1.9 1.9 2.9 2.3 0.2 -2 -2 -2 3.1 1.8 3.1 2.6 1.1 2.1 3.4 3.7 5.4 6.1 6.9 7 7.8 7.2 6.7 6.6 7.2 6.1 5.3 5.4 4.8 4.8 5 5.5 4.9 5.3 5.7 6.2 7.4 7.6 7.1 7.4 8.5 8.7 8.1 8.8 9.6 9.5 8.8 9.7 8.5 9.1 9.9 9.6 9 8.2 7.8 7.9 8.2 9.9 10 10.2 10.3 9.7 8.2 8.1 8.9 8.1 6.4 5.7 6.6 6.3 4.5 5 5.9 6.7 7.4 8 8.7 11 11.5 11.8 12.1 12.2 12.6 12.9 13.6 14.4 14.8 14.8 15.6 16.5 16.1 15.8 16.1 16.8 16.6 16.4 17 17.3 16.4 17.1 15.3 15.6 16.8 17.4 14.2 13.2 14.1 13.1 12.8 13.3 12.5 13.7 14.5 14 13.8 16.7 18.1 17.4 17.2 16.5 15.8 16.3 15.5 16.5 16.2 16.5 15.9 16.2 16.1 17.6 16.7 17.2 17.9 19 18.4 18.9 18.4 17.7 17.4 16.2 16 15.6 16.3 16.3 16.8 16.1 16.7 16.9 17 17.9 19.1 18.8 19.7 19.8 20.4 20.2 21.7 21.6 21.8 21.5 20.7 21.1 22.1 21.7 22.7 25.5 24.4 26.2 26.8 28.1 28.7 32.7 29.3 30 30.4 32 34.7 33.5 34.2 35 34.8 37.5 40.3 41.8 42.5 43.4 44.8 46.2
1.5 1.6 1.6 1.6 1.6 1.7 1.7 1.8 1.9 1.9 1.9 1.8 1.8 1.8 3.3 2.7 1 -2 -2 -2 2 3.7 3.1 2.4 2.1 2.9 4.2 4.5 5.5 5.2 6.1 7.1 6.9 7.7 7 7.2 7.4 6.5 6.4 5.5 4.7 4.6 4.6 4.4 4.8 5.4 6.1 6.7 6.9 6.7 7.4 8 7.1 8.4 7.8 8.1 9 9.1 8.5 8.9 8.1 8.4 9.1 9.1 8.2 7.4 7.8 7.9 7.7 8.7 9.1 9.6 9.7 9.5 7.8 7.9 7.4 7.6 7.1 6.2 5.1 4.5 4.2 5.1 6.2 7.2 8 8.6 9.2 10.2 10.7 11.3 11.7 11.7 12.7 12.7 13.2 13.9 13.9 14.2 14.7 15.8 15.7 15.3 15.7 16.2 16.8 16.4 16.4 16.6 16.6 16.4 16.1 12 11.5 12.5 14.3 13.6 13.5 13.5 13.3 13.1 13.2 14.1 13.9 15.1 16.9 16.9 18.1 17.1 16.4 15.7 15.3 16.1 14.9 14.8 14.5 14.5 14.5 14.6 14.7 15.2 14.4 14.7 15.8 15.9 16.3 16.8 17.5 16.7 16.2 15.9 15.8 14.4 15 15.3 15.3 14.6 14.9 15.4 16.1 16.9 18.2 18.3 18.3 17.7 18.1 18.7 19.9 20.1 20.6 21 20.6 20.1 21.2 21.6 22.6 23.3 24.1 25 26.9 27 27.2 31.8 29.4 29 29.2 35.1 31 31.6 31.5 32.2 34.1 35.8 39 40.3 41.1 42.1 43.7 45.1
1.7 1.5 1.6 1.6 1.6 1.7 1.7 1.8 1.8 1.8 1.8 1.7 1.7 1.6 1.7 3.4 2.4 -2 -2 -2 0.5 3.7 3 2.4 2.4 5.3 4.1 4.7 5.6 6.8 6.2 8.1 7.6 6.4 6.5 6.6 7.2 6.8 6.3 6.1 4.6 4.5 4.1 4 4.7 5.5 5.1 5.1 5.7 5.9 7 7.8 7.5 7.8 7.4 7.3 8.2 8.6 8.5 8 7.5 8.2 8.7 8.3 7.5 6.6 6.9 7.6 8.3 8.6 8.6 9 9 8.8 6.9 7.9 7.4 6 6.6 5.9 4.7 4.2 3.8 5 6.3 6.8 7.4 8.5 9.5 10 10.3 10.7 11.2 11.3 12.5 12.6 13.1 13.3 13.4 13.9 14.6 15 14.9 15.6 15.5 15.6 15.9 15.9 15.9 15.8 16.2 15.9 14.8 12.5 10.2 11 13.1 12.9 12.7 13.2 13.1 13.2 13.5 13.7 14.3 14.7 16.6 16.9 17.2 16.5 15.6 15.3 15.3 15.2 14.7 14.1 13.2 13.5 13.4 13.9 14 13.3 13.2 13.3 13.4 14.1 14.4 15 15.9 15.6 15.7 15.3 14.7 13.9 13.9 13.8 13.5 13.9 14.2 14.5 15.1 15.9 17.2 17.5 17.7 17.4 17.1 17.8 19.3 19.2 19.8 20.1 19.8 19.6 19.9 20.8 21.7 22.6 23.6 24.1 25 25.4 27.9 29.4 29.4 28.7 29.5 28.8 30.8 30.4 30.7 32.9 34.1 33.5 32.5 33.2 38.3 39.9 40.9 42.5
1.8 1.9 1.6 1.6 1.6 1.7 1.7 1.8 1.7 1.7 1.6 1.6 1.6 1.6 1.7 4.2 2.9 -2 -2 -2 -2 3.9 2.8 2.3 3.3 5.4 4.7 5.2 5.2 5.2 5.3 5.4 6.5 7 5.8 6.3 6.9 6.7 6.3 6.1 5.8 4.9 4.2 3.8 4.7 5.5 4.7 4.6 5.1 5.5 5.8 6.5 7.6 7 7.3 7.3 7.4 7.8 7.6 7 7 8.2 8.5 7.5 6.7 5.9 5.9 6.7 7.8 7.9 7.5 8 8.4 7.8 6.4 6.1 5.4 4.6 5.5 5.6 4.3 2.9 3.9 5.3 5.7 6.8 8 8.8 9.4 9.9 10.1 10.5 11.2 11.2 12.7 13.5 13.9 14 13.9 14.4 13.5 14.8 15 15.1 15 15.3 16 15.5 15.6 16.1 14.9 15.2 14.8 13.1 10.6 9.3 11.5 12 10.7 12.7 13.6 13.3 13.5 14.9 15.3 16 16.1 15.8 16.6 15.7 15 16.3 16.1 14.3 14.1 13.4 14.1 12.6 12 12.5 12.4 12.3 12.2 12 11.8 12.7 13.6 14.2 14.3 13.4 14.4 13.8 13.7 13.7 13.6 13.5 13.4 13.4 13.9 14.1 14.9 15.2 16.1 16.6 17.1 16.3 16.6 17 18.5 18.3 18.6 19.1 18.6 19.1 19.3 19.6 20.5 21.6 21.9 23.2 23.5 23.4 25.9 26.3 25.8 26 27.8 28.3 29.7 30.4 30.2 31.1 32.8 32.8 33.7 33.5 33.3 33.5 33.5 33.6
1.9 2 2 1.6 1.6 1.6 1.7 1.7 1.6 1.6 1.5 1.6 1.6 1.7 1.8 2.6 2.8 0.3 -2 -2 -1.2 -0.1 3.7 4.8 5 4.3 4.3 4.8 4.8 5.1 5.1 5.3 6.9 6.4 5.8 5.7 6.3 6.3 5.3 4.3 4.5 4.5 4.9 5.4 5.5 5.5 5.3 5.4 5.1 5.4 5.6 5.7 7.2 6.8 7.5 8 7.9 7.2 6.5 5.8 7.4 7.3 8 6.7 5.9 5.5 5.4 6.6 7.3 7.4 7 7 7 6.8 6.8 6.7 6 4.6 5.6 5 3.7 3.3 3.8 6.2 7.2 7.7 8 8.1 9 10.8 10 11 12.1 13.6 13 13.5 13.2 12.8 13.5 13.4 13.1 13.3 14.1 14.6 14.5 14.9 15.8 15.1 15.4 14.5 15.4 15.6 14.1 13 11 9.3 9.4 9.7 9.7 10.7 12.9 13.3 13.6 14 14.8 15.5 15.8 15.8 15.5 15 14.1 15 14.3 13.7 13.4 13 13.3 12.7 11.3 11.7 11.5 11.7 10.8 10.3 11.4 12.1 12.6 13.6 14 12.8 13.4 13.1 13.1 13.1 13.4 13.4 13.3 13.3 13.3 14 14.7 15.3 16 16.4 16.3 16.6 15.7 17.3 17.7 18.2 18.2 17.3 17.9 18.4 18.8 18.5 19.7 20.4 21.5 20.9 22.7 22.3 24 24.8 24.8 25.1 25.5 26.6 27 27.8 28.9 30.9 31.3 31.8 32.4 33.7 33.7 36 37.3 39
2 2.1 2.2 2 1.6 1.6 1.6 1.6 1.5 1.5 1.9 2.4 1.7 1.8 2 2.4 2.4 1.8 -2 -2 -2 -1.2 0.6 2.6 4.1 4.1 4.4 5.7 6 6.3 6.1 6.1 6.4 7 5.9 6.7 6.5 6.1 4.9 3.8 4.3 3.8 3.4 3.4 4.2 4.4 4.8 5.2 5.4 5.4 6 6.3 6.6 6.6 6.8 7.4 7 7.5 6.6 5.6 6.9 7.8 6.6 6.9 5.7 6.5 5.2 5.2 6.8 6.9 7.4 7.1 7 6.9 5.6 5.9 4.6 5 5.1 4.2 3.5 3.1 4.6 6.2 6.7 6.5 6.3 11.2 12.3 9.5 10 12.5 11.1 11.2 11.2 11 11.7 11.9 12.6 12.7 12.8 12.5 12.9 14.2 14.2 14.3 14.7 14.4 14.1 14.2 15 15.6 14.3 13.8 12 9.4 8.3 8.7 9.4 10.8 13 13.3 13.7 14.1 15.4 15.3 15.3 14.8 14.2 13.7 14.3 13.6 13.5 13.1 12.5 13 12.6 12.3 11.2 11 10.6 11 11 10.1 10.3 11 12 12.4 13.2 13.7 12.9 12.1 11.7 11.8 12.3 12.7 13.1 13.2 13.2 13.9 14.2 14.7 16.1 15.2 15.5 16.5 15.4 16.1 16.6 16.7 16.7 16.9 17.6 18.3 18.1 17.9 18.9 19 19.9 19.8 20.5 21.7 22.8 23.5 23.8 24.2 24.6 25.6 25.3 26.9 27.4 29.8 29.4 31.4 30.2 33.6 34.8 36.5 35.9 37.7
2.2 1.7 2.3 2.4 2 1.7 1.6 1.6 1.6 1.6 2.5 2.1 4.1 6.4 3.9 2.4 4.9 4.6 4.4 -2 -2 -2 -2 -2 4.2 5.7 4.6 5.6 6.3 5.7 5.5 6.7 6.8 6.6 6.8 6.8 6.5 6 4.6 4.1 3.9 4 3.2 4.3 3.7 3.7 4.7 4.5 4.5 4.6 4.1 5.2 4.7 5.2 5.5 5.8 6.5 6.6 6.6 6.3 6.5 6.8 5.7 6.2 5.4 4.1 4.3 5.2 6.2 7.8 7.6 6.9 6.2 5.8 5.5 5.5 4.2 4.8 4.2 3.4 3.2 5.2 7.2 10.4 11.1 7.2 7.6 7.3 7.7 8.5 9.7 10.8 10.8 10.9 11 11.2 11.5 11.7 11.8 12.1 12.3 12.3 13.2 13.8 13.6 13.8 14.3 13.8 13.8 14.1 14.9 15.3 14 13.4 12.8 10.1 8.1 7.2 8.6 11.8 13.1 13.6 13.9 13.9 14.4 13.9 14.1 14.7 14.4 13.6 13.9 13.1 12.3 12.2 11.6 11.9 10.7 11.4 11.3 10.3 9.7 10.1 10.7 9.6 9.6 9.7 11 12 12.1 12.2 12.2 11.4 10.5 10.9 11.2 11.6 12 12.5 12.9 13.5 14.5 14.5 15.7 15.6 15.4 15.3 16.5 16.6 17.1 16.6 16 17.1 16.7 16.5 17.2 17.6 18 18.1 18.3 19 20.3 19.4 21.5 22.5 23 23.3 23.7 24.5 24.4 25 27.4 28.5 27.8 30.2 27.9 28.3 34.3 31.3 34.8 36.7
2 2.4 1.9 1.8 2.2 1.6 2.1 2.4 2.3 3.6 5.8 2.5 1.9 1.9 2.2 3.7 5.1 4.9 6.1 5.5 4.7 1.4 0.2 -2 -2 6.3 5.3 5.4 6.1 6.2 7.3 7.3 7.1 6.9 5.1 5.8 3.9 3.1 3.1 3.1 4.2 3.8 3 4.1 3.3 3 5.3 4.9 4.8 4.2 3 3.9 4 3.8 5.5 5.8 4.9 5.5 4.6 4.4 5.8 6 6.2 7.9 4.7 3.2 4.1 4.9 6.3 7 7.3 6.4 5.9 5.1 4.5 4.9 4.8 5.1 10.5 7.5 4.1 5.1 6.1 6.6 6.2 6.7 7.6 7.6 7.9 9.1 9.5 10.1 10.5 10.8 10.9 11.4 11.3 11.4 11.3 11.2 11.6 12.3 12.6 8.7 7.2 8.6 13.4 13.4 13.5 13.6 13.7 13.7 13.5 13.2 12.7 10.5 7.8 6.3 8.1 11.7 13.3 13.3 13.8 13.3 14.3 14.5 14.6 14.5 14 13.2 13 13.6 12.2 11.7 12.1 10.8 10.4 10.2 10.2 10.5 10 10.3 10 9.6 9.7 9.7 9.4 10 10.8 10.6 10.4 10.8 10.4 10.5 10.5 10.9 11.3 11.8 12.3 12.7 13.8 15 15.4 16 15.4 15.8 16.5 16.5 16.5 16.7 16.5 16.5 16.8 16.6 16.7 16.5 16 17.3 16.1 17.5 17.7 18.9 21.5 22.1 22.7 22.7 22.8 23.5 23.5 23.8 27.1 27 27.8 26.9 27.1 29.6 33.9 34.2 35.3 36.7
1.9 1.9 1.9 1.7 1.6 2.7 3.9 4.3 3.3 1.7 1.5 1.4 2.3 2.9 2.2 3.5 4.9 4.7 4.5 4.4 4.3 4.5 2.3 0.2 -2 -2 2.3 3.4 4.7 5.7 6.4 6.7 5.4 4.6 3.4 2.6 2.4 2.3 2.2 -2 -2 -2 -2 -2 -2 -2 -2 -2 -2 -2 -2 -2 -2 -2 -2 -2 -2 -2 -2 3 3.7 3.6 4.2 4.4 4.6 4.1 5.1 8.4 8.6 8.5 6.1 7.5 9.2 9.5 9.1 7.6 4.7 3.9 4 4.4 4.1 4.5 5.8 5.8 5.5 6.1 6.5 5.3 7.9 6.9 5.7 9.1 9.5 10.7 10.8 11.3 11.4 10.3 3.3 3.3 3.3 3.3 3.3 3.3 3.3 3.3 3.3 3.3 3.3 3.3 13.4 13.4 12.9 12.6 11.8 11 9.2 5.9 8.3 10.1 12.5 12.7 13.4 13.4 14.4 14.5 13.9 13.1 13.6 13 12.8 12.9 12.2 11.2 11.1 11.5 10.1 9.8 10.2 10.2 8.8 8.9 9.3 8.6 9.1 9.8 10.2 9.2 9.7 9.1 9.7 9.5 10.2 10 9.9 10.2 10.9 11.7 13 12.6 13.1 14.1 15.2 15.6 14.8 15.2 16.3 15.8 15.8 16.3 16.3 16 16.3 16.4 16.3 16.3 16 15.3 15.2 17.2 16.3 17.6 19.9 20.6 21.3 21.9 22.1 22.3 23 22.9 26.3 25.3 27.6 27.5 30.4 32.3 33.5 34 35.1 38.7
2.4 1.8 1.9 4.4 2.3 2.5 2 1.5 1.7 1.7 1.8 2.6 2.5 1.8 1.8 4 4.6 4.4 4.2 4.2 4.1 4.4 4.3 7.6 0 -1.6 -2 -2 -2 -2 3.9 3.8 2.4 2.8 1.2 -2 -2 -2 -2 -2 -2 -2 -2 -2 -2 -2 -2 -2 -2 -2 -2 -2 -2 -2 -2 -2 -2 -2 -2 -2 -2 -2 -2 -2 4.9 4.1 5.3 4.8 5.5 6.3 6.5 6.2 5.8 5.3 5.3 4.6 4.8 3.5 3.8 4.2 4.2 4.8 3.9 4.4 4.3 3.4 3.3 3.3 3.3 3.3 3.3 3.3 3.3 3.3 3.3 3.3 3.3 3.3 3.3 3.3 3.3 3.3 3.3 3.3 3.3 3.3 3.3 3.3 3.3 3.3 3.3 3.3 5.3 10.9 11.4 9.6 7.5 6.1 7.6 9.7 10.9 11.9 12.7 13.4 12.6 13.8 13.5 13.1 12.9 12.6 12.8 11.9 11.3 11.9 10.9 10.6 9.7 9.9 9 8.9 8.1 8.2 8.5 8.2 8.2 8.8 8.4 8.9 8.9 8.8 9.2 9.8 9.2 9 9.9 10.6 11.2 12.1 12.2 12.9 12.7 14.1 14.1 14.9 15.3 14.9 14.9 14.9 15.9 15.5 16.5 15.4 15.7 15.8 15.3 14.9 15.6 14.8 14.9 14.7 17.1 16.9 18.5 17.9 19 19.6 20.4 21.3 22.2 19.4 25.9 22.3 26.1 26.5 27.9 31.9 33.2 34.7 36.5 41.1
3.8 2.1 1.5 2.5 1.1 2 1.1 1.8 1.3 2.4 2.9 2.7 2.2 1.3 2.7 4.4 4.3 4.1 4 3.9 3.9 4.8 5.4 2.3 2.4 1.1 -2 -2 -2 -2 -2 -2 -2 -2 -2 -2 -2 -2 -2 -2 -1.7 -1.3 0.1 3.2 4.2 3 2.6 2.6 2.6 2.7 3.2 3.6 3.2 2.9 2.6 2.6 2.3 2.3 -1.3 -1.4 -1.5 -1.7 -1.5 -0.8 -2 -2 -2 4.3 4.5 3.4 2.6 1.6 1.5 1.7 -2 -2 -2 -2 -2 -2 -2 -2 -2 -2 3.4 3.3 3.3 3.3 3.3 3.3 3.3 3.3 3.3 3.3 3.3 3.3 3.3 3.3 3.3 3.3 3.4 3.4 3.5 3.3 3.3 3.3 3.3 3.3 3.3 3.3 3.3 3.3 3.3 3.4 3.4 3.6 3.4 3.5 3.7 4.2 4.3 11 11.9 12.8 13.2 12.9 12.8 12.7 12.3 12.2 12.4 11.6 11.5 11.4 10.7 9.6 10 9.2 8.7 8.4 8.1 7.9 7.8 7.8 7.7 7.9 7.6 9 8.8 8.3 8.8 9.1 8.5 9.8 10.1 10.1 10.3 11.4 11.2 12.4 13.3 13.2 13.4 14.6 15.3 14 14.9 14.5 15 14.3 14.9 14.8 15.7 15.3 14.7 14.7 15.5 14.1 14 15.5 16.4 16.9 18.3 17.1 17.5 18.3 19.8 20.3 21.3 22.7 23.3 22.6 25.6 26.9 28.5 32.1 33.4 35.4 37.3 42.4
1.4 1.6 2 2 2.6 2.7 2.5 1.5 1.5 1.5 2.5 2.6 1.8 2.1 1.9 4.5 4.1 4.1 3.8 4.1 4.4 2.9 2.3 2.3 2.2 2.4 2.4 0.2 -2 -2 -2 -2 -2 -2 -2 -2 -2 0.4 2.2 2.3 2.3 3.2 3.8 4 2.2 3.8 3.6 3.6 3.9 4.2 5.2 5.1 5 4.5 4.3 4.3 5 4.9 2.8 1.3 0.7 0.9 0.9 1.6 -2 -2 -2 -2 4 1.6 -2 -2 -2 -2 -2 -2 -2 -2 -2 -2 -2 -2 -2 -2 3.6 3.3 3.3 3.3 3.3 3.3 3.6 4.1 4.3 4 4 4.2 4.5 4.5 4 4.8 4.8 4.9 4.7 3.4 3.3 3.3 3.5 3.8 3.6 3.4 3.3 3.3 3.3 3.3 3.3 3.3 3.3 3.3 3.3 3.3 3.5 3.8 3.5 3.4 11.7 12.1 12 12.3 12 11.5 11.6 11.4 11 11 10.4 9.7 9.7 9.2 8.6 8.4 8.2 7.9 7.7 7.5 7 6.8 7.8 7.6 7.4 7.9 8.2 7.6 8.5 9.6 10.1 10 9.9 10.8 11.7 12.4 13.2 13.5 13.3 14.1 14.5 13.9 14.5 13.2 14 14.5 14.5 14.3 14.1 14.6 14.2 14.4 14.1 14.4 13.6 14.6 15.6 16.3 17 17.3 17.2 17.6 19.6 18.9 20.8 21.9 22.5 22.4 25 27 29 32.6 33.1 35 36.8 43.4
2.2 1.8 1.9 1.8 1.6 2.5 2.3 2 1.5 2.3 2 2 1.6 1.9 1.9 2.9 1.4 3.2 4.2 4.4 2.3 2.3 2.3 2.2 2.3 2.4 -2 -2 -2 -1 -0.8 -0.6 -0.2 0 0.9 1.3 2.3 3.8 2.6 4.5 3.3 4.4 4.7 4.9 4.9 4.3 4.6 4.7 5.2 5.3 5.2 4.9 4.4 4.7 4.9 5 5 4.8 4.5 4.4 4.6 4.7 4.6 4.7 5 0.9 -2 -2 -2 -0.1 -2 -2 -2 -2 -2 -2 -2 -2 -2 -2 -2 -2 -2 -2 0.9 3.1 3.9 3.7 3.9 3.8 4 4.4 4.9 4.8 4.6 4.8 5.1 5.2 4.9 5.6 6 5.6 5.1 4.4 4.4 4.1 4.5 4.6 4.5 4.4 4.2 4.3 4.1 3.8 3.5 3.3 3.3 3.3 3.3 3.3 3.3 3.3 3.4 3.4 3.4 4.1 6.9 11.9 11.6 11.3 11.6 11.2 10.8 10.5 9.6 9.4 9.5 8.6 7.7 8.4 8.2 7.9 7 6.9 7.8 7.2 7 6.7 7.1 6.9 7.1 8.1 8.6 9.4 9.8 9.6 9.3 10.2 11.2 11.4 11.6 12.4 13.1 12.8 13.2 12.3 13.2 12.2 13 13.7 13.2 13.1 13.3 13.3 14.2 14.2 13.7 13.2 13.7 14 15.2 15.6 16 16.5 16.3 16.7 17.9 17.9 21.4 22.7 23.5 24.1 25.6 28.1 30.3 32.1 32.6 34.3 36.2 39.5
1.6 1.8 1.8 1.6 1.4 1.3 1.5 2.8 3 1.9 1.3 2.5 1.5 1.4 1.5 -0.9 -2 -2 3.4 1.5 2.3 2.3 -2 -2 -2 -2 -0.9 -0.2 0.2 0.6 0.7 1 2.2 2.6 4.8 4.2 3.4 4.1 4.3 4.9 4.8 5 5 4.9 5.5 4.8 3.7 4 4.2 4.4 4.8 4.3 3.8 3.9 3.8 3.8 4 4.7 4.8 4.8 4.4 4.2 5.4 5.3 5.1 1.8 -2 -2 -2 -2 -2 -2 -2 -2 -2 -2 -2 -2 -2 -2 -2 -2 -2 -2 4.6 4.7 5.5 5.2 5.1 4.7 4.5 5.1 5.2 5.6 5.1 5.6 5.5 6.1 5.4 6.1 6.1 5.7 5.5 5.4 5.4 5 5.1 5.7 5.6 5.3 5.1 5.4 5.5 5.1 4.4 4.1 4 3.5 3.5 3.4 3.3 3.3 3.3 3.3 3.3 3.3 3.6 5.3 5.4 4.4 4.3 4.3 3.1 3 3 7.8 8.8 8.3 6.9 7.3 8 6.7 6.6 6.4 6.8 6.6 7.4 6.3 6.7 7.5 6.8 7.6 7.3 8.8 9.4 9.3 9 9.5 11.2 10.4 11.8 12 11.7 12.8 12.6 12.2 12 11.8 12.1 12.9 13.2 12.5 13 12.7 12.7 12.8 13.8 12.9 13.2 13.7 14.5 14.5 15.1 15.7 15.9 17.2 19 18.9 21.8 21.4 23.6 23.8 25.4 29.1 30.1 31.3 32.6 34.1 36.8 38.1
1.9 1.9 1.8 1.7 1.5 1.4 1.5 3 4.3 2.2 3.2 3.3 4.1 3.8 3.8 3 3.7 -2 -2 -0.6 -0.9 -2 -2 2.3 2.3 1.2 0.9 1.5 2 2.3 2.3 4.3 4.1 4 4.5 4.1 3.8 4.5 4.5 5.2 5.3 5.1 4.9 4.8 5.8 4.6 4.3 4.7 4.5 4.4 4.3 4.1 4.2 4.8 4.8 5.2 5.1 5 5.2 5.4 5.4 5.1 5 4.7 4.6 4.2 0.8 -2 -2 -2 -2 -2 -2 -2 -2 3.5 3.6 3.7 4.1 4.1 3.8 4.1 4.4 4.6 3.8 2.3 2.1 2.4 2.9 3.1 2.3 2.1 2.2 2.1 2 1.9 2.3 2.3 2.3 2.9 3.2 5.1 4.9 6.6 6.3 6.4 6.2 6.5 6.7 6.4 5.9 6.2 6.3 5.8 4.8 4.6 4.8 4.2 3.9 3.8 3.7 3.7 4.2 3.8 3.4 3.3 3.3 3.3 3.3 3.3 3.3 3.3 3.5 3.2 3.2 3.2 3.1 3.6 3.6 6.3 6.3 6 6.6 6 6.5 6.6 6 5.9 6.8 7.1 7.5 8.1 8.1 7.4 9.6 9.7 9.8 9.4 10.8 10.9 11.5 11.7 10.8 11.8 12.4 12 12.2 12.5 11.4 12.6 11.7 12.9 12.3 12.3 13.1 12.8 12.5 12.5 12.8 13 13.5 14.9 15.4 15.7 16 17.2 18.5 19 19.4 21.5 22.4 23.6 25.3 28.2 29.2 30.5 32.8 34.9 36.5 38.5
2 1.9 1.8 1.8 1.7 1.5 1.8 2.7 4 3.4 3.7 4.4 4.1 3.1 3.6 3.2 2.2 1.7 2.2 2.8 2.9 2.3 2.4 2.8 2.3 2.5 2.5 2.3 2.7 2.3 3.5 4.5 5 4.5 3 4.2 4.9 5.7 5.7 5.4 5.8 5.5 5.1 5 5.2 4.5 5 5 4.9 4.8 4.8 4.6 4.9 5.2 5.3 5.3 5.3 5.4 5.1 5.3 5.5 5.7 5 4.5 4.3 4.1 2.1 -2 -2 -2 -2 -2 -2 5.3 5.7 6.5 6.5 5.6 5.3 2.2 2.9 4.3 4.5 5.4 -2 -2 -2 -2 -2 -2 -2 -0.4 -0.3 -0.2 -0.1 -0.1 0.6 2 0.1 0.4 0.7 1 1.1 1.2 1.6 2.1 2.7 4.2 2.9 3 3.2 5.4 6.1 6.2 5.5 5.1 5.5 4.8 4.3 4.2 4.1 4.4 5.1 4.4 4.7 4.5 3.9 4.1 3.8 3.4 3.3 3.3 3.3 3.3 3.3 3.3 3 2.7 2.7 2.7 3.8 4.5 5.9 6.2 6.9 6 6.2 6.2 6.7 7.3 7.6 7.8 7.8 7.9 8.9 9.1 9.3 8.3 10.1 10.3 10.4 10.1 9.6 10.3 11.5 11.2 10.9 11.5 10.6 11.5 12.6 12.7 12.7 12.2 11.8 11.3 11.8 11.5 12.2 12.6 11.7 13.9 15.1 15.6 16 17.1 17.8 18.6 18.6 20.3 21.1 21.3 24.1 26.7 27.3 29.1 30.8 33.1 34.9 36.6
2.1 2 1.9 1.9 1.8 1.9 2 1.8 2 2 2.2 2.6 3.5 3.1 3.2 1.9 1.8 1.6 2.3 2.9 2.4 1.5 3.1 2.8 2.1 1.8 1.7 2 2.1 3.6 4.5 4.7 5.2 5.5 5.2 5.4 5.7 6 6.1 6.1 5.9 5.1 5.1 5.3 5 5.3 5.6 5.3 5.2 5.5 5.3 5 5.3 5.4 5.5 5.5 5.5 5.6 5.2 5.2 5.4 5.7 5.3 5.5 4.9 5.1 4.5 2.2 -2 -2 -2 -2 -2 -2 0.8 -2 -2 -2 -2 -2 -2 -2 -2 -2 -2 -2 -2 -2 -2 -2 -2 -2 -2 -2 -2 -2 -2 -2 -2 -2 -2 -2 -2 -2 -2 -0.5 0 0.4 0.2 0.2 0.4 0.5 0.7 1.3 1.8 2.3 3.2 4 4.6 4.6 4.7 5.1 5.3 4.9 5.6 5 4.8 5 4.8 4.6 3.4 3.3 4.1 3.8 3.4 3.5 3.4 2.7 2.7 2.7 2.7 2 3.3 5 5.9 4.8 5.6 6.6 7.4 6.8 6.4 6.7 7.1 8.5 7.9 8.3 8.4 8.1 9.1 8.9 9.8 8.8 9.8 10.2 10.9 10.4 10.6 9.5 11.1 10.8 11.2 11.9 11.6 11.5 11.7 10.8 11.9 11.5 11.9 10.4 12 12.4 13.8 15 15.5 16.9 17.1 19 18.3 19.3 20.2 20.7 22.3 24.4 25.2 27.3 28.3 31.4 32.2 35.7
2.2 2.1 2 1.9 1.9 1.7 1.4 1.5 1.9 1.8 1.7 2 3.1 2.8 2.8 1.5 1.9 2 3 2.1 2.1 2.9 2.1 2.1 1.8 1.7 1.9 2.5 4 5.5 5.2 5.3 5.6 5.7 5.3 6.1 5.6 6.2 6.4 6.4 5.5 5.2 5.3 5.7 5.8 6.1 5.9 5.7 5.8 6.1 5.8 5.5 5.5 5.5 5.7 5.7 5.7 5.8 5.9 5.1 5.4 5.9 5.6 5.4 5.8 5.8 5.7 5.3 -2 -2 -2 -2 -2 -2 -2 -2 -2 -2 -2 -2 -2 -2 -2 -2 -2 -2 -2 -2 -2 -2 -2 -2 -2 -2 -2 -2 -2 -2 -2 -2 -2 -2 -2 -2 -2 -2 -2 -2 -2 -2 -2 -2 -2 -2 -2 -0.4 -0.1 0.3 0.7 1.2 2 2.9 4 4.8 6.4 6.8 8 8.5 8.4 6.5 5.9 5.8 6.3 5.6 4.6 5.2 4.1 3.3 2.9 2.7 2.7 2 2.4 4 4.7 4.2 4.9 6.6 7 5.9 5.9 6.5 7 7 7.4 6.9 7.1 8 9.2 9.3 9 8.1 9.5 10 9.6 10 10.1 9.8 10.5 11.1 11.5 11.3 11.2 10.8 10.9 10.8 9.8 10.4 10.8 11.2 11.7 11.6 12.7 14.4 14.3 15.3 17.7 18.7 17.8 18 18.2 18.5 18.9 20.4 22.2 23.9 25.2 27.5 29.4 31.9
2 2.1 2.1 2 1.7 1.3 1.4 1.9 1.9 1.8 1.8 1.8 2.6 2.1 1.8 2.7 2.4 2.8 2.9 3.8 3.8 3.1 4.1 3.2 2.5 3.5 3.7 5.6 5.8 5.9 5.8 6 6.2 6 6 6.4 5.6 6.1 6.6 6.1 6 6.3 5.8 5.4 6.1 6.4 5.5 6.2 6.5 6.1 6.2 5.8 6.1 6 6.1 6 6 6 6.1 5.8 5.5 6 5.7 6 6.1 5.6 3.6 4.5 -2 -2 -2 -2 -2 -2 -2 -2 -2 -2 -2 -2 -2 -2 -2 -2 -2 -2 -2 -2 -2 -2 -2 -2 -2 -2 -2 -2 -2 -2 -2 -2 -2 -2 -2 -2 -2 -2 -2 -2 -2 -2 -2 -2 -2 -2 -2 -2 -2 -2 -2 -2 -2 -2 -2 -2 -2 0.4 1.2 2.2 3.1 4.6 3.7 1.6 1.9 2.4 2.8 4.4 4.4 5.6 3.7 3.9 5.5 6.6 6.6 6.7 4.4 4.4 4.3 5.2 4.6 4.8 5.9 6.2 6.5 7.1 7.2 6.8 6.7 7.5 7.5 7.1 8.1 7.5 8.5 9.6 8.5 10 9.8 9.6 10.4 10.3 10.3 10.9 10.9 10.4 9.5 10.3 9.7 10.7 10.5 11 11.8 11.5 11.7 12.7 14.1 13.9 15.9 16.7 16.3 17.1 16.9 15.8 17.4 17.5 19.3 21 21.7 23.8 26.4 27.9
2.2 2.1 2 2 1.7 1.9 2.4 2.2 2 1.9 3 2.4 2.1 2.3 2.5 2.1 2.8 3.8 3.6 4.3 4.2 4 4.4 4.6 4.8 5.8 5.9 6.2 5 5.8 6.2 5.4 4.9 4.9 4.3 3.7 5.8 5.5 5.7 4.9 4.4 3.3 4.8 5.3 4.9 5.6 4.5 4.8 4.4 5.7 5.5 6.1 6.2 6.5 6.7 6.5 6.5 6.5 6.5 6.5 6.4 6 6 5.4 5.9 6.5 5.7 6.9 4.9 -2 -2 -2 -2 -2 -2 -2 -2 -2 -2 -2 -2 -2 -2 -2 -2 -2 -2 -2 -2 -2 -2 -2 -2 -2 -2 -2 -2 -2 -2 -2 -2 -2 -2 -2 -2 -2 -2 -2 -2 -2 -2 -2 -2 -2 -2 -2 -2 -2 -2 -2 -2 -2 -2 -2 -2 -2 -2 -2 -2 -2 -2 -2 -2 -2 -2 -2 -2 -2 -2 -2 -2 -2 0.7 1.3 1.9 1.7 2.4 3.3 3.9 6.2 6.5 5.5 5.3 6.6 5.5 4.7 6 6.5 7 7.1 7 7.1 7.3 7.5 8.3 8.9 9.6 10.2 10.4 10.5 9.5 10.5 10 9.4 8.5 9.7 8.6 8.6 9.1 10 10.2 10.2 11.3 11.7 12.4 13.1 14.4 15.2 14.9 15.3 15 14.3 14.6 15.3 17 17.7 18.8 21.6 22.7 23.8
2.1 2 1.9 2.2 2.3 2.4 2.1 1.8 1.4 2.8 2.5 3 2.6 3.4 3.6 3.8 4 4.3 4.7 5.2 5.2 6.5 6.8 6 5.3 3.7 3.1 1.6 0.9 0.3 -2 -2 -2 -2 -2 -2 -2 -2 -2 -2 -2 -2 -2 -2 -2 -2 -2 -2 -2 -2 -2 -2 -2 -2 -2 -2 -2 -2 -2 -2 -2 -2 -2 -2 -2 -2 -2 -2 -2 -2 -2 -2 -2 -2 -2 -2 -2 -2 -2 -2 -2 -2 -2 -2 -2 -2 -2 -2 -2 -2 -2 -2 -2 -2 -2 -2 -2 -2 -2 -2 -2 -2 -2 -2 -2 -2 -2 -2 -2 -2 -2 -2 -2 -2 -2 -2 -2 -2 -2 -2 -2 -2 -2 -2 -2 -2 -2 -2 -2 -2 -2 -2 -2 -2 -2 -2 -2 -2 -2 -2 -2 -2 -2 -2 -2 -2 -2 -2 -2 -2 -2 1.6 2.6 2.3 3.5 3.7 5 5.7 5.8 6.7 6.7 6.9 6.9 6.8 7.5 8.2 8.9 8.1 8 7.7 8.3 8.5 9.5 9.2 8.6 9.1 9.4 9.1 9.7 9.6 9.2 9.6 10.5 9.6 11.5 11.5 13.1 13.8 13.6 13.6 13 12.5 12.1 13 14.1 15 15.1 18.1 19.7 21.1
1.9 1.8 1.9 1.8 1.7 1.6 1.7 3.6 1.8 1.8 4.4 3.5 2.8 4.5 4.4 4.3 4.9 6 6.6 5.2 3.6 2.1 1.6 0.3 -2 -2 -2 -2 -2 -2 -2 -2 -2 -2 -2 -2 -2 -2 -2 -2 -2 -2 -2 -2 -2 -2 -2 -2 -2 -2 -2 -2 -2 -2 -2 -2 -2 -2 -2 -2 -2 -2 -2 -2 -2 -2 -2 -2 -2 -2 -2 -2 -2 -2 -2 -2 -2 -2 -2 -2 -2 -2 -2 -2 -2 -2 -2 -2 -2 -2 -2 -2 -2 -2 -2 -2 -2 -2 -2 -2 -2 -2 -2 -2 -2 -2 -2 -2 -2 -2 -2 -2 -2 -2 -2 -2 -2 -2 -2 -2 -2 -2 -2 -2 -2 -2 -2 -2 -2 -2 -2 -2 -2 -2 -2 -2 -2 -2 -2 -2 -2 -2 -2 -2 -2 -2 -2 -2 -2 -2 -2 -2 -2 -2 -2 -2 -2 -2 -2 1.7 3 3.8 4.9 6.2 6.7 7.3 7.5 5.9 8.3 7.2 7 7.8 8.6 8.4 6.5 7 8.4 8.6 8.7 8.9 9 9.4 9.9 10 10 10.3 11.6 11.8 10.6 11.9 10.8 10 10.7 11 12.1 13.3 14.5 14.9 16.5 17
1.8 1.6 1.6 1.4 3.5 1.8 1.8 1.8 1.8 3.2 4.5 6.1 5.4 3.5 6.7 5.2 6.2 2.6 1.8 0.9 -2 -2 -2 -2 -2 -2 -2 -2 -2 -2 -2 -2 -2 -2 -2 -2 -2 -2 -2 -2 -2 -2 -2 -2 -2 -2 -2 -2 -2 -2 -2 -2 -2 -2 -2 -2 -2 -2 -2 -2 -2 -2 -2 -2 -2 -2 -2 -2 -2 -2 -2 -2 -2 -2 -2 -2 -2 -2 -2 -2 -2 -2 -2 -2 -2 -2 -2 -2 -2 -2 -2 -2 -2 -2 -2 -2 -2 -2 -2 -2 -2 -2 -2 -2 -2 -2 -2 -2 -2 -2 -2 -2 -2 -2 -2 -2 -2 -2 -2 -2 -2 -2 -2 -2 -2 -2 -2 -2 -2 -2 -2 -2 -2 -2 -2 -2 -2 -2 -2 -2 -2 -2 -2 -2 -2 -2 -2 -2 -2 -2 -2 -2 -2 -2 -2 -2 -2 -2 -2 -2 -2 -2 -2 -2 -2 1.4 2.8 2.4 2.9 3.4 4.4 6.7 6.6 7.1 7.3 6.6 7.5 7.5 7.2 7.7 8.4 8.6 9 8.9 8.9 9 9.2 9.9 9.9 11 9.5 9 9.4 9.8 10.7 12 12.8 12.9 11.7 12.5
1.6 3 1.8 1.8 1.8 1.8 1.8 3.2 5.2 5.8 5.4 2.6 3.4 2.1 1.7 1.5 -2 -2 -2 -2 -2 -2 -2 -2 -2 -2 -2 -2 -2 -2 -2 -2 -2 -2 -2 -2 -2 -2 -2 -2 -2 -2 -2 -2 -2 -2 -2 -2 -2 -2 -2 -2 -2 -2 -2 -2 -2 -2 -2 -2 -2 -2 -2 -2 -2 -2 -2 -2 -2 -2 -2 -2 -2 -2 -2 -2 -2 -2 -2 -2 -2 -2 -2 -2 -2 -2 -2 -2 -2 -2 -2 -2 -2 -2 -2 -2 -2 -2 -2 -2 -2 -2 -2 -2 -2 -2 -2 -2 -2 -2 -2 -2 -2 -2 -2 -2 -2 -2 -2 -2 -2 -2 -2 -2 -2 -2 -2 -2 -2 -2 -2 -2 -2 -2 -2 -2 -2 -2 -2 -2 -2 -2 -2 -2 -2 -2 -2 -2 -2 -2 -2 -2 -2 -2 -2 -2 -2 -2 -2 -2 -2 -2 -2 -2 -2 -2 -2 -2 -2 -2 -2 -2 -2 -2 -2 0.9 2.3 2.1 4.3 4.5 6 6.7 7.3 7.5 7.6 7.4 7.6 7.4 8 8.7 8.5 8.5 9.1 9.3 10 10.7 10.1 10.8 11.1 11.2
1.8 1.8 1.8 1.8 4.1 4.4 4.8 3.6 2.3 1.6 0.8 0.2 -0.1 -2 -2 -2 -2 -2 -2 -2 -2 -2 -2 -2 -2 -2 -2 -2 -2 -2 -2 -2 -2 -2 -2 -2 -2 -2 -2 -2 -2 -2 -2 -2 -2 -2 -2 -2 -2 -2 -2 -2 -2 -2 -2 -2 -2 -2 -2 -2 -2 -2 -2 -2 -2 -2 -2 -2 -2 -2 -2 -2 -2 -2 -2 -2 -2 -2 -2 -2 -2 -2 -2 -2 -2 -2 -2 -2 -2 -2 -2 -2 -2 -2 -2 -2 -2 -2 -2 -2 -2 -2 -2 -2 -2 -2 -2 -2 -2 -2 -2 -2 -2 -2 -2 -2 -2 -2 -2 -2 -2 -2 -2 -2 -2 -2 -2 -2 -2 -2 -2 -2 -2 -2 -2 -2 -2 -2 -2 -2 -2 -2 -2 -2 -2 -2 -2 -2 -2 -2 -2 -2 -2 -2 -2 -2 -2 -2 -2 -2 -2 -2 -2 -2 -2 -2 -2 -2 -2 -2 -2 -2 -2 -2 -2 -2 -2 -2 -2 -2 -2 -2 -2 -2 -2 3.7 5.3 6.3 6.4 6.6 6.8 7.2 7.4 7.6 8.4 9 9.6 10.1 10.5 9.2
1.8 2.5 4.2 5 3.3 2.5 1.5 0.9 0.4 -0.6 -2 -2 -2 -2 -2 -2 -2 -2 -2 -2 -2 -2 -2 -2 -2 -2 -2 -2 -2 -2 -2 -2 -2 -2 -2 -2 -2 -2 -2 -2 -2 -2 -2 -2 -2 -2 -2 -2 -2 -2 -2 -2 -2 -2 -2 -2 -2 -2 -2 -2 -2 -2 -2 -2 -2 -2 -2 -2 -2 -2 -2 -2 -2 -2 -2 -2 -2 -2 -2 -2 -2 -2 -2 -2 -2 -2 -2 -2 -2 -2 -2 -2 -2 -2 -2 -2 -2 -2 -2 -2 -2 -2 -2 -2 -2 -2 -2 -2 -2 -2 -2 -2 -2 -2 -2 -2 -2 -2 -2 -2 -2 -2 -2 -2 -2 -2 -2 -2 -2 -2 -2 -2 -2 -2 -2 -2 -2 -2 -2 -2 -2 -2 -2 -2 -2 -2 -2 -2 -2 -2 -2 -2 -2 -2 -2 -2 -2 -2 -2 -2 -2 -2 -2 -2 -2 -2 -2 -2 -2 -2 -2 -2 -2 -2 -2 -2 -2 -2 -2 -2 -2 -2 -2 -2 -2 -2 -2 -2 -2 -2 3.1 4.1 4.4 5.8 6.7 7.4 7.5 7.9 9 9.9
5.9 4 2.2 1.3 0.6 -0.4 -2 -2 -2 -2 -2 -2 -2 -2 -2 -2 -2 -2 -2 -2 -2 -2 -2 -2 -2 -2 -2 -2 -2 -2 -2 -2 -2 -2 -2 -2 -2 -2 -2 -2 -2 -2 -2 -2 -2 -2 -2 -2 -2 -2 -2 -2 -2 -2 -2 -2 -2 -2 -2 -2 -2 -2 -2 -2 -2 -2 -2 -2 -2 -2 -2 -2 -2 -2 -2 -2 -2 -2 -2 -2 -2 -2 -2 -2 -2 -2 -2 -2 -2 -2 -2 -2 -2 -2 -2 -2 -2 -2 -2 -2 -2 -2 -2 -2 -2 -2 -2 -2 -2 -2 -2 -2 -2 -2 -2 -2 -2 -2 -2 -2 -2 -2 -2 -2 -2 -2 -2 -2 -2 -2 -2 -2 -2 -2 -2 -2 -2 -2 -2 -2 -2 -2 -2 -2 -2 -2 -2 -2 -2 -2 -2 -2 -2 -2 -2 -2 -2 -2 -2 -2 -2 -2 -2 -2 -2 -2 -2 -2 -2 -2 -2 -2 -2 -2 -2 -2 -2 -2 -2 -2 -2 -2 -2 -2 -2 -2 -2 -2 -2 -2 -2 -2 -2 -2 -2 2.3 3.6 5 5.7 7.4
1.2 0.6 -2 -2 -2 -2 -2 -2 -2 -2 -2 -2 -2 -2 -2 -2 -2 -2 -2 -2 -2 -2 -2 -2 -2 -2 -2 -2 -2 -2 -2 -2 -2 -2 -2 -2 -2 -2 -2 -2 -2 -2 -2 -2 -2 -2 -2 -2 -2 -2 -2 -2 -2 -2 -2 -2 -2 -2 -2 -2 -2 -2 -2 -2 -2 -2 -2 -2 -2 -2 -2 -2 -2 -2 -2 -2 -2 -2 -2 -2 -2 -2 -2 -2 -2 -2 -2 -2 -2 -2 -2 -2 -2 -2 -2 -2 -2 -2 -2 -2 -2 -2 -2 -2 -2 -2 -2 -2 -2 -2 -2 -2 -2 -2 -2 -2 -2 -2 -2 -2 -2 -2 -2 -2 -2 -2 -2 -2 -2 -2 -2 -2 -2 -2 -2 -2 -2 -2 -2 -2 -2 -2 -2 -2 -2 -2 -2 -2 -2 -2 -2 -2 -2 -2 -2 -2 -2 -2 -2 -2 -2 -2 -2 -2 -2 -2 -2 -2 -2 -2 -2 -2 -2 -2 -2 -2 -2 -2 -2 -2 -2 -2 -2 -2 -2 -2 -2 -2 -2 -2 -2 -2 -2 -2 -2 -2 -2 -2 -2 -2
-2 -2 -2 -2 -2 -2 -2 -2 -2 -2 -2 -2 -2 -2 -2 -2 -2 -2 -2 -2 -2 -2 -2 -2 -2 -2 -2 -2 -2 -2 -2 -2 -2 -2 -2 -2 -2 -2 -2 -2 -2 -2 -2 -2 -2 -2 -2 -2 -2 -2 -2 -2 -2 -2 -2 -2 -2 -2 -2 -2 -2 -2 -2 -2 -2 -2 -2 -2 -2 -2 -2 -2 -2 -2 -2 -2 -2 -2 -2 -2 -2 -2 -2 -2 -2 -2 -2 -2 -2 -2 -2 -2 -2 -2 -2 -2 -2 -2 -2 -2 -2 -2 -2 -2 -2 -2 -2 -2 -2 -2 -2 -2 -2 -2 -2 -2 -2 -2 -2 -2 -2 -2 -2 -2 -2 -2 -2 -2 -2 -2 -2 -2 -2 -2 -2 -2 -2 -2 -2 -2 -2 -2 -2 -2 -2 -2 -2 -2 -2 -2 -2 -2 -2 -2 -2 -2 -2 -2 -2 -2 -2 -2 -2 -2 -2 -2 -2 -2 -2 -2 -2 -2 -2 -2 -2 -2 -2 -2 -2 -2 -2 -2 -2 -2 -2 -2 -2 -2 -2 -2 -2 -2 -2 -2 -2 -2 -2 -2 -2 -2
-2 -2 -2 -2 -2 -2 -2 -2 -2 -2 -2 -2 -2 -2 -2 -2 -2 -2 -2 -2 -2 -2 -2 -2 -2 -2 -2 -2 -2 -2 -2 -2 -2 -2 -2 -2 -2 -2 -2 -2 -2 -2 -2 -2 -2 -2 -2 -2 -2 -2 -2 -2 -2 -2 -2 -2 -2 -2 -2 -2 -2 -2 -2 -2 -2 -2 -2 -2 -2 -2 -2 -2 -2 -2 -2 -2 -2 -2 -2 -2 -2 -2 -2 -2 -2 -2 -2 -2 -2 -2 -2 -2 -2 -2 -2 -2 -2 -2 -2 -2 -2 -2 -2 -2 -2 -2 -2 -2 -2 -2 -2 -2 -2 -2 -2 -2 -2 -2 -2 -2 -2 -2 -2 -2 -2 -2 -2 -2 -2 -2 -2 -2 -2 -2 -2 -2 -2 -2 -2 -2 -2 -2 -2 -2 -2 -2 -2 -2 -2 -2 -2 -2 -2 -2 -2 -2 -2 -2 -2 -2 -2 -2 -2 -2 -2 -2 -2 -2 -2 -2 -2 -2 -2 -2 -2 -2 -2 -2 -2 -2 -2 -2 -2 -2 -2 -2 -2 -2 -2 -2 -2 -2 -2 -2 -2 -2 -2 -2 -2 -2
-2 -2 -2 -2 -2 -2 -2 -2 -2 -2 -2 -2 -2 -2 -2 -2 -2 -2 -2 -2 -2 -2 -2 -2 -2 -2 -2 -2 -2 -2 -2 -2 -2 -2 -2 -2 -2 -2 -2 -2 -2 -2 -2 -2 -2 -2 -2 -2 -2 -2 -2 -2 -2 -2 -2 -2 -2 -2 -2 -2 -2 -2 -2 -2 -2 -2 -2 -2 -2 -2 -2 -2 -2 -2 -2 -2 -2 -2 -2 -2 -2 -2 -2 -2 -2 -2 -2 -2 -2 -2 -2 -2 -2 -2 -2 -2 -2 -2 -2 -2 -2 -2 -2 -2 -2 -2 -2 -2 -2 -2 -2 -2 -2 -2 -2 -2 -2 -2 -2 -2 -2 -2 -2 -2 -2 -2 -2 -2 -2 -2 -2 -2 -2 -2 -2 -2 -2 -2 -2 -2 -2 -2 -2 -2 -2 -2 -2 -2 -2 -2 -2 -2 -2 -2 -2 -2 -2 -2 -2 -2 -2 -2 -2 -2 -2 -2 -2 -2 -2 -2 -2 -2 -2 -2 -2 -2 -2 -2 -2 -2 -2 -2 -2 -2 -2 -2 -2 -2 -2 -2 -2 -2 -2 -2 -2 -2 -2 -2 -2 -2
-2 -2 -2 -2 -2 -2 -2 -2 -2 -2 -2 -2 -2 -2 -2 -2 -2 -2 -2 -2 -2 -2 -2 -2 -2 -2 -2 -2 -2 -2 -2 -2 -2 -2 -2 -2 -2 -2 -2 -2 -2 -2 -2 -2 -2 -2 -2 -2 -2 -2 -2 -2 -2 -2 -2 -2 -2 -2 -2 -2 -2 -2 -2 -2 -2 -2 -2 -2 -2 -2 -2 -2 -2 -2 -2 -2 -2 -2 -2 -2 -2 -2 -2 -2 -2 -2 -2 -2 -2 -2 -2 -2 -2 -2 -2 -2 -2 -2 -2 -2 -2 -2 -2 -2 -2 -2 -2 -2 -2 -2 -2 -2 -2 -2 -2 -2 -2 -2 -2 -2 -2 -2 -2 -2 -2 -2 -2 -2 -2 -2 -2 -2 -2 -2 -2 -2 -2 -2 -2 -2 -2 -2 -2 -2 -2 -2 -2 -2 -2 -2 -2 -2 -2 -2 -2 -2 -2 -2 -2 -2 -2 -2 -2 -2 -2 -2 -2 -2 -2 -2 -2 -2 -2 -2 -2 -2 -2 -2 -2 -2 -2 -2 -2 -2 -2 -2 -2 -2 -2 -2 -2 -2 -2 -2 -2 -2 -2 -2 -2 -2
-2 -2 -2 -2 -2 -2 -2 -2 -2 -2 -2 -2 -2 -2 -2 -2 -2 -2 -2 -2 -2 -2 -2 -2 -2 -2 -2 -2 -2 -2 -2 -2 -2 -2 -2 -2 -2 -2 -2 -2 -2 -2 -2 -2 -2 -2 -2 -2 -2 -2 -2 -2 -2 -2 -2 -2 -2 -2 -2 -2 -2 -2 -2 -2 -2 -2 -2 -2 -2 -2 -2 -2 -2 -2 -2 -2 -2 -2 -2 -2 -2 -2 -2 -2 -2 -2 -2 -2 -2 -2 -2 -2 -2 -2 -2 -2 -2 -2 -2 -2 -2 -2 -2 -2 -2 -2 -2 -2 -2 -2 -2 -2 -2 -2 -2 -2 -2 -2 -2 -2 -2 -2 -2 -2 -2 -2 -2 -2 -2 -2 -2 -2 -2 -2 -2 -2 -2 -2 -2 -2 -2 -2 -2 -2 -2 -2 -2 -2 -2 -2 -2 -2 -2 -2 -2 -2 -2 -2 -2 -2 -2 -2 -2 -2 -2 -2 -2 -2 -2 -2 -2 -2 -2 -2 -2 -2 -2 -2 -2 -2 -2 -2 -2 -2 -2 -2 -2 -2 -2 -2 -2 -2 -2 -2 -2 -2 -2 -2 -2 -2
-2 -2 -2 -2 -2 -2 -2 -2 -2 -2 -2 -2 -2 -2 -2 -2 -2 -2 -2 -2 -2 -2 -2 -2 -2 -2 -2 -2 -2 -2 -2 -2 -2 -2 -2 -2 -2 -2 -2 -2 -2 -2 -2 -2 -2 -2 -2 -2 -2 -2 -2 -2 -2 -2 -2 -2 -2 -2 -2 -2 -2 -2 -2 -2 -2 -2 -2 -2 -2 -2 -2 -2 -2 -2 -2 -2 -2 -2 -2 -2 -2 -2 -2 -2 -2 -2 -2 -2 -2 -2 -2 -2 -2 -2 -2 -2 -2 -2 -2 -2 -2 -2 -2 -2 -2 -2 -2 -2 -2 -2 -2 -2 -2 -2 -2 -2 -2 -2 -2 -2 -2 -2 -2 -2 -2 -2 -2 -2 -2 -2 -2 -2 -2 -2 -2 -2 -2 -2 -2 -2 -2 -2 -2 -2 -2 -2 -2 -2 -2 -2 -2 -2 -2 -2 -2 -2 -2 -2 -2 -2 -2 -2 -2 -2 -2 -2 -2 -2 -2 -2 -2 -2 -2 -2 -2 -2 -2 -2 -2 -2 -2 -2 -2 -2 -2 -2 -2 -2 -2 -2 -2 -2 -2 -2 -2 -2 -2 -2 -2 -2
-2 -2 -2 -2 -2 -2 -2 -2 -2 -2 -2 -2 -2 -2 -2 -2 -2 -2 -2 -2 -2 -2 -2 -2 -2 -2 -2 -2 -2 -2 -2 -2 -2 -2 -2 -2 -2 -2 -2 -2 -2 -2 -2 -2 -2 -2 -2 -2 -2 -2 -2 -2 -2 -2 -2 -2 -2 -2 -2 -2 -2 -2 -2 -2 -2 -2 -2 -2 -2 -2 -2 -2 -2 -2 -2 -2 -2 -2 -2 -2 -2 -2 -2 -2 -2 -2 -2 -2 -2 -2 -2 -2 -2 -2 -2 -2 -2 -2 -2 -2 -2 -2 -2 -2 -2 -2 -2 -2 -2 -2 -2 -2 -2 -2 -2 -2 -2 -2 -2 -2 -2 -2 -2 -2 -2 -2 -2 -2 -2 -2 -2 -2 -2 -2 -2 -2 -2 -2 -2 -2 -2 -2 -2 -2 -2 -2 -2 -2 -2 -2 -2 -2 -2 -2 -2 -2 -2 -2 -2 -2 -2 -2 -2 -2 -2 -2 -2 -2 -2 -2 -2 -2 -2 -2 -2 -2 -2 -2 -2 -2 -2 -2 -2 -2 -2 -2 -2 -2 -2 -2 -2 -2 -2 -2 -2 -2 -2 -2 -2 -2
-2 -2 -2 -2 -2 -2 -2 -2 -2 -2 -2 -2 -2 -2 -2 -2 -2 -2 -2 -2 -2 -2 -2 -2 -2 -2 -2 -2 -2 -2 -2 -2 -2 -2 -2 -2 -2 -2 -2 -2 -2 -2 -2 -2 -2 -2 -2 -2 -2 -2 -2 -2 -2 -2 -2 -2 -2 -2 -2 -2 -2 -2 -2 -2 -2 -2 -2 -2 -2 -2 -2 -2 -2 -2 -2 -2 -2 -2 -2 -2 -2 -2 -2 -2 -2 -2 -2 -2 -2 -2 -2 -2 -2 -2 -2 -2 -2 -2 -2 -2 -2 -2 -2 -2 -2 -2 -2 -2 -2 -2 -2 -2 -2 -2 -2 -2 -2 -2 -2 -2 -2 -2 -2 -2 -2 -2 -2 -2 -2 -2 -2 -2 -2 -2 -2 -2 -2 -2 -2 -2 -2 -2 -2 -2 -2 -2 -2 -2 -2 -2 -2 -2 -2 -2 -2 -2 -2 -2 -2 -2 -2 -2 -2 -2 -2 -2 -2 -2 -2 -2 -2 -2 -2 -2 -2 -2 -2 -2 -2 -2 -2 -2 -2 -2 -2 -2 -2 -2 -2 -2 -2 -2 -2 -2 -2 -2 -2 -2 -2 -2
-2 -2 -2 -2 -2 -2 -2 -2 -2 -2 -2 -2 -2 -2 -2 -2 -2 -2 -2 -2 -2 -2 -2 -2 -2 -2 -2 -2 -2 -2 -2 -2 -2 -2 -2 -2 -2 -2 -2 -2 -2 -2 -2 -2 -2 -2 -2 -2 -2 -2 -2 -2 -2 -2 -2 -2 -2 -2 -2 -2 -2 -2 -2 -2 -2 -2 -2 -2 -2 -2 -2 -2 -2 -2 -2 -2 -2 -2 -2 -2 -2 -2 -2 -2 -2 -2 -2 -2 -2 -2 -2 -2 -2 -2 -2 -2 -2 -2 -2 -2 -2 -2 -2 -2 -2 -2 -2 -2 -2 -2 -2 -2 -2 -2 -2 -2 -2 -2 -2 -2 -2 -2 -2 -2 -2 -2 -2 -2 -2 -2 -2 -2 -2 -2 -2 -2 -2 -2 -2 -2 -2 -2 -2 -2 -2 -2 -2 -2 -2 -2 -2 -2 -2 -2 -2 -2 -2 -2 -2 -2 -2 -2 -2 -2 -2 -2 -2 -2 -2 -2 -2 -2 -2 -2 -2 -2 -2 -2 -2 -2 -2 -2 -2 -2 -2 -2 -2 -2 -2 -2 -2 -2 -2 -2 -2 -2 -2 -2 -2 -2
-2 -2 -2 -2 -2 -2 -2 -2 -2 -2 -2 -2 -2 -2 -2 -2 -2 -2 -2 -2 -2 -2 -2 -2 -2 -2 -2 -2 -2 -2 -2 -2 -2 -2 -2 -2 -2 -2 -2 -2 -2 -2 -2 -2 -2 -2 -2 -2 -2 -2 -2 -2 -2 -2 -2 -2 -2 -2 -2 -2 -2 -2 -2 -2 -2 -2 -2 -2 -2 -2 -2 -2 -2 -2 -2 -2 -2 -2 -2 -2 -2 -2 -2 -2 -2 -2 -2 -2 -2 -2 -2 -2 -2 -2 -2 -2 -2 -2 -2 -2 -2 -2 -2 -2 -2 -2 -2 -2 -2 -2 -2 -2 -2 -2 -2 -2 -2 -2 -2 -2 -2 -2 -2 -2 -2 -2 -2 -2 -2 -2 -2 -2 -2 -2 -2 -2 -2 -2 -2 -2 -2 -2 -2 -2 -2 -2 -2 -2 -2 -2 -2 -2 -2 -2 -2 -2 -2 -2 -2 -2 -2 -2 -2 -2 -2 -2 -2 -2 -2 -2 -2 -2 -2 -2 -2 -2 -2 -2 -2 -2 -2 -2 -2 -2 -2 -2 -2 -2 -2 -2 -2 -2 -2 -2 -2 -2 -2 -2 -2 -2
-2 -2 -2 -2 -2 -2 -2 -2 -2 -2 -2 -2 -2 -2 -2 -2 -2 -2 -2 -2 -2 -2 -2 -2 -2 -2 -2 -2 -2 -2 -2 -2 -2 -2 -2 -2 -2 -2 -2 -2 -2 -2 -2 -2 -2 -2 -2 -2 -2 -2 -2 -2 -2 -2 -2 -2 -2 -2 -2 -2 -2 -2 -2 -2 -2 -2 -2 -2 -2 -2 -2 -2 -2 -2 -2 -2 -2 -2 -2 -2 -2 -2 -2 -2 -2 -2 -2 -2 -2 -2 -2 -2 -2 -2 -2 -2 -2 -2 -2 -2 -2 -2 -2 -2 -2 -2 -2 -2 -2 -2 -2 -2 -2 -2 -2 -2 -2 -2 -2 -2 -2 -2 -2 -2 -2 -2 -2 -2 -2 -2 -2 -2 -2 -2 -2 -2 -2 -2 -2 -2 -2 -2 -2 -2 -2 -2 -2 -2 -2 -2 -2 -2 -2 -2 -2 -2 -2 -2 -2 -2 -2 -2 -2 -2 -2 -2 -2 -2 -2 -2 -2 -2 -2 -2 -2 -2 -2 -2 -2 -2 -2 -2 -2 -2 -2 -2 -2 -2 -2 -2 -2 -2 -2 -2 -2 -2 -2 -2 -2 -2
-2 -2 -2 -2 -2 -2 -2 -2 -2 -2 -2 -2 -2 -2 -2 -2 -2 -2 -2 -2 -2 -2 -2 -2 -2 -2 -2 -2 -2 -2 -2 -2 -2 -2 -2 -2 -2 -2 -2 -2 -2 -2 -2 -2 -2 -2 -2 -2 -2 -2 -2 -2 -2 -2 -2 -2 -2 -2 -2 -2 -2 -2 -2 -2 -2 -2 -2 -2 -2 -2 -2 -2 -2 -2 -2 -2 -2 -2 -2 -2 -2 -2 -2 -2 -2 -2 -2 -2 -2 -2 -2 -2 -2 -2 -2 -2 -2 -2 -2 -2 -2 -2 -2 -2 -2 -2 -2 -2 -2 -2 -2 -2 -2 -2 -2 -2 -2 -2 -2 -2 -2 -2 -2 -2 -2 -2 -2 -2 -2 -2 -2 -2 -2 -2 -2 -2 -2 -2 -2 -2 -2 -2 -2 -2 -2 -2 -2 -2 -2 -2 -2 -2 -2 -2 -2 -2 -2 -2 -2 -2 -2 -2 -2 -2 -2 -2 -2 -2 -2 -2 -2 -2 -2 -2 -2 -2 -2 -2 -2 -2 -2 -2 -2 -2 -2 -2 -2 -2 -2 -2 -2 -2 -2 -2 -2 -2 -2 -2 -2 -2
-2 -2 -2 -2 -2 -2 -2 -2 -2 -2 -2 -2 -2 -2 -2 -2 -2 -2 -2 -2 -2 -2 -2 -2 -2 -2 -2 -2 -2 -2 -2 -2 -2 -2 -2 -2 -2 -2 -2 -2 -2 -2 -2 -2 -2 -2 -2 -2 -2 -2 -2 -2 -2 -2 -2 -2 -2 -2 -2 -2 -2 -2 -2 -2 -2 -2 -2 -2 -2 -2 -2 -2 -2 -2 -2 -2 -2 -2 -2 -2 -2 -2 -2 -2 -2 -2 -2 -2 -2 -2 -2 -2 -2 -2 -2 -2 -2 -2 -2 -2 -2 -2 -2 -2 -2 -2 -2 -2 -2 -2 -2 -2 -2 -2 -2 -2 -2 -2 -2 -2 -2 -2 -2 -2 -2 -2 -2 -2 -2 -2 -2 -2 -2 -2 -2 -2 -2 -2 -2 -2 -2 -2 -2 -2 -2 -2 -2 -2 -2 -2 -2 -2 -2 -2 -2 -2 -2 -2 -2 -2 -2 -2 -2 -2 -2 -2 -2 -2 -2 -2 -2 -2 -2 -2 -2 -2 -2 -2 -2 -2 -2 -2 -2 -2 -2 -2 -2 -2 -2 -2 -2 -2 -2 -2 -2 -2 -2 -2 -2 -2
-2 -2 -2 -2 -2 -2 -2 -2 -2 -2 -2 -2 -2 -2 -2 -2 -2 -2 -2 -2 -2 -2 -2 -2 -2 -2 -2 -2 -2 -2 -2 -2 -2 -2 -2 -2 -2 -2 -2 -2 -2 -2 -2 -2 -2 -2 -2 -2 -2 -2 -2 -2 -2 -2 -2 -2 -2 -2 -2 -2 -2 -2 -2 -2 -2 -2 -2 -2 -2 -2 -2 -2 -2 -2 -2 -2 -2 -2 -2 -2 -2 -2 -2 -2 -2 -2 -2 -2 -2 -2 -2 -2 -2 -2 -2 -2 -2 -2 -2 -2 -2 -2 -2 -2 -2 -2 -2 -2 -2 -2 -2 -2 -2 -2 -2 -2 -2 -2 -2 -2 -2 -2 -2 -2 -2 -2 -2 -2 -2 -2 -2 -2 -2 -2 -2 -2 -2 -2 -2 -2 -2 -2 -2 -2 -2 -2 -2 -2 -2 -2 -2 -2 -2 -2 -2 -2 -2 -2 -2 -2 -2 -2 -2 -2 -2 -2 -2 -2 -2 -2 -2 -2 -2 -2 -2 -2 -2 -2 -2 -2 -2 -2 -2 -2 -2 -2 -2 -2 -2 -2 -2 -2 -2 -2 -2 -2 -2 -2 -2 -2
-2 -2 -2 -2 -2 -2 -2 -2 -2 -2 -2 -2 -2 -2 -2 -2 -2 -2 -2 -2 -2 -2 -2 -2 -2 -2 -2 -2 -2 -2 -2 -2 -2 -2 -2 -2 -2 -2 -2 -2 -2 -2 -2 -2 -2 -2 -2 -2 -2 -2 -2 -2 -2 -2 -2 -2 -2 -2 -2 -2 -2 -2 -2 -2 -2 -2 -2 -2 -2 -2 -2 -2 -2 -2 -2 -2 -2 -2 -2 -2 -2 -2 -2 -2 -2 -2 -2 -2 -2 -2 -2 -2 -2 -2 -2 -2 -2 -2 -2 -2 -2 -2 -2 -2 -2 -2 -2 -2 -2 -2 -2 -2 -2 -2 -2 -2 -2 -2 -2 -2 -2 -2 -2 -2 -2 -2 -2 -2 -2 -2 -2 -2 -2 -2 -2 -2 -2 -2 -2 -2 -2 -2 -2 -2 -2 -2 -2 -2 -2 -2 -2 -2 -2 -2 -2 -2 -2 -2 -2 -2 -2 -2 -2 -2 -2 -2 -2 -2 -2 -2 -2 -2 -2 -2 -2 -2 -2 -2 -2 -2 -2 -2 -2 -2 -2 -2 -2 -2 -2 -2 -2 -2 -2 -2 -2 -2 -2 -2 -2 -2
-2 -2 -2 -2 -2 -2 -2 -2 -2 -2 -2 -2 -2 -2 -2 -2 -2 -2 -2 -2 -2 -2 -2 -2 -2 -2 -2 -2 -2 -2 -2 -2 -2 -2 -2 -2 -2 -2 -2 -2 -2 -2 -2 -2 -2 -2 -2 -2 -2 -2 -2 -2 -2 -2 -2 -2 -2 -2 -2 -2 -2 -2 -2 -2 -2 -2 -2 -2 -2 -2 -2 -2 -2 -2 -2 -2 -2 -2 -2 -2 -2 -2 -2 -2 -2 -2 -2 -2 -2 -2 -2 -2 -2 -2 -2 -2 -2 -2 -2 -2 -2 -2 -2 -2 -2 -2 -2 -2 -2 -2 -2 -2 -2 -2 -2 -2 -2 -2 -2 -2 -2 -2 -2 -2 -2 -2 -2 -2 -2 -2 -2 -2 -2 -2 -2 -2 -2 -2 -2 -2 -2 -2 -2 -2 -2 -2 -2 -2 -2 -2 -2 -2 -2 -2 -2 -2 -2 -2 -2 -2 -2 -2 -2 -2 -2 -2 -2 -2 -2 -2 -2 -2 -2 -2 -2 -2 -2 -2 -2 -2 -2 -2 -2 -2 -2 -2 -2 -2 -2 -2 -2 -2 -2 -2 -2 -2 -2 -2 -2 -2
-2 -2 -2 -2 -2 -2 -2 -2 -2 -2 -2 -2 -2 -2 -2 -2 -2 -2 -2 -2 -2 -2 -2 -2 -2 -2 -2 -2 -2 -2 -2 -2 -2 -2 -2 -2 -2 -2 -2 -2 -2 -2 -2 -2 -2 -2 -2 -2 -2 -2 -2 -2 -2 -2 -2 -2 -2 -2 -2 -2 -2 -2 -2 -2 -2 -2 -2 -2 -2 -2 -2 -2 -2 -2 -2 -2 -2 -2 -2 -2 -2 -2 -2 -2 -2 -2 -2 -2 -2 -2 -2 -2 -2 -2 -2 -2 -2 -2 -2 -2 -2 -2 -2 -2 -2 -2 -2 -2 -2 -2 -2 -2 -2 -2 -2 -2 -2 -2 -2 -2 -2 -2 -2 -2 -2 -2 -2 -2 -2 -2 -2 -2 -2 -2 -2 -2 -2 -2 -2 -2 -2 -2 -2 -2 -2 -2 -2 -2 -2 -2 -2 -2 -2 -2 -2 -2 -2 -2 -2 -2 -2 -2 -2 -2 -2 -2 -2 -2 -2 -2 -2 -2 -2 -2 -2 -2 -2 -2 -2 -2 -2 -2 -2 -2 -2 -2 -2 -2 -2 -2 -2 -2 -2 -2 -2 -2 -2 -2 -2 -2
-2 -2 -2 -2 -2 -2 -2 -2 -2 -2 -2 -2 -2 -2 -2 -2 -2 -2 -2 -2 -2 -2 -2 -2 -2 -2 -2 -2 -2 -2 -2 -2 -2 -2 -2 -2 -2 -2 -2 -2 -2 -2 -2 -2 -2 -2 -2 -2 -2 -2 -2 -2 -2 -2 -2 -2 -2 -2 -2 -2 -2 -2 -2 -2 -2 -2 -2 -2 -2 -2 -2 -2 -2 -2 -2 -2 -2 -2 -2 -2 -2 -2 -2 -2 -2 -2 -2 -2 -2 -2 -2 -2 -2 -2 -2 -2 -2 -2 -2 -2 -2 -2 -2 -2 -2 -2 -2 -2 -2 -2 -2 -2 -2 -2 -2 -2 -2 -2 -2 -2 -2 -2 -2 -2 -2 -2 -2 -2 -2 -2 -2 -2 -2 -2 -2 -2 -2 -2 -2 -2 -2 -2 -2 -2 -2 -2 -2 -2 -2 -2 -2 -2 -2 -2 -2 -2 -2 -2 -2 -2 -2 -2 -2 -2 -2 -2 -2 -2 -2 -2 -2 -2 -2 -2 -2 -2 -2 -2 -2 -2 -2 -2 -2 -2 -2 -2 -2 -2 -2 -2 -2 -2 -2 -2 -2 -2 -2 -2 -2 -2
-2 -2 -2 -2 -2 -2 -2 -2 -2 -2 -2 -2 -2 -2 -2 -2 -2 -2 -2 -2 -2 -2 -2 -2 -2 -2 -2 -2 -2 -2 -2 -2 -2 -2 -2 -2 -2 -2 -2 -2 -2 -2 -2 -2 -2 -2 -2 -2 -2 -2 -2 -2 -2 -2 -2 -2 -2 -2 -2 -2 -2 -2 -2 -2 -2 -2 -2 -2 -2 -2 -2 -2 -2 -2 -2 -2 -2 -2 -2 -2 -2 -2 -2 -2 -2 -2 -2 -2 -2 -2 -2 -2 -2 -2 -2 -2 -2 -2 -2 -2 -2 -2 -2 -2 -2 -2 -2 -2 -2 -2 -2 -2 -2 -2 -2 -2 -2 -2 -2 -2 -2 -2 -2 -2 -2 -2 -2 -2 -2 -2 -2 -2 -2 -2 -2 -2 -2 -2 -2 -2 -2 -2 -2 -2 -2 -2 -2 -2 -2 -2 -2 -2 -2 -2 -2 -2 -2 -2 -2 -2 -2 -2 -2 -2 -2 -2 -2 -2 -2 -2 -2 -2 -2 -2 -2 -2 -2 -2 -2 -2 -2 -2 -2 -2 -2 -2 -2 -2 -2 -2 -2 -2 -2 -2 -2 -2 -2 -2 -2 -2
-2 -2 -2 -2 -2 -2 -2 -2 -2 -2 -2 -2 -2 -2 -2 -2 -2 -2 -2 -2 -2 -2 -2 -2 -2 -2 -2 -2 -2 -2 -2 -2 -2 -2 -2 -2 -2 -2 -2 -2 -2 -2 -2 -2 -2 -2 -2 -2 -2 -2 -2 -2 -2 -2 -2 -2 -2 -2 -2 -2 -2 -2 -2 -2 -2 -2 -2 -2 -2 -2 -2 -2 -2 -2 -2 -2 -2 -2 -2 -2 -2 -2 -2 -2 -2 -2 -2 -2 -2 -2 -2 -2 -2 -2 -2 -2 -2 -2 -2 -2 -2 -2 -2 -2 -2 -2 -2 -2 -2 -2 -2 -2 -2 -2 -2 -2 -2 -2 -2 -2 -2 -2 -2 -2 -2 -2 -2 -2 -2 -2 -2 -2 -2 -2 -2 -2 -2 -2 -2 -2 -2 -2 -2 -2 -2 -2 -2 -2 -2 -2 -2 -2 -2 -2 -2 -2 -2 -2 -2 -2 -2 -2 -2 -2 -2 -2 -2 -2 -2 -2 -2 -2 -2 -2 -2 -2 -2 -2 -2 -2 -2 -2 -2 -2 -2 -2 -2 -2 -2 -2 -2 -2 -2 -2 -2 -2 -2 -2 -2 -2
-2 -2 -2 -2 -2 -2 -2 -2 -2 -2 -2 -2 -2 -2 -2 -2 -2 -2 -2 -2 -2 -2 -2 -2 -2 -2 -2 -2 -2 -2 -2 -2 -2 -2 -2 -2 -2 -2 -2 -2 -2 -2 -2 -2 -2 -2 -2 -2 -2 -2 -2 -2 -2 -2 -2 -2 -2 -2 -2 -2 -2 -2 -2 -2 -2 -2 -2 -2 -2 -2 -2 -2 -2 -2 -2 -2 -2 -2 -2 -2 -2 -2 -2 -2 -2 -2 -2 -2 -2 -2 -2 -2 -2 -2 -2 -2 -2 -2 -2 -2 -2 -2 -2 -2 -2 -2 -2 -2 -2 -2 -2 -2 -2 -2 -2 -2 -2 -2 -2 -2 -2 -2 -2 -2 -2 -2 -2 -2 -2 -2 -2 -2 -2 -2 -2 -2 -2 -2 -2 -2 -2 -2 -2 -2 -2 -2 -2 -2 -2 -2 -2 -2 -2 -2 -2 -2 -2 -2 -2 -2 -2 -2 -2 -2 -2 -2 -2 -2 -2 -2 -2 -2 -2 -2 -2 -2 -2 -2 -2 -2 -2 -2 -2 -2 -2 -2 -2 -2 -2 -2 -2 -2 -2 -2 -2 -2 -2 -2 -2 -2
-2 -2 -2 -2 -2 -2 -2 -2 -2 -2 -2 -2 -2 -2 -2 -2 -2 -2 -2 -2 -2 -2 -2 -2 -2 -2 -2 -2 -2 -2 -2 -2 -2 -2 -2 -2 -2 -2 -2 -2 -2 -2 -2 -2 -2 -2 -2 -2 -2 -2 -2 -2 -2 -2 -2 -2 -2 -2 -2 -2 -2 -2 -2 -2 -2 -2 -2 -2 -2 -2 -2 -2 -2 -2 -2 -2 -2 -2 -2 -2 -2 -2 -2 -2 -2 -2 -2 -2 -2 -2 -2 -2 -2 -2 -2 -2 -2 -2 -2 -2 -2 -2 -2 -2 -2 -2 -2 -2 -2 -2 -2 -2 -2 -2 -2 -2 -2 -2 -2 -2 -2 -2 -2 -2 -2 -2 -2 -2 -2 -2 -2 -2 -2 -2 -2 -2 -2 -2 -2 -2 -2 -2 -2 -2 -2 -2 -2 -2 -2 -2 -2 -2 -2 -2 -2 -2 -2 -2 -2 -2 -2 -2 -2 -2 -2 -2 -2 -2 -2 -2 -2 -2 -2 -2 -2 -2 -2 -2 -2 -2 -2 -2 -2 -2 -2 -2 -2 -2 -2 -2 -2 -2 -2 -2 -2 -2 -2 -2 -2 -2
-2 -2 -2 -2 -2 -2 -2 -2 -2 -2 -2 -2 -2 -2 -2 -2 -2 -2 -2 -2 -2 -2 -2 -2 -2 -2 -2 -2 -2 -2 -2 -2 -2 -2 -2 -2 -2 -2 -2 -2 -2 -2 -2 -2 -2 -2 -2 -2 -2 -2 -2 -2 -2 -2 -2 -2 -2 -2 -2 -2 -2 -2 -2 -2 -2 -2 -2 -2 -2 -2 -2 -2 -2 -2 -2 -2 -2 -2 -2 -2 -2 -2 -2 -2 -2 -2 -2 -2 -2 -2 -2 -2 -2 -2 -2 -2 -2 -2 -2 -2 -2 -2 -2 -2 -2 -2 -2 -2 -2 -2 -2 -2 -2 -2 -2 -2 -2 -2 -2 -2 -2 -2 -2 -2 -2 -2 -2 -2 -2 -2 -2 -2 -2 -2 -2 -2 -2 -2 -2 -2 -2 -2 -2 -2 -2 -2 -2 -2 -2 -2 -2 -2 -2 -2 -2 -2 -2 -2 -2 -2 -2 -2 -2 -2 -2 -2 -2 -2 -2 -2 -2 -2 -2 -2 -2 -2 -2 -2 -2 -2 -2 -2 -2 -2 -2 -2 -2 -2 -2 -2 -2 -2 -2 -2 -2 -2 -2 -2 -2 -2
-2 -2 -2 -2 -2 -2 -2 -2 -2 -2 -2 -2 -2 -2 -2 -2 -2 -2 -2 -2 -2 -2 -2 -2 -2 -2 -2 -2 -2 -2 -2 -2 -2 -2 -2 -2 -2 -2 -2 -2 -2 -2 -2 -2 -2 -2 -2 -2 -2 -2 -2 -2 -2 -2 -2 -2 -2 -2 -2 -2 -2 -2 -2 -2 -2 -2 -2 -2 -2 -2 -2 -2 -2 -2 -2 -2 -2 -2 -2 -2 -2 -2 -2 -2 -2 -2 -2 -2 -2 -2 -2 -2 -2 -2 -2 -2 -2 -2 -2 -2 -2 -2 -2 -2 -2 -2 -2 -2 -2 -2 -2 -2 -2 -2 -2 -2 -2 -2 -2 -2 -2 -2 -2 -2 -2 -2 -2 -2 -2 -2 -2 -2 -2 -2 -2 -2 -2 -2 -2 -2 -2 -2 -2 -2 -2 -2 -2 -2 -2 -2 -2 -2 -2 -2 -2 -2 -2 -2 -2 -2 -2 -2 -2 -2 -2 -2 -2 -2 -2 -2 -2 -2 -2 -2 -2 -2 -2 -2 -2 -2 -2 -2 -2 -2 -2 -2 -2 -2 -2 -2 -2 -2 -2 -2 -2 -2 -2 -2 -2 -2
-2 -2 -2 -2 -2 -2 -2 -2 -2 -2 -2 -2 -2 -2 -2 -2 -2 -2 -2 -2 -2 -2 -2 -2 -2 -2 -2 -2 -2 -2 -2 -2 -2 -2 -2 -2 -2 -2 -2 -2 -2 -2 -2 -2 -2 -2 -2 -2 -2 -2 -2 -2 -2 -2 -2 -2 -2 -2 -2 -2 -2 -2 -2 -2 -2 -2 -2 -2 -2 -2 -2 -2 -2 -2 -2 -2 -2 -2 -2 -2 -2 -2 -2 -2 -2 -2 -2 -2 -2 -2 -2 -2 -2 -2 -2 -2 -2 -2 -2 -2 -2 -2 -2 -2 -2 -2 -2 -2 -2 -2 -2 -2 -2 -2 -2 -2 -2 -2 -2 -2 -2 -2 -2 -2 -2 -2 -2 -2 -2 -2 -2 -2 -2 -2 -2 -2 -2 -2 -2 -2 -2 -2 -2 -2 -2 -2 -2 -2 -2 -2 -2 -2 -2 -2 -2 -2 -2 -2 -2 -2 -2 -2 -2 -2 -2 -2 -2 -2 -2 -2 -2 -2 -2 -2 -2 -2 -2 -2 -2 -2 -2 -2 -2 -2 -2 -2 -2 -2 -2 -2 -2 -2 -2 -2 -2 -2 -2 -2 -2 -2
-2 -2 -2 -2 -2 -2 -2 -2 -2 -2 -2 -2 -2 -2 -2 -2 -2 -2 -2 -2 -2 -2 -2 -2 -2 -2 -2 -2 -2 -2 -2 -2 -2 -2 -2 -2 -2 -2 -2 -2 -2 -2 -2 -2 -2 -2 -2 -2 -2 -2 -2 -2 -2 -2 -2 -2 -2 -2 -2 -2 -2 -2 -2 -2 -2 -2 -2 -2 -2 -2 -2 -2 -2 -2 -2 -2 -2 -2 -2 -2 -2 -2 -2 -2 -2 -2 -2 -2 -2 -2 -2 -2 -2 -2 -2 -2 -2 -2 -2 -2 -2 -2 -2 -2 -2 -2 -2 -2 -2 -2 -2 -2 -2 -2 -2 -2 -2 -2 -2 -2 -2 -2 -2 -2 -2 -2 -2 -2 -2 -2 -2 -2 -2 -2 -2 -2 -2 -2 -2 -2 -2 -2 -2 -2 -2 -2 -2 -2 -2 -2 -2 -2 -2 -2 -2 -2 -2 -2 -2 -2 -2 -2 -2 -2 -2 -2 -2 -2 -2 -2 -2 -2 -2 -2 -2 -2 -2 -2 -2 -2 -2 -2 -2 -2 -2 -2 -2 -2 -2 -2 -2 -2 -2 -2 -2 -2 -2 -2 -2 -2
-2 -2 -2 -2 -2 -2 -2 -2 -2 -2 -2 -2 -2 -2 -2 -2 -2 -2 -2 -2 -2 -2 -2 -2 -2 -2 -2 -2 -2 -2 -2 -2 -2 -2 -2 -2 -2 -2 -2 -2 -2 -2 -2 -2 -2 -2 -2 -2 -2 -2 -2 -2 -2 -2 -2 -2 -2 -2 -2 -2 -2 -2 -2 -2 -2 -2 -2 -2 -2 -2 -2 -2 -2 -2 -2 -2 -2 -2 -2 -2 -2 -2 -2 -2 -2 -2 -2 -2 -2 -2 -2 -2 -2 -2 -2 -2 -2 -2 -2 -2 -2 -2 -2 -2 -2 -2 -2 -2 -2 -2 -2 -2 -2 -2 -2 -2 -2 -2 -2 -2 -2 -2 -2 -2 -2 -2 -2 -2 -2 -2 -2 -2 -2 -2 -2 -2 -2 -2 -2 -2 -2 -2 -2 -2 -2 -2 -2 -2 -2 -2 -2 -2 -2 -2 -2 -2 -2 -2 -2 -2 -2 -2 -2 -2 -2 -2 -2 -2 -2 -2 -2 -2 -2 -2 -2 -2 -2 -2 -2 -2 -2 -2 -2 -2 -2 -2 -2 -2 -2 -2 -2 -2 -2 -2 -2 -2 -2 -2 -2 -2
-2 -2 -2 -2 -2 -2 -2 -2 -2 -2 -2 -2 -2 -2 -2 -2 -2 -2 -2 -2 -2 -2 -2 -2 -2 -2 -2 -2 -2 -2 -2 -2 -2 -2 -2 -2 -2 -2 -2 -2 -2 -2 -2 -2 -2 -2 -2 -2 -2 -2 -2 -2 -2 -2 -2 -2 -2 -2 -2 -2 -2 -2 -2 -2 -2 -2 -2 -2 -2 -2 -2 -2 -2 -2 -2 -2 -2 -2 -2 -2 -2 -2 -2 -2 -2 -2 -2 -2 -2 -2 -2 -2 -2 -2 -2 -2 -2 -2 -2 -2 -2 -2 -2 -2 -2 -2 -2 -2 -2 -2 -2 -2 -2 -2 -2 -2 -2 -2 -2 -2 -2 -2 -2 -2 -2 -2 -2 -2 -2 -2 -2 -2 -2 -2 -2 -2 -2 -2 -2 -2 -2 -2 -2 -2 -2 -2 -2 -2 -2 -2 -2 -2 -2 -2 -2 -2 -2 -2 -2 -2 -2 -2 -2 -2 -2 -2 -2 -2 -2 -2 -2 -2 -2 -2 -2 -2 -2 -2 -2 -2 -2 -2 -2 -2 -2 -2 -2 -2 -2 -2 -2 -2 -2 -2 -2 -2 -2 -2 -2 -2
-2 -2 -2 -2 -2 -2 -2 -2 -2 -2 -2 -2 -2 -2 -2 -2 -2 -2 -2 -2 -2 -2 -2 -2 -2 -2 -2 -2 -2 -2 -2 -2 -2 -2 -2 -2 -2 -2 -2 -2 -2 -2 -2 -2 -2 -2 -2 -2 -2 -2 -2 -2 -2 -2 -2 -2 -2 -2 -2 -2 -2 -2 -2 -2 -2 -2 -2 -2 -2 -2 -2 -2 -2 -2 -2 -2 -2 -2 -2 -2 -2 -2 -2 -2 -2 -2 -2 -2 -2 -2 -2 -2 -2 -2 -2 -2 -2 -2 -2 -2 -2 -2 -2 -2 -2 -2 -2 -2 -2 -2 -2 -2 -2 -2 -2 -2 -2 -2 -2 -2 -2 -2 -2 -2 -2 -2 -2 -2 -2 -2 -2 -2 -2 -2 -2 -2 -2 -2 -2 -2 -2 -2 -2 -2 -2 -2 -2 -2 -2 -2 -2 -2 -2 -2 -2 -2 -2 -2 -2 -2 -2 -2 -2 -2 -2 -2 -2 -2 -2 -2 -2 -2 -2 -2 -2 -2 -2 -2 -2 -2 -2 -2 -2 -2 -2 -2 -2 -2 -2 -2 -2 -2 -2 -2 -2 -2 -2 -2 -2 -2
-2 -2 -2 -2 -2 -2 -2 -2 -2 -2 -2 -2 -2 -2 -2 -2 -2 -2 -2 -2 -2 -2 -2 -2 -2 -2 -2 -2 -2 -2 -2 -2 -2 -2 -2 -2 -2 -2 -2 -2 -2 -2 -2 -2 -2 -2 -2 -2 -2 -2 -2 -2 -2 -2 -2 -2 -2 -2 -2 -2 -2 -2 -2 -2 -2 -2 -2 -2 -2 -2 -2 -2 -2 -2 -2 -2 -2 -2 -2 -2 -2 -2 -2 -2 -2 -2 -2 -2 -2 -2 -2 -2 -2 -2 -2 -2 -2 -2 -2 -2 -2 -2 -2 -2 -2 -2 -2 -2 -2 -2 -2 -2 -2 -2 -2 -2 -2 -2 -2 -2 -2 -2 -2 -2 -2 -2 -2 -2 -2 -2 -2 -2 -2 -2 -2 -2 -2 -2 -2 -2 -2 -2 -2 -2 -2 -2 -2 -2 -2 -2 -2 -2 -2 -2 -2 -2 -2 -2 -2 -2 -2 -2 -2 -2 -2 -2 -2 -2 -2 -2 -2 -2 -2 -2 -2 -2 -2 -2 -2 -2 -2 -2 -2 -2 -2 -2 -2 -2 -2 -2 -2 -2 -2 -2 -2 -2 -2 -2 -2 -2
-2 -2 -2 -2 -2 -2 -2 -2 -2 -2 -2 -2 -2 -2 -2 -2 -2 -2 -2 -2 -2 -2 -2 -2 -2 -2 -2 -2 -2 -2 -2 -2 -2 -2 -2 -2 -2 -2 -2 -2 -2 -2 -2 -2 -2 -2 -2 -2 -2 -2 -2 -2 -2 -2 -2 -2 -2 -2 -2 -2 -2 -2 -2 -2 -2 -2 -2 -2 -2 -2 -2 -2 -2 -2 -2 -2 -2 -2 -2 -2 -2 -2 -2 -2 -2 -2 -2 -2 -2 -2 -2 -2 -2 -2 -2 -2 -2 -2 -2 -2 -2 -2 -2 -2 -2 -2 -2 -2 -2 -2 -2 -2 -2 -2 -2 -2 -2 -2 -2 -2 -2 -2 -2 -2 -2 -2 -2 -2 -2 -2 -2 -2 -2 -2 -2 -2 -2 -2 -2 -2 -2 -2 -2 -2 -2 -2 -2 -2 -2 -2 -2 -2 -2 -2 -2 -2 -2 -2 -2 -2 -2 -2 -2 -2 -2 -2 -2 -2 -2 -2 -2 -2 -2 -2 -2 -2 -2 -2 -2 -2 -2 -2 -2 -2 -2 -2 -2 -2 -2 -2 -2 -2 -2 -2 -2 -2 -2 -2 -2 -2
-2 -2 -2 -2 -2 -2 -2 -2 -2 -2 -2 -2 -2 -2 -2 -2 -2 -2 -2 -2 -2 -2 -2 -2 -2 -2 -2 -2 -2 -2 -2 -2 -2 -2 -2 -2 -2 -2 -2 -2 -2 -2 -2 -2 -2 -2 -2 -2 -2 -2 -2 -2 -2 -2 -2 -2 -2 -2 -2 -2 -2 -2 -2 -2 -2 -2 -2 -2 -2 -2 -2 -2 -2 -2 -2 -2 -2 -2 -2 -2 -2 -2 -2 -2 -2 -2 -2 -2 -2 -2 -2 -2 -2 -2 -2 -2 -2 -2 -2 -2 -2 -2 -2 -2 -2 -2 -2 -2 -2 -2 -2 -2 -2 -2 -2 -2 -2 -2 -2 -2 -2 -2 -2 -2 -2 -2 -2 -2 -2 -2 -2 -2 -2 -2 -2 -2 -2 -2 -2 -2 -2 -2 -2 -2 -2 -2 -2 -2 -2 -2 -2 -2 -2 -2 -2 -2 -2 -2 -2 -2 -2 -2 -2 -2 -2 -2 -2 -2 -2 -2 -2 -2 -2 -2 -2 -2 -2 -2 -2 -2 -2 -2 -2 -2 -2 -2 -2 -2 -2 -2 -2 -2 -2 -2 -2 -2 -2 -2 -2 -2
-2 -2 -2 -2 -2 -2 -2 -2 -2 -2 -2 -2 -2 -2 -2 -2 -2 -2 -2 -2 -2 -2 -2 -2 -2 -2 -2 -2 -2 -2 -2 -2 -2 -2 -2 -2 -2 -2 -2 -2 -2 -2 -2 -2 -2 -2 -2 -2 -2 -2 -2 -2 -2 -2 -2 -2 -2 -2 -2 -2 -2 -2 -2 -2 -2 -2 -2 -2 -2 -2 -2 -2 -2 -2 -2 -2 -2 -2 -2 -2 -2 -2 -2 -2 -2 -2 -2 -2 -2 -2 -2 -2 -2 -2 -2 -2 -2 -2 -2 -2 -2 -2 -2 -2 -2 -2 -2 -2 -2 -2 -2 -2 -2 -2 -2 -2 -2 -2 -2 -2 -2 -2 -2 -2 -2 -2 -2 -2 -2 -2 -2 -2 -2 -2 -2 -2 -2 -2 -2 -2 -2 -2 -2 -2 -2 -2 -2 -2 -2 -2 -2 -2 -2 -2 -2 -2 -2 -2 -2 -2 -2 -2 -2 -2 -2 -2 -2 -2 -2 -2 -2 -2 -2 -2 -2 -2 -2 -2 -2 -2 -2 -2 -2 -2 -2 -2 -2 -2 -2 -2 -2 -2 -2 -2 -2 -2 -2 -2 -2 -2
-2 -2 -2 -2 -2 -2 -2 -2 -2 -2 -2 -2 -2 -2 -2 -2 -2 -2 -2 -2 -2 -2 -2 -2 -2 -2 -2 -2 -2 -2 -2 -2 -2 -2 -2 -2 -2 -2 -2 -2 -2 -2 -2 -2 -2 -2 -2 -2 -2 -2 -2 -2 -2 -2 -2 -2 -2 -2 -2 -2 -2 -2 -2 -2 -2 -2 -2 -2 -2 -2 -2 -2 -2 -2 -2 -2 -2 -2 -2 -2 -2 -2 -2 -2 -2 -2 -2 -2 -2 -2 -2 -2 -2 -2 -2 -2 -2 -2 -2 -2 -2 -2 -2 -2 -2 -2 -2 -2 -2 -2 -2 -2 -2 -2 -2 -2 -2 -2 -2 -2 -2 -2 -2 -2 -2 -2 -2 -2 -2 -2 -2 -2 -2 -2 -2 -2 -2 -2 -2 -2 -2 -2 -2 -2 -2 -2 -2 -2 -2 -2 -2 -2 -2 -2 -2 -2 -2 -2 -2 -2 -2 -2 -2 -2 -2 -2 -2 -2 -2 -2 -2 -2 -2 -2 -2 -2 -2 -2 -2 -2 -2 -2 -2 -2 -2 -2 -2 -2 -2 -2 -2 -2 -2 -2 -2 -2 -2 -2 -2 -2
-2 -2 -2 -2 -2 -2 -2 -2 -2 -2 -2 -2 -2 -2 -2 -2 -2 -2 -2 -2 -2 -2 -2 -2 -2 -2 -2 -2 -2 -2 -2 -2 -2 -2 -2 -2 -2 -2 -2 -2 -2 -2 -2 -2 -2 -2 -2 -2 -2 -2 -2 -2 -2 -2 -2 -2 -2 -2 -2 -2 -2 -2 -2 -2 -2 -2 -2 -2 -2 -2 -2 -2 -2 -2 -2 -2 -2 -2 -2 -2 -2 -2 -2 -2 -2 -2 -2 -2 -2 -2 -2 -2 -2 -2 -2 -2 -2 -2 -2 -2 -2 -2 -2 -2 -2 -2 -2 -2 -2 -2 -2 -2 -2 -2 -2 -2 -2 -2 -2 -2 -2 -2 -2 -2 -2 -2 -2 -2 -2 -2 -2 -2 -2 -2 -2 -2 -2 -2 -2 -2 -2 -2 -2 -2 -2 -2 -2 -2 -2 -2 -2 -2 -2 -2 -2 -2 -2 -2 -2 -2 -2 -2 -2 -2 -2 -2 -2 -2 -2 -2 -2 -2 -2 -2 -2 -2 -2 -2 -2 -2 -2 -2 -2 -2 -2 -2 -2 -2 -2 -2 -2 -2 -2 -2 -2 -2 -2 -2 -2 -2
