ncols 200
nrows 85
xllcorner 140000
yllcorner 34900
cellsize 50
-1.7 -1.7 -1.7 -1.7 -1.7 -1.7 -1.7 -1.7 -1.7 -1.7 -1.7 -1.7 -1.7 -1.7 -1.7 -1.7 -1.7 -1.7 -1.7 -1.7 -1.7 -1.7 -1.7 -1.7 -1.7 -1.7 -1.7 -1.7 -1.7 -1.7 -1.7 -1.7 -1.7 -1.7 -1.7 -1.7 -1.7 -1.7 -1.7 -1.7 -1.7 -1.7 -1.7 -1.7 -1.7 -1.7 -1.7 -1.7 -1.7 -1.7 -1.7 -1.7 -1.7 -1.7 -1.7 -1.7 -1.7 -1.7 -1.7 -1.7 -1.7 -1.7 -1.7 -1.7 -1.7 -1.7 -1.7 -1.7 -1.7 -1.7 -1.7 -1.7 -1.7 -1.7 -1.7 -1.7 -1.7 -1.7 -1.7 -1.7 -1.7 -1.7 -1.7 -1.7 -1.7 -1.7 -1.7 -1.7 -1.7 -1.7 -1.7 -1.7 -1.7 -1.7 -1.7 -1.7 49.8 81.4 93.8 96.6 96.7 94.5 90.8 87.5 82.4 78.7 74.9 77 82.3 90.1 95.7 99.2 101.1 102.8 104.9 106 105.9 105.5 106.1 107.9 109.8 112 114.4 116.1 117.4 117.8 117.9 117.5 117.8 118 117.4 116.7 116.7 116.3 116.3 116.8 117.7 119.9 122.5 126 129.5 134.7 143.4 152.1 159.5 166.8 172.9 178.5 183.4 187.4 190.7 193.3 196.5 192.2 188.8 185.4 182.1 175.2 164 152.5 143.8 135.8 128.9 124.9 123.2 124.5 129.9 135.7 141.4 148.7 158.9 172.9 186.7 203 217.4 223 221.6 217.4 213.5 210.4 208.7 210.2 212.5 214.5 214 212.8 213.1 213.9 213.9 213.2 209.2 200.3 188.8 175.4 161.3 149.5 141.3 135 130.1 125.2
-1.7 -1.7 -1.7 -1.7 -1.7 -1.7 -1.7 -1.7 -1.7 -1.7 -1.7 -1.7 -1.7 -1.7 -1.7 -1.7 -1.7 -1.7 -1.7 -1.7 -1.7 -1.7 -1.7 -1.7 -1.7 -1.7 -1.7 -1.7 -1.7 -1.7 -1.7 -1.7 -1.7 -1.7 -1.7 -1.7 -1.7 -1.7 -1.7 -1.7 -1.7 -1.7 -1.7 -1.7 -1.7 -1.7 -1.7 -1.7 -1.7 -1.7 -1.7 -1.7 -1.7 -1.7 -1.7 -1.7 -1.7 -1.7 -1.7 -1.7 -1.7 -1.7 -1.7 -1.7 -1.7 -1.7 -1.7 -1.7 -1.7 -1.7 -1.7 -1.7 -1.7 -1.7 -1.7 -1.7 -1.7 -1.7 -1.7 -1.7 -1.7 -1.7 -1.7 -1.7 -1.7 -1.7 -1.7 -1.7 -1.7 -1.7 -1.7 -1.7 -1.7 -1.7 -1.7 -1.7 39.1 68 86.9 94.6 96.8 97.1 96 94.8 93 91.1 89.8 88.8 89.9 94.5 99.3 102.2 104.3 106.4 108.1 108.9 108.4 108.2 109 110 111.9 113.8 115.5 117.8 118.8 119.5 119.8 119.9 120.3 120.9 120.6 121 120.9 120.6 120.7 121.2 122.1 123.5 125.7 128.5 132.4 138.7 146.8 154.1 162.3 169.9 176.3 182.6 187.4 192.6 197.1 200.1 202.8 199.6 197.1 195.1 191.3 184.8 175.1 163.9 153.7 145.1 136.5 129.8 127.4 128.2 131.3 135.8 141.4 148.1 157.9 171.7 185.1 200 213.6 219 217.8 214.4 210.9 208.9 208.7 209.9 212.2 214.3 214.8 213.9 213.8 214.3 214 211.5 206.5 199.2 189.9 176.2 160.9 149 140.6 135.1 130.2 125.6
-1.7 -1.7 -1.7 -1.7 -1.7 -1.7 -1.7 -1.7 -1.7 -1.7 -1.7 -1.7 -1.7 -1.7 -1.7 -1.7 -1.7 -1.7 -1.7 -1.7 -1.7 -1.7 -1.7 -1.7 -1.7 -1.7 -1.7 -1.7 -1.7 -1.7 -1.7 -1.7 -1.7 -1.7 -1.7 -1.7 -1.7 -1.7 -1.7 -1.7 -1.7 -1.7 -1.7 -1.7 -1.7 -1.7 -1.7 -1.7 -1.7 -1.7 -1.7 -1.7 -1.7 -1.7 -1.7 -1.7 -1.7 -1.7 -1.7 -1.7 -1.7 -1.7 -1.7 -1.7 -1.7 -1.7 -1.7 -1.7 -1.7 -1.7 -1.7 -1.7 -1.7 -1.7 -1.7 -1.7 -1.7 -1.7 -1.7 -1.7 -1.7 -1.7 -1.7 -1.7 -1.7 -1.7 -1.7 -1.7 -1.7 -1.7 -1.7 -1.7 -1.7 -1.7 -1.7 -1.7 28.4 55.2 76.3 92.5 96.2 97.2 97.9 98.1 97.5 97.7 97.9 97.3 96.9 98.7 101.9 104.7 107.3 109 110.1 110.5 111.2 111.3 112 113 114 115.7 117.4 119.6 120.6 121.3 121.7 122.4 123 123.6 124.1 124.6 125 125 125.2 125.8 126.8 127.2 129.3 131.9 136.2 143.5 149.6 156.8 164.9 172.6 177.9 186.2 191.7 196.5 200.8 203.7 205.1 204.4 203.5 202.4 199.7 194.9 187.8 179 169.1 158.6 147.4 138.2 133.3 132.4 133.9 137.4 140.8 146.8 156.3 168.5 181 192.5 203.4 209.4 210.5 209.1 207.1 206.1 206.5 208.2 210 212.2 213.3 212.6 212 211.5 211.1 207.7 202.2 195.9 187.1 174 159.5 148 139.9 134.7 130 125.6
-1.7 -1.7 -1.7 -1.7 -1.7 -1.7 -1.7 -1.7 -1.7 -1.7 -1.7 -1.7 -1.7 -1.7 -1.7 -1.7 -1.7 -1.7 -1.7 -1.7 -1.7 -1.7 -1.7 -1.7 -1.7 -1.7 -1.7 -1.7 -1.7 -1.7 -1.7 -1.7 -1.7 -1.7 -1.7 -1.7 -1.7 -1.7 -1.7 -1.7 -1.7 -1.7 -1.7 -1.7 -1.7 -1.7 -1.7 -1.7 -1.7 -1.7 -1.7 -1.7 -1.7 -1.7 -1.7 -1.7 -1.7 -1.7 -1.7 -1.7 -1.7 -1.7 -1.7 -1.7 -1.7 -1.7 -1.7 -1.7 -1.7 -1.7 -1.7 -1.7 -1.7 -1.7 -1.7 -1.7 -1.7 -1.7 -1.7 -1.7 -1.7 -1.7 -1.7 -1.7 -1.7 -1.7 -1.7 -1.7 -1.7 -1.7 -1.7 -1.7 -1.7 -1.7 -1.7 -1.7 3.3 46.5 70.4 86.1 91.7 95.2 97.6 99.2 100.3 101.6 102.3 101.8 101.7 102.5 104.4 107.2 109.4 110.9 112.3 113.2 114 114.4 115.1 116.1 117.2 118 120.1 121.4 122.4 123.4 124.3 126.2 126 126.5 128.2 129.4 130.7 132.2 133.2 133.6 133.9 133.7 134.9 137.7 142 145.6 150.7 158.8 167 174.9 182.8 190.3 195.5 200 203.9 207.2 208.4 209 208.9 209 208.3 207 202.8 196.5 186.2 173.9 160.2 147.7 139 136.2 136.8 138.1 140 144.9 154 165.9 177.7 188.2 196.1 201.7 204.5 203.6 202.4 202.4 203.2 205.1 207.4 209.1 210.1 209.3 207.6 206.3 205.1 201.5 196.1 189.7 180.5 168.9 156.9 146.6 139.2 134.2 129.6 125.8
-1.7 -1.7 -1.7 -1.7 -1.7 -1.7 -1.7 -1.7 -1.7 -1.7 -1.7 -1.7 -1.7 -1.7 -1.7 -1.7 -1.7 -1.7 -1.7 -1.7 -1.7 -1.7 -1.7 -1.7 -1.7 -1.7 -1.7 -1.7 -1.7 -1.7 -1.7 -1.7 -1.7 -1.7 -1.7 -1.7 -1.7 -1.7 -1.7 -1.7 -1.7 -1.7 -1.7 -1.7 -1.7 -1.7 -1.7 -1.7 -1.7 -1.7 -1.7 -1.7 -1.7 -1.7 -1.7 -1.7 -1.7 -1.7 -1.7 -1.7 -1.7 -1.7 -1.7 -1.7 -1.7 -1.7 -1.7 -1.7 -1.7 -1.7 -1.7 -1.7 -1.7 -1.7 -1.7 -1.7 -1.7 -1.7 -1.7 -1.7 -1.7 -1.7 -1.7 -1.7 -1.7 34 34.4 2 -1.7 -1.7 -1.7 -1.7 23.9 -1.7 -1.7 1.3 21 36.2 62 78.6 87.1 92.6 96.2 99.8 102.5 104.4 105.5 105.9 105.7 105.6 107 109.4 111.4 112.9 114.6 115.9 116.6 117.4 118.4 119.6 120.8 121.9 123.2 124.3 125.3 126.9 127.2 128 128.9 132.6 135.6 139 141.3 143.6 144 145.2 145 145.1 144.7 145.4 147 150.2 154.2 161.4 170.1 178 185.7 192.8 198.3 202.7 206.5 210.2 212.1 213.7 215.5 217.5 218 218.1 217.4 212.4 202.3 189.7 173.8 159.2 147.5 141.5 139.9 139.4 139.6 143.1 151.5 162.4 173.6 183.5 190.4 196.2 198.7 198.4 197.9 198.7 199.9 202.1 203.9 205.3 205.5 204.1 202.2 200.4 197.5 193.5 187.8 180.9 172 163.2 153.6 144.8 138.2 133.4 129.1 125.4
-1.7 -1.7 -1.7 -1.7 -1.7 -1.7 -1.7 -1.7 -1.7 -1.7 -1.7 -1.7 -1.7 -1.7 -1.7 -1.7 -1.7 -1.7 -1.7 -1.7 -1.7 -1.7 -1.7 -1.7 -1.7 -1.7 -1.7 -1.7 -1.7 -1.7 -1.7 -1.7 -1.7 -1.7 -1.7 -1.7 -1.7 -1.7 -1.7 -1.7 -1.7 -1.7 -1.7 -1.7 -1.7 -1.7 -1.7 -1.7 -1.7 -1.7 -1.7 -1.7 -1.7 -1.7 -1.7 -1.7 -1.7 -1.7 -1.7 -1.7 -1.7 -1.7 -1.7 -1.7 -1.7 -1.7 -1.7 -1.7 -1.7 -1.7 -1.7 -1.7 -1.7 -1.7 -1.7 -1.7 -1.7 -1.7 -1.7 -1.7 -1.7 -1.7 -1.7 -1.7 37.5 55.7 54.8 39.7 -1.7 -1.7 -1.7 14.3 47.6 54.2 40.6 38.8 47 52.1 53.2 69.7 81.7 89.6 95.1 99.9 103.9 106.4 108.1 108.7 108.6 108.3 109.2 111.3 113.4 115 116.8 118.5 119.4 120.3 121.5 122.9 124.2 125.5 126.4 127.3 128.5 129.6 130.2 131.1 134 139 143.4 148.1 153.2 156.8 160.5 160.5 159.9 159.3 157.7 154.6 154.2 155.1 158.2 165.4 173 180.3 187.3 194.1 201 205.1 209.1 213.2 216.3 218 221.3 224.5 227 229.2 228.4 224 216.5 203.6 188.1 171.8 156.3 149.4 144.2 142.1 140.8 142 148.7 157.8 168.8 178.2 184.8 190.3 192.8 193.4 193.7 195 196.7 198.6 200.4 201.2 200.7 199.3 196.9 193.9 190.3 185.5 179.4 172.7 165.3 158 150 143 137.2 132.9 128.6 125.3
-1.7 -1.7 -1.7 -1.7 -1.7 -1.7 -1.7 -1.7 -1.7 -1.7 -1.7 -1.7 -1.7 -1.7 -1.7 -1.7 -1.7 -1.7 -1.7 -1.7 -1.7 -1.7 -1.7 -1.7 -1.7 -1.7 -1.7 -1.7 -1.7 -1.7 -1.7 -1.7 -1.7 -1.7 -1.7 -1.7 -1.7 -1.7 -1.7 -1.7 -1.7 -1.7 -1.7 -1.7 -1.7 -1.7 -1.7 -1.7 -1.7 -1.7 -1.7 -1.7 -1.7 -1.7 -1.7 -1.7 -1.7 -1.7 -1.7 -1.7 -1.7 -1.7 -1.7 -1.7 -1.7 -1.7 -1.7 -1.7 -1.7 -1.7 -1.7 -1.7 -1.7 -1.7 -1.7 -1.7 -1.7 -1.7 -1.7 -1.7 -1.7 -1.7 -1.7 -1.7 47.3 65.9 69.8 55.6 31.6 4.9 12 19.7 48.6 69.9 68.5 69.7 66.2 64.1 65.7 69 75.2 86.3 94.3 99.9 104.5 107.8 109.6 110.9 110.7 110.4 111.3 112.9 115.1 117.2 119 121 122.3 123.2 124.3 125.8 127.6 129.1 130.4 131.1 132.4 133.3 133.7 136.4 140 145.1 148.7 154.7 161.5 170.2 174.5 177.6 178 174.7 171.2 166.6 162.8 161.3 162.7 168.6 176.4 183.1 189.5 196.3 203.2 208.5 212.6 216.4 220.1 223 226.2 231.5 235.9 236.8 235.2 233 226.2 215.2 201.1 183.3 165.1 154.7 149.3 145.2 142.8 142 145.9 153.6 163.3 172.8 180 184.1 187 188.5 189.4 191.1 193.2 195.1 196.6 197.1 196.4 194.3 190.9 187.5 183.2 178.1 172.5 166.6 160.3 154 147.5 141.4 136.5 132.1 128.2 125
-1.7 -1.7 -1.7 -1.7 -1.7 -1.7 -1.7 -1.7 -1.7 -1.7 -1.7 -1.7 -1.7 -1.7 -1.7 -1.7 -1.7 -1.7 -1.7 -1.7 -1.7 -1.7 -1.7 -1.7 -1.7 -1.7 -1.7 -1.7 -1.7 -1.7 -1.7 -1.7 -1.7 -1.7 -1.7 -1.7 -1.7 -1.7 -1.7 -1.7 -1.7 -1.7 -1.7 -1.7 -1.7 -1.7 -1.7 -1.7 -1.7 -1.7 -1.7 -1.7 -1.7 -1.7 -1.7 -1.7 -1.7 -1.7 -1.7 -1.7 -1.7 -1.7 -1.7 20.1 -1.7 -1.7 -1.7 -1.7 -1.7 -1.7 -1.7 -1.7 -1.7 -1.7 -1.7 -1.7 -1.7 -1.7 -1.7 -1.7 -1.7 -1.7 -1.7 -1.7 49.5 63.8 75.2 75.3 63.7 44.6 39.2 31.3 43.1 65.4 81.6 82.5 80.2 76.4 74.8 75.7 77.7 83.8 93 99.4 104.1 107.6 110 112 111.8 111.8 113 114.4 116.8 119.1 121.1 123.3 125.7 126.6 128.3 131.9 134.5 136.4 137.2 138.1 139.3 140.2 141.5 144.2 146.5 149.9 154.4 159.3 168.6 180.5 184.1 187.7 189.1 187.8 184 179.9 175.5 173.2 171.8 176.5 182.4 187 192.6 199.1 205.8 211.5 216.4 220.6 224.6 228.5 232.4 237.7 242.7 244 241.4 239.4 234.1 224.6 211.1 191.5 173.4 160.9 152.9 147.6 143.7 142 143.7 149.8 157.8 166.9 174.2 178.4 181.3 183.9 185.3 187.5 189.6 191.8 193.1 193.4 192 189.2 185.3 181.2 176.7 171.3 166 160.7 155.4 150.3 144.7 140.3 135.5 131.5 127.7 124.7
-1.7 -1.7 -1.7 -1.7 -1.7 -1.7 -1.7 -1.7 -1.7 -1.7 -1.7 -1.7 -1.7 -1.7 -1.7 -1.7 -1.7 -1.7 -1.7 -1.7 -1.7 -1.7 -1.7 -1.7 -1.7 -1.7 -1.7 -1.7 -1.7 -1.7 -1.7 -1.7 -1.7 -1.7 -1.7 -1.7 -1.7 -1.7 -1.7 -1.7 -1.7 -1.7 -1.7 -1.7 -1.7 -1.7 -1.7 -1.7 -1.7 -1.7 -1.7 -1.7 -1.7 -1.7 -1.7 -1.7 -1.7 -1.7 -1.7 -1.7 -1.7 -1.7 -1.7 46.4 28.8 -1.7 -1.7 -1.7 -1.7 -1.7 -1.7 -1.7 -1.7 -1.7 -1.7 -1.7 -1.7 -1.7 -1.7 -1.7 -1.7 -1.7 -1.7 -1.7 29.1 56 76.9 84.9 80.8 59.6 56.8 54 66 81.1 91.6 90.3 89.1 88.2 88.4 82.8 79.9 81.8 89.4 97.5 103.1 106.6 109.3 111.1 111.7 112.5 113.7 115.5 118.1 120.7 123.4 126.4 129.5 132.4 138.4 143.9 148.8 148.9 148.9 150.1 150.6 150 151 152.2 153.2 155.5 158.7 163.5 170.7 178.8 184.3 189.2 193.3 197.4 195.2 191 187.3 184.8 185.4 186 187 191.1 196.6 202.2 208 214.5 220.9 225.8 229.8 233.3 237.6 242.2 245.2 245.7 243.9 241.2 236.6 229 216.8 199.5 181 166.5 157.5 150.4 145.3 142.7 143 147 153.5 161.1 167.6 173 176.3 179.2 181.6 183.8 186.1 188.4 189.6 189.8 188.6 185.2 180.4 175.6 170.8 165.6 160.4 155.1 149.7 145.8 142.1 138.4 134.7 130.9 127.2 124.7
-1.7 -1.7 -1.7 -1.7 -1.7 -1.7 -1.7 -1.7 -1.7 -1.7 -1.7 -1.7 -1.7 -1.7 -1.7 -1.7 -1.7 -1.7 -1.7 -1.7 -1.7 -1.7 -1.7 -1.7 -1.7 -1.7 -1.7 -1.7 -1.7 -1.7 -1.7 -1.7 -1.7 -1.7 -1.7 -1.7 -1.7 -1.7 -1.7 -1.7 -1.7 -1.7 -1.7 -1.7 -1.7 -1.7 -1.7 -1.7 -1.7 -1.7 -1.7 -1.7 -1.7 -1.7 -1.7 -1.7 -1.7 -1.7 -1.7 -1.7 -1.7 -1.7 -1.7 24.8 34.3 8.2 -1.7 -1.7 -1.7 -1.7 -1.7 -1.7 -1.7 -1.7 -1.7 -1.7 -1.7 -1.7 -1.7 -1.7 -1.7 -1.7 -1.7 -1.7 27.9 53.3 76.5 84.5 86.4 81.1 76.3 76.9 89.8 94.3 96.8 97.4 97.2 99.3 99 94.5 85.5 84.2 85.5 92.7 99.6 104.5 107.4 109.5 111.3 112.2 114.4 116.5 119.3 121.9 125.5 129 132.3 139.3 149.3 160.1 165.2 166.1 166.8 167.3 165.9 164.2 162.6 161.4 160.7 161 163.3 167.3 172.4 178.7 183.7 189.2 195.1 199.7 200.2 199.2 198.4 196.8 195.5 195.1 193.8 196 200.8 205.9 211.2 217.7 223.6 229.5 233.1 236.7 239.9 243.2 244.5 244.5 243.3 241 237.2 231.2 220.9 206.3 187.5 172.1 161.6 153.8 147.7 144.1 143.1 145 149.9 156.5 162.1 167.5 171.4 174.9 177.8 180.7 183 185.3 187 186.9 185.3 181.6 176.5 170.4 165 159.8 154.7 149.7 145.4 142.7 139.5 136.2 132.6 129.6 126.8 125
-1.7 -1.7 -1.7 -1.7 -1.7 -1.7 -1.7 -1.7 -1.7 -1.7 -1.7 -1.7 -1.7 -1.7 -1.7 -1.7 -1.7 -1.7 -1.7 -1.7 -1.7 -1.7 -1.7 -1.7 -1.7 -1.7 -1.7 -1.7 -1.7 -1.7 -1.7 -1.7 -1.7 -1.7 -1.7 -1.7 -1.7 -1.7 -1.7 -1.7 -1.7 -1.7 -1.7 -1.7 -1.7 -1.7 -1.7 -1.7 -1.7 -1.7 -1.7 -1.7 -1.7 -1.7 -1.7 -1.7 -1.7 -1.7 -1.7 -1.7 -1.7 -1.7 -1.7 -1.7 30.6 1.7 -1.7 -1.7 -1.7 -1.7 -1.7 -1.7 -1.7 -1.7 -1.7 -1.7 -1.7 -1.7 -1.7 -1.7 -1.7 -1.7 -1.7 -1.7 24.9 55.7 75.5 84 88 89.5 90.1 91.6 94.5 98.9 102 103.2 105.4 107.5 104.9 101.2 94.5 88.9 87.8 88.3 94.2 100.4 104.9 107.9 110.1 112.5 114.6 116.9 119.7 122.7 126.8 131 136.4 144.7 156.3 169.3 179.9 185.8 186.3 185.5 183.1 180.5 176.2 171.7 168.6 167.2 168 171 174.7 179 184.2 190.4 196.1 201.6 205.5 208.7 209.8 209.7 207.8 205.8 203.7 204.3 206.5 209.8 215 220.6 227.1 232 236.3 238.1 240.1 241.8 242.6 242.5 241.7 239.8 237 232.2 223.6 210.8 193.8 176.9 166.5 158.6 149.2 145.3 144.7 144.7 147.7 152.9 157.9 162.6 166.5 170.9 174.5 178.3 181 183.4 185.1 185.1 182.6 178.8 173.3 166.3 160.2 155.1 150.2 145.9 142.8 140.8 138.1 134.8 131.9 129.2 127.2 125.4
-1.7 -1.7 -1.7 -1.7 -1.7 -1.7 -1.7 -1.7 -1.7 -1.7 -1.7 -1.7 -1.7 -1.7 -1.7 -1.7 -1.7 -1.7 -1.7 -1.7 -1.7 -1.7 -1.7 -1.7 -1.7 -1.7 -1.7 -1.7 -1.7 -1.7 -1.7 -1.7 -1.7 -1.7 -1.7 -1.7 -1.7 -1.7 -1.7 -1.7 -1.7 -1.7 -1.7 -1.7 -1.7 -1.7 -1.7 -1.7 -1.7 -1.7 -1.7 -1.7 -1.7 -1.7 -1.7 -1.7 -1.7 -1.7 -1.7 -1.7 -1.7 -1.7 -1.7 -1.7 28.2 8.6 -1.7 -1.7 -1.7 -1.7 -1.7 -1.7 -1.7 -1.7 -1.7 -1.7 -1.7 -1.7 -1.7 -1.7 -1.7 -1.7 -1.7 -1.7 -1.7 51.8 72.5 83.2 88.7 91.8 93.8 96 99.9 104.1 107.1 108.5 110.7 111 109.6 106.4 102.9 99.5 93.5 89.7 91 95.5 101.4 105.2 107.7 111.1 113.8 116.4 119.4 122.8 126.9 131.7 137.8 146.1 157.2 170.8 187 198.8 201.8 201.9 200.9 196.8 190.2 184 178.1 174.7 171.5 173.8 176.9 181 187.1 193.3 199.9 205.4 211.8 218.3 221.6 220.8 218.3 214.7 211.8 211.2 212.1 213.8 217.9 222.7 227.7 232.3 236.5 237.6 238.4 239.1 239.5 240 239.6 238.8 236.9 233.4 226.1 214.6 199.1 181.6 171.1 163.1 155.3 149.6 148.8 147.1 147.5 151.1 155.4 159.3 163.2 167.5 172 176.3 178.9 181.4 183.2 183.4 180.7 176.6 170.3 163.3 156.7 151.6 146.9 143.2 140.4 137.9 136.2 133.9 131.8 129.7 128 126
-1.7 -1.7 -1.7 -1.7 -1.7 -1.7 -1.7 -1.7 -1.7 -1.7 -1.7 -1.7 -1.7 -1.7 -1.7 -1.7 -1.7 -1.7 -1.7 -1.7 -1.7 -1.7 -1.7 -1.7 -1.7 -1.7 -1.7 -1.7 -1.7 -1.7 -1.7 -1.7 -1.7 -1.7 -1.7 -1.7 -1.7 -1.7 -1.7 -1.7 -1.7 -1.7 -1.7 -1.7 -1.7 -1.7 -1.7 -1.7 -1.7 -1.7 -1.7 -1.7 -1.7 -1.7 -1.7 -1.7 -1.7 -1.7 -1.7 -1.7 -1.7 -1.7 -1.7 -1.7 -1.7 20.8 -1.7 -1.7 -1.7 -1.7 -1.7 -1.7 -1.7 -1.7 -1.7 -1.7 -1.7 -1.7 36.6 39.9 31.3 25.2 -1.7 -1.7 2.1 46.4 69 83 89.1 92.9 97.1 100.8 104.5 108.3 110.9 112.8 114 114 112.7 110.7 109.1 107.1 102.5 94.6 92.2 93.9 97.1 101.2 104.1 108.6 112.1 114.6 118.3 121.9 125.9 131.8 137.5 145.1 155.2 169.2 188.4 201.1 211.5 213.3 211.6 208.7 202.9 195.2 187.9 182.9 178.8 177.8 180.4 182.9 190.8 197.7 204.2 210.9 218.6 226.2 231.2 229.8 225.5 222.2 219.6 217.9 218.1 218.6 220.7 223.9 227.6 231.1 234.2 235.6 235.2 235.6 236.2 236.8 237.5 237.5 236.4 233.1 227.3 217 203.3 187.4 176.2 168.7 162 157.7 155.1 152.4 149.8 150.7 154 157 160.6 165.9 171.3 174.7 177.2 179.7 181 181.5 178.7 174.1 167.4 160.7 154 148.4 144.6 141.6 138.7 137.3 135.3 133.1 131.2 129.8 128.2 126.6
-1.7 -1.7 -1.7 -1.7 -1.7 -1.7 -1.7 -1.7 -1.7 -1.7 -1.7 -1.7 -1.7 -1.7 -1.7 -1.7 -1.7 -1.7 -1.7 -1.7 -1.7 -1.7 -1.7 -1.7 -1.7 -1.7 -1.7 -1.7 -1.7 -1.7 -1.7 -1.7 -1.7 -1.7 -1.7 -1.7 -1.7 -1.7 -1.7 -1.7 -1.7 -1.7 -1.7 -1.7 -1.7 -1.7 -1.7 -1.7 -1.7 -1.7 -1.7 -1.7 -1.7 -1.7 -1.7 -1.7 -1.7 -1.7 -1.7 -1.7 -1.7 -1.7 -1.7 -1.7 2.1 29.8 -1.7 -1.7 -1.7 -1.7 -1.7 -1.7 -1.7 -1.7 -1.7 -1.7 -1.7 -1.7 42.7 55 54.9 46.9 35.2 1.4 35.9 57 70.5 82.3 89.6 95.4 100.9 105.2 108.9 112.2 114.6 116.3 117.1 116.9 115.6 114.3 113.5 112 108.9 103 95.7 94.8 96.3 98.5 100.9 104.9 108.9 112 116.2 120.9 125.5 130.9 136.6 143.2 151.8 165.7 183.2 196.5 206.8 214.6 218.5 217.9 211.4 205.1 197.5 192.3 189 187.1 187.6 190.1 195.9 202.3 208.4 214.6 223.4 232 235.8 233.7 230.2 227 224.5 223.4 222.9 222.5 221.9 223.9 226.1 228.5 231.2 232.4 231 231.1 231.3 232.7 234.5 235.6 235.4 233 227.7 218.9 206.8 192.8 180.7 172.5 167.5 164.1 161.3 158.2 154.1 151.3 153.1 155.4 159.6 165.8 170.9 173.7 176 177.3 178.2 178.5 176.3 171.5 164.9 158.2 151.9 146.8 142.8 140.2 137.7 136.6 134.4 132.5 130.8 129.3 127.7 125.8
-1.7 -1.7 -1.7 -1.7 -1.7 -1.7 -1.7 -1.7 -1.7 -1.7 -1.7 -1.7 -1.7 -1.7 -1.7 -1.7 -1.7 -1.7 -1.7 -1.7 -1.7 -1.7 -1.7 -1.7 -1.7 -1.7 -1.7 -1.7 -1.7 -1.7 -1.7 -1.7 -1.7 -1.7 -1.7 -1.7 -1.7 -1.7 -1.7 -1.7 -1.7 -1.7 -1.7 -1.7 -1.7 -1.7 -1.7 -1.7 -1.7 -1.7 -1.7 -1.7 -1.7 -1.7 -1.7 -1.7 -1.7 -1.7 -1.7 -1.7 -1.7 -1.7 -1.7 -1.7 50.9 42.9 1.5 -1.7 -1.7 -1.7 -1.7 -1.7 -1.7 -1.7 -1.7 -1.7 -1.7 27.5 51.4 62.6 65.2 63.8 56.8 49.3 50.7 64.7 76.6 86.5 94.8 100.7 105.8 109.4 112.1 116.1 118.5 119.2 119.9 119.4 118.5 117.2 117 116 113.7 111.2 104.7 99.7 98.3 99.3 100.3 102.9 106 109.3 114.1 119 124.3 129.7 135.4 141.2 149 161.2 176.7 189.4 200 211.9 218.9 220.3 217.1 211.3 204.9 199.8 197.8 197.8 198.4 199.5 201.8 206.8 211.7 217.6 224.6 234 237.3 235.4 232.7 230.1 228 226.7 225.8 224.5 222.6 222.6 224.3 225 226.3 226.4 225.9 225.9 226.4 228.3 230.3 232.8 233.6 232.3 228.1 221 210.8 199 186.8 176.4 171 168 164.9 161.9 158.5 154.7 153.1 154.8 159.5 165.8 169.9 172.8 174.4 175.2 175.6 175 172.8 168.6 162.4 156 150.1 146.5 142.4 139.9 137.8 136.5 134.8 132.8 131 129.3 128.1 127.3
-1.7 -1.7 -1.7 -1.7 -1.7 -1.7 -1.7 -1.7 -1.7 -1.7 -1.7 -1.7 -1.7 -1.7 -1.7 -1.7 -1.7 -1.7 -1.7 -1.7 -1.7 -1.7 -1.7 -1.7 -1.7 -1.7 -1.7 -1.7 -1.7 -1.7 -1.7 -1.7 -1.7 -1.7 -1.7 -1.7 -1.7 -1.7 -1.7 -1.7 -1.7 -1.7 -1.7 -1.7 -1.7 -1.7 -1.7 -1.7 -1.7 -1.7 -1.7 -1.7 -1.7 -1.7 -1.7 -1.7 -1.7 -1.7 -1.7 -1.7 -1.7 -1.7 -1.7 34.1 67.2 56.3 38.7 20.7 -1.7 -1.7 -1.7 -1.7 -1.7 -1.7 -1.7 -1.7 -1.7 52.8 64.3 69.1 70.8 70.9 71.1 69.5 66.1 74.8 83.8 92.2 100.2 106.6 110.6 113 115.4 119.1 121.7 122 122.1 121.7 121 120.3 119.8 119 117.8 116 112.4 109.3 106 104.9 103.2 104 105 107.2 110.8 117 122.8 128 133.5 138.6 146.1 157.8 171.2 182.7 194 206.6 215 219.8 220.3 217.7 213.1 208.7 206.9 206.1 206.1 207.1 208.1 210.3 214.5 219.7 225.2 232.8 237.8 236.5 233.5 231.3 229.3 227.9 226.7 224.9 223.1 222 221.1 221.1 220.5 219.7 219.8 219.9 220.8 222.9 224.8 227.5 230.5 230 227.3 223 214.8 204.3 193.1 181 173.2 169.7 166.7 163.8 161.6 158.8 155.7 155.6 160 165 168.5 171.4 172.6 172.8 172.1 171.4 169.1 165 159.6 153.7 149.2 145.6 142.2 139.8 137.9 136.3 134.6 133 131.6 130.5 129.4 128.4
-1.7 -1.7 -1.7 -1.7 -1.7 -1.7 -1.7 -1.7 -1.7 -1.7 -1.7 -1.7 -1.7 -1.7 -1.7 -1.7 -1.7 -1.7 -1.7 -1.7 -1.7 -1.7 -1.7 -1.7 -1.7 -1.7 -1.7 -1.7 -1.7 -1.7 -1.7 -1.7 -1.7 -1.7 -1.7 -1.7 -1.7 -1.7 -1.7 -1.7 -1.7 -1.7 -1.7 -1.7 -1.7 -1.7 -1.7 -1.7 -1.7 -1.7 -1.7 -1.7 -1.7 -1.7 -1.7 -1.7 -1.7 -1.7 -1.7 -1.7 -1.7 50 61.9 44.1 73.5 68.9 53.6 29.1 1.2 -1.7 -1.7 -1.7 9.4 -1.7 -1.7 -1.7 34.5 61.2 71.5 74.7 75.8 76.5 77.6 78.9 80.1 84.7 91 97.4 104.8 110.2 113.8 115.7 117.4 120.9 123.1 124.1 124.1 123.4 122.6 122.5 122.2 121.7 120.6 118.9 117.4 114 111.2 110.2 109.8 106.6 106.6 106.9 108 113.8 119.9 126.1 131.2 136.1 143.7 153 165.6 176.5 188 200 210.4 219.1 224.2 225.3 221.5 217.2 215.1 214.1 213.6 214.5 214.7 216.1 218.3 221.6 225.7 230 234.8 236.2 232.9 230.7 229.2 227.8 226.3 224.6 222 220.2 219 217.2 216.1 215.1 214.2 213.6 213.9 215.2 217.4 219.3 222.4 225 225.3 223.1 215.9 206.7 197 185 175 169.7 167.1 165.5 163.5 162.4 159.4 157.7 161.1 165 167.6 169.3 170.4 169.7 168.7 167.6 165 161.4 156.9 152.1 148.3 145.6 142.7 140.7 138.7 137.1 135.5 133.9 132.7 131.8 130.8 129.4
-1.7 -1.7 -1.7 -1.7 -1.7 -1.7 -1.7 -1.7 -1.7 -1.7 -1.7 -1.7 -1.7 -1.7 -1.7 -1.7 -1.7 -1.7 -1.7 -1.7 -1.7 -1.7 -1.7 -1.7 -1.7 -1.7 -1.7 -1.7 -1.7 -1.7 -1.7 -1.7 -1.7 -1.7 -1.7 -1.7 -1.7 -1.7 -1.7 -1.7 -1.7 -1.7 -1.7 -1.7 -1.7 -1.7 -1.7 -1.7 -1.7 -1.7 -1.7 -1.7 -1.7 -1.7 -1.7 -1.7 -1.7 -1.7 -1.7 -1.7 42.1 70.1 81.6 80.6 79.4 75.4 64.7 49.8 27.9 2.1 2.1 18.3 28.4 2.1 22.3 2.1 52.4 69.9 76.5 79.1 80.3 81.4 82.8 84.6 87.6 91.5 96.5 101.4 107.3 112.9 116.3 118.2 119.6 122.5 124.1 125.1 124.9 124.6 124.4 124.4 124.3 123.9 122.9 121.8 120.6 119.2 116 114.8 114.2 111.7 110.5 109.9 109.1 112.6 117.3 123.4 128.2 133.4 140 148.6 159 169.1 181 194.3 206.7 217.3 227 230.2 227.4 223.8 220.9 219.8 219.4 219.5 220.1 220.9 222 223.3 226 228.9 230.8 232 231.5 229.9 228.4 227 225.6 223.5 221.1 219 216.1 214.1 211.9 210.4 209.5 208.5 208.1 208.5 209.6 211.5 214 217.2 219.6 219.4 213.6 206.3 197.5 187.2 176.1 168.6 165.9 165 164.3 163.7 161.3 159.5 161.5 164.6 166.5 167.6 167.8 167.2 165.7 163.6 161.1 158.2 154.4 150.6 147.6 145.6 143.7 141.7 139.5 138 136.4 135.2 134.1 133 131.9 130.8
-1.7 -1.7 -1.7 -1.7 -1.7 -1.7 -1.7 -1.7 -1.7 -1.7 -1.7 -1.7 -1.7 -1.7 -1.7 -1.7 -1.7 -1.7 -1.7 -1.7 -1.7 -1.7 -1.7 -1.7 -1.7 -1.7 -1.7 -1.7 -1.7 -1.7 -1.7 -1.7 -1.7 -1.7 -1.7 -1.7 -1.7 -1.7 -1.7 -1.7 -1.7 -1.7 -1.7 -1.7 -1.7 -1.7 -1.7 -1.7 -1.7 -1.7 -1.7 -1.7 -1.7 -1.7 -1.7 -1.7 -1.7 -1.7 28 -1.7 -1.7 85.1 89.1 87.8 84.9 81.1 73.5 63.6 50.8 39.4 31.5 47.5 44.3 30.3 41.1 51.8 65.5 76 79.9 83 84.5 86.1 88.2 91.1 94.4 97.5 100.9 105.3 110.1 114.8 117.7 119.2 121.1 123.4 124.8 125.1 125.2 125.5 125.7 125.7 125.6 125.6 125.1 124.2 123.3 122.3 120.1 118.9 118.1 117.3 115.6 113.8 112.8 112.5 115.9 120.7 125.4 130.6 136.7 143.3 153.1 162.9 174.1 188.6 201.4 214.2 227.9 233.5 231.1 227.5 224.9 223.7 222.8 223 223.4 223.9 224.8 225.4 226.2 227.9 229 229.7 229.7 228.4 227.1 225.7 224.1 222.3 220.1 217.8 214.5 210.9 208.5 206.2 204.8 203.9 203.2 202.7 203 203.6 204.9 207.7 210.1 211.1 207.4 202.4 194.9 185.8 175.9 167.7 164.5 163.5 163.9 163.4 162 160.3 160.2 162.9 164.4 165.6 165.7 164.9 163.1 160.5 158.1 155.7 152.8 149.9 148.2 146.8 144.8 142.7 140.6 138.9 137.4 136.1 134.9 133.7 133.1 132
-1.7 -1.7 -1.7 -1.7 -1.7 -1.7 -1.7 -1.7 -1.7 -1.7 -1.7 -1.7 -1.7 -1.7 -1.7 -1.7 -1.7 -1.7 -1.7 -1.7 -1.7 -1.7 -1.7 -1.7 -1.7 -1.7 -1.7 -1.7 -1.7 -1.7 -1.7 -1.7 -1.7 -1.7 -1.7 -1.7 -1.7 -1.7 -1.7 -1.7 -1.7 -1.7 -1.7 -1.7 -1.7 -1.7 -1.7 -1.7 -1.7 -1.7 -1.7 -1.7 -1.7 -1.7 -1.7 -1.7 -1.7 -1.7 28 83.7 93.5 93.5 93.5 93.5 93.2 90.3 84.1 76.7 66.7 61.1 60.1 60.2 58.4 47.9 48.6 62.3 72.5 79.4 83.7 87.6 89.4 91.2 94.7 97.8 100.2 102.7 105.2 108.4 112.3 116.1 118.5 120.4 122 123.7 125.3 125.6 125.9 126.3 126.8 126.9 127 127.1 127.1 126.5 125.9 125.1 123.7 122.6 122.3 122 121.2 119.2 116.8 114.5 115.7 119.2 123.5 128.2 133.5 139.5 147.7 156.7 168.1 182.4 195.7 210.6 224.2 233.3 233.3 229.2 226.6 225 224.7 225.3 225.9 226.2 226.4 226.9 227 227.2 227.6 228.1 228.1 227.2 225.9 224.5 222.8 220.7 218.8 216.7 213.3 209.1 205.4 202.9 200.7 199.3 198.6 197.6 197.1 197.1 197.6 197.6 199.7 200.2 199.3 195.2 188.5 181.3 173.6 167.7 163.5 161.9 162.6 162.7 161.3 159.6 158.2 160.3 162.2 163.5 163.5 162.7 160.5 158.4 156.2 154.3 151.6 150.1 150 150.2 148.6 145.6 142.5 140 138.2 136.6 135.4 133.6 133 132.4
-1.7 -1.7 -1.7 -1.7 -1.7 -1.7 -1.7 -1.7 -1.7 -1.7 -1.7 -1.7 -1.7 -1.7 -1.7 -1.7 -1.7 -1.7 -1.7 -1.7 -1.7 -1.7 -1.7 -1.7 -1.7 -1.7 -1.7 -1.7 -1.7 -1.7 -1.7 -1.7 -1.7 -1.7 -1.7 -1.7 -1.7 -1.7 -1.7 -1.7 -1.7 -1.7 -1.7 -1.7 -1.7 -1.7 -1.7 -1.7 -1.7 -1.7 -1.7 -1.7 -1.7 -1.7 -1.7 -1.7 -1.7 -1.7 29.3 78.5 95.7 97.8 97.7 97.9 97.9 95.1 88.9 81.4 74.3 70.9 69.9 70 71 67.6 57.2 68.1 75.4 82 87.2 91.6 93.9 96.5 99.3 102.1 105 107.3 109.6 112.3 114.6 116.8 118.5 120.4 122 123.8 125.2 126.1 126.6 127 127.6 128 128.7 128.7 129.1 128.9 128.7 128.1 127.3 126.3 126.5 126.6 126.7 126.3 122.9 118.9 117.2 118.6 122.6 127 131.6 136.7 143.8 151.8 161.4 174.7 189.5 205.4 218.5 228.6 233.5 227.9 225.2 224.5 225.1 225.7 226.4 226.9 227.3 227.4 227.2 227 226.6 226.7 226.7 226.1 224.8 223.5 222 220.1 217.9 215.3 211.8 207.2 203.1 199.9 197.2 195 193.7 192.7 191.9 191.1 190.6 190.5 190.6 190.6 189.5 186.3 181.3 176.3 171.5 166.5 162.8 160.7 161.1 161.2 160.9 159 156.8 157.9 159.8 161.6 161.8 160.9 158.9 157 155.2 153.2 150.4 151.2 153.1 154.5 153.1 149.4 145.1 141.7 139.3 137.5 135.9 134 133 132.4
-1.7 -1.7 -1.7 -1.7 -1.7 -1.7 -1.7 -1.7 -1.7 -1.7 -1.7 -1.7 -1.7 -1.7 -1.7 -1.7 -1.7 -1.7 -1.7 -1.7 -1.7 -1.7 -1.7 -1.7 -1.7 -1.7 -1.7 -1.7 -1.7 -1.7 -1.7 -1.7 -1.7 -1.7 -1.7 -1.7 -1.7 -1.7 -1.7 -1.7 -1.7 -1.7 -1.7 -1.7 -1.7 -1.7 -1.7 -1.7 -1.7 -1.7 -1.7 -1 -1.7 -1.7 -1.7 -1.7 -1.7 -1.7 53.1 83.1 97.1 100.1 100.1 100.3 100 97.4 92.5 86.3 81.1 77.8 76.8 77.6 79.7 79.2 76.1 77.4 79.5 85.6 90.3 94.2 96.9 99 101.6 105 109 111.6 113.9 115.6 116.4 117.7 119 120.4 122.1 123.5 124.8 125.8 126.8 128 128.8 129.4 130.5 131.1 131.8 132.3 132.2 132.1 132.3 131.6 131.9 133.2 133.7 134.3 132.3 127.3 122.1 120.5 121.2 125.7 130.5 135.5 141.7 148.4 156 166.7 180.4 196 211.3 220 223.7 222.7 221.4 222.1 222.6 224 225.3 225.7 226.5 226.8 226.8 226.5 226.4 226.2 225.8 225.2 223.9 223 221.4 219.7 217.1 214.2 210.9 207.4 203.8 199.8 196.1 191.7 189.6 188.5 187 186 185 184.5 183.4 182.5 180.8 178.2 174.5 171.7 169.4 165.5 162.8 160.8 159.4 159.4 159 157.7 156.1 155.5 157.9 159.7 160.2 159.4 157.9 156.2 154.4 153.1 151.6 153.3 155.3 157.1 156.3 152.8 148.5 144.2 141.3 138.9 136.9 134.9 133 133.4
-1.7 -1.7 -1.7 -1.7 -1.7 -1.7 -1.7 -1.7 -1.7 -1.7 -1.7 -1.7 -1.7 -1.7 -1.7 -1.7 -1.7 -1.7 -1.7 -1.7 -1.7 -1.7 -1.7 -1.7 -1.7 -1.7 -1.7 -1.7 -1.7 -1.7 -1.7 -1.7 -1.7 -1.7 -1.7 -1.7 -1.7 -1.7 -1.7 -1.7 -1.7 -1.7 -1.7 -1.7 -1.7 -1.7 -1.7 -1.7 -1.7 -1.7 -1.7 5.2 1.8 -1.7 -1.7 -1.7 -1.7 46.7 72.8 91 99.3 101.4 102.2 102.4 102 99.8 96.1 92.2 87.5 84.7 84 85.4 87.2 87.3 86.1 86 85.6 90 93.7 96.4 99.1 101.4 103.8 107.1 111.5 114.9 116.6 117.8 118.4 118.7 119.2 120.2 122.6 123.9 124.9 126.2 127.4 128.8 130.4 131.7 132.9 133.5 135.4 137.6 138.6 139.2 140 141 142 143.4 144.6 144.7 143.4 139.6 131.9 126.1 124.4 124.8 129 134.4 140.7 145.7 152.2 160.1 169 183.2 199.7 207.9 212 214.3 216.4 217.8 219.5 221 222.4 224.1 225.3 226 226.5 226.3 226.2 226 225 224.3 223.5 222.5 221 219.5 217.2 215.6 213.4 210.2 206.7 202.2 197.3 191.6 186.7 184.6 182.9 181.4 180.4 179.4 177.3 175.5 173.4 170.4 168.5 166.9 165.6 164.5 162.4 160.6 158.4 157 156.2 155.3 154.1 153.4 155.6 157.6 158.1 157.7 156.4 154.8 153.3 153.3 153.5 155.3 157.1 158.8 158.5 155.8 151.5 147.3 143.8 141.3 138.9 136.1 134.3 134.8
-1.7 -1.7 -1.7 -1.7 -1.7 -1.7 -1.7 -1.7 -1.7 -1.7 -1.7 -1.7 -1.7 -1.7 -1.7 -1.7 -1.7 -1.7 -1.7 -1.7 -1.7 -1.7 -1.7 -1.7 -1.7 -1.7 -1.7 -1.7 -1.7 -1.7 -1.7 -1.7 -1.7 -1.7 -1.7 -1.7 -1.7 -1.7 -1.7 -1.7 -1.7 -1.7 -1.7 -1.7 -1.7 -1.7 -1.7 -1.7 -1.7 -1.7 -1.7 30.5 15.2 1.3 -1.7 -1.7 38.2 68.5 86.1 96.8 99.9 102.2 103.5 103.9 104.1 102.4 99.6 96.3 93.6 91.9 92 93.3 94.5 94.6 93.8 92.2 92.2 94 96.4 98.8 101.4 103.7 106.2 109.3 112.9 116 118.4 119.2 119.7 120.1 120.6 121.4 122.4 124.2 125.4 126.6 128.2 130.2 131.8 133.5 135.2 138.8 143.6 147.5 149.8 150.7 151.9 153.2 154.4 155.9 157.1 158 157.4 153.2 144.9 137.3 131.8 128.8 130.3 134.3 140.3 144.7 149 154.8 161.5 171.4 183.7 193.8 200.2 206.2 210.7 213.1 214.9 216.8 219.3 221.3 223.4 224.8 226.1 226.2 226.1 225.8 224.7 224 223.3 222 220.6 219.7 219.3 218.6 216.4 213.4 209.7 205.7 200.2 194 186.1 181.6 179.4 177.3 176 174.6 172.4 170.3 167.6 164.3 162.6 161.5 162 162.1 161.4 159.7 157.5 155.4 153.6 152.3 151.7 151.9 153.2 155.1 156 155.9 154.9 152.8 152.4 154 155.2 156.5 158.1 159.8 160 157.9 154.2 150.4 147.2 144.5 141.8 139.2 136.7 136.1
-1.7 -1.7 -1.7 -1.7 -1.7 -1.7 -1.7 -1.7 -1.7 -1.7 -1.7 -1.7 -1.7 -1.7 -1.7 -1.7 -1.7 -1.7 -1.7 -1.7 -1.7 -1.7 -1.7 -1.7 -1.7 -1.7 -1.7 -1.7 -1.7 -1.7 -1.7 -1.7 -1.7 -1.7 -1.7 -1.7 -1.7 -1.7 -1.7 -1.7 -1.7 -1.7 -1.7 -1.7 -1.7 -1.7 -1.7 -1.7 3.9 2.1 28 49.5 53.5 51.7 49.8 51.2 69.3 83.2 94.5 98.4 101.1 103.1 104.8 105.5 106 105 102.8 101.1 99.5 98.7 98.7 99.1 99.7 99.6 98.1 96.5 96.4 97.6 99 101.4 103.9 106.1 108.5 111.4 114.2 116.8 118.9 120.1 121 121.5 122 122.4 122.8 124.6 126 127.6 129.1 131.2 133.3 135.4 138.6 144.2 151.7 157.1 159 160.7 162.2 163.4 165.1 167 168.2 170.2 171.3 167.1 159.4 151.4 145 139.4 136.4 136.8 140 144.3 147.9 151.8 156.1 162.7 171.9 181.4 189.8 198.1 202.8 206.6 209.8 212.5 215.5 218.6 221.3 223.9 225.4 226 226 225.6 225.3 225.1 224 222.9 221.8 221.3 221.5 220.9 219.5 216.9 213 208.7 203 196.4 188.1 180.6 177.9 175.4 173 171.4 169.1 166.8 164.2 160.5 157.7 156.9 156.9 158 158.7 158.1 156.5 154.6 152.4 150.6 149.9 150 151.1 152.9 153.6 153.7 152.1 151.8 153.7 155 156 157 158.4 160.2 161.1 159.8 156.9 153.8 150.7 148.1 145.4 142.6 139.3 138.1
-1.7 -1.7 -1.7 -1.7 -1.7 -1.7 -1.7 -1.7 -1.7 -1.7 -1.7 -1.7 -1.7 -1.7 -1.7 -1.7 -1.7 -1.7 -1.7 -1.7 -1.7 -1.7 -1.7 -1.7 -1.7 -1.7 -1.7 -1.7 -1.7 -1.7 -1.7 -1.7 -1.7 -1.7 -1.7 -1.7 -1.7 -1.7 -1.7 -1.7 -1.7 -1.7 -1.7 -1.7 -1.7 -1.7 -1.7 -1.7 -1.7 12.1 38.6 59.9 71.8 77.6 75.5 77.1 84.2 92.3 96.3 99.5 102.4 104.3 106.3 107.3 107.9 107.9 107.1 106.1 105.2 104.8 104.8 104.7 104.3 103.2 101 99.7 99.4 100.7 102.1 104 106.2 108.3 110.4 113.2 115.9 117.7 119.7 121.4 122.4 122.9 123.4 123.8 124.6 125.3 126.9 128.5 130 132.1 134.5 137.7 142.4 149.9 158.6 164.9 167.3 168.8 170.2 172.3 174.5 175.9 176.2 178 180.7 179.5 174.9 168.9 162.3 155.3 147.6 142.8 140.8 143 146.5 150 153.2 157.6 165.1 172.4 180.8 189.1 195 199.6 204.1 208.9 212.5 216.5 221 223.7 225.7 226.1 226.7 226.8 226.9 226.6 225.7 224.7 223.8 223.2 223.1 222.7 221.4 219.3 215.4 210.9 205.9 199.3 191.7 183.7 179.1 177 174.3 170.6 168.1 165.7 162.3 158.7 156.1 154.5 153.2 150.9 154.8 155.3 154.7 152.9 151 149.4 148.7 148.6 149 150.2 151.1 151.3 150.9 152.6 154.4 155.9 156.5 156.8 157.6 160.3 161.3 160.7 158.9 156.3 153.5 150.8 148 144.7 141.9 141
-1.7 -1.7 -1.7 -1.7 -1.7 -1.7 -1.7 -1.7 -1.7 -1.7 -1.7 -1.7 -1.7 -1.7 -1.7 -1.7 -1.7 -1.7 -1.7 -1.7 -1.7 -1.7 -1.7 -1.7 -1.7 -1.7 -1.7 -1.7 -1.7 -1.7 -1.7 -1.7 -1.7 -1.7 -1.7 -1.7 -1.7 -1.7 -1.7 -1.7 -1.7 -1.7 -1.7 -1.7 -1.7 -1.7 -1.7 -1.7 -1.7 15 36.7 57.1 73 80.7 82.7 85.6 90.4 94.2 97.7 100.6 103.4 105.9 107.7 109.2 110.2 110.5 110.2 109.9 109.7 109.7 109.6 108.9 108 106.7 105.2 103.1 102.4 103.6 104.7 106.1 108.1 110 112.1 114.9 117.1 118.8 120.8 122.6 123.8 124.3 124.8 125.3 126 126.2 127.7 129.3 130.9 133.1 135.9 139.6 145.6 153.9 162.8 169.6 172.9 175.1 177.1 179.3 181.2 182.6 182.7 182.7 185.2 186.8 186.7 184.4 180.3 173.2 161.5 151.4 145.8 142.4 145.3 148.3 151.4 155.5 161 167.2 174.5 181.5 187.6 193.9 199.5 205.1 210.1 215.7 220.8 224.2 226.2 227.2 227.8 228.1 228.5 228.1 227.4 226.4 225.5 224.6 224.1 223.6 222.7 221 217.7 213 208.4 203.4 198.3 191.4 185.2 180.8 177.7 173.5 168.9 166 163.7 159.7 156.6 154.2 152.6 150.9 151.8 151.9 151.6 151 149.5 148.1 147.5 147.5 147.6 148.1 148.7 149.5 151.3 153 154.9 156.5 156.7 156.4 149.1 160.6 161.2 161 159.9 157.9 155.5 152.6 149.3 146.3 143.9 142.8
-1.7 -1.7 -1.7 -1.7 -1.7 -1.7 -1.7 -1.7 -1.7 -1.7 -1.7 -1.7 -1.7 -1.7 -1.7 -1.7 -1.7 -1.7 -1.7 -1.7 -1.7 -1.7 -1.7 -1.7 -1.7 -1.7 -1.7 -1.7 -1.7 -1.7 -1.7 -1.7 -1.7 -1.7 -1.7 -1.7 -1.7 -1.7 -1.7 -1.7 -1.7 -1.7 -1.7 -1.7 -1.7 -1.7 -1.7 -1.7 -1.7 -1.7 14.7 47.8 69.5 78.2 83.3 87.3 91.7 95.4 98.8 101.6 104.4 107.2 109.3 111 112 112.5 112.8 112.8 112.8 112.9 112.9 112.5 111.3 109.8 108.2 106.2 104.6 105.5 106.8 108.2 110 111.8 113.9 116.6 118.2 120 122.3 124.2 125.4 126.1 126.5 126.8 126.9 127.2 128.5 130.4 132.6 134.8 137.3 141.2 147.2 155.9 165.1 171.7 176.1 179.6 182.5 184.2 186 187.4 187.7 187.1 188.5 191.2 194 196.3 194.5 188.6 177.3 163.5 151.7 148.9 144.9 146.6 150.5 154.8 158.7 163.8 170.3 177.2 183.4 189.9 196.8 203 209.6 215.7 220.6 224.4 226.6 227.7 228.6 229.1 229 228.7 228.2 227.5 226.6 225.4 225 224.5 223.5 221.9 219.2 215.1 211.4 208.1 204.3 199.7 193.5 187 182.1 177.8 173.4 170.6 167.9 164.1 159.1 155.5 153.3 152.6 151.5 149.9 148.8 148.6 147.9 147.3 146.8 146.8 146.8 147.1 147.5 148.4 150.1 152.6 154.5 156.2 156.5 155.7 153.8 149.1 160.5 159.2 158.6 157 156.5 153.8 150.7 147.9 145.4 144.6
-1.7 -1.7 -1.7 -1.7 -1.7 -1.7 -1.7 -1.7 -1.7 -1.7 -1.7 -1.7 -1.7 -1.7 -1.7 -1.7 -1.7 -1.7 -1.7 -1.7 -1.7 -1.7 -1.7 -1.7 -1.7 -1.7 -1.7 -1.7 -1.7 -1.7 -1.7 -1.7 -1.7 -1.7 -1.7 -1.7 -1.7 -1.7 -1.7 -1.7 -1.7 -1.7 -1.7 -1.7 -1.7 -1.7 -1.7 -1.7 -1.7 -1.7 -1.7 41.1 61.7 72.4 81.6 88 92.8 96.6 99.8 102.6 105.4 108.2 110.9 112.5 113.7 114.4 115.1 115.5 115.8 116 115.6 114.8 113.9 112.4 110.6 108 106.6 107 108.8 110.4 112.2 113.8 115.1 117.9 119.7 121.8 124.2 125.9 127 127.8 128.4 128.8 129 129.3 129.7 131.5 133.6 135.9 138.4 142.2 147.6 156.3 165.6 172.5 178.1 183.6 186.1 187.8 189.2 190.5 191.1 190.7 191.3 193.6 197.5 201.7 202.1 197.6 189.6 177.7 163.5 154.2 149.7 146.8 148.7 153.3 156.8 161.4 167.1 173.2 179.9 187.7 195.4 202.5 209.4 215.7 220.3 224.5 226.6 227.7 228.4 228.8 229 228.7 228.1 227.6 227 226 225.5 225 223.9 222.3 219.9 217.2 215.1 212.4 209.4 205.4 200.3 194.1 188.1 182.8 179 176.1 173.5 169.5 164.5 159.8 156.1 153.4 151.3 150.4 149.4 148.3 147.5 146.7 146.2 146.1 146.1 146.1 146.5 147.2 149 151 153.2 155.1 155.6 154.8 151.7 149.1 151.3 155.4 155.8 156.3 156.2 155.1 152.2 149.4 147 146.6
-1.7 -1.7 -1.7 -1.7 -1.7 -1.7 -1.7 -1.7 -1.7 -1.7 -1.7 -1.7 -1.7 -1.7 -1.7 -1.7 -1.7 -1.7 -1.7 -1.7 -1.7 -1.7 -1.7 -1.7 -1.7 -1.7 -1.7 -1.7 -1.7 -1.7 -1.7 -1.7 -1.7 -1.7 -1.7 -1.7 -1.7 -1.7 -1.7 -1.7 -1.7 -1.7 -1.7 -1.7 -1.7 -1.7 -1.7 -1.7 -1.7 -1.7 -1.7 32.7 47.2 65.9 78.4 86.9 93.6 97.1 100.5 103.3 106.1 108.8 111.6 113.7 115.1 116.3 117 117.4 117.9 118 117.7 117 116 114.3 112.3 110 108.7 108.6 110.4 112.4 114 115.6 117.2 119.2 121.2 123.4 125.9 127.6 128.6 129.4 130.3 130.9 131.1 131.2 132.6 132.4 134 136.7 139.5 142.9 148.1 155.9 164.8 171.5 178 184.3 188.2 190.7 192.1 193.2 193.4 193.1 193.1 194.7 198.5 202.3 205.2 202.5 196.2 188.3 177.8 166.8 156.9 151.6 148.9 152.7 156.3 160.1 165.1 170.6 177.9 185.7 193.3 201.1 209.1 215.5 220.3 223.6 225.9 227.2 228 228.2 228.1 228.2 227.9 227.3 226.7 226.2 225.6 225.1 223.9 222.3 220.8 218.9 217.3 215.1 212.5 208.7 204.4 198.5 192.8 187.4 184 181.2 178.6 175.3 170.9 166.5 162.4 158.2 154.3 152.1 150.7 149 147.6 146.3 145.7 145.3 145.4 145.3 145.9 146.3 147.4 149.4 151.2 152.8 153.8 153.1 150.7 150.7 149.1 151.9 153.6 155.5 156.9 156.5 154.6 152.7 150.8 150.3
-1.7 -1.7 -1.7 -1.7 -1.7 -1.7 -1.7 -1.7 -1.7 -1.7 -1.7 -1.7 -1.7 -1.7 -1.7 -1.7 -1.7 -1.7 -1.7 -1.7 -1.7 -1.7 -1.7 -1.7 -1.7 -1.7 -1.7 -1.7 -1.7 -1.7 -1.7 -1.7 -1.7 -1.7 -1.7 -1.7 -1.7 -1.7 -1.7 -1.7 -1.7 -1.7 -1.7 -1.5 -1.7 -1.7 -1.7 -1.7 -1.7 -1.7 -1.7 2.3 39 58.8 76.8 87.9 93.5 97.2 100.5 103.5 106.2 108.8 112.1 114.7 116.2 117.3 118.1 119 119.7 119.7 119.8 119.1 117.8 116.3 114.5 112 111 110.5 112.2 114.1 115.6 117.1 118.9 120.8 122.8 125 127.4 129.6 131 132 133 134 134.7 135.6 136.1 136.5 136.3 136.9 140.1 143.6 147.9 153.8 160.9 168.2 175.3 182.1 188.4 193 195.5 195.9 195.3 194.4 194.3 195.3 197.9 200.6 203.5 203 198.6 193.8 186.7 180.8 170.2 159.8 151.9 152.7 156.8 160.2 163.8 169.3 176.6 184 191.3 199.1 208.3 215.1 219.2 221.8 224.3 225.9 226.7 227 227 227 226.8 226.3 226.2 226.6 226 225.2 224 222.4 220.9 219.7 218.1 216.3 214 210.7 206.4 201.5 195.9 190.1 185.6 183.1 181.3 178.7 174.4 171.9 168.3 163.3 158.4 154.7 152.2 149.8 147.4 144.4 145.7 145.3 144.9 144.4 145.2 146.1 146.5 147.1 148.8 150.2 150.8 150.7 149.1 149.3 150.5 151.5 152.9 154.9 157.4 159.3 159.2 157.8 156.7 156.9
-1.7 -1.7 -1.7 -1.7 -1.7 -1.7 -1.7 -1.7 -1.7 -1.7 -1.7 -1.7 -1.7 -1.7 -1.7 -1.7 -1.7 -1.7 -1.7 -1.7 -1.7 -1.7 -1.7 -1.7 -1.7 -1.7 -1.7 -1.7 -1.7 -1.7 -1.7 -1.7 -1.7 -1.7 -1.7 -1.7 -1.7 -1.7 -1.7 -1.7 -1.7 -1.7 -1.7 1 0.2 -1.7 -1.7 -1.7 -1.7 -1.7 -1.7 1.5 30.6 50.7 74.1 87.7 92.5 96.6 100 103.2 106.1 109.4 112.5 115.1 117.2 118.2 119.1 120.2 121.1 121.4 121.4 120.9 119.7 118.5 116.6 114.5 113 112.5 113.9 115.6 117.1 118.7 120.6 122.5 124.4 126.6 129.4 131.9 134.3 136.4 138.1 140.2 141.8 142 141.7 141.2 140.9 140.2 139.6 141.8 147 152.2 157.6 164.5 172.1 180.2 188.6 195 198 197.8 196.8 195.2 194.9 195.8 197.7 199.6 200.9 201.2 199.7 197 193.1 188.1 180.9 170 159.1 153.9 157.6 160.8 164.4 168.7 174.8 182.3 189.2 196.3 205.4 212.2 216.5 219.6 222 223.9 224.8 225.1 225.4 225.6 225.4 225.6 226.1 226.4 226 225.3 224.3 222.6 221.1 219.3 217.8 216.1 214.4 211.7 207.5 202.5 197.2 191.1 185.8 182.9 181.4 179.2 176.6 173.7 171.1 166.4 161.4 157.3 153.9 150.6 147.8 146 145.4 144.7 144 143.5 144.3 144.9 145.5 145.9 146.6 147.3 148.2 148.8 148.7 147.8 150.3 152.3 153.9 155.4 158.7 162.1 163.4 164.4 164.3 165
-1.7 -1.7 -1.7 -1.7 -1.7 -1.7 -1.7 -1.7 -1.7 -1.7 -1.7 -1.7 -1.7 -1.7 -1.7 -1.7 -1.7 -1.7 -1.7 -1.7 -1.7 -1.7 -1.7 -1.7 -1.7 -1.7 -1.7 -1.7 -1.7 -1.7 -1.7 -1.7 -1.7 -1.7 -1.7 -1.7 -1.7 -1.7 -1.7 -1.7 -1.7 -1.7 5.5 12.8 10.7 1.7 5.3 -1.7 -1.7 -1.7 -1.7 0.4 15.7 42.4 63.1 78.1 89.3 94.5 98.8 102.4 106.2 109.9 112.9 115.4 117.7 119.3 120.3 121.4 122.3 122.7 123.1 122.6 121.9 120.8 119 117.2 115.5 114.5 116 117.2 118.7 120.5 122.4 124.3 126.2 129.2 132.4 135.5 138.3 141.6 145.3 148 150.3 150.5 149.1 147 146.1 145.1 143.1 142.5 146.2 151.3 155.7 161.7 169.4 178.7 188.3 195.7 199.2 199.2 197.6 196 195.6 196.3 197 198 198.9 199.5 199.3 199.1 197.1 192.6 186.2 177.1 164.2 156.6 158 162.2 165.6 169.2 174.2 180.3 187.1 193.6 201.4 208.5 213.3 216.7 219.4 221 222.2 222.7 223.3 224.2 224.7 225.4 225.7 225.9 225.8 225.3 224.4 222.8 220.7 218.7 216.7 215.1 213.7 210.9 207.2 202.3 197 190.6 184.6 181.4 180 178.6 177.1 174.6 171.9 168.2 164.2 160.1 156.3 152.1 148.8 146.1 144.9 144.1 143.4 142.7 142.9 143.4 144.3 145.6 145.9 146.3 147.7 148.3 149.1 150.4 152.9 155.3 156.8 158.4 160.6 164 167.5 170.6 172.2 173.2
-1.7 -1.7 -1.7 -1.7 -1.7 -1.7 -1.7 -1.7 -1.7 -1.7 -1.7 -1.7 -1.7 -1.7 -1.7 -1.7 -1.7 -1.7 -1.7 -1.7 -1.7 -1.7 -1.7 -1.7 -1.7 -1.7 -1.7 -1.7 -1.7 -1.7 -1.7 -1.7 -1.7 -1.7 -1.7 -1.7 -1.7 -1.7 -1.7 -1.7 1.1 8.9 30.5 35.2 33.3 30.8 29.3 2.1 -1.7 -0.1 0 1.1 10 34.6 51.2 67.6 81.2 90.5 96.8 102 106.3 109.9 113.1 115.7 118 120 121.6 122.7 123.7 124.1 124.7 124.7 123.9 123.3 121.8 119.8 118.5 117.6 118.7 119.7 120.8 122.1 124.2 126.1 129 132 135.6 139 141.8 147.1 151.6 155.6 158.6 159.9 158.7 155.4 152.4 150.1 149.1 146.8 147 150.7 155.3 160.1 167.3 176.8 186.5 194.9 199.3 199.5 198.1 196.5 196 196.1 196.3 196.7 197.6 198.6 199.2 199.4 197.4 194.1 188.2 179.9 167.3 160.2 161.2 163.2 166.3 169.5 173.8 179 185 191.4 197.3 204.1 209.3 213 215.9 217.9 219 220.1 221 222.8 224.1 225.1 225.5 225.8 225.7 225.6 224.7 222.9 220.7 217.9 215.8 214.1 212.7 210.1 206 200.6 195.1 188.6 182.9 179.3 177.2 176.9 175.7 174.4 172.3 169.4 166.1 162.8 158.8 155 151.2 147.7 145.1 144 143.2 142.4 142.6 142.5 144.1 146.2 146.7 146.7 147.3 148.8 149.9 152.6 156.3 159.6 161.2 162.3 163.3 165.8 169.6 173.6 176.6 179
-1.7 -1.7 -1.7 -1.7 -1.7 -1.7 -1.7 -1.7 -1.7 -1.7 -1.7 -1.7 -1.7 -1.7 -1.7 -1.7 -1.7 -1.7 -1.7 -1.7 -1.7 -1.7 -1.7 -1.7 -1.7 -1.7 -1.7 -1.7 -1.7 -1.7 -1.7 -1.7 -1.7 -1.7 -1.7 -1.7 -1.7 -1.7 -1.7 -1.7 9.2 27.3 51.3 56 55.3 51.4 44.3 40.9 37 6.2 2 10.3 25.4 29.4 39.3 56.7 69.8 82.9 93 100.7 106.2 109.8 113 115.9 118.5 120.4 122.3 123.9 125.2 125.8 126.4 127 126.7 126.1 124.9 122.9 121.9 120.8 121.5 122.4 123.6 124.9 126.5 128.9 132.1 135.7 139.2 142.4 147.4 152.6 157.2 161.9 165.6 167.9 167.5 164.6 160.5 156.9 154.6 152.5 150.6 150.4 154.7 159.3 165.4 174.5 184.1 191.9 197.4 198 197.1 195.8 195.2 195.3 195.7 196.2 197.1 198 198.6 198.5 196.6 193.4 188.3 180.7 168.2 165.4 166.8 167.9 169.1 170.2 173.7 178.3 183.5 188.8 194.3 199.5 204.9 208.8 212.2 214.4 216.4 217.9 219.2 221.1 223.2 224.7 225.5 225.9 225.9 225.7 224.6 222.6 220.6 217.6 215.2 213.1 211.4 208.9 204.5 199.3 193.7 186.6 180.7 177 174.4 173.7 173.3 173.1 172 170.1 168.1 165.8 163.2 160 155.8 152 147.7 144.4 143.2 141.8 141.5 141.7 143.2 146 147.4 147.6 147.8 149.1 151.4 154.6 159.2 163.2 165.5 166 166 168.3 171.5 174.3 178.3 181.5
-1.7 -1.7 -1.7 -1.7 -1.7 -1.7 -1.7 -1.7 -1.7 -1.7 -1.7 -1.7 -1.7 -1.7 -1.7 -1.7 -1.7 -1.7 -1.7 -1.7 -1.7 -1.7 -1.7 -1.7 -1.7 -1.7 -1.7 -1.7 -1.7 -1.7 -1.7 -1.7 -1.7 -1.7 -1.7 -1.7 -1.7 -1.7 -1.7 -1.7 4.2 38.5 62.3 74.3 77.8 74.6 70.1 64.8 59.6 51 42.2 39.1 37.2 36.7 35.3 49 64.1 75.6 88.2 98 105.1 109.2 112.8 115.7 118.7 120.9 122.8 125 126.6 128.2 129 129.7 129.4 129 128.5 127 125.4 124 124.6 126.1 129.2 131.7 132.5 133.7 136.4 139.8 143.4 148 153.5 158.1 162.7 167.7 172.1 174.6 174.6 172.6 168.7 164.2 161 158.5 156.3 154.1 155 159.4 164.7 171.4 180.4 187.5 192.1 194.2 194.6 194.4 194.4 194.6 195 195.7 196.6 197.4 197.9 197.5 195.7 193 187.9 179.8 169 171.7 174.7 176.6 176.9 176.3 176.6 179.3 181.5 186.3 191.2 196.4 201.3 204.9 208.4 211.1 213.5 216.1 218.4 221 223.3 224.8 226.3 226.9 227.4 226.9 225.6 223.8 221 218 215.2 213 210.1 206.9 203.4 197.7 191.8 184.9 179.1 175.2 172.7 170.5 169.9 170.7 171.1 170.3 169.5 168.3 167.7 166 162.7 158 153.1 147.1 143.4 138.8 141.3 138.6 141.6 144.9 147.9 149.2 149.1 149.8 152.3 156.4 161.1 165.6 168.4 169.3 169 170.9 172.1 174.3 178 181.8
-1.7 -1.7 -1.7 -1.7 -1.7 -1.7 -1.7 -1.7 -1.7 -1.7 -1.7 -1.7 -1.7 -1.7 -1.7 -1.7 -1.7 -1.7 -1.7 -1.7 -1.7 -1.7 -1.7 -1.7 -1.7 -1.7 -1.7 -1.7 -1.7 -1.7 -1.7 -1.7 -1.7 -1.7 -1.7 -1.7 -1.7 -1.7 -1.7 27.1 30.2 43.4 70.7 83.9 90.1 91.1 90.4 86.8 81.7 74.4 63.8 55.3 50.5 49.2 48.5 46.8 59.8 70.8 84 94.5 102.2 108.3 112.4 115.7 118.7 121.7 124.1 126.3 128.2 130.1 131.5 132.7 133.5 133.3 132.5 131.3 130.2 128.1 128.3 131.1 136 139.5 141.2 142.1 143.3 145.8 151 155.6 159.5 163.5 168.5 173.6 178.2 180.6 181.1 179.5 175.9 171.4 167.8 164.4 162 159.4 157.6 159.9 164.8 169.9 176.3 182.3 187 190.1 191.7 192.8 193.3 193.7 194.4 195.4 196.2 197 197.3 196.9 195 191.9 186.6 178.1 172.6 177 180.6 183 183.7 183.8 183.6 183.1 183.4 184.9 188.6 193.4 197.6 201.3 204.9 207.9 211.6 214.9 218.1 220.7 223.4 226 227.9 229.2 229.8 229.4 227.9 225.8 222.6 219 215.8 212.8 209.3 205.6 201 195.6 189.3 183.8 178 173.9 171.4 169.1 167 167.5 168.9 169.5 169.7 169.7 169.8 169 167.3 163.9 158.3 151.6 145.5 142.1 138.6 138.6 140.5 143.4 147.6 150 151 151.4 153.8 157.6 162.1 166.5 170.1 171 171.2 171.7 173 174.8 177.8 181.7
-1.7 -1.7 -1.7 -1.7 -1.7 -1.7 -1.7 -1.7 -1.7 -1.7 -1.7 -1.7 -1.7 -1.7 -1.7 -1.7 -1.7 -1.7 -1.7 -1.7 -1.7 -1.7 -1.7 -1.7 -1.7 -1.7 -1.7 -1.7 -1.7 -1.7 -1.7 -1.7 -1.7 -1.7 -1.7 -1.7 -1.7 -1.7 8.9 49.7 62 72.2 83.8 92.7 97.4 99.2 99.7 97.6 94.4 90.7 83.8 75.2 70.2 67.6 63.9 62 54.7 66.5 78.4 89.4 98.5 106.4 111.2 115.3 118.6 121.7 124.9 127.5 129.8 131.8 134.4 136.7 138.7 139.1 138 136.3 134.6 132.2 132.2 136 142.7 146.7 148.9 150.3 151.1 153.4 157.4 161.2 165 168.8 173.5 178.7 183.2 186.7 187.3 185.2 181.5 177.4 173.4 170.2 167.5 165.2 161.9 162.3 164.6 168.7 174.2 178.8 182.7 186.5 189 190.6 191.7 192.6 193.5 195.1 196 196.5 196.8 196.4 194.4 191.2 185.3 177.4 177.7 182.1 185.6 188.7 190.2 190.6 190.3 188.8 187.2 186.8 187.8 190.7 194.8 198.6 202.4 206.6 211.1 214.8 218.4 221.6 224.7 227.8 230.1 231.3 232.1 231.7 230.6 228.4 224.8 221.1 217.4 213.9 209.6 204.6 199.9 194.6 188.8 183.2 178 173.5 170.2 167.9 165.4 164.5 165.7 167.2 168.1 169.1 169.7 169.7 168.8 166.4 162.8 155.5 148.1 142.9 141.1 141.3 139.2 141.6 146.3 150.1 152.3 153.3 155.4 158.6 161.4 165.4 168.8 170.2 171.5 172.4 174.4 176.3 178.3 181.8
-1.7 -1.7 -1.7 -1.7 -1.7 -1.7 -1.7 -1.7 -1.7 -1.7 -1.7 -1.7 -1.7 -1.7 -1.7 -1.7 -1.7 -1.7 -1.7 -1.7 -1.7 -1.7 -1.7 -1.7 -1.7 -1.7 -1.7 -1.7 -1.7 -1.7 -1.7 -1.7 -1.7 -1.7 -1.7 8.4 23 11.7 42.7 67.2 80.1 89.2 95.9 100.6 102.6 104 104.1 103.1 101.4 99.5 96 90.7 87.5 85.1 80.6 77.7 77 76.2 77.7 81.4 95.2 104 109.4 114.6 118.4 121.9 125 128.4 131.3 134.1 137.1 140.7 143.3 144.8 144.2 141.9 139.6 136.6 135.9 140.4 146.2 152.2 155.8 157.8 158.3 160.2 163 167 170.8 174.2 178.4 183 187.7 191.2 192.1 189.8 186.6 182.8 179 175.9 172.8 170.6 168.2 166.1 165.3 167.9 172.6 176.9 181 184.1 187 188.5 189.9 190.9 192.9 194.5 195.8 196.4 196.1 195.7 193.5 190.4 185.9 181 182.2 186.6 190.6 193.7 195.7 196.5 196.2 194.4 192.5 190.7 190 190.7 193.7 197.2 201.7 206.5 211.2 215.3 219.8 223.1 226.5 229.7 232 233.4 233.8 233.7 232.3 230.2 227.1 223.4 219.5 215.7 211 204.5 198.4 193.2 188.2 182.9 177.9 173.2 169 166.2 163.7 162.5 162.8 164 165.6 167.2 168.2 168.4 168.4 167.5 164.9 159.4 151.8 144.8 140.5 139 138.5 140.1 145.2 149.6 152.6 154.1 155.3 157.8 160.4 163.2 165.9 168.2 170 172.5 175.2 177.3 179.6 181.9
-1.7 -1.7 -1.7 -1.7 -1.7 -1.7 -1.7 -1.7 -1.7 -1.7 -1.7 -1.7 -1.7 -1.7 -1.7 -1.7 -1.7 -1.7 -1.7 -1.7 -1.7 -1.7 -1.7 -1.7 -1.7 -1.7 -1.7 -1.7 -1.7 -1.7 -1.7 -1.7 -1.7 -1.7 -1.7 21.4 39.7 51.3 70.9 82.2 91.4 98.1 102.8 105.5 106.7 107.5 107.3 106.8 106.3 105.3 103.3 99.5 97.9 97.6 95.7 91.9 89.4 89.8 90.3 90.7 90 102.1 107.7 112.9 117.3 121.8 125.3 128.6 132.2 135.8 139.7 143.9 147.4 149.2 149.2 147.4 145.1 142.4 140 143.7 148.6 153.8 159.7 163.1 164.6 165.9 168.7 172.3 175.9 179.2 182.4 186.1 190 193.3 194.6 192.9 189.7 186.9 184 181 178.1 175.9 173.6 170.8 167 167.8 171.4 175.3 179.2 182.3 184.8 186.4 188.3 190.7 192.9 194.7 195.8 196.3 195.4 195.5 194.1 192.2 188.5 185.1 186.5 190.7 194.7 197.5 199.8 201.1 201.2 199.8 197.3 195.2 193.4 192.7 194 197.2 201.3 206.5 211.6 216.2 220.3 224.3 227.7 230.9 233.3 234.4 235.2 234.9 233.9 231.6 228.9 225.6 221.6 216.6 211.3 205.6 198.9 192.7 187.2 182.7 178.1 173.2 168.5 164.9 162.3 160.5 160.3 161.1 161.6 163.5 165.1 166 167 166.9 165.5 161.7 155.5 147.9 141.7 139.1 138.4 138.9 143.4 148.8 152.1 153.8 154.6 155.9 157.9 159.8 162.6 165.6 168.9 171.8 175.2 178.2 180.1 182.3
-1.7 -1.7 -1.7 -1.7 -1.7 -1.7 -1.7 -1.7 -1.7 -1.7 -1.7 -1.7 -1.7 -1.7 -1.7 -1.7 -1.7 -1.7 -1.7 -1.7 -1.7 -1.7 -1.7 -1.7 -1.7 -1.7 -1.7 -1.7 -1.7 -1.7 -1.7 -1.7 -1.7 -1.7 -1.7 -1.7 43 62.7 86.2 93.6 99.3 103.8 106.5 108.5 109.9 110.2 110.4 110 109.5 109 107.7 105.7 105 105.3 105.4 103.7 100.6 98.5 97.7 97.5 98.5 102 106.8 111.4 116.1 120.8 124.3 128.5 132.8 137.2 141.3 146.1 150.6 153.6 153.6 151.8 149.5 148 145.6 146.3 150.3 155.1 159.9 164.8 168.3 170.7 173.1 175.6 178.8 181.9 184.9 187.8 190.8 193 194.2 193.4 191.6 189.7 187.6 185.3 182.7 180.2 177.8 175 171 169.3 171.4 174.8 178.3 180.6 182.8 185.1 187.8 190.5 192.9 194.9 196.7 197.6 196.2 196.8 195.1 193.6 191 188.1 190.2 194.4 198.2 201 203.5 205 205.4 204.7 202.5 199.9 197.6 195.9 195.7 197 200.8 206.2 212 216.3 220.4 224.6 228.2 231.3 233.5 234.8 235.9 235.9 235 232.9 230.4 226.8 222.2 217.1 211.2 205.1 199.2 192.4 187.1 182.6 178.3 173.9 169 164.7 161.5 159.7 157.6 157.6 158.1 158.5 160 162.3 164.2 165 164.6 162.6 158.3 152 145.8 141 138.5 138 141.7 147.2 151.4 152.9 152.8 152.5 153.7 156.1 158.7 163.4 166.9 170.7 174.2 177.4 179.8 181.7
-1.7 -1.7 -1.7 -1.7 -1.7 -1.7 -1.7 -1.7 -1.7 -1.7 -1.7 -1.7 -1.7 -1.7 -1.7 -1.7 -1.7 -1.7 -1.7 -1.7 -1.7 -1.7 -1.7 -1.7 -1.7 -1.7 -1.7 -1.7 -1.7 -1.7 -1.7 32 26.2 -1.7 -1.7 -1.7 37.3 71 87.1 99.2 104 107 108.9 110.6 112.1 112.4 112.7 112.8 112.6 112.2 111.6 110.7 110.2 110.6 111.2 110.8 109.6 107.1 105 103.1 101.8 103.3 106 110.5 114.8 119.1 124 128.3 132.6 137.7 142.7 147.8 152.5 156.7 157.6 156.1 154.5 153 151.5 150 152 156.1 160.3 164.9 169.8 174 176.2 178.4 180.6 183 185.3 187.9 190.3 192.3 192.8 192.8 192.1 191 189.5 188.1 186 183.5 180.7 177.9 174.1 172.1 172.5 174.8 177.2 179.5 181.7 184.9 188.1 190.4 192.8 195.7 197.8 199.2 199.3 198.2 196.4 194.6 192 191.1 193.5 197.5 200.7 203.9 206.5 208.2 209.1 208.7 207 204.6 202.2 200.3 198.5 199.3 201 206.8 212.2 216.2 220.1 224.5 228.2 231.5 233.6 235.1 236.4 236.9 235.6 233.8 231 227.1 222.6 216.5 210.2 204.6 198.4 192.5 187.3 182.6 178.3 173.9 169.2 165.4 162.3 159 156.5 154.8 154.6 154.7 155.6 158 160.5 162.1 162.8 161.8 159.3 155.5 150.4 145.4 140.4 137.8 139.8 145.6 149.7 151.1 150.1 148.9 149.2 151.7 155.2 160 164.7 168.4 171.7 175 178.3 180
-1.7 -1.7 -1.7 -1.7 -1.7 -1.7 -1.7 -1.7 -1.7 -1.7 -1.7 -1.7 -1.7 -1.7 -1.7 -1.7 -1.7 -1.7 -1.7 -1.7 -1.7 -1.7 -1.7 -1.7 -1.7 -1.7 -1.7 -1.7 -1.7 -1.7 -1.7 62.1 72.3 52.3 34.2 42.2 62.1 78.4 90.6 101.6 106.2 109 110.8 112.4 113.8 114.4 114.9 115.2 115.2 115.1 114.9 114.5 113.8 113.8 114.6 114.7 114.3 112.7 110.6 108.5 105.9 105.2 106.6 109.7 113.7 117.6 122.4 127.1 132 137.4 142.6 147.7 152.8 157.6 159.8 159.4 158.3 157.6 156.6 156.2 155.2 157.4 161 164.8 169.4 174.7 177.5 179.1 180.9 182.8 185.2 187.6 189.5 190.6 191.2 191.2 191.5 191.3 191.1 190 188.6 186 183.3 180.6 178 176 174.4 175.8 177.7 180.1 183.2 186.7 190 192.3 194.7 197.1 199.4 200.8 201 199.8 197.4 195.2 193.4 194.2 196.5 199.8 203 206.1 209 211.3 212.3 212 211.1 209 206.9 205 203.1 203.2 204.8 208.1 212.1 215.9 219.8 223.8 227.4 230.6 232.8 234.6 235.8 236.2 235.3 233.6 230.6 226.2 221.3 215.3 209 203.1 197 191.6 186.6 181.7 177.5 173 169 165 161.9 158.8 155.7 152.9 152 151.6 152.1 154.5 156.9 158.6 160.1 160.1 158.3 157 153.5 149 143.3 138.2 137.7 141.8 146.5 148 146.5 144.9 144.8 147.3 151.7 156.6 161 164.8 168.1 171.7 175.4 177.7
-1.7 -1.7 -1.7 -1.7 -1.7 -1.7 -1.7 -1.7 -1.7 -1.7 -1.7 -1.7 -1.7 -1.7 -1.7 -1.7 -1.7 -1.7 -1.7 -1.7 -1.7 -1.7 -1.7 -1.7 -1.7 -1.7 -1.7 -1.7 -1.7 -1.7 -1.7 -1.7 79.8 87.1 74.6 76.5 79.1 86.8 95.1 103.1 107.8 110.6 112.6 114.3 115.4 115.9 116.6 117.2 117.7 118 118 117.6 116.9 117.3 118 118.2 118 116.8 115.2 113.4 110.3 108.8 106.7 108.5 112.5 115.9 120.2 125.2 130.8 136.3 142 147.2 152.4 157.4 160.7 161.2 161.3 161.4 160.9 160.5 159.9 159 161 164.3 168.3 172 175.8 178.4 180.3 182.2 184 185.8 187.4 188.6 189.4 189.3 190.1 190.8 191.7 191.4 190.3 188.6 186.3 183.9 181.7 179.9 178.6 177.9 178.8 181 184.9 188.8 192.4 195 197.1 199.1 201 202.3 202.5 201.4 198.8 196.4 195.2 196.2 198.5 202 205.2 208.1 210.9 213.3 214.8 215.1 214.4 212.8 210.9 209.5 208.1 207.7 208.7 210.2 212.8 216.3 219.6 223.1 226.6 229.6 231.7 233.6 234.9 235.1 234.5 232.4 229.3 224.8 219.8 213.4 207.2 201.3 194.9 189.8 185.2 180.6 175.7 170.9 166.8 163.6 161 158.2 155.2 151.3 149.4 149.3 149.7 151.1 153.2 155.5 157.5 158.4 157.8 156.7 155.2 151 146.1 139.8 136.8 138.1 141.7 143.2 142.4 140.6 140.6 143.6 148 152.3 156.4 160.1 163.7 167.3 170.9 173.5
-1.7 -1.7 -1.7 -1.7 -1.7 -1.7 -1.7 -1.7 -1.7 -1.7 -1.7 -1.7 -1.7 -1.7 -1.7 -1.7 -1.7 -1.7 -1.7 -1.7 -1.7 -1.7 -1.7 -1.7 -1.7 -1.7 -1.7 -1.7 -1.7 -1.7 -1.7 -1.7 90.3 104.3 97 92.8 92.6 94.1 100 106 110 112.2 114 115.7 117.1 118.2 119.1 120 120.8 121.1 121 120.4 120.1 120.3 121 120.9 120.7 119.8 118 115.9 113.7 112 109.3 110.1 112.3 115.4 118.8 123.4 129.4 134.9 140.8 146.4 151.8 156.7 160 162.1 163.2 163.6 164.3 164.3 163.9 163.1 161.9 164 167.7 170.5 173.5 175.9 178.2 180 181.8 183.5 185.2 186.5 187.6 187.8 188.4 189.8 191.1 191.5 191.2 190 188.1 186.6 185.1 183.7 182.2 180.9 181.1 182.3 186.7 191.2 194.9 198 200.2 201.8 202.6 203.6 203.8 202.9 200.2 197.9 197.1 197.4 199.5 203.1 206.4 209.3 212.1 214.3 215.7 216.4 216.4 215.8 214.9 213.4 212.1 211.9 212.4 213.4 214.2 216.9 219.7 222.8 226.2 228.7 230.5 232.2 233.6 233.7 232.9 230.2 226.9 222.8 217.6 211.4 205.3 199.1 193.1 187.8 182.3 177.4 172.3 167.1 163.3 161 158.4 155.7 152.8 149.6 147.9 147.2 147.2 147.8 149.2 151.3 154.1 155.9 156 155.4 153.9 151 146.7 141.4 137.4 136 136.5 136.8 136.6 136.1 136.5 139.3 143.5 148.1 152.2 156.8 160.8 163.8 166.4 170.2
-1.7 -1.7 -1.7 -1.7 -1.7 -1.7 -1.7 -1.7 -1.7 -1.7 -1.7 -1.7 -1.7 -1.7 -1.7 -1.7 -1.7 -1.7 -1.7 -1.7 -1.7 -1.7 -1.7 -1.7 -1.7 -1.7 -1.7 -1.7 -1.7 -1.7 -1.7 -1.7 50.5 93.5 107.2 103.6 101.2 100.8 104.6 108.7 112.1 114.1 116.1 118.1 119.4 120.8 121.9 123.1 123.8 124.4 124 124.1 123.9 123.7 123.9 123.8 123.4 122.4 120.5 118.4 116.2 114.7 113.3 113.3 114.9 116.8 119 122.8 128.1 133.4 139.5 145.2 150.7 155.8 159.1 162 164.2 165.2 166.7 166.8 167.1 166.4 166.2 166.7 168.6 170.9 172.5 174.3 176.3 178.2 179.6 181.4 183.1 184.4 185.6 186.2 187.5 188.9 190.4 191.1 191.3 190.8 189.7 188.5 187.8 186.8 185.7 184.8 184.3 184.8 188.7 193.5 197.3 200.9 203.4 204.5 205 205.4 205.2 204.2 201.8 199.7 199.1 198.9 200.9 203.4 206.8 210 212.3 214.4 216.2 217.2 217.7 217.7 217.1 216.3 215.6 215.1 215.4 216.2 216.9 217.7 220.6 222.9 225.7 227.5 229.1 230.3 231.5 231.3 229.8 227.3 224.2 220 215.3 209.6 203.7 197.1 190.6 184.9 178.8 173.1 168.2 164 160.9 158.4 155.9 153 150.7 148.5 147.1 145.4 144.3 144.7 145.5 147.2 150.1 152.9 153.9 154.1 153 151.9 148.3 144.3 140.4 138.1 136.6 135.7 133.7 133.3 133.4 134.6 138.6 143.6 148.8 153.8 158.4 161.5 164.6 168.3
-1.7 -1.7 -1.7 -1.7 -1.7 -1.7 -1.7 -1.7 -1.7 -1.7 -1.7 -1.7 -1.7 -1.7 -1.7 -1.7 -1.7 -1.7 -1.7 -1.7 -1.7 -1.7 -1.7 -1.7 -1.7 -1.7 -1.7 -1.7 -1.7 -1.7 -1.7 -1.7 -1.7 65.3 100.8 106 104.4 105.5 107.9 111.3 114.1 116.5 118.5 120.7 122.5 124.2 125.6 126.7 127.6 128.1 128.4 128.4 128.3 127.8 127.4 126.7 126 124.7 122.9 120.8 118.7 117 117 116.6 117.6 119.2 120.9 123.9 127.4 132.1 137.9 143.4 148.7 153.7 158.4 161.7 164.4 166.7 168.5 169.5 169.6 169.3 169 170.2 172.3 173.8 174.9 175.6 176.3 177.4 179 180.3 181.4 183 184.1 185.4 186.9 188.5 190 190.6 191 191.1 190.4 190.3 189.8 189.4 189.1 188.4 187.6 188.6 190.8 195.3 199.4 202.9 205.4 206 206.1 206.3 206.2 205.1 203 201.6 201.1 200.7 202 204.4 207.4 210.1 212.2 214.2 215.8 216.9 218 218.5 218.5 218.2 217.8 217.4 217.5 218.2 218.8 219.8 221.4 223.4 225.3 226.9 227.9 228.6 229.2 228.8 227.1 224.3 221.1 217.4 213 208 202.4 195.9 189.1 181.9 174.4 169.4 165.9 163 160.1 157.1 154.3 151.8 149.7 147.7 146 143.8 142.3 141.5 142.4 143.3 146 149 150.7 152.2 153.3 152.2 150.5 147.4 144.4 142.6 141.1 139 134.9 132.5 132.4 132.6 134.5 140.1 146.8 152.8 157.7 160.8 163.7 166.6
-1.7 -1.7 -1.7 -1.7 -1.7 -1.7 -1.7 -1.7 -1.7 -1.7 -1.7 -1.7 -1.7 -1.7 -1.7 -1.7 -1.7 -1.7 -1.7 -1.7 -1.7 -1.7 -1.7 -1.7 -1.7 -1.7 -1.7 -1.7 -1.7 -1.7 -1.7 -1.7 1.3 53.6 85.1 99.3 103.2 106.1 109.8 113.3 116 118.7 121 123.3 125.5 127.4 129 130.4 131.7 132.4 132.8 132.8 132.1 131.4 130.8 129.8 128.7 127.3 125.6 124.3 122.6 121.2 120.7 120.4 120.8 121.5 122.9 125.8 129.6 132.1 135.9 141.3 146.8 151.9 156.9 161.5 165 168 170.5 171.5 171.9 171.6 171.6 172.8 174.4 176.1 177.3 177.9 178.6 178.8 179.1 179.8 180.9 182.1 183.1 184.3 186 188 189.4 190.1 190.7 190.8 191 191.2 191.3 192 192.6 192.4 192 192.2 194.1 197.3 201.1 203.9 206 207.1 207.3 207.2 206.5 205.8 204.2 203.5 203 202.9 204 206 207.8 209.7 211.6 213.3 215.1 216.7 217.8 218.6 219.2 219.3 219.3 219.1 219.4 220.1 220.7 221.9 222.8 223.8 225.1 226.5 227 227 227 226.1 224.1 221.3 218 214.3 210.8 206.1 201.3 195 187.7 180.4 174.7 170.6 166.8 163.6 160.4 157.3 153.9 151.4 149.5 147.2 145 142.9 140.8 139 139 139.8 141.3 144.4 147.9 150 152 152.6 151.7 150.1 147.3 145.3 143.6 141.2 136.7 132.4 131.3 131.5 132.8 138 146.4 155.1 160 162.5 164.5 166.4
-1.7 -1.7 -1.7 -1.7 -1.7 -1.7 -1.7 -1.7 -1.7 -1.7 -1.7 -1.7 -1.7 -1.7 -1.7 -1.7 -1.7 -1.7 -1.7 -1.7 -1.7 -1.7 -1.7 -1.7 -1.7 -1.7 -1.7 -1.7 -1.7 5.9 35.7 1.6 2.1 40 73.1 86.8 96 102.8 109.4 114.2 117.6 120.5 123.8 126.3 128.2 130.4 132.2 134.1 135.7 136.5 136.9 137.1 136.5 135.8 134.3 133.5 132.6 131.1 129.3 127.8 127 126.4 125.3 124.1 123.8 124.1 125.4 128.2 132.2 135.5 137.2 140.1 145.4 150.8 155.8 160.8 165.1 168.9 171.4 173.2 173.7 173.9 174.2 175.2 176.6 178.2 179.7 180.4 181.3 181.8 181.8 181.6 181.1 182.2 182.8 183.9 185.3 187 188.3 189.5 190.4 190.6 191.1 191.6 192.2 194.1 194.9 195.5 195.4 195.3 196.4 199.2 201.7 203.6 205.7 206.8 207.1 207 206.6 204.9 205.6 205.5 205 205 205.8 207.3 208.5 209.4 210.4 212.1 213.9 216 217.3 218.6 219.4 220 220.2 220.4 220.5 221.7 222.7 223.8 224.9 225.8 226.5 226.9 226.9 226.6 225 223.2 220.6 217.7 215.1 211.7 208.4 204 198.4 193 186.2 181.4 178.9 176 172.8 168.1 163.9 160.7 156.5 152.1 149.6 147.5 145.4 143.3 141.1 138.9 137.1 136.6 137.3 139.3 143.7 147.8 150.3 152.4 152.6 151.7 149.3 146.9 144.8 142.8 140.7 135.3 130.3 130 131.8 138 147.6 157.5 162.5 164.5 165.6 166.2
-1.7 -1.7 -1.7 -1.7 -1.7 -1.7 -1.7 -1.7 -1.7 -1.7 -1.7 -1.7 -1.7 -1.7 -1.7 -1.7 -1.7 -1.7 -1.7 -1.7 -1.7 -1.7 -1.7 -1.7 -1.7 -1.7 -1.7 -1.7 -1.7 -1.7 63.2 39.7 39.2 59.4 70 82.3 91.2 100.7 109.1 114.6 119.6 122.4 126.5 129.6 132.3 134.2 137.2 141.1 142.3 143.1 143.6 143.4 142.2 140.9 139.4 138.1 136.8 135.1 133.3 132 131.3 130.7 130.3 129.1 128.5 128.7 129.1 131.3 135.7 139.4 142.2 143.4 145.1 149.4 154.7 159.7 164.8 168.7 172.1 174.2 175.2 175.7 176.3 177.5 179 180.4 182.1 183.1 184.2 184.9 185 184.3 183.1 182.4 182.7 183.4 184.7 186 187.3 188.6 189.8 190.6 191.3 192.1 192.9 195.5 197.1 198.2 198.2 198 198.6 199.7 201.6 203 204.5 205.8 206.3 206.1 206.5 206.2 206.4 206.4 206.6 206.9 207.1 207.8 208.5 208.5 209.5 210.9 213 215.2 216.7 218.1 219.3 219.9 220.2 220.6 221.4 223.2 224.6 225.8 227.2 227.8 228.3 228.5 227.9 226.9 224.8 221.5 217.8 214.7 212 209.3 206 201.1 195.4 189.9 185.9 185.1 184.2 182.4 179.5 175.1 170.3 166 161.2 155.4 151.7 149.1 146.5 144.2 142 140 136.9 135 134.6 135.4 139.5 144.9 148.3 151.2 152.1 151.3 149.5 146.9 145.1 143.7 142.1 139 132.2 128.4 131.2 139.1 148.5 157.4 163.3 165 165.6 166
-1.7 -1.7 -1.7 -1.7 -1.7 -1.7 -1.7 -1.7 -1.7 -1.7 -1.7 -1.7 -1.7 -1.7 -1.7 -1.7 -1.7 -1.7 -1.7 -1.7 -1.7 -1.7 -1.7 -1.7 -1.7 -1.7 -1.7 -1.7 -1.7 -1.7 90.4 77.7 78.8 82.7 85 91 97.3 103 109.1 115.4 120.5 125.1 129.3 133 136 140.4 146.9 152.9 154.9 153.3 153.1 151.8 149.5 147.7 145.4 143.4 141.8 140.5 137.7 136.4 136 134.9 134.5 134.1 133.9 134.2 134.8 135.9 139.7 142.7 145.5 148 149.1 150.4 153.6 158.8 163.8 168 171.3 173.9 175.7 176.7 177.6 178.6 180.5 182.2 184 185.9 187.4 188.1 187.7 186.9 185.7 183.8 183.3 183.7 184.2 185.4 186.7 188 189.1 190.5 191.9 192.9 193.1 196 198.6 199.6 199.5 199.3 199.2 199.6 200.8 201.9 203.3 204.5 205.3 205.6 206 206.5 207.3 207.6 207.9 208 207.9 208 208.1 208 208.4 210 212.2 214.3 216.2 217.3 218.5 219.8 220.2 221 222 223.6 225.9 227.8 229.6 230.7 231 230.3 229.2 227.4 224.8 221.3 217.1 213.4 210.4 207.3 204.1 199.5 194.6 191.1 191.1 190.8 189.8 187.9 185 180.5 175.9 170.4 164.2 158.5 154 151.3 149.2 146.7 144.1 141.5 138.5 135.8 133.6 132.6 135.7 141.1 145.4 148 149.7 149.6 148 145.6 143.4 142.5 141.8 139.4 132.8 127.6 130.1 138.8 147.2 154.9 160.4 163.4 165 166
-1.7 -1.7 -1.7 -1.7 -1.7 -1.7 -1.7 -1.7 -1.7 -1.7 -1.7 -1.7 -1.7 -1.7 -1.7 -1.7 -1.7 -1.7 -1.7 -1.7 -1.7 -1.7 -1.7 -1.7 -1.7 -1.7 26.4 -1.7 58.3 74.6 94.2 106.9 108.4 104 103.3 103.5 104.8 107.6 111.7 117.2 122.4 127.6 132.2 136.2 141.2 147.7 157.1 165.5 170.1 171.7 168.1 163.4 159.9 155.8 152.2 149.9 147.5 145.7 143.8 142.9 142 141 140.1 139.9 139.6 140.2 141 142.1 143.5 145.6 148.5 151.1 152.9 153.7 154.8 158 162.5 166.7 169.9 173.2 175.3 176.3 177.6 179.3 181.3 183.3 185.8 188.4 190.3 191.1 190.4 189.6 187.8 185.6 184.1 183.9 184 185.2 186.4 187.5 188.7 190.3 191.9 193.4 194.7 197.2 199.1 200.4 200.6 199.8 198.7 198.4 199.2 200.3 201.2 202.4 203.7 205 206.1 207.2 208 208.4 208.6 208.6 208.3 207.7 207.2 206.8 207.1 209.2 211.4 213.5 215.2 216.3 217.9 219.3 220.4 221.6 222.5 224 226.4 229 231.4 232.9 233.1 232.1 230.1 228 225.1 221.3 217.1 212.4 209 205.7 202.6 199.4 197.1 195.4 194.7 194.7 193.1 190.9 187.3 183.4 178.2 172.6 166.8 161.3 157.7 155.7 153.6 151.4 148.8 145.8 141.5 137.9 134.6 132 132.2 136.3 140.6 143.9 146 146 144.8 142.8 141.1 140.1 139.8 138.5 132.7 127 130 136.7 144.6 151.4 157.1 161.5 164.2 166.3
-1.7 -1.7 -1.7 -1.7 -1.7 -1.7 -1.7 -1.7 -1.7 -1.7 -1.7 -1.7 -1.7 -1.7 -1.7 -1.7 -1.7 -1.7 -1.7 -1.7 -1.7 -1.7 -1.7 -1.7 -1.7 -1.7 45.2 79.2 97.1 107.7 111.4 116.6 117.8 116.9 116 115.3 115 114.4 115.6 119.6 124.4 129.7 134.5 139.1 145.2 153.7 164.5 174.7 181.7 189.3 185.5 182.8 174 164.6 159.6 156.2 153.9 151.8 150.3 149.9 149.8 149.4 148.9 147.8 147 145.4 145.9 146.3 147.5 148.7 150.8 153.2 155.4 157 157.7 158.1 161.2 165.3 168.6 171.5 174.2 176.2 178.1 179.9 182.2 184.5 187.1 189.9 192.6 193.7 193.2 192 189.9 187.3 184.9 184 184.2 184.9 185.9 187.1 188.3 189.7 192 193.8 196.1 198.1 199.4 200 200.1 199.4 198 196.4 196.9 197.9 198.8 200.2 202 204.1 205.4 207 208 208.6 209 208.5 207.9 207.3 206.6 206.1 206.9 208.3 210.6 212.4 214 215.4 217.3 218.9 220.4 222 223.7 224.9 227.1 230 232.7 234.5 234.4 232.9 230.9 228.6 225 221.1 216.8 212.1 207.5 204.1 201.7 199.8 198.5 198.1 197.8 197.3 195.5 192.8 189 184.9 179.6 174.2 169.8 166.3 163 160.8 158.5 156.3 153.5 150.8 147 142.2 138.3 134.3 131.3 131.5 134.8 138.6 140.8 141.4 140.5 139.2 138.2 137.3 136.9 136.4 131.9 126.7 128.8 134.9 141.8 148.7 155.7 160.9 164.8 167.4
-1.7 -1.7 -1.7 -1.7 -1.7 -1.7 -1.7 -1.7 -1.7 -1.7 -1.7 -1.7 -1.7 -1.7 -1.7 -1.7 -1.7 -1.7 -1.7 -1.7 -1.7 -1.7 -1.7 -1.7 -1.7 37.8 72.7 97.4 111.8 116.5 118.9 120.2 121.3 122 121.9 121.6 120.9 120.3 120.5 122.9 127.1 131.6 136.6 141.5 148.1 158.1 169.7 181 189.8 198.7 203.6 198.1 189.8 175.3 168 163.6 161.3 159.4 157.4 156.5 157.8 158.8 158.5 158 155.7 152.2 151.3 151.2 150.8 151.5 152.6 154.9 157.1 159 160.2 160.1 161 164 167 169.8 172.4 174.7 177 179.7 182.5 185.3 188.3 191.3 194 196.2 196 194.5 192.3 189.6 187 184.9 184.9 185.4 186.2 187 188.1 189.8 191.9 193.9 196 197.8 198.8 199.5 199.5 198.6 197.3 195 194.1 194.7 195.7 197.4 200.2 202.9 204.6 206.2 207.6 208.1 208.2 207.8 207.3 206.4 205.5 205.2 206.4 207.8 209.7 211.2 212.8 214.9 216.9 219 220.7 222.3 224.1 226 226.9 229.5 232.3 234.1 234.2 233.4 231.5 228.7 225.3 221.6 217 212.2 207.4 204 202.4 200.5 199.7 199.1 198.9 197.7 196.2 193.8 190.5 185.9 181.2 177.9 174.7 171.2 167.9 165.2 162.1 160 158.3 155.7 151.5 147.1 144 140.1 134.8 130.9 129.6 132.4 134.8 136 135.9 134.9 134 133.9 133.7 133.2 129.3 125.9 129.8 135.3 142.1 149.2 155.2 160.3 165.1 168.4
-1.7 -1.7 -1.7 -1.7 -1.7 -1.7 -1.7 -1.7 -1.7 -1.7 -1.7 -1.7 -1.7 -1.7 -1.7 -1.7 -1.7 -1.7 -1.7 -1.7 -1.7 -1.7 -1.7 -1.7 -1.7 35.4 74.7 99.8 114.6 118.5 121.3 122.6 124.1 125.1 125.6 126 125.3 124.8 124.9 125.6 128.9 133.2 137.9 143.2 150.2 160.1 171.5 183 196.2 204.8 213.4 213.1 202.6 186.9 177.4 170.9 167.6 165.3 163.4 162.9 164.8 167.1 168.9 169.1 167.6 162.3 157.4 156.1 155.5 154.7 155.1 156.4 158.5 160.3 161.8 162.4 162.7 163.4 165.5 167.9 170.5 173.2 175.9 179.2 182.4 185.6 188.7 191.8 194.9 197.4 198.5 197 194.7 192.1 189.2 186.7 186.6 186.6 186.6 187.3 188 189.8 191.9 193.9 195.5 196.9 198 198.2 198.1 197.6 196.5 194.2 191.7 191.5 192.9 195.3 198.2 201.2 203.5 205.2 206.3 206.6 206.8 206.6 205.7 204.9 204.1 204.1 205.3 206.5 207.9 210 212.4 214.7 216.8 219 221 222.6 224.4 226 227.1 228.2 230.7 232.5 233.1 232.4 231.2 229 225.7 221.4 216.8 212.3 208 204.8 202.9 201 199.6 198.7 198 197.1 196.1 194.2 191.7 188.9 185.9 183.4 180 175.8 171.8 168.1 164.6 162.1 159.4 156.7 154 151.6 149.2 145.9 140.2 133.4 127.8 127.1 128.2 129.5 129.6 129.3 128.7 128.5 128.2 128.2 126.1 127.7 132.9 137.7 143.4 149.2 154.7 159.8 164.8 169.2
-1.7 -1.7 -1.7 -1.7 -1.7 -1.7 -1.7 -1.7 -1.7 -1.7 -1.7 -1.7 -1.7 -1.7 -1.7 -1.7 -1.7 -1.7 -1.7 -1.7 -1.7 -1.7 -1.7 -1.7 -1.7 23.9 70.7 95.6 113.7 119 123 124.7 126.5 128 129.6 129.8 129.7 129.1 129.1 129.6 131.5 135 139.5 145 152.1 160.4 169.5 181 194.8 206.3 214.9 221.7 212.3 197.9 185.3 177.5 173.9 171.4 169 168.4 170.5 173.7 178.2 180 178.8 174.7 166.3 161.5 159.8 158.7 158 158.5 159.4 161.6 162.9 164.2 164.8 164.4 164 166.1 168.7 171.4 174.4 178.1 181.7 185.4 189 192.1 195.2 198.4 200.1 199.3 197.2 194.7 191.9 189.2 188.2 188 187.4 187.8 188.3 189.5 191.6 193.4 194.6 195.9 196.2 196.3 196.1 195.5 194.9 193 190.3 189.3 190.5 193.4 196.6 199.7 201.7 203.4 204.1 204.5 204.7 204.4 203.8 202.9 202.2 202.3 203.4 204.6 206.4 208.9 211.9 214.2 216.7 218.9 221.1 222.9 224.7 225.9 226.8 227.4 228.4 229.9 231.2 230.9 230.4 228.6 225.5 220.8 216.7 213.1 209.1 205.8 203 200.4 198.9 197.2 195.9 195.1 194.9 194.2 193.2 191.8 189.8 187.1 183.8 179.3 175 170.6 166.7 163 159.4 155.4 153.1 152.5 151.5 148.7 142.1 134.3 128.4 125.1 123.3 122.7 122.8 123 123.1 123.3 122.5 122.8 124.5 129.4 134.8 139.8 144.4 149.1 153.8 158.8 163.5 168.1
-1.7 -1.7 -1.7 -1.7 -1.7 -1.7 -1.7 -1.7 -1.7 -1.7 -1.7 -1.7 -1.7 -1.7 -1.7 -1.7 -1.7 -1.7 -1.7 -1.7 -1.7 -1.7 -1.7 -1.7 -1.7 28.1 68.6 96.3 112.7 120.7 125 126.9 129.5 131.8 133.5 134.5 134.8 134.1 133.7 134 135.2 137 141.1 146.9 153.9 160.7 168.2 176.8 188.1 200.4 211.8 220.3 217.2 209.7 197.4 185.5 180.7 178 175.5 174.2 175.5 178.8 183.4 190.7 189.1 184.8 175.8 168.1 164.6 162.6 161.7 160.8 161.4 162.6 164 165.4 166.2 165.6 163.9 164.6 167.2 169.9 173.1 176.8 180.5 184.3 188.2 191.9 195.4 198.5 200.6 201.1 199.5 197.1 194.6 192 190.2 189.4 188.4 188.3 188.5 189.8 191.3 192.7 193.6 194.2 194.2 194.3 193.8 193.3 192.7 191.7 189.2 187.9 188.8 191.6 194.8 197.7 199.8 201.2 201.7 201.8 201.7 201.2 200.5 199.6 199.4 200.3 201.8 203.1 205.6 208.2 211.2 213.5 215.7 218.7 221.2 223.3 224.8 225.7 226.6 226.5 226.4 227.3 228.7 229.1 228.7 227.7 225.1 220.8 217.3 214.8 211.6 207.9 203.9 200.4 197.4 195.5 194.3 192.9 193.2 193.5 193.9 193.4 191.5 189.3 186.2 181.5 176.4 172 167.7 163 157.9 152.5 149.3 149.6 150.2 147.7 139.8 133 130.5 127.1 123.6 121.2 119.5 118.7 118.9 118.7 118 120.7 124.4 129 134.6 139.4 143.6 147.8 152.1 156.1 160.4 164.7
-1.7 -1.7 -1.7 -1.7 -1.7 -1.7 -1.7 -1.7 -1.7 -1.7 -1.7 -1.7 -1.7 -1.7 -1.7 -1.7 -1.7 -1.7 -1.7 -1.7 -1.7 -1.7 -1.7 -1.7 -1.7 60.9 90.6 106.9 116.8 123.4 126.7 129.7 132.8 135.1 137.2 139.4 142.4 142.3 140.6 139.1 139.4 140.3 143.6 149.2 155.6 161.7 168.3 175.2 183.2 193.1 203 216.4 224.2 220 208.5 194.5 188.3 184.7 182.5 181.1 181.1 183.9 187.7 195.1 200.4 194.7 185.8 175.7 169.9 166.9 165.3 164.3 163.7 164.4 165.1 166.5 166.9 167 165.2 164.1 166.3 168.6 171.9 175.6 179.5 183.5 187.4 191.4 194.9 198 200.6 201.4 200.6 198.9 196.4 194.1 191.9 190.8 189.6 189.3 189 189.6 190.7 191.6 192.3 192.6 192 191.8 190.8 190.4 190 189.2 187.5 186.7 188.3 189.9 193.1 195.4 197.3 198 198.6 198.5 197.9 197.3 196.8 196.2 196.8 198.2 199.9 202.3 205.2 208 210.7 213.1 215.8 218.5 221.3 223.3 224.8 225.9 226.2 226 225.6 225.7 226.5 227.1 227.1 226.6 224.6 222.1 220 217.2 213.9 210 205.5 200.9 197.2 194.6 192.8 191.2 191 192.3 192.7 192.9 191.9 189.8 187 182.7 177.6 172.7 167.2 161.1 154.9 149 145.4 145.1 145.7 143.7 138.6 136.2 133.5 130.1 126.7 123.7 121.3 119 116.7 115.8 116 119.5 123.5 127.8 132.5 137.3 141.6 145.6 149.6 153.6 157.4 160.9
-1.7 -1.7 -1.7 -1.7 -1.7 -1.7 -1.7 -1.7 -1.7 -1.7 -1.7 -1.7 -1.7 -1.7 -1.7 -1.7 -1.7 -1.7 -1.7 -1.7 -1.7 -1.7 -1.7 -1.7 38.5 87.8 109.8 119.2 123.6 127.1 130.2 133 136.1 138.6 141.5 144.8 148.7 151.2 151 148.8 146 145.6 147.9 152.5 157.8 163.4 169.1 175.5 182.5 190.2 199.1 211.9 223.7 227 218.5 203.3 195.3 191.6 188.7 187 186.5 189.1 192.5 198.5 206.5 204.8 196.9 187.3 177.8 171.8 169.5 167.9 167.1 166.7 167.1 167.6 168 168.5 167.4 165.6 166 168.3 170.7 174.6 178.6 182.6 186.5 190.5 194 197 199.4 200.6 200.7 199.8 197.8 195.3 193.1 191.9 190.8 190.2 189.8 188.7 189.7 190.1 190.8 190.8 190.2 189.1 187.8 186.7 186.4 186.1 185.3 185.9 187.6 189.3 190.7 193 194.4 195 195.3 194.9 193.6 193.1 193.3 193.4 194.8 196.6 199 201.7 204.6 207.4 210.3 213.2 215.9 218.6 221 222.9 224.7 225.9 226.2 225.7 224.7 223.8 223.8 223.9 225.1 225.4 224.5 224.2 222.4 219.4 216 211.4 206.6 201.7 196.8 193.2 190.8 189.3 189.3 190 190.7 190.9 190.2 188.6 186.1 182.5 177.8 172.7 166 157.9 151.1 146.5 144.1 142.4 142.9 142 141 140.5 140.1 138.4 134.4 129.2 125.7 122.7 119.3 115.5 114 117 121.6 125.1 129.8 134.6 139 142.9 146.8 150.7 153.9 157.1
-1.7 -1.7 -1.7 -1.7 -1.7 -1.7 -1.7 -1.7 -1.7 -1.7 -1.7 -1.7 -1.7 -1.7 -1.7 -1.7 -1.7 -1.7 -1.7 -1.7 -1.7 19.1 51.7 49.9 72.1 98.8 120.9 126.6 129.8 132.1 134.2 136.6 139.5 142.7 145.7 150.2 155.2 159.4 162.5 162.9 159.7 155.7 155 156.7 160.8 165.9 170.3 176.1 182.7 190.6 199.1 209.5 220.1 229.3 227 212.2 202.4 197.8 194.8 192.8 191.7 193.8 197.2 202.2 208.8 212 207.2 198 187.4 178.5 174.2 171.4 169.6 168.5 168.7 169.4 170.3 170.9 170.2 168.3 166.5 167.8 170.2 173.3 177.3 181.3 185.2 188.9 192.6 195.5 198 199.1 199.7 198.9 197.9 195.9 193.5 192.3 191.7 191.1 190.5 189.2 188 188.1 188.8 189.1 187.9 186.6 184.1 182.8 182.6 182.1 183.1 185.1 186.9 188 188.8 189.9 191.4 191.7 191.4 190.8 189.9 189.6 190.4 191.1 193.4 195.8 198.2 201 203.9 206.9 209.8 212.8 215.8 218.6 220.7 222.8 224.2 225.2 225.8 225.3 223.5 222 221.4 220.7 221.4 222.7 224.2 224.5 223.7 221.1 217.3 212.5 207.2 202 196.5 192.2 188.7 186.8 186.2 187.4 187.9 187.9 187.5 186.1 184 180.5 176.6 171.6 164.4 155.2 148.4 145.6 144.8 145.6 147 147.9 149.1 149.9 149 147.1 143.3 137.9 133.2 128.8 122.9 116.2 112.4 113.8 118.6 122.2 127 131.7 135.5 139.3 143.2 147.1 151.1 154.7
-1.7 -1.7 -1.7 -1.7 -1.7 -1.7 -1.7 -1.7 -1.7 -1.7 -1.7 -1.7 -1.7 -1.7 -1.7 -1.7 -1.7 -1.7 -1.7 -1.7 -1.7 56.2 89 96.6 104.8 119.6 126.7 131.4 134.1 136.6 138.7 141.3 144 147.2 150.4 155.7 161.9 168 174 176.3 175.4 172.1 168.6 166.8 167.3 169.3 172.8 177.9 184.5 191.7 200.8 209.6 218.6 229 234.1 220.6 210 203.7 200.1 197.5 196.9 198.4 201.8 206 211.8 217.1 213.8 205.6 195.4 185.6 178.6 175.1 172.2 170.2 170.7 171.3 172.4 173.4 173 171 168.6 168.4 170.1 172.8 176 179.9 183.7 187.4 191.2 194 196.5 197.7 198.5 198.1 197.4 195.6 193.4 192.6 192.1 191.6 190.9 189.2 186.7 186.6 187.2 187.2 186.6 184.7 181.6 178.9 177.5 177.9 180.7 183.4 185.2 186.2 186.4 186.9 187.5 188 187.6 187.4 187.4 188.4 191.4 192.9 193.3 195 197.4 200.3 203.2 206.2 209.7 212.8 215.9 218.7 220.7 222.6 223.5 224.5 225.3 224.5 222.4 220.3 219.1 218.5 219 220.7 222.6 223.5 223 220.7 218 213 207.4 202.4 197 191.4 187.7 184.3 183.2 183.8 184.3 184.3 183.6 182.4 180.2 177.4 174.1 169.3 162.1 152.6 147.3 146.1 148 153 157.3 158.6 159.2 159.2 157.5 155.2 151 146.1 140.8 135.6 128.6 120.2 112.5 111.4 114.3 118.3 123.2 127.8 132 135.8 139.6 143.5 147.5 152.1
43.3 12.1 11.3 -1.7 -1.7 7.7 0.9 -1.7 1.2 34.9 53.4 49.9 31.6 12.7 26.8 -1.7 -1.7 -1.7 -1.7 45.4 63.6 87.2 101 118.3 124.2 128.8 132.2 135.5 138.1 141.4 144 145.7 149.2 152.7 157.3 163.6 170.5 177.6 184.7 189.9 191.8 191.2 187.5 183.1 179.8 178.3 178.9 182.2 187.9 194.2 203.8 210.8 218.8 227.9 236.8 230.2 215.8 208.7 205.1 202.3 201.1 202.6 205.5 209.9 215.2 220.5 217.8 210.2 200.8 191.4 183.6 178.8 175.6 172.6 172.6 173.2 174.5 176.1 175.6 173.4 170.9 169.3 170.1 172.2 175.3 179.3 183 186.8 190.3 192.6 195 196.3 197 197.3 196.6 195.2 193.8 192.8 192.2 191.4 190.7 189.3 187.2 184.9 184.8 185.1 184.2 182.6 179 175.1 173.8 174.8 178.4 181.2 183 184 184.7 184.6 185 185.4 185.6 185.8 186.9 190.3 193.9 195.3 194.9 194.8 196.6 199.5 202.4 205.5 209.6 213.1 216.3 218.8 220.7 222.2 223.5 224.1 224.7 223.7 221.6 218.5 216.9 216.9 217.6 218.2 220.3 221.3 221.1 219.8 217.1 213.4 208.4 203.3 197.7 191.7 186.6 183 180.7 180.1 180.4 180 179 178 175.8 173.4 169.9 165.6 158.4 150.5 147.4 147.6 152.4 159.6 164.3 166.1 165.6 164.9 163 160.3 156.1 151.4 146.4 140.9 134.4 125.9 116.6 110.8 111.1 113.9 118.8 123.7 128.2 132.3 136 140.2 144.6 151.1
73.7 61.4 49.1 37.6 42.9 42.9 33.7 30 36.7 60.9 84.1 74.6 68.3 71.8 61.9 26 43.6 56 58.3 71.3 96.2 109 117.1 124.2 130.4 134.3 136.8 140.3 144.8 150 153.4 154.3 158.3 161.8 168.7 174.5 180.8 187.9 195.5 201.9 206.6 208.7 206.2 201.6 195.3 190.9 188.5 189.9 193.8 198.9 207.7 213.7 219.5 227.1 234.6 241.7 226.4 213 209 206.1 205.1 207.1 209.3 213.6 218.1 222.2 221 213.5 204.5 195.7 188.2 182.5 179.2 176.4 175 175.4 176.6 177.5 177.6 175.4 172.6 170.1 170.1 172.2 174.9 178.9 182.8 186.3 189.4 191.9 193.8 195.1 195.9 196.4 196.2 195.2 194.3 193.3 192.2 191.3 190.4 189.1 186.6 183.4 181.4 181.9 181.5 180.1 177.4 173.1 170.7 171.6 174.8 178 180.7 182 182.7 183.2 183.7 184.4 184.7 185.4 187.8 192.6 195.8 196.6 195.6 194.7 195.1 198.3 201.6 204.8 208.9 213 216.6 218.9 220.4 221.7 223 223.9 223.9 222.6 221.1 218.1 215 214.5 215.4 216.2 217.1 218.5 218.7 217.6 215.8 212.8 208.7 204 198 191.4 186.3 182.6 179.5 177.8 176.7 175.4 174.4 172.3 170.3 167.7 164.4 160.4 154.3 149.6 148.4 150 155 162.3 166.8 169.2 169.6 168.3 166.3 163.3 159.5 154.8 149.8 144.2 138.2 130.2 121.7 115.4 111 110.2 113.7 119.1 123.8 128.2 132.2 136.8 142.2 148
96.1 89.2 77.2 72.2 81.6 76.2 75.4 69.8 72 83 93.9 97.9 100.9 107.7 87.2 52.5 68.1 93.3 99.2 101.4 112.2 121.7 126.2 130.2 134.6 138.3 141.7 147.1 154.6 160.7 165.2 168.1 171.4 174.9 178.8 184.5 191.2 198.6 206.2 213.6 220 222.5 221.4 216.9 210 203.4 200.2 200.9 204.3 208.8 214.6 219 223.3 227.5 231.6 234.5 234.6 217.6 212.4 209.2 208.3 210 212.5 216.1 220.3 223.6 223.2 216.6 208.2 200.6 193.8 187.5 183.4 180.3 178 177.6 178.7 179.1 178.8 176.9 174.1 171.3 170.5 172.2 174.7 178.6 182.1 185.3 188.3 190.8 192.8 194.3 195.2 195.8 195.9 195.6 194.9 194.1 192.9 191.6 189.6 187.7 185.8 183.1 179.1 178 177.9 177.2 175.2 171.2 168.4 169.5 172 175.4 178.5 179.8 180.9 182 182.9 183.6 184 185.7 190.2 194.2 196.3 196.4 195.1 192.9 193.8 196.2 199.6 203.4 207.8 212 216.1 218.8 219.9 220.8 221.9 222.5 222.2 221.2 219.7 217.1 213.6 211.9 212.8 213.8 213.9 215.1 215.8 214.9 213.7 211.3 207.7 203.3 197.2 190.8 186 181.6 179 176.9 175.2 173.1 170.7 168.2 165.5 162.7 159.6 155.6 152.6 150.8 151.4 152.9 156.6 162.3 167.8 170.5 171.5 170.5 168.3 165.2 161.6 156.9 152.1 146.7 140.8 134 125.8 120.5 115.8 109.5 110.2 114.4 118.8 123.2 127.9 132.8 138.1 142.5
103.1 100.4 92.4 90.2 96.3 99.1 98.8 98.9 100.9 101.6 103.6 104.5 108.1 110.7 100.2 81.7 95.7 107.7 113.6 115.6 120 125.5 130.2 133.8 137.5 141.9 146.9 154.1 165.2 173.9 177.3 179.6 181.7 185.3 188.2 193.1 199.9 207.1 214.9 223.5 230.7 233.9 233 229 221.8 215.2 211.3 211.8 213.7 217.8 221.5 224.2 226.4 227.9 229.3 229.4 227.8 220.2 215.1 211.7 211 212.3 214.9 218.4 222 225.3 225.1 219.8 212.5 205.8 200 194.1 189.4 186.2 183.1 181.5 180.7 181 179.7 177.6 175 172.2 171.1 172.6 174.3 177.8 181 184.2 187.3 189.6 191.7 193.3 194.4 195.2 195.9 196.1 195.5 195.5 194.3 192.4 189.1 186.2 183.1 180.2 177.1 173.8 173.3 173.2 171.4 167.5 168.2 172.6 175.3 177.3 178.5 179.4 180.2 181 182.1 182.8 183.9 187.2 191.4 194.7 196 195.9 194.5 192.2 191.6 193.9 197.6 201.6 205.8 210.2 214.4 217.3 218.9 220 220.5 220.7 220.4 219.4 217.8 215.1 212 209.9 210 211.1 211.6 211.6 212.1 211.6 211.2 209.3 206.1 201.9 196.1 189.7 184.6 180.7 178.6 176.8 175.6 173.9 171.5 168.9 165.1 161.1 157.7 154.5 153.3 153.1 154 155.4 158.3 162.7 167.9 171.4 172.3 171.5 169 166 162.1 157.9 153.4 148.5 142.8 136.6 130.3 125.4 120.4 111.2 107.3 110 113.7 117.5 123.2 129 134.5 138.4
105.2 103.2 98.5 97.4 100.3 103.6 105.5 107.3 108.6 109.4 110.3 109.5 109.1 109.8 105 98.5 105.6 113.1 117.3 120.5 123.3 127.9 132 135.7 139.3 144.2 151.7 160.8 172.6 184.3 190.6 191.5 192.9 195.3 198 202.1 208.7 215.6 222.3 230.9 238.6 242.8 241.2 237.8 231 224.7 221 220.9 222.3 225.5 227.7 229.6 230.1 229.1 228.1 226.2 223.7 220.2 217 213.8 212.8 214.2 216.5 219.8 223.3 226.1 225.9 222.3 217.2 211.2 206.3 201.3 196.8 192.8 188.8 185.7 183.5 181.9 180.6 178.2 175.6 173 171.9 172.7 174.1 177 179.9 183 185.7 188 190.4 192.1 193.5 194.5 195.5 196.9 197 197.1 196.2 193.8 190.4 186.5 182.3 178.9 174.5 171.2 168.9 167.9 166.2 164.9 171 175.3 177.7 179.3 179.6 179.8 180.2 181 181.7 182.4 183.8 187.5 191.8 194.4 195.3 194.9 193.2 190.7 189.5 191.6 194.8 198.5 202.6 207.1 211.5 214.3 216.4 217.7 218.2 218.3 217.9 216.8 215.5 213.1 210.4 207.7 207.7 208.5 209.4 209.6 208.4 208.3 208.2 207 204.1 200.3 195.1 188.6 182.2 179.1 178.4 178.1 178.2 177.4 175.6 172.7 168.5 162.9 158.7 156.6 155.9 155.7 156.5 158.4 161.1 164.3 168.8 172.3 173.2 172.4 169.6 166.6 162.7 158.3 154 149.6 144.6 139.5 134.9 130.2 125.5 116.7 107.6 106.3 108.8 111.4 116.9 123.7 130 134.4
107.1 104.9 101.6 101.3 103.6 105.6 107.6 109.1 110.7 112.4 113.2 113.3 111.4 109.9 107.1 104.7 110.6 115.3 118.7 121.9 125.5 129.3 133 137 141.4 146.3 155.5 166 177.8 190.3 201.7 201.6 202 204.1 207.5 210.7 216.1 222.3 229.2 236.9 243.8 247.1 246.6 242.9 237.9 232.8 229.9 228.7 229.5 231.2 233.1 234.1 232.7 230.9 227.9 224.8 221.9 219.2 216.9 215.3 214.4 215.7 218.1 220.6 223.5 226.2 226.8 224.9 221.3 217.5 213.9 210.7 206.7 201.6 195.6 190.7 186.5 183.6 181.4 178.8 176.2 173.8 172.7 172.5 173.9 176 178.7 181.4 183.7 186.2 188.8 190.9 192.7 194.7 196.2 197.8 198.4 198.8 197.9 195.7 191.7 187.7 184.6 180.6 175.7 170.2 166.1 162.8 162.1 164.2 170.9 175 177.5 179.3 180.1 180.4 181 181.4 181.9 182.9 184.2 187.5 191.3 193.6 194.5 193.7 191.4 188.5 186.6 188.2 191.3 194.8 198.5 203.1 207.1 210.4 212.6 214 214.7 214.9 214.8 213.9 212.7 210.6 207.9 205.6 205.5 206.2 207 207.6 206.6 205.3 205.2 204.3 202 198.5 193.5 187.1 178.8 174.7 179.1 181.1 181.4 181.5 180.3 178.2 174.7 170 164.9 161.2 159.3 159.3 160.6 163.2 165.6 167.8 171.1 173.4 174.1 173 170.6 167.2 163.4 159.2 155.3 150.7 146.6 143 138.7 134.4 129.6 122.7 111.9 105.3 104.9 107.2 110.4 116.9 124.4 129.5
108.5 106.7 104.8 104.6 106.2 107.3 108.9 110.3 111.9 113.9 115.2 115.6 114.6 112.3 109.5 108.8 113.6 117 119.9 122.8 126.6 130.3 134.3 138.5 143.2 149 157.6 168.7 181.4 192.1 202.7 205.4 207.2 210.1 213.7 217 221.6 228 234.2 241.4 248.5 249 248.6 245.9 241.6 237.9 235.7 235.1 234.9 235.6 236.9 237.9 235.2 231.8 227.7 224 221.5 218.8 216.8 215.6 215.4 216.7 218.5 221 223.3 226 227.5 227.5 225.8 223.4 222.3 219.8 215.5 210.3 202.1 195.8 190.2 185.5 182.2 179.6 177 175.1 174 173.1 173.9 175.3 177.5 179.9 182.8 185.8 188 190.2 192.7 195 197 198.9 200.1 200.8 200.4 198.6 195.3 192.4 189 184.8 178.8 171.2 165.5 162.2 159.4 163 168.6 173.3 176.3 178.5 180 181 181.6 182.2 183.3 184.8 186.2 188.1 190.4 192.5 192.9 192.1 189.5 185.9 183.4 184.4 187.3 190.2 193.9 198 202.1 205.4 208.1 209.7 210.5 210.7 210.7 210.2 209 207.5 205.4 203.3 202.8 203.2 204.7 205.3 205 204 202.6 201.3 199.7 196 192 187.4 181.9 182.4 182.1 184.3 185 185.1 185 183.5 181 178 173.9 170 166.7 165.1 165.9 168.3 170.4 172.7 174.3 175.5 175.5 173.8 171.5 167.9 164.2 160 156.3 152.7 149.3 145.9 141.9 137.8 133 126.4 114.6 104.5 102.7 104.2 106.3 110.2 117.1 123.2
110.1 108.5 107.4 107.3 108.6 109.4 110.3 111.5 113.2 115.3 116.4 116.8 116.6 114.9 112.7 110.5 113.6 117.2 120.3 123.3 127.6 131.3 135.1 139.3 144.4 150.8 158.9 169.6 182.1 191.9 200.5 205.3 209.6 212.9 216.5 221.7 226.5 231.5 237.2 242.8 249.3 250.5 248.1 245.7 243.1 239.9 238 237.9 237.7 237.8 238 238.2 236 231.6 227 223.4 221 218.4 216.7 215.9 215.7 216.7 218.3 220.3 222.8 225.3 227.9 229.1 229.2 228.8 228.1 225.9 221.8 216.5 207.2 199.9 193.5 187.6 183.2 180.5 177.9 176.4 175.3 174.4 174.7 175.8 177.3 180.4 183.5 186.3 188.6 190.9 193 195.3 197.7 200.1 201.9 203.2 203 201.9 200.9 198.3 195.6 191.3 183.5 174.4 167.3 162.9 159.3 159.8 165.7 170.7 173.8 176.6 179.1 180.5 182.1 183.7 184.7 186.8 187.8 188.8 190.2 191.1 191.1 189.4 186.3 182.8 180.2 180.6 183.1 186.1 189.2 193 196.8 200 202.4 204.7 205.6 206.1 206 205.9 204.8 203.8 202.4 200.6 200 200.5 202.2 203.4 203.9 203.2 201.9 200.4 198.5 195.2 191.8 188.4 185.7 184.1 184.3 185.8 187.5 188.4 189.2 188.6 186.9 184 180.6 177.2 173.9 171.8 171.8 173.1 175.3 176.4 177.7 177.8 177 175 172 168.6 164.9 161.3 157.5 154.5 151.6 148.3 144.7 140.9 136.1 129.2 118.7 106.2 102.2 101.7 102.8 104.7 108.9 115.7
111.4 110.4 110.2 110.1 110.6 111.3 112.3 113.3 114.3 116.1 116.8 117.3 117.7 117.3 115.6 113.9 113.6 117.1 120.3 123.6 128 132.1 135.8 139.7 145.4 151.9 159.9 169.9 181.3 191.4 198.1 204.5 210.1 215.2 220.4 225.6 230.1 234.8 239.4 243.4 247.1 248.5 246.7 243.8 241.6 239.6 238.3 237.4 237.5 237.6 236.6 235.8 233.5 229.3 225 222.4 219.8 217.2 216 215.7 215.8 216.4 217.5 219.5 222.1 224.6 227.1 229.4 230.6 231.2 230.7 228.8 225.2 219.1 209.8 202.8 195.9 189.4 184.6 181.4 178.9 177.7 176.5 175.4 175.3 176.1 177.5 180.8 184.1 186.8 189.6 191.7 194 196.3 199 201.7 203.8 205.4 205.8 205.6 205 204.8 203.2 198.1 190.9 181 172.1 165.6 160.6 157.3 161.7 166.9 171.2 174.5 177.4 179.3 181.4 183.2 185 186.8 188.2 188.6 189 189 188.3 186.2 183 179.2 176.2 176.8 179 181.5 184.4 187.4 191.3 194.5 196.9 199.3 200.8 201.4 201.5 201.3 200.6 199.6 198.5 197.3 197.8 198.3 200 201.9 203.3 203.9 203.2 201.6 199 195 191 188.3 186.9 185.8 183.5 186.2 189.2 191.6 192.9 192.6 191.3 188.8 185.5 182.3 179.7 177.8 177.5 177.7 179.1 180.2 180.7 180.2 178.9 176.7 172.8 169.3 165.7 162.1 158.7 155.7 152.4 149.1 145.8 142.4 137.5 130.6 120.9 109.5 102.6 100.7 100.4 101.3 103.2 108.9
113 112.3 112.1 112.2 112.5 113.3 114.3 115.1 116 117.1 117.6 118.1 118.6 119.2 118.7 117.4 115.5 117.1 120.5 124 128.2 132.3 136.4 140.1 145.5 151.7 159.6 169.2 180.5 190 196.7 203.1 209.1 215.3 221.6 227.1 232.2 236.5 240.8 243.6 244.9 245.1 243.6 241 238.7 236.9 235.7 235.3 234.8 234.2 233.4 232.2 229.3 226.1 222.4 219.9 217.8 215.7 214.9 214.7 215.3 216.2 217.2 218.7 221.2 223.3 225.8 228.3 230 230.9 230.6 228.8 225.8 219.9 211.3 203.9 196.8 190.5 185.7 182.1 179.8 178.4 177.4 176.5 176.4 176.4 177.8 181.1 184.5 187.8 190.5 192.7 195 197.4 200.3 203 205.6 207.1 208.3 209 209.7 210.4 209.1 204.8 198.1 189 179.3 170.3 162.5 157.5 157.4 163.3 168 171.5 174.7 177.1 178.9 181.3 183.7 185.8 187.3 187.9 187.8 186.5 185 182.2 179.1 175.2 172.4 172.6 174.6 176.9 179.7 182.3 185.7 188.9 191.5 193.8 195.9 196.6 196.9 196.8 196.2 195.3 194 194.1 195.2 196.5 198.5 201.5 203.5 204.8 204.4 202.7 199.6 194.3 190 188.4 186.8 185.4 183.4 186.9 191.7 193.9 195.4 195.6 194.5 192.6 189.7 186.6 184.3 182.9 181.5 181.8 183 183.7 183.6 182.8 180.6 178.2 174.4 170.4 166.6 162.8 159.1 155.9 152.7 149.4 146.1 142.4 137.6 129 118.4 111.3 106 102.3 100.8 98.9 98.5 102.9
114.4 114.3 114.3 114.3 114.4 115.2 116 116.9 117.7 118.4 119.1 119.7 120.2 120.8 121 120.4 119 118.1 121.4 124.7 128.2 132.4 136.6 140.7 146.2 151.9 158.1 167.9 179 187.9 194.9 200.7 207.4 214.6 221.6 227.6 232.2 237.1 241.1 242.3 242.3 241.2 239.7 237.3 234.9 233.6 232.5 231.7 231.1 230.4 229.7 228.5 225.8 222.6 219.7 217.3 215.2 214 213.2 213.6 214.1 215 216.4 217.9 219.7 221.9 224.4 226.7 228.3 229 228.8 227.2 224.1 218.6 210.5 203.4 196.5 190.8 186.1 182.6 180.6 179.2 178.2 177.4 177.3 177.3 178.3 181.3 184.9 188.4 191.2 193.6 195.8 198.2 201.1 204.1 206.2 208.1 209.6 211.6 213.6 214.7 213.5 210.8 205.7 198 189.1 177.6 166.5 159.7 155.4 158.9 163.9 167.7 171 173.6 176.3 178.6 181.2 183.7 185.5 186.5 186.3 184.6 181.1 178 174.8 171.4 168.6 168.3 169.8 172.2 174.8 177.4 180.2 183.3 186 188.3 190.4 191.9 192.3 192.5 191.9 191.4 191.2 192.1 193.7 195.4 197.9 201.2 204.3 205.9 205.4 203.5 199.7 194.2 190.1 189 183.4 183.4 183.4 184.5 195.2 195.5 197 197.7 196.8 195 193 190.1 188 186.6 185.1 185.4 186.4 186.5 186.3 185 182.4 179.8 175.9 171.9 167.7 163.3 159.4 156.2 152.9 149.4 145.9 142.4 137.3 129.9 122.8 117.6 112.1 108.6 106 102.8 98.6 97.5
115.6 116 116 115.9 116 116.9 117.8 118.6 119.4 119.9 120.5 121.2 121.8 122.8 123.5 123.4 122.4 120.4 122.2 125.5 128.7 132.8 137.2 141.3 145.6 150.7 157.7 165.6 176.7 185.5 192.1 197.4 205.2 213 220.6 226 231.4 236.6 240.4 241.1 239.8 237.9 235.9 233.6 231 229.6 228.6 227.9 227.3 226.7 226 224.7 222.8 220 216.9 214.4 212.8 211.7 211.6 211.8 212.2 213.4 215 217 219 220.6 222.4 224.5 226.1 226.8 226.6 224.4 221.5 216.9 210 203.7 196.7 190.6 186.6 183.4 181.6 180.1 179 178.3 178.2 178.3 179 181.6 185.2 188.7 191.6 194.2 196.5 199.1 201.2 203.5 205.5 207.4 209.8 213.4 216.2 217.6 216.6 214.6 211.2 205.3 197.3 185 171.9 162.4 156.9 154.6 158.6 162.8 166.2 169.4 172.3 175.1 178.5 181.1 182.9 183.9 183.8 182.1 178.3 174.3 170.7 167.2 164.8 164.2 164 167.4 169.9 172.4 175.1 177.7 180.4 183.1 185.4 187.4 188.1 188.2 188.1 187.9 188.8 190.4 192.1 194.5 197.5 201.3 204.4 206.7 206.5 204.6 200.3 194.8 190.7 190 188.1 183.4 183.9 191.6 194.1 195.9 197.3 198.5 198.1 196.9 195 193 191.1 189.6 188.2 188.3 189.3 190 189.3 187.5 184.7 181.3 177 172.9 168.3 163.9 159.9 156.5 153.3 149.8 146.3 142.7 138.7 133.6 128.7 123.7 121.4 119 116.3 112 106.1 98.9
116.7 117.3 117.4 117.4 117.7 118.5 119.4 120.3 121.1 121.8 122.5 123.2 124 124.9 125.6 126.2 125.5 123.9 123.3 126.5 129.3 133.1 137.3 141.3 145.6 151.1 157.3 164.5 173.6 182.1 188.4 195.3 202.5 209.8 218 223.7 228.6 234.1 239.2 238.1 236.3 234.3 232.1 229.9 227.5 226.1 224.8 224.1 223.5 222.8 222.3 221.5 219.8 217.5 214.1 211.5 210.4 209.4 209.2 209.5 210.3 212.2 214.2 216.5 219.2 220.6 221.3 222.9 224 224.5 224.3 222.7 219.5 215.4 209.9 204 197.6 192.3 188 184.8 182.7 181.1 180.1 179.7 179.6 179.6 179.9 181.7 185 188.1 190.7 193.4 195.9 197.8 200 202.1 204.4 206.4 209.5 214 217.6 219 218.4 217 214.5 209.9 202.8 192.3 179.2 167.4 158.7 153.6 152.8 156.7 160.7 164 167.3 171.2 174.9 177.9 180.1 181.2 180.6 178.9 175.3 170.6 166.1 163.5 161.1 159.8 160.2 162.4 165 167.4 170.2 173.1 175.9 178.9 181.3 183.2 183.7 184 184.9 186.1 188.1 189.9 191.8 194.5 197.6 201 204.2 206.6 207 205.1 200.8 195.2 191.9 191.3 191.4 189.9 191.3 193.7 195 196.3 197.7 198.9 199 198.1 196.6 194.5 193.3 191.8 190.8 191 192.1 192.7 191.9 189.7 186.8 183.1 178.5 173.9 169.4 164.9 161 157.4 154.2 150.8 147.3 144.1 140.9 136.7 132.6 129.4 128.6 128.1 125.1 120.6 114.5 106.1
118 118.5 118.7 119 119.3 120 121 121.6 123 124.1 124.8 125.5 126.3 127.1 128 128.7 128.3 127.1 126.3 127.3 130.1 133.4 137.2 141.4 145.5 151.7 156.8 163.4 170.7 178.8 184.8 192.6 199.9 206.7 214.7 221.3 225.8 230.2 234.9 234.6 233 231.2 228.6 226.4 224.2 222.5 221.1 220.4 219.7 219.1 218.7 218.1 217.1 215 212.3 209.6 208 207.2 206.9 207.5 208.8 211.2 214.3 217.3 220.4 222.1 221.9 221.7 221.7 222.2 221.8 220.8 218.1 214.3 210.2 205 199.9 194.8 190.9 187.6 185.2 183.4 182.5 181.5 180.9 181 181 182.2 184.6 187.2 189.7 192.2 194.1 195.7 197.3 199.1 201.6 204.2 208 213.5 217.9 219.6 218.8 217.6 215.7 212 206.6 198.4 186.9 175.3 163.7 156 151.2 150.8 154.3 158.6 162.2 167.4 171.3 174.6 176.7 178.4 177.3 175.3 172 167.4 163 160.2 158 155.9 155.7 157.2 159.6 162.8 165.7 168.5 171.4 174.4 177.1 178.9 179.7 182.1 185.3 188.2 190.4 192.2 193 195.2 198.3 201 203.8 206.5 206.8 205 201 196.1 193.5 191.9 195.3 195 195.8 197.5 199.4 200.1 199.9 200.1 199.8 199.2 198 196.2 195.3 194 193.6 193.9 194.6 195.1 194.1 192.1 188.8 185 180.4 175.9 171.1 166.3 162.4 158.7 155.5 152.1 148.7 145.6 142.7 138.9 135.8 134.4 133.4 132.2 130 126.1 121.1 114.4
119 119.6 120.3 120.6 120.9 121.6 122.2 122.9 124.4 125.8 127.1 127.7 128.6 129.4 130.3 131 131.4 130.5 130.4 130.6 132.2 134.5 137.5 142 146.6 152 156.8 162.3 168.7 176 183.4 190.5 197.7 204.3 212.1 218.2 223 226.9 230.2 231 230.4 228.5 225.5 223.5 221.3 219.2 217.7 216.7 216.2 215.9 215.6 215.1 214.8 213.6 211.9 209.5 206.6 205 204.4 205.5 207.7 210.8 213.8 218.3 222.3 223.5 223.2 221.7 220.5 220.5 220.5 219.6 217.1 214.2 210 206.4 202.1 198.7 195.3 191.9 189.4 187.5 185.8 184.2 183 182.2 182 182.6 184.3 186.3 188.2 189.8 191.3 192.8 194.5 195.8 198.3 200.7 204.3 211.3 216.8 217.8 217.4 216.8 215.3 212.6 208 201.5 193.3 183 172.1 161.7 153.2 148.8 149 152.7 157.9 163.3 167.4 170.8 173.1 174.8 174 171.8 168.5 164.5 160.7 157.9 155.4 153.3 152 153.8 155.7 158.4 161.2 164.1 167.2 170.4 173.1 175.6 178.9 183.2 186.7 189.9 192.7 194.6 195.4 196.6 199.2 201.8 204.5 206.1 206.6 205.2 202.2 197.8 194.6 206.4 212.8 202.2 203.2 205.7 207.2 206.5 204.9 203.4 202 200.6 199.3 198.2 197.3 196.4 196.6 196.5 196.7 197.3 196.5 194.4 191.3 187.2 182.6 178.1 172.9 168 164.1 159.8 156.3 152.8 149.3 146.6 144.1 141.1 138.7 136.8 135.9 134.6 132.8 130.2 125.1 118.8
119.8 120.4 121.1 121.7 122.3 122.8 123.3 124.3 125.9 127.4 128.7 130 130.8 131.9 133.2 134.2 134.6 134.9 134.9 135.4 136.7 138.2 140.5 142.8 148 152.6 157.6 162.5 167.8 173.7 181.5 189.6 196.3 202.7 209.9 215.6 220.7 224.3 227.4 228.4 228 226.1 223 220.6 218.5 216.4 214.9 213.7 213.5 213.3 213 212.7 212.4 212 210.8 208.7 206 203.5 202.8 204.3 206.8 209.5 213.5 218.9 223.7 225.1 224.3 222.6 220.6 218.9 218.7 218.4 216.9 214 210.2 207.4 204.7 202.9 200.1 197.3 194.5 191.8 189.3 187.4 186.2 185.3 184.3 184 184.4 185.5 186.3 187.2 188.4 189.8 190.8 192.1 194 197 200.2 206.5 212.4 214 214.5 214.4 213.9 212.4 208 202.5 196 188 178.3 168.4 159.3 151.8 147.6 149.1 153.9 160.2 164.8 167.8 170.2 170.8 170.2 168.3 165.4 162.3 158.8 155.9 153.5 151.4 148.9 150 152.6 155.5 158.1 160.8 164.2 167.4 170.5 173.9 178.3 182.6 186.2 189.7 193 195.6 197 198.6 200.2 202.6 204.3 205.7 206 205.4 203.2 200.3 196.9 213.6 218.9 215.9 211.5 212.1 213.3 212.6 210.8 208.8 206.6 204.4 202 200.6 199.8 198.7 198.4 198.3 198.5 198.9 199 197.5 194.3 189.6 184.8 179.8 174.5 169.7 165.3 161 157.1 153.6 150 147.6 145.2 143.1 141.1 138.9 137.4 136.3 134.9 132.7 128.6 122.4
120.5 121.3 122.1 122.9 123.6 124.1 124.5 125.7 127.3 128.9 130.3 132.5 134.2 136.1 137.3 138.1 138.7 139.4 139.7 140.6 142.6 144.8 146.9 148.8 151.2 154.4 159.2 163.4 167.9 173.6 180.9 188.2 195 201.9 208.2 213.6 218.8 222.1 224.6 226.2 226.4 224.7 221.8 219 216 213.4 211.8 211 210.6 210.3 210.2 209.7 210 210.2 209.3 207.8 205.5 203 201.7 202.8 204.8 207.6 212.4 217.8 222.5 225.1 224.9 223.7 221.7 219 217.4 217.2 215.6 213.5 212.3 210.5 209 207.6 205.5 203 200.1 196.7 193.7 191.1 189.7 188.7 187.7 185.9 184.6 184 184 184.8 185.4 186.2 187.1 188.4 190 192.5 195.4 200.7 206.7 209.3 210.4 211.1 211.6 211 207.2 202 196.5 189.8 181.9 173.5 164.6 156.2 148.3 146.7 151.6 157.8 163 165 166.4 167.1 166.7 165.4 163.3 160.5 157.5 154.6 152.2 149.8 146.3 146.1 149.8 153.1 156.2 159 162.1 165.3 168.8 172.7 176.6 180.5 184.1 188.3 192.5 195.8 197.9 199.5 201 202.7 204 205.3 205.6 205.2 204.1 202.3 200.7 213 220 220.1 218 216.4 217.5 217.6 216.2 214.3 212.2 209.6 206.7 203.8 202.4 201.1 200.5 199.9 199.5 199.3 199.5 198.6 195.7 191.3 186.2 180.9 175.4 170.4 166.1 161.8 157.6 154 150.5 147.4 145.7 144 142.1 140.3 138.3 137.2 136.1 134.3 130.6 125.5
121.3 122.6 123.4 124.1 124.9 125.3 125.5 126.8 128.4 130.1 132.6 135.8 138.4 140.5 142.2 143.3 143.7 144.1 144.8 146.2 149.1 151.8 153.3 154.3 155.1 157.2 160.6 164.8 169 175.2 181.2 188.5 194.5 201.1 207.6 212.5 217.1 220.1 222.7 224.4 225 224.3 221.8 218.5 214.8 211.2 208.8 207.7 207.7 207.5 207.3 207.3 207.8 208.2 207.7 206.2 204.8 202.6 200.5 200.8 202.3 205.1 210.1 215.2 220 223 224.6 223.8 222.9 220.2 217.7 216.7 216.3 215.1 214.6 214 213.6 212.4 210.6 208.1 205.6 202.1 198.3 195.5 193.8 192.6 190.8 188.2 184.8 182.9 182.4 181.7 181.9 182.5 183.1 183.7 185.3 187.9 190.9 194.9 199.4 202.9 204.6 206 207.3 206.9 204.5 200.7 196.1 190.7 184.7 176.3 167.8 159 149.7 145.1 149.6 155.5 159.5 162 163.8 164.1 163.7 162.3 160.7 159 156.3 154 151.6 148.9 145.6 143.9 147.6 151.2 154.6 157.2 160.1 163 166.4 169.7 173.7 177.8 182 186.1 190.3 194.3 197 198.7 200.5 201.7 202.8 203.9 204.7 204.8 204.4 203.2 202.5 203.4 216.7 218.5 218.4 218.5 219.6 220.4 220 219 217.8 215.3 212.3 209.1 206 203.7 202.5 200.9 200.4 198.7 198.7 197.9 195.4 191.4 186 181 176 171.2 166.5 162.2 158.1 154.4 150.9 148 146.1 144.2 142.1 140.4 138.8 137.2 136.5 135 132.3 127.3
121.3 123.2 124.8 125.4 126.1 126.5 126.8 127.7 129.4 131.2 134.3 138 141.5 144.6 146.9 148.4 149.1 149.4 150.3 151.8 154.9 158 159.7 161.1 161.3 162.7 166.1 169.1 173.4 177.4 183.4 189.9 196.1 202 207.7 212.5 215.8 218.6 220.8 222.1 223.2 223.4 221.6 217.9 214.2 210.4 206.4 204.7 204.9 205.2 204.7 204.9 205.3 206.1 205.7 204.8 203.3 201.7 199.3 198.8 200.2 203 207.7 212.5 216.9 220.1 222.9 223.6 223.2 222.1 219.5 216.9 216.7 217.2 216.9 216.4 216.7 216.1 214.8 212.8 209.7 206.3 202.6 199.6 197.8 196.4 193.9 190.8 186.2 182.1 180.1 179.2 178.8 178.8 179.4 180 181.2 183.5 186.2 189.1 192.6 196 198 200 201.7 202.3 201 198.5 194.8 190.4 185 177 168.3 159.5 150.5 144.4 147.7 153.5 157 159.5 160.9 161.2 161 159.5 158.4 157.3 155.6 153.4 150.7 147.9 145.2 142.1 145.1 149.3 152 154.7 157.6 160.3 163 166.4 170.4 174.6 178.8 183.1 187.5 191.7 195 197.1 198.9 199.8 200.8 202 203.1 204 204.1 203.7 203.7 204.3 210.9 216.6 217.8 218.4 219.2 220.5 221.8 222.5 222.5 221.2 218.8 215.6 211.3 207.3 203.8 202.4 200.5 198.5 196.8 195.8 193.6 190.2 185.2 180.5 176.1 171.7 167.1 162.7 158.7 155.1 151.8 149.1 146.2 144.3 142.2 140.4 138.7 137.2 136.2 135.1 132.8 128.6
121.5 123.5 125.5 126.8 127.3 127.7 128 128.7 130.3 132.4 136 139.6 143.3 147.2 150.8 152.9 154.5 155.1 156 157.8 160.7 163.9 166.2 167.5 168 168.6 170.4 173.3 176.5 180.9 186.3 191.6 197.7 203 207.8 212 214.9 216.8 218.3 219.8 221 221.6 220.5 216.8 212.7 208.7 204.8 202.3 201.9 202.1 201.8 201.6 203 203.8 203.5 202.8 201.6 200 198 197.2 198.6 201 205 209.5 213.5 217.6 220.8 222.8 223.6 223.4 221.5 219.4 217.8 218 218.6 219 219 218.6 217.6 215.9 213.2 209.7 206.4 203.7 201.6 199.6 196.7 193.2 188.4 182.5 177.7 176.5 176.2 176 176.4 177 177.8 179.6 181.7 184.2 186.7 189.2 191.8 194 195.9 197.1 197 195.6 192.8 189.3 183.6 176.1 167.2 158.1 150 144.3 146.8 152 155.5 157.4 158 158.4 158.3 157.4 156.8 155.7 154.8 153 150.5 147.5 144.2 140.9 142.2 146.1 148.9 151.5 154.1 156.5 159 162.3 166.4 171 175.5 180 184.5 188.6 192 194.5 196.2 196.9 198.5 199.8 201.3 202.4 203.4 203.6 204.2 204.7 206.2 212.3 215.4 216.3 218.1 220.2 222.3 224.2 225.6 226.2 225.1 222.3 217.6 213.1 208.1 204 200.1 198.4 194.6 192.7 190.7 187.3 183.5 179.7 175.9 171.6 167.6 163.7 159.9 156.4 153.1 150.1 147.2 144.6 142.8 140.7 138.8 136.8 135.4 134.4 132.8 130.1
121.2 123.6 125.8 127.2 128.3 128.8 129.1 129.7 130.9 133.3 136.8 140.4 144.1 148.1 152.3 156.3 159 160.9 162 164.2 166.4 169.2 172 173 172.9 173.5 174.6 176.6 179.6 183.9 188.6 194 198.9 203.9 207.7 211.4 213.4 214.6 215.7 216.7 217.3 217.6 216.7 214.1 210.5 207 203.3 200.3 198.6 198.9 198.7 198.6 200.5 201.3 201.2 200.5 199.2 197.6 195.9 195.6 197.1 199.4 202.4 206.7 210.8 214.4 218.8 221.8 223.9 224.6 223.8 221.5 219.5 217.6 218.4 219.3 219.9 219.8 219.2 217.4 215.1 212.5 209.6 207.1 204.6 202 198.9 195 189.2 182.9 176.3 173.5 173.2 173.3 173.7 174.2 174.7 176 178 179.6 181.7 183.7 186 188 190.2 191.5 192 191.6 189.6 186.4 181.1 173.9 165.3 156.8 149.9 144.4 146.2 151.1 154.1 155.4 156 156 155.8 155.4 155 154.4 153.9 153 150.6 148.2 145.1 141.2 139.6 142.2 145.2 147.9 149.5 152.3 154.8 158.2 162.1 166.5 171.1 175.7 180.3 184.8 188.6 190.5 192.2 193.4 195.4 197.4 199.6 201.5 202.4 202.9 203.5 204.5 206.6 209 211.9 214.1 216.5 218.4 221 223.7 226.1 228.5 229.9 228.7 224 219 213.5 208 202 197.4 192.6 189.6 187.2 184.6 181.9 178.6 175.4 172 168.7 164.8 161.1 158 154.8 152.1 149.1 146.2 143.8 141.3 139.4 137.3 135.1 133.4 132 130.2
120.9 122.9 125.2 127.2 128.4 129.8 130.2 130.9 131.9 134.3 137.4 141.2 144.9 148.8 153.2 157.8 162 164.9 167.5 169.8 172.1 174.6 176.5 177.9 177.7 177.9 179.4 181.1 183.1 186.8 190.5 195.4 199.9 204.4 207.9 210.2 211.6 212.6 213 212.9 213.2 213 212.4 210.6 207.6 204.4 201.3 198.6 196 195.5 195.9 196.6 198 198.7 198.9 198.1 196.6 194.9 194.2 194 195.6 198.3 201 204.6 208.8 212.5 216.6 220.9 224.3 225.5 225.2 223.7 220.5 218.4 217.3 218.2 219.2 219.3 218.9 217.7 216.2 214.1 212.1 209.8 207.1 204.1 200.2 195.3 189.3 182.9 175.5 170.9 170.4 170.6 171 171.5 171.9 172.4 174.1 175.8 177 178.6 180.6 182.5 184.5 186 186.9 186.8 185.8 183 178.3 171.7 163.4 155.8 149.6 143.4 144.9 149.8 152.5 153.5 153.6 153.6 153.3 153 152.8 152.9 152.6 153.1 151.8 149.2 146.4 142.2 138.3 137.7 140.3 142.8 145.1 147.9 150.7 153.5 157.3 162 166.7 171.4 176 180.3 183.6 185.6 187.7 189.7 192.1 195.2 197.8 200.1 201.4 202.2 202.8 204.2 206 207.4 209.8 211.9 214.1 216.4 218.9 221.7 224.8 227.9 230.9 232.7 229.8 223.9 217.9 211.3 204.7 193.7 195.6 187.5 184.4 182.1 180 177.4 174.6 172 169.3 165.9 162.7 159.7 157.2 154.5 152.2 149.5 146.2 142.7 141.1 137.7 135.5 132.5 130.9 129.4
120.8 122.1 124.2 126.5 128.5 130 131.2 131.9 133.3 135.3 138.3 141.7 145.6 149.6 154.4 159.1 163.8 167.5 171.2 175 178.1 180.3 181.8 182.5 182.4 182 183.1 184.3 186.1 189 192.3 196.2 200.5 204.3 207.1 209 209.9 209.8 209.5 208.9 208.6 208.2 207.7 206.6 204 201.3 198.8 196.3 194.3 193.2 193.4 193.9 195.2 196 196.6 195.8 193.8 192.3 192 192.5 194.3 197.1 199.8 202.8 206.9 211 215.1 219.4 223.4 225.9 226.4 225.3 222.4 218.9 215.9 216.2 217.6 218 217.4 216.5 215.3 214.2 212.9 211 208.2 204.9 200.4 194.9 188 181.8 175.4 169.7 167.5 167.9 168.3 168.8 169.4 169.9 171 172.2 173.2 174.2 175.7 177.6 179.4 181.1 182.2 182.3 181.4 179.4 175.2 169.2 161.6 154.6 148.5 142.7 143.9 148.3 151.4 152.5 152.2 151.2 150.8 150.5 150.6 150.9 151.4 152.1 151.7 150.2 147.4 143.8 139.5 135.2 135.6 138.2 140.8 143.4 145.7 148.2 152.4 157.3 162.1 167 171.3 175.5 178.5 181.1 183.2 186.3 189.7 193 195.8 198.3 200.1 201.3 202.3 203.2 204.6 205.9 207.8 209.5 211 213.5 216.7 218.8 221.9 225.3 228.3 231.1 230.2 225.9 220.2 213.8 187.9 150.8 188.4 192 180.7 179.3 177.5 176 173.9 171.2 168.8 166.7 164.2 161.6 159.6 158 156.4 154 150.7 146.8 143.1 139.6 136.1 132.1 129.1 127.7
121.3 121.8 123.6 125.6 127.7 129.8 131.2 132.8 134.4 136.2 139.3 142.3 145.9 150.3 154.8 159.8 164.7 170 174.6 179.3 183.2 185.9 186.4 186.9 187 186.3 186.6 187.1 188.5 190.6 193 196 200.1 203.4 206.2 207.7 208 207 205.7 204.8 204 203.4 203 201.9 200.4 198.1 196.2 194 192.4 191.2 191.1 191.9 192.7 193.2 193.8 193.5 191.8 190.3 190 191.4 193.8 196.6 199.4 202.2 206.1 210 213.7 217.9 221.7 224.6 226.1 225.2 222.9 219.5 215.2 213.5 214.6 215.1 215.1 214.3 213.6 213 212.3 210.6 207.8 204.2 199.3 193 186.3 180.8 174.7 169.1 165.9 165.6 165.9 166.4 167 167.6 168 168.7 169.6 170.5 171.5 173.1 174.9 176.5 177.9 178.3 177.4 175.7 172.2 166.8 159.8 153.2 147 141.6 142.6 146.7 150.3 152.4 152.5 150.9 149 147.7 147.6 148.5 149.7 150.9 151.1 150.2 148.1 144.5 139.9 134.8 132.5 134.4 136.5 138.8 140.7 142.9 147.5 152.3 157 161.9 166.7 170.8 173.6 176.5 179.9 183.2 186.9 190.6 193.8 196.2 198.3 199.7 200.8 201.9 203.1 204.3 205.7 207.5 208.5 210.8 214.1 216 218.8 222.4 225.1 227.6 227 224 219.8 211.8 150.7 150.2 163.7 190 182.3 176.7 175.2 173.8 172.2 170.3 168.6 166.8 165.1 163.3 162.2 161 160.1 159 155.9 151.9 145.9 141.6 136.9 131.9 128.1 125.1
