ncols 200
nrows 82
xllcorner 310000
yllcorner 220300
cellsize 50
144.9 137.3 129.9 124.6 114.9 113.8 113.5 113.3 113.3 112.7 111.2 113.7 112.8 112.6 112.6 111.1 112.8 113.5 112.9 113.4 112.9 113.5 113.3 112.8 113 112.4 112 112.4 108 109.5 112.6 114 119.2 126.7 132 137.3 144 151.4 167.7 182.6 195 207.9 218.8 234.4 247.9 258.9 270.1 285.2 303.6 338.8 362.3 386.6 388.6 378 362.2 338.4 309.8 292.5 280.7 263.7 248.4 234.9 222.6 215.3 207.3 199 189.4 180.3 173.8 165.7 163.8 162.8 160.5 158.6 158.4 158.1 158.5 159.5 160.1 161.1 161.9 164 166.3 168 171 174.8 180.9 185 185.1 184.1 190.1 196.1 203.3 209.4 215.6 222.5 229.6 238 246.9 255.5 267.7 276 281.1 284.8 290.4 297.4 298.8 301.8 302.8 309.8 315.9 322.3 329.4 336.3 345.5 360 377.2 384.6 390.6 391.7 398.7 398.4 395.5 393.6 391.3 388.4 386.9 385.5 382.2 375.3 367.1 355.1 336.4 314.9 289.7 269.7 251 235.4 222.5 213 204.4 196.6 184.4 195.5 201.2 214.1 229.3 245.1 266 285.9 305.7 323 324.3 303.5 271.6 245.6 219.7 197 172.3 153.2 139.9 138.3 141.5 159.9 165.5 169.4 171.8 175.1 179.6 185.3 192.2 199 204 210.8 218.2 230.3 242.6 253.4 259.8 264.2 268.9 270.6 266 254.9 245.3 262.4 275.6 288.2 300.6 313.2 323.9 329.3 338 351 364.7 377.2 388.2 404.3 421.3 438.5
151.7 145.9 136.2 130.8 125.7 117.1 114.3 113.8 113.6 113.8 111.9 111.1 113 113 112.7 111.7 113.2 113.4 112.8 112.8 112.8 113.5 113.2 112.7 111.7 112.4 112.8 111.4 108 109.5 111.5 112.5 113.7 119.1 128.1 130.9 138.6 147.8 164.1 178.1 192.8 205.7 220.4 236.6 247.9 255.8 266.4 278.6 297.3 328.3 356.6 376.9 389.3 381.7 369.4 350.2 321 296.7 284.4 274.4 258.6 240.6 226.6 216.1 209.5 202.1 194.3 186.5 178.9 170.3 166.3 164.1 160.8 159.2 159.2 159.3 158.8 158.7 159 160.1 161.5 162.9 165.8 166.7 169.8 175.7 182.7 187 189.3 185.6 188.6 196.3 202.1 207.8 213.4 219.2 225.8 234.6 242.3 249.5 256 264.7 271.7 275 280.4 283.2 290.9 292.3 296.7 303.8 310.5 317.3 325.1 332.2 340.5 350.8 367.2 378.9 385.1 389.5 391.1 396.8 393.9 391 388.8 385.5 384.7 383.3 377.5 371 362 349.6 333.5 313.3 290.9 271.1 253.8 236 223.4 212.4 203.4 195.4 186.1 191.5 199.7 208.8 220.1 235.2 253.7 272.8 291 310 315.8 299 266.9 239.7 214.5 193.4 171.3 152.8 137 136.2 142.7 158.5 163 167.3 170.4 174.6 178.8 185.3 191.8 198.2 205.6 213.1 225.2 241.2 254.4 262.3 267.3 274.1 279.8 283.7 280 269 253.7 256.5 272 285.3 295.6 310.6 321.9 327.5 334.6 348.9 363 375.4 385.3 402.9 419.6 438.6
158.8 152.4 144.8 138.1 130.5 125.4 119.3 115.5 113.5 113.8 113.5 112.9 113.1 111.1 111.1 111.1 113.6 113 113.1 113.6 112.9 113.2 113 112.9 112.2 112.1 112.1 111.8 111.5 109.3 111.3 108.2 112.2 112.4 117.5 128.9 133.9 142.9 156.2 170.7 187.6 201.8 220.7 236.5 246.5 246.9 253 270.9 286.1 321.5 347.6 366.9 380.6 381.7 370.4 356.9 328.5 301.3 287.9 276 262.5 247.7 233.8 220.3 212.4 205.4 197.9 190 181.4 175 169.2 165.3 161.7 160.5 159.6 158.9 158.8 159.1 159.7 161.5 163.2 164.1 166.3 167.8 171.1 176.3 183.5 188 190.9 192.2 192.3 194.2 198.8 205.7 211.5 217.1 222.4 229.2 237.2 242.3 248.6 254.5 260.5 266.1 270.8 275.8 279.9 280.2 291.3 297.3 304.1 311.6 319.5 327.5 337.9 345.6 362 376.3 381.9 387.6 388 389 392 389.7 386.6 383.6 382.2 379.9 372.1 363 353.4 340.8 326.7 309.3 288.3 269.4 251.4 237.8 226.7 216.8 204.4 194.3 186.6 186.6 193.8 201.7 212 227.1 241.2 258.8 277.4 293.1 301.7 289.9 259.6 233.4 208.8 188.2 168.5 148 135.5 134.6 147.4 157.2 162 165.5 169.2 173.9 178.8 184.9 190.6 198.5 207.8 216.7 233.8 250.6 261.7 269.8 275.3 281 289.6 296 293.3 285 271.9 258.6 266.1 280.5 292.1 306.1 318.5 324.5 333.3 345.3 358.6 370.9 383 398.8 416.4 435.5
166.2 159.1 151.5 144.3 136.9 129.7 125.9 120.8 118.4 114.4 113.2 113.5 113.4 112.9 113.5 113.3 112.8 113.5 113.4 113.9 112.6 112.8 112.7 112.5 112.7 112.5 111.8 111.7 111.7 108 110.2 111.4 107.9 112.3 112.9 115.6 128 137 149.7 164.1 176.2 192.3 214.1 230.8 238 245.6 250 262.7 279.3 305.9 334.2 354.3 369.7 379.4 375.5 362.1 334.9 306 290.1 277.1 265.4 254 239.4 226.7 215.2 207.6 199.8 195 184.8 179.4 172.4 166.8 163.8 162 160.7 159.5 158.2 159.5 159.6 161.7 163.5 164.6 164.8 167.4 171.7 177 183.7 189 192 194.9 195.4 196.9 196.6 201.3 209.3 214.6 219.1 224.6 230.8 236.6 242.5 246.3 251.8 258.1 262.2 267.2 270.5 275.9 284.5 292 298.8 305.2 313.9 322.4 333.1 342.8 359.1 375.3 381.7 386.9 386.6 385.7 387.8 387.7 384.8 382.4 378.6 373.5 365.9 356.4 341.6 328.7 316.9 303 284.9 267.6 252.2 238.4 225.2 215.8 204.4 194 185.2 179.7 188.2 195 203.6 217.9 230.7 247.5 262.9 277.3 286 276.9 251 226 204.6 181.2 163.9 146.9 134.9 139.2 149.4 155.2 160 163.9 168 172.9 178 184.5 191.2 200.2 211.1 222.2 239.8 256 269.1 277.9 282.6 291.4 298.9 305 306.4 299.8 286.8 277.7 267.4 269.5 286.5 300.8 312.9 321 327.4 342.1 355.6 368.6 379.2 396.7 415.2 432.5
177 166.6 160.9 153.2 143.3 137.4 129.7 125.7 122.1 118.6 115 114.2 113.6 113.4 113.5 113 113.2 113 112.9 114.1 114.4 113.4 112.1 112.2 112.3 111.9 113.2 113 112.3 111.8 108.4 108 110.9 108.7 111.4 112.9 124.3 130.8 143.7 155.8 167.3 183.4 205.9 232.1 235.4 240.1 245.9 253.4 271.3 295.5 319.8 340.1 356.9 369.4 377 366.4 342 310.8 295.1 281.9 267.7 256.1 244.9 230.8 218.6 211.3 203.4 196.9 190.7 183.4 176.3 169.9 165 163.5 162.5 161.8 161.6 159.7 159.4 160.5 162.4 163.6 164.1 168.4 172.6 180 185.7 191.6 195.8 197.6 199.8 201.2 202.5 202.4 205.3 210.8 216 221 226.3 231.7 236.5 240.4 245.6 250.7 255.7 259.4 266 272.7 279 287.2 294.6 301.3 310 319.4 329.7 341.7 357 374.8 381.5 381.3 384.1 383.8 383.3 382.3 381.4 380.1 376.9 369.9 360 351.5 336.4 321.2 307.5 292.6 281.3 266.9 251 237.7 224.7 214.5 204.4 192.4 185.2 174.1 181 189.7 197.5 207.7 222.9 236.8 250.5 262.1 268.7 261.3 239.3 214.7 193.1 175.8 157.7 147.3 134.7 139.4 146.7 153.7 158.6 163.5 167.3 171.4 177.2 182.7 192 202.8 213.2 226.1 244.8 263.4 277.9 285.3 292.1 299 305.6 310.9 313.2 312 302.4 292.4 284.6 279.4 277.7 292.3 307.9 317.9 325.1 336.7 348.5 363.8 375.8 394.4 414.1 431.4
188.4 180.9 172.5 162.5 152.5 145.2 136.2 130.6 126.6 122.3 118.9 117.1 116.5 116.1 114.6 113.8 113.3 113.5 112.9 114.1 114 114 113.9 113.9 113.7 113.2 113.8 113.3 113.1 112.6 112.5 112.2 111.5 109.9 109.9 111.6 113.2 126.9 137.4 148.5 160.3 173.9 195.4 222 230.1 232.3 237 241.6 258.4 282.8 307.2 328.1 344.9 357.7 367.6 366.3 351.3 321.1 298.7 285.5 269.6 257.1 246.9 237.2 224.5 215.3 208.2 201.2 195.3 189.3 182 174.3 168.5 165.4 164.1 162.4 161.6 159.9 159.3 159.7 160.3 162 164.6 168.8 173.1 180.5 187.1 193.1 197.8 202.1 204.5 207.2 208.8 209.7 210.2 211.8 211.6 217 221.1 227 230.9 236.2 241.2 245.8 249.7 255.1 262.6 270.1 276.2 285.2 292.7 300.3 309.7 319.6 331.1 344 359.5 373.1 376.8 375.8 377.2 380.9 379.3 378.2 375.6 374.3 373.1 370.9 362.8 352.5 337.4 319.6 298.1 277.4 270 259 249.6 237.1 223.3 211.5 201.8 191.6 184.6 175.5 172.6 186.6 193.1 205.3 218.1 227.9 237.2 246.6 253 247.2 228.4 202.4 183.3 167.8 153.6 144.4 132.7 136.4 143.4 151.6 156.5 160.8 165.5 170.5 176.9 185.4 192.8 203.6 215.2 231.9 250.9 271.2 285 292.2 299.7 307.7 312.5 316.1 318.5 318.1 314.7 306 299.3 294.1 286.9 285.8 299.4 312.5 322.2 334.2 346.9 359.5 374.8 392.5 411.6 430.8
199.4 191.4 182.8 173.3 162.8 150.9 143.2 137.1 131.1 128 122.3 119.9 117.8 117 116.6 115.6 113.8 113.8 113.8 113.8 114.2 114.2 114.2 114.1 114.4 113.8 113.6 113.7 113.4 113.7 113.2 113.3 113.1 111.6 111 108 111.2 119.6 127.3 143.3 153.8 165.2 184.1 206.8 222.4 225.6 229.8 231.9 247.1 269.1 297.5 315.8 331.1 345.2 356.3 362.6 357.2 331.8 303 287.1 273.3 258.1 248.2 239 229.1 219.3 212.5 206 199.1 193.9 187.1 178.9 174.4 168 164.9 163.5 161 160.3 159.6 159.8 160.1 161.2 164.1 167.5 173.5 180.3 187 194.5 199.6 205 208.1 213.1 215.6 216.8 216.9 217.8 219.7 221.4 224.3 227.6 228.8 233.9 238.5 241.9 247.7 255.6 262.7 269.5 277.2 285.2 291.9 302.8 315.3 329.9 340.6 350.5 363.5 371.6 372.9 372.9 373.6 376 377.3 375.5 373 370.4 369.2 366 361.5 355.4 344.7 326.6 304.3 280.4 268.9 257 243.6 231.2 217.9 210.7 200.7 191.8 184.5 176.6 168.5 177.7 185.3 198.4 209.2 218.7 226.4 235.2 237.4 234.6 216.8 189.4 173.5 159.2 148.2 136.7 132.1 134.6 140.7 148 153.4 158.3 163.6 169.2 175.8 184.9 196.6 209.9 221 238.6 256.6 278.5 291.1 298.5 308 313.3 318.2 320.5 322.5 323.5 320.5 315.7 313.1 310.1 306.4 300 293.8 306.9 318.7 332.2 343.5 356.5 371.1 390.1 410.2 429.2
211.9 201.5 190.8 181 169.9 160.2 150.9 144.4 137.6 131.3 126.6 122.5 119.6 117.6 116.9 115.5 113.9 113.6 113.6 113.6 114 114.3 114.4 114 114.3 114.5 113.5 113.6 113.3 113 113.5 113.4 113.4 113.3 112.3 112.3 108 111.8 125.2 137.5 147 157.3 171.3 192.4 210.5 215.2 222.3 222.7 233.9 257.3 287.5 306.5 320 332.9 345 354.4 357.6 339.2 310.2 289.9 279.5 260.9 250.2 241.5 232.8 223.3 215.1 209.2 203.8 197.4 192.6 187.4 180.9 173.4 167.4 165 162.8 160.6 160 160.2 160.4 160.8 163.3 167.8 174.3 179.6 186.6 194.7 199.8 206 212.8 217 221.6 223.9 224.5 225 225 226.3 228.4 232.1 234.3 237.3 241.2 246.1 251.6 258.6 263.9 270.6 278.9 287.8 297.3 313.1 328.2 340.3 349.3 359.1 366.2 369.3 372.7 375 374.3 374 375.5 373.6 370.7 368.1 365.6 363.4 360.3 355.2 346.7 331.7 311.3 289.7 267.6 254.7 243.2 231.4 219 208.4 200.7 192.5 184.6 178.9 170.2 168.5 179.7 191 199.9 208.2 215.9 224.2 227.9 222 199.7 180.4 163.5 151.5 140.1 130.6 131 135.5 139.2 144.9 152.3 157.2 162.9 168.5 174 186.5 197.8 213 227.4 241.6 260.9 284.1 295.7 306.1 313.2 318.5 321.7 323.6 329.6 332.6 332.1 329.1 323.7 319.2 318.4 314.9 311.9 312.3 313.8 324.9 341.3 354.9 371.8 389.7 409.2 428.1
222.2 210.1 201.3 191.3 180.1 169 158.6 150.4 144.4 136.6 130.8 126.6 121.9 119 117.2 116.2 114.3 112.9 113.4 112.6 112.3 112 112.8 113.4 114.2 114.6 113.3 112.9 113.1 113.6 113.4 113.2 113.5 112.8 112.3 112.2 111.1 108 118.1 126.2 138.5 149.5 159.4 179.5 196.8 209.6 215.5 216.3 226.1 247 270 297 312.3 321.4 334.4 347.2 352.4 342.7 317.4 294.7 280.3 268.9 252.4 244.1 235.9 227.1 218.4 212.5 206.4 201.2 196 191.8 186.4 180.1 170.7 165.9 163.1 162.1 160.2 160.8 160.5 161 164.2 167.6 172.8 179.3 185.9 195.1 201 209.5 216 222.5 227.9 230.9 232.2 232.5 232.5 233.5 235 237 239.1 242.5 247.1 251.9 256.9 264.1 269.4 275.4 281.6 295.3 309.1 324.8 335.8 346.6 355.2 363.1 366.1 370.7 374.8 371.5 371.9 372.3 370.1 369.8 367.7 365.2 363 359.3 353.1 346.8 339.2 333.6 314.8 294.3 274 254.2 241.3 229.7 217.3 208.4 198.9 191.7 184.5 180.4 176.7 161.3 164.4 177.3 190 197.1 202 212.5 219.4 204 185.3 167.3 156.2 144.3 133.2 130.4 130.7 137.9 144 147.9 152.6 157.8 164.1 168.5 175.5 186.7 200.6 216 232.2 250.8 268.4 288.1 300.5 311.2 316.8 321.2 325.7 332.6 339.4 341.9 342 341.8 338.8 335.1 331.8 328.4 327.9 328.1 329.2 332 333.2 349.9 370.6 389.6 409.7 429.4
231 220 211 201.8 190.3 180 168.9 157.8 150 141.9 136.6 132.5 127.4 122.7 118.2 116.4 114.6 113.4 113.4 113.4 113.7 113.6 112.7 113.3 112.8 113.1 112.7 112.6 113 113.3 113 113.2 113 112.6 112.3 112.1 112 110.8 108 121.9 132.5 142.4 149.9 165 183.8 200.3 208.3 212 220 234.5 256.6 282.7 303.4 316.8 324.6 340.3 347.5 343.6 321.3 297.3 283.7 272.3 255.9 245.8 238.1 230.7 223.2 216.1 211.2 204.9 200.4 196 192.1 186.8 177.7 169.4 166.9 164.1 160.8 161.2 160.9 161.5 164.1 168.2 171.7 177.7 185.5 194.7 203.3 212.2 219.9 229.7 234.8 239.3 240.1 240.7 240 241.3 242.5 243.6 244.9 246.5 252.2 257.8 264.3 270.6 277.7 283.9 291.7 308.3 322.9 332.7 342.4 348.5 358.3 364.7 369.2 369 369.9 367.9 366.8 366.3 365.3 364.4 360.8 355.3 346 342.2 337.4 335.6 332.5 323.1 307.8 292.3 275 258.5 243.2 229.2 218.1 207.9 200.5 191.4 185.9 181.5 177.3 171.9 157.7 162.7 176.8 182.8 187.8 194.9 196.8 186.3 168.7 158.4 150.4 135.9 129.8 130 133 144.2 147 148.7 153.2 158.4 163.9 169.3 178.3 188.8 205.5 221.1 237.8 255.3 274 291.9 305.5 314 318.7 323.3 331.8 339.8 345.6 349.1 351.6 352.4 351.5 349.1 345.7 344.9 345.5 345.7 346 348.4 353.7 355.1 367.5 387.9 409.7 430.7
240 229.2 220.9 210.3 200.5 190.5 177.8 167.6 158 147 142.2 137.8 133.2 128.1 121.8 119 115.8 114.4 113.8 113.8 114.5 114.3 112.7 113.3 113.6 113.7 112.5 112.4 112.9 113 113.1 112.6 112.8 112.7 112.3 112.2 112.1 112 108 116.5 125.3 135.7 144.6 153.1 167.9 182.4 202.8 205.2 214.5 228.1 243.6 267.3 292.4 305 319.2 333.1 342.4 342.2 326.6 301.6 284.4 273.3 262.3 246.3 239.7 233.1 226.7 220.1 214.7 209.9 203.8 198.7 194.7 190.1 183.7 175 169.1 166 163.9 161.7 161.4 162 164.2 166.2 170.8 177.2 185.6 195 204.4 214.2 224.7 233.5 241.2 246.8 248.8 248.1 247.6 249.1 249.3 252.5 257.7 261.8 264.1 265.8 270.9 278.9 283.9 290.4 300.9 316.1 330 338.2 345.6 353.9 363.1 365.7 371.2 366.7 365.7 365.5 362.2 360.6 358.5 354.5 343.1 339.6 335.9 333.2 332.2 329.6 320.8 307.8 296.6 285.1 272.1 257 242.2 228.9 218.6 208.6 200.3 192.6 185.9 178.8 173.1 170.7 165.8 148.9 161.2 170.1 174.6 175.2 173.8 166.9 157.7 151.1 144.6 129.7 128.4 128.7 141.2 143.5 145.1 148.2 153 158.7 163.6 169.1 179 194 208.8 225.9 244.2 263.1 281.5 297.4 306.4 314.3 319 328.7 337.7 342.8 351.4 356.7 360.2 361 361.6 361.8 360.3 360.5 361.8 363.3 365.1 367.3 371.7 375.6 382 384.2 406.6 430.8
247.3 236.8 226.9 216.2 208 197.6 186.4 176.6 166.1 154.6 148 143.3 139.1 132.2 127.7 123 118.1 115 114.4 114.9 114.4 114.1 113.1 112.9 113.1 112.3 112.4 113 112.8 112.3 112.6 111.8 112.5 112.5 112.4 112.3 112.2 112.1 111.2 110.5 122.1 129.4 138.3 147.6 156.1 168.8 188.6 199.8 207 219.6 232.9 253.2 274.6 293.4 311.7 325.1 336.9 339.2 328.3 307.1 285.3 273.6 263.3 251.1 240.8 234.9 229.3 223.4 217.9 212.5 207.5 201.6 196.9 192.4 187 179.5 174.2 169.6 165.6 163.7 161.9 161.6 162.1 165.9 170.5 175.9 185.1 195.5 205.7 215 226 236.5 246.2 253.9 258.3 260.9 260.8 259.9 260.8 267.5 271.9 274.6 276.7 277.7 282.5 287.4 293 301 310.7 322.2 336.5 343.4 349.6 356.2 361.1 364.3 367.7 365.6 358.6 358 357.7 355.6 353.3 347 337.3 333.7 332.5 330.4 326.4 310.2 299.8 292 285.7 276.2 266.7 254.7 240.6 228.7 217.3 208 200 192 184.3 177 170.6 165.2 163.4 152.9 145.2 154.8 162.7 161.2 159.4 154.5 147.3 144.1 140.5 128.8 127.9 128 139.5 141.1 143 148.3 153.3 158.3 163 169 183.8 200.4 215.4 233.6 252.9 271.9 289.4 302 308.2 313.2 320.2 331.8 338.9 347.1 354.8 362.9 368.9 370.2 372 371.7 374.5 377.6 380.4 383.5 384.9 387.1 389.8 394.9 400.5 407.2 417.5 441.5
252.4 242.5 232.8 223.5 212.3 204.2 194.8 184.7 171.9 163 154.4 147.7 143 136.4 129 123.6 120.3 117.4 115.3 115 114.5 114.3 113.5 113.5 113.3 113 112.7 112.7 113 112.8 112.7 112.1 111.8 111.9 112.4 112.2 112.1 112.1 111.9 108 117.6 124.7 133 141.4 152 158.5 172.6 187.8 198.1 209.2 222.6 239.4 260.4 281.5 301.4 317.4 330.9 338 327 309.2 288.5 276.2 263.5 252.7 243.4 235.6 229.9 225.3 220.2 215.3 209 203.5 198.6 194 189.4 184.8 178.7 172.5 167.7 164 163.3 161.9 162.4 164.4 168.4 175.9 184.8 196.1 205.3 215.6 226.2 236.2 245.6 257.8 266.2 269.5 272.6 275.7 278 279.1 280.7 281.5 284 290.3 293.7 299.5 304.5 312.1 322.9 334.7 342.2 349.6 358.3 360.4 360.5 361.1 365.2 361.2 353.8 347.6 351.1 349 346.8 337.8 327.2 320.1 315.2 309.4 301.5 291.9 283.9 278.3 272.6 266.4 257.1 246.7 237.1 226.2 215.5 206.4 196.4 188.8 180.5 175 167.9 161.5 158.6 156.5 148.4 143.7 149.6 151.2 148.3 143.7 140.3 138.6 133.6 127.3 126.5 129.7 136.5 139.2 143.7 147.9 153.6 158.4 163.1 173 191 205.8 221.6 241.8 262.1 279.9 295.9 303.6 307.8 312.3 320.5 333.2 339.2 349.3 355.3 368.5 373.7 379.3 383.4 390.1 395.8 398.1 399 401.6 404.4 406.4 410.7 414.2 418.3 426.8 440.2 456.9
257.9 247 236.8 227.3 220 211.7 200.4 189.8 181.1 171.2 160 152.7 146.4 141.1 135.9 128.2 122.9 119.8 117.6 116.7 114.8 113.5 113.5 113.9 113.6 113.5 112.2 112.1 112.6 112.1 111.6 112.1 111.7 112.4 111.8 111.9 112.3 112.2 111.9 107.9 113.4 124.6 127.7 136.1 143.4 151.3 162.2 178.6 186.2 197.1 212.1 227.4 245.6 266.4 288.1 307.8 325.5 335.4 331.1 311.6 291.5 277.4 265.5 254.1 245.9 237.3 230.6 226.2 221.9 216.6 211.7 205.6 200 195.3 190.5 186 180.9 175.1 168.4 165.1 162.8 161.6 162.3 164.5 168.1 174 185 196.1 202.9 215.1 225.3 235.2 245.6 257.7 267.8 273.4 279 283.5 285.1 285.8 287.2 287.9 292.1 301 305.8 309.8 314.8 325.1 336.5 344.2 351.9 357.6 362.2 361.7 357.2 356.9 356.5 355.1 350.6 342.5 339.9 336.4 328.8 319.1 304.4 298.3 296.5 286.1 277.6 272.2 268.3 265.2 259.3 252.6 243 239.3 231.8 222 211 202.6 193.8 185.9 178.2 171 165.3 158 154.3 152.9 149 141.4 138.6 142.9 141 138.2 136.2 134.6 128.1 126.3 125.2 129.6 134.4 138.4 143.7 149.1 154.2 158.7 164.5 180.7 196.4 212.8 232.5 253.3 270.7 286.3 298.8 303.1 306 308.9 314.7 326.4 334.3 342.8 351 364 372.6 381.7 397.1 403 406 409 411.8 415.3 421.6 426.4 432.5 436.2 440.9 446.7 457.8 471.2
262.5 251.9 239.9 230.4 224.3 216.1 203.3 192.6 182.9 175.4 167 155.3 147.9 142.6 138.4 131.9 127 122.6 119.4 118.9 115.8 114.5 113.1 114 113.7 113.3 113.4 112.4 112.9 112.3 112.2 111.7 112.9 111.7 111.6 111.6 111.6 111.8 111.7 108.9 111.5 117.9 124.6 129.8 136.3 146.2 156.1 166.6 177.9 190 203 216.9 232 251.9 276.2 298.2 319 333.6 330.4 312.6 292.4 278.7 268.5 255.3 246.9 239.6 232.3 226.2 221.1 217.7 212.8 207.1 200.9 196.1 191.9 186.7 182.7 177.1 171.8 166.7 163.8 162.1 162.7 164.2 167.1 172.4 184.2 195.4 202.4 213.5 224.8 233.5 243.7 255.5 265.5 271.6 278 283.5 285.4 284.6 288 289.7 298.5 306.8 311.8 316 323.4 336.1 347.4 355.9 358.7 362.2 363.2 360.8 356.8 350.8 351 345.4 341.7 337.7 332.3 316.6 304.6 299.4 295.9 292.6 276.6 273.6 270.2 263.9 253.3 247.8 243.8 237.3 234.2 230.4 225.5 215.8 205.6 197.5 189.4 181.3 174.5 167.5 161.5 156.1 150.6 148.1 145.4 140.9 135.7 136.2 135.1 131.8 132.5 128.6 126.2 124.1 125.1 129.5 132.3 138.4 143.3 148.9 154.2 159.1 168.3 187.1 203.3 221.3 242.6 262.8 279.3 291.5 296.8 300.2 302.4 304.7 310.1 317 324.8 331.4 340.3 353.3 364.6 374.6 387.1 401 407.7 417.9 425 434.9 438.9 446.2 454.7 461.8 466 469.3 477 487.4
264.4 254.2 243.5 232.9 228.5 220.3 207.6 196.1 187.6 179.1 171.9 158.6 149.8 144.4 140.7 134.3 130.1 127.3 126.3 127.4 126.6 126.1 114.1 114.2 113.9 112.3 112.5 112.8 113.3 112.6 112.7 111.8 112.4 111.4 111.3 111.9 111.2 111.2 110.9 111.7 109 114.1 122.5 126.2 131.8 138.4 148.9 160.6 172.6 183.4 193.6 207.3 224.9 244.8 267.6 288 308.4 329.4 330.7 313.2 294.4 279.8 268.2 259 247.9 240.6 232.6 226.6 221.8 217.4 212.4 207.2 202.5 197.4 193 187.7 183.1 181.2 175.8 169.5 164.1 163.1 162.9 164.1 167.5 171 182.9 193.9 201.2 212.8 223.4 232 240.8 252.1 262.9 267.6 272.4 277 282.1 281.6 283.4 289.8 300.8 310.9 316.1 327.1 335.6 343.7 353.7 360.4 362 363.1 361.8 359.5 355.9 347.8 342.6 339.8 336.7 334.3 324.3 299.7 297.6 290.1 282.9 274.4 270.7 266.9 259.1 248.3 238.7 234.4 231.2 224.9 225.2 220.6 215.9 208.6 199.9 191.9 183.3 176.7 170.2 164.3 157.7 153 148.4 144.9 140.5 136.6 133.2 133.2 131 129 128 125.8 125.1 124.6 124.7 129.4 134.6 139.4 142.4 148.2 152.6 159.7 174.7 192.5 208.9 229.3 249.2 266 281.8 290.5 294.5 297.9 299 301.2 305.2 310.3 315.6 323.5 329.7 342.2 351.5 365.6 376.3 393.9 403.8 415.4 431.7 442.6 457.7 464.8 468.1 476.7 485.5 493.5 500.7 509.4
268.8 256.2 245.1 237.5 230.7 221.2 211.9 199.2 190.8 181.2 174.1 164.8 153.3 147.1 142.6 139.8 134.4 132.7 129.6 136.5 138.9 137.5 126.7 113.6 113.7 114.1 113.5 113.7 115.3 114 113.7 113.2 112.7 111.4 111.9 111.5 111.2 110.5 110.8 111.5 107.1 112.4 117 123.1 127 131.7 143.5 152 165.2 175.2 186.2 200.6 213 232.2 253.9 276 298.7 323.8 329 313.4 296.5 281.4 270.4 259.3 249.4 241.5 234.1 227.2 222.4 217.7 213.2 209 204.1 199.2 194 188.8 185.4 182.8 178.5 171.9 166.7 163.6 162.8 163.8 167.2 170.3 180.3 191.8 200.6 210.6 222.2 230 237.6 245.1 259.6 263 265.2 268.4 275.1 278.3 283.3 290.4 302.7 312.6 326.5 337.2 347.1 353.9 356.8 362.6 363 362 360.5 356.8 353.1 348.4 340.9 337 333 327.5 307.7 293.5 279.6 276 271 266.2 263.5 255 246.5 236.5 227.7 222.7 217.2 213.8 216.1 213.3 207.6 200.3 192.3 185 177.2 171.1 164.3 159.2 154.6 149.6 145.3 141.9 138.4 134.4 130.1 130.5 129.8 127.6 125.6 124.4 124.1 122.8 123.9 129.5 135.8 139.5 143.1 147.7 151.9 161.3 181.7 197.7 215 235.7 251.9 264.3 275.9 287.3 292 295 296.4 297.2 299.2 303.6 307.9 314 320.5 331.8 343.5 356.2 370.7 385.3 400.5 411.5 429.4 446.6 464.8 469.2 482.3 493.2 499.5 508.4 514.1 522.5
270.5 259.5 249.1 240.9 232.1 221.9 212.7 200.8 192.8 183.4 175.4 167.6 157.8 150.6 144.8 142.7 138 133.3 131.6 137.1 139.5 138.7 126.6 118.3 114.1 113.5 113.5 114.7 115.5 114.3 113.7 113.3 112.3 111.9 111.7 111.8 111.3 111 111.7 110.9 107.1 111 114.9 120 123.4 130.4 137.6 144.3 156.4 168.9 180.3 191.7 204.2 219.2 239.8 262.4 287.4 314.1 327.4 312.6 299 283.8 271.3 260.9 250.8 244.2 237.1 228.3 223 218.4 214.3 210.5 206.6 201.6 195.9 191.1 187.6 183.5 179.5 173.5 167.5 165.3 163.6 164.4 167.2 170.1 178.5 190.1 198.9 209.4 219.1 226.5 233.4 238.9 252.2 256.9 258.9 262 268.9 275.5 282.7 291.6 307.3 322.3 332.4 342.8 352.9 356.3 359.4 361.4 365.4 363.9 359.6 355.4 349.7 347.1 342 335.4 328.3 308.3 292.8 281.9 270.3 262.5 256.1 251.8 246.2 241.7 231.9 226.7 218.2 207 208.3 204.9 204.1 203.1 197.9 192.9 185.3 177.4 171.3 165.1 160.1 155.7 152.2 146.7 143 139.3 134.6 132.4 127.2 128.3 127.5 126.5 124.8 123.2 123.4 122 122.8 130.1 134.6 139.5 143.6 148.4 155 168.5 186 203 220.6 240.1 252.4 262.2 270.2 276.4 282.2 287.9 290.2 292.6 294.8 296.8 299.5 305.2 312.1 322.5 333.7 347.1 363.3 378.4 397.2 408.2 427.2 448.2 463.9 474.9 486.5 497.9 508 517.4 526.8 534.4
268.8 260.5 249.9 242.2 232.3 221.1 212.2 201.7 193.2 186.7 178.8 170.8 162.4 153.4 146.4 143.8 138.3 133.7 131.6 133.5 137.8 134.9 128 123.9 118.3 116.4 114.9 115.7 117.7 117 114.2 113.6 113.8 113.1 112.5 112 111.5 111.4 111.6 112 110.6 109.9 114.7 117.3 120 127.1 133.4 134.2 149.3 162.9 172.5 185.3 197.5 209.8 225.3 249.6 274.3 302.2 324.5 309.9 297.7 285.3 274.6 263.3 254.6 246.5 239 231.8 225 220 215.7 211.7 207.5 203.8 197.5 192.2 188 184.3 179.7 175.1 169.2 166.9 165 164.2 167.8 169 174.9 186.9 198.3 207.2 214.1 222.7 228.1 233 242.3 249.1 253.1 258.5 266.5 273.6 282 297.4 313.1 324.5 333.6 343.8 350.9 358.1 362.1 361.2 365.5 362.1 359.9 353.8 346.1 342.8 338.7 321.7 306.9 293.9 281.4 269.3 255 247.2 245.8 244.1 240.4 231.2 223.6 217.1 212 203.7 198.6 197.2 193.7 190.8 187.6 184 178.2 170.1 163.6 158.9 155.1 151.7 147.9 144.2 140.6 137.3 133 129.4 124.9 126.2 126.1 124.5 123.6 122.2 121.6 121.6 123.1 128.8 133.6 138.9 143.7 147.4 159.4 175.2 190.3 207.7 224.8 239.7 249.3 258 264.2 268.4 272.4 278.8 281.1 283.9 287.5 290.9 294.5 299.5 304.9 315 324.3 337.1 354.7 370.1 390 404.9 425.9 448.5 464 476.9 491.2 503.9 519.8 530.9 534.9 543.4
265.7 258.8 249.3 241.3 231.9 220.8 212.2 202.7 193.9 186.7 180.2 172.9 165.2 159.5 149.9 144.8 140.2 135.1 132.6 131.3 135.3 132.3 134.1 127.3 122.4 117.7 114.9 121.9 127.3 120.6 115.5 114.6 114.1 113.4 112.6 112.4 112 112.6 111.6 111 112 108.7 109.3 111.6 115.2 120.3 127 134.2 142.7 155.2 166 177.1 188.8 201.7 217.1 236.1 263.9 293.4 314.2 308.6 296.4 285.9 275.2 266.2 256.1 247.4 240.8 234.5 227.5 222 217.8 213.6 209.8 205.6 199.9 194.2 189.3 183.8 180 175.9 171.3 168.1 166.2 165 167.1 170.2 173.6 182.3 194.1 201.4 210.7 217.5 223.5 228.3 235 241.5 247 255.4 264.1 272.6 288.5 300.7 315.9 326.1 332.8 343.1 350.3 358.3 361.4 360.9 362.1 360.9 353.3 348 341.9 338.7 333 311.9 297.2 284.4 273.6 262.1 244.9 234.1 233.4 232 229.2 223.5 217.6 212.5 206.4 201.3 195.5 190.3 185.3 180.9 173.5 172.4 168.9 162.7 157.5 153.2 150.3 148.6 144.1 142.6 139.7 134.7 131.6 127.3 123.2 123.7 123.6 123.1 122.6 121.5 120.8 121.2 124.9 128 133.1 139.6 143.9 149.8 165.5 178.8 193 212.6 227.2 237.7 242.9 250.7 255.8 260.9 264.9 270 272.1 273.8 275.7 276.7 285.1 289.6 297.1 306.5 315.4 330.4 346.9 362.2 384.6 401.4 424.3 450.1 462.9 479 494.2 508.2 526.1 534.3 541.4 550.4
261 255.3 248.6 239.6 230.5 220.4 211.4 201.7 194.8 187.1 181 174.1 165.9 160.5 153 145 141.2 136.9 134.5 133.7 135.8 138 138 131.6 126.6 126.7 126.2 129.8 127.1 119.5 116 115 114.6 113.6 112.9 113.4 112.9 112.1 111.5 111.6 111.9 110.9 110.3 107.1 111.3 114.4 123.6 129.7 136.9 147.3 158.7 169.2 181.5 195.7 213.7 232.9 256 280.8 302.5 306.3 296.2 284.9 274.3 267.5 260.2 250.8 243.2 236.7 229.5 224.2 220 215.8 211.8 208.1 203.1 197.5 191 184.8 180.8 176.5 172.3 168.9 167.4 166 167.4 169.9 173 179.4 190.7 200.2 207.3 213.7 217.7 222.6 227.7 235 242.5 251.4 262 271.5 290.3 304.7 318.3 326.9 334.6 341.4 351 358 359.6 361.4 360.3 358.1 349.9 343.1 339.1 336.9 327.7 307.8 291.5 276.9 270 253.8 238 223.6 221.7 222.1 221 216.5 213.1 207.9 201.8 195 187.1 187.3 180.4 173.4 166.8 161.5 158 157 152.8 148.1 146.8 143.8 141.6 138.8 137 133.6 128.7 125.7 121.6 120.8 121.6 122 121.1 120.8 120.9 121.4 126.5 128.8 134 140.3 145.9 155 168 178.6 193.1 209.5 222.6 231.2 235.1 240.7 240.8 237.6 240.7 240.9 246.8 254.8 256.9 263.2 274.3 285 289.4 296.5 308.4 318.8 337.5 358.2 380 400.1 425.6 451.9 466 484.3 498 513.6 528.3 536.9 547.6 564.1
254.6 249.3 244 236 228.1 217.9 207.4 199.7 193.2 186.8 180.8 174.1 167.6 162.6 155 149.3 145.1 140 137.8 135.9 135.1 137.3 137.9 132.9 132.3 131.9 132.1 127.7 115.8 115.5 115.3 114.9 114.6 114.1 113.8 113.3 113.5 112.9 112.1 112.2 111.8 111.4 111.2 111.4 108.2 107.1 116 123.4 132.2 141.4 152.2 161.8 175.1 188.5 202.5 228 249.1 272.3 290.7 297.4 294.5 284.2 273.9 267.3 261.5 253.8 244.8 239.4 232 225.9 221.3 217.5 214 210.2 205.3 200.2 194.4 186.8 180.8 177.2 173.5 170.7 168.8 166.1 167.1 169.7 173 177.5 185.7 196.5 202.3 209.1 214.3 218.7 221 230.6 238.7 248.2 257.4 271 289.3 305.1 315.9 326.9 333.8 340.7 350 353.9 358.7 360.1 358.8 355.5 350.5 341.9 336.9 332.3 330.2 307.5 287.4 272 262.7 248.6 233 220.3 213.5 215.3 216 213.1 210.4 206.6 202.8 195.2 185.2 179 175.2 170.8 164.8 158.7 152.9 148.8 146.6 144.4 141.4 139.3 138.3 135.8 133.3 130.9 127 122.4 120.2 120.3 120.5 121 120.1 120.2 119.7 122.7 128.3 131.9 136.3 142.1 149.7 157.4 168.4 178 190.2 205.1 214.6 221.1 223.7 220.6 218.2 222.7 233.9 244.1 253.8 259.3 267.3 275.1 283.4 290.1 297.5 305.3 313.8 317.8 335.2 356.6 378.8 399.6 425.6 452.8 470.7 487.9 503.9 521.7 532.6 541 558.6 569.6
248 241.1 237.2 230.6 225 216.3 207.3 199.3 192.6 187 180.3 174.2 168.3 163.7 154.8 150.1 146.4 143.4 140.2 137.6 136.8 138.4 138.1 133.8 133.4 131.5 128 118 116.1 116.5 115.8 115.5 115.2 114.7 114.6 114.3 113.3 113.1 112.5 112.3 112.2 111.5 111.2 111.2 110.2 110.7 107.1 119.1 125.6 134.4 143.7 157 169.9 181.9 192.7 218.8 242.3 264.2 280.5 287.9 286.4 281.5 273.5 267 261.9 255.4 248 241.2 235 228.3 223.1 219.8 215.1 211.7 209.2 201.6 197.8 190.6 182.3 176.1 173.9 171.2 168.5 167.3 166.2 169.7 172.2 175.6 181.6 190.3 198.9 205.3 209.7 211.6 219.3 226.4 236.1 245.2 254.1 268.8 287.4 302.6 312.2 325.2 333.6 339.2 345.2 350.2 353 358.7 356.2 355.3 351.4 347.8 337.5 330.6 323.6 312.9 291.4 269.2 258.8 246.1 231.7 219.7 207.5 208.6 210.5 209 205.7 204.1 201.4 196.9 189 180.1 170 165.1 158.7 155 151.4 145.8 140.8 140.2 138.1 135.6 134.8 133.6 130.2 127.5 123.9 119.6 118.7 119 119.5 119.7 119.3 119.7 119.2 125.5 129.2 133.9 139 144.1 150.1 159.6 168.2 176.7 186.7 197.6 205.8 208.9 206.4 208.4 225.6 240 248.8 256.6 262.7 268.7 277.2 283.6 290.2 296.7 304.1 314.1 323.3 335.3 347.6 364.5 380 398.8 430.9 454.6 472.2 490.3 508.7 525.7 534.9 546.6 563.5 578.4
242.3 234.1 230.9 225.5 220.2 212.2 205.8 197.8 191 185.4 179.9 175.1 169.4 163 158.5 150.7 147.9 144.5 141.5 139.2 137.7 137.4 138.5 135.8 133.3 130.5 117.9 116.9 117 117.4 116.5 115.8 115.4 115.6 115.2 114.1 113.5 113.1 112.9 112.5 112.4 111.1 111.1 110.7 111.2 111 111 109.6 121.3 129.6 139.6 151.4 163.3 175.7 185.9 205.6 231.2 253 266.8 274.7 275.8 274 270.9 266.9 261.9 256.3 249.4 242.5 237.5 230.9 225.5 220.6 220.5 212.8 209 203.7 198.7 194.2 185.6 177.8 173.7 170.8 169.3 168.7 167 169.4 171.5 173.9 176.8 185.8 194.2 200.8 205.5 210.3 216.6 223.4 232.7 241.3 252.3 265.9 283.3 297.6 307.7 321.9 328.9 337.5 342.2 344 348.6 355.9 354.5 352.8 351.7 349.2 344.8 332.3 320.7 313.5 297.7 275.5 257.1 247.5 233.1 221.5 207.5 198.5 202.7 203.2 201.3 199.4 197.9 193.8 188.7 183.1 175 167 157.1 148.9 145.5 142.6 139 133.4 134.7 131.9 130.2 128.6 126.8 124 120.6 118.3 117.5 117.8 118.7 118.7 118.5 118.2 119.8 125.5 130.1 133.8 138.6 144.7 148.2 157.2 166.2 174.9 183.5 190.2 189.9 191.4 204.5 219.1 238.1 248.8 255.7 264.3 272.5 280 286.5 292.7 299.1 305.2 314.4 325.6 337 350.3 362.9 379.1 398 418.6 442.6 459.8 479.3 495.9 515.4 526.9 537.9 558.3 572.2 586.6
241.8 234 227.4 220 212.3 211.8 203.8 195.7 189.5 184.1 179.9 174.6 169.3 163.5 156.7 152.4 149.4 145.9 142.8 140.8 138.2 134.3 137 137.1 134.9 119.4 118.3 118.3 118.1 117.6 116.9 116 115.7 115.7 115.4 114.9 113.9 113.4 113.1 112.8 113 111.5 111.1 111.8 111.4 111.3 109.1 107.5 119.1 123.5 134.9 145.1 156 168.4 178.7 196.5 219.1 237.1 253.2 263 266.6 265.6 264.9 266.1 261.8 257.3 250.8 243.9 238.5 233.2 228.2 221.7 219.3 214.8 210.7 205.4 199.9 194.8 188.4 181 175 172 171.3 169.7 168.9 167.4 170.6 173.4 177.1 182.3 189.8 196.7 203.4 208.4 213.9 220.9 229.9 238.9 248.8 261.1 278.3 291.2 301.9 315.2 324.8 334.5 337.6 340.2 345.3 356.1 355.8 352.7 350.8 347.5 343.4 338.6 320.5 311.5 305.9 282.1 257.6 250 237.9 225.2 210.9 197.5 191.8 196.7 195.8 194 192.3 190 185.6 179.7 173.9 167.2 159.8 151.7 145.9 140.9 135.8 131.3 129.7 129.2 126.9 124.1 122.8 120.3 117.6 114.8 116.4 116.7 117.1 117.1 117.2 117.4 120.8 124.3 128.1 133.9 139.8 147 154.6 160.8 168 170.4 173.5 184.9 195 204.8 222.1 232.9 244.6 254.3 265.7 274 280.4 287.6 294 302 310 318.2 329.1 340.9 352.5 366.3 379.3 395.1 415.5 438 454 471.6 488.7 503.9 519.7 530.4 544.1 562.3 575.4 593
242.9 234 227.1 221.4 213.7 203.7 201.5 192.2 187.4 181.9 177.3 172.3 166.1 161.4 156.3 152.9 149.9 147.1 145 142.8 139.6 134.9 132.6 134.1 126.6 120.5 119.9 119.4 118.6 117.9 117.4 116.7 115.6 116 115.3 114.8 114.2 113.9 113.9 115.3 112.7 112 111.9 111.3 111.2 110.4 108.1 110.7 110.6 120.4 129.6 139.6 150.8 162.7 173.6 196.6 218.3 227.7 235.5 249.8 259.5 260.4 259.8 260.8 260.3 256.8 251.4 245.8 239.4 233.9 229.2 224.6 221 216.5 211.8 207.3 201.7 195 189.6 184.4 177.9 174.1 172.3 171.3 170.8 169.5 170.9 173.5 177.3 181.6 186.8 194.3 201.3 206.3 212.9 219.6 228 236.6 247.1 259.6 273.2 286.6 297.4 309 320.5 334.2 337 338.7 343.5 355.2 361.2 353.5 349.1 346.7 343 339.3 326.8 310.8 303.9 287.8 264.4 248.8 241.5 230 216.4 205.2 191.7 185.9 185.6 187.3 185.9 184.8 181.2 175.6 170.6 164.3 157.5 151.4 145 139.7 134.1 129.3 125.6 125.3 124 121.9 119.6 116.8 115.5 114 114.9 116.1 116.6 116.9 116.4 116.4 119.5 122.8 128.2 134.7 142.3 150.9 159.6 166.2 173.1 179.8 185.8 192.4 203.8 218 229.5 242.4 252.4 264.7 272.8 279.2 287.1 295.9 305.8 313.9 325.9 336.9 346.4 356 369.1 381.7 397.9 417.2 437 451 467.6 484 499.2 515 523 534.6 552.6 566.4 583.8 598.6
242.5 233.5 226.3 220.3 213.3 207.2 201.4 193.9 187.2 181.5 175.2 170.9 166.9 162 156.4 154 148.4 146.2 144.9 143.1 140.3 136.6 131.4 132.9 123.2 121.2 120.8 120 119.3 118.1 118.2 117.5 116.5 116.2 115.7 115.2 114.7 114.1 115.9 115.4 113.2 111.9 109.8 109.7 111 111.1 111.1 110 107 116.5 124.9 133.8 145.9 157.3 166.2 185.6 210.7 220.3 224.5 230.6 245.5 252.1 253.8 254.4 256.5 255.1 250.8 245.7 240.7 235.6 229.8 225.9 221.6 217.8 212.7 208 203.6 198.2 192.2 187.3 180.5 175.8 174.9 173 172.8 171.9 171.7 173.9 176.5 180.6 184.3 191.3 197.9 205.2 211.8 214.5 226.7 235.6 245.4 257.5 269.4 282.8 295.3 306.7 316.2 331.3 338 339.8 343.9 353.6 362.7 359.3 350.5 344.1 340.3 335.8 332.3 317.2 304.1 292.4 267.5 248.2 242.2 230.6 221 210 198 187.3 180.8 177.4 177.1 176.6 174.3 170.4 164.1 158.5 152.5 146.7 141.9 136.9 131.5 127 121.3 121.2 120.2 118.8 116.9 114.9 112.7 114.3 114.7 115.6 116.2 116.6 116.1 114.9 115.5 121.3 128.6 135.9 145.3 157.2 165.2 170.7 181.5 189.1 197.3 206.1 216.2 228.5 240.9 251.3 263.3 272.6 279.6 289.1 301.2 309.5 319.5 331.2 342 353 364.4 375.3 387.1 402 418.5 436.7 449.6 464.8 480.5 495.1 510.5 519.9 529.1 542.8 558.8 574 590.5 599.1
246.5 237.7 226.9 219.1 212.2 205.6 200 194.2 187.7 181.4 177.1 171.9 167.2 161.8 156.7 153.1 149 145.5 144 142.8 141 136.8 131.8 127.6 123.1 122.7 121.3 120.1 119.3 118.6 118 117.7 117.3 116.9 116.2 115.7 115.2 114.5 117.1 113.5 112.9 113 112.5 111.6 111.5 111.4 110.6 110.9 109.8 110 120.1 130.1 142.3 152.2 161.8 179.4 197 210.4 215.7 219.3 230.3 239.7 244.8 247.9 249.4 250.7 249.2 245.5 241.1 237.3 231.4 226 222.6 218.8 213.7 209.4 204.3 200.1 195.8 191.8 184.7 178.4 177.1 175.1 174.9 172.6 172.7 174.7 177.2 179.9 182.6 189.3 192.9 202.9 210.2 218.6 225.9 234.9 245.3 256.9 268.8 279.9 294.3 306.9 315.5 328.6 338 341.2 345.5 355.8 361.5 358.6 353.9 346.7 340.1 335 330.5 326.3 309.7 296.1 277.5 252.6 240.5 234.5 223.1 212.6 203.4 194.1 186.5 178.8 172.9 167.6 163.4 160.7 154.8 150.5 145.5 141.2 138 134.6 130.9 127.8 125.8 123.1 119.5 116.3 114.4 113.3 111.4 113.7 114 114.7 115.3 115.1 115 114.2 114.6 122.7 129.1 137.3 148.5 160.3 170.5 182.8 195.2 205.6 210.8 220.5 233.1 240.1 249.1 260.7 270.9 277 287.1 299.1 308.8 321 333.8 345 356 367 375.6 388.6 406.3 422.5 436.3 446.9 460.7 476.1 491.8 505.9 515.6 523.4 535.4 550.1 566.3 583.2 591.7 596.9
245.2 239.1 229.2 217.5 209.7 203.1 197.9 192.3 185.7 179.4 175.5 171.2 166.5 161.6 155.5 152.2 148.6 145.9 143.7 142.7 140.8 137.7 132.9 129.8 123.2 122.4 121.8 120.5 119.8 119.3 118.6 118.4 117.3 117.4 116.5 115.7 115.4 115.5 114.2 112.8 113.5 112.8 111.7 111.4 111.2 110.9 110.6 110.8 111.2 106.6 115.1 125 136.3 148.6 158 173.7 187.5 201.7 204.9 209.5 212.4 227.2 234.6 237.8 240.8 244 245.2 242.2 240 236.8 231.7 226.6 223.1 219.3 215.2 210.9 206.6 202 198.5 194.9 190.6 182.1 178.9 177.2 177.2 174.8 173 176.5 178.8 181.2 182.5 187.7 191.1 201.7 209.9 217.8 226.5 234.8 244.9 255.8 267.8 280.5 294.8 307.8 317.2 326.6 336.7 340.8 348 358.8 360 356 351.7 346.9 342.7 339.5 333.5 325.4 316.4 300.2 283.8 259.8 244.5 236.9 230.4 217 208.4 199.5 191.1 183.6 177.6 171.9 166.8 161.3 156.4 153.4 149.5 144.9 140.2 136.6 132.4 129.8 127.9 124.3 120 118.8 115.5 113.4 112.2 112.9 113 114.1 114.4 114.3 114.3 114 115.3 123.4 129.2 138.3 151 164.2 177.6 193.5 205.3 214.2 222.1 228.4 236.9 248 256.6 264.4 274 281.9 293.9 304.1 313.9 330.4 342.8 357 368.2 376.6 386.5 400.5 422.9 434.9 446.6 459.4 472.5 488.9 503.5 511.8 519.5 530 544.5 557.6 575.6 585.8 592.2 592.8
249.7 234 225.1 217 209.1 203.5 195.1 187.6 181.4 176.6 172.9 169.1 163.4 157.5 152.4 149.7 147.5 145.3 143.3 142.3 140.7 137.7 132.3 128.4 125.4 122.4 121.9 120.3 120.2 120.1 119.4 118.6 117.7 116.9 115.7 114.2 115.7 115.4 115 114.1 114 113.7 113.2 111 110.5 110.8 111.1 110.8 110.7 108 111 120.9 133 144.4 155.7 167.8 179.3 187.8 194.4 200 205.6 210.5 222.5 228.5 231.5 234.6 236.9 237.5 236.2 235.3 231.2 227.5 223.6 220 215.5 211.7 208.2 203.8 199.8 197.1 193.3 186.1 181.4 179.6 178.7 174.2 173.4 179 182.1 186.4 187 187.8 190.5 199.3 209.3 217.7 225.4 235.1 245.1 256.7 269.4 282.1 297.6 308.6 319.9 328 336.7 343.8 355.9 362.7 359.6 354.8 349.1 344.3 340.6 336.9 334.7 326.2 318.7 307 286.1 263.5 247.6 239.1 231.4 224.3 210.1 204.1 198 190.1 181.8 176.4 172.6 168.7 163.1 159 154 149.2 143.4 137.7 132.9 129 126.9 123.8 119.9 117.4 115.4 112.5 111.3 112.1 112.4 113.6 114.5 113.6 113 113.8 115.1 123.4 128.3 141 153.4 166.2 181.9 197.3 206.7 218.3 225 230.3 239.4 254.6 259.8 265.4 274.1 285.8 299 309 321.2 335.9 351.8 365 374.7 384.9 397.7 413.3 433.3 440.4 456 468.9 481.2 499.7 507.8 515.7 523.6 535.9 550.7 565.7 581.5 589.1 589.8 587.4
250.9 240.2 228.2 218.3 210.1 200.5 193.9 184.9 180.5 176.2 171.3 167.9 164.1 157 151 149.2 147.7 145.3 142.8 140.8 138.9 136.5 131.9 126.3 124.2 123.3 122 121 120.7 120.4 119.4 118.5 115.9 117.1 116.7 117.2 116 116.9 115.9 114.9 114.8 114 112.9 112.3 112.2 110.5 110.1 110.8 110.7 111.2 106.1 116.4 128.9 141.5 150.5 163.7 172.3 180 185.8 190.2 196.2 201.6 211 218.1 223.5 226.3 228.4 230.6 231.1 231.4 230.2 227.4 224.3 220.3 216.4 211.9 208.4 205.6 201.5 198.4 195.7 189.5 184.4 181.3 177.1 179.1 178.1 178 181.5 187.7 186.3 188.4 190.7 197.6 205.8 216 225.2 235.3 245 257.3 271.8 288.4 300.2 311.2 321.8 329.6 336.8 346.1 359.9 360.8 359.4 352.8 346.4 340.9 336.9 334.5 331.2 327.3 317.8 311.6 297.5 272.2 253.4 241.3 233.4 225.7 216.4 207.4 200.3 193.7 186.2 181 176.1 171.1 166.8 160.9 155.2 149.4 143.9 138.2 132.7 128.4 125.1 122.4 118.5 113.6 111.6 109.4 111.1 111.7 112.1 112.6 112.9 113.1 111 112.7 115.9 123 129.4 140.8 154.4 164.8 181.2 195.2 205.4 215.3 226 231.4 239.2 256.5 260.8 265.4 276.1 289.6 300.2 310.8 327.5 339.8 355.1 367.2 380.2 390.5 403.3 425.4 433.7 445.3 461.9 475.6 489.6 504.1 509.3 516.7 525.1 540.3 552.6 572.3 584.2 587.4 584.8 581.1
249.5 237.7 228.7 216.9 208.3 200.5 191.7 183.7 178.4 174 169.5 165.4 160.3 153.8 150.3 148.8 148.8 145.4 141.7 137.3 135.7 135.3 132.9 127.7 124.3 123.7 122.2 122.1 121.4 120.7 119.8 119.4 118.2 117.9 117.4 116.6 117.7 117.2 116 115.1 114.9 113.3 112.5 112.3 111.4 111 110.2 111.1 111.2 111.2 107.4 112.5 125.2 136.7 146.9 158.9 166.8 173.2 178 182.5 187 193.5 198.8 207.7 214.3 218.4 220.9 224.5 226.2 227 226.9 225.3 222.6 219.3 215.5 213 208.7 206 203.5 200.2 197.7 194.1 189 182.2 181.3 180.9 180.6 178.8 178.7 182.1 183.9 185.5 190.7 194.5 202.9 215.4 224.6 235.5 245.4 260.3 279.3 293.4 303.8 312.9 323.1 330.7 339 354.9 357.3 357.1 355.6 353.3 344.9 337.6 333.7 332.3 330.1 326.2 316.6 310.4 304.3 282.6 260.3 244.1 233.5 226.8 220.3 212 203.8 196.9 190 183.8 178.8 173.2 166.9 161.1 154.8 148.4 142.7 137 131.2 126.3 122.3 120.6 117.3 111.6 110.1 110.1 110.5 111.1 111.6 111.3 112.2 111.9 111.9 112.2 114.4 122.4 129.7 140.6 153.6 165 176 192.9 201.7 212.4 221.3 230.1 239.1 254.9 257.8 263.7 275.6 289.6 299.4 312.3 328.6 341.9 356.1 368.1 380.1 392.6 404.5 425.8 432.4 444.3 461.2 474.3 493.4 502.8 507.5 513.6 524.8 540.6 551.9 572.9 580.9 582.9 580.4 576.3
248.5 238.9 225.9 216.4 206.6 196.3 189.4 183.4 176.6 171.6 166.7 161 154.7 151.9 147.3 144.5 145.5 143 139 134.8 133.2 132.6 130.7 126.1 125.2 123.4 122.7 121.8 121.2 120.9 120.1 119.2 118.8 118.7 121.1 118.3 117.7 117 116.4 115.7 114.4 113.9 113.6 113.2 112.3 111.7 111 110.6 110.8 110.6 110.3 106.1 120.2 132.3 142.9 153.5 162.2 166.4 171.1 175.3 179.3 186.7 190.3 197.4 204.8 209.8 213.5 217.5 220.8 222.3 222.9 221.9 219.7 218.9 215.9 212.8 208.6 206.3 203.6 200.9 199.4 197.1 191.9 188 184.1 182.5 182.9 183.1 181.7 181.9 183 185.2 188.2 192.8 199.4 212.6 224.4 235.3 247.7 265.4 283 296.5 306.6 316.2 322.9 331.6 341 355.4 353.6 352.3 352.2 350.9 346.9 335 330.7 328.5 326.4 321.9 313.8 309.1 303.6 293.5 266.7 250.3 236.9 226.9 220.7 213.8 205.2 198.1 191.7 185.9 179.5 173.3 166.6 160.5 154 148 141.5 135.6 130.5 125.4 119.6 116 111.8 109.3 109.4 108.6 109.8 110.7 110.9 111.2 111.4 111.2 110.9 111.5 112.6 120.7 127.1 138.2 150.4 163.7 172.3 186.6 197.5 209.1 218.1 226.7 236.8 252.9 255.6 261.9 270.5 285.5 296.4 310 325 338.6 354 365.7 377.5 388.9 402.6 422.5 430.5 440.9 458 470.1 486.1 498.3 504 510.6 521.6 536.2 548.6 566.6 577 577.5 573.5 566.6
243.5 233.8 225.9 215 203.3 195.1 193.2 186.4 176.1 169.2 164 158.3 152.6 150.2 146.1 143.9 143.1 142 136.6 134.4 132.7 130.7 128.2 126.5 125.4 126.3 123.4 122.5 121.9 120.9 120.2 119.4 119.3 119 118.8 118.6 117.9 116.9 116.2 115.2 114.7 114.1 113.6 112.2 111.8 111.8 110.3 110.4 110.6 110.5 111.2 106.1 114.1 126.2 138.8 148.3 155.4 161.7 166.8 170.2 174.1 179.9 187.6 188.9 195.9 200.5 205 211.2 214.9 217.5 218.7 219 216.2 214.8 214.5 212.1 209.3 206.9 204.5 201.7 200.9 198.7 195.9 192.5 188 185 185 184.7 186.4 186.6 185.2 184 186.9 190.9 197.2 209.8 224.5 235.2 249.9 270.6 287.2 298.5 309.9 318.8 324.6 335.2 342.9 349.6 350.8 349.2 348.4 348.2 344 333.9 326.5 323.5 321.8 319.3 312.2 307.2 301.6 295.1 272.9 257.4 242.4 228.6 220.4 213.1 204.6 197.6 191.3 186.1 180.2 173.9 167.7 161 154 147.5 142.1 134.9 128.7 123.2 117.4 112.6 109.6 108.5 109.5 108.2 109.4 110.2 110.7 110.6 110.7 110.5 110.2 108.3 113.2 118.7 124.4 134.4 146.6 158.7 168.7 182.1 192.4 203.6 211.1 223.9 234.1 248.1 254.4 259.6 265.9 280.9 292 302.6 319.5 331.9 349.3 359.9 371 381.8 396.4 419.8 427.2 438.2 452.7 464.2 477.6 492.9 499.9 507.3 516.3 532.7 542.4 556.8 569.8 570 563.6 553.2
234.9 231 220.6 210.8 199.5 195.2 193.3 186.2 176 167.1 162.1 156.4 151.6 148.9 145.3 142 142.1 138.6 136.6 134.6 132.8 131.1 128.6 127.6 125.8 124 126.3 123.2 122.2 121.5 120.9 117 120.6 119.5 119.5 118.7 117.9 116.9 115.9 115.1 114.4 113.6 113 111.8 111.9 111.6 110.2 110.6 110.1 110.2 110.5 109.8 109.9 120.2 131.5 141.4 150.9 156.5 161.3 165.4 169.1 174.3 179.9 183.3 188 192.6 196.8 203.1 208.1 212.2 214.7 214.8 214.1 211.2 210.5 210.8 208.3 206.7 204.6 202 200.8 200.1 198.4 195.3 192 186.9 188.8 188.9 188.4 188.6 188.7 188.6 187.4 190.9 195.4 208.1 223.6 236.7 256.2 276.9 290.8 301.1 311.6 319.6 327.2 339.2 341.1 341.2 344.5 346.1 344.5 344.5 341.6 330.3 322.8 316.4 312.4 310 307.4 304.9 299.2 293.1 273.6 260.6 249.2 236.3 223.6 215 205.9 198.8 192.1 186.2 180.8 174.6 167.7 161.1 154.7 147.3 141 134.8 128.6 121.5 116.1 110.2 107.5 107.7 108.2 108 108.9 109.3 109.5 109.3 110 109.8 108.8 108.8 114.1 119.5 124.2 132.5 143.3 155.2 164.4 176.5 188.5 199 209.1 218.7 229.9 244.8 246.7 253.9 260.3 272.8 286.3 296.6 313.1 325.6 341 352.5 363.3 373.3 388.9 409.5 421.6 430.2 443.2 456.6 469.2 484.9 495.3 502.9 510.6 528.6 536.5 548.4 556 556.8 549.6 541
233 226 216.3 204.7 197.2 192.9 187.4 180.4 172.6 167.9 164.3 159.4 151 147.4 144.2 141.4 139.6 137.9 136.3 134.5 132.4 131 129.4 127.1 125.3 124.9 123 125.7 122.7 122.3 120.7 121.5 122.8 119.6 119.2 118.8 117.4 116.7 115.8 115.2 114.6 113.5 112.6 111.5 110.9 110.5 110.9 110.3 110.1 110.1 110.2 110.8 106.1 117 126.1 136.2 143.3 150.8 157 163.6 164.5 169.8 174.3 178.9 182 185 189.4 194.8 200.4 206.7 209.6 211 210.8 209.6 207.6 208.1 207 205.6 204.2 202.5 201.7 200 198.8 197.4 192.5 188.4 194.7 193.1 191.9 191.6 191.9 190.1 189.4 190.4 195.2 207.6 224.4 241.7 264.5 283 294 305.1 312.7 320.8 326.5 331.2 334.6 334.2 337.5 340.1 340.8 340.7 337.4 326.5 318.6 311.1 306.6 303.3 301.4 297.6 294.8 288.9 272.2 261 251.7 241.1 229.5 220.9 209.2 199.8 193.2 187.1 181.3 175 168.3 161.5 154.7 147.1 139.3 132.3 127.1 120.9 115.9 109.4 107.1 107.6 107.5 107.6 108 108.6 108.9 108.7 109.1 108.7 108.3 108.9 114.2 119.1 123.2 130.6 139.2 152.3 161.5 171 184.5 193.3 205.7 213.1 222.7 237.3 244.7 248.8 255.2 265.4 277.8 288.8 301 316.7 330.5 344.7 354.6 365.1 378.9 395.6 417.3 423.9 434.9 450 462.3 477 490.1 497.2 503.8 520.8 531.4 539 545.5 541.7 535.3 530
228.4 221.1 210.9 200.5 194.2 187.2 179.4 175 171 167.6 163.3 157.8 152.2 146.6 143.2 142.4 141.3 138.3 135.1 134 131.8 129.4 128 126.3 125 124.2 123.5 122.9 122 122.4 123.2 125.9 122.7 121 119.8 119 117.3 116.5 115.5 115 114.6 113.2 112.7 111.7 111 111.3 110.6 110.6 110 110 110.1 110.6 106.9 110.6 122.2 129.9 138.4 146.1 152.2 156.9 160.1 166.7 168.2 173.3 177.2 180.4 182.2 187.5 192.4 198.2 203.4 206 205.5 206.5 206.1 204.9 204.8 204.2 203.1 202.4 200.6 199.7 198.7 197.1 190.3 191 196.5 197.1 196.2 195.3 194.6 193.4 192.6 193.9 197 207.8 225.6 245 270.3 287.5 294.4 304.1 311.9 320.2 323.9 322.7 321.2 322.9 329.2 334 337.2 336.5 330 321.8 313.8 305.8 302.1 298.2 294.6 292.6 290 279.5 267.7 259.1 249.4 240.5 228.3 218.7 208 199.6 191.7 185.2 179.2 172 165.7 158.8 152.3 144 137.6 130.2 124.9 118.8 113.6 106.8 106.6 106.5 106.7 107.2 107.7 108.1 108.5 108 108.3 108.1 107.4 107.9 113.7 118.1 122.1 127.8 138.2 149.5 157.6 168 179.4 189.4 199.2 209.9 220.9 228.2 240 242.7 249.6 259 268.5 279.9 291.7 307.2 319.6 335.4 346 354.5 367.1 384.6 401 415.6 425.6 440.7 454.4 467.3 482.2 490.8 498.5 509.3 527.6 530.9 534.3 530.3 528.6 512.4
224 213.4 204.3 196.6 189.7 181.9 178.9 176.4 170.6 164.7 158.5 153.4 150.7 148.8 146 143.5 141.2 138.3 135.4 133.2 130.9 129.8 128 127 125.6 124.1 123.3 123.4 127.3 126.1 126.1 126.1 123.4 122.5 121.6 120.4 119.9 118 115.5 114.4 113.7 113.3 112.6 111.3 110.6 111.3 111.6 109.2 109.3 110 110.2 110.4 109.7 105.8 116 124.2 133 141.7 147.7 153 156.5 160.2 164.6 168.7 170.8 174.4 177.3 181.3 185.8 190.2 195.9 199.7 201.1 201.5 203 202.4 200.7 201.6 202.2 201.5 200.7 199.6 197.6 195 193.8 193.8 198 198.9 199.3 198.8 198.3 197.3 195.9 196.5 199.3 210 227.3 248.6 271.7 286.9 294.1 301.7 307.6 316 316.8 315.3 314 314 318.6 323.8 324.3 325.1 319.5 315.8 310.2 302.1 298.6 294.9 290.9 289.8 279.6 269.1 263.1 254.4 244.6 233.8 224.3 212.8 204.4 196.4 188.2 182 175.7 169.4 161.9 156.1 148.5 141.6 135.6 129.9 122.2 115.7 109.1 106 105.8 105.8 105.9 106.5 107 107.4 107.4 107.3 107.2 107.3 107.1 107 111.6 115.9 119.7 126 136.1 146.1 154.5 164.2 174.9 185 194 204.6 216.7 219.3 234.3 238.1 243.7 253.8 262.2 271 284 295 308.7 323.2 334.9 344.9 355.9 370.7 386.3 408.2 418.7 431.7 447.3 459.8 473.5 486.1 493.1 500.1 521 524.6 524.6 524.2 513.6 498
219.1 203.7 196.5 184.6 174 171 172.9 173.4 166.8 160.9 156.4 156.7 154.1 149.3 145.7 142.9 140.1 137.6 135 131 129.6 129.2 127.9 126.7 125.1 125.2 127.9 133.8 138 139 138.4 136.4 134.1 128.2 122.1 120.6 119.9 119.1 117.1 114.1 112.9 112.7 111.4 111 111 111.6 111.6 111.5 108.3 107.8 107.5 107.8 109.4 105.6 109.4 118.2 128.2 137 143.5 149.6 152.8 156.9 160.3 163 166.1 170.2 173.2 176 178.9 182.9 188.4 192.7 194.9 197.6 198.9 198.7 198 198.3 199.6 200 199.8 199.3 196.8 192.9 185.7 192.5 197 198 199.3 199.7 200.9 199.6 200.4 199.1 203.1 212.1 233.3 254.7 273.9 285.5 292.3 301.5 302.9 304.8 307.6 305.5 304.9 307.3 310.3 311.7 314.2 311.8 310.1 306.4 302.7 299.1 294.1 291.1 287.6 282.7 275 265.3 258.2 247.2 238.1 229.5 218 208.2 200.6 192.8 185.7 179.5 174 167.4 161.2 155.5 146.4 140 133.2 127.5 119.4 111.9 106.6 105.5 105.3 105.6 105.1 105.9 106.4 107 107 106.4 106.5 107.1 106.4 105.8 108.1 113.7 118.8 124.4 134.1 142.8 150.2 157.5 170.4 178.4 191.9 196.9 207.5 216.6 221.5 232.2 238 247.5 255.1 264 275.5 285.6 297.5 311.8 322.8 336.2 346.6 360.1 376.6 395.8 412.2 424.8 440.2 454.2 464.9 482.2 488.2 494.6 504.3 521.2 521.5 514.8 498 490.2
202.3 191.6 181.7 182.7 180.5 176.3 172.3 167.1 164.4 164.6 163.1 159.2 154 150.8 147.1 144.3 141.8 139.8 133.8 130 128.9 127.7 126.7 125 132.9 136.2 142.8 145.3 147.3 147.3 146.6 143.6 137.3 131.1 128 120.7 119.9 119.3 117.7 115.2 113.4 112.1 111.3 110.7 110.9 111.3 111.8 111.4 111.2 109.4 109.7 109.3 109.3 109.4 104.8 118.4 128.9 133.4 140.7 145.4 150.2 153.6 156.1 158.9 161.6 165.2 168.1 170.9 174 177.3 181.2 186.1 190.5 193.4 195.3 195.2 195.1 195.5 196.1 197.2 197.6 197.8 198.9 194.4 183.5 182.9 186.7 192.7 199 199.7 200.6 201.2 201.1 202.6 205.9 216 240 260.4 271.8 281.8 288.4 297.7 298.8 298.4 297.9 296.4 298 299 300.3 303.9 306 303.1 297.8 297.3 296 292.8 290.3 287.5 285.6 275.1 266.5 259 250.6 241.5 233.3 221.2 212.4 204.3 196.9 191.1 183.4 177.2 171.3 165.4 159 151.7 144 139 133.6 125.6 118.4 110.9 104.7 104.2 104.4 104.6 104.2 105.2 105.9 106 106.4 105.5 106 105.9 105.7 104.8 106 112 117.5 123.5 131.1 140 146.6 149.5 162.4 171.7 185.2 192.9 201.3 211.9 217.2 225.8 233.7 239.6 247.9 257 267.9 276.2 286.6 298.2 313.7 326.8 338.2 349.5 365.4 383.2 405.2 417 432.4 446 457.1 473.5 483.6 489.4 494.9 511 515.5 497.9 490.5 481.8
194.4 197.6 191.4 186.5 182.6 176.6 173.4 169.6 166.6 165.5 163.3 159.6 155.1 151.8 148.2 144.9 143.5 140.8 131.6 129.9 128.7 129.5 131.2 138.4 142.7 147.3 149.9 152.9 155.9 156.4 157.3 154.7 149.5 141.2 134.5 125.4 119.4 119.1 118 116.7 113.2 111.8 111.4 110.7 111 110.7 111.1 111 111.1 109.9 109.2 109.3 109.3 109.4 104.9 124.4 133.5 136.3 135.2 140.5 146.5 150.7 152.9 154.9 156.4 160.3 163.9 166.4 169.4 172.4 175.7 180.1 183.4 187.5 190.1 191.4 191.8 193.2 193.4 194.3 195.5 195.5 196.9 197.3 192 186.5 181.2 183 193.4 197.6 200.8 201.9 203.4 205.2 209.4 221.1 244.4 256.1 262.5 269.3 280 286 293.5 294.2 293.5 289.3 288.7 291.7 292.4 294.6 296.8 297 292.8 290.6 289.4 288.1 286.1 281.2 271.9 266.6 259 251.4 243.4 234.2 226.1 217.2 207.3 199.7 193.2 187.6 180.2 175 169.4 162.8 157.6 151.7 144.2 138 132.5 124.6 117.3 107.7 103.6 103.6 103.8 104 103.8 104.8 105 105.2 105.2 104.9 105.2 105.3 104.8 104 105 109 114.7 119.6 127.1 136.1 142.7 145.9 154.6 167.5 177.3 189.7 195.7 205 212.2 217.5 226.8 231.9 239.5 248 256.7 269 277.7 287.3 300.4 314.7 328.6 338.4 353.7 373.7 396.2 408.2 424.6 438.5 451.1 463.4 477.1 484 488.6 494.1 497.6 489.9 483.4 469
205.1 200 194.2 188.8 184 175.7 172.1 168.7 165.1 161.8 161.8 157.7 153.7 150.7 148.2 145.2 143.6 132.8 129.3 130.8 133.3 137.9 139.3 145.5 149.8 153.4 158.3 161.6 163.9 165.9 167.2 165.7 161.2 154.3 146.2 134.9 127.1 121.9 117.3 114.6 111.5 111.1 111.1 111.2 110.3 111 111 111.6 111.1 110.4 109 109 109.2 109.3 104.7 133.2 134.8 133.8 131.1 135.8 142.4 146.3 149.9 151.1 152.5 155.8 158.3 161.5 164.4 167.6 171 174.6 178 181.8 184 186.5 188.1 189 190.8 192.8 192.3 193.1 194.8 196 196.1 193.1 184.2 178.2 187.5 193.3 197.4 202.9 204.1 207.7 210.8 226.7 245.4 248.6 253.4 259.7 262.1 266.6 273 278.5 277 272 270.2 275.3 275 280.2 285.2 286.9 287.1 284.9 282.5 283.1 279.6 267.9 263.3 256.9 249.8 239.7 232.6 224.1 217.2 208.1 201.1 194.9 189.7 183.4 177.5 171.9 166.4 160.8 155.9 149.3 143.1 135.7 129.8 122.6 114.3 107.5 103.2 103.1 103.2 103.4 103.7 103.6 104.5 104.1 104.3 104.3 104.5 104.6 103.9 103.9 104 105.6 111.1 116.6 123.1 131 137.1 141.3 148.3 160 165.5 179.7 188.9 198.5 206.4 209 219.9 225.4 232.6 239.4 247.3 260.1 270.2 278 290.9 303.7 318.6 330.7 343.9 362.8 384 402.7 416.3 432.4 443.1 455.3 469.8 477.1 482.8 485.3 484.1 483 476.6 453.5
205.6 200.2 195.4 190.2 180.7 173.8 171.4 167.3 163.1 160.2 157.6 155.3 152.3 150.2 146.8 144 134.6 130.5 131.5 140.5 144.1 145.2 149.2 153.1 157.5 161.4 167 170.5 173.8 176.4 179.8 179.8 172.7 164.4 157.4 146.4 136.1 124.3 117.1 113.3 111.3 110.8 110.8 110.7 111.4 110.6 110.6 110.5 110.8 110.5 109.5 108.9 109 109.4 108.7 129.6 130.3 132.2 126.7 129.8 135.3 142.2 145.2 146.3 148.4 150.6 152.9 155.4 157.4 161.8 166 168.7 171.8 175.2 178.7 181.3 184.6 185.5 187.4 188.9 189.8 190.8 191.9 192.9 194.4 195 188.6 180.1 183.2 189.6 197.2 201.4 206.1 209.2 213 231.6 238.9 243.8 246.1 250.8 252.1 252.3 251.3 253.9 257.4 259.9 257.4 256.2 259.6 261.7 267.8 266.4 266 262.8 257.3 256.8 255.4 253.3 249.7 242.9 236.7 229.6 220.2 213.8 208.7 200.9 194.1 187.6 183.3 178 173.4 166.9 162 157 152.9 146.1 139.7 132.1 126.8 120.6 113.9 108.2 102.5 102.3 102.2 102.7 102.8 102.7 103.4 103.5 103.5 103.5 103.8 104.1 103.1 103.5 103.4 103.5 107.4 112.5 117.2 124.6 130.4 136.8 143 153 160.7 169.6 182.1 191.3 198.8 202.7 208.5 219.3 226 231.9 239.5 249.9 263.3 272.2 282 296.4 310.5 323.1 334.9 352 371.1 394.6 404 420 434 446.5 458.6 470.4 474 475.7 475.4 474.3 462.8 440.9
207.5 201 195 192.1 182.4 174.5 170.9 166.7 161.7 158.2 155.2 153 150.4 147.8 144.8 136.2 133.6 133.2 132.8 145.5 147.2 151.1 156.6 161.9 166.7 173.3 178.3 182.8 187 190.8 196.1 196.2 191.5 180.6 170.4 158.6 147.1 136.5 124.1 115.6 111.3 111.2 110.3 110.2 110.2 109.9 110.8 111 110.9 110.2 109.8 108.8 109.6 109.1 111.3 125.1 132 131.2 123.8 121.6 129.4 133.5 138.3 144.8 145 145.5 146.6 149.3 151.4 156.4 161 163.7 166.6 169.5 172.7 177.1 179.6 182.5 184.3 186.4 187.5 188.3 189.2 190.3 192 193.4 190 182.3 179.9 187.9 195.5 200.2 205.1 211.1 219.3 234.8 235 238 239.7 242.4 244.6 244.3 241.8 240.2 239.3 242.8 242.6 243.6 247.1 252.4 253.9 253 247 245.2 244.6 248.9 244.5 238.2 234.5 227.6 221.8 215.9 207.9 199.7 196 191.2 186 179.2 174.8 171.3 166.4 161.2 155.8 151.9 147.1 141.3 134.5 129.8 124 117.2 108.7 102.9 101.8 101.7 101.6 101.7 102.3 102.3 102.6 102.7 103 102.8 103.1 103 103 102.2 102.3 102.6 103.5 106.9 112.4 120 125.9 131.3 135.9 144.5 157.8 162.6 174.8 183.9 193 197.7 201.4 211.7 218.2 224.6 231.3 242.3 255.3 264.7 275.7 289.5 303.2 318.1 328.7 342.6 361.7 378.5 394.5 407.9 425.8 436.6 445.4 459.8 468.6 468.7 470.4 470.2 449.8 429
212.5 204.7 200.2 192.4 183.3 176.7 172.7 167.5 160.5 156.6 154.3 151 148.7 146.4 140.8 136.2 134.2 134.9 146.4 149.3 153.3 160.2 167.2 173.1 180 188.4 194.3 200.4 203.6 209 216.6 216 207.2 195.8 183.5 170.4 155.7 145.4 136 123.7 114.3 111.9 110.1 109.9 109.9 110.7 110.8 111.1 111 110.3 109.3 109.3 109.2 105 110.8 123.7 121.7 116.8 116.9 121.7 123.1 130 132.3 138.3 140.5 142.4 144.2 146 147.2 150.8 155.9 159.8 163.4 166.4 168.7 171.2 174 176.9 180.3 183.7 184.9 186.3 187 188.6 189.8 190.9 187.9 180.1 181.3 189.6 196.6 200.8 205.7 211.7 217.4 230.8 232 232.2 232.3 234.2 233.9 232.6 229.6 228.1 226.4 226.3 226.2 226.4 228 230.9 231 228.5 227 224.6 224.1 222.5 218.5 214.8 213.1 208.4 202.9 196.4 190 186.6 183.6 180.1 175.9 170.5 166.2 164.4 159.5 154.6 149.5 145 141.1 135.3 130.3 126.2 119.6 110.4 103.5 101.9 101.1 101.4 101.7 101.6 102.2 101.5 101.7 102 102.3 102.1 102.4 102.7 102.1 101.4 101 101.9 101.7 103.2 109.4 116.3 122.3 126.4 130.3 136.5 149.8 158.6 165.6 177.3 185.9 192.8 196 200.2 211.2 218 224.6 233.7 247.9 259.7 269.1 282.5 297.8 312.3 323.1 334.1 349.6 366.3 385.9 394.4 411.1 426.1 439 446 461.4 465.4 465.8 464.4 440.2 420.2
216.3 208.2 202.2 188.3 184 178.7 173.5 168 161.8 155.2 152.5 150.3 147.3 144.2 138.2 136.2 135 136.3 148.5 154.1 162.1 173.2 180.5 190.8 203.3 216.6 223.3 222.9 227.2 233.6 235.2 230.3 221.6 208.8 196.3 184.2 168.8 154.6 144.7 136 123.7 117 111.4 110.1 110 110.6 110.6 111.1 110.4 110.1 109 109.1 109.3 104.5 110.9 112.9 116.5 121.2 126 128.3 126.3 129.4 129.3 137 139.2 141.7 142.7 144.2 145.5 149.2 154.1 158.1 163.4 163.2 165 167.8 170.1 172.8 176.4 180.1 182.6 184.3 185.5 187 188.3 189 184.3 177.8 185.3 193.2 198.2 202.7 208.6 219.1 231 224.9 228.7 228.3 226.7 226.1 225.7 225.5 221.1 218.7 215.3 211.2 212.5 209.9 212.3 211.9 212.4 210.5 208.4 206.1 203.9 200.3 196.9 191.7 189.7 187.9 183.3 181.8 178.9 175.9 171.3 168.8 165.8 162.2 158.1 155.2 151.9 146.6 142.4 138.2 134 130 126 121.5 111 103.9 101.8 101.6 101.1 100.4 100.4 100.6 101.2 101.3 100.9 101.6 100.9 101.9 101.7 101.4 101 100.6 100.7 100.7 100.4 100.9 105.8 110.5 117.1 122.4 125.3 131.9 142.2 152 158.5 168.5 177.1 188.1 192 196.3 203 211.6 218.8 227 237.6 253.3 263.8 275.6 291.6 306.6 318.2 326.7 339.2 356 372.4 385.6 395.2 410.3 426.4 436.7 444.2 458.4 460.4 454.7 433.5 411.7
222.1 214.3 206.8 194.5 184.3 179 174 168.6 160.5 154.5 152.5 149.1 146.3 144.6 138.1 134 136.6 150.2 155.3 163.3 175.9 187.5 206.1 220.1 230.5 240.1 244 245.6 250.6 251.9 247.8 241.9 232.6 220.2 207.3 193.8 182.6 168.3 153.9 144.6 133.1 125.2 119 113.8 110 110.2 109.8 110.4 110.6 108.9 109.4 109 108.9 104.7 110.9 117.4 119.8 129 132.8 137.1 135.3 134.3 137.8 132.7 137.2 140.6 142.4 143.4 145.5 148.4 153 155.4 157.9 159 160 163.6 164.2 167.8 171.7 175.9 179.6 181.8 184.1 186.1 187.4 186 179.4 180.1 189.7 195.8 201 206.4 217.5 235.8 237.1 228.2 221.4 221.5 223.4 220.5 217.3 211.7 208.4 204.4 201.8 200.2 199.6 199.4 199 195.3 193.1 188.6 184.1 184 183.7 182.5 179 175.8 173 170.5 166.6 164.8 164.1 162 158.2 158.1 157.1 154.3 150.7 146.6 141.8 135.1 134 129.4 123.4 116.4 114.1 108.9 104.6 103.3 102.6 102.4 101.3 100.9 100.1 100.3 100.1 100.7 100.5 100.3 100.3 100.9 100.7 100.8 100.7 100.5 99.9 99.9 99.8 99.9 101.5 105.7 111.8 117.8 121 126.6 136.6 143.6 151.3 159.9 170.3 181.4 188.3 192.6 197.2 205 213.4 221.4 233.7 248.6 259.1 271.2 285.8 301.2 313.8 319.3 329.4 344.9 358.3 376.3 383.3 393.4 408.3 421.6 434 444.4 454.8 447 425.7 404.9
227.7 219.4 210.9 202.5 189.2 180.8 174.7 168 160.1 154.7 151.6 149.4 148 140.6 136.6 137.2 149 154.6 164.5 176.2 190.3 213.7 230.2 242.4 254.4 263.5 266.2 266.7 268 265.4 254.3 248.1 239.7 227.6 214.2 202.6 192.3 180.7 165.6 155.5 142.8 132.3 125.9 118.9 114.2 109.8 109.9 110.4 110.1 109 109 107.8 108.5 108.2 109.4 116.1 118.4 130 135.5 139.5 140.9 139.2 139.1 133.8 137.7 140.9 141.7 143 144.8 146.5 149.4 151.7 153.4 153.9 154.6 157.5 156.8 158 160.5 167.5 174.6 178.3 182.7 185.9 186 178.5 177.2 185.1 194.1 200.3 209.4 219.6 234.9 243 239.6 233.5 222.9 218.8 217.7 215 209.3 203.2 200.1 197.2 194.8 193 188.3 184.9 181 180.3 175.9 168 166.1 165.8 164.1 162.3 159.9 154.6 153.1 151.8 150.7 150 149.4 148 146.2 145.1 143.9 141.2 138.6 134.1 128.4 123.9 121.5 120.1 114.2 109.3 109.8 110.9 106.9 104.7 103.5 104.3 101.7 101 100.4 99.6 99.7 99.9 99.5 99.8 99.9 99.7 99.8 99.9 99.7 99.5 99.1 99.1 99.3 98.6 98.5 101 106.8 113.3 116.9 121.8 129 137 145.3 152.1 162.8 173 181.2 188.3 191.5 199.3 208.7 215.8 226.7 241.5 253.5 264.9 277 293.8 308.7 312.9 320.8 334.3 349.4 360.9 373.9 382.8 391.5 407.2 420.3 431.3 436.2 437.4 418.8 395.7
234.8 223 215 206.3 193.8 183.4 176 167.8 160.9 155.5 152.9 149.8 151.4 139.8 138.9 140 153.1 160.1 172.8 188.5 207.8 233.6 254.5 270.5 281.3 286.7 286.1 285.9 278.1 268.3 259.6 251.4 243.4 232.6 221.4 210.6 200.6 189.6 176.2 166.3 154.6 140.9 131.5 125.8 122.1 114.1 110 110.1 110 109.4 109 107.7 104.4 109 109.7 110.4 113.8 129.6 136.5 140.4 140.1 138.3 138.9 134.4 136.2 138.2 140 143.3 144.8 145.8 147.6 149.7 149.1 150.7 152 153 154.9 155.8 156.4 160.1 170.1 177.5 180.8 183.5 179.9 174.5 183.7 192.3 198.7 206.2 221.2 236.4 245.3 246.8 241.1 236 226.3 217.5 210.3 206.5 199.8 196.6 195.9 192.5 183.7 175.3 169.6 166 162 158.2 154.9 154.4 151.7 150.4 147.5 144.4 142.3 140.7 140.9 140.9 139.2 138.1 136.3 135.1 136 132.9 131.4 131.5 128.2 125.8 117.8 114.2 114.9 112.9 110.2 113.2 116.4 114.2 110.6 107 105.9 104.2 101.9 101.3 101.2 100.2 99.3 98.6 99 99.4 99.4 98.6 99 99.2 98.9 98.5 98.5 98.5 98.2 97.7 97.4 98.2 102 108.5 111.7 116.9 123.9 130.9 138.5 147.8 155.4 164.5 177.8 180.3 185.8 196.3 204.2 210.5 218.9 232.3 246.3 258.9 270.1 285.6 304.5 308.2 312.3 323.8 339.5 350.6 359.8 372.8 382.1 392.4 408.5 420.4 428.9 429.1 414.6 389.9
238.9 225.4 218.4 209 199.9 185.7 177 167.4 161.7 156.5 153.6 151.8 144.6 139.3 140.9 151.8 156.1 165.8 181.8 197.3 222 256.3 280 298.5 306.4 309 304 298.6 287.8 275.6 264.1 255.6 248.1 238.5 228 217.7 208.8 197.3 184 173.3 162.8 151.1 137.5 126 122.2 117.5 111.7 110.1 110 109.2 108.1 108.4 104.7 109.5 109.5 109.9 115.7 129.5 135.6 138.3 134.9 136.7 136.8 133.2 137.5 140.8 141.8 143.6 145.3 146.9 150.5 153.9 153.9 155.8 155.2 157.4 163.8 164.6 162.3 160.4 167.3 174 174.9 174 173.6 183.7 190.5 197.6 204.5 215.4 233.8 242.8 252 248.9 243.4 236.9 229.8 217.9 208.6 200.4 195.6 194.1 191 181 171.9 165.7 157.1 149.7 148.1 143.8 140.8 138.7 136.8 135.2 136.5 135.1 133.1 133.2 133.1 134.5 132.8 130.8 128.5 127.5 126.4 124.2 120.3 118 117.1 115.7 111.9 113.1 109 109.2 109.6 112.5 113.9 110.8 109 106.6 104.9 102.7 101.9 101.8 101 100.4 99.2 99.2 98.4 98.4 98.3 99.3 98.8 98.5 98.2 97.9 97.3 97.6 97.6 97.3 96.7 96.7 99.6 104.2 107.3 112.7 118.5 125.1 132.6 140.9 148.6 159.1 166.2 176.1 181.8 192.5 199.5 205.1 213.1 223.9 238.5 250.6 261.2 274.1 291.2 303.1 305.6 313.8 327.5 342.6 349 359.7 370.5 379.3 391 406.5 416.7 424.5 413 386.4
241.7 229.2 220.5 210.1 198.1 187.9 177.5 167.8 162.1 156.8 153.5 150.8 140.3 140.6 141.7 154.7 161.8 173.1 188.8 204.2 235.6 270.1 296.8 315.6 319.9 318.6 314 305.3 294.9 283.3 269.5 260.5 251.4 241.4 233.1 223.2 214.8 203.8 193.3 180.5 170.4 158.1 144.4 133.9 124.2 117.5 113.1 110.9 110.5 109.6 107.6 107.9 108.8 109.3 109 111.1 125.3 130.3 132.9 134.9 136.2 136.7 133.5 133.2 139.2 141.5 142.7 143.8 145.6 148 152.3 155.7 157 158.9 159.1 161.6 168.1 170 170.3 167.8 165.4 170.7 171.8 177.1 183.1 190.1 195.9 203.1 212.3 226.7 239.3 249.7 261.8 253.6 243.9 237 229.2 220.2 208.6 194.1 191.9 190.6 184.9 173.9 166.4 155.6 144.2 143 140.6 137.7 132.4 130.6 131 129.3 128.9 128.3 127.5 128.2 127.1 127.7 127.3 126.7 125.3 123 120.6 116.3 113.9 112 110.3 110.4 108.8 108.1 107 106.4 106.2 105.7 106 106 104.6 103.6 102.2 101.7 101.7 100.9 101.1 100 99.6 99 98.1 97.5 97.7 97.7 97.6 97.8 98 97.7 96.6 97.5 96.9 96.9 96 95.7 96.1 98.3 103.7 107.4 112.7 119.2 128.6 134.3 142.7 154.4 159.8 170.3 177.4 184.8 195.2 200.2 207.3 216.4 230 242.1 254.1 265.6 280.7 298.1 300.9 303.1 314.4 328.3 340.7 347.1 357.8 370.8 377.9 388.2 400.3 409.7 404.8 384.3
243.4 232.5 220.3 207.4 196.3 186.6 177.6 167.5 162.6 157.6 154.6 153.2 141.3 142.2 142.3 154.5 165.5 178.3 192.7 214.1 241.5 273.8 300.5 323.8 327.1 327.8 323.3 310.8 302.2 292.2 277.1 264.7 255.9 245.3 234.1 225.1 218.3 210.8 199.7 189.8 177.5 163.7 153.3 141 126 120.1 117.6 117.1 116.4 113.8 107.6 104.5 108 109.1 108.8 115.4 130.9 133.1 134.6 134.5 133.9 131.5 131.2 135.4 140.5 141.9 143.8 144.7 146.8 150.3 154.3 156.2 158.9 162.7 166 169.9 172.7 176.5 177.6 178.1 178.9 179.3 179.5 182.3 187.4 194.6 201.1 207.3 222.1 235.5 244 256.7 265.7 261.3 246.9 236.3 228 217.4 205.4 191.9 189.1 187.6 178.6 169.2 161.8 149.9 141.7 138.5 136.5 133.3 130.6 128.9 128 126.8 125.8 125.9 125.7 124.8 123.8 122.6 123.3 122.4 121.6 120.4 117.1 113.9 112.3 111 111 109.2 108.2 107.1 106.7 106 105.4 105 104.7 104.5 104.4 102.7 102.1 101.5 101.4 100.3 99.9 99.4 98.4 98 97.2 96.7 96.9 97.2 96.9 97.1 97.2 96.7 96.3 96.5 96.1 95.8 95.7 95.4 94.8 96.1 99 104.2 107.7 114.7 122.8 129.7 136.6 147.3 155.2 160.5 171.5 178.3 189.9 195.9 200.9 208.6 221.3 232.1 244.4 257 269.6 286.4 295.6 298.9 303.5 314.2 328 337.8 344.3 356.3 367.6 373.2 383.1 389.9 391.3 372.1
245.2 235.2 223.8 211 199.4 185.1 178 169.7 162 157.4 155.8 153.6 144.9 142.2 146.3 159.7 171.4 185.1 202 222.3 248.2 278.8 303.7 325.7 330.4 334.4 327.4 317.7 305.9 297.7 283.8 269.9 260.9 249.5 235.8 225.4 219.1 212.5 204.1 194.2 186.3 174.4 162.5 149 135.8 125.6 122.5 125.1 131.5 128.3 106.3 105.5 108.8 108.8 108.4 117 135.5 136.2 135.6 131.5 130.3 129.3 132.2 136.9 140 142.3 143.6 146.3 148.7 152.2 155.9 162.7 170.6 171.9 174 178.3 182.2 185.6 189.7 191.8 190.3 188.9 189.3 189.7 193.4 199.7 207.6 215.8 230.8 240.9 252.9 264.9 271.3 269 254.9 234.3 224.8 215.3 202.6 190.7 185.6 185 170.7 162.6 156 150.1 141.6 137 134.4 132.4 130.1 128.4 127.2 125.9 124.5 123.5 123.9 123 122.1 120.5 118.9 119.2 120.3 118.1 114.3 111.9 110.8 110.5 110.1 108.7 108.2 108.1 107.5 106.4 106.2 105.4 104.1 105 104.1 102.9 102.2 102.5 101.9 100.9 100.9 99.9 99.6 98.9 98.3 97.9 97.3 96.7 96.3 96.2 96.2 95.9 96 95.9 95.2 95.3 94.9 94 94 94.2 96.4 100.5 104.1 108.1 117.7 124.9 132 139.8 150.5 154.7 165.1 173.2 181.8 190.2 195 203.5 213.5 222.7 234.1 246.8 260.4 272.9 285.3 293.1 296.1 302.2 313.9 326.3 334.4 341.5 352.8 363 369.8 377.6 378 366
247 238.1 224.7 211.9 201.9 188.2 177.6 169 162.8 158.5 156.2 154.2 146.5 144.1 152.9 165.3 177.9 190.3 208.1 226.7 257.2 283.6 307.7 329.6 336.5 336.2 329.7 322.1 309.9 299.7 288.5 275.2 264.6 253 243.5 231.4 221.6 214 206.6 198.7 189.8 179.5 167.4 155.1 142.4 134.3 133.7 134.6 134.9 119.7 106.7 107.7 109 108.8 108.4 120.6 135.4 132 127.2 126.2 126.6 128.6 135.1 139.7 142.7 143.7 146.2 149.7 152.8 159.5 166.9 181.5 183.4 186.5 187.7 189.8 193.7 197.6 200.9 204 206.8 208.4 204.9 205.2 206.9 210.7 216.5 223.9 237.3 250 262.9 269.7 268.4 266.1 260.8 239.6 224.3 214.1 200.6 186.8 183.1 180.7 166.3 154.4 147.1 145.7 140.4 136.7 133.7 131.6 129.8 127.9 127 125.9 123.7 122.3 120.9 119.2 119.6 119 117.3 116.5 115.2 114.2 112.1 111.6 112.8 112.8 112.1 112.2 110.4 110.4 111.6 111.4 110.2 108.1 106.9 107.2 106.7 104 103.7 102.4 101.6 100.9 101 100.2 100 99.7 98.9 98.7 97.3 96.3 96.1 95.9 95.6 95.4 95.6 95.6 94.3 94.8 93.7 93.5 93.2 93.4 94.8 97.1 100.1 102.6 111.8 121.1 126.6 135.4 144.8 149.2 156.5 167.2 174.2 184.6 189.7 197 205.3 212.6 225.6 236.5 248.3 259.6 271.7 284.3 288.7 293.3 300.5 311.4 321.4 329.3 338.8 346.7 358.3 365.3 366.4 359.5
247.8 237.7 224.4 215 202.8 189.1 178.1 168.8 162.6 158.8 155.9 154 147.5 147.3 154.3 167.4 178.6 196.7 213.8 238.1 265.3 289.3 313.4 333.7 339.8 338.2 332.2 323.9 314.3 300 290.1 279.4 267.2 254.9 247.1 238.5 227.7 219.3 211 203.7 195.4 183 169.9 157.7 147.3 141.5 139.6 139.1 136.2 120 104.4 107.4 108.8 109.1 108.2 122.2 132.2 129 124 124 126.1 130.8 139.7 143 143.4 147 153.6 165.1 171.9 175 185 187.3 192.1 197.4 197.7 199.9 204.5 210.3 215.3 219.9 222.5 224.8 223.5 222.9 224.6 227.7 232.2 237 245.2 259.2 270.6 274.1 270.2 262.1 260.7 238.3 224.4 212.6 201.6 187.5 179.3 174 161.8 152.1 142.4 138.8 136.7 133.7 131.8 130.8 129.4 127.8 127.1 126.3 125.3 123.4 121.1 119.3 118 117.6 116.6 115.1 114.5 112.8 112.9 114.9 115.6 115 114.1 114 113.4 114.3 114.9 114.6 113.6 111.4 111.3 111.5 110.3 108.4 107.3 106.4 105.6 103.9 102 100.1 99.7 99.6 99.1 98.5 97.9 96.5 95.7 95.2 94.2 94.7 95 95.1 94.5 93.9 93.1 93 92.7 92.5 93 94.7 96.8 100.5 105.4 112.8 121.8 129.7 141 143.5 149.3 159 169.6 177.3 183.1 189.8 197.4 207 214.4 224.5 237.5 248.4 259.4 270.4 279.4 286 291.1 298.3 308.2 317.9 325.4 332.5 338.2 348.2 356.4 344.4
247.9 236.3 226.3 216.3 205.4 190.9 178.2 169.9 164.5 159.8 156.5 155.1 148.4 147.1 149.8 169.4 185.4 200.5 218.7 244.6 269 293.6 317.4 337.7 344.2 342.4 335.2 326.8 316 303.7 291.8 280.9 270.2 257.6 250.2 242.1 232.4 223.7 214.5 208.4 199.1 188.8 175.5 161.1 150.9 144.1 138 139.5 133 120.2 104.5 107.2 109 108.9 108.6 117.7 131.8 134.8 128.3 125 125.5 134.5 141.4 142.8 145.4 155.3 165.5 176.8 183 188.5 193.8 196.5 199.8 204.4 206.6 210.7 216.3 223.4 229.5 234.3 238 238.7 237.3 237.2 237.9 240.7 243.1 246.2 253.8 266.2 274.1 272 268.4 259.4 251.1 228.7 220.3 211.3 198.9 187 176.8 168.8 160.2 147.7 138.7 136.3 134 132.6 130.6 129.7 129 128.9 127.6 126.5 125.4 123.2 120.3 118.8 116.5 117.3 118 118.6 116.6 115.9 117.1 117.9 117.7 117.6 117.6 117.2 117 117.3 117.5 117.3 116.8 115.4 115 115 114 113.3 112.6 111.4 110.8 109.1 106 102.4 99.8 98.9 98.6 97.9 97.1 96.1 95.8 95 94.4 93.9 94.2 94.4 94 93.8 93.4 92.7 92.5 92 91.9 93.2 93.9 95.6 100.6 107 112.7 124.2 132.1 138 144.7 152.8 162.6 170.2 176.9 182.7 190.2 197.4 205.4 214.2 224.8 237.1 248.7 258.8 269 277.5 283.3 288 296.3 305 311.9 316.7 320.7 325.6 326.8 325.2
245 236.9 226.5 216 202.5 189 177.8 169 163.6 159.8 158 156.2 149.5 147.2 155.2 173.7 189.1 204.7 227 249.8 272.6 295.7 319.3 340 350.6 348.4 338.9 328.7 314.3 304.5 293.7 283.2 272.3 259.9 251.1 244.5 236 227.4 217.4 208.6 200.8 191.1 180.1 168.2 155.1 145.3 139.6 138 132.2 120.5 105.1 107.4 109 108.7 108.4 112.1 126.2 134.7 135 130.8 126.3 139.8 143.4 146.1 151.6 167.4 179.1 190.1 196.2 201.4 206.3 207 209.1 211.6 216.5 221.7 227 235.5 241.1 246 249.6 251.4 249 250.2 251.9 251.2 251.5 255.4 265.1 271.8 271.8 269.8 268 258.1 247.8 226.6 217.1 204.4 196.1 184 174 166.1 155.1 142.4 136.7 133.8 132 130.6 129.7 128.7 127.2 126.9 126.6 125.8 125 123 118.8 118.5 117.7 117.9 119.8 120.7 121 120.9 121.3 120.9 121.3 120.7 120.5 120.7 121 121.2 121 120.6 120.1 119.4 120 119.6 119 117.3 116.9 116.6 114.5 111.1 108.2 105.1 101.8 99.1 98.2 97.6 97 97.3 96.1 94.5 93.9 93.4 93.4 93.6 93.5 93.2 93 92.3 91.8 91.7 91.5 92.2 92 92.9 96.1 101 105.2 113.8 123.4 132.8 139.1 145 157.5 164.2 170.5 175.3 182.8 190 199.3 207.8 214.9 224.2 236.6 247.2 257 265.4 272.3 279.5 286.2 292.5 298.2 303.6 309.5 311.1 309.3 308.5
241.1 233.1 223.7 211.8 198 187.3 176.2 169 164 160.5 157.1 153.5 146.9 148.2 156.9 174.4 190.6 207.6 232.1 255.9 278.6 301.5 325.1 345.3 354.6 353.2 343.9 330.6 315.2 304.4 296.6 285.1 274.1 262.8 251.8 245.2 237.6 229.1 221.4 211 202 193.1 183.2 174.4 161.4 150.5 140.3 135.7 130.6 120.1 104.3 106.3 108.7 108.8 108 110.1 119.4 123.9 120.2 121.4 127.5 140.4 145 151.7 160 176.7 194 203.4 209.4 213.3 217.3 217.7 221.1 225.7 228.4 232.4 237.7 244.5 252.2 255.1 257.7 257.9 259.2 259 257.4 260.1 263 269.8 269.2 268.2 269.8 266.2 264.1 260 244.2 220 212.4 201.9 188.2 181.4 170.6 159.4 150 139.1 135.4 132.7 130.5 129.6 128.2 127 126.7 125.8 125.2 124.9 124.3 121.5 118.4 118.5 119.4 120.7 121.8 123.4 124.2 123.9 123.9 124.9 125.6 125.7 125.5 125.2 125.9 126.6 127.1 126.7 125.6 125.9 126 124.7 123.2 122.7 123.2 122.7 120.4 115.9 110.3 106 102.6 99.7 98.5 98.3 97.8 97.2 97.2 94.8 93.9 93.2 92.9 92.9 93.3 92.5 91.4 92.3 91.2 91 91.3 91.5 91.2 90.9 92.3 95 100 105.8 114.8 123.4 131.9 137.9 148.8 157.1 165.4 169.8 175.3 181.9 189.7 199.4 207 215.3 225.4 236.5 246.3 254 262 269.1 274.5 279.9 284 289.4 295.3 297.5 297.2 290.6
235.5 226.6 218.3 206.2 194.6 183.9 175.2 169.3 164.8 158.8 151.5 153 152.2 149.4 157.2 172.9 192.4 208.2 238.4 265.8 288 310.2 332.9 347.2 352.9 353.9 347.6 336.5 321.9 307.6 296.3 286.6 275 264.4 252.9 246.1 239 230.3 222.8 214.3 202.7 195.5 185.6 176.3 167 154.5 144.2 136 132 120.6 104.5 104.6 108.5 108.7 108.5 109.1 113.7 120.1 125.7 126.5 135.7 142.6 146.2 153 168.9 186.5 204.1 214.9 220.7 225.7 230.2 232.5 236.6 240.4 242.3 245.3 248.7 253.8 260.1 262.8 262.9 262.9 264.5 265.5 267.5 271.9 275.2 272.6 270.5 265.1 266.3 263.9 260.3 255.5 233.3 216.4 208.1 200 189.3 178.9 167.5 158.3 146.2 139.1 135.4 132.7 131.2 129.4 127.4 125.8 125.4 124.8 124.4 123.7 121.9 119.3 119.3 120.3 121.6 123.7 125.4 126.7 128.2 128.7 130.3 131.4 131.2 131.3 132.4 134.3 134.9 135.1 133.2 133.2 131.8 131 130.7 130.6 130 129.4 128.7 126.6 125.2 120.2 113.7 107.1 103.1 100.5 98.6 98.1 97.4 97.1 96.6 95.9 93.7 93 92.6 92.5 92.2 92 91.4 91.7 91.1 91.2 91.1 90.9 90.8 90.6 90.6 91.7 95.4 98.9 107.5 116.1 123.2 129.8 139.1 150.5 158.7 165.1 169 173.4 182.5 188.8 199.4 208 214.8 226 241.5 245.2 251.1 257.9 264.6 270 272.7 277.5 282.2 283.8 281.9 278
226.5 218.7 208.7 200.6 191.2 182.7 175.5 169.6 164.2 154.2 156.4 155.4 154.2 150.2 155.6 174.9 192.1 207.6 241.3 273.5 296 317.1 334.3 346.6 350.8 349 341.7 335.1 327 313.7 300.1 288 277.2 265.6 253.4 247 238.9 231.9 224.7 215.8 205.2 195.8 186.5 177.6 166.9 156.2 147.4 136.6 127.8 115.1 107.7 105.2 108.4 108.4 108.3 110.1 116.4 125.1 130.7 131.8 141.6 146.2 150.8 162.6 181 197.3 211.9 223.3 230.2 237.6 241.4 245.4 248.5 251.4 254.6 256.6 260.2 264.8 267.9 268.1 271.4 274 278.4 284.2 284.7 283.9 279.4 275.3 270.5 265.2 258.7 259.2 257.3 248.8 222.6 212.5 205.1 196.6 188.3 178.5 165.7 156.3 143.1 138.5 134.7 133.3 130.5 129.2 126.8 125.4 124.5 123.6 123.4 123.7 120.5 120.3 121.4 124.4 127.1 127.9 131.3 133.2 134.5 135.8 136.8 138.6 138.3 138.7 138.9 139.4 140.8 141 140.4 139.3 139.4 138.3 137.8 137.2 137.4 137.1 136.6 137.2 134.2 127.5 121.6 116.9 108.7 103.4 100.2 98 97 96.6 96.2 95.5 94.2 92.9 92.4 92 91.5 91.2 90.9 91.9 91 90.8 90.4 89.8 90 90.2 89.6 90.1 91.1 93.2 99.2 107 114.8 123.6 131.3 139.4 151.8 158.4 163.4 167.2 174.2 180.1 187.4 200.1 206.9 215.6 227.9 239.1 241.1 250.5 256.2 259.4 264 269.1 271.9 272.2 269.8 267.4
218.1 211.1 202.9 197.1 189.5 174.7 168.2 159.7 158.7 158.6 159 156.8 153.6 144.3 160.3 174.2 189.8 207.9 241.4 275.8 299.4 320.2 335.7 344.4 348.3 347.1 344.2 335.2 325.6 314.8 302.5 291.7 280.6 268.3 256.7 247.8 241 231.5 224.4 216.6 206.4 196.9 185.9 176.7 167 156.4 147.2 138.5 128.6 119.7 109.1 105.1 105.8 108.6 107.9 108.5 114.9 123 131 136.1 143.6 149.1 150.8 174 191.8 206.3 220.7 232 237.6 243.1 248.3 254.4 257.4 260.4 263.6 267.7 269.6 272.4 276.8 285.6 294.8 296.9 294.5 290.6 286.9 282.9 279.2 276.1 269.9 262.6 254.1 256.1 254.2 242.7 214 207.2 201.7 193.4 185.4 176.5 165.5 150.9 142.6 139.9 137.8 134.4 131.7 129.8 126.9 125 124 123.3 122.4 121.9 121.8 124.4 126.5 129.1 130.8 133.5 136.6 139.7 141.7 143.3 144.5 145.8 146.6 146.6 147.3 147.7 147.6 147.2 147.3 147.7 146.3 144.3 144.9 145.2 145.8 146 147.5 149.4 147.7 142.3 134.7 125.5 117.6 110.7 104.3 100.4 97.4 96.5 95.2 94.9 93.8 92.9 92.1 91.6 91.2 91.1 90.8 91.1 90.8 90.5 90.1 89.7 89.3 89.7 89.2 88.7 89.8 91.5 94.1 100.8 106.9 113.8 122.1 132.4 138.3 151.7 158 161.5 166.9 171.9 177.4 187.5 199.5 206.1 217.9 224.7 235.4 236.9 242.1 250 252.8 256.8 260 259.8 256.7 255.2
207.9 203.6 197.2 190.9 174.4 169 173.3 169.7 166.5 162.9 160.3 158.5 152.9 144.4 161.6 172 186.4 205.8 240.1 271.2 294.5 319.7 338.8 345.6 346.5 344.6 340.3 334.1 326.5 316.4 303.2 293.9 282.7 271.7 261.7 249.6 242.5 233.1 224.6 216.2 208 197.5 186.7 176.1 167.4 157.5 147.6 138.6 130.7 124.6 114.1 104.3 105.9 108.7 107.7 107.6 114.3 125.1 134.5 140.4 147.4 149.8 166.4 182.9 201.3 219.2 229.9 241.1 248.2 251.8 255.8 260.7 265.5 271.4 274.2 275 281.3 288.2 298.3 306 304.6 300.9 297.4 290.5 285.2 282.7 277.9 273.6 264.3 257.6 250.3 252.7 250.9 232.3 209.1 202.7 196.3 189.8 179.9 173.1 162.8 150.8 144.9 142.5 140.1 138.1 135 131.8 126.6 125.7 123.9 123.4 123.2 125.1 127.8 129.7 132.2 136.1 139.6 141.6 144.8 148.1 151 152.9 152.2 152.9 153.7 155.6 155 155.5 155.7 155.6 155.9 154.9 153.7 153.8 154.1 152.4 154.7 158 161.4 165 161 153.8 147.2 140.4 128.7 122 115.6 107.6 102.5 99.1 96.5 95.5 94 93 92.2 91.4 91.2 91.5 90.6 90.5 90.1 90.4 90 89.4 88.5 88.7 88.7 88.6 88.6 90.1 91.1 93.8 99.7 107.4 116 123.9 130.5 141.1 151.4 156.1 160.7 164.7 170.1 176.1 188.4 197.3 205.1 215.4 222 231 233.8 237.3 239.3 244.7 246.7 245.2 244.4 244.2
182 181.9 178.8 181.8 181.7 181.2 176 171.3 166.7 162.6 160.1 157.8 152.3 147.9 161 170.1 185.7 205.6 233 264.4 294.9 318.7 339.6 344.6 344.3 342.7 338.8 333.6 326.6 319.6 311 299.1 289.2 276.5 265.8 252.7 243.3 235.2 224.7 215.3 206.4 196.9 186.9 174.7 166.6 158.6 146.5 136.7 127.2 124.8 129.9 120.2 104.4 104.9 107.6 107.9 112.7 128.4 137 143.2 146.5 161.3 176.8 191.9 210.3 226.8 237.1 247.2 255.2 259.2 264.2 269.7 274 280.2 285.8 294.9 302.2 308.9 313.2 308.4 304.3 301.8 296.9 287.1 282.6 279.3 276 269.1 259.1 252.4 244.8 243.9 243.6 221.5 204.9 198.9 193.2 183.7 176 168.4 161.1 151.7 147 143 141.8 137.3 134.4 128.9 125.1 125.3 125.2 125.8 129.6 132.9 133.2 138.3 142.1 145.2 148 152.2 153.5 156.3 159.5 160 159.3 160.3 162.1 163.8 164.1 162.6 163.9 164.3 162.9 161.7 163.9 166.6 165.4 164.5 168.7 170.9 177.5 180.4 175.5 170.8 163.3 155.8 141.8 133 125.7 118.2 111.3 106.4 101.8 97.1 95 94.2 92.8 91.5 90.7 90.7 90 90.4 89.9 89.6 89.7 89 88.8 88.4 87.6 87.5 87.9 88.9 89.3 90.6 93.7 98.8 107 115.5 123.2 129.9 143.6 149.4 154.6 160 163.6 169.4 174.7 189.6 197.1 203.8 211.9 218.4 226.8 229.9 230.8 234.6 231.6 232.5 234.9 234.7
198.8 193.8 193.4 191.1 187.4 184 179.6 173.9 167.1 161.9 159.4 157.4 148.9 147.6 150.5 165.9 181.8 206.4 235.3 266.1 296.1 319.8 337.7 342.9 341.8 339.5 336 331.4 325 319.6 312.6 303.7 293.4 281.2 270.9 257.6 246.7 234.6 224.8 213.9 205.3 197.9 185.5 175.4 165.6 156 144.9 135.2 127.6 124.1 130 130 124.8 106.9 104.4 108 112.2 129.5 139.5 144.7 152.1 170.4 185.8 200.1 215.7 234 243.6 250.9 259.3 266.4 272 277.2 283.6 294.4 301.8 305.2 310.8 316.7 313.3 309 301.2 298.9 295.2 285.1 280.3 276.6 273.3 263.3 256.7 246.8 239.8 230.1 223.1 210.6 201 194.1 187 179.4 171.3 164.9 156.6 150.4 148.9 145.9 140.9 134.9 128.4 126.2 126.4 127.8 126.6 129.7 136.1 140.8 142.2 147.3 151 154.5 157.8 160.9 161.5 165 166.7 166.1 167 168.6 170.6 172.1 172.3 172.3 172.9 172.9 174.2 175 177 179.5 179.1 180.5 182.9 185.8 192.2 194.2 192.6 187 179.4 172.5 161.5 150 140.4 132 125.2 117 109.7 103.8 99.1 95.3 94.2 92.9 91.7 90.3 89.8 89.5 89.2 89.9 89 88.6 88.6 87.6 87.4 87.5 86.6 87.8 88.3 89 90.5 92.5 98.4 107.5 115.9 122.7 133.9 144.1 148.3 155.4 158.9 162.3 166.1 176.2 188.9 194.5 202.1 208.2 214.9 220.3 218.2 215.4 218.3 220.9 226.7 228.5
209 204 203.7 198.8 195 189.5 183 175.3 168.2 162.6 159.5 158.1 150.7 147 151.7 161.9 182 206.6 237.2 267.5 298.7 320.1 335.5 338.1 338.5 336.4 333.1 329.6 324.9 319.5 313.4 304.4 294.8 285.5 274.7 262.6 250.1 237.7 227.2 217.4 207.8 199.9 188.6 177 165.9 154.7 144.5 133.5 126.3 123.5 130.2 134.1 130.8 108.7 108.1 104.8 114.1 130.8 141.7 147.6 162.4 178.6 191.4 209 223.5 238.7 249.6 257.2 265.2 272.6 276.4 286 292.8 300.1 303.9 304.9 307.9 308.9 310.1 304.2 300.1 297.4 293.8 282.9 277.7 274.5 268 258.4 248.9 241 233.6 224.6 214.7 203 197.6 190.6 183.5 175.4 168.2 163.4 152.6 150.3 150 147.8 143.7 134.3 126.7 128.1 129.1 128.5 130.1 136.3 142.6 146.8 149.3 153.3 156.7 161.5 164.4 167.5 169.3 171.7 171.6 172.9 174.5 176.7 178.3 178.5 179.1 179.6 179.9 181.3 183.4 185.6 187.7 188.8 191.6 193.4 196.5 200.8 208.3 210 208.5 204.1 198 190.9 181.9 168.2 159 150.5 139.6 128.9 121.8 114.4 108.1 101.3 96.4 93.3 92.9 91.3 89.9 89.3 89 89.8 88.7 88 87.1 87.6 86.7 86.8 86.9 86.6 87.9 87.8 88.4 89.2 92.2 98.1 108.1 115.1 123.2 136.4 142.6 149.2 154.1 156.1 159.8 166.4 177.6 187.2 193.9 199.2 201.3 206.1 209.3 211.5 210 209 214.2 221.4
215.1 210.8 209.3 204.4 199.2 192.4 185.5 178.2 169.8 164.1 160.5 159.1 156.6 151.6 152.6 163 180.4 203.9 238.8 269.9 297.7 318.5 330.9 332.9 333.4 332 329.2 327.4 324.8 318.9 311.9 304.6 295.7 286.9 275.5 264.5 252.7 242.4 231.6 219.7 211.2 200.9 192.3 180.7 166.5 154.7 142.8 131.8 124.7 123 131.5 133.9 124.8 108.4 108.1 106.9 113.3 131.5 141.7 152 169 185.3 203.2 220 229.9 242.3 254.9 265.1 271.7 276.8 280.6 288.6 295.1 300.3 301.4 300.8 303 304.6 303 300.7 296.9 293.6 290.2 280.4 275.5 267.4 260.2 251.4 242.3 235.5 227.5 219.1 210 199.3 194.1 188.4 182.2 175 168.3 160.2 148.9 149.6 150.3 145.6 139.2 129.7 127.4 130.1 129.6 129.4 134.5 140.9 147.5 153.6 157.9 162.2 165.1 169 171.9 173.8 176.2 175.8 176.3 178.9 181.6 181.6 181.8 183 183.9 184.6 185.2 188.9 192.1 192.9 196.8 199.8 201.3 205.5 210.4 214.5 223.4 227.9 228.6 223.5 215 207.2 198.8 189.1 178.3 166.3 156.2 145.5 136.5 127 118.3 110.7 104.6 98.6 93.6 92.1 90.8 89.6 88.8 88.5 88.5 88.1 87.2 86.9 86.4 86.6 86.4 86.3 85.8 86.5 87 87.2 88.8 91.7 99.5 108.2 115.6 126.6 137.2 143.1 147.5 152.7 155.9 160.7 167 176.7 183.8 190.6 195.6 199.7 201.4 202.9 203.2 201.9 203.8 213
219.4 214.9 211.2 205.8 200.5 192.1 185.6 180.1 175.1 165.2 161.7 160.4 157.7 154.1 152.6 162.2 178.7 201.1 239.9 270 296.7 314.5 326.1 327.4 328.6 327.1 324.9 323.7 321 316.4 310 303 294.5 283.9 272.1 262.6 251.7 241.9 231.5 221.4 211.4 202.1 192.4 180.8 165.9 155.1 145.2 131.9 123.9 118.7 126.4 120.7 115.9 107.9 108 107.4 112.7 130.9 144.3 158.4 175.4 191.5 214.1 228.2 240.3 248.9 259 268.3 272.2 278.6 281.3 285.7 292.7 295.7 297.1 295.9 296.4 300.2 298.5 295.9 293.3 290.9 287.8 278.7 270.6 261.9 253.4 245.1 236.7 229.4 221 214.3 206.6 198.7 191 185.1 180.1 174.8 169.8 157.1 144.7 145.9 148.9 141.5 138.9 128.6 128 131.5 131.5 130.3 135.2 143.4 152.6 159.5 165.1 168.3 170.7 173.7 177.3 179.3 180.8 181.6 180.8 182.8 184.1 184.3 186 186.9 189.4 191 194.1 197.1 201.3 204.2 207.2 208.9 212.8 216 221.5 229.2 235.1 240.3 242.8 239.9 233.7 224.2 216.2 206.5 196.4 185 176.8 162 153.9 144.5 132 123.3 113.6 105.3 99.7 94.9 91.6 89.8 89 87.8 88 87.2 87 86.6 86.6 86.4 86 86 85.2 84.7 85.1 85.8 86.3 88.6 92.3 99.9 108.7 117.2 129.2 136.2 141.7 145.8 151.3 154.8 159.8 163.2 174.3 181.4 187.9 192.2 195.4 197 195.5 197.7 200 203.2
223.2 218.1 212.5 206 198.7 192 185.8 181.1 181.1 167.4 162.9 161.4 160.2 155.5 152.4 163 176.5 200.4 238.9 265.7 290.9 310.2 320.4 322.8 324.3 321.9 319.2 317.6 315.3 310.7 304.5 300.1 293.9 285.5 271.8 262.1 252.9 241.7 229.9 221.4 210.9 201.2 191.9 179.3 164.5 153.8 143.4 138.4 126.3 119.2 116 110.5 110 107.5 107.8 106.4 113.6 131.7 146.3 163.4 183.8 201.4 220.8 235.9 249.8 255 261.6 267 273 277.3 279.9 279.4 286.8 288.5 292.2 291.9 290.7 290.1 293.4 291.3 289.5 287.6 284.6 276 269.2 258.1 250.2 239 233 227 218.6 210.3 200.6 195.9 188.7 181.5 176.1 170.6 166.7 156.1 141.8 140.2 136.2 131.8 129.9 128.4 130 132.4 132.8 131.8 136 143.5 154.8 164.5 168.1 170.4 174.5 178.7 181.5 182.7 184.4 185.1 186.2 186.8 186.6 188.5 190 196.3 200 203.7 205.5 207.9 211.8 213.5 218.3 219.4 222.5 226.2 232.1 241.5 248.9 254.2 256.1 255.3 248.3 240.1 232.5 220.1 212.5 204.6 194.5 181.7 170.5 157.9 146.6 136.7 125.5 116.9 106.5 100.2 95 91 89.3 88.8 86.8 87 86.8 86.2 85.9 85.4 85.3 85 84.1 83.8 84.1 84.3 84.6 85.6 88 93 102.1 109.8 120.3 128.7 135.6 140.5 145.4 149.9 156 156.8 159.3 172.9 178.3 183.4 187.4 187.5 189.7 193.4 193.4 184.8
226.4 220.3 215.1 207.1 198.5 192.3 185.6 184.2 176.7 168.5 164.8 163.1 161.5 157 153.3 164.6 175.5 199.1 234.5 261.3 285.5 304.5 314.8 314.6 312.5 311.7 312.1 309.5 305.4 302.1 297.2 292.1 289.7 282.9 272.1 261.3 250.3 238.6 229.8 220.3 209.1 199.2 190 176.9 163.8 150.7 139.2 134 131.8 119.4 111.6 109.5 108.9 107.4 107.5 106.1 113.5 132.2 148.4 166.8 190.5 207.8 226.9 237.3 248.1 253.9 259.6 262.8 267.5 272.4 275.9 275.3 276.8 277.9 283.9 286.9 285.6 284.2 283.2 284.3 285.5 281.3 277.8 275.1 269.5 258.3 246.6 236.1 229.2 223.9 215.5 206.1 197.9 189.3 183.3 177.7 170.6 162.6 156.5 149.1 139.9 135.4 132 129.9 129 128.4 129.3 130.4 132.4 133.5 136.9 142.9 152.2 161.7 167.4 170.4 173.7 178 181.1 183.9 186 188.9 190.1 190.9 190.8 194.1 198.3 203 208 212.1 214.4 218.6 220.7 223.4 225.7 229 234.4 239.1 245.6 254.6 257.5 262.4 263.3 263 261.5 257.7 252.8 237.8 228.5 218.1 207.1 196.8 185.8 174.1 162.2 154.4 143.1 129.4 118.6 107.9 100.7 94.9 91.2 89.7 89.1 87.8 85.6 85.4 85.4 85.3 85.3 84.9 85 84.3 83.4 83.6 84 84.5 84.8 89.6 94.6 102.4 112 120.5 129.2 135.6 140.3 144.5 147.6 152.1 154.4 158.3 168.1 175.3 178.6 180.3 183.4 185.6 180 187.4
229.2 223.2 217.4 210.2 202.3 194.1 184.9 177.5 178.4 175.3 167.5 163.6 162.5 159.3 152.2 164.5 174 199.4 229.5 254.5 277.5 296.1 308.7 308.1 304.3 303.9 304 303 300 294.9 289.9 286.3 283.3 278.2 269.8 262.3 247.4 233.2 223.4 211.8 203.4 192.9 180.1 171.6 160.2 149.8 140.8 133.6 125.9 117 111.3 109.3 108.8 107.9 107.4 104.1 114.3 134.4 150.7 170.9 193.6 213.5 227 233.2 241.9 247.4 252.4 257.1 260 264.1 269.1 270.8 270.7 273.3 278 281.5 281.3 279.3 277 276.8 274.4 273 271.7 270.2 264 254.9 244.3 234.8 227.7 220.9 211.4 201.5 191.5 185.9 179.2 174 167 159.8 151.9 144.1 138.6 133.7 131 129.5 128.7 128.3 128.5 128.4 130.1 131.9 135.3 141.3 148.5 155.9 163.2 169.7 172.9 176.8 181.1 185.3 187.4 190.1 190.5 193.6 196.9 201.5 206.9 211 214.1 217.4 220.4 224 227.3 232.2 235.4 244 248.9 254.6 261.8 270.2 275.2 275.9 276.3 273.6 270.5 267.7 264.1 258.1 245.8 236.5 222.3 211.1 200.9 190.7 179.8 166 155.8 145.6 130.7 121.1 110.3 102 96 91.4 90 88.6 87.4 86.3 85.1 84.8 84.7 84.5 84.6 84.1 83.8 82.8 82.7 81.7 84.1 85.5 89.8 94.6 103.5 112.9 120.9 129.7 135.4 139.7 143.2 146.8 150.4 153.6 158 168 171.7 174.3 176.8 173.4 176.9 187.1
232.3 225.7 218.8 212.1 204.6 196 193 188.8 178.7 178.6 170.8 165.2 162.6 158.3 154.3 166.2 173.6 197.8 223.8 248.6 270.2 288.5 300.5 302.9 299.3 297.7 296.6 295 291.1 288.7 286.4 281.7 277.9 272.4 265 256.1 245.7 231 215 206.2 193.1 186.5 179 173.3 161.5 151.9 143.5 134.5 121.7 118.1 111.2 109.2 108.8 108.6 106.6 102.8 115.4 136 154.4 174.5 194.4 212.4 221.6 227.7 235.4 236.9 238.8 244.1 251.4 253.4 258.5 264.5 264.7 265.7 272.2 274.8 274.5 274.5 271.9 269.9 267.8 264.8 262.2 259.5 255.8 246.5 239.1 232.2 223.7 217.4 209.1 199 190.5 183.3 176.9 170.7 162.6 155.6 147.8 140.8 135.1 131.8 130.1 129.1 128.2 128.2 129.2 128.2 127.5 127.8 131.4 136.6 142.9 148.7 154.5 160.8 166.7 172.4 176.4 180.9 185.6 188 191.8 196.8 202.5 207.9 210 212.4 217.1 219.2 223.7 229.2 236.8 241.9 247.1 254.7 260.4 263.9 274.9 283.7 286.9 287.6 286.7 284.8 280.9 275.2 269.5 265.2 260.1 249.1 235.7 226.5 215.5 202.4 191.9 181.3 170 157.1 146.1 133 122.1 111.6 103.3 96.8 91.5 90.1 88.9 88.4 87.1 84.4 84.2 83.9 84 83.7 83.7 83.8 83.7 82.7 83.3 83.8 85.8 89.5 95.5 105.5 113.2 122 129.2 133.9 138.1 142.3 145.5 149.1 151.2 157.3 163.4 168 169.4 160.1 176.8 183.3
234.6 228.8 221.2 214.9 207.6 201.2 197.8 195.7 186.8 179.7 172.3 165.7 162.7 154.2 156.1 166.3 177.4 197.2 220.2 246.3 268.8 288 300 298.8 295 292.5 290.4 289.1 285.5 282 277.9 274.6 271 265.2 257 248.5 239.2 223.3 209.1 200.9 196.4 190.4 181.3 174 165.1 154 145.6 133.7 125.8 120.1 114.5 110.3 108.7 108.6 106.5 103.1 117.6 137.3 155 177.1 194.8 206.5 216.2 222.6 226.4 225.2 226.9 231.9 238.3 244.7 247.9 254.4 255.9 260 263.8 268.9 268.9 270.1 266.6 263.9 261 259.2 252.9 250.4 244.4 237.6 231.4 223.4 218.5 212.2 203.3 196 185.3 178.2 172.2 164.3 155 148.1 142.6 137.4 132.9 131.4 131 128.7 126.3 126.8 126.5 126 125.3 126.3 129.1 132.6 139.8 142.7 147.3 152 158.9 163 167.8 175 179.6 183.7 188.3 193 198.5 205.6 209.5 212.3 217.6 222.1 224.2 235.1 245.3 247.1 252.6 256.4 265.6 277 285.4 287.4 286.9 286.8 286.5 286.1 284.7 282.8 281.2 276.8 267.6 259.9 248.3 239.8 229.5 221.9 206.8 192 183.4 172.3 160.8 147 133.9 123.6 113 104.1 99 92.4 89.8 88.7 87.9 86.9 83 84.1 84.6 85 83.2 82.9 83 82.3 82.4 83.8 84.9 86.2 90.2 97.6 106.3 113.5 121 129 133.1 136.5 140.8 143.2 145.8 150.3 155.6 159.9 160.9 161.4 172.4 178.1
238.1 232.5 223.2 216.5 210.2 204.2 202 196.3 190.1 179.5 173 166.6 159.2 156.3 158.6 166.8 179.1 198.6 221.4 243 264.3 285.2 297.4 294.8 292.7 289 286 284.4 281.7 276.5 272.5 268.4 263.6 256.8 247.9 237.3 226.4 212.7 203.6 200 193.9 187.6 181.1 174.1 167.3 155 136.5 135.1 126.4 119.9 114.6 111.4 109 107.9 106.9 103.2 118.4 136.5 152.9 175.4 188.4 197 209.9 216.5 217.1 217.3 218.1 219.5 226.1 232.9 237.1 240.2 246.2 247.2 253.5 259.6 262.6 260 257.9 257.4 254.5 251.5 246.1 238.3 233.9 227.8 220.3 213.9 208.3 201.6 196.4 188.6 177.3 171 162.1 156.2 149.1 141.9 135.3 132.3 130.7 130.1 128.6 125.9 124.4 125 123.6 123 121.9 123.2 126 129.4 133.8 138.3 140 144.7 149.3 155.9 160 166 172.2 177.3 183.1 187.9 193.5 201.2 206.1 209.8 215.1 221.3 225 233.4 238.8 247.3 249.1 254.5 266.4 281.5 288.6 289.3 287.9 288.2 288.8 287.4 284.7 281.7 281.9 282.4 279.8 269.6 259.8 249.4 241.1 232.3 221.7 212 195.9 183.9 169.3 159.4 148.1 136.8 124.9 115.6 107.3 98.9 92.6 89.7 88.3 87.7 85.4 85.3 85.6 84.5 82.1 82.6 82.3 82.3 79.9 82.5 83.3 83.8 86.5 91.3 99.4 107.1 113.8 120.7 127.5 131.5 134.9 136.1 139.9 144.8 149.4 153 149.8 161 167.4 172.8
241.9 236 226 219.9 212.6 206.8 204 196.4 189.3 183.3 171.2 167.5 159 157.7 165.3 168.3 182.3 202.3 224.2 247.8 264.8 283.2 294.5 292.9 290.5 286 282.7 280.5 277.3 273 268.1 261.6 255.3 242.8 230.9 224.1 215.5 204.3 194 187.7 184.7 180.1 175.2 168.9 157.3 154.6 149.3 140.2 127 118.7 114 110.3 108.4 108.3 106.9 103.2 118.2 133.4 150.5 168.3 183 194.9 200.7 208 207.7 209.5 211.5 212 213.6 219.4 223.2 227.8 232.6 236.3 239.5 243 247.6 246.9 242.9 241.3 239.8 235.7 230.3 226.9 221.9 216.8 210.9 204.8 197.6 192.9 185.6 176.4 167.2 160.9 154.2 147.4 142.3 136.2 131.4 129.5 126.1 124.7 123.2 123.1 122.2 121.2 121.3 120.6 121.1 120.7 120.9 120.6 123.3 128.6 132.9 135.4 140.8 144.6 150.9 157.2 163.2 169.4 174.4 181.3 187.3 192.7 199.9 205.1 210 216 222.7 227.8 231.6 235.5 243.7 248.9 259.9 274.6 281.7 287 287.2 287.6 287.9 290.9 286.8 282.1 279.3 278.5 276 272.7 265.6 255.1 246.1 238.7 229.9 220.5 213.5 200.1 184.3 172.2 160.5 149.4 138.3 129 119.8 110.6 98.3 92.1 88.4 87 86.8 85.7 84.7 85.6 83.9 82.7 82.3 81.8 80.9 81.7 81.9 83.2 84.5 87.7 93.6 101.1 107.1 113.7 120.2 125.1 129.3 130.4 135.3 138.4 141.5 141.9 140 157.4 161 167.3
243.4 234.9 226.2 222.2 214.9 209.1 204.5 196.9 189.9 181.3 169.4 164.3 159.3 158.1 168 170.1 185.5 205.3 227.8 253 266.6 280.9 290.7 290.4 287.4 283.6 280.6 278.5 274.6 271.6 266.8 262.1 258.6 253.4 240.6 222.9 208.3 211 207.1 200.9 192.8 183.3 176.6 171.5 167.1 161.2 151.7 140.5 126.4 117.4 112.8 109.3 108.3 108.2 106.8 105.1 116.5 129.5 146.4 160.4 176 186.8 193.3 199 200.5 202.2 204.3 204.8 205.5 208.8 212.4 215.6 220.6 224.7 227.2 227.9 231.3 233.7 232.1 228.8 227 222.8 214.7 212.3 207.5 205.3 201.3 194.2 188.4 183.4 175.5 167.6 158.7 153.4 147.5 143.7 137.4 131.8 127.5 127.6 124.7 122.9 122.7 121.2 120.1 119.7 119.3 119.4 118.7 118.1 118.2 119.6 120.9 119.2 121.9 125.5 130.4 135.6 139.7 144.5 151.6 157.7 164.7 169.4 177.8 183.4 189.6 195.8 201.4 205.7 211.1 218 224.7 231.6 235.6 241.4 248.9 263.9 273.6 277.2 278.8 279.6 282.3 286.6 288.1 285.5 283.4 279.6 275.1 271.4 268.1 260 248 240.4 233.3 225.2 219.4 212.6 201.8 186.4 174.5 162.9 152.5 140.6 131.4 119.7 109.7 99.1 91.9 88.4 87.3 84.7 83.6 85 83.8 81.3 80.9 80.8 80.5 80.5 81.6 82.5 84.2 85.4 89 95 102.3 107.5 113.5 119.5 122.8 126.7 130.3 132.9 134.2 128.8 146.4 152.5 156.2 162.2
245.1 237.8 229.5 222.7 216.2 209.4 201.6 194.3 186.5 173.7 171.7 159.5 159.5 165.1 170.6 173 190.4 210.2 229.2 254.3 266.4 279.1 287.5 288.1 285.3 282 280.1 277.8 274.8 271.1 267 262.2 256.2 249 234.9 223.3 227 223.5 218.7 213 205.7 193.2 183 176.9 170.2 163.2 153.9 139.7 126.5 118.1 113 109.1 108.2 107.9 105.6 107.3 114.9 124.9 140.3 155.5 167 176 183.8 191 194.3 195.9 197.5 197.8 199 200.1 203.1 205.8 208.1 212.3 213.3 214.3 215.7 218.7 218.6 216.7 214.8 210.4 206.2 200 195.7 192.8 188.3 182.6 176.3 170.8 164.6 156.3 148.2 142.9 138.3 131.9 129.5 128 124.8 123.2 122.2 121.2 120.7 120.3 119.7 119.1 117.9 117 117.7 117.2 117.3 117.2 117.3 117.2 117.3 117.4 120.2 126.7 130.2 133.6 138.5 144.2 150.6 157.7 164.1 173.6 179.1 185.2 190.9 197.1 201.3 206.2 212.4 220.7 227.3 234.2 239.2 250.6 259 262.7 263.2 263.5 268.5 274.2 281.5 287.3 285.3 281 275.4 269.9 265.8 256.5 246.4 240.4 236.8 227.8 222.2 216.2 210.2 201 187.7 175.8 164.6 154.2 141.9 131.4 120.2 110.1 99.3 90.8 88.1 85.2 83.4 83.8 82.3 80.8 81 80.7 80.2 80.7 81.5 82.2 83 84 87.2 91 96.6 102.4 108.7 113.5 118 120.8 124.4 126.3 125.7 133.2 142.2 147 150.9 156.2
245.4 236.6 229.4 221.4 214.6 205.1 196.2 185.7 179.3 174 161.5 158.4 162.5 172.2 173.5 176.4 197.9 217.7 233.6 254.2 266.1 280.3 285.4 286.8 284.8 282.8 281.8 278.5 275.3 271 264.3 256.9 250.1 238.5 239.3 236.7 236 232.2 225.6 217.4 210.1 200.9 190.3 181.2 173.5 165.8 154.8 141.9 126.4 119.2 114.2 109.6 108.2 107.7 102.6 111 115.1 121.8 135.2 147.7 159.7 168.6 173.1 182.3 186.1 188 191.2 191.8 192.4 193.8 195 198.3 199.7 202.1 201.3 201.6 202.2 203.5 205.6 205.2 205 201.2 195.3 189.8 185 181.9 179.5 171.8 164.8 157.9 150.4 142.3 134.7 131 127.6 126 125.7 124.6 123.1 121.3 120.3 120.1 119.9 119.9 117.1 116.9 114.3 112.7 114.6 114.6 115.7 115.7 116 115.6 115.5 115.5 116 117.9 120.8 124.7 130 132.4 136.4 144.6 151.3 163.7 170 174.1 179.1 185.8 192.1 197.3 202.3 208.1 215 222.9 228.4 236.1 244.8 249.7 250.3 253.1 254.5 258.7 264.6 273 283.8 281.2 272.3 265.3 257.9 247.7 242.1 236.3 229.8 225.9 221.4 217.2 212.4 207.5 202.5 193.7 180.4 168.3 156 143.8 132.7 121.2 110.3 100.5 90.8 86.3 84.8 82.6 81.5 80.7 80.1 80.7 79.8 79.8 80.8 81.7 82.4 83.6 85.2 89.3 92.9 97.3 102.7 106.9 111.9 115.6 117.6 116.8 124.2 130.9 136.3 140.7 146 150.7
244.2 235.2 226.8 218.3 211.8 200.2 191.4 190.9 181.1 173 162.8 161.5 173.4 175.6 177.1 186.7 204.9 224.3 237.4 255.5 268.4 279.3 284.7 286.7 286 284.7 283.8 281.8 278.7 271.9 264.2 255 252.7 253.1 254 253.3 249.9 245.2 237.8 229.1 218.7 209.6 200.1 189.8 179.4 169.1 156.6 145.6 130.2 121 117.2 111.2 108.9 107.5 102.8 110.4 114.7 118.3 130.8 139.8 150.3 160.8 165.6 170.7 176.6 179.7 181.1 184.1 183.6 187.2 188 188.4 190.9 192.4 193.9 193.3 194.1 197.4 196.2 193.2 190.8 187.3 183.4 178.5 173 169.5 165.2 158 149.4 141.5 135.4 131.7 128.5 125.3 124 124.2 123.6 121.9 119.7 117.5 116.9 115.9 115.2 113.7 112.6 111.4 110.1 111.1 110.6 112.2 113.5 112.7 113.7 114.5 114 113.9 113.7 114.5 115.5 117.6 120.1 122.7 126.9 130.7 136.2 143.5 155.1 163.9 167.1 173.8 181.8 187.4 192.6 198.3 203.8 211.3 216.7 222.2 229.4 235.1 238.1 241.1 242.6 245.5 250 256.2 264.3 266.4 262.7 258.4 253.4 245.9 239 232.9 227.6 219.8 214.2 210.6 208.6 206.5 204.6 201.6 194.3 186.1 169.6 158.4 144 133.6 121.7 110.2 98.5 87.8 85.1 83.7 82.6 80.8 80.4 80.2 79.9 79 79.7 81.3 81.6 83.3 85.6 88.9 92.4 95.6 99 102.9 106.9 110.8 111.8 117.4 122.3 126.4 130.9 134.7 140.9 145.9
241.9 232.6 223.3 214.2 205.3 194.7 184.7 184.7 184.7 189.1 180 170.6 177.9 178.2 181.6 194.3 211.8 229 241.7 256.6 272.6 280.9 285.6 288.3 288.7 288.6 288.7 288.6 286.1 281.3 277.8 273.4 271.7 270.8 271.8 269.5 264.9 258.4 250.9 241.1 229.2 217 205.2 195.4 185.4 173.6 160.6 145.4 133 124.5 119.2 114.4 110 107 103 109.6 113.6 111.5 124.5 136.1 142 152.4 156.8 160.7 164.1 170.5 171.5 174.6 174.7 180 181.3 180.6 181.6 183.2 183 183.1 180.8 179.7 181.1 179.4 175.7 173.5 169.5 164.4 157.8 153.4 149.7 140.2 135.3 132.3 129.5 127.9 126.3 123.9 122 121.4 120.1 119.3 115.8 114.4 113 112.5 112.4 111.2 111.7 109.5 108.9 109 108.8 109.2 111.5 110.4 110.7 110 111.2 112.1 111.9 112.2 112.8 114.1 116.5 117.3 119.7 122.6 124.4 128.6 136.6 145.3 153.5 161.4 168.8 176.3 182.2 187.8 193.7 201.4 206 210.3 214.7 220.3 223.9 227.2 228.5 230.3 234.4 237.5 241.1 243.6 244.1 241.6 239.7 235.6 231.5 227.5 222.2 218 213.1 208.9 204.7 201.5 200 199.8 199.7 195.1 186.8 173.3 159.5 144.6 135 124.2 110.1 97.9 86.3 86 84.3 82.9 80.5 80 79.6 79.8 78.4 80.5 81.6 83.1 85.4 88.7 91.5 94.6 98 102 104.7 108.5 109.3 114.3 118.4 120.8 125.3 130.9 136.4 142.2
238.2 229.5 216.8 205.1 196.2 184.7 184.7 184.7 184.7 184.7 184.7 187 178.2 181.2 184.6 201.3 218.3 233.7 245.7 260.2 275.5 284.3 289.4 292.4 294.5 296.9 299.3 299.7 300 298.1 295.1 293.4 291.1 289.1 289 285.1 277.3 269.7 262.4 253.9 240.8 228 213.7 200.9 190.9 178 165.3 149.1 135.8 127.3 122.2 118.5 112.5 107 106.8 108.3 117.1 120.3 127.2 127.9 135.4 139.6 147.9 151.7 153.1 157.5 159.5 160.9 163.8 165 174.1 173.9 173.3 174.2 171.8 170.5 172.5 171.7 170.6 167.4 163.3 160.2 155 147 141.6 137.9 133.7 130.8 128.6 127.4 126.9 125.9 123.9 119.9 118.8 117.8 117.1 114.7 113.6 113 111.6 110.5 110.3 110.1 109.5 107.6 108 108.4 107.9 108.2 107.9 108.5 109.7 110.8 110.4 109.9 109.3 110.6 111.2 112.5 112.7 114.4 115.4 117 118.3 119.9 122.8 130.3 136.9 146.5 155.9 161.3 167 174.3 183.5 189.6 193.6 198.2 202.6 207.4 209.2 214.2 218.1 219.6 221 223.5 223.7 225.5 224.4 224.2 223.3 222.8 222 220.7 217.1 213.9 210.3 205.8 203 199.3 197.1 196.1 195.9 195.2 192.7 186.2 174.2 159.9 146.6 135 121.3 108.6 94.9 88.2 86.4 82.9 80.3 79.8 79.3 79 79.1 79.9 80.8 82.8 85.1 88 90.3 93.8 97.4 100.2 102.6 105.6 108.3 110.8 113.1 116.3 120.7 126.1 132.3 139.8
233.4 226.1 211.1 200.2 188.5 184.7 184.7 184.7 184.7 184.7 184.7 184.7 188.6 183.5 190.1 210.7 227.2 238.8 251.2 265.3 279.1 288.7 295.1 298.8 302.8 308.4 312.1 312.5 314.4 312.9 312.5 310.3 309 305.8 303.2 299.6 291.5 281.5 272.2 264.4 254.2 241.8 225.2 210.3 197.9 183.8 171.2 155.2 139.7 131.1 127.8 124 119.4 105.3 107.1 107.3 108.2 112.9 118.8 125.7 131.5 134.8 137.1 141.5 143.5 144.4 145.6 147.5 150 151.7 156.2 157.6 158.7 160 160.5 155.6 155.7 154.6 154 150.1 146.9 142.6 140 135.9 134.8 132.1 129.6 128 126.5 123.2 121.4 120.1 118.2 114.3 113.6 109.7 106.3 104.9 106.8 107.2 106.2 106.4 106.6 107.5 106 104.1 107.1 108 107.6 107.1 106.8 107.5 110.8 109.3 111.7 109.9 108.3 107.9 109.8 110.4 111 111.7 112.4 113.7 114.3 115 116.6 120 126.3 133.1 140.2 147.2 155.4 162.1 166.2 171.5 179.6 183 186.3 190.2 193 199.8 202.5 204.1 207.8 209.8 211.6 213.3 214.3 214.5 214.1 212.8 213.2 211.4 209.9 208.8 205 201.8 198.5 195.7 194.1 192.9 193 192.6 191.1 188.5 183.7 175.6 162.7 146 134.4 120.8 104.9 91.1 86.7 85.2 79.4 79.7 78.9 78.9 78.7 78.5 80.2 82.5 84.8 87 89.6 92.3 95.3 98 100 101.4 104.6 106.3 109.4 110.8 115.9 121.2 129.7 139.5
229.8 217.8 204.7 191.1 184.7 184.7 184.7 184.7 184.7 184.7 184.7 184.7 184.7 184.7 195.4 216.7 232.4 244.3 256.7 269.6 282 293.1 300.5 307.4 312.9 319.2 321.1 322.8 326.1 325.5 323.9 322.5 320.9 318.5 316.2 310.8 304.3 295.8 285.8 277.2 263.6 250.7 236.8 221.8 204.7 188 177.3 163 145 135.7 131.7 126.3 122.4 115.9 102.9 106.1 106.9 106.8 114.5 122 124.5 127.5 131.5 133.8 135.7 136.7 135.7 135.4 137.2 137.1 136.2 137.3 139.5 141.8 141.2 138.2 136.3 136.7 137.8 137.1 136.1 134.2 134.7 132.1 130.7 128.2 126.3 125.3 120.9 118.9 117.2 114.8 111.2 104.2 95.8 92.7 92.5 92.2 91.5 91.5 91 91 91 94.8 95.5 94.3 93.1 92.3 93.4 94 94.9 97.7 104.3 104.1 102.2 101.5 102.6 102.1 106.1 105.9 108.4 110.2 110.2 110.9 110.9 111.4 113 115 117.3 120.1 127.8 132.8 140.1 148.6 153.6 160.2 165.3 170.4 174.2 177.1 180.7 185.5 189.7 191.2 193.4 195.4 197.4 200.5 202.3 202.8 204.1 203.9 203.8 204.3 203.5 201.7 198.8 196.8 193.7 191.3 189.9 188.3 188.2 188.1 187.2 186.2 184.3 181.1 175.1 163.5 145.3 131.8 116.8 99.5 89.8 86.9 83.2 78.9 78.4 78.6 78.6 78.1 79.4 81.4 83.1 84.7 87.4 91.2 93.5 95.7 95.2 99.1 100.1 101.8 104.6 107.1 110.4 117 125.4 135.2
