ncols 200
nrows 82
xllcorner 360000
yllcorner 445900
cellsize 50
317.9 321.9 323.5 327.1 327.3 326 319.2 299.4 284.4 270.4 263.6 243.9 232.9 244.1 267.2 292.4 320.2 341.9 352.9 360.9 367.3 370.7 371.9 372.4 374 375.8 376.1 375.4 373 371.5 369.5 369.2 367.2 362.6 360.4 356.5 352.4 344.6 327.6 311.9 331.3 339.3 343.7 348.2 349.3 344.6 328.3 307.9 285.9 263.1 251.4 238.6 229.3 238.3 240.4 244.5 259.4 269.8 283.9 293.8 300.7 306 312.8 316.9 318.8 319.6 318.4 305.9 283.2 261.9 241.4 240 236.1 227.5 215.7 203.9 200.3 197.5 195.9 200 205.9 220.8 234.5 241.1 240.1 234.3 239.8 242 237 234.5 232.6 231 231.2 231.7 230.2 229.2 232.8 234.7 230 221.7 217.8 212.5 202.7 187.1 162.3 147.5 139.9 137.2 133.7 128.3 119.9 120.2 120 119.1 119.2 121.4 121.9 123 122.5 116.9 112.5 112.3 111.3 110.9 109.1 110.9 112.4 113.1 112.9 113.4 114.8 115.5 120.1 122.2 124.4 128.4 136.6 144.2 153.4 159.2 154.6 154.6 159.3 160.2 159.1 159.3 157.8 154.7 148.6 138.9 132.6 128.3 128.3 130.9 132.3 132.8 130.3 125.3 115.4 118.6 122 129.2 133.5 138.3 143.4 148.2 163.8 170.6 159.5 136.7 135.7 138.3 140 141.1 142.1 141.7 141 140.9 141.2 140 135.4 129.2 131.5 133.1 132.5 131.3 131.7 131 127.9 127.2 126.3 126.5 127.1 127.6 124.7 131.1 134.1 138 141.4 145.5
334 350 352.2 354 350.8 343.5 333.3 312.3 290.3 271.3 261.9 238.5 235.3 249.1 271.4 297.2 322.3 348.5 359.9 368.7 373 374.8 375.7 376.6 378.5 380.1 380.9 380.2 380.1 379.3 377.1 375 371.2 366 362 358.8 353.4 340.1 315.2 336.7 351 358.1 362 365.7 363.5 348.1 327.7 305.6 280.5 259.6 249.5 238 236.1 245.9 248.4 251.1 269.7 280.9 292.1 303 316.9 322.6 330.3 339.6 338.3 336.3 329.8 312.8 289.6 267.2 257.2 261.2 254 242.3 228.1 214.8 208.3 203.3 194.7 201.7 208.1 212.7 225.6 240.7 248.5 243.5 243.7 244.5 245 244.5 243.9 242.4 241.7 247.6 250.6 245.2 242.8 246.5 246.7 236.6 225.9 219 206.8 193.7 170.1 150.5 141 136.4 134.4 128.5 119.5 119.7 119.5 118.8 118.4 120.3 120.5 121.3 121.8 113.3 112.8 112.2 112 111 110.5 111 111.7 112.9 112.1 112.9 115 118.7 122 124.5 126.7 133.6 139.7 150.6 160.1 169.5 168 166.5 166 167.8 169.4 167.8 163.8 159.5 152.4 140.5 132.2 130.1 130.8 133.2 133.3 134.5 134.9 130.4 119.5 116.2 120.2 125.9 131.6 139.6 146.7 158.8 167.4 164 144.3 134.6 134.6 136.8 138.5 139.9 140.4 139.4 138.9 138.5 139 136.7 129.5 122.9 122.2 125.1 124.6 128 128.5 127 126.4 126.4 126.5 126.9 126.5 124.9 130.2 135.2 138.8 142.6 145.6 149.7
330.2 355.6 365.2 367.3 363.2 351.4 337.1 317.5 291.2 270.6 253.8 236.3 241.4 253.3 275.6 303.8 329.1 356.3 367.1 374.8 376.1 378.5 378.9 381.4 382 384.5 385.5 385.6 384.6 383.5 382.3 378.6 375.1 370.1 364 357.4 351.3 340.2 332.4 352.8 363.4 367.5 371.7 374.7 368.9 347.4 325 304.3 277.4 257.9 249.2 235.8 243.6 250.3 255.7 260.1 278.6 292.8 301.5 313.5 324.5 335.6 344.6 354.4 358.7 356.2 344.4 320.9 300.7 291.3 284.3 280.2 273.5 255.7 239.9 221.5 215.5 209.2 198.9 200.8 209.6 213.4 220.8 230.8 249.7 255.6 249.1 251.7 252.9 256.3 255.9 253.3 252 257.3 258.3 258 251.2 249.2 251.2 246.6 233.4 221.7 210.1 197 174.5 152 141.6 136.6 133.3 129.5 117.6 118.9 118.4 118.2 117.9 118.3 119.8 120 120.6 113.2 112.2 111.9 111.7 110.5 110.3 110.4 111.7 112 111.8 111.9 114.1 118.5 123.8 126.4 129.7 136.6 147.6 160.6 169.9 175.4 178.8 177.2 173.4 174.8 175.3 173.3 167.6 161.9 154.1 142.1 135.1 132.7 131.6 133 132.8 133.7 132.8 130.7 125.7 117.9 119.7 123.7 133.2 142.2 149.8 154.2 157.2 145.2 136.4 132.6 133.4 135.5 137.2 138.8 138.9 137.9 136.6 135.5 135.2 122.9 124.4 125.8 125.1 125.1 125.3 125.5 126.1 125.9 126.3 126.5 126.6 126.9 124.3 128.9 133.3 138.1 142.4 146 149.1 154
332.2 357.2 373.6 374.7 366.8 351.8 337.3 316.3 288.3 266.1 244.8 237.4 243.9 257.6 283.9 311.2 339.4 362.5 373.6 377.5 379.3 382 384 384.7 386.9 388.6 389.2 389.2 387.9 386.6 384.6 382.4 378.3 372.1 369.1 366.2 360.6 345.5 350.3 364.8 371.7 374 375.7 376.4 370.1 347.9 322.7 301.3 275.5 259.8 255.5 249.3 247.8 256.4 263.4 269.7 286 300.7 311.7 323.3 337.3 345.6 355 364.3 375 373 361.3 337.3 322.3 309.7 304.6 296.3 283.4 262.9 242.8 230.6 220.1 215.8 210.6 205.4 205.8 215.5 220.5 229.6 240.3 261.2 255.3 263.9 269 269.3 268.3 268.8 264.1 262.4 268.4 268.5 263.8 265 267.6 254 239.5 224.3 207.4 192.1 173.1 153.5 143.9 137.5 133.9 130.7 118.2 118.5 117.9 117.5 117.3 117.2 117.3 118 117.8 115.8 112 111.5 111.1 110.5 110.3 110.3 111.3 111.4 111.4 112 117 120.1 124.2 127.6 132.6 142.6 155.5 166.9 178.5 185.3 189.6 188.8 183.8 181.2 181.5 178.7 172 164.9 152.9 143.1 138.6 135.2 132.8 131.4 132 132 131.3 129.3 128.3 119.5 116.7 122.1 132.1 138.9 142.6 144.9 143.2 135.5 132.4 132.3 132.7 133.1 134.5 136 136.3 135.7 134.6 133.3 131.7 123.8 125.6 128.1 128.5 124.7 125 126 126 126.5 126.9 126.3 126.5 124.3 126.7 131.5 135.2 139.6 143.3 147.5 152.2 158
344.4 368.4 378.3 377 366.6 349.5 333.9 310.8 285.9 263.2 239.1 239.4 247.3 262.2 290.5 319 346.3 365.3 374.4 376.6 380.2 383.3 386.9 389 390.8 392.1 392.8 392.1 391 389.2 386.5 383.6 378.7 374.7 374.3 371.6 364.7 351.8 359.6 373.2 376.3 376.5 375 374.4 369.5 349.8 320 292.5 267.9 255 244.7 246.1 253.1 264.2 268.7 277.1 289.1 303.2 314.7 331.3 344.4 355.1 367.1 377.7 385.8 387.2 380.2 362.7 347.5 331 322.9 308.1 287.7 262.7 254.5 239.3 230.7 221.5 218.5 215.6 213.7 212.8 222.7 230.5 241.1 254 269.2 265.5 273.3 280.9 277.8 277.7 278.5 269.6 272.8 273.5 271.3 271.4 271 261.4 246.3 223.6 204.8 187.4 170.7 156.3 145.4 137.9 134.2 132.4 125.2 116.6 117.7 117.3 117 116.9 116.3 115.7 116.6 116.7 112.5 111.3 110.9 110.7 110.5 110.5 109.7 110.7 111.2 114.5 118.4 122 124.5 128.2 137.4 149.7 160.8 173.1 183.5 192.1 197.4 198.1 194.1 190.7 188.9 186.2 179.8 170.3 154.9 149.8 145.5 140.7 134.7 134.2 133.5 131.2 130.7 130.7 129.2 122.9 116.7 119.2 124.8 130.6 132.7 132.9 131.8 131.3 130.7 131.5 130.9 129.5 130.4 132.5 133.4 133.3 132.3 130.2 127.2 124.8 126.5 129.1 128.5 123.5 125.6 125.8 125.8 126 126 126.5 124.8 126.4 128.1 131.6 137.3 140.8 145.8 151.2 156.4 162.5
353 376 385.6 381.1 362.5 346.2 330.4 307.4 282.9 261.8 240.7 240.1 253 268.4 292.1 316.9 335.5 354.8 370.9 374.8 379.2 384.9 389.1 392.1 394.2 395 395.5 394.5 391.9 389.3 386.4 383.7 378.5 378.5 377.6 375 370.4 369.8 373.9 377.8 379.1 378.6 376.1 375.2 368.8 333.6 315 293 273.2 260.1 248.4 253.1 260.1 271 278.7 281.8 294.7 307.5 318.5 337 352 365.3 376.2 385.9 392.7 396.6 394.1 388.6 375.1 355.5 335.4 315.4 292 285.3 270.8 253.1 239.4 229.5 227.1 222 216.2 219.3 222.7 232.1 242 252.2 264.3 276.7 274.2 284.3 288.6 287 283.9 281.4 280.5 287.2 288.6 286.2 277.2 267.3 243.6 219.1 197.1 182.2 168.5 157 146.8 140.5 136.7 133.4 128.4 122.4 117.9 116 116.3 116.2 115.1 115.1 115.5 116.2 116.5 115.4 110.1 110.4 110.2 110.2 109.7 111.2 111.3 117.3 122 125.6 127.3 132.2 146.5 156.2 168.3 181.6 195 201.5 207.8 209.8 208 203.2 197.9 191 184.5 175.5 157 159 155.8 151 141.8 136.9 133.9 132.7 130.4 129.5 128.5 121.8 120.3 119.6 120.8 121.8 125.4 127.2 128 129.5 131.3 130.1 128.7 127.7 127 128.6 129.8 129.6 129 127.5 124.7 124.1 128.1 128.8 128.6 126 124.2 125.7 125 126.2 125.9 126.6 124.4 127.2 131.6 135.1 139.4 145.3 148.6 155.4 161.3 165.1
358.9 384 390.6 385.8 364.1 345.9 331.7 306.3 281.9 262.8 242.7 242.3 254.7 268.4 289.5 307.7 322.4 340.8 361.2 372.7 377.5 383 388.5 392.8 395.6 396.8 396.4 395.6 392.8 389 387.9 384.3 382.6 381.5 379.8 377.2 377.8 377.7 378.5 379.5 381.2 379.7 379 377.2 371.6 327.8 316.4 295.3 275.4 267.2 248.4 255.6 268.5 278.9 285.7 291.3 299.7 311.4 323.6 342 357.4 372.7 384.1 394.4 401.9 403.5 403.8 401.3 395.4 378 350.6 329.9 318 303 284.2 265.7 250.4 239 233.5 228.6 225.5 225.7 222.5 233.6 242.3 251.2 260.3 271.8 284.5 287.8 291.4 300 302.3 297.4 289.2 289.3 287.8 284.3 288.6 268.1 243.9 215.7 195.3 177.6 167.2 156.1 147.8 142 137.6 134 130.3 122.3 121.1 114.8 115.6 115.2 114.2 114.3 113.9 113.1 115.9 114.9 110.4 110.2 108.1 110 109.3 110 112.3 117.7 124.1 127.4 129.7 138.6 151.4 165.4 181 196.3 207.4 216.1 221.9 225.9 221.5 214.8 204.6 194.4 186.8 176.9 169.5 169 164.5 159.8 148.9 142.2 138.1 135.1 132 128.8 126.4 123.3 121.5 116.7 120.8 121.3 122.9 124.4 128.4 129.1 125.5 121.6 121.7 121.4 121 119.2 119.2 124.1 125.7 125 123.1 128.9 129.4 129.5 130 126.6 125.8 124 123.9 124.1 124.6 128.9 130 131.8 136.5 140 143.5 149.5 154.7 160.8 164.4 166.6
363 386.9 393.6 389.4 369.3 349 335.6 311.4 284.7 268.9 251.7 243.9 251 265.4 280.4 296.5 309.7 326.7 345 364.8 377.4 382.4 388.6 393.5 395.6 396.8 397.1 396.3 392.2 392.5 390.9 387.7 385.7 383.8 381.9 381.6 381.9 382.9 382.2 382.9 382.8 382.3 380.8 379.7 375.8 342.8 320 300.1 274.2 258.5 253.9 270.1 277.1 286.3 291.8 299 305.6 316.6 328.9 345.9 362.7 379.7 391.1 401 407.5 410.7 412.7 411.4 406.4 392.8 368.4 347.6 330.8 313 293.1 274 256.4 248.2 242 231.7 228.9 233.1 234.5 236.4 243.5 253.4 262.7 270 281.7 298.8 299 308.6 313.4 312.6 308.7 304.3 301.1 301.2 294.3 277.2 245.9 215.4 194.4 179.4 167.4 155 146.6 141 135.9 133.2 130 125.7 121.9 114.9 114.2 114.5 114.2 113.4 112.6 112.4 114.5 115.2 113.2 109.6 108.9 108.3 109.4 109.6 114.9 120.9 126.9 130.1 135.3 146.6 158.5 177.4 196.1 214.4 220 226.8 236 234 227.7 218.1 207.8 201 190.1 183.6 179.4 177.7 171.9 167.3 158.7 151.3 145.5 140.9 137.4 133.1 128.9 126 122.6 121.7 120.4 121.2 122.1 122.3 122.1 118.8 120.7 123.9 124.3 121.2 122.2 122.7 122.7 122.2 121.2 123.7 120 129.7 130.1 130.4 130.5 128.7 126.5 124.6 126.5 127.1 131.6 132.3 133.3 135.9 141.4 145.3 149.3 154.5 159.7 163.9 165.5 166.7
365.2 386.3 397.6 395.7 376.8 361.9 346 326.2 304.9 286.3 269.5 246.1 246.4 258 275 287.4 298.3 315.2 329.9 349.1 370.7 379.1 385.4 392 394.4 396.6 397.5 397.6 397.7 396 392.8 390.3 388.4 386.5 383.9 385.2 384.6 385.4 381.8 384.1 384.3 385.3 384.2 382.3 381.3 372.9 339.4 307.8 280.1 258.8 269 282 289.8 293.6 299.5 304.9 313.2 322 335.9 350.6 368.4 385.2 398.3 406.7 412.1 414.8 418.9 417.9 414.5 406.6 385.9 358.9 336.6 314.7 293.8 276.3 264.6 254.7 247.4 243.4 237.1 240.6 244.4 243.5 249 258.1 265.2 272.8 283.7 298.1 313.3 321.3 325.4 328.7 330.3 321.3 316.6 307 301.3 273.5 242.9 212.4 192.2 176.6 166.1 155.5 144.9 139.9 136.4 133.6 130.8 124.6 122.2 117 114.1 113.9 113.4 112.9 112.4 112.2 111.5 115.2 114.1 109.4 109.6 110 109 110.8 118.4 124.1 127.6 136.8 144 157.3 170.1 190.2 211.1 223.5 226.7 228.4 228.5 226.3 224.6 220.6 215.1 207.4 199 195.1 191.4 185.2 178.6 174 167.7 161.6 156 148.2 148.6 140.9 136.6 131 128.3 124.9 118 121 120.6 117.9 122.5 127.4 129.5 127.8 128 124.1 121.8 123.4 123.8 124.9 124.2 120 129.4 131.4 132.1 131.7 131.5 130.4 126.9 127.3 131.8 133.4 135.1 136.9 138.8 142.5 146.4 150 154.5 158.6 162.7 164.9 165.3 165.3
362.7 387.4 402.7 402.3 396.5 383.6 361.9 339.4 319.8 302.8 287.4 270.1 251.1 250.3 254.8 274.7 283.4 300.7 316.3 333.6 355.5 372.3 381.5 386.9 391.3 394.2 396.6 397.3 397.7 395.9 393.6 391.2 390.3 388.6 388.2 387.2 387.1 387 386.5 387 388 388.5 389.2 386.9 384.5 379.9 356.3 318.9 285.8 262.4 277 286.4 296.4 300.4 306.9 311 320.5 329.6 341.3 356.4 374.2 392 403.9 411.7 415.8 421 425.3 424.3 422.5 413.9 392.2 362.9 338.6 315.2 303.5 287.3 273.6 263 252.9 252.1 247.2 248.2 253.5 255.4 259.1 260 267.9 278.2 286.7 296.1 306.1 313.9 319.9 337.7 341.5 340.5 333.1 318 289.9 267.1 235.8 208.3 189.1 175.5 164 153.3 145.2 139 135.3 131 128 122 120.4 118.8 112.7 113.3 112.6 112.2 111.6 111.8 110.6 110.9 108.6 109.6 109.8 107.8 109.1 113.9 119.7 126 130.9 140.9 151 166.8 179.9 201.1 218.2 227.6 228.3 229.2 228.6 228.8 229.2 229.2 224.3 219.1 213.5 205.3 198.3 191.8 183.2 179.4 175.1 169.6 163.5 158.6 153.5 151.7 149.5 143.1 136.6 129.6 122.4 117.6 120.4 120.8 128 131.7 133.7 132.9 130.8 129.5 126.4 124.1 125.4 126.1 125.2 129.7 131.4 134 134.4 134.5 133.6 128.9 129 131 133.8 136.3 139.4 141.9 144.1 147.3 150.5 153.4 156.9 159.5 162.5 162.9 162.3 162.5
372.7 394.8 404.6 407.7 404.1 398.5 383.3 359.7 337.6 320.9 306.7 289.6 272 255.7 252.9 253.1 267.7 283 298.7 315.3 336.2 359.6 374.2 383.8 388.9 390.1 393.2 395.3 395.9 393.5 392.7 390.7 390.8 390.5 390.1 389.2 389.1 388.8 389.8 390.7 391.9 392.5 393.9 391.9 388.2 383.1 371.2 328.7 289.4 276.7 278.3 291.4 297.3 305 310.8 318.5 326.5 340.8 350.2 363 379.7 398.2 408.6 415.3 421.3 427.1 428.1 429.2 429.1 422.1 398.8 368.6 350.9 334.7 313.2 292.6 284.5 273.2 270 263.9 258.4 258.9 260.3 264.4 265.8 269.9 270.5 282.5 288.5 296.7 301.3 302.8 309.1 322.4 337.1 338.7 330.7 309.1 285.5 254.7 227.8 204.3 186.9 173.2 161.9 152 144.2 137.4 134.6 131.8 128.2 121.7 119.4 118 115.1 111.9 112.7 111.8 111.2 111 110.9 110.2 109.4 109.4 109.7 107.9 109.5 115.8 123.2 128.8 136.4 149.5 163.3 175.9 186.2 213 226.4 230.2 232.5 237.1 238.2 239.6 237.7 232.6 227.1 222 217.9 211.5 205.2 199 189.3 186 181 176.2 168.2 165 159.8 160 160.3 153.1 143 135.2 128.4 126 124.8 119.9 129.5 134.6 137.2 136.9 135.4 133.5 131.2 126.4 125.5 126.6 127.9 132.6 132.4 133.5 134.3 135.6 134.6 132.1 129.7 133.9 137.5 140.1 142.4 144.9 147.1 149 151.4 153.4 155.3 157.3 158.7 158.7 158.9 163.3
388.8 401.4 407.2 409.9 406.9 402 387.2 364.3 345.5 327.1 315.7 303.6 286.7 275 266.9 257.6 256.4 263.4 278.3 298.3 319.5 339.8 356.5 372.1 382.6 385.5 388.9 392.9 393.3 392.4 391.3 391.1 389.9 390.5 391.4 390.2 391.2 392.2 392.6 394.3 396.5 397 397.5 396.3 390.7 385.1 372.3 339.4 297.7 276.8 280.5 291.1 302.6 307.4 314.8 322.9 332.6 346.8 357.5 367.6 385.4 403.2 413.3 418.8 425.4 430.4 435 434.5 434.5 430.1 414 388.1 365.2 342.3 316.4 308.8 297.2 279.6 284.5 279.5 269.6 266.6 267.2 268 272 274.2 274.5 281.9 287.1 293.5 298.5 300.4 302.2 309.3 322.9 325.8 320.7 301.4 281.8 254.3 225.2 200.2 183 171.5 160.6 151.4 144.1 137.8 131.9 128.9 125.6 121.5 118.9 117.9 117.5 114.1 111.5 110.3 110.9 110.7 110.1 109.8 109.2 109.5 109.4 107.3 113.7 123.4 130.2 135.1 146.6 158.2 173.4 188.6 205.7 224.2 230.2 235.3 240.2 242.4 241.9 241.3 239.4 235.2 229.7 225 220 216.5 211 205.8 198.6 193.3 186.9 180.2 175.2 171 167.8 169.7 165.2 155.3 144.4 138.6 135.1 130.6 124.7 123.1 129.1 135.1 139.6 141.6 142.1 140.2 137.1 133.1 128 127.2 127.9 130.3 131.4 132.3 133.8 134.5 133.8 131.7 130.4 136.8 140 142.5 144.7 147 147.8 149.2 150.5 151.1 152.3 152.9 153.8 156.8 162.4 167.4
395.1 404.2 408.6 410.8 410.1 403.8 384.9 364 353.8 336.8 324 315.5 305.3 297.7 289.2 283.3 268.9 259.2 273.8 281.7 300.4 319.8 338 355.6 373.5 379.9 386.5 389.6 389.8 389.3 387.8 389.6 390.6 391.3 391.8 393.1 392.1 395.4 394.9 398.2 399.2 400.5 401.1 399 392.9 383.7 372.7 343.7 305.9 288.3 281.9 292.2 309 312.9 320 329.7 337.5 349.2 361.9 374.6 390.7 406.9 416.9 422.5 429.8 435.5 438.7 440.7 441.8 437.1 427.8 400.1 368.4 338.3 333.5 323.1 306.3 298.4 299.7 294.2 283 277 273.9 273.3 275.4 280.7 282.3 282.7 285.5 288.5 293.3 295.6 293.4 296.9 305.6 309 305 295.5 279.4 254.6 223.9 197.3 180.9 169.6 157.6 149.2 142.3 135.5 131.9 130.1 127.4 120.6 118 117.2 116.8 116.2 114.9 112.1 110.3 110.1 109.8 109.2 108.9 109.1 109.1 111.9 119.9 124.6 133.5 143 153.6 167.2 181.9 198.4 215.3 229.8 237.3 242.1 242.2 241 241.3 242.4 239.7 236.8 231 225 221 217.2 212.7 207.2 202 198.9 194.7 190.4 184.8 180 176 174 166.2 154.2 147.2 143.8 137.8 133.1 123.1 124.5 132.1 137.8 142.2 145.4 146.3 145.9 143.2 139 133.3 130 130 131.3 132 133.2 133.8 133.8 134.4 133.1 131.4 135.2 140.7 142.7 145.2 147.2 147.7 148.2 148.2 148.5 149.1 149.9 153.9 159.2 164.5 168.4
396.4 405 409.1 411 410 405.6 396 379.5 363.2 350.9 336.1 325.1 322.7 319.4 311.3 301.4 289.3 277 266.8 286.5 286.2 299.4 317.4 338.9 357.1 372.2 380.3 381.6 383 384.4 383.7 385.6 389.8 391.3 393.1 394.7 397.2 400.2 399.6 401.1 402.3 403.5 402.7 400.4 394.4 382.4 372.4 347.4 316.8 280.6 294.5 307.6 307.1 317.8 326 333.8 345.3 354.1 368.3 384 398.5 410.4 419.3 426.7 433.7 438 442.2 443.1 446.3 444.4 433.8 402.3 374.7 359.1 352.6 334.7 315 318.2 314.7 307.5 296.2 285.8 280.8 278.8 279.9 282.5 284.2 281.8 282.2 279.5 285.6 283 283.8 285.1 285.1 292.7 294 285 269.7 247.2 220.3 193.8 179.2 167.6 155.2 145.9 138.4 134.4 130.2 128.4 126.8 120.9 116.9 116.2 116 115.6 114.2 114.3 111.5 110.6 109.1 108.8 108 106.9 106.6 115 123.9 130.8 139.1 149.8 152.9 167.2 191.9 207.3 224.6 234.7 240.2 240.5 239.6 239.3 239.4 238 235.1 232.8 229.6 224.6 221.5 216.5 209.6 205.1 202.8 201 198.5 195.1 189.8 184.1 181.9 176.5 167.2 155.5 154.6 150.3 142.6 136.3 128.9 126.3 133.5 139.5 143.4 146.6 147.9 148.1 146.9 144.7 140.4 136.4 134.2 135.9 133.6 133.6 134.3 135 135.3 134 132.2 134.2 139.8 143 144.5 145.8 145.7 145.5 145 146.1 147.4 149.5 155.1 159.8 162.9 166.2
399 405.5 409 411.8 409.9 410.2 404.7 395.3 383.1 369.8 355.9 347.5 345.5 343.5 332 316.3 303.3 290 266.8 276.2 289.7 286 301.3 320.2 341.4 364.4 371 374.5 378.1 379.8 382.8 386.5 388.4 391 393.9 397.4 401.2 401.7 403.9 404.2 405.4 404.7 403.5 400.6 391.6 382.1 372 355.4 324.4 289.3 304.8 314.7 322.2 321.1 328.9 340.1 352.4 358.8 372 388.7 401.8 413.8 420.8 429.2 436.6 442.9 448 448.3 452 451.5 444.1 416.8 395.3 381.5 362.5 339.6 336.2 336.1 328.4 317 305 292.8 286 283.2 282.3 282.1 281.7 280.8 277 275.3 276.8 272.3 266 266.7 268.5 273.2 276.2 267.8 255.3 235 215.7 192 176.9 163.7 153.1 143 134.4 131.4 127.4 125.8 125.3 122.5 117 115.4 115.3 114.9 114.3 113.2 112 111.8 109.1 109 106.6 109.5 113.4 117.6 126.3 136.9 146.3 156.2 171.4 185.5 189.7 213.3 232.2 237.6 240.3 238.8 237 235.6 234.8 231.2 227.8 226.5 223.3 219.9 216.7 212.6 208.3 205.6 202.1 199.7 197.5 195 191.5 187.4 183.2 177.1 165 162.5 160.4 157.2 150.4 141.2 134.4 123.9 134.4 138.4 141.8 145.7 148.1 150.1 149.7 149 147 143.7 142.5 140.7 139.1 137.2 135.8 136.3 135.7 134.4 131.8 132.8 139.1 142.8 143.7 144.3 143.1 142.7 143.5 145.1 146.6 150.1 153.1 156.1 158.7 161.1
399.1 404.2 409.9 412.2 412.1 413.7 410.9 407.7 402.6 394.4 383.4 376.3 372.6 364.2 344 324.4 312 297.3 280.8 267.6 272.6 281.6 288.5 303.5 327.9 351.1 365.8 367.9 366 376 380 384.2 388 390.5 393.9 399.3 403.7 403.7 406.5 406.2 406.1 404.8 403.3 399.2 389.1 380.3 373.1 359.8 332.9 295.2 307.1 320.1 322 334.1 337.7 339.8 354.8 361.7 376.2 390.2 402.5 415.5 425.5 433.6 440.4 446.5 451.4 453.9 456.3 457.1 454 441 419.7 391.4 366 357.5 358.4 353.6 338.7 324.6 312.5 298.1 290.1 285.5 282.3 279.7 279.4 278.5 268.9 268.8 265.8 257.4 250.7 255.9 252.1 255.4 255.2 249.1 238.6 220.4 206.7 191.6 174.3 161.4 151.2 141.8 132.2 124.4 121 123.4 123.2 121.4 118.3 114.2 114.7 114.8 113.9 113.6 111.3 111.2 110.2 107.2 108.8 112.9 115.6 120.2 136.7 148.2 159.4 170.6 180.9 196.8 206.3 220.4 238.7 239.6 238 235.8 233.5 230.8 227.2 223.8 222.3 220.8 218 215.6 212.6 209.3 208.8 207.4 202.3 197.4 195.5 194.4 191.9 188.4 182.4 173.6 166.1 164.7 163.3 157.5 150 142.4 132.9 128.3 132.5 136 139.5 144.3 149.4 152.8 154.1 155.2 152.6 150.1 149.2 148.6 148.7 147.4 143.9 140.2 138.1 136.8 133.2 131.1 138.4 142 142.3 141.6 142 142.7 143.5 144.7 146 147.9 149.7 151.6 153.4 158.4
400.1 404.7 410.3 411.2 413.2 414.7 414.2 410.7 406.7 404.4 400.2 396.9 391.8 384.4 364.6 339.2 323.5 307.4 297.7 291.5 287.4 273.8 285.7 290.5 314.3 338.6 351.1 346 370.4 377.8 380.3 383.8 387.2 389.7 395.8 402.5 404.5 404.8 406.4 406.4 405.5 404 402.4 397.4 387.3 379.7 370.3 359.2 329.1 292.8 318.3 325 332.7 340.5 343.3 347.2 357.7 364.4 379 391.2 404.5 417.2 428 436.2 443.4 450.8 456.4 458.5 460.6 463.3 462.5 455.1 429.4 403.3 386.8 382.6 373 363.1 344.7 329.5 315.9 301.8 288 283.9 278.8 274.5 269.7 267.1 266.3 253.7 249.8 243.2 241.6 240.8 241.1 243.2 240.3 234.4 225.7 213.4 198 189 173.9 160.1 149.7 138.6 132.8 128.2 121.9 117.8 121.4 119.9 117.3 114.7 114.1 113.6 113.4 112.8 109.6 108.7 108.2 108.8 107 115.6 119.4 129.6 142.4 157.9 174.2 185.2 195.8 207 216.9 230.6 237 236.3 233.9 231.7 229.5 225.1 222.4 219.6 217.4 213.8 212.6 210.6 209 207.3 207.3 207 202.5 196.3 193.8 191.6 189.8 185.8 179.4 169.5 165.3 164.2 162.4 160.7 150.5 141.3 136 129.3 132.1 135.5 141 146.5 151.4 155.6 158.8 159 157.9 156.6 154.2 153.2 153.4 152.4 149.8 144.5 140.6 138.6 134.8 139.6 138 139.1 139.9 142 143.1 144.6 146.4 147.5 147 147.7 149.3 150.4 153.5 157.7
398.9 406.9 409.9 412.6 415.1 414.5 414.2 412.3 409.1 404.1 402.6 398.6 395.1 389.7 380.3 363.6 345.6 326.5 312.4 303 294.5 277.2 279.4 289.3 304.4 323.6 323.5 356.6 371.4 377.5 381.8 383.8 387.1 390.5 398.2 403.4 405.5 405.6 407 406.7 405.6 403.5 401.1 395.8 385.5 376.6 367.4 354.7 321.4 305.7 327.1 333.1 346.2 349.2 352.5 354.3 362.5 369.3 379.7 393.6 406.2 419.5 431.3 437.8 446.6 454.4 459.7 465 464.5 468.8 467.2 462 446.3 425.4 412.7 395.4 379.2 365.6 346.8 330.7 316.7 302.2 290.6 281.6 274.7 265.5 260.5 258 254.8 242.1 229.4 234.3 228.4 227.4 228.9 233.2 231.2 227.1 220.5 203.5 187.9 181.5 173.8 159.3 148.7 138.6 131 127.2 122.9 115.4 121.8 119.7 115.6 113.1 113.3 112.2 109.6 108.8 108.1 108.2 107.9 108.8 106.2 115 120.2 130 146 163.2 179.5 196.3 205.3 211.9 221.7 228.5 231.9 232.1 230.4 228 224.2 219.5 217.1 214.4 211 208.7 207.1 206.8 206.2 205.6 204.8 204.2 201.3 194.5 192 188.6 185.9 182.3 176.1 165.6 163 162.6 161.7 157.9 150.4 142.5 137.3 130.1 131.3 138.2 143.3 147.8 152.8 157.5 161.4 161.4 161.9 161.2 158.5 157.5 157.9 156.6 153.2 148.9 145.1 136.3 134.4 141.8 141.7 143.2 144.9 146.6 147.6 148.4 148.9 149.8 148.9 148.7 151.6 153 153.1 157.6
400.5 408.1 412 414.9 415.8 416.4 416.3 413.5 409 406.4 404.4 400.7 397 393.1 387.7 377.1 356.7 336.5 323.1 308.7 301.7 289.4 278.5 288.1 299.3 316.1 339.5 360.7 371.6 376.9 381.8 384.5 386.8 392.6 400.7 404 405.6 406.6 407.6 406.9 404.5 402.4 397.2 392.2 380.9 370.8 360.9 350.1 318.5 315.6 336.5 344.6 352.8 356.3 357.9 363.4 369.2 373.2 385.8 398 407.3 421.4 433.2 441.9 449.2 457.4 463.5 467.7 471.4 472.3 473.3 466.9 459.1 438.5 415.6 395.7 377.9 361.4 342 326.3 311.3 299.3 287 278.5 268.3 256 250.1 247 238.8 223.5 222.6 220.6 219.5 219.8 223.2 225.7 222.5 219 210.9 187.6 180.8 177.3 170 159.3 147.9 137.6 131 122.1 120.9 113.3 119.7 119.2 115.1 112.1 110.2 107.8 107.5 107.8 107.8 107.8 107.6 108.1 105.9 113.3 118.3 129.4 149 169.9 186.1 201.7 208.9 213.2 218.6 222.3 225.7 226.3 224.6 223 218.9 215.7 212.3 209.4 205.3 204 203.9 204.7 204.5 203.3 201.2 200 197.6 192.1 190.2 187.5 182.6 178.1 169.5 161.9 160.8 160.4 158.6 154.7 149.6 143.3 136.6 130.4 135.4 139.5 143.8 148.2 153.6 158.3 162.2 164.4 164.7 163.8 161.1 162.7 162.7 159.9 156.4 152.4 147.2 137.1 136.7 143.7 145.3 146.8 149.5 150.9 153.5 154.7 155.7 154.6 152.9 153.1 155 157.3 159.2 156.7
410.3 412.6 415.3 416.1 416.3 416.5 416.3 414.7 412 409.3 406.7 402.5 398.4 394.8 390.4 384.1 372.7 348.9 331.4 318.1 306.9 290.8 279 291 307.9 316.3 325.6 345.8 367.8 376.7 380.1 383.8 389.5 395.1 400.9 404.2 405.8 406.1 405.8 404.3 402.4 400.3 395.8 387.5 374.9 364.6 358.4 342.9 316.1 324.1 343.6 353.2 360.2 365 369.1 373.5 378 383 391.1 400.8 410.6 423.2 435.9 444.5 451.9 461.2 467.4 472.6 476.8 476.2 477.2 471.6 457.1 427.4 401.9 383 365.2 349 331.9 317.4 304.1 293.8 284.1 275.5 262.7 247.1 234.8 230.6 222.3 216.1 211.7 210.8 209 211.6 212.5 216.8 213.9 209.9 197.9 184.8 181.4 173.2 168.7 158.6 146.7 137.6 128.1 121.6 115.5 110.3 112 110.7 107.6 106.9 107.2 107.1 107.3 107.7 107.3 107.7 107.6 107.9 108.2 112.4 118.5 135 149.1 172.6 190.5 199.9 205.8 208.2 209.8 212.3 217.1 218 217.2 215.1 213.1 210.4 208 205.3 201.3 200.9 202.5 202.2 202.2 200.7 198.7 194.9 191.7 189.4 188.1 184.7 180.7 172.9 164.4 160.1 158 155.7 154.7 152.9 149.1 142.6 132.2 134.1 135.6 139.2 143.8 149.6 154.7 159.9 164.1 165.8 165.9 164.2 165.4 166.5 166.1 161.5 157.6 153 146.3 138.7 140.4 146.4 149 153.6 157 158.7 160.1 162 162.6 160.2 158.7 159.4 162.2 164.3 165.5 165
416.7 416.6 416.6 418 416.3 417.7 416.6 414.2 412.4 408.8 406.9 402.1 397.9 393.5 389.8 385.3 377.9 360.9 343 323.3 307.8 287.7 283.1 306.4 330.7 341.9 352.4 366 375.4 379.2 381.1 384.3 391.3 396.4 401.2 404.4 405.9 405.9 406.4 404.5 401.4 397.7 390.9 380.8 368.6 360 352.9 336.3 308.1 335.6 348.7 357.4 365.8 372.6 377.6 382.1 383.1 391 396.3 405.1 413.5 425 437.5 448 454.9 464.5 470.4 476.2 479.7 481.6 479.5 473.3 448.6 416.7 389.1 370.8 349.6 332.4 318.3 308.8 299 289.4 281.7 272.7 261.8 246.2 230.2 219.5 214.8 208.7 205.9 205.4 206.8 206.1 204.2 204.4 203.7 200.7 196.1 183.3 177.6 170 164.7 156.8 143.9 136.5 128.4 122.7 115.3 110.7 108.4 107.8 106.7 106.6 106.6 106.9 106.9 106.8 107.1 107.2 108 107.1 109.4 111.4 122.7 137.7 154.1 176.1 188.8 193.9 197.6 199.9 200.5 203.7 207.1 208.6 208.2 206.9 206.2 205.1 204.8 201.1 198.5 199.2 200.4 200.3 199.7 198.8 196.8 190.9 188.5 186.9 184.7 181.2 177.6 171.1 167.5 156.2 154.4 152.2 150 144.5 141.1 134.7 131.5 137.1 140.5 143.5 144.6 147.6 154.9 159.4 163.7 165.7 165.2 166 167.7 169 167.4 162.4 160.8 156.1 143.1 139.1 145.7 152.1 155.8 159.8 163.1 165.6 166.8 167.8 167.4 167.8 167.2 169.9 174.1 174.8 173.6 172.5
422.2 421 420.1 419.4 416.7 417.3 415.7 414.3 411.4 407.6 403.4 398.6 395.4 392.5 387.6 383.7 377.1 372.2 352.7 325.6 306.6 283.7 296.8 320.3 348.4 364.7 371.6 374.4 379.1 383.4 385 388.6 394.4 399.2 403 404.8 405.9 406.3 404.6 402.3 398.1 395.6 389.1 377 364.4 356.8 342.6 319 328.8 334.9 352.7 361.8 369.3 376.7 382.7 386.9 392.4 397 403.3 409.3 417.4 427.7 440.9 452.2 459.9 468.6 474.9 479.8 484 484.8 483.7 474.7 444.7 414.4 385.1 364.7 348 331.9 318.2 305.3 295.5 286.5 278.2 270.7 257.3 243.8 228.3 212.6 206.2 203.3 201.3 200.9 199.5 200.2 193.3 191.5 191.5 190.1 187.6 182.6 169.6 165.6 163.1 150.2 141.8 133.7 127.3 120.7 113.5 108.4 107.3 106.8 107 106.1 106.5 106.9 106.9 106.7 107.1 107.5 107.6 105.5 109.8 113.6 125.2 143.3 162.3 174.9 182.2 185.3 185.6 190.3 192.5 193.9 195 198.6 200.3 199.6 199.9 200 198.9 196.9 195.9 196 197 196.8 197 195.4 192.7 188.7 186.4 184.5 181.8 178.8 175 167.7 162.5 154.1 146.5 144.5 140.6 142 138.9 135.8 138 141.9 144.4 149 148.6 151.5 155.6 155.6 160.7 162.9 163.9 165.7 167.8 168.6 168.2 164.9 162.2 156.8 141.7 136.8 152.2 157.7 161.7 164.6 167.9 169.6 171.6 173.2 174.1 174 177.6 181.2 184 184.9 184.1 180.5
427.8 424.7 422.4 420.6 419.7 418 414.8 412.7 409.1 404.5 399.6 394.9 392 389.6 384.9 380.7 375.8 366.5 348.2 325.1 304.2 286.5 308.4 334.8 362.2 373.1 376.2 378.5 380.7 384.1 388 391.5 398 401.4 405 406.2 406.3 406.7 405.3 401.4 397.8 393.3 385.4 374.2 364.3 355 336 323 342.1 349.8 356.2 365 372.4 379.7 386.8 391.4 397.9 403.9 408.5 414.5 422.2 432.9 444.7 456.5 465.6 472.4 478.8 483.7 487.9 490 487.1 477.2 445.9 414.3 388.8 366.5 349.3 332.7 314.4 298.8 293.3 285.3 277.9 269.8 253.8 236.7 223.3 215.1 207.7 200.1 195.7 196.3 196.2 194 186 182.4 181.6 180.1 178.9 175.7 167.8 160.8 155.6 146.4 139.2 131.2 122.5 116.8 111.7 107.2 106.1 106.3 106.3 106.4 106.5 106.8 106.8 106.9 107 106.7 105.8 107.2 109.8 113.6 128.2 144.7 161.7 167.1 169.8 173.6 176.3 179.9 183.2 185.8 186.3 186.3 189.5 192.6 194.7 194.8 195.3 194.4 194.1 194.3 193.7 194.2 193.4 192.1 189.6 185.3 183 181.4 177.7 174.8 171 165.5 157.9 152.7 154.4 156.3 155.8 151.3 140.4 140.8 141.5 145.9 150.3 155.4 159.9 157 153.6 162.2 162.3 163.5 165.3 166.9 166.7 167.2 167.9 166 162.5 155 142.9 144.5 156.9 162.3 165.7 168.1 169.8 171.9 174.1 174.5 175.8 178.4 181.1 183.8 187.4 189.2 187.3 182.3
432.2 429 425.6 423.4 420.6 415.9 414 408.9 403.1 397.6 392.1 388.4 386.4 384.2 380.6 376 364.3 348.1 330 310.5 294.2 289.3 317.3 349.1 370 375.2 378.2 381.4 383.9 388.2 392.4 398 402.1 405.7 407.6 408.3 408.2 405.2 405.7 402.9 398 389.2 381.3 373.3 361.3 339.1 341 327.4 350.5 358.5 364.5 370 376 383.4 389.5 394.1 401.9 408 414.7 420.1 427.2 437.4 449.9 461.5 467.9 476.3 482.1 487.5 491.1 493 487.9 481.7 451.1 417.9 392.9 370.9 351.7 334.1 315.6 301.8 290.4 280.5 272.9 259.4 242.4 233.1 220.4 207.3 199 198.1 195.2 191.7 190.1 187.3 179.3 170.3 171.6 170.6 169.7 167.6 163 157.1 148.7 142.2 134.9 128.7 123.2 115.2 109.8 106.1 106.3 106.4 105.7 106.1 104.8 104.2 104.6 104.7 104.7 104.7 109.7 108.1 109.1 115.7 132.4 146.4 155 155.5 160.5 165.2 170.7 172.6 173.5 173.3 180.4 187.8 190.8 193.7 195 197 197.4 196.7 194.7 194.2 193.7 193 191.1 188.7 184.4 184 181.9 177.3 177.7 175 171.8 167.6 163 159.6 160.3 161.1 160 153 139.1 144.8 148.8 152.5 159.7 166.1 170.2 172.5 170.6 162.3 169.3 169 169.3 169.2 168.2 167.9 168.9 166.7 161.5 152.3 141.7 153.5 159.5 163.3 165.4 168.2 169.6 171 171.2 172.3 174 176.8 179.5 183.6 188.1 189.6 187.7 187
436.4 431.9 428.5 422.9 421.4 415.5 411.4 403.1 391.8 384.1 379 379.7 379.1 376.8 369.3 360.6 340.9 322.7 303.1 295.9 294.6 293.8 326 354.6 371.7 376.9 379.7 382.6 387.3 391.4 396.4 403.7 406.6 408.1 409.6 410.2 409.3 408.3 406.2 400.9 395.8 388.1 381.4 371.4 360.7 358.7 341.2 342.7 357.9 364.3 369.5 373.8 381.5 385.9 390.9 397 405.6 412.5 419.1 426.2 432.7 440.2 454.6 464.4 470.5 477.8 485 490.9 493.3 494 490.3 484.8 458.9 423.7 396.8 374 352 330.7 314.3 300.1 288.3 278.2 266.6 251.2 237.7 228.6 215.9 203.6 196.7 191.4 194.5 190.5 184.9 183.6 174.5 162.9 161.5 159.8 161.2 160 157.4 152.5 146.2 138.3 131.1 125.1 119.5 111.5 108.5 105.8 105.7 106.4 104.2 105 106 106.5 106.6 106.4 109.8 110.3 108.3 108.6 110.2 122.6 134.9 145.3 150.8 150.2 154 159.1 159.7 167.1 174.8 182.7 190 195 200 203.5 203.7 201.8 203.3 202.8 200.2 197.3 194.9 194.8 193.9 191.3 189.3 185.9 184 182.8 180.7 178.7 174.6 170.2 165.1 164.7 164.3 163.4 161.6 156.9 147.9 146.9 158.7 162.9 172.3 177.7 180.9 181.9 180.2 164.8 175.2 174.7 176.8 174.7 171.7 170 168.3 165.4 158.9 149.2 142.5 152.7 157.3 159.6 160.2 157.4 157.7 159.1 161.1 167.4 176.1 178.2 179.2 183.6 187.5 189.4 188.9 190.1
438.1 434.1 431.6 427.1 422.1 416.8 407 394.3 385 379.9 373.5 371.6 372 367.1 352.5 333.9 317.3 304 315.3 316.4 316.3 297.9 321.1 347.1 370.2 377.5 381.1 385.5 387.8 396.8 403.7 406.9 409.5 410.8 412.1 411.8 410.7 409.6 407.1 402.7 397.4 390.1 383.6 375.6 370.2 362.4 335.2 350.6 363 367.4 374.2 380.6 385 390.1 394.4 401.3 410.3 417.6 424.3 432.5 441.1 447 457.3 467 472.2 479.5 486.9 491.1 494.5 493.9 491.7 485.2 465.8 430.5 399.3 376.7 351.7 329.7 311.6 297.8 286.4 274.8 261.8 245.1 228.5 221.3 208.2 199.7 191.8 186.7 185.8 185.2 182.6 170.3 161.7 156 153.9 152.6 152.8 154 152.4 149.4 144.6 137.3 130.1 126.7 117.2 109.8 107 105.9 106.3 104.2 105.9 106.5 106.2 105.7 106.1 105.9 109.5 107.8 108 108.3 117.6 128 138.3 145.3 148.5 147.2 147.6 154.6 166.3 174.4 185.3 193 200.7 206.1 211.1 214.5 213.6 211.5 209.2 208.8 205.9 202 198.5 196.6 195.4 195.1 192.8 189 186.3 184.8 183.4 180.5 176.3 170.8 169.5 167.9 167.3 166 164.7 164.1 151.9 142.7 159.1 170.3 178.2 186.4 191.9 193 189.6 180.1 179.8 180.4 186 182.6 178.6 173.8 170.5 165.7 160.7 155.1 144.5 142 143.5 143.3 146 156.7 159.7 159 156.3 163.1 174 176.5 178.5 181.9 186.8 189 191.2 193.1
439.9 436.3 431.9 427.8 422.7 416.2 399.1 386.2 380.3 378.5 375 365.3 356.6 345.1 326.5 312 316.9 330.9 341.2 337.2 321.3 307.1 316.7 332.1 363 379.8 382.8 387.8 394.6 400.4 406.4 409.7 412.1 413.4 414 413.8 411.9 410.6 408 404.2 398.8 391.1 385.6 380.4 374.6 362.9 339 354.2 366.5 373.6 379 385 390 393.9 399.5 405.3 413.3 420.9 428 438.3 447.5 453.4 459 469.9 474.4 480.8 486.8 491.9 495.1 492.4 488.1 479.2 465 433.9 404.6 374.2 353.4 331.8 311.7 296.8 285.2 274.5 263.6 243.3 226.1 219.9 205.8 195.2 187.6 183.8 182.2 182.6 179.9 174.6 158.8 151 146.9 144.2 146.2 146.7 147.8 145.8 141.4 135.8 130.2 126.4 116 107.9 105.5 105.4 103.4 106.4 106.2 106 105.9 105.8 105.7 105.6 107.9 107.2 106.3 111.5 121.6 132 139.9 144.1 141.2 145.1 151.3 156.8 170 183.8 193.1 202.5 209.8 215.9 221.9 222 221.5 219.3 216.9 214.4 211.6 208.4 203.5 200.8 198.9 197.6 194.1 190.6 189 186.8 184.3 181.3 177.5 173.8 172.8 173 171 169.4 167.1 163.2 153.3 143.2 155.6 173.6 181.8 189.2 196.4 199.2 196.9 188.4 183.9 193.2 197.4 193 187.2 182.1 176.1 170 164.6 159.4 151 149.6 157.1 161.3 161.7 168.6 171.4 173.3 173.2 159.9 166.5 173.1 178 180.8 184.7 188.5 191.5 193.8
440.4 435.8 430.9 427 419.6 403.9 389.3 379.7 376.5 374.5 367.9 356.8 340.3 322.1 328.9 337.6 347.5 359.9 365.8 353 341.5 314 327.9 336.5 355.7 380.2 384.2 389.7 397.8 404.6 408.7 411.7 414.2 415.6 416 415.9 413.2 412.5 408.8 406.3 400.9 393.7 387.6 383 375.7 358.5 335.6 360.9 371.7 378.1 382.4 388.8 393.3 399.2 404.2 409.9 415.3 423.4 431.9 443.1 452.8 459.4 464.4 471.4 476.7 481.1 486.1 489.5 489 487.2 482.3 472.1 456.8 436.3 411.2 383.7 357.2 334.6 314.1 298.2 286.3 276.2 270.7 255.5 237.3 223.2 216.2 208.4 195.8 188.9 180.8 173 172.1 165.7 161.5 154.7 150.2 148 142.8 137.5 143.4 143.1 140.6 136.8 131.7 126.5 116.4 108.2 105.4 102.7 105.8 105.6 105.6 105.4 105.3 105.4 105.4 104.7 106.6 105.9 110 115.8 122.8 130 134.6 128.5 141.7 149 155.2 164.2 179.1 192.5 200.8 209.8 219.1 226.3 229.1 228.3 226.4 224.9 223.7 221.7 217.5 213.7 208.9 205.5 203.4 202 199.2 194.4 192.2 189.9 186.8 184.9 181.3 178.8 177.1 177.5 174.1 171.1 168.7 160.4 154.5 149.7 159.6 173.6 183.3 191 196.5 200 200.8 196.4 190 201.2 203.6 202.4 196.8 190.4 182.4 174.8 167.7 162.4 153.3 150.4 160.4 164.6 169.6 174.8 177.8 179.8 178.2 173.9 168.8 164.8 174.4 178 182 186.5 189.2 191.5
442 437.5 431.8 425.5 406.9 381.8 365.5 358.8 358.6 360.4 353.3 349.7 342 332.2 355 365.8 373.2 375.9 375.9 370.5 349.9 330.9 312.5 336.4 362.6 377.6 386 390.7 397.3 404.9 410 413.3 415.8 417.1 418 418 416.3 414.8 412.8 408.8 402.2 394.5 388.9 381.8 376.2 358.6 353.6 369.6 376.9 382.8 387.4 391.5 397.3 401.4 407.4 411.8 418 428.3 438.3 448.6 456.9 463.1 467.1 472.4 476.7 481 483.1 484.2 483.3 479.9 473.6 462 444.7 426.6 406.7 386.1 365.5 341.4 320.3 301.8 290 282.6 277.3 270.9 250.7 232.4 223.7 215.9 197.7 191.3 186.5 180.8 177.6 173.5 165.1 156.9 149.6 146.8 143.9 142.1 133.1 139.5 138.7 136.6 132.8 126.3 118.2 112.3 106.6 104.2 105.3 105.1 105.3 105.5 104.7 104.9 104.8 103.4 103.8 107.3 109.6 114.2 119.1 123.3 127.9 136.5 143 150.2 157.8 174.5 188.3 200.2 209.7 221.1 232.1 234 234.2 233 232.3 232.6 230.7 225.9 221.9 217.2 213.7 210.8 210.1 207 203.6 199.2 197.1 195.1 193.1 190.2 188.8 184.5 180.5 177.9 175 171.4 167.6 156.1 152.6 155.5 168.8 179.8 185.5 191.3 196.2 200.1 203 201.7 196.2 205 206.3 207.7 203.9 196.6 188 180.4 172.4 165.3 149.3 157.6 163.8 168.3 174.5 180.2 184.2 185.1 183.5 180.8 174.7 169.4 168.5 178.3 182.4 183.1 183.5 185.8
444.2 438.1 431.5 422.3 404.4 377.8 393.6 390.4 377.5 360.4 361.8 351.6 349.7 350.6 369.5 381.4 381.5 380.5 381.1 379 364.9 346.6 317.9 336.7 368.7 380.3 386.4 391.3 396.3 403.8 410 413.9 417 418.7 419.6 420 419.2 417.6 414.3 409.8 403.2 397.5 390.9 377.7 360.6 354.6 357.5 373.9 381.1 386.3 390.6 394.3 399.7 404.9 409.4 414.7 420.8 431.7 444.3 452.3 459.8 465.6 469.6 474.5 476.5 477.2 476.5 474.9 474.7 470.3 460.7 446.6 430.6 412 396.1 377.1 357.4 337.3 320 305.7 294.1 286.9 282.8 279.6 273.4 253.4 238.1 228.3 219.5 201.6 198.5 191.2 185.5 180.1 168.7 158.8 154.6 148.3 144.2 140 137.2 135.5 136.3 134.5 131.7 126.9 118.3 114.3 107.8 102.3 105.1 104.5 104.7 104.7 104.3 104 104.7 104.9 104.3 103.8 107.9 111.5 114.1 115.6 121.6 129.8 143 151.1 163.6 177.3 193.7 205.9 217.6 229.8 237.1 239.6 239 242.6 240.8 238.6 234.2 230.7 227.7 220.5 217.4 214.6 213.6 211 206.4 203.6 204.8 205.3 201.7 196.4 192.9 187.4 181.8 178.6 174.8 170.7 167.3 157.7 161.4 167.7 167.3 176.1 186.2 191.4 196.3 200.2 203.5 205.2 196.9 207.2 209.8 211.4 208.7 203 193.7 185 175 162.8 149.3 163.9 168.6 174.4 180.4 186.2 190.2 191.3 189.5 186.4 179.9 180.6 169.3 168.3 179.3 184.8 189.5 191.8
443.2 438.2 430.5 415.3 402.2 381.3 401.6 404.1 403.8 398.1 393.4 383.6 380.7 375.8 376.4 388.2 387.9 387 385.8 382.5 376 358.5 327.8 326.8 355.1 373.5 385 392.3 396.3 402.1 409.1 414.3 417 420.1 421.4 421.4 421.2 419 416.1 411 404.8 399.2 392.2 372.4 378.3 369.9 351.7 375 383.6 389.2 392.7 398.6 402.6 405.6 411.2 416.5 422.9 435.3 447.7 456.5 463 467.7 472 473.3 473.3 471.2 468.3 468.3 465 457.4 445 430.4 414.5 400 383.6 366.7 346.2 331 316.3 305.6 296.4 291 286.3 283.8 283 274.1 249.4 240.6 237.2 228.8 208.3 202.9 193.5 187.4 174.9 164.7 155.8 150.1 144.1 142.3 137.8 127 129.7 129.7 129 125.7 120.7 114.9 109.7 103.4 104.6 104.6 104.2 104.2 104.8 105.3 104.9 104.7 104.5 104.9 108.4 111.3 114.7 120.3 123.1 131 143.3 154.8 167.3 179.2 196 214.1 225.6 233.6 239.4 243.2 246.1 248.4 246.5 243.5 241.3 238.1 229.7 223.6 219.7 217.7 216 213.3 208.8 209.9 212.9 209.7 205.1 197.5 192.3 186.1 181.1 178 173.3 167.9 161.7 152.3 166.5 173.4 179.2 182.9 181.5 191.2 195.5 199.8 204.2 208 206.2 207.9 210.3 212.2 211 206.1 197.9 187.2 175.3 151.9 162.4 169.3 174.7 180.2 185.8 190.9 194.6 196.6 195.5 192.4 189.1 186.7 184.1 181.9 176 177.6 185.1 189.6
446.9 440.1 423.9 410.4 395.9 398.8 410.6 413 413 410.1 408.9 405.1 402.4 397.8 394.6 395.3 393.8 391.4 388.9 385.2 381.5 368.3 334.1 339.8 373.6 383.4 386 393.6 396.9 401.7 406 411.8 417.6 420.8 423.1 423.3 423.2 421.4 418.2 412.9 407.8 402.5 388.1 392.1 389.8 381.2 364.6 374.8 386.3 391.9 395.9 400.9 404.7 409.1 413.2 418.4 427.7 440 450.1 458.7 465.3 469.6 471.9 472.4 467.5 464.3 459.6 458.2 451.5 440.2 427.8 413.5 399.6 385.1 369.2 353.2 336.4 321.7 311.9 304.6 298 291.8 289.2 286.6 288.4 283.8 267.7 252.5 245.9 237.8 219.5 210.2 200.2 191.1 181.4 168 158.1 152 146.4 142.2 137 134 132.5 124.6 126.9 117.4 117.7 116.3 113.5 109 103.2 104.2 104.7 104.3 103.6 105.1 104.2 103.8 104.2 104.5 109.5 112.9 116.4 119.7 124.8 135.3 145.4 154.7 168.6 181.1 196.6 216.2 227.6 236.9 241.2 246.4 251.7 253.4 254.8 253.8 249.1 240.8 230.9 225.6 222.4 220.7 218.6 215 213.4 214.6 214 210.2 202.7 197.8 190.9 183.6 179.9 176.6 172.4 165.6 155 163.2 168.7 175.4 181.4 187.9 182.5 194.3 198.1 202.4 206.4 210.8 210.6 208.3 210.7 212.7 212.3 209 200.5 186.9 168.6 154.5 167.4 174.3 178.7 182.2 186.9 192.3 196.9 199.3 200.2 199.9 199.2 196.5 192.8 187.3 183 183.5 177.5 186.2
449.2 441.7 423.9 404.4 398.1 413.5 417.6 418.5 417.1 417.1 415.3 413.6 409.4 405.6 402.3 401.6 396.7 395.6 391.3 388 383.4 371.9 333.2 352.3 380.6 385 392.2 396 397.8 402.5 406.4 411.2 416.5 421.2 424.1 425 425.1 422.3 419.8 415.8 409.7 405.5 403.9 400.1 395.4 388.5 374.1 375.2 389.6 392.8 398.6 402.7 408.1 412.4 416.3 421.7 430.9 443.4 452.6 459.9 464.7 469.7 470.8 468.1 462.7 457.4 449.4 441.6 432.8 421.1 408.9 396 384 369 354.3 338.2 325.9 314.2 308 303.2 298.8 293.7 291.7 290.1 294.3 287.7 272.8 260.1 251 245 221.9 214.4 204.4 196.9 185.5 174.5 163.4 154.4 148.8 143.1 136 132.7 131.7 130.3 128.6 126.2 120.3 117.1 114.4 110.7 109.4 106.9 102.3 102.4 103.9 103.5 103.5 103.7 103.1 104.4 109.1 111.4 115 119.5 126.5 137.3 146.4 156.4 169.4 182.5 194.5 212.5 226.5 235.9 240.9 249.1 253.7 260.7 260.3 258.4 252.3 245 234.6 229.9 226.4 223.3 220.8 219.2 220.1 217.8 216.1 209.9 200.4 194.5 187.8 181.5 177.8 174.1 165.9 160 160 168.2 173.5 180.4 187.6 193.7 193.3 197.9 201.3 205 208.7 212.3 212.8 209.9 210.5 212.9 213.9 210.2 200.5 184.1 159.1 161.5 164.5 165.8 168.8 176.3 185.3 191.1 196.8 200.3 203.1 205.7 207.3 206.7 201.4 193.4 189.2 187 184 180.1
449.7 442.4 425.6 401.8 413.9 421.4 423.1 423.8 423.1 421.9 419.1 418.1 415.3 411.3 408.1 406.7 403.1 399.1 393.3 389.9 384.9 373 336.4 368.5 383.6 389.4 394.7 398.5 401.9 404.8 407.4 410.9 416.1 422.3 425.1 426.6 426.5 424.8 421.1 417.2 413 406.8 409.2 404.9 399.3 395.2 380.2 378.3 391.5 396.1 401.3 406 410.3 414.6 420.1 425.4 434.7 446.2 454.5 460.6 465.5 467.8 467.9 463.3 458.5 448.9 419.2 415.8 410.9 401.5 390.8 380.7 367.1 354.5 339.7 326.8 315.6 308 303.9 301 297.3 294.6 293.9 295.3 297.6 290.4 275.6 264.9 263.7 248.2 226.9 216.2 208.5 199.1 188.1 177 166.8 157.4 151.1 142.6 135.8 131.7 129.9 129 128.1 125.8 122.1 119.2 116.7 112.6 110.3 105.5 105 104.4 104.2 101.9 101.9 104.1 107.3 108.4 108.7 110.8 115.3 124.2 131.5 138.9 147.3 156.5 169 182.4 193.2 208.7 223.6 233.4 240.1 248.7 256.4 262.2 262.7 260.2 257.4 248.9 239.9 234.9 230.9 227.1 224.8 222.4 221.2 218.5 217.3 208.4 200.5 191.9 186 179.5 174.9 169.9 164.2 164.6 172.9 179.7 185.9 191.9 196 200.2 199.3 198.5 203.8 206.5 209.9 213.3 214.6 210.7 211.1 213.2 214.2 208.7 199.1 180.2 157.6 168.5 175.7 178.4 181.1 184.1 185.1 188.5 190.2 193.9 202.5 207.5 210.8 212.7 210.8 200.9 194.5 190.2 186.4 187
449 439.5 425.2 403.4 417.8 425.8 428.1 428.9 428 427.8 426.2 422.8 419.5 415.3 414.5 412.4 410.1 404.5 397.4 393.5 387.9 374.4 341.9 363 384.4 393.2 398.3 401.8 403.8 406.6 408.7 412.7 415.7 422 425.9 428.1 428 426.9 422.4 418.6 415.9 412.9 411.9 406.9 403.1 386.9 385.2 379.3 393.5 399.8 404.9 409 413.1 417.8 422.5 429.4 438.6 448.7 457.3 460.9 463 463.5 463.6 457.4 453.9 441.2 404.6 380.7 383.6 382.4 376.6 364.9 354.2 338.1 327 317.3 308.5 304.2 299.3 297.8 294 294.1 295.6 299.2 299.1 290.4 279.1 278.2 272 250.3 233.6 220.7 212.7 202.1 192.1 178.9 167.3 158.1 149.6 143.9 135.8 130.4 126.3 126.6 125.9 124.6 121.7 119.2 116.2 113.3 109.8 105.3 104.5 105.1 104.6 103.4 103.4 101.2 108 108.1 109 111.1 117.2 125.1 131.8 139.1 147.2 158.3 170.2 181.5 192.4 208.5 220.5 231.3 238 246.6 255 258.5 262.3 264.2 259.8 252.1 246.6 244.1 239.7 239 230.9 225.7 221.9 218.8 215.2 206.2 199.3 193.6 184.7 177.6 171.9 165 169.6 177.8 185.8 190.1 194.3 199.3 204.3 204.7 204.8 202.8 204.8 207.3 210.4 214.1 215.8 211.5 211.1 212.7 212.9 207.2 196.1 174.9 165 174.1 178.5 182.3 187.5 191 194.7 196.5 199.5 202 204.1 202.6 211 214 216.1 209.9 201.7 200 196.3 192.2
449.2 436.4 419.6 415.9 411.3 427.7 431.7 432.1 432.3 431.6 428.7 427.2 424 421.5 419.8 417.1 414.5 409.9 403.2 396.4 389.2 369.3 370.6 355.9 382.8 394.9 399.1 404.1 406.7 408.6 411.5 413.9 417.6 422.3 426 428.4 429.4 428.1 425.6 421.2 419 415.1 415 411.8 405.4 390.8 395.8 384.1 395.1 402.5 407.8 412.3 416.5 420.3 425.9 432.7 441.9 451.7 456.7 459.9 461.1 461.9 458.9 456.3 449.3 428.8 397.1 370.5 357.3 361.1 359.8 350.5 337.2 325.5 315.8 308.1 302.8 298.4 293.6 292.9 291.7 294.1 296.2 303 298.3 286.9 284.6 281.3 276.7 254.3 235.2 222 212.3 205 195.8 184.9 171.6 159.8 150.6 142.6 134.9 132.8 129 125.2 123.9 119.1 118.7 118.9 116.2 112.9 109.9 105.4 104.3 104.2 104.5 103.5 103.7 101.3 107.2 106.9 108.2 113.5 116.4 122.1 131.7 140 148.8 158.8 172 181.1 195 206.8 218.9 228.1 236 244.5 251.6 256.5 262.8 266.2 263.2 258.1 254 250.9 246 242.8 231.8 224.1 220 215.7 209.9 201.1 195.3 191.1 182.8 175.7 169.2 170.5 179.3 187 191.8 195.9 200.4 204.1 207.5 208 207.8 207.1 203.4 207.7 210.6 213.9 215.5 212.5 211.5 211.8 212.2 204.8 189.8 170 169.5 178 182.4 188.3 194.3 198.6 201.8 203 204.4 207.3 209.4 211.3 208.9 214.8 218.4 217.9 213.8 208.9 202.3 200.7
448.2 438.5 422 424.4 427.8 424.8 434.6 435.7 436.9 435.1 434.5 431.5 427.2 424.7 423.1 422.1 419.7 415 407.8 400.3 394.1 372.5 380.7 362 383.6 396.6 401.7 406 407.9 411.1 414.4 418 420.8 423 426.6 428.7 430.7 430.9 426.9 424.2 422.1 418.6 418.7 416 412.4 398.9 404.1 394 394.3 405.3 410.7 417.2 421.1 424.9 429.2 436.2 444.8 451.2 455.9 459.7 462 460.3 457.8 452.6 442 407.7 384.2 367.5 351.8 337.7 339.6 332.1 321.7 313.5 305.8 301.3 297.6 292.3 288.4 287.3 290.5 292.6 299 302.7 296.4 285.7 283.9 281.5 278.1 256.2 239 225.4 214.8 207.7 198.4 187.3 173.9 160.7 151.9 142.2 137.6 132.4 129.5 127.4 126.1 123.7 115.4 118.3 115.6 111 109.6 105.9 104.4 103.4 104.3 102.6 103.6 100.7 105.8 106.9 111.1 115.9 119.8 123 130.9 139.5 148.8 158.7 172.4 184.5 195.6 204.5 215.3 224.7 233.8 243.5 251.8 259.3 278.2 273.1 266.9 262.1 258.8 255.6 250 240.9 232.3 226.1 221 210.6 202.6 197.5 192.7 186.8 179.6 173.3 167.9 177 185.9 192 195.7 200.2 204.5 207.7 210.6 210.8 209.4 208.8 208.1 208.4 210.9 214.1 215.6 213.1 211.6 211.1 209.3 202.4 188.9 166 173 180.8 186.6 194.4 201.3 206.1 211.1 212.6 212.9 214.8 216.4 216.9 215.5 215.2 219.3 220.6 220.3 218.6 212.2 205.5
450.7 444.6 429.8 429.2 432 426.7 438.2 440.6 439.8 439.4 438.5 435.8 431.8 430.3 429.1 425.3 423.9 418.4 412.6 405.5 396.3 375.4 386.4 370.6 380.5 394.9 402.2 406 410.4 414 416.4 420.6 422.5 425.2 425.9 430.5 433.7 432.4 429.4 427 424.6 423.1 422.4 418.4 416.6 413.8 411 405.1 399.1 407.9 414 418.4 424.1 427.9 433.1 439.5 446.4 452.1 456.4 459.5 461.9 459.9 457.8 451.2 425.5 393.6 369.9 356.2 345.1 332.8 318.8 311.7 307.4 302.3 297.6 294.4 290.2 285.1 282.2 282.9 288.7 292.2 298.7 299.8 290.3 280.2 283 280.5 275.3 256.9 240.6 228 216.7 207.1 192.9 175.1 169.7 158.8 153.2 146.5 137.7 133 129.3 127.5 124.7 123.5 119.9 112.3 114.6 112.5 109.1 106.7 103.9 103 103.7 102.9 103.2 100.6 104.1 107.5 111.6 116.1 119.7 124.1 130.9 138.6 147.7 160.5 170.3 185.3 194.8 203.4 211.2 219.8 230.3 240.6 251.5 271.6 282.4 278.8 272.1 264.7 261.7 256.6 250.3 242.5 237.9 233.5 225.5 213.3 204.5 196.6 191.3 183.3 177.5 172.5 169.2 183.2 190.1 194.8 198.7 202.4 206.5 209.5 211.2 212 211.6 210.5 210 209 211.4 213.5 214.5 212.3 211.2 206.8 200.6 190 177.1 167.8 175.2 182.4 190.4 199.2 208.5 220.9 224.2 221.2 221.7 222.9 223.7 221.8 221.3 220.7 219.9 221.5 223.8 224.8 220.9 210.3
452.4 446.7 432.6 432.6 437.1 427 441.2 444.3 444.4 443.9 441.7 439.8 437.9 434.7 433.6 431.9 427.9 423 416 407.2 393.3 390.6 392.4 387 371.3 388.5 402.8 408.2 412.1 416 419.3 422.1 424.8 426.5 427.9 432.4 435.7 436.6 432.3 429.8 428.2 427.3 423 423.7 417.2 420.1 418.1 414 408.4 413 418.2 423.5 427.4 431.6 436.1 442.7 447.1 452.9 458.2 461 461.7 460.2 457.3 450.6 416 387 360.9 350.8 344.5 331.6 317.1 299.6 293.9 292.7 289.9 288 284.8 281.1 277.2 281.1 286.7 291.9 297.8 296.3 286.3 275.5 280.6 278.4 271 255.9 240.8 227 215.1 206.8 186.8 185.1 173.7 163.6 154.5 147.3 139.6 134.1 129.7 126.4 124.2 122.7 119.8 115 109.7 110.1 109 108.4 103.9 103 103.6 102.8 102.1 103.9 102.8 105.5 112.9 116.2 118.8 123.6 131.1 139 148.5 162.1 174.8 186.1 193.2 199.5 207.9 216.6 226.8 240.5 255.7 278.2 281.7 278.6 273.8 267.3 261.7 254.5 249.5 245.9 242.4 236.5 227 215.6 205.5 197.7 190.2 184.7 177.5 171.4 173.8 185.5 192.1 196.8 200.1 203.9 207.9 210.1 211.8 212.3 212.9 212.5 211.4 211.3 213.3 215.7 214.3 213.1 211.5 209.7 202.7 192.5 182.3 169.7 177.4 184.2 192.2 203.3 216.5 232.5 231.7 230.1 229.1 229 227.8 225 224.9 223.9 224.1 223.2 226.3 228 226.5 221.2
458.7 445.6 441 433.9 440.5 437.5 440.8 447.1 447.8 447.1 445.6 443.9 440.9 440.9 438.9 436.5 432.3 426.4 418.3 405.6 390.3 402 403 398.9 386 379.7 399.6 409.5 411.3 415.2 420 421.3 426.2 427.8 429.9 434.1 438.7 439 434.3 432.5 430.3 430.7 428.9 426.5 425.3 424.7 422.3 417.3 416.1 418.8 424.1 427.5 429.9 434.2 441.4 446.3 449.9 455 458.4 461.8 461.8 460.5 457.9 449.6 412.1 383.4 359.9 351.5 344.5 331.6 312.7 297.7 288.6 282.8 281.7 281.2 279.2 276.5 276.5 280.2 284.8 288.7 293.7 291.3 280.6 269.2 276.1 275 269 254.6 240.5 223.1 213.8 209 201.7 190.2 176.4 163.3 154.2 146.1 139.7 134 130.1 126.9 123.8 121.5 116.2 114.4 112.1 110.2 110.3 108.3 105.1 103.5 103.2 103.5 99.9 103.2 103.6 105.6 110.2 114.5 118 123.9 130.4 138.2 148.2 160.9 172.4 183.9 190.7 197 203.5 211.7 225.1 240.7 256.3 266.9 272 273.4 273.4 266.7 258 253.2 249.3 245.8 241.1 233.8 225.2 215.6 206.2 200.3 191.4 185.4 181.2 180.5 182.1 188.6 189.5 194.3 199.8 204.2 207.9 210.3 212.4 213 213.5 213.9 213.1 213.9 215.4 217.3 215.2 212.6 211.8 209.9 205 195.3 183.3 171.2 178 185.5 194.1 207.5 223.4 232.4 234.9 234.2 233.3 232.2 230.3 229.9 230.4 229.8 228.4 228.9 229 230.6 229.3 229.5
461.9 455.1 446.5 440.7 445 446.1 443.1 448.5 450.7 450.5 449.7 448.3 447.9 446 442.9 439.4 435.4 428.6 414.2 399.8 405.5 413.3 411.7 408.4 396.4 390.1 401.2 410.1 411.9 418.1 419.7 423.1 426.7 429.9 431.7 435.2 439.8 440.5 437.4 434.1 435.5 434.2 430.4 428.5 430.2 429.2 426.9 423.6 422.5 426 428.5 431.5 435.3 437.5 443 447.9 450.5 456.8 459.7 461.7 460.9 463.8 459.3 448.3 411.5 384.3 362.6 355.5 341 325.8 309.6 296.6 287 278.1 272.5 274.2 273.9 270.6 274.7 275.4 279.2 283.5 286.4 283.1 272.3 266.3 274.1 272.4 264.8 253.3 239.6 227.7 220.2 216.4 205.7 191.1 177.8 162.6 152.4 143.1 135.1 132.6 129.2 125.7 123 121.6 118.8 116.8 115.8 113.5 112 108.7 107.8 103.3 102.9 103.2 102.2 103.2 102.9 107.8 113.7 116.5 120.2 122.4 129.9 139.1 147.3 158.5 169.3 179.7 186.1 192.5 198.5 207.3 224.1 237.6 249.3 259.2 261.6 265 264.2 260.4 254 251.6 247.6 242.6 237.1 229.3 222.2 215.8 208.4 201.2 193.5 186.2 182.1 185.7 186.7 192.2 195.8 196.3 202.2 205.9 208.7 211.1 212.7 213.7 214.8 214.9 215.6 215.5 217.1 218.6 215.3 213.8 212.3 209.7 203.3 191.3 182.5 173.1 177.5 187.7 197.1 207.2 218.2 230.4 233.6 235.1 235.3 234.8 234.3 234.6 235.6 235.3 233.9 232.6 232.7 233.1 232.8 233.3
465.5 457.9 449.1 447.3 450.5 451.6 451.1 451.5 453.3 453.8 454 452.8 452.2 449.6 446.9 443 437.8 431.6 416.5 408.9 418.8 419.3 418.1 413.8 397.7 408.1 410 414.3 416.2 419.6 422.9 424.6 428.2 429.1 433.8 437.3 439.4 440.5 439.4 438.9 439.5 437.2 436 430.6 432.6 432.1 428.8 429.5 429.2 432 433.5 435.6 439.4 441.5 444.6 449 453.9 458.2 459.6 461.2 463.5 461.7 459.1 449.2 412.1 385.5 368.8 350.4 336.2 320.7 305.8 294.9 286.1 278.8 271.1 262.2 268.9 263 268.2 268.1 271.1 276.2 279.6 267.9 261.1 266.2 273.2 269.9 262.4 253.5 237.6 229.4 225.2 217.2 202.1 183.9 171.7 158.8 150 143.6 137.7 133 127.9 123.7 121.8 120.2 117 116 113.8 113.1 109.8 111.6 108.5 106 104.4 105.2 101.9 103.1 103 111.5 113.3 116 119.8 120.9 128.2 136.3 147.8 156.5 165.9 173.6 182 189 196.3 206.1 218.2 234.1 245.2 257.5 257.5 257.8 254.8 250.3 250.7 249.9 244.1 241.1 235.3 227.6 219.9 214.6 208.6 198.7 198.9 182.3 193 191.9 186.5 194.4 198.5 202.1 205.3 208.1 211.1 213.2 214.7 216.7 218.9 219.8 218.8 218.3 218.4 219.8 218.3 214.6 213.3 209.6 198 192.5 189.2 180.1 178.9 186.9 197.5 206 218.1 226.7 231.6 234.5 236.7 238 238.6 239.8 241.5 239.4 238.8 237.3 236.9 238.2 239.4 239.3
467.1 463.4 460.8 454.7 456.5 456.7 455 456.6 457.1 458.5 459 457.5 456.4 453.6 448.6 445.3 439.2 433.3 414.3 417 425.1 423.4 422.3 416.5 415 415.7 416.4 417.6 419.9 422.9 427.3 429.5 429.8 432.8 435.9 437.9 440.7 441.9 442.2 442 441.6 440.1 438.8 436.3 436.3 434.5 433.4 431.4 434.1 435.1 437.5 439.7 443.3 445.7 449.3 452.9 454.7 457.8 459.3 461.1 463.5 461.6 456 445.6 417.8 387.6 366.4 346.4 332.3 318.2 304.4 295 285.3 279.3 270.1 261.4 260.9 260.1 257.8 258.3 261.6 262.5 257.9 256.2 259 266.5 270.6 266.3 259 252.1 239 232.2 222 220.3 209.6 188.3 168.5 151.4 146.9 140.8 136.1 132.2 128.2 124.6 121.9 119.1 117 116.5 115.9 115 115.1 113.8 106.9 106.3 102.8 102.5 102.4 103.1 102.8 108.2 113.6 117.7 121.4 125.4 130.8 139.2 147.2 155.6 164.1 172.3 180.6 188 195.4 203.7 212.5 228 240.4 250.4 253.1 254.6 252.1 248.8 248.4 246.6 241.3 237.5 229.8 220.7 217.1 213.3 208.2 205.6 200.6 188.2 200.5 198.9 192.8 196.9 200.8 204.6 207.8 211 213.3 215.5 218.1 220.7 223.9 225 222.7 222.3 222.2 221.8 218.6 214.9 213.8 211.2 201.4 203.3 197.1 186.2 189.9 197 195.8 201.2 213.3 222.3 228.7 234.3 238.4 242.2 244.2 245.8 245.8 244.2 243.2 243.2 243.8 245.9 248.6 248.5
471.9 469.6 464.2 459.8 461.9 460.8 459.3 459.5 461.4 463.2 463.6 462.4 460 457 452.5 447.2 441.7 434.6 423.4 430.2 429.7 427.7 425.4 421.4 421.8 421.8 422.1 424 426.4 430 433.9 433.2 435.2 435.5 437.4 440.1 442.5 443.3 444.8 445 443.6 443.2 440.1 439.6 439.1 436.7 437.1 438.3 438 438.7 440.3 444.7 447.5 449.9 453.5 455 457.9 458.2 459 462.2 461.4 458.6 451.6 439 421.6 390.6 364.7 347.3 333.3 315.7 304 296.2 287.4 280.3 272.7 262.2 246.8 249 240.5 246 245.3 248.1 248.1 253.3 261.3 267.5 267.5 261.3 255.8 251.5 245.9 237.8 232.1 222.7 204.8 182.2 163.4 151.5 143.1 139.1 134.6 130 127.2 124.5 122 120.2 117.6 116.4 116.5 116.8 116.5 113.8 107.1 106.1 101.5 99.1 102.8 102.9 103.7 114.7 116 116.3 121.4 126.3 132.4 139.3 147.1 154.8 162.1 171 179 186.7 194.5 201.6 209.6 221.2 236.2 246.2 249.8 251.7 249.3 248.2 245.6 243 238.4 234.5 226 218 215.5 212.5 211 209.5 198.4 200.5 205.1 200.6 196.9 200.4 203.7 207.3 210.6 214 217.4 220.3 222 225 227.6 228.8 228.2 226.9 226.2 224.1 219.9 216.4 214.1 210.9 210.5 208.9 202 190.1 191.2 201.2 207.7 212.7 215.9 223.1 230.1 235.6 242.5 247.5 250 251.6 250.2 249.1 248.5 249.7 253.3 257 258.9 259.8
476.2 473.4 468.9 466.9 467.5 465.9 464.4 464.1 466.3 467.8 468.4 467.2 463.4 459.5 454 450.3 443.8 432.7 436.6 435.4 434.1 432.6 429.1 427.9 428.5 428.3 428.6 430.5 432.8 437 438.5 439.4 439.5 439.3 440.4 442.7 443.9 444.5 446.4 445.1 444.4 444.1 441.9 442.4 441.3 438.1 440.5 441.4 442.7 442.9 445.8 447.7 450.7 454.2 454.7 457.8 457.2 457.6 459.1 457.6 456.4 451 441.8 430.8 416.2 391.7 364.6 347.6 328.2 312.6 299.8 292.7 286.7 282.7 279.3 267.7 250.2 240.5 238.1 235.7 242.3 247.1 249.3 253.1 260 264.6 263.4 257 251.4 248.8 245 243.2 235.1 221.5 200 176.5 159.2 148.4 141.1 138 134.8 130.2 126.9 124.7 122.2 118.6 117.7 116 115.3 116.8 117.2 116.2 109.7 105.3 100.7 103.2 102.6 103.1 105.9 112.8 116.6 118.2 121.8 125.3 132.2 139.3 145.2 151.5 158.5 167.6 176.5 186.2 193.2 199.6 206.8 218.9 235 242.8 246.9 247.9 247.5 247 244.4 241.1 234.3 229.5 224 219 215.9 214.7 214 209.9 196.6 210 206.6 202.5 203.1 205.2 207.4 210.6 214.4 217.9 222.7 225.7 227.9 229.6 232.1 233.6 233 231.9 230.5 227.3 219.8 218.3 215.9 212.1 213.7 211.7 205.1 191.7 194 203.2 212 218.3 222.2 221.8 229.8 237.5 244.6 250.5 253.5 255.3 255.3 256.8 257.7 262.5 266.6 270.4 271.5 270.1
482.4 476.6 473.6 473.5 472.7 470.5 470.3 468.2 470 472.5 472.7 471.6 467.5 463.2 458 453.5 443.2 444.6 443.4 441.4 438.7 438.3 435.2 435.3 434 434.5 436.2 437.6 440.2 442 443.9 444.6 444.2 442.7 444.1 444.6 446.5 447.5 447.8 446.6 444.1 443.1 442.1 444.1 442.4 439.7 443.1 442.6 445.4 446.6 447.8 452 452.7 455.1 455.6 455.5 456.4 457.8 457.5 453.3 447.5 437.3 427.2 416.1 400.2 379.6 357.7 338.6 322.9 305.4 296 291.3 289.1 286.8 281.8 269.7 253.1 240.1 233.6 237.1 239.5 241.3 242.4 248.7 257.2 262.2 259.1 254.1 248.6 245.9 246.4 245.2 232.3 214.2 190.6 171 155.8 147.4 139.8 136.3 133.2 130.8 128.1 124.9 121.3 117.5 115.1 113 111 112.5 116.4 116 113.3 108 99.1 102.7 102.8 103.1 104.2 110.9 113.8 116.8 121.6 126.2 131.5 137.9 145.1 151.4 159 163.9 176.2 184.7 192.4 199.4 210.4 220.3 233.4 241.1 245.1 245.8 245.9 243.6 242.1 237.8 234.3 230.1 223.9 219.3 216.3 215.5 212.5 193.5 206.6 211.3 208 208.5 208.3 210.6 215.2 218.5 221.3 226.3 230.1 231.1 233.5 235.4 236.8 237.3 237 235.9 233.8 231.3 222.3 219.5 216 216.6 216.6 212.4 204.7 193.4 197 205.8 214.1 219.2 223.4 228.5 234.3 238.8 244 250 254.8 258.2 261 264.8 269.4 275.5 279.9 282.3 280.7 277.8
483.8 484.4 480.6 480.2 477.8 475 475.3 473.9 474.8 477.1 477.5 475.2 471.5 467.3 461 458 448 451.7 448.5 447.2 445.7 445.1 442.3 442.9 442.9 442.9 442.9 444.2 445.9 445.5 447.3 449 448.1 448.3 448.1 448.6 449.8 448.6 448.4 447.2 445 445.7 445.8 444.7 443.3 440.5 445.6 447 446.6 450 450.3 452 454.5 454.8 455.6 454.2 455.1 452.7 451.1 447 433.5 409.5 403.9 395.9 381.7 363.7 341.6 324.1 309.7 296.7 290 287.6 287.8 287.3 277.4 262.8 249.4 237.5 225.9 234.8 234.9 233.9 238.4 247.1 255.1 257.4 255.5 252.3 248.1 243.8 243.7 245.2 242 207.1 182.7 163.8 156 144.4 139.8 135.8 132.6 129.5 125.4 123.5 123 119 117.9 117.2 112.6 109.4 110.1 114.3 113 104.5 101.3 101.9 102.1 104.5 104.4 105.5 108 114.5 117.4 124.6 130.5 134 140.1 149.7 157.4 166.4 175.6 184.2 192.3 201.2 210.9 222.6 232.4 239.4 243.1 245.1 244.6 243.8 240.3 236.2 233.9 230.2 224.6 219.8 216.3 210.5 196.2 208.2 212.3 212.3 212.3 213 214.9 217.2 221.2 225.1 230 233.3 237.3 239 240.2 240.5 240.7 240.7 240.2 239.9 237 232 226.6 220 220.6 219 217.7 211.3 204.6 197.4 197.1 205.3 210.4 213.7 222.3 228.6 235.1 241.1 247.6 249.6 256.3 261.7 267.8 274.6 282 288.3 292.3 290.4 287 282.8
490.1 490 487.9 485.1 483 481.6 478.6 480.3 480.5 481 478.9 478.8 475 471.4 466.4 462.4 458 456.6 455.8 454 452.8 450.6 448.6 450.5 450.4 449.6 448.7 450.2 451.4 451.5 452.4 452.5 451.9 451 450.3 450.1 450.4 449.4 447.4 445.4 445.6 446 445.5 444.4 443 442.9 445.2 448.6 450.6 451.8 450.9 452.5 453.7 451.1 451.4 450.1 449.4 447.8 444.9 435.6 421.4 388.8 372 374.3 362.6 344.9 324.9 309.2 295.9 287.3 281.9 282.5 285.5 277.4 264.4 256.5 245 235 224.4 231 230.6 229.7 233.9 240.6 248.1 251.4 250 249.2 249.5 239.2 235.3 242.9 240.1 211.8 176.4 161.7 152.8 144.6 139.3 136.4 131.9 129.4 127.7 126.2 122.9 121.9 120.5 118.3 116.1 113.6 109.6 105.4 105.7 102.5 99.7 102.2 104.4 104.8 104.6 105.3 106.2 111 118.5 124.5 131.4 137 141.7 149.4 159.7 167 176.3 184.6 194.2 203.4 212.8 224.4 232.8 240.4 243.3 244.4 243.4 241.4 238.7 236.5 233.5 229.3 224.9 220.2 214.7 208.6 196.9 206.6 213.5 215.2 216.2 217.5 220.2 224 227.9 232.4 235.2 236.7 239.6 241.6 243.2 243.4 243.5 243.6 243.5 241.4 238 233.7 227.8 227.7 224.4 222.8 220.1 212.5 206.8 197.6 198.8 197.8 198.7 217.3 219.7 228.8 235.6 242.8 247.9 253.9 258.3 266.9 276.2 282.6 290.5 297.5 294.1 291.4 291.8 287.7
496.1 491.6 491.5 488.5 487.7 485.6 485.2 483.6 484.4 484.4 482.8 480.3 476.9 472.6 469.8 466.5 464.8 462.9 461.4 461.3 460.3 456.7 455.9 456.5 456.8 455.7 455 456.2 455 454.8 455 453.8 454.4 451.5 451.3 449.1 448.9 447.7 445.1 444.4 443.6 444.6 443.4 443.2 444.1 446.3 447.9 449.9 450.8 450.7 452 452.1 449.5 447.8 446.3 446.6 442.8 440.5 431.8 419.2 403.9 383.1 350.2 343.8 339.3 323.8 308.7 296.4 285.4 279.3 273.8 274.1 274.9 263.5 255 247.6 239.5 231.5 221.5 226.9 227.3 225.1 231.2 236.6 242.3 245.7 244.7 242.5 245.3 225.1 225.9 233.4 230.8 202.9 175 158 151.2 144.9 140 134.9 132.5 132.1 129.5 128.1 124.9 123.8 121.8 119.8 118.2 116.6 114.8 111.9 100 102.1 98.5 103.8 103.8 104 104.6 104.1 104 106.2 119 122.7 129.6 135.2 140 148.5 158.8 168.6 176.3 187 196.1 205.5 214 224.8 236.4 242.7 245.5 244.8 242.8 240.9 238.6 235.1 231.9 227.3 221.5 213.9 212.9 211.9 209.7 210.8 212.7 217.9 220.2 222 224.9 228.7 232.3 234.7 236.7 237.9 239.8 242.5 244.7 246.9 246.1 246.1 245.7 241.7 238.3 236.1 234.8 233 229.1 226.6 223.6 214.5 206.8 205.1 210.8 213.1 212.3 204.4 222.6 232.1 237.3 243 250.9 256.8 262.8 274 280.2 286.6 295.9 294.5 292.5 287.9 285.3 283.5
499.2 497.5 493.2 493.1 490.3 490.7 488.7 486.7 486.7 487.6 485.2 484.2 480.1 476.3 474.7 469.7 469.6 466.8 467.6 465.6 463.9 462.6 462.1 463.2 463.1 461.3 461.1 460.2 458.1 458.4 457.1 456.3 453 450.7 449.6 448.8 444.8 443.3 442.3 439.5 441.3 441.2 438.7 440.8 442.6 446.5 448.6 449.2 449 449.8 449.4 447.9 443.8 443.3 440.9 437.9 432.8 420 412.8 393.4 379.2 364.6 347.9 317.3 317.1 306 295.9 283.6 276.2 271.1 267.4 267 263.2 255.5 248.3 241.6 235.4 226.5 220.9 224 224.4 225 228.7 232.9 236.7 239.1 236.6 245.7 230.2 219.4 207.1 209.6 204.7 189.2 167.2 157 151.3 145.9 138.9 137.4 135.4 133.3 131.6 131 128.4 125.5 123 122.1 120.3 119.2 117.2 109 98.1 101.7 99 103.5 103.3 102.9 103.1 103 103.6 106.3 120.4 123.3 128.1 133.8 139.9 152.1 160.3 169.3 178.6 188.5 197.4 206.7 216.5 228 241 246.2 246.5 245.1 243.8 240.5 237.9 235.2 230.9 227.4 224.3 221.8 220.3 217.9 216.1 216 211.9 217.9 223 224.4 226.3 229.1 232.6 234.4 236.7 237.2 238.9 241.7 245 247.8 248 248.9 247.6 243.8 240.8 238.7 239.7 241.8 239.9 235.4 228.9 220.7 215.9 210.2 218.6 221.3 225.8 217.5 215.6 231.2 237.4 244.1 249.7 260.7 267.2 275.8 280.8 289.2 290.3 291 286.7 282.6 282.3 283.2
503 501.1 495.9 494.7 494.5 494.2 494 493.3 490.3 489.2 486.3 485.9 481.9 479.3 476.5 475 473.3 472.8 472.8 468.8 468.5 466.7 467.4 467.9 467.6 467 465.2 463.3 462.6 461.2 460.1 456.2 454.3 452 448.8 442.9 440.3 437 438.1 438.1 438 437.3 438.6 439.8 444.5 445.4 449.3 448.1 449.4 447 444.7 440.7 439.6 436.9 432.1 427.1 416.9 404.2 390.2 368.6 357.6 347.3 335.5 310.3 296.7 290.4 280.4 273.9 268.3 264.4 260.8 261.5 259.1 251.1 242.2 236.2 229.9 225.2 215.7 220.4 219.9 222.2 224.9 227.5 230.8 229.7 228 234.2 223.2 218.4 209.2 187.3 178.6 170.4 162.3 155 153.7 149.4 144.8 140.3 137.5 135.9 134.4 132.8 129.7 126.3 125.2 123.3 121.6 120 118.6 109.8 97.5 99.2 102.1 102.5 102.9 103 102.8 103.1 103.4 106.6 119.9 122 128.6 135.5 143.3 150.5 160.7 169.8 179.3 188 198.2 208.8 219.3 232.2 241.5 245.7 246.5 244.8 243 240 237.2 234.9 232.6 232.1 230.4 228.7 227.9 223.3 221.8 220.9 220.7 210.8 217.4 224.6 226.5 229.4 232.1 234.2 236.1 236.2 238.2 242 245.5 250.4 250.6 250.4 251.3 248.7 244.6 243.3 245.1 247.6 246.3 244 238.6 230.9 222.4 216.6 225.7 229.7 233.6 231 216.7 232.7 240.7 246.2 254.2 262.3 269.3 276.5 282.7 285.6 285.7 286.8 284.1 280.1 279.9 281.2
507.4 502.9 501.1 498.9 499.9 497.6 496.8 494.5 493.5 490.8 490.7 487.9 483.7 482.6 480.7 478.2 477.4 476.5 475.3 474.8 470.1 471.1 469.7 471.4 471.1 468.9 466.8 465 463.9 461.8 459.1 454.9 452.8 449.2 445.7 440.6 434.9 433.2 434.6 434.1 434.9 433.7 436.4 439 442.4 445.6 447.4 448.9 448 444.4 439.8 433.2 430 424.9 419.3 408.1 397.8 380.8 365.5 347.3 337.8 327.8 316.1 300 280.8 275 269.3 265 260.6 256.9 255.6 256.3 254.6 245.1 237.7 229.9 226.2 221.9 213.9 215.4 213.6 217.6 220 222.5 222.5 220.4 225.3 224 221.2 216.8 211 196.5 183.2 176 167.5 163.2 157.1 151.8 147.6 142.2 139.6 137.5 134.9 133.6 131.6 129.5 127.9 124.7 122.8 121.1 118.8 109.8 98.7 97.6 101.8 102.3 102.2 102.1 102 102 103.7 107.3 118 122.2 128.7 135.4 143.5 150.9 159.7 170.1 178 188.6 198.5 209.5 220.7 232.7 240.9 244.6 245.1 244 241.4 239.1 238 238.3 237 236.9 235.4 234.5 233.2 230.2 229.2 227 225.4 224.2 217.9 223.3 226.4 229.6 232.7 235 236 235.7 238.4 242.5 247.4 250.3 252 254.2 255.7 254.9 253.1 250.1 251.5 252.6 252 250 245.9 241 228.7 221.4 229.9 235.6 239 237.5 217.6 237.5 243.6 249 257.5 265.4 273.1 279.3 282 282 281.1 281.6 280.2 277.7 277.7 278.3
509 508 505.8 503.6 503.4 502.2 499.7 498.6 497 493.9 492.2 488.8 485.3 483.1 481.4 480.6 480.7 479.9 477.3 474.7 475.6 474.3 471.5 472.7 472.4 470.6 467.5 463.7 462.4 459.3 457.3 456.2 451 445.9 441.6 436.3 430.6 430.3 430.9 428 430.8 428.8 433.7 438.8 442.3 444.7 446.4 447 444.7 440.1 434.6 426.2 398.8 399.7 394.5 386.5 371.9 355.5 332.6 328.2 317.7 308.6 295.5 284 272 264.7 259.8 256.7 253 249.3 249.1 252 248.7 243.7 234.1 225.3 222.9 218.3 213.6 209.4 209.6 211.1 215 215.5 215.7 214 219.3 222.7 219.1 214.4 208.5 197 186.3 179 174.2 168.1 160.4 154.4 149.9 145.5 143 140.7 138.5 135.6 133.7 131.6 129 126 123.5 121.9 119.6 111.3 101.8 97.4 101.6 100.5 102.6 101.8 102 102.2 102.8 112.4 119 124.1 131.3 137.6 144.4 151.6 160.2 169.6 178.1 187.3 198 209 220.7 231.8 238.3 241.6 242.4 241.7 238.4 239.6 241 241.2 241.1 240.3 238.6 237.6 236.1 234.6 232.7 231.3 228.3 226.4 224.9 218.5 226.7 229.9 232.7 234.5 234.6 236.6 239.8 244.2 249.3 253.6 256.2 260.2 262.2 261.6 259.7 258.1 257.4 256.4 255.6 253.6 250.1 246.7 236.5 228.1 237 240.9 241.8 239.8 223 238.7 244.8 250.2 256.2 260.7 270.8 277.5 280.5 279.1 278.3 279.3 278.3 277.2 276.8 276.6
513.4 511.8 508.9 507.8 506.2 505.5 502.6 500 497.4 495.7 492.8 488.6 487.9 486.1 482.8 482.1 482 481.3 480.6 479.8 478.8 475.8 475.5 473.3 470.7 469.8 466.5 465.8 461.9 459 457 452.7 447.4 439.8 435.8 431.2 428.9 425.5 424.4 419.8 415.7 427.7 431.9 438.4 440.1 443.8 444.9 444.1 441.4 437.3 430.1 404 380 365.8 368.5 362.6 347.2 333.5 320 309.1 295.6 286.5 276.8 268.7 261.1 256.8 252.1 248.5 245.7 242.7 244.8 247.5 246.8 241.3 228.1 220.2 218.6 215.7 212.8 205.6 205.6 206.9 209.8 210.9 208.8 214.1 223.1 225.9 219.1 213.9 208 198.4 189.9 183 177.7 172.2 164.2 157.3 152 149.4 148.6 145.7 142 139 135.9 132 129.7 126.8 123.9 122 119.2 112.9 103.8 97.4 101.4 101.3 101.4 102 101.3 101.5 104 114.4 120.3 124.9 130.8 138.2 145.7 152.8 160 168.7 176.2 185.8 195.7 208.3 218.8 229.3 235.4 238.6 239.2 238.4 235.4 240.5 242.5 244 243.8 241.4 239.8 238.3 237 236.2 236 234.6 234 229.5 225.1 222.6 225.5 228.9 230.8 231.9 232.2 235.7 240.8 245.4 250.4 256.6 263.2 266.7 266.7 265.6 264.8 262.6 262 259.8 257.8 256.1 253.2 250.3 241.3 232.8 236 240.8 243 241 232.5 227.2 236.5 246.9 250.4 257.4 272.1 274.6 277.4 277 277.3 279.3 279.6 276.9 276 275.8
512.3 512.3 512.7 509.8 507.7 505.3 504.1 502.4 498.1 495.8 492.3 490.3 487.3 484.4 483 481.9 482.3 482.1 481.3 481.3 480.2 477.9 477.6 474.7 470.3 469.1 466.3 461.6 460.3 456.5 451.3 446.4 441.8 437 430.4 426.4 424.6 419.2 411 409 420.3 427.2 431.1 436.8 440.5 442.8 442.7 441.6 438.2 435 425.3 395.5 363.8 343.9 338.1 337.4 329 317.4 303.3 288 282 272.1 264 259.8 253.9 249.7 245.8 241.9 240.1 237.6 241.2 244.2 244.3 238.4 224.4 216.4 214.3 211.9 210.4 204.3 202.8 205.4 206.3 204.1 206.9 220 236.2 231.5 220.8 214.4 205.7 198.8 191 184.6 179.7 174.3 166.9 160.6 155 155.2 152.7 150.7 146.6 143.3 139 136.2 132.6 128.4 124.9 123.1 120.7 115.2 106 97.4 100.7 101 101.2 100.9 101.6 102.1 111.6 115.7 119.4 126 130.9 138.3 146 152.7 161 168.3 175.8 183 192.7 205.8 215.4 224.6 231.5 234.9 234.8 233.5 236.2 240 242.7 244.8 244.3 241.9 241.4 240.5 238.2 237.8 237.8 237.9 235.8 231.3 225.2 226.5 223.1 223.4 225.5 228.8 231.2 234.8 240.3 244.9 249.7 256.3 263 267.7 269.2 268.5 269.2 267.5 266.6 263.3 261.1 260.2 258.2 254 245.2 243.5 237.4 243.7 245.3 244.1 242.5 241.8 240.7 241.7 246.3 255.8 271.2 272.6 273.9 275.6 277.5 281.7 281.8 277.3 275.3 275.1
512.7 511.8 511.6 511.6 509.9 506.6 504.3 503.2 499.5 495.1 491.5 488.9 486 484.2 484 480.3 479.1 479.4 479.6 479.3 478.6 478.4 477.7 474.1 471.5 469.1 464.9 462.5 457.2 452.6 445.8 441.3 437.5 431.5 426.7 420.3 418.2 410 394 415.3 423 427.9 433.8 437.8 440.7 442.3 442.2 439.7 435.7 432.7 423.6 395.7 363.9 335.7 320.1 318.1 314.1 305.5 292.6 280.5 270.7 261.9 255.2 252.5 246.6 242 239.2 236.6 234.6 234.1 237.8 241.8 241.7 233.8 219.9 213.8 208.2 208.1 206.8 205 197.6 201.8 200.4 201 217.7 239.6 250 235.3 221.6 214 206.7 198.9 189.6 185.1 181 173.8 168.5 164.6 161 160.8 158.1 156 151.5 147.9 144.4 142.2 139.8 132 127.6 123.3 120.7 118.5 109.5 103.2 97.4 100 100.3 101 100.2 101.3 113.3 117.1 120.9 126.5 132.6 141.4 146.9 152.9 159.9 166.9 174.7 182.5 190.9 200.2 209.9 220 226.7 230.2 223.8 230.4 235 238.4 241.4 244.1 243.8 242.6 242.6 242.1 240.4 239.2 240 239.8 237 232.5 231.6 230.6 229.2 230.3 229.9 228.1 227.9 233.4 238.8 242.5 248 254.8 261.4 264.9 268.9 271.3 273.6 273.6 272.1 269.9 266.5 264.5 262.4 259.5 253.3 252.7 249.1 248.6 251.9 251.7 252.1 248.5 249.7 250.1 254.8 259.7 266.2 269.1 273.3 276.6 279.8 285.4 285.4 279.4 275.6 273.9
511.8 511.7 510.9 512.4 510.4 507.7 506.3 503.7 499.6 495.6 493.4 489.8 488 483.1 481.7 478.6 476.2 475.9 476 475.8 476.1 475.9 474.8 471.9 469.4 466.4 462.2 459.7 454 448.4 440.7 436.8 432 426.6 421.3 414 402.9 385.8 404.2 415.9 422.5 428.4 433.4 437.8 438.8 439.5 438.9 435 431.8 426.6 419.7 404.5 374 344.6 318.9 301.1 295 290.4 284 272.2 261.6 254.3 247.4 242.5 239.6 233.8 233.7 231.8 229 231.4 234.2 239.4 239.5 229.5 216.8 211.1 205.8 204.8 203.8 202 199.8 193.3 197.6 207 227.9 245 250.8 238.6 218.9 210.5 204.4 198.5 190.7 185.7 182.1 178.4 172.9 167.8 168.1 167 164.3 160.8 159.2 157.6 163.4 169.1 165.1 149.4 130.4 125.5 122.7 120.3 116.3 110.8 103.5 97.4 99.3 100.4 100.8 100.1 114.3 118.2 122.5 128.9 134.9 140.4 149 152.5 158.3 166.1 172.9 180.2 190.4 197.5 206.1 215 221.6 224 216.8 228.6 233.3 236.8 240.8 242.8 242.2 243.5 244.1 244.2 243 241.8 241.1 241.8 241.2 240.2 240.2 240.9 237.3 237.5 235.9 233 232.2 231 235.7 240.7 245.9 251.9 258.2 263.4 268.9 273.5 276.8 278 277.4 276.8 273.1 270.7 268.5 265.8 263.4 262.6 261.2 253.5 264 263.9 262 257.6 258.8 257.1 262.3 268.9 270.1 273.9 274.9 281 283.7 288.8 287.9 283.9 278.3 273
510 508.7 509.5 508.9 508 507.1 507.4 503.3 499.9 496.9 493.3 488.3 485.1 480.6 477.9 476 474.5 472.2 471.2 471.1 472.4 472.9 471.7 468.6 465 461 458.3 454.4 448.7 443.3 437.1 429.1 424.4 417.5 407.8 394.6 378.1 393.1 406 415.7 420.8 427.1 432.5 435 435.7 435.6 434.7 433.1 428.5 423 415.4 404.7 388.4 362.1 336.7 317.3 296.3 274.5 268.8 262.8 254.5 246.7 240.3 235.1 232.9 227.4 228.9 227.5 224.2 228.9 232.9 238.6 237.7 226 214.6 208.4 204.6 200.3 200.1 198.5 197.1 192 195.7 200.7 214.4 228.3 235.6 232.4 218.3 208.8 202.6 197.6 191.8 189.7 186.3 181.2 175.2 175.6 174 173.7 170.8 168.8 169.6 182 194.4 191.7 182.7 166.8 137.3 128.4 124.8 122.1 119.2 114.2 106.8 100.7 98.8 99.4 100.5 100.1 107.9 110.3 120 126.5 133.2 142.1 151.3 155.2 161.4 167.8 174 181.1 188 195.7 202.8 209.2 215.8 218.4 210.9 223.4 230.4 234.4 239.4 240.4 240.2 243.9 246.2 247.1 247.4 246.3 246.4 245.4 247.1 248.7 248.8 247.5 246.6 245.3 245.4 243.3 237.8 238.1 240.2 240.4 245.4 251.7 258.8 265.9 271.4 275.4 278.7 280.7 281.9 281.1 280.1 279.7 278 275 272.4 271.9 269.4 267.6 269.8 270.3 269.3 266.8 266.1 262.9 266.1 271.2 273.2 277.4 279.9 281.7 285.2 290.1 291.1 288.4 284.9 274.7
508.4 508.5 507.4 506.9 506.4 506.1 504.2 502 498.8 495.1 490.7 487.3 483.7 480.2 477 474.3 472.2 469.2 467.3 467.1 466.8 466.3 466.4 462.8 461.1 455.8 452.6 448.9 444.4 439.4 432.6 423.1 405.6 398.3 383.8 370.6 377.8 396.3 405.6 413 420.4 425.8 429.8 432 432.2 433 430.6 425.6 421 417.2 408.8 396.8 384.9 368.9 351.7 330.1 309.2 288.8 271.3 257.2 243.9 239.1 234.8 230.4 226.9 224.4 223.8 221.8 223.2 227.5 232.5 237.7 231.6 220.1 211.4 208.3 204.4 200.2 196 194.8 193.7 192.3 195.5 198.2 202.3 211.9 223.6 227.9 220.8 209 202.2 197.8 195.5 192.1 188 183.6 181.4 182.4 196.7 183.5 178.6 177.9 190.2 198.8 196.6 195 184.5 167.5 145 132.5 127.9 124.5 119.6 111.2 104.9 100 100.2 100.4 97 99.2 104.2 117 121.5 127.3 132.5 139.7 152.5 162.3 165.4 169.3 175.3 181.2 188.1 193.7 199.8 205.2 208 212 208.6 219 225.1 230 234.5 235.1 242.1 245.1 248.5 249.7 250.3 250 251.4 250.3 253.1 253.9 254.4 253.8 253.6 254.1 255.1 253.2 243.5 244.9 247 247.9 243 254 258.7 267.4 272.1 276.8 280.3 282.2 285 285.3 285 287.2 285.6 284.1 282.1 279.8 275.3 273.2 272.8 276.5 274.3 273.6 272.9 272.1 271 273.3 275.5 278.8 281.8 283.9 284.9 287.3 290.1 290.2 287.7 276.1
505.9 505.8 505.5 504.9 504.8 504.1 502.9 501.6 499.3 496.2 491.9 488 484 480.5 476.8 473 469.1 466 464 464.2 463 461.8 460 456.8 455.5 451.1 448.1 443.8 439.1 433.6 423.4 410.5 393.5 376.3 365.5 363.3 382.1 397.1 405.1 412 418 423.4 426.9 428.2 430.2 427.4 422 417.3 414.3 407.9 397.6 385 372.8 360.2 346.2 332.6 314.7 297.5 281.2 263.5 247.3 237.3 232.3 224.4 221 220.4 220 217.1 222.5 226.5 231.5 231.5 222 213.9 208.6 205.4 202.5 197.8 194.7 192.1 191.2 188.5 192.7 193.9 197 202.3 209.6 226.1 226.8 215.5 203.2 199.1 197.1 194.2 190.4 185.5 186.6 190.9 201.8 196.4 188.8 196.6 204.1 197.4 191.8 187.3 177.5 160.3 146.8 143.4 130.4 121.5 115.2 108.4 102 99 99.8 99.4 100.2 97 112 119.5 125.2 135.1 139.4 136.7 144.4 155.7 167.8 173.9 178.8 183.1 188.4 194 195.7 199.2 203.6 199.2 208.7 214.6 218.7 223.3 227.1 238 242.6 246.1 249.7 251.8 252.4 253.5 255.4 255 257.2 259.6 261.1 261.1 261.6 262.9 264 262 252.4 256.6 258.9 255.8 252.7 247.9 261.5 268.1 272.1 276.8 280.4 284.1 287.3 291.2 292.1 292.4 291.4 290 290.2 286.4 280 275.5 275.9 278.3 280.2 283 280 279.5 279 277.8 279.7 281.6 283.4 285.3 286.3 287.1 289.7 289.6 286.6 276.4
503.5 504.6 501.4 501.3 501.8 502.2 501.4 500 498.1 495.8 492.3 489.7 485.5 481.6 476.5 470.6 467 464.5 460.2 461.6 460.8 459.7 457.2 454.2 451.1 448.3 444.9 438.7 429.6 418.6 405.8 390.5 378.7 366.2 343.1 367.5 385.9 396.9 404.1 410 415.3 420.1 423.2 423.8 423.4 419.9 415.5 410.5 400.9 391.4 379.7 368.3 358.5 347.5 335.8 325.1 310.3 295.6 281.2 265.8 249.2 236.9 229.9 226.6 221.7 218.4 214 215 221.2 223.8 225.4 221.4 215.8 208.8 205.8 202.5 199.7 195.8 192.9 189.3 186.9 186.5 190.2 191 194.3 200.7 213.5 232.8 229.9 223.4 205.3 198.8 197.6 195.6 192.8 189.7 190.2 195.1 200 205.1 205.8 211 212.7 193.6 179.3 174.9 165 155.7 151.2 153.8 139.6 123.9 110.4 103.9 98.9 99.2 99.2 99.6 97.9 101.5 113 125.7 135.3 140.4 151.3 152.4 152.4 156.1 155.7 162.8 174.4 183.7 191.1 196.2 194.5 193.2 194.3 199.4 202.2 209.7 216.9 221.6 227.7 234.3 241.4 247.2 253.4 257.7 257.4 257.9 260 262.5 263.3 265.7 267.2 268.1 269 269.3 269.8 267.3 262.7 267.4 266.3 263.3 261 259.5 265.2 266.2 272.4 277.4 282.7 286.3 290.7 295.1 297.4 296.9 297 293.9 293.3 288.9 283.4 278.7 279.8 282.3 283.8 288.8 288.1 288 287.7 287 286.4 285.8 287.5 288.3 289.9 291.1 297.5 298.8 296.6 287.4
500.3 499 497.2 497.8 499.1 499.1 498 497.6 495.3 493.2 491.3 487.4 484.5 479.5 474.6 467.5 463.4 458.7 455.3 456.7 457 456.7 455.8 453.9 449.6 445.2 436.1 415.8 401.2 387.5 383.6 371.6 361.4 347.2 349.8 375 387.4 396.1 403.3 408.3 413.2 417.5 420.4 420.7 417.1 412.6 407.8 396 378.3 369.4 360.3 351.3 342.6 332.9 324.7 314.2 300.2 290.9 277.7 263 249.7 237 231 226 220.5 218 214.6 208.2 213.2 218.1 217.8 214.4 209.2 205.9 202.4 198.8 196.9 194.8 190.2 184.9 186.8 185.1 186.7 191.4 196.3 204 227.4 242.5 234.5 224.7 209.6 197.8 196.4 195.7 193 192.3 193.7 197.3 210.4 218 214 220.3 214.3 192.2 175.1 166.3 161.7 159.4 158.5 160.3 158.1 140.1 119.5 98.8 98.8 99.1 99.2 96.3 104.2 108.8 122.3 130.2 136.5 144.1 152.9 160.7 156.2 162.4 169.4 173.1 168.2 177.8 191.6 187 186.7 193.9 196.3 198.8 203.3 211.4 214.7 220.6 226.1 233.6 241 248.6 257.8 263.2 265.2 264.7 264.7 267.5 270.2 271.6 272.8 272.9 273.1 273.5 273.1 272.6 272.1 275.4 274.7 271.7 269.8 267.4 266.7 270.7 272.5 279.7 284.2 288.8 293.3 298.4 300.7 301.3 300.8 298.6 295.8 294.6 289.6 283.9 284.3 285.9 287.2 290.8 294.4 293.2 293.4 293 291.5 291.3 290.2 292.5 294.4 296.4 302.2 302.1 302.2 296.1
496.6 494.8 494.2 493.6 493.7 492.2 492.8 492.2 490.9 489.2 486.5 484.5 480.4 475.9 471.2 464.5 457.2 452.6 444.9 450.7 452.2 452.6 452.5 449.9 446.4 439 417.1 403.5 390.6 376.5 363 348.3 338.3 330.6 360 377.2 387.4 395.8 404.5 410 413.2 416.4 417.2 413.3 409.7 405 397 385 355.8 346.5 340.5 333.5 327.8 322.6 314.1 300.5 291.6 282.9 270.5 258.8 248.7 237.5 230.8 226.6 222.2 220.2 218.1 215.6 206.4 209.3 211.7 208.5 206.1 202.3 199.4 196.1 193.6 191.1 187.1 183.9 182.9 185.3 190 193.1 196.8 209.6 230.2 244.8 235.4 226 203.8 198.3 196.2 196 196.4 196.2 197.9 209.4 217.8 220.7 215.7 220.8 213.9 195.1 173.5 167.8 164.7 164.3 166.3 168.3 168.3 155 137.3 102.9 98.2 96 97.6 105.8 108.9 116.3 127.5 133.5 140.3 147.6 156.3 165.5 164 164.2 170.4 173.3 178.6 181.2 185.6 190.7 195.1 198.4 200.7 203.9 207.4 213.9 218 223.2 229 236 243.1 251.6 259.8 265.2 267.9 269.9 270.3 272.3 273.6 274.8 274.6 275.5 275.6 275.5 278.4 277.7 278.9 277.8 280.4 279.2 275.2 272.8 270.4 275.1 278.6 279.4 286 290.9 296 301.4 303.8 305.6 303.6 302.3 299.3 299 297.4 290.7 286.5 287.9 290.5 292.9 296.1 298.1 298.3 297 295.8 295.1 294.1 295.3 298.7 302 303.4 302.5 300.2 296.1
489.2 488.7 487.6 487.8 489 487.7 485.9 485.2 483.3 481.7 480 477.4 474.1 470 464.9 458.5 452.2 445.4 436.3 444.8 447.1 447.3 445.6 443.8 438 424.6 404 390.9 374 359.9 342.7 323.8 317.3 346.5 364.1 375.8 387.5 396.6 404.9 410.6 414.6 416 415.7 410 404.4 395.3 386.4 371.3 349.5 323.5 314.7 314.2 315 306.1 300.4 290.5 285.6 275.1 263.3 254.1 246.3 236.9 230.8 227.9 224.1 224.6 225.1 222.1 212.9 203.9 205.9 205.2 201.8 199.4 196.7 192.9 188.2 186.4 182.9 180.4 191 194.2 195.1 194.6 195.4 205.2 222.1 240.7 229.8 224.3 204.1 199 197 197.9 199.4 202.7 208 212.9 216.1 214.4 212.4 220.2 221.2 204.9 183.5 171 168.9 168.5 173.4 172.1 169.7 161.2 145 120.7 95.7 99.9 101.3 107.2 117.2 125.7 132.7 138.4 144.1 154.1 162.7 169.9 170.5 170.9 174.1 177 180.6 189.4 197 201.1 205 205.1 206.9 209.4 211.9 218.1 221.4 227.7 236.4 243.5 248.2 255.2 262.9 266.9 270.3 273 273.9 274.3 275.8 277 276.8 278.7 279.9 281.2 284.3 283.2 284.4 284 283.6 284.1 282.5 279.1 278 275.9 283.1 284.6 284.2 292.3 297.6 302.2 305.7 308.4 308 304.5 303.1 300.7 299.1 294.1 288.8 288.8 292.5 295.2 297.2 302.5 304.5 300.3 299.6 298.5 296.8 298.6 302.7 306 305.2 302.7 299.4 294.6
483.6 481.9 481.9 482.4 480.4 479.6 478.6 477.3 477 474.6 472.2 469.9 467.6 464.1 459.5 453.7 445.9 438.6 427.4 436.9 438.9 439.1 437.8 435 428.7 413.2 394 380.3 360.9 347.3 329.5 308.4 325.8 348.4 361.5 375 385.9 396 403.2 408 412.1 414.9 414 408.5 400.6 384.9 364.6 349.1 335.4 318 306.3 305.7 304.7 296.1 289.9 284.4 278.5 269.2 257.5 250.2 242.7 236 230.8 227.6 227.5 228 227.4 223.3 217 206.6 198.4 202.6 201.1 197.6 193.8 192.3 188.5 182.6 177.7 185.8 193.4 195.9 195.8 193.6 193.1 199.3 218.5 235.9 224.9 221.2 203.5 199.2 198.6 202.1 211.1 210.5 213.5 213.6 210.7 207.1 204.9 219.9 229 212.8 188.3 176.6 172.6 173.7 174.2 168.3 160.1 141.9 130.9 103.7 98.8 98.9 101.9 115.7 123.7 132.9 138.5 144.5 151.1 161 167 174.1 175 175.7 179.1 184.1 191.7 210.1 216 217.5 219.4 217 216.1 221.3 222.3 225.3 230.4 238.4 242.1 250.5 255.9 260.5 265.8 269 271.7 274.5 274.7 275.6 277.8 279.4 280.2 281.4 282.1 284.7 288.2 286.8 289.7 288.2 286.2 288.2 285.2 284.4 283.9 280.5 284.8 287.9 288.7 288.2 295.8 301.5 305.1 308.3 308 305.7 305.4 303.1 300.3 295.4 291.9 291 294.2 297.3 298.9 302.1 307.5 306.8 304.4 302.9 301 300.2 301.6 302.7 304.5 302.5 299.9 294.7
476.8 476.1 474.2 471.8 469.8 468 466.8 464.3 462.8 462.6 461.4 459.9 458.1 455.5 450.5 444.9 435.7 427.3 411.9 427.1 430.3 431.4 429.9 426.4 419.4 407.1 386.3 365.4 346 331.1 311.6 302.3 318.9 339.1 356.4 366.7 377.5 386.4 396.3 404.2 409.2 411.8 410.2 406.8 399 382.5 352.1 326.2 318.9 306.9 293.2 291.8 289.3 285.5 281.6 275.9 269.8 259.8 252.5 246.9 241 234.1 230.6 229 229.3 229.6 228.2 225.3 219 207.8 198.4 201.8 200.3 199.7 196.8 193.2 188.2 186.4 176.3 184.9 189.5 192.9 193.8 192.4 189.5 194.8 214.2 234.3 226 213.2 203.9 200.2 201 210.5 211.1 212 215.1 214.8 207.7 203.7 200.5 209.4 223.4 212.4 200.9 189.5 176.3 172 165.4 150.1 134.1 124 110.6 99 98.5 99.3 111.7 126.9 135.3 141 151.7 158.9 165.7 171 178.9 187.4 185.8 185.1 190.8 196.1 204.6 220.8 227.6 228.6 227.3 227.1 225.2 227.3 229 231.5 236.5 243 248.2 253.5 257.7 261.3 264.6 268.4 271.3 272.8 274.2 275.7 276.6 278.3 280.1 282.8 283.8 286.9 288.9 290.3 292.1 292.4 289.6 291.5 291.6 292.3 289.3 287.7 282.7 286.3 289.8 290.7 293.6 299 303.2 308 309.2 305.1 303.7 305.1 301.3 297.9 294.4 294.5 294.7 298.1 300.7 300.8 305.4 308.5 308.9 307.9 304.3 300.9 298.9 299.4 302.2 299.4 298.1 294.5
469 466.7 464.8 462.3 459.8 458.7 454.2 452.6 449.7 450.6 449.3 447.7 446.7 443.9 439.8 432.9 421.7 414 399.9 417.5 420.4 420.9 420.9 418.3 411.7 395.1 375.4 349.2 327 308.5 296 299.6 308.2 324.5 341.6 354.3 363.2 372.2 381.1 391.8 401.4 404.6 405.3 403.7 396.9 382.4 358.4 331 308.2 292.8 285.4 280.4 277.8 274.4 271.3 266.2 257.1 251 246.8 242.4 238.8 233.9 232 230.5 230.2 231.1 231 229.3 221.3 208.6 197.5 199.3 199.4 197 194.6 191.1 188.6 185.9 175.9 182.7 188.2 191.2 191.9 189.5 187.4 192.4 213.1 229.5 228.7 215.9 203.9 200.6 207.1 208.6 210.6 212.8 212.9 211.6 207.5 201.8 197.7 204.1 212.5 206.5 202.7 194.1 181.2 165.8 144.3 127.8 116.6 107.5 103.4 97.4 98.3 101 126.4 136.5 144.1 151.8 163.9 172.2 178.9 183.2 190.7 196.2 198.3 199.7 205.3 209.7 211.1 218.3 232.2 236.3 233.7 229.5 227.5 230 231.7 234.2 238.2 244.7 249.4 254.5 258.2 259.6 261.8 267.3 268.7 270.1 271.2 272 272.3 275.4 276.4 280.5 284.5 287.2 288.7 292.2 293.7 294.5 294.7 295.6 295.9 296.5 295.3 292.4 289.8 286.5 293.3 296.2 296.4 299.8 303.2 307.4 309.5 307.3 303.1 301.9 302.2 299.1 297.6 298.2 297.3 298.4 300.4 303.2 305 306.2 308.9 309.6 307.4 305.2 297.7 294.9 295.8 296.1 292.9 289
457 453.8 448.7 446.8 443.7 442.9 438.2 434.5 433.9 435.4 437.4 437.2 435.7 431.5 426 418.4 404.3 397.4 398.2 409 412.6 413.2 412.2 411.6 403.7 385.3 362.7 335.1 314.4 298.4 289.8 293.2 299.9 311.5 323.7 335.3 341.4 351.3 363.7 375.1 387 395.6 398.9 397.2 390.8 379.9 362.8 339.7 313.3 292.5 278.1 271.1 265.2 262.6 258.8 254.3 249.6 244.8 241.4 239.1 236.6 233.4 231.6 230.7 231.8 232.7 233.7 232.1 220.7 208.7 195.4 196.9 195.2 194.4 192 190.7 187.8 183.5 175.2 180 187 188.7 189.6 186.5 185.1 190.7 210.5 221.3 226.1 219.8 202.5 199 203.2 207.2 208.3 207.6 207.8 207.7 204.1 199.5 192.3 186.5 197.7 199.7 194.7 191.2 179.6 150 125.7 119.2 103.5 99.8 97.2 94.7 101.2 112.8 138 145 155.9 164.2 172.7 180.7 187.7 193.7 198.9 205.5 210 212.1 211.1 214.6 216.2 217.7 226.2 231.2 231.1 227.6 228.1 231.2 233.2 235.7 237.8 244.4 249.7 253.7 258.2 259.7 260.6 263.7 266.3 268.5 268 267.4 268.5 271 273.8 277.7 282.4 285.6 288.4 291.9 293.3 294.1 295.6 297.5 298.9 300.3 299.3 297.5 296.1 292.6 295 297.9 299.6 301.1 303.3 306.6 309.3 309.5 304.1 300.7 300.9 299 298.3 299.5 300.4 300.2 300.9 303.9 305.4 306.4 306.1 305.9 304.3 303.6 296.5 294 293.2 293.4 291.9 288.8
445.4 440.7 434.3 427.3 421.7 414.9 410.3 409.2 413 417.3 419.3 421.1 419.5 416.6 411.7 403.8 396.2 380.9 393.9 400.5 403.2 403.6 404.7 403.4 393.9 378.1 354.2 328 305.1 289.7 286.1 286.9 292.4 299.8 306.6 318.8 325.9 334.1 347.2 361.8 377 388.2 391.3 389.5 382.7 373.2 360.1 342.1 321.7 298.7 279.4 264.6 258.7 254.1 249.5 246.7 242.3 240 238.1 236 234.7 233.8 232.1 231.4 233.6 234.5 234.2 227.3 218.2 208.5 191.4 198.8 197.1 192.9 189.3 186.2 184.7 179.4 178.2 173.2 180.1 186.2 185.8 183.4 184.2 188.5 198.6 216 218.1 216.8 204.6 196.2 198.4 204.9 198.6 198 197.8 196.6 192.3 188.7 179.8 178.4 183.6 184 185 176.1 157.4 136.3 110.2 95.6 93.3 98.7 106 121.2 129.9 133.2 145.5 153.5 164.5 174.3 182.2 188.8 195.7 202.7 208 212.1 215.9 215.9 212.5 215.9 219 219.6 221 223.6 226.4 226.9 228.2 231.1 233.3 235 236.9 242.8 247.4 251.7 256 258.1 259 261.7 263.3 264.1 266.4 261 265 267.7 271.9 275.2 279 280.9 286.5 289.2 291.9 294 296.1 297.5 300.7 301.3 299.9 298.2 297.3 296 295.6 297.6 300.7 302.4 303 305.6 306.7 307 304.9 300.6 296.2 293.7 293.4 297.4 301.4 299.9 300.1 301.4 302.5 302.8 303.4 303.2 301.2 300.8 297.4 295.6 291.4 290.7 288.5 284.3
433 428.7 422.7 414.7 405 400.9 398 397.6 400.3 403.9 405.9 406.2 403.9 401.6 398.2 392.6 382 367.7 385.2 392.2 395 396.4 397.1 396.2 386.6 367.5 342.8 320.7 296.4 282.2 280.6 280.4 285.2 290.3 297 306 315.6 327.4 338.4 351.3 366 376.1 378.4 378.5 373 365.9 352.3 337.9 323.6 305.2 285.3 268.9 254.9 248.7 244.9 241.2 238.2 235.4 235.3 234.6 233.6 233.5 231.2 232.1 234.7 233.4 229.1 220.9 213.4 205.1 189.7 201.1 198.3 194.8 192.1 190.7 188.8 186.5 185.2 179.5 169.7 181.1 182 180.1 184.8 189.6 196.5 207.9 211.9 209.9 203.5 193.2 193 193.6 192.6 190.7 187.7 185.6 179.9 175.5 173.5 172.9 174.6 174.4 166.8 154.5 139.5 120.2 92 102.7 115.5 124.1 122.9 136.1 143.2 147.6 153.3 158.5 170.2 183 190 196.6 204.3 211.2 215.4 218.5 218.3 217.3 215.1 216.3 220.8 222.9 223.8 224.3 224.2 227.2 228 229 230.7 232.9 236.3 240.8 245 247.8 251.7 254.6 256.7 258.9 259.7 261.5 262.8 258.2 263.1 265.6 267.7 268.8 268.8 276.3 281.2 286 287.5 292.2 296.7 298 299.1 300.4 297.6 295.5 296 295.6 296.8 297.5 299.9 300.7 301.6 303 303.3 302.4 299.2 298.9 296.4 292.4 288.2 291.7 295.8 297.8 297.8 297.9 298.2 298.5 299.1 299.4 299.3 298.9 296.6 294.6 288.8 285 283.5 279.5
427.1 411.1 411.6 405.7 398.2 394.4 391.3 390 390.7 393.9 397.1 396.3 391.9 389 386.6 384.1 366.8 369.8 378.4 383.7 387 388.6 389.9 388 377.9 359.4 332.9 315.3 297 279.2 276.2 275.3 278.6 284.7 289.8 299.1 307.5 320.4 331.1 342 353.8 360.4 364.8 367.4 364.3 356.5 344 332.5 318.5 304.3 286.9 270.4 250.7 244.1 240.5 237.4 233.5 231.4 231.2 232.6 232.7 232.6 231.4 232.4 232.4 226.8 220.7 214.2 208.1 199 193.8 201.9 200.4 197 193.9 193.7 193.2 191.6 187.7 184 176 171.6 176.8 180.3 186.1 191.1 202.1 210.3 210 205.5 194.9 188.5 184.1 186.5 187.1 185.8 181.6 177.8 174.6 170.9 167.9 171.2 170.9 165.5 156.7 144.1 128.6 96.6 98.6 114.7 130 130.7 129.4 133 143.2 152.3 157.1 162.5 174.3 188.1 200 206.1 213.9 219.6 222.6 222.8 219.3 217.3 215.5 217 219.9 221.7 223.3 223.9 223.6 224.9 226.2 226.6 229.4 231.8 236.5 240 243.1 243.5 245.7 248.4 251.5 252.3 253.8 255.3 257.1 256.7 261 262.8 263.2 264.4 265.3 272 274.7 280.7 286.6 290.8 293.7 296.2 296.5 297 294.5 290.6 291 293.3 295 295.2 296.8 298.5 299.8 298.7 300.3 298.7 296.7 295.4 294.2 290.1 287.7 287 289.6 291.7 293.6 294.6 294.4 294.6 295.3 294.5 293.8 293.9 294.4 290.6 285.7 275.6 274.9 270.8
433.1 421.4 408.1 392.2 391.2 381.9 378.6 378.1 376.3 375.3 378.9 381.3 377.6 375.6 374.6 370.9 353.5 360.4 369.7 375 379.7 381.1 380.9 377.1 370.7 352.5 326.4 308.9 293 276.3 271.7 271.4 272.6 278.3 285.2 293.5 301.5 310.4 320.5 333.5 341.3 348.6 353.5 356.4 353.7 345.1 336.1 326 314 300.4 283.6 264.8 250.2 233.5 236.4 232.7 229.5 229 229.3 230.8 231.4 231.3 230.2 229.8 225.3 219.3 213.4 208 204.3 191.9 192.7 201.2 199.2 197.4 196.7 197.3 199.3 197.4 188.5 183.6 177.3 167.6 176.3 181.8 191.4 201.2 212 215.5 213.2 201.6 189.8 183.7 179 178.7 178.4 179.2 177 174.3 171 167.6 164.2 166.9 166 160.1 151 137.2 112.4 92 105.8 123.4 127.5 127.9 133.7 141.4 147.7 154.5 160.7 166.5 176.5 191.8 209.5 213.2 218.7 223.2 225.2 224.8 219.7 218 217.3 217 217.9 220.2 221.3 221.2 221.3 222.7 223 224.8 229.9 232.2 235.2 238.9 240.5 240.5 241.6 243.4 244.6 246 245.5 245.6 247.7 256.3 259.8 261.2 261.2 261.3 263.7 269.5 273.6 279.6 284.1 287.5 291.7 294.1 293.8 293.3 291.2 286.8 286.6 290.8 292.1 292.9 293.9 295.9 297.2 296.8 296.3 294.9 291.7 290.8 288.6 285.6 281 279.3 281.7 283.8 285.9 289.4 289.3 290.8 291 290.9 290.4 289.1 287.8 284.7 279.2 273.6 262.7 263.5
430.6 420 408.4 397.4 379.5 376.3 364.6 362.1 359 350.5 356.8 365.6 358.8 356.7 355.9 353.2 342.8 347.6 359.5 366.8 372.5 372.6 372.6 370.3 360 348.9 323.4 302.1 286.5 270.4 269.7 268.1 268.4 276.9 282.7 289.2 294.8 303.2 311 320.9 327.5 334.5 339.4 341.8 338.9 333.5 326.1 316.8 307.4 293.6 277.2 258.4 246.1 238.4 227.5 229.8 227.9 226.2 228.9 229.2 229.2 227.7 225.1 222.5 218.3 212.8 207 203.9 201.8 190.4 190.5 196.9 196.5 194.1 196.7 199.4 205.6 200.5 190.2 181.6 174.7 165.1 176.1 187.1 203 210.5 213.4 218.5 214.8 198 185 180.7 176.3 173.3 172.1 171.9 171 170.2 168.8 165.2 160.3 163.5 161.4 155.3 144.6 124.2 100.1 93.2 116.5 121.9 124.4 128.5 134.4 145 150.7 155.5 161.4 168.1 178.8 188.4 201.3 210.2 216.6 220.2 222.6 224.9 221.4 219.6 219.7 217.9 216.7 218.1 218.1 216.8 218.5 220.9 221.1 223.3 229.2 231.3 232.5 234.3 236.4 237.9 238.9 238.5 240.2 240.9 240.8 243.3 249.8 254.2 257.5 259.1 260.2 259.7 260.5 266.7 271.3 275.4 278.9 284.5 288.4 290.8 289.8 286.8 286.2 284.2 282.6 284.8 289 289.6 290.3 293.2 293.7 292.7 292.3 289.9 288.4 286.5 284.3 279.3 275.9 272.8 276.2 277.4 279.5 281.6 283 284.5 285.2 286.4 285.8 284 282.2 278.8 272.8 266.4 258.4 252.1
422.9 414.1 402.9 395.5 385.6 372.2 356.8 354.5 352.2 347.2 344.7 349.9 347.8 348 344.1 340.6 335.8 325.9 348.4 358 364.2 365.3 365.3 362.8 355.1 343.7 326.7 300.2 282 267.1 266.2 264.6 269.1 274 278.6 284.2 289.5 294.1 298.8 304.1 311.2 316.9 319.9 322.9 322 320.9 317.3 310.9 303.1 288.5 273.7 258.6 246.2 233.8 230.9 223.1 223.4 227.8 229 228.3 225.7 222.5 218.8 215 211.6 208.3 203.3 202.2 200.6 197.9 188.2 178.2 188.9 190.5 196.3 200.6 209.1 201.3 192.5 179.6 172.5 164.3 176.3 184 200.3 199.3 203.3 218.3 203.1 186.5 180.1 176.6 173.3 170.5 167.8 167.7 167.6 167.1 165 162.7 157.6 156.1 157 152.7 133.2 109.9 94.5 99.3 126.1 127.1 125.8 130.6 135.4 146.1 151.6 160.2 165.9 174.4 183.8 191 200.8 210.2 216.3 217.7 220.4 222.9 221.9 220.7 219.4 217.3 216.3 217.4 215.3 216.1 216.9 219.6 219.6 222.6 226.5 229.2 230.2 230.7 232.7 235.3 236.5 236.4 237.4 238.9 239.3 242.4 246.4 250.6 252.8 255.4 257.9 257.8 258.3 263.4 268.1 272.3 275 280.8 284.3 286.9 286 282.9 280.5 279.4 278.1 281.5 284.5 285.7 285.7 288.9 291 288.7 288.3 286.7 284.1 283.9 280.5 276.7 272.8 268.9 270 272.9 273.4 275.1 276.6 277.2 279.2 279.9 279.6 277.3 274 270.9 265.8 258.6 249.8 246
413.4 403.9 394.9 386.7 375.3 361.2 348 335.8 337.2 334.5 334.1 335.3 338.8 342 340.8 340.2 333.1 313.9 332.1 352.8 356.1 358.1 357.6 355 350.3 338.9 327.4 301.3 280.1 263.6 263.3 262.7 263 268.9 272 275.3 279.6 283.9 288.7 291.8 295.7 299.1 303.3 306 306.9 308.1 307.6 304.3 296.6 283.6 272.2 259.3 243.6 238 231.2 226.2 219.9 226.5 227.2 221.4 217.7 217.9 213.5 210.1 207.6 205.4 201 200.2 199.6 198.9 197.3 194.5 174.7 189.8 195.2 200.1 205.9 199.7 191.9 178.5 170.8 160.7 174.5 179.5 186.6 189.5 196.9 202.6 190.4 175 173.6 172.3 170.4 168.4 166.1 165.4 164.2 164.8 163.6 159.6 156.2 150.9 142.9 135.7 123.1 107.1 92 107.5 121.5 125.2 130.2 133.1 139.8 148.8 155.4 163.3 171.1 181.3 189.9 197.7 206.7 215.1 219.7 218.9 220.2 220.7 219.5 218.4 218 216.3 216.5 217.2 216.5 216.1 215.9 217.9 217.6 218.1 221.8 226.1 227.2 227.4 229.1 232.1 233.9 235.1 235.4 236.1 237.5 239.7 242.6 246 247.4 250.6 254.2 255.1 255.7 262 265.4 269.2 271.7 276.2 280.7 282.4 281.8 279.7 276.7 274.7 274 276.1 279 280.2 280.1 284.3 285.3 284.7 284.5 284.8 283 281.6 278.8 274.8 270.4 266.5 265.9 268 268.7 269.2 269.4 270.8 271.2 273.5 273.6 271.6 268.7 263.4 256.7 250.2 244.4 240.5
398 388.8 377.7 369.8 360.5 348.5 336.6 339.5 320.9 319 317.8 320.8 329.1 332 335.8 333 322.8 307.4 317.8 342.2 347.4 346.9 348.2 347.2 343.6 337.4 326.3 305 280.3 265.1 260.5 259 257.5 260.9 263.6 267.7 270.9 274.2 278.6 277.8 279.9 284.3 287.6 291.3 295.6 297.7 299.4 296.8 289.1 276.9 269.6 260.6 249.5 236.5 230.8 225.8 219.6 214.2 215.4 216.2 213.9 209.7 209.7 207 205.3 204.5 201.8 198.6 197.4 197.1 196.6 194.2 176.1 185.5 192.7 195.8 200.1 195.5 190.1 181.1 168.4 160.6 173.4 176.4 179.6 183.1 186.9 187.3 176.4 170.9 170 168.5 167.1 166.7 165.5 163.4 160.9 163.9 164.9 159.8 152.2 147.5 141.3 127.8 117.4 102 92 110.5 127.1 128.8 131.9 142 148.5 154 160.4 167.7 178.3 187.1 194 203.7 212.4 218 220.4 219.4 218.7 217.3 215.8 215.9 217.3 218 218.6 218.6 216.9 216.4 212 214.5 214.5 212.3 218.8 222.1 222.6 223 224.9 227.3 230.9 232.6 233.5 232.3 234.9 235.6 238.4 239.5 241.9 245.8 249.4 251.3 252.6 259.4 263 267.3 270.4 274.2 276.9 278 277.3 275 273.5 268.7 268.6 270.2 273.6 274.6 276.1 279.7 280.1 279.9 280.3 281 280.1 278 276 271.5 267.6 263.1 257.2 261.8 262.3 262.9 264.1 264.5 266.7 266.7 267.5 266.5 263.7 258.9 250.6 245 239.4 237.1
395.3 386.4 382.9 372.4 362.4 352.9 340.5 331.8 324.2 316.3 297 302.1 312.1 318.3 319.5 317.8 312.5 296.3 299.6 324.1 338.9 340.4 340.1 341.2 337.3 333.6 326.9 312.9 288.3 267.4 258.8 257 256.2 255.4 257.9 259.9 261.9 264.8 266.5 268.8 271.4 272.5 276.1 281.5 283.8 287.7 290.2 287.6 284 275.4 266.1 257 248 237.5 231.5 227.4 219.1 219.2 218 213.1 207.5 201.5 200 201.9 202.5 202.8 200.7 195.5 194.5 194.6 194.1 189.7 175.4 178.9 188.6 188.7 188.3 188 183.8 176.9 168.7 157.7 169.8 172.9 175.1 177.8 176.8 175.4 170.7 168.8 167.8 166.5 165 163.6 162.4 161.2 158.4 162.4 165.4 161.1 153.3 146.1 141 131.5 116.1 98.1 95 114 127.9 134.4 138.1 146.4 153.8 160 165.7 173.8 184 191.9 200.5 208.1 212.8 214.7 215.6 216.5 215.1 212.9 213.6 216.5 218.3 219.9 220 218.5 215.3 212.3 210.3 212 212.6 212.6 216.8 219.3 218.3 219.1 221.8 223.8 227 229.4 230.3 228.8 231.8 232.1 234.9 236.3 238.3 241.4 244 234.9 250.4 255.5 260.6 264 268.2 272.7 273.5 273.8 272.7 270.6 268.2 265.9 263.8 265.8 266.6 267.3 270.7 273.4 274.4 274.8 275.4 276.7 276.3 274.2 272.1 266.6 262.5 258.4 246.1 254.4 255.1 255.9 257.3 257.9 259.5 259.5 261.5 261.3 258.4 255.4 248.1 241.7 234.9 234.1
393.6 376.4 374.7 368.3 361.6 355.7 342.8 331.9 323.4 309.3 306.1 281.9 287 290.3 295.9 300.1 296.6 284.3 280.3 305 324.4 330.8 332.8 335.6 334.7 333.1 329.4 321.3 299.9 276 261.4 257.2 257.4 256.4 252.2 250.4 253.1 254.9 260 261.7 262.5 263.8 267.5 270.2 273.1 277.9 278.9 279.3 275 267 259.9 250.5 243.9 236.3 231.8 228.3 227.2 227.6 225.7 223.3 214 213.3 207 198.7 191.8 199.1 197.9 195.9 191.6 187.1 192.6 186.3 179.4 168.7 180.9 182.5 183.4 182.2 178.5 173.6 167.8 157.3 164.7 169 170.8 173.1 172.2 170.1 169.1 168.4 167.5 167.4 166.6 165.3 164.7 164.3 160.3 157.6 162.9 162.9 156.2 149.7 143.4 127 113.3 95.2 98.5 116.3 130.6 138.8 144.1 151.3 159.6 167.9 173 180.2 193 200.4 206.4 209.9 210 211 212.2 211.6 211 212.4 215 217.9 218.4 217.5 216.3 216.5 211.4 209.3 206.7 209.5 208.8 211 214.4 217.6 217.7 217.5 219.2 220.9 223.7 225.8 226.7 225.9 228.4 228.1 230.3 233.2 235.7 235.8 232.2 237.4 246.5 251.8 257.1 261.5 266 267.6 269 269.7 268.9 266.8 264.5 261.8 256.2 259.3 259.8 261.4 264.5 267.6 269.3 269.1 270.3 271.4 270.8 269.7 267.9 261.1 256.5 251.9 241.8 246.6 247.3 248.2 249 250.7 253.5 254.5 256.1 255.7 253.5 250.9 245.3 238.9 232.7 228.1
389.3 381.2 374.5 366.5 360.9 356.7 341.5 328.5 319.4 307.7 294.1 280 265.1 265.1 272.5 278.2 272.6 264.3 268.6 288.2 306.3 318.4 325 328.3 331.4 332.3 330.3 325.5 312.2 287.6 268 259.6 258.5 258.3 256.3 255.6 250.3 247.7 250.5 253.3 255.7 256.9 259.7 263 266.6 270 269.9 268.5 262.1 257.1 252.2 245.2 241 236 231.7 229.9 229.3 230.3 230.5 230.2 224.9 217.1 211.3 204.8 199.6 191.5 184.5 187.3 185 185.2 186.1 183.4 182.7 172.9 171 174.4 178.2 176.1 172.8 168.7 165.7 154.3 161.5 165.6 168 169.1 168.2 167 167.2 168.6 168.5 166.7 166 165.2 164.9 162.8 160.6 157.6 156.3 160.7 154.2 146.4 141.8 127.9 110.4 92.6 101.4 116.6 131 141.6 146.9 154.7 165.7 175.1 182.8 188.8 202.2 208.8 210.6 210.2 208.6 209.7 212.3 211.9 212.9 214.1 216 217 217.1 214.2 214.5 212.4 208.6 206.7 204.7 205.3 203.9 208.4 211.8 213.4 215.3 216.3 217.4 218.6 221.2 222.8 222.7 222.9 225 225 227 230.1 230.9 229.5 220.2 233.9 243.4 249.8 255.3 259.6 260.8 261.9 262.4 264.9 265.4 263.3 259.5 257.5 253.2 253.3 252.4 252.2 258.1 260.2 265.6 264.8 267.3 266.8 267.1 265.1 264.5 258.3 251 245 239.8 238.2 240.1 240.9 243 245 247.2 250.8 252.6 251.9 249.9 247 242.3 236.7 230.8 221.5
392.1 384.2 373.2 364 356.3 349.1 339.1 327.6 315.1 299.7 279.7 266.6 258.3 253 250.2 251.2 253.1 258.7 259.3 273.1 286.8 300 313 321.8 326.9 329.7 330.2 327.4 321.3 300.8 277.9 262.8 260.2 255.8 253.1 254 254.2 252.1 243.4 244.2 249.1 251.6 251.9 256.7 260.9 263.6 264.8 261.2 255.1 249 245.1 241.1 238 234.5 232.2 231.5 231.7 232.4 234.8 236.3 229.5 220.3 213.5 206.9 202.9 198.3 195.6 192.1 183.1 181.3 175.1 172.4 171.7 167.3 162.5 161.4 163 161.4 165 160.5 161.1 154.2 155.6 162.7 164.4 166.3 167.2 166 165.3 166.6 167 165.5 164.8 164.1 162.2 160.9 159.3 158.5 157.5 144.8 146.4 137.3 133.1 119.9 109.2 92 102.5 115.9 130.3 141.8 147.3 157.4 167.5 178.1 188 197.1 208.5 213.5 211.5 207.8 207.9 209.3 211.2 212.3 214.2 215.5 215.7 214.5 215.4 214.1 212.7 209.7 205.9 203.7 200.4 200.5 198.5 205.9 208.6 210.3 209.1 213.2 215 216.6 217.9 219.1 218.7 219.4 221.3 220.7 223.8 225.8 226.7 218.6 228.1 234.8 242.4 248.6 253.3 255.5 255.4 258.1 257.7 260.7 261.6 260.3 256.9 254.7 251.4 246.4 246.9 248.3 251.6 254.7 256.7 257.9 258.6 259.4 261.3 261.4 261.5 256.1 247.4 240.2 235.7 230.2 234.5 236.1 238.4 240.7 244.9 248.7 250 249.7 247.3 243.5 239.3 234.5 229 222.5
389.4 386.1 374.6 363.4 350.1 343.2 335.4 324.7 305.9 285.7 266.3 258.4 250.5 247 244 243.3 247.4 250.9 250.4 257.3 268.3 280.7 298.7 314 322.3 328.1 330.7 330.8 326.4 313.8 289.6 270.8 263.3 257.6 251.7 248 249 250.3 248 241.5 238.8 242.5 247 250.5 255.1 258.2 257.9 253.7 247.5 244.3 241.2 238.7 237.4 235.3 233.2 232.9 234.5 236.9 241.7 241 232.5 222 215.4 211 206.3 203 199.9 195.8 191.5 188.6 185.6 184.3 175 179.8 170 168.9 161.8 159.2 154.5 154.3 151.8 150.7 155.3 159.3 162.3 165.6 166.9 165.2 164 164.1 164.3 163.8 163.9 162.8 161.2 159.2 158.4 159.8 159.8 153.1 143.2 131.2 119.5 117.1 107.6 92 103.4 116.7 130.2 141.6 146.9 153.1 165.8 179.6 190 198.4 208.2 213.6 207.9 205.1 205.5 208.1 209.5 210.6 212.8 213.9 213.7 212.3 212.4 212.3 208.7 205.4 201.8 199.7 196.4 195.5 199.1 202.3 204.8 206 207.1 209.6 211.9 213.1 214.4 215.5 214.1 217.1 217.4 217.9 219.5 216.1 220.1 228.3 230.6 234.4 240.6 246.1 249.8 251.3 253.1 253.9 254.3 256.3 257.9 256.4 254.3 251.9 247.5 240.6 240.4 242.2 245.4 247.9 250.1 250.5 252.7 254.2 255.4 255.8 257.2 255.2 246.8 239 233.6 218.2 229.9 231.8 230.3 238.4 242.6 246.6 248 247.7 244.8 240.2 236 231.5 226.5 221.3
385.2 383.4 373.2 359.7 345.2 341.1 324.5 304.1 288.1 268.6 267 253 245.4 241.4 240 239 242.3 244.4 244 247.8 259 271.1 283.9 305.3 318.5 327.3 331.7 333 330.4 321.5 300.5 279.4 264.7 259.3 251.6 245.8 243 244 244.2 242.2 242.7 235.9 239 247.8 250.5 250.5 249.5 246.2 242.1 239.4 237.8 236 235.1 234.9 234.3 235.6 237.8 242.9 245.9 243.1 233.7 223.9 216.5 211.1 208.8 205.9 200.9 196.2 191.9 189.3 188.9 185.5 182.9 178.3 178.1 175.1 174 171.1 168.1 164.8 158.9 154.9 147.3 157.8 164.5 167.1 167 165.4 163.3 163.2 162.2 162.2 162.8 162.3 160.8 159.2 158 155.4 153.8 153.5 148.1 141.2 125.7 116.3 106.1 92 103.2 116.1 128.6 139.9 145.7 152 163.5 176.5 187.3 194.7 200.5 205.8 204.8 203.4 203.2 205.2 207.6 209.3 210 210.6 210.6 209.8 209.3 207.7 204.7 200.4 195.9 193.8 192.1 191.7 195.3 197 199 199.4 202.3 205.9 207.3 208.8 210.2 210.9 212.2 214.3 213.4 213.2 210 219.5 224.7 228.9 231.7 233.4 237.4 241.7 245.5 248.9 250.7 251.7 250.5 250.6 252.3 251.1 248.7 246.7 242.4 236.9 233 235 239.4 241.7 244.4 245.5 248 249.1 249.5 250.7 251.9 250.4 247.1 237.9 232.6 225.8 215.9 225 232.5 237.7 241 243.3 244.5 244 241.2 236.5 232.6 228.8 224.4 219
