ncols 200
nrows 98
xllcorner 110000
yllcorner 931250
cellsize 50
1.3 2 1.8 0.8 -0.3 -1.7 -1.7 -1.7 -1.7 -1.7 -1.7 -1.7 -1.7 -1.7 -1.7 -1.7 -1.7 -1.7 -1.7 -1.7 -1.7 -1.7 -1.7 -1.7 -1.7 -1.7 -1.7 -1.7 -1.7 -1.7 -1.7 -1.7 -1.7 -1.7 -1.7 -1.7 -1.7 -1.7 -1.7 -1.7 -1.7 -1.7 -1.7 -1.7 -1.7 -1.7 -1.7 -1.7 -1.7 -1.7 -1.7 -1.7 -1.7 -1.7 -1.7 -1.7 -1.7 -1.7 -1.7 -1.7 -1.7 -1.7 -1.7 -1.7 -1.7 -1.7 -1.7 -1.7 -1.7 -1.7 -1.7 8.2 -1.7 -1.7 -1.7 -1.7 -1.7 -1.7 -1.7 -1.7 -1.7 -1.7 -1.7 -1.7 -1.7 -1.7 -1.7 -1.7 -1.7 -1.7 -1.7 -1.7 2.7 -1.7 -1.7 -1.7 -1.7 -1.7 6.6 5.7 3.1 3.1 3.1 3.1 3.1 5.1 3.1 7.1 6.9 7 10.5 8.5 5.1 15.7 18.3 15.8 18.9 20.7 11.2 8.9 14.6 18.6 24.2 22.9 17.2 15.1 15.5 17.2 17.2 12.4 12.5 13.4 16.2 19 20 24.9 23.6 32.4 27.7 42.1 46.8 50.5 54.5 51 45.9 39.5 43.1 48.6 50.8 45.8 36.9 29.7 22.5 20.9 20.9 20.9 21.6 20.9 20.9 20.9 21.4 20.9 24.8 37.4 34.4 27.6 13.1 7.5 3.3 -1.7 -1.7 -1.7 -1.7 -1.7 11.3 21.4 19.4 16 10.8 1 -1.7 -1.7 -1.7 -1.7 -1.7 -1.7 -1.7 -1.7 -1.7 -1.7 -1.7 -1.7 -1.7 -1.7 -1.7 -1.7 -1.7 -1.7 -1.7 -1.7
2.6 1.9 1.6 2 0.9 -0.3 -1.7 -1.7 -1.7 -1.7 -1.7 -1.7 -1.7 -1.7 -1.7 -1.7 -1.7 -1.7 -1.7 -1.7 -1.7 -1.7 -1.7 -1.7 -1.7 -1.7 -1.7 -1.7 -1.7 -1.7 -1.7 -1.7 -1.7 -1.7 -1.7 -1.7 -1.7 -1.7 -1.7 -1.7 -1.7 -1.7 -1.7 -1.7 -1.7 -1.7 -1.7 -1.7 -1.7 -1.7 -1.7 -1.7 -1.7 -1.7 -1.7 -1.7 -1.7 -1.7 -1.7 -1.7 -1.7 -1.7 -1.7 -1.7 -1.7 -1.7 -1.7 -1.7 3.8 2 -1.7 7 2.8 -1.7 -1.7 -1.7 -1.7 11.7 -1.7 -1.7 -1.7 -1.7 -1.7 -1.7 -1.7 -1.7 -1.7 -1.7 -1.7 -1.7 -1.7 -1.7 -1.7 -1.7 -1.7 -1.7 -1.7 5.8 11 12.2 15.5 4.8 3.1 3.1 3.1 3.1 6.6 13.7 8.4 15.3 19.5 13.8 5.1 12.6 18.3 17.7 18.9 17.1 13.9 10.4 16.9 21.5 26.3 26.3 20.1 16.6 17.2 19.1 20 16.7 16.1 13.3 18.1 20.6 23.7 26.2 25 36.4 30.6 43.1 50.1 51.9 55.9 60.5 50.6 50.1 57.7 57.8 52.8 45.3 41.8 33.6 30.5 20.9 20.9 20.9 29.8 28.2 20.9 20.9 20.9 20.9 20.9 34 32.7 23.2 3.3 -1.7 -1.7 -1.7 -1.7 -1.7 -1.7 -1.7 -1.7 -1.7 -1.7 8.5 9.4 5.6 -1.7 -1.7 -1.7 -1.7 -1.7 -1.7 -1.7 -1.7 -1.7 -1.7 -1.7 -1.7 -1.7 -1.7 -1.7 -1.7 -1.7 -1.7 -1.7 -1.7
3.7 3.9 2 2.8 1.7 1.3 -1.7 -1.7 -1.7 -1.7 -1.7 -1.7 -1.7 -1.7 -1.7 -1.7 -1.7 -1.7 -1.7 -1.7 -1.7 -1.7 -1.7 -1.7 -1.7 -1.7 -1.7 -1.7 -1.7 -1.7 -1.7 -1.7 -1.7 -1.7 -1.7 -1.7 -1.7 -1.7 -1.7 -1.7 -1.7 -1.7 -1.7 -1.7 -1.7 -1.7 -1.7 -1.7 -1.7 -1.7 -1.7 -1.7 -1.7 13.1 -1.7 -1.7 -1.7 -1.7 -1.7 -1.7 -1.7 -1.7 -1.7 -1.7 -1.7 -1.7 -1.7 -1.7 3.2 8.2 5.8 6.4 10.1 -1.7 -1.7 -1.7 -1.7 11.8 10.1 -1.7 -1.7 -1.7 -1.7 -1.7 -1.7 -1.7 -1.7 -1.7 -1.7 -1.7 5.9 3.7 2.9 -1.7 -1.7 -1.7 -1.7 9.9 12.7 14.9 17.4 7.8 3.1 3.1 3.1 3.1 3.1 10 15.8 21.7 21.5 15.5 6 10.1 11.3 12.5 16 16.8 15.9 14 16.9 22.4 24.1 24.3 23 18.9 19 20.9 23.1 20.3 18.4 17.8 15.7 21.8 27 25.5 26.4 35.6 33.4 42.2 49.1 50.5 53.5 57.4 55.6 60.9 59.3 56.5 49.8 44.5 42 40.6 40.3 33.2 20.9 20.9 27.7 37.8 26.9 24.4 20.9 20.9 26.5 30.3 34.5 26 7.8 -1.7 -1.7 -1.7 -1.7 -1.7 -1.7 -1.7 -1.7 -1.7 -1.7 -1.7 -1.7 -1.7 -1.7 -1.7 -1.7 -1.7 -1.7 -1.7 -1.7 -1.7 -1.7 -1.7 -1.7 -1.7 -1.7 -1.7 -1.7 -1.7 -1.7 -1.7 -1.7 -1.7
3.6 4.7 3.4 6.5 5.2 3 1.7 0.3 -1.7 -1.7 -1.7 -1.7 -1.7 -1.7 -1.7 -1.7 -1.7 -1.7 -1.7 -1.7 -1.7 -1.7 -1.7 -1.7 -1.7 -1.7 -1.7 -1.7 18.5 13.5 -1.7 -1.7 -1.7 -1.7 -1.7 -1.7 -1.7 -1.7 -1.7 -1.7 -1.7 2.7 -1.7 -1.7 -1.7 -1.7 -1.7 -1.7 -1.7 -1.7 -1.7 -1.7 -1.7 20.2 -1.7 -1.7 -1.7 -1.7 -1.7 -1.7 -1.7 -1.7 -1.7 -1.7 -1.7 -1.7 -1.7 -1.7 7.6 8.9 6.9 4 5.4 -1.7 -1.7 -1.7 -1.7 -1.7 16.3 13.8 1.3 -1.7 -1.7 -1.7 -1.7 -1.7 -1.7 -1.7 -1.7 -1.7 -1.7 9.2 10.9 11.2 6.9 -1.7 -1.7 11.6 14.4 15.3 17.3 14 3.1 3.1 3.1 3.1 3.1 11.9 19.3 23 23.9 18.8 5.7 9.8 11.4 14.8 16.6 21.5 16.4 15.9 14.2 21.5 25.2 26.1 25.8 20.8 20.1 23.7 25.2 23.4 21.6 18.7 15.7 20.3 32.5 26.2 26.9 31.5 32.1 35.7 46.3 48.6 49.7 52.8 62.8 62.6 60.3 55.7 53.7 45.4 46.7 51.5 48.1 38.6 25.3 22.7 21.8 42.5 33.7 31.5 24.5 23.8 26.9 31.5 31.2 26.9 9.9 -1.7 -1.7 -1.7 -1.7 -1.7 -1.7 -1.7 -1.7 -1.7 -1.7 -1.7 -1.7 -1.7 -1.7 -1.7 -1.7 -1.7 -1.7 -1.7 -1.7 -1.7 -1.7 -1.7 -1.7 -1.7 -1.7 -1.7 -1.7 -1.7 -1.7 -1.7 -1.7 -1.7
3.4 3.7 6.2 6.6 6.2 8 3.6 2.4 1.4 0.4 -1.7 -1.7 -1.7 -1.7 -1.7 -1.7 -1.7 -1.7 -1.7 -1.7 -1.7 -1.7 -1.7 -1.7 -1.7 -1.7 -1.7 -1.7 27.2 21.8 -1.7 -1.7 -1.7 -1.7 -1.7 -1.7 -1.7 -1.7 -1.7 -1.7 -1.7 -1.7 -1.7 -1.7 -1.7 -1.7 -1.7 -1.7 -1.7 -1.7 -1.7 -1.7 -1.7 23 12.1 -1.7 -1.7 -1.7 -1.7 -1.7 -1.7 -1.7 -1.7 -1.7 -1.7 -1.7 -1.7 -1.7 -1.7 -1.7 -1.7 -1.7 -1.7 6.6 -1.7 -1.7 -1.7 -1.7 11.9 10.6 7.7 5.7 2.8 6.8 4.3 0.8 -1.7 -1.7 -1.7 -1.7 -1.7 6.2 15.9 12.9 7.1 -1.7 9.7 11.1 15.4 16.2 12.7 11.8 7.4 4.8 5.1 3.1 3.1 3.1 13.9 18.7 24.5 12.2 5 6.8 13 19.1 15.4 18.6 15 14.9 14.1 18 28.5 30 29.7 23.1 20.8 24 28 28.2 24.1 19.7 16.6 18.1 31.5 30 27.2 27.4 27.1 30.4 41.2 50.7 50 54.6 60.6 59.6 55.1 55.7 49.4 48.6 50 53 49.3 40.7 28.8 24.7 20.9 27.1 30.7 36.4 33.1 27 23 29.2 30 31.3 8.8 -1.7 -1.7 -1.7 -1.7 -1.7 -1.7 -1.7 -1.7 -1.7 -1.7 3.4 -1.7 -1.7 -1.7 -1.7 -1.7 -1.7 -1.7 -1.7 -1.7 -1.7 -1.7 -1.7 -1.7 -1.7 -1.7 -1.7 -1.7 -1.7 -1.7 -1.7 -1.7 0.4
4.2 3.7 7 4.6 5 5.3 8.1 5.7 3.4 2.9 2.1 1.3 0.3 -1.7 -1.7 -1.7 -1.7 -1.7 -1.7 -1.7 -1.7 -1.7 -1.7 -1.7 -1.7 -1.7 -1.7 -1.7 31.2 26.9 11.3 -1.7 -1.7 -1.7 -1.7 -1.7 -1.7 -1.7 -1.7 -1.7 -1.7 -1.7 -1.7 -1.7 -1.7 -1.7 -1.7 -1.7 -1.7 -1.7 -1.7 -1.7 -1.7 20 19.2 -1.7 -1.7 -1.7 -1.7 -1.7 -1.7 -1.7 -1.7 -1.7 -1.7 -1.7 -1.7 -1.7 -1.7 -1.7 -1.7 -1.7 -1.7 9.1 -1.7 -1.7 -1.7 -1.7 5.6 10.1 17.5 9 6.2 11.6 11.3 9.3 -1.7 -1.7 -1.7 -1.7 -1.7 -1.7 5 12.4 7 -1.7 13.8 13 12.7 13.7 12.9 10.3 11.6 9.3 12.4 10.2 3.1 3.1 12.7 17.7 20.3 11.7 3.1 5 10.3 16.4 12.1 13.3 18.9 20.4 16.6 20.8 23.9 33.5 33.5 25.4 21.6 23.4 29.6 32.5 26.4 21.4 18.8 17.6 27.6 28.2 27.4 27.6 27.2 30 40.6 47.3 50.5 52.6 56 58.3 53.7 52.9 58 57.9 54.6 50.5 50.5 40.6 32 29.8 20.9 20.9 25.5 37.1 35.8 24.7 23.4 29 30.6 28.2 19.8 8.9 -1.7 -1.7 -1.7 -1.7 -1.7 -1.7 -1.7 -1.7 3.9 2 2.9 7 -1.7 -1.7 -1.7 -1.7 -1.7 -1.7 -1.7 -1.7 -1.7 -1.7 -1.7 -1.7 -1.7 -1.7 -1.7 -1.7 -1.7 -1.7 -1.7 4.5
4.4 4.8 3.9 4 4.3 3.8 5.6 7.7 5 7.6 3.4 2.6 2.2 1.9 1.4 0.8 0.3 0 -0.1 -1.7 -1.7 -1.7 -1.7 0 0.1 0.3 0.6 2 34.8 26.3 9.5 -1.7 -1.7 -1.7 -1.7 -1.7 -1.7 -1.7 -1.7 -1.7 -1.7 -1.7 -1.7 -1.7 -1.7 -1.7 -1.7 -1.7 -1.7 -1.7 -1.7 -1.7 34.4 26.4 17.6 -1.7 -1.7 -1.7 -1.7 -1.7 -1.7 -1.7 -1.7 -1.7 -1.7 -1.7 -1.7 -1.7 -1.7 -1.7 -1.7 -1.7 -1.7 3.7 -1.7 -1.7 -1.7 8.5 9 7.6 17.3 16 12.1 13.4 13.9 16 7.1 8.6 -1.7 -1.7 -1.7 -1.7 2 8.3 -1.7 -1.7 17.7 18.3 14.4 13.2 13.2 11.7 16.9 12.7 12.2 11.2 3.1 3.1 3.1 8.2 13.9 5.1 3.1 6.2 12.4 11.1 14 16.4 19.3 21.7 18.5 20.6 25.5 31.8 32.1 30.6 22.5 23.3 32.1 34 29.7 22.1 20.4 18.6 23.2 28.4 27.1 27.7 27.3 28.8 41.1 47.2 54.3 54.4 57.4 58.2 55.3 60.1 64.1 63.6 58.7 55.8 46.6 37.7 35.1 31.1 23.7 20.9 20.9 25 27.2 25.9 20 21.3 25.9 25.7 17.4 10 -1.7 -1.7 -1.7 -1.7 -1.7 -1.7 -1.7 5.9 9.9 8 11.1 16 10.8 4.7 -1.7 -1.7 -1.7 -1.7 -1.7 -1.7 -1.7 -1.7 -1.7 -1.7 -1.7 -1.7 -1.7 -1.7 -1.7 -1.7 -1.7 -1.7
3.3 8.1 3.8 5.8 4.4 4.2 4.3 6.5 4.7 5.6 7.7 3.3 2.1 1.8 2.3 2.2 2.1 2.3 2.3 2.8 1.9 2.7 2.7 2.4 4.1 4.6 9.4 9.8 24.7 20.9 10.8 -1.7 -1.7 -1.7 -1.7 -1.7 -1.7 -1.7 -1.7 -1.7 -1.7 -1.7 -1.7 -1.7 -1.7 -1.7 -1.7 -1.7 -1.7 -1.7 -1.7 -1.7 41.6 31.5 20.8 16.4 -1.7 -1.7 -1.7 -1.7 -1.7 -1.7 -1.7 -1.7 -1.7 -1.7 -1.7 -1.7 -1.7 -1.7 -1.7 -1.7 -1.7 -1.7 1.8 -1.7 -1.7 13.3 15.2 16 17.7 18.6 16.5 13.4 14.1 17.9 15.8 9.2 12.2 7 5.6 4.6 5.2 4.3 -1.7 -1.7 -1.7 17.9 16.5 16.7 16.5 15.1 14.2 11.9 7.8 5.1 3.1 3.1 3.1 3.1 3.1 3.1 8.7 14.2 15.2 9.3 10.2 11 16.8 19 18.6 22.4 24.5 26.1 28.5 30 23.5 24.1 30.9 34 34 24.4 20.5 21.4 21.6 27.2 27.4 27 27.3 29.1 42.9 49.6 56.9 53.8 50.8 52 62.5 62 66 60.7 56.7 51.4 44.4 36.4 34.3 36.7 25.8 20.9 20.9 20.9 20.9 25.3 23.8 16.9 15.3 11.5 15.5 -1.7 -1.7 2 -1.7 4.6 -1.7 -1.7 -1.7 5.6 15.7 13 12.3 15.1 16.4 8.6 -1.7 -1.7 -1.7 -1.7 -1.7 -1.7 -1.7 -1.7 -1.7 -1.7 -1.7 -1.7 -1.7 -1.7 -1.7 -1.7 -1.7 -1.7
3.9 4.4 5.1 3.6 10.7 3.9 4.2 3.7 4.9 6.2 6 6.5 2.4 4.8 3.4 2.6 2.7 6.4 6.8 3.9 10.8 10.8 13.1 10.5 6.7 8.7 10.1 9 23.3 22.4 18.7 10.1 -1.7 -1.7 -1.7 -1.7 -1.7 -1.7 -1.7 -1.7 -1.7 -1.7 -1.7 -1.7 -1.7 -1.7 -1.7 -1.7 -1.7 -1.7 -1.7 12.4 45 37 23.5 18.5 -1.7 -1.7 -1.7 -1.7 -1.7 -1.7 -1.7 -1.7 -1.7 -1.7 -1.7 -1.7 -1.7 -1.7 -1.7 -1.7 -1.7 -1.7 4 -1.7 -1.7 -1.7 19 17.9 21.8 24.8 21.6 19 16.9 17 15.5 13.2 17.1 11 11.8 10.8 11.2 7.5 -1.7 -1.7 -1.7 15.8 15.8 17.5 20.9 18.3 14.6 12.3 9.1 5 3.1 3.1 3.1 3.1 3.1 3.1 11.3 19.3 17.7 16.1 9.3 9.3 9.3 16.1 19.1 23.3 24.4 26.4 29.5 27.1 23.4 25.2 31.3 35.1 31.6 24 20.2 18.2 23.2 26.7 26.7 28.5 27.5 28.3 42.9 49.5 52.8 52.4 47.7 54.9 61.1 59.3 64.2 59.4 57.6 49.9 40.9 35 33.8 37.3 35.3 20.9 20.9 20.9 20.9 27.6 28.2 26.4 19.2 11.1 14.1 2.7 -1.7 3.9 -1.7 6 5.6 -1.7 -1.7 3 21.2 18.5 17.1 17.3 21.2 12.7 -1.7 -1.7 -1.7 -1.7 -1.7 -1.7 -1.7 -1.7 -1.7 -1.7 -1.7 -1.7 -1.7 -1.7 -1.7 -1.7 -1.7 -1.7
3.2 3.6 4.5 18.9 14.1 5.3 3.9 4.5 4.3 5 5.1 4.7 6 5.9 6.1 7.1 6.9 7.1 5 4.3 25.9 36.5 28.4 21.7 7.8 11.1 7.9 2.9 8.1 20.2 24.1 14.2 -1.7 -1.7 -1.7 -1.7 -1.7 -1.7 -1.7 -1.7 -1.7 -1.7 -1.7 -1.7 -1.7 -1.7 -1.7 -1.7 -1.7 -1.7 1.1 14.4 40.3 36.3 20.8 22.6 -1.7 -1.7 -1.7 -1.7 -1.7 -1.7 -1.7 -1.7 -1.7 -1.7 -1.7 -1.7 -1.7 -1.7 -1.7 -1.7 -1.7 -1.7 -1.7 -1.7 -1.7 -1.7 16.7 21.1 21.2 23 26.6 27 19.4 18 16.6 16.1 18.5 15.9 15.2 16.8 12.7 10.4 9.4 -1.7 10.3 13.1 14.5 15.5 16.5 15.7 16.7 15.7 13.4 11.2 8 3.1 3.1 3.1 3.1 3.1 3.3 14.4 14.8 15.9 14 9.3 9.3 9.3 19.5 21.8 20.8 24.2 27.4 25.2 23.8 24.8 32.1 33.3 28.8 22.1 19.7 16.8 19 27 25.6 28 27.4 26.3 40.2 46.7 45.8 45.7 47.7 52.3 49.7 54.1 54.8 55.6 58.2 50.4 37.2 33.4 33 37.2 50.2 29.2 25.1 24.4 24.9 27.1 29.5 31.5 29.6 28.1 12 2 2 1 -1.7 1.5 8.5 6.6 0.9 2.2 11.5 19.5 18 17.9 18.9 13.2 -1.7 -1.7 -1.7 -1.7 -1.7 -1.7 -1.7 -1.7 -1.7 -1.7 -1.7 -1.7 -1.7 -1.7 -1.7 -1.7 -1.7 -1.7
3.2 3.9 22.1 26.2 15.7 8.3 4.5 4.7 4.4 5.3 4.5 4 4.8 7.2 5.8 5.5 6 14.8 12.4 47.2 43.9 45.2 36.5 31 14.1 22.8 11.3 2.7 3 20.9 22 18.7 -1.7 -1.7 -1.7 -1.7 -1.7 -1.7 -1.7 -1.7 -1.7 -1.7 -1.7 -1.7 -1.7 -1.7 -1.7 -1.7 -1.7 -1.7 -1.7 6.1 30.4 32.3 17.6 23.4 23.7 -1.7 -1.7 -1.7 -1.7 -1.7 -1.7 -1.7 -1.7 -1.7 -1.7 -1.7 -1.7 -1.7 -1.7 -1.7 -1.7 -1.7 -1.7 -1.7 -1.7 -1.7 11.9 23.3 25.9 28 30.4 30.5 26.4 21.6 22 20.5 23.9 23 18.6 22.9 16.7 11.8 12.9 -1.7 12.8 18.2 16.4 15.6 16.2 16.5 18.9 17.8 16.9 13.5 7.4 3.1 3.1 3.1 3.1 3.1 7.7 6.6 12.2 14.7 14 9.3 9.3 9.3 12.7 13 17.2 22.1 22 23.6 23.8 23.7 28.4 30.3 28.3 20.3 18 12.7 16.6 22.4 26 27 26.4 25.2 35.4 40.2 47.2 45.4 45.7 50.5 44.4 43.8 46 51.2 62.9 60 50.7 33.9 32.4 37.8 44.9 34.9 23.9 23.2 21.6 25 27.4 27 31.3 27.9 23.6 10.9 8.8 3.1 1.1 5.4 10.5 9.9 2 3.2 6.8 20.2 16.4 17.9 21 18.3 -1.7 -1.7 -1.7 -1.7 -1.7 -1.7 -1.7 -1.7 -1.7 -1.7 -1.7 -1.7 -1.7 -1.7 -1.7 -1.7 -1.7 -1.7
3.3 8.9 26.3 25.6 21.2 13.9 4.4 4.8 4.9 4.5 4.2 4.3 4.8 6.8 4 5.2 21.4 27.5 26.6 52.8 42.7 45.7 49.8 35.2 19.7 29.3 15.6 7.1 3.1 18.3 33.6 20.3 15.2 9.9 17.6 -1.7 -1.7 -1.7 -1.7 -1.7 -1.7 -1.7 -1.7 -1.7 -1.7 -1.7 -1.7 -1.7 -1.7 -1.7 -1.7 3.7 25.9 20.4 8.2 7.8 19.8 8.4 -1.7 -1.7 -1.7 -1.7 -1.7 -1.7 -1.7 -1.7 -1.7 -1.7 -1.7 -1.7 -1.7 -1.7 -1.7 -1.7 -1.7 -1.7 -1.7 -1.7 3.8 16.1 22.3 31 33.9 31.7 25.8 23 23.3 23.3 26.9 29.5 22.9 29.5 23.7 11.5 6.5 -1.7 13.7 17.5 17.9 16.5 16.7 19.4 21 21.1 18 15.8 11.3 3.1 3.1 3.1 3.1 3.1 3.1 3.1 19.2 18.2 12.2 9.3 9.3 9.3 9.3 9.3 15 17.7 20.5 22.2 22.9 23.2 27.9 25.7 22.6 16.5 13.8 10.3 11.6 16.9 19.7 19.8 22.3 23.8 27.6 36.9 47.7 42.4 39.8 39.1 40.3 43.8 46.5 52.4 62.7 67.5 53.8 37.6 32 33.8 37.5 37.8 23.7 23.2 21.6 21.6 21.6 29.4 26.8 25.8 22.2 22.6 16.4 16.4 5.8 11.2 13.1 17.4 10.5 3.7 5 7.1 10.5 11.4 21.2 20.1 -1.7 -1.7 -1.7 -1.7 -1.7 -1.7 -1.7 -1.7 -1.7 -1.7 -1.7 -1.7 -1.7 -1.7 -1.7 -1.7 -1.7 -1.7
3.2 7.3 33 27.6 31.5 21.4 5.2 7.4 5.7 4.6 7 5.5 4.3 6.2 4.2 4.7 32.9 29.7 31 61.7 45.4 42.9 47.7 42.1 27.6 30 38.1 10.3 3.4 8.8 30.2 28.2 21.2 16.6 21.6 -1.7 -1.7 -1.7 -1.7 -1.7 -1.7 -1.7 -1.7 -1.7 -1.7 -1.7 -1.7 -1.7 -1.7 -1.7 -1.7 -1.7 18.2 17.8 6.9 6.5 9.2 8.1 -1.7 -1.7 -1.7 -1.7 -1.7 -1.7 -1.7 -1.7 -1.7 -1.7 -1.7 -1.7 -1.7 -1.7 -1.7 -1.7 -1.7 -1.7 -1.7 -1.7 8.9 6.1 22.5 35.8 39.8 38.5 30.2 24.5 26.8 26.6 26.6 30.7 26.9 24.4 21.5 9.3 2.1 2 14.1 20.5 23.2 21.2 20.4 22.5 21.6 19.6 18.6 15 12 6.9 3.1 3.1 3.1 3.1 3.1 3.1 15.1 21.4 19.6 14.7 12.9 9.3 9.3 12.3 15 17.6 19.3 20.7 22.5 23.4 25.9 26.9 24.4 18.3 14.4 10.9 9.4 13.7 16.6 16.9 19.9 21 23.7 30.1 36.1 37 38.1 38.4 39.9 46 46 47.5 53.7 62 59.3 44 29 29 31.7 37.8 24.2 23.5 22.3 21.6 21.6 34.3 30.3 25.6 26.8 26.3 20.4 9.4 13.7 17.7 15.8 22.9 16.7 6 4.1 5.4 6.5 8.4 21.7 21.2 5.9 -1.7 -1.7 -1.7 -1.7 -1.7 -1.7 -1.7 -1.7 -1.7 -1.7 -1.7 -1.7 -1.7 -1.7 -1.7 -1.7 -1.7
19.8 16.1 33.8 31.3 37.9 26.5 5.1 6.2 5.3 4.9 3.9 4.9 4.1 4.2 4.8 6 25.8 28.8 48.3 65.4 56.4 42.1 50.7 48.7 42.3 33.3 43.5 30.2 7.5 6.9 27.7 29.8 26.1 27.3 19.9 21 -1.7 -1.7 -1.7 -1.7 -1.7 -1.7 -1.7 -1.7 -1.7 -1.7 -1.7 -1.7 -1.7 -1.7 -1.7 -1.7 -1.7 20.2 7.3 7.4 11.2 8.9 10.8 -1.7 -1.7 -1.7 -1.7 -1.7 -1.7 -1.7 -1.7 -1.7 -1.7 -1.7 -1.7 -1.7 -1.7 -1.7 -1.7 -1.7 -1.7 -1.7 -1.7 9.6 23.4 40.1 41 37.6 32.6 26 30.4 26.8 25.7 26.1 24.5 22.3 17.6 10 5 4.5 12.3 18.7 25.7 22.4 17.7 20.1 20.3 23 19.8 13.7 13.3 13.5 9.6 3.1 3.1 3.1 3.3 4.3 4.9 19.6 22.2 17.4 19.9 14.4 9.3 11.7 19.3 17.2 18.1 20.7 22.4 23.3 28.5 29.4 30.4 21.8 18 13 9.4 9.7 15.7 16.4 16 18.7 21.2 25.7 33.3 35.8 37.6 38.2 39.2 43.6 44.7 45.7 46.2 58.4 55.3 38.4 26 24.9 26.3 31.3 30 23.6 27.3 22.7 21.6 22.4 23.4 27.5 30.6 32.4 32.8 10.6 12.1 23.3 19.5 22.3 18.1 8.5 5.6 4.9 4.9 5.8 10.2 11.6 6.7 1.5 -1.7 -1.7 -1.7 -1.7 -1.7 -1.7 -1.7 -1.7 -1.7 -1.7 -1.7 -1.7 -1.7 -1.7 -1.7 -1.7
38.5 19 37.2 39.4 34 26.6 7.1 4.6 4.3 4 4.5 4 3.9 4.5 9.1 8.6 23.8 31.7 47.3 74.6 69.8 48.2 46.9 60 54 38.9 51.6 34.3 19.9 6.9 8.8 20 29.4 33.1 18.5 22.2 -1.7 -1.7 -1.7 -1.7 -1.7 -1.7 -1.7 -1.7 -1.7 -1.7 -1.7 -1.7 -1.7 -1.7 -1.7 -1.7 -1.7 25.5 8.9 4.9 9.9 14.6 10 -1.7 -1.7 -1.7 -1.7 -1.7 -1.7 -1.7 -1.7 -1.7 -1.7 -1.7 -1.7 -1.7 -1.7 -1.7 -1.7 -1.7 -1.7 -1.7 -1.7 10.4 23.5 37.7 43 42.6 39.2 26.9 25.3 25.4 24.7 21.4 26 23.8 16.5 11.7 6.2 8.5 15.6 22.5 25.6 23.4 18.2 18.4 19.1 19.3 22.5 15 16.9 17.8 13.7 4.4 3.1 3.1 7.6 3.1 3.4 9.4 24.6 22.9 21.9 17.8 12.7 14.8 22.2 22.2 19.5 22.5 21.9 22 27.7 29.9 27 24 21.3 16.2 9.6 9.4 14.4 16.8 17.1 15.6 17.6 21.6 32 36.7 39.6 38.5 39.7 45.2 44.4 45.7 44.2 51.4 50.2 35.6 26.7 24.5 24.3 23.9 23.7 23.9 32.1 29.9 21.6 22.4 23.8 32 33.2 41.4 39 19 21.1 31.4 23 21.5 13.7 7.6 5.3 4.9 5.3 4.8 8 13 -1.7 -1.7 -1.7 -1.7 -1.7 -1.7 -1.7 -1.7 -1.7 -1.7 -1.7 -1.7 -1.7 -1.7 -1.7 -1.7 -1.7 -1.7
40.3 32.4 36.7 39.4 32.1 18.4 6.3 4.1 4.2 4.1 6.3 3.9 4.5 4.5 6.2 7.3 20.9 41 43.2 79.8 72.8 47.9 48.1 54.1 51.2 38.4 53.5 50.3 40.9 21.2 4.4 4.6 26.4 30.8 15.7 12.3 10.3 -1.7 -1.7 -1.7 -1.7 -1.7 -1.7 -1.7 -1.7 -1.7 -1.7 -1.7 -1.7 -1.7 -1.7 -1.7 -1.7 19.7 4.9 3.5 8.1 17.4 14.3 10.9 -1.7 -1.7 -1.7 -1.7 -1.7 -1.7 -1.7 -1.7 -1.7 -1.7 -1.7 -1.7 -1.7 -1.7 -1.7 -1.7 -1.7 -1.7 -1.7 -1.7 13.9 33.3 47.2 42.7 37.5 30.1 25.1 22.5 21 20.5 20.8 22.4 16.9 11.9 7.5 6.4 20.2 21 26.1 22 18 19.9 20.4 19.1 18.3 19.1 20.2 20 15.9 4.8 3.1 3.1 5.5 3.1 3.6 5.8 13.8 17.1 18 13 14.8 16.2 24.2 26.5 19.9 19.2 19.9 20.2 28.1 31.5 30.3 26.3 23.9 20 13.4 9.4 13.1 14 15.9 13.3 14.2 18.2 26.7 36.9 41 39.9 39.8 47.1 44.5 43.8 44.2 51.7 42 39.3 28.8 27.4 30.2 28.2 28.5 31.6 33.7 36.8 22.8 25.5 29.8 34.4 30.8 45 40.8 27.3 23.7 32.1 26.1 23.7 21.9 9.6 6.3 5 4.8 5.2 7.1 3.2 -1.7 4.5 -1.7 -1.7 -1.7 -1.7 -1.7 -1.7 -1.7 -1.7 -1.7 -1.7 -1 -1.7 -1.7 -1.7 -1.7 -1.7
39.6 42.2 33 39.1 33 15.2 5.5 4 4.3 4.1 4.1 4.5 4.4 5.3 4.7 5 19.4 48.3 48.6 84.8 73.5 47.6 49.8 53.6 47.3 44.7 53.8 52.9 44 31 5 6.1 13.5 15.8 10.6 7 -1.7 -1.7 -1.7 -1.7 -1.7 -1.7 -1.7 -1.7 -1.7 -1.7 -1.7 -1.7 -1.7 -1.7 -1.7 -1.7 -1.7 7.1 2.8 2.8 10.2 24.9 24.1 14.1 -1.7 -1.7 -1.7 -1.7 -1.7 -1.7 -1.7 -1.7 -1.7 -1.7 -1.7 -1.7 -1.7 -1.7 -1.7 -1.7 -1.7 -1.7 -1.7 -1.7 15.6 32.2 43.1 37.9 31.7 27.4 26.1 25.2 22.6 22.1 20.7 20.5 21.2 13.7 7.8 8.2 15.9 20.5 22.6 21.6 18 18 18.1 20.5 20.9 22.7 21.4 21 19.3 7.5 3.1 3.1 7.7 3.1 3.1 3.1 6.8 5.1 6 4.9 16.2 16.4 18.1 24.7 19.9 17.8 19 19 24.9 28 28.1 27.2 25.9 23.6 16.7 9.4 9.4 11.8 13.7 13.7 12.6 15.2 24.1 35.4 41.1 40.5 40.3 44.3 44.6 44.5 44.2 51.6 50.7 44.9 34.1 31.8 36.9 34.1 36.9 37.5 39.4 42 34.9 29.8 33.5 32.4 32 34.4 30.9 28.2 30.5 30.4 32.1 26.7 30.9 15.2 7.9 5.2 4.7 4.7 9.3 9.3 14.4 14.4 11.5 -1.7 -1.7 -1.7 -1.7 -1.7 -1.7 -1.7 -1.7 -1.7 6.8 4.3 5.6 -1.7 -1.7 -1.7
38.1 42.4 28.7 39.1 28.4 17.5 4 3.7 3.6 3.6 3.7 4.1 4 4.9 4.5 4.4 25.7 41.5 60.1 70.8 67.5 46.5 53.3 61.4 39.6 49.8 47.5 48.7 44.1 35.1 7.9 2.6 1.7 4.5 6.7 -1.7 -1.7 -1.7 -1.7 -1.7 -1.7 -1.7 -1.7 -1.7 -1.7 -1.7 -1.7 -1.7 -1.7 -1.7 -1.7 -1.7 -1.7 6.8 4.4 15.3 16.3 27.6 35.1 21.7 -1.7 -1.7 -1.7 -1.7 4.5 -1.7 -1.7 -1.7 -1.7 -1.7 -1.7 -1.7 -1.7 -1.7 -1.7 -1.7 -1.7 -1.7 -1.7 -1.7 15.5 23.4 39.5 35.9 29.3 29 29.1 31.6 27.6 25.3 23.3 20 23 16.4 8.7 11.6 16.5 22.4 25.3 21.4 18.6 18 21.8 22.4 25.3 21.5 19.9 18.8 13.1 6.8 3.1 3.1 7.4 3.7 3.1 3.1 3.1 3.2 3.1 3.4 3.1 13.8 13.7 16.1 16.9 17.2 16.4 19 18.6 23 26.9 24.1 25 26.9 19.5 9.2 9.4 9.4 11 12.5 11.9 13.9 21.9 32 36.2 38.2 39.2 43.7 46 46 44.6 44.2 46.3 51.2 39.1 37.2 43 39.3 38.4 36.1 47.1 53.1 45.5 38.8 40.8 38.3 33.6 44.7 32 38.2 42.2 29.2 41.2 26.8 28.8 23.5 9.9 5.1 4.6 4.2 11.7 15.5 18.9 19.6 8.6 -1.7 -1.7 -1.7 -1.7 -1.7 -1.7 -1.7 -1.7 9.7 15.9 13.8 12.1 9.4 -1.7 -1.7
42.7 35.8 28.5 28.3 24 18.3 4.3 4 3.8 3.6 3.5 3.7 4.1 4.4 4.4 4.7 28.8 35.4 62.4 64.5 57.6 46.1 46.1 52 42.8 28.7 38.6 33 39 28.4 19.1 6.4 -1.7 -1.7 -1.7 -1.7 -1.7 -1.7 -1.7 -1.7 -1.7 -1.7 -1.7 -1.7 -1.7 -1.7 -1.7 -1.7 -1.7 -1.7 -1.7 -1.7 9.4 27.3 19.4 23.8 29.6 39 33.9 20 11.2 -1.7 -1.7 -1.7 7.2 -1.7 -1.7 -1.7 -1.7 -1.7 -1.7 -1.7 -1.7 -1.7 -1.7 -1.7 -1.7 -1.7 -1.7 -1.7 5.6 10.9 25.3 27.3 25.3 29.6 32.4 34.6 33.5 28.4 24.1 21.2 20.2 17.6 10.1 12.1 18.7 21.4 26.5 26.6 17.8 19.1 24.8 25.6 21.9 18.4 15.1 14.8 12 8.4 3.1 3.1 6.9 3.1 3.1 5.1 3.1 3.1 3.1 3.1 4.7 13 18.3 18.2 17.7 18.1 14.9 15.2 16.1 17.4 26.1 22.9 27.3 29.8 23.5 11.6 9.4 9.4 9.4 11.1 11.5 12.8 19.8 27.2 32.8 37.4 39.4 45.1 47.5 48.9 49 47.5 54.3 51.7 42.9 40.8 47.7 47.6 44.7 39.3 47.3 59.3 53.4 47.8 40.2 43.7 35.3 40.5 33.7 34.7 42.4 30.1 36.1 26 25.1 25.8 11.1 7 4.9 5 9.2 18.6 18.6 16.3 6.7 -1.7 -1.7 -1.7 -1.7 -1.7 -1.7 -1.7 -1.7 12.8 19.9 20.9 14.8 11.4 12.2 2.9
44.7 36.7 28.9 20.3 16.5 8.9 4.8 4.4 4.2 4 3.8 3.6 3.6 3.6 3.7 3.8 32.7 37.6 54.1 58.6 54.2 39 46.1 48.5 37.6 21.5 27.1 20 20.7 22.6 15.6 9.5 -1.7 -1.7 -1.7 -1.7 -1.7 -1.7 -1.7 -1.7 -1.7 -1.7 -1.7 -1.7 -1.7 -1.7 -1.7 -1.7 -1.7 -1.7 -1.7 -1.7 23.2 33.8 36.4 35.8 37.2 47.1 39.1 13.7 2.7 -1.7 -1.7 -1.7 4.8 -1.7 -1.7 -1.7 -1.7 -1.7 -1.7 -1.7 -1.7 -1.7 -1.7 -1.7 -1.7 -1.7 -1.7 -1.7 -1.7 2.5 13.1 25.5 24.4 33.7 34.6 36.7 38 29.3 25.1 23.3 20.6 17.2 11.1 14.4 13.7 21.9 26.1 26.8 19.6 24.4 21.2 25 20.2 19 15.4 12.4 16 11.6 3.1 3.1 4.1 3.1 3.1 3.1 8.4 12.1 10.7 9.8 6.5 10.5 14.7 18.3 21.2 19.6 12.9 12.3 15.6 16.1 18.5 23.1 24.8 29.8 25.1 15.6 9.2 9.4 9.4 10.3 12.4 12.6 18.5 25.9 32.6 38.8 39.7 45.9 48.4 51.8 52.5 51.7 60.3 59.8 44.8 42.1 44.1 51.4 50.9 47.5 50.6 60.1 62 55.5 41.7 48.2 34.3 36.9 29.7 29.8 32.3 29.5 28.7 25.9 25.9 30.1 14.7 7.8 5.1 4.1 7.7 18.5 14.1 12.6 -1.7 -1.7 -1.7 -1.7 -1.7 -1.7 -1.7 -1.7 -1.7 12.4 24.7 23.5 19.5 15.1 8 2.4
43.6 41.6 31 19.4 14.9 8 4.8 4.7 4.4 4.1 3.8 3.7 3.6 3.6 3.8 3.9 12 35.9 46.4 56.1 48.9 39.1 37.6 44.6 30.6 18 18.1 18.2 12.3 13.5 11.7 5.9 -1.7 -1.7 -1.7 -1.7 -1.7 -1.7 -1.7 -1.7 -1.7 -1.7 -1.7 -1.7 -1.7 -1.7 -1.7 -1.7 -1.7 -1.7 -1.7 15.5 31.5 39.1 44.5 41.7 41.2 42.4 41.7 26.9 17.9 -1.7 -1.7 -1.7 2 -1.7 -1.7 -1.7 -1.7 -1.7 -1.7 -1.7 -1.7 -1.7 -1.7 -1.7 -1.7 -1.7 -1.7 -1.7 -1.7 -1.7 10.7 17.9 26.7 31 30.2 31.1 31.1 27.3 28.1 26.9 25.3 19 11.8 10.6 11.2 18.9 23.5 29.6 22.8 24.2 25.1 25.7 22.2 18.4 15.7 12.1 10.3 9.1 3.1 3.1 3.5 6.4 5.8 3.1 9.6 13.4 12 16.5 10.5 8.8 20.6 21.6 26.5 23.7 13.2 9.9 10.6 15.3 15.6 17.3 20.3 24.3 21 13 9.2 9.4 9.4 9.4 12.5 12.9 15.9 24 28.9 36.6 37.5 43.5 47.9 54.2 54.9 53.1 57.5 61.3 47.1 46.2 44.9 48.8 54.3 49.1 46.5 54.5 61.6 54 42.8 39.8 30.8 30.3 30.1 30.8 32.3 32.6 29.2 29 31 25.8 15.8 8.2 6 4.5 4.3 7.3 7.2 4.8 -1.7 -1.7 -1.7 -1.7 -1.7 -1.7 -1.7 -1.7 -1.7 15.2 25.9 26 22.5 19.8 10.5 2.6
38.9 34 37.3 18.2 11.4 4.8 4.8 4.7 4.4 4.1 3.8 3.8 3.7 3.7 3.9 5 5 25.3 36.4 52.6 47.2 39.1 37.2 35.3 33.6 18 18.2 21.8 12.2 11.8 14.8 -1.7 -1.7 -1.7 -1.7 -1.7 5.8 -1.7 -1.7 -1.7 -1.7 -1.7 -1.7 -1.7 -1.7 -1.7 -1.7 -1.7 -1.7 -1.7 -1.7 29.2 39 43.5 51.8 50.1 49 49.7 51.5 37.3 21.3 8.2 1.5 2.3 6 -1.7 -1.7 -1.7 -1.7 -1.7 -1.7 -1.7 -1.7 -1.7 -1.7 -1.7 -1.7 -1.7 -1.7 -1.7 -1.7 -1.7 -1.7 19.7 24.4 24.6 24.8 24.4 27.2 30.3 30.3 31.8 31.5 24.2 11.7 11 11.9 17.7 26.2 26.4 27.5 23.8 30.5 30 26.4 19.5 16.8 11.6 7.9 8.7 3.1 3.1 3.1 10.5 12.8 5.9 10.6 14.8 18.7 17.9 17.8 9.9 19 24.8 20.7 19.7 14.3 8 11.9 18 16.2 14.8 14.6 14.6 16.3 15.9 12 9.4 9.4 9.4 11.6 13 14.9 23.1 28.6 32.8 36.1 41.6 49.5 55.3 56.6 54.2 58.5 55.1 49.6 52.7 47.2 51.6 50 46.2 43.8 50 61.8 51.1 43.4 43.8 33 33 35.6 40 41 40.5 31.2 30.5 33 30.2 17 9.2 6.9 4.7 2.6 9.1 9.5 7.7 -1.7 -1.7 -1.7 -1.7 -1.7 -1.7 -1.7 -1.7 -1.7 13.6 20.7 25.8 21.2 18.9 12.7 2
39.1 31.1 27.3 20.3 4.9 4.8 4.8 4.1 4.4 4.1 3.9 3.9 3.8 3.8 11.9 5.3 3.9 14 25.4 41.3 40.7 34.4 30.2 24.8 27 18 18 25.3 19.5 18.7 26.7 -1.7 -1.7 -1.7 -1.7 -1.7 -1.7 -1.7 -1.7 -1.7 -1.7 -1.7 -1.7 -1.7 -1.7 -1.7 -1.7 -1.7 -1.7 -1.7 -1.7 50.9 44.9 51.7 52.5 54 53.1 59.5 57.6 51.6 36.6 11.5 4.5 6.1 11.7 14.8 13.1 9.6 -1.7 -1.7 -1.7 -1.7 -1.7 -1.7 -1.7 -1.7 -1.7 -1.7 -1.7 -1.7 -1.7 -1.7 -1.7 7.2 18.2 26.6 24.3 24.7 27.8 32.9 34.3 35.3 32.9 25.2 13.5 12.2 13.6 19 25.4 27.9 31 30.3 27.9 33 25.6 19.8 18.1 15.5 12.2 7.3 3.1 3.1 3.1 18.5 13.9 7.8 6.9 12.5 19.7 20.6 19.9 12.4 15.3 15.8 20.7 18.3 13.1 8.3 11.9 14.1 16.4 15.9 14.2 14.3 17.7 15.5 9.2 9.4 9.4 9.4 11.4 13.5 16.7 20.7 28.9 32.1 35.3 40.3 47.9 53.8 58.1 55 54.4 52 50.9 53.5 50.4 48.4 52.8 50 44.5 50.6 56.6 51.6 44.3 38.5 38.7 35.4 41.8 46.4 46.9 45.4 36.4 30.1 33.6 26.7 21.4 10.8 7.9 5.5 2.8 3.2 10.2 7 11.9 -1.7 -1.7 -1.7 -1.7 -1.7 -1.7 -1.7 -1.7 6.9 10.9 17.3 19.7 16 8.2 5.2
37.7 29.2 24.7 19.5 6.4 4.4 4.8 4.1 4 4.9 4 3.9 4 3.9 15.6 22.8 3.9 11.2 27.8 37.2 39.8 41.2 37.8 28 19.8 18 19.6 23.7 25.4 29.5 38.1 41.2 16.9 -1.7 -1.7 -1.7 -1.7 -1.7 -1.7 -1.7 -1.7 -1.7 -1.7 -1.7 -1.7 -1.7 -1.7 -1.7 -1.7 -1.7 -1.7 59 55.5 49.5 49.7 55 54.4 65.3 57.6 55 41.6 16.4 7.9 8.4 15.6 24.7 22.7 14.5 16.2 -1.7 -1.7 -1.7 -1.7 -1.7 -1.7 -1.7 -1.7 -1.7 -1.7 -1.7 -1.7 -1.7 -1.7 11.6 20 26.8 28.2 25.9 31.1 37.1 37.8 37.8 36.8 26.9 15.4 13.7 15.9 19.7 29.4 30.1 29.1 29.7 23.8 26.3 23 21.2 20.1 20.3 15.6 8.6 3.1 3.1 3.1 22.4 20.5 11.1 7.3 9.2 14.4 18 22.6 20.8 14.7 16.3 24.1 26.6 22 11.3 4.9 11.2 14.7 15.3 16.3 14.7 13.9 18.1 10.6 9.4 9.4 9.4 11.5 14.1 16.3 18.5 29 32 33.8 39.8 44.9 52.9 55.8 56.1 54.6 53.5 51.5 57 52.5 50.8 54 56.4 43.1 46.8 50.8 50.1 45.1 37.5 44 39.4 43.1 47.2 48.2 49 35.6 31.4 34.6 30.8 26.4 13 8.3 6.1 3.6 -1.7 -1.7 4.5 -1.7 -1.7 -1.7 -1.7 -1.7 -1.7 -1.7 -1.7 -1.7 10.3 10.7 17.3 20.4 16.9 10 7.7
28.6 31.1 27.2 13.2 6.2 5.4 4.8 7.4 4.5 10.2 4.1 4 4.6 16.8 25.6 33.7 14.5 13.2 22.7 30.5 48.4 46.2 41.6 32.1 18 18 19.8 22.8 29.8 40.1 38 47.1 28.7 -1.7 -1.7 -1.7 -1.7 -1.7 -1.7 -1.7 -1.7 -1.7 -1.7 -1.7 -1.7 -1.7 -1.7 -1.7 -1.7 -1.7 -1.7 60 58.5 43 46.6 48.7 57.9 63.8 57.9 51.6 43.9 20.4 10.2 8.5 18 18.8 19.7 16 13.9 -1.7 -1.7 -1.7 -1.7 -1.7 -1.7 -1.7 -1.7 -1.7 -1.7 -1.7 -1.7 -1.7 -1.7 9.1 16.3 24.3 30.4 29 34.5 39.7 40.9 41.7 38.3 29.2 16.7 16 17.8 22.1 24.3 27.4 26.4 27 24.1 24.5 27.6 24.9 21 21.4 21.6 7 3.1 3.1 3.1 16.9 21 11.2 8.3 8.3 9 14.8 24.1 20.1 20.5 22.1 36 29.1 26.8 10.9 6.8 4.7 10.8 12.4 16.5 16.5 12.4 12.2 10.6 9.4 9.4 9.4 11.4 13.6 15.6 17.7 24.9 31.1 33.6 36.3 42.7 48.8 54.6 56 52.8 52 50.1 55.3 51.9 51.9 51.2 48.9 46.2 42.3 47.8 50.5 42.3 33 36.9 39.9 41.6 44.5 48.9 43.8 35.4 33.1 38.6 33.9 31.3 19.3 8.6 7.2 5.4 -1.7 -1.7 2 -1.7 -1.7 -1.7 -1.7 -1.7 -1.7 -1.7 -1.7 -1.7 10.4 12.2 15.7 21.5 15.9 12.2 10.1
29.1 27.7 23.8 14.1 14.1 4 7.9 11.3 10 10.9 4.3 4.1 21.5 24.3 33.2 33.5 18 9.6 21.5 29.4 45.4 49.2 44.3 35.9 20.6 18 18 29.6 39.5 52 54.3 50.4 41.7 -1.7 -1.7 -1.7 -1.7 -1.7 -1.7 -1.7 -1.7 -1.7 -1.7 -1.7 -1.7 -1.7 -1.7 -1.7 -1.7 -1.7 -1.7 54.5 50.6 40.1 40.1 44.6 55.6 61.8 59.3 57.6 40.8 22.4 11.5 9.5 12.6 14.8 16.2 17 11.3 5.7 -1.7 -1.7 -1.7 -1.7 -1.7 -1.7 -1.7 -1.7 -1.7 -1.7 -1.7 -1.7 -1.7 -1.7 15.8 23.6 30.4 32.2 36.6 41 43.2 41.2 33.5 29 17.3 17.4 20.2 23.6 24 26.4 26.5 26.2 25.5 25.4 26.6 22.4 21.2 20.8 21.7 18.2 3.6 3.1 3.1 12.2 21.5 14 8.7 8.7 9 15.5 30.1 33.8 32.2 28.4 37 29.8 28.6 12.2 10.4 4.6 5 9.6 10.4 16.2 11.9 12.8 10.9 10.8 9.4 9.4 10.8 13.8 15.5 17.1 19.5 28.5 30.9 33.3 39 43.3 46.2 51.5 51.1 47.6 48 51.7 49.3 49.1 50.8 49.9 51.1 41.6 45.5 53.1 37.3 30.2 28.2 42.8 41.6 39.6 48.6 48.2 37.6 34 34.4 32 31.6 20.5 9.7 9.5 7.8 5.5 -1.7 -1.7 -1.7 -1.7 -1.7 -1.7 -1.7 -1.7 -1.7 -1.7 -1.7 8.3 11 14.9 21.2 18.9 14.8 12.7
26.5 18.7 17 14.7 16.4 5.1 19.2 14.9 15.7 9.7 6.2 9.9 34.5 31.1 35.4 29.6 29.1 10.1 21.4 33.3 44.9 48.4 45.1 36.9 18 18 19.6 35 50.3 61.3 64.5 50.6 37.2 -1.7 -1.7 -1.7 -1.7 -1.7 -1.7 -1.7 -1.7 -1.7 -1.7 -1.7 -1.7 -1.7 -1.7 -1.7 -1.7 -1.7 -1.7 43.1 43.8 36.8 37.1 45.2 52.8 57.9 57.6 51.6 36.1 26.2 14.1 10.9 11.3 11 11 11.3 7.3 7.8 4.3 -1.7 -1.7 -1.7 -1.7 -1.7 -1.7 -1.7 -1.7 -1.7 -1.7 -1.7 -1.7 -1.7 12.7 21.5 31.1 34.9 35.8 40 39.9 39.3 30.9 23.7 16.2 18 21.7 27.2 26.7 26.6 26.7 27.1 27.1 27.9 24.9 22.8 21.6 20.8 19.9 19.7 7.2 3.1 3.1 5.7 12.4 20.1 10 9.9 9.4 19.9 39.8 45.2 38.5 36.3 37.1 29.4 24.6 16.3 11 12.5 3.5 8.1 7.1 14.6 12.4 10.3 11.7 10.6 9.4 9.4 9.4 13.7 16.3 17.2 18 23.1 28.6 29.1 35.2 39.1 40.3 41.3 45.3 45.6 47.5 50.9 47.9 47.4 54 53.5 52.1 44.3 43.4 48.8 36.4 25.5 24.9 33.2 36.8 40.2 51.2 40.1 33.3 33.7 31.4 31.2 25.1 18 11 10.9 10.1 8.6 -1.7 -1.7 -1.7 -1.7 -1.7 -1.7 -1.7 -1.7 -1.7 -1.7 -1.7 -1.7 9.7 14.7 21 21.9 15 13.7
22.1 32.4 15.3 15.4 23.1 8.5 21.9 13.8 14.7 15.9 13.2 24.3 30.7 36.4 37.7 33 27.4 9.8 22 31 38.6 43.7 43.5 29.3 21 19.2 22.2 28.8 53.9 57 64.7 47.8 36.4 20.7 -1.7 -1.7 -1.7 -1.7 -1.7 -1.7 -1.7 -1.7 -1.7 -1.7 -1.7 -1.7 -1.7 -1.7 -1.7 -1.7 -1.7 22.3 40.7 31.8 34 45.8 47.2 50.6 54.8 44.6 40.5 25.5 21.4 14.6 10.2 9.5 9.5 9.8 7.9 10 11.8 4.7 -1.7 -1.7 -1.7 -1.7 -1.7 -1.7 -1.7 -1.7 -1.7 -1.7 -1.7 -1.7 12.6 19.4 28.8 30.6 32.2 33.2 31.2 30.1 24.3 18.4 14.5 14.4 16.2 25.6 27.9 30.9 28.9 29.7 29.9 32 28.6 26.3 23.1 21.6 19.9 16.5 12 3.1 3.1 3.1 3.1 7.6 16.3 23.2 16.7 24.7 40.6 49.3 45.4 38.4 30.9 30.7 25.2 22.9 12.1 16.4 3.6 3.4 7.4 7.8 12.3 10.6 11.9 12 12.7 9.4 9.4 12.7 16.3 17.4 17.3 18.7 27.3 27.6 31.4 36.2 37.6 37.4 41 44.3 45.3 50.3 45.3 45.8 51.5 54.2 50.3 46.5 33.7 44.6 37.5 23.1 23.7 28.1 39.9 42.1 47.5 41 35.5 32.3 31.5 31.7 22.7 16.4 13.7 12.4 11.2 10.7 6.8 -1.7 -1.7 -1.7 -1.7 -1.7 -1.7 -1.7 -1.7 -1.7 -1.7 -1.7 5.4 13.1 21.8 24.3 13.9 11.3
21.8 25.6 20.7 21.1 21.2 9.8 21.1 17.3 25.6 22.4 18.9 26.3 35.1 37.1 35.8 28.4 25.2 10.7 22.3 24.1 29 32.5 28.8 27.6 29.4 28 22.4 23.4 49.1 52.8 59 45.7 33.2 18.1 -1.7 -1.7 -1.7 -1.7 -1.7 -1.7 -1.7 -1.7 -1.7 -1.7 -1.7 -1.7 -1.7 -1.7 -1.7 -1.7 -1.7 16 28.6 28 30.9 44.1 47.8 47.5 47.6 36.6 37.8 23.9 24.5 17.6 10.9 9.3 8.9 13.1 10.5 11.5 12.3 -1.7 -1.7 -1.7 -1.7 -1.7 -1.7 -1.7 -1.7 -1.7 -1.7 -1.7 -1.7 -1.7 13.5 20.5 21 27.3 24.5 26.7 22.4 16.2 20.7 16 11.4 10.7 12.1 22.1 30.1 35.4 30.4 33.8 30.8 35.3 31.7 30.4 24.6 21.9 22.3 21.6 16.3 8.2 3.1 3.1 3.1 3.1 7.8 31.6 22.3 26.5 43.6 49.3 47.4 41.4 28.7 28.7 30 26.3 15 21.6 11.7 2.1 7.9 9.4 9.2 10 8.6 13.4 15 11 9.4 13.2 16.6 18.4 18 18.5 22.7 24.3 29.4 34.4 35.3 34.7 40.2 43 44.5 44.6 42 41.6 46.2 47 49.1 40.6 29.5 36.1 27.5 22.4 22.7 26.6 35.1 38.9 42.3 44.8 43.3 35.7 31.8 30.1 27.9 21.7 17.4 14 12 11.3 8.7 -1.7 -1.7 -1.7 -1.7 -1.7 -1.7 -1.7 -1.7 -1.7 -1.7 -1.7 -1.7 7 16.3 20.7 14 9.8
25.2 20.7 26.2 18.3 17.6 9 21.5 32.2 35.8 29.9 23.2 22.5 33.7 27.9 31.9 23.4 16.4 10.8 10.2 16.5 21.6 28.7 27.6 29.9 34.6 30.7 22.6 28.5 51.9 55.2 56.9 44.8 31.5 15 -1.7 -1.7 -1.7 -1.7 -1.7 -1.7 -1.7 -1.7 -1.7 -1.7 -1.7 -1.7 -1.7 -1.7 -1.7 -1.7 -1.7 -1.7 14.8 23 27.7 46.2 52.3 45.5 39.1 35.6 34.8 22.4 21.9 17.6 14.3 8.4 7.6 16.7 12.9 12 10 -1.7 -1.7 -1.7 -1.7 -1.7 -1.7 -1.7 -1.7 -1.7 -1.7 -1.7 -1.7 -1.7 9.7 18.6 13.4 15.3 14.8 11.3 6.4 7.7 14.1 13.9 9.6 9.1 10.4 24.2 23 26.2 29.5 31.8 30 35.8 31.8 30.3 26.7 21.8 18.1 16.3 13.3 7.9 3.1 3.1 3.1 5.6 5.8 25.2 26.2 34.7 42.8 49.4 50.1 45.6 29.4 28.7 31.9 29.2 22 21.9 19 1.2 2.5 5.4 10 8.2 6.1 15.2 15.2 12.3 9.4 12.1 17.4 19.6 19.2 18 19.2 22.1 27.2 32.7 32.5 31.5 35.1 42.5 42.7 42 39.8 40 41.7 41.4 40.7 33.7 28.3 25.9 27 22 22 24 29.7 39.4 41.2 47.7 36.4 34.8 35.1 35.5 33.7 27.2 20.6 16.1 12.3 10.1 9.9 -1.7 -1.7 -1.7 -1.7 -1.7 -1.7 -1.7 -1.7 -1.7 -1.7 -1.7 -1.7 -1.7 1.8 11 11.1 -1.7
20.6 23.3 21.3 27.1 18.6 13.9 26.7 34.8 45.4 39.5 24.5 20.9 26.8 20 20.8 15.8 9.7 8.5 12.7 19.1 18.4 22.7 31.2 27.1 21.1 22.5 26.1 29 40.7 48 55.3 39.9 29 14.9 -1.7 -1.7 -1.7 -1.7 -1.7 -1.7 -1.7 -1.7 -1.7 -1.7 -1.7 -1.7 -1.7 -1.7 -1.7 -1.7 -1.7 -1.7 11.6 17.9 23.1 45.7 54.5 47.6 35.2 36.1 27.1 24.5 24.7 20.8 19.5 8.6 -1.7 -1.7 12.3 -1.7 -1.7 -1.7 -1.7 -1.7 -1.7 -1.7 -1.7 -1.7 -1.7 -1.7 -1.7 -1.7 -1.7 -1.7 -1.7 -1.7 -1.7 4.7 13.4 12.5 2 5.7 8.4 11.4 7 8 10.1 11.3 21.1 24.6 27.8 27.1 27.8 30.2 29.9 29.3 26.6 22.3 17.8 17.8 12.4 6.2 5.6 9.8 3.1 4.8 7.8 16.1 35.1 34.9 42.8 50.7 49.4 45 31.6 28.7 31.9 31.8 27 26.6 26.1 3.7 1.1 3.9 8.7 6.2 5.5 9.3 13.9 11.9 9.4 12.6 16.4 19.6 20.1 18.9 17.2 19.4 24.4 30 30 28.3 27.9 35.6 41.1 40.9 37.7 38.4 39.7 40.6 42.6 36.3 30.2 27.5 22.7 22.9 22 25.9 33.8 39.9 44.5 42.4 40.4 40.2 39.6 37.2 38.3 30.1 22 17 9.3 9.4 9.7 -1.7 -1.7 -1.7 -1.7 -1.7 -1.7 -1.7 -1.7 -1.7 -1.7 -1.7 -1.7 -1.7 -1.7 5.4 -1.7 -1.7
19 18.3 27.7 21.5 19.8 10.3 21.9 33.1 48.9 47.2 27.4 19.3 15.7 15.8 13.1 11.1 8 9.5 17.6 21.5 17.7 17.2 24.2 25.5 25.1 19.4 27 28 36.6 45.2 46 38.1 33.8 15.3 -1.7 -1.7 -1.7 -1.7 -1.7 -1.7 -1.7 -1.7 -1.7 -1.7 -1.7 -1.7 -1.7 -1.7 -1.7 -1.7 -1.7 -1.7 -1.7 -1.7 14.5 35.6 50.3 38.6 30.1 32.9 16.3 18.5 22.2 23.2 19.2 -1.7 -1.7 -1.7 -1.7 -1.7 -1.7 -1.7 -1.7 -1.7 -1.7 -1.7 -1.7 -1.7 -1.7 -1.7 -1.7 -1.7 -1.7 -1.7 -1.7 -1.7 -1.7 -1.7 8.5 9.1 -1.7 -1.7 10.3 10.6 3.6 6.3 9.9 8.9 10.6 14.7 20.8 20.5 22.7 27.1 25.7 24.3 24.8 23.4 16 13.9 9.3 4.9 8.3 13.8 10.1 3.1 9.2 15.8 31.9 34.7 37.3 50.9 51 42.2 32.8 33.7 31.5 33.1 30.5 28.5 29.2 10.2 -1.7 5.3 6.3 8.6 5.2 6.2 9.6 10.1 10.5 10.8 16.2 18 20 19.1 16 17.2 21.3 26.4 27.8 25.7 25.1 29.2 35.3 39.9 35.1 36 38.7 40.8 43.3 41.6 31.8 26.7 20.3 25.5 22.3 25.6 32.2 37.3 41.9 46.9 45.4 43.8 43.6 39.3 37 29.9 26.4 14.1 5.3 5.3 -1.7 -1.7 -1.7 -1.7 -1.7 -1.7 -1.7 -1.7 -1.7 -1.7 -1.7 -1.7 -1.7 -1.7 -1.7 -1.7 -1.7 -1.7
12.2 13.1 23.6 17.3 17.9 8.6 14.6 27.8 42 42.2 30.5 19.3 14.1 11.8 10.3 4.5 5.2 9 13.7 16.8 19.1 16.6 20.7 19.2 22.2 15.9 25 26.8 31.9 42.7 43.2 33.7 27.7 8.8 -1.7 -1.7 -1.7 -1.7 -1.7 -1.7 -1.7 -1.7 -1.7 -1.7 -1.7 -1.7 -1.7 -1.7 -1.7 -1.7 -1.7 -1.7 -1.7 -1.7 -1.7 19.5 30.8 26.7 26 29.6 8.4 7.3 12.6 22.9 9.9 -1.7 -1.7 -1.7 -1.7 -1.7 -1.7 -1.7 -1.7 -1.7 -1.7 -1.7 -1.7 -1.7 -1.7 -1.7 -1.7 -1.7 -1.7 -1.7 -1.7 -1.7 -1.7 -1.7 5.3 6.8 -1.7 -1.7 -1.7 1.8 -1.7 4.5 9.1 8.3 3.4 5.3 10 15.5 19.5 26.5 23.1 20 18.3 21 14.8 10.8 6.6 5 8.7 15.2 19.9 5.5 9.2 14.2 24.6 31.2 35.5 43.9 47.3 48.9 40.5 36.4 33 33.2 28.4 28.1 25.9 12.1 -1.7 -1.7 6 10.3 8.7 3.7 7.4 7.8 12.3 10.7 15.2 17.1 18.8 19.7 13.8 12.3 13.9 18 24.5 20.5 20.3 22.5 29 33.6 32.3 32.9 36.3 39.7 43.1 47.5 34.7 26.7 19.8 21.5 21.5 25.7 31 35.6 40.8 46.8 47.1 42.8 38.8 34.7 32.3 26 20.6 9.7 -1.7 -1.7 -1.7 -1.7 -1.7 -1.7 -1.7 -1.7 -1.7 -1.7 -1.7 -1.7 -1.7 -1.7 -1.7 -1.7 -1.7 -1.7 -1.7 -1.7
-1.7 -1.7 8.8 13.3 13.7 14.6 4.8 20.9 37.3 36.4 27.6 22.2 11.1 8.6 2 -1.7 -1.7 6.8 8.3 13.2 17.2 15.1 15.3 17.5 9.9 6.1 15.9 26.3 27.3 30.5 34 39.4 26.2 5.7 -1.7 -1.7 -1.7 -1.7 -1.7 -1.7 -1.7 -1.7 -1.7 -1.7 -1.7 -1.7 -1.7 -1.7 -1.7 -1.7 -1.7 -1.7 -1.7 -1.7 -1.7 -1.7 16 15.3 16.5 13.6 -1.7 -1.7 -1.7 -1.7 -1.7 -1.7 -1.7 -1.7 -1.7 -1.7 -1.7 -1.7 -1.7 -1.7 -1.7 -1.7 -1.7 -1.7 -1.7 -1.7 -1.7 -1.7 -1.7 -1.7 -1.7 -1.7 -1.7 -1.7 -1 -1.7 -1.7 -1.7 -1.7 -0.8 -1.7 -1.7 -1.7 -1.7 1.5 3.8 8.6 11.4 13.9 19.2 23 17.5 13.5 14.8 13.8 13.8 7.8 5.1 7.2 15.2 18.2 7.4 10.6 11.7 27.3 27 37.7 35.2 44.8 44.4 38 38.2 35.2 29.7 31.3 25.9 23.7 11.5 8.9 -1.7 4 10 8.5 4.8 3.4 4.7 11.1 11.1 13.4 16 16 17.2 12.8 7.9 6.1 8.6 12.5 15.4 16.4 15.9 18.2 20.6 21.9 28.6 33.3 37.5 39.1 39.2 35.9 29.1 19.4 19.8 20.1 22.7 33.1 36.8 40.2 44.7 44.9 36.1 31.9 21.5 23.9 21.7 13.6 -1.7 -1.7 -1.7 -1.7 -1.7 -1.7 -1.7 -1.7 -1.7 -1.7 -1.7 -1.7 -1.7 -1.7 -1.7 -1.7 -1.7 -1.7 -1.7 -1.7 -1.7
-1.7 -1.7 -1.7 -1.7 5.1 -1.7 -1.7 -1.7 24.1 22.9 18.5 23.1 9.2 3.9 -1.7 -1.7 -1.7 -1.7 -1.7 -1.7 9.9 7.2 4.1 8.7 -1.7 -1.7 -1.7 15.6 20.1 15.7 20.6 24.3 14.6 -1.7 -1.7 -1.7 -1.7 -1.7 -1.7 -1.7 -1.7 -1.7 -1.7 -1.7 -1.7 -1.7 -1.7 -1.7 -1.7 -1.7 -1.7 -1.7 -1.7 -1.7 -1.7 -1.7 -1.7 -1.7 7.4 10.9 -1.7 -1.7 -1.7 -1.7 -1.7 -1.7 -1.7 -1.7 -1.7 -1.7 -1.7 -1.7 -1.7 -1.7 -1.7 -1.7 -1.7 -1.7 -1.7 -1.7 -1.7 -1.7 -1.7 -1.7 -1.7 -1.7 -1.7 -1.7 -1.7 -1.7 -1.7 -1.7 -1.7 -1.7 -1.7 -1.7 -1.7 -1.7 -1.7 -1.7 5.3 7.7 10 12.2 16.8 15.3 10.3 6.7 7.3 13.1 10.1 6.2 7.1 14.5 14.9 7.9 14.8 10.8 28.5 27.1 28.1 31.8 45.6 43 42.3 38.1 34.2 29.9 29.4 24.8 20.7 8.6 9.8 2.1 -1.7 7.1 7 3.8 3.3 5.5 7 7.4 9.8 13.5 14 13.9 11.4 3.2 2 2 6.2 7.8 9.3 11.2 10 17.8 16.3 22.6 27.5 30.3 35.6 35.8 36.6 32.5 18.9 16.4 18.9 21.6 27.5 36.6 36.8 33.8 27.7 18.2 12.7 12.7 14 13 5.9 -1.7 -1.7 -1.7 -1.7 -1.7 -1.7 -1.7 -1.7 -1.7 -1.7 -1.7 -1.7 -1.7 -1.7 -1.7 -1.7 -1.7 -1.7 -1.7 -1.7 -1.7
-1.7 -1.7 -1.7 -1.7 -1.7 -1.7 -1.7 -1.7 -1.7 -1.7 -1.7 -1.7 -1.7 -1.7 -1.7 -1.7 -1.7 -1.7 -1.7 -1.7 -1.7 -1.7 -1.7 -1.7 -1.7 -1.7 -1.7 -1.3 0.8 -1.2 0.5 8.8 -1.7 -1.7 -1.7 -1.7 -1.7 -1.7 -1.7 -1.7 -1.7 -1.7 -1.7 -1.7 -1.7 -1.7 -1.7 -1.7 -1.7 -1.7 -1.7 -1.7 -1.7 -1.7 -1.7 -1.7 -1.7 -1.7 -1.7 8 -1.7 -1.7 -1.7 -1.7 -1.7 -1.7 -1.7 -1.7 -1.7 -1.7 -1.7 -1.7 -1.7 -1.7 -1.7 -1.7 -1.7 -1.7 -1.7 -1.7 -1.7 -1.7 -1.7 -1.7 -1.7 -1.7 -1.7 -1.7 -1.7 -1.7 -1.7 -1.7 -1.7 -1.7 -1.7 -1.7 -1.7 -1.7 -1.7 -1.7 -1.7 -1.7 -1.7 -1.7 -1.7 9 8.3 -1.7 -1.7 -1.7 10.7 -1.7 -1.7 11.6 14.6 9.1 8.5 9.8 18.5 26 25.4 28 38.6 45.3 39.4 32.8 28.8 33.3 32.3 26.9 17.8 8.9 5.5 -1.7 -1.7 -1.7 5.5 2.8 2.7 4.9 5.8 5.5 8.2 9 12.8 9 8.6 -1.7 -1.7 -1.7 -1.7 -1.7 2.5 4.4 5.2 6 7.6 9.8 16.6 21.4 28.9 32.6 32.7 27.4 16.4 15.2 17.1 21.4 21.4 24.9 21.8 15.5 12.7 12.7 12.7 12.7 16.4 14 7 -1.7 -1.7 -1.7 -1.7 -1.7 -1.7 -1.7 -1.7 -1.7 -1.7 -1.7 -1.7 -1.7 -1.7 -1.7 -1.7 -1.7 -1.7 -1.7 -1.7 -1.7
-1.7 -1.7 -1.7 -1.7 -1.7 -1.7 -1.7 -1.7 -1.7 -1.7 -1.7 -1.7 -1.7 -1.7 -1.7 -1.7 -1.7 -1.7 -1.7 -1.7 -1.7 -1.7 -1.7 -1.7 -1.7 -1.7 -1.7 -1.7 -1.7 -1.7 -1.7 -1.7 -1.7 -1.7 -1.7 -1.7 -1.7 -1.7 -1.7 -1.7 -1.7 -1.7 -1.7 -1.7 -1.7 -1.7 -1.7 -1.7 -1.7 -1.7 -1.7 -1.7 -1.7 -1.7 -1.7 -1.7 -1.7 -1.7 -1.7 -1.7 -1.7 -1.7 -1.7 -1.7 -1.7 -1.7 -1.7 -1.7 -1.7 -1.7 -1.7 -1.7 -1.7 -1.7 -1.7 -1.7 -1.7 -1.7 -1.7 -1.7 -1.7 -1.7 -1.7 -1.7 -1.7 -1.7 -1.7 -1.7 -1.7 -1.7 -1.7 -1.7 -1.7 -1.7 -1.7 -1.7 -1.7 -1.7 -1.7 -1.7 -1.7 -1.7 -1.7 -1.7 -1.7 -1.7 -1.7 -1.7 -1.7 -1.7 -1.7 -1.7 -1.7 -1.7 12.2 10.2 10.6 7.6 12.4 22.5 19.5 25.1 27.9 38.5 31.5 22.7 22.7 32.5 30.5 26.8 7.6 5.1 -1.7 -1.7 -1.7 -1.7 1.7 1.8 1.9 2 4.4 2 2.6 3 2 1.9 1.8 -1.7 -1.7 -1.7 -1.7 -1.7 -1.7 -1.7 -1.7 -1.7 -1.7 -1.7 -1.7 2.9 11.1 17.5 20.7 14 14.3 16.6 18.5 24.4 21.8 16.4 14.7 12.9 12.7 12.9 15.8 15.1 25.7 22.7 13.6 3.6 -1.7 -1.7 -1.7 -1.7 -1.7 -1.7 -1.7 -1.7 -1.7 -1.7 -1.7 -1.7 -1.7 -1.7 -1.7 -1.7 -1.7 -1.7 -1.7 -1.7
-1.7 -1.7 -1.7 -1.7 -1.7 -1.7 -1.7 -1.7 -1.7 -1.7 -1.7 -1.7 -1.7 -1.7 -1.7 -1.7 -1.7 -1.7 -1.7 -1.7 -1.7 -1.7 -1.7 -1.7 -1.7 -1.7 -1.7 -1.7 -1.7 -1.7 -1.7 -1.7 -1.7 -1.7 -1.7 -1.7 -1.7 -1.7 -1.7 -1.7 -1.7 -1.7 -1.7 -1.7 -1.7 -1.7 -1.7 -1.7 -1.7 -1.7 -1.7 -1.7 -1.7 -1.7 -1.7 -1.7 -1.7 -1.7 -1.7 -1.7 -1.7 -1.7 -1.7 -1.7 -1.7 -1.7 -1.7 -1.7 -1.7 -1.7 -1.7 -1.7 -1.7 -1.7 -1.7 -1.7 -1.7 -1.7 -1.7 -1.7 -1.7 -1.7 -1.7 -1.7 -1.7 -1.7 -1.7 -1.7 -1.7 -1.7 -1.7 -1.7 -1.7 -1.7 -1.7 -1.7 -1.7 -1.7 -1.7 -1.7 -1.7 -1.7 -1.7 -1.7 -1.7 -1.7 -1.7 -1.7 -1.7 -1.7 -1.7 -1.7 -1.7 -1.7 -1.7 -1.7 7.9 8.4 6.4 16.1 15.2 17.4 21.3 22.8 21.2 12.5 16.5 22.8 20.4 -1.7 -1.7 -1.7 -1.7 -1.7 -1.7 -1.7 -1.7 -1.7 -1.7 -1.7 -1.7 -1.7 -1.7 -1.7 -1.7 -1.7 -1.7 -1.7 -1.7 -1.7 -1.7 -1.7 -1.7 -1.7 -1.7 -1.7 -1.7 -1.7 -1.7 -1.7 -1.7 2.2 6.4 9.8 14.6 18 20.3 27.4 30.6 26.6 21.3 17.5 22.7 30 30.2 23.7 24.1 31.2 19.9 8.7 3.8 -1.7 -1.7 -1.7 -1.7 -1.7 -1.7 -1.7 -1.7 -1.7 -1.7 -1.7 -1.7 -1.7 -1.7 -1.7 -1.7 -1.7 -1.7 -1.7
-1.7 -1.7 -1.7 -1.7 -1.7 -1.7 -1.7 -1.7 -1.7 -1.7 -1.7 -1.7 -1.7 -1.7 -1.7 -1.7 -1.7 -1.7 -1.7 -1.7 -1.7 -1.7 -1.7 -1.7 -1.7 -1.7 -1.7 -1.7 -1.7 -1.7 -1.7 -1.7 -1.7 -1.7 -1.7 -1.7 -1.7 -1.7 -1.7 -1.7 -1.7 -1.7 -1.7 -1.7 -1.7 -1.7 -1.7 -1.7 -1.7 -1.7 -1.7 -1.7 -1.7 -1.7 -1.7 -1.7 -1.7 -1.7 -1.7 -1.7 -1.7 -1.7 -1.7 -1.7 -1.7 -1.7 -1.7 -1.7 -1.7 -1.7 -1.7 -1.7 -1.7 -1.7 -1.7 -1.7 -1.7 -1.7 -1.7 -1.7 -1.7 -1.7 -1.7 -1.7 -1.7 -1.7 -1.7 -1.7 -1.7 -1.7 -1.7 -1.7 -1.7 -1.7 -1.7 -1.7 -1.7 -1.7 -1.7 -1.7 -1.7 -1.7 -1.7 -1.7 -1.7 -1.7 -1.7 -1.7 -1.7 -1.7 -1.7 -1.7 -1.7 -1.7 -1.7 -1.7 -1.7 -1.7 -1.7 -1.7 -1.7 -1.7 -1.7 -1.7 -1.7 -1.7 -1.7 -1.7 -1.7 -1.7 -1.7 -1.7 -1.7 -1.7 -1.7 -1.7 -1.7 -1.7 -1.7 -1.7 -1.7 -1.7 -1.7 -1.7 -1.7 -1.7 -1.7 -1.7 -1.7 -1.7 -1.7 -1.7 -1.7 -1.7 -1.7 -1.7 -1.7 -1.7 -1.7 -1.7 -1.7 -1.7 1.9 11.1 15.3 19.9 21.4 23.2 26.9 33.2 29.1 23.7 26 39.7 38.6 32.4 25.6 33.3 21.7 12.9 6.3 -1.7 -1.7 -1.7 -1.7 -1.7 -1.7 -1.7 -1.7 -1.7 -1.7 -1.7 -1.7 -1.7 -1.7 -1.7 -1.7 -1.7 -1.7 -1.7
-1.7 -1.7 -1.7 -1.7 -1.7 -1.7 -1.7 -1.7 -1.7 -1.7 -1.7 -1.7 -1.7 -1.7 -1.7 -1.7 -1.7 -1.7 -1.7 -1.7 -1.7 -1.7 -1.7 -1.7 -1.7 -1.7 -1.7 -1.7 -1.7 -1.7 -1.7 -1.7 -1.7 -1.7 -1.7 -1.7 -1.7 -1.7 -1.7 -1.7 -1.7 -1.7 -1.7 -1.7 -1.7 -1.7 -1.7 -1.7 -1.7 -1.7 -1.7 -1.7 -1.7 -1.7 -1.7 -1.7 -1.7 -1.7 -1.7 -1.7 -1.7 -1.7 -1.7 -1.7 -1.7 -1.7 -1.7 -1.7 -1.7 -1.7 -1.7 -1.7 -1.7 -1.7 -1.7 -1.7 -1.7 -1.7 -1.7 -1.7 -1.7 -1.7 -1.7 -1.7 -1.7 -1.7 -1.7 -1.7 -1.7 -1.7 -1.7 -1.7 -1.7 -1.7 -1.7 -1.7 -1.7 -1.7 -1.7 -1.7 -1.7 -1.7 -1.7 -1.7 -1.7 -1.7 -1.7 -1.7 -1.7 -1.7 -1.7 -1.7 -1.7 -1.7 -1.7 -1.7 -1.7 -1.7 -1.7 -1.7 -1.7 -1.7 -1.7 -1.7 -1.7 -1.7 -1.7 -1.7 -1.7 -1.7 -1.7 -1.7 -1.7 -1.7 -1.7 -1.7 -1.7 -1.7 -1.7 -1.7 -1.7 -1.7 -1.7 -1.7 -1.7 -1.7 -1.7 -1.7 -1.7 -1.7 -1.7 -1.7 -1.7 -1.7 -1.7 -1.7 -1.7 -1.7 -1.7 -1.7 -1.7 -1.7 -1.7 9.1 13.6 20.7 23.7 25.9 30.1 39.1 36.8 28.5 26.9 42.3 43.8 40.8 27.3 29.5 28.3 14.5 8.9 7.4 -1.7 -1.7 -1.7 -1.7 -1.7 -1.7 -1.7 -1.7 -1.7 -1.7 -1.7 -1.7 -1.7 -1.7 -1.7 -1.7 -1.7 -1.7
-1.7 -1.7 -1.7 -1.7 -1.7 -1.7 -1.7 -1.7 -1.7 -1.7 -1.7 -1.7 -1.7 -1.7 -1.7 -1.7 -1.7 -1.7 -1.7 -1.7 -1.7 -1.7 -1.7 -1.7 -1.7 -1.7 -1.7 -1.7 -1.7 -1.7 -1.7 -1.7 -1.7 -1.7 -1.7 -1.7 -1.7 -1.7 -1.7 -1.7 -1.7 -1.7 -1.7 -1.7 -1.7 -1.7 -1.7 -1.7 -1.7 -1.7 -1.7 -1.7 -1.7 -1.7 -1.7 -1.7 -1.7 -1.7 -1.7 -1.7 -1.7 -1.7 -1.7 -1.7 -1.7 -1.7 -1.7 -1.7 -1.7 -1.7 -1.7 -1.7 -1.7 -1.7 -1.7 -1.7 -1.7 -1.7 -1.7 -1.7 -1.7 -1.7 -1.7 -1.7 -1.7 -1.7 -1.7 -1.7 -1.7 -1.7 -1.7 -1.7 -1.7 -1.7 -1.7 -1.7 -1.7 -1.7 -1.7 -1.7 -1.7 -1.7 -1.7 -1.7 -1.7 -1.7 -1.7 -1.7 -1.7 -1.7 -1.7 -1.7 -1.7 -1.7 -1.7 -1.7 -1.7 -1.7 -1.7 -1.7 -1.7 -1.7 -1.7 -1.7 -1.7 -1.7 -1.7 -1.7 -1.7 -1.7 -1.7 -1.7 -1.7 -1.7 -1.7 -1.7 -1.7 -1.7 -1.7 -1.7 -1.7 -1.7 -1.7 -1.7 -1.7 -1.7 -1.7 -1.7 -1.7 -1.7 -1.7 -1.7 -1.7 -1.7 -1.7 -1.7 -1.7 -1.7 -1.7 -1.7 -1.7 -1.7 -1.7 2.2 10.8 20.5 26.1 28.2 32.6 38.8 43 31.7 27.8 43.9 46.9 42.2 28.1 30.3 30.5 16.8 10.9 8.6 -1.7 -1.7 -1.7 -1.7 -1.7 -1.7 -1.7 -1.7 -1.7 -1.7 -1.7 -1.7 0.6 0.9 -1.7 -1.7 -1.7 -1.7
-1.7 -1.7 -1.7 -1.7 -1.7 -1.7 -1.7 -1.7 -1.7 -1.7 -1.7 -1.7 -1.7 -1.7 -1.7 -1.7 -1.7 -1.7 -1.7 -1.7 -1.7 -1.7 -1.7 -1.7 -1.7 -1.7 -1.7 -1.7 -1.7 -1.7 -1.7 -1.7 -1.7 -1.7 -1.7 -1.7 -1.7 -1.7 -1.7 -1.7 -1.7 -1.7 -1.7 -1.7 -1.7 -1.7 -1.7 -1.7 -1.7 -1.7 -1.7 -1.7 -1.7 -1.7 -1.7 -1.7 -1.7 -1.7 -1.7 -1.7 -1.7 -1.7 -1.7 -1.7 -1.7 -1.7 -1.7 -1.7 -1.7 -1.7 -1.7 -1.7 -1.7 -1.7 -1.7 -1.7 -1.7 -1.7 -1.7 -1.7 -1.7 -1.7 -1.7 -1.7 -1.7 -1.7 -1.7 -1.7 -1.7 -1.7 -1.7 -1.7 -1.7 -1.7 -1.7 -1.7 -1.7 -1.7 -1.7 -1.7 -1.7 -1.7 -1.7 -1.7 -1.7 -1.7 -1.7 -1.7 -1.7 -1.7 -1.7 -1.7 -1.7 -1.7 -1.7 -1.7 -1.7 -1.7 -1.7 -1.7 -1.7 -0.3 -1.7 -1.7 -1.7 -1.7 -1.7 -1.7 1 9.1 8.5 -1.7 -1.7 -1.7 -1.7 -1.7 -1.7 -1.7 -1.7 -1.7 -1.7 -1.7 -1.7 -1.7 -1.7 -1.7 -1.7 -1.7 -1.7 -1.7 -1.7 -1.7 -1.7 -1.7 -1.7 -1.7 -1.7 -1.7 -1.7 -1.7 -1.7 -1.7 -1.7 1.7 8.5 17.1 24 28 33.5 37.4 44.9 38.5 27.3 36.7 46 46.6 29.8 32.5 34.7 22.7 14.9 8.8 -1.7 -1.7 -1.7 -1.7 -1.7 -1.7 -1.7 -1.7 -1.7 -1.7 -1.7 4.3 5.1 5.3 5.5 -1.7 -1.7 -1.7
-1.7 -1.7 -1.7 -1.7 -1.7 -1.7 -1.7 -1.7 -1.7 -1.7 -1.7 -1.7 -1.7 -1.7 -1.7 -1.7 -1.7 -1.7 0.6 -1.7 -1.7 -1.7 -1.7 -1.7 -1.7 -1.7 -1.7 -1.7 -1.7 -1.7 -1.7 -1.7 -1.7 -1.7 -1.7 -1.7 -1.7 -1.7 -1.7 -1.7 -1.7 -1.7 -1.7 -1.7 -1.7 -1.7 -1.7 -1.7 -1.7 -1.7 -1.7 -1.7 -1.7 -1.7 -1.7 -1.7 -1.7 -1.7 -1.7 -1.7 -1.7 -1.7 -1.7 -1.7 -1.7 -1.7 -1.7 -1.7 -1.7 -1.7 -1.7 -1.7 -1.7 -1.7 -1.7 -1.7 -1.7 -1.7 -1.7 -1.7 -1.7 -1.7 -1.7 -1.7 -1.7 -1.7 -1.7 -1.7 -1.7 -1.7 -1.7 -1.7 -1.7 -1.7 -1.7 -1.7 -1.7 -1.7 -1.7 -1.7 -1.7 -1.7 -1.7 -1.7 -1.7 -1.7 -1.7 -1.7 -1.7 -1.7 -1.7 -1.7 -1.7 -1.7 -1.7 -1.7 -0.1 -1.6 -1.7 -1.7 -1.7 7.3 5.7 5.4 6.6 7.2 4 -1.7 3.9 13.1 11.8 -1.7 -1.7 -1.7 -1.7 -1.7 -1.7 -1.7 -1.7 -1.7 -1.7 -1.7 -1.7 -1.7 -1.7 -1.7 -1.7 -1.7 -1.7 -1.7 -1.7 -1.7 -1.7 -1.7 -1.7 -1.7 -1.7 -1.7 -1.7 -1.7 -1.7 -1.7 -1.7 1.7 7 16.8 18 22.1 29.9 33.9 39.8 30.9 27.5 26.6 33.4 36 30.4 33.9 38.1 22.1 7.4 6.1 -1.7 -1.7 -1.7 -1.7 -1.7 -1.7 -1.7 -1.7 -1.7 -1.7 5.9 7.4 8.3 9 7.9 6 -1.7 -1.7
-1.7 -1.7 -1.7 -1.7 -1.7 -1.7 -1.7 -1.7 -1.7 -1.7 -1.7 -1.7 -1.7 -1.7 -1.7 -1.7 -1.7 -1.7 10.1 -1.7 -1.7 -1.7 -1.7 -1.7 -1.7 -1.7 -1.7 -1.7 -1.7 -1.7 -1.7 -1.7 -1.7 -1.7 -1.7 -1.7 -1.7 -1.7 -1.7 -1.7 -1.7 -1.7 -1.7 -1.7 -1.7 -1.7 -1.7 -1.7 -1.7 -1.7 -1.7 -1.7 -1.7 -1.7 -1.7 -1.7 -1.7 -1.7 -1.7 -1.7 -1.7 -1.7 -1.7 -1.7 -1.7 -1.7 -1.7 -1.7 -1.7 -1.7 -1.7 -1.7 -1.7 -1.7 -1.7 -1.7 -1.7 -1.7 -1.7 -1.7 -1.7 -1.7 -1.7 -1.7 -1.7 -1.7 -1.7 -1.7 -1.7 -1.7 -1.7 -1.7 -1.7 -1.7 -1.7 -1.7 -1.7 -1.7 -1.7 -1.7 -1.7 -1.7 -1.7 -1.7 -1.7 -1.7 -1.7 -1.7 -1.7 -1.7 -1.7 -1.7 -1.7 -1.7 -1.7 -1.7 4.3 1.9 -1.7 -1.7 -1.7 2.2 7.2 12.8 14.3 13.8 9.8 5.4 4 8.7 4.9 -1.7 -1.7 -1.7 -1.7 -1.7 -1.7 -1.7 -1.7 -1.7 -1.7 -1.7 -1.7 -1.7 -1.7 -1.7 -1.7 -1.7 -1.7 -1.7 -1.7 -1.7 -1.7 -1.7 -1.7 -1.7 -1.7 -1.7 -1.7 -1.7 -1.7 -1.7 -1.7 -1.7 5.1 9.2 14.7 18.3 24.3 32 33 32.9 30.2 25.8 30.9 31.7 32.1 32.2 35.6 23.3 7.7 3.4 -1.7 -1.7 -1.7 -1.7 -1.7 -1.7 -1.7 -1.7 -1.7 4.1 8.6 8.6 9.9 12.8 11.5 9.4 -1.7 -1.7
-1.7 -1.7 -1.7 -1.7 -1.7 -1.7 -1.7 -1.7 -1.7 -1.7 -1.7 -1.7 -1.7 -1.7 -1.7 -1.7 -1.7 -1.7 11.9 -1.7 -1.7 -1.7 -1.7 -1.7 -1.7 -1.7 -1.7 -1.7 -1.7 -1.7 -1.7 -1.7 -1.7 -1.7 -1.7 -1.7 -1.7 -1.7 -1.7 -1.7 -1.7 -1.7 -1.7 -1.7 -1.7 -1.7 -1.7 -1.7 -1.7 -1.7 -1.7 -1.7 -1.7 -1.7 -1.7 -1.7 -1.7 -1.7 -1.7 -1.7 -1.7 -1.7 -1.7 -1.7 -1.7 -1.7 -1.7 -1.7 -1.7 -1.7 -1.7 -1.7 -1.7 -1.7 -1.7 -1.7 -1.7 -1.7 -1.7 -1.7 -1.7 -1.7 -1.7 -1.7 -1.7 -1.7 -1.7 -1.7 -1.7 -1.7 -1.7 -1.7 -1.7 -1.7 -1.7 -1.7 -1.7 -1.7 -1.7 -1.7 -1.7 -1.7 -1.7 -1.7 -1.7 -1.7 -1.7 -1.7 -1.7 -1.7 -1.7 -1.7 -1.7 -1.7 -1.7 -1.7 4.5 5.2 5.5 3.7 3.1 5.1 13.3 17.3 16.2 14.5 16.4 11.6 3.6 5.3 3.2 -1.7 -1.7 -1.7 -1.7 -1.7 -1.7 -1.7 -1.7 -1.7 -1.7 -1.7 -1.7 -1.7 -1.7 -1.7 -1.7 -1.7 -1.7 -1.7 -1.7 -1.7 -1.7 -1.7 -1.7 -1.7 -1.7 -1.7 -1.7 -1.7 -1.7 -1.7 -1.7 -1.7 1.8 6.3 10 13.7 24.1 34.1 37.5 34.3 33.9 25.6 25.8 32.9 36.3 22.4 22.2 21.5 11 4.1 3 -1.7 -1.7 -1.7 -1.7 -1.7 -1.7 -1.7 -1.7 6.3 11.6 8.8 14.4 16.8 17 13.5 8.2 -1.7
-1.7 -1.7 -1.7 -1.7 -1.7 -1.7 -1.7 -1.7 -1.7 -1.7 -1.7 -1.7 -1.7 -1.7 -1.7 -1.7 -1.7 -1.7 8 14 -1.7 -1.7 -1.7 -1.7 -1.7 -1.7 -1.7 -1.7 -1.7 -1.7 -1.7 -1.7 -1.7 -1.7 -1.7 -1.7 -1.7 -1.7 -1.7 -1.7 -1.7 -1.7 -1.7 -1.7 -1.7 -1.7 -1.7 -1.7 -1.7 -1.7 -1.7 -1.7 -1.7 -1.7 -1.7 -1.7 -1.7 -1.7 -1.7 -1.7 -1.7 -1.7 -1.7 -1.7 -1.7 -1.7 -1.7 -1.7 -1.7 -1.7 -1.7 -1.7 -1.7 -1.7 -1.7 -1.7 -1.7 -1.7 -1.7 -1.7 -1.7 -1.7 -1.7 -1.7 -1.7 -1.7 -1.7 -1.7 -1.7 -1.7 -1.7 -1.7 -1.7 -1.7 -1.7 -1.7 -1.7 -1.7 -1.7 -1.7 -1.7 -1.7 -1.7 -1.7 -1.7 -1.7 -1.7 -1.7 -1.7 -1.7 -1.7 -1.7 -1.7 -1.7 -1.7 0.9 7.3 7.7 8.4 6.6 6.7 10 10.9 18.1 19.3 19.3 19.5 17.5 6.8 6 5.1 7.5 8.1 -1.7 -1.7 -1.7 -1.7 -1.7 -1.7 -1.7 -1.7 -1.7 -1.7 -1.7 -1.7 -1.7 -1.7 -1.7 -1.7 -1.7 -1.7 -1.7 -1.7 -1.7 -1.7 -1.7 -1.7 -1.7 -1.7 -1.7 -1.7 -1.7 -1.7 -1.7 -1.7 4.3 6.4 9.5 20 33.6 38.4 28.7 29 23.3 23.6 32.7 37.4 26.3 19.4 16 11.4 4.2 5.4 -1.7 -1.7 -1.7 -1.7 -1.7 -1.7 -1.7 5 6.9 11 9.6 14.4 19.7 20.9 18.5 13.4 8.3
-1.7 -1.7 -1.7 -1.7 -1.7 -1.7 -1.7 -1.7 -1.7 -1.7 -1.7 -1.7 18.9 -1.7 -1.7 -1.7 -1.7 -1.7 5.9 12.9 -1.7 -1.7 -1.7 -1.7 -1.7 -1.7 -1.7 -1.7 -1.7 -1.7 -1.7 -1.7 -1.7 -1.7 -1.7 -1.7 -1.7 -1.7 -1.7 -1.7 -1.7 -1.7 5.9 -1.7 -1.7 -1.7 6.9 11.1 -1.7 -1.7 -1.7 -1.7 -1.7 -1.7 -1.7 -1.7 -1.7 -1.7 -1.7 -1.7 -1.7 -1.7 -1.7 -1.7 -1.7 -1.7 -1.7 -1.7 -1.7 -1.7 -1.7 -1.7 -1.7 -1.7 -1.7 -1.7 -1.7 -1.7 -1.7 -1.7 -1.7 -1.7 -1.7 -1.7 -1.7 -1.7 -1.7 -1.7 -1.7 -1.7 -1.7 -1.7 -1.7 -1.7 -1.7 -1.7 -1.7 -1.7 -1.7 -1.7 -1.7 -1.7 -1.7 -1.7 -1.7 -1.7 -1.7 -1.7 -1.7 -1.7 -1.7 -1.7 -1.7 -1.7 -1.7 2.2 3.8 2.2 10.4 8 7.5 8.5 11.9 14 23.6 25.8 25 23.3 9.8 8 6.3 3.7 2 -1.7 -1.7 -1.7 -1.7 -1.7 -1.7 -1.7 -1.7 -1.7 -1.7 -1.7 -1.7 -1.7 -1.7 -1.7 -1.7 -1.7 -1.7 -1.7 -1.7 -1.7 -1.7 -1.7 -1.7 -1.7 -1.7 -1.7 -1.7 -1.7 -1.7 -1.7 -1.7 -1.7 -1.7 3.8 15.4 22.7 27.3 22.9 19.7 21.5 18.9 29.2 29 24.2 23.9 18.6 15.4 5.5 3.6 -1.7 -1.7 -1.7 -1.7 -1.7 -1.7 4.8 8.6 9.2 12.9 10.1 12.7 22.9 25.4 23.8 18 12.7
-1.7 -1.7 -1.7 -1.7 -1.7 -1.7 -1.7 -1.7 -1.7 -1.7 -1.7 8.6 23.5 16.5 -1.7 -1.7 -1.7 -1.7 -1.7 -1.7 -1.7 -1.7 -1.7 -1.7 -1.7 -1.7 -1.7 -1.7 -1.7 -1.7 -1.7 -1.7 -1.7 -1.7 -1.7 -1.7 -1.7 -1.7 -1.7 -1.7 -1.7 8.9 14.2 14.4 13.4 7.4 9.5 -1.7 -1.7 -1.7 -1.7 -1.7 -1.7 -1.7 -1.7 -1.7 -1.7 -1.7 -1.7 -1.7 -1.7 -1.7 -1.7 -1.7 -1.7 -1.7 -1.7 -1.7 -1.7 -1.7 -1.7 -1.7 -1.7 -1.7 -1.7 -1.7 -1.7 -1.7 -1.7 -1.7 -1.7 -1.7 -1.7 -1.7 -1.7 -1.7 -1.7 -1.7 -1.7 -1.7 -1.7 -1.7 -1.7 -1.7 -1.7 -1.7 -1.7 -1.7 -1.7 -1.7 -1.7 -1.7 -1.7 -1.7 -1.7 -1.7 -1.7 -1.7 -1.7 -1.7 -1.7 -1.7 -1.7 -1.7 -1.7 -1.7 2.3 2 -1.7 4.3 8.6 10.1 16.4 16.5 20.6 28 25.1 23.3 13.3 7.6 11.8 7.3 5.1 7.9 11.6 -1.7 -1.7 -1.7 -1.7 -1.7 -1.7 -1.7 -1.7 -1.7 -1.7 -1.7 -1.7 -1.7 -1.7 -1.7 -1.7 -1.7 -1.7 -1.7 -1.7 -1.7 -1.7 -1.7 -1.7 -1.7 -1.7 -1.7 -1.7 -1.7 -1.7 -1.7 -1.7 2.3 2 17.6 22.8 22 17.7 14.9 12.4 15.3 22.2 17.7 19.9 13.9 15.5 6.2 -1.7 -1.7 -1.7 -1.7 -1.7 -1.7 -1.7 7.5 13.1 13.6 13 12.5 17.7 28.7 32.5 27.7 24.5 16.9
-1.7 -1.7 -1.7 -1.7 -1.7 -1.7 -1.7 -1.7 -1.7 -1.7 -1.7 11.5 24.9 26 13.5 -1.7 -1.7 -1.7 -1.7 -1.7 -1.7 -1.7 -1.7 -1.7 -1.7 -1.7 -1.7 -1.7 -1.7 -1.7 -1.7 -1.7 -1.7 -1.7 -1.7 -1.7 -1.7 -1.7 -1.7 -1.7 -1.7 14.7 23.4 24.4 24.1 12.9 7.8 -1.7 -1.7 -1.7 -1.7 -1.7 -1.7 -1.7 -1.7 -1.7 -1.7 -1.7 -1.7 -1.7 -1.7 -1.7 -1.7 -1.7 -1.7 -1.7 -1.7 -1.7 -1.7 -1.7 -1.7 -1.7 -1.7 -1.7 -1.7 -1.7 -1.7 -1.7 -1.7 -1.7 -1.7 -1.7 -1.7 -1.7 -1.7 -1.7 -1.7 -1.7 -1.7 -1.7 -1.7 -1.7 -1.7 -1.7 -1.7 -1.7 -1.7 -1.7 -1.7 -1.7 -1.7 -1.7 -1.7 -1.7 -1.7 -1.7 -1.7 -1.7 -1.7 -1.7 -1.7 -1.7 -1.7 -1.7 -1.7 -1.7 3 -1.7 -1.7 -1.7 -1.7 8.9 9.9 19.4 16.3 19.9 21.2 19.4 11.4 11.4 20.3 18.3 16.8 17.6 22.3 19.1 -1.7 -1.7 -1.7 -1.7 -1.7 -1.7 -1.7 -1.7 -1.7 -1.7 0.4 -0.4 -1.7 -1.7 -1.7 -1.7 -1.7 -1.7 -1.7 -1.7 -1.7 -1.7 -1.7 -1.7 -1.7 -1.7 -1.7 -1.7 -1.7 -1.7 -1.7 -1.7 -1.7 -1.7 18.4 22.8 15.3 13 11.8 9.5 9.9 17.5 19.3 14.4 11.4 2 -1.7 -1.7 -1.7 -1.7 -1.7 -1.7 -1.7 10.1 17.3 18.5 17.8 18 22.2 29.6 36.6 30 24.2 23.1
-1.7 -1.7 -1.7 -1.7 -1.7 -1.7 -1.7 -1.7 -1.7 -1.7 -1.7 12.4 25.7 37.3 25.4 7.3 -1.7 -1.7 -1.7 -1.7 -1.7 -1.7 -1.7 -1.7 -1.7 -1.7 -1.7 -1.7 -1.7 -1.7 -1.7 -1.7 -1.7 -1.7 -1.7 -1.7 -1.7 -1.7 -1.7 -1.7 -1.7 24 34.1 41.6 35.8 27.7 20.1 11.5 4.7 -1.7 -1.7 -1.7 -1.7 -1.7 -1.7 -1.7 -1.7 -1.7 -1.7 -1.7 -1.7 -1.7 -1.7 -1.7 -1.7 -1.7 -1.7 -1.7 -1.7 -1.7 -1.7 -1.7 -1.7 -1.7 5.5 -1.7 -1.7 -1.7 -1.7 -1.7 -1.7 -1.7 -1.7 -1.7 -1.7 -1.7 -1.7 -1.7 -1.7 -1.7 -1.7 -1.7 -1.7 -1.7 -1.7 -1.7 -1.7 -1.7 -1.7 -1.7 5.8 5.4 6.6 5.2 12.5 11.9 6.6 2.8 -1.7 -1.7 -1.7 -1.7 -1.7 -1.7 -1.7 -1.7 -1.7 -1.7 -1.7 -1.7 -1.7 4.1 5.6 13.4 14.1 17.6 18.7 20.8 22.2 19.3 27.5 33.3 28.8 23 30.8 26.2 18 -1.7 6.1 14 5.9 9.8 7.4 1.5 -1.7 -1.7 5.9 4.6 1.7 -1.7 -1.7 -1.7 -1.7 -1.7 -1.7 -1.7 -1.7 -1.7 -1.7 -1.7 -1.7 -1.7 -1.7 -1.7 -1.7 -1.7 -1.7 -1.7 -1.7 -1.7 -1.7 15.2 12.6 9.1 10.9 5.4 8.9 10.7 12.5 12 12.1 3.6 -1.7 -1.7 -1.7 -1.7 -1.7 -1.7 3.2 13 20.1 22.8 23.6 22.1 23 30.7 34 32.9 27.5 28.5
-1.7 -1.7 -1.7 -1.7 -1.7 -1.7 -1.7 -1.7 -1.7 -1.7 -1.7 13 24.9 42.8 38.6 18.2 -1.7 -1.7 -1.7 -1.7 -1.7 -1.7 -1.7 -1.7 -1.7 -1.7 -1.7 -1.7 -1.7 -1.7 -1.7 -1.7 -1.7 -1.7 -1.7 -1.7 -1.7 -1.7 -1.7 -1.7 11.2 25.4 47.8 51.8 44.7 40.5 31.6 20 12.7 -1.7 -1.7 -1.7 -1.7 -1.7 -1.7 -1.7 -1.7 -1.7 -1.7 -1.7 -1.7 -1.7 -1.7 -1.7 -1.7 -1.7 -1.7 -1.7 -1.7 -1.7 -1.7 -1.7 -1.7 -1.7 -1.7 -1.7 -1.7 -1.7 -1.7 -1.7 -1.7 -1.7 -1.7 -1.7 -1.7 -1.7 -1.7 -1.7 -1.7 -1.7 -1.7 -1.7 -1.7 -1.7 -1.7 -1.7 -1.7 -1.7 -1.7 -1.7 -1.7 -1.7 6.2 9.7 18 16.7 10.1 8.8 3.2 -1.7 -1.7 -1.7 -1.7 -1.7 -1.7 -1.7 -1.7 9.8 12.4 7 11 14.2 11.2 12 21.9 27.3 34.2 31.2 34.2 24.3 28.2 41 33.9 32.3 25.5 21.8 13 2 11.4 17.3 10.3 14.7 21.8 9.4 3.9 1.8 4.6 8.4 6.5 4.5 -1.7 -1.7 -1.7 -1.7 -1.7 -1.7 -1.7 -1.7 -1.7 -1.7 -1.7 -1.7 -1.7 -1.7 -1.7 -1.7 -1.7 -1.7 -1.7 -1.7 -1.7 -1.7 -1.7 2 4.6 2 4.5 10.9 11.6 8.4 9.9 7.4 -1.7 -1.7 -1.7 -1.7 -1.7 -1.7 -1.7 18 23.1 23.9 25.5 24.7 25.2 27 31.9 34.1 31.3 33.3
-1.7 -1.7 -1.7 -1.7 -1.7 -1.7 -1.7 -1.7 -1.7 -1.7 -1.7 8.7 24.4 43.2 43.3 27.3 -1.7 -1.7 -1.7 -1.7 -1.7 -1.7 -1.7 -1.7 -1.7 -1.7 -1.7 -1.7 -1.7 -1.7 -1.7 -1.7 -1.7 -1.7 -1.7 -1.7 -1.7 -1.7 -1.7 -1.7 12.2 33.8 46 47.6 47.1 51.4 48.3 32.7 18.6 15.2 -1.7 -1.7 -1.7 -1.7 -1.7 -1.7 -1.7 -1.7 -1.7 -1.7 -1.7 -1.7 -1.7 -1.7 -1.7 -1.7 -1.7 -1.7 -1.7 -1.7 -1.7 -1.7 -1.7 -1.7 -1.7 -1.7 -1.7 -1.7 -1.7 -1.7 -1.7 -1.7 -1.7 -1.7 -1.7 -1.7 -1.7 -1.7 -1.7 -1.7 -1.7 -1.7 -1.7 -1.7 -1.7 -1.7 -1.7 -1.7 -1.7 -1.7 -1.7 -1.7 11.3 12.7 24.1 17.2 6.7 4.6 1.8 -1.7 -1.7 -1.7 -1.7 -1.7 -1.7 -1.7 4.4 18.1 21.7 16.1 21.5 24 21.7 21.2 22.5 31.6 35.4 36.2 39.3 31.6 22.5 34.8 32.3 36.3 33.2 28.5 18.6 7.8 10.3 13.5 14 24.6 30.7 15.5 8.5 6.2 3.7 7.4 11.6 7.3 -1.7 -1.7 -1.7 -1.7 -1.7 -1.7 -1.7 -1.7 -1.7 -1.7 -1.7 -1.7 -1.7 -1.7 -1.7 -1.7 -1.7 -1.7 -1.7 -1.7 -1.7 -1.7 -1.7 -1.7 -1.7 -1.7 -1.7 -1.7 7.7 8.7 2 -1.7 -1.7 -1.7 -1.7 -1.7 -1.7 -1.7 -1.7 16.7 24.4 27 29.4 26.8 26 26.7 30.3 32.4 32.4 31.9
-1.7 -1.7 -1.7 -1.7 7.6 11.2 -1.7 -1.7 -1.7 -1.7 1.3 10 22.5 37.8 42.5 27.2 10.7 -1.7 -1.7 -1.7 -1.7 -1.7 -1.7 -1.7 -1.7 -1.7 -1.7 -1.7 -1.7 -1.7 -1.7 -1.7 -1.7 -1.7 -1.7 -1.7 -1.7 -1.7 -1.7 -1.7 11.9 29.9 55.3 67.5 60 56.4 50.5 34 21.9 17.5 -1.7 -1.7 -1.7 -1.7 -1.7 -1.7 -1.7 -1.7 -1.7 -1.7 -1.7 -1.7 -1.7 -1.7 -1.7 -1.7 -1.7 -1.7 -1.7 -1.7 -1.7 -1.7 -1.7 -1.7 -1.7 -1.7 -1.7 -1.7 -1.7 -1.7 -1.7 -1.7 -1.7 -1.7 -1.7 -1.7 -1.7 6.6 3.2 -1.7 -1.7 -1.7 -1.7 -1.7 -1.7 -1.7 -1.7 -1.7 -1.7 -1.7 -1.7 4.6 13 15.7 21.1 11.8 -1.7 -1.7 -1.7 -1.7 -1.7 -1.7 -1.7 -1.7 -1.7 2.9 14.7 25.9 28.8 18.9 28.8 29.4 30.2 31 29.3 35.5 43.6 41.1 40.3 34.9 23.7 27.6 36 42.8 42.6 39.1 27 14.6 8.3 9.9 10.6 30.6 37 25.8 13.6 11.6 5.2 7.7 14.1 14.1 11.8 -1.7 -1.7 -1.7 -1.7 -1.7 -0.3 1.7 -1.7 -1.7 -1.7 -1.7 -1.7 -1.7 -1.7 -1.7 -1.7 -1.7 -1.7 -1.7 -1.7 -1.7 -1.7 -1.7 -1.7 -1.7 -1.7 -1.7 -1.7 -1.7 -1.7 -1.7 -1.7 -1.7 -1.7 -1.7 -1.7 -1.7 -1.7 18.6 26.5 27.1 33.3 27.8 27.1 27.1 27.4 29.6 34.7 30.5
-1.7 -1.7 -1.7 -1.7 6.2 9.1 10.3 2.9 -1.7 -1.7 4.8 8.7 11.8 26.2 26.9 18.2 14 -1.7 -1.7 -1.7 -1.7 -1.7 -1.7 -1.7 -1.7 -1.7 -1.7 -1.7 -1.7 -1.7 -1.7 -1.7 -1.7 -1.7 -1.7 -1.7 -1.7 -1.7 -1.7 -1.7 -1.7 33.8 56.3 64.2 57.1 59.5 55.3 37.6 23.5 -1.7 -1.7 -1.7 -1.7 -1.7 -1.7 -1.7 -1.7 -1.7 -1.7 -1.7 -1.7 -1.7 -1.7 -1.7 -1.7 -1.7 -1.7 -1.7 -1.7 -1.7 -1.7 -1.7 -1.7 -1.7 -1.7 -1.7 -1.7 -1.7 -1.7 -1.7 -1.7 -1.7 -1.7 -1.7 -1.7 -1.7 6.9 9.3 8.4 1.9 -1.7 -1.7 -1.7 -1.7 -1.7 -1.7 -1.7 -1.7 -1.7 -1.7 -1.7 5.6 11.3 9.7 9 2 -1.7 -1.7 -1.7 -1.7 -1.7 -1.7 -1.7 -1.7 3.5 8.8 16.9 25.5 23.7 21.6 24.3 29 34.7 41.8 40.6 38.9 43.6 51.7 42.2 30.3 24.2 29.4 43.9 48 49.4 42.9 33 26.3 13.9 21.8 10.3 36.7 40.4 29.3 19.4 13.5 13.4 7.4 9.7 16.4 17 -1.7 -1.7 -1.7 -1.7 -1.7 7.3 11.7 8 -1.7 -1.7 -1.7 -1.7 -1.7 -1.7 -1.7 -1.7 -1.7 -1.7 -1.7 -1.7 -1.7 -1.7 -1.7 -1.7 -1.7 -1.7 -1.7 -1.7 -1.7 -1.7 -1.7 -1.7 -1.7 -1.7 -1.7 -1.7 -1.7 -1.7 15.9 21.9 25.3 36.6 32.6 28 27.6 27.4 29.6 36.5 32.6
-1.7 -1.7 -1.7 -1.7 10.4 13.4 13.9 7.6 8.2 5.2 8.8 9.8 10.2 14.8 27.7 24.4 -1.7 -1.7 -1.7 -1.7 -1.7 -1.7 -1.7 -1.7 -1.7 -1.7 -1.7 -1.7 -1.7 -1.7 -1.7 -1.7 -1.7 -1.7 -1.7 -1.7 -1.7 -1.7 -1.7 -1.7 -1.7 31.3 46.4 58 59.7 59.8 59.3 43 28.5 -1.7 -1.7 -1.7 -1.7 -1.7 -1.7 -1.7 -1.7 -1.7 -1.7 -1.7 -1.7 -1.7 -1.7 -1.7 -1.7 -1.7 -1.7 -1.7 -1.7 -1.7 -1.7 -1.7 -1.7 -1.7 -1.7 -1.7 -1.7 -1.7 -1.7 -1.7 -1.7 -1.7 -0.3 -1.7 -1.7 -1.7 9.9 11 13.1 2.8 -1.7 -1.7 -1.7 -1.7 -1.7 -1.7 -1.7 -1.7 -1.7 -1.7 -1.7 -1.7 10.8 10.3 9.6 7.6 10.8 9.7 -1.7 -1.7 -1.7 -1.7 -1.7 -1.7 6.6 11.2 13.2 17.8 22.4 28 34 32.8 41.7 44 45.6 45 50.2 49.3 41.7 27.2 25.2 31 50.4 49.5 46.4 40.5 38.3 33.6 19.3 18.9 11 35.8 41.7 38.7 25.3 21.6 17.6 12.7 9.4 14.2 25.3 13.6 -1.7 3.7 3.1 9.2 13.6 19.8 18.4 12.5 -1.7 -1.7 -1.7 -1.7 -1.7 -1.7 -1.7 -1.7 -1.7 -1.7 -1.7 -1.7 -1.7 -1.7 -1.7 -1.7 -1.7 -1.7 -1.7 -1.7 -1.7 -1.7 -1.7 -1.7 -1.7 -1.7 -1.7 -1.7 -1.7 5.5 13.1 19.6 33.6 29 29.1 27.4 27 27.9 30.1 33.2
-1.7 -1.7 -1.7 -1.7 11.1 14.4 13.4 14.6 10.1 8.9 5.8 9.4 12.5 12.6 15.1 14.5 -1.7 -1.7 -1.7 -1.7 -1.7 -1.7 -1.7 -1.7 -1.7 -1.7 -1.7 -1.7 -1.7 -1.7 -1.7 -1.7 -1.7 -1.7 -1.7 -1.7 -1.7 -1.7 -1.7 -1.7 -1.7 21.1 29.6 46.3 49.7 50.4 53.7 35.8 26.2 6.4 -1.7 -1.7 -1.7 -1.7 -1.7 -1.7 -1.7 -1.7 8.3 10.2 15.8 -1.7 -1.7 -1.7 -1.7 -1.7 -1.7 -1.7 -1.7 -1.7 -1.7 -1.7 -1.7 -1.7 -1.7 -1.7 -1.7 -1.7 -1.7 -1.7 -1.7 -1.7 8.8 -1.7 -1.7 -1.7 6.7 11.7 6.4 -1.7 -1.7 -1.7 -1.7 -1.7 -1.7 -1.7 -1.7 -1.7 -1.7 -1.7 -1.7 -1.7 -1.7 7.1 12.6 12.2 12.6 12.8 12.6 8.9 -1.7 -1.7 -1.7 3.1 10.3 10.7 12.3 19.9 21.7 28.6 40.5 39 44.3 47.2 51.9 49.1 51.9 51.6 42.7 31.9 29.5 38.4 45 49.5 52.1 44.6 41.4 41.8 32.2 20.6 12.9 30 43.1 40.5 30.1 23.6 21.9 17.6 13.6 17.4 19.4 21.3 6.9 10.2 10 12 16.8 27.3 28.9 26.4 18.2 9 -1.7 -1.7 -1.7 -1.7 -1.7 -1.7 -1.7 -1.7 -1.7 -1.7 -1.7 -1.7 -1.7 -1.7 -1.7 -1.7 -1.7 -1.7 -1.7 -1.7 -1.7 -1.7 -1.7 -1.7 -1.7 -1.7 -1.7 -1.7 12.5 16.6 22.1 25.4 27.4 27.5 26.1 26.2 28.1 23
-1.7 -1.7 -1.7 -1.7 13.3 13.9 19.1 13.3 15.8 18.4 8.4 9.6 22.6 15.1 26.4 17.6 -1.7 -1.7 -1.7 -1.7 -1.7 -1.7 -1.7 -1.7 -1.7 -1.7 -1.7 -1.7 -1.7 -1.7 -1.7 -1.7 -1.7 -1.7 -1.7 -1.7 -1.7 -1.7 -1.7 -1.7 -1.7 -1.7 19.6 32.5 31.9 33.2 35.7 34.3 26.2 9.1 -1.7 -1.7 -1.7 -1.7 -1.7 -1.7 -1.7 -1.7 14.1 13 20.2 7.9 -1.7 -1.7 -1.7 -1.7 -1.7 -1.7 -1.7 -1.7 -1.7 -1.7 -1.7 -1.7 -1.7 -1.7 -1.7 -1.7 -1.7 -1.7 -1.7 -1.7 13.5 7.2 -1.7 -1.7 -0.6 2.6 -1.7 -1.7 -1.7 -1.7 -1.7 -1.7 -1.7 -1.7 -1.7 -1.7 -1.7 -1.7 -1.7 -1.7 -1.7 8.8 16.4 19.3 21.6 23.5 23.6 20 11.5 -1.7 -1.7 7.2 13.6 19 14.8 24.2 25.9 27.5 42.6 40.2 48.3 57 60.6 58.4 47.5 48 41.8 39.2 37.9 53.1 49 58.7 52.5 48.3 44.4 48.8 32.8 20.2 15.1 18.1 41.8 47.2 35.1 27.6 28.4 22.5 16.5 17.9 24.6 26.8 11.5 15.8 15.9 15.6 19.7 34.1 37.7 37.4 36 29.5 20.3 9 -1.7 -1.7 -1.7 -1.7 -1.7 -1.7 -1.7 -1.7 -1.7 -1.7 -1.7 -1.7 -1.7 -1.7 -1.7 -1.7 -1.7 -1.7 -1.7 -1.7 -1.7 -1.7 -1.7 -1.7 -1.7 -1.7 7.9 17.6 25 28 28.3 27.2 25.8 23.1 20.1 19.7
-1.7 -1.7 -1.7 -1.7 8.6 9.8 12.6 10.6 14.7 10.9 14.3 10.3 22.8 14.6 14 22.3 -1.7 -1.7 -1.7 -1.7 -1.7 -1.7 -1.7 -1.7 -1.7 -1.7 -1.7 -1.7 -1.7 -1.7 -1.7 -1.7 -1.7 -1.7 -1.7 -1.7 -1.7 -1.7 -1.7 -1.7 -1.7 -1.7 8.5 18 20.5 22.2 26.2 23.2 14.6 11.7 6.5 -1.7 -1.7 -1.7 -1.7 -1.7 -1.7 -1.7 15.2 10.1 27.9 8.1 -1.7 -1.7 -1.7 -1.7 -1.7 -1.7 -1.7 -1.7 -1.7 -1.7 -1.7 -1.7 -1.7 -1.7 -1.7 -1.7 -1.7 -1.7 -1.7 -1.7 -1.7 9.7 -1.7 -1.7 -1.7 -1.7 -1.7 -1.7 -1.7 -1.7 -1.7 -1.7 -1.7 -1.7 -1.7 -1.7 -1.7 -1.7 -1.7 -1.7 11.4 19.2 27.5 30.7 34.5 33.1 32.2 30.5 23.8 6 2.4 9.4 11.8 16.9 21.3 26.8 32.9 32.1 37.8 41.3 51.9 62.8 61.4 60 47.7 42.8 49.7 47.7 41.6 52 56.6 55.1 47 53.2 49.6 45.2 25.8 20.1 22.6 20 39.6 42 41.1 34.8 33.7 25.5 18.1 24.9 26.9 21.8 14.1 21.7 21.5 19.9 24.3 37.8 45.1 45.3 46.1 40.6 33.4 23.7 9.6 3.4 4.6 4.2 4.6 7 4.5 -1.7 -1.7 -1.7 -1.7 -1.7 -1.7 -1.7 -1.7 -1.7 -1.7 -1.7 -1.7 -1.7 -1.7 -1.7 -1.7 -1.7 -1.7 -1.7 -1.7 21.2 28.4 33.2 28.6 28.2 27.9 27.5 22.4 18
2.1 -1.7 -1.7 -1.7 -1.7 -1.7 3.4 11.6 19 6.4 11.1 10.1 17.1 9.9 8.3 9.9 15.9 -1.7 -1.7 -1.7 -1.7 -1.7 -1.7 -1.7 -1.7 -1.7 -1.7 -1.7 -1.7 -1.7 -1.7 -1.7 -1.7 -1.7 -1.7 -1.7 -1.7 -1.7 -1.7 -1.7 -1.7 -1.7 -1.7 -1.7 10.1 -1.7 -1.7 2.6 11.9 13.2 8.5 -1.7 -1.7 -1.7 -1.7 -1.7 -1.7 -1.7 -1.7 7.5 12 8.3 -1.7 -1.7 -1.7 -1.7 -1.7 -1.7 -1.7 -1.7 -1.7 -1.7 -1.7 -1.7 -1.7 -1.7 -1.7 -1.7 -1.7 -1.7 -1.7 -1.7 -1.7 -1.7 -1.7 -1.7 -1.7 -1.7 -1.7 -1.7 -1.7 -1.7 -1.7 -1.7 -1.7 -1.7 -1.7 -1.7 -1.7 -1.7 -1.7 6.6 15.8 23.4 34.3 39.6 41.8 39.5 40.3 38 33.1 14.3 6.4 9.1 15 18 25.5 27.7 37 33.7 33.4 43.7 53.9 62.2 59.7 51.6 47.1 51.5 57.4 50.2 43.2 54.5 55.6 44.3 53.5 52.6 48.3 33.4 28.6 19.5 21.6 26.1 34.7 45.2 45.5 39.4 32.4 32.5 19.3 23.8 21.1 20.5 20 28 28.8 24.8 27.4 40 48 55.4 55.2 52.8 46.9 36.2 20.6 10.6 9.7 8.9 9.6 11.4 10.3 6.3 -1.7 -1.7 -1.7 -1.7 -1.7 -1.7 -1.7 -1.7 -1.7 -1.7 -1.7 -1.7 -1.7 -1.7 -1.7 -1.7 -1.7 -1.7 -1.7 17.6 24.4 30.5 31.4 27.8 30.4 33.7 29.6 23.7
5 -1.7 -1.7 -1.7 -1.7 -1.7 -1.7 -1.7 8.1 2.3 -1.7 9.6 9.3 8.8 8.1 7.5 11.5 -1.7 -1.7 -1.7 -1.7 -1.7 -1.7 -1.7 -1.7 -1.7 -1.7 -1.7 -1.7 -1.7 -1.7 -1.7 -1.7 -1.7 -1.7 -1.7 -1.7 -1.7 -1.7 -1.7 -1.7 -1.7 -1.7 -1.7 -1.7 -1.7 -1.7 -1.7 7 5.8 -1.7 -1.7 -1.7 -1.7 -1.7 -1.7 -1.7 -1.7 -1.7 12.3 11.9 8.1 -1.7 -1.7 -1.7 -1.7 -1.7 -1.7 -1.7 -1.7 -1.7 -1.7 -1.7 -1.7 -1.7 -1.7 -1.7 -1.7 -1.7 -1.7 -1.7 -1.7 -1.7 -1.7 -1.7 -1.7 -1.7 -1.7 -1.7 -1.7 -1.7 -1.7 -1.7 -1.7 -1.7 -1.7 -1.7 -1.7 -1.7 -1.7 -1.7 11.8 19.4 29 36.1 44.3 44.3 43.3 45.2 43.3 41.5 21.5 12 14.1 21.4 19.9 28.8 29.1 40.7 35.3 35.6 39.4 50.4 64.4 60.5 54.7 55.8 53.7 57.6 48.5 45.2 44.5 43.4 43.4 44.7 45.4 39.7 31.8 31.6 20.3 26.3 32.3 36.4 48.4 46 35.1 37 36 19.6 24.6 21.8 21.9 24.6 31.1 30.7 28.3 28.6 41.5 51.3 55.5 56.9 56.9 55.6 49 32.8 19.3 15.4 14.1 14.1 17.4 15.8 14.9 -1.7 -1.7 -1.7 -1.7 -1.7 -1.7 -1.7 -1.7 -1.7 -1.7 -1.7 -1.7 -1.7 -1.7 -1.7 -1.7 -1.7 -1.7 -1.7 -1.7 17 31.9 31.3 26.5 27.9 30.3 30.7 26.4
7.9 3.1 -1.7 -1.7 -1.7 -1.7 -1.7 -1.7 -1.7 -1.7 -1.7 -1.7 8.2 8.7 10.6 6.8 4.7 -1.7 -1.7 -1.7 -1.7 -1.7 -1.7 -1.7 -1.7 -1.7 -1.7 -1.7 -1.7 -1.7 -1.7 -1.7 -1.7 -1.7 -1.7 -1.7 -1.7 -1.7 -1.7 -1.7 -1.7 -1.7 -1.7 -1.7 -1.7 -1.7 -1.7 2.3 1.9 -1.7 -1.7 -1.7 -1.7 -1.7 -1.7 -1.7 -1.7 -1.7 -1.7 8.2 -1.7 -1.7 -1.7 -1.7 -1.7 -1.7 -1.7 -1.7 -1.7 -1.7 -1.7 -1.7 -1.7 -1.7 -1.7 -1.7 -1.7 -1.7 -1.7 -1.7 -1.7 -1.7 -1.7 -1.7 -1.7 -1.7 -1.7 -1.7 -1.7 -1.7 -1.7 -1.7 -1.7 -1.7 -1.7 -1.7 6.6 3.3 3.7 4.7 6.4 17.8 24.8 29.3 39.8 50.7 48.2 49.7 47.8 49.4 41.8 32.1 17.1 17.5 23.5 22.9 31.5 30.2 38.3 41.3 36.5 40.3 47 51.2 55.3 62.6 53.1 54.8 52 49.1 46.2 48.6 45 45.6 44.8 42 40 32.8 28.7 23.6 34.7 47.8 36.8 45.4 44.8 38.3 40.2 38 20.7 22.3 23.3 27 26.2 32.6 32.5 29.7 29.8 43.1 51.5 57 60 62.1 63.7 57.4 46.7 25.9 21.3 19.2 20.1 23.4 22.3 17.6 4.6 -1.7 -1.7 -1.7 -1.7 -1.7 -1.7 -1.7 -1.7 -1.7 -1.7 -1.7 -1.7 -1.7 -1.7 -1.7 -1.7 -1.7 -1.7 -1.7 -1.7 19.2 26 24.5 25.3 26.8 27.7 28.5
10.6 6.1 -1.7 -1.7 -1.7 -1.7 -1.7 -1.7 -1.7 -1.7 -1.7 -1.7 -1.7 14.8 13.1 10.2 5.4 -1.7 -1.7 -1.7 -1.7 -1.7 -1.7 -1.7 -1.7 -1.7 -1.7 -1.7 -1.7 -1.7 -1.7 -1.7 -1.7 -1.7 -1.7 -1.7 -1.7 -1.7 -1.7 -1.7 -1.7 -1.7 -1.7 -1.7 -1.7 -1.7 -1.7 -1.7 -1.7 -1.7 -1.7 -1.7 -1.7 -1.7 -1.7 -1.7 -1.7 -1.7 -1.7 -1.7 -1.7 -1.7 -1.7 -1.7 -1.7 -1.7 -1.7 -1.7 -1.7 -1.7 -1.7 -1.7 -1.7 -1.7 -1.7 -1.7 -1.7 -1.7 -1.7 -1.7 -1.7 -1.7 -1.7 -1.7 -1.7 -1.7 -1.7 -1.7 -1.7 -1.7 -1.7 -1.7 -1.7 -1.7 -1.7 -1.7 5.1 4.4 5.5 6.7 8.2 19.2 26.1 32.8 42.4 54.3 52.9 52.9 51.1 52.1 45.6 28.5 22.5 17.4 19.5 24 29.5 29.7 32.6 44 41.2 42.9 42.6 47.4 52.2 53.1 52.1 52.3 52 56.6 51.3 61.8 61.2 58 58.2 51.4 46.7 37.1 34 25.6 42.7 54 39.7 43.4 43.9 39.7 43.3 36.1 24.9 25.7 27.3 30.6 29.1 30.8 40.3 35.1 33.4 35.9 42.7 48.2 59.7 64.1 64 62.6 55.3 36.6 27.3 23.8 23.6 28.2 31.8 20.9 11.2 -1.7 -1.7 -1.7 -1.7 -1.7 -1.7 -1.7 -1.7 -1.7 -1.7 -1.7 -1.7 -1.7 -1.7 -1.7 -1.7 -1.7 -1.7 -1.7 -1.7 5.8 15.3 23.8 23.5 23.9 23.4 23
13.5 8.9 3.3 -1.7 -1.7 -1.7 -1.7 -1.7 -1.7 -1.7 -1.7 -1.7 -1.7 12.8 10.6 16.9 6.1 -1.7 -1.7 -1.7 -1.7 -1.7 -1.7 -1.7 -1.7 -1.7 -1.7 -1.7 -1.7 -1.7 -1.7 -1.7 -1.7 -1.7 -1.7 -1.7 -1.7 -1.7 -1.7 -1.7 -1.7 -1.7 -1.7 -1.7 -1.7 -1.7 -1.7 -1.7 -1.7 -1.7 -1.7 -1.7 -1.7 -1.7 -1.7 -1.7 -1.7 -1.7 -1.7 -1.7 -1.7 -1.7 -1.7 -1.7 -1.7 -1.7 -1.7 -1.7 -1.7 -1.7 -1.7 -1.7 -1.7 -1.7 -1.7 -1.7 -1.7 -1.7 -1.7 -1.7 -1.7 -1.7 -1.7 -1.7 -1.7 -1.7 -1.7 -1.7 -1.7 -1.7 -1.7 -1.7 3.3 2.4 -1.7 -1.7 6.6 8.1 13.5 17.3 14.8 22.2 29.9 35 43.4 54 55.1 51.3 52.1 50 45.1 33 20.5 17.6 20 19.8 21.8 27.4 27.2 31.3 32.8 35.3 53.2 55.5 59.3 58.8 53.7 57.7 58.2 63.2 56.9 69.5 69.8 65 63.1 54.8 51.2 39.3 33.4 25 34.2 50.6 40.7 41.3 41.9 43.4 47.7 41.9 33.7 30.4 30.3 34.7 33.4 33 45.4 43 39.3 42.2 49.1 51.6 60.6 65.1 67.3 65.3 57.3 47.2 32.7 28.5 27.2 33.8 35.8 26.7 13.1 -1.7 -1.7 -1.7 -1.7 -1.7 -1.7 -1.7 -1.7 -1.7 -1.7 -1.7 -1.7 -1.7 -1.7 -1.7 -1.7 -1.7 -1.7 -1.7 -1.7 -1.7 10.6 21.7 20 22.4 22.3 22
17 11.7 5.9 -1.7 -1.7 -1.7 -1.7 -1.7 -1.7 -1.7 -1.7 -1.7 -1.7 -1.7 9.4 12.4 7.7 6 -1.7 -1.7 -1.7 -1.7 -1.7 -1.7 -1.7 -1.7 -1.7 -1.7 -1.7 -1.7 -1.7 -1.7 -1.7 -1.7 -1.7 -1.7 -1.7 -1.7 -1.7 -1.7 -1.7 -1.7 -1.7 -1.7 -1.7 -1.7 -1.7 -1.7 -1.7 -1.7 -1.7 -1.7 -1.7 -1.7 -1.7 -1.7 -1.7 -1.7 -1.7 -1.7 -1.7 -1.7 -1.7 -1.7 -1.7 -1.7 -1.7 -1.7 -1.7 -1.7 -1.7 -1.7 -1.7 -1.7 -1.7 -1.7 -1.7 -1.7 -1.7 -1.7 -1.7 -1.7 -1.7 -1.7 -1.7 -1.7 -1.7 7.1 -1.7 -1.7 -1.7 -1.7 8.9 9.6 3 2.1 12.5 17 21.8 22.6 18.2 26.4 28.6 35 45.6 51.1 55.3 50.1 48.5 46.6 46.2 32.2 19.6 17.7 20 20.8 21.9 29 31.4 28.6 29.9 36 59.8 63.1 60.7 63.4 59 61 61.2 62.4 60.4 70.6 73.7 67.9 66.4 61.2 49.1 40.8 35.3 27.7 28.2 40.5 37.7 37.8 43.4 44 50.5 38.1 39.4 32.2 31 35.5 39.4 40.5 48.8 52.1 47.8 47.1 56.5 60 63.6 66.7 68.4 69.3 59.7 49.6 41.3 34.1 31 37.1 34 29.6 19.3 -1.7 -1.7 -1.7 -1.7 -1.7 -1.7 -1.7 -1.7 -1.7 -1.7 -1.7 -1.7 -1.7 -1.7 -1.7 -1.7 -1.7 -1.7 -1.7 -1.7 -1.7 -1.7 13.6 16.4 20.6 22.4 24.5
19.3 13 6.5 -1.7 -1.7 -1.7 -1.7 -1.7 -1.7 -1.7 -1.7 -1.7 -1.7 -1.7 -1.7 -1.7 -1.7 6.3 -1.7 -1.7 -1.7 -1.7 -1.7 -1.7 -1.7 -1.7 -1.7 -1.7 -1.7 -1.7 -1.7 -1.7 -1.7 -1.7 -1.7 -1.7 -1.7 -1.7 -1.7 -1.7 -1.7 -1.7 -1.7 -1.7 -1.7 -1.7 -1.7 -1.7 -1.7 -1.7 -1.7 -1.7 -1.7 -1.7 -1.7 -1.7 -1.7 -1.7 -1.7 -1.7 -1.7 -1.7 -1.7 -1.7 -1.7 -1.7 -1.7 -1.7 -1.7 -1.7 -1.7 -1.7 -1.7 -1.7 -1.7 -1.7 -1.7 -1.7 -1.7 -1.7 -1.7 -1.7 -1.7 -1.7 -1.7 -1.7 -1.7 11.8 8.4 -1.7 -1.7 -1.7 12 19 13.8 9.6 16.7 21.8 25.7 28 23 24.1 31.6 37.2 46.2 51.1 52 51.4 49.8 46.9 45.5 34.9 18.5 21.1 27.6 25.1 25.5 39.2 42.5 29.8 29.8 38.8 61.6 66.6 63.1 64.4 62.7 65.7 67.3 63.5 66.4 75.4 78 70 65.9 62.7 50 49 36.6 29.4 26.8 43.4 39.5 37.8 43.3 49.6 49.8 41.8 44.9 35.6 32.5 35.2 44.4 43.3 53.3 57.5 55.6 52.9 61.8 62.8 67.4 69.4 70 67.1 63 58.9 52.1 39 34.3 37.3 33.6 28.8 15.6 -1.7 -1.7 -1.7 -1.7 -1.7 -1.7 -1.7 -1.7 -1.7 -1.7 -1.7 -1.7 -1.7 -1.7 -1.7 -1.7 -1.7 -1.7 -1.7 -1.7 -1.7 -1.7 -1.7 14.4 19.1 21.1 22.5
23.1 12.9 7.2 -1.7 -1.7 -1.7 2.4 -1.7 -1.7 -1.7 -1.7 -1.7 -1.7 -1.7 -1.7 -1.7 -1.7 -1.7 -1.7 -1.7 -1.7 -1.7 -1.7 -1.7 -1.7 -1.7 -1.7 -1.7 -1.7 -1.7 -1.7 -1.7 -1.7 -1.7 -1.7 -1.7 -1.7 -1.7 -1.7 -1.7 -1.7 -1.7 -1.7 -1.7 -1.7 -1.7 -1.7 -1.7 -1.7 -1.7 -1.7 -1.7 -1.7 -1.7 -1.7 -1.7 -1.7 -1.7 -1.7 -1.7 -1.7 -1.7 -1.7 -1.7 -1.7 -1.7 -1.7 -1.7 -1.7 -1.7 -1.7 -1.7 -1.7 -1.7 -1.7 -1.7 -1.7 -1.7 -1.7 -1.7 -1.7 -1.7 -1.7 -1.7 -1.7 -1.7 -1.7 14.5 7.5 -1.7 -1.7 7.7 12.1 27 20.6 18.5 20.9 26 27.5 31.4 30.2 26.6 31.2 40.3 49.1 57.7 57.3 57.7 53.1 47.7 44.6 29.5 19.4 26.4 39.2 30.5 27.8 35.7 46.7 31.8 31.4 36.3 55.1 68.2 67.2 64.5 68.1 67.2 67.9 66.5 68.2 75.9 74.4 69 66.6 64.6 54.3 50.9 40.7 32.6 26.8 40.3 39.8 37.8 38.6 50.8 45.3 47.8 47.8 42.1 34.4 36.8 40.9 44.8 52.2 58.6 59 54.7 66.8 69.1 68.8 69.6 71.8 70.3 66.9 62.9 56 47.1 36.9 40.2 38.2 29 16.3 3.9 -1.7 -1.7 -1.7 -1.7 -1.7 -1.7 -1.7 -1.7 -1.7 -1.7 -1.7 -1.7 -1.7 -1.7 -1.7 -1.7 -1.7 -1.7 -1.7 -1.7 -1.7 -1.7 10.8 17.4 18.4 21.1
37.5 13.4 7.1 -1.7 -1.7 9.6 11.3 11.7 7.7 5 3.7 -1.7 -1.7 -1.7 -1.7 -1.7 -1.7 -1.7 -1.7 -1.7 -1.7 -1.7 -1.7 -1.7 -1.7 -1.7 -1.7 -1.7 -1.7 -1.7 -1.7 -1.7 -1.7 -1.7 -1.7 -1.7 -1.7 -1.7 -1.7 -1.7 -1.7 -1.7 -1.7 -1.7 -1.7 -1.7 -1.7 -1.7 -1.7 -1.7 -1.7 -1.7 -1.7 -1.7 -1.7 -1.7 -1.7 -1.7 -1.7 -1.7 -1.7 -1.7 -1.7 -1.7 -1.7 -1.7 -1.7 -1.7 -1.7 -1.7 -1.7 -1.7 -1.7 -1.7 -1.7 -1.7 -1.7 -1.7 -1.7 -1.7 -1.7 -1.7 6.1 -1.7 -1.7 -1.7 -1.7 12.7 11 8.3 2.3 10.3 11.5 25.4 23.8 22.2 19.8 25.6 28.2 30.9 31 33.1 36.6 45.3 53.8 63.2 60.9 53.7 43.5 44.5 41.2 23.3 22.5 36.3 39.3 34.6 30.7 32 42 37 34.4 30.7 50.2 69.8 74.4 70.6 69.6 69.3 71.7 69.6 67.5 70.9 69.2 66.5 67.2 62.4 55.6 48.8 41.7 33 26.8 33.3 43 47.6 37.8 46.8 45.3 54.2 50.7 42 35.3 41.3 43.5 43.2 53.9 55.6 51.5 52.7 65.1 76.5 73.4 72.1 73.4 70.4 69 67.8 61 52.9 38.9 39.1 36.5 24.9 17.1 7.9 -1.7 -1.7 -1.7 -1.7 -1.7 -1.7 -1.7 -1.7 -1.7 -1.7 -1.7 -1.7 -1.7 -1.7 -1.7 -1.7 -1.7 -1.7 -1.7 -1.7 -1.7 -1.7 -1.7 9.6 15.2 19.9
45.2 16.8 8.8 -1.7 -1.7 11.8 19.2 20.1 20.9 15.5 12.4 11.1 13.4 13.2 18 16.7 10.9 -1.7 -1.7 -1.7 -1.7 -1.7 -1.7 -1.7 -1.7 -1.7 -1.7 -1.7 -1.7 -1.7 -1.7 -1.7 -1.7 -1.7 -1.7 -1.7 -1.7 -1.7 -1.7 -1.7 -1.7 -1.7 -1.7 -1.7 -1.7 -1.7 -1.7 -1.7 -1.7 -1.7 -1.7 -1.7 -1.7 -1.7 -1.7 -1.7 -1.7 -1.7 -1.7 -1.7 -1.7 -1.7 -1.7 -1.7 -1.7 -1.7 -1.7 -1.7 -1.7 -1.7 -1.7 -1.7 -1.7 -1.7 -1.7 -1.7 -1.7 -1.7 -1.7 -1.7 -1.7 2.7 7.5 15.9 -1.7 -1.7 -1.7 18.4 14.2 9.7 2 7.1 13.3 22.2 23.1 22.7 20.8 25.2 35.5 38.3 37.5 37.8 44.7 43.6 57.2 60.5 58.2 49.6 40.9 39.1 28.9 26.4 26.3 38.4 37.9 36.7 34.9 33.5 36.8 47.4 30.7 30.7 49.5 68.5 76.7 71.4 68.4 71.5 75.9 75.3 68.7 71 67.9 65.7 66.8 62.2 55.5 45.2 39.2 35.8 31.5 26.8 46.1 52.3 37.7 45.2 45.2 57.8 52.3 46.7 37.4 41.4 46.4 43.3 43.4 48.6 46.4 48.6 61.3 69.4 71.1 73.1 72.5 72.2 71 69.6 63.2 54.6 40.4 38.1 33.3 27 24.7 13.8 6.5 3.6 4.7 -1.7 -1.7 -1.7 5.9 8 -1.7 -1.7 -1.7 -1.7 -1.7 -1.7 -1.7 -1.7 -1.7 -1.7 -1.7 -1.7 -1.7 -1.7 -1.7 -1.7 6.2 13.7
40.9 16.4 10.6 -1.7 4.5 14.9 27.9 31.8 38.3 33.7 24.6 26.7 27 28.9 31.3 34.5 18.8 15.5 -1.7 -1.7 -1.7 -1.7 -1.7 -1.7 -1.7 -1.7 -1.7 -1.7 -1.7 -1.7 -1.7 -1.7 -1.7 -1.7 -1.7 -1.7 -1.7 -1.7 -1.7 -1.7 -1.7 -1.7 -1.7 -1.7 -1.7 -1.7 -1.7 -1.7 -1.7 -1.7 -1.7 -1.7 -1.7 -1.7 -1.7 -1.7 -1.7 -1.7 -1.7 -1.7 -1.7 -1.7 -1.7 -1.7 -1.7 -1.7 -1.7 -1.7 -1.7 -1.7 -1.7 -1.7 -1.7 -1.7 -1.7 -1.7 -1.7 -1.7 -1.7 -1.7 -1.7 6.7 10.1 21.1 -1.7 -1.7 -1.7 -1.7 13.4 11.8 6 2.7 18.4 19.4 20.8 24.2 28.1 31.3 41.2 41.8 38.9 40.8 48.4 46.5 53.1 52.3 51.3 46.1 43.5 40.2 28.4 24.7 29.2 42.2 40.8 38.2 40.6 36.8 36.4 42.2 30.7 30.7 40.4 59.7 77.7 72 71 75.6 79 79.3 67.6 66.9 65.7 63 63.2 57.9 55.3 48.5 44.1 37.1 31.7 26.8 45.3 55.2 43.2 39.4 48.3 59 58.7 46.8 39.6 46.4 44.1 44 43.6 42.9 44 46.9 54.5 62.2 66.6 69.4 70.7 73.2 68.5 65.2 57.3 49.5 40.5 35.9 33.4 32.3 31.1 18.4 8.6 10.2 10.8 3.2 -1.7 5.8 9.8 14.2 -1.7 -1.7 -1.7 -1.7 -1.7 -1.7 -1.7 7.5 -1.7 -1.7 -1.7 -1.7 -1.7 -1.7 -1.7 -1.7 -1.7 7.3
34.1 16.6 9.1 2 8.4 17.6 36.5 44.4 54 49.3 40.1 41.7 41 42 44.6 34.5 26.2 22.4 9 -1.7 -1.7 -1.7 -1.7 -1.7 -1.7 -1.7 -1.7 -1.7 -1.7 -1.7 -1.7 -1.7 -1.7 -1.7 -1.7 -1.7 -1.7 -1.7 -1.7 -1.7 -1.7 -1.7 -1.7 -1.7 -1.7 -1.7 -1.7 -1.7 -1.7 -1.7 -1.7 -1.7 -1.7 -1.7 -1.7 -1.7 -1.7 -1.7 -1.7 -1.7 -1.7 -1.7 -1.7 -1.7 -1.7 -1.7 -1.7 -1.7 -1.7 -1.7 -1.7 -1.7 -1.7 -1.7 -1.7 -1.7 -1.7 -1.7 -1.7 -1.7 -1.7 7.9 11.5 20.9 -1.7 -1.7 -1.7 -1.7 10.8 12.3 13.4 5.4 22.4 22.2 28.2 36.5 37 40.5 36.4 40.5 39 45.2 49.1 48.9 49.7 49.9 49.9 49.6 48.7 40.7 35.3 25 29.6 42.5 42.6 40.7 42.2 42.5 39.1 38.2 30.7 34.7 39 52.7 67.9 70.9 74.4 76.2 77 75.8 69.5 69.5 66.2 62.5 61.7 59.7 56.1 52.7 48.3 40.2 34.3 28.9 47.6 59 45.5 39.8 52 68.4 59.8 49.7 44.4 45.7 44.6 45.3 44.2 44.9 48 48.8 50.7 58.2 64 66.6 67.1 67.4 61.1 59.4 52.4 47.6 45.3 38.1 36.6 37.8 38.6 24.5 10.9 13.8 15.6 6.4 1.9 5.9 11 18.6 -1.7 -1.7 -1.7 -1.7 -1.7 -1.7 -1.7 10.6 -1.7 -1.7 -1.7 -1.7 -1.7 -1.7 -1.7 -1.7 -1.7 -1.7
27.4 19.2 8.3 2 11 21.6 42.4 60 67.4 62.5 57.6 59.2 54.7 51.6 52.6 44.3 36.8 32.3 18.4 -1.7 -1.7 -1.7 -1.7 -1.7 -1.7 -1.7 -1.7 -1.7 -1.7 -1.7 -1.7 -1.7 -1.7 -1.7 -1.7 -1.7 -1.7 -1.7 -1.7 -1.7 -1.7 -1.7 -1.7 -1.7 -1.7 -1.7 0.1 -1.7 -1.7 -1.7 -1.7 -1.7 -1.7 -1.7 -1.7 -1.7 -1.7 -1.7 -1.7 -1.7 -1.7 -1.7 -1.7 -1.7 -1.7 -1.7 -1.7 -1.7 -1.7 -1.7 11.3 6.7 -1.7 -1.7 -1.7 -1.7 -1.7 -1.7 -1.7 -1.7 -1.7 -1.7 13.4 15.5 11.8 -1.7 -1.7 -1.7 -1.7 16.3 22.1 11 17.2 32.1 24.7 41.5 43.6 42.8 42.6 35.6 35.6 43.5 48.2 45.4 50 53.7 55.6 52.2 51.4 49.1 35.1 26 29.3 41.5 44.5 43 44.2 43.6 41.1 39.6 32.6 36.6 38.9 47.3 67.3 72.2 74.6 80.5 76.7 76.1 71.4 74.9 69.7 65.7 62.6 62.9 59.9 49.3 50.3 48.3 37.1 29.1 46.9 51.1 42.2 44.3 54.8 71.5 64.5 57 50.7 44.8 47.6 50.4 49.1 48.2 54.1 52.7 53.4 58.9 57.1 57.5 60.4 57.9 53.9 52 50.6 53.1 51.6 39.4 40.1 42.6 43.5 30.9 14.5 16.8 19.7 10.6 5.4 9.8 16.3 21 -1.7 -1.7 -1.7 -1.7 -1.7 -1.7 -1.7 -1.7 -1.7 -1.7 -1.7 -1.7 -1.7 -1.7 -1.7 -1.7 -1.7 -1.7
25.5 18.1 6.4 -1.7 11.5 24.7 49.9 72.8 81.8 76.5 72.5 74.1 69.8 65.4 54.1 47.6 40.2 39.5 22.8 -1.7 -1.7 -1.7 -1.7 -1.7 -1.7 -1.7 -1.7 -1.7 5.5 -1.7 -1.7 -1.7 -1.7 -1.7 -1.7 -1.7 -1.7 -1.7 -1.7 -1.7 -1.7 -1.7 -1.7 -1.7 -1.7 -1.7 23 14.7 -1.7 -1.7 -1.7 -1.7 -1.7 -1.7 -1.7 -1.7 -1.7 -1.7 -1.7 -1.7 -1.7 -1.7 -1.7 -1.7 -1.7 -1.7 -1.7 -1.7 -1.7 -1.7 18 15 -1.7 -1.7 -1.7 -1.7 -1.7 -1.7 -1.7 -1.7 -1.7 -1.7 6.4 8.5 9.1 -1.7 -1.7 -1.7 -1.7 14.4 25.1 21.9 15.3 32.6 28.7 40.5 41.7 45.5 45.4 41.2 35.6 35.6 39.1 42.2 50.1 57.2 59.8 55.1 52.9 50.6 46.2 27.6 32.6 37.3 42.2 44.5 44.6 44.5 44.2 39.9 34.1 38.1 43.8 48.1 55.6 66.4 73.3 82.3 76.3 79.5 73.9 77 76.2 74.4 65.5 61 54.4 48.3 47.2 46 40.7 30.6 38.1 44.7 40.7 46.1 52.3 78.6 68.3 59 53.4 45.4 49.5 53.9 53.7 52.5 53.2 55.1 56.5 53.1 54.5 58.6 58.2 59.1 59.7 57.2 56.5 59 53.8 40.2 39 41.7 40.7 31.8 16.8 18 22.5 16.5 7 15.2 17.6 22.6 -1.7 -1.7 -1.7 10.5 9.8 -1.7 -1.7 -1.7 -1.7 -1.7 -1.7 -1.7 -1.7 -1.7 -1.7 -1.7 -1.7 -1.7
26.3 12.6 4.8 -1.7 11.7 26 61.5 85.6 98 88.2 84.8 84.4 80.7 76.6 64.2 52.8 47.9 44.8 23.9 7.4 -1.7 -1.7 -1.7 -1.7 -1.7 -1.7 -1.7 -1.7 12.1 5.1 11.2 -1.7 -1.7 -1.7 -1.7 -1.7 -1.7 -1.7 -1.7 -1.7 -1.7 -1.7 16 20.7 20.3 32.2 38.3 36.2 24 -1.7 -1.7 -1.7 -1.7 -1.7 -1.7 -1.7 -1.7 -1.7 -1.7 -1.7 -1.7 -1.7 -1.7 -1.7 -1.7 -1.7 -1.7 -1.7 -1.7 7.4 27.4 19 7.3 -1.7 -1.7 -1.7 -1.7 -1.7 -1.7 -1.7 -1.7 -1.7 -1.7 5 8.1 -1.7 -1.7 -1.7 -1.7 11.1 27.3 26.9 25.6 28.2 32.9 33.8 41.4 45.8 49.8 43.3 40.1 38.1 37.8 44.1 51.6 55.9 58.3 60.6 57.7 52 50.4 31.4 41.8 38.5 42.2 46.1 49.8 44.9 45.9 44.7 38.2 38.8 46.9 54.4 59 67.5 70.1 74.6 71.6 81.1 72.5 72.9 73.8 74.4 69.8 63.2 55.3 49.2 47.9 44.2 46.3 28.9 28.8 36.3 38.2 52.4 57.1 78 70.7 61.2 55.1 42.8 48.2 55 57.9 55.7 54.9 55.6 54.8 52.3 52.7 57.4 62.6 60.3 65.3 62.8 56.3 51.5 49.4 40.1 36 43.4 37.8 26 18.1 19 29.6 15.2 7.6 18.3 19.7 20.5 -1.7 -1.7 -1.7 13.9 14.3 7.8 -1.7 -1.7 -1.7 2.1 -1.7 -1.7 -1.7 -1.7 -1.7 -1.7 -1.7 -1.7
21.9 11.9 5.1 4.6 12.8 27.5 57.9 98.7 112.9 101.9 93 97 88.9 78.6 68.3 56.4 53.7 44 36.5 13.7 8.7 7.4 -1.7 -1.7 6 4.1 2.9 3.4 12.9 8 9.1 -1.7 -1.7 -1.7 -1.7 -1.7 -1.7 -1.7 -1.7 -1.7 17.3 22.6 35.8 38.3 39.6 40.7 53.5 51.9 37.1 17.9 -1.7 -1.7 -1.7 -1.7 -1.7 -1.7 -1.7 -1.7 -1.7 -1.7 -1.7 -1.7 -1.7 -1.7 -1.7 -1.7 -1.7 -1.7 4.7 9.5 24.4 13.2 11.7 18.7 -1.7 -1.7 -1.7 -1.7 -1.7 -1.7 -1.7 -1.7 -1.7 -1.7 9.5 12.9 -1.7 8.1 -1.7 7.9 24.2 28.8 24.2 24.6 25.5 32.2 44.9 47.3 45.1 45.5 48.2 46.9 43.9 49.3 53 56.6 62.9 63.8 60 49.6 41.6 33 52.1 41.6 39.7 48.5 47 46.3 47.3 46.6 43.1 39.3 45.6 53.4 59.7 71.4 73.9 68 68.3 77.5 75.9 69.1 70.4 71 71.6 64.1 54.2 52.7 48.4 43 46.5 28.8 28.8 37.6 38.9 54.1 60.1 73.3 72.5 62.1 50.1 45.8 46.4 52.2 56.6 59.3 56 55.1 54.7 52.2 52.7 53.5 55.9 55.7 61.2 56.4 48.8 44.7 40.1 36.6 31.7 40.9 38.9 25.9 18.9 18.6 23.5 14.9 7.1 14.5 17.1 11.4 -1.7 -1.7 -1.7 11.7 21.5 16.8 10.1 2.9 7.7 8 -1.7 -1.7 -1.7 -1.7 -1.7 -1.7 -1.7 -1.7
19.3 8.1 5.8 3.8 11.1 28.5 53.7 100 109.9 118.1 99.7 98 87.1 80.4 74.4 60.9 48.7 46.1 37.7 20.9 13.6 13.8 9 -1.7 -1.7 9.2 4.3 5.2 10.4 6.2 2.6 -1.7 -1.7 -1.7 -1.7 -1.7 -1.7 -1.7 15.4 23.4 40.5 46.4 51.7 54.7 61.1 56.5 60.2 55.4 46.1 34.2 -1.7 -1.7 -1.7 -1.7 -1.7 -1.7 -1.7 -1.7 -1.7 -1.7 -1.7 -1.7 -1.7 -1.7 -1.7 -1.7 -1.7 -1.7 5.5 9.2 24.9 12.7 19.8 18.6 -1.7 -1.7 -1.7 -1.7 -1.7 -1.7 -1.7 -1.7 -1.7 -1.7 8 10.4 2 4.2 -1.7 6.5 17.5 27.6 26.7 24.5 25.4 25.8 29.8 40.3 44.6 50.8 50.1 51.3 51.5 56.4 59.5 66.6 70.5 69.5 63.3 55.1 46.3 42.3 59.5 49.6 38 46.9 44.4 45.1 49.4 50.1 48 40.9 43.5 50 58.1 67.4 73.8 68.1 67.2 67.4 65.4 64.4 67.5 67.2 73.4 66 56.2 48.2 44.2 40.6 43.1 29 28.8 33.9 37.9 58.7 58.7 62.7 72.2 62.8 49.2 43.6 48.5 54.9 51.4 55.7 52.5 53.5 52.7 52.7 52.7 52.7 54.4 56.4 56 49.5 45.8 44 42 39.4 29.9 36.9 36.9 27.2 18.8 14.3 17.1 8.2 2 2 5.6 -1.7 -1.7 -1.7 5.6 13.7 28.3 24.9 19.8 6.6 4.8 5.8 4.4 -1.7 -1.7 -1.7 -1.7 -1.7 -1.7 -1.7
18.5 10.9 7.7 4.2 9.8 26.2 48.2 87.5 105.9 116 108.4 98 91.6 80.5 73.2 60.3 48.7 45.7 38.6 23.9 19.4 21.1 15.2 -1.7 -1.7 6.2 4.6 6.2 6.7 5.3 4.6 -1.7 -1.7 -1.7 -1.7 -1.7 12.4 18.3 32.8 39.1 59.6 66.4 64.4 78.5 75.4 68.5 60.2 62 50.7 36.4 -1.7 -1.7 -1.7 -1.7 -1.7 -1.7 -1.7 -1.7 -1.7 -1.7 -1.7 -1.7 -1.7 -1.7 -1.7 -1.7 -1.7 -1.7 7.4 9.7 23.1 20 24.4 16.5 -1.7 -1.7 -1.7 -1.7 -1.7 -1.7 -1.7 -1.7 -1.7 -1.7 8.3 10.4 7.2 3.5 2 6.9 11.4 25 20.6 25.7 24.7 26.6 31.6 39.7 48 53.1 60.8 59.5 60.1 68.4 71.7 73.8 76.6 76.5 72.2 61.8 55.2 49.1 58 53.3 42.4 37.9 37.9 37.9 45.4 47.3 52.7 42.8 42 44.9 52.1 55.5 61.6 65.2 67.4 67 66.1 60.9 67.2 66.3 66.8 64.2 56.6 49.2 45.9 39.9 36.2 30.5 29.4 34.1 38.4 49.6 52.6 55.6 59.5 58.8 48.2 43.6 46.9 57.5 51.4 49.6 49 52.8 52.7 52.5 53.5 54.8 55.8 63 59.6 54 51.2 50.8 48.9 41.5 35 26.6 28 21.5 16.4 16.4 12.3 8.5 2 1.3 0.7 -1.7 -1.7 -1.7 6.2 11.5 21.3 28.5 17.4 13.7 8.4 5.6 6.7 -1.7 -1.7 -1.7 -1.7 -1.7 -1.7 -1.7
9.9 7.7 6.5 5.7 7 20.7 46 77.1 98.6 109.5 113.8 98.2 91 81.7 74.6 57.9 47.3 44.4 35.8 27.7 27.1 27.5 23.2 13.1 -1.7 -1.7 4 6.7 6.6 6 6.3 5.7 -1.7 -1.7 -1.7 10 25.3 32.4 44.1 54.8 74.5 73 76.2 88.5 85.9 78.3 65.6 61.2 50.2 34.2 -1.7 -1.7 -1.7 -1.7 -1.7 -1.7 -1.7 0.3 -1.7 -1.7 -1.7 -1.7 -1.7 -1.7 -1.7 -1.7 -1.7 -1.7 11 10.9 19.1 20.6 19.6 14.9 -1.7 -1.7 -1.7 -1.7 -1.7 -1.7 -1.7 -1.7 -1.7 -1.7 4 7.4 10.3 2.4 2 4.5 6.6 19.1 20.3 22.8 27.7 40.4 45.7 47.5 59.6 62.4 71.2 71.4 72.2 77.2 80 80.9 82.4 82.6 77.1 70.1 66.7 60.3 64.9 63.4 51 39.8 37.9 37.9 38.6 46.4 54.5 47.2 42.9 43.5 50.9 56.3 64.8 69.3 70.1 69.2 62.5 59.5 66.9 69.1 66.4 66.2 57.1 54.2 48.2 44.7 37.4 32.3 33.3 40.7 42.6 49.6 55.1 52.6 51.7 51.7 46.4 44 44.9 57.7 49.6 49.7 45.9 52.6 54.2 55.4 59.2 61.8 61.8 66.6 68 59.9 57.6 56.6 54.9 46.5 39.5 26.9 21.1 22.6 14.9 21.6 15.5 8.4 3.6 0.3 -1.7 -1.7 -1.7 -1.7 5.8 12.3 20 22 22.5 21.7 16.6 6.8 2.2 -1.7 -1.7 -0.2 -1.7 -1.7 -1.7 -1.7
11.8 8.3 6.9 6.8 6.1 17.3 39.4 68.1 89 98 109.3 99.4 88.9 78.7 69.6 61.4 48.5 43.9 36.9 32.8 32.3 35.6 30.9 26.2 6.3 -1.7 -1.7 7.2 7.1 7.9 8.8 7.5 5.7 5 7.7 20.9 30.2 49.2 61.9 73.5 85.4 80.9 84.1 96.8 92.5 86 65.6 56.6 50.4 36.9 23.6 -1.7 -1.7 -1.7 -1.7 -1.7 -1.7 7.6 -1.7 -1.7 -1.7 -1.7 -1.7 -1.7 -1.7 -1.7 -1.7 -1.7 -1.7 11 15.9 12.4 9.4 10.5 -1.7 -1.7 -1.7 -1.7 -1.7 -1.7 -1.7 -1.7 -1.7 -1.7 -1.7 4.2 8.2 3 2 2.2 9.2 25.5 27.6 31.4 34.2 48.8 57.3 63.3 80.3 85.5 89.1 87.4 86.6 86.1 87.3 83.9 84.8 84.2 79.8 76.7 72.9 66 66.7 66.1 58 47.2 37.9 37.9 37.9 39.5 55.8 51.5 45.5 44.8 53.8 59.8 71.8 77 73.3 65.1 60.5 58.3 57.6 71.6 66.1 68.2 61.4 57.1 52.7 44.9 41.3 33.5 38.6 45.6 48.1 57 56.4 56.5 52.9 54.4 49.2 47.1 44.8 49.8 43 44.1 43 52 54.8 58.1 62.4 66.1 64.6 66.6 68.3 59.2 59 61.2 55.1 50 36.2 30.4 21.4 14.6 13.2 21.2 17.4 6.4 1.9 2.6 -1.7 5.3 3.5 3.5 11 16.3 26 25.8 28.8 31.2 22 19.6 9.8 2.3 -1.7 9.3 8.9 -1.7 -1.7 -1.7
21.2 12.4 11.7 10.3 8.3 15.4 32.9 58.3 87.3 91.1 102.5 97.9 85.3 84.7 79.1 65.2 51.7 42 39.6 36 38.4 43.1 37.8 35.2 18.8 -1.7 -1.7 7.5 8.4 8.6 12.3 10.2 9.1 10.7 18.5 28.6 46 53.4 74.9 75.9 84.4 87.4 97.9 99.6 97.9 84.9 66.1 50.5 49.4 36.4 24.5 -1.7 -1.7 -1.7 -1.7 -1.7 15 2 -1.7 -1.7 -1.7 -1.7 -1.7 -1.7 -1.7 -1.7 -1.7 -1.7 -1.7 11.7 10.5 9.5 7.4 4.6 7.6 -1.7 -1.7 -1.7 -1.7 -1.7 -1.7 -1.7 -1.7 -1.7 -1.7 3 5 4.4 2 10.9 8.7 30.2 33.6 38.6 46.9 52.8 65.7 71.4 84.1 95.2 97.4 98.4 96.1 95 100.9 100.7 99.4 97.6 89.4 76.5 77 69.6 71.5 69.1 63.9 53.5 42.2 37.9 37.9 37.9 46.3 52.6 49.5 50.1 50.6 62.5 74.3 79.6 76.1 65.6 61.8 59.4 56.4 64.6 64.8 66.4 61.9 56.8 53.4 46.4 40.2 35.4 41 51.5 53.1 66.4 70 65.9 61.2 55.5 50.3 50.9 46.9 43 43 43 43 52.5 56.8 60.4 59 59.6 61 61.1 61.3 61 60.6 58.8 52.9 43 38.3 31.2 20.8 13.7 10 14.2 7.6 7.1 6 7 -1.7 -1.7 -1.7 8.7 21.6 27.3 29.3 29.7 29.3 27.2 22.4 22.5 20.8 10.1 16.2 18.6 16.4 10.8 8.4 11.9
28.4 20 14.9 9.8 10.5 8.3 25.8 48.6 75.8 85.9 88.4 91.6 81.4 80.6 74.7 63.2 52 43.2 41.7 47.7 45.1 51.8 44.7 42.4 36.4 7.9 -1.7 6.7 8.5 9.1 12.6 12.3 13.2 14.7 26.1 37.2 46.6 59.7 82.1 77.8 80.1 92.9 108.7 103.6 89.3 85.9 70.6 45.4 39.6 30.5 17.8 -1.7 -1.7 -1.7 -1.7 -1.7 18.4 -1.7 -1.7 -1.7 -1.7 -1.7 -1.7 -1.7 -1.7 -1.7 4.2 0.5 1.6 9.8 7 11.3 7 8.3 4.4 -1.7 -1.7 -1.7 -1.7 -1.7 -1.7 -1.7 -1.7 -1.7 -1.7 -1.7 -1.7 1.4 2.6 12.1 10.3 27.3 33 41.5 50 58.8 70.6 78.5 89.6 103 106.8 106.4 107.8 105.7 107.9 111.1 109.9 106.1 108.1 95.4 82 78.4 83 78.3 64.4 53.7 43.1 40.6 39.2 38 45.2 51 55.9 59.8 54 55.6 62.3 71.8 74 69.3 63.9 60.1 57 57.9 58.1 63 60.1 60.5 56.6 51.1 41.7 37.6 49.8 58.7 62.7 72.9 77.4 72.3 75.4 62.8 52 50.7 51.2 43 43 43 45.2 50.4 56.3 56.2 57.1 61.2 62.2 63.7 66.2 63.3 66.1 61.6 55.6 43.4 39.6 31.7 26.4 13.2 8.7 7.8 4.8 8.8 5.4 6.8 -1.7 -1.7 -1.7 10.3 31.1 42.5 46.6 48.3 45.1 41.3 41.8 40 33.9 20.6 18.3 26.9 26 17 11.2 17.5
31.1 21.9 14.9 10.3 10.5 7.1 19.2 41.9 59.7 74.9 79 83.6 72.2 70.4 64.2 63.9 52.9 46.1 52 57.1 50.7 55.4 46.6 49.5 40.6 16 3.6 5.6 7.8 7.7 14.9 13.9 15.9 18.4 32.2 45.3 49.6 63 76.4 78 84.8 95.8 97.2 90.3 84.9 73.4 64.5 51.1 29.1 24.9 8.9 -1.7 -1.7 -1.7 -1.7 15 17.3 -1.7 -1.7 -1.7 -1.7 -1.7 -1.7 -1.7 -1.7 -1.7 -1.7 2 3 7 4.9 4.3 2.4 4.9 1 -1.7 -1.7 -1.7 -1.7 -1.7 -1.7 -1.7 -1.7 -1.7 -1.7 -1.7 -1.7 -1.7 1.8 12 14.2 24.2 31.4 41.6 49.3 63.3 71.5 82.1 98.2 114.6 120.7 122 119.2 122.5 121.5 124.1 122.8 119.3 117.7 108.9 94.3 86 90.3 85 71.6 65.5 53 44.8 44 45.1 47.9 58.6 56.1 68 63.4 58.9 61.2 69.3 65.7 65 67.4 62.8 58.2 53.9 51.3 57.3 60.4 59.4 57.2 57.2 44.4 41.1 49.8 65.4 73.1 76 77.1 81.5 68.5 60.6 54.4 52.5 46.8 43 43 46.8 52.1 55.4 58.4 63.6 61.2 63.5 66.9 66.4 65.6 66.8 64.8 60 52.9 42.8 39.6 29.4 21.5 14.3 10.8 9.8 5.4 11 7.3 11.1 7.5 -1.7 -1.7 21.3 49.2 51.9 58.1 60.5 55.8 53.5 53.9 51.1 44.9 32.6 19.4 27.3 26.5 18.1 13.6 15
41.9 31.6 20.8 10.2 7.9 7 12.6 32.2 50.5 65 67.4 75.6 67.3 65.9 62.7 61.3 57.8 53.8 58 57.9 53.2 55.3 54.8 48.2 38.4 23.2 7.8 4.9 7 6.6 11 15.8 19 23 35.5 50.5 55.6 61.1 77.3 86.4 87.1 93.7 93.2 81.9 72.9 63.2 56.4 40.4 21.3 12.3 -1.7 -1.7 -1.7 -1.7 -1.7 9.3 14.6 -1.7 -1.7 -1.7 -1.7 -1.7 -1.7 -1.7 -1.7 -1.7 -1.7 -1.7 -1.7 6.1 5.1 2 2 2 2 -1.7 -1.7 -1.7 -1.7 -1.7 -1.7 -1.7 -1.7 -1.7 -1.7 -1.7 -1.7 -1.7 -1.7 12 15.9 14.7 29.7 39.6 49.2 61.1 69.9 91.8 107.8 126.6 133.9 136.6 133.7 137.2 135.5 134.8 134 130.1 123.6 116 101.4 87.9 95.7 86.7 75.7 73.9 55.9 47.4 46.3 52.6 50 53.4 54.5 63.1 68.7 66.2 67.8 66.8 69.9 69.4 65.2 64.3 60.4 51.7 51.4 53.6 55.4 54.9 54.1 56.6 46.1 44.2 49.1 65.7 69.7 78 78.2 76.1 67.3 62.3 57.5 55.2 49.8 47.4 43 49.6 57 58.4 60.9 62.6 64.8 64.4 67.4 66.8 66 64.4 63.1 59.1 53.9 44 43.7 30.9 23.4 16.2 9.7 6.8 5.3 5.6 9.6 13.6 5.3 5 6.8 23.2 49.3 58.9 68.3 70.2 70.6 65.6 60.4 59.5 54.9 45.1 21 27.5 25.1 16.3 14.1 18.3
55 40.2 26.3 15.6 15.6 8.9 6.8 26 41.9 58.5 64.5 65.7 65.7 64.6 63.6 64.2 67.2 65.1 66.5 63.8 56.1 59.9 54.6 43.8 38.8 24.7 6.6 3.2 5 4.7 9.5 16.7 22 26.5 30 55.7 57.9 63.6 74.1 78.5 87.3 91.2 85.6 76.4 60.8 44.8 32.9 26.9 15.9 11.4 -1.7 -1.7 -1.7 -1.7 -1.7 -1.7 -1.7 -1.7 -1.7 -1.7 -1.7 -1.7 -1.7 -1.7 -1.7 -1.7 -1.7 -1.7 -1.7 4 4.1 2 2 5.9 7.6 2 13.2 -1.7 -1.7 -1.7 -1.7 -1.7 -1.7 -1.7 -1.7 -1.7 -1.7 -1.7 5.6 11.9 18.6 15.8 24.6 37.6 47 57.5 77.7 96.7 115.1 134.4 144.9 147.2 142.7 148.5 142 143.9 142.1 136.1 131.1 121.3 106.7 86.3 94.8 87.4 77.3 81 61.9 51.4 51.3 59.9 56.1 54.5 55 62.6 69.7 71.3 72.1 66.1 68.8 66.2 63.1 59.7 59.9 52.6 51.4 53.5 55 55.4 52.5 47.4 44.5 47.6 53.1 60.5 63.8 73.1 81.7 88.6 80.6 65.2 59.7 55.2 50.4 50.8 44.1 52.9 59.7 60.8 63 64.2 65.8 66.1 67.8 68.9 69.1 66.8 63.3 59.1 50.2 45.3 48.2 31.4 26.4 18 10.7 7.4 6.8 7.7 11.4 10.1 5.5 6.3 9 30.7 55.8 62.8 73.3 78 82.3 77.3 68.6 68.4 64.9 53 26.8 35.9 27.3 17.7 14.1 16.8
66.5 53.5 36.8 27.7 19.4 11.7 7.5 16.5 35.7 52.6 61.4 64.4 65.2 64.9 65.2 67.7 74.1 74.7 66.5 66.1 56.7 58.4 54.4 44.9 38.6 19 8.9 2.8 2.8 2.8 8.3 15.4 24.3 29.7 34.6 49.5 54.8 56.4 65.1 73 75 71.6 70.5 68.2 55.2 34.1 24.6 15.6 9.8 4.4 -1.7 -1.7 -1.7 -1.7 -1.7 -1.7 -1.7 -1.7 -1.7 -1.7 -1.7 -1.7 -1.7 -1.7 -1.7 -1.7 -1.7 -1.7 2 4.8 7.3 8.7 8.2 11 9.5 6.5 14.2 7.4 -1.7 -1.7 -1.7 -1.7 -1.7 -1.7 -1.7 -1.7 -1.7 -1.7 -1.7 10.1 19.8 15.6 16.4 38.1 51.9 63.9 81.6 100.8 120 140.2 151.9 153.8 149.5 151.9 153.4 153.7 146.8 145 134.9 125 107 87.9 95.1 88.7 78.5 85.4 69.2 56 61.9 68.5 64.2 62.8 57.7 67.7 69.5 69.8 69.1 68.2 72.9 65.1 60.3 59.2 58 51.4 51.4 51.4 50.9 53.5 52.3 47.7 48.2 51.9 63.2 73.1 69.9 74.4 84.6 92.8 91.8 75.9 60.7 55.6 51.1 48.4 46 60.3 65.7 64.3 68.2 68.4 69.3 69.7 69 72.6 73.9 70.7 69.5 67.9 52.8 45.5 40.5 30.8 29.9 22.4 11.4 7.4 6.2 7.9 15.4 9.9 6.6 8.1 15.4 34.2 57.9 69.8 82.5 87.4 90.9 88 74.7 76.3 70.3 58.7 37.4 36 27.4 16.6 15.3 16.4
75.8 63.4 40.6 35.4 18.7 12.3 9.3 8.2 27.7 46.4 57 63.6 64.2 66.2 68.9 71.9 73.6 72.7 67 62.9 57.2 55 54.3 47.4 34.8 19.5 9.5 2.8 2.8 2.8 6.5 15.8 24.6 32.3 36.4 41.5 45.7 52.6 60.3 68.5 69.8 72.6 80.1 68.5 53.3 31.1 15.3 10.9 17.6 9.4 7.4 -1.7 -1.7 -1.7 -1.7 -1.7 -1.7 -1.7 -1.7 -1.7 -1.7 -1.7 -1.7 -1.7 -1.7 -1.7 1.7 5.3 9.9 10.8 12.6 14.6 14.5 12.8 10.9 8.1 13.7 13.1 7.3 -1.7 6.6 -1.7 -1.7 -1.7 -1.7 -1.7 -1.7 -1.7 -1.7 4.3 19.6 20.9 14.8 31.2 47.8 54.2 81.5 99 123.5 143.4 155.9 156.3 155.4 159.1 164.1 161.8 156.1 149.2 139.3 124.1 106.2 91.3 93.7 89.1 82 88.8 71.2 60.2 64.1 69.4 68.8 65.8 62.7 74.7 80 77.2 76 75.8 80.3 70.6 60.4 57.1 54.5 51.4 51.4 51.4 51.3 51.4 50.9 52 51.3 57 74 91.1 85.3 90.5 90.4 91.6 90.3 74.6 65.9 58.3 51.1 47.8 53.1 67.8 73.5 69 74.2 73.6 75.7 73.9 73 73 73.7 75.8 72 65.2 52 46.1 36.8 30.5 31.7 21.5 13.2 7.7 6.7 7.8 16.8 11.8 8.2 9.5 17.1 32.4 57.3 70 82.9 89.4 95.1 92.6 84.5 82.6 72.7 62.2 50.1 35.3 32.3 20.2 19.8 21.9
85.5 60.9 43.1 39.2 21.1 13.4 10.1 8.1 18.2 37.4 51.4 62.2 62.7 65.4 69.8 73.8 83.1 77.5 70.3 64.3 61 55.9 57.7 45.8 26.7 18.9 12.7 3.9 2.8 2.8 2.9 12.1 22 30.6 33.3 33.9 38.5 48.9 60.2 74.8 74 78.8 75.7 60.5 39.2 22 16.6 16.2 25.9 15.9 19.1 -1.7 -1.7 -1.7 -1.7 -1.7 -1.7 -1.7 -1.7 -1.7 -1.7 -1.7 -1.7 -1.7 -1.7 -1.7 3.9 6.6 9.5 13.6 14.5 15.2 17 12 11.1 8.2 19.8 17.4 11.9 4.3 14.5 -1.7 -1.7 -1.7 -1.7 -1.7 -1.7 -1.7 -1.7 2 21.9 20.1 13.2 23.9 41.4 52.7 82 98.7 125.2 145.8 160.6 162.8 160.3 164.7 169.4 167.6 163.3 153.3 144.7 128.8 101.3 92.9 94.2 90.7 85.1 85.1 71.3 65 69.1 75.8 78.3 70.7 73.3 82.1 94.5 91.4 81.6 81.6 81.2 73 66.7 53.3 51.4 51.4 51.4 51.1 51.2 51.4 52.3 55.4 55.6 64.7 85.4 97.1 97.2 96.3 95.5 103.3 95.7 79 71.9 65 55.6 50 60.1 74.6 79.2 72.8 79.1 80 79.1 78.3 77.5 76.2 73.8 73 72.7 66.4 53 40.8 30.3 27.8 34.9 25.7 12.4 8.1 7.5 6.8 16.8 17 9.9 14.4 17 31.5 51.9 72.6 82.4 91.9 95.7 92.6 91.2 81.7 74.9 67.4 55.8 37 33.8 21.5 24.1 29.3
88.7 57.3 44.9 37.5 23.6 12.4 9.5 8.7 10.2 27.6 42.3 60.1 62.1 63.3 72 72.7 88.9 82.7 75 62.6 60.9 55.1 48.5 43.7 34.5 23.9 12.3 3.2 2.8 2.8 2.8 10.5 17.4 27 31.1 34.6 41.4 46.6 53.9 70.9 76.3 72.9 66.9 47.9 34.4 19.4 23.9 23.8 19.1 26.3 15.2 -1.7 -1.7 -1.7 -1.7 -1.7 -1.7 -1.7 -1.7 -1.7 -1.7 -1.7 -1.7 -1.7 -1.7 -1.7 6.9 8.6 9.3 18.3 17 16.5 15.2 10.2 8.5 8.2 24.3 20.6 17 14.7 19.8 15.9 -1.7 -1.7 -1.7 -1.7 -1.7 -1.7 -1.7 -1.7 11.3 18.7 12.1 29.1 34.8 47.7 68.7 94.2 119 143.8 159.1 167.3 168 170.9 179.4 175.7 168.7 158.8 145.6 129 102.9 95.5 97.7 91.3 87.4 86.5 74.8 70.3 74.3 85 90.3 83.7 87.5 77.1 97.4 89.6 87.7 81.9 78.2 73.5 60.4 54.2 51.4 51.4 51.4 51.4 51.4 51.4 53.6 54.8 56.8 71.4 89.1 97 99.8 95.4 99.4 108.4 104.5 94.9 85 71.4 62.3 55.1 64.6 75.1 79.3 75.7 79 81.5 80.7 80.2 78.7 79.9 75.6 71.4 67.1 63.1 52.8 39.2 33 26.1 31.4 28.2 14.6 8.6 8 7 12.8 16 12.5 19.2 21.6 35.2 54 72.9 83.8 92.9 93.3 92.2 93.3 88.8 75.4 65.7 59.1 38.5 38.7 25.6 26.4 39.1
84.4 55.8 45.2 36.9 22.3 12.8 10.2 9.4 8.5 17.3 34.6 49.3 61.6 61.8 68.7 69.4 80.9 81.7 66.6 59.2 56 53.9 47.8 43.9 39.8 28.4 11.5 5.8 2.8 2.8 2.8 4.7 17.1 25.4 34.4 37.1 40.5 44.4 48.4 55.9 67.8 64.9 55.3 41.8 24.8 20.4 17.6 20 18.7 20.5 10 -1.7 -1.7 -1.7 -1.7 -1.7 -1.7 -1.7 -1.7 -1.7 -1.7 -1.7 -1.7 -1.7 -1.7 -1.7 10.1 10.1 13.5 17.8 19.9 19.1 17.1 11.4 9 8.5 19.1 22.4 23.5 20.2 35.7 34.3 11.4 2 5.7 -1.7 -1.7 -1.7 -1.7 -1.7 5.4 15 9.9 29.6 41 48.3 55.7 83.5 110.7 133.5 154.8 163.5 170.4 175.5 182.6 178.2 172.2 160.7 148.6 125.5 102.1 94.6 102.1 97.9 91.8 87.7 77.8 79.5 90.4 97.8 100.5 87.7 95.1 82.5 84.3 83.7 82.7 90 86.1 81.1 62.5 59.5 51.1 51.4 51.4 51.4 51.4 51.4 51.4 51.4 56.5 69.3 84.8 95.4 101.5 99.6 99.9 109.6 105.6 100.2 95.2 80 74.9 61.3 63.6 81 79.7 76.6 85.4 82.6 83.1 80.4 78.9 78.3 75.1 73.4 68.9 62.2 45.5 43 35.1 25.6 25.3 29.1 14.1 8.8 8.2 7.8 8.5 13.3 15.8 24.5 27.4 38.7 55.2 72.3 82 91.1 96 93.6 96 92.1 79.4 70.3 62 41.2 36.6 30.7 35.5 44.5
92.8 65.2 51.9 38.6 25.4 16.7 15.4 12.2 9.1 9.2 23.3 43.3 57.2 59.1 66.8 67.4 69.9 74 66.7 58 57.9 56.5 51.4 45.2 39.5 26.9 12.2 5.9 2.8 2.8 2.8 2.8 14.5 25 37 41.9 45 48.5 51 55.4 55 53.9 43.9 37 21 19 17.9 18.5 31.3 45.9 26.6 11.8 -1.7 -1.7 -1.7 -1.7 -1.7 -1.7 -1.7 -1.7 -1.7 -1.7 -1.7 -1.7 -1.7 -1.7 8 7.4 12.8 18.1 19.7 20.2 17.4 11.3 12 10.7 23.4 23.8 20.2 22.5 49.2 41 19.5 10.2 4.3 1.4 -1.7 -1.7 -1.7 -1.7 5.4 8 8.7 21.6 43.2 47.8 52.4 77.1 100.6 125.8 145.7 165.4 171.8 175.1 179.9 176.1 171.5 164.1 147.6 125.7 105.6 94.6 98.7 99.5 92 91.3 84.7 83.1 98.4 100.2 111.4 99.8 91.3 94.4 87.3 82.7 85.9 91.7 94.6 75.1 66.9 63.2 54.9 51.4 51.4 51.4 51.4 51.4 51.4 51.4 54.3 61.4 81.2 94.5 100.4 98.4 98.2 103.4 103.1 103.1 96.5 88.9 83.7 69.6 67.1 85.2 86.5 79.8 89.7 86.5 83 80.6 78.3 76.5 74 69.9 64.2 57.1 47.4 46.6 38.2 27.8 21.6 20.7 13.7 9.4 9.3 9 8.8 11.3 19.8 29.8 32.2 40.3 56.5 75.8 83.9 89.3 91.1 91.1 96.4 92.1 79.7 73.1 67.4 49.4 40.1 33.8 33.5 53.1
98.4 72.7 55.2 41.3 30.6 18.7 19.8 14.7 12.2 9.2 11 33 45.7 55.8 64.2 65.7 64.4 70.6 61.7 58.2 57 54.2 51.9 48.5 36.9 27.8 14.9 2.8 2.8 2.8 2.8 2.8 7.2 25.6 36.2 42.2 47.9 52.6 53.4 54 48.7 35.6 31.8 28.5 27.5 30.5 32.7 43.9 48.9 57.4 41 22.6 6.1 -1.7 -1.7 -1.7 -1.7 5.9 8.1 10.8 -1.7 -1.7 -1.7 -1.7 -1.7 -1.7 -1.7 2.6 8.4 13.2 18.8 16.7 16.5 13.7 12.1 14.2 21.3 24.2 25.8 38.4 59.9 39.7 26.1 24.8 10.4 5.3 -1.7 7.6 3.3 3 10.3 9 8 20.9 41.6 53.9 50.9 67.8 90.2 114.6 132 159.1 169.7 175.1 178.2 175.1 169 162.5 145 121.8 105.2 94.6 95.3 99.2 94.1 92.2 93.6 87.9 100.7 108.5 109.2 105 97.3 96.6 91.3 90.6 85.7 87.3 96.7 79.1 65.6 64.8 55.3 51.1 51.4 51.4 51.4 51.4 51.4 51.4 55.7 60.7 73 88.3 90 92.2 94.6 96 102.2 104.7 94.7 88.5 79.7 75.4 74.6 69.6 78.6 79.7 88.9 85.2 84.2 83.4 77.6 76.5 72 65.1 61.2 56.4 46.4 41.4 39.6 30.1 22.8 16.5 12.5 10.5 10.7 10.8 10.3 11.2 23.8 34.7 35.4 44.4 56.6 73.9 89 94.5 92.4 93.3 93.2 87.3 80.9 77.8 68.2 55.8 46.4 36.5 35.4 55
92.8 72.7 59.3 45.1 29.6 18.9 19.6 19.6 15.2 17 10.4 23.9 35.4 51.2 59.7 67.6 63.9 60.4 57.2 55.4 52.7 52 49.3 46.8 36.3 26.7 10.1 3.4 2.8 2.8 2.8 3.5 8.6 21.7 36.4 43.5 47.2 53.8 48.2 45.8 38.4 33 31.4 34.8 41.2 46.4 46.7 51.9 64.1 67.8 55.5 32.3 13.8 -1.7 -1.7 -1.7 -1.7 6.5 8.7 16 6.4 3.5 -1.7 -1.7 -1.7 -1.7 -1.7 1.7 5 10.6 15.1 17.9 21.3 21.5 15.5 19.8 25.2 31.7 35.8 50.8 68.5 49.7 32.1 37.3 31.5 11.5 7.4 12.4 8.2 7.1 10 9.2 8 17.5 39.4 53.3 52.1 58.3 79.3 106.7 125 145.9 165.2 170.4 173.3 175.3 165.8 157.7 142.3 115.1 107.3 98.1 94.6 99.1 96.9 94.3 95.1 93.6 104.7 114.9 114.1 114.9 108.4 104.5 97.5 91.7 83.5 83.2 80 73.7 65.3 62.6 61.1 55.7 51.4 51.4 51.4 51.4 51.4 52.1 51.9 63.1 71 84.9 87 87.9 91.3 93.6 99.6 99.5 92.4 86.1 83.4 76.9 74.6 69.1 72.7 76.1 83 84.7 84.9 83.9 79.4 76 72.3 68.8 62.1 52.7 42.4 39.5 38.2 32.6 25.4 18.4 14.3 12.1 12.2 10.8 16.3 14.2 19.3 30.8 36.6 45.3 54.7 62.2 78.7 86.7 85.6 85.8 87.6 86.2 81.8 77.7 71.1 57.7 49.4 42.9 43.9 50.8
100.7 80.8 63.6 52.1 34.5 20.8 24.9 19.9 18 20.8 11.9 13.1 30.6 45.1 54.4 65.3 61.8 58 55.4 53.5 51.2 51.2 48.8 40.3 35.2 28.3 16.7 2.8 2.8 2.8 3.6 5.1 9.5 16.3 32.9 37.9 39.2 44.1 43.4 48.4 47.3 40.6 36.5 37.1 45.6 59.5 60 64.4 79.5 81.6 62.2 34.9 21.3 -1.7 -1.7 -1.7 5.2 11.2 9.5 24 11.7 -1.7 -1.7 -1.7 -1.7 -1.7 -1.7 -1.7 4.5 9.6 18.4 25.8 30.5 21.9 16.9 17.9 28.5 41.5 49.5 52.7 72.7 56.4 39.2 43.3 45.9 22.9 13.8 10.9 11.4 11.1 9.5 10.1 9.1 20 35.2 51.7 58.1 51 65.4 98.5 116.4 138.2 153 163.1 166.7 162.4 156.4 150 134.6 118.1 107.3 103.1 94.6 98 99.7 96.6 98.7 99.5 105.3 112.2 115.8 118.1 112 111.8 105.1 98.5 88.8 82.5 78.9 72.6 66.8 66.1 66.3 65.4 51.4 51.4 51.4 51.4 51.4 51.4 53 59.1 67.9 73.9 81.2 84.6 85.7 88.3 91.9 93.5 88.2 83.9 81.7 77.7 75.2 72.3 74.7 75.9 83.8 84 92 90.6 86.5 81.8 77.6 70.1 62.1 56.4 42.3 39.3 39.5 34.2 26.6 22 20 15.6 14.2 13 21.1 16.9 20 27.5 33.5 46.9 52.7 62.7 73 79.6 80.8 77.3 81.6 83.4 84.5 80.5 68.4 57 47.7 41.3 43 50.4
116.3 87.2 71 62.6 35.9 21.8 21 22.8 22.6 24.6 22.5 11.7 25.9 43 50.3 57.3 60.2 56 54 52.7 49.8 48.4 46.2 45.6 41.2 31.8 17.7 4 3.1 3.3 5.1 5.4 9.1 15.6 27.8 34.1 36.8 41.5 46.3 57.7 52.1 47.7 47.1 46.4 58.9 66.3 68.1 72.2 94.2 93.5 68.3 48.7 24.5 10 -1.7 -1.7 -1.7 13.2 12.5 12.9 5.5 -1.7 -1.7 -1.7 -1.7 -1.7 -1.7 -1.7 4.9 8.4 17.4 24.2 24.8 25 17 18.8 32.3 52.9 59.9 67 77.4 69.8 55.1 54.8 57.7 32.5 23.7 22.7 16.4 12.9 10.5 10.8 10.5 14.2 29.9 47.6 52.9 50.4 59.2 88.3 104.9 126.8 143.9 156.3 158.5 151 145.7 146.7 135.2 121.6 109.5 106.8 97.9 94.6 101.7 100.1 109.3 108.5 107 114.8 118 117.8 117.7 117.9 116.3 106.9 92.3 83.2 78.5 76.6 77 69.8 64.9 59.7 51.4 51.4 51.4 51.4 51.4 51.4 51.9 62.9 70.5 73.9 84 87 88.2 91.6 95.4 95.6 89.2 84.1 82.5 79.5 82.5 78.4 76.4 77.6 94.6 84 93 90.2 88.4 87.9 81.7 73.9 66.3 58 45.1 41.6 40.1 34.5 29.6 24.3 24.7 20.1 16.3 16.8 24.1 20.5 21.1 27.4 32.4 51.2 54 59.9 72.3 73.8 75.7 75 77.1 80 80.1 72.7 65.1 55.6 47.5 43.3 43.7 51
119.7 104.8 89.3 73.5 44.2 25.7 24.7 25.7 28.1 27.6 27.7 11 24.7 40 48.5 52.2 56.8 55.1 54 52.5 51.2 49.4 46.1 43.3 41.2 28 14.7 4.3 4.2 4.8 5.3 6.6 8.4 16.6 20.6 28.8 35.1 42.2 45.9 50.2 49.1 45.7 45.5 54.6 73.6 67.1 72.6 89.3 103 98.5 82.5 48.3 32.4 16.3 -1.7 -1.7 -1.7 15.7 18.7 13.6 7.1 -1.7 -1.7 -1.7 -1.7 -1.7 -1.7 -1.7 -1.7 6.3 13 23.7 23.1 16.8 17.9 23 29.6 60.3 71.2 72.3 82.7 76.2 63.6 62.7 67.5 43.4 22.7 22.7 17.6 18.6 12.3 13.6 11.3 10.8 30.4 32.8 46.9 53 55.2 81.2 99 115.6 133.1 140.1 137.6 142.3 145.6 138.3 129.9 121.2 109.2 106.3 99.4 94.6 102.7 104.8 116.7 116.1 117 127.5 133.2 134.3 128.6 128.1 125.8 114.8 99.8 91 90.2 91.3 88.7 73.7 73.8 62.9 51 51.4 51.4 51.4 51.4 51.4 57.8 65.2 71.6 74.6 77.6 84.5 93 98 97.3 102.3 90.8 86.3 85.3 84.8 97.4 85.9 81.1 85.6 100.6 94.4 84.1 89.4 89 86.4 85 74.5 68.1 58.3 47.9 46.4 44.6 38.1 30.4 25.7 27.4 22.8 18.3 15.4 25.7 25.3 24.9 27.7 31.9 52.8 56.3 59.6 61.4 70.6 67.6 71.8 76.5 72.1 70.7 68.5 64 60.9 52.2 45.3 44.8 54.2
128.4 111.6 98.2 77.9 48.5 32.3 27.3 29.1 31.9 27.2 25.7 18.4 16 34.1 43.2 48.6 53.6 53.2 53.7 53.6 51.3 50.4 47.5 43.2 35 30.3 15.7 5.8 5.2 6.4 7.1 6.9 8.9 17.5 20.9 28.4 33.6 41.6 47.2 47.7 47.9 45.5 45.5 51.8 77.9 85.9 97.1 106.9 109.4 106.6 88.1 67.1 43.1 21.1 9.7 -1.7 -1.7 14.5 19.3 23.5 16.4 10.5 -1.7 -1.7 -1.7 -1.7 -1.7 -1.7 -1.7 -1.7 9.9 15.6 15.6 15.4 22.2 18.9 27.8 60.5 73.8 80.1 93 91.6 81.9 68.4 65.3 49.5 25.6 24.6 21.4 19.1 15.7 13.8 12.8 11.1 24.7 35.1 40 49.7 52.5 77.5 91.5 103.6 113.9 120.9 132.7 132.7 136.6 133.5 120.3 112.7 108 106.7 95.5 94.6 97 107.3 113.9 123.2 120.6 134.2 143.2 144 140 135.5 126.7 114.8 104.1 99.6 94.8 99.6 86.1 70.2 65.3 58.1 52.7 51.4 51.4 51.2 52.8 53.9 57.8 63 74.7 75.4 76.7 87.1 98.7 106.2 103.2 93.5 90 88.1 87.9 91.7 105.4 96.1 92 92.3 99.2 101.9 87.2 84 86.5 86.5 82.1 75.1 66.9 61.7 53.1 50.8 48.9 40 32.2 27.4 32.3 25.5 20.2 18.6 27.2 30.6 29.1 29.4 32.6 47.8 56.4 59.2 61.3 61.8 61.7 65.7 68.2 69.3 71.6 69.5 67.6 64.2 52 46.1 45.8 50
126 109.3 91.6 75.6 42.7 35.1 28.7 31.2 33.7 27.1 23.2 19.8 12.5 29.2 37.7 44.4 50.4 52.1 53.4 53.2 51.9 48.2 46.9 42.1 32.9 25 12 6.7 6.4 7.7 8.6 8.4 10.7 19.8 24.1 26.7 34.4 42.4 52.3 54.5 48.4 45.5 45.5 45.5 76.2 102.7 111.6 114 114.9 111.8 90.6 69.7 47.2 24.2 10.3 -1.7 -1.7 -1.7 18.3 25 21.7 13.2 6.9 -1.7 -1.7 -1.7 -1.7 -1.7 -1.7 -1.7 4.1 7.4 11.3 20 22 17.4 32.8 56.9 74.9 86.2 89.8 101.4 94.7 74.5 67.1 52.2 36.2 27.6 22.5 20.1 14.6 13.2 13.1 11.5 14.3 32 34.6 46.8 51 70.3 85.5 95.6 106.4 116.8 120.9 126 123.9 124.1 112 108.4 107.5 111.4 106.6 95.5 94.6 102.5 113.7 128.2 128.2 138.9 146.1 154.8 149.3 138.1 128.4 120.8 113.7 107.3 98.4 92.9 77.8 71.5 62.4 58 55.7 55.6 53.4 53.4 54.2 55 57.5 62.8 75.1 74.2 76.7 89.4 101.5 110.8 109.8 103.1 98.4 97.8 96.8 97.8 104.3 97.1 100.8 96.7 99.2 105 98.9 91.6 88 88.1 82.8 76.2 71.4 66.4 57.3 55.2 54.6 43.8 32 27.6 30.4 30.2 22.3 24.1 31.2 38.9 34.3 35.2 33 52.4 59.8 60.8 61.9 63.5 60.3 60.3 63.9 70.3 71.5 69.7 69.6 65.5 53.2 47.9 46.5 50.7
130.6 108.3 84.5 76.7 46.4 38.3 30.6 32 30.2 27.1 24.5 21 14.2 20.5 33 39.5 47.8 51.5 52.9 53.2 51.1 48.1 43.8 38.2 31.8 24 13 9.5 8.4 10.2 10.5 10.8 13.4 22.3 26.9 27.2 34.7 43 57.7 56.2 51.1 47 45.5 51.2 73.7 108.5 122.5 122.4 116.7 111 92.7 73.4 51.4 26.9 11.5 -1.7 -1.7 -1.7 13.3 25.3 21.5 13.3 8.9 -1.7 -1.7 -1.7 -1.7 -1.7 -1.7 -1.7 1.9 2.8 19 24.9 23.8 17.1 31.9 54.7 69.9 93.1 91.4 109.4 102.7 81.4 72 62.3 39.3 33 26.1 19.4 16.5 13.8 13.5 12.5 14.1 24 34.1 41.6 49.8 56.2 74.6 90.2 102.9 109.6 112.8 119.4 116.7 113.7 109 106 106.9 111 110.8 106.9 101.4 106.1 115 128.4 139.4 139.4 152.1 159.7 155.8 140.5 137.3 125.5 123.3 112.9 102.4 91.6 83.1 69.7 63.7 62 60.1 57.4 55.4 56.5 57.5 58.9 59.1 64.8 69.2 73.2 78.3 87.9 102.7 118.8 122.8 119.6 112.1 106.1 105.1 105.7 104.6 100.3 105.5 105.5 100.7 107.4 103.5 102.3 96.7 86.8 80.4 76.7 77 71.5 61.9 57.5 61.4 49.9 32.1 27.3 27.3 24 23.2 31.5 34.5 46.4 37.2 40.4 36.4 48.7 62.3 64.5 64.2 68.4 67.5 60.3 60.4 66.7 64.6 67.2 63.7 61.4 54.3 49.3 47.9 50
120.5 96.9 89.3 76.6 51.8 39.9 32.9 31.3 32.3 26.7 24.6 22.3 20.8 12.9 28.1 35.8 44.5 49.1 52.2 52.8 50.3 47.5 44.8 41 31.7 23.7 16 12.5 11.6 13.5 13.3 13.9 16.5 25.9 29.8 27.8 30.1 48 51.7 51.5 51.8 51.8 51.6 57.5 80.4 95.4 120.4 124.2 118.8 107 95.1 77.9 52 28.1 13.1 -1.7 -1.7 -1.7 -1.7 23.5 19.7 7.5 7 5.4 -1.7 -1.7 -1.7 -1.7 -1.7 -1.7 -1.7 -1.7 14.8 20.5 26.5 17.6 28.4 52.4 67.5 97.1 104.9 111.4 105 84.6 79.2 71 43.9 40.8 34.1 26 19.8 15 14.3 13.5 12.7 18.9 32 35.9 45.7 52.9 63.1 78.9 91.1 94.2 107.4 110.5 109 106.5 102.7 104.6 107 110.9 115.4 114.1 107.9 104.2 116.2 133.4 144.5 140.6 153.6 153.6 147.1 148.7 144.7 132.1 126 113 99.5 90.9 78.9 70.2 66.6 64.2 63.1 59.3 57.4 60 62.2 64.9 61.5 65.8 70.9 74 78.1 90.9 119.4 130 133.1 128.9 122.9 119.9 113.3 113.8 107.9 103.6 110 111.6 108.3 116.8 112.4 105 100.2 86.3 80.9 76.9 74.5 72.7 65.6 60.9 52.9 40 32.4 26.2 24 22.2 22.6 35.1 41.6 46.3 41 40.1 38.3 46.9 56.9 61.7 62.6 64.7 65.3 63.9 60.8 64.3 60.5 59.6 57.5 56.9 52.1 49.3 49.3 50.1
