ncols 200
nrows 89
xllcorner 200000
yllcorner 774300
cellsize 50
12.3 12.4 13.8 14.8 16 16.3 12 11.8 16.3 18.4 19.8 19.2 20.5 24 24.4 25.3 23.4 23.2 24.8 26.7 30.6 32.4 34.2 39.7 40.6 35.3 35.8 33.8 33 32.4 33 32.7 32.3 31 28.6 24.6 23.4 21.4 19.2 16.7 11.5 10 9.3 6.9 6.2 10.1 12 13.8 18.7 21.7 24.4 22.9 25 26.6 30.9 33.8 32.9 32.9 34 35.2 35.9 37.7 39.9 42.5 43.7 44.3 44.9 45.5 45.8 45.9 46.1 46 45.2 44.4 43.6 41.7 40.2 39.2 37.2 37.4 37.4 37.5 37.2 37 37.8 40.4 47.1 48.8 51.8 52.5 50.1 53.2 54.7 55.7 57.1 58.1 59.8 62.3 64.2 66.3 68.6 69.4 69.2 69 69.5 70.1 70.1 69.6 68.1 66.7 65.9 65.2 66.4 67.9 69.3 72.7 75.9 78.2 79.9 81 94.3 94 93.5 91.1 91 99.9 113.3 119.8 123.4 129.5 137.4 144.7 143.6 144.5 142.8 140.1 143.3 147 145.8 144.4 139.6 136.9 147 158.2 163.2 167.4 169.2 171 168.2 160.9 163.2 171 168 172.3 171.5 169 170.8 172.2 167.8 170.8 163.5 158.3 153.7 148.8 141 145.5 140.7 132.8 138.5 139 139.7 139.5 140.3 139.6 139.3 145.3 155 166.1 171.1 170.2 179.7 184.8 194.9 204.2 210.7 213.1 216.2 222.5 231.9 232.4 236.8 244.2 254.4 265.1 267.6 271 270.3 270 269.5 267.8
11.2 10.4 11.8 13.1 13.7 14.1 12.2 9 11.7 14.2 16.4 17.9 19 21.4 23 22.4 21.9 27.3 30.8 26.6 27.8 28.5 32.5 35.5 32.4 31.7 31.5 30.1 29.4 29 29.5 27.7 28.2 29 27 24.1 22.6 20.3 17.8 14.3 11.1 7.3 7.6 6.5 5.8 9.3 11.2 13 15.2 17.8 20.1 20.1 22.6 24.8 32.4 33 30.3 29.8 30.4 29.7 33 34.4 36.1 36.9 38.9 40 40.6 40.9 41.1 41.3 41.3 41.2 40.3 39.5 39 38.6 37.7 34.9 32.6 31.9 32 32.8 33.1 33.2 33.9 36.7 38.3 46.6 51.5 46.7 45.8 47.1 48.2 48.8 50.2 51.6 53 54.9 56.8 58.7 59.4 59.5 59.3 59.1 59.3 59 58.7 57.9 56 54.6 53.2 53.7 56 57.8 59.4 63.1 68.4 71.3 72.6 75.3 82.9 85.4 87.2 84.3 72.5 98.1 108.4 113.7 116.4 125.6 131.7 132 134.6 134.8 134.4 131.9 132.7 137.2 135.3 137.9 133.2 129.9 138.8 146.4 152.2 155.8 155.9 154.4 148.9 157.2 160.3 163.4 164.2 165.9 164.9 162.9 165.2 166 163.2 165.3 159.2 152.7 150.1 142.8 138.9 140.8 140 137.2 132 132.5 132.3 131.8 130.9 130.1 139.8 148.5 158.2 168.2 171.1 174.4 179.2 182.3 195.1 203.5 209.3 212.5 213.8 221.2 222 227 235.9 243.5 248.4 255.7 261.3 265.7 267.1 265.4 263.2 263.6
7.6 8.3 9.6 11 11.3 11.9 11.1 7.8 9.6 10.6 12.2 13.2 14.1 16.7 17.3 18.1 17.2 23.2 27.1 19.4 21.6 24.4 26.6 28.3 27.1 26.3 27.9 26.8 25 23.9 24 24.7 25.1 27.2 24.6 23.5 20.6 18.2 15.1 12.4 10.3 8.4 7.3 6.1 4.8 8.1 9.9 12.1 13.3 14.2 17.1 19.4 21.6 21.6 27.1 28.5 27.5 26.5 24.8 28.8 29.3 30.4 31.9 32.1 33.2 35.2 36 36.3 36.2 36.1 36 35.8 35.3 34.6 33.9 32.9 31.3 29.5 27.4 26.6 26.3 27.3 28.5 29.2 29.8 31.9 35.2 38.8 40.6 38.6 39.4 40.6 41.7 42.1 43.3 45 45.8 47.8 49.9 50.6 50.9 50.6 50 49.5 48.7 48.3 47.9 46.5 44.8 42.2 40.5 39.6 44.3 47.1 47.7 54.8 61.9 64.2 65.3 72.6 75.8 80.1 82.4 68.6 83.8 92.9 100.6 109.5 111.5 116.7 119.7 120.6 122.8 123.6 123.3 122.1 123.2 125.5 128 129.2 123.9 131.3 133.4 140.4 141.3 142 144 141.4 148.1 153.2 155.1 156.3 157.1 158 155.5 156.3 158.1 156.8 157.4 156.9 149.5 143.9 143.2 137.4 133.3 136.4 134.7 132.4 118.2 126.1 126.4 124.2 128 132.5 142.3 151.6 159.9 166.1 170.8 175.1 179.9 182.7 191 198.1 203.6 206.6 209.3 210.3 217.3 224.4 231.8 240.2 246.3 250.8 253.5 258 258.4 258.2 259.3 258.4
7.9 7.3 7.7 8 8.4 9.1 8 6.9 7.5 7.8 8.8 8.7 8.8 9 11.8 12.7 13.2 14.3 16.4 16.5 20.2 22.9 23.2 21.1 20.6 23.8 26.2 23.6 21.2 21.7 20.7 21.4 21.9 21.1 20.2 18.6 17.1 15.3 11.5 9.7 8.5 8.2 7.3 6 4.8 7.2 9.9 10.6 10.7 11.8 13.5 19.8 17.7 16.4 18.6 24.5 23.8 21.9 21.8 25.2 24.6 25.7 27.3 27.7 28.1 29.3 30.4 30.9 30.5 30.4 30.3 30.1 29.7 29.1 28.2 26.5 25.9 24.5 22.3 21.2 20.1 21.5 22.6 23 24.2 26.5 28.9 31.3 31.8 31.4 32.2 33.8 35.2 35.6 36.4 39.6 41.2 43.6 44.5 42.4 42.3 41.4 40.9 40.3 38.2 37.4 37.3 36.5 37.7 36.4 34.9 32.9 35.4 41.7 41.8 51.2 56.6 57.6 53.3 62.6 66.9 74.7 76.1 67.4 80.8 86.3 95.6 101.7 104 106.1 106.4 108.9 111.7 113.3 114.2 111.7 115.6 115.5 116.3 119.1 119.3 124.2 127.6 128.3 135.9 133.2 131.3 134.6 141 146.1 149.7 148.9 151 151.9 150.1 151.3 153 148.8 148 143.4 138.2 136.9 136.1 133.9 132.2 127.5 127.1 124.6 115.7 117.2 118 123.4 128.5 134.9 143.2 152.8 161.8 167.2 174.9 176.5 179.8 184.3 188.5 194.4 198.8 203.9 204.5 208.6 222.5 227.9 238.2 242 244.4 246.8 251.7 253.6 252.9 254.9 257.8 253.1
5.1 4.8 5.7 6.1 6.4 6.5 6.2 7.4 6.6 6.5 6.6 6.1 6.5 6.1 7.4 7.8 9 10.7 11.2 12 14.9 18.5 19.4 17.9 16.2 16.6 18.9 19.9 17.4 19.4 20.2 16.6 18.1 16.7 14.6 15.1 12.2 10.9 8.4 8 7.6 7.4 5.4 4.6 4.2 7.1 7.9 8.2 8.3 8.2 9.1 9.9 12.2 12.7 15 19.6 16.9 15 16.5 18.7 19.2 20.3 23 22.7 22.3 23.3 24.4 24.9 24.9 24.6 24.5 24.4 23.9 23.4 21.6 20.6 20.7 19.4 17.1 15.5 13.1 15.4 17.4 18.2 17.9 21.3 23.9 23.9 24.6 24.8 25.1 26.8 28.5 30.3 26.4 32.3 35.2 36.8 38.4 35 33.1 32.1 31.7 30.6 29.4 28.6 28.2 28.3 32.6 33.6 31.2 29.8 30.1 32.2 34.7 41.2 47.8 49.6 48.2 55 61.5 65.9 49.2 67.5 76.3 81.3 89.6 94.2 97.9 97.1 94.7 97.9 101.9 103.3 104.7 104.2 104 105.8 105.6 105.6 109.8 114.1 117.9 122.4 125.2 120.8 127.4 134 139.3 138.5 143.1 141.2 140.6 141.7 142.6 141.9 142.3 140.3 135 132.3 131.3 129.7 131.2 130.2 127.9 124.1 121.5 119.3 116.8 116.6 115.7 125 130 137.2 141.6 149.3 155.7 164.7 169.8 170.8 177.5 180.8 184.3 191.7 195.5 196.3 202.3 214.8 223.6 232 237 244.6 242 243.9 250.7 247.8 248.2 248.5 244 241.3
1.4 2.4 3.6 4.6 4.9 4.9 -1.4 -1.4 6.3 6.5 4.1 2.8 2.5 2.1 3.2 4.8 6 7.3 9.1 9.2 11.4 15.1 16 17.4 14.1 14.6 16 16.2 15 14.3 11.4 7.7 9.7 10.7 11.1 11.1 8.2 6.7 6.3 6.2 6 6.1 4.6 5.2 3.6 6.4 6.2 7.1 6 5.4 6.1 6.1 5.9 8.6 11.2 11.8 12 10.9 12.3 12.8 13.5 15.6 17.1 16.1 16.1 17.1 17.6 18 18.7 19 18.8 18.6 18 16.8 16 15.3 13.5 12.5 11.3 9.5 10.6 11.8 13.4 13.4 13.5 15.2 18.9 17.7 17.4 17.7 18.4 19.5 20.7 20.1 21.5 26.8 27.5 26 24.5 23.3 22.6 22.6 22.1 21.9 22.6 22.1 22 22 24.6 27.1 25.4 24.9 23.2 23.2 28.1 33.2 38.9 40.7 46.5 51.7 53.9 45.9 55.4 64.8 71.4 76.1 82.5 85.5 86.2 85.4 87.2 89.1 92.5 94.2 95.6 95.6 95.6 94.5 94.2 101.9 104.7 106.6 111.3 111.6 111.1 117.8 123.4 129.6 134.3 133 133.2 136.2 133.6 136.5 133.8 134 131.6 128.7 128.3 124.9 128.9 127.4 126.5 126.7 124.9 122.9 118.3 118.1 116.1 103 116.2 127.6 134 134.8 139.2 146 152.2 158.5 164.3 166.9 171.3 174.4 177.1 182 186.8 197.5 208.8 219.2 225.3 231.2 233.5 235.9 234.7 238.9 243.6 242.4 242.8 240.5 232.7 230.1
-1.4 0.4 1.3 2.1 1.6 1.8 -1.4 -1.4 3 2 -1.4 -1.4 -1.4 -1.4 0.3 1.8 2.6 3.6 3.9 5.2 7.4 10 11.3 12.6 12.4 12.9 12.4 14 13.2 10.7 7.4 5.6 5.3 5.3 5.5 5.2 4.8 4.9 4.9 5 5 5.2 4.5 4.7 3.8 -1.4 -1.4 -1.4 4.8 4.8 4.9 4.7 4.3 4.1 4.4 5 6.7 6.4 6.3 7.1 6.6 9.1 9.8 9.5 10.7 10.6 5.9 11.2 11.4 12.5 13.1 12.7 11.8 12 11.7 9.4 8.2 6.9 7.7 5.5 6.7 9.9 10.5 9.3 8.6 9.4 12.9 14.7 14 13.4 12.2 12.7 12.8 12.1 11.1 11.8 13 12.2 10.7 13.5 13.2 13.4 12.2 12.3 14 15.8 15.9 16.1 18.6 21 19.8 19.6 18 19 24 26.2 30.4 36.8 41 42.9 33 48.1 56.8 61.1 66.1 72.3 75.2 77.6 80 80.1 81.5 84 85.1 86.3 87.9 88 90.3 91.1 94.3 98 102.2 103.3 103.2 105.3 111.3 115.7 117.3 124.3 122.1 125.9 128.1 129.4 129.4 127.5 124.5 126.4 124 121.6 118.3 123 123.5 124.6 122.6 123.3 123.3 122.6 117.5 118.7 113.8 105.8 115.9 124 126.5 130.9 135.4 141.2 147.7 153.4 158.5 160.8 164 167.1 174.6 185.5 194.5 207.8 219.5 219.4 220.8 224.6 228.7 232 234.5 243.3 238.3 235.5 234.4 228.5 221.8 219.6
-1.4 -1.4 -1.4 -1.4 -1.4 0.1 0 -1.4 -1.4 -1.4 -1.4 -1.4 -1.4 -1.4 -1.4 -1.4 0.2 -1.4 -1.4 -1.4 2.1 5.5 7.2 8.2 8.7 9.1 9.1 7.7 5.9 4.8 4.4 2.1 2.1 2.1 1.8 2.2 1.5 1.1 1.4 2.2 3.1 4 2.7 2.2 2.1 -1.4 -1.4 -1.4 -1.4 3 2.2 0.9 0.6 0.2 -1.4 0.8 -1.4 1.1 1.3 1.6 3.3 4.4 4.7 4.8 5.5 6 6 6.8 7.4 7.7 7.7 6.3 6.4 5.9 5.5 4.9 4.4 3.9 4 3 4.4 4.4 4.6 4.8 5.1 5.8 6.2 6.7 7 7.1 7.2 7.1 7.4 7 6.9 7 7.5 7.5 7.4 7.4 7.4 7.4 8.2 8.5 9.3 10.9 9.6 11 10.9 11.6 13.3 14.7 12.3 15.6 19.5 24.7 23.5 32.3 36.6 28.5 38.4 44.7 50.1 54.4 59.5 65.8 70.4 70.8 69.5 71.5 77.2 77.4 77.9 78.4 79.9 81.9 83.8 84.8 88.4 93.2 96.8 97.7 97.1 103.5 108.5 114.2 114.4 114.8 117.3 124 125.3 123.7 122.7 120.8 119.9 119.1 115.3 115.6 118.7 119.7 120.9 122.2 122 121.8 120.9 117.2 115.1 113.8 107.3 103.7 110.9 120.5 123.3 125.6 130 134.5 140.1 145.4 148.6 153 153.8 167.1 177.9 185.3 202.4 207.8 209.6 214.8 219.4 223.8 227.4 229.7 234.4 232.7 233.2 231.1 228 219.6 215.1 210.9
-1.4 -1.4 -1.4 -1.4 -1.4 -1.4 -1.4 -1.4 -1.4 -1.4 -1.4 -1.4 -1.4 -1.4 -1.4 -1.4 -1.4 -1.4 -1.4 -1.4 -1.4 2.4 4.5 4.8 4.7 1.6 1.8 3.3 7.2 7.6 6.8 2.8 2.1 2 0.6 0.3 0.1 -0.1 0.4 1.1 1.6 2.1 3.3 2.5 1.1 -1.4 -1.4 -1.4 -1.4 -1.4 0.1 -1.4 -1.4 -1.4 -1.4 -1.4 -1.4 -1.4 -1.4 -1.4 -1.4 -1.4 -1.4 -1.4 -1.4 -1.4 -1.4 -1.4 -1.4 2.8 2.3 -1.4 -1.4 -1.4 -1.4 -1.4 -1.4 -1.4 -1.4 0.9 1 0.8 0.8 -1.4 -1.4 -1.4 1.3 1.3 1.4 1.7 1.9 2.2 2.1 0.5 0.8 0.7 -1.4 -1.4 -1.4 -1.4 1.4 1.5 1.9 2.9 4.7 5.6 6 5.8 7.7 8.3 9.2 9.7 10.9 13.6 15 12.7 23.6 26.7 25.5 29.1 37.2 38.8 43.1 47.5 51.7 57.1 60.4 61.1 62.7 68 70.9 69.7 69.8 70.5 71.7 76.4 77.9 79.8 84.7 88.9 90.3 91.9 97.4 99.8 105.5 107.7 108.1 110 114.2 118.2 122.5 121.1 117.9 116.9 114.1 112 112.9 115 117.7 118.9 120.5 119.5 120.4 120.2 118.1 112.8 110.5 106.2 102.9 98.9 106.1 110.5 115.9 121.5 124.6 129.4 133.9 139.4 143.2 146.4 156.7 171.1 179.9 188.7 202.2 207.5 211.3 216.7 222.3 223.9 226.5 232.6 232.1 226.9 224.5 223.8 222.1 214.7 210.2 199.5
-1.4 -1.4 -1.4 -1.4 -1.4 -1.4 -1.4 -1.4 -1.4 -1.4 -1.4 -1.4 -1.4 -1.4 -1.4 -1.4 -1.4 -1.4 -1.4 -1.4 -1.4 -1.4 1.1 1.5 0.7 -1.4 -1.4 -1.4 1.5 2.9 4.9 4.6 2.1 0.9 -1.4 -1.4 -1.4 -1.4 -0.6 0 0.6 1.1 1.8 2.1 0.8 -0.4 -1.4 -1.4 -1.4 -1.4 -1.4 -1.4 -1.4 -1.4 -1.4 -1.4 -1.4 -1.4 -1.4 -1.4 -1.4 -1.4 -1.4 -1.4 -1.4 -1.4 -1.4 -1.4 -1.4 -1.4 -1.4 -1.4 -1.4 -1.4 -1.4 -1.4 -1.4 -1.4 -1.4 -0.9 -1.1 -1.4 -1.4 -1.4 -1.4 -1.4 -1.4 -1.4 -1.4 -1.3 -1 -1.2 -1.4 -1.4 -1.4 -1.4 -1.4 -1.4 -1.4 -1.4 -1.4 -1.4 -1.4 -1.4 -1.4 1.7 1.4 1.8 2.1 1.3 1.8 7.1 8.6 11.3 11.2 12.8 17.3 17.2 26 26.8 31.9 33.5 37.3 40.2 43.7 48.3 50.3 52.9 55 59.7 60.7 61.2 62 63.3 64.1 67 67.6 77.3 83.1 85.6 85 89.1 93.4 95.8 101.2 102.1 104.2 105.2 109.3 112.4 121.6 119.4 115.1 117.3 111.2 112.6 113.9 115.9 116 117.2 118.2 114.7 114.5 117.1 109.6 109.1 105.7 102.2 101 102.3 103.9 106.4 111.2 116.9 120.7 123.5 129.2 132.1 138.6 147.3 160.3 175.1 184 193.8 202.8 211.4 213.9 217.9 222.3 221.8 228.2 227.5 223 220.1 217.8 212 205.9 201.6 196 187.3
-1.4 -1.4 -1.4 -1.4 -1.4 -1.4 -1.4 -1.4 -1.4 -1.4 -1.4 -1.4 -1.4 -1.4 -1.4 -1.4 -1.4 -1.4 -1.4 -1.4 -1.4 -1.4 -1.4 -1.4 -1.4 -1.4 -1.4 -1.4 -1.4 -1.4 -1.4 1.2 1 0 -1.4 -1.4 -1.4 -1.4 -1.4 -1.4 -0.6 -0.1 0.6 1.2 0.9 -0.3 -1.4 -1.4 -1.4 -1.4 -1.4 -1.4 -1.4 -1.4 -1.4 -1.4 -1.4 -1.4 -1.4 -1.4 -1.4 -1.4 -1.4 -1.4 -1.4 -1.4 -1.4 -1.4 -1.4 -1.4 -1.4 -1.4 -1.4 -1.4 -1.4 -1.4 -1.4 -1.4 -1.4 -1.4 -1.4 -1.4 -1.4 -1.4 -1.4 -1.4 -1.4 -1.4 -1.4 -1.4 -1.4 -1.4 -1.4 -1.4 -1.4 -1.4 -1.4 -1.4 -1.4 -1.4 -1.4 -1.4 -1.4 -1.4 -1.4 -1.4 -1.4 -1.4 -1.4 -1.4 -1.4 1.4 6.1 7.2 5.2 5.4 11.5 16.2 20.6 23.8 26.1 28.2 31.2 33.2 35.8 38.9 40.2 42.3 46.4 47 52.1 52.8 56.2 58.5 59.4 60.7 62.2 71.3 78.2 77.5 84.5 90.5 90.7 91.4 93.5 96.1 96.3 105.8 103.7 106.5 110.4 109 110 111.1 111.5 117.1 112.2 116 112.2 115 114.6 110.7 108.7 106.8 106.5 102.3 96.8 96.8 97.5 98.2 99.5 102.2 107.1 110.8 114.4 116.3 122.3 131.2 140.9 151 163.3 178.8 186.6 196.8 202.7 211.9 213.4 216.3 217 220.1 222.6 218.5 217.7 217.4 213.3 201.1 200.1 188.7 184.3 179.1
-1.4 -1.4 -1.4 -1.4 -1.4 -1.4 -1.4 -1.4 -1.4 -1.4 -1.4 -1.4 -1.4 -1.4 -1.4 -1.4 -1.4 -1.4 -1.4 -1.4 -1.4 -1.4 -1.4 -1.4 -1.4 -1.4 -1.4 -1.4 -1.4 -1.4 -1.4 -1.4 -1.4 -1.4 -1.4 -1.4 -1.4 -1.4 -1.4 -1.4 -1.4 -1.4 -1.4 -0.1 0 -0.3 -1.4 -1.4 -1.4 -1.4 -1.4 -1.4 -1.4 -1.4 -1.4 -1.4 -1.4 -1.4 -1.4 -1.4 -1.4 -1.4 -1.4 -1.4 -1.4 -1.4 -1.4 -1.4 -1.4 -1.4 -1.4 -1.4 -1.4 -1.4 -1.4 -1.4 -1.4 -1.4 -1.4 -1.4 -1.4 -1.4 -1.4 -1.4 -1.4 -1.4 -1.4 -1.4 -1.4 -1.4 -1.4 -1.4 -1.4 -1.4 -1.4 -1.4 -1.4 -1.4 -1.4 -1.4 -1.4 -1.4 -1.4 -1.4 -1.4 -1.4 -1.4 -1.4 -1.4 -1.4 -1.4 -1.4 -1.4 5.6 8.9 9.3 9.8 12.6 14.7 19.4 21.7 23.5 25.5 27.5 28.4 28.7 30 33.8 40.6 38.3 40.8 42.3 46.2 49 51.5 53.7 57.6 65.1 73.5 78.3 83.3 87.2 86.9 88.2 90.3 91.4 92.4 99.8 99.6 97.3 103.6 104.1 100.7 105.2 110.4 110.3 106.9 107.5 108.2 110.3 108.3 105.7 102.8 101.4 99.8 96.2 90.4 93.4 89.6 91 93 98.4 103.1 106.5 107.5 117.4 124.9 130.2 140.2 151.6 165.3 177.6 186.2 195.3 202 209.1 211.1 210.3 211.2 213.5 214.9 210.9 209.3 211.7 203.5 196.8 189.8 183.6 177.4 177.1
-1.4 -1.4 -1.4 -1.4 -1.4 -1.4 -1.4 -1.4 -1.4 -1.4 -1.4 -1.4 -1.4 -1.4 -1.4 -1.4 -1.4 -1.4 -1.4 -1.4 -1.4 -1.4 -1.4 -1.4 -1.4 -1.4 -1.4 -1.4 -1.4 -1.4 -1.4 -1.4 -1.4 -1.4 -1.4 -1.4 -1.4 -1.4 -1.4 -1.4 -1.4 -1.4 -1.4 -1.4 -1.1 -1.3 -1.4 -1.4 -1.4 -1.4 -1.4 -1.4 -1.4 -1.4 -1.4 -1.4 -1.4 -1.4 -1.4 -1.4 -1.4 -1.4 -1.4 -1.4 -1.4 -1.4 -1.4 -1.4 -1.4 -1.4 -1.4 -1.4 -1.4 -1.4 -1.4 -1.4 -1.4 -1.4 -1.4 -1.4 -1.4 -1.4 -1.4 -1.4 -1.4 -1.4 -1.4 -1.4 -1.4 -1.4 -1.4 -1.4 -1.4 -1.4 -1.4 -1.4 -1.4 -1.4 -1.4 -1.4 -1.4 -1.4 -1.4 -1.4 -1.4 -1.4 -1.4 -1.4 -1.4 -1.4 -1.4 -1.4 -1.4 0.8 4.3 7.4 9.1 9.7 10.8 11.7 13.1 17.5 19.3 22.5 21.1 20.6 22.1 23.4 31.5 29.2 31 34.1 37.1 40 41.4 45.7 52.5 59.9 70.2 79.5 82.1 84.8 85.2 84.2 85.7 86.4 89.8 89.9 88.8 90.5 94 95 96.7 101.6 101.6 102.8 102.4 105.1 104.8 104.2 102.9 101.7 98.4 97.6 93.8 91.7 87 88 83.1 88.4 90.2 95.3 99.9 106 110.4 119.5 125.5 133.8 141.4 152.5 162.5 173.8 184.4 193.1 201.4 210.9 209.6 206.4 208.8 208.4 208.8 204.3 202 200.6 191.5 182.5 178.8 175.9 172.1 172.3
-1.4 -1.4 -1.4 -1.4 -1.4 -1.4 -1.4 -1.4 -1.4 -1.4 -1.4 -1.4 -1.4 -1.4 -1.4 -1.4 -1.4 -1.4 -1.4 -1.4 -1.4 -1.4 -1.4 -1.4 -1.4 -1.4 -1.4 -1.4 -1.4 -1.4 -1.4 -1.4 -1.4 -1.4 -1.4 -1.4 -1.4 -1.4 -1.4 -1.4 -1.4 -1.4 -1.4 -1.4 -1.4 -1.4 -1.4 -1.4 -1.4 -1.4 -1.4 -1.4 -1.4 -1.4 -1.4 -1.4 -1.4 -1.4 -1.4 -1.4 -1.4 -1.4 -1.4 -1.4 -1.4 -1.4 -1.4 -1.4 -1.4 -1.4 -1.4 -1.4 -1.4 -1.4 -1.4 -1.4 -1.4 -1.4 -1.4 -1.4 -1.4 -1.4 -1.4 -1.4 -1.4 -1.4 -1.4 -1.4 -1.4 -1.4 -1.4 -1.4 -1.4 -1.4 -1.4 -1.4 -1.4 -1.4 -1.4 -1.4 -1.4 -1.4 -1.4 -1.4 -1.4 -1.4 -1.4 -1.4 -1.4 -1.4 -1.4 -1.4 -1.4 -1.4 -1.4 -1.4 5.2 6.6 7.6 7.7 7.4 8.1 8.6 11.2 11.8 12.1 13.7 15.3 18.2 20.1 22.7 25.9 27.8 30 31 36.1 42.6 51.5 60.9 68.3 71.2 74.8 76.6 78.5 85.4 85.1 85.7 87.4 87.4 91 93.5 95.6 91.8 92.7 97 100.3 99.9 100.7 101.8 105.1 101.3 95.2 95.4 95.1 89.3 83.7 86.3 82 81.9 86.8 92.3 95.8 101.3 107.8 113.3 120.8 130.8 137.8 144.5 155.1 162.6 171.3 180.3 189.9 197.7 202.8 200.7 204.8 204.4 203.9 203.4 200.1 196.2 190.3 180 173.2 167.8 169.7 175 174.6
-1.4 -1.4 -1.4 -1.4 -1.4 -1.4 -1.4 -1.4 -1.4 -1.4 -1.4 -1.4 -1.4 -1.4 -1.4 -1.4 -1.4 -1.4 -1.4 -1.4 -1.4 -1.4 -1.4 -1.4 -1.4 -1.4 -1.4 -1.4 -1.4 -1.4 -1.4 -1.4 -1.4 -1.4 -1.4 -1.4 -1.4 -1.4 -1.4 -1.4 -1.4 -1.4 -1.4 -1.4 -1.4 -1.4 -1.4 -1.4 -1.4 -1.4 -1.4 -1.4 -1.4 -1.4 -1.4 -1.4 -1.4 -1.4 -1.4 -1.4 -1.4 -1.4 -1.4 -1.4 -1.4 -1.4 -1.4 -1.4 -1.4 -1.4 -1.4 -1.4 -1.4 -1.4 -1.4 -1.4 -1.4 -1.4 -1.4 -1.4 -1.4 -1.4 -1.4 -1.4 -1.4 -1.4 -1.4 -1.4 -1.4 -1.4 -1.4 -1.4 -1.4 -1.4 -1.4 -1.4 -1.4 -1.4 -1.4 -1.4 -1.4 -1.4 -1.4 -1.4 -1.4 -1.4 -1.4 -1.4 -1.4 -1.4 -1.4 -1.4 -1.4 -1.4 -1.4 -1.4 0.8 -1.4 -1.4 -1.4 -1.4 -1.4 5 6.3 6.6 7.2 7.4 8.8 9.1 10.9 14.4 17 18.9 21 21.7 30.5 38.1 45.6 47.9 55.4 59.7 64.2 67.9 70.9 73.5 78.1 82.4 87 85.1 87.3 95.9 96.6 89.5 91.8 99.2 104 97.4 96.4 98.6 97.8 95.6 91 91 88.7 85.2 80.4 81.8 78.4 82.9 87.4 89.7 92.8 100.6 107.4 113.7 120.8 126.9 138.8 145.1 153 158.9 169.5 180.5 183.4 188.1 190.3 195.5 203 198.3 198.1 196.9 194.3 190.2 185 170 162 161.8 170.8 179.2 179.3
-1.4 -1.4 -1.4 -1.4 -1.4 -1.4 -1.4 -1.4 -1.4 -1.4 -1.4 -1.4 -1.4 -1.4 -1.4 -1.4 -1.4 -1.4 -1.4 -1.4 -1.4 -1.4 -1.4 -1.4 -1.4 -1.4 -1.4 -1.4 -1.4 -1.4 -1.4 -1.4 -1.4 -1.4 -1.4 -1.4 -1.4 -1.4 -1.4 -1.4 -1.4 -1.4 -1.4 -1.4 -1.4 -1.4 -1.4 -1.4 -1.4 -1.4 -1.4 -1.4 -1.4 -1.4 -1.4 -1.4 -1.4 -1.4 -1.4 -1.4 -1.4 -1.4 -1.4 -1.4 -1.4 -1.4 -1.4 -1.4 -1.4 -1.4 -1.4 -1.4 -1.4 -1.4 -1.4 -1.4 -1.4 -1.4 -1.4 -1.4 -1.4 -1.4 -1.4 -1.4 -1.4 -1.4 -1.4 -1.4 -1.4 -1.4 -1.4 -1.4 -1.4 -1.4 -1.4 -1.4 -1.4 -1.4 -1.4 -1.4 -1.4 -1.4 -1.4 -1.4 -1.4 -1.4 -1.4 -1.4 -1.4 -1.4 -1.4 -1.4 -1.4 -1.4 -1.4 -1.4 -1.4 -1.4 -1.4 -1.4 -1.4 -1.4 -1.4 -1.4 -1.4 -1.4 -1.4 -1.4 2.9 5.4 9.1 10.8 12.3 13.8 18.8 26.9 33.3 39.2 43 48.1 53.1 56.9 61.8 66.3 71.3 75.7 77.7 81.4 80.2 82.8 86.7 84 84 88.9 93.1 97.2 94.5 93.4 92.6 91.6 89.2 87.3 83.9 84.3 82.6 78 76.5 73.5 78.1 83 86.6 90.8 98.6 104.7 110.3 118 132.9 139 143.8 148.4 156 164.7 174.8 176.6 178.9 185.3 192.3 194.7 192.3 190.6 190.2 186.1 184.1 176.9 161.7 153.3 157.7 164.8 170.7 170.7
-1.4 -1.4 -1.4 -1.4 -1.4 -1.4 -1.4 -1.4 -1.4 -1.4 -1.4 -1.4 -1.4 -1.4 -1.4 -1.4 -1.4 -1.4 -1.4 -1.4 -1.4 -1.4 -1.4 -1.4 -1.4 -1.4 -1.4 -1.4 -1.4 -1.4 -1.4 -1.4 -1.4 -1.4 -1.4 -1.4 -1.4 -1.4 -1.4 -1.4 -1.4 -1.4 -1.4 -1.4 -1.4 -1.4 -1.4 -1.4 -1.4 -1.4 -1.4 -1.4 -1.4 -1.4 -1.4 -1.4 -1.4 -1.4 -1.4 -1.4 -1.4 -1.4 -1.4 -1.4 -1.4 -1.4 -1.4 -1.4 -1.4 -1.4 -1.4 -1.4 -1.4 -1.4 -1.4 -1.4 -1.4 -1.4 -1.4 -1.4 -1.4 -1.4 -1.4 -1.4 -1.4 -1.4 -1.4 -1.4 -1.4 -1.4 -1.4 -1.4 -1.4 -1.4 -1.4 -1.4 -1.4 -1.4 -1.4 -1.4 -1.4 -1.4 -1.4 -1.4 -1.4 -1.4 -1.4 -1.4 -1.4 -1.4 -1.4 -1.4 -1.4 -1.4 -1.4 -1.4 -1.4 -1.4 -1.4 -1.4 -1.4 -1.4 -1.4 -1.4 -1.4 -1.4 -1.4 -1.4 -1.4 -1.4 -1.4 6.3 7.3 10.7 17 23.7 28.7 33.4 37.8 42.3 47 50.9 55.3 60.5 66.1 70.3 74.7 78.2 77.7 78.2 76.7 76.2 82 84.8 88.2 92.4 94.4 91.7 90.4 87.4 83.2 81.8 77.9 77.5 75.6 73.8 71.9 70.4 73.2 79.6 83.9 90.3 97 103.6 111 119.4 129.7 133.6 137.9 145.7 156.4 165.2 168.6 167.2 171.9 179.6 181.7 181 179.6 179.7 180.4 175.8 172.6 164.6 154.9 146.7 151.6 159.1 163.5 159.3
-1.4 -1.4 -1.4 -1.4 -1.4 -1.4 -1.4 -1.4 -1.4 -1.4 -1.4 -1.4 -1.4 -1.4 -1.4 -1.4 -1.4 -1.4 -1.4 -1.4 -1.4 -1.4 -1.4 -1.4 -1.4 -1.4 -1.4 -1.4 -1.4 -1.4 -1.4 -1.4 -1.4 -1.4 -1.4 -1.4 -1.4 -1.4 -1.4 -1.4 -1.4 -1.4 -1.4 -1.4 -1.4 -1.4 -1.4 -1.4 -1.4 -1.4 -1.4 -1.4 -1.4 -1.4 -1.4 -1.4 -1.4 -1.4 -1.4 -1.4 -1.4 -1.4 -1.4 -1.4 -1.4 -1.4 -1.4 -1.4 -1.4 -1.4 -1.4 -1.4 -1.4 -1.4 -1.4 -1.4 -1.4 -1.4 -1.4 -1.4 -1.4 -1.4 -1.4 -1.4 -1.4 -1.4 -1.4 -1.4 -1.4 -1.4 -1.4 -1.4 -1.4 -1.4 -1.4 -1.4 -1.4 -1.4 -1.4 -1.4 -1.4 -1.4 -1.4 -1.4 -1.4 -1.4 -1.4 -1.4 -1.4 -1.4 -1.4 -1.4 -1.4 -1.4 -1.4 -1.4 -1.4 -1.4 -1.4 -1.4 -1.4 -1.4 -1.4 -1.4 -1.4 -1.4 -1.4 -1.4 -1.4 -1.4 -1.4 1.2 6.2 7.8 14.4 19.1 23.6 27.8 31.2 35.5 40.4 44.2 49.3 54 59.2 66.6 70.5 74.6 72.2 72.1 72.3 76.1 78.4 81 85.3 88.9 95 89.2 87 81.5 78.4 78.3 74.6 70.6 70.3 68.7 68.9 67 71.3 78.5 83.2 88.9 95.7 103.2 111.5 118.7 124.1 130.5 134.9 141.9 149.9 154 156.2 157.5 164.4 167.9 171.1 170.2 170 169.6 170 165.3 163.2 155 143.5 136.6 144 148.4 153.7 155.7
-1.4 -1.4 -1.4 -1.4 -1.4 -1.4 -1.4 -1.4 -1.4 -1.4 -1.4 -1.4 -1.4 -1.4 -1.4 -1.4 -1.4 -1.4 -1.4 -1.4 -1.4 -1.4 -1.4 -1.4 -1.4 -1.4 -1.4 -1.4 -1.4 -1.4 -1.4 -1.4 -1.4 -1.4 -1.4 -1.4 -1.4 -1.4 -1.4 -1.4 -1.4 -1.4 -1.4 -1.4 -1.4 -1.4 -1.4 -1.4 -1.4 -1.4 -1.4 -1.4 -1.4 -1.4 -1.4 -1.4 -1.4 -1.4 -1.4 -1.4 -1.4 -1.4 -1.4 -1.4 -1.4 -1.4 -1.4 -1.4 -1.4 -1.4 -1.4 -1.4 -1.4 -1.4 -1.4 -1.4 -1.4 -1.4 -1.4 -1.4 -1.4 -1.4 -1.4 -1.4 -1.4 -1.4 -1.4 -1.4 -1.4 -1.4 -1.4 -1.4 -1.4 -1.4 -1.4 -1.4 -1.4 -1.4 -1.4 -1.4 -1.4 -1.4 -1.4 -1.4 -1.4 -1.4 -1.4 -1.4 -1.4 -1.4 -1.4 -1.4 -1.4 -1.4 -1.4 -1.4 -1.4 -1.4 -1.4 -1.4 -1.4 -1.4 -1.4 -1.4 -1.4 -1.4 -1.4 -1.4 -1.4 -1.4 -1.4 -1.4 1.5 6.4 9 14.6 18.5 22.2 25.5 28.9 33.1 37.8 42.6 43.5 53.4 60.9 63.8 66.7 68.3 65.7 74.3 75.3 72.5 76.5 79.1 83.4 87.4 84.3 80 76.8 73.2 73.1 70.1 69 64 62.9 62.1 62.4 71 77.4 82.6 88.5 96 104 111.9 117.2 122 127.3 132.1 138.1 143.6 147.4 149.8 152.5 155.9 156.4 157.7 160.4 163.5 161.9 157.1 156.6 151.3 142.5 134.4 131.1 136.5 141.9 145.1 150.9
-1.4 -1.4 -1.4 -1.4 -1.4 -1.4 -1.4 -1.4 -1.4 -1.4 -1.4 -1.4 -1.4 -1.4 -1.4 -1.4 -1.4 -1.4 -1.4 -1.4 -1.4 -1.4 -1.4 -1.4 -1.4 -1.4 -1.4 -1.4 -1.4 -1.4 -1.4 -1.4 -1.4 -1.4 -1.4 -1.4 -1.4 -1.4 -1.4 -1.4 -1.4 -1.4 -1.4 -1.4 -1.4 -1.4 -1.4 -1.4 -1.4 -1.4 -1.4 -1.4 -1.4 -1.4 -1.4 -1.4 -1.4 -1.4 -1.4 -1.4 -1.4 -1.4 -1.4 -1.4 -1.4 -1.4 -1.4 -1.4 -1.4 -1.4 -1.4 -1.4 -1.4 -1.4 -1.4 -1.4 -1.4 -1.4 -1.4 -1.4 -1.4 -1.4 -1.4 -1.4 -1.4 -1.4 -1.4 -1.4 -1.4 -1.4 -1.4 -1.4 -1.4 -1.4 -1.4 -1.4 -1.4 -1.4 -1.4 -1.4 -1.4 -1.4 -1.4 -1.4 -1.4 -1.4 -1.4 -1.4 -1.4 -1.4 -1.4 -1.4 -1.4 -1.4 -1.4 -1.4 -1.4 -1.4 -1.4 -1.4 -1.4 -1.4 -1.4 -1.4 -1.4 -1.4 -1.4 -1.4 -1.4 -1.4 -1.4 -1.4 -1.4 1.8 6.6 7.9 12.8 14.4 17.8 22.1 27.5 30.6 33.8 40.7 48.1 53.9 57.3 56.6 59.3 60.7 68.4 66.3 66.7 70.5 76 77.1 79.6 77.1 74.1 73 71.9 67.8 64.9 62.3 61.2 60.1 57.1 62.5 70.2 76.4 83.4 89 95.9 103.5 108.2 114.8 119.8 125.9 130.3 135.1 138.7 141.8 144 147.3 147.1 147.7 150 151.9 152.3 149.2 151 149.3 142.9 132 124.8 126.2 132.1 137 137.8 138.8
-1.4 -1.4 -1.4 -1.4 -1.4 -1.4 -1.4 -1.4 -1.4 -1.4 -1.4 -1.4 -1.4 -1.4 -1.4 -1.4 -1.4 -1.4 -1.4 -1.4 -1.4 -1.4 -1.4 -1.4 -1.4 -1.4 -1.4 -1.4 -1.4 -1.4 -1.4 -1.4 -1.4 -1.4 -1.4 -1.4 -1.4 -1.4 -1.4 -1.4 -1.4 -1.4 -1.4 -1.4 -1.4 -1.4 -1.4 -1.4 -1.4 -1.4 -1.4 -1.4 -1.4 -1.4 -1.4 -1.4 -1.4 -1.4 -1.4 -1.4 -1.4 -1.4 -1.4 -1.4 -1.4 -1.4 -1.4 -1.4 -1.4 -1.4 -1.4 -1.4 -1.4 -1.4 -1.4 -1.4 -1.4 -1.4 -1.4 -1.4 -1.4 -1.4 -1.4 -1.4 -1.4 -1.4 -1.4 -1.4 -1.4 -1.4 -1.4 -1.4 -1.4 -1.4 -1.4 -1.4 -1.4 -1.4 -1.4 -1.4 -1.4 -1.4 -1.4 -1.4 -1.4 -1.4 -1.4 -1.4 -1.4 -1.4 -1.4 -1.4 -1.4 -1.4 -1.4 -1.4 -1.4 -1.4 -1.4 -1.4 -1.4 -1.4 -1.4 -1.4 -1.4 -1.4 -1.4 -1.4 -1.4 -1.4 -1.4 -1.4 -1.4 -1.4 -1.4 4.9 5.5 9.7 10.1 16.8 22.6 25.3 27.6 34.8 42 45.4 47.5 46.5 52.8 58.9 62.2 62.8 63.1 70.3 71.9 73.4 73.2 71.5 68.4 69 67.1 63.6 60.4 58.7 57.3 54.7 56.1 61.8 69.2 75.5 83.3 88.4 95.4 101.6 107.7 114.2 118.9 124.8 131.9 136.5 140.3 141.5 138.7 141.5 141.6 140.1 141.1 138.4 138.1 143.6 146.9 136.9 130.6 123.6 120.1 124 127.2 130.7 131.4 135.2
-1.4 -1.4 -1.4 -1.4 -1.4 -1.4 -1.4 -1.4 -1.4 -1.4 -1.4 -1.4 -1.4 -1.4 -1.4 -1.4 -1.4 -1.4 -1.4 -1.4 -1.4 -1.4 -1.4 -1.4 -1.4 -1.4 -1.4 -1.4 -1.4 -1.4 -1.4 -1.4 -1.4 -1.4 -1.4 -1.4 -1.4 -1.4 -1.4 -1.4 -1.4 -1.4 -1.4 -1.4 -1.4 -1.4 -1.4 -1.4 -1.4 -1.4 -1.4 -1.4 -1.4 -1.4 -1.4 -1.4 -1.4 -1.4 -1.4 -1.4 -1.4 -1.4 -1.4 -1.4 -1.4 -1.4 -1.4 -1.4 -1.4 -1.4 -1.4 -1.4 -1.4 -1.4 -1.4 -1.4 -1.4 -1.4 -1.4 -1.4 -1.4 -1.4 -1.4 -1.4 -1.4 -1.4 -1.4 -1.4 -1.4 -1.4 -1.4 -1.4 -1.4 -1.4 -1.4 -1.4 -1.4 -1.4 -1.4 -1.4 -1.4 -1.4 -1.4 -1.4 -1.4 -1.4 -1.4 -1.4 -1.4 -1.4 -1.4 -1.4 -1.4 -1.4 -1.4 -1.4 -1.4 -1.4 -1.4 -1.4 -1.4 -1.4 -1.4 -1.4 -1.4 -1.4 -1.4 -1.4 -1.4 -1.4 -1.4 -1.4 -1.4 -1.4 -1.4 -1.4 2.9 6.4 6.5 11.2 15.5 19.8 22.2 28.3 33.3 37.2 40.2 40.1 49.5 57.6 60.4 59.6 61.9 66.3 67.3 67.2 66.5 65.3 63.9 62.3 58.8 57.7 53.9 52.1 49.9 49.1 54.2 60.4 67.8 74.2 81.3 86.4 92.1 98.6 105.4 110.5 115.3 124.8 132.6 139.5 141.1 138.2 136.4 138.5 140.2 131.3 127.9 127.9 128.3 130.7 129.6 124.5 118.7 112.5 115.8 120 120.5 121.8 123.4 130.5
-1.4 -1.4 -1.4 -1.4 -1.4 -1.4 -1.4 -1.4 -1.4 -1.4 -1.4 -1.4 -1.4 -1.4 -1.4 -1.4 -1.4 -1.4 -1.4 -1.4 -1.4 -1.4 -1.4 -1.4 -1.4 -1.4 -1.4 -1.4 -1.4 -1.4 -1.4 -1.4 -1.4 -1.4 -1.4 -1.4 -1.4 -1.4 -1.4 -1.4 -1.4 -1.4 -1.4 -1.4 -1.4 -1.4 -1.4 -1.4 -1.4 -1.4 -1.4 -1.4 -1.4 -1.4 -1.4 -1.4 -1.4 -1.4 -1.4 -1.4 -1.4 -1.4 -1.4 -1.4 -1.4 -1.4 -1.4 -1.4 -1.4 -1.4 -1.4 -1.4 -1.4 -1.4 -1.4 -1.4 -1.4 -1.4 -1.4 -1.4 -1.4 -1.4 -1.4 -1.4 -1.4 -1.4 -1.4 -1.4 -1.4 -1.4 -1.4 -1.4 -1.4 -1.4 -1.4 -1.4 -1.4 -1.4 -1.4 -1.4 -1.4 -1.4 -1.4 -1.4 -1.4 -1.4 -1.4 -1.4 -1.4 -1.4 -1.4 -1.4 -1.4 -1.4 -1.4 -1.4 -1.4 -1.4 -1.4 -1.4 -1.4 -1.4 -1.4 -1.4 -1.4 -1.4 -1.4 -1.4 -1.4 -1.4 -1.4 -1.4 -1.4 -1.4 -1.4 -1.4 -1.4 -1.4 2.2 6.8 9.7 12.8 17.3 23.6 26 28.2 28.7 37 45 49.7 51.4 57.6 64.4 68.6 65.1 65.6 62.6 59.9 57.6 55.4 54.9 51.7 49.1 47.2 44.1 49.3 54.6 59.2 65.5 73 78.8 84 88.3 93.1 99.1 104.2 111 121.3 130.6 133.7 131.8 128.9 127.9 127.7 128.9 126 118.8 126.2 125.7 120.7 117 111.2 106 105.6 105.8 112.4 114.7 120.3 125.7 130.2
-1.4 -1.4 -1.4 -1.4 -1.4 -1.4 -1.4 -1.4 -1.4 -1.4 -1.4 -1.4 -1.4 -1.4 -1.4 -1.4 -1.4 -1.4 -1.4 -1.4 -1.4 -1.4 -1.4 -1.4 -1.4 -1.4 -1.4 -1.4 -1.4 -1.4 -1.4 -1.4 -1.4 -1.4 -1.4 -1.4 -1.4 -1.4 -1.4 -1.4 -1.4 -1.4 -1.4 -1.4 -1.4 -1.4 -1.4 -1.4 -1.4 -1.4 -1.4 -1.4 -1.4 -1.4 -1.4 -1.4 -1.4 -1.4 -1.4 -1.4 -1.4 -1.4 -1.4 -1.4 -1.4 -1.4 -1.4 -1.4 -1.4 -1.4 -1.4 -1.4 -1.4 -1.4 -1.4 -1.4 -1.4 -1.4 -1.4 -1.4 -1.4 -1.4 -1.4 -1.4 -1.4 -1.4 -1.4 -1.4 -1.4 -1.4 -1.4 -1.4 -1.4 -1.4 -1.4 -1.4 -1.4 -1.4 -1.4 -1.4 -1.4 -1.4 -1.4 -1.4 -1.4 -1.4 -1.4 -1.4 -1.4 -1.4 -1.4 -1.4 -1.4 -1.4 -1.4 -1.4 -1.4 -1.4 -1.4 -1.4 -1.4 -1.4 -1.4 -1.4 -1.4 -1.4 -1.4 -1.4 -1.4 -1.4 -1.4 -1.4 -1.4 -1.4 -1.4 -1.4 -1.4 -1.4 -1.4 2.2 6.9 8.4 11.3 17.8 21 19.3 25.4 31.9 42.2 45.8 52.9 55.5 65.1 66.7 62.5 62.6 58.6 55.3 51.4 49.8 49.1 47.2 43.2 44.8 48.1 47.6 50.1 57.1 64.6 72 75.8 79.2 83 86.3 92.2 97.2 103.8 112.1 118.4 120.5 120.3 117.6 118 117.8 118.7 115.1 111.7 117.5 119.6 113 107.3 103.3 97.3 102 106.6 110.5 117.1 122 126 132.5
-1.4 -1.4 -1.4 -1.4 -1.4 -1.4 -1.4 -1.4 -1.4 -1.4 -1.4 -1.4 -1.4 -1.4 -1.4 -1.4 -1.4 -1.4 -1.4 -1.4 -1.4 -1.4 -1.4 -1.4 -1.4 -1.4 -1.4 -1.4 -1.4 -1.4 -1.4 -1.4 -1.4 -1.4 -1.4 -1.4 -1.4 -1.4 -1.4 -1.4 -1.4 -1.4 -1.4 -1.4 -1.4 -1.4 -1.4 -1.4 -1.4 -1.4 -1.4 -1.4 -1.4 -1.4 -1.4 -1.4 -1.4 -1.4 -1.4 -1.4 -1.4 -1.4 -1.4 -1.4 -1.4 -1.4 -1.4 -1.4 -1.4 -1.4 -1.4 -1.4 -1.4 -1.4 -1.4 -1.4 -1.4 -1.4 -1.4 -1.4 -1.4 -1.4 -1.4 -1.4 -1.4 -1.4 -1.4 -1.4 -1.4 -1.4 -1.4 -1.4 -1.4 -1.4 -1.4 -1.4 -1.4 -1.4 -1.4 -1.4 -1.4 -1.4 -1.4 -1.4 -1.4 -1.4 -1.4 -1.4 -1.4 -1.4 -1.4 -1.4 -1.4 -1.4 -1.4 -1.4 -1.4 -1.4 -1.4 -1.4 -1.4 -1.4 -1.4 -1.4 -1.4 -1.4 -1.4 -1.4 -1.4 -1.4 -1.4 -1.4 -1.4 -1.4 -1.4 -1.4 -1.4 -1.4 -1.4 -1.4 1.6 2.9 9.2 12.4 14.8 16.3 19.7 26.1 33 39.9 46.8 49.2 56.1 56.8 57 55.8 52.9 48.9 47.9 46.7 46.3 45.6 39.5 44.8 47.4 46.1 47 55.9 63.8 68.6 71.9 73.3 77.2 80.1 83.9 88.7 91.9 99.4 104.8 107.4 108.9 107.5 107.9 108.2 108.8 106.8 104.6 107.1 105.6 100.9 97.2 93.7 97.2 100.7 102.6 107.1 116.5 122.4 125.3 130.2
4.8 4 -1.4 -1.4 -1.4 -1.4 -1.4 -1.4 -1.4 -1.4 -1.4 -1.4 -1.4 -1.4 -1.4 -1.4 -1.4 -1.4 -1.4 -1.4 -1.4 -1.4 -1.4 -1.4 -1.4 -1.4 -1.4 -1.4 -1.4 -1.4 -1.4 -1.4 -1.4 -1.4 -1.4 -1.4 -1.4 -1.4 -1.4 -1.4 -1.4 -1.4 -1.4 -1.4 -1.4 -1.4 -1.4 -1.4 -1.4 -1.4 -1.4 -1.4 -1.4 -1.4 -1.4 -1.4 -1.4 -1.4 -1.4 -1.4 -1.4 -1.4 -1.4 -1.4 -1.4 -1.4 -1.4 -1.4 -1.4 -1.4 -1.4 -1.4 -1.4 -1.4 -1.4 -1.4 -1.4 -1.4 -1.4 -1.4 -1.4 -1.4 -1.4 -1.4 -1.4 -1.4 -1.4 -1.4 -1.4 -1.4 -1.4 -1.4 -1.4 -1.4 -1.4 -1.4 -1.4 -1.4 -1.4 -1.4 -1.4 -1.4 -1.4 -1.4 -1.4 -1.4 -1.4 -1.4 -1.4 -1.4 -1.4 -1.4 -1.4 -1.4 -1.4 -1.4 -1.4 -1.4 -1.4 -1.4 -1.4 -1.4 -1.4 -1.4 -1.4 -1.4 -1.4 -1.4 -1.4 -1.4 -1.4 -1.4 -1.4 -1.4 -1.4 -1.4 -1.4 -1.4 -1.4 -1.4 0.2 1.2 3.9 9.2 12.4 14.2 15.6 19.1 21.5 27.3 32.8 40.3 45.1 48.7 48.8 49.3 47.9 47.1 48.1 46.9 44.6 41.6 36.4 40.8 42.4 40 45.8 53.8 60.6 63.8 65.2 67.4 71.6 73.3 74.7 77 79.6 87 92.8 95.3 96.3 97.3 97.7 99.4 101.1 100 97.4 96.7 95.7 91.2 88.4 85 92.2 98.3 99.3 103 109.4 114.9 118.3 125.9
14.3 13 11.2 9.7 6.9 6.4 5.1 3.5 -1.4 -1.4 -1.4 -1.4 -1.4 -1.4 -1.4 -1.4 -1.4 -1.4 -1.4 -1.4 -1.4 -1.4 -1.4 0.3 0 -1.4 -1.4 -1.4 -1.4 -1.4 -1.4 -1.4 -1.4 -1.4 -1.4 -1.4 -1.4 -1.4 -1.4 -1.4 -1.4 -1.4 -1.4 -1.4 -1.4 -1.4 -1.4 -1.4 -1.4 -1.4 -1.4 -1.4 -1.4 -1.4 -1.4 -1.4 -1.4 -1.4 -1.4 -1.4 -1.4 -1.4 -1.4 -1.4 -1.4 -1.4 -1.4 -1.4 -1.4 -1.4 -1.4 -1.4 -1.4 -1.4 -1.4 -1.4 -1.4 -1.4 -1.4 -1.4 -1.4 -1.4 -1.4 -1.4 -1.4 -1.4 -1.4 -1.4 -1.4 -1.4 -1.4 -1.4 -1.4 -1.4 -1.4 -1.4 -1.4 -1.4 -1.4 -1.4 -1.4 -1.4 -1.4 -1.4 -1.4 -1.4 -1.4 -1.4 -1.4 -1.4 -1.4 -1.4 -1.4 -1.4 -1.4 -1.4 -1.4 -1.4 -1.4 -1.4 -1.4 -1.4 -1.4 -1.4 -1.4 -1.4 -1.4 -1.4 -1.4 -1.4 -1.4 -1.4 -1.4 -1.4 -1.4 -1.4 -1.4 -1.4 -1.4 -1.4 -1.4 0.1 1.7 6.6 10.2 12.5 14.5 16.1 16.6 18.5 26.1 36.4 42.3 46.7 44.6 41.5 44 45.2 42.8 43.2 42.9 40.9 37.6 34.5 36.2 37.1 43 51.1 56.1 59.5 61.7 64.5 65.7 67.2 67.3 69.8 72.7 77 82.5 83.6 85.3 86.5 87.5 89.2 91.9 89.4 86.8 86.5 84.7 82.2 80.8 84.7 89.6 91.5 94.8 98.5 103.4 107.4 114.3 120.3
24.7 24.6 22.4 20.5 15.9 13.6 11.2 8.8 7.2 5.6 3.2 1.4 1.1 -1.4 -1.4 -1.4 -1.4 -0.4 0 0.4 0.3 0.8 1.6 1.9 1.1 0.4 -0.3 -1.4 -1.4 -1.4 -1.4 -1.4 -1.4 -1.4 -1.4 -1.4 -1.4 -1.4 -1.4 -1.4 -1.4 -1.4 -1.4 -1.4 -1.4 -1.4 -1.4 -1.4 -1.4 -1.4 -1.4 -1.4 -1.4 -1.4 -1.4 -1.4 -1.4 -1.4 -1.4 -1.4 -1.4 -1.4 -1.4 -1.4 -1.4 -1.4 -1.4 -1.4 -1.4 -1.4 -1.4 -1.4 -1.4 -1.4 -1.4 -1.4 -1.4 -1.4 -1.4 -1.4 -1.4 -1.4 -1.4 -1.4 -1.4 -1.4 -1.4 -1.4 -1.4 -1.4 -1.4 -1.4 -1.4 -1.4 -1.4 -1.4 -1.4 -1.4 -1.4 -1.4 -1.4 -1.4 -1.4 -1.4 -1.4 -1.4 -1.4 -1.4 -1.4 -1.4 -1.4 -1.4 -1.4 -1.4 -1.4 -1.4 -1.4 -1.4 -1.4 -1.4 -1.4 -1.4 -1.4 -1.4 -1.4 -1.4 -1.4 -1.4 -1.4 -1.4 -1.4 -1.4 -1.4 -1.4 -1.4 -1.4 -1.4 -1.4 -1.4 -1.4 -1.4 -0.6 0.9 3.3 7 11.9 14.2 16.1 16.6 16.7 22.1 33.4 44.1 44.1 40 36.4 38 38.5 35.3 37.2 38.9 37.8 36 33.8 32.2 37.1 44.7 50.2 52.7 54.9 59.1 60.8 60.2 60 61.2 62.5 65.6 68.8 71 72.7 74.3 75.6 76.1 78.6 80.1 77.8 78.4 77.7 75.5 74.8 79.8 83.2 84.8 89 93.1 95.7 99.7 105.5 113 113.1
36.3 36.9 32 26.4 25.3 20.9 16.1 14.1 12.5 12.4 10.4 7.1 6.7 5.4 2.8 1.4 0.9 1.1 1.3 1.4 2.4 3.8 3.1 2.1 2.1 1.3 0.5 -0.5 -1.4 -1.4 -1.4 -1.4 -1.4 -1.4 -1.4 -1.4 -1.4 -1.4 -1.4 -1.4 -1.4 -1.4 -1.4 -1.4 -1.4 -1.4 -1.4 -1.4 -1.4 -1.4 -1.4 -1.4 -1.4 -1.4 -1.4 -1.4 -1.4 -1.4 -1.4 -1.4 -1.4 -1.4 -1.4 -1.4 -1.4 -1.4 -1.4 -1.4 -1.4 -1.4 -1.4 -1.4 -1.4 -1.4 -1.4 -1.4 -1.4 -1.4 -1.4 -1.4 -1.4 -1.4 -1.4 -1.4 -1.4 -1.4 -1.4 -1.4 -1.4 -1.4 -1.4 -1.4 -1.4 -1.4 -1.4 -1.4 -1.4 -1.4 -1.4 -1.4 -1.4 -1.4 -1.4 -1.4 -1.4 -1.4 -1.4 -1.4 -1.4 -1.4 -1.4 -1.4 -1.4 -1.4 -1.4 -1.4 -1.4 -1.4 -1.4 -1.4 -1.4 -1.4 -1.4 -1.4 -1.4 -1.4 -1.4 -1.4 -1.4 -1.4 -1.4 -1.4 -1.4 -1.4 -1.4 -1.4 -1.4 -1.4 -1.4 -1.4 -1.4 -1.4 -1.4 1.8 6.6 11.5 16.7 13.4 15.8 16.9 18.6 26 32.9 34 31.9 31.6 31.8 33 31.7 33.3 35.1 33.5 32.4 28.7 22.5 34.4 43.1 46.6 48.6 51.1 54.1 56.2 53.8 53.3 56.7 58.1 59.7 62.1 62.4 66.2 64.4 67.3 68.9 69.7 69.6 73.5 75 74.4 73.1 69.6 77.4 80.5 81.9 85.8 89.9 90.9 95.2 101 105.7 107
44.5 44.2 40.9 36.6 32.7 26 22.9 21.9 19.6 16.7 15 13 10.7 8.1 6.2 4.9 3.1 4.1 2.1 2.1 6 7 5 -1.4 -1.4 2.1 1.6 1 -1.4 -1.4 -1.4 -1.4 -1.4 -1.4 -1.4 -1.4 -1.4 -1.4 -1.4 -1.4 -1.4 -1.4 -1.4 -1.4 -1.4 -1.4 -1.4 -1.4 -1.4 -1.4 -1.4 -1.4 -1.4 -1.4 -1.4 -1.4 -1.4 -1.4 -1.4 -1.4 -1.4 -1.4 -1.4 -1.4 -1.4 -1.4 -1.4 -1.4 -1.4 -1.4 -1.4 -1.4 -1.4 -1.4 -1.4 -1.4 -1.4 -1.4 -1.4 -1.4 -1.4 -1.4 -1.4 -1.4 -1.4 -1.4 -1.4 -1.4 -1.4 -1.4 -1.4 -1.4 -1.4 -1.4 -1.4 -1.4 -1.4 -1.4 -1.4 -1.4 -1.4 -1.4 -1.4 -1.4 -1.4 -1.4 -1.4 -1.4 -1.4 -1.4 -1.4 -1.4 -1.4 -1.4 1.1 0.9 1.3 -1.4 -1.4 -1.4 -1.4 -1.4 -1.4 -1.4 -1.4 -1.4 -1.4 -1.4 -1.4 -1.4 -1.4 -1.4 -1.4 -1.4 -1.4 -1.4 -1.4 -1.4 -1.4 -1.4 -1.4 -1.4 -1.4 -1.4 2.8 9.5 15.7 14.6 14.7 13.7 15.3 17.3 22.4 25.7 23.3 25.9 28.4 29.4 29.7 30.8 31.5 30.7 29.2 24.7 23.9 32.5 37.1 39.6 41.4 48.6 49.7 49.8 47.5 47.4 50.9 54.8 58.4 61 57.4 57.1 56.9 59.4 62 61.5 67.6 74.4 68.9 68.7 66.3 65.8 71.8 72.2 77.3 83.6 82.2 84.8 91.9 93.4 96.9 98.6
54.4 55.2 50.1 44.8 38.9 33.1 30.4 27.3 24.6 22 19.2 17.1 14.5 11 8.7 7.7 6.7 4.4 2.2 2.2 6.9 7.3 -1.4 -1.4 -1.4 2.1 2.9 4.7 -1.4 -1.4 -1.4 -1.4 -1.4 -1.4 -1.4 -1.4 -1.4 -1.4 -1.4 -1.4 -1.4 -1.4 -1.4 -1.4 -1.4 -1.4 -1.4 -1.4 -1.4 -1.4 -1.4 -1.4 -1.4 -1.4 -1.4 -1.4 -1.4 -1.4 -1.4 -1.4 -1.4 -1.4 -1.4 -1.4 -1.4 -1.4 -1.4 -1.4 -1.4 -1.4 -1.4 -1.4 -1.4 -1.4 -1.4 -0.9 -1.4 -1.4 -1.4 -1.4 -1.4 -1.4 -1.4 -1.4 -1.4 -1.4 0.7 1.8 4.4 5.4 4.2 4.1 2.9 3.4 2.1 -1.4 -1.4 -1.4 -1.4 -1.4 -1.4 -1.4 -1.4 -1.4 -1.4 -1.4 -1.4 -1.4 -1.4 -1.4 -1.4 -1.4 1.9 6 7.9 7.2 6.7 6.1 4.8 4.5 4.4 3.2 2.7 2.3 -1.4 -1.4 -1.4 -1.4 -1.4 -1.4 -1.4 -1.4 -1.4 -1.4 -1.4 -1.4 -1.4 -1.4 -1.4 -1.4 -1.4 -1.4 -1.4 -1.4 3.2 9.4 15.1 14.3 14 14.4 13.6 12.9 13.4 16.5 16.8 21.3 25.7 28.2 27.9 29.4 29.1 27.3 25.3 20.8 24.1 28.3 30.4 33 36.5 40.8 42.2 42.4 42 45.2 45.9 51.8 57.7 58.3 56.9 51.2 47.8 52 50.5 58.3 63.2 61.4 58.6 58.1 56.3 60.2 63.4 66.6 70.5 72.6 73.6 77.2 81.3 82.3 84.5 87.6
60 56 50.6 43.8 41.6 37.3 34.4 31.1 27.4 23.5 21.5 19.2 16.2 13.9 11.1 9.1 7.3 5.9 2.7 4.1 8.2 -1.4 -1.4 3.1 2.6 2.2 4.9 5.6 6 -1.4 -1.4 -1.4 -1.4 -1.4 -1.4 -1.4 -1.4 -1.4 -1.4 -1.4 -1.4 -1.4 -1.4 -1.4 -1.4 -1.4 -1.4 -1.4 -1.4 -1.4 -1.4 -1.4 -1.4 -1.4 -1.4 -1.4 -1.4 -1.4 -1.4 -1.4 -1.4 -1.4 -1.4 -1.4 -1.4 -1.4 -1.4 -1.4 -1.4 -1.4 -1.4 -1.4 -1.4 -1.4 -0.5 0.8 1.1 0.6 -1.4 -1.4 -1.4 -1.4 -1.4 0.5 0.7 2.3 5.2 7.4 8.9 10.7 10.5 10.5 8.4 7.4 6.3 3.8 3.9 2.7 0.5 -1.4 -1.4 -1.4 0.6 0.8 -1.4 -1.4 -1.4 0.9 2 4 4 4.7 9.6 13.9 16.2 15 14.6 12.4 11.8 12.6 11.9 10.3 7.4 4.2 1.8 -1.4 -1.4 -1.4 -1.4 -1.4 -1.4 -1.4 -1.4 -1.4 -1.4 -1.4 -1.4 -1.4 -1.4 -1.4 -1.4 -1.4 -1.4 -1.4 6 11.3 14.4 14.6 14.8 13.7 13.3 13.4 12.9 12.5 12.2 14.5 19.2 24.3 28.2 30.4 30.8 27.1 22.2 18.3 20.2 26 28.2 29.8 34.4 35.5 37 36.3 40.9 42 42.6 48.2 51.7 50.6 47.1 45.2 40.6 43.7 44.8 48.9 49.5 49.2 48.7 47.5 45.3 53.8 58.4 63.5 65.6 66.8 65.9 68 69.8 72.4 77.1 79
59.3 53.5 49 45.4 46.6 41.4 37.1 36.2 33 27.9 23.3 20.9 18.2 15.9 13.4 11 9.9 6.4 3.8 7 7.8 -1.4 5 4.9 3.4 4.8 6.4 6.5 6.3 4.1 1 -1.4 -1.4 -1.4 -1.4 -1.4 -1.4 -1.4 -1.4 -1.4 -1.4 -1.4 -1.4 -1.4 -1.4 -1.4 -1.4 -1.4 -1.4 -1.4 -1.4 -1.4 -1.4 -1.4 -1.4 -1.4 -1.4 -1.4 -1.4 -1.4 -1.4 -1.4 -1.4 -1.4 -1.4 0.2 0.3 0.7 -1.4 -1.4 -1.4 -1.4 1.9 -1.4 0.9 4 4.3 4.4 2.2 2 2.2 2.5 3.3 4 6 7.7 9.8 12 14.7 15.9 16.9 18.4 18.8 17.7 12.8 9.8 9.9 6.4 1.9 0.7 0.7 1.3 1.9 3.4 2.8 4.5 4.2 5.2 6.1 9.1 9 11 16.7 21.8 22 22.2 21.8 16.9 18.9 19.8 19.3 16.6 13.5 9.1 5.6 4.2 3 2 -1.4 -1.4 -1.4 -1.4 -1.4 -1.4 -1.4 -1.4 -1.4 -1.4 -1.4 -1.4 -1.4 -1.4 1 5.8 9.7 13 14.3 14.8 15 14 13.6 12.5 13 12.5 11.9 12.1 15.1 20 26.2 33.4 32.6 25.6 19.6 15.9 21.3 23 25.5 26.5 26.9 29.8 29.9 31.6 37.4 40.4 38.2 39.4 41.1 38.9 35 35.3 35.6 34.6 35.9 36.4 36.5 36.7 37 38 43.4 51.6 52.1 57 60.6 59.4 57.7 59.2 61 64.8 66.4 70
55.4 52.8 50.2 49.2 49.5 42.7 40 39.3 35.4 34.6 26.5 22.8 20.3 18 15.5 12.7 10.6 8.4 4.1 7 8.2 -1.4 6.5 5.3 5.7 7.3 8.6 7.8 7.5 6.8 6 1.8 1.2 1.5 2.1 -1.4 -1.4 -1.4 -1.4 -1.4 -1.4 -1.4 -1.4 -1.4 -1.4 -1.4 -1.4 -1.4 -1.4 -1.4 -1.4 -1.4 -1.4 -1.4 2.2 -1.4 -1.4 -1.4 -1.4 -1.4 -1.4 -1.4 -1.4 0.3 0.8 2.6 3.1 3 3 1.7 1.6 4.1 4.4 3.4 4.3 4.9 5.2 5.5 5.2 6.2 7.3 7.8 9 10.5 11.6 12.7 14.2 18.5 21.2 21.9 21.4 24.2 21.1 20.2 18.3 13.4 11.9 10.2 7.3 3.2 3.4 4.2 3.9 3.9 6.3 7.9 8.6 8.8 11.8 14.2 12.8 13.5 16.5 20.5 22.7 23.6 24.6 23.5 24.6 25.4 27.3 24.6 20.3 14.3 9.2 6.8 5.3 5.2 3.6 2 1.5 1.2 -1.4 -1.4 -1.4 -1.4 -1.4 -1.4 -1.4 -1.4 -1.4 -1.4 1.5 6.9 11.6 13.6 14 14.6 14.2 13.6 13.1 12.3 11.1 12.6 11 11.3 11.6 14.7 22.8 29.3 27.7 20 16.6 18.1 20.2 20.6 21.9 23.4 23.2 24.3 26.5 29 35.6 38.4 35.7 34.4 34 31.5 29.2 27.7 29.8 26 26.6 27.8 27.5 28.1 31.7 36.3 38.4 42.6 45.4 48.8 51 49.8 48.9 50.6 54 58.3 62.4 64.5
54.3 54 53.3 54.5 47.7 43.4 41.6 39.9 33.7 29.7 30.8 24.1 22.1 20.3 17.1 14 10.4 8.6 4.8 8.2 9.7 -1.4 7.9 7.8 8.7 9.8 10.2 9.9 8.7 7.9 6.3 5.8 5.5 6.3 7.2 6.8 6.5 5.7 3.2 2.6 1.3 -1.4 -1.4 -1.4 -1.4 -1.4 1.2 2.2 2 3.1 3.4 2.7 2.8 3 3.2 2.5 -1.4 -1.4 -1.4 1.3 -1.4 -1.4 1.4 2.1 2.2 3.7 6.9 6.9 6.3 6.7 8 8.2 6.9 2.7 4.9 8.7 9 8.7 9.7 11.3 11.5 12.7 14.5 18.1 17.1 19 21.5 23.5 24.3 27 25.4 25.8 24 20.7 20.1 16.3 13.4 13.3 12.1 8 5.3 5.3 7.7 7.1 9.8 10.9 11.7 12.7 16.8 14.9 14.6 17.6 21.7 23.5 24.5 26 29 31.5 28.8 28.1 31.1 34.7 27.5 20 14.1 10.5 9.5 7.4 6.8 7 6.2 6.2 6.2 6.5 -1.4 -1.4 -1.4 -1.4 -1.4 -1.4 -1.4 -1.4 -1.4 3.5 11.4 13.8 13.8 14 13.5 13.1 12.5 11.9 11.2 11.1 11.8 11.9 11.8 13 15.9 19.9 19.5 16.4 15.8 15.9 15.6 15.3 19.3 20 20.4 21.8 23.8 26.6 30.7 32.2 31.1 28.4 26.9 23.6 22.2 21.5 21.5 19.6 21.1 21.6 22.8 21.8 25.7 29.8 31.7 35.4 36.8 38.6 39.9 39.9 40.9 42.6 46 52.8 54.9 59.4
50.2 55.4 54.2 61.3 60.8 44.6 41.8 32.3 33.7 30.7 30.3 25.8 24.2 23.1 18.9 16.5 12.9 10.3 6.7 8.2 10.8 9 8.6 8.5 11.1 11.2 11.2 11 9.8 8 6.8 9 7.9 11.1 11.3 10.6 10 9.3 8.6 6.8 6.7 5.8 5.5 5.4 5.1 5 5 6.2 6.3 7 7.2 7.3 7.9 8.4 5.9 5 3.7 2.3 3.4 4.6 5.5 6.5 7.3 7.1 7.1 2.2 8.5 8.8 9.6 10.8 12.7 12.1 8.1 2.5 7.1 9.9 10.3 12.7 17.7 20.3 21.4 23.4 21.8 20.9 21.2 24 26.9 27.7 28.3 29.6 32 29 26 20.3 19.9 15.6 19 20.2 13.7 10.5 7.3 6.8 10 8.6 12.2 14.7 15.7 17 18 17.9 17.9 21.1 24.7 28.6 28.4 28.6 32.3 35.3 32.2 31 32.6 37.5 30.7 24.2 19.3 16.4 16.2 14.1 12.4 11.6 10.3 9.1 7.7 9.5 8.9 -1.4 -1.4 -1.4 -1.4 -1.4 -1.4 -1.4 -1.4 -1.4 7.3 11.8 12.9 12.8 13 12.6 12 11.4 10.7 10.9 11.3 11.7 11.9 12.6 12.9 13.6 14.1 14.7 14.7 16 16.4 15.2 14.4 14 17.2 19.2 21.4 24.3 24.7 25.4 25.6 21.5 16.9 14.1 14 14.4 14.3 16.3 19 16 14.3 15.7 18.7 22.7 23.4 26.8 28.3 28.4 29 28.3 30.7 37.2 41.4 46.6 46.2 48.8
50 49 48.7 61 62.8 42.2 40.1 30.5 31.9 29.6 28.6 26.1 25.4 25.6 19.3 17.8 14.4 11.2 8.6 10.1 12.1 9.7 8.9 9.8 11.5 12.2 12.1 10.9 11.1 9 8.8 10.2 11.7 12.2 13.3 13.8 13.7 13 12.2 11.8 11.4 11 10.6 9.5 9.6 9.5 9.5 10.2 10.2 10.3 10.2 10.9 10.2 10 8.7 8 7.6 7.9 9.5 9.9 10.9 10.3 12 11.9 10 6.2 10.2 10.6 14.9 19.6 16.9 11.1 7 5.7 9.5 11.9 14.3 20.7 25.4 27.3 28.5 28.4 26.4 25.6 26.8 30.4 34.5 39.4 39.2 40.9 38.5 36.5 32 26.5 23.5 20.8 21.4 18.2 16 12.9 10.4 9.4 10.3 10.5 15.8 17.8 19 20.6 21.3 21.2 21.1 23.1 28.8 31.7 32.8 32.1 35.8 36.3 35.2 36 33.8 34.1 30.4 24.3 22.5 23.5 20.7 19.4 17.1 18.1 19.7 14.7 11.1 12.7 13 8.8 -1.4 -1.4 -1.4 -1.4 -1.4 -1.4 -1.4 -1.4 -1.4 6.5 10.3 10.3 10.9 11.5 11.1 10.6 9.9 10 10.2 10.4 10.7 11.5 4.9 11.4 14.1 14.3 15 15.2 15.5 15.6 15.7 15.1 14.3 16.5 17.9 20 20.9 22.1 17.6 13 10.6 10.3 9.8 10.9 12.6 13.4 12.7 11.3 10.9 9.5 13.1 14.2 15.4 17.1 18.9 20.4 19.9 19 22.3 31.2 33.2 35.7 38.7 40
43.4 41.8 45.9 52.5 61.7 40.1 34.4 30.5 31.8 30.2 27.4 25.9 24.3 22.4 20.6 19 17.4 11.2 12.6 11.5 12.9 10.6 9.8 11.4 12.3 13.2 12.1 12.3 12.6 12 12.8 14.1 15.6 16.5 16.5 17 17 16.9 16.2 15.8 15.4 14.9 14.6 13.7 13.6 13.9 14 14.2 14.8 15.6 15.4 14.3 12.5 11.8 11.2 10.5 11.3 13.7 15.5 19.5 15.4 18.8 16.1 16.8 12.2 7.4 13.4 16.6 18.7 17.7 14.1 9.7 3.1 10.2 14.3 13 17.2 24.7 26 29.6 32.7 32.1 30.7 30 31.7 39.6 43.1 45.7 49 44.5 42.3 37.6 34.8 32.5 29.4 25.8 24 22 20 16.9 13.5 12.6 11.5 9.8 14.3 19.5 21 22.6 24.3 25.5 25.3 24.8 28.2 32.4 34 40.1 40.6 40.8 37.4 36.8 34.9 34.1 30.1 25.9 25.1 23.4 23.4 26.4 28.8 30.8 31.1 28.1 18.9 15.6 14.3 12.7 9.4 1.5 -1.4 -1.4 -1.4 -1.4 -1.4 -1.4 -1.4 -1.4 4.6 6.2 9 9.4 9 8.6 8.3 8.7 9 9.2 8.9 5.9 11.8 13.8 13.8 13.8 13.9 15 15.3 15.3 15.6 14.8 14.3 13.7 13.5 14.7 15.8 13.7 10 8.4 7.4 7.7 8 8.5 8.8 10.4 8.4 7.4 7.4 7 9.3 10.6 12.7 12.7 14.8 13.8 14.5 14.2 16.5 16.1 25.7 23.5 24.3 19.3
42.4 40.7 38.6 42.9 43.2 40.6 37 32 30.5 30.2 28.8 25.9 24.8 22.1 19.8 15.4 13.7 14.2 14.9 11.6 15 14.7 13.7 13.7 13.5 13.8 13.9 14.3 14.6 15.9 16.8 18.1 19.5 20.7 20.5 20.2 20.2 20.2 20.2 19.8 19.3 18.9 18.5 18 17.8 17.6 18.1 20.2 20.9 21.6 21.7 20 18.1 18 19.1 20.3 17.2 19.9 20.9 20.9 21.4 27.1 23.2 22 17.8 12 17.4 19.7 19.5 17.5 13.7 6.2 9.6 14.5 18.6 17.8 19.8 24.3 28.4 35.4 36.7 37 38 39.7 40.7 44.1 49.6 53.7 51.6 49 47.4 45.3 40.7 38.4 34.7 31 27.5 26.1 25.7 22.4 17.7 16.2 16.7 13.8 15.8 22 23.1 24.7 26.4 27.9 30 29.4 32.5 36.2 40.4 43.3 43.4 44.8 41.6 39.3 38.2 34.1 27.5 28.9 29.7 31.2 33.5 37.2 40.9 41.8 42.3 38.4 29.7 22.3 15.7 14.4 12.9 11.3 6.1 -1.4 -1.4 -1.4 -1.4 -1.4 -1.4 -1.4 -1.4 -1.4 6.6 7.8 7 6.7 6.4 6.8 7.4 7.9 6.2 8.3 10.2 11.8 12.3 14.3 15.1 14.5 14.3 14.5 14.4 13.1 11.7 11.3 10.8 10.6 10.7 8.8 8.1 7.4 6.6 6 6.3 5.4 5.7 4.9 4.8 4.8 4.2 6.7 7 8.2 9 10.7 9.9 9.3 10.7 11.7 12.9 13.6 12.3 13.9 15.3 14.3
42.8 38.8 37.5 36.9 35 34.1 32.1 30.3 29.8 28 27.6 27.3 24.1 22.9 19.6 21.6 18.1 18 14.4 13.3 16.2 15.9 15.2 12.5 14.5 15.2 15.3 16.7 17.7 19.2 20.6 21.8 23.1 23.8 23.8 23.3 23.1 23 22.5 23.7 23.2 22.8 22.4 22.4 22.3 22.3 23.7 29.2 27.4 29.3 27.6 25.8 25.7 25.6 26.8 27.9 25.8 26.3 27.3 25.9 26.3 28.9 29.2 24.6 18.4 15.8 24.3 22.7 19.9 17.7 16.4 10.3 14.2 19.3 22.3 22.4 22.4 26.8 35.3 38.8 42.5 47.6 47.7 51.4 47 49.1 53.1 56.7 54.7 53.9 53.9 56.7 48.7 44.3 40.2 36.2 32.1 32.1 31.1 28.1 24.4 22.4 21.7 19.7 18.7 24.5 25.4 26.8 28.5 30.9 32.4 33.3 38.1 42 44.7 46.5 49.8 48.2 46.3 43.6 39.1 35.9 34.6 35.8 37.2 38.8 42 46.5 48.9 51.3 51.3 47.8 39.6 33.1 26.8 23.6 22.6 21 17.8 13.8 10 6.9 -1.4 -1.4 -1.4 -1.4 -1.4 -1.4 -1.4 3.3 4.5 4.6 4.1 3.7 3.2 5 8.4 9.3 9.9 10.9 11.3 11.3 12.3 12 12.5 12.6 13 12.5 11.8 11.3 10.8 10.2 9.6 8.6 8.3 7.4 6.9 5.4 4.9 4.5 2.8 2.9 2 3 4.5 -1.4 5.2 6 7.2 6.8 6.7 6.7 7.1 7.8 10.5 8.5 8.2 8.7 11 13.3
51.3 42 37.4 34.7 33.3 35 31.2 31.4 29.5 27.7 26.1 25 24.8 21.4 17.2 18 19.1 19.6 15.7 15.6 15.1 16.5 16.3 13.3 16.5 18 17.1 19.4 20.7 22 23.7 25 26 26.4 26.8 26.7 26 25.1 24.2 26.2 27.1 26.2 25.2 25.6 26.9 30 36.1 32.3 31.1 32.8 33.6 33.5 33.3 33.2 34.3 34.8 33.5 32.9 32.6 32.8 33.1 34.9 33 27.9 25.7 29.6 27.4 25.1 23.4 22.4 20.2 17 15.4 20.1 23 24.1 24.7 24.8 32.9 42 46 48.8 49.9 51.9 52.6 53.4 56.6 58.9 57.6 56.5 58.3 57.9 53.1 48.7 44.7 40.7 38.9 37.6 37.2 35.1 30.7 29.8 28.3 26.9 25.8 25.4 27.3 28.9 30.6 34.1 36.9 37.4 38.6 41.3 46.5 49.4 52.7 50.7 51.3 49.2 45.3 37.1 39.6 42.8 44.3 46.1 49.7 54.2 56.5 58.8 58.2 55.7 50.1 43.9 38 34.9 33.2 32.3 28.9 25 18.8 12.2 4.1 -1.4 -1.4 -1.4 -1.4 -1.4 -1.4 -1.4 2.1 2.5 -1.4 3.6 5.5 6.7 7.9 9.5 9.8 10.8 11.2 11.4 11.4 11.5 11.5 11.4 12 11.4 11 10.2 10 9.3 8.7 7.4 7.5 6.5 6.3 3.4 1.6 1.6 1.3 0.9 0.3 0.3 0.6 -1.4 0.8 0.9 1.3 1.7 2 4.6 5.2 5.4 6.2 5.8 6.2 7.2 8.5 9.6
48.1 40.4 38.6 36.9 34.9 33.1 33.2 29.7 29 29.1 28.9 25.1 23.6 20.7 17.8 20.1 20.5 19.9 18 17.9 17.6 16.7 16.2 16.4 19.6 21.7 19.7 21.7 22.9 24.6 26.6 28.1 28.5 29.1 29.6 29.3 28.8 27.9 28.9 30.6 29 29 28.2 28.6 33.1 36.1 41.7 38.4 38.7 43.2 43.3 41.8 41.3 40.9 41.6 42.1 40.7 40.1 39.6 38.6 38.9 39.2 36.9 32.5 30.9 32.6 30.2 29.5 27.9 25.8 23.5 21 21.5 24.5 27.3 26.8 27.5 32.8 37.2 41.7 43.1 45.8 49.8 53.4 54.7 56.7 58.1 60.8 66 65 66.5 63.9 56.9 51.3 48.6 43.8 47 46 44.4 41.3 35.9 37.2 34.3 32.5 31.2 29.2 32.3 30.2 30.8 38.7 42 40.8 41.7 42.1 48.8 51.2 54.8 52.1 53.4 50.9 48.5 43.2 46 49.1 52 54.2 57.3 61 64.1 66.8 66.8 64.3 59.1 51.8 47.9 45.7 44.2 43.3 40.6 36.5 27.7 17.8 4.4 -1.4 -1.4 -1.4 -1.4 -1.4 -1.4 -1.4 0.2 0.7 -1.4 4.6 5.9 7.1 8.2 9.7 9.9 10.8 11 11 11.3 11.2 11.1 11 10.9 10.5 10 9.5 9.3 8.8 7.8 7.4 7.2 5.9 4.7 1.7 0.3 0 -0.3 -1.4 -1.4 -1.4 -1.4 -1.4 -1.4 -1.4 -1.4 -1.4 -1.4 1.1 3.8 4.9 5.2 5.8 6.3 7.4 7.7 8
45.9 42.1 39.1 38.4 38.8 37.2 33.6 34 32.9 30.9 29.1 27.1 26.1 24.6 23.6 23.9 22.6 21.7 18.7 18.9 19.1 18.8 17.4 16.9 21.8 23.2 21.3 23.7 25.6 27.4 29.4 30.9 31.4 31.9 32.3 31.9 31.4 31.6 32.7 34.3 32.1 31 32.4 34.5 39.1 44.2 45.2 41.7 45.5 48 49.5 47.8 49.4 48.6 48.9 49.2 49.1 47.3 46.6 45.4 44.4 45.1 42.1 41.9 40.5 35.7 36 38.5 32.6 32.6 29.7 28.8 28.2 28.7 31.3 32.9 33.3 37.6 41 44.8 48.6 50 51.1 52.3 55.1 56.9 61.1 67.4 71.5 70.6 69.7 63 58.3 60.1 52.2 50.4 55.1 54.8 51.2 50 44.6 44.7 42.5 39 35.9 35.6 36.9 36.8 35.5 41.1 46.4 45.4 45.6 44.6 50.3 54.8 54.6 53 54.1 52.7 49.4 49.4 53.2 57.1 61 62.8 64.4 67.8 70.3 73.6 72.8 70.5 66.2 61 57.6 55.4 53.3 53.6 52.5 47.1 36.2 24.3 11.4 -1.4 -1.4 -1.4 -1.4 -1.4 -1.4 -1.4 -1.4 -1.4 -1.4 2.9 4.4 6 8 9.2 10 10.9 10.7 10.7 10.7 10.7 10.7 10.6 10.5 9.9 9.4 8.8 8.7 8.8 6.4 4.9 4.1 4 3.7 -1.4 -1.4 -1.4 -1.4 -1.4 -1.4 -1.4 -1.4 -1.4 -1.4 -1.4 -1.4 -1.4 -1.4 0 4.5 4.6 4.5 2.9 4.2 7.5 9.8 9.7
43.1 42.6 42.4 41.8 41.2 39.1 36.1 35.1 34.3 32.9 31.7 30.3 29.8 27.6 26.3 25.6 25.2 21.8 20.8 21.4 21.1 20.1 17.3 18.8 29.3 25.3 22.8 25.6 28.3 30.3 32.3 33 34.2 34.8 34.8 34.4 35.5 34.1 33.4 38.7 37.7 40.1 40 43.6 45.2 47.7 48.2 49.7 50.9 53.3 55.7 56.3 56.3 56.4 54.5 57.2 54.8 52.7 52.3 51.4 52.2 49 48 53 48.1 44.8 42.5 42.8 38.4 39.6 42.3 37.8 32.7 35.2 37.4 38.8 41.5 42.7 44.7 51.3 50.8 53.1 54.6 55.3 55.5 57.8 62.9 65.3 69.2 69.5 67.9 64.7 69 64.1 58.1 59.1 57.2 55 55.2 57 53.1 51.9 49.8 47.4 41.5 39.5 40.5 41.5 40.1 46.9 50.5 49.2 50.3 48.7 50.5 55.6 56.7 56.2 57.8 55.9 53.1 54.6 60.2 64.8 69 70.7 72.1 74.8 79 81.8 80.8 75.8 71.1 67.6 65 63.9 62.8 62.1 61.4 56.7 45.8 34.1 21.6 8.6 -1.4 -1.4 -1.4 -1.4 -1.4 -1.4 -1.4 -1.4 -1.4 1.3 3.3 5.5 7.5 9.6 10.1 11 11.1 10.9 10.5 10.5 10.3 10.2 10.1 9.7 9.1 8.4 8.4 8.5 6 5.1 -1.4 -1.4 -1.4 -1.4 -1.4 -1.4 -1.4 -1.4 -1.4 -1.4 -1.4 -1.4 -1.4 -1.4 -1.4 -1.4 -1.4 -1.4 -1.4 -1.4 0.6 1.2 1.8 3.8 5.4 6.2
46.3 46.2 46.9 46.3 43.7 42.6 41.9 41.9 39.6 37.3 34.1 34.2 32.5 30.3 28.4 26.8 26.6 23.4 24.6 25.1 24.9 22.6 14.6 20.7 25.9 26.9 25.3 27.7 29.8 32.2 34.6 35.3 36.9 37.6 37.3 39.1 39.6 37.7 37.6 40.8 44.4 46 46.9 49 50 53.8 53.6 58.6 59.7 60.8 65.2 68.8 64 66.5 61.5 61.7 63.1 62.3 60.2 60.3 61.5 59.4 59.3 60.4 56.5 53.2 46.8 47.5 46.5 46 48.3 45.3 39.7 40.6 42.7 43.7 47.2 48.1 52.8 54.3 55.4 57.3 57.7 58.2 60.8 64.4 62.3 64.9 68.5 70 67.6 65.5 63.7 63.1 60.3 61.5 59.9 59.4 55.1 58.4 56 54.8 52.7 51.8 48.4 43.4 45.6 46.3 46.3 51.2 55.3 53.6 54.3 54.1 53.2 56.7 60.2 59.7 60.9 62.8 60.6 61.9 67.3 72 76.7 79.7 80.3 83.4 87.7 90.1 89.2 84.6 77.9 74.6 72 68.3 70.5 71.6 68.2 63.9 55.4 45 33 20.6 8.2 -1.4 -1.4 -1.4 -1.4 -1.4 -1.4 -1.4 -1.4 -1.4 2.1 2.3 3.9 8.8 9.8 11.1 11.5 10.3 10 10 10 9.8 9.7 9.4 8.9 8.2 8.2 8.4 6.8 -1.4 -1.4 -1.4 -1.4 -1.4 -1.4 -1.4 -1.4 -1.4 -1.4 -1.4 -1.4 -1.4 -1.4 -1.4 -1.4 -1.4 -1.4 -1.4 -1.4 -1.4 -1.4 -0.3 0.5 1.4 2.2 3.7
55.1 56.3 48.9 48.3 46.9 43.1 45.7 44.7 44.1 41.1 38.4 36.6 34.9 33.4 31.7 29.7 27.3 28 27.8 27 25.7 22.7 23.7 23.7 24.5 28.1 28.4 30.4 33.2 34.5 35.3 37.3 39 40.6 42.8 45 43.1 42.8 42.7 47.7 49.1 50.8 52.7 54.1 55.5 57.6 61.5 63.9 66.4 69.5 70 69.8 68.1 73 76.8 69.4 67.9 70 71 68.7 65.3 65.2 67.5 70.2 60.2 54.7 52.7 54.7 52 51.3 50 49.8 46.3 47 48.1 47.8 49.6 61.8 59 62.6 63.8 62.4 64 68.1 73.4 70.6 65.4 65.1 65.2 67.9 67.7 66 64.3 63.7 61.5 61.3 64.4 60 57.5 60.8 58.6 57.9 54.7 54 53.4 50.7 51.9 52.8 53.3 55.6 59.5 59.9 61.3 59.7 59 61.4 69 66.7 65.1 66.2 65.5 68.5 74.8 80.4 85.2 88.5 87.7 93.3 97.3 99.9 99.8 94 88 85.2 80.1 74.7 78.3 77.8 75.8 72.1 65.3 56.3 44.7 31.3 18.7 11.5 -1.4 -1.4 -1.4 -1.4 -1.4 -1.4 -1.4 -1.4 -1.4 -1.4 1.2 5.3 9.6 11.7 11.2 10 9.6 9.5 9.5 9.4 9.3 9.2 8.8 11.6 11.5 4.8 -1.4 -1.4 -1.4 -1.4 -1.4 -1.4 -1.4 -1.4 -1.4 -1.4 -1.4 -1.4 -1.4 -1.4 -1.4 -1.4 -1.4 -1.4 -1.4 -1.4 -1.4 -1.4 -1.4 -1.4 -1.4 0.1 1 1.8
54.9 52.4 49.5 46.1 48.3 48.2 48.8 46.3 46.4 43.8 41.2 39 34.9 35.5 34.6 31.7 31.6 30.7 30.7 26.7 26.8 27.4 28.6 28.9 28.7 28.8 31.7 35.2 38.1 38.9 39.5 41.8 43 43.6 47.1 49.2 46.2 49.7 53 55.9 57.3 58.7 58.6 59.4 60.1 60.9 64.2 68.6 69.9 72 72.6 74.5 77.7 77.9 79.2 79.6 79.6 78.1 79.3 79.6 76 73 70.1 66.8 61.6 62.4 62.7 60.1 57.6 54.2 54.2 51.1 52 57 54 51.9 50.7 56.3 62.4 64.2 67.2 67.2 72.7 77.2 82.5 71.6 67.6 68.8 67.2 68.8 68 67.1 66.2 65.6 67.6 68.1 64.3 60.4 59.5 62.6 64.9 59.8 60.2 59.4 59.1 55.9 57.3 59.4 60.8 60.4 66.6 69 69.8 75.6 70.7 68 72.6 72.2 69.7 66.4 71 74.7 81.5 88.1 93.9 96.4 95 100 105 110.4 113.3 105.7 96.7 94.3 88.2 84.5 85 84.5 81.1 77.1 72.5 64.8 54.1 42.1 29.1 20.7 13.4 7.2 -1.4 -1.4 -1.4 -1.4 -1.4 -1.4 -1.4 -1.4 -1.4 -1.4 5.4 9.1 9.5 9.2 9.1 9.3 9 9 8.9 8.7 8.5 8.2 1.6 -1.4 -1.4 -1.4 -1.4 -1.4 -1.4 -1.4 -0.4 -1 -1.4 -1.4 -1.4 -1.4 -1.4 -1.4 -1.4 -1.4 -1.4 -1.4 -1.4 -1.4 -1.4 -1.4 -1.4 -1.4 -1.4 -1.4 -0.3 0.5
56.6 55.9 51.3 49.2 51.2 49.5 49 47.2 46 44.5 42.8 41.1 38.6 36.5 34.7 34.2 33.2 31.6 28.7 29.5 30.1 31.1 31.3 31.2 31.1 31.2 36.3 40.4 42.8 43.4 46 47.7 52.4 56.7 60 62.3 61.4 62.3 64 64.1 65.4 66.1 64 65.8 66.2 67.2 65.3 69.8 75.8 78.8 80.4 82.3 85 85.7 87.4 87.2 88.1 88.3 87.1 83.2 76.8 75.5 73.6 71 68.7 68.9 66.2 62.8 62.7 58.5 58.7 53.7 56.4 58.7 57.1 57.5 57.1 58.7 64.8 70 79.4 75.6 78.1 78.4 76.4 73.6 75.2 78.2 70.1 69.8 68.6 69.7 69.8 74.2 77 73.1 69.4 65.6 67.1 69.9 68.9 67 65.2 65.1 63.8 62 63 65.7 67 70.9 72.1 77 79.8 84.9 82.4 78.7 79.6 81.8 75.9 75.5 80.2 84.9 89.2 96.7 104.7 108.7 106.9 110.6 114.6 119.4 122.1 117.2 107.6 103.5 97.8 95.5 95.1 93.4 89.4 85.9 81.9 73.1 61.1 48.2 38.3 30.1 22.8 14.5 8.1 -1.4 -1.4 -1.4 -1.4 -1.4 -1.4 -1.4 -1.4 -1.4 -1.4 -1.4 3.8 6.7 7.8 7 5.3 4.9 6.2 2.6 -1.4 -1.4 -1.4 -1.4 -1.4 -1.4 -1.4 -1.4 -1.4 -1.4 2.1 3 -1.4 -1.4 -1.4 -1.4 -1.4 -1.4 -1.4 -1.4 -1.4 -1.4 -1.4 -1.4 -1.4 -1.4 -1.4 -1.4 -1.4 -1.4 -1.4 -1.4
57.3 53.1 53.1 52.2 53.5 52.5 51.2 48.4 47.1 45.6 44 42.9 40.1 38.1 35.9 34.8 33.9 34.3 29.8 30.7 32.5 33.4 33.6 35.6 36.5 35.8 38.3 43.8 47.3 51.3 54.2 57.7 64.8 71.3 75.2 80.7 80.5 88.6 79.7 73.4 73 71.3 69.6 71.3 72.6 73.7 71.8 72.5 75.9 78.6 84.3 87.3 89.7 89.8 91.2 93.2 93.6 91.7 88.1 81 83.2 80.6 80.1 82.4 75.4 72.2 73.3 74.1 67.2 62.7 59.4 55.7 59.3 60.6 62 63.8 61.5 62.9 66.8 72.7 77.4 79.5 79.2 78.9 79.8 78.1 77.5 75.4 75.2 73.4 70.9 71.9 73 81.8 86.2 80.5 73.5 79.3 74.7 77.6 77.8 74.1 78 75.9 73.1 68.9 67.4 69.2 74.9 78.2 76.8 81 84.6 88.2 90.2 88.5 89.5 87.7 83.7 81.5 91.6 95.8 98.5 103.6 114.3 124.5 119.2 117 119.6 123.1 122.1 116.6 116.7 112.9 108.3 105.4 106.4 103 97.2 92.3 86.8 76.4 66 54.7 45.8 38.9 30.3 20.8 14.1 7.4 -1.4 -1.4 -1.4 -1.4 -1.4 -1.4 -1.4 -1.4 -1.4 -1.4 -1.4 -1 0.8 0.9 0 -0.9 -1.4 -1.4 -1.4 -1.4 -1.4 -1.4 -1.4 -1.4 -1.4 -1.4 -1.4 -1.4 0.9 3.9 -1.4 -1.4 -1.4 -1.4 -1.4 -1.4 -1.4 -1.4 -1.4 -1.4 -1.4 -1.4 -1.4 -1.4 -1.4 -1.4 -1.4 -1.4 -1.4 -1.4
54.3 54.7 55.1 56.3 56.3 53.9 53.1 52.4 49.2 47.2 45.5 45.3 41.7 39.3 37.1 35.5 34.9 32.9 30.9 32.8 34.1 35.5 37.3 40 41.6 42.9 46.5 45.4 53.9 60.1 65.7 68.1 71.8 77.9 87.8 90.9 92 98.2 100.5 91.7 86.4 81.9 78.1 76 81.1 78.9 77 79.2 79.7 82 86.5 90.3 91.6 93.6 97.7 96.9 95.9 93.2 88.9 82.8 82.9 86.9 80.8 77.9 77.2 75 75.8 77.1 72.1 67.3 62.2 61.1 64.2 66 66.6 66.8 66.8 67.8 72.1 73.5 77.7 80.1 81.7 83.6 84.7 83.9 79.9 74.9 77.2 76.7 72 75.5 79 89.4 88.9 85 81.1 85.7 80.6 81.4 80.9 80.8 84 83.5 79.1 76.7 73.4 73.7 82.3 83.1 83 86.2 88.1 91.1 94.1 95.6 99 97.6 93.1 92.7 96.8 101.6 107.6 112.3 120.9 128.4 125.2 123.9 125.6 128.4 127.3 131.3 133.7 126.8 120.3 116.2 119.8 114.2 106 101.1 89 78.9 69.3 58.1 50.5 43 35.4 26.8 18.1 11.5 8 4.6 -1.4 -1.4 -1.4 -1.4 -1.4 -1.4 -1.4 -1.4 -1.4 -1.4 -1.4 -1.4 -1.4 -1.4 -1.4 -1.4 -1.4 -1.4 -1.4 -1.4 -1.4 -1.4 -1.4 -1.4 -1.4 -1.4 -1 -0.6 -1.4 -1.4 -1.4 -1.4 -1.4 -1.4 -1.4 -1.4 -1.4 -1.4 -1.4 2 -1.4 -1.4 -1.4 -1.4 -1.4 -1.4 -1.4 -1.4
54.6 58.6 59.4 58.1 57.8 56.5 54 52.5 52.9 49.9 46.8 42.9 41.3 39.6 38.7 35.2 25 32.1 35.5 37.4 38.7 40.1 41.9 44.5 47.5 50.7 53.4 53.1 60.7 66.9 74 80.6 83.1 85.2 90.5 93.5 96.2 97.4 97.3 98.5 94.1 90.8 81.9 80.4 83.6 80.8 84.5 88.2 88.3 89.6 92.1 95 98.4 98.1 101.6 98 97.9 96.1 90.4 87.2 91.7 86.7 80.1 77.9 78.3 79.1 78.5 77 74.4 70.1 65 67.2 68.3 68.1 72.3 70.9 71.4 72.6 76.4 76.6 77.9 82.3 84.4 85 85.8 87.9 82.2 76.7 79.1 77.8 77.3 83.5 87.9 95.1 91.5 89.6 97.9 93 91.6 88.2 91.5 94.7 93.9 89.3 80.8 80 79.9 81.3 87 93.8 90.7 89.8 95 97.5 99.4 98.1 101.6 100.1 98.3 101.8 104.7 109.5 112.9 117.3 124 128.2 130.7 136 134.9 139 140.3 144.6 150 144.3 136.3 126.8 127.1 123.7 116.7 108.8 97.9 85.3 73.3 64.7 54.9 48 41.6 34.9 26.1 19.3 13.8 11.1 5.7 4 -1.4 -1.4 -1.4 -1.4 -1.4 -1.4 -1.4 -1.4 -1.4 -1.4 -1.4 -1.4 -1.4 -1.4 -1.4 -1.4 -1.4 -1.4 -1.4 -1.4 -1.4 -1.4 -1.4 -1.4 -1.4 -1.4 -1.4 -1.4 -1.4 -1.4 -1.4 1.1 4.1 -1.4 -1.4 -0.3 2 1.7 0.1 -1.4 -1.4 -1.4 -1.4 -1.4 -1.4 -1.4
61.5 61.6 61.2 60 58.9 57 55.5 53.6 50.2 48.9 44.9 41.9 40.2 39.8 36 35.3 35.8 37.4 39.6 41.6 43.3 44.7 45.7 48.7 51.7 54.9 54.3 59.9 67.2 73.6 80 85 87.3 90.8 94.8 97.1 98.9 100.2 99.5 97 96.5 95.8 89.8 85.8 85.1 83.3 86.6 89.6 92.4 92.2 94.6 97.6 99.1 100.6 100.1 96.9 96.7 96.9 95.3 95.4 91.8 88.4 83.9 83.4 85 88.6 84.2 79.1 73.1 70.4 67.9 70.5 72.2 75.6 75.5 73.5 74.4 76.7 78 79.2 81 84.9 87.6 87.6 87.7 88 83.9 81.7 82.7 86 90.7 91.1 93 93.4 93.7 93.9 100.5 99.2 96.7 96.2 97.5 96.5 93.4 90.2 90.1 87.3 89.9 93.8 89.5 97.9 98.1 98 99.8 101 102.9 105.4 105.8 105.5 107.1 112.9 115.5 119.9 126.3 126.8 132.5 139.4 142.9 146 147.3 151.3 149.1 153.2 158.8 155.1 142.9 133.7 134.4 133.6 124.6 116.7 105.6 93.5 78.3 67.7 62.5 56.2 49.9 43.8 35 29.5 22.3 15.9 11.6 8.5 4.5 -1.4 -1.4 -1.4 -1.4 -1.4 -1.4 -1.4 -1.4 -1.4 -1.4 -1.4 -1.4 -1.4 -1.4 -1.4 -1.4 -1.4 -1.4 -1.4 -1.4 -1.4 -1.4 -1.4 -1.4 -1.4 -1.4 -1.4 -1.4 -1.4 -1.4 2.8 3.9 -1.4 -1.4 -1.4 0.4 0.2 -1.4 -1.4 -1.4 -1.4 -1.4 -1.4 -1.4 -1.4
62.8 63 61.7 61.8 60.1 56.6 54.5 52.6 49.5 45.3 44.4 40.7 36 31.6 35.8 38 39 41.4 43.7 45.8 47.8 48.9 50.5 53.9 57.1 60.4 60 67 73.6 79.4 84.9 89.5 92 94.2 97.8 100.8 102.9 104.1 103.3 105.9 102.8 101.9 97.4 95.1 95.8 92.8 95.1 93.8 95.8 97.2 99.9 103.3 102.5 100.6 97.6 98.4 101.7 107.9 104.2 99.4 95.7 93.9 93.2 91.8 88.4 88.1 84.2 75.5 70.4 78.8 76.1 73.9 75.1 75.1 76.8 76.3 78.1 80.2 82.1 83.6 85.1 86.5 87.4 87.8 88.5 88.1 85.8 85.7 90.1 90.3 96.4 101 99.2 104.3 100.7 98.8 102 102.5 105.5 103.5 100.5 98.5 94.1 97.4 100.6 93 94.5 100.8 95.7 99.2 104.6 101.1 109.4 108.9 107.1 114.4 117.4 118.3 119.7 127.8 131.4 133.5 139.6 144.8 139.4 145.2 152.6 157.9 159.1 158.9 160.8 159.4 167 155.5 147.8 137.5 136.6 139.8 126.8 128.5 113.4 96.2 76.6 76.5 72.5 67.2 58.2 50.3 45.5 39.7 31.1 18.4 19 16.7 9.9 7.1 5.5 -1.4 -1.4 -1.4 -1.4 -1.4 -1.4 -1.4 -1.4 -1.4 -1.4 -1.4 -1.4 -1.4 -1.4 -1.4 -1.4 -1.4 -1.4 -1.4 -1.4 -1.4 -1.4 -1.4 -1.4 -1.4 -1.4 -1.4 -1.4 -1.4 -1.4 -1.4 -1.4 -1.4 -1.4 -1.4 -1.4 -1.4 -1.4 -1.4 -1.4 -1.4 -1.4 -1.4
62.8 63.3 61.3 61.6 58.7 56 53.6 49.3 46.7 44.9 42.8 37.2 36.6 37 39.7 40.2 42.3 44.9 47.5 50.1 52.5 54.5 56.1 58.9 62.4 64.9 65.6 72.8 80.4 86.2 91.1 96.2 99.1 101 103.5 105.6 106.1 107.9 108.4 114.3 112.4 109.3 107 104.7 100.8 100.1 99.2 98.1 100 102.3 103.6 104.1 103.6 103.3 99.8 102.7 104.4 107.7 111.1 106.6 104.5 97.7 95.5 93.9 89.7 84.5 78 79.4 77 76.3 75.5 77.5 78.1 78.8 81 82.8 84.4 86.5 87.7 88.8 89.9 90.9 91.4 91 91.2 93.1 92.7 89.2 94.1 95.3 104.3 111 109.9 110 106.2 110.5 104.1 107.6 105 103.4 100.9 100 95.7 98.2 103.1 95.4 96.3 101.3 103.4 103.3 109.4 106 110.6 113.7 119.8 124.3 129 130.5 132.4 136.7 139.7 142.9 149.1 155 152.3 153.7 159.3 166.1 169.1 166.5 167.7 164.9 166.1 156.3 154.1 141.7 137.8 133.8 130.5 129 114.7 95.6 88.9 86.5 83.4 74 64.7 59.2 55 48.9 40.7 32.9 30 24.3 17.8 13.6 10.5 6.2 -1.4 -1.4 -1.4 -1.4 -1.4 -1.4 -1.4 -1.4 -1.4 -1.4 -1.4 -1.4 -1.4 -1.4 -1.4 -1.4 -1.4 -1.4 -1.4 -1.4 -1.4 -1.4 -1.4 -1.4 -1.4 -1.4 -1.4 -1.4 -1.4 -1.4 -1.4 -1.4 -1.4 -1.4 -1.4 -1.4 -1.4 -1.4 -1.4 -1.4 -1.4 -1.4
62.6 62.8 57.5 54.9 54.2 54.3 54.1 52.4 49.1 46.1 41.5 39.6 41.6 41.6 38.7 42.3 45.7 48.1 51.3 54.5 57.7 59.8 61.6 64 67.5 71.5 76 79.6 86.8 92.6 97.1 102.9 106.4 109.1 111.8 113.4 114.2 114.3 117.1 120.6 119.5 114.9 114.1 111.9 108.6 107.5 104.3 102.6 103.4 108.1 106.6 107.1 108.1 105.5 104 103.7 104.4 105.8 105 104.9 102.2 99.9 99 100.1 85.7 89 88.9 88.5 83.3 80.1 80.6 81.8 82.9 86.3 87.9 89.4 90.8 92.7 93.6 94.4 95.2 95.6 95.6 95.2 95.5 105.4 103.1 95.3 98 101.7 109.1 115.2 113.2 114.4 110.2 113.6 110.9 111.5 111 107 107.6 102.4 99.4 101.9 101.5 100.6 100.5 103.2 106.6 109.7 115.3 113.4 117.2 120.2 129.1 133.8 141.9 144.2 147.3 147.8 149.5 151.7 154.5 161.5 158.3 164.3 167.3 170.1 170.6 171.5 175.6 170.3 164.7 159 156.7 145.2 138.7 141.1 132.6 124.5 114.6 97.4 97.8 93.9 87.8 83.1 77.2 70.9 64.9 58.6 47.9 44 37.9 31.5 26.3 23 19.4 9.4 12.6 10.2 9.4 7.8 8.8 11.7 12.5 10.3 10 9.2 9.1 7.6 7.9 7.9 -1.4 -1.4 -1.4 -1.4 -1.4 -1.4 -1.4 -1.4 -1.4 -1.4 -1.4 -1.4 -1.4 -1.4 -1.4 -1.4 -1.4 -1.4 -1.4 -1.4 -1.4 -1.4 -1.4 -1.4 -1.4 -1.4 -1.4 -1.4
60.8 56.4 55.7 56.3 57.9 57.4 56.7 54.6 47.5 43.8 39.4 43.5 44.6 44.8 41.8 42.3 48.2 53.1 56.6 59.8 63 65.7 67.4 70.2 74 78.6 83.1 87.8 92 99 103.3 109 113.9 117.4 119.9 121.2 122.5 124.2 129.4 130.6 126.1 120.8 119.5 118.3 117.2 112.6 110.6 107.7 108.3 108.7 110.8 111.2 111.1 108.2 106.5 105.2 106.1 105.8 104.3 101.1 100.5 103 94.2 91.3 89.8 91.5 92.1 90.5 85.9 86 86 84.7 90.4 92.2 95 97.9 98.4 99 100.8 100.1 99.8 100.9 100.4 100 111.2 107.4 104.4 101.2 102.8 108.3 112.6 120.7 121.7 118.5 116.7 118.5 116.2 118.5 116.2 113.2 109.3 105.8 103.9 107.4 108.6 107.7 108.1 113 118.2 121 123.1 121.6 126.4 132 139.7 143.9 150.2 156.9 162.9 159.8 160.3 162.3 164.6 167.5 172.2 175.2 179.3 176.3 174.5 175.8 181.9 180.7 169.9 163.8 159.5 149.7 141.7 142.2 130.4 125.8 113.1 107.6 106.4 98.1 98.3 93.5 86.2 80.2 76.3 69.3 62.4 55 45.8 40.4 38 34.2 29.9 26.4 24.7 23.6 20.3 18.4 19.7 22.7 22.2 24.4 23 22.9 24 23.8 19.2 18 7.9 3.6 2.6 -1.4 -1.4 -1.4 -1.4 -1.4 -1.4 -1.4 -1.4 -1.4 -1.4 -1.4 -1.4 -1.4 -1.4 -1.4 -1.4 -1.4 -1.4 -1.4 -1.4 -1.4 -1.4 -1.4 -1.4 -1.4
59.6 60.3 59.7 57.8 55.3 54.7 49.1 47.5 46.1 41.9 44.3 45 45.7 45.3 45.6 44.7 51.6 57.7 61.6 65.1 68.5 71.9 74.5 77.4 82.1 85.8 90.5 94.6 99.3 104.8 109.2 116.5 121.1 125.3 127.6 129.3 130.8 130.3 139.6 141 135.5 129.7 131.4 127.9 123.3 122.2 118.8 114.5 114.7 117.1 118.8 117.5 115.3 114.8 110.4 108.8 108.2 106.9 108.2 103.3 99.5 97.5 95.7 93 93 92.8 93.7 95.1 91.6 91.7 92.1 95.3 98 101.2 105.8 107.5 107.9 106.6 108 107.3 106.6 106.6 106.1 110.4 117.7 110.9 109.6 109 109.5 117.7 123 123.6 124 122.7 122.6 125.9 124.8 126.8 123.8 121 118.1 116.1 114.2 114.5 118.6 120.2 122.3 122.8 129.6 136 132.9 134.6 132.3 139.5 145.4 148.1 158.1 166.9 173.1 171.7 172 173.7 172.5 170.9 178.9 185.1 189.1 185 179.4 179.8 187.2 185.4 174.6 169.9 162.6 159.7 145.7 141.2 131.3 124.8 116.9 112.1 109.7 103.1 102.6 100.2 94.7 88 84.9 82 79.3 66.3 55.4 54.7 57.5 52.6 42.2 40.5 35.9 33.8 32.6 31.2 33.1 34.9 36.7 37.6 35.4 35.4 32.9 27.9 23.9 19.9 11.7 9.6 8 6.6 4.2 1.3 -1.4 -1.4 -1.4 -1.4 -1.4 -1.4 -1.4 -1.4 -1.4 -1.4 -1.4 -1.4 -1.4 -1.4 -1.4 -1.4 -1.4 -1.4 -1.4 -1.4 -1.4 -1.4
62.9 58.5 58.2 53.1 51.1 48.3 45.1 44.8 44.6 43.4 46.6 47.4 48.1 50.4 49.8 48.3 55.4 61.9 66.4 69.8 74.4 79.4 82.5 86.3 90.2 93.8 97.9 102.6 107.2 112.9 116.6 123.6 129.1 133.7 134.4 137.3 139.3 139.7 142.3 143.1 141.4 138.5 135.9 132.2 131.7 128.3 125.7 122.7 123.5 123.5 123.6 123 121 119.4 116.2 111.7 110 109.6 109.1 103.1 103.8 103.9 103.4 99.8 101 101.8 101.5 100.8 98.6 98.2 100.7 102.6 99.6 107.4 111.9 112.1 111.4 112.9 115.6 115.7 115.5 116.9 119.9 119.5 119.5 118.3 117 116.3 115.9 122.1 129.8 127.9 128.9 132.6 131.4 131 133.5 135.9 130.8 130.4 125.6 122.3 122.4 122.8 124.6 133.4 130.1 131.5 136.9 144.2 143.1 144.2 143.2 144.2 149.9 160 162.7 172.7 180.6 181.1 179.7 182.4 181.8 179 186.1 194.3 201.7 192.6 184.5 185.8 186.4 181.5 175.1 173.1 165 161.7 147.7 139.7 132.7 124.1 119.3 114.6 111.2 108.5 108 106.9 100 93.6 95.5 94.8 87 77 68.7 67.6 68.7 60.2 56.3 54.9 49.1 45.1 44.9 44.2 45 46.5 49.5 51.6 46.2 41.5 37.2 31 26.8 23 15.3 12.2 10 8.9 7.3 4.4 3.5 1.1 -1.4 -1.4 -1.4 -1.4 -1.4 -1.4 -1.4 -1.4 -1.4 -1.4 -1.4 -1.4 -1.4 -1.4 -1.4 -1.4 -1.4 -1.4 -1.4 -1.4
62 56.3 53.7 54.1 51 48.5 52.4 51 49.4 51.5 51.5 50 51 53.6 53.1 49.4 62.9 65.7 70.7 75.3 80.6 85.6 90.7 93.1 97.8 102.2 106.2 110.5 115.2 120.3 124.2 130.1 137.3 142.2 142.7 145.7 149.6 149.1 147.2 147.1 146.5 144.7 142.4 141.1 137 133.1 132 131.6 131.6 137.5 131.8 129.1 126.4 120.9 119 117.8 114.4 113.7 112.4 106.9 107.7 105.8 107.6 108.1 108.8 109.3 107.5 107.4 107 108.3 105.2 111.4 108.1 115.2 122.4 117.3 118.6 120.8 124.4 124.8 123.9 124.2 124.7 123.7 123.1 124.3 124.8 122.7 122 131.6 136 136.9 139 137.8 140.5 141.1 142.5 143.3 139.9 134.8 132.2 131.3 130.7 130.5 135 140.1 143.7 143.4 145.5 152.5 155.1 152.3 152.6 153.6 158.5 162.8 168 176.2 184.3 185.3 186.4 185.9 187.7 186.9 190.7 201.3 209.4 201.4 188.9 185.9 186.4 177.8 176.2 171.5 166.1 154.9 148.8 140.9 138.6 135.2 125.1 121.2 120 116.6 115.3 109.9 101.9 102.7 102 101.9 100.7 88 79.7 78.4 74.1 66 75.5 76.2 63.6 62.5 61 59.8 58.3 57.2 59.6 56.7 55.2 49.5 44 36.4 29.8 24 20 18.4 15.2 13.5 10.2 11.3 8.7 6.6 7.2 4 1.7 -1.4 -1.4 -1.4 -1.4 -1.4 -1.4 -1.4 -1.4 -1.4 -1.4 -1.4 -1.4 -1.4 -1.4 -1.4 -1.4 -1.4
59.9 57.6 57.2 56.3 53.9 56.4 55.4 52 53.8 55.6 56.6 55.5 56.9 59.3 59.4 58.3 63.2 68.9 76.2 81.5 86.8 91.8 97.1 101.8 104.8 110.6 114.7 118.9 123.4 128.6 133 135.9 141.8 147.5 152.8 156.8 159.8 159.5 157.1 155.3 152.5 150.3 149.1 145.1 144.7 142.4 139.4 140.1 142.3 139 136.1 131.5 127.8 122.9 127.1 122.4 117.7 120.6 115.2 111.8 114 113 112.5 112.6 114 115.3 111.4 114.4 114.3 111.6 112.5 114.8 116.1 114.4 119.5 121.6 124 125.1 128.8 131 130.5 131.3 132.7 134.2 134.4 134.1 133 132.1 130.7 132.9 139.6 142.7 144 144.9 144.5 146.1 155 149.8 146.4 143.5 143.3 138.2 134.7 136.7 141 148.6 152.3 152.3 152.7 155.6 158.3 161.8 162.6 163.9 173 172.2 173.4 182.6 188.3 189.5 191.6 190 191.5 193.3 199.2 207.5 213.3 203 192 186 181.2 176.9 173.6 166.5 163 154.1 151.1 146.7 147.9 148.6 138.6 133.1 131 124 114.8 112.1 109.2 112.4 110 108.8 103.7 94 88.3 83.5 76.3 81.6 83.3 79.7 74.5 75.3 72.8 73.1 69.8 66.3 63.2 59.9 59.1 54.9 50.3 43.9 36.8 29.9 27 25.7 25.1 25.4 23.3 24.8 20.3 20.6 20 17 14.1 9.7 8.8 6.5 2.3 5.1 3.9 2.2 -1.4 -1.4 -1.4 -1.4 -1.4 -1.4 -1.4 -1.4 -1.4 -1.4
60.6 60 58.4 57.3 56.3 57.3 55.1 53.9 56.4 58.2 59 60.4 60.6 64.4 67.2 65.9 61.5 71 78.2 85.3 92.4 97.6 102.5 108 112.1 117.6 122.5 127.1 131.6 136.2 140.2 143.2 147.3 149.8 152.9 160 162 161.6 162.2 160.3 156.6 157.1 155.5 155 152 146.3 146.3 144.4 143.7 140.2 137.8 132.1 131.3 132.9 128.3 125.4 123 123.1 118.7 119.8 119.9 120.8 122.8 124.4 120.5 121.7 120.6 122 121.9 121.1 121.7 121.9 122.5 124.1 124.2 125.6 129.6 133 132.9 136.2 136.9 139.9 141.4 143.3 142.9 143.1 142.8 141.9 140.9 139.8 145.1 149.2 152.6 153.7 152.1 154.8 158.2 156.4 151.4 150.1 153.8 150.8 142.8 144.9 152.8 157.9 158.2 158.6 166 163.6 163.3 165.6 168.6 166.9 179.3 183.6 181.9 187.3 192 192.9 202.3 199.2 201.8 204.8 208.4 211.6 208.6 201 194.5 189.3 178 172.3 168.3 164.2 161.7 157.7 158 150.3 150.5 149.3 140.7 137.2 131.9 123.8 119.9 113.7 116.4 119.2 117.8 112.4 106.9 98.5 86.5 87.7 87.5 86.5 83.9 83.2 80.3 80.9 79.8 79.1 74.8 73.7 76.9 75.5 71.8 65.1 60.9 53.9 47.3 42.8 39.7 40.5 41.2 40.6 39.4 37.1 35.6 34.3 31.1 27.7 25.6 23.8 21.2 16.6 16.7 13.3 9.1 7.6 2.7 -1.4 -1.4 2.4 4.4 -1.4 -1.4 -1.4 -1.4 -1.4
63.5 61.6 60.6 59.9 58.8 58.2 57.6 60.6 64.6 64.7 66.7 67.5 70.5 73 75 75.8 67.1 76.2 81.4 87.6 96.1 100.8 105.6 112.3 118.2 124.3 129.6 134.3 139.7 144.5 148.9 153 155.3 157.6 158.9 162.5 164.6 163.9 163.2 161.8 160.7 163.9 160.9 157.6 155.4 152.9 148.9 146.5 143.2 141.2 132.2 135.9 135.9 133.4 132.5 130.8 128.7 126.6 128 126 129.8 131.3 129.7 131.3 129.2 132.6 132 128.3 132.5 131.8 129.7 133.2 134.4 133.4 132.2 133.2 137.1 139.2 140.3 143.9 144.9 147.8 149.9 152.5 152.4 152.6 152.7 151.7 150.9 149.6 154.2 156.8 158.5 158.9 160.4 161.5 161.4 162.3 165.7 162.3 159.6 158.5 152.2 157.4 161.9 161.5 163.5 167.3 169.8 169.1 171.2 169.4 173.2 180.7 185.1 189.5 190.7 197 201.8 198.7 207.5 205.1 209.4 210.2 218.6 219.9 211.9 200.7 197.9 187.8 180 173.5 171.5 165.1 157.7 156.2 157.2 155.2 148.3 143.6 140.4 134.7 131 127.2 119.1 118.6 121.2 125.4 117.9 116.3 103.9 96.9 100.3 99.3 98.7 97.6 95 94.2 87.5 87.8 87 85.6 83.9 87.4 87.9 87.8 85.4 81.7 74.6 66 60.9 61.7 58.2 55.5 54.6 52.8 50.6 49.9 47.5 45 42 38.8 36.2 33.6 30.7 27.3 23.9 21 15 10.6 -1.4 -1.4 -1.4 -1.4 3.1 1.7 -1.4 -1.4 -1.4 -1.4
65.7 64.5 64.2 64 64.6 65 67.9 71.3 72.5 73.4 78 78.3 79.5 78.3 80.9 81.3 76.8 71.4 83.5 92.1 99.7 104.7 109.8 117.4 124 131.2 137.5 142.8 148.1 153.7 157.2 160.9 163.7 164.4 166.6 168.3 167.9 168.8 167.7 169.6 166 164.5 163.3 160.6 159.2 155.8 153.5 150.2 146.4 137 142.4 141.4 140.9 141.5 141.6 139.9 136.5 133.5 134.5 136.5 136.7 141.4 142.7 139.2 136 140.6 137.8 136 138.7 139.8 138.1 141.1 142.4 142.5 144 141.6 144.4 147.9 150.7 154.6 154.8 156 157.6 160.3 161.4 162.1 162.5 161.6 161.2 161.3 163.3 167.2 167.7 166.9 168.1 168.8 172.6 173.7 175.5 171.7 170.5 169.9 165.6 166 171 173.5 176.4 181.1 177.8 178.7 177.3 176.2 184.5 192.7 188.6 192.6 195.7 204.9 204.6 204.9 210 209.8 212.6 216.2 227.5 229.6 224.6 216.9 204.4 196.6 184.1 180.1 176.6 168.6 160.1 161.1 153.5 148.7 145.4 143.2 136.4 132.8 129 129.6 124.9 126.5 127.6 123.8 120.5 114.6 112.1 112.5 113.1 113.1 111.6 113.5 105.8 102.5 102.2 96.9 97.5 97.3 98 100.3 103.5 101.8 94.8 90.6 86.8 79.4 72 75.5 71.9 71.3 70.1 64.7 62.6 62.6 57.8 55.6 52.9 48.7 45.6 43.3 40.1 36.7 33.3 28.7 20.5 13.1 2.2 -1.4 -1.4 -1.4 0.8 -1.4 -1.4 -1.4 -1.4 -1.4
68.7 68.9 69.1 71.4 75.1 78.6 81.3 82.1 81.4 85 86.6 84.7 85 86.1 88.5 87 84.8 83.9 85 98.4 106.4 110.8 115.5 122.6 129.8 137.4 144.9 149.9 154.9 159.1 162.9 166.8 170.1 173.9 174.7 180.1 176.3 179.1 174 172.5 168.7 166.6 165.5 163.6 160.6 157.6 157.7 153.8 146 150.5 149.8 151.5 152.8 151.7 153.8 150.1 144.2 140.7 142.7 146.9 147 146 146.6 144.9 144.5 149.2 147.9 146.2 145.5 147 148.6 148.7 152.6 150.7 152.1 151.6 155.6 157 158.6 160.8 164.5 164.9 167.1 167.6 168.2 170.2 171.9 171.8 171.2 171.7 171.8 178.5 178.8 177 180.1 180.4 184 185.1 185.1 185.7 182.9 178.2 178.7 178.9 179.8 180.5 183.2 188.9 186.9 186.4 185.5 185.7 189.4 195.7 194.1 194.8 198.7 209.9 211.1 215 216.5 215.3 218.1 223.1 235.3 236.2 233.7 223.9 211.6 207.1 197.3 188.8 183.8 171.1 165.5 161.6 158 152 146.9 141.6 135.5 134.5 133.9 132.2 133.6 137.2 130.8 127.3 125.5 119.4 121.6 123.2 123.9 125.1 130.8 130.8 125.2 114.7 115.9 107.3 106.6 111.2 109.5 116.8 118.2 110.9 104 101.5 96.9 95.2 87.8 86.8 88.7 88.9 80.8 80 76.9 75.4 70.5 65.8 62.8 59 55 52.9 50 47.2 42 35.9 27.1 15.4 5.9 -1.4 -1.4 -1.4 -1.4 -1.4 -1.4 -1.4 -1.4 -1.4
74 77.3 81 81.3 86.3 91.2 94.5 91.1 91.1 93.7 95.1 93.4 95.1 94.3 96.3 94 93.5 96.4 97 99.3 110.6 117.2 121.3 127.8 135.2 142.4 149.6 155.2 160.2 164.5 167.6 171.4 175 180 183.6 185.9 186 184.7 182 177.8 173.4 173.1 171.8 169.3 167.8 165.9 162.3 156.2 153.8 158.6 157.9 160.6 160.6 160.8 160.6 157.9 151.3 149.9 151.1 150.9 151 152.7 155 152.4 153.1 152.8 153.4 153.1 157.7 158.7 158.8 158 160 161.3 162.6 162.5 165.2 167.2 170 174.5 174.2 176.8 177.1 177 177.7 181.5 187.2 181.5 180.8 181.5 181.4 183.3 186.9 186.5 186.6 188.6 191.5 193.6 196 194 191.4 191.9 190.2 185.6 195 194.2 194.1 195.4 196.1 197.7 197.8 198.4 199.2 199.6 203.3 197.9 200.8 209.1 215.1 222.5 225.3 220.2 221.7 228.1 242.9 242.2 234.4 227.5 218.9 216.3 204.1 198.3 190.2 180.4 176.6 169.2 160.7 150.7 150.9 148 144.3 142.7 140.2 140.1 140.9 142 134.5 131.6 123.9 130.7 130.9 132.2 134 140.1 139.7 137.4 129.3 128.8 125.1 123.6 118.4 121.1 128 126.7 122.4 117.1 115.8 113.2 113.6 109.1 103 100.8 103.9 101.2 96.4 94.9 91.3 88.2 83.5 78.1 75.1 72 66.8 62.6 60.1 56.8 50.8 42.1 29.3 12.9 3 -1.4 -1.4 -1.4 -1.4 -1.4 -1.4 -1.4 -1.4 -1.4
85.4 88.7 92 92.6 95.3 99 99.6 99.4 98.8 103.1 104.9 102.9 103.8 103.2 106 97.5 107.5 108.3 109.6 114.5 115.7 121.9 126.9 132 138.7 146.1 153.2 159.2 165.2 169.9 172.9 176.3 181.2 183.6 187.1 188.3 188.2 187.4 185.5 180.9 180.4 178 175.3 172.6 171 170.9 169.7 167.6 161.3 165.9 169.5 169.7 169.3 171.6 165 163.9 158.6 159.9 159.6 157.4 159 159.6 160.6 160.8 158 158 157.2 160.5 164.3 164.9 166.2 167.8 171.1 173.4 175.1 175.9 180.9 183.4 182.3 187.5 185.7 187.6 185.7 188 190.8 190.2 194.1 193.5 193.9 195.4 193.6 193.9 194.2 196.9 196.4 199.1 202.2 199.8 206.1 204.8 199.5 201.2 201 196.8 201.7 204.6 204.6 207 209.5 212 212.7 209.3 214.6 216.6 214.7 207.8 207.9 208.4 217.3 227.9 232.3 224.5 224.7 232.5 247.5 245 233.8 227.2 224 220.6 209.9 203.5 191.7 181.8 179.4 169.7 156.7 161.6 160.5 153.8 150.9 149.5 147.6 150.3 148.5 145.5 137.6 135.4 133.1 138.1 139.9 139.7 143.6 146.6 142.9 139.4 137.4 139 139 135.8 127.8 130.9 131.2 130.4 124 121 122.3 124.4 126.6 125 115.3 118.4 117.2 116.2 112.3 109.7 104.3 104.1 100 92.2 89.3 87.2 83 79.5 74.4 67.1 59.8 50.6 26.9 5.4 -1.4 -1.4 -1.4 -1.4 -1.4 -1.4 -1.4 -1.4 -1.4 -1.4
92 96.9 101.3 102.4 104.3 106.9 108 110.5 110 112.8 115.3 115.7 117.5 117.9 116.9 113.9 118.3 118.6 118.7 121.4 124.2 125.7 131.7 136.4 142.2 149.6 156.7 163.6 170.4 174.9 179.3 182.4 185.4 188.7 190.1 190 191.3 189.4 187.1 187.7 184.3 180.1 181.1 179.7 178.3 177.2 173.4 172.3 172.7 174.4 177.2 178.2 176.9 174.1 173.8 170.2 165.4 164.3 169.4 165.7 165.4 164.4 166.5 168.4 166.3 167.6 165.5 167.3 170.3 174.8 178.9 178.3 181.5 183 185.7 187.2 190.6 192.4 195 196.8 198.2 196.6 197.9 199.1 201.3 202.1 204.5 206 206.9 207.2 207.8 206.4 210 210.1 209.4 212.5 215.4 215.3 215.1 215 213.5 208.7 208.9 205.3 205.6 210.8 215.4 219.8 221.8 227 224 220.4 219.9 220.5 223.5 219.5 218.6 211.8 219.1 230.2 234.6 227 225 237.1 248.1 242.6 232.1 227 225.9 229.1 215.2 206.3 194.6 188.3 183.4 169.8 168.2 165.6 164.2 156.9 154.8 156.4 158 156 150.4 146.1 141.5 137.3 145.9 145.2 148.9 153 153.2 151.8 147.1 145.6 145.9 148.7 146 144.1 140.6 141.9 137.3 135.5 131.1 131.4 133.8 136.1 134.2 131.4 132.3 134.5 134.5 130.4 125.5 121.1 122.4 118.8 112.9 105.1 108.5 109.8 104.5 97 88.5 76.6 70 49.4 18.6 -1.4 -1.4 -1.4 -1.4 -1.4 -1.4 -1.4 -1.4 -1.4 -1.4 -1.4
102.6 104.9 106.9 110.1 111.8 115.3 117 120.2 121.7 124.9 126.2 126.3 128.1 129 126.1 123.5 127.3 128 126.6 127.5 131.9 131.4 133.2 141 147.5 152.4 160 167.4 175.1 182.6 186 190.9 197.3 196.8 193.4 192.8 193.1 193.7 193.1 191.5 189.4 192.7 188.5 186.2 184.4 179.5 179.9 176.1 174.5 180 183.9 187.4 183.6 177.8 176.8 174.8 171.5 173.3 175.9 172.4 175.6 174.1 174.7 175.9 176 175.3 175.9 178.1 178.2 184.3 186.7 189.6 191.3 193.9 194.4 198.6 202.6 204 206 207.1 208.7 209 210.8 211.8 211.5 213.4 213.8 214.8 214.6 216 219.1 220.3 221.6 221.6 220.4 224.1 229.5 229.2 224.7 224.2 224.1 223 220.4 217.5 217.9 220.2 224 229.4 232.8 239.2 237.1 233.3 228 225.2 229 228.1 221.7 220.9 223.2 232.7 235.9 230.5 228 238.9 244.5 239.2 232.6 226.4 224.4 224.5 217.7 204.9 192.6 184.7 177.6 172.2 169.5 164.5 165.7 158.2 159 166.7 163.3 156.7 149.5 150.6 144.6 143.3 147.5 154.5 157.3 161.1 156.5 151.6 151 150.1 152.4 153 152.2 147.6 146.6 145.4 143.8 140.6 141.6 143.3 147.1 149.1 143.4 145.2 144.9 146.4 147 145.3 142.9 136.6 139.4 137.1 132.4 127.6 136.5 138.1 121.4 109.7 94 79.5 59 31.5 7.2 -1.4 -1.4 -1.4 -1.4 -1.4 -1.4 -1.4 -1.4 -1.4 -1.4 -1.4
111 113.6 117.8 119.4 122.2 126.2 128.2 133.2 135.5 136.2 133.6 137.6 137 135.2 136 134.5 138.3 136.1 134.5 134.6 138.9 143.2 140.4 144.4 149.9 155.6 161.9 170.8 179 187 191.4 196.9 200.6 198.2 195.9 197.8 200.1 200.4 199.8 197.7 197.4 195.8 195.5 192.7 189.8 182.9 185.7 182.8 180.2 182.4 182.5 185.8 184.5 183.2 184.9 182.6 182.5 181.9 182.7 184.5 186.1 186.6 185.8 186.8 186.1 185.3 184.9 187.7 189.8 191.3 196.6 198.6 201.1 205.2 204.8 207.8 211.6 216.2 217.5 218 219.9 220.1 222.2 222.8 222.5 224.7 227.4 224.4 227.1 228.9 229.5 230.2 229.4 233 234.2 235.6 236.3 234.8 235.7 236.3 233.4 232.9 229.3 227.9 228.4 226.5 234.6 236 244.6 246.6 245.5 241.3 233 231.2 235.5 233.3 225.4 223.4 224.9 233.6 237.8 232 227 237 240.3 235.8 233.3 225.8 221.7 218.4 208.9 198.3 182.1 177 175.2 173.2 167.1 163.2 159.5 161.8 160.7 160.4 160.2 159.2 154.5 147.4 145.4 150.8 156.9 154.3 156.1 157.6 160.5 163.6 160.4 159.4 160.6 159.8 157.3 154.5 154.7 155.5 153.5 154.6 154.6 156.2 156.4 158.9 158.6 159.2 160.9 164.6 166.3 162.8 156.6 155.4 158.2 157.1 153.2 153.9 153.2 144.1 135.4 113 91.3 70.8 42.8 19 -1.4 -1.4 -1.4 -1.4 -1.4 -1.4 -1.4 -1.4 -1.4 -1.4 -1.4 -1.4
120.9 126.1 128.7 131.7 134.3 139.2 142.8 147 147 144.2 145.8 147.7 146 144.5 147 146.3 147.6 145.6 141.4 140.9 145.5 153.8 150.1 147 153 160 166.8 174.8 183 191.2 194.7 200.3 201.5 200.1 200.5 203.2 206.7 205.7 207.4 205.8 203.9 202.4 200.9 199.3 197.7 193.4 189.9 187.9 187.2 188.7 189.4 190.2 189.3 189.4 190.4 190.5 188 191.4 194.8 195.5 195.9 196.4 198.8 196.2 197 197.1 199.6 199.4 202.1 204.8 205.5 208.2 210 215.4 217 219.4 219.6 223.6 225.5 227.6 232.1 233.3 233.9 235.7 234.1 234.3 236.9 236.4 239.6 243.5 241.7 240.5 241 244.8 248.3 248 245.8 245.4 245 245.4 247.8 245.4 242.1 240.2 237 231.7 241.9 247 251.5 256.2 252.9 250.4 243.3 239.5 239.6 237.1 232.9 227.8 228.9 233.7 239.4 234.5 231.4 234.9 239.6 239.3 232.2 228.5 217.4 211 202.3 190.7 190.9 184.6 181.8 173.1 167.3 164.9 165 167.9 164.1 161.7 159.7 159.9 151.2 157.1 158.1 161.4 164.7 168.6 163.7 166.3 164.7 167.1 165.7 169.2 169.7 166.7 162.9 163.9 165.7 162 161.1 162.1 164.8 169.1 172.3 172.5 176 177 180.1 181.5 180.3 177.9 170.9 171.5 173.7 175.7 172.1 167.9 162.8 149.1 132 102.1 75.5 50.2 31.1 9.9 -1.4 -1.4 -1.4 -1.4 -1.4 -1.4 -1.4 -1.4 -1.4 -1.4 -1.4 -1.4
133.9 138.1 138.9 143.9 147.8 152 155.7 156.7 155.7 157.7 157 157 155.1 157.7 158.1 157 158.2 156.7 150.9 150.2 154.2 160.1 157.8 157.8 153.9 163.3 172.2 181 185.3 194.8 197.5 204.9 207 208.5 212 210.3 215.8 214.2 213.2 213.2 211.8 211.1 208 204.5 201.4 199.9 196.6 194.7 195.5 196.7 196.6 197 196.7 198.3 199.6 200 198.9 201.9 203.1 204.9 207.1 208 207.9 206.6 206.8 209.2 209.7 210.2 213.2 217.9 221.7 221.4 223.3 224.5 225.7 229.3 233 231.5 238.2 240.7 242.5 246 244.2 246.7 245.5 248.2 249.3 248.9 251.6 256.9 257 255.4 255.1 256.3 258 257.9 256.9 256.3 255.9 257 255 254.4 252.2 255.1 250.9 243.1 244.4 254.9 257.1 262.1 262.5 263.5 252 248.2 242.5 240.3 238.4 234 234.7 236.1 237.8 237 232.1 233.9 244.4 243.5 237.7 229.4 214.8 203.9 197.9 195.2 196.3 194.5 190.4 175 171.3 171.6 171.2 168.3 166 161.8 162.2 157.9 161.2 167.4 168.7 171.5 175.2 174.4 173.1 174.5 172.3 175.9 174.5 175.3 172.2 171.1 171.7 176.5 175.5 173.1 169.1 172.9 177.8 184.4 186.4 189.4 192.2 194.9 204.1 205.1 196.8 188.3 187.9 190.4 197.5 196.9 191.2 181.1 155.5 123.2 107.6 77.3 58.2 45.4 22.3 7.1 -1.4 -1.4 -1.4 -1.4 -1.4 -1.4 -1.4 -1.4 -1.4 -1.4 -1.4 -1.4
148 149.3 154 159.6 160.6 165.5 169.7 168.8 168.9 170.7 167.8 169.3 167 168.1 165.1 168.4 166.1 166.4 162.8 161.4 162.1 169 167.6 170.6 156.4 166.7 176.6 185.3 190.4 198.2 205.9 211.4 216 218.5 217.5 217.8 221.6 221.9 221.8 223.9 219.8 216.5 212.9 210.4 206.3 206.1 204.8 202.8 205.1 205 205.1 203.8 205.4 206.8 206.7 208.5 209.1 209.9 211.5 214.1 215.6 217.2 218.3 218 216.8 217.4 218.4 218.9 224.6 229.3 231.8 235.5 232.1 233.8 238.5 238.7 239.5 242 246.4 249.4 255.5 259.3 257 258.5 256.8 260.2 262.1 266.1 265.4 266.4 268.7 269.6 267.6 268.3 272.9 274.1 268.9 269.4 268.6 265.5 263 262.8 260.8 264.1 266.1 263.9 256.1 260.2 266.4 272.4 273.4 270.1 264.6 254.8 253 244.1 242.2 239.9 240.1 239.4 237.5 236.9 234.7 238 248.6 244.5 236 226.7 210.5 210.4 211.7 208.4 204.4 197.1 189.3 179.8 176.2 170.7 170 168.6 167.2 162.3 159.9 162.9 165.9 172 175.3 177.7 179.9 182.8 184.2 183.1 184.5 182.6 180 180.1 178.8 180.1 182.8 187.3 186.9 182.3 177.6 184.8 192.4 199.7 208.1 214.4 213.5 217.5 224.2 221 210.4 204.4 208.6 216.4 216.5 213.1 207.2 196.6 166 142 107.9 80 58.4 36.2 14.8 5.8 -1.4 -1.4 -1.4 -1.4 -1.4 -1.4 -1.4 -1.4 -1.4 -1.4 -1.4 -1.4
159.3 163.1 167.8 171.8 171.8 176.6 180.4 180.7 179.4 179.5 179.8 181.3 178.5 178.8 174.4 175.9 176.2 175.1 170.3 173.7 174 176.8 177.2 177 175.2 172 181 190.5 197 203.4 214.5 221.1 223.1 226.6 224.8 225.9 229.1 231.6 230.8 229.6 225.4 221.8 218.3 217.1 214.4 214.9 213.6 213.6 213.8 212.4 210.2 211 212.1 216.3 215.9 216.3 218.6 217.8 220.3 224.2 226.8 227.4 227.3 232.3 229.4 230.3 231.8 232 234.3 237 240 242.1 242.1 245.3 248.1 249 249.5 254 258.1 260.4 264.3 269.7 268.3 271.5 269.3 271.8 271.9 275.2 279.1 279 279.2 280.2 280.2 282.1 284.1 284.7 281 279.5 277.6 276.9 275.5 273.4 273.2 271.8 275.7 277.2 267.2 266.3 274.7 279.9 278 273.7 275.9 263.2 257.4 250.2 249.8 251 243.8 240.4 237.5 236.1 235.6 239.4 247.2 242.2 231.6 220.9 212.1 217.6 218.5 218 212.3 199.4 190.6 186.2 181.7 181.8 175.6 171.1 167.8 167.7 166.3 170.3 176.6 178.6 182.6 185.3 186.8 191.5 191.5 190.6 189.7 188.3 189.2 189.9 185.4 188.4 194.4 197.8 195.1 191.7 190.4 195.3 205.5 212.9 224.3 232.2 235.3 243.7 237.9 231.5 221.2 221.7 227.8 226.9 229.4 225.1 210 191 167.3 135.9 102.3 86.3 69.9 41.1 21.7 8.5 1.7 -1.4 -1.4 -1.4 -1.4 -1.4 -1.4 -1.4 -1.4 -1.4 -1.4 -1.4
175.4 180.3 182.1 183 182.8 186.2 190.4 193.6 193.4 193.2 193.8 191.9 189.3 188 185 185.5 182.1 181.9 178.2 181.5 185.7 186.6 184.1 184.2 184.3 174.5 187.8 196 205.5 212.4 218.8 226.5 230.6 232.1 232.4 235.6 238.2 238.5 239 234.8 230 227.5 226.4 226.3 224.1 225.1 224.1 224.9 225 221.5 218.3 218.7 222.7 223.9 224.1 224.7 228 225.4 228 232.4 235.4 235.9 238.4 240.4 243.5 244.5 244.9 245.7 245.6 248.5 250.4 252.5 253.2 255.2 258.7 260.8 259.4 263.9 267.9 272.5 274.6 279.4 281.8 281.5 283.3 284.1 283.9 283.9 283.3 288.8 290 292.1 295.1 293.2 295.9 294.2 289.9 289.7 290.2 291.7 286.8 285.5 282.1 286 288.4 287.4 280.7 277.7 281.1 283.1 284.1 280.8 279.6 271.1 267.5 255.9 254.9 256.8 248.9 242.7 240.3 241.9 240 243.4 242.6 237.6 228.5 216.8 217.6 220.9 227.3 224.1 211.5 199.6 198.2 192.6 187.6 185.7 180.4 175 171 172 175.5 178.5 182 186 192.5 194.5 197.3 197.2 199.9 198.4 198.6 198.4 197.6 196.2 198.1 199.2 202 205.2 206.3 205.3 204.7 208.1 216.6 227.6 236.5 247.7 252.4 258.1 247.4 240.4 232.2 234.6 235 237 234.6 226.4 205.7 175.1 140.4 116.3 103.8 86.9 59.4 45.1 26.6 15.6 7.1 1.6 -1.4 -1.4 -1.4 -1.4 -1.4 -1.4 -1.4 -1.4 -1.4 -1.4
187.7 190.4 192.3 191.8 193.9 195.9 203.1 206.4 206 207.3 205.7 203.3 200.5 194.8 190.8 194.4 190.8 190.4 187.8 189 193 193.1 191.8 191.9 191.8 180.2 193.5 203 212.1 219.5 226 232.9 238.7 237.7 240.1 241.9 243.2 243.1 242.1 241.7 236.6 237.6 236.4 234.8 235.2 237.8 237.6 236.5 232.5 230.7 223.5 227.3 230.4 234.1 233.3 233.4 236.3 236.6 238.7 241 247.1 250.1 252.7 253.6 254.9 256.1 254.4 254.9 256.9 260.3 264.8 265 265.1 270.3 270.4 273.6 274.6 280.8 285 291.9 289.5 291.3 293.6 295.9 294.9 294.8 296.7 295.8 296.5 299.9 303.6 305.9 309.8 309.6 308.4 308 303.7 302.8 301.7 299.6 296.2 300.7 293.2 297.3 297.4 299.5 296.4 286.4 288.6 288.6 285.5 284.9 284 278.3 272.4 262.4 261.1 259.3 253 245.3 243.5 247.2 254.6 256.4 251.7 241.1 226.5 219.1 225.3 227.5 227 220.4 213.3 201.2 195 196.8 194.1 193.3 186.6 182.1 174.4 180.3 186.9 189.2 193.8 198.8 205.5 207.9 209.2 210.1 207.9 208.9 209.1 209 210 207.3 210.8 215.4 217.8 221.2 221.8 222.4 220.6 219.8 226.1 237.5 244.5 252.1 263.9 262.1 254.3 243.1 243.7 244.1 242.1 239.7 233.4 216.5 183.8 154.9 136.9 113.1 100.6 73.6 51.5 42.3 33.4 24.8 12.1 5.4 1.9 -1.4 -1.4 -1.4 -1.4 -1.4 -1.4 -1.4 -1.4 -1.4
199.1 203.9 206.5 204.5 207 209 214.7 216.6 219.2 216.6 215.1 215.1 208.9 206 200.3 201.2 200.8 202.6 199.9 197.5 198.5 198.9 199.3 200 200.4 185.5 199.3 208.5 216 227.2 234.2 240.2 245.5 244.2 246.9 249.8 249.2 252.1 247.9 244.3 245.7 244.7 245.9 244.5 243.6 246.4 249.8 247 240.5 237.6 233 234.9 239.2 241 244.4 244 246.4 247.5 249.1 254.4 258.2 258 263 265.5 266.4 268 267 266.9 268 271.7 272 271.5 273.5 279.6 286.6 286.6 285.4 288.1 295.2 300 301.3 304.5 304.7 304.7 305.3 307.3 308.8 305.6 307.8 314.8 320.8 325.5 326.6 322.7 321.1 320.1 315.7 317.3 314.9 311.2 310.5 307.7 300.8 303.6 306.4 306.1 310.9 302.4 303.2 296.9 296.9 293.6 289.7 281.9 278.4 270.1 267.6 266.6 258.5 255.7 256.9 260.5 261.6 261.4 255.9 245.5 234 229.4 229.6 224.8 222.1 219.3 209.6 199.3 205.1 204.9 201 197.1 188.7 182.6 187.4 192 199.7 202.8 202.4 211.1 216 219.1 220 219.5 221.6 223.3 224 218.8 226.6 223.6 228.3 235.3 239.5 238 240.3 243.3 238.1 236.7 247 256.4 262.6 260 271.6 263.3 256.8 256.4 256.2 252.4 246.2 235.2 224.1 198.1 175.3 143.6 127.9 105.5 80.7 58.5 48.6 44.6 42.4 29.5 20.3 9.2 4.8 -1.4 -1.4 -1.4 -1.4 -1.4 -1.4 -1.4 -1.4 -1.4
209.8 214.2 216.5 218.1 218.8 219.4 222.5 229 228.4 229.1 230.7 226.5 221.4 213.7 213.5 212.6 214.4 211.5 205.8 204.6 204.1 206.5 208 211.8 210 201.3 211.1 216.1 222.7 230.6 240 247.7 250.4 250.7 254.8 256.2 255.7 253.7 253.4 254.5 254.7 255.9 256.1 251.9 252.4 255.7 262.5 253.1 250 248.1 242.9 246.3 251.7 254.8 254.7 255.5 255.5 254.5 260.1 263.6 266.3 269.2 271.8 275.1 276.6 278.4 280.1 279.6 280.5 282.7 279.6 281.7 285 289.1 296 296.7 299.4 298.3 304.8 313.6 314.4 314 314.2 313.9 317.3 318.1 317.8 316.1 320.7 327.7 328.4 333.2 331.6 334.8 340.1 337.8 329.6 326 326.3 325 323.6 322.8 312.7 312.1 316.3 319.3 320.7 314.7 314.6 312.7 310 307.2 303.6 297.4 285 274.5 276.3 271 262.6 265.4 260.5 266.2 267.2 267.8 263.2 254 244.7 238 232.4 224.4 222.2 215.7 207 208.3 209.7 208.6 204.4 201.6 192.6 191.1 197.2 199.9 211.5 217.4 217.9 223.6 227.6 231.7 233.4 235 238.4 239.7 242 239.4 242.8 243.7 247.9 258.8 264.4 265.1 267.9 267.2 264.9 266.8 269 279.1 278.3 271.7 272.4 266 264.2 270.5 264.3 253.6 242.9 226.2 203.3 180.2 159.6 128 109.4 93.8 71.6 53.6 50.5 49.3 39.1 36.8 24.2 12.3 3.9 -1.4 -1.4 -1.4 -1.4 -1.4 -1.4 -1.4 -1.4 -1.4
217.4 223.4 226.8 229.7 230.4 232.5 236.1 242.9 244.7 244.3 246.1 236.2 227.1 225.3 228 227.7 225.1 220 215 218.6 218.4 220.4 222.6 223 220.4 215.1 215.5 224.7 228.1 238 245.4 252.6 256.3 257.6 259.4 260.5 261.3 259.8 259.6 262.3 264.7 265.1 262.7 259.5 262.5 264.8 267.7 261.5 259.9 258.6 253.9 257 260.2 263.8 264.8 265.9 266.3 266.1 267.6 271.7 273.1 278.5 281.7 284.8 286.1 286.8 289 288.2 291.9 293.7 296.4 299.1 303.3 306.6 308.7 309.5 305.5 312.9 316.1 317.7 322.6 323.9 325.9 327.8 327.5 329.1 328.6 328.5 333.6 331.2 335.5 338.6 340 343.3 350.8 349.2 344.8 337.4 336.3 337.4 336.7 332.4 328.3 327.7 330 329.8 329.5 324.1 321.9 324.8 318.7 317.2 311.5 303.5 294.5 284.6 279 272.6 267.1 273.1 268.7 273.7 275.4 276.7 271.6 264.6 253.4 241.1 234 230.1 226.5 220.2 215.9 216.3 216.7 217.2 210.9 205.1 200.5 198.7 208 213.4 218.8 225 230.3 234.3 239.1 243.1 246 248.1 253.3 261.2 258.1 255.2 252.5 256.2 265.3 275.2 276.4 281.8 284.7 283.4 282.4 283.6 293 294.8 287.6 275.5 273.3 274.6 277.3 277.2 265.2 247.7 233.3 204.8 179.4 160.9 135.4 113.7 98.1 83.1 65.1 52.3 49.8 46.3 39 33 31 24.1 1.8 -1.4 -1.4 -1.4 -1.4 -1.4 -1.4 -1.4 -1.4 -1.4
228.1 232.8 236.8 239.1 239.3 243.2 248 252.7 257.9 259.8 253.9 243.3 237.9 239.8 240.4 240 233 230.8 226.7 229.5 234 234.2 233.3 232.4 230.7 231.1 229.3 238.9 241.5 247.8 252.1 256.4 259.9 266.7 267.4 267.2 266.8 268.8 270.3 272 275.2 276.4 268.9 269.9 271.6 274.1 276.1 270.8 269.4 265.7 265.3 263.6 271.9 273.9 274.6 277.7 281.9 278.3 280.2 283 286.9 290.2 292.5 294.8 295.1 295.6 296.8 299 301.5 306.3 312.8 313.8 320.8 320.7 319 322.9 328.1 323 326.2 326.2 328.4 332 333.4 340.7 343.2 341.4 346 343.9 346.3 341.6 345.1 345.7 349.8 352.3 356.2 359.7 359.1 351.3 354.3 354.2 353.1 351 342.3 338.6 342 341.6 340.9 338.3 331.1 332.3 329 322 314.3 307.1 300.3 283.9 275.6 270.6 270.2 276 275.3 281.4 280.7 280.6 277.7 269.9 260.4 250.9 241.6 235.8 232 221.6 229.9 225.9 227.2 222.8 214.3 214.4 214.5 214.9 216.3 224.9 228.8 234.3 240.2 246.5 252.8 256.8 261.6 265.5 271.4 277.9 280.7 274.4 271.6 272.1 279.9 283.3 288.8 295.2 298.7 294.8 294.8 298.7 303.4 299.1 287.5 283 288.7 288.8 286.6 271.5 258.6 239.9 212.9 178.2 159.4 137.3 119.3 106.6 92.7 80.5 53.9 47.9 44.2 37 35.4 34.5 27.7 8 -1.4 -1.4 -1.4 -1.4 -1.4 -1.4 -1.4 -1.4 -1.4 -1.4
236.8 243.9 249.7 247.2 252 254 259 262.5 267.8 265.6 265.8 255.1 252.1 251.3 250.2 248 239.6 243 237.5 243.1 249.2 253 252.5 244.9 244.6 242.8 244.9 251.4 251.4 253.3 258.1 261.4 265 271 274.3 273.8 275.4 277 280.7 284.8 283.4 280.7 278.7 277.7 279.7 283.5 282.7 282.1 279.1 273.5 278.1 274.4 281.9 285 283.1 293.2 293.9 289.9 291 294.2 298.6 301.7 305.6 305.9 308 310.2 312.7 312.4 315.5 319.6 324.3 327.1 332.4 335.2 337.1 338.8 338.3 337.7 338.5 341.1 339.7 343.7 347.7 348.9 351 353.7 352.6 352.2 352.8 352.7 351.8 359.2 364.2 364.7 371.8 369.4 365.8 369.6 363.5 365.1 363.7 363.5 362 353 353.4 349.9 346.2 349.1 341 338.9 336.3 327.6 317.8 311.6 299.8 293.2 283.9 276 276.8 281.2 281.1 286.7 283 284.7 278.7 267.3 263.7 252.7 247 238.6 233 230.5 236.1 237.9 235.2 227.2 227.4 220 229.2 230.7 230.3 232.8 238.7 244.4 249.6 256.1 264 272 279.3 281.6 292.7 296.2 293.5 286.8 289.2 291.7 290.7 292.6 295.4 303.3 307.8 310 306.2 302.3 303.4 296.4 291.4 290.1 294.8 289.5 276.4 262.2 240 208.1 181.1 158.7 142.9 127 108.8 92.5 85.8 64.6 46.3 43.4 35.3 32.6 34.7 28.9 7.1 -1.4 -1.4 -1.4 -1.4 -1.4 -1.4 -1.4 -1.4 -1.4 -1.4 -1.4
248.1 255.1 259.7 258.2 261.1 265.5 268.9 271.1 274.7 273.5 270.2 264.6 263.3 263.2 261.2 254.6 255 255.1 248.3 253 259.3 265.1 261.1 257.5 257.4 251.8 254.9 259.1 261.7 262.3 267.3 272 274.2 278.6 282.8 283.3 286.5 289.8 292.1 294.2 291.6 291.4 287.1 287.1 289.1 293 294.4 292.7 290.2 283.8 285.5 284.2 291.2 297.2 298.2 301.9 300.4 301.3 303.3 306.1 308.4 313.8 319 320.3 320.5 324.8 326.3 325.7 326.7 329.8 332.5 337.7 345.4 347.7 347 347.6 348 347.2 348 351.7 353.4 356.1 360.1 363 362.4 363.2 362.8 361.3 368.1 364.5 371.5 370.2 375.2 377.3 375.7 378.9 373.6 379.7 379.6 378.2 377.6 376.9 375.7 370.7 366.5 361.8 354.8 349.8 346.3 344.3 337.3 330.7 320.5 309.7 306.4 296.8 289.9 288.4 283.1 287.1 285.3 289.6 286.7 281.7 274.4 263.7 258 254.8 246.9 243.6 241.3 240.3 241.3 241.7 239.4 233 234.7 231.2 239.7 241.8 239.8 244.7 246.8 252.1 258.7 268.9 273.6 283.7 293.6 296.9 302.6 303.4 302.2 304.1 308.4 310.2 306.9 306 301.9 305.8 310.1 314.4 313.2 304.9 309.9 302.9 293.1 294.5 290.3 278.1 261 244.9 220.8 190 162.2 142.9 128.6 116.4 101.7 78.7 65.9 47.6 37.7 31.1 29.2 32.5 24.4 5.9 -1.4 -1.4 -1.4 -1.4 -1.4 -1.4 -1.4 -1.4 -1.4 -1.4 -1.4 -1.4
259.1 265.3 269.5 270.6 273.4 277 280.3 283 285.5 279.8 278.9 277.1 275.7 272.6 266.5 264.4 265.1 262.7 258.5 261.5 270 274.5 279.9 269.3 265.2 258.9 261 269.5 270.9 272.2 276.8 281.5 282.5 287.2 289.2 292 299 298.4 298.1 302.3 302.8 299.1 293.3 296.4 300.9 302.6 304.6 300.5 295.8 292.9 295.6 293.3 299.7 304.6 307 307.8 313.1 314.7 316.2 319.8 323.7 330.5 329.9 329 333.3 339.5 341.7 342.3 342.9 344 349.7 351.2 354.8 356.4 361.3 359.2 358.8 359.7 363.8 365 365.6 371 372.9 375.2 375.5 379 374.8 373.8 374.9 375.9 381.3 379.3 380.3 385.2 388.2 386.6 391.4 390.1 395.4 393.9 391.7 389.7 387.3 383.7 380.4 371.1 366.6 358.6 348.4 347.5 343.5 340.6 329.6 319 312.8 298.9 295.4 301.3 291.7 291.2 287.8 291.5 289 276.3 264 257.9 256.6 253 250.5 250.6 246 248 249.2 252 245.1 241.4 249.5 249.1 253 250.7 251.7 256 258.6 264 267.6 276.8 283.4 291.9 298.7 303 307.8 309.4 315 325.9 330 320.1 321.7 316 315.4 316.2 316.2 315.3 311.5 305.5 304.5 296.6 296.4 289.7 273.6 258.4 244.1 213.2 186.2 168.1 149.2 130.1 117.6 102 76.2 67.3 52.4 34.6 27.7 25.5 26.3 21.9 4.8 0.7 -1.4 -1.4 -1.4 -1.4 -1.4 -1.4 -1.4 -1.4 -1.4 -1.4 -1.4 -1.4
268.9 275.5 279.4 281.2 281.6 286.1 289.5 291.4 291.4 289.8 287.4 287 282.6 280.5 273.9 272.3 274.6 269.3 267.2 270.5 279.8 281.2 282 277.1 273.8 269.2 272.5 278.1 278.3 281.7 285.7 288.1 293.1 296.7 299.9 299.7 304.6 305.9 310.9 314.1 314.1 307.5 300.7 307.1 312.2 311.7 311.4 309.1 305.1 302.8 305.8 305.8 310.2 313.5 318 318.8 322.4 324 326.4 330.6 334.6 339.2 342.8 345.8 346.9 350.2 352.6 355.1 356.8 358.8 361.6 361.1 362.5 367.2 374.3 373.7 376.4 375.6 377.5 378.9 381.3 384.4 388.9 390.6 389.7 387.6 388.6 385.3 385.9 391.2 393.3 392.6 396.3 399.3 399 399.7 397.3 402.5 404 405.6 407.2 399.7 399.5 395.4 394.2 381.4 374.4 367.7 355.3 351.9 349.5 345.2 341.9 324.5 315.9 301.3 301.2 298.3 296.5 291.8 290.9 293.7 286.3 264.5 259.7 259.8 259.9 256 256.4 255.5 255.7 251.8 255.1 259.3 252.8 258.4 257.3 261.8 260.9 266.4 267.7 270.6 272.7 277.5 278.6 287.6 292.7 299.7 309.5 313.9 316.4 321.5 330.6 333.8 334.9 328.5 330.6 332.9 333.6 337.7 327.3 317.9 310.7 302.8 293.6 289.7 294.7 275.9 253.7 235.4 207 185.4 167.9 155.1 135.7 117.9 103.4 82.1 61.5 52.8 35.7 25.3 24 19.5 16.9 5.1 1.9 -1.4 -1.4 -1.4 -1.4 -1.4 -1.4 -1.4 -1.4 -1.4 -1.4 -1.4 -1.4 -1.4
274.7 284.2 290 291.5 293.1 295.4 296.9 298.7 300.1 300.7 296.9 298.1 293.1 287.9 286 280.1 280.2 280.8 279 280.1 283.1 291.2 289.7 283.9 275.3 279.5 283 284.4 288.4 292.8 293.8 297.7 302.9 308.2 307.8 310.7 313.2 316 319.4 323.7 323.2 314.5 311 316.3 323.8 322.3 322.8 319.3 317.2 313.4 316.5 315.5 319.4 323.4 328.3 329.8 334.7 339.6 340.9 341.5 347.6 350.6 356.8 360.7 359.4 362.6 367.3 369.5 372.4 374.6 375.7 374.5 374.7 380 385.3 387.2 392.7 389.4 392.5 397.5 398.2 395.7 393.4 395 397.7 398.9 400.2 403.8 405.2 402.9 406.1 409.5 412.9 411.9 408.8 411.4 410.6 410.1 413.9 414.9 417.1 415.1 410.2 409.1 401.2 389.3 380.8 370.1 361 356.2 352.1 352.3 346.9 326.4 315.5 307.2 305.7 302.3 300.6 296.5 294.3 285.4 274.9 267.3 264.1 263.6 261.9 261.3 263.1 259.8 260.5 262.2 263.5 264.3 264.5 269.5 266.4 273.4 275.9 278.4 284.5 286.7 294.9 297.3 295.5 298.6 304.2 308.3 319.8 323.7 326.3 334.4 339.8 340.7 337.5 335.8 344.7 340.6 339.6 339.3 330.6 314.7 304 295.4 284.7 285.9 275.9 255.2 235.6 209.1 181.8 165.1 153.4 139.7 127.6 107.5 84 60.2 46.1 33.2 26.6 21 17.7 15 6 4.3 1.2 -1.4 -1.4 -1.4 -1.4 -1.4 -1.4 -1.4 -1.4 -1.4 -1.4 -1.4 -1.4 -1.4
279.2 289.9 297.3 299.1 301.1 304.8 307.8 310.4 306.9 305.8 305.2 308.5 305 298.1 293.1 291.4 289.7 290.9 291.8 288.6 293.9 297.9 296.5 289.5 288.7 290.7 294.4 296.6 300.8 302.9 304.8 308.3 312.7 315.4 316.8 319.8 324 328.2 328.9 332.8 330.8 326.2 321.9 324.9 330.5 331 331.7 328.7 325.6 324.6 326.6 324.7 329.1 337.1 342.9 344.8 346 350.3 355.7 356.1 358.9 361.3 364.3 371.3 372.9 375.5 379.8 384 385.3 385.5 388.5 390.5 391.3 393 397.9 401.7 405.3 406.5 409.9 411.6 409.9 408.4 405.6 403.3 408.4 409.3 413.8 415.9 418.4 417.4 422.4 422.6 423.7 421.7 421.3 423 425.5 424.3 425.2 425.9 428.4 426.8 421.2 416.4 408 395.9 384.9 374 364 355.3 351.6 349.2 347.6 329.4 320 311.2 308.9 305.4 306.5 304.4 297.8 283.4 273.5 272.6 267.4 265.9 263.9 263.9 267.5 262.8 264.2 266.5 271 275 277.9 280.4 284.2 285.5 289.1 293.7 298.3 301.3 307.6 312 315.9 314 317.9 322.1 328 333.8 340.8 345.7 350.4 350 352.2 357.4 348.5 336.6 330.5 327.5 317.2 303.1 290.7 281.3 278 278 245.9 229.2 205.7 185.1 170.3 152.2 139.3 131.5 115.1 85.7 61.4 46.4 32.7 30.3 18.7 14.2 11.2 9.5 4.8 4.6 0.8 -1.4 -1.4 -1.4 -1.4 -1.4 -1.4 -1.4 -1.4 -1.4 -1.4 -1.4 -1.4 -1.4
285.8 295.4 303.3 307.3 311.7 317.4 318.9 317.4 312.9 313.5 314.5 316.8 314.6 307.1 305.6 300.6 302.8 303.5 300.4 296.9 302.7 304.7 301.9 297.8 300.4 304.5 306.2 306.8 312.5 314.3 315.6 317.1 321.9 324.8 327.6 331.2 335.5 338.4 340.6 342.9 339.6 336.3 333.4 335.4 340.5 341.8 339.1 338.4 334.6 337.8 340.4 336.5 344.5 346.6 350.7 352.2 357.4 360 366.4 370 371.2 376 380.4 385.8 386.4 388.1 392.1 395.8 401 405 404.1 402 405.7 408.1 411.9 413.5 416.1 417.8 423.6 423.4 423.1 423.3 419.1 420.6 425 427.2 426.4 427.2 429.1 434.2 437.2 437.6 434.3 436.1 436.2 436.7 438.6 441.1 438.5 436.9 440 438.2 431.7 424.7 416.5 400.6 388 376.6 363.3 355.8 349 341.4 342 329.9 319.3 315.7 312.9 314.5 314 313 296 273.6 272.5 271.3 267.3 268.8 267.2 269.6 267.9 268.9 275.1 279.2 280.4 283.9 287 292.2 293 296.2 304 310.1 313.1 317.5 318.7 324.8 330.1 328.4 332.2 341.1 345.5 351.4 354.7 358 361.7 366.7 373 369 356.7 333.2 330.9 315.8 305.9 287.3 281.4 276.3 260.9 244.6 224.3 202.9 188.6 175.3 159 142.4 125.6 110.4 92.8 63.2 45 33.8 22.4 18 12 10.1 8 7.4 6.1 2.8 -1.4 -1.4 -1.4 -1.4 -1.4 -1.4 -1.4 -1.4 -1.4 -1.4 -1.4 -1.4 -1.4 -1.4
286.8 299.6 308.3 316.4 322.6 328.7 331.6 324 322.6 320.8 321.9 324 319.6 318.1 314.2 314.9 316.3 314.8 306.4 308.2 310.5 311.2 308.5 307.2 311.1 313.1 315.5 317 320.5 322 321.7 329.5 331.9 336.4 341.6 343.9 345.6 346.1 352.2 351.2 352.3 347.8 346.9 349.1 351.5 353.5 350.7 350.7 346.5 348.8 350.6 350.4 352.3 355.8 363 363 368.7 374 377.2 380.1 381.8 388.1 394 396.4 401.2 403.7 409.9 413.6 415.5 416 417.1 417.2 419 423.1 423.5 428.2 427.6 432.8 435 434.8 433.8 435.1 434.8 438.9 441.5 443.3 443.8 442.7 446.4 449.5 450.1 454.1 450 454.6 455.8 452.2 453.9 452.2 448.4 448.2 448.5 449.6 439.9 429.6 422.5 404.3 390.8 377.3 364.5 358.9 350.5 341.5 333.1 327.7 318.2 313.5 312.7 317.3 312.1 302.3 281 268.2 266.4 269.1 267.4 267.3 266.6 268.9 272.9 278.4 283.4 290.9 295.5 297.6 298.2 303.6 302.3 306.3 315.1 324.4 323.5 332 328.9 336.5 341.8 348.5 360.7 363.5 373 377.4 380.9 387.9 386.3 384.8 380.8 369.7 354.4 335.8 324.2 313.4 299.4 276.7 273.6 266.4 240.4 211.4 196.8 181.7 173.6 163.3 152.7 132.8 112.1 84.6 64.5 47.6 31.2 23.7 14.5 9.8 9.1 7.5 6.2 6.6 5.7 1.2 -1.4 -1.4 -1.4 -1.4 -1.4 -1.4 -1.4 -1.4 -1.4 -1.4 -1.4 -1.4 -1.4 -1.4
288.8 303.8 315.4 324.6 330.6 335.2 337.5 333 330.7 332.1 333.1 332.2 329.2 326.7 324.4 327.6 328.9 322 318.8 317.3 318.2 317.3 311.5 315.7 320.9 322.8 326.5 327.9 327.6 334 332.4 338.3 342.8 343.7 347.7 351.1 355.8 357.2 360.9 360 362.3 359.8 360.8 361.2 363 365.5 362 362.5 362.1 363.9 360.9 360.1 360.9 368.1 372.9 377.8 381.7 384.6 387.1 390.4 396.6 402 407 411.8 415.4 418.6 422.6 425.9 428.8 432.3 433.3 436.4 434.9 433.9 436.2 436.8 438.6 444.2 448.8 454 455.1 454.8 455.5 455.7 459 464.3 462.6 466 466.9 466.6 468.2 467.1 467.4 465.5 466.5 461.2 460.8 458.8 456.4 453.7 452.5 452.7 443.5 434.1 424 406.4 384.6 370.7 361.6 357.8 346.9 338.5 330.1 318.3 309.2 304.7 307.3 315.5 306 281.6 269.3 267.5 265.1 266.9 267.4 266.4 265.8 273.2 280.2 283.8 289.8 299.7 306.7 305.8 306.8 309.2 307.6 314.6 322.8 327.7 332.8 337.2 342.6 355 366.2 371.7 379.7 382.4 386.6 396.2 408.3 410.6 407.6 395.5 383.6 367.2 343.9 333.6 323.2 310.7 287.8 267.8 256.6 241 213.5 188.4 173 163.9 154.1 150.2 131.4 111 90 64.9 43 33.8 23.2 12.1 9.1 8.4 8.7 7.8 6.3 5.8 3.3 -1.4 -1.4 -1.4 -1.4 -1.4 -1.4 -1.4 -1.4 -1.4 -1.4 -1.4 -1.4 -1.4 -1.4 -1.4
291.3 306.4 319.8 326.9 334.4 338.8 342.7 340.3 338.3 341.4 342.1 339.4 336.7 334.7 332.1 333.5 334.7 328.4 324.7 326 326.1 323.7 319.7 325.2 331.9 332 334.2 339.1 338.4 340.7 344.8 349.5 349.6 353.9 359 359.2 363.4 368.5 368 371.2 370.7 371.6 371.8 375.2 375.1 372 375.1 371.8 373 372.9 371.5 372.3 373.6 380 386.8 390.4 393.8 394 400 404.5 407.9 417.9 420.5 425.5 427.4 430.1 433.6 437 441 446.8 448.6 451.3 452.4 450.9 453 450.8 455.3 460.8 466.3 468.8 472.7 474.5 477.4 478.3 475.6 479.6 482.6 481.4 480.9 479.6 475.4 472.9 471.7 469.4 473.5 470.4 466.6 464.2 463.4 459.3 453.7 451.2 442.2 434.1 418 399 388.2 376 364.6 352.9 347.9 335.6 320.5 303.7 301 298 301.9 301.7 289 270.8 261.3 261.9 262.2 268 269.5 264.7 268.3 277.2 282.6 287.3 301.1 306.1 311.1 314.2 313.1 313.1 314 321.6 328.4 338.1 342.7 349.6 362.3 373.9 381.4 387.9 401.6 397.5 401 405.5 418.5 415.1 413.9 401.6 379.6 359.7 343.5 339.8 324.6 306.4 286.4 254.5 226.3 215.4 193.8 171.2 149.7 135.9 126.8 119.6 105.2 84.6 68.4 48.2 33.1 22.6 11.5 8.6 7 6.2 6.8 7.3 7.1 5.3 -1.4 -1.4 -1.4 -1.4 -1.4 -1.4 -1.4 -1.4 -1.4 -1.4 -1.4 -1.4 -1.4 -1.4 -1.4 -1.4
