ncols 200
nrows 82
xllcorner 300000
yllcorner 604800
cellsize 50
434.2 437.7 445 451.9 459 464.8 464.7 461.9 457.2 451.9 446.5 441.4 435.8 429.6 423.1 416.7 410.8 405.1 399.4 393.8 388.1 381.9 376.7 374.4 379.3 384 386.8 386.5 385 383.7 384.7 379.5 371.8 369.7 366.8 364.7 363.9 363.9 365.8 366.6 366.2 364.8 362.7 361.3 360.6 361.5 362.5 364.1 366.4 369.8 373.4 376.8 379.2 380.1 380.3 379.6 378.2 375.9 368.4 353.4 339.9 330.2 322.5 312.1 298.3 285.3 276.4 268.3 260.4 253.4 244.9 235.5 226.3 229.2 229.8 225.1 219.3 208.5 196.5 192.4 192.4 207.7 231.6 248.2 259.2 268.4 275.9 282.3 285.9 285.3 283.4 282.6 282.2 281.9 283.4 285.3 286.6 287.8 288.7 289.2 288.5 289.3 290.6 291.4 290.1 288.8 286.9 285.1 282.7 280.4 279 278 276.6 275.1 274.2 272.4 270.6 269.2 268.2 267 263.4 263.6 264.1 263.2 262.2 260.9 259.3 258.7 257.4 255.6 252 248.2 245 239.9 233.9 227 216.7 205.2 193.9 184.5 175.3 166.1 157 151.3 146.5 141.8 141.5 141.7 146.2 154 165.7 176.5 192.5 210.1 222.8 229.6 234.3 237.3 239.3 239.7 238.7 236.6 236.4 236.3 233.5 231.7 232.3 236.3 244.7 254.5 260.3 262.9 262.9 263.2 266.3 270.7 276.5 284.7 294.2 304.4 312.9 325 338.6 353.8 366.8 378.6 395.1 413.1 429.5 436.5 445.9 451.9 464.1 470.1 472.8 471.9 464.6 452.5 438.2 424.8
437.8 443.4 451 457.2 462.2 464.4 463 457.3 448.7 440.4 433.7 428.2 423 417.8 412.9 408.5 403.6 398.5 393 387.2 381 375 371.9 368.5 367.7 372 375.8 376.2 374.1 373.2 373.7 370.7 365.6 364.9 360.9 358.6 356.4 356.1 356.2 357.2 359 359.1 358.7 358.3 358.1 358.8 359.7 360.7 362.3 364.1 367.1 370.2 372.7 374.2 374.8 374.4 373.3 370.9 365.3 351.6 338.8 330.2 323.1 314.9 301.8 287 276.1 267.7 259.4 251.9 243.5 234.8 224.8 219 221.9 219.9 213.7 203 193.8 190.8 192.3 210.7 233.4 248.8 258.2 267 275.1 280.6 283.5 282.5 280.8 280.4 280 280.3 281.7 283.6 285.3 286.4 287 287.1 286.4 286.6 287.1 288 288.8 286.6 284.5 283.2 282.1 280.9 279.3 277.1 275.3 274.4 273.7 273.1 272.6 272.9 271.5 269.6 264.4 261.2 260.3 259.3 258.6 256.4 253.7 252.3 251 249.9 247.5 242.8 240.9 237.1 231.2 224.8 214.5 204.8 193.6 182.2 171.6 163.7 157.9 151.5 145.9 140.9 140.8 141 148.3 156.4 165 178 193.5 211.8 223.3 229.9 234.8 238.7 240.5 240.4 240.3 238.4 237.7 237 234.6 231.5 230.9 235.4 244.9 253.7 259 260.5 260.3 260.7 264.6 268.6 273.8 281.1 288.5 297 307.1 319 332.9 349.1 361.2 377 393.4 410 423.4 430.1 439.8 450.2 461.1 468.2 469.7 467.2 455.9 441.9 428.4 415.1
446.6 453 458.7 462.2 465.5 466 463.3 455.4 445.6 435.5 426.5 421.3 417.1 412.4 407.8 403.4 398.6 393.3 387.7 381.7 375.9 370.2 368.2 364.6 360.7 361.8 364.9 366.3 365.2 364.9 365.8 363.3 359.6 355.4 355 353.6 350.8 349 348.2 349.1 351.9 353.2 354.2 355.1 355.7 356.5 357 358.2 359.5 361.1 362.8 365.3 367.5 369.1 370.1 369.8 368.2 366 360.5 349.4 338.3 330.3 326 320.4 308.7 292.2 276.3 266.1 257.8 250.5 243.6 235.4 226.1 217.5 212.2 213.3 208.2 199.9 197.6 185.6 192 211.9 233 248.2 257.8 266.7 274.2 278.2 278.7 278.2 278 278.1 278.7 279.9 281.3 282.7 284.3 285.6 286.4 286.2 284.7 283.9 284.2 284.1 285.6 284.6 284.1 283.5 282 280 278.5 276.9 275.8 275.7 276.1 276.4 276.3 276.4 275.7 271.4 267.2 264.1 260.4 256.1 253.6 251.3 248.2 245.6 244.2 244.2 243.8 237.2 236.3 233.3 227.7 222.2 213.7 206.1 194 180.7 168.9 161.9 156 150.7 144.9 140.1 140 139.7 148.3 157.2 168.6 178.4 196.5 214.6 222.8 230.3 233.6 238.2 240.3 240.3 240.9 239.9 239 238.7 235.4 231.6 229.6 234.2 244 252.3 257.3 259.1 259.4 260.2 263 264.9 270.2 277.2 283.9 291.5 303.4 313 326.9 345.4 360.2 373 388.8 403.5 414.6 425 434.9 447.9 458.4 464.5 464.5 459.4 445.9 434.6 420.3 405
455 460.7 465.5 469.6 470.7 468.3 463.4 453.6 443.7 433.7 423.8 416.8 412.7 408.6 404.4 399.7 395.2 389.4 383 377.8 373.5 368.1 364.6 360 355.9 355.3 355.6 355.6 357.3 357.8 358.4 357.4 354.5 351.8 348.5 348.3 346 345.1 344.2 344 345.3 347.2 349.9 351.8 353.2 354 354.3 355.6 356.8 358.4 359.6 361.7 363.7 365.5 366.5 366.5 364.8 361.4 355.4 347.5 338.7 331.7 328 323.8 314 298.2 284.6 271.6 260 251.2 244.8 237.7 228.1 218 208.9 204.8 204.2 198.1 198.3 186.4 190.1 207.9 227.9 246.2 257.7 267 272.7 273.8 273.3 274.1 275.3 276.4 278.7 280.1 281.4 283.1 284.4 285.3 285.5 285.2 284.3 282.7 282.2 282 283.9 283.4 283.4 283.7 281.5 280 278.6 278.3 277.3 277.6 278 278.3 278.9 279.1 278.3 274.4 271.5 267.1 262 258.2 252.5 245.8 241.1 238.9 235.2 234.9 234.9 233.1 230.8 228.3 223 219 212 204 193.6 181.3 168.4 160.7 156.1 152.1 145.5 139.8 139.2 138.6 150.1 160.2 169 178.1 192.9 207.2 219.9 227.4 231.9 235.9 238.9 239.7 240.3 240.3 240.6 239.5 235.9 231.3 228.8 231.9 241.6 250 255.3 258 258.4 259.2 260.6 261.6 266.6 273 280.5 289.3 298.8 307.7 320.9 339.6 361.2 369.6 385.8 399 409.3 420.4 432.7 445.9 455.3 460.5 457.8 448.7 438.9 427 411.8 394.9
464.4 470.9 475.6 478.6 476.1 471.5 463.2 453.6 443 432.7 422.5 413.6 407.4 403.6 400 396 393.1 388.8 381.9 376.7 372.4 367.4 363.7 360.2 354.9 351.3 350.1 349.6 351 351.3 351.3 351.4 349.9 348.3 347.1 342.6 340.5 339.4 339.3 339.2 340 341.3 344.2 347.5 350.6 351.3 351.5 352.8 354.2 355.4 356.5 358.5 360.3 362.1 363.4 363.8 362.2 359.2 354.1 347.6 340.5 334.4 330.6 326.6 319 308.1 296.7 282.1 268 254.6 246.6 240.1 230.8 221.4 209.9 201.4 197.8 195.1 197.9 186.2 189.2 206.7 226.1 243.2 256.5 266 270.1 270.2 269.4 270 272.2 274.7 278.1 280 281.9 283.7 284.9 285.7 285.3 284.4 283.6 282 280.8 280.5 281.1 281.9 282.6 283.4 285 289.3 285.8 281.5 280.1 279.8 279.3 279.1 278.8 280 281.7 278.9 274.5 270.6 267 258.7 255.5 251.7 245.3 234.1 227.6 221.2 221 218.5 223.6 222 216.5 213.5 209.7 204.3 193.7 181.3 168.6 161 159.4 156.1 146.7 139.5 138.8 137.9 151.3 159.2 165.9 174.2 187.8 203.4 218.2 224.8 229.9 233.7 236.7 238.1 239.5 241.3 240.9 240.4 236.6 232 228.7 229.6 238.4 247.1 252.6 256.3 257.5 257.3 257.6 260.3 264 268.3 276.9 285.8 294.1 303.9 316.8 332.6 349.5 365.4 380.8 394 403.2 416.4 430.9 442.8 449.4 454.8 448.8 440.8 430.6 417.5 404.7 387.4
476.1 483.6 488.2 486.9 482 475 465 453.4 442.2 431.5 421.4 412.4 405.7 400.7 394 389.8 384.1 383.1 378.6 372.7 367.6 363.9 360.6 356.9 353.6 350.5 348.9 346.1 344.4 344.2 344.4 345 344.7 344.2 343.5 341.2 337.8 335.3 334.5 334.3 335.1 336.2 338.9 343.2 347.1 347.8 348.6 350.1 351.3 351.9 353.1 354.9 356.7 358.6 359.8 359.9 359.6 358.1 354.3 348.6 345.1 340.1 333.9 329.9 323.1 313.6 303.2 289.5 275.5 260.2 248 242.5 234.4 225.2 214.1 203.9 195.6 193 194.9 185.6 187.2 203 221.8 237.8 253 262.9 269.1 269.4 267.7 266.7 268.4 271.4 274.9 278.4 280.7 283.2 284.9 285.3 284.6 283.6 282.5 281.2 280 279.3 279.2 280.1 282.3 284.6 288.1 289.1 287.4 283.8 281.9 280.7 279.3 278.3 278.3 279.3 280.7 279.2 274.5 273.2 268.7 262.1 258 254.6 250.5 245.5 233.4 227.9 222.9 212.4 212.2 212.6 208.1 206.4 205 199.5 192.3 180.2 166 158.1 157.3 156 146 139.4 138.4 138.2 145.5 157.4 163.5 174.3 184.6 201.5 214.5 221.4 227.6 231.1 234.1 236.4 238.5 241 241.9 241.1 237.6 233.1 228.8 229 235.4 244.1 249.9 254 256 255.2 255.8 259.1 261.6 264.9 273.7 282.6 288.8 300.6 314.6 329.6 343.4 359 375.2 387.7 399.4 414.8 430.2 441.3 443.6 443.4 439.4 432.3 419.5 407.9 397 380.7
489.9 493.6 493.9 492.1 486.8 478.6 467.4 452.9 441.5 431.3 421.2 412.9 406.5 403.5 401.2 400.2 392.8 380.5 381.3 377.6 373.2 368.8 364.9 362 358 354.8 352.5 350.5 347.2 341.9 339.1 339.6 340.3 341.5 340.7 339.1 336.3 333.8 331.6 330 330.6 331.7 334.4 337.8 340.8 342.7 344.9 347.2 348.7 348.7 350.1 351.5 353 355 356.1 356.6 357.2 356.7 354.6 352.3 350.2 347.2 341.8 334.1 329.1 319 308.5 295.5 282.3 269.3 254.8 246.7 238.2 228.2 217 206.6 197 192.6 193 185.9 185.4 197.3 216.2 232 248.1 258.7 265.8 268.2 266.6 264.6 265.2 267.3 271.8 275.9 279 282 284.3 284.5 283.3 282.1 281 280.1 279.1 277.9 277.7 278.9 282.1 285.5 287.1 287.3 287.1 283.9 281.9 280.5 278.9 277.5 277.1 278.4 280 280.6 279.1 275.3 271.6 267.5 260.3 256 254.8 252.1 236.6 226.8 221.1 212.2 204.6 202 193.1 191.5 202.5 198.3 188.9 174.5 161.6 152.9 148.9 148.1 143.3 138.7 138 137.6 146.4 156.9 164.2 172.9 183.7 201.9 211.6 219.5 225.8 229.8 231.6 233.5 236 241 243.7 242 238.2 233.7 229.3 229 233.9 241.3 247.4 251.6 253.5 253.4 254.8 258 261.7 266.4 272.7 278.7 285.8 296.4 312.2 329.4 343.1 360.8 378.8 388.3 400.8 415.4 429.3 435.7 436.9 435 431 423.5 411.7 401.6 389.6 372.9
498.6 500 498.7 495 488.8 478.7 467 452.9 441.9 432.5 423.3 417.5 415.2 412.7 408.4 402.6 399.7 397.3 393.4 387.3 381.2 375 369.2 366.3 363.1 359.3 356.1 353.6 350.1 346.9 340.8 336.3 335.9 337.5 337.3 336.3 334.9 332.6 329.5 327.8 327.2 328.2 330.6 332.9 335.2 337.5 340.7 343.9 346.1 346.4 347.5 349.3 350.2 351.1 352.3 353.4 354.8 355.6 355.2 354.5 354.2 352.9 349.9 344.6 337 327.2 315.4 303.1 291.3 278.4 266.1 253.3 242.5 231.9 220.2 209.2 198.7 191.9 193 187.1 183.8 189.9 210.2 226.3 241.6 253.4 260.9 264.9 265.2 263 262 264.7 269.5 275.2 278.7 281.6 283.8 283.7 282.2 280.4 279.3 278.5 277.8 276.6 277 278 279.7 283.5 286.8 286.6 284.9 282.6 281.5 280.4 278.4 276.1 275.4 275.7 276.8 280.1 279.1 276 274.8 272.3 265.6 258.9 255.7 253.2 242.2 231.6 231.7 217.7 215 219.9 211 189.4 197.1 196.9 189.4 180 165.3 153.7 146.9 143.2 140.3 137.8 137.5 136.4 146.5 157.6 163.8 170.8 184.7 198.1 207.5 215.9 222.5 228 228.1 231.2 234.3 239.4 243.6 242.9 238.2 233.7 229.6 229.1 233.1 239.6 245.3 249.4 252.1 253.9 254.4 257.1 261.8 267.6 271.1 275.9 287.3 297.4 313.7 328.9 344.2 360.9 375.1 388.8 403.8 413.3 423.4 426.7 428.4 425.3 420.9 414.4 405.3 396.7 381.6 366
500.3 503.8 500.3 495.7 487.5 476.3 465 453.4 443.3 434 428.7 425.8 422.4 418.6 415.2 412.5 410.6 410 406.7 401.3 393.7 384.9 376 370.4 365.9 362 359.5 356.3 353.1 350.3 345.5 340.2 335.5 333.2 333.4 334 332.6 330.9 328.6 326.5 324.5 325.9 327.6 329.1 331.3 333.4 335.9 339.3 341.8 342.6 344.2 346 346.7 347.8 349.1 351.1 353.2 354.5 355.8 356.7 357.4 357.4 355.8 352.9 347.1 336.9 324.3 310.5 299.1 286.3 273.9 260.2 247.4 236 224.1 212.4 202.1 192.2 194.2 187.7 180.4 187.5 202.3 219.1 234.3 247.4 256.3 260.8 262.6 259.6 259.7 263.2 269.3 274.9 277.9 279.7 281.9 282.5 280.8 278.6 277.2 276.6 276.2 275.1 276.6 277.5 277.5 280.4 283.9 283.6 281.6 281 280.6 280 276.9 274.3 273.4 273.5 276.4 278.2 278 277.8 277.5 275 270.7 263 256.2 251.9 244.5 236.4 236.9 224.7 222.5 230.3 220.2 201.7 181.9 180.4 171.5 176.3 167.2 153.6 144.8 141.8 138.2 137.1 136.6 134.9 143.3 154.2 160.6 167 178.2 189.7 204.7 212.7 218.8 224.5 226.7 230 232.1 236.5 242.3 242.7 238.5 233.7 229.9 228.9 232.4 237.8 244.1 248.4 252.3 254.2 254.3 255.4 259.2 264.8 272 282.7 285.6 295.4 312.8 324.3 347.4 357.9 367.5 389 405 405.3 413 413.2 415 414.5 414.8 405.2 400.2 388.8 374.5 361.5
496.6 501.1 497.9 494.3 485.8 474.2 463.7 454.3 445 438.8 435.3 430.5 427 425.1 424.3 423.8 424.6 427 426.8 420.8 410.7 396.2 387.2 377.3 370.2 366.3 363.8 360.5 357.3 354.7 351 346.5 341.1 335.6 330.2 330.2 329.6 328.9 327.4 325.9 323.8 322.4 324.5 325.7 327.5 329.2 331.2 334.2 336.7 339.1 340.9 342.5 343.5 344.8 346.7 349 351.3 354.2 355.9 357.6 359.1 360.3 359.7 357.6 352 342.2 330.8 317.8 305.8 292.7 280.8 267.5 252.6 240.5 228.8 217.1 205.6 194.9 193.6 188.2 182.9 185.2 194.7 211.4 227.5 242.2 253.2 256.9 256.8 257.1 257.5 263.1 268.8 273.2 276.3 277.7 278.5 279.9 278.9 276.9 275.1 274.3 274.1 273.3 273.6 274.3 276.1 278.1 280.1 281.2 279.1 278.4 278.5 277.6 274.9 272.4 271.2 271.5 273.2 277.7 278.5 278.9 278.6 277.7 275 270.4 264.2 255.2 250.5 241.2 233.2 225.8 222.4 230 221 206 187.1 182.7 170.6 165.1 170.2 154.7 146.6 141.6 137 136.4 136 136.1 139.8 149.5 155.7 163.3 177.5 190.4 200.9 209.5 216.4 222.6 225.4 228.7 230.1 233.4 239.2 241.7 238.3 233.6 230.4 228.6 230.2 235.8 241.7 247.7 252.5 254.1 254.3 254.9 258 261.1 269.9 276.3 283.4 293.1 304.8 322.1 343.5 347.2 360.1 381 391.2 393.3 394.3 400 401.1 406.6 400.3 398.6 392.8 379.9 370.6 357
488.9 498.1 496.5 492.6 485 473.8 464.6 456.8 449.5 445.1 441.6 438.1 434.9 435.5 437.6 439.2 442.7 444.7 443.8 438.8 425.5 408.4 397.1 386.5 378.4 373 369.3 367 364.1 361 356.4 351.5 345.7 340.9 335.5 328.3 326.6 326.7 325.7 324.5 323.7 320.8 320.3 321.9 322.3 323.5 325.5 328.9 332.3 335.6 337.9 339.8 341.1 342.4 344.5 346.8 349 352.2 355.5 357.6 359.2 361 362.2 359.8 354.3 345.9 335.5 323.7 311.4 298.6 287 274.5 260.4 247.3 234.6 222.2 210.4 198.3 192.6 187.9 184.4 183.5 188 203.2 219.4 237 247.7 250.4 252 253.2 255.9 261.4 266.6 270.9 274.1 276.2 276.7 277.2 277 275.4 273.5 271.9 271.6 271.4 271.6 272.6 275 276.9 277.7 278.6 277.3 275.5 274.5 273.8 271.7 268.9 267.2 267.8 270.4 274.6 278.1 278.5 279 279.4 279.7 276.8 272.2 263.1 258.2 255.6 241.8 227.2 219.7 228.5 224.6 209.8 196.9 193.3 179.9 158.9 164.6 155 144.9 140.5 136.8 136 133.8 135.5 137.3 144.9 154.9 163.5 174.6 187.7 195.8 204.6 212 218.7 221.3 225.6 227.5 230.1 235.4 239.2 236.9 233.5 230.9 228.1 227.4 233.9 241.9 248.2 252.6 254 254.2 255.6 260.2 260.6 263.2 274.6 282.5 288.9 300 315.1 327.5 334.2 343.3 360.3 368.7 371.1 377.8 378.1 388.8 391.5 391.1 389.7 382.4 374.1 364.9 350.3
483.2 495.4 495.1 490.1 483.8 475.5 469.7 463.5 455.7 451.8 449.4 447.5 447.2 450.1 453 454.3 455.3 454.9 452.4 448.6 435.5 418 403.9 392.4 386.5 383.4 377.1 373.5 370.4 367.2 363.3 356.8 351.2 345.6 340.7 335.8 329.1 323.8 322.3 322.5 322.2 319.2 317 318 318 319.7 320.7 323.3 327.7 330.8 334.6 336.9 339 340.5 342.1 344.4 346.8 349.8 353.7 356.3 359.1 361 363.1 362.2 357.8 349 339 329 316.8 305.2 293.1 281.2 268.5 255.1 242.6 227.4 215.2 202.7 191.9 187.8 185.8 179.2 185.8 193.9 207.1 224.4 235.9 244.3 246.4 250.1 253.4 258.2 263.3 268 271.5 274.2 274.3 274.2 273.9 273.2 272.1 270.5 269.8 269.1 269.3 270.7 272.5 273.9 275 275.9 274.5 272.2 270.3 269.6 268.2 265.2 263.6 263.4 265.1 270.1 276.6 277.8 279.6 281.3 283.4 282.4 275.3 270.6 265.8 264.5 252 230.9 217.9 222.7 225.6 214.2 201 191.3 186.2 166.7 155.1 149.9 142.7 139.6 137.6 134 135.1 134.8 136.8 145.7 154.2 160.5 169.8 182.4 190.8 199.1 205.7 212.8 217.9 221.9 224.4 227.6 232.5 237.6 236.7 233.1 230.9 228.4 227.3 232.1 241.2 247.6 251 253.5 255.4 256.8 258.9 260.8 259.4 269.7 277.9 287.8 297.8 304.8 313.2 321.8 327.5 338.5 348.2 350.7 355.9 364 375.7 378.9 381.5 380.9 373.5 367.4 355.8 343.3
479.7 492.3 494.1 489.1 483.7 480.7 477.5 470.8 464.5 461.6 460.2 459.5 460.1 462.1 463.8 463.1 461.6 461.1 457.3 451.3 440.6 425.3 409.1 398.8 395.3 390.2 383.2 379.7 376 372 368.7 363.1 357.6 351.8 346 340.4 334.9 329.9 324.3 320.1 319.4 316.9 315.3 314.6 314.6 315.6 316.9 319 322.3 326.2 330.6 334.2 336.7 338.6 340.1 341.6 344.3 347.1 350.4 353.9 357.8 360.9 363.9 364.5 360.6 353.4 343.8 333.9 322.4 311.8 300.7 289.3 276.5 263 249.9 233.9 219.9 207.5 195.8 187.8 185.7 181.8 184.7 188.2 198.9 211.1 224.1 233.3 241.4 246.2 250.1 255 259.7 264.5 268.4 271 271.8 271.4 270.9 270.2 269.7 269 268.1 267.1 266.6 267.3 268.7 269.9 271 271.9 271.2 269.2 266.6 265.7 263.9 262.1 260.6 260.7 262.9 268.9 274.1 276.8 279.8 283.2 285.6 284.5 280.6 276 273 265.6 255 237.5 220.9 217.9 224.9 217.8 206 194 187.5 178 163.9 152.3 143.2 139.7 137.6 134.4 134.5 134.2 135.2 143.2 151 158.5 166.6 180.2 190 195.5 201 208.4 215.4 218.9 221.7 225.1 229.5 235.1 236.1 233.3 230.8 228.6 224.6 228.7 238.7 245.8 251 255.4 257.2 257.8 259.2 260.8 258.2 263.4 273.5 284.3 289.8 299 302.9 310.2 313.5 320.5 327.9 329.4 335.7 350.9 360.6 367.3 372.4 370.6 362.9 355.8 347.4 334.1
477.9 487.4 495 490 487.4 485.5 480.5 474.9 471.4 469.2 468.7 468.7 469.3 471 472.1 469.2 465.5 461.2 456.8 450.5 440.1 426.5 412.2 405.2 401.6 395.4 388.5 385.6 381.8 377.7 374.1 368.8 363.9 357.8 351.8 345 339.5 334.6 330.4 323.7 317.2 315.3 313.8 312.4 311.2 311.9 313.4 315.4 317.5 320.6 325.4 330.2 333.3 336 337.7 339.3 342 345 348 351.5 356 360.6 364.5 366.4 364.3 357.2 349.2 339.2 327.6 316.9 307.7 296.4 283.2 269 255.4 241 224.8 212.3 200.9 189.9 186.2 183.3 183.5 185.6 192.9 200.9 212.4 227 237.1 241.2 245.7 251.8 256.7 260.7 264.4 267.1 268.1 268 267.2 266.2 266.3 266.4 265.9 264.7 263.1 263.5 264.5 265.6 266.9 268.2 268.1 266.8 264.2 261.7 259.8 258.4 257.2 258.3 261.2 267.7 273.2 277.2 280.6 284.8 288 286.9 284 279.6 275.3 269.2 261.1 245.2 227.1 216.2 218.7 218 206.1 194.5 184.9 177.9 166.8 154.6 143.8 138.9 137 134.8 133 132.9 133.6 141.8 151.6 162.3 164.2 176.8 188.1 192.4 198.3 206.6 212.4 216.5 219.1 222.5 226 231.5 234.8 233.2 230.4 228 224.1 226.8 237.9 245.6 253.6 258.3 258.8 258.4 259.8 258.3 256.7 259.6 267.7 271.6 281.2 288.2 291.3 296.1 300.6 303.1 311.3 312.7 321.1 333.8 346 355.2 360.1 357.7 352.6 347.3 336.4 320.8
472.9 481.4 490.3 489.5 488.6 486 481.9 479.4 477 474.3 474.4 476.6 477.3 479.6 479.4 469.8 463.5 458.2 451 444.5 434.8 423.6 411.4 407.4 404.4 397.6 391.8 389.2 386.4 382.2 378 373.9 369.4 364.6 358.9 350.7 344.1 339.1 334.2 329.4 323.8 318.5 313.7 311 309.6 308.7 309.8 311.9 313.9 316.5 320.9 325.1 328.8 332.3 334.6 337 339.9 343.2 346.7 350.7 355.2 360.4 365.2 368.1 367.3 361.1 354.4 344.9 332.4 322.1 313.9 300.7 289 276.6 261.9 246.6 230.7 216.9 205.3 191.9 186.9 183.5 182.3 183.9 187 195.2 206.4 219 231.5 236.5 240.4 246.6 251.5 255.8 259.3 262.1 263.2 263.9 263.7 263 262.7 262.9 262.8 261 258.8 258.9 260.2 261.4 262.9 264.3 265 264.7 261.8 258.7 256.7 255.3 254.5 255.2 257.7 264 273.7 278.7 282.2 286.9 290.3 289.4 286.4 282.2 277.1 272.5 264.1 251.6 233.6 222.4 214.8 212.7 205.7 190.9 187.6 178.6 170.1 155.9 143.2 138.3 136.1 134.1 133 132.8 131.4 139.4 153.3 156.2 160.4 175 182.1 188.6 198 203 208.8 214 216.5 219.8 223.2 228.1 232.3 232 229.8 227.5 224.9 225.8 237.9 246.8 256 261.3 260.4 258.4 259.8 257 256.1 260.4 257.3 261.9 272.5 279 280.8 286.4 287.7 290 293.7 300.6 307.7 321.7 334.8 344.2 348.3 343.8 340.2 333.2 322.3 308.9
467.2 474.7 481.6 485.4 486.4 484.3 479.9 484.1 480.2 478.7 478.7 481.2 478.7 477.4 474.2 464.7 456.6 449.4 442 434.5 425.8 418.7 409.9 407.1 402.2 398.7 392.8 391.5 389.2 385.4 381.5 377.9 374.2 370.7 367.8 358.7 351 344.6 338.7 334.1 327.9 321.8 317.4 313.3 308.7 307 306.8 308.7 310.9 313.5 317.2 320.8 324.5 328.6 331.8 334.4 337.4 340.9 344.2 349.7 355 360.8 366.6 370.7 369.1 364.1 357.8 348.5 336.4 324.7 313.3 305 295.9 283.2 269.4 253.5 237.6 222 208.8 197.3 186.8 182.8 179.4 182.6 183.8 188.5 200 212.1 221.1 228.5 232.9 238.1 243 248.4 252.7 256 258.7 260.6 261.6 261.5 261.3 260.8 259.1 257.3 256.2 256.2 256.7 257.7 259.3 260.8 261.2 261.2 259.1 256.6 255.9 254.4 253.7 253.6 258.3 266 277 282 284.8 287.7 291 290.5 287.8 283.3 277.8 272.4 265.2 253.5 238.5 230.6 220 213.5 210.6 197.3 183.8 177.3 166.1 157.9 147.2 137.6 134.5 132.9 132.5 132.5 131.8 136.6 145.4 153 161 169.8 180.1 190.3 194.7 198.7 204.9 210.9 214.1 217 220.1 224.5 229.3 231.1 229 227 224.7 225.2 236.7 248.3 258.4 263.5 263.1 260 258.5 256.9 255.4 254.1 253.1 256.6 263.2 267.3 270.2 274.4 276 279.1 282.7 290.8 300.4 311 323.5 332.9 332.1 331.3 328.7 322.1 310.8 300.4
457.6 459.8 468.9 479.7 485 479.6 477.5 478.8 477.4 479.5 477.8 476 471.2 466.7 463.4 457 447 437.9 430.1 422.6 418.1 413.2 406.6 403.8 401.5 398 393.3 391.4 390.2 387.5 384.7 381.8 378.2 374.6 371.7 366.6 358.1 351.7 345.6 337 328.6 323.8 320.6 316.2 312.9 307.5 303.9 304.4 306.8 310.2 314.1 317.9 321.4 325.2 328.4 331.4 334.3 337.7 341.8 347.8 355.6 363.1 368.8 370.9 369.2 365.5 359.8 350.7 339.6 327.7 316.1 307.7 297.9 286.5 276.9 261.5 244.7 228.4 213 199.8 189 183 175.7 181.3 182.3 183.8 194.4 205.4 212.1 219 224.4 229 235.5 240.4 243.8 251.4 255.3 257.8 259.9 260.2 259.8 258 256 255.8 255.9 255.4 255.4 256.2 256.9 257.2 257.3 257.5 256.6 255.5 254.9 254 253.4 254 263 270.8 278.5 284.2 286.8 289.1 291.2 290.4 287.9 283.4 277.5 272 265.8 255.6 242.9 233.5 224.4 212.7 204.7 200.1 191.4 181.4 174.3 165.3 152.8 138.2 134.1 132.3 131.9 131.7 131.5 134.1 142.5 154.7 162.9 167.7 179.8 189.9 193.3 196.5 201.2 208.2 211.7 214.6 217.5 220.4 226 229.6 228.3 226.4 224.3 224.4 236.6 249.7 260.8 267 267.2 264.6 262.7 259.2 257.8 253.1 251 249.9 251.6 256.3 260.2 262 266 268.7 272.5 281.1 289.1 300.8 312.4 318.7 320.5 321.6 318.9 311.2 301.9 294
447.9 450.8 456.5 465 469.2 469.8 471.6 472.6 470.8 470.8 469.5 466 462.4 458.2 454.1 444.8 435.7 426.7 418.4 413.2 410.1 405.1 400.5 398.4 396.9 396.3 391.4 390.1 388.9 387.5 385.7 383.5 381.3 377.6 374 369.1 363.2 359 350.4 341.2 333.9 327.8 321.5 316 312.3 308 303.4 300.6 302.5 307.1 311.3 314.8 318.1 320.8 323.5 327.1 330.7 334.8 339.7 346.5 354.9 363.2 368.9 369.9 369 366.2 361.3 353 342.5 331 320.1 311.3 301.7 290.5 279.3 266.6 250.8 235.3 219.3 204.1 193.2 186.4 180.9 178.3 180.4 181.6 188.6 199.4 207.8 209.5 213.1 221.9 230.8 235 238 248.1 252.4 255.2 258.8 260.3 258.7 256.9 256.1 256.1 256.2 256 255.6 254.9 255.7 255.9 255.6 255.3 254.9 254.8 253.9 253.2 254.6 258.4 266.7 272.2 276.7 283.1 286.3 289.4 290.5 288.6 286.1 282.2 276.7 271.1 265.6 258 246.4 235.9 227.6 220.6 217.8 208.3 194.3 181.3 172 165.4 155.7 143.1 136.7 133.8 131.7 131.2 128.9 131.4 140.4 149.1 154.8 159.7 174 183.4 187.9 191.4 197.4 204.6 209 211.9 214.6 217.3 222.4 227.2 227.2 225.5 222.9 224.3 236.6 250 263.1 270.5 274 274.1 270.9 266.3 262.4 257.1 253.4 245.8 243.5 245.5 250.7 254.5 257.9 260.5 267.7 272.5 280.8 292.3 302.7 307.8 311.6 314.3 311.8 303.2 296.5 287.1
440.8 444.5 447 452.8 458.7 461.2 463.3 465.7 465.2 463.7 460.6 457.8 455 448.5 440.9 432.6 424.4 414.3 409.5 404.4 400.4 396.3 393.3 392.2 391.7 390.9 389.1 387.4 385.5 384.2 383.1 382.5 381.1 378.8 376.9 374.1 369.5 364 355.4 347.3 339.8 330.4 322.1 315.5 311.9 308.3 304.1 300.3 301.5 304.3 307.8 310.3 312.6 316 319.9 324 328.5 332.8 338 344.7 352.6 360.3 366.9 370 370.3 368.1 363.2 355.3 344.9 332.6 323 314.8 306.8 297.6 282.8 270.7 256.6 241.7 226.4 210.8 198.2 187.4 183.5 174.3 179.3 180.2 182.9 195.5 204 204 205.7 215.2 223.8 234.3 240.5 246.9 250.2 252.7 256.9 260 259.4 257.2 256.9 256.6 256.6 256.5 255.2 254.5 254.6 254.6 254.4 254 253.7 254.1 253.1 252.9 255.6 260.5 265.1 269.9 273.9 280 284.2 287.5 288.6 287 284.4 281 275.6 270.1 264.6 258.2 249 236.7 228.6 221.3 216.8 207.4 199.3 190.6 176 166.8 159.9 148.9 139.2 135.6 132.2 130.5 130.3 130.7 135.1 144.4 153 159.7 168.5 178.3 182.8 188.9 193.5 200.2 206.1 209.3 211.8 214.8 219.6 225 226.5 224 219.6 222.5 235.7 250.4 264.7 274.3 282 283.4 283 278.5 274.9 266 256.5 246.5 243.5 243.6 245.3 248.9 250.3 256.1 262.6 267.3 275.1 283.4 292.9 298.8 306 308.2 303 296.7 290.1 278.8
434.3 435.8 439 445.9 449.8 454.9 460.4 463.1 460.5 456.1 451.9 447 442.3 435.9 429.3 422.1 413.7 407 402.1 396.7 391.9 389.6 387 386.7 385.8 384.8 383.4 381.9 379.9 377.8 376.7 376.6 377.2 377.1 376.8 377.1 375.7 370.7 362.8 353.4 342.4 333 324.5 317.7 313.1 309.2 305.3 300.4 298.6 302.5 303.2 305.7 309.1 312.9 316.9 321.6 326 329.6 334.6 342 350.1 357.4 364.3 369.2 371.2 370.7 365.6 356.8 346.7 334.7 325.5 318.1 311.3 303.7 293.1 278.3 262.2 247.7 232.8 217.3 204.2 192.6 185.5 179 177.9 178.8 180 191.4 200.4 199.8 200.9 208.4 214.8 228.5 240.5 246.6 249.7 253.6 257.2 264 264.1 259.7 258.2 257.2 256.9 256.8 255.8 254.5 253.7 253.3 253.1 252.6 252 252.6 252 252.8 256.3 261.3 264 268.8 272.2 279 282.8 285.6 286.1 285.1 282.3 279.2 274.9 269.2 263.7 258.2 250.5 241 232.7 225.8 217.3 208.7 193.8 182.6 174.4 166.8 159.6 148 139.7 135.9 133.4 130.3 129.7 130.1 132.8 143.3 153 158.2 163.9 170.9 180.2 186 190 196 203.2 206.6 209.3 212.6 217 222.6 225.4 223.6 218.5 219 234.3 250 264.1 276 287 291.3 291.4 287.2 282.8 272.5 260.6 251.2 246 244 240.9 243.4 246.1 252.4 257.1 261.7 268 276 285.8 293.2 299.5 299.1 294.8 289.1 280 271.9
428.5 429.6 432.6 438 445.3 452.4 457.3 458.1 454.6 449.8 445.3 438.3 430.4 424.7 418.7 412.1 405.4 398.8 392.6 388.1 385.8 382.7 380.8 381.1 379.1 377.3 375.7 373.7 371.7 371.2 371.4 371.8 372.9 374.4 375.9 378 377.4 373.6 367.2 357.3 345 334.1 325.9 318.2 312.6 307.6 304.2 300.6 296.4 299.1 300 302.8 305.8 309.3 314.1 319.2 322.8 326.9 333.6 342.7 350.6 355.7 361.4 367.3 369.8 369.5 364.7 356.3 347 336.8 326.7 320.4 314.3 307.7 298.8 287 268.5 253.6 239.2 224.2 211 199.6 186.1 184.8 177.2 177.4 178.8 182.9 196.1 195.3 194.8 205.8 216.4 234.2 245.3 249.7 252.6 255.2 259.8 269 271.3 265.8 262.4 259.2 257.2 257.4 256.9 255.1 253.7 252.8 252 251.6 250.4 249.5 250.7 254.1 256.6 261.4 263.8 267.1 272.7 281 283.3 284.3 283.5 282.3 280.2 277.2 273.7 268.6 263.4 258.1 251.1 244 234.8 227.3 218 210.1 200.7 192.1 182.1 171.5 158.6 148.2 140.6 136 132.5 129.9 128.9 129.5 131.8 142.9 149.6 153.7 159.6 166.2 176.4 182.6 186.2 191.7 199.3 203.8 206.5 210.4 214.5 220.4 223.7 223.4 216.7 217.6 231.9 247.9 262.3 274.5 286.9 291.6 294.9 293.6 286.9 276.3 261.8 254.6 251.8 243.4 237.9 239.4 242.2 246.6 250.3 256.7 262.3 271.1 279.7 287.6 291.3 290 287.1 281.6 272.1 264
423.5 424.4 427.3 433.6 442.9 449.2 451.9 449.4 445.2 441.3 437 430.2 422 414.2 409.1 403.9 397.4 390.4 383.9 381.4 379.4 376.5 374.1 374.2 372.3 369.9 368 366 365.4 365.6 366.2 366.8 368.2 370.7 373.2 377.9 378.1 374.7 369.2 360 346.7 335.6 325.9 317.3 310.3 306 303.3 300.2 295.7 296.8 298.9 300.7 303.6 307.2 312.3 317.6 322.7 329.4 336.9 345.4 352.7 356.7 359.9 364.4 366.7 364.3 359.5 352.9 345.6 337.2 327.5 321.4 316.9 311.3 303.7 291.2 276.3 260.6 245.3 230.4 216.9 205.9 195.3 185.4 181.7 175.4 177.3 179 191.1 192.5 189.5 200.3 214.9 233.5 247 255.1 256.8 256.3 259.8 268.9 274.2 270.9 264.6 260.8 263.3 265.4 262.7 257.1 253.8 252.2 250.3 249.9 248.3 247.4 250.1 254.6 257.3 260 263.1 266.8 276.6 282.1 283.3 283.2 282 280.6 278.5 275.6 272.7 268.4 263.8 258.8 252.2 245.9 237.3 229.8 221.1 212.7 207.5 200.1 189 175.8 162.6 152.6 143.4 136.7 132.1 128.8 128.7 129.1 129.8 140 147.4 150.3 154.7 161.2 168.6 178.1 183.1 186.4 194.4 200.9 204.9 208.2 212.1 218 222 223 217.6 215.9 228.2 242.9 257.2 271.6 282.6 288.1 292.1 292.2 282.8 276.3 267.9 261.3 253.6 242.5 237 234.9 237.8 240.4 244.7 250.3 256.6 266.6 273.9 282.2 284 283.2 279.3 272.3 264.5 255.5
419.7 420.5 425.3 432.2 440.3 445 444.8 441 436 430.9 426 420.4 412.8 405.4 400 395.6 389.7 383.6 377.6 373.3 371.9 369.7 367 365.9 363.9 363 361.1 359.8 358.9 358.5 359 359.7 360.6 365.6 368.1 371.9 374.2 374 371.8 359.8 348.1 336.1 323.3 315.2 309.5 306.7 305.2 300.4 294.5 294.5 300.1 301.4 304.5 309 314.6 320.6 327.4 333.5 340.9 348.2 354.1 357.4 358.3 360.3 360.6 357.6 352.9 348.2 341.3 334.4 327.4 322.1 318.3 313.9 308.6 296.5 281.3 266 250.9 236.6 222.6 211.4 201.1 192.1 184 179.4 173.7 177.9 181.8 189.6 186.3 192.8 210.3 231 249.2 256.7 261.1 257.3 258 265.9 271.7 272.7 268.9 263.7 265.8 266.2 262.1 257.9 253.3 250.6 248.9 247.6 246.4 246.2 250.2 254.5 255.7 257.4 262.2 267.2 275.4 281 281.9 281.8 281.1 279.2 276.9 273.8 271.8 268.5 265 260 253.7 247.3 240.9 233.9 225.2 217.7 209.3 198.3 189.5 178.9 169.6 158.5 148 138.3 133.6 128.8 128.3 128.6 129.2 136 141.9 147.1 152.1 158.9 163.9 175.3 181 184.7 190.5 197.3 202.7 205.8 210.1 215.8 220.2 221.9 218.1 212 223.1 236.9 253 267 276 282.9 287.1 286.3 282.2 276.6 271.5 259.9 250.5 243.5 235 230.9 233.4 236 240.3 245.5 252.4 261.1 268.7 274.5 274.2 269.9 269.5 264 256.6 250.3
418 420.8 425.6 430.5 436 439.2 437.6 433.4 428.3 423.4 416.9 410.9 403.9 397.1 391.3 386.7 382.3 377.6 371.2 366.5 363.5 362.8 359.9 357.6 356.4 355.9 354.4 352.5 351 350.6 351 351.8 353.5 356.7 360.2 364 367.9 371.8 369.2 352.7 348.6 336.4 324.4 315.4 310.5 307.6 304.5 297.5 290.6 289.1 302.1 305 308.7 313.8 319.8 326 332.8 338.4 345.8 349.8 354.4 357.4 356.7 354.4 351.7 348.9 345.8 342 337.1 331.5 326.5 321.6 317.8 314.6 308.8 299.6 287.1 271.7 256.6 243.3 229.1 216.9 206 197.1 184.8 182.7 177.5 174.2 177.6 184.4 186.6 190.2 204.6 230.2 243.9 253.6 261.8 259.8 259.1 262 265.3 268.7 269.2 263.8 262.3 261.6 258.9 254.5 251.5 249.5 249.1 246.5 245.3 245.6 249 252.6 254 257 262.7 266.7 272.2 279.1 280 280.2 280.2 279 276.2 273 271.2 268.4 264.9 261.6 256 249.1 243.2 237.7 231.3 222 210.6 200 193.5 184.6 172.3 161.8 154 144.6 134.8 126.8 127.9 128.1 128.4 130.8 137.4 143.6 148.9 154.5 160.5 174.6 177.8 181.2 186.2 193.3 200.2 203.6 208.5 213.2 218.5 220.4 218.4 209.3 219.3 231.2 247.6 259.9 268.3 276.1 277.7 280 278.9 274.8 267.1 256.8 249.8 243.7 234.5 228.4 229 232.4 237.4 240.2 247.2 254.8 262.7 262.9 257.1 244.8 246.8 245.3 250.6 262.5
419.5 422.7 425.8 429.1 432 432.8 431.9 429.2 423.7 417 410 403.1 396.4 389.6 383.4 377.6 373.3 370.5 365.5 362.3 356.5 356.1 353.4 350.6 349 348.4 346.9 345.5 343.7 343.6 344 344.3 345.1 347.3 351.2 355.6 362.6 364.5 362.2 353 343.1 334.4 322.6 314.6 309.6 305.6 299.3 293 285 292.2 304 309 313.8 319.2 325.7 332.6 340.9 345.8 347.3 350.3 354.9 356.6 351.6 346 341.7 338.1 335.6 333.6 331.2 327.8 324 320.1 316.2 312.3 307.1 300.3 290.6 278.4 263 249.3 236.1 221.9 211.3 202.3 192.1 184.3 180.5 172.2 176.8 179.9 184.8 191.8 201.6 224.4 240.3 251.4 259.6 261 259.6 260.3 262.1 265.1 265.4 260.2 258.2 258.1 259 256.5 253.5 249.7 247.9 245.2 244.1 244.6 246.6 250.2 252.6 258.3 264.8 268.8 274.3 277 278.1 278.1 279.8 278.6 275.6 272.2 270.4 268.3 265 261.7 258 252.1 245.6 240.3 235 226.7 216.4 205.7 198.1 189.9 179.2 166.4 157.3 149.8 138.6 130.3 127.2 127.4 127.8 128.8 134.8 143.8 147 150.4 157.6 170.8 176.5 178.7 183.6 191.1 199.1 202 207.5 211.9 216.9 219 218.9 207.3 215.7 225.5 240.7 253.3 261.1 267.4 271.5 275.3 273.9 266.5 260.9 255 248.1 242.1 231.1 224.4 224.1 227.6 234.7 235.6 242.1 248.7 253.3 245.6 235.2 239.9 248.7 256.6 265.3 276.7
422.8 425.9 428.5 429.8 430.5 428.8 427.6 425.4 419.3 411.9 404.1 396.2 388.2 380.9 375.3 369.2 363.3 359.7 358.9 356 351.2 350.6 345.9 343.2 341.9 340.2 338.3 337.1 336.9 336.3 335.1 334.7 334.8 336.9 341.3 345.1 349.3 351.2 350.5 345.3 337.3 329.7 320.2 313.3 307.2 300.6 293.8 284.2 281.4 293.6 304.1 311.8 318.1 325.4 335.2 345.2 350.5 350.7 349.6 350.7 353.9 351.1 344.5 337.3 331.2 328.1 326.4 325.4 324.3 323 320.1 316.2 312.3 309.1 304.6 299 291.8 281.7 269.3 255.3 242.3 228.2 216.2 206.7 196.8 187.5 182.1 175.8 174.7 177.6 184 191.8 201.3 220.9 240.2 249.8 256.2 258.8 258.2 258.4 259.4 260.8 259.3 256.4 253.9 254.4 256.9 257.1 253.2 249.2 247.1 245.7 244.3 243.6 247.1 249.6 252.1 259.8 265.7 268 272 273.9 275.5 276 277.4 276.9 274.1 271.2 269.2 267.4 264.6 261.5 258.1 253.7 248 243 239.2 232.6 221.3 211.4 200.7 193.5 184.7 170.7 160.8 155.8 142.7 131.3 126.4 126.8 126.9 127.6 133.7 141.9 143.4 146.5 153.9 167.5 175.1 176.7 181.9 190.1 196.2 200.5 206.3 210.5 215.5 217.6 218 206.9 211 219.9 234.6 246.5 257.5 263.4 264.4 266.7 262.6 258.6 254.9 251.7 245.5 236.2 226.9 221 219.3 224.5 229.6 230.2 230.4 233.7 228.9 229.3 239.4 251.5 261.7 270.9 277.7 288.6
426.8 430.3 432.8 433.4 432.1 428.4 422.3 418 410.6 402.9 394.2 385.6 377.2 370.9 366.9 361.6 355.3 351.3 350.6 349.4 345.8 340.3 339.2 336.7 334.4 332.6 329.3 329.4 330.1 327.7 326.1 325.4 324.7 325.3 328.3 331.9 335.5 337.3 339.7 337 329.1 323.3 316.3 309.4 302.3 294.3 287.3 277.3 287.6 296.5 305.9 313.6 323.2 335.4 346.2 352.2 356 356.9 354.8 349 346.1 341.9 336.1 330.6 326.7 323.2 320.6 319.6 318.4 317.3 316.1 312.6 309.3 306.6 302.5 297.1 290.8 282.8 272.4 260 247.6 234.9 221.4 210.8 201 191.9 182.9 179.1 171.6 176.9 180.6 191.1 200.8 215.8 232.6 245 251.5 253.2 252.9 252.7 253.2 254.3 253.9 252.2 250.3 251.5 254.5 253.7 249.8 247.3 245.8 247.6 243.4 242.6 248.1 253.9 256.6 260.5 264.6 268 273 273.5 274.1 276 278.4 277.8 274.4 269.9 267.1 265.1 263.7 260.8 257.8 254.4 250.2 245.9 242.8 235.7 227.1 214.9 203.3 197.5 187.7 173 160.2 152.1 143.3 131.5 126.4 126.4 126.2 127.5 132.9 138.8 141 141.6 151.7 163.5 173.2 174.8 179.7 186.5 193.9 199.1 205.4 209.3 214.5 216.2 217.2 211.4 204.8 216 227.2 240.4 252.6 256.5 258 258.6 255.1 252 249.3 246.6 240.2 231.4 222.1 217 215.9 220.1 220.1 218.2 218.4 228.9 228.5 240.9 253.3 262.5 271.8 281.2 288 299.3
430.8 434.5 437.2 438.5 437.3 433.8 427.2 416.7 405.5 394.9 384.2 373.4 364.9 359.1 353.7 351.2 349.6 345.1 342.8 340.8 337.5 333.3 329.4 329.3 326.3 324.5 322.5 322 320.7 317.6 317.3 317.1 316 316.3 316.7 318.7 321.8 325.1 327.3 325.7 319.8 316.2 310.9 304.4 296.3 287.8 278.3 283.7 292.9 301 308.4 319 333.5 345.5 351.3 356 361.1 361.4 357.5 348.1 340.8 335.7 332 328.2 324.4 321.4 318.6 315.2 313.3 312.6 311.4 309.9 307 304.7 300.1 295.3 289 283.4 274.1 262.1 251.2 240.2 227.9 215.4 205.9 195.7 187.5 180.8 175.2 174.3 177.6 189 199 211.1 225.8 239.9 246.3 247.6 247.5 247.5 247.7 248.1 248.9 248.6 248.5 249.9 251.2 249.1 247.1 245 244 243.9 242.1 242.1 251.3 258.7 261.4 263.6 268.2 272.4 275.9 277.4 278.2 280.9 279.5 277 273.1 269.2 266.1 263.8 261.9 260.1 257.3 254.6 251.3 248.2 246 240.1 231.3 220 207.5 198.3 189 176.5 163.2 152.1 142.8 133.2 126.4 126.1 125.7 125.7 130.4 134.6 137.8 139.5 148.3 160.1 170.8 171.5 177.7 184.5 191.8 198.2 204.8 207.4 213.7 215.2 216 212.6 200.7 213.1 222.1 233.7 245.5 250 249.6 246.3 246.7 246.1 243.5 240.6 234.1 225.8 217.3 212.9 212 212.5 212.3 224.5 233.5 241.7 246.5 253.8 263.1 269.5 278.9 286.6 293.2 303.2
434.6 438.3 441.3 442.6 443 441.6 435.5 422.6 412.6 403 393.8 383.5 370.7 362.5 353 344.8 339.3 336.5 334.3 332.2 329.6 327.9 322.1 318.5 316 313.1 313.2 312.4 311.3 309.2 308.2 308.2 307.9 307.5 307.3 308.3 309.6 312.6 314.4 314.7 312.3 309 304.2 298.3 289.3 280.1 272.6 283.7 294.5 302.7 312 327.8 342.6 349.4 353.9 361.3 364 361.6 356.4 346.8 337.4 331.5 328 325.5 322.9 319.8 316.1 311.9 308.7 307.7 307.3 306.2 305 302.7 298.6 293.6 288.2 283 275.5 264.2 253.7 243.3 232.8 220.8 211.8 201.2 191.7 181 177.3 170.9 176.6 182.7 195 207.2 219.4 233.4 240.5 242.3 243.6 244.6 243.9 243.6 243.7 244.3 245.5 248.6 248 245.1 244.2 243.3 242.8 241.8 241.3 244.9 255 259.9 264.4 268.8 273.1 276.2 279.2 282.8 285.2 286.5 280.2 275.8 272.5 268.8 265.2 263.1 261.6 259.4 256.8 254.4 252 250.4 248.2 244 233.7 222.2 209.1 199.2 194.1 184.3 173.5 156.2 144.8 136.4 129.9 123 124 124.5 127.7 130.4 133.4 139.3 145.1 154.6 165.2 171.3 176.7 184.2 191.3 198.1 203.3 208.8 213.1 214.4 215.1 211.6 199.6 209.5 217 226.6 237 242.1 241.2 238.9 239.1 239.1 236.9 233.6 226.8 218.9 214 209.5 204 204.1 215.9 224.2 233 240.7 250.9 259.2 265.3 274.2 283.6 289.8 294.4 302.1
438 441.4 444.3 446 447.1 447.4 442.2 429.3 418.3 407.4 398.1 389 380 370.2 362.6 354.3 349.1 339.8 333.4 328.7 324.4 322.7 320.4 315.8 309.9 303.4 304.9 304.3 303.9 302.1 299.9 299.5 300.1 300.4 299.5 300.7 302.1 303.1 305.6 306.3 305.5 301.8 297 290.6 281.5 271.6 273.7 284.3 295.8 304.1 317.5 334.5 346.5 351.2 357.4 362.8 362.2 358.4 352 344.5 334.6 327.7 324.1 321.9 319.9 317.1 313.1 309 305.4 303.1 302.8 302.9 302 300.9 297.1 292.8 287.4 281.6 275 266.1 256 245.6 235.7 225.9 217.7 207.2 194.9 185.6 179.3 173.1 172.9 177.6 190.1 202 213 226.4 234.6 237.7 240.3 241.1 240.2 239.3 239.6 239.4 240.1 242.9 241.8 240.4 241.5 238.8 238.6 239.7 241.7 247.8 256.7 262.5 267.4 271.3 275.7 278.8 286.1 288.9 287.8 286.2 280.9 276.1 272.6 268.6 264.7 262.4 261.1 259.3 257 254.6 252.6 251.6 248.1 244.6 235.5 226.4 213.1 203.8 198.5 190.4 180.8 163.3 147 137.9 132 129.2 122 123.3 124.8 127.2 132 138.5 145.3 152.3 160.5 170.4 176 184.4 190.1 197.9 202.6 208.8 213.1 214.3 214.4 212.7 201.9 202 210.1 216.9 225.8 234.4 234.2 232.5 231.9 229.8 228.7 225.7 220.5 214.1 209.2 204.3 198.1 205.2 215.3 224.2 233.3 245.6 254.7 261.7 265.1 274.2 282.7 289.7 290.7 298.7
441.1 443.6 446.1 448.3 449.8 452.5 448.9 434.4 424 411.7 401.5 393.9 384 375.8 369 361.9 354.5 346.4 338.7 333 327.3 321.4 314.8 310.6 306.3 301.7 296.1 296 298.9 296.6 291.5 291.5 293.7 294.6 294.5 294.8 295.9 296.6 297.7 298.7 297.5 294 289.9 283 273.9 267.2 273.5 284.7 295.5 307 321.5 336.8 347.1 352.4 358.2 361.9 359.4 352.2 344.2 340 332.1 326.1 322.5 319.4 315.4 311.5 307.7 304.5 301.5 298.9 298.4 298.4 298.4 297.6 295.2 291.4 285.5 276.3 271.1 264.3 256 247.7 237.7 228.7 220.4 209.3 198.1 189.5 179.6 176.4 171.1 175.2 182.9 196.3 207.8 224.8 230.6 233.7 236.8 237.1 235.5 235.1 235.6 235.3 233.3 235 235.8 236 236.9 233.5 238.8 241.7 249.1 254.7 261 266.5 270.7 274.8 277.1 280.2 284.3 287.6 286.1 284.2 280.8 276.4 272.1 267.7 264 262 260.7 259.5 257.2 254.9 253.6 250.2 247.8 243.3 237 228.1 217.2 208.9 201.4 193 181.1 165.4 151.5 138.8 133.4 130 122.3 123.6 123.7 124.8 129.8 135.2 142.9 147.7 158.2 169.4 175.4 184.2 190.1 197.9 201.4 208.9 212.6 214.2 213.7 212.8 206.7 194.3 204.6 212 219.4 226.9 228.7 226 223.7 222.4 220.9 220.3 218.3 211.5 204.5 199.6 197.3 206.4 218.8 228.6 237.1 247.7 255.4 262.5 263.5 271.6 280.8 285.3 287.8 295.9
445.3 445.9 447.9 450.2 453.2 457.5 450.7 440.8 435 419.4 405.9 397.1 389.3 379.7 373.3 365.6 358.2 350.9 343.1 337.3 331.3 325.3 320.3 315.7 310.3 305.2 298.6 291.1 291.7 287.9 284.5 284.3 288.2 288.1 289.1 288.8 289.6 290.1 290.8 291.2 289.5 285.9 282.2 275.3 268.4 263.7 271.8 283.8 295.4 309.8 324.4 339.7 348.5 352.3 357.8 361.8 358.3 349.6 342.4 337.5 331.5 325.4 320.7 316.2 311.4 306.5 302 299.4 297.5 296.1 295.6 295 294.3 293.7 291.8 288.7 284.6 279 274.2 266.5 257.4 247.6 239 231.5 222.3 212 201.6 191.5 183.6 176.4 171.8 173.9 176.8 188.1 200.8 216 225.6 229.2 232.8 233.2 232.1 231.8 232.5 231.8 229.5 228.6 230.7 232.1 230.7 232.8 238.3 249 253.9 258.4 265.8 271.3 274 277.8 282.2 284.1 283.3 285.1 284.8 283 280.7 276.3 272 268 264.7 262 260.5 259.4 257.7 255.5 254.5 250.1 246.6 243.8 238.5 230.2 222 213 202.5 194.5 183.6 172.5 159.3 141.8 133.3 129.7 125.6 122.8 123.3 123.3 127.1 134.4 138.5 147.2 156.1 169.3 174.1 183.1 188.7 192.6 201.7 208.4 212.5 214.7 214.2 212.1 209.9 197.5 192.4 205 213.3 221.5 222.7 219.2 216.5 215.9 216.1 215.3 213.1 207.8 200.4 195.4 199.8 210.3 219.9 229.5 240.1 247.6 254.5 261.3 259.6 267.6 275.1 280.5 286.4 292.7
454.3 451.1 452.2 456.1 461.1 460.3 452 445.8 435.2 423.2 410.1 398.9 391.3 381.7 374.9 368 361 353.4 345.7 339.6 333.3 326.9 321.6 316.8 312.2 305.5 300.1 294.3 286.7 282.3 276.5 272.9 276.2 282.5 282.1 283.3 283 283.6 283.8 283.8 281.4 278.1 274.2 268.2 263.7 260.7 270.3 281.5 296 310.5 324 340.3 348 351 355.7 361.1 359.1 351.7 344.5 337.6 330.5 324.4 318.6 313.6 308.2 302.4 298.7 296.6 295.2 294.4 294.4 294.4 294.4 294.1 293.4 294.3 293 288.4 281.9 274 264.1 252.1 242.9 235.7 224.7 214 204.7 194.2 185.3 178.3 172.2 172.6 174.8 181.6 193.2 209.3 220.8 225 229 229.8 228.7 229.4 230.3 229.4 226.2 223.3 224.5 226.5 228 236.3 246.5 254 258.3 265.4 272.2 275.1 278.9 282.3 285.2 283.8 282.4 282.9 283.5 282.2 279.5 276.2 271.8 268 264.8 262.4 260.7 259.1 257.8 255.2 254.3 250.1 246.3 243.8 240.5 232.2 223.5 210.7 204.4 198.2 187.7 173 160.1 144.4 135.9 130.5 128.1 122.8 122.7 122.7 123.5 129.8 134.4 146.8 154.7 164.9 172.1 177.4 184.7 192 203 209 213.9 216.2 215.7 212 209.3 203.1 191.3 193.6 207 214.9 216 213.1 210 209.4 209.6 209.6 207.2 201.2 195.5 190.2 198.5 208.8 220.6 230.5 239.3 245.4 251.6 254.4 256.8 262.7 268.1 276.5 281.2 287.5
455.6 455.9 458.5 462.5 470.2 464.9 455.1 448.1 435 423.1 411.3 401.8 391.5 381.7 375.9 369.1 361.9 354.3 347.3 341.3 335.3 329.3 323.8 319.3 314.5 308.2 303 297.6 293.2 287.8 282.4 277.1 266.2 265.4 269.2 274 275.8 276.2 276.4 276.3 273.6 270.3 266.6 261.8 258.5 257 266.3 277.4 291.1 303.6 320.1 335.1 343.1 347.7 350.9 357.4 360.4 356.2 347.2 337 327.8 321.8 316 311 305.6 300.8 297.5 296 295.9 296.8 297.5 297.7 298.1 298.6 298.9 300.3 298.3 294.3 289.3 282.4 270.9 258.1 243.3 233.6 226.7 217.4 207.9 199.1 187 178.2 174.1 168.5 172.5 177 186.7 198.1 209.2 219.2 223.2 225 224.9 225.8 227 225.5 222.3 219.8 220.5 222.6 230.5 241.5 251.8 258.5 264.9 271.9 277 279.6 281.1 283.2 284.2 283.3 281.9 282 282.8 280.7 278.3 275.6 271.6 268.3 265.4 262.8 261.1 259.5 257.7 255.1 253.1 249.7 246.3 243.3 239.3 232.1 223.4 214.8 206.9 200.6 190.5 177.4 162.4 149.1 138 131.5 127.8 122 122.3 122.3 122.9 127.6 133.7 144.4 151.8 158.8 165.4 172 183.6 193.4 203.9 210.8 215.6 217.5 217.1 213.3 209.5 206.6 202.1 187.2 197 204.8 209.5 207.9 205.3 203.3 203.3 203.4 201.3 195.9 191.4 190.3 199.3 209 220.1 229.6 238.8 243.8 247 250.3 252.4 257.3 265.1 272 277.5 284.9
452.2 458.2 464 470.6 473.7 468.9 459.4 450.3 436.9 423.6 413.4 402.3 390.9 381.5 374.3 367.6 361 354.6 348.3 342.8 337.3 332.2 326.6 322.2 317.3 311.9 305.7 300 295.6 290.1 284.2 280.4 275.7 265.9 259.8 263.2 265.5 266.6 267.5 268 265.9 262.3 259.8 256.6 254.1 252.7 260.9 272.5 283 295.2 310.8 325.8 335.3 341.6 347 355.2 360.7 357.6 346 334 324.7 318.6 313.3 308.3 304.5 300.9 298.9 298.3 298.5 299.4 300.4 299.9 299.6 301.2 302.6 303 301.6 298.4 294.8 290.1 276.5 261 246.5 234.3 226.5 218.8 208 198.3 188.5 181.4 175.1 170.2 170.2 173.2 181.4 190.9 201.4 211.9 217.1 219.3 220.3 220.7 221.8 220.9 218.7 217.7 218.9 221.6 228.6 244 256.6 262.6 266.7 275 280.8 282.5 283.7 283.3 283.4 282.6 281.5 280.2 279.9 279.2 277.1 274.9 272.2 269.5 266.3 263.2 261.2 259.4 257.5 255.4 252.8 249.4 245.4 242.1 239 233.9 224.8 216.7 206.6 199.4 191.4 181.3 166.3 152 138.4 131.9 126.8 121.7 121.7 121.6 121.7 125.9 133.7 139.5 148.6 151.6 160 173.9 185.6 195.4 205.5 213 216 218.1 217.9 215.3 210.1 206.7 203.3 195 183.4 191.7 200.4 202.8 199.8 196.1 196.9 198.8 197.7 190.7 184 186.9 199.7 209.1 217.6 227.3 234.6 239.9 242.9 247.2 249.1 257.6 265.2 271.6 277.4 284.7
447 455.3 464.6 472 476.3 473.1 464.9 452.4 439.9 430 422 404.2 391.3 381.3 372.7 365.6 359.8 354.1 347.5 342.6 337.7 333.2 327.9 324.3 319.6 315.2 309.7 303.5 297.8 292.4 286.4 282.3 276.4 271 263 256.9 255.8 256.7 257.5 258.8 259.2 256 253.9 251.9 249.4 248.3 253.6 264.7 275.1 286.5 296.6 307.3 319.5 327.9 339.7 351.4 357.3 351 342 330.6 320.7 315.4 310.5 306.3 304.2 302.9 303.1 302.7 301.3 300.9 301.2 302.1 304.6 306.8 306.4 306.1 305.5 302.8 298.7 292.5 279.5 263.9 251.8 238.7 227.6 219.6 209.9 202.9 191.9 182.3 175.8 171.1 168.3 170.9 176.4 184.8 194.4 203.6 211.8 214.1 215 216.3 217.8 218.1 216.4 218.9 220.5 221 230 241.8 253.9 260.7 266.3 275.7 282.1 284.8 285.3 283.3 283.1 283.1 281.9 280.6 278.9 277.5 276.1 274.8 274 271.7 267.8 264.1 261.2 258.9 257.1 254.9 251.7 248.4 244.3 240.9 238 233.3 225.8 216.5 206.8 198 190.7 181.3 171.3 156.1 140.7 128.4 124.5 122.7 120.9 120.9 121 124.2 130.1 135 145.1 149.8 160.5 173.9 185.9 196.8 207.1 214.3 217.1 218.3 218.8 217.1 211.4 206.6 203.2 199 196.7 181.9 188.6 194.7 193.2 191.8 191.1 193.5 191.6 186 176.2 184.4 197.7 208 216.6 224.8 230.2 235.3 238.2 241.5 248.1 258.4 265.7 273.6 279.6 285.8
444.2 450.9 459.5 465.9 472.6 473 469.1 456.5 447.8 438.3 423.1 404.2 391.8 380.3 371.5 365.4 358.8 352.3 346.2 340.7 335.8 331.1 327.5 324.7 321.2 317.1 312.2 306.5 301 296 289.1 282.4 277.2 273 267.1 261.8 256.3 251 248.9 248.7 249.1 248 247.9 246.5 245.1 243.6 244.5 252.6 263.2 273.2 287.3 292.9 306.7 314.4 333.8 346.3 344.5 340.1 335.9 326.8 316.7 310.6 306.1 304.4 305.4 307.1 307.8 308.2 308.3 308.3 308.9 310.4 312.5 313.3 311.6 309 307.5 304.4 301.2 292.3 282.3 267.1 253.8 240.8 228.2 219.8 211.9 204.7 194.8 182.7 174.8 171.5 169.1 166.8 171.8 180.1 186.9 196.5 204.2 208.4 211 212.7 214 215.1 215.5 217.4 219.4 219.9 230.9 242 249.1 257.3 265 271.4 278.1 281.1 283.2 282.3 284 282.8 281.6 280.5 279.3 276.8 275.7 275.5 276.6 274.7 271 266.3 261.9 259.4 256.5 254.2 250.7 247.6 243.4 239.5 236.5 232.1 226.1 217.1 207.5 199.7 193.7 185.8 176.9 163.8 146.2 130.5 123.8 121.6 121.1 120.3 120.5 120.9 125.2 132.9 143.1 147.1 159 170.9 185.5 197.2 207.3 214.7 217.6 218.3 219.1 218.1 213.6 207.2 203.2 199.4 195 194.2 182.6 178.4 178.9 181.5 184.6 186.2 187.5 182.5 172.6 180.9 195.3 205.2 214.9 220.8 226 232.1 234.2 237.6 247.3 257.7 266.2 274.5 280.5 287.2
442.7 448.5 455.2 463.5 470.1 473.9 468.3 456.7 449.4 435.3 416.5 400.3 388.6 377.5 368.8 360.8 354.1 347 340.8 334.8 328.4 321.8 322.9 323.2 320.8 317.7 313.8 308.8 304.2 298.6 290 278.3 272.8 274.5 268.7 264.9 259 252.2 248.4 245 240.6 238.8 240.3 241.7 241.3 239.4 236.8 241.8 251.6 258.8 272.5 282.5 291 306.4 322 326 329.1 328.6 328.2 322.4 312.4 305 301.9 303.4 306.6 309.8 310.7 312.5 314.1 314.6 314.4 314.5 315.1 315.1 311.4 307.3 305.3 303.2 299.6 290.2 279.2 267.2 254.8 241.1 229.1 219 212.1 203.3 195.3 184.9 179.1 173.4 169.5 164 169.6 173.6 181 186.4 193.9 201.6 206.4 209.7 211.2 212.5 213 211.6 212 218.3 236.5 246.5 252.8 259.5 265.2 266.4 272.5 277.3 279.9 279.9 281.4 281.3 281.1 279.8 277.8 275.6 275.8 276.3 278.1 276.8 273.3 268.7 263.3 259.6 256.4 253.3 250 246.1 243.1 238.5 235.1 232.5 227.8 219.5 209.8 203.2 194.3 185.4 178.3 168.4 151.7 136 126.7 122.5 121.5 119.8 119.9 120 123.3 130.1 139.2 144.7 156.2 169.4 183.2 196.3 206.5 214.3 218.1 218.1 219.3 219.3 217.4 209.6 204 199.3 194.3 191.6 191.8 188.3 177.4 170.9 178.2 179.4 181.5 179.2 167.6 177.3 192.2 201.5 210.5 217.1 221.5 226.5 228.4 237 246.3 254.3 264.8 275.3 283.2 286.9
437.5 445.3 454.1 462 467.7 471 465.4 457.4 441.1 425.6 409 395.5 383.5 373.8 365 357.6 349.4 341.8 332.8 322.9 305.5 294.6 305.4 306.6 310.9 312.5 309.5 306.1 305 294.8 277.1 270.2 270.6 269.5 262.8 260.9 260.2 256.7 254.1 249.3 244.2 240.3 237.9 235.3 234.9 235.4 233.1 234.2 239.9 247.3 255.6 266.9 278.8 284.7 295 304.5 311.2 312.8 314.4 311.1 304.7 298.2 299.2 304.9 307.2 308.6 309.5 310.3 311 311.5 311.5 311.9 311.3 309.5 306.3 304 302.4 299.9 295 285.5 276.1 266.8 256.7 240.3 229.6 218.1 211.2 204.3 198.5 187.8 181.3 177.2 169.6 166.2 168.5 170.3 174.9 180.1 186.9 195.1 201 205 207.3 209.4 210.7 208.9 205.8 217.3 236 251.5 256.7 257.8 261.8 262.1 268.2 273.1 275.1 276 275.9 277.3 278 276.4 275.4 274.4 276 279 279 278.1 275.5 271 265.1 260.8 258.7 253.7 249.4 245.3 241.6 238.8 235 231.8 227.8 221.2 212.3 204.2 195.2 186.2 178.3 169.3 155.4 139.9 130.1 124.4 121.4 119.1 119 119.2 120.4 126.3 132.7 140.3 152.9 167.8 180.8 194.3 204.3 212.5 217.4 218 219.1 221.4 220.4 215.1 206.4 200.3 195 189.7 186.7 187.5 183.5 175.8 170 175.5 175.3 174 161.8 172.6 186 196.8 206.5 213.6 217.1 220.4 225.7 233.1 243 253 262.9 275.3 277.9 281.1
430.5 438.7 447.9 454.6 459.3 461.5 457.4 447.2 432 416.7 402 388.6 376 366.6 359 351.3 343.7 336.1 322.1 304.7 291.5 290.3 288 284.4 286.7 288 288.9 287.9 289.1 281.7 272.7 275.8 273.5 272.9 266.8 258.7 264.4 265.6 260.2 253.9 248.6 244.6 241.3 237.2 232.1 230.5 227.6 228.3 232.8 237.8 243 250.8 261.6 270.1 275.3 281.1 291.8 296.4 297.8 297.8 293.7 292.1 296.2 302.1 303.4 303.2 302.9 303.4 304.1 305 305.6 305.8 304.8 303.3 302 300.1 297.4 293.5 289.2 281.6 271.8 263.5 254.5 240.7 229.1 218.5 209.2 204.4 199.1 188.2 182.8 180.2 171.7 166.9 165.9 168.4 169.6 174 180.7 188.9 195 199.2 202.6 205.8 207.7 207.7 206 217.7 235 248.2 255.5 255.2 257.2 261 265.4 268.7 270.5 272.1 271.8 273.2 274.3 274.5 273.7 274.2 278.9 279 279.3 279 277.4 273.5 269.5 265 262.7 257.5 251 245.7 241.5 240.4 235.5 230.7 226.5 220.4 212.5 202.2 193.3 186.1 178.5 169.4 156.8 142.3 131.4 126.1 121.4 116.1 117.8 118.3 118.6 124.3 128.4 136.5 148.7 163.7 177.2 191.6 202 210 215.4 216.9 220.2 224.3 224.8 222.1 215 208.6 200.6 193.4 188.5 183.8 181.2 177.3 172.5 170.6 173.1 170.1 159.6 166 181.1 195.5 202.6 207.3 212 215.7 221.9 229.7 240.2 250.1 261.1 267.2 271.2 280.9
421.9 427.1 434.3 439.7 439.7 439.7 438.7 428.6 418 405.6 391.9 378.4 366.1 355.9 348 341.2 334.8 323.9 309.2 293.9 301.1 306 304.2 299.7 293.1 286.2 281.3 279.2 276.9 277.7 280.7 283.1 283.2 281.1 278.7 279 277.3 270.8 265.1 260.2 255.4 249.9 245.3 240.4 236.4 232.3 228.5 225.8 226.2 230.6 233.9 238.1 247 254.9 260.3 266.7 275.6 279.7 281 283.2 284.5 285.5 289.3 294.9 296.2 295.6 295.7 296.3 297.2 298.1 299.2 299.3 298.5 298.3 296.9 293.1 288.2 283.3 279 271.3 263.1 255.1 247.6 239 228.7 218.5 209.9 204.7 197.6 189 182.5 183.6 175.7 168.2 161.1 165.2 167.6 168.6 174.8 182.7 188.7 193.3 197.4 201.2 203.7 204.8 204.8 215.8 230.8 239 249.7 251.6 254.3 258.4 261.6 265.3 268.1 269.8 268.4 267.8 269.7 271.2 270.6 273.3 276.3 278.2 278.9 279.5 278.7 275.8 272.5 269.4 266.2 260.4 252.7 246.9 241.4 239.4 235.8 230 226.1 221.1 212.6 197.8 190.6 184.5 176.5 168.9 162 149.6 136 125.7 121.3 117.7 117.7 118.2 117.9 122.1 126.2 132.4 145.3 161.2 175.1 188.5 199.6 207.5 212.5 214.7 219.9 226.7 229.2 229.4 226.3 221.7 214.7 204.2 195.4 188.3 182.1 176.8 172.1 168.6 167.5 168.3 161.1 161.7 175 189.6 199.4 203.1 207.1 210.1 216.5 225.6 235.7 246 254 261.1 266.6 280.5
411.5 414.4 416.8 417.5 419 419.2 415.5 408.7 400.6 389.9 379.5 366.8 352.2 335.8 327.1 326.5 320 306.6 295.8 297.1 317.5 321.1 318.6 316.2 312.2 307.5 301.8 295.2 294.3 292.3 288.6 290 291.9 290.9 288 287.7 283.4 276.9 272.5 267.7 261.7 255.8 250.4 246 241.9 237.1 234.3 230.9 226 221.4 223.4 228.6 236.1 240.9 244.5 250.8 259 268 270.5 273.1 275.5 277.8 281.9 288.6 289.5 289.2 289.6 290.6 291.5 292.2 293 292.7 291.1 290.9 288.5 283.7 277.5 271.5 266.8 260.1 253.2 246.3 241 235.7 223.7 215.4 208.8 204 195.3 191 182.9 183.3 179.3 169.3 164.3 164 165.3 166.5 169.9 177.7 182.5 187.6 192.2 195.8 198.2 198.2 201 210.2 223.3 233.6 243.2 250 252.6 258.5 260 261.7 263.8 267.6 267.7 263.9 264.9 266.5 268.3 270.5 273.8 277 278.1 279.4 279.8 277.5 274.6 271.6 269.3 263.3 254.6 248.1 242.1 237.7 234.4 230.5 227.4 223.1 214.7 205.4 193.3 184.4 176.9 170.2 163 151.2 137.7 127.4 122.1 116 117.5 117.3 117.2 119.3 124 128.3 143 158.7 170.5 184.4 196.3 204.7 209.2 212.7 220 230.2 235 236.9 236 232.6 224.8 213.5 202.8 193.3 186 179.8 173.9 167.9 165 162.2 154.4 156.6 173.2 187 195 199.5 203.3 204 210.7 218.7 228.9 238.3 248.5 254.8 263.8 278.2
402.3 403.8 405.1 403.4 402.9 397.9 391.9 385.4 380.4 375.9 368.3 352.8 332.3 321.2 315.5 307.9 302.2 298.5 298.3 317.8 328.6 330.8 331.7 329.5 325 318.9 313.2 310.8 307.6 301.9 297 291.5 295.7 295.4 292.8 290.7 286.7 282.8 277.8 272.7 267.7 262.9 257.7 252.7 247.7 241.2 236.9 235.2 232.1 228.3 220.4 219.3 225.7 229.7 232 236.2 241.2 254.9 260.2 262.9 267.2 270.1 274.4 280.6 283.4 284 283.9 284.1 284.6 285.1 285.6 285.3 282.6 281.2 278.8 273.2 265.5 260.4 255.9 249 241.6 235 233.3 230 216.7 208.7 206.4 200.7 194.3 190 184 183 182.7 172.8 165.7 160.2 163.8 165 166.2 170.3 178.5 182.4 186.6 190.4 190.7 191.5 196.8 205.3 218.4 231.6 240.9 247.2 248.8 253.2 257.8 258.6 259.8 264.7 265.4 262.1 260.8 264.5 265.9 268 272.4 275.4 277.6 278.8 279.8 279 276.2 272.7 269.9 265.4 257.7 249.4 243.1 237.3 233.2 229.8 228.9 224 214.8 205.1 195.8 185.1 177.6 170.8 165.4 154.6 141.4 128.9 122.4 117.3 116.5 116.5 117 117.1 121 125.2 137.2 149.8 161.6 175.5 191 200.5 204.9 209.7 219.5 231.9 240.7 245 244.9 242.1 234.9 221.5 206.8 196.8 188.2 181.1 173.7 167.4 162.3 162.7 152.5 155.1 168.3 180.6 187.8 192.5 196.6 198.5 204 213.4 222.1 231.2 240.8 247.1 259.2 277.6
395.7 396 392.3 386 381.7 372.5 371.8 369.1 366.2 362.4 354.8 339.1 325.4 332.7 325.5 320.7 305.1 305.1 321.7 332.7 335.2 336.1 336.4 334.8 331.6 328.5 323.5 319.5 314.4 309.6 304 297.9 297.3 297.7 296 293.1 290.8 287.5 284 279.5 274.7 270.1 265 258.5 252.6 246.8 241.1 235.3 231.9 230.3 226.2 220.9 217.1 220.3 223 225.9 229.4 237.7 247.7 253.1 258.4 262.4 266.1 270.4 274.4 278 276.7 276.9 276.4 276.1 276.1 273.8 272 269.3 265.6 259.8 253.1 248.6 243.6 237.3 227.7 219.3 221.1 218.1 207.9 201.1 201.1 194.9 189.7 183.1 185 181.2 182 176.6 169.3 164.1 162.3 163.3 164.7 165.4 171.1 176.9 179.7 182.8 183.7 187 191.3 201 212.5 223.9 234.3 239.6 242.7 245.4 250.4 254.4 257.5 261.3 261 258.4 256.8 260.4 262.8 265.4 271.7 274.2 276.5 278.3 279.7 279.3 277.8 274.5 270.6 266.6 261.2 251.5 245.3 240.4 233.8 229.8 228.4 223.3 213.6 206.6 194.4 185.5 177.7 169.7 163.9 153.7 143.5 131.4 122.1 117.2 115.3 116.4 116.9 116.8 116.8 121.9 133.5 143.3 153.4 168.7 186.3 196.6 200.3 205.7 217.5 233 243.9 250.3 251.7 251.3 245.3 227 210.7 198.7 189.6 181.7 174.3 167 160.8 158.7 152.5 153.8 163.9 171.7 179.7 185.6 188.7 191.6 198.1 205.3 214.7 224.1 232.5 242.3 255.2 272.6
387.8 386 384.9 380.4 378.4 370.5 357.3 345.3 348.3 344.3 336.2 327.3 338.2 342 335.2 326.9 332.9 341.2 346.9 346.7 344.3 344 343.4 341.1 338.5 334 329.8 326.5 320.4 314.4 310.9 305.5 301 300.9 299.8 296.9 294.8 293.3 290.4 286.6 282.2 277.5 272 266.6 259.8 252.3 245.3 238.9 233.1 229 226.4 220.9 214.4 213.4 213.1 214.5 218.7 224.2 231.5 239.8 246.9 253.1 255.9 259.7 263.1 266.5 267.6 267.9 267.2 266.4 265.3 261.8 257.8 255.5 251.2 246.1 239.9 234.4 227.7 221.5 212.6 207.6 205.1 202.8 198.2 191.1 188.5 185 179.8 177.3 179 177.8 180.4 177.9 168.1 165.1 162.1 161.1 162.5 164.4 165.1 169.8 173.3 175.4 182.3 184.9 188.1 195.2 205.8 215.9 225.7 231.2 235.9 239.3 244.7 253.6 257.5 254.8 254 254.5 253.2 255.7 258.7 262.2 268.2 273 276.3 278.1 279 278.9 278.5 276.2 272.6 268.5 264.3 256.1 248.8 243.8 233.8 227.6 225 220.8 214.1 206 195.9 186.4 179.2 171 166.5 159.5 148.6 136 123.3 116.4 116.3 116.6 116.8 116.4 116.3 119.8 131.9 139.4 147.3 162 179.9 191.4 195.8 202.6 215.8 232.1 244.8 252.5 254.5 255.9 249.8 230.3 213.3 200.3 190.7 182.3 175 167.8 160.8 152.9 147.2 150 158.7 164.2 171.9 179.1 182.9 185.4 190.7 198.5 206.3 216.3 226.6 235.5 247.6 264.3
394.8 394.9 395.7 396.3 393.5 384.6 369 349.6 337.1 335.2 333.2 342.6 352.7 356.7 346.8 356.5 363 366.4 364 361.4 357.1 354.3 349.8 346.9 343.3 339 334.5 330.3 325.5 320.8 317.1 309.3 306.9 305.7 304.1 301.7 299.9 298.4 295.6 292.4 289.1 285.4 280.3 274.9 268.8 259.9 251.5 243.6 236.2 230.1 224.8 220.5 215 212.3 211 209.9 211.9 212.8 218.1 226.6 232.5 239.2 243.9 247.5 251.7 253.8 256.1 256.5 255.9 255 254.2 251.2 245.9 242.9 237.6 231 225.6 220.6 213.6 207.9 200.4 194.9 192.7 188.3 183.8 177.8 177 174 171.6 170.7 169.6 170.6 173.1 170.4 166.1 162.9 162.2 161 161.8 162.1 163.8 164.6 168.2 171.8 176.8 180.5 184.3 190.6 197.9 206.8 215.9 222.9 229 233 243.5 248.9 249.3 247.7 249.4 249.7 248.1 250.9 255.3 259.2 264.7 271.5 276.7 278.5 279.6 279.2 278.7 277.9 275 270.5 268.7 260.9 255.1 248 238.1 227.5 224 220.1 215 206.4 198.7 186.8 181.3 173.4 165.8 159 148.9 135.5 123.5 114.9 115.8 116.2 116.5 116.3 116.1 117.3 128.2 136.2 142.8 155.4 173 187.3 192.2 198.5 212 230.2 243 252 253.8 254.8 249.2 232.9 215.4 201.4 191.7 183 175.1 167.4 159.8 151.3 151.3 147.7 154.7 160.3 165.2 172.1 175.3 178.1 181 192 198.6 210 219.7 228.3 240.9 253
401 402.8 403.8 407 410.3 398.2 384.5 371 360.5 358.1 360.3 368.8 372.9 372.5 375 378.8 386.4 381.5 373 367.4 364 359.1 353.5 348.6 344.7 341.6 337.4 332.7 329.2 323.4 318.1 315.6 312.2 310.5 308.4 306.2 304 302.2 300.4 298.8 296.9 295.3 290.9 284.8 277.3 270.3 261.3 252 244.6 236.4 229.6 224.7 218.2 214.9 213.2 212 211.4 210 209.3 215.1 219.8 224.3 228.1 230.4 234.2 238.9 241.5 242.4 242 241.5 240.6 240.1 235.7 230.5 224.9 220.4 213.4 208.3 205.9 197.8 191.8 187.3 183.3 179.1 175.3 173.5 171.8 170.1 168.4 168 167.2 166.5 166 165.1 164.5 163.3 163.4 162.5 157.8 161.1 162.1 163.3 164.1 167 171.6 175.2 179.3 183.9 190.7 198.4 205.6 212.2 218.4 224.6 231.1 237.1 240.6 243 244.3 242.5 242.8 245.5 251.1 256 262.3 269.9 276.8 280.4 282 283.6 280.7 278.6 277.7 273.8 273.1 265.3 261.3 252.1 241.4 229.3 222.5 217.4 212.1 205.6 197.1 189 181.7 174 164.9 156.4 145.9 133.8 125 117.5 115.2 115.8 116 115.9 115.8 116 125.1 134.3 141.2 152.4 167 180.1 186.5 193.6 206.8 226.5 238.8 249.6 251.4 249.8 245.8 233.4 216 201.9 191.5 182.6 173.7 165.8 158.7 152.8 145.9 145.5 149 155.8 160.2 162.9 168.1 170 174.6 180.4 193.4 204.1 212.5 220.8 231.5 243.4
406.4 408.1 411.6 416 421.4 410.3 399.1 391.7 385.5 383.3 388.4 391.2 390.5 395 396.8 396.8 398.9 390.4 380.6 372.7 366 360.5 355.4 351.7 347.5 343.9 340.2 336.3 330.4 328.2 324.5 319 316.1 313.6 311.7 310.3 308.9 308.5 307.8 306.5 305 304 301.2 298.2 290.4 282.2 273.7 263.2 254.9 248.7 240.9 234.4 230.3 225.9 220.7 217.8 217.2 216.3 212 208.1 208.8 212.6 213.7 215 216.4 219.9 222.6 223.8 224 224.3 225.4 226.1 222 216.6 213.5 210 203.7 199.9 196.1 191.1 184.6 178.8 176.5 175.3 174.9 175.2 173.2 172.2 172.2 173.5 173.6 173.2 172.7 170.5 166.6 164.2 162.4 165.4 162.2 157.1 160.1 161.1 163.1 163.5 167.8 170.8 173.3 177.4 181.6 187 192.9 199.6 206.8 213 219.2 226.3 231.2 234.8 237.3 236.8 237.6 241.4 246.7 253 261.3 270.6 277.1 284.4 285.2 285.2 282.8 278.3 277 274.5 273.1 268 262.2 254.1 244.3 231.9 222.4 216.8 212.1 206 197.3 190.8 182.8 174.3 165.1 156.9 147.5 136.7 125 119.2 113.4 115.2 115.5 115.4 115.3 115.6 122.8 130.5 139.8 150.8 161.5 171.5 182.6 190.1 201.3 221.1 234.3 246.2 247.3 245.1 240.8 231 215.6 200.6 190.1 181 172.4 164.9 158.3 153.5 145.4 140.6 148.4 152.9 158.1 158.8 160.3 161.4 167.7 174.6 184.5 196.9 205.2 212.7 223.2 234.2
410.9 413.5 418.7 423.6 425.6 420.3 415.9 412 408 405.7 410.6 410 415.1 417.5 412.6 405.2 404.2 396.9 386.5 379.3 370.6 363.4 358.8 354.1 350 345.8 342 337.3 336.4 332.5 329.3 324.3 319.9 317.7 317.1 316.1 315 315.2 313.9 312.8 311.7 311.1 312.1 309.6 303 293.5 282.8 274.2 265.2 258.3 251.5 248 242.3 237.4 234 230.8 227.1 221.3 218 212 206.3 204.9 204.5 203.7 203.3 203.2 203.5 205.6 207.7 208.9 210.6 210.9 208.7 205.3 201.8 200.6 194 191.7 183.4 178.6 177.6 177 178.5 179.4 179.2 178.4 177 178.8 181.6 182.3 181.4 183.1 184 181.5 177.4 170.6 168 165.4 165.9 162 158.8 159.8 160.5 160.8 161.6 162.7 167 170.1 174.2 177.3 182 186.7 193.8 199.5 205.3 212.9 221.4 227 230.9 231.2 232.3 237.7 242.6 253 262.5 268.9 276.6 286.3 285.2 284.3 281 276.6 275.5 273.9 271.8 267.6 261.7 254.2 246.3 237 228.2 217.3 211.5 205.8 198.4 191 182.5 173.8 167.5 159 148.3 139.2 127.4 120 115.1 114.7 115.2 115.1 114.9 115.2 120 126.4 136.7 148.6 158.1 168.8 179.8 185.6 195.8 214.6 228.6 240.7 242.7 240 235.6 227.3 213.3 199.2 188.6 179.6 171.2 164.3 157.8 153.1 145.4 137.8 146.3 151.1 158.5 157.2 158.1 156.1 160.3 166.6 175.2 184.8 197.6 206.4 216.2 225.2
413.1 417.6 425 428.3 431.7 432.9 436.2 432 426.9 426.2 429.3 432.4 430.5 430.6 422.2 414.5 408.3 400.5 391.2 383 374.1 368.1 365.5 359.6 352.6 348.4 343.7 343.5 341 338.2 335 330.3 325.9 324.3 322.8 322.5 321.1 320.8 320.9 319 318 319.3 319.7 316.7 309.2 301.1 290.7 286.5 277.1 269.7 264.4 259.2 252.9 248.1 245.6 242.3 236.9 231.6 226.9 221.2 215.2 208.5 203.6 201.7 199.9 198.7 197.7 197.9 198.4 198.9 200.2 201 200.1 197.9 195.3 192.9 187.5 183.5 179.9 179.1 181.5 183.5 186 186.8 186.8 186 187.4 190.3 192.9 192.9 192.2 192.9 195.1 195.6 193.1 188.5 183.9 177.8 173.2 166.7 161.4 156.2 158.4 158.5 158.4 159.5 160.3 161.1 164.1 168.1 171 175.8 181.5 185.6 193.1 199.4 209.4 217.2 222.6 225.3 227.5 233.4 239.1 246.4 256.1 264.5 272.3 280.4 282.7 282.4 279.1 276.1 274.7 273.4 270.7 265.2 261.3 253.7 247.3 238.7 230.8 217.2 210.1 206.2 198.5 190.6 183.5 175.4 168.4 158.3 149.1 142.1 134.2 123.3 114.9 114.5 114.9 114.6 114.3 114.4 118.1 123 131.2 142.8 154.1 164.4 174.8 182.5 191.3 207.8 222.7 232.7 237 234.4 229.3 222 209.3 197.4 186.9 178 170.2 163 156.5 149.1 142.6 137.1 143.4 148.3 156.2 155.1 155.2 155.1 157.8 161.3 170.1 178.4 190.6 200.6 210.4 217.2
414.5 420 427.8 430.4 433 437.9 442.8 443.9 443.9 443.1 445 441 439.3 435.4 425.4 418.1 409.2 401.5 391.4 382.2 375.9 371.7 367.4 362.3 357.2 350.7 348 347.4 345.5 342.6 339.3 335.4 332.3 329.6 327.3 327 326 325.7 326 325.8 326.3 328 327.5 324.6 315.8 307.5 304.2 298.6 290.6 282 276.1 272.6 268.8 264.6 260.6 255.7 250 243.5 237.8 232.5 227.4 219.5 211.1 205.8 200.3 196.9 195.5 194.7 194.5 194.5 194.9 194.7 193.6 191.5 190.5 189.9 187 184.1 181.1 185.9 187.6 189.8 193.4 193.7 195 197.2 199.8 201.5 205.1 206.5 205.5 206.5 209.8 211.2 208.4 203.7 199.3 193.8 186.2 179.2 169.5 161.2 158.7 155.6 157.6 157.7 157.5 157.9 158.3 158.1 159.4 165 170.5 173.9 179.9 187.1 197.5 206.7 213.9 219 222.5 227.9 236.5 241.4 250.8 258.3 266 273.1 279.1 282.9 281.8 278.6 276.1 275.5 272.3 263.3 258.3 253.9 246.1 238.5 229.3 218.6 209.4 204.7 199.5 191.2 183.2 176.2 165.7 158.5 149 142.1 135 125.1 115.9 113.9 113.8 113.6 113.8 114.1 116.2 120.7 127.2 137 149.8 160.7 171.7 178.7 186.7 201.4 216.2 224.7 229.8 227 220.7 214.7 205.3 193.9 184.4 176.3 168.7 159.5 150.9 144.2 143.2 136.9 140.1 147.4 156.1 154.9 151.1 151.7 151.9 155.2 164.9 174.8 184 192.2 201 207.1
415 421 428.5 429.7 432.1 438.1 444.8 448.7 450.5 456 451 443.2 445.8 438 428.6 419.6 409.5 403.2 390.2 382.3 376.7 372.7 368 363.1 357.5 351.4 352.4 351.2 349.1 346.1 342.9 340.3 336.8 333.9 331.6 331.4 330.2 330.1 330.3 332.1 332.2 332.7 330.3 325.7 319.1 314.8 310.7 303.8 298.2 294.3 291.3 290.5 286.7 283.2 277.1 271.8 266.2 259.9 254 248.2 241.4 233.5 224.2 214.5 208.8 202.2 196.7 194.1 192.7 191.8 190.9 190.4 189.1 187.2 184.5 183.9 183.7 183.3 191.1 196.6 198.3 200 199.5 204.1 207.4 211.4 212.7 216.2 221 221 219.3 221.7 224.5 223.3 219.8 215.7 211.5 205.7 197.2 189 180.2 172.4 163 159.6 154 154 155.4 155.1 154.9 155.4 155.9 158.3 160.3 163.8 168.8 175.7 185.9 197.2 206.7 213.1 217.6 222.2 229.9 237.1 245.9 252.5 259.3 267.2 275.1 280.9 283.2 279.4 275.6 275.3 271.8 262.8 255.1 252.1 244.4 237.7 228.4 218.7 210.9 204.2 196.7 191.4 183.7 176.5 167 160.1 151.2 141.3 135.6 125 116.5 113.4 113.3 113.2 113.2 113.4 114.9 119.1 124.2 133.6 146.7 157.2 167.7 175.1 181.5 195.2 208.8 216.2 222.2 220.2 213.5 208.3 199.9 191.2 181.6 173.7 165.4 156.5 149.3 142.4 137.8 134.1 137.4 150 159.1 155.4 150.7 149.2 146.2 148 157.4 168 177.4 184 191.1 196.6
413.6 418.7 423.1 426.5 431.7 440 446.2 452.8 460.8 458.8 448.9 449.8 444.6 437.7 428.1 418.4 410.5 399.6 389.9 383.4 378.3 372.6 367.3 362.7 359.1 356.7 357.3 356.3 352.6 349.2 346.3 345.4 341.9 338.7 336.4 335.9 334.5 334.7 335.9 335.5 335 334.8 330.8 325.6 321.2 319 315.8 310.2 307.6 308 305.6 306.1 307.9 305.5 299.4 292.3 285.3 278.3 271.8 265.1 257.4 249.7 241 228.9 217.6 210.9 204.5 199.9 196.7 194.3 195.5 195.3 193.6 194.3 195.5 196.3 196.1 197.9 203.4 208 212.7 213.9 215.9 214.3 218.8 222.4 224.4 227.7 232.4 230.9 229.5 232.2 233.3 231.5 228 224 218.5 212.6 206 198.9 190.7 182.6 175.2 163.5 161.4 158.1 157.1 155.5 154.6 150.5 149.8 152.9 155.9 157.6 160.7 166.4 174.8 184 198.2 206.4 212 217.6 225.9 231.9 236.8 245.1 252.2 261.2 269.3 274.2 277.3 277.6 273.8 271.5 269.6 262 253.7 249.6 243 236.1 227.1 219.5 211.6 202.4 197.5 192 184.7 176.3 168.1 159.9 151.8 141.4 134.4 126.2 118 113.5 112.9 112.9 112.9 112.9 113.5 118.5 121.9 130.3 144.1 153.9 162.4 171.3 177 189.3 202.2 209.5 215 214.5 207.3 200.5 194.5 187.8 179.3 171.3 163.8 156.2 148.4 141 134.6 131.6 134.4 143.7 153.9 152.3 148.6 145.4 142.3 142.5 151.7 163.5 171.3 177.4 184.1 189.2
412.4 416 419.8 423.9 428.3 436.9 448.2 454.3 462.5 459.7 458.8 455 445.7 437.3 428.8 419 406.4 396.5 391.2 384.1 378.4 372.8 367.1 367.1 363.2 361.6 362.4 360.2 356 352.2 350.2 349.1 346.1 342.9 340.2 339.2 337.7 339.4 339.4 338.2 336.4 334.2 330 327.8 325 322.6 320.9 320.4 320.2 318.9 318.2 320.4 325.3 327.9 322.9 313.9 305.7 298.1 290.8 283.3 274.4 267.7 260.2 245.3 230.9 222.3 217.5 211.8 206.9 204.6 204.3 202.7 202.6 206.6 209.9 210.8 209.9 213.1 216.2 219.8 222.4 225.5 228.2 224 224 229.7 234.5 235.4 236.8 236.2 236.2 238.5 239 238 233.9 228.7 223.5 217.9 212.6 208.1 202 193.9 186.6 179.5 172.1 160.9 158.6 156.9 156 154.7 154.3 150.2 152.8 153.8 155.8 159.6 166.4 175.8 185.8 195.8 204.4 211.4 218.9 225.5 230.2 235.8 241.9 249.9 258.3 265.5 271.7 275 272.1 267.9 265.8 260.6 251.5 246.9 242 235.3 227.9 219.5 211.6 204 197.5 191.6 183.6 175.9 168 159.7 151.6 141.7 134.2 126.5 118.7 113.4 112.6 112.5 112.5 112.4 113 118.2 120 126.1 137.7 148.6 157.8 167.1 172.9 183.2 194.5 202.7 206.2 206 201.1 194.6 188.7 183.3 176.1 168 161.4 154.2 146.7 139.1 131.1 127.7 130.9 137.9 148.6 148.9 144.1 139.7 139.1 138.7 148.1 159 166.5 171.4 177.4 182.5
409.1 413.1 416.3 420 425.1 435.7 444.6 446.6 454.7 455.5 458.5 452.7 446.7 437.4 427.1 415.1 407.7 400.4 392.7 383.8 377.2 372 370.7 370.3 367.9 366.6 366.4 363.6 360.7 357.1 354.7 352.5 349.8 349.2 345.1 341.1 339.9 339.8 339.9 339.6 336.8 332.3 330 329.2 328.1 325.7 326.3 329.5 332.2 332.9 332.3 335.8 340.3 342.6 341.5 331.7 323.1 316.2 308.7 300.2 289.6 284.4 280.9 264.6 247.4 235.5 229.1 224.2 218.1 213.9 212.6 213.7 217 219.9 222.7 222.4 224.4 227.3 229.7 233.2 235 238.6 238.9 238.2 237 235.9 238 238.3 239.5 240.9 240.4 241.8 242.3 241.2 237.4 232.8 228.1 223.8 219.7 215.8 211.5 204.8 196.5 189.3 183.4 176.3 167.6 160 156.6 155 153.2 152.5 152.9 150.9 152.2 155.8 159.6 166.5 175.5 186.8 198.8 206 212.6 219.1 222.9 226.9 230.4 240.3 249.8 258.8 266.8 270 268.6 264.9 262.1 258.7 251.2 244.6 239.2 233.5 226.7 218.4 210.6 204.1 197.6 190.8 183.5 175.6 168.1 160.5 152.1 142.7 135.1 126.3 118.2 113.5 112.2 112.1 112 112 113.5 117 118.8 122.2 130.5 143.7 153.6 162.6 168.9 177.9 188.2 195.5 198.9 197.6 194.6 189.1 184.2 179.5 172.8 165.2 158.9 150.3 142.7 135.4 128.6 125.6 128.1 134.6 145.5 143.8 138.7 137.5 136.5 136.2 144.3 155.5 164.4 169.1 173 176.7
406.3 409.8 412.8 416 421.4 430 434.7 438.4 445.6 451 451.5 449.4 445.6 438.8 427.1 416.9 412.1 406.1 394.9 385.3 378.7 376.5 374.5 372.3 371 371.7 369.7 367.6 365.3 363.8 360.1 356.5 353.3 352.4 348.5 342.7 339.8 338.7 338.8 338 334.7 330.9 330.1 330.2 329.8 329.8 333.3 337.3 340.7 342.8 343.4 346.6 352.3 354.6 354.9 345.4 338.8 332.2 322.3 314.8 304.4 297.5 290.4 274 259.3 247.4 240.4 234.9 227.6 224.9 226.6 229.4 232 233.3 233.3 233 236.3 235.8 240.4 246.5 246.5 247.9 249.7 251.3 252.8 249.8 245.6 243.3 245 245.3 244.4 243.3 243.6 242.2 239.4 236.3 232.8 229.8 226.5 222.7 219.2 214.2 206.5 198.1 192 185.6 177.5 170.4 161.9 158.7 155 153.1 152.6 151.8 149.3 152.5 155.3 158.2 168.1 177.8 189.2 197.7 204.7 211.2 217.4 221.7 230.8 241.1 247.5 252 258 262.2 263.6 260.5 259 257.2 250.6 241.8 237.8 231.3 225.1 217.6 210.6 204.1 197.3 189.6 183.2 175.5 168.4 161.8 154.3 145.2 138.4 129.7 120.6 114.1 111.7 111.6 111.5 111.5 111.9 114.7 116.9 119.7 125.8 140 149.6 157.8 165.1 173.1 182.3 188.6 192.3 191.5 188.6 182.4 177.5 174.2 168.8 162.8 155.3 146.9 139.8 131.9 127.5 127.1 127.4 132 140.1 138.8 136.7 138 134.2 133.6 140.8 152.8 161.5 166.6 169.8 172.4
403.4 406.5 410.1 413.1 417 422.2 427.4 433.9 439.9 443.6 445.4 442.6 439.6 434.1 424 419.8 417.3 408.8 398 387.8 383.7 381.2 377.9 374.9 375.6 376.2 374 374.3 374.3 372.2 367.8 361.4 354.8 352.4 348.3 343.6 340.4 338.3 336.4 334.5 331.7 330.5 329.6 330.8 331.3 333.5 338.2 342.2 345.1 347 348.8 351.1 354.4 355.7 356.5 354.9 348.8 340.8 331.4 324.6 314.9 303.1 293.1 278.8 265.8 255 249 242.1 237.5 239.4 241.8 243.4 243.7 243.2 242.4 244.5 245.8 247.7 250.8 255.6 255.4 259.3 261.1 261.7 259.7 256.8 256.6 254.7 251.9 254.4 248.8 244.9 244.9 243.4 241.5 239.1 236.5 234.8 233.1 229.8 226.2 222.1 215 206.3 197.5 192.6 192.6 186.9 178.5 168.9 158 155 153.2 151.7 151.4 150.2 152.5 154.9 158.4 168.1 177.5 184.5 196.4 205.7 211.9 217.2 229.3 229.6 235.3 243.3 252.8 258.1 256.5 256 254.7 253.7 248.9 239.4 234.4 229.1 223.2 217 210.9 204.5 197.3 190.1 183.1 176.5 169.2 163 155.9 149 141.7 131.1 124.4 116.4 111.3 111.2 111.1 111.1 110.9 112.8 115 118.1 122.6 133.8 144.7 152.8 160.7 167.9 176.3 181.9 185.9 184.7 181.8 175.7 170.9 167.8 163.6 158.7 152 144.4 136.5 130.1 125.9 126.2 126.7 130.2 134.4 136.3 134.1 133.4 131.4 131.8 139.1 150.2 158.8 162.5 165.5 168.4
400.1 403.6 407.5 411.1 414.6 419.6 424.4 429.9 435.6 439.9 440.7 442.1 440.9 432.6 424.3 421.7 419 409 398.3 392.6 390.6 386 380.2 380.6 381.4 382.5 383.7 383.5 383.6 381.6 372.6 363.9 355.9 351.2 346.7 342.8 341.1 338.9 334.6 331.8 329.8 329.2 329.1 331 332.1 334.4 337.7 340.7 344.7 346.7 347.5 347.8 348.2 349.9 355.1 357.6 351.6 345.3 337.4 328.9 319.8 307.4 297.1 284.6 272 261.5 255.3 249.1 248 250.3 252.9 252 252.7 253.8 254 254.8 256 260.2 262.6 266.6 269.3 269.2 270.6 270.4 267.3 265.8 264.9 264.3 261.3 259.1 253.1 247.6 246 245.5 243.7 241.8 239.8 240.2 239.3 236.3 232 227.5 221.5 214.7 206.3 204.9 205.1 201.8 191.5 178.9 167.3 158.7 154.6 153.6 150.7 150.5 150 151.3 153.7 157.6 168.9 176.3 188.5 197.7 205.5 211.8 218.3 219.5 228.3 232.3 240.8 249.3 249.6 250.1 249.7 249.8 245.7 237.6 231.9 228.4 222.6 216.8 212 206.2 196.7 189.9 183.5 177.3 169.4 163.2 156.1 147.9 139.2 130.3 122.8 117.6 109.8 110.9 110.8 110.6 110.4 110.6 112.7 116.5 120.1 130.9 139.7 147.4 156.2 163.1 169.8 175.2 179.2 177.3 174.5 168.8 164.3 161.4 158.6 155.2 149 141.9 134 129 124.3 124.9 125.9 129.7 131.8 133.7 131 129.7 129.8 131.4 139.1 150.4 157.7 158.1 161.1 164.1
397.2 401.2 405.2 408.9 412.8 417.2 422 426.5 431.8 435.5 438 440.6 438.2 430.8 425.3 422.8 416.6 406.4 402.2 398.1 394 387.1 387.5 387.8 389.6 392.3 392.9 394 393.8 385.6 377.4 368.6 357.6 349.5 344.7 341.3 339.5 336.5 332.3 329.5 328.2 327.2 326.3 328.7 330.4 332.3 335.2 338.1 341.7 343.1 342.4 341.5 341 341.5 347.2 352.1 351.3 345.5 337.1 327.6 319.3 308.8 298.8 288.9 276.8 266.3 261.5 257.1 255.1 255.3 256 258.6 261.2 262.5 264 264.6 266.6 270 273.5 277.2 279.3 279 278.9 278.8 275.4 274.2 274.7 275.5 268.7 264.4 258.4 252.1 249 247.9 246.1 244.4 243.8 244 244 240.5 236.7 232.3 226.8 221.4 217.9 215.7 216 213.4 204.3 191.6 177.7 165.4 157 152.8 153 150.5 150 149.7 151.4 153 160.3 168.5 179.1 188.6 194.7 201.9 208.4 216.6 221.4 225.8 236.8 240.1 242.9 244.6 245.3 245.9 242.3 236 229.9 226.3 221.2 216.7 211.6 206.2 196.6 189.6 183.5 176.7 169.9 164.2 154.2 145.7 136.3 127.4 120.8 116.2 110.8 110.4 110.5 110.3 109.7 109.6 110.8 113.8 118.1 126.6 137.1 142.5 150.8 156.8 163.2 168.7 172.3 170.8 167.3 161.2 158.5 155.9 153.9 151.9 147.2 140.3 133 127.7 123.6 123.6 124.4 128.4 129.7 129.6 127.2 128.4 128.7 132.2 140.2 150.5 154.1 155.8 157.3 159.9
395.2 399.2 403.1 407.3 411.6 416 419.9 423.9 428.6 432.6 435.5 437.3 435.4 429.5 423.9 420.7 414.3 410.2 406.6 400.5 394.6 394.9 394.5 396.4 399.5 400.9 401.1 398.9 394 387.9 378.7 369.3 358.4 350.4 344 340.6 337.2 333.4 330.4 327.4 325.9 326 323.3 323.6 325.4 328.4 331.4 334.2 337.9 338 336.1 335.3 333.9 333.6 336.3 341.5 343.8 340.4 333.5 325.9 319.1 309.5 300 290.8 279.9 269.1 265.8 263.5 260 261.1 264.3 266.6 267.5 270 273 275.8 278.1 279.9 285.5 288.2 289.3 288.6 283.6 282.8 282.3 285.3 284.7 282.3 277.5 272 261.7 256.3 252.6 250.8 249.3 248.1 247.6 247.1 245.6 243.2 239.5 235.3 229.8 227 225.4 224.9 226.5 225.4 216.3 204.3 191.3 174 164.8 155.1 152.9 152.6 150.6 149.6 148.9 151.1 153.5 162.5 170.1 180.3 187.8 194.2 203.8 212.7 217.7 223.4 226.7 234.4 240.6 240.2 237.6 239.9 238.2 234.4 228.2 224.1 220.1 215.6 209.5 205.1 196.2 189.3 182.3 176.9 172.1 162.7 154.2 145 137.3 129.5 120.9 115.8 112.2 109 109.8 109.8 109.3 109.2 109.2 111 116 124.1 134.3 138.2 145.2 150.8 156.9 162.7 165.5 164.2 159.5 153.9 151 149.7 148.8 148.1 144.7 138.3 130.9 126 122.4 122.5 123.7 127.4 129.5 125.8 126 128 127.8 133.8 140.3 148.5 150.3 152.9 155.1 157.5
393.2 397.2 401.8 406.8 412 415.4 418.5 422.7 426.7 429.7 431.2 431 429.7 426.1 422 418.2 413.9 412.2 410.5 405.1 404.4 403.2 403.4 405.3 407.4 407.4 404.2 400.2 396.5 386.8 376.7 367.9 358.2 349.3 342.7 339.1 335.2 331.2 328.2 327.4 324.5 323.1 320.2 318.8 320.5 323.2 325.6 328.5 331.2 330.4 328.8 327.4 326.5 325.9 327.5 329.7 330.9 329.8 326.4 322.4 318.4 309.8 300.5 292.6 284.2 274 269.5 267 266.3 266.8 268.9 269.1 271.7 276.9 280.1 286.4 287.8 291.2 295.6 296.1 296.5 294.3 290.2 288.3 293.3 292.1 287.4 284.9 278.2 270.7 263.4 258.4 255.9 254.7 252.9 251.8 251.2 249.5 247.5 245 242.1 237.8 233.1 231.8 232.4 233 234.8 237 229.2 214.2 196.8 185.3 177.7 166.8 156.2 151.7 151 149.1 148.7 146.1 151.3 157.1 162.6 172.2 181.7 185 197.3 207.4 213.2 218.8 223.1 231.9 236.3 235.9 234.5 234.5 233.3 231 227.1 222.7 219.1 215.4 207.7 202.3 196.4 191.6 183.3 176.7 171.2 163.6 156.4 146.2 139.3 132.3 124.8 118.9 115.2 107.9 109.7 109.2 109.1 108.7 108.7 109.8 114.3 119 128.7 133.9 140.1 145.3 151.4 156.5 158.9 157.8 152.2 146.6 143.1 141.8 142.2 143.3 141.2 135.9 129 124.4 120.7 121.2 122.1 126.3 127.5 124.3 125.1 125.5 127.1 133.7 138.8 144.5 147.8 149.9 152.4 155.1
391.2 396.3 401.2 406.6 410.8 414.2 417.8 421.8 424.7 427.3 429.5 430.2 429.7 426.3 422.8 418.3 415.1 414.3 412.7 409.1 409.6 409.4 411.6 412.8 413.9 412.1 409.6 407.2 396.4 385.1 375.9 365.4 356.1 348.4 342.9 338.8 334.6 329.8 326.8 325.3 323.1 320.5 317.6 315.6 316.1 318.2 318.1 319.6 321.4 321.6 320.5 319 317.8 317.6 318.4 318.5 319.9 320.2 317.6 314.6 311.4 306.1 300 293.1 285.9 277 273.1 270.9 271.6 272.9 273.9 275 277 282.9 288 291.4 296.5 300 302.5 303.2 304.7 300.7 296.2 296.4 296.2 294 287.5 283 277.4 273.1 267 260.5 258.8 258.3 257 255.4 254.3 252.2 250.1 247.7 244.9 241.2 238.2 236.3 237.5 239.2 243.4 247.9 244.6 226.4 209.1 194.6 186.6 174.7 164.6 153.7 149.6 150.1 148.6 148.2 149.8 151.8 157.8 162.8 174.2 180.4 190.1 199.7 207.5 217.2 221.3 224.1 227.5 231 234.7 231.6 230.1 227.2 224.7 221.5 217.7 213.7 206.9 201.7 198.1 188.9 182.4 176.3 172.3 166.6 157.4 147.7 140.6 133.3 128.2 122 118.6 112.1 109.2 108.7 108.5 108.3 108.1 108.6 112.3 114.7 121.1 128.9 135.6 141 145.6 150.8 153 151.4 144.9 139.8 136.2 135.8 136.7 138.5 138.1 133.4 127.8 122.3 119.7 120.4 121.5 125.1 124.5 121.7 121.8 123.7 128.5 132.4 137.1 141.6 145 147.3 150 153.1
390.7 394.3 400.6 406.3 410.3 414.3 417.6 420.9 424.3 427.4 430.3 432.6 433.2 429.4 423.8 419.9 417.2 416.3 414.9 413.5 412.4 415 417.5 420.2 419 415.8 411 402.1 392.6 382.8 373.2 363.2 355.1 348.6 343.3 339 334.3 329.3 325 320.5 319.2 317.8 315.7 312.5 310 309.8 310.6 311.9 312.6 313.2 312.1 310.8 309.9 309.2 308.4 308.3 309.3 310.6 307.4 305.9 302.9 301.2 298.2 292.2 286.3 278.6 274.7 273.8 275.2 275.3 275.9 278.1 281.9 289 295 299.4 302.8 305.8 309.6 310.1 308.2 306 302.3 297.3 294.2 292.3 287.2 282 277.8 273.1 267 261.9 260.4 259.5 258.6 257.8 257.2 255.2 253.2 250.8 248.3 245.9 245.3 243.9 243.3 247.3 254.6 257.2 251.1 236.5 219 205.4 194.5 184.1 171.6 159.1 149.4 150.3 148.4 147.6 147 149.9 154.2 155.2 165.5 175.6 181.5 194.6 207.2 219.4 221.8 224.6 230.2 233.6 234.7 233.4 231.4 224.7 223.4 222 216 211.2 207 201.9 196.2 187.6 182.1 176.5 173.1 167.4 158.9 150 141.3 134 130.6 123.1 118.8 113.9 107.7 108.6 108.8 108 107.9 108 111.8 113.1 117.9 124.8 131.3 136.5 141 145.5 147.3 144.9 138.6 134.4 130.3 129.5 131.7 134.4 134.1 130.8 124.8 119.3 118.3 119.3 120.2 121.7 119.4 119.7 120.3 122.5 126.8 131.4 135.9 138.9 142.8 145 147.4 149.5
392.5 394.4 400.5 407.1 411.8 415.2 418.6 421.9 425.1 427.8 431.6 434.1 433 428 423.8 420.5 419.1 418.2 417.6 417 416.8 419.3 422.9 423.8 420.1 412.5 405.2 395.7 388.2 379.1 369.7 361.3 354.7 348.3 343.1 338.4 333.6 328.9 323.3 317.7 315 314.6 312.3 308.1 306.4 304.4 305.9 304.5 304.5 305 303.9 303 301.4 299.9 298.5 298.8 299.9 297.8 290.7 296.4 296.5 295.1 292.9 288.1 283.9 276.4 275.2 275.1 275.4 276 277.5 281.8 288.2 295.8 302.1 305.8 308.1 311.4 315.3 313.6 309.8 307.2 303.7 298.6 294.3 291.2 287.2 280.7 274.8 270 266.2 262.8 261.7 260.6 259.6 258.8 258.6 257.5 255.4 253 251.2 250.9 250.5 250.7 250.4 259 267.3 265.5 255.8 242 224.1 213.3 204.4 191.5 179.1 168.3 162.7 151.4 149.7 147.1 146.5 148.7 149.8 151.2 155.9 168 178.3 193.9 208.2 218.1 225.1 230.9 236.9 237.1 234.9 238.8 228.6 224.5 223.8 220.9 215.3 211.4 206.9 201.9 196.5 189.6 182.2 177.5 171.6 165.4 157.4 150.6 140.9 132.4 127.3 122.1 118.4 115.1 109.8 108 107.8 107.6 107.7 108.1 109.6 111.4 114.7 121.3 125.7 131.2 135.9 140.2 141.8 138.9 133.7 129.8 125.3 123.9 127.3 129.8 130.2 127.7 122.1 118.1 117.5 118.2 118.2 118.4 117.5 118 118.9 122.2 126.2 130.7 134.3 137.2 141.4 143.4 145.4 147.8
395.5 395 400.1 406.9 412.9 417.3 420.8 424.5 427.9 429.7 432.7 434 431.5 427.2 423.6 421.9 420.6 419.4 419.9 419.4 419.3 421.2 423 420.3 413.9 407 397.3 389.2 381.8 374.6 367.1 360.4 354.3 348.1 342.6 337.6 332.9 328.4 322.7 317.2 312.7 310.5 309.4 307.2 303.4 301 299.2 299.1 299.5 298.5 296.4 295.6 294.4 291.8 290.1 290.4 289.8 288 287.5 289.1 290.1 289.2 287.1 283.5 280.4 275.9 275.3 274.8 275.1 276.1 279.4 285.9 293.6 301.7 307 311.4 315.2 317.4 315.7 313.5 311 306.7 302.4 298.8 292.3 288.5 283.9 277.1 271.5 267.8 264.6 262.8 261.9 261 260.1 259.7 259.2 258.7 256.6 254.4 254.1 256.1 255.3 256.4 257.5 266 272.6 267.8 257.7 244.4 231.4 221 211.3 196.2 185.1 175.4 168 159 150.4 147.5 145 146.9 147.6 148.9 153.5 160.3 176.4 192.8 208.8 219.4 228.2 234.4 235 234 234.2 236.2 228 227 224.4 219.7 215.1 211.8 209.9 204 197.3 190.8 183.7 178 172.1 166.9 161.8 153.5 143.4 134.2 126.1 120.8 117.4 113.7 109.5 107.6 107.5 107.5 107.4 107.6 108.8 110 112.7 118.2 120.3 125.4 130.4 134.5 136.1 133.6 127.6 123.1 120 119.4 122.7 125.4 127.2 125.4 120.4 116.8 116.9 117.4 117 118.1 117.3 116.2 118.9 122.2 126.2 128.9 132.6 135.5 139.4 141.5 143.4 146.8
398.2 396.9 400.2 406.8 413.6 418.7 423.3 427.3 430.7 433.3 435.7 435.8 431.6 428.7 425.6 423 421.8 421 421.5 419.9 419.7 419.6 416.7 411.9 405.6 398.3 390.6 383.5 376.2 370.5 364.6 359.2 353.1 347.2 342.4 337.2 332.3 328 322.7 317.5 312.5 308.1 306.2 304 300.7 297.8 295 293.8 293.7 292.7 290.7 288.7 286.8 284.8 286.6 289.1 286.7 285.1 284.9 285.6 288.2 287 283.2 278.2 274.9 273.1 272.8 272.9 273 274.6 280.6 290.7 298.9 304.7 311.5 317.2 317.8 317.2 316.9 312.9 310.2 308.1 302.1 296.3 289.7 284.8 280.2 276.1 269.8 265.2 263.4 262.3 261.5 260.6 260.2 260 259.3 258.6 257 255.7 258.7 259.9 262.3 263.1 262.4 267.5 273.1 269.1 261.4 249 234.9 221.6 212.9 202.2 189.3 178.6 171.1 164.6 156.2 149.8 145.4 144.6 147.6 147.3 152 154.3 168.9 186.5 206.7 220.1 228.3 236.3 238.1 233.2 232.4 231 229.2 228.3 223.9 218.9 215.2 215 211.8 204.7 198.4 192.7 184.7 176.9 171.1 168.6 161.4 154 144.6 136.9 127.9 121.8 116 112.3 110.8 105.9 106.9 107 107.1 107 108.3 108.9 111.4 114.2 116.7 121 125.6 129.2 130.4 128 122.9 118.2 115.2 115.2 119.5 123.7 124.9 123.8 119.7 116.2 115.5 116.2 116.7 117 116.7 115.7 119.1 121.6 124.2 127.8 131 134.6 138.3 139.4 141.5 145
400.6 399.9 402.5 409 414.9 420.4 425.4 429.1 433.3 437 441.5 440.5 435.6 432 429 426 424.8 424 422.5 420.4 418.6 415.7 410.4 404.7 398.3 392.4 385 379.2 373.8 368.1 362.2 356.9 351.7 345.8 341 336.1 331.9 328.1 322.9 318 312.9 308 304.2 301.5 298 296.2 293 290.4 290.2 290.2 287.6 284.7 282.8 282.7 284.2 282.4 279.1 277.2 278 279.7 280.6 279 276.4 271.8 270.8 270.4 269.4 270.5 270.4 274.2 281.5 290 296.2 304.6 310.6 313.7 314.9 314.4 315 312.9 311.6 308.8 301 293.3 289.4 284 278 273.3 268 263.6 263 261.7 261 260.5 260.4 260.3 259.5 259.1 259.6 260.4 265.1 267.1 261.5 268.6 267.6 267.3 270.6 270 263.5 251.8 235.6 222 215.3 204.3 191.2 180.3 175.1 170.4 162.3 151.1 149.1 143.2 146.8 146.4 148.1 149.2 161.3 181.3 202.1 215.9 225.1 234.8 236.2 230.6 229.9 222 217.4 224.2 223.4 218.6 215.8 213.8 210.3 204.7 199.4 194.1 185.9 178.5 173.1 168.8 162.7 152.8 143.2 135.2 131.8 125 118.2 115.2 112.4 107.2 106.2 106.5 106.5 106.4 106.9 108.1 110.9 112.6 114.5 117.3 121.9 125.5 125.6 124 118.8 114.5 112.1 111 114.4 120.4 122.7 122.6 118.9 115.7 114.4 115.5 115.9 115.3 114.7 114.8 118.1 119.9 122.1 125.7 129.5 131.9 135.6 136.4 139.9 143.5
402.2 402.3 405.6 410.4 416.3 422.2 427.6 431.3 436.6 440.6 445.7 445.5 440.3 436.9 434.9 431.5 429.8 427.4 424.3 421.4 417.4 413.3 407 399.3 392.3 386.7 382.7 377.2 371.6 365.8 359.9 354.8 349.6 344.5 339.9 336.3 332.3 328.3 323.9 319.3 314.2 309.3 304.5 299.8 296.2 294.9 293 288.6 287.2 286.5 284.7 282.7 280 277.8 276.3 275.9 275.8 274 273.7 272.7 272.6 271 269.5 266.7 267.8 266.6 265.2 266.2 268.7 274.3 279.5 284.6 290.1 298 305.5 307.1 309.1 311.6 312.5 314.5 313.1 308.1 298.5 290.1 285.2 279.6 275.1 270.1 266.1 263.1 262.2 261.5 260 260.1 260.2 260.7 260.6 260.7 263.4 267.5 273 273.2 274 273.9 272.7 272.1 271 266.6 262.1 251.4 236.3 225.8 219 206.3 192.6 182.6 179.1 172.5 163.9 154.8 148.7 144.8 144 145.7 146.2 148.1 155.3 177.6 198.4 211.1 220.7 229.7 233.3 229.8 230.6 218.2 216.6 222.3 224.1 222.1 216.5 212.1 208.9 204.3 197.6 192.7 186 180 176.1 172 166.6 160.1 153.6 143 135.7 127.7 121.1 116.5 113.4 108.6 106 106.2 106.1 106 106.4 107.2 110.4 111.7 113.4 115.6 119.2 121.8 122.2 120.4 116.7 111.8 109.1 108.7 110.8 115.6 119.1 119.7 116.9 113.6 113.6 114.7 115.2 115 114.9 113.8 116.8 118.6 120.7 124.1 127.8 130.6 132.4 133.1 137.9 142.5
403.4 405 407.9 412.3 418.9 425.1 430.2 434.8 438.8 443 447.5 449.2 446.8 446.2 442 440.6 440.3 434.4 427.8 424 418.3 411.9 403.6 395.1 389.4 384.5 380.9 375.3 369.4 363.4 357.5 352.3 347.9 344.1 340.5 336.6 333.1 329.7 325.4 320.8 315.7 310.7 305.8 300.8 296.3 292.6 290.3 287.5 284.3 281.9 280.3 279.6 277.7 274.7 274 274.1 272.8 271.2 268.9 267.9 267.7 267.9 263.4 262.9 261.8 260.9 259.4 262.6 267.4 270.7 274.1 278.6 283.5 291 300.3 304.7 306.4 308.3 309.9 311.8 310.5 308.2 296.8 289 281.9 277.6 270.6 267 265.6 264.5 261.3 259.5 258.9 260.1 260.9 262.1 263.3 265.3 268.3 272.4 276.6 276.8 277.1 277 277 276.6 276 270.1 259.9 250.3 238 224.9 217.5 207.4 195.5 185.6 179.8 171 164.3 157.2 149.3 147.6 138 144.1 145.1 146.2 150.5 168.8 194 212 219.2 225.9 225.7 220.9 218.2 213.7 212.9 224.7 225.9 223.4 214.9 209.8 207.2 203.6 197.9 191.8 187.9 183.2 176.9 172.7 167.8 161.9 154.7 145.4 138.7 133 126.2 117.2 113.8 110.5 105.4 105.7 105.6 105.7 105.6 106 109.4 110.7 111.8 112.7 114.8 118.1 118.8 117.1 114.3 109.2 107.1 107.5 109.1 111.8 114.1 115.5 113 112.6 113.1 114 115.9 117.4 116.8 113.1 115.4 117.1 119.5 122.9 125.6 128.8 130.3 130.6 134.2 141.2
404.1 406.2 409.6 414.3 420.9 427.3 432.6 436.5 440.8 446 452.9 454.4 453.4 451.3 449.6 456.8 452.4 444.6 435.7 427.5 420 410.9 401.8 394.1 386.9 382.1 378.1 372.4 366.4 361.2 354.9 350.8 348.4 345.2 341.6 338.4 334.9 331.4 328 323.4 318 313 307.8 302.4 297.7 293.9 289.9 285.6 282.5 279.4 276.4 275.7 274.9 273 272.1 269.7 268.5 267.4 264.6 263.5 264 262.3 259.3 258.2 255 254.6 255.5 258.9 262 264 266.2 270.8 277.3 281.5 292.7 300.1 301.5 303.8 308.4 307.7 306.1 304.8 295.6 286.4 283.6 274.9 267 267.1 267.5 265.6 260.4 257.3 259.8 262.2 262 263.3 266.5 270.2 273.2 276.4 278.5 279.1 279.6 280.1 280.5 280.3 279.5 275 263.9 253 240.1 225.7 217.8 209.4 199.1 189.3 179.4 172.6 166.4 159.3 151 147.6 144.9 141.9 144.3 145 146.2 159 184.8 201.3 214.6 217.7 209.2 201.1 201.6 201.1 204.3 223.1 225.9 222.9 215.1 207.9 204.7 200.9 197.3 193.1 189.4 186.6 178.6 174.8 167.1 161.4 154.2 147.8 141.9 136.3 130.3 119.4 112.2 110 105.7 105.1 105.3 105.5 105.2 105.3 107.8 109.8 110.3 110.7 111.1 114.1 116 114.6 110.9 107.9 106.6 107.1 108.4 110.3 111.2 111.7 111.4 111.9 112.3 113.5 117.6 116.3 112.6 113.1 115.1 116.1 118.5 121.5 123.6 126.4 127.8 128.4 134.1 139.4
406 407.8 411.1 415.7 422 428.4 434.2 437.9 441.9 448.1 454.8 457.2 455.3 454.6 460.9 462.2 461.4 455.1 447.7 433.7 422.2 409.8 402.3 393.9 384.3 378.5 373.9 369.2 364.1 359.5 354.7 351.6 349.2 346.2 343.3 340.5 337.3 334.7 331.3 327.5 321.4 316.3 310.1 303.5 298.9 295 291.7 287.7 284.3 281.3 278.6 274.5 271.6 271.4 270.2 267.6 265.5 264.5 262.2 260 257.8 256.4 254.9 252.2 249.3 250.4 251.8 253.2 255.2 256.7 258.4 264.3 270.7 275.7 284.1 292.2 293.8 295.8 301.5 303.1 301 299.3 293.6 287.3 282 273.4 268.5 268.4 267.8 264 257.7 258.7 264.2 263.1 262.2 264.4 269 273.9 277.7 280.9 281.5 281.7 282.3 283.2 284 283.4 281.9 278.2 268.6 256.1 241.9 228.9 222.2 213.5 201.8 191.3 183.7 176.6 169.2 161.4 152.7 146.9 144 141.3 142.9 143.9 145.5 148.5 161.8 178.1 200.9 205.7 196.4 189.9 199.4 200.4 202.9 216.7 220.6 219.1 213.7 206.1 202.4 199.8 196.6 193.2 189.1 184.6 181.1 177.6 171.1 163.4 157.2 150 143.1 136.7 131.4 120 114.9 111.4 107.6 104.9 105.1 104.9 104.8 104.7 106 108.6 109.4 109.2 109.5 110.2 111.7 111.4 108.7 106.5 106.1 106.8 108.4 109.1 109.6 110.1 110.5 111 111.4 113.5 116.2 115.6 112.9 111.2 112.3 113.4 116.6 119.3 120.6 123.1 125.2 126.9 132.9 137
408.7 409.3 412.4 417 423.3 429.1 434.8 439.4 443.3 447.4 451.3 454.1 454.7 459.6 465.3 467.4 469.5 464.4 455.7 442.9 425 411.8 404.7 396.5 385.8 376.9 372.7 368.8 364.1 360 355.8 352.9 350.6 348.4 345.9 343.3 340.6 337.5 333.7 329.2 322.9 317.7 311.6 305.3 299.9 295.5 292 288.4 284.7 281.5 279.1 275.9 272.4 270.2 268.1 267.1 265 262.9 261.4 258.7 255.4 252.9 251 247.9 247.5 248 247.4 247.2 248.6 250 253.3 257.7 262.7 268 275.3 282.5 287 289.5 293.3 296.4 295.8 292.7 290.9 286.3 282.2 277.7 276 268.5 265.4 261.8 257.1 260.8 264.8 262.4 262.1 264.7 270 275.9 281.6 286 285.3 283.8 284.5 285.7 286.2 286.3 285 282.2 273.9 260.2 244.7 231.8 223.4 216.4 205.8 196 190.5 180.9 172.6 164 156.1 149.1 145.5 145.3 138.8 143.6 145.3 155.9 153.6 152.8 157.9 180.2 187.3 187.9 189 191.3 201.8 215 230.9 219.1 210.4 203 200.6 196.8 194.6 194.5 193.9 190.4 184.3 179.3 174.4 167.1 159.9 154.1 146.6 140.7 137 128.1 117 113.6 108.2 104.5 104.6 104.5 104.4 104.3 104.6 107.1 108.4 108.3 107.9 108 107.8 107.5 106.6 106.1 106.4 107.3 108.1 108.4 108.7 109.3 109.6 110 110.5 113.9 117.1 116.7 112.3 110.3 110.7 111.1 114.1 117.1 118.4 120.6 123.4 124.4 129.8 134.5
411.7 412.2 412.9 417.6 423.6 429.3 435.3 440.2 443.5 445.7 449.1 450.8 454.6 461.7 468.1 473.6 476.4 472.5 464.7 450.4 431.2 414.5 407.6 399.3 388.1 379.4 374 369.5 364.7 360.5 356.7 355.1 354 351.3 348 344.9 342 338.7 335 329.9 324.7 320 313 307.5 302.4 297.5 293 289.5 286.2 283.4 279.8 276.3 272.8 270.3 268 265.4 262.6 260.1 259.1 258.6 255.1 251.3 248.6 247.1 246.8 245.1 244 242.6 242.4 243.9 248 251 255.5 259.2 265.7 272.8 277.1 280.1 283.7 287.2 288 286.7 287 283.6 282.2 278.4 277.4 266.5 264.3 262.4 257 257.4 261.8 260.3 261 264 268.7 275.1 281.8 286.1 284.1 282.9 284.3 285.7 286.8 287.1 286.7 285.5 278.4 264.3 245.8 232.3 221 215 206.5 198.5 193.6 184.1 175.7 167.7 160.4 153.9 146.9 144 144.6 144.2 142.3 153.9 165.2 176 185.3 184.6 180.7 181.8 186.6 188.1 196.5 220.8 227.8 215.1 209.3 202.9 199.4 196.3 195.6 196.5 196.2 193.7 188.5 183.8 177.9 170.3 162.8 155.7 147.9 143.3 139.4 131.4 120.9 114.5 108.8 105 104.1 104.1 104.1 104.1 104.7 106.7 107.2 107.1 106.5 105.6 105.4 105.5 105.6 105.6 106.5 107.2 107.5 107.7 108.1 108.7 108.9 109.3 110.5 114.9 116.5 114.8 109.6 109.5 109.1 109.7 111.5 114.5 116.5 119.4 120.5 122.6 129 133.5
416.6 415.8 414.6 418.1 422.3 427.9 433.3 437.2 440.7 443 445.8 449.5 454.1 462 468 475.8 483 479.3 469.4 454.6 437.8 420.6 411 401 389.6 380.9 374.5 369.7 367.5 363.9 360.8 358 356 353 349.9 346.6 343.7 340.5 335.9 331.7 327.4 321.7 317.4 311 305.9 300.7 295.4 291.3 288.5 285 281.1 277.5 273.3 270.2 267.4 266 264.4 262.5 259.5 257 254.1 252.9 250.1 248.2 244.5 242.7 241.8 240.8 238.9 239.4 243.3 244.9 248.4 253.3 258.1 264.4 267.1 269.8 274.3 278.8 280.2 280.3 280.9 280.6 280.2 276.6 272.9 266.7 266 266.1 259.6 254.1 255.4 256.6 259.3 261.8 266.6 272.2 278.3 282 281.9 281.9 283.4 285.9 286.4 287.2 287.7 287 281.2 267.3 246 233.5 221.7 212.7 205.5 198.9 194 187.6 180.3 173.6 166.9 159.9 152.1 142.9 141.4 144.4 141.7 144.5 157.4 173 185 187.5 194 203.7 202.3 196.6 213.7 233.8 223.8 214 209.1 202.5 199.1 196.7 198.1 199.5 198.3 195.7 191.9 186.1 179.3 173.5 165 157.8 152.2 147.7 143.4 134.4 121.9 112.6 109 106.3 103.2 103.5 103.7 103.7 103.8 106.4 106.5 106.1 104.9 104.7 104.2 104.4 104.6 105.1 106 106.5 106.8 107 107.4 107.8 108.3 108.4 110.9 115 115.5 111.7 108 108.7 107.5 108.6 109.5 111.9 114.8 117.3 118 120.3 127.1 132.4
421.1 419.5 418.4 418.8 421.4 425.5 430.4 433.9 437.1 440 444.1 448.2 453.1 463.4 470.7 480.1 484.9 481.8 471.6 458.3 439.6 422.5 410.4 400.6 389.5 381.2 374.8 373.1 371 367.6 365.1 361.6 359.3 356.2 352.6 349.6 346.8 342.3 338.8 335.8 330.9 324.4 320.2 313.9 308.9 303.8 298.9 294.5 290.2 286.3 282.1 277.8 272.9 269.7 267.4 265 264.2 262.8 261.4 259.3 257.7 255.1 250.9 247.8 244.5 241.9 239.9 239.5 237.5 236.5 238.6 239.2 240.5 246 251 256 259.5 262.4 266.9 271.1 272.3 272.6 274.4 278.2 275.9 272.2 269.5 266.5 267.2 267.9 264 254.1 251 252.7 255.5 258.4 262.9 268.6 273.4 276.7 278.8 280.2 283.8 285.5 285.7 287.5 288.6 286.7 280.1 267.4 249.3 237.1 224.8 212.7 205.5 199.4 195.1 190.3 185.2 179.3 172.1 163.1 155 144.3 144.1 137.6 143.5 142.8 149.2 160.9 170.4 182.5 196.4 205.4 208.3 217.9 230.9 233.5 219.5 211.7 206.5 201.5 198.6 197.3 200.9 204.1 203.2 199.7 194.7 186.1 180.2 174 168.6 161.5 154.6 149.6 146.4 140.3 125.8 116.8 112.3 107.8 103.5 103.4 103.3 103.2 103.4 104.3 105.3 104.1 103.6 104.4 103.5 103.8 104 104.8 105.2 105.7 106 106.4 106.6 106.9 107.1 107.9 111.6 115.2 114.1 110.3 107.6 107.3 107.5 107.6 108.8 111 111.7 114.3 115.8 119.4 124.4 130.5
424.2 422.9 421.5 421.4 422.1 424.5 428.5 431.4 435.2 438.7 442 446.2 452.4 461 473 479.9 481.7 475.5 468 452.3 434.9 419 407.8 398.2 388.4 381.5 377.4 376.5 374.1 371.2 368.6 365.8 362.4 359 355.5 352.6 349.6 346.6 342.8 339.1 334.2 327 321.3 315.9 311.6 306.9 302.8 296.9 291.8 288 283.9 279.6 275.5 271.7 269 265.8 262.6 261.8 261.4 260.1 257.2 255.2 250 247.8 246.1 243.2 240.1 239.2 237.4 235.3 235.1 234.9 235.6 238 241.3 245.7 250.1 253.8 258.6 262.7 264 265.3 266.4 270.7 269.7 267.8 266.9 268.1 270.6 272 269.5 263 254 250.6 252.7 254.2 259.3 264.6 269.1 273.1 276 279.3 283.2 284.5 284.8 287.4 288.5 285.1 279 267.5 254.1 242.2 230.8 217.1 207.9 201.7 196.5 193.5 190.6 185.3 177.6 166.8 155.3 146.2 142 135.4 136.6 143.2 142.7 154.4 165.6 175.4 190.7 198.9 204.4 214.1 219.8 223.5 216.3 207.8 202.8 200.9 198.6 197.7 204.8 207.8 204.4 199.7 194 187.9 182.2 175.7 169.6 163.4 154.7 149.2 145.2 140.6 130.9 125 116 109.7 104.5 103.5 103.3 102.7 102.8 103.6 105.8 104.1 102.3 102.7 103.4 104.2 103.6 104.1 104.4 104.6 105.1 105.3 105.5 105.5 105.8 107.7 111.3 113.1 111.8 108.5 106.5 106.4 106.7 107.2 108.5 111.2 112 113.3 115.2 119.3 123.1 126.9
425.9 424.5 423.1 422.9 423.1 424.1 427.8 430.8 434.4 438 441.6 445.6 451.4 459.1 471.8 477.5 477.8 469.4 460 445.4 427.8 414.4 404.4 394.5 385.3 381.8 380.8 379.2 377.1 374.9 372.9 369.9 366.2 361.9 358.3 355.6 352.4 350.3 346.9 342.7 336.6 329.6 324.3 319.9 314.2 309.1 304.7 299.4 294.1 289.6 285.3 281.8 278.2 274.5 270.8 267.1 263.8 260.7 259.4 259.1 257.1 253.6 251.4 252.5 248.4 244.9 241.9 241 238.3 236 233.5 232.9 233.1 232.3 233.5 236.6 240.4 244.5 248.8 253.5 255.7 257.6 259 261.2 263.9 263.6 266.5 269.8 273.2 273.4 271.3 266.9 260.1 250.1 250.7 252.6 255.7 260.5 264.8 268.9 273.9 280.2 284.4 283.8 282.6 285 287.2 283.9 277.7 268.3 258.3 245.1 233.6 221.6 214.8 208.1 201.9 196.9 194.2 189 182.7 172.7 159.9 148.5 143.1 142.6 137.5 138.7 142.9 149.3 160.4 169.3 179.3 189.2 198.4 207.1 213.1 215.8 210.9 204.3 200.2 201.7 199.1 198 202.6 206.8 205 199.6 195.3 190.7 185.5 180.2 172 162.9 155.9 152.6 149.2 144.7 136.5 129.1 121.7 114.5 110 103.9 103.4 102.5 102.4 102.5 105.3 103.5 102.1 102.7 103.3 103.7 103.1 103.6 103.5 104 104.5 104.4 104.7 105.2 105.2 107.6 110.6 109.8 108.8 107.6 106.2 105.7 106.2 107.2 108.9 114.8 115.1 114.1 115.4 117.3 119.2 121.7
427.4 426.3 424.4 424 423.3 424.7 427.1 430.5 434.1 438.3 441.9 446 450.9 459.6 469 473.7 467.8 460.6 447.8 432.8 421.5 411.1 401 392.1 388.9 387.1 384.1 382.8 381.3 378.5 376.9 374.5 370.3 365.8 361.5 359.5 356.2 353.4 349.4 345.5 338.8 332.6 327.3 322.2 316.5 311.5 306.2 300.5 295 290.6 286.7 282.4 279.1 276.6 273.1 269.2 265.7 263.2 259.5 257.4 255.4 253.2 252.8 253.6 251.7 246.6 243.4 241.2 239.3 237.3 234.5 232.5 231.2 229.4 227.6 228.8 231.8 235.2 239.2 243.8 247.7 250.3 251.9 253 257 260.1 264.5 266.6 268.7 269.9 268.5 266.1 259.8 248.9 249.6 251.5 253.1 257.4 261.4 265 270.6 277.6 281.9 280.8 279.7 281.3 282.9 280.6 274.4 266.2 257.3 245.1 232 225.6 222 215.3 207.2 200.5 197.5 191.8 186.8 179.1 165.9 152 144.8 141.7 140.4 134.4 143.4 142.7 151.2 161.7 171.6 182.1 190.2 198 206.3 209.9 207.1 200.8 196.9 202.2 199.1 197.9 200.4 204 203.7 200.6 196.7 192 189.6 184.7 174.3 165.4 160.2 157.3 155.4 147.9 140.7 135.6 129.3 119.2 112.8 104.9 101.2 102.1 102 102 102.2 102.1 101.9 102.4 102.8 102.7 102.6 103.1 102.9 103.3 103.8 103.7 103.7 104.4 105.1 106.8 107.5 106.4 106.6 105.9 105.5 105.1 105.5 106.5 109.8 114.2 115.6 115 115.6 116.6 118.3 125.5
429 428.1 426.7 424.8 423.5 424.8 427 430.8 434.7 438.2 441.8 444.9 449.3 457 465.8 465.8 459.2 450 438.3 427.1 417.8 407.3 402.2 399.3 395 393 390.8 388.8 386.9 383.8 381.7 378.8 375.3 370.8 366.2 363.2 360.4 356.7 352.1 347.3 342.3 336.3 329.8 324 318.5 313.3 306.9 301.1 295.3 290.8 287.5 282.9 279 276.9 275.2 271.7 268.2 264.7 261.4 258.8 257.2 254 253 253 252.7 251.4 245.6 242.7 240.5 238.7 235.7 233.1 230.6 227.6 225.8 224.9 225.2 226.8 229.8 234.1 238.8 242.4 244.7 246.3 249.8 255.8 261.3 261.3 261.1 265.2 264.8 263.1 258.5 247.4 246.6 249.4 250.7 256 259.1 262.2 266 271.8 276.7 276.3 275.1 275.1 276.5 274.1 269.2 263.2 253.8 245.2 234.4 230.3 226.8 221.1 212.8 205.6 200.3 194.1 188 181.3 170.2 156 146.4 143.3 141.9 131.5 140.5 143.3 146.7 154.9 163.4 175.4 184.1 191.9 199.5 206.1 204.6 196.7 195.4 196.4 197.9 199.6 199.3 201.7 202.7 202 199.4 193 190.4 188.1 178.2 168.7 163.4 160 157.4 150.7 144.3 138.4 131.3 124.8 114.4 105.9 102.2 102 102 101.9 101.8 101.4 101.8 101.7 102.4 101.6 102.1 102.3 102.3 102.7 103 103.1 103.2 103.4 104.5 106 106 105.7 105.6 105.1 104.6 104.5 104.9 106.1 109.9 113.8 116.3 114.9 115.3 115.6 118 126
430.4 429.9 428.8 427.1 424.9 424.4 426.7 429.9 433.9 437.8 441.1 443.7 447.4 454.2 459 456.3 451.7 444.2 433.7 424.2 415.3 410.1 407.1 403.6 398.3 395.7 396.1 394 391.5 389.3 386.9 383.2 380.2 375.4 370.3 366.1 363 358.8 354.6 349.6 345.8 340.8 331.8 325.4 320.3 314.1 307.1 301.2 295.5 290.3 286.5 282.6 278.9 277 275.2 271.6 268.6 265.8 263.2 260.6 258.4 256.1 253.4 251.9 251.8 250.6 249.7 247.5 241.7 238.3 236 234.1 230.5 226.7 225 224 223.1 222.2 222.1 224.3 229.6 234.5 237.7 241.7 247.3 253.1 259.7 256.6 253 257.4 258.4 258.2 256.3 248.6 242.2 246.1 247.9 253 257 259.4 261.7 266.5 271.1 271.8 270.6 269.7 270.1 269.5 266.3 260.7 252.5 246.8 240.2 236.1 230.7 225.4 218.8 211.7 205 197.1 189.9 183.1 174.9 162.6 149.3 144.5 142.2 133.3 138 143.1 142.9 149.5 158.5 169.6 179.8 187.4 194.1 198.9 197.7 191 195.5 198 199.6 200.4 201.7 202.5 202.2 201.3 199.9 195.5 189.5 186.6 180.7 172.6 166.5 163.7 160.3 154.8 150.2 143.7 134.7 128 120.2 107.9 102 101.8 101.9 101.8 101.2 100.9 101.4 101.2 101 101.1 101.4 101.6 101.7 101.9 102 102 102.5 102.8 103.1 104.7 105 105.1 105 104.7 104.1 103.9 105.2 106.5 111.4 115.4 115.8 113.9 114 115.3 118.8 124.4
432.1 431.4 430.5 428.9 427.3 425.6 427.5 430.5 434.4 438 440.6 443.2 446 450.2 451.6 451 447.1 438.4 430 422.9 417.9 416.7 411 405.8 401.7 398.8 398.6 398.2 395.9 394.2 391.2 386.9 383.2 379.2 374.1 369.1 365.2 360.8 357.5 351.6 347.6 342 333.9 326.4 321 315.6 307.8 301.3 295.3 289.9 285.2 281.6 278.1 275.8 274.3 272.6 270.6 268.7 265.4 262 260.1 258.2 255.6 251.3 248.9 245.6 243.7 244.8 243.5 238.4 236.1 234 230.7 226.7 224.6 223.2 222.2 221.4 220.5 220.1 220.9 226.8 231.8 236.5 240.9 245.8 252.7 253.3 249 249 252.7 253.8 252.8 247 238.2 241.9 245 249.5 252.5 254.7 257.2 261.4 264.9 266.1 265.6 264.9 264.3 264.3 264.1 259.7 253.5 247.7 242.4 237.7 235.2 231 224.5 217.8 209 200.9 192.8 185.1 177.1 168.3 154.4 146.4 144 140.3 132.5 141.9 142.6 144.9 155.2 166.1 176.1 183.7 189.4 192.2 189.1 188.4 196.8 202.3 203.4 200.6 201.3 202.5 202.5 200.7 198.1 194 189.4 185 180.6 176.4 170.1 168.3 168.3 162.5 154.4 146.1 138.1 128.6 120.8 111.6 103.6 101.8 101.5 101.8 100.6 100.1 101.4 100.9 100.8 100.9 101.1 101.2 101.5 101.7 101.5 101.5 101.9 102.2 102.2 102.6 103.8 105.1 105.8 104.8 103.5 103.3 104.7 106.2 111.6 116.1 115.3 112.9 112.2 113.8 118.5 123.7
433.8 432.7 431.7 430.3 429.4 428.4 429.9 432.7 435.7 438.7 441.1 442.9 445 446.7 447.7 446.3 442.1 436.5 431.2 426.3 421.8 419.2 413.2 407 403.2 400.1 399.8 399.2 399 397.2 394.8 390.5 385.3 381.7 377.1 371 366.3 361.3 358.1 353.7 348.4 343 335.9 327.9 321.9 316.6 308.7 301.9 295.2 289.8 285 282 281.5 279.3 277.5 275.5 273.2 269.8 267.7 264.6 259.8 256.4 254.7 251.2 249.3 248.5 245.3 241.4 239 238 236.5 233.1 229.9 227.6 224.5 222.6 221.6 220.8 220 219.3 218.5 220.6 225.2 230.8 234.9 237.6 240.2 244.4 245.4 242 246.3 249 245.8 239.7 236.1 235.6 242.4 245 247.7 249.3 251.4 256.3 259 259.8 260.3 260.1 260.1 260.2 260.9 259.3 254.1 248.1 242 237.8 237.8 234.2 228.1 221.5 212.8 204.4 196.1 187.9 179.7 171.2 160.1 148.6 146.5 141.9 135.4 139.3 141.7 142 150.1 162 172.1 179 185.5 189.9 184.9 191.4 197.9 203.3 204.1 202.7 202.6 202.5 202.3 201 199.1 194.2 188.6 185.3 181.1 177.2 172.3 172.7 172.8 165.5 156.2 146.1 138.4 130.6 119.9 111.6 105.4 101.8 101.5 100.4 100 100 100.7 99.4 100.3 100.4 100.7 100.9 101.3 101.4 101.4 101.3 101.4 101.4 101.3 101 103.3 105.8 106.5 104.9 102.9 102.8 104.7 106.9 114.2 115.9 114.7 112 110.5 113.1 118.4 121.7
