ncols 200
nrows 82
xllcorner 330000
yllcorner 765000
cellsize 50
439 451.3 459.3 465.4 468.7 469 466.7 462 456 449.5 441 430.3 420.8 410.8 404.4 399.6 394.2 391.1 388.2 384.3 388 382.6 378.6 376.7 373.9 368.5 364.6 359.1 353 354.2 357.1 360.9 363.6 365.7 367.1 367.5 368 365.2 367.3 374.6 380.3 388.2 395.3 405.1 413.5 421.5 428.1 433.2 433.8 432.8 428 422.7 417.6 411.7 405.7 402.1 399.4 396.7 393.6 390.2 392.2 393.7 396.1 398.5 400.6 404 405.4 406.9 407.2 408.1 408.3 407.2 405.5 406.3 406.9 405.3 403.7 401.7 399.7 396.7 393.2 388.8 386.5 384.5 382.9 381.1 375.9 381 387.6 386.1 382.9 374.9 368.7 359.8 350.2 338.6 323.6 310.1 299.8 290.8 284.9 278.3 274.2 266.7 260.2 257.3 256.4 255.5 254.8 254 254.3 254.8 255.5 253.8 251.3 251.7 249.8 248.5 245.5 243.1 236 231 221.9 216.4 217.3 217.2 217.1 217.1 217.1 217.2 217.3 217.4 218 225.1 221.7 219.7 219.8 219.5 219.6 222.1 231.7 241.6 251.2 260.7 277.1 293.7 305.5 315.7 327.5 339.9 355.1 366 375.7 384.5 390 393.4 395.6 391.3 393.9 398.8 402.9 405.4 408.9 412 415 416.7 424.3 435.2 445.9 457.3 472.5 489.7 507.5 527.1 544.5 555.6 577.8 591.1 606.2 623.5 639.7 653.4 663.4 671 674.8 673.5 669.5 663.9 654.7 644 633.7 623.4 604.5 584 563.9 545.9 525 505.4 488.3 475.9
439.8 451.1 457.1 463.7 467.2 468 466.5 461.8 454.9 447.5 439.3 430.3 419.9 411.6 404.7 397.7 394.2 390.1 385.8 382.7 383.1 379 376.7 374.3 371.8 366.9 363.2 358.2 351.2 352.2 353.7 356.4 359.4 361.9 363.3 363.8 363.3 358.7 364.3 373.1 378.5 387.3 394.5 404.4 413.3 421.1 427.2 431.7 433.6 432.3 427.4 422.1 416.4 410.5 404.5 400.2 396.9 394.5 392.3 388.8 390.5 392.4 394.8 396.8 398.4 402.3 403.6 403.9 405.2 407.2 409.1 409.1 409.2 409.8 410.2 409.1 407.1 405.1 403.1 400.1 395.8 390.4 387.2 385.6 383.9 382.2 378.5 372.8 374.2 384.4 379.8 373.2 366.2 357.1 348.5 338.7 325.5 312.2 301.9 293.9 287.3 280 276 267.3 261.2 259.2 257.5 256.3 255 253.3 254.7 255.2 255.5 254.6 250.7 248.6 248.1 247.8 245.3 243.4 235.2 228 221.6 217.3 216.9 217 217 217 217 217.1 217.2 217.5 217.7 218.1 219.1 218.6 219.2 219.2 219.5 223.5 234.3 244.7 253.7 265.2 282.8 297.8 308.8 321.7 334.6 347 357.2 368.7 381.3 392 396.9 399.3 404.7 404.2 405.7 414.2 418.5 421.9 426.7 432.2 434.6 436.8 438.4 446 455.9 465.7 478.2 495.2 512.7 530.3 543.1 557 568 582.4 600.5 616.4 631.6 643 654 660.7 666.4 665.7 659.9 654.7 644.6 634.7 630.3 623.8 610.8 593.5 574 553.5 532.4 510.3 490.8 474.6
436 446.6 454.8 460.1 464 464.9 464.2 460.4 455.5 448.2 440 429.8 420.6 411.7 405 397.6 393.4 388.8 384.9 379.4 379.3 376.7 373.8 371.7 368.5 365.2 361.5 357.2 351.2 349.9 350.4 352.9 355.5 358.1 359.4 357.6 355 358.7 366.2 371.5 378.8 388.1 395.3 404.8 414.1 422 428.2 433.1 434.7 432.8 428.2 423.2 416.8 410.4 404.6 399 394.7 392.6 390.4 387.8 389.3 391 392.6 394.2 397.7 399.3 400.9 401.7 405.9 408.7 411.1 411.9 411.9 412.7 412.3 411.3 409.2 407.1 405 402.2 398 391.9 388.2 386 384.1 382.3 380.8 374.9 371.7 367.2 378.1 371.5 363.5 355.8 348.7 339.2 328.3 316.9 307.3 298.3 290.8 282.7 276.8 269.8 263.4 261.2 258.2 256.8 254.5 253.1 255.3 255 256.8 253.1 249.1 247.7 248.2 246 243.9 241.7 237.9 231.6 223.3 216.5 217.6 217.2 216.9 216.9 216.9 216.9 217.2 217.7 218 219.5 219.1 218.2 218.2 218.4 220.6 227 237.5 248.1 258.8 269.7 286 297.7 312.3 326.3 339.7 351.7 358.4 369.8 382.1 392.4 399.2 403.8 408.4 412.5 416.1 425.4 431.7 435.5 442.8 448.7 453.2 456.3 458.5 461.9 468.2 476.9 486.1 501.6 517 529 541.3 557.4 568.2 576.1 596 609.7 625 635.5 645.8 655.9 657.5 653.4 649 643.5 635.2 630 624.7 620.1 608.7 595.2 580.1 559.5 537.4 514.3 493.3 474.3
431.8 441.5 451.2 457.3 460.7 460.5 460.4 458.1 454.4 448.1 440.3 430.9 421.1 411.7 404.5 397.3 393.2 388.6 384.4 380.6 377.9 374.4 372 368.7 364.6 362.1 360.5 355.9 349.9 346.5 348 350.3 350.8 353.2 351.8 352.3 350.5 360.8 365.8 370.6 379.5 390.6 399.5 407.1 414.5 423 429.1 434.6 435.7 434.8 431.6 425 418.3 411.5 405.8 400.8 395.7 391.5 388.5 386.3 388 388.9 389.9 392 393.8 395.8 397.9 400.8 403.9 408.7 412.2 414.5 414.6 414.7 414.3 413.4 411.2 408.4 405.7 403.5 400 395.5 390.3 386.9 384.2 381.5 379.5 375 376.7 365.4 369.9 364 361.3 355.4 348.7 340.8 331 322.1 310.1 303.2 294 285.1 279.3 274.4 265.7 262.9 259.9 257.1 254 253 251.9 255.7 255.6 251.2 248.1 246.1 245.5 244.6 244 241.7 238.7 233 226.3 215.7 217.6 217.4 217.1 216.9 216.7 216.9 217.4 217.8 218.3 218 218.3 218.3 218.3 218.6 222.6 229.8 242.7 253.1 261.9 274.6 290.5 299.9 313.8 327.3 342.1 353.2 358 370.2 380.6 390.1 397.3 404.7 411.8 416.9 424.6 434.5 442.8 451.1 460.6 468.8 473.4 474.9 476 479.3 485.5 493.6 501 511.8 522.1 531.1 537.5 553.6 563.5 573.6 585.2 602.1 618.8 629.1 638.4 644.5 644.2 639.7 638.2 635 628.4 623.1 617.6 609.3 599.5 589.1 580.1 562.2 538.6 516 494.6 475.6
427.1 437.5 446 451.5 455.2 457.4 457.6 456.4 453.7 448.5 440.7 432.3 422.9 413.5 405 397.9 393.7 388.9 385.8 380.2 378.7 376 373.2 370.8 367 363.1 359.7 355.5 351.6 347.6 345.3 345.9 345.7 346 347 345.6 353.8 359 364.7 370.6 380.2 391.4 400.4 408.5 416.7 424.6 430.7 436.1 438.2 437.4 433.9 429.2 422.5 415.5 408.9 402.4 397 391.8 388.1 384.6 385.6 386.5 387.7 389.5 391.6 393.6 395.9 398.8 402.4 407.3 412.4 416.1 416.6 416.1 415.7 414.4 411 408.2 406.5 404.2 401 396.8 392 388.6 385.9 383.1 380.2 377.6 377 374.5 366.9 361.2 355.3 354.3 348.9 341.4 331.6 322.6 314.7 307.2 298.5 290.4 283 275.8 268.9 265.1 262.9 258.1 254.2 251.9 250.9 253 251.6 250.2 249.4 246.8 245.2 244.3 241.5 241 238.4 236.5 225.6 218.2 217.2 217.2 217.1 216.1 217 217.1 217.7 218.2 217.9 220 218.4 218.2 218.2 218.6 224.6 233 245.7 253.4 262.7 276.2 291.9 302.9 312.8 325.5 343.3 352.8 359.1 369.7 380.1 388.8 397 405.2 413.2 420.6 429.2 441.9 451.7 463.9 475.8 485.9 491.3 493.1 493.3 496.1 501.4 510.7 518.2 525.7 531.6 532.8 537.4 548.3 561 572.9 582.6 590.5 603.4 616 624 627.2 627.5 627.5 627.9 625.4 618.9 613 607.3 598.5 590.2 580.5 572.7 557.9 538 515.3 495 478.2
423.8 432 438.8 444.1 447.9 452.4 454.3 454.9 453.2 448.3 442.3 433.9 424.4 415.5 405 399.3 394.2 387.9 383.2 380.4 378.4 376.2 373.4 370.8 367.6 364.3 361 357.8 353.6 348.9 343 342.8 343 343 340.3 346.2 352.5 357.3 362.4 371.6 379.9 391.5 401.4 409.4 418 426.5 432.7 437.6 440.5 440.2 436.8 432.5 426.1 419.6 412.5 404.6 398.9 392.8 388.4 384 383.1 383.9 386 387.5 389.3 391.4 393.9 396.9 401.1 406.5 411.5 416.1 417.3 417.1 416.5 415.3 411.7 408.2 406.2 404.4 401.5 397.8 393.6 390.2 387.6 385.1 381.6 378.7 375.5 375.2 382.2 368.5 360.4 347.3 346.3 340.1 331.2 319.7 313.2 307.7 299.9 293.3 286.4 275.5 276.2 270.6 263 259 255.4 252.2 249.9 250.1 249 250.8 248.9 245.9 244.5 243.1 241.8 239 239.3 232.9 229 217.1 215.9 217.3 217.1 217 216 216.9 217.9 217.7 217 217.9 219.4 218.1 217.9 218.6 224.4 236.7 247.8 252.7 264.2 276.6 290.3 304.1 312 323.7 339.1 349.8 357.1 368 377.9 387.4 396.4 405.8 414.7 424.6 434.4 447.6 460.2 473.4 487.8 498.9 506.2 512.8 512.6 512.3 517 525.6 532 538.2 541.6 540.1 537.6 542.5 555.5 565.7 580.3 583 591.2 601.5 609 613.2 616.3 619.4 619 615.5 608.6 601.2 594.7 588 579 568.8 560 548.1 533.3 514.7 496.7 482.8
417.7 425.1 431.2 436.9 441.2 445.7 449.7 452.7 452.3 449.2 443.5 436.4 426.7 416.7 407 400.7 394.9 388.3 383.6 381.5 379.5 377.4 374.3 371.3 368.6 365.5 362.2 358.9 355.2 350.5 346.3 342.2 340.4 340.5 336.5 343.8 348.5 354.3 361.2 370.1 380 391.3 401.7 410.5 419.3 428.1 434.7 439.2 442.3 442.9 439.5 434.1 427.8 421.3 414.8 407.5 400.6 394.5 389.2 384.3 380.4 381.9 384.2 385.8 387.3 389.5 392.1 394.7 398.9 405 410.2 415 417.1 417.3 416.6 415.2 412.6 408.7 405.5 403.9 401.9 398.4 394.8 392.1 389.6 386.5 382.9 380 376.8 373.4 372.7 367.2 360.1 353.8 343 331.2 321.5 314.7 310 301.2 298.2 293.3 284.1 285.3 277.8 273.5 266.6 261.7 258.2 253.8 249.8 249.3 247.5 247.5 247.4 245.2 243.3 241.6 240.1 239.3 239.1 233.7 230.1 217.4 217.2 216.6 216.3 217.2 217.2 217.9 216.2 216.6 220 220.9 218.7 217.9 217.6 219.6 225.3 239.1 248.6 255 264.9 278.9 290.5 302.7 311.9 324.3 336.5 345.4 355 366.4 376.5 385.7 395.4 405.1 414.5 426.1 439.9 453.2 467 481.2 496 508.2 517.5 524.6 529.8 530.1 531.5 538.7 544 548.1 547 544.4 540.8 540.2 544.5 557.9 569.6 577.3 583.3 589.4 597.8 603.4 606 610 611.7 605.7 597.9 589 582.1 574.5 565.7 556.3 546.6 537.8 525.7 511.7 497.4 483.5
413.4 418.3 424.1 429.7 434.6 440.8 445.1 449.7 451 449.7 445.3 438.7 430.2 420.2 411.9 404.5 397.3 391.1 383.7 380.7 378.5 376.2 374.4 371.8 369 366.4 363.4 360 356.7 352.1 348.2 344.8 340.9 338.1 336.7 338.4 344.8 350.1 359.2 368.9 379.9 389.3 399.8 410 419 427.5 435.2 440.9 443.5 442.2 440.2 436.2 428.3 421.6 415.3 408.2 402.5 396.3 390.8 384.9 380.3 380.3 382.4 383.3 385.2 388.3 390.8 392.8 396.6 403 408.8 412.7 415.9 416.1 415.6 414.8 412.1 408.7 405.3 402.9 401.1 397.7 394.7 393 390.9 388.3 385.1 381.6 378.8 375.7 371.7 367.9 360.6 354.1 346.6 341.1 334.5 327.1 321.8 316.3 309.4 301.7 294.4 286.9 282.5 275.6 270 264.9 258.8 256.6 249.9 249.8 247 246 246 244.2 242.3 236.9 236.5 237.3 236.2 235.6 229.7 217.6 217.2 215.6 216.9 216.5 217.1 217.2 216.6 218.3 218.2 217.7 217.4 217.5 217.5 221 232.4 243.6 252 259.8 266.8 279.1 289.1 300.2 311.4 321.2 332.9 343.7 352.2 363.7 374.3 383.4 394.1 403.4 413.1 428.9 446.1 459.4 473.3 488.4 504 516.5 528 534.1 539.9 544.8 548.1 550.6 555.3 552.3 550.4 543.9 539.9 538 539.3 547.4 558.9 570.2 580.2 586.6 591.2 595.3 599 602.4 603.3 596.5 588.7 578.9 568.3 556.8 550.5 543.5 533.6 523.8 516.1 507.2 493.6 476
409.8 412.9 414.4 420.2 427.5 434.2 441.2 446.1 450.6 450.3 447.2 442.5 434.9 426.2 418.1 409.3 400.3 392.7 385 380 377.3 374.9 373.2 371.4 368.9 366.4 364 361 357.9 353.9 350.2 346.5 343.3 340.9 338.7 333.4 339.9 348.1 357.1 367.1 377.2 386.6 397.6 406.3 415.5 424.1 432.6 440.9 441.2 439.7 436.9 434 427.7 420.4 413.5 407.4 400.7 397.1 391.5 385.8 381.8 377.7 378.9 379.9 383.6 386 387.9 389.9 394.1 400.4 406.7 410.7 413.5 415 414.4 413.4 411.1 408.1 405.2 402.9 400.3 397.3 395.1 393.4 391.7 389.7 386.4 382.9 380.4 377.6 374.4 371 366.1 358.5 351.1 343.9 338.3 329.9 325.5 320.5 313.1 305.5 300.2 293.5 286.5 278.9 271.2 268.8 262.1 257.7 252.2 249.2 248.2 245.5 244.9 243.8 243 242.2 234.3 232.1 233.5 232.4 228 217.5 216.8 216.9 216.2 216.3 217.1 216.7 217.5 218 219.9 217.1 217.2 217.3 218.3 227.3 234.9 244.7 252.4 262.2 269 278.5 290 301.3 310 319.5 329 340.1 351.4 361.9 371.9 381.1 391 403.8 417.6 436.6 453 467.3 481.1 495.6 510.5 522.5 534.5 545.1 550.1 557.5 564.8 566.1 560 554.9 549.4 541.2 538.3 534.8 536.4 545.3 552.3 563.7 577.8 584.1 587.8 590.3 593.4 595.3 594 587.5 578.6 565.7 551.6 540.4 535.4 527.8 519.8 510 505.2 501.8 483.3 464.4
405.7 409.3 410 411 418.8 425.3 435.1 442.4 449.2 451 448.8 445.9 440.3 432.5 423.9 413 402 393.7 386.2 380.1 376.5 373.8 372.1 370.8 368.9 366.4 364 361.4 358.5 355.5 352.2 348.5 344.8 340.9 338.7 334.9 332 343.9 353.8 364.4 374.1 383.8 394.2 403 410.5 417.5 426.2 432.8 434.3 432.6 431.2 428.6 423.8 417.3 410.4 404 399.6 395.2 390.4 385.8 382.3 378 376 377.6 380.7 383.9 385.6 387.3 391.9 397.7 404.4 408.1 410.9 412.5 412.5 411.2 408.8 406.7 404.6 401.9 399.3 396.7 394.6 393 391.3 390.1 387.5 384.2 381.8 379.2 377.1 373.8 370.2 362.8 356.5 348.8 341.1 336 330.7 323.9 318 310.2 302.6 295.7 289.4 282 274.9 268.8 263.1 258.2 255 249.3 245.5 243.7 244 243.3 242.3 241 234.8 230.9 225 226.2 226.6 216.7 216.3 216.3 216.1 216.6 216.5 215.8 217.2 218.7 218.5 218.1 217 219.1 222 231.2 239.3 246.5 255.8 264.3 272.8 281.4 291.1 301.7 310.8 318.7 327.3 337.2 348.8 359.2 369.4 378.8 392.7 408.3 423 444.9 460.7 476.2 491.1 504.5 516.2 529.5 539.6 552.5 562.2 570.9 573.4 573.4 565.1 553.3 543.9 537.8 533.7 528.5 530.5 540.7 549.3 560 572.6 579.9 583 584.1 587 585.4 582.1 576 567.9 554 538.7 523.7 517.7 510.5 502.9 496.4 494.1 486.7 470 455.1
401.2 404.6 406.7 407.5 412.7 418.8 427.6 438.3 445.7 450.9 451 448.3 444 437.9 427.9 415.8 404.2 394.7 386.8 380.5 375.9 373.1 370.3 368.8 367.7 365.7 363.5 361.3 358.9 355.8 353 350.3 346.4 342.1 338.6 330.1 330.3 342.2 351.1 361.1 370.2 380.7 390.3 399.8 407 413.1 418.2 423.3 425.6 425.3 424.3 421.6 417.8 412.9 407.7 401 396.6 392.6 388.8 384.8 381.7 378.2 374.7 374.9 378 381.2 383.3 385.2 389 393.7 401.8 405.4 408.5 410.1 409.8 409 406.9 405.1 403.4 401 398.4 395.7 393.4 391.5 389.8 389.4 389.2 385.6 383.4 382.2 380.1 377.1 371.8 365.3 359.6 353.1 344.4 339.8 334.3 327.8 322.4 313.1 306.9 299.1 290.9 284.8 278.2 271 266.5 261 255.6 251.2 245.6 243.3 242.9 242.2 241.1 240 235 229.6 224.2 222.1 220.6 218.9 216.1 215.9 216.1 216 216.8 216.5 217.4 217.4 217.6 217.1 216.8 219.5 226.5 233.5 240.7 248.3 257.1 266.1 274.4 282.9 291.6 301.1 310.9 319.2 326.3 335.1 346.3 355.7 365.1 380.7 398 414.9 431.8 449.3 468.3 484.5 499.7 513.1 523.8 536.3 545.9 552.4 564 570.6 573.3 564.2 555.2 547.6 541.2 532.8 525.8 522 523.8 531.9 543.8 553.9 563.4 572.4 577 578.1 578.7 576.6 571.2 563.8 555.6 541.7 524.6 509.1 500.8 493.8 488.3 485.1 482.8 473.3 457.1 445.1
396.9 399.8 402.4 405 407.9 412.8 421.1 432 442 448.5 452.5 450.8 446.5 439.3 430.3 418.7 406.4 395.7 387.2 380.3 375.4 372.4 369.5 366.9 365.8 364.7 362.5 360.4 358.3 356.2 353.3 350.6 347.1 343.3 339.5 330.5 327.3 325.8 340.7 356.1 366.7 376.9 386.1 395.5 403 409.1 414.6 417.5 419.4 419.9 416.9 413.9 409.7 406.7 403.1 398.7 394 389.8 386.7 383.5 380.7 378.8 375.5 373.3 374 376.5 379.5 383 386.8 391 398.6 403.7 406.1 407.9 407.3 406.7 405.3 403.5 401.8 400.1 397.4 394.8 392.5 390.1 388.8 388.7 388.5 387.9 386.1 386 384.3 382.1 378.1 373 364.1 357.3 350.6 345.7 339.2 332.1 326.3 316.9 311.2 301.9 293.2 286.8 280.2 273.7 268.2 262.7 257.1 253.1 247.2 241.4 240.7 239.3 239.7 238.6 236.4 230.2 224.3 220.4 220.7 217.9 216 216 215.7 216.8 216.2 217.2 217 216.7 216.4 216.4 217.9 222.3 229.1 236.1 242.7 252.4 259.9 267.3 275.4 283.7 292 300.7 309.8 318.7 326.1 335.2 343.4 352.6 367.6 386.1 403 419.1 438.8 454.6 473.9 491.5 506.8 520.3 533.5 546.9 556.8 550.9 551.5 556.4 557.6 551.8 544.2 539.9 535.8 529.8 522 514.6 515.3 524.7 533.7 544.4 555 563.5 568.9 570.5 568.8 565.3 560.2 553.8 543.9 531.5 515.5 497.5 490.3 483.6 477.7 472.1 467.1 460.7 448.6 435.5
390.9 394.4 397.4 401 405.9 408.6 415.6 426.1 436.4 446.9 452.8 452.8 447.2 439.9 430.7 419.9 408.2 397.9 388.3 380.1 374.7 370.8 367.7 365.9 364.5 363 361.5 359.4 357.3 355.2 353.3 350.8 347.7 344.2 340.6 336.5 333.5 326.7 325.6 353 363.4 371.6 382.5 391.9 399.2 405.6 411 412.6 414.2 414.2 411.1 407.4 403.1 400.3 397.2 393.6 389.1 386 384.1 381 379.9 378 376.2 374 371.9 374.3 376.8 380.6 384.3 388.3 395.1 401.2 404.4 405.8 405.9 406.5 404.1 402.1 400.2 398.5 396.5 393.9 391.6 389.2 388.3 388.1 387.6 388.7 388.4 389.2 389.4 387.6 384.7 380.4 372.4 364.9 358.4 353.7 348.3 341 333 323.7 314.8 304.9 298 291 283.4 276 270.6 264.8 259.1 254.4 249 243.2 239.1 238.2 234.7 233.1 235.2 230.6 222.3 219.8 218 217 216.3 215.8 216.2 215.6 216.9 217.1 216.9 216.7 216.5 216.3 218.8 225.8 233.3 239.7 247 255.1 262.1 269.4 278 286.3 293.8 301.1 309.7 318.2 325.4 332.9 342.3 353.6 369.7 393.5 408.8 426 443.7 461.2 478.4 496.9 514.5 532.6 546.2 556.8 560.1 554.1 544.1 543.6 545.5 538.8 533.4 532.8 530.7 525.8 518.1 509.2 507.2 516 525 534.3 545.6 553.4 557.5 559.4 561.2 555.9 550.1 543.7 533.3 520.2 504 488.9 481.9 474.7 467.8 462.3 457 450.4 437.6 424.8
384.7 388.3 392.1 397 403.9 405.8 410.7 420 431.4 443.9 452.7 453 448 439.5 429.4 418.4 409 398.1 388.3 379.4 373.5 369.2 366.2 364.9 363.4 361.9 360 357.9 355.7 353.8 352.1 350.2 347.7 344.5 341 337 332.9 325.5 328.7 349 359.8 370.8 382.3 391.8 397.1 403.5 407.8 409.8 411.4 409.1 405.1 401.4 397 392.8 389.7 386.9 384.6 381.6 380.3 378.4 377.4 377.1 375.9 372.9 370.2 371.6 374.4 378.1 381.9 385.8 391.8 398 402.4 405.5 406.3 406.4 403.4 401.1 399.1 397.2 395.2 393 390.6 388.3 388.2 387.3 387.9 389.3 390.4 391.2 393.6 393.4 390.5 387 381.2 373.3 365.9 361 355.8 347.9 339.7 330.6 320.8 310.3 303.1 295.1 286.7 278.4 273.3 267.8 262 256.4 252.3 246.2 240.8 239.6 238.3 236.2 226.3 224.8 221.2 219.7 217.7 216.9 216.4 215.9 214.9 216.5 216.8 217.1 217.2 217.1 217.1 216.9 220 227.5 237.1 241.3 250.2 257.1 264.1 271.6 280.1 288.1 295 302.6 310.3 317.6 325.1 333.5 344.3 356.3 374.8 397.8 416.2 433 452.6 468.6 485.4 501.6 523.5 545 550.4 553.8 556.9 552.1 541.2 533.4 529.3 527.4 525.7 527.5 522.5 520.8 514.1 504.2 499.7 505.7 515.4 525.1 534.6 542.8 548.7 551.4 553.5 550.8 545.4 537.1 524.4 512.9 499.3 483.3 473.5 466.5 458.9 452.8 447.5 440.5 426.8 414.8
378.3 382.2 386 391.4 397.6 402.1 407.1 416.6 427.9 439.8 450.1 452.8 449.7 439.6 428 417.2 408.3 398.7 387.2 378.3 372.2 368.7 364.4 363.2 362.1 360.3 358.4 356.3 354.2 352.6 350.9 349.2 346.9 344.3 340.8 337.2 332 322.7 320.8 346.8 358.4 369.8 380.7 391 397 401.9 407.8 408.3 407.6 406.6 400.8 396.6 391.7 387.4 383 380.4 378.3 377.1 375.9 374.6 374.3 374.3 374.5 373.1 371.4 369.5 372.4 375.7 379.2 383.9 389.6 396.8 402.3 405.3 406.8 406.6 403 400.1 398.1 396 393.7 391.2 388.9 387.7 385.5 385.2 387.7 389.4 391.6 394.9 397.4 398 397.3 394.1 389.3 381.3 373.9 366.8 361.2 357.5 347.9 336.4 325.3 315.1 307.3 296.9 289.2 281.1 275.4 270.6 264.8 258.9 254.9 248.7 242.3 239.2 236.5 237.8 236.1 229.8 224.2 219.3 217.3 216.9 216.6 215.6 215.1 216.5 216.6 216.9 217.2 217.2 217.2 217.2 219.5 227.8 235.8 242.9 252.3 258.5 266.1 273.7 281.5 289 296.3 302.5 310.5 318.1 325.8 335 347.5 360.9 380.8 403.1 422.5 439.3 459.2 476.7 492.6 508.8 527.5 545.2 550.3 551.2 549.2 543.7 533 527.1 521.9 518.1 516.6 517.2 518 515.3 508.6 501.9 494.6 495.6 504 512.3 521.5 531.5 538.8 543.6 546.8 546.6 542.1 532.8 519 508.4 493.9 476 467.4 459.8 450.4 443.1 437.9 428.6 418.5 408.6
372.1 376 379.9 385.6 391.5 396 403.6 414 425.7 435.2 445.9 449.2 447.3 438.7 428.4 416.7 407.8 396 385 376.5 370.9 366.4 362.4 360.2 359.4 358.7 356.8 354.7 353 351.3 349.6 347.7 345.4 342.9 339.8 336.5 331.5 321 321.4 343.9 356.1 367.7 379.5 388.5 396.8 403.6 404.7 406.7 403.7 401.8 397.5 392.8 387.6 381.9 377.5 374.6 372.5 371.7 371.4 370.8 370.7 371.1 371.9 371.2 370.1 366.1 370.2 374.6 377.7 382.2 388.9 396.8 402.6 405.6 408.3 408.7 404.9 400.7 396 394 392 389.9 388 386.5 384.4 385.3 387.4 390 393.4 396.9 401.1 403.9 403.8 401.2 396.8 389.6 381.6 374.2 366.9 364.6 355.2 341.8 331.1 319.2 309.3 301.7 291.4 283.4 278 272.8 267.2 261.2 255 249.7 245.1 239.1 237.5 235.3 235.3 228.7 224.4 220.5 216.6 216.5 216.4 216.5 216.7 215.3 214.2 216.7 217.2 217.3 217 216.7 220 230 238 244.9 254.9 261 267.8 274.7 282.2 289.7 296.6 303.6 310.8 318.7 327.4 337.6 351.9 367.1 387.2 407.5 426.1 445.3 465.2 483 500.3 516.2 532.1 545.2 551.6 548.1 544.1 537.7 525.8 521.9 516.1 512 510.2 510.7 513.5 511.2 504.8 498.5 491.4 489.1 494 502.6 508.8 518.7 527 533.4 540 541 538.1 530.3 517.2 504.2 491.9 473.5 461.4 451.7 442.3 434.6 426.9 419.6 410.9 401.3
367 370.6 374.8 380.1 385.5 391.1 400 409.6 420.6 431.5 437.7 439.3 440.1 436.4 428.7 416.1 405 393.1 383 375.5 369.9 364.5 361.4 360 356.6 356 355.2 353.4 351.7 349.9 348.1 346.3 343.9 341.1 338.1 334.4 326.1 316.4 324.1 342.3 357.3 369 379.1 388.2 397 404 407.9 408.2 404.9 399 393.7 388.3 383.2 378.3 373.4 370.1 367.9 366.5 367.1 367.1 367.5 368.5 369.3 369.4 369.6 367.6 367.2 372.7 378.6 383.3 388.1 396.7 402.8 406.8 409.5 407 403.4 399.9 395.5 391.1 389 388 386.4 383.9 381.2 385.4 388.2 391.1 394.5 398.9 403.3 408 410.6 407.9 404 397.5 389.8 382.1 373 365.4 359.8 347.4 335.4 325 313.6 305.7 297.5 287.3 279.7 274.6 269.4 263.5 257.4 252 246.7 240.3 236.9 234.9 226.3 223.6 221.9 218.4 217 216.4 216.4 216.4 215.9 216.5 215.5 215.8 215.4 216.6 216.3 217 221.1 231.8 240.5 246.7 255.2 261.5 268.1 274.8 282.5 290.1 297.6 304.8 312.1 320.1 329.5 342.3 356.2 373.8 395.9 413.3 431.9 452.1 470.6 487.7 507.5 524.5 534.1 540.8 545.6 541.8 530.3 522.9 515.8 512.3 509.8 507.9 505.4 505.5 506.6 504.1 499.8 494.8 488.3 484.5 487.6 494 498.6 506.2 517 524.3 530.9 535.4 535.8 529.1 517.8 504.3 488.5 471.3 457.7 445.4 433 425.5 418.7 412.3 405.3 394.9
361.7 365.6 371.2 376.8 383.2 390.9 398.5 406.4 415.5 421.9 427.1 428.6 428.8 428.2 425.1 413.4 401.4 390.3 378.8 370.5 365.5 361.8 362.9 359.7 354.1 352.6 352.5 352 350.3 348.5 346.6 344.8 342.2 339.3 335.4 332 321 314.6 326.1 345.6 359.8 371.2 380.8 389.5 398.4 404.6 407.8 405.7 402.3 397.8 390.9 385.5 379.7 374.9 370.3 366 363.7 361.9 362.5 363.2 364.9 365.9 366.7 367.8 368.1 366.1 365.4 371.3 377.3 383.4 389.3 397 403.4 407.5 409.3 406 401.7 397.8 394.9 390.2 386.5 385.9 385 382.6 378.2 385.5 388.5 391.9 396.5 401.1 407.1 412.7 416.5 414.7 411.6 407.2 399.9 390.7 378.5 368.8 360.3 349.2 338.5 329.2 319.6 309.2 301.5 292.4 282.6 275 270.6 265.8 260.3 257.2 252.2 244.9 238.5 236.1 233.5 229.5 221.8 218.3 216.8 215.4 214.8 215.2 216.4 215.2 216.9 216.5 216.9 216.4 216.3 216.9 220.5 235.4 238.8 248.5 255.6 262.1 268.5 275.1 282.9 290.3 298 306.1 314 321.8 332.6 347.4 364.1 382.3 402.9 419.4 437.7 457 474.6 491.5 510 523.7 526.5 529.7 526.5 522.8 516.6 506.9 499.2 499.2 500.7 499.4 499.4 499.6 497.8 497.6 495.2 490.8 485.2 481.5 482.6 486.2 489.9 496.5 507 519.7 525.9 532.1 533.9 529 519.1 502.8 487.5 471.2 456.9 442.3 429.4 419.8 412.1 406.5 398.6 389.3
354.3 360.9 366.3 372.2 381.4 391.4 398.5 402.8 408.4 410.9 413.4 415.2 417.3 416.7 413.1 405.1 391.6 381.4 373.4 368.2 363 358.8 350.5 348.9 347.9 347.8 349.5 349.4 348.6 346.8 345 343.2 340.5 337.6 333.6 327.5 311 313.7 333.3 348.7 361.1 372.4 382.3 390.8 399.8 405.5 406.7 406 402.6 396.7 389.6 382.7 378.6 373.1 367.5 363.9 361.4 358.1 357.7 358.1 360.5 362.6 364 365.9 366.7 362.9 365.2 370.7 375.9 382.9 387.4 396 404.4 407.7 408.5 406.6 400.3 395.4 392.4 389.5 384.6 382.8 382.4 378.7 381.1 385.3 388.1 392.6 397.1 403.7 410.4 417 421.5 421.3 418.9 415.3 409 400.8 386 371.8 362.3 351.1 340.6 332.6 323.8 312.6 304 296.4 287 279 272 265.1 262 257 253.7 248.2 242.4 236.4 233.6 231.9 230.5 221.8 216.8 216.1 216.8 216.6 220.7 225.9 225.7 224 223 219.3 216.7 217 220.8 232.5 239.9 248.9 255.4 261.9 268.4 274.6 280.9 290.1 299.4 307.4 316.3 325.5 337.1 353.5 372.3 392.2 412.6 429.7 445.1 461.4 478.5 495.4 514.9 522.6 521 514.7 512.3 506.2 499.6 491.4 487 484.2 487.8 489 489.8 489.9 490.9 490.2 488.4 485.7 481.9 477.8 478.1 481.6 485.3 490.2 501.6 512.7 521.3 528.7 531.9 530.7 520.2 506.1 487.7 472 456 443 428.3 416.3 407.2 399.3 394.4 385.2
346.9 353.4 360.5 368.1 378.7 387.6 392.8 396.4 400.4 403.1 403.3 403.3 403.3 402.2 399.6 394 383.1 374.8 368.8 364 359 353.4 348.4 351.3 351 346 344.3 346.5 345.9 345.1 343.3 341.5 338.7 335.8 330.9 325.4 309.3 318.6 335.2 350.3 362.8 373.7 383.6 392.7 401.6 406.9 408.1 407.9 402.3 396.1 388.6 381 376 371.3 365.2 361 357.7 354.9 354 354.7 356 357.9 360.4 363.1 361.6 360.9 365.2 368.8 374.9 383 389.9 396.8 405.3 408.3 408.9 407.7 401.1 393.1 390.3 387.4 382.7 380.3 379.8 373.8 380.9 384.2 387.7 392.4 398.6 406.9 414.2 421.1 425.9 428 426 423.2 419.6 410.2 394.8 376.9 363.9 351.8 343.4 335.4 328.4 316.5 307.1 299.5 291.6 283 274.9 268.3 261.9 257.3 254.3 248.1 243.7 239.2 234.5 228.8 226.6 221.7 216.5 214.2 216.8 221.4 229.4 229.1 230.4 228.9 222.5 217 216.6 218.4 220.4 232.1 241.4 250 255.7 260.9 267 273.1 280.3 289.1 299.1 307.9 318 328.3 342.1 358 378 399.2 420.2 437.4 452.3 466.7 482 496 509.4 517.4 514.6 509.6 503.9 495.6 489.7 482.1 475.6 471.1 474.8 476.7 479 481.5 480.7 482.4 481.9 480.2 477.3 473.3 474 477.5 481.3 485.7 496.2 506.5 516 525.2 531.1 531.2 525.6 514 493.4 475.8 458.9 441.9 428 414.4 404.3 396.2 385.7 380.5
339.8 346.2 353.8 363.9 371.9 381.2 386.9 389.9 391.3 392.7 392 393.3 391.8 390.3 387.6 385.4 374.6 368 362.3 358.2 351.4 349.3 346.3 343.1 345.7 347.5 344.7 340.8 343.6 343.2 341.7 339.8 336.9 334.1 329.2 315.6 307.5 321.9 337.3 351 364 374.6 384.9 395.1 404.3 407.8 406.6 404.6 401.2 395.8 388.4 380.9 374.4 368.8 363 358 354 351.8 351.3 351.6 352.6 354.5 357.2 359.8 355 362 365.9 369.1 374.9 384.6 391.9 398.9 405.9 410.1 409.2 407.7 404.7 393.5 387.6 384.8 381.9 379.3 373.3 377.9 379.9 382.6 386.7 393.3 401.4 409.9 415.8 423.7 429.2 431.9 432.3 431.8 429.3 418.3 403.4 383.7 366.5 355 346.2 338.4 330.8 321.8 312.4 303.2 295.3 286 278.9 272.6 264.3 257.9 254.5 250.4 245.3 242.2 236.9 232.8 228.3 220.1 216.3 216.4 216.6 222.2 228.3 229.7 229.8 228.2 225 219.3 216.7 218.6 223.4 230.6 240.6 248.2 254.2 260 265.5 272.4 281.4 288.8 299.5 308.1 320.4 332.6 347.5 362.4 380.9 401.6 424.3 440.3 456.9 472.2 484.3 495.7 502.3 505.7 506.2 503.8 498.8 489 475.7 469.1 461.6 456.5 457.3 465.2 468.7 470.7 473.3 475.8 476.1 475 472.4 469.3 470.2 473.4 478.8 486.1 493.7 501.4 511.6 522.6 528.4 534.3 532.9 525 504.1 484.6 465.2 446.1 427.7 414 402 392.9 384.9 377.4
331.5 340.7 349.4 359.7 367.3 372.4 378.7 381.8 383.9 382.6 378.5 379.9 381.6 379.3 373.9 371.3 364.8 363.1 360.8 354.8 349.9 346.6 342.9 339.3 341.4 344 344.4 342.2 340 341.6 339.9 338 335.3 332.5 329.3 316 306 322.5 337.1 350.2 362.5 374.5 384.9 396.5 405 409.5 406.6 401.4 397.6 392.8 386.7 379.6 372.4 366.6 360.8 355.2 351.2 349.7 348.6 348.6 349.6 351.2 354.1 354.4 357 362.6 367 370 374.4 386.3 393.9 402.2 407.9 411 411 406.1 402.5 394.8 386 382 379.3 375.4 373.1 375.5 378.1 380.4 385.2 392.5 400.1 410 417.4 424.2 429.2 432.8 434.4 435.7 433.3 422.8 408.7 390.4 372.8 358 347.7 339.8 332.5 325.3 317.2 308 298.2 289.6 281.8 275.1 267.9 260.3 255.5 250.8 245.8 241.9 239.1 233.5 230.6 222.2 216.6 216.5 219.6 218.9 225.5 228.8 228.1 227.2 225.1 221.8 217 217.5 223.3 231.3 239.4 246.4 251.4 259.1 264.4 273.3 281.9 289.2 298.7 309.7 320.7 335.4 350 365.6 384.1 404.2 421.7 441.6 458.3 473.6 486.1 496 500.2 499 497.7 495.1 489.5 480.2 468.5 455.6 447 442.7 444 451.7 458.5 462.5 466 469.2 469.5 469.2 467.6 465.5 465.8 468.4 476.4 485 492.7 499.7 509.1 522.7 530 536.7 538.2 532.6 515.6 493.4 473.8 450.3 431.2 413.6 400.1 390.1 380.7 373.9
323.5 335 342.2 353.7 359.5 364.1 369 372.2 373.7 375.1 371.3 366.7 367.3 368.4 365.5 360.2 358.5 357.8 356.8 352.1 347.3 343.2 340.3 336.9 336.9 340.3 341.1 341.2 336.5 339.9 338.8 337.3 333.1 330.2 325.3 306.4 308.4 324.3 335.5 347.8 359.5 372.4 383.3 395.8 404.5 408.2 406.2 400.7 395.4 390.8 384.4 377.3 369.8 363.7 358.6 352.7 349.8 348 346.6 346.4 347.1 348.7 350.6 348.5 357.3 362.5 367.9 371.6 377.8 387.9 397.4 405.2 410.9 411.8 411 408.7 399.6 392.9 385.5 378.7 376 373.3 368.1 373.7 376.6 378.7 382.7 390.6 398.4 407.4 416.5 423.2 427.5 430.3 432.2 435.8 433.6 424.6 412.2 396.3 378 361.4 350.3 341.2 335.2 327.9 320.5 311.6 303.1 294.5 285.5 277.2 269.3 262.6 257.8 252.5 248 243 239 236.2 228.4 223.6 218.3 214.6 220.9 225.1 228.2 227.5 225.9 226.6 225.6 221.2 217.1 216.8 221.5 229.3 237.3 245.1 249.5 255.5 263.1 271.3 280.6 289 298 307.9 321.2 335 351.4 369.2 387.6 403.3 419.3 438.8 457.4 471.6 486.7 499.5 501.3 496 491.5 486.1 479 470.3 458.6 444.2 436.6 432.7 434.6 441.4 449.7 454.5 458.4 462.6 463.4 463.6 463.5 462.4 461.6 468 473.9 482.3 490.7 495.3 508.7 521.6 532.8 542.6 545.3 538.4 523.6 500.7 479.2 455 433.6 414.9 399.4 386.6 377.4 370.7
320.1 329.7 336.5 342.6 351.1 355.1 358.7 360.7 366.2 366.7 367.5 361.7 358.7 357.6 355 352.6 351.2 351.8 351 346.9 343.7 339.7 337.2 335 335.1 335.4 337.5 338.1 334.5 337.4 338.4 336.2 330.9 328 313.5 302 313.8 324.9 332.9 345.8 358.2 369.6 381.6 391.6 401.1 407.5 404 398.9 393.9 389 382.5 374.9 367.3 360.8 354.6 350.7 347.3 345 343.2 343.9 344.1 344.2 345.7 351.4 357.8 362.6 368 372 382.7 391.5 400.7 408.3 413.9 412.1 409 407.9 398.2 391.1 383 376.4 372.9 370.4 367.2 371.9 374.7 377.2 381.4 387.9 395.6 404.2 411.5 418.8 423.5 426.4 429.3 434.2 431.3 424.2 416.3 400.9 383 365.3 352.7 343.5 337.1 330.4 323.8 315.6 307.1 298 288.2 278.7 271.2 264.5 258.6 252.6 248 244.4 241.1 237 233.5 229.7 216.8 216.2 221.1 228.9 228.1 228.8 227.9 226.5 225 224.1 221.6 217.5 219 229.9 237 244.4 247 253.9 261.3 268.8 279 287.3 296.2 309.4 321 335.6 352.7 368.2 388 405.1 419.2 433 453 468.8 484 497.9 502.5 497.3 489.9 480.2 470.5 460.3 447.6 437.3 431.6 426.8 427.3 432.1 440.2 447 452.6 456.6 458.6 458.9 458.6 458.5 460 466.9 474.6 480 487.4 494.6 508.3 523.7 536.7 547.2 549.5 542.5 526 504.5 482.1 455 434.8 416.4 399.2 384.9 374.8 367.9
311.2 320.8 328.4 332.4 340.2 343.3 348.4 350.9 354.4 359 358.6 353.6 351.3 349.5 348.8 345.9 344.9 345.2 344 342.5 339.9 336.7 333.8 333.1 333.2 333.3 333.4 334.6 333.1 333.9 335.2 332.6 329.4 326 308.6 301.7 316.6 323.5 332.8 344.7 357.8 369.2 379.5 389.4 399.1 404.4 401.9 397.2 392.4 387.1 380.2 372.6 364.9 358.3 353.1 348.2 344.4 342 340.6 340.7 339.7 339.8 347.4 354 358.5 363.6 368.7 376.5 387.1 395.7 404.2 412.3 416.5 413 408.4 404 397.2 388 379.7 374.7 370.3 367.9 365.1 369.6 372.9 375.5 379.3 385.6 392.2 399.6 406.8 413.9 418.8 422.9 426.7 428.4 428.5 423.7 416.5 405.3 388.3 371.8 357.3 345.8 338.4 332.1 326.2 318.9 311 300.6 290.5 281.8 274.1 266.3 259.1 254.1 249.7 244 240.8 237.6 233.7 223.8 217.8 216.1 217.8 223.5 226.1 228.8 228.6 226.1 224.4 223.9 221.8 217 219 225.7 234.6 240.9 245.4 251.9 259.4 267 276.6 287.5 298.5 309 322.1 336.2 351.9 367.4 385.4 402.8 417.5 431.2 446.9 464.6 480.9 491.9 499 497.6 487.4 479.6 465.1 448.7 438.8 432.3 427.2 423 421.8 425.5 433.8 440.5 445.4 450.6 452.7 454.6 454.9 453.8 458.1 465.2 473.3 479.2 486.5 497 511.1 525.4 538.5 548.4 549.9 541.3 525.1 503.2 480.1 456.2 434 416.1 397.9 382.7 372.5 365.7
297.4 308.5 317.1 322.7 328.6 333.8 336.9 342.4 342.8 344.8 346 342.6 342.3 341.6 340.6 339.1 338.9 337.3 336.2 336.6 335.8 333.7 331.7 331.4 331.7 332.5 333.1 331.7 331.2 329.8 330.8 329.8 326.2 322.4 301.4 297.1 315.1 322 334.4 345.7 356.9 367.7 378.1 387.3 396.1 402.7 402.4 396.3 389.1 385.8 378.6 369.9 363.1 356.8 351.6 346.6 341.9 339.3 337.7 336.1 335.3 342.3 349.5 354.3 359 364.5 369.6 379.7 391.5 401.1 409 415.4 418.2 417.1 409.5 399.6 393 385.2 377.9 373.8 369.5 366.6 363.2 368.1 371.3 373.9 378.1 383.4 389.9 396.3 402 409 413.8 417.4 421.4 424 424.5 420.9 415.7 408.1 392.8 376.3 362.1 350.1 340.5 334.6 328.5 321.5 312.5 303.5 293.5 284.8 275 267.1 260.9 254.9 250.7 245 240.4 238.3 235.9 228.7 220.5 216.6 218.1 219.3 220 220.4 226.3 225.3 223.6 222.9 221.2 217.5 219.8 222.7 229.8 237.4 243.1 252.1 259.4 266.7 277.6 286.9 297.3 309.8 323.5 336.9 352.5 367.2 384.9 399.8 415 428.9 444.7 460 476.2 487.2 492.3 493.5 483.8 476.7 465.2 445.2 435.2 429.1 423 419.2 417.1 419.6 426.3 434.1 438.5 444.9 448.1 450.6 451.7 452.2 457.2 463.4 470.7 476.4 488 499.3 513.8 526.3 538.6 545.4 547.7 539.8 520.8 500 473.9 454.1 432.2 413 394.6 380.9 370.4 363.6
283.9 294.3 305.3 314 320.6 325.3 328.9 329.9 331.2 332 331.1 331.5 332.4 333.1 332.3 332.2 331.4 330.7 329.2 330.1 328.7 328.6 328.4 330.2 330.3 330.8 331.9 330.6 330 328.5 326.4 326.1 325.9 316.3 296.1 302.4 314.7 326.3 339.5 350.8 359.6 368.9 378.9 387.1 392.1 397 398.6 394.6 388.3 381.5 376.6 368.7 361.9 355.4 349.8 344.8 339.8 335.6 334 331.2 335.4 341.4 348.5 354.5 359.2 366.4 375.2 385.1 395.8 405.7 414 419.2 418.1 415.9 407.4 397.3 391.1 383 375.9 370.9 367.6 364.1 362.1 366.5 369.9 372.5 376.8 381.5 387.3 392.6 398.6 403 408.6 411.8 415.6 418.8 419.3 418.9 414.9 407.9 396.3 381 366.4 353.1 343.6 337.2 331.2 323.7 315.1 304.5 295.5 286.8 276.8 269.3 262.3 255.6 250.5 245 240.2 238.4 235.5 232.1 222.7 216.4 216.9 216.7 216.9 216.2 218.7 225 223.3 222.1 221.5 217.4 217.8 219.4 230.4 236.1 242 249.8 257.6 265.8 276.3 287.9 298.3 309.9 324 337.1 352.5 367.7 384.9 398.6 414.7 428.4 442.8 458.1 474.3 482.4 486.8 486.6 482 471 464.1 445.6 431.6 425.6 419.5 414.4 411.9 414.7 419.7 428.9 434.1 440.3 443.5 446.2 445.6 451.3 457.1 462.7 469.5 476 488.4 501.1 515.1 528.1 538.5 543.2 543.3 534.9 516.6 494.2 469.4 449.9 429.2 409.2 391.7 378 368.1 361.1
275.9 282.5 289.9 299.5 307.2 313.7 317.6 320.9 320.5 321.3 321.3 322 323.5 325.1 325.1 325.7 324.7 324.5 321.7 321.3 322.3 323.8 325.1 327.5 329.4 329.2 330.4 329.3 328.3 328.2 326.2 319.2 321.7 300.9 294.9 305.1 319.7 333.4 346.2 357.7 367 375.8 382.7 389.1 390.9 391.9 392.8 392 383.7 377.9 373.6 367.3 360.4 354.5 347.5 342.5 337.8 333 327.9 330.2 335.8 341.1 347.5 352.6 361.5 370.6 380.7 390.8 400.4 409.9 417.4 420.5 418.1 412.9 405.5 397 387.6 381 374.2 369.2 365.6 362.4 360.3 364.9 367.8 371 375.5 380.3 386.1 390.8 395.5 399.1 403.1 406.9 410.6 414.1 415.5 415.8 413 407.3 398.4 385.7 371.2 358.9 348.1 340.1 333.6 325.2 315.6 306.3 296.6 287.8 279.1 271.7 263.4 256.2 250.8 245.4 239.6 237.3 236.1 231.4 224.9 218 214.9 216.6 216.1 216 216.1 220.9 222.9 222 221.5 217.5 217.8 218.8 228.8 235.6 241.1 247.9 255.3 263.7 275.7 288.6 299.5 311.6 324.4 336.9 351.5 368.7 384.1 399.3 414.2 427.4 442.9 456.9 468 476.5 479.9 479 474.9 465.6 456.4 445 427.9 421.2 415.2 410.3 408 410.3 417 422.6 429.3 435.6 438.7 441.1 440.5 448.7 456.2 461.9 469.1 476.4 488.7 502.8 517 530.3 537.1 540.6 537.9 527.7 511.2 487.9 463.3 443.6 422.8 402.4 388.4 375.8 366.8 357.6
272.9 277.4 281.5 286.1 290.2 299.1 304.3 307 309.2 311.9 314.5 315.6 316.8 317.6 319 319.7 319.2 319.4 316.3 310.4 314.6 317.8 321.1 324.2 326.5 328.2 327.5 327.1 326.4 326.4 326 325 300.8 291.5 301.4 314.3 327.2 339.6 351.8 363.4 373.7 382 388.8 395.5 398.3 394.6 388.4 388.7 376.2 377.4 369.9 364 357.7 352.6 345.9 340.9 336.3 330.6 326.8 326.2 336.3 341.1 347.2 353.1 364 373.6 384.9 395.1 404.6 414 420.7 421.4 418.4 412.1 403.9 395.2 385.8 378.7 372.3 368.1 364 361 359.6 362.3 365.5 369.5 374.3 379.1 384.4 389.1 393 396.5 400.1 403.2 406.8 410 411.8 413 411.6 408.5 401.4 389.9 376.4 365.4 354.5 343.1 335.7 328.3 318.1 308.2 299.3 289.3 281 273.4 265.1 258.4 252.1 246.5 242.1 237.2 234.9 232.6 225.4 219.8 215 216.2 216.5 216.3 216 216.9 223.2 222.4 221.4 217.3 217.5 217.7 225.3 233 238.5 244.5 253.7 262.4 274.2 287.9 299.4 311.4 323.9 336.9 352.3 369.4 385.8 400.6 414.2 427.1 440.6 454.1 463.2 470 473.5 473.9 467.9 459.7 450.6 440.5 425.1 417.4 411.2 406.8 402.8 405.4 409.7 415.5 422.9 430.3 433.4 431.6 438.4 448.2 455.7 462.4 470.6 477 489.8 503.9 518.5 531 536.3 537.9 533 522.4 504.2 480.7 453.8 434.2 414.2 399.6 385.9 374.4 365.3 356.1
273.9 273.1 272.2 279.4 282.1 284.8 292.3 295.4 299.1 303.4 307.5 309 310.7 311.6 313 314 314.4 314.5 311.2 309 307.6 312.8 317.5 322.1 323.9 325.6 325.9 324.6 324.2 323.2 321 317.9 298.4 289 307 321.4 333.1 344.6 356.5 368.4 379.5 388.3 395.3 402.3 406.2 402.2 394.3 387.4 377.1 370.1 361.1 361.7 355.2 348.5 343.3 339.6 334.8 328.8 322.3 329.4 334.9 339.8 345.3 355.2 364.4 375.9 387.8 398.6 408.2 416.9 423.3 424.3 418.7 412.1 403.8 394.9 384.9 376.4 369.5 365.9 362.5 359.8 358.6 360.6 363.6 367.1 371.5 376.8 382.3 387.9 391.9 395.2 398.4 401.7 404.9 406.7 409.7 411.3 411.5 409.6 403 394.4 382.7 372.3 359.5 346.6 338 330 321.2 310.4 301.5 291.6 282.9 275 267.2 260.5 253.9 248.5 244 238.6 235.5 233.3 227.8 218.9 216.7 216 216.7 216.5 216.2 216.8 220.4 222.3 221.1 218.9 217.5 217.3 221.3 230.9 235.9 241.7 250.9 261.5 272.8 286 298.8 311.9 323.9 337.2 352.7 370 387.2 402.9 414.6 427.6 439.9 451.1 457.4 463.5 465.3 466.6 461.4 454.6 446.7 437.8 423.1 414.2 408.2 402.7 399.2 400.8 404.7 410.3 417.6 424 419.3 431.7 438.9 447.1 454.8 462.2 468.4 479 492.5 506.5 519.4 529.9 536.1 535.1 528.1 515.5 497.9 474.9 449.4 426.9 410.5 396.4 383.4 373.3 363.9 355.5
273.8 273.3 272.4 274.6 278.3 280.8 283.4 285.5 289.7 295.1 299 301.1 303.7 306.4 308.3 308.2 309.6 310 309 308 304.7 306.9 312.5 316.7 320 321.8 321.9 322.2 321.3 319 318.6 307 287.4 292.2 311.7 325.9 337.6 349.4 362.2 373.5 384 393.9 403.1 409.8 411.2 407.6 399.4 391.4 385.2 376.9 369.9 362.7 356.3 346.8 342.3 330.6 330.8 325.6 319.7 327.1 333.5 338.5 347.8 357.8 368.5 376.9 387.8 400.4 411.5 419.5 426.1 427.1 420.6 413.6 403.5 394.7 383.5 374.9 368.7 363.9 360.5 358 357.3 358.6 361.7 364.9 369.3 374.5 380.1 386.3 391.2 395.4 398.6 401.6 404.3 406.7 410.5 415.5 416 413.3 408.5 399.8 389.2 378.3 363.8 351 341 333.1 324.8 314.4 303.2 294 285.2 277 270 262.9 255.9 250.7 246.2 239.7 235.2 233.2 231.5 222.8 216.6 216 216.5 216.6 216.4 216 218.5 222.5 221.7 220.3 218 217.5 218 226.6 232.5 238.9 247.6 258.4 271.2 286 299.6 312.2 324.6 338.3 355.1 370.5 387.1 403.1 417 428.2 438.5 448.2 453.1 455.4 456.8 457.6 454.3 448.4 441.8 434.7 422.2 411.9 405.3 399.4 396.1 395.7 399 404.4 409.9 411.8 424.1 431.4 439.5 446 453.7 460.6 471.8 483.9 497 511.2 521.1 531.1 536 533.1 524.1 509.3 491.4 470.5 442.9 421.5 407.1 394.4 382 371.4 362.8 354.9
283 272.5 271.8 271.3 271.5 277.5 280.1 282.9 283.4 285.2 289.3 291.4 293.9 297.6 301.2 303 304.5 306 306.3 305.2 303.3 300.8 305.3 311 314.2 317.2 318.8 319 317.6 314.3 313.6 304.8 285 299.9 316 328.8 340.6 354.2 366.9 378.8 389 399.8 408.9 416.5 419.3 416.3 407.1 397.7 388.8 380 372.9 366.7 359.6 350.4 342.8 336.9 328.9 321.8 318.3 322.5 330.3 337.3 349.4 360.7 371.7 381.2 391 403.6 414.4 422.4 428.4 429.7 424.8 414.2 403.4 392.6 383 373.5 368.2 363.1 359 356.9 356 357.1 359.8 363.5 369.4 374.1 379.6 384.9 389.8 394.8 398.6 403.5 406.2 410.5 417.3 422.8 423.6 419.7 414.5 405.8 395 384 370.2 355.3 344.2 335.9 328 317.5 306.9 297 288.3 279.6 272.9 265.2 258.3 252.4 248.3 241.4 234.8 232.6 229.8 222 216.8 216.5 214.9 216.5 216.3 215.9 215.5 220.7 220.6 220.3 218.4 217.4 218.1 222.9 227.9 233.9 245.3 254.3 268.6 285.3 300 312.7 326.2 339.9 355.2 370.8 387.3 402.8 416.2 425.1 434.2 443 448.9 449 448.2 448.3 446.5 441.7 436.8 429.8 421.6 412 403 396.5 392.4 390.7 394.4 397.6 401.4 411 420.3 429.5 438.5 444.5 452.8 462.3 476.5 489.8 503.2 515.6 525.6 533 536.4 531.8 522.4 507.8 490.7 461.7 437.5 418.6 404.4 391.4 380 369.9 361.3 353.4
291.9 281.6 270.7 270.3 270.6 274.6 276 278.4 281.1 282.4 282.7 283.9 287.2 291 295.2 298.2 300.6 303.4 303.4 303.4 303.7 303.2 298.4 303.9 308.2 311.3 313.2 313.8 314 311.3 306.4 297.1 280.1 295.8 318.1 332.2 344.6 357.8 369.9 382.3 394.6 404.8 414.3 422.9 427.4 425.1 414.8 402.8 393.5 384.6 376.1 369.1 362.3 351.9 343.7 335.6 328.8 322.5 315.2 320.5 327.6 336.8 350.2 362.1 374.5 385.3 396.6 409.2 419.2 426.9 430.5 432.4 427.4 417.1 404.6 392.5 382 373 367.1 362.5 358.7 356.3 355 355.9 358.5 363.7 369.3 374.2 378.9 383.4 388.7 395.1 400 405.6 410.3 416.9 424.8 429.9 430.8 427.9 422.7 414.6 402.5 389.7 375.2 361 347.4 338.9 330.7 322.1 312.3 300.6 291.7 282.6 274.8 267.7 260.8 254 248.9 242.6 235 230.5 229.8 227.9 216.8 216.3 216.6 215.4 216.7 216.5 216.3 220.2 219.4 218.9 219.6 217.8 217.6 220.6 224.3 231.4 241.7 253.7 267.7 284 300.2 313.4 327.1 341.4 356.1 372.4 387.4 401.8 410.7 419.9 427.9 437.3 442.8 442.8 440.4 440.4 438.2 433.6 430.3 426 418.8 409.6 401.6 394.2 389.8 386.8 389.9 396.8 403.5 409.4 415.9 425.3 436.2 443.7 451 466.2 482.3 497.3 510 521.2 530.7 536.1 537.8 531.3 522.4 509.3 485.6 460.3 435 417.5 402.4 388.7 377.8 368.2 359.5 351.1
299.9 290 281.7 270 268.5 268.4 268.6 268.7 278 280.2 280.3 280 282.2 285.6 289 293.9 297.6 301 304.6 307.1 308.4 308.3 304.3 297.9 299 303.7 307.4 309.1 308.6 306.8 301.1 286.9 284.2 304.4 321.1 335.3 348.5 360.8 372.9 385.4 398.8 410.6 420.6 429.4 434.4 433.1 423 409.8 398.8 388.2 381.8 373.5 364.9 354 343.4 334.2 326 321.4 314.7 317.3 323.9 336.3 350.2 363.1 377.2 390.3 402.4 414.7 425.9 433 434.7 435.1 428.6 419 405.6 393.1 382.1 372.7 365.4 362.1 358.2 355.6 354.2 355.1 358.6 363.4 368.5 373.7 378.6 384.6 389.2 396.2 401.5 408.5 415.4 424.6 431 436 438.2 436.9 433.9 424.4 410.4 397.1 381.7 367.1 352.1 341.6 333.3 325.9 317.2 303 294.4 286.2 278.2 269.5 262.4 256 251.3 245.1 237.8 231.8 227.8 224.2 217.9 216.4 216.5 216.4 215.2 216.2 215.8 219 217.4 217.6 218.9 218.2 217.9 219.5 222.5 228.9 239.6 250.7 265.4 279.7 299.7 315.4 328.8 343 360.1 373.1 387 398.3 407.1 414.7 422.6 430.8 434.8 435.6 433.9 431.8 429.3 425.4 423.2 421.7 416.1 407.7 398.9 391.9 386.3 383.8 387.8 392.7 400.3 408.5 416.6 424.6 434.7 443.9 455.1 472.8 489.1 504.8 518 528.4 535.4 539.2 539.9 533.1 524.1 508.8 488.4 465.8 435.4 415.2 400.9 386.4 376 366.5 357.9 350
310.3 301.3 292 284.2 276.7 269.2 267 266.9 268.5 268 277.7 277.3 277.4 280.4 284.7 289.9 294.5 301.5 307.6 310.8 312.9 311.8 308.6 305.6 299.2 295.3 299.6 302.5 303.8 301.8 293.3 279.6 293.9 312.7 324.7 336.8 351.4 364 376.2 389.7 403.1 415 426.1 435.4 439.5 436 428.6 416.7 403.7 395.4 385.8 374.4 364.6 352.3 340.9 332.2 323.7 319.5 314 313.6 322.4 336.3 350.2 363.8 376.3 394.4 407.4 420.3 433.4 438.6 441 440 432.6 420.9 407.5 394.5 383 372.9 365.4 360.7 357.8 355.2 353.5 354.2 358.7 361.7 366.9 373.8 379.4 384.7 389.9 398 405.2 412.5 420.9 429.9 437.3 442.1 445.2 445.9 441.5 433.4 419.9 405.9 391.8 374 358.4 346.3 338 328.9 321.2 310.3 298.8 290.3 281.8 273.1 266.2 259.3 254.1 248.4 241.2 229.8 226.9 225 220.2 216.3 216.3 216.4 216.5 216.2 216.5 216.7 216.4 215.8 216.1 217 217.2 217.9 220.7 228.5 236.9 247.9 262.6 278.5 294.6 315 330.7 345 359.6 374.8 387.6 397.8 405.5 409.1 415.5 422.5 426.6 426.2 425.2 423 420.4 418 416.1 416.1 412.6 404.5 396.4 390.1 384.1 381.4 384.2 389 395.8 403 412.4 422 433.1 443 461.6 477.8 492.4 510.2 524.6 534.9 541.2 544.1 540.3 533.7 523.9 506.6 487.9 469.3 437.7 416.4 397.1 384 374.4 364.8 356.1 348.8
317.8 309.5 301.3 291.8 286.2 281.1 278.4 267.3 266.2 266.5 266.6 274.6 275.1 276.1 281.5 287 294.7 303.3 309.9 314.1 315.6 313.2 310.5 307.7 303.7 298.8 288.2 288.9 293.3 295.6 280.3 284.4 303.8 319.6 330.7 342 355.6 368.2 380.2 393.6 407.7 419.8 429.3 437.7 441.4 440.4 434.5 422 409.9 398.2 387.5 372.1 364.1 350.8 340.1 330.3 321.4 317.6 311.8 309.4 318.9 335.2 349.4 363.5 376.7 393 411.5 422.8 438.9 444.4 446.2 444.8 437.1 424.5 411.1 397.2 383.9 373.8 366.5 361.5 357.7 354.7 352.9 353.2 356.1 359.8 366.6 372.7 378.5 384.6 390.7 399.1 407.4 416.5 425 434.7 444.2 449.5 453.5 453.9 450.3 441.6 429 415.6 400.6 382.5 365 350.7 341.2 332.3 324.6 315.5 303.4 294.7 286.4 278.5 271 264.3 256.6 250.7 245.4 235.7 228.2 226.3 221.9 216.3 216.2 216.3 216.3 215.1 215.4 216.7 216.6 215.5 216.3 216.3 216.9 217.8 218.3 224.4 232.2 243.3 258.2 275.1 290.8 309.1 327.5 344.8 358.2 372.5 385.6 395.6 402.9 405.3 408.5 412.6 418.1 418.3 417.6 416.4 413.7 411.1 409.1 407.9 406.5 401.5 393.6 387 382.6 378.3 381 386.1 392.9 399.1 408.6 418.8 429.8 446.4 465 480.2 495.7 513.1 528.4 539.3 545.3 546.8 542.2 534.2 520 503.3 491.1 466.2 439 415.9 394.8 381.6 371.6 362.4 354 347.3
324.4 316.7 308.9 300.2 293.2 287.4 283.1 277.1 265.9 265.8 265.3 270.1 272.7 274.7 280.8 285.7 295.6 305 311.4 315.6 316.5 314 310.9 306.9 303.5 301.2 296.8 284.5 278.2 277.7 275.8 295.5 310.8 325.9 337.1 347.5 360.3 372.1 384.5 398 412 423.7 433.2 440.3 444.2 444.3 440.3 429.8 415.3 405.6 392.8 377.1 362.7 351.6 338.3 328.2 318.4 314.9 311 307.1 316.1 331.5 348.7 364.4 378.5 393.6 409.9 423.7 439.9 448.4 450.8 447.9 442.7 430.8 414.9 400.7 386.7 376.3 369.1 363 358.5 354.6 352.1 352.5 355.2 359.4 366.1 370.7 375.8 383.6 392 401.4 411 420 429.1 439.2 449.9 456.8 460.8 461.5 458.4 449.5 438.4 424.7 407.8 389.2 371.6 356.5 345.7 336.2 326.9 318.5 308.4 298.9 291.9 284.7 277.2 268.9 259.6 252.4 246.8 239.8 230.7 226.9 223.7 219.5 216.2 216.3 216.3 215.8 216.5 216.3 216.2 215.6 216.2 216.3 216.3 218.8 219 220 228.8 237.9 251.4 267.9 285.3 303.5 321.7 338.7 354.8 368.9 380.1 390.2 397.4 401.1 404.3 405.9 409.4 411.1 411.3 409.9 408.2 405.2 402.4 399.9 398.3 396 390.6 385.4 380.4 373.6 378.5 383.8 390.6 396.9 404.7 415 430.6 448.2 466.4 484.5 498.7 514 528.9 540.5 545.9 547.5 543.8 530.5 516.2 504.2 489 461 436.7 412.8 394.2 380.8 370 360.5 352 345.6
329.4 322.1 314.4 306.1 298.6 293.3 288.4 281.9 277.1 263.6 263.7 263.9 267 271.8 276.8 284.3 297 306.7 312.3 314.2 315.6 313.6 310.1 305.8 302.1 300.3 297 289.5 273.8 271.9 290.1 303.5 317.8 330.4 338.6 348.3 360.7 372.9 385.8 400.3 414.5 426.1 435.5 442.7 448.3 450.8 448.3 438.2 423 411 396.9 380.5 365.2 350.4 339.1 329.4 319.6 315.2 309.2 305.3 317 329.6 347.3 363.6 379.2 394.3 408.9 424.5 438.9 449.1 453.7 452.3 447.5 437.1 420.9 405.4 391.9 380.1 373.1 366.2 360.4 357 353.2 350.5 354.5 359.3 364.3 368.3 373.4 384.2 394.6 404.3 413.9 424.1 433.5 444.1 454.3 462.4 466.3 468.6 466.3 458.9 448.1 434.9 415 396.4 379.2 363.2 350.8 341.9 334.2 326 316.8 304.7 297.7 289.9 282.4 273.9 266 255.8 249 244.3 236.9 228.4 224.1 221.4 216.2 215.8 215.5 214.7 216.4 216.2 215.9 215.6 216.6 216.4 215.9 218.6 219.9 218.6 225.8 233.3 245.8 261.8 278.7 298 318.5 336.6 352.2 362.8 376.2 384.5 394.3 398.5 400.5 401.8 402.7 404.7 404.7 404.3 402.5 399.7 397.1 392.7 390.9 388.9 386.1 381.4 378 370.9 375.7 382.1 388.8 395.4 402.3 413.6 431.1 448.5 466.1 483.3 501.4 516.1 528.9 539.6 544.9 543.4 539.2 528.6 512.1 497.9 476.3 455.5 433.8 409.8 394.3 380.3 368.8 358.8 349.7 343.6
332.5 323.8 315.8 309.9 303.7 297.4 290.9 283.9 279.1 264.7 262.9 262.6 263.3 267.8 273.5 285.5 299 308.1 312.9 314.8 314.7 312.3 309 304.7 299.4 295.6 291.6 285.9 268.2 282.3 295.1 305.8 318.3 327.9 339.8 348.8 359 370.5 383.3 397.3 412.4 426 435.8 443.7 450.6 455.5 454.1 444.6 431.3 414.2 399.1 381.2 364.7 350.2 337.7 328.2 319.7 315.5 307.1 304.2 316.1 327.5 344.3 362.5 379.6 395.9 410.7 425.2 438.9 450 456.4 456.6 452.6 443.2 430.7 414.1 402.1 392.2 383.6 374.7 365.9 360 353.9 348.9 351.3 355.2 361.9 366.5 372.3 383.3 394.9 406.4 416.2 427.6 437.8 447.8 458 466.9 471.4 474.7 474.9 472.7 461.2 445.7 422.3 403.8 387 370.2 356.7 346.4 338.9 332.8 324.2 315 305.8 295.7 287.3 279.9 270.9 261.4 252.3 247.4 239.3 227.1 223.3 220.1 216.7 215.7 215.6 216.2 216 216.1 215.9 215.9 216.5 216.2 216.2 217.3 218.5 219.2 224.9 230 239 254.6 273.3 294.5 314.6 332 345.5 359 370.5 380.6 390 395.4 396.8 397.9 398.6 399.2 399.2 399 396.9 393.9 391.5 387 384.5 382.5 379.6 378.6 375.3 368.4 374.5 381.3 388 394.1 402 414.7 430.8 448.3 466.2 481.6 495.6 514.2 525.2 536.7 541.9 537.9 531.8 522.9 504.2 485.1 471.7 450 425.7 406.1 393.1 380.9 369 357.1 348.5 341.5
335.8 325.8 317.2 310.7 305.5 299.9 293 286.8 282 274.3 262.2 262.2 262.2 265 271.8 284.9 299.3 308.9 314.8 317.5 318 314.4 308.7 305.2 298.4 292.4 287.2 279 265.5 282.7 294 304.8 315.4 322.9 331.2 340.7 352.6 365 375.8 390.2 406.8 421.6 434.5 444.5 453.7 460.4 456.9 450.1 437.7 418.6 400 382.6 364.5 349.9 337.2 327.3 319.8 309.8 306.1 303.1 314.5 327.3 343.1 361.6 378.2 395.4 412.4 427 440.6 454.7 462.3 462.2 458.5 452.5 442.7 426.4 412.1 399.7 389.6 379.9 371.7 363.7 356.2 348.6 348.5 351.4 357.5 363.6 370.3 381.1 393.8 405.7 417.1 430.3 441.5 451.5 461.3 470.1 476.3 480.6 482.1 479 468.9 452 431.4 411.9 394 377.5 363.4 352.2 344.8 337.7 330.3 323.3 313.3 302.8 294.9 286.3 277.4 267 255.7 250.2 243.1 235.1 227.3 220.8 221.9 216.2 215.9 216 215.5 214.9 215.7 214.3 216.3 216.5 217.1 216.8 216.2 218.4 219 224.7 233.8 249.6 268.1 287 305 322.3 339 351.5 361.9 375.1 385 391.8 394.8 396 396.6 396 395.1 393.7 391.4 388.4 384.4 380.5 377.8 375.3 373.7 373.3 372 364 371.9 380.3 387.7 392.5 402.5 416 432.5 449.6 466.3 481.7 494.3 508.4 518.7 525.5 529 525.8 520.8 511.6 491.3 474 462.3 440.8 421.4 403.7 392.7 380.3 367.9 357.1 347.7 341.1
338.3 327.4 317.9 310.6 305.2 299.5 294 288.6 282.7 273.9 261.5 260.8 261.6 262.2 273.6 285.5 299.4 308.4 315.5 321.2 319.6 316.7 311 305.3 297.5 290.4 283.1 267 265.5 276.8 289.2 300.6 309 315.9 322.4 330.6 339.5 353.7 366.2 382 396.9 412.6 427 440.9 450.7 456.8 458.1 451.5 443 424.4 404.2 382.2 364.4 350.5 337.9 326.7 319.4 310.1 302.6 301.8 311.5 326.7 344 360.1 377.3 395.8 413.9 429.1 445 460.1 468.5 468.7 464.8 459.9 450.7 436.2 419.5 406.1 395.6 385 374.6 365.5 358.9 352.2 345.5 347.7 353.2 360.9 368.5 379.6 391.1 404.7 418.9 432 444.2 455.2 464.1 472.4 480 485.4 487.3 482.1 473 458.9 439.3 419.5 401.4 383.8 369.4 358.9 351.3 343.9 336.7 330.5 323.7 313.6 303.5 293.3 283.7 273.5 262.5 252 247.1 239.9 230.1 222.4 223.8 220.3 215.4 216.4 216.2 216.1 214.2 216.2 214.9 216.2 215.6 215.8 215.9 217.3 218 221 230.8 245.1 262.2 281.2 296 313.5 330.3 343 355.3 368.8 379.8 387.6 392.2 394.1 393.4 392.4 391.2 389 386.5 383.4 379.3 374.6 372.1 369.4 367.6 367.6 367.1 359.7 370 378.6 385.8 392.5 404.1 417.4 432.5 449.7 465.5 479.2 491 502.2 509.7 513.3 514.9 515 507.7 494.5 478.1 462.2 448.8 433.1 417.7 402.4 392.9 378.4 366.6 356.6 347.6 341
339.3 330.5 320 311.7 303.9 297.8 292.9 287.9 282.6 277.4 262 260.2 260.4 262.1 275.1 283.7 298.1 306.4 312.4 317.1 318.1 316.1 312.3 305.8 297.2 288.7 279.8 261.6 263.3 275.9 284.5 291.7 301.1 307.9 313.6 320.8 328.7 336.5 349.4 367.6 383.6 398.6 413.4 428.2 442 449.8 454 449.9 442.5 427.9 404.4 382.7 365.6 351.3 338.6 327.4 317.7 307.9 301.4 297.2 309.3 324.4 341.8 358.8 375.1 394.2 413.4 430.8 448.1 463 472.3 474 470.2 465.8 456.8 443.6 428.6 412.5 400.7 387.7 376.3 366.4 359.5 352.6 347.4 344 349.8 357.8 365.3 376.3 389.7 403.4 417.2 432.6 446.6 458.8 467.5 475.7 483.3 488.9 490.3 485.9 476.3 463.7 448 428.9 409.2 391.3 377.3 366.8 358.9 351.4 344.7 338.4 331.7 323.9 313 302.2 291.7 280.9 268.8 257.7 250.8 247.5 238.6 225.8 222 220.6 216.6 216.3 216.1 214.6 216.7 216.1 216 214.1 215.2 215.9 215.6 217.4 216.8 216.8 227.9 239.6 256.7 274.1 289.5 307.3 320.7 336.2 350.5 361.7 373.5 382.9 389.9 392.8 389.8 388.7 386.2 384 381.3 378.4 374.2 369.1 366.4 363.2 361.4 361.4 361.6 354.6 368.4 376.7 382.6 391.9 405.3 418.6 431.4 445.5 461.6 474.7 486.4 495.1 497.5 496.6 497.8 494.3 489.7 481.6 462.7 452.6 440 429.1 414.4 400.4 390.5 378.4 365.5 356.1 346.6 340.4
339.1 331.7 324.1 314.1 304.3 297.4 290.9 286 281.2 276.8 271.8 259.3 259.5 260.2 270.5 279.8 292.3 301.5 306.5 311.5 314 313.2 310.5 305.9 298.4 289 278.5 265.6 259 269.4 276.8 285.6 292.7 302.1 305.8 311 316.1 322.1 329.7 344.1 362.2 379.5 395 408.3 424.2 435.7 440.9 442.7 440.7 427.8 407.7 383.5 364.4 348.6 336.3 327 318.1 307.3 301.1 295 306.2 322.5 338.6 355.4 371.7 391.5 412.4 431 447.9 464.7 474 478.4 475.1 471.2 463.6 449.8 435.7 417.3 404 388.8 378.2 367.6 359.9 353.9 348.3 343.6 346.9 353.9 362.1 374.1 387 400.8 416.3 432.5 448.5 461.7 471.7 479.4 485.9 490.9 492.1 488.6 479.4 468.1 454.2 437.5 418.4 400.4 386.3 375.8 367.4 359.6 353.1 346.9 340.9 334.4 324.2 310.7 300.7 290.2 277.7 263.4 254.1 249.2 243.1 236.2 224.6 223.4 220 215.5 214.1 217 219.1 216.1 214.5 214.2 215.9 215.7 215.6 215.4 217.1 216.2 224.6 234.5 250.5 266.8 283.1 299.1 314.4 330.8 343.8 356.1 367.2 377.6 387.7 393 391.8 388.8 383.7 380.1 376.6 373.9 369.3 364.3 360.5 357.2 355.2 355.2 353.8 356.5 365.4 372.9 380.8 392.4 406.1 418.3 426.9 438.2 453.2 464.3 477.6 484.4 482.8 479.8 476.6 474.4 471.9 460.4 451.3 442.7 431.9 423.6 412.6 401.4 389.4 376.5 364.6 355.4 346.4 338.1
342.6 333.7 325 315.9 307.1 298.2 289.9 284.2 278.9 274.4 269.7 265.1 258.9 258.8 266 270.8 280.6 289.2 297.4 302.8 306.7 307.7 305.4 302 296.6 288.3 278.2 267.7 256.6 259.5 266.9 276.1 280.3 286.2 294.6 301.1 304.1 309.4 313.5 324.3 336.7 358.4 373 386.9 401.3 414.1 426.9 432.1 430.8 425.9 407 384 363 348.9 334.6 325.7 316.8 304.6 298.5 293.6 305 316 334.3 351.8 370.3 390.9 415.6 434.6 448.6 463.1 475.1 480.8 481.8 479.9 468.9 453.8 437.9 418.6 404.4 390.2 379.3 368.5 359.7 354.1 348.9 343 344.4 351.3 359.6 370.8 384.4 399.5 414.2 430.4 447.5 462.3 472.7 480.5 486.4 490.7 492.5 489.9 484.2 472.5 459.7 445.5 427.8 410.3 395.8 385.8 377.1 370.5 364 357.3 349.8 344.5 335.6 322.3 310 297.2 284.9 271.2 260.6 252.6 246.3 237.9 227.1 223.6 219.1 218.4 219.1 219.7 220 218.3 215 216.1 216.1 215.9 215.6 215.1 215.1 216.6 218.8 231 244.8 262.7 278.5 292.3 306.9 322.7 337 349.6 360 373 385.7 393.7 394.6 389.8 382.9 377 373.1 369.7 364.4 360.9 355.4 351.7 349.6 348.6 344.4 355.3 360.8 368.3 377.1 389.3 401.3 415.7 424.3 428.3 440.6 453.6 463.9 468.1 470.3 461.6 456.4 452.4 449.3 445.6 438.7 433.2 426.1 419.5 412.1 402.7 388.2 374.1 363.5 354.9 346.2 337.4
347.5 337.9 328.4 319.2 310.2 301.5 292.7 284.4 277.7 272.4 267.6 264.2 259 257.8 258.8 265.8 269.6 273.4 280.9 287.8 293.1 296.8 297.2 294.6 289.9 285.5 278.6 268.3 256 255.4 259.5 265 268.4 273 279.2 286.1 290.1 294.3 297.8 307.5 318.3 332.1 351.5 363.4 378.3 391.2 405.7 416.3 421.3 415.9 403.8 383.3 364.5 347.6 332.2 321.9 314.2 306.9 298.5 291.4 300.1 314.7 332.2 348.8 367.6 390.3 414.5 434.1 447.7 461.7 476.1 480.8 487.6 481.5 467.1 453.1 440.1 421.7 403.6 389.6 377.2 366.8 358.1 352.9 348.7 342.1 345 350.3 358.7 368.2 379.9 395 411 427.3 443.9 458.6 469.8 477.6 482.5 487.1 490.3 490.3 487.3 478.3 468 456 442.6 425.8 408.6 395.7 389.5 382.4 375.8 370.1 361.8 354.4 347.2 334.9 321.9 308.2 295.9 281.7 267.6 257.1 248.3 241.8 233 223.1 218.7 218.3 218.5 218.5 218.8 218.6 216.1 215.8 213.9 215.9 214.7 214.5 215.1 215.4 216.8 226.6 239.9 257.6 274 286.3 299.5 315.5 330.2 341.7 354 367.7 382.2 394.2 398.4 393.5 382.8 375.6 369.7 364.8 361 357.6 351.6 347.6 345 343.1 341.4 351.3 356.3 361.6 371.1 383.4 395.3 408.4 421 423.1 427.7 439.5 447.9 453.7 451.5 444 435.1 431.7 432.8 431.4 428.4 427.7 420.8 414.5 408.4 398.6 385.8 372.9 363.3 355.1 344.6 336.6
349 341.4 332 323.1 314.7 305.3 296 288.3 279.2 272.8 267.9 264 258.8 256.7 257.5 256.7 260.7 265.6 268.5 273.9 278.4 281.4 284.5 286 284.4 282.2 276.5 268.4 258.6 253 254.3 257.2 257.4 259.7 263.6 271.6 277.5 283.8 286.5 291.4 300.4 310.8 327 342 357.4 372.3 386.3 395 403.9 403.9 398 383.5 363.3 345.7 331.4 319.5 311.7 305.8 296.5 289.4 297.4 312 329.4 347.7 367.2 386.5 407.3 426 441.9 454.7 468 472.7 478.7 473 463.1 449.9 437.2 421.1 402.9 387.3 376 365.8 355.9 350.9 347.5 339.1 344.3 349.8 359.2 367.8 376.1 391.1 406.1 422.9 438.6 451.8 461.7 470.7 474.6 479.1 483.8 486.3 485.8 481.3 475.9 467.4 455.1 442.3 423.8 409.7 402.5 397.1 390 382.8 375.5 367.2 359.8 349 334.5 320.1 306.7 291.8 275.8 263.6 253.7 245.3 239 227.8 220.7 218.2 217.1 218.3 217.8 218.6 216.6 215.8 215.7 216 215.1 214.1 215.1 214.7 217.1 224.4 236 251 267.7 280.1 291.9 308.9 323 336.3 348.7 361 378 395.4 402 400 387.7 375.8 369.2 363.1 357.5 353.9 348.2 343.6 340.3 337.7 339 346.2 350.1 355.8 365.3 375.4 387 397.9 412 416.2 417.3 425.8 432.6 435.7 434.3 426.9 420.5 417.8 416.5 419.3 421.6 420.8 416.5 409.9 403.9 396.4 384.7 374 363.1 353.8 346.2 337.9
348.6 341.9 334 325.2 316.7 308.1 300.4 291.3 284 275 269.9 266.3 260 257.1 256 256.3 255.6 255.1 262.7 263 266.8 269.7 270.2 271.9 271.4 273.1 269.1 262.6 256.1 252.2 251.8 253.6 251.1 249.8 252.5 257.2 262.3 267.9 274 278.4 282.5 294.1 307.7 324.8 339 352.2 364.4 376.7 383.2 391.7 390.6 378.5 360.3 343.6 330.5 319.8 310.8 303.7 298.2 287.4 295.5 308.1 324.4 343.3 361.5 380.1 398.3 417.9 431.8 444.9 452 459.7 464 465.1 456.8 442 429.6 415.6 398.2 383.8 372.3 362.1 353.9 348.7 344.2 336.3 342.6 350.4 357.6 366.1 375.9 387.1 402 417 432.5 444.8 452.2 460.7 465.8 469.4 474.6 479.1 481 480.9 478.7 474.4 465.7 455.4 440.8 425.7 417.3 411.9 405.2 397.6 391.3 381.8 371.5 362.2 348.9 335.2 321 303.7 287.5 273.2 259.8 248.4 240.9 233.6 226.8 223 219.1 217.3 218 217.6 216.4 216 216.1 216.2 216.3 214.5 215.6 214.3 217.2 217.2 232.1 245.3 259.1 273 286.3 300.7 315.9 329.5 341.8 353.8 370.8 393.6 402.3 404.5 396.1 379.8 368.8 362.5 356.6 350.7 345.4 341.2 338.6 331.2 336.2 341 344.7 349.4 357.4 366.5 378.1 387.3 399.9 407.6 408.7 410.7 417 420.6 417.7 412.8 411.1 410.1 407.6 409.1 413.5 415.1 412.9 406.9 400.1 393.4 384.7 372 362.2 353.2 345.7 339.1
344.8 340.2 334.3 326.2 318.6 311.6 303.7 295.8 288.5 280.8 272.3 269 262.9 257.4 256.6 256.3 255.4 254.8 254.4 257.1 258.9 261.1 259.9 259.7 261 259.5 260.5 256.1 248.9 248.5 249.1 249.4 247.2 246 246.2 248.1 250.8 255.5 260.6 267.3 271.4 278.1 290.8 306.8 320.7 335.9 344.3 355.9 365.5 373.1 380.1 373.6 358.6 341.3 328.6 320 311.4 303.1 296.9 286 291.7 305.4 319.8 335.3 352.6 369.9 386.9 403.8 417.7 428.4 438.9 445.6 448.8 452 446.3 435.1 420.8 407.9 393.1 379 369.3 359 352.5 347 342.4 335.7 342.5 349.1 356.4 366 377.5 388.5 400.4 414.8 428.6 439.9 445.6 452.4 456 458.8 464.6 469.7 473.3 476.3 476.3 474.9 471 463.6 454.5 444.2 433.9 426.5 420.4 413.4 405.8 396.7 385.5 374.9 363.3 350.3 335.8 318.6 299 282.3 267.4 254 243.6 235.4 232.8 230.5 225.6 220.3 217.2 216.5 216.2 216.3 216.4 216.4 216.5 215.4 215.3 215.6 215.6 216.2 227.1 239.4 250.1 265.4 280.7 293.4 309.5 323.6 335.2 346.9 362 381.7 399.3 403.7 399.8 384.6 370.2 362.1 355.3 348.7 343.4 338.2 335.4 329.8 330.8 335.3 339.1 342.9 350.8 358.3 368 377.3 389.3 397.4 399.6 401.3 401.2 403.9 404.3 403.8 402.6 401.1 398.9 400.7 405.9 409.3 409.1 404.1 397.4 390.4 381.8 372.1 361.7 353.4 345.9 338.3
338.1 334.2 329.3 322.7 317.1 310.4 303.5 296.7 291.2 284.9 277.3 272.8 268.8 259.2 256.8 255.1 254.3 254.4 253.1 253.7 252.7 252.7 251.9 251.4 251.7 248.8 249.8 244.9 245.7 244.6 247.2 247.8 246.8 245.9 244.7 244.6 245 247.1 249.3 253.7 259.8 265.4 277.7 291.8 306.2 318.1 328.7 339.1 347.7 356.9 361.4 363.5 354.2 340.8 326.5 318.3 309.9 301.1 295.5 283.3 287.8 304 317.4 329.9 343.7 359 375.2 390.1 403.5 415 425.1 432.6 435 434.6 432 423.2 410.2 397.7 385 374.7 364.6 357.7 350.4 344.7 340 334.9 341.8 348.3 355.3 367.4 379.2 391.6 402.5 416.6 427.1 435.2 439.8 444.3 447.5 448.1 452.1 458.1 464.1 468.8 472.3 474.3 474.5 470.6 464.7 460.1 451.7 444.1 437.1 429.4 421.8 413.2 400.9 388.7 378.5 368.6 350.5 334.2 312.3 290.9 274.7 261.8 249.1 240.2 234 232.3 224.1 219.9 217.3 216.5 216.7 216.5 216.6 216.7 216.7 216 215.2 215.6 215.8 215.7 221.2 232.8 245 259.7 275 287.1 302.7 316.1 330.2 341.5 354.3 373.4 393.1 401.4 399.9 389.9 374 361.7 353.5 346.8 342.2 337.1 331.8 327.6 325.6 329.5 333.4 337.3 342.9 351.8 360 369.3 377.7 387 392.7 394.4 394.7 395.3 397.3 396.9 395.9 392.6 390.7 394.7 399.2 403.9 404.7 400.6 394.3 387.5 379.1 372 362.5 353.3 343.8 335.3
327.3 324.6 319.2 315.1 309.8 304.5 300 295 289.4 284.6 280.7 275.5 269.9 264.6 265.4 264.8 255.8 253.4 252.8 252.3 253.1 252.3 250.6 250.4 249.6 248.9 247.1 247.3 246.8 245.3 244.6 244.6 244.3 244 243.7 243.6 243.2 242.8 242.5 242.8 246.3 254.6 264.9 278.2 293.6 304.7 316.1 327 334.5 339.2 346 349.7 347.9 337.2 322.8 315.8 307.6 299.5 292.6 283.1 290.1 300.3 313.6 325.7 339 350.7 364.4 377.1 389.2 402.1 412.7 421.5 423.7 420.8 416.4 407.6 397.1 386 376.6 368.6 361 354.6 347.6 342.1 337 333.6 340.1 345.5 356.6 369.3 380.9 392.6 405.6 417 424.3 428.3 432.4 434.7 437.1 437.5 441.1 447.2 453.5 459.3 464.8 470.6 474.7 475 473.7 470 468.1 461.2 456.6 449 439.3 428.8 417.9 406 394.4 382.2 362.9 344.1 326.6 302.5 282.7 269.3 255.6 242.2 235.5 233.4 226.7 223 218.8 217.2 216.6 216.6 216.6 216.7 216.9 216.8 215.9 215.6 215.3 215.8 217.8 232.8 241.8 253.2 268.2 281.7 297 311.1 323 335.7 347.4 363.9 384 399.1 400.2 392.3 378.3 361.8 353.2 346.3 340.8 337.9 331.9 325.7 322.5 323.9 327.7 332.2 338.1 344.8 353.2 359.9 366.8 378 384.1 386.7 388.4 389.7 391.5 389.6 389.5 386.5 384.7 387.8 393.7 398.2 399.4 397.3 391 384.9 377.5 369.5 361.6 350.9 341.2 333.6
315.9 312.4 308 304.9 301.6 296.5 290.6 284.3 280.7 277.2 275.6 271.2 268.1 266.2 268.2 267.7 265.7 257.7 253.7 252.5 251.9 251.9 249.5 250.1 249.5 246.3 252.5 251.2 248.8 246 244.3 243.5 244.1 243.2 243.2 242.9 242.6 242.4 242.2 241.3 241.2 243.7 255.4 264.9 280.7 291.9 301.7 311.9 321.3 327.1 332 336.8 338.6 331.3 318.4 313.8 305.6 297.9 290 279.1 289.2 298.3 310.1 321.2 334.3 346.3 357.2 367 380.4 393.6 403.8 412.9 418.2 414.6 405.6 396.4 386.9 375.3 366.9 362.6 357 351.2 344.8 337 329.7 333.5 339.5 345.3 357.7 371.9 383.3 394.5 407 414.9 418.5 421.1 423.8 425.5 426.4 426.6 429.5 434.5 443.1 449.9 456.9 464.8 472.6 477.4 479.3 480.3 480.3 480 473.5 467.6 458.1 446.3 434 422.8 413 387.1 370.3 352 337.3 315.1 293.5 277 262.4 249.4 239.9 235.7 231.5 226.2 220.1 217.2 216.6 216.6 216.8 216.6 216.5 216.7 216.3 215.6 215.9 215.5 215 229.2 237.3 246.6 261.2 277.7 292.2 304.2 316.6 327.3 342.4 356.5 374.1 394.6 399.9 393 381.7 366.6 353.9 347.3 341.4 334.8 330.3 325.1 320.1 319.9 323.5 327.9 333 339.7 346.9 353 358 363.9 370.7 377.6 380.2 383.6 385.4 384.3 383.9 381.6 379.6 382.8 388.4 394 395.8 393 388.2 382.1 375.5 368.5 358.8 348.6 339.4 331.8
306.5 303.9 298.9 296.6 293 289.4 287.8 290.4 290 290.6 290.1 287.6 284.4 280.4 277.2 275.9 272.4 270.5 267.5 260.9 254.2 249.4 250.1 251.9 257.2 261.4 261.7 260.3 255.9 251.1 246.5 243.6 242.7 243.2 242.8 242.4 242.1 241.9 241.6 241.4 240.3 240.3 245.8 256.2 265.5 278.2 288 298.8 308.8 315.3 320.9 324.5 326.8 325.4 315.9 312.7 303.7 296.5 289.6 277.4 285.2 292.3 306.9 318.9 329.4 342.2 350.4 362.1 376.6 389.6 399.6 408.5 413.9 411.2 401 389.6 378.5 368.7 362.5 357.8 352.6 347.2 340.7 331.2 326.5 333.6 339.9 347.7 361.2 374.3 385.4 396.4 405.6 411.4 412.9 414.6 416.4 416.2 415.8 416.1 418.9 424.1 431.9 440.3 448.7 458.4 467.2 475.4 480.7 485.1 489.8 491.5 489.2 480.2 469.6 458 445.2 436.8 422.2 395.1 374.9 358.4 344.5 327.5 302.8 286.5 272.4 259 246.1 240.2 235.9 230.1 222.5 219.3 217.1 216.6 215.9 216 216.2 216.4 216.4 215.9 215 215.6 215.3 217.7 230 241.5 254.7 273 286.8 298.4 311.1 322.3 333.6 345.9 363.9 380.9 395.7 393 383.9 370.1 354.5 347.6 341.1 334.7 329.3 323.9 317.7 316.8 319.5 323 327.1 334.2 341.1 347.4 353 357.6 362.8 368.1 374.7 377.8 379.1 379.4 378.4 377 374.6 376.8 382 388 389.5 389 384.6 379.3 372.8 366.1 357.5 346.7 338 330.2
300.3 298.5 296 298.5 298.4 302 301.7 302.7 305.9 305.2 303.3 299.9 296.7 291.7 288.2 284.7 282.2 280.3 278.6 275.1 272.4 269.3 267.3 266.9 267.6 270.6 270.4 269.7 266.4 261.5 255.5 250.8 244.9 243 242.4 242 241.5 241 240.9 241.1 239.6 239.7 239.7 245.9 256.3 266.4 274.7 283.6 292.5 299.8 307.3 310.2 313.8 315.7 311.4 311 302 294.3 288.2 276 283.2 294.3 305.7 317.6 326.7 338 348.4 359.9 373.4 385.2 396.3 406.8 411.5 408.1 399.1 385.4 374.4 364.7 356.3 349.9 347.3 342.9 336.7 325.5 325.9 333.4 339.8 349.1 362.3 375.6 387.6 397.4 402.9 406.2 407.7 409 409.4 409 407.6 408.3 410.3 415.6 423 431.7 441.3 451.1 461.3 471.2 479.3 488.1 496.2 499.9 500.1 490.7 479 465 454.8 445.7 425.3 407.9 380.1 364.9 348.3 334.8 313.5 296.2 281.8 269.3 255.8 246.1 238.8 231.6 224.6 221.3 217.5 215.3 215.5 215.7 216 216.2 216.4 216.2 215.9 215 215 215.8 223.4 240.1 253.2 267.3 281.6 294.2 306.9 317.4 326.6 340.2 353.6 370.8 386.5 391.5 384.5 372.9 357.7 347.8 341 336.4 330.6 323.9 318.7 315.3 314.4 318 322.1 328.2 334.7 341.1 348.1 352.3 358.3 364.3 369.4 372.1 372.8 373.4 373.1 371.5 369.3 372.4 377 382.2 385.3 384.7 380.6 375.9 370.2 363.7 355.1 345 336 328.9
306.4 306.2 305.9 306.8 312.2 314.1 315.7 314.4 317.8 318.2 315.7 312.2 307.9 304.5 298.2 295.5 292.9 291.1 289.6 287.9 285.6 282.2 280.5 278.6 279.8 281.3 279.3 278.5 276.8 271.9 266.9 264.7 258.2 249 240.4 241.9 240.9 240.4 240.3 240.3 239.3 238.9 238.9 238.5 249.6 258.1 265.7 271.7 280.2 290.9 302.1 303.4 306.1 309 309.7 307.9 299.3 291.3 286.1 273.8 283.5 297.3 307 316.9 325.7 335.9 345.9 359.5 372.3 385.7 397.8 407.9 410.3 406 396.7 384.3 370.9 360.2 350.2 343.7 340.7 337.8 332.8 326.1 321.4 330.3 336.9 349.6 360.1 373.9 384.9 396.6 399.4 402.3 402.8 402.7 402.6 402.3 402.5 404.5 405.9 408.4 414.1 423.2 432.7 443.3 453.9 465.6 475.8 487.4 498.4 505.4 504.4 496.1 482.7 471.2 460.8 449.4 434.7 410 388.3 370 351.8 338 322.3 305.1 290.3 277.8 264.7 253.1 242.8 235.3 230.3 224.9 217.6 216.6 215.4 215.6 215.9 216.1 216.2 216.1 215.8 215.6 215.4 214.1 217.1 234.6 247.5 262.7 277 290 303.2 314.6 323.3 333.2 344.9 359 374.8 386.7 384.1 375.3 360.4 349.1 342.5 336.9 330.1 322.9 318.6 314.9 312.1 314.9 317.8 323.3 329.1 336.6 341.7 346.8 353.1 359.6 364 365.5 366.8 367.3 367.8 365.9 364 367.8 372.6 378 381.3 381.2 378.1 373.5 367.6 361.4 354.4 343.9 333.8 325.9
319.4 320.9 323.7 329.7 331 331.2 331.3 332.1 333.2 332.5 329.6 325.1 320.9 316.8 312.7 308.7 305.8 303.9 303.2 301.3 299.7 296.7 293.4 292.3 292.3 293.6 293.8 291.5 287.8 283.7 280.1 275.8 271.8 266.2 257.3 252.8 241.4 239.7 239.8 239.4 239 238.2 238 238 240.6 252.2 258.1 260.6 269.9 280.4 291 297.1 303.9 305.2 305.5 304.8 296.9 289.2 283.8 272.5 287 302.7 312.5 320.7 329.6 337.7 348.4 361.4 374.2 387.8 400.2 409 411 405.7 395.9 382 369.8 357.3 346.5 338.6 333.4 331.7 328.8 321.2 319.2 327 335.8 348.1 356.9 369.1 380.6 391.1 397 398.4 398 396.4 396.5 396.3 398.7 399.9 401.1 403.1 407.1 415.5 425.8 435.8 447 459.9 473.1 485.6 497 506.3 505.7 500.8 487.1 474 462.7 453.5 434.9 415.7 394.9 374 357.3 340.1 326.7 311.7 299.2 285.9 271.7 258.6 248.1 238.2 233.8 227.4 221.3 216.9 215.3 215.6 215.7 215.9 216 216 215.7 215.5 215.5 214.3 216.1 229 241.3 253.5 269.1 285.5 298.6 308.2 317.9 326.2 336 347.8 363 376.4 380.7 374.7 364.1 353.5 344.1 337.4 331.3 326.5 318.3 314.4 311.7 309.9 314.1 317.7 323.1 331.2 337.7 342.5 348.8 354.3 357.9 360.2 361.5 362.1 363 361.4 360.5 363.4 368.2 373.9 377.4 377.9 375.8 371.5 365.6 358.8 351.3 342.8 332.8 324.7
335.2 339.3 342.1 345.4 346.5 345.5 345.3 348.4 350.8 346 344.1 341.3 335.3 331.3 326.9 322.9 320.5 320.1 319 317.8 314.8 311.1 307.6 305.7 303.1 304 307 307.5 306.8 302.2 295.6 288.7 282 277.8 272 263.2 254.9 252.1 248.3 243.2 238.3 237.4 237.7 236.3 237 242.7 251.5 254.2 263.9 272.6 280 288 295 297.8 300.3 299.6 293.5 287.6 281.7 270.5 295.2 310.7 322.9 330.9 339.8 345.2 353.1 364.7 378 391.1 403 412 413.9 407.1 396.3 382.3 368.1 355.8 344.8 337.8 329.8 325.6 325 319.4 319.4 325.4 332.6 343.4 352.2 362.5 374 383.7 392.6 392.7 393.5 392.1 391.7 391.4 394.1 395.5 396.5 399.4 403.4 408.9 419 430.4 442.3 455.3 468.9 481.7 494.7 503.5 505.7 502.1 488.8 475.6 462.7 452 435.5 416.9 396.8 376.3 360.3 345.2 331 319.2 306.2 291.5 278.9 265.9 254.6 244.2 235.4 229.7 223.4 218.2 215.6 215.4 215.5 215.7 215.8 215.8 215.6 215.4 215.3 215.3 216.7 224.4 238.3 250.1 263.8 280 293.2 304.5 314 321.5 329.7 339.5 351.9 364.3 374 373.3 365.8 355.2 346.4 338.6 333.2 327.3 318.3 314.1 311.2 309.4 309.4 313.1 318.9 325 330.4 336.9 341.5 346 350.4 355 356 357.9 358.2 357.1 356.7 359.4 363.9 369.7 373.3 374.4 372.9 369.4 362.6 356.2 349.5 342.5 332 323.7
349.6 354.5 357.8 360.1 360.7 359.5 363.5 367 365.4 363.3 360.5 356.1 350.8 343.6 338.9 337.4 337.7 338.3 335.3 333.1 329.7 325.7 320.9 317 314.3 318.1 320.9 323.3 323.1 321.1 315 306.9 297.6 290.1 282.5 271.1 264.7 260.3 253.7 249.7 243.4 237.6 237.9 237.5 237.2 235.9 243 247.7 255.2 263.6 268.5 276.5 284.1 286.9 292 293.6 290.6 283.7 275 276.5 305.1 318.1 330.5 341.1 348.6 355.7 361.8 370.2 383.8 396.7 407.2 417.1 418.7 411.3 399.4 383.8 368.1 354.6 344.2 337.4 328.9 322.1 320.4 314.4 316.8 322.7 329 338.1 347.3 356.2 365.9 375.9 384.8 389 388.4 387.9 387.6 388.3 389.2 391.4 393.1 396 399.5 404.6 413.6 425.1 437.8 451.1 465.3 478.7 491.5 501.6 504 498.9 488 474.1 460.9 448.6 435 416.2 393.4 375.5 360.7 350.1 337.5 325 311.4 299 286.8 274.5 261.2 250.2 238.9 232.3 225.5 219.2 215.9 215.3 215.4 215.5 215.6 215.6 215.5 215.3 214.9 215 216.4 224.6 236.1 248.4 260.7 274.2 288.1 300.5 309.2 316.2 323.9 332.1 342.1 353.5 363.6 368.3 367 358 347.8 339.9 333.7 328.6 320.2 314 310.5 306.9 306.5 310.2 315.3 319.1 323.5 329 335.5 339.9 344.6 349.3 351 352.9 353.4 352.5 352.8 355.6 360.5 366.2 368.9 369.3 368 364.1 359.1 352.7 346.7 341.9 331.3 322.4
361 366.9 371.1 372.6 374 379.7 382.9 382.5 380.5 377.8 375.2 369.2 361.7 356.5 352.1 352.2 352.8 354.2 352.7 347.5 343.5 336.9 331.5 327.7 326.7 331 334.7 335.9 336.3 335.3 328.7 321.5 312.6 303.2 292.9 282.9 274.1 267.4 261.3 255.7 251.4 243.7 238 236.8 236.8 235.7 238.8 243.6 249.1 256.2 261.1 267.4 270.1 272.7 278.3 286.2 287.5 279.3 266.2 287 311 324.7 336.9 346.7 354.2 361.7 370.7 379 391.5 402.7 413.6 422.4 424.1 416.6 402.9 386.8 370.3 354.8 343.5 335.9 329 322.2 316.3 312.1 314.2 320.1 325.7 332.9 341.3 349.4 357.7 368 376.1 380.3 382.2 382.7 384.2 385.2 386 387.2 390.2 393.5 397.8 404.7 411.6 421.4 435 449.8 464.8 479.1 491.6 502.5 506.2 498.2 487.2 473 458.7 445.6 429.9 411.6 391.4 376.6 365 356.1 345.3 328.8 315.5 304.2 292.8 283 269.4 257.1 245.4 237.1 227.8 221.8 217.3 215.8 215.2 215.3 215.3 215.4 215.4 214.1 215.3 215.4 216.3 224.2 233.2 245.3 257.4 269 283.4 295.2 305.2 312.9 319.2 326.7 335.6 343.9 353.4 359.2 363.9 359.8 351 342.6 335 328.6 323.4 314.5 310.7 306.9 304.4 305.5 309.9 313.6 318 324.2 330.4 335 339.2 343.6 346.1 346.7 347.2 347.9 350.1 353.1 357.6 363 367.5 368 365.4 361.9 356.8 352 343.8 338.4 330 321
371.7 377.4 382.1 386.9 390.7 396.1 399.9 397.8 396 392.1 387.5 380.7 373.9 370.2 366.6 367 367.4 367.5 364.8 360.3 355.2 348.3 342.7 338.9 338.3 345 349.4 351.1 351.2 347 339.3 333 323.7 313.9 303.8 293.9 284.4 275.4 268.9 264.1 259.9 253.8 245.6 236.5 235.6 234.7 236.6 238.1 243.5 249.7 254.4 259.8 266.8 272.7 271.1 280.4 284.6 277.3 269.7 296 312.1 327.3 340.5 350.5 360 368.3 377.5 387.7 398.3 408.7 420 427.4 430.1 422.4 409.2 392.4 373.6 357.2 345.4 337.3 330.7 323.1 314.5 310.8 312.3 316.6 321.2 328.4 334.8 341.8 350.3 359.8 366.6 371.4 375.1 378.5 380 381.7 382.9 384.9 387.9 392.1 398.2 404.5 410.9 420.9 434.6 450 465.2 479.8 491.8 504.8 508.8 502.8 487.7 472.7 458.2 444.5 427.7 407.5 392.9 382.3 368.9 358.5 348.6 333.9 321.7 311.6 301.4 290.1 276.2 262.6 252.6 243 232 225.2 219.9 216.7 215.7 215.2 215.3 215.4 213.6 215 215.1 215.9 219.3 225.8 231.6 242.5 254.5 265.7 280.1 291.3 300.7 308.8 314.8 320.9 328.4 335.8 342.9 350.1 357.1 361.4 354.8 346.4 337 329.7 323.2 318.8 312 308.5 303.9 302.7 305.2 310.5 315.8 319.8 325 330.6 335.1 339 341 342.3 342.8 342.9 346.7 350.7 355.5 361.7 366.2 365 361.9 357.9 353.2 348.2 341.8 334.8 331.2 320.1
380.3 387.8 393.9 400.8 407.8 412.6 415.5 414 409.7 404.7 399 392.8 386.5 383.8 383.5 382.1 381.8 380.7 376.5 371.4 365.1 359.6 354.8 350.4 351.6 358.1 364.2 367.4 367.8 361.2 351.5 341.5 332.6 323.2 313 303.7 294.1 286.5 279.1 273.8 267.2 260.2 253.3 242.9 236.4 233.7 235.6 235.2 238.5 243.2 248 252.5 260.5 267.7 273.1 270.2 276.8 270.4 272.2 293.8 308.1 320.7 336.1 350 362.6 372.4 384.7 395.3 406.8 417 427.5 434 436.4 429.3 416.4 398.9 379.1 362 350.6 337.8 330.5 323.8 316.2 308.8 309.5 313.3 317.2 323.7 330.1 336.7 343.9 351 356.3 364 368.2 373.6 377.3 378.8 380 383 386.6 391 396.7 403.5 411.3 424.6 438.8 452.3 466.1 481.3 493 505.1 510.6 504.8 492.4 477.8 459.3 445.4 426.2 407.3 395.6 385.6 374.2 363.9 353.4 341.2 327.8 316.6 305.9 295.3 282.3 270.3 257 248.2 239 231 222.7 218.5 217.7 215.4 215.6 214.6 217.4 215.8 216.1 218.7 221.2 227.7 230.9 238.2 248.1 261.5 274.3 288 296.7 304.5 309.1 314.5 321.4 328.4 335.5 343 349.9 358.1 356.9 349.1 341.2 331.9 324.5 318.3 312 308.2 304.3 301.1 303 307.2 311.2 315.1 320.4 325.8 330.6 333.9 335.9 337.9 338.6 340.1 343.6 349.2 354.2 361.3 364.7 364.5 361.6 356.3 350.1 344.3 338.8 332.7 324.4 317.8
387.1 396.6 405.7 415.5 425.1 430.1 430.5 430.9 425.2 417.9 412 406.1 401.8 398.5 396.9 397.4 394.8 392.7 388.2 382.4 375.7 367.6 362.1 360.2 367.7 374.8 378.1 381 381.7 374 365.2 353 341 330.7 321.9 312.9 303.7 296.1 289 281.7 275.5 267.7 258.5 251.9 239 233.8 235 235.1 234.3 237.3 242.7 243.7 252 261.3 270 270.1 265.3 259.1 272.7 290.9 302.2 320 335 345.6 359.3 372.9 385.3 399.2 411 422.3 433.5 441.9 443.8 439.3 426.3 406.9 386.1 367.6 353.2 340.8 331.8 325.5 318.5 310.3 307.6 309.7 313.4 318.9 325.5 330.8 337.6 343.4 349.4 356.4 362.6 368.6 373.1 374.9 379.3 382.6 386.2 390 395.2 402.8 415 429.2 442 455.6 469.3 483.2 495.6 504.7 508.8 505 496.7 482.8 463.8 447.3 426.2 410.4 399.2 388.4 378.5 367.4 356.8 346.1 334.5 320.8 311 299.2 287.4 276.9 263 254 243.2 236 227.3 221.9 218 215.6 213.9 215.6 215.6 216.5 218.3 221 220.5 226.7 227 232.6 246.8 259.4 270.9 283.8 294.2 300.7 305.9 310.8 316.6 322.5 330.8 337.8 344.3 351.7 357.4 352 344.7 336 326.4 321 315.6 309.5 304.3 300.1 300.1 302.7 306.5 310.5 315.7 320.6 325.4 329.3 331.3 332.7 333.7 336.4 341.7 348.3 353.5 359.6 362.5 363.2 360.4 354.4 347.9 343.1 337.2 328.7 321.6 314.9
394.3 406.8 419.1 431.5 439.5 444.6 444.4 443.5 439.6 432.3 425.8 420 416.3 414.3 412.4 410.1 406.9 404.2 399.2 392.9 385 377.7 371.7 376.1 383.3 387.7 392.8 396 395.2 386.9 374.9 363.6 350 338.3 329.4 320.9 311.9 304.7 297.6 291 283.6 274.1 265.7 257.8 252.4 238.6 233.5 234.3 233.4 233.7 233.9 235.2 246.4 253.3 262.5 268.3 264.9 260.2 275.5 287.6 298.7 310.6 323.4 336.2 349.6 367.5 382.7 396.9 410.3 424.1 434.9 445.4 450.2 447.3 436.2 417.9 395.2 375.5 358.7 343.7 333.4 327.6 320.2 312.6 306.6 307 309.7 314.4 320.7 327.4 333.4 339.1 346.1 352 359.2 362.1 366.4 373.9 378.6 382.2 385.9 389.5 394.2 407 420.3 433 445.6 459.1 473.2 487.2 499.2 507.4 509.4 505.8 499.9 487.2 472.2 452.1 431.4 414.7 403.3 393.6 382.3 373.8 363.1 351.9 341.8 328.8 317 305 294.1 283.4 270.6 258.9 247.1 238 231.1 225.4 217.7 216.3 214.1 215.4 215.4 219.6 221.4 222.1 221.6 224.4 225 230.1 244 252.7 266.5 279.3 289.3 297.9 304.5 308.8 314.7 320.6 326.1 333.2 338.7 345.2 353.8 353.5 347.7 339.9 329.5 321.8 317.4 311.1 308.1 301.4 298.5 300.6 303.3 305.9 310.6 315.4 320.1 324.7 326.1 327.5 329.5 333.7 339.8 346.6 353.8 359.9 361.4 360.2 357.7 350.9 344.5 340.7 333.6 328.8 318.7 313.6
400.2 415.6 430.6 442.3 449.6 454.2 455 455.5 452.9 447.1 441.5 436.2 434.6 431.8 427.8 422.7 419 415.6 409.8 403.3 395.4 387.4 383.4 391.4 397.3 403.1 407.6 411.3 406.9 396.9 383.5 370.6 359.2 346.7 335.9 326.5 319.9 312.4 305.4 298.7 290.6 282.1 274.5 266.5 259.2 252.4 245.6 234.8 231.2 230.7 232.3 232.3 233 246.7 254.1 259.2 249.3 260.3 274.5 285.1 294.5 303 312.7 328.9 341.9 353.5 371.1 389 404.7 417.4 429.2 440 447.5 447.7 442.7 427.3 405 384.8 368.1 354.6 339.8 329.1 321.9 314.2 307.7 305.1 306.2 311.1 317.1 323.5 328.6 333.6 340.3 347.7 353.1 359.2 365.2 371.9 377 380.8 384.6 388.7 397.7 410.2 423.3 437.1 449.8 463.5 477.9 490.2 500.8 508.7 510.4 506.6 500.7 492.8 480.8 463 440.5 419.4 408.5 398 387.6 378.2 367.9 356.3 346 333.5 321.9 309.8 299.2 288.1 277 265.6 250.8 241.8 235.6 227.3 218.3 216.5 215.6 214.7 216.1 218.3 223.6 223 224.6 223 224.1 227.2 235.2 245.1 258.8 273.1 285 294.4 301.1 306.9 311.5 316.1 323.2 327.4 332.4 339.9 349.6 353 348.4 342 333.5 324.3 318.6 313.9 306.9 302 298 295.5 299.5 303 306.7 311.5 316.2 320.5 322.1 322.9 326.2 331.3 338 346.2 353.8 360.6 363.8 362 357.7 352.6 345.2 338.3 333.3 326 317 311.8
405.5 422.3 437.1 448.6 457.5 462.9 467 469.3 466.4 462.3 456.6 452.6 451.9 449.1 444.2 438.8 432.8 428.3 421.4 413.9 405 397.1 399.1 405.5 411 416.4 420.8 425.6 418.7 406.3 393.3 379.3 365.2 354.2 342.6 332.1 325.3 319.8 312.8 305.5 296.5 287.9 281 273.3 266.1 257.5 250.3 243.7 236.4 233.5 231.9 228.7 229.1 239.7 245.6 251.7 243.6 251.6 267.9 279.9 287.7 295.8 306.1 318.6 334 344.3 356.5 374.9 393.7 409.7 422.5 434 440.4 444.7 444.2 435.6 415.8 394.3 376.5 361.9 348.8 337.1 324.4 317 310.1 304.4 304.2 307.9 313.2 320 324.9 329.3 334.3 339.1 347.8 355.1 361.5 366.5 374 378.7 383.1 388.1 400.3 412.5 426.2 440.1 454 467.5 480.6 490.6 499.6 507.3 510.9 508.3 501 495.5 486.5 472.8 455.3 431.8 413.7 404.8 395.4 385.3 374.5 366.3 351.8 335.9 323.6 313.9 303 292.8 282.2 270.1 255.3 246.2 237.6 224.2 219.6 217.5 216.3 215.7 214.8 217.7 222.3 224.8 225.8 223.4 223.9 226.3 230.7 240.7 254.5 267.7 279.7 288.6 297.1 302.9 306.1 312.3 318.2 323.2 328.9 335.8 342.6 350.7 348.1 342.7 336.5 327.8 320.6 314.3 309.1 302.5 298.7 293.8 296.5 300 303 307.6 311.8 316.1 318.3 319.4 323 329.4 336.5 347 354.5 361.1 364.6 362.9 358.5 352.3 345.9 339.1 332.7 321.3 315.3 309.9
408.7 427.6 442.9 454.3 465.2 472.5 477.6 482.3 483.1 477.9 472.7 468.6 466.4 464.1 460.1 454.2 449 442.3 434.2 424.3 415.2 410 413.9 417.9 422.5 428.7 433.2 435.1 430.2 416.1 402 387.5 372.3 358.8 346.8 337.1 331.1 325.6 319.2 312.1 303.1 296.3 289.1 280.8 271.9 262.2 255.4 248.6 244.5 236.3 232.7 231.5 230.6 228.1 239.7 248 245.2 245.9 259.4 270.7 277.3 290.5 299.9 309 323.3 336.3 348.3 361.3 381.6 399.6 415.9 427.6 436.3 442 444.6 439.2 426.2 404.8 385.8 370.2 356.4 345.2 331.7 319.4 312.5 306.8 302.6 306.7 309.4 314.3 319.9 326.8 330.1 336.4 344.9 351 356.8 363.1 369.1 376 382.9 388.4 401.2 413.4 427.5 441.3 455.2 468.8 479.1 489 496.7 503.6 507.8 506.7 501.1 494.9 488.9 478.5 467.2 451.2 427.6 413.8 406.5 397.9 391.5 385 371.9 350.5 328.6 318.4 308.8 298 288 277.2 261.9 248.7 239 229.7 221.1 218.2 216.8 214.5 215.8 216.2 219.2 226.2 224.1 224.2 224 227.7 232.8 239 251 264 274.7 283.6 292 297.5 301.8 307.8 314.7 320.8 324.6 330.5 339.1 347 347.1 342.5 336.9 331.1 325.1 317.2 310.6 304.1 300.1 296.8 293.4 297.1 300 303.3 307.6 311.9 314.2 316.8 320.4 326.7 333.4 346.8 355.4 361.6 365.7 363.2 358 351.8 345.4 338.5 329.7 320.9 314.7 308.6
412.3 430.7 447.7 459.9 471.6 480.9 488.1 495.3 496.3 493.7 489.3 484.7 481.9 479.2 475.3 472.2 468.4 458.2 446.6 436.3 426.7 424.6 426.8 430.8 435.7 440 443.1 442.8 433.2 422.9 409.4 394.5 379.9 365.4 353.4 343.7 338.9 331.3 324.4 318.3 311 303.5 294.7 287.8 279.5 271 263.7 254.8 247.8 243 233.1 231.4 230.4 229.5 227.8 238.1 237.4 244 252.2 260.2 271.7 285.2 293.1 300.4 311.3 325.3 340.7 353.4 371 388.3 405.5 420.5 432.5 441.2 444.9 442 433.6 417.4 397.7 380.4 365.7 352.1 339.5 326.7 314.9 309 302 304.4 306.4 310.3 315.9 320.4 327.9 334.2 342.6 347.4 352.2 358.9 366.2 374 381.8 388.2 400.7 412.4 425.9 440.4 453.6 466.7 477.3 485.8 493.9 499 502.4 501.6 498 491.3 488.4 481.8 473.2 465.6 451.2 434.5 428.4 421.2 416.1 401.9 382.9 366.8 341.2 322.3 312.3 301.9 293.4 282.6 269 253.3 241.7 232.3 223.8 219.2 216.8 213.8 215.8 216.1 217.2 225.1 224.9 226.5 227.4 226.8 233.3 237.4 246.4 258.5 271.8 280.2 286.9 291.6 299.6 306.9 311.1 316.2 321.5 328.8 336.8 343.2 345.4 342.1 336.3 330.6 325.5 321.1 314.4 307 300.3 296.2 291.7 294.1 296.2 299.3 303.3 307.5 309.9 314.3 318.3 324.5 331.7 345.7 356.3 362.5 364.5 362.8 357.7 351.1 344.1 337.1 330.3 322.5 314.9 308
416.1 432.8 451.1 465.1 477.9 489.6 497.7 504 508.5 507.6 504.7 502.9 498.4 494.4 490.5 486.9 481.8 472.6 460.7 449.2 440.8 439.3 441.4 443.8 448.1 451 452.2 446.5 437.1 424.7 411.9 398.5 385.3 372.3 360.6 353.2 345.2 337.6 330.1 323.7 316.8 309.9 302.7 295.1 286.7 279.6 271 261 252.8 246.1 241.3 231.9 232.4 230.2 227.8 230.6 233.3 241.6 247.5 251.4 262.4 274.1 283.9 293.9 304.9 317.3 331.9 346.8 362.6 378.6 396.3 412.8 425.8 437.6 442.9 444.8 438.7 427.3 409.4 391.2 375.6 360.9 348.2 334.8 322.1 311.9 305.3 299.9 302.4 307.1 312.2 319 326.9 333.5 337.9 343.2 350.7 358.1 365.4 372.2 380 388.9 401 413.3 426 440.3 452.5 464.2 474.3 482.2 488.5 492.7 494.9 494 491.7 487.7 485.1 482.3 476.8 471.8 464.1 453.7 445.6 440.4 430.5 410.8 392.1 377.9 349.4 327.4 317.8 307 297.6 287.4 275 259.8 246 232.7 228.8 221.2 218.3 215.7 215.7 215.9 216.9 222.8 225.9 225.1 234.1 230 232.3 237.7 245.1 256.4 265.6 277 284.8 289.8 296.8 302.6 307.6 311.5 317 325.6 332.9 338.8 342.4 341.2 335.7 329.8 324.7 320 316.4 309.1 301.4 296.7 291.7 289.3 292.8 295.8 299.2 300.4 306.9 312.2 317.5 322.6 331.1 345.8 355.8 362.4 364.5 361.8 357.9 352.7 344.5 337.5 329.9 322.5 316.5 309.5
418.5 434.7 452.8 468.8 483 496.9 507.3 513.7 518.2 518.9 518.1 516.7 512.6 507 504.5 500.7 495 485.7 476.5 464 455.6 455.3 456 457.4 459.4 458.7 452.8 443.4 433.8 425.1 412.3 399.3 388.4 377.6 367.7 357 350 342.3 335.3 328.7 322.4 315.2 308.6 301.9 293.3 286.5 278.5 269.5 260 252.3 244.5 237.3 233 230.2 227.9 228.9 230.8 239.1 244.2 247.8 253.7 261.7 273.9 283.2 295.6 307.1 321.3 337.4 354.2 370 386.4 403.3 417.7 429.2 438.4 442 441.5 434.3 420.8 401.9 386.1 370.2 355.2 342.3 328.7 317.4 309.8 301.9 299.6 304.6 310.5 315.9 323.6 330.2 335.8 341.8 349.3 357.3 364.2 370.1 379.3 391.2 402.4 415.4 428 440.4 452.4 462.9 471 477.4 481.8 483.6 485 483.4 481.7 479.2 477.2 475.7 475.1 473.1 470.7 469 462.3 462.7 452.7 419 400.5 381.6 358.3 336 322.7 312.1 302.1 291.3 279.8 266.8 252.7 238.6 231.6 226.1 220.2 217.1 214.5 215.6 216 224.9 223.1 227.4 235.8 235.3 232.5 234.8 240.7 249.9 260.7 270.3 279.6 287 292.6 297.1 304.7 309.2 313.9 322.4 328.4 334.3 338.9 339.6 335 328.9 323.8 320.2 317.3 311.3 304 297.3 292.6 288.1 289.8 293 294.8 299.5 304.2 308.7 314.1 320.5 332.2 344.1 355.1 362.1 364.5 361.7 356.9 352.1 345.6 338 331 323.1 317.1 312
419.1 436.3 453.2 470.2 485.6 499.6 512.5 520.6 525.2 528.4 529.2 526 522.1 519.8 517.7 514.7 508.2 499.6 490.9 481.1 475.7 471.7 471.3 471 467.9 459.3 449.6 438.1 427.6 419.4 409.3 399.2 389.9 379.5 369.6 359.4 352.5 346.2 339.4 332.6 326.9 319.4 312.4 306 299.6 291.7 285.1 277.4 268.4 259.2 247.4 242.9 235.9 229.6 227.2 226.8 227.5 232.6 239.2 243 249 253.6 263.6 274.7 287.5 301.7 315.2 328.5 345 361.6 377.2 392.2 408.1 421 432.5 439.7 440.5 439.8 429.1 413.6 395.1 378.4 363.2 349 336 320.6 312.6 304.8 297.3 302.3 310.5 317 320.6 326 332.8 339.4 346.7 355.7 363.4 372.5 383.2 394.5 406.2 417.5 428.1 438.2 447.4 457.5 464.9 469.2 471.5 472 469.9 467.4 466.1 464.3 462.8 464 466.1 469.4 472.4 475.2 476.3 475.5 462.6 436.8 410.3 386.5 365.8 342.6 327.5 316.4 305.7 296.4 284.5 272.7 258.7 243.7 231.6 226.4 222.1 218 215.9 214.6 215.3 218.3 220.3 227.1 236.6 237.6 237.3 235.7 240.6 246.7 256.4 266 276.3 282.6 286.7 293.2 299 304 311.2 320 327.6 332.1 335.7 337.6 334.3 328.1 322.8 320 317.4 312.8 305.5 298.1 293.1 288.7 287.2 288.8 292.5 296.7 301.1 305.7 310.9 318.8 331.1 342.2 353.2 360.4 363.7 361.6 356.8 351.9 346.7 338.6 332.8 326.4 320.4 316.7
418.7 436.4 453.6 471.1 487.8 502.4 515 528.1 534.2 535.4 536.3 536 534.6 532.3 531.5 528.3 521.7 513.2 504.6 498.2 491.8 487.8 483.6 479.3 470.6 458.8 445.9 431.3 420 411.2 403.3 395.9 387.9 378.1 369.7 361.3 353.2 347 341.9 335.9 329.7 322.6 316.3 309.5 302.6 297 289.3 282.8 273.6 262.6 254.1 250.2 242.5 230.8 226.5 227 226.5 227.7 233.1 236.7 244.8 246.7 257.8 268.1 281.8 295.6 308.5 325.9 339.4 353.1 369.5 383.4 398.6 414.7 427.4 435.8 440.8 442.3 435.9 425.6 406.5 388 369.2 355.6 340.5 326.8 314.7 306.9 298.7 297.7 304.7 312.7 316.4 322 329 334.2 343.4 356.7 367.7 377.9 386.6 397.6 407.1 417 423.7 429.7 435.4 444.5 449.8 452.1 454.7 453.4 450.6 447.8 446.1 446.3 446.7 450.4 457.4 464.1 471.3 478.6 484 482.8 473.7 447.1 420.3 390.9 374.3 347.9 332.2 320.6 310.2 298.5 286.1 275.9 261.2 251.2 237.3 228.5 224 220.3 217 215.9 214.8 216.8 223.6 225.5 233.9 236.5 238.6 238.9 241.7 244.8 253.8 263.3 270.7 277.1 282.6 287.3 293.8 300.8 309.4 319.4 327.8 331.8 333.9 335.7 333.6 328 322.8 318 316.2 312.7 306.8 299.4 293.5 289.5 283.7 285.6 289.7 292.9 297.7 302.4 308.3 316.9 328.8 339.8 349.4 357.8 362.6 361.6 356.9 351.8 345.9 339.8 333.7 329.9 324.8 320.9
421 437.3 455.2 473.4 491.1 506.3 519.9 531.1 538.8 544 544.6 543.5 542.1 541.2 540.9 537.9 532.9 525.6 517.7 511.3 505.8 499.4 493.5 485.1 473.8 457 440.4 426.9 414.7 404.6 396.8 388.6 380.8 374.8 367 360.3 353.9 347.7 341.7 335.7 329.7 323.8 318.3 312.6 306.9 301.2 293.3 284.3 269.8 269.2 263.7 255.7 246.8 238.6 229 224.7 225 226.1 228.5 230.5 235.2 242.2 252.4 262.2 275.4 288.8 302.7 318.6 334.1 347.7 360.7 375.3 390.7 403.8 418.3 430.6 438.3 442.3 442 434.7 418.5 397.6 377.7 360.3 345 331 318.2 309.9 301.8 293.2 300 308.3 312 317.5 322.1 329.5 342.8 355.5 367.2 378.2 388.4 396.7 403.5 411 416.8 420.7 425.2 428.9 435.2 435.4 434.8 433.9 432.3 431.9 434.5 436.7 439.9 444 448.3 457.3 469.9 479.2 486.1 488.1 482.1 458.2 426.8 398.4 378.5 352.7 337.6 324.9 314.9 301.3 289.4 277.7 265.9 252.9 238.9 230.2 227.9 222.8 217.5 216.1 214.4 216.4 225.9 226 233.4 237.2 237.2 239.7 242.5 245.6 251.6 260.1 266.9 273.7 280.6 282.8 290.3 299 308.2 318.3 327.5 333.6 334 333.9 332.5 328 322.8 317.4 313.9 311.4 306.8 300.7 294 289.6 285.1 282.7 286.7 289 292.9 299.6 306.2 313.8 325.6 336.4 346.1 356 361.4 361 356.7 351 345.1 340.9 334.4 330.1 326.9 323.6
426 442 459.2 477.7 495.2 511.4 526.6 536.6 542.4 549.1 548.4 546.8 545.5 545.8 545.8 543.7 540.8 534.7 528.1 521.5 515.1 508 499.1 489 473.5 454.3 434.5 420.6 407.9 396.7 386 377.8 371.2 366.2 361.1 355.9 348.7 343.8 337.1 332.6 327.4 322.6 318 314.6 309.5 303.7 296.5 281.7 281.7 277.6 271 261.8 252.5 244.6 236.1 227.8 223.5 225.4 225.8 225.3 227.6 234.5 244.6 256.5 267.1 277.3 295.3 310.1 324.9 341.3 353.6 368 382.9 396.4 409.4 422.7 434.7 441.8 444.1 441.2 428.5 407 386.1 368.7 350.9 335.3 321.3 313.3 306.8 293.7 296.3 300.8 305.7 310.4 315.1 325.7 340.2 352.3 363.5 374 384.3 393.1 396.8 401.7 407.7 411.2 414.2 415.5 418.9 419.2 417.9 417 419.8 423.9 427.7 431.8 435.3 439.9 444.1 453.7 468.4 479.3 486 490.1 486.9 467 428.6 404.2 378.2 360.3 344 331.2 318 305 292.1 280.8 266.5 254.5 240.8 229.8 225.8 222.5 224 216 215.7 215.3 224.8 228.7 235 238.6 237.8 240.3 242.6 246.5 250.5 256.4 263.6 270 275.8 279.1 285.8 294.1 305.5 317.1 326.2 334.8 337.4 334.6 332 327.2 322.2 317 312.2 309.2 305.6 300.7 294.9 289.2 285.1 280.9 284 286 289.4 295.5 302.2 309.6 322.3 332.5 342.9 352.8 360.5 362.8 358.8 351.1 344.6 339.8 334.2 329.2 327 324.5
431.8 447.5 462.6 481.4 499.7 516.4 530.2 538.4 543.3 548 549.1 549.2 548.1 546.8 545.5 544.9 543.4 539 534.1 527.6 520.5 511.5 502.1 490 471.3 449.2 431.1 416.6 403.5 391.3 380 370.8 363.7 358.2 353.6 349.9 343.7 338.2 331.7 326.8 321.8 316.6 311.2 306.8 303.3 301.8 289.8 294.8 288.3 283.3 274.7 267.7 258.5 248.8 241.8 236.3 225.3 225 224.7 224.4 224.1 226.9 235.3 249.3 263.2 274.3 289.1 303.5 317.4 333.4 347.7 361 373.7 385.9 400.1 414.2 427.8 438.9 444.6 442.4 434.5 417.7 395.7 375.3 357.5 339.3 325.8 316.7 309.3 298.3 290.3 295.2 299.6 305 310.2 320.6 334.2 348 357.9 367.5 376.7 386.2 389.8 393.3 396.9 400.4 401.2 402 402.9 403 405 409 413.7 417.6 421.8 426.4 430.5 435.1 439.9 452.2 467.8 479.5 485.9 489.1 488.3 470.1 434.3 405.4 382.5 367.8 352.7 336.2 320.6 308.4 297 284.5 269.5 253.2 241.9 232.4 226.1 226.2 228.3 217.6 215.7 215.5 225.1 229.3 235.6 239.2 237.4 239.3 241.6 244.6 248.1 253.6 260.5 267 270.9 277.1 283.7 291.6 302.2 314 325.2 334.1 339.3 337 333.3 327.6 321.9 316.4 311.6 307.5 303.8 299.7 294.3 289.1 284.8 278.8 279.3 284 286.9 292.5 298.7 306.3 317.6 330.8 341 350.3 358.2 361.1 359 351.7 343.5 338.3 333.5 327.9 325.5 322.5
442.8 457.3 469.4 484.3 500.3 517.7 532.6 539.2 544.4 548.6 547 546.6 543.7 541.8 540.4 540.1 540 538.3 534.9 528.4 522.3 513.4 503.5 489.7 467.9 447.9 429.1 413.4 400.4 388.4 377.1 369.5 361.1 354.5 347.1 343.5 339.1 333.4 331.2 327.9 326.1 323.2 321.5 318.6 314.3 311.3 308.3 303.3 296.9 290.3 280.7 272.5 262.9 254.7 246.4 240.8 233.7 223.2 223.8 224.4 224.1 223.7 228.2 240.9 257.3 270.4 280.9 296.1 309.7 326 340.7 354.6 366.7 380.7 393.9 408.7 423 435 441.3 441.7 435.4 424.7 404.6 383.7 361.8 344 330.9 323.1 311.5 301.2 288.6 290.8 295 299.8 305.3 314.1 327 340.6 351 360.1 368.8 375.7 382.2 384.7 385.5 387.6 387.9 387.8 390.6 395 399.9 404.4 408 412 416.2 420.9 426.2 432.6 439.9 455.4 467.7 478.8 486 486.2 485.6 473.9 446.9 419.1 393.3 373.4 356 339.8 325.2 313.2 300.2 287.2 275.4 261 248.1 235.4 231.6 231.3 227.9 219.1 213.3 215.6 223.8 229.4 235.4 238.5 237.7 239.4 240.8 243.3 246.8 251.5 258 263.5 267.8 274.4 281.1 289.5 299.3 310.7 323.7 332.6 338.6 339.2 334.9 329.2 323.5 317.4 311.4 306.3 301.5 297.4 293.4 289 284 280.3 276.7 281.6 284.5 289 295.2 303.1 315.2 328.6 338.8 348.4 354 358.3 357.3 351.2 343.7 337.6 331.9 326.5 322.7 319.1
450.7 466 478.9 494 507.9 523.6 536 542.8 546.2 548 545.1 541 536.7 534 531.5 532 532.4 532 530.3 526.5 522.3 514.4 503.6 487.4 466.6 446.5 427.5 414.3 401.8 392 381.6 372.6 365.6 359 351 344.4 339.6 339.3 337.6 334.9 333 334.4 336.3 333.8 330 323.9 317.6 311.9 304.2 297.9 288.3 279.4 270.7 261.1 251.7 243.2 237.4 229.4 221.6 223.8 224.2 223.7 222.6 230.7 248.5 263.6 277.1 289.8 303 317.3 334.3 347.8 361.5 374.7 388.2 404.8 418.2 429.8 437.3 440.3 435.5 427.1 411.5 388.5 366.4 350.9 337.7 324.9 313.7 303.1 294.8 286.9 290.7 295.4 300.8 307.7 319.2 332.4 343.2 352 359.6 365.7 372.7 374.2 374.9 376.1 377.9 380.6 385.6 391 396 400.8 404.8 408.9 413.2 417.6 422.6 433 446.2 459.8 470 478.8 486.1 484.6 479.6 473.3 445.2 424.4 406.7 381.3 367.7 344.5 329.9 316.6 303.4 290.3 279.2 267.4 253.5 238.8 233 231.2 230.5 232.6 213.3 215 228.4 231 233.2 238.5 238.5 239.8 240 241.9 245.5 249.7 255 260.6 264.5 271.2 278.5 286.5 296.2 308.7 321.4 331.5 337.3 340.2 336.5 330.5 324.1 317.5 312.1 304.9 300.1 296.1 292 287.9 282.5 277.6 274.9 279.8 281.7 286 291.8 300.1 312.3 325.6 337.3 344.3 349 353.7 354.1 349.1 341.8 335 329 323.3 317.8 314.5
456.1 471.3 487.4 502.6 515.4 530 541.7 546.9 548.4 545.8 540.6 534.3 528.3 524.1 519.2 519.5 520.8 522.3 522.3 521.1 518.2 509.8 498.3 483.7 467.3 450.9 431.8 416.9 407.7 398.5 388.8 380.4 371.4 363.1 356.4 350.3 347 345.8 348.3 351 349.7 349.1 348.5 346.3 341 334.5 328.1 320.8 312.4 305 296.1 287.3 278.8 268.9 258.2 247.8 241.6 236.2 226.5 221.8 223.4 222.9 222 221.7 240.4 254.9 270.3 283.5 296.1 311 325.8 340.9 356.1 368.6 381.6 397.2 411.2 422 431.7 436.6 436.1 428 414.5 396.8 376 360.8 346.3 328.2 314.2 304.8 296.2 284.6 286.5 291.3 296 301.6 311.2 323.2 335 343.5 350.9 356.6 361.8 362.8 366.2 369.3 372.5 375.2 380.9 386.9 391.2 395.3 400.1 405.8 411.9 417.9 426.5 438.5 451.7 464.5 473.8 482.6 486.4 483.8 473.7 459.7 440.3 420 407.9 386.4 366.4 347 332.8 320.1 307.6 295 283.1 272.4 259.7 246.8 233.8 231.4 232.5 233.3 221.6 214.5 227 232.5 234.5 238.9 238.7 238.9 239.2 240.5 244.1 248.1 253.2 259.1 262.8 268.5 276.1 284.1 293.5 306 320.9 329.8 336.2 339.6 337.7 330.9 324.3 318.2 312.5 305.2 299.5 294.6 290.1 285.7 281.6 278.4 274.7 277.8 279.2 283.4 288.9 298.1 309 322.3 333.5 341.8 345.6 348.6 348.7 345.6 339.9 332.8 326.6 320.5 314.8 310.1
462.7 478.7 494.8 509 521.4 534 545.1 549.7 549.4 544.4 536 527.4 518.3 510 505.2 503.1 502.9 505.9 510.6 511.7 509.2 503.7 494.7 484 472 459.7 446 431 420.2 411.4 402.6 392.3 380 371.4 364.8 357 354.1 354.6 360.4 361.3 361.7 360.9 357.8 354.4 350.2 343.5 337.9 329.8 320.6 312.6 304.7 295.9 286.7 276.4 266.7 256.8 245.2 238.8 231.8 222.2 221.5 222.6 221.8 220.6 234.6 246.1 261.3 276.7 290.1 302.3 318.6 335.4 350.2 361.8 373.5 389.2 402.8 414 422.9 431.4 432.5 428 418.3 405.7 386.6 369.6 354.3 332.8 317.5 306.7 298.2 289.9 283.7 285.4 290.1 294.4 303.9 314.8 326.5 335.2 341.8 345.9 350.9 355.1 359.5 363.5 366.1 370.4 375.7 380.3 387.3 393.2 399.3 406.1 412.1 422.4 435.2 447.5 460.9 468.6 477.7 486.2 487.3 481.9 472.2 455.4 435.9 413.4 402.3 382.4 365.2 350 336.6 323.2 310 297.8 287.1 276.8 264.6 250.8 239.2 233.9 232 232.3 222.1 213.3 219.9 229.3 236 237.4 238.5 238 238.5 239.1 243.1 247.2 251.5 257.2 261.2 266.8 273.9 282.2 292.7 304.6 318.6 329.9 335.9 339.2 338.1 332.6 324.3 318.9 312.2 305.7 299.6 294.2 290 285.8 281.2 277.1 272.9 273.3 276.4 280.8 286.7 296 306.3 318.1 328.8 337.1 340.2 343.3 344.1 341.7 336.9 331.1 324.3 316.9 310.7 305.9
468.1 486.2 501.5 515.2 527.6 539.5 547.1 551 548.3 541.6 532.3 522.3 509 496.3 486.7 483.5 483.6 485.7 493.1 499.6 499.4 495.7 491.8 485.6 477.1 468.1 458.6 446.9 436.3 425 413.9 401.7 389.1 378.9 371.3 365.1 361.7 363.2 369.6 371.1 372 371.9 368.6 363.8 357.4 351.3 343.6 335.3 326.7 318.1 309.6 302.2 291.8 282.1 273.5 264.2 253 244.5 236.5 230.7 222.6 221.3 221.9 221.5 221.2 236.2 252.6 267.1 282.1 294.8 309 326.4 342.7 354.6 365.9 378.2 392.8 404.1 414.4 423.6 428 427.4 421.4 411.2 396.2 380.9 357.4 338.7 320.5 309.6 299.9 291.8 285.2 281.8 285.6 289 297.3 306.2 317.4 327.6 333 337.8 343.7 348.8 353.5 357.1 360.5 366.6 373.4 379 383.8 390.6 397.4 406.2 418 430 442.7 455.6 466.4 473.2 481.4 487.6 487.6 481.4 472.6 458.7 441.7 412 394.1 379.4 366.5 351.4 339.6 328.1 314.2 300.6 289.6 279.2 266.9 254.6 244.9 236.5 235.3 230.7 224.4 215.7 214.1 227.5 233.9 235.9 239 238.4 239.5 239.1 242.1 245.8 250 256.3 260.4 264.8 272.6 282.6 291.9 303.8 317.2 329.9 335.6 338.8 338.5 333.7 326.2 319.6 313.5 306.9 300.4 293.8 288 283.5 279 275.7 272.1 270.2 274.3 279 284.4 293.9 303.6 313.8 323.8 331 335.6 337.9 338.5 336.8 332.8 328.8 321.6 313.1 307 302.6
475.6 491.8 505.1 518 531.3 541.6 548 550.5 545.9 538.4 528.1 517.3 501.8 484.9 469.6 465.2 468.3 472 475.5 483.6 489.9 491.5 490.3 487.3 482.6 475.5 468.4 460.5 450.6 438.7 425.2 411.4 395.5 385.8 377.8 373.3 370.7 374.7 379.6 381.9 384.3 382.1 377.1 370.8 363.1 355.8 348 339.4 331.6 323.9 314.4 305.3 297.5 287.4 278.2 268.9 259.2 250 240.1 233.4 223.8 222.1 219.7 220.3 219.6 227.4 241.4 259.4 271.8 287.4 299.8 316.7 331.7 346.2 357.4 367.9 379.6 393 405.6 414.8 423.9 427.4 425.1 415.6 405.3 389.8 366.1 345 324.6 312.8 302.7 294.1 286.7 280.5 280.3 284.3 289.1 298.6 309.1 318.1 323.4 330.3 336.4 343.3 345.9 353.7 360.6 367 370.6 376.6 385.7 393.1 401.2 413.7 426.2 438 449.3 462.1 471.4 478.6 483 488.4 489.9 482.1 469.9 457.3 438.3 415.8 398.5 377.7 364.7 351.8 341.5 329.6 317 303.6 290.8 280.4 268 259.9 251.1 241.4 237 234.4 231.6 219 213.5 219.4 228.8 234.3 237.1 238.7 238.3 238.6 239.9 243.2 249 255.1 259.8 264.2 272.6 282.9 293.5 303.6 317.8 329.5 336.3 338.7 338.5 335.6 328.5 321.4 314.7 308 301.5 295 288.3 281.7 276.9 273.7 268.9 267.2 272.3 276.9 282.3 290.6 299.7 308.9 317.5 325.3 330.3 332.5 333.4 332.7 329.5 327 319.1 309.9 304 299.1
493.4 501.2 510.3 520.5 531.8 540.2 545.4 546.4 542.3 535.2 525.1 512.7 495.2 475.6 460.4 454.9 453.9 457.8 462.4 468.4 479.5 485.5 487.4 487.1 485 482.1 478.5 473.2 463.5 451 435.8 419.4 402.3 393 386.5 381.7 381.4 386.8 392 393.4 393.4 389.4 382.9 375.1 366.4 358.5 350.3 342.7 334.8 326.1 317.7 309 300.6 292 283.8 274.5 263.6 253 243.4 236.3 225.6 222.4 220.6 219.5 219.9 219.2 231.5 249.2 260.7 275.8 291.9 303.3 317.7 333.7 346.2 356.4 366.5 378.2 391.8 404.6 414 424.1 423.7 416.2 408.6 395 376.2 351.3 330.2 314.8 306.4 297.2 289.2 282.4 278.1 279.3 284.4 292.4 300.9 309.9 317.8 323.5 330.6 337.6 344.7 351.3 356.8 363.6 367.8 376.5 384.9 397.5 410.5 421.9 433.5 445 456.3 466.9 474.7 481.1 485.2 488.5 489.1 479.2 462.5 450.8 432.4 413.7 393.8 374.2 360.8 349.8 341.4 330.6 318.9 305.6 293.3 281.7 267.7 261 251.6 244.5 237.9 234.4 233.5 228.2 214.5 214.9 224.3 228.8 233.2 237.3 237.5 238 239.3 241.3 247.4 253.1 258.5 263.6 273 282.3 292.9 303.6 318.3 331.3 338.2 340.2 339.3 335 330.3 322.3 315.4 309.1 302.4 295.3 287.6 280.9 275.6 272.4 267.8 265.9 270 274.1 278.9 286.6 295.7 304.2 311.8 319.6 324.9 327.7 328.8 328.3 327.4 320.4 314.1 307.3 301.4 296.6
502.6 508.5 514.7 522.2 529.5 536.5 541.6 541.7 538.5 530.5 520.8 506.5 488.6 468.3 453.2 445 439.6 441.2 449.6 457.1 468.2 477.1 481.9 484.6 485.6 486.7 486.2 481.5 473.4 460 445.9 428.2 410.4 401.5 395.5 390.9 395 399.4 403.1 403 402.1 395.9 386.8 377.5 367.8 358.6 351.5 342.8 334.3 325.4 316.7 308.7 301 293.3 286.4 277.9 269.1 262 248.7 238.4 233.2 222.5 221.4 219.3 219.3 218.9 219.6 237.8 252 265.4 277.5 291.3 304.1 318.4 330.8 343.5 354.7 367.6 380.3 391.9 401.7 407.8 413.5 412.2 405.9 397.6 381 359.4 336.8 319.3 310.1 300.8 292.8 285.2 278.8 276 283.2 288.5 297.3 305.1 312.1 319.7 325.8 335.8 343.8 349 353.9 358.9 369.4 381.7 394.5 406 417.2 429.1 440 449.9 460.4 469.1 476.6 484.2 489 487.6 481 471.2 457.6 441 425.8 409.3 389.7 372.5 357.6 348 339.8 331.2 320.6 309.4 295.9 282.3 272.3 262.9 253.4 244.2 238.4 235.1 232.9 233 219.8 213.5 215.4 222.3 228.1 233.8 238 236.7 238.3 240.7 245.8 251.4 256.5 263.2 271.7 281.2 291.9 303.4 318.2 333.6 342.8 343.6 341.1 336.6 331.2 324.1 317.7 310 302.9 295.8 288.5 280.2 274 268.5 263.5 265.1 267 270.4 275.9 282.6 291.7 299.2 307.3 314 319.2 322.7 324 325.1 321.9 316.7 310.6 304.5 298.8 294.1
506.9 510.9 516.6 522.6 528.1 533.4 536.7 536.9 533.3 525.3 514 501.7 483.7 465.7 448.8 438.5 426.8 429 435.6 447.2 457.9 467.2 473.6 479.6 484.3 488.1 490.6 487.5 479.5 469.4 455.6 437.7 418.7 411.5 406.4 404 408.5 412.1 414.3 413.7 408.7 401.6 391 379.4 371.1 360.3 351 342.4 333.8 325.7 318.5 310.5 301.4 293.2 286.8 279 270.2 263.5 253.4 243.7 234 224.6 222.2 220.8 219.3 217.9 218.3 226.3 242.4 254.1 266.6 280.7 292.5 303.3 314.5 327 339 351.3 366.1 379.7 390.1 395.3 401.4 402.9 398.7 394.3 382.9 364.8 346.4 328.7 314 304.6 296.5 288.3 280.4 275 280.9 286.4 292.1 297.7 303.1 313.8 324.4 329.6 338.9 343.6 352.3 362.1 373.9 386.9 401.1 413.4 424 433.9 443.1 453.3 462.6 472.3 481 488.6 490.3 483.9 474.1 463.8 452.4 431.6 418.4 402.9 387.7 370.3 353.9 344.5 337.9 330.5 322.5 311.4 299.7 287.6 279.6 269.8 257.5 251.2 244.1 237 232.8 232.6 226.6 218.4 213.6 214.9 216.2 226.3 232.3 238.1 236.3 239.7 243.1 249.9 255.2 262.6 270.5 280.2 290.2 304.3 318.2 335.1 347.3 348.8 343.6 337.8 332.4 326 318.9 311 304 296.5 288.4 282.1 274.9 267.3 259.8 262.5 265 267.9 272.9 279.4 287.2 294.2 302.5 308.8 313.5 316.9 319 318.9 314.8 313 307.1 301.7 296.2 292.2
