ncols 200
nrows 82
xllcorner 500000
yllcorner 212700
cellsize 50
193.6 202.9 208.2 210 210.9 210.1 209.3 208.1 206.9 204.6 200.8 198.2 197.2 197.9 199.8 200 200.1 202.2 200.7 198.5 196.8 195.3 193.8 192.5 190.9 189.8 188.8 187.7 186.7 184.8 182.8 181.1 180.5 179.5 177.5 177.4 183 186.4 188.1 189.1 189.9 190.7 190.2 189.7 189 188.3 187.5 186.8 186.1 185.5 185.1 184.7 184.3 183.8 183.4 182.9 182.3 182.3 181.9 181 180.6 180.5 180 179.3 178.5 177.8 177 176.4 175.9 175.4 174.5 173.4 172.6 171.8 170.9 170.1 169.3 168.1 167.4 166.7 166.3 166.5 166.3 165.5 164.7 163.8 162.7 161.6 159.9 157.7 154.8 152.4 148.6 145 141.9 139.2 138 138 138.7 141.1 144.5 146.9 149.3 150.8 151.8 152.8 153.2 153.5 153 152.7 152.4 152.2 151.6 149.6 147.5 145.3 142.8 136.9 132.9 125.6 129.4 126.6 131.2 136.7 143.5 148.3 151 152.2 152.2 150.3 146.1 150.3 153.7 157.1 159.6 161.2 162.5 163.1 163.5 162.7 161.5 160.5 158.6 156.4 153.9 151 148.8 145.5 142.4 139.8 136.5 133.8 130.8 126.9 132.7 139.6 145.9 148.6 149.8 148.6 148.6 149.2 148.9 147.5 145.2 140.9 142.5 145.9 148 149 149.1 148.1 148 150.2 152.5 152.9 153.3 153.7 154 153.5 152.5 151.6 151.1 150.6 150.2 149.6 149.1 148.5 147.7 146.5 144.7 143 142 139.2 136.6 135 135.2 135.7 136.1 135.4
192 202.5 207.7 209.4 210.4 209.3 208.3 207.2 206.2 205.3 203.3 199 196.5 195.4 196.2 197.5 197.8 198.7 198.9 197.2 197 196.1 194.9 193.6 192.4 191.5 190.5 189.5 188.4 186.9 184.8 182.5 180.1 178.4 176.3 175.6 181.4 185.2 186.8 188.2 189.3 189.7 189.6 189.1 188.2 187.4 186.6 185.8 185.1 184.7 184.4 183.9 183.5 183.1 182.6 182.2 181.7 181.3 180.9 180.4 180 179.8 179.3 178.5 177.8 177.1 176.5 176 175.6 175.2 175.2 174.3 173.3 172.7 172.2 171.8 171.3 170.7 169.6 168.7 168.9 168.9 167.7 166.9 166.4 166 165.1 164.1 162.7 160.8 158.7 156.2 153.3 150.2 147.1 144 142.1 139.2 136.6 136.7 138.5 140.9 143.2 145.6 147.2 149 150.9 151.4 151.4 151.2 151.1 151 150.2 149.1 147.4 145.3 143.1 139.3 133 131.2 129.4 126 129.3 134.1 140.6 145.6 147.9 149.4 149.3 146.9 143.3 149 153.5 155.6 158.5 160.2 162.2 163.5 164.8 162.8 161 159.6 157.8 155.8 153 149.6 147 143.7 141.3 138.8 135.6 133.1 128.8 125.5 132 139.7 145 147.6 148.2 147.1 147.2 147.9 147.7 146.5 144.2 139.6 141.5 144.3 146.2 146.1 145.4 146.5 149.9 152.1 152.7 153.1 153.5 153.9 153.9 153.6 152.9 152.1 150.8 149.8 148.8 147.9 147.3 146.4 145.8 144.4 142.7 140.9 139.2 139.1 138.3 138.4 139 139.1 137.9 136.7
191 201.4 206.9 208.3 208.9 209.1 208.3 207.3 206.3 205.4 203.7 201.4 198.2 194.7 194.3 194.1 195.9 197.2 197 195.8 196.1 195.6 194.8 193.6 193 191.8 191.1 190.5 189.3 188 186.8 184.5 182.6 180.5 177 174.4 178.5 182.8 185.4 186.9 188.2 188.6 189 188.3 187.5 186.6 185.8 184.9 184.4 184 183.6 183.2 182.7 182.3 181.8 181.4 180.7 180.5 180.2 179.8 179.5 179.1 178.5 177.9 177.3 176.7 176.2 175.7 175.3 175 175 175 174.1 173.3 172.8 172.4 171.9 171.5 170.8 170.2 170.3 170 169.2 168.7 167.9 167 166.2 165.1 163.7 162 160.4 158.6 156.1 153.4 151 148.4 145.1 142 138.4 137.7 136.6 135.8 137.2 139 140.9 144.2 146 146.5 148.7 149.2 149.1 149.4 149.1 148 146.7 144.9 142.9 139.4 134.4 130.1 127.5 128.5 126.7 132 138.2 142.8 145 146.4 146 142.4 143.1 148.7 153.3 155.4 157.7 159.6 161.6 162.6 164.8 166.2 161.9 158.8 156.9 155.1 152.3 149.5 145.4 142.5 140.4 136.3 133.1 130.9 127.9 125.6 131.4 139.3 145.5 147.5 147.1 145.7 145.8 146.7 146.4 145 143 137.9 139.6 141.9 141.2 143.3 145.8 149.3 151.4 152.4 153.3 153.4 153.7 154 153.9 153.7 153.2 152.6 151.6 150.3 148.9 147.7 146.5 145.7 143.9 144.6 144.3 143.9 142.3 142.8 142.8 142.5 141.5 140.7 138.9 137.7
190 200.2 204.6 206.5 206.7 207 207.2 207.3 206.3 205.1 203.6 202.7 202.2 198.8 195.1 193.1 193.4 194.6 195.6 194.4 194.7 195 194 192.1 192 191.8 191 190.4 189.8 188.4 187.3 185.7 184.2 181.7 178.1 174.4 174.8 179.9 183.2 185.6 186.5 187 187.5 187.5 186.4 185.4 184.5 183.3 182.9 183.2 182.8 182.4 181.9 181.5 181.1 180.3 179.4 179.2 179.2 178.9 178.6 178.3 178.1 177.5 176.9 176.4 175.8 175.3 175 174.8 174.8 174.8 174.9 174 173.4 172.9 172.5 172.1 171.7 171.3 170.9 170.4 169.8 169.2 168.3 167.4 166.6 165.7 164.4 162.7 161.1 159.5 157.9 155.5 153.7 150.4 147.4 144.2 140.8 139.5 137.1 135.5 135.6 136 134.8 137.5 139.6 140.8 143.7 146.3 147.2 147.6 147.8 146.5 145.5 144 141.8 139.1 135.7 131.5 127.8 125.2 127.1 128.6 134 139 142.2 143.6 142 137.9 142.6 148.5 152.5 155.6 157.9 159.4 160.7 161.9 161.2 161.4 166.3 159.6 156.4 154.9 152.7 154 147 144 141.4 137.6 134.2 130.2 127.3 124.8 131.1 139.7 144.8 147.2 146.8 145 144.6 145.5 144.9 143.6 141.4 136.3 136.6 137.4 139.9 144.4 147.9 149.9 151.8 152.8 153.7 154 154.1 153.9 153.7 153.5 153.1 152.6 152.2 150.8 149.5 148.3 147.1 145.8 146.1 146.9 146 145.9 145.9 146.2 145.8 144.9 143.7 142.1 140.2 138.4
188.9 199 204.4 206.3 206.3 206.2 206.2 206.1 206 205.1 203.9 202.6 201.8 200.1 198.4 195.3 191.7 193 192.4 192.6 192.9 192.3 191.9 190.6 190.1 190.1 189.4 189.2 188.9 188.3 187.3 185.6 184.2 182.9 179.8 176 172.6 175.8 180.8 183.6 184.5 185 185.4 185.8 185.5 184.1 183.1 181.5 180.7 181.9 182 181.6 181.2 180.7 179.9 179 178.2 177.9 177.9 177.9 177.6 177.5 177.6 177.1 176.6 176 175.5 175.1 174.8 174.6 174.6 174.6 174.7 174.7 174 173.5 173.1 172.6 172 171.3 170.8 170.2 169.4 169.2 168.6 167.7 166.8 166 165.2 163.6 161.9 160.3 158.8 156.8 153.4 150.7 148.1 145.5 145.1 144.5 142.5 139.2 137 135.3 134.6 131.9 133.3 135.5 138.4 141.3 143.3 144.7 144.5 145 144.3 143.1 141.5 138.5 135.7 134 128 126.2 124.5 125.6 128.2 135.8 139 139.8 137.7 137.1 142.2 147.7 150.7 153.9 156.9 158.2 159.5 160.2 159.9 158.9 157.4 159.6 160.6 158.8 157.7 151.3 148.5 145.5 142.6 139 134.7 131 126.3 124.1 131.3 139 145.6 146.4 146.3 143.9 143 144.1 143.8 142.6 140 134.9 134.6 137.3 142.2 146.1 148.5 151 152.1 152.9 153.7 154.1 153.6 153.7 153.6 153.3 153.1 153.1 152.7 151.4 150.2 149 148.4 147.7 148 148.8 149.3 149 148.7 148.4 147.7 146.3 144.8 142.9 141.1 138.4
185.7 196.3 202.3 205.4 205.9 206.2 206.1 206 205.9 204.8 203.8 202.7 201.6 200.6 200.1 197.7 193.9 191.5 189.7 190.6 190.9 189.4 188 187.7 188 188.2 188.1 188 187.9 187.3 186.6 185.6 184.1 182.7 180.6 177.6 173.6 172.3 176.9 181.5 182.4 182.7 183 183.4 183.3 182.9 181.7 179.6 178.8 179.4 180.9 180.8 180.3 179.4 178.6 177.7 176.9 176.7 176.7 176.7 176.7 176.7 176.9 176.7 176.2 175.6 175.2 174.9 174.6 174.3 174.4 174.4 174.4 174.5 174.5 174 173.3 172.6 172 171.3 170.6 169.8 169.1 168.8 168.6 167.9 167.1 166.2 165.7 164.4 162.8 161.2 159.8 158.4 155 151.8 150 150 149.7 149.1 147.9 145.7 142.6 139.3 136.4 133.3 131.7 131.8 133.6 136 138 139.6 141.4 142.3 142.3 141.4 140.1 138.4 136.3 133.9 130.1 128.2 125.9 124.5 126.1 127.5 133.7 134.7 135.1 137.3 142 146.6 149.2 152.2 155.2 156.9 157.9 158.3 158.5 158 156.9 156.8 155.6 155.2 152.9 151.1 148.5 145.5 142.6 139 135.1 130.2 125.9 123 130.4 137.9 143.6 144.7 145.4 142 140.7 142.1 142.4 141.3 138.7 133.8 134.4 139.5 144.1 147.1 149.6 151.4 151.9 152.6 153.4 153.7 153.2 153.5 153.6 153.3 153.4 153.6 153.2 152.2 151.6 151 150.3 149.7 149.9 150.3 150.1 150.2 150.5 150.1 148.9 147.4 145.5 143.6 141.3 139.3
177.9 192.9 200.6 203.9 204.4 204.8 205.1 205.5 205.1 203.8 202.7 201.9 201 200.2 199.4 198.6 196 192.1 189.8 188.6 188.3 186.3 184.9 185 185.4 185.5 184.9 185.4 185.8 185.7 184.9 184 182.8 181.2 179.5 177.3 174.1 170.7 174.3 178.2 180 180.3 180.6 180.8 180.8 180.7 180.3 178.3 176.1 177.2 178.9 179.9 179.4 178.6 177.9 177.1 175.5 174.7 174.7 174.7 174.8 175.6 176.1 176.3 175.8 175.3 175 174.7 174.4 174.1 174.1 174.2 174.2 174.3 174.2 173.4 172.8 172.1 171.4 170.7 170.1 169.4 168.7 168.4 168.2 167.9 167.3 166.4 166 165.2 163.6 162.1 160.7 159.5 157.1 155.8 154.5 153 152.6 151.5 150.2 148.4 146.6 144.4 141.1 137.8 135.1 133.3 131.1 131.3 132.8 134.5 136.1 137.9 138.2 137.9 137 136.4 134.3 132.7 131 128.1 125.4 124.1 124.5 126 126.7 129.2 129.6 135.1 139.2 144.4 147.7 150 152.7 154.8 156.3 156.5 156.7 156.8 156.6 156.1 155.1 154.2 152.6 150.8 148.4 145.5 142.4 138.5 133.9 129.2 125.8 122.8 129.3 136.8 141 144.1 144.1 142.2 139.2 140.2 140.3 139.2 136.7 132.3 135.2 140.8 145.1 147.4 149.7 150.8 151.7 152.4 153 153.2 153 153.3 153.5 153.3 153.4 153.4 153.4 153.2 152.8 152.4 152 151.6 151.3 151.1 150.9 150.7 151.1 150.4 149.3 148.5 146.7 144.6 142.6 141.2
171.8 189.6 197.8 202.4 203 203.5 203.9 203.6 203.7 202.9 202.1 201.2 200.3 199.5 198.8 198 196.9 193.7 191.6 190.4 189.4 188.4 187 185.9 183.5 182.7 181.5 182.1 182 182.2 181.9 181 179.7 178 176.1 174.8 172.5 169.2 171.8 174.1 175.7 177.3 178.2 178.3 178.2 178.2 178.2 177.1 174.3 174.4 177 178 178.3 178.3 177.5 176.7 174.6 173.3 172.7 172.8 172.8 173.5 174.5 175.5 175.4 175 174.8 174.5 174.2 173.9 173.9 174 174 173.9 173.7 172.9 172.2 171.5 170.8 169.9 169.1 169.1 168.3 168.1 167.8 167.6 167.3 166.7 166.2 165.7 164.4 163 161.7 160.5 159.3 158.1 156.8 155.5 154.3 152.9 150.8 149.7 147.8 145.7 143.8 140.5 137.1 133.8 131.5 130.4 130 130.6 131.5 131.3 133.2 132.6 133 132.6 131.9 130.1 129.5 127 124.8 124 123.7 124.2 124.3 126 128.6 133.6 139.2 141.7 144.7 147.3 149.7 151.9 153.7 155.3 155.4 155 155.2 154.7 154 153.2 152.2 150.5 148.4 145.5 141.9 137.3 133.2 129.9 125.8 122.8 128.1 134.9 139.2 142.2 142.7 141.2 137 137.5 138.2 137 134.4 131.2 136.7 142 145.3 147.6 149.1 150.1 151.2 152 151.6 152.1 152.1 152.4 152.7 152.9 152.8 152.7 152.7 152.7 152.5 152.2 151.8 151.5 151.6 151.6 151.6 151.5 151.5 150.6 149.8 149 148.1 146.4 144.9 143.6
171.2 188.4 195.9 201 201.6 202.2 202.2 202.2 202.3 202.3 201.4 200.5 199.6 198.8 198.1 197.4 196.4 195.3 194.4 193.3 192.2 191.3 190.1 188.8 186.2 183.9 181.2 179.9 178.6 178.4 178.2 177.1 175.8 174.8 173.1 173.1 171.5 169.3 168 169.2 171.3 174.8 175.6 175.8 175.9 175.9 175.9 175.1 172.9 170.9 174.1 175.9 176.9 177.1 177.2 176.5 175 173.9 172.8 170.7 170.9 171.5 172.5 173.5 174.8 174.8 174.5 174.3 174 173.7 173.7 173.8 173.7 173.5 173.1 172.3 171.6 170.9 170.2 169.1 168.1 168.2 168 167.7 167.4 167.1 166.5 166.2 165.9 165.4 165 163.6 162.2 161.6 160.5 159.2 158 156.6 154.9 153.2 150.7 149.2 147.1 144.4 141.2 137.8 135.4 133.7 132.1 132 131.1 129.4 128.4 128.3 128.5 128.8 128.7 128.2 128.4 127.2 126.1 124.7 123.9 124 123.2 122.3 122.5 122.8 125.6 130.8 135.7 138.6 141.1 144.1 146 148.2 150.9 153.3 153.1 153.4 153.8 153.5 153.2 152.6 151.7 150 148.7 146 141.9 138.4 135.5 131.4 126.3 122.8 125.1 132.6 137.1 139.7 140.5 140 137 134.5 135 134.8 132.2 130.4 136.9 142.1 145.3 147.4 148.5 149.6 150.6 151.4 151.2 151 151 150.9 151.6 152.9 152.6 152 152 152 152.1 151.9 151.5 151.6 151.7 151.7 151.8 151.8 151.7 150.9 150.1 149.2 148.5 147.8 146.3 144.8
174.8 189.7 195.9 199.4 200.2 200.7 200.8 200.8 200.8 200.9 200.7 199.8 198.9 198.1 197.4 196.8 196.2 195.2 194.7 194.5 194.1 193.2 192.4 191.6 189.7 187.6 185.1 182.5 179.8 178.7 177.8 177.2 176.9 177.4 176.4 175.2 174.5 172.3 170 166.6 166.8 170 172.7 173 173.1 173.3 173.3 173.3 171.5 168.2 170.7 173.2 174.3 175.5 176.6 176.3 175.5 174.5 173.4 169.1 168.9 169.5 170.8 172.3 173.7 173.9 174 174.1 173.8 173.5 173.5 173.4 173.3 173.1 172.6 171.8 171 170.3 169.4 168.3 167.3 166.5 166.5 165.7 165.1 164.7 164.4 164.6 164.6 164.2 163.8 163.4 161.9 161.7 160.8 159.6 158.4 157.1 155.3 153.1 150.7 147.3 142.9 141.4 138.4 137 136.3 136.6 136.4 135.6 134.1 132.6 130.9 129.4 128.3 127.5 126.9 126.3 126.1 125.8 125 124.7 125 124.5 123.8 123.2 122.7 122 123.6 125.3 130.3 134.5 137.3 140 142.1 145 147.8 150 151 152.1 152.4 152.1 151.8 151.5 151.3 150.5 149.2 147.6 144 140.7 137.8 132.9 127.7 122.9 122.8 129.9 134.7 137.3 138 137.9 136.6 132.5 132 132.2 129.1 131 136.9 142 144.6 146.8 147.9 149 149.7 150.1 150.1 150 150 149.9 147.7 152.3 151.7 149.8 150.1 150.5 150.8 151.2 151.6 151.8 151.8 151.9 151.8 151.7 151.6 150.7 149.9 149.1 148.9 148.7 147.4 145.6
180.8 191 195.5 198.2 198.9 199.3 199.3 199.4 199.4 199.5 199.5 199.2 198.3 197.4 196.8 196.6 196 195.1 194.3 194.1 193.9 193.7 193.4 192.8 192 190.5 187.7 184.7 183.3 183.2 182.8 182.7 182.5 182 181 179.8 178.5 176.4 173.1 169.6 166.8 166.5 166.6 168.8 169.3 168.7 169.3 169.2 168.3 165.6 167.3 170.4 171.8 173.2 174.5 174.8 174.5 173.8 173.7 171.4 167.7 167.6 168.9 170.2 171.5 172.5 172.7 173 173.2 173.3 173.2 173 172.9 172.7 172.1 171.3 170.5 169.7 169 168.4 167.5 165.5 165.3 164.1 163 162.7 162.4 163.1 163 162.9 162.6 162.1 161.5 160.9 159.9 158.8 157.4 156.1 154.2 152.2 148.2 144.1 142.1 142 140.8 140 142.2 143.2 143.1 142.4 140.5 138.4 135.8 134.7 133.3 132.1 130 129.7 128.3 128.1 127.4 127 127.2 127.2 127.2 124.6 124 122.3 122.2 121.6 124.6 129 132.7 135.4 138 141.7 145.2 147.8 149.5 150.7 151 150.7 150.4 150.4 151.4 151 149.6 148.3 146 143 139.6 134.3 129.1 124.2 121.2 126.4 132.2 134.7 135.9 135.9 134.8 131.5 129.1 128.7 127.2 131.6 137.2 141.2 143.8 146.3 147.1 147.8 148.5 148.8 148.9 148.9 149 149 149.1 152.6 146.8 148.7 149.4 150 150.5 151.1 151.6 151.9 151.9 151.8 151.7 151.6 151.4 150.6 149.7 149.5 149.3 149.1 148.6 146.8
186.1 192.9 194.5 197 197.9 197.9 197.9 198 198 198.1 198.1 198.1 197.6 196.8 196.2 196.5 195.9 195 194 193.6 193.9 193.4 193.1 193.2 192.6 191.9 189.4 187 186.8 186.5 186.2 185.7 185.3 185.2 184.7 183.3 181.7 179 176.4 173.4 170.6 168 166.6 165.9 165.3 164.6 164.1 163.9 163.1 162.6 163.6 165.6 168.4 170.3 171.7 173 173.6 174.1 173.4 171.8 169.5 165.8 166.8 168.1 169.4 170.6 171.2 171.5 171.7 172.3 172.6 172.6 172.5 172.3 171.6 170.9 170.4 170 169.5 168.9 167.5 166.2 166.4 166 164.1 162.5 160.9 160.2 160.1 160 159.8 159.4 158.8 158.4 157.7 156.6 155 153 150.3 147.6 144.8 144.6 146.4 146.7 145.3 143.7 146.7 148.1 148.9 147.9 146.4 144.5 143.3 141.2 139.7 138.2 136.8 135.5 134.6 131.6 130.9 131.6 132 132.3 131.2 129.3 125.9 124.1 122.4 121.2 122.8 124.6 127.4 130.1 133.8 137.6 142.3 145.6 147.2 149.2 149.6 149.5 149.5 150.3 150.2 150.6 150 148.7 147.4 144.9 141.8 136.6 131 125.4 121.7 122.2 128.4 131 132.4 133.4 132.6 130.6 127.4 126.1 128.3 133.2 137.9 141 143.7 145 145.8 146.6 147.3 147.2 146.9 147.1 147.8 148.1 148.1 151.9 152.5 148 149.3 149.9 150.5 151 151.3 151.4 151.4 151.5 151.6 151.5 151.3 150.4 150 149.8 149.6 149.4 149.2 147.8
190 194.3 196.3 195.9 196.9 197.1 196.7 196.7 196.6 196.6 196.7 196.7 196.8 196.1 196.2 196.5 195.8 194.9 193.9 193.2 193.7 193.1 193.3 193.6 192.9 192.2 191.5 189.8 189.5 188.7 188.2 187.4 187.5 187.2 186.7 185.8 183.8 181.5 180.2 177.5 175.1 172.7 170.9 169.3 168.3 166.7 164.5 163.2 163.1 162.1 161.4 160.8 162.8 165.5 166.9 168.7 171.3 172.9 172.1 171.6 170.2 167.6 163.5 164.8 166.3 168.4 169.7 170 170.6 171.3 171.6 171.8 171.8 171.8 171.6 171.2 170.7 170.2 170 169.5 168 167.6 167.5 166.9 166 164.7 163.5 161.3 160.5 158.4 157.9 156.3 156.7 154.3 153 151.8 151 149.2 147.2 146.8 148.1 150.1 151.8 150.6 147.6 146.7 149.9 151.6 152.1 152.2 151.4 150.3 148.7 146.8 145.5 144.3 143.5 142.2 140.7 137.8 134.7 135.3 136.4 136.1 135 133 130.7 127.2 124 122.7 121.2 121.5 123.6 127.1 129.6 133.7 138.8 142.3 145 147 148.6 148.6 148.9 148.7 148.8 149.2 149.6 149 147.8 146.2 143.6 139.4 133.9 128.6 123.1 120.4 120.8 126.1 128.8 129.7 130.2 129.5 126.6 124 128.4 133.4 137.5 140.6 142.4 143.7 144.4 145.1 145.1 144.9 144.6 144.3 145 145.9 147.3 149.4 151.4 148.5 148.9 149.8 150.3 150.5 150.5 150.6 150.7 150.7 150.8 150.9 151.1 151.1 150.5 150.3 150.1 149.8 149.5 148.4
193 195.8 197.6 197.7 197.5 197 196.5 195.9 195.8 195.7 195.7 195.6 195.6 195.6 196.1 196.4 195.7 194.9 194.3 193.8 193.1 193.2 193.4 193.7 193.3 192.6 191.9 191.1 190.6 189.8 189.5 188.7 188 187.5 186.2 184.7 183.2 182.2 181.1 179.4 177.7 176.1 175 173.5 172.1 170.4 168.4 168.1 167 165.9 163.7 161.6 160.3 159.8 162.7 165.6 168.6 171.1 171.1 170.7 169.4 168.1 165 160.9 162.2 165.1 166.9 168.7 169.6 170.3 170.6 170.7 170.9 171 171 170.9 170.6 170.4 170.4 169.8 169.3 168.7 168 167.5 166.8 165.8 164.8 163.7 163.4 162.1 160.5 158.9 157.2 155.7 154.3 152.9 152.1 151.7 153.8 154.1 154 155.2 154.8 153.3 150.4 149.1 152.5 154.2 155 155.1 155.1 154.4 153.4 152.2 151 149.7 148.7 147.1 145.6 142.4 139.6 139 140.4 139.5 138.3 136.4 133.1 131 128.5 124 122 121 120.4 123.2 125.4 130.2 135.3 138.7 142.2 144.9 146.5 147.5 147.3 147.1 147.4 147.8 148.1 148.8 148.1 147.3 144.8 142.2 137.8 133 127.6 122.3 120.5 121.8 124.1 125.8 127.2 126.9 125.2 122.9 128 133.2 136.9 139.2 141 142.2 142.8 143.1 142.7 142.5 141.9 141.5 143.2 145.3 147 149.2 150.3 149 149.5 149.4 149.5 149.5 149.6 149.8 149.9 150 150.1 149.7 150.3 150.8 150.7 150.7 150.4 150.1 149.5 148.4
193.1 196 197.1 197 196.6 196.5 196.4 195.8 195.2 194.8 194.8 194.7 194.8 195.1 195.3 195.6 195 194.3 193.5 192.8 192.2 192.7 193.1 193.4 193.7 193.1 192.3 191.4 190.8 190.2 189.3 188.4 187.8 187.4 185.9 184.1 182.4 181.7 180.9 179.6 178 177.4 175.8 174.1 173.4 172.7 169.9 169.4 169.1 168.7 167.6 164.8 162.6 160.2 158 161.2 165.5 168.7 169.5 170.3 169.4 168.1 166.1 163 159.8 161.8 163.9 166.3 167.4 168.5 168.6 168.6 168.6 169.6 169.8 170 170 169.8 169.5 169.5 168.6 168 167.7 167.4 167 166.7 166 165.4 165.1 163.7 162.9 162.2 161.5 160.4 159.4 158.2 156.8 157 158.2 158.2 158.1 157.6 157.1 156.1 154.4 152.5 154.5 156.2 157 157.6 157.6 157.1 156.6 156.2 155.3 154.5 152.3 150.4 148.6 144.3 144.7 144.7 144.1 142.8 141.5 140.2 137.5 135.9 133.4 129 125.3 122.4 120.8 119.9 122.5 125.7 131.7 135.6 139.2 142.3 144.7 145.8 145.6 145.6 146 145.7 146 147.6 147.9 147.3 146.1 143.5 141 137.1 132.5 127.5 122.6 119.5 119.7 120.7 122.1 123.5 122.2 122.5 127.2 132.4 135 137.5 139.4 140.2 141 140.5 140.2 138.7 137.5 139 142.7 145.4 146.2 146.6 148.8 148.8 148.6 148.2 148.1 148.1 148.2 148.7 149.1 149.2 148.2 148.9 149.6 150.3 150.6 150.8 150.7 150.4 149.6 148.4
193.1 195.1 195.8 195.9 195.7 196 196.2 195.6 195 194.4 193.9 194 194.1 194.2 194.3 194.5 193.9 193.3 192.6 191.8 191.4 192.1 192.7 193 193.3 192.8 192.3 191.7 190.9 190.1 189.2 188.3 187.8 187.2 185.3 183.3 181.6 180.8 180.2 178.6 177.7 176.9 176.2 175.3 174.5 173.3 171.4 170.9 170.4 169.8 168 166.2 163.8 161.4 158.1 158.7 163.3 165.8 167.1 168 167.3 166.7 165.2 164.7 160.5 158.5 161.6 164 165.2 166.3 166.4 166.5 166.5 167.2 168.2 168.3 168.4 168.3 168.1 168.3 168 167.7 167.4 167.1 166.7 166.4 166.2 166.7 166.1 164.3 164.3 163.8 163.2 162.3 161.9 161.2 161 160.6 160.5 160.7 160 159.7 159.4 158.5 157.6 156.8 156.6 157.9 158.7 159.5 160.1 159.7 159.3 159.3 158.5 156.3 154.8 153 149.4 148.6 147.9 147.8 147.2 145.9 144.7 143.4 141.8 140.4 137.4 133.9 129.3 124.6 122.1 120.3 119.8 122.7 127.7 132 136.1 139.2 141.9 143.8 143.9 143.8 143.3 143.2 144.8 146.3 147 146.6 145.7 144.4 142 139.9 135.8 131.5 127.8 123.2 120.6 118.4 119.6 119.7 119.4 121.9 126.4 129.6 133 135.4 137.1 138 138.3 137.1 135.6 134 136.1 139.3 143.6 145.2 146.2 146.9 146.9 147.8 147.4 146.9 146.7 146.7 146.9 147.5 148.1 147 147.4 148.1 148.7 149.3 149.9 150.5 150.9 150.7 149.6 148.6
192.4 194.2 194.3 194.4 195.1 195.5 195.9 195.4 194.8 194.1 193.3 193 193 193 193.2 193.4 192.8 192.2 191.6 190.8 190.8 191.5 192.1 192.6 192.8 192.3 191.7 191.2 190.7 190 189.1 188.1 187.7 186.5 184.5 182.5 180.7 180.1 179.6 177.3 176 174.6 172.5 172.7 173.4 173 172.1 171.2 169.9 168.7 167 164.2 162.3 160.2 157.6 156.3 160 163.1 164.4 165.1 165 164.3 164 162.4 159.5 157.4 159.5 160.9 162.5 163.6 163.3 164.2 164.4 164.7 165.7 166.5 166.7 166.7 166.7 166.8 166.7 166.4 166.1 165.7 165.4 165.6 166 165.9 165.5 164.5 164.6 164.6 164 164 163.8 163.4 163.3 163.2 163 162.5 161.9 161.5 160.9 160.8 160.1 159.1 158.8 159.8 160.6 161.4 161.5 161.4 161.4 161.1 160 157.8 156.3 153.1 150.8 151 151 150.6 150 149 147.7 146.5 145.3 144 140.7 136.7 132 128 124.8 121.1 119.9 119.8 122.1 126.7 132.5 136.1 138.7 140.8 141.3 140.8 140.5 142.1 143.7 144.9 145.9 145.5 145.2 144.4 143.4 141.2 139.4 136.3 133.3 130 125.8 121.5 118.8 117.9 117.5 119.5 122.8 126.4 129.7 132.5 134.3 135 134.6 132.6 130.6 132.1 136.9 140.8 143.6 145 146.2 146 145.3 146.1 146.3 145.7 145.3 145.3 145.8 146.4 146.3 146.4 146.5 147.1 147.8 148.4 149 149.6 150.3 150.9 150 148.9
189 191.5 191.7 192.2 193.8 195.3 195.7 195.2 194.3 193.3 192.5 191.9 191.9 191.8 192.2 192.3 191.7 191.1 190.5 189.9 190.2 190.8 191.5 192.1 192.3 191.8 191.3 190.8 190.3 189.6 188.9 188 187.1 185.6 183.8 182.7 181.6 180.6 180.1 180.1 178.5 176.7 173.9 172.4 171.2 170.1 170.4 169.1 168.1 166.4 161.8 161 159.2 158.3 157.3 156.7 156.1 158.9 160.5 161.2 161.2 161.2 160.7 158.9 157.3 155.4 156.5 157.1 158.6 159.1 159.1 159.5 160.4 161.5 162.4 163.2 164.1 164.5 164.7 164.8 164.8 164.6 164.3 164 163.8 164.1 164.4 164.9 164.1 164.4 164.5 164.6 164.5 164.5 164.5 164.6 164.1 163.7 163.5 163.7 163 162.4 162.5 162.3 162.1 161.6 161.2 161.3 162.2 162.5 162.3 162.2 162 161.7 160.9 159.2 156.5 154.1 154.2 154.3 153.8 153.3 152.8 152 150.8 149.7 148.5 147.2 143.7 139.4 135.2 130.9 126.5 123.3 120.3 120.1 120.3 122.1 127.9 132.5 135.3 137.4 137.9 137.2 138.1 140.8 141.9 142.9 143.8 144.2 143.8 143.7 143.7 142.7 140.9 139.4 136.4 133.3 130 126.7 122.4 119.4 117.1 116.6 118.4 121.8 125.3 128.6 131.1 132.2 131.5 129 129 133.2 137.7 141.2 143.5 144.9 145.8 144.5 143.7 145.2 145.5 144.6 143.9 144.1 144.6 144.7 144.1 143.7 144.5 146.3 147 147.7 148.3 149 149.7 150.5 150.2 149.1
185.7 187.4 186.6 186.7 191.9 193.8 195.5 195.4 194.6 193.7 192.7 192 190.9 190.6 190.8 191.2 190.8 190.2 189.6 189.1 189.8 190.4 191 191.6 191.4 191.3 190.8 190.4 189.9 189.2 188.5 187.9 186.8 185.7 185.1 184.6 183.7 182.9 182.1 181 179.7 178.3 175.4 172.4 169.8 165.1 166.1 166.3 164.1 161.8 160.8 160.5 159.3 158.4 157.4 156.6 155.7 155.1 155.1 155.7 156 155.8 155 154.7 153.7 153 153 153.5 154.7 154.9 153.1 154.3 155.6 157.1 158.5 159.7 160.5 161 161.4 161.6 161.8 162.1 162.4 162.3 162.2 162.5 163 163.5 163.5 163.9 164.1 164.3 164.7 164.7 164.7 164.6 164.3 163.9 163.9 163.8 163.7 164 164.1 163.9 163.5 163 162.3 162.2 162.8 163.1 163.1 162.7 162.4 162.1 161.7 159.8 157.5 157.6 157.4 156.9 156.4 156 155.5 155 154 152.9 151.5 149.6 146.6 142.3 138 133.7 129.3 125.7 122.2 119.7 118.4 120.1 123.1 128.3 131.7 133.8 134.8 133.7 135 137.5 139.9 140.8 141.8 142.7 142.5 142.5 142.5 142.5 142 140.3 138.6 136.2 132.9 129.7 126.4 123.1 119.5 116.6 115.6 117.2 120.4 124.1 127.3 129.2 127.9 126.1 128.7 134.6 138.4 140.7 142.9 144.7 145.3 144.9 142.1 143.1 143.4 143 142.4 142.6 143.1 142.8 142.6 142.3 143.8 145.7 146.4 147.1 147.7 148.4 149.4 149.6 149.7 149
179.5 181 177.7 181.8 188.2 191.9 194 195 195 194 193.2 192.7 191.2 189.8 190 189.8 189.7 189.3 188.7 188.8 189.4 190 190.6 190.3 190.2 190.2 190.2 189.8 189.3 188.6 187.9 187.6 187.4 186.3 185.7 184.9 184.1 183.2 181.8 180.9 180.2 178.2 176 173.9 171.4 167.6 164.5 164.1 164 164.2 164.7 162.6 161.4 160.9 159.5 157.8 155.9 153.8 151.7 151.5 151.9 151.6 152 151.9 151.7 151.1 150.9 150.5 150.5 150.5 149.5 149.3 150.1 151.1 152.7 154.1 155.4 156.5 156.9 156.9 157 157.1 158.4 159 160.3 161.1 161.8 162.2 162.3 162.7 163.5 164 164.4 164.6 164.6 164.5 164.4 164.2 163.9 163.6 163.3 163.6 163.8 163.7 163.4 163.5 162.9 162.7 163.4 163.6 163.7 162.7 162.4 161.9 161.4 160.5 159.9 159.5 159.2 158.7 158.3 157.8 157.3 157.2 157 154.9 153.3 151.2 148.4 143.9 139.7 135.4 131.3 127.7 124.5 121.3 118.8 117.9 119.6 122.7 127.5 130 131.2 130.6 131.9 134.1 136.5 138.8 139.7 140.7 141.3 141.6 141.9 142.3 141.8 140.1 140.1 138.1 135.7 133.4 131 128.4 124.5 120.4 117 115 116.2 119.9 123.1 125 124.2 125 129.9 134.5 137.5 139.7 141.9 143.8 144.7 143.9 140.8 140 140.3 140.9 140.1 139.4 140.9 141.7 141.8 140.9 143.4 145.1 145.8 146.4 147.3 148.4 148.5 148.7 148.8 148.7
171.2 172.1 170.6 178.2 184.2 189.6 192.3 194.1 194.6 194.4 193.8 193.3 192.1 190.6 189.6 188.9 188.4 188.2 187.8 188.4 189 189.6 189.3 189 189 188.9 188.9 188.9 188.7 188 187.4 187.3 187.1 186.9 186.1 185.2 184.4 182.9 181.6 180.9 179.3 177.7 175.7 173.3 169.6 165.8 164.9 166.5 167.7 168.1 166.8 164.6 163.7 163.3 162.2 160.6 158.3 157.1 156.8 156 154.9 155.1 154.7 153.9 153.4 153.2 152.8 152.9 152.8 149.5 148.4 148.7 148.2 147.6 147.9 148.1 149.4 150.6 151.1 151.9 152 152.9 154.4 155.4 156.7 158.3 159.2 160 160.7 161.3 162 163 164 164.4 164.4 164.3 164.2 163.9 163.6 163.3 163 163.2 163 163.2 163.5 164.1 163.8 163.4 163.8 164.2 164.1 163.9 163.3 162.8 162.3 161.8 161.4 161.3 161.1 160.6 160.1 159.6 159.1 159.2 158.5 156.7 154.8 152.6 150.2 145.7 141.2 137 134 131.4 127.9 124.4 120.8 118.2 118.2 118.8 121.1 125.3 127 126.9 128.3 130.3 133.1 135.4 137.6 138.6 139.8 140.7 141.6 142.1 141.6 141.6 141.6 139.5 137.2 135.3 133.4 131.5 129.2 125.2 120.6 116.6 114.7 115.6 118.2 120.4 121.1 124.3 129.1 133.6 136.7 138.8 141 142.8 143.2 142.7 139.8 138.6 139.3 138.6 137.5 137.3 138.7 139.8 139.4 141 143 144.4 145.1 146.2 147.4 147.5 147.6 147.8 147.9 148.1
162.4 163 166.1 174.4 181 184.8 190.8 193.1 193.9 194.6 194.1 193.6 193 191.5 191.1 190.5 189.7 188.8 188.3 188.9 189.2 188.5 188.2 187 186.7 186.7 186.7 186.7 187.5 187.5 187 186.9 186.8 186.7 186 185.2 184.2 182.4 181.7 180.8 178 175.7 173 170.4 166.6 165.4 168.2 170.3 170.3 170.2 167.5 166.7 166.3 165.8 165.9 164.2 162.7 161.8 162 161.5 161.5 161.2 160.9 160.7 159.7 159.6 159.1 158.7 158.2 156.6 154.3 151 150.6 149.7 149 147.9 146.7 146.4 145.4 146.8 147.3 148.1 149.4 150.6 153.2 155.4 156.3 157.1 157.8 158.8 160.8 161.8 162.8 163.9 164.1 164 163.9 163.5 163.3 163 162.7 162.7 162.8 163 163.3 163.8 164.2 164.6 164.9 164.6 164.1 163.7 163.5 163.1 162.7 162.4 162.4 162.3 162.2 162.2 161.9 161.4 161.2 160.4 159.6 158.1 155.9 153.7 151.6 148 143.5 140.5 138 135.4 131.9 127.8 123.4 119.7 117.4 117.1 118.1 118.6 121.1 123.4 124.1 126.8 129.7 132 134.4 136.4 137.9 138.9 140 141 142.3 142.4 142.4 141.5 139.9 138 136.1 134.2 131.7 129.4 125.1 120.7 116.3 114.7 114.9 116.4 118.4 123 128 132.2 135.4 137.8 140 141.6 141.1 139.8 138.5 137.2 136.9 135.8 134.9 134.5 136.2 139 139.9 141.8 143 143.2 145.2 146.3 146.5 146.6 146.8 146.9 147 147.1
154.9 156.8 163.2 170.8 178.5 184.5 189.1 191.8 193.6 194.6 194.1 193.6 193.2 192.6 191.7 191 190.3 189.7 189.3 189.4 189.5 188.7 186.6 184.4 183.7 183.7 184.6 185.2 185.8 186.1 186.2 186.1 186 185.9 185.4 184.6 183.9 182 180.6 178.9 175.7 172.8 169.7 167.2 166.4 169.4 172.5 172.6 172.5 170.3 170.1 169.7 169.3 168.8 169 168.6 167.1 166.5 166.8 166.6 167.1 166.8 166.7 166.3 165.7 164.8 164.2 163.3 162 159.6 156.2 154 154.8 154.1 152.7 151.4 150 148.7 147.9 147 145.2 144.7 144.7 145 147.8 150.7 153.3 153.4 154.5 156.7 159.2 160.5 161.6 162.5 163 163.7 163.5 163.2 162.9 162.7 162.7 161.5 162 162.8 163.1 163.5 163.8 164.2 164.5 164.1 163.7 163.2 163.3 163 162.7 162.7 162.6 162.6 162.5 162.5 162.6 162.5 162 161.2 160.2 159 156.8 154.7 152.5 149.8 146.9 144.2 141.7 139 135.9 132 128.1 124.6 119.7 117.8 116.3 116.8 118.1 119 120 121.6 126.2 128.8 131.1 133.1 135.1 137.2 138.8 139.8 141.1 142.4 142.7 142.3 141 139.5 137.9 136.2 133.9 131.5 129.2 124.6 120 117.1 113.9 113.9 117.2 121.5 125.9 129.9 133.5 136.2 138.4 139.9 138.7 137.5 136.2 135.5 134.4 133.1 132.7 136 138.1 140.1 141.3 142.2 143.3 143.7 145.3 145.3 145.4 145.5 145.6 145.8 145.9 146
150.7 154.4 158.5 166.4 174.3 181.3 187.1 190.4 192.9 193.9 193.5 193 192.8 192.2 191.4 191.8 191.3 190.7 190.4 190.2 189.9 188.9 187.3 185.7 183.4 182 181.7 182.4 182.8 183.5 184.1 184.1 184 184.1 184 183.1 182.2 180.7 178.9 176.1 172.8 170.1 168.3 167.8 170 174 175.2 175 174 172.5 172.5 172.8 172.7 172.5 172 171.9 171.3 170.7 170.1 169.7 170.3 169.5 169.5 169.2 168.9 167.7 166.5 164.7 162.3 159.4 157.7 157.4 159.2 159.1 157.3 156.1 154.9 153.6 152.4 151.2 149.6 147.4 144 143.8 143.6 144.9 144.2 148.3 151.2 154.6 157.1 159 160.3 160.9 161.4 161.9 163 162.8 162.8 162.7 162.5 161.3 160.2 161.4 162.4 163 163.4 163.7 164.1 164.2 163.2 162.8 163 163.1 163 162.9 162.9 162.8 162.7 162.6 162.4 162.2 161.9 161.7 160.5 159.4 157.7 155.6 153.5 151.3 149.2 146.8 144.2 141.5 138.4 135.3 132.1 129.3 125 122 119.3 117 115.8 117 117.9 119.1 120.3 124.9 127.8 129.9 131.9 134 136 138.1 139.8 141 141.5 141.9 141.4 140.6 139 137.5 135.7 133.4 131.2 128.4 125 120.7 116.5 113.2 114.1 118.3 122.9 127 131.1 133.9 136.4 137.7 137 136.4 135.8 133.5 130.4 131.1 135.3 139 140.1 141.1 141.4 141.8 142.9 144.1 144.5 144.7 144.6 144.5 144.5 144.6 144.7 144.8
149 150.7 154.5 161.6 171.3 178.6 185.4 189 191.9 193.1 193 192.8 192.3 191.7 191 191.5 192 192 191.6 191.2 190.8 190.3 189.7 189.1 186.9 184.1 181.9 180 179.9 180.6 181.2 181.8 182 182.3 182.6 181.7 180.2 178.5 176.3 173.1 170 169.5 171.7 174.7 174.1 176.7 177.3 177.1 176.7 175.3 175.2 175.6 175.5 175.3 175.4 174.9 174.4 173.8 173.2 172.8 172 170.9 170.8 170.7 168.9 167 165.6 163.9 161.5 160.6 161.1 161.6 161.8 161.8 161.9 160.7 159.6 158.5 156.8 154.8 153 151.2 148.7 146.5 145 143.7 142.6 144.2 147.5 151.8 154.7 157.1 158.1 159.1 160.1 161 161.9 161.8 162.2 162.7 162.1 161.4 159 159.8 160.1 161.4 162.7 163.3 163.6 163.9 162.9 162.5 162.5 162.5 162.6 162.7 162.6 162.6 162.5 162.3 162.1 161.8 161.5 161.3 160.5 159.7 158 155.9 153.8 151.6 149.8 148 145.5 142.7 140.3 137.9 135 132.6 130.1 127 124 121 117.9 116.4 115.7 117.4 118.7 121 124 126.3 129.1 132 134.6 136.5 138.2 139.7 140 140.3 140.4 140.2 140.2 138.7 137.3 135.3 133 130.6 127.7 123.7 119.5 115.9 112.6 114.3 118.8 124 128.3 131.5 134 135.8 135.4 134.8 133.4 131.8 129.8 133 137.4 139.7 140.3 140.9 141.2 141.5 142.5 143.2 143.7 144 143.9 143.8 143.7 143.6 143.5 143.6
145.9 148 151.9 160.4 170 176.6 183.5 187.9 190.8 192.7 192.8 192.3 191.8 191.2 190.7 191.2 191.8 191.9 191.8 191.7 191.6 191.2 190.5 189.9 189 187.1 184.7 182.5 181 179.1 178.3 178.9 179.2 179.8 180.3 178.6 176.6 175.3 173.2 170 171.9 174 175.7 178.1 178.8 179.5 179 179.1 178.9 178 177.9 178.3 178.2 177.7 177.6 177.1 176.4 175.8 175.1 174.5 173.4 172.3 171.6 172 169.8 167.7 165.5 164.4 164.3 164.1 164.6 164.4 164.2 164.4 164.5 163.7 162.6 161.1 159.9 158.1 156.3 154.1 151.8 150.2 147.7 144.4 142.9 142.7 143.3 147.4 151.3 154.1 155.9 156.9 157.9 159 160 160.8 161.2 161.5 161.2 160.5 159 157.9 157.9 159.1 160.4 161.7 163 163.2 163 161.9 161.9 161.9 162.1 162.2 162.3 162.3 162.2 162 161.7 161.4 161.1 160.8 160 158.8 157.8 156.2 154.1 152.1 150.3 148.3 146.3 143.8 141.4 138.5 135.6 134.3 132 129.6 127.1 124.7 120.9 118 116 114.9 115.8 117.3 120.1 122.8 126.4 130.3 132.4 134.2 136 137.4 138 138.6 139 139.1 139 138.6 137.3 136 134 131.8 129.4 126.4 122.4 118.5 113.8 112.3 115.5 119.4 124.6 129 131.4 133.2 133.7 132.4 131.1 130.2 131.1 134.7 137.5 139.3 140 140.6 141 141.3 141.7 142.3 142.8 143.3 143.3 143.2 143.1 143 142.9 142.8
143.2 146.4 151.5 159.4 168.5 175.2 181.8 186.6 189.8 191.2 191.6 191.7 191.3 190.7 190.3 190.8 191.5 191.6 191.5 191.4 191.4 191.5 190.7 189.8 188.8 187.5 185.7 183.8 181.7 180 178.3 176.8 176.2 176.2 175.3 174.8 173.2 171.6 171.7 174.1 176.5 177.9 179.6 180.9 181.5 181.2 180.7 180.7 180.8 180.6 180.7 181 180.6 180.2 179.3 178.7 178 177.4 176.7 175.7 174.7 173.6 172.8 173.1 171.7 169.5 167.9 167.2 167.1 166.8 166.6 166.4 166.2 166.3 166.3 166 164.6 162.5 161.3 160 158.1 155.8 153.5 151.4 148.7 145.9 143.2 141.8 140.6 142.8 146.6 149.6 153 154.4 155.6 156.8 157.9 158.8 159.9 160.2 159.9 159.3 157.9 154.4 155.7 156.8 158.7 160.4 161.7 162.4 161.6 161.4 161.4 161.4 161.5 161.6 161.7 161.8 161.6 161.2 160.9 160.6 160.3 159.9 158.7 157.6 156.7 155.4 154 152.2 150.3 148.3 146.3 144.1 141.3 138 134.6 133.3 132 129.4 126.6 123.8 121.3 119.1 117.9 115.7 114.7 115.9 116.1 118.4 123 126.5 129.4 131.3 133.5 135 135.8 136.3 136.8 137.5 137.4 137.3 137 135.9 134.3 132.2 130.1 128.2 124.6 119.8 115 112.4 112.2 115.8 120.9 124.2 127.5 130.4 131.7 131 129 129.1 129.6 135.5 138.2 138.6 139.4 139.5 139.4 139.2 140 140.9 141.6 142.4 142.6 142.6 142.5 142.4 142.4 142.3
141.7 144.5 150.1 158.3 166.7 173.6 179.8 185.2 188.8 189.7 189.6 189.6 189.9 190.2 190 190.6 191.3 191.3 191.2 191.3 191.5 191.4 190.7 189.7 188.7 187.7 185.9 183.9 181 179.4 177.9 177.1 176.3 176.8 175.2 174.6 174.6 175.9 177.2 178.8 180.4 181.2 182.7 183.2 183.3 182.8 181 180.9 182.2 182.2 183.4 182.9 182.9 181.9 181 180.3 179.6 178.5 177.5 176.7 175.6 174.7 174.5 174.1 173.5 171.6 171 170.3 169.4 168.5 168.2 167.8 167.5 167.4 166.8 166.6 165.5 163.4 162.1 159.8 157.5 156.2 154.3 152.2 150.2 147.6 145 142.7 141.4 140.4 141.8 143.9 148.3 150.6 151.6 153.4 155.4 156.5 157.5 158.2 157.9 157.8 156.1 153.6 153.2 156.6 158.1 159.6 160.3 161.3 161.1 161 160.8 160.8 160.9 161 161.1 161 160.7 160.2 159.7 159.3 159 158.6 157.4 156.5 155.5 154.5 153.2 152.1 150.2 148.3 146 143.4 140.8 137.5 133.9 132.4 131 128.1 125.2 123.2 122.6 121.8 121 118.3 115.4 115.3 114.4 116.1 117.8 122.9 125.9 128.7 128.8 132.1 133.3 133.6 134.4 135.3 135.5 135.5 135.4 135 133.6 131.9 130.3 128.3 126.2 121.8 117.2 113 111.5 112.5 116.9 120.2 124.1 127.2 128.7 128.3 124.7 126.6 127.1 135.3 137.4 137.8 138.5 137.6 137.3 137.2 138 139.2 140 140.6 140.8 141.4 142 141.9 141.9 142.1
140.1 141.9 145.8 153.5 161.9 170.2 177 183.7 186.5 188 187.7 187.5 187.3 187.8 188.9 190.1 191 191.2 191.3 191.5 191.5 191.4 190.7 189.7 188.6 187.6 186.1 184 181.8 180.4 180.6 179.8 179.2 178.6 178.7 179.1 179.6 180.2 181.3 182.6 183.6 184.4 184.6 184.6 184.7 184.3 183.9 183.6 183.6 183.6 183.8 183.5 183.8 183.3 182.6 181.5 180.4 179.3 178.4 177.6 176.6 176.4 176.2 175.9 175.4 174.4 173.3 172.2 171.2 170.1 169.6 169.1 168.6 168 167.4 166.7 165.5 164.2 161.9 159.6 157.4 155.2 153.3 153 152.7 150.6 147.9 145.7 143.1 140.8 140.8 140.6 143.4 146.4 147.9 150 152 153.9 154.8 155.5 155.8 154.8 153.1 150.5 151.8 155.5 157.3 158.2 159 159.9 160.5 160.5 160.3 160.2 160.3 160.4 160.5 160.1 159.7 159.2 158.7 158.3 157.8 157.3 156.3 155.3 154.3 153.3 152.4 151.7 149.6 147.6 145.2 142 138.7 135.8 133.2 129.9 127.1 126.2 126.4 126.4 127.1 126.4 124.4 121.6 118.6 115.8 114.1 113.9 114.8 117.4 121.9 125.5 127.4 129 130.4 131.3 132.2 133 133.7 133.7 133.7 132.9 131.5 130.1 129.2 128.1 126.2 123.8 119.4 114.9 112.1 111.2 113 116.9 120.8 123.9 125.7 123.4 121.6 126.4 125.5 134.4 136 136.9 136.7 135.8 135.2 135.3 136.1 137.2 138.3 138.7 138.9 139.1 139.9 140.6 141.3 141.6
138.3 139.9 142.3 148.3 156.9 166.3 173.6 180 184.6 185.7 185.4 185.2 183.5 184.2 188.1 189.3 190.5 191.3 191.5 191.6 191.5 191.4 190.7 189.7 188.6 187.6 185.8 183.7 183.3 183.4 183.3 182.6 182 181.3 181.8 182.6 183.1 184.2 184.3 184.5 184.9 185.6 185.5 185.6 185.5 185.2 184.7 184.4 184.8 185.2 185.6 184.1 184.7 184.1 183.2 182.2 181.1 180.2 179.3 178.3 177.7 177.6 177.5 176.9 175.9 174.8 173.7 172.7 171.6 170.9 170.5 169.9 169.2 168.5 167.9 166.8 165.7 164.6 163.1 160.6 158.3 156 155.2 154.4 153.5 153.3 150.9 148.5 145.4 142.4 141 139.9 139.6 141.9 143.5 146.4 148.6 150.4 151.3 151.8 152.3 151.8 150.6 147.7 150.7 154.3 155.6 156.6 157.4 157.8 158.2 159.3 159.8 159.7 159.7 159.8 159.5 159.2 158.8 158.3 157.8 157.3 156.7 155.8 155.5 154.5 153.6 152.6 152.5 150.3 148.9 146.9 144.5 140.7 137.2 134.3 131.4 130.2 130.4 131.6 132.4 131.9 130.7 129 125.5 122.2 119.5 117.5 115.3 113.4 113.1 114 116.2 121.2 121.9 124 125.9 127.3 128.6 130 129.6 130.2 130.5 129.7 129 128.3 127.1 126.6 125.9 123.9 120.9 116.7 113 110.8 111 113.6 117.6 121.3 122.2 120.2 122.7 126.4 124.2 132.6 134.5 135.3 134.8 133.9 133.1 133.4 134.1 135.2 135.8 136.3 136.7 137.2 137.6 138.5 139.8 140.8
136.3 138 139.6 143.8 152.3 160.7 169.1 175.5 181 183.6 182.3 178.6 176.2 183.2 187.3 188.8 189.9 191.5 191.7 191.6 191.5 191.4 190.7 189.7 188.7 187.2 185.4 185 185.1 185.3 185.3 185 184.7 184 184.5 184.9 185.3 185.2 185.4 185.7 186.1 186.6 186.6 186.5 186.4 185.9 185.2 185.1 185.5 185.9 186.2 185.3 185.4 184.7 183.8 182.8 181.8 180.6 179.4 178.2 177.8 177.7 177.5 176.9 176.1 175.1 174 173 171.9 171.6 170.8 170 169.3 168.6 168 167 165.9 164.8 163.7 162.2 160.3 158.5 157.3 156.6 155.7 154.7 153.8 151 148.2 145.4 142.7 140.4 139.2 138.7 139.1 141.6 143.5 145.3 146.9 147.9 148.5 149.1 147.5 145.2 149.2 152.6 153.6 154.5 155.4 155.7 155.9 157 158.1 159.2 159.1 159 158.6 158.2 157.8 157.4 156.7 156.1 155.4 154.2 154.1 153.8 152.9 151.8 150.7 149.3 147.5 146.1 143.8 140.7 138.2 134.7 132.3 134.2 136.3 136.7 136.4 134.8 132.4 129.6 126 123.4 123.1 120.8 117.8 114.6 113.2 112.6 113.7 115.8 117.2 119.3 120.9 122.4 124.5 126 127.1 127.2 127.1 126.9 126.2 125.8 125.1 124.4 123.3 122.2 121.1 118.8 115.1 111.9 110.1 111.2 114.7 118.2 118.9 118.9 122.3 126.9 122.9 127.9 132.8 133 132.5 131.8 131.1 131.4 132.2 132.7 133.1 133.5 134 134 135.7 137.4 138.8 139.1
134.1 135.8 137.4 139.9 145.3 154.1 163.2 170.7 175.3 177.8 176.5 170.3 174.4 181.3 185.2 188.9 190.3 191.4 191.7 191.5 191.4 191.4 190.7 189.7 188.3 186.8 186.5 186.7 187 187.1 187.2 187 186.6 186.1 185.9 186.4 186.6 186.4 186.5 186.9 187.1 187.2 187.4 187.4 187 186.4 185.8 185.8 186.2 186.4 186.3 186.1 185.7 184.9 183.8 182.7 181.3 180.6 179.4 178.2 177.9 177.8 177.5 176.9 176.2 175.4 174.3 173.3 172.5 171.8 170.8 169.8 169.1 168.4 167.8 167.2 166.1 165.1 164 162.9 161.6 159.6 159 158.8 157.9 156.9 155.6 154.3 151.7 148.9 146.8 144.3 141.8 139.2 138.4 137.5 138 139.5 140.7 142.2 143.6 144.5 143.3 143.4 147.3 150.1 151.1 151.9 153.1 153.4 153 155 156.2 157.3 158.6 158.5 158.1 157.7 157.1 156.1 155.4 154.8 154.1 152.7 152.5 152.3 152.1 151.2 150.2 148.9 147.1 145.4 143 140.3 138 134.6 136.4 138.6 139.8 139.3 138.3 137.1 133.2 129.7 127 127.4 127.2 124.3 121.1 118.1 115 113.2 112.8 112.3 112.9 115.1 116.2 117.9 120.1 122 123.4 123.7 123.6 123.4 122.7 122.8 122.4 122 120.9 119.9 119 117.2 115.6 112.8 110.3 110.6 112.1 115.4 115.7 118.3 123 126.3 121.5 127.4 130.5 130.6 130.3 129.5 128.7 128.6 129.3 129.7 130.2 130.6 129.6 129.6 133.2 135.5 136.8 137.4
131.4 133.1 135.2 137.5 140.5 147.3 156.8 163.6 168.4 170.9 168.2 163.2 170.9 177.8 182.5 187.1 189.3 190.9 191.5 191.5 191.4 191.4 190.8 189.5 188.1 187.1 187.4 187.6 187.9 188 188 188.1 188.2 188.1 186.9 187.4 186.6 186.8 186.5 186.7 186.8 186.9 187.6 187.6 187.3 187 186.3 186.5 186.6 186.4 186.1 185.8 185.3 184.5 183.5 182.2 180.8 180.1 179.3 178.1 178 177.7 177.5 176.8 176.1 175.5 174.6 173.5 172.9 171.9 170.9 169.9 168.9 168.2 167.6 167.1 166.4 165.3 164.2 163.6 162.9 160.9 160.3 160.1 159.7 158.6 157.5 156.2 154.8 153 151.1 149.2 147.3 144.3 141 138.3 137.2 136.4 136.2 136.6 137.3 137.6 139.6 140.4 144.3 146.6 148.3 149.2 149.9 149.2 149 153.7 154.8 156.6 157.8 158.6 158.5 158.1 157.5 156.4 155.2 154 152.8 151.6 150.5 150.5 149.9 149.7 149.5 148.3 146.1 143.7 141 138.4 136.7 137.6 139.7 140 141.4 141 139.3 136.9 133.4 130.6 131.3 131.4 130.9 127.9 124.9 121.8 118.7 115.7 114 113 112.2 111.9 111.6 113 115.3 115.8 118.3 119.1 118.9 119.3 118.6 118.6 118.4 118.5 118.3 117.7 116.9 115.9 114.5 111.4 110.3 109.7 110.6 112.5 114.6 119.4 122.8 124.7 119.9 123 127.9 128.2 128 127.2 126 125.2 125.6 126.8 127.7 127.7 126.2 127.1 130.7 133.1 134.4 135.7
128.7 130.8 133.1 135.4 137.8 139.6 145.8 150.8 155.8 159.4 158.4 157.9 166.2 174.2 179.3 184 187.8 190 191.1 191.2 191.3 191.4 190.6 189.5 188.3 188 188.3 188.4 188.4 188.4 188.4 188.4 188.4 188.4 187.9 186.7 186.7 186.2 185.8 185.9 186.3 186.5 187.3 187.5 187.3 187.2 186.9 186.7 186.4 186.1 185.9 185.6 184.9 184 183.2 181.7 180.3 179.3 178.8 178.2 178 177.7 177.4 176.7 176.1 175.4 174.8 173.9 172.9 171.9 170.9 169.9 168.9 168 167.4 166.9 166.3 165.5 164.9 164.3 163.7 162.2 161.5 161.3 160.5 159.5 158.4 157.4 156.4 155.1 153.9 152.8 151.5 149.4 146.5 143.6 141.6 139.9 138.1 136.8 135.6 135 135.4 134.6 139.5 142.7 144 145.2 146.1 144.5 147.3 151.5 154.1 156.1 156.9 157.8 158.6 158.4 157.9 156.8 155.5 154 153.3 152.5 151.1 148.9 147.7 147.5 147.2 145.9 144.3 141.8 139.5 139.3 139.6 140.3 142.3 142.3 142.3 141.5 139.6 136.3 133.8 134.4 135.8 134.8 134.1 132.1 128.6 125.2 121.1 119.1 118.2 116.4 113.1 113.7 113.1 111.2 111.4 111.4 111.8 111.8 113.4 112.9 113.6 113.8 114.5 114.9 114.7 114.5 112.3 113.4 111.9 109.9 109.3 108.8 109.9 112 114.1 117.7 120.7 123.2 119.1 119.4 125.4 125.6 125.4 124.8 123.5 122.4 123 123.7 124.6 123.6 121.9 124.6 127.6 130.6 131.9 133.2
127.3 128.2 130.2 132.5 134.1 135.2 137.6 139.7 143.6 148.1 150.1 153.7 161.2 168.8 175.2 180.1 185.2 188.2 190.1 190.8 190.9 190.4 190.3 189.1 188.1 188.4 188.6 188.7 188.7 188.7 188.3 188.4 188.4 188.2 188.1 186.9 186.8 185.9 185.2 184.9 185.3 186.7 187 187.3 187.2 186.8 186.3 186 185.7 185.4 185.2 185.2 184.3 183.4 183.1 181.6 180.1 178.5 177.9 177.5 178 177.7 177.3 176.7 176 175.3 174.6 173.5 172.4 171.4 170.4 169.4 168.4 167.6 166.6 166 165.4 165.2 165.3 165 164.4 163.5 162.7 162.2 161.4 160.4 159.4 158.4 157.4 156 154.9 154.5 153.6 152.2 151.3 148.9 147.7 145.6 143.1 140.8 139.6 137.5 134.5 134.2 135.4 138.5 139.7 140.6 141.2 141.2 146 150.2 153 154.9 155.8 156.6 157.4 157.9 157.9 156.8 155.2 153.7 153.7 152.9 152.2 151.4 149 147.1 145.4 144.2 143.6 142.5 142.7 143.4 143.6 143.7 144.6 144.3 143.2 141.8 139.3 137.3 137.2 137.5 138.3 138.3 136.4 134.3 131.9 127.7 123.8 123.3 123.5 121.8 118.6 116.6 115 113.4 112 111.3 111.7 110.9 111.1 110.5 110.7 111.2 110.8 111.2 111.5 112 111.1 111.2 110.1 108.9 108.5 108.4 109.9 111.5 113.6 116.6 119 121 118.2 117.9 123.1 123 122.8 122.1 121.4 120.3 120.2 120.9 121 120.1 119.5 122.5 125.6 127.4 129.2 130.6
127.7 126.9 128.1 129.3 130.9 132.4 134.4 136.9 139 142 145 149.2 154.5 162.1 170.1 176.6 182.9 186 188.8 190.1 190.6 189 189.2 188.6 188.3 188.6 188.8 189 189 188 188.2 187.9 188.2 188.1 187.9 187.2 187.1 186.5 185.5 184.5 185 186.3 186.9 187.1 186.5 185.9 185.3 185 184.8 184.9 184.9 184.9 184.7 183.3 183 181 179 177.8 176.8 176.5 177.2 177.7 177.2 176.5 175.8 175 174.2 173.2 171.7 170.6 169.6 168.6 167.7 167.1 165.8 164.9 164.3 164.4 164.5 164.7 164.8 164.6 163.8 162.2 161.2 160.3 159.4 158.3 157.3 156.4 155.5 154.5 154.2 153.5 152.4 152.4 151.9 150.8 148.8 146.4 144.8 142.6 139 136.7 134 134.3 135.1 135.9 137.5 139.6 144 147.5 150.2 152.9 154.5 155.3 156 156.5 156.6 156.1 154.9 153.8 154.1 153.3 152.6 151.9 150.8 150 148.9 147.8 146.7 146.1 146.8 146.6 146.7 146.6 145.6 144.4 143.4 141.5 140.9 141.1 141 140.7 141.3 140.7 138.4 135.9 132.9 127.5 126.3 128.6 128.4 126.8 125.1 122 119.9 118.4 116.3 114.3 113 112.1 111.6 110.6 110.1 110.4 109.9 109.5 110.6 110.1 109.8 109.7 109 108.6 108.3 109.1 110.6 111.6 112.2 114.3 116.6 118.1 118.3 116.5 120.6 120.2 120 119.4 118.6 117.8 117.6 117.9 117.7 116.9 117.6 120.8 122.7 124 126.1 127.2
128 126.8 127 127.4 128.8 130.2 132.7 135 136.9 138.9 141.9 144.4 148 155.6 164.6 172.9 179.6 184.4 187.7 189.2 189.1 187.6 188.2 188.3 188.5 188.7 188.9 189.1 188 187.3 187 186.7 187.2 187.6 187.8 187.4 187.2 186.8 185.7 184.6 184.1 185.6 186.1 186.3 185.6 185 184.5 184.4 184.4 184.4 184.5 184.5 183.7 182.8 182.2 179.8 178.3 177.1 175.9 175.4 176.1 176.5 176.5 175.8 175.1 174.4 173.7 172.8 171.4 170 168.9 167.9 167.3 166.6 165.5 164 163.5 163.6 163.7 163.8 164 163.9 162.3 161.4 160.4 159.4 158.6 158 155.6 153.8 152.7 152.2 151.7 152.6 152.4 154.1 154.1 153.4 152.3 150.9 149.4 147.4 143.6 140.8 137.6 134.5 133 132.9 133.3 136.4 140.4 143.9 146.7 149.6 152.1 153.6 154.3 154.8 155.1 154.6 154 154 153.5 153.3 152.7 152 151.5 150.7 149.9 149.5 149.1 149.2 149 148.6 148 147.4 146.2 144.9 143.6 143.6 143.6 143.6 144.2 144.2 142.9 141.7 140.3 137.4 132.6 130.1 131.6 132.8 131.9 130.8 129.4 127.6 124.8 123.1 120.2 118.8 117.5 118.7 117.4 115.2 113.4 113.2 111.7 110.5 110.6 110.2 109.5 108.4 108.7 108.7 108.3 108.4 109.1 109.7 110.3 111.6 113.8 115 116.2 116.2 116.1 116.9 116.7 116.2 115.6 115.1 114.7 114.6 114.4 113.7 116.3 118.1 119.3 120.6 122.3 123.7
128.9 127.2 126.8 126.8 127.1 128.5 130.9 132.8 134.7 136.6 138.9 141.1 144.5 151.1 159 168.8 176.5 182.2 186 187.1 186.8 186.7 188 188.8 188.7 188.9 189.1 189.2 187.8 186.8 186 185.6 186.1 186.5 187 187.1 186.7 186.3 185.7 184.3 183.2 184.6 185.3 185.4 184.8 184.3 184 183.9 183.9 183.9 183.9 183.9 183.3 182.4 181.3 178.8 177.6 176.4 175.2 174.3 174.4 175 175.2 174.5 173.8 173.1 172.4 171.5 170.4 169.3 168.2 167.4 166.8 166.1 165.1 163.6 162.2 162.4 162.9 163 162.9 161.1 160.1 159.1 158.2 156.3 155.4 157.2 153.3 152.1 151.6 150.7 149.5 149.3 151.4 153.5 155 155.3 154.9 153.9 152.4 150.9 148.3 144.9 141.6 138.5 135.7 133.1 131.6 131.9 134.3 138.7 142.9 146.1 149 151.1 151.8 152.6 153.2 152.7 152.6 152.6 150.8 151.8 151.6 151 150.9 150.8 150 149.4 149 149.6 149.9 149.5 148.8 148.2 146.7 145.5 145.3 145.1 145.1 145.1 145.9 145.7 143.9 142.6 141.2 137.4 134 134.3 135.7 135.8 135.5 134.5 133.2 131.5 129.8 126.9 124.8 124.2 123.7 122.4 120.5 119.9 117.4 116.6 115.4 114.5 112.3 111.4 110.2 109.9 108.9 108.6 108.3 108 107.7 107.7 108.4 109.7 111.1 112.8 114.6 116.2 114.8 114.2 113.7 113.4 113 112.7 112 111.5 111.2 112.2 114.8 116.6 117.4 118.1 119 120.5
130 128.2 126.7 126.5 126.5 126.8 128.8 130.7 132.6 134.6 136.6 139.4 142.2 147.7 155.4 166.2 173.4 178.7 182.2 183.4 184.6 185.8 188 189.2 189.2 189.2 189.3 188.9 187.6 186.5 184.3 184.2 184.7 185.2 185.6 186.1 185.7 185.4 184.7 183.2 181.4 183.4 184.5 184.4 184.1 183.9 183.6 183.4 183.4 183.4 183.4 183.4 183 182.6 180.7 179.4 178.2 177.1 175.9 174.6 173.7 173.9 173.9 173.2 172.5 171.8 171.1 170.2 169.2 168.2 167.2 166.2 165.4 164.8 164.6 163.2 161.7 160.5 160.3 160.8 160 159 157.9 156.9 156.3 154.2 154.7 156.5 155.1 155.1 154.6 152.8 151 149 149.3 151.1 154.9 156.3 155.8 155.4 154.5 153.3 152 148.8 145.6 142.4 139.6 137.5 134.3 131.4 131.1 133 137.5 141.4 145.1 148.6 149.5 150.7 151.3 151.3 151.2 150.2 148.3 149 150 150 149.9 150.2 150 149.6 149.8 149.7 149.6 149.9 149.5 149 147.3 147.1 147 146.8 146.6 146.7 146.7 146.6 145.2 143.2 140.5 137.9 137.9 138.5 139.2 138.8 138.5 138.2 137 135.3 133.7 130.7 130 129.2 128.4 127.3 126.1 124.4 122.4 121.2 119.9 118.7 116.2 114.5 113.9 113 112.1 111.4 110.3 109 107.7 107.5 106.7 108.2 109.3 110.4 112.1 115.8 115 113.7 112 111.5 110.9 110.5 109.8 109 108.9 110.2 112.8 114.4 115.5 115.7 116.6 117
131.5 129.1 127.4 126.3 126.1 125.8 127.1 129.2 131.2 133.2 135.5 138.5 141.7 146.1 151.6 161.6 168.6 175.5 178.6 180.4 181.8 184.7 188.1 188.7 189.2 189.4 189.5 188.5 187.1 185.8 182.1 182.8 183.4 183.9 184.4 185.2 184.8 184.2 183.6 181.7 179.1 182.2 183.1 183.7 183 183.2 183.2 182.9 182.9 182.9 182.8 182.7 182.8 182.6 181.5 180.3 179.1 178 176.8 175.6 174.7 174.6 173.7 173 172.3 171.6 170.9 169.9 168.4 167.2 166.2 165.2 164.2 163.4 163.2 162.5 161.3 160 158.8 158.2 158.2 158 157.8 158.1 157.9 157.8 158 157.9 157.9 157.2 156.4 154.9 153 150.6 147.9 149.2 154 156.3 156.6 156.2 155.8 155 153.6 152.2 149.6 146 143.5 141.6 138.9 134.7 131.5 130 133 138 141.8 145.5 147.5 148.6 149.2 149.6 149.6 147.7 145.8 146.3 147.3 148.2 148.7 148.7 148.8 149.2 149.3 149.4 149.3 149.4 149.7 148.8 148.2 148.3 148.2 148 147.8 147.5 147.3 147.2 146.3 145.1 142.6 141.8 141.8 142.4 142.2 141.9 141.5 141 140.1 138.9 137.6 135.6 134.1 134.1 133.1 132 130.7 129.2 125.9 125.6 125.1 123.2 121.6 119.5 118.1 117.2 116.4 114.8 113.3 111 108.6 108 107.8 107.8 107.5 108.1 109.4 115.3 114.4 112.8 109.9 109.5 108.5 108.2 108.3 107 106.9 108.1 110.5 111.6 112.4 112.9 113.1 113.7
133.4 130.6 128.2 126.9 126.2 125.5 126.1 127.5 129.6 131.8 134.4 137.4 139.6 142.1 147.3 156.1 165 170.6 174.3 177 179 181 183.7 186.3 187.7 188.3 189.5 187.9 186.4 184.6 180.3 179.9 181.9 182.5 183.3 184.2 183.7 183.1 182.6 180.3 177.5 179.9 181.3 181.9 181.6 181.3 181.5 181.8 182.1 182 181.9 182 182.1 182 181 179.8 178.9 178.2 178.5 177 176.3 175.2 174.1 173.3 172.6 172 171.2 170 168.9 167.5 166 164.6 163.6 162.7 161.6 161.1 160.4 160.4 160.3 159.7 160 160 160.1 160 160.3 160.4 160.2 159.8 158.9 158.1 157.3 156 154.1 150.9 147.7 147.6 152.6 156.2 157.4 157 156.6 156.1 154.8 153.3 151.9 149 146.5 145.3 142.6 138.6 134 130.7 130 133.8 138.8 142.7 144.5 145.9 146.4 146.9 146.8 144.9 143.4 142.7 144.3 145.8 146.3 146.8 146.8 147.3 148.2 148.9 149 149 149.4 149 148.3 149 149.1 149 148.6 148.2 148 147.8 147.8 146.7 145.6 144.6 143.6 144.1 144.3 144.7 144.2 143.1 142.2 141.5 140.1 139.4 138.6 135.8 136.6 135.9 135.3 134.2 131.4 130.9 130.3 127.5 127 125.1 123.2 121.5 120.6 118.3 116.3 113.7 111.5 109.8 108.9 107.7 107.7 108 108.2 115.7 114.4 108.3 111 106.8 106.2 105.7 105.3 105.5 104.8 105 106.7 108 108.9 110.1 110.3 110.6
135 132.3 129.6 127.6 126.6 125.6 125.5 126.6 128.2 130.7 133.2 135.1 137 139.2 143.4 153 161.3 165.9 169.8 172.7 174.6 176.5 179.2 182.4 185.4 186.2 187.5 187.1 185.7 183.4 178.5 176.8 178.8 180.7 181.9 182.8 182.9 182.4 181.5 179.6 175.8 176.6 179 179.8 180 179.7 179.5 179.6 180.4 181.3 181.5 181.8 181.9 180.9 180.9 180.5 180.1 179.4 178.7 177.9 176.8 175.8 174.7 173.7 173 172.3 171.3 170.2 169.1 168 166.5 165 163.9 163 162.2 162 161.9 161.9 162.3 162.7 162.6 162.3 162.3 162.2 162.2 161.8 161.3 160.6 159.7 158.9 157.6 155.8 154.1 151.1 148.1 146.6 150.2 154.2 156 156.8 157.2 156.3 155.4 154.1 152.5 150.6 147.8 146.9 144.5 140.3 137.2 132.8 130.3 130.8 135.2 139 140.9 142.4 143.6 144.1 143.6 142.1 140.4 140.2 142.2 143.2 143.7 144.2 144.6 144.7 145.6 146.5 147.4 148.3 148.1 148.6 148.3 149 149.8 149.7 149.3 148.9 148.7 148.7 148.6 148.1 147.1 146.3 145.4 145.6 145.7 146 145.7 144.9 144.3 143.6 142.7 141.8 141.2 140.5 139.2 138.9 138.4 137.4 136.5 136.2 134.8 133.2 130 128.9 127.4 125.9 123.9 121.6 119.2 117.1 114.7 112.2 111 109.7 107.8 107.9 108 115.8 115.5 108.8 110.6 107.1 107.2 105.8 104.9 104.6 104.3 103.9 103.5 104.5 105.8 107.4 108 108.6
135 132.7 130.5 128.4 126.8 125.7 125.4 125.8 127 129.5 130.9 132.6 134.4 136.2 141.3 150.2 157.4 160.7 164.5 167.4 169.7 171.9 175.7 178.9 182.5 184 185.3 185.9 184.7 182.8 179.8 173.1 174.9 178.3 179.8 180.9 181.6 181.7 179.5 176.7 172.3 173.7 176.4 177.2 176.7 176.8 176.4 176.2 178.9 181.1 181.4 181.7 181.1 181.1 181 180.8 180.3 179.6 178.8 177.6 177 176.3 175.2 174.2 173.4 172.6 171.5 170.4 169.6 168.5 167.1 165.6 165 164.5 163.9 163.7 163.6 163.6 164 164 163.8 163.6 163.4 163.4 163.1 162.7 162.2 161.2 160.1 159.1 157.4 155.2 152.3 150.1 147.9 144.8 146.6 151 154.9 156.2 156.1 155.4 154.6 153.8 153 150.2 147.2 147.1 144.9 141.9 138.8 134.2 130.1 128.8 131.2 134.7 137.3 138.9 139.9 140.2 140.1 138.6 137 137.6 139 139.2 139.4 139.4 139.9 142 142.9 143.7 144.6 145.4 146.5 147.3 148.3 148.9 149.6 149.8 149.8 149.6 149.5 149.5 149.4 149.4 148.7 147.9 147.1 147.1 147.1 147.3 146.9 146 145.7 145.8 145.1 144.3 142.7 142.7 141.8 141.1 140.2 139.1 137.9 137.8 136.3 134.9 133.1 130.2 128.7 127.3 125.3 122.8 120.4 118.4 116.1 114 112.9 110.8 109.1 108.5 107.3 110.2 115.8 110.2 110.6 106.8 105.7 105.8 105.3 104.7 104.1 104 103.4 103.7 103.3 104.5 104.9 106.1
134 133.3 131.5 129.6 127.5 125.9 125.4 124.8 125.8 127.2 128.3 130.1 131.9 133.7 137 144.1 149 154.5 158.6 160.4 162.3 165.2 171 175.7 179.6 182.4 183.8 184 183.7 181.8 179.4 173.5 168.5 175.2 177.4 178.9 180.1 180.6 179.5 176.9 173.6 170.5 171.9 173.6 173.4 171.8 167.5 174.2 178.5 180.7 181.3 181.2 181.1 180.9 180.7 180.3 179.4 179.3 178.3 177.4 176.7 176 175.4 174.7 173.7 172.8 172 171.3 170.5 169 167.6 166.1 165.8 165.8 165.7 165.6 165.4 165.3 165.3 165.1 165 164.8 164.6 164.3 163.8 163.1 162.2 161.2 160.2 158.8 156.3 153.9 152 150.3 147.4 143.8 144.5 147.6 152 154.1 154.5 154.4 153.8 153.1 151.9 149.5 147.6 146.9 144.1 141.7 139 135.1 131 128.4 128.7 130.4 132.6 133.8 134.9 136.1 136.4 135.2 133.5 134 134.9 134.8 134.3 134 135.1 137 139.1 140.5 141.7 142.6 143.4 144.6 145.5 146.7 148 149.3 149.2 149.4 149.3 149.2 149.1 149 149.4 149.3 148.8 148.5 148.6 148.3 147.8 147.1 146.8 146.6 146.1 145.3 144.2 144 143.1 141.7 140.3 139.8 139.2 138.4 136.9 135.3 133.7 131.5 129.9 127.6 125.3 123.4 121.1 118.4 116.6 114.7 112.1 111.2 110.3 110.1 107.2 115 116 110.1 110.4 110.2 110.1 109.3 108.5 107.3 106 105.4 104.4 104 104.8 103.9 103.1 103.3
133.9 132.9 131.6 129.7 127.9 126.2 125.6 125 124.2 124.7 126.1 128 129.7 131.4 133.9 136.6 140.7 145.7 150.4 152.9 155 160.2 166.6 173.1 177.1 179.7 182.2 182.5 182.2 180.7 177.9 173 164.7 170 174.1 176.6 178.8 179.5 178.6 177.4 175.5 171 166.6 167.4 165.4 162.6 166.4 174.7 178.6 180.4 181 180.9 180.7 180.6 180.4 179.9 178.9 178.3 177.8 177.1 176.4 175.8 175.1 174.4 173.7 173.4 172.9 172.1 171 169.6 168.1 166.8 166.7 166.8 166.7 166.7 166.6 166.4 166.2 166.1 165.9 165.7 165.1 164.5 163.9 163.2 162.1 161 160.2 158.9 156.8 154.8 152.7 151 148.3 145.1 142.6 145.2 148.8 150.9 151.9 152.1 151.9 151.5 150.5 148.7 147.3 145.1 142.9 140.6 138.2 135.3 131.4 128.4 127.6 128.1 128.1 128.6 130.1 131.1 132 131 129.8 130 130.3 129.5 128.9 128.6 129.8 131.8 133.9 136 137.4 138.9 140.3 141.4 142.6 143.7 145.2 146.7 148.1 148.7 148.7 148.6 148.4 148.5 148.9 149.2 149.1 148.9 148.7 148.4 148 147.6 147.3 147.1 146.5 145.7 145.2 144 143.4 142.1 140.5 140 138.8 137.5 136.1 134.6 133.5 131.6 129 126.6 124.3 122.1 119.3 117.6 116 113.5 110.9 109.6 108.7 107.7 113.8 116.3 116.6 111.3 113.7 114.6 113.6 113.4 110.8 109.3 108.7 108.4 107.7 106.8 107 105.1 103.2 103.1
133.7 132.5 131.2 129.8 128 126.7 126.1 125.2 124.4 124 124.7 126.7 128.4 129.8 131.4 134.2 136.7 138.4 142.5 145.7 147.6 155.9 162.8 169.2 174.4 177.5 180.2 181.4 180.5 179.1 176.3 171.8 164 163.3 171.2 174 177.4 178.2 177.4 176.4 174.9 172.2 167.5 163.5 159.8 157.4 166.5 175.1 178.5 180.3 180.5 180.5 180.4 180.3 180.1 179.4 178.7 178.1 177.3 176.7 176.1 175.4 174.7 174.1 173.4 173.1 172.8 172.5 171.5 170.1 168.6 167.6 167.9 167.8 167.7 167.6 167.5 167.2 167 166.8 166.4 165.8 165.2 164.6 164 163.2 162.1 161.2 160.3 159.4 157.8 155.7 153.6 151.6 148.8 146.9 144.1 141.9 143.9 146 147.9 149 149.3 148.8 148.3 147.7 145.5 143.3 141.1 139.1 136.7 133.9 131 128.4 128.6 127.7 127.4 127.6 127.1 126.8 127.1 126.2 126.1 126.2 125.5 125 124.5 124.3 124.8 126.4 128.5 130.5 132.6 134 135.6 137 138.3 140.4 142.3 143.7 145.2 147.3 148.1 147.9 147.5 147.9 148.4 148.8 148.5 148.3 148 147.8 147.6 148 147.7 147.2 146.6 145.5 144.6 143.5 142.9 141.2 140.7 139.8 138.7 137 134.7 133.1 132 130.7 127.9 125.3 123.2 119.8 117.5 115.4 113.8 111.8 109.7 108 107.8 107.7 111.9 116.7 116.9 116.3 118.4 118.4 116.7 115 112.6 111.5 111.8 111.9 111.4 110.4 109.3 106.9 104.7 103.9
133.4 132.1 130.8 129.5 128.1 127.1 126.2 125.3 124.4 123.7 124 125.4 126.8 128.2 129.6 131.8 134.5 136.3 137.8 140.6 145.7 152.4 159 165.2 171.3 176.3 178.8 179.6 178.7 176.5 174.2 170.3 162.6 158.8 167.5 172.5 176 176.6 176.2 174.7 173 171.1 167 162.2 156.4 159 168.6 175.1 178.6 179.9 179.9 180 180 180 179.8 179.1 178.4 177.4 176.4 175.7 175.1 174.4 173.8 173.2 172.5 172.5 172.4 171.9 170.9 169.9 169 168.8 169 168.9 168.7 168.6 168.3 168 167.7 167.1 166.5 165.9 165.3 164.7 164.1 163.2 162.1 161.3 160.3 159.4 158.5 156.6 154.5 152.4 149.3 148.5 146.9 143.8 141.5 141.4 141.8 143.9 146 146.2 145.7 145.1 143.7 141.6 139 136.1 134.1 131.5 129.9 132.5 134.5 133.4 131.8 129.7 128 126.8 126.1 125.6 125.2 124.9 125.4 125.4 125.2 124.1 123.6 123.1 123.4 125.5 128.1 128.9 130.5 131.9 133.8 136.5 139 140.7 142.4 144.7 146.3 147 147 147.4 147.6 147.8 147.2 146.9 146.7 146.5 146.3 146 146 146.3 145.7 143.7 143 142.8 141.4 140 140.1 138.3 136.7 135.3 133.9 132.6 130.1 128.9 126.5 124 120.3 117.8 115.6 113.4 111.5 109.7 108 107.9 107.9 108.3 110.9 117.7 118 120.8 121 119.2 118.9 116.4 114.9 114.6 114.3 114.3 114.2 113.5 111.9 110 106.6 105.5
134.7 133.7 132.4 131 129.9 127.7 126.2 125.1 124.1 123.6 123.9 124.1 125.3 126.7 128 129.4 132.1 134 134.9 137 140.7 147.6 155.9 162.6 169.1 175.4 177.2 177.2 175.8 174 171.3 166.3 159.1 156 164 171.1 174 174.7 173.8 172 170.2 167.4 163.1 157.1 152.9 161.9 169.1 175 178.1 180 179.8 179.7 179.6 179.5 179.5 178.6 177.6 176.6 175.6 174.6 174 173.4 172.8 172.2 171.3 171.2 171.1 170.6 169.9 169.9 169.7 169.7 169.5 169.4 169.3 169.2 168.7 168.2 167.5 166.9 166.3 165.6 164.7 164 163.4 162.9 162.2 161.3 160.4 159.5 158.5 157.5 155.4 153.6 151.9 150.9 149.5 147.9 144.4 141.2 139.1 139 140.9 143 142.5 142.4 140.9 139 135.4 132.6 131.6 132 132.7 136.3 139.7 139.6 137.8 135.9 134 131.9 130.7 130.1 130.5 130.4 130.9 130.2 127.1 125.8 124.9 123.7 123.1 122.6 123.8 123.7 124.3 125.5 127.4 130.7 134.2 137.5 139.5 141.4 143.1 144.7 145.9 146.3 146.6 146.7 145.8 145.6 145.4 145.1 144 144.3 144.5 144.5 143.4 142.4 141.7 142.1 140.7 139.3 138.5 136.7 134.9 133.6 132.2 130.4 128.7 127 124.3 120.9 118.3 115.8 113.4 111.2 109.6 108.1 108 107.9 109 112.2 115.6 119.4 119.2 122.7 123.9 120 120.4 120.3 118.9 117.5 116.9 116.3 116.3 115.5 113.9 111.1 110 108.2
136.1 135.1 134.1 132.3 131.1 129.4 127.5 125.5 124.4 123.5 123.3 123.5 124.6 125.8 127 128.1 130.3 131.3 132.3 133.8 136.8 143.8 152.3 160 166.7 172.7 174.9 175 173 170.8 167.7 162.2 154.6 154 161.3 168.8 172.2 172 171.1 169.2 166 161.1 156.3 151.7 154.4 164 171.4 175.2 178.2 180.1 180 179.8 179.7 179.6 179.1 178.4 177.4 176.4 175.5 174.4 173 172.5 171.9 171 170.1 169.9 169.6 169.1 169.1 169.3 169.5 169.6 169.6 169.6 169.6 169.2 168.7 168.2 167.3 166.6 166 164.8 164.1 163.3 162.7 162.2 161.9 161.1 160.3 159.5 158.6 157.7 156.4 154.8 153.7 152.5 151.2 149.6 147.8 144.8 141.6 138.9 136.9 138.2 139.5 139.5 137.6 135.7 133.4 132.4 133.1 136.9 138.9 141 144.2 144.4 142.7 141.1 140 138.8 137.5 136.8 136.1 136.1 134.4 132.5 128.9 128.1 128.2 127.3 126.7 126.1 125.4 123.4 122.5 121 122 124.8 128.7 132.7 136.1 138.1 139.7 141.4 143 144.4 144.7 144.4 144.7 144.2 143.5 142.5 141.5 142.2 142.8 142.9 141.9 141 140.4 140.5 139.4 138.3 136.9 135 133.2 131.7 129.9 128.1 126.3 124.6 121.8 118.8 116.4 113.9 111.3 109.1 108.2 108.3 108.3 109.6 112.8 117.8 122.1 124.6 119.9 121.3 123 122.2 122.4 122.5 121.6 120.4 119.8 119.1 118.5 117.2 114.8 113.3 112 110.3
137.2 135.4 133.6 132 131.7 130.1 128.3 126.6 125.2 124.3 123.4 123 123.9 125.1 125.9 126.6 125.9 128.1 129.7 130.8 134.3 138.8 148.5 156.5 163.9 169.7 172.6 173 169.9 166.2 161.9 156.6 150.1 152.1 161.3 165.2 168.6 168.7 166.2 163.7 158.8 153 149.1 148.9 157.6 166.1 173.3 176.1 178.9 180.2 180 179.9 179.8 179.4 178.8 178.2 177.2 176.3 175.4 174.6 172.7 171.5 170.8 169.8 169 168.7 168.4 168.4 168.6 168.8 169 169.1 169.1 169.1 169.1 168.8 168.5 168 167 166.3 165.1 164.3 163.5 162.7 162 161.5 161.3 160.6 159.7 158.8 157.9 157 156.5 156 155.3 154.1 152.5 150.8 149.1 146.7 144.3 141.4 137.1 135.5 135 134.9 134.9 132.9 133.6 136.3 139 142.1 145.7 147.5 148.1 147.8 146.9 145.8 144.7 143.6 141.6 139.5 138.9 136.7 135 132 131.7 131.7 132.1 131.7 130.8 130.6 129.9 127.1 124.2 122.3 120.9 121.3 124 128.2 132.3 134.6 136.3 137.9 139.2 140.1 142.4 142 142.4 142 140.9 139.9 139.5 140.2 140.8 140.7 140.1 139.7 139.5 138.3 137.2 136.1 134.8 133.1 131.3 129.4 127.6 125.8 124 122.2 119.3 116.7 114.4 112 109.4 108 108 108.6 110.4 112.9 117.2 122.4 132.6 127.5 121.2 121.1 126.3 124.6 124.6 124.6 124.2 123.3 122.7 121.4 120 118.4 116.7 115 113.6 112.2
139.5 137.3 135.4 133.8 132.8 131.1 129.4 127.7 126.2 125.2 124.3 123.3 122.9 123.7 124.4 125 124.5 125.7 126.6 127.8 129.8 134.1 143.9 151.2 158.8 164.5 168.2 169.4 165.7 162.2 156.4 150.9 146 150.5 158.9 163.5 163.7 163.4 161.2 156.9 152 146.9 145.8 151.9 160 168.4 174.5 177.7 179.6 180 180.1 179.9 179.5 179 178.4 177.8 177.1 176.1 175.3 174.5 173 171.2 169.7 168.8 168.3 168.1 168.1 168 168.2 168.4 168.5 168.6 168.6 168.3 168.1 167.8 167.6 167.2 166.5 165.5 164.3 163.7 162.9 162.1 161.2 160.8 159.6 158.9 158 157.1 156.7 156.2 156.3 155.8 154.9 154.2 152.7 150.9 148.6 146.4 143.8 140.9 137.9 135.4 135.1 135.9 134.8 137.1 140.2 142.9 145.3 147.8 150.5 151.1 151 149.7 148.8 147.9 146.4 144.5 142.9 140.6 138 135.7 133.9 135 135.3 135.7 136.1 135.8 135.1 134.7 134 132 129.2 126.2 123.5 120.9 120.8 122.8 127 130.5 132.5 133.9 135.4 137.1 138.2 139.3 139.3 139.4 138.4 137.3 137.4 138.1 138.5 139 138.7 138.2 137.4 136.2 135.1 133.9 132.6 131 129.4 127.5 125.6 123.6 121.7 119.9 116.9 114.5 112.3 110 108.7 107.7 108 110.5 113.8 117.6 124.8 132.6 131.5 129.2 122.5 122.5 129.1 127.8 127.5 127.2 126.7 125.2 123.7 122.3 120.8 119.2 117.6 116 114.5 113
141.8 139.6 137.4 136.1 136 134.6 132.9 130.3 128.7 126.9 125.1 124.1 123 122.6 122.2 122.3 123.2 123.8 123.1 124.9 126.6 130.3 136.6 143 149.5 156.4 161.5 164.2 163.6 159.9 152.5 146.4 142.8 147.7 153.9 156.1 156.8 155.1 153.8 150.5 146.5 142.9 146.9 154.8 163.2 171.3 175.5 178.1 179.3 179.8 180.1 179.7 179.3 178.7 178.1 177.4 176.8 176 175.1 174.2 173 171.6 170.2 167.9 167.8 167.8 167.7 167.7 167.7 167.8 167.1 166.2 166.1 166.3 166.3 166 165.6 165 164.7 164.5 163.8 163.1 162.4 161.5 160.6 159.5 157.7 157.2 156.8 156.7 156.2 155.7 156.1 155.1 153.7 152.8 151.3 149.4 146.9 144.2 141.5 138.4 136 136 137.7 139 141 143.4 146.8 149 150.9 152.7 153.1 153.2 152.5 151.6 150.3 148.7 146.8 144.1 141.8 139.4 136.8 136.7 138.4 140.1 140 139.7 140.1 139.9 139.3 138.4 136.6 134.9 132.4 128.9 125.4 122.9 120.3 120.8 121.7 124.8 127 128 129.4 132.1 133.4 135.3 135.8 136.2 136 134.8 134.2 135 136.4 135.9 135.8 136.2 135 133.9 132.9 131.8 130.3 128.6 126.9 125.1 123.2 121.3 119.4 117.5 115.1 112.6 110.3 109.2 108.8 109.1 110.8 113.8 118.1 123.5 129.1 132.3 132.1 130 126.1 124.2 131.2 130.4 129.8 129.1 128.3 126.9 125.2 123.5 121.8 120.1 118.6 117 115.5 113.9
144.4 142 139.9 139 139 138.1 136 133.3 131.3 129.5 127.4 125.3 124.1 123 122.7 122.6 122.2 121.8 122.3 122.8 123 125.9 129.4 134.2 139.8 147 153.7 158 158.6 155.9 149.8 144.1 140.8 141.7 146.4 148.1 147.5 146.2 145 143.8 140.8 142.6 148 158.3 166.1 174.2 175.6 176.9 178.4 179.6 179.7 179.4 178.9 178.3 177.7 176.9 176.1 175.6 174.9 174 172.6 171.2 169.8 168 166.5 166.5 166.6 166.6 166.4 165.3 164.3 163.4 163.1 163.2 163 163.2 162.2 161.9 161.6 161.3 161.7 161.9 161.1 160.3 159 157.5 155.7 155.1 156.2 156.2 155 154.9 153.9 152.6 151.4 150.1 148.5 146.5 143.7 140.3 138.1 136.7 137.5 139.9 142.2 144.5 146.7 149.4 152.3 153.2 153.9 154.6 154.4 154.3 153.5 152 150.4 147.8 145.2 142 139.6 140.3 140.8 141 142.8 144 144.9 144.6 144.2 144 143.1 141 138.8 136.4 133.2 130.4 127.4 125 123.7 120.5 119.6 120.5 121.5 122.2 124.1 126 127 129.3 131.4 132.2 132.5 129.4 131.5 133 133.8 133.4 133.1 133.7 132.6 131.5 130.1 129.2 127.5 125.7 124 122.5 120.5 118.6 116.7 114.8 112.3 110.8 109.5 109.3 110.1 111.9 115.2 118.4 123.2 127.6 131.9 133.2 132.7 130.7 130 125.6 133.8 132.2 131.5 130.8 129.9 128.5 127.1 125.3 123.6 121.5 119.6 118 116.5 114.9
147.7 145.7 144.4 143 141.9 141.6 139.2 136.5 134.1 131.7 129.6 127.6 126.1 125.1 124.7 124.3 123.1 122.4 122.1 122.6 122 122.5 125.8 128.9 132.8 138.3 145 150 152.3 151.5 148.1 142.7 138.3 137.7 138.7 139.5 140.1 139 138.2 137.9 139.1 144.6 152.3 163.2 170.4 176.1 177.4 177.3 178.4 179 179 178.9 178.4 177.6 176.8 176 175.4 175 174.3 173.6 172.2 170.6 169.2 167.8 166 165 165.1 165.2 164 162.9 161.8 160.7 160.3 160.1 159.2 158.7 158.4 158.7 158.3 158 158.3 158.2 157.5 157.4 156.8 155.5 153.8 152.9 153.8 153.8 151.9 151.5 150.2 149.4 148.1 146.5 144.8 141.6 139 138.3 137.9 140.5 143.2 145.5 147.8 150 151.7 153.4 155.2 155.7 155.2 155.3 155.1 154.5 153.2 151.4 148.6 145.9 144 143.3 144.3 144.9 145.1 145.2 146.3 147.3 148.2 147.8 147.7 147 145.1 142.8 139.3 135.6 132.8 132.3 130.3 129 127.7 124.6 122 119.4 118.9 118.6 119 119.9 121.2 123.1 125.1 127 128.3 128.3 129.4 129.7 132.1 131.9 130.5 130.6 129.5 128.4 127.6 126.7 124.9 122.8 121.1 120.4 117.8 116 114.1 112.2 111.1 110.4 110.2 110.2 113 116.1 120.1 123.4 126.7 131 133.7 133.8 133.3 131.6 131.8 127.1 134.3 133.8 133.2 132.6 131.5 130.1 128.7 127.2 125.1 122.6 121.2 119 117.5 115.2
156.1 153.4 151 149 147.5 145.6 142.6 139.9 137.1 134.8 132.1 130.1 129 127.9 127.4 126.9 125.5 123.6 122.4 122.4 121.3 121.4 122.4 125.4 128.4 131.7 136.6 141.7 143.7 144.5 143.9 141.4 137.5 135.6 134.9 135.2 135.3 134.8 135.3 137.9 141.2 146.9 158.7 167.5 173.9 177.3 178.2 178.1 177.6 177.7 177.9 177.9 177.5 176.7 175.9 175.1 174.7 174.3 173.6 173 172.1 170.5 169 167.4 166.1 164.6 163.8 163.4 162.3 162.5 162.5 161.4 159.5 158.8 158.1 158.8 157.2 155.4 155 154.7 154.6 154.3 153.9 153.8 153.8 153.4 151.9 150.9 150.6 150 148.1 146.7 145.5 144.4 142.5 141.8 141.5 139.9 139.5 140.6 143.4 146.3 148.8 151.1 152.7 154.4 155.8 156.8 156.3 155.8 155.3 155.5 154.3 153 151.7 149.7 146.9 145.1 145.8 147 148.3 148.7 148.9 148.8 149.7 150.3 150.1 149.6 149.3 148.2 146.1 143.1 139.3 136.4 136 135.8 133.5 131.4 131.2 129.9 127.6 124.2 121.8 120.4 119.1 118.8 117.9 118 118.8 120.8 123.5 124.5 126.1 129 130.8 130.3 129.1 128 126.8 125.9 125.1 124.2 122.4 120.3 118.2 117.3 115.7 113.3 111.4 110.6 110.7 110.7 112 114.3 118 121.3 125.3 127.5 130.1 134 135 135 134.8 133 133.5 128.7 134.9 136.3 135.3 134.3 133.1 131.7 130.3 128.9 126.7 124.2 122.3 120.7 118.4 117.1
167.4 164.2 161.5 159 155.7 153.2 149.3 144.6 141.3 137.9 135.4 133.6 132.8 131.1 130.6 129.6 128.3 126.7 124.7 122.6 121.2 120.7 121.6 123.1 124.9 127.2 129.5 132.1 134.7 137 139.2 138.7 136.6 134.2 133 132.8 132.8 133 135 138.5 143.5 153.4 162.7 170.5 176 177.8 178.6 178.4 177.9 176.7 176.7 176.8 176.4 175.8 175 174.3 174 173.7 173 172.4 171.7 170.4 168.9 167.3 166.6 165.4 163.9 163.2 163.3 164.2 164.4 162.5 161.8 161.4 162.1 162.8 161.4 159.5 157.6 155.9 154.4 153.3 152.2 151.3 150.8 150.5 150.1 149.5 147.9 147.1 146.6 146.2 145.4 144.9 143 142.2 142.1 143.1 143.8 145.8 148.9 152 153.5 154.8 156.5 158.1 158 157.8 156.9 156.1 155.3 154.1 152.9 151.6 150.2 147.6 145.8 147.2 148.6 149.9 150.6 151.2 151.7 151.7 151.7 151.7 151.7 151.4 150.8 148.8 146.7 143.1 140.1 140.2 139.8 139.3 136.5 134.6 134.9 134.4 133 130.6 127.1 125.5 125 122 120 118.1 117.1 116.6 118.1 120 123.4 127.5 129.4 128.4 127.3 126 124.7 123.7 122.7 121.7 120 118.1 116.6 114.8 113.7 111.1 111.3 111.1 111.6 113 115.9 118.5 122.1 125.5 128.6 132.3 135.1 136.1 136.1 135.8 135.8 135 135.4 130.3 135.5 136.5 136.9 135.9 134.7 133.4 132 130.2 128.3 126.1 123.3 122.3 120.8 119.2
176.1 174.8 172.3 169.3 165.7 162.2 157.8 153.3 148.8 145.1 141.2 138 136 134.2 133.5 132.3 130.8 128.4 125.9 123.8 121.6 120.4 120.8 121.1 122.1 123.3 125.1 127 129 131.6 134.9 135.7 134.5 132.8 131.6 130.9 130.4 132.4 136.5 141.3 147.7 158.9 167.1 174.1 177 178.3 177.9 177.5 177 176.6 176.1 175.6 175.3 174.9 174.1 173.7 173.4 173.1 172.4 171.7 171.1 170.3 168.8 167.6 166.9 164.6 164.5 165.4 166.1 166.3 165.9 164.4 164.7 165.1 165.2 164.6 163.9 162.8 160.8 159 157.6 156 154.7 153.8 152.9 152 151.6 151 151.2 151.3 151.4 151.4 150 148.1 144.7 143 144.6 147.1 148.7 151.3 154.4 156.2 157.2 158.6 158.7 158.8 158 156.9 155.8 154.6 153.4 152.3 151.4 150.1 148.4 147.8 149.3 150.3 151.5 152.3 153 153.3 153.2 153.1 153.1 153.1 153.1 153 151.1 149.3 147 143.9 144 144.1 143.3 141.6 138.9 138.6 138.7 137.9 136.5 134.4 131.5 130.9 130.4 128.8 126.2 123 119.8 117.8 116.7 117.4 118.7 124.5 126.9 126.6 125.3 124 122.7 121.5 120.7 120 118.4 116.8 115.2 112.9 111.2 111.5 111.8 113.1 114.4 115.9 119.3 123 126.1 129.5 133.1 135.9 137.3 137.2 137 136.7 136.4 136.6 137.9 131.7 134 137.7 137.5 137.3 136.3 135 133.3 131.2 129.1 127 124.5 124.6 124 122.2
180.6 178.7 177.3 175.7 174.5 171.7 166.9 162.3 157.8 153.5 149.1 142.9 139.3 137.4 136.1 134.6 133 130.3 127.5 124.9 122.8 120.6 120.4 120.1 121.2 122.2 122.1 122.5 124.7 127.3 130.5 131.9 131.6 130.6 130.1 129.2 129.7 134 139 144.1 154.2 163 170.5 175.4 177.3 178 177.8 177.3 176.9 176.4 176 175.6 174.8 173.8 173.3 173 172.7 172.4 171.8 171.1 170.5 169.8 168.7 166.7 165.6 165.4 166.2 167.1 167.8 168.3 167.9 167.3 167.2 167 166.4 165.7 165 164.3 163.5 162.1 160.7 159.2 157.6 156.6 155.7 154.8 155.1 155.1 155.1 155.2 155.7 154.2 152.3 148.7 144.8 144.3 147.2 150.2 154.1 157 158.9 159.2 159.5 159.5 159.6 158.7 157.2 156.1 155 153.8 152.9 151.1 150.3 148.2 148.6 150.4 151.8 152.8 153.6 154.3 154.9 154.7 154.6 154.5 154.5 154.5 154 153.1 151.4 149.7 147.4 146.9 147 146.6 145.8 143.9 142.2 142.2 142.2 141.2 139.8 137 135.2 135.5 134.5 133 131.2 127.9 124.9 122.2 118.2 116.3 116.5 120.8 124 125.3 123.7 122.1 120.4 119.6 119.1 118 116.5 114 112.5 111.4 111.9 112.5 115 116.6 118.1 120.4 124.4 129 131.3 132.9 136.1 138.2 138.7 138.6 138.3 138 137.6 137.4 137.5 133.3 133.9 138.5 138.1 137.7 136.5 135.8 134.6 132.4 130.2 128.1 126.5 126.9 126.8 124.9
182.9 181.7 180.8 179.3 177.8 176.6 173.7 170.1 165.3 161.8 155.2 148.3 143.6 140.4 138.4 136.8 134.9 132 129.2 126.4 123.8 122 121.1 119.8 120.7 120.6 120.6 120.8 121.9 123.6 126.2 128 128.8 128.9 128.5 127.9 130.6 134.7 140.6 147.3 157.3 166.4 172.4 176 177.4 177.7 177.9 177.5 177.1 176.6 176.2 175.9 175.7 174.3 173.3 172.7 172.4 172.1 171.5 170.7 170 169.4 167.6 167.2 166.8 167.3 168 168.8 169 168.9 168.8 168.5 168.6 168.2 167.5 166.9 166.2 165.5 164.7 164.1 162.9 162 160.7 159.6 158.6 158 158.5 158.5 158.5 158.3 157.3 155.9 152.9 148.9 144.7 147.5 151.1 154.7 158.5 159.6 160.3 160.5 160.6 160.6 159.9 159.1 157.9 156.4 154.9 154.4 153.9 152.3 151.1 149.7 150.9 152.7 153.7 154.7 155.6 156.2 156.3 156.2 156 155.9 155.9 155.1 154.3 153.3 151.6 150.5 149 149.2 149.1 148.4 147.8 147.1 145.5 145.5 144.9 143.9 142.6 140.4 140 138.7 138.2 136.9 135 132.7 129.8 125.4 121.4 118 116.3 116.8 119.8 122.2 121 119.5 118.5 117.7 117.2 115 113.7 112.2 112.3 112.6 113.4 115.8 118.1 120.5 124.4 128.9 131.9 134.7 136.2 137.8 139.1 139.4 139.8 140.1 139.8 139.2 138.4 138.4 138.8 135.8 134.4 138.7 138.3 137.7 136.7 136.5 135.9 134.1 131.9 129.7 128.6 128.5 128.4 127
185 184 183 182.1 181.1 179.7 177.2 174.5 171 165.9 159.6 153.3 149.4 145.4 141.9 139.6 136.8 133.9 131.1 128.2 125.4 123.1 121.8 120.4 119.6 119.7 119.9 120.1 120.4 121.8 123.4 124.7 126.1 126.2 126.4 128.3 131.2 135.7 142.4 150.9 160.2 168.7 173.5 175.9 177 177.3 177.6 177.7 177.3 176.8 176.4 176.2 175.9 175.4 174.6 173.7 172.8 172.3 171.9 171 170.1 169.2 168.8 168.4 168.5 169.2 169.7 169.6 169.4 169.3 169.3 169.2 169.1 168.8 168.5 168.1 167.4 166.7 166.2 165.5 164.4 163.6 162.8 161.9 161 160.7 160.7 160.6 160 159.4 158.4 156.3 152.3 148.1 146.6 151.5 155.8 158.9 160.1 161 161.6 161.6 161.6 160.9 160.2 159.4 158.6 157.1 155.7 155.3 154.5 153.7 152.5 151.7 153.2 154.6 155.6 156.6 157.5 157.8 157.7 157.6 157.4 157.1 156.3 155.5 154.7 153.9 153.2 152.4 151.6 151.1 150.6 150.1 149.4 148.6 147.9 147.2 146.5 146.2 145.2 143.9 142.2 140.5 140 138.8 137.5 134.9 132.1 128.5 124.5 120.4 117.8 116.5 116.3 118.4 118.6 117.2 116.8 115.9 115.1 113.2 113.2 113.2 114.3 115.7 117.4 121 124.5 128.5 132.7 134.9 137.5 139.4 139.8 140.2 140.7 141 141.2 141.4 140.8 140 139.3 139.5 139.8 139.4 135.8 139.1 138.4 137.5 137.4 137.2 136.7 135.7 133.6 131.4 130.6 130.1 129.9 128.8
187.1 186.2 185.3 184.1 182.9 181.6 179.9 176.9 173.2 167.3 164 161.5 155.8 150.7 145.8 143 139.3 136.5 133.6 130.3 126.7 124.2 122.8 121.2 119.2 119 119.2 119.6 120.2 120.9 122.2 123.3 123.4 124.6 126.2 129.2 132.2 136.8 143.8 153.3 162.7 169.9 173.4 175.6 176.5 176.9 177.2 177.5 177.4 177 176.7 176.5 176.1 175.3 174.7 174.1 173.5 173 172.3 171.6 171.1 170.5 170 169.8 170.3 170.2 170.1 170 169.8 169.6 169.5 169.5 169.2 169.4 169.1 168.7 168.3 167.6 166.9 166 165.4 164.3 163.5 162.6 161.9 161.6 161.6 161.4 160.3 159.7 158.6 156.5 151.6 147.8 148.8 154.5 158.5 160.6 161.5 162.1 162.6 162.6 162 161.2 160.4 159.6 158.9 157.8 156.5 155.9 155.2 154.7 154.1 153.9 155.5 156.3 157.1 157.9 158.7 158.8 158.7 158.5 158.2 157.8 157.3 156.1 154.7 154 153.8 153.4 152.7 152.3 151.7 151.1 150.7 150 149.3 148.8 148.1 147.9 147.4 145.9 144.1 142.3 141.6 140.2 138.3 136.7 133.7 130.5 126.2 121.8 118.7 116.8 115.3 115.6 115.9 115.5 115.1 114.2 113.1 113.5 114.5 116 117.5 119.7 122.5 128 132.1 136.1 138.3 140 141.4 141.9 141.7 141.5 141 141.1 141.9 142.1 141.5 140.9 140.2 140.5 140.8 140.8 136.5 140.1 138.6 138.2 138.1 137.9 137.6 136.7 135.3 133.3 132.7 132.1 131.5 129.8
187.8 187 186.2 185.1 183.9 182.7 181 179.3 176.4 173.4 170.4 167 162.1 156.4 150.4 146.3 141.8 138.7 135.1 131.5 127.8 125.3 123.8 122 120 118.2 118.7 119.3 119.9 120.6 121.3 122.1 122.7 124.6 126.9 130 133.3 138.3 146.3 155.7 164.8 170.7 173.2 175.4 176 176.4 176.7 177.1 177.4 177.2 177 176.7 176.1 175.3 174.5 174 173.4 172.8 172.3 171.9 171.6 171.2 170.9 170.7 170.7 170.6 170.6 170.4 170.2 170 169.8 169.8 169.2 169 168.7 168.4 168 167.6 166.9 165.9 165 164.9 164.1 163.5 162.9 162.6 162.4 162.2 161.1 160 158.9 156.1 151.5 148.3 150.7 156.3 160.1 161.6 162.5 163.1 163.6 163 162.2 161.4 160.7 159.9 159.1 158.3 157.4 156.8 156.2 155.6 154.9 155.4 156.6 157.5 158.3 159.1 159.5 159.4 159.4 159.2 158.7 158.2 157.2 155.9 154.5 154.1 153.9 153.7 153.4 152.9 152.6 152.1 151.7 151.3 150.7 150.2 149.8 149.5 148.8 147.3 145.9 144.3 142.9 140.9 139 136.6 134.2 131.8 127.5 123.3 120.2 117.3 115.7 114.8 114.9 115.4 114.3 114.6 115.4 117.2 119 120.9 122.5 125.7 129.6 134.7 138.4 140.8 142.8 142.9 143.1 142.5 142.2 141.8 141.3 141.2 141.6 142.2 142 141.6 141.2 141.3 141.3 141.3 137.1 139.4 139.3 139.2 138.9 138.6 138.4 137.5 136.6 135.4 134.5 133.2 131.9 130.6
188 187.2 186.4 185.7 184.5 183.3 181.9 180.5 178.9 176.2 174 171.4 167.4 161.6 155.9 151.3 145.1 139.3 135.7 132.1 129.6 127.4 124.8 122.8 120.8 118.8 118.4 118.9 119.6 120.4 121.2 122 123 125.2 129.4 132.5 135.9 140.9 148.8 157.9 165.6 170.8 172.8 174.7 175.6 176 176.3 176.7 177 177 176.7 176.5 176.1 175.2 174.4 173.8 173.2 172.7 172.3 171.9 171.5 171.2 170.8 170.6 170.5 170.5 170.5 170.5 170.4 170.3 170.2 169.9 168.9 168.6 168.3 167.9 167.6 167.4 166.8 165.8 164.7 164.2 164 163.6 163 162.4 162.2 161.8 161 159.9 158.3 155.6 151.5 148.7 152.6 158.8 160.9 162.5 163.3 164 164 163.2 162.4 161.7 160.9 160.1 159.3 158.4 158.2 157.5 156.9 156.2 155.8 156.6 157.7 158.7 159.5 160.1 160.1 160 159.9 159.6 159.1 158.2 157 155.7 154.4 154.2 154 153.7 153.2 152.9 152.5 152.1 152.5 152 150.9 150.1 149.6 149.7 148.9 147.7 146.3 144.8 142.9 140.9 136.8 136.3 133.6 131.5 128.2 123.2 120.2 118.1 117.8 117.5 117.6 117.9 118.3 119.1 120 121.7 123.9 126.4 129.4 134.1 137.3 140.1 143 143.9 143.9 143.8 143.6 143 142.7 141.6 141.5 141.5 141.4 141.8 141.6 141.1 140.8 140.8 140.7 140.8 138 140.7 139.9 140.2 139.9 139.5 138.7 137.9 137 136 134.7 133.3 132 130.8
187.8 187 186.3 185.5 184.8 183.6 182.3 180.9 179.4 178.3 176.6 174.7 170.9 166.6 161.2 155.6 148.3 141.2 136.8 134.7 132.9 129.8 126.5 123.8 121.8 119.6 118.6 118.9 119.7 120.6 121.5 122.8 124.1 126.6 130.9 136.1 139.5 144.9 152.7 161.1 167.8 170.8 172.2 173.8 174.7 175.6 176 176.3 176.8 176.6 176.1 175.9 175.4 175 174.4 173.6 173.1 172.7 172.3 171.9 171.5 171.1 170.8 170.6 170.5 170.3 170.3 170.2 170.1 170 169.8 169.7 168.7 168.3 168 167.7 167.4 167.1 166.8 165.7 164.7 163.7 163.4 163.1 162.1 162.2 160.9 160.3 159.7 158.5 157.2 154.8 151.8 149.2 154.9 159.5 161.4 163.3 164.1 164.3 164.2 163.4 162.6 161.8 160.9 160 159.1 158.9 158.8 158.2 157.5 156.9 156.9 157.7 158.7 159.7 160.7 160.7 160.7 160.6 160.2 159.9 159.2 158 156.7 155.5 154.5 154.3 153.7 153 152.3 152.3 151.9 151.4 151.5 152.6 151 149.2 148.4 148.7 148.3 146.7 145.4 143.9 141.4 139.1 132.6 133 131.1 128.5 125.8 122.1 121.1 121.5 122.2 122.2 122.3 123.1 124.5 125.3 126.8 127.4 130 132.6 135.5 139.2 141.4 143.9 144.2 144.2 144.2 143.8 143.5 143.5 142.7 141.9 141.8 141.7 141.4 140.9 140.4 139.9 139.4 139.7 139.7 140.6 138.2 139.5 140.5 140.7 140.2 139.4 138.6 138.1 137.2 136.1 134.8 133.4 132 130.9
187.6 186.9 186.1 185.4 184.7 183.9 182.9 181.8 180.7 179.6 178 176.1 173.3 169.6 164.4 158.9 152 144.4 139.7 138.3 134.9 131.6 128.3 125 122.6 120.3 119.2 119.6 120 121.3 122.6 123.9 125.2 127.7 132 137.5 143.5 150.5 157.4 164.5 168.2 171 172.2 172.4 173.4 174.5 175.6 175.9 176.2 176 175.6 175.2 174.9 174.4 174 173.5 173 172.6 172.2 171.8 171.4 171 170.8 170.6 170.5 170.3 170.1 169.9 169.6 169.4 169.1 169.3 168.4 168.1 167.8 167.5 167.1 166.6 166.8 165.7 164.6 163.9 163.2 162.2 161.5 161 159.6 158.3 157 156 154.4 152.9 150.6 151.2 157.1 160.2 162.1 164 164.5 164.5 164.3 163.4 162.5 161.6 160.7 159.8 159.5 159.4 159.3 159.1 158.3 157.7 158.1 158.6 159.4 160.3 160.9 161.1 161.2 160.8 160.5 160.1 158.9 157.6 156.4 155.1 154.2 153.5 152.8 152.1 151.8 151.7 151.2 150.7 150.2 151.1 150 148.7 147.3 146.6 145.5 144.3 142.6 140.1 137.1 134.8 130.9 129.8 128.1 125.6 124.6 124.6 125.4 126.6 127.8 128.6 128.4 129.3 131.5 132.6 133.7 133.9 135.6 138.1 140.6 143.1 144.5 144.5 144.6 144.5 144.2 143.8 143.5 143.5 142.2 141.7 141.3 140.9 140.8 141.1 139.7 138.6 138.1 138.1 138.8 139.3 138.2 139.2 140.3 140.5 140.1 139.3 138.6 138 137.4 136.3 134.9 133.5 132.1 130.9
186.8 186.9 186.2 185.4 184.7 184 183.3 182.4 181.4 180.5 178.8 177.1 174.4 172.2 167.1 161.8 155.2 149.6 144.3 140.1 137 134.2 131.3 127.6 123.2 120.8 118.6 118.9 119.4 120.1 122 123.9 125.8 129.2 133.1 138.6 146 153.4 159.8 165.3 169 170.4 170.4 170.6 171.6 172.8 174.1 174.5 174.8 174.7 174.3 173.9 173.7 173.6 173.5 173.5 172.6 172.2 171.8 171.3 171.1 171.2 171.3 171.1 171 170.7 170.2 169.4 169 168.7 168.5 168.8 168.2 167.9 167.6 167.2 166.7 166.2 166.7 165.7 164.7 164.1 163.7 163.6 162.6 162.1 162.3 161.3 159.4 156.8 153.8 152.4 152.6 155.4 159.3 161.6 163.5 164.5 165.1 165 164.5 163.3 162.3 161.4 160.5 160.2 160 159.9 159.7 159.1 159.2 158.5 158.5 158.8 159.5 160.3 160.8 161 160.9 160.1 159.7 158.9 158 157 156 155.1 154.3 153.3 152.2 151.2 150.6 150.2 149.9 149.6 149.4 148.6 147.9 146.5 144.8 142.6 140.6 138.9 137.4 136.1 134.6 133.4 131.6 131 128.2 129.3 129.8 129.9 131.5 133.7 135 135.3 135 135.9 138 138.7 139.4 139.8 139.5 141.1 143.3 144.1 144.7 144.4 144 143.7 143.7 143.6 143.4 142.8 142.1 141.3 140.4 140.1 140.4 140.7 140.3 138.6 136.9 136.4 136.6 137.3 138.2 138.1 138.9 139.1 139.6 139.2 138.5 138 137.4 136.4 135 133.6 132.2 130.9
185.5 185.7 185.9 185.4 184.7 184 183.3 182.7 181.7 180.8 178.8 177.7 175.7 173.7 170.5 164.6 158.9 154.3 149.2 144.3 140.5 137.7 134.8 130.3 125.9 121.3 118.8 118.1 118.8 119.5 120.4 122.3 125.1 129.4 134.8 140.2 148.3 154.5 159.8 164.5 168.1 169.7 168.8 168.8 170 171.4 172.5 173 173.4 173.4 173 172.5 172.3 172.2 172.1 172.1 172.1 171.7 171.4 171.3 171.3 171.5 171.8 171.5 171.1 170.6 169.7 169 168.5 168.1 168 168.3 168 167.7 167.2 166.7 166.3 166.1 166.7 165.6 165 164.5 164.1 164.1 164 163.7 163.6 162.7 161.2 158.7 155.4 152.4 154 158.2 160.8 163 164 164.8 165.4 164.9 164.5 163.8 162.2 161.3 160.8 160.6 160.3 160 159.6 159 159.5 159.4 159.2 159.4 159.6 160.2 160.7 160.8 160.8 159.6 159 158.4 158 157 156 155.3 154.6 153.5 152.4 151.6 150.9 150 149.1 148.9 148.3 147.1 146 144.7 143.6 142.9 142.4 142.1 141.2 140.3 139.4 138.3 137.4 134.9 130.2 133.2 135 136.5 138.1 139.4 140.1 140.6 140 139.8 140.7 141.4 141.8 142.2 142.8 143.4 143.8 144.1 144 143.6 143.1 142.9 142.8 142.8 142.9 142.7 142 141.2 140.3 140.1 140 140.3 140.7 139.2 137.6 137.2 134.9 135.4 137.2 137.6 137.5 137.9 138.3 138.8 138.2 137.4 136.6 135.7 134.7 133.5 132.2 130.1
184 184.4 184.6 184.7 184.7 184 183.3 182.6 181.9 180.9 179.5 177.9 175.7 173.8 172 168.1 162.8 158.3 153.4 150.4 147.1 143.2 137.9 132.6 127.4 122.5 119.4 117.3 117.8 118.7 119.6 121.1 125 128.7 133.3 139.2 146.4 152.8 158.2 163.3 166.6 168.3 168.2 166.9 168.6 170 171 171.4 171.9 171.9 171.5 170.4 169.6 169.5 171.4 171.5 171.6 171.6 171.5 171.5 171.7 171.5 170.8 171.4 171.1 170.6 169.3 168.6 168.1 167.7 167.7 167.8 167.7 167.3 166.8 166.3 165.8 166 166.6 165.8 165.4 164.9 164.5 164.5 164.5 163.9 163.1 162.8 161.1 158.8 154.2 152.9 156.6 160.5 162.7 163.9 164.8 165.4 165.4 164.6 164.2 163.8 162.3 161.3 161 160.7 160.4 160.1 159.3 158.9 159.4 159.9 159.8 160 160.3 160.5 160.5 160.5 160.5 159.4 158.7 158.2 157.9 157 156.1 155.4 154.7 153.8 153 152.4 151.9 151.1 150.1 148.2 147.8 148.1 147.9 147.9 147.5 147.7 147.7 147 146.5 145.6 144.3 142.4 140.6 137.4 133 137 140.4 142.1 142.5 143.1 143.2 142.7 142.6 142.2 142.9 143.3 143.4 143.1 143.1 143.3 142.8 142.7 142.8 142.7 142.3 142.1 142 142 142.3 142.6 141.9 141.1 140.7 140.6 140.4 140.3 140.3 139.8 139 138 135.1 132.3 135.1 137.1 135.4 136.3 137.1 137.3 137.3 136.5 135.7 134.8 134 133.1 132.1 129.8
182.4 183.1 183.2 183.4 183.6 183.8 183.1 182.2 181.6 180.1 178.5 177.2 175.7 173.7 171.6 169.5 166.1 161.6 157.3 154.9 152.2 147 141.9 136.5 129.8 124.5 120.2 117.7 117.2 117.2 117.8 119 120.9 124.7 129.1 134 140.3 148.1 153.9 159.5 163.8 166.1 166 165 165.8 167.7 168.8 169.4 169.8 169.8 169.1 167.2 166.2 167.3 170.5 171.5 171.5 171.6 171.5 171.2 170.9 170.7 169.8 170.4 171 170.1 168.8 168.3 168 167.7 167.7 167.8 167.5 166.9 166.4 165.9 165.4 165.9 166.5 166.2 165.8 165.3 164.9 164.9 164.7 164.1 163.5 162.6 160.7 157.5 153.3 154.8 159.8 162.4 163.6 164.7 165.4 165.2 165.4 164.3 163.9 163.3 162.1 161.6 161.1 160.8 160.5 159.8 159 158.8 159.3 159.8 160.1 160 160 159.8 159.9 159.9 160 159.1 159.4 158.3 157.7 157 156.2 155.5 154.9 154.2 153.6 153 152.5 152 151.5 150.5 150.9 150.7 150.1 150.5 150.7 150.4 150 148.9 148.3 147.5 146.1 144.6 142.4 137.5 137.9 141.7 143.8 144.8 145.4 145.7 144.7 144.7 144.7 144.5 144 143.6 143.3 143 142.9 142.5 141.1 141.2 141.4 141.5 141.4 141.3 141.2 141.4 141.7 142.1 141.9 141.2 141.1 141 140.9 140.7 140.6 140.2 139.2 138.2 136.6 134.8 130.7 136.5 135 133.4 134.8 135.9 136 135.6 134.8 134 133.6 133 132.1 129.8
181.3 181.7 181.9 182.1 182.3 182.5 182.2 181.7 180.2 178.8 177.6 176.3 174.8 173.3 171.4 169.5 166.7 163 158.8 156.1 153.4 149.3 143.8 136.9 130.3 125.7 121.9 118.5 117.2 115.9 116.2 117.1 118.8 120.5 123.6 126.6 131.7 139.2 147.6 154.2 159.9 163.8 165.1 162.7 161.2 164 165.5 166.2 166.5 164.7 163.7 162 160.9 165.9 169.9 171.5 171.4 171.3 171.2 170.4 170.1 168.9 168.7 169.3 170.1 170.1 168.4 168.2 168 167.8 167.6 167.6 167.3 167.1 166.5 165.7 165.2 165.6 166.1 166.3 166 165.6 165.3 165.1 164.9 164.2 162.9 161.6 159.4 155.6 155 159.1 161.9 163.4 164.5 165.3 165.1 165 165.4 164.1 163.7 162.9 162.4 161.8 161.3 160.9 160.3 159.5 158.7 158.7 159.2 158.7 159 159.4 159.3 159.2 159.2 159.3 159.4 158.9 159.2 158.5 157.8 157 156 154.9 153.6 153.5 153.8 152.7 152.1 151.6 151.4 151.9 152.1 152.2 152.2 151.6 151 150.8 150.7 150.3 149.5 148.6 147.2 145.2 141.9 140.2 142.9 144.9 146 147.1 147 146.9 146.7 146.1 145.6 145 144.5 144 143.5 143 142.5 140.9 139.6 139.7 139.8 139.9 140 140.6 140.6 141.2 141.4 141.6 141.8 141.6 141.5 141.4 141.3 141.2 141.1 140.2 139.2 138.1 137 135.3 131.5 136.2 129.2 130.2 132.5 134 134.6 134.4 134.1 133.7 133.3 132.7 131.9 130
179.6 180.2 180.4 180.6 181.1 181.6 181 180.6 179.4 178 176.7 174.6 173.7 172.6 170.7 168 165.7 163.5 160.3 157.4 154.3 150.5 142.6 136.2 129 124.2 121.2 118.9 118.2 116.6 115.5 115.9 117.6 119.1 119.7 122.1 125.2 130.2 139.9 149.2 155.2 159.8 164.1 163.8 160.7 157.8 159.8 161 160.8 159 156.9 155.1 160.5 166.4 169.9 170.6 171 171 171 170.3 169.2 167 167.8 168.7 169.2 168.9 167.9 167.8 167.8 167.8 167.6 167.4 167.1 166.8 166.6 166 165.1 164.9 165.7 166.3 166 165.6 164.5 164 163.8 163.5 162.4 160.7 156.7 156.1 158.6 161.2 163.5 164.7 165.6 165.6 165.4 165.3 164.5 163.7 163.3 163 162.5 162 161.5 160.4 159.9 159.2 158.4 158.2 157.5 157 157.3 158.1 158.5 158.6 158.6 158.7 158.7 158.8 158.2 157.6 156.9 156 154.9 153.6 152.2 152.6 153.2 153.5 152.1 151.7 152.3 152.6 152.8 152.8 152.4 152 151.4 151.2 150.9 150.2 149.4 148.9 147.8 145.4 142.5 144.4 146.5 147.5 147.8 147.7 147.6 147.5 147.2 146.7 146.1 145.5 144.9 144.4 143.9 143.4 141.6 139.9 138.5 137.6 137.7 137.6 137.7 139 140 140.7 141.1 141.3 141.4 142 142 141.9 141.8 141.7 141.2 140.2 139.1 138.1 137 135.7 133.9 135.4 134.1 128.2 130.3 131.6 132.4 133.4 133.2 133.2 133 132.5 131.8 130.4
179.2 178.6 178.9 179.7 180.3 180.7 180.2 179.5 178.4 176.9 174.8 173.3 172.3 170.8 167.8 164.6 162.7 162.4 160 156.6 152.6 147.2 140.7 134.2 127.1 124.2 121.3 119.3 118.8 117.3 116 115.1 116.4 117.5 117.7 118.8 121.4 125.1 132.7 142.5 151.1 156.7 161.4 163.2 162.6 156.5 153.7 153.7 154.4 151.8 148.9 152.2 160.8 166.4 169 170 170.2 170.4 170.7 170.3 168.7 165.6 166.8 167.9 167.6 167.5 167.3 167.1 167.2 167.2 167 167.1 166.8 166.5 166.3 165.9 165.3 164.8 165.5 166.3 165.9 165.5 163.8 162.7 162.4 162 161.2 157.9 156.6 160.1 161.3 163 164.8 165.8 165.9 165.8 165.7 165.2 164.3 163.5 162.7 163 162.4 161.4 160.2 159 158.7 158.1 157.2 156.3 155.6 155.3 155.6 156.4 157.1 156.9 156.8 156.6 156.6 156.9 157.3 156.6 155.8 154.9 153.6 152.2 150.8 151.7 152.3 152.9 153.2 152.6 153.1 153.4 153.2 152.9 152.5 152.2 151.8 151.5 150.8 150.2 149.6 149.4 148.4 146.2 146.1 146 147.7 148.5 148.4 148.3 148.1 148 147.7 147.2 146.6 146 145.4 144.9 144.4 143.3 141.4 140.5 139.1 137.6 136.6 136.6 136.4 137.3 138.6 139.7 140.8 141 141.1 141.7 142.4 142.3 142.2 142.1 141.2 140.1 139.1 138 136.9 135.7 134.3 134.6 136.4 127.5 127.9 129 130.1 131.3 132.3 132.2 132.2 131.9 131.4 129.9
179.5 178.4 178.4 178.9 179.4 179.8 179.7 178.3 177.4 174.9 172.8 169.8 167.6 165.4 162.7 157.8 155.4 153.8 151.6 148.1 145.1 141.5 136.9 131.7 126.4 123.7 121.5 120 119.4 118.3 117 115.7 115.1 115.2 114.9 116.2 118.1 121.4 125.6 135.2 145.8 152.8 156.6 159.3 161 159.1 152.4 146.9 144.7 143.1 144 153 160.9 165.4 168.2 169.4 169.6 169.8 170 169.9 168.4 166 163.4 164.2 165 166.8 166.7 166.6 166.5 166.4 166.1 166.1 166.3 166.2 165.8 165.3 165.7 165.1 165.3 166.2 165.9 164.8 163.1 161.4 160.9 160.5 158.7 158.3 160.5 162.7 163.6 164.8 166 166.2 166.2 166 165.8 165 164.2 163.3 162.5 162 161.3 160.1 158.8 157.6 157.5 156.8 155.5 154.7 154 153.1 153.9 154.7 154.1 154.3 155.5 155.2 154.7 154.9 155.6 155.2 154.4 153.5 152.2 150.8 149.8 150.7 151.5 152 152.6 153.4 153.8 153.6 153.2 152.9 152.5 152.1 151.7 151.1 150.5 150.1 150.1 149.8 149 148 148.3 148.6 148.9 148.7 148.6 148.5 148.3 148.2 148 147.6 147.1 146.5 145.9 145.4 144.4 142.7 141.8 140.9 140.2 138.8 137.4 135.8 135.7 136.3 137.5 138.6 139.9 140.6 140.8 141.4 142.1 142.4 142.1 141.8 140.9 139.9 138.8 137.8 136.8 135.6 134.9 133.6 134.2 128.1 126.3 127.2 129 129.9 130.8 131.1 131.4 131 130.6 130.2
180.4 179.1 177.4 178.1 178.5 178.9 179 177.8 176.1 173.3 171.2 168 164.9 160.9 157 154.1 150.9 146.6 143.9 140.9 138.5 135.8 133.5 129.5 125.4 123.5 122.3 121.5 121.7 120.9 119.8 118.6 116.6 115.5 114.9 114.6 115.1 118.6 121.7 128.5 138.2 147.8 152.7 155.7 158.1 158.2 154.8 148.1 139.7 136.6 143.3 151.5 159.5 164.3 167.4 168.8 169 169.2 169.3 169.1 167.9 166.3 163.6 160.7 163.3 165.4 165.6 165.8 165.9 165.6 165.2 165 165.2 165.4 164.9 165.2 165.7 165.5 165.6 166 165.8 164.1 162.4 160.7 159.6 158.6 158.9 161.1 162.8 164.6 165.2 166.1 166.4 166.6 166.4 166 165.7 164.8 164 163.2 162.4 161.9 160.4 159 157.3 156.5 156.5 155.3 154.3 154.1 152.9 152.5 152.6 152.4 151.9 151.4 153.1 153.3 152.9 152.6 153.3 153.1 152.4 151.5 150.7 149.4 148.8 149.8 150.6 151.2 152.4 153.3 153.3 153.1 152.7 152.4 151.9 151.4 150.8 150.2 149.6 149.5 149.6 149.7 149.4 148.3 148.6 148.8 149.1 149 148.6 148.1 148 147.9 147.6 147.3 146.9 146.5 146.2 145.5 144.2 143.2 142.5 141.9 141.2 140.3 138.8 136.8 135.7 135.3 134.7 136 138.4 140 140.4 141.1 141.7 141.8 141.8 141.5 140.6 139.6 138.6 137.6 136.6 134.6 133.5 133.1 133.5 128.7 125.7 125.2 127.5 129 129.4 129.3 129.7 129.9 129.9 130.4
180.6 178.8 176.8 176.5 177.3 178 178.2 177.9 176.9 175 173.1 170.7 168.7 166.5 163.4 160.4 156.3 152.1 147.3 142 137.7 133.9 130.8 127.8 126.1 125.3 124.9 125 124.8 124.9 123.7 122 119.3 116.7 115.7 114.6 113.4 115.8 118.1 121.8 129.7 140.1 148.5 152.5 155.1 155.7 153.9 148.4 139.1 133.1 138.6 146.6 154.6 160.6 166.3 168.2 168.3 168.4 168.5 168.4 167.4 166 162.5 157.6 162.4 165.1 165.8 166.1 165.1 164.6 164.4 164 164.2 164.5 164.3 164.9 165.6 165.9 166 166 165.2 164.2 163.3 162.2 160.1 159.7 161.4 163.4 165 166.5 166.5 166.7 166.8 166.7 166.3 166 165.5 164.7 163.8 163 162.5 162.3 160.8 160 159.3 158.5 157.6 156.6 155.5 155 154.8 154.1 153.5 152.9 151.1 149.6 150.1 151.5 151 150.4 151.1 150.9 150.3 149.6 148.7 147.9 147.9 148.8 149.8 151 152.3 153 152.8 152.6 152.2 151.6 151.1 150.5 150 149.4 148.9 148.9 149 149.4 149.8 148.7 148.9 149.1 149.3 149.2 148.8 148.4 148 147.5 147.3 146.8 146.3 145.9 145.4 144.7 144.5 144 143.5 142.9 142.2 141.4 140.2 138.3 137.1 135.6 133.2 133.3 135.7 138.1 140.1 140.8 141.3 141.3 141.2 141.2 140.3 139.3 138.4 137.4 136.4 134.5 132.5 131.7 132.6 130.2 126 123.9 125.3 127.6 127.6 127.4 127.6 127.9 129.1 129.8
179.6 177.8 176.2 174.9 175.9 176.9 177.6 178.1 177.1 176.1 174.8 174.2 173.3 171.3 168.4 165.7 162.5 158.4 153.3 147.1 139.8 133.6 131.7 130 129.4 129.3 128.9 128.5 128 128 126.8 124.3 121.7 118.6 117.1 115 113.4 113.9 115 117.2 123 134.1 143 148.7 151.7 152 150.7 146.3 137.3 130.7 133.5 141.6 149.7 156.2 162.1 166.9 168.1 168.3 168.4 167.3 166.3 163.9 159.8 156.1 161.4 164.5 165.9 165.7 164.4 162.9 163.1 163.2 163.1 163.6 163.9 164.7 165.8 166.6 166.6 166.2 165.8 165.4 164.9 162.4 160.4 161.9 163.9 165.2 166.5 167 167.2 167.2 166.8 166.4 166.3 165.9 165.3 164.5 163.7 162.9 162.7 162.5 161.9 161.1 160.3 159.5 158.5 157.5 157.1 157.2 156.8 156 155.2 154.3 152.8 151.2 149.1 149.1 149 148.2 148.7 148.3 147.2 146.6 145.9 145 144.5 146.6 148.8 150.4 151.7 152.5 152.6 152.3 151.5 150.8 150.2 149.7 149.1 148.6 148.3 148.4 148.8 149.2 149.7 149.2 149.5 149.7 149.4 148.7 148.1 147.7 147.3 146.9 146.8 146 145.6 145.1 144.6 144.5 144.5 144.3 143.7 143.1 142.4 141.5 140.8 139.8 138.3 136 134.1 132 134.1 136.5 138.9 140.4 140.7 140.7 140.9 140.6 140 139.2 138.2 137.2 136.2 134.4 131.8 130.6 131.7 129.1 124.8 123.3 123 124.8 125.2 125.1 125.4 126.7 128.1 129.1
179.5 178 176.5 175 174.8 175.7 176.5 177.3 177.4 176.3 175.5 175 174.8 174.5 171.9 169.5 166.5 162.9 158 150.6 142.5 136.7 134.9 134.2 133.7 133.4 133.5 132.8 131.8 130.9 129.4 126.6 123.4 120.1 118.8 117.7 115.1 113.7 113.2 114.5 118.7 129 138.3 144.1 146.7 147.2 145.6 142 135.1 128 129 136.1 144.4 152.7 158.7 164.9 167.1 167.5 167.2 166.1 164.9 161 156.2 152.8 158.7 162.6 164.3 164.3 163.1 160.9 160.4 161.5 161.9 163 164.6 165.7 166.8 167 166.6 166.2 165.8 165.4 164.2 161.9 161.2 163 164.7 166.2 167 167.2 167.4 167.5 166.4 166 165.7 165.7 165.1 164.3 163.4 162.8 162.5 162.5 162.2 161.8 161.2 160.4 159.4 158.5 158.1 158.2 158 157.2 156.3 155.3 154.2 153.3 151.2 149.7 148.4 146.4 146 146 144.9 144.2 143.3 142.5 142.7 144.1 146.8 149.3 150.8 151.7 152.1 151.8 151 150.2 149.5 148.9 148.3 147.7 147.8 148.2 148.6 149.1 149.5 149.8 149.8 149.5 149.1 148.2 147.6 146.9 146.4 145.9 146.6 145.7 144.9 144.3 144 143.9 143.6 143.5 143.4 143.1 142.4 141.6 141 140 138.7 136.7 134.6 132 132.3 135.1 137.5 139.4 140.5 140.6 140.3 139.9 139.4 138.6 137.9 137 136 134.2 131.7 130.4 131.1 130.2 125.6 124 122.7 122.1 121.2 121.9 122 124.7 126.8 128.3
179.7 178.3 176.8 175.2 173.7 174.6 175.3 176.4 177.8 177.1 176.1 176.1 176 175.9 174.1 172.5 170.1 166.4 161.8 154 144.5 140.5 140.5 140.7 141.8 142.3 142 139 136.8 134.8 132.1 128.3 124.8 121.7 120.4 118.9 116.6 114.1 113 112.9 117.5 126 133.8 138.6 140.8 141.1 138.3 134.8 131.1 125.5 125.8 131.4 140.4 148.5 155.8 162.1 164.8 165.9 165.6 164.3 161.9 158.2 152.1 148.9 155.5 160 161.4 161.5 161.1 158.3 159.3 160.4 162.2 164 165.6 166.7 167.5 166.9 166.4 166 165.6 165.2 163.6 162.9 163.7 164.9 166 167.1 167.4 167.6 167.9 167.8 167 166 165.5 164.8 164.4 164 163.1 162.5 162.4 162.5 162.4 162 161.5 161.1 160.4 159.4 159 159.1 159 158.1 157.1 156 154.9 154.7 153.1 151.7 149.7 148.9 147.9 146.7 145.9 145.1 144.3 142.8 141 141.6 145.2 147.5 149.4 150.6 151 151 150.4 149.8 149 148.3 147.6 147.2 147.7 148.1 148.5 148.9 149.4 149.6 149.5 149.2 148.8 147.8 147 146.4 145.8 144.9 144.7 144.2 143.7 143.3 143.2 143 142.8 142.6 142.5 142.4 142.3 141.6 141 139.9 138.5 137.1 134.6 131.9 130.5 133.3 136.1 138.7 139.9 140 139.6 139.2 138.7 138 137.3 136.6 135.9 134.1 133 131.8 130 131.7 127.6 126.1 124.6 122.3 120.7 120.2 119.2 122 125.2 126
178.9 178.3 177.1 175.7 172.8 173.2 174.1 175.9 177.6 177.7 176.7 176.7 176.7 176.5 175.6 173.8 172 168 163.5 155 150.3 149.2 148.1 148.7 149.8 150.5 149.8 147.3 143.1 140.3 135.9 130.9 126.2 123.3 121.5 119.9 117.7 115.5 113.6 112.6 115.5 122.6 128.1 132.9 133.9 134 130.7 128.3 125.5 122.3 123.7 128.9 137.4 144.6 152.3 158.7 161.9 163.6 163.5 161.6 158.8 153.7 147.6 146.6 148.8 154.9 156 156.7 157.9 156.6 160.3 162.3 163.1 164.9 166.7 167.8 167.4 166.9 166.4 165.9 165.4 165 163 163 164.3 165.6 166.8 167.9 168.1 168.2 168.4 167.3 167.5 167 166.2 165.3 164.5 163.7 162.8 162.4 162.4 162.5 162.5 162.1 161.6 161.1 161.1 160.4 160 159.8 158.8 158 157.5 156.7 155.7 155 154.4 153.5 152.5 151.5 150.5 149.7 148.8 148 147.2 144.5 141.6 139.2 142.4 146.1 148.1 149.7 149.7 149.9 149.4 148.8 148.3 147.7 146.3 146.7 147.6 148 148.4 148.8 149.3 149.4 149.3 149 148.5 147.4 146.5 146.1 145.6 143.9 142.6 142.3 141.8 141.4 141.7 142.2 142 141.8 141.7 141.6 141.5 141.1 140.4 139.3 138 136.6 133.6 131.4 129.2 131.4 134.7 137.3 137.9 138.5 138.5 138.2 137.9 137.4 136.6 135.8 135.1 134.6 133.8 132.4 129.3 130.3 129.3 127.9 126.5 125.1 123.6 120.8 118 119 123 126.3
178.9 177.8 176.8 175.7 171.4 171.9 173.6 175.3 177.1 177.8 177.6 177.3 176.9 176.6 175.6 174.5 171.7 168.7 165.3 160.1 158.6 157.2 156 155.8 156.2 156.4 155.4 153.1 149.2 144.6 138.9 133.6 128.6 125.2 122.6 120.9 118.9 116.8 115 113.2 113 118.2 123.4 126.9 127.9 126.4 124.2 122.1 120.2 120.3 122.3 126.5 133.5 141 148.8 155.2 158.8 160.1 159.8 158.2 154.6 149.5 143.8 141.6 144.4 146.9 149.7 152.2 157.9 160.6 163.7 165 165.8 166.6 167.7 167.9 167.4 166.9 166.4 165.9 165.3 164.7 163.4 163.3 164.7 166 167.4 168.6 168.8 168.8 168.5 167.2 167.3 166.9 165.9 164.9 164 163.1 162.2 161.6 162 162.3 162.5 162.1 161.3 161 161.1 161.1 160.7 159.6 158.6 157.7 157 156.5 156.1 155.4 154.5 153.8 153.3 152.9 152.1 151.8 151 149.5 147.9 146.5 143.7 139.6 139.6 144.1 146.7 148.5 148.7 148.8 148.3 147.3 146.3 145.4 144.6 146 147.7 147.9 148.3 148.8 149.2 149.1 149 148.2 147.3 146.3 144.9 144.5 144.1 142.9 140.7 140.3 139.9 139.5 139.9 140.5 141.1 141 140.8 141.1 140.8 140.3 139.9 138.8 137.5 136.1 133.1 130.2 128.6 129.7 133.3 135.2 136.1 136.7 137.1 136.9 136.5 136.1 135.5 134.9 134.2 133.7 133.5 133.2 129.1 128 129.3 128.6 127 125.6 124 121.3 118 116.7 120.8 124.3
177.7 176.9 175.9 174.9 172 171.6 173.2 174.8 176.5 177.8 177.6 177.4 177.1 176.7 175.6 174.7 173.6 170.7 167.3 164 164.2 164 163.5 161.6 162.2 162.4 160.8 157.8 153.3 147.9 142.1 135.8 130.1 127 124.4 122.1 120.1 118.2 116.2 113.9 111.7 115.4 119.9 123.1 122.7 121.4 120 118 117.6 118.5 120.8 124.4 130.2 137.8 145.7 152.1 154.9 156.3 155.6 153.3 149.5 144.5 139.8 138.8 143.4 149.1 155.4 158.6 162.1 164.5 166.7 167.5 168.2 168.5 168.2 168.1 168 167.5 167 166.6 166.1 164.9 163.8 164 165.1 166.4 167.8 169.1 169.2 168.8 168.2 167.3 167 166.5 165.4 164.3 163.3 162.4 161.5 160.7 161 161.4 162.2 162.5 162 161.8 161.7 161.3 160.6 159.5 158.4 157.4 156.7 156 155.5 155.1 154.4 153.7 153.2 152.8 152.4 151.8 150.7 149.7 148.5 147 145.6 141.1 137.6 138.4 139 146.5 147.6 147.2 146.4 144.8 143.7 142.9 143.5 145.3 147.7 148.1 148.3 148.7 149 148.7 147.9 147 146.2 145 143.6 142.7 142.2 141.1 139.7 138.4 138 137.6 138.1 138.7 139.3 139.9 140.2 140.4 140.2 139.7 139.2 137.9 136.6 135.2 132.8 130 127.6 128.2 131.1 132.9 134.3 134.9 135.4 134.8 134.5 133.8 133.2 132.6 132.1 132.6 132.5 132.2 132 127 133.4 128.9 127.4 125.9 124.2 121.3 117.2 114.8 118.5 122.5
176.4 175.6 174.8 173.6 171.2 171.2 173.1 174.9 176.4 177.8 177.6 177.4 177.2 176.8 175.8 175.1 173.9 172.7 169.3 168.4 168.6 168.7 168.4 166.8 167.4 166.5 164.8 160.9 155.9 150.2 143.9 136.8 131.3 129.6 127.8 125.6 122.5 119.3 117 114.7 112.2 113.8 117.1 117.8 118.2 116.9 116.2 115.4 115.8 116.7 119.5 122.3 127.3 134.7 142.7 149.2 151.7 152.6 151.3 148 143.4 137.9 135.2 140.9 148.2 157.5 161.5 163.9 165.6 167.4 168.5 168.8 168.5 168.3 168 167.7 167.6 168 167.8 167.3 166.8 165 164.1 164.9 166 167.1 168.2 169.5 169.1 168.5 167.9 167.3 166.7 166.1 165 163.9 162.8 161.7 160.8 159.9 160.1 160.5 162.4 162.6 162.5 162.1 161.7 161.3 160.8 159.5 158.3 157.2 156.5 155.8 155.1 154.2 153.2 152.8 152.7 152.4 152.1 151.5 150.6 149.7 148.7 147.4 145.1 141.9 138.2 136.2 136.5 144.3 145.6 145.4 144.8 143.4 141.2 141.2 143.7 145.7 147 148.2 148.4 148.6 148.4 147.6 146.8 145.9 145.6 144.8 142.8 141 140.2 139.2 138.1 137.2 136.3 135.7 136 136.2 136.6 138.2 138.9 139.5 139.6 139.1 138.6 137.3 135.5 134.1 132.1 130.1 127.7 126.6 128.9 130.5 132.2 133 133.6 132.5 132 131.2 130.5 129.9 130.4 130.9 130.9 131.2 130.7 125.6 129.3 128.2 127.4 125.6 124.3 121.5 118 113.6 117.1 120.8
