ncols 200
nrows 82
xllcorner 290000
yllcorner 272300
cellsize 50
416.2 401.6 392.2 388.7 385.9 382.8 380.4 377 375.5 372.8 368.9 365.1 361.6 360.2 359.4 361.1 366.2 375.5 372.5 368.5 354.9 337.5 334.7 317.7 299.3 287.7 282.7 281.2 273.6 268.8 265.3 261.6 257.6 266.2 271.8 278.1 288.4 297 307.1 328.2 344.3 345.7 346.4 354.5 359.4 365.2 364.2 370.4 384.4 402.2 415.7 421.1 417.4 430.5 436.9 438.9 459 472.1 478.4 482.3 481.4 481.2 480.2 473.3 464.5 448.4 430.3 422.5 416.3 408.5 403.5 407.7 417 430.1 440.5 444.9 441.7 429.8 411.9 400 391.8 386.8 382.3 378.6 371.2 362 366.8 383.7 391.4 395.2 399 403.1 405.5 407 409.5 412.4 419.2 426.4 428.6 432.9 434.2 435.1 438.1 440.7 433.2 423.6 410.3 405.7 391.8 387.8 379.4 371.2 366.2 357.1 352 348.2 340.8 331.6 325.1 318.4 312.1 310.2 307.6 304.9 303.9 304.9 305.5 306.7 309 312.3 315.9 322.4 334.6 353.4 381.5 407.7 431.4 449.4 458.6 457.5 452.1 446 440 430.6 422.4 415.7 413.8 408.1 401 392.1 384.2 375.8 368.6 362.2 355.6 348.6 340.5 332.4 326.4 320.2 315 309.8 305.5 301.6 296.1 291.5 282.9 275.2 272.4 273 282.3 301.8 317.4 326 330 334.1 339.2 342.9 345.3 347.7 348.7 346.8 345.6 344 342.8 346.3 354.5 360.3 363.7 364.4 363 360.2 358.7 354.7 351.1 348.7 345.4 347.3 348.9 352.3
438 423 408.6 397.2 389.2 386.3 381.6 378.4 375 371.2 367.7 365.2 362.5 358.1 353.3 351.7 351.9 355 351.8 352 345.8 337.1 331.3 317.4 299.9 287.7 287.4 284.1 278.7 271.8 265.1 262.1 260.3 261.3 270.2 275.4 281.8 291 300.5 319.6 331.5 330.7 334.4 340.2 348.2 354.2 357.1 363.1 377.6 392.7 398.5 402.4 410.6 422.4 429.7 441.8 461 476.6 482.6 486.4 485.4 484.2 483.5 475.8 467.6 447.8 433.2 427.8 419.4 415.4 414.4 424.9 434.5 446.7 453.3 454.9 451.5 442.2 421.5 414.9 407.5 401 392.7 380.9 368.7 369.5 380.3 394.5 400.8 403 404.4 406.4 407.6 409.1 410.2 412.6 415.5 420 421 424.9 425.5 427.3 425.2 422.8 417.4 411.5 407.6 399.6 385.6 377.8 371.1 364.4 357.4 349 341 338.9 332.6 326.5 320.5 314.1 310.6 309 306.5 304.7 304.8 305 305.4 307.4 309.1 312.1 315.9 322.5 334.6 355.7 384.1 410.9 435.9 452.5 458.3 457.7 451.7 442.9 435.5 426.9 421.3 417.4 413.6 408.5 402.4 394.2 385 377.2 369.6 363.2 355.9 348 339.6 331.8 325.7 319.7 315.1 310.4 306.3 302.1 297.6 292.6 285 275.3 272.6 275 288.6 309.8 322.4 328.4 333.6 338.4 344 345.8 348.2 349.2 346.3 345.2 343.9 340.7 342.5 347.4 354.1 357.7 358.6 358.5 360 357.4 353.9 350.3 345.5 342.6 340.7 343.9 345.2 348.4
453.9 441.7 430.8 419.6 408.3 397.3 386.9 380.3 375.9 372.1 369 365.9 362.4 359.2 356 351.4 337.8 337.4 334.4 330.4 328.2 324.4 316.8 304.4 296.7 292.4 291.4 285.8 280.9 275.8 266.6 262.8 260.2 258 268.4 274 278.9 285.9 293.1 311.1 315 320.7 327.1 336.4 344.8 349.1 353.9 359.8 367.8 376.6 379.6 388.9 402.3 405.8 420.5 439.3 461.2 476.1 485.9 486.6 488.4 489.3 485.1 479.3 472.3 451.2 435.7 430.9 423.4 421.9 431.8 441.1 454.7 459.7 464.2 464 460.1 452.7 442.4 432.6 422.7 409.5 392.5 380.3 375.7 382.2 396.5 406.4 409.1 409.8 409.2 409.6 410.2 411.4 412.8 414.4 414 412.7 413 414.1 411 408.8 403.6 400.5 398.5 393 388.6 381.1 370.8 363 356.4 351.2 344.7 337 331.2 328.9 325.1 321.6 315.8 311.6 309.1 307.9 305.9 304.6 304.9 305.4 306.1 307 308.7 311.7 316.3 322.2 335.7 359 387.5 413.6 438.5 455.4 458.1 455.7 448.4 440.9 431.4 424.5 421.2 419 412.5 406.5 400.6 392.1 383.6 376.2 368.6 361.8 353.5 345.6 337.5 330 324.6 319.2 314.5 310.9 306.7 302.6 297.3 291.8 285.2 276.5 272.9 276.2 293.6 314.6 322.9 328.4 335 341.8 345.3 348.2 345.8 344.2 343.8 342.7 339.2 338.4 339.8 344.7 350.1 352.5 352.6 355 358.2 357.4 352.4 348.3 345.3 339.7 334.8 340 341.4 341
463.6 453.7 444.5 432.6 415 403.8 392.5 383.6 378.2 374.2 370.9 367.6 364.1 361.1 357.6 353 343.4 331.2 318.7 319.8 315.4 308.1 302.8 297.9 295.3 295.9 290.5 284.8 280.6 275.6 268.3 263.4 260.5 261.6 268.4 273.1 277.9 283.8 291.2 299 307.2 314.6 324.1 333.5 342.4 347.7 352.6 357.5 361.8 367.7 374 379.9 390.2 402.8 415.4 438.3 464.5 478.1 484.8 488.9 493 491.8 485.5 482.6 475.3 456.9 439.6 434.3 433.5 435.8 447.8 458.9 466.3 472.4 472.8 471.4 465.7 459.8 452.6 442.6 428.1 409.8 394.3 381.9 384.8 396.5 411.4 415.3 416.3 414.7 414.3 414 414.4 415.5 416.4 417.2 414.1 410.7 405.9 399.3 394.8 386 381.5 377.6 373.7 370.1 365.1 359.1 353.6 347 340.3 334.1 330.5 326.9 322.5 321.8 318.3 314.7 311.8 310.1 308.5 306.7 306 304.4 304.2 304.2 305.4 306.7 308.6 311.5 315.8 322.4 340.9 363.7 389.8 416.2 441.6 456.4 457.4 452.5 446.2 437.1 427.1 423 419.9 415 410.5 402.4 396.3 389.5 380.9 373 366.4 358.7 349.6 341.1 333.7 327.3 322.3 317.2 313.3 309.7 306.6 302.2 296.4 290 284.3 277 273.5 274.7 294.1 313.9 320.1 326 335.1 341.1 341.8 342.2 339.6 341.2 339.5 336.6 333.2 334.4 337.2 341 345.2 346.9 347.3 351.8 351 351.8 347.5 344.5 342.9 340.3 333.7 334.8 335.2 335.7
466.3 458.9 449.6 431.5 419.6 406.3 393.6 389.1 383.3 380.6 378 378 375.2 369.7 362.8 357.6 346.5 333.6 327.3 316.4 306.7 303.6 299.8 295.9 292.6 291.4 284.5 281.3 282.5 272.6 268.2 263.4 257.2 264.1 268.8 272.6 276.1 283.5 290.3 296.8 303 302.8 321.9 329 342.5 347 353.7 358.7 364 369.5 376.1 383.8 391.7 405.5 422.9 443.6 466 478.6 485.9 488.6 495.3 490.2 485.4 485.2 478.5 460.7 444.9 441.1 444.9 455 463 472.3 476.6 479.1 479.9 475.5 469.2 463.9 457 446.3 428.4 409.6 395.1 392.5 397.6 412.5 420.2 422.2 421.8 419.6 420.1 420.8 420.1 420 419.7 418.7 414.5 410.9 407 398.1 389.4 377.3 374.1 364.5 355.6 350.9 347.7 343.2 338.8 334.4 330.7 328.4 325.6 323.3 320.1 317.4 314.3 312.6 310.8 309.2 307.6 306.5 305.7 304.7 305.2 305.6 306.9 307.5 308.8 311.8 316.8 326.4 345.7 369.2 394 419.1 443.5 455.7 454 448.2 441.8 432.2 424.5 420.7 414.4 410.2 407.1 399.8 391.8 384.3 376.9 368.3 359.7 352.5 344.1 335.9 329.3 322.5 318.3 313.7 310.3 307.6 305.6 301.9 295.7 290.1 283.3 278.3 274.1 274.2 285.1 308.9 317.6 323.7 329.2 330.2 335 334.1 335.4 335.7 332.2 329.4 327.7 328.9 333.1 336.6 338.8 341.3 344.5 345 344.7 344.8 343.5 341.3 339.8 336.8 330.9 331.5 331.1 333
467.2 460.3 446.9 432 421.8 413.4 408.6 404.8 402 399.4 394.9 395 392.2 387.1 378 366.2 355.5 338.9 326.1 312.7 305.9 300.2 298.2 294.7 291.6 287.3 284.7 278.6 273.3 270.3 266.6 261.2 258.9 261.1 265.9 271.7 275.6 278.3 283.1 291.6 300.5 307.7 314.8 328.3 342.8 351.7 361.1 368 372.8 379.8 386.3 396.3 404.8 418.1 435 455.5 470.8 480.3 485.4 490.2 492.2 483.7 483.3 486 475.2 461.6 456.6 459.8 465.1 471 476.5 481.7 485.5 485.1 482.5 476.3 471.5 466.5 458.2 446.5 427.6 410.8 394.4 398.2 408.8 424.4 426.5 427.9 426.8 424.4 425.3 426.1 425.9 425.7 423.7 419.7 415.8 411.1 407.5 402.1 397 383.9 379.6 375.1 368.5 354.6 345.5 340.8 336.8 333.5 329.8 326.5 324.3 321.3 318.5 315.7 313.4 312.2 310.4 308.9 307.5 306.3 305.4 304.4 305 305.4 308 309.9 310.9 313.1 319.3 331 353.4 376.3 400.7 425.3 446.2 453.5 451.5 444.6 437.3 426.7 423.1 416.9 412 406.3 399.6 394.9 385.9 377.9 369.8 360.1 351 344 336.6 329.6 323.7 317.1 312.8 309.9 307.3 305.8 303.3 299.5 294.6 290 283.7 279.2 275.2 274.6 276.6 291.7 311.6 317.3 320.9 322 324.1 323.7 325.2 326.2 322.8 320.5 319.8 323.1 325 328.3 333.9 338 340.2 339.8 340.1 339.2 338 337.3 335.6 332.8 327.1 327.6 327.6 329.2
466.6 460 442.8 436.5 429 426.2 424.6 422.4 418.7 417.8 416 416.6 416.7 407.4 395.3 374 356.4 337 322.5 311.2 304.9 300.3 294.5 292.2 289.7 286.6 281.1 281.9 278.4 274.9 269.6 264.4 258.9 258.4 267 271.7 276.4 282.1 287.7 293.3 298.5 306.6 317.1 330.7 346.7 364.5 378.5 388.4 396.3 403.6 407.8 410.9 420.6 434.6 450.1 465.7 476.9 482.4 485.2 488.5 483.9 481.8 481.8 481.4 473.5 470.6 472.6 475 479.4 481.1 484.9 488.6 490.1 488 483 477.1 472.7 466.7 457 444.1 425.5 408.7 404.9 404.8 421.9 430.9 432.4 433.1 431.9 430.3 430.4 431.7 431.4 431.1 428 422.3 417.9 420.3 418.5 411.4 400.4 389.2 382.7 378.1 374.6 365.8 351.3 344.7 339.5 333.2 331 328.4 325.4 322.5 320.9 319.4 316.8 314.5 311 308.7 307.3 306.1 304.9 304.1 304.9 307 308.5 310.6 312.4 315.7 324.6 341.6 364.3 386.6 409.6 432.5 450.1 454.8 451.7 443.1 433.7 425.9 419.3 411.5 405.7 399.9 390.4 383.5 376.4 368.6 359.2 350.6 342 334.6 328.1 321.9 315.5 311.7 308.7 306.5 304.8 303.5 300.8 296.1 291.3 287.2 283.2 280.1 276.7 275.4 276.2 278.7 299.6 309.2 309.6 313.7 315.5 315.8 312.6 305.3 310.6 312.2 314.4 316.8 319 324.7 330.3 332.7 335 335.7 335.6 334.1 332.4 331.9 331.4 326 323.8 323.5 324 325.1
465.1 454.1 447.4 444.8 441.2 442.1 442.5 441.1 441.6 443 441.4 440.6 435.7 419.8 399.4 373.4 353.1 337.5 320.6 309 304.3 300.3 297.4 294.6 291.3 287.2 285.2 282.6 279.4 276.6 272.6 266.6 260.8 255.1 267.1 271.5 275.8 281.2 288.4 294.6 300.7 308.5 320.2 335.2 356.4 378.5 390.5 402.1 411.4 419.1 430 434.4 440 451.5 461.5 473.5 479.8 482.5 483.5 482.2 480.1 480 479.5 475.7 473 476.9 481.5 485 486.4 488.5 490.2 490.8 490.3 487 481.7 476.9 471.5 463.6 454.3 438.8 422.3 409.3 412.8 416.2 433.9 437.7 438.1 438.3 437.2 435.7 436.4 436 435.9 435 430.7 425.1 428.4 433.3 433.7 428.1 418.6 401.8 389.5 381.2 379.2 371.1 355.3 348.9 342.7 336.8 334.4 331.9 329.9 328.5 325.5 323.8 322.8 319.5 314 307.8 306.4 305.3 304.1 303.7 305.3 306.3 308.9 311.9 314 319.4 334.9 354.5 376.3 398.2 419.5 440.4 455.1 455.2 449.6 438.8 428.4 426.2 420.5 411.6 401.8 386.6 379.6 373.7 366.2 355.9 349.5 341 332.7 325.7 319 315 310.7 307.6 305.8 303.9 302.6 301.5 298.3 294.5 290.1 287.3 283.1 278.4 277.7 275.6 276.7 278.4 288.2 300.1 303.2 309.5 311.4 305.8 309.8 315.2 318.7 319.3 318.9 317.9 316.9 321.7 324.8 328.3 329.2 331 331.2 329.4 327.2 326.1 323.9 321.7 319.9 318.2 318.9 320.3
461.6 454.8 455.4 453.6 454.4 455.2 456.8 458.3 460.4 461.2 461.1 452.6 438.6 423.4 393.6 369.2 349.6 334.4 315.9 308.6 304.3 300.5 297.7 295 292.3 289 286.6 283.4 279.9 276.3 269.2 265 260.7 254.7 264.6 271.7 277.9 283.2 289.5 295.1 302.3 311.7 328.6 345.9 368 391.3 404.8 417.8 426.5 438.7 441.2 444.8 453.5 459.8 468.7 476.2 480.2 480.4 480.5 480 478.4 475.8 474.1 472.1 473.5 480.6 486 488.8 490.8 491.2 491 490.3 487.7 484.5 478.9 473.6 468.2 459.5 449.6 435.6 417.8 417.6 419.4 428.5 439.9 443.1 443.7 443.2 442.2 441.6 441.5 441 440.9 438.8 434.2 434 440.9 445.1 445.8 439.9 433.8 421.3 403.3 389.5 383.4 377.5 363.6 355.8 349.4 345.1 343.1 341 341 338.1 336.6 332 328.6 324.5 315.1 306.5 305.3 304.4 303.3 302.4 304 305.9 308.5 311.2 316.6 329.6 349.2 368.3 389.9 411.3 429.1 442.4 452.1 449.2 442.3 432.9 429.9 427.2 422.7 415 402.7 384.4 364.7 359.9 352.4 347.7 343 331.8 325.9 319 313.5 310.8 307.7 304.9 303.7 301.4 297.5 298.4 296.8 293.7 290.3 288 282.1 280.1 278.3 276.2 277.8 279.6 282.1 291.5 298.6 302.9 292.5 300.5 311.6 316.5 319.7 321.2 321.6 321.9 321.3 326.1 327.7 327.6 327.3 328.7 328.6 326.1 324.2 323.8 320.7 319.2 315.6 316.8 314.8 315.9
458.5 459.8 461.2 461.6 462.8 464 465.9 467.1 468.9 471.9 468.4 457.1 443.6 420.1 389.4 366.1 347.8 331.7 314.2 307.8 304.2 301.1 297.7 295 292.6 289 286.8 283.9 280 275.5 270.2 263.4 259.5 256.9 262.5 272 278.7 284.3 289.4 297.4 305.2 319.2 336.7 354.7 373.1 398 416.2 428.3 441.1 448.2 448.2 457.6 463.7 467.3 472.5 478 478.1 478.3 478.5 477.8 474.7 471.1 470.8 471.7 474.1 481.3 487.9 489.5 492.5 492.4 489.6 489 485.5 480.1 473.2 470.1 462.1 453.9 445.2 430.6 420.7 425.6 431.2 439.7 445.2 446.7 447.6 447.1 445.9 446 445.6 446 445.3 443.2 441.9 444.4 449.1 453.9 452.1 449 442.8 435.5 423.6 403.3 394.4 382.4 378.6 368.9 365.1 365.9 364.3 362.9 360.7 357.3 357.3 345 339.1 331.2 322.1 308.3 304.4 303.5 302.7 301.9 301.4 304.2 306.8 312.3 326.6 346.4 366.8 385 403.8 422.9 434.6 446.1 449.5 448 439.4 434.4 431.2 428.9 422 414.4 400.9 384.5 357.5 344.6 340.2 336.5 329.3 324 318.4 313.7 309.6 307.2 305.8 305.1 301.7 295.7 293.7 290.9 290.5 287.1 287.1 282.1 286.5 284 279.8 276.5 278 279.4 281.2 283 288 292.2 302.5 309.5 313.4 316.8 318.8 320.7 322.5 324.3 325.8 329.1 330.1 331.5 331.4 329.4 328.5 326.9 325.3 324.2 323.5 321.7 319.1 316 312.3 313.6
459 462.2 462.7 465.5 466 466.4 467.8 471.8 474.8 473.2 466.4 458 439.9 413.9 387.2 364.3 344.2 328.8 312.7 309.1 304.9 302 299.1 295.1 292.4 289.2 287.2 284 280.6 274 268.7 261.6 259.7 256.3 264 272.2 279.7 286.4 292.7 300.4 311.5 325.5 345.3 363.4 377.8 396.6 413.5 429.7 448.5 452.7 459.3 466.3 468.2 470.1 475.7 477.3 476.6 476.1 476.3 475.3 469.6 468.6 469.4 471.3 475.5 481.9 488.1 490.8 491.9 490.4 488.7 486.5 482.3 474.1 470 462 452.9 448.8 442.3 428.5 429.9 434.8 440.7 446.7 449.7 450.2 451.2 450.3 449.4 449.8 449.7 450.2 449.1 447.7 448.4 452.1 455.6 458.8 458.8 457.1 452 447.3 438.5 424 414.3 403.1 399.5 396.4 395.4 393.7 391.9 390.6 387.4 383 374.8 358.5 347.8 337.7 326.2 312.8 304 302.7 302 301.4 300.7 302.3 305.2 314.7 334.7 353.6 375.3 395.8 413.8 424.8 433.3 443 444.7 442.2 439 434.6 432.5 427.8 422.6 413.4 399.5 381 360.1 338.7 331.5 330 324.9 319.6 315.8 312.8 308.6 304.5 304.1 301.6 300.8 299.9 297.1 296.6 294.8 291.4 290.2 288.7 286.5 282.6 276.9 277.1 278.7 280 281.6 284 292.6 301 305 310.8 314.4 316.2 318.2 320.7 323 325.6 328.6 331.6 333.3 334.2 333.9 332 330.4 329.4 327.8 327 325.3 322.2 319 315.3 311.6 310.6
450.2 456.5 461 463.7 465 466.2 468.6 473.1 474.1 469.7 465.3 454.3 435.5 413.6 385.7 361.6 342.5 325.7 312.8 308.7 305.5 301.8 298.6 295.4 292.6 289.7 287.5 284.7 278.5 273 267.8 262 257.7 253.3 266.4 272.3 279.6 286.4 295.1 306.2 322 339.4 347.9 362.2 377.1 393 410.1 430 449.2 456.8 465.3 470.2 470.9 473.7 477 476.2 475.8 474.5 472.8 469.3 467.5 467.2 469.1 471.8 478.2 485.3 489.3 491.6 491.9 490.5 488.6 486.1 480.2 471.8 461.6 455.8 451.3 447.2 439.7 435.4 440.2 441 446 449.7 452.5 453.8 454.5 453 451.6 452.4 453.1 452.9 452.3 452.7 453.6 457.8 460.2 461.1 461.1 460.3 459.9 455 449.4 443.2 434.6 431.6 428.7 426.2 424.1 421.3 417.9 414.2 407 399 388.3 371.3 353.9 346.2 330 315.1 305.9 302.3 301.5 301.1 299.7 300.5 303.3 311.7 334.5 355.5 378.8 398.7 411.4 419.4 426.2 433.9 436.8 438.2 436.6 434.3 428.8 424.8 419.3 410.7 397.2 379 358.2 338.7 328.6 324.1 321.6 317.4 313.4 310.8 307.2 303.3 302.1 302 302.8 300.4 298.9 298.7 296.2 293.9 291.6 289 284.3 279.9 277.3 277.2 278.6 280.6 282.8 290.8 299.8 302.3 307.2 310.4 313.9 315.9 318.4 321 323.4 326.5 330.7 334.8 336.8 338 336.6 334.3 332.6 332.2 331 330.7 329.2 324 318.9 314.9 311.1 309
425.4 445.5 455.2 459 461.8 464.1 468.3 471.6 470.8 468.2 464 450.2 436.7 415.3 386.8 361.3 342.8 325.5 314.8 310.3 306.7 303.6 299.4 296.1 293.8 289.9 286.2 283.2 277.2 271.8 266.7 260.1 256.4 253.4 266.1 271.6 280.6 289.8 301.5 317.3 336 354.1 372.5 383.1 391.3 402.4 416.6 435.8 449.3 461.4 470.8 471.9 473.6 475.4 476 475.2 474.9 473.1 470.1 466.7 465.8 466 469.4 475.9 482 487.6 490.5 492.4 492.3 490.1 487.7 484.4 477 471.9 466.9 461 457.2 453.5 450.4 448.8 446.6 447.3 449.8 452.9 454.2 455.8 456.4 454.6 453.9 455 455.2 454.7 455 455.2 457.6 459.8 461.5 462.1 463.7 464.6 464.3 461.5 459.1 455.6 452.4 451.4 447.4 444.9 441.8 436.3 431.9 426.5 419 409.8 398.1 378.7 355.4 349.6 330.8 314.9 306.7 303.3 300.9 300.1 299.1 299.6 302.1 308.7 328.8 349.8 370.2 387.3 401.7 410.5 418 423.7 427.8 431.2 432.5 430.3 426.8 422.5 417.3 406.8 392.8 375 354.6 336.8 324.4 319.2 318.1 314.5 310.9 308.7 306.5 306.1 306.3 304.9 302.8 301 300.4 299.7 298.1 295.1 292.5 289.8 286.4 279.4 277.5 277.6 279.8 282 287.1 287.7 290.6 303.7 308.2 311.7 314 316.6 318.7 321.3 323.6 327.3 332 336.7 340.5 341.5 339.4 336.5 335.1 336.1 334.8 333 329.7 326.1 320 313.7 310.2 308.3
406.3 427.7 441.3 452 457.1 460.2 463.8 465.3 464.6 465.6 460 448.3 433.9 414.5 386.8 364.4 347.2 330.8 319.6 312.2 307.2 304.5 300.6 297.6 294.7 290.8 285.1 280.6 277.3 271.3 265.6 258.8 255.7 261.2 266.8 273.7 281.4 291 308.3 327.6 346 368.3 383.7 396 406.8 419.3 431.4 443.2 454.4 464.9 471.5 474.9 475.9 475.7 474.7 475 474.2 471.2 467.3 464.9 464.5 465.8 469 477.6 484.3 488.2 491.1 492.8 491.6 489.6 487.1 482.2 475.4 470.6 465.4 461 457.9 454.3 453.1 452.2 452.1 451.7 452.7 455 456.2 457.8 458.3 456.5 455.8 456.3 456.4 456.1 456.6 456.7 460.3 462.2 463 464.2 466.5 466.5 466.6 467.9 468.4 465.7 463.2 460.3 461 454.7 450.9 446.7 441.8 435.5 428 417.6 404.3 383.1 359.2 349.6 329.7 315.9 308.3 304.2 301 299.7 299 298.9 301.2 304.6 319 336.7 357 374.4 386.6 399.5 408.2 412.7 416.7 421.9 426.6 426.5 423.8 419.9 409.4 399.8 385.8 367.3 347.2 329.1 319.4 316.9 314.6 312.5 310.9 309.3 308 309.5 309 306 304.5 303.1 301.4 300.7 299.9 297.3 294.3 290.2 286 281.3 277.4 278 282.3 285.4 291 297.6 301.9 297.7 307 310.7 314.4 316.1 318.9 321.6 325.7 329.8 333.5 338.3 342.3 344.8 343.8 342.6 340.3 338.9 335.7 331.9 328.7 325.5 318.9 313.7 311 308.9
380.3 401 420.2 439.2 449.9 452.6 450.6 452.3 458.1 458.4 453.2 444.9 430.6 411.2 388.9 373.1 355.2 338.2 326.4 313.4 309.2 305.3 301.8 298.3 294.6 288.7 284 279.3 275.1 270.3 264.9 257.3 253.3 261.4 267.5 275 282.3 296.6 315.9 337.4 359.7 378 389 403.7 416.1 428.4 439.8 445.8 456.7 468.5 472.5 475.9 476.9 474.3 475.4 475.3 474 468 464.5 463.2 463.3 465.1 467.8 476.1 483 486.3 491.1 491.6 489.9 488.3 484.3 479.4 471.1 466.2 463.4 460.4 456.1 454.5 454.6 454.5 454 454.4 454.9 456.3 458 460 459.8 458 457.2 457.2 456.9 457 457.1 457.6 460.3 462.5 464.6 465.4 467.7 468.4 470.2 473.9 473 470.6 469.5 470.2 468.8 464.2 458.2 453.4 448.2 441.5 432.1 419.9 406.2 388.4 362.3 350.1 326.4 315.6 308.8 304.1 301.3 298.9 298.2 297.6 299.4 301.8 306.4 323.1 340.8 358.7 369.4 381.1 393.1 400.7 402.1 409.5 416.5 419.1 421.6 417.2 406.5 393.3 376.5 358.8 338 321.4 315.6 313.8 312.6 312 311.1 310.6 311.1 311.2 309.5 307.8 305.9 305.3 303.5 301.8 300.8 299 295.7 289.6 284.7 280.4 278 279 283 286.9 292.8 300.3 303.5 306.1 305 307.4 311.7 316.4 319.8 323.7 327.8 332.3 337.3 340.8 343.7 347.1 347.1 346.2 343.8 338.9 333.7 330.2 326.2 323.7 317.8 315.1 312.9 310.2
355 371.8 393.9 416.6 437.6 439.8 436.2 440.8 443.7 447.1 444.7 437.7 425.1 409.6 398.4 383.1 368.6 350.8 337.4 323.9 314.3 308.1 303.2 300.7 297.5 291.5 284.7 276.8 272.7 268.5 261.5 255.8 255.9 261.8 268.7 272.6 282.9 300.9 325 345.7 369.1 381.4 395.7 406.8 417.6 430 438.9 446.7 459.5 468.8 472.5 476.3 474.2 474 475.4 475.3 471.3 464 462.3 462.3 462.1 463.7 467.3 473 479.1 486.2 489.7 488.9 488.3 483.8 480.1 473.8 466.9 464 460.9 456.8 455.9 453.6 454.4 455.2 456 457.1 456.4 457.3 459.5 461.1 460.2 458.7 458.2 457.7 457.8 457.8 457.7 458.7 460.3 463.1 464.5 465.9 469 470.2 470.6 473.3 473.3 475.6 477.7 475.5 473.1 467 462.9 457.4 450.7 442.7 432.1 419.2 405.1 385.4 363.7 340.7 326.8 319 309.1 305.1 301.5 299.3 298 297.1 297.3 298.9 300.9 306.5 320.3 337.3 350.6 361.5 372.1 382.9 389.7 395.8 401.3 411.8 413.8 407.8 396.9 382.5 366.5 348.3 328.7 317.2 313.9 311.4 310.5 310.2 310.6 311.9 312.7 311.9 311 309.6 307.3 305.4 304.1 303.6 302.5 300 296.1 290 283.8 278.6 277.7 278.8 283.1 290.6 295.3 299.2 302.6 306.3 307.7 311 315.6 320.1 323.9 327.3 331.7 336 340.8 343.9 347.3 349.4 349.3 347.3 344.2 339.5 333.2 327 322.5 320.8 317 316 314.2 310.3
332.8 347.9 367.9 391.7 420.4 423.1 423.3 423.9 429.1 432.7 432.9 429 421 418.7 406.9 395 379.5 359.9 348.9 335.5 324.7 317.6 308.5 301.6 297.9 294 287.4 278.1 272.5 266.6 259.1 255.1 258.5 263.1 266.7 273.2 284 301.1 327.3 349.4 368.7 379.7 389.9 399.9 411.3 419.5 429.4 442.7 457.4 467.1 473.5 474.9 472.9 474.5 474.9 473.4 466.8 462.1 460.8 460.8 460.3 462.2 465.9 470.8 478.1 484.7 485 485.6 482.8 478.2 474.6 468.8 463.8 462 457.5 455.1 453 452.2 453.8 454.8 456.4 456.9 456.7 458.3 460.3 460 460 459.8 458.3 458.5 458.6 458.5 458.1 458.9 460.5 461.7 464 466 470.9 472.9 473.1 476.7 477.8 478.5 480.2 477.2 474.1 469.2 463.9 458.4 450.4 441.4 428.4 414.7 398.2 377 356.1 336.7 324.4 317 310.3 305.8 304.3 300.7 298.6 297.3 296.5 298.4 298.7 300.1 304.8 314.7 328.5 339.5 349.1 359.5 368.6 375.3 386.4 397.1 401.3 397.8 387.6 374.6 356.9 338.3 321.1 315 312.9 309.7 308.4 308.8 310.5 313.2 313.8 313.3 311.9 311.2 309.6 307.3 305.5 305.6 304.3 301 296.4 290.5 283 279.2 278.1 279.3 285.3 294.6 297.4 303 305.6 307.9 310.4 314.8 318.9 323.5 327 330.2 334.5 339.1 343.2 345.5 349.1 350.3 348.8 345.9 341.2 335.7 328.5 322.3 318.3 315.5 311.6 311.3 312.6 309
316.5 329 346.9 367.2 389.7 404 403.9 406.3 412 417.3 420.2 420.4 419.6 422.2 416.5 405.3 388.4 369.6 357.1 344.4 335.8 328.2 317.1 305.4 299.3 294.7 288.9 279.8 271.9 265.9 258.9 254.4 258.2 261.7 265.4 272.1 282 294.8 319.6 345.5 359.7 370.3 378.1 386.7 394.6 396.8 413.9 435.1 453.4 466.8 471.6 470.7 472.7 474.3 473.7 469.4 463.8 460.7 459.6 459.4 458.9 459.9 462.6 466.5 476.4 478.5 480.2 479.4 476 471.2 469.1 463.8 460 457 455.1 452.2 450.3 450.4 451.6 453.6 455 456.1 456.9 459.2 459.3 459.5 460.1 460 459.4 458.9 458.9 459.1 457.9 458.1 459.4 460.4 461.6 463.6 470.1 472 472.3 476 476.1 477.1 479.3 475.7 472.7 467.5 462.6 455.7 447.5 435.9 421.3 404.6 385.7 365.6 346 330.8 319.7 312.5 309.1 305.9 303.2 301.4 299.1 297.6 296.3 296.3 296.7 297.7 299.7 302.5 310.2 319.6 327.2 338.2 349.6 363 374.3 386.8 396.5 395 383.6 368.1 352.1 334.7 320 313.9 310.4 308.2 306.4 307.1 311.2 314.4 314.3 313.2 313.4 312.3 310.6 308.4 306.9 305.9 304.4 300.9 296.7 291.1 284.5 278.6 278.4 281.2 292.8 298 301.9 306.2 308.6 310.7 314.3 318.7 322.6 325.9 328.5 332.1 336.5 340.5 343.1 345.2 348.2 348.7 345.8 342 336.1 330.6 323.7 316.1 313.5 311.7 308 307.3 307.1 305.5
305.2 310.4 324.8 339.6 358.9 376.7 376 385.1 392.3 399.3 404.8 411.3 419.8 422.5 417.1 407.2 392.7 376.2 365.7 356.9 350.6 341.6 328.9 317.2 308.2 299.9 289.2 279.5 270 265.7 261 254.9 255.1 259.1 261.1 267.3 279.1 294.3 314 335.7 346.9 354.7 360.9 369.2 373.5 386.9 405.9 429.5 450.7 463.4 466.8 469.9 471.9 473.3 470.4 465.4 461.5 459.7 458.9 458.5 456.9 457 457.6 461.6 470.6 472.1 474.7 471.9 468.3 464.8 461.8 458.9 456.1 453.5 452.7 449.9 448.5 448.7 449.9 451.5 453.2 456.1 457.4 458.6 458.6 460 460.3 460 459.3 458.6 458.7 458.7 457.9 457.1 457.7 458.7 460 461 462.4 463.8 469 470.7 471.4 474.1 473.7 472.6 468.8 464.2 458 451.6 441.5 427.2 408.9 390.9 368.4 349.6 337.7 323.1 315.8 311.5 308.1 306.3 303.7 301.4 300 297.9 296.6 295.4 295.1 294.8 296 298.2 300.4 304.5 311.5 321.4 330.6 341.7 356 369.4 387.7 390.4 379 366 348.5 331.9 320 314.8 310.7 306.3 305.2 305.8 310.6 313.1 314.3 314.4 314.3 313.2 311.6 310.9 308.2 305.5 303.8 302.2 298.6 292.9 286.5 279.7 278.5 289.3 297.4 301.2 306 309.3 311.1 313.7 318.2 322.5 325 327 329.3 332.7 336.8 339.8 341.4 342.8 344.7 344.4 341.2 336.6 330.9 324.1 317 311.9 308.3 308.2 305.2 303.2 302.4 302.4
299.6 302.7 308.6 319.1 329.9 341.3 346.7 358.4 370.7 377.6 387.9 404.9 416.4 420.8 418.1 408.5 395.1 382.9 373.7 372.4 365.8 355.1 343.2 331.7 319 306.4 295.7 281.4 269.8 266.9 262.6 256.8 253 256.9 257.9 263.3 275.2 288.5 306 321 332.1 338 340 349.1 366.2 385.5 403.8 426.6 448.6 460.8 465.7 469.8 471.6 472.7 468.8 463.8 460.7 459.8 459.1 457.2 455.5 453.8 453.5 455.4 460.6 465.7 464.1 463.2 460.4 457.7 455.2 454.1 451.5 450.7 449 444.6 446.1 447.3 448.9 450.7 453.6 456.5 457.5 457.9 458.2 459.8 460 459.6 458.9 458.7 457.8 457.3 457.3 456.2 456.1 456.8 458.1 459.3 459.7 460.4 462.4 466.4 468.2 470.1 472.8 469.2 465.7 459.5 454.4 444.5 431.2 414.8 398.5 376 356.9 343.7 329.1 321.2 321.4 320.5 320.6 313 308.2 305.4 301.2 298.6 296.2 295.2 294.6 294.1 294.6 295.4 297.1 300 302.8 306.7 312.2 321.4 334.2 348.9 366 385.6 383.4 362.7 341.6 325.6 316.7 313 309.4 305 303.1 303.8 308.3 311.8 314.5 315.1 315.2 314.1 313.1 312 309.1 304.5 302.7 301.5 298.8 295.4 288.4 281.4 279 288.2 298.7 304.8 308.7 312 313.9 317.6 321 323.7 325.4 326.5 328.9 333 335.7 337.4 338.3 338.9 339.9 338.5 334.8 329.7 324.2 316.4 310.3 307.7 305.3 304 302.2 299.6 298.7 299.2
299.9 297.7 301.8 305.4 311.3 317.3 323.3 333.5 346.1 357.2 377.2 395.8 409.5 415.4 415.4 407.4 395.9 388.8 382.7 384.4 381.2 371.5 358.4 345.6 331.1 317.7 304.5 285.9 273.4 268.7 262.9 257.8 250.6 254.5 257.3 262.2 272 284 299.1 308.6 317.6 323 334.4 350.3 368.4 387 406.8 426.6 447.9 460.2 467.3 470.1 472.2 471.9 467.3 463.3 460.5 458.8 457.8 456.3 453.9 452.3 450.9 450 450.5 451.4 453.3 452.7 448.3 448.8 448.3 446.6 445.4 445 442.6 441.9 444 445.5 447.8 451 454.1 456.7 457.5 458.2 458.9 460 460.1 460.1 460.2 458.6 457.8 456.5 455.8 454.4 454 454.9 456.1 456.8 456.6 457.8 459.8 461.8 462.7 466.6 465.6 463.8 460.5 455.7 447.8 433.5 419.7 403.4 385.3 371.3 354.9 337.5 336.3 339.1 341.8 341.6 341.9 331.8 316.5 308.7 304.2 299.2 295.7 294.7 294.2 293.8 293.3 293.7 294.8 296.9 298.8 301.8 302.8 305.5 316.1 329.2 350.1 370 377.6 356.1 334.9 321.2 312.9 308.7 306.7 303.4 301.5 302.4 307 312.5 314.8 315.8 316.1 315.7 314 312.3 309.6 304.5 300.8 299.2 297.8 294.8 286.7 280.9 279.4 283.3 301 306 312.9 314.2 317.2 320.6 322.8 323.9 324.8 326.1 328.2 331.5 332.9 333.3 333.4 333.5 333.8 331.3 327.2 321.8 314.9 309.4 305.5 304.4 301.7 300.4 298.6 296.5 295.9 295.5
302.2 299.4 296 294.2 299.2 302.5 306.1 317 327 343 364.5 383.2 398.4 407.7 409.3 401.7 396.4 392.4 391.9 394.9 392.5 384 373.8 355.6 339.2 325.4 313 290 279.5 272.3 265.9 258.7 253.5 250.1 256.6 261.7 270.4 281.1 295.3 298.2 310.8 321.6 333.5 352.5 373.1 393.3 412.6 432.7 448.9 461.2 469.8 472.1 471.9 471.1 466.3 463 460.6 458.2 456.1 454.4 453.3 451.7 450 448.8 447.2 447.1 446.7 445.9 444.6 445.3 442.3 441.1 440.2 439.6 439 439.5 441.6 443.6 448.2 451.2 455.6 457 457.7 457.9 459 459.7 460.1 460.7 459.8 459.1 458.1 457.3 455.8 454.8 453.1 453 453.9 454.7 454.4 454.4 454.6 454.5 456.2 460.8 460.6 460.6 458.5 452.8 444.7 432.6 413.9 392.6 378.3 359.3 350.2 355.1 359.5 361.1 364.6 362.9 360.8 350.8 335.4 319.3 307.5 302.5 295.9 294.4 294 293.5 292.9 292.5 292.5 293.7 295.5 297.6 298.4 300.6 303.1 311 326.1 342.1 354.1 344.7 325.2 314.2 308.4 305.8 303.2 301 298.4 301.6 306.7 311.1 315.2 316.8 316.5 315.7 313.9 311.8 309.3 304.8 301.7 299.4 295.3 289.8 285.8 280.9 279.3 285.2 304.4 308 315.4 316.6 319.5 321.6 322.1 322.9 322.9 323.4 325.4 326.8 327.4 327.5 326.9 326.8 325.1 323.2 319.5 313.8 307.4 303.9 301.3 299.8 298.7 296.7 294.4 292.2 292.2 291.3
306.1 304.3 303.6 297.1 293 292.7 294 305.4 313.9 325.4 345.6 363.6 380.9 391 396.3 395 394.2 393.9 396.6 401 397.4 390 375.3 356.4 342.6 330.3 316.2 294.5 279.6 275.1 267.8 261.4 254.4 251.9 256.5 261.3 269 280.9 291.5 296.3 308.4 319.5 333.2 354 377.6 399.1 419.6 442.8 456.9 467.9 473.2 472.8 473.6 469.3 466 462.9 460.2 457.7 454.7 453.4 452.4 451.2 450.1 448.4 446.1 445 444.3 442.9 443 442.4 441.2 439.2 438.5 437.4 437.5 438.2 439.9 444 448 452 456 457.6 458.1 458.5 460.4 461 462.1 462.1 461.6 460.8 460.1 459 457.1 454.7 453 451.4 451.7 452.4 452.4 452.1 453 453.8 454.5 456.9 459.5 458.6 455.6 450.6 444.2 436.2 423.4 403.5 380.7 369.3 375.6 378.8 378.8 383.5 385.6 384.7 382.5 372.6 358.2 339.8 322.1 308.3 298.9 296.1 294.6 293.2 292.6 292 291.8 291.8 292.3 293.7 294.5 295.8 297 299.4 305.8 318.8 329.7 330.8 316.3 306.2 303.2 301.9 300.5 298.6 295.2 301.7 306.9 310.9 315.3 317.4 316.4 315 313 311 307.4 304.1 302.4 299.9 296.4 289.6 285.5 282.5 279.4 286.2 306.1 310.4 315.3 317.5 320.3 320.7 320.5 319.9 318.9 320.1 320.7 321.2 321.3 321.2 319.8 318.9 318 315 308.9 305.4 301.4 298.9 297.1 296.9 296.1 293.5 292.4 290.9 290.6 291.3
315.4 309.7 307.3 303.6 299.5 294.1 291 295.4 303.3 310.9 323.7 339.2 355.7 366.5 377.2 383.9 384.7 391 395.6 401.6 395.3 388.8 366.8 350.2 337.8 326.7 313.8 295.8 282.7 276.3 269.3 263.2 255.6 251.6 253.5 260 269.1 278.8 286.9 294.1 305.2 315.8 335.7 357.8 381.4 407.4 428 449 459.3 466.8 472.5 473.6 473.1 468.2 464.7 463.1 459.2 455.7 453.9 453.2 452.5 451.5 450.4 448.9 447.2 445.9 444.8 443.9 442.5 441.8 441.3 440.3 439.4 437.9 435.6 436 436.7 444.2 448 453.4 455.8 457.6 458.2 459.5 460.9 461.2 463.8 463.4 463.4 462.7 462 461 458.9 455.6 453.1 451.3 449.9 450 450.3 450.3 450.5 451.1 451.9 455.6 458.8 456.1 454.5 451.1 446.5 439.3 429.1 409.6 395.3 397 398.8 398.6 397.4 404.1 405.5 405.5 404.8 395.4 377.5 353.8 331.2 318.6 307.3 301.5 298.3 296.2 294.2 292.3 291.7 291.2 290.7 290.5 291.7 291.3 292.3 293.3 295.1 299 308.5 310 306.2 300 297.7 297.8 296.9 294.4 293.7 299.8 304.6 309.6 313.7 315.9 315.5 313.7 312 310 307 304.2 304.1 303.2 298.6 290.2 287.8 287.8 285.1 288.3 307.6 312.7 315.3 317.2 318.6 318.8 317.6 316.8 315.9 315.8 315.3 312.4 315.5 314 311.8 310.4 308.2 304.8 301.4 298.6 296.6 295.4 295.4 294.8 292.3 290.3 290.4 289.7 289.7 290.6
325.3 314.9 311.8 305.5 301.2 298.3 290.6 289.6 295.2 298.6 305.4 315.7 326 337.1 352.2 363.3 372.6 381.7 390.3 393.7 389 374.8 358.5 343.7 329.4 320.1 307.5 291.2 284.9 276.7 270.3 266.8 260.9 250.1 253.5 259.4 267.3 277.5 284 293.8 302.4 313.6 330.5 358.4 382.9 410.4 432.4 450.1 460.3 464.7 468.4 473.8 470.8 467.5 464.5 462.5 459 456.1 454.6 453.6 452.8 451.8 450.2 448.7 447.9 446.7 445.6 444.2 443.3 442.4 441.5 440.9 439.8 438.5 435.9 434.4 435.8 441.1 449.3 453.8 456 457.6 458.2 460.5 461.7 463 464.6 465 465.5 464.8 465 463.2 460.4 456.7 453.7 452.1 449.3 446.8 447.5 448 448.5 448.4 449 454.2 457.9 455.8 455.4 453 448.7 441.4 434.6 422.6 417.7 417.9 413.9 414.6 413.9 421.7 423.3 423.3 424.7 413.6 392.2 363.8 342.5 322.2 313.8 308 304.2 301.1 297.7 295 292.2 291.4 290.6 289.2 290.1 289.6 289.6 289.9 290.3 292.2 292.5 292.4 293.1 291.2 290.9 291.6 292.6 292.6 293.2 297.2 300.9 305 308.2 311.5 308.3 310.7 311 309.4 306.5 305.2 304.5 303.1 297.5 291 293 293 292.3 294.7 304.2 314.7 314.5 315.9 316.8 316.9 315.6 314.3 312.7 311.6 311.4 311.2 310.2 309.5 307.8 305.7 303.2 299.6 297.2 296 294.8 293.8 292.9 291.6 289.6 288.1 288.7 289.9 290.4 292.9
352.5 332.2 320.1 312.9 306.1 302.9 299 290 289.8 292.1 294.3 297.7 305.8 316.9 327 339.6 355.8 366.5 374.9 378.1 378.9 362.8 349.8 334.8 322 311.5 299.7 290.4 284.7 277.6 271.2 266.9 264.5 248.6 252.6 257.9 265.4 275.2 283.6 290.5 298.5 311.5 326.5 355.4 383 408.8 430.6 447.6 455.7 460.9 468 472.3 468.9 466.8 464.5 462.8 460.2 458.7 456.6 454.7 454.1 453 451.9 450.2 448.6 447.5 446.3 444.7 444.1 442.4 441.4 440.7 439.7 437.9 437.1 434.4 437 444.7 448.9 454.4 455.5 456.4 458.8 461.4 462.7 464.1 465.7 466 466.6 466.8 467.2 464.3 461.8 458.1 455.9 452.8 449.4 446.7 443.7 445.1 446.2 446.1 445.8 451.9 455.2 454 453.3 452.4 450.3 444.7 437.7 427.2 428.2 430.6 427.5 428 428.4 433.5 435.5 438.8 436.2 429.5 405.8 375.5 352.2 331.9 321.3 315.5 310.7 306 302.3 298 295 293 291 290.6 290.4 289.8 289.2 289.5 289.2 289 289.5 288.5 288.9 288.8 288.3 288.6 289.9 291 292 293.3 296.9 300.3 302.1 304.2 306.4 307.2 307.5 307.6 306.9 304.2 302.3 300.1 294.7 293 295.4 295.9 296.9 298.9 308.9 314.3 314.7 314.3 314.7 314.8 313.1 311.4 309.6 308.5 308.3 308.2 308.2 307.8 306.9 304.5 301.8 297.9 295.9 294.1 293.8 292.7 288.8 288.5 289.5 289.2 289.5 292.8 296.3 298.8
374.6 351.3 336.7 324.2 314.5 309.6 302.8 297.3 286.1 287.9 287.7 288.2 293 299.7 309.4 319.7 337.2 351.6 357.9 362.7 360 350.9 337.4 322.9 313.3 304.8 295.8 288.1 283.4 278.7 271.4 268.5 266.7 252.8 249 256.6 264.7 272.7 281.4 288.5 295.3 307.6 322.8 350.7 377.9 404.4 423.9 438.9 449.2 459.8 468.3 471.7 468.8 466.3 465.5 464.4 462.8 461.8 461.1 460.4 458.1 456.1 454.4 452.9 450 448.3 446.6 445.3 443.2 442.4 441.4 440.3 438.8 437.3 436.5 432.4 439.2 443.6 448.2 452.8 453.4 455.5 459.2 461.7 463.2 464.8 466 467.3 468.2 468.5 467.9 464.8 462.4 461.8 458.1 454.4 450.4 446.7 444.4 440.7 442.5 443.1 443 446.5 451.2 451.6 452.2 452.3 449.8 446.2 439.3 432.2 436.8 437.1 437.4 434.8 437.2 444.1 443.3 447.5 444.9 441.1 418.9 388.4 363.6 342.9 327.4 321 316.4 313.2 309.9 305.7 300.7 298.1 295.5 293 292.3 290.6 290 289.6 289.4 289 288.1 288.4 288.4 288 288.5 288.4 288.8 289.2 289.8 291.9 294.1 296.5 298.9 299.8 300.7 302.9 307 307.1 305.5 304.5 302.5 298.3 293.9 294.8 296.8 298.5 299.8 302.2 310.3 312.4 312.7 313.1 313.5 312.6 310.1 308.3 306.6 305.3 305.2 304.4 305.5 307.1 306.2 303.1 300.2 297.8 294.5 293 291.5 287.6 287.3 287.4 288.8 288.8 293.9 297.3 299.7 301
389.7 368.7 352.3 338 325 315.7 309.6 302.6 294.3 287.9 281.7 280.6 284.9 289.9 298.2 306.3 316.6 333.9 340.3 343 341 330.8 322.2 312.5 305 297.6 290.6 285.3 281.8 278.1 269 267.9 267.8 252.9 249.7 254.8 262.4 267.7 275.7 283.9 292.1 302.9 318.2 343.9 371 392.4 407.1 431.6 426.3 443.4 468.2 470.5 468.8 468.5 468.6 467.9 466.7 466.8 466.9 466.1 463.2 460.8 458.7 456.4 453.2 450.5 447.4 444.8 443.3 442.1 440.9 440.3 438.5 437.5 436.3 432.6 436.9 439.7 445.3 449.6 451.4 455.1 459.3 462 464.6 465.9 468 468.9 468.6 469.2 467.4 465.5 462.7 461.6 459.1 455 450.5 447.1 445.5 444.4 443 435.7 438.2 441.3 446.8 448 450.7 449.6 447 444 438.6 435.3 439.5 440.4 441.9 440.3 443.5 449.8 448.5 450.5 450.4 449.5 437.4 403.9 375.2 352.9 341.7 332.8 324.3 321.5 320.3 317.6 309.9 303.8 301 297.8 296.2 294.1 292.2 290 289.4 289.7 289 288.5 288.9 288.9 288.3 288.2 287.7 287.8 287.7 290.5 293.8 296.5 297.7 298.2 298.3 299.2 303.9 304.5 303.8 303.6 302 297.5 291.2 291.9 295.5 298.3 299.1 304.8 308.6 309.2 309.3 311.2 311.9 309.6 306.8 305.2 302.6 301.7 301.5 303.9 306.2 306.6 305.3 301 297.6 295.7 292.7 290.3 287.7 287.4 288.4 288.8 289 291.9 297.1 300.2 301.7 303.3
404.5 381.8 364.8 345.4 335.9 327.7 318.5 310.5 300.8 293.6 289.1 284.4 278.4 282.5 288.6 295 300 310.1 319.8 327.9 321.1 315.2 309 303.5 296.3 288.9 285.3 280.8 276.5 270.2 263.6 267 266.2 255.7 249.9 251.8 258.2 262.6 269.7 277.6 285.7 297.2 311.6 336.1 355.5 367.3 384.1 395.8 405.8 437 464.5 467.5 468.5 470.2 472 470.9 471.7 472.4 471.7 470.8 468.1 465.9 463.6 460.8 456.7 452.3 449 446.3 444 442.6 441.9 440.4 439.1 438 436.4 432.5 432.9 436.6 441.1 443.5 450.4 453.8 458.6 462.5 465.4 467.2 469.2 468.4 468.7 468.5 466.7 464.3 464 462.3 459.1 454.5 450 449.4 449.4 447.3 444.4 441.5 433.9 435.6 439.8 443.1 444.4 443.9 441.1 439.1 437 436.6 438.4 438.6 440.1 442.1 445.9 448.7 450.3 454.2 455.4 454.5 448.3 417 391.9 368.5 355.7 346.2 338.5 333.3 337.3 338.2 327.6 316.6 305.8 302.1 300.3 297.4 294.4 292.6 291 290.8 289.7 289.7 289.3 289.6 288.5 288 287.8 287.7 287.6 290 293.5 295.8 296 295.4 295.3 296.3 300.8 302.9 302.6 302.7 300 294.6 289.1 290.2 292.3 293.9 297.9 307.2 308 306.5 306.7 308.3 306.5 305.8 303.7 301.3 299.3 298.9 299.5 303.6 304.8 304.1 303.4 297.4 294.7 288.5 286.8 287 286.9 287.8 288.4 288.7 289.6 293.2 299.2 303.5 304.4 306
418.4 395.3 373.6 355.5 351.1 346.3 334.3 326.2 313.4 302.6 293.3 287.6 281.1 276.7 275.6 284.9 286.6 290.6 296.8 305.4 308 302 298.3 293.9 286.9 283.3 279 274.9 270.9 263.7 262 263.6 265 257.9 251.2 246.9 250.4 257.7 263.2 271.5 283.3 305.1 323.1 338.2 349 362.1 369.7 384.3 410.3 440.2 460.2 466 468 472.9 474.4 474.7 476.1 476.9 476.2 475.6 472.6 471 468.9 464.5 459.3 454.2 450.3 447.3 444.5 442.6 441.5 440.8 439.2 437.9 435.9 432.6 429.6 431.9 435.6 439.8 447.7 452.8 457.9 462.4 465.2 466.9 468 465.4 465.7 466.2 466.6 464.1 463.1 461 457.6 456.2 455.2 453.2 453.2 451 445.6 441.5 436.3 429.6 432.7 437 436.9 436 435.2 435 433.7 433.7 436.7 438.1 438.2 442.7 446.5 447.2 450.7 458.4 457.9 459.7 449.7 429.7 413.5 390.5 374.3 361.9 357.8 358.5 360 359.3 342 327.1 314.5 306.9 305.1 301.7 298.1 294.9 292.9 292.5 292.1 293.1 292.6 292.5 289.8 288.3 288.3 287.4 287.4 289 291.7 293.6 292.8 291.5 291.2 292.7 296.9 300.6 300 300.8 298.8 292.3 287.1 289.2 287.9 291.4 297.9 304.9 305.5 303.5 303.1 304.7 304.5 302.4 299.9 298.2 296.8 297 299.2 300.8 302.8 301.4 299.5 294.6 288.6 286.4 287 286.8 287.5 287.8 288.1 289 289.6 296.9 304.4 308.9 308.6 309.1
429.4 409.4 391 378.7 375.2 368.3 354.7 342.9 328.2 314.2 299 288.5 283 278.6 274.3 276.9 279.2 279.4 281 286.2 288.9 289 286.9 283.2 280 278.4 273.2 270.5 267.3 260.5 259.6 260.4 262 258.3 256.4 253 248.9 249.5 258.5 268.8 282.6 298.1 312.2 324 340 355.6 368.6 394.7 420.1 445.6 459.6 466.1 469.8 474 475.4 477.8 479.3 479.6 479.3 478.1 476.2 474.4 471.5 466.8 460.6 455.8 452 448.4 445.4 443 441.4 440.8 439.6 438.2 436.7 436.5 435.7 428 432.7 438.3 447.7 451.9 457 460.5 464 466.4 466.1 464.7 466.1 464.2 464.4 464.3 464.8 462.6 461.3 459.9 459.4 458 456.1 451.7 446.8 442.2 437.1 432.4 427.5 431.5 432.5 432.8 432.7 432.9 430.3 432.1 435.4 436.8 439 442.5 443.4 445.5 452.4 456.3 458.4 458.7 452.9 445 442.4 426.8 397.7 388.1 385.4 380.7 380.5 369 346.1 333.1 318.9 314.9 311.2 305.4 301.5 298 297.8 296.6 296.9 297.4 298.7 297.2 295.2 290.4 289 290.2 290.3 287.3 288.4 288.8 288.8 287.7 287.5 288.8 292.5 296.4 296.8 299.2 299.4 295.2 287.3 287.6 286.7 291.4 300.7 301.3 299.2 299.6 300.3 301 301.2 298.7 296.8 294.8 293.7 294.6 296.1 297 298.5 297.1 292.9 285.1 285.6 286.2 286.7 286.9 287.1 287.5 288.3 289.3 295.6 302.8 309.4 313.5 317.3 316.2
441.7 423.4 408.7 404.8 398.4 386.9 373.6 361.1 344.8 324.7 307.8 292.3 282.4 279.3 274.6 272.2 270.5 272.4 272.1 274.9 276.3 275.1 273.3 271.8 272 271.2 268.5 266.3 262.7 259.1 257.8 258.4 257.6 255.8 255.2 255.8 251.1 248.4 252.1 265.9 278.3 291.2 298.2 305.5 319 340.2 356.3 380.7 410.3 437.9 459.2 464.4 468.4 472 475.6 477.9 479.7 481.4 480.1 479.4 477.9 476.4 472.8 468 461.6 457.3 453.7 450.3 446.3 443.6 442.1 441.4 440.9 439.9 438.9 439.5 439 426.5 428.8 437.8 446.5 450.8 453.1 458.3 462.2 462.9 463.4 461.3 463.2 464.2 464.3 465.6 464.7 464.3 464 463.1 462.2 460.1 457 452 449.1 442.5 436.7 433 428.3 425 428.9 429.3 429.2 428.4 425.9 429.5 432.3 437.2 436.6 439.5 439 446.2 450.3 454.4 458.1 456 455 450.9 453.6 442.8 424.2 421.2 417.6 410.1 397.9 374.4 355.3 341 326.5 321.3 316.1 315.5 315.6 312.2 310.4 309.4 306 304.1 304.2 301.9 299.1 293.9 292.1 293.6 292.7 291 286.3 286.1 286.2 285.9 285.4 285.3 288.3 291.6 295.5 298.3 298.5 294.8 289.1 286.6 286.4 291.2 299.1 298.3 297.1 297.3 298.4 298.6 297.7 295.8 294.2 292.7 290.2 288.8 290.4 292.3 290.5 284.3 285.1 285.6 286 286.2 286.5 286.5 286.9 289.2 290.5 294.5 300.7 309.2 315.4 323.3 328.8 326.2
453.5 440.3 431.1 427.1 415.7 398.9 385.5 370 350.8 331.4 312.1 292.9 286 282 280.4 275.5 270.8 269.3 267.8 266.6 267.5 267.6 266.4 265.7 265.7 266.7 265.3 262.1 259.8 258.3 257.7 256.6 255.9 254.8 254.2 253.2 252.1 249.7 243.8 257.2 270.4 277.8 285.6 290.2 303.1 322.9 348.4 377.4 408.7 434.5 454.1 459.5 463 467.6 471.8 475.4 477.9 480.8 479.3 478.1 478.6 476.2 472.2 466.9 461.4 457.7 454.2 450.7 447 444.6 443.2 443 442.4 441.3 440.8 440.5 438.7 426.9 429.6 436.4 444.4 447.7 450.1 453.3 457.2 460.1 457.2 459.6 460.6 462.3 466.7 465.7 467.1 466 465.6 464.9 464.4 462.2 456.8 452.5 448.4 443.6 438 434.1 429.7 425.6 423.5 425.2 425.6 425.6 423.8 425 429.7 431.6 431.7 431.7 434.1 439.9 445.8 449.6 452 454.2 457.2 453.7 454.5 453.5 450.5 440.1 436.9 426.4 407.5 387.1 368.2 353.4 334.5 333.1 336.3 337.7 337.7 335.2 330.2 327 322.1 315.6 311.7 308.2 303.7 299.4 296.2 297.3 295 292.6 288.7 287.1 287.2 286.3 286.6 285.1 284.9 292.3 297.2 299.4 298.8 295.2 291.6 289.4 286.2 291.8 297.6 296.4 295.6 295.5 296.6 297.6 296 293.4 291.7 290.1 287.6 286 284 284 283.9 284.8 285.2 285.2 285.9 286 286.2 286.6 289 292 292.5 295.1 306.1 315.8 322.3 336.1 339.9 335.8
464.5 453.2 447.4 438.5 425 407.7 391.6 372.2 350.8 330.6 312 294.5 288.5 288.3 285.5 282.7 278.2 272.1 271 266.6 265.4 264.2 263.6 263.5 263 262.6 260.1 259 258.5 257.4 256.4 255.7 255.2 254.4 254 253.4 252.4 251 248.1 247.2 260.9 267.1 274.2 283.1 295.9 320.7 351.8 378.8 405.5 428.1 445.4 448.9 450.6 458.1 466.3 471.8 475 476.5 476.1 476.8 476.6 474.4 470.6 464.9 460.3 456.8 453 449.5 447.7 445.5 444.7 445.2 443.6 441.9 440.8 440.3 438.7 426.4 426.6 433.4 440 445.1 447.9 450.9 453.3 454 454.3 455.4 457.8 462.2 464.5 467.6 470.2 469.5 469.8 467.9 463.8 460.8 456.2 453.7 449.9 443.2 438.4 434 429.6 425.8 418.1 418.4 421.4 422.2 421.3 422.5 426.7 428.3 428.6 428.4 430.9 435 441 445.8 450.7 455.4 457 457.6 458.2 462.8 457.5 450.8 445.6 438.2 417.4 398.5 383.8 361 355.2 357.9 361.6 365.7 365.8 361.6 354 348.5 342 331.6 324.2 318.2 312 307.1 304.2 302.3 300.3 297.4 293.6 289.9 289.2 289.6 289.2 287.6 284.4 291.7 295.7 298.7 297.8 295.6 293 289.3 287 292.2 293.8 296.7 294.8 293.6 295.4 296.5 294.8 292.4 290.6 287.5 285.2 284.1 283.9 283.4 282.2 284.5 284.4 285.4 285.6 286.1 288.8 292.7 294.5 294.5 295.4 299.9 310.2 319.8 331.7 344.2 348.2 344.9
468.8 461.4 454.5 443.1 427.9 410.9 391.5 369.9 348.2 330.8 313.1 300.5 301.5 302.8 300.8 294 286.1 278.3 275.6 272.2 270.6 267.5 264.1 262.1 262 260.4 259.9 258.8 256.7 256 255.4 254.3 253.5 253.1 252.3 251.1 250.5 251 248.7 247.9 253.1 263.2 270 275.6 288.3 315.1 343.5 367.4 391.1 413.8 429 431.5 432.5 445.1 456.6 466.2 472.2 472.8 472.7 473.6 473.1 471.5 467.2 462 458.3 454.9 450.9 449 447 445.6 446.3 446.4 444.5 442.4 440.8 440.2 438.3 430.2 419.9 428.4 435.1 441.4 444.8 447.1 450.9 450.8 451.3 452.8 457.1 459.7 465.1 469.7 470.4 470.6 470.3 468.3 463.9 459.9 455.9 454 449.7 442.6 437.1 434.1 430.1 426 423 419.8 414.8 418.2 418.3 420.5 423 428.1 424.1 426.3 428.3 433.4 438.8 443.8 448.9 453.6 456.8 460 462.9 465.9 461.9 458.6 454 446.3 424.7 405.5 380.1 374.7 377.7 381.7 389.2 395.5 394 389.5 380.8 373.8 363.8 353.8 341.2 333 322.8 317.1 311.4 308.3 304.6 301.6 297.5 293.8 292.5 292.5 292.6 291.6 284.5 287.9 293.5 295.6 295.9 294.5 290.9 287.7 285.6 288.3 291 295.3 292.7 289.1 293.2 292.4 290.3 289.4 288.8 284.9 283 283.4 283.1 283.1 283.3 283.8 284.4 286.2 289.6 293.5 298.5 301.7 304.9 303.2 299.2 303.4 313.6 324.1 338.2 348.8 352.3 350.3
472.8 466.1 456 442.5 426.8 408.4 387.2 365.7 345.7 327.6 318.6 319.8 320.1 320.8 308.3 300.7 288.6 283.8 279.4 276.8 274.1 272 269.2 266.2 264.6 261.8 259.5 258.4 256.5 256.3 253.8 252.8 251.6 251.7 251.6 250.4 249.7 249.1 248.2 247.7 244.8 260.1 266.2 271.4 284 303.7 328.4 353.8 374.8 396.7 410.6 405 411.7 427.2 445.9 459 462.9 467.1 468.1 469.2 469.3 466.7 462 458.3 455.3 451.5 448 446.8 444.8 444.6 446.5 446.2 443.9 441.7 440.7 439.9 437.6 432.3 418.4 419.4 426.3 432.6 438 441.6 445.6 448.9 448.4 451.2 455.6 460.1 467.6 472.6 474.3 473.8 472.7 471 466.6 463.2 456.5 453 448.1 440.7 436.7 433.8 431.3 427.4 423.1 420.3 412.5 413.4 415.6 418.1 419.2 420 420.4 423.2 424.2 429.3 435.1 442.9 448.4 454.3 457.1 461.6 465.5 466.4 465.9 463.5 459.7 454.5 437 404.7 401.2 404.9 408 411.2 418.2 424.3 423.3 417 409.5 401.7 389.8 376.9 361.8 350 336.3 323.7 315.7 310.4 306.5 303 298.3 295.2 294.3 293.6 293.9 292.7 287.7 284.1 287.9 291.8 293 291.4 288.3 285.7 285.1 288 291 292.1 289.7 282.7 282.1 286.1 285.4 281.7 281 281.6 282.1 282.5 282.8 283.2 284 284.5 284.6 288.4 293.1 297.5 301.1 304.4 307.6 308.5 305.5 308.5 317 326.1 336 347.5 350.6 349.3
476.8 468 456.2 442.8 424.9 404.5 380.3 357.5 343.2 337.4 341.8 340.9 339 343.3 320.5 304.5 295.7 291.2 288.4 281.9 278.8 275.6 272.4 270 267.7 263.1 261.7 258.3 260.3 258.5 259.2 261.2 256 251.1 250.4 250.4 250 248.8 247.1 246.9 243.4 256.2 263.1 270 279.7 297.9 324 352.1 371.5 385.4 383.9 383.1 397.5 418.3 437.1 447.4 455.5 460.9 463.4 465.3 464.7 460.6 456.3 454.3 450.6 446.3 443.2 441.1 438.8 441.8 445.7 445.2 442.7 441.4 440.6 439.6 437.3 435.4 428.9 411.1 419.5 425.4 431.3 435.8 441.3 442.8 441.9 449.7 455.2 464.6 470.9 476.5 477.9 479.9 476.4 473.2 470.5 462.8 458.6 453.4 446.1 439.3 435.9 431.5 428.6 425.1 422.1 419.9 417 406.3 412.1 415.1 416.9 418.1 419.1 420.7 420 427.1 436.8 445.1 452.9 455.5 458.4 463 466.4 468.3 467.1 466.7 464.3 458.5 447.3 438 437 434.9 436.5 439.5 445.5 448.3 445.2 437.1 427.2 416.9 403.5 388.4 378.1 363.7 349.9 334.1 318.8 311.6 306.8 302.2 299.2 297.3 294.9 293.3 292.9 291.7 290.1 285.1 283.3 286.1 286.5 287.5 285.3 284.2 285 289.3 290 288 280.2 286.8 283.9 281.3 282.8 284.4 285.9 286.7 285.9 283.4 283.1 283.6 283.9 285.2 289.3 292.3 294.6 299.1 301.9 306.4 308.9 310.1 311.4 314.7 320 327.5 334.6 343.8 348.3 349.9
480.5 466.3 452.1 437.9 418.7 400.2 376.1 357.1 355.2 358.7 363.5 357.6 358.5 352.2 328.1 312.5 305.7 301.1 297.1 285.7 282.8 278.8 275.6 273.5 270.6 267.4 268.3 266.7 263.9 260.8 262.5 264.1 261.3 255.9 252.9 252.3 248.4 249.1 247.7 245.3 245.3 245.1 260.5 266.5 273.4 298 330.4 355.5 367.9 367 359.6 369.2 392.9 412.6 428.4 440.3 445.5 453.8 458.6 460.3 457.3 453.7 451.3 447.5 443.3 437 431.8 425.8 428.6 438.1 444.6 443 441.7 441.1 440.3 439.6 437.9 435.8 433 427 410.6 416.5 423.2 431.4 429.9 431.7 437.9 447.3 456.4 464.9 473.9 478 480.3 481.2 479.9 476.3 471.4 463.6 459.7 453.2 444.2 438.2 434 430 427.6 424.4 420.3 417.5 415.9 411.5 408.1 413.4 417.1 418.6 418.4 417.1 417.7 428.2 438.8 448.3 454.6 456.1 462.8 465.2 469 471.7 470.7 471.8 468.3 464.6 461.2 458.7 460.2 460.8 462.3 464.3 463.7 460.8 452.3 444.6 433.3 421.3 408.8 398.7 387 374.4 358.6 342.3 324.8 312 305.4 302.5 300.5 297.8 295 292.9 291.2 290.3 289.1 286.4 284.5 283.3 283 283 283.1 283.6 285.6 289.1 288.2 284.6 284.8 289.3 289 285.4 286.3 287.9 288.7 289.2 287.5 285 284.1 284.4 284.5 285.6 287.5 292.4 298 300.5 302.8 306.1 308.4 310.9 314.4 318.7 324.2 328.2 333.4 343.6 349.7 352.9
480.3 463.3 448.5 429.8 409.2 389.5 380.5 375.7 372.2 379.1 380.6 372.9 368 356.8 336.1 322.3 311.6 308.4 303.8 291.6 287 282.2 280.7 279 275.1 272.5 270.7 268.4 264.8 262.8 263.4 264.6 261.9 257.6 253.3 252.3 250.8 250.1 248.8 246.6 245.5 243.3 256.2 262.3 273.4 295.7 328.1 347.2 350.9 341.3 345 365 389.2 408 424 433.2 439.5 447 451.5 452.2 447.8 445.9 441.8 434.3 427.4 418.7 409.5 405.5 419.8 437.4 441.7 440.8 440.4 440.3 439.9 439.4 438.6 436.3 433.7 432.1 426.8 408.7 413 416.3 417.5 421.8 437.9 449.3 457.9 468.9 475.9 481.5 480.9 481.1 479.3 474.3 472.2 463 459.3 451.3 442.4 437.8 433.8 430.7 427.8 423.4 419.6 414.6 413.2 408 405.6 412.1 415 414.9 415.8 414 416.7 426.9 436.8 445 450.5 459 465.3 467.8 470.8 473.2 474.5 474.5 472.3 471.1 470.4 474.6 476.9 475.5 475.4 471.1 470.4 465.4 459.8 447.2 434.7 423.1 413.4 403.2 392.2 378.9 363 344.9 327.4 315.1 308.2 305.2 301.9 298.5 295.5 293.3 291.1 289.4 287.6 286.4 285 283.9 282.5 282.4 282.6 284.7 287.2 288.5 285 280 288.1 290.5 289.9 291.6 293.2 293.8 292.8 291 288.5 285.4 284.8 284.7 285.3 285.9 287.6 291.4 296.6 302.4 305.3 307.7 311.7 317.8 319.5 322.7 327.2 334.7 341.1 348.4 353.1 353.9
481 464.3 443 420.9 407.7 398.5 398.6 395.6 387.9 394.5 394.2 384.6 377 362.3 352.4 346.3 328.5 315.6 311.6 299.2 291.2 286.6 287.5 285.3 282.9 278.7 274.7 271.1 267.8 265.6 264.5 264 261.7 258.9 254.6 252.6 251.2 250.7 249.4 247.8 246.7 244.3 249.2 258.5 269.3 287.6 318.5 333.5 328.3 322 339.5 362.9 381.9 402.4 417.6 423.6 432 438.1 440.3 438.6 436.3 433.2 425.3 415.5 403.9 393.5 388 401 421.3 435.9 438.2 438.4 438.3 439.2 438.8 438.5 438.4 436 434.4 432.7 430.7 426.6 411.3 402.4 407.4 419.9 439.8 451.7 461 469 478.6 480.7 482.9 480.5 477 474.6 470.4 463.5 456.6 447.4 442.8 438.1 432.7 429.3 425.4 423.5 418.1 412.8 410.5 403 401.3 408.3 411.7 410.5 412.4 408.5 415.5 426.2 434.2 444.9 457.1 461 466.6 470.1 472.1 473.5 475.3 475.2 475.7 476.2 476.1 482.3 482.6 479.6 478.9 473.8 469 467 457.6 445.3 434.9 426 416.3 404.9 393 378 360.6 340.8 326.5 319.6 313.1 306.9 302.1 298.8 296.3 294.1 292.1 290.3 288.2 287.1 285.5 283.6 282.5 281.7 282.4 285.8 286.7 287.7 279.4 286 290.2 291.6 292 294.5 296.3 296.5 296.2 293.8 290.7 286.5 285.8 286.5 287.4 289 290.4 290.2 295.3 299.6 304.4 307.9 313.4 316.9 320.7 325.9 335.1 341.8 348.1 352.9 354.6 352
488.4 475 455.3 436.5 420.9 416 417.2 411.7 403.7 412.6 403.6 396.7 388 377.7 376 362.7 344.2 332 317.2 303.5 296.2 294.9 294.1 292.5 289 287.4 282.7 276.1 272.9 269.4 267.2 264.2 261.6 258.4 254.5 252.6 251.8 251.2 250.1 248.2 247 244.5 244.4 253.2 262.6 281.9 305.5 317.3 304.4 314.4 331.9 353.4 372.6 389.3 398.3 412.7 419.9 423.5 423.8 422.9 419.2 413.3 403.5 390.6 378.8 373 385.3 404.6 424 432.8 435.3 436.3 437.1 438.1 438 437.7 437.1 436.1 435 432.9 431.1 429.6 426.5 412.2 400.5 420.9 440.7 454.3 463.8 470.3 477.3 479.6 480.6 476.2 476.3 473.5 470.8 461 452.5 444.6 437.9 433.5 429.8 427.2 423.1 419 414.7 410.9 406.8 404.1 397.8 403.6 407.8 406.3 407.1 406.2 416.1 426.5 437.5 450.9 458.5 463.7 469.3 473.3 474 475.3 475.3 476.6 477.1 478.2 479.1 481.3 481.4 481.4 478.6 474.3 468.5 462.2 452.2 444.9 436.5 427.2 416.6 402.5 388.7 366.6 347.6 328.7 325.4 321.8 318.5 312.6 307.8 302.3 299.1 296.8 293.9 292.1 290.7 288.3 285.8 283.6 282.2 281.5 283.8 286.1 286.3 285.6 280 287.3 289.8 292.1 294.1 296.2 298.8 298.7 298.2 296.6 294.3 288.8 291.2 294.2 294.7 295.8 294.7 292.6 294.3 297.8 302 304.4 309.8 316.4 321.1 332.8 342.3 347.7 351.7 353.2 350.8 345.5
493.9 486.1 469.9 452.9 438 439.8 433.9 427.9 420.1 425 413.2 408.5 400.8 399.6 395.2 375.4 359.4 344.2 324.3 306.9 306.9 308.4 301.3 301.1 300.5 297.1 291.1 283.9 281 275.4 270.3 266.2 263 257.6 254.8 253 253.1 252.5 253.5 249.4 246.6 244.5 244.1 247.8 255.2 267.5 284.2 295.1 293.9 304 322.5 341.7 356.3 372 386.6 396.3 402.2 404.9 406 404.3 399.5 389.7 378.1 366.3 356 367.2 390.4 408.4 422.9 429.6 431.7 434.5 436 437 437.1 437.5 436.5 436.4 434 432.2 430.1 428.8 425.8 417 396.2 417.2 436.9 456 465.2 475 477.4 481.3 477.5 475.6 475.8 474.1 466.9 455.3 448.4 440.6 433.9 429.1 426.5 424.9 421.1 416.1 412.7 409.7 406.9 399 393.7 400.3 403.1 401 399.6 407 416.6 428.1 441.9 455.9 463.1 464.6 470.7 472.5 478.4 476.4 479 476.6 476.6 477.8 481.1 482.1 480.8 479.4 477.8 474.3 463.8 458.2 450.9 445.4 435.5 423.6 412 395.6 365.7 349.1 351.1 346.1 335.6 330.5 322.3 320.9 317.7 311.9 308.7 303.1 297.5 295.6 293.2 289.4 286.6 284 282.1 280.5 283.6 283.7 285.9 285.7 277.8 279.8 287.9 291.7 293.9 296.6 299.1 299.2 298.5 297.2 296.8 293.6 293.2 296.2 294.2 296.4 296 296.7 296.1 297.8 301.4 303.7 309 313.2 325 336.7 343.7 348.3 349.6 348.1 343.3 335.5
498.3 494.5 482.8 469.4 462 457.8 450.5 444 434.9 434.2 426.5 423 420.8 419.2 407.3 387 369.4 348.2 323.5 326 328.5 318.5 316.1 314.9 313.7 308.7 299.7 291.9 288 281.9 276 269.5 264.7 259.2 256.9 255.6 255.1 254.2 254.9 250.9 245.5 244.3 241.4 244.7 248.8 258 268.7 277.1 285.1 296.6 309.6 315.8 337.8 353.5 366.6 376.9 383 386.4 387 383 374.9 364 353.8 343.5 349 367.5 388 407.9 420 424.8 429.5 433.6 435.7 436.6 436.7 436.7 435.8 434.3 432.7 431.1 427.8 425.7 422.6 417.3 396.6 408.2 429.9 452.5 465.9 471.7 477.4 475.8 472.9 475.6 472.8 471.9 459.7 450.7 445.2 438.1 432 425.2 423.7 422.2 419.2 416 412.5 408.6 406.8 403.3 389.7 394.5 397.6 397.1 399.9 409.1 419.2 433.5 448.4 458.2 462.7 465 471.4 475.1 478.5 476.8 478.6 476.5 476.7 477.8 481.3 482.6 480 478.1 477.8 467.3 461.7 455.3 450.1 441.8 433 419.3 405 382.4 379.1 371.9 367.1 363.7 352.8 346.7 338.1 327 320.6 315.8 311.9 307.6 301.8 297.7 294.3 291 287.6 283.4 281.7 280.5 281.9 281.9 285.1 286.4 285.7 277.2 280.3 289.1 291.4 294.2 296.4 297 297 297.4 299 298.1 294.7 294.5 295.1 298 299.2 299.8 298.9 297.6 300.9 303.1 306.4 310.9 320.8 332.1 339.1 343 342.7 338.7 332.5 328.5
501 500.8 494.1 483.3 477.1 476.8 469.2 459.1 453 449.6 441.4 437.9 438.2 435.2 418.5 394.4 374.4 347.8 330.9 344.6 345.2 334.3 333.4 332.4 330.4 321 309.7 302.6 297.5 288.2 281.3 276.3 269.4 262.5 260.7 258.2 256.8 256.4 254.5 250.3 244.6 244.4 242.4 244.3 245 247.5 258.1 269.3 275.9 285.2 298.8 307.6 317.9 333 347.3 357.6 364.7 367.7 367.2 360.5 349.9 340.1 333 337.9 351.8 369.6 386.6 403.1 412.3 420.7 427.2 432.4 435.2 436.5 436.7 436.5 434.7 432.9 430.8 428 425.9 423.2 418.7 413.3 402.7 399.2 422.9 444.7 462.2 468.9 473 468.5 475.6 471.6 471.8 461.5 453.3 446.5 441.3 435.8 430.1 423.4 418.3 417.9 417.6 414.9 411.1 407.1 405.4 402.8 390.4 390.5 389.6 390.9 401.4 417 427.1 439.2 453.3 459.4 462.3 466.7 471.2 476.8 479.3 477.2 480.2 476.3 476.7 478.4 483.1 480.7 479 477 470.7 463.8 459.8 453.6 447.9 441.8 433.6 424.5 412.8 408.5 400.9 391.3 386.8 380.1 372 364.4 356.4 342.2 326.8 320.3 314.8 309 303.8 300 296.5 292.6 288.1 283.7 281.6 280.1 280.1 279.9 281.9 285 285.1 282 277.8 284.5 287.9 290.6 293.6 294.1 294.9 297.5 299.9 299.2 296.6 294.5 294.1 297.9 299.4 298.3 301 299.8 299.8 301.1 303.5 306.6 315.8 322.8 329.3 332.3 329.5 325.4 324.7 325.8
502.7 503.8 502.3 493.8 491.5 489.6 480.9 474.2 469.6 464.6 456.2 452 452.3 445.8 424.3 397.6 373.8 348.1 359.7 367.8 361.7 355 350.1 348.6 339.6 332.2 319.9 313.1 302.2 290.4 283 278.2 271.7 265.9 263.4 261 259.3 258.1 255.9 249.2 243.7 244 243.3 244.5 244.4 244.6 258 262 270 277.2 286 295.7 304.3 314.1 327.4 338.6 346.4 350.7 348.1 337.7 323.9 322.2 326.6 339.5 356.1 366.3 381.1 396.2 412.3 421.7 427.9 432.8 434.9 435.9 436.8 436.4 434.5 432.1 429.5 426.9 424.1 418.5 414.2 409 398.2 391.2 412.6 434.5 452.2 462.3 464.1 467.4 467.6 468.3 460.8 451 444.5 440.2 437.3 431.4 425.9 420.5 414.1 414.9 415.3 412.6 409.7 406.3 405.1 403 398.7 383.3 379.6 391.5 409.4 423.7 431.9 444.2 452.9 459.6 462.7 471.3 477.1 478 478.1 476.6 477.6 476.1 476.5 478.8 476.7 477.7 475.2 472.1 465.6 462.7 459.6 453.8 448 440.2 433.9 428.9 422 417.3 408.6 403.3 397.2 389.5 381.2 373.1 365.7 353.8 337.2 325.1 318.6 311.4 308.4 304.7 301.6 295.6 290.2 285.8 282.5 281.2 279.2 278.5 278.7 280.2 280.9 278.4 277 277.8 285.1 286.6 289.1 290.6 293.3 296.5 298.1 298.6 297.1 295.3 293.3 293.8 295.9 299.4 301.1 302.2 302 302.1 302.2 304.1 308.9 313.6 318.3 317.6 316.8 318.8 322.3 321.8
504.4 505.8 503.7 501.5 498.8 494.5 491.4 487.7 482.5 473.1 467.4 465 462.2 452.5 427.8 401.1 375.9 359.1 381.1 387.8 381 375.2 370.1 360.1 351 343.7 331.6 320.6 305.4 293.1 285.4 279.3 272.8 268.3 265.3 263 261.6 259.5 256.4 249 243.8 244 243.6 243.6 243.3 243.6 248.9 255.7 263.8 271.6 280.1 285.7 293.5 303.3 313.5 322.5 331 333.8 327.9 316.4 313.6 317.9 331.6 349.6 366.5 380.3 394.5 405.4 413.3 424 429.5 432.8 434.9 436.5 437.2 436.7 435.5 433.4 430.6 427.6 422.7 418.4 411.6 406.8 401.5 389 401.5 422 441.1 453.5 454.8 458.9 461.7 452.6 447.5 440.9 436.8 436 431 425.9 421.3 417.8 411.2 412.1 412.3 411 406.9 404.5 404 403 399.5 390.7 376.5 393.6 414 428.8 437.6 447.1 455.8 458.9 467.2 473.2 477.6 477.7 477.7 476 476.8 476.1 475.7 475.4 474.5 474.4 471.5 467.6 464.6 461.8 458.2 454.1 447.6 441 436.9 432.8 427.3 422.7 416.1 410.3 404.4 395.9 386.8 379.4 371.7 362.6 352.5 339.2 323.6 315.2 311.4 309.8 306 300.2 295.9 289.9 285.6 282.2 280 279.9 279.6 278.7 278.9 281.7 284 280.8 275.6 282.3 285.2 288.9 290.3 293.5 295 295.6 295.1 293.3 292.3 293.3 294.9 297.8 301.8 301.6 302.9 303.4 304.5 303.5 305.2 306.8 307.6 307.9 309.9 313.4 314.4 314
504.9 505.3 505.2 500.9 498.6 497.4 496.4 494.7 488.9 481.8 475.5 475.1 470.9 459.3 431.4 404.3 380.2 377.8 402 411.2 403.4 396.8 384.5 373.3 363.5 353.8 339.9 326.2 307.9 295.7 287 281.1 276.1 271.3 267.9 265.6 263.7 260.4 256.4 250.7 244.1 243.7 243.4 241.2 243.3 243 245 248.8 255.9 263.7 272 278.1 284.8 293.8 302.8 309.9 315.8 315.9 307.9 306.1 309.8 325.6 338.2 356.6 371.7 386 399.9 410.1 418.6 425.6 430.9 434.1 435.5 437.3 438.1 438.5 438.1 437.7 433.7 429.7 426 420.1 413.7 407.8 403.3 398.2 389.8 404.3 418.8 430.9 436.2 440.7 438.6 436.8 433.2 431.9 429.5 427 424.4 420.1 415.5 415 408.5 406.6 408.3 408.8 403.3 403.3 403.5 403.9 401.8 390.3 375.3 392.5 415.8 431.4 444.3 450.2 457.5 464.5 471.8 475.4 477.4 476 476 475.5 475.7 475.1 474.8 474.6 473.9 472 469.2 467.2 464.4 460.7 458.3 451.3 446.3 441.5 438.9 435.3 432 427.5 422.4 415.8 408.5 399.9 391.5 384.1 376.7 368.4 359 349.3 337.8 321 315.4 313.5 309.5 303.9 297.3 292.4 286.7 282.5 281.1 280.6 281 285.9 285.9 287.4 286.7 285.3 277.5 275.9 284.6 286.8 287.7 289.2 291.3 291.1 291.8 290 291.2 293.3 296.1 298.1 301.2 302.1 303.3 305.8 306 304.3 304.9 306.1 304.8 303.7 303.5 303.1 305.3 306.9
504.2 504.1 500.8 499.8 500.1 500.2 498.8 496.2 491.4 485.1 482.2 479.9 477.9 465.9 439.4 409.8 385.3 398.3 425.4 432.8 429.1 415 398.1 388.6 375.8 362.2 349.5 327.2 310.9 298.9 289.6 283.1 278.8 274.5 270.4 268.2 265.3 261.7 257.5 251.5 246.7 243.4 243.2 243.2 243.6 243 242.5 245.6 249.5 256.3 264.1 270 276.2 282.4 291.6 298.8 301.9 297.6 297.3 304.5 316.3 331.6 344.9 361.2 377.3 391.2 404.1 413.4 421.2 426.7 431.3 433.7 436.1 438 438.8 440.6 441.6 441.1 437.4 435.8 432.5 426.5 419.3 410.3 404.4 400.1 393.8 386.2 397.3 407 413.4 418.2 420.1 420 421 418.7 418.3 419.1 416.8 413.7 410.1 407.7 404 402.6 404.9 404.4 401.2 403 403.5 404.8 401.8 386.3 369 393.3 418.6 435.5 446.8 455.5 459.9 467.2 473.8 476.6 476.9 475.9 477 476.1 474.9 474.7 474.2 473.7 472.4 470.7 468.4 465.6 461.5 460 455.6 449 444.7 442.7 441.2 438.9 435.1 430.2 425.5 417.3 410.6 401.8 394.6 387.9 380.6 372.1 363.4 353.6 343.3 330.2 321.4 316.4 311.8 309.5 303.8 296.4 287.8 285.1 283.2 283.9 287.2 289.6 290.4 289 286.1 283.4 279.5 275.3 280.9 283 283.5 283.9 285.1 286 287 288.7 292.7 294.8 297.2 299.6 300.5 301.5 303.8 304.5 302.7 301.4 301.7 303.7 301.7 298.7 298.9 300.3 302 304.6
500.4 500.3 497.6 498.6 499 500.3 500.9 496.4 493.1 487.4 486.5 486 481.1 466.7 445.6 423.9 395.1 418.8 445.5 450.7 446.8 432.6 419.9 406.1 385 365.8 350.5 329 312.6 301 292 286.9 280.9 275.7 273.1 270.5 266.8 262.3 257.1 253 247.9 243.2 243.4 243.3 242.8 242.7 242.1 243.2 246.5 250.5 257.9 263.5 268.6 273.2 280.1 287.6 288 291.7 296.6 307.8 323 337.6 350.2 367.5 382.5 395.8 406.8 415 421.6 427.5 430.3 433.7 436.8 439.3 441.6 442.8 445.3 443.3 444 441.8 438.3 432.9 426.5 415.7 407.4 400.3 395.5 390.1 382.6 390.2 395.9 401.2 405.5 408.5 406.6 406.3 406.6 406.2 407.8 405.1 402 401.2 398 398 399.3 397.5 399.9 402.4 404.4 405.9 398.7 377.2 372.2 398 420.6 439.6 447.9 458.1 461.6 469.8 475.3 475.9 476 476.3 477.1 475.7 475 474.7 474.3 474.1 474 470.5 467.6 460.7 458.4 455.7 453.3 450.4 444.7 442.6 441.7 441.2 436.7 430.1 424.9 416.5 410.3 403 396.6 390.2 382.1 373.6 365.3 356.1 346.1 336.3 327.5 319.5 315.3 312.4 307.3 300.7 294.7 292.5 289.5 287.8 290.6 291.3 289.9 287.4 284.5 281.4 279.6 276 275.3 276.9 279 280 281.6 283.6 286.9 291.2 293.7 295.5 297.4 298.2 300.2 302.1 303.6 303.1 300.5 294.3 293.5 295 296.2 299.8 304 302.3 303.1 305.4
494.6 495.1 494.6 495.7 498.6 500.3 499.8 494.5 493.3 491.3 489.3 486.3 477.9 463.7 448.9 435.8 413.4 441.7 462.2 464.4 459.7 447.4 436.7 411.4 387.2 365.8 349.5 329.2 314.3 304.2 293.2 290.6 282.6 279.9 276.5 272 267.5 263 257.4 254.5 250.9 244.5 243.1 242.2 243 242.8 242.4 241.6 243.8 246.4 254.7 259.5 264.1 268 273.9 277.4 280.8 286.7 301.1 313.6 326.5 341 356 372.1 385.5 397.6 407 415.8 422.4 426.6 430.7 435 437.7 439.6 443 445.8 446.8 448 447.7 446.6 444.4 440.2 434 426.2 414.4 402.1 397 392.2 388.9 380.1 387 390.4 394.7 394.5 394.2 393.8 393.3 393 393.6 393.7 393.5 393.8 389.8 392.5 393.6 394.4 398.7 402.7 405.3 403.9 387.6 364 379.3 404.1 424.4 441.9 450.4 457.5 463.4 470.3 475.6 476.7 475.1 476 477.2 475.7 475 474.8 475.6 475.1 470.6 468.1 463.6 459.5 455.6 455.8 456.1 450.9 445.9 442.8 440.2 438.9 435.6 427.1 420.8 415.9 410.3 404.2 396.8 390.1 381.8 374.1 366.3 358.8 349.8 341.7 332.4 324.2 318.1 315.1 310.4 303.5 299.3 295.9 291.5 289.3 290.2 288.4 285.6 284.7 282 280.7 279 276 274.9 275 276.6 278.1 280.2 282.3 285.7 290.1 292.5 294 294.4 292.3 296.4 301.3 302.6 298.2 292 295.4 303.5 306 307 306.6 306 306.8 306.2 304.8
492.3 491.3 490.9 493.9 496.8 499.2 497.1 494 494.1 492.6 488.2 483.3 472.7 460.2 453.3 446.4 432.7 458.8 473.1 473.1 468.3 456.7 439.9 408.6 385.8 362.3 347.1 329.7 316.6 307.4 299.8 293.1 286 282.4 277.6 273.2 268.7 264.6 258.8 255.5 253 243.4 242.3 242.6 242.8 242.7 241.8 241.8 241.5 240.9 245.5 254.1 258.7 262.9 267.8 271.3 275.7 287.5 299.9 314.4 328.4 342.9 359.2 373.1 385.7 395.8 406.4 414.4 420.7 425.3 430.6 434.8 438.3 442.2 446.3 447.6 451 450.6 450.5 450.3 449.5 445.7 442.2 435.4 424.4 413.3 402.1 395 392.9 387.7 379.1 378.1 380.1 383 381.4 380.4 380.8 382.3 382.7 383.4 385 384.9 383.7 385.5 387.5 392.2 399.2 405 402.4 393.5 374.1 360.6 386.3 409.6 429.1 445.6 455.2 459.5 464.5 470.8 474.8 474.6 475.2 477.3 476.7 475.3 476 479.7 477.5 474.8 471.1 467.2 461.7 457.9 453.1 451.7 449.5 445.6 444.5 441.5 438.6 436.8 430.3 423.8 419.4 414.4 408.6 403.1 397.1 389.2 381.5 374.7 369.2 363 355.6 347 339.7 331.3 320.5 315.3 310.4 304.1 300.1 296.7 292.8 289.9 288.5 287.3 284.7 283.5 281.9 280.8 279.5 277.7 275.8 275 275.3 276.6 277.5 278.4 279.4 280.8 283.6 283.6 285.2 290.9 287.1 295.2 292.1 291.5 303.9 304.8 307.6 309.8 311.1 311.8 310.8 308.5 308 307.2
484.5 485.3 486.1 490.2 493.8 496.7 491.1 492.3 493.3 489.1 485.5 477.6 469.1 458.6 456.1 452.5 456.5 472.7 478.1 477.3 472.2 458.3 433.2 402.5 379 357.8 342.5 328.8 318.7 310.2 303 294.5 290 285 279.4 274.1 267.7 263 260.4 257 251 243 242.6 243.3 242.9 242.5 242.1 242 241.8 241.3 240.9 246 255.1 258.2 262.4 262.1 273.6 285.9 297.6 312.4 327.6 343.4 358.1 371 383.3 392.8 402.5 409.8 416.6 423.1 429.2 434.6 439.7 443.4 446.6 450.6 454 454.6 455.8 456.5 456.2 455 449.5 442.8 435.5 423.8 413.9 401.7 397.3 393.4 391.2 388 379.7 373.9 371.8 371.1 371 372.2 373.5 375.6 375.4 376.5 377.8 378.9 381.4 389.1 397.7 400.5 399 380.6 360 370.6 395.3 417.7 432.3 449.2 457.6 461.4 465.5 469.6 471 472.8 473.7 477.9 474.7 475.1 477.7 480 478.4 473.7 470.7 465.4 462 455.6 451.4 447.2 444.9 441 439.4 438.6 436.2 433.9 427.1 421.7 417.2 411.5 406.3 401.2 395.5 388.2 382.5 376.9 371.5 365.4 359.5 352.6 345.4 336.5 326.5 315.8 307.4 302.2 298.4 295.2 292.4 290.3 288.6 286.7 284.3 283.9 282.1 281 279.9 278.6 276.1 273.6 275.3 275.8 278.5 280.5 284.2 287.1 287.4 291.4 294.7 298.2 299.8 292.8 295.5 306.5 308.8 310.1 310.6 313 313.2 314 313.7 311.7 310.4 309.7
475.6 477.5 479.5 485.5 490 489 488.9 489.2 487.8 484 479.9 471.8 464.2 458.3 458.5 464.1 471.5 480.9 481.9 482.4 475.2 458.4 433.5 406.6 385.3 362.2 344.8 329 319.2 314.3 305.8 298 292.4 288.9 283.3 277.9 272 265.5 261.4 254.6 255.3 240.4 242.9 243 242.4 242.7 242.1 240.8 241.8 241.4 240.6 241.1 247 253.7 252.5 262.6 271 280.8 295.4 309 324 339.7 353.7 367.3 378.6 387.8 398.6 406.4 411.2 417.7 425.1 431.7 437.8 442.1 447.7 451.2 455.3 457.5 460.2 461.9 464.5 463.2 459.7 451.8 442.9 434.2 421.6 412.3 403.9 400.2 396.5 393.3 390.9 387.7 386.1 384 379.2 372 366.2 368.3 369.5 370.1 366.7 365 371 383.6 395.4 397.8 390.2 366.5 354.8 378.2 402.2 423.7 437.7 448.7 458.1 462.6 464.3 465.2 470.6 471.3 472.4 474.2 474.7 475.9 482.5 481.6 476.1 473.9 472.2 464.5 457.5 452.6 448.7 444.5 439.4 437.2 435.9 434.2 431.4 426.8 421.8 417.4 412.3 408 403.1 398.7 393.2 387.8 384.3 377.6 372.3 366.3 361.2 354.5 346.6 337.6 326.4 315.9 305.8 299.8 296.2 293.8 291.8 290.5 288.8 287.9 285.6 282.9 282 280.6 279.4 278.3 277.2 275.1 274.3 277 275.7 281.7 286.3 287.9 289.5 292.3 295.1 298.7 301.1 302.4 305 308.3 309.9 312.2 313.1 314.9 315.9 316.9 315.7 315.1 313.9 312.9
464 466.1 472.3 479.5 483.3 485.8 486.3 487 480.7 476.4 471.7 465.4 459.7 459.2 466.6 473.9 479 483.3 485.1 484.4 475.7 455.7 433.1 408.4 385.3 365.9 347.9 332.1 323 318.7 312.9 304.8 299.6 293.8 287.9 280.7 273.9 266.3 258 259.8 259.1 245.7 240.4 242.5 242.7 242.5 242.2 241.4 241.6 241.6 240.9 240.8 242.5 245.9 254.1 258.9 266.6 274.5 288.4 303.9 318.9 332.9 347.7 360.7 371.5 381.3 391.5 397.9 403.2 408.8 420 427.3 433.2 441 446.1 449.9 455.1 457.6 463.6 472 471.5 470.7 466.3 457.6 446.8 438.8 431.1 420.7 413.6 411.2 409 406.2 401.6 395.1 393.7 391.2 390 387.6 383.6 363.5 365.1 361.3 356.5 354.1 357 380 391.6 392 384.2 355.7 361.1 383.6 406.2 426.6 440.5 447.3 455.6 458 460.3 462 465.6 468.1 470.9 473.8 474.4 477.6 482.1 483.3 478.1 473.7 469.2 463.7 456 451 447 440.8 436.7 434.9 432.7 428.2 424.1 421.4 416.8 411.2 407 403.5 399.6 395 390.2 387.2 383.1 375.6 369.4 363.7 360.2 351.3 344.2 334.4 324.9 314 304.2 298.3 297.4 297.2 295.7 295 293.1 290.7 287.3 285.5 285 281.4 280.3 278.6 277.2 275.4 274.2 274.1 273.7 280.5 283.4 285.8 288.5 291.8 294.6 297.5 300.2 302.5 305.6 308.2 312 314.9 315.7 316.1 318.3 318.8 317.5 316.8 315.3 314.6
446.3 453.1 462.1 471.6 476.6 479.4 484.2 484.8 478.3 471.4 466.1 460.5 460.3 461.6 470.1 476.6 482 484.6 486.3 483.8 474.9 453 431.9 411.4 387 368 350.5 337.3 331.2 326.5 322.2 315.4 306.7 298.1 289.7 282.3 274.9 265.8 263.2 262.5 260 257.8 251.9 243.1 239.8 242.2 241.9 241.7 241.5 241.1 240.7 240.4 241.3 242.3 248.1 253.8 259.9 269.3 278.6 293.2 308.5 323.3 339.2 353.4 359.8 368.2 376.5 382.4 388.1 398.1 409 417.8 429.4 436.4 442.2 448.2 454.8 461.5 473.6 476.9 477 476.2 471 461.5 453 448.6 439.8 430.8 424.8 422.5 420 416.4 412.6 411.6 411.1 408.6 405.3 400.9 395 374.7 360.7 366.1 368.6 357.9 356.8 374.1 382.6 386.8 374.8 348.4 360.3 385.9 410.3 429 437.7 445.9 450.6 454.7 457.6 461.3 464.2 467 471.4 473.2 475.2 479.3 484 483 480.5 471.7 466.3 461.3 454.7 450.7 444.7 439 435.9 431.7 428.7 423.1 418.5 413.8 409.6 405.7 402 397.6 394.3 390.3 385.8 383.1 380.4 370.3 363.8 354.2 347.9 341.1 332.6 325.1 318.2 309 301.6 305 304.5 302.3 301 298.1 296.7 294.4 291.2 289.5 286.6 283.8 282.2 281.7 277.8 276.5 274.8 274.4 274.1 274 280.5 283.9 287.4 290.6 293.4 296.8 299.4 301.6 304.7 307.8 315.5 318.1 319.8 320 320.3 320 319.6 318 316.6 316.1
442.6 439.6 447.4 459.3 466.8 474.3 479 479.8 473.1 467.9 461.3 459 460.1 463.3 472.5 476.6 480.6 485.2 486.8 483.5 473.4 453.4 431.8 412.5 388.4 370.3 354.8 344.8 340.1 339.8 329.2 319.7 309.9 299.8 290.2 281.7 272.6 269.3 267.2 266.1 263.5 260.3 256.7 253.9 243.5 241.5 239.4 241.5 241.5 241.2 240.6 240.7 240.8 240.6 240.3 248.6 253.8 262.2 269 281 295.9 311 323.8 333.2 342.2 349.5 356.2 363.5 371.9 381 391.9 404.2 416.6 425.7 435 443.1 454.3 465.7 475 478.2 478.4 477.3 471.7 467.4 460.5 456.7 448.5 440.6 436.4 434.8 432.6 429.8 427.9 426.7 425 422.7 418.9 414.6 408.9 400.3 387.8 392.6 380.8 356.5 347.2 358.7 367.3 378.2 364.3 343.5 356.1 383.8 409.9 426.3 433.1 439.8 443.2 450.3 454.5 461.8 464.2 467.9 470.4 472.4 477.9 482.6 485.8 483.9 478.5 467 465.8 462.7 457.1 452.5 446.1 440.1 436.3 431.7 425.8 421.7 408.5 401.3 397.9 397.6 396.4 392.3 387.8 384.1 380.3 377 369.5 358.7 348.5 339.3 331.3 323.2 320.3 315.8 309.7 305 310.9 311.7 309.9 310.2 309 306.1 301.5 299.2 297.1 295 291.4 288.7 285.7 284.2 281.1 280.6 276.4 274.2 273.9 273.9 278.4 286.2 288.5 291.2 293.2 295.4 297.1 299.8 302.8 311.7 318.2 323.8 328.6 330.1 329.5 325.8 322 320.2 319.4 319.3
448.5 435.2 436.5 446.4 456.7 466.8 473.9 473.4 466.1 459.4 456.2 456.4 457.9 464 471.1 476.3 480.5 485.1 486.7 483 473.2 455 433.1 411.9 389.3 373.5 360.8 353.8 355.7 348.7 333.6 322.1 309.3 299.8 290 280.7 278.9 276 273.1 270.8 267.7 264.5 261.8 258.4 254.3 243.3 241.1 241 241.2 241.2 240.5 241.2 240.8 240.3 239.9 239.7 247.9 254.4 259.7 269.9 281.9 295.5 306.6 314.8 321.9 329.1 336.3 343.6 354.5 364 373.5 384.2 398.4 408.5 423 437 452.5 465.6 473 477.8 478.2 476.6 472.2 469 467.5 464.5 458.3 451.5 449.1 448.2 445.2 443.2 440.7 439.4 436.6 433.6 430.2 426.1 421.5 416.7 411.5 405 394.4 375.9 359 345.1 348.1 348.9 345.2 338.4 354.2 380.5 406.4 417.2 426 429.9 440.6 446.6 450.5 459.1 463.5 464.3 469.3 472.7 479.9 482.8 484.8 480.7 472.6 467.5 468.9 462 456 453 446.7 441.4 438.9 434 429.1 425.9 420.2 413.9 405.9 398.3 380.5 384.7 381.7 379 376.5 369.1 356.3 341 330.3 321.1 317.1 314.4 311.1 310.5 312.9 315.4 315.7 317.6 317.2 314.6 312.3 308.8 305.7 303.7 301.8 297.6 295.8 293 290.6 287.2 285 284.6 281.4 276 274 272.8 275.9 287.2 290.3 291.6 291.2 294 296.5 298.5 303.3 313 321.1 332 339 341.3 340.5 336.5 334 336.1 334.6 331.9
452.6 434.5 430.4 437.4 448.9 461.3 467.5 469 459.1 455 451 452.2 455.1 463.9 470.8 476 480.6 484.9 485.7 482.4 475 451.6 434.2 412.4 394.8 378.2 367.9 370.7 365 351.9 335.6 320.4 308.7 297.5 286.5 291.1 295.2 290.9 284.7 281.1 274.9 269.9 267.3 263.3 258.6 253.4 241.6 240.7 240.9 240.9 241 240.6 240.3 240.3 239.9 239.4 244.6 246.3 250.9 259 268.5 278.1 289.8 297.9 304.4 310.6 316.5 324.2 335.5 343.9 352.1 361.8 375 390 409 425.5 444.1 461 471.3 476.6 476.9 475.5 474.6 476.8 476.5 472.5 465.4 461.5 459.6 457.5 457 453.8 450.4 448.7 445.6 442.5 439.1 434.9 430.1 425.4 420.4 414.3 407.1 397.8 376.6 359.5 350.8 344.1 340.9 334.1 350.5 374.1 392.3 403.3 416.3 423.3 433.3 441.6 448.2 454.5 460.7 462.7 470.7 474.1 480.4 480.4 476.6 472.3 468.3 469.7 467.4 462 456.6 452.7 447.8 445.7 440.8 436.3 431.5 427.2 421.6 414.5 404.9 395.9 389.2 368.7 358.2 359.8 362.1 357.2 338.8 327.6 328.1 326.3 324.4 317.9 316.1 318.8 321.5 324 325.5 323 320 317.4 315.9 311.2 308.8 306.6 304.4 302.1 300.5 298.2 297.9 294.8 287.1 284.3 281.8 271.6 272.9 272 275.8 283.6 284.4 286.9 292 294.5 296.3 298.3 301.7 312.6 324.8 337.8 345.2 348.5 350.3 351 353.3 353.7 348.6 343.7
452.5 439.8 425.3 431.5 439.6 453 461 458.4 452.8 446.4 444.3 446.3 452.3 463.9 470.3 476.5 480.9 485.6 485.2 483.8 472.8 457.4 442.4 420.9 407.6 389.3 386.9 381.7 370.3 353.2 335.3 319.1 306 296.1 301 311.9 319.1 311.8 298.3 292.5 285.4 277.6 272.9 268.6 260.9 256.4 248.3 241.2 240.7 240.3 240.5 240.2 239.9 239.9 239.8 239.5 239.1 242.9 244.3 251.3 255.9 263.1 271.4 280.6 287.1 292.4 297.3 304.5 312.9 321.2 328.3 339.2 351.6 372 386.2 404.7 426.9 452.1 467.2 470.2 471.9 473.9 478.6 482.1 483.5 481.8 476.3 469.2 464.9 462.6 461.3 460.3 458.1 456.1 453.3 449 445.7 441.3 436.8 431.7 426.5 420.4 412.7 404.5 385.6 383.4 372.8 364.9 352.8 333.8 334.3 349.2 365.2 385.5 400.4 411.8 430.2 438.3 444.8 449.2 456.3 463.7 468.8 476.2 481.2 478.6 470 467.6 466.5 465.6 460.8 458.5 458.1 453.4 449 448 443.2 438.3 434.6 430 425.7 419.7 412 405.1 397.2 387.3 373.2 350.2 341.4 337.5 337.7 340.5 339.3 333.7 331.1 326.7 328.7 330.3 331.6 335 332.7 326.9 323.2 320.6 318.3 313.8 311.4 309.5 308 306.8 305.8 304.5 302.9 299.7 292.1 285.7 282.2 276.4 272.8 272.9 274.1 278 284 289.5 292 294.2 296 298.6 301.6 310.9 325.2 340 348.8 354.9 361.9 366.1 365.9 361.2 354.8 349
461.3 443.7 427.6 422 431.3 444.5 452.1 450.1 440.8 435.7 436.9 441.6 452.9 463.5 471.2 477.7 483.2 485.3 486 485.1 476.3 472.2 457 434.2 415.9 406.2 399.9 389.9 370.5 351.3 331.9 314.2 301.6 305.6 318 330.8 336.4 327.9 314.2 304.5 295.6 287.5 280.2 274 266 258.3 254.1 242.2 240.7 240.6 238.8 240.1 240 239.8 239.6 239.3 238.7 240 241.8 244.5 249.1 255.1 259.6 263 268 272.4 277.2 283 289.9 298 305 315.2 328.8 344.3 360.2 381.9 407.4 430.3 445.7 456.3 466.9 477 483.7 487.6 489.7 490.3 486.3 476.7 469.6 465.2 464.2 462.9 460.7 461.9 457 453.7 450.8 445.9 440.7 435.9 430.8 423.6 415.3 405.2 404.8 400.5 395.4 379.3 355 343.1 334.1 330.4 338.9 355.8 369.9 393.6 420.8 435.4 440.6 447 453.2 458.1 467.3 477.9 479.6 474.6 466.1 466.5 464.2 461.7 458.9 458.7 456.2 453.8 451.7 450 446.6 442.4 438.8 435.6 431.3 427.2 416.5 409.2 400.4 394.7 383.5 371.9 363.8 354.9 350.3 348 343.1 341.3 343.3 345.3 346.5 347.9 349.2 347.7 345.4 341.6 337.9 334.6 330.2 324.5 322 318.3 315.4 312.6 311.9 308.5 305.4 301.3 296 287.8 284.6 281 270.9 272.4 273.3 276.7 284.6 290.2 290.4 292.4 294.9 298.1 301.3 310.5 324.3 335.2 347.6 358.1 367.9 370.9 367.7 362.5 356.9 351.9
466.1 446.8 433 418.3 426.3 436.2 443.5 438.2 431.3 428.1 431.2 438.5 454.8 464.9 472.4 479.1 484.8 485 486.4 486.7 487.3 483.7 465.4 447 433.9 424 410.5 395.4 372 349.7 329.3 311.8 304.9 319.5 337.1 349.3 352 345.1 332.9 320.9 309.5 300.2 291.7 284.3 275.7 265.1 258.2 255.7 245.1 241.2 240.2 238.6 240 240 239.2 239.5 238 237.7 239.8 241.4 243.5 248.5 253.1 254.9 254.7 255.7 259.3 265 268.6 276.9 284.6 295.1 306.6 320.5 337.6 357.7 377.9 400 416.2 437.6 458.7 475.2 486.3 493.2 495.4 495.2 490.8 483.7 474.5 470.1 468.2 465.4 463.7 461.9 458.8 455.7 454.4 447.8 443.3 438.2 431.7 424.3 417.7 414.3 410.6 407.4 402.1 388.4 378.1 363.8 352.1 337 327.9 331 344.8 374.3 402.9 427.6 432.8 438.9 445.5 451.6 460.2 472.2 473.1 465.2 464.6 464 458.4 457.6 458.6 458.5 455.2 456.9 454.3 452.7 453 449.8 443.4 438.2 434.3 427.3 421 413.1 407 400.7 393.6 387.2 380.4 372.8 362.1 354.5 355.3 358.3 361 361.6 362.5 361.6 358.6 356.7 353.6 350.2 346.4 342.9 338.7 334.3 329.7 325.5 321.3 318 316.4 311.7 305.2 300.5 296 290.2 285.4 287.7 270.3 272.5 273 275.9 285.5 288.1 288.6 290.3 293.8 297.4 301.8 308.2 321.4 334.4 347.1 357.7 369.7 368.4 364.6 361.5 357.3 349.9
468.2 453.4 438.3 412.9 422 428.1 432.7 424.2 418.9 422.4 428.5 438.7 454.9 464.9 472.7 481.2 483.5 485.4 487.3 490.1 491.6 490.5 474.6 464.9 452 438.5 418.8 394.9 370.8 347.3 327.2 315.2 316.8 334.8 352.6 368.7 368.1 362.3 351.7 337.3 326.1 316.4 307 296.5 287.4 276.9 266.2 261.4 257.2 254.1 242.6 241.4 240 238.5 238.5 238 240.6 238.7 237.7 237.9 239.5 240.1 244.4 247.6 248.5 249.8 250.8 251.4 253 262.1 268.3 276.8 287.4 300.5 314.9 333.1 352.6 371.6 392.9 415.3 439.8 470.2 485.1 493.3 497.3 495.5 493.4 488.2 480.1 472.9 469.9 467 465.3 462.2 459.3 457.2 452.7 446.6 442.9 437.8 431.1 425.5 421.7 418.2 415.3 412.8 408.6 405.6 398.6 383 368.7 352.5 341.3 326.2 330.1 353.1 386.4 418.6 420.8 428.4 435.5 444.1 451.7 456.8 460.6 457.7 457.2 455 453.5 452 454.1 456.5 455.4 455.6 457.1 459.1 459.3 453.5 443.8 440.9 436.1 430 422.9 416.9 410.8 404.8 399.7 394.1 387.6 381.1 370.4 366.9 372 373.9 376.7 375.3 373.2 369.8 366.3 363.4 359.8 356.1 352.1 348 344 338.4 333.9 329.4 325.3 322 317.6 312.1 304.6 299.2 294.2 289.8 283.1 279.4 271.3 272 273.4 277.9 283.8 285.7 288.5 290.6 292.7 296.3 299.4 305.9 317.2 333.4 345.9 357.2 363 360.6 359.6 357.3 348.3 341.1
468.3 457.3 444.4 416.3 411.5 416.3 414.4 411.6 410.8 419.6 428 443.1 458 466.3 473.1 480.5 483.2 487.6 490.4 497 497.4 489.4 482.7 481.2 467.1 446.2 420.4 393.5 369.6 347.1 327.9 317.9 331.6 349.9 369.8 385.8 388.1 382.4 368.8 352.2 343.6 334.1 323.7 310.1 299.7 288.4 278.2 265.9 261.6 257.5 251.4 252 246.5 245.5 240 244.2 243.9 243.1 241.2 239.9 235.4 237.8 237.8 234.8 238.4 241.5 244.4 245.7 247.4 252.9 258.3 264 271.9 282.6 296.2 311.8 330.2 350.7 372.7 395.4 422.2 450.8 480.6 490.3 487 486 487.2 479.8 474.4 473.1 468 470.5 465.3 461 459 455.4 450 444.5 441 435.8 430.4 426.4 422.5 419.5 417.3 416.5 415.4 415.8 412.5 406.3 394.1 374.9 358.9 339.5 323.7 334 363.2 396.7 409 416 423.4 431.5 441.1 444.8 444.4 445.5 442.1 440.7 442.8 443.8 449.5 451.9 456.3 458.4 459.9 463.1 460.6 450.7 445.3 445.3 436.5 433.1 425.1 420.3 414.1 409.9 405.5 400 393.1 387.7 380.5 382.6 385 385.2 385.6 384.7 379.6 375.6 371.8 368.2 364.6 360.3 356.1 351 346.4 341.1 336 331.2 327.4 322.5 315.2 310 303.6 298.3 292 286.4 281.7 270.9 271.6 271.6 274.5 279.8 282.8 284.8 287.9 290.1 291.9 294.8 298.2 303.1 311.4 326.3 340.6 349.8 354.7 353.9 352.8 350.9 337.4 331.1
466.2 458.7 446.5 432.3 402.1 408.3 405.8 405.4 410 418.7 432 448.8 460.5 468.6 476.6 483.4 488.8 493.7 496.9 503.3 503.3 494.9 493.2 487 472.8 442.1 417.4 391.3 368.1 346.9 329.4 325.6 343.1 367.1 387.3 398.1 404.9 400.4 383.5 371.5 360.3 349.1 337.5 323.2 309.1 296 283.2 272.4 265.2 260.7 257.1 254 248.1 252.6 251.1 250.3 250 249.8 246.7 246.5 244.5 244.4 243.3 242.7 239.1 233.3 236.3 238.2 242.6 247.3 250.3 254.6 259.8 267.4 278.9 293.4 310.1 330.6 354.3 378.9 404.8 431.5 454 461 462.2 463.7 465 467.4 468.3 465.5 462.9 464.5 460.1 459.1 454.1 450.1 444.9 440.3 436.4 432.3 427.8 424.2 421.4 419.4 418.9 420.2 420.8 420.7 421.6 418.3 412.4 400.3 380.5 356.9 335.1 324.6 361.2 394.6 401 403.5 409.5 418.4 424.9 427 428.2 424.2 424.4 425.4 425.3 431.9 442.7 451.5 456.9 458.2 461.5 463 453.6 448.5 447.4 441.7 437.4 432.3 426.6 423 417.7 414.2 409.5 404.3 399.4 394.6 391.9 391.3 392.4 392.8 392.6 386.8 384 380.2 376.2 371.9 367.6 363.2 357.9 352.8 348.2 343 337.6 332.8 327.5 321.9 314.9 307.9 301 296.6 289.7 284.3 280.3 270.8 271.5 272.3 277.3 280.9 282.7 283.6 285.9 288.4 289.8 293 296.8 301 307.7 317.6 327.6 336.7 347 347.4 346.1 340 328.1 318.9
461 453.6 444.1 430.5 413.7 397.7 399.3 402.9 411 421.6 436.9 452.2 463.4 470.4 480.4 485.5 491.6 496.1 504 508.9 504.1 499.3 497.9 485.4 463.8 435.9 412.1 389.4 366.4 346.7 330.2 336.9 353.7 380.4 397.9 409.2 418.3 411.3 398.7 390.7 379.4 362.4 346.8 330.5 315.4 299.9 285.2 275.3 268.9 263.5 259.6 253.6 258.8 259.2 259.6 258.7 259 257.6 258.8 257.1 255.7 253.3 256.1 255.3 250.1 245.9 238.6 233.3 233.8 237.9 242.7 245.4 248.7 256.7 264.4 277.1 293.2 313.4 335.9 361.5 387.6 414.1 431 442.5 446 448.7 451.3 454.6 455.6 455.7 456 453.5 454.8 452 448.4 443 439.4 436 431.8 427.7 420.8 417 417 417.9 419.3 421.8 424.5 425.9 425.9 423.7 419 413.8 398.2 372.5 343.6 322.6 335.1 375.1 388.3 388.6 393.1 402.4 407.2 409.8 408.9 404.2 405.5 402.7 409.2 428.4 445.3 450.9 453.9 457.8 459.1 457.6 453.3 450.3 447.1 442.5 438.4 432.6 428 424.2 420 418.5 411.9 407.9 404.9 401.8 399.4 398 397 396.8 392.2 390 386.3 384 378.7 373.9 368 364.4 359.2 354.9 348.5 342.8 337.5 332.3 326.3 320.2 312.7 306.3 299.2 293.9 286.5 281.6 279 269.9 271.5 272.1 276.8 280.6 280.5 281.6 283.8 285.6 287.2 290.9 294.7 299.4 302.6 312 318.8 328.9 340.4 339.4 336.1 328.2 319.2 311.7
449.1 441 429.6 418.6 405.7 396.2 395 401.9 410.6 425.8 441.5 454.6 467.4 477.3 483.5 490.1 496 503.9 508.4 508.6 503.1 501.4 496.6 478.6 454 429.8 407.2 384.2 363.8 346.9 341.3 346.7 366.3 391.8 408.2 421.7 431.5 433.5 420.2 403.9 388.5 370.6 350.8 334.8 317.8 297.9 284.6 277.6 270.8 264.6 260.6 264.8 268.2 270.4 272.5 271.4 273.9 273.4 275 273.9 270.5 268.8 269.4 269 264.6 261 254.5 243.6 240.7 237.2 233.7 238.4 239.4 246.2 254.4 265.3 280.2 298.2 321.3 343.6 368.7 392.2 408.7 419.7 428.4 436.1 440.2 443.5 444.7 444.1 445.2 447.8 446.5 444.7 440.7 437.3 432.5 428.5 424.9 413.9 406.7 409.5 412.7 415.6 418.1 422.9 426.8 429.3 429.3 428.8 424.3 418.9 410.5 383.9 355.2 332 316.8 345.4 369.2 375 375.9 388.1 395 395.7 386.8 381 383.6 397.7 412.9 431.2 446.4 449.5 457.6 461.6 458.8 457 454.1 450 445.1 440.2 436.2 430.9 428 425.2 422 417.6 414.7 411.9 409.7 406.4 403.2 401.6 398.9 396.7 395.7 392.6 389.5 384.7 379.8 372.6 368.6 363.2 358.2 352.5 346.6 342.1 336.3 329.7 323.3 316.7 310 302.7 296.1 289.4 283.8 277.8 268.5 270.5 271.2 271.5 276 278.9 279.2 279.8 281.5 282.9 284.5 288 291.5 295.4 299.9 306.8 312.7 321.2 328.6 329 325.1 315.1 310.6 306.7
435 427.3 411.3 399.6 390.4 383.6 395 402.3 413.9 433.1 452.2 459.1 471.6 480.3 485.3 494.1 500 507.9 508.6 506.1 503 500.9 489.6 466.3 444.7 421.6 399.6 379.5 361.1 347.3 349.9 358.1 381.1 403.7 418.9 435.2 447.2 447.1 433.2 411.3 392.5 372.6 354.7 335.7 314.8 296.7 286.4 279.3 272.4 268.3 274.9 280.8 286.4 288.7 289.1 288.1 291.2 293.4 293.7 293.7 288.8 285.1 285.1 285.2 282 278.9 272 256.9 250.1 245.7 240 232.7 235.6 238.7 243 254.9 268.5 284.2 307.9 330.6 350.7 373.2 389.2 400.5 412 421.4 426.7 430.6 432.5 435.9 436.6 437.7 437.5 434.9 431.2 429.1 423.4 418.1 408.5 397.1 392.4 401.2 408.8 413.8 418.5 424.1 429.3 432.6 431.4 430.7 428.3 423.2 415.7 401.1 375.3 346.8 321.5 313 338.5 344.5 352.9 365.9 374.4 367.1 360.1 375.6 390.3 404.5 416.1 429.8 437.8 452.1 461 460.3 458.5 458.2 451.8 445.7 442.4 437.6 434.3 432.5 427.4 425.8 422.6 417.3 417.4 415.2 412.4 409.2 405.3 402.6 400.8 398.3 396.3 392.1 388.9 383 378 372 366.7 361.7 357.1 350.8 345.8 339.6 332.8 325.7 317.7 311.8 305.5 298.8 293.3 286.5 280.3 274.2 269.2 270.4 270.7 272.2 276.4 278.1 278.7 280.2 281.6 282.2 283.5 285.7 289.9 294 296.7 300.7 304.1 311.9 315.2 314.4 308.4 305.8 305.3 308.5
421.2 406.6 392.3 387.5 378.1 385.9 396.2 407.7 423.3 441 457.4 465 475.1 481.3 488.7 495.4 503.3 507.1 507.1 503.8 502.6 498.9 487.4 455.7 433.8 412.1 393.7 375.4 359.7 357.4 362.4 376.6 396.6 415.2 433.7 450.4 456.9 455.8 436.6 414.3 394.3 373.6 355.3 333.7 312.4 298.1 288.3 280 275.8 282.8 292.1 298.4 304.1 307.7 309.9 310.1 315.3 316.5 320 315.6 307.5 303.2 300 302.4 301.4 304.9 307.4 270.4 259.1 251.3 246 242.8 236.1 234.2 235.7 243.3 256.9 271.4 292.8 316.4 338 359.1 373.6 387.7 397 406.8 412.4 418.3 421.6 424.9 427.2 428.4 427.7 422.3 417.1 413.1 410.5 402 390 384.7 384 396.2 404.4 413.4 420.9 427.1 431.8 434.2 434 433.7 432.3 427.5 420.8 414.6 397.2 365.7 334.7 307.4 301.7 306.7 317.9 332.4 343.3 342.8 363.8 383 394.1 399.3 407.1 417.1 429.5 444.3 454 453.7 452.2 449.4 443.1 437.2 433.2 429.8 430.6 427.7 425.2 422.2 420 419.8 419 416.1 411.5 408.9 406.3 404.9 400.1 398.6 394.9 390.4 387.8 383.2 375 370.5 364 359.3 353.7 348.4 343.3 335.4 327.5 320.1 313.5 306.7 300.1 294.6 290.9 284.2 274.9 271.6 269.9 270.4 271.5 273.5 273.1 275.9 278.6 280.3 281.8 282.5 283.3 284.3 287.1 290.9 294.2 296.1 298.4 301.5 304.9 304.6 303 306.2 310 310.8
405.1 391.4 383.8 378.4 378.2 388.6 405.1 419.2 431.5 449.6 460.7 468 476.1 480.3 489.4 495.5 501.9 503.1 502.6 501.3 501.3 497.4 482.4 451.9 429.7 409 389.6 374.2 364.4 369 380 395 411.9 431.6 452.3 461.8 466.9 461.2 437.5 414.2 392.3 374.7 355.4 334.3 312.8 300.9 291.3 284.2 289.4 299.5 308.2 315.3 323.7 329.5 334 336.3 340.6 345.4 343 339.3 326.1 320.2 317.8 321.3 323.6 325.6 327.4 281.5 267.6 256.4 250.2 245.9 241 238.5 231.6 236.7 244.9 258.1 275.9 299.8 323.9 346.8 361.6 376.9 390.4 399 404.6 409.8 411.3 410.8 413.3 417.9 412.4 406.3 403.1 399.1 394.9 384.4 377.1 375.1 379.6 392.4 403.3 414 420.9 428.6 434.8 435.7 436.5 437.1 433.5 429.7 424.8 417 405.7 381.2 347.2 319.6 294.4 284.7 291.8 300.3 320.8 328.2 359.8 382 386.1 387.9 391.2 399 407.5 419.6 433.9 440.5 444.8 439 432.1 429.1 429.5 426.4 426.6 424.8 422.8 423 421.2 419.7 416.5 412.6 410.1 407.2 406.4 404.3 401.6 396.8 395.2 389.7 384.3 379.7 371.3 365.3 360.3 355 350.8 343.9 336.3 328.3 320.8 314 307.7 301.8 296.1 291.3 288.3 283 271.6 270.1 269.3 270.2 272.3 274.9 276 276.7 276.6 279.3 281 282.3 283.4 284 285.8 287.6 289.7 292.5 296.1 298.4 299 301.1 305.9 309.1 310.6 311.1
394 383.2 378.8 371.1 382.6 395.8 415.5 429.1 442.9 456.8 462.1 468.8 476.6 481.4 488 494 496.9 497.9 497.4 498.7 498.7 498.1 473.5 450.4 424.7 404.3 388.6 376.4 378.4 385.9 401.1 416.2 431.9 452.9 464.3 469.8 472.1 459.4 436.1 411.6 392 376 357.6 338 317.1 303.8 293 294.4 304.3 314.9 324.1 333 342 351.6 358.3 363.9 368.2 368 363.1 357.9 344.6 337.6 338.4 340.6 345.4 344.2 328.4 297.4 278.1 262.9 255.7 250.9 244.3 241.4 238.1 231.9 240.8 247.3 260.9 280.7 303.7 328.5 347 371.2 387.3 395.6 395.9 397 394.9 394.3 395.8 396.2 394.7 392.1 389.2 384.1 377.9 369.3 369 369 376.2 391.4 403 414.6 423 430.4 435.3 438.9 439 439 437.9 432.4 425.9 416.8 407.3 394.8 375 338.4 299.9 287.1 283.4 286.6 298.3 318.8 348.1 361.3 371 370.4 368.1 375.9 380.4 387.6 401.6 413.3 424.3 421.8 424.4 423.2 421.3 422.2 423 419.5 422.1 420.6 419.9 416.9 413.7 409.5 408.4 407.5 407.8 403.9 399.5 397.4 391.3 385 380 372 367.7 361.5 355.9 350.4 342.7 335.2 327.1 320.2 313.9 307.8 302.3 298 293.5 289.2 285.2 280.1 272.1 269.3 269 271.7 273.7 275.1 277.2 278.2 278.7 279.9 279.5 280.6 282.6 284.3 285.9 287.1 288.5 291.3 294.8 298.1 301.7 305.1 307.6 309.6 310.8 311.4
386.5 377.9 369.6 374.8 391.4 408.7 426.8 438.3 449.4 459.7 463.1 467.7 473.2 479.5 483.9 487.9 491.5 490 492.5 495.9 497.7 498.4 473.9 450.3 425.5 408.1 393 389.3 394.6 407.1 423.5 437.3 452.7 465.8 473 476.1 476.6 461.1 434.3 410.1 393.6 378 360.5 341.4 321.1 305.9 298.9 305.9 317.7 329.6 339.8 349.7 361.6 372.6 381.1 386.1 391.1 391 383.3 370.8 363.9 355.8 359.1 364.5 369.5 369.7 346 316.3 288.7 272.7 265.2 258.5 250.1 244.5 240.2 230.9 235.8 239.3 248.5 263.4 284.2 304.8 335.1 368.7 383.1 384.1 379.2 377.9 376.6 376.7 380.9 382.2 379.3 376.8 374.2 370 363 359.8 360 363.9 376.8 392.5 406.9 416.7 424.6 431.3 437 443.1 443.4 441 437.2 431.5 425.5 417.5 407.1 395.7 378.3 348.5 315.9 299.7 286.7 284.5 286.4 309.5 320.6 332.3 340.1 341.7 347.6 353.6 355.4 359.3 368.7 383.4 400.7 407.8 409.9 410.8 408.7 411.5 412.9 417.8 419.6 419.8 417.9 413 410 409.3 407.1 408.5 407.2 399.5 395.9 392.3 386.8 380.1 373.2 368.4 361.8 354.5 348.8 339.3 332.5 323.7 317.9 311.5 306.9 301.1 298.1 294.6 292 287.8 282.7 276.2 269.9 270.6 269.8 272.8 274.5 276.4 280.1 280.8 281.3 281.5 280.6 281.4 282.3 284.2 285.3 286.7 289.3 294.8 297.2 299.2 300.8 305.7 308.1 309.7 310.8 311.7
380.1 371.7 366.6 381.5 401.8 422.1 434.8 442.7 453.7 460.7 460.3 462 465.6 469.7 472.5 477.4 482.9 486.2 489.9 494.7 497.3 497.7 480.6 458.6 433.9 413.5 409.3 407.8 414.6 426.9 447 457.2 466.9 474.5 478.6 480.1 480.4 464.1 433.4 414.1 397.1 381.5 362.8 344 323.5 309 308.9 316.2 329.5 343.6 355.3 368.2 381.6 393.1 401.4 405 405.9 405.3 398.7 391.7 379.8 375.4 380.7 389.4 399.7 396.6 362.7 329.5 301.6 283.8 272.1 264.4 256.3 248.2 243.2 231.3 234.6 236.3 237.7 250.9 269 286.2 311.2 352 356.5 366 362.7 359.6 352.7 356.6 362.5 365.8 363.8 363.9 361.7 355.5 352.7 352.4 354.7 363.7 380.4 395.3 411.6 419.7 428 433.9 441.8 447.5 446.2 444.8 439.7 433.7 427.2 417.9 406.8 393.4 370.2 344 332.2 325.4 308.4 291.8 276.7 288.8 298.1 304.3 308.4 313.6 319.4 323.4 327.4 333 340 353.4 369.4 383.7 391.4 392.1 394 402.7 410.6 416.5 418.4 418.9 414.6 411.7 408.8 406 406.5 406.2 402.7 395.6 391.6 387.8 378.3 371.2 358.8 353.9 346.6 339.5 332.8 326.4 319.5 312.1 307.3 303.3 299.1 296.4 294.4 291.9 289.4 282.7 280.4 270.4 269.7 268.1 270.9 274.7 275.1 275.9 278.8 279.4 281.7 278.6 279.6 281.3 282.8 284.4 285.5 286.4 286.7 291.5 297 299.6 301.2 303.5 306.4 308.3 310.8 311.2
372 362.6 366.2 386.6 408.4 427.8 437.3 443.1 452.3 453.5 453.8 455 456.5 456.2 456.5 459.5 465.3 481.2 488 493.4 497.3 494.8 491.8 471.8 447.8 431.7 424.2 428.7 439.4 452.9 463.4 470.4 476 479.8 482.2 484.4 483.8 466.7 436.7 415.2 400.3 383.2 366 345.5 322.2 316.5 320.2 328.2 340.7 359 374 387.4 402.8 411.9 417.6 418.7 419 415.6 406 404.7 401.6 396.9 403.6 411.6 419.9 417.2 380.2 337.3 311.2 293.1 280.7 270.6 262.6 253.6 247.7 237.7 230.1 234.8 235.1 238.2 252.7 267.8 286.5 306.6 318.5 328 335.5 340 331.3 336.2 343 347.2 351.9 349.8 348.5 346.6 345.1 346.2 352.8 367.2 384.1 401.2 413.5 425.4 434.2 443.7 449.5 451 451.3 444.9 442.4 435.2 427.6 416.6 405.4 387.7 362.5 358.3 362.6 352.9 331.3 309 291.3 274.3 273.4 280.1 284 290.7 294.6 299.8 305 309.7 316.2 326.8 341.8 357.7 366.7 368.6 380.7 399.5 411.4 414.8 416.6 416.7 413.6 405.7 403.8 398 399.5 399.3 391.6 387.2 383.6 371.3 358.1 348.4 339.7 334.4 327.5 323.5 317.7 311.1 305.4 301.1 298.7 296.1 293.9 293.6 291.8 288.9 286.7 281 277.5 269.2 269.4 269.1 270.9 272 272.9 274.6 275.5 277.5 277.2 277.9 279.2 281.2 283.3 285.4 290 293.1 289.6 289.9 291.9 296.6 301.8 303.2 305.4 307 309.5 311.3
366.2 358.4 370.6 389.3 412.2 430.4 435.1 439.3 445.9 442.8 444 448.5 445.5 440.1 438.7 451 473.6 482.8 487.6 493.5 496.4 496.1 497.2 487.2 467.8 449.9 452.7 455.5 463.6 469.1 470.5 476.9 482.4 483.3 487.3 488.9 488.4 468.6 440.1 417.6 401.2 383.9 365.7 343.2 327.5 327.1 333.3 344 346.7 372.8 390.5 404.6 419.4 426.6 429.5 429.3 428.7 422.8 423.4 420.8 418.1 419.3 424.6 432.3 438.8 431 390.8 347.1 322.9 303.5 292.3 281.5 271.3 264 255.1 244 234.2 231.1 234.9 234.1 237.6 251.6 264.9 280.8 294.9 305.7 315.1 318 314.1 319.3 323.3 331.1 334.3 337.1 339 338.8 338.6 344.6 354.6 371.5 389.7 405.1 418.7 429.2 441.3 452.8 456.3 453.7 449.6 445.1 439.8 432.9 425.1 417.3 408.2 396.2 387 387.6 384.5 376.1 363.4 329.7 309 292.5 275.8 269.6 270.7 274.6 278.8 283.5 286.6 292.4 297.9 306.7 318.4 333.2 343 356.6 381.1 400 408.3 410.8 413.6 407.5 399.5 393.2 387.4 388.4 382.1 378.5 373.3 365 357.5 344.6 330.8 325.1 321.1 317.1 314.1 310.2 303.7 300.4 297.2 294 292.7 291.9 290.9 289.9 288.8 285.3 282.6 279.8 278.2 269 268.9 269 270.9 271.5 272.7 273.7 274.4 275.8 277.3 278 279.7 282.7 284.8 287.3 293.6 296.8 299.4 299.5 298.2 294.8 297.5 304 304.8 303.5 302.4 302.9
362.4 362 368.6 387.9 406.9 420.1 425.7 430.4 432.7 433 435.6 434.4 427.9 429.2 444.8 465.2 479.7 483.6 489.6 494 497.1 500.4 500.1 495.6 489.4 482.4 477.8 475.4 474.4 473.9 476 480 483.5 486.4 491.1 491.9 492.3 475 445.1 421.4 402 384.4 362.5 342.8 338.5 341.3 351.3 362.9 375.2 380.5 404.5 421.2 431.5 436.2 437.8 437.5 437.8 436.2 436.3 434.5 433 437.3 444.4 450.7 454.5 441.8 406.2 362.4 336.2 317.3 305.6 294 283.5 274.3 263.1 250 237.7 232.2 232.8 232.9 233.7 236.7 250.1 262.4 274.3 288 294.4 298.2 298.2 303.4 312.4 317.8 322.9 325.3 328.4 324.4 335.9 343.2 357.7 375.2 392 408.1 422.6 434.2 446.9 455.7 454.1 448.8 444.8 442.2 436.9 432 427.2 421.8 418 414.2 411.6 408.9 403.8 395.9 383.8 356.4 330 309 292.4 282.9 271.5 267.1 266.2 265.5 275.3 281.2 283.8 291.3 302.8 315.9 333.3 357.9 383 401.1 403.1 406.4 402.9 390.2 380.6 372.1 365.1 362.5 353.9 354.1 348.7 339 329.9 318.7 314.2 310 308.8 305.2 302.2 299 296.5 294.9 292.2 289.3 288.8 287.6 286.8 285.1 283.3 281.2 277.9 275.9 271.4 268.3 267.8 268.6 270.8 271.6 272.9 273 274.4 275.9 277.3 278.2 283 285.4 288.4 291 294.3 298.3 300.4 301.7 302.9 302 299 297.2 298.3 300.1 304.2 312.3
358.3 354.3 364.8 379 393.8 404.9 411.2 416.4 420.1 421.5 421.2 416 420.8 438.4 460.2 476.6 484.2 487.5 493.8 497.9 500.8 504.6 501.6 498.3 493.3 488.6 483.6 479 475.7 476 479.9 482.2 485.5 489.2 491.5 493.2 492.5 479.1 449 427.4 406.1 386.9 363.5 353.1 353.4 358.1 369.7 381.7 395.8 408.3 420.2 432.7 440.1 442.9 443.8 443.4 443.9 444.7 445 445.3 446.9 453.4 457.9 463.6 465.8 457.6 417.3 375.8 353 333.3 317.5 307.7 296.4 285.7 270.9 257.9 246.2 239.8 229.9 232.3 233.8 233.8 237.3 247.8 255.7 267.3 275 282.1 285.4 289.4 300.2 307.1 309.4 312.3 315.9 319.6 330.4 341.5 357.8 374.9 392.1 408.2 422.2 434.3 448.5 451.7 449.2 444.3 442.7 440.4 435.8 431.8 428.8 428 429.8 430.7 429.9 427.3 423.4 415.5 403.5 386.4 355.8 327.8 311.9 296.9 282.5 276.9 265.8 263.7 263.2 261.7 277.7 286 296.2 307.8 331.9 355.6 382.5 395 396.2 395.6 381.9 368.1 354.9 347.1 341.7 335.4 330.2 330.5 324.7 314.5 306.9 303.2 301.4 299.9 298.6 295.4 293.7 292.4 291.9 290.9 288 284.5 283.8 282.5 281.8 281.2 277.4 276.1 272.5 271.8 273.4 267.8 267.4 267.8 270.4 272 273.7 273.9 275.9 276.7 278 281.6 285.1 288.2 290.4 293 295.6 299.9 302 303.3 304.4 305 304.9 301.7 307.3 308.8 312.9 317.8
352.9 348.5 356.1 362.9 373.4 382.9 390.7 397.4 402.5 406.7 407.1 419.1 436.4 453.3 474.7 484.6 489.7 492.4 496.7 500.9 504.8 505.1 502.5 498.3 494 489.7 484.2 478.2 475.5 476 479.4 481.7 486.4 489.5 491.6 492.8 490.9 479.8 454.8 433.1 411.4 391.4 380.1 376.4 372.4 376.7 389.6 403.3 415.8 424.8 435 441.3 445.7 447.3 448.4 449.1 450.1 451.3 452.4 454.1 458.8 463.2 465.6 469 469.9 466.7 434.6 396.9 371.2 350.9 334.7 321.4 311.7 301.5 287.9 274.2 261.5 251 239.7 234.5 230 229.9 233 238.9 248.2 252.5 260 267.4 270.1 274.9 284.8 292.3 296.1 297.2 300.1 311.2 319.1 336.2 352.3 369.4 388.3 402.6 420 433.6 445.4 444.3 440.3 438.9 438.7 435.6 433.6 430.4 431.6 435.2 441.8 442.6 443.4 444.9 443.1 441.7 425.7 405.2 378.3 354.6 340.8 316.1 296.5 281.6 271.1 266.5 262.9 260.3 261.3 284.8 290.6 300.5 324.1 348.5 373 380.4 377.7 366 357.6 338.3 328.6 323.6 317.1 313.1 310.3 306.3 303.2 296.8 294 293.6 291.5 290 287.8 286.7 286.4 286.8 287.8 287.7 284.1 281.3 279.4 278.1 276.3 275.8 271.4 270.2 269.3 269.5 267.5 267.1 266.8 269.3 270.9 272.5 273.8 275.1 276.8 278.4 279.9 282.7 284.7 288.4 292.3 294.4 296.9 301 303.6 306 307.2 307.4 307.7 307.2 309.9 315.5 319.4 325.6
346.3 354 364.2 370.9 380.7 389 394.3 400.4 404.8 413.9 423.4 436.6 452.4 468.4 481.4 489.1 493.6 497.8 500.5 505.1 507.6 505.4 502.1 497 493.6 488.9 482.6 476.2 474.8 475.1 477.7 481.6 485.3 488.4 490.6 490 488.7 479.6 460.9 441.2 420.8 406.7 393.8 392.3 390.8 396.3 410.6 423.6 432.9 438.7 445.5 448.1 450.1 451.6 452.5 452.9 454.3 456 458.1 462.8 466.2 468.5 470.5 472.2 473.3 473.9 453.5 422.9 393 370.7 353 339.3 331.8 323.6 310.6 298.7 277 258.6 251.1 245.3 237.1 232.2 231.3 229.5 233 242.2 248.7 252.5 256.3 261.7 267.9 274.7 279.4 284.2 288.9 300.1 311 329.6 343.4 358.2 377.4 393.3 413.3 431.6 435.6 433.6 432.9 431.4 431.2 431.2 429.9 430.3 435.4 440.8 447.2 451.6 455.4 456.8 456.3 458.4 453.3 430 396.1 372.9 355.9 335.1 314.8 298.6 285.2 273.2 263.7 260.7 259.1 266.8 284.3 292.6 313.6 335.3 353.7 355.4 347.6 338 326 314.6 307.4 300.3 296.7 295.5 293 289.1 286.7 285.8 286.2 285.4 283.4 281.3 279.4 277.8 279 281.7 283.2 282.9 280.7 279.6 278.4 276.2 274.6 272 270.1 268.7 268 267.8 267.2 266.8 266.4 268.5 270.8 272.9 274.9 277.5 278.9 280.1 281 284.6 286.9 289.3 292 295.6 298.5 302 306.2 308.9 309.9 310.3 310.1 309.6 312.7 323.3 330.5 333.9
346.1 364.8 376.8 385.2 399.3 408.5 415.9 424 429.3 435.2 446 456.5 468 480.5 487.1 493.2 499.1 502.8 504.4 506.7 507.1 503.7 499.6 496 492.2 488.3 480.5 474.8 473.5 473.9 476.1 479.1 482.1 484 486.4 487.1 487.1 481 468.1 451.4 436.3 421.6 409.4 405.6 410.1 419.3 432.5 442.3 447.6 450.9 453.2 453.6 453.9 455.1 455.5 455.6 457.4 459.5 462.2 465.2 468 469.8 472 474 474.5 475.2 474.8 457.7 423.1 395 374 363 356.1 349.6 337.1 327.3 295.7 279.3 268.7 260.9 250.6 240.7 236.8 232.5 229.3 232 235.9 241 246.5 250.9 254 258.5 261.9 267.8 277.4 286.3 300.4 317.2 329.4 344.1 361.1 381.2 402.2 423.4 423.2 421.2 420.7 422.1 420.4 422.6 425.7 431.6 437.6 444.3 450.3 458.1 461.1 462.6 465.1 468.5 467.9 446 412.8 384.3 362 342.9 322.9 312 295.7 280.7 266.6 259.3 258.3 261.7 281 288 303 320.4 333.7 331.5 323.3 313.4 301.8 294.5 287.8 285 282.5 281.4 280.1 279.6 279 278.8 277.5 277.5 276.6 270.5 258.5 258.5 270.9 275.9 278.7 279.3 278.9 278.7 272.8 277.4 276 272.8 269.4 268.3 268 267.5 266.8 266.6 266.4 269.2 270.3 273.7 275.9 277.3 278.8 280.3 281.8 283.8 288.4 290.2 292.6 296.6 301.1 304.9 307.9 310.3 311.4 312.1 312 312.3 323 332.5 338.1 337.5
355.4 374.8 391 407.1 419.3 428.6 438.6 447.1 450 460 466.3 472.2 480.6 489.7 495.4 499.6 502.7 505.2 506.4 506.8 504.4 500 497.2 493.9 490.9 485.7 477.6 473.7 472.2 472.3 472.5 473.9 475.4 478.6 481 482.9 483.6 479.8 472.4 460.5 448.8 437.3 434.7 431.8 435.2 440.8 448.9 454.9 457.5 459.1 458.3 457.9 457.7 457.4 457.7 457.9 459.8 461.8 464 467.5 469.2 470.9 472.9 474.8 475.5 476.1 477.2 476.7 452 417.2 400 390.3 383.4 377.6 367.1 352.9 339.3 306.4 290.7 280 268.3 257.2 250.8 242 234.8 231.4 229.9 231.4 233.3 240.1 244 249.5 252.2 250.7 263.6 271.7 284.2 300.1 314.3 329 346.4 367.4 388 402.4 406.2 406.1 406.8 406.4 408.2 414.2 420.4 428.1 437.1 446.8 454.5 460.9 464.6 467.7 468.3 471.7 469.2 436.4 406 383.5 360.2 341.3 326.2 309.3 299.2 287.6 271.4 259.7 257.4 257.9 274.3 282.5 293.1 305.7 316.3 310.5 303.3 293.7 286 281.3 277.7 274.5 273.1 272.9 273.4 272.2 271.9 271.4 270.4 270.4 260.7 264 266.2 267.4 267.8 270.3 274.2 277.9 278.6 278.7 279.8 279.5 277.5 273.8 271.4 267.4 267.2 267.2 266.5 266.3 266.1 268.3 275 279.1 281.6 283.1 280.3 281.6 283.2 284.9 286.7 291.2 294.6 299.1 303 306.1 309.3 311.9 313.5 313.9 314.7 316.6 331.8 340.3 340.5 341
362.6 384.2 404.7 422.5 431.7 449.2 456.4 459.7 463.4 470.2 477.9 483.3 491.4 498 501.4 503.1 504 505.8 506.7 504.3 498.2 497.2 495 491.3 487.9 482.1 474.5 471 471 470.5 470 469.8 470.9 473.1 475.4 477.6 476.9 476.7 472.2 464.3 458 453.8 454.1 452.4 453.6 457.2 463 465.2 464.6 463.7 462 460.9 460.5 461.1 460.2 459.8 461.3 462.6 464.8 466.8 469 471.4 473.5 475.1 477 478.3 479.4 480.6 467 448.4 430.6 420.8 412.8 404.1 391.9 376 356.1 336.2 314.1 300.1 286.8 274 266.8 258.3 251.6 244.2 238 231.9 228.3 231 232.1 235.8 243.1 245.2 249.8 258.7 266.3 279.4 296.3 313.9 332.2 352.5 372 382 386.5 386.8 389.7 393 399.7 405.5 414.5 424.2 434.5 445.3 454.4 461.7 464.6 469.1 468 472 454.2 418.4 393.3 374 351.3 333.8 317.9 303.1 293.6 286.5 276.9 260.9 257.2 255.9 266.7 273.8 284.6 293 293.2 294.3 287.9 282.7 277.6 272.1 268.6 266.8 264.9 265.9 267.3 264.8 262.7 258.7 258.4 258.2 257.9 260.5 259.4 259.8 260.8 269.5 274.6 277.7 279 280.7 281.9 281.4 277.9 274 271.6 269.3 266.5 266.4 266.3 266.1 267.1 271.9 278.4 282.3 282.9 283.2 282.5 285.8 286.9 286.7 287.9 291.3 296.4 300.2 303.7 306.9 310.1 313.2 315.4 316.2 317.9 323.2 338.5 343.1 345.2 346
367.4 390.5 411.9 429.4 443.4 453.9 460 463.1 469 474.4 483.5 489.7 495.1 500 503.7 504.2 505.5 505.8 503 499.8 495 494.3 491.4 487.9 482.9 477.3 472.8 469.6 467.7 465.7 465.8 465.1 467.2 468.3 469 468 470.1 471.3 469.1 465.5 462.3 462.3 462.8 461.5 463 465.6 469.3 470.5 468.4 466.9 465.4 464.1 464.3 464.1 461.7 461.2 461.6 462.2 463.6 465 467 470.8 473.4 475.1 478 479.4 480.8 484.1 488.1 490.3 468.6 453.7 446.4 435.8 415.4 396.5 375.9 354.6 336.6 322.6 308.6 294.9 286.3 278.4 270.3 261.2 255.1 246.8 238.9 235.9 233.4 229.7 227.3 226.9 231.5 243.3 253.1 265.2 278.2 296.2 315.5 336.1 352.3 366.7 370.8 376.1 380.9 385.5 392.2 398.5 406.7 418.3 430.2 441.6 450.8 460.2 465 467.7 467.8 458.7 433.1 403.9 380.7 361 341.7 322.9 307.6 295.4 288.9 281.4 272.8 260.8 256.5 255.5 261.6 267.4 271.7 276.2 281.3 279.8 275.5 271.4 267.1 263.2 263 260.9 260.1 257.4 255.9 255 256.9 257.2 257.6 257.2 262.8 265.3 259.4 260.1 261.7 271.2 275.3 278.4 280.8 282.4 283.5 282.5 278.3 274 271.9 269.2 265.4 265.7 265.3 265.4 270 275.6 279.5 281.6 282 283.2 285.9 290 291.8 290.9 289.8 291.3 295.9 299.8 303.4 306.8 310.5 313.6 316.5 318.7 322.6 335.1 345.3 347 350.5 351.6
